# .PCD v0.7 - Point Cloud Data file format
VERSION 0.7
FIELDS x y z rgb
SIZE 4 4 4 4
TYPE F F F F
COUNT 1 1 1 1
WIDTH 137
HEIGHT 1
VIEWPOINT 0 0 0 1 0 0 0
POINTS 137
DATA ascii
-6.8485 7.0813 5.259 1.180104062e-38
-6.8823 7.1163 5.0754 1.180104062e-38
-6.8795 7.1134 4.6647 1.180104062e-38
-6.8741 7.1078 3.8808 1.180104062e-38
-6.8728 7.1064 3.6916 1.180104062e-38
-6.8715 7.1051 3.5049 1.180104062e-38
-6.8678 7.1012 2.9576 1.180104062e-38
-6.8665 7.1 2.779 1.180104062e-38
-6.8641 7.0975 2.427 1.180104062e-38
-6.8617 7.095 2.0809 1.180104062e-38
6.3915 -6.3207 1.7395 1.180104062e-38
-6.8611 7.0943 1.9099 1.180104062e-38
5.9818 -6.4674 1.5534 1.180104062e-38
6.4795 -5.8604 1.5405 1.180104062e-38
6.0188 -7.1191 1.6438 1.180104062e-38
-6.8606 7.0938 1.7401 1.180104062e-38
6.3226 -5.7185 1.3575 1.180104062e-38
5.7357 -6.7842 1.4146 1.180104062e-38
6.0376 -5.9707 1.3521 1.180104062e-38
-6.8602 7.0934 1.5714 1.180104062e-38
5.7659 -7.4711 1.3423 1.180104062e-38
5.6032 -6.6275 1.2344 1.180104062e-38
5.9422 -5.8764 1.1887 1.180104062e-38
6.601 -5.4559 1.2181 1.180104062e-38
-6.8597 7.0929 1.4035 1.180104062e-38
6.1423 -5.5553 1.0379 1.180104062e-38
6.9961 -5.276 1.0981 1.180104062e-38
5.8676 -5.8026 1.0341 1.180104062e-38
5.5975 -6.052 0.8942 1.180104062e-38
6.0831 -5.5018 0.8897 1.180104062e-38
5.8116 -5.7471 0.8865 1.180104062e-38
6.4249 -5.3104 0.9041 1.180104062e-38
7.8831 -5.4114 1.0371 1.180104062e-38
5.5446 -5.9947 0.7486 1.180104062e-38
6.0288 -5.4528 0.7452 1.180104062e-38
6.7964 -5.1254 0.7804 1.180104062e-38
5.3836 -6.3677 0.7645 1.180104062e-38
7.5346 -5.1722 0.8378 1.180104062e-38
-6.8583 7.0915 0.9044 1.180104062e-38
5.5142 -5.9619 0.6086 1.180104062e-38
5.3503 -6.3283 0.621 1.180104062e-38
7.405 -5.0833 0.6731 1.180104062e-38
-6.8579 7.091 0.7393 1.180104062e-38
5.4842 -5.9295 0.4704 1.180104062e-38
5.9661 -5.396 0.4685 1.180104062e-38
5.3175 -6.2896 0.4797 1.180104062e-38
-6.8574 7.0905 0.5745 1.180104062e-38
5.1894 -6.7241 0.3532 1.180104062e-38
5.4629 -5.9064 0.3345 1.180104062e-38
5.9441 -5.3761 0.3332 1.180104062e-38
6.6686 -5.029 0.3473 1.180104062e-38
5.2603 -7.4829 0.3803 1.180104062e-38
5.293 -6.2606 0.3409 1.180104062e-38
5.6804 -5.6174 0.3322 1.180104062e-38
-6.857 7.0901 0.4101 1.180104062e-38
5.177 -6.708 0.2113 1.180104062e-38
5.4534 -5.8961 0.2003 1.180104062e-38
6.6551 -5.0188 0.2079 1.180104062e-38
5.2328 -7.4437 0.2269 1.180104062e-38
5.2826 -6.2483 0.2041 1.180104062e-38
5.671 -5.6082 0.1989 1.180104062e-38
6.2533 -5.1685 0.2023 1.180104062e-38
7.2293 -4.9626 0.2187 1.180104062e-38
6.6416 -5.0087 0.0691 1.180104062e-38
5.2056 -7.405 0.0752 1.180104062e-38
5.2724 -6.2362 0.0679 1.180104062e-38
5.6617 -5.599 0.0662 1.180104062e-38
6.2422 -5.1593 0.0673 1.180104062e-38
7.2047 -4.9458 0.0726 1.180104062e-38
-6.8561 7.0891 0.082 1.180104062e-38
5.4439 -5.8859 -0.0666 1.180104062e-38
5.9244 -5.3583 -0.0664 1.180104062e-38
6.6414 -5.0085 -0.0691 1.180104062e-38
5.2054 -7.4048 -0.0752 1.180104062e-38
5.2723 -6.2361 -0.0679 1.180104062e-38
5.6617 -5.5989 -0.0662 1.180104062e-38
-6.8556 7.0887 -0.082 1.180104062e-38
5.4533 -5.896 -0.2003 1.180104062e-38
5.9341 -5.3671 -0.1995 1.180104062e-38
6.6549 -5.0187 -0.2079 1.180104062e-38
7.229 -4.9625 -0.2187 1.180104062e-38
-6.8552 7.0882 -0.2459 1.180104062e-38
5.4627 -5.9062 -0.3345 1.180104062e-38
5.9439 -5.376 -0.3332 1.180104062e-38
6.6684 -5.0289 -0.3473 1.180104062e-38
5.2598 -7.4821 -0.3803 1.180104062e-38
5.2928 -6.2603 -0.3409 1.180104062e-38
5.6802 -5.6173 -0.3322 1.180104062e-38
6.2642 -5.1775 -0.3379 1.180104062e-38
7.2538 -4.9795 -0.3658 1.180104062e-38
5.2211 -6.7652 -0.4977 1.180104062e-38
5.9658 -5.3957 -0.4685 1.180104062e-38
5.3446 -7.6028 -0.5413 1.180104062e-38
5.3172 -6.2892 -0.4797 1.180104062e-38
5.7008 -5.6376 -0.467 1.180104062e-38
6.2898 -5.1986 -0.4753 1.180104062e-38
7.3235 -5.0273 -0.5174 1.180104062e-38
-6.8543 7.0873 -0.5743 1.180104062e-38
5.5138 -5.9615 -0.6085 1.180104062e-38
5.9969 -5.4238 -0.6059 1.180104062e-38
5.7302 -5.6668 -0.6039 1.180104062e-38
6.3249 -5.2277 -0.6149 1.180104062e-38
7.4041 -5.0827 -0.673 1.180104062e-38
-6.8538 7.0868 -0.7388 1.180104062e-38
5.3075 -6.8771 -0.7964 1.180104062e-38
6.7954 -5.1246 -0.7803 1.180104062e-38
5.3831 -6.3671 -0.7644 1.180104062e-38
-6.8534 7.0863 -0.9038 1.180104062e-38
5.5969 -6.0512 -0.8941 1.180104062e-38
6.8935 -5.1987 -0.9365 1.180104062e-38
5.4442 -6.4394 -0.9146 1.180104062e-38
-6.8529 7.0859 -1.0692 1.180104062e-38
5.6539 -6.1129 -1.0435 1.180104062e-38
6.1415 -5.5546 -1.0377 1.180104062e-38
5.8669 -5.8019 -1.034 1.180104062e-38
6.4917 -5.3655 -1.0554 1.180104062e-38
5.7622 -7.4663 -1.3415 1.180104062e-38
5.7322 -6.1976 -1.2008 1.180104062e-38
6.2208 -5.6264 -1.193 1.180104062e-38
7.1716 -5.4083 -1.2776 1.180104062e-38
5.6018 -6.6258 -1.2341 1.180104062e-38
6.5996 -5.4547 -1.2178 1.180104062e-38
-6.852 7.0849 -1.4019 1.180104062e-38
5.8297 -6.303 -1.3671 1.180104062e-38
7.5945 -5.7273 -1.5147 1.180104062e-38
5.7337 -6.7819 -1.4142 1.180104062e-38
6.0364 -5.9695 -1.3519 1.180104062e-38
6.7301 -5.5626 -1.3904 1.180104062e-38
-6.8515 7.0845 -1.5694 1.180104062e-38
6.4775 -5.8586 -1.54 1.180104062e-38
6.0149 -7.1145 -1.6427 1.180104062e-38
6.9568 -5.7499 -1.5914 1.180104062e-38
-6.8511 7.084 -1.7377 1.180104062e-38
6.2674 -6.7762 -1.7862 1.180104062e-38
-6.7689 6.999 -2.3933 1.180104062e-38
12.3797 6.9647 -4.2525 1.180104062e-38
11.9506 6.0389 -4.2524 1.180104062e-38
