# .PCD v0.7 - Point Cloud Data file format
VERSION 0.7
FIELDS x y z rgb
SIZE 4 4 4 4
TYPE F F F F
COUNT 1 1 1 1
WIDTH 79
HEIGHT 1
VIEWPOINT 0 0 0 1 0 0 0
POINTS 79
DATA ascii
-3.6026 7.331 1.3007 1.180104062e-38
-3.5989 7.3236 1.1607 1.180104062e-38
9.3699 -6.4321 1.4242 1.180104062e-38
9.4514 -5.8864 1.2077 1.180104062e-38
9.1343 -6.2704 1.2017 1.180104062e-38
10.032 -5.6439 1.2485 1.180104062e-38
8.8196 -6.6512 1.0127 1.180104062e-38
9.2819 -5.7808 1.0025 1.180104062e-38
-3.5881 7.3015 0.7458 1.180104062e-38
8.9141 -7.3677 1.0602 1.180104062e-38
8.9809 -6.1651 0.9987 1.180104062e-38
9.1504 -5.6989 0.8078 1.180104062e-38
-3.5845 7.2943 0.6091 1.180104062e-38
8.685 -7.1783 0.8444 1.180104062e-38
9.6003 -5.4011 0.8255 1.180104062e-38
8.5986 -6.4845 0.6273 1.180104062e-38
9.0617 -5.6437 0.6218 1.180104062e-38
10.2033 -5.156 0.6658 1.180104062e-38
8.5705 -7.0837 0.6476 1.180104062e-38
8.7789 -6.0264 0.6202 1.180104062e-38
8.8239 -7.9807 0.4947 1.180104062e-38
8.9918 -5.6002 0.4405 1.180104062e-38
10.0421 -5.0745 0.4678 1.180104062e-38
-3.5774 7.2798 0.3373 1.180104062e-38
8.4716 -7.002 0.457 1.180104062e-38
8.7116 -5.9802 0.4394 1.180104062e-38
8.4816 -6.3963 0.2649 1.180104062e-38
8.9459 -5.5716 0.2628 1.180104062e-38
9.35 -5.2602 0.2675 1.180104062e-38
8.5487 -7.7319 0.0958 1.180104062e-38
8.3592 -6.9091 0.0901 1.180104062e-38
8.6306 -5.9246 0.087 1.180104062e-38
9.3028 -5.2337 0.0887 1.180104062e-38
8.5076 -7.6947 -0.0953 1.180104062e-38
8.8933 -5.5388 -0.0871 1.180104062e-38
9.8618 -4.9834 -0.0918 1.180104062e-38
8.3422 -6.895 -0.09 1.180104062e-38
8.6164 -5.9149 -0.0869 1.180104062e-38
8.8788 -5.5297 -0.2609 1.180104062e-38
8.6023 -5.9052 -0.2602 1.180104062e-38
8.8934 -5.5389 -0.4356 1.180104062e-38
9.8656 -4.9853 -0.4596 1.180104062e-38
9.2859 -5.2242 -0.443 1.180104062e-38
8.5708 -7.7518 -0.6731 1.180104062e-38
8.3614 -6.9109 -0.6318 1.180104062e-38
8.6307 -5.9246 -0.6097 1.180104062e-38
8.4842 -6.3983 -0.7963 1.180104062e-38
8.9474 -5.5725 -0.7899 1.180104062e-38
9.9656 -5.0359 -0.8368 1.180104062e-38
8.4189 -6.9584 -0.8185 1.180104062e-38
9.3549 -5.263 -0.8044 1.180104062e-38
8.9944 -5.6017 -0.9714 1.180104062e-38
10.0679 -5.0876 -1.0342 1.180104062e-38
9.4128 -5.2956 -0.9901 1.180104062e-38
9.0692 -5.6484 -1.1589 1.180104062e-38
10.2558 -5.1825 -1.2464 1.180104062e-38
-3.5523 7.2287 -0.8736 1.180104062e-38
8.5941 -7.1032 -1.2094 1.180104062e-38
9.5107 -5.3506 -1.1836 1.180104062e-38
9.1616 -5.7059 -1.3526 1.180104062e-38
8.7313 -7.2166 -1.4195 1.180104062e-38
8.8526 -6.676 -1.5771 1.180104062e-38
9.3083 -5.7973 -1.5598 1.180104062e-38
9.0056 -7.4434 -1.6618 1.180104062e-38
9.5115 -5.9238 -1.7843 1.180104062e-38
-3.5514 7.2268 -1.2822 1.180104062e-38
9.1858 -6.3057 -1.7742 1.180104062e-38
10.1893 -5.7324 -1.8617 1.180104062e-38
9.5049 -6.5248 -2.0329 1.180104062e-38
-3.5508 7.2256 -1.558 1.180104062e-38
-3.5505 7.225 -1.6971 1.180104062e-38
-3.5495 7.223 -2.1207 1.180104062e-38
-3.5492 7.2224 -2.2642 1.180104062e-38
-3.47 7.0612 -2.6434 1.180104062e-38
-3.8303 6.9895 -2.6779 1.180104062e-38
-3.8202 6.971 -2.8187 1.180104062e-38
-3.4426 7.0055 -2.9147 1.180104062e-38
-3.81 6.9524 -2.9604 1.180104062e-38
-3.413 6.9452 -3.0371 1.180104062e-38
