# .PCD v0.7 - Point Cloud Data file format
VERSION 0.7
FIELDS x y z rgb
SIZE 4 4 4 4
TYPE F F F F
COUNT 1 1 1 1
WIDTH 82
HEIGHT 1
VIEWPOINT 0 0 0 1 0 0 0
POINTS 82
DATA ascii
-3.5987 7.3232 1.4388 1.180104062e-38
9.5933 -6.5854 1.8529 1.180104062e-38
-3.5914 7.3084 1.1582 1.180104062e-38
-3.5878 7.301 1.0194 1.180104062e-38
9.0432 -6.2078 1.3746 1.180104062e-38
9.6725 -5.4417 1.2038 1.180104062e-38
8.6349 -6.5119 0.9915 1.180104062e-38
9.0983 -5.6665 0.9827 1.180104062e-38
10.2989 -5.2043 1.0579 1.180104062e-38
8.6253 -7.129 1.0259 1.180104062e-38
8.8123 -6.0493 0.9799 1.180104062e-38
10.1142 -5.1109 0.8492 1.180104062e-38
8.5098 -7.0336 0.8274 1.180104062e-38
8.7301 -5.9929 0.7935 1.180104062e-38
8.4374 -6.9737 0.6376 1.180104062e-38
8.6841 -5.9613 0.6135 1.180104062e-38
9.3733 -5.2734 0.6264 1.180104062e-38
8.4537 -6.3753 0.4402 1.180104062e-38
8.9175 -5.5539 0.4368 1.180104062e-38
-3.57 7.2647 0.3366 1.180104062e-38
8.3761 -6.923 0.4518 1.180104062e-38
9.3166 -5.2414 0.4445 1.180104062e-38
8.5287 -7.7138 0.2868 1.180104062e-38
8.8987 -5.5422 0.2614 1.180104062e-38
-3.5665 7.2575 0.2017 1.180104062e-38
8.3492 -6.9008 0.2701 1.180104062e-38
8.6216 -5.9184 0.2608 1.180104062e-38
8.4197 -6.3496 0.0876 1.180104062e-38
8.8841 -5.5331 0.087 1.180104062e-38
9.849 -4.9769 0.0917 1.180104062e-38
-3.5629 7.2504 0.0671 1.180104062e-38
8.3327 -6.8872 0.0898 1.180104062e-38
9.274 -5.2175 0.0884 1.180104062e-38
8.4976 -7.6856 -0.0952 1.180104062e-38
8.4236 -6.3526 -0.0877 1.180104062e-38
8.888 -5.5355 -0.087 1.180104062e-38
9.2788 -5.2202 -0.0885 1.180104062e-38
8.5389 -7.723 -0.2871 1.180104062e-38
8.4383 -6.3636 -0.2636 1.180104062e-38
8.9027 -5.5446 -0.2616 1.180104062e-38
8.3534 -6.9043 -0.2703 1.180104062e-38
8.6254 -5.921 -0.2609 1.180104062e-38
8.6514 -5.9389 -0.4363 1.180104062e-38
8.9759 -5.5902 -0.6159 1.180104062e-38
10.0163 -5.0615 -0.6536 1.180104062e-38
-3.5526 7.2292 -0.4691 1.180104062e-38
8.4533 -6.9868 -0.6388 1.180104062e-38
8.696 -5.9695 -0.6143 1.180104062e-38
9.3883 -5.2818 -0.6274 1.180104062e-38
8.5715 -6.4641 -0.8045 1.180104062e-38
9.0338 -5.6263 -0.7975 1.180104062e-38
8.7516 -6.0077 -0.7955 1.180104062e-38
9.4635 -5.3241 -0.8137 1.180104062e-38
8.6573 -6.5287 -0.9941 1.180104062e-38
9.1218 -5.6811 -0.9852 1.180104062e-38
10.3558 -5.233 -1.0637 1.180104062e-38
8.8341 -6.0643 -0.9823 1.180104062e-38
9.5695 -5.3837 -1.0066 1.180104062e-38
8.7755 -6.6179 -1.1922 1.180104062e-38
-3.5517 7.2274 -0.8735 1.180104062e-38
8.8557 -7.3195 -1.2462 1.180104062e-38
8.9405 -6.1373 -1.1763 1.180104062e-38
9.7167 -5.4665 -1.2093 1.180104062e-38
8.9416 -6.7432 -1.4034 1.180104062e-38
9.3892 -5.8476 -1.3862 1.180104062e-38
-3.5513 7.2268 -1.0091 1.180104062e-38
9.0785 -6.2321 -1.38 1.180104062e-38
9.226 -6.9577 -1.6436 1.180104062e-38
9.301 -6.3848 -1.6047 1.180104062e-38
-3.5507 7.2256 -1.282 1.180104062e-38
9.8317 -6.7491 -1.8989 1.180104062e-38
-3.5504 7.2249 -1.4195 1.180104062e-38
-3.5501 7.2243 -1.5577 1.180104062e-38
-3.5344 7.1923 -2.1116 1.180104062e-38
-3.8685 7.0592 -2.1211 1.180104062e-38
-3.4867 7.0953 -2.2243 1.180104062e-38
-3.8408 7.0086 -2.2486 1.180104062e-38
-3.4703 7.0619 -2.3557 1.180104062e-38
-3.8309 6.9904 -2.3865 1.180104062e-38
-3.4434 7.007 -2.6231 1.180104062e-38
-3.8109 6.954 -2.6642 1.180104062e-38
-3.413 6.9452 -2.744 1.180104062e-38
