# .PCD v0.7 - Point Cloud Data file format
VERSION 0.7
FIELDS x y z rgb
SIZE 4 4 4 4
TYPE F F F F
COUNT 1 1 1 1
WIDTH 106
HEIGHT 1
VIEWPOINT 0 0 0 1 0 0 0
POINTS 106
DATA ascii
-4.8239 7.1977 4.6256 1.180104062e-38
-4.8235 7.1972 4.4418 1.180104062e-38
-4.8231 7.1966 4.2611 1.180104062e-38
-4.8221 7.195 3.7362 1.180104062e-38
-4.8217 7.1946 3.5664 1.180104062e-38
-4.8214 7.194 3.3989 1.180104062e-38
-4.8207 7.193 3.0704 1.180104062e-38
-4.8204 7.1926 2.9091 1.180104062e-38
-4.8195 7.1911 2.4356 1.180104062e-38
-4.8188 7.1902 2.1276 1.180104062e-38
-4.8182 7.1893 1.8246 1.180104062e-38
8.7304 -6.5839 1.9281 1.180104062e-38
-4.8176 7.1884 1.5258 1.180104062e-38
8.2094 -6.191 1.6373 1.180104062e-38
8.0092 -6.6197 1.6546 1.180104062e-38
8.6238 -5.9199 1.6656 1.180104062e-38
7.7787 -7.0354 1.4918 1.180104062e-38
8.0043 -6.0363 1.426 1.180104062e-38
9.0428 -5.6319 1.5153 1.180104062e-38
-4.817 7.1875 1.2307 1.180104062e-38
7.6467 -6.3202 1.2432 1.180104062e-38
8.2092 -5.6353 1.2478 1.180104062e-38
-4.8167 7.1871 1.0842 1.180104062e-38
7.7681 -5.8582 1.0553 1.180104062e-38
8.5626 -5.3328 1.0942 1.180104062e-38
7.5628 -7.479 1.1537 1.180104062e-38
7.5392 -6.2313 1.0609 1.180104062e-38
8.0906 -5.5539 1.0644 1.180104062e-38
-4.8164 7.1866 0.9384 1.180104062e-38
7.3369 -6.6359 0.9069 1.180104062e-38
7.695 -5.8031 0.8836 1.180104062e-38
8.4537 -5.265 0.913 1.180104062e-38
7.3819 -7.3001 0.9518 1.180104062e-38
7.4668 -6.1714 0.8881 1.180104062e-38
9.2283 -5.1918 0.9707 1.180104062e-38
7.2602 -7.1798 0.7652 1.180104062e-38
9.0265 -5.0782 0.7761 1.180104062e-38
7.2135 -6.5243 0.5665 1.180104062e-38
7.5926 -5.7258 0.5539 1.180104062e-38
8.3075 -5.174 0.57 1.180104062e-38
7.1999 -7.1202 0.5898 1.180104062e-38
7.8989 -5.4223 0.558 1.180104062e-38
8.9383 -5.0286 0.5973 1.180104062e-38
7.1727 -6.4874 0.4021 1.180104062e-38
7.5538 -5.6966 0.3934 1.180104062e-38
8.2585 -5.1435 0.4045 1.180104062e-38
7.1419 -7.0628 0.4176 1.180104062e-38
7.3263 -6.0554 0.3952 1.180104062e-38
7.8569 -5.3935 0.3963 1.180104062e-38
-4.8153 7.1849 0.3596 1.180104062e-38
7.1569 -6.473 0.2407 1.180104062e-38
8.2388 -5.1312 0.2421 1.180104062e-38
7.1161 -7.0373 0.2496 1.180104062e-38
7.8415 -5.3829 0.2372 1.180104062e-38
8.8207 -4.9625 0.2524 1.180104062e-38
-4.815 7.1845 0.2157 1.180104062e-38
8.2233 -5.1215 0.0805 1.180104062e-38
7.0978 -7.0191 0.083 1.180104062e-38
7.3002 -6.0337 0.0787 1.180104062e-38
7.8281 -5.3737 0.0789 1.180104062e-38
8.2221 -5.1208 -0.0805 1.180104062e-38
7.8271 -5.373 -0.0789 1.180104062e-38
8.7937 -4.9473 -0.0839 1.180104062e-38
7.539 -5.6854 -0.2355 1.180104062e-38
7.3114 -6.043 -0.2366 1.180104062e-38
7.8403 -5.3821 -0.2372 1.180104062e-38
8.8188 -4.9614 -0.2523 1.180104062e-38
-4.8141 7.1832 -0.2156 1.180104062e-38
7.1698 -6.4847 -0.402 1.180104062e-38
7.5512 -5.6946 -0.3932 1.180104062e-38
8.2548 -5.1411 -0.4044 1.180104062e-38
7.3235 -6.053 -0.3951 1.180104062e-38
7.8537 -5.3913 -0.3961 1.180104062e-38
8.8522 -4.9802 -0.4223 1.180104062e-38
7.2104 -6.5214 -0.5662 1.180104062e-38
7.5895 -5.7235 -0.5536 1.180104062e-38
7.1955 -7.1157 -0.5894 1.180104062e-38
8.9323 -5.0252 -0.5969 1.180104062e-38
7.6286 -5.753 -0.716 1.180104062e-38
8.3532 -5.2024 -0.7375 1.180104062e-38
7.4003 -6.1165 -0.7195 1.180104062e-38
7.9379 -5.4491 -0.7215 1.180104062e-38
9.0153 -5.0719 -0.7752 1.180104062e-38
-4.8132 7.1819 -0.6479 1.180104062e-38
7.3303 -6.6299 -0.9061 1.180104062e-38
7.3706 -7.289 -0.9503 1.180104062e-38
9.2117 -5.1824 -0.969 1.180104062e-38
8.5542 -5.3276 -1.0931 1.180104062e-38
7.5441 -7.4605 -1.1508 1.180104062e-38
-4.8127 7.181 -0.9376 1.180104062e-38
7.8655 -5.9316 -1.2345 1.180104062e-38
8.7262 -5.4347 -1.2883 1.180104062e-38
-4.8124 7.1805 -1.0832 1.180104062e-38
7.756 -7.0149 -1.4875 1.180104062e-38
7.9897 -6.0253 -1.4234 1.180104062e-38
9.0125 -5.613 -1.5102 1.180104062e-38
8.3508 -5.7325 -1.4407 1.180104062e-38
8.1937 -6.1792 -1.6342 1.180104062e-38
-4.8118 7.1797 -1.3763 1.180104062e-38
-4.8112 7.1788 -1.6724 1.180104062e-38
-4.8109 7.1783 -1.8218 1.180104062e-38
-4.8106 7.1779 -1.9722 1.180104062e-38
-4.7942 7.1535 -2.1167 1.180104062e-38
-4.734 7.0637 -2.2406 1.180104062e-38
-4.7181 7.0399 -2.3844 1.180104062e-38
-5.1167 6.9445 -2.7395 1.180104062e-38
