# .PCD v0.7 - Point Cloud Data file format
VERSION 0.7
FIELDS x y z rgb
SIZE 4 4 4 4
TYPE F F F F
COUNT 1 1 1 1
WIDTH 98
HEIGHT 1
VIEWPOINT 0 0 0 1 0 0 0
POINTS 98
DATA ascii
-4.3218 7.1147 4.6234 1.180104062e-38
-4.3214 7.1141 4.4436 1.180104062e-38
-4.321 7.1134 4.2669 1.180104062e-38
-4.3196 7.111 3.5889 1.180104062e-38
-4.3192 7.1104 3.4258 1.180104062e-38
-4.3181 7.1086 2.9492 1.180104062e-38
-4.3171 7.107 2.4895 1.180104062e-38
-4.3165 7.1059 2.1908 1.180104062e-38
-4.3155 7.1043 1.7524 1.180104062e-38
-4.3152 7.1037 1.6085 1.180104062e-38
-4.3149 7.1032 1.4655 1.180104062e-38
8.7416 -6.5923 1.7434 1.180104062e-38
-4.3146 7.1027 1.3233 1.180104062e-38
-4.3142 7.1022 1.182 1.180104062e-38
8.4069 -6.9485 1.5513 1.180104062e-38
8.1877 -6.7673 1.3312 1.180104062e-38
9.7654 -5.4939 1.4041 1.180104062e-38
8.1215 -7.3454 1.1878 1.180104062e-38
8.1807 -6.1694 1.1114 1.180104062e-38
8.8222 -5.4945 1.1273 1.180104062e-38
8.0361 -6.642 1.1308 1.180104062e-38
8.4378 -5.7922 1.1101 1.180104062e-38
8.7244 -5.4336 0.9423 1.180104062e-38
-4.3133 7.1007 0.7617 1.180104062e-38
8.3584 -5.7378 0.9295 1.180104062e-38
8.0314 -6.0568 0.7538 1.180104062e-38
-4.313 7.1002 0.6226 1.180104062e-38
7.8654 -6.5009 0.7647 1.180104062e-38
8.2853 -5.6875 0.7531 1.180104062e-38
9.1606 -5.1537 0.7877 1.180104062e-38
8.5877 -5.3485 0.5893 1.180104062e-38
7.8218 -6.4648 0.591 1.180104062e-38
8.2427 -5.6583 0.5823 1.180104062e-38
9.0919 -5.115 0.6076 1.180104062e-38
7.7198 -6.9821 0.4328 1.180104062e-38
7.9488 -5.9945 0.414 1.180104062e-38
8.5416 -5.3198 0.4184 1.180104062e-38
8.0136 -7.9249 0.4686 1.180104062e-38
7.7787 -6.4293 0.4196 1.180104062e-38
7.9335 -5.9829 0.2478 1.180104062e-38
8.5237 -5.3086 0.2504 1.180104062e-38
9.8078 -4.9561 0.274 1.180104062e-38
-4.3121 7.0987 0.2071 1.180104062e-38
7.936 -7.8481 0.2783 1.180104062e-38
8.1852 -5.6188 0.2476 1.180104062e-38
8.9999 -5.0633 0.2575 1.180104062e-38
7.6754 -6.942 0.086 1.180104062e-38
7.9205 -5.9731 0.0825 1.180104062e-38
9.7634 -4.9337 0.0909 1.180104062e-38
7.8927 -7.8052 0.0923 1.180104062e-38
7.7481 -6.404 0.0835 1.180104062e-38
8.9796 -5.0519 0.0856 1.180104062e-38
7.6777 -6.9441 -0.086 1.180104062e-38
7.9222 -5.9744 -0.0825 1.180104062e-38
9.7691 -4.9366 -0.091 1.180104062e-38
7.8978 -7.8103 -0.0923 1.180104062e-38
7.7499 -6.4055 -0.0836 1.180104062e-38
8.1737 -5.6109 -0.0824 1.180104062e-38
7.6966 -6.9611 -0.2588 1.180104062e-38
7.9355 -5.9844 -0.2479 1.180104062e-38
9.8136 -4.959 -0.2742 1.180104062e-38
-4.3112 7.0972 -0.2071 1.180104062e-38
8.1872 -5.6202 -0.2477 1.180104062e-38
7.9544 -5.9987 -0.4142 1.180104062e-38
9.901 -5.0032 -0.4612 1.180104062e-38
-4.3109 7.0967 -0.3452 1.180104062e-38
8.0312 -7.9422 -0.4696 1.180104062e-38
8.2065 -5.6335 -0.4139 1.180104062e-38
9.0362 -5.0837 -0.4311 1.180104062e-38
7.787 -7.043 -0.6115 1.180104062e-38
7.9958 -6.0299 -0.5833 1.180104062e-38
8.5944 -5.3527 -0.5897 1.180104062e-38
10.0603 -5.0837 -0.6565 1.180104062e-38
7.8578 -7.1069 -0.794 1.180104062e-38
8.6432 -5.383 -0.7631 1.180104062e-38
-4.3103 7.0957 -0.6222 1.180104062e-38
7.8739 -6.5079 -0.7655 1.180104062e-38
8.2917 -5.6919 -0.7537 1.180104062e-38
8.1139 -6.119 -0.9317 1.180104062e-38
8.7374 -5.4417 -0.9437 1.180104062e-38
8.195 -6.1801 -1.1133 1.180104062e-38
8.8431 -5.5075 -1.13 1.180104062e-38
-4.3097 7.0946 -0.9004 1.180104062e-38
9.4877 -5.3377 -1.1808 1.180104062e-38
-4.3093 7.0941 -1.0402 1.180104062e-38
8.2086 -6.7846 -1.3345 1.180104062e-38
9.2466 -5.7588 -1.5494 1.180104062e-38
-4.309 7.0936 -1.1805 1.180104062e-38
8.4488 -6.9831 -1.5591 1.180104062e-38
8.7575 -6.0117 -1.5109 1.180104062e-38
-4.3087 7.0931 -1.3215 1.180104062e-38
-4.3084 7.0926 -1.4633 1.180104062e-38
-4.3078 7.0916 -1.7493 1.180104062e-38
-4.3075 7.091 -1.8937 1.180104062e-38
-4.3071 7.0905 -2.0392 1.180104062e-38
-4.2844 7.0532 -2.1745 1.180104062e-38
-4.2336 6.9694 -2.5898 1.180104062e-38
-4.2222 6.9507 -2.7324 1.180104062e-38
