# .PCD v0.7 - Point Cloud Data file format
VERSION 0.7
FIELDS x y z rgb
SIZE 4 4 4 4
TYPE F F F F
COUNT 1 1 1 1
WIDTH 250
HEIGHT 1
VIEWPOINT 0 0 0 1 0 0 0
POINTS 250
DATA ascii
0.1955 -5.8485 1.6464 1.180104062e-38
-0.0643 -5.7687 1.6232 1.180104062e-38
0.4902 -6.2731 1.7704 1.180104062e-38
-0.3122 -5.5983 1.4775 1.180104062e-38
-0.573 -5.6962 1.5085 1.180104062e-38
-0.0622 -5.5841 1.4715 1.180104062e-38
0.4546 -5.8173 1.5375 1.180104062e-38
-0.829 -5.6842 1.412 1.180104062e-38
-0.3047 -5.4645 1.3453 1.180104062e-38
-0.5565 -5.5315 1.3665 1.180104062e-38
0.4385 -5.6112 1.3834 1.180104062e-38
-0.2993 -5.3668 1.2268 1.180104062e-38
0.1804 -5.3947 1.232 1.180104062e-38
0.7003 -5.6858 1.3076 1.180104062e-38
-1.1172 -5.8286 1.3546 1.180104062e-38
-0.0597 -5.3582 1.2231 1.180104062e-38
-0.294 -5.2732 1.1134 1.180104062e-38
0.684 -5.5539 1.1797 1.180104062e-38
-1.0832 -5.6511 1.2131 1.180104062e-38
-0.5353 -5.3211 1.1274 1.180104062e-38
0.4211 -5.3888 1.1395 1.180104062e-38
-1.4164 -5.9436 1.1824 1.180104062e-38
0.1751 -5.2381 1.0142 1.180104062e-38
-1.0567 -5.5128 1.0862 1.180104062e-38
0.9616 -5.701 1.1188 1.180104062e-38
-1.3654 -5.7295 1.0386 1.180104062e-38
-0.7708 -5.2848 0.9417 1.180104062e-38
-0.288 -5.1647 0.9121 1.180104062e-38
0.6635 -5.3869 0.957 1.180104062e-38
-0.5229 -5.1982 0.9212 1.180104062e-38
-0.0575 -5.1594 0.9098 1.180104062e-38
-1.3402 -5.6238 0.9206 1.180104062e-38
-0.7622 -5.2262 0.841 1.180104062e-38
0.6552 -5.3201 0.8535 1.180104062e-38
1.2733 -5.9255 0.9651 1.180104062e-38
-1.3173 -5.5276 0.8082 1.180104062e-38
-0.7548 -5.1756 0.7439 1.180104062e-38
-0.2829 -5.0732 0.7227 1.180104062e-38
-0.0565 -5.0692 0.7211 1.180104062e-38
0.916 -5.4303 0.7833 1.180104062e-38
-1.3015 -5.4615 0.7036 1.180104062e-38
-0.7504 -5.1451 0.6516 1.180104062e-38
0.1694 -5.0653 0.6351 1.180104062e-38
1.2195 -5.6749 0.7274 1.180104062e-38
-1.6846 -5.8915 0.7679 1.180104062e-38
-1.0086 -5.2617 0.6714 1.180104062e-38
-0.5101 -5.0701 0.6386 1.180104062e-38
-0.0562 -5.0422 0.6319 1.180104062e-38
0.4008 -5.1289 0.6447 1.180104062e-38
-1.29 -5.4129 0.6036 1.180104062e-38
-0.746 -5.115 0.5607 1.180104062e-38
-0.2799 -5.0191 0.5452 1.180104062e-38
0.1685 -5.0385 0.5468 1.180104062e-38
-0.5073 -5.0429 0.5497 1.180104062e-38
0.9003 -5.3371 0.5871 1.180104062e-38
-0.7417 -5.0855 0.4712 1.180104062e-38
-0.2784 -4.9926 0.4584 1.180104062e-38
0.1676 -5.012 0.4597 1.180104062e-38
-1.6382 -5.729 0.5463 1.180104062e-38
-0.0556 -4.9893 0.4574 1.180104062e-38
0.3963 -5.0713 0.4663 1.180104062e-38
-1.2675 -5.3187 0.4097 1.180104062e-38
-0.7377 -5.0583 0.3831 1.180104062e-38
0.6313 -5.126 0.387 1.180104062e-38
-0.9882 -5.1556 0.3934 1.180104062e-38
-0.0553 -4.9674 0.3723 1.180104062e-38
0.8884 -5.2669 0.4003 1.180104062e-38
-1.2626 -5.2983 0.3172 1.180104062e-38
0.1665 -4.9812 0.2903 1.180104062e-38
0.6301 -5.1157 0.3002 1.180104062e-38
1.1772 -5.4784 0.3264 1.180104062e-38
-1.6023 -5.6037 0.3395 1.180104062e-38
-0.9861 -5.1442 0.3051 1.180104062e-38
-0.5014 -4.9845 0.2918 1.180104062e-38
0.3936 -5.0369 0.2943 1.180104062e-38
1.5712 -5.9974 0.3611 1.180104062e-38
-1.2592 -5.2838 0.2259 1.180104062e-38
-0.7351 -5.04 0.2118 1.180104062e-38
0.1663 -4.9729 0.2069 1.180104062e-38
0.6288 -5.1054 0.2139 1.180104062e-38
-1.5957 -5.5804 0.2413 1.180104062e-38
-0.984 -5.1333 0.2173 1.180104062e-38
-0.0552 -4.9511 0.2059 1.180104062e-38
0.3929 -5.028 0.2097 1.180104062e-38
0.8843 -5.2428 0.2211 1.180104062e-38
1.5601 -5.9547 0.2559 1.180104062e-38
-1.2558 -5.2696 0.1351 1.180104062e-38
-0.7337 -5.0308 0.1268 1.180104062e-38
-0.2758 -4.9456 0.1235 1.180104062e-38
0.166 -4.9648 0.1239 1.180104062e-38
-1.5891 -5.5573 0.1441 1.180104062e-38
-0.4998 -4.9678 0.1245 1.180104062e-38
-0.0551 -4.943 0.1233 1.180104062e-38
0.3922 -5.0192 0.1256 1.180104062e-38
0.8825 -5.2319 0.1323 1.180104062e-38
-1.2531 -5.258 0.0449 1.180104062e-38
-0.7324 -5.0218 0.0422 1.180104062e-38
0.1657 -4.9566 0.0412 1.180104062e-38
1.168 -5.4354 0.0462 1.180104062e-38
-0.055 -4.9349 0.041 1.180104062e-38
0.3915 -5.0104 0.0418 1.180104062e-38
0.8807 -5.2212 0.044 1.180104062e-38
-1.2532 -5.2585 -0.0449 1.180104062e-38
-0.7325 -5.0221 -0.0422 1.180104062e-38
-0.2753 -4.9378 -0.0411 1.180104062e-38
0.6263 -5.0854 -0.0426 1.180104062e-38
-1.5827 -5.5352 -0.0478 1.180104062e-38
-0.9799 -5.1121 -0.0433 1.180104062e-38
-0.499 -4.9599 -0.0414 1.180104062e-38
-0.055 -4.9351 -0.041 1.180104062e-38
0.3915 -5.0107 -0.0418 1.180104062e-38
-1.2559 -5.27 -0.1351 1.180104062e-38
-0.7338 -5.0312 -0.1268 1.180104062e-38
0.166 -4.965 -0.1239 1.180104062e-38
0.6276 -5.0956 -0.128 1.180104062e-38
-0.4998 -4.9681 -0.1245 1.180104062e-38
-0.0551 -4.9432 -0.1233 1.180104062e-38
0.8826 -5.2322 -0.1323 1.180104062e-38
1.5493 -5.9137 -0.1525 1.180104062e-38
-0.7351 -5.0403 -0.2118 1.180104062e-38
-0.2762 -4.9541 -0.2063 1.180104062e-38
0.6288 -5.1058 -0.2139 1.180104062e-38
-0.984 -5.1337 -0.2173 1.180104062e-38
-0.0552 -4.9514 -0.2059 1.180104062e-38
0.3929 -5.0284 -0.2097 1.180104062e-38
0.8844 -5.2431 -0.2211 1.180104062e-38
-1.2627 -5.2986 -0.3173 1.180104062e-38
-0.2767 -4.9623 -0.2895 1.180104062e-38
-1.6025 -5.6043 -0.3395 1.180104062e-38
-0.5015 -4.9848 -0.2918 1.180104062e-38
-0.0553 -4.9595 -0.2889 1.180104062e-38
1.5716 -5.9989 -0.3612 1.180104062e-38
-1.2679 -5.3202 -0.4099 1.180104062e-38
-0.7378 -5.0586 -0.3831 1.180104062e-38
0.1668 -4.9897 -0.3741 1.180104062e-38
0.6314 -5.1264 -0.3871 1.180104062e-38
-1.6167 -5.654 -0.4407 1.180104062e-38
-0.9885 -5.1567 -0.3935 1.180104062e-38
-0.0553 -4.9678 -0.3723 1.180104062e-38
1.6025 -6.1166 -0.4738 1.180104062e-38
-1.279 -5.3668 -0.5058 1.180104062e-38
-0.2784 -4.9935 -0.4585 1.180104062e-38
0.1676 -5.0128 -0.4598 1.180104062e-38
-0.7462 -5.116 -0.5608 1.180104062e-38
-0.2799 -5.0199 -0.5453 1.180104062e-38
0.1685 -5.0393 -0.5469 1.180104062e-38
-1.6616 -5.8109 -0.6555 1.180104062e-38
-0.5074 -5.0438 -0.5498 1.180104062e-38
-0.0559 -5.0164 -0.5441 1.180104062e-38
0.3986 -5.1008 -0.555 1.180104062e-38
0.9004 -5.3382 -0.5872 1.180104062e-38
-1.3019 -5.4629 -0.7038 1.180104062e-38
-0.2814 -5.0468 -0.6334 1.180104062e-38
0.1694 -5.0662 -0.6352 1.180104062e-38
1.2199 -5.6771 -0.7277 1.180104062e-38
-0.5101 -5.071 -0.6387 1.180104062e-38
-0.0562 -5.0431 -0.632 1.180104062e-38
0.4009 -5.1299 -0.6448 1.180104062e-38
-1.318 -5.5304 -0.8087 1.180104062e-38
-0.2829 -5.0741 -0.7228 1.180104062e-38
0.6479 -5.2604 -0.7539 1.180104062e-38
1.244 -5.7892 -0.8422 1.180104062e-38
-1.016 -5.3006 -0.7677 1.180104062e-38
-0.5129 -5.0986 -0.7289 1.180104062e-38
-0.0565 -5.0701 -0.7212 1.180104062e-38
-1.3409 -5.6266 -0.921 1.180104062e-38
-0.2852 -5.1144 -0.8157 1.180104062e-38
0.6555 -5.3221 -0.8539 1.180104062e-38
1.2742 -5.9294 -0.9657 1.180104062e-38
-1.0293 -5.3698 -0.8706 1.180104062e-38
-0.5175 -5.1436 -0.8232 1.180104062e-38
-0.0569 -5.1096 -0.8137 1.180104062e-38
0.4069 -5.2069 -0.8317 1.180104062e-38
0.9309 -5.5187 -0.8912 1.180104062e-38
-1.3664 -5.7335 -1.0393 1.180104062e-38
0.1734 -5.1863 -0.915 1.180104062e-38
-0.5231 -5.2 -0.9215 1.180104062e-38
-0.7798 -5.347 -1.0457 1.180104062e-38
-0.2911 -5.2198 -1.0117 1.180104062e-38
0.1752 -5.2397 -1.0145 1.180104062e-38
0.6722 -5.4579 -1.0642 1.180104062e-38
0.4158 -5.3215 -1.0329 1.180104062e-38
0.9624 -5.7053 -1.1197 1.180104062e-38
-0.7921 -5.4309 -1.1571 1.180104062e-38
-0.2942 -5.276 -1.114 1.180104062e-38
0.1772 -5.2986 -1.1177 1.180104062e-38
-1.0841 -5.6559 -1.2141 1.180104062e-38
-0.0587 -5.2685 -1.1108 1.180104062e-38
9.2462 6.9729 -2.4415 1.180104062e-38
-0.8103 -5.5559 -1.2815 1.180104062e-38
-0.2994 -5.3696 -1.2275 1.180104062e-38
-1.1182 -5.8335 -1.3557 1.180104062e-38
-0.546 -5.4269 -1.2449 1.180104062e-38
9.2128 6.9477 -2.6337 1.180104062e-38
-0.8296 -5.688 -1.4129 1.180104062e-38
-0.3049 -5.4674 -1.346 1.180104062e-38
0.4388 -5.6149 -1.3844 1.180104062e-38
-0.3124 -5.6035 -1.4788 1.180104062e-38
0.4551 -5.8238 -1.5392 1.180104062e-38
-0.3229 -5.791 -1.6319 1.180104062e-38
0.1957 -5.8542 -1.648 1.180104062e-38
-0.5988 -5.9519 -1.6831 1.180104062e-38
-0.0643 -5.7739 -1.6246 1.180104062e-38
12.3782 6.9638 -4.252 1.180104062e-38
12.6764 6.4056 -4.2521 1.180104062e-38
11.6682 6.5644 -4.2518 1.180104062e-38
11.9492 6.0382 -4.2519 1.180104062e-38
11.3639 7.0775 -4.2517 1.180104062e-38
11.0288 6.2046 -4.2516 1.180104062e-38
10.7412 6.6897 -4.2515 1.180104062e-38
9.8847 6.7854 -4.2513 1.180104062e-38
10.1773 6.3385 -4.2514 1.180104062e-38
9.5724 7.2188 -4.2512 1.180104062e-38
9.386 6.4431 -4.2512 1.180104062e-38
8.775 7.2527 -4.251 1.180104062e-38
9.0895 6.8547 -4.2511 1.180104062e-38
8.93 6.13 -4.2511 1.180104062e-38
8.3486 6.9003 -4.2509 1.180104062e-38
8.6479 6.5217 -4.251 1.180104062e-38
7.9569 6.5765 -4.2508 1.180104062e-38
7.3397 7.2583 -4.2506 1.180104062e-38
6.6979 6.6237 -4.2504 1.180104062e-38
6.9865 6.3189 -4.2505 1.180104062e-38
6.6875 6.0485 -4.2504 1.180104062e-38
6.1224 6.6195 -4.2503 1.180104062e-38
5.5088 7.1378 -4.2501 1.180104062e-38
6.1443 6.0762 -4.2503 1.180104062e-38
5.5789 6.5988 -4.2501 1.180104062e-38
4.9693 7.0688 -4.25 1.180104062e-38
5.2793 6.8406 -4.2501 1.180104062e-38
5.3523 6.3307 -4.2501 1.180104062e-38
5.6291 6.0861 -4.2502 1.180104062e-38
5.0649 6.5627 -4.25 1.180104062e-38
4.4605 6.9872 -4.2498 1.180104062e-38
4.5782 6.5127 -4.2499 1.180104062e-38
3.9803 6.894 -4.2497 1.180104062e-38
4.864 6.3024 -4.2499 1.180104062e-38
4.2836 6.71 -4.2498 1.180104062e-38
3.8258 6.6264 -4.2497 1.180104062e-38
3.2207 6.9404 -4.2495 1.180104062e-38
2.5901 7.1993 -4.2493 1.180104062e-38
4.1173 6.4496 -4.2497 1.180104062e-38
3.5268 6.7902 -4.2496 1.180104062e-38
2.9083 7.0769 -4.2494 1.180104062e-38
3.6803 6.3744 -4.2496 1.180104062e-38
3.0982 6.6765 -4.2495 1.180104062e-38
1.8652 7.1194 -4.2491 1.180104062e-38
3.9607 6.2043 -4.2497 1.180104062e-38
3.3926 6.5319 -4.2495 1.180104062e-38
2.7977 6.8077 -4.2494 1.180104062e-38
