# .PCD v0.7 - Point Cloud Data file format
VERSION 0.7
FIELDS x y z rgb
SIZE 4 4 4 4
TYPE F F F F
COUNT 1 1 1 1
WIDTH 258
HEIGHT 1
VIEWPOINT 0 0 0 1 0 0 0
POINTS 258
DATA ascii
8.6274 7.1307 6.2164 1.180104062e-38
8.6168 7.122 5.9679 1.180104062e-38
8.6065 7.1134 5.7243 1.180104062e-38
8.6102 7.1165 5.4942 1.180104062e-38
8.6066 7.1136 5.0382 1.180104062e-38
8.5979 7.1063 4.1652 1.180104062e-38
8.5958 7.1046 3.9543 1.180104062e-38
8.5937 7.1029 3.7459 1.180104062e-38
8.5916 7.1012 3.5399 1.180104062e-38
8.5896 7.0995 3.3362 1.180104062e-38
-0.3364 -6.0323 1.6999 1.180104062e-38
-1.127 -5.8796 1.6844 1.180104062e-38
-0.5871 -5.8364 1.6504 1.180104062e-38
-0.3218 -5.7707 1.5229 1.180104062e-38
8.5856 7.0962 2.935 1.180104062e-38
-0.0673 -6.0446 1.5928 1.180104062e-38
-1.3305 -5.583 1.4107 1.180104062e-38
0.2127 -6.3607 1.5643 1.180104062e-38
8.5836 7.0945 2.7372 1.180104062e-38
-1.0523 -5.4896 1.3739 1.180104062e-38
-0.0643 -5.7755 1.4197 1.180104062e-38
-0.7834 -5.3712 1.2389 1.180104062e-38
-1.6155 -5.6499 1.3412 1.180104062e-38
-0.5434 -5.4015 1.2391 1.180104062e-38
-0.0629 -5.6433 1.2881 1.180104062e-38
-1.98 -5.9141 1.3148 1.180104062e-38
-0.7699 -5.2787 1.1246 1.180104062e-38
-0.3005 -5.3886 1.1378 1.180104062e-38
0.1929 -5.7705 1.2172 1.180104062e-38
8.5797 7.0913 2.3466 1.180104062e-38
-0.5338 -5.3065 1.1244 1.180104062e-38
-0.0616 -5.531 1.1661 1.180104062e-38
-1.2559 -5.2701 1.0484 1.180104062e-38
-0.7614 -5.2207 1.021 1.180104062e-38
-0.2968 -5.3233 1.0317 1.180104062e-38
8.5778 7.0897 2.1535 1.180104062e-38
-1.5379 -5.3784 1.0825 1.180104062e-38
-1.0017 -5.2258 1.0297 1.180104062e-38
-0.0607 -5.4467 1.0541 1.180104062e-38
-1.8458 -5.5131 1.0251 1.180104062e-38
-0.2937 -5.2678 0.9303 1.180104062e-38
-0.9911 -5.1705 0.9283 1.180104062e-38
-0.06 -5.3839 0.9494 1.180104062e-38
-1.8158 -5.4234 0.9107 1.180104062e-38
0.1835 -5.4884 0.8744 1.180104062e-38
8.5739 7.0865 1.7713 1.180104062e-38
-1.4995 -5.2442 0.8685 1.180104062e-38
-0.0593 -5.3229 0.8477 1.180104062e-38
0.4512 -5.7737 0.9222 1.180104062e-38
-1.2154 -5.1 0.7457 1.180104062e-38
0.181 -5.415 0.7706 1.180104062e-38
8.572 7.085 1.5818 1.180104062e-38
0.7464 -6.0604 0.7652 1.180104062e-38
8.5701 7.0834 1.3933 1.180104062e-38
-2.1476 -5.5762 0.7488 1.180104062e-38
-0.9669 -5.0445 0.6437 1.180104062e-38
-0.5101 -5.071 0.6387 1.180104062e-38
-0.0583 -5.2369 0.6563 1.180104062e-38
0.4374 -5.5979 0.7036 1.180104062e-38
-1.7571 -5.2481 0.6003 1.180104062e-38
-1.2018 -5.043 0.5623 1.180104062e-38
-0.2851 -5.1129 0.5554 1.180104062e-38
0.1784 -5.337 0.5792 1.180104062e-38
0.7348 -5.9663 0.652 1.180104062e-38
-0.5074 -5.0439 0.5499 1.180104062e-38
-0.058 -5.2057 0.5647 1.180104062e-38
0.4342 -5.5565 0.6045 1.180104062e-38
-1.7436 -5.2078 0.5035 1.180104062e-38
-0.7286 -4.9959 0.4629 1.180104062e-38
0.1774 -5.3046 0.4866 1.180104062e-38
0.7236 -5.8754 0.5427 1.180104062e-38
8.5664 7.0803 1.0189 1.180104062e-38
-0.9564 -4.9894 0.4657 1.180104062e-38
-0.5048 -5.0176 0.4623 1.180104062e-38
0.431 -5.5159 0.5072 1.180104062e-38
-1.7303 -5.1681 0.4084 1.180104062e-38
-1.189 -4.9892 0.3844 1.180104062e-38
-0.2822 -5.0609 0.3798 1.180104062e-38
0.1763 -5.2728 0.3954 1.180104062e-38
8.5645 7.0787 0.8327 1.180104062e-38
-1.445 -5.0533 0.3939 1.180104062e-38
-0.9518 -4.9652 0.3789 1.180104062e-38
-0.5025 -4.9949 0.3762 1.180104062e-38
0.4279 -5.4761 0.4116 1.180104062e-38
-1.7245 -5.1509 0.3164 1.180104062e-38
-0.7241 -4.9649 0.2922 1.180104062e-38
0.1759 -5.2619 0.3066 1.180104062e-38
8.5627 7.0772 0.647 1.180104062e-38
-2.0649 -5.3614 0.3346 1.180104062e-38
-1.442 -5.0429 0.3055 1.180104062e-38
-0.9501 -4.9567 0.2939 1.180104062e-38
-0.5017 -4.9866 0.2919 1.180104062e-38
-1.7204 -5.1386 0.2253 1.180104062e-38
0.1756 -5.2519 0.2185 1.180104062e-38
0.7089 -5.7555 0.2411 1.180104062e-38
-1.4392 -5.033 0.2177 1.180104062e-38
-0.5008 -4.9785 0.208 1.180104062e-38
0.4255 -5.4454 0.2271 1.180104062e-38
-1.7163 -5.1263 0.1348 1.180104062e-38
-1.1828 -4.9633 0.1272 1.180104062e-38
-0.7217 -4.9486 0.1247 1.180104062e-38
-0.2808 -5.0353 0.1258 1.180104062e-38
0.1753 -5.242 0.1308 1.180104062e-38
8.559 7.0742 0.2769 1.180104062e-38
-2.0512 -5.3258 0.1423 1.180104062e-38
-0.057 -5.1176 0.1276 1.180104062e-38
-2.5576 -5.8493 0.0531 1.180104062e-38
-1.7122 -5.1141 0.0448 1.180104062e-38
-1.1808 -4.9547 0.0423 1.180104062e-38
-0.7206 -4.9405 0.0415 1.180104062e-38
0.7045 -5.7204 0.0479 1.180104062e-38
8.5571 7.0726 0.0923 1.180104062e-38
-2.0444 -5.3081 0.0473 1.180104062e-38
-0.4992 -4.9622 0.0415 1.180104062e-38
-0.0569 -5.1082 0.0425 1.180104062e-38
-2.5589 -5.8523 -0.0531 1.180104062e-38
-1.7123 -5.1145 -0.0448 1.180104062e-38
-0.7206 -4.9408 -0.0415 1.180104062e-38
8.5553 7.0711 -0.0922 1.180104062e-38
-0.9453 -4.9316 -0.0417 1.180104062e-38
-0.4992 -4.9625 -0.0415 1.180104062e-38
-0.0569 -5.1085 -0.0425 1.180104062e-38
0.4236 -5.4212 -0.0452 1.180104062e-38
-2.614 -5.9784 -0.1627 1.180104062e-38
-0.2808 -5.0355 -0.1258 1.180104062e-38
0.1753 -5.2423 -0.1308 1.180104062e-38
0.7068 -5.7384 -0.1442 1.180104062e-38
-0.9469 -4.94 -0.1254 1.180104062e-38
-0.057 -5.1179 -0.1276 1.180104062e-38
0.4246 -5.4334 -0.1359 1.180104062e-38
-0.2813 -5.044 -0.2101 1.180104062e-38
8.5516 7.0681 -0.4613 1.180104062e-38
-2.0582 -5.344 -0.2381 1.180104062e-38
-0.9485 -4.9485 -0.2095 1.180104062e-38
-0.0571 -5.1274 -0.2132 1.180104062e-38
-1.7247 -5.1513 -0.3164 1.180104062e-38
-1.187 -4.9808 -0.2982 1.180104062e-38
-0.7241 -4.9651 -0.2922 1.180104062e-38
0.1759 -5.2622 -0.3067 1.180104062e-38
8.5497 7.0665 -0.646 1.180104062e-38
-1.4421 -5.0432 -0.3055 1.180104062e-38
-0.5017 -4.9869 -0.2919 1.180104062e-38
-0.0572 -5.1369 -0.2992 1.180104062e-38
0.4265 -5.4582 -0.3189 1.180104062e-38
-1.7307 -5.1693 -0.4085 1.180104062e-38
-0.7253 -4.9733 -0.3766 1.180104062e-38
0.1763 -5.2738 -0.3954 1.180104062e-38
0.7157 -5.8108 -0.4387 1.180104062e-38
-1.1954 -5.016 -0.4727 1.180104062e-38
-0.7287 -4.9967 -0.4629 1.180104062e-38
-0.2836 -5.0863 -0.467 1.180104062e-38
0.1774 -5.3056 -0.4867 1.180104062e-38
8.547 7.0642 -1.0166 1.180104062e-38
-2.1014 -5.4561 -0.536 1.180104062e-38
-0.9566 -4.9903 -0.4658 1.180104062e-38
-0.5049 -5.0185 -0.4624 1.180104062e-38
0.4311 -5.5171 -0.5073 1.180104062e-38
-1.7575 -5.2493 -0.6004 1.180104062e-38
-2.1245 -5.5162 -0.6412 1.180104062e-38
-0.9618 -5.0176 -0.5542 1.180104062e-38
-0.5075 -5.0448 -0.55 1.180104062e-38
-0.058 -5.2066 -0.5648 1.180104062e-38
0.4343 -5.5577 -0.6047 1.180104062e-38
-1.2088 -5.0721 -0.6534 1.180104062e-38
-0.7364 -5.0495 -0.6395 1.180104062e-38
-0.2867 -5.1416 -0.6453 1.180104062e-38
0.7469 -6.064 -0.7657 1.180104062e-38
-2.1483 -5.5779 -0.749 1.180104062e-38
-1.4726 -5.1501 -0.6713 1.180104062e-38
-0.9671 -5.0453 -0.6438 1.180104062e-38
-0.5102 -5.0718 -0.6388 1.180104062e-38
0.4375 -5.5991 -0.7038 1.180104062e-38
-1.2156 -5.1009 -0.7458 1.180104062e-38
0.7748 -6.291 -0.9016 1.180104062e-38
8.5451 7.0627 -1.5768 1.180104062e-38
-2.2085 -5.7344 -0.874 1.180104062e-38
-0.9725 -5.0735 -0.7348 1.180104062e-38
0.4432 -5.6716 -0.8092 1.180104062e-38
-0.2908 -5.2155 -0.8318 1.180104062e-38
0.1836 -5.4906 -0.8748 1.180104062e-38
8.5445 7.0622 -1.7652 1.180104062e-38
-2.2958 -5.9608 -1.0171 1.180104062e-38
-0.5173 -5.1419 -0.8229 1.180104062e-38
-0.0593 -5.3247 -0.8479 1.180104062e-38
0.4514 -5.7767 -0.9227 1.180104062e-38
-1.8469 -5.5163 -1.0257 1.180104062e-38
-0.2938 -5.2695 -0.9306 1.180104062e-38
8.5439 7.0617 -1.9545 1.180104062e-38
-1.5183 -5.3099 -0.9738 1.180104062e-38
-0.9914 -5.1722 -0.9286 1.180104062e-38
-0.06 -5.3857 -0.9497 1.180104062e-38
0.46 -5.8864 -1.0411 1.180104062e-38
-1.2564 -5.272 -1.0488 1.180104062e-38
0.1887 -5.6449 -1.093 1.180104062e-38
-1.5386 -5.3806 -1.083 1.180104062e-38
-1.002 -5.2274 -1.03 1.180104062e-38
-0.528 -5.2487 -1.0208 1.180104062e-38
0.473 -6.0529 -1.1749 1.180104062e-38
-1.9839 -5.9256 -1.3174 1.180104062e-38
-1.2762 -5.3554 -1.1606 1.180104062e-38
0.1931 -5.7743 -1.218 1.180104062e-38
8.4592 6.9918 -2.3137 1.180104062e-38
-0.5341 -5.3092 -1.1249 1.180104062e-38
-0.0617 -5.5342 -1.1668 1.180104062e-38
-1.3031 -5.4679 -1.283 1.180104062e-38
-0.7838 -5.3739 -1.2395 1.180104062e-38
-0.3061 -5.4891 -1.2548 1.180104062e-38
0.1988 -5.9448 -1.3576 1.180104062e-38
8.4302 6.9678 -2.4963 1.180104062e-38
-1.6167 -5.6539 -1.3422 1.180104062e-38
-0.5437 -5.4043 -1.2397 1.180104062e-38
-1.3313 -5.5862 -1.4116 1.180104062e-38
-1.0528 -5.4925 -1.3746 1.180104062e-38
-0.5537 -5.5035 -1.3596 1.180104062e-38
-1.3877 -5.8231 -1.5773 1.180104062e-38
-0.8185 -5.6121 -1.4944 1.180104062e-38
-0.3221 -5.7763 -1.5244 1.180104062e-38
-0.0674 -6.0517 -1.5947 1.180104062e-38
-0.8455 -5.7969 -1.6483 1.180104062e-38
-1.1297 -5.8934 -1.6883 1.180104062e-38
12.6642 6.3995 -4.248 1.180104062e-38
11.6579 6.5586 -4.2481 1.180104062e-38
11.9384 6.0327 -4.248 1.180104062e-38
10.1695 6.3336 -4.2481 1.180104062e-38
9.3794 6.4386 -4.2482 1.180104062e-38
8.9239 6.1259 -4.2482 1.180104062e-38
8.3433 6.896 -4.2482 1.180104062e-38
8.0278 7.2608 -4.2482 1.180104062e-38
8.237 6.2118 -4.2482 1.180104062e-38
7.6514 6.9204 -4.2482 1.180104062e-38
7.5912 6.2743 -4.2482 1.180104062e-38
7.3042 6.6062 -4.2483 1.180104062e-38
6.6873 7.2303 -4.2483 1.180104062e-38
6.6945 6.6204 -4.2483 1.180104062e-38
6.0788 7.19 -4.2483 1.180104062e-38
6.393 6.912 -4.2483 1.180104062e-38
6.1196 6.6164 -4.2483 1.180104062e-38
6.1414 6.0734 -4.2483 1.180104062e-38
4.9674 7.0662 -4.2484 1.180104062e-38
5.2772 6.8379 -4.2484 1.180104062e-38
4.6477 7.2804 -4.2484 1.180104062e-38
5.3501 6.3281 -4.2484 1.180104062e-38
5.6267 6.0835 -4.2483 1.180104062e-38
4.459 6.9849 -4.2484 1.180104062e-38
3.9791 6.892 -4.2484 1.180104062e-38
3.3499 7.2188 -4.2484 1.180104062e-38
4.8621 6.3001 -4.2484 1.180104062e-38
4.2822 6.7079 -4.2484 1.180104062e-38
3.6681 7.0624 -4.2484 1.180104062e-38
3.8247 6.6246 -4.2484 1.180104062e-38
2.5896 7.1978 -4.2485 1.180104062e-38
3.5258 6.7884 -4.2484 1.180104062e-38
3.6792 6.3727 -4.2484 1.180104062e-38
3.0975 6.6749 -4.2485 1.180104062e-38
1.2239 7.2562 -4.2485 1.180104062e-38
3.3918 6.5303 -4.2484 1.180104062e-38
2.7971 6.8063 -4.2485 1.180104062e-38
1.5459 7.1944 -4.2485 1.180104062e-38
