# .PCD v0.7 - Point Cloud Data file format
VERSION 0.7
FIELDS x y z rgb
SIZE 4 4 4 4
TYPE F F F F
COUNT 1 1 1 1
WIDTH 266
HEIGHT 1
VIEWPOINT 0 0 0 1 0 0 0
POINTS 266
DATA ascii
10.533 5.9258 6.9775 1.180104062e-38
10.4536 7.176 7.0422 1.180104062e-38
10.5007 6.5399 6.8707 1.180104062e-38
10.4753 7.1909 6.783 1.180104062e-38
10.4642 7.1833 5.983 1.180104062e-38
10.4607 7.1808 5.7251 1.180104062e-38
10.462 7.1818 5.4739 1.180104062e-38
10.4603 7.1806 4.9796 1.180104062e-38
10.4595 7.18 4.7374 1.180104062e-38
10.4587 7.1795 4.4982 1.180104062e-38
10.4579 7.1789 4.2619 1.180104062e-38
10.4571 7.1784 4.0282 1.180104062e-38
0.9825 -5.8247 1.662 1.180104062e-38
0.211 -6.3111 1.6639 1.180104062e-38
0.7035 -5.7123 1.5166 1.180104062e-38
10.4548 7.1768 3.3415 1.180104062e-38
0.4595 -5.8808 1.5543 1.180104062e-38
0.9511 -5.6387 1.5068 1.180104062e-38
0.1988 -5.947 1.4626 1.180104062e-38
0.6843 -5.5564 1.3761 1.180104062e-38
1.1781 -5.4824 1.3783 1.180104062e-38
1.7909 -5.7735 1.4858 1.180104062e-38
0.4443 -5.6853 1.4017 1.180104062e-38
0.9263 -5.4915 1.3689 1.180104062e-38
1.4518 -5.5413 1.408 1.180104062e-38
0.672 -5.4566 1.2548 1.180104062e-38
1.7251 -5.5611 1.329 1.180104062e-38
0.1887 -5.6437 1.1905 1.180104062e-38
1.1351 -5.2825 1.1391 1.180104062e-38
1.6858 -5.4346 1.1996 1.180104062e-38
-0.0665 -5.9703 1.2587 1.180104062e-38
0.4272 -5.4669 1.156 1.180104062e-38
0.8942 -5.3014 1.1334 1.180104062e-38
1.3951 -5.3252 1.1605 1.180104062e-38
1.1216 -5.2195 1.0331 1.180104062e-38
10.4517 7.1747 2.4533 1.180104062e-38
-0.0645 -5.79 1.1205 1.180104062e-38
0.4212 -5.3898 1.0462 1.180104062e-38
0.8839 -5.2402 1.0284 1.180104062e-38
1.3756 -5.2505 1.0504 1.180104062e-38
1.9867 -5.5223 1.1357 1.180104062e-38
-0.3432 -6.1543 1.0868 1.180104062e-38
0.6457 -5.2424 0.9314 1.180104062e-38
1.6336 -5.2663 0.9722 1.180104062e-38
10.451 7.1742 2.2352 1.180104062e-38
-0.0634 -5.6933 1.0039 1.180104062e-38
0.4165 -5.3298 0.9427 1.180104062e-38
0.875 -5.1872 0.9276 1.180104062e-38
1.3607 -5.1936 0.9467 1.180104062e-38
-0.3339 -5.9883 0.955 1.180104062e-38
0.1808 -5.4066 0.8614 1.180104062e-38
0.6391 -5.1894 0.8326 1.180104062e-38
1.6136 -5.2018 0.8673 1.180104062e-38
10.4503 7.1737 2.0184 1.180104062e-38
-0.0626 -5.6173 0.8945 1.180104062e-38
-0.3272 -5.8674 0.8359 1.180104062e-38
1.0898 -5.0714 0.7378 1.180104062e-38
0.408 -5.2207 0.7448 1.180104062e-38
1.3333 -5.089 0.7483 1.180104062e-38
0.1778 -5.3169 0.6667 1.180104062e-38
1.584 -5.1063 0.67 1.180104062e-38
2.2313 -5.4296 0.7356 1.180104062e-38
10.4488 7.1727 1.5882 1.180104062e-38
-0.0612 -5.4979 0.689 1.180104062e-38
0.4056 -5.1904 0.6524 1.180104062e-38
1.3257 -5.0601 0.6555 1.180104062e-38
0.1767 -5.2856 0.5736 1.180104062e-38
0.6269 -5.0901 0.5563 1.180104062e-38
1.0782 -5.0176 0.5567 1.180104062e-38
2.2055 -5.3669 0.6294 1.180104062e-38
-0.642 -6.3818 0.6957 1.180104062e-38
0.4032 -5.1605 0.5614 1.180104062e-38
0.85 -5.0392 0.5543 1.180104062e-38
1.3182 -5.0317 0.5642 1.180104062e-38
1.8587 -5.1663 0.5955 1.180104062e-38
-0.3167 -5.6801 0.5215 1.180104062e-38
0.1757 -5.2547 0.482 1.180104062e-38
0.6236 -5.0631 0.4677 1.180104062e-38
2.1845 -5.3156 0.5269 1.180104062e-38
-0.6227 -6.1898 0.5703 1.180104062e-38
0.401 -5.1318 0.4719 1.180104062e-38
1.3109 -5.0037 0.4742 1.180104062e-38
-0.3139 -5.6295 0.4225 1.180104062e-38
0.1747 -5.2244 0.3917 1.180104062e-38
1.0674 -4.9674 0.3808 1.180104062e-38
2.1665 -5.2718 0.4271 1.180104062e-38
-0.6139 -6.1025 0.4596 1.180104062e-38
-0.06 -5.3854 0.4036 1.180104062e-38
1.304 -4.9772 0.3856 1.180104062e-38
-0.3124 -5.603 0.3268 1.180104062e-38
0.1743 -5.2147 0.3039 1.180104062e-38
0.6196 -5.0304 0.2952 1.180104062e-38
1.0657 -4.9592 0.2954 1.180104062e-38
1.5508 -4.9994 0.3049 1.180104062e-38
10.4459 7.1707 0.738 1.180104062e-38
-0.0598 -5.3705 0.3128 1.180104062e-38
0.3983 -5.0977 0.2978 1.180104062e-38
0.8402 -4.9811 0.2942 1.180104062e-38
1.3017 -4.9685 0.2991 1.180104062e-38
2.6217 -5.6497 0.3628 1.180104062e-38
-0.3115 -5.5874 0.2327 1.180104062e-38
0.6185 -5.0221 0.2104 1.180104062e-38
1.0639 -4.951 0.2106 1.180104062e-38
1.5478 -4.9895 0.2172 1.180104062e-38
2.1508 -5.2338 0.2353 1.180104062e-38
10.4452 7.1702 0.5268 1.180104062e-38
-0.6049 -6.0129 0.2513 1.180104062e-38
0.3977 -5.0891 0.2122 1.180104062e-38
0.8388 -4.9729 0.2097 1.180104062e-38
1.2994 -4.9598 0.2132 1.180104062e-38
1.8257 -5.0747 0.2242 1.180104062e-38
-0.3107 -5.5718 0.1392 1.180104062e-38
0.1737 -5.1957 0.1296 1.180104062e-38
1.0621 -4.9428 0.1261 1.180104062e-38
2.1453 -5.2204 0.1408 1.180104062e-38
10.4445 7.1697 0.3159 1.180104062e-38
-0.6023 -5.9869 0.1501 1.180104062e-38
0.8375 -4.9648 0.1256 1.180104062e-38
1.822 -5.0644 0.1342 1.180104062e-38
0.1734 -5.1862 0.0431 1.180104062e-38
1.0604 -4.9347 0.0419 1.180104062e-38
1.5417 -4.9699 0.0432 1.180104062e-38
2.1398 -5.207 0.0468 1.180104062e-38
10.4438 7.1692 0.1053 1.180104062e-38
-0.0594 -5.3362 0.0444 1.180104062e-38
0.3963 -5.0721 0.0423 1.180104062e-38
1.2949 -4.9426 0.0425 1.180104062e-38
2.5702 -5.5387 0.0507 1.180104062e-38
-0.3098 -5.5568 -0.0463 1.180104062e-38
0.1734 -5.1865 -0.0431 1.180104062e-38
-0.5998 -5.9619 -0.0498 1.180104062e-38
2.5705 -5.5393 -0.0508 1.180104062e-38
-0.3107 -5.5722 -0.1392 1.180104062e-38
0.1737 -5.1959 -0.1296 1.180104062e-38
0.6175 -5.0139 -0.126 1.180104062e-38
1.0622 -4.943 -0.1261 1.180104062e-38
1.5448 -4.9799 -0.13 1.180104062e-38
2.1454 -5.2206 -0.1408 1.180104062e-38
10.4423 7.1682 -0.3159 1.180104062e-38
-0.6023 -5.9875 -0.1501 1.180104062e-38
-0.0596 -5.3479 -0.1334 1.180104062e-38
1.8221 -5.0646 -0.1342 1.180104062e-38
2.5875 -5.5759 -0.1533 1.180104062e-38
0.6185 -5.0222 -0.2104 1.180104062e-38
1.0639 -4.9512 -0.2106 1.180104062e-38
2.151 -5.2341 -0.2353 1.180104062e-38
-0.6049 -6.0133 -0.2513 1.180104062e-38
-0.0597 -5.3593 -0.2228 1.180104062e-38
0.3977 -5.0893 -0.2123 1.180104062e-38
0.8389 -4.9731 -0.2097 1.180104062e-38
2.6047 -5.613 -0.2573 1.180104062e-38
1.0657 -4.9594 -0.2954 1.180104062e-38
-0.6076 -6.0394 -0.3535 1.180104062e-38
-0.0598 -5.3708 -0.3128 1.180104062e-38
0.8402 -4.9813 -0.2942 1.180104062e-38
1.3017 -4.9687 -0.2992 1.180104062e-38
-0.314 -5.6307 -0.4226 1.180104062e-38
0.6206 -5.039 -0.3805 1.180104062e-38
1.0675 -4.9676 -0.3808 1.180104062e-38
1.5543 -5.0106 -0.3931 1.180104062e-38
-0.06 -5.3863 -0.4037 1.180104062e-38
0.399 -5.1064 -0.3838 1.180104062e-38
0.8416 -4.9896 -0.3792 1.180104062e-38
1.304 -4.9775 -0.3856 1.180104062e-38
1.8348 -5.0999 -0.4062 1.180104062e-38
2.6704 -5.7545 -0.4754 1.180104062e-38
0.6237 -5.0638 -0.4677 1.180104062e-38
1.0727 -4.9918 -0.4681 1.180104062e-38
1.5641 -5.0422 -0.484 1.180104062e-38
10.4394 7.1663 -1.1609 1.180104062e-38
-0.0604 -5.4231 -0.4972 1.180104062e-38
0.4011 -5.1325 -0.472 1.180104062e-38
0.8457 -5.0135 -0.4661 1.180104062e-38
1.8468 -5.1332 -0.5001 1.180104062e-38
-0.3197 -5.7328 -0.6228 1.180104062e-38
-0.6423 -6.3851 -0.6961 1.180104062e-38
-0.0608 -5.4606 -0.5923 1.180104062e-38
0.4033 -5.1611 -0.5615 1.180104062e-38
0.8501 -5.0398 -0.5544 1.180104062e-38
0.1778 -5.3175 -0.6667 1.180104062e-38
0.6303 -5.118 -0.6462 1.180104062e-38
1.0841 -5.0449 -0.6466 1.180104062e-38
1.5842 -5.1071 -0.6701 1.180104062e-38
2.2319 -5.431 -0.7358 1.180104062e-38
10.438 7.1653 -1.5866 1.180104062e-38
-0.0613 -5.4987 -0.6891 1.180104062e-38
0.4056 -5.191 -0.6525 1.180104062e-38
0.8546 -5.0665 -0.6439 1.180104062e-38
0.1788 -5.3493 -0.7613 1.180104062e-38
0.6338 -5.1458 -0.7374 1.180104062e-38
1.0899 -5.072 -0.7379 1.180104062e-38
1.5946 -5.1406 -0.7656 1.180104062e-38
2.2761 -5.5385 -0.8517 1.180104062e-38
1.3334 -5.0897 -0.7484 1.180104062e-38
0.1808 -5.408 -0.8616 1.180104062e-38
1.0993 -5.1159 -0.8332 1.180104062e-38
1.6141 -5.2032 -0.8675 1.180104062e-38
10.4365 7.1643 -2.0158 1.180104062e-38
-0.0626 -5.6189 -0.8948 1.180104062e-38
0.412 -5.2729 -0.8422 1.180104062e-38
0.8665 -5.1368 -0.8295 1.180104062e-38
1.3465 -5.1395 -0.846 1.180104062e-38
0.1829 -5.4692 -0.9649 1.180104062e-38
0.6458 -5.2436 -0.9316 1.180104062e-38
1.634 -5.2677 -0.9725 1.180104062e-38
2.4266 -5.9049 -1.1257 1.180104062e-38
10.3635 7.1141 -2.2165 1.180104062e-38
-0.0634 -5.6948 -1.0042 1.180104062e-38
0.6525 -5.2979 -1.033 1.180104062e-38
1.1218 -5.2206 -1.0333 1.180104062e-38
1.6547 -5.3341 -1.0808 1.180104062e-38
10.3359 7.0952 -2.4261 1.180104062e-38
-0.0645 -5.7937 -1.1213 1.180104062e-38
0.4213 -5.391 -1.0464 1.180104062e-38
0.1888 -5.6464 -1.191 1.180104062e-38
-0.0666 -5.9739 -1.2595 1.180104062e-38
0.4274 -5.4692 -1.1565 1.180104062e-38
0.8946 -5.3035 -1.1339 1.180104062e-38
1.3957 -5.3272 -1.161 1.180104062e-38
2.0567 -5.7166 -1.2808 1.180104062e-38
0.1932 -5.7786 -1.3197 1.180104062e-38
0.6723 -5.4587 -1.2553 1.180104062e-38
-0.0691 -6.201 -1.4154 1.180104062e-38
0.199 -5.9521 -1.4638 1.180104062e-38
0.6846 -5.5584 -1.3766 1.180104062e-38
1.1786 -5.4846 -1.3789 1.180104062e-38
0.704 -5.716 -1.5176 1.180104062e-38
1.214 -5.6497 -1.5227 1.180104062e-38
0.4599 -5.885 -1.5554 1.180104062e-38
0.9517 -5.6423 -1.5077 1.180104062e-38
1.5101 -5.7641 -1.5701 1.180104062e-38
1.2639 -5.8817 -1.6926 1.180104062e-38
0.4943 -6.3255 -1.7851 1.180104062e-38
0.9834 -5.8299 -1.6635 1.180104062e-38
12.3781 6.9638 -4.252 1.180104062e-38
12.6763 6.4056 -4.252 1.180104062e-38
11.9491 6.0381 -4.2518 1.180104062e-38
11.0287 6.2046 -4.2516 1.180104062e-38
10.4323 7.1613 -4.2514 1.180104062e-38
10.1772 6.3384 -4.2514 1.180104062e-38
9.386 6.4431 -4.2511 1.180104062e-38
7.9569 6.5765 -4.2508 1.180104062e-38
7.6558 6.9243 -4.2507 1.180104062e-38
7.0064 6.9288 -4.2505 1.180104062e-38
6.6906 7.2338 -4.2504 1.180104062e-38
6.6979 6.6237 -4.2504 1.180104062e-38
6.4113 6.3403 -4.2503 1.180104062e-38
5.8213 6.8854 -4.2502 1.180104062e-38
6.1224 6.6194 -4.2503 1.180104062e-38
5.5087 7.1378 -4.2501 1.180104062e-38
5.5788 6.5987 -4.2501 1.180104062e-38
4.9692 7.0688 -4.2499 1.180104062e-38
5.8674 6.3437 -4.2502 1.180104062e-38
4.6493 7.2829 -4.2498 1.180104062e-38
4.7674 6.7816 -4.2499 1.180104062e-38
4.1447 7.1788 -4.2497 1.180104062e-38
5.6291 6.0861 -4.2501 1.180104062e-38
5.1399 6.0795 -4.25 1.180104062e-38
4.8639 6.3023 -4.2499 1.180104062e-38
4.2835 6.7099 -4.2497 1.180104062e-38
3.6692 7.0643 -4.2496 1.180104062e-38
4.6751 6.0577 -4.2499 1.180104062e-38
4.1172 6.4495 -4.2497 1.180104062e-38
3.5267 6.7901 -4.2495 1.180104062e-38
3.9606 6.2042 -4.2497 1.180104062e-38
3.3926 6.5319 -4.2495 1.180104062e-38
