# .PCD v0.7 - Point Cloud Data file format
VERSION 0.7
FIELDS x y z rgb
SIZE 4 4 4 4
TYPE F F F F
COUNT 1 1 1 1
WIDTH 271
HEIGHT 1
VIEWPOINT 0 0 0 1 0 0 0
POINTS 271
DATA ascii
-9.874 7.7974 6.9877 1.180104062e-38
-9.8639 7.7894 6.182 1.180104062e-38
-9.8643 7.7898 5.4218 1.180104062e-38
-9.8637 7.7892 5.1754 1.180104062e-38
-9.863 7.7887 4.9324 1.180104062e-38
-9.861 7.7872 4.2216 1.180104062e-38
0.8831 -7.1703 1.9036 1.180104062e-38
1.525 -7.0969 1.9127 1.180104062e-38
-9.8585 7.7851 3.31 1.180104062e-38
0.5779 -7.3956 1.9547 1.180104062e-38
1.1952 -7.0857 1.8934 1.180104062e-38
1.9085 -7.2846 1.9843 1.180104062e-38
0.2537 -7.5881 1.8662 1.180104062e-38
1.4959 -6.9614 1.7502 1.180104062e-38
0.5637 -7.2145 1.7787 1.180104062e-38
1.1735 -6.9573 1.7343 1.180104062e-38
0.2462 -7.3646 1.6819 1.180104062e-38
1.4692 -6.8373 1.5962 1.180104062e-38
2.2221 -7.1634 1.7119 1.180104062e-38
-9.8573 7.7842 2.8668 1.180104062e-38
0.5525 -7.071 1.6188 1.180104062e-38
1.8129 -6.9198 1.6327 1.180104062e-38
0.8429 -6.8439 1.4537 1.180104062e-38
1.4532 -6.7625 1.4582 1.180104062e-38
1.1423 -6.7722 1.4479 1.180104062e-38
2.1413 -6.9029 1.3986 1.180104062e-38
-9.8561 7.7833 2.4303 1.180104062e-38
1.1306 -6.7026 1.3154 1.180104062e-38
1.7667 -6.7434 1.349 1.180104062e-38
2.6454 -7.3529 1.5122 1.180104062e-38
0.2356 -7.0468 1.2432 1.180104062e-38
2.1108 -6.8046 1.2562 1.180104062e-38
-0.0826 -7.4174 1.308 1.180104062e-38
1.1223 -6.6537 1.1898 1.180104062e-38
1.7493 -6.6771 1.2171 1.180104062e-38
0.2339 -6.9972 1.1148 1.180104062e-38
1.418 -6.599 1.0748 1.180104062e-38
-9.8549 7.7823 1.9996 1.180104062e-38
-0.0817 -7.3319 1.1676 1.180104062e-38
1.1162 -6.6176 1.0686 1.180104062e-38
2.5319 -7.0376 1.191 1.180104062e-38
-0.0809 -7.2655 1.0335 1.180104062e-38
2.5052 -6.9634 1.0526 1.180104062e-38
0.8156 -6.6226 0.8362 1.180104062e-38
2.0667 -6.6623 0.8741 1.180104062e-38
-9.8537 7.7814 1.5734 1.180104062e-38
-0.0802 -7.2006 0.9024 1.180104062e-38
-0.4315 -7.739 0.8407 1.180104062e-38
0.2304 -6.8926 0.748 1.180104062e-38
2.0625 -6.649 0.7551 1.180104062e-38
-0.08 -7.1766 0.7785 1.180104062e-38
1.1045 -6.5479 0.7203 1.180104062e-38
-0.4297 -7.7066 0.7076 1.180104062e-38
0.23 -6.8779 0.6309 1.180104062e-38
1.3998 -6.5141 0.6108 1.180104062e-38
2.0584 -6.6358 0.637 1.180104062e-38
3.1095 -7.5665 0.75 1.180104062e-38
-0.0797 -7.1569 0.6562 1.180104062e-38
-0.4279 -7.6746 0.576 1.180104062e-38
0.2295 -6.8632 0.5146 1.180104062e-38
2.0544 -6.6227 0.5196 1.180104062e-38
3.0644 -7.4569 0.6042 1.180104062e-38
-9.852 7.78 0.9408 1.180104062e-38
-0.0795 -7.1373 0.5349 1.180104062e-38
1.1009 -6.5269 0.496 1.180104062e-38
1.7103 -6.5281 0.5057 1.180104062e-38
2.4523 -6.8162 0.5429 1.180104062e-38
0.8129 -6.6003 0.3873 1.180104062e-38
0.5241 -6.707 0.3918 1.180104062e-38
1.1027 -6.5375 0.3861 1.180104062e-38
1.7129 -6.5382 0.3937 1.180104062e-38
2.4542 -6.8215 0.4222 1.180104062e-38
-0.4293 -7.6995 0.3206 1.180104062e-38
0.8143 -6.6112 0.277 1.180104062e-38
2.061 -6.6439 0.2892 1.180104062e-38
-9.8508 7.7791 0.5219 1.180104062e-38
-0.0798 -7.1641 0.2979 1.180104062e-38
0.525 -6.719 0.2802 1.180104062e-38
0.2308 -6.9024 0.1722 1.180104062e-38
0.526 -6.731 0.1684 1.180104062e-38
1.1063 -6.5588 0.1659 1.180104062e-38
1.7188 -6.5607 0.1691 1.180104062e-38
2.4693 -6.8635 0.1819 1.180104062e-38
1.4093 -6.5585 0.0558 1.180104062e-38
2.0726 -6.6816 0.0581 1.180104062e-38
-9.8496 7.7782 0.1043 1.180104062e-38
1.725 -6.5841 0.0566 1.180104062e-38
0.8225 -6.6783 -0.0559 1.180104062e-38
1.4167 -6.5929 -0.056 1.180104062e-38
2.086 -6.7247 -0.0585 1.180104062e-38
0.5308 -6.7924 -0.0566 1.180104062e-38
1.1156 -6.6135 -0.0557 1.180104062e-38
2.5068 -6.9677 -0.0615 1.180104062e-38
1.4242 -6.6278 -0.1691 1.180104062e-38
-9.8485 7.7772 -0.313 1.180104062e-38
0.5337 -6.8303 -0.1709 1.180104062e-38
1.1212 -6.647 -0.1681 1.180104062e-38
1.7452 -6.6614 -0.1717 1.180104062e-38
2.5309 -7.0348 -0.1864 1.180104062e-38
0.2365 -7.0746 -0.2943 1.180104062e-38
0.8315 -6.7516 -0.2828 1.180104062e-38
2.1188 -6.8304 -0.2974 1.180104062e-38
-9.8479 7.7768 -0.5218 1.180104062e-38
0.5371 -6.874 -0.2867 1.180104062e-38
1.1275 -6.6845 -0.2819 1.180104062e-38
1.4464 -6.7309 -0.401 1.180104062e-38
2.1462 -6.9188 -0.4219 1.180104062e-38
-9.8473 7.7763 -0.7308 1.180104062e-38
0.5426 -6.9435 -0.4056 1.180104062e-38
1.7758 -6.7782 -0.4081 1.180104062e-38
0.2422 -7.2437 -0.5431 1.180104062e-38
0.8472 -6.8787 -0.5194 1.180104062e-38
1.4604 -6.796 -0.5209 1.180104062e-38
-9.8467 7.7759 -0.9403 1.180104062e-38
1.1484 -6.8082 -0.5174 1.180104062e-38
1.795 -6.8514 -0.5308 1.180104062e-38
0.8564 -6.9537 -0.6423 1.180104062e-38
1.4768 -6.8726 -0.6444 1.180104062e-38
2.2126 -7.1328 -0.6846 1.180104062e-38
-0.0886 -7.956 -0.7294 1.180104062e-38
0.5549 -7.101 -0.653 1.180104062e-38
1.1606 -6.8803 -0.6397 1.180104062e-38
1.8187 -6.9421 -0.6579 1.180104062e-38
0.2516 -7.524 -0.8166 1.180104062e-38
0.8696 -7.0605 -0.7716 1.180104062e-38
1.5001 -6.981 -0.7745 1.180104062e-38
-9.8456 7.775 -1.3608 1.180104062e-38
1.178 -6.984 -0.7682 1.180104062e-38
0.8832 -7.1709 -0.9054 1.180104062e-38
1.5242 -7.0932 -0.9092 1.180104062e-38
2.3827 -7.6812 -1.0078 1.180104062e-38
1.1961 -7.0912 -0.9012 1.180104062e-38
12.9605 3.8626 -1.6948 1.180104062e-38
0.5927 -7.5849 -1.0821 1.180104062e-38
1.2248 -7.2609 -1.0474 1.180104062e-38
1.9545 -7.4601 -1.0969 1.180104062e-38
1.6211 -7.5439 -1.2287 1.180104062e-38
-9.7332 7.6862 -1.9749 1.180104062e-38
0.6265 -8.0178 -1.2806 1.180104062e-38
1.2621 -7.4824 -1.2083 1.180104062e-38
1.3519 -8.0147 -1.4332 1.180104062e-38
14.0723 2.2128 -3.7536 1.180104062e-38
-3.9277 -0.351 -1.1095 1.180104062e-38
12.9411 3.2368 -3.7532 1.180104062e-38
-3.7396 -0.5029 -1.0616 1.180104062e-38
13.0726 2.6571 -3.7533 1.180104062e-38
-3.9677 -0 -1.1878 1.180104062e-38
-3.5918 -0.321 -1.0796 1.180104062e-38
12.1613 3.0417 -3.753 1.180104062e-38
-4.8506 0.2163 -1.4536 1.180104062e-38
-3.6646 -0.1634 -1.0982 1.180104062e-38
-3.5144 -0.4727 -1.0616 1.180104062e-38
-3.4642 -0.7849 -1.0634 1.180104062e-38
-3.254 -0.8914 -1.0715 1.180104062e-38
11.4635 2.8672 -3.7528 1.180104062e-38
-3.4557 -0.1541 -1.0986 1.180104062e-38
-3.3189 -0.4464 -1.0635 1.180104062e-38
-3.2591 -0.7384 -1.0613 1.180104062e-38
-3.2827 -1.0586 -1.0954 1.180104062e-38
-3.1483 -0.5672 -1.0748 1.180104062e-38
-3.1349 -0.8587 -1.0921 1.180104062e-38
-4.1559 0.1853 -1.3977 1.180104062e-38
-3.2675 -0.1457 -1.0989 1.180104062e-38
-3.1639 -0.4255 -1.0726 1.180104062e-38
-3.1355 -0.7104 -1.0802 1.180104062e-38
-3.4902 0 -1.2376 1.180104062e-38
-3.093 -0.2764 -1.1011 1.180104062e-38
-3.0442 -0.5485 -1.0968 1.180104062e-38
-3.9464 0.176 -1.4007 1.180104062e-38
-3.1623 -0.141 -1.1224 1.180104062e-38
-3.0595 -0.4115 -1.0946 1.180104062e-38
-3.0241 -0.6852 -1.0995 1.180104062e-38
-3.0191 -0.9735 -1.1248 1.180104062e-38
10.1416 3.0225 -3.7524 1.180104062e-38
-2.9455 -0.5307 -1.1176 1.180104062e-38
-2.9169 -0.799 -1.1293 1.180104062e-38
-2.9238 -1.0888 -1.165 1.180104062e-38
9.161 4.1278 -3.752 1.180104062e-38
-3.0832 -0.1375 -1.1525 1.180104062e-38
-2.9258 -0.6629 -1.1202 1.180104062e-38
-2.9106 -0.9386 -1.1419 1.180104062e-38
-2.9005 -0.2592 -1.1429 1.180104062e-38
-2.8518 -0.5138 -1.1373 1.180104062e-38
-2.8313 -0.7756 -1.1521 1.180104062e-38
-2.8528 -1.0624 -1.1947 1.180104062e-38
-3.6456 0.1626 -1.4322 1.180104062e-38
-3.0071 -0.1341 -1.1814 1.180104062e-38
-2.8326 -0.6418 -1.1399 1.180104062e-38
-2.8403 -0.9159 -1.1712 1.180104062e-38
-2.8717 -1.2177 -1.2242 1.180104062e-38
8.5321 4.3115 -3.7518 1.180104062e-38
-2.813 -0.2514 -1.1629 1.180104062e-38
-2.7775 -0.8956 -1.2017 1.180104062e-38
-2.8016 -1.188 -1.2531 1.180104062e-38
8.4655 3.3692 -3.7519 1.180104062e-38
8.1317 4.1091 -3.7517 1.180104062e-38
-3.0794 -0 -1.3283 1.180104062e-38
-2.7092 -0.7421 -1.2117 1.180104062e-38
-2.73 -1.304 -1.305 1.180104062e-38
-2.7884 -1.6516 -1.398 1.180104062e-38
7.5799 4.2644 -3.7516 1.180104062e-38
-3.3811 0.1508 -1.4599 1.180104062e-38
-2.8614 -0.1276 -1.2355 1.180104062e-38
-2.72 -0.6163 -1.203 1.180104062e-38
7.7625 3.9226 -3.7516 1.180104062e-38
7.3822 4.5977 -3.7515 1.180104062e-38
-3.8265 0.3419 -1.6572 1.180104062e-38
-2.998 -0 -1.3528 1.180104062e-38
-2.6546 -0.7272 -1.2419 1.180104062e-38
-2.6607 -0.9909 -1.2811 1.180104062e-38
-2.6867 -1.5914 -1.409 1.180104062e-38
7.5804 3.4156 -3.7516 1.180104062e-38
-2.7833 -0.1241 -1.2571 1.180104062e-38
-2.6574 -0.8569 -1.2599 1.180104062e-38
-2.6448 -0.2363 -1.2517 1.180104062e-38
-2.6016 -0.7127 -1.2715 1.180104062e-38
-2.6023 -0.9691 -1.309 1.180104062e-38
-2.6052 -1.2444 -1.3609 1.180104062e-38
-2.7082 -0.1208 -1.2778 1.180104062e-38
-2.6038 -1.1041 -1.3332 1.180104062e-38
-2.5902 -1.3822 -1.3839 1.180104062e-38
-3.7077 0.3313 -1.7547 1.180104062e-38
-2.5903 -0.2315 -1.2791 1.180104062e-38
-2.5499 -0.6985 -1.3004 1.180104062e-38
-2.5453 -0.9479 -1.3359 1.180104062e-38
-3.063 0.1366 -1.5081 1.180104062e-38
-2.5845 -0.3476 -1.2826 1.180104062e-38
-2.5616 -0.5804 -1.2919 1.180104062e-38
-2.7481 -0 -1.4089 1.180104062e-38
-2.5372 -0.2267 -1.3059 1.180104062e-38
-2.5199 -0.454 -1.3127 1.180104062e-38
-2.4895 -0.9271 -1.3619 1.180104062e-38
-2.4879 -1.1884 -1.4135 1.180104062e-38
-2.4521 -1.4524 -1.4611 1.180104062e-38
-2.5877 -0.1154 -1.328 1.180104062e-38
-2.535 -0.3409 -1.3113 1.180104062e-38
-2.5113 -0.569 -1.3201 1.180104062e-38
-2.4717 -1.319 -1.4363 1.180104062e-38
-3.5463 0.3169 -1.8253 1.180104062e-38
-2.6714 0 -1.4261 1.180104062e-38
-2.4853 -0.2221 -1.3321 1.180104062e-38
-2.4716 -0.4453 -1.3407 1.180104062e-38
-2.4501 -0.6712 -1.3561 1.180104062e-38
-2.8952 0.1291 -1.5471 1.180104062e-38
-2.5303 -0.1128 -1.3521 1.180104062e-38
-2.4861 -0.3344 -1.3391 1.180104062e-38
-2.4621 -0.5579 -1.3477 1.180104062e-38
-2.4353 -0.7853 -1.366 1.180104062e-38
-2.4151 -1.2887 -1.4613 1.180104062e-38
-3.5313 0.3156 -1.8927 1.180104062e-38
-2.5975 0 -1.4427 1.180104062e-38
-2.4244 -0.4368 -1.3681 1.180104062e-38
-2.4018 -0.6579 -1.3831 1.180104062e-38
-2.3823 -0.8872 -1.4119 1.180104062e-38
-2.3733 -1.1337 -1.4608 1.180104062e-38
-2.3176 -1.3727 -1.496 1.180104062e-38
-2.5021 0.1116 -1.391 1.180104062e-38
-2.4745 -0.1104 -1.3757 1.180104062e-38
-2.387 -0.7697 -1.3929 1.180104062e-38
-2.2661 -1.4824 -1.5039 1.180104062e-38
-2.5326 0 -1.4622 1.180104062e-38
-2.3852 -0.2131 -1.3826 1.180104062e-38
-2.378 -0.4284 -1.3951 1.180104062e-38
-2.3203 -1.1083 -1.4846 1.180104062e-38
-2.2443 -1.3293 -1.506 1.180104062e-38
-2.1928 -1.5783 -1.5599 1.180104062e-38
-2.4201 -0.1079 -1.3986 1.180104062e-38
-2.3854 -0.3208 -1.3896 1.180104062e-38
-2.3397 -0.7545 -1.4193 1.180104062e-38
-2.2904 -1.2222 -1.4988 1.180104062e-38
-2.194 -1.4353 -1.5137 1.180104062e-38
