# .PCD v0.7 - Point Cloud Data file format
VERSION 0.7
FIELDS x y z rgb
SIZE 4 4 4 4
TYPE F F F F
COUNT 1 1 1 1
WIDTH 216
HEIGHT 1
VIEWPOINT 0 0 0 1 0 0 0
POINTS 216
DATA ascii
-5.665 7.0117 5.2044 1.180104062e-38
-5.6647 7.0113 5.0062 1.180104062e-38
-5.6636 7.0099 4.4326 1.180104062e-38
-5.6629 7.0091 4.0659 1.180104062e-38
-5.6626 7.0087 3.8867 1.180104062e-38
-5.662 7.0079 3.5359 1.180104062e-38
-5.6613 7.0071 3.1942 1.180104062e-38
-5.6604 7.006 2.6965 1.180104062e-38
-5.6601 7.0056 2.534 1.180104062e-38
-5.6598 7.0053 2.3731 1.180104062e-38
-5.6596 7.0049 2.2136 1.180104062e-38
5.3887 -8.4412 2.2858 1.180104062e-38
5.6501 -8.0374 2.0712 1.180104062e-38
5.0329 -7.8839 1.8101 1.180104062e-38
6.1944 -8.0264 1.962 1.180104062e-38
-5.6587 7.0038 1.7425 1.180104062e-38
4.3232 -8.3236 1.6538 1.180104062e-38
5.942 -7.6993 1.7149 1.180104062e-38
4.1415 -8.9247 1.7349 1.180104062e-38
4.6073 -7.9801 1.6248 1.180104062e-38
5.3725 -7.6425 1.6472 1.180104062e-38
4.8942 -7.6667 1.4484 1.180104062e-38
4.043 -8.7123 1.5294 1.180104062e-38
-5.6581 7.0031 1.4336 1.180104062e-38
5.7417 -7.4397 1.3367 1.180104062e-38
4.5087 -7.8092 1.2826 1.180104062e-38
-5.6578 7.0028 1.2805 1.180104062e-38
4.186 -8.0594 1.1381 1.180104062e-38
5.6803 -7.3601 1.1651 1.180104062e-38
3.9381 -8.4864 1.1724 1.180104062e-38
4.4791 -7.7579 1.1226 1.180104062e-38
6.3591 -7.5216 1.2343 1.180104062e-38
3.7594 -9.1479 1.0728 1.180104062e-38
4.7893 -7.5023 0.9654 1.180104062e-38
4.4549 -7.716 0.9664 1.180104062e-38
6.2873 -7.4366 1.0563 1.180104062e-38
-5.6573 7.0021 0.9764 1.180104062e-38
3.7136 -9.0366 0.8957 1.180104062e-38
4.7701 -7.4722 0.8127 1.180104062e-38
5.6036 -7.2608 0.8408 1.180104062e-38
3.8872 -8.3766 0.8466 1.180104062e-38
4.4367 -7.6845 0.8135 1.180104062e-38
6.2276 -7.366 0.8843 1.180104062e-38
-5.657 7.0018 0.8252 1.180104062e-38
4.1342 -7.9598 0.6722 1.180104062e-38
4.762 -7.4596 0.6632 1.180104062e-38
5.5927 -7.2467 0.686 1.180104062e-38
3.8787 -8.3584 0.6905 1.180104062e-38
5.1424 -7.3152 0.6701 1.180104062e-38
6.2037 -7.3378 0.7201 1.180104062e-38
3.6805 -8.9558 0.5639 1.180104062e-38
4.1265 -7.945 0.5214 1.180104062e-38
4.754 -7.447 0.5146 1.180104062e-38
5.5819 -7.2326 0.5321 1.180104062e-38
4.4214 -7.6581 0.515 1.180104062e-38
6.1855 -7.3162 0.558 1.180104062e-38
-5.6565 7.0011 0.5242 1.180104062e-38
3.6791 -8.9527 0.4025 1.180104062e-38
4.1293 -7.9503 0.3725 1.180104062e-38
4.7575 -7.4525 0.3676 1.180104062e-38
5.5841 -7.2356 0.38 1.180104062e-38
6.184 -7.3145 0.3983 1.180104062e-38
-5.6562 7.0007 0.3742 1.180104062e-38
4.1365 -7.9641 0.2238 1.180104062e-38
5.5946 -7.2492 0.2284 1.180104062e-38
4.4319 -7.6762 0.221 1.180104062e-38
5.1453 -7.3193 0.2231 1.180104062e-38
-5.6559 7.0004 0.2244 1.180104062e-38
3.7061 -9.0182 0.081 1.180104062e-38
4.7739 -7.4783 0.0737 1.180104062e-38
-5.6556 7.0001 0.0748 1.180104062e-38
5.6445 -7.3138 -0.0768 1.180104062e-38
4.4628 -7.7298 -0.0742 1.180104062e-38
-5.6554 6.9997 -0.0748 1.180104062e-38
4.1905 -8.0682 -0.2267 1.180104062e-38
4.822 -7.5535 -0.2235 1.180104062e-38
3.9384 -8.4871 -0.2333 1.180104062e-38
4.4856 -7.7693 -0.2237 1.180104062e-38
5.2093 -7.4103 -0.2259 1.180104062e-38
6.3371 -7.4955 -0.2448 1.180104062e-38
-5.6551 6.9994 -0.2244 1.180104062e-38
3.8981 -9.4854 -0.4264 1.180104062e-38
4.2247 -8.1339 -0.3811 1.180104062e-38
5.7407 -7.4385 -0.3907 1.180104062e-38
3.9769 -8.5699 -0.3928 1.180104062e-38
4.9013 -7.6777 -0.5305 1.180104062e-38
4.5607 -7.8994 -0.5313 1.180104062e-38
5.303 -7.5437 -0.5371 1.180104062e-38
4.3204 -8.3183 -0.7024 1.180104062e-38
4.955 -7.7619 -0.6901 1.180104062e-38
5.9063 -7.653 -0.7245 1.180104062e-38
4.6118 -7.9879 -0.6912 1.180104062e-38
-5.6543 6.9983 -0.6742 1.180104062e-38
6.0571 -7.8483 -0.9089 1.180104062e-38
4.507 -8.6776 -1.0606 1.180104062e-38
5.588 -7.9491 -1.0539 1.180104062e-38
4.7212 -9.0899 -1.2836 1.180104062e-38
5.27 -8.2552 -1.2273 1.180104062e-38
5.8119 -8.2676 -1.2664 1.180104062e-38
-6.7935 -12.3966 -2.4926 1.180104062e-38
-0.793 -14.2217 -2.5116 1.180104062e-38
0.4767 -14.2576 -2.5154 1.180104062e-38
-3.9009 -13.6424 -2.5019 1.180104062e-38
-0.1588 -14.2538 -2.5135 1.180104062e-38
-5.647 6.9894 -1.5844 1.180104062e-38
-5.559 6.8804 -1.8648 1.180104062e-38
-3.7284 -0.6717 -1.0659 1.180104062e-38
-4.211 -0.1878 -1.186 1.180104062e-38
-3.7396 -0.5029 -1.0616 1.180104062e-38
-3.7659 -0.8532 -1.0864 1.180104062e-38
-3.9677 0 -1.1878 1.180104062e-38
-3.4798 -0.6269 -1.0586 1.180104062e-38
-3.4925 -0.9567 -1.0841 1.180104062e-38
-4.8506 0.2163 -1.4536 1.180104062e-38
-3.6646 -0.1634 -1.0982 1.180104062e-38
-3.5144 -0.4727 -1.0616 1.180104062e-38
-3.4642 -0.7849 -1.0634 1.180104062e-38
-3.7562 0 -1.1929 1.180104062e-38
-3.3189 -0.4463 -1.0635 1.180104062e-38
-3.2827 -1.0586 -1.0954 1.180104062e-38
-3.6184 0 -1.2157 1.180104062e-38
-3.2019 -0.2861 -1.0801 1.180104062e-38
-3.1483 -0.5672 -1.0748 1.180104062e-38
-4.1559 0.1853 -1.3977 1.180104062e-38
-3.1355 -0.7104 -1.0802 1.180104062e-38
-3.4902 0 -1.2376 1.180104062e-38
-3.0442 -0.5485 -1.0968 1.180104062e-38
-3.0314 -1.1289 -1.147 1.180104062e-38
-3.9464 0.176 -1.4007 1.180104062e-38
-3.0595 -0.4115 -1.0946 1.180104062e-38
-3.0241 -0.6852 -1.0995 1.180104062e-38
-3.0191 -0.9735 -1.1248 1.180104062e-38
-3.3741 -0 -1.2599 1.180104062e-38
-2.9455 -0.5306 -1.1176 1.180104062e-38
-2.9169 -0.799 -1.1293 1.180104062e-38
-2.9238 -1.0888 -1.165 1.180104062e-38
-3.791 0.169 -1.417 1.180104062e-38
-2.9258 -0.6629 -1.1202 1.180104062e-38
-4.2614 0.3808 -1.5976 1.180104062e-38
-2.8518 -0.5138 -1.1373 1.180104062e-38
-2.8313 -0.7756 -1.1521 1.180104062e-38
-2.8734 -0.3864 -1.1379 1.180104062e-38
-2.8326 -0.6418 -1.1399 1.180104062e-38
-2.8717 -1.2177 -1.2242 1.180104062e-38
-3.1614 0 -1.3018 1.180104062e-38
-2.7831 -0.5014 -1.1645 1.180104062e-38
-2.7695 -0.7587 -1.1825 1.180104062e-38
-2.7842 -1.0369 -1.2234 1.180104062e-38
-3.5093 0.1565 -1.4465 1.180104062e-38
-2.9337 -0.1308 -1.2092 1.180104062e-38
-2.7946 -0.3758 -1.1611 1.180104062e-38
-2.7775 -0.8956 -1.2017 1.180104062e-38
-3.9772 0.3554 -1.6443 1.180104062e-38
-3.0794 0 -1.3283 1.180104062e-38
-2.7539 -0.2461 -1.1927 1.180104062e-38
-2.7092 -0.7421 -1.2117 1.180104062e-38
-2.7208 -1.0133 -1.2524 1.180104062e-38
-2.7299 -1.304 -1.305 1.180104062e-38
-2.7334 -1.1591 -1.2807 1.180104062e-38
-3.8265 0.3419 -1.6572 1.180104062e-38
-2.998 0 -1.3528 1.180104062e-38
-2.6546 -0.7272 -1.2419 1.180104062e-38
-2.6607 -0.9909 -1.2811 1.180104062e-38
-2.7833 -0.1241 -1.2571 1.180104062e-38
-2.687 -0.3614 -1.2234 1.180104062e-38
-2.6659 -0.604 -1.2334 1.180104062e-38
-2.6675 -1.1311 -1.3074 1.180104062e-38
-2.9112 0 -1.3723 1.180104062e-38
-2.6448 -0.2363 -1.2517 1.180104062e-38
-2.6212 -0.4722 -1.2555 1.180104062e-38
-2.6016 -0.7127 -1.2715 1.180104062e-38
-2.6023 -0.9691 -1.309 1.180104062e-38
-2.6052 -1.2444 -1.3609 1.180104062e-38
-3.1522 0.1405 -1.4873 1.180104062e-38
-2.6131 -0.5921 -1.263 1.180104062e-38
-2.8279 0 -1.3909 1.180104062e-38
-2.5698 -0.463 -1.2843 1.180104062e-38
-3.063 0.1366 -1.5081 1.180104062e-38
-2.6467 -0.118 -1.3031 1.180104062e-38
-2.5845 -0.3476 -1.2826 1.180104062e-38
-2.5616 -0.5804 -1.2919 1.180104062e-38
-2.543 -0.82 -1.3142 1.180104062e-38
-2.5372 -0.2267 -1.3059 1.180104062e-38
-2.4895 -0.9271 -1.3619 1.180104062e-38
-2.9775 0.1328 -1.528 1.180104062e-38
-2.5113 -0.569 -1.3201 1.180104062e-38
-2.4881 -0.8023 -1.3403 1.180104062e-38
-2.4717 -1.319 -1.4363 1.180104062e-38
-2.6714 0 -1.4261 1.180104062e-38
-2.4501 -0.6711 -1.3561 1.180104062e-38
-2.3944 -1.4182 -1.4856 1.180104062e-38
-2.8952 0.1291 -1.5471 1.180104062e-38
-2.4621 -0.5578 -1.3477 1.180104062e-38
-2.4322 -1.5911 -1.5516 1.180104062e-38
-3.5313 0.3155 -1.8927 1.180104062e-38
-2.4347 -0.2176 -1.3576 1.180104062e-38
-2.4243 -0.4368 -1.3681 1.180104062e-38
-2.4018 -0.6579 -1.3831 1.180104062e-38
-2.3176 -1.3727 -1.496 1.180104062e-38
-2.502 0.1116 -1.391 1.180104062e-38
-2.4745 -0.1104 -1.3757 1.180104062e-38
-2.4351 -0.3275 -1.3646 1.180104062e-38
-2.4139 -0.5469 -1.3747 1.180104062e-38
-2.387 -0.7697 -1.3929 1.180104062e-38
-2.36 -1.2593 -1.4857 1.180104062e-38
-2.2661 -1.4824 -1.5039 1.180104062e-38
-2.5383 0.2268 -1.4154 1.180104062e-38
-2.5326 0 -1.4622 1.180104062e-38
-2.3852 -0.2131 -1.3826 1.180104062e-38
-2.3545 -0.645 -1.4095 1.180104062e-38
-2.3307 -0.868 -1.4359 1.180104062e-38
-2.3203 -1.1083 -1.4846 1.180104062e-38
-2.1929 -1.5783 -1.5599 1.180104062e-38
-2.4294 0.1083 -1.404 1.180104062e-38
-2.3269 -0.9867 -1.4592 1.180104062e-38
-2.2904 -1.2222 -1.4988 1.180104062e-38
