# .PCD v0.7 - Point Cloud Data file format
VERSION 0.7
FIELDS x y z rgb
SIZE 4 4 4 4
TYPE F F F F
COUNT 1 1 1 1
WIDTH 204
HEIGHT 1
VIEWPOINT 0 0 0 1 0 0 0
POINTS 204
DATA ascii
-5.6721 7.0205 2.2185 1.180104062e-38
-5.671 7.019 2.0596 1.180104062e-38
-5.6698 7.0176 1.902 1.180104062e-38
4.9611 -8.5929 1.9201 1.180104062e-38
-5.6686 7.0161 1.7455 1.180104062e-38
4.5896 -8.8366 1.7558 1.180104062e-38
4.8082 -8.3281 1.6956 1.180104062e-38
5.5768 -7.9331 1.7099 1.180104062e-38
6.0097 -7.787 1.5663 1.180104062e-38
5.4586 -7.7649 1.5114 1.180104062e-38
-5.6663 7.0132 1.4357 1.180104062e-38
4.3728 -8.4192 1.3494 1.180104062e-38
5.8765 -7.6145 1.3681 1.180104062e-38
4.6466 -8.0481 1.3218 1.180104062e-38
4.32 -8.3176 1.1745 1.180104062e-38
4.1226 -8.8841 1.2274 1.180104062e-38
4.6009 -7.969 1.1531 1.180104062e-38
6.5175 -7.7089 1.265 1.180104062e-38
-5.664 7.0104 1.1294 1.180104062e-38
4.8866 -7.6547 0.985 1.180104062e-38
5.725 -7.4181 1.0164 1.180104062e-38
4.5583 -7.8952 0.9889 1.180104062e-38
4.2491 -8.181 0.8451 1.180104062e-38
4.8611 -7.6147 0.8282 1.180104062e-38
5.2381 -7.4513 0.835 1.180104062e-38
6.2966 -7.4476 0.8941 1.180104062e-38
3.9156 -9.528 0.772 1.180104062e-38
4.8359 -7.5753 0.6735 1.180104062e-38
3.9883 -8.5945 0.71 1.180104062e-38
5.2098 -7.411 0.6789 1.180104062e-38
6.2375 -7.3778 0.724 1.180104062e-38
3.8487 -9.3653 0.5897 1.180104062e-38
4.2114 -8.1083 0.5322 1.180104062e-38
4.4979 -7.7905 0.5239 1.180104062e-38
6.1968 -7.3296 0.559 1.180104062e-38
-5.6595 7.0048 0.5245 1.180104062e-38
4.8151 -7.5428 0.3721 1.180104062e-38
3.9582 -8.5296 0.391 1.180104062e-38
4.4904 -7.7775 0.3734 1.180104062e-38
6.1787 -7.3081 0.3979 1.180104062e-38
3.8093 -9.2693 0.2499 1.180104062e-38
4.1974 -8.0815 0.2271 1.180104062e-38
3.9505 -8.513 0.234 1.180104062e-38
4.4845 -7.7673 0.2237 1.180104062e-38
5.1787 -7.3668 0.2246 1.180104062e-38
6.161 -7.2872 0.238 1.180104062e-38
-5.6572 7.0021 0.2245 1.180104062e-38
3.8216 -9.2992 0.0836 1.180104062e-38
4.8169 -7.5454 0.0744 1.180104062e-38
3.9587 -8.5307 0.0782 1.180104062e-38
4.4919 -7.7802 0.0747 1.180104062e-38
5.1875 -7.3794 0.075 1.180104062e-38
6.1788 -7.3083 0.0795 1.180104062e-38
-5.6561 7.0007 0.0748 1.180104062e-38
4.2125 -8.1104 -0.076 1.180104062e-38
4.8247 -7.5578 -0.0745 1.180104062e-38
5.6349 -7.3014 -0.0767 1.180104062e-38
5.1964 -7.3919 -0.0751 1.180104062e-38
6.1968 -7.3296 -0.0798 1.180104062e-38
-5.655 6.9993 -0.0748 1.180104062e-38
3.8995 -9.4889 -0.2558 1.180104062e-38
4.2281 -8.1405 -0.2288 1.180104062e-38
5.6573 -7.3304 -0.2309 1.180104062e-38
4.5146 -7.8195 -0.2252 1.180104062e-38
6.236 -7.376 -0.2409 1.180104062e-38
3.9964 -9.7247 -0.4372 1.180104062e-38
4.2518 -8.1861 -0.3835 1.180104062e-38
4.8654 -7.6215 -0.376 1.180104062e-38
5.6909 -7.3739 -0.3873 1.180104062e-38
4.5379 -7.8599 -0.3774 1.180104062e-38
6.2931 -7.4435 -0.4053 1.180104062e-38
4.2774 -8.2355 -0.5405 1.180104062e-38
4.8908 -7.6612 -0.5294 1.180104062e-38
4.0582 -8.7451 -0.5615 1.180104062e-38
5.2715 -7.4988 -0.5339 1.180104062e-38
6.3644 -7.5279 -0.5741 1.180104062e-38
-5.6516 6.9951 -0.5238 1.180104062e-38
5.3226 -7.5714 -0.6936 1.180104062e-38
6.4882 -7.6743 -0.7531 1.180104062e-38
-5.6505 6.9937 -0.6738 1.180104062e-38
4.1965 -9.0433 -0.914 1.180104062e-38
5.3748 -7.6457 -0.8568 1.180104062e-38
6.742 -7.9745 -0.9573 1.180104062e-38
4.455 -8.5774 -1.0484 1.180104062e-38
5.0536 -7.9163 -1.0187 1.180104062e-38
4.3652 -9.4067 -1.1248 1.180104062e-38
-5.6483 6.991 -0.9749 1.180104062e-38
4.5589 -8.7775 -1.2395 1.180104062e-38
5.1363 -8.0458 -1.1962 1.180104062e-38
-5.6471 6.9896 -1.1261 1.180104062e-38
4.8091 -9.2592 -1.484 1.180104062e-38
4.9294 -8.5379 -1.4023 1.180104062e-38
5.7227 -8.1406 -1.4154 1.180104062e-38
-5.646 6.9881 -1.2778 1.180104062e-38
-5.6449 6.9867 -1.4303 1.180104062e-38
-5.6082 6.9413 -1.8813 1.180104062e-38
-5.2949 7.1863 -2.1941 1.180104062e-38
-5.2787 7.1643 -2.3449 1.180104062e-38
-5.5215 6.8341 -2.3151 1.180104062e-38
-5.0319 0 -1.4157 1.180104062e-38
14.0815 2.2142 -4.0106 1.180104062e-38
-3.7396 -0.5029 -1.0616 1.180104062e-38
-3.7659 -0.8532 -1.0864 1.180104062e-38
-5.5029 6.811 -2.4636 1.180104062e-38
-3.5918 -0.321 -1.0796 1.180104062e-38
-4.8506 0.2163 -1.4536 1.180104062e-38
-3.6646 -0.1634 -1.0982 1.180104062e-38
-3.4642 -0.7849 -1.0634 1.180104062e-38
13.1279 2.6684 -4.0106 1.180104062e-38
-3.7563 0 -1.1929 1.180104062e-38
-4.3818 0.1954 -1.393 1.180104062e-38
-3.4557 -0.1541 -1.0986 1.180104062e-38
-3.3189 -0.4463 -1.0635 1.180104062e-38
-3.6184 0 -1.2157 1.180104062e-38
-3.2019 -0.2861 -1.0801 1.180104062e-38
-3.1349 -0.8587 -1.0921 1.180104062e-38
-4.1559 0.1853 -1.3977 1.180104062e-38
-3.2675 -0.1457 -1.0989 1.180104062e-38
-3.1639 -0.4255 -1.0726 1.180104062e-38
-3.0442 -0.5484 -1.0968 1.180104062e-38
-3.0229 -0.828 -1.1114 1.180104062e-38
-3.0314 -1.1289 -1.147 1.180104062e-38
-3.1623 -0.141 -1.1224 1.180104062e-38
-3.0595 -0.4114 -1.0946 1.180104062e-38
-3.0241 -0.6852 -1.0995 1.180104062e-38
-3.0191 -0.9735 -1.1248 1.180104062e-38
-3.3741 0 -1.2599 1.180104062e-38
-2.9938 -0.2675 -1.1224 1.180104062e-38
-2.9455 -0.5306 -1.1176 1.180104062e-38
-2.9169 -0.799 -1.1293 1.180104062e-38
-3.0832 -0.1375 -1.1525 1.180104062e-38
-2.9258 -0.6629 -1.1202 1.180104062e-38
-2.9106 -0.9385 -1.1419 1.180104062e-38
-4.2614 0.3808 -1.5976 1.180104062e-38
-2.8518 -0.5138 -1.1373 1.180104062e-38
-2.8313 -0.7756 -1.1521 1.180104062e-38
-3.0071 -0.1341 -1.1814 1.180104062e-38
-2.8403 -0.9159 -1.1712 1.180104062e-38
-2.7775 -0.8956 -1.2017 1.180104062e-38
-3.9772 0.3554 -1.6443 1.180104062e-38
-3.0794 0 -1.3283 1.180104062e-38
-2.7539 -0.2461 -1.1927 1.180104062e-38
-2.7092 -0.7421 -1.2117 1.180104062e-38
-2.7402 -0.3685 -1.1926 1.180104062e-38
-2.72 -0.6162 -1.203 1.180104062e-38
-2.998 0 -1.3528 1.180104062e-38
-2.6738 -0.4817 -1.2259 1.180104062e-38
-2.6546 -0.7271 -1.2419 1.180104062e-38
-2.6607 -0.9908 -1.2811 1.180104062e-38
-2.6867 -1.5913 -1.409 1.180104062e-38
-3.2609 0.1454 -1.4728 1.180104062e-38
-2.687 -0.3613 -1.2234 1.180104062e-38
-2.6659 -0.604 -1.2334 1.180104062e-38
-2.6675 -1.1311 -1.3074 1.180104062e-38
-3.7666 0.3366 -1.7063 1.180104062e-38
-2.6212 -0.4722 -1.2555 1.180104062e-38
-2.6596 -1.5753 -1.4571 1.180104062e-38
-3.1522 0.1406 -1.4873 1.180104062e-38
-2.7082 -0.1207 -1.2778 1.180104062e-38
-2.6038 -1.1041 -1.3332 1.180104062e-38
-2.5902 -1.3822 -1.3839 1.180104062e-38
-2.828 0 -1.3909 1.180104062e-38
-2.5698 -0.463 -1.2843 1.180104062e-38
-2.5499 -0.6985 -1.3004 1.180104062e-38
-2.5845 -0.3476 -1.2826 1.180104062e-38
-2.5616 -0.5804 -1.2919 1.180104062e-38
-2.5441 -1.0788 -1.3592 1.180104062e-38
-2.5372 -0.2267 -1.3059 1.180104062e-38
-2.4994 -0.6847 -1.3286 1.180104062e-38
-2.4895 -0.9271 -1.3619 1.180104062e-38
-2.4521 -1.4524 -1.4611 1.180104062e-38
-2.9775 0.1328 -1.528 1.180104062e-38
-2.5877 -0.1154 -1.328 1.180104062e-38
-2.4881 -0.8023 -1.3403 1.180104062e-38
-3.5463 0.3169 -1.8253 1.180104062e-38
-2.4853 -0.2221 -1.3321 1.180104062e-38
-2.4352 -0.9069 -1.3872 1.180104062e-38
-2.4292 -1.1603 -1.4371 1.180104062e-38
-2.3944 -1.4182 -1.4856 1.180104062e-38
-2.8952 0.1291 -1.5471 1.180104062e-38
-2.5303 -0.1128 -1.3521 1.180104062e-38
-2.4861 -0.3343 -1.3391 1.180104062e-38
-2.433 -1.0317 -1.4108 1.180104062e-38
-2.4322 -1.5911 -1.5516 1.180104062e-38
-2.5975 0 -1.4427 1.180104062e-38
-2.4243 -0.4368 -1.3681 1.180104062e-38
-2.4018 -0.6579 -1.3831 1.180104062e-38
-2.3176 -1.3727 -1.496 1.180104062e-38
-2.4745 -0.1103 -1.3757 1.180104062e-38
-2.387 -0.7697 -1.3929 1.180104062e-38
-2.3793 -1.0089 -1.4353 1.180104062e-38
-2.2661 -1.4824 -1.5039 1.180104062e-38
-2.5383 0.2268 -1.4154 1.180104062e-38
-2.3852 -0.2131 -1.3826 1.180104062e-38
-2.378 -0.4284 -1.3951 1.180104062e-38
-2.3545 -0.645 -1.4095 1.180104062e-38
-2.3307 -0.8679 -1.4359 1.180104062e-38
-2.3203 -1.1083 -1.4846 1.180104062e-38
-2.1929 -1.5783 -1.5599 1.180104062e-38
-2.42 -0.1079 -1.3986 1.180104062e-38
-2.3854 -0.3208 -1.3896 1.180104062e-38
-2.3269 -0.9867 -1.4592 1.180104062e-38
-2.194 -1.4352 -1.5137 1.180104062e-38
-2.4873 0.2223 -1.4418 1.180104062e-38
