# .PCD v0.7 - Point Cloud Data file format
VERSION 0.7
FIELDS x y z rgb
SIZE 4 4 4 4
TYPE F F F F
COUNT 1 1 1 1
WIDTH 314
HEIGHT 1
VIEWPOINT 0 0 0 1 0 0 0
POINTS 314
DATA ascii
9.0152 4.5556 5.8317 1.180104062e-38
9.0674 4.582 4.9969 1.180104062e-38
9.066 4.5812 4.7881 1.180104062e-38
9.0645 4.5805 4.5826 1.180104062e-38
9.0603 4.5783 3.9841 1.180104062e-38
9.0589 4.5776 3.7901 1.180104062e-38
9.0549 4.5756 3.222 1.180104062e-38
-2.5594 -6.6453 2.1319 1.180104062e-38
-1.9578 -6.8469 2.132 1.180104062e-38
9.0536 4.575 3.0369 1.180104062e-38
-2.1607 -6.4536 1.9148 1.180104062e-38
-2.7571 -6.3056 1.8134 1.180104062e-38
-3.1902 -6.4919 1.906 1.180104062e-38
-2.4169 -6.2754 1.772 1.180104062e-38
-1.8491 -6.4668 1.7723 1.180104062e-38
-2.6968 -6.1678 1.6546 1.180104062e-38
-2.082 -6.2188 1.612 1.180104062e-38
-2.3708 -6.1556 1.6214 1.180104062e-38
-1.8149 -6.3471 1.6227 1.180104062e-38
9.0497 4.573 2.4923 1.180104062e-38
-3.5852 -6.5422 1.7027 1.180104062e-38
-2.6563 -6.0751 1.5133 1.180104062e-38
-2.0599 -6.1526 1.4809 1.180104062e-38
-1.079 -7.3979 1.7064 1.180104062e-38
-3.0263 -6.1583 1.5661 1.180104062e-38
-2.3432 -6.0839 1.488 1.180104062e-38
-1.7942 -6.2748 1.4896 1.180104062e-38
-1.2934 -6.7476 1.5681 1.180104062e-38
-3.4568 -6.3078 1.5164 1.180104062e-38
-1.5219 -6.386 1.384 1.180104062e-38
-1.0371 -7.111 1.515 1.180104062e-38
-2.9812 -6.0665 1.425 1.180104062e-38
-1.7751 -6.208 1.3612 1.180104062e-38
-1.2755 -6.6542 1.4284 1.180104062e-38
9.0472 4.5717 2.137 1.180104062e-38
-3.3821 -6.1716 1.3619 1.180104062e-38
-1.0177 -6.9779 1.3646 1.180104062e-38
-2.9439 -5.9906 1.2917 1.180104062e-38
9.046 4.5711 1.9614 1.180104062e-38
-3.3292 -6.075 1.2215 1.180104062e-38
-2.5831 -5.9078 1.1369 1.180104062e-38
-1.496 -6.2774 1.1379 1.180104062e-38
-2.9212 -5.9444 1.1679 1.180104062e-38
-2.2823 -5.926 1.1197 1.180104062e-38
-1.7487 -6.1157 1.1216 1.180104062e-38
9.0447 4.5705 1.7869 1.180104062e-38
-2.5683 -5.8738 1.0208 1.180104062e-38
-1.9983 -5.9685 1.0023 1.180104062e-38
-1.487 -6.2397 1.0214 1.180104062e-38
-0.9931 -6.8095 1.0958 1.180104062e-38
-3.9358 -6.4792 1.2072 1.180104062e-38
9.0435 4.5699 1.6135 1.180104062e-38
-1.4782 -6.2027 0.907 1.180104062e-38
-0.9842 -6.7479 0.97 1.180104062e-38
-2.8834 -5.8675 0.9299 1.180104062e-38
-1.2303 -6.4181 0.9295 1.180104062e-38
-0.7432 -7.3872 1.056 1.180104062e-38
-1.9842 -5.9266 0.7832 1.180104062e-38
-1.4746 -6.1877 0.7971 1.180104062e-38
-3.7885 -6.2368 0.9145 1.180104062e-38
-0.7323 -7.279 0.9168 1.180104062e-38
9.0411 4.5686 1.2694 1.180104062e-38
-3.7596 -6.1892 0.7855 1.180104062e-38
9.0399 4.568 1.0986 1.180104062e-38
-2.5388 -5.8063 0.581 1.180104062e-38
-1.9776 -5.9069 0.5711 1.180104062e-38
-1.4692 -6.165 0.581 1.180104062e-38
-0.9722 -6.6659 0.6176 1.180104062e-38
-2.862 -5.8239 0.5949 1.180104062e-38
-2.246 -5.8317 0.5729 1.180104062e-38
-1.2205 -6.367 0.5943 1.180104062e-38
-2.5365 -5.8012 0.4745 1.180104062e-38
-2.8579 -5.8157 0.4856 1.180104062e-38
-1.7194 -6.0132 0.4687 1.180104062e-38
-1.2186 -6.3574 0.4851 1.180104062e-38
-0.7218 -7.1751 0.5404 1.180104062e-38
9.0374 4.5668 0.7588 1.180104062e-38
-2.5409 -5.8112 0.3694 1.180104062e-38
-1.9797 -5.9131 0.3632 1.180104062e-38
-0.972 -6.6646 0.3923 1.180104062e-38
-3.7334 -6.146 0.4188 1.180104062e-38
-1.7223 -6.0231 0.3649 1.180104062e-38
-0.7228 -7.1848 0.4206 1.180104062e-38
9.0363 4.5662 0.5897 1.180104062e-38
-2.5453 -5.8212 0.2642 1.180104062e-38
-1.4731 -6.1814 0.2642 1.180104062e-38
-0.9746 -6.6823 0.2808 1.180104062e-38
-2.869 -5.8382 0.2705 1.180104062e-38
-0.7257 -7.2137 0.3015 1.180104062e-38
9.0351 4.5656 0.4209 1.180104062e-38
-3.2552 -5.9399 0.1689 1.180104062e-38
-1.9862 -5.9324 0.156 1.180104062e-38
-3.7653 -6.1986 0.1809 1.180104062e-38
-2.8746 -5.8496 0.1625 1.180104062e-38
-2.559 -5.8527 0.0531 1.180104062e-38
-1.9932 -5.9534 0.0522 1.180104062e-38
-3.8019 -6.2588 0.0609 1.180104062e-38
-2.8862 -5.8732 0.0544 1.180104062e-38
-2.2636 -5.8774 0.0523 1.180104062e-38
-3.2947 -6.0121 -0.057 1.180104062e-38
-2.0032 -5.9834 -0.0524 1.180104062e-38
-0.9905 -6.7914 -0.057 1.180104062e-38
-2.9035 -5.9084 -0.0547 1.180104062e-38
-2.2751 -5.9071 -0.0526 1.180104062e-38
-1.7431 -6.0959 -0.0527 1.180104062e-38
-1.2395 -6.4663 -0.0547 1.180104062e-38
-0.7442 -7.3976 -0.0618 1.180104062e-38
9.0315 4.5638 -0.0841 1.180104062e-38
-2.5865 -5.9154 -0.161 1.180104062e-38
-3.9273 -6.4653 -0.1886 1.180104062e-38
-1.752 -6.1273 -0.1589 1.180104062e-38
-0.762 -7.5747 -0.1899 1.180104062e-38
9.0303 4.5632 -0.2523 1.180104062e-38
-3.3481 -6.1096 -0.2897 1.180104062e-38
-1.5066 -6.3222 -0.2702 1.180104062e-38
-1.0086 -6.9154 -0.2906 1.180104062e-38
-2.9404 -5.9835 -0.2772 1.180104062e-38
-2.2992 -5.9698 -0.266 1.180104062e-38
-1.7612 -6.1595 -0.2664 1.180104062e-38
-3.4077 -6.2182 -0.413 1.180104062e-38
-2.0422 -6.0998 -0.3747 1.180104062e-38
-1.024 -7.0213 -0.4133 1.180104062e-38
-2.9726 -6.0491 -0.3926 1.180104062e-38
-1.7777 -6.2169 -0.3766 1.180104062e-38
-2.0611 -6.1563 -0.4865 1.180104062e-38
-2.3436 -6.0851 -0.4887 1.180104062e-38
-3.5613 -6.4985 -0.6794 1.180104062e-38
-2.0804 -6.214 -0.6008 1.180104062e-38
-1.5537 -6.5196 -0.6144 1.180104062e-38
-2.3666 -6.1447 -0.6037 1.180104062e-38
-1.3039 -6.8022 -0.635 1.180104062e-38
-1.5797 -6.6287 -0.7391 1.180104062e-38
-2.4031 -6.2396 -0.7252 1.180104062e-38
-2.1433 -6.4016 -0.846 1.180104062e-38
-3.1918 -6.4952 -0.9069 1.180104062e-38
-1.8676 -6.5314 -0.8513 1.180104062e-38
-1.3658 -7.1254 -0.9092 1.180104062e-38
-2.8515 -6.5215 -1.0124 1.180104062e-38
-2.1862 -6.5299 -0.9795 1.180104062e-38
-1.652 -6.9322 -1.0136 1.180104062e-38
-3.3782 -6.8745 -1.0895 1.180104062e-38
-2.4943 -6.4764 -0.9871 1.180104062e-38
-1.9066 -6.6678 -0.9864 1.180104062e-38
-1.4421 -7.5235 -1.0896 1.180104062e-38
-2.9588 -6.767 -1.1761 1.180104062e-38
-2.2422 -6.697 -1.1246 1.180104062e-38
-1.7122 -7.1847 -1.1761 1.180104062e-38
-2.5615 -6.6509 -1.1349 1.180104062e-38
8.9965 4.5461 -1.6051 1.180104062e-38
-2.6876 -6.9781 -1.3185 1.180104062e-38
-2.0558 -7.1897 -1.3185 1.180104062e-38
8.9277 4.5114 -1.7638 1.180104062e-38
8.9033 4.499 -1.9304 1.180104062e-38
9.2821 4.1823 -2.1463 1.180104062e-38
8.8788 4.4866 -2.0972 1.180104062e-38
8.8543 4.4742 -2.2643 1.180104062e-38
13.8173 3.4559 -3.753 1.180104062e-38
-3.9277 -0.351 -1.1095 1.180104062e-38
-3.7904 -1.0383 -1.1057 1.180104062e-38
12.9395 3.2364 -3.7528 1.180104062e-38
-3.7396 -0.5029 -1.0616 1.180104062e-38
13.0711 2.6568 -3.7528 1.180104062e-38
-3.9677 -0 -1.1878 1.180104062e-38
-3.4925 -0.9567 -1.0841 1.180104062e-38
-4.8506 0.2163 -1.4536 1.180104062e-38
-3.6646 -0.1634 -1.0982 1.180104062e-38
-3.4642 -0.7849 -1.0634 1.180104062e-38
12.2835 2.4967 -3.7526 1.180104062e-38
12.0121 3.58 -3.7525 1.180104062e-38
-3.3867 -0.3027 -1.0798 1.180104062e-38
11.4623 2.8669 -3.7524 1.180104062e-38
-3.4557 -0.1541 -1.0986 1.180104062e-38
-3.2591 -0.7384 -1.0613 1.180104062e-38
-3.2827 -1.0586 -1.0954 1.180104062e-38
11.3231 3.3746 -3.7523 1.180104062e-38
-3.1483 -0.5672 -1.0748 1.180104062e-38
-3.1349 -0.8587 -1.0921 1.180104062e-38
10.5496 3.6632 -3.7521 1.180104062e-38
-3.1639 -0.4255 -1.0726 1.180104062e-38
-3.1355 -0.7104 -1.0802 1.180104062e-38
-3.1418 -1.0131 -1.1091 1.180104062e-38
-3.4902 0 -1.2376 1.180104062e-38
-3.093 -0.2764 -1.1011 1.180104062e-38
-3.0229 -0.8281 -1.1114 1.180104062e-38
-3.0314 -1.1289 -1.147 1.180104062e-38
9.9958 3.4709 -3.752 1.180104062e-38
-3.1623 -0.141 -1.1224 1.180104062e-38
-3.0595 -0.4115 -1.0946 1.180104062e-38
-3.0191 -0.9735 -1.1248 1.180104062e-38
10.1407 3.0222 -3.752 1.180104062e-38
9.831 3.9127 -3.7519 1.180104062e-38
-2.9938 -0.2675 -1.1224 1.180104062e-38
-2.9455 -0.5307 -1.1176 1.180104062e-38
-2.9169 -0.799 -1.1293 1.180104062e-38
-2.9238 -1.0888 -1.165 1.180104062e-38
9.4916 3.2958 -3.7518 1.180104062e-38
-3.0833 -0.1375 -1.1525 1.180104062e-38
-2.964 -0.3986 -1.1167 1.180104062e-38
9.3352 3.7154 -3.7518 1.180104062e-38
-3.2641 0 -1.2811 1.180104062e-38
-2.9005 -0.2592 -1.1429 1.180104062e-38
-2.8518 -0.5138 -1.1373 1.180104062e-38
-2.8528 -1.0624 -1.1947 1.180104062e-38
8.7151 3.9269 -3.7516 1.180104062e-38
-3.0071 -0.1341 -1.1814 1.180104062e-38
-2.8734 -0.3864 -1.1379 1.180104062e-38
-2.8326 -0.6418 -1.1399 1.180104062e-38
-2.8403 -0.9159 -1.1712 1.180104062e-38
-2.8717 -1.2177 -1.2242 1.180104062e-38
8.8815 3.5348 -3.7517 1.180104062e-38
8.5314 4.3111 -3.7515 1.180104062e-38
8.3062 3.7426 -3.7515 1.180104062e-38
7.9398 4.4668 -3.7514 1.180104062e-38
-3.5093 0.1565 -1.4465 1.180104062e-38
-2.9337 -0.1308 -1.2093 1.180104062e-38
-2.7756 -0.6289 -1.1719 1.180104062e-38
-2.7775 -0.8956 -1.2017 1.180104062e-38
8.1311 4.1088 -3.7514 1.180104062e-38
-3.0794 -0 -1.3283 1.180104062e-38
-2.7539 -0.2461 -1.1927 1.180104062e-38
-2.7092 -0.7421 -1.2117 1.180104062e-38
-2.7299 -1.304 -1.305 1.180104062e-38
7.929 3.5727 -3.7514 1.180104062e-38
7.5793 4.264 -3.7513 1.180104062e-38
-3.3811 0.1508 -1.4599 1.180104062e-38
-2.7166 -0.876 -1.2313 1.180104062e-38
7.7619 3.9222 -3.7513 1.180104062e-38
-3.8265 0.3419 -1.6572 1.180104062e-38
-2.998 0 -1.3528 1.180104062e-38
-2.7005 -0.2413 -1.2234 1.180104062e-38
-2.6546 -0.7272 -1.2419 1.180104062e-38
-2.6607 -0.9909 -1.2811 1.180104062e-38
7.2455 4.0763 -3.7512 1.180104062e-38
6.8537 4.7048 -3.7511 1.180104062e-38
-3.2609 0.1454 -1.4728 1.180104062e-38
-2.7833 -0.1241 -1.2571 1.180104062e-38
-2.687 -0.3614 -1.2234 1.180104062e-38
-2.6659 -0.604 -1.2334 1.180104062e-38
7.42 3.7495 -3.7513 1.180104062e-38
7.0566 4.3949 -3.7511 1.180104062e-38
-3.7666 0.3366 -1.7063 1.180104062e-38
-2.9112 0 -1.3723 1.180104062e-38
-2.6448 -0.2363 -1.2517 1.180104062e-38
-2.6016 -0.7127 -1.2715 1.180104062e-38
-2.6023 -0.9691 -1.309 1.180104062e-38
-2.6052 -1.2444 -1.3609 1.180104062e-38
6.9356 3.9019 -3.7511 1.180104062e-38
-2.7082 -0.1208 -1.2778 1.180104062e-38
-2.6352 -0.3544 -1.2533 1.180104062e-38
-2.6131 -0.5921 -1.263 1.180104062e-38
-2.6038 -1.1041 -1.3332 1.180104062e-38
-2.5902 -1.3822 -1.3839 1.180104062e-38
6.7548 4.2069 -3.7511 1.180104062e-38
6.3533 4.7912 -3.7509 1.180104062e-38
-2.5698 -0.463 -1.2843 1.180104062e-38
6.6466 3.7394 -3.7511 1.180104062e-38
6.2872 4.3159 -3.7509 1.180104062e-38
-3.063 0.1366 -1.5081 1.180104062e-38
-2.5845 -0.3476 -1.2826 1.180104062e-38
-2.5616 -0.5804 -1.2919 1.180104062e-38
-2.543 -0.82 -1.3142 1.180104062e-38
-2.5441 -1.0788 -1.3592 1.180104062e-38
6.4734 4.0317 -3.751 1.180104062e-38
-2.7481 0 -1.4089 1.180104062e-38
-2.4994 -0.6847 -1.3286 1.180104062e-38
-2.4895 -0.9271 -1.3619 1.180104062e-38
-2.4879 -1.1884 -1.4135 1.180104062e-38
-2.4521 -1.4524 -1.4611 1.180104062e-38
6.3767 3.5874 -3.751 1.180104062e-38
-2.5877 -0.1154 -1.328 1.180104062e-38
-2.535 -0.3409 -1.3113 1.180104062e-38
-2.5113 -0.569 -1.3201 1.180104062e-38
-2.4879 -1.055 -1.3854 1.180104062e-38
5.8414 4.4051 -3.7508 1.180104062e-38
5.4259 4.9075 -3.7507 1.180104062e-38
-2.6714 -0 -1.4261 1.180104062e-38
-2.4501 -0.6712 -1.3561 1.180104062e-38
-2.4352 -0.9069 -1.3872 1.180104062e-38
-2.5303 -0.1128 -1.3521 1.180104062e-38
-2.4861 -0.3344 -1.3391 1.180104062e-38
-2.4151 -1.2887 -1.4613 1.180104062e-38
5.9641 3.7144 -3.7509 1.180104062e-38
5.6096 4.2304 -3.7508 1.180104062e-38
5.2106 4.7127 -3.7506 1.180104062e-38
-2.5975 -0 -1.4427 1.180104062e-38
-2.4347 -0.2176 -1.3576 1.180104062e-38
-2.4018 -0.6579 -1.3831 1.180104062e-38
-2.3733 -1.1337 -1.4608 1.180104062e-38
-2.3176 -1.3727 -1.496 1.180104062e-38
5.2053 4.3022 -3.7506 1.180104062e-38
4.8015 4.7483 -3.7505 1.180104062e-38
4.3596 5.1567 -3.7504 1.180104062e-38
-2.4351 -0.3275 -1.3646 1.180104062e-38
-2.4139 -0.5469 -1.3747 1.180104062e-38
-2.387 -0.7697 -1.3929 1.180104062e-38
-2.3793 -1.0089 -1.4353 1.180104062e-38
-2.36 -1.2594 -1.4857 1.180104062e-38
-2.2661 -1.4824 -1.5039 1.180104062e-38
5.3918 4.0662 -3.7507 1.180104062e-38
-2.5383 0.2268 -1.4154 1.180104062e-38
-2.5326 0 -1.4622 1.180104062e-38
-2.3545 -0.645 -1.4095 1.180104062e-38
-2.3307 -0.868 -1.4359 1.180104062e-38
-2.3203 -1.1083 -1.4846 1.180104062e-38
-2.1928 -1.5783 -1.5599 1.180104062e-38
5.0073 4.1386 -3.7506 1.180104062e-38
4.6189 4.5677 -3.7505 1.180104062e-38
-2.4201 -0.1079 -1.3986 1.180104062e-38
-2.3668 -0.5362 -1.4011 1.180104062e-38
-2.3269 -0.9867 -1.4592 1.180104062e-38
-2.2904 -1.2222 -1.4988 1.180104062e-38
5.1868 3.9115 -3.7507 1.180104062e-38
3.9686 5.1423 -3.7503 1.180104062e-38
-2.4873 0.2223 -1.4418 1.180104062e-38
