# .PCD v0.7 - Point Cloud Data file format
VERSION 0.7
FIELDS x y z rgb
SIZE 4 4 4 4
TYPE F F F F
COUNT 1 1 1 1
WIDTH 325
HEIGHT 1
VIEWPOINT 0 0 0 1 0 0 0
POINTS 325
DATA ascii
11.6933 4.0603 7.1465 1.180104062e-38
11.6863 4.0579 6.8707 1.180104062e-38
11.6728 4.0532 6.3348 1.180104062e-38
11.6683 4.0517 5.328 1.180104062e-38
-11.2062 8.0657 5.6855 1.180104062e-38
11.6652 4.0506 4.8464 1.180104062e-38
-11.2055 8.0652 5.4185 1.180104062e-38
11.6637 4.0501 4.6105 1.180104062e-38
-11.2047 8.0646 5.155 1.180104062e-38
11.6623 4.0496 4.3775 1.180104062e-38
11.6608 4.0491 4.1473 1.180104062e-38
-11.2026 8.0631 4.3835 1.180104062e-38
0.2386 -7.1358 2.1375 1.180104062e-38
0.5878 -7.5218 2.2587 1.180104062e-38
11.6565 4.0476 3.4717 1.180104062e-38
-0.732 -7.2763 2.0575 1.180104062e-38
0.5507 -7.0475 1.9889 1.180104062e-38
-11.2012 8.0621 3.883 1.180104062e-38
-0.3794 -6.8035 1.7955 1.180104062e-38
0.2256 -6.749 1.7794 1.180104062e-38
0.8755 -7.1089 1.8874 1.180104062e-38
11.6551 4.0471 3.251 1.180104062e-38
-0.703 -6.9881 1.8507 1.180104062e-38
0.5353 -6.8498 1.8104 1.180104062e-38
-11.2005 8.0616 3.6363 1.180104062e-38
-1.0463 -7.174 1.782 1.180104062e-38
-0.3719 -6.6689 1.6418 1.180104062e-38
0.2215 -6.626 1.6296 1.180104062e-38
11.6537 4.0466 3.0323 1.180104062e-38
-0.6866 -6.8246 1.6859 1.180104062e-38
-0.0737 -6.6114 1.6252 1.180104062e-38
1.2783 -7.5781 1.889 1.180104062e-38
-1.015 -6.9594 1.6052 1.180104062e-38
-0.367 -6.5813 1.5045 1.180104062e-38
0.8353 -6.7818 1.5596 1.180104062e-38
-0.6743 -6.7027 1.5376 1.180104062e-38
-0.0728 -6.5357 1.4918 1.180104062e-38
0.5175 -6.6232 1.5163 1.180104062e-38
1.2061 -7.1502 1.655 1.180104062e-38
-11.1992 8.0606 3.1494 1.180104062e-38
0.2167 -6.4801 1.3669 1.180104062e-38
0.8245 -6.6942 1.4219 1.180104062e-38
-1.4228 -7.4225 1.5933 1.180104062e-38
-0.6662 -6.6219 1.4031 1.180104062e-38
-0.072 -6.4668 1.3634 1.180104062e-38
0.5117 -6.5489 1.3849 1.180104062e-38
-11.1985 8.0602 2.9088 1.180104062e-38
-0.9833 -6.7424 1.3186 1.180104062e-38
0.814 -6.6094 1.2887 1.180104062e-38
-1.3781 -7.1896 1.4166 1.180104062e-38
-0.6586 -6.5468 1.2733 1.180104062e-38
-0.9741 -6.6786 1.1901 1.180104062e-38
0.2134 -6.3834 1.1262 1.180104062e-38
0.8077 -6.5581 1.1651 1.180104062e-38
-0.071 -6.3709 1.1234 1.180104062e-38
0.5033 -6.4408 1.1392 1.180104062e-38
1.1433 -6.7777 1.212 1.180104062e-38
-0.9673 -6.6323 1.0673 1.180104062e-38
1.5368 -7.1516 1.1648 1.180104062e-38
-1.3291 -6.9338 1.1242 1.180104062e-38
-11.1965 8.0588 2.1967 1.180104062e-38
-0.9607 -6.5868 0.9468 1.180104062e-38
-0.3534 -6.3374 0.9028 1.180104062e-38
1.5186 -7.0668 1.0281 1.180104062e-38
11.6456 4.0438 1.7534 1.180104062e-38
1.1246 -6.6669 0.9617 1.180104062e-38
-11.1959 8.0583 1.9621 1.180104062e-38
-0.3526 -6.3239 0.7937 1.180104062e-38
0.2107 -6.3018 0.7902 1.180104062e-38
0.7944 -6.4498 0.8144 1.180104062e-38
1.5009 -6.9845 0.8952 1.180104062e-38
-1.3072 -6.8195 0.8701 1.180104062e-38
-0.6449 -6.4101 0.8073 1.180104062e-38
-0.0701 -6.2897 0.7883 1.180104062e-38
0.4963 -6.3513 0.7984 1.180104062e-38
-1.7838 -7.4852 0.8346 1.180104062e-38
0.7928 -6.4368 0.7035 1.180104062e-38
1.495 -6.9572 0.7718 1.180104062e-38
-1.3037 -6.8011 0.7511 1.180104062e-38
-0.6437 -6.3984 0.6975 1.180104062e-38
-0.0699 -6.2791 0.6811 1.180104062e-38
1.1152 -6.6116 0.7273 1.180104062e-38
-1.7707 -7.4304 0.7003 1.180104062e-38
-0.9524 -6.5305 0.605 1.180104062e-38
-0.3514 -6.3025 0.5787 1.180104062e-38
0.21 -6.2807 0.5761 1.180104062e-38
0.7912 -6.4239 0.5934 1.180104062e-38
1.4897 -6.9327 0.6501 1.180104062e-38
11.6417 4.0424 1.1298 1.180104062e-38
-0.0698 -6.2686 0.5747 1.180104062e-38
1.1125 -6.5952 0.6132 1.180104062e-38
-1.7579 -7.3764 0.5683 1.180104062e-38
0.2098 -6.276 0.4706 1.180104062e-38
1.4845 -6.9085 0.5295 1.180104062e-38
-0.0698 -6.2642 0.4695 1.180104062e-38
0.4941 -6.3228 0.4753 1.180104062e-38
-1.757 -7.3726 0.4414 1.180104062e-38
-0.9526 -6.5317 0.3845 1.180104062e-38
-0.3517 -6.3078 0.368 1.180104062e-38
0.2102 -6.2863 0.3663 1.180104062e-38
11.639 4.0415 0.7176 1.180104062e-38
-0.0699 -6.2744 0.3655 1.180104062e-38
0.4949 -6.3337 0.37 1.180104062e-38
-1.769 -7.4229 0.3173 1.180104062e-38
-0.9546 -6.5451 0.275 1.180104062e-38
-0.3523 -6.3182 0.2631 1.180104062e-38
0.2105 -6.2966 0.262 1.180104062e-38
-0.07 -6.2847 0.2613 1.180104062e-38
0.4958 -6.3447 0.2646 1.180104062e-38
1.1151 -6.6107 0.2787 1.180104062e-38
-1.7811 -7.4738 0.1916 1.180104062e-38
-0.3529 -6.3286 0.1581 1.180104062e-38
1.4972 -6.9673 0.1777 1.180104062e-38
11.6364 4.0406 0.3072 1.180104062e-38
-0.0701 -6.295 0.157 1.180104062e-38
0.4967 -6.3557 0.159 1.180104062e-38
1.1178 -6.6267 0.1676 1.180104062e-38
-1.8234 -7.6515 0.0654 1.180104062e-38
-0.9605 -6.5858 0.0553 1.180104062e-38
-0.3541 -6.3508 0.0529 1.180104062e-38
-0.6476 -6.4372 0.0538 1.180104062e-38
-0.0704 -6.3171 0.0525 1.180104062e-38
-11.1907 8.0546 0.1146 1.180104062e-38
-0.9666 -6.6276 -0.0557 1.180104062e-38
0.8028 -6.5179 -0.0546 1.180104062e-38
1.5227 -7.0862 -0.0602 1.180104062e-38
11.6338 4.0397 -0.1024 1.180104062e-38
-1.323 -6.9022 -0.0584 1.180104062e-38
-0.0707 -6.3491 -0.0528 1.180104062e-38
1.1316 -6.7085 -0.0565 1.180104062e-38
-0.9728 -6.67 -0.1681 1.180104062e-38
0.2138 -6.3932 -0.1595 1.180104062e-38
1.5391 -7.1622 -0.1827 1.180104062e-38
-0.0711 -6.3815 -0.1592 1.180104062e-38
0.5038 -6.4477 -0.1613 1.180104062e-38
1.1401 -6.7592 -0.1709 1.180104062e-38
-11.1895 8.0537 -0.3438 1.180104062e-38
-0.9798 -6.7178 -0.2823 1.180104062e-38
-0.3596 -6.4498 -0.2686 1.180104062e-38
0.2149 -6.4263 -0.2674 1.180104062e-38
-0.6586 -6.5466 -0.2736 1.180104062e-38
-0.0715 -6.4145 -0.2667 1.180104062e-38
0.5067 -6.4838 -0.2704 1.180104062e-38
0.2168 -6.4855 -0.3779 1.180104062e-38
11.6299 4.0383 -0.717 1.180104062e-38
-0.0721 -6.4736 -0.3771 1.180104062e-38
-1.0052 -6.8919 -0.5219 1.180104062e-38
-0.3666 -6.5744 -0.4934 1.180104062e-38
0.2189 -6.5459 -0.4908 1.180104062e-38
0.8313 -6.7495 -0.5096 1.180104062e-38
-0.672 -6.6797 -0.5031 1.180104062e-38
0.5167 -6.6118 -0.497 1.180104062e-38
-1.0224 -7.0103 -0.6495 1.180104062e-38
-0.3703 -6.6406 -0.6097 1.180104062e-38
0.8416 -6.8335 -0.6312 1.180104062e-38
-0.6802 -6.7613 -0.623 1.180104062e-38
0.5219 -6.6788 -0.6142 1.180104062e-38
-11.1869 8.0518 -1.2636 1.180104062e-38
-1.047 -7.1789 -0.7869 1.180104062e-38
-0.3763 -6.748 -0.7331 1.180104062e-38
11.6271 4.0373 -1.335 1.180104062e-38
-0.0746 -6.6937 -0.7261 1.180104062e-38
0.5303 -6.7865 -0.7383 1.180104062e-38
-1.0847 -7.4375 -0.9419 1.180104062e-38
0.2277 -6.8094 -0.8538 1.180104062e-38
11.6263 4.0371 -1.5423 1.180104062e-38
-0.0757 -6.7973 -0.8519 1.180104062e-38
-0.7277 -7.2336 -1.0341 1.180104062e-38
-0.0773 -6.9372 -0.9868 1.180104062e-38
-11.0928 7.9841 -1.944 1.180104062e-38
-0.4022 -7.213 -1.1504 1.180104062e-38
11.5341 4.0051 -1.9442 1.180104062e-38
-0.7708 -7.6621 -1.2262 1.180104062e-38
-0.0793 -7.1163 -1.1332 1.180104062e-38
0.5703 -7.2985 -1.1657 1.180104062e-38
11.5051 3.995 -2.1475 1.180104062e-38
13.9656 2.8387 -3.7552 1.180104062e-38
-5.0319 -0 -1.4157 1.180104062e-38
-3.9277 -0.351 -1.1095 1.180104062e-38
-3.7284 -0.6717 -1.0659 1.180104062e-38
-3.7904 -1.0383 -1.1057 1.180104062e-38
12.9464 3.2381 -3.7548 1.180104062e-38
-3.7396 -0.503 -1.0616 1.180104062e-38
-3.7659 -0.8533 -1.0864 1.180104062e-38
13.0781 2.6582 -3.7549 1.180104062e-38
-3.9676 -0 -1.1878 1.180104062e-38
-3.5918 -0.321 -1.0796 1.180104062e-38
-3.4798 -0.6269 -1.0586 1.180104062e-38
-4.8506 0.2163 -1.4536 1.180104062e-38
12.2898 2.498 -3.7546 1.180104062e-38
12.0181 3.5817 -3.7544 1.180104062e-38
-3.3867 -0.3027 -1.0798 1.180104062e-38
11.1665 3.8774 -3.754 1.180104062e-38
-4.3817 0.1954 -1.393 1.180104062e-38
-3.4557 -0.1541 -1.0986 1.180104062e-38
-3.3189 -0.4464 -1.0635 1.180104062e-38
-3.2591 -0.7384 -1.0613 1.180104062e-38
11.3284 3.3762 -3.7541 1.180104062e-38
-3.2019 -0.2862 -1.0801 1.180104062e-38
-3.1349 -0.8588 -1.0921 1.180104062e-38
-4.1559 0.1853 -1.3977 1.180104062e-38
-3.1355 -0.7104 -1.0802 1.180104062e-38
-3.1418 -1.0131 -1.1091 1.180104062e-38
10.7074 3.1912 -3.7539 1.180104062e-38
-3.4902 -0 -1.2376 1.180104062e-38
-3.0229 -0.8281 -1.1114 1.180104062e-38
-3.0314 -1.1289 -1.147 1.180104062e-38
-3.9464 0.176 -1.4007 1.180104062e-38
-3.1623 -0.141 -1.1224 1.180104062e-38
10.1451 3.0236 -3.7537 1.180104062e-38
-3.374 -0 -1.2599 1.180104062e-38
-2.9938 -0.2675 -1.1224 1.180104062e-38
-2.9455 -0.5307 -1.1176 1.180104062e-38
-2.9169 -0.799 -1.1293 1.180104062e-38
-2.9238 -1.0888 -1.165 1.180104062e-38
-3.791 0.169 -1.417 1.180104062e-38
-3.0832 -0.1375 -1.1525 1.180104062e-38
-2.9258 -0.6629 -1.1202 1.180104062e-38
-2.9106 -0.9386 -1.1419 1.180104062e-38
9.339 3.7168 -3.7533 1.180104062e-38
-3.2641 -0 -1.2811 1.180104062e-38
-2.9005 -0.2592 -1.1429 1.180104062e-38
-2.8518 -0.5138 -1.1373 1.180104062e-38
-2.8313 -0.7756 -1.1521 1.180104062e-38
9.0339 3.1369 -3.7532 1.180104062e-38
-3.6456 0.1626 -1.4322 1.180104062e-38
-3.0071 -0.1341 -1.1814 1.180104062e-38
-2.8734 -0.3864 -1.1379 1.180104062e-38
8.885 3.5362 -3.7531 1.180104062e-38
-2.7831 -0.5014 -1.1645 1.180104062e-38
-2.9337 -0.1308 -1.2092 1.180104062e-38
-2.7775 -0.8956 -1.2017 1.180104062e-38
8.468 3.3702 -3.753 1.180104062e-38
8.134 4.1103 -3.7528 1.180104062e-38
-3.9772 0.3554 -1.6443 1.180104062e-38
-2.7539 -0.2461 -1.1927 1.180104062e-38
-2.7278 -0.4914 -1.1956 1.180104062e-38
-2.7209 -1.0133 -1.2524 1.180104062e-38
7.9319 3.574 -3.7527 1.180104062e-38
7.5819 4.2655 -3.7526 1.180104062e-38
-2.72 -0.6163 -1.203 1.180104062e-38
-2.7334 -1.1591 -1.2807 1.180104062e-38
7.3842 4.5989 -3.7525 1.180104062e-38
-3.8265 0.3419 -1.6572 1.180104062e-38
-2.998 -0 -1.3528 1.180104062e-38
-2.7005 -0.2413 -1.2234 1.180104062e-38
-2.6738 -0.4817 -1.2259 1.180104062e-38
-2.6546 -0.7272 -1.2419 1.180104062e-38
-2.6666 -1.2737 -1.3334 1.180104062e-38
-2.6867 -1.5914 -1.409 1.180104062e-38
7.5825 3.4166 -3.7526 1.180104062e-38
7.2479 4.0776 -3.7524 1.180104062e-38
6.8559 4.7063 -3.7522 1.180104062e-38
-2.6659 -0.604 -1.2334 1.180104062e-38
-2.6574 -0.8569 -1.2599 1.180104062e-38
-2.6675 -1.1311 -1.3074 1.180104062e-38
7.4226 3.7508 -3.7525 1.180104062e-38
-3.7666 0.3365 -1.7063 1.180104062e-38
-2.9112 -0 -1.3723 1.180104062e-38
-2.6212 -0.4722 -1.2555 1.180104062e-38
-2.6023 -0.9691 -1.309 1.180104062e-38
-2.6596 -1.5753 -1.4571 1.180104062e-38
6.9378 3.9032 -3.7523 1.180104062e-38
6.5625 4.5049 -3.7521 1.180104062e-38
-3.1522 0.1405 -1.4873 1.180104062e-38
-2.7082 -0.1208 -1.2778 1.180104062e-38
-2.6131 -0.5921 -1.263 1.180104062e-38
-2.6038 -1.1041 -1.3332 1.180104062e-38
6.7569 4.2082 -3.7522 1.180104062e-38
-3.7076 0.3313 -1.7547 1.180104062e-38
-2.8279 -0 -1.3909 1.180104062e-38
-2.5903 -0.2315 -1.2791 1.180104062e-38
-2.5698 -0.463 -1.2843 1.180104062e-38
-2.5499 -0.6985 -1.3004 1.180104062e-38
-2.5453 -0.9479 -1.3359 1.180104062e-38
-2.5457 -1.216 -1.3876 1.180104062e-38
6.6488 3.7406 -3.7522 1.180104062e-38
5.8796 4.8596 -3.7518 1.180104062e-38
-3.063 0.1366 -1.5081 1.180104062e-38
-2.6467 -0.118 -1.3031 1.180104062e-38
-2.543 -0.82 -1.3142 1.180104062e-38
-2.5441 -1.0788 -1.3592 1.180104062e-38
6.4753 4.0329 -3.7521 1.180104062e-38
6.0904 4.593 -3.7519 1.180104062e-38
-2.5198 -0.454 -1.3126 1.180104062e-38
-2.4895 -0.9271 -1.3619 1.180104062e-38
-2.4521 -1.4524 -1.4611 1.180104062e-38
5.6408 4.6622 -3.7518 1.180104062e-38
-2.535 -0.3409 -1.3113 1.180104062e-38
-2.5113 -0.569 -1.3201 1.180104062e-38
-2.4881 -0.8023 -1.3403 1.180104062e-38
-2.4717 -1.319 -1.4363 1.180104062e-38
5.8429 4.4064 -3.7519 1.180104062e-38
5.4273 4.9087 -3.7517 1.180104062e-38
-2.3944 -1.4182 -1.4856 1.180104062e-38
5.4169 4.4772 -3.7517 1.180104062e-38
-2.8952 0.1291 -1.5471 1.180104062e-38
-2.4861 -0.3344 -1.3391 1.180104062e-38
-2.4353 -0.7853 -1.366 1.180104062e-38
-2.4323 -1.5911 -1.5516 1.180104062e-38
5.9658 3.7155 -3.752 1.180104062e-38
5.6111 4.2315 -3.7518 1.180104062e-38
5.212 4.7139 -3.7516 1.180104062e-38
-2.5975 -0 -1.4427 1.180104062e-38
-2.4243 -0.4368 -1.3681 1.180104062e-38
-2.4018 -0.6579 -1.3831 1.180104062e-38
-2.3823 -0.8872 -1.4119 1.180104062e-38
-2.3733 -1.1337 -1.4608 1.180104062e-38
-2.3176 -1.3727 -1.496 1.180104062e-38
-2.502 0.1116 -1.391 1.180104062e-38
-2.4745 -0.1104 -1.3757 1.180104062e-38
-2.4139 -0.5469 -1.3747 1.180104062e-38
-2.3793 -1.0089 -1.4353 1.180104062e-38
5.0096 4.5309 -3.7515 1.180104062e-38
-2.3852 -0.2132 -1.3826 1.180104062e-38
-2.3545 -0.645 -1.4095 1.180104062e-38
-2.3203 -1.1083 -1.4846 1.180104062e-38
5.0085 4.1396 -3.7515 1.180104062e-38
-2.42 -0.1079 -1.3986 1.180104062e-38
-2.3668 -0.5362 -1.4011 1.180104062e-38
-2.3397 -0.7545 -1.4193 1.180104062e-38
-2.2904 -1.2222 -1.4988 1.180104062e-38
5.1881 3.9125 -3.7516 1.180104062e-38
4.8191 4.3586 -3.7515 1.180104062e-38
-2.4873 0.2222 -1.4418 1.180104062e-38
