# .PCD v0.7 - Point Cloud Data file format
VERSION 0.7
FIELDS x y z rgb
SIZE 4 4 4 4
TYPE F F F F
COUNT 1 1 1 1
WIDTH 336
HEIGHT 1
VIEWPOINT 0 0 0 1 0 0 0
POINTS 336
DATA ascii
9.6353 4.3415 5.8695 1.180104062e-38
9.666 4.3553 5.6597 1.180104062e-38
9.6651 4.3549 5.4348 1.180104062e-38
9.6643 4.3545 5.2137 1.180104062e-38
9.6635 4.3542 4.9962 1.180104062e-38
9.6619 4.3534 4.5712 1.180104062e-38
9.6603 4.3527 4.1585 1.180104062e-38
9.6595 4.3524 3.9562 1.180104062e-38
9.6588 4.3521 3.7565 1.180104062e-38
9.6573 4.3514 3.364 1.180104062e-38
9.6566 4.3511 3.1709 1.180104062e-38
-1.3265 -6.9204 2.1096 1.180104062e-38
-2.1902 -6.5419 1.941 1.180104062e-38
9.6559 4.3507 2.9798 1.180104062e-38
-2.659 -6.9038 2.0815 1.180104062e-38
-1.8544 -6.4852 1.8978 1.180104062e-38
9.6551 4.3504 2.7905 1.180104062e-38
-1.819 -6.3616 1.7434 1.180104062e-38
-0.966 -6.6237 1.6453 1.180104062e-38
9.6544 4.3501 2.6028 1.180104062e-38
-1.7867 -6.2486 1.5975 1.180104062e-38
-1.2306 -6.4199 1.6067 1.180104062e-38
-0.7027 -6.9846 1.7255 1.180104062e-38
-2.8403 -6.496 1.6182 1.180104062e-38
-2.069 -6.1796 1.4874 1.180104062e-38
-0.9521 -6.528 1.5057 1.180104062e-38
9.6537 4.3498 2.4167 1.180104062e-38
-2.4101 -6.2577 1.5305 1.180104062e-38
-1.2169 -6.3485 1.4754 1.180104062e-38
-0.6864 -6.8226 1.5651 1.180104062e-38
-2.7853 -6.3701 1.4657 1.180104062e-38
-1.471 -6.1725 1.3377 1.180104062e-38
-0.9404 -6.4479 1.3737 1.180104062e-38
-2.3764 -6.1703 1.394 1.180104062e-38
-1.7484 -6.1146 1.3407 1.180104062e-38
-2.734 -6.2528 1.3206 1.180104062e-38
-1.4587 -6.1211 1.2177 1.180104062e-38
-0.9299 -6.3758 1.2469 1.180104062e-38
9.6524 4.3492 2.0488 1.180104062e-38
-1.7334 -6.062 1.2201 1.180104062e-38
-1.1927 -6.2223 1.2261 1.180104062e-38
-2.0119 -6.0092 1.1174 1.180104062e-38
-1.4507 -6.0876 1.1035 1.180104062e-38
-0.924 -6.3352 1.1289 1.180104062e-38
-0.3874 -6.9471 1.2269 1.180104062e-38
-3.2312 -6.5752 1.2918 1.180104062e-38
-1.7237 -6.028 1.1055 1.180104062e-38
-0.66 -6.5607 1.1627 1.180104062e-38
-2.6825 -6.1351 1.0662 1.180104062e-38
-2.0006 -5.9756 1.0034 1.180104062e-38
-1.4429 -6.0546 0.9911 1.180104062e-38
-0.3833 -6.8738 1.0963 1.180104062e-38
9.651 4.3485 1.6856 1.180104062e-38
-3.1757 -6.4623 1.1466 1.180104062e-38
-2.3178 -6.018 1.0269 1.180104062e-38
-1.1792 -6.1518 0.9974 1.180104062e-38
-0.6553 -6.5134 1.0424 1.180104062e-38
-2.6629 -6.0903 0.9454 1.180104062e-38
-1.4356 -6.0241 0.8808 1.180104062e-38
9.6503 4.3482 1.5055 1.180104062e-38
-3.1294 -6.368 1.0092 1.180104062e-38
-2.3037 -5.9813 0.9117 1.180104062e-38
-1.7053 -5.9637 0.8822 1.180104062e-38
-0.0868 -7.7957 1.1089 1.180104062e-38
-2.6509 -6.0628 0.8292 1.180104062e-38
-1.4332 -6.014 0.7748 1.180104062e-38
-3.0901 -6.2881 0.878 1.180104062e-38
-1.1708 -6.1078 0.7793 1.180104062e-38
-0.6489 -6.4504 0.8124 1.180104062e-38
-0.9087 -6.2304 0.6829 1.180104062e-38
-3.0809 -6.2694 0.7577 1.180104062e-38
-1.6994 -5.9433 0.6705 1.180104062e-38
-0.6476 -6.4376 0.7018 1.180104062e-38
-0.0822 -7.3774 0.8003 1.180104062e-38
-2.639 -6.0356 0.6039 1.180104062e-38
-0.9071 -6.2195 0.5762 1.180104062e-38
-0.3751 -6.7264 0.6176 1.180104062e-38
9.6483 4.3473 0.9702 1.180104062e-38
-0.0818 -7.3386 0.6728 1.180104062e-38
-1.9781 -5.9083 0.4669 1.180104062e-38
-1.4279 -5.9916 0.4616 1.180104062e-38
-0.9064 -6.2148 0.4707 1.180104062e-38
-2.2865 -5.9368 0.4768 1.180104062e-38
-1.6958 -5.9306 0.4623 1.180104062e-38
-0.6455 -6.4164 0.4833 1.180104062e-38
-0.0813 -7.3002 0.5471 1.180104062e-38
-2.6398 -6.0373 0.3838 1.180104062e-38
-1.4302 -6.0013 0.3593 1.180104062e-38
-0.908 -6.2254 0.3664 1.180104062e-38
-0.375 -6.7251 0.3923 1.180104062e-38
-3.0686 -6.2443 0.4052 1.180104062e-38
-2.2907 -5.9477 0.3712 1.180104062e-38
-1.6986 -5.9405 0.3599 1.180104062e-38
-0.0814 -7.3088 0.4257 1.180104062e-38
-1.9847 -5.9281 0.2599 1.180104062e-38
-0.3759 -6.7409 0.2807 1.180104062e-38
-1.1701 -6.1041 0.2584 1.180104062e-38
-0.648 -6.4412 0.2692 1.180104062e-38
-2.6512 -6.0636 0.165 1.180104062e-38
-1.9881 -5.938 0.1562 1.180104062e-38
-1.4349 -6.0209 0.1544 1.180104062e-38
-0.3768 -6.7568 0.1688 1.180104062e-38
9.6456 4.3461 0.2638 1.180104062e-38
-3.0861 -6.2801 0.1745 1.180104062e-38
-2.2992 -5.9696 0.1595 1.180104062e-38
-1.7043 -5.9602 0.1546 1.180104062e-38
-0.6492 -6.4536 0.1618 1.180104062e-38
-0.0822 -7.3828 0.1841 1.180104062e-38
-2.6631 -6.0906 0.0552 1.180104062e-38
-0.9149 -6.2732 0.0527 1.180104062e-38
-0.3785 -6.7889 0.0565 1.180104062e-38
9.645 4.3458 0.0879 1.180104062e-38
-1.7105 -5.9819 0.0517 1.180104062e-38
-1.1764 -6.137 0.0519 1.180104062e-38
-0.6518 -6.4795 0.0541 1.180104062e-38
-0.083 -7.4509 0.0619 1.180104062e-38
-2.0056 -5.9905 -0.0525 1.180104062e-38
-0.9202 -6.3096 -0.053 1.180104062e-38
-3.1467 -6.4034 -0.0593 1.180104062e-38
-2.3213 -6.027 -0.0537 1.180104062e-38
-1.7193 -6.0126 -0.052 1.180104062e-38
-0.6557 -6.5182 -0.0544 1.180104062e-38
-2.0163 -6.0224 -0.1584 1.180104062e-38
-1.4545 -6.1036 -0.1565 1.180104062e-38
-0.9256 -6.3465 -0.1599 1.180104062e-38
-0.3857 -6.9176 -0.1728 1.180104062e-38
9.6437 4.3452 -0.2638 1.180104062e-38
-3.1875 -6.4863 -0.1802 1.180104062e-38
-1.7281 -6.0436 -0.1568 1.180104062e-38
-1.1888 -6.2017 -0.1575 1.180104062e-38
-0.6602 -6.5621 -0.1645 1.180104062e-38
-2.721 -6.223 -0.2824 1.180104062e-38
-2.0278 -6.0566 -0.2656 1.180104062e-38
-1.462 -6.1346 -0.2622 1.180104062e-38
9.643 4.3449 -0.4398 1.180104062e-38
-2.3487 -6.0983 -0.2717 1.180104062e-38
-1.7371 -6.075 -0.2627 1.180104062e-38
-2.0484 -6.1181 -0.3758 1.180104062e-38
-1.4752 -6.1902 -0.3706 1.180104062e-38
-0.9411 -6.4524 -0.3798 1.180104062e-38
-0.3969 -7.118 -0.4152 1.180104062e-38
-3.3694 -6.8565 -0.445 1.180104062e-38
-1.2064 -6.2938 -0.3732 1.180104062e-38
-0.6737 -6.697 -0.392 1.180104062e-38
-2.8067 -6.4192 -0.525 1.180104062e-38
-1.4889 -6.2475 -0.4813 1.180104062e-38
-0.9512 -6.5217 -0.4939 1.180104062e-38
-0.405 -7.263 -0.5451 1.180104062e-38
-0.6825 -6.7841 -0.511 1.180104062e-38
-2.0909 -6.2453 -0.6038 1.180104062e-38
-0.9615 -6.5928 -0.6108 1.180104062e-38
-0.4206 -7.5434 -0.6926 1.180104062e-38
-1.7867 -6.2484 -0.5958 1.180104062e-38
-1.2299 -6.4165 -0.599 1.180104062e-38
-0.6925 -6.8836 -0.6343 1.180104062e-38
-2.1254 -6.3482 -0.7261 1.180104062e-38
-1.5243 -6.3961 -0.7132 1.180104062e-38
-0.9785 -6.7089 -0.7354 1.180104062e-38
9.6403 4.3437 -1.1469 1.180104062e-38
-1.8129 -6.3401 -0.7152 1.180104062e-38
-2.1619 -6.4572 -0.8533 1.180104062e-38
-0.9961 -6.8297 -0.8649 1.180104062e-38
-2.5334 -6.5778 -0.8833 1.180104062e-38
-1.2686 -6.6181 -0.8445 1.180104062e-38
-2.2122 -6.6075 -0.9911 1.180104062e-38
-1.0247 -7.0261 -1.0099 1.180104062e-38
-2.6329 -6.8363 -1.042 1.180104062e-38
-1.8781 -6.5682 -0.9717 1.180104062e-38
-2.2822 -6.8166 -1.1447 1.180104062e-38
-1.6179 -6.7889 -1.1113 1.180104062e-38
-1.0669 -7.3151 -1.1772 1.180104062e-38
9.5965 4.324 -1.6761 1.180104062e-38
-1.9273 -6.7403 -1.1163 1.180104062e-38
-1.3311 -6.9444 -1.1259 1.180104062e-38
-1.3988 -7.2976 -1.3102 1.180104062e-38
9.5116 4.2858 -2.0189 1.180104062e-38
14.0705 2.2125 -3.7531 1.180104062e-38
13.8172 3.4559 -3.753 1.180104062e-38
13.9578 2.837 -3.7531 1.180104062e-38
-3.9277 -0.351 -1.1095 1.180104062e-38
-3.7284 -0.6717 -1.0659 1.180104062e-38
-3.7904 -1.0383 -1.1057 1.180104062e-38
12.9396 3.2364 -3.7528 1.180104062e-38
-3.7396 -0.5029 -1.0616 1.180104062e-38
-3.7659 -0.8532 -1.0864 1.180104062e-38
13.0711 2.6568 -3.7528 1.180104062e-38
-3.9676 -0 -1.1878 1.180104062e-38
-3.5918 -0.321 -1.0796 1.180104062e-38
12.1599 3.0414 -3.7526 1.180104062e-38
-3.6646 -0.1634 -1.0982 1.180104062e-38
-3.5144 -0.4726 -1.0616 1.180104062e-38
12.0121 3.58 -3.7525 1.180104062e-38
-3.7562 0 -1.1929 1.180104062e-38
-3.2843 -0.5917 -1.0598 1.180104062e-38
-3.254 -0.8913 -1.0715 1.180104062e-38
-3.4557 -0.1541 -1.0986 1.180104062e-38
-3.3189 -0.4463 -1.0635 1.180104062e-38
-3.2591 -0.7384 -1.0613 1.180104062e-38
-3.6184 0 -1.2157 1.180104062e-38
-3.2019 -0.2861 -1.0801 1.180104062e-38
-3.1483 -0.5672 -1.0748 1.180104062e-38
-3.2675 -0.1457 -1.0989 1.180104062e-38
-3.1639 -0.4255 -1.0726 1.180104062e-38
-3.1355 -0.7104 -1.0802 1.180104062e-38
-3.1418 -1.0131 -1.1091 1.180104062e-38
-3.4902 0 -1.2376 1.180104062e-38
-3.0442 -0.5484 -1.0968 1.180104062e-38
-3.0314 -1.1289 -1.147 1.180104062e-38
9.9958 3.4709 -3.752 1.180104062e-38
-3.9464 0.176 -1.4007 1.180104062e-38
-3.1623 -0.141 -1.1224 1.180104062e-38
-3.0595 -0.4115 -1.0946 1.180104062e-38
-3.0241 -0.6852 -1.0995 1.180104062e-38
-2.9938 -0.2675 -1.1224 1.180104062e-38
-2.9238 -1.0888 -1.165 1.180104062e-38
9.4916 3.2958 -3.7518 1.180104062e-38
9.1602 4.1274 -3.7517 1.180104062e-38
-3.791 0.169 -1.417 1.180104062e-38
-2.964 -0.3986 -1.1167 1.180104062e-38
9.3352 3.7154 -3.7518 1.180104062e-38
9.0303 3.1357 -3.7517 1.180104062e-38
-3.6456 0.1626 -1.4322 1.180104062e-38
-3.0071 -0.1341 -1.1814 1.180104062e-38
-2.8734 -0.3864 -1.1379 1.180104062e-38
-2.8717 -1.2177 -1.2242 1.180104062e-38
-3.1614 -0 -1.3018 1.180104062e-38
-2.7831 -0.5014 -1.1645 1.180104062e-38
-2.7695 -0.7587 -1.1825 1.180104062e-38
-2.7842 -1.0369 -1.2234 1.180104062e-38
7.9399 4.4669 -3.7514 1.180104062e-38
-3.5093 0.1565 -1.4465 1.180104062e-38
-2.7775 -0.8956 -1.2017 1.180104062e-38
-2.8016 -1.188 -1.2531 1.180104062e-38
8.4648 3.3689 -3.7516 1.180104062e-38
8.1311 4.1088 -3.7514 1.180104062e-38
-3.9772 0.3554 -1.6443 1.180104062e-38
-2.7539 -0.2461 -1.1927 1.180104062e-38
-2.7278 -0.4914 -1.1956 1.180104062e-38
-2.7092 -0.7421 -1.2117 1.180104062e-38
-2.7209 -1.0133 -1.2524 1.180104062e-38
-2.7299 -1.304 -1.305 1.180104062e-38
7.5794 4.2641 -3.7513 1.180104062e-38
-2.8614 -0.1276 -1.2355 1.180104062e-38
-2.7402 -0.3685 -1.1926 1.180104062e-38
7.7619 3.9222 -3.7514 1.180104062e-38
7.3817 4.5974 -3.7512 1.180104062e-38
-3.8265 0.3419 -1.6571 1.180104062e-38
-2.998 0 -1.3528 1.180104062e-38
-2.7005 -0.2413 -1.2234 1.180104062e-38
-2.6607 -0.9909 -1.2811 1.180104062e-38
-2.6867 -1.5914 -1.409 1.180104062e-38
7.2456 4.0763 -3.7512 1.180104062e-38
-2.7833 -0.1241 -1.2571 1.180104062e-38
-2.687 -0.3614 -1.2234 1.180104062e-38
-2.6659 -0.604 -1.2334 1.180104062e-38
-2.6574 -0.8569 -1.2599 1.180104062e-38
7.0567 4.3949 -3.7511 1.180104062e-38
-3.7665 0.3366 -1.7063 1.180104062e-38
-2.6212 -0.4722 -1.2555 1.180104062e-38
-2.6023 -0.9691 -1.309 1.180104062e-38
-2.6596 -1.5753 -1.4571 1.180104062e-38
6.5606 4.5035 -3.751 1.180104062e-38
-2.6352 -0.3544 -1.2533 1.180104062e-38
-2.6131 -0.5921 -1.263 1.180104062e-38
-2.5994 -0.8382 -1.2874 1.180104062e-38
-2.5902 -1.3822 -1.3839 1.180104062e-38
7.1027 3.5891 -3.7512 1.180104062e-38
6.3533 4.7912 -3.7509 1.180104062e-38
-3.7076 0.3313 -1.7546 1.180104062e-38
-2.8279 0 -1.3909 1.180104062e-38
-2.5698 -0.463 -1.2843 1.180104062e-38
-2.5499 -0.6985 -1.3004 1.180104062e-38
-2.5453 -0.9479 -1.3359 1.180104062e-38
-2.5457 -1.216 -1.3876 1.180104062e-38
6.6467 3.7394 -3.7511 1.180104062e-38
5.878 4.8583 -3.7508 1.180104062e-38
-2.6467 -0.118 -1.3031 1.180104062e-38
-2.5845 -0.3476 -1.2826 1.180104062e-38
-2.5616 -0.5804 -1.2919 1.180104062e-38
-2.5441 -1.0788 -1.3592 1.180104062e-38
-2.5301 -1.3501 -1.4105 1.180104062e-38
-3.6333 0.3247 -1.7942 1.180104062e-38
-2.7481 0 -1.4089 1.180104062e-38
-2.5372 -0.2267 -1.3059 1.180104062e-38
-2.5199 -0.454 -1.3126 1.180104062e-38
-2.4994 -0.6846 -1.3286 1.180104062e-38
-2.4895 -0.9271 -1.3619 1.180104062e-38
-2.4521 -1.4524 -1.4611 1.180104062e-38
6.3767 3.5875 -3.751 1.180104062e-38
-2.9775 0.1328 -1.528 1.180104062e-38
-2.5877 -0.1154 -1.328 1.180104062e-38
-2.535 -0.3409 -1.3113 1.180104062e-38
-2.5113 -0.569 -1.3201 1.180104062e-38
-2.4879 -1.055 -1.3854 1.180104062e-38
6.2105 3.8679 -3.7509 1.180104062e-38
5.8414 4.4052 -3.7508 1.180104062e-38
-2.4716 -0.4453 -1.3407 1.180104062e-38
-2.4501 -0.6712 -1.3561 1.180104062e-38
-2.4352 -0.9069 -1.3872 1.180104062e-38
5.7925 3.9763 -3.7508 1.180104062e-38
-2.4861 -0.3343 -1.3391 1.180104062e-38
-2.4621 -0.5578 -1.3477 1.180104062e-38
-2.433 -1.0317 -1.4108 1.180104062e-38
-2.4151 -1.2887 -1.4613 1.180104062e-38
-3.5312 0.3155 -1.8926 1.180104062e-38
-2.4347 -0.2176 -1.3576 1.180104062e-38
-2.4243 -0.4368 -1.3681 1.180104062e-38
-2.3733 -1.1337 -1.4608 1.180104062e-38
5.5678 3.822 -3.7508 1.180104062e-38
5.2052 4.3022 -3.7506 1.180104062e-38
4.8015 4.7484 -3.7505 1.180104062e-38
-2.4745 -0.1104 -1.3757 1.180104062e-38
-2.4351 -0.3275 -1.3646 1.180104062e-38
-2.4139 -0.5469 -1.3747 1.180104062e-38
-2.36 -1.2593 -1.4857 1.180104062e-38
-2.2661 -1.4824 -1.5039 1.180104062e-38
5.3919 4.0662 -3.7507 1.180104062e-38
-2.5326 0 -1.4622 1.180104062e-38
-2.3852 -0.2131 -1.3826 1.180104062e-38
-2.3545 -0.645 -1.4095 1.180104062e-38
-2.3307 -0.868 -1.4359 1.180104062e-38
-2.3203 -1.1083 -1.4846 1.180104062e-38
-2.2443 -1.3293 -1.506 1.180104062e-38
-2.1929 -1.5784 -1.5599 1.180104062e-38
5.0073 4.1386 -3.7506 1.180104062e-38
4.1938 4.9605 -3.7503 1.180104062e-38
-2.4294 0.1083 -1.404 1.180104062e-38
-2.42 -0.1079 -1.3986 1.180104062e-38
-2.3854 -0.3208 -1.3896 1.180104062e-38
-2.3668 -0.5362 -1.4011 1.180104062e-38
-2.3397 -0.7545 -1.4193 1.180104062e-38
-2.3269 -0.9867 -1.4592 1.180104062e-38
5.1867 3.9115 -3.7507 1.180104062e-38
4.4108 4.7688 -3.7504 1.180104062e-38
3.9687 5.1423 -3.7503 1.180104062e-38
-2.4873 0.2223 -1.4418 1.180104062e-38
