# .PCD v0.7 - Point Cloud Data file format
VERSION 0.7
FIELDS x y z rgb
SIZE 4 4 4 4
TYPE F F F F
COUNT 1 1 1 1
WIDTH 315
HEIGHT 1
VIEWPOINT 0 0 0 1 0 0 0
POINTS 315
DATA ascii
10.4263 4.1496 6.2325 1.180104062e-38
10.4259 4.1494 5.5192 1.180104062e-38
10.4239 4.1486 5.0622 1.180104062e-38
10.4199 4.147 4.1877 1.180104062e-38
10.418 4.1463 3.7673 1.180104062e-38
-0.9963 -6.831 2.0667 1.180104062e-38
-1.3071 -6.8189 2.0786 1.180104062e-38
-0.9656 -6.6207 1.8825 1.180104062e-38
-0.3909 -7.0104 1.9755 1.180104062e-38
-2.0334 -7.1111 2.0809 1.180104062e-38
-0.6773 -6.7329 1.9039 1.180104062e-38
10.4152 4.1452 3.1539 1.180104062e-38
-1.5556 -6.5277 1.7682 1.180104062e-38
-0.3792 -6.801 1.7948 1.180104062e-38
-1.2407 -6.4727 1.7366 1.180104062e-38
-0.0805 -7.2228 1.9033 1.180104062e-38
-2.3556 -7.0357 1.8237 1.180104062e-38
-1.5251 -6.3997 1.6171 1.180104062e-38
-0.3704 -6.6431 1.6354 1.180104062e-38
-1.8709 -6.5428 1.6727 1.180104062e-38
-0.0779 -6.9907 1.7184 1.180104062e-38
-2.2434 -6.7007 1.6128 1.180104062e-38
-1.5072 -6.3246 1.484 1.180104062e-38
-0.3656 -6.5562 1.4987 1.180104062e-38
-1.8394 -6.4328 1.5271 1.180104062e-38
-1.2063 -6.2934 1.4626 1.180104062e-38
-0.6441 -6.4022 1.4686 1.180104062e-38
-0.0759 -6.8123 1.555 1.180104062e-38
10.4126 4.1441 2.5579 1.180104062e-38
-1.4903 -6.2537 1.3553 1.180104062e-38
-0.3614 -6.4806 1.3684 1.180104062e-38
0.2411 -7.2103 1.5209 1.180104062e-38
-1.8156 -6.3495 1.3923 1.180104062e-38
-1.1937 -6.2272 1.3367 1.180104062e-38
-0.6372 -6.3342 1.3421 1.180104062e-38
10.4117 4.1437 2.3624 1.180104062e-38
-2.1646 -6.4653 1.3194 1.180104062e-38
-1.4761 -6.1938 1.2322 1.180104062e-38
-0.3576 -6.4134 1.243 1.180104062e-38
-1.7929 -6.2702 1.262 1.180104062e-38
10.4108 4.1434 2.1684 1.180104062e-38
-2.1401 -6.3921 1.1886 1.180104062e-38
-1.4674 -6.1574 1.1161 1.180104062e-38
-0.8993 -6.1659 1.0987 1.180104062e-38
0.2311 -6.913 1.2196 1.180104062e-38
-1.7809 -6.2282 1.1422 1.180104062e-38
-1.1772 -6.1412 1.1026 1.180104062e-38
-0.0733 -6.5763 1.1596 1.180104062e-38
10.4099 4.1431 1.9756 1.180104062e-38
-2.1224 -6.3391 1.0645 1.180104062e-38
-0.8944 -6.1321 0.9868 1.180104062e-38
0.2291 -6.8512 1.0916 1.180104062e-38
-0.6247 -6.2102 0.9939 1.180104062e-38
-0.0728 -6.5307 1.04 1.180104062e-38
10.4091 4.1427 1.784 1.180104062e-38
-2.105 -6.2873 0.9431 1.180104062e-38
-1.4505 -6.0868 0.89 1.180104062e-38
-0.8899 -6.1018 0.8771 1.180104062e-38
-0.3513 -6.2997 0.8974 1.180104062e-38
0.227 -6.7907 0.9664 1.180104062e-38
-1.7576 -6.1466 0.9093 1.180104062e-38
-1.1648 -6.0769 0.8801 1.180104062e-38
-0.6215 -6.1779 0.8832 1.180104062e-38
10.4082 4.1424 1.5934 1.180104062e-38
-0.8884 -6.0915 0.7714 1.180104062e-38
-0.3505 -6.2864 0.789 1.180104062e-38
0.2256 -6.7469 0.846 1.180104062e-38
-1.7527 -6.1296 0.7989 1.180104062e-38
-0.6204 -6.1673 0.7768 1.180104062e-38
0.5764 -7.3764 0.9272 1.180104062e-38
10.4073 4.1421 1.4037 1.180104062e-38
-2.0893 -6.2405 0.7138 1.180104062e-38
-0.3499 -6.275 0.6817 1.180104062e-38
0.225 -6.7288 0.7303 1.180104062e-38
-0.6194 -6.1569 0.6712 1.180104062e-38
-0.0719 -6.4501 0.6997 1.180104062e-38
10.4065 4.1417 1.2149 1.180104062e-38
-2.0841 -6.2249 0.6018 1.180104062e-38
-2.5022 -6.4969 0.6383 1.180104062e-38
-0.0717 -6.4366 0.5901 1.180104062e-38
10.4056 4.1414 1.0267 1.180104062e-38
-0.349 -6.2588 0.4698 1.180104062e-38
0.2238 -6.693 0.5019 1.180104062e-38
-0.6181 -6.1436 0.4627 1.180104062e-38
-0.0716 -6.4277 0.4817 1.180104062e-38
0.563 -7.2052 0.5416 1.180104062e-38
-0.8866 -6.0789 0.3578 1.180104062e-38
-0.3496 -6.2699 0.3657 1.180104062e-38
-1.7472 -6.1104 0.3702 1.180104062e-38
-1.1604 -6.0537 0.359 1.180104062e-38
-0.6191 -6.1538 0.3602 1.180104062e-38
-0.0718 -6.4409 0.3752 1.180104062e-38
0.5637 -7.2136 0.4214 1.180104062e-38
10.404 4.1407 0.6522 1.180104062e-38
-2.0899 -6.2422 0.2737 1.180104062e-38
-0.3502 -6.2811 0.2616 1.180104062e-38
0.2249 -6.7272 0.2799 1.180104062e-38
-1.1623 -6.0636 0.2567 1.180104062e-38
-0.0719 -6.4541 0.2684 1.180104062e-38
-1.4494 -6.0821 0.1559 1.180104062e-38
-0.8895 -6.0988 0.1537 1.180104062e-38
-0.3509 -6.2923 0.1572 1.180104062e-38
-12.5485 8.2089 0.374 1.180104062e-38
-2.5161 -6.5329 0.1746 1.180104062e-38
-1.7541 -6.1343 0.1591 1.180104062e-38
-0.0721 -6.4674 0.1613 1.180104062e-38
10.4023 4.14 0.2792 1.180104062e-38
-1.4549 -6.1048 0.0522 1.180104062e-38
-0.3522 -6.3162 0.0526 1.180104062e-38
-12.5475 8.2082 0.1246 1.180104062e-38
-2.5327 -6.5759 0.0586 1.180104062e-38
-0.0724 -6.495 0.054 1.180104062e-38
0.5775 -7.3905 0.0616 1.180104062e-38
10.4014 4.1397 0.093 1.180104062e-38
-2.1211 -6.3354 -0.0555 1.180104062e-38
-0.3541 -6.3509 -0.0529 1.180104062e-38
-1.1743 -6.1261 -0.0518 1.180104062e-38
-0.6265 -6.2279 -0.052 1.180104062e-38
-0.0728 -6.5362 -0.0543 1.180104062e-38
0.59 -7.5503 -0.0629 1.180104062e-38
-2.1371 -6.3833 -0.1679 1.180104062e-38
-0.9018 -6.1832 -0.1558 1.180104062e-38
-0.3561 -6.386 -0.1595 1.180104062e-38
0.2304 -6.8901 -0.1719 1.180104062e-38
-12.5454 8.2068 -0.3739 1.180104062e-38
-2.587 -6.7169 -0.1795 1.180104062e-38
-1.1803 -6.1573 -0.1563 1.180104062e-38
-0.6298 -6.2599 -0.1569 1.180104062e-38
10.3998 4.139 -0.2791 1.180104062e-38
-2.1553 -6.4377 -0.2823 1.180104062e-38
-1.4785 -6.2042 -0.2652 1.180104062e-38
0.2326 -6.9556 -0.2894 1.180104062e-38
-2.6392 -6.8526 -0.3053 1.180104062e-38
-0.633 -6.2923 -0.2629 1.180104062e-38
-0.0738 -6.6233 -0.2754 1.180104062e-38
-2.7279 -7.0829 -0.4421 1.180104062e-38
-1.8143 -6.3448 -0.3844 1.180104062e-38
10.3981 4.1384 -0.6518 1.180104062e-38
-2.2159 -6.6184 -0.523 1.180104062e-38
-0.9232 -6.3298 -0.4794 1.180104062e-38
-1.8347 -6.4162 -0.5001 1.180104062e-38
-1.2082 -6.3032 -0.481 1.180104062e-38
-0.6448 -6.4098 -0.4828 1.180104062e-38
10.3972 4.138 -0.8386 1.180104062e-38
-0.3691 -6.6196 -0.6078 1.180104062e-38
0.2509 -7.5042 -0.6884 1.180104062e-38
-1.8564 -6.4923 -0.6191 1.180104062e-38
-1.2196 -6.3626 -0.5939 1.180104062e-38
-2.3372 -6.9809 -0.7985 1.180104062e-38
-0.9452 -6.4806 -0.7104 1.180104062e-38
-12.471 8.1582 -1.6164 1.180104062e-38
-0.0785 -7.0481 -0.7645 1.180104062e-38
-1.5724 -6.598 -0.85 1.180104062e-38
-0.9598 -6.5809 -0.8334 1.180104062e-38
-0.383 -6.8682 -0.862 1.180104062e-38
-12.4052 8.1151 -1.8577 1.180104062e-38
-1.9354 -6.7686 -0.8822 1.180104062e-38
-1.2562 -6.5533 -0.8362 1.180104062e-38
10.3947 4.137 -1.402 1.180104062e-38
-1.6112 -6.7607 -0.9885 1.180104062e-38
-0.3933 -7.0541 -1.0049 1.180104062e-38
-12.3741 8.0947 -2.1032 1.180104062e-38
-2.008 -7.0226 -1.0389 1.180104062e-38
-1.2805 -6.6802 -0.9675 1.180104062e-38
-0.6862 -6.821 -0.9751 1.180104062e-38
-1.6615 -6.9719 -1.1413 1.180104062e-38
-1.0035 -6.8803 -1.1072 1.180104062e-38
-1.3152 -6.8614 -1.1125 1.180104062e-38
10.2699 4.0873 -1.7601 1.180104062e-38
-1.3724 -7.1596 -1.2854 1.180104062e-38
10.2405 4.0756 -1.9434 1.180104062e-38
14.0786 2.2138 -3.7553 1.180104062e-38
-3.9277 -0.351 -1.1095 1.180104062e-38
-3.7284 -0.6717 -1.0659 1.180104062e-38
-3.7904 -1.0383 -1.1057 1.180104062e-38
12.9464 3.2381 -3.7548 1.180104062e-38
-3.7396 -0.5029 -1.0616 1.180104062e-38
13.0781 2.6582 -3.7549 1.180104062e-38
-3.4925 -0.9567 -1.0841 1.180104062e-38
-4.8506 0.2163 -1.4536 1.180104062e-38
-3.6646 -0.1634 -1.0982 1.180104062e-38
12.2898 2.498 -3.7546 1.180104062e-38
12.0181 3.5818 -3.7544 1.180104062e-38
-3.7562 0 -1.1929 1.180104062e-38
-3.3867 -0.3026 -1.0798 1.180104062e-38
-3.254 -0.8913 -1.0715 1.180104062e-38
11.4679 2.8683 -3.7542 1.180104062e-38
-3.4557 -0.1541 -1.0986 1.180104062e-38
-3.2591 -0.7384 -1.0613 1.180104062e-38
11.3284 3.3762 -3.7541 1.180104062e-38
-3.6184 0 -1.2157 1.180104062e-38
-3.2019 -0.2861 -1.0801 1.180104062e-38
-3.2675 -0.1457 -1.0989 1.180104062e-38
-3.1639 -0.4255 -1.0726 1.180104062e-38
-3.1355 -0.7104 -1.0802 1.180104062e-38
-3.1418 -1.0131 -1.1091 1.180104062e-38
-3.4902 0 -1.2376 1.180104062e-38
-3.0229 -0.8281 -1.1114 1.180104062e-38
-3.0314 -1.1289 -1.147 1.180104062e-38
10.0001 3.4724 -3.7536 1.180104062e-38
-3.9464 0.176 -1.4007 1.180104062e-38
-3.1623 -0.141 -1.1224 1.180104062e-38
-3.0595 -0.4115 -1.0946 1.180104062e-38
-3.0191 -0.9735 -1.1248 1.180104062e-38
10.145 3.0235 -3.7537 1.180104062e-38
-3.3741 0 -1.2599 1.180104062e-38
-2.9455 -0.5306 -1.1176 1.180104062e-38
-3.0832 -0.1375 -1.1525 1.180104062e-38
-2.9258 -0.6629 -1.1202 1.180104062e-38
-2.9106 -0.9385 -1.1419 1.180104062e-38
9.339 3.7169 -3.7533 1.180104062e-38
-4.2614 0.3808 -1.5976 1.180104062e-38
-2.9005 -0.2592 -1.1429 1.180104062e-38
-2.8528 -1.0624 -1.1947 1.180104062e-38
8.7184 3.9283 -3.753 1.180104062e-38
-3.6456 0.1626 -1.4322 1.180104062e-38
-3.0071 -0.1341 -1.1814 1.180104062e-38
-2.8734 -0.3864 -1.1379 1.180104062e-38
8.885 3.5362 -3.7531 1.180104062e-38
8.5346 4.3127 -3.7529 1.180104062e-38
-4.1297 0.369 -1.6273 1.180104062e-38
-3.1614 0 -1.3018 1.180104062e-38
-2.7695 -0.7586 -1.1825 1.180104062e-38
-2.7842 -1.0368 -1.2234 1.180104062e-38
8.3093 3.744 -3.7529 1.180104062e-38
-3.5093 0.1565 -1.4465 1.180104062e-38
-2.9337 -0.1308 -1.2092 1.180104062e-38
-2.7775 -0.8956 -1.2017 1.180104062e-38
-2.8016 -1.1879 -1.2531 1.180104062e-38
8.468 3.3702 -3.753 1.180104062e-38
8.134 4.1103 -3.7528 1.180104062e-38
-2.7539 -0.2461 -1.1927 1.180104062e-38
-2.7278 -0.4914 -1.1956 1.180104062e-38
-2.73 -1.304 -1.305 1.180104062e-38
-2.7884 -1.6516 -1.398 1.180104062e-38
7.9319 3.574 -3.7528 1.180104062e-38
7.3842 4.5989 -3.7525 1.180104062e-38
-3.8265 0.3419 -1.6572 1.180104062e-38
-2.998 0 -1.3528 1.180104062e-38
-2.6546 -0.7272 -1.2419 1.180104062e-38
-2.6666 -1.2737 -1.3334 1.180104062e-38
7.5825 3.4165 -3.7526 1.180104062e-38
-3.2609 0.1454 -1.4728 1.180104062e-38
-2.7833 -0.1241 -1.2571 1.180104062e-38
-2.687 -0.3614 -1.2234 1.180104062e-38
7.4226 3.7508 -3.7525 1.180104062e-38
-2.9112 0 -1.3723 1.180104062e-38
-2.6212 -0.4722 -1.2555 1.180104062e-38
-2.6016 -0.7127 -1.2715 1.180104062e-38
6.9378 3.9031 -3.7523 1.180104062e-38
6.5625 4.5049 -3.7521 1.180104062e-38
-3.1522 0.1406 -1.4873 1.180104062e-38
-2.7082 -0.1208 -1.2778 1.180104062e-38
-2.5994 -0.8382 -1.2874 1.180104062e-38
-2.6038 -1.1041 -1.3332 1.180104062e-38
-2.5902 -1.3822 -1.3839 1.180104062e-38
7.105 3.5903 -3.7524 1.180104062e-38
-2.8279 0 -1.3909 1.180104062e-38
-2.5903 -0.2315 -1.2791 1.180104062e-38
-2.5698 -0.4629 -1.2843 1.180104062e-38
-2.5499 -0.6985 -1.3004 1.180104062e-38
6.2892 4.3173 -3.752 1.180104062e-38
5.8796 4.8597 -3.7518 1.180104062e-38
-2.6467 -0.118 -1.3031 1.180104062e-38
-2.5616 -0.5804 -1.2919 1.180104062e-38
-2.543 -0.82 -1.3142 1.180104062e-38
-2.5301 -1.3501 -1.4105 1.180104062e-38
6.0904 4.593 -3.752 1.180104062e-38
-3.6334 0.3247 -1.7942 1.180104062e-38
-2.5372 -0.2267 -1.3059 1.180104062e-38
-2.5199 -0.454 -1.3126 1.180104062e-38
-2.4994 -0.6846 -1.3286 1.180104062e-38
-2.4895 -0.9271 -1.3619 1.180104062e-38
-2.9775 0.1328 -1.528 1.180104062e-38
-2.4881 -0.8023 -1.3403 1.180104062e-38
-2.4717 -1.3189 -1.4363 1.180104062e-38
6.2123 3.8691 -3.752 1.180104062e-38
-2.4716 -0.4453 -1.3407 1.180104062e-38
-2.4501 -0.6711 -1.3561 1.180104062e-38
-2.4352 -0.9069 -1.3872 1.180104062e-38
4.9967 4.9413 -3.7515 1.180104062e-38
-2.4621 -0.5578 -1.3477 1.180104062e-38
-2.4353 -0.7853 -1.366 1.180104062e-38
-2.433 -1.0317 -1.4108 1.180104062e-38
-2.4151 -1.2887 -1.4613 1.180104062e-38
-2.4322 -1.5911 -1.5516 1.180104062e-38
5.9658 3.7155 -3.752 1.180104062e-38
5.212 4.7139 -3.7516 1.180104062e-38
-3.5313 0.3156 -1.8927 1.180104062e-38
-2.4347 -0.2176 -1.3576 1.180104062e-38
-2.4243 -0.4368 -1.3681 1.180104062e-38
-2.4018 -0.6579 -1.3831 1.180104062e-38
-2.3733 -1.1336 -1.4608 1.180104062e-38
-2.3176 -1.3727 -1.496 1.180104062e-38
4.8027 4.7495 -3.7514 1.180104062e-38
-2.4351 -0.3275 -1.3646 1.180104062e-38
-2.3793 -1.0089 -1.4353 1.180104062e-38
-2.2661 -1.4824 -1.5039 1.180104062e-38
5.3933 4.0673 -3.7517 1.180104062e-38
5.0096 4.531 -3.7515 1.180104062e-38
4.5862 4.9586 -3.7513 1.180104062e-38
-2.5326 0 -1.4622 1.180104062e-38
-2.3852 -0.2131 -1.3826 1.180104062e-38
-2.378 -0.4284 -1.3951 1.180104062e-38
-2.3545 -0.645 -1.4095 1.180104062e-38
-2.3307 -0.868 -1.4359 1.180104062e-38
-2.1929 -1.5783 -1.5599 1.180104062e-38
4.62 4.5688 -3.7514 1.180104062e-38
3.7363 5.315 -3.751 1.180104062e-38
-2.3668 -0.5362 -1.4011 1.180104062e-38
-2.3397 -0.7544 -1.4193 1.180104062e-38
-2.194 -1.4352 -1.5137 1.180104062e-38
5.1881 3.9125 -3.7516 1.180104062e-38
4.8191 4.3586 -3.7515 1.180104062e-38
3.9695 5.1434 -3.7511 1.180104062e-38
