# .PCD v0.7 - Point Cloud Data file format
VERSION 0.7
FIELDS x y z rgb
SIZE 4 4 4 4
TYPE F F F F
COUNT 1 1 1 1
WIDTH 293
HEIGHT 1
VIEWPOINT 0 0 0 1 0 0 0
POINTS 293
DATA ascii
-1.0347 -7.0946 2.1464 1.180104062e-38
-0.6993 -6.9513 2.0916 1.180104062e-38
-0.0795 -7.1395 2.1376 1.180104062e-38
-0.994 -6.8151 1.9377 1.180104062e-38
-0.3756 -6.7358 1.8981 1.180104062e-38
0.2407 -7.198 2.0263 1.180104062e-38
-0.3686 -6.6106 1.7446 1.180104062e-38
-0.6631 -6.5917 1.7457 1.180104062e-38
-0.0747 -6.7077 1.7676 1.180104062e-38
-1.6836 -7.0648 1.7852 1.180104062e-38
-0.9513 -6.5227 1.6203 1.180104062e-38
-0.3622 -6.4952 1.599 1.180104062e-38
-1.2788 -6.6712 1.6696 1.180104062e-38
-0.6512 -6.4731 1.5991 1.180104062e-38
-0.0733 -6.5809 1.6177 1.180104062e-38
0.5599 -7.1658 1.7667 1.180104062e-38
-1.6254 -6.8204 1.6003 1.180104062e-38
-0.9404 -6.4475 1.4872 1.180104062e-38
-0.3583 -6.4262 1.469 1.180104062e-38
0.2226 -6.6573 1.5203 1.180104062e-38
-0.6442 -6.4038 1.469 1.180104062e-38
-0.0725 -6.5058 1.485 1.180104062e-38
0.5415 -6.9299 1.5865 1.180104062e-38
-0.0717 -6.4352 1.3567 1.180104062e-38
0.5335 -6.8269 1.4436 1.180104062e-38
-1.5727 -6.5993 1.3128 1.180104062e-38
-0.9214 -6.3173 1.2355 1.180104062e-38
-0.3516 -6.3049 1.222 1.180104062e-38
-2.0344 -7.1147 1.432 1.180104062e-38
-0.071 -6.3749 1.2337 1.180104062e-38
-1.557 -6.5335 1.1843 1.180104062e-38
-0.9161 -6.2814 1.1193 1.180104062e-38
-1.2203 -6.366 1.1429 1.180104062e-38
-0.0706 -6.3386 1.1177 1.180104062e-38
0.5206 -6.6626 1.1784 1.180104062e-38
-1.5453 -6.4844 1.0615 1.180104062e-38
-0.911 -6.2461 1.0051 1.180104062e-38
0.2146 -6.4189 1.0227 1.180104062e-38
-1.9458 -6.805 1.127 1.180104062e-38
-1.2127 -6.3263 1.0257 1.180104062e-38
0.5167 -6.6126 1.0562 1.180104062e-38
0.2133 -6.3793 0.9079 1.180104062e-38
-1.9262 -6.7363 0.9965 1.180104062e-38
-1.2052 -6.2873 0.9106 1.180104062e-38
-0.622 -6.1827 0.8838 1.180104062e-38
-0.0698 -6.2679 0.8916 1.180104062e-38
-0.3454 -6.1937 0.7774 1.180104062e-38
0.2127 -6.3628 0.7978 1.180104062e-38
0.8423 -6.8389 0.8635 1.180104062e-38
-1.9093 -6.6771 0.8703 1.180104062e-38
-0.0697 -6.2567 0.7841 1.180104062e-38
0.5107 -6.5354 0.8215 1.180104062e-38
-0.3448 -6.1834 0.6717 1.180104062e-38
-1.9034 -6.6566 0.751 1.180104062e-38
-0.0696 -6.2459 0.6775 1.180104062e-38
-0.9011 -6.1785 0.5724 1.180104062e-38
0.8372 -6.7975 0.6279 1.180104062e-38
-1.8976 -6.6364 0.6328 1.180104062e-38
-1.1974 -6.2466 0.5831 1.180104062e-38
0.5084 -6.5058 0.5983 1.180104062e-38
0.8347 -6.7771 0.5117 1.180104062e-38
-1.8919 -6.6163 0.5157 1.180104062e-38
-0.6186 -6.1488 0.4631 1.180104062e-38
1.2693 -7.5249 0.5719 1.180104062e-38
-1.8959 -6.6305 0.4017 1.180104062e-38
-1.1983 -6.2517 0.3707 1.180104062e-38
0.5086 -6.5086 0.3802 1.180104062e-38
1.2674 -7.5138 0.4438 1.180104062e-38
-0.9036 -6.1953 0.2603 1.180104062e-38
-0.3452 -6.1903 0.2578 1.180104062e-38
0.8391 -6.8128 0.2854 1.180104062e-38
0.5097 -6.523 0.2721 1.180104062e-38
-0.9051 -6.2058 0.1564 1.180104062e-38
-0.3457 -6.2003 0.1549 1.180104062e-38
0.2129 -6.3677 0.1589 1.180104062e-38
-1.9071 -6.6694 0.173 1.180104062e-38
-0.6216 -6.1789 0.1549 1.180104062e-38
-0.0698 -6.2627 0.1562 1.180104062e-38
0.5108 -6.5375 0.1635 1.180104062e-38
-1.5342 -6.4378 0.055 1.180104062e-38
-0.9084 -6.2282 0.0523 1.180104062e-38
-0.3469 -6.2222 0.0518 1.180104062e-38
0.2137 -6.3926 0.0532 1.180104062e-38
0.8464 -6.8719 0.0575 1.180104062e-38
-1.2075 -6.2995 0.0533 1.180104062e-38
-0.07 -6.2854 0.0522 1.180104062e-38
-1.5447 -6.4819 -0.0554 1.180104062e-38
0.8541 -6.9346 -0.0581 1.180104062e-38
-1.9355 -6.7688 -0.0585 1.180104062e-38
-1.2144 -6.3356 -0.0536 1.180104062e-38
-0.0704 -6.3181 -0.0525 1.180104062e-38
-1.5554 -6.5265 -0.1673 1.180104062e-38
-0.3505 -6.2852 -0.157 1.180104062e-38
-1.9533 -6.8312 -0.1772 1.180104062e-38
-0.0708 -6.3512 -0.1584 1.180104062e-38
0.2175 -6.5055 -0.2706 1.180104062e-38
-1.9833 -6.9361 -0.3 1.180104062e-38
0.5242 -6.7084 -0.2798 1.180104062e-38
-1.5871 -6.6597 -0.3987 1.180104062e-38
-2.0338 -7.1128 -0.4309 1.180104062e-38
-1.2418 -6.4782 -0.3842 1.180104062e-38
-0.6391 -6.3523 -0.3718 1.180104062e-38
0.5308 -6.7929 -0.3968 1.180104062e-38
-1.6084 -6.7493 -0.52 1.180104062e-38
-0.9404 -6.448 -0.4883 1.180104062e-38
0.2221 -6.6437 -0.4982 1.180104062e-38
0.9157 -7.4346 -0.5614 1.180104062e-38
-1.255 -6.5471 -0.4996 1.180104062e-38
-0.645 -6.4111 -0.4829 1.180104062e-38
-0.0725 -6.5071 -0.4877 1.180104062e-38
-0.3621 -6.4935 -0.5962 1.180104062e-38
0.2246 -6.7168 -0.6161 1.180104062e-38
-1.2689 -6.6199 -0.6179 1.180104062e-38
-0.651 -6.4713 -0.5963 1.180104062e-38
0.5466 -6.9946 -0.6432 1.180104062e-38
-0.9644 -6.6124 -0.7248 1.180104062e-38
0.2286 -6.836 -0.7419 1.180104062e-38
-1.294 -6.7505 -0.7455 1.180104062e-38
-0.0743 -6.6701 -0.7235 1.180104062e-38
-1.7642 -7.4028 -0.9537 1.180104062e-38
-0.3729 -6.6876 -0.8394 1.180104062e-38
-0.671 -6.6699 -0.8401 1.180104062e-38
-1.004 -6.884 -0.9895 1.180104062e-38
-0.3802 -6.8177 -0.9712 1.180104062e-38
11.2419 3.9036 -1.6927 1.180104062e-38
-1.3638 -7.1149 -1.0304 1.180104062e-38
-11.6738 8.4023 -2.0458 1.180104062e-38
-1.0334 -7.0858 -1.1403 1.180104062e-38
-0.3902 -6.9972 -1.1159 1.180104062e-38
0.2555 -7.641 -1.2174 1.180104062e-38
11.1756 3.8806 -1.8838 1.180104062e-38
-0.7025 -6.9829 -1.1175 1.180104062e-38
10.957 4.3608 -1.8779 1.180104062e-38
-1.1006 -7.5463 -1.3447 1.180104062e-38
-0.4067 -7.2936 -1.2881 1.180104062e-38
11.1265 3.8636 -2.0768 1.180104062e-38
10.9188 4.3456 -2.0722 1.180104062e-38
14.0786 2.2138 -3.7553 1.180104062e-38
-5.0319 0 -1.4158 1.180104062e-38
-3.9277 -0.351 -1.1095 1.180104062e-38
-3.7904 -1.0383 -1.1057 1.180104062e-38
13.0781 2.6582 -3.7549 1.180104062e-38
-3.9677 0 -1.1878 1.180104062e-38
-3.4925 -0.9567 -1.0841 1.180104062e-38
12.166 3.0429 -3.7545 1.180104062e-38
-3.6646 -0.1634 -1.0982 1.180104062e-38
-3.5144 -0.4726 -1.0616 1.180104062e-38
-3.7563 0 -1.1929 1.180104062e-38
-3.3867 -0.3026 -1.0798 1.180104062e-38
-3.2843 -0.5917 -1.0598 1.180104062e-38
-3.254 -0.8914 -1.0715 1.180104062e-38
-3.4557 -0.1541 -1.0986 1.180104062e-38
-3.2827 -1.0586 -1.0954 1.180104062e-38
11.3284 3.3762 -3.7541 1.180104062e-38
-3.6184 0 -1.2157 1.180104062e-38
-3.1483 -0.5672 -1.0748 1.180104062e-38
-4.1559 0.1853 -1.3977 1.180104062e-38
-3.2675 -0.1457 -1.0989 1.180104062e-38
-3.1418 -1.0131 -1.1091 1.180104062e-38
-3.093 -0.2764 -1.1011 1.180104062e-38
-3.0314 -1.1289 -1.147 1.180104062e-38
10 3.4724 -3.7536 1.180104062e-38
-3.9464 0.176 -1.4007 1.180104062e-38
-3.1623 -0.141 -1.1224 1.180104062e-38
-3.0595 -0.4115 -1.0946 1.180104062e-38
-3.0241 -0.6852 -1.0995 1.180104062e-38
10.1451 3.0236 -3.7537 1.180104062e-38
9.8352 3.9143 -3.7535 1.180104062e-38
-3.3741 0 -1.2599 1.180104062e-38
-2.9455 -0.5307 -1.1176 1.180104062e-38
-2.9169 -0.799 -1.1293 1.180104062e-38
9.1638 4.129 -3.7532 1.180104062e-38
-3.0833 -0.1375 -1.1525 1.180104062e-38
-2.9258 -0.6629 -1.1202 1.180104062e-38
9.3389 3.7168 -3.7533 1.180104062e-38
-4.2614 0.3808 -1.5976 1.180104062e-38
-3.2641 0 -1.2811 1.180104062e-38
-2.8518 -0.5138 -1.1373 1.180104062e-38
-2.8528 -1.0624 -1.1947 1.180104062e-38
-2.8326 -0.6418 -1.1399 1.180104062e-38
-2.8717 -1.2177 -1.2242 1.180104062e-38
-4.1298 0.369 -1.6273 1.180104062e-38
-2.7831 -0.5014 -1.1645 1.180104062e-38
-2.7695 -0.7587 -1.1825 1.180104062e-38
7.9426 4.4684 -3.7527 1.180104062e-38
-3.5093 0.1565 -1.4465 1.180104062e-38
-2.7947 -0.3758 -1.1611 1.180104062e-38
-2.7756 -0.6288 -1.1719 1.180104062e-38
-2.8016 -1.188 -1.2531 1.180104062e-38
8.468 3.3702 -3.753 1.180104062e-38
-3.0794 0 -1.3283 1.180104062e-38
-2.7092 -0.7421 -1.2117 1.180104062e-38
-2.7209 -1.0133 -1.2524 1.180104062e-38
-2.73 -1.304 -1.305 1.180104062e-38
-2.7884 -1.6516 -1.398 1.180104062e-38
7.9319 3.5739 -3.7528 1.180104062e-38
7.5819 4.2655 -3.7526 1.180104062e-38
-2.8614 -0.1276 -1.2355 1.180104062e-38
-2.72 -0.6163 -1.203 1.180104062e-38
-2.7334 -1.159 -1.2807 1.180104062e-38
7.7646 3.9237 -3.7527 1.180104062e-38
7.3842 4.5989 -3.7525 1.180104062e-38
-2.998 -0 -1.3528 1.180104062e-38
-2.6607 -0.9909 -1.2811 1.180104062e-38
-2.6867 -1.5913 -1.409 1.180104062e-38
6.8559 4.7063 -3.7522 1.180104062e-38
-2.6659 -0.604 -1.2334 1.180104062e-38
-2.6574 -0.8569 -1.2599 1.180104062e-38
-2.6675 -1.1311 -1.3074 1.180104062e-38
7.4226 3.7508 -3.7525 1.180104062e-38
7.059 4.3963 -3.7523 1.180104062e-38
-3.7667 0.3366 -1.7064 1.180104062e-38
-2.9112 0 -1.3723 1.180104062e-38
-2.6016 -0.7126 -1.2715 1.180104062e-38
-2.6052 -1.2444 -1.3609 1.180104062e-38
-2.6596 -1.5753 -1.4571 1.180104062e-38
6.9378 3.9032 -3.7523 1.180104062e-38
-3.1522 0.1406 -1.4873 1.180104062e-38
-2.7082 -0.1208 -1.2778 1.180104062e-38
-2.6352 -0.3544 -1.2533 1.180104062e-38
-2.6038 -1.1041 -1.3332 1.180104062e-38
-2.5902 -1.3822 -1.3839 1.180104062e-38
6.7569 4.2082 -3.7522 1.180104062e-38
6.3552 4.7927 -3.752 1.180104062e-38
-3.7077 0.3313 -1.7547 1.180104062e-38
-2.828 0 -1.3909 1.180104062e-38
-2.5903 -0.2315 -1.2791 1.180104062e-38
-2.5453 -0.9479 -1.3359 1.180104062e-38
-2.5457 -1.216 -1.3876 1.180104062e-38
6.6488 3.7405 -3.7522 1.180104062e-38
5.8796 4.8596 -3.7518 1.180104062e-38
-3.063 0.1366 -1.5081 1.180104062e-38
-2.543 -0.82 -1.3142 1.180104062e-38
-2.5441 -1.0788 -1.3592 1.180104062e-38
-2.5301 -1.3501 -1.4105 1.180104062e-38
6.0904 4.593 -3.752 1.180104062e-38
-2.7481 0 -1.4089 1.180104062e-38
-2.5372 -0.2267 -1.3059 1.180104062e-38
-2.5199 -0.454 -1.3127 1.180104062e-38
-2.4994 -0.6846 -1.3286 1.180104062e-38
-2.4879 -1.1884 -1.4135 1.180104062e-38
-2.4521 -1.4524 -1.4611 1.180104062e-38
6.3787 3.5886 -3.7521 1.180104062e-38
6.0336 4.1418 -3.752 1.180104062e-38
5.6408 4.6622 -3.7518 1.180104062e-38
-2.9775 0.1328 -1.528 1.180104062e-38
-2.5877 -0.1154 -1.328 1.180104062e-38
-2.5113 -0.569 -1.3201 1.180104062e-38
-2.4881 -0.8023 -1.3403 1.180104062e-38
-2.4879 -1.055 -1.3854 1.180104062e-38
6.2123 3.8691 -3.752 1.180104062e-38
5.4273 4.9088 -3.7517 1.180104062e-38
-3.5464 0.3169 -1.8254 1.180104062e-38
-2.6714 0 -1.4261 1.180104062e-38
-2.4352 -0.9069 -1.3872 1.180104062e-38
-2.3944 -1.4182 -1.4856 1.180104062e-38
5.4169 4.4772 -3.7517 1.180104062e-38
4.9967 4.9413 -3.7515 1.180104062e-38
-2.8952 0.1291 -1.5471 1.180104062e-38
-2.4621 -0.5578 -1.3477 1.180104062e-38
-2.4353 -0.7853 -1.366 1.180104062e-38
-2.4322 -1.5911 -1.5515 1.180104062e-38
5.9658 3.7155 -3.752 1.180104062e-38
-3.5314 0.3156 -1.8927 1.180104062e-38
-2.5976 0 -1.4427 1.180104062e-38
-2.4243 -0.4368 -1.3682 1.180104062e-38
-2.3823 -0.8872 -1.4119 1.180104062e-38
-2.3733 -1.1336 -1.4608 1.180104062e-38
5.5692 3.8231 -3.7518 1.180104062e-38
4.8027 4.7495 -3.7514 1.180104062e-38
4.3606 5.1578 -3.7512 1.180104062e-38
-2.5021 0.1116 -1.391 1.180104062e-38
-2.4745 -0.1103 -1.3757 1.180104062e-38
-2.4351 -0.3275 -1.3646 1.180104062e-38
-2.3793 -1.0089 -1.4353 1.180104062e-38
-2.2661 -1.4824 -1.5039 1.180104062e-38
5.0096 4.5309 -3.7515 1.180104062e-38
4.5862 4.9586 -3.7513 1.180104062e-38
-2.5326 0 -1.4622 1.180104062e-38
-2.378 -0.4284 -1.3951 1.180104062e-38
-2.3545 -0.645 -1.4095 1.180104062e-38
-2.3307 -0.868 -1.4359 1.180104062e-38
-2.2443 -1.3293 -1.506 1.180104062e-38
5.0085 4.1397 -3.7516 1.180104062e-38
4.62 4.5688 -3.7514 1.180104062e-38
4.1948 4.9616 -3.7512 1.180104062e-38
-2.4294 0.1083 -1.404 1.180104062e-38
-2.3854 -0.3208 -1.3896 1.180104062e-38
-2.3668 -0.5362 -1.4011 1.180104062e-38
-2.3397 -0.7545 -1.4193 1.180104062e-38
-2.3269 -0.9867 -1.4592 1.180104062e-38
-2.194 -1.4353 -1.5137 1.180104062e-38
4.4118 4.77 -3.7513 1.180104062e-38
