# .PCD v0.7 - Point Cloud Data file format
VERSION 0.7
FIELDS x y z rgb
SIZE 4 4 4 4
TYPE F F F F
COUNT 1 1 1 1
WIDTH 402
HEIGHT 1
VIEWPOINT 0 0 0 1 0 0 0
POINTS 402
DATA ascii
2.1091 8.0504 4.8048 1.180104062e-38
7.4726 6.1762 5.3843 1.180104062e-38
2.1078 8.0455 4.6192 1.180104062e-38
7.6634 6.334 5.3076 1.180104062e-38
2.1074 8.0441 4.4392 1.180104062e-38
2.1107 8.0563 4.2696 1.180104062e-38
-5.8754 -6.6434 4.5467 1.180104062e-38
2.1138 8.0684 4.1024 1.180104062e-38
-7.428 -11.0833 6.0202 1.180104062e-38
-6.28 -7.7728 4.3105 1.180104062e-38
2.1411 8.1727 3.6443 1.180104062e-38
-7.4472 -11.1119 5.5083 1.180104062e-38
4.2624 7.3827 3.5104 1.180104062e-38
2.8295 7.8647 3.4417 1.180104062e-38
5.3931 6.988 3.6348 1.180104062e-38
2.4751 7.979 3.4401 1.180104062e-38
5.8532 6.9232 3.5581 1.180104062e-38
2.143 8.1799 3.3187 1.180104062e-38
6.6587 6.585 3.4969 1.180104062e-38
1.7749 8.2597 3.1547 1.180104062e-38
1.7651 8.2144 2.6683 1.180104062e-38
1.7648 8.2126 2.5148 1.180104062e-38
-7.5311 -10.2213 3.5722 1.180104062e-38
9.1688 5.7104 3.0391 1.180104062e-38
9.7712 5.4972 2.9542 1.180104062e-38
1.7694 8.234 2.2192 1.180104062e-38
-7.9704 -10.8175 3.3028 1.180104062e-38
10.4754 5.2934 2.8849 1.180104062e-38
-7.9615 -10.8054 3.0634 1.180104062e-38
1.7781 8.2745 1.9317 1.180104062e-38
1.7839 8.3016 1.7901 1.180104062e-38
1.7958 8.357 1.6541 1.180104062e-38
12.879 4.4721 2.4039 1.180104062e-38
-8.0315 -10.9004 2.156 1.180104062e-38
1.4244 8.4446 1.2181 1.180104062e-38
1.4194 8.4149 1.0694 1.180104062e-38
6.7072 0.449 0.6163 1.180104062e-38
1.4152 8.3901 0.7801 1.180104062e-38
6.6787 0.7471 0.6161 1.180104062e-38
6.3306 0.4238 0.4755 1.180104062e-38
6.4025 1.0067 0.4857 1.180104062e-38
6.1274 0.4102 0.3577 1.180104062e-38
6.0861 0.6808 0.3567 1.180104062e-38
-8.5651 -10.6011 0.5667 1.180104062e-38
6.3038 -0.1405 0.2622 1.180104062e-38
5.9923 0.4011 0.2497 1.180104062e-38
6.0009 0.9436 0.2526 1.180104062e-38
6.7197 1.6807 0.288 1.180104062e-38
1.4167 8.399 0.3542 1.180104062e-38
6.0941 0.1358 0.2535 1.180104062e-38
5.9618 0.6669 0.2494 1.180104062e-38
-8.5262 -10.553 0.3383 1.180104062e-38
6.1549 -0.1371 0.1535 1.180104062e-38
5.8758 0.3933 0.1469 1.180104062e-38
6.2479 1.5627 0.1606 1.180104062e-38
1.4185 8.4093 0.2127 1.180104062e-38
6.5468 -0.4383 0.1636 1.180104062e-38
5.9713 0.1331 0.149 1.180104062e-38
5.9765 1.2148 0.1521 1.180104062e-38
-8.5169 -10.5414 0.1126 1.180104062e-38
6.0196 -0.1341 0.05 1.180104062e-38
5.7849 0.9096 0.0487 1.180104062e-38
1.421 8.4241 0.071 1.180104062e-38
6.329 -0.4237 0.0527 1.180104062e-38
5.8749 1.1941 0.0498 1.180104062e-38
1.4254 8.4507 -0.0712 1.180104062e-38
6.1767 -0.4135 -0.0515 1.180104062e-38
6.4889 1.9339 -0.0563 1.180104062e-38
-8.5188 -10.5438 -0.338 1.180104062e-38
5.847 -0.1303 -0.1459 1.180104062e-38
5.6432 0.3778 -0.141 1.180104062e-38
1.4299 8.4774 -0.2144 1.180104062e-38
6.0763 -0.4068 -0.1519 1.180104062e-38
5.6128 0.6279 -0.1408 1.180104062e-38
5.6933 1.1572 -0.1449 1.180104062e-38
6.3981 -0.7157 -0.2677 1.180104062e-38
5.7668 1.4424 -0.2472 1.180104062e-38
5.6565 0.1261 -0.2352 1.180104062e-38
5.5659 0.6226 -0.2329 1.180104062e-38
5.6356 1.1455 -0.2391 1.180104062e-38
6.067 1.8082 -0.2632 1.180104062e-38
-8.5526 -10.5857 -0.7926 1.180104062e-38
6.2613 -0.7004 -0.3669 1.180104062e-38
5.548 0.3714 -0.3239 1.180104062e-38
5.5255 0.8689 -0.3258 1.180104062e-38
5.9077 -0.3955 -0.3449 1.180104062e-38
5.5197 0.6175 -0.3235 1.180104062e-38
-11.5334 -8.3012 -1.0649 1.180104062e-38
-8.5975 -10.6412 -1.0252 1.180104062e-38
5.4764 0.8611 -0.4154 1.180104062e-38
-11.3607 -7.4318 -1.0174 1.180104062e-38
-11.7141 -9.2505 -1.1186 1.180104062e-38
5.8529 -0.3918 -0.4396 1.180104062e-38
5.5679 0.1241 -0.4174 1.180104062e-38
5.4742 0.6124 -0.4128 1.180104062e-38
5.5333 1.1247 -0.4231 1.180104062e-38
-10.6298 -7.6509 -1.2007 1.180104062e-38
-10.702 -9.2543 -1.2971 1.180104062e-38
5.4678 0.366 -0.5024 1.180104062e-38
5.4479 0.8567 -0.5056 1.180104062e-38
-4.2496 0.5715 -0.3931 1.180104062e-38
-10.5875 -8.3608 -1.2368 1.180104062e-38
-10.7959 -10.2107 -1.3623 1.180104062e-38
5.5254 0.1231 -0.5067 1.180104062e-38
5.4411 0.6087 -0.5019 1.180104062e-38
5.8194 1.7344 -0.5567 1.180104062e-38
1.0665 8.6594 -0.7999 1.180104062e-38
-4.908 0.8842 -0.4572 1.180104062e-38
-9.7187 -8.4041 -1.3936 1.180104062e-38
-9.8249 -10.1588 -1.5329 1.180104062e-38
5.4224 0.8526 -0.5954 1.180104062e-38
6.3559 2.207 -0.7298 1.180104062e-38
-4.7637 1.0793 -0.5298 1.180104062e-38
-3.7517 0.5046 -0.4106 1.180104062e-38
-3.9257 -0.175 -0.4262 1.180104062e-38
-9.7961 -11.0765 -1.6039 1.180104062e-38
5.4157 0.6058 -0.5911 1.180104062e-38
5.7731 1.7206 -0.6534 1.180104062e-38
1.0592 8.5999 -0.9398 1.180104062e-38
-3.5692 0 -0.4473 1.180104062e-38
-3.77 -0.3369 -0.4743 1.180104062e-38
-8.9202 -9.2234 -1.608 1.180104062e-38
-8.8895 -11.0027 -1.7726 1.180104062e-38
6.0143 -0.6728 -0.7584 1.180104062e-38
5.5772 -0.1243 -0.6991 1.180104062e-38
5.397 0.8486 -0.6846 1.180104062e-38
-4.3832 0.9931 -0.5632 1.180104062e-38
-3.5348 0.1576 -0.4434 1.180104062e-38
-3.631 -0.1619 -0.4555 1.180104062e-38
1.0559 8.573 -1.0825 1.180104062e-38
-3.5366 0.316 -0.445 1.180104062e-38
-3.3944 0 -0.4828 1.180104062e-38
-3.5139 -0.314 -0.5018 1.180104062e-38
5.9877 -0.6698 -0.857 1.180104062e-38
5.5548 -0.1238 -0.7903 1.180104062e-38
-4.1432 0.9387 -0.6042 1.180104062e-38
-3.3671 0.4528 -0.4832 1.180104062e-38
-3.361 0.1499 -0.4785 1.180104062e-38
-3.447 -0.1537 -0.4908 1.180104062e-38
-8.1256 -9.1877 -1.7446 1.180104062e-38
-7.9931 -10.8482 -1.9166 1.180104062e-38
5.7137 -0.3825 -0.8145 1.180104062e-38
-3.6717 0.6615 -0.5306 1.180104062e-38
-3.3525 0.2996 -0.4787 1.180104062e-38
-3.3916 -0.3031 -0.5422 1.180104062e-38
-7.383 -9.138 -1.8707 1.180104062e-38
-6.8032 -12.4143 -2.2542 1.180104062e-38
5.9612 -0.6669 -0.9552 1.180104062e-38
5.5343 -0.1233 -0.8815 1.180104062e-38
5.3668 0.8439 -0.8651 1.180104062e-38
6.1867 2.1483 -1.0429 1.180104062e-38
-3.254 0.4376 -0.5228 1.180104062e-38
-3.26 0.1454 -0.5196 1.180104062e-38
-3.3344 -0.1487 -0.5315 1.180104062e-38
-7.2822 -9.8834 -1.9549 1.180104062e-38
-6.48 -13.1864 -2.3396 1.180104062e-38
5.6901 -0.3809 -0.9081 1.180104062e-38
5.3557 0.5991 -0.8581 1.180104062e-38
5.698 1.6982 -0.9468 1.180104062e-38
1.0548 8.5646 -1.3741 1.180104062e-38
-4.5041 1.2338 -0.7436 1.180104062e-38
-3.1939 0 -0.5632 1.180104062e-38
-3.2817 -0.2932 -0.5809 1.180104062e-38
-6.5871 -9.8286 -2.0863 1.180104062e-38
-5.8451 -13.368 -2.5726 1.180104062e-38
5.5334 -0.1233 -0.9759 1.180104062e-38
-3.1779 0.4274 -0.5654 1.180104062e-38
-3.2276 -0.1439 -0.5697 1.180104062e-38
-3.3507 -0.4506 -0.5961 1.180104062e-38
5.6863 -0.3806 -1.0049 1.180104062e-38
5.3483 0.5983 -0.9489 1.180104062e-38
5.4067 1.099 -0.9728 1.180104062e-38
5.6831 1.6937 -1.0456 1.180104062e-38
1.0549 8.5654 -1.5217 1.180104062e-38
-4.2904 1.1753 -0.7844 1.180104062e-38
-3.1509 0.2816 -0.5578 1.180104062e-38
-3.1015 0 -0.6002 1.180104062e-38
-3.1775 -0.2839 -0.6173 1.180104062e-38
-3.3117 -0.5966 -0.6512 1.180104062e-38
5.9707 -0.6679 -1.1626 1.180104062e-38
5.5325 -0.1233 -1.0709 1.180104062e-38
6.2351 2.1651 -1.2773 1.180104062e-38
-3.6833 0.8345 -0.7308 1.180104062e-38
5.4343 0.1211 -1.0519 1.180104062e-38
5.3408 0.5975 -1.04 1.180104062e-38
1.0563 8.5764 -1.6722 1.180104062e-38
-3.0211 0 -0.6369 1.180104062e-38
5.5316 -0.1233 -1.1664 1.180104062e-38
5.3516 0.8415 -1.1421 1.180104062e-38
5.5053 1.377 -1.1964 1.180104062e-38
-3.552 0.8048 -0.7678 1.180104062e-38
-3.0346 0.4081 -0.6455 1.180104062e-38
-2.994 0.1335 -0.6318 1.180104062e-38
-3.0505 -0.136 -0.6437 1.180104062e-38
-3.1545 -0.4242 -0.671 1.180104062e-38
5.6935 -0.3811 -1.203 1.180104062e-38
5.4306 0.121 -1.1452 1.180104062e-38
5.3351 0.5968 -1.1317 1.180104062e-38
5.403 1.0982 -1.1623 1.180104062e-38
5.7035 1.6998 -1.2547 1.180104062e-38
-3.2435 0.5843 -0.6948 1.180104062e-38
-3.043 -0.2719 -0.6973 1.180104062e-38
6.0068 -0.672 -1.3796 1.180104062e-38
5.5405 -0.1235 -1.2649 1.180104062e-38
5.3628 0.8433 -1.2391 1.180104062e-38
5.5179 1.3801 -1.2982 1.180104062e-38
-2.9453 0.1313 -0.6729 1.180104062e-38
-2.9994 -0.1337 -0.6853 1.180104062e-38
5.7059 -0.382 -1.3052 1.180104062e-38
5.439 0.1212 -1.2417 1.180104062e-38
5.414 1.1005 -1.261 1.180104062e-38
-3.1659 0.5704 -0.7342 1.180104062e-38
-2.9221 0 -0.7182 1.180104062e-38
-2.9882 -0.267 -0.7374 1.180104062e-38
-3.1004 -0.5586 -0.7743 1.180104062e-38
6.0634 -0.6783 -1.4997 1.180104062e-38
5.3901 0.3608 -1.3279 1.180104062e-38
5.3742 0.8451 -1.3372 1.180104062e-38
5.5306 1.3833 -1.4013 1.180104062e-38
-3.3132 0.7507 -0.835 1.180104062e-38
-2.9494 -0.1315 -0.7257 1.180104062e-38
5.7388 -0.3842 -1.4138 1.180104062e-38
5.4553 0.1216 -1.3412 1.180104062e-38
5.3597 0.5996 -1.3256 1.180104062e-38
5.4252 1.1027 -1.3608 1.180104062e-38
5.7531 1.7146 -1.4756 1.180104062e-38
-3.8036 1.0419 -0.9694 1.180104062e-38
-2.8807 0.2574 -0.7109 1.180104062e-38
-2.9343 -0.2622 -0.7763 1.180104062e-38
-3.0385 -0.5474 -0.8135 1.180104062e-38
5.5668 1.3924 -1.512 1.180104062e-38
-3.2212 0.7298 -0.8703 1.180104062e-38
-2.8316 0.3808 -0.7528 1.180104062e-38
-2.8515 0.1272 -0.7521 1.180104062e-38
-2.9007 -0.1293 -0.7651 1.180104062e-38
-2.9836 -0.4013 -0.7933 1.180104062e-38
-3.0953 -0.7013 -0.8363 1.180104062e-38
5.7725 -0.3864 -1.5245 1.180104062e-38
5.3727 0.601 -1.4245 1.180104062e-38
5.4442 1.1066 -1.4639 1.180104062e-38
-2.8347 0.2533 -0.7499 1.180104062e-38
-2.8819 -0.2575 -0.8141 1.180104062e-38
5.4185 0.852 -1.5433 1.180104062e-38
5.6105 1.4033 -1.6272 1.180104062e-38
-3.137 0.7108 -0.905 1.180104062e-38
-2.7751 0.3732 -0.7878 1.180104062e-38
-2.8062 0.1251 -0.7903 1.180104062e-38
-2.9298 -0.394 -0.8317 1.180104062e-38
-3.0353 -0.6877 -0.8756 1.180104062e-38
-3.2049 -1.0334 -0.9474 1.180104062e-38
-2.9224 -0.5265 -0.889 1.180104062e-38
6.6356 -0.7423 -1.999 1.180104062e-38
5.454 0.8576 -1.6529 1.180104062e-38
5.6553 1.4145 -1.7453 1.180104062e-38
-2.7204 0.3659 -0.8217 1.180104062e-38
-2.8771 -0.3869 -0.8691 1.180104062e-38
5.8833 -0.3938 -1.7653 1.180104062e-38
5.5351 0.1233 -1.6575 1.180104062e-38
5.5188 1.1218 -1.686 1.180104062e-38
6.0523 1.8038 -1.8907 1.180104062e-38
-2.8473 0.513 -0.8661 1.180104062e-38
-2.738 0 -0.8695 1.180104062e-38
-2.7827 -0.2486 -0.8872 1.180104062e-38
5.7171 -0.1274 -1.8161 1.180104062e-38
5.4991 0.3681 -1.7503 1.180104062e-38
5.7439 1.4367 -1.8804 1.180104062e-38
-2.9791 0.675 -0.9701 1.180104062e-38
-2.6672 0.3587 -0.8547 1.180104062e-38
-2.7186 0.1212 -0.8642 1.180104062e-38
-2.7612 -0.1231 -0.8778 1.180104062e-38
-3.1071 -1.0019 -1.0368 1.180104062e-38
5.9753 -0.4 -1.9019 1.180104062e-38
5.5783 0.1243 -1.772 1.180104062e-38
5.4735 0.6123 -1.7491 1.180104062e-38
5.5716 1.1325 -1.8056 1.180104062e-38
-3.473 0.9514 -1.1436 1.180104062e-38
-2.7749 0.4999 -0.8954 1.180104062e-38
-2.6951 0.2408 -0.8593 1.180104062e-38
-2.6945 0 -0.9053 1.180104062e-38
-2.8177 -0.5076 -0.9619 1.180104062e-38
-2.8971 -0.7936 -1.0092 1.180104062e-38
5.5599 0.8743 -1.891 1.180104062e-38
-2.618 0.3521 -0.8875 1.180104062e-38
-2.6762 0.1193 -0.9001 1.180104062e-38
-2.7168 -0.1211 -0.9137 1.180104062e-38
-2.7751 -0.3732 -0.9408 1.180104062e-38
5.5327 0.6189 -1.8705 1.180104062e-38
5.6492 1.1483 -1.9368 1.180104062e-38
-2.65 0.2368 -0.8939 1.180104062e-38
5.923 -0.132 -2.1007 1.180104062e-38
5.6369 0.3774 -2.0032 1.180104062e-38
-2.5748 0.3463 -0.9212 1.180104062e-38
-2.6347 0.1175 -0.9351 1.180104062e-38
-2.6733 -0.1192 -0.9489 1.180104062e-38
-2.8093 -0.6365 -1.0214 1.180104062e-38
-2.8709 -0.9257 -1.0696 1.180104062e-38
5.7304 0.1277 -2.0324 1.180104062e-38
5.7387 1.1664 -2.0765 1.180104062e-38
-2.6624 0.4797 -0.9592 1.180104062e-38
-2.6101 0 -0.9746 1.180104062e-38
-2.6498 -0.2368 -0.9934 1.180104062e-38
-2.7878 -0.7636 -1.0793 1.180104062e-38
5.7303 0.3836 -2.1445 1.180104062e-38
5.7509 0.9043 -2.1738 1.180104062e-38
-2.592 0.1156 -0.9689 1.180104062e-38
-2.6307 -0.1173 -0.9833 1.180104062e-38
-2.7557 -0.6243 -1.0551 1.180104062e-38
5.8397 0.1301 -2.1812 1.180104062e-38
5.7037 0.6381 -2.1431 1.180104062e-38
-3.4441 0.9434 -1.3335 1.180104062e-38
-2.6096 0.4702 -0.9901 1.180104062e-38
-2.5691 0 -1.0083 1.180104062e-38
-2.6685 -0.4807 -1.0642 1.180104062e-38
-2.549 0.1137 -1.0014 1.180104062e-38
-2.5889 -0.1154 -1.0171 1.180104062e-38
-3.4629 0.9486 -1.4092 1.180104062e-38
-2.5634 0.4618 -1.0222 1.180104062e-38
-2.5207 0.2253 -0.9932 1.180104062e-38
-2.5289 0 -1.0413 1.180104062e-38
-2.6436 -0.9845 -1.1616 1.180104062e-38
6.1868 0.4142 -2.5533 1.180104062e-38
-2.6388 0.5979 -1.1141 1.180104062e-38
-2.5479 -0.1136 -1.0502 1.180104062e-38
-2.5854 -0.3477 -1.0742 1.180104062e-38
-2.63 -0.5959 -1.1104 1.180104062e-38
-2.6464 -0.8534 -1.145 1.180104062e-38
6.1232 0.685 -2.5371 1.180104062e-38
-2.4893 0 -1.0738 1.180104062e-38
-2.4655 0.1099 -1.0645 1.180104062e-38
-2.5076 -0.1118 -1.0828 1.180104062e-38
-2.5277 -0.3399 -1.1001 1.180104062e-38
-2.5465 -0.5769 -1.1263 1.180104062e-38
-2.4719 0.4454 -1.0834 1.180104062e-38
-2.4282 0 -1.0956 1.180104062e-38
-2.4593 -0.4431 -1.1275 1.180104062e-38
-2.4891 -0.9269 -1.1984 1.180104062e-38
-2.5488 0.5775 -1.1792 1.180104062e-38
-2.4105 0.1075 -1.0887 1.180104062e-38
-2.4521 -0.3298 -1.1164 1.180104062e-38
-2.4671 -0.559 -1.1414 1.180104062e-38
-2.4782 -0.7991 -1.1749 1.180104062e-38
-2.3848 0.2131 -1.0803 1.180104062e-38
-2.3816 -0.429 -1.1407 1.180104062e-38
-2.2973 0.309 -1.0926 1.180104062e-38
-2.3694 -0.1056 -1.118 1.180104062e-38
-2.3799 -0.3201 -1.1319 1.180104062e-38
-2.3894 -0.5413 -1.1548 1.180104062e-38
-2.3945 -0.7721 -1.1859 1.180104062e-38
-2.3243 0.2077 -1.1 1.180104062e-38
-2.2975 0 -1.13 1.180104062e-38
-2.3082 -0.4158 -1.1536 1.180104062e-38
-2.3175 -0.6348 -1.1819 1.180104062e-38
-2.5041 0.5674 -1.2629 1.180104062e-38
-2.2893 0.1021 -1.1271 1.180104062e-38
-2.3173 -0.7472 -1.1976 1.180104062e-38
-2.2481 -0.6158 -1.195 1.180104062e-38
-2.2593 -0.8414 -1.236 1.180104062e-38
-2.2093 0.2971 -1.1428 1.180104062e-38
-2.2319 0.0995 -1.1453 1.180104062e-38
-2.2425 -0.5081 -1.1788 1.180104062e-38
-2.2673 -0.9614 -1.2625 1.180104062e-38
-2.3837 -1.2719 -1.3851 1.180104062e-38
-2.2585 0.4069 -1.1765 1.180104062e-38
-2.2093 0.1974 -1.1372 1.180104062e-38
-2.1811 -0.1949 -1.169 1.180104062e-38
-2.1789 -0.3925 -1.1819 1.180104062e-38
-2.1873 -0.5992 -1.2107 1.180104062e-38
-2.1932 -0.8168 -1.2494 1.180104062e-38
-2.2033 -1.0524 -1.3035 1.180104062e-38
-2.4373 0.5522 -1.3341 1.180104062e-38
-2.1681 0.2916 -1.1679 1.180104062e-38
-2.1735 0.0969 -1.1615 1.180104062e-38
-2.1765 -0.0971 -1.1631 1.180104062e-38
-2.181 -0.2933 -1.1748 1.180104062e-38
-2.1912 -0.7066 -1.2291 1.180104062e-38
-2.2448 -1.1978 -1.3583 1.180104062e-38
-2.1547 0.1926 -1.1549 1.180104062e-38
-2.1202 -0.1894 -1.1823 1.180104062e-38
-2.125 -0.3828 -1.1992 1.180104062e-38
-2.1317 -0.7938 -1.2633 1.180104062e-38
-2.1374 -1.0209 -1.3156 1.180104062e-38
-2.2265 -1.3188 -1.4372 1.180104062e-38
-2.404 0.5447 -1.369 1.180104062e-38
-2.1264 0.286 -1.1916 1.180104062e-38
-2.1163 0.0944 -1.1766 1.180104062e-38
-2.1317 -0.6874 -1.244 1.180104062e-38
-2.1353 -0.9054 -1.2881 1.180104062e-38
-2.1463 -1.1453 -1.3512 1.180104062e-38
-2.1578 0.3888 -1.2177 1.180104062e-38
-2.1018 0.1878 -1.172 1.180104062e-38
-2.0727 -0.3734 -1.2159 1.180104062e-38
-2.072 -0.5676 -1.2403 1.180104062e-38
-2.0734 -0.7721 -1.2774 1.180104062e-38
-2.074 -0.9907 -1.327 1.180104062e-38
-2.0782 0.2795 -1.2106 1.180104062e-38
-2.0661 -0.0921 -1.194 1.180104062e-38
-2.0705 -0.4691 -1.2257 1.180104062e-38
-2.0743 -0.6689 -1.2583 1.180104062e-38
-2.0729 -0.879 -1.2999 1.180104062e-38
-2.0714 -1.1053 -1.3555 1.180104062e-38
-2.1344 0.3845 -1.2521 1.180104062e-38
-2.0505 0.1832 -1.1886 1.180104062e-38
