# .PCD v0.7 - Point Cloud Data file format
VERSION 0.7
FIELDS x y z rgb
SIZE 4 4 4 4
TYPE F F F F
COUNT 1 1 1 1
WIDTH 443
HEIGHT 1
VIEWPOINT 0 0 0 1 0 0 0
POINTS 443
DATA ascii
2.3971 7.7276 4.4937 1.180104062e-38
-7.1471 -5.644 4.8617 1.180104062e-38
-9.0476 -9.3551 6.4012 1.180104062e-38
2.0313 7.7532 3.9422 1.180104062e-38
-7.7821 -6.7295 4.8496 1.180104062e-38
2.0288 7.7439 3.7735 1.180104062e-38
-7.9408 -6.8667 4.7369 1.180104062e-38
-8.1893 -7.0816 4.6701 1.180104062e-38
5.2643 6.2266 3.5172 1.180104062e-38
3.3206 7.1558 3.4028 1.180104062e-38
2.0289 7.7441 3.4532 1.180104062e-38
5.6045 6.0595 3.5604 1.180104062e-38
4.9316 6.39 3.4818 1.180104062e-38
3.6398 7.0078 3.4063 1.180104062e-38
3.002 7.3049 3.4067 1.180104062e-38
2.3755 7.6579 3.4586 1.180104062e-38
3.3909 7.3072 3.3171 1.180104062e-38
2.0308 7.7515 3.2997 1.180104062e-38
2.3684 7.6351 3.2918 1.180104062e-38
2.0339 7.7632 3.1496 1.180104062e-38
7.0891 5.3462 3.3155 1.180104062e-38
7.5 5.1484 3.2257 1.180104062e-38
2.0459 7.8092 2.8625 1.180104062e-38
-9.8073 -10.1407 4.7398 1.180104062e-38
7.9305 4.9392 3.139 1.180104062e-38
-9.4598 -8.947 4.1352 1.180104062e-38
8.8639 4.4791 2.9732 1.180104062e-38
1.701 7.9157 2.1334 1.180104062e-38
10.0385 3.9952 2.6557 1.180104062e-38
1.6992 7.9074 1.988 1.180104062e-38
10.5882 3.6766 2.5582 1.180104062e-38
1.6974 7.8992 1.8441 1.180104062e-38
11.2182 3.3433 2.4678 1.180104062e-38
1.6975 7.8998 1.7034 1.180104062e-38
1.699 7.9065 1.565 1.180104062e-38
-10.3195 -9.7601 2.2618 1.180104062e-38
-10.3313 -9.7713 2.0226 1.180104062e-38
1.7077 7.9468 1.1561 1.180104062e-38
1.7122 7.9681 1.0213 1.180104062e-38
5.6452 -0.1258 0.6125 1.180104062e-38
1.7205 8.0063 0.8882 1.180104062e-38
5.3594 -0.1194 0.4915 1.180104062e-38
5.5133 -0.8669 0.5117 1.180104062e-38
5.5144 0.1229 0.5057 1.180104062e-38
1.7314 8.0574 0.7555 1.180104062e-38
5.608 -1.1399 0.4289 1.180104062e-38
5.1642 -0.5777 0.3894 1.180104062e-38
5.1751 -0.1153 0.3879 1.180104062e-38
5.5267 0.37 0.4151 1.180104062e-38
5.1395 -0.3441 0.386 1.180104062e-38
5.2805 0.1177 0.3958 1.180104062e-38
5.2946 -1.0762 0.3147 1.180104062e-38
5.0511 -0.565 0.296 1.180104062e-38
5.0558 -0.1127 0.2945 1.180104062e-38
1.3726 8.1375 0.4806 1.180104062e-38
5.1285 -0.8064 0.3024 1.180104062e-38
5.0296 -0.3367 0.2936 1.180104062e-38
5.8581 0.6553 0.3433 1.180104062e-38
5.0157 -0.7887 0.2111 1.180104062e-38
5.4624 0.611 0.2285 1.180104062e-38
5.0327 -1.023 0.1281 1.180104062e-38
4.8623 -0.5439 0.122 1.180104062e-38
4.8766 -0.1087 0.1216 1.180104062e-38
5.0702 0.3394 0.1267 1.180104062e-38
1.3625 8.0772 0.2043 1.180104062e-38
5.291 -1.3234 0.136 1.180104062e-38
4.9137 -0.7726 0.124 1.180104062e-38
4.9474 0.1102 0.1234 1.180104062e-38
5.2914 0.5919 0.1328 1.180104062e-38
4.8107 -0.1072 0.04 1.180104062e-38
4.9835 0.3336 0.0415 1.180104062e-38
1.3611 8.0692 0.068 1.180104062e-38
4.8457 -0.762 0.0408 1.180104062e-38
4.8747 0.1086 0.0405 1.180104062e-38
5.1752 0.5789 0.0433 1.180104062e-38
5.4442 -1.6225 -0.0472 1.180104062e-38
4.8997 0.328 -0.0408 1.180104062e-38
5.407 0.8502 -0.0455 1.180104062e-38
1.3597 8.0611 -0.0679 1.180104062e-38
5.037 -1.2598 -0.0432 1.180104062e-38
4.7191 -0.3159 -0.0393 1.180104062e-38
4.8041 0.1071 -0.0399 1.180104062e-38
5.064 0.5665 -0.0424 1.180104062e-38
4.6769 -0.5232 -0.1174 1.180104062e-38
4.6955 -0.1046 -0.1171 1.180104062e-38
1.3603 8.0646 -0.204 1.180104062e-38
4.9442 -1.2366 -0.1271 1.180104062e-38
4.6653 -0.3123 -0.1166 1.180104062e-38
-13.0575 -6.2371 -0.6017 1.180104062e-38
-10.9822 -9.4967 -0.6037 1.180104062e-38
4.7375 -0.9629 -0.201 1.180104062e-38
4.6552 -0.1037 -0.1936 1.180104062e-38
4.786 0.3204 -0.1994 1.180104062e-38
5.1677 0.8126 -0.2175 1.180104062e-38
1.3615 8.0714 -0.3403 1.180104062e-38
4.672 -0.7346 -0.1966 1.180104062e-38
4.6255 -0.3096 -0.1928 1.180104062e-38
4.9302 0.5515 -0.2063 1.180104062e-38
-10.9467 -9.466 -0.8429 1.180104062e-38
5.0423 -1.5028 -0.3064 1.180104062e-38
4.6942 -0.9542 -0.279 1.180104062e-38
4.5996 -0.5145 -0.2696 1.180104062e-38
4.7397 0.3173 -0.2767 1.180104062e-38
4.8189 -1.2053 -0.2893 1.180104062e-38
4.6325 -0.7284 -0.2731 1.180104062e-38
4.8761 0.5455 -0.2858 1.180104062e-38
5.6904 1.1566 -0.3382 1.180104062e-38
4.6525 -0.9457 -0.3558 1.180104062e-38
4.5618 -0.5103 -0.344 1.180104062e-38
4.5766 -0.102 -0.3431 1.180104062e-38
4.6954 0.3143 -0.3527 1.180104062e-38
1.365 8.0924 -0.615 1.180104062e-38
-11.3257 -7.4089 -1.0142 1.180104062e-38
-11.67 -9.2157 -1.1144 1.180104062e-38
4.7736 -1.194 -0.3688 1.180104062e-38
4.5936 -0.7223 -0.3485 1.180104062e-38
4.823 0.5395 -0.3637 1.180104062e-38
4.9267 -1.4683 -0.4713 1.180104062e-38
4.6128 -0.9376 -0.4315 1.180104062e-38
4.5259 -0.5063 -0.4175 1.180104062e-38
4.5459 -0.1013 -0.4169 1.180104062e-38
4.9838 0.7836 -0.4625 1.180104062e-38
-4.2496 0.5715 -0.3931 1.180104062e-38
-4.0002 0.1784 -0.3671 1.180104062e-38
-10.5599 -8.3391 -1.2336 1.180104062e-38
4.5553 -0.7163 -0.4227 1.180104062e-38
4.5175 -0.3024 -0.4151 1.180104062e-38
4.7904 0.5359 -0.4419 1.180104062e-38
-4.1097 0.3672 -0.3783 1.180104062e-38
4.5051 -0.504 -0.4917 1.180104062e-38
4.524 -0.1008 -0.4908 1.180104062e-38
4.9451 0.7776 -0.543 1.180104062e-38
1.3724 8.1358 -0.8949 1.180104062e-38
-3.9257 -0.1751 -0.4262 1.180104062e-38
-9.7512 -9.2226 -1.4558 1.180104062e-38
5.3722 -1.8654 -0.6168 1.180104062e-38
4.6917 -1.1735 -0.5246 1.180104062e-38
4.5322 -0.7126 -0.4976 1.180104062e-38
4.4969 -0.301 -0.4889 1.180104062e-38
4.565 0.1017 -0.4953 1.180104062e-38
-8.9012 -9.2037 -1.6045 1.180104062e-38
4.5021 -0.1003 -0.5643 1.180104062e-38
4.9069 0.7716 -0.6225 1.180104062e-38
1.3797 8.1792 -1.0395 1.180104062e-38
-9.0777 -8.5857 -1.5658 1.180104062e-38
-8.7514 -11.8774 -1.8488 1.180104062e-38
4.6693 -1.1679 -0.6032 1.180104062e-38
4.5409 0.1012 -0.5692 1.180104062e-38
4.7309 0.5292 -0.5966 1.180104062e-38
5.238 1.0647 -0.6698 1.180104062e-38
-3.5366 0.316 -0.445 1.180104062e-38
-3.3944 0 -0.4828 1.180104062e-38
-3.5139 -0.314 -0.5018 1.180104062e-38
-8.2969 -10.2692 -1.8778 1.180104062e-38
4.4639 -0.4994 -0.6389 1.180104062e-38
4.4804 -0.0998 -0.6374 1.180104062e-38
-4.1432 0.9387 -0.6042 1.180104062e-38
-3.361 0.1499 -0.4785 1.180104062e-38
-3.447 -0.1537 -0.4908 1.180104062e-38
-8.2263 -11.1649 -1.9725 1.180104062e-38
5.2213 -1.813 -0.7862 1.180104062e-38
4.6471 -1.1623 -0.6813 1.180104062e-38
4.456 -0.2983 -0.6352 1.180104062e-38
-3.6717 0.6615 -0.5306 1.180104062e-38
-3.2915 0 -0.5241 1.180104062e-38
-3.3916 -0.3031 -0.5422 1.180104062e-38
4.795 -1.4291 -0.7967 1.180104062e-38
4.5215 -0.9191 -0.7347 1.180104062e-38
4.4435 -0.4971 -0.712 1.180104062e-38
4.4588 -0.0994 -0.7102 1.180104062e-38
4.8544 0.7633 -0.7825 1.180104062e-38
4.7954 13.3289 -2.2556 1.180104062e-38
-3.3344 -0.1487 -0.5315 1.180104062e-38
5.1745 -1.7968 -0.8722 1.180104062e-38
4.6249 -1.1568 -0.7591 1.180104062e-38
4.685 0.5241 -0.7507 1.180104062e-38
5.1699 1.0508 -0.8401 1.180104062e-38
-3.55 0.6396 -0.5744 1.180104062e-38
-3.2454 0.29 -0.5188 1.180104062e-38
-3.2817 -0.2933 -0.5809 1.180104062e-38
4.5047 -0.9156 -0.8105 1.180104062e-38
4.4317 -0.4958 -0.7863 1.180104062e-38
4.4516 -0.0992 -0.7851 1.180104062e-38
4.5653 0.3056 -0.8068 1.180104062e-38
4.8425 0.7614 -0.8644 1.180104062e-38
5.9833 12.8936 -2.5064 1.180104062e-38
-3.1644 0.1411 -0.5585 1.180104062e-38
-3.2276 -0.1439 -0.5697 1.180104062e-38
5.1283 -1.7808 -0.9572 1.180104062e-38
4.6047 -1.1517 -0.8369 1.180104062e-38
4.4573 -0.7009 -0.7956 1.180104062e-38
4.4267 -0.2963 -0.7823 1.180104062e-38
4.6752 0.523 -0.8295 1.180104062e-38
5.154 1.0476 -0.9274 1.180104062e-38
-3.1509 0.2816 -0.5578 1.180104062e-38
-3.1015 -0 -0.6002 1.180104062e-38
-3.3117 -0.5966 -0.6512 1.180104062e-38
4.5 -0.9147 -0.8886 1.180104062e-38
4.4258 -0.4951 -0.8618 1.180104062e-38
4.4447 -0.0991 -0.8603 1.180104062e-38
4.557 0.305 -0.8838 1.180104062e-38
4.8306 0.7596 -0.9463 1.180104062e-38
-3.1273 -0.1395 -0.6058 1.180104062e-38
-3.2339 -0.4349 -0.6315 1.180104062e-38
5.1409 -1.7851 -1.0531 1.180104062e-38
4.4527 -0.7002 -0.8723 1.180104062e-38
4.4209 -0.2959 -0.8574 1.180104062e-38
4.6654 0.5219 -0.9085 1.180104062e-38
5.1382 1.0444 -1.0147 1.180104062e-38
-3.0639 0.2738 -0.5953 1.180104062e-38
-3.2303 -0.582 -0.692 1.180104062e-38
4.4957 -0.9138 -0.9672 1.180104062e-38
4.5486 0.3045 -0.9611 1.180104062e-38
4.8186 0.7577 -1.0283 1.180104062e-38
-3.552 0.8048 -0.7678 1.180104062e-38
-2.994 0.1335 -0.6318 1.180104062e-38
-3.0505 -0.136 -0.6437 1.180104062e-38
4.4481 -0.6994 -0.9493 1.180104062e-38
4.6555 0.5208 -0.9876 1.180104062e-38
5.1331 1.0433 -1.1043 1.180104062e-38
1.0154 8.2443 -1.7512 1.180104062e-38
-3.2435 0.5843 -0.6948 1.180104062e-38
-2.971 0 -0.6781 1.180104062e-38
-3.1642 -0.5701 -0.7338 1.180104062e-38
4.7694 -1.4214 -1.1359 1.180104062e-38
4.4141 -0.4938 -1.0138 1.180104062e-38
4.4307 -0.0987 -1.0115 1.180104062e-38
4.5402 0.3039 -1.0386 1.180104062e-38
-2.9625 0.3984 -0.6823 1.180104062e-38
-3.0959 -0.4164 -0.713 1.180104062e-38
4.5958 -1.1495 -1.0813 1.180104062e-38
4.4092 -0.2952 -1.0086 1.180104062e-38
-3.8725 1.0608 -0.9164 1.180104062e-38
-2.9221 -0 -0.7182 1.180104062e-38
-3.1004 -0.5585 -0.7743 1.180104062e-38
4.4092 -0.4933 -1.0906 1.180104062e-38
4.4305 -0.0987 -1.0893 1.180104062e-38
4.5489 0.3045 -1.1206 1.180104062e-38
4.8418 0.7613 -1.2047 1.180104062e-38
-2.8899 0.3886 -0.7167 1.180104062e-38
-2.8978 0.1292 -0.713 1.180104062e-38
-2.9494 -0.1315 -0.7257 1.180104062e-38
-3.0389 -0.4087 -0.7537 1.180104062e-38
4.4389 -0.698 -1.1045 1.180104062e-38
4.4069 -0.295 -1.0856 1.180104062e-38
-3.0843 0.5557 -0.7703 1.180104062e-38
-2.8807 0.2574 -0.7109 1.180104062e-38
-2.8744 0 -0.7574 1.180104062e-38
-2.9343 -0.2622 -0.7763 1.180104062e-38
4.5044 -0.9156 -1.2112 1.180104062e-38
4.4188 -0.4943 -1.1716 1.180104062e-38
4.439 -0.0989 -1.17 1.180104062e-38
4.8571 0.7637 -1.2956 1.180104062e-38
-3.2212 0.7298 -0.8703 1.180104062e-38
-2.8515 0.1271 -0.7521 1.180104062e-38
-2.9007 -0.1293 -0.7651 1.180104062e-38
-2.9836 -0.4013 -0.7933 1.180104062e-38
-3.0953 -0.7013 -0.8363 1.180104062e-38
4.6077 -1.1525 -1.2515 1.180104062e-38
4.4502 -0.6998 -1.187 1.180104062e-38
4.4165 -0.2957 -1.1663 1.180104062e-38
4.6737 0.5228 -1.2392 1.180104062e-38
-3.7365 1.0235 -1.0208 1.180104062e-38
-3.0018 0.5408 -0.8037 1.180104062e-38
-2.8279 0 -0.7956 1.180104062e-38
-2.8819 -0.2575 -0.8141 1.180104062e-38
-2.9786 -0.5366 -0.8515 1.180104062e-38
4.4477 -0.0991 -1.2517 1.180104062e-38
4.8727 0.7662 -1.3878 1.180104062e-38
-2.9298 -0.394 -0.8317 1.180104062e-38
-3.0353 -0.6877 -0.8756 1.180104062e-38
-3.2049 -1.0334 -0.9474 1.180104062e-38
4.4625 -0.7017 -1.271 1.180104062e-38
4.485 0.0999 -1.2622 1.180104062e-38
4.6845 0.524 -1.3262 1.180104062e-38
5.3258 1.0825 -1.5291 1.180104062e-38
-2.9229 0.5266 -0.8356 1.180104062e-38
-2.9224 -0.5265 -0.889 1.180104062e-38
4.4384 -0.4965 -1.3371 1.180104062e-38
4.4564 -0.0993 -1.3345 1.180104062e-38
4.9213 0.7738 -1.4914 1.180104062e-38
-2.7204 0.3658 -0.8218 1.180104062e-38
-2.7619 0.1232 -0.8277 1.180104062e-38
-2.9771 -0.6745 -0.9139 1.180104062e-38
-3.1092 -1.0026 -0.978 1.180104062e-38
4.436 -0.297 -1.331 1.180104062e-38
4.4939 0.1001 -1.3457 1.180104062e-38
5.5275 1.1235 -1.6887 1.180104062e-38
-3.5598 0.9751 -1.105 1.180104062e-38
-2.8473 0.513 -0.8662 1.180104062e-38
-2.7412 0.2449 -0.8239 1.180104062e-38
-2.8694 -0.5169 -0.9259 1.180104062e-38
-2.954 -0.8092 -0.9727 1.180104062e-38
4.4707 -0.0996 -1.4202 1.180104062e-38
4.9736 0.7821 -1.599 1.180104062e-38
-2.979 0.675 -0.9701 1.180104062e-38
-2.7612 -0.1231 -0.8778 1.180104062e-38
-3.1071 -1.0019 -1.0368 1.180104062e-38
4.6793 -1.1704 -1.5319 1.180104062e-38
4.4876 -0.7056 -1.4427 1.180104062e-38
4.4473 -0.2977 -1.4155 1.180104062e-38
4.5138 0.1006 -1.4339 1.180104062e-38
4.7424 0.5305 -1.5155 1.180104062e-38
-2.7749 0.4999 -0.8954 1.180104062e-38
-2.8177 -0.5076 -0.9619 1.180104062e-38
5.056 -1.5069 -1.7726 1.180104062e-38
4.597 -0.9344 -1.5761 1.180104062e-38
4.637 0.3104 -1.5614 1.180104062e-38
-2.7751 -0.3732 -0.9408 1.180104062e-38
-2.8653 -0.6492 -0.9871 1.180104062e-38
4.5194 -0.7107 -1.5371 1.180104062e-38
4.477 -0.2997 -1.5076 1.180104062e-38
-2.6265 0.7195 -0.915 1.180104062e-38
-2.7169 0.4895 -0.9275 1.180104062e-38
-2.6518 0 -0.9403 1.180104062e-38
-2.6931 -0.2407 -0.9588 1.180104062e-38
-2.7668 -0.4985 -0.9969 1.180104062e-38
-2.8417 -0.7784 -1.0448 1.180104062e-38
4.6415 -0.9434 -1.6795 1.180104062e-38
4.5087 -0.5044 -1.6087 1.180104062e-38
4.529 -0.1009 -1.6063 1.180104062e-38
5.174 0.8136 -1.8572 1.180104062e-38
-2.5748 0.3463 -0.9212 1.180104062e-38
-2.6347 0.1175 -0.9351 1.180104062e-38
-2.6733 -0.1192 -0.9489 1.180104062e-38
4.5546 -0.7162 -1.6348 1.180104062e-38
4.5074 -0.3017 -1.6019 1.180104062e-38
4.5755 0.102 -1.6228 1.180104062e-38
4.8235 0.5396 -1.721 1.180104062e-38
-2.5828 0.7075 -0.9496 1.180104062e-38
-2.606 0.2329 -0.9277 1.180104062e-38
-2.6101 -0 -0.9746 1.180104062e-38
-2.6498 -0.2368 -0.9934 1.180104062e-38
-2.7171 -0.4895 -1.0309 1.180104062e-38
4.6874 -0.9528 -1.7861 1.180104062e-38
4.5592 -0.1016 -1.7029 1.180104062e-38
4.7202 0.316 -1.7665 1.180104062e-38
5.4188 0.8521 -2.0483 1.180104062e-38
-2.5436 0.5763 -0.9739 1.180104062e-38
-2.592 0.1156 -0.9689 1.180104062e-38
-2.8043 -0.9043 -1.1002 1.180104062e-38
4.8709 -1.2183 -1.8749 1.180104062e-38
4.5387 -0.3038 -1.6986 1.180104062e-38
-3.4441 0.9434 -1.3334 1.180104062e-38
-2.6096 0.4701 -0.9901 1.180104062e-38
-2.5629 0.229 -0.9608 1.180104062e-38
-2.6072 -0.233 -1.0273 1.180104062e-38
-2.7221 -0.7457 -1.1077 1.180104062e-38
4.762 -0.9679 -1.9072 1.180104062e-38
4.6142 -0.1028 -1.8114 1.180104062e-38
-2.5568 0.5793 -1.0289 1.180104062e-38
-2.491 0.335 -0.9865 1.180104062e-38
-2.549 0.1137 -1.0014 1.180104062e-38
-2.5889 -0.1154 -1.0171 1.180104062e-38
-2.6312 -0.3539 -1.042 1.180104062e-38
-2.7055 -0.613 -1.0887 1.180104062e-38
4.6451 -0.7304 -1.8455 1.180104062e-38
4.5888 -0.3072 -1.805 1.180104062e-38
-2.5634 0.4618 -1.0222 1.180104062e-38
-2.5207 0.2253 -0.9932 1.180104062e-38
-2.5289 0 -1.0414 1.180104062e-38
-2.5655 -0.2293 -1.0607 1.180104062e-38
-2.6211 -0.4722 -1.0967 1.180104062e-38
4.6671 -0.5221 -1.9338 1.180104062e-38
4.6774 -0.1042 -1.9265 1.180104062e-38
-2.6388 0.5979 -1.1141 1.180104062e-38
-2.4504 0.3295 -1.0181 1.180104062e-38
4.73 -0.7437 -1.9717 1.180104062e-38
4.7446 0.1057 -1.9542 1.180104062e-38
5.2284 0.5849 -2.1664 1.180104062e-38
-2.5389 -0.4574 -1.1128 1.180104062e-38
-2.5687 -0.9566 -1.1824 1.180104062e-38
5.0588 -1.0283 -2.2268 1.180104062e-38
4.7544 -0.1059 -2.0513 1.180104062e-38
-2.5715 0.5826 -1.1373 1.180104062e-38
-2.4106 0.3242 -1.0492 1.180104062e-38
-2.5277 -0.3399 -1.1001 1.180104062e-38
-2.6695 -1.132 -1.2508 1.180104062e-38
4.8489 0.1081 -2.0921 1.180104062e-38
-2.4719 0.4453 -1.0835 1.180104062e-38
-2.4387 0.2179 -1.0561 1.180104062e-38
-2.4592 -0.4431 -1.1275 1.180104062e-38
-2.489 -0.9269 -1.1984 1.180104062e-38
4.8814 -0.5461 -2.2163 1.180104062e-38
-2.5488 0.5775 -1.1792 1.180104062e-38
-2.3567 0.317 -1.073 1.180104062e-38
-2.4105 0.1075 -1.0887 1.180104062e-38
-2.4671 -0.5589 -1.1414 1.180104062e-38
-2.4891 -1.0554 -1.2199 1.180104062e-38
5.0102 -0.7878 -2.2885 1.180104062e-38
4.9917 0.1112 -2.2529 1.180104062e-38
-2.4034 -0.895 -1.2089 1.180104062e-38
5.1049 -0.1138 -2.4069 1.180104062e-38
-2.5265 0.5724 -1.2211 1.180104062e-38
-2.2973 0.309 -1.0926 1.180104062e-38
-2.3488 0.1047 -1.1083 1.180104062e-38
-2.3799 -0.3201 -1.1319 1.180104062e-38
-2.3893 -0.5414 -1.1548 1.180104062e-38
-2.3945 -0.7721 -1.1859 1.180104062e-38
5.0406 -0.3374 -2.3813 1.180104062e-38
-2.3515 0.4236 -1.1263 1.180104062e-38
-2.3242 0.2077 -1.1 1.180104062e-38
-2.2975 -0 -1.13 1.180104062e-38
-2.3175 -0.6348 -1.1819 1.180104062e-38
-2.3666 -1.1304 -1.29 1.180104062e-38
-2.5041 0.5674 -1.2629 1.180104062e-38
-2.2513 0.3028 -1.1173 1.180104062e-38
-2.3022 -0.1026 -1.1335 1.180104062e-38
-2.3108 -0.3108 -1.1468 1.180104062e-38
-2.3142 -0.5243 -1.1671 1.180104062e-38
-2.3173 -0.7472 -1.1976 1.180104062e-38
-2.3061 0.4155 -1.1525 1.180104062e-38
-2.2658 0.2025 -1.1189 1.180104062e-38
-2.2443 -0.2006 -1.1552 1.180104062e-38
-2.4709 0.5598 -1.2989 1.180104062e-38
-2.2319 0.0995 -1.1453 1.180104062e-38
-2.2446 -0.3019 -1.1611 1.180104062e-38
-2.2425 -0.5081 -1.1788 1.180104062e-38
-2.2585 0.4069 -1.1765 1.180104062e-38
-2.2093 0.1974 -1.1372 1.180104062e-38
-2.1811 -0.1949 -1.169 1.180104062e-38
-2.1932 -0.8168 -1.2494 1.180104062e-38
-2.2033 -1.0524 -1.3035 1.180104062e-38
-2.4373 0.5522 -1.3341 1.180104062e-38
-2.1765 -0.0971 -1.1631 1.180104062e-38
-2.2 -0.9329 -1.2757 1.180104062e-38
-2.1374 -1.0209 -1.3156 1.180104062e-38
-2.2265 -1.3188 -1.4372 1.180104062e-38
-2.404 0.5447 -1.369 1.180104062e-38
-2.1163 0.0944 -1.1766 1.180104062e-38
-2.1231 -0.481 -1.2091 1.180104062e-38
-2.1463 -1.1453 -1.3512 1.180104062e-38
-2.0638 0 -1.1916 1.180104062e-38
-2.0684 -0.1848 -1.199 1.180104062e-38
-2.0727 -0.3734 -1.216 1.180104062e-38
-2.0734 -0.7721 -1.2774 1.180104062e-38
-2.074 -0.9907 -1.327 1.180104062e-38
-2.1172 -1.254 -1.4207 1.180104062e-38
-2.0611 0.0919 -1.1911 1.180104062e-38
-2.0705 -0.4691 -1.2257 1.180104062e-38
-2.0743 -0.6689 -1.2583 1.180104062e-38
-2.0714 -1.1053 -1.3555 1.180104062e-38
-2.0505 0.1832 -1.1886 1.180104062e-38
