# .PCD v0.7 - Point Cloud Data file format
VERSION 0.7
FIELDS x y z rgb
SIZE 4 4 4 4
TYPE F F F F
COUNT 1 1 1 1
WIDTH 484
HEIGHT 1
VIEWPOINT 0 0 0 1 0 0 0
POINTS 484
DATA ascii
2.2896 7.3808 4.292 1.180104062e-38
-8.0791 -5.2851 5.1538 1.180104062e-38
2.2939 7.3949 3.9694 1.180104062e-38
2.3006 7.4163 3.8192 1.180104062e-38
2.3071 7.4374 3.6706 1.180104062e-38
-8.9443 -6.4377 4.9725 1.180104062e-38
4.9558 5.8618 3.4635 1.180104062e-38
4.3618 6.2047 3.4222 1.180104062e-38
3.7748 6.5381 3.4065 1.180104062e-38
3.1981 6.8917 3.4281 1.180104062e-38
5.2579 5.6848 3.494 1.180104062e-38
3.4864 6.7125 3.413 1.180104062e-38
-9.162 -6.5945 4.8694 1.180104062e-38
3.8204 6.6171 3.2959 1.180104062e-38
3.2058 6.9083 3.2852 1.180104062e-38
3.5097 6.7573 3.2846 1.180104062e-38
2.9003 7.0575 3.2914 1.180104062e-38
2.2937 7.3941 3.3394 1.180104062e-38
2.6355 7.3256 3.2058 1.180104062e-38
1.9948 7.614 3.2411 1.180104062e-38
6.5486 4.9385 3.3774 1.180104062e-38
2.3101 7.447 3.2107 1.180104062e-38
1.9773 7.5474 2.9134 1.180104062e-38
7.2691 4.5272 3.1978 1.180104062e-38
1.9744 7.5363 2.7625 1.180104062e-38
-10.1367 -8.0049 4.58 1.180104062e-38
1.9731 7.5314 2.6158 1.180104062e-38
-10.3543 -8.1767 4.4328 1.180104062e-38
8.4672 3.8151 2.9494 1.180104062e-38
-10.7218 -8.4669 4.3388 1.180104062e-38
1.9779 7.5495 2.1958 1.180104062e-38
1.9877 7.5871 1.9278 1.180104062e-38
10.0704 3.0013 2.5829 1.180104062e-38
10.5327 2.6344 2.4781 1.180104062e-38
1.9954 7.6162 1.797 1.180104062e-38
-11.4976 -9.0796 3.0886 1.180104062e-38
11.8378 1.8614 2.319 1.180104062e-38
-11.5027 -9.0836 2.5844 1.180104062e-38
1.6684 7.764 1.4003 1.180104062e-38
-11.5185 -9.0961 2.3371 1.180104062e-38
1.6585 7.7179 1.257 1.180104062e-38
1.6556 7.7046 1.1209 1.180104062e-38
4.9455 -1.0052 0.6324 1.180104062e-38
5.2253 -0.5846 0.6589 1.180104062e-38
-11.585 -9.1486 1.8499 1.180104062e-38
4.9843 -0.7837 0.6323 1.180104062e-38
1.6534 7.6943 0.9862 1.180104062e-38
4.8842 -0.5464 0.5331 1.180104062e-38
4.7684 -0.7498 0.5236 1.180104062e-38
1.6517 7.6865 0.8528 1.180104062e-38
4.6844 -1.3961 0.4481 1.180104062e-38
4.5747 -0.9299 0.428 1.180104062e-38
4.6174 -0.7261 0.4285 1.180104062e-38
4.8732 -0.3262 0.4478 1.180104062e-38
4.9915 -0.1112 0.3742 1.180104062e-38
4.687 -1.6275 0.3718 1.180104062e-38
4.4845 -1.1217 0.3464 1.180104062e-38
4.5154 -0.71 0.3425 1.180104062e-38
1.6537 7.6956 0.5899 1.180104062e-38
4.4359 -1.3221 0.2696 1.180104062e-38
4.4919 -0.5025 0.2633 1.180104062e-38
4.8168 -0.1073 0.2806 1.180104062e-38
4.5546 -1.5815 0.2808 1.180104062e-38
4.3868 -1.0972 0.2634 1.180104062e-38
4.6588 -1.8541 0.2085 1.180104062e-38
4.3383 -1.2929 0.1882 1.180104062e-38
4.3061 -0.8753 0.1827 1.180104062e-38
4.4175 -0.4942 0.1848 1.180104062e-38
4.4297 -1.5382 0.195 1.180104062e-38
4.3076 -1.0774 0.1846 1.180104062e-38
4.9943 0.1113 0.2077 1.180104062e-38
4.4953 -1.7891 0.1207 1.180104062e-38
4.2744 -1.2739 0.1112 1.180104062e-38
4.3526 -0.4869 0.1092 1.180104062e-38
4.6013 -0.1025 0.1148 1.180104062e-38
4.3993 -1.7509 0.0393 1.180104062e-38
4.1896 -0.8516 0.0355 1.180104062e-38
4.2896 -0.4799 0.0359 1.180104062e-38
4.7585 -2.1441 0.0434 1.180104062e-38
4.2695 -1.4825 0.0376 1.180104062e-38
4.1903 -1.0481 0.0359 1.180104062e-38
4.3786 -0.2931 0.0365 1.180104062e-38
1.6658 7.7518 0.0659 1.180104062e-38
4.2332 -0.4736 -0.0354 1.180104062e-38
4.4516 -0.0992 -0.037 1.180104062e-38
5.0182 0.3359 -0.0418 1.180104062e-38
4.201 -1.4587 -0.037 1.180104062e-38
4.1341 -1.034 -0.0354 1.180104062e-38
4.1772 -0.6568 -0.0351 1.180104062e-38
4.3203 -0.2892 -0.036 1.180104062e-38
4.6449 0.1035 -0.0386 1.180104062e-38
4.1063 -1.2238 -0.1069 1.180104062e-38
4.4039 -0.0981 -0.1099 1.180104062e-38
4.2797 -0.2865 -0.107 1.180104062e-38
1.6833 7.8335 -0.1998 1.180104062e-38
4.0647 -0.8262 -0.1725 1.180104062e-38
4.1556 -0.4649 -0.1739 1.180104062e-38
4.3716 -1.9697 -0.1994 1.180104062e-38
4.1086 -1.4267 -0.1808 1.180104062e-38
4.1053 -0.6455 -0.1728 1.180104062e-38
4.2399 -0.2838 -0.1767 1.180104062e-38
4.5222 0.1008 -0.1881 1.180104062e-38
4.1557 -1.6539 -0.2605 1.180104062e-38
4.0336 -1.2021 -0.2451 1.180104062e-38
4.3113 -0.0961 -0.2512 1.180104062e-38
4.7166 0.3157 -0.2753 1.180104062e-38
1.336 7.9205 -0.4678 1.180104062e-38
4.0714 -1.4137 -0.251 1.180104062e-38
4.0259 -1.0069 -0.2417 1.180104062e-38
4.0702 -0.64 -0.24 1.180104062e-38
4.2007 -0.2812 -0.2452 1.180104062e-38
4.4636 0.0995 -0.26 1.180104062e-38
-11.514 -8.2873 -1.0631 1.180104062e-38
4.1135 -1.6371 -0.3318 1.180104062e-38
3.9981 -1.1916 -0.3126 1.180104062e-38
3.9968 -0.8124 -0.3056 1.180104062e-38
-11.3446 -7.4213 -1.0159 1.180104062e-38
-11.6879 -9.2299 -1.1161 1.180104062e-38
4.0347 -1.401 -0.3201 1.180104062e-38
3.9919 -0.9985 -0.3084 1.180104062e-38
4.408 0.0982 -0.3304 1.180104062e-38
-10.5775 -7.6133 -1.1948 1.180104062e-38
-10.6793 -9.2347 -1.2943 1.180104062e-38
4.5352 -2.2917 -0.4658 1.180104062e-38
4.0721 -1.6207 -0.4018 1.180104062e-38
3.966 -1.182 -0.3794 1.180104062e-38
4.6044 0.3082 -0.4231 1.180104062e-38
1.3265 7.8638 -0.7311 1.180104062e-38
-4.2496 0.5715 -0.3931 1.180104062e-38
-4.0002 0.1784 -0.3671 1.180104062e-38
-10.5722 -8.3488 -1.235 1.180104062e-38
4.2082 -1.8961 -0.4232 1.180104062e-38
3.9986 -1.3885 -0.3881 1.180104062e-38
4.011 -0.6307 -0.3722 1.180104062e-38
5.0817 0.5685 -0.4688 1.180104062e-38
-4.1097 0.3672 -0.3783 1.180104062e-38
-3.7849 0 -0.4105 1.180104062e-38
4.0453 -1.61 -0.4723 1.180104062e-38
4.035 -0.4514 -0.4404 1.180104062e-38
4.2143 -0.0939 -0.4572 1.180104062e-38
4.5697 0.3059 -0.4968 1.180104062e-38
-3.9257 -0.1751 -0.4262 1.180104062e-38
-9.7561 -9.2272 -1.4565 1.180104062e-38
3.9915 -0.6277 -0.4383 1.180104062e-38
4.1162 -0.2755 -0.4475 1.180104062e-38
4.353 0.097 -0.4723 1.180104062e-38
-3.5692 -0 -0.4473 1.180104062e-38
-3.77 -0.3369 -0.4743 1.180104062e-38
4.413 -2.23 -0.6196 1.180104062e-38
4.1893 -0.0934 -0.5251 1.180104062e-38
4.5354 0.3036 -0.5696 1.180104062e-38
1.3236 7.8467 -0.9972 1.180104062e-38
-4.3831 0.9931 -0.5632 1.180104062e-38
-3.5348 0.1576 -0.4434 1.180104062e-38
-3.631 -0.1619 -0.4555 1.180104062e-38
3.9261 -0.982 -0.5072 1.180104062e-38
3.9721 -0.6246 -0.5039 1.180104062e-38
4.3264 0.0964 -0.5423 1.180104062e-38
4.9068 0.5489 -0.6187 1.180104062e-38
-3.5366 0.316 -0.445 1.180104062e-38
3.9154 -0.7958 -0.5683 1.180104062e-38
3.9947 -0.4469 -0.5717 1.180104062e-38
1.3244 7.8514 -1.1325 1.180104062e-38
-4.1432 0.9387 -0.6042 1.180104062e-38
-3.3671 0.4528 -0.4832 1.180104062e-38
-3.361 0.1499 -0.4785 1.180104062e-38
4.1172 -1.8551 -0.6423 1.180104062e-38
3.9396 -1.368 -0.5932 1.180104062e-38
4.8491 0.5424 -0.694 1.180104062e-38
-3.6716 0.6615 -0.5306 1.180104062e-38
-3.3525 0.2996 -0.4787 1.180104062e-38
4.3428 -2.1945 -0.7748 1.180104062e-38
3.9821 -1.5848 -0.6825 1.180104062e-38
3.897 -0.7921 -0.6332 1.180104062e-38
4.1418 -0.0923 -0.6597 1.180104062e-38
-3.9744 0.9004 -0.6489 1.180104062e-38
-3.254 0.4376 -0.5228 1.180104062e-38
-3.3344 -0.1487 -0.5315 1.180104062e-38
-3.4817 -0.4682 -0.5594 1.180104062e-38
4.0925 -1.844 -0.7148 1.180104062e-38
3.9337 -0.6185 -0.6341 1.180104062e-38
4.279 0.0954 -0.6815 1.180104062e-38
-4.504 1.2338 -0.7436 1.180104062e-38
4.3083 -2.1771 -0.8512 1.180104062e-38
3.9622 -1.5769 -0.7519 1.180104062e-38
3.8753 -1.155 -0.713 1.180104062e-38
3.966 -0.4437 -0.7037 1.180104062e-38
-3.8237 0.8663 -0.6913 1.180104062e-38
-3.2276 -0.1439 -0.5697 1.180104062e-38
4.0679 -1.8329 -0.7867 1.180104062e-38
3.8753 -0.9692 -0.7044 1.180104062e-38
3.9226 -0.6168 -0.7002 1.180104062e-38
4.0435 -0.2707 -0.7146 1.180104062e-38
-4.2904 1.1753 -0.7844 1.180104062e-38
-3.1015 0 -0.6002 1.180104062e-38
4.3079 -2.1769 -0.934 1.180104062e-38
3.9586 -1.5755 -0.8245 1.180104062e-38
3.8706 -1.1536 -0.7816 1.180104062e-38
3.8795 -0.7885 -0.7661 1.180104062e-38
4.1256 -0.092 -0.7986 1.180104062e-38
-3.6833 0.8345 -0.7308 1.180104062e-38
-3.1048 0.4176 -0.6062 1.180104062e-38
-3.0751 0.1371 -0.5957 1.180104062e-38
-3.1273 -0.1395 -0.6058 1.180104062e-38
4.0659 -1.832 -0.863 1.180104062e-38
3.8984 -1.3537 -0.7986 1.180104062e-38
4.0362 -0.2702 -0.7828 1.180104062e-38
4.2616 0.095 -0.8249 1.180104062e-38
4.7977 0.5367 -0.9342 1.180104062e-38
-3.0639 0.2738 -0.5953 1.180104062e-38
-3.0211 -0 -0.6369 1.180104062e-38
4.3126 -2.1793 -1.0187 1.180104062e-38
3.955 -1.574 -0.8974 1.180104062e-38
3.9532 -0.4422 -0.8386 1.180104062e-38
-3.552 0.8048 -0.7678 1.180104062e-38
-2.994 0.1335 -0.6318 1.180104062e-38
-3.0505 -0.136 -0.6438 1.180104062e-38
4.0646 -1.8314 -0.9399 1.180104062e-38
3.8936 -1.352 -0.8689 1.180104062e-38
3.91 -0.6148 -0.8344 1.180104062e-38
4.029 -0.2697 -0.8513 1.180104062e-38
4.2529 0.0948 -0.8968 1.180104062e-38
-2.981 0.2664 -0.631 1.180104062e-38
-2.971 0 -0.6781 1.180104062e-38
-3.1642 -0.5701 -0.7338 1.180104062e-38
3.9513 -1.5726 -0.9707 1.180104062e-38
3.8683 -0.7863 -0.901 1.180104062e-38
3.9467 -0.4415 -0.9064 1.180104062e-38
1.3364 7.9225 -1.8338 1.180104062e-38
-2.9994 -0.1337 -0.6853 1.180104062e-38
-3.0959 -0.4164 -0.713 1.180104062e-38
4.0633 -1.8308 -1.0172 1.180104062e-38
3.8585 -0.9651 -0.9078 1.180104062e-38
4.0217 -0.2692 -0.92 1.180104062e-38
-3.1659 0.5704 -0.7342 1.180104062e-38
-2.9277 0.2616 -0.6709 1.180104062e-38
-2.9221 0 -0.7183 1.180104062e-38
-2.9882 -0.267 -0.7374 1.180104062e-38
-3.1004 -0.5586 -0.7743 1.180104062e-38
3.8564 -1.1494 -0.9891 1.180104062e-38
3.8627 -0.7851 -0.9689 1.180104062e-38
3.9403 -0.4408 -0.9746 1.180104062e-38
4.1051 -0.0915 -1.0093 1.180104062e-38
-2.8899 0.3886 -0.7167 1.180104062e-38
-2.8978 0.1292 -0.713 1.180104062e-38
-2.9494 -0.1315 -0.7257 1.180104062e-38
-3.0389 -0.4087 -0.7537 1.180104062e-38
3.8838 -1.3486 -1.0106 1.180104062e-38
3.8973 -0.6128 -0.9697 1.180104062e-38
4.2459 0.0946 -1.0439 1.180104062e-38
4.817 0.5389 -1.1914 1.180104062e-38
-3.0843 0.5557 -0.7703 1.180104062e-38
-2.8807 0.2574 -0.7109 1.180104062e-38
-3.0385 -0.5474 -0.8135 1.180104062e-38
3.8558 -1.1492 -1.0602 1.180104062e-38
3.9439 -0.4412 -1.0457 1.180104062e-38
4.4664 0.299 -1.1795 1.180104062e-38
-3.2212 0.7298 -0.8703 1.180104062e-38
-2.8515 0.1271 -0.7521 1.180104062e-38
-2.9836 -0.4013 -0.7933 1.180104062e-38
3.8517 -0.9634 -1.0462 1.180104062e-38
4.0215 -0.2692 -1.062 1.180104062e-38
4.8763 0.5455 -1.2929 1.180104062e-38
-3.7365 1.0235 -1.0208 1.180104062e-38
-2.8348 0.2533 -0.7499 1.180104062e-38
-2.8819 -0.2575 -0.8141 1.180104062e-38
-2.9786 -0.5366 -0.8515 1.180104062e-38
3.9654 -1.5782 -1.2008 1.180104062e-38
3.8708 -0.7868 -1.1114 1.180104062e-38
4.4812 0.3 -1.2636 1.180104062e-38
-2.7751 0.3732 -0.7878 1.180104062e-38
-2.8062 0.1251 -0.7903 1.180104062e-38
-2.8531 -0.1272 -0.8035 1.180104062e-38
-2.9298 -0.394 -0.8317 1.180104062e-38
-3.0353 -0.6877 -0.8756 1.180104062e-38
4.097 -1.846 -1.2643 1.180104062e-38
3.8938 -1.3521 -1.1597 1.180104062e-38
3.8598 -0.9654 -1.1194 1.180104062e-38
4.0292 -0.2697 -1.1362 1.180104062e-38
4.9378 0.5524 -1.3979 1.180104062e-38
-2.9229 0.5266 -0.8356 1.180104062e-38
-2.7824 0 -0.833 1.180104062e-38
-2.8308 -0.253 -0.8509 1.180104062e-38
-2.9224 -0.5265 -0.889 1.180104062e-38
4.5831 -2.316 -1.5373 1.180104062e-38
3.8764 -1.1553 -1.211 1.180104062e-38
3.879 -0.7885 -1.1851 1.180104062e-38
3.9588 -0.4429 -1.1926 1.180104062e-38
4.1331 -0.0921 -1.2377 1.180104062e-38
-3.0564 0.6925 -0.9382 1.180104062e-38
-2.7204 0.3658 -0.8218 1.180104062e-38
-2.7619 0.1231 -0.8277 1.180104062e-38
-2.8066 -0.1252 -0.8411 1.180104062e-38
-2.9771 -0.6745 -0.9139 1.180104062e-38
-3.1091 -1.0026 -0.978 1.180104062e-38
4.1218 -1.8572 -1.3535 1.180104062e-38
3.8681 -0.9675 -1.1937 1.180104062e-38
3.9131 -0.6153 -1.1859 1.180104062e-38
4.037 -0.2703 -1.2113 1.180104062e-38
4.2759 0.0953 -1.2804 1.180104062e-38
5.0912 0.5695 -1.5337 1.180104062e-38
-2.8473 0.5129 -0.8662 1.180104062e-38
-2.738 0 -0.8695 1.180104062e-38
-2.954 -0.8092 -0.9727 1.180104062e-38
3.8869 -1.1584 -1.2881 1.180104062e-38
3.8873 -0.7901 -1.2598 1.180104062e-38
4.1427 -0.0923 -1.316 1.180104062e-38
4.5386 0.3038 -1.4446 1.180104062e-38
-2.6672 0.3587 -0.8547 1.180104062e-38
-2.7612 -0.1231 -0.8778 1.180104062e-38
-2.8255 -0.38 -0.9054 1.180104062e-38
3.9152 -1.3595 -1.3162 1.180104062e-38
3.8764 -0.9696 -1.269 1.180104062e-38
4.2916 0.0956 -1.3633 1.180104062e-38
-2.6951 0.2408 -0.8593 1.180104062e-38
-2.7374 -0.2446 -0.9234 1.180104062e-38
-2.8177 -0.5077 -0.962 1.180104062e-38
4.0146 -1.5978 -1.4517 1.180104062e-38
3.8976 -1.1616 -1.3664 1.180104062e-38
3.8958 -0.7918 -1.3357 1.180104062e-38
3.9763 -0.4448 -1.3443 1.180104062e-38
4.1697 -0.0929 -1.4013 1.180104062e-38
4.6058 0.3083 -1.551 1.180104062e-38
-2.6272 0.5952 -0.905 1.180104062e-38
-2.618 0.3521 -0.8875 1.180104062e-38
-2.6762 0.1193 -0.9001 1.180104062e-38
3.8849 -0.9717 -1.3455 1.180104062e-38
3.9282 -0.6177 -1.336 1.180104062e-38
4.0609 -0.2719 -1.3674 1.180104062e-38
-2.6265 0.7195 -0.915 1.180104062e-38
-2.7169 0.4895 -0.9275 1.180104062e-38
-2.65 0.2368 -0.8939 1.180104062e-38
-2.6518 -0 -0.9403 1.180104062e-38
-2.8417 -0.7784 -1.0448 1.180104062e-38
4.0554 -1.614 -1.5477 1.180104062e-38
3.9236 -1.1693 -1.4517 1.180104062e-38
3.9184 -0.7964 -1.4178 1.180104062e-38
4.2028 -0.0937 -1.4906 1.180104062e-38
-2.5615 0.5804 -0.9313 1.180104062e-38
-2.6346 0.1175 -0.9351 1.180104062e-38
-2.6733 -0.1192 -0.9489 1.180104062e-38
-2.8093 -0.6365 -1.0214 1.180104062e-38
4.2854 -1.9309 -1.6667 1.180104062e-38
3.9644 -1.3766 -1.4881 1.180104062e-38
3.9067 -0.9771 -1.4279 1.180104062e-38
4.0886 -0.2737 -1.453 1.180104062e-38
4.3714 0.0974 -1.5504 1.180104062e-38
-2.6624 0.4796 -0.9592 1.180104062e-38
-2.606 0.2329 -0.9277 1.180104062e-38
-2.717 -0.4895 -1.0309 1.180104062e-38
-2.7878 -0.7637 -1.0794 1.180104062e-38
4.1118 -1.6365 -1.6525 1.180104062e-38
3.9546 -1.1786 -1.5409 1.180104062e-38
3.9451 -0.8019 -1.5033 1.180104062e-38
4.8151 0.3223 -1.802 1.180104062e-38
-2.592 0.1156 -0.9689 1.180104062e-38
-2.6307 -0.1173 -0.9833 1.180104062e-38
-2.6781 -0.3602 -1.009 1.180104062e-38
-2.7556 -0.6244 -1.0551 1.180104062e-38
4.004 -1.3904 -1.5827 1.180104062e-38
3.978 -0.6255 -1.5037 1.180104062e-38
4.418 0.0985 -1.6501 1.180104062e-38
-2.5691 0 -1.0083 1.180104062e-38
-2.6072 -0.233 -1.0273 1.180104062e-38
-2.6685 -0.4808 -1.0642 1.180104062e-38
-2.7221 -0.7457 -1.1077 1.180104062e-38
4.1722 -1.6605 -1.7624 1.180104062e-38
3.9865 -1.1881 -1.6326 1.180104062e-38
4.0552 -0.4537 -1.6015 1.180104062e-38
4.2761 -0.0953 -1.6787 1.180104062e-38
-2.5568 0.5793 -1.0289 1.180104062e-38
-2.5889 -0.1154 -1.0171 1.180104062e-38
-2.7055 -0.613 -1.0887 1.180104062e-38
-2.7236 -0.8782 -1.1231 1.180104062e-38
4.0449 -1.4045 -1.6805 1.180104062e-38
3.9611 -0.9907 -1.6025 1.180104062e-38
-3.4628 0.9485 -1.4091 1.180104062e-38
-2.5633 0.4618 -1.0222 1.180104062e-38
-2.6211 -0.4722 -1.0967 1.180104062e-38
-2.6436 -0.9845 -1.1616 1.180104062e-38
4.279 -1.703 -1.8964 1.180104062e-38
4.0229 -1.199 -1.7286 1.180104062e-38
4.0012 -0.8133 -1.6813 1.180104062e-38
4.092 -0.4578 -1.6955 1.180104062e-38
-2.6388 0.5979 -1.1141 1.180104062e-38
-2.5479 -0.1136 -1.0502 1.180104062e-38
-2.6464 -0.8534 -1.145 1.180104062e-38
4.1009 -1.424 -1.7876 1.180104062e-38
4.035 -0.6345 -1.682 1.180104062e-38
4.1963 -0.2809 -1.7318 1.180104062e-38
4.6055 0.1026 -1.8969 1.180104062e-38
-3.507 0.9607 -1.4973 1.180104062e-38
-2.5181 0.4537 -1.0536 1.180104062e-38
-2.4893 0 -1.0738 1.180104062e-38
-2.5221 -0.2254 -1.0923 1.180104062e-38
4.4651 -1.7771 -2.073 1.180104062e-38
4.0882 -1.2184 -1.8401 1.180104062e-38
4.0579 -0.8248 -1.7862 1.180104062e-38
4.4252 -0.0986 -1.9093 1.180104062e-38
-2.4106 0.3242 -1.0492 1.180104062e-38
-2.4654 0.1099 -1.0645 1.180104062e-38
-2.5277 -0.3399 -1.1001 1.180104062e-38
-2.6695 -1.132 -1.2508 1.180104062e-38
4.1844 -1.453 -1.9107 1.180104062e-38
4.0906 -0.6432 -1.7862 1.180104062e-38
4.2587 -0.2851 -1.8411 1.180104062e-38
-2.4282 -0 -1.0956 1.180104062e-38
-2.4481 -0.2188 -1.109 1.180104062e-38
-2.4702 -0.6767 -1.1556 1.180104062e-38
4.1604 -1.2399 -1.9588 1.180104062e-38
4.2119 -0.4712 -1.9123 1.180104062e-38
-2.5488 0.5775 -1.1792 1.180104062e-38
-2.4782 -0.7991 -1.1749 1.180104062e-38
-2.4891 -1.0555 -1.2199 1.180104062e-38
4.2893 -1.4894 -2.0488 1.180104062e-38
4.1172 -1.0298 -1.915 1.180104062e-38
4.1486 -0.6523 -1.8949 1.180104062e-38
4.3239 -0.2895 -1.9554 1.180104062e-38
-2.3848 0.2131 -1.0804 1.180104062e-38
-2.3615 0 -1.1132 1.180104062e-38
-2.3934 -0.6556 -1.1698 1.180104062e-38
4.3099 -0.4821 -2.0442 1.180104062e-38
4.8702 -0.1085 -2.2962 1.180104062e-38
-2.5265 0.5724 -1.2211 1.180104062e-38
-2.2973 0.3089 -1.0926 1.180104062e-38
-2.3694 -0.1056 -1.118 1.180104062e-38
-2.3894 -0.5414 -1.1548 1.180104062e-38
-2.4109 -1.0223 -1.2344 1.180104062e-38
4.6039 -1.5986 -2.2973 1.180104062e-38
4.2043 -1.0516 -2.0429 1.180104062e-38
-2.3515 0.4236 -1.1263 1.180104062e-38
-2.3666 -1.1304 -1.29 1.180104062e-38
4.4809 -1.3354 -2.2997 1.180104062e-38
4.3154 -0.8772 -2.166 1.180104062e-38
4.4427 -0.497 -2.1988 1.180104062e-38
-2.3022 -0.1027 -1.1335 1.180104062e-38
-2.3108 -0.3108 -1.1468 1.180104062e-38
-2.3142 -0.5243 -1.1671 1.180104062e-38
4.3438 -1.0864 -2.2023 1.180104062e-38
4.7057 -0.315 -2.3197 1.180104062e-38
-2.2658 0.2025 -1.1189 1.180104062e-38
-2.2416 -0.4038 -1.1677 1.180104062e-38
-2.2481 -0.6158 -1.195 1.180104062e-38
-2.2593 -0.8414 -1.236 1.180104062e-38
-2.2721 -1.0853 -1.2909 1.180104062e-38
-2.2377 -0.0998 -1.1483 1.180104062e-38
-2.2446 -0.3019 -1.1611 1.180104062e-38
-2.2425 -0.5081 -1.1788 1.180104062e-38
-2.253 -0.7265 -1.2136 1.180104062e-38
-2.3837 -1.272 -1.3851 1.180104062e-38
4.6958 -1.1745 -2.4816 1.180104062e-38
4.5777 -0.7198 -2.3757 1.180104062e-38
-2.2585 0.4069 -1.1765 1.180104062e-38
-2.2093 0.1974 -1.1372 1.180104062e-38
-2.1811 -0.1949 -1.169 1.180104062e-38
-2.1873 -0.5992 -1.2107 1.180104062e-38
-2.1932 -0.8168 -1.2494 1.180104062e-38
-2.4373 0.5522 -1.3341 1.180104062e-38
-2.1681 0.2916 -1.1679 1.180104062e-38
-2.1735 0.0969 -1.1615 1.180104062e-38
-2.2 -0.9329 -1.2757 1.180104062e-38
-2.2448 -1.1978 -1.3583 1.180104062e-38
-2.1547 0.1925 -1.1549 1.180104062e-38
-2.1192 0 -1.177 1.180104062e-38
-2.1317 -0.7938 -1.2633 1.180104062e-38
-2.1374 -1.0209 -1.3156 1.180104062e-38
-2.1264 0.286 -1.1916 1.180104062e-38
-2.1192 -0.0945 -1.1782 1.180104062e-38
-2.1231 -0.481 -1.2091 1.180104062e-38
-2.1317 -0.6874 -1.244 1.180104062e-38
-2.1353 -0.9054 -1.2881 1.180104062e-38
-2.1578 0.3887 -1.2177 1.180104062e-38
-2.1018 0.1878 -1.172 1.180104062e-38
-2.0638 0 -1.1916 1.180104062e-38
-2.0727 -0.3734 -1.216 1.180104062e-38
-2.072 -0.5676 -1.2403 1.180104062e-38
-2.0734 -0.7721 -1.2774 1.180104062e-38
-2.1172 -1.254 -1.4207 1.180104062e-38
-2.0782 0.2795 -1.2106 1.180104062e-38
-2.0611 0.0919 -1.1911 1.180104062e-38
-2.0719 -0.2787 -1.207 1.180104062e-38
-2.0729 -0.879 -1.2999 1.180104062e-38
-2.0714 -1.1054 -1.3555 1.180104062e-38
-2.1344 0.3845 -1.2521 1.180104062e-38
