# .PCD v0.7 - Point Cloud Data file format
VERSION 0.7
FIELDS x y z rgb
SIZE 4 4 4 4
TYPE F F F F
COUNT 1 1 1 1
WIDTH 698
HEIGHT 1
VIEWPOINT 0 0 0 1 0 0 0
POINTS 698
DATA ascii
5.2516 2.9545 3.4789 1.180104062e-38
4.9133 3.3728 3.4408 1.180104062e-38
4.185 4.1386 3.3981 1.180104062e-38
3.8307 4.5309 3.4256 1.180104062e-38
2.2566 6.2724 3.8486 1.180104062e-38
-9.7758 -1.3147 5.6949 1.180104062e-38
5.0816 3.1648 3.4563 1.180104062e-38
4.7326 3.569 3.4223 1.180104062e-38
4.3663 3.9491 3.399 1.180104062e-38
5.6199 2.5322 3.4235 1.180104062e-38
5.3187 2.9922 3.3893 1.180104062e-38
3.4621 4.9248 3.3435 1.180104062e-38
2.2554 6.269 3.7003 1.180104062e-38
5.4506 2.7543 3.3918 1.180104062e-38
4.0508 4.3797 3.3134 1.180104062e-38
3.5016 4.981 3.2504 1.180104062e-38
2.2549 6.2675 3.5558 1.180104062e-38
3.2886 5.1515 3.2627 1.180104062e-38
2.8938 5.5714 3.3516 1.180104062e-38
3.1235 5.4101 3.2027 1.180104062e-38
2.6817 5.7788 3.2661 1.180104062e-38
2.2584 6.2774 3.4202 1.180104062e-38
5.893 2.3453 3.2516 1.180104062e-38
2.7076 5.8347 3.1638 1.180104062e-38
2.2518 6.2591 3.2717 1.180104062e-38
-11.5793 -2.6235 5.8397 1.180104062e-38
2.4737 6.0195 3.201 1.180104062e-38
6.4488 1.613 3.1335 1.180104062e-38
2.2743 6.3214 3.0313 1.180104062e-38
6.9085 1.0863 3.0167 1.180104062e-38
2.2833 6.3466 2.9095 1.180104062e-38
2.3 6.393 2.7977 1.180104062e-38
1.9983 6.4421 2.6472 1.180104062e-38
7.6782 0.1711 2.8678 1.180104062e-38
1.9916 6.4202 2.5101 1.180104062e-38
7.996 -0.1782 2.836 1.180104062e-38
1.9883 6.4097 2.3796 1.180104062e-38
1.9874 6.4068 2.2537 1.180104062e-38
8.3411 -0.5584 2.6549 1.180104062e-38
8.6745 -0.9704 2.6132 1.180104062e-38
1.9862 6.4029 2.007 1.180104062e-38
2.1042 -2.4888 0.917 1.180104062e-38
1.9889 6.4115 1.8887 1.180104062e-38
1.9091 -2.4737 0.8234 1.180104062e-38
2.0785 -2.2473 0.8066 1.180104062e-38
2.3622 -2.1365 0.8393 1.180104062e-38
1.88 -2.6744 0.8614 1.180104062e-38
1.9795 -2.3414 0.8079 1.180104062e-38
2.6136 -2.1602 0.8935 1.180104062e-38
1.9915 6.4201 1.7713 1.180104062e-38
1.7534 -2.7467 0.801 1.180104062e-38
1.847 -2.3932 0.7431 1.180104062e-38
9.5188 -1.9348 2.3876 1.180104062e-38
1.9213 -2.2725 0.7315 1.180104062e-38
2.1258 -2.1023 0.7349 1.180104062e-38
1.7892 -2.3184 0.6684 1.180104062e-38
2.5438 -1.9184 0.7272 1.180104062e-38
1.7232 -2.4513 0.6839 1.180104062e-38
2.0654 -2.0425 0.663 1.180104062e-38
1.9989 6.4438 1.5399 1.180104062e-38
1.6174 -2.5337 0.6337 1.180104062e-38
1.7375 -2.2513 0.5995 1.180104062e-38
1.9074 -2.0623 0.5922 1.180104062e-38
2.1336 -1.9298 0.6065 1.180104062e-38
1.5867 -2.7483 0.669 1.180104062e-38
1.6702 -2.3759 0.6123 1.180104062e-38
1.8181 -2.1504 0.5937 1.180104062e-38
2.0087 -1.9865 0.5956 1.180104062e-38
2.728 -1.8727 0.6976 1.180104062e-38
2.0059 6.4665 1.4273 1.180104062e-38
1.5739 -2.4655 0.566 1.180104062e-38
1.7066 -2.2114 0.5406 1.180104062e-38
1.8764 -2.0287 0.5348 1.180104062e-38
2.087 -1.8877 0.5446 1.180104062e-38
2.3833 -1.7974 0.5777 1.180104062e-38
1.5283 -2.6472 0.5915 1.180104062e-38
1.7884 -2.1154 0.5361 1.180104062e-38
1.9728 -1.9509 0.5369 1.180104062e-38
2.0129 6.4891 1.3148 1.180104062e-38
1.6771 -2.1731 0.484 1.180104062e-38
1.8466 -1.9965 0.4795 1.180104062e-38
2.0536 -1.8574 0.4882 1.180104062e-38
2.1711 -1.7944 0.4966 1.180104062e-38
2.0282 6.5384 1.2071 1.180104062e-38
1.4201 -2.7343 0.4906 1.180104062e-38
1.5131 -2.3703 0.4478 1.180104062e-38
1.6487 -2.1363 0.4297 1.180104062e-38
2.0214 -1.8282 0.434 1.180104062e-38
2.2847 -1.723 0.4557 1.180104062e-38
2.695 -1.6785 0.5056 1.180104062e-38
1.7247 6.5832 1.0837 1.180104062e-38
1.5821 -2.2505 0.4381 1.180104062e-38
2.4508 -1.6824 0.4734 1.180104062e-38
1.3813 -2.6594 0.4262 1.180104062e-38
1.9903 -1.8001 0.3817 1.180104062e-38
2.6285 -1.6371 0.4404 1.180104062e-38
1.7195 6.5631 0.965 1.180104062e-38
1.3686 -2.9492 0.4624 1.180104062e-38
1.5554 -2.2125 0.3847 1.180104062e-38
1.7061 -2.0179 0.3759 1.180104062e-38
1.8825 -1.8617 0.3766 1.180104062e-38
3.0666 -1.7253 0.5005 1.180104062e-38
1.3517 -2.6026 0.3675 1.180104062e-38
1.4623 -2.2907 0.3406 1.180104062e-38
1.5992 -2.0721 0.328 1.180104062e-38
1.9603 -1.773 0.3312 1.180104062e-38
1.3266 -2.8588 0.3949 1.180104062e-38
2.0696 -1.7106 0.3365 1.180104062e-38
2.3615 -1.6211 0.359 1.180104062e-38
2.8833 -1.6221 0.4146 1.180104062e-38
1.4471 -2.2669 0.2917 1.180104062e-38
1.5843 -2.0529 0.2813 1.180104062e-38
1.9365 -1.7515 0.2832 1.180104062e-38
2.5184 -1.5685 0.3218 1.180104062e-38
1.2873 -2.7741 0.3317 1.180104062e-38
1.3833 -2.396 0.3001 1.180104062e-38
1.5153 -2.1556 0.2858 1.180104062e-38
1.8354 -1.8151 0.28 1.180104062e-38
2.0404 -1.6864 0.2871 1.180104062e-38
2.3214 -1.5936 0.3054 1.180104062e-38
2.7943 -1.5721 0.3478 1.180104062e-38
1.2484 -3.0378 0.3011 1.180104062e-38
1.4323 -2.2436 0.244 1.180104062e-38
1.5698 -2.0341 0.2356 1.180104062e-38
1.731 -1.8716 0.2337 1.180104062e-38
2.1461 -1.6184 0.2464 1.180104062e-38
2.4671 -1.5365 0.2665 1.180104062e-38
1.265 -2.726 0.2755 1.180104062e-38
1.3665 -2.3668 0.2505 1.180104062e-38
1.5001 -2.1339 0.2391 1.180104062e-38
2.2852 -1.5687 0.2541 1.180104062e-38
2.711 -1.5252 0.2852 1.180104062e-38
1.2123 -2.9499 0.239 1.180104062e-38
1.2957 -2.4947 0.2107 1.180104062e-38
1.5556 -2.0156 0.1908 1.180104062e-38
1.7154 -1.8547 0.1893 1.180104062e-38
1.9018 -1.7201 0.1922 1.180104062e-38
1.7134 6.54 0.5066 1.180104062e-38
1.3501 -2.3384 0.2023 1.180104062e-38
1.4852 -2.1128 0.1935 1.180104062e-38
2.0033 -1.6558 0.1948 1.180104062e-38
1.1907 -2.8973 0.1824 1.180104062e-38
1.2798 -2.464 0.1617 1.180104062e-38
1.4036 -2.1987 0.1519 1.180104062e-38
1.5417 -1.9976 0.147 1.180104062e-38
1.7002 -1.8383 0.1458 1.180104062e-38
1.885 -1.7049 0.148 1.180104062e-38
2.1051 -1.5876 0.1536 1.180104062e-38
1.7143 6.5433 0.394 1.180104062e-38
1.6212 -1.9176 0.1462 1.180104062e-38
1.7871 -1.7674 0.1464 1.180104062e-38
1.9854 -1.641 0.15 1.180104062e-38
2.6045 -1.4653 0.174 1.180104062e-38
1.2643 -2.4342 0.114 1.180104062e-38
1.3898 -2.177 0.1074 1.180104062e-38
1.528 -1.9799 0.104 1.180104062e-38
1.6853 -1.8221 0.1032 1.180104062e-38
2.0852 -1.5726 0.1086 1.180104062e-38
2.3731 -1.478 0.1162 1.180104062e-38
2.8677 -1.4491 0.1336 1.180104062e-38
1.2249 -3.4047 0.1504 1.180104062e-38
1.3203 -2.2868 0.1098 1.180104062e-38
1.4564 -2.0718 0.1053 1.180104062e-38
1.6069 -1.9007 0.1035 1.180104062e-38
1.5146 -1.9625 0.0618 1.180104062e-38
1.6706 -1.8062 0.0614 1.180104062e-38
1.1903 -2.5651 0.0705 1.180104062e-38
1.3071 -2.264 0.0652 1.180104062e-38
1.4425 -2.052 0.0625 1.180104062e-38
1.7565 -1.7371 0.0616 1.180104062e-38
1.9505 -1.6121 0.0631 1.180104062e-38
2.1971 -1.5082 0.0665 1.180104062e-38
2.543 -1.4307 0.0728 1.180104062e-38
1.1306 -2.7511 0.0247 1.180104062e-38
1.2367 -2.3811 0.0223 1.180104062e-38
1.5029 -1.9474 0.0204 1.180104062e-38
1.8364 -1.6609 0.0206 1.180104062e-38
2.0467 -1.5435 0.0213 1.180104062e-38
2.7761 -1.4029 0.0258 1.180104062e-38
1.7208 6.5681 0.0564 1.180104062e-38
1.1773 -2.5371 0.0232 1.180104062e-38
1.2966 -2.2457 0.0216 1.180104062e-38
1.5797 -1.8685 0.0203 1.180104062e-38
1.7416 -1.7223 0.0204 1.180104062e-38
1.9335 -1.5981 0.0208 1.180104062e-38
2.1762 -1.4939 0.0219 1.180104062e-38
1.1202 -2.726 -0.0245 1.180104062e-38
1.648 -1.7818 -0.0202 1.180104062e-38
1.8244 -1.6501 -0.0204 1.180104062e-38
2.028 -1.5294 -0.0211 1.180104062e-38
2.2954 -1.4296 -0.0225 1.180104062e-38
2.7325 -1.3808 -0.0254 1.180104062e-38
1.7252 6.585 -0.0566 1.180104062e-38
1.4233 -2.0246 -0.0206 1.180104062e-38
1.7319 -1.7128 -0.0202 1.180104062e-38
2.1558 -1.4798 -0.0217 1.180104062e-38
2.4845 -1.3978 -0.0237 1.180104062e-38
3.2292 -1.455 -0.0294 1.180104062e-38
1.6401 -1.7733 -0.0602 1.180104062e-38
1.731 6.6073 -0.1703 1.180104062e-38
1.0763 -2.9916 -0.0793 1.180104062e-38
1.1613 -2.5025 -0.0688 1.180104062e-38
1.4157 -2.0139 -0.0614 1.180104062e-38
1.9098 -1.5785 -0.0618 1.180104062e-38
2.1412 -1.4699 -0.0648 1.180104062e-38
3.1318 -1.4111 -0.0857 1.180104062e-38
1.1002 -2.6771 -0.1203 1.180104062e-38
1.2126 -2.3347 -0.1094 1.180104062e-38
1.4813 -1.9194 -0.1008 1.180104062e-38
1.6323 -1.7648 -0.1 1.180104062e-38
1.8075 -1.6348 -0.1013 1.180104062e-38
2.2613 -1.4084 -0.1108 1.180104062e-38
1.7369 6.6297 -0.285 1.180104062e-38
1.1534 -2.4856 -0.1139 1.180104062e-38
1.2752 -2.2088 -0.106 1.180104062e-38
1.9009 -1.5711 -0.1025 1.180104062e-38
3.04 -1.3698 -0.1386 1.180104062e-38
1.0904 -2.6533 -0.1671 1.180104062e-38
1.2048 -2.3196 -0.1522 1.180104062e-38
1.3359 -2.0927 -0.1446 1.180104062e-38
1.4742 -1.9102 -0.1405 1.180104062e-38
1.7992 -1.6273 -0.1413 1.180104062e-38
2.6347 -1.3314 -0.1719 1.180104062e-38
1.7504 6.6814 -0.4023 1.180104062e-38
1.0454 -2.9058 -0.1799 1.180104062e-38
1.2683 -2.1967 -0.1477 1.180104062e-38
1.4009 -1.9928 -0.1419 1.180104062e-38
1.5497 -1.833 -0.1398 1.180104062e-38
2.1204 -1.4556 -0.1498 1.180104062e-38
2.425 -1.3643 -0.1621 1.180104062e-38
2.9706 -1.3385 -0.1898 1.180104062e-38
1.457 6.7801 -0.4039 1.180104062e-38
1.0808 -2.6299 -0.2131 1.180104062e-38
1.4672 -1.9011 -0.18 1.180104062e-38
1.7909 -1.6198 -0.181 1.180104062e-38
1.9893 -1.5002 -0.1867 1.180104062e-38
1.0355 -2.8782 -0.2292 1.180104062e-38
1.138 -2.4522 -0.2026 1.180104062e-38
1.2614 -2.1848 -0.1891 1.180104062e-38
1.5424 -1.8243 -0.179 1.180104062e-38
1.7005 -1.6817 -0.1792 1.180104062e-38
2.9387 -1.3241 -0.2415 1.180104062e-38
1.4454 6.7264 -0.5156 1.180104062e-38
-4.448 -0 -0.4078 1.180104062e-38
1.0697 -3.4485 -0.331 1.180104062e-38
1.4602 -1.8921 -0.2191 1.180104062e-38
1.7827 -1.6124 -0.2204 1.180104062e-38
1.9799 -1.4931 -0.2273 1.180104062e-38
1.0257 -2.851 -0.2778 1.180104062e-38
1.1304 -2.4359 -0.2462 1.180104062e-38
1.2545 -2.1729 -0.23 1.180104062e-38
1.5351 -1.8157 -0.218 1.180104062e-38
1.6928 -1.674 -0.2183 1.180104062e-38
1.8745 -1.5493 -0.223 1.180104062e-38
2.0998 -1.4415 -0.2335 1.180104062e-38
1.441 6.706 -0.6288 1.180104062e-38
-4.1097 0.3672 -0.3783 1.180104062e-38
1.3147 -2.0595 -0.265 1.180104062e-38
1.4533 -1.883 -0.258 1.180104062e-38
1.6017 -1.7318 -0.2559 1.180104062e-38
1.7746 -1.605 -0.2595 1.180104062e-38
1.9706 -1.4861 -0.2677 1.180104062e-38
2.2155 -1.3798 -0.2831 1.180104062e-38
2.5818 -1.3046 -0.3138 1.180104062e-38
-3.7517 0.5046 -0.4106 1.180104062e-38
-3.9257 -0.1751 -0.4262 1.180104062e-38
1.0182 -2.8303 -0.3263 1.180104062e-38
1.1228 -2.4197 -0.2893 1.180104062e-38
1.2477 -2.1611 -0.2707 1.180104062e-38
1.3791 -1.9617 -0.2601 1.180104062e-38
1.5278 -1.8071 -0.2567 1.180104062e-38
1.6851 -1.6665 -0.2571 1.180104062e-38
1.8658 -1.5422 -0.2626 1.180104062e-38
2.0897 -1.4345 -0.2749 1.180104062e-38
2.3851 -1.3418 -0.2968 1.180104062e-38
2.8838 -1.2994 -0.3431 1.180104062e-38
-3.9949 0.7197 -0.4403 1.180104062e-38
-3.7414 0.3343 -0.4074 1.180104062e-38
-3.77 -0.3369 -0.4743 1.180104062e-38
1.0601 -2.5795 -0.3495 1.180104062e-38
1.3092 -2.0509 -0.3049 1.180104062e-38
1.4464 -1.8741 -0.2967 1.180104062e-38
1.7665 -1.5977 -0.2985 1.180104062e-38
1.9613 -1.4791 -0.3078 1.180104062e-38
-4.3832 0.9931 -0.5632 1.180104062e-38
-3.5348 0.1576 -0.4434 1.180104062e-38
-3.631 -0.1619 -0.4555 1.180104062e-38
1.0153 -2.8221 -0.3759 1.180104062e-38
1.2433 -2.1536 -0.3116 1.180104062e-38
1.3724 -1.9523 -0.2991 1.180104062e-38
1.6775 -1.6589 -0.2957 1.180104062e-38
1.8572 -1.535 -0.3019 1.180104062e-38
2.0796 -1.4276 -0.3161 1.180104062e-38
2.372 -1.3345 -0.3411 1.180104062e-38
2.8627 -1.2899 -0.3935 1.180104062e-38
-3.8076 0.686 -0.4848 1.180104062e-38
1.5894 -1.7185 -0.333 1.180104062e-38
1.952 -1.4721 -0.3478 1.180104062e-38
2.5473 -1.2872 -0.406 1.180104062e-38
-4.1432 0.9387 -0.6042 1.180104062e-38
-3.3671 0.4528 -0.4832 1.180104062e-38
-3.361 0.1499 -0.4785 1.180104062e-38
-3.6292 -0.4881 -0.5209 1.180104062e-38
-8.4332 -11.4456 -2.0222 1.180104062e-38
1.2412 -2.1498 -0.3531 1.180104062e-38
1.517 -1.7943 -0.3342 1.180104062e-38
2.0695 -1.4207 -0.357 1.180104062e-38
2.359 -1.3271 -0.385 1.180104062e-38
1.4361 6.683 -0.9723 1.180104062e-38
-3.6717 0.6615 -0.5307 1.180104062e-38
-3.2915 -0 -0.5241 1.180104062e-38
-3.3916 -0.3031 -0.5422 1.180104062e-38
1.0037 -3.2356 -0.5394 1.180104062e-38
1.173 -2.2585 -0.4053 1.180104062e-38
1.5871 -1.716 -0.3722 1.180104062e-38
1.9492 -1.47 -0.3888 1.180104062e-38
2.1877 -1.3625 -0.4104 1.180104062e-38
2.5357 -1.2813 -0.4524 1.180104062e-38
-3.9744 0.9005 -0.6489 1.180104062e-38
-3.254 0.4376 -0.5228 1.180104062e-38
-3.26 0.1454 -0.5196 1.180104062e-38
-3.3344 -0.1487 -0.5315 1.180104062e-38
-7.3922 -12.1691 -2.2673 1.180104062e-38
1.0095 -2.8059 -0.4748 1.180104062e-38
1.239 -2.146 -0.3946 1.180104062e-38
1.3678 -1.9457 -0.3787 1.180104062e-38
2.0653 -1.4177 -0.3989 1.180104062e-38
2.8236 -1.2723 -0.4932 1.180104062e-38
1.4355 6.6802 -1.088 1.180104062e-38
-4.5041 1.2338 -0.7436 1.180104062e-38
-3.1939 -0 -0.5632 1.180104062e-38
-3.2817 -0.2933 -0.581 1.180104062e-38
1.0516 -2.5588 -0.4878 1.180104062e-38
1.1706 -2.2538 -0.4478 1.180104062e-38
1.5848 -1.7135 -0.4116 1.180104062e-38
2.1855 -1.3611 -0.454 1.180104062e-38
2.5362 -1.2816 -0.5011 1.180104062e-38
-3.1644 0.1411 -0.5585 1.180104062e-38
-6.291 -12.8018 -2.5151 1.180104062e-38
1.2368 -2.1422 -0.4362 1.180104062e-38
1.3656 -1.9426 -0.4187 1.180104062e-38
1.5126 -1.7891 -0.4131 1.180104062e-38
2.8244 -1.2726 -0.5462 1.180104062e-38
-4.2904 1.1752 -0.7844 1.180104062e-38
-3.4372 0.6192 -0.6158 1.180104062e-38
-3.151 0.2816 -0.5578 1.180104062e-38
-3.1015 0 -0.6002 1.180104062e-38
-3.1775 -0.2839 -0.6173 1.180104062e-38
0.9911 -3.1949 -0.6473 1.180104062e-38
1.0487 -2.552 -0.5339 1.180104062e-38
1.1681 -2.2491 -0.4904 1.180104062e-38
1.3002 -2.0367 -0.4676 1.180104062e-38
2.1832 -1.3597 -0.4977 1.180104062e-38
-3.6833 0.8345 -0.7309 1.180104062e-38
-3.1048 0.4175 -0.6062 1.180104062e-38
-3.1273 -0.1395 -0.6058 1.180104062e-38
-3.2339 -0.4349 -0.6315 1.180104062e-38
-5.133 -13.3274 -2.7638 1.180104062e-38
1.1104 -2.393 -0.5105 1.180104062e-38
1.2346 -2.1383 -0.4778 1.180104062e-38
1.3636 -1.9397 -0.4588 1.180104062e-38
1.8419 -1.5223 -0.4624 1.180104062e-38
2.8251 -1.2729 -0.5996 1.180104062e-38
1.438 6.6919 -1.3246 1.180104062e-38
-4.1641 1.1406 -0.8355 1.180104062e-38
-3.3306 0.6 -0.6549 1.180104062e-38
-3.0639 0.2738 -0.5953 1.180104062e-38
-3.0211 0 -0.6369 1.180104062e-38
-3.0994 -0.277 -0.656 1.180104062e-38
-3.2303 -0.582 -0.692 1.180104062e-38
-4.3225 -12.9107 -2.8703 1.180104062e-38
0.991 -3.1947 -0.7052 1.180104062e-38
1.2979 -2.0332 -0.5085 1.180104062e-38
1.5802 -1.7085 -0.4906 1.180104062e-38
1.9434 -1.4656 -0.5132 1.180104062e-38
2.1816 -1.3587 -0.5418 1.180104062e-38
-3.552 0.8048 -0.7678 1.180104062e-38
-3.0505 -0.136 -0.6438 1.180104062e-38
-3.1545 -0.4242 -0.671 1.180104062e-38
1.2324 -2.1345 -0.5196 1.180104062e-38
1.3615 -1.9368 -0.4991 1.180104062e-38
1.6636 -1.6452 -0.4933 1.180104062e-38
2.059 -1.4134 -0.5265 1.180104062e-38
2.3467 -1.3202 -0.5676 1.180104062e-38
1.4399 6.7008 -1.4449 1.180104062e-38
-4.0001 1.0957 -0.8744 1.180104062e-38
-2.981 0.2664 -0.631 1.180104062e-38
-3.043 -0.2719 -0.6973 1.180104062e-38
1.1632 -2.2396 -0.576 1.180104062e-38
1.2956 -2.0296 -0.5496 1.180104062e-38
1.4332 -1.8571 -0.5354 1.180104062e-38
1.5779 -1.706 -0.5304 1.180104062e-38
1.9415 -1.4642 -0.555 1.180104062e-38
2.1803 -1.3579 -0.5863 1.180104062e-38
-2.9453 0.1313 -0.6729 1.180104062e-38
-2.9994 -0.1338 -0.6853 1.180104062e-38
-3.0959 -0.4163 -0.713 1.180104062e-38
-2.6818 -13.9908 -3.2515 1.180104062e-38
1.1056 -2.3825 -0.5995 1.180104062e-38
1.3595 -1.9339 -0.5396 1.180104062e-38
1.8372 -1.5185 -0.544 1.180104062e-38
2.3452 -1.3194 -0.6142 1.180104062e-38
2.8265 -1.2736 -0.7076 1.180104062e-38
-3.1659 0.5704 -0.7342 1.180104062e-38
-2.9221 -0 -0.7183 1.180104062e-38
-3.1004 -0.5586 -0.7743 1.180104062e-38
-1.9543 -13.3995 -3.3284 1.180104062e-38
1.0455 -2.5442 -0.6761 1.180104062e-38
1.1607 -2.2348 -0.619 1.180104062e-38
1.2933 -2.026 -0.5908 1.180104062e-38
1.7463 -1.5795 -0.5788 1.180104062e-38
1.9395 -1.4627 -0.5971 1.180104062e-38
-3.3132 0.7507 -0.835 1.180104062e-38
-2.8899 0.3886 -0.7167 1.180104062e-38
-3.0389 -0.4087 -0.7537 1.180104062e-38
1.0051 -2.7937 -0.7298 1.180104062e-38
1.1045 -2.3801 -0.6449 1.180104062e-38
1.6595 -1.6411 -0.5737 1.180104062e-38
2.0547 -1.4105 -0.6126 1.180104062e-38
2.8321 -1.2761 -0.7635 1.180104062e-38
-2.8745 -0 -0.7574 1.180104062e-38
1.291 -2.0224 -0.6322 1.180104062e-38
1.5732 -1.7009 -0.6105 1.180104062e-38
1.7441 -1.5774 -0.6196 1.180104062e-38
-3.2212 0.7298 -0.8703 1.180104062e-38
-2.8515 0.1271 -0.7521 1.180104062e-38
-2.9836 -0.4013 -0.7933 1.180104062e-38
-3.0953 -0.7013 -0.8363 1.180104062e-38
1.0092 -2.8051 -0.7855 1.180104062e-38
1.3554 -1.928 -0.621 1.180104062e-38
1.5014 -1.7759 -0.6128 1.180104062e-38
2.0526 -1.409 -0.656 1.180104062e-38
2.3422 -1.3177 -0.7081 1.180104062e-38
-2.9786 -0.5366 -0.8515 1.180104062e-38
1.2935 -2.0262 -0.6764 1.180104062e-38
1.7418 -1.5754 -0.6608 1.180104062e-38
2.1763 -1.3554 -0.7214 1.180104062e-38
2.5453 -1.2862 -0.8024 1.180104062e-38
-3.137 0.7107 -0.905 1.180104062e-38
-2.7751 0.3732 -0.7878 1.180104062e-38
-2.8531 -0.1272 -0.8035 1.180104062e-38
-2.9298 -0.394 -0.8317 1.180104062e-38
1.2299 -2.1303 -0.6921 1.180104062e-38
1.8301 -1.5126 -0.668 1.180104062e-38
2.0504 -1.4075 -0.6997 1.180104062e-38
2.3409 -1.317 -0.7557 1.180104062e-38
2.8794 -1.2974 -0.8886 1.180104062e-38
1.457 6.7801 -1.9512 1.180104062e-38
-2.9229 0.5266 -0.8356 1.180104062e-38
-2.7824 0 -0.833 1.180104062e-38
-3.0126 -0.8252 -0.9351 1.180104062e-38
1.2962 -2.0305 -0.7212 1.180104062e-38
1.4315 -1.8548 -0.7014 1.180104062e-38
1.5735 -1.7013 -0.6938 1.180104062e-38
1.744 -1.5774 -0.704 1.180104062e-38
2.1842 -1.3603 -0.7704 1.180104062e-38
-3.0564 0.6925 -0.9382 1.180104062e-38
-2.7204 0.3659 -0.8218 1.180104062e-38
-2.8067 -0.1252 -0.8411 1.180104062e-38
-2.8771 -0.387 -0.8691 1.180104062e-38
1.1132 -2.399 -0.7918 1.180104062e-38
1.2326 -2.1349 -0.738 1.180104062e-38
1.832 -1.5142 -0.7116 1.180104062e-38
2.0545 -1.4103 -0.746 1.180104062e-38
2.3521 -1.3233 -0.808 1.180104062e-38
-3.5598 0.9751 -1.105 1.180104062e-38
-2.738 0 -0.8695 1.180104062e-38
-2.7827 -0.2487 -0.8873 1.180104062e-38
1.0617 -2.5836 -0.8871 1.180104062e-38
1.1712 -2.255 -0.807 1.180104062e-38
1.299 -2.0349 -0.7667 1.180104062e-38
1.5768 -1.7048 -0.7375 1.180104062e-38
1.9449 -1.4667 -0.7736 1.180104062e-38
2.5872 -1.3074 -0.9206 1.180104062e-38
-2.6672 0.3587 -0.8547 1.180104062e-38
-2.7186 0.1212 -0.8643 1.180104062e-38
-2.8254 -0.38 -0.9054 1.180104062e-38
-2.9205 -0.6617 -0.951 1.180104062e-38
-3.1071 -1.0019 -1.0368 1.180104062e-38
1.0219 -2.8404 -0.9587 1.180104062e-38
1.6618 -1.6434 -0.7422 1.180104062e-38
1.8364 -1.5179 -0.7567 1.180104062e-38
2.0611 -1.4148 -0.7939 1.180104062e-38
2.3635 -1.3297 -0.8613 1.180104062e-38
-3.4729 0.9513 -1.1436 1.180104062e-38
-2.7749 0.4999 -0.8954 1.180104062e-38
-2.7374 -0.2446 -0.9234 1.180104062e-38
-2.8177 -0.5077 -0.9619 1.180104062e-38
-2.8971 -0.7936 -1.0092 1.180104062e-38
1.0659 -2.5938 -0.9422 1.180104062e-38
1.5806 -1.7089 -0.7821 1.180104062e-38
1.7524 -1.585 -0.7939 1.180104062e-38
2.2046 -1.373 -0.8726 1.180104062e-38
2.6089 -1.3184 -0.9821 1.180104062e-38
-2.618 0.3521 -0.8875 1.180104062e-38
1.0356 -2.8785 -1.0278 1.180104062e-38
1.5092 -1.7851 -0.7854 1.180104062e-38
2.0678 -1.4194 -0.8427 1.180104062e-38
2.3751 -1.3362 -0.9156 1.180104062e-38
-2.65 0.2368 -0.8939 1.180104062e-38
-2.7668 -0.4985 -0.9969 1.180104062e-38
-2.8417 -0.7784 -1.0448 1.180104062e-38
1.3047 -2.0438 -0.8598 1.180104062e-38
1.4406 -1.8667 -0.8361 1.180104062e-38
1.5844 -1.713 -0.8274 1.180104062e-38
1.7568 -1.5889 -0.8399 1.180104062e-38
1.9573 -1.4761 -0.8693 1.180104062e-38
2.2151 -1.3796 -0.9253 1.180104062e-38
2.6313 -1.3297 -1.0454 1.180104062e-38
-2.5748 0.3463 -0.9212 1.180104062e-38
-2.8709 -0.9258 -1.0696 1.180104062e-38
1.1224 -2.4188 -0.9455 1.180104062e-38
1.2408 -2.1492 -0.8799 1.180104062e-38
1.3679 -1.9458 -0.8434 1.180104062e-38
1.6698 -1.6514 -0.8327 1.180104062e-38
1.8459 -1.5257 -0.8492 1.180104062e-38
2.387 -1.3429 -0.9712 1.180104062e-38
-2.6624 0.4796 -0.9592 1.180104062e-38
-2.606 0.2329 -0.9277 1.180104062e-38
-2.7171 -0.4895 -1.0309 1.180104062e-38
-2.7878 -0.7637 -1.0794 1.180104062e-38
1.3076 -2.0483 -0.9074 1.180104062e-38
1.5883 -1.7172 -0.8735 1.180104062e-38
2.2258 -1.3863 -0.9792 1.180104062e-38
2.6544 -1.3413 -1.1105 1.180104062e-38
-2.5325 0.3406 -0.9542 1.180104062e-38
-2.6307 -0.1173 -0.9833 1.180104062e-38
1.0913 -3.0334 -1.2038 1.180104062e-38
1.5156 -1.7927 -0.8766 1.180104062e-38
1.674 -1.6554 -0.8791 1.180104062e-38
1.8518 -1.5305 -0.8971 1.180104062e-38
2.0815 -1.4289 -0.9428 1.180104062e-38
-2.6096 0.4701 -0.9901 1.180104062e-38
-2.7584 -1.0272 -1.1552 1.180104062e-38
1.1892 -2.2897 -1.0126 1.180104062e-38
1.3105 -2.0529 -0.9559 1.180104062e-38
1.5922 -1.7215 -0.9203 1.180104062e-38
1.7656 -1.5969 -0.9343 1.180104062e-38
2.2368 -1.3931 -1.0342 1.180104062e-38
-2.549 0.1137 -1.0014 1.180104062e-38
-2.5889 -0.1154 -1.0171 1.180104062e-38
-2.6312 -0.3539 -1.042 1.180104062e-38
-2.7055 -0.613 -1.0887 1.180104062e-38
1.1221 -3.1189 -1.3009 1.180104062e-38
1.1399 -2.4563 -1.0628 1.180104062e-38
1.2473 -2.1604 -0.979 1.180104062e-38
1.3739 -1.9545 -0.9376 1.180104062e-38
1.519 -1.7967 -0.9234 1.180104062e-38
1.6782 -1.6596 -0.9263 1.180104062e-38
2.0886 -1.4337 -0.9943 1.180104062e-38
-2.5207 0.2252 -0.9932 1.180104062e-38
-2.641 -0.7235 -1.1276 1.180104062e-38
1.119 -2.7228 -1.2122 1.180104062e-38
1.2004 -2.3112 -1.0724 1.180104062e-38
1.3178 -2.0644 -1.0085 1.180104062e-38
1.4502 -1.8791 -0.9774 1.180104062e-38
1.5963 -1.7259 -0.9681 1.180104062e-38
1.7701 -1.601 -0.9828 1.180104062e-38
2.2511 -1.4021 -1.0921 1.180104062e-38
2.7752 -1.4024 -1.2804 1.180104062e-38
-2.6388 0.5979 -1.1141 1.180104062e-38
-2.5479 -0.1136 -1.0502 1.180104062e-38
-2.5854 -0.3477 -1.0742 1.180104062e-38
1.257 -2.1773 -1.0353 1.180104062e-38
1.8639 -1.5406 -0.9957 1.180104062e-38
2.4409 -1.3733 -1.1533 1.180104062e-38
-2.4793 0.2215 -1.025 1.180104062e-38
-2.4893 0 -1.0738 1.180104062e-38
-2.5389 -0.4574 -1.1128 1.180104062e-38
-2.5507 -0.6987 -1.1408 1.180104062e-38
-2.5688 -0.9566 -1.1824 1.180104062e-38
1.1355 -2.763 -1.2886 1.180104062e-38
2.2798 -1.4199 -1.1585 1.180104062e-38
2.9119 -1.4715 -1.4073 1.180104062e-38
-2.5715 0.5826 -1.1373 1.180104062e-38
-2.4106 0.3242 -1.0492 1.180104062e-38
-2.4655 0.1099 -1.0645 1.180104062e-38
-2.5277 -0.34 -1.1001 1.180104062e-38
-2.5465 -0.577 -1.1263 1.180104062e-38
-2.5665 -0.8276 -1.1632 1.180104062e-38
-2.6695 -1.132 -1.2508 1.180104062e-38
1.1628 -2.5058 -1.1916 1.180104062e-38
1.3883 -1.9749 -1.0413 1.180104062e-38
1.8742 -1.5491 -1.0488 1.180104062e-38
2.1131 -1.4506 -1.1056 1.180104062e-38
-2.4719 0.4453 -1.0835 1.180104062e-38
-2.4481 -0.2188 -1.109 1.180104062e-38
-2.4593 -0.4431 -1.1275 1.180104062e-38
1.1714 -2.8505 -1.3905 1.180104062e-38
1.4706 -1.9055 -1.0861 1.180104062e-38
2.3096 -1.4384 -1.2277 1.180104062e-38
-2.3567 0.3169 -1.073 1.180104062e-38
-2.4105 0.1075 -1.0887 1.180104062e-38
-2.4521 -0.3298 -1.1164 1.180104062e-38
-2.4671 -0.559 -1.1414 1.180104062e-38
-2.4891 -1.0555 -1.2199 1.180104062e-38
1.1749 -2.5318 -1.2594 1.180104062e-38
1.2775 -2.2127 -1.1529 1.180104062e-38
1.3987 -1.9896 -1.0974 1.180104062e-38
1.5417 -1.8235 -1.0774 1.180104062e-38
1.7029 -1.6841 -1.0807 1.180104062e-38
1.8914 -1.5633 -1.1072 1.180104062e-38
2.5429 -1.4306 -1.3165 1.180104062e-38
-2.4063 0.4335 -1.1032 1.180104062e-38
-2.3848 0.2131 -1.0804 1.180104062e-38
-2.3615 0 -1.1132 1.180104062e-38
-2.3816 -0.4291 -1.1407 1.180104062e-38
-2.3934 -0.6556 -1.1698 1.180104062e-38
1.262 -3.0708 -1.565 1.180104062e-38
1.4817 -1.9199 -1.1432 1.180104062e-38
1.6288 -1.7611 -1.1308 1.180104062e-38
1.806 -1.6335 -1.1479 1.180104062e-38
2.0282 -1.5296 -1.1974 1.180104062e-38
-2.5265 0.5724 -1.2211 1.180104062e-38
-2.2973 0.309 -1.0926 1.180104062e-38
-2.3488 0.1047 -1.1083 1.180104062e-38
-2.3799 -0.3201 -1.1319 1.180104062e-38
-2.4109 -1.0223 -1.2344 1.180104062e-38
1.1966 -2.5785 -1.34 1.180104062e-38
1.4094 -2.0049 -1.1552 1.180104062e-38
1.5533 -1.8372 -1.134 1.180104062e-38
1.9092 -1.578 -1.1676 1.180104062e-38
2.5983 -1.4618 -1.4053 1.180104062e-38
-2.3094 -0.2064 -1.1404 1.180104062e-38
-2.3082 -0.4159 -1.1536 1.180104062e-38
-2.3175 -0.6348 -1.1819 1.180104062e-38
-2.3666 -1.1304 -1.29 1.180104062e-38
1.2562 -2.4186 -1.3404 1.180104062e-38
1.4932 -1.9348 -1.2021 1.180104062e-38
1.642 -1.7753 -1.1894 1.180104062e-38
-2.5042 0.5673 -1.2629 1.180104062e-38
-2.2513 0.3028 -1.1173 1.180104062e-38
-2.3142 -0.5243 -1.1671 1.180104062e-38
1.2371 -2.6658 -1.4455 1.180104062e-38
1.2993 -2.2504 -1.2781 1.180104062e-38
1.4204 -2.0206 -1.2148 1.180104062e-38
1.5652 -1.8513 -1.1924 1.180104062e-38
1.9276 -1.5932 -1.23 1.180104062e-38
2.1917 -1.5046 -1.3076 1.180104062e-38
2.7013 -1.5197 -1.5245 1.180104062e-38
-2.2359 -0 -1.1463 1.180104062e-38
-2.2416 -0.4039 -1.1677 1.180104062e-38
-2.2593 -0.8414 -1.236 1.180104062e-38
1.3738 -2.152 -1.3089 1.180104062e-38
1.505 -1.9502 -1.2629 1.180104062e-38
1.8362 -1.6607 -1.2693 1.180104062e-38
-2.2093 0.2971 -1.1428 1.180104062e-38
-2.2319 0.0995 -1.1453 1.180104062e-38
-2.2425 -0.5081 -1.1788 1.180104062e-38
-2.253 -0.7265 -1.2136 1.180104062e-38
-2.2673 -0.9614 -1.2625 1.180104062e-38
-2.3837 -1.272 -1.3851 1.180104062e-38
1.2812 -2.7608 -1.5604 1.180104062e-38
1.3192 -2.285 -1.3527 1.180104062e-38
1.4319 -2.0369 -1.2765 1.180104062e-38
-2.1765 -0 -1.1619 1.180104062e-38
-2.1789 -0.3925 -1.1819 1.180104062e-38
-2.1873 -0.5992 -1.2107 1.180104062e-38
1.3165 -2.5347 -1.5247 1.180104062e-38
1.3993 -2.1919 -1.3883 1.180104062e-38
1.6697 -1.8052 -1.3127 1.180104062e-38
2.0979 -1.5821 -1.4027 1.180104062e-38
2.5506 -1.5886 -1.6041 1.180104062e-38
-2.4373 0.5522 -1.3341 1.180104062e-38
-2.1681 0.2916 -1.1679 1.180104062e-38
-2.1765 -0.0971 -1.1631 1.180104062e-38
-2.181 -0.2933 -1.1748 1.180104062e-38
-2.1806 -0.4941 -1.1936 1.180104062e-38
-2.1912 -0.7066 -1.2291 1.180104062e-38
-2.2 -0.9329 -1.2757 1.180104062e-38
1.347 -2.3331 -1.4382 1.180104062e-38
1.7598 -1.7403 -1.3212 1.180104062e-38
1.9674 -1.6261 -1.3626 1.180104062e-38
-2.125 -0.3828 -1.1992 1.180104062e-38
-2.1288 -0.5832 -1.2259 1.180104062e-38
-2.1317 -0.7939 -1.2634 1.180104062e-38
1.3709 -2.6395 -1.6519 1.180104062e-38
1.4262 -2.2342 -1.4721 1.180104062e-38
1.5469 -2.0044 -1.4062 1.180104062e-38
1.6966 -1.8344 -1.3877 1.180104062e-38
2.1476 -1.6196 -1.4939 1.180104062e-38
-2.1163 0.0944 -1.1766 1.180104062e-38
-2.1317 -0.6874 -1.244 1.180104062e-38
-2.1463 -1.1453 -1.3512 1.180104062e-38
1.479 -2.104 -1.4284 1.180104062e-38
1.788 -1.7682 -1.3966 1.180104062e-38
-2.1578 0.3887 -1.2177 1.180104062e-38
-2.1018 0.1878 -1.172 1.180104062e-38
-2.0684 -0.1848 -1.199 1.180104062e-38
-2.074 -0.9907 -1.327 1.180104062e-38
-2.371 0.5372 -1.4036 1.180104062e-38
-2.066 -0.0921 -1.194 1.180104062e-38
-2.0743 -0.6689 -1.2583 1.180104062e-38
-2.0729 -0.879 -1.2999 1.180104062e-38
1.427 -2.4716 -1.6477 1.180104062e-38
1.646 -1.9469 -1.4719 1.180104062e-38
-2.1344 0.3845 -1.2521 1.180104062e-38
-2.0505 0.1832 -1.1886 1.180104062e-38
