# .PCD v0.7 - Point Cloud Data file format
VERSION 0.7
FIELDS x y z rgb
SIZE 4 4 4 4
TYPE F F F F
COUNT 1 1 1 1
WIDTH 729
HEIGHT 1
VIEWPOINT 0 0 0 1 0 0 0
POINTS 729
DATA ascii
5.3901 1.8716 3.2942 1.180104062e-38
3.6417 4.3074 3.2566 1.180104062e-38
-10.1808 -0.454 5.8837 1.180104062e-38
3.0739 4.8151 3.2982 1.180104062e-38
2.4449 5.9494 3.7136 1.180104062e-38
3.3252 4.7301 3.2112 1.180104062e-38
2.9105 5.0412 3.233 1.180104062e-38
5.815 1.1819 3.2956 1.180104062e-38
3.1032 4.8611 3.2031 1.180104062e-38
2.7369 5.2695 3.2979 1.180104062e-38
-11.0876 -0.9908 5.9426 1.180104062e-38
5.8404 1.1871 3.1816 1.180104062e-38
2.7469 5.2888 3.1815 1.180104062e-38
2.5736 5.5459 3.1344 1.180104062e-38
6.1662 0.6898 3.1809 1.180104062e-38
2.3624 5.7486 3.1863 1.180104062e-38
2.1516 5.9804 3.1261 1.180104062e-38
6.4027 0.4286 3.0249 1.180104062e-38
-13.383 -2.4111 6.1359 1.180104062e-38
2.1536 5.986 2.8705 1.180104062e-38
6.5957 0.147 2.9768 1.180104062e-38
7.0112 -0.4694 2.8936 1.180104062e-38
7.2524 -0.8113 2.8641 1.180104062e-38
2.1649 6.0173 2.5098 1.180104062e-38
7.3535 -0.8226 2.763 1.180104062e-38
1.4456 -2.7833 1.0537 1.180104062e-38
2.1973 6.1074 2.1807 1.180104062e-38
1.5583 -2.6991 1.0471 1.180104062e-38
1.5923 -2.4943 0.9398 1.180104062e-38
1.4521 -2.5151 0.9223 1.180104062e-38
1.1061 -2.6916 0.8712 1.180104062e-38
1.2906 -2.4848 0.8382 1.180104062e-38
1.5198 -2.3808 0.8456 1.180104062e-38
1.8549 -2.4034 0.9089 1.180104062e-38
1.1941 -2.5732 0.8493 1.180104062e-38
1.3999 -2.4246 0.8382 1.180104062e-38
1.2495 -2.4057 0.7627 1.180104062e-38
1.4745 -2.3097 0.771 1.180104062e-38
1.7633 -2.2847 0.812 1.180104062e-38
1.3585 -2.3529 0.7644 1.180104062e-38
1.9929 -2.3572 0.8685 1.180104062e-38
0.8714 -2.8092 0.775 1.180104062e-38
1.2114 -2.3322 0.6925 1.180104062e-38
1.4321 -2.2434 0.7013 1.180104062e-38
1.7092 -2.2147 0.7372 1.180104062e-38
2.2275 -2.4083 0.8644 1.180104062e-38
0.9472 -2.6329 0.7373 1.180104062e-38
1.1199 -2.4134 0.701 1.180104062e-38
1.3198 -2.2859 0.6955 1.180104062e-38
1.1896 -2.2904 0.6344 1.180104062e-38
1.3994 -2.1922 0.6393 1.180104062e-38
1.6588 -2.1494 0.6674 1.180104062e-38
0.7701 -2.9393 0.7469 1.180104062e-38
0.9219 -2.5623 0.6693 1.180104062e-38
1.5166 -2.1574 0.6482 1.180104062e-38
1.8282 -2.1624 0.696 1.180104062e-38
8.9663 -3.1134 2.333 1.180104062e-38
0.9896 -2.4081 0.5942 1.180104062e-38
1.1706 -2.2537 0.5796 1.180104062e-38
1.3769 -2.1568 0.584 1.180104062e-38
1.9722 -2.1323 0.6629 1.180104062e-38
0.7406 -2.8268 0.667 1.180104062e-38
0.9024 -2.5083 0.6084 1.180104062e-38
1.0801 -2.3276 0.5857 1.180104062e-38
1.4918 -2.1222 0.5921 1.180104062e-38
1.7676 -2.0907 0.6249 1.180104062e-38
0.6444 -2.9988 0.6466 1.180104062e-38
1.1523 -2.2185 0.527 1.180104062e-38
1.3552 -2.1229 0.531 1.180104062e-38
1.5946 -2.0661 0.5502 1.180104062e-38
1.9056 -2.0603 0.5917 1.180104062e-38
0.884 -2.457 0.5505 1.180104062e-38
1.0618 -2.2881 0.5318 1.180104062e-38
0.6222 -2.8955 0.5731 1.180104062e-38
0.7852 -2.5312 0.5129 1.180104062e-38
1.5691 -2.0332 0.497 1.180104062e-38
1.8702 -2.0221 0.533 1.180104062e-38
0.6986 -2.6665 0.5334 1.180104062e-38
1.0442 -2.2502 0.4801 1.180104062e-38
1.2339 -2.1372 0.4776 1.180104062e-38
1.4452 -2.0558 0.4863 1.180104062e-38
0.604 -2.8107 0.5069 1.180104062e-38
0.7694 -2.4803 0.4579 1.180104062e-38
1.5447 -2.0015 0.4458 1.180104062e-38
1.8365 -1.9856 0.4769 1.180104062e-38
2.3377 -2.1144 0.5558 1.180104062e-38
0.8515 -2.3666 0.4435 1.180104062e-38
1.0273 -2.2138 0.4303 1.180104062e-38
1.2154 -2.1051 0.4286 1.180104062e-38
1.6725 -1.9782 0.4568 1.180104062e-38
2.026 -2.0035 0.5024 1.180104062e-38
1.9016 6.1302 1.1317 1.180104062e-38
0.5877 -2.7351 0.4455 1.180104062e-38
0.9306 -2.2645 0.3898 1.180104062e-38
1.5211 -1.971 0.3964 1.180104062e-38
1.8042 -1.9507 0.4231 1.180104062e-38
2.2408 -2.0267 0.4811 1.180104062e-38
0.5086 -3.0154 0.4869 1.180104062e-38
0.6727 -2.5675 0.4226 1.180104062e-38
1.0163 -2.19 0.3845 1.180104062e-38
1.9808 -1.9588 0.4436 1.180104062e-38
1.907 6.1477 1.025 1.180104062e-38
0.9215 -2.2423 0.3448 1.180104062e-38
1.2845 -2.0121 0.3395 1.180104062e-38
1.7732 -1.9171 0.3714 1.180104062e-38
0.4897 -2.9029 0.4187 1.180104062e-38
0.8341 -2.3183 0.3504 1.180104062e-38
1.3877 -1.974 0.3432 1.180104062e-38
1.9447 -1.9232 0.389 1.180104062e-38
1.9128 6.1662 0.9183 1.180104062e-38
0.407 -3.3049 0.4173 1.180104062e-38
0.9126 -2.2206 0.3009 1.180104062e-38
1.2732 -1.9944 0.2965 1.180104062e-38
1.4877 -1.9277 0.3051 1.180104062e-38
0.4812 -2.8528 0.3626 1.180104062e-38
0.6564 -2.5053 0.3246 1.180104062e-38
0.8259 -2.2956 0.3057 1.180104062e-38
1.6043 -1.8976 0.3114 1.180104062e-38
2.5156 -2.0792 0.409 1.180104062e-38
0.5597 -2.6046 0.289 1.180104062e-38
0.7325 -2.3613 0.2682 1.180104062e-38
0.9039 -2.1995 0.2579 1.180104062e-38
1.077 -2.0735 0.2534 1.180104062e-38
1.4747 -1.9108 0.2618 1.180104062e-38
1.7276 -1.8679 0.276 1.180104062e-38
1.6511 6.302 0.7066 1.180104062e-38
0.4731 -2.8046 0.3085 1.180104062e-38
0.8179 -2.2733 0.2621 1.180104062e-38
0.9875 -2.128 0.2545 1.180104062e-38
1.3638 -1.9401 0.2572 1.180104062e-38
1.59 -1.8806 0.2671 1.180104062e-38
1.882 -1.8612 0.2871 1.180104062e-38
2.4217 -2.0016 0.3408 1.180104062e-38
1.9308 6.2244 0.7069 1.180104062e-38
0.3767 -3.0584 0.2825 1.180104062e-38
0.8954 -2.1788 0.216 1.180104062e-38
1.0678 -2.0558 0.2124 1.180104062e-38
1.7113 -1.8502 0.231 1.180104062e-38
0.4652 -2.7582 0.2564 1.180104062e-38
0.641 -2.4466 0.2319 1.180104062e-38
0.9783 -2.1083 0.2131 1.180104062e-38
1.1593 -2.008 0.2126 1.180104062e-38
1.3523 -1.9236 0.2156 1.180104062e-38
2.3348 -1.9298 0.2777 1.180104062e-38
0.3664 -2.9746 0.2246 1.180104062e-38
0.5451 -2.5364 0.1944 1.180104062e-38
0.7161 -2.3086 0.1811 1.180104062e-38
0.8871 -2.1586 0.1749 1.180104062e-38
1.2407 -1.9436 0.1728 1.180104062e-38
1.6388 6.2552 0.4846 1.180104062e-38
0.6336 -2.4184 0.1873 1.180104062e-38
0.8024 -2.2304 0.1776 1.180104062e-38
0.9694 -2.0889 0.1726 1.180104062e-38
1.341 -1.9075 0.1747 1.180104062e-38
1.5623 -1.8479 0.1813 1.180104062e-38
2.2648 -1.8719 0.2202 1.180104062e-38
0.3566 -2.8955 0.1699 1.180104062e-38
0.7083 -2.2832 0.1392 1.180104062e-38
0.8789 -2.1387 0.1347 1.180104062e-38
1.2304 -1.9273 0.1332 1.180104062e-38
1.4373 -1.8624 0.137 1.180104062e-38
2.0055 -1.8139 0.1575 1.180104062e-38
0.4504 -2.6702 0.1577 1.180104062e-38
1.1399 -1.9744 0.1328 1.180104062e-38
1.8276 -1.8074 0.1497 1.180104062e-38
2.2349 -1.8472 0.1689 1.180104062e-38
0.3502 -2.8435 0.1191 1.180104062e-38
0.535 -2.4896 0.1059 1.180104062e-38
1.2202 -1.9113 0.0943 1.180104062e-38
2.6119 -1.9697 0.136 1.180104062e-38
0.4459 -2.6435 0.1115 1.180104062e-38
0.6223 -2.3753 0.1021 1.180104062e-38
0.7903 -2.1966 0.0971 1.180104062e-38
1.1305 -1.9581 0.094 1.180104062e-38
1.8103 -1.7902 0.1059 1.180104062e-38
2.2076 -1.8247 0.1191 1.180104062e-38
0.5315 -2.4735 0.0631 1.180104062e-38
0.7007 -2.2589 0.059 1.180104062e-38
0.8689 -2.1144 0.057 1.180104062e-38
1.0376 -1.9977 0.0561 1.180104062e-38
1.2132 -1.9005 0.0562 1.180104062e-38
1.6492 -1.7831 0.0606 1.180104062e-38
1.9604 -1.7731 0.0659 1.180104062e-38
2.5345 -1.9113 0.0792 1.180104062e-38
1.635 6.2405 0.1609 1.180104062e-38
0.251 -3.2122 0.0804 1.180104062e-38
0.7862 -2.1854 0.0579 1.180104062e-38
1.5228 -1.8012 0.0588 1.180104062e-38
2.1811 -1.8027 0.0706 1.180104062e-38
0.3438 -2.7917 0.0234 1.180104062e-38
0.6971 -2.2473 0.0196 1.180104062e-38
1.4071 -1.8232 0.0191 1.180104062e-38
2.4893 -1.8772 0.0259 1.180104062e-38
1.6341 6.2375 0.0536 1.180104062e-38
0.2452 -3.1372 0.0262 1.180104062e-38
0.4383 -2.5983 0.0219 1.180104062e-38
0.6146 -2.3459 0.0202 1.180104062e-38
0.7823 -2.1744 0.0192 1.180104062e-38
0.9455 -2.0374 0.0187 1.180104062e-38
1.3044 -1.8555 0.0189 1.180104062e-38
1.7766 -1.7569 0.0208 1.180104062e-38
0.3407 -2.7665 -0.0232 1.180104062e-38
0.6936 -2.2358 -0.0195 1.180104062e-38
0.8604 -2.0935 -0.0188 1.180104062e-38
1.0285 -1.9802 -0.0185 1.180104062e-38
1.6276 -1.7597 -0.0199 1.180104062e-38
1.9174 -1.7342 -0.0215 1.180104062e-38
1.6358 6.2436 -0.0536 1.180104062e-38
0.2415 -3.0903 -0.0258 1.180104062e-38
0.4346 -2.5763 -0.0217 1.180104062e-38
0.6108 -2.3314 -0.02 1.180104062e-38
0.9413 -2.0285 -0.0186 1.180104062e-38
1.1155 -1.9321 -0.0185 1.180104062e-38
1.7644 -1.7448 -0.0206 1.180104062e-38
2.1299 -1.7604 -0.023 1.180104062e-38
0.3377 -2.7417 -0.0689 1.180104062e-38
0.5214 -2.4264 -0.0619 1.180104062e-38
0.8561 -2.0832 -0.0562 1.180104062e-38
1.1974 -1.8756 -0.0555 1.180104062e-38
1.3953 -1.8079 -0.057 1.180104062e-38
1.6207 -1.7522 -0.0595 1.180104062e-38
2.4036 -1.8126 -0.0751 1.180104062e-38
0.6071 -2.3171 -0.0597 1.180104062e-38
0.7745 -2.1527 -0.0571 1.180104062e-38
0.9372 -2.0196 -0.0555 1.180104062e-38
1.1106 -1.9237 -0.0554 1.180104062e-38
1.7566 -1.7371 -0.0616 1.180104062e-38
2.1079 -1.7422 -0.0682 1.180104062e-38
0.3347 -2.7174 -0.1138 1.180104062e-38
1.0196 -1.963 -0.092 1.180104062e-38
1.3895 -1.8004 -0.0946 1.180104062e-38
1.6138 -1.7448 -0.0988 1.180104062e-38
2.3701 -1.7873 -0.1234 1.180104062e-38
0.4274 -2.5334 -0.1068 1.180104062e-38
0.6034 -2.303 -0.099 1.180104062e-38
0.9331 -2.0108 -0.0922 1.180104062e-38
1.1058 -1.9153 -0.092 1.180104062e-38
1.2883 -1.8326 -0.0931 1.180104062e-38
1.4939 -1.767 -0.0962 1.180104062e-38
1.7489 -1.7295 -0.1023 1.180104062e-38
2.0973 -1.7335 -0.1131 1.180104062e-38
1.0152 -1.9545 -0.1283 1.180104062e-38
1.187 -1.8594 -0.1285 1.180104062e-38
1.3837 -1.7929 -0.1319 1.180104062e-38
1.8895 -1.709 -0.1484 1.180104062e-38
0.2311 -2.9576 -0.1728 1.180104062e-38
0.4238 -2.5125 -0.1484 1.180104062e-38
0.7668 -2.1314 -0.1319 1.180104062e-38
1.4876 -1.7595 -0.1342 1.180104062e-38
0.6797 -2.191 -0.1719 1.180104062e-38
0.8436 -2.0529 -0.1663 1.180104062e-38
1.1818 -1.8513 -0.1646 1.180104062e-38
1.3779 -1.7854 -0.169 1.180104062e-38
1.6001 -1.7301 -0.1766 1.180104062e-38
1.8807 -1.701 -0.19 1.180104062e-38
1.6455 6.2807 -0.4866 1.180104062e-38
0.5961 -2.2753 -0.1763 1.180104062e-38
1.0963 -1.8988 -0.1643 1.180104062e-38
1.2778 -1.8177 -0.1665 1.180104062e-38
1.7336 -1.7144 -0.1827 1.180104062e-38
2.0765 -1.7162 -0.2019 1.180104062e-38
0.3289 -2.6702 -0.2466 1.180104062e-38
1.1767 -1.8433 -0.2005 1.180104062e-38
1.3722 -1.778 -0.2059 1.180104062e-38
1.5934 -1.7227 -0.2151 1.180104062e-38
1.8719 -1.693 -0.2314 1.180104062e-38
-4.2496 0.5715 -0.3931 1.180104062e-38
-4.0002 0.1784 -0.3671 1.180104062e-38
0.2284 -2.9234 -0.2688 1.180104062e-38
0.4204 -2.4921 -0.2317 1.180104062e-38
0.5941 -2.2676 -0.2149 1.180104062e-38
0.7593 -2.1106 -0.2056 1.180104062e-38
0.9211 -1.9848 -0.2006 1.180104062e-38
1.726 -1.7069 -0.2225 1.180104062e-38
2.0662 -1.7077 -0.2457 1.180104062e-38
-4.908 0.8842 -0.4572 1.180104062e-38
-4.1097 0.3672 -0.3783 1.180104062e-38
-3.7849 0 -0.4105 1.180104062e-38
0.5095 -2.3709 -0.263 1.180104062e-38
1.1717 -1.8354 -0.2362 1.180104062e-38
1.5867 -1.7155 -0.2535 1.180104062e-38
1.8631 -1.6851 -0.2725 1.180104062e-38
2.3119 -1.7435 -0.3141 1.180104062e-38
1.6554 6.3184 -0.7085 1.180104062e-38
-4.7637 1.0793 -0.5298 1.180104062e-38
-3.733 0.1664 -0.4053 1.180104062e-38
-3.9257 -0.1751 -0.4262 1.180104062e-38
0.5929 -2.2632 -0.2538 1.180104062e-38
0.9184 -1.9791 -0.2366 1.180104062e-38
1.4688 -1.7373 -0.2468 1.180104062e-38
1.7185 -1.6994 -0.2621 1.180104062e-38
-3.9948 0.7197 -0.4403 1.180104062e-38
-3.5692 0 -0.4473 1.180104062e-38
-3.77 -0.3369 -0.4743 1.180104062e-38
0.5085 -2.3662 -0.3033 1.180104062e-38
0.6751 -2.1762 -0.2855 1.180104062e-38
0.8364 -2.0352 -0.2757 1.180104062e-38
1.1688 -1.8309 -0.2722 1.180104062e-38
1.8545 -1.6772 -0.3133 1.180104062e-38
2.2977 -1.7328 -0.3606 1.180104062e-38
1.6666 6.3614 -0.8241 1.180104062e-38
-4.3832 0.9931 -0.5632 1.180104062e-38
-3.631 -0.1619 -0.4555 1.180104062e-38
0.7571 -2.1045 -0.2803 1.180104062e-38
1.4626 -1.73 -0.2839 1.180104062e-38
1.3835 6.4383 -0.8252 1.180104062e-38
-3.8076 0.686 -0.4848 1.180104062e-38
-3.5139 -0.314 -0.5018 1.180104062e-38
0.3261 -2.6473 -0.3794 1.180104062e-38
0.5075 -2.3614 -0.3435 1.180104062e-38
0.6741 -2.1729 -0.3236 1.180104062e-38
1.0004 -1.9261 -0.3087 1.180104062e-38
1.3599 -1.7621 -0.3166 1.180104062e-38
1.5764 -1.7044 -0.3302 1.180104062e-38
1.8458 -1.6694 -0.354 1.180104062e-38
2.2836 -1.7221 -0.4068 1.180104062e-38
-3.3671 0.4528 -0.4832 1.180104062e-38
-3.361 0.1499 -0.4785 1.180104062e-38
-3.447 -0.1537 -0.4908 1.180104062e-38
-3.6292 -0.4881 -0.5208 1.180104062e-38
0.5907 -2.2545 -0.3315 1.180104062e-38
0.756 -2.1014 -0.3177 1.180104062e-38
0.9164 -1.9748 -0.3097 1.180104062e-38
1.084 -1.8775 -0.3084 1.180104062e-38
1.4603 -1.7273 -0.3217 1.180104062e-38
-3.6717 0.6615 -0.5306 1.180104062e-38
-3.3915 -0.3031 -0.5422 1.180104062e-38
0.3251 -2.6397 -0.4235 1.180104062e-38
0.5064 -2.3567 -0.3838 1.180104062e-38
1.1667 -1.8276 -0.3453 1.180104062e-38
1.359 -1.7609 -0.3542 1.180104062e-38
1.576 -1.704 -0.3696 1.180104062e-38
1.8467 -1.6702 -0.3965 1.180104062e-38
2.2778 -1.7178 -0.4543 1.180104062e-38
-3.9744 0.9005 -0.6489 1.180104062e-38
-3.254 0.4376 -0.5228 1.180104062e-38
-3.26 0.1454 -0.5196 1.180104062e-38
-3.3344 -0.1487 -0.5315 1.180104062e-38
0.4169 -2.4714 -0.3991 1.180104062e-38
0.9154 -1.9727 -0.3463 1.180104062e-38
1.2616 -1.7947 -0.3493 1.180104062e-38
1.4593 -1.726 -0.3599 1.180104062e-38
2.0335 -1.6808 -0.4201 1.180104062e-38
-4.5041 1.2338 -0.7436 1.180104062e-38
-3.2454 0.29 -0.5188 1.180104062e-38
-3.1939 0 -0.5632 1.180104062e-38
0.672 -2.1665 -0.4 1.180104062e-38
0.9982 -1.922 -0.3819 1.180104062e-38
1.1659 -1.8263 -0.3821 1.180104062e-38
2.2836 -1.7221 -0.5043 1.180104062e-38
-3.8238 0.8663 -0.6913 1.180104062e-38
-3.1644 0.1411 -0.5585 1.180104062e-38
0.2234 -2.8588 -0.5056 1.180104062e-38
0.416 -2.4662 -0.441 1.180104062e-38
0.5884 -2.2457 -0.4094 1.180104062e-38
0.7538 -2.0953 -0.3926 1.180104062e-38
0.9145 -1.9706 -0.3831 1.180104062e-38
1.0817 -1.8735 -0.3815 1.180104062e-38
1.4582 -1.7247 -0.3982 1.180104062e-38
1.7043 -1.6854 -0.4226 1.180104062e-38
1.3717 6.3833 -1.1512 1.180104062e-38
-3.4372 0.6192 -0.6158 1.180104062e-38
-3.1015 0 -0.6002 1.180104062e-38
0.671 -2.1632 -0.4383 1.180104062e-38
0.8316 -2.0235 -0.4234 1.180104062e-38
0.9972 -1.9199 -0.4187 1.180104062e-38
1.1651 -1.825 -0.419 1.180104062e-38
1.5753 -1.7031 -0.449 1.180104062e-38
-3.6833 0.8345 -0.7309 1.180104062e-38
-3.1048 0.4176 -0.6062 1.180104062e-38
-3.0751 0.1371 -0.5957 1.180104062e-38
0.9135 -1.9684 -0.4199 1.180104062e-38
1.4571 -1.7235 -0.4367 1.180104062e-38
1.7039 -1.685 -0.4637 1.180104062e-38
2.036 -1.6828 -0.5112 1.180104062e-38
1.3706 6.3784 -1.2625 1.180104062e-38
0.5033 -2.3424 -0.5051 1.180104062e-38
0.67 -2.16 -0.4768 1.180104062e-38
0.8304 -2.0206 -0.4605 1.180104062e-38
0.9961 -1.9178 -0.4556 1.180104062e-38
1.1642 -1.8237 -0.4561 1.180104062e-38
1.356 -1.757 -0.4679 1.180104062e-38
1.5749 -1.7028 -0.489 1.180104062e-38
1.8499 -1.6732 -0.5259 1.180104062e-38
-3.552 0.8048 -0.7678 1.180104062e-38
-2.994 0.1335 -0.6318 1.180104062e-38
0.2251 -2.88 -0.609 1.180104062e-38
0.5861 -2.237 -0.4875 1.180104062e-38
0.7516 -2.0891 -0.4681 1.180104062e-38
0.9125 -1.9663 -0.457 1.180104062e-38
1.0793 -1.8694 -0.4551 1.180104062e-38
1.2589 -1.7908 -0.4615 1.180104062e-38
1.456 -1.7222 -0.4754 1.180104062e-38
1.7034 -1.6846 -0.5051 1.180104062e-38
-2.971 -0 -0.6781 1.180104062e-38
-3.1642 -0.5701 -0.7338 1.180104062e-38
0.5034 -2.3423 -0.5468 1.180104062e-38
0.995 -1.9157 -0.4927 1.180104062e-38
1.1634 -1.8225 -0.4935 1.180104062e-38
1.851 -1.6741 -0.5696 1.180104062e-38
2.3015 -1.7357 -0.6579 1.180104062e-38
-3.4289 0.7769 -0.8025 1.180104062e-38
-2.9453 0.1313 -0.6729 1.180104062e-38
0.4154 -2.4629 -0.5701 1.180104062e-38
0.5849 -2.2325 -0.5268 1.180104062e-38
0.9115 -1.9641 -0.4942 1.180104062e-38
1.258 -1.7896 -0.4993 1.180104062e-38
-3.8725 1.0608 -0.9164 1.180104062e-38
-3.1659 0.5704 -0.7342 1.180104062e-38
-2.9277 0.2616 -0.6709 1.180104062e-38
-3.1004 -0.5586 -0.7743 1.180104062e-38
0.3261 -2.6475 -0.6557 1.180104062e-38
0.5046 -2.3482 -0.5904 1.180104062e-38
0.6689 -2.1564 -0.5549 1.180104062e-38
0.9939 -1.9136 -0.53 1.180104062e-38
1.354 -1.7545 -0.5447 1.180104062e-38
1.5741 -1.7019 -0.5698 1.180104062e-38
1.8521 -1.6751 -0.6138 1.180104062e-38
-3.3132 0.7507 -0.835 1.180104062e-38
-2.8899 0.3887 -0.7167 1.180104062e-38
-2.8978 0.1292 -0.713 1.180104062e-38
-3.0389 -0.4087 -0.7537 1.180104062e-38
0.4165 -2.4694 -0.6155 1.180104062e-38
1.2571 -1.7882 -0.5373 1.180104062e-38
1.4539 -1.7196 -0.5535 1.180104062e-38
1.7026 -1.6837 -0.5886 1.180104062e-38
2.0399 -1.686 -0.6505 1.180104062e-38
-3.8036 1.0419 -0.9694 1.180104062e-38
-3.0843 0.5557 -0.7703 1.180104062e-38
-2.8807 0.2574 -0.7109 1.180104062e-38
-2.8744 0 -0.7574 1.180104062e-38
-2.9343 -0.2622 -0.7763 1.180104062e-38
-3.0385 -0.5474 -0.8135 1.180104062e-38
0.3272 -2.6566 -0.7053 1.180104062e-38
0.5059 -2.3542 -0.6345 1.180104062e-38
0.6705 -2.1613 -0.5963 1.180104062e-38
0.8281 -2.0151 -0.5741 1.180104062e-38
0.9928 -1.9114 -0.5675 1.180104062e-38
1.353 -1.7532 -0.5835 1.180104062e-38
1.8532 -1.6762 -0.6584 1.180104062e-38
2.3139 -1.745 -0.7637 1.180104062e-38
-3.2212 0.7298 -0.8703 1.180104062e-38
-2.8316 0.3808 -0.7529 1.180104062e-38
-2.8515 0.1271 -0.7521 1.180104062e-38
-2.9836 -0.4013 -0.7933 1.180104062e-38
-3.0953 -0.7013 -0.8363 1.180104062e-38
0.4176 -2.4759 -0.6616 1.180104062e-38
0.9098 -1.9605 -0.5695 1.180104062e-38
1.0757 -1.8632 -0.5669 1.180104062e-38
1.2562 -1.7869 -0.5756 1.180104062e-38
1.453 -1.7186 -0.593 1.180104062e-38
1.3722 6.3854 -1.721 1.180104062e-38
-3.0018 0.5408 -0.8037 1.180104062e-38
-2.8279 -0 -0.7956 1.180104062e-38
0.5072 -2.3602 -0.6792 1.180104062e-38
0.83 -2.0197 -0.6144 1.180104062e-38
1.5733 -1.7011 -0.6519 1.180104062e-38
1.8544 -1.6772 -0.7035 1.180104062e-38
-3.137 0.7108 -0.905 1.180104062e-38
-2.8531 -0.1272 -0.8035 1.180104062e-38
-2.9298 -0.394 -0.8317 1.180104062e-38
-3.2049 -1.0335 -0.9474 1.180104062e-38
0.2304 -2.9488 -0.8322 1.180104062e-38
0.4188 -2.4825 -0.7083 1.180104062e-38
0.5888 -2.2475 -0.6537 1.180104062e-38
0.912 -1.9654 -0.6096 1.180104062e-38
1.0765 -1.8646 -0.6058 1.180104062e-38
1.2558 -1.7863 -0.6144 1.180104062e-38
1.4526 -1.7182 -0.633 1.180104062e-38
2.0444 -1.6897 -0.7462 1.180104062e-38
-3.6502 0.9999 -1.0648 1.180104062e-38
-2.7824 0 -0.833 1.180104062e-38
-2.9224 -0.5265 -0.889 1.180104062e-38
-3.0126 -0.8252 -0.9351 1.180104062e-38
0.3295 -2.6752 -0.807 1.180104062e-38
0.5085 -2.3663 -0.7246 1.180104062e-38
0.8319 -2.0243 -0.6552 1.180104062e-38
1.356 -1.757 -0.6645 1.180104062e-38
1.5789 -1.7071 -0.6962 1.180104062e-38
2.3622 -1.7814 -0.8858 1.180104062e-38
-2.7204 0.3658 -0.8218 1.180104062e-38
-2.7619 0.1231 -0.8277 1.180104062e-38
-2.8066 -0.1252 -0.8411 1.180104062e-38
-2.8771 -0.3869 -0.8691 1.180104062e-38
-3.1091 -1.0026 -0.978 1.180104062e-38
0.4199 -2.4892 -0.7557 1.180104062e-38
0.5903 -2.2531 -0.6973 1.180104062e-38
0.7542 -2.0964 -0.667 1.180104062e-38
1.0792 -1.8692 -0.6462 1.180104062e-38
1.2596 -1.7917 -0.6557 1.180104062e-38
1.4577 -1.7242 -0.676 1.180104062e-38
1.7081 -1.6892 -0.7192 1.180104062e-38
-3.5598 0.9751 -1.105 1.180104062e-38
-2.8473 0.5129 -0.8662 1.180104062e-38
-2.7412 0.2449 -0.8239 1.180104062e-38
-2.738 0 -0.8695 1.180104062e-38
-2.954 -0.8092 -0.9727 1.180104062e-38
0.5098 -2.3725 -0.7707 1.180104062e-38
0.6752 -2.1767 -0.7238 1.180104062e-38
0.8338 -2.0289 -0.6967 1.180104062e-38
0.9995 -1.9243 -0.6886 1.180104062e-38
1.1691 -1.8313 -0.69 1.180104062e-38
1.3602 -1.7625 -0.707 1.180104062e-38
2.4035 -1.8126 -0.956 1.180104062e-38
-2.7186 0.1212 -0.8643 1.180104062e-38
-2.9205 -0.6617 -0.951 1.180104062e-38
0.2385 -3.0518 -0.9721 1.180104062e-38
0.421 -2.496 -0.8039 1.180104062e-38
1.0819 -1.8738 -0.6872 1.180104062e-38
-2.8177 -0.5077 -0.9619 1.180104062e-38
0.8358 -2.0337 -0.7387 1.180104062e-38
1.002 -1.9292 -0.7304 1.180104062e-38
1.1727 -1.837 -0.7322 1.180104062e-38
1.5926 -1.7219 -0.788 1.180104062e-38
1.8917 -1.7109 -0.857 1.180104062e-38
-2.6272 0.5952 -0.905 1.180104062e-38
-2.7751 -0.3732 -0.9408 1.180104062e-38
-2.8653 -0.6492 -0.9871 1.180104062e-38
0.2485 -3.1802 -1.0717 1.180104062e-38
0.5933 -2.2646 -0.7865 1.180104062e-38
0.7578 -2.1063 -0.7521 1.180104062e-38
0.9189 -1.9802 -0.7335 1.180104062e-38
1.2673 -1.8028 -0.7404 1.180104062e-38
1.47 -1.7387 -0.765 1.180104062e-38
1.7234 -1.7043 -0.8143 1.180104062e-38
-2.6265 0.7195 -0.915 1.180104062e-38
-2.65 0.2368 -0.8939 1.180104062e-38
-2.7668 -0.4985 -0.9969 1.180104062e-38
-2.8417 -0.7784 -1.0448 1.180104062e-38
0.339 -2.7522 -0.9833 1.180104062e-38
0.5126 -2.3852 -0.8651 1.180104062e-38
0.6785 -2.1874 -0.8121 1.180104062e-38
0.8377 -2.0385 -0.7815 1.180104062e-38
1.0046 -1.9341 -0.7728 1.180104062e-38
2.5901 -1.9533 -1.1503 1.180104062e-38
-2.5615 0.5804 -0.9313 1.180104062e-38
-2.5748 0.3463 -0.9212 1.180104062e-38
-2.6347 0.1175 -0.9351 1.180104062e-38
-2.6733 -0.1192 -0.9489 1.180104062e-38
-2.726 -0.3666 -0.9753 1.180104062e-38
0.4257 -2.5237 -0.9075 1.180104062e-38
0.5948 -2.2704 -0.8322 1.180104062e-38
0.9213 -1.9854 -0.7761 1.180104062e-38
1.4763 -1.7461 -0.8108 1.180104062e-38
1.7313 -1.7121 -0.8634 1.180104062e-38
2.1225 -1.7543 -0.9764 1.180104062e-38
-2.5828 0.7075 -0.9496 1.180104062e-38
-2.6624 0.4796 -0.9592 1.180104062e-38
-2.6101 0 -0.9746 1.180104062e-38
-2.7171 -0.4895 -1.0309 1.180104062e-38
-2.7878 -0.7637 -1.0793 1.180104062e-38
0.3435 -2.7886 -1.0492 1.180104062e-38
1.0072 -1.9392 -0.816 1.180104062e-38
1.1801 -1.8485 -0.8189 1.180104062e-38
1.9183 -1.735 -0.9658 1.180104062e-38
-2.5436 0.5763 -0.9739 1.180104062e-38
-2.5325 0.3406 -0.9542 1.180104062e-38
-2.6307 -0.1173 -0.9833 1.180104062e-38
-2.6781 -0.3602 -1.009 1.180104062e-38
-2.7556 -0.6244 -1.0551 1.180104062e-38
0.4309 -2.5545 -0.9674 1.180104062e-38
0.5969 -2.2782 -0.8794 1.180104062e-38
1.4827 -1.7537 -0.8575 1.180104062e-38
-2.5629 0.229 -0.9608 1.180104062e-38
-2.6685 -0.4808 -1.0642 1.180104062e-38
-2.7221 -0.7457 -1.1077 1.180104062e-38
0.3486 -2.8303 -1.1192 1.180104062e-38
0.5219 -2.4286 -0.9749 1.180104062e-38
0.6838 -2.2042 -0.9058 1.180104062e-38
0.8418 -2.0484 -0.8692 1.180104062e-38
1.0099 -1.9443 -0.8599 1.180104062e-38
1.1838 -1.8545 -0.8635 1.180104062e-38
-2.491 0.335 -0.9865 1.180104062e-38
-2.549 0.1137 -1.0014 1.180104062e-38
-2.5889 -0.1154 -1.0171 1.180104062e-38
-2.7055 -0.613 -1.0887 1.180104062e-38
0.6022 -2.2986 -0.9326 1.180104062e-38
0.7634 -2.1218 -0.885 1.180104062e-38
1.0931 -1.8933 -0.858 1.180104062e-38
1.2796 -1.8202 -0.8732 1.180104062e-38
1.7515 -1.7321 -0.9668 1.180104062e-38
2.1801 -1.8019 -1.11 1.180104062e-38
-3.4629 0.9486 -1.4092 1.180104062e-38
-2.5207 0.2252 -0.9932 1.180104062e-38
-2.5289 0 -1.0413 1.180104062e-38
-2.5655 -0.2292 -1.0607 1.180104062e-38
-2.6211 -0.4722 -1.0967 1.180104062e-38
0.3579 -2.9058 -1.2056 1.180104062e-38
0.6892 -2.2219 -0.9579 1.180104062e-38
0.8457 -2.0579 -0.9162 1.180104062e-38
1.6216 -1.7533 -0.9834 1.180104062e-38
-2.5068 0.1118 -1.0333 1.180104062e-38
-2.5479 -0.1136 -1.0502 1.180104062e-38
-2.6464 -0.8534 -1.145 1.180104062e-38
0.7691 -2.1376 -0.9355 1.180104062e-38
0.9289 -2.0017 -0.9087 1.180104062e-38
1.2838 -1.8262 -0.9192 1.180104062e-38
2.2449 -1.8554 -1.1993 1.180104062e-38
-2.5221 -0.2254 -1.0923 1.180104062e-38
-2.5507 -0.6987 -1.1408 1.180104062e-38
0.6949 -2.2401 -1.0117 1.180104062e-38
0.8523 -2.0741 -0.9673 1.180104062e-38
1.9851 -1.7954 -1.1545 1.180104062e-38
-2.5715 0.5826 -1.1373 1.180104062e-38
-2.4106 0.3242 -1.0492 1.180104062e-38
-2.4654 0.1099 -1.0645 1.180104062e-38
-2.5277 -0.3399 -1.1001 1.180104062e-38
-2.5465 -0.577 -1.1263 1.180104062e-38
0.4477 -2.6543 -1.1611 1.180104062e-38
1.2899 -1.8349 -0.9675 1.180104062e-38
1.5062 -1.7815 -1.0063 1.180104062e-38
1.7894 -1.7695 -1.0855 1.180104062e-38
-2.4719 0.4453 -1.0835 1.180104062e-38
-2.4387 0.2179 -1.0561 1.180104062e-38
-2.4481 -0.2188 -1.109 1.180104062e-38
-2.489 -0.9269 -1.1984 1.180104062e-38
0.7007 -2.2589 -1.0672 1.180104062e-38
1.4014 -1.8158 -1.035 1.180104062e-38
1.6539 -1.7882 -1.0991 1.180104062e-38
-2.5488 0.5775 -1.1792 1.180104062e-38
-2.4105 0.1075 -1.0887 1.180104062e-38
-2.4521 -0.3298 -1.1164 1.180104062e-38
-2.4891 -1.0555 -1.2199 1.180104062e-38
0.6192 -2.3636 -1.1025 1.180104062e-38
0.7816 -2.1724 -1.0417 1.180104062e-38
0.9436 -2.0334 -1.0115 1.180104062e-38
1.1103 -1.9231 -1.0019 1.180104062e-38
1.3013 -1.8511 -1.021 1.180104062e-38
1.5229 -1.8013 -1.0644 1.180104062e-38
1.8185 -1.7984 -1.154 1.180104062e-38
-2.3615 0 -1.1132 1.180104062e-38
-2.3773 -0.2124 -1.1251 1.180104062e-38
-2.3934 -0.6556 -1.1698 1.180104062e-38
-2.4034 -0.895 -1.2089 1.180104062e-38
0.5454 -2.5382 -1.2237 1.180104062e-38
1.215 -1.9032 -1.0644 1.180104062e-38
1.416 -1.8347 -1.0925 1.180104062e-38
1.6735 -1.8093 -1.1617 1.180104062e-38
-2.5265 0.5724 -1.2211 1.180104062e-38
-2.2973 0.309 -1.0926 1.180104062e-38
-2.3488 0.1047 -1.1083 1.180104062e-38
-2.3799 -0.3201 -1.1319 1.180104062e-38
-2.3894 -0.5414 -1.1548 1.180104062e-38
-2.4109 -1.0223 -1.2344 1.180104062e-38
0.7881 -2.1906 -1.0974 1.180104062e-38
0.9513 -2.0501 -1.0653 1.180104062e-38
1.1193 -1.9386 -1.0552 1.180104062e-38
1.3131 -1.8679 -1.0763 1.180104062e-38
1.5404 -1.8219 -1.1246 1.180104062e-38
1.8492 -1.8287 -1.2259 1.180104062e-38
-2.3242 0.2077 -1.1 1.180104062e-38
-2.3094 -0.2064 -1.1404 1.180104062e-38
-2.3278 -0.8669 -1.2217 1.180104062e-38
0.8736 -2.1258 -1.1304 1.180104062e-38
1.2262 -1.9208 -1.1208 1.180104062e-38
1.4321 -1.8557 -1.1529 1.180104062e-38
1.6949 -1.8325 -1.2277 1.180104062e-38
2.1637 -1.957 -1.4349 1.180104062e-38
-2.2513 0.3028 -1.1173 1.180104062e-38
-2.2893 0.1021 -1.1271 1.180104062e-38
-2.3108 -0.3108 -1.1468 1.180104062e-38
-2.3142 -0.5243 -1.1671 1.180104062e-38
-2.3173 -0.7472 -1.1976 1.180104062e-38
0.6349 -2.4233 -1.2322 1.180104062e-38
0.9593 -2.0672 -1.1209 1.180104062e-38
1.1295 -1.9563 -1.1111 1.180104062e-38
1.8814 -1.8605 -1.3014 1.180104062e-38
-2.3061 0.4155 -1.1525 1.180104062e-38
-2.2359 -0 -1.1463 1.180104062e-38
-2.2416 -0.4039 -1.1677 1.180104062e-38
-2.2593 -0.8414 -1.236 1.180104062e-38
-2.2721 -1.0853 -1.2909 1.180104062e-38
0.5747 -2.6743 -1.4023 1.180104062e-38
0.724 -2.334 -1.2528 1.180104062e-38
0.8812 -2.1442 -1.1885 1.180104062e-38
1.2377 -1.9389 -1.1793 1.180104062e-38
1.7237 -1.8636 -1.3014 1.180104062e-38
-2.4709 0.5598 -1.2989 1.180104062e-38
-2.2093 0.2971 -1.1428 1.180104062e-38
-2.2425 -0.5081 -1.1788 1.180104062e-38
-2.253 -0.7265 -1.2136 1.180104062e-38
-2.2673 -0.9614 -1.2625 1.180104062e-38
0.6492 -2.478 -1.3133 1.180104062e-38
0.9675 -2.085 -1.1784 1.180104062e-38
1.1401 -1.9746 -1.1689 1.180104062e-38
1.9171 -1.8958 -1.3822 1.180104062e-38
-2.2093 0.1974 -1.1372 1.180104062e-38
-2.1765 0 -1.1619 1.180104062e-38
-2.1873 -0.5992 -1.2107 1.180104062e-38
-2.1932 -0.8168 -1.2494 1.180104062e-38
0.7382 -2.3796 -1.3301 1.180104062e-38
0.8928 -2.1724 -1.2538 1.180104062e-38
1.2498 -1.9577 -1.2399 1.180104062e-38
1.4664 -1.9001 -1.2813 1.180104062e-38
1.7668 -1.9102 -1.389 1.180104062e-38
-2.4373 0.5522 -1.3341 1.180104062e-38
-2.1765 -0.0971 -1.1631 1.180104062e-38
-2.1912 -0.7066 -1.2291 1.180104062e-38
-2.2 -0.9329 -1.2757 1.180104062e-38
0.8173 -2.2717 -1.2888 1.180104062e-38
0.977 -2.1053 -1.239 1.180104062e-38
1.151 -1.9936 -1.2289 1.180104062e-38
1.5969 -1.8888 -1.3204 1.180104062e-38
-2.1547 0.1925 -1.1549 1.180104062e-38
-2.1192 0 -1.177 1.180104062e-38
-2.1288 -0.5831 -1.2259 1.180104062e-38
-2.1317 -0.7938 -1.2633 1.180104062e-38
-2.1374 -1.021 -1.3156 1.180104062e-38
-2.2265 -1.3188 -1.4372 1.180104062e-38
0.7532 -2.428 -1.4119 1.180104062e-38
0.9097 -2.2136 -1.3292 1.180104062e-38
1.0797 -2.0788 -1.301 1.180104062e-38
1.8319 -1.9806 -1.4984 1.180104062e-38
-2.1264 0.286 -1.1916 1.180104062e-38
-2.1237 -0.2856 -1.1901 1.180104062e-38
-2.1317 -0.6874 -1.244 1.180104062e-38
-2.1463 -1.1453 -1.3512 1.180104062e-38
-2.1018 0.1878 -1.172 1.180104062e-38
-2.0638 0 -1.1916 1.180104062e-38
-2.0727 -0.3734 -1.216 1.180104062e-38
-2.074 -0.9907 -1.327 1.180104062e-38
0.7713 -2.4863 -1.503 1.180104062e-38
1.1002 -2.1182 -1.3781 1.180104062e-38
1.5355 -1.9895 -1.451 1.180104062e-38
-2.0611 0.0919 -1.1911 1.180104062e-38
-2.0743 -0.6689 -1.2583 1.180104062e-38
0.8504 -2.3637 -1.4503 1.180104062e-38
1.4017 -1.994 -1.4072 1.180104062e-38
-2.0505 0.1832 -1.1886 1.180104062e-38
