# .PCD v0.7 - Point Cloud Data file format
VERSION 0.7
FIELDS x y z rgb
SIZE 4 4 4 4
TYPE F F F F
COUNT 1 1 1 1
WIDTH 722
HEIGHT 1
VIEWPOINT 0 0 0 1 0 0 0
POINTS 722
DATA ascii
2.3005 4.9576 3.1554 1.180104062e-38
-10.4185 1.4011 6.0693 1.180104062e-38
2.2142 5.3881 3.3632 1.180104062e-38
5.4257 -0.8532 3.0504 1.180104062e-38
1.9707 5.4777 3.1077 1.180104062e-38
2.1724 5.2863 3.051 1.180104062e-38
1.9671 5.4677 2.979 1.180104062e-38
-12.3383 0.5502 6.3318 1.180104062e-38
5.8587 -1.7461 3.0069 1.180104062e-38
1.9636 5.4579 2.8529 1.180104062e-38
5.8914 -1.7558 2.8978 1.180104062e-38
6.0313 -2.0943 2.8808 1.180104062e-38
1.9639 5.4588 2.5024 1.180104062e-38
6.1755 -2.1443 2.8199 1.180104062e-38
0.0966 -2.8897 1.1348 1.180104062e-38
-0.0328 -2.9451 1.1559 1.180104062e-38
0.2255 -2.8861 1.1362 1.180104062e-38
0.5103 -3.025 1.204 1.180104062e-38
-0.1602 -2.8737 1.0747 1.180104062e-38
0.637 -2.9642 1.1321 1.180104062e-38
-0.3034 -3.016 1.1319 1.180104062e-38
-0.0312 -2.8026 1.0466 1.180104062e-38
0.2149 -2.7501 1.0301 1.180104062e-38
0.4765 -2.8248 1.0697 1.180104062e-38
0.3291 -2.6722 0.9547 1.180104062e-38
0.5943 -2.7658 1.0031 1.180104062e-38
-0.0301 -2.7069 0.9599 1.180104062e-38
0.2086 -2.6691 0.9493 1.180104062e-38
0.4579 -2.7143 0.976 1.180104062e-38
-0.1487 -2.666 0.8971 1.180104062e-38
0.3198 -2.5962 0.8789 1.180104062e-38
0.5773 -2.6866 0.9233 1.180104062e-38
1.984 5.5146 1.9691 1.180104062e-38
-0.276 -2.7441 0.9266 1.180104062e-38
0.7296 -2.7849 0.9673 1.180104062e-38
-0.4041 -2.7708 0.8893 1.180104062e-38
-0.1455 -2.6101 0.8302 1.180104062e-38
0.085 -2.5429 0.808 1.180104062e-38
1.9966 5.5497 1.8731 1.180104062e-38
-0.2679 -2.6634 0.8501 1.180104062e-38
-0.0286 -2.5645 0.8145 1.180104062e-38
0.4331 -2.5679 0.827 1.180104062e-38
-0.3943 -2.7037 0.818 1.180104062e-38
0.3069 -2.4917 0.7516 1.180104062e-38
0.5465 -2.5434 0.7788 1.180104062e-38
-0.2626 -2.61 0.7853 1.180104062e-38
-0.0281 -2.5188 0.7541 1.180104062e-38
0.195 -2.4949 0.7492 1.180104062e-38
1.7336 5.5886 1.7518 1.180104062e-38
-0.7091 -2.9754 0.8606 1.180104062e-38
-0.3851 -2.6403 0.7507 1.180104062e-38
0.0824 -2.4656 0.6941 1.180104062e-38
-0.2578 -2.563 0.7247 1.180104062e-38
-0.0276 -2.4752 0.6965 1.180104062e-38
0.192 -2.4572 0.6935 1.180104062e-38
0.418 -2.478 0.7071 1.180104062e-38
1.0185 -2.831 0.8465 1.180104062e-38
1.7309 5.5799 1.6437 1.180104062e-38
-0.6822 -2.8627 0.7755 1.180104062e-38
-0.3763 -2.5804 0.6871 1.180104062e-38
0.0812 -2.4293 0.6405 1.180104062e-38
0.2983 -2.4217 0.6429 1.180104062e-38
-0.5143 -2.6833 0.7199 1.180104062e-38
-0.2533 -2.518 0.6668 1.180104062e-38
0.1892 -2.421 0.6399 1.180104062e-38
0.4121 -2.4429 0.6528 1.180104062e-38
0.6582 -2.5121 0.6843 1.180104062e-38
1.7282 5.5713 1.5371 1.180104062e-38
-0.6575 -2.7592 0.6972 1.180104062e-38
0.2942 -2.3886 0.5916 1.180104062e-38
0.7869 -2.5368 0.6528 1.180104062e-38
-0.5025 -2.6214 0.6561 1.180104062e-38
0.6484 -2.475 0.6289 1.180104062e-38
0.9475 -2.6335 0.6879 1.180104062e-38
-0.3638 -2.4942 0.5753 1.180104062e-38
0.2903 -2.3567 0.542 1.180104062e-38
0.7751 -2.4988 0.5971 1.180104062e-38
1.1295 -2.7485 0.6782 1.180104062e-38
-0.8283 -2.897 0.6877 1.180104062e-38
-0.4947 -2.5808 0.5998 1.180104062e-38
-0.2464 -2.4493 0.5619 1.180104062e-38
-0.0265 -2.379 0.543 1.180104062e-38
0.1839 -2.3533 0.5388 1.180104062e-38
0.6391 -2.4393 0.5756 1.180104062e-38
0.9308 -2.5872 0.6276 1.180104062e-38
-0.3601 -2.469 0.526 1.180104062e-38
0.0785 -2.3465 0.495 1.180104062e-38
0.5082 -2.365 0.51 1.180104062e-38
-0.8089 -2.8288 0.6203 1.180104062e-38
-0.244 -2.4251 0.5138 1.180104062e-38
-0.0263 -2.3594 0.4974 1.180104062e-38
0.1824 -2.3341 0.4936 1.180104062e-38
0.6301 -2.4049 0.5241 1.180104062e-38
0.9149 -2.5429 0.5697 1.180104062e-38
1.7283 5.5715 1.2298 1.180104062e-38
0.0778 -2.3275 0.4507 1.180104062e-38
0.2853 -2.3166 0.4517 1.180104062e-38
0.7528 -2.4269 0.4917 1.180104062e-38
1.0785 -2.6243 0.5491 1.180104062e-38
-0.7921 -2.7702 0.5576 1.180104062e-38
-0.4819 -2.514 0.4954 1.180104062e-38
-0.2416 -2.4016 0.4671 1.180104062e-38
-0.0261 -2.3403 0.4529 1.180104062e-38
0.6213 -2.3716 0.4744 1.180104062e-38
0.8996 -2.5004 0.5142 1.180104062e-38
1.3376 -2.8824 0.6149 1.180104062e-38
1.7291 5.5742 1.1294 1.180104062e-38
-0.6132 -2.5732 0.4664 1.180104062e-38
-0.353 -2.4206 0.4313 1.180104062e-38
-0.0259 -2.3216 0.4094 1.180104062e-38
0.3898 -2.3107 0.4132 1.180104062e-38
0.6158 -2.3504 0.4284 1.180104062e-38
-0.9707 -2.8993 0.4869 1.180104062e-38
-0.3496 -2.3973 0.3858 1.180104062e-38
0.0766 -2.2909 0.365 1.180104062e-38
0.4954 -2.3052 0.3755 1.180104062e-38
0.7363 -2.3737 0.3958 1.180104062e-38
-0.7609 -2.6611 0.4407 1.180104062e-38
-0.237 -2.3563 0.3771 1.180104062e-38
-0.0257 -2.3032 0.3668 1.180104062e-38
0.1781 -2.2789 0.364 1.180104062e-38
0.6113 -2.3332 0.3841 1.180104062e-38
-0.3463 -2.3745 0.3413 1.180104062e-38
-0.1281 -2.2979 0.3274 1.180104062e-38
0.076 -2.2731 0.3235 1.180104062e-38
0.4917 -2.2884 0.3329 1.180104062e-38
1.0242 -2.4924 0.3833 1.180104062e-38
-0.7463 -2.6101 0.3861 1.180104062e-38
-0.2348 -2.3344 0.3337 1.180104062e-38
-0.0254 -2.2853 0.3251 1.180104062e-38
0.1767 -2.2613 0.3226 1.180104062e-38
0.6068 -2.3163 0.3406 1.180104062e-38
0.8641 -2.4017 0.363 1.180104062e-38
1.2361 -2.6637 0.4177 1.180104062e-38
1.738 5.6026 0.8344 1.180104062e-38
-0.3432 -2.3532 0.298 1.180104062e-38
-0.1271 -2.2801 0.2862 1.180104062e-38
0.0754 -2.2557 0.2828 1.180104062e-38
0.2772 -2.2509 0.2842 1.180104062e-38
0.4882 -2.2719 0.2912 1.180104062e-38
0.7254 -2.3386 0.3068 1.180104062e-38
1.015 -2.4699 0.3346 1.180104062e-38
-0.4595 -2.3971 0.3059 1.180104062e-38
-0.0253 -2.2677 0.2842 1.180104062e-38
0.3814 -2.2611 0.2874 1.180104062e-38
0.6025 -2.2997 0.2979 1.180104062e-38
0.8572 -2.3825 0.3173 1.180104062e-38
-0.3416 -2.3418 0.2567 1.180104062e-38
0.0749 -2.2387 0.243 1.180104062e-38
0.2753 -2.2352 0.2443 1.180104062e-38
0.7202 -2.3216 0.2636 1.180104062e-38
1.0066 -2.4494 0.2872 1.180104062e-38
1.5138 -2.9145 0.3562 1.180104062e-38
-0.7307 -2.5555 0.2883 1.180104062e-38
-0.4572 -2.3852 0.2634 1.180104062e-38
-0.2314 -2.3007 0.2508 1.180104062e-38
-0.0251 -2.2524 0.2443 1.180104062e-38
0.174 -2.2271 0.2423 1.180104062e-38
0.3787 -2.2452 0.247 1.180104062e-38
0.5982 -2.2834 0.256 1.180104062e-38
0.8504 -2.3638 0.2725 1.180104062e-38
-0.5833 -2.4478 0.2307 1.180104062e-38
-0.126 -2.2594 0.2075 1.180104062e-38
0.0745 -2.229 0.2045 1.180104062e-38
0.2734 -2.2198 0.205 1.180104062e-38
0.4813 -2.2397 0.21 1.180104062e-38
0.9983 -2.4293 0.2408 1.180104062e-38
1.4415 -2.7753 0.2867 1.180104062e-38
1.4996 5.7241 0.5425 1.180104062e-38
-1.1704 -3.039 0.2986 1.180104062e-38
-0.7257 -2.5378 0.242 1.180104062e-38
-0.455 -2.3735 0.2216 1.180104062e-38
-0.2304 -2.2899 0.211 1.180104062e-38
-0.025 -2.244 0.2057 1.180104062e-38
0.3761 -2.2296 0.2073 1.180104062e-38
0.8438 -2.3454 0.2285 1.180104062e-38
1.1777 -2.5378 0.2565 1.180104062e-38
1.7569 5.6638 0.5437 1.180104062e-38
-0.5795 -2.4317 0.1873 1.180104062e-38
-0.3383 -2.3196 0.1757 1.180104062e-38
-0.1255 -2.251 0.169 1.180104062e-38
0.2725 -2.2124 0.167 1.180104062e-38
0.4779 -2.2241 0.1705 1.180104062e-38
0.9902 -2.4096 0.1952 1.180104062e-38
-0.4527 -2.362 0.1802 1.180104062e-38
-0.2293 -2.2793 0.1717 1.180104062e-38
-0.0249 -2.2358 0.1676 1.180104062e-38
0.3741 -2.2176 0.1685 1.180104062e-38
0.5899 -2.2517 0.1744 1.180104062e-38
0.8374 -2.3275 0.1854 1.180104062e-38
1.1658 -2.5121 0.2075 1.180104062e-38
1.7672 5.697 0.447 1.180104062e-38
-0.8836 -2.6393 0.1621 1.180104062e-38
-0.3367 -2.3087 0.1359 1.180104062e-38
-0.125 -2.2427 0.1308 1.180104062e-38
0.2717 -2.2056 0.1294 1.180104062e-38
0.4762 -2.2161 0.132 1.180104062e-38
0.7048 -2.2722 0.1386 1.180104062e-38
0.9823 -2.3903 0.1505 1.180104062e-38
-1.1197 -2.9073 0.1815 1.180104062e-38
-0.0248 -2.2276 0.1297 1.180104062e-38
0.172 -2.2006 0.1286 1.180104062e-38
0.3729 -2.2108 0.1306 1.180104062e-38
0.5865 -2.2385 0.1348 1.180104062e-38
0.8312 -2.3105 0.143 1.180104062e-38
1.1541 -2.487 0.1597 1.180104062e-38
-0.572 -2.4004 0.1026 1.180104062e-38
-0.3351 -2.2979 0.0966 1.180104062e-38
-0.1246 -2.2345 0.0931 1.180104062e-38
0.0737 -2.2048 0.0917 1.180104062e-38
0.2708 -2.1989 0.0921 1.180104062e-38
1.3767 -2.6507 0.1242 1.180104062e-38
1.4906 5.6897 0.2446 1.180104062e-38
-1.0961 -2.8459 0.1268 1.180104062e-38
-0.4484 -2.3393 0.099 1.180104062e-38
-0.0247 -2.2195 0.0923 1.180104062e-38
0.5849 -2.2324 0.096 1.180104062e-38
0.8252 -2.2938 0.1014 1.180104062e-38
1.1427 -2.4624 0.1129 1.180104062e-38
-0.8656 -2.5855 0.068 1.180104062e-38
-0.5684 -2.3851 0.0611 1.180104062e-38
0.0734 -2.1968 0.0548 1.180104062e-38
0.27 -2.1922 0.0551 1.180104062e-38
0.4733 -2.2024 0.0562 1.180104062e-38
1.3619 -2.6222 0.0737 1.180104062e-38
1.4885 5.6815 0.1465 1.180104062e-38
-0.4463 -2.3281 0.0591 1.180104062e-38
-0.2262 -2.2482 0.0563 1.180104062e-38
-0.0246 -2.2114 0.0552 1.180104062e-38
0.1709 -2.1873 0.0547 1.180104062e-38
0.5833 -2.2264 0.0574 1.180104062e-38
-0.8575 -2.5614 0.0224 1.180104062e-38
-0.5648 -2.37 0.0202 1.180104062e-38
-0.1237 -2.2182 0.0185 1.180104062e-38
0.4718 -2.1956 0.0187 1.180104062e-38
0.9647 -2.3475 0.0211 1.180104062e-38
-0.7015 -2.4533 0.0212 1.180104062e-38
-0.4442 -2.3171 0.0196 1.180104062e-38
0.3695 -2.1905 0.0185 1.180104062e-38
0.8203 -2.28 0.0201 1.180104062e-38
-0.562 -2.3583 -0.0202 1.180104062e-38
-0.3305 -2.2662 -0.019 1.180104062e-38
0.4704 -2.1888 -0.0186 1.180104062e-38
0.6958 -2.2431 -0.0195 1.180104062e-38
0.9623 -2.3416 -0.021 1.180104062e-38
1.4895 5.6855 -0.0488 1.180104062e-38
-7.558 12.4422 -0.121 1.180104062e-38
-8.2155 11.1502 -0.1151 1.180104062e-38
-1.0579 -2.7469 -0.0245 1.180104062e-38
-0.4421 -2.3062 -0.0195 1.180104062e-38
-0.0245 -2.1955 -0.0182 1.180104062e-38
0.8183 -2.2745 -0.0201 1.180104062e-38
-0.1228 -2.2022 -0.055 1.180104062e-38
0.0727 -2.1734 -0.0542 1.180104062e-38
0.6939 -2.237 -0.0584 1.180104062e-38
0.9599 -2.3357 -0.063 1.180104062e-38
1.3314 -2.5633 -0.072 1.180104062e-38
1.4902 5.6881 -0.1466 1.180104062e-38
-6.1971 12.6108 -0.3504 1.180104062e-38
-6.904 11.3656 -0.3316 1.180104062e-38
-0.6981 -2.4413 -0.0633 1.180104062e-38
-0.4414 -2.3029 -0.0585 1.180104062e-38
-0.0244 -2.1877 -0.0546 1.180104062e-38
0.5786 -2.2086 -0.0569 1.180104062e-38
0.8164 -2.2691 -0.0601 1.180104062e-38
1.1179 -2.4091 -0.0662 1.180104062e-38
-6.5612 11.9727 -0.3405 1.180104062e-38
-0.8497 -2.5379 -0.1113 1.180104062e-38
0.2667 -2.1659 -0.0907 1.180104062e-38
0.692 -2.2309 -0.0971 1.180104062e-38
0.9575 -2.3299 -0.1047 1.180104062e-38
-5.6776 11.5536 -0.5353 1.180104062e-38
-0.6969 -2.4371 -0.1054 1.180104062e-38
-0.441 -2.3008 -0.0974 1.180104062e-38
0.1689 -2.1612 -0.0901 1.180104062e-38
-0.5592 -2.3466 -0.1405 1.180104062e-38
-0.3289 -2.2552 -0.1327 1.180104062e-38
0.266 -2.1595 -0.1267 1.180104062e-38
0.9551 -2.324 -0.1463 1.180104062e-38
1.325 -2.5511 -0.1674 1.180104062e-38
-0.6956 -2.4328 -0.1474 1.180104062e-38
-0.4406 -2.2987 -0.1363 1.180104062e-38
-0.2229 -2.2154 -0.1297 1.180104062e-38
0.1685 -2.1557 -0.1259 1.180104062e-38
0.365 -2.1641 -0.1278 1.180104062e-38
0.5756 -2.1969 -0.1323 1.180104062e-38
1.1127 -2.3978 -0.154 1.180104062e-38
-0.3286 -2.2532 -0.1706 1.180104062e-38
-0.1225 -2.1966 -0.1649 1.180104062e-38
0.0723 -2.1615 -0.1621 1.180104062e-38
0.2657 -2.1576 -0.1629 1.180104062e-38
0.4651 -2.1645 -0.1659 1.180104062e-38
-0.2228 -2.2147 -0.1668 1.180104062e-38
-0.0243 -2.1789 -0.1633 1.180104062e-38
0.1685 -2.1562 -0.1621 1.180104062e-38
1.1103 -2.3925 -0.1977 1.180104062e-38
-0.5577 -2.3402 -0.2205 1.180104062e-38
0.2658 -2.1582 -0.1993 1.180104062e-38
0.4652 -2.1646 -0.203 1.180104062e-38
1.3187 -2.539 -0.2623 1.180104062e-38
-4.2496 0.5715 -0.3931 1.180104062e-38
-4.0002 0.1784 -0.3671 1.180104062e-38
-1.0404 -2.7013 -0.2654 1.180104062e-38
-0.0242 -2.1783 -0.1997 1.180104062e-38
0.1685 -2.1568 -0.1983 1.180104062e-38
1.1078 -2.3873 -0.2413 1.180104062e-38
-4.908 0.8842 -0.4572 1.180104062e-38
-0.8417 -2.5142 -0.2876 1.180104062e-38
-0.5572 -2.338 -0.2607 1.180104062e-38
-0.1224 -2.1953 -0.2385 1.180104062e-38
0.2659 -2.1587 -0.2359 1.180104062e-38
0.9479 -2.3066 -0.2705 1.180104062e-38
1.503 5.737 -0.6433 1.180104062e-38
-4.7637 1.0793 -0.5298 1.180104062e-38
-3.7517 0.5046 -0.4106 1.180104062e-38
-3.733 0.1665 -0.4053 1.180104062e-38
-1.0392 -2.6981 -0.3136 1.180104062e-38
-0.692 -2.4201 -0.273 1.180104062e-38
-0.2227 -2.2133 -0.2413 1.180104062e-38
-0.0242 -2.1776 -0.2362 1.180104062e-38
0.3644 -2.1601 -0.2376 1.180104062e-38
0.5736 -2.1895 -0.2455 1.180104062e-38
0.808 -2.2458 -0.2589 1.180104062e-38
-3.9948 0.7197 -0.4403 1.180104062e-38
-3.7414 0.3343 -0.4074 1.180104062e-38
-3.77 -0.3369 -0.4743 1.180104062e-38
-0.8414 -2.5133 -0.3321 1.180104062e-38
-0.3277 -2.2472 -0.2846 1.180104062e-38
-0.1224 -2.1946 -0.2754 1.180104062e-38
0.0722 -2.1595 -0.2708 1.180104062e-38
0.266 -2.1593 -0.2726 1.180104062e-38
0.466 -2.1687 -0.278 1.180104062e-38
1.3125 -2.5269 -0.3568 1.180104062e-38
1.5094 5.7611 -0.7463 1.180104062e-38
-3.5494 0.4773 -0.4488 1.180104062e-38
-3.631 -0.1619 -0.4555 1.180104062e-38
-0.439 -2.2903 -0.2922 1.180104062e-38
-0.2226 -2.2126 -0.2787 1.180104062e-38
0.1686 -2.1579 -0.2712 1.180104062e-38
0.3645 -2.1607 -0.2746 1.180104062e-38
0.5742 -2.1917 -0.2839 1.180104062e-38
1.2607 5.8666 -0.752 1.180104062e-38
-3.3944 0 -0.4828 1.180104062e-38
-0.5561 -2.3335 -0.3412 1.180104062e-38
-0.1223 -2.1939 -0.3125 1.180104062e-38
0.266 -2.1598 -0.3095 1.180104062e-38
0.4665 -2.1708 -0.3158 1.180104062e-38
1.3183 -2.5381 -0.4068 1.180104062e-38
1.5183 5.7954 -0.8521 1.180104062e-38
-4.1432 0.9387 -0.6042 1.180104062e-38
-3.3671 0.4528 -0.4832 1.180104062e-38
-3.361 0.1499 -0.4785 1.180104062e-38
-3.447 -0.1537 -0.4908 1.180104062e-38
-1.0487 -2.723 -0.415 1.180104062e-38
-0.4386 -2.2881 -0.3314 1.180104062e-38
-0.2225 -2.212 -0.3162 1.180104062e-38
0.1687 -2.1585 -0.3079 1.180104062e-38
0.8114 -2.2552 -0.3409 1.180104062e-38
1.2532 5.8317 -0.8484 1.180104062e-38
-3.6716 0.6615 -0.5306 1.180104062e-38
-3.2915 0 -0.5241 1.180104062e-38
-3.3916 -0.3031 -0.5422 1.180104062e-38
-0.8475 -2.5313 -0.4251 1.180104062e-38
-0.1223 -2.1932 -0.3498 1.180104062e-38
0.0722 -2.1582 -0.3439 1.180104062e-38
0.2661 -2.1604 -0.3466 1.180104062e-38
0.6887 -2.2201 -0.3701 1.180104062e-38
1.3245 -2.5501 -0.4576 1.180104062e-38
-3.254 0.4376 -0.5228 1.180104062e-38
-3.26 0.1454 -0.5196 1.180104062e-38
-3.4817 -0.4682 -0.5594 1.180104062e-38
-1.0536 -2.7356 -0.4668 1.180104062e-38
-0.4382 -2.286 -0.3706 1.180104062e-38
-0.2225 -2.2113 -0.3539 1.180104062e-38
0.8131 -2.2599 -0.3824 1.180104062e-38
1.1159 -2.4046 -0.4221 1.180104062e-38
1.2509 5.8212 -0.9481 1.180104062e-38
-0.8506 -2.5405 -0.4724 1.180104062e-38
-0.1223 -2.1925 -0.3872 1.180104062e-38
0.6894 -2.2224 -0.4103 1.180104062e-38
1.3313 -2.5632 -0.5093 1.180104062e-38
-3.1779 0.4274 -0.5654 1.180104062e-38
-3.3507 -0.4506 -0.5961 1.180104062e-38
0.3648 -2.1624 -0.3867 1.180104062e-38
0.5759 -2.1981 -0.4007 1.180104062e-38
1.1208 -2.4153 -0.4695 1.180104062e-38
-4.2904 1.1752 -0.7844 1.180104062e-38
-3.1775 -0.2839 -0.6174 1.180104062e-38
-0.8537 -2.5498 -0.5204 1.180104062e-38
-0.3282 -2.2507 -0.4402 1.180104062e-38
-0.1223 -2.1928 -0.425 1.180104062e-38
0.0722 -2.1588 -0.418 1.180104062e-38
0.4678 -2.1772 -0.4309 1.180104062e-38
0.6901 -2.2246 -0.4507 1.180104062e-38
1.3454 -2.5903 -0.5649 1.180104062e-38
-0.6983 -2.4421 -0.4915 1.180104062e-38
-0.4409 -2.3002 -0.4532 1.180104062e-38
-0.0242 -2.1742 -0.4208 1.180104062e-38
0.3649 -2.163 -0.4245 1.180104062e-38
0.5765 -2.2003 -0.4402 1.180104062e-38
0.8165 -2.2696 -0.4668 1.180104062e-38
1.1258 -2.4261 -0.5176 1.180104062e-38
1.2471 5.8037 -1.1487 1.180104062e-38
-3.0211 0 -0.6369 1.180104062e-38
-3.0994 -0.277 -0.656 1.180104062e-38
-0.3293 -2.2577 -0.481 1.180104062e-38
-0.1227 -2.2 -0.4645 1.180104062e-38
0.9601 -2.3364 -0.5325 1.180104062e-38
1.3599 -2.6182 -0.622 1.180104062e-38
-3.552 0.8048 -0.7678 1.180104062e-38
-2.994 0.1335 -0.6318 1.180104062e-38
-3.1545 -0.4243 -0.671 1.180104062e-38
-0.7008 -2.4507 -0.5374 1.180104062e-38
0.1688 -2.1607 -0.4569 1.180104062e-38
0.365 -2.1635 -0.4626 1.180104062e-38
0.8183 -2.2745 -0.5096 1.180104062e-38
1.1309 -2.437 -0.5664 1.180104062e-38
-4.0001 1.0957 -0.8744 1.180104062e-38
-2.981 0.2664 -0.631 1.180104062e-38
-2.971 0 -0.6781 1.180104062e-38
-3.043 -0.2719 -0.6973 1.180104062e-38
-0.1231 -2.2074 -0.5046 1.180104062e-38
0.2666 -2.1647 -0.4978 1.180104062e-38
0.6915 -2.2293 -0.5327 1.180104062e-38
0.9624 -2.3417 -0.5779 1.180104062e-38
-3.4289 0.7769 -0.8025 1.180104062e-38
-2.9994 -0.1337 -0.6853 1.180104062e-38
-1.0894 -2.8285 -0.6918 1.180104062e-38
-0.0243 -2.1853 -0.4988 1.180104062e-38
1.1361 -2.4481 -0.616 1.180104062e-38
-3.8725 1.0608 -0.9164 1.180104062e-38
-3.1659 0.5704 -0.7342 1.180104062e-38
-2.9882 -0.267 -0.7374 1.180104062e-38
-0.3314 -2.272 -0.5644 1.180104062e-38
0.0728 -2.1768 -0.5353 1.180104062e-38
0.4703 -2.1888 -0.5503 1.180104062e-38
0.9646 -2.3471 -0.6237 1.180104062e-38
1.393 -2.682 -0.7429 1.180104062e-38
-3.3132 0.7507 -0.835 1.180104062e-38
-2.9494 -0.1315 -0.7257 1.180104062e-38
-3.0389 -0.4087 -0.7537 1.180104062e-38
-3.1571 -0.7153 -0.7957 1.180104062e-38
-1.1266 -2.9251 -0.7705 1.180104062e-38
-0.4452 -2.3226 -0.5813 1.180104062e-38
-0.2251 -2.2378 -0.5528 1.180104062e-38
0.17 -2.1748 -0.5362 1.180104062e-38
0.3663 -2.1717 -0.5413 1.180104062e-38
0.579 -2.21 -0.5616 1.180104062e-38
0.8219 -2.2845 -0.5968 1.180104062e-38
1.1413 -2.4594 -0.6664 1.180104062e-38
1.2473 5.8044 -1.4593 1.180104062e-38
-3.8036 1.0419 -0.9694 1.180104062e-38
-3.0843 0.5557 -0.7703 1.180104062e-38
-2.8807 0.2574 -0.7109 1.180104062e-38
-2.8744 0 -0.7574 1.180104062e-38
-2.9343 -0.2622 -0.7763 1.180104062e-38
-3.0385 -0.5474 -0.8135 1.180104062e-38
-0.8797 -2.6276 -0.7302 1.180104062e-38
0.2687 -2.1818 -0.5792 1.180104062e-38
0.9715 -2.3639 -0.6734 1.180104062e-38
-3.2212 0.7298 -0.8703 1.180104062e-38
-2.8515 0.1271 -0.7521 1.180104062e-38
-2.9836 -0.4013 -0.7933 1.180104062e-38
-3.0953 -0.7013 -0.8363 1.180104062e-38
-0.7087 -2.4785 -0.6793 1.180104062e-38
-0.4467 -2.3303 -0.6252 1.180104062e-38
-0.0245 -2.1999 -0.5797 1.180104062e-38
1.155 -2.4888 -0.723 1.180104062e-38
-3.7365 1.0236 -1.0208 1.180104062e-38
-2.8348 0.2533 -0.7499 1.180104062e-38
-0.3335 -2.2867 -0.6502 1.180104062e-38
-0.1243 -2.23 -0.6284 1.180104062e-38
0.2698 -2.1906 -0.621 1.180104062e-38
0.7011 -2.2602 -0.6658 1.180104062e-38
-2.7751 0.3732 -0.7878 1.180104062e-38
-2.9298 -0.394 -0.8317 1.180104062e-38
-3.2049 -1.0334 -0.9474 1.180104062e-38
-0.4482 -2.3381 -0.6698 1.180104062e-38
-0.2267 -2.2534 -0.6372 1.180104062e-38
0.3695 -2.1905 -0.625 1.180104062e-38
0.5851 -2.2332 -0.6495 1.180104062e-38
-3.6501 0.9999 -1.0648 1.180104062e-38
-2.7884 0.2492 -0.7877 1.180104062e-38
-2.7824 -0 -0.833 1.180104062e-38
-2.9224 -0.5265 -0.889 1.180104062e-38
-3.0126 -0.8252 -0.9351 1.180104062e-38
-0.9081 -2.7124 -0.8563 1.180104062e-38
-0.5756 -2.4155 -0.7434 1.180104062e-38
-0.3346 -2.2942 -0.6941 1.180104062e-38
0.4777 -2.2228 -0.6807 1.180104062e-38
0.7063 -2.2769 -0.7137 1.180104062e-38
0.9903 -2.4097 -0.78 1.180104062e-38
-2.7204 0.3659 -0.8218 1.180104062e-38
-2.7619 0.1232 -0.8277 1.180104062e-38
-2.9771 -0.6745 -0.9139 1.180104062e-38
-3.1092 -1.0026 -0.978 1.180104062e-38
-0.45 -2.3476 -0.7156 1.180104062e-38
-0.2275 -2.2615 -0.6805 1.180104062e-38
-0.0247 -2.2151 -0.6632 1.180104062e-38
0.3714 -2.2018 -0.6685 1.180104062e-38
0.5882 -2.2451 -0.6948 1.180104062e-38
0.8406 -2.3364 -0.7434 1.180104062e-38
1.1851 -2.5539 -0.8429 1.180104062e-38
1.252 5.8263 -1.7841 1.180104062e-38
-3.5598 0.9751 -1.105 1.180104062e-38
-2.8694 -0.5169 -0.9259 1.180104062e-38
-2.954 -0.8092 -0.9727 1.180104062e-38
-0.9232 -2.7575 -0.9235 1.180104062e-38
-0.3362 -2.3054 -0.7399 1.180104062e-38
-0.1252 -2.2458 -0.7143 1.180104062e-38
0.4802 -2.2346 -0.7259 1.180104062e-38
1.0026 -2.4396 -0.8377 1.180104062e-38
-2.9791 0.675 -0.9701 1.180104062e-38
-2.6672 0.3587 -0.8547 1.180104062e-38
-2.8255 -0.38 -0.9054 1.180104062e-38
-0.7327 -2.5626 -0.8465 1.180104062e-38
-0.4541 -2.3691 -0.7661 1.180104062e-38
-0.2283 -2.2696 -0.7244 1.180104062e-38
-0.0248 -2.2228 -0.706 1.180104062e-38
0.1727 -2.2101 -0.704 1.180104062e-38
0.3733 -2.2132 -0.7128 1.180104062e-38
0.5914 -2.2573 -0.7411 1.180104062e-38
1.2551 5.841 -1.8974 1.180104062e-38
-2.7749 0.4999 -0.8954 1.180104062e-38
-2.8177 -0.5076 -0.9619 1.180104062e-38
-2.8971 -0.7936 -1.0092 1.180104062e-38
-0.9464 -2.8269 -1.0016 1.180104062e-38
-0.3393 -2.3262 -0.7898 1.180104062e-38
-0.1257 -2.2538 -0.7584 1.180104062e-38
0.0743 -2.2212 -0.7467 1.180104062e-38
0.2732 -2.2178 -0.7508 1.180104062e-38
0.4828 -2.2467 -0.7721 1.180104062e-38
0.7171 -2.3116 -0.8132 1.180104062e-38
-2.618 0.3521 -0.8875 1.180104062e-38
-2.8653 -0.6492 -0.9871 1.180104062e-38
-0.7413 -2.5925 -0.9059 1.180104062e-38
-0.4584 -2.3913 -0.8181 1.180104062e-38
-0.2298 -2.2846 -0.7715 1.180104062e-38
0.1734 -2.2194 -0.7479 1.180104062e-38
0.3753 -2.225 -0.7581 1.180104062e-38
0.8539 -2.3735 -0.8475 1.180104062e-38
1.2323 -2.6555 -0.9836 1.180104062e-38
-2.6265 0.7195 -0.915 1.180104062e-38
-2.65 0.2368 -0.8939 1.180104062e-38
-2.6931 -0.2407 -0.9588 1.180104062e-38
-2.8417 -0.7784 -1.0448 1.180104062e-38
-1.0088 -3.0132 -1.1267 1.180104062e-38
-0.5935 -2.4904 -0.9078 1.180104062e-38
0.4854 -2.259 -0.8193 1.180104062e-38
0.7227 -2.3296 -0.8649 1.180104062e-38
-2.5615 0.5804 -0.9313 1.180104062e-38
-2.5748 0.3463 -0.9212 1.180104062e-38
-2.6346 0.1175 -0.9351 1.180104062e-38
-2.6733 -0.1192 -0.9489 1.180104062e-38
-2.8709 -0.9258 -1.0696 1.180104062e-38
-0.7502 -2.6235 -0.9675 1.180104062e-38
-0.2319 -2.305 -0.8214 1.180104062e-38
0.598 -2.2824 -0.8366 1.180104062e-38
0.8608 -2.3927 -0.9017 1.180104062e-38
-2.606 0.2329 -0.9277 1.180104062e-38
-2.6101 0 -0.9746 1.180104062e-38
-2.6498 -0.2368 -0.9934 1.180104062e-38
-2.7171 -0.4895 -1.0309 1.180104062e-38
-0.6003 -2.519 -0.9669 1.180104062e-38
-0.1279 -2.2935 -0.8578 1.180104062e-38
0.0753 -2.2511 -0.841 1.180104062e-38
0.4882 -2.2717 -0.8676 1.180104062e-38
0.7284 -2.3481 -0.918 1.180104062e-38
1.0485 -2.5515 -1.0301 1.180104062e-38
-2.5436 0.5763 -0.9739 1.180104062e-38
-2.5325 0.3406 -0.9542 1.180104062e-38
-2.6781 -0.3602 -1.009 1.180104062e-38
-2.7557 -0.6244 -1.0551 1.180104062e-38
-2.8043 -0.9043 -1.1002 1.180104062e-38
-0.7664 -2.6804 -1.041 1.180104062e-38
-0.4673 -2.4378 -0.9269 1.180104062e-38
-0.0252 -2.263 -0.8451 1.180104062e-38
0.6014 -2.2955 -0.8861 1.180104062e-38
0.8687 -2.4145 -0.9582 1.180104062e-38
-3.4441 0.9434 -1.3334 1.180104062e-38
-2.6096 0.4701 -0.9901 1.180104062e-38
-2.6073 -0.233 -1.0273 1.180104062e-38
-2.7584 -1.0272 -1.1552 1.180104062e-38
-0.129 -2.3145 -0.9098 1.180104062e-38
0.076 -2.2728 -0.8925 1.180104062e-38
0.4936 -2.2969 -0.9221 1.180104062e-38
0.7396 -2.3841 -0.9797 1.180104062e-38
-2.5568 0.5793 -1.0289 1.180104062e-38
-2.5889 -0.1154 -1.0171 1.180104062e-38
-2.7055 -0.613 -1.0887 1.180104062e-38
-2.7236 -0.8782 -1.1231 1.180104062e-38
-0.7904 -2.7643 -1.1284 1.180104062e-38
-0.0254 -2.2834 -0.8962 1.180104062e-38
0.1771 -2.2667 -0.8923 1.180104062e-38
0.3838 -2.2753 -0.9056 1.180104062e-38
0.8839 -2.4569 -1.0248 1.180104062e-38
-3.4629 0.9486 -1.4092 1.180104062e-38
-2.5633 0.4618 -1.0222 1.180104062e-38
-2.621 -0.4722 -1.0967 1.180104062e-38
-0.3524 -2.4163 -1.0055 1.180104062e-38
0.4995 -2.3243 -0.979 1.180104062e-38
-2.4504 0.3296 -1.0181 1.180104062e-38
-2.5479 -0.1136 -1.0502 1.180104062e-38
-2.6464 -0.8534 -1.145 1.180104062e-38
-0.8246 -2.8838 -1.2351 1.180104062e-38
0.1789 -2.2891 -0.9455 1.180104062e-38
0.3883 -2.302 -0.9613 1.180104062e-38
0.9062 -2.5189 -1.1023 1.180104062e-38
-2.5389 -0.4574 -1.1128 1.180104062e-38
-2.5507 -0.6987 -1.1408 1.180104062e-38
-2.5688 -0.9566 -1.1824 1.180104062e-38
-0.1315 -2.3585 -1.019 1.180104062e-38
0.5056 -2.3528 -1.038 1.180104062e-38
0.7642 -2.4634 -1.1126 1.180104062e-38
-2.5715 0.5826 -1.1373 1.180104062e-38
-2.4106 0.3242 -1.0492 1.180104062e-38
-2.4654 0.11 -1.0645 1.180104062e-38
-2.5077 -0.1118 -1.0828 1.180104062e-38
-2.6695 -1.132 -1.2508 1.180104062e-38
-0.0259 -2.3261 -1.0035 1.180104062e-38
0.393 -2.3296 -1.0191 1.180104062e-38
0.6275 -2.3951 -1.068 1.180104062e-38
-2.4719 0.4453 -1.0835 1.180104062e-38
-2.4282 0 -1.0956 1.180104062e-38
-0.3648 -2.5015 -1.1407 1.180104062e-38
-0.1328 -2.3817 -1.0763 1.180104062e-38
0.0783 -2.3426 -1.0576 1.180104062e-38
0.2878 -2.3365 -1.0622 1.180104062e-38
-2.5488 0.5775 -1.1792 1.180104062e-38
-2.4105 0.1075 -1.0887 1.180104062e-38
-2.4395 -0.1088 -1.1018 1.180104062e-38
-2.4782 -0.7991 -1.1749 1.180104062e-38
-0.2445 -2.4305 -1.1022 1.180104062e-38
0.1826 -2.3362 -1.0574 1.180104062e-38
0.6379 -2.4348 -1.1357 1.180104062e-38
0.9555 -2.6557 -1.2735 1.180104062e-38
-2.3848 0.2131 -1.0804 1.180104062e-38
-2.3773 -0.2124 -1.1251 1.180104062e-38
-2.3816 -0.4291 -1.1407 1.180104062e-38
-0.1353 -2.4275 -1.146 1.180104062e-38
0.2914 -2.3657 -1.1235 1.180104062e-38
-2.5265 0.5724 -1.2211 1.180104062e-38
-2.2973 0.309 -1.0926 1.180104062e-38
-2.3488 0.1047 -1.1083 1.180104062e-38
-2.3694 -0.1056 -1.118 1.180104062e-38
-2.3799 -0.3201 -1.1319 1.180104062e-38
-2.3894 -0.5414 -1.1548 1.180104062e-38
-2.3945 -0.7721 -1.1859 1.180104062e-38
-0.5108 -2.6651 -1.2791 1.180104062e-38
0.1845 -2.3611 -1.1163 1.180104062e-38
0.6488 -2.4765 -1.2068 1.180104062e-38
1.0413 -2.8943 -1.4499 1.180104062e-38
-2.3094 -0.2064 -1.1404 1.180104062e-38
-2.3082 -0.4158 -1.1536 1.180104062e-38
-2.3175 -0.6348 -1.1819 1.180104062e-38
-2.3666 -1.1304 -1.29 1.180104062e-38
-0.3814 -2.6148 -1.2997 1.180104062e-38
0.0808 -2.4169 -1.1894 1.180104062e-38
0.2967 -2.4092 -1.1939 1.180104062e-38
0.8383 -2.7024 -1.3917 1.180104062e-38
-2.5042 0.5674 -1.2629 1.180104062e-38
-2.2513 0.3028 -1.1173 1.180104062e-38
-2.3142 -0.5243 -1.1671 1.180104062e-38
-2.3173 -0.7472 -1.1976 1.180104062e-38
-0.2546 -2.5309 -1.2511 1.180104062e-38
-0.0271 -2.4334 -1.1969 1.180104062e-38
0.1878 -2.403 -1.1855 1.180104062e-38
0.4101 -2.4315 -1.2128 1.180104062e-38
0.6673 -2.5471 -1.2951 1.180104062e-38
-2.2658 0.2025 -1.1189 1.180104062e-38
-2.2443 -0.2005 -1.1552 1.180104062e-38
-2.2416 -0.4039 -1.1677 1.180104062e-38
-2.2593 -0.8414 -1.236 1.180104062e-38
0.304 -2.4687 -1.2752 1.180104062e-38
-2.4709 0.5598 -1.2989 1.180104062e-38
-2.2093 0.2971 -1.1428 1.180104062e-38
-2.2376 -0.0998 -1.1483 1.180104062e-38
-0.0277 -2.4859 -1.2745 1.180104062e-38
-2.2585 0.4069 -1.1765 1.180104062e-38
-2.2093 0.1974 -1.1372 1.180104062e-38
-2.1765 0 -1.1619 1.180104062e-38
-2.1873 -0.5992 -1.2107 1.180104062e-38
-2.1932 -0.8167 -1.2494 1.180104062e-38
-2.2033 -1.0524 -1.3035 1.180104062e-38
-0.1449 -2.5982 -1.3892 1.180104062e-38
0.0844 -2.5237 -1.348 1.180104062e-38
0.3119 -2.5322 -1.362 1.180104062e-38
0.5668 -2.6375 -1.4402 1.180104062e-38
-2.1735 0.0969 -1.1615 1.180104062e-38
-2.1765 -0.0971 -1.1631 1.180104062e-38
-2.1806 -0.4941 -1.1936 1.180104062e-38
-2.2448 -1.1978 -1.3583 1.180104062e-38
-0.2719 -2.7024 -1.45 1.180104062e-38
-0.0283 -2.5416 -1.3569 1.180104062e-38
0.7304 -2.788 -1.5386 1.180104062e-38
-2.125 -0.3828 -1.1992 1.180104062e-38
-2.1288 -0.5831 -1.2259 1.180104062e-38
-2.1317 -0.7938 -1.2633 1.180104062e-38
-2.1374 -1.0209 -1.3156 1.180104062e-38
-2.2265 -1.3188 -1.4372 1.180104062e-38
-0.1521 -2.7281 -1.5175 1.180104062e-38
0.321 -2.6059 -1.4582 1.180104062e-38
-2.1264 0.286 -1.1916 1.180104062e-38
-2.1192 -0.0945 -1.1782 1.180104062e-38
-2.1237 -0.2856 -1.1901 1.180104062e-38
-2.1231 -0.481 -1.2091 1.180104062e-38
-2.1353 -0.9054 -1.2881 1.180104062e-38
-0.2924 -2.9067 -1.6225 1.180104062e-38
0.4494 -2.664 -1.5005 1.180104062e-38
-2.1578 0.3887 -1.2177 1.180104062e-38
-2.0638 0 -1.1916 1.180104062e-38
-2.0684 -0.1848 -1.199 1.180104062e-38
-2.072 -0.5676 -1.2403 1.180104062e-38
-2.0734 -0.7721 -1.2774 1.180104062e-38
-2.074 -0.9907 -1.327 1.180104062e-38
0.3422 -2.7782 -1.6161 1.180104062e-38
-2.0782 0.2795 -1.2106 1.180104062e-38
-2.0611 0.0919 -1.1911 1.180104062e-38
-2.0743 -0.6689 -1.2583 1.180104062e-38
-2.0729 -0.879 -1.2999 1.180104062e-38
-0.0311 -2.7889 -1.6103 1.180104062e-38
0.4944 -2.9308 -1.716 1.180104062e-38
