# .PCD v0.7 - Point Cloud Data file format
VERSION 0.7
FIELDS x y z rgb
SIZE 4 4 4 4
TYPE F F F F
COUNT 1 1 1 1
WIDTH 559
HEIGHT 1
VIEWPOINT 0 0 0 1 0 0 0
POINTS 559
DATA ascii
2.4871 6.9129 4.2416 1.180104062e-38
2.5134 6.9862 4.1236 1.180104062e-38
2.1756 7.0134 3.9201 1.180104062e-38
4.9304 4.8758 3.4106 1.180104062e-38
3.4667 6.0046 3.4103 1.180104062e-38
5.6701 4.276 3.493 1.180104062e-38
4.684 5.0643 3.393 1.180104062e-38
4.1929 5.433 3.3755 1.180104062e-38
5.9404 4.0779 3.3965 1.180104062e-38
3.4766 6.0215 3.2775 1.180104062e-38
2.9599 6.3783 3.3145 1.180104062e-38
6.2214 3.8747 3.4549 1.180104062e-38
3.7381 5.8556 3.2747 1.180104062e-38
3.2164 6.1927 3.2893 1.180104062e-38
2.1624 6.9709 3.4404 1.180104062e-38
6.4727 3.6415 3.3511 1.180104062e-38
2.9928 6.4493 3.2081 1.180104062e-38
6.2262 3.8777 3.3097 1.180104062e-38
2.1628 6.9721 3.2938 1.180104062e-38
2.4771 6.8853 3.1564 1.180104062e-38
2.1632 6.9734 3.1494 1.180104062e-38
6.8398 3.4563 3.1557 1.180104062e-38
2.1667 6.9848 3.0114 1.180104062e-38
7.3593 2.9289 3.1086 1.180104062e-38
2.1713 6.9995 2.8762 1.180104062e-38
-11.886 -6.3426 5.0307 1.180104062e-38
2.1758 7.0141 2.7423 1.180104062e-38
-12.2924 -6.5594 4.9405 1.180104062e-38
2.1852 7.0444 2.6153 1.180104062e-38
2.196 7.0791 2.4903 1.180104062e-38
8.4905 2.1236 2.7795 1.180104062e-38
1.8922 7.2224 2.3711 1.180104062e-38
1.8744 7.1544 2.2142 1.180104062e-38
1.8704 7.1391 2.0764 1.180104062e-38
10.2241 0.6844 2.5187 1.180104062e-38
1.8645 7.1167 1.8083 1.180104062e-38
1.8648 7.1178 1.6794 1.180104062e-38
1.8651 7.1189 1.5515 1.180104062e-38
11.3456 -0.2529 2.1961 1.180104062e-38
3.987 -1.7964 0.8463 1.180104062e-38
1.8691 7.1342 1.3004 1.180104062e-38
3.6559 -1.6473 0.7071 1.180104062e-38
3.5139 -2.1885 0.6592 1.180104062e-38
3.5933 -1.4301 0.6158 1.180104062e-38
4.0339 -1.2022 0.6703 1.180104062e-38
3.4916 -1.5732 0.6098 1.180104062e-38
3.3456 -1.6906 0.5332 1.180104062e-38
3.4946 -1.3908 0.535 1.180104062e-38
3.7897 -1.1295 0.5625 1.180104062e-38
3.4848 -2.3922 0.6012 1.180104062e-38
3.4043 -1.5339 0.5311 1.180104062e-38
3.6148 -1.2552 0.5443 1.180104062e-38
3.2646 -1.6497 0.4584 1.180104062e-38
3.4079 -1.3563 0.4596 1.180104062e-38
3.6817 -1.0973 0.4814 1.180104062e-38
3.2958 -2.2624 0.501 1.180104062e-38
3.515 -1.2205 0.4663 1.180104062e-38
3.9309 -0.9832 0.5078 1.180104062e-38
3.3301 -2.5114 0.4524 1.180104062e-38
3.5801 -1.067 0.4052 1.180104062e-38
4.1902 -0.8517 0.4638 1.180104062e-38
1.8917 7.2206 0.8096 1.180104062e-38
3.1572 -1.7762 0.3929 1.180104062e-38
3.2462 -1.4627 0.3862 1.180104062e-38
3.4273 -1.1901 0.3935 1.180104062e-38
3.7938 -0.9489 0.4242 1.180104062e-38
3.0818 -1.9193 0.3328 1.180104062e-38
3.141 -1.5872 0.3226 1.180104062e-38
3.5046 -1.0445 0.3353 1.180104062e-38
3.9748 -0.8079 0.3718 1.180104062e-38
3.1982 -1.441 0.3216 1.180104062e-38
3.3713 -1.1706 0.3272 1.180104062e-38
3.675 -0.9192 0.3473 1.180104062e-38
3.0933 -2.3328 0.2903 1.180104062e-38
3.0337 -1.8894 0.2678 1.180104062e-38
3.8328 -0.779 0.2931 1.180104062e-38
3.3206 -1.153 0.2634 1.180104062e-38
1.5768 7.3379 0.5625 1.180104062e-38
3.0245 -2.2809 0.2206 1.180104062e-38
2.9872 -1.8604 0.205 1.180104062e-38
3.0509 -1.5417 0.1991 1.180104062e-38
3.1801 -1.2657 0.1993 1.180104062e-38
3.3901 -1.0104 0.206 1.180104062e-38
2.9907 -2.053 0.2113 1.180104062e-38
3.0103 -1.6936 0.2012 1.180104062e-38
3.1067 -1.3998 0.1985 1.180104062e-38
3.2715 -1.136 0.2017 1.180104062e-38
4.1253 -0.6487 0.2432 1.180104062e-38
1.5681 7.2972 0.4347 1.180104062e-38
2.9588 -2.2313 0.1541 1.180104062e-38
2.9422 -1.8324 0.1441 1.180104062e-38
3.0079 -1.5199 0.1401 1.180104062e-38
3.1344 -1.2475 0.1403 1.180104062e-38
3.3357 -0.9942 0.1447 1.180104062e-38
3.6778 -0.7475 0.156 1.180104062e-38
3.0504 -2.5212 0.1645 1.180104062e-38
2.9393 -2.0177 0.1482 1.180104062e-38
2.9658 -1.6685 0.1415 1.180104062e-38
3.2239 -1.1195 0.1419 1.180104062e-38
3.4756 -0.8693 0.149 1.180104062e-38
2.9053 -1.8094 0.0854 1.180104062e-38
3.1014 -1.2343 0.0832 1.180104062e-38
3.2922 -0.9812 0.0857 1.180104062e-38
2.9814 -2.4642 0.0965 1.180104062e-38
2.8931 -1.986 0.0875 1.180104062e-38
3.1881 -1.107 0.0842 1.180104062e-38
3.4242 -0.8564 0.088 1.180104062e-38
3.8832 -0.6106 0.098 1.180104062e-38
3.0967 -2.8008 0.0347 1.180104062e-38
2.8779 -1.7924 0.0282 1.180104062e-38
2.95 -1.4907 0.0275 1.180104062e-38
3.0733 -1.2231 0.0275 1.180104062e-38
3.5584 -0.7233 0.0302 1.180104062e-38
4.3315 -0.4846 0.0362 1.180104062e-38
-10.2722 9.7154 0.1175 1.180104062e-38
2.9242 -2.4169 0.0315 1.180104062e-38
3.7936 -0.5965 0.0319 1.180104062e-38
1.5614 7.2659 0.0618 1.180104062e-38
-9.9841 10.3235 0.1194 1.180104062e-38
3.0167 -2.7284 -0.0338 1.180104062e-38
2.924 -1.4776 -0.0272 1.180104062e-38
3.0458 -1.2122 -0.0272 1.180104062e-38
3.2274 -0.9619 -0.028 1.180104062e-38
3.1303 -1.087 -0.0275 1.180104062e-38
3.733 -0.587 -0.0314 1.180104062e-38
-13.9576 -5.1978 -0.3714 1.180104062e-38
2.8103 -2.1193 -0.0878 1.180104062e-38
2.8248 -1.7593 -0.083 1.180104062e-38
2.8985 -1.4647 -0.081 1.180104062e-38
3.0188 -1.2014 -0.081 1.180104062e-38
3.4742 -0.7062 -0.0884 1.180104062e-38
4.0408 -0.452 -0.1014 1.180104062e-38
2.8472 -2.3533 -0.0921 1.180104062e-38
3.1022 -1.0772 -0.0819 1.180104062e-38
1.5618 7.268 -0.1854 1.180104062e-38
2.7806 -2.097 -0.1448 1.180104062e-38
2.7989 -1.7432 -0.1371 1.180104062e-38
3.9503 -0.4419 -0.1653 1.180104062e-38
2.7752 -1.9051 -0.14 1.180104062e-38
2.8264 -1.5901 -0.1348 1.180104062e-38
3.2885 -0.8225 -0.1409 1.180104062e-38
3.6318 -0.5711 -0.1529 1.180104062e-38
2.8492 -2.5769 -0.2238 1.180104062e-38
2.7516 -2.0751 -0.2007 1.180104062e-38
2.7735 -1.7274 -0.1903 1.180104062e-38
3.1358 -0.9346 -0.1906 1.180104062e-38
3.8848 -0.4346 -0.2277 1.180104062e-38
2.7472 -1.8859 -0.1941 1.180104062e-38
2.9035 -1.3083 -0.1855 1.180104062e-38
3.0488 -1.0587 -0.188 1.180104062e-38
3.2561 -0.8144 -0.1955 1.180104062e-38
3.5877 -0.5642 -0.2115 1.180104062e-38
2.7591 -1.7184 -0.2436 1.180104062e-38
2.8359 -1.433 -0.2381 1.180104062e-38
2.9528 -1.1752 -0.2382 1.180104062e-38
3.8317 -0.4286 -0.2889 1.180104062e-38
2.7307 -1.8745 -0.2482 1.180104062e-38
2.7878 -1.5684 -0.2397 1.180104062e-38
2.8893 -1.3018 -0.2375 1.180104062e-38
3.2378 -0.8098 -0.2501 1.180104062e-38
1.5685 7.299 -0.5595 1.180104062e-38
2.7831 -2.5172 -0.344 1.180104062e-38
2.7166 -2.0487 -0.3119 1.180104062e-38
2.745 -1.7096 -0.2965 1.180104062e-38
3.7993 -0.425 -0.3505 1.180104062e-38
-4.0002 0.1784 -0.3671 1.180104062e-38
2.7155 -1.8641 -0.302 1.180104062e-38
2.8751 -1.2955 -0.2891 1.180104062e-38
3.0181 -1.048 -0.2929 1.180104062e-38
3.534 -0.5557 -0.328 1.180104062e-38
1.5714 7.3126 -0.6857 1.180104062e-38
-4.908 0.8842 -0.4572 1.180104062e-38
2.7633 -2.4992 -0.4041 1.180104062e-38
2.7011 -2.037 -0.3669 1.180104062e-38
3.0855 -0.9196 -0.3492 1.180104062e-38
3.7672 -0.4214 -0.4112 1.180104062e-38
-3.7517 0.5046 -0.4106 1.180104062e-38
-3.9257 -0.1751 -0.4262 1.180104062e-38
2.861 -1.2891 -0.3404 1.180104062e-38
3.003 -1.0428 -0.3448 1.180104062e-38
3.2023 -0.8009 -0.358 1.180104062e-38
3.5108 -0.5521 -0.3855 1.180104062e-38
4.3989 -0.2945 -0.4782 1.180104062e-38
1.5779 7.343 -0.8147 1.180104062e-38
-3.9949 0.7197 -0.4403 1.180104062e-38
-3.5692 0 -0.4473 1.180104062e-38
2.7436 -2.4815 -0.4636 1.180104062e-38
2.6856 -2.0253 -0.4215 1.180104062e-38
3.069 -0.9147 -0.4013 1.180104062e-38
3.307 -0.6722 -0.4229 1.180104062e-38
-4.3832 0.9931 -0.5632 1.180104062e-38
-3.5494 0.4773 -0.4488 1.180104062e-38
2.6925 -2.2254 -0.4377 1.180104062e-38
2.6868 -1.8444 -0.4084 1.180104062e-38
2.7458 -1.5448 -0.3948 1.180104062e-38
1.5851 7.3764 -0.9455 1.180104062e-38
2.7242 -2.4639 -0.5225 1.180104062e-38
2.6703 -2.0137 -0.4757 1.180104062e-38
2.703 -1.6835 -0.4529 1.180104062e-38
3.2877 -0.6683 -0.4772 1.180104062e-38
3.7044 -0.4144 -0.5302 1.180104062e-38
-4.1432 0.9387 -0.6042 1.180104062e-38
-3.3671 0.4528 -0.4832 1.180104062e-38
-3.361 0.1499 -0.4785 1.180104062e-38
-3.6292 -0.4881 -0.5208 1.180104062e-38
2.8645 -2.8327 -0.573 1.180104062e-38
2.6728 -1.8348 -0.4611 1.180104062e-38
2.732 -1.537 -0.4459 1.180104062e-38
2.9729 -1.0323 -0.4476 1.180104062e-38
3.1672 -0.7922 -0.4644 1.180104062e-38
4.1641 -0.2788 -0.5936 1.180104062e-38
-3.2915 0 -0.5241 1.180104062e-38
2.7049 -2.4464 -0.5808 1.180104062e-38
2.8801 -1.1463 -0.4936 1.180104062e-38
3.6754 -0.4112 -0.5889 1.180104062e-38
1.2633 7.4892 -1.2094 1.180104062e-38
-3.9744 0.9005 -0.6489 1.180104062e-38
-3.254 0.4376 -0.5228 1.180104062e-38
-3.26 0.1454 -0.5196 1.180104062e-38
-3.4817 -0.4683 -0.5594 1.180104062e-38
2.8365 -2.8051 -0.6352 1.180104062e-38
2.6566 -2.1957 -0.5488 1.180104062e-38
2.6589 -1.8252 -0.5136 1.180104062e-38
4.1127 -0.2753 -0.6564 1.180104062e-38
-4.5041 1.2338 -0.7436 1.180104062e-38
-3.5501 0.6396 -0.5744 1.180104062e-38
-3.2454 0.29 -0.5188 1.180104062e-38
-3.1939 0 -0.5632 1.180104062e-38
-3.2817 -0.2933 -0.581 1.180104062e-38
2.6986 -2.4407 -0.6416 1.180104062e-38
2.6823 -1.6705 -0.5572 1.180104062e-38
3.0304 -0.9032 -0.5576 1.180104062e-38
3.2628 -0.6632 -0.5871 1.180104062e-38
1.2565 7.449 -1.332 1.180104062e-38
-3.8238 0.8663 -0.6913 1.180104062e-38
-3.1779 0.4274 -0.5654 1.180104062e-38
-3.1644 0.1411 -0.5585 1.180104062e-38
-3.3507 -0.4506 -0.5961 1.180104062e-38
2.8298 -2.7984 -0.7017 1.180104062e-38
2.6522 -1.8206 -0.5672 1.180104062e-38
2.9509 -1.0247 -0.5508 1.180104062e-38
3.1431 -0.7861 -0.5713 1.180104062e-38
4.107 -0.2749 -0.7258 1.180104062e-38
-4.2904 1.1753 -0.7844 1.180104062e-38
-3.1509 0.2815 -0.5578 1.180104062e-38
-3.1015 0 -0.6002 1.180104062e-38
2.6441 -1.994 -0.6409 1.180104062e-38
2.7554 -1.3923 -0.5974 1.180104062e-38
2.8682 -1.1415 -0.5974 1.180104062e-38
3.0253 -0.9017 -0.6109 1.180104062e-38
3.2571 -0.662 -0.6432 1.180104062e-38
3.6629 -0.4097 -0.7133 1.180104062e-38
-3.6833 0.8345 -0.7309 1.180104062e-38
-3.1273 -0.1395 -0.6058 1.180104062e-38
-3.2339 -0.4349 -0.6315 1.180104062e-38
2.826 -2.7946 -0.7691 1.180104062e-38
2.6462 -2.1871 -0.6644 1.180104062e-38
2.8076 -1.265 -0.5959 1.180104062e-38
2.9459 -1.0229 -0.6035 1.180104062e-38
3.4306 -0.5394 -0.672 1.180104062e-38
-3.3306 0.6 -0.6549 1.180104062e-38
-3.0639 0.2738 -0.5953 1.180104062e-38
-3.0211 -0 -0.6369 1.180104062e-38
2.6397 -1.9907 -0.697 1.180104062e-38
2.6735 -1.6651 -0.664 1.180104062e-38
2.7508 -1.3901 -0.6498 1.180104062e-38
2.8635 -1.1396 -0.6497 1.180104062e-38
3.0202 -0.9001 -0.6644 1.180104062e-38
-2.994 0.1335 -0.6318 1.180104062e-38
-3.0505 -0.136 -0.6438 1.180104062e-38
-3.1545 -0.4242 -0.671 1.180104062e-38
2.6421 -2.1838 -0.7226 1.180104062e-38
2.6434 -1.8146 -0.6759 1.180104062e-38
2.7025 -1.5204 -0.6537 1.180104062e-38
2.8029 -1.2629 -0.6481 1.180104062e-38
3.1323 -0.7834 -0.6807 1.180104062e-38
3.4245 -0.5385 -0.7308 1.180104062e-38
-4.0001 1.0957 -0.8744 1.180104062e-38
-3.043 -0.2719 -0.6973 1.180104062e-38
-3.1642 -0.5701 -0.7338 1.180104062e-38
2.6854 -2.4288 -0.8264 1.180104062e-38
2.6354 -1.9874 -0.7534 1.180104062e-38
2.7463 -1.3877 -0.7023 1.180104062e-38
2.8587 -1.1377 -0.7023 1.180104062e-38
3.2456 -0.6597 -0.7559 1.180104062e-38
3.6503 -0.4084 -0.8384 1.180104062e-38
1.2513 7.4184 -1.7171 1.180104062e-38
-2.9625 0.3984 -0.6823 1.180104062e-38
-2.9994 -0.1337 -0.6853 1.180104062e-38
2.638 -2.1804 -0.7812 1.180104062e-38
2.7983 -1.2609 -0.7005 1.180104062e-38
2.936 -1.0195 -0.7094 1.180104062e-38
3.1269 -0.7821 -0.7357 1.180104062e-38
-3.8725 1.0608 -0.9164 1.180104062e-38
-2.9221 0 -0.7183 1.180104062e-38
-2.9882 -0.267 -0.7374 1.180104062e-38
-1.949 -13.3631 -3.3194 1.180104062e-38
2.681 -2.4249 -0.8885 1.180104062e-38
2.7417 -1.3854 -0.7551 1.180104062e-38
2.8539 -1.1358 -0.755 1.180104062e-38
3.644 -0.4076 -0.9013 1.180104062e-38
-2.8899 0.3887 -0.7167 1.180104062e-38
-3.0389 -0.4087 -0.7537 1.180104062e-38
2.634 -2.177 -0.8399 1.180104062e-38
2.6345 -1.8085 -0.7854 1.180104062e-38
2.6937 -1.5155 -0.7597 1.180104062e-38
4.0945 -0.2741 -1.0087 1.180104062e-38
-3.8036 1.0419 -0.9694 1.180104062e-38
-3.0843 0.5557 -0.7703 1.180104062e-38
-2.8807 0.2574 -0.7109 1.180104062e-38
-2.9343 -0.2622 -0.7763 1.180104062e-38
-0.7475 -13.4067 -3.5381 1.180104062e-38
2.6818 -2.4255 -0.9528 1.180104062e-38
2.6602 -1.6568 -0.8258 1.180104062e-38
-2.8316 0.3808 -0.7529 1.180104062e-38
-2.9007 -0.1293 -0.7651 1.180104062e-38
-2.9836 -0.4013 -0.7933 1.180104062e-38
-3.0953 -0.7013 -0.8363 1.180104062e-38
-0.1563 -14.0296 -3.697 1.180104062e-38
2.8546 -2.823 -1.0579 1.180104062e-38
2.6298 -2.1736 -0.899 1.180104062e-38
2.63 -1.8054 -0.8406 1.180104062e-38
2.789 -1.2567 -0.806 1.180104062e-38
3.116 -0.7794 -0.8464 1.180104062e-38
3.4099 -0.5362 -0.9095 1.180104062e-38
4.1766 -0.2796 -1.103 1.180104062e-38
-3.7366 1.0236 -1.0209 1.180104062e-38
-2.8347 0.2533 -0.7499 1.180104062e-38
-2.8819 -0.2575 -0.8141 1.180104062e-38
0.4444 -13.2912 -3.7416 1.180104062e-38
2.6933 -2.436 -1.0218 1.180104062e-38
2.6306 -1.9838 -0.927 1.180104062e-38
3.0046 -0.8955 -0.8821 1.180104062e-38
-2.8062 0.1251 -0.7903 1.180104062e-38
-2.8531 -0.1272 -0.8035 1.180104062e-38
-2.9298 -0.394 -0.8317 1.180104062e-38
2.6306 -1.8058 -0.8977 1.180104062e-38
2.7863 -1.2555 -0.8599 1.180104062e-38
3.1191 -0.7801 -0.9046 1.180104062e-38
3.4213 -0.538 -0.9744 1.180104062e-38
-2.7824 0 -0.833 1.180104062e-38
-2.8308 -0.2529 -0.8509 1.180104062e-38
-2.9224 -0.5265 -0.889 1.180104062e-38
-3.0126 -0.8252 -0.9351 1.180104062e-38
2.9778 -13.8574 -4.2433 1.180104062e-38
2.7051 -2.4466 -1.0919 1.180104062e-38
3.251 -0.6608 -0.9932 1.180104062e-38
-2.7204 0.3658 -0.8218 1.180104062e-38
-2.8067 -0.1252 -0.8411 1.180104062e-38
-2.8771 -0.3869 -0.8691 1.180104062e-38
2.2671 -13.4403 -4.0806 1.180104062e-38
2.9668 -2.9339 -1.2491 1.180104062e-38
2.651 -2.1911 -1.0297 1.180104062e-38
2.693 -1.515 -0.925 1.180104062e-38
2.9303 -1.0175 -0.9287 1.180104062e-38
3.4328 -0.5398 -1.0404 1.180104062e-38
-3.5598 0.9751 -1.105 1.180104062e-38
-2.7412 0.2449 -0.8239 1.180104062e-38
-2.8694 -0.517 -0.926 1.180104062e-38
-2.954 -0.8092 -0.9727 1.180104062e-38
2.6706 -1.6633 -0.9992 1.180104062e-38
2.7447 -1.387 -0.9767 1.180104062e-38
2.8577 -1.1373 -0.9768 1.180104062e-38
3.0181 -0.8995 -1.0002 1.180104062e-38
-2.7186 0.1212 -0.8643 1.180104062e-38
-2.8255 -0.38 -0.9054 1.180104062e-38
-2.9205 -0.6617 -0.951 1.180104062e-38
2.6436 -1.8147 -1.0183 1.180104062e-38
2.6986 -1.5182 -0.9833 1.180104062e-38
2.936 -1.0195 -0.9871 1.180104062e-38
3.1338 -0.7838 -1.0259 1.180104062e-38
-3.473 0.9513 -1.1436 1.180104062e-38
-2.7749 0.4999 -0.8954 1.180104062e-38
-2.6951 0.2408 -0.8593 1.180104062e-38
-2.6945 0 -0.9053 1.180104062e-38
2.6763 -1.6668 -1.0593 1.180104062e-38
2.7499 -1.3896 -1.0352 1.180104062e-38
2.8633 -1.1395 -1.0354 1.180104062e-38
3.0252 -0.9016 -1.0606 1.180104062e-38
3.2725 -0.6652 -1.122 1.180104062e-38
-2.6271 0.5952 -0.9051 1.180104062e-38
-2.7751 -0.3732 -0.9408 1.180104062e-38
-2.8653 -0.6492 -0.9871 1.180104062e-38
5.8075 -12.5149 -4.6355 1.180104062e-38
2.6509 -1.8197 -1.0803 1.180104062e-38
2.7043 -1.5214 -1.0425 1.180104062e-38
2.9418 -1.0215 -1.0463 1.180104062e-38
3.1413 -0.7857 -1.0879 1.180104062e-38
3.4566 -0.5435 -1.1756 1.180104062e-38
-2.65 0.2368 -0.8939 1.180104062e-38
-2.6518 -0 -0.9403 1.180104062e-38
-2.8417 -0.7784 -1.0448 1.180104062e-38
2.6822 -1.6705 -1.1204 1.180104062e-38
3.0324 -0.9037 -1.122 1.180104062e-38
3.7889 -0.4238 -1.3519 1.180104062e-38
-2.5748 0.3463 -0.9212 1.180104062e-38
-2.6346 0.1175 -0.9351 1.180104062e-38
-2.8093 -0.6365 -1.0214 1.180104062e-38
-2.8709 -0.9257 -1.0696 1.180104062e-38
2.6848 -2.219 -1.2351 1.180104062e-38
2.6583 -1.8248 -1.1433 1.180104062e-38
2.8073 -1.2649 -1.0918 1.180104062e-38
2.9477 -1.0235 -1.1064 1.180104062e-38
3.149 -0.7876 -1.151 1.180104062e-38
3.4699 -0.5456 -1.2455 1.180104062e-38
-2.6101 0 -0.9746 1.180104062e-38
-2.717 -0.4895 -1.0309 1.180104062e-38
-2.7878 -0.7637 -1.0794 1.180104062e-38
2.6731 -2.0159 -1.2502 1.180104062e-38
2.7605 -1.395 -1.155 1.180104062e-38
2.8746 -1.1441 -1.1553 1.180104062e-38
-2.5436 0.5763 -0.9739 1.180104062e-38
-2.5325 0.3406 -0.9542 1.180104062e-38
-2.6781 -0.3602 -1.009 1.180104062e-38
-2.7556 -0.6243 -1.0551 1.180104062e-38
-2.8043 -0.9043 -1.1002 1.180104062e-38
2.6658 -1.83 -1.2074 1.180104062e-38
2.7159 -1.528 -1.1636 1.180104062e-38
2.8128 -1.2674 -1.152 1.180104062e-38
3.1587 -0.79 -1.2158 1.180104062e-38
3.5065 -0.5514 -1.3254 1.180104062e-38
-2.6096 0.4701 -0.9901 1.180104062e-38
-2.6072 -0.233 -1.0273 1.180104062e-38
-2.6685 -0.4807 -1.0642 1.180104062e-38
3.0599 -0.912 -1.2531 1.180104062e-38
4.0332 -0.4512 -1.5928 1.180104062e-38
-2.5568 0.5793 -1.0289 1.180104062e-38
-2.491 0.335 -0.9865 1.180104062e-38
-2.7054 -0.613 -1.0887 1.180104062e-38
-2.7236 -0.8783 -1.1231 1.180104062e-38
2.7466 -2.2701 -1.3985 1.180104062e-38
2.6878 -1.8451 -1.2795 1.180104062e-38
2.8234 -1.2721 -1.2154 1.180104062e-38
3.1839 -0.7963 -1.2881 1.180104062e-38
-3.4629 0.9486 -1.4092 1.180104062e-38
-2.5634 0.4618 -1.0222 1.180104062e-38
-2.5289 0 -1.0414 1.180104062e-38
-2.5656 -0.2292 -1.0607 1.180104062e-38
-2.641 -0.7234 -1.1276 1.180104062e-38
-2.6436 -0.9845 -1.1616 1.180104062e-38
2.7216 -2.0525 -1.4037 1.180104062e-38
2.7232 -1.696 -1.321 1.180104062e-38
2.7898 -1.4098 -1.2871 1.180104062e-38
3.3748 -0.6859 -1.4181 1.180104062e-38
-2.4504 0.3296 -1.0181 1.180104062e-38
-2.5068 0.1118 -1.0333 1.180104062e-38
-2.63 -0.5959 -1.1104 1.180104062e-38
-2.6464 -0.8534 -1.145 1.180104062e-38
3.2097 -0.8028 -1.3624 1.180104062e-38
3.616 -0.5686 -1.5073 1.180104062e-38
-3.5071 0.9607 -1.4974 1.180104062e-38
-2.4793 0.2215 -1.025 1.180104062e-38
-2.5221 -0.2254 -1.0923 1.180104062e-38
-2.5688 -0.9566 -1.1824 1.180104062e-38
2.9267 -1.1648 -1.3588 1.180104062e-38
-2.5715 0.5826 -1.1373 1.180104062e-38
-2.5076 -0.1118 -1.0828 1.180104062e-38
-2.5276 -0.34 -1.1001 1.180104062e-38
-2.5665 -0.8276 -1.1632 1.180104062e-38
2.8176 -2.3288 -1.5768 1.180104062e-38
2.736 -1.8781 -1.4315 1.180104062e-38
2.8617 -1.2894 -1.3539 1.180104062e-38
3.0098 -1.0451 -1.3744 1.180104062e-38
3.2364 -0.8095 -1.4391 1.180104062e-38
-2.4387 0.2179 -1.0561 1.180104062e-38
-2.4481 -0.2188 -1.109 1.180104062e-38
-2.4592 -0.4431 -1.1275 1.180104062e-38
-2.489 -0.9269 -1.1984 1.180104062e-38
2.7646 -1.7218 -1.4696 1.180104062e-38
3.1347 -0.9343 -1.4759 1.180104062e-38
-2.3567 0.317 -1.073 1.180104062e-38
-2.4105 0.1075 -1.0887 1.180104062e-38
-2.4395 -0.1088 -1.1018 1.180104062e-38
-2.4671 -0.559 -1.1414 1.180104062e-38
2.9237 -2.4165 -1.7115 1.180104062e-38
2.7894 -1.5693 -1.4441 1.180104062e-38
2.8817 -1.2984 -1.4262 1.180104062e-38
3.845 -0.6046 -1.7563 1.180104062e-38
-2.4063 0.4335 -1.1032 1.180104062e-38
-2.4034 -0.895 -1.2089 1.180104062e-38
2.7907 -1.7381 -1.5498 1.180104062e-38
2.8489 -1.4396 -1.5046 1.180104062e-38
3.1703 -0.9449 -1.5594 1.180104062e-38
-2.3945 -0.7721 -1.1859 1.180104062e-38
3.1126 -2.5726 -1.9035 1.180104062e-38
2.8109 -1.5814 -1.5203 1.180104062e-38
-2.3515 0.4236 -1.1263 1.180104062e-38
-2.3666 -1.1304 -1.29 1.180104062e-38
2.9355 -2.2137 -1.8084 1.180104062e-38
2.8872 -1.459 -1.5911 1.180104062e-38
3.2263 -0.9615 -1.6558 1.180104062e-38
-2.5042 0.5674 -1.2629 1.180104062e-38
-2.2513 0.3028 -1.1173 1.180104062e-38
-2.3022 -0.1027 -1.1335 1.180104062e-38
-2.3375 -0.9912 -1.2488 1.180104062e-38
2.8548 -1.6061 -1.6111 1.180104062e-38
3.39 -0.8479 -1.7187 1.180104062e-38
-2.3061 0.4155 -1.1525 1.180104062e-38
-2.2658 0.2025 -1.1189 1.180104062e-38
-2.2443 -0.2006 -1.1552 1.180104062e-38
-2.2416 -0.4039 -1.1677 1.180104062e-38
-2.2481 -0.6158 -1.195 1.180104062e-38
-2.2721 -1.0853 -1.2909 1.180104062e-38
3.1358 -2.3648 -2.0136 1.180104062e-38
3.0586 -1.2173 -1.6877 1.180104062e-38
3.2853 -0.9791 -1.7575 1.180104062e-38
-2.4709 0.5598 -1.2989 1.180104062e-38
-2.2319 0.0995 -1.1453 1.180104062e-38
-2.2446 -0.3019 -1.1611 1.180104062e-38
2.9166 -2.0022 -1.8137 1.180104062e-38
2.902 -1.6326 -1.7071 1.180104062e-38
2.9856 -1.3452 -1.6788 1.180104062e-38
3.1516 -1.0943 -1.7104 1.180104062e-38
-2.1765 0 -1.1619 1.180104062e-38
-2.1811 -0.1949 -1.169 1.180104062e-38
-2.1873 -0.5992 -1.2107 1.180104062e-38
-2.1932 -0.8168 -1.2494 1.180104062e-38
-2.2033 -1.0524 -1.3035 1.180104062e-38
3.1084 -1.2371 -1.786 1.180104062e-38
3.3651 -1.0029 -1.8745 1.180104062e-38
-2.1681 0.2916 -1.1679 1.180104062e-38
-2.1735 0.0969 -1.1615 1.180104062e-38
-2.1765 -0.0971 -1.1631 1.180104062e-38
-2.181 -0.2933 -1.1748 1.180104062e-38
-2.1806 -0.4941 -1.1936 1.180104062e-38
-2.1912 -0.7066 -1.2291 1.180104062e-38
-2.2447 -1.1978 -1.3583 1.180104062e-38
3.0525 -2.0954 -1.9765 1.180104062e-38
3.0328 -1.3665 -1.7758 1.180104062e-38
3.2036 -1.1124 -1.8104 1.180104062e-38
-2.2057 0.3974 -1.1965 1.180104062e-38
-2.1547 0.1925 -1.1549 1.180104062e-38
-2.1192 0 -1.177 1.180104062e-38
-2.1202 -0.1895 -1.1823 1.180104062e-38
-2.1288 -0.5831 -1.2259 1.180104062e-38
-2.1317 -0.7938 -1.2634 1.180104062e-38
3.0857 -1.9218 -2.019 1.180104062e-38
3.1954 -1.2717 -1.9101 1.180104062e-38
3.5189 -1.0487 -2.0393 1.180104062e-38
-2.404 0.5447 -1.369 1.180104062e-38
-2.1264 0.286 -1.1916 1.180104062e-38
-2.1192 -0.0945 -1.1782 1.180104062e-38
-2.1237 -0.2856 -1.1901 1.180104062e-38
3.1104 -1.4015 -1.8948 1.180104062e-38
3.318 -1.1521 -1.9508 1.180104062e-38
-2.1578 0.3887 -1.2177 1.180104062e-38
-2.1018 0.1878 -1.172 1.180104062e-38
-2.0638 0 -1.1916 1.180104062e-38
-2.0727 -0.3734 -1.216 1.180104062e-38
-2.0734 -0.7721 -1.2774 1.180104062e-38
-2.074 -0.9907 -1.327 1.180104062e-38
3.1645 -1.5991 -2.0471 1.180104062e-38
3.3085 -1.3168 -2.0559 1.180104062e-38
-2.371 0.5372 -1.4036 1.180104062e-38
-2.0782 0.2795 -1.2107 1.180104062e-38
-2.0729 -0.879 -1.2999 1.180104062e-38
-2.0714 -1.1053 -1.3555 1.180104062e-38
3.161 -1.7783 -2.094 1.180104062e-38
-2.0505 0.1832 -1.1886 1.180104062e-38
