# .PCD v0.7 - Point Cloud Data file format
VERSION 0.7
FIELDS x y z rgb
SIZE 4 4 4 4
TYPE F F F F
COUNT 1 1 1 1
WIDTH 434
HEIGHT 1
VIEWPOINT 0 0 0 1 0 0 0
POINTS 434
DATA ascii
0.6524 3.8677 2.2646 1.180104062e-38
-8.801 6.3346 6.2606 1.180104062e-38
0.6541 3.878 2.1843 1.180104062e-38
-9.8404 6.4373 6.5309 1.180104062e-38
0.4804 3.901 2.183 1.180104062e-38
0.6609 3.9183 2.0372 1.180104062e-38
-11.2324 6.6529 6.6928 1.180104062e-38
0.6645 3.9393 1.9649 1.180104062e-38
0.4802 3.8993 1.9324 1.180104062e-38
0.6681 3.9609 1.8934 1.180104062e-38
0.4805 3.9014 1.8529 1.180104062e-38
0.2552 -7.6335 3.4463 1.180104062e-38
0.4808 3.9036 1.7747 1.180104062e-38
0.2647 -7.9166 3.4168 1.180104062e-38
0.481 3.9057 1.6975 1.180104062e-38
0.4818 3.9122 1.6231 1.180104062e-38
-5.0524 -2.9925 2.3047 1.180104062e-38
0.483 3.9213 1.5506 1.180104062e-38
-5.0169 -2.6771 2.1234 1.180104062e-38
-4.6665 -3.0527 2.0822 1.180104062e-38
-4.6643 -2.7627 1.9222 1.180104062e-38
-4.4744 -3.2205 1.9548 1.180104062e-38
-4.8577 -2.5921 1.9524 1.180104062e-38
-4.4866 -3.5431 2.0271 1.180104062e-38
0.4852 3.9395 1.4074 1.180104062e-38
-5.0095 -2.3928 1.8652 1.180104062e-38
-4.583 -2.7145 1.7896 1.180104062e-38
-4.3773 -3.1506 1.812 1.180104062e-38
-4.5089 -3.899 2.0028 1.180104062e-38
-4.7558 -2.5378 1.8111 1.180104062e-38
0.4863 3.9484 1.3366 1.180104062e-38
0.3115 3.9862 1.2698 1.180104062e-38
-4.6737 -2.494 1.6824 1.180104062e-38
-4.391 -2.8724 1.6664 1.180104062e-38
-4.2762 -3.3769 1.7305 1.180104062e-38
0.4874 3.9573 1.2663 1.180104062e-38
-4.842 -2.3128 1.6065 1.180104062e-38
-4.4629 -2.6434 1.5529 1.180104062e-38
-4.2335 -3.6609 1.6756 1.180104062e-38
0.3109 3.9787 1.1948 1.180104062e-38
-5.1446 -2.1815 1.6729 1.180104062e-38
-4.628 -2.4696 1.5704 1.180104062e-38
-4.211 -3.3254 1.6064 1.180104062e-38
-5.5383 -2.0625 1.6628 1.180104062e-38
-4.7845 -2.2854 1.4918 1.180104062e-38
-4.4257 -2.6214 1.4472 1.180104062e-38
-4.2201 -3.0374 1.4629 1.180104062e-38
0.3108 3.9776 1.1225 1.180104062e-38
-5.0615 -2.1463 1.5468 1.180104062e-38
-4.5835 -2.4458 1.4617 1.180104062e-38
-4.3067 -2.8174 1.448 1.180104062e-38
-4.1637 -3.288 1.4927 1.180104062e-38
-4.3894 -2.5998 1.3443 1.180104062e-38
-4.1875 -3.014 1.3595 1.180104062e-38
0.311 3.9796 1.0518 1.180104062e-38
-5.002 -2.121 1.4316 1.180104062e-38
-4.2714 -2.7942 1.345 1.180104062e-38
-4.1567 -2.9918 1.2589 1.180104062e-38
0.3111 3.9815 0.9816 1.180104062e-38
-4.959 -2.1028 1.324 1.180104062e-38
-4.525 -2.4146 1.2607 1.180104062e-38
0.4961 4.0277 0.9975 1.180104062e-38
-4.1437 -2.9825 1.1653 1.180104062e-38
-4.0479 -3.5004 1.2214 1.180104062e-38
-4.9191 -2.0859 1.2195 1.180104062e-38
-4.5044 -2.4036 1.1653 1.180104062e-38
-4.2317 -2.7682 1.1542 1.180104062e-38
-4.0775 -3.22 1.1859 1.180104062e-38
-4.0986 -3.8764 1.2876 1.180104062e-38
0.4994 4.055 0.9325 1.180104062e-38
-4.6568 -2.2244 1.088 1.180104062e-38
-4.3404 -2.5708 1.0635 1.180104062e-38
-4.1308 -2.9732 1.073 1.180104062e-38
-4.3923 -4.5416 1.332 1.180104062e-38
0.3114 3.9854 0.8428 1.180104062e-38
-4.4842 -2.3928 1.0715 1.180104062e-38
-4.2182 -2.7594 1.0626 1.180104062e-38
-4.0661 -3.2109 1.0923 1.180104062e-38
-4.0565 -3.8366 1.1771 1.180104062e-38
-4.0208 -3.4769 1.0287 1.180104062e-38
-4.2528 -4.3974 1.1838 1.180104062e-38
-5.8188 -1.8763 1.1831 1.180104062e-38
-4.8859 -2.0718 1.027 1.180104062e-38
-4.2053 -2.751 0.9725 1.180104062e-38
-4.0547 -3.202 0.9998 1.180104062e-38
-4.0425 -3.8234 1.0768 1.180104062e-38
-4.6474 -2.2199 0.9082 1.180104062e-38
-4.1108 -2.9588 0.8931 1.180104062e-38
-5.7461 -1.8529 1.0646 1.180104062e-38
-4.878 -2.0685 0.9342 1.180104062e-38
-4.4719 -2.3863 0.8937 1.180104062e-38
-4.2051 -2.7508 0.886 1.180104062e-38
-4.0435 -3.1931 0.9085 1.180104062e-38
-4.03 -3.8115 0.9781 1.180104062e-38
-5.1721 -1.9261 0.8788 1.180104062e-38
-4.3284 -2.5637 0.8011 1.180104062e-38
-4.0023 -3.461 0.8426 1.180104062e-38
-4.8701 -2.0651 0.8423 1.180104062e-38
-4.4687 -2.3846 0.8066 1.180104062e-38
-4.2071 -2.7522 0.8005 1.180104062e-38
-4.0447 -3.1941 0.8207 1.180104062e-38
-4.0176 -3.7998 0.8806 1.180104062e-38
-4.3281 -2.5636 0.7155 1.180104062e-38
-4.0089 -3.4666 0.7538 1.180104062e-38
-4.1559 -4.2972 0.8503 1.180104062e-38
0.3132 4.0075 0.5718 1.180104062e-38
-4.8704 -2.0652 0.7524 1.180104062e-38
-4.4656 -2.3829 0.7199 1.180104062e-38
-4.2091 -2.7535 0.7154 1.180104062e-38
-4.0167 -3.7989 0.7864 1.180104062e-38
0.1383 4.1369 0.5888 1.180104062e-38
-5.1864 -1.9314 0.6935 1.180104062e-38
-4.0154 -3.4723 0.6652 1.180104062e-38
-4.1609 -4.3023 0.75 1.180104062e-38
-5.6817 -1.8321 0.7481 1.180104062e-38
-4.882 -2.0701 0.6645 1.180104062e-38
-4.0529 -3.2005 0.6472 1.180104062e-38
-4.0266 -3.8083 0.6945 1.180104062e-38
0.1369 4.0947 0.5134 1.180104062e-38
-5.1968 -1.9353 0.6015 1.180104062e-38
-4.3446 -2.5734 0.5477 1.180104062e-38
-4.1228 -2.9674 0.551 1.180104062e-38
-4.1776 -4.3196 0.6518 1.180104062e-38
0.3145 4.0243 0.4378 1.180104062e-38
-4.8937 -2.0751 0.5766 1.180104062e-38
-4.0571 -3.2038 0.5607 1.180104062e-38
-4.0366 -3.8178 0.6026 1.180104062e-38
-4.9054 -2.0801 0.4885 1.180104062e-38
-4.4966 -2.3995 0.4673 1.180104062e-38
0.1364 4.0801 0.3743 1.180104062e-38
-5.2462 -1.9537 0.4195 1.180104062e-38
-4.694 -2.2421 0.3898 1.180104062e-38
-4.1559 -2.9912 0.3837 1.180104062e-38
-4.2437 -4.388 0.4575 1.180104062e-38
-5.808 -1.8728 0.4573 1.180104062e-38
-4.2552 -2.7836 0.3811 1.180104062e-38
-4.0913 -3.2309 0.3907 1.180104062e-38
-4.0726 -3.8519 0.4201 1.180104062e-38
0.1362 4.0729 0.3054 1.180104062e-38
-5.2848 -1.9681 0.3285 1.180104062e-38
-4.7244 -2.2567 0.3049 1.180104062e-38
-4.1745 -3.0046 0.2996 1.180104062e-38
-4.0798 -3.5279 0.3141 1.180104062e-38
0.3169 4.0556 0.2369 1.180104062e-38
-5.8883 -1.8987 0.3603 1.180104062e-38
-4.5345 -2.4197 0.2994 1.180104062e-38
-4.2711 -2.794 0.2973 1.180104062e-38
-4.11 -3.2456 0.305 1.180104062e-38
-4.1041 -3.8816 0.329 1.180104062e-38
0.1359 4.0657 0.2369 1.180104062e-38
-5.3238 -1.9826 0.2362 1.180104062e-38
-4.7551 -2.2713 0.2191 1.180104062e-38
-4.1971 -3.0209 0.215 1.180104062e-38
-4.1033 -3.5482 0.2256 1.180104062e-38
-4.5648 -2.4359 0.2151 1.180104062e-38
-4.1287 -3.2604 0.2187 1.180104062e-38
-4.136 -3.9118 0.2367 1.180104062e-38
0.1358 4.0619 0.169 1.180104062e-38
-4.7862 -2.2862 0.1323 1.180104062e-38
-4.4467 -2.6338 0.1289 1.180104062e-38
-4.2318 -3.0459 0.13 1.180104062e-38
-4.1352 -3.5758 0.1363 1.180104062e-38
0.3197 4.0912 0.1023 1.180104062e-38
-5.0275 -2.1318 0.1362 1.180104062e-38
-4.1609 -3.2858 0.1322 1.180104062e-38
-4.8253 -2.3049 0.0444 1.180104062e-38
-4.4766 -2.6515 0.0432 1.180104062e-38
0.3211 4.1092 0.0343 1.180104062e-38
-5.0857 -2.1565 0.0459 1.180104062e-38
-4.6267 -2.4689 0.0436 1.180104062e-38
-4.3602 -2.8523 0.0433 1.180104062e-38
0.136 4.0657 0.0338 1.180104062e-38
-4.8795 -2.3307 -0.0449 1.180104062e-38
-4.5137 -2.6735 -0.0436 1.180104062e-38
-4.2318 -3.6593 -0.0465 1.180104062e-38
0.3225 4.1276 -0.0344 1.180104062e-38
-4.2435 -3.351 -0.0449 1.180104062e-38
-4.3304 -4.0957 -0.0495 1.180104062e-38
-5.7102 -2.1265 -0.152 1.180104062e-38
-4.9349 -2.3572 -0.1364 1.180104062e-38
-4.3506 -3.1314 -0.1337 1.180104062e-38
-4.2886 -3.7085 -0.1414 1.180104062e-38
-5.3879 13.9893 -0.3739 1.180104062e-38
-5.2108 -2.2096 -0.1411 1.180104062e-38
-4.4427 -2.9063 -0.1324 1.180104062e-38
0.1361 4.0695 -0.1015 1.180104062e-38
-5.8044 13.275 -0.3613 1.180104062e-38
-4.6157 -2.7339 -0.2231 1.180104062e-38
-4.378 -3.7858 -0.2407 1.180104062e-38
-4.0276 14.0855 -0.6091 1.180104062e-38
-5.3115 -2.2523 -0.2399 1.180104062e-38
-4.4956 -2.9409 -0.2234 1.180104062e-38
-4.3607 -3.4436 -0.231 1.180104062e-38
-4.6719 -4.4187 -0.2674 1.180104062e-38
-4.4846 13.3947 -0.5873 1.180104062e-38
-4.6764 -2.7698 -0.3166 1.180104062e-38
-4.4682 -3.216 -0.3206 1.180104062e-38
-4.4727 -3.8677 -0.3444 1.180104062e-38
-3.6763 12.8569 -0.7788 1.180104062e-38
-5.4345 -2.3045 -0.3438 1.180104062e-38
-4.8554 -2.5909 -0.3205 1.180104062e-38
-4.5499 -2.9764 -0.3167 1.180104062e-38
-5.1863 -2.4773 -0.4307 1.180104062e-38
-4.7634 -2.8213 -0.4149 1.180104062e-38
-4.5446 -3.271 -0.4196 1.180104062e-38
-4.6399 -4.0123 -0.4597 1.180104062e-38
-4.6302 -3.0289 -0.4146 1.180104062e-38
-4.5172 -3.5672 -0.4313 1.180104062e-38
0.1364 4.0798 -0.3059 1.180104062e-38
-4.448 0 -0.4078 1.180104062e-38
-4.2496 0.5715 -0.3931 1.180104062e-38
-4.0002 0.1784 -0.3671 1.180104062e-38
-5.0468 -2.6931 -0.5244 1.180104062e-38
-4.7267 -3.0921 -0.5178 1.180104062e-38
-4.664 -3.6831 -0.5448 1.180104062e-38
-4.908 0.8842 -0.4572 1.180104062e-38
-4.7885 -3.4466 -0.6399 1.180104062e-38
-4.7637 1.0793 -0.5298 1.180104062e-38
-3.7517 0.5046 -0.4106 1.180104062e-38
-3.9258 -0.1751 -0.4262 1.180104062e-38
-4.8525 -3.1744 -0.629 1.180104062e-38
-4.8899 -3.8615 -0.6758 1.180104062e-38
0.137 4.0971 -0.4446 1.180104062e-38
-3.7414 0.3343 -0.4074 1.180104062e-38
-3.5692 0 -0.4473 1.180104062e-38
-5.1701 -3.0623 -0.753 1.180104062e-38
-5.0259 -3.6175 -0.776 1.180104062e-38
-0.0466 4.1823 -0.5241 1.180104062e-38
-3.5348 0.1576 -0.4434 1.180104062e-38
-3.5366 0.316 -0.445 1.180104062e-38
-3.3944 0 -0.4828 1.180104062e-38
-0.0465 4.1746 -0.5938 1.180104062e-38
-3.3671 0.4528 -0.4832 1.180104062e-38
0.1376 4.1145 -0.5856 1.180104062e-38
-3.6717 0.6615 -0.5306 1.180104062e-38
-3.3525 0.2996 -0.4787 1.180104062e-38
-3.3916 -0.3031 -0.5422 1.180104062e-38
-0.0464 4.167 -0.6636 1.180104062e-38
-3.9744 0.9005 -0.6489 1.180104062e-38
-3.4817 -0.4682 -0.5594 1.180104062e-38
-3.55 0.6396 -0.5744 1.180104062e-38
-3.2454 0.29 -0.5188 1.180104062e-38
-3.8238 0.8663 -0.6913 1.180104062e-38
-3.1644 0.1411 -0.5585 1.180104062e-38
-3.2276 -0.1439 -0.5697 1.180104062e-38
-4.2904 1.1753 -0.7844 1.180104062e-38
-3.4371 0.6192 -0.6158 1.180104062e-38
-3.1509 0.2816 -0.5578 1.180104062e-38
-3.1014 0 -0.6002 1.180104062e-38
-3.3117 -0.5966 -0.6512 1.180104062e-38
-0.0463 4.1515 -0.8034 1.180104062e-38
-3.1048 0.4176 -0.6062 1.180104062e-38
-3.2339 -0.4349 -0.6315 1.180104062e-38
0.1389 4.1536 -0.8042 1.180104062e-38
-4.1641 1.1407 -0.8355 1.180104062e-38
-3.0211 0 -0.6369 1.180104062e-38
-3.2303 -0.582 -0.692 1.180104062e-38
-0.0462 4.151 -0.8752 1.180104062e-38
-3.552 0.8048 -0.7678 1.180104062e-38
-2.994 0.1335 -0.6318 1.180104062e-38
-3.1545 -0.4242 -0.671 1.180104062e-38
-4.0001 1.0957 -0.8744 1.180104062e-38
-3.2435 0.5843 -0.6948 1.180104062e-38
-2.981 0.2664 -0.631 1.180104062e-38
-3.043 -0.2719 -0.6973 1.180104062e-38
-0.0463 4.1531 -0.948 1.180104062e-38
-3.4289 0.7769 -0.8025 1.180104062e-38
-2.9625 0.3984 -0.6823 1.180104062e-38
-2.9453 0.1313 -0.6729 1.180104062e-38
-2.9994 -0.1337 -0.6853 1.180104062e-38
-3.0959 -0.4163 -0.713 1.180104062e-38
0.1402 4.1925 -0.9574 1.180104062e-38
-2.9278 0.2616 -0.6709 1.180104062e-38
-2.9221 -0 -0.7182 1.180104062e-38
-3.1004 -0.5585 -0.7743 1.180104062e-38
-0.0463 4.1551 -1.0214 1.180104062e-38
-3.1571 -0.7153 -0.7957 1.180104062e-38
0.1408 4.2124 -1.036 1.180104062e-38
-3.8036 1.0419 -0.9694 1.180104062e-38
-2.8744 0 -0.7574 1.180104062e-38
-0.0463 4.1572 -1.0955 1.180104062e-38
-3.2212 0.7298 -0.8703 1.180104062e-38
-2.8515 0.1272 -0.7521 1.180104062e-38
-3.0953 -0.7013 -0.8363 1.180104062e-38
0.1428 4.2718 -1.1262 1.180104062e-38
-3.7365 1.0235 -1.0208 1.180104062e-38
-2.8819 -0.2575 -0.8141 1.180104062e-38
-2.9786 -0.5366 -0.8515 1.180104062e-38
-0.0463 4.1594 -1.1703 1.180104062e-38
-2.9298 -0.394 -0.8317 1.180104062e-38
-3.0353 -0.6877 -0.8756 1.180104062e-38
-3.2049 -1.0334 -0.9474 1.180104062e-38
-2.9229 0.5266 -0.8356 1.180104062e-38
-2.7884 0.2492 -0.7877 1.180104062e-38
-0.0464 4.1615 -1.2459 1.180104062e-38
-3.0564 0.6925 -0.9382 1.180104062e-38
-2.7204 0.3658 -0.8218 1.180104062e-38
-2.7619 0.1231 -0.8277 1.180104062e-38
-2.8067 -0.1251 -0.8411 1.180104062e-38
-2.8771 -0.3869 -0.8691 1.180104062e-38
-2.8473 0.513 -0.8662 1.180104062e-38
-2.7412 0.245 -0.8239 1.180104062e-38
-2.7827 -0.2487 -0.8873 1.180104062e-38
-2.8694 -0.517 -0.9259 1.180104062e-38
-0.0464 4.1682 -1.3238 1.180104062e-38
-2.9791 0.675 -0.9701 1.180104062e-38
-2.6672 0.3587 -0.8547 1.180104062e-38
-2.7612 -0.1231 -0.8778 1.180104062e-38
-2.8254 -0.38 -0.9054 1.180104062e-38
-2.9205 -0.6617 -0.951 1.180104062e-38
-3.1071 -1.0019 -1.0368 1.180104062e-38
-2.7749 0.4999 -0.8954 1.180104062e-38
-2.8177 -0.5076 -0.9619 1.180104062e-38
-2.8971 -0.7936 -1.0092 1.180104062e-38
-0.0466 4.178 -1.4038 1.180104062e-38
-2.6762 0.1193 -0.9001 1.180104062e-38
-2.7751 -0.3732 -0.9408 1.180104062e-38
-2.7169 0.4895 -0.9275 1.180104062e-38
-2.6518 -0 -0.9403 1.180104062e-38
-2.6931 -0.2407 -0.9588 1.180104062e-38
-2.8417 -0.7784 -1.0448 1.180104062e-38
-2.5615 0.5804 -0.9313 1.180104062e-38
-2.5748 0.3463 -0.9212 1.180104062e-38
-2.726 -0.3666 -0.9753 1.180104062e-38
-2.8709 -0.9257 -1.0696 1.180104062e-38
-2.6624 0.4797 -0.9592 1.180104062e-38
-2.606 0.2329 -0.9277 1.180104062e-38
-2.6101 -0 -0.9746 1.180104062e-38
-2.6498 -0.2368 -0.9934 1.180104062e-38
-2.7171 -0.4895 -1.0309 1.180104062e-38
-2.7878 -0.7637 -1.0794 1.180104062e-38
-2.6781 -0.3602 -1.009 1.180104062e-38
-2.7556 -0.6244 -1.0551 1.180104062e-38
-2.8043 -0.9043 -1.1002 1.180104062e-38
-3.4441 0.9434 -1.3334 1.180104062e-38
-2.6096 0.4701 -0.9901 1.180104062e-38
-2.5629 0.229 -0.9608 1.180104062e-38
-2.5691 0 -1.0083 1.180104062e-38
-2.5568 0.5793 -1.0289 1.180104062e-38
-2.4911 0.335 -0.9865 1.180104062e-38
-2.7055 -0.613 -1.0887 1.180104062e-38
-2.7236 -0.8782 -1.1231 1.180104062e-38
-2.5634 0.4618 -1.0222 1.180104062e-38
-2.5655 -0.2292 -1.0607 1.180104062e-38
-2.641 -0.7234 -1.1276 1.180104062e-38
-0.047 4.2191 -1.7374 1.180104062e-38
-2.6388 0.5979 -1.1141 1.180104062e-38
-2.4504 0.3296 -1.0181 1.180104062e-38
-2.5479 -0.1136 -1.0502 1.180104062e-38
-2.5854 -0.3477 -1.0742 1.180104062e-38
-2.63 -0.5959 -1.1104 1.180104062e-38
-2.6464 -0.8533 -1.145 1.180104062e-38
-2.4893 0 -1.0738 1.180104062e-38
-2.5221 -0.2254 -1.0923 1.180104062e-38
-2.5507 -0.6987 -1.1408 1.180104062e-38
-2.5687 -0.9566 -1.1824 1.180104062e-38
-0.0472 4.2405 -1.8293 1.180104062e-38
-2.5715 0.5826 -1.1373 1.180104062e-38
-2.4106 0.3242 -1.0492 1.180104062e-38
-2.4654 0.1099 -1.0645 1.180104062e-38
-2.5076 -0.1118 -1.0828 1.180104062e-38
-2.5277 -0.34 -1.1001 1.180104062e-38
-2.5465 -0.577 -1.1263 1.180104062e-38
-2.5665 -0.8276 -1.1632 1.180104062e-38
-2.4719 0.4454 -1.0835 1.180104062e-38
-2.4281 0 -1.0956 1.180104062e-38
-2.4481 -0.2188 -1.109 1.180104062e-38
-2.4891 -0.9269 -1.1984 1.180104062e-38
-0.0475 4.2635 -1.9239 1.180104062e-38
-2.5488 0.5775 -1.1792 1.180104062e-38
-2.3567 0.317 -1.073 1.180104062e-38
-2.4395 -0.1088 -1.1018 1.180104062e-38
-2.4671 -0.559 -1.1414 1.180104062e-38
-2.4781 -0.7991 -1.1749 1.180104062e-38
-0.2366 4.2428 -1.9174 1.180104062e-38
-2.4063 0.4335 -1.1032 1.180104062e-38
-2.3848 0.2131 -1.0804 1.180104062e-38
-2.3773 -0.2124 -1.1251 1.180104062e-38
-2.3816 -0.4291 -1.1407 1.180104062e-38
-2.4034 -0.895 -1.2089 1.180104062e-38
-2.2973 0.309 -1.0926 1.180104062e-38
-2.3488 0.1047 -1.1083 1.180104062e-38
-2.3894 -0.5413 -1.1548 1.180104062e-38
-2.3945 -0.7721 -1.1859 1.180104062e-38
-2.4109 -1.0223 -1.2344 1.180104062e-38
-2.3082 -0.4158 -1.1536 1.180104062e-38
-2.3278 -0.8669 -1.2217 1.180104062e-38
-2.5041 0.5674 -1.2629 1.180104062e-38
-2.2513 0.3028 -1.1173 1.180104062e-38
-2.2893 0.1021 -1.1271 1.180104062e-38
-2.3108 -0.3108 -1.1468 1.180104062e-38
-2.3142 -0.5243 -1.1671 1.180104062e-38
-2.3173 -0.7472 -1.1976 1.180104062e-38
-2.3375 -0.9912 -1.2488 1.180104062e-38
-2.3061 0.4155 -1.1525 1.180104062e-38
-2.2443 -0.2006 -1.1552 1.180104062e-38
-2.2416 -0.4038 -1.1677 1.180104062e-38
-2.2319 0.0995 -1.1453 1.180104062e-38
-2.2446 -0.3019 -1.1611 1.180104062e-38
-2.253 -0.7265 -1.2136 1.180104062e-38
-2.2093 0.1974 -1.1372 1.180104062e-38
-2.1765 0 -1.1619 1.180104062e-38
-2.1811 -0.1949 -1.169 1.180104062e-38
-2.1932 -0.8167 -1.2494 1.180104062e-38
-2.2033 -1.0524 -1.3035 1.180104062e-38
-2.1735 0.0969 -1.1615 1.180104062e-38
-2.1765 -0.097 -1.1631 1.180104062e-38
-2.2448 -1.1978 -1.3583 1.180104062e-38
-2.2057 0.3974 -1.1965 1.180104062e-38
-2.1547 0.1925 -1.1549 1.180104062e-38
-2.1192 0 -1.177 1.180104062e-38
-2.1202 -0.1895 -1.1823 1.180104062e-38
-2.1317 -0.7938 -1.2634 1.180104062e-38
-2.1374 -1.0209 -1.3156 1.180104062e-38
-2.1264 0.286 -1.1916 1.180104062e-38
-2.1163 0.0944 -1.1766 1.180104062e-38
-2.1192 -0.0945 -1.1782 1.180104062e-38
-2.1237 -0.2856 -1.1901 1.180104062e-38
-2.1317 -0.6874 -1.244 1.180104062e-38
-2.1353 -0.9054 -1.2881 1.180104062e-38
-2.1463 -1.1453 -1.3512 1.180104062e-38
-2.1018 0.1878 -1.172 1.180104062e-38
-2.0684 -0.1849 -1.199 1.180104062e-38
-2.072 -0.5676 -1.2403 1.180104062e-38
-2.0734 -0.7721 -1.2774 1.180104062e-38
-2.074 -0.9907 -1.327 1.180104062e-38
-2.371 0.5372 -1.4036 1.180104062e-38
-2.0782 0.2795 -1.2106 1.180104062e-38
-2.0611 0.0919 -1.1911 1.180104062e-38
-2.0705 -0.4691 -1.2257 1.180104062e-38
-2.0729 -0.879 -1.2999 1.180104062e-38
-2.0714 -1.1054 -1.3555 1.180104062e-38
-2.1344 0.3845 -1.2521 1.180104062e-38
-2.0505 0.1832 -1.1886 1.180104062e-38
