# .PCD v0.7 - Point Cloud Data file format
VERSION 0.7
FIELDS x y z
SIZE 4 4 4
TYPE F F F
COUNT 1 1 1
WIDTH 98
HEIGHT 1
VIEWPOINT 0 0 0 1 0 0 0
POINTS 98
DATA ascii
5.6447001 -6.1030002 1.6088001
6.5261002 -5.9025002 1.7028
5.4453001 -6.4408002 1.6322
5.1856999 -6.7193999 1.4966
5.4938002 -5.9397998 1.4266
6.2177 -5.6236 1.4782
5.2867999 -6.2533002 1.4439
5.7979999 -5.7336998 1.4378
5.4014001 -5.8400002 1.2667
5.1849999 -6.1328001 1.2788
5.3162999 -5.7480001 1.1137
4.9025998 -6.9741001 1.2125
5.0964999 -6.0281 1.1228
4.8741999 -6.3157001 0.99980003
5.2644 -5.6918001 0.9716
4.7905002 -6.8146 1.0439
5.5384998 -5.4770999 0.97610003
4.8165002 -6.2410002 0.85509998
5.2142 -5.6374998 0.83289999
5.4830999 -5.4222999 0.83639997
4.7147002 -7.3853998 0.80330002
4.7746 -6.1866002 0.71640003
5.1760001 -5.5962 0.69880003
5.7631998 -5.2125001 0.71240002
4.6539998 -6.6204 0.74190003
4.9547 -5.8604002 0.70359999
5.4411001 -5.3807998 0.70160002
6.1771998 -5.1055999 0.73470002
4.6231999 -7.2421999 0.64389998
4.7474999 -6.1515002 0.58230001
5.7315001 -5.1838002 0.57910001
6.7216001 -5.0689998 0.63090003
4.6167002 -6.5674 0.60159999
6.1315999 -5.0679002 0.59609997
4.5851998 -6.5226002 0.46439999
4.9029002 -5.7992001 0.44229999
5.6808 -5.138 0.31850001
6.6025 -4.9791999 0.34380001
4.5646 -6.4931998 0.33000001
4.8877001 -5.7811999 0.31479999
5.3684001 -5.309 0.31389999
6.0646 -5.0124998 0.32710001
5.099 -5.5128999 0.1873
6.5816998 -4.9635 0.20559999
4.5551 -6.4797001 0.19750001
6.0525999 -5.0026002 0.19580001
4.4952998 -7.0416999 0.069399998
4.6870999 -6.0732999 0.0638
5.0906 -5.5039001 0.0623
6.5609999 -4.9478998 0.068300001
4.8713999 -5.7620001 0.062700003
4.4952002 -7.0416002 -0.069399998
4.6870999 -6.0732002 -0.0638
5.0906 -5.5039001 -0.0623
5.3506999 -5.2915001 -0.0625
5.0988998 -5.5128999 -0.1873
6.5815001 -4.9633002 -0.20559999
4.5549998 -6.4796 -0.19750001
5.3594999 -5.3000998 -0.18799999
6.0524998 -5.0025001 -0.19580001
4.7038002 -6.0949998 -0.32010001
5.1072001 -5.5219002 -0.3127
4.5644002 -6.493 -0.33000001
4.7205 -6.1164999 -0.44999999
5.1223998 -5.5383 -0.43939999
6.6532998 -5.0174999 -0.48539999
4.585 -6.5222001 -0.46430001
4.9026999 -5.7989001 -0.44229999
5.1489 -5.5668998 -0.56830001
6.7209001 -5.0685 -0.63080001
4.9284 -5.8292999 -0.57200003
5.4124999 -5.3525 -0.57050002
6.1311998 -5.0675998 -0.59609997
4.7742 -6.1862001 -0.71640003
5.7628002 -5.2122002 -0.71240002
4.9544001 -5.8600998 -0.70349997
5.4408002 -5.3804998 -0.7015
5.2136998 -5.6370001 -0.83289999
6.9836998 -5.2666998 -0.94880003
4.9921999 -5.9047999 -0.8387
6.2529998 -5.1683002 -0.87989998
4.8736 -6.3148999 -0.99959999
5.2638998 -5.6911998 -0.97149998
4.7898002 -6.8136001 -1.0437
5.5379 -5.4766002 -0.97600001
4.9419999 -6.4036002 -1.1505001
5.3155999 -5.7472 -1.1135
5.9569001 -5.3877001 -1.1424
4.901 -6.9717999 -1.2122
5.0956998 -6.0272002 -1.1226
6.4583998 -5.3379998 -1.1918
5.0419998 -6.5331001 -1.3141
6.0707998 -5.4906998 -1.3034
5.1841002 -6.1318002 -1.2786
5.6907001 -5.6276002 -1.2744
5.1838002 -6.7168002 -1.4960001
6.2157998 -5.6219001 -1.4778
5.7965002 -5.7322998 -1.4375
