# .PCD v0.7 - Point Cloud Data file format
VERSION 0.7
FIELDS x y z
SIZE 4 4 4
TYPE F F F
COUNT 1 1 1
WIDTH 93
HEIGHT 1
VIEWPOINT 0 0 0 1 0 0 0
POINTS 93
DATA ascii
6.3915 -6.3207002 1.7395
5.9818001 -6.4674001 1.5534
6.4794998 -5.8604002 1.5405
6.0187998 -7.1191001 1.6438
6.3225999 -5.7185001 1.3575
5.7357001 -6.7842002 1.4146
6.0376 -5.9706998 1.3521
5.6032 -6.6275001 1.2344
5.9422002 -5.8764 1.1887
6.6009998 -5.4559002 1.2181
6.1423001 -5.5553002 1.0379
6.9960999 -5.276 1.0980999
5.8676 -5.8025999 1.0341001
5.5974998 -6.052 0.89420003
6.0830998 -5.5018001 0.8897
5.8116002 -5.7470999 0.8865
6.4249001 -5.3104 0.9041
5.5446 -5.9947 0.74860001
6.0288 -5.4527998 0.74519998
5.3836002 -6.3677001 0.76450002
7.5345998 -5.1722002 0.83780003
5.5142002 -5.9619002 0.60860002
5.3502998 -6.3283 0.62099999
7.4050002 -5.0833001 0.67309999
5.4842 -5.9295001 0.47040001
5.9661002 -5.3959999 0.46849999
5.3175001 -6.2895999 0.4797
5.1894002 -6.7241001 0.35319999
5.4629002 -5.9064002 0.33450001
5.9440999 -5.3761001 0.33320001
6.6686001 -5.0289998 0.34729999
5.2930002 -6.2606001 0.3409
5.6803999 -5.6174002 0.33219999
5.177 -6.7080002 0.2113
5.4534001 -5.8961 0.20029999
6.6550999 -5.0187998 0.2079
5.2825999 -6.2483001 0.2041
5.671 -5.6082001 0.1989
6.2533002 -5.1684999 0.2023
7.2293 -4.9626002 0.21870001
6.6416001 -5.0086999 0.0691
5.2723999 -6.2361999 0.067900002
5.6616998 -5.599 0.066200003
6.2421999 -5.1592999 0.067299999
7.2047 -4.9457998 0.0726
5.4439001 -5.8859 -0.066600002
5.9243999 -5.3583002 -0.066399999
6.6413999 -5.0085001 -0.0691
5.2722998 -6.2361002 -0.067900002
5.6616998 -5.5988998 -0.066200003
5.4533 -5.8959999 -0.20029999
5.9341002 -5.3670998 -0.19949999
6.6549001 -5.0187001 -0.2079
7.2290001 -4.9625001 -0.21870001
5.4626999 -5.9061999 -0.33450001
5.9439001 -5.3759999 -0.33320001
6.6683998 -5.0289001 -0.34729999
5.2927999 -6.2603002 -0.3409
5.6802001 -5.6173 -0.33219999
6.2642002 -5.1774998 -0.33790001
7.2537999 -4.9794998 -0.36579999
5.2210999 -6.7652001 -0.49770001
5.9657998 -5.3957 -0.46849999
5.3172002 -6.2891998 -0.4797
5.7007999 -5.6375999 -0.46700001
6.2898002 -5.1985998 -0.47530001
7.3235002 -5.0272999 -0.51740003
5.5138001 -5.9615002 -0.6085
5.9969001 -5.4238 -0.60589999
5.7301998 -5.6668 -0.60390002
6.3249002 -5.2277002 -0.61489999
7.4040999 -5.0826998 -0.67299998
5.3074999 -6.8771 -0.79640001
6.7954001 -5.1245999 -0.78030002
5.3831 -6.3670998 -0.76440001
5.5969 -6.0511999 -0.89410001
6.8934999 -5.1987 -0.93650001
5.4442 -6.4394002 -0.91460001
5.6539001 -6.1128998 -1.0434999
6.1415 -5.5545998 -1.0377001
5.8669 -5.8018999 -1.034
6.4917002 -5.3655 -1.0554
5.7322001 -6.1975999 -1.2007999
6.2207999 -5.6264 -1.193
7.1715999 -5.4082999 -1.2776
5.6018 -6.6258001 -1.2341
6.5995998 -5.4547 -1.2178
5.8297 -6.303 -1.3671
5.7336998 -6.7818999 -1.4141999
6.0363998 -5.9695001 -1.3519
6.7301002 -5.5626001 -1.3904001
6.4775 -5.8586001 -1.54
6.9568 -5.7498999 -1.5914
