# .PCD v0.7 - Point Cloud Data file format
VERSION 0.7
FIELDS x y z
SIZE 4 4 4
TYPE F F F
COUNT 1 1 1
WIDTH 87
HEIGHT 1
VIEWPOINT 0 0 0 1 0 0 0
POINTS 87
DATA ascii
6.8871002 -6.2290001 1.6374
6.3053002 -6.8172002 1.3207999
6.5950999 -5.9649 1.2648
7.2997999 -5.5050998 1.3005
6.3881001 -6.3172998 1.2779
8.0303001 -5.5124998 1.3854001
7.1566 -5.3971 1.1233
6.2856002 -6.2160001 1.1078
6.7796998 -5.6036 1.1022
7.7521 -5.3214998 1.1783
6.4345002 -5.8196001 0.94099998
6.0167999 -6.5053 0.81239998
7.0035 -5.2816 0.80419999
6.1619 -6.0936999 0.79449999
5.9717002 -6.4566002 0.6591
6.3368001 -5.7312999 0.64029998
8.2322998 -5.1271 0.72680002
6.1234002 -6.0556002 0.64539999
6.6094999 -5.4629002 0.6426
7.4120002 -5.0879998 0.67369998
5.9361 -6.4180002 0.50919998
6.9157 -5.2154002 0.50449997
8.1008997 -5.0453 0.55589998
6.5749002 -5.4342999 0.49680001
6.2778001 -5.678 0.352
8.0059004 -4.9861002 0.39219999
5.8248 -6.8895998 0.37509999
6.5465999 -5.4109001 0.3531
7.3189998 -5.0242 0.3691
5.8943 -6.3729 0.2165
6.2674999 -5.6687002 0.21070001
6.8699002 -5.1809001 0.2146
5.8115001 -6.8738999 0.2245
7.3037 -5.0137 0.2209
5.8831 -6.3607998 0.071999997
5.7982998 -6.8582001 0.074600004
6.0427999 -5.9759002 0.070600003
6.5247998 -5.3929 0.0704
7.2884002 -5.0032001 0.0735
5.9705 -7.7361999 -0.081200004
5.8829999 -6.3606 -0.071999997
7.9447999 -4.9481001 -0.077799998
5.7981 -6.8579998 -0.074600004
6.0426998 -5.9758 -0.070600003
7.2880998 -5.0029998 -0.0735
6.0293002 -7.8123999 -0.24609999
6.8697 -5.1806998 -0.2146
5.8112998 -6.8736 -0.2245
6.053 -5.9858999 -0.2123
7.3034 -5.0135002 -0.2209
5.9052 -6.3846998 -0.36160001
6.2775998 -5.6777 -0.35190001
8.0043001 -4.9850998 -0.39210001
5.8245001 -6.8892999 -0.37509999
6.0633001 -5.9960999 -0.35460001
6.5464001 -5.4106998 -0.3531
6.3037 -5.7013998 -0.495
6.915 -5.2147999 -0.50440001
8.0993004 -5.0443001 -0.5557
6.0900002 -6.0226002 -0.4989
5.9710002 -6.4558001 -0.65899998
6.3362002 -5.7308002 -0.64020002
8.2297001 -5.1255002 -0.72659999
5.9204001 -7.0026999 -0.68720001
6.1227999 -6.0549002 -0.64529997
7.4110999 -5.0874 -0.67360002
6.0156999 -6.5040998 -0.81220001
6.3729 -5.7639999 -0.78780001
5.9991999 -7.0957999 -0.85189998
6.0823002 -6.5760999 -0.9716
6.4334002 -5.8186998 -0.94090003
6.1037998 -7.2196002 -1.0255001
6.7126999 -5.5481 -0.94459999
7.6039 -5.2198 -1.0003999
6.4952002 -5.8745999 -1.0975
7.1543002 -5.3952999 -1.1229
6.2844 -6.2147999 -1.1076
6.7783999 -5.6025 -1.102
7.7487998 -5.3192 -1.1778001
6.3028998 -6.8146 -1.3203
6.5932999 -5.9633002 -1.2645
8.0253 -5.5091 -1.3846
6.5152998 -6.4431 -1.4591
7.0079999 -5.7922001 -1.4478
6.8839002 -6.2262001 -1.6367
8.0509005 -6.0714998 -1.778
6.7175999 -6.6431999 -1.6659
