# .PCD v0.7 - Point Cloud Data file format
VERSION 0.7
FIELDS x y z
SIZE 4 4 4
TYPE F F F
COUNT 1 1 1
WIDTH 106
HEIGHT 1
VIEWPOINT 0 0 0 1 0 0 0
POINTS 106
DATA ascii
5.5207 -5.9689002 1.7141
5.1615 -6.105 1.6854
5.0074 -5.9228001 1.5009
4.5098 -7.0644999 1.4778
4.6661 -6.046 1.3466001
5.1936002 -5.6152 1.3487
4.3238001 -6.7730999 1.2796
4.5890002 -5.9461002 1.196
4.4092999 -6.2722998 1.2209001
5.4686999 -5.4081001 1.2247
5.0363002 -5.4452 1.0549999
4.2912998 -6.1044998 0.93510002
6.5229998 -5.3913999 1.0605
4.0992999 -6.4214001 0.82630002
4.9366999 -5.3375001 0.78860003
5.6743002 -5.1321001 0.82990003
4.0560002 -7.0251002 0.87989998
4.2452998 -6.039 0.80070001
4.4106002 -5.7149 0.66180003
4.2150002 -5.9959002 0.67189997
4.6399999 -5.4882002 0.65890002
5.2220001 -5.1641002 0.67330003
4.0328002 -6.3172998 0.56169999
4.3871002 -5.6845999 0.5381
4.8799 -5.2761002 0.53860003
5.5787001 -5.0455999 0.56370002
3.9419999 -6.8277001 0.59079999
4.1905999 -5.9611001 0.54610002
6.1206002 -5.0588002 0.59509999
4.3639998 -5.6546001 0.41600001
4.8540001 -5.2480998 0.41639999
3.9068999 -6.7670002 0.4551
6.0633998 -5.0114999 0.45820001
4.3533001 -5.6408 0.29629999
3.8845 -6.7280998 0.32300001
4.1546001 -5.9099002 0.30039999
4.5815001 -5.4190001 0.2951
5.1457 -5.0886002 0.30090001
4.3460002 -5.6313 0.17739999
4.8337998 -5.2262001 0.17749999
3.8736 -6.7091999 0.19320001
4.1469002 -5.8990998 0.1798
4.5739999 -5.4102001 0.1767
5.1360998 -5.0791998 0.18009999
3.9854 -7.6732001 0.071900003
3.9734001 -6.2241001 0.0614
4.3386998 -5.6219001 0.059
4.5665002 -5.4013 0.058800001
5.1265001 -5.0696998 0.059900001
3.9853001 -7.6731 -0.071900003
3.9733 -6.2241001 -0.0614
4.8256001 -5.2174001 -0.059099998
3.8627 -6.6904001 -0.064199999
4.1392999 -5.8882999 -0.059799999
5.1265001 -5.0696998 -0.059900001
3.9819 -6.2375002 -0.18449999
4.8337002 -5.2262001 -0.17749999
4.1469002 -5.8990002 -0.1798
5.1360002 -5.0791001 -0.18009999
4.3533001 -5.6406999 -0.29629999
5.5180001 -4.9906998 -0.30939999
3.8843 -6.7279 -0.32300001
4.1545 -5.9098001 -0.30039999
5.1455998 -5.0886002 -0.30090001
4.0053 -6.2743001 -0.43349999
4.3639002 -5.6545 -0.41600001
4.8539 -5.2479 -0.41639999
3.9066999 -6.7666001 -0.4551
4.1662998 -5.9266 -0.4219
4.5921001 -5.4316001 -0.41429999
6.0630002 -5.0112 -0.45809999
4.0327001 -6.3171 -0.56160003
3.9418001 -6.8273001 -0.59079999
4.1904001 -5.9608998 -0.546
4.0604 -6.3604999 -0.6918
4.9060001 -5.3042998 -0.66240001
3.9775 -6.8892999 -0.72930002
6.1787 -5.1068001 -0.7349
4.099 -6.421 -0.82630002
4.4373999 -5.7497001 -0.78780001
4.2449999 -6.0386 -0.80059999
4.6669002 -5.52 -0.7841
5.2602 -5.2019 -0.80239999
4.4812002 -5.8063998 -0.91909999
4.9856 -5.3902998 -0.92009997
4.2909999 -6.1040001 -0.935
4.7117 -5.573 -0.9145
5.3182001 -5.2593002 -0.93730003
6.5207 -5.3895001 -1.0601
5.0359001 -5.4446998 -1.0549001
4.3382001 -6.1711001 -1.0729001
5.3779001 -5.3182998 -1.0757999
4.323 -6.7718 -1.2793
4.4088001 -6.2715998 -1.2207
4.8202 -5.7013001 -1.1888
5.4679999 -5.4074001 -1.2246
4.5075998 -7.0611 -1.4771
5.1929002 -5.6145 -1.3485
6.3271999 -5.7226 -1.5043
4.7747002 -6.1866999 -1.5123
5.3165002 -5.7480998 -1.5152
4.6476002 -6.6111999 -1.5639
5.0065999 -5.9218001 -1.5007
5.777 -5.7129998 -1.5723
5.5186 -5.9667001 -1.7134
5.1599002 -6.1030998 -1.6849
