# .PCD v0.7 - Point Cloud Data file format
VERSION 0.7
FIELDS x y z
SIZE 4 4 4
TYPE F F F
COUNT 1 1 1
WIDTH 112
HEIGHT 1
VIEWPOINT 0 0 0 1 0 0 0
POINTS 112
DATA ascii
4.3295002 -6.7821002 1.8365
4.6950002 -6.0834999 1.7539001
4.4168 -6.283 1.7529
4.0531998 -6.3491998 1.5880001
4.2407999 -6.0327001 1.5546
4.8607001 -5.7493 1.5872
3.921 -6.1422 1.4102
4.7118001 -5.5731001 1.4123
3.7212 -7.1645999 1.4236
3.8520999 -6.0342999 1.2623
3.6951001 -6.4001999 1.3031
4.0632 -5.7799001 1.2458
4.6262002 -5.4720001 1.2635
5.8358002 -5.7712002 1.4471999
3.5404 -6.8165002 1.2230999
4.2477002 -5.5040002 1.1071
4.9179001 -5.3172002 1.1533
3.6162 -6.2634001 1.1516
3.9984 -5.6879001 1.1071
4.5441999 -5.3748999 1.1208
3.9591999 -5.632 0.97920001
3.3878 -6.5228 0.92110002
4.7849002 -5.1733999 0.88309997
3.9209001 -5.5774999 0.85439998
4.1289001 -5.3499999 0.73299998
4.7308998 -5.1149998 0.75569999
3.3248 -7.1647 0.8567
3.4868 -6.0393 0.75639999
4.4036002 -5.2086 0.73979998
4.7033 -5.0851998 0.63499999
3.2400999 -6.9822001 0.70569998
3.4653001 -6.0021 0.6354
5.1034999 -5.0469999 0.65799999
3.6336999 -5.6921 0.5061
4.0854998 -5.2937999 0.5011
4.6761999 -5.0559001 0.51609999
3.1965001 -6.8882999 0.56910002
4.3554001 -5.1515999 0.50550002
5.0689001 -5.0128002 0.53420001
3.2629001 -6.2823 0.41229999
3.6141 -5.6613998 0.39120001
4.0644999 -5.2666001 0.38749999
3.1637001 -6.8175998 0.4377
4.3326001 -5.1245999 0.3908
5.0349002 -4.9791002 0.41240001
3.2523 -6.2617002 0.29339999
3.6077001 -5.6514001 0.27880001
4.0577998 -5.2578001 0.2762
4.0510001 -5.2491002 0.1654
3.1352 -6.7561998 0.1857
3.4089 -5.9045 0.17
4.3179002 -5.1072001 0.16680001
3.237 -6.2323999 0.058400001
4.0443001 -5.2403998 0.055
3.4024 -5.8930998 0.056600001
3.8090999 -5.4186001 0.055
4.3106999 -5.0987 0.055500001
3.237 -6.2323999 -0.058400001
3.5952001 -5.6318998 -0.055500001
4.6226001 -4.9979 -0.056600001
5.4998002 -4.9742999 -0.0616
3.1250999 -6.7343998 -0.061700001
3.4022999 -5.8930001 -0.056600001
3.8090999 -5.4184999 -0.055
3.2444999 -6.2469001 -0.17550001
4.0510001 -5.2490001 -0.1654
4.3178 -5.1071 -0.16680001
3.2521 -6.2614999 -0.29339999
5.5423999 -5.0128999 -0.3107
3.1451001 -6.7775998 -0.3107
3.4154 -5.9157 -0.28400001
3.2627001 -6.2818999 -0.41229999
3.6138999 -5.6610999 -0.39120001
4.6490998 -5.0265999 -0.39879999
3.8278 -5.4452 -0.38769999
4.3323002 -5.1243 -0.3908
5.0344 -4.9787002 -0.41240001
3.2869999 -6.3285999 -0.53439999
4.0853 -5.2934999 -0.5011
4.3551002 -5.1513 -0.50550002
3.3116 -6.3761001 -0.65869999
4.1068001 -5.3214002 -0.61619997
3.4649999 -6.0015001 -0.63529998
3.3399999 -6.4308 -0.78600001
4.1286001 -5.3495998 -0.73299998
3.3237 -7.1623001 -0.85640001
3.4863999 -6.0387001 -0.75629997
3.8875999 -5.5302 -0.73320001
3.3873 -6.5216999 -0.92089999
3.7072001 -5.8072 -0.86339998
4.1638999 -5.3952999 -0.85409999
4.7842002 -5.1726999 -0.88300002
4.4450998 -5.2577 -0.8628
3.4403 -6.6237001 -1.0616
3.7453001 -5.8669 -0.99000001
4.2049999 -5.4485998 -0.97890002
3.5659001 -6.1763 -1.0144
3.9586999 -5.6313 -0.97909999
4.4926 -5.3137999 -0.98970002
3.7859001 -5.9305 -1.1204
3.6154001 -6.2621002 -1.1514
3.9979 -5.6870999 -1.107
3.7167001 -7.1559 -1.4218
3.8513 -6.033 -1.2621
3.694 -6.3983002 -1.3027
5.8158998 -5.7514 -1.4423
3.9200001 -6.1405001 -1.4098001
4.3898001 -5.6880002 -1.3904001
5.1718998 -5.5918002 -1.474
4.1303 -5.8754001 -1.3898
4.3217001 -6.7698002 -1.8332
4.6918998 -6.0795002 -1.7528
