# .PCD v0.7 - Point Cloud Data file format
VERSION 0.7
FIELDS x y z
SIZE 4 4 4
TYPE F F F
COUNT 1 1 1
WIDTH 63
HEIGHT 1
VIEWPOINT 0 0 0 1 0 0 0
POINTS 63
DATA ascii
8.7416 -6.5922999 1.7434
8.4069004 -6.9485002 1.5513
8.1877003 -6.7673001 1.3312
9.7653999 -5.4938998 1.4040999
8.1215 -7.3453999 1.1878
8.1807003 -6.1694002 1.1114
8.8221998 -5.4945002 1.1273
8.0361004 -6.6420002 1.1308
8.4378004 -5.7922001 1.1101
8.7243996 -5.4335999 0.94230002
8.3584003 -5.7378001 0.92949998
8.0313997 -6.0567999 0.75379997
7.8653998 -6.5008998 0.7647
8.2853003 -5.6875 0.75309998
9.1605997 -5.1536999 0.7877
8.5876999 -5.3484998 0.58929998
7.8218002 -6.4647999 0.59100002
8.2426996 -5.6582999 0.58230001
9.0918999 -5.1149998 0.60759997
7.7198 -6.9821 0.43279999
7.9488001 -5.9945002 0.414
8.0136003 -7.9249001 0.4686
7.7786999 -6.4292998 0.41960001
7.9334998 -5.9829001 0.24779999
8.5236998 -5.3085999 0.25040001
9.8078003 -4.9561 0.27399999
8.1851997 -5.6188002 0.2476
8.9998999 -5.0633001 0.25749999
7.6753998 -6.9419999 0.086000003
7.9204998 -5.9731002 0.082500003
9.7634001 -4.9337001 0.090899996
7.8927002 -7.8052001 0.092299998
7.7480998 -6.4039998 0.083499998
8.9796 -5.0518999 0.085600004
7.6777 -6.9440999 -0.086000003
7.9222002 -5.9744 -0.082500003
9.7691002 -4.9366002 -0.090999998
7.7498999 -6.4054999 -0.0836
8.1737003 -5.6108999 -0.082400002
7.6966 -6.9611001 -0.2588
7.9355001 -5.9843998 -0.24789999
9.8135996 -4.9590001 -0.27419999
8.1871996 -5.6202002 -0.24770001
7.9544001 -5.9987001 -0.41420001
9.901 -5.0032001 -0.4612
8.0312004 -7.9422002 -0.46959999
8.2065001 -5.6335001 -0.41389999
9.0361996 -5.0837002 -0.43110001
7.7870002 -7.0430002 -0.61150002
7.9958 -6.0299001 -0.58329999
8.5944004 -5.3527002 -0.58969998
10.0603 -5.0837002 -0.65649998
7.8578 -7.1069002 -0.79400003
7.8738999 -6.5079002 -0.76550001
8.1139002 -6.119 -0.93169999
8.7374001 -5.4417 -0.94370002
8.1949997 -6.1801 -1.1133
8.8430996 -5.5075002 -1.13
9.4877005 -5.3376999 -1.1808
8.2086 -6.7845998 -1.3345
9.2466002 -5.7588 -1.5494
8.4488001 -6.9830999 -1.5591
8.7574997 -6.0117002 -1.5109
