# .PCD v0.7 - Point Cloud Data file format
VERSION 0.7
FIELDS x y z
SIZE 4 4 4
TYPE F F F
COUNT 1 1 1
WIDTH 77
HEIGHT 1
VIEWPOINT 0 0 0 1 0 0 0
POINTS 77
DATA ascii
8.7304001 -6.5839 1.9281
8.2094002 -6.191 1.6373
8.0092001 -6.6197 1.6546
8.6238003 -5.9198999 1.6655999
7.7786999 -7.0353999 1.4918
8.0043001 -6.0363002 1.426
9.0427999 -5.6318998 1.5153
7.6466999 -6.3202 1.2431999
8.2091999 -5.6353002 1.2478
7.7680998 -5.8582001 1.0553
8.5626001 -5.3327999 1.0942
7.5627999 -7.4790001 1.1537
7.5391998 -6.2312999 1.0609
8.0906 -5.5538998 1.0644
7.3369002 -6.6359 0.90689999
7.6950002 -5.8031001 0.8836
8.4537001 -5.2649999 0.91299999
7.3818998 -7.3000998 0.95179999
7.4668002 -6.1714001 0.88810003
9.2283001 -5.1918001 0.97070003
7.2602 -7.1798 0.76520002
9.0264997 -5.0781999 0.77609998
7.2135 -6.5243001 0.56650001
7.5925999 -5.7258 0.5539
8.3074999 -5.1739998 0.56999999
7.1999002 -7.1202002 0.5898
7.8989 -5.4222999 0.55800003
8.9383001 -5.0286002 0.59729999
7.1726999 -6.4874001 0.4021
7.5538001 -5.6966 0.39340001
8.2585001 -5.1434999 0.40450001
7.1419001 -7.0627999 0.41760001
7.3263001 -6.0553999 0.39520001
7.8569002 -5.3934999 0.39629999
7.1568999 -6.473 0.24070001
8.2388 -5.1311998 0.2421
7.1160998 -7.0373001 0.24959999
7.8414998 -5.3829002 0.23720001
8.8206997 -4.9625001 0.25240001
8.2233 -5.1215 0.080499999
7.0977998 -7.0191002 0.082999997
7.3002 -6.0337 0.078699999
7.8281002 -5.3737001 0.078900002
8.2221003 -5.1208 -0.080499999
7.8270998 -5.3730001 -0.078900002
8.7937002 -4.9473 -0.083899997
7.539 -5.6854 -0.23549999
7.3113999 -6.0430002 -0.2366
7.8403001 -5.3821001 -0.23720001
8.8188 -4.9614 -0.25229999
7.1697998 -6.4847002 -0.40200001
7.5511999 -5.6946001 -0.39320001
8.2547998 -5.1410999 -0.40439999
7.3235002 -6.053 -0.3951
7.8537002 -5.3913002 -0.39610001
8.8521996 -4.9801998 -0.42230001
7.2104001 -6.5214 -0.56620002
7.5895 -5.7234998 -0.55360001
7.1954999 -7.1156998 -0.58939999
8.9322996 -5.0251999 -0.59689999
7.6286001 -5.7529998 -0.71600002
8.3532 -5.2024002 -0.73750001
7.4003 -6.1164999 -0.71950001
7.9379001 -5.4491 -0.72149998
9.0152998 -5.0718999 -0.77520001
7.3302999 -6.6299 -0.90609998
7.3706002 -7.289 -0.95029998
9.2117004 -5.1824002 -0.96899998
8.5542002 -5.3276 -1.0931
7.5440998 -7.4604998 -1.1508
7.8655 -5.9316001 -1.2345001
8.7262001 -5.4347 -1.2883
7.756 -7.0149002 -1.4875
7.9896998 -6.0253 -1.4234
9.0124998 -5.6129999 -1.5102
8.3507996 -5.7325001 -1.4407001
8.1936998 -6.1792002 -1.6342
