# .PCD v0.7 - Point Cloud Data file format
VERSION 0.7
FIELDS x y z
SIZE 4 4 4
TYPE F F F
COUNT 1 1 1
WIDTH 130
HEIGHT 1
VIEWPOINT 0 0 0 1 0 0 0
POINTS 130
DATA ascii
2.4466 -5.9535999 1.5821
2.2428999 -6.2342 1.6285
2.6895001 -5.7957001 1.5705
2.8857999 -5.5562 1.429
2.1609001 -6.0061998 1.4569
3.5401001 -5.5454001 1.387
2.5650001 -5.5274 1.2847
3.1399 -5.4383998 1.3239
2.2866001 -5.5641999 1.1641001
3.4433999 -5.3940001 1.2384
2.5218999 -5.4345002 1.1594
2.7462001 -5.2873998 1.0506001
3.3697 -5.2785001 1.1042
1.652 -6.3056998 1.1494
2.0399001 -5.6701002 1.0625
2.49 -5.3657999 1.043
1.8128 -5.8438001 0.97430003
2.2344999 -5.4373999 0.93610001
2.7184 -5.2339001 0.93910003
3.3259001 -5.21 0.98430002
2.9988 -5.1940999 0.95499998
1.7912 -5.7743001 0.8599
2.2125001 -5.3839002 0.82789999
1.9972 -5.5514002 0.83920002
1.401 -6.5197001 0.83569998
2.1951001 -5.3414001 0.72369999
2.6695001 -5.1395998 0.72579998
3.2441001 -5.0818 0.75550002
1.9796 -5.5025001 0.73280001
2.1833999 -5.3130999 0.62309998
1.5604 -5.9559999 0.66780001
1.9686 -5.4717002 0.63069999
2.4093001 -5.1919999 0.62080002
2.9216001 -5.0604 0.63380003
3.5883 -5.1044002 0.67680001
1.7494 -5.6395001 0.5413
2.6410999 -5.085 0.52530003
3.2005999 -5.0138001 0.54530001
1.5483 -5.9096999 0.56010002
1.9577 -5.4414001 0.5302
2.3968 -5.1648998 0.52200001
3.5573001 -5.0604 0.56709999
1.3477 -6.2716999 0.48069999
1.7385 -5.6044002 0.43970001
2.1607001 -5.2578001 0.426
1.9469 -5.4115 0.43099999
2.8882999 -5.0026999 0.43290001
3.5294001 -5.0205998 0.45989999
1.3351001 -6.2129998 0.37009999
2.1544001 -5.2423 0.3301
2.6192 -5.0429001 0.331
3.9672 -5.1403999 0.37819999
1.5278 -5.8313999 0.3511
1.9405 -5.3937998 0.3339
2.1508 -5.2336998 0.2353
3.1593001 -4.9489999 0.2441
3.9512 -5.1197 0.26890001
1.5246 -5.8193998 0.25009999
1.9371001 -5.3843999 0.2379
2.3736 -5.1149001 0.23450001
2.1473 -5.2251 0.1409
2.6105001 -5.0261002 0.14120001
1.5215 -5.8076 0.1497
2.8678999 -4.9674001 0.14300001
1.7213 -5.5489998 0.048300002
2.1436999 -5.2164998 0.0469
1.9304 -5.3656998 0.047400001
2.8627999 -4.9584999 0.047600001
3.4881001 -4.9619002 0.0504
1.3221999 -6.1529999 -0.052299999
1.7214 -5.5492001 -0.048300002
2.6062 -5.0177999 -0.046999998
3.1478 -4.9309001 -0.048599999
1.5185 -5.796 -0.049800001
3.4881001 -4.9619002 -0.0504
1.3261 -6.171 -0.1574
1.7247 -5.5599999 -0.1452
2.6105001 -5.0261002 -0.14120001
3.9354 -5.0992999 -0.16060001
1.5215 -5.8077002 -0.1497
2.3697 -5.1065001 -0.14040001
2.8678999 -4.9674001 -0.14300001
3.4956999 -4.9726 -0.1516
1.3305 -6.1918001 -0.2633
1.7280999 -5.5709 -0.24250001
2.6149001 -5.0345001 -0.2359
3.1593001 -4.9489999 -0.2441
3.9512999 -5.1198001 -0.26890001
1.9371001 -5.3843999 -0.2379
1.335 -6.2126999 -0.37009999
1.7315 -5.5818 -0.34040001
2.6192 -5.0429001 -0.331
3.9672999 -5.1406002 -0.37819999
1.9405 -5.3937001 -0.3339
1.3478 -6.2719998 -0.48069999
3.1795001 -4.9805999 -0.44279999
1.9469 -5.4116001 -0.43099999
1.7494 -5.6395998 -0.5413
3.2007 -5.0138001 -0.54530001
1.5483 -5.9098001 -0.56010002
2.3968 -5.1648998 -0.52200001
3.5574 -5.0605001 -0.56709999
1.7604001 -5.6752 -0.64450002
2.1835001 -5.3132 -0.62309998
1.5604 -5.9559999 -0.66780001
2.4093001 -5.1919999 -0.62080002
2.9216001 -5.0604 -0.63380003
2.1951001 -5.3414001 -0.72369999
1.574 -6.0078001 -0.77829999
1.9796 -5.5025001 -0.73280001
3.6257 -5.1575999 -0.79009998
1.7913001 -5.7744999 -0.8599
2.6912999 -5.1817999 -0.83050001
3.2836001 -5.1437001 -0.86799997
2.4410999 -5.2603998 -0.82489997
1.8128 -5.8439002 -0.97430003
2.2346001 -5.4376001 -0.93610001
2.9988999 -5.1942 -0.9551
1.6522 -6.3063998 -1.1495
2.04 -5.6701999 -1.0625
2.49 -5.3657999 -1.0431
2.2867 -5.5644999 -1.1641999
2.7834001 -5.3589001 -1.1686
2.0704999 -5.7551999 -1.1835999
2.8318999 -5.4523001 -1.2953
2.1085 -5.8607001 -1.3131
2.3701 -5.7673998 -1.4232
2.8859 -5.5563998 -1.4291
2.161 -6.0067 -1.457
2.6103001 -5.625 -1.4154
