# .PCD v0.7 - Point Cloud Data file format
VERSION 0.7
FIELDS x y z
SIZE 4 4 4
TYPE F F F
COUNT 1 1 1
WIDTH 199
HEIGHT 1
VIEWPOINT 0 0 0 1 0 0 0
POINTS 199
DATA ascii
0.98250002 -5.8246999 1.6619999
0.211 -6.3111 1.6639
0.70349997 -5.7122998 1.5166
0.45950001 -5.8807998 1.5543
0.95109999 -5.6387 1.5068001
0.1988 -5.947 1.4626
0.68430001 -5.5563998 1.3760999
1.1781 -5.4823999 1.3783
1.7909 -5.7735 1.4858
0.4443 -5.6852999 1.4017
0.92629999 -5.4914999 1.3688999
1.4518 -5.5412998 1.408
0.67199999 -5.4566002 1.2548
1.7251 -5.5611 1.329
0.18870001 -5.6437001 1.1905
1.1351 -5.2824998 1.1391
1.6858 -5.4345999 1.1996
-0.066500001 -5.9703002 1.2587
0.42719999 -5.4668999 1.156
0.89420003 -5.3014002 1.1334
1.3951 -5.3252001 1.1605
1.1216 -5.2195001 1.0331
-0.064499997 -5.79 1.1205
0.42120001 -5.3898001 1.0462
0.88389999 -5.2402 1.0283999
1.3756 -5.2505002 1.0504
1.9867001 -5.5222998 1.1357
-0.3432 -6.1543002 1.0868
0.64569998 -5.2424002 0.9314
1.6336 -5.2663002 0.97219998
-0.0634 -5.6932998 1.0039001
0.4165 -5.3298001 0.94270003
0.875 -5.1872001 0.92760003
1.3607 -5.1936002 0.94669998
-0.3339 -5.9882998 0.95499998
0.18080001 -5.4066 0.86140001
0.63910002 -5.1894002 0.8326
1.6136 -5.2017999 0.86729997
-0.062600002 -5.6173 0.89450002
-0.3272 -5.8674002 0.83590001
1.0898 -5.0714002 0.7378
0.40799999 -5.2206998 0.74479997
1.3333 -5.0890002 0.74830002
0.1778 -5.3168998 0.66670001
1.584 -5.1062999 0.67000002
2.2313001 -5.4295998 0.73559999
-0.0612 -5.4979 0.68900001
0.40560001 -5.1904001 0.65240002
1.3257 -5.0601001 0.65549999
0.1767 -5.2856002 0.57359999
0.62690002 -5.0900998 0.55629998
1.0782 -5.0176001 0.55669999
2.2054999 -5.3669 0.62940001
0.4032 -5.1605 0.5614
0.85000002 -5.0391998 0.55430001
1.3182 -5.0317001 0.56419998
1.8587 -5.1662998 0.59549999
-0.31670001 -5.6801 0.52149999
0.17569999 -5.2547002 0.48199999
0.62360001 -5.0630999 0.4677
2.1845 -5.3155999 0.52689999
-0.62269998 -6.1897998 0.57029998
0.40099999 -5.1318002 0.47189999
1.3109 -5.0036998 0.47420001
-0.31389999 -5.6294999 0.42250001
0.17470001 -5.2244 0.3917
1.0674 -4.9674001 0.38080001
2.1665001 -5.2718 0.4271
-0.61390001 -6.1025 0.4596
-0.059999999 -5.3853998 0.40360001
1.304 -4.9772 0.3856
-0.31240001 -5.6030002 0.32679999
0.1743 -5.2147002 0.3039
0.6196 -5.0303998 0.29519999
1.0657001 -4.9591999 0.29539999
1.5508 -4.9994001 0.30489999
-0.059799999 -5.3705001 0.31279999
0.39829999 -5.0977001 0.2978
0.84020001 -4.9811001 0.2942
1.3017 -4.9685001 0.29910001
2.6217 -5.6497002 0.3628
-0.31150001 -5.5874 0.23270001
0.61849999 -5.0221 0.2104
1.0639 -4.9510002 0.2106
1.5477999 -4.9895 0.2172
2.1508 -5.2337999 0.2353
0.39770001 -5.0890999 0.2122
0.83880001 -4.9728999 0.2097
1.2994 -4.9597998 0.2132
1.8257 -5.0746999 0.2242
-0.3107 -5.5718002 0.1392
0.1737 -5.1957002 0.1296
1.0621001 -4.9428 0.1261
2.1452999 -5.2203999 0.1408
0.83749998 -4.9647999 0.1256
1.822 -5.0644002 0.13420001
0.1734 -5.1862001 0.043099999
1.0604 -4.9347 0.041900001
1.5417 -4.9699001 0.043200001
2.1398001 -5.2069998 0.046799999
-0.0594 -5.3362002 0.044399999
0.39629999 -5.0721002 0.042300001
1.2948999 -4.9425998 0.0425
2.5702 -5.5387001 0.050700001
-0.3098 -5.5567999 -0.046300001
0.1734 -5.1865001 -0.043099999
-0.59979999 -5.9619002 -0.049800001
2.5704999 -5.5393 -0.050799999
-0.3107 -5.5721998 -0.1392
0.1737 -5.1959 -0.1296
0.61750001 -5.0138998 -0.126
1.0622 -4.9429998 -0.1261
1.5448 -4.9798999 -0.13
2.1454 -5.2206001 -0.1408
-0.059599999 -5.3478999 -0.13339999
1.8221 -5.0646 -0.13420001
2.5875001 -5.5759001 -0.1533
0.61849999 -5.0222001 -0.2104
1.0639 -4.9512 -0.2106
2.151 -5.2340999 -0.2353
-0.6049 -6.0132999 -0.25130001
-0.059700001 -5.3593001 -0.2228
0.39770001 -5.0893002 -0.2123
0.83890003 -4.9731002 -0.2097
1.0657001 -4.9594002 -0.29539999
-0.60759997 -6.0394001 -0.35350001
-0.059799999 -5.3708 -0.31279999
0.84020001 -4.9812999 -0.2942
1.3017 -4.9686999 -0.2992
-0.31400001 -5.6307001 -0.4226
0.62059999 -5.039 -0.38049999
1.0675 -4.9675999 -0.38080001
-0.059999999 -5.3863001 -0.40369999
0.8416 -4.9896002 -0.37920001
1.304 -4.9775 -0.3856
1.8348 -5.0998998 -0.40619999
0.62370002 -5.0637999 -0.4677
1.0727 -4.9917998 -0.46810001
1.5641 -5.0422001 -0.484
-0.060400002 -5.4231 -0.49720001
0.40110001 -5.1325002 -0.472
0.84570003 -5.0135002 -0.46610001
1.8468 -5.1332002 -0.50010002
-0.3197 -5.7328 -0.62279999
-0.64230001 -6.3850999 -0.6961
-0.060800001 -5.4605999 -0.5923
0.40329999 -5.1610999 -0.56150001
0.85009998 -5.0398002 -0.55440003
0.1778 -5.3175001 -0.66670001
0.63029999 -5.118 -0.6462
1.0841 -5.0448999 -0.64660001
1.5842 -5.1071 -0.67009997
2.2319 -5.4310002 -0.73580003
-0.061299998 -5.4987001 -0.68910003
0.40560001 -5.191 -0.65249997
0.85460001 -5.0665002 -0.64389998
0.1788 -5.3492999 -0.76130003
0.63380003 -5.1458001 -0.7374
1.0899 -5.072 -0.73790002
1.5946 -5.1406002 -0.76560003
2.2760999 -5.5384998 -0.85170001
1.3334 -5.0897002 -0.74839997
0.18080001 -5.408 -0.86159998
1.0993 -5.1159 -0.83319998
1.6141 -5.2031999 -0.86750001
-0.062600002 -5.6188998 -0.89480001
0.412 -5.2729001 -0.84219998
0.86650002 -5.1367998 -0.82950002
1.3465 -5.1395001 -0.84600002
0.1829 -5.4692001 -0.96490002
0.64579999 -5.2435999 -0.93159997
1.6339999 -5.2677002 -0.97250003
2.4266 -5.9049001 -1.1257
-0.0634 -5.6947999 -1.0042
0.65249997 -5.2979002 -1.033
1.1217999 -5.2206001 -1.0333
1.6547 -5.3340998 -1.0808001
-0.064499997 -5.7937002 -1.1213
0.42129999 -5.3909998 -1.0464
0.18880001 -5.6464 -1.191
-0.066600002 -5.9738998 -1.2595
0.42739999 -5.4692001 -1.1565
0.89459997 -5.3035002 -1.1339
1.3957 -5.3271999 -1.161
2.0567 -5.7165999 -1.2808
0.19320001 -5.7786002 -1.3197
0.67229998 -5.4587002 -1.2553
-0.0691 -6.2010002 -1.4154
0.199 -5.9520998 -1.4638
0.6846 -5.5584002 -1.3766
1.1786 -5.4846001 -1.3789001
0.704 -5.7160001 -1.5176001
1.214 -5.6497002 -1.5227
0.45989999 -5.8850002 -1.5554
0.95169997 -5.6423001 -1.5077
1.5101 -5.7641001 -1.5700999
1.2639 -5.8817 -1.6926
0.49430001 -6.3255 -1.7851
0.98339999 -5.8298998 -1.6635
