# .PCD v0.7 - Point Cloud Data file format
VERSION 0.7
FIELDS x y z
SIZE 4 4 4
TYPE F F F
COUNT 1 1 1
WIDTH 188
HEIGHT 1
VIEWPOINT 0 0 0 1 0 0 0
POINTS 188
DATA ascii
1.3173 -6.1300001 1.7641
1.8723 -6.0356998 1.778
1.5671 -5.9814 1.7397
1.2515 -5.8242002 1.5697
1.7696 -5.7048001 1.5739
1.0191 -6.0419002 1.6145
0.75919998 -6.1641002 1.5266
1.2111 -5.6357999 1.4169
2.4073 -5.8576999 1.5567
0.98079997 -5.8144002 1.4493999
1.4536999 -5.5486002 1.4099
2.0099001 -5.5865998 1.4594001
0.72899997 -5.9187002 1.3611
2.2909 -5.5745001 1.3756
0.95719999 -5.6746001 1.3135
1.428 -5.4506998 1.2861
1.9614 -5.4517999 1.3224
0.7123 -5.7835002 1.2285
1.1671 -5.4313998 1.1712
2.2367001 -5.4426999 1.2405
1.1512001 -5.3571 1.0604
0.46720001 -5.9790001 1.1605999
0.92500001 -5.4836998 1.0762
1.3846 -5.2848001 1.0572
1.8907 -5.2553 1.0808001
2.5662999 -5.5302 1.1798
0.21600001 -6.4614 1.14
0.68949997 -5.5985999 0.9946
1.1395 -5.3028002 0.95639998
2.1559 -5.2460999 1.0001
0.91509998 -5.4250002 0.97009999
1.3706 -5.2315001 0.95359999
0.208 -6.2202001 0.991
1.5955 -5.1436 0.85750002
2.1278 -5.1777 0.89139998
2.9488001 -5.6774998 1.0187
0.90549999 -5.3678999 0.86680001
1.357 -5.1795001 0.85259998
1.8486 -5.1381998 0.86949998
2.4598 -5.3007002 0.93049997
0.2035 -6.0879998 0.8664
0.67330003 -5.4665999 0.7834
1.5802 -5.0939002 0.7586
2.1040001 -5.1197 0.78729999
0.44479999 -5.6926999 0.81220001
1.1116 -5.1731 0.6631
1.5716 -5.0662999 0.66469997
2.0890999 -5.0833998 0.68870002
0.66420001 -5.3931999 0.58939999
1.1058 -5.1458001 0.57090002
1.5631 -5.0391002 0.57230002
2.0766001 -5.053 0.59259999
2.7665 -5.3264999 0.65100002
0.43669999 -5.5890002 0.6081
0.1955 -5.8481998 0.53640002
0.66009998 -5.3597999 0.49509999
1.1 -5.1188002 0.47999999
2.0641999 -5.0230999 0.49790001
-0.072700001 -6.526 0.59829998
0.65609998 -5.3267999 0.40220001
1.0943 -5.0925002 0.39030001
2.0520999 -4.9935999 0.40459999
2.7149 -5.2270999 0.44139999
-0.0713 -6.3980999 0.4795
2.3506999 -5.0657001 0.41850001
3.3713 -5.8392 0.50529999
0.65450001 -5.3137999 0.3118
1.0925 -5.0840001 0.30289999
2.0471001 -4.9812999 0.31369999
2.6984 -5.1954002 0.34099999
-0.070100002 -6.2947001 0.36669999
0.87480003 -5.1859002 0.30630001
1.3144 -5.0169001 0.3021
2.3422999 -5.0475998 0.32409999
3.2611001 -5.6485 0.37990001
0.1926 -5.7593999 0.2396
1.0907 -5.0756998 0.2159
2.6905999 -5.1803002 0.2427
-0.069700003 -6.2575002 0.26019999
1.3122 -5.0086999 0.21529999
2.3371999 -5.0365 0.2309
3.2274001 -5.5900998 0.26840001
0.1921 -5.7451 0.1434
1.0889 -5.0672998 0.1293
1.5388 -4.9607 0.1295
2.0395 -4.9629002 0.1338
2.6828001 -5.1652999 0.1452
-0.069300003 -6.2206998 0.1551
0.87169999 -5.1680002 0.13070001
1.3101 -5.0005002 0.12890001
1.7765 -4.9376998 0.1309
2.332 -5.0254002 0.1382
0.19159999 -5.7308002 0.047699999
1.5362999 -4.9524999 0.043099999
2.675 -5.1503 0.0482
-0.068899997 -6.1844001 0.051399998
0.87019998 -5.1591001 0.043499999
1.0872 -5.0591998 -0.043000001
2.0358 -4.9538002 -0.044500001
-0.068899997 -6.1852002 -0.051399998
0.42719999 -5.4664998 -0.045600001
0.87029999 -5.1592999 -0.043499999
2.3269999 -5.0145998 -0.045899998
3.1761 -5.5011001 -0.0528
1.0889 -5.0675001 -0.1293
1.5389 -4.9608998 -0.1295
2.6829 -5.1655002 -0.1452
-0.069300003 -6.2213998 -0.1552
0.428 -5.4773002 -0.13699999
1.3101 -5.0005999 -0.12890001
1.7765 -4.9379001 -0.1309
2.3320999 -5.0256 -0.1382
3.1949999 -5.5338998 -0.1594
0.65319997 -5.3037 -0.22220001
0.87330002 -5.1771002 -0.2183
1.3123 -5.0088 -0.21529999
1.7795 -4.9461999 -0.2186
3.2281001 -5.5911999 -0.26840001
0.193 -5.7739 -0.33649999
0.65450001 -5.3140001 -0.3118
1.0925 -5.0841999 -0.30289999
2.6986001 -5.1957002 -0.34099999
-0.070100002 -6.2951002 -0.36669999
3.2620001 -5.6499 -0.38
0.19400001 -5.8028002 -0.43509999
0.65609998 -5.3274999 -0.4023
2.0523 -4.9941001 -0.40459999
1.3166 -5.0254002 -0.38929999
3.3729999 -5.8421998 -0.50550002
1.1001 -5.1194 -0.47999999
2.0645001 -5.0236001 -0.49790001
-0.072700001 -6.5281 -0.59850001
0.43380001 -5.5518999 -0.51050001
0.88129997 -5.2248001 -0.4858
1.3234 -5.0514998 -0.47870001
2.3676 -5.1020002 -0.51569998
0.19750001 -5.9075999 -0.64109999
0.66430002 -5.3937998 -0.58950001
1.1059 -5.1462998 -0.57090002
1.5633 -5.0395999 -0.57230002
2.0768001 -5.0535998 -0.59259999
2.767 -5.3274002 -0.65109998
0.4368 -5.5897999 -0.60820001
1.3304 -5.0780001 -0.56940001
2.3843999 -5.1382999 -0.61440003
0.1997 -5.9724002 -0.7489
0.66850001 -5.4278002 -0.68529999
1.1117001 -5.1736002 -0.6631
1.5718 -5.0668998 -0.66479999
2.0892999 -5.0840001 -0.68879998
0.89109999 -5.2831001 -0.67140001
0.2036 -6.0904002 -0.86680001
0.67339998 -5.4678998 -0.78359997
0.44499999 -5.6943002 -0.81239998
1.3444999 -5.1321001 -0.75459999
0.6814 -5.5328999 -0.88770002
1.1284 -5.2509999 -0.85519999
1.5959001 -5.1445999 -0.85769999
2.1282001 -5.1788001 -0.89160001
2.9502001 -5.6803002 -1.0192
1.3572 -5.1803999 -0.85280001
2.4605999 -5.3024001 -0.93080002
0.68970001 -5.5998001 -0.99479997
2.5046999 -5.3976002 -1.0492001
0.69819999 -5.6687002 -1.1052999
1.1514 -5.3580999 -1.0606
1.6291 -5.2515998 -1.0641
0.46740001 -5.9819002 -1.1611
0.92519999 -5.4847999 -1.0764
1.3848 -5.2858 -1.0574
1.8911 -5.2564998 -1.0811
0.71259999 -5.7856998 -1.229
1.1675 -5.4331999 -1.1716
1.6528 -5.3280001 -1.176
2.2376001 -5.4449 -1.2410001
1.9238 -5.3474002 -1.1981
2.6684999 -5.7505002 -1.3365
2.2918 -5.5767999 -1.3762
0.95749998 -5.6764998 -1.3139
1.4284 -5.4523001 -1.2865
1.9621 -5.4537001 -1.3229001
2.4096999 -5.8635998 -1.5582
0.98140001 -5.8181 -1.4503
1.2522 -5.8274002 -1.5706
1.0197999 -6.0455999 -1.6155
2.0957 -5.8249998 -1.6312
1.3189 -6.1374998 -1.7661999
1.8748 -6.0437002 -1.7804
