# .PCD v0.7 - Point Cloud Data file format
VERSION 0.7
FIELDS x y z
SIZE 4 4 4
TYPE F F F
COUNT 1 1 1
WIDTH 150
HEIGHT 1
VIEWPOINT 0 0 0 1 0 0 0
POINTS 150
DATA ascii
3.7987001 -5.9505 1.7352999
3.4191999 -5.9222999 1.6809
2.7074001 -6.5879998 1.6257
3.0525 -5.8771 1.5116
3.6257 -5.6795998 1.5379
3.5186999 -5.5118999 1.3786
2.7581 -5.9435 1.3814
3.8898001 -5.5331998 1.4259
2.5169001 -6.1245999 1.2814
2.9252999 -5.6322999 1.2282
3.4568 -5.415 1.2431999
3.1733 -5.4963002 1.2282
3.7960999 -5.4000001 1.2774
2.4635 -5.9945998 1.1428
2.8777001 -5.5405998 1.1009001
2.6587999 -5.7294998 1.1137
3.1228001 -5.4088998 1.1013
3.7226 -5.2954998 1.1414
2.4310999 -5.9158001 1.0185
2.2535999 -6.2638001 1.0599999
3.6731999 -5.2252002 1.0171
2.8206 -5.4306002 0.87040001
3.6313 -5.1655998 0.89810002
2.046 -6.5956001 0.86540002
2.3771999 -5.7846999 0.78369999
3.2941999 -5.1602998 0.76719999
3.9473 -5.1146998 0.8096
2.1933999 -6.0966001 0.81190002
2.5783999 -5.5563998 0.7676
2.7794001 -5.3512001 0.6541
3.2758999 -5.1315999 0.66039997
3.9094 -5.0655999 0.69400001
2.5641999 -5.5257001 0.66070002
3.0165999 -5.2249999 0.65439999
2.7649 -5.3232999 0.5499
3.2581 -5.1037998 0.55510002
3.8810999 -5.0289001 0.58240002
2.1572001 -5.9959998 0.58420002
2.5504 -5.4959002 0.55549997
3.0009 -5.1977 0.55019999
3.5446 -5.0423002 0.56510001
3.2406001 -5.0763001 0.4513
2.142 -5.9538999 0.47420001
2.9854 -5.1708002 0.4474
3.5235 -5.0121999 0.45910001
4.2793999 -5.0616999 0.49669999
1.9556 -6.3041 0.38440001
2.3227 -5.6521001 0.35589999
2.7407 -5.2767 0.34630001
2.1294999 -5.9189 0.3664
2.527 -5.4454999 0.34959999
3.5074999 -4.9893999 0.35519999
1.9498 -6.2855 0.27360001
2.3183999 -5.6415 0.2536
3.2226 -5.0479999 0.249
3.8216 -4.9517999 0.26010001
4.8775001 -5.2735 0.2987
2.9697001 -5.1437001 0.24699999
3.5007999 -4.98 0.25310001
4.2273002 -5.0001001 0.27219999
1.9441 -6.2672 0.1636
2.3141 -5.631 0.15180001
3.813 -4.9405999 0.1556
1.8322999 -6.9938002 0.1803
2.9647999 -5.1352 0.1479
4.2145 -4.9850001 0.1628
2.3097999 -5.6205001 0.050500002
2.7272 -5.2508001 0.049199998
3.2116001 -5.0309 0.049600001
4.8287001 -5.2206998 0.059099998
1.8134 -6.9218998 0.059500001
2.1154001 -5.8797002 0.051899999
2.5142 -5.4179001 0.049600001
2.96 -5.1268001 0.049199998
3.4877 -4.9612999 0.0504
4.2019 -4.9699998 0.054099999
4.8284998 -5.2205 -0.059099998
1.8135 -6.9221001 -0.059500001
2.1154001 -5.8797998 -0.051899999
3.4877 -4.9612999 -0.0504
4.2017999 -4.9699001 -0.054099999
2.7316999 -5.2593999 -0.1478
3.813 -4.9405999 -0.1556
4.8529 -5.2469001 -0.17820001
2.1199999 -5.8927002 -0.15620001
3.4942999 -4.9706001 -0.1515
4.2145 -4.9849 -0.1628
2.3183999 -5.6413999 -0.2536
3.2225001 -5.0479999 -0.249
1.8515 -7.0671 -0.30379999
2.1247001 -5.9057002 -0.26100001
2.5227001 -5.4362001 -0.2492
2.9697001 -5.1436 -0.24699999
3.5007999 -4.98 -0.25310001
4.2273002 -5.0001001 -0.27219999
1.9555 -6.3038001 -0.38440001
2.3227 -5.6518998 -0.35589999
2.7406001 -5.2765999 -0.34630001
3.2279999 -5.0566001 -0.34940001
2.1294 -5.9187002 -0.3664
2.9744999 -5.152 -0.34650001
3.5074 -4.9893999 -0.35519999
4.2402 -5.0152998 -0.38249999
1.9730999 -6.3607998 -0.4991
2.3332 -5.6775999 -0.46000001
3.8532 -4.9927001 -0.47260001
2.9853001 -5.1707001 -0.4474
3.5235 -5.0121999 -0.45910001
2.3469999 -5.7112002 -0.5661
3.2581 -5.1037002 -0.55510002
2.5502999 -5.4958 -0.55549997
3.0007999 -5.1975999 -0.55019999
2.0107999 -6.4822998 -0.73619998
2.7793 -5.3512001 -0.65399998
3.2758999 -5.1314998 -0.66030002
3.9094 -5.0654998 -0.69400001
2.5641 -5.5256 -0.66070002
3.0165999 -5.2248001 -0.65439999
3.5660999 -5.0728002 -0.67259997
2.0459001 -6.5953002 -0.86540002
2.5783999 -5.5563002 -0.7676
4.4363999 -5.2473998 -0.86110002
2.1045001 -6.7841001 -1.0103
2.8206 -5.4306002 -0.87040001
4.0016999 -5.1852002 -0.93159997
2.2228999 -6.1787 -0.93400002
3.0613999 -5.3024998 -0.87089998
3.6312001 -5.1655002 -0.89810002
4.5458002 -5.3766999 -1.0015
2.431 -5.9155998 -1.0184
2.8484001 -5.4842 -0.98409998
4.777 -5.6503 -1.1782
4.1443 -5.3699999 -1.1961
2.3097999 -6.4201002 -1.2031
3.1227 -5.4085999 -1.1012
3.7224 -5.2951999 -1.1413
4.2824998 -5.5489998 -1.3564
2.3834 -6.6247001 -1.3625
2.7054999 -5.8301001 -1.2438
3.1731 -5.4959998 -1.2280999
3.7958 -5.3996 -1.2773
2.5803001 -6.2786999 -1.4311
2.9763999 -5.7305999 -1.3614
3.5184 -5.5114999 -1.3785
2.7579 -5.9429998 -1.3812
3.2272999 -5.5897999 -1.3607
3.3069999 -5.7277999 -1.5096
3.1566999 -6.0777001 -1.6834
2.9858999 -6.4345002 -1.7436
3.4189 -5.9215999 -1.6806999
