# .PCD v0.7 - Point Cloud Data file format
VERSION 0.7
FIELDS x y z
SIZE 4 4 4
TYPE F F F
COUNT 1 1 1
WIDTH 194
HEIGHT 1
VIEWPOINT 0 0 0 1 0 0 0
POINTS 194
DATA ascii
-0.067400001 -6.0464001 1.7013
0.45109999 -5.7725 1.6291
-0.33919999 -6.0825 1.6052001
0.69230002 -5.6215 1.4924001
-0.064300001 -5.7683001 1.52
0.43669999 -5.5888 1.4771
0.9698 -5.7491999 1.5362999
-0.32260001 -5.7846999 1.4241
0.67460001 -5.4775 1.3565
1.2414 -5.7772002 1.4524
0.93809998 -5.5615001 1.3863
-0.31459999 -5.6417999 1.2897
0.1802 -5.3888001 1.2306
0.66240001 -5.3779998 1.2368
1.2052 -5.6086001 1.3092999
-0.061000001 -5.4789 1.2506
0.41890001 -5.3610001 1.2273
1.5930001 -6.0804 1.4347
0.65060002 -5.2828002 1.1221
-0.059900001 -5.3792 1.1341
0.41170001 -5.2687998 1.1142
0.90109998 -5.3418002 1.1421
0.1751 -5.2381001 1.0142
0.64340001 -5.2238998 1.0186
-0.56760001 -5.6416998 1.0973001
0.40740001 -5.2142 1.0121
0.88880002 -5.2691998 1.0341001
1.462 -5.5805001 1.1164
-0.29949999 -5.3706002 0.94849998
0.1734 -5.1851001 0.91479999
1.1393 -5.302 0.9562
1.8455 -5.9492002 1.0983
0.87870002 -5.2090998 0.93150002
1.436 -5.4812999 0.99910003
-0.29589999 -5.3072 0.84640002
0.1716 -5.1335001 0.8179
0.63020003 -5.1170001 0.82099998
1.1262 -5.2410002 0.85360003
1.788 -5.7641001 0.96100003
0.39930001 -5.1103001 0.81620002
0.86879998 -5.1507001 0.83179998
1.4159 -5.4045 0.88959998
-0.29280001 -5.2511001 0.74809998
0.17030001 -5.0935998 0.72490001
0.62510002 -5.0755 0.7274
1.7422 -5.6163001 0.83639997
-0.54299998 -5.3972998 0.77160001
-0.057500001 -5.1573 0.73360002
0.3962 -5.0709 0.72350001
1.3965 -5.3302002 0.78369999
-0.8161 -5.5953999 0.70859998
-0.29100001 -5.2182002 0.65490001
0.16940001 -5.0665002 0.63529998
1.1073999 -5.1533999 0.66049999
1.7155 -5.5303001 0.7256
-0.53899997 -5.3575001 0.67479998
-0.057100002 -5.1285 0.64270002
0.39410001 -5.0440001 0.634
-0.28920001 -5.1859002 0.56339997
1.6987 -5.4759998 0.62190002
-0.53549999 -5.3232999 0.58029997
0.39210001 -5.0174999 0.54589999
0.85110003 -5.0454998 0.55500001
1.3747 -5.2472 0.58840001
-0.28740001 -5.1540999 0.47319999
0.16760001 -5.0135002 0.45989999
0.61500001 -4.9938002 0.46129999
1.0941 -5.0915999 0.4774
-0.056499999 -5.0723 0.465
0.38999999 -4.9913001 0.45899999
1.3648 -5.2096 0.4937
-0.28569999 -5.1244998 0.38460001
0.16689999 -4.9910998 0.37419999
1.6661 -5.3709998 0.42140001
-1.1184 -5.8344998 0.4452
0.3883 -4.9692001 0.37349999
2.1005001 -5.8383999 0.465
-0.79409999 -5.4445 0.32049999
-0.2852 -5.1146002 0.29840001
0.1666 -4.9829001 0.2904
1.0857 -5.0527 0.301
-1.1102 -5.7916002 0.34349999
-0.52770001 -5.2451 0.30700001
-0.0561 -5.0388999 0.29350001
0.38769999 -4.9611001 0.28979999
0.8409 -4.9853001 0.29449999
1.3514 -5.1582999 0.31060001
0.61009997 -4.954 0.2075
1.0836999 -5.0432 0.2145
1.6528 -5.3281002 0.23199999
-0.5266 -5.2347002 0.21879999
-0.056000002 -5.0302 0.20919999
0.38699999 -4.9528999 0.2066
0.83950001 -4.9769001 0.20990001
1.3484 -5.1468 0.2212
0.60909998 -4.9457002 0.1243
1.6479 -5.3123002 0.13869999
-0.52560002 -5.2244 0.1309
-0.0559 -5.0215998 0.1252
2.0541999 -5.7098999 0.1513
-0.78829998 -5.4047999 0.045400001
-0.28349999 -5.0851998 0.042300001
0.16580001 -4.9583998 0.041200001
-0.055799998 -5.013 0.041700002
0.3858 -4.9366999 0.041200001
1.3424 -5.1238999 0.044
2.0443001 -5.6820998 0.0502
-0.2836 -5.0854998 -0.042300001
0.6081 -4.9376998 -0.041299999
1.0797 -5.0246 -0.0427
-0.0559 -5.0132999 -0.041700002
0.3858 -4.9369998 -0.041200001
1.3425 -5.1241999 -0.044
1.0817 -5.0339999 -0.1284
1.648 -5.3126998 -0.13869999
-0.52560002 -5.2247 -0.131
-0.0559 -5.0219002 -0.1252
0.38640001 -4.9450002 -0.1237
-0.28470001 -5.105 -0.21259999
0.61019999 -4.9542999 -0.2076
1.0838 -5.0434999 -0.2145
0.38699999 -4.9531002 -0.2066
0.83950001 -4.9770999 -0.20990001
1.3485 -5.1471 -0.2212
2.0646 -5.7386999 -0.2536
-0.79409999 -5.4446998 -0.32049999
0.61119998 -4.9626002 -0.29120001
1.0858001 -5.0528998 -0.301
1.6579 -5.3446002 -0.32589999
-1.1102 -5.7919998 -0.34349999
0.38769999 -4.9612999 -0.28979999
0.84100002 -4.9856 -0.29449999
1.3515 -5.1587 -0.31060001
2.0748999 -5.7672 -0.35699999
-0.28569999 -5.1247001 -0.38460001
1.0879 -5.0625 -0.38800001
1.6665 -5.3723001 -0.4215
-0.52890003 -5.2575998 -0.396
-0.056200001 -5.0479002 -0.37830001
0.3883 -4.9695001 -0.37349999
1.3554 -5.1735001 -0.40079999
2.1012001 -5.8404002 -0.46509999
-0.28740001 -5.1550002 -0.47330001
0.61510003 -4.9945998 -0.46129999
1.0943 -5.0924001 -0.47749999
1.6826 -5.4242001 -0.52069998
-0.53219998 -5.2907 -0.48750001
0.8466 -5.0190001 -0.4666
1.3651 -5.2104998 -0.49380001
-0.28920001 -5.1868 -0.56349999
1.1009001 -5.1230998 -0.56840003
-0.53560001 -5.3242998 -0.58039999
1.375 -5.2481999 -0.58850002
-0.29100001 -5.2189999 -0.65499997
0.62180001 -5.0486999 -0.63749999
1.1076 -5.1543002 -0.66070002
1.716 -5.5317998 -0.72579998
-0.53909999 -5.3583999 -0.6749
-0.057100002 -5.1293001 -0.64279997
0.3942 -5.0447998 -0.63410002
0.85589999 -5.0739002 -0.64480001
1.385 -5.2866001 -0.68489999
-0.82800001 -5.6773 -0.8161
-0.29280001 -5.2519002 -0.7482
0.62519997 -5.0763001 -0.72750002
-0.057500001 -5.1581001 -0.73369998
-0.296 -5.3088999 -0.84670001
0.6304 -5.1184001 -0.82120001
-0.55110002 -5.4780002 -0.87669998
-0.057999998 -5.2037001 -0.82870001
-0.29960001 -5.3723001 -0.94880003
0.1734 -5.1866002 -0.91509998
1.1397001 -5.3035998 -0.95649999
1.8469 -5.9538002 -1.0992
-0.058600001 -5.2586999 -0.92729998
1.1540999 -5.3706002 -1.063
-0.0592 -5.3153 -1.0287
0.40759999 -5.2156 -1.0124
0.65090001 -5.2852001 -1.1226
-0.059999999 -5.3818002 -1.1346999
0.41190001 -5.2712002 -1.1147
0.90149999 -5.3445001 -1.1426001
1.513 -5.7751999 -1.2586
0.6627 -5.3804998 -1.2373
-0.061099999 -5.4815998 -1.2512
0.41909999 -5.3634 -1.2279
0.91960001 -5.4517999 -1.2618999
-0.3229 -5.7915001 -1.4258
0.18359999 -5.4923 -1.3508
0.6749 -5.48 -1.3572
1.2427 -5.7831001 -1.4539
0.42660001 -5.4596 -1.3461
0.9386 -5.5644002 -1.387
0.43700001 -5.5929999 -1.4783
