# .PCD v0.7 - Point Cloud Data file format
VERSION 0.7
FIELDS x y z
SIZE 4 4 4
TYPE F F F
COUNT 1 1 1
WIDTH 187
HEIGHT 1
VIEWPOINT 0 0 0 1 0 0 0
POINTS 187
DATA ascii
-0.3364 -6.0323 1.6999
-1.127 -5.8796 1.6844
-0.58710003 -5.8364 1.6504
-0.32179999 -5.7707 1.5229
-0.067299999 -6.0446 1.5928
-1.3305 -5.5830002 1.4107
0.21269999 -6.3607001 1.5642999
-1.0523 -5.4896002 1.3739001
-0.064300001 -5.7754998 1.4197
-0.7834 -5.3712001 1.2388999
-1.6155 -5.6499 1.3412
-0.54339999 -5.4015002 1.2391
-0.062899999 -5.6433001 1.2881
-1.98 -5.9141002 1.3148
-0.76990002 -5.2786999 1.1246001
-0.30050001 -5.3885999 1.1378
0.1929 -5.7705002 1.2172
-0.53380001 -5.3065 1.1244
-0.0616 -5.5310001 1.1661
-1.2559 -5.2701001 1.0484
-0.76139998 -5.2206998 1.021
-0.29679999 -5.3232999 1.0317
-1.5379 -5.3783998 1.0825
-1.0017 -5.2258 1.0297
-0.060699999 -5.4467001 1.0541
-1.8458 -5.5131001 1.0251
-0.29370001 -5.2677999 0.9303
-0.99110001 -5.1704998 0.92830002
-0.059999999 -5.3839002 0.94940001
-1.8158 -5.4233999 0.91070002
0.18350001 -5.4884 0.87440002
-1.4995 -5.2442002 0.86849999
-0.059300002 -5.3228998 0.8477
0.45120001 -5.7737002 0.92220002
-1.2154 -5.0999999 0.7457
0.18099999 -5.415 0.77060002
0.7464 -6.0604 0.76520002
-2.1475999 -5.5762 0.74879998
-0.96689999 -5.0444999 0.6437
-0.51010001 -5.0710001 0.63870001
-0.0583 -5.2368999 0.65630001
0.43740001 -5.5978999 0.70359999
-1.7571 -5.2480998 0.60030001
-1.2018 -5.0430002 0.56230003
-0.28510001 -5.1128998 0.55540001
0.17839999 -5.3369999 0.57920003
0.73479998 -5.9663 0.65200001
-0.50739998 -5.0439 0.5499
-0.057999998 -5.2056999 0.56470001
0.43419999 -5.5565 0.6045
-1.7436 -5.2077999 0.50349998
-0.72860003 -4.9959002 0.46290001
0.17739999 -5.3045998 0.48660001
0.72359997 -5.8754001 0.54269999
-0.95639998 -4.9893999 0.4657
-0.50480002 -5.0176001 0.4623
0.43099999 -5.5159001 0.5072
-1.7302999 -5.1680999 0.4084
-1.189 -4.9892001 0.38440001
-0.28220001 -5.0609002 0.37979999
0.1763 -5.2728 0.39539999
-1.4450001 -5.0532999 0.39390001
-0.95179999 -4.9651999 0.37889999
0.42789999 -5.4761 0.41159999
-1.7244999 -5.1508999 0.31639999
-0.72409999 -4.9649 0.2922
0.1759 -5.2618999 0.3066
-2.0648999 -5.3614001 0.3346
-1.442 -5.0429001 0.3055
-0.9501 -4.9566998 0.29390001
-0.50169998 -4.9865999 0.29190001
-1.7204 -5.1385999 0.2253
0.17560001 -5.2519002 0.2185
0.70889997 -5.7554998 0.2411
-1.4392 -5.033 0.2177
-0.50080001 -4.9784999 0.208
0.42550001 -5.4454002 0.2271
-1.7163 -5.1262999 0.1348
-1.1828001 -4.9633002 0.12720001
-0.72170001 -4.9485998 0.1247
-0.28080001 -5.0352998 0.1258
0.1753 -5.2420001 0.13079999
-2.0511999 -5.3257999 0.14229999
-0.057 -5.1176 0.1276
-2.5576 -5.8492999 0.053100001
-1.7122 -5.1141 0.044799998
-1.1808 -4.9547 0.042300001
-0.72060001 -4.9404998 0.041499998
0.70450002 -5.7203999 0.047899999
-2.0444 -5.3081002 0.0473
-0.49919999 -4.9622002 0.041499998
-0.056899998 -5.1082001 0.0425
-2.5589001 -5.8523002 -0.053100001
-1.7122999 -5.1145 -0.044799998
-0.72060001 -4.9408002 -0.041499998
-0.94529998 -4.9316001 -0.041700002
-0.49919999 -4.9625001 -0.041499998
-0.056899998 -5.1085 -0.0425
0.42359999 -5.4211998 -0.045200001
-2.6140001 -5.9784002 -0.1627
-0.28080001 -5.0355 -0.1258
0.1753 -5.2423 -0.13079999
0.70679998 -5.7384 -0.1442
-0.94690001 -4.9400001 -0.12540001
-0.057 -5.1178999 -0.1276
0.42460001 -5.4334002 -0.13590001
-0.28130001 -5.0440001 -0.2101
-2.0581999 -5.3439999 -0.23810001
-0.94849998 -4.9485002 -0.2095
-0.057100002 -5.1273999 -0.2132
-1.7247 -5.1513 -0.31639999
-1.187 -4.9808002 -0.29820001
-0.72409999 -4.9650998 -0.2922
0.1759 -5.2621999 -0.30669999
-1.4421 -5.0432 -0.3055
-0.50169998 -4.9868999 -0.29190001
-0.0572 -5.1368999 -0.2992
0.42649999 -5.4582 -0.31889999
-1.7307 -5.1693001 -0.40849999
-0.72530001 -4.9733 -0.3766
0.1763 -5.2737999 -0.39539999
0.71569997 -5.8108001 -0.43869999
-1.1954 -5.0159998 -0.4727
-0.72869998 -4.9966998 -0.46290001
-0.2836 -5.0862999 -0.46700001
0.17739999 -5.3056002 -0.4867
-2.1013999 -5.4561 -0.53600001
-0.95660001 -4.9903002 -0.46579999
-0.50489998 -5.0184999 -0.46239999
0.43110001 -5.5170999 -0.50730002
-1.7575001 -5.2493 -0.60039997
-2.1245 -5.5162001 -0.64120001
-0.96179998 -5.0176001 -0.55419999
-0.50749999 -5.0447998 -0.55000001
-0.057999998 -5.2066002 -0.56480002
0.43430001 -5.5577002 -0.60470003
-1.2088 -5.0721002 -0.6534
-0.73640001 -5.0495 -0.63950002
-0.28670001 -5.1416001 -0.64529997
0.74690002 -6.0640001 -0.76569998
-2.1482999 -5.5778999 -0.74900001
-1.4726 -5.1501002 -0.67129999
-0.96710002 -5.0453 -0.64380002
-0.51020002 -5.0718002 -0.63880002
0.4375 -5.5991001 -0.70380002
0.7748 -6.2909999 -0.9016
-2.2084999 -5.7343998 -0.87400001
-0.97250003 -5.0735002 -0.73479998
0.44319999 -5.6715999 -0.80919999
-0.29080001 -5.2154999 -0.83179998
0.18359999 -5.4906001 -0.87480003
-2.2958 -5.9608002 -1.0171
-0.51730001 -5.1419001 -0.8229
-0.059300002 -5.3246999 -0.84789997
0.45140001 -5.7767 -0.92269999
-1.8469 -5.5163002 -1.0257
-0.2938 -5.2694998 -0.93059999
-1.5183001 -5.3098998 -0.9738
-0.9914 -5.1722002 -0.92860001
-0.059999999 -5.3857002 -0.9497
0.46000001 -5.8864002 -1.0411
-1.2564 -5.2719998 -1.0488
0.18870001 -5.6448998 -1.0930001
-1.5386 -5.3806 -1.0829999
-1.002 -5.2273998 -1.03
-0.528 -5.2487001 -1.0208
0.47299999 -6.0528998 -1.1749001
-1.9839 -5.9256001 -1.3174
-1.2762001 -5.3554001 -1.1605999
0.19310001 -5.7743001 -1.2180001
-0.5341 -5.3091998 -1.1249
-0.061700001 -5.5342002 -1.1668
-1.3031 -5.4678998 -1.283
-0.78380001 -5.3738999 -1.2395
-0.30610001 -5.4891 -1.2548
0.1988 -5.9447999 -1.3576
-1.6167001 -5.6539001 -1.3422
-0.54369998 -5.4043002 -1.2397
-1.3313 -5.5862002 -1.4116
-1.0528001 -5.4924998 -1.3746001
-0.55369997 -5.5035 -1.3595999
-1.3877 -5.8231001 -1.5773
-0.81849998 -5.6121001 -1.4944
-0.32210001 -5.7763 -1.5244
-0.067400001 -6.0517001 -1.5947
-0.84549999 -5.7968998 -1.6483001
-1.1296999 -5.8934002 -1.6883
