# .PCD v0.7 - Point Cloud Data file format
VERSION 0.7
FIELDS x y z
SIZE 4 4 4
TYPE F F F
COUNT 1 1 1
WIDTH 172
HEIGHT 1
VIEWPOINT 0 0 0 1 0 0 0
POINTS 172
DATA ascii
2.2599001 -6.2816 1.8783
1.6418 -6.2666001 1.707
2.0974 -5.8297 1.6325001
2.8789999 -6.2041001 1.8022
1.7883 -5.7649999 1.4836
2.3081999 -5.6166 1.4926
2.6373 -5.6833 1.54
1.7460001 -5.6285 1.3451
2.2500999 -5.4752998 1.3511
1.5196 -5.8003998 1.3686
1.2757 -5.9366999 1.2801
2.2093 -5.3759999 1.2253
2.8494 -5.4861002 1.3033
1.0779999 -6.3909001 1.3664
1.4903001 -5.6883001 1.2397
2.4976001 -5.3822999 1.2509
1.2469 -5.8024998 1.1485
2.777 -5.3467999 1.1659
1.9216 -5.3411999 1.0985
2.4474001 -5.2740002 1.1252
3.2420001 -5.6153998 1.2548
1.2275 -5.7124 1.0302
2.1480999 -5.2272 0.99650002
1.015 -6.0174999 1.076
1.9022 -5.2872 0.99080002
2.4175 -5.2097001 1.0127
1.2137001 -5.6479001 0.9199
2.1257999 -5.1728001 0.89050001
2.6963999 -5.1915998 0.93150002
0.99959999 -5.9263 0.95700002
1.8832 -5.2346001 0.8858
2.3919001 -5.1545 0.90490001
3.0683 -5.3144999 0.97719997
2.6644001 -5.1299 0.8222
3.5924001 -5.6273999 0.94959998
2.3670001 -5.1008 0.79979998
1.1903 -5.5394001 0.70999998
1.6259 -5.2413998 0.68769997
2.6400001 -5.0827999 0.71780002
3.4590001 -5.4184999 0.80559999
0.9752 -5.7813001 0.73470002
1.4047 -5.3617001 0.69459999
1.8535 -5.1518002 0.68610001
2.3501 -5.0643001 0.69959998
2.9819 -5.1648002 0.74739999
2.0788 -5.0584002 0.59320003
2.6233001 -5.0507002 0.61729997
3.4054 -5.3346 0.68650001
1.3971 -5.3326001 0.59789997
2.3369 -5.0359998 0.60219997
2.0674 -5.0307999 0.49860001
0.96160001 -5.7005 0.52999997
1.3896 -5.3039999 0.50269997
1.8341 -5.0978999 0.49669999
2.3239999 -5.0081 0.50620002
0.73720002 -5.9858999 0.45199999
1.1694 -5.4422002 0.41710001
2.5906999 -4.9879999 0.42120001
3.3315001 -5.2188001 0.46399999
0.52319998 -6.6959 0.50330001
2.3113 -4.9805999 0.41150001
2.9131999 -5.0458999 0.4366
0.73250002 -5.9471998 0.34900001
1.166 -5.4261999 0.3233
1.5966001 -5.1469998 0.31389999
2.5822001 -4.9716001 0.3263
3.3036001 -5.1750002 0.3576
0.95109999 -5.6382999 0.333
2.3053 -4.9678998 0.31900001
1.1639 -5.4162002 0.23029999
2.0480001 -4.9836001 0.22400001
2.5771 -4.9618001 0.2325
0.5072 -6.4910002 0.27070001
0.949 -5.6259999 0.23720001
1.8177 -5.0524001 0.2233
2.3013 -4.9593 0.2273
1.1617 -5.4061999 0.13789999
1.5913 -5.1297998 0.1339
2.0445001 -4.9751 0.13410001
1.3743 -5.2456002 0.13519999
2.2973001 -4.9506998 0.13609999
0.72619998 -5.8965001 0.049400002
1.5886 -5.1212001 0.044599999
3.2704999 -5.1230998 0.050500002
0.94489998 -5.6016002 0.047200002
2.5671 -4.9425998 -0.046300001
3.2706001 -5.1233001 -0.050500002
0.94489998 -5.6019001 -0.047200002
1.372 -5.237 -0.045000002
1.8118 -5.0359998 -0.044500001
2.2934 -4.9422002 -0.045299999
2.8785999 -4.9858999 -0.047800001
0.72829998 -5.9136 -0.1486
1.1618 -5.4064002 -0.13789999
1.5913 -5.1299 -0.1339
2.0446 -4.9752002 -0.13410001
2.5720999 -4.9523001 -0.1392
3.2816 -5.1405001 -0.1521
0.94700003 -5.6139998 -0.142
1.3743 -5.2456999 -0.13519999
2.2974 -4.9507999 -0.13609999
0.73040003 -5.9303999 -0.2484
1.594 -5.1385002 -0.2237
2.0481 -4.9836998 -0.22400001
2.5771999 -4.9619999 -0.2325
0.5072 -6.4913001 -0.27070001
2.8924 -5.0098 -0.2405
1.5966001 -5.1471 -0.31389999
3.3038001 -5.1753001 -0.3576
0.95109999 -5.6384001 -0.333
1.3789999 -5.2634001 -0.31690001
1.8207 -5.0608001 -0.31330001
2.8994 -5.0219002 -0.33770001
0.73729998 -5.9868002 -0.45199999
1.1696 -5.4426999 -0.4172
1.6003 -5.1588001 -0.4048
1.3823 -5.2763 -0.40869999
0.74409997 -6.0418 -0.55809999
2.6071 -5.0195999 -0.51849997
1.3897001 -5.3045001 -0.50269997
1.8342 -5.0984001 -0.49669999
2.9360001 -5.0854001 -0.53829998
0.75099999 -6.0981002 -0.66640002
1.1834 -5.507 -0.611
1.6173 -5.2138 -0.59210002
3.4059999 -5.3354001 -0.68660003
1.3972 -5.3330998 -0.59799999
2.3371 -5.0363998 -0.60219997
2.9589 -5.125 -0.6419
0.75880003 -6.1613998 -0.778
1.626 -5.2417998 -0.68779999
2.0904 -5.0868001 -0.68919998
3.4607 -5.4211001 -0.80599999
1.8536 -5.1522002 -0.68620002
2.9823 -5.1654 -0.7475
1.6364 -5.2753 -0.78560001
2.6649001 -5.1307998 -0.82239997
3.0232 -5.2363 -0.86000001
0.79659998 -6.4682999 -1.0378
1.2139 -5.6487999 -0.92000002
2.1261001 -5.1736002 -0.89069998
0.99980003 -5.9274001 -0.95719999
1.8835 -5.2354002 -0.88599998
2.3922999 -5.1553001 -0.90499997
3.0689001 -5.3154998 -0.9774
1.6698 -5.3829002 -0.99379998
2.1485 -5.2280002 -0.99669999
1.4456 -5.5180001 -1.0058
2.4179001 -5.2104001 -1.0128
3.1276 -5.4171 -1.1029
1.2473 -5.8044 -1.1489
2.1715 -5.2839999 -1.1055
1.0431 -6.1838002 -1.2136
1.9219 -5.342 -1.0986
3.2435999 -5.6181002 -1.2553999
1.7157 -5.5310001 -1.2208
2.8504 -5.4879999 -1.3037
1.4907 -5.6898999 -1.24
2.9421 -5.6645999 -1.4569
1.52 -5.8018999 -1.3688999
1.9876 -5.5246 -1.3401
1.3785 -6.4151001 -1.6128
1.7891001 -5.7674999 -1.4843
2.3092 -5.6191001 -1.4931999
1.5657001 -5.9762001 -1.5185
2.0339 -5.6535001 -1.4768
2.6386001 -5.6859999 -1.5408
2.3868999 -5.8081002 -1.6546
1.6440001 -6.2749 -1.7092
2.0982001 -5.8320999 -1.6332
2.8892 -6.2261 -1.8085999
2.2809 -6.3400002 -1.8957
