# .PCD v0.7 - Point Cloud Data file format
VERSION 0.7
FIELDS x y z
SIZE 4 4 4
TYPE F F F
COUNT 1 1 1
WIDTH 131
HEIGHT 1
VIEWPOINT 0 0 0 1 0 0 0
POINTS 131
DATA ascii
3.9992001 -6.2646999 1.8269
4.5464001 -5.8909001 1.6984
3.5766001 -6.1949 1.6327
4.3414001 -5.6254001 1.498
3.9755001 -5.6552 1.4572999
3.6206999 -5.6717 1.3022
4.2227998 -5.4716001 1.3375
3.0741 -6.6245999 1.4133
3.892 -5.5363998 1.3096
4.6673002 -5.5205002 1.399
3.1357 -6.0373998 1.1996
2.9916 -6.4467001 1.2531
3.8262 -5.4429002 1.1731
4.5485001 -5.3800001 1.2422
2.8749001 -6.9956002 1.2043999
3.0876999 -5.9449 1.0667
5.0156999 -5.4229002 1.1763
3.2892001 -5.6971002 1.0475
3.4816 -5.4538999 0.92030001
4.0351 -5.2284002 0.93940002
4.8800998 -5.2763 1.0223
3.2565999 -5.6405001 0.92640001
3.7393999 -5.3193998 0.9249
4.3901 -5.1925998 0.96719998
2.7079 -6.5893998 0.89279997
3.0223 -5.8189998 0.82169998
3.9932001 -5.1740999 0.81900001
3.2247 -5.5853 0.8082
3.7030001 -5.2676001 0.80690002
4.3378 -5.1307001 0.84200001
2.6647999 -6.4843998 0.7604
4.7177 -5.1006999 0.7536
2.8150001 -6.0661001 0.72539997
2.6424999 -6.4301 0.63730001
2.9812 -5.7399001 0.59299999
3.9401 -5.1052999 0.59119999
4.6799998 -5.0599999 0.63190001
2.6654999 -7.4088001 0.72180003
3.1854 -5.5173001 0.58410001
3.6582999 -5.204 0.58319998
4.2679 -5.0481 0.60600001
2.6206 -6.3768001 0.51670003
2.7781999 -5.987 0.4946
5.2540998 -5.1959 0.55379999
2.9497001 -5.6791 0.37270001
2.5105 -6.9780998 0.43189999
3.6231999 -5.1539998 0.3669
4.2160001 -4.9867001 0.38029999
2.9444001 -5.6690001 0.2656
3.369 -5.2775002 0.26030001
3.8922999 -5.0433998 0.2649
4.5942998 -4.9671998 0.28130001
2.4856 -6.9088001 0.3053
2.7555001 -5.9380002 0.27219999
4.2075 -4.9766998 0.271
2.5846 -6.2893 0.1696
3.8855 -5.0345998 0.1586
4.5829 -4.9549999 0.1683
2.4761 -6.8822999 0.1824
3.1441 -5.4457002 0.1568
5.1247001 -5.0679002 0.1797
2.5778999 -6.2730999 0.056400001
4.5716 -4.9428 0.056000002
2.4665999 -6.8561001 0.060600001
3.1389 -5.4366999 0.052200001
2.5780001 -6.2730999 -0.056400001
2.9339001 -5.6487999 -0.052900001
3.8787 -5.0257001 -0.0528
2.7442999 -5.9137001 -0.054200001
3.1389 -5.4366999 -0.052200001
3.3635001 -5.2687998 -0.1559
2.4760001 -6.8821001 -0.1824
2.7498 -5.9257998 -0.1629
3.6112001 -5.1370001 -0.1566
4.1991 -4.9667001 -0.1622
2.5913 -6.3055 -0.28349999
3.8922 -5.0433002 -0.2649
2.4854 -6.9084001 -0.3053
2.7555001 -5.9379001 -0.27219999
3.6171 -5.1454 -0.2615
2.599 -6.3242998 -0.39820001
3.8991001 -5.0521998 -0.37169999
4.2158999 -4.9865999 -0.38029999
5.1712999 -5.1139998 -0.42359999
2.6204 -6.3765001 -0.51660001
2.9642999 -5.7073002 -0.48199999
3.3892 -5.309 -0.472
4.6427999 -5.0197001 -0.51239997
2.7781 -5.9867001 -0.4946
3.1686001 -5.4881001 -0.47490001
4.2407999 -5.0159998 -0.49219999
2.6422999 -6.4295998 -0.63730001
2.9811001 -5.7396002 -0.59289998
3.4068 -5.3367 -0.58039999
2.7962999 -6.0258002 -0.60900003
3.1853001 -5.5170002 -0.58399999
3.6580999 -5.2038002 -0.58319998
4.2677002 -5.0479002 -0.60600001
4.7174001 -5.1004 -0.7536
2.7075 -6.5883999 -0.8926
3.0221 -5.8186998 -0.82169998
2.8439 -6.1283998 -0.8466
4.3374 -5.1303 -0.84189999
3.4814 -5.4534998 -0.92030001
4.8794999 -5.2756 -1.0221
2.8792 -6.2045002 -0.97289997
3.2563 -5.6401 -0.92629999
3.7391 -5.3189001 -0.92479998
4.3895998 -5.1921 -0.96710002
2.8734 -6.9919 -1.2036999
5.0142002 -5.4212999 -1.1759
2.9156001 -6.2828999 -1.1029
3.7763 -5.3719001 -1.0456001
4.4433999 -5.2557001 -1.0959001
4.1388998 -5.3628998 -1.1945
3.3326001 -5.7722998 -1.1753
3.8257 -5.4422002 -1.173
4.5476999 -5.3790002 -1.242
4.2221999 -5.4707999 -1.3372999
3.3901 -5.8717999 -1.3121001
3.8915 -5.5356998 -1.3095
4.6664 -5.5194998 -1.3987
3.2958 -6.3456001 -1.5075001
3.6905 -5.7810001 -1.4459
4.3403001 -5.6238999 -1.4977
3.9747 -5.6540999 -1.4571
5.0384998 -5.9594998 -1.6452
3.4853001 -6.7104001 -1.7259001
4.5430999 -5.8867002 -1.6971999
4.0995002 -5.8316002 -1.627
3.9972999 -6.2617002 -1.826
