# .PCD v0.7 - Point Cloud Data file format
VERSION 0.7
FIELDS x y z
SIZE 4 4 4
TYPE F F F
COUNT 1 1 1
WIDTH 71
HEIGHT 1
VIEWPOINT 0 0 0 1 0 0 0
POINTS 71
DATA ascii
8.2356005 2.4545 1.0769
7.895 2.7414999 0.90649998
8.0029001 2.3850999 0.90579998
8.0840998 2.0220001 0.764
7.7406001 2.6877999 0.75120002
7.8432002 1.9617 0.4709
7.5409002 2.6185 0.46489999
7.6237001 3.4351001 0.48699999
7.4712 2.5943 0.32879999
7.5198002 3.3882999 0.34290001
7.5767002 2.2581 0.32870001
7.7030001 1.9267 0.198
7.448 3.3559 0.20370001
8 1.6260999 0.2036
7.3850002 2.9391999 0.1982
7.7406998 3.9115 0.2163
7.4829998 2.2302001 0.064900003
7.6573 3.8694 0.0713
8.3722 1.3164999 -0.0704
7.6210999 1.9062001 -0.065300003
7.3543 3.3137 -0.067000002
7.3041 2.9070001 -0.065300003
7.5756998 3.8282001 -0.070500001
7.6059999 1.9024 -0.1955
7.8723998 1.6001 -0.20029999
7.2891002 2.901 -0.1956
7.5472999 3.8138001 -0.21089999
8.3198996 1.3083 -0.3502
7.8569999 1.597 -0.33340001
7.4186001 2.211 -0.32190001
7.276 2.8958001 -0.3256
7.5212002 3.8006001 -0.3504
7.5875001 1.8978 -0.45550001
7.3081002 2.5376 -0.4506
7.3185 3.2976 -0.4675
7.8533001 1.5962 -0.4668
7.4129 2.2093 -0.45050001
7.2708998 2.8936999 -0.4558
7.5222001 3.8011999 -0.49090001
7.6004 1.901 -0.58710003
7.3200002 2.5418 -0.58069998
7.3333998 3.3043001 -0.60280001
7.5486002 3.8145001 -0.63380003
8.3789997 1.3176 -0.77759999
7.6132998 1.9042 -0.71950001
7.3320999 2.546 -0.71160001
7.2965002 2.904 -0.72000003
7.5830998 3.8318999 -0.77890003
8.4617996 1.3305 -0.92909998
7.6471 1.9127001 -0.85500002
7.3615999 2.5562 -0.84530002
7.6705999 3.8761001 -0.93220001
8.5767002 1.3486 -1.0880001
7.4008002 2.5697999 -0.98180002
7.4411001 3.3527999 -1.0228
7.9916 1.6244 -1.022
7.5058999 2.237 -0.98150003
7.3720002 2.934 -0.99430001
7.7448001 1.9371001 -1.1355
7.4488001 2.5864999 -1.1216
7.5541 2.2514 -1.1212
7.8288999 1.9582 -1.2851
8.1927004 1.6652 -1.3312
7.6286001 2.2736001 -1.2675
7.8035998 3.5160999 -1.5092
8.3730001 1.7019 -1.5066
8.0955 2.0248001 -1.6149
7.7371001 2.6866 -1.585
8.2370005 3.7114 -1.7483
8.7894001 1.7865 -1.7357
7.8428998 2.3374 -1.5836999
