# .PCD v0.7 - Point Cloud Data file format
VERSION 0.7
FIELDS x y z
SIZE 4 4 4
TYPE F F F
COUNT 1 1 1
WIDTH 86
HEIGHT 1
VIEWPOINT 0 0 0 1 0 0 0
POINTS 86
DATA ascii
7.9710999 1.9937 1.1687
7.6977 2.2941999 1.0066
7.4693999 2.5936999 0.72490001
8.1995001 0.91720003 0.75639999
7.5911002 1.1937 0.57590002
7.2494998 2.1605999 0.56690001
7.6473999 3.0436001 0.61680001
7.8319001 0.8761 0.45899999
7.3116002 1.4861 0.4346
7.4617 2.9697001 0.4677
8.4792995 0.56760001 0.35339999
7.4256001 1.1676 0.3125
7.1392999 1.7855999 0.30599999
7.7319002 0.86489999 0.32350001
7.2421999 1.472 0.3073
7.1048002 2.1173999 0.30829999
7.0921998 1.7739 0.1823
7.0973001 2.4644001 0.1874
7.6561999 0.85650003 0.1921
7.1922002 1.4619 0.183
7.2658 2.8917 0.19499999
7.3243999 1.1517 0.0616
7.0528002 2.4489999 0.062100001
7.7564001 3.4949 0.070699997
7.1542001 1.4542 0.060699999
8.0173998 0.53670001 -0.066799998
7.2817001 1.145 -0.061299998
7.013 2.4352 -0.061700001
7.6058002 3.427 -0.069300003
6.9842 2.0815001 -0.060600001
7.1522002 2.8464999 -0.064000003
7.5560002 3.4045999 -0.2067
7.1026001 1.4437 -0.1807
6.9706001 2.0775001 -0.1814
6.9857001 2.4256999 -0.3075
7.5086999 3.3833001 -0.34240001
7.0903001 1.4412 -0.3008
7.1138 2.8311999 -0.3184
7.9619002 0.53299999 -0.4648
7.2417998 1.1387 -0.42699999
7.5033998 0.83939999 -0.43970001
6.9493999 2.0711 -0.42230001
7.1051002 2.8278 -0.4454
7.2554002 1.1409 -0.55040002
7.0921001 1.4414999 -0.54229999
8.0108995 0.5363 -0.73610002
7.0085001 1.7529 -0.66229999
7.0019999 2.4312999 -0.67949998
7.5373998 0.84320003 -0.69529998
7.1041002 1.444 -0.66460001
6.9724002 2.0780001 -0.667
8.1126003 0.5431 -0.88190001
7.2944002 1.147 -0.80089998
7.0265999 1.7575001 -0.78560001
7.0261998 2.4398 -0.80680001
7.8755002 3.5485001 -0.93690002
6.9919 2.0838001 -0.7913
8.2407999 0.5517 -1.035
7.3390002 1.154 -0.93099999
7.0636001 1.7667 -0.91240001
7.0702 2.4549999 -0.93790001
7.6321001 0.8538 -0.96240002
7.1630001 1.4559 -0.91600001
7.0293999 2.095 -0.9192
7.1011 1.7761 -1.0411
7.1173 2.4714 -1.0716
7.6964002 0.861 -1.1015
7.0674 2.1063001 -1.0489
7.1613998 1.7912 -1.1755
7.2677002 1.4772 -1.181
7.1324 2.1257 -1.1851
7.4419999 2.9618001 -1.2754
7.2329998 1.8091 -1.3147
7.2101998 2.1489 -1.3266
7.6638999 3.0502 -1.4543999
7.6876001 1.2088 -1.506
7.3306999 1.8335 -1.4622999
8.2428999 0.92210001 -1.6051
7.4503999 1.5143 -1.4713
7.3214998 2.1819999 -1.4784
7.8736 1.2381001 -1.6803
7.4555001 1.8647 -1.6202
7.6820002 2.6675 -1.7144001
7.4586 2.2228999 -1.6408
7.6591001 1.9157 -1.802
7.6959 2.2936001 -1.8329
