# .PCD v0.7 - Point Cloud Data file format
VERSION 0.7
FIELDS x y z
SIZE 4 4 4
TYPE F F F
COUNT 1 1 1
WIDTH 72
HEIGHT 1
VIEWPOINT 0 0 0 1 0 0 0
POINTS 72
DATA ascii
8.7397003 3.0346999 1.1594
8.7988997 2.6222999 0.99589998
8.2765999 3.2939999 0.96619999
8.0776997 3.6396 0.81220001
8.3936996 4.2414999 0.86220002
8.8961 2.2251 0.68720001
8.1072998 2.8152001 0.64310002
8.0932999 4.0897002 0.67949998
8.2558002 2.4605 0.50169998
8.5595999 2.1408999 0.3669
8.3787003 4.7138 0.39969999
8.1681995 2.4344001 0.35440001
7.8223 3.9528 0.3644
8.4612999 2.1163001 0.2175
7.8704 2.7328999 0.2078
7.6834002 3.4619999 0.2102
8.0925999 2.4119 0.2106
7.7304001 3.9064 0.21600001
7.6412001 3.4430001 0.069700003
7.6968002 3.0632999 0.068899997
8.3423004 2.0866001 -0.071500003
7.7905002 2.7052 -0.068499997
7.5995998 3.4242001 -0.069300003
7.6339002 3.8576 -0.071099997
8.3209 2.0811999 -0.2139
7.7754998 2.7 -0.2053
7.5839 3.4171 -0.20739999
8.9250002 1.8141 -0.2271
7.6426001 3.0416999 -0.2051
8.3016005 2.0764 -0.3558
7.7624998 2.6954 -0.34169999
7.5703001 3.411 -0.3452
7.9726 2.3761001 -0.3459
7.6005998 3.8408 -0.35409999
8.3029003 2.0767 -0.49849999
7.5688 3.4103 -0.4835
7.9713001 2.3757 -0.48449999
7.6275001 3.0357001 -0.4781
7.6012001 3.8410001 -0.49599999
8.9412003 1.8174 -0.68370003
7.9847999 2.3796999 -0.62440002
7.6163998 3.8487 -0.63950002
8.3479004 2.0880001 -0.78890002
7.5955 3.4224 -0.76380002
7.9047999 4.4471998 -0.83149999
7.9991999 2.3840001 -0.76520002
7.6522999 3.0455 -0.75510001
8.4090996 2.1033001 -0.94019997
7.8246999 2.717 -0.89840001
7.6382999 3.4416001 -0.90869999
8.0431995 2.3971 -0.91030002
7.6911998 3.0610001 -0.89789999
8.4727001 2.1192 -1.0944999
8.0913 2.4115 -1.058
8.5907001 2.1487 -1.2595
7.9313002 2.7541001 -1.1942
7.7540002 3.4937999 -1.2097
7.7965999 3.1029999 -1.1936001
7.8485999 3.9661 -1.2508
8.7587004 2.1907001 -1.4377
8.0094995 2.7811999 -1.3501
7.8369002 3.5311 -1.3687
7.8740001 3.1338 -1.3494999
7.9801998 4.0325999 -1.4238
9.0981998 2.2756 -1.6537
8.1264 2.8218 -1.5168
7.9896002 3.1798 -1.5163
8.2270002 4.1573 -1.6253
8.1749001 3.6833999 -1.7352
8.6435003 2.5761001 -1.7454
8.1398001 3.2395999 -1.6954
8.3931999 3.3404 -1.9044
