# .PCD v0.7 - Point Cloud Data file format
VERSION 0.7
FIELDS x y z
SIZE 4 4 4
TYPE F F F
COUNT 1 1 1
WIDTH 208
HEIGHT 1
VIEWPOINT 0 0 0 1 0 0 0
POINTS 208
DATA ascii
4.5479002 -1.3554 1.0832
4.3666 -1.9675 1.0931
4.2593002 -2.1522999 1.0061001
4.3835001 -1.3063999 0.96429998
4.2658 -1.4812 0.95200002
4.5770001 -1.1447999 0.9946
4.7059999 -0.95649999 0.92930001
4.0598001 -1.8292 0.8617
4.1483998 -1.4405 0.84979999
4.4226999 -1.1062 0.8822
4.0084 -1.5953 0.76069999
4.1708999 -1.2431 0.76740003
4.0739002 -1.4146 0.7604
4.3102999 -1.0781 0.7834
5.0830002 -0.79930001 0.9073
4.1745 -2.5999 0.78310001
3.9426999 -1.5692 0.67570001
4.4155002 -0.89749998 0.71749997
4.0084 -1.3918999 0.67570001
4.7501998 -0.74699998 0.76569998
4.0214 -2.5046 0.67390001
4.0324998 -1.2018 0.59850001
3.8469999 -1.7334 0.6002
3.9452 -1.3699 0.59399998
4.1518002 -1.0384001 0.60869998
4.5953999 -0.72259998 0.66170001
3.8347001 -1.5262001 0.51719999
3.8141 -2.1458001 0.54839998
3.9003 -1.3543 0.51740003
4.4853001 -0.70529997 0.56900001
3.8359001 -2.3889999 0.49020001
3.7504001 -1.8952 0.4558
3.7974 -1.5113 0.44330001
3.9432001 -1.1752 0.4463
4.2080998 -0.85530001 0.46579999
4.7778001 -0.5345 0.52149999
3.7105999 -1.8751 0.3811
3.7176001 -2.0915 0.39109999
3.7268 -1.6792001 0.37470001
4.0145998 -1.0041 0.37940001
4.3579001 -0.68529999 0.40439999
3.7302999 -2.3232 0.32929999
3.7255001 -1.4827 0.30050001
4.1135998 -0.83609998 0.31459999
4.5858998 -0.51300001 0.34580001
3.8654001 -2.6533999 0.3513
4.2972002 -0.67570001 0.32600001
3.6873 -2.2964001 0.25299999
3.6989 -1.4721 0.23190001
3.8375001 -1.1437 0.2332
4.0752001 -0.8283 0.2422
4.4974999 -0.50309998 0.26359999
3.6640999 -1.651 0.2341
3.7644 -1.3071001 0.2321
3.9438 -0.98640001 0.2368
3.6796999 -1.4645 0.1647
4.0502 -0.82319999 0.1718
4.4612999 -0.4991 0.1867
3.7627001 -2.5829 0.18979999
3.6217999 -2.0376 0.1728
3.9224 -0.98110002 0.1681
3.6356001 -2.2643001 0.1068
3.6607001 -1.4569 0.098300003
4.0256 -0.81830001 0.1024
4.4260998 -0.49520001 0.1111
3.7272999 -2.5585999 0.1127
3.7261 -1.2938 0.098399997
4.1866999 -0.65829998 0.1057
3.6104 -2.2486 0.035399999
3.5794001 -1.8087 0.033300001
3.6419001 -1.4493999 0.032600001
3.7767 -1.1256 0.0328
3.5797 -2.0139 0.0341
3.6071 -1.6253 0.032900002
3.7072999 -1.2873 0.032600001
3.8803999 -0.97060001 0.033199999
3.8745 -2.9219 -0.0403
3.5855 -2.2330999 -0.035100002
3.7569001 -1.1197 -0.032600001
3.9772999 -0.80839998 -0.0337
3.5885 -1.6169 -0.032699998
3.6886001 -1.2808 -0.032499999
3.8597 -0.96539998 -0.033100002
4.1349001 -0.65020001 -0.0348
3.612 -1.4376 -0.096900001
4.3388 -0.48539999 -0.1089
3.6408 -2.4993 -0.1101
3.6773 -1.2769001 -0.097099997
3.8473001 -0.9623 -0.098899998
3.8271999 -2.8862 -0.19930001
3.5638001 -2.2195001 -0.17460001
3.7385001 -1.1142 -0.1622
3.9554 -0.80400002 -0.16779999
3.5713999 -1.6092 -0.1629
3.6712999 -1.2747999 -0.16159999
4.1118002 -0.64649999 -0.17309999
3.5557001 -2.2145 -0.244
3.5343001 -1.786 -0.2306
3.7321 -1.1123 -0.22679999
3.5339 -1.9881999 -0.2362
3.5653999 -1.6065 -0.2278
4.6507001 -0.31130001 -0.27149999
3.7893 -2.8577001 -0.35569999
3.5476999 -2.2095001 -0.3132
3.5940001 -1.4304 -0.2899
3.7258 -1.1104 -0.2913
3.608 -2.4767001 -0.32800001
3.5272999 -1.9844 -0.30329999
4.0953999 -0.64399999 -0.3107
4.6339002 -0.31020001 -0.34799999
3.5213001 -1.7794 -0.3617
3.7193999 -1.1085 -0.3558
3.6533 -1.2686 -0.3545
4.0871 -0.64270002 -0.3793
3.5201001 -1.7788 -0.4278
3.5852001 -1.4269 -0.41850001
3.9322 -0.79930001 -0.43520001
3.5513 -1.6002001 -0.42250001
3.6506 -1.2676001 -0.4192
3.5517001 -2.2119999 -0.52429998
3.7233 -1.1097 -0.4869
3.9401 -0.80089998 -0.50389999
3.5280001 -1.9848 -0.50730002
3.5574 -1.6029 -0.48899999
3.6566 -1.2697001 -0.4851
3.8259001 -0.95700002 -0.49419999
4.0984001 -0.64450002 -0.51990002
4.6620998 -0.31209999 -0.5855
3.5974 -1.4317 -0.55070001
3.9481001 -0.80250001 -0.57300001
3.6303 -2.4920001 -0.62629998
3.5634999 -1.6056 -0.55589998
4.1069999 -0.64579999 -0.59130001
4.6802001 -0.31330001 -0.66720003
3.5680001 -2.2221999 -0.66930002
3.6034999 -1.4342 -0.61760002
3.9561 -0.80409998 -0.64279997
3.5696001 -1.6084 -0.62339997
3.5465 -1.7921 -0.70069999
3.743 -1.1155 -0.68870002
3.9642 -0.80580002 -0.71329999
3.5483999 -1.9963 -0.71789998
3.6752 -1.2762001 -0.68599999
4.7631001 -0.31889999 -0.84170002
3.5595 -1.7987 -0.77179998
3.6180999 -1.4400001 -0.7536
3.7528 -1.1185 -0.75779998
3.9828999 -0.8096 -0.78649998
4.3985 -0.4921 -0.85650003
3.7054999 -2.5437 -0.86979997
3.8592999 -0.96530002 -0.76980001
3.6322999 -2.2622001 -0.90210003
3.5818999 -1.8099999 -0.84609997
4.4380002 -0.49649999 -0.94139999
3.7456 -2.5711999 -0.95779997
3.5888 -2.0190001 -0.86809999
3.8822 -0.97100002 -0.84369999
5.0103002 -0.33539999 -1.0585999
3.6046 -1.8214999 -0.92180002
3.6594999 -1.4564 -0.89899999
3.7251999 -1.2934999 -0.90009999
4.2094998 -0.66189998 -0.97259998
3.6807001 -1.4649 -0.97369999
4.0655999 -0.82639998 -1.0197999
3.8622 -2.6512001 -1.1515
3.6484001 -1.6439 -0.98360002
3.7465999 -1.301 -0.97479999
3.9294 -0.98280001 -0.99559999
3.7491 -2.335 -1.1638
3.6538 -1.8463 -1.0786999
3.7024 -1.4735 -1.05
3.8432 -1.1454 -1.0567
4.0021 -2.7472999 -1.2790999
3.6705999 -2.0650001 -1.1098
3.9542999 -0.98909998 -1.0741
4.3126001 -0.67809999 -1.1503
4.0016999 -1.0009 -1.1605999
4.3899999 -0.69029999 -1.2503
3.7486999 -1.8943 -1.2574
3.7825999 -1.5053999 -1.2187999
3.9310999 -1.1716 -1.2280999
4.2196999 -0.85769999 -1.2891001
3.7802 -2.1266999 -1.2984999
3.8487 -1.3364 -1.2197
4.0507002 -1.0132 -1.25
4.4710002 -0.70300001 -1.355
4.0777998 -2.5397 -1.5257
3.8275001 -1.5233001 -1.3083
4.2873001 -0.8714 -1.3894
3.8557 -2.1691999 -1.405
3.7983999 -1.7115 -1.3231
3.8935001 -1.352 -1.3089
4.6184001 -0.72619998 -1.4847
3.8821001 -1.9617 -1.4614
3.8841 -1.5458 -1.4045
4.0450001 -1.2055 -1.4181
3.8612001 -1.7398 -1.4229
3.9500999 -1.3716 -1.4049
4.1813002 -1.0458 -1.4481
3.9690001 -1.5796 -1.5147001
4.5732002 -0.9296 -1.6548001
4.2930002 -1.0738 -1.5691
4.1655002 -2.1048999 -1.7427
4.0588002 -1.6154 -1.6312
4.0513 -1.8254 -1.6593
4.4675002 -1.1174001 -1.7196
4.4466 -1.3252 -1.821
4.2996001 -1.493 -1.7862999
