# .PCD v0.7 - Point Cloud Data file format
VERSION 0.7
FIELDS x y z
SIZE 4 4 4
TYPE F F F
COUNT 1 1 1
WIDTH 163
HEIGHT 1
VIEWPOINT 0 0 0 1 0 0 0
POINTS 163
DATA ascii
6.1125002 -1.2424001 1.2071
5.7807002 -0.90890002 1.1324
5.8273001 -0.3901 1.1302
5.6817002 -1.1548001 1.0223
5.5489998 -0.6207 0.98449999
5.6114001 -0.37560001 0.99169999
5.5025001 -1.1184 0.89410001
5.4070001 -0.6049 0.8664
5.5932999 -0.1246 0.89090002
5.7361999 -1.4347 0.94150001
5.4154 -0.85149997 0.87290001
5.4619999 -0.36559999 0.87169999
5.8801999 0.1311 0.93660003
5.5376 -1.385 0.81190002
5.3172998 -0.83609998 0.76560003
5.7344999 -1.7091 0.74989998
5.2838998 -1.074 0.67570001
5.9277 0.39680001 0.74449998
5.4088998 -1.3528 0.69870001
5.2323999 -0.82270002 0.6638
5.2852001 -0.3538 0.6638
5.5588002 0.1239 0.69679999
5.2027998 -1.0575 0.57590002
5.165 -0.57779998 0.56370002
5.7297001 0.3836 0.62290001
5.2122002 -0.34889999 0.56660002
5.4524002 0.1215 0.59149998
5.1506 -1.0469 0.48190001
5.1167002 -0.57239997 0.472
5.6285 0.3768 0.51719999
5.2417998 -1.311 0.49540001
5.1117001 -0.80379999 0.47440001
5.0997 -1.0365 0.38999999
5.1824002 -1.2962 0.4003
5.0643001 -0.79629999 0.38420001
5.1148 -0.34240001 0.38420001
5.0497999 -1.0264 0.3001
5.0232 -0.56190002 0.29440001
5.6185002 -1.9509 0.34639999
5.8571 0.6552 0.34330001
5.2219 -1.5563 0.22660001
5.4095998 0.36210001 0.2254
4.9900999 -0.78460002 0.20999999
5.7592001 0.64429998 0.241
5.1820998 -1.5444 0.1349
5.4500999 -1.8925 0.14390001
5.0560002 -1.2646 0.13
4.9649 -0.78070003 0.12530001
5.1931 0.1157 0.1295
4.9461002 -0.55330002 0.0414
5.0572 -0.1127 0.041999999
5.3326001 0.35699999 0.044399999
5.0253 -1.2569 0.043099999
4.9400001 -0.77679998 0.0416
4.9888 -0.33399999 0.0416
5.1608 0.115 0.0429
5.6259999 0.62940001 0.0471
4.9215002 -0.55049998 -0.041200001
4.9949999 -1.2493 -0.042800002
4.9638 -0.33230001 -0.041299999
5.1311998 0.1144 -0.0427
5.5682001 0.62290001 -0.046599999
5.0928001 -1.5178 -0.13249999
4.9308 -1.0022 -0.12549999
5.0214 -0.1119 -0.12530001
4.9854002 -1.2469 -0.12819999
4.9074001 -0.77160001 -0.1239
4.9558001 -0.33180001 -0.1239
5.5534 0.62120003 -0.13940001
5.0806999 -1.5142 -0.22040001
4.9225001 -1.0005 -0.2089
4.9057999 -0.54879999 -0.2053
5.0128002 -0.1117 -0.2085
5.2990999 -1.84 -0.2332
4.8996 -0.77039999 -0.2062
4.9141998 -0.99879998 -0.29210001
5.0042 -0.1115 -0.2915
5.2670002 0.35260001 -0.3075
5.2810998 -1.8338 -0.3256
4.9664001 -1.2422 -0.29820001
4.8917999 -0.76920003 -0.28839999
4.9059 -0.99720001 -0.3752
4.8902998 -0.54710001 -0.36880001
5.2596002 0.35210001 -0.39500001
5.277 -1.8324 -0.41859999
4.8841 -0.76789999 -0.3705
5.0953002 0.1136 -0.38190001
5.073 -1.5118999 -0.4853
5.2968001 -1.8392 -0.514
4.967 -1.2423 -0.46939999
5.1048002 0.1138 -0.46810001
5.0862999 -1.5159 -0.57569999
4.9222002 -1.0005 -0.54479998
4.9042001 -0.54860002 -0.53530002
5.0123 -0.1117 -0.5438
5.2827001 0.35370001 -0.57429999
5.3168001 -1.8462 -0.61049998
4.9773998 -1.2449 -0.55650002
4.8983002 -0.77020001 -0.53780001
5.552 0.62110001 -0.60600001
4.9313002 -1.0023 -0.63059998
5.0215998 -0.1119 -0.62940001
5.3369999 -1.8532 -0.708
4.9068999 -0.77149999 -0.6225
4.9552002 -0.3317 -0.62239999
5.5678 0.62290001 -0.70209998
5.1240001 -1.5271 -0.76050001
4.9404998 -1.0042 -0.71710002
4.9212999 -0.55049998 -0.70429999
5.3154998 0.3558 -0.75770003
4.9154 -0.77289999 -0.70770001
4.9639001 -0.33230001 -0.7076
5.1356001 0.1145 -0.7306
5.6262999 0.62940001 -0.8053
5.1676002 -1.5401 -0.85860002
4.9677 -1.0096999 -0.80720001
5.3533001 0.35839999 -0.85439998
5.0342002 -1.2591 -0.82630002
4.9387999 -0.7766 -0.79610002
4.9877 -0.3339 -0.796
5.1690998 0.1152 -0.8233
5.2121 -1.5534 -0.95899999
4.9972 -1.0157 -0.89920002
4.9712 -0.55610001 -0.88200003
5.0893002 -0.1134 -0.8976
5.3961 0.3612 -0.95359999
5.0685 -1.2677 -0.92119998
4.9661999 -0.7809 -0.88639998
5.0155001 -0.33570001 -0.88630003
5.2048998 0.116 -0.91799998
5.2610998 -1.568 -1.0624
5.0272002 -1.0218 -0.99269998
4.9990001 -0.55919999 -0.9734
5.1034999 -1.2765 -1.018
5.0437999 -0.33759999 -0.97829998
5.2414999 0.1168 -1.0146
5.9225001 0.66259998 -1.1533
5.3505001 -1.5946 -1.177
5.5433002 0.37110001 -1.1713001
5.2995 0.1181 -1.1174999
5.4436998 -1.6224 -1.2965
5.1258001 -1.0419 -1.1939
5.0846 -0.56879997 -1.1677999
5.2284999 -1.3077 -1.2301
5.1325002 -0.3436 -1.1741
5.6415 -1.6813 -1.447
5.1861 -1.0541 -1.3008
5.2837 -0.1177 -1.2991
5.8051 0.38859999 -1.4301
5.1371002 -0.80779999 -1.2782
5.4473 0.1214 -1.3393
5.2052999 -0.58230001 -1.3802
5.3702998 -0.1197 -1.4154
5.2054 -0.81849998 -1.3885
5.2585001 -0.352 -1.3887
5.4843998 -0.1222 -1.5434
5.6108999 -1.4033999 -1.6273
5.3092999 -0.8348 -1.5121
5.3604999 -0.35879999 -1.5116
5.5757999 -1.1332999 -1.7034
5.6624999 -0.12620001 -1.6957
5.4812002 -0.3669 -1.6446
5.6526999 -0.88880002 -1.8173
