# .PCD v0.7 - Point Cloud Data file format
VERSION 0.7
FIELDS x y z
SIZE 4 4 4
TYPE F F F
COUNT 1 1 1
WIDTH 312
HEIGHT 1
VIEWPOINT 0 0 0 1 0 0 0
POINTS 312
DATA ascii
3.1629 -2.8606999 1.1999
3.0504 -2.3004 1.0749
3.3164001 -2.0655 1.0993
3.0174999 -2.494 1.1014
3.1475999 -2.1607001 1.0742
2.8536 -2.5810001 1.0139
2.9356999 -2.214 0.96890002
2.8731999 -2.3748 0.98220003
3.3405001 -1.8794 1.01
2.845 -2.1454999 0.87589997
3.0525999 -1.9012001 0.88389999
3.4561999 -1.7465 0.95179999
3.2190001 -1.811 0.90789998
2.7367001 -2.9588001 0.9199
2.7038 -2.2347 0.80059999
2.8669 -1.9680001 0.79369998
3.1210999 -1.7559 0.81739998
2.6082001 -2.359 0.7414
3.2296 -1.632 0.76289999
2.6547999 -2.1942999 0.72610003
3.0611 -1.7222 0.74049997
3.4704001 -1.5637 0.80250001
2.5599 -2.3153 0.66790003
2.6842999 -2.0244 0.65060002
2.8749001 -1.7905 0.65539998
3.1575 -1.5956 0.6846
2.5244 -2.4964001 0.68699998
2.7692001 -1.901 0.64999998
2.4607 -2.6603999 0.639
2.5136001 -2.2735 0.59759998
2.6399 -1.9909 0.583
2.5058 -2.9638 0.68430001
2.5660999 -2.1208999 0.58700001
2.9489999 -1.6591001 0.5966
2.4094999 -2.6052001 0.56510001
2.4797001 -2.2428 0.53240001
2.6104 -1.9687001 0.52060002
3.0486 -1.5405 0.54390001
2.4317999 -2.8764 0.59979999
2.4296 -2.4026999 0.54409999
2.6928999 -1.8486 0.5201
3.2282 -1.4546 0.56379998
2.3784001 -2.5715001 0.4982
2.4532001 -2.2188001 0.47049999
2.5847001 -1.9492 0.4605
3.0149 -1.5235 0.48050001
3.4094 -1.3569 0.5219
2.4030001 -2.3764 0.48069999
2.5112 -2.0755999 0.46340001
2.8773999 -1.6188 0.46959999
3.8010001 -1.3199 0.57230002
2.3480999 -2.5388 0.43340001
2.4273 -2.1954 0.41010001
2.5595 -1.9303 0.40169999
2.7386999 -1.7057 0.4043
2.3406 -2.7684 0.45429999
2.3771999 -2.3508 0.419
2.8468001 -1.6016001 0.4093
3.6875999 -1.2805001 0.4892
2.3415999 -3.0341001 0.41569999
2.3020999 -2.7228999 0.3867
2.6149001 -1.795 0.34400001
3.1046 -1.3989 0.36930001
3.5984001 -1.2495 0.41319999
2.2920001 -2.9698999 0.3439
2.6861999 -1.673 0.29010001
2.9191 -1.4751 0.29980001
2.2672 -2.6817 0.32190001
2.3273001 -2.3016 0.3001
2.2667 -2.4507 0.2502
2.3594 -2.1340001 0.2384
2.6675999 -1.6614 0.23549999
2.2407 -2.6503 0.26010001
2.7664001 -1.5563999 0.2379
3.0332 -1.3667001 0.2493
3.4727001 -1.2059 0.2755
2.2514999 -2.4342999 0.19310001
2.3462 -2.122 0.18430001
2.4812 -1.8712 0.18099999
2.3166001 -3.2953999 0.23459999
2.2251999 -2.632 0.2007
2.2951 -2.2697001 0.18799999
2.7507999 -1.5476 0.1838
3.0127001 -1.3575 0.1925
3.4361999 -1.1932 0.2119
2.2105999 -2.8643999 0.1504
2.4684999 -1.8616 0.1286
2.6400001 -1.6442 0.1293
2.8615 -1.446 0.13330001
2.2823999 -3.2467999 0.16500001
2.2098999 -2.6138999 0.14229999
2.3973 -1.9815 0.1293
2.7355001 -1.539 0.1305
2.9934001 -1.3487999 0.1365
2.3203001 -2.0985999 0.078000002
2.4559 -1.8521 0.076700002
2.6263001 -1.6357 0.077200003
2.8453 -1.4378 0.079499997
2.1947999 -2.5961001 0.084799998
2.5330999 -1.7388999 0.0766
2.9761 -1.341 0.0814
3.3726001 -1.1711 0.089000002
2.2075 -2.3866999 0.027000001
2.6129 -1.6273 0.025599999
3.6654 -1.0925 0.031800002
2.2170999 -3.1538999 0.032000002
2.1800001 -2.5785 0.028100001
2.5202 -1.7301 0.0254
2.707 -1.523 0.025800001
2.152 -2.7883999 -0.029300001
2.431 -1.8334 -0.0253
2.5996001 -1.6191 -0.0255
3.1097 -1.2377 -0.027799999
2.1859 -3.1094999 -0.031599998
2.3608 -1.9512 -0.0255
2.5074999 -1.7213 -0.0253
2.9419999 -1.3256 -0.026799999
3.3115001 -1.1499 -0.029100001
2.1394 -2.7722001 -0.087300003
2.4214001 -1.8261 -0.075599998
3.0943 -1.2315 -0.083099999
2.1671 -3.0827999 -0.093999997
2.6823001 -1.5091 -0.076800004
2.9293001 -1.3199 -0.0801
2.1331999 -2.7641001 -0.1452
2.2814 -2.0634999 -0.1279
2.4173999 -1.8231 -0.1259
2.5848999 -1.6099 -0.1266
2.7962999 -1.413 -0.1303
3.5713999 -1.0644 -0.155
2.1505001 -2.5436001 -0.13850001
2.2307 -2.2060001 -0.1304
3.2808001 -1.1393 -0.1444
2.1271 -2.7560999 -0.20280001
2.4133999 -1.8200999 -0.1761
2.5806 -1.6072 -0.1771
3.5602 -1.0611 -0.2164
2.1472001 -3.0545001 -0.2175
2.3436999 -1.9371001 -0.1771
2.9184 -1.3150001 -0.1864
3.2711999 -1.1359 -0.2017
2.1208999 -2.7481999 -0.26010001
2.2732999 -2.0560999 -0.2297
2.5762999 -1.6046 -0.22750001
2.141 -2.5323999 -0.2485
2.2226 -2.198 -0.2343
2.4851999 -1.706 -0.22589999
2.9130001 -1.3125 -0.2394
2.572 -1.6019 -0.27779999
2.7811 -1.4053 -0.28569999
3.0671 -1.2207 -0.3026
3.5379 -1.0544 -0.33840001
2.2186 -2.194 -0.2861
2.9075 -1.3101 -0.2924
3.2542 -1.13 -0.31580001
2.1087 -2.7323 -0.37439999
2.1616001 -2.3371 -0.34529999
2.2651999 -2.0488 -0.33129999
2.4015 -1.8111 -0.3263
2.5678 -1.5992 -0.3281
3.0603001 -1.2180001 -0.35730001
2.2145 -2.1900001 -0.3378
2.332 -1.9275 -0.32820001
2.477 -1.7004 -0.32589999
2.9021001 -1.3077 -0.34529999
3.2467 -1.1274 -0.37279999
2.1094 -2.7333 -0.43270001
2.5634999 -1.5966001 -0.37850001
3.5369 -1.0541 -0.46250001
2.1278999 -3.027 -0.4637
2.2105 -2.1860001 -0.38960001
2.4728999 -1.6976 -0.3759
2.8966999 -1.3052 -0.39820001
3.2464001 -1.1273 -0.4307
2.2623 -2.0462 -0.4339
2.3975999 -1.8082 -0.4271
2.5639 -1.5968 -0.4296
3.0629001 -1.219 -0.4689
2.138 -3.0414 -0.52880001
2.2128999 -2.1884 -0.4427
2.3285999 -1.9247 -0.42969999
2.4728999 -1.6975 -0.42660001
2.9014001 -1.3073 -0.4526
2.1219001 -2.7493999 -0.55299997
2.5683 -1.5996 -0.48179999
2.1387 -2.5295999 -0.52749997
2.217 -2.1924 -0.49649999
2.3326001 -1.9279 -0.48190001
2.4770999 -1.7004 -0.47839999
2.6610999 -1.4971 -0.4862
2.9070001 -1.3098 -0.50770003
2.1696 -2.3457999 -0.56339997
2.7841001 -1.4069 -0.55000001
3.5727999 -1.0648 -0.65740001
2.1587 -3.0708001 -0.66189998
2.1435001 -2.5353 -0.58539999
2.3366001 -1.9312 -0.5345
2.4813001 -1.7033 -0.53070003
2.6657 -1.4997 -0.53930002
2.1345999 -2.7658999 -0.67610002
2.1738 -2.3503001 -0.61949998
2.2746999 -2.0574 -0.59350002
2.4099 -1.8174 -0.58410001
2.5771999 -1.6051 -0.58749998
2.7895 -1.4096 -0.60479999
2.1693001 -3.0859001 -0.73000002
2.1484001 -2.5411 -0.64389998
2.3406 -1.9346 -0.58759999
2.4856 -1.7063 -0.58340001
2.6703 -1.5023 -0.59289998
2.9184 -1.3150001 -0.61949998
3.2830999 -1.1401 -0.67259997
2.2788999 -2.0611999 -0.64780003
2.414 -1.8205 -0.63739997
2.7948999 -1.4123 -0.6602
3.0918 -1.2305 -0.7015
2.1533 -2.5469 -0.70310003
2.3447001 -1.9378999 -0.64130002
2.4899001 -1.7092 -0.63669997
2.6751001 -1.505 -0.64709997
2.9242001 -1.3176 -0.67619997
3.2937 -1.1437 -0.73500001
2.1629 -2.8025999 -0.80800003
2.2832 -2.0650001 -0.70270002
2.4182 -1.8237 -0.69129997
2.8002999 -1.4151 -0.71609998
2.2337 -2.2090001 -0.71700001
2.3487 -1.9413 -0.69550002
2.4942999 -1.7122 -0.69050002
2.6798 -1.5075999 -0.70179999
3.3259001 -1.1549 -0.80360001
2.1860001 -2.8325 -0.87940001
2.1981001 -2.3766 -0.79570001
2.2904 -2.0716 -0.75910002
2.4231 -1.8274 -0.74599999
2.8123 -1.4211 -0.77450001
2.1794 -2.5778 -0.82969999
2.4991 -1.7156 -0.74510002
2.9470999 -1.3279001 -0.79449999
2.2097001 -2.8631999 -0.95300001
2.3048 -2.0846 -0.81889999
2.6075001 -1.624 -0.80940002
3.1547 -1.2556 -0.89469999
3.8592999 -1.1502 -1.0611
2.3292 -3.3134 -1.0671999
2.1967001 -2.5983 -0.89649999
2.2581 -2.2330999 -0.83679998
2.3680999 -1.9572999 -0.80949998
2.9669001 -1.3368 -0.85750002
3.4012001 -1.1811 -0.94870001
2.2342 -2.8949001 -1.0289
2.2320001 -2.4133 -0.9249
2.3196001 -2.098 -0.88
2.4516001 -1.8487999 -0.86390001
2.6231 -1.6337 -0.86949998
2.8494999 -1.4399 -0.89829999
3.1809001 -1.266 -0.96319997
2.2729001 -2.2477 -0.8994
2.3822 -1.969 -0.86949998
2.5286 -1.7358 -0.86290002
2.9870999 -1.3459001 -0.92180002
3.4405999 -1.1947 -1.0247
2.2723999 -2.9444001 -1.1135
2.2495999 -2.4323001 -0.99190003
2.2880001 -2.2625999 -0.96329999
2.3966 -1.9808 -0.93080002
3.4981999 -1.2147 -1.1086
2.3366001 -3.0276999 -1.2146
2.6552999 -1.6537 -0.99349999
2.8884001 -1.4596 -1.0278
2.4112999 -1.993 -0.99349999
3.0346 -1.3673 -1.057
2.3022001 -2.4891 -1.1392
2.4967 -1.8829 -1.0506001
2.9152 -1.4732 -1.0974
2.3250999 -2.2994001 -1.0987
2.4263 -2.0053999 -1.0576
2.5754001 -1.7679 -1.0495
3.0799 -1.3878 -1.135
3.7335 -1.2964 -1.3279001
2.5227001 -1.9025 -1.1204
2.3571 -2.3310001 -1.1755
3.1329 -1.4116 -1.2184
2.3810999 -2.5743999 -1.3094
2.4310999 -2.1988001 -1.224
2.5544 -1.9263999 -1.1947
2.7361 -1.7041 -1.2036999
2.9984 -1.5152 -1.2545
3.4816999 -1.3857 -1.3993
2.4363999 -2.8819001 -1.4092
2.3903999 -2.3640001 -1.2553999
2.4844999 -2.0534999 -1.2036
2.4655001 -2.2298999 -1.3047
2.5873001 -1.9512 -1.2718
3.0425999 -1.5375 -1.3380001
3.7430999 -1.4897 -1.5811
2.4251001 -2.3982999 -1.3386
2.6689 -1.8321 -1.2704999
2.6215 -1.977 -1.352
2.4872 -2.4597001 -1.4404
2.5502 -2.1078 -1.3624001
2.5748 -2.5462999 -1.562
2.6105001 -2.1575999 -1.4608999
2.7634001 -1.897 -1.4457999
3.0229001 -1.7007 -1.4962
2.951 -1.8379 -1.5687
2.7316999 -2.7014 -1.7335
3.1126001 -1.7510999 -1.6115
2.8346 -2.5638001 -1.8016
3.0678 -1.9107 -1.7036
2.7966001 -2.3113999 -1.7102
3.3076 -1.8608 -1.7889
