# .PCD v0.7 - Point Cloud Data file format
VERSION 0.7
FIELDS x y z
SIZE 4 4 4
TYPE F F F
COUNT 1 1 1
WIDTH 197
HEIGHT 1
VIEWPOINT 0 0 0 1 0 0 0
POINTS 197
DATA ascii
5.4345999 -1.3593 1.2786
5.0735998 -1.5121 1.1161
5.0974998 -1.0361 1.0966001
4.8794999 -1.4542 0.9853
5.3277001 -0.59600002 1.0374
5.0064998 -1.9926 0.9501
5.1142001 -0.57209998 0.90740001
4.7447 -1.1868 0.8624
4.9173999 -0.77319998 0.87769997
5.6479998 -0.37810001 0.99809998
4.8056002 -1.9126 0.82359999
4.6464 -1.3848 0.77200001
4.6810002 -1.6253999 0.78899997
4.6627998 -1.1662 0.76539999
4.8200002 -0.7579 0.77700001
5.2568002 -0.35190001 0.83890003
4.6896 -1.8664 0.71789998
4.6455002 -0.9443 0.67430001
4.9693999 -2.2391 0.77530003
4.5893002 -1.1479 0.67290002
5.1261001 -0.3432 0.73079997
4.5738001 -0.92970002 0.58490002
4.7923999 -0.53609997 0.60430002
4.5211 -1.5699 0.59979999
4.5186 -1.1302 0.5837
5.0022998 -0.33489999 0.62830001
4.5275998 -1.802 0.52859998
4.4534998 -1.3273 0.50400001
4.5302 -0.92079997 0.50139999
4.7301002 -0.52920002 0.51630002
5.2350998 -0.1167 0.56800002
4.6673999 -2.1031001 0.5553
4.4692001 -1.5519 0.51319999
4.9664998 -2.5097001 0.51020002
4.4112 -1.3147 0.42199999
4.6787 -0.52340001 0.4316
5.1259999 -0.1143 0.47009999
4.4233999 -1.536 0.42930001
4.4333 -1.1089 0.419
4.5658998 -0.71799999 0.4237
4.8544002 -0.32499999 0.44600001
4.7941999 -2.4226 0.4025
4.421 -1.7596 0.35659999
4.3699002 -1.3024 0.34169999
4.4460001 -0.90369999 0.34
5.0497999 -0.1125 0.37850001
4.3786998 -1.5204999 0.34740001
4.7979999 -0.32120001 0.36039999
5.6684999 0.12630001 0.4249
4.3716998 -1.7399 0.27399999
4.3336 -1.2916 0.26339999
4.4098001 -0.89630002 0.26210001
4.5893002 -0.51340002 0.26899999
4.9762998 -0.1109 0.2899
4.4587002 -2.0090001 0.28479999
4.3383002 -1.5064 0.26750001
5.4422998 0.1213 0.31709999
4.6156001 -2.3324001 0.215
4.421 -1.992 0.2016
4.3144002 -1.4981 0.1899
4.3341999 -1.0841 0.1858
4.4572001 -0.70090002 0.1876
4.7149 -0.31560001 0.1965
4.5391998 -0.50779998 0.1139
4.8951998 -0.1091 0.1221
5.2595 0.1172 0.1312
4.5160999 -2.2821 0.042100001
4.2891002 -1.7071 0.038400002
4.2677002 -1.2719001 0.037
4.2673998 -1.4818 0.037500001
4.4096999 -0.69340003 0.037099998
4.6560998 -0.31169999 0.038800001
4.4780998 -2.2629001 -0.041700002
4.2623 -1.6964 -0.0381
4.2462001 -1.2654999 -0.036800001
4.8188 -0.1074 -0.040100001
4.335 -1.9533 -0.039500002
4.2442002 -1.4737999 -0.037300002
4.2691002 -1.0678 -0.036600001
4.3863001 -0.68970001 -0.036899999
4.6272998 -0.3098 -0.0385
5.1394 0.1145 -0.0427
4.4642 -2.2558999 -0.1247
4.2372999 -1.2629 -0.1103
4.3126998 -0.87660003 -0.1098
4.9138999 -2.7644999 -0.1406
4.2347999 -1.4705 -0.1118
4.3768001 -0.6882 -0.1105
4.4728999 -0.50040001 -0.18709999
4.7930999 -0.1068 -0.19930001
4.3151999 -1.9443001 -0.19679999
4.2275 -1.4679 -0.18610001
4.3694 -0.68709999 -0.1839
4.2237 -1.2588 -0.25670001
4.3063002 -1.9403 -0.27509999
4.2202001 -1.4654 -0.26019999
4.2466002 -1.0622 -0.255
4.362 -0.68589997 -0.2572
4.598 -0.30779999 -0.26840001
4.4285998 -2.2379 -0.37180001
4.2919998 -0.87239999 -0.32820001
4.4575 -0.49869999 -0.33610001
4.8172998 -2.7102001 -0.41420001
4.2974 -1.9363 -0.35319999
4.2398 -1.0605 -0.32749999
4.3544998 -0.68470001 -0.3303
5.0636001 0.1128 -0.37959999
4.4362001 -2.2416999 -0.45570001
4.2128 -1.2556 -0.403
4.7726002 -0.1064 -0.43759999
4.862 -2.7354 -0.51139998
4.2985001 -1.9368 -0.43220001
4.2094998 -1.4617 -0.40849999
4.2351999 -1.0592999 -0.40020001
4.5879998 -0.3071 -0.42160001
5.0805998 0.1132 -0.4659
4.4492002 -2.2483001 -0.54070002
4.2200999 -1.2577 -0.47760001
4.2948999 -0.87300003 -0.4754
4.4629002 -0.4993 -0.48710001
4.2174001 -1.4645 -0.4842
4.3582001 -0.68529999 -0.47850001
4.4622998 -2.2549 -0.62650001
4.2445002 -1.6892999 -0.57249999
4.2273998 -1.2599 -0.5528
4.3023 -0.87449998 -0.55019999
4.7979999 -0.1069 -0.60140002
4.3179002 -1.9455 -0.59350002
4.2498999 -1.063 -0.54900002
4.3662 -0.68660003 -0.5539
4.6073999 -0.30849999 -0.57870001
5.1202002 0.1141 -0.64179999
4.2526999 -1.6926 -0.65100002
4.2347999 -1.2621 -0.62849998
4.3098001 -0.87599999 -0.62550002
4.4794002 -0.5011 -0.64109999
4.8108001 -0.1072 -0.68440002
4.3277001 -1.95 -0.67519999
4.2572999 -1.0648 -0.62419999
4.3741002 -0.68779999 -0.62980002
5.1430001 0.1146 -0.7317
4.5127001 -2.2804 -0.80510002
4.2610998 -1.6959 -0.73030001
4.2423 -1.2644 -0.70490003
4.3172998 -0.8775 -0.7015
4.2413998 -1.4728 -0.71490002
4.3821998 -0.68910003 -0.70639998
4.5633001 -2.306 -0.90149999
4.2607002 -1.2697999 -0.78390002
4.3351998 -0.88120002 -0.77999997
4.5124002 -0.50480002 -0.80059999
4.2635999 -1.4805 -0.79579997
4.4026999 -0.69230002 -0.7859
4.6297002 -2.3395 -1.0038
4.2848001 -1.277 -0.86519998
4.9246001 -0.1098 -0.95319998
4.2897 -1.4895999 -0.87870002
4.3060999 -1.0771 -0.85900003
4.4288001 -0.69639999 -0.86760002
4.6946001 -0.3143 -0.91049999
4.5675001 -0.51099998 -0.96890002
4.3161998 -1.4988 -0.96319997
4.3305998 -1.0832 -0.9411
4.4555001 -0.70060003 -0.9508
4.9320998 -2.4923 -1.2613
4.3910999 -1.7476 -1.0786999
4.5959001 -0.51419997 -1.0555
4.5174999 -2.0355 -1.1309
4.3555002 -1.0894001 -1.0247
4.4534998 -1.7725 -1.1782
4.3752999 -1.304 -1.1222
4.4492998 -0.90439999 -1.1160001
4.6500001 -0.52020001 -1.1501
4.6037998 -2.0743999 -1.2412
4.3944998 -1.0991 -1.1134
4.8397002 -0.324 -1.1923
4.5184002 -1.7983 -1.2814
4.4243999 -1.3186001 -1.2165
4.7062998 -0.52649999 -1.2479
5.348 -0.1192 -1.4096
4.9088001 -0.32859999 -1.2964
4.4751 -1.3336999 -1.3138
4.5022998 -1.5634 -1.341
4.4938002 -1.124 -1.3033
4.6378002 -0.72930002 -1.3209
4.8892999 -0.54699999 -1.4729
4.5939002 -1.5951999 -1.4559
4.5619001 -1.141 -1.4078
4.7210999 -0.74239999 -1.4308
5.1999998 -0.34810001 -1.5603
4.9741001 -1.9796 -1.7002
4.6459999 -1.3846999 -1.5396
4.7041998 -1.6335 -1.5815001
4.783 -1.4255 -1.6768
4.9218001 -1.709 -1.7505
4.9752002 -0.7823 -1.6921
4.9605999 -1.2408 -1.8132
