# .PCD v0.7 - Point Cloud Data file format
VERSION 0.7
FIELDS x y z
SIZE 4 4 4
TYPE F F F
COUNT 1 1 1
WIDTH 392
HEIGHT 1
VIEWPOINT 0 0 0 1 0 0 0
POINTS 392
DATA ascii
2.3476 -3.0418999 1.2203
2.8067999 -2.5386 1.2019
2.3317001 -2.7579 1.1469001
2.2830999 -2.4684 1.0066
2.1870999 -2.5869 1.0142
2.4661 -2.2304001 0.93550003
2.1115999 -2.4976001 0.92019999
2.319 -2.2932999 0.91759998
2.6559 -2.1951001 0.96939999
1.8918 -2.9635 0.92640001
1.9656 -2.5469 0.8477
2.3824999 -2.1549001 0.84649998
1.9112 -2.7188001 0.8757
2.0444 -2.4181001 0.8344
2.2463 -2.2214 0.83240002
1.9263 -2.4960001 0.77499998
1.8326 -3.1740999 0.90090001
1.8584 -2.6435001 0.79430002
2.0060999 -2.3729 0.76380002
2.4796 -2.0494001 0.79070002
2.605 -1.9645 0.74470001
1.7338001 -3.0030999 0.79149997
1.9696 -2.3297 0.69630003
2.1668 -2.1428001 0.69550002
2.8406999 -1.95 0.78640002
1.7053 -3.2832999 0.77999997
2.2499001 -2.0349 0.63959998
3.1033001 -1.9327 0.77069998
1.6866 -2.9212 0.71109998
1.7822 -2.5352001 0.65329999
1.9347 -2.2883 0.63169998
2.1296 -2.1059 0.63139999
2.7616999 -1.8958 0.7062
1.6351 -3.1480999 0.68650001
1.6887 -2.6452 0.60729998
1.8241 -2.3635001 0.57779998
1.9974999 -2.1596999 0.5693
2.2102001 -1.999 0.57669997
2.971 -1.8503 0.67729998
1.6421 -2.8441999 0.63559997
1.9024 -2.2500999 0.57020003
1.8046 -2.3382001 0.52079999
1.9773999 -2.1379001 0.51349998
2.1865001 -1.9775 0.51980001
2.8727 -1.7891001 0.59670001
1.6032 -2.7769001 0.5654
1.7247 -2.4533999 0.52880001
1.8825999 -2.2268 0.51419997
2.0739 -2.0509 0.51429999
1.7859 -2.3139999 0.46540001
1.9578 -2.1168001 0.45910001
1.5793 -2.7354 0.50300002
1.7065001 -2.4275999 0.4725
1.8634 -2.204 0.4596
2.0532999 -2.0304999 0.4598
2.2851 -1.8887 0.47209999
2.5929999 -1.78 0.50080001
3.1603999 -1.778 0.57740003
1.5147001 -2.9163001 0.46740001
1.6228 -2.5420001 0.42899999
1.7677 -2.2904 0.41150001
2.3982 -1.8085999 0.42719999
2.7725 -1.7266999 0.4646
1.5045 -3.2421 0.50840002
1.5576 -2.6977999 0.44310001
3.0816 -1.7337 0.5029
1.604 -2.5125999 0.37360001
1.7499 -2.2674 0.35890001
2.3703001 -1.7875 0.37200001
2.7298999 -1.7002 0.403
1.4703 -3.1684 0.4377
1.6717 -2.3778999 0.36430001
1.8268 -2.1608 0.35460001
3.0093999 -1.693 0.43270001
1.7326 -2.2449 0.30759999
2.0989001 -1.8983999 0.30700001
2.3431001 -1.767 0.31830001
1.4378 -3.0983 0.3705
1.6549 -2.3540001 0.31209999
2.2156 -1.8312 0.3118
2.9407001 -1.6544 0.366
1.569 -2.4577999 0.26730001
1.7180001 -2.2261 0.25780001
2.0811999 -1.8823 0.25729999
3.3274 -1.6813999 0.3418
1.4068 -3.0315001 0.3064
1.5034 -2.6039 0.27559999
1.7953 -2.1235001 0.25490001
1.9787 -1.9568 0.25510001
2.1956999 -1.8148 0.26109999
2.8857999 -1.6235 0.30360001
1.4345 -2.7618001 0.2332
1.5594 -2.4426999 0.2172
1.8772 -2.0295999 0.20720001
3.1966 -1.6153001 0.26840001
1.4937 -2.5871 0.22390001
1.6313 -2.3204999 0.21259999
1.7861 -2.1125 0.20730001
2.8503001 -1.6035 0.24510001
1.357 -3.3020999 0.2079
1.5499001 -2.4279001 0.16779999
1.8676 -2.0192001 0.1602
2.0589001 -1.8621 0.1617
2.2895999 -1.7266001 0.167
2.6022 -1.6206 0.1785
3.1557 -1.5946 0.2059
1.4843 -2.5708001 0.17290001
1.7769001 -2.1017001 0.1603
2.1717999 -1.7951 0.16410001
2.4393001 -1.6744 0.1723
2.8264 -1.5901 0.18889999
1.3401999 -3.2612 0.14659999
1.6907001 -2.1907001 0.1151
1.8581001 -2.0088999 0.1138
2.276 -1.7164 0.1185
3.1159 -1.5745 0.1452
1.3611 -2.9331 0.1344
1.475 -2.5548 0.1227
1.9484 -1.9268 0.1139
2.424 -1.664 0.1222
2.8029001 -1.5769 0.1337
1.4013 -2.6979001 0.075800002
1.5312999 -2.3987 0.071000002
1.6818 -2.1791999 0.068599999
1.8487 -1.9988 0.067900002
2.0372 -1.8425 0.068499997
1.35 -2.9092 0.079999998
1.4658999 -2.539 0.073100001
1.7589 -2.0804999 0.067900002
1.9385999 -1.9171 0.068000004
2.4089 -1.6536 0.072899997
2.7797999 -1.5639 0.079499997
1.3081 -3.1831 0.0286
1.3906 -2.6773 0.0251
1.5222 -2.3843999 0.023499999
1.8395 -1.9888 0.022500001
2.2514 -1.6978 0.023399999
2.5494001 -1.5878 0.025
3.0394001 -1.5358 0.0283
1.3392 -2.8857999 0.0264
1.7501 -2.0699999 0.022500001
2.1372001 -1.7664 0.023
2.3941 -1.6434 0.0241
1.2927001 -3.1454999 -0.0283
1.3801 -2.6571 -0.024900001
1.5132 -2.3703001 -0.023399999
1.8303 -1.9788001 -0.022399999
2.016 -1.8233 -0.022600001
2.2393 -1.6887 -0.0233
2.5332 -1.5777 -0.024800001
1.3285 -2.8627999 -0.0262
1.4481 -2.5081 -0.0241
1.5882 -2.2593 -0.023
1.7414 -2.0597 -0.022399999
1.9191999 -1.8979 -0.022399999
2.1259 -1.7571 -0.0229
2.7349 -1.5386 -0.0261
1.3726 -2.6426001 -0.074299999
1.6573 -2.1475 -0.067599997
1.8227 -1.9707 -0.0669
2.5209999 -1.5700999 -0.074100003
1.3213 -2.8474 -0.078299999
1.4414999 -2.4967 -0.071900003
1.5816 -2.2498 -0.068599999
1.7342 -2.0511999 -0.067000002
2.3678999 -1.6255 -0.071599998
1.2783 -3.1104 -0.1398
2.0039001 -1.8125 -0.1123
2.9662001 -1.4989001 -0.1382
1.5789 -2.2460001 -0.1142
3.4851 -1.5703 -0.15889999
1.2733001 -3.0985 -0.19509999
1.5005 -2.3504 -0.16240001
1.6518 -2.1401999 -0.1575
2.0006001 -1.8094 -0.15710001
2.2219 -1.6756001 -0.1621
1.4358 -2.4868 -0.1672
1.5762 -2.2421999 -0.1596
1.7286 -2.0446 -0.1559
1.9051 -1.8839999 -0.1561
2.1094999 -1.7435 -0.1594
1.3642 -2.6264999 -0.2218
1.4976 -2.3459001 -0.2086
1.649 -2.1366 -0.2023
1.9972 -1.8063999 -0.2018
2.2179999 -1.6727 -0.20819999
2.5056 -1.5605 -0.2212
2.9433 -1.4873 -0.2471
1.3006001 -3.615 -0.2879
1.7258 -2.0413001 -0.20029999
2.6977 -1.5177 -0.23199999
3.4252 -1.5433 -0.28150001
1.3614 -2.6210999 -0.27079999
1.811 -1.9579999 -0.2445
1.9938999 -1.8033 -0.2465
2.5005 -1.5573 -0.2701
2.9319999 -1.4816 -0.3012
1.3076 -2.8178999 -0.28479999
2.1022999 -1.7376 -0.25
2.3492999 -1.6127 -0.26120001
2.6908 -1.5138 -0.28299999
3.3959999 -1.5301 -0.34150001
1.2587 -3.063 -0.3592
1.4918 -2.3369 -0.30070001
1.8081 -1.9548 -0.2888
1.9905 -1.8003 -0.2911
2.2103 -1.6669 -0.3003
2.4954 -1.5542001 -0.31889999
1.2855 -3.573 -0.41190001
1.3043 -2.8106 -0.33610001
1.4273 -2.4721 -0.3096
1.5681 -2.2307 -0.2958
1.7203 -2.0346999 -0.289
1.8959 -1.8749 -0.28920001
2.0987 -1.7345999 -0.29530001
2.6838 -1.5099 -0.33399999
3.3684001 -1.5177 -0.4007
1.2574 -3.0597 -0.4145
1.4888999 -2.3324001 -0.3468
1.8051 -1.9517 -0.33320001
2.2065001 -1.664 -0.34630001
1.2970001 -3.605 -0.48010001
1.3009 -2.8032999 -0.38730001
1.4244 -2.4670999 -0.35699999
1.5655 -2.2269001 -0.34110001
1.8928 -1.8717999 -0.33360001
2.0952001 -1.7316999 -0.34060001
2.3401 -1.6063 -0.35569999
1.2624 -3.0718999 -0.47240001
1.6378 -2.1222 -0.3813
1.8022 -1.9485 -0.3775
2.2026 -1.6611 -0.3924
2.4891 -1.5502 -0.41710001
1.3087 -3.6375999 -0.5499
1.3034 -2.8085999 -0.4404
1.4227 -2.4640999 -0.40470001
2.3364 -1.6038001 -0.40310001
1.4887 -2.3318999 -0.44049999
1.6388 -2.1235001 -0.4271
1.9847 -1.7951 -0.42609999
1.3069 -2.8162 -0.49439999
1.7151999 -2.0287001 -0.42300001
2.3413 -1.6072 -0.4522
2.688 -1.5122 -0.49110001
3.4732001 -1.5649 -0.60659999
1.4917001 -2.3366001 -0.48879999
1.6417 -2.1271999 -0.4738
1.8056999 -1.9523 -0.4689
1.9883 -1.7983 -0.4727
2.2098999 -1.6665 -0.48800001
1.4286 -2.4742999 -0.50379997
1.5671999 -2.2293999 -0.48050001
1.7181 -2.0322001 -0.46919999
1.8935 -1.8724999 -0.46959999
2.6956999 -1.5166 -0.54540002
3.51 -1.5815001 -0.67879999
1.278 -3.1098001 -0.65060002
1.3644 -2.6268001 -0.57279998
1.4947 -2.3413999 -0.53759998
1.6447001 -2.1310999 -0.52090001
2.214 -1.6697 -0.53659999
2.5057001 -1.5605 -0.57120001
1.3141 -2.8317001 -0.60409999
1.4316 -2.4795001 -0.55409998
1.5700999 -2.2334001 -0.52829999
2.1012001 -1.7366 -0.52749997
2.3513999 -1.6141 -0.55190003
1.3674001 -2.6326001 -0.62540001
1.6477 -2.1349001 -0.56849998
1.812 -1.9591 -0.56260002
1.3177 -2.8396001 -0.66000003
1.5729001 -2.2375 -0.57660002
1.7241 -2.0392001 -0.56300002
1.9001 -1.8789999 -0.56339997
2.3564999 -1.6176 -0.60259998
1.2970999 -3.1563001 -0.77890003
1.3704 -2.6384001 -0.67860001
1.8152 -1.9626 -0.61019999
1.9993 -1.8082 -0.6153
3.0044 -1.5182 -0.7683
1.4377 -2.4900999 -0.65630001
1.7271 -2.0427999 -0.61059999
1.9033999 -1.8823 -0.611
2.109 -1.7431 -0.62449998
2.3617001 -1.6212 -0.65380001
2.7193 -1.5298001 -0.71210003
1.5039999 -2.3559 -0.68699998
2.2267001 -1.6792001 -0.68550003
2.5228 -1.5712 -0.73049998
1.4408 -2.4954 -0.70829999
1.5788 -2.2458 -0.67479998
1.7302001 -2.0465 -0.65869999
2.3669 -1.6248 -0.70569998
2.7369001 -1.5397 -0.7719
1.3372 -3.2539001 -0.92699999
1.6568 -2.1466999 -0.71450001
2.2309999 -1.6825 -0.73629999
3.1022999 -1.5677 -0.91589999
1.344 -2.8961999 -0.84130001
1.5818 -2.2500999 -0.72469997
1.7333 -2.0502 -0.70740002
1.9102 -1.8891 -0.70789999
1.518 -2.3778 -0.79369998
2.0146999 -1.8221999 -0.76429999
2.2448001 -1.6928 -0.79100001
2.5594001 -1.594 -0.84829998
3.1544001 -1.594 -0.99440002
1.3573 -2.925 -0.9073
1.4578 -2.5250001 -0.82029998
1.7391 -2.0569999 -0.7579
1.9167 -1.8954 -0.75840002
2.3942001 -1.6435 -0.81709999
2.7927001 -1.5711 -0.9016
1.4612 -3.5557001 -1.1509
1.4116 -2.7177999 -0.91680002
2.2593999 -1.7039 -0.84719998
3.2149 -1.6246001 -1.0784
1.3710999 -2.9546001 -0.97509998
1.7496001 -2.0694001 -0.81129998
2.8218999 -1.5875 -0.96929997
1.4253 -2.7441001 -0.98199999
1.8499 -2 -0.86519998
2.0404 -1.8454 -0.87370002
2.2744 -1.7151999 -0.90469998
2.6043 -1.622 -0.97439998
1.4798 -2.563 -0.93989998
1.6102999 -2.2907 -0.88929999
1.7603 -2.082 -0.86589998
2.1551001 -1.7812001 -0.88800001
1.6956 -2.197 -0.93239999
1.8613 -2.0123999 -0.921
2.2915001 -1.7280999 -0.96429998
2.6308999 -1.6385 -1.0413001
1.6209 -2.3057001 -0.94700003
1.952 -1.9303 -0.9224
2.1694 -1.793 -0.94559997
2.4500999 -1.6819 -0.99849999
2.9028001 -1.6331 -1.119
1.8731 -2.0251 -0.9781
2.3092 -1.7415 -1.0256
2.6763 -1.6668 -1.118
1.5031 -2.6033001 -1.0659
1.7823 -2.1082001 -0.97890002
1.9643 -1.9425 -0.97960001
1.5809 -2.4763999 -1.0971
1.8851 -2.0381 -1.0367
2.3334999 -1.7596999 -1.0913
2.7361 -1.704 -1.2036
1.643 -2.3371999 -1.0668
1.9769 -1.955 -1.0382
3.1308 -1.7614 -1.3414
1.5314 -2.9484 -1.3039
1.6061 -2.5158 -1.1714
1.7384 -2.2523999 -1.1167001
1.9033999 -2.0579 -1.1002001
2.1052001 -1.904 -1.114
1.5526 -2.6891 -1.2187001
1.6655999 -2.3692999 -1.1366
1.8114001 -2.1426001 -1.1011
1.6324 -2.5571001 -1.2492
2.1345999 -1.9306 -1.1851
2.4108 -1.8181 -1.2434
2.0228 -2.0004001 -1.1715
2.2607 -1.8685 -1.2077
1.66 -2.6003001 -1.3307
2.1652 -1.9583 -1.2593
1.6295 -2.8223 -1.4058
1.8602 -2.2002001 -1.2428
2.2937 -1.8958 -1.2836
2.6535001 -1.8214999 -1.3882999
1.7046 -2.6701 -1.4294
1.8137 -2.3501 -1.3395
1.9819 -2.1427 -1.317
2.5155001 -1.897 -1.4216
1.7108001 -2.9632001 -1.5439
1.8871 -2.2320001 -1.3188
2.0788 -2.0558 -1.3192
2.7911999 -1.9161 -1.5276
1.8568 -2.4059999 -1.4326
2.0186 -2.1824999 -1.4014
2.2484 -2.0336001 -1.429
2.6073999 -1.9664 -1.5394
1.9243 -2.2760999 -1.405
2.3943999 -1.979 -1.4643
1.9124 -2.4779999 -1.5396
2.0752001 -2.2437 -1.5032001
1.8616 -2.6480999 -1.5921
1.9878 -2.5757 -1.668
2.4047999 -2.175 -1.6623
2.6770999 -2.2126 -1.7805001
2.2758 -2.4605999 -1.7893
2.1932001 -2.5941999 -1.8135
