# .PCD v0.7 - Point Cloud Data file format
VERSION 0.7
FIELDS x y z
SIZE 4 4 4
TYPE F F F
COUNT 1 1 1
WIDTH 108
HEIGHT 1
VIEWPOINT 0 0 0 1 0 0 0
POINTS 108
DATA ascii
7.0805001 0.47400001 1.13
7.0092001 0.7841 1.1231
6.8404999 1.0756 0.9849
7.0166001 0.15629999 0.99830002
6.7789998 0.75830001 0.9702
7.1026001 1.4437 1.0309
7.1760001 -0.15989999 0.89950001
6.6581998 1.0469 0.84460002
6.6146002 0.73989999 0.83410001
6.8235998 1.3868999 0.87260002
7.039 1.7605 0.787
6.6870999 0.149 0.72549999
6.5132999 0.72860003 0.71090001
6.6732998 1.3564 0.73860002
6.8051 1.7021 0.64310002
6.5475998 1.3308001 0.61250001
6.6880002 -0.149 0.50129998
6.3913002 0.4278 0.47999999
6.4934001 0.14470001 0.4867
6.3325 0.42390001 0.3696
6.3059001 0.99159998 0.37180001
6.5734 1.6441 0.3946
6.5321002 -0.14560001 0.27169999
6.8311 -0.45730001 0.28470001
6.2354002 0.69749999 0.26089999
6.3196998 1.2845 0.26809999
6.8818002 2.0510001 0.29859999
6.217 0.97759998 0.1569
6.4295001 1.6081001 0.1653
6.7606001 -0.4526 0.169
6.3364 0.14120001 0.15809999
6.2034998 0.69400001 0.1557
6.2842002 1.2773 0.15989999
6.7862 2.0225 0.17659999
6.2136998 0.41589999 0.051800001
6.1851001 0.97259998 0.052000001
6.7075 -0.449 0.0559
6.3028002 0.14049999 0.0524
6.1722002 0.69050002 0.051600002
6.2491999 1.2702 0.052999999
6.7073998 1.999 0.058200002
6.4158001 -0.14300001 -0.053300001
6.1535001 0.96759999 -0.051800001
6.3464999 1.5874 -0.054400001
6.1413002 0.68699998 -0.051399998
6.2146001 1.2632 -0.052700002
6.1420999 0.96579999 -0.1551
6.3323002 1.5838 -0.1628
6.6429 -0.4447 -0.16599999
6.2575998 0.13940001 -0.1561
6.1300998 0.6857 -0.1538
6.1610999 0.41240001 -0.25670001
6.1318998 0.96420002 -0.2581
6.2469001 0.1392 -0.25979999
6.1201 0.6846 -0.2561
6.5809999 1.9613 -0.28549999
7.1141 -0.79579997 -0.41690001
6.1217999 0.96259999 -0.36090001
6.6118002 -0.44260001 -0.38600001
6.1100998 0.68349999 -0.3581
6.1801 1.2561001 -0.3673
6.3839998 -0.14229999 -0.47850001
6.1533999 0.41190001 -0.46219999
6.1121998 0.68370003 -0.46090001
6.5815001 1.9615 -0.51459998
6.1348 0.96460003 -0.5693
6.2505002 0.1393 -0.57319999
6.1223001 0.68489999 -0.56480002
6.1959 1.2594 -0.57959998
6.6069999 1.9691 -0.63200003
7.2605 -0.81220001 -0.7924
6.1452999 0.96630001 -0.67470002
6.3414998 1.5861 -0.70899999
6.6557999 -0.44549999 -0.72350001
6.2614999 0.13950001 -0.67930001
6.1325002 0.68599999 -0.66930002
6.4383001 -0.1435 -0.80699998
6.1919999 0.4145 -0.77770001
6.2828999 0.14 -0.78750002
6.2315001 1.2666 -0.79689997
6.7227998 2.0035999 -0.87910002
6.4791999 -0.1444 -0.92180002
6.4212999 1.6061 -0.94150001
6.7586002 -0.4524 -0.96350002
6.3182998 0.1408 -0.89889997
6.1827998 0.69169998 -0.88489997
6.4700999 1.6183 -1.062
6.8404002 -0.45789999 -1.0917
6.2164001 0.6954 -0.99610001
6.5907998 -0.1469 -1.1624
6.2796998 0.9874 -1.1209
6.3646998 1.2937 -1.1452
6.3685999 0.42629999 -1.2352
6.6883998 1.6729 -1.3342
6.4761 0.1443 -1.2536
6.3257999 0.7076 -1.2318
6.5542998 0.1461 -1.3821
6.3923001 0.71509999 -1.3559999
6.5453 1.3304 -1.4081
6.9956002 -0.1559 -1.5971
6.5461998 0.4382 -1.4974999
6.6911001 0.14910001 -1.5276
6.6966 1.3611 -1.5597
6.8657999 0.153 -1.688
6.6195002 0.74049997 -1.6372
6.9521999 1.4131 -1.7438
6.8969002 0.46169999 -1.8214
7.2504001 0.16159999 -1.911
