# .PCD v0.7 - Point Cloud Data file format
VERSION 0.7
FIELDS x y z
SIZE 4 4 4
TYPE F F F
COUNT 1 1 1
WIDTH 279
HEIGHT 1
VIEWPOINT 0 0 0 1 0 0 0
POINTS 279
DATA ascii
3.8189001 -2.3784001 1.1855
3.8649001 -1.9529999 1.141
3.7874999 -2.1308 1.1451
4.0566001 -1.8278 1.1724
3.5915 -2.7084999 1.0267
3.4442999 -2.1451001 0.92610002
3.5625 -1.8002 0.91100001
3.8584001 -1.5355999 0.94779998
3.483 -1.9595 0.91210002
3.684 -1.6599 0.92229998
3.3924 -2.5583 0.89579999
3.9595001 -1.3749 0.8836
3.4101 -1.7232 0.73940003
3.2579999 -2.2365 0.7647
3.3336 -1.8753999 0.74019998
3.5160999 -1.5843 0.74629998
3.1963 -2.4103999 0.70590001
3.2272999 -2.01 0.67040002
3.3541 -1.6949 0.66259998
3.1942999 -2.1928 0.6832
3.2787001 -1.8446 0.66329998
3.4381001 -3.1096001 0.73820001
3.1728001 -1.9761 0.5952
3.1796999 -2.6280999 0.65689999
3.3989 -1.5315 0.59359998
3.6789 -1.2774 0.62010002
4.3028002 -1.0762 0.70630002
3.2300999 -2.9214001 0.61949998
3.1335001 -1.9516 0.52509999
3.2625 -1.6486 0.51990002
3.1022 -2.5639999 0.57249999
3.0905001 -2.1215 0.53320003
3.1891 -1.7941999 0.5205
4.1342001 -1.034 0.60619998
3.0443001 -2.2958 0.47780001
3.1018 -1.9318 0.45789999
3.2309999 -1.6327 0.45370001
3.7620001 -1.1212 0.4919
3.3239999 -1.4977 0.4569
4.0314999 -1.0082999 0.52079999
3.0093 -2.2695 0.40880001
3.3975 -1.3522 0.39660001
4.4496999 -0.90439999 0.49250001
3.2913001 -1.483 0.39160001
3.1701 -1.6019 0.3256
3.6616001 -1.0913 0.35030001
4.3009 -0.87419999 0.40239999
3.2402999 -3.2044001 0.41780001
2.9707999 -2.4554999 0.35330001
3.2593999 -1.4686 0.32769999
3.4995999 -1.2151999 0.3396
3.0704999 -1.7275 0.264
2.9382 -2.6575 0.2307
3.1252 -1.5792 0.20389999
3.3131001 -1.3186001 0.2077
2.9514999 -2.0260999 0.2085
3.0546999 -1.7186 0.2041
2.9151001 -2.6364999 0.16339999
2.9045 -2.1903999 0.1513
2.9793999 -1.8556 0.1459
3.5655999 -1.0627 0.1547
2.8908 -2.3893001 0.1559
3.1945 -1.4394 0.14569999
3.4187 -1.1871001 0.1505
3.7695999 -0.94279999 0.16159999
2.8922999 -2.6159 0.0973
2.8868999 -2.1770999 0.0902
3.0934 -1.5632 0.086400002
3.5441 -1.0563 0.092200004
4.0209999 -0.81730002 0.1023
2.9714999 -2.9386001 0.1042
2.8728001 -2.3743999 0.092900001
3.1779001 -1.4319 0.086900003
3.7418001 -0.93589997 0.096199997
4.8129001 -0.7568 0.1215
2.8699 -2.5957 0.032200001
2.948 -1.836 0.028899999
3.0778 -1.5553 0.0287
3.2607999 -1.2977999 0.029200001
3.5229001 -1.0499001 0.0306
2.9040999 -1.9936 0.029300001
2.8524001 -2.1510999 -0.0297
3.0624001 -1.5475 -0.0285
2.9059999 -2.8738 -0.034000002
2.8374 -2.3450999 -0.0306
2.8887 -1.983 -0.029100001
2.9932001 -1.6839 -0.0285
3.145 -1.4171 -0.0287
3.3592999 -1.1665 -0.0296
4.4190001 -0.69480002 -0.0372
3.1334 -3.3878 -0.1151
2.8345001 -2.5636001 -0.095299996
2.8411 -2.1424999 -0.088699996
3.0515001 -1.5420001 -0.085299999
3.4877999 -1.0395 -0.090800002
2.8261001 -2.3359001 -0.091399997
2.8782001 -1.9758 -0.087099999
2.9826 -1.678 -0.085299999
2.8273001 -2.5571001 -0.1585
2.8355 -2.1382999 -0.1477
3.0465 -1.5394 -0.1419
3.2263999 -1.2841001 -0.1444
3.4809999 -1.0375 -0.15099999
3.9024 -0.79320002 -0.1656
2.8204 -2.3311 -0.1521
2.9777 -1.6753 -0.14210001
3.1283 -1.4095 -0.1427
3.3395 -1.1596 -0.147
3.6612 -0.91570002 -0.1569
4.3477998 -0.68370003 -0.183
2.8202 -2.5506999 -0.22149999
2.8299 -2.1341 -0.20640001
2.9119 -1.8135 -0.1998
3.4742999 -1.0354 -0.2112
3.8898001 -0.7906 -0.23119999
2.9728999 -1.6725 -0.1987
3.3332 -1.1574 -0.20550001
3.6526 -0.91360003 -0.2193
3.063 -3.3117001 -0.33809999
2.8243001 -2.1299 -0.2651
2.9068999 -1.8104 -0.25659999
3.0365 -1.5344 -0.255
2.8564999 -2.8248 -0.30109999
2.809 -2.3217001 -0.27309999
3.3269 -1.1552 -0.26390001
3.0481999 -3.2957001 -0.41159999
2.806 -2.5378001 -0.34689999
2.8188 -2.1257999 -0.32370001
2.9019001 -1.8073 -0.3134
3.0315001 -1.5319 -0.3114
3.2098999 -1.2775 -0.31670001
3.4609001 -1.0315 -0.33109999
2.8462 -2.8146 -0.36700001
2.8034 -2.3169999 -0.33340001
3.3206999 -1.1531 -0.32229999
4.2730999 -0.67189997 -0.39660001
3.0704999 -3.3197999 -0.4905
2.8010001 -2.5332999 -0.40959999
2.8132999 -2.1215999 -0.3822
3.0265 -1.5293 -0.3678
3.4542 -1.0295 -0.391
2.8462 -2.8146 -0.43419999
2.7976999 -2.3123 -0.3937
3.1073 -1.4001 -0.36970001
3.3144 -1.1509 -0.38060001
3.0931001 -3.3441999 -0.57090002
2.8080001 -2.5397 -0.4745
2.8964 -1.8038 -0.4276
3.0253999 -1.5288 -0.42480001
3.4582 -1.0307 -0.4522
2.9572999 -1.6637 -0.42519999
3.1064999 -1.3997 -0.42699999
3.3159001 -1.1514 -0.43990001
4.3209 -0.67940003 -0.54809999
2.8151 -2.5460999 -0.5399
2.9014001 -1.807 -0.4862
3.0304999 -1.5314 -0.48289999
3.2100999 -1.2776 -0.4914
2.8669 -2.8352001 -0.57349998
2.9621999 -1.6665 -0.48339999
3.1118 -1.4021 -0.48550001
3.6452 -0.91170001 -0.5345
4.3488998 -0.68379998 -0.62620002
2.8264 -2.1315 -0.56370002
2.9064 -1.8101 -0.54519999
3.2156999 -1.2798001 -0.55110002
3.9012001 -0.79299998 -0.63389999
2.8134 -2.3254001 -0.5812
3.1171999 -1.4045 -0.54439998
3.6543 -0.91399997 -0.59979999
4.3773999 -0.68830001 -0.70560002
2.832 -2.1357 -0.62540001
2.9115 -1.8133 -0.60479999
3.4791999 -1.0369 -0.6401
3.915 -0.79579997 -0.7044
2.8689001 -1.9694 -0.61360002
2.9721999 -1.6720999 -0.6013
3.1227 -1.4069999 -0.60390002
3.3355 -1.1582 -0.62260002
3.6633999 -0.9163 -0.66589999
4.4422002 -0.69849998 -0.79290003
2.8376999 -2.1400001 -0.68779999
3.0458 -1.5391001 -0.66039997
3.2270999 -1.2843 -0.67210001
2.9165001 -2.8842001 -0.7938
2.8250999 -2.335 -0.70929998
2.9772999 -1.675 -0.66109997
3.6726999 -0.91860002 -0.73259997
2.8613 -2.5878999 -0.81339997
2.8452001 -2.1457 -0.75129998
3.0510001 -1.5418 -0.72070003
3.4993999 -1.0429 -0.76980001
3.9904001 -0.81110001 -0.85839999
2.9549999 -2.9222 -0.8761
2.8792 -1.9765 -0.73629999
2.9823 -1.6778001 -0.72140002
3.1336999 -1.4119999 -0.72460002
3.3494999 -1.163 -0.7475
2.8645 -2.1602001 -0.81889999
2.9356 -1.8283 -0.78939998
3.0637 -1.5482 -0.78350002
3.2497001 -1.2933 -0.79830003
3.5232 -1.05 -0.8391
4.0397 -0.8211 -0.94090003
2.9947 -2.9616001 -0.96130002
2.8576 -2.3618 -0.84619999
2.9949999 -1.6849 -0.78430003
3.1479001 -1.4184 -0.7881
3.3715999 -1.1707 -0.81459999
3.7307999 -0.93309999 -0.87779999
2.9129 -2.6345999 -0.96539998
2.8841 -2.175 -0.88789999
3.5474999 -1.0573 -0.90990001
3.0359001 -3.0023 -1.0495
2.8778 -2.3785999 -0.91769999
3.0121 -1.6946 -0.8495
3.1665001 -1.4268 -0.85369998
3.3942001 -1.1786 -0.88319999
2.9042001 -2.1902001 -0.95850003
3.2888999 -1.3089 -0.93269998
3.1721001 -3.1368999 -1.1755
2.8985 -2.3957 -0.99089998
2.9305999 -2.0116999 -0.93660003
3.0295 -1.7043999 -0.91589999
3.1854 -1.4353 -0.9206
2.9861 -2.7007999 -1.1328
2.9247999 -2.2056999 -1.0307
2.9892001 -1.8617001 -0.99080002
3.1171999 -1.5752 -0.98269999
3.3090999 -1.317 -1.0021
2.9488001 -2.0242 -1.0063
3.0473001 -1.7144001 -0.98379999
3.2047999 -1.444 -0.98900002
3.8452001 -0.96170002 -1.1152
3.0543001 -2.7625 -1.2329
3.1357999 -1.5846 -1.0518
2.9690001 -2.0381 -1.0782
3.4727001 -1.2059 -1.1006
3.9164 -0.97960001 -1.2086
3.1443 -2.8439 -1.3464
2.9972999 -2.2604001 -1.1921999
3.0418999 -1.8945 -1.1381
3.3705001 -1.3414 -1.1521
3.7137001 -1.1068 -1.2307
3.0967 -1.7421 -1.1284
4.0205998 -1.0056 -1.3162
3.0414 -2.2936001 -1.2798001
3.2049 -1.6195 -1.2065001
3.4126999 -1.3582 -1.2341
3.7808001 -1.1267999 -1.3255
3.0441 -2.0896001 -1.2405
3.1335001 -1.7629 -1.2079999
3.3 -1.4869 -1.2161
3.5711999 -1.24 -1.2701
4.1887002 -1.0477 -1.4507
3.2439001 -1.6392 -1.2887
3.4563999 -1.3756 -1.3191
3.1781001 -2.6266999 -1.462
3.3417001 -1.5057 -1.2996
3.6234 -1.2582 -1.3601
3.1744001 -2.3938999 -1.4845999
3.1661 -1.9719 -1.3928
3.2843001 -1.6596 -1.3741
3.5193 -1.4007 -1.4144
4.0370002 -1.2032 -1.573
3.3448999 -2.7646999 -1.6204
3.1417 -2.1566 -1.4229
3.3893001 -1.5271 -1.3881
3.243 -2.0197001 -1.4994
3.3591001 -1.6974 -1.4771
3.2311001 -2.2179999 -1.5382
3.2852001 -1.8482 -1.4794
3.4702001 -1.5635999 -1.4938
3.3474 -2.2978001 -1.6719
3.5562 -1.6023999 -1.6062
3.4844 -2.1701 -1.7707
3.9735 -1.5814 -1.8448
3.7163999 -1.6745 -1.7582999
3.9324 -1.9871 -1.988
