# .PCD v0.7 - Point Cloud Data file format
VERSION 0.7
FIELDS x y z
SIZE 4 4 4
TYPE F F F
COUNT 1 1 1
WIDTH 112
HEIGHT 1
VIEWPOINT 0 0 0 1 0 0 0
POINTS 112
DATA ascii
7.4475999 1.1711 1.0723
7.5646 1.892 1.1091
7.7196999 0.86360002 1.1049
7.9246001 0.53049999 0.99529999
7.2452002 1.1393 0.91909999
7.0981998 1.1161 0.77939999
7.2486 0.81089997 0.79110003
7.2926002 2.1733999 0.82539999
7.3944001 0.495 0.67940003
6.9924998 1.0994999 0.64889997
6.9723001 1.7438999 0.65890002
7.1240001 0.79689997 0.65719998
6.9418998 1.411 0.6494
7.2536001 0.48559999 0.54479998
6.9036002 1.0855 0.5237
7.7280002 0.17219999 0.57929999
7.0261998 0.78600001 0.5298
6.8523002 1.3928 0.52399999
6.9872999 2.0824001 0.54640001
7.1623001 0.4795 0.4181
6.8400002 1.0755 0.40329999
6.8035002 1.7017 0.40849999
6.9583001 0.7784 0.40779999
6.7884002 1.3798 0.40349999
6.9059 2.0581999 0.4197
7.0855999 0.4743 0.29530001
6.7360001 1.6848 0.28870001
7.4414001 0.16580001 0.30950001
6.8917999 0.77100003 0.28830001
7.0352998 0.47099999 0.1758
6.7740998 2.0188999 0.1763
8.1766996 -0.1822 0.068000004
6.9935002 0.4682 0.0583
6.7045999 1.0542001 0.056400001
6.6560001 1.6648 0.057
6.9260001 2.405 0.060899999
7.2887998 0.16240001 0.060600001
6.8132 0.7622 0.057
7.9001002 -0.176 -0.065700002
6.9523001 0.46540001 -0.0579
6.6708999 1.049 -0.0561
6.6195998 1.6557 -0.056699999
6.6185002 1.3453 -0.0561
6.6886001 1.9934 -0.057999998
7.4587998 2.9684999 -0.066699997
7.8446999 -0.17479999 -0.1957
6.9377999 0.46439999 -0.1734
6.7644 0.75669998 -0.1697
6.6736002 1.9888999 -0.1737
7.8065 -0.17399999 -0.3247
6.9245 0.46360001 -0.2886
6.6476998 1.0453 -0.2798
6.5946002 1.6494 -0.28259999
7.2023001 0.1605 -0.29949999
6.7526999 0.7554 -0.2825
6.6599002 1.9849 -0.28889999
7.7976999 -0.17380001 -0.45429999
6.8209 2.3685 -0.42050001
7.1897001 0.1602 -0.41890001
6.7410998 0.75410002 -0.3951
6.5841999 1.3383 -0.39129999
7.3499999 2.9252 -0.46070001
7.8362999 -0.17460001 -0.58740002
6.9243002 0.46349999 -0.5201
6.6451001 1.0448999 -0.50410002
6.5928001 1.649 -0.50929999
6.7508998 0.75520003 -0.50910002
6.5925999 1.34 -0.50410002
7.4022999 2.9461 -0.597
7.8832998 -0.17569999 -0.72289997
6.9376998 0.46439999 -0.63749999
6.8571 2.381 -0.66549999
6.6036 1.3422 -0.6178
6.6736999 1.989 -0.63840002
6.9537001 0.4655 -0.75590003
6.6164999 1.6549 -0.73979998
6.8892002 2.3922 -0.79100001
6.7742 0.75779998 -0.73940003
6.6904001 1.9938999 -0.7572
6.9970002 0.4684 -0.87879997
6.6995001 1.0534 -0.84990001
6.6533999 1.6641001 -0.85949999
6.9487 2.4129 -0.92180002
7.3106999 0.1629 -0.91640002
6.8104 0.76190001 -0.85879999
6.7353001 2.0072999 -0.88069999
6.7351999 1.0591 -0.9698
7.0095 2.434 -1.0554
7.3841 0.1646 -1.0505
6.7810001 2.0209999 -1.0064
7.5159001 0.1675 -1.1971
6.8951998 0.77130002 -1.1048
7.1918998 0.4815 -1.271
6.8439002 1.0762 -1.2216001
7.6654 0.1708 -1.3519
6.9679999 0.77950001 -1.2363
6.7926002 1.3807 -1.2222
7.3151002 0.48969999 -1.4188
6.9137001 1.0871 -1.3544
6.8908 1.7235 -1.3746001
7.0429001 0.78789997 -1.3714
7.4988999 0.50199997 -1.5845
7.0243001 1.1045001 -1.4991
7.0205002 1.756 -1.5257
7.2410002 2.1580999 -1.5929
7.1525002 1.1247 -1.6526
7.1831002 1.7966 -1.6900001
7.3481998 0.82200003 -1.6876
7.1047001 1.4441 -1.6548001
7.5398002 1.8858 -1.9104
7.6813998 0.85930002 -1.8999
7.3242002 1.4887 -1.8371
