# .PCD v0.7 - Point Cloud Data file format
VERSION 0.7
FIELDS x y z
SIZE 4 4 4
TYPE F F F
COUNT 1 1 1
WIDTH 105
HEIGHT 1
VIEWPOINT 0 0 0 1 0 0 0
POINTS 105
DATA ascii
6.4593 -0.14390001 1.1392
6.6265001 0.4436 1.171
6.6834002 -0.4474 1.1811
6.3188 0.42300001 1.0084
6.3471999 -0.4249 1.013
6.6068001 0.73909998 1.0585999
6.3913999 -0.71499997 0.91479999
6.1459999 0.41139999 0.8761
6.2090998 -0.69459999 0.78299999
5.9745002 -0.1331 0.7489
6.4029999 -1.0068001 0.70300001
5.8130999 -0.1295 0.53310001
5.8685999 -0.39289999 0.53920001
5.8074999 0.1294 0.53259999
5.9607 0.66680002 0.5499
5.9228001 -0.66259998 0.44659999
5.7930002 0.38780001 0.43509999
6.0897002 0.9576 0.46200001
5.7532001 0.12819999 0.43130001
5.8916001 0.6591 0.4443
6.5732002 1.3361 0.50269997
6.4984999 -1.3209 0.38620001
5.7065001 -0.12720001 0.33239999
5.7357998 0.384 0.3348
6.0011001 0.9436 0.3538
5.7551999 -0.38530001 0.336
5.7000999 0.127 0.3321
5.6657 -0.12630001 0.23559999
5.6936998 0.38119999 0.23729999
5.9404998 0.93409997 0.25
5.7112002 -0.38229999 0.23800001
6.2614002 1.2727 0.26570001
5.7715998 -0.64560002 0.14480001
5.6371002 -0.1256 0.1406
5.902 0.92799997 0.149
5.6809001 -0.38029999 0.142
5.7508998 0.64340001 0.1443
6.198 -1.2598 0.0526
5.6087999 -0.125 0.046599999
5.6356001 0.37729999 0.0469
5.8639002 0.92210001 0.0493
5.8940001 -0.92680001 0.049600001
5.6018 0.1248 0.046599999
5.5808001 -0.1244 -0.046399999
5.6213002 -0.37630001 -0.046799999
5.6880002 0.63630003 -0.047600001
6.0748 1.2347 -0.0515
5.5978999 0.37470001 -0.1399
5.8151999 0.91439998 -0.1468
5.5646 0.124 -0.1388
5.678 0.63520002 -0.1425
6.0587001 1.2315 -0.1542
5.6823001 -0.63569999 -0.2377
5.5888 0.3741 -0.23289999
5.8255 -0.91600001 -0.24519999
5.6023998 -0.375 -0.2335
5.5556002 0.1238 -0.23109999
5.5541 -0.1238 -0.32359999
5.5798001 0.37349999 -0.32570001
5.7912998 0.91060001 -0.34150001
5.5929999 -0.37439999 -0.3265
5.5467 0.1236 -0.3231
6.0904002 -1.2379 -0.4657
5.7923002 0.91079998 -0.43939999
5.5900998 -0.37419999 -0.4199
5.6563001 0.63279998 -0.42649999
6.0342002 1.2265 -0.4614
6.1111002 -1.2421 -0.57169998
5.8048 0.91280001 -0.53869998
5.6001 -0.37490001 -0.51459998
5.6668 0.63389999 -0.52280003
5.6926999 -0.63679999 -0.62129998
5.5960999 0.37459999 -0.60829997
5.8175001 0.91479999 -0.63880002
5.6100998 -0.37549999 -0.6099
5.5791001 -0.1243 -0.69929999
5.6058002 0.37529999 -0.70410001
5.6202002 -0.37619999 -0.70590001
5.5717001 0.1242 -0.69840002
6.2484002 -1.27 -0.90689999
5.7384 -0.6419 -0.82130003
5.6311002 0.377 -0.80269998
5.9073 -0.9289 -0.8506
6.1668 1.2535 -0.8951
5.7757001 -0.64609998 -0.92540002
5.6332998 -0.12549999 -0.8973
5.9158001 0.93019998 -0.95359999
5.6794 -0.3802 -0.90640002
5.7537999 0.6437 -0.92189997
5.6574001 0.1261 -0.99779999
6.3881001 1.2984 -1.1494
5.7076001 -0.12720001 -1.1048
5.7403998 0.38429999 -1.1133
6.0517998 0.95160002 -1.1855
5.7616 -0.38569999 -1.1174999
5.8467002 0.6541 -1.1385
6.6645002 1.3546 -1.3161
5.9523001 -0.66589999 -1.2627
5.8058 0.38870001 -1.2266999
6.158 0.96829998 -1.3142
5.7607999 0.1284 -1.2148
5.9191999 0.66210002 -1.2557
5.9183002 0.1319 -1.4551001
6.1521001 0.6882 -1.5216
6.2108998 0.1384 -1.7479
