# .PCD v0.7 - Point Cloud Data file format
VERSION 0.7
FIELDS x y z
SIZE 4 4 4
TYPE F F F
COUNT 1 1 1
WIDTH 370
HEIGHT 1
VIEWPOINT 0 0 0 1 0 0 0
POINTS 370
DATA ascii
2.0404999 -2.9026 1.1921
1.7046 -2.6702001 1.0061001
2.0788 -2.6935 1.0806
1.3688 -2.9497001 1.0326999
1.5725 -2.7237 0.99879998
1.4119 -2.7184 0.91710001
1.9574 -2.5362999 0.95910001
1.1859 -3.2964001 1.0488
1.7866 -2.5415001 0.93010002
1.1792001 -2.8694999 0.87290001
1.5919 -2.4935999 0.83240002
2.4937999 -2.6961999 1.0333
1.4705 -2.5469999 0.82749999
1.1472 -2.7915001 0.79519999
1.562 -2.4468 0.76490003
1.8338 -2.3762 0.79089999
1.0614001 -2.9502001 0.82620001
1.2381001 -2.668 0.77499998
1.443 -2.4993 0.7604
2.0053 -2.3719001 0.81840003
0.95459998 -3.0771999 0.79189998
1.5334001 -2.4021001 0.70050001
1.0348001 -2.8763001 0.75139999
1.2134 -2.6149001 0.70859998
1.4167 -2.4538 0.69639999
1.6533 -2.3518 0.70660001
1.9563 -2.3139 0.74479997
2.1064 -2.2774999 0.70810002
1.0096999 -2.8066001 0.68080002
1.1914999 -2.5676999 0.64609998
1.6236 -2.3096001 0.6444
1.48 -2.3183999 0.57990003
1.7276 -2.2386 0.59609997
1.1706001 -2.5225 0.58630002
1.8736 -2.2161 0.61180001
1.0642 -2.5896001 0.54180002
1.4637001 -2.2929001 0.52640003
2.0083001 -2.1712999 0.57239997
0.80320001 -3.066 0.61330003
1.353 -2.3434999 0.5237
1.8431 -2.1800001 0.55239999
1.2426 -2.3924999 0.4754
1.6842999 -2.1824999 0.48609999
2.4421999 -2.2088001 0.58060002
1.3393 -2.3197 0.47229999
1.5604 -2.2197001 0.47839999
1.8221 -2.1552 0.49759999
0.85970002 -2.7713001 0.46200001
1.0405999 -2.5321 0.4359
2.3914001 -2.1629 0.51340002
1.1332 -2.4419 0.4287
1.8016 -2.131 0.44440001
1.2180001 -2.345 0.37580001
1.4202 -2.2246001 0.37540001
1.648 -2.1354001 0.38370001
1.9287 -2.0853 0.40400001
1.1217999 -2.4175 0.37909999
1.5293 -2.1754999 0.37819999
1.7818 -2.1075001 0.39250001
2.1104 -2.0871 0.42219999
2.7460001 -2.2697001 0.50669998
0.8369 -2.698 0.354
1.0182 -2.4776001 0.33570001
1.6305 -2.1127 0.3344
1.9038 -2.0583999 0.35139999
1.1108 -2.3936999 0.33070001
1.7625 -2.0846 0.34209999
0.82609999 -2.6630001 0.30239999
1.0074 -2.4514 0.28749999
1.1945 -2.2997 0.2811
1.6135 -2.0906 0.28639999
1.8803999 -2.033 0.30039999
2.2605 -2.0445001 0.33059999
0.73900002 -2.8206 0.3163
1.1 -2.3705001 0.28349999
1.4997 -2.1333001 0.28290001
0.63770002 -2.9676001 0.27829999
0.81809998 -2.6373999 0.25319999
1.1872 -2.2857001 0.2361
1.3844 -2.1686001 0.2359
1.8638 -2.0151 0.2516
0.72979999 -2.7858 0.264
2.0299001 -2.0074 0.2617
0.63080001 -2.9356999 0.22499999
0.8132 -2.6215 0.2057
0.99430001 -2.4196 0.19599999
1.3772 -2.1573 0.1918
1.5928 -2.0639 0.1954
1.8527 -2.0030999 0.2045
2.1982 -1.9881999 0.2221
0.7245 -2.7656 0.2142
2.0155001 -1.9931999 0.2124
2.4604001 -2.0336001 0.2392
0.62470001 -2.9068999 0.1732
0.80830002 -2.6059 0.15889999
1.37 -2.1461999 0.14830001
1.8418 -1.9914 0.15800001
2.9539001 -2.2276001 0.2155
0.90069997 -2.5034001 0.155
1.0816 -2.3306999 0.1497
1.2668 -2.1942 0.1476
1.7099 -2.0225 0.1543
2.0014 -1.9792 0.1639
2.4354 -2.0129001 0.184
0.61989999 -2.8847001 0.1227
0.80360001 -2.5905001 0.1128
1.1688 -2.2502999 0.1054
2.1661999 -1.9592 0.1214
2.8118999 -2.1205001 0.1464
0.8955 -2.4890001 0.11
1.4671 -2.0869 0.1061
1.7002 -2.0109999 0.1095
1.9874001 -1.9654 0.1162
2.411 -1.9927 0.1301
0.6153 -2.8634 0.072999999
0.97759998 -2.3789001 0.064099997
2.1506 -1.9450999 0.072300002
0.89039999 -2.4748001 0.0656
1.0704 -2.3066001 0.0634
1.2539001 -2.1717999 0.0625
1.6906 -1.9996001 0.065300003
1.9737 -1.9519 0.069200002
0.61080003 -2.8422999 0.0242
0.7942 -2.5603001 0.022299999
0.97219998 -2.3657 0.021299999
1.1569 -2.2274001 0.0209
1.8101 -1.957 0.0222
2.1352 -1.9312 0.0239
2.7149 -2.0474 0.0283
0.70420003 -2.6879001 0.0231
0.88529998 -2.4607 0.0217
1.4521 -2.0655999 0.021
0.6063 -2.8216 -0.024
1.3424 -2.1027999 -0.0207
1.7997 -1.9459 -0.022
2.1201 -1.9175 -0.023800001
1.0595 -2.2830999 -0.0209
1.2413 -2.1500001 -0.0206
1.4447 -2.0551 -0.0209
1.6717 -1.9773 -0.021500001
2.3406 -1.9346 -0.0252
0.60290003 -2.8058 -0.071599998
1.1457 -2.2059 -0.061999999
1.3362 -2.0932 -0.061900001
2.108 -1.9066 -0.070900001
2.6378 -1.9893 -0.082400002
0.50889999 -3.0169001 -0.076300003
1.0546 -2.2727001 -0.0625
1.438 -2.0457001 -0.062399998
0.78430003 -2.5283 -0.1101
1.3341 -2.0897999 -0.1031
2.1032 -1.9022 -0.1179
2.6235001 -1.9785 -0.1366
0.69379997 -2.6480999 -0.1138
0.87440002 -2.4303999 -0.1074
1.2336 -2.1366999 -0.1026
1.6605 -1.964 -0.1069
1.9316 -1.9102 -0.113
2.3162 -1.9144 -0.1249
0.60009998 -2.7925 -0.1664
0.78280002 -2.5236001 -0.1539
1.142 -2.1987 -0.1443
1.7843 -1.9291 -0.1531
2.0984001 -1.8979 -0.1648
2.6092999 -1.9678 -0.1903
0.69220001 -2.6421001 -0.1591
0.87279999 -2.4260001 -0.15019999
1.0512 -2.2651999 -0.1454
1.2316 -2.1331999 -0.1435
1.6575 -1.9605 -0.1495
0.78140002 -2.5188999 -0.19760001
0.95709997 -2.3289001 -0.18870001
1.1401 -2.1951001 -0.18539999
1.5338 -1.9875 -0.1881
2.5952001 -1.9571 -0.2436
1.431 -2.0355999 -0.1865
1.9231 -1.9018 -0.2027
2.3017001 -1.9025 -0.2238
1.7776999 -1.9220999 -0.23999999
0.68910003 -2.6301999 -0.2493
0.8696 -2.4171 -0.23549999
1.0477 -2.2577 -0.2282
1.2276 -2.1263001 -0.2251
1.4286 -2.0322001 -0.2277
1.6515 -1.9535 -0.23450001
1.9189 -1.8976001 -0.2474
0.7784 -2.5093999 -0.285
0.95389998 -2.3211 -0.27219999
1.7744 -1.9184999 -0.28349999
2.0840001 -1.8848 -0.3048
1.4263 -2.0288999 -0.26899999
1.9147 -1.8935 -0.29210001
0.59439999 -2.7662001 -0.35460001
0.95230001 -2.3171999 -0.31400001
1.3232 -2.0727999 -0.3082
1.7711 -1.9148999 -0.32690001
2.0792 -1.8805 -0.3513
1.4239 -2.0255001 -0.31029999
1.6456 -1.9464 -0.31940001
0.59329998 -2.7609999 -0.40169999
0.7755 -2.4999001 -0.3723
0.95069999 -2.3132999 -0.35569999
1.7678 -1.9114 -0.37029999
2.5699 -1.9381 -0.4578
0.86479998 -2.4037001 -0.36340001
1.0425 -2.2465 -0.35229999
1.2216001 -2.1159 -0.3475
1.6426001 -1.9428999 -0.3619
2.2794001 -1.8839999 -0.4206
0.5948 -2.7678001 -0.4508
1.3188 -2.0659001 -0.39030001
1.7668999 -1.9104 -0.41440001
2.0792999 -1.8806 -0.44639999
0.68510002 -2.615 -0.4305
0.86379999 -2.4010999 -0.40630001
1.0407 -2.2427001 -0.3937
1.4191999 -2.0188999 -0.39300001
1.6404999 -1.9404 -0.40459999
2.2871001 -1.8904001 -0.4725
1.132 -2.1796 -0.43309999
2.0843999 -1.8853 -0.49559999
2.6013999 -1.9618 -0.57450002
0.68669999 -2.6213 -0.47780001
1.6436 -1.9441 -0.44890001
1.9119 -1.8907 -0.47409999
2.2948999 -1.8968 -0.52499998
0.5977 -2.7816999 -0.55059999
0.95240003 -2.3176 -0.4849
1.1339999 -2.1833999 -0.4761
1.7739 -1.9179 -0.50559998
2.6176 -1.974 -0.63440001
0.86720002 -2.4103999 -0.4957
1.044 -2.2498 -0.47999999
1.2229 -2.1180999 -0.47330001
1.4234999 -2.0250001 -0.479
0.77990001 -2.5143001 -0.55500001
0.95410001 -2.3217001 -0.52920002
1.136 -2.1872001 -0.51959997
1.3249 -2.0754001 -0.51910001
2.6341 -1.9865 -0.69550002
0.69010001 -2.6338999 -0.574
1.0459 -2.2537999 -0.52380002
1.225 -2.1217 -0.5165
1.921 -1.8997 -0.56959999
1.5317 -1.9847 -0.5722
1.781 -1.9256001 -0.59869999
2.1001 -1.8995 -0.64630002
1.0477 -2.2578001 -0.56809998
1.2271 -2.1255 -0.56019998
1.6533 -1.9555 -0.58450001
2.319 -1.9167 -0.68669999
0.6024 -2.8032 -0.70469999
0.78310001 -2.5246 -0.64969999
0.9576 -2.3302 -0.61919999
2.1055 -1.9043 -0.69779998
2.7284 -2.0574999 -0.83999997
0.51130003 -3.0309 -0.75550002
1.4312 -2.0359001 -0.6117
1.6565 -1.9594001 -0.63069999
1.9304 -1.909 -0.66729999
1.1421 -2.1989 -0.65289998
1.5373 -1.9919 -0.66299999
2.1133001 -1.9114 -0.75080001
0.69520003 -2.6535001 -0.72280002
1.0515 -2.266 -0.65829998
1.2315 -2.1331 -0.64899999
1.4338 -2.0395999 -0.65689999
1.6599 -1.9633 -0.67739999
2.3566999 -1.9479001 -0.8057
2.1317999 -1.9281 -0.80870003
0.69980001 -2.6712 -0.77689999
1.6632 -1.9673001 -0.72479999
2.3864999 -1.9725 -0.87110001
0.61629999 -2.8678999 -0.87819999
0.79259998 -2.5550001 -0.80089998
0.96499997 -2.3483 -0.76010001
1.1469001 -2.2081001 -0.74489999
1.3374 -2.0950999 -0.74409997
1.0566 -2.2767999 -0.75150001
1.4403 -2.0488999 -0.74980003
1.6720999 -1.9777 -0.77530003
2.4173999 -1.998 -0.93889999
0.62199998 -2.8945999 -0.94029999
0.79820001 -2.5732 -0.8556
0.9716 -2.3643 -0.8118
1.1539 -2.2217 -0.79509997
2.1703999 -1.9630001 -0.92940003
0.53909999 -3.1959 -1.0293
1.4493001 -2.0616 -0.8003
1.6835999 -1.9913 -0.82819998
1.9796 -1.9577 -0.88419998
2.4493999 -2.0244999 -1.0092
1.1612 -2.2356 -0.84640002
1.3541 -2.1210999 -0.84549999
1.8308001 -1.9795001 -0.9059
0.89340001 -2.4832001 -0.88669997
1.0698 -2.3055 -0.85390002
1.2514 -2.1675 -0.8409
1.9971 -1.9749 -0.94370002
0.63870001 -2.9726 -1.0781
0.81 -2.6112001 -0.96939999
0.98519999 -2.3973999 -0.91909999
1.3627 -2.1345999 -0.898
1.5779001 -2.0445001 -0.91579998
1.8443 -1.994 -0.96310002
0.8998 -2.5011001 -0.9425
1.2593 -2.1812 -0.89310002
1.7075 -2.0195999 -0.93779999
2.0150001 -1.9927 -1.0049
2.6392 -2.1814001 -1.2141
0.8161 -2.631 -1.0286
0.99229997 -2.4145999 -0.97479999
1.3715 -2.1484001 -0.95179999
1.5891 -2.0590999 -0.97119999
1.8581001 -2.0088999 -1.0218
2.2744 -2.0571001 -1.1452
0.90640002 -2.5195 -0.99980003
1.2674 -2.1953001 -0.9465
1.4773 -2.1015 -0.95920002
1.7199 -2.0343001 -0.99470001
2.0335 -2.0109999 -1.0678999
0.8251 -2.6600001 -1.0931
1.184 -2.2795 -1.0081
1.3806 -2.1626 -1.007
2.3422 -2.1184001 -1.2394
0.74779999 -2.8543 -1.158
0.91320002 -2.5383999 -1.0588
1.2758 -2.2097001 -1.0014
1.7327 -2.0494001 -1.0533
1.01 -2.4577 -1.0942
1.3899 -2.1772001 -1.0635999
1.6163 -2.0943 -1.0893
2.415 -2.1842 -1.3408999
0.76319999 -2.9130001 -1.24
0.92640001 -2.5748999 -1.1267999
2.1142001 -2.0908 -1.2244
0.85799998 -2.766 -1.2492
1.4082 -2.2059 -1.1289001
0.77939999 -2.9751 -1.3266
1.5187 -2.1603 -1.1391
1.7833 -2.1092999 -1.1914999
0.87580001 -2.8234 -1.3339
1.0419 -2.5353 -1.2368
1.225 -2.3585999 -1.1992
1.428 -2.237 -1.1975
1.9861 -2.1473 -1.3198
1.1306 -2.4363 -1.2119
1.3185 -2.2837999 -1.1899
1.8121001 -2.1434 -1.2664
2.2409 -2.2161 -1.4220001
1.4487 -2.2693999 -1.2691
2.0467 -2.2128999 -1.4208
1.3376 -2.3167 -1.261
1.8423001 -2.1791 -1.3451
2.4335999 -2.4066999 -1.6134
0.95160002 -3.0676999 -1.5798
1.082 -2.6329 -1.4001
1.4704 -2.3032999 -1.3441
1.0033 -2.7887001 -1.4577
1.1646 -2.5095999 -1.3608
1.3575 -2.3512001 -1.3354
1.2937 -2.4907999 -1.4389
1.5071 -2.3608 -1.4359
1.1979001 -2.5815001 -1.459
1.3890001 -2.4058001 -1.4242001
1.6301 -2.3189001 -1.4532
1.9762 -2.3375001 -1.5693001
1.2381001 -2.6681001 -1.5703
1.6193 -2.5367 -1.6714
1.4834 -2.5692999 -1.6477
