# .PCD v0.7 - Point Cloud Data file format
VERSION 0.7
FIELDS x y z
SIZE 4 4 4
TYPE F F F
COUNT 1 1 1
WIDTH 447
HEIGHT 1
VIEWPOINT 0 0 0 1 0 0 0
POINTS 447
DATA ascii
0.25 -3.1995001 1.138
0.36829999 -2.9902 1.0123
0.69580001 -3.2381001 1.1128
-0.034299999 -3.0769999 1.0339
0.51120001 -3.0308001 1.0326999
0.096799999 -2.8945999 0.91979998
0.35420001 -2.8764 0.92040002
-0.3285 -3.2653 1.0422
-0.032900002 -2.9568999 0.93910003
0.4914 -2.9131999 0.9382
0.61510003 -2.8627 0.87660003
-0.30790001 -3.0604999 0.92089999
-0.0317 -2.8469999 0.8524
0.2172 -2.7797999 0.83469999
0.091499999 -2.7381999 0.77079999
0.33469999 -2.7177999 0.77039999
0.93550003 -3.016 0.88849998
-0.030999999 -2.7808001 0.78240001
-0.43610001 -2.9898 0.79610002
-0.1547 -2.7739 0.73210001
0.58289999 -2.7128 0.73110002
0.89480001 -2.8847001 0.79589999
-0.2879 -2.8615999 0.75779998
0.20909999 -2.6758001 0.70719999
0.45339999 -2.6879001 0.71829998
1.1467 -3.1874001 0.8926
-0.42300001 -2.9003 0.72039998
-0.1517 -2.7198999 0.66960001
0.57160002 -2.6602001 0.6688
-0.59380001 -3.0976 0.77530003
-0.2814 -2.7967 0.69090003
-0.0298 -2.674 0.6573
0.2053 -2.6273 0.64780003
0.4447 -2.6366999 0.6573
1.0676 -2.9675 0.77520001
-0.1488 -2.6684 0.61000001
0.56089997 -2.6099999 0.60930002
0.84570003 -2.7263999 0.65149999
-0.029200001 -2.6243 0.59899998
0.2017 -2.5810001 0.5909
0.43650001 -2.5878 0.59899998
1.0307 -2.865 0.69489998
-0.75989997 -3.1888001 0.6911
-0.40360001 -2.767 0.58950001
-0.1464 -2.6254001 0.55430001
0.31259999 -2.5385001 0.53920001
0.5521 -2.5690999 0.55400002
-0.55729997 -2.9073999 0.62410003
-0.0288 -2.5862999 0.54530001
0.1991 -2.5480001 0.5388
0.4303 -2.5509 0.54540002
-0.14480001 -2.5966001 0.50330001
0.084600002 -2.5318999 0.49020001
0.30939999 -2.5123999 0.48989999
0.81480002 -2.6266 0.53219998
1.1834 -2.8796 0.60250002
-0.26609999 -2.6445999 0.51440001
-0.0285 -2.5583999 0.49509999
0.197 -2.5218999 0.48949999
-0.1432 -2.5687001 0.45359999
0.083800003 -2.5063 0.44220001
0.80449998 -2.5934 0.4788
1.1466 -2.7902 0.53189999
-0.53369999 -2.7844 0.49990001
-0.26280001 -2.6120999 0.46290001
-0.028200001 -2.5313001 0.44639999
0.19509999 -2.4964001 0.44150001
0.6656 -2.5404999 0.46309999
-0.68879998 -2.8901 0.47310001
-0.38730001 -2.6554 0.42730001
0.082999997 -2.4813001 0.3953
0.30329999 -2.4623001 0.39500001
0.79449999 -2.5611999 0.42699999
-0.25960001 -2.5806 0.41299999
-0.027899999 -2.5050001 0.3989
0.19310001 -2.4714999 0.39480001
-0.38249999 -2.6228001 0.377
0.082099997 -2.457 0.3497
0.52890003 -2.4614 0.3581
-0.88319999 -3.0887001 0.4569
-0.0276 -2.4793 0.3527
0.1912 -2.4473 0.34920001
0.41249999 -2.4456 0.35280001
0.92979997 -2.5843999 0.39070001
-0.1388 -2.4892001 0.31240001
0.081299998 -2.4331999 0.30509999
0.2974 -2.4145 0.30489999
0.52350003 -2.4361999 0.3123
1.0907 -2.6542001 0.35960001
0.91790003 -2.5515001 0.3398
-0.65549999 -2.7506001 0.30669999
0.080600001 -2.4119 0.26179999
1.0734 -2.6120999 0.30630001
-0.83829999 -2.9317 0.33070001
0.40459999 -2.3985 0.2638
-0.64630002 -2.7119 0.25560001
-0.3705 -2.5402999 0.23540001
-0.1367 -2.4507 0.22499999
0.080200002 -2.3993001 0.2201
0.29319999 -2.3810999 0.2199
0.51550001 -2.3991001 0.22499999
0.76050001 -2.4518001 0.2353
-0.50040001 -2.6104 0.2437
-0.25 -2.4847 0.2289
0.1868 -2.3901 0.2198
0.40239999 -2.3855 0.2218
0.6322 -2.4133 0.2287
0.89880002 -2.4984 0.24339999
-1.0518 -3.1415 0.2483
-0.6408 -2.6889 0.2071
0.079800002 -2.3868001 0.17900001
0.29170001 -2.3687999 0.1789
0.51270002 -2.3859 0.1829
0.75569999 -2.4361999 0.1911
1.0504 -2.556 0.2071
1.5252 -2.9366 0.248
-0.80870003 -2.8280001 0.22040001
-0.24860001 -2.4707999 0.18610001
0.1858 -2.3778 0.1787
0.40020001 -2.3724999 0.1803
0.89289999 -2.4819 0.19769999
1.2356 -2.6626999 0.22
-1.0263 -3.0653 0.1883
-0.6354 -2.6663001 0.1596
-0.13519999 -2.424 0.14139999
0.079400003 -2.3745999 0.1384
0.50989997 -2.3729 0.14139999
0.75089997 -2.4208 0.1476
1.0416 -2.5346 0.1596
1.485 -2.8592 0.1876
-0.80140001 -2.8027999 0.1698
-0.49380001 -2.5762 0.15279999
-0.2472 -2.4570999 0.14380001
-0.026699999 -2.392 0.1393
0.1848 -2.3655 0.1382
0.398 -2.3598001 0.13940001
0.62529999 -2.3866 0.1437
0.88709998 -2.4656999 0.15260001
1.2247 -2.6391001 0.16949999
0.079000004 -2.3624001 0.098300003
0.28870001 -2.3446 0.098200001
0.50709999 -2.3601 0.1004
-0.49059999 -2.5594001 0.1084
-0.2458 -2.4435999 0.1021
-0.0265 -2.3793001 0.098899998
0.39590001 -2.3473001 0.098999999
-0.625 -2.6224 0.067199998
-0.36129999 -2.4769001 0.062399998
0.28729999 -2.3326001 0.058600001
1.0245 -2.4930999 0.067199998
1.4446 -2.7814 0.078199998
-0.2445 -2.4303 0.060899999
0.39379999 -2.3348 0.059
0.8757 -2.434 0.064499997
1.2034 -2.5932 0.0713
-0.133 -2.3852 0.0199
0.28580001 -2.3209 0.019400001
0.73699999 -2.3759 0.0207
1.0161999 -2.4728 0.0222
1.4253 -2.7442 0.025699999
-0.78060001 -2.73 0.023600001
-0.2432 -2.4171 0.020199999
0.39179999 -2.3225999 0.0196
0.61510003 -2.3478 0.020199999
0.87010002 -2.4184 0.021400001
1.193 -2.5709 0.023600001
-0.1323 -2.3726001 -0.0198
0.28439999 -2.3092 -0.019300001
0.4991 -2.3225999 -0.0197
0.73250002 -2.3613 -0.020500001
1.4064 -2.7079 -0.0254
-0.77389997 -2.7065001 -0.023399999
-0.4813 -2.5106001 -0.021199999
0.3897 -2.3104 -0.0195
0.61180001 -2.3350999 -0.020099999
0.8646 -2.4031 -0.021199999
1.1829 -2.549 -0.023399999
-0.13160001 -2.3599999 -0.058899999
0.077399999 -2.3152001 -0.057799999
0.28299999 -2.2976999 -0.057700001
0.49649999 -2.3106999 -0.058899999
0.72829998 -2.348 -0.061299998
0.1802 -2.3065 -0.057700001
0.60869998 -2.3232 -0.059900001
-0.95630002 -2.8564 -0.1252
-0.1314 -2.3559 -0.098099999
0.077299997 -2.3111999 -0.096199997
0.2825 -2.2939 -0.096100003
0.99860001 -2.4298999 -0.1092
1.387 -2.6705 -0.1251
-0.2402 -2.3871 -0.099799998
-0.025900001 -2.3255999 -0.096699998
0.17990001 -2.3025999 -0.096000001
0.38699999 -2.2946 -0.096799999
0.85790002 -2.3847001 -0.1054
1.1716 -2.5246999 -0.1157
-0.95230001 -2.8441999 -0.17470001
-0.60839999 -2.5529001 -0.1529
-0.35330001 -2.4222 -0.1426
0.72539997 -2.3385999 -0.1426
0.99610001 -2.4238 -0.15260001
1.381 -2.6589 -0.1745
-0.76389998 -2.6714001 -0.1618
-0.025900001 -2.3217001 -0.13519999
0.1796 -2.2988 -0.13429999
0.85610002 -2.3796999 -0.1473
1.1683 -2.5176001 -0.1617
-0.60710001 -2.5474999 -0.1963
-0.1309 -2.3478 -0.1762
0.2816 -2.2864001 -0.1726
0.49399999 -2.2987001 -0.1762
-0.4754 -2.4802001 -0.1892
-0.2393 -2.3787 -0.17919999
-0.025800001 -2.3178 -0.1737
0.38569999 -2.2867 -0.17380001
0.85439998 -2.3748 -0.1891
1.165 -2.5106001 -0.20739999
-0.60579997 -2.5421 -0.2396
-0.35190001 -2.4126 -0.2235
-0.13070001 -2.3438001 -0.21520001
0.49309999 -2.2946999 -0.21520001
0.72250003 -2.3292 -0.2236
0.99180001 -2.4133 -0.2392
1.3691 -2.6359999 -0.2723
-0.7597 -2.6568 -0.25330001
-0.23890001 -2.3745999 -0.21879999
-0.025800001 -2.3138001 -0.2121
0.17900001 -2.2913001 -0.21070001
0.38510001 -2.2828 -0.2122
0.60439998 -2.3069 -0.2186
1.1618 -2.5035999 -0.25299999
1.7426 -3.0181999 -0.3195
-0.94019997 -2.8081 -0.32120001
-0.6045 -2.5367 -0.28279999
0.2807 -2.2788999 -0.2491
0.72109997 -2.3245001 -0.264
-0.75760001 -2.6494999 -0.29890001
-0.2385 -2.3704 -0.25839999
0.38440001 -2.2788999 -0.2507
1.1585 -2.4965 -0.2985
-0.93620002 -2.7962 -0.36950001
-0.60320002 -2.5313001 -0.32609999
-0.1303 -2.3357 -0.29319999
0.0766 -2.2923 -0.28740001
0.2802 -2.2751999 -0.28729999
0.71960002 -2.3197999 -0.3044
-1.251 -3.2483001 -0.43619999
-0.75550002 -2.6422 -0.34439999
-0.4725 -2.4649999 -0.3145
-0.23810001 -2.3663001 -0.29800001
-0.025699999 -2.306 -0.289
0.60219997 -2.2987001 -0.2978
1.1553 -2.4895999 -0.3439
-0.602 -2.5258999 -0.36930001
-0.13 -2.3317001 -0.33219999
0.71810001 -2.3151 -0.3448
1.3565 -2.6119001 -0.41859999
-0.75340003 -2.6349001 -0.38980001
-0.47150001 -2.4598999 -0.3563
-0.2376 -2.3620999 -0.33770001
0.17820001 -2.28 -0.32530001
0.60119998 -2.2946999 -0.33739999
1.152 -2.4825001 -0.38929999
0.2793 -2.2677 -0.36379999
-0.75440001 -2.6384001 -0.43700001
-0.47060001 -2.4547999 -0.398
-0.23720001 -2.3578999 -0.37740001
-0.025599999 -2.2981 -0.366
1.1542 -2.4872999 -0.4366
0.98680001 -2.4013 -0.4578
-0.23710001 -2.3571999 -0.41769999
0.1776 -2.273 -0.40200001
0.38190001 -2.2644 -0.40490001
0.84729999 -2.3550999 -0.4413
1.1575 -2.4944 -0.4849
-0.60399997 -2.5346 -0.50419998
-0.12989999 -2.3297999 -0.45159999
0.71869999 -2.3169 -0.46939999
0.98900002 -2.4066999 -0.50349998
-0.759 -2.6544001 -0.53430003
-0.4725 -2.4647 -0.48559999
-0.025599999 -2.2992001 -0.44499999
0.1779 -2.2767999 -0.44190001
0.38260001 -2.2684 -0.4452
0.84909999 -2.3601 -0.48539999
1.1608 -2.5016 -0.53369999
0.076499999 -2.2893 -0.48289999
0.2798 -2.2723 -0.48269999
0.7202 -2.3217001 -0.51249999
0.99119997 -2.4119999 -0.54979998
1.3812 -2.6592 -0.63169998
-0.025699999 -2.3032999 -0.48559999
0.17820001 -2.2807 -0.48230001
0.85089999 -2.3652 -0.52990001
-0.95779997 -2.8608 -0.6886
-0.60689998 -2.5465 -0.59750003
0.076700002 -2.2932999 -0.5237
0.28029999 -2.2762001 -0.52350003
0.49200001 -2.2895 -0.5345
-0.76370001 -2.6708 -0.634
-0.47459999 -2.4756999 -0.57539999
0.1785 -2.2846999 -0.52310002
0.384 -2.2765 -0.52689999
0.60329998 -2.3029001 -0.54339999
0.85280001 -2.3704 -0.57499999
-0.35229999 -2.4154 -0.60000002
-0.13060001 -2.3427999 -0.57679999
0.076800004 -2.2973001 -0.565
0.28080001 -2.2802 -0.56470001
0.49290001 -2.2937 -0.57669997
0.72320002 -2.3315001 -0.60000002
0.9957 -2.4229 -0.64389998
1.3959 -2.6875999 -0.74440002
-0.23890001 -2.375 -0.58670002
-0.025800001 -2.3118 -0.56830001
0.3847 -2.2807 -0.56849998
0.85460001 -2.3756001 -0.62059999
1.1711 -2.5237 -0.6839
-0.98049998 -2.9287 -0.81379998
-0.60970002 -2.5585999 -0.69309998
0.076899998 -2.3013999 -0.60680002
0.28130001 -2.2842 -0.60640001
0.99809998 -2.4289 -0.69190001
-0.2394 -2.3794999 -0.63020003
-0.025800001 -2.3160999 -0.6103
0.17919999 -2.2927999 -0.60600001
0.3854 -2.2848001 -0.61059999
0.6056 -2.3116 -0.62970001
0.85650003 -2.3808 -0.66670001
-0.99919999 -2.9844999 -0.88550001
-0.1311 -2.3517001 -0.6627
0.2818 -2.2883 -0.6487
1.0013 -2.4366 -0.74119997
-0.4779 -2.4928999 -0.71420002
-0.23989999 -2.3842001 -0.6742
-0.025900001 -2.3204999 -0.65289998
0.60680002 -2.3160999 -0.67360002
0.8585 -2.3862 -0.71350002
1.1866 -2.5569999 -0.7931
0.077200003 -2.3097 -0.69190001
0.2823 -2.2925 -0.69150001
1.4729 -2.8357999 -0.95670003
-0.78469998 -2.7442 -0.8545
-0.025900001 -2.3248999 -0.6961
0.86260003 -2.3975999 -0.76279998
1.1993999 -2.5846 -0.85299999
0.28290001 -2.2967 -0.7349
0.4971 -2.3134999 -0.75150001
0.7331 -2.3634 -0.7859
1.0218 -2.4865 -0.8538
1.5224 -2.9312 -1.049
-0.2413 -2.3987999 -0.76569998
0.18009999 -2.3052001 -0.73430002
0.3876 -2.2976999 -0.74000001
0.61059999 -2.3306 -0.7651
0.86930001 -2.4163001 -0.81550002
-0.63010001 -2.6440001 -0.91320002
-0.3599 -2.4675 -0.83780003
-0.13259999 -2.3785999 -0.80040002
0.28439999 -2.3095 -0.78179997
0.50040001 -2.3287001 -0.80019999
0.73879999 -2.3815 -0.83780003
1.0326 -2.5125999 -0.9127
-0.48769999 -2.5445001 -0.87050003
-0.2429 -2.4149001 -0.81550002
-0.0261 -2.3440001 -0.78759998
0.1811 -2.3178999 -0.78109998
0.38999999 -2.3124001 -0.78789997
1.2263 -2.6424999 -0.9788
-0.63709998 -2.6733 -0.9745
-0.3628 -2.4872 -0.89120001
-0.13349999 -2.3945 -0.85039997
0.28619999 -2.3239999 -0.83029997
0.7446 -2.4001999 -0.89109999
1.0436 -2.5395999 -0.97359997
-0.81239998 -2.8412001 -1.0477999
-0.49180001 -2.5655999 -0.92629999
-0.2446 -2.4314001 -0.86650002
0.1822 -2.3325 -0.82959998
0.88340002 -2.4554 -0.9253
1.2411 -2.6745 -1.0455
-0.1344 -2.4109001 -0.9016
0.50709999 -2.3599999 -0.90140003
1.0551 -2.5675001 -1.0365
-0.2463 -2.4484 -0.91890001
0.39520001 -2.3429999 -0.88730001
1.2874 -2.7744 -1.1421
-0.65579998 -2.7520001 -1.1102999
-0.1354 -2.4277 -0.95429999
0.2899 -2.3541 -0.93089998
0.75660002 -2.4391 -1.0023
-0.88499999 -3.095 -1.2634
-0.50019997 -2.6096001 -1.0427999
0.6275 -2.395 -0.97170001
0.89819998 -2.4967 -1.0414
-0.6728 -2.8232999 -1.1950999
-0.37189999 -2.5497 -1.061
0.079800002 -2.3875999 -0.98369998
0.29190001 -2.3698001 -0.98320001
0.76289999 -2.4593999 -1.0603
1.1013 -2.6798 -1.193
-0.50709999 -2.6452999 -1.1091
-0.026799999 -2.4082999 -0.99180001
0.1858 -2.3783 -0.98229998
0.40059999 -2.3752999 -0.99190003
0.91070002 -2.5314 -1.1078
-0.69099998 -2.8994999 -1.2857
-0.3779 -2.5912001 -1.1295
-0.1373 -2.4626999 -1.064
0.080399998 -2.4038 -1.0375
0.77539998 -2.4998 -1.1289999
1.1301 -2.7499001 -1.2824
-0.25220001 -2.5065 -1.0867
0.40349999 -2.3921001 -1.0464
0.63789999 -2.4347999 -1.0857
0.92739999 -2.5778999 -1.1818
-0.72829998 -3.0560999 -1.4176
-0.3849 -2.6389999 -1.2033
0.7895 -2.5452001 -1.2024
-0.25600001 -2.5450001 -1.1540999
-0.0273 -2.4535999 -1.1072
0.4082 -2.4200001 -1.1073999
0.9497 -2.6398001 -1.2659
0.301 -2.4438 -1.1607
-0.54280001 -2.8318 -1.3592
0.41429999 -2.4563999 -1.1743
0.9745 -2.7086 -1.3569
-0.40000001 -2.7425001 -1.3631999
0.083499998 -2.4984 -1.2295001
0.54180002 -2.5213001 -1.2684
-0.57590002 -3.0044999 -1.5046999
-0.26539999 -2.6378 -1.304
0.1944 -2.4881999 -1.2276
-0.4161 -2.8527999 -1.478
0.85259998 -2.7486999 -1.4754
-0.2714 -2.6977 -1.39
-0.4465 -3.0615001 -1.6517
-0.15009999 -2.6921 -1.4394
0.3152 -2.559 -1.3764
-0.28310001 -2.8136001 -1.5096
-0.029300001 -2.6257999 -1.4018
0.43669999 -2.5890999 -1.4017
0.58609998 -2.7275 -1.5494
-0.030300001 -2.7172999 -1.5093
0.33629999 -2.7309 -1.5886
0.63419998 -2.9514 -1.7429
0.214 -2.7388 -1.5861
