# .PCD v0.7 - Point Cloud Data file format
VERSION 0.7
FIELDS x y z
SIZE 4 4 4
TYPE F F F
COUNT 1 1 1
WIDTH 390
HEIGHT 1
VIEWPOINT 0 0 0 1 0 0 0
POINTS 390
DATA ascii
-1.0432 -3.1157999 1.0434999
-0.77950001 -3.2709999 1.0678999
-1.3159 -3.0095999 0.98339999
-1.0068001 -3.0072999 0.94940001
-0.74790001 -3.1382 0.96579999
-0.51340002 -3.5202999 1.0651
-1.5184 -3.0899 1.0307
-0.87470001 -3.0592 0.9526
-0.62599999 -3.2658999 0.99550003
-1.7000999 -3.1024001 0.99529999
-0.72039998 -3.0229001 0.8743
-0.4844 -3.3215001 0.94440001
-1.1119 -2.8870001 0.87040001
-0.84549999 -2.957 0.8653
-0.60229999 -3.1424 0.90020001
-1.5962 -2.9126999 0.87519997
-1.2305 -2.8143001 0.80930001
-0.95209998 -2.8439 0.79030001
-0.70319998 -2.9507 0.79930001
-1.0862 -2.8202 0.79629999
-0.82669997 -2.8912001 0.7924
-1.5463001 -2.8216 0.79089999
-1.2059 -2.7581 0.73989999
-0.93480003 -2.7923 0.7238
-0.69029999 -2.8965001 0.73189998
-0.45109999 -3.0932 0.76840001
-1.7876 -2.9428999 0.84640002
-1.3618 -2.7711999 0.759
-1.0663 -2.7686 0.72930002
-0.57209998 -2.9847 0.74699998
-1.1825 -2.7045 0.67369998
-0.67790002 -2.8448 0.66750002
-0.44139999 -3.0264001 0.69809997
-0.19140001 -3.4333999 0.78490001
-1.0473 -2.7193 0.66509998
-0.56089997 -2.9261999 0.68010002
-0.3202 -3.1833999 0.73030001
-0.90249997 -2.6956 0.59930003
-0.1849 -3.3171 0.70039999
-1.0290999 -2.6719999 0.60369998
-0.78350002 -2.7400999 0.60079998
-0.31259999 -3.1075001 0.6584
-1.1428 -2.6136 0.55199999
-0.89109999 -2.6615 0.54320002
-0.65710002 -2.7574999 0.54860002
-0.1789 -3.2091999 0.62199998
-1.6314 -2.6856999 0.6081
-1.2865 -2.618 0.56449997
-0.54149997 -2.8250999 0.55669999
-0.30540001 -3.0355 0.59039998
-1.1305 -2.5855 0.49759999
-1.6022 -2.6377001 0.5442
-1.2721 -2.5885999 0.5086
-1.0052 -2.6099999 0.4932
-0.037799999 -3.391 0.59799999
-1.405 -2.5638001 0.4655
-1.1191 -2.5594001 0.44479999
-0.64389998 -2.7019 0.44229999
-0.41549999 -2.8487999 0.45840001
-2.109 -2.8624001 0.56620002
-1.5803 -2.6015 0.48469999
-1.258 -2.5599999 0.4542
-0.75800002 -2.6508 0.43900001
-0.52969998 -2.7634001 0.44800001
-0.036899999 -3.3134 0.52759999
-1.757 -2.6217 0.44890001
-1.1079 -2.5339 0.39340001
-0.86470002 -2.5827999 0.3874
-0.4109 -2.8176 0.405
0.1221 -3.6506 0.51950002
-2.0404999 -2.7693999 0.48930001
-1.2443 -2.5321 0.40130001
-0.9853 -2.5583 0.3899
-0.29280001 -2.911 0.4161
-1.7268 -2.5766001 0.38870001
-1.3741 -2.5074 0.3583
-0.8563 -2.5578001 0.338
-0.63129997 -2.6491001 0.34130001
-0.40650001 -2.7872 0.35299999
-0.1679 -3.0105 0.37779999
-1.9864 -2.6960001 0.4197
-1.5385 -2.5327001 0.3714
-0.97570002 -2.5334001 0.34020001
-0.51849997 -2.7049999 0.34509999
-0.28909999 -2.8738 0.36199999
-1.7034 -2.5416 0.3319
-1.0864 -2.4847 0.29409999
-0.84820002 -2.5334001 0.28979999
-0.62519997 -2.6236 0.29249999
0.1143 -3.4187 0.37099999
-1.5185 -2.4998 0.31729999
-1.2180001 -2.4786 0.29949999
-0.73610002 -2.5745001 0.2904
-0.51310003 -2.6768999 0.2956
-0.034899998 -3.1338999 0.33989999
-1.6806999 -2.5078001 0.27680001
-0.62099999 -2.6057999 0.2456
-0.39879999 -2.7344999 0.25330001
0.1112 -3.3253 0.30500001
-1.9126 -2.5957999 0.2956
-1.5010999 -2.4712 0.2651
-0.95990002 -2.4923999 0.2449
-0.50919998 -2.6565001 0.248
-0.28330001 -2.8162999 0.2595
-2.2186 -2.7460001 0.26460001
-1.6684999 -2.4895999 0.2246
-1.3394001 -2.4442 0.2089
-0.83829999 -2.5039999 0.1979
-0.61769998 -2.5922 0.1997
-0.39649999 -2.7188001 0.2059
-1.2014 -2.4447999 0.2041
-0.2816 -2.7997 0.21089999
-2.1805 -2.6989 0.20209999
-1.6565 -2.4717 0.1733
-1.3317 -2.4300001 0.16140001
-1.0676 -2.4418001 0.1552
-0.61449999 -2.5788 0.15440001
-0.39430001 -2.7033 0.1591
-1.8701 -2.5381 0.18359999
-1.4804 -2.4370999 0.1661
-1.1946 -2.4309001 0.1578
-0.94999999 -2.4665999 0.1539
-0.7238 -2.5313001 0.1533
-0.0337 -3.0279 0.17640001
-0.1602 -2.8734 0.1197
-0.72009999 -2.5184 0.1089
-0.50089997 -2.6135001 0.1106
-0.2784 -2.7672999 0.1156
-0.033500001 -3.0060999 0.125
0.28130001 -3.5994999 0.15009999
-1.3164999 -2.4022999 0.068300001
-1.0567 -2.4166999 0.065800004
-0.82560003 -2.4658999 0.064800002
-0.60829997 -2.5524001 0.065399997
0.1064 -3.1808 0.079400003
-0.4984 -2.5999999 0.066
-1.6216 -2.4196999 0.0242
-1.309 -2.3886001 0.022600001
-1.0513 -2.4044001 0.0218
-0.60519999 -2.5395 0.0217
-0.38769999 -2.6580999 0.022299999
-0.15800001 -2.8343999 0.023600001
0.1053 -3.1499 0.0262
-1.8167 -2.4656 0.0255
-0.93550003 -2.4291 0.021600001
-0.71280003 -2.493 0.021600001
-1.3016 -2.3752 -0.022500001
-0.38550001 -2.6434 -0.0222
-0.15700001 -2.8153 -0.023399999
-1.7996 -2.4424 -0.0252
-1.1682 -2.3771999 -0.022
-0.93080002 -2.4168 -0.021500001
0.26719999 -3.4194 -0.0285
-2.0418 -2.5272 -0.081
-1.296 -2.3649001 -0.067299999
-1.0417 -2.3824 -0.064800002
-0.15620001 -2.8009 -0.07
0.1036 -3.0992 -0.077299997
-1.7882 -2.4268999 -0.075199999
-1.1631 -2.3669 -0.065800004
-0.27239999 -2.7082 -0.067900002
0.26440001 -3.3842001 -0.084700003
-2.0351 -2.5188999 -0.1346
-1.5987999 -2.3856001 -0.1194
-1.2936 -2.3606 -0.1119
-0.59869999 -2.5122001 -0.1074
-0.1558 -2.7948999 -0.1164
0.1033 -3.0897 -0.1285
-2.5897 -2.9282 -0.16249999
-1.7826999 -2.4195001 -0.125
-1.4326 -2.3584001 -0.1147
-1.1611 -2.3627 -0.1095
-0.92549998 -2.4030001 -0.1071
-0.4905 -2.5587001 -0.1083
-0.032499999 -2.921 -0.1215
-2.0285001 -2.5107 -0.18799999
-0.81129998 -2.4233 -0.1488
-0.5977 -2.5081 -0.15019999
-0.15549999 -2.7888 -0.1627
0.103 -3.0802 -0.1795
-1.778 -2.4131 -0.17460001
-0.92400002 -2.3992 -0.1497
-0.70410001 -2.4624 -0.14920001
-0.2714 -2.6984 -0.15800001
-0.032499999 -2.9144001 -0.1698
0.2617 -3.3484001 -0.1956
-0.81 -2.4194 -0.1912
-0.59670001 -2.5039999 -0.1929
-0.1552 -2.7828 -0.2089
0.1027 -3.0708001 -0.23029999
-2.487 -2.8120999 -0.28130001
-1.4273 -2.3496001 -0.206
-1.1569 -2.3543 -0.19660001
-0.92250001 -2.3952999 -0.19239999
-0.271 -2.6935 -0.20290001
-2.0151999 -2.4942999 -0.294
-0.80870003 -2.4154999 -0.2335
-0.59579998 -2.5 -0.23559999
-0.1548 -2.7769001 -0.255
-1.4246 -2.3452001 -0.2516
-1.1549 -2.3501999 -0.2401
-0.921 -2.3914001 -0.2349
-0.70179999 -2.4545 -0.234
-0.2705 -2.6886001 -0.24770001
-0.032299999 -2.9013 -0.266
0.25889999 -3.3132 -0.30469999
-2.0086 -2.4862001 -0.34670001
-1.2843 -2.3434999 -0.2899
-0.3804 -2.6084001 -0.2859
0.1021 -3.052 -0.3312
-2.3936999 -2.7066 -0.3919
-0.91949999 -2.3875 -0.2775
-0.48719999 -2.5420001 -0.2807
0.25749999 -3.2958 -0.35859999
-0.80610001 -2.4077001 -0.31819999
-0.59380001 -2.4919 -0.32100001
-0.1541 -2.7649 -0.347
-2.4552 -2.7760999 -0.46439999
-1.1508 -2.3418 -0.32699999
-0.48640001 -2.5379 -0.3238
-0.032200001 -2.8882999 -0.36199999
-2.0109 -2.4888999 -0.4551
-0.80479997 -2.4038 -0.36059999
-0.59289998 -2.4877999 -0.36379999
-0.37909999 -2.5992 -0.37360001
-0.1538 -2.7588999 -0.39300001
0.1019 -3.0476 -0.4337
-0.91649997 -2.3796999 -0.36269999
-0.48559999 -2.5337 -0.3669
-2.0179999 -2.4977 -0.51130003
-1.5827 -2.3615999 -0.45269999
-0.59249997 -2.4861 -0.40700001
-0.37909999 -2.5994999 -0.4183
-0.1542 -2.7649 -0.44100001
0.1023 -3.0580001 -0.48719999
-2.5922 -2.9310999 -0.62309998
-1.4188 -2.3357999 -0.43520001
-0.69779998 -2.4403999 -0.40419999
0.26019999 -3.3301001 -0.53189999
-1.283 -2.3412001 -0.4707
-1.0311 -2.3583 -0.45379999
-0.37979999 -2.6045001 -0.4641
-0.15449999 -2.7715001 -0.4894
0.1026 -3.0685 -0.54140002
-1.1508 -2.3419001 -0.4601
-0.91750002 -2.3821001 -0.4501
-0.699 -2.4447 -0.4483
-0.48629999 -2.5371001 -0.45550001
-0.26980001 -2.6817 -0.4752
-0.032299999 -2.9003 -0.51139998
0.26179999 -3.3505001 -0.59259999
-1.5904 -2.3731 -0.5528
-1.033 -2.3625 -0.49900001
-0.80690002 -2.4100001 -0.49180001
-0.59460002 -2.4949 -0.49630001
-0.38060001 -2.6096001 -0.5104
0.103 -3.0792 -0.59619999
-1.4246 -2.3452001 -0.53100002
-1.1531 -2.3464999 -0.50590003
-0.2703 -2.6870999 -0.5226
0.26350001 -3.3713 -0.65439999
-2.0397999 -2.5248001 -0.68430001
-1.5943 -2.3789001 -0.60369998
-1.2881 -2.3504 -0.56510001
-1.0348001 -2.3666999 -0.54460001
0.1033 -3.0899999 -0.65179998
-1.7803 -2.4161999 -0.63270003
-1.4275 -2.3499999 -0.57969999
-0.27090001 -2.6925001 -0.57050002
0.2651 -3.3926001 -0.71740001
-2.0504 -2.5379 -0.74470001
-0.59670001 -2.5039001 -0.58749998
0.1037 -3.1008999 -0.70819998
-0.70279998 -2.4577999 -0.58350003
-0.48890001 -2.5509 -0.59280002
-0.2714 -2.698 -0.6189
0.27000001 -3.4547999 -0.79100001
-1.6023 -2.3908 -0.70740002
-0.59780002 -2.5085001 -0.63380003
-1.1599 -2.3603001 -0.64639997
-0.92400002 -2.3993001 -0.63200003
-0.48980001 -2.5555999 -0.63959998
-0.032600001 -2.9298999 -0.7202
-1.0405 -2.3798001 -0.68440002
-0.59890002 -2.5130999 -0.6807
-0.38370001 -2.6306 -0.70050001
-0.70529997 -2.4668 -0.676
-0.49070001 -2.5603001 -0.68690002
0.28839999 -3.6909001 -0.97549999
-1.6248 -2.4245 -0.82120001
-1.3017 -2.3754001 -0.76209998
-1.0425 -2.3842001 -0.73210001
-0.3849 -2.6393001 -0.75050002
-0.1578 -2.8303001 -0.79750001
-1.4457 -2.3799 -0.78350002
-1.1654 -2.3715999 -0.74349999
-0.70670003 -2.4712999 -0.72320002
-0.033100002 -2.9758 -0.8373
-1.6390001 -2.4456 -0.88139999
-1.0486 -2.3982 -0.78359997
-0.60329998 -2.5315001 -0.7791
-0.38749999 -2.6573 -0.80400002
-1.1732 -2.3875 -0.79640001
-0.93229997 -2.4208 -0.7766
-0.27579999 -2.7419 -0.82499999
-1.3199 -2.4085 -0.87220001
-0.82309997 -2.4586 -0.82340002
-0.60699999 -2.5472 -0.83160001
0.11 -3.2883 -1.0448999
-1.8846 -2.5578001 -1.0089999
-0.93809998 -2.4358001 -0.829
-0.49779999 -2.5969 -0.8398
-0.27779999 -2.7614 -0.88139999
-1.6687 -2.4898 -1.007
-1.3293 -2.4258001 -0.92940003
-0.8283 -2.474 -0.87660003
0.1137 -3.4013 -1.1434
-1.9168 -2.6015 -1.0857
-1.4826 -2.4408 -0.95950001
-1.1895 -2.4205999 -0.90619999
-0.94400001 -2.4512 -0.88249999
-0.71899998 -2.5146999 -0.87870002
-0.2798 -2.7814 -0.93919998
-0.034000002 -3.0578001 -1.0274
-1.0688 -2.4442999 -0.94590002
-0.39579999 -2.7138 -0.97250003
0.1213 -3.6287999 -1.2875
-1.9729 -2.6775999 -1.1793
-0.9501 -2.4669001 -0.93739998
-0.72359997 -2.5307 -0.93330002
-0.5043 -2.6308 -0.94980001
-0.2818 -2.8018 -0.99849999
-0.034699999 -3.1157999 -1.1049
-1.7194 -2.5655 -1.1533
-1.0757999 -2.4604001 -1.0027
-0.3987 -2.7337 -1.0316
-2.0653999 -2.8032 -1.3002
-1.5142 -2.4927001 -1.0891
-0.95630002 -2.483 -0.99360001
-0.72829998 -2.5472 -0.98930001
-0.5079 -2.6496 -1.0074
-0.28400001 -2.8229001 -1.0594
-0.035700001 -3.2045 -1.1967
-1.7625 -2.6298001 -1.2424999
-1.3668 -2.4942 -1.1162
-0.62300003 -2.6142001 -1.0547
-0.1691 -3.033 -1.1921999
-0.2881 -2.8643 -1.1298
-0.036699999 -3.2995999 -1.2951
-1.3881 -2.5329001 -1.1894
-0.85390002 -2.5506001 -1.1076
-0.63069999 -2.6466999 -1.1204
-0.40920001 -2.8055 -1.1675
-1.573 -2.5896001 -1.2477
-1.2365 -2.5163 -1.1545
-0.97430003 -2.5297 -1.1163
-0.74159998 -2.5934 -1.1107
-0.51929998 -2.7091999 -1.1359
-1.9753 -2.9474001 -1.5305001
-1.6049 -2.642 -1.3334
-1.2557 -2.5553999 -1.2282
-0.98769999 -2.5646 -1.1855
-0.75169998 -2.6291001 -1.1795
-1.4345 -2.6177001 -1.3469
-1.1287 -2.5815001 -1.2713
-0.64859998 -2.7216001 -1.2624
-0.42230001 -2.8956001 -1.3204
-1.6618 -2.7358 -1.4443001
-1.2758 -2.5962999 -1.3053
-1.0017999 -2.6010001 -1.2577
-0.76239997 -2.6661999 -1.2513
-0.30590001 -3.0404999 -1.3789001
-1.4888999 -2.717 -1.4604
-0.43220001 -2.9638 -1.4118
-1.7757 -2.9231999 -1.6122
-1.0164 -2.6391001 -1.3331
-0.77350003 -2.7049999 -1.3262
-1.1792001 -2.697 -1.4478
-0.44710001 -3.066 -1.524
-1.0398 -2.6998999 -1.423
-0.7902 -2.7635 -1.4137
-0.56160003 -2.9302001 -1.4674
-1.2193 -2.7886 -1.5603
-0.69419998 -2.9131999 -1.5353
-0.4777 -3.2756 -1.6971
-1.2937 -2.9588001 -1.7239
-0.96539998 -2.8834 -1.6233
-0.83920002 -2.9351001 -1.6296999
-0.62349999 -3.2528 -1.7681
-0.90850002 -3.1770999 -1.8353
