# .PCD v0.7 - Point Cloud Data file format
VERSION 0.7
FIELDS x y z
SIZE 4 4 4
TYPE F F F
COUNT 1 1 1
WIDTH 431
HEIGHT 1
VIEWPOINT 0 0 0 1 0 0 0
POINTS 431
DATA ascii
-0.4508 -3.0908 1.0494
-0.31369999 -3.1184001 1.053
-0.89660001 -3.1356001 1.0357
-0.69209999 -2.9045 0.89389998
-0.29179999 -2.9005001 0.87269998
-0.0337 -3.0302 0.90719998
-0.81919998 -2.865 0.83840001
-0.53750002 -2.8045001 0.80339998
-0.2845 -2.8278999 0.79970002
-0.6584 -2.763 0.74839997
-0.40149999 -2.753 0.7331
-0.1567 -2.8099 0.74159998
-0.80110002 -2.8018 0.76789999
-0.5273 -2.7507999 0.73799998
-0.27919999 -2.7751999 0.73500001
-0.032000002 -2.8704 0.75639999
0.2412 -3.0862 0.81569999
-0.9364 -2.7967999 0.72500002
-0.64600003 -2.7109001 0.685
-0.15360001 -2.756 0.6785
-0.78399998 -2.7418001 0.70099998
-0.27410001 -2.7249 0.67320001
-0.38730001 -2.6554999 0.61250001
-0.1508 -2.7044001 0.6182
-0.76770002 -2.6847999 0.63739997
-0.50809997 -2.6505001 0.616
-0.26930001 -2.6768 0.61400002
-0.0308 -2.7606001 0.63010001
-0.89709997 -2.6796 0.59570003
-0.62339997 -2.6159 0.56690001
-0.14830001 -2.6598001 0.56160003
0.092500001 -2.7669001 0.58359998
-0.75220001 -2.6306 0.57679999
-0.5 -2.6085999 0.56
-0.26519999 -2.6359999 0.55849999
-0.030200001 -2.7104001 0.57139999
-0.88349998 -2.6391001 0.53860003
-0.3775 -2.5889001 0.50629997
-0.14669999 -2.631 0.50989997
0.36019999 -2.9245999 0.57020003
-1.0362999 -2.6908 0.55800003
-0.74299997 -2.5984001 0.523
-0.029899999 -2.6805 0.51880002
0.52819997 -3.1313 0.61449999
-0.6103 -2.5609 0.46419999
-0.1451 -2.6031001 0.45969999
0.090400003 -2.7024 0.47679999
0.35479999 -2.8808 0.51179999
-1.4378 -2.9258001 0.57480001
-1.0208 -2.6506 0.50080001
-0.0295 -2.6515 0.46759999
-1.1829 -2.7053001 0.4702
-0.86260003 -2.5764999 0.43270001
-0.60399997 -2.5344999 0.4149
-1.0081 -2.6173999 0.44659999
-0.72659999 -2.5411999 0.42089999
-0.48460001 -2.5283999 0.40990001
-0.2572 -2.5569 0.40920001
-0.029200001 -2.6233001 0.41780001
0.2147 -2.7471001 0.43880001
-1.1648999 -2.6643 0.4136
-0.85259998 -2.5466001 0.382
-0.59780002 -2.5086999 0.36680001
-0.3664 -2.5125 0.36109999
-0.14229999 -2.5517001 0.3635
0.088399999 -2.6445999 0.37639999
0.34560001 -2.8062999 0.40220001
-1.3726 -2.7932 0.4427
-0.99599999 -2.586 0.3942
-0.25470001 -2.5318 0.3619
-0.59189999 -2.4835999 0.31999999
-0.1409 -2.5269001 0.31720001
0.34130001 -2.7707 0.34979999
-0.9842 -2.5555 0.3432
-0.47499999 -2.4783001 0.31619999
-0.0286 -2.5690999 0.322
-1.1309 -2.5864999 0.3062
-0.83329999 -2.4891 0.28470001
-0.58600003 -2.4591 0.27419999
-0.35949999 -2.4649999 0.27020001
0.33700001 -2.7362001 0.29899999
0.6505 -3.0272999 0.33590001
-1.3171 -2.6803 0.32390001
-0.97280002 -2.5258999 0.29359999
-0.70469999 -2.4646001 0.278
-0.47040001 -2.4542999 0.27110001
-1.5448999 -2.8190999 0.2947
-0.58270001 -2.4453001 0.2305
0.086000003 -2.5725999 0.236
0.63929999 -2.9751999 0.27900001
-0.96439999 -2.5041001 0.24600001
-0.46790001 -2.4412 0.2279
-0.028200001 -2.5276999 0.2317
0.2052 -2.6255 0.2414
0.47389999 -2.8092 0.26120001
-1.52 -2.7736001 0.237
-1.1084 -2.5350001 0.20730001
-0.57959998 -2.4321001 0.1874
0.085500002 -2.5581 0.1918
0.63270003 -2.9445 0.22570001
-0.95840001 -2.4884 0.1998
-0.46540001 -2.4282 0.18529999
-0.028000001 -2.5137999 0.1884
-1.5017 -2.7402 0.182
-0.354 -2.427 0.1428
-0.1374 -2.4638 0.1437
0.085100003 -2.5439 0.14820001
0.3292 -2.6731999 0.1569
-0.463 -2.4154999 0.1432
-0.24600001 -2.4453001 0.14309999
0.2025 -2.5918 0.1514
0.4657 -2.7609999 0.1631
-1.4838001 -2.7077 0.1284
-0.57349998 -2.4065001 0.1029
0.084600002 -2.5297999 0.1052
-1.2661999 -2.5767 0.1194
-0.68919998 -2.4102001 0.1042
-0.46059999 -2.4029 0.1017
-0.2447 -2.4328001 0.1017
-0.0277 -2.4865 0.1034
0.2013 -2.5753 0.1074
0.46259999 -2.7421999 0.1156
-1.4665 -2.6760001 0.076099999
-1.0833 -2.4775 0.067400001
-0.80739999 -2.4116001 0.0634
-0.57050002 -2.3938999 0.0614
-0.3504 -2.4024 0.0605
-0.13600001 -2.4388001 0.060899999
0.084100001 -2.516 0.062799998
-0.45820001 -2.3903999 0.060699999
-0.24349999 -2.4205 0.060699999
-0.0275 -2.4730999 0.061700001
-1.4495 -2.645 0.0251
-0.80260003 -2.3973999 0.021
-0.5675 -2.3814001 0.020300001
-0.1353 -2.4263999 0.020199999
0.083700001 -2.5021999 0.0208
0.32280001 -2.6210999 0.022
-0.2423 -2.4082999 0.020099999
-0.0274 -2.4598 0.020400001
0.199 -2.5462999 0.021199999
0.45629999 -2.7052 0.0228
0.60479999 -2.8146 -0.0239
-1.7297 -2.8474 -0.0277
-0.92940003 -2.4133 -0.021500001
-0.2411 -2.3961999 -0.02
0.78759998 -3.0063 -0.025800001
-1.4206001 -2.5922999 -0.073700003
-0.79369998 -2.3708 -0.0623
-0.3452 -2.3671 -0.059700001
0.082800001 -2.4763999 -0.061799999
0.31900001 -2.5897999 -0.065099999
0.6006 -2.7951 -0.0713
-0.4513 -2.3545001 -0.059799999
-0.027100001 -2.4346001 -0.060699999
0.4508 -2.6721001 -0.067599997
-1.4153 -2.5826001 -0.1225
-1.0613 -2.4272001 -0.1101
-0.79220003 -2.3663001 -0.1038
-0.56089997 -2.3536999 -0.1006
-0.34470001 -2.3633001 -0.099299997
-0.1337 -2.3989 -0.0999
0.082599998 -2.4719999 -0.1028
0.31830001 -2.5843999 -0.1083
0.59890002 -2.7871001 -0.1185
-1.689 -2.7806001 -0.1353
-1.2256 -2.494 -0.1155
-0.92269999 -2.3959 -0.1068
-0.67390001 -2.3568001 -0.1019
-0.2395 -2.381 -0.0995
-0.027100001 -2.4303999 -0.1011
0.1965 -2.5151999 -0.1049
0.44980001 -2.6663001 -0.1124
0.77600002 -2.9619 -0.12729999
-1.4101 -2.5731001 -0.1709
-0.79070002 -2.3617001 -0.1451
-0.55989999 -2.3498001 -0.1407
0.082500003 -2.4677 -0.14380001
-1.677 -2.7607999 -0.1881
-1.2225 -2.4877 -0.16140001
-0.92089999 -2.3912001 -0.14920001
-0.67269999 -2.3527999 -0.1425
-0.44980001 -2.3467 -0.1392
-0.23909999 -2.3771999 -0.1392
-0.027000001 -2.4261999 -0.14129999
0.1962 -2.5106001 -0.14669999
-1.4049 -2.5636001 -0.2191
-1.057 -2.4175 -0.19769999
-0.78920001 -2.3573 -0.18629999
-0.34349999 -2.3556001 -0.17839999
-0.13330001 -2.3910999 -0.1795
0.317 -2.5736001 -0.1943
0.59549999 -2.7713001 -0.2124
-1.6702 -2.7495 -0.2411
-1.2194 -2.4814 -0.20720001
-0.91909999 -2.3864999 -0.19159999
-0.67159998 -2.3487999 -0.1831
-0.44909999 -2.3427999 -0.1788
-0.2387 -2.3733001 -0.1788
0.19580001 -2.5062001 -0.1884
0.44780001 -2.6547999 -0.2018
0.76899999 -2.9352 -0.2274
-1.4009 -2.5562999 -0.26719999
-0.7877 -2.3527999 -0.22750001
-0.55809999 -2.3418 -0.2207
-0.1331 -2.3871 -0.2192
0.082199998 -2.4590001 -0.2256
0.3163 -2.5683 -0.23720001
0.59380001 -2.7635 -0.25909999
-1.6634001 -2.7384 -0.29370001
-0.67049998 -2.3448 -0.2236
-0.4483 -2.3389001 -0.2183
-0.2383 -2.3694 -0.2183
0.1955 -2.5016999 -0.23
0.76590002 -2.9235001 -0.2771
-0.34240001 -2.348 -0.25740001
-0.1329 -2.3831999 -0.25889999
0.082099997 -2.4547 -0.26640001
-1.6567 -2.7272999 -0.3461
-0.91549999 -2.3771999 -0.27630001
-0.44760001 -2.335 -0.2579
-0.23800001 -2.3656001 -0.2579
-0.026900001 -2.4137001 -0.26179999
0.19509999 -2.4972 -0.27169999
0.76359999 -2.9145999 -0.32679999
-1.3934 -2.5427001 -0.3633
-0.78469998 -2.3439 -0.30970001
-0.55620003 -2.3340001 -0.30070001
-0.13259999 -2.3794 -0.29859999
-1.6502 -2.7165999 -0.39829999
-1.2101001 -2.4625001 -0.34380001
-0.66820002 -2.3368001 -0.3046
0.1948 -2.4927001 -0.31330001
0.44490001 -2.6375999 -0.33520001
0.76130003 -2.9057 -0.37639999
-1.3918 -2.5397999 -0.41190001
-0.78320003 -2.3394001 -0.35089999
0.31439999 -2.5522001 -0.36579999
0.58880001 -2.7400999 -0.39860001
-1.6573 -2.7283001 -0.45410001
-1.207 -2.4563 -0.38929999
-0.667 -2.3327999 -0.34509999
-0.4461 -2.3271999 -0.33700001
0.44400001 -2.6319001 -0.37959999
0.76160002 -2.9071 -0.42739999
-1.0482 -2.3972001 -0.41659999
-0.55430001 -2.3261001 -0.38080001
-0.3407 -2.3364999 -0.37599999
-0.1322 -2.3715 -0.37819999
0.081699997 -2.4417 -0.389
0.31400001 -2.5495 -0.40900001
-0.91060001 -2.3643999 -0.40349999
-0.66589999 -2.3288 -0.38569999
-0.2368 -2.3540001 -0.37670001
-0.026699999 -2.4010999 -0.38240001
0.19410001 -2.4837 -0.39669999
0.44409999 -2.6329999 -0.42519999
0.76410002 -2.9165001 -0.48010001
-1.3997999 -2.5543001 -0.51359999
-1.0504 -2.4024 -0.4623
-0.78280002 -2.3383 -0.4348
-0.1322 -2.3715999 -0.4188
-1.6720001 -2.7525001 -0.5679
-1.2124 -2.4670999 -0.48469999
-0.91250002 -2.3692999 -0.44769999
-0.026699999 -2.4021001 -0.42359999
-1.0527 -2.4075 -0.50849998
-0.78439999 -2.3429999 -0.47819999
-0.55549997 -2.3309 -0.4637
-0.34130001 -2.3401 -0.45770001
0.081900001 -2.4488001 -0.47420001
0.59420002 -2.7653 -0.5474
-1.6808 -2.7671001 -0.62650001
-0.91439998 -2.3742001 -0.49239999
-0.23720001 -2.3578999 -0.45860001
0.1948 -2.4928 -0.48390001
0.77039999 -2.9407001 -0.58829999
-0.55650002 -2.3350999 -0.5061
-0.34189999 -2.3441999 -0.49939999
0.082000002 -2.4533999 -0.51749998
0.3161 -2.5666001 -0.54519999
-1.219 -2.4806001 -0.58270001
-0.6688 -2.339 -0.51289999
-0.44690001 -2.3313 -0.50040001
0.1952 -2.4976001 -0.52819997
0.44729999 -2.6514001 -0.56690001
0.7744 -2.9556999 -0.64420003
-1.4152 -2.5825 -0.67210001
-0.5575 -2.3392999 -0.54890001
0.082199998 -2.4581001 -0.5614
0.3168 -2.5725 -0.5916
-1.2224 -2.4875 -0.63260001
-0.44769999 -2.3355 -0.54280001
-0.23800001 -2.3661001 -0.54280001
0.4483 -2.6575999 -0.61519998
0.7784 -2.971 -0.70099998
-1.4211 -2.5933001 -0.72689998
-0.78930002 -2.3575001 -0.61110002
-0.55849999 -2.3436 -0.59219998
-0.34310001 -2.3525 -0.5844
0.082400002 -2.4628 -0.60570002
0.59990001 -2.7915001 -0.70179999
-1.2258 -2.4944999 -0.6832
-0.67129999 -2.3476 -0.6002
0.19589999 -2.5074 -0.6182
0.44940001 -2.664 -0.66409999
-1.4391 -2.6259999 -0.78899997
-0.79089999 -2.3625 -0.65649998
-0.34369999 -2.3566999 -0.62760001
-0.13339999 -2.3926001 -0.63139999
-0.44929999 -2.3440001 -0.62889999
-0.23890001 -2.3745 -0.62879997
-1.4611 -2.6663001 -0.85540003
-1.0653 -2.4363999 -0.7482
-0.79259998 -2.3675001 -0.70240003
-0.56059998 -2.3522999 -0.68040001
-0.3443 -2.3608999 -0.67129999
-0.1336 -2.3968999 -0.67540002
0.082699999 -2.4725001 -0.69599998
0.31909999 -2.5904 -0.73430002
0.6099 -2.8381 -0.8168
-0.9242 -2.3998001 -0.72350001
-0.67379999 -2.3564999 -0.68959999
-0.2393 -2.3787999 -0.67269999
-0.027100001 -2.4294 -0.68360001
0.45280001 -2.6842999 -0.76590002
-1.4841 -2.7082 -0.92460001
-0.34490001 -2.3652 -0.71560001
-0.1339 -2.4013 -0.72000003
0.082900003 -2.4779999 -0.74229997
0.32139999 -2.6094 -0.78710002
-1.2528 -2.5494001 -0.85039997
-0.92949998 -2.4133999 -0.77429998
-0.67510003 -2.3610001 -0.73519999
-0.2397 -2.3831999 -0.71710002
-0.027100001 -2.4340999 -0.7288
0.45660001 -2.7066 -0.82169998
-0.56440002 -2.3685 -0.77319998
0.62410003 -2.9040999 -0.94340003
-1.2654999 -2.5753 -0.9113
-0.9364 -2.4315 -0.82749999
-0.45280001 -2.3624001 -0.76389998
-0.24070001 -2.3927 -0.76370001
-0.0273 -2.4474001 -0.7773
0.85210001 -3.2526 -1.0678
-0.56809998 -2.3836999 -0.8233
0.083999999 -2.5114 -0.84429997
0.3267 -2.6522 -0.89780003
-1.2786 -2.6019001 -0.97399998
-0.9436 -2.45 -0.88209999
-0.68360001 -2.3907001 -0.83539999
-0.2422 -2.4075 -0.81300002
-0.0274 -2.4637001 -0.82779998
0.20020001 -2.5618 -0.86330003
0.46439999 -2.7528999 -0.93800002
-0.81290001 -2.4281001 -0.90789998
-0.3506 -2.404 -0.86150002
0.3294 -2.6745999 -0.95550001
0.64069998 -2.9814 -1.0813
-1.2921 -2.6294 -1.0388
-0.68809998 -2.4066 -0.88749999
-0.45860001 -2.3928001 -0.86390001
-0.2437 -2.4226999 -0.86339998
-0.0276 -2.4802999 -0.87949997
0.2017 -2.5811 -0.91799998
0.46919999 -2.7816 -1.0003
-1.115 -2.5501001 -1.0393
0.085199997 -2.5465 -0.95139998
0.33219999 -2.6975 -1.0149
-1.3150001 -2.6759 -1.1133
-0.24529999 -2.4382999 -0.91509998
0.2034 -2.6024001 -0.97469997
-0.35519999 -2.4353001 -0.9659
-0.13789999 -2.474 -0.97250003
0.33559999 -2.7244 -1.0773
-1.3581001 -2.7636001 -1.2085
-0.96630001 -2.5088 -1.0552
-0.24690001 -2.4542 -0.96810001
-0.028000001 -2.5149 -0.98710001
-0.83350003 -2.4897001 -1.0811
-0.35749999 -2.4514999 -1.0202
-0.1389 -2.4906001 -1.0272
0.3418 -2.7748001 -1.1512001
-0.70249999 -2.4568 -1.0522
-0.2485 -2.4705999 -1.0225
-0.028200001 -2.533 -1.0431
-1.1868 -2.7144001 -1.2779
-0.84750003 -2.5311999 -1.1514
-0.58950001 -2.4737 -1.097
-0.3603 -2.4705999 -1.077
0.34830001 -2.8276999 -1.229
-0.99790001 -2.5910001 -1.1977
-0.7112 -2.4874001 -1.1160001
-0.0285 -2.5622001 -1.1052999
0.2114 -2.7049999 -1.1704
-1.2158 -2.7808001 -1.3694
-0.86210001 -2.5748999 -1.2252001
-0.142 -2.5476 -1.1513
-1.0158 -2.6375 -1.2753
-0.72180003 -2.5243001 -1.1846
-0.47870001 -2.4974 -1.1474
-0.028999999 -2.6010001 -1.1737
-1.3365999 -3.0569 -1.5727
-0.87739998 -2.6206999 -1.3027
-0.37059999 -2.5409 -1.2104
0.3689 -2.9949999 -1.4224
-0.0294 -2.6415999 -1.2453001
0.21960001 -2.8094001 -1.3283
-0.89639997 -2.6775 -1.3888
-0.37599999 -2.5783999 -1.2816
0.39500001 -3.2074001 -1.5895
-0.74559999 -2.6075001 -1.3339
-0.4932 -2.573 -1.2886
0.2264 -2.8968 -1.4291
-0.3818 -2.6177001 -1.3562
-0.1487 -2.6668999 -1.3693
-0.76709998 -2.6829 -1.4305
-0.50089997 -2.6135001 -1.3642
-0.0306 -2.7446001 -1.4071
-0.39250001 -2.6910999 -1.4518
-0.15360001 -2.7556 -1.4734
0.099200003 -2.9674001 -1.585
-0.51639998 -2.6940999 -1.4644001
-0.27320001 -2.7155001 -1.457
-0.671 -2.8157001 -1.6076
-0.85360003 -2.9853001 -1.7244999
-0.28200001 -2.8034 -1.5649
-0.032699998 -2.9423001 -1.6342
-0.74169999 -3.1126001 -1.8474
-0.42660001 -2.9252999 -1.7068
-0.29789999 -2.9611001 -1.7182
