# .PCD v0.7 - Point Cloud Data file format
VERSION 0.7
FIELDS x y z
SIZE 4 4 4
TYPE F F F
COUNT 1 1 1
WIDTH 454
HEIGHT 1
VIEWPOINT 0 0 0 1 0 0 0
POINTS 454
DATA ascii
0.96829998 -3.1214001 1.1588
0.83600003 -3.1908 1.1696
0.89829999 -2.8959999 1.0187
1.1981 -2.9154999 1.059
1.0386 -2.8868001 1.0308
0.6268 -2.9166999 0.94739997
0.86570001 -2.7908001 0.92799997
0.74430001 -2.8408999 0.93269998
0.37799999 -3.0692999 0.92580003
0.60299999 -2.8062999 0.85930002
0.83569998 -2.694 0.84439999
1.0996 -2.6756999 0.866
1.4703 -2.8309 0.95499998
0.26769999 -3.4263 1.0289
0.49039999 -2.9075999 0.88279998
0.71829998 -2.7418001 0.84850001
1.2634 -2.7225001 0.89850003
0.36140001 -2.934 0.83170003
0.58829999 -2.7377 0.78789997
0.81889999 -2.6400001 0.77770001
0.47600001 -2.8220999 0.80519998
0.7033 -2.6846001 0.78079998
0.35260001 -2.8629 0.76010001
0.57660002 -2.6831 0.72310001
1.0517 -2.559 0.72899997
1.3507 -2.6006 0.77219999
0.2351 -3.0090001 0.79530001
0.46630001 -2.7646 0.73879999
0.69019997 -2.6343999 0.71759999
1.1937 -2.5724001 0.74720001
0.5654 -2.6310999 0.66149998
0.78920001 -2.5439999 0.65469998
1.0319 -2.5111001 0.66729999
1.3209 -2.5431001 0.7044
1.7751 -2.7806001 0.81089997
0.22939999 -2.9351001 0.72369999
0.4571 -2.7098999 0.67549998
0.90780002 -2.5232 0.6591
1.5094 -2.6143999 0.74199998
0.1017 -3.0434999 0.69499999
0.3373 -2.7386999 0.62980002
0.77530003 -2.4992001 0.59719998
1.0131 -2.4651999 0.60829997
0.4483 -2.6577001 0.61519998
0.6656 -2.5408001 0.5995
0.89139998 -2.4776001 0.60100001
1.1446 -2.4665999 0.62059999
1.6349 -2.5610001 0.64050001
-0.035999998 -3.2282 0.68059999
0.6566 -2.5062001 0.54619998
0.87889999 -2.4430001 0.54729998
1.1238 -2.4217 0.56279999
1.4306999 -2.4781001 0.60320002
0.3272 -2.6568 0.51800001
0.75709999 -2.4407001 0.49450001
0.98729998 -2.4024999 0.50269997
0.4359 -2.5843999 0.5072
0.86970001 -2.4173999 0.49720001
1.4029 -2.4298999 0.54299998
1.8714 -2.6621001 0.62970001
0.094999999 -2.8397999 0.50099999
0.74949998 -2.4161 0.44600001
0.977 -2.3775001 0.45320001
1.2355 -2.3787999 0.47260001
1.5667 -2.4542 0.51340002
0.86070001 -2.3924999 0.4483
1.0978 -2.3657 0.45989999
1.3824 -2.3943999 0.48750001
0.093699999 -2.8017001 0.44639999
0.74199998 -2.3921001 0.39879999
1.2211 -2.3511 0.4219
-0.033100002 -2.9691999 0.47279999
0.2097 -2.6831999 0.42860001
1.0854 -2.3388 0.41060001
0.092399999 -2.7648001 0.3935
1.5203 -2.3815 0.40189999
-0.032499999 -2.9166 0.4149
0.207 -2.6492 0.37799999
0.42199999 -2.5020001 0.36090001
0.84350002 -2.3446 0.35440001
1.0739 -2.3141999 0.36289999
1.3491 -2.3367 0.3838
-0.1717 -3.0802 0.38659999
0.7277 -2.3457999 0.30779999
0.94770002 -2.3062 0.3125
1.1935 -2.2979 0.32449999
1.9947 -2.5846 0.4091
0.41760001 -2.4760001 0.31470001
0.62449998 -2.3836999 0.30880001
1.3334 -2.3095 0.33419999
1.6924 -2.4075 0.36880001
-0.16859999 -3.0239999 0.3285
0.090099998 -2.6944001 0.2924
0.30989999 -2.5164001 0.27500001
0.72130001 -2.3252001 0.26409999
1.1803 -2.2723999 0.27770001
1.477 -2.3137 0.29769999
0.6189 -2.3625 0.2649
0.8276 -2.3004999 0.26519999
0.089199997 -2.6689999 0.2448
1.1724 -2.2572999 0.2332
1.8915 -2.4509001 0.28380001
0.4111 -2.4372001 0.22660001
0.61570001 -2.3501 0.2227
1.0469 -2.256 0.228
1.6434 -2.3378 0.26199999
-0.164 -2.9405 0.2207
0.088600002 -2.6508 0.1988
0.30630001 -2.4868 0.18780001
0.5104 -2.3750999 0.182
0.92879999 -2.2600999 0.1831
1.1654 -2.2437999 0.1895
-0.3263 -3.2439001 0.24429999
-0.0308 -2.763 0.2071
0.19949999 -2.5527 0.1919
0.40880001 -2.4237001 0.1842
0.61250001 -2.3378999 0.1811
1.0412 -2.2437999 0.18539999
1.6303 -2.3190999 0.2124
-0.16240001 -2.9126 0.1699
0.088 -2.6329 0.1534
0.3046 -2.4728999 0.1451
0.50770003 -2.3627999 0.1408
1.4389 -2.2541001 0.1558
1.8446 -2.3901 0.1758
-0.3211 -3.1921999 0.1869
0.1983 -2.5381 0.14830001
0.4066 -2.4103 0.1424
0.60930002 -2.3259001 0.14
0.81459999 -2.2643001 0.1402
0.087399997 -2.6152 0.1088
0.30289999 -2.4591 0.103
0.50510001 -2.3506999 0.1
1.1516 -2.2172 0.1039
-0.030300001 -2.7244 0.1133
0.1972 -2.5236001 0.1052
0.4043 -2.3971 0.1011
1.2842 -2.2242999 0.1068
1.6047 -2.2827001 0.116
0.50260001 -2.3387001 0.059700001
1.4177001 -2.2207999 0.065700002
1.8032 -2.3364 0.073600002
-0.31119999 -3.0938001 0.077500001
-0.030099999 -2.7056 0.067500003
0.80620003 -2.2409 0.0594
1.0247 -2.2083001 0.060699999
0.29949999 -2.4319999 0.020400001
0.9095 -2.2132001 0.0199
1.1382 -2.1914001 0.020500001
1.7832 -2.3106 0.0243
-0.30649999 -3.0469999 0.0255
-0.029899999 -2.687 0.022299999
0.40000001 -2.3712001 0.02
0.8021 -2.2293999 0.0197
1.0194 -2.1967001 0.020099999
1.2688 -2.1975999 0.0211
1.58 -2.2476001 0.0228
-0.1565 -2.8066001 -0.023399999
0.085699998 -2.5638001 -0.021299999
0.29789999 -2.4187 -0.020300001
0.69590002 -2.2435 -0.0195
0.9048 -2.2018001 -0.0198
1.1316 -2.1787 -0.020400001
1.7637 -2.2853 -0.024
-0.0297 -2.6687 -0.0222
0.1939 -2.4813001 -0.0207
0.3978 -2.3585 -0.0199
0.79799998 -2.2179999 -0.0196
1.2613 -2.1846001 -0.021
1.5678999 -2.2304001 -0.022700001
-0.51539999 -3.5341001 -0.089100003
0.49509999 -2.3038001 -0.058800001
0.69260001 -2.2326 -0.0583
1.1256 -2.1672001 -0.060899999
1.3911 -2.1791999 -0.064499997
1.7489001 -2.2660999 -0.071400002
0.79409999 -2.2072001 -0.058499999
1.0091 -2.1745999 -0.059799999
-0.1549 -2.7774999 -0.1157
0.69139999 -2.2290001 -0.097000003
0.89889997 -2.1874001 -0.098300003
-0.0295 -2.6471 -0.1101
0.1925 -2.464 -0.1028
0.3951 -2.3422999 -0.098800004
0.59320003 -2.2644 -0.0973
1.0074 -2.1709001 -0.0995
1.5543 -2.211 -0.1124
2.0169001 -2.3856001 -0.12989999
-0.49939999 -3.4242001 -0.2015
-0.15440001 -2.7693 -0.16150001
0.49340001 -2.2962999 -0.13680001
0.89740002 -2.1837001 -0.1375
1.1214 -2.1589999 -0.1417
1.7372 -2.2509 -0.1656
-0.29800001 -2.9619999 -0.1734
-0.0294 -2.6413 -0.1538
0.3944 -2.3383 -0.1381
0.5923 -2.2607 -0.13609999
0.79140002 -2.1998 -0.1362
2.0091 -2.3763001 -0.1812
-0.49169999 -3.3715999 -0.25529999
0.084700003 -2.5325999 -0.1899
0.29480001 -2.3935001 -0.1807
0.68919998 -2.2218001 -0.1743
0.89590001 -2.1801 -0.17659999
1.1193 -2.155 -0.182
1.3828 -2.1661999 -0.1926
0.1919 -2.4551001 -0.18449999
0.59130001 -2.257 -0.17479999
1.2473 -2.1603999 -0.1869
-0.48429999 -3.3204999 -0.30759999
-0.15350001 -2.7532001 -0.25279999
0.0845 -2.5272 -0.2318
0.49180001 -2.2888 -0.2146
0.68809998 -2.2181001 -0.2129
0.8944 -2.1763999 -0.2157
1.7280999 -2.2392001 -0.25929999
-0.29609999 -2.9435 -0.2712
-0.029300001 -2.6296999 -0.2411
0.59039998 -2.2533 -0.21359999
0.7888 -2.1926 -0.21359999
1.0023 -2.1599 -0.2183
1.2449 -2.1563001 -0.22830001
1.5427001 -2.1946001 -0.24590001
0.084299996 -2.5218999 -0.2737
0.29370001 -2.385 -0.2606
0.491 -2.2850001 -0.25350001
0.68699998 -2.2145 -0.25150001
0.89289999 -2.1728001 -0.25479999
1.3773 -2.1575999 -0.27759999
0.1912 -2.4461999 -0.26609999
0.3924 -2.3261001 -0.2559
0.78750002 -2.1889999 -0.25229999
1.2424999 -2.1521001 -0.26949999
1.5389 -2.1891 -0.2902
1.9857 -2.3487 -0.33360001
-0.47819999 -3.279 -0.41530001
-0.15260001 -2.7372 -0.34349999
0.29319999 -2.3808 -0.30059999
0.49020001 -2.2813001 -0.2924
0.68580002 -2.2109001 -0.29010001
0.89139998 -2.1691 -0.29390001
1.3746001 -2.1533 -0.32010001
1.719 -2.2274001 -0.35260001
0.58840001 -2.2460001 -0.29100001
0.9989 -2.1526 -0.2974
1.5351 -2.1837001 -0.33450001
-0.48210001 -3.3058 -0.4752
1.1108 -2.1387999 -0.34279999
1.3717999 -2.1489999 -0.3626
-0.029100001 -2.6122999 -0.3716
0.58749998 -2.2423 -0.32969999
1.5312999 -2.1782999 -0.37869999
1.9822 -2.3446 -0.43669999
-0.49200001 -3.3736999 -0.54290003
0.48859999 -2.2737999 -0.37029999
0.88840002 -2.1617999 -0.37220001
1.3701 -2.1463001 -0.40549999
1.7197 -2.2283001 -0.44819999
-0.29499999 -2.9326999 -0.4693
-0.029100001 -2.6108999 -0.41580001
0.1901 -2.4329 -0.38859999
0.58649999 -2.2386 -0.36849999
0.78359997 -2.178 -0.36860001
0.99550003 -2.1452 -0.3766
1.2352999 -2.1396 -0.39340001
1.9904 -2.3543 -0.49090001
-0.1529 -2.7426 -0.48429999
0.2922 -2.3728001 -0.42160001
1.1094 -2.1359 -0.4244
1.373 -2.1508 -0.4499
-0.296 -2.9426999 -0.52149999
-0.029200001 -2.6171 -0.46149999
0.1903 -2.4353001 -0.4307
0.58600003 -2.2367001 -0.4077
0.99540001 -2.1451001 -0.417
0.084200002 -2.5174 -0.4874
0.48910001 -2.2760999 -0.45050001
0.68409997 -2.2054 -0.44679999
1.1116 -2.1401999 -0.46669999
1.3759 -2.1552999 -0.4948
1.7292 -2.2407 -0.54769999
-0.29710001 -2.9528999 -0.57429999
-0.029200001 -2.6233001 -0.50770003
0.39089999 -2.3171999 -0.45480001
0.58700001 -2.2406001 -0.44819999
0.78430003 -2.1800001 -0.4483
0.99720001 -2.1489 -0.45840001
1.2398 -2.1475 -0.4799
1.5401 -2.1908 -0.51819998
-0.1539 -2.7604001 -0.58279997
0.084399998 -2.5232 -0.53219998
0.2933 -2.3819001 -0.50590003
0.89109999 -2.1684 -0.49419999
1.7341 -2.247 -0.5984
-0.29809999 -2.9633 -0.6279
-0.029300001 -2.6296 -0.55440003
0.191 -2.4447999 -0.51700002
0.39160001 -2.3216 -0.49630001
0.78570002 -2.1838 -0.48930001
1.5441999 -2.1966 -0.5661
2.0156 -2.3841 -0.65820003
0.084600002 -2.529 -0.5776
0.68650001 -2.2131 -0.52890003
0.89270002 -2.1723001 -0.53609997
1.1161 -2.1487999 -0.55269998
1.739 -2.2533 -0.64969999
-0.0294 -2.6359999 -0.60170001
0.19140001 -2.4496 -0.56080002
0.39230001 -2.326 -0.53839999
0.5891 -2.2484 -0.53049999
0.78710002 -2.1877 -0.53070003
1.0008 -2.1566999 -0.54269999
1.245 -2.1564 -0.56830001
2.0243001 -2.3943 -0.71560001
-0.1549 -2.7787001 -0.68400002
0.29449999 -2.3910999 -0.59219998
0.49169999 -2.2881999 -0.57529998
1.1183 -2.1531999 -0.59640002
1.7456 -2.2618999 -0.70230001
-0.0294 -2.6424999 -0.64960003
0.1918 -2.4545 -0.60509998
0.39309999 -2.3304 -0.58090001
0.59009999 -2.2523999 -0.57230002
1.0027 -2.1607001 -0.5855
1.5525 -2.2084999 -0.66350001
-0.15549999 -2.7880001 -0.73580003
0.085000001 -2.5409999 -0.6699
0.2951 -2.3958001 -0.63609999
0.49259999 -2.2923 -0.6178
0.68889999 -2.221 -0.61269999
0.89600003 -2.1803 -0.62110001
1.3878 -2.174 -0.6796
0.19220001 -2.4593999 -0.64999998
0.39379999 -2.3348999 -0.6239
0.59119999 -2.2565 -0.6146
-0.15710001 -2.8183999 -0.7942
0.085199997 -2.5471001 -0.71700001
0.49349999 -2.2965 -0.6609
0.69019997 -2.2249999 -0.65539998
0.8976 -2.1842999 -0.66439998
0.1926 -2.4644001 -0.69550002
0.3946 -2.3395 -0.66750002
0.59219998 -2.2605 -0.65750003
0.79140002 -2.1997001 -0.6577
1.0064 -2.1688001 -0.67269999
0.085600004 -2.5608001 -0.76709998
0.29620001 -2.4054 -0.7256
0.49439999 -2.3006999 -0.70450002
0.69150001 -2.2291 -0.69870001
0.89929998 -2.1884 -0.70829999
1.3996 -2.1924 -0.77869999
-0.029899999 -2.6803999 -0.80250001
0.193 -2.4698 -0.74169999
0.79290003 -2.2037001 -0.70120001
1.2574 -2.1779001 -0.7529
-0.161 -2.8868001 -0.91820002
0.2978 -2.418 -0.7737
0.90219998 -2.1954999 -0.75379997
1.1324 -2.1803 -0.7802
-0.030099999 -2.7035999 -0.85869998
0.1943 -2.4868 -0.79220003
0.3969 -2.3527 -0.75770003
1.2667 -2.1939001 -0.80449998
0.49880001 -2.3213999 -0.7978
0.6972 -2.2477 -0.79070002
1.1406 -2.1961 -0.83139998
1.4242001 -2.2309999 -0.88929999
-0.030400001 -2.7275 -0.91640002
0.39950001 -2.3685 -0.80699998
0.5984 -2.2842 -0.79329997
0.79979998 -2.2230999 -0.7938
1.0191 -2.1961 -0.81339997
-0.16509999 -2.9602001 -1.0513
0.087800004 -2.6262 -0.93169999
0.3019 -2.4516001 -0.87589997
0.50199997 -2.3362 -0.84729999
0.91390002 -2.2239001 -0.85250002
1.1490999 -2.2124 -0.884
1.4378999 -2.2525001 -0.94760001
1.9146 -2.4807999 -1.1111
-0.0307 -2.7521 -0.97589999
0.1971 -2.5222001 -0.89709997
0.80489999 -2.2374001 -0.84310001
-0.1691 -3.0335 -1.1345
0.50529999 -2.3513 -0.898
1.4521 -2.2746999 -1.0077
0.19850001 -2.5406001 -0.95160002
1.0326999 -2.2254 -0.91610003
-0.17659999 -3.1677001 -1.2452
0.92619997 -2.2537 -0.95630002
1.1667 -2.2462001 -0.99339998
0.2 -2.5595 -1.0075999
0.40790001 -2.4184 -0.96249998
0.61009997 -2.3285999 -0.9447
0.81559998 -2.2671001 -0.94559997
1.3062 -2.2623999 -1.0253
1.1758 -2.2639 -1.0505
0.4109 -2.4359 -1.0172
0.6142 -2.3441999 -0.99790001
1.0470001 -2.2563 -1.0242
1.3200999 -2.2864001 -1.0872
1.7446001 -2.4818001 -1.2492
0.092600003 -2.7688999 -1.1950999
0.51560003 -2.3992 -1.0585001
1.1923 -2.2955999 -1.1158
1.5336 -2.4022999 -1.2294
-0.033300001 -2.9883001 -1.2891001
0.205 -2.6235001 -1.1351
0.41420001 -2.4556 -1.0742
1.0562 -2.2760999 -1.0824
1.3425 -2.3253 -1.1582
1.8128 -2.5787001 -1.3597
0.317 -2.5737 -1.1701
0.52219999 -2.4301 -1.1215
0.95249999 -2.3176999 -1.1306
1.5696 -2.4588001 -1.3162
-0.034600001 -3.1043999 -1.4008
0.62580001 -2.3886001 -1.1142
0.83719999 -2.3269999 -1.1159
1.0717 -2.3096001 -1.1488
0.32210001 -2.6154001 -1.2422
0.5298 -2.4653001 -1.1885999
0.9666 -2.3522 -1.1987
1.2336 -2.3750999 -1.2616
0.42719999 -2.5325999 -1.2107
0.8495 -2.3612001 -1.1829
1.3935 -2.4137001 -1.3137
0.1027 -3.0704999 -1.5111001
0.32749999 -2.6592 -1.3178
0.75010002 -2.4181001 -1.2452
0.43419999 -2.5739 -1.2839
0.64420003 -2.4590001 -1.2503
0.33500001 -2.7204001 -1.4052
0.546 -2.5408001 -1.3322999
0.99699998 -2.4261999 -1.3447
0.44150001 -2.6173 -1.3608
0.6541 -2.4967 -1.3232
1.523 -2.6379001 -1.5616
0.5589 -2.6008 -1.4201
0.77710003 -2.5050001 -1.4002
0.25819999 -3.3045001 -1.7695
0.456 -2.7033 -1.4635
0.89590001 -2.4902999 -1.4128
1.1715 -2.5246 -1.4858
0.3739 -3.0355999 -1.6987
0.57859999 -2.6926 -1.5296
0.80220002 -2.586 -1.5037
1.059 -2.5769 -1.5474
0.68989998 -2.6334 -1.512
0.92580003 -2.5734 -1.5189
0.60540003 -2.8175001 -1.6638
0.71350002 -2.7235999 -1.6255
0.95840001 -2.664 -1.6346
