# .PCD v0.7 - Point Cloud Data file format
VERSION 0.7
FIELDS x y z
SIZE 4 4 4
TYPE F F F
COUNT 1 1 1
WIDTH 336
HEIGHT 1
VIEWPOINT 0 0 0 1 0 0 0
POINTS 336
DATA ascii
-1.6609 -3.3796999 1.196
-1.6454999 -3.0026 0.96329999
-1.3556 -3.1004 0.95209998
-1.124 -3.3573 0.99610001
-1.8265001 -3.0069001 0.98989999
-1.2345001 -3.2053001 0.96640003
-1.9621 -2.9277 0.92869997
-1.0799 -3.2255001 0.89630002
-1.5538 -2.8352001 0.79470003
-1.2848001 -2.9384999 0.78829998
-1.0467 -3.1263001 0.81040001
-0.84630001 -3.5511999 0.8973
-2.1357 -2.8985 0.88499999
-1.1645 -3.0235 0.79640001
-1.5254 -2.7834001 0.72439998
-1.2622 -2.8868001 0.7191
-1.0271 -3.0676999 0.73839998
-0.81260002 -3.4098001 0.80010003
-2.0595 -2.7951 0.7924
-1.3885 -2.8255 0.71859998
-1.143 -2.9677999 0.72589999
-0.9181 -3.2107999 0.7622
-2.2739 -2.8144 0.76279998
-1.4982001 -2.7337999 0.65719998
-0.7906 -3.3174 0.71890002
-2.0055001 -2.7218001 0.71280003
-1.6431 -2.7049 0.66720003
-1.3647 -2.7771001 0.6523
-1.1224999 -2.9145 0.6584
-0.89880002 -3.1431999 0.68919998
-0.69300002 -3.6150999 0.77600002
-1.774 -2.6468999 0.61659998
-1.4722 -2.6863 0.59280002
-1.2198 -2.7897999 0.58920002
-0.76990002 -3.2305 0.64270002
-1.3419 -2.7306001 0.58880001
-1.7449 -2.6034999 0.55260003
-1.4543999 -2.654 0.53359997
-1.206 -2.7581999 0.53079998
-0.7543 -3.165 0.57370001
-0.55680001 -3.8176 0.6803
-2.4681001 -2.7908001 0.65689999
-1.918 -2.6031001 0.57010001
-1.3268 -2.6998999 0.53039998
-1.0893 -2.8283 0.53439999
-0.8653 -3.0260999 0.55500001
-0.64780003 -3.3794 0.6067
-1.7244999 -2.573 0.4932
-1.4395 -2.6268001 0.477
-1.1941 -2.7309 0.47459999
-0.52649999 -3.6099 0.58090001
-2.3761001 -2.6867001 0.5711
-1.8949 -2.5717001 0.50870001
-1.3137 -2.6731999 0.4743
-0.85500002 -2.9900999 0.49520001
-0.63480002 -3.3118999 0.537
-1.7046 -2.5434999 0.4355
-0.51380002 -3.5230999 0.50639999
-1.8724 -2.5411999 0.449
-1.5603 -2.5685 0.42750001
-1.3008 -2.6471 0.41949999
-1.0671 -2.7706001 0.42230001
-0.62510002 -3.2609999 0.47229999
-2.7009001 -2.7927001 0.4869
-1.4108 -2.5743999 0.36790001
-1.171 -2.6782 0.36629999
-0.94700003 -2.8287001 0.37380001
-0.72729999 -3.0517001 0.39309999
-1.8506 -2.5116 0.391
-1.2883 -2.6217 0.36610001
-1.0563999 -2.7428 0.36829999
-0.61570001 -3.2119 0.40979999
-2.5845001 -2.6724 0.4032
-2.0097001 -2.4874001 0.34689999
-1.397 -2.5492001 0.31529999
-1.1599 -2.6528001 0.31400001
-0.93760002 -2.8002999 0.32030001
-0.71880001 -3.016 0.33629999
-1.8293 -2.4828 0.33450001
-1.5292 -2.5174 0.3195
-0.60659999 -3.1645 0.3495
-0.38499999 -3.8264999 0.41710001
-1.9814 -2.4524 0.289
-1.3846999 -2.5267999 0.2642
-1.1502 -2.6305001 0.26320001
-0.7105 -2.9813001 0.28099999
-0.48519999 -3.3268001 0.3082
-2.2042999 -2.4925001 0.30500001
-1.8085999 -2.4547 0.27950001
-1.5152 -2.4942999 0.2676
-1.2654001 -2.575 0.26300001
-0.81760001 -2.8592999 0.2726
-0.59780002 -3.1185 0.2911
-2.4642999 -2.5481 0.2656
-1.6403 -2.4475 0.2208
-1.3774 -2.5132999 0.2148
-1.1442 -2.6169 0.214
-0.92369998 -2.7590001 0.21799999
-0.47929999 -3.2862999 0.2489
-2.1795001 -2.4644001 0.2465
-1.507 -2.4807999 0.2175
-1.2589 -2.5617001 0.2139
-1.0311 -2.6772001 0.215
-0.81309998 -2.8434999 0.2216
-1.952 -2.4159999 0.18089999
-1.3701 -2.5000999 0.16599999
-0.70109999 -2.9421999 0.1762
-0.4754 -3.2593 0.1918
-1.499 -2.4676001 0.1682
-1.2525001 -2.5487001 0.1654
-0.58859998 -3.0706 0.1821
-1.9397 -2.4008 0.1283
-1.6227 -2.4212 0.1212
-1.3629 -2.487 0.1179
-0.47150001 -3.2328999 0.1358
-2.145 -2.4254 0.1346
-1.2460999 -2.5358 0.1175
-1.0202 -2.6489 0.118
-0.80419999 -2.8125999 0.1216
-0.5848 -3.0510001 0.1292
-2.3800001 -2.4609001 0.0854
-1.9276 -2.3859 0.076499999
-1.614 -2.4082 0.072300002
-1.3558 -2.474 0.0704
-1.1269 -2.5773001 0.070100002
-0.90899998 -2.7149999 0.071400002
-0.4677 -3.2068 0.080799997
-1.2398 -2.523 0.070100002
-1.0149 -2.6350999 0.0704
-0.58109999 -3.0316 0.077
-0.34760001 -3.4549999 0.086599998
-1.9157 -2.3710999 0.0253
-1.3487999 -2.4612 0.0233
-0.68830001 -2.8882999 0.024700001
-2.7639 -2.6141 0.031599998
-2.1118 -2.3878 0.0265
-1.4754 -2.4288001 0.023600001
-1.0096 -2.6214001 0.0233
-0.57749999 -3.0125 0.0255
-0.34349999 -3.4142001 0.0285
-1.9039 -2.3564999 -0.0252
-1.3418 -2.4486001 -0.0232
-0.68419999 -2.8708 -0.024499999
-0.4603 -3.1559999 -0.0265
-0.214 -3.8376 -0.0319
-2.7021999 -2.5557001 -0.0309
-1.7431 -2.3657 -0.0244
-1.0044 -2.6078 -0.0232
-0.79140002 -2.7676001 -0.0239
-0.57380003 -2.9937 -0.0253
-2.3110001 -2.3894999 -0.082900003
-1.8958 -2.3464 -0.075199999
-1.5906 -2.3734 -0.0713
-2.6689 -2.5242 -0.091600001
-1.7356 -2.3555 -0.072999999
-1.4619 -2.4066 -0.070200004
-1.2228 -2.4881999 -0.0691
-0.78820002 -2.7565 -0.071500003
-0.3369 -3.349 -0.083899997
-1.892 -2.3418 -0.1252
-1.5879 -2.3694 -0.1186
-1.3343 -2.4347999 -0.1154
-1.1095999 -2.5376 -0.1152
-0.89429998 -2.6712 -0.1171
-0.67979997 -2.8525 -0.1219
-0.2093 -3.753 -0.15629999
-2.6496 -2.5058999 -0.1516
-2.0796001 -2.3515 -0.1305
-1.7322 -2.3510001 -0.1214
-1.2208 -2.4842 -0.1151
-0.78689998 -2.7518001 -0.119
-0.57010001 -2.9744 -0.1259
-2.2983 -2.3764 -0.1926
-1.8882999 -2.3371999 -0.175
-0.2076 -3.723 -0.2172
-2.6312001 -2.4886 -0.21089999
-2.0745001 -2.3455999 -0.1824
-1.457 -2.3985 -0.1635
-0.9971 -2.5887001 -0.16159999
-0.3346 -3.3255999 -0.1947
-1.3299 -2.4268 -0.20739999
-1.1059999 -2.5295 -0.2069
-1.4545 -2.3945 -0.20999999
-0.99540001 -2.5843999 -0.2075
-0.33360001 -3.3167 -0.2498
-1.5798 -2.3571999 -0.26019999
-1.3277 -2.4226999 -0.25330001
-0.67580003 -2.8359001 -0.26730001
-0.45320001 -3.1073 -0.2879
-0.2043 -3.6643 -0.33649999
-2.6106 -2.4690001 -0.3294
-2.0641999 -2.3340001 -0.28569999
-1.4521 -2.3905001 -0.25639999
-1.2149 -2.4723001 -0.2525
-0.99370003 -2.5801001 -0.25350001
-0.3328 -3.3078001 -0.3048
-1.8771 -2.3232999 -0.324
-1.5771 -2.3532 -0.3073
-1.3255 -2.4187 -0.2992
-2.6003001 -2.4593 -0.38820001
-1.7189 -2.3329 -0.3143
-0.78149998 -2.7328999 -0.30829999
-0.3319 -3.2988999 -0.35960001
-2.2779 -2.3554001 -0.41060001
-1.8733 -2.3185999 -0.37349999
-1.3233 -2.4147 -0.34509999
-1.1007 -2.5172999 -0.3443
-0.67320001 -2.8248999 -0.36390001
-2.6094 -2.4679 -0.4501
-2.0539 -2.3224001 -0.38850001
-1.7156 -2.3283999 -0.3624
-1.211 -2.4642999 -0.3441
-2.2843001 -2.3619001 -0.46740001
-1.874 -2.3195 -0.42410001
-1.0989 -2.5132999 -0.39019999
-2.0581999 -2.3271999 -0.44190001
-1.7145 -2.3269999 -0.4111
-1.2091 -2.4604001 -0.3899
-1.878 -2.3243999 -0.47580001
-1.323 -2.4142001 -0.4384
-1.1004 -2.5165999 -0.43740001
-0.88700002 -2.6492 -0.44490001
-0.45320001 -3.1071999 -0.5
-0.2084 -3.7367001 -0.5959
-2.6315 -2.4888999 -0.57679999
-2.0636001 -2.3334 -0.49599999
-1.4474 -2.3828001 -0.44389999
-1.2107 -2.4635999 -0.43709999
-0.99019998 -2.5710001 -0.43869999
-0.33360001 -3.3155999 -0.53060001
-2.2971001 -2.3752 -0.5826
-1.882 -2.3292999 -0.528
-1.5783 -2.3548999 -0.49990001
-1.3254 -2.4184 -0.48629999
-1.1023 -2.5209999 -0.4851
-0.88859999 -2.6540999 -0.49349999
-0.67570001 -2.8350999 -0.51389998
-0.4544 -3.1159 -0.55519998
-2.0690999 -2.3396001 -0.55070001
-1.7216001 -2.3364999 -0.51179999
-1.45 -2.3871 -0.49250001
-1.2127 -2.4679 -0.4849
-0.99199998 -2.5755999 -0.4867
-0.78210002 -2.7351 -0.50160003
-0.56720001 -2.9588001 -0.53119999
-2.3037 -2.382 -0.64130002
-1.886 -2.3343 -0.5808
-1.3277 -2.4228001 -0.53460002
-1.1042 -2.5253999 -0.5334
-0.6771 -2.8412001 -0.56519997
-0.45570001 -3.1247001 -0.61110002
-2.6742001 -2.5292001 -0.7123
-2.0747001 -2.3459001 -0.60600001
-1.7252001 -2.3413999 -0.56279999
-1.4527 -2.3914001 -0.54149997
-1.8901 -2.3394001 -0.634
-0.6785 -2.8473001 -0.6171
-2.7419 -2.5932 -0.7956
-2.3297 -2.4089 -0.76490003
-1.3326 -2.4316001 -0.6329
-1.1081001 -2.5343001 -0.63129997
-0.45829999 -3.1426001 -0.72490001
-2.086 -2.3587 -0.71869999
-1.4579999 -2.4001999 -0.64099997
-1.2192 -2.4809 -0.63090003
-0.78649998 -2.7506001 -0.653
-0.57099998 -2.9786999 -0.69220001
-0.3407 -3.3863001 -0.77679998
-1.8996 -2.3511 -0.74299997
-1.5901 -2.3726001 -0.70200002
-1.335 -2.4361 -0.68279999
-1.1101 -2.5388 -0.68110001
-0.4621 -3.1682999 -0.787
-2.1013999 -2.3761001 -0.77969998
-1.7361 -2.3563001 -0.71939999
-1.4608001 -2.4047 -0.69160002
-0.9993 -2.5946 -0.68339998
-0.78799999 -2.7558999 -0.70450002
-0.57279998 -2.9881001 -0.74790001
-2.3971 -2.4786 -0.90859997
-1.1121 -2.5434 -0.73140001
-0.68550003 -2.8764999 -0.77920002
-2.1212001 -2.3984001 -0.84369999
-1.2235 -2.4898 -0.73100001
-0.57709998 -3.0106001 -0.80769998
-0.3513 -3.4916999 -0.92470002
-1.6055 -2.3956001 -0.8114
-0.69059998 -2.8977001 -0.83810002
-2.1415 -2.4214001 -0.9095
-1.7584 -2.3864 -0.83399999
-1.4733 -2.4254999 -0.7985
-1.2302001 -2.5034001 -0.78479999
-0.79589999 -2.7832999 -0.81449997
-0.58149999 -3.0335 -0.86909997
-1.9423 -2.404 -0.9253
-1.6158 -2.411 -0.8689
-0.90890002 -2.7147 -0.85710001
-0.69569999 -2.9194 -0.89850003
-0.4761 -3.2643001 -0.98760003
-1.2376 -2.5185001 -0.84009999
-0.801 -2.8013999 -0.87230003
-2.5562 -2.6431 -1.1677001
-1.9572999 -2.4224999 -0.98909998
-0.91479999 -2.7323 -0.91509998
-0.70099998 -2.9416001 -0.96039999
-2.184 -2.4695001 -1.0470001
-1.4921 -2.4563999 -0.91280001
-1.2452 -2.5337999 -0.89660001
-1.0199 -2.6480999 -0.9012
-1.6371 -2.4428 -0.98799998
-1.3710001 -2.5018001 -0.95850003
-0.70649999 -2.9645 -1.0239
-1.5019 -2.4724 -0.97189999
-0.81169999 -2.8388 -0.99199998
-2.0098 -2.4875 -1.1339
-1.38 -2.5181 -1.0182
-1.146 -2.6210001 -1.0143
-0.50550002 -3.4658999 -1.242
-1.8158 -2.4644001 -1.0854
-1.2608 -2.5657001 -1.0137
-2.0516 -2.5392001 -1.219
-1.2701 -2.5847001 -1.0754
-0.62110001 -3.2400999 -1.2319
-2.0957 -2.5938001 -1.3087
-0.73769999 -3.0954001 -1.2489001
-0.84109998 -2.9414001 -1.2007
-1.7225 -2.5702 -1.274
-0.96280003 -2.8757 -1.2488
-1.5692 -2.5833001 -1.2446001
-1.3035001 -2.6524999 -1.217
-1.4495 -2.645 -1.301
-1.5917 -2.6204 -1.3225
-1.086 -2.8197 -1.3034
-1.8058 -2.6945 -1.4636
-2.0422001 -2.7718 -1.5535001
-0.89850003 -3.1422999 -1.4747
