# .PCD v0.7 - Point Cloud Data file format
VERSION 0.7
FIELDS x y z rgb
SIZE 4 4 4 4
TYPE F F F F
COUNT 1 1 1 1
WIDTH 198
HEIGHT 1
VIEWPOINT 0 0 0 1 0 0 0
POINTS 198
DATA ascii
4.3454 9.3641 5.2924 1.180104062e-38
3.3869 9.414 5.1291 1.180104062e-38
1.5857 9.4009 4.8877 1.180104062e-38
-1.8774 -6.5656 3.5009 1.180104062e-38
4.8501 9.338 5.3945 1.180104062e-38
3.8579 9.3875 5.2033 1.180104062e-38
1.5875 9.4115 4.6945 1.180104062e-38
-1.9441 -6.7989 3.4781 1.180104062e-38
2.0484 9.5323 4.7955 1.180104062e-38
7.0684 9.1588 5.4535 1.180104062e-38
1.5876 9.4122 4.307 1.180104062e-38
-2.105 -7.3618 3.4549 1.180104062e-38
-2.6195 -10.9919 4.8742 1.180104062e-38
1.5876 9.4119 4.1172 1.180104062e-38
-2.7468 -11.5259 4.879 1.180104062e-38
1.5875 9.4115 3.9302 1.180104062e-38
-2.7512 -11.5446 4.4316 1.180104062e-38
1.5874 9.4108 3.5637 1.180104062e-38
1.5873 9.4104 3.3839 1.180104062e-38
1.5873 9.4101 3.2063 1.180104062e-38
-2.236 -9.3825 3.0632 1.180104062e-38
6.4749 9.2107 3.5756 1.180104062e-38
1.5872 9.4097 3.0306 1.180104062e-38
5.9008 9.2435 3.4828 1.180104062e-38
4.8316 9.3024 3.329 1.180104062e-38
7.7317 9.1451 3.5852 1.180104062e-38
4.3322 9.3357 3.0812 1.180104062e-38
7.1044 9.2054 3.4812 1.180104062e-38
-2.3485 -9.8548 2.8504 1.180104062e-38
1.5871 9.409 2.6847 1.180104062e-38
8.4455 9.1312 3.4995 1.180104062e-38
-2.422 -10.163 2.753 1.180104062e-38
2.4763 9.4518 2.5746 1.180104062e-38
9.9831 9.0292 3.5469 1.180104062e-38
2.0249 9.4232 2.5397 1.180104062e-38
-2.5026 -10.5016 2.6536 1.180104062e-38
1.587 9.4084 2.3452 1.180104062e-38
-2.5951 -10.8894 2.555 1.180104062e-38
-2.7509 -11.5435 2.0924 1.180104062e-38
1.5867 9.4067 1.5191 1.180104062e-38
-2.7509 -11.5433 1.6879 1.180104062e-38
1.5867 9.4064 1.3568 1.180104062e-38
-2.7509 -11.5432 1.4871 1.180104062e-38
8.7397 3.0347 1.1594 1.180104062e-38
1.5866 9.4061 1.1954 1.180104062e-38
-2.7509 -11.5431 1.2871 1.180104062e-38
1.5866 9.4058 1.0346 1.180104062e-38
8.7989 2.6223 0.9959 1.180104062e-38
8.2766 3.294 0.9662 1.180104062e-38
8.0777 3.6396 0.8122 1.180104062e-38
1.5865 9.4054 0.8745 1.180104062e-38
8.3937 4.2415 0.8622 1.180104062e-38
8.8961 2.2251 0.6872 1.180104062e-38
8.1073 2.8152 0.6431 1.180104062e-38
1.5864 9.4051 0.7148 1.180104062e-38
8.0933 4.0897 0.6795 1.180104062e-38
-2.7508 -11.5428 0.6911 1.180104062e-38
8.2558 2.4605 0.5017 1.180104062e-38
8.5596 2.1409 0.3669 1.180104062e-38
8.3787 4.7138 0.3997 1.180104062e-38
8.1682 2.4344 0.3544 1.180104062e-38
7.8223 3.9528 0.3644 1.180104062e-38
-2.7507 -11.5426 0.2959 1.180104062e-38
8.4613 2.1163 0.2175 1.180104062e-38
7.8704 2.7329 0.2078 1.180104062e-38
7.6834 3.462 0.2102 1.180104062e-38
1.5863 9.4042 0.2378 1.180104062e-38
8.0926 2.4119 0.2106 1.180104062e-38
7.7304 3.9064 0.216 1.180104062e-38
-2.7507 -11.5425 0.0986 1.180104062e-38
7.6412 3.443 0.0697 1.180104062e-38
7.6968 3.0633 0.0689 1.180104062e-38
-2.7507 -11.5424 -0.0986 1.180104062e-38
8.3423 2.0866 -0.0715 1.180104062e-38
7.7905 2.7052 -0.0685 1.180104062e-38
7.5996 3.4242 -0.0693 1.180104062e-38
7.6339 3.8576 -0.0711 1.180104062e-38
-2.7507 -11.5423 -0.2959 1.180104062e-38
8.3209 2.0812 -0.2139 1.180104062e-38
7.7755 2.7 -0.2053 1.180104062e-38
7.5839 3.4171 -0.2074 1.180104062e-38
1.5862 9.4035 -0.2378 1.180104062e-38
8.925 1.8141 -0.2271 1.180104062e-38
7.6426 3.0417 -0.2051 1.180104062e-38
-2.7506 -11.5422 -0.4934 1.180104062e-38
8.3016 2.0764 -0.3558 1.180104062e-38
7.7625 2.6954 -0.3417 1.180104062e-38
7.5703 3.411 -0.3452 1.180104062e-38
1.5862 9.4034 -0.3965 1.180104062e-38
7.9726 2.3761 -0.3459 1.180104062e-38
7.6006 3.8408 -0.3541 1.180104062e-38
-2.7506 -11.5421 -0.6911 1.180104062e-38
8.3029 2.0767 -0.4985 1.180104062e-38
7.5688 3.4103 -0.4835 1.180104062e-38
1.5861 9.4032 -0.5554 1.180104062e-38
7.9713 2.3757 -0.4845 1.180104062e-38
7.6275 3.0357 -0.4781 1.180104062e-38
7.6012 3.841 -0.496 1.180104062e-38
-2.7506 -11.542 -0.8892 1.180104062e-38
1.5861 9.4031 -0.7146 1.180104062e-38
8.9412 1.8174 -0.6837 1.180104062e-38
7.9848 2.3797 -0.6244 1.180104062e-38
7.6164 3.8487 -0.6395 1.180104062e-38
-2.7506 -11.5419 -1.0878 1.180104062e-38
8.3479 2.088 -0.7889 1.180104062e-38
7.5955 3.4224 -0.7638 1.180104062e-38
7.9048 4.4472 -0.8315 1.180104062e-38
7.9992 2.384 -0.7652 1.180104062e-38
7.6523 3.0455 -0.7551 1.180104062e-38
-2.7506 -11.5418 -1.2869 1.180104062e-38
8.4091 2.1033 -0.9402 1.180104062e-38
7.8247 2.717 -0.8984 1.180104062e-38
7.6383 3.4416 -0.9087 1.180104062e-38
8.0432 2.3971 -0.9103 1.180104062e-38
7.6912 3.061 -0.8979 1.180104062e-38
8.4727 2.1192 -1.0945 1.180104062e-38
8.0913 2.4115 -1.058 1.180104062e-38
7.7365 3.9094 -1.0863 1.180104062e-38
-2.7506 -11.5419 -1.6876 1.180104062e-38
8.5907 2.1487 -1.2595 1.180104062e-38
7.9313 2.7541 -1.1942 1.180104062e-38
7.754 3.4938 -1.2097 1.180104062e-38
7.7966 3.103 -1.1936 1.180104062e-38
7.8486 3.9661 -1.2508 1.180104062e-38
-2.7506 -11.5421 -1.8894 1.180104062e-38
8.7587 2.1907 -1.4377 1.180104062e-38
8.0095 2.7812 -1.3501 1.180104062e-38
7.8369 3.5311 -1.3687 1.180104062e-38
-5.9843 -12.1777 -2.1606 1.180104062e-38
7.874 3.1338 -1.3495 1.180104062e-38
7.9802 4.0326 -1.4238 1.180104062e-38
9.0982 2.2756 -1.6537 1.180104062e-38
8.1264 2.8218 -1.5168 1.180104062e-38
-5.9533 -12.1146 -2.3801 1.180104062e-38
7.9896 3.1798 -1.5163 1.180104062e-38
8.227 4.1573 -1.6253 1.180104062e-38
-10.1028 -10.4462 -2.8123 1.180104062e-38
-8.0855 -12.0643 -2.8105 1.180104062e-38
-6.9614 -12.7029 -2.8032 1.180104062e-38
-5.7914 -13.2451 -2.7975 1.180104062e-38
-0.7994 -14.3359 -2.7786 1.180104062e-38
8.1749 3.6834 -1.7352 1.180104062e-38
1.5859 9.4021 -1.8452 1.180104062e-38
-11.3867 -8.9919 -2.8078 1.180104062e-38
-10.5523 -9.9803 -2.8107 1.180104062e-38
-9.6328 -10.892 -2.8139 1.180104062e-38
-8.628 -11.7099 -2.8148 1.180104062e-38
-7.5297 -12.3955 -2.8066 1.180104062e-38
-5.9393 -12.0861 -2.606 1.180104062e-38
-2.7099 -14.137 -2.7856 1.180104062e-38
-0.1599 -14.3486 -2.7769 1.180104062e-38
1.1176 -14.3022 -2.7762 1.180104062e-38
8.6435 2.5761 -1.7454 1.180104062e-38
8.1398 3.2396 -1.6954 1.180104062e-38
-9.2756 -9.5909 -2.8129 1.180104062e-38
-7.4436 -11.1066 -2.8187 1.180104062e-38
-4.2327 -12.6425 -2.8107 1.180104062e-38
-1.9194 -13.1601 -2.8038 1.180104062e-38
1.5859 9.402 -2.0101 1.180104062e-38
-9.696 -9.1704 -2.8135 1.180104062e-38
-7.9268 -10.7583 -2.8172 1.180104062e-38
-6.945 -11.433 -2.8201 1.180104062e-38
-4.7946 -12.4488 -2.8124 1.180104062e-38
-2.5018 -13.0515 -2.8016 1.180104062e-38
-1.3392 -13.3125 -2.8207 1.180104062e-38
-0.1481 -13.292 -2.8024 1.180104062e-38
8.3932 3.3404 -1.9044 1.180104062e-38
-7.7538 -9.597 -2.816 1.180104062e-38
-6.8755 -10.2589 -2.8188 1.180104062e-38
-5.9408 -10.8406 -2.8215 1.180104062e-38
-3.9319 -11.7439 -2.8267 1.180104062e-38
-1.7901 -12.2734 -2.831 1.180104062e-38
-6.4148 -10.5601 -2.8201 1.180104062e-38
-2.3341 -12.1767 -2.8299 1.180104062e-38
-6.3845 -9.5263 -2.8188 1.180104062e-38
-4.6025 -10.5262 -2.8239 1.180104062e-38
-2.6679 -11.1949 -2.8288 1.180104062e-38
-1.6619 -11.3945 -2.8304 1.180104062e-38
1.5859 9.4017 -2.3436 1.180104062e-38
-6.8234 -9.2607 -2.8274 1.180104062e-38
-5.0646 -10.3062 -2.8226 1.180104062e-38
-4.1309 -10.7255 -2.8251 1.180104062e-38
-2.1673 -11.3066 -2.8298 1.180104062e-38
-1.1528 -11.4588 -2.8308 1.180104062e-38
-0.1283 -11.517 -2.8311 1.180104062e-38
-5.1568 -9.4099 -2.8274 1.180104062e-38
-4.2929 -9.8181 -2.8236 1.180104062e-38
-1.5499 -10.6267 -2.8298 1.180104062e-38
-0.5981 -10.7257 -2.8306 1.180104062e-38
1.5858 9.4015 -2.5123 1.180104062e-38
-4.7241 -9.6131 -2.8224 1.180104062e-38
-3.8529 -10.0037 -2.8247 1.180104062e-38
-2.9496 -10.3153 -2.827 1.180104062e-38
-2.0212 -10.5445 -2.8291 1.180104062e-38
-1.0751 -10.6871 -2.8303 1.180104062e-38
-0.1213 -10.8911 -2.87 1.180104062e-38
-2.7623 -9.6601 -2.8269 1.180104062e-38
-1.8926 -9.8736 -2.8286 1.180104062e-38
