# .PCD v0.7 - Point Cloud Data file format
VERSION 0.7
FIELDS x y z rgb
SIZE 4 4 4 4
TYPE F F F F
COUNT 1 1 1 1
WIDTH 122
HEIGHT 1
VIEWPOINT 0 0 0 1 0 0 0
POINTS 122
DATA ascii
-0.9257 -6.3472 3.2884 1.180104062e-38
4.5254 9.752 5.0677 1.180104062e-38
3.4994 9.7266 4.8726 1.180104062e-38
2.5387 9.6901 4.7218 1.180104062e-38
2.081 9.684 4.669 1.180104062e-38
-1.0244 -7.0239 3.2028 1.180104062e-38
6.2494 9.7895 5.2405 1.180104062e-38
-1.065 -7.302 3.1831 1.180104062e-38
-1.1391 -7.81 3.0976 1.180104062e-38
-1.2109 -8.3027 2.9752 1.180104062e-38
5.6347 9.7596 3.1707 1.180104062e-38
4.487 9.6693 2.9992 1.180104062e-38
6.2044 9.719 3.2442 1.180104062e-38
5.0309 9.6862 3.071 1.180104062e-38
3.4722 9.651 2.7026 1.180104062e-38
7.5242 9.7494 3.2451 1.180104062e-38
3.9876 9.7033 2.7643 1.180104062e-38
2.9966 9.66 2.6651 1.180104062e-38
9.8798 9.7703 3.4154 1.180104062e-38
2.5249 9.6376 2.4489 1.180104062e-38
9.03 9.7632 3.2689 1.180104062e-38
2.0711 9.6381 2.4231 1.180104062e-38
2.0802 9.6805 2.2599 1.180104062e-38
8.7746 3.9536 0.8823 1.180104062e-38
8.8408 4.4674 0.9081 1.180104062e-38
9.202 3.1953 0.73 1.180104062e-38
8.5191 3.8385 0.7002 1.180104062e-38
8.7332 3.4757 0.7044 1.180104062e-38
8.4824 4.2864 0.7122 1.180104062e-38
8.5498 3.4027 0.536 1.180104062e-38
8.2376 4.6344 0.393 1.180104062e-38
9.4575 2.8186 0.4103 1.180104062e-38
8.152 4.1194 0.3798 1.180104062e-38
8.6363 2.9989 0.228 1.180104062e-38
8.1389 3.6672 0.2226 1.180104062e-38
9.1888 2.7386 0.2391 1.180104062e-38
8.3254 3.3134 0.2235 1.180104062e-38
8.5463 2.9676 0.0752 1.180104062e-38
8.066 3.6344 0.0735 1.180104062e-38
9.0403 2.6943 0.0784 1.180104062e-38
8.3446 5.1971 0.0817 1.180104062e-38
7.9296 4.4611 -0.0756 1.180104062e-38
7.9715 3.5918 -0.218 1.180104062e-38
7.8785 3.9812 -0.2201 1.180104062e-38
7.9395 3.5774 -0.3621 1.180104062e-38
7.8457 4.4139 -0.3743 1.180104062e-38
7.8455 3.9645 -0.3655 1.180104062e-38
8.3762 2.9085 -0.5164 1.180104062e-38
7.9265 3.5715 -0.5064 1.180104062e-38
7.8301 4.4052 -0.5233 1.180104062e-38
8.1003 3.2239 -0.5078 1.180104062e-38
8.3608 2.9032 -0.6633 1.180104062e-38
7.817 4.3978 -0.6721 1.180104062e-38
8.0871 3.2186 -0.6523 1.180104062e-38
7.8182 3.9507 -0.6565 1.180104062e-38
7.8328 4.4067 -0.8239 1.180104062e-38
7.8313 3.9573 -0.8044 1.180104062e-38
8.0296 5.0009 -0.8672 1.180104062e-38
7.9382 3.5768 -0.9444 1.180104062e-38
7.8488 4.4157 -0.9768 1.180104062e-38
8.1126 3.2287 -0.9471 1.180104062e-38
7.8453 3.9644 -0.9534 1.180104062e-38
8.4368 2.9296 -1.1192 1.180104062e-38
7.9693 3.5908 -1.0954 1.180104062e-38
7.8941 4.4412 -1.1351 1.180104062e-38
7.88 3.982 -1.1064 1.180104062e-38
7.9461 4.4704 -1.2968 1.180104062e-38
8.1918 3.2603 -1.2541 1.180104062e-38
8.3361 5.1918 -1.3969 1.180104062e-38
8.5752 2.9776 -1.4455 1.180104062e-38
8.0735 3.6378 -1.4101 1.180104062e-38
8.0446 4.5258 -1.4698 1.180104062e-38
9.1522 2.7277 -1.5207 1.180104062e-38
7.9935 4.0393 -1.4261 1.180104062e-38
8.1758 4.5996 -1.6541 1.180104062e-38
8.2147 4.1511 -1.7811 1.180104062e-38
-5.8768 -13.4405 -3.0925 1.180104062e-38
-4.6462 -13.8773 -3.0852 1.180104062e-38
-2.1041 -14.4268 -3.0736 1.180104062e-38
0.4849 -14.5029 -3.0592 1.180104062e-38
1.7713 -14.3818 -3.0549 1.180104062e-38
-4.7635 -12.3683 -2.7942 1.180104062e-38
-4.0193 -14.0564 -3.0821 1.180104062e-38
1.1296 -14.4554 -3.0568 1.180104062e-38
8.4276 4.2586 -1.9907 1.180104062e-38
-7.5921 -11.3281 -3.1125 1.180104062e-38
-6.5558 -11.9628 -3.1135 1.180104062e-38
-3.1424 -13.186 -3.0939 1.180104062e-38
-1.9519 -13.3833 -3.087 1.180104062e-38
0.4511 -13.4934 -3.0815 1.180104062e-38
-8.0868 -10.9755 -3.1116 1.180104062e-38
-6.0096 -12.2291 -3.11 1.180104062e-38
-3.7297 -13.0436 -3.0964 1.180104062e-38
-2.5497 -13.3014 -3.0912 1.180104062e-38
1.049 -13.4245 -3.0734 1.180104062e-38
2.2331 -13.2387 -3.0643 1.180104062e-38
9.0431 3.5991 -2.2215 1.180104062e-38
-6.0842 -11.1023 -3.1119 1.180104062e-38
-2.9299 -12.2942 -3.1065 1.180104062e-38
-0.7052 -12.6473 -3.1135 1.180104062e-38
-7.504 -10.1845 -3.1095 1.180104062e-38
-6.5712 -10.8177 -3.1111 1.180104062e-38
-3.4773 -12.1607 -3.1089 1.180104062e-38
-2.3763 -12.3967 -3.1026 1.180104062e-38
-1.2668 -12.5918 -3.1107 1.180104062e-38
-6.5675 -9.7994 -3.1084 1.180104062e-38
-3.7495 -11.1991 -3.112 1.180104062e-38
-1.7051 -11.6909 -3.1132 1.180104062e-38
-0.6577 -11.7948 -3.1128 1.180104062e-38
1.442 -11.7083 -3.1085 1.180104062e-38
-5.2062 -10.5942 -3.1104 1.180104062e-38
-4.244 -11.0194 -3.1115 1.180104062e-38
0.9194 -11.7657 -3.1097 1.180104062e-38
-5.3091 -9.6879 -3.1082 1.180104062e-38
-3.5094 -10.4819 -3.11 1.180104062e-38
-0.6156 -11.0397 -3.1109 1.180104062e-38
-4.8729 -9.916 -3.1086 1.180104062e-38
-3.9723 -10.3137 -3.1096 1.180104062e-38
-3.0393 -10.629 -3.1104 1.180104062e-38
0.8607 -11.015 -3.1086 1.180104062e-38
-3.2963 -9.8454 -3.1083 1.180104062e-38
-1.9552 -10.1997 -3.1092 1.180104062e-38
