# .PCD v0.7 - Point Cloud Data file format
VERSION 0.7
FIELDS x y z rgb
SIZE 4 4 4 4
TYPE F F F F
COUNT 1 1 1 1
WIDTH 126
HEIGHT 1
VIEWPOINT 0 0 0 1 0 0 0
POINTS 126
DATA ascii
-4.5618 -11.8445 6.7759 1.180104062e-38
-0.9854 -6.7562 3.5003 1.180104062e-38
5.6215 9.7366 5.5299 1.180104062e-38
2.5518 9.7403 4.9525 1.180104062e-38
-1.0596 -7.2654 3.461 1.180104062e-38
6.8083 9.6849 5.5804 1.180104062e-38
-1.166 -7.9948 3.3269 1.180104062e-38
-1.2013 -8.2366 3.2668 1.180104062e-38
-1.2382 -8.49 3.2038 1.180104062e-38
5.5936 9.6885 3.5529 1.180104062e-38
4.4948 9.6861 3.1968 1.180104062e-38
3.485 9.6866 3.0819 1.180104062e-38
3.9681 9.6558 3.1253 1.180104062e-38
8.2181 9.7204 3.5813 1.180104062e-38
9.8504 9.7413 3.6504 1.180104062e-38
2.5454 9.7155 2.6464 1.180104062e-38
2.07 9.6328 2.5962 1.180104062e-38
8.8831 4.0025 1.221 1.180104062e-38
9.3335 3.2409 1.0717 1.180104062e-38
8.568 3.8606 1.0193 1.180104062e-38
8.5778 3.4139 0.8464 1.180104062e-38
8.2829 4.6599 0.7122 1.180104062e-38
9.6577 2.8783 0.7552 1.180104062e-38
8.1501 3.6722 0.5206 1.180104062e-38
8.068 4.077 0.5265 1.180104062e-38
8.0755 3.6387 0.3683 1.180104062e-38
8.0169 4.5102 0.3825 1.180104062e-38
9.0774 2.7054 0.3938 1.180104062e-38
8.1953 3.2616 0.22 1.180104062e-38
7.9266 4.0055 0.2215 1.180104062e-38
7.8897 4.4387 0.0752 1.180104062e-38
7.8838 3.9838 0.0734 1.180104062e-38
8.3943 2.9148 -0.0739 1.180104062e-38
7.9408 3.578 -0.0724 1.180104062e-38
7.8482 4.4153 -0.0748 1.180104062e-38
8.823 2.6295 -0.0765 1.180104062e-38
8.1017 3.2244 -0.2175 1.180104062e-38
7.8335 3.9584 -0.2189 1.180104062e-38
9.8781 2.4707 -0.4234 1.180104062e-38
7.9148 3.5662 -0.361 1.180104062e-38
8.7823 2.6174 -0.381 1.180104062e-38
8.0885 3.2191 -0.362 1.180104062e-38
7.8198 3.9515 -0.3643 1.180104062e-38
7.9235 3.5702 -0.5062 1.180104062e-38
7.8302 4.4052 -0.5233 1.180104062e-38
8.0975 3.2227 -0.5076 1.180104062e-38
7.9367 3.5761 -0.6524 1.180104062e-38
7.846 4.4141 -0.6746 1.180104062e-38
7.8435 3.9635 -0.6586 1.180104062e-38
8.0494 5.0132 -0.7106 1.180104062e-38
7.9639 3.5884 -0.8008 1.180104062e-38
7.8843 4.4357 -0.8294 1.180104062e-38
8.8777 2.6458 -0.8493 1.180104062e-38
8.4801 2.9446 -0.9737 1.180104062e-38
8.006 3.6073 -0.9525 1.180104062e-38
8.9544 2.6687 -1.0135 1.180104062e-38
7.9179 4.0011 -0.9623 1.180104062e-38
8.0603 3.6318 -1.1079 1.180104062e-38
8.0165 4.51 -1.1527 1.180104062e-38
7.9779 4.0314 -1.1202 1.180104062e-38
8.1395 3.6675 -1.2698 1.180104062e-38
8.1337 4.5759 -1.3274 1.180104062e-38
8.0617 4.0737 -1.2847 1.180104062e-38
8.8014 3.0562 -1.4836 1.180104062e-38
8.2442 3.7147 -1.4399 1.180104062e-38
8.3214 4.6816 -1.5204 1.180104062e-38
8.1781 4.1326 -1.4591 1.180104062e-38
8.38 3.7758 -1.6207 1.180104062e-38
-5.8352 -13.3453 -2.8186 1.180104062e-38
-4.6124 -13.7763 -2.8114 1.180104062e-38
-3.361 -14.1033 -2.8057 1.180104062e-38
-0.8032 -14.4045 -2.7919 1.180104062e-38
0.481 -14.3858 -2.7855 1.180104062e-38
8.6097 3.8794 -1.8275 1.180104062e-38
-6.4333 -13.0913 -2.8228 1.180104062e-38
-1.4461 -14.374 -2.7957 1.180104062e-38
-0.1605 -14.4083 -2.7884 1.180104062e-38
2.3887 -14.1613 -2.7792 1.180104062e-38
8.8418 3.5189 -1.8416 1.180104062e-38
8.6704 4.3813 -1.8799 1.180104062e-38
-5.3837 -12.3129 -2.8331 1.180104062e-38
-1.9264 -13.208 -2.814 1.180104062e-38
-0.7412 -13.2916 -2.8065 1.180104062e-38
1.6227 -13.1758 -2.7987 1.180104062e-38
-13.0371 5.5282 -2.9854 1.180104062e-38
-13.8108 3.1291 -2.9854 1.180104062e-38
-14.0344 1.8875 -2.9854 1.180104062e-38
-3.6821 -12.8771 -2.8236 1.180104062e-38
-2.5166 -13.1286 -2.8182 1.180104062e-38
-1.3342 -13.2626 -2.8101 1.180104062e-38
1.0368 -13.2685 -2.8058 1.180104062e-38
2.2048 -13.0712 -2.7946 1.180104062e-38
-12.7779 6.1035 -2.9854 1.180104062e-38
-13.9364 2.5108 -2.9854 1.180104062e-38
-3.948 -11.7921 -2.8383 1.180104062e-38
-2.8787 -12.0795 -2.8343 1.180104062e-38
0.4153 -12.4207 -2.8365 1.180104062e-38
1.5177 -12.3226 -2.8338 1.180104062e-38
-4.4687 -11.6026 -2.8378 1.180104062e-38
-3.4168 -11.9493 -2.8367 1.180104062e-38
-1.2447 -12.373 -2.8383 1.180104062e-38
-0.1385 -12.4325 -2.8378 1.180104062e-38
0.9677 -12.384 -2.8352 1.180104062e-38
-3.6631 -10.9411 -2.836 1.180104062e-38
-1.6658 -11.4219 -2.8372 1.180104062e-38
-0.6425 -11.5235 -2.8369 1.180104062e-38
0.3854 -11.5282 -2.8352 1.180104062e-38
-2.1729 -11.3355 -2.837 1.180104062e-38
-1.1554 -11.4849 -2.8372 1.180104062e-38
-0.1286 -11.5378 -2.8362 1.180104062e-38
0.8982 -11.4951 -2.8341 1.180104062e-38
-4.3075 -9.8515 -2.8332 1.180104062e-38
-1.5528 -10.6468 -2.8351 1.180104062e-38
-0.599 -10.742 -2.8349 1.180104062e-38
-3.865 -10.0352 -2.8336 1.180104062e-38
-2.0254 -10.5664 -2.8349 1.180104062e-38
-0.1198 -10.7561 -2.8344 1.180104062e-38
-2.3342 -9.7947 -2.833 1.180104062e-38
-1.4533 -9.9647 -2.8333 1.180104062e-38
-0.5606 -10.0539 -2.8331 1.180104062e-38
1.675 9.9301 -2.8334 1.180104062e-38
-2.7682 -9.681 -2.833 1.180104062e-38
-1.008 -10.0196 -2.8333 1.180104062e-38
1.574 9.3316 -2.8331 1.180104062e-38
1.4837 8.7961 -2.833 1.180104062e-38
1.0308 8.3692 -2.8331 1.180104062e-38
