# .PCD v0.7 - Point Cloud Data file format
VERSION 0.7
FIELDS x y z rgb
SIZE 4 4 4 4
TYPE F F F F
COUNT 1 1 1 1
WIDTH 282
HEIGHT 1
VIEWPOINT 0 0 0 1 0 0 0
POINTS 282
DATA ascii
-6.2388 0 3.602 1.180104062e-38
-6.3832 0 3.5452 1.180104062e-38
2.6608 7.3958 4.3654 1.180104062e-38
-9.3794 -3.0245 5.4734 1.180104062e-38
-7.1707 -0.9644 3.5587 1.180104062e-38
-7.5282 -1.3563 3.6058 1.180104062e-38
6.3301 4.3453 3.6192 1.180104062e-38
2.6626 7.4008 3.7074 1.180104062e-38
-10.682 -4.5296 5.4693 1.180104062e-38
6.1147 4.6112 3.4557 1.180104062e-38
5.5409 5.0114 3.371 1.180104062e-38
7.511 3.3843 3.5536 1.180104062e-38
4.7344 5.5999 3.1632 1.180104062e-38
2.6634 7.403 3.3938 1.180104062e-38
-7.9922 -1.8108 3.5349 1.180104062e-38
7.2323 3.6546 3.4954 1.180104062e-38
5.0252 5.4332 3.1924 1.180104062e-38
-11.552 -5.5179 5.2717 1.180104062e-38
8.1872 2.8429 3.5688 1.180104062e-38
4.2179 6.0001 3.0201 1.180104062e-38
4.4989 5.8293 3.0321 1.180104062e-38
-8.5912 -2.3534 3.496 1.180104062e-38
2.6643 7.4054 3.0888 1.180104062e-38
9.3692 1.9043 3.5701 1.180104062e-38
3.4358 6.615 2.7834 1.180104062e-38
3.1697 6.8305 2.6701 1.180104062e-38
2.665 7.4075 2.7914 1.180104062e-38
10.8445 0.7259 3.6517 1.180104062e-38
2.627 7.3017 2.6072 1.180104062e-38
2.6182 7.2773 2.4562 1.180104062e-38
2.959 7.2003 2.4723 1.180104062e-38
-10.5197 -4.4607 3.4208 1.180104062e-38
2.667 7.4129 2.0759 1.180104062e-38
4.6372 -1.8456 1.2268 1.180104062e-38
-11.6958 -5.5866 2.9584 1.180104062e-38
4.5479 -1.3554 1.0832 1.180104062e-38
2.6677 7.4149 1.7986 1.180104062e-38
4.3666 -1.9675 1.0931 1.180104062e-38
4.2593 -2.1523 1.0061 1.180104062e-38
4.3835 -1.3064 0.9643 1.180104062e-38
4.2658 -1.4812 0.952 1.180104062e-38
4.577 -1.1448 0.9946 1.180104062e-38
4.706 -0.9565 0.9293 1.180104062e-38
4.0598 -1.8292 0.8617 1.180104062e-38
4.1484 -1.4405 0.8498 1.180104062e-38
4.4227 -1.1062 0.8822 1.180104062e-38
4.0084 -1.5953 0.7607 1.180104062e-38
4.1709 -1.2431 0.7674 1.180104062e-38
4.0739 -1.4146 0.7604 1.180104062e-38
4.3103 -1.0781 0.7834 1.180104062e-38
5.083 -0.7993 0.9073 1.180104062e-38
4.1745 -2.5999 0.7831 1.180104062e-38
3.9427 -1.5692 0.6757 1.180104062e-38
4.4155 -0.8975 0.7175 1.180104062e-38
2.6692 7.4191 1.2555 1.180104062e-38
4.0084 -1.3919 0.6757 1.180104062e-38
4.7502 -0.747 0.7657 1.180104062e-38
4.0214 -2.5046 0.6739 1.180104062e-38
4.0325 -1.2018 0.5985 1.180104062e-38
3.847 -1.7334 0.6002 1.180104062e-38
3.9452 -1.3699 0.594 1.180104062e-38
4.1518 -1.0384 0.6087 1.180104062e-38
4.5954 -0.7226 0.6617 1.180104062e-38
3.8347 -1.5262 0.5172 1.180104062e-38
2.6699 7.421 0.9883 1.180104062e-38
3.8141 -2.1458 0.5484 1.180104062e-38
3.9003 -1.3543 0.5174 1.180104062e-38
4.4853 -0.7053 0.569 1.180104062e-38
3.8359 -2.389 0.4902 1.180104062e-38
3.7504 -1.8952 0.4558 1.180104062e-38
3.7974 -1.5113 0.4433 1.180104062e-38
3.9432 -1.1752 0.4463 1.180104062e-38
4.2081 -0.8553 0.4658 1.180104062e-38
4.7778 -0.5345 0.5215 1.180104062e-38
3.7106 -1.8751 0.3811 1.180104062e-38
2.6706 7.423 0.7232 1.180104062e-38
3.7176 -2.0915 0.3911 1.180104062e-38
3.7268 -1.6792 0.3747 1.180104062e-38
4.0146 -1.0041 0.3794 1.180104062e-38
4.3579 -0.6853 0.4044 1.180104062e-38
3.7303 -2.3232 0.3293 1.180104062e-38
3.7255 -1.4827 0.3005 1.180104062e-38
4.1136 -0.8361 0.3146 1.180104062e-38
4.5859 -0.513 0.3458 1.180104062e-38
2.6709 7.4239 0.5913 1.180104062e-38
3.8654 -2.6534 0.3513 1.180104062e-38
4.2972 -0.6757 0.326 1.180104062e-38
3.6873 -2.2964 0.253 1.180104062e-38
3.6989 -1.4721 0.2319 1.180104062e-38
3.8375 -1.1437 0.2332 1.180104062e-38
4.0752 -0.8283 0.2422 1.180104062e-38
4.4975 -0.5031 0.2636 1.180104062e-38
3.6641 -1.651 0.2341 1.180104062e-38
3.7644 -1.3071 0.2321 1.180104062e-38
3.9438 -0.9864 0.2368 1.180104062e-38
3.6797 -1.4645 0.1647 1.180104062e-38
4.0502 -0.8232 0.1718 1.180104062e-38
4.4613 -0.4991 0.1867 1.180104062e-38
3.7627 -2.5829 0.1898 1.180104062e-38
3.6218 -2.0376 0.1728 1.180104062e-38
3.9224 -0.9811 0.1681 1.180104062e-38
3.6356 -2.2643 0.1068 1.180104062e-38
3.6607 -1.4569 0.0983 1.180104062e-38
4.0256 -0.8183 0.1024 1.180104062e-38
4.4261 -0.4952 0.1111 1.180104062e-38
2.672 7.4269 0.1968 1.180104062e-38
3.7273 -2.5586 0.1127 1.180104062e-38
3.7261 -1.2938 0.0984 1.180104062e-38
4.1867 -0.6583 0.1057 1.180104062e-38
3.6104 -2.2486 0.0354 1.180104062e-38
3.5794 -1.8087 0.0333 1.180104062e-38
3.6419 -1.4494 0.0326 1.180104062e-38
3.7767 -1.1256 0.0328 1.180104062e-38
2.6723 7.4278 0.0656 1.180104062e-38
3.5797 -2.0139 0.0341 1.180104062e-38
3.6071 -1.6253 0.0329 1.180104062e-38
3.7073 -1.2873 0.0326 1.180104062e-38
3.8804 -0.9706 0.0332 1.180104062e-38
3.8745 -2.9219 -0.0403 1.180104062e-38
3.5855 -2.2331 -0.0351 1.180104062e-38
3.7569 -1.1197 -0.0326 1.180104062e-38
3.9773 -0.8084 -0.0337 1.180104062e-38
3.5885 -1.6169 -0.0327 1.180104062e-38
3.6886 -1.2808 -0.0325 1.180104062e-38
3.8597 -0.9654 -0.0331 1.180104062e-38
4.1349 -0.6502 -0.0348 1.180104062e-38
3.612 -1.4376 -0.0969 1.180104062e-38
4.3388 -0.4854 -0.1089 1.180104062e-38
2.6731 7.4298 -0.1969 1.180104062e-38
3.6408 -2.4993 -0.1101 1.180104062e-38
3.6773 -1.2769 -0.0971 1.180104062e-38
3.8473 -0.9623 -0.0989 1.180104062e-38
3.8272 -2.8862 -0.1993 1.180104062e-38
3.5638 -2.2195 -0.1746 1.180104062e-38
3.7385 -1.1142 -0.1622 1.180104062e-38
3.9554 -0.804 -0.1678 1.180104062e-38
3.5714 -1.6092 -0.1629 1.180104062e-38
3.6713 -1.2748 -0.1616 1.180104062e-38
3.8407 -0.9606 -0.1646 1.180104062e-38
4.1118 -0.6465 -0.1731 1.180104062e-38
3.5557 -2.2145 -0.244 1.180104062e-38
3.5343 -1.786 -0.2306 1.180104062e-38
3.7321 -1.1123 -0.2268 1.180104062e-38
4.3172 -0.4829 -0.253 1.180104062e-38
3.5339 -1.9882 -0.2362 1.180104062e-38
3.5654 -1.6065 -0.2278 1.180104062e-38
3.6653 -1.2727 -0.226 1.180104062e-38
3.834 -0.959 -0.2302 1.180104062e-38
4.6507 -0.3113 -0.2715 1.180104062e-38
3.7893 -2.8577 -0.3557 1.180104062e-38
3.5477 -2.2095 -0.3132 1.180104062e-38
3.594 -1.4304 -0.2899 1.180104062e-38
3.7258 -1.1104 -0.2913 1.180104062e-38
2.6741 7.4328 -0.592 1.180104062e-38
3.608 -2.4767 -0.328 1.180104062e-38
3.5273 -1.9844 -0.3033 1.180104062e-38
4.0954 -0.644 -0.3107 1.180104062e-38
4.6339 -0.3102 -0.348 1.180104062e-38
3.5213 -1.7794 -0.3617 1.180104062e-38
3.7194 -1.1085 -0.3558 1.180104062e-38
2.6745 7.4338 -0.7243 1.180104062e-38
3.5971 -2.4693 -0.4 1.180104062e-38
3.6533 -1.2686 -0.3545 1.180104062e-38
4.0871 -0.6427 -0.3793 1.180104062e-38
3.5201 -1.7788 -0.4278 1.180104062e-38
3.5852 -1.4269 -0.4185 1.180104062e-38
3.9322 -0.7993 -0.4352 1.180104062e-38
3.5513 -1.6002 -0.4225 1.180104062e-38
3.6506 -1.2676 -0.4192 1.180104062e-38
3.5517 -2.212 -0.5243 1.180104062e-38
3.7233 -1.1097 -0.4869 1.180104062e-38
3.9401 -0.8009 -0.5039 1.180104062e-38
4.316 -0.4828 -0.5442 1.180104062e-38
2.6752 7.4357 -0.9903 1.180104062e-38
3.528 -1.9848 -0.5073 1.180104062e-38
3.5574 -1.6029 -0.489 1.180104062e-38
3.6566 -1.2697 -0.4851 1.180104062e-38
3.8259 -0.957 -0.4942 1.180104062e-38
4.0984 -0.6445 -0.5199 1.180104062e-38
4.6621 -0.3121 -0.5855 1.180104062e-38
3.5974 -1.4317 -0.5507 1.180104062e-38
3.9481 -0.8025 -0.573 1.180104062e-38
4.3274 -0.4841 -0.6193 1.180104062e-38
3.6303 -2.492 -0.6263 1.180104062e-38
3.5635 -1.6056 -0.5559 1.180104062e-38
4.107 -0.6458 -0.5913 1.180104062e-38
4.6802 -0.3133 -0.6672 1.180104062e-38
3.568 -2.2222 -0.6693 1.180104062e-38
3.6035 -1.4342 -0.6176 1.180104062e-38
3.9561 -0.8041 -0.6428 1.180104062e-38
3.5696 -1.6084 -0.6234 1.180104062e-38
3.5465 -1.7921 -0.7007 1.180104062e-38
3.743 -1.1155 -0.6887 1.180104062e-38
3.9642 -0.8058 -0.7133 1.180104062e-38
3.5484 -1.9963 -0.7179 1.180104062e-38
3.6752 -1.2762 -0.686 1.180104062e-38
4.7631 -0.3189 -0.8417 1.180104062e-38
-13.6874 -5.0972 -2.8265 1.180104062e-38
-12.5712 -7.4459 -2.8275 1.180104062e-38
-11.8516 -8.5302 -2.8258 1.180104062e-38
-11.0348 -9.5421 -2.8231 1.180104062e-38
4.1814 -3.1533 -1.0135 1.180104062e-38
3.5595 -1.7987 -0.7718 1.180104062e-38
3.6181 -1.44 -0.7536 1.180104062e-38
3.7528 -1.1185 -0.7578 1.180104062e-38
3.9829 -0.8096 -0.7865 1.180104062e-38
4.3985 -0.4921 -0.8565 1.180104062e-38
2.6766 7.4397 -1.5301 1.180104062e-38
-13.4486 -5.7027 -2.8269 1.180104062e-38
-12.2244 -7.9968 -2.8268 1.180104062e-38
-11.4544 -9.0454 -2.8244 1.180104062e-38
3.7055 -2.5437 -0.8698 1.180104062e-38
3.8593 -0.9653 -0.7698 1.180104062e-38
-4.41 -13.1719 -2.9284 1.180104062e-38
-3.2228 -13.5233 -2.9308 1.180104062e-38
-2.0082 -13.7696 -2.9336 1.180104062e-38
3.6323 -2.2622 -0.9021 1.180104062e-38
3.5819 -1.81 -0.8461 1.180104062e-38
4.438 -0.4965 -0.9414 1.180104062e-38
8.2418 11.7241 -3.0213 1.180104062e-38
-11.8274 -6.3113 -2.8262 1.180104062e-38
-11.2164 -7.3374 -2.8257 1.180104062e-38
3.7456 -2.5712 -0.9578 1.180104062e-38
3.5888 -2.019 -0.8681 1.180104062e-38
3.8822 -0.971 -0.8437 1.180104062e-38
5.0103 -0.3354 -1.0586 1.180104062e-38
7.7108 12.0788 -3.0211 1.180104062e-38
3.6046 -1.8215 -0.9218 1.180104062e-38
3.6595 -1.4564 -0.899 1.180104062e-38
2.6774 7.4418 -1.8051 1.180104062e-38
3.7252 -1.2935 -0.9001 1.180104062e-38
4.2095 -0.6619 -0.9726 1.180104062e-38
3.6807 -1.4649 -0.9737 1.180104062e-38
4.0656 -0.8264 -1.0198 1.180104062e-38
3.8622 -2.6512 -1.1515 1.180104062e-38
3.6484 -1.6439 -0.9836 1.180104062e-38
3.7466 -1.301 -0.9748 1.180104062e-38
3.9294 -0.9828 -0.9956 1.180104062e-38
3.7491 -2.335 -1.1638 1.180104062e-38
3.6538 -1.8463 -1.0787 1.180104062e-38
3.7024 -1.4735 -1.05 1.180104062e-38
3.8432 -1.1454 -1.0567 1.180104062e-38
4.0021 -2.7473 -1.2791 1.180104062e-38
3.6706 -2.065 -1.1098 1.180104062e-38
3.9543 -0.9891 -1.0741 1.180104062e-38
4.3126 -0.6781 -1.1503 1.180104062e-38
2.6785 7.4449 -2.2261 1.180104062e-38
4.0017 -1.0009 -1.1606 1.180104062e-38
4.39 -0.6903 -1.2503 1.180104062e-38
3.8984 -2.4279 -1.3749 1.180104062e-38
3.7487 -1.8943 -1.2574 1.180104062e-38
3.7826 -1.5054 -1.2188 1.180104062e-38
3.9311 -1.1716 -1.2281 1.180104062e-38
4.2197 -0.8577 -1.2891 1.180104062e-38
2.6789 7.446 -2.3691 1.180104062e-38
3.7802 -2.1267 -1.2985 1.180104062e-38
3.8487 -1.3364 -1.2197 1.180104062e-38
4.0507 -1.0132 -1.25 1.180104062e-38
4.471 -0.703 -1.355 1.180104062e-38
4.0778 -2.5397 -1.5257 1.180104062e-38
3.8275 -1.5233 -1.3083 1.180104062e-38
4.2873 -0.8714 -1.3894 1.180104062e-38
3.8557 -2.1692 -1.405 1.180104062e-38
3.7984 -1.7115 -1.3231 1.180104062e-38
3.8935 -1.352 -1.3089 1.180104062e-38
4.6184 -0.7262 -1.4847 1.180104062e-38
3.8821 -1.9617 -1.4614 1.180104062e-38
3.8841 -1.5458 -1.4045 1.180104062e-38
4.045 -1.2055 -1.4181 1.180104062e-38
2.6796 7.4481 -2.6595 1.180104062e-38
3.8612 -1.7398 -1.4229 1.180104062e-38
3.9501 -1.3716 -1.4049 1.180104062e-38
4.1813 -1.0458 -1.4481 1.180104062e-38
3.969 -1.5796 -1.5147 1.180104062e-38
4.5732 -0.9296 -1.6548 1.180104062e-38
4.293 -1.0738 -1.5691 1.180104062e-38
4.1655 -2.1049 -1.7427 1.180104062e-38
4.0588 -1.6154 -1.6312 1.180104062e-38
4.0513 -1.8254 -1.6593 1.180104062e-38
4.4675 -1.1174 -1.7196 1.180104062e-38
4.4466 -1.3252 -1.821 1.180104062e-38
4.2996 -1.493 -1.7863 1.180104062e-38
