# .PCD v0.7 - Point Cloud Data file format
VERSION 0.7
FIELDS x y z rgb
SIZE 4 4 4 4
TYPE F F F F
COUNT 1 1 1 1
WIDTH 393
HEIGHT 1
VIEWPOINT 0 0 0 1 0 0 0
POINTS 393
DATA ascii
-5.9407 1.9156 3.6038 1.180104062e-38
-12.9225 1.1547 7.4905 1.180104062e-38
2.4511 6.813 4.0214 1.180104062e-38
-6.423 1.4553 3.6578 1.180104062e-38
5.4088 3.7129 3.5023 1.180104062e-38
5.0154 4.1454 3.4736 1.180104062e-38
2.451 6.8128 3.8652 1.180104062e-38
-6.4974 1.4721 3.5565 1.180104062e-38
6.0322 3.0482 3.608 1.180104062e-38
5.6111 3.4946 3.5289 1.180104062e-38
-10.6088 -1.9113 5.5264 1.180104062e-38
6.254 2.8179 3.5167 1.180104062e-38
5.8928 3.3152 3.4663 1.180104062e-38
5.0299 4.1573 3.3454 1.180104062e-38
4.6201 4.5689 3.3312 1.180104062e-38
-7.0687 0.9506 3.6565 1.180104062e-38
6.4641 2.5726 3.5667 1.180104062e-38
6.064 3.0642 3.4832 1.180104062e-38
-6.8159 1.2279 3.5506 1.180104062e-38
4.6269 4.5756 3.2006 1.180104062e-38
2.4508 6.8122 3.5609 1.180104062e-38
6.9402 2.0684 3.562 1.180104062e-38
6.5862 2.6212 3.4866 1.180104062e-38
4.9017 4.4333 3.2507 1.180104062e-38
2.4508 6.812 3.4125 1.180104062e-38
7.4531 1.5149 3.585 1.180104062e-38
4.4593 4.8213 3.0957 1.180104062e-38
-7.493 0.6696 3.5461 1.180104062e-38
2.4507 6.8118 3.2665 1.180104062e-38
-7.8663 0.3508 3.5529 1.180104062e-38
-8.2803 -0 3.5718 1.180104062e-38
2.4506 6.8115 3.1226 1.180104062e-38
8.1034 0.9065 3.5173 1.180104062e-38
3.593 5.6283 2.8803 1.180104062e-38
3.3818 5.8574 2.7851 1.180104062e-38
2.4505 6.8113 2.9808 1.180104062e-38
8.6975 0.1938 3.5824 1.180104062e-38
3.6347 5.6936 2.7815 1.180104062e-38
-13.0488 -3.5744 5.3099 1.180104062e-38
9.082 -0.2024 3.5653 1.180104062e-38
3.4297 5.9404 2.6921 1.180104062e-38
2.4504 6.8111 2.8409 1.180104062e-38
-8.9754 -0.4002 3.5261 1.180104062e-38
3.1639 6.0915 2.694 1.180104062e-38
2.4504 6.8108 2.7028 1.180104062e-38
3.2133 6.1866 2.6032 1.180104062e-38
2.985 6.4326 2.5145 1.180104062e-38
2.4503 6.8106 2.5665 1.180104062e-38
-9.984 -1.3427 3.572 1.180104062e-38
2.7035 6.5786 2.522 1.180104062e-38
2.7457 6.6812 2.4269 1.180104062e-38
-10.8351 -1.9521 3.4965 1.180104062e-38
2.4501 6.8102 2.2985 1.180104062e-38
2.45 6.81 2.1667 1.180104062e-38
3.1629 -2.8607 1.1999 1.180104062e-38
3.0504 -2.3004 1.0749 1.180104062e-38
3.3164 -2.0655 1.0993 1.180104062e-38
3.0175 -2.494 1.1014 1.180104062e-38
3.1476 -2.1607 1.0742 1.180104062e-38
2.8536 -2.581 1.0139 1.180104062e-38
2.9357 -2.214 0.9689 1.180104062e-38
2.8732 -2.3748 0.9822 1.180104062e-38
3.3405 -1.8794 1.01 1.180104062e-38
-12.7277 -3.4865 3.2437 1.180104062e-38
2.845 -2.1455 0.8759 1.180104062e-38
3.0526 -1.9012 0.8839 1.180104062e-38
3.4562 -1.7465 0.9518 1.180104062e-38
2.4498 6.8093 1.7788 1.180104062e-38
3.219 -1.811 0.9079 1.180104062e-38
2.7367 -2.9588 0.9199 1.180104062e-38
2.4497 6.8091 1.6517 1.180104062e-38
2.7038 -2.2347 0.8006 1.180104062e-38
2.8669 -1.968 0.7937 1.180104062e-38
3.1211 -1.7559 0.8174 1.180104062e-38
2.6082 -2.359 0.7414 1.180104062e-38
3.2296 -1.632 0.7629 1.180104062e-38
2.4496 6.8089 1.5255 1.180104062e-38
2.6548 -2.1943 0.7261 1.180104062e-38
3.0611 -1.7222 0.7405 1.180104062e-38
3.4704 -1.5637 0.8025 1.180104062e-38
2.5599 -2.3153 0.6679 1.180104062e-38
2.6843 -2.0244 0.6506 1.180104062e-38
2.8749 -1.7905 0.6554 1.180104062e-38
3.1575 -1.5956 0.6846 1.180104062e-38
2.5244 -2.4964 0.687 1.180104062e-38
2.7692 -1.901 0.65 1.180104062e-38
2.4607 -2.6604 0.639 1.180104062e-38
2.5136 -2.2735 0.5976 1.180104062e-38
2.6399 -1.9909 0.583 1.180104062e-38
2.5058 -2.9638 0.6843 1.180104062e-38
2.5661 -2.1209 0.587 1.180104062e-38
2.949 -1.6591 0.5966 1.180104062e-38
2.4095 -2.6052 0.5651 1.180104062e-38
2.4797 -2.2428 0.5324 1.180104062e-38
2.6104 -1.9687 0.5206 1.180104062e-38
3.0486 -1.5405 0.5439 1.180104062e-38
2.4318 -2.8764 0.5998 1.180104062e-38
2.4296 -2.4027 0.5441 1.180104062e-38
2.6929 -1.8486 0.5201 1.180104062e-38
3.2282 -1.4546 0.5638 1.180104062e-38
2.3784 -2.5715 0.4982 1.180104062e-38
2.4532 -2.2188 0.4705 1.180104062e-38
2.5847 -1.9492 0.4605 1.180104062e-38
3.0149 -1.5235 0.4805 1.180104062e-38
3.4094 -1.3569 0.5219 1.180104062e-38
2.403 -2.3764 0.4807 1.180104062e-38
2.5112 -2.0756 0.4634 1.180104062e-38
2.8774 -1.6188 0.4696 1.180104062e-38
3.801 -1.3199 0.5723 1.180104062e-38
2.3481 -2.5388 0.4334 1.180104062e-38
2.4273 -2.1954 0.4101 1.180104062e-38
2.5595 -1.9303 0.4017 1.180104062e-38
2.7387 -1.7057 0.4043 1.180104062e-38
2.4493 6.8079 0.9067 1.180104062e-38
2.3406 -2.7684 0.4543 1.180104062e-38
2.3772 -2.3508 0.419 1.180104062e-38
2.8468 -1.6016 0.4093 1.180104062e-38
3.6876 -1.2805 0.4892 1.180104062e-38
2.3416 -3.0341 0.4157 1.180104062e-38
2.4492 6.8077 0.7847 1.180104062e-38
2.3021 -2.7229 0.3867 1.180104062e-38
2.6149 -1.795 0.344 1.180104062e-38
3.1046 -1.3989 0.3693 1.180104062e-38
3.5984 -1.2495 0.4132 1.180104062e-38
2.292 -2.9699 0.3439 1.180104062e-38
2.6862 -1.673 0.2901 1.180104062e-38
2.9191 -1.4751 0.2998 1.180104062e-38
2.4492 6.8075 0.6633 1.180104062e-38
2.2672 -2.6817 0.3219 1.180104062e-38
2.3273 -2.3016 0.3001 1.180104062e-38
2.2667 -2.4507 0.2502 1.180104062e-38
2.3594 -2.134 0.2384 1.180104062e-38
2.6676 -1.6614 0.2355 1.180104062e-38
2.4491 6.8073 0.5421 1.180104062e-38
2.2407 -2.6503 0.2601 1.180104062e-38
2.7664 -1.5564 0.2379 1.180104062e-38
3.0332 -1.3667 0.2493 1.180104062e-38
3.4727 -1.2059 0.2755 1.180104062e-38
2.2515 -2.4343 0.1931 1.180104062e-38
2.3462 -2.122 0.1843 1.180104062e-38
2.4812 -1.8712 0.181 1.180104062e-38
2.3166 -3.2954 0.2346 1.180104062e-38
2.2252 -2.632 0.2007 1.180104062e-38
2.2951 -2.2697 0.188 1.180104062e-38
2.7508 -1.5476 0.1838 1.180104062e-38
3.0127 -1.3575 0.1925 1.180104062e-38
3.4362 -1.1932 0.2119 1.180104062e-38
2.2106 -2.8644 0.1504 1.180104062e-38
2.4685 -1.8616 0.1286 1.180104062e-38
2.64 -1.6442 0.1293 1.180104062e-38
2.8615 -1.446 0.1333 1.180104062e-38
2.4489 6.8069 0.3008 1.180104062e-38
2.2824 -3.2468 0.165 1.180104062e-38
2.2099 -2.6139 0.1423 1.180104062e-38
2.3973 -1.9815 0.1293 1.180104062e-38
2.7355 -1.539 0.1305 1.180104062e-38
2.9934 -1.3488 0.1365 1.180104062e-38
2.3203 -2.0986 0.078 1.180104062e-38
2.4559 -1.8521 0.0767 1.180104062e-38
2.6263 -1.6357 0.0772 1.180104062e-38
2.8453 -1.4378 0.0795 1.180104062e-38
2.4489 6.8067 0.1804 1.180104062e-38
2.1948 -2.5961 0.0848 1.180104062e-38
2.5331 -1.7389 0.0766 1.180104062e-38
2.9761 -1.341 0.0814 1.180104062e-38
3.3726 -1.1711 0.089 1.180104062e-38
2.2075 -2.3867 0.027 1.180104062e-38
2.6129 -1.6273 0.0256 1.180104062e-38
3.6654 -1.0925 0.0318 1.180104062e-38
2.2171 -3.1539 0.032 1.180104062e-38
2.18 -2.5785 0.0281 1.180104062e-38
2.5202 -1.7301 0.0254 1.180104062e-38
2.707 -1.523 0.0258 1.180104062e-38
2.152 -2.7884 -0.0293 1.180104062e-38
2.431 -1.8334 -0.0253 1.180104062e-38
2.5996 -1.6191 -0.0255 1.180104062e-38
3.1097 -1.2377 -0.0278 1.180104062e-38
2.1859 -3.1095 -0.0316 1.180104062e-38
2.3608 -1.9512 -0.0255 1.180104062e-38
2.5075 -1.7213 -0.0253 1.180104062e-38
2.942 -1.3256 -0.0268 1.180104062e-38
3.3115 -1.1499 -0.0291 1.180104062e-38
2.1394 -2.7722 -0.0873 1.180104062e-38
2.4214 -1.8261 -0.0756 1.180104062e-38
3.0943 -1.2315 -0.0831 1.180104062e-38
2.4486 6.8061 -0.1804 1.180104062e-38
2.1671 -3.0828 -0.094 1.180104062e-38
2.6823 -1.5091 -0.0768 1.180104062e-38
2.9293 -1.3199 -0.0801 1.180104062e-38
2.1332 -2.7641 -0.1452 1.180104062e-38
2.2814 -2.0635 -0.1279 1.180104062e-38
2.4174 -1.8231 -0.1259 1.180104062e-38
2.5849 -1.6099 -0.1266 1.180104062e-38
2.7963 -1.413 -0.1303 1.180104062e-38
3.5714 -1.0644 -0.155 1.180104062e-38
2.4486 6.8059 -0.3007 1.180104062e-38
2.1505 -2.5436 -0.1385 1.180104062e-38
2.2307 -2.206 -0.1304 1.180104062e-38
3.2808 -1.1393 -0.1444 1.180104062e-38
2.1271 -2.7561 -0.2028 1.180104062e-38
2.4134 -1.8201 -0.1761 1.180104062e-38
2.5806 -1.6072 -0.1771 1.180104062e-38
3.5602 -1.0611 -0.2164 1.180104062e-38
2.4485 6.8057 -0.4213 1.180104062e-38
2.1472 -3.0545 -0.2175 1.180104062e-38
2.3437 -1.9371 -0.1771 1.180104062e-38
2.9184 -1.315 -0.1864 1.180104062e-38
3.2712 -1.1359 -0.2017 1.180104062e-38
2.1209 -2.7482 -0.2601 1.180104062e-38
2.2733 -2.0561 -0.2297 1.180104062e-38
2.5763 -1.6046 -0.2275 1.180104062e-38
2.141 -2.5324 -0.2485 1.180104062e-38
2.2226 -2.198 -0.2343 1.180104062e-38
2.4852 -1.706 -0.2259 1.180104062e-38
2.913 -1.3125 -0.2394 1.180104062e-38
2.572 -1.6019 -0.2778 1.180104062e-38
2.7811 -1.4053 -0.2857 1.180104062e-38
3.0671 -1.2207 -0.3026 1.180104062e-38
3.5379 -1.0544 -0.3384 1.180104062e-38
2.2186 -2.194 -0.2861 1.180104062e-38
2.9075 -1.3101 -0.2924 1.180104062e-38
3.2542 -1.13 -0.3158 1.180104062e-38
2.1087 -2.7323 -0.3744 1.180104062e-38
2.1616 -2.3371 -0.3453 1.180104062e-38
2.2652 -2.0488 -0.3313 1.180104062e-38
2.4015 -1.8111 -0.3263 1.180104062e-38
2.5678 -1.5992 -0.3281 1.180104062e-38
3.0603 -1.218 -0.3573 1.180104062e-38
2.2145 -2.19 -0.3378 1.180104062e-38
2.332 -1.9275 -0.3282 1.180104062e-38
2.477 -1.7004 -0.3259 1.180104062e-38
2.9021 -1.3077 -0.3453 1.180104062e-38
3.2467 -1.1274 -0.3728 1.180104062e-38
2.1094 -2.7333 -0.4327 1.180104062e-38
2.5635 -1.5966 -0.3785 1.180104062e-38
3.5369 -1.0541 -0.4625 1.180104062e-38
2.4482 6.8049 -0.9063 1.180104062e-38
2.1279 -3.027 -0.4637 1.180104062e-38
2.2105 -2.186 -0.3896 1.180104062e-38
2.4729 -1.6976 -0.3759 1.180104062e-38
2.8967 -1.3052 -0.3982 1.180104062e-38
3.2464 -1.1273 -0.4307 1.180104062e-38
2.2623 -2.0462 -0.4339 1.180104062e-38
2.3976 -1.8082 -0.4271 1.180104062e-38
2.5639 -1.5968 -0.4296 1.180104062e-38
3.0629 -1.219 -0.4689 1.180104062e-38
2.4481 6.8047 -1.0286 1.180104062e-38
2.138 -3.0414 -0.5288 1.180104062e-38
2.2129 -2.1884 -0.4427 1.180104062e-38
2.3286 -1.9247 -0.4297 1.180104062e-38
2.4729 -1.6975 -0.4266 1.180104062e-38
2.9014 -1.3073 -0.4526 1.180104062e-38
2.1219 -2.7494 -0.553 1.180104062e-38
2.5683 -1.5996 -0.4818 1.180104062e-38
2.4481 6.8045 -1.1515 1.180104062e-38
2.1387 -2.5296 -0.5275 1.180104062e-38
2.217 -2.1924 -0.4965 1.180104062e-38
2.3326 -1.9279 -0.4819 1.180104062e-38
2.4771 -1.7004 -0.4784 1.180104062e-38
2.6611 -1.4971 -0.4862 1.180104062e-38
2.907 -1.3098 -0.5077 1.180104062e-38
2.1696 -2.3458 -0.5634 1.180104062e-38
2.7841 -1.4069 -0.55 1.180104062e-38
3.5728 -1.0648 -0.6574 1.180104062e-38
2.448 6.8043 -1.2751 1.180104062e-38
2.1587 -3.0708 -0.6619 1.180104062e-38
2.1435 -2.5353 -0.5854 1.180104062e-38
2.3366 -1.9312 -0.5345 1.180104062e-38
2.4813 -1.7033 -0.5307 1.180104062e-38
2.6657 -1.4997 -0.5393 1.180104062e-38
-14.0513 -3.849 -2.8194 1.180104062e-38
-13.143 -6.2779 -2.8187 1.180104062e-38
2.1346 -2.7659 -0.6761 1.180104062e-38
2.1738 -2.3503 -0.6195 1.180104062e-38
2.2747 -2.0574 -0.5935 1.180104062e-38
2.4099 -1.8174 -0.5841 1.180104062e-38
2.5772 -1.6051 -0.5875 1.180104062e-38
2.7895 -1.4096 -0.6048 1.180104062e-38
2.4479 6.8041 -1.3993 1.180104062e-38
2.1693 -3.0859 -0.73 1.180104062e-38
2.1484 -2.5411 -0.6439 1.180104062e-38
2.3406 -1.9346 -0.5876 1.180104062e-38
2.4856 -1.7063 -0.5834 1.180104062e-38
2.6703 -1.5023 -0.5929 1.180104062e-38
2.9184 -1.315 -0.6195 1.180104062e-38
3.2831 -1.1401 -0.6726 1.180104062e-38
2.2789 -2.0612 -0.6478 1.180104062e-38
2.414 -1.8205 -0.6374 1.180104062e-38
2.7949 -1.4123 -0.6602 1.180104062e-38
3.0918 -1.2305 -0.7015 1.180104062e-38
2.1533 -2.5469 -0.7031 1.180104062e-38
2.3447 -1.9379 -0.6413 1.180104062e-38
2.4899 -1.7092 -0.6367 1.180104062e-38
2.6751 -1.505 -0.6471 1.180104062e-38
2.9242 -1.3176 -0.6762 1.180104062e-38
3.2937 -1.1437 -0.735 1.180104062e-38
2.1629 -2.8026 -0.808 1.180104062e-38
2.2832 -2.065 -0.7027 1.180104062e-38
2.4182 -1.8237 -0.6913 1.180104062e-38
2.8003 -1.4151 -0.7161 1.180104062e-38
3.7049 -1.1042 -0.8824 1.180104062e-38
2.4478 6.8037 -1.6503 1.180104062e-38
2.2337 -2.209 -0.717 1.180104062e-38
2.3487 -1.9413 -0.6955 1.180104062e-38
2.4943 -1.7122 -0.6905 1.180104062e-38
2.6798 -1.5076 -0.7018 1.180104062e-38
3.3259 -1.1549 -0.8036 1.180104062e-38
2.186 -2.8325 -0.8794 1.180104062e-38
2.1981 -2.3766 -0.7957 1.180104062e-38
2.2904 -2.0716 -0.7591 1.180104062e-38
2.4231 -1.8274 -0.746 1.180104062e-38
2.8123 -1.4211 -0.7745 1.180104062e-38
3.7802 -1.1266 -0.9696 1.180104062e-38
2.4477 6.8035 -1.7772 1.180104062e-38
2.1794 -2.5778 -0.8297 1.180104062e-38
2.4991 -1.7156 -0.7451 1.180104062e-38
2.9471 -1.3279 -0.7945 1.180104062e-38
2.2097 -2.8632 -0.953 1.180104062e-38
2.3048 -2.0846 -0.8189 1.180104062e-38
2.6075 -1.624 -0.8094 1.180104062e-38
3.1547 -1.2556 -0.8947 1.180104062e-38
3.8593 -1.1502 -1.0611 1.180104062e-38
2.3292 -3.3134 -1.0672 1.180104062e-38
2.1967 -2.5983 -0.8965 1.180104062e-38
2.2581 -2.2331 -0.8368 1.180104062e-38
2.3681 -1.9573 -0.8095 1.180104062e-38
2.9669 -1.3368 -0.8575 1.180104062e-38
3.4012 -1.1811 -0.9487 1.180104062e-38
2.2342 -2.8949 -1.0289 1.180104062e-38
2.232 -2.4133 -0.9249 1.180104062e-38
2.3196 -2.098 -0.88 1.180104062e-38
2.4516 -1.8488 -0.8639 1.180104062e-38
2.6231 -1.6337 -0.8695 1.180104062e-38
2.8495 -1.4399 -0.8983 1.180104062e-38
3.1809 -1.266 -0.9632 1.180104062e-38
2.2729 -2.2477 -0.8994 1.180104062e-38
2.3822 -1.969 -0.8695 1.180104062e-38
2.5286 -1.7358 -0.8629 1.180104062e-38
2.9871 -1.3459 -0.9218 1.180104062e-38
3.4406 -1.1947 -1.0247 1.180104062e-38
2.2724 -2.9444 -1.1135 1.180104062e-38
2.2496 -2.4323 -0.9919 1.180104062e-38
2.4475 6.8029 -2.1644 1.180104062e-38
2.288 -2.2626 -0.9633 1.180104062e-38
2.3966 -1.9808 -0.9308 1.180104062e-38
3.4982 -1.2147 -1.1086 1.180104062e-38
2.3366 -3.0277 -1.2146 1.180104062e-38
2.6553 -1.6537 -0.9935 1.180104062e-38
2.8884 -1.4596 -1.0278 1.180104062e-38
2.4113 -1.993 -0.9935 1.180104062e-38
3.0346 -1.3673 -1.057 1.180104062e-38
2.3022 -2.4891 -1.1392 1.180104062e-38
2.4967 -1.8829 -1.0506 1.180104062e-38
2.9152 -1.4732 -1.0974 1.180104062e-38
2.4473 6.8024 -2.4289 1.180104062e-38
2.3251 -2.2994 -1.0987 1.180104062e-38
2.4263 -2.0054 -1.0576 1.180104062e-38
2.5754 -1.7679 -1.0495 1.180104062e-38
3.0799 -1.3878 -1.135 1.180104062e-38
3.7335 -1.2964 -1.3279 1.180104062e-38
2.5227 -1.9025 -1.1204 1.180104062e-38
2.3571 -2.331 -1.1755 1.180104062e-38
3.1329 -1.4116 -1.2184 1.180104062e-38
2.3811 -2.5744 -1.3094 1.180104062e-38
2.4311 -2.1988 -1.224 1.180104062e-38
2.5544 -1.9264 -1.1947 1.180104062e-38
2.7361 -1.7041 -1.2037 1.180104062e-38
2.9984 -1.5152 -1.2545 1.180104062e-38
3.4817 -1.3857 -1.3993 1.180104062e-38
2.4472 6.802 -2.6993 1.180104062e-38
2.4364 -2.8819 -1.4092 1.180104062e-38
2.3904 -2.364 -1.2554 1.180104062e-38
2.4845 -2.0535 -1.2036 1.180104062e-38
2.4655 -2.2299 -1.3047 1.180104062e-38
2.5873 -1.9512 -1.2718 1.180104062e-38
3.0426 -1.5375 -1.338 1.180104062e-38
3.7431 -1.4897 -1.5811 1.180104062e-38
2.4251 -2.3983 -1.3386 1.180104062e-38
2.6689 -1.8321 -1.2705 1.180104062e-38
2.6215 -1.977 -1.352 1.180104062e-38
2.4872 -2.4597 -1.4404 1.180104062e-38
2.5502 -2.1078 -1.3624 1.180104062e-38
2.5748 -2.5463 -1.562 1.180104062e-38
2.6105 -2.1576 -1.4609 1.180104062e-38
2.7634 -1.897 -1.4458 1.180104062e-38
3.0229 -1.7007 -1.4962 1.180104062e-38
2.951 -1.8379 -1.5687 1.180104062e-38
2.7317 -2.7014 -1.7335 1.180104062e-38
3.1126 -1.7511 -1.6115 1.180104062e-38
2.8346 -2.5638 -1.8016 1.180104062e-38
3.0678 -1.9107 -1.7036 1.180104062e-38
2.7966 -2.3114 -1.7102 1.180104062e-38
3.3076 -1.8608 -1.7889 1.180104062e-38
