# .PCD v0.7 - Point Cloud Data file format
VERSION 0.7
FIELDS x y z rgb
SIZE 4 4 4 4
TYPE F F F F
COUNT 1 1 1 1
WIDTH 200
HEIGHT 1
VIEWPOINT 0 0 0 1 0 0 0
POINTS 200
DATA ascii
3.7546 8.0909 5.1497 1.180104062e-38
-6.2626 -7.0813 5.4579 1.180104062e-38
4.9575 7.7658 5.3193 1.180104062e-38
4.1361 7.9635 5.1809 1.180104062e-38
7.0578 6.9796 5.5129 1.180104062e-38
3.0072 8.3588 4.9337 1.180104062e-38
-10.1636 -8.0261 7.1927 1.180104062e-38
-4.9766 -4.3035 3.5123 1.180104062e-38
2.2578 8.6181 4.756 1.180104062e-38
7.6097 6.8825 5.4774 1.180104062e-38
-6.8807 -8.5164 5.1609 1.180104062e-38
-5.3616 -5.071 3.4787 1.180104062e-38
-6.1072 -6.9056 3.4424 1.180104062e-38
7.0314 6.9535 3.5065 1.180104062e-38
5.3023 7.5426 3.2692 1.180104062e-38
4.5081 7.8082 3.197 1.180104062e-38
-6.2417 -7.0576 3.3408 1.180104062e-38
7.4823 6.7674 3.5773 1.180104062e-38
4.5174 7.8243 3.0355 1.180104062e-38
3.7392 8.0577 2.9845 1.180104062e-38
-6.4832 -7.3307 3.288 1.180104062e-38
8.5115 6.4188 3.5817 1.180104062e-38
4.1108 7.9146 2.9964 1.180104062e-38
3.7491 8.079 2.8286 1.180104062e-38
2.9993 8.3367 2.8137 1.180104062e-38
9.673 6.0244 3.6191 1.180104062e-38
3.3554 8.1649 2.8035 1.180104062e-38
10.3457 5.8204 3.5538 1.180104062e-38
-6.7451 -8.3485 3.0198 1.180104062e-38
2.2385 8.5444 2.4852 1.180104062e-38
-7.7034 -10.4552 3.6539 1.180104062e-38
-7.7035 -10.4553 3.422 1.180104062e-38
-7.5942 -10.3069 2.4775 1.180104062e-38
-7.7038 -10.4556 2.29 1.180104062e-38
7.0805 0.474 1.13 1.180104062e-38
7.0092 0.7841 1.1231 1.180104062e-38
6.8405 1.0756 0.9849 1.180104062e-38
-7.7039 -10.4558 1.8473 1.180104062e-38
7.0166 0.1563 0.9983 1.180104062e-38
6.779 0.7583 0.9702 1.180104062e-38
7.1026 1.4437 1.0309 1.180104062e-38
7.176 -0.1599 0.8995 1.180104062e-38
6.6582 1.0469 0.8446 1.180104062e-38
-7.7039 -10.4558 1.6275 1.180104062e-38
6.6146 0.7399 0.8341 1.180104062e-38
6.8236 1.3869 0.8726 1.180104062e-38
7.039 1.7605 0.787 1.180104062e-38
-7.704 -10.4559 1.4087 1.180104062e-38
6.6871 0.149 0.7255 1.180104062e-38
6.5133 0.7286 0.7109 1.180104062e-38
6.6733 1.3564 0.7386 1.180104062e-38
6.8051 1.7021 0.6431 1.180104062e-38
-7.704 -10.456 1.1907 1.180104062e-38
7.3487 -0.4919 0.6752 1.180104062e-38
6.5476 1.3308 0.6125 1.180104062e-38
6.688 -0.149 0.5013 1.180104062e-38
6.3913 0.4278 0.48 1.180104062e-38
-7.7041 -10.456 0.9733 1.180104062e-38
6.4934 0.1447 0.4867 1.180104062e-38
6.3325 0.4239 0.3696 1.180104062e-38
6.3059 0.9916 0.3718 1.180104062e-38
6.5734 1.6441 0.3946 1.180104062e-38
6.5321 -0.1456 0.2717 1.180104062e-38
-7.7042 -10.4562 0.54 1.180104062e-38
6.8311 -0.4573 0.2847 1.180104062e-38
6.2354 0.6975 0.2609 1.180104062e-38
6.3197 1.2845 0.2681 1.180104062e-38
6.8818 2.051 0.2986 1.180104062e-38
6.217 0.9776 0.1569 1.180104062e-38
6.4295 1.6081 0.1653 1.180104062e-38
-7.7042 -10.4563 0.3239 1.180104062e-38
6.7606 -0.4526 0.169 1.180104062e-38
6.3364 0.1412 0.1581 1.180104062e-38
6.2035 0.694 0.1557 1.180104062e-38
6.2842 1.2773 0.1599 1.180104062e-38
6.7862 2.0225 0.1766 1.180104062e-38
7.3746 -0.825 0.0617 1.180104062e-38
6.2137 0.4159 0.0518 1.180104062e-38
6.1851 0.9726 0.052 1.180104062e-38
6.7075 -0.449 0.0559 1.180104062e-38
6.3028 0.1405 0.0524 1.180104062e-38
6.1722 0.6905 0.0516 1.180104062e-38
6.2492 1.2702 0.053 1.180104062e-38
6.7074 1.999 0.0582 1.180104062e-38
6.4158 -0.143 -0.0533 1.180104062e-38
6.1535 0.9676 -0.0518 1.180104062e-38
6.3465 1.5874 -0.0544 1.180104062e-38
6.1413 0.687 -0.0514 1.180104062e-38
6.2146 1.2632 -0.0527 1.180104062e-38
7.1747 -0.8026 -0.18 1.180104062e-38
6.1421 0.9658 -0.1551 1.180104062e-38
6.3323 1.5838 -0.1628 1.180104062e-38
-7.7044 -10.4565 -0.3239 1.180104062e-38
6.6429 -0.4447 -0.166 1.180104062e-38
6.2576 0.1394 -0.1561 1.180104062e-38
6.1301 0.6857 -0.1538 1.180104062e-38
7.1386 -0.7986 -0.2987 1.180104062e-38
6.1611 0.4124 -0.2567 1.180104062e-38
6.1319 0.9642 -0.2581 1.180104062e-38
6.6273 -0.4437 -0.2762 1.180104062e-38
6.2469 0.1392 -0.2598 1.180104062e-38
6.1201 0.6846 -0.2561 1.180104062e-38
6.581 1.9613 -0.2855 1.180104062e-38
7.1141 -0.7958 -0.4169 1.180104062e-38
6.1218 0.9626 -0.3609 1.180104062e-38
6.6118 -0.4426 -0.386 1.180104062e-38
6.1101 0.6835 -0.3581 1.180104062e-38
6.1801 1.2561 -0.3673 1.180104062e-38
6.5567 1.9541 -0.3985 1.180104062e-38
7.1509 -0.7999 -0.5392 1.180104062e-38
6.384 -0.1423 -0.4785 1.180104062e-38
6.1534 0.4119 -0.4622 1.180104062e-38
-7.7045 -10.4567 -0.9734 1.180104062e-38
6.1122 0.6837 -0.4609 1.180104062e-38
6.5815 1.9615 -0.5146 1.180104062e-38
7.1882 -0.8041 -0.6631 1.180104062e-38
6.1348 0.9646 -0.5693 1.180104062e-38
-7.7046 -10.4567 -1.1908 1.180104062e-38
6.2505 0.1393 -0.5732 1.180104062e-38
6.1223 0.6849 -0.5648 1.180104062e-38
6.1959 1.2594 -0.5796 1.180104062e-38
6.607 1.9691 -0.632 1.180104062e-38
7.2605 -0.8122 -0.7924 1.180104062e-38
6.1453 0.9663 -0.6747 1.180104062e-38
6.3415 1.5861 -0.709 1.180104062e-38
-7.7046 -10.4568 -1.4088 1.180104062e-38
6.6558 -0.4455 -0.7235 1.180104062e-38
6.2615 0.1395 -0.6793 1.180104062e-38
6.1325 0.686 -0.6693 1.180104062e-38
6.4383 -0.1435 -0.807 1.180104062e-38
6.192 0.4145 -0.7777 1.180104062e-38
-7.7047 -10.4569 -1.6277 1.180104062e-38
6.2829 0.14 -0.7875 1.180104062e-38
6.2315 1.2666 -0.7969 1.180104062e-38
6.7228 2.0036 -0.8791 1.180104062e-38
6.4792 -0.1444 -0.9218 1.180104062e-38
6.4213 1.6061 -0.9415 1.180104062e-38
6.7586 -0.4524 -0.9635 1.180104062e-38
6.3183 0.1408 -0.8989 1.180104062e-38
6.1828 0.6917 -0.8849 1.180104062e-38
6.4701 1.6183 -1.062 1.180104062e-38
-7.7048 -10.457 -2.0683 1.180104062e-38
6.8404 -0.4579 -1.0917 1.180104062e-38
6.2164 0.6954 -0.9961 1.180104062e-38
6.5908 -0.1469 -1.1624 1.180104062e-38
6.2797 0.9874 -1.1209 1.180104062e-38
-7.7048 -10.4571 -2.2903 1.180104062e-38
6.98 -0.4673 -1.2335 1.180104062e-38
6.3647 1.2937 -1.1452 1.180104062e-38
-13.2571 -6.3324 -2.8431 1.180104062e-38
-12.647 -7.4908 -2.8445 1.180104062e-38
-11.9363 -8.5912 -2.846 1.180104062e-38
-11.1246 -9.6198 -2.8461 1.180104062e-38
-10.1904 -10.5368 -2.8367 1.180104062e-38
-9.1826 -11.3654 -2.8276 1.180104062e-38
-8.1019 -12.0889 -2.8162 1.180104062e-38
-6.9858 -12.7475 -2.813 1.180104062e-38
-5.7881 -13.2376 -2.7959 1.180104062e-38
6.3686 0.4263 -1.2352 1.180104062e-38
6.6884 1.6729 -1.3342 1.180104062e-38
-12.3041 -8.049 -2.8453 1.180104062e-38
-11.5444 -9.1165 -2.8467 1.180104062e-38
-9.6967 -10.9642 -2.8325 1.180104062e-38
-5.1858 -13.4646 -2.7922 1.180104062e-38
6.4761 0.1443 -1.2536 1.180104062e-38
6.3258 0.7076 -1.2318 1.180104062e-38
-11.6432 -6.8963 -2.8529 1.180104062e-38
-10.9476 -7.8796 -2.8436 1.180104062e-38
-9.384 -9.7029 -2.8457 1.180104062e-38
-8.4845 -10.5014 -2.8462 1.180104062e-38
-11.2852 -7.3824 -2.843 1.180104062e-38
-9.8054 -9.2738 -2.8453 1.180104062e-38
-8.9436 -10.1127 -2.8461 1.180104062e-38
-7.7049 -10.4572 -2.7384 1.180104062e-38
-7.0075 -11.5359 -2.8455 1.180104062e-38
-5.9471 -12.1019 -2.8427 1.180104062e-38
-4.8201 -12.5151 -2.8274 1.180104062e-38
6.5543 0.1461 -1.3821 1.180104062e-38
6.3923 0.7151 -1.356 1.180104062e-38
6.5453 1.3304 -1.4081 1.180104062e-38
-8.661 -8.9554 -2.8435 1.180104062e-38
-7.8313 -9.6929 -2.8442 1.180104062e-38
-6.9375 -10.3515 -2.8442 1.180104062e-38
-5.9855 -10.9221 -2.8427 1.180104062e-38
-4.9855 -11.4021 -2.8403 1.180104062e-38
6.9956 -0.1559 -1.5971 1.180104062e-38
6.5462 0.4382 -1.4975 1.180104062e-38
-9.7732 -7.7178 -2.8423 1.180104062e-38
-9.05 -8.5595 -2.8431 1.180104062e-38
-7.3923 -10.0328 -2.8444 1.180104062e-38
-6.4682 -10.648 -2.8436 1.180104062e-38
-5.4908 -11.1734 -2.8415 1.180104062e-38
6.6911 0.1491 -1.5276 1.180104062e-38
6.6966 1.3611 -1.5597 1.180104062e-38
-5.5548 -10.1362 -2.8411 1.180104062e-38
6.8658 0.153 -1.688 1.180104062e-38
6.6195 0.7405 -1.6372 1.180104062e-38
6.9522 1.4131 -1.7438 1.180104062e-38
6.8969 0.4617 -1.8214 1.180104062e-38
7.2504 0.1616 -1.911 1.180104062e-38
