# .PCD v0.7 - Point Cloud Data file format
VERSION 0.7
FIELDS x y z rgb
SIZE 4 4 4 4
TYPE F F F F
COUNT 1 1 1 1
WIDTH 368
HEIGHT 1
VIEWPOINT 0 0 0 1 0 0 0
POINTS 368
DATA ascii
-12.9119 0 7.4547 1.180104062e-38
-6.0745 1.0944 3.5636 1.180104062e-38
-6.3492 0.8539 3.5581 1.180104062e-38
2.5398 7.0594 4.0051 1.180104062e-38
-6.6326 0.5927 3.5549 1.180104062e-38
2.5397 7.0592 3.8461 1.180104062e-38
-6.9323 0.3091 3.5575 1.180104062e-38
-7.2535 0 3.5677 1.180104062e-38
6.3087 3.5492 3.5603 1.180104062e-38
5.3707 4.439 3.4271 1.180104062e-38
2.5396 7.0589 3.6898 1.180104062e-38
6.5919 3.331 3.6327 1.180104062e-38
6.0734 3.7825 3.5192 1.180104062e-38
5.6144 4.234 3.4587 1.180104062e-38
5.1383 4.6473 3.4077 1.180104062e-38
-7.6114 -0.3394 3.5914 1.180104062e-38
7.0973 2.8247 3.6007 1.180104062e-38
6.6004 3.3353 3.486 1.180104062e-38
5.185 4.6896 3.2955 1.180104062e-38
4.4604 5.2757 3.1173 1.180104062e-38
4.7191 5.1022 3.136 1.180104062e-38
4.2394 5.4932 3.1309 1.180104062e-38
-8.1392 -0.7273 3.5249 1.180104062e-38
7.9866 1.9976 3.5512 1.180104062e-38
4.0008 5.6911 3.0008 1.180104062e-38
2.5394 7.0583 3.2357 1.180104062e-38
7.7592 2.3125 3.4924 1.180104062e-38
4.2471 5.5031 2.9985 1.180104062e-38
8.3624 1.6997 3.5139 1.180104062e-38
-9.0368 -1.6281 3.6038 1.180104062e-38
3.8273 5.9954 2.7916 1.180104062e-38
3.3042 6.3618 2.8135 1.180104062e-38
-9.2563 -1.6676 3.5121 1.180104062e-38
9.4788 0.6345 3.5474 1.180104062e-38
9.9751 0.2223 3.5379 1.180104062e-38
2.7984 6.8096 2.6105 1.180104062e-38
-10.4067 -2.8507 3.6253 1.180104062e-38
2.5335 7.042 2.5144 1.180104062e-38
2.5389 7.057 2.3818 1.180104062e-38
-11.273 -3.6351 3.546 1.180104062e-38
3.8189 -2.3784 1.1855 1.180104062e-38
3.8649 -1.953 1.141 1.180104062e-38
2.5387 7.0565 1.9761 1.180104062e-38
3.7875 -2.1308 1.1451 1.180104062e-38
4.0566 -1.8278 1.1724 1.180104062e-38
3.6709 -1.855 1.011 1.180104062e-38
4.02 -1.5999 1.0635 1.180104062e-38
2.5386 7.0563 1.8433 1.180104062e-38
3.589 -2.0191 1.0122 1.180104062e-38
-12.4621 -4.641 3.0352 1.180104062e-38
3.5915 -2.7085 1.0267 1.180104062e-38
3.4443 -2.1451 0.9261 1.180104062e-38
3.5625 -1.8002 0.911 1.180104062e-38
3.8584 -1.5356 0.9478 1.180104062e-38
2.5386 7.0561 1.7115 1.180104062e-38
3.483 -1.9595 0.9121 1.180104062e-38
3.684 -1.6599 0.9223 1.180104062e-38
3.3924 -2.5583 0.8958 1.180104062e-38
3.3431 -2.0821 0.8303 1.180104062e-38
3.4685 -1.7527 0.8193 1.180104062e-38
2.5385 7.0559 1.5809 1.180104062e-38
3.3907 -1.9076 0.8202 1.180104062e-38
3.9595 -1.3749 0.8836 1.180104062e-38
3.4101 -1.7232 0.7394 1.180104062e-38
4.1312 -1.2312 0.8342 1.180104062e-38
2.5384 7.0557 1.4511 1.180104062e-38
3.258 -2.2365 0.7647 1.180104062e-38
3.3336 -1.8754 0.7402 1.180104062e-38
3.5161 -1.5843 0.7463 1.180104062e-38
3.1963 -2.4104 0.7059 1.180104062e-38
3.2273 -2.01 0.6704 1.180104062e-38
3.3541 -1.6949 0.6626 1.180104062e-38
3.9984 -1.1917 0.7357 1.180104062e-38
2.5384 7.0555 1.3222 1.180104062e-38
3.1943 -2.1928 0.6832 1.180104062e-38
3.2787 -1.8446 0.6633 1.180104062e-38
3.4381 -3.1096 0.7382 1.180104062e-38
3.1728 -1.9761 0.5952 1.180104062e-38
2.5383 7.0553 1.194 1.180104062e-38
3.1797 -2.6281 0.6569 1.180104062e-38
3.1334 -2.151 0.6052 1.180104062e-38
3.2259 -1.8149 0.5894 1.180104062e-38
3.3989 -1.5315 0.5936 1.180104062e-38
3.6789 -1.2774 0.6201 1.180104062e-38
4.3028 -1.0762 0.7063 1.180104062e-38
3.2301 -2.9214 0.6195 1.180104062e-38
3.1335 -1.9516 0.5251 1.180104062e-38
3.2625 -1.6486 0.5199 1.180104062e-38
3.4667 -1.3797 0.5307 1.180104062e-38
2.5382 7.0551 1.0665 1.180104062e-38
3.1022 -2.564 0.5725 1.180104062e-38
3.0905 -2.1215 0.5332 1.180104062e-38
3.1891 -1.7942 0.5205 1.180104062e-38
4.1342 -1.034 0.6062 1.180104062e-38
3.0443 -2.2958 0.4778 1.180104062e-38
3.1018 -1.9318 0.4579 1.180104062e-38
3.231 -1.6327 0.4537 1.180104062e-38
3.762 -1.1212 0.4919 1.180104062e-38
2.5382 7.055 0.9396 1.180104062e-38
3.324 -1.4977 0.4569 1.180104062e-38
4.0315 -1.0083 0.5208 1.180104062e-38
3.0093 -2.2695 0.4088 1.180104062e-38
3.3975 -1.3522 0.3966 1.180104062e-38
4.4497 -0.9044 0.4925 1.180104062e-38
3.2913 -1.483 0.3916 1.180104062e-38
3.1701 -1.6019 0.3256 1.180104062e-38
3.6616 -1.0913 0.3503 1.180104062e-38
4.3009 -0.8742 0.4024 1.180104062e-38
2.538 7.0546 0.6873 1.180104062e-38
3.2403 -3.2044 0.4178 1.180104062e-38
2.9708 -2.4555 0.3533 1.180104062e-38
3.2594 -1.4686 0.3277 1.180104062e-38
3.4996 -1.2152 0.3396 1.180104062e-38
3.3315 -1.3259 0.2687 1.180104062e-38
2.538 7.0544 0.5618 1.180104062e-38
2.9313 -2.4228 0.285 1.180104062e-38
3.0705 -1.7275 0.264 1.180104062e-38
3.8371 -0.9597 0.2964 1.180104062e-38
2.9382 -2.6575 0.2307 1.180104062e-38
3.1252 -1.5792 0.2039 1.180104062e-38
3.3131 -1.3186 0.2077 1.180104062e-38
3.5874 -1.0692 0.218 1.180104062e-38
2.5379 7.0542 0.4366 1.180104062e-38
2.9515 -2.0261 0.2085 1.180104062e-38
3.0547 -1.7186 0.2041 1.180104062e-38
2.9151 -2.6365 0.1634 1.180104062e-38
2.9045 -2.1904 0.1513 1.180104062e-38
2.9794 -1.8556 0.1459 1.180104062e-38
3.5656 -1.0627 0.1547 1.180104062e-38
2.5379 7.0541 0.3117 1.180104062e-38
2.8908 -2.3893 0.1559 1.180104062e-38
3.1945 -1.4394 0.1457 1.180104062e-38
3.4187 -1.1871 0.1505 1.180104062e-38
3.7696 -0.9428 0.1616 1.180104062e-38
2.8923 -2.6159 0.0973 1.180104062e-38
2.8869 -2.1771 0.0902 1.180104062e-38
3.0934 -1.5632 0.0864 1.180104062e-38
3.5441 -1.0563 0.0922 1.180104062e-38
4.021 -0.8173 0.1023 1.180104062e-38
2.9715 -2.9386 0.1042 1.180104062e-38
2.8728 -2.3744 0.0929 1.180104062e-38
3.1779 -1.4319 0.0869 1.180104062e-38
3.7418 -0.9359 0.0962 1.180104062e-38
4.8129 -0.7568 0.1215 1.180104062e-38
2.8699 -2.5957 0.0322 1.180104062e-38
2.948 -1.836 0.0289 1.180104062e-38
3.0778 -1.5553 0.0287 1.180104062e-38
3.2608 -1.2978 0.0292 1.180104062e-38
3.5229 -1.0499 0.0306 1.180104062e-38
2.5377 7.0537 0.0623 1.180104062e-38
2.9041 -1.9936 0.0293 1.180104062e-38
2.8524 -2.1511 -0.0297 1.180104062e-38
3.0624 -1.5475 -0.0285 1.180104062e-38
2.5377 7.0535 -0.0623 1.180104062e-38
2.906 -2.8738 -0.034 1.180104062e-38
2.8374 -2.3451 -0.0306 1.180104062e-38
2.8887 -1.983 -0.0291 1.180104062e-38
2.9932 -1.6839 -0.0285 1.180104062e-38
3.145 -1.4171 -0.0287 1.180104062e-38
3.3593 -1.1665 -0.0296 1.180104062e-38
4.419 -0.6948 -0.0372 1.180104062e-38
3.1334 -3.3878 -0.1151 1.180104062e-38
2.8345 -2.5636 -0.0953 1.180104062e-38
2.8411 -2.1425 -0.0887 1.180104062e-38
3.0515 -1.542 -0.0853 1.180104062e-38
3.4878 -1.0395 -0.0908 1.180104062e-38
2.5376 7.0533 -0.1869 1.180104062e-38
2.8261 -2.3359 -0.0914 1.180104062e-38
2.8782 -1.9758 -0.0871 1.180104062e-38
2.9826 -1.678 -0.0853 1.180104062e-38
2.8273 -2.5571 -0.1585 1.180104062e-38
2.8355 -2.1383 -0.1477 1.180104062e-38
3.0465 -1.5394 -0.1419 1.180104062e-38
3.2264 -1.2841 -0.1444 1.180104062e-38
3.481 -1.0375 -0.151 1.180104062e-38
3.9024 -0.7932 -0.1656 1.180104062e-38
2.5375 7.0532 -0.3117 1.180104062e-38
2.8204 -2.3311 -0.1521 1.180104062e-38
2.9777 -1.6753 -0.1421 1.180104062e-38
3.1283 -1.4095 -0.1427 1.180104062e-38
3.3395 -1.1596 -0.147 1.180104062e-38
3.6612 -0.9157 -0.1569 1.180104062e-38
4.3478 -0.6837 -0.183 1.180104062e-38
2.8202 -2.5507 -0.2215 1.180104062e-38
2.8299 -2.1341 -0.2064 1.180104062e-38
2.9119 -1.8135 -0.1998 1.180104062e-38
3.4743 -1.0354 -0.2112 1.180104062e-38
3.8898 -0.7906 -0.2312 1.180104062e-38
2.5375 7.053 -0.4366 1.180104062e-38
2.9729 -1.6725 -0.1987 1.180104062e-38
3.3332 -1.1574 -0.2055 1.180104062e-38
3.6526 -0.9136 -0.2193 1.180104062e-38
3.063 -3.3117 -0.3381 1.180104062e-38
2.8243 -2.1299 -0.2651 1.180104062e-38
2.9069 -1.8104 -0.2566 1.180104062e-38
3.0365 -1.5344 -0.255 1.180104062e-38
2.8565 -2.8248 -0.3011 1.180104062e-38
2.809 -2.3217 -0.2731 1.180104062e-38
3.3269 -1.1552 -0.2639 1.180104062e-38
3.0482 -3.2957 -0.4116 1.180104062e-38
2.806 -2.5378 -0.3469 1.180104062e-38
2.8188 -2.1258 -0.3237 1.180104062e-38
2.9019 -1.8073 -0.3134 1.180104062e-38
3.0315 -1.5319 -0.3114 1.180104062e-38
3.2099 -1.2775 -0.3167 1.180104062e-38
3.4609 -1.0315 -0.3311 1.180104062e-38
3.8647 -0.7855 -0.3616 1.180104062e-38
2.8462 -2.8146 -0.367 1.180104062e-38
2.8034 -2.317 -0.3334 1.180104062e-38
3.3207 -1.1531 -0.3223 1.180104062e-38
4.2731 -0.6719 -0.3966 1.180104062e-38
3.0705 -3.3198 -0.4905 1.180104062e-38
2.801 -2.5333 -0.4096 1.180104062e-38
2.8133 -2.1216 -0.3822 1.180104062e-38
3.0265 -1.5293 -0.3678 1.180104062e-38
3.4542 -1.0295 -0.391 1.180104062e-38
3.8608 -0.7847 -0.4273 1.180104062e-38
2.8462 -2.8146 -0.4342 1.180104062e-38
2.7977 -2.3123 -0.3937 1.180104062e-38
3.1073 -1.4001 -0.3697 1.180104062e-38
3.3144 -1.1509 -0.3806 1.180104062e-38
3.0931 -3.3442 -0.5709 1.180104062e-38
2.808 -2.5397 -0.4745 1.180104062e-38
2.8964 -1.8038 -0.4276 1.180104062e-38
3.0254 -1.5288 -0.4248 1.180104062e-38
3.4582 -1.0307 -0.4522 1.180104062e-38
2.5372 7.0523 -0.9392 1.180104062e-38
2.9573 -1.6637 -0.4252 1.180104062e-38
3.1065 -1.3997 -0.427 1.180104062e-38
3.3159 -1.1514 -0.4399 1.180104062e-38
4.3209 -0.6794 -0.5481 1.180104062e-38
2.8151 -2.5461 -0.5399 1.180104062e-38
2.9014 -1.807 -0.4862 1.180104062e-38
3.0305 -1.5314 -0.4829 1.180104062e-38
3.2101 -1.2776 -0.4914 1.180104062e-38
2.5371 7.0521 -1.066 1.180104062e-38
2.8669 -2.8352 -0.5735 1.180104062e-38
2.9622 -1.6665 -0.4834 1.180104062e-38
3.1118 -1.4021 -0.4855 1.180104062e-38
3.6452 -0.9117 -0.5345 1.180104062e-38
4.3489 -0.6838 -0.6262 1.180104062e-38
2.8264 -2.1315 -0.5637 1.180104062e-38
2.9064 -1.8101 -0.5452 1.180104062e-38
3.2157 -1.2798 -0.5511 1.180104062e-38
3.9012 -0.793 -0.6339 1.180104062e-38
2.5371 7.0519 -1.1934 1.180104062e-38
2.8134 -2.3254 -0.5812 1.180104062e-38
3.1172 -1.4045 -0.5444 1.180104062e-38
3.6543 -0.914 -0.5998 1.180104062e-38
4.3774 -0.6883 -0.7056 1.180104062e-38
2.832 -2.1357 -0.6254 1.180104062e-38
2.9115 -1.8133 -0.6048 1.180104062e-38
3.4792 -1.0369 -0.6401 1.180104062e-38
3.915 -0.7958 -0.7044 1.180104062e-38
2.8689 -1.9694 -0.6136 1.180104062e-38
2.9722 -1.6721 -0.6013 1.180104062e-38
3.1227 -1.407 -0.6039 1.180104062e-38
3.3355 -1.1582 -0.6226 1.180104062e-38
3.6634 -0.9163 -0.6659 1.180104062e-38
4.4422 -0.6985 -0.7929 1.180104062e-38
-14.027 -3.8424 -2.8145 1.180104062e-38
-13.6301 -5.0759 -2.8146 1.180104062e-38
-13.1243 -6.2689 -2.8146 1.180104062e-38
-12.5075 -7.4082 -2.8131 1.180104062e-38
2.8377 -2.14 -0.6878 1.180104062e-38
3.0458 -1.5391 -0.6604 1.180104062e-38
3.2271 -1.2843 -0.6721 1.180104062e-38
2.5369 7.0515 -1.4502 1.180104062e-38
-13.3913 -5.6784 -2.8148 1.180104062e-38
2.9165 -2.8842 -0.7938 1.180104062e-38
2.8251 -2.335 -0.7093 1.180104062e-38
2.9773 -1.675 -0.6611 1.180104062e-38
3.6727 -0.9186 -0.7326 1.180104062e-38
2.8613 -2.5879 -0.8134 1.180104062e-38
2.8452 -2.1457 -0.7513 1.180104062e-38
3.051 -1.5418 -0.7207 1.180104062e-38
3.4994 -1.0429 -0.7698 1.180104062e-38
3.9904 -0.8111 -0.8584 1.180104062e-38
2.955 -2.9222 -0.8761 1.180104062e-38
2.8792 -1.9765 -0.7363 1.180104062e-38
2.9823 -1.6778 -0.7214 1.180104062e-38
3.1337 -1.412 -0.7246 1.180104062e-38
3.3495 -1.163 -0.7475 1.180104062e-38
2.8645 -2.1602 -0.8189 1.180104062e-38
2.9356 -1.8283 -0.7894 1.180104062e-38
3.0637 -1.5482 -0.7835 1.180104062e-38
3.2497 -1.2933 -0.7983 1.180104062e-38
3.5232 -1.05 -0.8391 1.180104062e-38
4.0397 -0.8211 -0.9409 1.180104062e-38
2.5368 7.0512 -1.7104 1.180104062e-38
2.9947 -2.9616 -0.9613 1.180104062e-38
2.8576 -2.3618 -0.8462 1.180104062e-38
2.995 -1.6849 -0.7843 1.180104062e-38
3.1479 -1.4184 -0.7881 1.180104062e-38
3.3716 -1.1707 -0.8146 1.180104062e-38
3.7308 -0.9331 -0.8778 1.180104062e-38
2.9129 -2.6346 -0.9654 1.180104062e-38
2.8841 -2.175 -0.8879 1.180104062e-38
3.5475 -1.0573 -0.9099 1.180104062e-38
3.0359 -3.0023 -1.0495 1.180104062e-38
2.8778 -2.3786 -0.9177 1.180104062e-38
3.0121 -1.6946 -0.8495 1.180104062e-38
3.1665 -1.4268 -0.8537 1.180104062e-38
3.3942 -1.1786 -0.8832 1.180104062e-38
2.9042 -2.1902 -0.9585 1.180104062e-38
3.2889 -1.3089 -0.9327 1.180104062e-38
3.1721 -3.1369 -1.1755 1.180104062e-38
2.8985 -2.3957 -0.9909 1.180104062e-38
2.9306 -2.0117 -0.9366 1.180104062e-38
3.0295 -1.7044 -0.9159 1.180104062e-38
3.1854 -1.4353 -0.9206 1.180104062e-38
2.9861 -2.7008 -1.1328 1.180104062e-38
2.9248 -2.2057 -1.0307 1.180104062e-38
2.9892 -1.8617 -0.9908 1.180104062e-38
3.1172 -1.5752 -0.9827 1.180104062e-38
3.3091 -1.317 -1.0021 1.180104062e-38
2.5366 7.0506 -2.1082 1.180104062e-38
2.9488 -2.0242 -1.0063 1.180104062e-38
3.0473 -1.7144 -0.9838 1.180104062e-38
3.2048 -1.444 -0.989 1.180104062e-38
3.8452 -0.9617 -1.1152 1.180104062e-38
3.0543 -2.7625 -1.2329 1.180104062e-38
3.1358 -1.5846 -1.0518 1.180104062e-38
2.969 -2.0381 -1.0782 1.180104062e-38
3.4727 -1.2059 -1.1006 1.180104062e-38
3.9164 -0.9796 -1.2086 1.180104062e-38
3.1443 -2.8439 -1.3464 1.180104062e-38
2.9973 -2.2604 -1.1922 1.180104062e-38
3.0419 -1.8945 -1.1381 1.180104062e-38
3.3705 -1.3414 -1.1521 1.180104062e-38
3.7137 -1.1068 -1.2307 1.180104062e-38
2.5365 7.0502 -2.3795 1.180104062e-38
3.0967 -1.7421 -1.1284 1.180104062e-38
4.0206 -1.0056 -1.3162 1.180104062e-38
3.0414 -2.2936 -1.2798 1.180104062e-38
3.2049 -1.6195 -1.2065 1.180104062e-38
3.4127 -1.3582 -1.2341 1.180104062e-38
3.7808 -1.1268 -1.3255 1.180104062e-38
2.5364 7.05 -2.5173 1.180104062e-38
3.0441 -2.0896 -1.2405 1.180104062e-38
3.1335 -1.7629 -1.208 1.180104062e-38
3.3 -1.4869 -1.2161 1.180104062e-38
3.5712 -1.24 -1.2701 1.180104062e-38
4.1887 -1.0477 -1.4507 1.180104062e-38
3.2439 -1.6392 -1.2887 1.180104062e-38
3.4564 -1.3756 -1.3191 1.180104062e-38
3.1781 -2.6267 -1.462 1.180104062e-38
3.3417 -1.5057 -1.2996 1.180104062e-38
3.6234 -1.2582 -1.3601 1.180104062e-38
3.1744 -2.3939 -1.4846 1.180104062e-38
3.1661 -1.9719 -1.3928 1.180104062e-38
3.2843 -1.6596 -1.3741 1.180104062e-38
3.5193 -1.4007 -1.4144 1.180104062e-38
4.037 -1.2032 -1.573 1.180104062e-38
3.3449 -2.7647 -1.6204 1.180104062e-38
3.1417 -2.1566 -1.4229 1.180104062e-38
3.3893 -1.5271 -1.3881 1.180104062e-38
3.243 -2.0197 -1.4994 1.180104062e-38
3.3591 -1.6974 -1.4771 1.180104062e-38
3.2311 -2.218 -1.5382 1.180104062e-38
3.2852 -1.8482 -1.4794 1.180104062e-38
3.4702 -1.5636 -1.4938 1.180104062e-38
3.3474 -2.2978 -1.6719 1.180104062e-38
3.5562 -1.6024 -1.6062 1.180104062e-38
3.4844 -2.1701 -1.7707 1.180104062e-38
3.9735 -1.5814 -1.8448 1.180104062e-38
3.7164 -1.6745 -1.7583 1.180104062e-38
3.9324 -1.9871 -1.988 1.180104062e-38
