# .PCD v0.7 - Point Cloud Data file format
VERSION 0.7
FIELDS x y z rgb
SIZE 4 4 4 4
TYPE F F F F
COUNT 1 1 1 1
WIDTH 210
HEIGHT 1
VIEWPOINT 0 0 0 1 0 0 0
POINTS 210
DATA ascii
-9.0172 -8.5283 7.1657 1.180104062e-38
-5.3569 -7.9931 5.3441 1.180104062e-38
4.7539 8.234 5.2806 1.180104062e-38
3.9025 8.4097 5.1491 1.180104062e-38
6.0638 7.857 5.5122 1.180104062e-38
3.4988 8.5139 5.1123 1.180104062e-38
1.8986 8.8353 5.0191 1.180104062e-38
2.3093 8.8145 4.8644 1.180104062e-38
7.5872 7.5031 5.4705 1.180104062e-38
1.899 8.8373 4.634 1.180104062e-38
-4.4517 -5.5099 3.4841 1.180104062e-38
1.899 8.8371 4.4458 1.180104062e-38
1.8989 8.8369 4.2606 1.180104062e-38
-4.9827 -6.7625 3.4589 1.180104062e-38
-6.1677 -10.1535 4.8919 1.180104062e-38
6.5013 7.6898 3.5706 1.180104062e-38
6.0311 7.8148 3.5003 1.180104062e-38
4.7064 8.1517 3.1625 1.180104062e-38
7.0357 7.6069 3.4814 1.180104062e-38
5.1569 8.0781 3.22 1.180104062e-38
-5.4785 -8.1745 3.1252 1.180104062e-38
8.1655 7.3853 3.4966 1.180104062e-38
4.3238 8.3248 2.9792 1.180104062e-38
3.4794 8.4666 2.9071 1.180104062e-38
3.504 8.5264 2.7598 1.180104062e-38
10.6742 6.6479 3.5381 1.180104062e-38
1.8986 8.8353 2.5426 1.180104062e-38
12.2671 6.1989 3.6217 1.180104062e-38
1.8985 8.8352 2.3812 1.180104062e-38
-9.6373 -10.897 3.5757 1.180104062e-38
-9.6368 -10.8965 3.3201 1.180104062e-38
1.8985 8.8347 1.905 1.180104062e-38
1.8984 8.8346 1.7487 1.180104062e-38
-9.6354 -10.8949 2.5646 1.180104062e-38
1.8984 8.8344 1.5933 1.180104062e-38
-9.6349 -10.8943 2.3159 1.180104062e-38
1.8984 8.8342 1.4389 1.180104062e-38
7.4476 1.1711 1.0723 1.180104062e-38
7.5646 1.892 1.1091 1.180104062e-38
-9.6344 -10.8938 2.0685 1.180104062e-38
7.7197 0.8636 1.1049 1.180104062e-38
7.9246 0.5305 0.9953 1.180104062e-38
7.2452 1.1393 0.9191 1.180104062e-38
1.8983 8.834 1.1323 1.180104062e-38
7.0982 1.1161 0.7794 1.180104062e-38
7.2486 0.8109 0.7911 1.180104062e-38
7.2926 2.1734 0.8254 1.180104062e-38
7.3944 0.495 0.6794 1.180104062e-38
6.9925 1.0995 0.6489 1.180104062e-38
6.9723 1.7439 0.6589 1.180104062e-38
-9.6331 -10.8923 1.3331 1.180104062e-38
7.124 0.7969 0.6572 1.180104062e-38
6.9419 1.411 0.6494 1.180104062e-38
1.8982 8.8337 0.8283 1.180104062e-38
7.2536 0.4856 0.5448 1.180104062e-38
6.9036 1.0855 0.5237 1.180104062e-38
-9.6326 -10.8918 1.0896 1.180104062e-38
7.728 0.1722 0.5793 1.180104062e-38
7.0262 0.786 0.5298 1.180104062e-38
6.8523 1.3928 0.524 1.180104062e-38
6.9873 2.0824 0.5464 1.180104062e-38
1.8982 8.8335 0.6771 1.180104062e-38
7.1623 0.4795 0.4181 1.180104062e-38
6.84 1.0755 0.4033 1.180104062e-38
6.8035 1.7017 0.4085 1.180104062e-38
-9.6321 -10.8912 0.8468 1.180104062e-38
6.9583 0.7784 0.4078 1.180104062e-38
6.7884 1.3798 0.4035 1.180104062e-38
6.9059 2.0582 0.4197 1.180104062e-38
1.8982 8.8334 0.5262 1.180104062e-38
7.0856 0.4743 0.2953 1.180104062e-38
6.736 1.6848 0.2887 1.180104062e-38
7.4414 0.1658 0.3095 1.180104062e-38
6.8918 0.771 0.2883 1.180104062e-38
7.0353 0.471 0.1758 1.180104062e-38
6.7741 2.0189 0.1763 1.180104062e-38
1.8981 8.8331 0.2253 1.180104062e-38
8.1767 -0.1822 0.068 1.180104062e-38
6.9935 0.4682 0.0583 1.180104062e-38
6.7046 1.0542 0.0564 1.180104062e-38
6.656 1.6648 0.057 1.180104062e-38
6.926 2.405 0.0609 1.180104062e-38
7.2888 0.1624 0.0606 1.180104062e-38
6.8132 0.7622 0.057 1.180104062e-38
7.9001 -0.176 -0.0657 1.180104062e-38
6.9523 0.4654 -0.0579 1.180104062e-38
6.6709 1.049 -0.0561 1.180104062e-38
6.6196 1.6557 -0.0567 1.180104062e-38
6.6185 1.3453 -0.0561 1.180104062e-38
6.6886 1.9934 -0.058 1.180104062e-38
7.4588 2.9685 -0.0667 1.180104062e-38
7.8447 -0.1748 -0.1957 1.180104062e-38
6.9378 0.4644 -0.1734 1.180104062e-38
-9.6299 -10.8887 -0.3625 1.180104062e-38
6.7644 0.7567 -0.1697 1.180104062e-38
6.6736 1.9889 -0.1737 1.180104062e-38
1.898 8.8327 -0.2253 1.180104062e-38
7.8065 -0.174 -0.3247 1.180104062e-38
6.9245 0.4636 -0.2886 1.180104062e-38
6.6477 1.0453 -0.2798 1.180104062e-38
6.5946 1.6494 -0.2826 1.180104062e-38
7.2023 0.1605 -0.2995 1.180104062e-38
6.7527 0.7554 -0.2825 1.180104062e-38
6.6599 1.9849 -0.2889 1.180104062e-38
1.898 8.8325 -0.3756 1.180104062e-38
7.7977 -0.1738 -0.4543 1.180104062e-38
6.8209 2.3685 -0.4205 1.180104062e-38
7.1897 0.1602 -0.4189 1.180104062e-38
6.7411 0.7541 -0.3951 1.180104062e-38
6.5842 1.3383 -0.3913 1.180104062e-38
7.35 2.9252 -0.4607 1.180104062e-38
1.898 8.8324 -0.5262 1.180104062e-38
7.8363 -0.1746 -0.5874 1.180104062e-38
6.9243 0.4635 -0.5201 1.180104062e-38
6.6451 1.0449 -0.5041 1.180104062e-38
6.5928 1.649 -0.5093 1.180104062e-38
-9.6285 -10.8871 -1.0892 1.180104062e-38
6.7509 0.7552 -0.5091 1.180104062e-38
6.5926 1.34 -0.5041 1.180104062e-38
7.4023 2.9461 -0.597 1.180104062e-38
1.8979 8.8322 -0.677 1.180104062e-38
7.8833 -0.1757 -0.7229 1.180104062e-38
6.9377 0.4644 -0.6375 1.180104062e-38
6.8571 2.381 -0.6655 1.180104062e-38
-9.628 -10.8866 -1.3324 1.180104062e-38
6.6036 1.3422 -0.6178 1.180104062e-38
6.6737 1.989 -0.6384 1.180104062e-38
6.9537 0.4655 -0.7559 1.180104062e-38
6.6165 1.6549 -0.7398 1.180104062e-38
6.8892 2.3922 -0.791 1.180104062e-38
-9.6276 -10.8861 -1.5763 1.180104062e-38
6.7742 0.7578 -0.7394 1.180104062e-38
6.6904 1.9939 -0.7572 1.180104062e-38
1.8979 8.8319 -0.9798 1.180104062e-38
6.997 0.4684 -0.8788 1.180104062e-38
6.6995 1.0534 -0.8499 1.180104062e-38
6.6534 1.6641 -0.8595 1.180104062e-38
6.9487 2.4129 -0.9218 1.180104062e-38
7.3107 0.1629 -0.9164 1.180104062e-38
6.8104 0.7619 -0.8588 1.180104062e-38
6.7353 2.0073 -0.8807 1.180104062e-38
1.8978 8.8318 -1.132 1.180104062e-38
6.7352 1.0591 -0.9698 1.180104062e-38
7.0095 2.434 -1.0554 1.180104062e-38
-9.6267 -10.885 -2.0669 1.180104062e-38
7.3841 0.1646 -1.0505 1.180104062e-38
6.781 2.021 -1.0064 1.180104062e-38
-9.5765 -10.8283 -2.3018 1.180104062e-38
7.5159 0.1675 -1.1971 1.180104062e-38
6.8952 0.7713 -1.1048 1.180104062e-38
1.8978 8.8315 -1.4384 1.180104062e-38
7.1919 0.4815 -1.271 1.180104062e-38
6.8439 1.0762 -1.2216 1.180104062e-38
7.6654 0.1708 -1.3519 1.180104062e-38
6.968 0.7795 -1.2363 1.180104062e-38
6.7926 1.3807 -1.2222 1.180104062e-38
-12.5962 -7.4608 -2.8331 1.180104062e-38
-11.8907 -8.5584 -2.8351 1.180104062e-38
-11.0892 -9.5892 -2.837 1.180104062e-38
-10.1769 -10.5229 -2.8329 1.180104062e-38
-8.1051 -12.0936 -2.8173 1.180104062e-38
-6.9713 -12.7211 -2.8072 1.180104062e-38
7.3151 0.4897 -1.4188 1.180104062e-38
6.9137 1.0871 -1.3544 1.180104062e-38
6.8908 1.7235 -1.3746 1.180104062e-38
-7.5446 -12.4201 -2.8122 1.180104062e-38
-3.9588 -13.8447 -2.7866 1.180104062e-38
7.0429 0.7879 -1.3714 1.180104062e-38
1.8977 8.8312 -1.748 1.180104062e-38
-10.9095 -7.8522 -2.8337 1.180104062e-38
-9.3555 -9.6734 -2.8371 1.180104062e-38
-5.3956 -12.34 -2.8393 1.180104062e-38
-4.2617 -12.7289 -2.8299 1.180104062e-38
-3.1516 -13.2246 -2.8661 1.180104062e-38
7.4989 0.502 -1.5845 1.180104062e-38
7.0243 1.1045 -1.4991 1.180104062e-38
7.0205 1.756 -1.5257 1.180104062e-38
-10.5522 -8.333 -2.8346 1.180104062e-38
-8.9176 -10.0833 -2.8378 1.180104062e-38
-7.9807 -10.8315 -2.8364 1.180104062e-38
-6.9839 -11.4971 -2.836 1.180104062e-38
-5.9399 -12.0873 -2.8393 1.180104062e-38
-4.8387 -12.5633 -2.8382 1.180104062e-38
-3.6752 -12.853 -2.8183 1.180104062e-38
7.241 2.1581 -1.5929 1.180104062e-38
1.8977 8.8311 -1.9043 1.180104062e-38
-9.3928 -8.1223 -2.8342 1.180104062e-38
-8.6369 -8.9304 -2.8356 1.180104062e-38
-7.8115 -9.6683 -2.837 1.180104062e-38
7.1525 1.1247 -1.6526 1.180104062e-38
7.1831 1.7966 -1.69 1.180104062e-38
-9.0238 -8.5347 -2.8349 1.180104062e-38
-8.2325 -9.3086 -2.8363 1.180104062e-38
-6.457 -10.6297 -2.8387 1.180104062e-38
7.3482 0.822 -1.6876 1.180104062e-38
7.1047 1.4441 -1.6548 1.180104062e-38
1.8976 8.8309 -2.0616 1.180104062e-38
-7.2501 -8.9735 -2.8356 1.180104062e-38
-5.5478 -10.1233 -2.8375 1.180104062e-38
7.5398 1.8858 -1.9104 1.180104062e-38
-5.9927 -9.8653 -2.8372 1.180104062e-38
-4.1476 -10.769 -2.8366 1.180104062e-38
7.6814 0.8593 -1.8999 1.180104062e-38
7.3242 1.4887 -1.8371 1.180104062e-38
1.8976 8.8308 -2.2202 1.180104062e-38
-6.0197 -8.982 -2.8491 1.180104062e-38
-5.173 -9.4394 -2.8363 1.180104062e-38
-4.3564 -9.9633 -2.8653 1.180104062e-38
-5.5881 -9.1992 -2.8362 1.180104062e-38
-4.7476 -9.661 -2.8365 1.180104062e-38
