# .PCD v0.7 - Point Cloud Data file format
VERSION 0.7
FIELDS x y z rgb
SIZE 4 4 4 4
TYPE F F F F
COUNT 1 1 1 1
WIDTH 460
HEIGHT 1
VIEWPOINT 0 0 0 1 0 0 0
POINTS 460
DATA ascii
5.5988 2.5227 3.5454 1.180104062e-38
5.2759 2.9682 3.495 1.180104062e-38
4.9358 3.3883 3.4565 1.180104062e-38
5.7705 2.2966 3.5857 1.180104062e-38
5.436 2.7469 3.5164 1.180104062e-38
5.1063 3.1802 3.4731 1.180104062e-38
2.6431 6.4316 4.0146 1.180104062e-38
5.9692 2.0727 3.5095 1.180104062e-38
5.0068 3.437 3.3729 1.180104062e-38
4.6093 3.8097 3.3212 1.180104062e-38
4.7926 3.6143 3.3339 1.180104062e-38
2.643 6.4313 3.8618 1.180104062e-38
4.6685 3.8586 3.2334 1.180104062e-38
4.2837 4.2363 3.2162 1.180104062e-38
4.4557 4.0299 3.2072 1.180104062e-38
-6.6343 2.1393 3.5737 1.180104062e-38
2.6428 6.4308 3.5644 1.180104062e-38
7.1817 0.4808 3.5402 1.180104062e-38
3.9512 4.6735 3.0101 1.180104062e-38
-11.564 -1.0333 5.4727 1.180104062e-38
7.6546 -0.1706 3.6091 1.180104062e-38
4.0192 4.7539 2.9344 1.180104062e-38
-7.3736 1.6706 3.5638 1.180104062e-38
7.4682 0.1664 3.5212 1.180104062e-38
2.6425 6.4302 3.277 1.180104062e-38
7.9356 -0.5312 3.5887 1.180104062e-38
3.4208 5.3586 2.8685 1.180104062e-38
2.6424 6.43 3.1367 1.180104062e-38
-7.7808 1.4018 3.5674 1.180104062e-38
8.24 -0.9218 3.5766 1.180104062e-38
3.2335 5.6005 2.7895 1.180104062e-38
3.4329 5.3775 2.752 1.180104062e-38
3.2449 5.6203 2.6724 1.180104062e-38
3.0404 5.8537 2.7162 1.180104062e-38
-8.7322 0.7803 3.6101 1.180104062e-38
8.9379 -1.8167 3.5796 1.180104062e-38
2.6339 6.4093 2.5875 1.180104062e-38
-9.9863 0 3.541 1.180104062e-38
2.3476 -3.0419 1.2203 1.180104062e-38
2.8068 -2.5386 1.2019 1.180104062e-38
2.3317 -2.7579 1.1469 1.180104062e-38
-11.6573 -1.0417 3.5039 1.180104062e-38
2.2831 -2.4684 1.0066 1.180104062e-38
2.1871 -2.5869 1.0142 1.180104062e-38
2.4661 -2.2304 0.9355 1.180104062e-38
2.1116 -2.4976 0.9202 1.180104062e-38
2.319 -2.2933 0.9176 1.180104062e-38
2.6559 -2.1951 0.9694 1.180104062e-38
2.6415 6.4277 1.9552 1.180104062e-38
1.8918 -2.9635 0.9264 1.180104062e-38
1.9656 -2.5469 0.8477 1.180104062e-38
2.3825 -2.1549 0.8465 1.180104062e-38
1.9112 -2.7188 0.8757 1.180104062e-38
2.0444 -2.4181 0.8344 1.180104062e-38
2.2463 -2.2214 0.8324 1.180104062e-38
1.9263 -2.496 0.775 1.180104062e-38
1.8326 -3.1741 0.9009 1.180104062e-38
1.8584 -2.6435 0.7943 1.180104062e-38
2.0061 -2.3729 0.7638 1.180104062e-38
2.4796 -2.0494 0.7907 1.180104062e-38
2.6413 6.4272 1.708 1.180104062e-38
-13.92 -2.5078 3.2283 1.180104062e-38
2.605 -1.9645 0.7447 1.180104062e-38
1.7338 -3.0031 0.7915 1.180104062e-38
1.9696 -2.3297 0.6963 1.180104062e-38
2.1668 -2.1428 0.6955 1.180104062e-38
2.8407 -1.95 0.7864 1.180104062e-38
2.6412 6.427 1.586 1.180104062e-38
1.7053 -3.2833 0.78 1.180104062e-38
2.2499 -2.0349 0.6396 1.180104062e-38
3.1033 -1.9327 0.7707 1.180104062e-38
1.6866 -2.9212 0.7111 1.180104062e-38
1.7822 -2.5352 0.6533 1.180104062e-38
1.9347 -2.2883 0.6317 1.180104062e-38
2.1296 -2.1059 0.6314 1.180104062e-38
2.7617 -1.8958 0.7062 1.180104062e-38
2.6411 6.4268 1.4648 1.180104062e-38
1.6351 -3.1481 0.6865 1.180104062e-38
1.6887 -2.6452 0.6073 1.180104062e-38
1.8241 -2.3635 0.5778 1.180104062e-38
1.9975 -2.1597 0.5693 1.180104062e-38
2.2102 -1.999 0.5767 1.180104062e-38
2.971 -1.8503 0.6773 1.180104062e-38
1.6421 -2.8442 0.6356 1.180104062e-38
1.9024 -2.2501 0.5702 1.180104062e-38
2.641 6.4266 1.3446 1.180104062e-38
1.8046 -2.3382 0.5208 1.180104062e-38
1.9774 -2.1379 0.5135 1.180104062e-38
2.1865 -1.9775 0.5198 1.180104062e-38
2.8727 -1.7891 0.5967 1.180104062e-38
1.6032 -2.7769 0.5654 1.180104062e-38
1.7247 -2.4534 0.5288 1.180104062e-38
1.8826 -2.2268 0.5142 1.180104062e-38
2.0739 -2.0509 0.5143 1.180104062e-38
1.7859 -2.314 0.4654 1.180104062e-38
1.9578 -2.1168 0.4591 1.180104062e-38
1.5793 -2.7354 0.503 1.180104062e-38
1.7065 -2.4276 0.4725 1.180104062e-38
1.8634 -2.204 0.4596 1.180104062e-38
2.0533 -2.0305 0.4598 1.180104062e-38
2.2851 -1.8887 0.4721 1.180104062e-38
2.593 -1.78 0.5008 1.180104062e-38
3.1604 -1.778 0.5774 1.180104062e-38
2.6409 6.4261 1.1063 1.180104062e-38
1.5147 -2.9163 0.4674 1.180104062e-38
1.6228 -2.542 0.429 1.180104062e-38
1.7677 -2.2904 0.4115 1.180104062e-38
2.3982 -1.8086 0.4272 1.180104062e-38
2.7725 -1.7267 0.4646 1.180104062e-38
1.5045 -3.2421 0.5084 1.180104062e-38
1.5576 -2.6978 0.4431 1.180104062e-38
3.0816 -1.7337 0.5029 1.180104062e-38
1.604 -2.5126 0.3736 1.180104062e-38
1.7499 -2.2674 0.3589 1.180104062e-38
2.3703 -1.7875 0.372 1.180104062e-38
2.7299 -1.7002 0.403 1.180104062e-38
1.4703 -3.1684 0.4377 1.180104062e-38
1.6717 -2.3779 0.3643 1.180104062e-38
1.8268 -2.1608 0.3546 1.180104062e-38
3.0094 -1.693 0.4327 1.180104062e-38
1.7326 -2.2449 0.3076 1.180104062e-38
2.0989 -1.8984 0.307 1.180104062e-38
2.3431 -1.767 0.3183 1.180104062e-38
1.4378 -3.0983 0.3705 1.180104062e-38
1.6549 -2.354 0.3121 1.180104062e-38
2.2156 -1.8312 0.3118 1.180104062e-38
2.9407 -1.6544 0.366 1.180104062e-38
2.6406 6.4255 0.7535 1.180104062e-38
1.569 -2.4578 0.2673 1.180104062e-38
1.718 -2.2261 0.2578 1.180104062e-38
2.0812 -1.8823 0.2573 1.180104062e-38
3.3274 -1.6814 0.3418 1.180104062e-38
1.4068 -3.0315 0.3064 1.180104062e-38
1.5034 -2.6039 0.2756 1.180104062e-38
1.7953 -2.1235 0.2549 1.180104062e-38
1.9787 -1.9568 0.2551 1.180104062e-38
2.1957 -1.8148 0.2611 1.180104062e-38
2.8858 -1.6235 0.3036 1.180104062e-38
2.6405 6.4253 0.6369 1.180104062e-38
1.4345 -2.7618 0.2332 1.180104062e-38
1.5594 -2.4427 0.2172 1.180104062e-38
1.8772 -2.0296 0.2072 1.180104062e-38
3.1966 -1.6153 0.2684 1.180104062e-38
1.4937 -2.5871 0.2239 1.180104062e-38
1.6313 -2.3205 0.2126 1.180104062e-38
1.7861 -2.1125 0.2073 1.180104062e-38
2.8503 -1.6035 0.2451 1.180104062e-38
1.357 -3.3021 0.2079 1.180104062e-38
1.5499 -2.4279 0.1678 1.180104062e-38
1.8676 -2.0192 0.1602 1.180104062e-38
2.0589 -1.8621 0.1617 1.180104062e-38
2.2896 -1.7266 0.167 1.180104062e-38
2.6022 -1.6206 0.1785 1.180104062e-38
3.1557 -1.5946 0.2059 1.180104062e-38
1.4843 -2.5708 0.1729 1.180104062e-38
1.7769 -2.1017 0.1603 1.180104062e-38
2.1718 -1.7951 0.1641 1.180104062e-38
2.4393 -1.6744 0.1723 1.180104062e-38
2.8264 -1.5901 0.1889 1.180104062e-38
1.3402 -3.2612 0.1466 1.180104062e-38
1.6907 -2.1907 0.1151 1.180104062e-38
1.8581 -2.0089 0.1138 1.180104062e-38
2.276 -1.7164 0.1185 1.180104062e-38
3.1159 -1.5745 0.1452 1.180104062e-38
1.3611 -2.9331 0.1344 1.180104062e-38
1.475 -2.5548 0.1227 1.180104062e-38
1.9484 -1.9268 0.1139 1.180104062e-38
2.424 -1.664 0.1222 1.180104062e-38
2.8029 -1.5769 0.1337 1.180104062e-38
1.4013 -2.6979 0.0758 1.180104062e-38
1.5313 -2.3987 0.071 1.180104062e-38
1.6818 -2.1792 0.0686 1.180104062e-38
1.8487 -1.9988 0.0679 1.180104062e-38
2.0372 -1.8425 0.0685 1.180104062e-38
1.35 -2.9092 0.08 1.180104062e-38
1.4659 -2.539 0.0731 1.180104062e-38
1.7589 -2.0805 0.0679 1.180104062e-38
1.9386 -1.9171 0.068 1.180104062e-38
2.4089 -1.6536 0.0729 1.180104062e-38
2.7798 -1.5639 0.0795 1.180104062e-38
1.3081 -3.1831 0.0286 1.180104062e-38
1.3906 -2.6773 0.0251 1.180104062e-38
1.5222 -2.3844 0.0235 1.180104062e-38
1.8395 -1.9888 0.0225 1.180104062e-38
2.2514 -1.6978 0.0234 1.180104062e-38
2.5494 -1.5878 0.025 1.180104062e-38
3.0394 -1.5358 0.0283 1.180104062e-38
1.3392 -2.8858 0.0264 1.180104062e-38
1.7501 -2.07 0.0225 1.180104062e-38
2.1372 -1.7664 0.023 1.180104062e-38
2.3941 -1.6434 0.0241 1.180104062e-38
2.6401 6.4243 0.0577 1.180104062e-38
1.2927 -3.1455 -0.0283 1.180104062e-38
1.3801 -2.6571 -0.0249 1.180104062e-38
1.5132 -2.3703 -0.0234 1.180104062e-38
1.8303 -1.9788 -0.0224 1.180104062e-38
2.016 -1.8233 -0.0226 1.180104062e-38
2.2393 -1.6887 -0.0233 1.180104062e-38
2.5332 -1.5777 -0.0248 1.180104062e-38
1.3285 -2.8628 -0.0262 1.180104062e-38
1.4481 -2.5081 -0.0241 1.180104062e-38
1.5882 -2.2593 -0.023 1.180104062e-38
1.7414 -2.0597 -0.0224 1.180104062e-38
1.9192 -1.8979 -0.0224 1.180104062e-38
2.1259 -1.7571 -0.0229 1.180104062e-38
2.7349 -1.5386 -0.0261 1.180104062e-38
1.3726 -2.6426 -0.0743 1.180104062e-38
1.6573 -2.1475 -0.0676 1.180104062e-38
1.8227 -1.9707 -0.0669 1.180104062e-38
2.521 -1.5701 -0.0741 1.180104062e-38
1.3213 -2.8474 -0.0783 1.180104062e-38
1.4415 -2.4967 -0.0719 1.180104062e-38
1.5816 -2.2498 -0.0686 1.180104062e-38
1.7342 -2.0512 -0.067 1.180104062e-38
2.3679 -1.6255 -0.0716 1.180104062e-38
2.64 6.4239 -0.1732 1.180104062e-38
1.2783 -3.1104 -0.1398 1.180104062e-38
2.0039 -1.8125 -0.1123 1.180104062e-38
2.9662 -1.4989 -0.1382 1.180104062e-38
1.5789 -2.246 -0.1142 1.180104062e-38
3.4851 -1.5703 -0.1589 1.180104062e-38
2.6399 6.4237 -0.2888 1.180104062e-38
1.2733 -3.0985 -0.1951 1.180104062e-38
1.5005 -2.3504 -0.1624 1.180104062e-38
1.6518 -2.1402 -0.1575 1.180104062e-38
2.0006 -1.8094 -0.1571 1.180104062e-38
2.2219 -1.6756 -0.1621 1.180104062e-38
1.4358 -2.4868 -0.1672 1.180104062e-38
1.5762 -2.2422 -0.1596 1.180104062e-38
1.7286 -2.0446 -0.1559 1.180104062e-38
1.9051 -1.884 -0.1561 1.180104062e-38
2.1095 -1.7435 -0.1594 1.180104062e-38
2.6398 6.4235 -0.4045 1.180104062e-38
1.3642 -2.6265 -0.2218 1.180104062e-38
1.4976 -2.3459 -0.2086 1.180104062e-38
1.649 -2.1366 -0.2023 1.180104062e-38
1.9972 -1.8064 -0.2018 1.180104062e-38
2.218 -1.6727 -0.2082 1.180104062e-38
2.5056 -1.5605 -0.2212 1.180104062e-38
2.9433 -1.4873 -0.2471 1.180104062e-38
1.3006 -3.615 -0.2879 1.180104062e-38
1.7258 -2.0413 -0.2003 1.180104062e-38
2.6977 -1.5177 -0.232 1.180104062e-38
3.4252 -1.5433 -0.2815 1.180104062e-38
1.3614 -2.6211 -0.2708 1.180104062e-38
1.811 -1.958 -0.2445 1.180104062e-38
1.9939 -1.8033 -0.2465 1.180104062e-38
2.5005 -1.5573 -0.2701 1.180104062e-38
2.932 -1.4816 -0.3012 1.180104062e-38
1.3076 -2.8179 -0.2848 1.180104062e-38
2.1023 -1.7376 -0.25 1.180104062e-38
2.3493 -1.6127 -0.2612 1.180104062e-38
2.6908 -1.5138 -0.283 1.180104062e-38
3.396 -1.5301 -0.3415 1.180104062e-38
2.6396 6.4231 -0.6366 1.180104062e-38
1.2587 -3.063 -0.3592 1.180104062e-38
1.4918 -2.3369 -0.3007 1.180104062e-38
1.8081 -1.9548 -0.2888 1.180104062e-38
1.9905 -1.8003 -0.2911 1.180104062e-38
2.2103 -1.6669 -0.3003 1.180104062e-38
2.4954 -1.5542 -0.3189 1.180104062e-38
1.2855 -3.573 -0.4119 1.180104062e-38
1.3043 -2.8106 -0.3361 1.180104062e-38
1.4273 -2.4721 -0.3096 1.180104062e-38
1.5681 -2.2307 -0.2958 1.180104062e-38
1.7203 -2.0347 -0.289 1.180104062e-38
1.8959 -1.8749 -0.2892 1.180104062e-38
2.0987 -1.7346 -0.2953 1.180104062e-38
2.6838 -1.5099 -0.334 1.180104062e-38
3.3684 -1.5177 -0.4007 1.180104062e-38
1.2574 -3.0597 -0.4145 1.180104062e-38
1.4889 -2.3324 -0.3468 1.180104062e-38
1.8051 -1.9517 -0.3332 1.180104062e-38
2.2065 -1.664 -0.3463 1.180104062e-38
1.297 -3.605 -0.4801 1.180104062e-38
1.3009 -2.8033 -0.3873 1.180104062e-38
1.4244 -2.4671 -0.357 1.180104062e-38
1.5655 -2.2269 -0.3411 1.180104062e-38
1.8928 -1.8718 -0.3336 1.180104062e-38
2.0952 -1.7317 -0.3406 1.180104062e-38
2.3401 -1.6063 -0.3557 1.180104062e-38
2.6395 6.4227 -0.8702 1.180104062e-38
1.2624 -3.0719 -0.4724 1.180104062e-38
1.6378 -2.1222 -0.3813 1.180104062e-38
1.8022 -1.9485 -0.3775 1.180104062e-38
2.2026 -1.6611 -0.3924 1.180104062e-38
2.4891 -1.5502 -0.4171 1.180104062e-38
1.3087 -3.6376 -0.5499 1.180104062e-38
1.3034 -2.8086 -0.4404 1.180104062e-38
1.4227 -2.4641 -0.4047 1.180104062e-38
2.3364 -1.6038 -0.4031 1.180104062e-38
2.6394 6.4225 -0.9876 1.180104062e-38
1.4887 -2.3319 -0.4405 1.180104062e-38
1.6388 -2.1235 -0.4271 1.180104062e-38
1.9847 -1.7951 -0.4261 1.180104062e-38
1.3069 -2.8162 -0.4944 1.180104062e-38
1.7152 -2.0287 -0.423 1.180104062e-38
2.3413 -1.6072 -0.4522 1.180104062e-38
2.688 -1.5122 -0.4911 1.180104062e-38
3.4732 -1.5649 -0.6066 1.180104062e-38
2.6393 6.4223 -1.1057 1.180104062e-38
1.4917 -2.3366 -0.4888 1.180104062e-38
1.6417 -2.1272 -0.4738 1.180104062e-38
1.8057 -1.9523 -0.4689 1.180104062e-38
1.9883 -1.7983 -0.4727 1.180104062e-38
2.2099 -1.6665 -0.488 1.180104062e-38
1.4286 -2.4743 -0.5038 1.180104062e-38
1.5672 -2.2294 -0.4805 1.180104062e-38
1.7181 -2.0322 -0.4692 1.180104062e-38
1.8935 -1.8725 -0.4696 1.180104062e-38
2.6957 -1.5166 -0.5454 1.180104062e-38
3.51 -1.5815 -0.6788 1.180104062e-38
1.278 -3.1098 -0.6506 1.180104062e-38
1.3644 -2.6268 -0.5728 1.180104062e-38
1.4947 -2.3414 -0.5376 1.180104062e-38
1.6447 -2.1311 -0.5209 1.180104062e-38
2.214 -1.6697 -0.5366 1.180104062e-38
2.5057 -1.5605 -0.5712 1.180104062e-38
1.3141 -2.8317 -0.6041 1.180104062e-38
1.4316 -2.4795 -0.5541 1.180104062e-38
1.5701 -2.2334 -0.5283 1.180104062e-38
2.1012 -1.7366 -0.5275 1.180104062e-38
2.3514 -1.6141 -0.5519 1.180104062e-38
1.3674 -2.6326 -0.6254 1.180104062e-38
1.6477 -2.1349 -0.5685 1.180104062e-38
1.812 -1.9591 -0.5626 1.180104062e-38
1.3177 -2.8396 -0.66 1.180104062e-38
1.5729 -2.2375 -0.5766 1.180104062e-38
1.7241 -2.0392 -0.563 1.180104062e-38
1.9001 -1.879 -0.5634 1.180104062e-38
2.3565 -1.6176 -0.6026 1.180104062e-38
2.639 6.4217 -1.4637 1.180104062e-38
1.2971 -3.1563 -0.7789 1.180104062e-38
1.3704 -2.6384 -0.6786 1.180104062e-38
1.8152 -1.9626 -0.6102 1.180104062e-38
1.9993 -1.8082 -0.6153 1.180104062e-38
3.0044 -1.5182 -0.7683 1.180104062e-38
1.4377 -2.4901 -0.6563 1.180104062e-38
1.7271 -2.0428 -0.6106 1.180104062e-38
1.9034 -1.8823 -0.611 1.180104062e-38
2.109 -1.7431 -0.6245 1.180104062e-38
2.3617 -1.6212 -0.6538 1.180104062e-38
2.7193 -1.5298 -0.7121 1.180104062e-38
1.3734 -2.6443 -0.7324 1.180104062e-38
1.504 -2.3559 -0.687 1.180104062e-38
2.2267 -1.6792 -0.6855 1.180104062e-38
2.5228 -1.5712 -0.7305 1.180104062e-38
1.4408 -2.4954 -0.7083 1.180104062e-38
1.5788 -2.2458 -0.6748 1.180104062e-38
1.7302 -2.0465 -0.6587 1.180104062e-38
2.3669 -1.6248 -0.7057 1.180104062e-38
2.7369 -1.5397 -0.7719 1.180104062e-38
2.6389 6.4213 -1.7064 1.180104062e-38
1.3372 -3.2539 -0.927 1.180104062e-38
1.5073 -2.3611 -0.7381 1.180104062e-38
1.6568 -2.1467 -0.7145 1.180104062e-38
2.231 -1.6825 -0.7363 1.180104062e-38
3.1023 -1.5677 -0.9159 1.180104062e-38
1.344 -2.8962 -0.8413 1.180104062e-38
1.5818 -2.2501 -0.7247 1.180104062e-38
1.7333 -2.0502 -0.7074 1.180104062e-38
1.9102 -1.8891 -0.7079 1.180104062e-38
1.3595 -3.3081 -1.0063 1.180104062e-38
1.518 -2.3778 -0.7937 1.180104062e-38
2.0147 -1.8222 -0.7643 1.180104062e-38
2.2448 -1.6928 -0.791 1.180104062e-38
2.5594 -1.594 -0.8483 1.180104062e-38
3.1544 -1.594 -0.9944 1.180104062e-38
1.3573 -2.925 -0.9073 1.180104062e-38
1.4578 -2.525 -0.8203 1.180104062e-38
1.7391 -2.057 -0.7579 1.180104062e-38
1.9167 -1.8954 -0.7584 1.180104062e-38
2.3942 -1.6435 -0.8171 1.180104062e-38
2.7927 -1.5711 -0.9016 1.180104062e-38
1.4612 -3.5557 -1.1509 1.180104062e-38
1.4116 -2.7178 -0.9168 1.180104062e-38
2.2594 -1.7039 -0.8472 1.180104062e-38
3.2149 -1.6246 -1.0784 1.180104062e-38
1.3711 -2.9546 -0.9751 1.180104062e-38
1.7496 -2.0694 -0.8113 1.180104062e-38
2.8219 -1.5875 -0.9693 1.180104062e-38
1.4253 -2.7441 -0.982 1.180104062e-38
1.8499 -2 -0.8652 1.180104062e-38
2.0404 -1.8454 -0.8737 1.180104062e-38
2.2744 -1.7152 -0.9047 1.180104062e-38
2.6043 -1.622 -0.9744 1.180104062e-38
1.4798 -2.563 -0.9399 1.180104062e-38
1.6103 -2.2907 -0.8893 1.180104062e-38
1.7603 -2.082 -0.8659 1.180104062e-38
2.1551 -1.7812 -0.888 1.180104062e-38
2.6385 6.4204 -2.2045 1.180104062e-38
1.6956 -2.197 -0.9324 1.180104062e-38
1.8613 -2.0124 -0.921 1.180104062e-38
2.2915 -1.7281 -0.9643 1.180104062e-38
2.6309 -1.6385 -1.0413 1.180104062e-38
1.6209 -2.3057 -0.947 1.180104062e-38
1.952 -1.9303 -0.9224 1.180104062e-38
2.1694 -1.793 -0.9456 1.180104062e-38
2.4501 -1.6819 -0.9985 1.180104062e-38
2.9028 -1.6331 -1.119 1.180104062e-38
2.6384 6.4202 -2.3321 1.180104062e-38
1.8731 -2.0251 -0.9781 1.180104062e-38
2.3092 -1.7415 -1.0256 1.180104062e-38
2.6763 -1.6668 -1.118 1.180104062e-38
1.5031 -2.6033 -1.0659 1.180104062e-38
1.7823 -2.1082 -0.9789 1.180104062e-38
1.9643 -1.9425 -0.9796 1.180104062e-38
2.6383 6.42 -2.4612 1.180104062e-38
1.5809 -2.4764 -1.0971 1.180104062e-38
1.8851 -2.0381 -1.0367 1.180104062e-38
2.3335 -1.7597 -1.0913 1.180104062e-38
2.7361 -1.704 -1.2036 1.180104062e-38
1.643 -2.3372 -1.0668 1.180104062e-38
1.9769 -1.955 -1.0382 1.180104062e-38
3.1308 -1.7614 -1.3414 1.180104062e-38
2.6382 6.4198 -2.5917 1.180104062e-38
1.5314 -2.9484 -1.3039 1.180104062e-38
1.6061 -2.5158 -1.1714 1.180104062e-38
1.7384 -2.2524 -1.1167 1.180104062e-38
1.9034 -2.0579 -1.1002 1.180104062e-38
2.1052 -1.904 -1.114 1.180104062e-38
1.5526 -2.6891 -1.2187 1.180104062e-38
1.6656 -2.3693 -1.1366 1.180104062e-38
1.8114 -2.1426 -1.1011 1.180104062e-38
1.6324 -2.5571 -1.2492 1.180104062e-38
2.1346 -1.9306 -1.1851 1.180104062e-38
2.4108 -1.8181 -1.2434 1.180104062e-38
2.0228 -2.0004 -1.1715 1.180104062e-38
2.2607 -1.8685 -1.2077 1.180104062e-38
1.66 -2.6003 -1.3307 1.180104062e-38
2.1652 -1.9583 -1.2593 1.180104062e-38
1.6295 -2.8223 -1.4058 1.180104062e-38
1.8602 -2.2002 -1.2428 1.180104062e-38
2.2937 -1.8958 -1.2836 1.180104062e-38
2.6535 -1.8215 -1.3883 1.180104062e-38
1.7046 -2.6701 -1.4294 1.180104062e-38
1.8137 -2.3501 -1.3395 1.180104062e-38
1.9819 -2.1427 -1.317 1.180104062e-38
2.5155 -1.897 -1.4216 1.180104062e-38
1.7108 -2.9632 -1.5439 1.180104062e-38
1.7391 -2.4739 -1.3645 1.180104062e-38
1.8871 -2.232 -1.3188 1.180104062e-38
2.0788 -2.0558 -1.3192 1.180104062e-38
2.7912 -1.9161 -1.5276 1.180104062e-38
1.8568 -2.406 -1.4326 1.180104062e-38
2.0186 -2.1825 -1.4014 1.180104062e-38
2.2484 -2.0336 -1.429 1.180104062e-38
2.6074 -1.9664 -1.5394 1.180104062e-38
1.9243 -2.2761 -1.405 1.180104062e-38
2.3944 -1.979 -1.4643 1.180104062e-38
1.9124 -2.478 -1.5396 1.180104062e-38
2.0752 -2.2437 -1.5032 1.180104062e-38
1.8616 -2.6481 -1.5921 1.180104062e-38
1.9878 -2.5757 -1.668 1.180104062e-38
2.4048 -2.175 -1.6623 1.180104062e-38
2.0147 -2.866 -1.796 1.180104062e-38
2.0416 -2.4148 -1.6212 1.180104062e-38
2.6771 -2.2126 -1.7805 1.180104062e-38
2.2758 -2.4606 -1.7893 1.180104062e-38
2.1932 -2.5942 -1.8135 1.180104062e-38
