# .PCD v0.7 - Point Cloud Data file format
VERSION 0.7
FIELDS x y z rgb
SIZE 4 4 4 4
TYPE F F F F
COUNT 1 1 1 1
WIDTH 226
HEIGHT 1
VIEWPOINT 0 0 0 1 0 0 0
POINTS 226
DATA ascii
-5.8168 -1.8757 3.5286 1.180104062e-38
2.4645 7.9448 4.8026 1.180104062e-38
-6.1305 -2.283 3.4923 1.180104062e-38
-6.5008 -2.7566 3.473 1.180104062e-38
2.4878 8.0198 3.9581 1.180104062e-38
6.7186 5.553 3.5892 1.180104062e-38
6.0325 5.9657 3.4936 1.180104062e-38
7.1042 5.3575 3.664 1.180104062e-38
6.3732 5.7642 3.5385 1.180104062e-38
-7.6036 -4.5036 3.4684 1.180104062e-38
7.4872 5.1397 3.5642 1.180104062e-38
5.412 6.4014 3.2899 1.180104062e-38
-9.9398 -7.8493 4.9708 1.180104062e-38
5.0242 6.5101 3.2274 1.180104062e-38
2.4871 8.0177 3.2946 1.180104062e-38
4.7632 6.7758 3.0928 1.180104062e-38
4.0554 7.0242 3.0287 1.180104062e-38
8.7601 4.4267 3.6651 1.180104062e-38
2.487 8.0172 3.1344 1.180104062e-38
9.2435 4.1649 3.595 1.180104062e-38
4.0902 7.0844 2.9006 1.180104062e-38
3.4296 7.3907 2.889 1.180104062e-38
-8.1592 -5.3375 3.4572 1.180104062e-38
2.4868 8.0167 2.9762 1.180104062e-38
10.2881 3.5724 3.6591 1.180104062e-38
3.4324 7.3966 2.7397 1.180104062e-38
3.1009 7.5455 2.7409 1.180104062e-38
2.4867 8.0162 2.8199 1.180104062e-38
2.8296 7.8651 2.5024 1.180104062e-38
2.4541 7.9113 2.4798 1.180104062e-38
2.4862 8.0148 2.361 1.180104062e-38
2.4861 8.0143 2.211 1.180104062e-38
-9.7081 -7.6664 2.8234 1.180104062e-38
2.4858 8.0133 1.915 1.180104062e-38
2.4856 8.0129 1.7687 1.180104062e-38
6.1125 -1.2424 1.2071 1.180104062e-38
5.7807 -0.9089 1.1324 1.180104062e-38
5.8273 -0.3901 1.1302 1.180104062e-38
2.4855 8.0124 1.6234 1.180104062e-38
5.6817 -1.1548 1.0223 1.180104062e-38
5.549 -0.6207 0.9845 1.180104062e-38
5.6114 -0.3756 0.9917 1.180104062e-38
2.4853 8.012 1.4791 1.180104062e-38
5.5025 -1.1184 0.8941 1.180104062e-38
5.407 -0.6049 0.8664 1.180104062e-38
5.5933 -0.1246 0.8909 1.180104062e-38
5.7362 -1.4347 0.9415 1.180104062e-38
5.4154 -0.8515 0.8729 1.180104062e-38
5.462 -0.3656 0.8717 1.180104062e-38
5.8802 0.1311 0.9366 1.180104062e-38
2.4852 8.0115 1.3357 1.180104062e-38
5.5376 -1.385 0.8119 1.180104062e-38
5.3173 -0.8361 0.7656 1.180104062e-38
2.4851 8.0111 1.193 1.180104062e-38
5.7345 -1.7091 0.7499 1.180104062e-38
5.2839 -1.074 0.6757 1.180104062e-38
5.9277 0.3968 0.7445 1.180104062e-38
5.4089 -1.3528 0.6987 1.180104062e-38
5.2324 -0.8227 0.6638 1.180104062e-38
5.2852 -0.3538 0.6638 1.180104062e-38
5.5588 0.1239 0.6968 1.180104062e-38
5.2028 -1.0575 0.5759 1.180104062e-38
5.165 -0.5778 0.5637 1.180104062e-38
5.7297 0.3836 0.6229 1.180104062e-38
5.2122 -0.3489 0.5666 1.180104062e-38
5.4524 0.1215 0.5915 1.180104062e-38
5.1506 -1.0469 0.4819 1.180104062e-38
5.1167 -0.5724 0.472 1.180104062e-38
5.6285 0.3768 0.5172 1.180104062e-38
5.2418 -1.311 0.4954 1.180104062e-38
5.1117 -0.8038 0.4744 1.180104062e-38
5.0997 -1.0365 0.39 1.180104062e-38
5.1824 -1.2962 0.4003 1.180104062e-38
5.0643 -0.7963 0.3842 1.180104062e-38
5.1148 -0.3424 0.3842 1.180104062e-38
6.0402 0.6757 0.4555 1.180104062e-38
5.0498 -1.0264 0.3001 1.180104062e-38
5.0232 -0.5619 0.2944 1.180104062e-38
5.6185 -1.9509 0.3464 1.180104062e-38
5.8571 0.6552 0.3433 1.180104062e-38
5.2219 -1.5563 0.2266 1.180104062e-38
5.4096 0.3621 0.2254 1.180104062e-38
4.9901 -0.7846 0.21 1.180104062e-38
5.7592 0.6443 0.241 1.180104062e-38
2.4842 8.0084 0.3486 1.180104062e-38
5.1821 -1.5444 0.1349 1.180104062e-38
5.4501 -1.8925 0.1439 1.180104062e-38
5.056 -1.2646 0.13 1.180104062e-38
4.9649 -0.7807 0.1253 1.180104062e-38
5.1931 0.1157 0.1295 1.180104062e-38
2.4841 8.0079 0.2091 1.180104062e-38
4.9461 -0.5533 0.0414 1.180104062e-38
5.0572 -0.1127 0.042 1.180104062e-38
5.3326 0.357 0.0444 1.180104062e-38
5.0253 -1.2569 0.0431 1.180104062e-38
4.94 -0.7768 0.0416 1.180104062e-38
4.9888 -0.334 0.0416 1.180104062e-38
5.1608 0.115 0.0429 1.180104062e-38
5.626 0.6294 0.0471 1.180104062e-38
4.9215 -0.5505 -0.0412 1.180104062e-38
4.995 -1.2493 -0.0428 1.180104062e-38
4.9638 -0.3323 -0.0413 1.180104062e-38
5.1312 0.1144 -0.0427 1.180104062e-38
5.5682 0.6229 -0.0466 1.180104062e-38
5.0928 -1.5178 -0.1325 1.180104062e-38
4.9308 -1.0022 -0.1255 1.180104062e-38
5.0214 -0.1119 -0.1253 1.180104062e-38
4.9854 -1.2469 -0.1282 1.180104062e-38
4.9074 -0.7716 -0.1239 1.180104062e-38
4.9558 -0.3318 -0.1239 1.180104062e-38
5.5534 0.6212 -0.1394 1.180104062e-38
2.4837 8.0066 -0.2091 1.180104062e-38
5.0807 -1.5142 -0.2204 1.180104062e-38
4.9225 -1.0005 -0.2089 1.180104062e-38
4.9058 -0.5488 -0.2053 1.180104062e-38
5.0128 -0.1117 -0.2085 1.180104062e-38
5.2991 -1.84 -0.2332 1.180104062e-38
4.8996 -0.7704 -0.2062 1.180104062e-38
4.9142 -0.9988 -0.2921 1.180104062e-38
5.0042 -0.1115 -0.2915 1.180104062e-38
5.267 0.3526 -0.3075 1.180104062e-38
5.2811 -1.8338 -0.3256 1.180104062e-38
4.9664 -1.2422 -0.2982 1.180104062e-38
4.8918 -0.7692 -0.2884 1.180104062e-38
4.9059 -0.9972 -0.3752 1.180104062e-38
4.8903 -0.5471 -0.3688 1.180104062e-38
5.2596 0.3521 -0.395 1.180104062e-38
5.277 -1.8324 -0.4186 1.180104062e-38
4.8841 -0.7679 -0.3705 1.180104062e-38
5.0953 0.1136 -0.3819 1.180104062e-38
2.4833 8.0053 -0.6281 1.180104062e-38
5.073 -1.5119 -0.4853 1.180104062e-38
5.2968 -1.8392 -0.514 1.180104062e-38
4.967 -1.2423 -0.4694 1.180104062e-38
5.1048 0.1138 -0.4681 1.180104062e-38
2.4831 8.0048 -0.7684 1.180104062e-38
5.0863 -1.5159 -0.5757 1.180104062e-38
4.9222 -1.0005 -0.5448 1.180104062e-38
4.9042 -0.5486 -0.5353 1.180104062e-38
5.0123 -0.1117 -0.5438 1.180104062e-38
5.2827 0.3537 -0.5743 1.180104062e-38
5.3168 -1.8462 -0.6105 1.180104062e-38
4.9774 -1.2449 -0.5565 1.180104062e-38
4.8983 -0.7702 -0.5378 1.180104062e-38
5.552 0.6211 -0.606 1.180104062e-38
2.483 8.0044 -0.909 1.180104062e-38
4.9313 -1.0023 -0.6306 1.180104062e-38
5.0216 -0.1119 -0.6294 1.180104062e-38
5.337 -1.8532 -0.708 1.180104062e-38
4.9069 -0.7715 -0.6225 1.180104062e-38
4.9552 -0.3317 -0.6224 1.180104062e-38
5.5678 0.6229 -0.7021 1.180104062e-38
5.124 -1.5271 -0.7605 1.180104062e-38
4.9405 -1.0042 -0.7171 1.180104062e-38
4.9213 -0.5505 -0.7043 1.180104062e-38
5.3155 0.3558 -0.7577 1.180104062e-38
4.9154 -0.7729 -0.7077 1.180104062e-38
4.9639 -0.3323 -0.7076 1.180104062e-38
5.1356 0.1145 -0.7306 1.180104062e-38
5.6263 0.6294 -0.8053 1.180104062e-38
2.4827 8.0035 -1.1919 1.180104062e-38
5.1676 -1.5401 -0.8586 1.180104062e-38
4.9677 -1.0097 -0.8072 1.180104062e-38
5.3533 0.3584 -0.8544 1.180104062e-38
5.0342 -1.2591 -0.8263 1.180104062e-38
4.9388 -0.7766 -0.7961 1.180104062e-38
4.9877 -0.3339 -0.796 1.180104062e-38
5.1691 0.1152 -0.8233 1.180104062e-38
2.4826 8.003 -1.3343 1.180104062e-38
5.2121 -1.5534 -0.959 1.180104062e-38
4.9972 -1.0157 -0.8992 1.180104062e-38
4.9712 -0.5561 -0.882 1.180104062e-38
5.0893 -0.1134 -0.8976 1.180104062e-38
5.3961 0.3612 -0.9536 1.180104062e-38
5.0685 -1.2677 -0.9212 1.180104062e-38
4.9662 -0.7809 -0.8864 1.180104062e-38
5.0155 -0.3357 -0.8863 1.180104062e-38
5.2049 0.116 -0.918 1.180104062e-38
5.2611 -1.568 -1.0624 1.180104062e-38
5.0272 -1.0218 -0.9927 1.180104062e-38
4.999 -0.5592 -0.9734 1.180104062e-38
5.1035 -1.2765 -1.018 1.180104062e-38
5.0438 -0.3376 -0.9783 1.180104062e-38
5.2415 0.1168 -1.0146 1.180104062e-38
5.9225 0.6626 -1.1533 1.180104062e-38
-11.8031 -6.991 -2.8921 1.180104062e-38
-8.6014 -10.646 -2.8854 1.180104062e-38
5.3505 -1.5946 -1.177 1.180104062e-38
5.5433 0.3711 -1.1713 1.180104062e-38
-11.4811 -7.5106 -2.8923 1.180104062e-38
-9.9638 -9.4236 -2.8912 1.180104062e-38
-9.0743 -10.2605 -2.8877 1.180104062e-38
5.2995 0.1181 -1.1175 1.180104062e-38
-9.5644 -8.2706 -2.886 1.180104062e-38
5.4437 -1.6224 -1.2965 1.180104062e-38
5.1258 -1.0419 -1.1939 1.180104062e-38
5.0846 -0.5688 -1.1678 1.180104062e-38
-10.5834 -6.9234 -2.8866 1.180104062e-38
-9.9247 -7.8374 -2.8864 1.180104062e-38
-8.3661 -9.4597 -2.8824 1.180104062e-38
5.2285 -1.3077 -1.2301 1.180104062e-38
5.1325 -0.3436 -1.1741 1.180104062e-38
2.482 8.0012 -1.9121 1.180104062e-38
5.6415 -1.6813 -1.447 1.180104062e-38
5.1861 -1.0541 -1.3008 1.180104062e-38
5.2837 -0.1177 -1.2991 1.180104062e-38
5.8051 0.3886 -1.4301 1.180104062e-38
5.1371 -0.8078 -1.2782 1.180104062e-38
5.4473 0.1214 -1.3393 1.180104062e-38
2.4818 8.0007 -2.059 1.180104062e-38
5.2053 -0.5823 -1.3802 1.180104062e-38
5.3703 -0.1197 -1.4154 1.180104062e-38
5.2054 -0.8185 -1.3885 1.180104062e-38
5.2585 -0.352 -1.3887 1.180104062e-38
2.4817 8.0002 -2.2072 1.180104062e-38
5.4844 -0.1222 -1.5434 1.180104062e-38
5.6109 -1.4034 -1.6273 1.180104062e-38
5.3093 -0.8348 -1.5121 1.180104062e-38
5.3605 -0.3588 -1.5116 1.180104062e-38
2.4815 7.9997 -2.3566 1.180104062e-38
5.5758 -1.1333 -1.7034 1.180104062e-38
5.6625 -0.1262 -1.6957 1.180104062e-38
5.4812 -0.3669 -1.6446 1.180104062e-38
2.4814 7.9993 -2.5074 1.180104062e-38
5.6527 -0.8888 -1.8173 1.180104062e-38
2.4812 7.9988 -2.6597 1.180104062e-38
