# .PCD v0.7 - Point Cloud Data file format
VERSION 0.7
FIELDS x y z rgb
SIZE 4 4 4 4
TYPE F F F F
COUNT 1 1 1 1
WIDTH 520
HEIGHT 1
VIEWPOINT 0 0 0 1 0 0 0
POINTS 520
DATA ascii
3.6859 3.645 2.9929 1.180104062e-38
2.6295 5.6665 3.6067 1.180104062e-38
3.5429 3.8305 3.0125 1.180104062e-38
3.4297 4.0566 2.9503 1.180104062e-38
2.6296 5.6666 3.4696 1.180104062e-38
3.5776 3.868 2.9263 1.180104062e-38
2.6296 5.6667 3.335 1.180104062e-38
3.3115 4.2908 2.8934 1.180104062e-38
2.6296 5.6667 3.2028 1.180104062e-38
6.5802 -2.2849 3.5711 1.180104062e-38
3.339 4.3265 2.8018 1.180104062e-38
3.2079 4.5633 2.7436 1.180104062e-38
6.9842 -3.147 3.611 1.180104062e-38
3.0698 4.8088 2.6893 1.180104062e-38
-6.9751 3.3317 3.6437 1.180104062e-38
7.2288 -3.6529 3.6546 1.180104062e-38
2.9606 5.1279 2.5542 1.180104062e-38
2.7846 5.3612 2.6059 1.180104062e-38
2.6298 5.6671 2.5726 1.180104062e-38
7.5846 -4.267 3.5835 1.180104062e-38
7.8399 -4.8827 3.6249 1.180104062e-38
-8.554 2.7583 3.5274 1.180104062e-38
-9.1418 2.5042 3.5394 1.180104062e-38
0.9683 -3.1214 1.1588 1.180104062e-38
2.6299 5.6673 2.2154 1.180104062e-38
0.836 -3.1908 1.1696 1.180104062e-38
0.8983 -2.896 1.0187 1.180104062e-38
1.1981 -2.9155 1.059 1.180104062e-38
2.63 5.6674 2.0992 1.180104062e-38
1.0386 -2.8868 1.0308 1.180104062e-38
0.6268 -2.9167 0.9474 1.180104062e-38
0.8657 -2.7908 0.928 1.180104062e-38
2.63 5.6675 1.9843 1.180104062e-38
0.7443 -2.8409 0.9327 1.180104062e-38
-10.7914 1.9441 3.4823 1.180104062e-38
0.378 -3.0693 0.9258 1.180104062e-38
0.603 -2.8063 0.8593 1.180104062e-38
0.8357 -2.694 0.8444 1.180104062e-38
1.0996 -2.6757 0.866 1.180104062e-38
1.4703 -2.8309 0.955 1.180104062e-38
2.63 5.6675 1.8705 1.180104062e-38
-11.5896 1.5586 3.5009 1.180104062e-38
0.2677 -3.4263 1.0289 1.180104062e-38
0.4904 -2.9076 0.8828 1.180104062e-38
0.7183 -2.7418 0.8485 1.180104062e-38
1.2634 -2.7225 0.8985 1.180104062e-38
0.3614 -2.934 0.8317 1.180104062e-38
0.5883 -2.7377 0.7879 1.180104062e-38
0.8189 -2.64 0.7777 1.180104062e-38
0.476 -2.8221 0.8052 1.180104062e-38
0.7033 -2.6846 0.7808 1.180104062e-38
0.3526 -2.8629 0.7601 1.180104062e-38
0.5766 -2.6831 0.7231 1.180104062e-38
1.0517 -2.559 0.729 1.180104062e-38
1.3507 -2.6006 0.7722 1.180104062e-38
0.2351 -3.009 0.7953 1.180104062e-38
0.4663 -2.7646 0.7388 1.180104062e-38
0.6902 -2.6344 0.7176 1.180104062e-38
1.1937 -2.5724 0.7472 1.180104062e-38
0.5654 -2.6311 0.6615 1.180104062e-38
0.7892 -2.544 0.6547 1.180104062e-38
1.0319 -2.5111 0.6673 1.180104062e-38
1.3209 -2.5431 0.7044 1.180104062e-38
1.7751 -2.7806 0.8109 1.180104062e-38
0.2294 -2.9351 0.7237 1.180104062e-38
0.4571 -2.7099 0.6755 1.180104062e-38
0.9078 -2.5232 0.6591 1.180104062e-38
1.5094 -2.6144 0.742 1.180104062e-38
0.1017 -3.0435 0.695 1.180104062e-38
0.3373 -2.7387 0.6298 1.180104062e-38
0.7753 -2.4992 0.5972 1.180104062e-38
1.0131 -2.4652 0.6083 1.180104062e-38
0.4483 -2.6577 0.6152 1.180104062e-38
0.6656 -2.5408 0.5995 1.180104062e-38
0.8914 -2.4776 0.601 1.180104062e-38
1.1446 -2.4666 0.6206 1.180104062e-38
0.331 -2.6872 0.5708 1.180104062e-38
0.5474 -2.5475 0.5493 1.180104062e-38
1.6349 -2.561 0.6405 1.180104062e-38
2.6302 5.6679 1.3173 1.180104062e-38
-0.036 -3.2282 0.6806 1.180104062e-38
0.6566 -2.5062 0.5462 1.180104062e-38
0.8789 -2.443 0.5473 1.180104062e-38
1.1238 -2.4217 0.5628 1.180104062e-38
1.4307 -2.4781 0.6032 1.180104062e-38
0.0963 -2.8792 0.5575 1.180104062e-38
0.3272 -2.6568 0.518 1.180104062e-38
0.7571 -2.4407 0.4945 1.180104062e-38
0.9873 -2.4025 0.5027 1.180104062e-38
2.6302 5.6679 1.2092 1.180104062e-38
0.4359 -2.5844 0.5072 1.180104062e-38
0.8697 -2.4174 0.4972 1.180104062e-38
1.4029 -2.4299 0.543 1.180104062e-38
1.8714 -2.6621 0.6297 1.180104062e-38
0.095 -2.8398 0.501 1.180104062e-38
0.7495 -2.4161 0.446 1.180104062e-38
0.977 -2.3775 0.4532 1.180104062e-38
1.2355 -2.3788 0.4726 1.180104062e-38
1.5667 -2.4542 0.5134 1.180104062e-38
0.8607 -2.3925 0.4483 1.180104062e-38
1.0978 -2.3657 0.4599 1.180104062e-38
1.3824 -2.3944 0.4875 1.180104062e-38
0.0937 -2.8017 0.4464 1.180104062e-38
0.742 -2.3921 0.3988 1.180104062e-38
1.2211 -2.3511 0.4219 1.180104062e-38
2.6303 5.6681 0.995 1.180104062e-38
-0.0331 -2.9692 0.4728 1.180104062e-38
0.2097 -2.6832 0.4286 1.180104062e-38
1.0854 -2.3388 0.4106 1.180104062e-38
0.0924 -2.7648 0.3935 1.180104062e-38
1.5203 -2.3815 0.4019 1.180104062e-38
-0.0325 -2.9166 0.4149 1.180104062e-38
0.207 -2.6492 0.378 1.180104062e-38
0.422 -2.502 0.3609 1.180104062e-38
0.8435 -2.3446 0.3544 1.180104062e-38
1.0739 -2.3142 0.3629 1.180104062e-38
1.3491 -2.3367 0.3838 1.180104062e-38
-0.1717 -3.0802 0.3866 1.180104062e-38
0.7277 -2.3458 0.3078 1.180104062e-38
0.9477 -2.3062 0.3125 1.180104062e-38
1.1935 -2.2979 0.3245 1.180104062e-38
1.9947 -2.5846 0.4091 1.180104062e-38
2.6303 5.6682 0.7831 1.180104062e-38
0.4176 -2.476 0.3147 1.180104062e-38
0.6245 -2.3837 0.3088 1.180104062e-38
1.3334 -2.3095 0.3342 1.180104062e-38
1.6924 -2.4075 0.3688 1.180104062e-38
-0.1686 -3.024 0.3285 1.180104062e-38
0.0901 -2.6944 0.2924 1.180104062e-38
0.3099 -2.5164 0.275 1.180104062e-38
0.7213 -2.3252 0.2641 1.180104062e-38
1.1803 -2.2724 0.2777 1.180104062e-38
1.477 -2.3137 0.2977 1.180104062e-38
2.6304 5.6683 0.6778 1.180104062e-38
-0.0314 -2.8173 0.3056 1.180104062e-38
0.202 -2.5854 0.2813 1.180104062e-38
0.6189 -2.3625 0.2649 1.180104062e-38
0.8276 -2.3005 0.2652 1.180104062e-38
0.0892 -2.669 0.2448 1.180104062e-38
1.1724 -2.2573 0.2332 1.180104062e-38
1.8915 -2.4509 0.2838 1.180104062e-38
-0.031 -2.7828 0.2551 1.180104062e-38
0.2006 -2.5676 0.2361 1.180104062e-38
0.4111 -2.4372 0.2266 1.180104062e-38
0.6157 -2.3501 0.2227 1.180104062e-38
1.0469 -2.256 0.228 1.180104062e-38
1.6434 -2.3378 0.262 1.180104062e-38
-0.164 -2.9405 0.2207 1.180104062e-38
0.0886 -2.6508 0.1988 1.180104062e-38
0.3063 -2.4868 0.1878 1.180104062e-38
0.5104 -2.3751 0.182 1.180104062e-38
0.9288 -2.2601 0.1831 1.180104062e-38
1.1654 -2.2438 0.1895 1.180104062e-38
2.6304 5.6684 0.4683 1.180104062e-38
-0.3263 -3.2439 0.2443 1.180104062e-38
-0.0308 -2.763 0.2071 1.180104062e-38
0.1995 -2.5527 0.1919 1.180104062e-38
0.4088 -2.4237 0.1842 1.180104062e-38
0.6125 -2.3379 0.1811 1.180104062e-38
1.0412 -2.2438 0.1854 1.180104062e-38
1.6303 -2.3191 0.2124 1.180104062e-38
-0.1624 -2.9126 0.1699 1.180104062e-38
0.088 -2.6329 0.1534 1.180104062e-38
0.3046 -2.4729 0.1451 1.180104062e-38
0.5077 -2.3628 0.1408 1.180104062e-38
1.4389 -2.2541 0.1558 1.180104062e-38
1.8446 -2.3901 0.1758 1.180104062e-38
2.6304 5.6684 0.364 1.180104062e-38
-0.3211 -3.1922 0.1869 1.180104062e-38
0.1983 -2.5381 0.1483 1.180104062e-38
0.4066 -2.4103 0.1424 1.180104062e-38
0.6093 -2.3259 0.14 1.180104062e-38
0.8146 -2.2643 0.1402 1.180104062e-38
0.0874 -2.6152 0.1088 1.180104062e-38
0.3029 -2.4591 0.103 1.180104062e-38
0.5051 -2.3507 0.1 1.180104062e-38
1.1516 -2.2172 0.1039 1.180104062e-38
2.6305 5.6685 0.2598 1.180104062e-38
-0.0303 -2.7244 0.1133 1.180104062e-38
0.1972 -2.5236 0.1052 1.180104062e-38
0.4043 -2.3971 0.1011 1.180104062e-38
1.2842 -2.2243 0.1068 1.180104062e-38
1.6047 -2.2827 0.116 1.180104062e-38
0.5026 -2.3387 0.0597 1.180104062e-38
1.4177 -2.2208 0.0657 1.180104062e-38
1.8032 -2.3364 0.0736 1.180104062e-38
2.6305 5.6686 0.1558 1.180104062e-38
-0.3112 -3.0938 0.0775 1.180104062e-38
-0.0301 -2.7056 0.0675 1.180104062e-38
0.8062 -2.2409 0.0594 1.180104062e-38
1.0247 -2.2083 0.0607 1.180104062e-38
0.2995 -2.432 0.0204 1.180104062e-38
0.9095 -2.2132 0.0199 1.180104062e-38
1.1382 -2.1914 0.0205 1.180104062e-38
1.7832 -2.3106 0.0243 1.180104062e-38
2.6305 5.6686 0.0519 1.180104062e-38
-0.3065 -3.047 0.0255 1.180104062e-38
-0.0299 -2.687 0.0223 1.180104062e-38
0.4 -2.3712 0.02 1.180104062e-38
0.8021 -2.2294 0.0197 1.180104062e-38
1.0194 -2.1967 0.0201 1.180104062e-38
1.2688 -2.1976 0.0211 1.180104062e-38
1.58 -2.2476 0.0228 1.180104062e-38
-0.1565 -2.8066 -0.0234 1.180104062e-38
0.0857 -2.5638 -0.0213 1.180104062e-38
0.2979 -2.4187 -0.0203 1.180104062e-38
0.6959 -2.2435 -0.0195 1.180104062e-38
0.9048 -2.2018 -0.0198 1.180104062e-38
1.1316 -2.1787 -0.0204 1.180104062e-38
1.7637 -2.2853 -0.024 1.180104062e-38
-0.3021 -3.0033 -0.0251 1.180104062e-38
-0.0297 -2.6687 -0.0222 1.180104062e-38
0.1939 -2.4813 -0.0207 1.180104062e-38
0.3978 -2.3585 -0.0199 1.180104062e-38
0.798 -2.218 -0.0196 1.180104062e-38
1.2613 -2.1846 -0.021 1.180104062e-38
1.5679 -2.2304 -0.0227 1.180104062e-38
-0.5154 -3.5341 -0.0891 1.180104062e-38
0.4951 -2.3038 -0.0588 1.180104062e-38
0.6926 -2.2326 -0.0583 1.180104062e-38
1.1256 -2.1672 -0.0609 1.180104062e-38
1.3911 -2.1792 -0.0645 1.180104062e-38
1.7489 -2.2661 -0.0714 1.180104062e-38
2.6306 5.6687 -0.1558 1.180104062e-38
0.3958 -2.3464 -0.0593 1.180104062e-38
0.7941 -2.2072 -0.0585 1.180104062e-38
1.0091 -2.1746 -0.0598 1.180104062e-38
-0.1549 -2.7775 -0.1157 1.180104062e-38
0.6914 -2.229 -0.097 1.180104062e-38
0.8989 -2.1874 -0.0983 1.180104062e-38
2.6306 5.6688 -0.2598 1.180104062e-38
-0.0295 -2.6471 -0.1101 1.180104062e-38
0.1925 -2.464 -0.1028 1.180104062e-38
0.3951 -2.3423 -0.0988 1.180104062e-38
0.5932 -2.2644 -0.0973 1.180104062e-38
1.0074 -2.1709 -0.0995 1.180104062e-38
1.5543 -2.211 -0.1124 1.180104062e-38
2.0169 -2.3856 -0.1299 1.180104062e-38
-0.4994 -3.4242 -0.2015 1.180104062e-38
-0.1544 -2.7693 -0.1615 1.180104062e-38
0.4934 -2.2963 -0.1368 1.180104062e-38
0.8974 -2.1837 -0.1375 1.180104062e-38
1.1214 -2.159 -0.1417 1.180104062e-38
1.7372 -2.2509 -0.1656 1.180104062e-38
-0.298 -2.962 -0.1734 1.180104062e-38
-0.0294 -2.6413 -0.1538 1.180104062e-38
0.3944 -2.3383 -0.1381 1.180104062e-38
0.5923 -2.2607 -0.1361 1.180104062e-38
0.7914 -2.1998 -0.1362 1.180104062e-38
2.0091 -2.3763 -0.1812 1.180104062e-38
-0.4917 -3.3716 -0.2553 1.180104062e-38
0.0847 -2.5326 -0.1899 1.180104062e-38
0.2948 -2.3935 -0.1807 1.180104062e-38
0.6892 -2.2218 -0.1743 1.180104062e-38
0.8959 -2.1801 -0.1766 1.180104062e-38
1.1193 -2.155 -0.182 1.180104062e-38
1.3828 -2.1662 -0.1926 1.180104062e-38
0.1919 -2.4551 -0.1845 1.180104062e-38
0.5913 -2.257 -0.1748 1.180104062e-38
1.2473 -2.1604 -0.1869 1.180104062e-38
-0.4843 -3.3205 -0.3076 1.180104062e-38
-0.1535 -2.7532 -0.2528 1.180104062e-38
0.0845 -2.5272 -0.2318 1.180104062e-38
0.4918 -2.2888 -0.2146 1.180104062e-38
0.6881 -2.2181 -0.2129 1.180104062e-38
0.8944 -2.1764 -0.2157 1.180104062e-38
1.7281 -2.2392 -0.2593 1.180104062e-38
-0.2961 -2.9435 -0.2712 1.180104062e-38
-0.0293 -2.6297 -0.2411 1.180104062e-38
0.5904 -2.2533 -0.2136 1.180104062e-38
0.7888 -2.1926 -0.2136 1.180104062e-38
1.0023 -2.1599 -0.2183 1.180104062e-38
1.2449 -2.1563 -0.2283 1.180104062e-38
1.5427 -2.1946 -0.2459 1.180104062e-38
0.0843 -2.5219 -0.2737 1.180104062e-38
0.2937 -2.385 -0.2606 1.180104062e-38
0.491 -2.285 -0.2535 1.180104062e-38
0.687 -2.2145 -0.2515 1.180104062e-38
0.8929 -2.1728 -0.2548 1.180104062e-38
1.3773 -2.1576 -0.2776 1.180104062e-38
0.1912 -2.4462 -0.2661 1.180104062e-38
0.3924 -2.3261 -0.2559 1.180104062e-38
0.7875 -2.189 -0.2523 1.180104062e-38
1.2425 -2.1521 -0.2695 1.180104062e-38
1.5389 -2.1891 -0.2902 1.180104062e-38
1.9857 -2.3487 -0.3336 1.180104062e-38
-0.4782 -3.279 -0.4153 1.180104062e-38
-0.1526 -2.7372 -0.3435 1.180104062e-38
0.2932 -2.3808 -0.3006 1.180104062e-38
0.4902 -2.2813 -0.2924 1.180104062e-38
0.6858 -2.2109 -0.2901 1.180104062e-38
0.8914 -2.1691 -0.2939 1.180104062e-38
1.3746 -2.1533 -0.3201 1.180104062e-38
1.719 -2.2274 -0.3526 1.180104062e-38
2.6308 5.6691 -0.7832 1.180104062e-38
0.5884 -2.246 -0.291 1.180104062e-38
0.9989 -2.1526 -0.2974 1.180104062e-38
1.5351 -2.1837 -0.3345 1.180104062e-38
-0.4821 -3.3058 -0.4752 1.180104062e-38
1.1108 -2.1388 -0.3428 1.180104062e-38
1.3718 -2.149 -0.3626 1.180104062e-38
2.6308 5.6692 -0.889 1.180104062e-38
-0.0291 -2.6123 -0.3716 1.180104062e-38
0.5875 -2.2423 -0.3297 1.180104062e-38
1.5313 -2.1783 -0.3787 1.180104062e-38
1.9822 -2.3446 -0.4367 1.180104062e-38
-0.492 -3.3737 -0.5429 1.180104062e-38
0.4886 -2.2738 -0.3703 1.180104062e-38
0.8884 -2.1618 -0.3722 1.180104062e-38
1.3701 -2.1463 -0.4055 1.180104062e-38
1.7197 -2.2283 -0.4482 1.180104062e-38
2.6308 5.6692 -0.9952 1.180104062e-38
-0.295 -2.9327 -0.4693 1.180104062e-38
-0.0291 -2.6109 -0.4158 1.180104062e-38
0.1901 -2.4329 -0.3886 1.180104062e-38
0.5865 -2.2386 -0.3685 1.180104062e-38
0.7836 -2.178 -0.3686 1.180104062e-38
0.9955 -2.1452 -0.3766 1.180104062e-38
1.2353 -2.1396 -0.3934 1.180104062e-38
1.9904 -2.3543 -0.4909 1.180104062e-38
-0.1529 -2.7426 -0.4843 1.180104062e-38
0.2922 -2.3728 -0.4216 1.180104062e-38
1.1094 -2.1359 -0.4244 1.180104062e-38
1.373 -2.1508 -0.4499 1.180104062e-38
2.6309 5.6693 -1.102 1.180104062e-38
-0.296 -2.9427 -0.5215 1.180104062e-38
-0.0292 -2.6171 -0.4615 1.180104062e-38
0.1903 -2.4353 -0.4307 1.180104062e-38
0.586 -2.2367 -0.4077 1.180104062e-38
0.9954 -2.1451 -0.417 1.180104062e-38
0.0842 -2.5174 -0.4874 1.180104062e-38
0.4891 -2.2761 -0.4505 1.180104062e-38
0.6841 -2.2054 -0.4468 1.180104062e-38
1.1116 -2.1402 -0.4667 1.180104062e-38
1.3759 -2.1553 -0.4948 1.180104062e-38
1.7292 -2.2407 -0.5477 1.180104062e-38
2.6309 5.6694 -1.2095 1.180104062e-38
-0.2971 -2.9529 -0.5743 1.180104062e-38
-0.0292 -2.6233 -0.5077 1.180104062e-38
0.3909 -2.3172 -0.4548 1.180104062e-38
0.587 -2.2406 -0.4482 1.180104062e-38
0.7843 -2.18 -0.4483 1.180104062e-38
0.9972 -2.1489 -0.4584 1.180104062e-38
1.2398 -2.1475 -0.4799 1.180104062e-38
1.5401 -2.1908 -0.5182 1.180104062e-38
-0.1539 -2.7604 -0.5828 1.180104062e-38
0.0844 -2.5232 -0.5322 1.180104062e-38
0.2933 -2.3819 -0.5059 1.180104062e-38
0.8911 -2.1684 -0.4942 1.180104062e-38
1.7341 -2.247 -0.5984 1.180104062e-38
-0.2981 -2.9633 -0.6279 1.180104062e-38
-0.0293 -2.6296 -0.5544 1.180104062e-38
0.191 -2.4448 -0.517 1.180104062e-38
0.3916 -2.3216 -0.4963 1.180104062e-38
0.7857 -2.1838 -0.4893 1.180104062e-38
1.5442 -2.1966 -0.5661 1.180104062e-38
2.0156 -2.3841 -0.6582 1.180104062e-38
0.0846 -2.529 -0.5776 1.180104062e-38
0.6865 -2.2131 -0.5289 1.180104062e-38
0.8927 -2.1723 -0.5361 1.180104062e-38
1.1161 -2.1488 -0.5527 1.180104062e-38
1.739 -2.2533 -0.6497 1.180104062e-38
2.6309 5.6695 -1.4266 1.180104062e-38
-0.0294 -2.636 -0.6017 1.180104062e-38
0.1914 -2.4496 -0.5608 1.180104062e-38
0.3923 -2.326 -0.5384 1.180104062e-38
0.5891 -2.2484 -0.5305 1.180104062e-38
0.7871 -2.1877 -0.5307 1.180104062e-38
1.0008 -2.1567 -0.5427 1.180104062e-38
1.245 -2.1564 -0.5683 1.180104062e-38
2.0243 -2.3943 -0.7156 1.180104062e-38
-0.1549 -2.7787 -0.684 1.180104062e-38
0.2945 -2.3911 -0.5922 1.180104062e-38
0.4917 -2.2882 -0.5753 1.180104062e-38
1.1183 -2.1532 -0.5964 1.180104062e-38
1.7456 -2.2619 -0.7023 1.180104062e-38
2.631 5.6696 -1.5363 1.180104062e-38
-0.0294 -2.6425 -0.6496 1.180104062e-38
0.1918 -2.4545 -0.6051 1.180104062e-38
0.3931 -2.3304 -0.5809 1.180104062e-38
0.5901 -2.2524 -0.5723 1.180104062e-38
1.0027 -2.1607 -0.5855 1.180104062e-38
1.5525 -2.2085 -0.6635 1.180104062e-38
-0.1555 -2.788 -0.7358 1.180104062e-38
0.085 -2.541 -0.6699 1.180104062e-38
0.2951 -2.3958 -0.6361 1.180104062e-38
0.4926 -2.2923 -0.6178 1.180104062e-38
0.6889 -2.221 -0.6127 1.180104062e-38
0.896 -2.1803 -0.6211 1.180104062e-38
1.3878 -2.174 -0.6796 1.180104062e-38
2.631 5.6697 -1.647 1.180104062e-38
0.1922 -2.4594 -0.65 1.180104062e-38
0.3938 -2.3349 -0.6239 1.180104062e-38
0.5912 -2.2565 -0.6146 1.180104062e-38
-0.1571 -2.8184 -0.7942 1.180104062e-38
0.0852 -2.5471 -0.717 1.180104062e-38
0.4935 -2.2965 -0.6609 1.180104062e-38
0.6902 -2.225 -0.6554 1.180104062e-38
0.8976 -2.1843 -0.6644 1.180104062e-38
0.1926 -2.4644 -0.6955 1.180104062e-38
0.3946 -2.3395 -0.6675 1.180104062e-38
0.5922 -2.2605 -0.6575 1.180104062e-38
0.7914 -2.1997 -0.6577 1.180104062e-38
1.0064 -2.1688 -0.6727 1.180104062e-38
0.0856 -2.5608 -0.7671 1.180104062e-38
0.2962 -2.4054 -0.7256 1.180104062e-38
0.4944 -2.3007 -0.7045 1.180104062e-38
0.6915 -2.2291 -0.6987 1.180104062e-38
0.8993 -2.1884 -0.7083 1.180104062e-38
1.3996 -2.1924 -0.7787 1.180104062e-38
2.6311 5.6698 -1.8713 1.180104062e-38
-0.0299 -2.6804 -0.8025 1.180104062e-38
0.193 -2.4698 -0.7417 1.180104062e-38
0.7929 -2.2037 -0.7012 1.180104062e-38
1.2574 -2.1779 -0.7529 1.180104062e-38
-0.161 -2.8868 -0.9182 1.180104062e-38
0.2978 -2.418 -0.7737 1.180104062e-38
0.9022 -2.1955 -0.7538 1.180104062e-38
1.1324 -2.1803 -0.7802 1.180104062e-38
1.8379 -2.3814 -0.9553 1.180104062e-38
2.6311 5.6699 -1.9851 1.180104062e-38
-0.0301 -2.7036 -0.8587 1.180104062e-38
0.1943 -2.4868 -0.7922 1.180104062e-38
0.3969 -2.3527 -0.7577 1.180104062e-38
1.2667 -2.1939 -0.8045 1.180104062e-38
0.4988 -2.3214 -0.7978 1.180104062e-38
0.6972 -2.2477 -0.7907 1.180104062e-38
1.1406 -2.1961 -0.8314 1.180104062e-38
1.4242 -2.231 -0.8893 1.180104062e-38
-0.0304 -2.7275 -0.9164 1.180104062e-38
0.3995 -2.3685 -0.807 1.180104062e-38
0.5984 -2.2842 -0.7933 1.180104062e-38
0.7998 -2.2231 -0.7938 1.180104062e-38
1.0191 -2.1961 -0.8134 1.180104062e-38
-0.1651 -2.9602 -1.0513 1.180104062e-38
0.0878 -2.6262 -0.9317 1.180104062e-38
0.3019 -2.4516 -0.8759 1.180104062e-38
0.502 -2.3362 -0.8473 1.180104062e-38
0.9139 -2.2239 -0.8525 1.180104062e-38
1.1491 -2.2124 -0.884 1.180104062e-38
1.4379 -2.2525 -0.9476 1.180104062e-38
1.9146 -2.4808 -1.1111 1.180104062e-38
-0.0307 -2.7521 -0.9759 1.180104062e-38
0.1971 -2.5222 -0.8971 1.180104062e-38
0.8049 -2.2374 -0.8431 1.180104062e-38
-0.1691 -3.0335 -1.1345 1.180104062e-38
0.5053 -2.3513 -0.898 1.180104062e-38
1.4521 -2.2747 -1.0077 1.180104062e-38
2.0557 -2.6637 -1.2564 1.180104062e-38
2.6312 5.6701 -2.3341 1.180104062e-38
0.1985 -2.5406 -0.9516 1.180104062e-38
1.0327 -2.2254 -0.9161 1.180104062e-38
-0.1766 -3.1677 -1.2452 1.180104062e-38
0.9262 -2.2537 -0.9563 1.180104062e-38
1.1667 -2.2462 -0.9934 1.180104062e-38
2.6312 5.6701 -2.4533 1.180104062e-38
0.2 -2.5595 -1.0076 1.180104062e-38
0.4079 -2.4184 -0.9625 1.180104062e-38
0.6101 -2.3286 -0.9447 1.180104062e-38
0.8156 -2.2671 -0.9456 1.180104062e-38
1.3062 -2.2624 -1.0253 1.180104062e-38
1.1758 -2.2639 -1.0505 1.180104062e-38
0.4109 -2.4359 -1.0172 1.180104062e-38
0.6142 -2.3442 -0.9979 1.180104062e-38
1.047 -2.2563 -1.0242 1.180104062e-38
1.3201 -2.2864 -1.0872 1.180104062e-38
1.7446 -2.4818 -1.2492 1.180104062e-38
0.0926 -2.7689 -1.1951 1.180104062e-38
0.5156 -2.3992 -1.0585 1.180104062e-38
1.1923 -2.2956 -1.1158 1.180104062e-38
1.5336 -2.4023 -1.2294 1.180104062e-38
2.6313 5.6703 -2.6965 1.180104062e-38
-0.0333 -2.9883 -1.2891 1.180104062e-38
0.205 -2.6235 -1.1351 1.180104062e-38
0.4142 -2.4556 -1.0742 1.180104062e-38
1.0562 -2.2761 -1.0824 1.180104062e-38
1.3425 -2.3253 -1.1582 1.180104062e-38
1.8128 -2.5787 -1.3597 1.180104062e-38
0.317 -2.5737 -1.1701 1.180104062e-38
0.5222 -2.4301 -1.1215 1.180104062e-38
0.9525 -2.3177 -1.1306 1.180104062e-38
1.5696 -2.4588 -1.3162 1.180104062e-38
2.6313 5.6703 -2.8206 1.180104062e-38
-0.0346 -3.1044 -1.4008 1.180104062e-38
0.6258 -2.3886 -1.1142 1.180104062e-38
0.8372 -2.327 -1.1159 1.180104062e-38
1.0717 -2.3096 -1.1488 1.180104062e-38
0.3221 -2.6154 -1.2422 1.180104062e-38
0.5298 -2.4653 -1.1886 1.180104062e-38
0.9666 -2.3522 -1.1987 1.180104062e-38
1.2336 -2.3751 -1.2616 1.180104062e-38
0.4272 -2.5326 -1.2107 1.180104062e-38
0.8495 -2.3612 -1.1829 1.180104062e-38
1.3935 -2.4137 -1.3137 1.180104062e-38
0.1027 -3.0705 -1.5111 1.180104062e-38
0.3275 -2.6592 -1.3178 1.180104062e-38
0.7501 -2.4181 -1.2452 1.180104062e-38
0.4342 -2.5739 -1.2839 1.180104062e-38
0.6442 -2.459 -1.2503 1.180104062e-38
0.335 -2.7204 -1.4052 1.180104062e-38
0.546 -2.5408 -1.3323 1.180104062e-38
0.997 -2.4262 -1.3447 1.180104062e-38
0.4415 -2.6173 -1.3608 1.180104062e-38
0.6541 -2.4967 -1.3232 1.180104062e-38
1.523 -2.6379 -1.5616 1.180104062e-38
0.5589 -2.6008 -1.4201 1.180104062e-38
0.7771 -2.505 -1.4002 1.180104062e-38
0.2582 -3.3045 -1.7695 1.180104062e-38
0.456 -2.7033 -1.4635 1.180104062e-38
0.8959 -2.4903 -1.4128 1.180104062e-38
1.1715 -2.5246 -1.4858 1.180104062e-38
0.3739 -3.0356 -1.6987 1.180104062e-38
0.5786 -2.6926 -1.5296 1.180104062e-38
0.8022 -2.586 -1.5037 1.180104062e-38
1.059 -2.5769 -1.5474 1.180104062e-38
0.6899 -2.6334 -1.512 1.180104062e-38
0.9258 -2.5734 -1.5189 1.180104062e-38
0.6054 -2.8175 -1.6638 1.180104062e-38
0.7135 -2.7236 -1.6255 1.180104062e-38
0.9584 -2.664 -1.6346 1.180104062e-38
