# .PCD v0.7 - Point Cloud Data file format
VERSION 0.7
FIELDS x y z rgb
SIZE 4 4 4 4
TYPE F F F F
COUNT 1 1 1 1
WIDTH 518
HEIGHT 1
VIEWPOINT 0 0 0 1 0 0 0
POINTS 518
DATA ascii
3.1963 3.7806 2.8583 1.180104062e-38
5.7122 -2.5738 3.6172 1.180104062e-38
2.9282 4.1654 2.8279 1.180104062e-38
2.5047 5.3975 3.3048 1.180104062e-38
5.8359 -2.6295 3.5551 1.180104062e-38
3.0819 3.9933 2.8016 1.180104062e-38
5.9545 -3.009 3.5616 1.180104062e-38
2.9605 4.2114 2.7481 1.180104062e-38
2.5047 5.3976 3.1766 1.180104062e-38
6.0918 -3.4272 3.5834 1.180104062e-38
6.2603 -3.8989 3.6275 1.180104062e-38
2.7112 4.6959 2.667 1.180104062e-38
2.5048 5.3977 2.9268 1.180104062e-38
2.8922 4.5305 2.6437 1.180104062e-38
2.5048 5.3978 2.805 1.180104062e-38
2.6012 5.0082 2.5464 1.180104062e-38
6.7501 -5.0905 3.6469 1.180104062e-38
2.4569 5.2945 2.5177 1.180104062e-38
-7.6203 3.6399 3.6428 1.180104062e-38
2.4855 5.3561 2.4315 1.180104062e-38
-13.1679 1.7709 5.4711 1.180104062e-38
2.5049 5.398 2.3355 1.180104062e-38
-8.2515 3.4989 3.5176 1.180104062e-38
2.505 5.3981 2.1101 1.180104062e-38
-9.4744 3.0551 3.5298 1.180104062e-38
0.25 -3.1995 1.138 1.180104062e-38
0.3683 -2.9902 1.0123 1.180104062e-38
0.6958 -3.2381 1.1128 1.180104062e-38
2.505 5.3981 1.9994 1.180104062e-38
-0.0343 -3.077 1.0339 1.180104062e-38
0.5112 -3.0308 1.0327 1.180104062e-38
0.0968 -2.8946 0.9198 1.180104062e-38
0.3542 -2.8764 0.9204 1.180104062e-38
2.505 5.3982 1.89 1.180104062e-38
-0.3285 -3.2653 1.0422 1.180104062e-38
-0.0329 -2.9569 0.9391 1.180104062e-38
0.4914 -2.9132 0.9382 1.180104062e-38
0.6151 -2.8627 0.8766 1.180104062e-38
-11.2794 2.5556 3.4624 1.180104062e-38
-0.3079 -3.0605 0.9209 1.180104062e-38
-0.0317 -2.847 0.8524 1.180104062e-38
0.2172 -2.7798 0.8347 1.180104062e-38
0.0915 -2.7382 0.7708 1.180104062e-38
0.3347 -2.7178 0.7704 1.180104062e-38
0.9355 -3.016 0.8885 1.180104062e-38
2.5051 5.3983 1.6744 1.180104062e-38
-0.031 -2.7808 0.7824 1.180104062e-38
-12.2001 2.198 3.4878 1.180104062e-38
-0.4361 -2.9898 0.7961 1.180104062e-38
-0.1547 -2.7739 0.7321 1.180104062e-38
0.5829 -2.7128 0.7311 1.180104062e-38
0.8948 -2.8847 0.7959 1.180104062e-38
-13.5264 1.8191 3.5963 1.180104062e-38
-0.2879 -2.8616 0.7578 1.180104062e-38
0.2091 -2.6758 0.7072 1.180104062e-38
0.4534 -2.6879 0.7183 1.180104062e-38
1.1467 -3.1874 0.8926 1.180104062e-38
-0.423 -2.9003 0.7204 1.180104062e-38
-0.1517 -2.7199 0.6696 1.180104062e-38
0.5716 -2.6602 0.6688 1.180104062e-38
2.5051 5.3984 1.4628 1.180104062e-38
-0.5938 -3.0976 0.7753 1.180104062e-38
-0.2814 -2.7967 0.6909 1.180104062e-38
-0.0298 -2.674 0.6573 1.180104062e-38
0.2053 -2.6273 0.6478 1.180104062e-38
0.4447 -2.6367 0.6573 1.180104062e-38
1.0676 -2.9675 0.7752 1.180104062e-38
-0.1488 -2.6684 0.61 1.180104062e-38
0.5609 -2.61 0.6093 1.180104062e-38
0.8457 -2.7264 0.6515 1.180104062e-38
2.5051 5.3984 1.3584 1.180104062e-38
-0.0292 -2.6243 0.599 1.180104062e-38
0.2017 -2.581 0.5909 1.180104062e-38
0.4365 -2.5878 0.599 1.180104062e-38
1.0307 -2.865 0.6949 1.180104062e-38
-0.7599 -3.1888 0.6911 1.180104062e-38
-0.4036 -2.767 0.5895 1.180104062e-38
-0.1464 -2.6254 0.5543 1.180104062e-38
0.3126 -2.5385 0.5392 1.180104062e-38
0.5521 -2.5691 0.554 1.180104062e-38
-0.5573 -2.9074 0.6241 1.180104062e-38
-0.0288 -2.5863 0.5453 1.180104062e-38
0.1991 -2.548 0.5388 1.180104062e-38
0.4303 -2.5509 0.5454 1.180104062e-38
-0.1448 -2.5966 0.5033 1.180104062e-38
0.0846 -2.5319 0.4902 1.180104062e-38
0.3094 -2.5124 0.4899 1.180104062e-38
0.8148 -2.6266 0.5322 1.180104062e-38
1.1834 -2.8796 0.6025 1.180104062e-38
2.5052 5.3985 1.1517 1.180104062e-38
-0.2661 -2.6446 0.5144 1.180104062e-38
-0.0285 -2.5584 0.4951 1.180104062e-38
0.197 -2.5219 0.4895 1.180104062e-38
-0.1432 -2.5687 0.4536 1.180104062e-38
0.0838 -2.5063 0.4422 1.180104062e-38
0.8045 -2.5934 0.4788 1.180104062e-38
1.1466 -2.7902 0.5319 1.180104062e-38
2.5052 5.3986 1.0494 1.180104062e-38
-0.5337 -2.7844 0.4999 1.180104062e-38
-0.2628 -2.6121 0.4629 1.180104062e-38
-0.0282 -2.5313 0.4464 1.180104062e-38
0.1951 -2.4964 0.4415 1.180104062e-38
0.6656 -2.5405 0.4631 1.180104062e-38
-0.6888 -2.8901 0.4731 1.180104062e-38
-0.3873 -2.6554 0.4273 1.180104062e-38
0.083 -2.4813 0.3953 1.180104062e-38
0.3033 -2.4623 0.395 1.180104062e-38
0.7945 -2.5612 0.427 1.180104062e-38
2.5052 5.3986 0.9477 1.180104062e-38
-0.2596 -2.5806 0.413 1.180104062e-38
-0.0279 -2.505 0.3989 1.180104062e-38
0.1931 -2.4715 0.3948 1.180104062e-38
-0.3825 -2.6228 0.377 1.180104062e-38
0.0821 -2.457 0.3497 1.180104062e-38
0.5289 -2.4614 0.3581 1.180104062e-38
-0.8832 -3.0887 0.4569 1.180104062e-38
-0.0276 -2.4793 0.3527 1.180104062e-38
0.1912 -2.4473 0.3492 1.180104062e-38
0.4125 -2.4456 0.3528 1.180104062e-38
0.9298 -2.5844 0.3907 1.180104062e-38
-0.1388 -2.4892 0.3124 1.180104062e-38
0.0813 -2.4332 0.3051 1.180104062e-38
0.2974 -2.4145 0.3049 1.180104062e-38
0.5235 -2.4362 0.3123 1.180104062e-38
1.0907 -2.6542 0.3596 1.180104062e-38
2.5053 5.3987 0.7458 1.180104062e-38
0.9179 -2.5515 0.3398 1.180104062e-38
-0.6555 -2.7506 0.3067 1.180104062e-38
0.0806 -2.4119 0.2618 1.180104062e-38
1.0734 -2.6121 0.3063 1.180104062e-38
-0.8383 -2.9317 0.3307 1.180104062e-38
-0.0271 -2.4312 0.2637 1.180104062e-38
0.4046 -2.3985 0.2638 1.180104062e-38
0.6359 -2.4271 0.2721 1.180104062e-38
-0.6463 -2.7119 0.2556 1.180104062e-38
-0.3705 -2.5403 0.2354 1.180104062e-38
-0.1367 -2.4507 0.225 1.180104062e-38
0.0802 -2.3993 0.2201 1.180104062e-38
0.2932 -2.3811 0.2199 1.180104062e-38
0.5155 -2.3991 0.225 1.180104062e-38
0.7605 -2.4518 0.2353 1.180104062e-38
-0.5004 -2.6104 0.2437 1.180104062e-38
-0.25 -2.4847 0.2289 1.180104062e-38
0.1868 -2.3901 0.2198 1.180104062e-38
0.4024 -2.3855 0.2218 1.180104062e-38
0.6322 -2.4133 0.2287 1.180104062e-38
0.8988 -2.4984 0.2434 1.180104062e-38
-1.0518 -3.1415 0.2483 1.180104062e-38
-0.6408 -2.6889 0.2071 1.180104062e-38
0.0798 -2.3868 0.179 1.180104062e-38
0.2917 -2.3688 0.1789 1.180104062e-38
0.5127 -2.3859 0.1829 1.180104062e-38
0.7557 -2.4362 0.1911 1.180104062e-38
1.0504 -2.556 0.2071 1.180104062e-38
1.5252 -2.9366 0.248 1.180104062e-38
2.5053 5.3988 0.446 1.180104062e-38
-0.8087 -2.828 0.2204 1.180104062e-38
-0.2486 -2.4708 0.1861 1.180104062e-38
0.1858 -2.3778 0.1787 1.180104062e-38
0.4002 -2.3725 0.1803 1.180104062e-38
0.8929 -2.4819 0.1977 1.180104062e-38
1.2356 -2.6627 0.22 1.180104062e-38
-1.0263 -3.0653 0.1883 1.180104062e-38
-0.6354 -2.6663 0.1596 1.180104062e-38
-0.1352 -2.424 0.1414 1.180104062e-38
0.0794 -2.3746 0.1384 1.180104062e-38
0.5099 -2.3729 0.1414 1.180104062e-38
0.7509 -2.4208 0.1476 1.180104062e-38
1.0416 -2.5346 0.1596 1.180104062e-38
1.485 -2.8592 0.1876 1.180104062e-38
2.5054 5.3989 0.3467 1.180104062e-38
-0.8014 -2.8028 0.1698 1.180104062e-38
-0.4938 -2.5762 0.1528 1.180104062e-38
-0.2472 -2.4571 0.1438 1.180104062e-38
-0.0267 -2.392 0.1393 1.180104062e-38
0.1848 -2.3655 0.1382 1.180104062e-38
0.398 -2.3598 0.1394 1.180104062e-38
0.6253 -2.3866 0.1437 1.180104062e-38
0.8871 -2.4657 0.1526 1.180104062e-38
1.2247 -2.6391 0.1695 1.180104062e-38
0.079 -2.3624 0.0983 1.180104062e-38
0.2887 -2.3446 0.0982 1.180104062e-38
0.5071 -2.3601 0.1004 1.180104062e-38
2.5054 5.3989 0.2475 1.180104062e-38
-0.4906 -2.5594 0.1084 1.180104062e-38
-0.2458 -2.4436 0.1021 1.180104062e-38
-0.0265 -2.3793 0.0989 1.180104062e-38
0.3959 -2.3473 0.099 1.180104062e-38
-0.625 -2.6224 0.0672 1.180104062e-38
-0.3613 -2.4769 0.0624 1.180104062e-38
0.2873 -2.3326 0.0586 1.180104062e-38
1.0245 -2.4931 0.0672 1.180104062e-38
1.4446 -2.7814 0.0782 1.180104062e-38
2.5054 5.399 0.1484 1.180104062e-38
-0.2445 -2.4303 0.0609 1.180104062e-38
0.3938 -2.3348 0.059 1.180104062e-38
0.8757 -2.434 0.0645 1.180104062e-38
1.2034 -2.5932 0.0713 1.180104062e-38
-0.133 -2.3852 0.0199 1.180104062e-38
0.2858 -2.3209 0.0194 1.180104062e-38
0.737 -2.3759 0.0207 1.180104062e-38
1.0162 -2.4728 0.0222 1.180104062e-38
1.4253 -2.7442 0.0257 1.180104062e-38
-0.7806 -2.73 0.0236 1.180104062e-38
-0.2432 -2.4171 0.0202 1.180104062e-38
0.3918 -2.3226 0.0196 1.180104062e-38
0.6151 -2.3478 0.0202 1.180104062e-38
0.8701 -2.4184 0.0214 1.180104062e-38
1.193 -2.5709 0.0236 1.180104062e-38
-0.6149 -2.58 -0.022 1.180104062e-38
-0.1323 -2.3726 -0.0198 1.180104062e-38
0.2844 -2.3092 -0.0193 1.180104062e-38
0.4991 -2.3226 -0.0197 1.180104062e-38
0.7325 -2.3613 -0.0205 1.180104062e-38
1.4064 -2.7079 -0.0254 1.180104062e-38
-0.7739 -2.7065 -0.0234 1.180104062e-38
-0.4813 -2.5106 -0.0212 1.180104062e-38
0.3897 -2.3104 -0.0195 1.180104062e-38
0.6118 -2.3351 -0.0201 1.180104062e-38
0.8646 -2.4031 -0.0212 1.180104062e-38
1.1829 -2.549 -0.0234 1.180104062e-38
-0.3547 -2.4318 -0.0613 1.180104062e-38
-0.1316 -2.36 -0.0589 1.180104062e-38
0.0774 -2.3152 -0.0578 1.180104062e-38
0.283 -2.2977 -0.0577 1.180104062e-38
0.4965 -2.3107 -0.0589 1.180104062e-38
0.7283 -2.348 -0.0613 1.180104062e-38
2.5054 5.3991 -0.1484 1.180104062e-38
-0.026 -2.3298 -0.0581 1.180104062e-38
0.1802 -2.3065 -0.0577 1.180104062e-38
0.6087 -2.3232 -0.0599 1.180104062e-38
-0.9563 -2.8564 -0.1252 1.180104062e-38
-0.1314 -2.3559 -0.0981 1.180104062e-38
0.0773 -2.3112 -0.0962 1.180104062e-38
0.2825 -2.2939 -0.0961 1.180104062e-38
0.9986 -2.4299 -0.1092 1.180104062e-38
1.387 -2.6705 -0.1251 1.180104062e-38
-0.2402 -2.3871 -0.0998 1.180104062e-38
-0.0259 -2.3256 -0.0967 1.180104062e-38
0.1799 -2.3026 -0.096 1.180104062e-38
0.387 -2.2946 -0.0968 1.180104062e-38
0.8579 -2.3847 -0.1054 1.180104062e-38
1.1716 -2.5247 -0.1157 1.180104062e-38
-0.9523 -2.8442 -0.1747 1.180104062e-38
-0.6084 -2.5529 -0.1529 1.180104062e-38
-0.3533 -2.4222 -0.1426 1.180104062e-38
0.7254 -2.3386 -0.1426 1.180104062e-38
0.9961 -2.4238 -0.1526 1.180104062e-38
1.381 -2.6589 -0.1745 1.180104062e-38
-0.7639 -2.6714 -0.1618 1.180104062e-38
-0.0259 -2.3217 -0.1352 1.180104062e-38
0.1796 -2.2988 -0.1343 1.180104062e-38
0.8561 -2.3797 -0.1473 1.180104062e-38
1.1683 -2.5176 -0.1617 1.180104062e-38
-0.6071 -2.5475 -0.1963 1.180104062e-38
-0.1309 -2.3478 -0.1762 1.180104062e-38
0.2816 -2.2864 -0.1726 1.180104062e-38
0.494 -2.2987 -0.1762 1.180104062e-38
2.5055 5.3992 -0.4461 1.180104062e-38
-0.4754 -2.4802 -0.1892 1.180104062e-38
-0.2393 -2.3787 -0.1792 1.180104062e-38
-0.0258 -2.3178 -0.1737 1.180104062e-38
0.3857 -2.2867 -0.1738 1.180104062e-38
0.8544 -2.3748 -0.1891 1.180104062e-38
1.165 -2.5106 -0.2074 1.180104062e-38
-0.6058 -2.5421 -0.2396 1.180104062e-38
-0.3519 -2.4126 -0.2235 1.180104062e-38
-0.1307 -2.3438 -0.2152 1.180104062e-38
0.4931 -2.2947 -0.2152 1.180104062e-38
0.7225 -2.3292 -0.2236 1.180104062e-38
0.9918 -2.4133 -0.2392 1.180104062e-38
1.3691 -2.636 -0.2723 1.180104062e-38
-0.7597 -2.6568 -0.2533 1.180104062e-38
-0.2389 -2.3746 -0.2188 1.180104062e-38
-0.0258 -2.3138 -0.2121 1.180104062e-38
0.179 -2.2913 -0.2107 1.180104062e-38
0.3851 -2.2828 -0.2122 1.180104062e-38
0.6044 -2.3069 -0.2186 1.180104062e-38
1.1618 -2.5036 -0.253 1.180104062e-38
1.7426 -3.0182 -0.3195 1.180104062e-38
-0.9402 -2.8081 -0.3212 1.180104062e-38
-0.6045 -2.5367 -0.2828 1.180104062e-38
0.2807 -2.2789 -0.2491 1.180104062e-38
0.7211 -2.3245 -0.264 1.180104062e-38
2.5055 5.3993 -0.6456 1.180104062e-38
-0.7576 -2.6495 -0.2989 1.180104062e-38
-0.2385 -2.3704 -0.2584 1.180104062e-38
0.3844 -2.2789 -0.2507 1.180104062e-38
1.1585 -2.4965 -0.2985 1.180104062e-38
-0.9362 -2.7962 -0.3695 1.180104062e-38
-0.6032 -2.5313 -0.3261 1.180104062e-38
-0.1303 -2.3357 -0.2932 1.180104062e-38
0.0766 -2.2923 -0.2874 1.180104062e-38
0.2802 -2.2752 -0.2873 1.180104062e-38
0.7196 -2.3198 -0.3044 1.180104062e-38
2.5056 5.3994 -0.7459 1.180104062e-38
-1.251 -3.2483 -0.4362 1.180104062e-38
-0.7555 -2.6422 -0.3444 1.180104062e-38
-0.4725 -2.465 -0.3145 1.180104062e-38
-0.2381 -2.3663 -0.298 1.180104062e-38
-0.0257 -2.306 -0.289 1.180104062e-38
0.6022 -2.2987 -0.2978 1.180104062e-38
1.1553 -2.4896 -0.3439 1.180104062e-38
-0.602 -2.5259 -0.3693 1.180104062e-38
-0.13 -2.3317 -0.3322 1.180104062e-38
0.7181 -2.3151 -0.3448 1.180104062e-38
1.3565 -2.6119 -0.4186 1.180104062e-38
2.5056 5.3994 -0.8467 1.180104062e-38
-0.7534 -2.6349 -0.3898 1.180104062e-38
-0.4715 -2.4599 -0.3563 1.180104062e-38
-0.2376 -2.3621 -0.3377 1.180104062e-38
0.1782 -2.28 -0.3253 1.180104062e-38
0.6012 -2.2947 -0.3374 1.180104062e-38
1.152 -2.4825 -0.3893 1.180104062e-38
-0.3491 -2.3935 -0.3852 1.180104062e-38
0.2793 -2.2677 -0.3638 1.180104062e-38
-0.7544 -2.6384 -0.437 1.180104062e-38
-0.4706 -2.4548 -0.398 1.180104062e-38
-0.2372 -2.3579 -0.3774 1.180104062e-38
-0.0256 -2.2981 -0.366 1.180104062e-38
1.1542 -2.4873 -0.4366 1.180104062e-38
0.9868 -2.4013 -0.4578 1.180104062e-38
2.5056 5.3995 -1.0496 1.180104062e-38
-0.2371 -2.3572 -0.4177 1.180104062e-38
-0.0256 -2.295 -0.4047 1.180104062e-38
0.1776 -2.273 -0.402 1.180104062e-38
0.3819 -2.2644 -0.4049 1.180104062e-38
0.8473 -2.3551 -0.4413 1.180104062e-38
1.1575 -2.4944 -0.4849 1.180104062e-38
-0.604 -2.5346 -0.5042 1.180104062e-38
-0.1299 -2.3298 -0.4516 1.180104062e-38
0.7187 -2.3169 -0.4694 1.180104062e-38
0.989 -2.4067 -0.5035 1.180104062e-38
-0.759 -2.6544 -0.5343 1.180104062e-38
-0.4725 -2.4647 -0.4856 1.180104062e-38
-0.0256 -2.2992 -0.445 1.180104062e-38
0.1779 -2.2768 -0.4419 1.180104062e-38
0.3826 -2.2684 -0.4452 1.180104062e-38
0.8491 -2.3601 -0.4854 1.180104062e-38
1.1608 -2.5016 -0.5337 1.180104062e-38
0.0765 -2.2893 -0.4829 1.180104062e-38
0.2798 -2.2723 -0.4827 1.180104062e-38
0.7202 -2.3217 -0.5125 1.180104062e-38
0.9912 -2.412 -0.5498 1.180104062e-38
1.3812 -2.6592 -0.6317 1.180104062e-38
12.2089 6.8686 -2.9532 1.180104062e-38
-0.0257 -2.3033 -0.4856 1.180104062e-38
0.1782 -2.2807 -0.4823 1.180104062e-38
0.8509 -2.3652 -0.5299 1.180104062e-38
13.0103 5.178 -2.9521 1.180104062e-38
12.5007 6.3169 -2.9528 1.180104062e-38
-0.9578 -2.8608 -0.6886 1.180104062e-38
-0.6069 -2.5465 -0.5975 1.180104062e-38
0.0767 -2.2933 -0.5237 1.180104062e-38
0.2803 -2.2762 -0.5235 1.180104062e-38
0.492 -2.2895 -0.5345 1.180104062e-38
11.2899 6.3516 -2.9566 1.180104062e-38
10.6838 7.334 -2.9578 1.180104062e-38
2.5057 5.3996 -1.3587 1.180104062e-38
-0.7637 -2.6708 -0.634 1.180104062e-38
-0.4746 -2.4757 -0.5754 1.180104062e-38
0.1785 -2.2847 -0.5231 1.180104062e-38
0.384 -2.2765 -0.5269 1.180104062e-38
0.6033 -2.3029 -0.5434 1.180104062e-38
0.8528 -2.3704 -0.575 1.180104062e-38
-0.3523 -2.4154 -0.6 1.180104062e-38
-0.1306 -2.3428 -0.5768 1.180104062e-38
0.0768 -2.2973 -0.565 1.180104062e-38
0.2808 -2.2802 -0.5647 1.180104062e-38
0.4929 -2.2937 -0.5767 1.180104062e-38
0.7232 -2.3315 -0.6 1.180104062e-38
0.9957 -2.4229 -0.6439 1.180104062e-38
1.3959 -2.6876 -0.7444 1.180104062e-38
2.5057 5.3997 -1.4632 1.180104062e-38
-0.2389 -2.375 -0.5867 1.180104062e-38
-0.0258 -2.3118 -0.5683 1.180104062e-38
0.3847 -2.2807 -0.5685 1.180104062e-38
0.8546 -2.3756 -0.6206 1.180104062e-38
1.1711 -2.5237 -0.6839 1.180104062e-38
-0.9805 -2.9287 -0.8138 1.180104062e-38
-0.6097 -2.5586 -0.6931 1.180104062e-38
0.0769 -2.3014 -0.6068 1.180104062e-38
0.2813 -2.2842 -0.6064 1.180104062e-38
0.9981 -2.4289 -0.6919 1.180104062e-38
-0.2394 -2.3795 -0.6302 1.180104062e-38
-0.0258 -2.3161 -0.6103 1.180104062e-38
0.1792 -2.2928 -0.606 1.180104062e-38
0.3854 -2.2848 -0.6106 1.180104062e-38
0.6056 -2.3116 -0.6297 1.180104062e-38
0.8565 -2.3808 -0.6667 1.180104062e-38
-0.9992 -2.9845 -0.8855 1.180104062e-38
-0.6112 -2.5648 -0.7418 1.180104062e-38
-0.1311 -2.3517 -0.6627 1.180104062e-38
0.2818 -2.2883 -0.6487 1.180104062e-38
1.0013 -2.4366 -0.7412 1.180104062e-38
1.446 -2.7841 -0.8827 1.180104062e-38
2.5058 5.3998 -1.6749 1.180104062e-38
-0.4779 -2.4929 -0.7142 1.180104062e-38
-0.2399 -2.3842 -0.6742 1.180104062e-38
-0.0259 -2.3205 -0.6529 1.180104062e-38
0.6068 -2.3161 -0.6736 1.180104062e-38
0.8585 -2.3862 -0.7135 1.180104062e-38
1.1866 -2.557 -0.7931 1.180104062e-38
0.0772 -2.3097 -0.6919 1.180104062e-38
0.2823 -2.2925 -0.6915 1.180104062e-38
1.4729 -2.8358 -0.9567 1.180104062e-38
2.5058 5.3998 -1.7822 1.180104062e-38
-0.7847 -2.7442 -0.8545 1.180104062e-38
-0.0259 -2.3249 -0.6961 1.180104062e-38
0.8626 -2.3976 -0.7628 1.180104062e-38
1.1994 -2.5846 -0.853 1.180104062e-38
0.2829 -2.2967 -0.7349 1.180104062e-38
0.4971 -2.3135 -0.7515 1.180104062e-38
0.7331 -2.3634 -0.7859 1.180104062e-38
1.0218 -2.4865 -0.8538 1.180104062e-38
1.5224 -2.9312 -1.049 1.180104062e-38
2.5058 5.3999 -1.8906 1.180104062e-38
-0.2413 -2.3988 -0.7657 1.180104062e-38
0.1801 -2.3052 -0.7343 1.180104062e-38
0.3876 -2.2977 -0.74 1.180104062e-38
0.6106 -2.3306 -0.7651 1.180104062e-38
0.8693 -2.4163 -0.8155 1.180104062e-38
-0.6301 -2.644 -0.9132 1.180104062e-38
-0.3599 -2.4675 -0.8378 1.180104062e-38
-0.1326 -2.3786 -0.8004 1.180104062e-38
0.2844 -2.3095 -0.7818 1.180104062e-38
0.5004 -2.3287 -0.8002 1.180104062e-38
0.7388 -2.3815 -0.8378 1.180104062e-38
1.0326 -2.5126 -0.9127 1.180104062e-38
2.5058 5.3999 -2.0001 1.180104062e-38
-0.4877 -2.5445 -0.8705 1.180104062e-38
-0.2429 -2.4149 -0.8155 1.180104062e-38
-0.0261 -2.344 -0.7876 1.180104062e-38
0.1811 -2.3179 -0.7811 1.180104062e-38
0.39 -2.3124 -0.7879 1.180104062e-38
1.2263 -2.6425 -0.9788 1.180104062e-38
-0.6371 -2.6733 -0.9745 1.180104062e-38
-0.3628 -2.4872 -0.8912 1.180104062e-38
-0.1335 -2.3945 -0.8504 1.180104062e-38
0.2862 -2.324 -0.8303 1.180104062e-38
0.7446 -2.4002 -0.8911 1.180104062e-38
1.0436 -2.5396 -0.9736 1.180104062e-38
-0.8124 -2.8412 -1.0478 1.180104062e-38
-0.4918 -2.5656 -0.9263 1.180104062e-38
-0.2446 -2.4314 -0.8665 1.180104062e-38
0.1822 -2.3325 -0.8296 1.180104062e-38
0.8834 -2.4554 -0.9253 1.180104062e-38
1.2411 -2.6745 -1.0455 1.180104062e-38
-0.1344 -2.4109 -0.9016 1.180104062e-38
0.5071 -2.36 -0.9014 1.180104062e-38
1.0551 -2.5675 -1.0365 1.180104062e-38
-0.2463 -2.4484 -0.9189 1.180104062e-38
0.3952 -2.343 -0.8873 1.180104062e-38
1.2874 -2.7744 -1.1421 1.180104062e-38
-0.6558 -2.752 -1.1103 1.180104062e-38
-0.1354 -2.4277 -0.9543 1.180104062e-38
0.2899 -2.3541 -0.9309 1.180104062e-38
0.7566 -2.4391 -1.0023 1.180104062e-38
2.5059 5.4001 -2.3365 1.180104062e-38
-0.885 -3.095 -1.2634 1.180104062e-38
-0.5002 -2.6096 -1.0428 1.180104062e-38
0.6275 -2.395 -0.9717 1.180104062e-38
0.8982 -2.4967 -1.0414 1.180104062e-38
1.3483 -2.9056 -1.2572 1.180104062e-38
-0.6728 -2.8233 -1.1951 1.180104062e-38
-0.3719 -2.5497 -1.061 1.180104062e-38
0.0798 -2.3876 -0.9837 1.180104062e-38
0.2919 -2.3698 -0.9832 1.180104062e-38
0.7629 -2.4594 -1.0603 1.180104062e-38
1.1013 -2.6798 -1.193 1.180104062e-38
2.5059 5.4002 -2.4514 1.180104062e-38
-0.5071 -2.6453 -1.1091 1.180104062e-38
-0.0268 -2.4083 -0.9918 1.180104062e-38
0.1858 -2.3783 -0.9823 1.180104062e-38
0.4006 -2.3753 -0.9919 1.180104062e-38
0.9107 -2.5314 -1.1078 1.180104062e-38
-0.691 -2.8995 -1.2857 1.180104062e-38
-0.3779 -2.5912 -1.1295 1.180104062e-38
-0.1373 -2.4627 -1.064 1.180104062e-38
0.0804 -2.4038 -1.0375 1.180104062e-38
0.7754 -2.4998 -1.129 1.180104062e-38
1.1301 -2.7499 -1.2824 1.180104062e-38
-0.2522 -2.5065 -1.0867 1.180104062e-38
0.4035 -2.3921 -1.0464 1.180104062e-38
0.6379 -2.4348 -1.0857 1.180104062e-38
0.9274 -2.5779 -1.1818 1.180104062e-38
-0.7283 -3.0561 -1.4176 1.180104062e-38
-0.3849 -2.639 -1.2033 1.180104062e-38
0.7895 -2.5452 -1.2024 1.180104062e-38
2.506 5.4003 -2.6863 1.180104062e-38
-0.256 -2.545 -1.1541 1.180104062e-38
-0.0273 -2.4536 -1.1072 1.180104062e-38
0.4082 -2.42 -1.1074 1.180104062e-38
0.9497 -2.6398 -1.2659 1.180104062e-38
0.301 -2.4438 -1.1607 1.180104062e-38
-0.5428 -2.8318 -1.3592 1.180104062e-38
0.4143 -2.4564 -1.1743 1.180104062e-38
0.9745 -2.7086 -1.3569 1.180104062e-38
-0.4 -2.7425 -1.3632 1.180104062e-38
0.0835 -2.4984 -1.2295 1.180104062e-38
0.5418 -2.5213 -1.2684 1.180104062e-38
-0.5759 -3.0045 -1.5047 1.180104062e-38
-0.2654 -2.6378 -1.304 1.180104062e-38
0.1944 -2.4882 -1.2276 1.180104062e-38
-0.4161 -2.8528 -1.478 1.180104062e-38
0.8526 -2.7487 -1.4754 1.180104062e-38
-0.2714 -2.6977 -1.39 1.180104062e-38
-0.4465 -3.0615 -1.6517 1.180104062e-38
-0.1501 -2.6921 -1.4394 1.180104062e-38
0.3152 -2.559 -1.3764 1.180104062e-38
-0.2831 -2.8136 -1.5096 1.180104062e-38
-0.0293 -2.6258 -1.4018 1.180104062e-38
0.4367 -2.5891 -1.4017 1.180104062e-38
0.5861 -2.7275 -1.5494 1.180104062e-38
-0.0303 -2.7173 -1.5093 1.180104062e-38
0.3363 -2.7309 -1.5886 1.180104062e-38
0.6342 -2.9514 -1.7429 1.180104062e-38
0.214 -2.7388 -1.5861 1.180104062e-38
