# .PCD v0.7 - Point Cloud Data file format
VERSION 0.7
FIELDS x y z rgb
SIZE 4 4 4 4
TYPE F F F F
COUNT 1 1 1 1
WIDTH 484
HEIGHT 1
VIEWPOINT 0 0 0 1 0 0 0
POINTS 484
DATA ascii
5.9909 0.942 3.5014 1.180104062e-38
4.2663 3.5262 3.1956 1.180104062e-38
2.7903 6.0129 3.8272 1.180104062e-38
6.041 0.6758 3.5095 1.180104062e-38
4.4369 3.346 3.2085 1.180104062e-38
6.4977 -0.1448 3.6097 1.180104062e-38
4.3453 3.5915 3.131 1.180104062e-38
2.7903 6.0129 3.6816 1.180104062e-38
6.3526 0.1416 3.5291 1.180104062e-38
4.1475 3.7512 3.1059 1.180104062e-38
6.5772 -0.1466 3.512 1.180104062e-38
2.7902 6.0128 3.5387 1.180104062e-38
6.6845 -0.4475 3.5765 1.180104062e-38
3.8584 4.1717 3.0335 1.180104062e-38
-6.6847 2.8346 3.5713 1.180104062e-38
7.1228 -1.12 3.5464 1.180104062e-38
3.5772 4.6351 2.8798 1.180104062e-38
3.4279 4.8762 2.8096 1.180104062e-38
2.7901 6.0125 3.1244 1.180104062e-38
3.6201 4.6906 2.793 1.180104062e-38
-7.0854 2.6386 3.564 1.180104062e-38
3.4662 4.9307 2.7195 1.180104062e-38
-7.5133 2.4227 3.562 1.180104062e-38
7.6245 -1.907 3.5463 1.180104062e-38
3.2717 5.125 2.7435 1.180104062e-38
3.1088 5.3845 2.682 1.180104062e-38
3.3036 5.175 2.6484 1.180104062e-38
8.1787 -2.84 3.5651 1.180104062e-38
2.9544 5.6883 2.5157 1.180104062e-38
8.8397 -3.983 3.6204 1.180104062e-38
2.7898 6.012 2.3501 1.180104062e-38
1.5615 -3.0064 1.1382 1.180104062e-38
2.0405 -2.9026 1.1921 1.180104062e-38
-10.4849 0.9369 3.5368 1.180104062e-38
1.3241 -3.222 1.1063 1.180104062e-38
1.7046 -2.6702 1.0061 1.180104062e-38
2.0788 -2.6935 1.0806 1.180104062e-38
-11.3342 0.5054 3.6032 1.180104062e-38
1.3688 -2.9497 1.0327 1.180104062e-38
1.5725 -2.7237 0.9988 1.180104062e-38
1.4119 -2.7184 0.9171 1.180104062e-38
1.9574 -2.5363 0.9591 1.180104062e-38
1.1859 -3.2964 1.0488 1.180104062e-38
1.3149 -2.8335 0.9352 1.180104062e-38
1.7866 -2.5415 0.9301 1.180104062e-38
1.1792 -2.8695 0.8729 1.180104062e-38
1.5919 -2.4936 0.8324 1.180104062e-38
2.4938 -2.6962 1.0333 1.180104062e-38
2.7897 6.0117 1.8647 1.180104062e-38
1.1097 -3.0845 0.9223 1.180104062e-38
1.4705 -2.547 0.8275 1.180104062e-38
1.1472 -2.7915 0.7952 1.180104062e-38
1.562 -2.4468 0.7649 1.180104062e-38
1.8338 -2.3762 0.7909 1.180104062e-38
2.7897 6.0116 1.7463 1.180104062e-38
1.0614 -2.9502 0.8262 1.180104062e-38
1.2381 -2.668 0.775 1.180104062e-38
1.443 -2.4993 0.7604 1.180104062e-38
2.0053 -2.3719 0.8184 1.180104062e-38
0.9546 -3.0772 0.7919 1.180104062e-38
1.5334 -2.4021 0.7005 1.180104062e-38
2.7896 6.0115 1.629 1.180104062e-38
-13.6824 -0.6101 3.3665 1.180104062e-38
1.0348 -2.8763 0.7514 1.180104062e-38
1.2134 -2.6149 0.7086 1.180104062e-38
1.4167 -2.4538 0.6964 1.180104062e-38
1.6533 -2.3518 0.7066 1.180104062e-38
1.9563 -2.3139 0.7448 1.180104062e-38
0.9288 -2.9943 0.7156 1.180104062e-38
2.1064 -2.2775 0.7081 1.180104062e-38
2.7896 6.0114 1.5126 1.180104062e-38
0.8628 -3.2932 0.777 1.180104062e-38
1.0097 -2.8066 0.6808 1.180104062e-38
1.1915 -2.5677 0.6461 1.180104062e-38
1.6236 -2.3096 0.6444 1.180104062e-38
0.9059 -2.9204 0.6446 1.180104062e-38
1.48 -2.3184 0.5799 1.180104062e-38
1.7276 -2.2386 0.5961 1.180104062e-38
1.1706 -2.5225 0.5863 1.180104062e-38
1.8736 -2.2161 0.6118 1.180104062e-38
1.0642 -2.5896 0.5418 1.180104062e-38
1.4637 -2.2929 0.5264 1.180104062e-38
2.0083 -2.1713 0.5724 1.180104062e-38
0.8032 -3.066 0.6133 1.180104062e-38
1.353 -2.3435 0.5237 1.180104062e-38
1.8431 -2.18 0.5524 1.180104062e-38
1.2426 -2.3925 0.4754 1.180104062e-38
1.6843 -2.1825 0.4861 1.180104062e-38
2.4422 -2.2088 0.5806 1.180104062e-38
2.7895 6.0112 1.1685 1.180104062e-38
1.3393 -2.3197 0.4723 1.180104062e-38
1.5604 -2.2197 0.4784 1.180104062e-38
1.8221 -2.1552 0.4976 1.180104062e-38
0.8597 -2.7713 0.462 1.180104062e-38
1.0406 -2.5321 0.4359 1.180104062e-38
2.3914 -2.1629 0.5134 1.180104062e-38
1.1332 -2.4419 0.4287 1.180104062e-38
1.8016 -2.131 0.4444 1.180104062e-38
1.218 -2.345 0.3758 1.180104062e-38
1.4202 -2.2246 0.3754 1.180104062e-38
1.648 -2.1354 0.3837 1.180104062e-38
1.9287 -2.0853 0.404 1.180104062e-38
2.7894 6.0111 0.9426 1.180104062e-38
0.7596 -2.8994 0.4263 1.180104062e-38
1.1218 -2.4175 0.3791 1.180104062e-38
1.5293 -2.1755 0.3782 1.180104062e-38
1.7818 -2.1075 0.3925 1.180104062e-38
2.1104 -2.0871 0.4222 1.180104062e-38
2.746 -2.2697 0.5067 1.180104062e-38
0.8369 -2.698 0.354 1.180104062e-38
1.0182 -2.4776 0.3357 1.180104062e-38
1.6305 -2.1127 0.3344 1.180104062e-38
1.9038 -2.0584 0.3514 1.180104062e-38
0.5921 -3.5101 0.4461 1.180104062e-38
0.7491 -2.8594 0.3704 1.180104062e-38
1.1108 -2.3937 0.3307 1.180104062e-38
1.7625 -2.0846 0.3421 1.180104062e-38
0.8261 -2.663 0.3024 1.180104062e-38
1.0074 -2.4514 0.2875 1.180104062e-38
1.1945 -2.2997 0.2811 1.180104062e-38
1.6135 -2.0906 0.2864 1.180104062e-38
1.8804 -2.033 0.3004 1.180104062e-38
2.2605 -2.0445 0.3306 1.180104062e-38
2.7894 6.0109 0.7188 1.180104062e-38
0.739 -2.8206 0.3163 1.180104062e-38
1.1 -2.3705 0.2835 1.180104062e-38
1.2877 -2.2303 0.2793 1.180104062e-38
1.4997 -2.1333 0.2829 1.180104062e-38
0.6377 -2.9676 0.2783 1.180104062e-38
0.8181 -2.6374 0.2532 1.180104062e-38
1.1872 -2.2857 0.2361 1.180104062e-38
1.3844 -2.1686 0.2359 1.180104062e-38
1.8638 -2.0151 0.2516 1.180104062e-38
2.7893 6.0109 0.6075 1.180104062e-38
0.5522 -3.2736 0.3044 1.180104062e-38
0.7298 -2.7858 0.264 1.180104062e-38
2.0299 -2.0074 0.2617 1.180104062e-38
0.6308 -2.9357 0.225 1.180104062e-38
0.8132 -2.6215 0.2057 1.180104062e-38
0.9943 -2.4196 0.196 1.180104062e-38
1.3772 -2.1573 0.1918 1.180104062e-38
1.5928 -2.0639 0.1954 1.180104062e-38
1.8527 -2.0031 0.2045 1.180104062e-38
2.1982 -1.9882 0.2221 1.180104062e-38
0.7245 -2.7656 0.2142 1.180104062e-38
2.0155 -1.9932 0.2124 1.180104062e-38
2.4604 -2.0336 0.2392 1.180104062e-38
0.6247 -2.9069 0.1732 1.180104062e-38
0.8083 -2.6059 0.1589 1.180104062e-38
1.37 -2.1462 0.1483 1.180104062e-38
1.8418 -1.9914 0.158 1.180104062e-38
2.9539 -2.2276 0.2155 1.180104062e-38
2.7893 6.0107 0.3859 1.180104062e-38
0.5343 -3.1674 0.1871 1.180104062e-38
0.7193 -2.7457 0.1653 1.180104062e-38
0.9007 -2.5034 0.155 1.180104062e-38
1.0816 -2.3307 0.1497 1.180104062e-38
1.2668 -2.1942 0.1476 1.180104062e-38
1.7099 -2.0225 0.1543 1.180104062e-38
2.0014 -1.9792 0.1639 1.180104062e-38
2.4354 -2.0129 0.184 1.180104062e-38
0.6199 -2.8847 0.1227 1.180104062e-38
0.8036 -2.5905 0.1128 1.180104062e-38
1.1688 -2.2503 0.1054 1.180104062e-38
2.1662 -1.9592 0.1214 1.180104062e-38
2.8119 -2.1205 0.1464 1.180104062e-38
0.5287 -3.1342 0.1322 1.180104062e-38
0.8955 -2.489 0.11 1.180104062e-38
1.4671 -2.0869 0.1061 1.180104062e-38
1.7002 -2.011 0.1095 1.180104062e-38
1.9874 -1.9654 0.1162 1.180104062e-38
2.411 -1.9927 0.1301 1.180104062e-38
0.4439 -3.6043 0.0906 1.180104062e-38
0.6153 -2.8634 0.073 1.180104062e-38
0.9776 -2.3789 0.0641 1.180104062e-38
2.1506 -1.9451 0.0723 1.180104062e-38
2.7892 6.0106 0.1652 1.180104062e-38
0.5232 -3.1018 0.0784 1.180104062e-38
0.8904 -2.4748 0.0656 1.180104062e-38
1.0704 -2.3066 0.0634 1.180104062e-38
1.2539 -2.1718 0.0625 1.180104062e-38
1.6906 -1.9996 0.0653 1.180104062e-38
1.9737 -1.9519 0.0692 1.180104062e-38
0.6108 -2.8423 0.0242 1.180104062e-38
0.7942 -2.5603 0.0223 1.180104062e-38
0.9722 -2.3657 0.0213 1.180104062e-38
1.1569 -2.2274 0.0209 1.180104062e-38
1.8101 -1.957 0.0222 1.180104062e-38
2.1352 -1.9312 0.0239 1.180104062e-38
2.7149 -2.0474 0.0283 1.180104062e-38
2.7892 6.0105 0.0551 1.180104062e-38
0.7042 -2.6879 0.0231 1.180104062e-38
0.8853 -2.4607 0.0217 1.180104062e-38
1.4521 -2.0656 0.021 1.180104062e-38
0.6063 -2.8216 -0.024 1.180104062e-38
1.3424 -2.1028 -0.0207 1.180104062e-38
1.5492 -2.0074 -0.0211 1.180104062e-38
1.7997 -1.9459 -0.022 1.180104062e-38
2.1201 -1.9175 -0.0238 1.180104062e-38
1.0595 -2.2831 -0.0209 1.180104062e-38
1.2413 -2.15 -0.0206 1.180104062e-38
1.4447 -2.0551 -0.0209 1.180104062e-38
1.6717 -1.9773 -0.0215 1.180104062e-38
2.3406 -1.9346 -0.0252 1.180104062e-38
0.416 -3.3774 -0.0849 1.180104062e-38
0.6029 -2.8058 -0.0716 1.180104062e-38
1.1457 -2.2059 -0.062 1.180104062e-38
1.3362 -2.0932 -0.0619 1.180104062e-38
2.108 -1.9066 -0.0709 1.180104062e-38
2.6378 -1.9893 -0.0824 1.180104062e-38
2.7891 6.0104 -0.1652 1.180104062e-38
0.5089 -3.0169 -0.0763 1.180104062e-38
1.0546 -2.2727 -0.0625 1.180104062e-38
1.438 -2.0457 -0.0624 1.180104062e-38
0.7843 -2.5283 -0.1101 1.180104062e-38
1.3341 -2.0898 -0.1031 1.180104062e-38
1.5389 -1.9941 -0.1047 1.180104062e-38
2.1032 -1.9022 -0.1179 1.180104062e-38
2.6235 -1.9785 -0.1366 1.180104062e-38
2.7891 6.0103 -0.2755 1.180104062e-38
0.6938 -2.6481 -0.1138 1.180104062e-38
0.8744 -2.4304 -0.1074 1.180104062e-38
1.2336 -2.1367 -0.1026 1.180104062e-38
1.6605 -1.964 -0.1069 1.180104062e-38
1.9316 -1.9102 -0.113 1.180104062e-38
2.3162 -1.9144 -0.1249 1.180104062e-38
0.411 -3.3374 -0.1958 1.180104062e-38
0.6001 -2.7925 -0.1664 1.180104062e-38
0.7828 -2.5236 -0.1539 1.180104062e-38
1.142 -2.1987 -0.1443 1.180104062e-38
1.7843 -1.9291 -0.1531 1.180104062e-38
2.0984 -1.8979 -0.1648 1.180104062e-38
2.6093 -1.9678 -0.1903 1.180104062e-38
0.5055 -2.9971 -0.177 1.180104062e-38
0.6922 -2.6421 -0.1591 1.180104062e-38
0.8728 -2.426 -0.1502 1.180104062e-38
1.0512 -2.2652 -0.1454 1.180104062e-38
1.2316 -2.1332 -0.1435 1.180104062e-38
1.6575 -1.9605 -0.1495 1.180104062e-38
0.7814 -2.5189 -0.1976 1.180104062e-38
0.9571 -2.3289 -0.1887 1.180104062e-38
1.1401 -2.1951 -0.1854 1.180104062e-38
1.5338 -1.9875 -0.1881 1.180104062e-38
2.5952 -1.9571 -0.2436 1.180104062e-38
2.789 6.0101 -0.4965 1.180104062e-38
1.431 -2.0356 -0.1865 1.180104062e-38
1.9231 -1.9018 -0.2027 1.180104062e-38
2.3017 -1.9025 -0.2238 1.180104062e-38
0.4062 -3.2982 -0.3047 1.180104062e-38
1.7777 -1.9221 -0.24 1.180104062e-38
2.789 6.0101 -0.6074 1.180104062e-38
0.6891 -2.6302 -0.2493 1.180104062e-38
0.8696 -2.4171 -0.2355 1.180104062e-38
1.0477 -2.2577 -0.2282 1.180104062e-38
1.2276 -2.1263 -0.2251 1.180104062e-38
1.4286 -2.0322 -0.2277 1.180104062e-38
1.6515 -1.9535 -0.2345 1.180104062e-38
1.9189 -1.8976 -0.2474 1.180104062e-38
0.7784 -2.5094 -0.285 1.180104062e-38
0.9539 -2.3211 -0.2722 1.180104062e-38
1.7744 -1.9185 -0.2835 1.180104062e-38
2.084 -1.8848 -0.3048 1.180104062e-38
2.7889 6.01 -0.7187 1.180104062e-38
1.4263 -2.0289 -0.269 1.180104062e-38
1.9147 -1.8935 -0.2921 1.180104062e-38
0.4029 -3.2711 -0.413 1.180104062e-38
0.5944 -2.7662 -0.3546 1.180104062e-38
0.9523 -2.3172 -0.314 1.180104062e-38
1.3232 -2.0728 -0.3082 1.180104062e-38
1.7711 -1.9149 -0.3269 1.180104062e-38
2.0792 -1.8805 -0.3513 1.180104062e-38
2.5546 -1.9265 -0.401 1.180104062e-38
2.7889 6.0099 -0.8303 1.180104062e-38
1.4239 -2.0255 -0.3103 1.180104062e-38
1.6456 -1.9464 -0.3194 1.180104062e-38
0.4054 -3.292 -0.4718 1.180104062e-38
0.5933 -2.761 -0.4017 1.180104062e-38
0.7755 -2.4999 -0.3723 1.180104062e-38
0.9507 -2.3133 -0.3557 1.180104062e-38
1.5237 -1.9743 -0.3547 1.180104062e-38
1.7678 -1.9114 -0.3703 1.180104062e-38
2.5699 -1.9381 -0.4578 1.180104062e-38
2.7889 6.0098 -0.9424 1.180104062e-38
0.8648 -2.4037 -0.3634 1.180104062e-38
1.0425 -2.2465 -0.3523 1.180104062e-38
1.2216 -2.1159 -0.3475 1.180104062e-38
1.6426 -1.9429 -0.3619 1.180104062e-38
2.2794 -1.884 -0.4206 1.180104062e-38
0.5948 -2.7678 -0.4508 1.180104062e-38
1.3188 -2.0659 -0.3903 1.180104062e-38
1.5211 -1.9709 -0.3964 1.180104062e-38
1.7669 -1.9104 -0.4144 1.180104062e-38
2.0793 -1.8806 -0.4464 1.180104062e-38
2.7888 6.0098 -1.055 1.180104062e-38
0.6851 -2.615 -0.4305 1.180104062e-38
0.8638 -2.4011 -0.4063 1.180104062e-38
1.0407 -2.2427 -0.3937 1.180104062e-38
1.2196 -2.1124 -0.3884 1.180104062e-38
1.4192 -2.0189 -0.393 1.180104062e-38
1.6405 -1.9404 -0.4046 1.180104062e-38
2.2871 -1.8904 -0.4725 1.180104062e-38
0.4107 -3.3349 -0.5925 1.180104062e-38
1.132 -2.1796 -0.4331 1.180104062e-38
1.5235 -1.9741 -0.4397 1.180104062e-38
2.0844 -1.8853 -0.4956 1.180104062e-38
2.6014 -1.9618 -0.5745 1.180104062e-38
2.7888 6.0097 -1.1682 1.180104062e-38
0.6867 -2.6213 -0.4778 1.180104062e-38
1.6436 -1.9441 -0.4489 1.180104062e-38
1.9119 -1.8907 -0.4741 1.180104062e-38
2.2949 -1.8968 -0.525 1.180104062e-38
0.4135 -3.357 -0.6545 1.180104062e-38
0.5977 -2.7817 -0.5506 1.180104062e-38
0.9524 -2.3176 -0.4849 1.180104062e-38
1.134 -2.1834 -0.4761 1.180104062e-38
1.7739 -1.9179 -0.5056 1.180104062e-38
2.6176 -1.974 -0.6344 1.180104062e-38
0.5045 -2.9909 -0.587 1.180104062e-38
0.8672 -2.4104 -0.4957 1.180104062e-38
1.044 -2.2498 -0.48 1.180104062e-38
1.2229 -2.1181 -0.4733 1.180104062e-38
1.4235 -2.025 -0.479 1.180104062e-38
0.4162 -3.3795 -0.7179 1.180104062e-38
0.7799 -2.5143 -0.555 1.180104062e-38
0.9541 -2.3217 -0.5292 1.180104062e-38
1.136 -2.1872 -0.5196 1.180104062e-38
1.3249 -2.0754 -0.5191 1.180104062e-38
2.6341 -1.9865 -0.6955 1.180104062e-38
0.5063 -3.0016 -0.6417 1.180104062e-38
0.6901 -2.6339 -0.574 1.180104062e-38
1.0459 -2.2538 -0.5238 1.180104062e-38
1.225 -2.1217 -0.5165 1.180104062e-38
1.921 -1.8997 -0.5696 1.180104062e-38
0.4246 -3.4471 -0.7927 1.180104062e-38
1.5317 -1.9847 -0.5722 1.180104062e-38
1.781 -1.9256 -0.5987 1.180104062e-38
2.1001 -1.8995 -0.6463 1.180104062e-38
2.7887 6.0095 -1.5121 1.180104062e-38
1.0477 -2.2578 -0.5681 1.180104062e-38
1.2271 -2.1255 -0.5602 1.180104062e-38
1.6533 -1.9555 -0.5845 1.180104062e-38
2.319 -1.9167 -0.6867 1.180104062e-38
0.6024 -2.8032 -0.7047 1.180104062e-38
0.7831 -2.5246 -0.6497 1.180104062e-38
0.9576 -2.3302 -0.6192 1.180104062e-38
2.1055 -1.9043 -0.6978 1.180104062e-38
2.7284 -2.0575 -0.84 1.180104062e-38
2.7887 6.0094 -1.6284 1.180104062e-38
0.5113 -3.0309 -0.7555 1.180104062e-38
1.4312 -2.0359 -0.6117 1.180104062e-38
1.6565 -1.9594 -0.6307 1.180104062e-38
1.9304 -1.909 -0.6673 1.180104062e-38
1.1421 -2.1989 -0.6529 1.180104062e-38
1.5373 -1.9919 -0.663 1.180104062e-38
2.1133 -1.9114 -0.7508 1.180104062e-38
0.5178 -3.07 -0.8204 1.180104062e-38
0.6952 -2.6535 -0.7228 1.180104062e-38
1.0515 -2.266 -0.6583 1.180104062e-38
1.2315 -2.1331 -0.649 1.180104062e-38
1.4338 -2.0396 -0.6569 1.180104062e-38
1.6599 -1.9633 -0.6774 1.180104062e-38
2.3567 -1.9479 -0.8057 1.180104062e-38
1.7925 -1.9381 -0.7428 1.180104062e-38
2.1318 -1.9281 -0.8087 1.180104062e-38
2.7886 6.0093 -1.8639 1.180104062e-38
0.5247 -3.1105 -0.8875 1.180104062e-38
0.6998 -2.6712 -0.7769 1.180104062e-38
1.2338 -2.137 -0.6943 1.180104062e-38
1.6632 -1.9673 -0.7248 1.180104062e-38
2.3865 -1.9725 -0.8711 1.180104062e-38
0.6163 -2.8679 -0.8782 1.180104062e-38
0.7926 -2.555 -0.8009 1.180104062e-38
0.965 -2.3483 -0.7601 1.180104062e-38
1.1469 -2.2081 -0.7449 1.180104062e-38
1.3374 -2.0951 -0.7441 1.180104062e-38
1.0566 -2.2768 -0.7515 1.180104062e-38
1.4403 -2.0489 -0.7498 1.180104062e-38
1.6721 -1.9777 -0.7753 1.180104062e-38
2.4174 -1.998 -0.9389 1.180104062e-38
0.622 -2.8946 -0.9403 1.180104062e-38
0.7982 -2.5732 -0.8556 1.180104062e-38
0.9716 -2.3643 -0.8118 1.180104062e-38
1.1539 -2.2217 -0.7951 1.180104062e-38
2.1704 -1.963 -0.9294 1.180104062e-38
2.7885 6.0091 -2.1039 1.180104062e-38
0.5391 -3.1959 -1.0293 1.180104062e-38
1.4493 -2.0616 -0.8003 1.180104062e-38
1.6836 -1.9913 -0.8282 1.180104062e-38
1.9796 -1.9577 -0.8842 1.180104062e-38
2.4494 -2.0245 -1.0092 1.180104062e-38
1.1612 -2.2356 -0.8464 1.180104062e-38
1.3541 -2.1211 -0.8455 1.180104062e-38
1.8308 -1.9795 -0.9059 1.180104062e-38
0.8934 -2.4832 -0.8867 1.180104062e-38
1.0698 -2.3055 -0.8539 1.180104062e-38
1.2514 -2.1675 -0.8409 1.180104062e-38
1.9971 -1.9749 -0.9437 1.180104062e-38
0.6387 -2.9726 -1.0781 1.180104062e-38
0.81 -2.6112 -0.9694 1.180104062e-38
0.9852 -2.3974 -0.9191 1.180104062e-38
1.3627 -2.1346 -0.898 1.180104062e-38
1.5779 -2.0445 -0.9158 1.180104062e-38
1.8443 -1.994 -0.9631 1.180104062e-38
2.2156 -2.0039 -1.0593 1.180104062e-38
0.8998 -2.5011 -0.9425 1.180104062e-38
1.2593 -2.1812 -0.8931 1.180104062e-38
1.7075 -2.0196 -0.9378 1.180104062e-38
2.015 -1.9927 -1.0049 1.180104062e-38
2.6392 -2.1814 -1.2141 1.180104062e-38
-1.8641 7.8222 -2.8513 1.180104062e-38
0.8161 -2.631 -1.0286 1.180104062e-38
0.9923 -2.4146 -0.9748 1.180104062e-38
1.3715 -2.1484 -0.9518 1.180104062e-38
1.5891 -2.0591 -0.9712 1.180104062e-38
1.8581 -2.0089 -1.0218 1.180104062e-38
2.2744 -2.0571 -1.1452 1.180104062e-38
2.7884 6.0089 -2.4736 1.180104062e-38
0.9064 -2.5195 -0.9998 1.180104062e-38
1.2674 -2.1953 -0.9465 1.180104062e-38
1.4773 -2.1015 -0.9592 1.180104062e-38
1.7199 -2.0343 -0.9947 1.180104062e-38
2.0335 -2.011 -1.0679 1.180104062e-38
0.6786 -3.1579 -1.2677 1.180104062e-38
0.8251 -2.66 -1.0931 1.180104062e-38
1.184 -2.2795 -1.0081 1.180104062e-38
1.3806 -2.1626 -1.007 1.180104062e-38
2.3422 -2.1184 -1.2394 1.180104062e-38
2.7884 6.0088 -2.5998 1.180104062e-38
-1.3676 7.1345 -2.8511 1.180104062e-38
0.7478 -2.8543 -1.158 1.180104062e-38
0.9132 -2.5384 -1.0588 1.180104062e-38
1.2758 -2.2097 -1.0014 1.180104062e-38
1.7327 -2.0494 -1.0533 1.180104062e-38
0.7235 -3.3668 -1.418 1.180104062e-38
1.01 -2.4577 -1.0942 1.180104062e-38
1.3899 -2.1772 -1.0636 1.180104062e-38
1.6163 -2.0943 -1.0893 1.180104062e-38
2.415 -2.1842 -1.3409 1.180104062e-38
2.7883 6.0087 -2.7277 1.180104062e-38
-0.6933 6.8913 -2.852 1.180104062e-38
-1.3032 6.7988 -2.8506 1.180104062e-38
0.7632 -2.913 -1.24 1.180104062e-38
0.9264 -2.5749 -1.1268 1.180104062e-38
1.2843 -2.2245 -1.0577 1.180104062e-38
2.1142 -2.0908 -1.2244 1.180104062e-38
0.858 -2.766 -1.2492 1.180104062e-38
1.4082 -2.2059 -1.1289 1.180104062e-38
-0.6616 6.5766 -2.8512 1.180104062e-38
0.7794 -2.9751 -1.3266 1.180104062e-38
1.5187 -2.1603 -1.1391 1.180104062e-38
1.7833 -2.1093 -1.1915 1.180104062e-38
0.8758 -2.8234 -1.3339 1.180104062e-38
1.0419 -2.5353 -1.2368 1.180104062e-38
1.225 -2.3586 -1.1992 1.180104062e-38
1.428 -2.237 -1.1975 1.180104062e-38
1.9861 -2.1473 -1.3198 1.180104062e-38
1.1306 -2.4363 -1.2119 1.180104062e-38
1.3185 -2.2838 -1.1899 1.180104062e-38
1.8121 -2.1434 -1.2664 1.180104062e-38
2.2409 -2.2161 -1.422 1.180104062e-38
0.2112 6.3172 -2.852 1.180104062e-38
1.4487 -2.2694 -1.2691 1.180104062e-38
2.0467 -2.2129 -1.4208 1.180104062e-38
0.4713 6.0309 -2.8515 1.180104062e-38
1.3376 -2.3167 -1.261 1.180104062e-38
1.8423 -2.1791 -1.3451 1.180104062e-38
2.4336 -2.4067 -1.6134 1.180104062e-38
0.9516 -3.0677 -1.5798 1.180104062e-38
1.082 -2.6329 -1.4001 1.180104062e-38
1.4704 -2.3033 -1.3441 1.180104062e-38
1.0033 -2.7887 -1.4577 1.180104062e-38
1.1646 -2.5096 -1.3608 1.180104062e-38
1.3575 -2.3512 -1.3354 1.180104062e-38
1.218 5.6682 -2.8516 1.180104062e-38
0.7086 5.7535 -2.8513 1.180104062e-38
1.2937 -2.4908 -1.4389 1.180104062e-38
1.5071 -2.3608 -1.4359 1.180104062e-38
1.1979 -2.5815 -1.459 1.180104062e-38
1.389 -2.4058 -1.4242 1.180104062e-38
1.6301 -2.3189 -1.4532 1.180104062e-38
1.9762 -2.3375 -1.5693 1.180104062e-38
1.2381 -2.6681 -1.5703 1.180104062e-38
1.6193 -2.5367 -1.6714 1.180104062e-38
1.4834 -2.5693 -1.6477 1.180104062e-38
