# .PCD v0.7 - Point Cloud Data file format
VERSION 0.7
FIELDS x y z rgb
SIZE 4 4 4 4
TYPE F F F F
COUNT 1 1 1 1
WIDTH 446
HEIGHT 1
VIEWPOINT 0 0 0 1 0 0 0
POINTS 446
DATA ascii
4.5639 -4.1278 3.5528 1.180104062e-38
1.9724 4.2504 2.7053 1.180104062e-38
2.118 4.0779 2.653 1.180104062e-38
1.8273 5.079 2.9979 1.180104062e-38
4.6669 -4.6152 3.6454 1.180104062e-38
2.0283 4.3709 2.5724 1.180104062e-38
1.8273 5.0789 2.8815 1.180104062e-38
4.7406 -4.6881 3.5592 1.180104062e-38
1.8752 4.5629 2.6336 1.180104062e-38
1.8272 5.0788 2.7671 1.180104062e-38
1.9235 4.6806 2.489 1.180104062e-38
1.7757 4.9355 2.4725 1.180104062e-38
1.827 5.0782 2.328 1.180104062e-38
1.827 5.0781 2.2223 1.180104062e-38
-8.1671 4.3581 3.6332 1.180104062e-38
1.8269 5.0779 2.0151 1.180104062e-38
-8.8459 4.2253 3.6606 1.180104062e-38
1.8268 5.0777 1.9135 1.180104062e-38
1.8268 5.0776 1.813 1.180104062e-38
-1.0432 -3.1158 1.0435 1.180104062e-38
-0.7795 -3.271 1.0679 1.180104062e-38
1.8267 5.0775 1.7137 1.180104062e-38
-1.3159 -3.0096 0.9834 1.180104062e-38
-1.0068 -3.0073 0.9494 1.180104062e-38
-0.7479 -3.1382 0.9658 1.180104062e-38
-0.5134 -3.5203 1.0651 1.180104062e-38
-11.418 3.6818 3.5917 1.180104062e-38
-1.5184 -3.0899 1.0307 1.180104062e-38
-0.8747 -3.0592 0.9526 1.180104062e-38
-0.626 -3.2659 0.9955 1.180104062e-38
-1.7001 -3.1024 0.9953 1.180104062e-38
-0.7204 -3.0229 0.8743 1.180104062e-38
-0.4844 -3.3215 0.9444 1.180104062e-38
-1.1119 -2.887 0.8704 1.180104062e-38
-0.8455 -2.957 0.8653 1.180104062e-38
-0.6023 -3.1424 0.9002 1.180104062e-38
-1.5962 -2.9127 0.8752 1.180104062e-38
-1.2305 -2.8143 0.8093 1.180104062e-38
-0.9521 -2.8439 0.7903 1.180104062e-38
-0.7032 -2.9507 0.7993 1.180104062e-38
1.8266 5.0771 1.4218 1.180104062e-38
-1.0862 -2.8202 0.7963 1.180104062e-38
-0.8267 -2.8912 0.7924 1.180104062e-38
-1.5463 -2.8216 0.7909 1.180104062e-38
-1.2059 -2.7581 0.7399 1.180104062e-38
-0.9348 -2.7923 0.7238 1.180104062e-38
-0.6903 -2.8965 0.7319 1.180104062e-38
-0.4511 -3.0932 0.7684 1.180104062e-38
-13.9779 3.167 3.5228 1.180104062e-38
-1.7876 -2.9429 0.8464 1.180104062e-38
-1.3618 -2.7712 0.759 1.180104062e-38
-1.0663 -2.7686 0.7293 1.180104062e-38
-0.5721 -2.9847 0.747 1.180104062e-38
-1.1825 -2.7045 0.6737 1.180104062e-38
-0.6779 -2.8448 0.6675 1.180104062e-38
-0.4414 -3.0264 0.6981 1.180104062e-38
-0.1914 -3.4334 0.7849 1.180104062e-38
1.8265 5.0769 1.2315 1.180104062e-38
-1.0473 -2.7193 0.6651 1.180104062e-38
-0.5609 -2.9262 0.6801 1.180104062e-38
-0.3202 -3.1834 0.7303 1.180104062e-38
-0.9025 -2.6956 0.5993 1.180104062e-38
-0.1849 -3.3171 0.7004 1.180104062e-38
-1.0291 -2.672 0.6037 1.180104062e-38
-0.7835 -2.7401 0.6008 1.180104062e-38
-0.3126 -3.1075 0.6584 1.180104062e-38
-1.1428 -2.6136 0.552 1.180104062e-38
-0.8911 -2.6615 0.5432 1.180104062e-38
-0.6571 -2.7575 0.5486 1.180104062e-38
-0.1789 -3.2092 0.622 1.180104062e-38
-1.6314 -2.6857 0.6081 1.180104062e-38
-1.2865 -2.618 0.5645 1.180104062e-38
-0.5415 -2.8251 0.5567 1.180104062e-38
-0.3054 -3.0355 0.5904 1.180104062e-38
-1.1305 -2.5855 0.4976 1.180104062e-38
1.8264 5.0765 0.9513 1.180104062e-38
-1.6022 -2.6377 0.5442 1.180104062e-38
-1.2721 -2.5886 0.5086 1.180104062e-38
-1.0052 -2.61 0.4932 1.180104062e-38
-0.0378 -3.391 0.598 1.180104062e-38
-1.405 -2.5638 0.4655 1.180104062e-38
-1.1191 -2.5594 0.4448 1.180104062e-38
-0.6439 -2.7019 0.4423 1.180104062e-38
-0.4155 -2.8488 0.4584 1.180104062e-38
1.8264 5.0765 0.8591 1.180104062e-38
-2.109 -2.8624 0.5662 1.180104062e-38
-1.5803 -2.6015 0.4847 1.180104062e-38
-1.258 -2.56 0.4542 1.180104062e-38
-0.758 -2.6508 0.439 1.180104062e-38
-0.5297 -2.7634 0.448 1.180104062e-38
-0.0369 -3.3134 0.5276 1.180104062e-38
-1.757 -2.6217 0.4489 1.180104062e-38
-1.1079 -2.5339 0.3934 1.180104062e-38
-0.8647 -2.5828 0.3874 1.180104062e-38
-0.4109 -2.8176 0.405 1.180104062e-38
0.1221 -3.6506 0.5195 1.180104062e-38
1.8263 5.0763 0.7673 1.180104062e-38
-2.0405 -2.7694 0.4893 1.180104062e-38
-1.2443 -2.5321 0.4013 1.180104062e-38
-0.9853 -2.5583 0.3899 1.180104062e-38
-0.2928 -2.911 0.4161 1.180104062e-38
-1.7268 -2.5766 0.3887 1.180104062e-38
-1.3741 -2.5074 0.3583 1.180104062e-38
-0.8563 -2.5578 0.338 1.180104062e-38
-0.6313 -2.6491 0.3413 1.180104062e-38
-0.4065 -2.7872 0.353 1.180104062e-38
-0.1679 -3.0105 0.3778 1.180104062e-38
-1.9864 -2.696 0.4197 1.180104062e-38
-1.5385 -2.5327 0.3714 1.180104062e-38
-0.9757 -2.5334 0.3402 1.180104062e-38
-0.5185 -2.705 0.3451 1.180104062e-38
-0.2891 -2.8738 0.362 1.180104062e-38
-1.7034 -2.5416 0.3319 1.180104062e-38
-1.0864 -2.4847 0.2941 1.180104062e-38
-0.8482 -2.5334 0.2898 1.180104062e-38
-0.6252 -2.6236 0.2925 1.180104062e-38
0.1143 -3.4187 0.371 1.180104062e-38
-1.5185 -2.4998 0.3173 1.180104062e-38
-1.218 -2.4786 0.2995 1.180104062e-38
-0.7361 -2.5745 0.2904 1.180104062e-38
-0.5131 -2.6769 0.2956 1.180104062e-38
-0.0349 -3.1339 0.3399 1.180104062e-38
-1.6807 -2.5078 0.2768 1.180104062e-38
-0.621 -2.6058 0.2456 1.180104062e-38
-0.3988 -2.7345 0.2533 1.180104062e-38
0.1112 -3.3253 0.305 1.180104062e-38
-1.9126 -2.5958 0.2956 1.180104062e-38
-1.5011 -2.4712 0.2651 1.180104062e-38
-0.9599 -2.4924 0.2449 1.180104062e-38
-0.5092 -2.6565 0.248 1.180104062e-38
-0.2833 -2.8163 0.2595 1.180104062e-38
-2.2186 -2.746 0.2646 1.180104062e-38
-1.6685 -2.4896 0.2246 1.180104062e-38
-1.3394 -2.4442 0.2089 1.180104062e-38
-0.8383 -2.504 0.1979 1.180104062e-38
-0.6177 -2.5922 0.1997 1.180104062e-38
-0.3965 -2.7188 0.2059 1.180104062e-38
1.8262 5.0759 0.4043 1.180104062e-38
-1.2014 -2.4448 0.2041 1.180104062e-38
-0.2816 -2.7997 0.2109 1.180104062e-38
-2.1805 -2.6989 0.2021 1.180104062e-38
-1.6565 -2.4717 0.1733 1.180104062e-38
-1.3317 -2.43 0.1614 1.180104062e-38
-1.0676 -2.4418 0.1552 1.180104062e-38
-0.6145 -2.5788 0.1544 1.180104062e-38
-0.3943 -2.7033 0.1591 1.180104062e-38
-1.8701 -2.5381 0.1836 1.180104062e-38
-1.4804 -2.4371 0.1661 1.180104062e-38
-1.1946 -2.4309 0.1578 1.180104062e-38
-0.95 -2.4666 0.1539 1.180104062e-38
-0.7238 -2.5313 0.1533 1.180104062e-38
-0.0337 -3.0279 0.1764 1.180104062e-38
0.2943 -3.7661 0.22 1.180104062e-38
-0.1602 -2.8734 0.1197 1.180104062e-38
-0.7201 -2.5184 0.1089 1.180104062e-38
-0.5009 -2.6135 0.1106 1.180104062e-38
-0.2784 -2.7673 0.1156 1.180104062e-38
-0.0335 -3.0061 0.125 1.180104062e-38
0.2813 -3.5995 0.1501 1.180104062e-38
-1.3165 -2.4023 0.0683 1.180104062e-38
-1.0567 -2.4167 0.0658 1.180104062e-38
-0.8256 -2.4659 0.0648 1.180104062e-38
-0.6083 -2.5524 0.0654 1.180104062e-38
0.1064 -3.1808 0.0794 1.180104062e-38
1.8261 5.0756 0.1345 1.180104062e-38
-0.4984 -2.6 0.066 1.180104062e-38
-1.6216 -2.4197 0.0242 1.180104062e-38
-1.309 -2.3886 0.0226 1.180104062e-38
-1.0513 -2.4044 0.0218 1.180104062e-38
-0.6052 -2.5395 0.0217 1.180104062e-38
-0.3877 -2.6581 0.0223 1.180104062e-38
-0.158 -2.8344 0.0236 1.180104062e-38
0.1053 -3.1499 0.0262 1.180104062e-38
-1.8167 -2.4656 0.0255 1.180104062e-38
-0.9355 -2.4291 0.0216 1.180104062e-38
-0.7128 -2.493 0.0216 1.180104062e-38
-1.3016 -2.3752 -0.0225 1.180104062e-38
-0.3855 -2.6434 -0.0222 1.180104062e-38
-0.157 -2.8153 -0.0234 1.180104062e-38
-1.7996 -2.4424 -0.0252 1.180104062e-38
-1.1682 -2.3772 -0.022 1.180104062e-38
-0.9308 -2.4168 -0.0215 1.180104062e-38
0.2672 -3.4194 -0.0285 1.180104062e-38
-2.0418 -2.5272 -0.081 1.180104062e-38
-1.296 -2.3649 -0.0673 1.180104062e-38
-1.0417 -2.3824 -0.0648 1.180104062e-38
-0.8139 -2.4311 -0.0639 1.180104062e-38
-0.1562 -2.8009 -0.07 1.180104062e-38
0.1036 -3.0992 -0.0773 1.180104062e-38
-1.7882 -2.4269 -0.0752 1.180104062e-38
-1.4352 -2.3628 -0.0689 1.180104062e-38
-1.1631 -2.3669 -0.0658 1.180104062e-38
-0.4912 -2.5629 -0.0651 1.180104062e-38
-0.2724 -2.7082 -0.0679 1.180104062e-38
0.2644 -3.3842 -0.0847 1.180104062e-38
-2.0351 -2.5189 -0.1346 1.180104062e-38
-1.5988 -2.3856 -0.1194 1.180104062e-38
-1.2936 -2.3606 -0.1119 1.180104062e-38
-0.5987 -2.5122 -0.1074 1.180104062e-38
-0.1558 -2.7949 -0.1164 1.180104062e-38
0.1033 -3.0897 -0.1285 1.180104062e-38
1.8259 5.0751 -0.2243 1.180104062e-38
-2.5897 -2.9282 -0.1625 1.180104062e-38
-1.7827 -2.4195 -0.125 1.180104062e-38
-1.4326 -2.3584 -0.1147 1.180104062e-38
-1.1611 -2.3627 -0.1095 1.180104062e-38
-0.9255 -2.403 -0.1071 1.180104062e-38
-0.4905 -2.5587 -0.1083 1.180104062e-38
-0.0325 -2.921 -0.1215 1.180104062e-38
-2.0285 -2.5107 -0.188 1.180104062e-38
-0.8113 -2.4233 -0.1488 1.180104062e-38
-0.5977 -2.5081 -0.1502 1.180104062e-38
-0.1555 -2.7888 -0.1627 1.180104062e-38
0.103 -3.0802 -0.1795 1.180104062e-38
-2.5373 -2.869 -0.2231 1.180104062e-38
-1.778 -2.4131 -0.1746 1.180104062e-38
-0.924 -2.3992 -0.1497 1.180104062e-38
-0.7041 -2.4624 -0.1492 1.180104062e-38
-0.2714 -2.6984 -0.158 1.180104062e-38
-0.0325 -2.9144 -0.1698 1.180104062e-38
0.2617 -3.3484 -0.1956 1.180104062e-38
-0.81 -2.4194 -0.1912 1.180104062e-38
-0.5967 -2.504 -0.1929 1.180104062e-38
-0.1552 -2.7828 -0.2089 1.180104062e-38
0.1027 -3.0708 -0.2303 1.180104062e-38
1.8258 5.0749 -0.4042 1.180104062e-38
-2.487 -2.8121 -0.2813 1.180104062e-38
-1.4273 -2.3496 -0.206 1.180104062e-38
-1.1569 -2.3543 -0.1966 1.180104062e-38
-0.9225 -2.3953 -0.1924 1.180104062e-38
-0.271 -2.6935 -0.2029 1.180104062e-38
-2.0152 -2.4943 -0.294 1.180104062e-38
-0.8087 -2.4155 -0.2335 1.180104062e-38
-0.5958 -2.5 -0.2356 1.180104062e-38
-0.1548 -2.7769 -0.255 1.180104062e-38
-1.4246 -2.3452 -0.2516 1.180104062e-38
-1.1549 -2.3502 -0.2401 1.180104062e-38
-0.921 -2.3914 -0.2349 1.180104062e-38
-0.7018 -2.4545 -0.234 1.180104062e-38
-0.2705 -2.6886 -0.2477 1.180104062e-38
-0.0323 -2.9013 -0.266 1.180104062e-38
0.2589 -3.3132 -0.3047 1.180104062e-38
-2.0086 -2.4862 -0.3467 1.180104062e-38
-1.2843 -2.3435 -0.2899 1.180104062e-38
-0.3804 -2.6084 -0.2859 1.180104062e-38
0.1021 -3.052 -0.3312 1.180104062e-38
-2.3937 -2.7066 -0.3919 1.180104062e-38
-0.9195 -2.3875 -0.2775 1.180104062e-38
-0.4872 -2.542 -0.2807 1.180104062e-38
0.2575 -3.2958 -0.3586 1.180104062e-38
-0.8061 -2.4077 -0.3182 1.180104062e-38
-0.5938 -2.4919 -0.321 1.180104062e-38
-0.1541 -2.7649 -0.347 1.180104062e-38
1.8257 5.0746 -0.6758 1.180104062e-38
-2.4552 -2.7761 -0.4644 1.180104062e-38
-1.1508 -2.3418 -0.327 1.180104062e-38
-0.4864 -2.5379 -0.3238 1.180104062e-38
-0.0322 -2.8883 -0.362 1.180104062e-38
-2.0109 -2.4889 -0.4551 1.180104062e-38
-0.8048 -2.4038 -0.3606 1.180104062e-38
-0.5929 -2.4878 -0.3638 1.180104062e-38
-0.3791 -2.5992 -0.3736 1.180104062e-38
-0.1538 -2.7589 -0.393 1.180104062e-38
0.1019 -3.0476 -0.4337 1.180104062e-38
1.8257 5.0745 -0.7671 1.180104062e-38
-2.5217 -2.8513 -0.5414 1.180104062e-38
-0.9165 -2.3797 -0.3627 1.180104062e-38
-0.4856 -2.5337 -0.3669 1.180104062e-38
-2.018 -2.4977 -0.5113 1.180104062e-38
-1.5827 -2.3616 -0.4527 1.180104062e-38
-0.804 -2.4016 -0.4033 1.180104062e-38
-0.5925 -2.4861 -0.407 1.180104062e-38
-0.3791 -2.5995 -0.4183 1.180104062e-38
-0.1542 -2.7649 -0.441 1.180104062e-38
0.1023 -3.058 -0.4872 1.180104062e-38
1.8256 5.0744 -0.8587 1.180104062e-38
-2.5922 -2.9311 -0.6231 1.180104062e-38
-1.4188 -2.3358 -0.4352 1.180104062e-38
-0.6978 -2.4404 -0.4042 1.180104062e-38
0.2602 -3.3301 -0.5319 1.180104062e-38
-1.283 -2.3412 -0.4707 1.180104062e-38
-1.0311 -2.3583 -0.4538 1.180104062e-38
-0.3798 -2.6045 -0.4641 1.180104062e-38
-0.1545 -2.7715 -0.4894 1.180104062e-38
0.1026 -3.0685 -0.5414 1.180104062e-38
1.8256 5.0743 -0.9509 1.180104062e-38
-1.1508 -2.3419 -0.4601 1.180104062e-38
-0.9175 -2.3821 -0.4501 1.180104062e-38
-0.699 -2.4447 -0.4483 1.180104062e-38
-0.4863 -2.5371 -0.4555 1.180104062e-38
-0.2698 -2.6817 -0.4752 1.180104062e-38
-0.0323 -2.9003 -0.5114 1.180104062e-38
0.2618 -3.3505 -0.5926 1.180104062e-38
-1.5904 -2.3731 -0.5528 1.180104062e-38
-1.033 -2.3625 -0.499 1.180104062e-38
-0.8069 -2.41 -0.4918 1.180104062e-38
-0.5946 -2.4949 -0.4963 1.180104062e-38
-0.3806 -2.6096 -0.5104 1.180104062e-38
0.103 -3.0792 -0.5962 1.180104062e-38
-1.4246 -2.3452 -0.531 1.180104062e-38
-1.1531 -2.3465 -0.5059 1.180104062e-38
-0.2703 -2.6871 -0.5226 1.180104062e-38
0.2635 -3.3713 -0.6544 1.180104062e-38
-2.0398 -2.5248 -0.6843 1.180104062e-38
-1.5943 -2.3789 -0.6037 1.180104062e-38
-1.2881 -2.3504 -0.5651 1.180104062e-38
-1.0348 -2.3667 -0.5446 1.180104062e-38
0.1033 -3.09 -0.6518 1.180104062e-38
1.8255 5.074 -1.1368 1.180104062e-38
-9.2203 -10.4256 -2.9342 1.180104062e-38
-1.7803 -2.4162 -0.6327 1.180104062e-38
-1.4275 -2.35 -0.5797 1.180104062e-38
-0.2709 -2.6925 -0.5705 1.180104062e-38
0.2651 -3.3926 -0.7174 1.180104062e-38
-2.0504 -2.5379 -0.7447 1.180104062e-38
-0.5967 -2.5039 -0.5875 1.180104062e-38
0.1037 -3.1009 -0.7082 1.180104062e-38
-0.7028 -2.4578 -0.5835 1.180104062e-38
-0.4889 -2.5509 -0.5928 1.180104062e-38
-0.2714 -2.698 -0.6189 1.180104062e-38
0.27 -3.4548 -0.791 1.180104062e-38
-1.6023 -2.3908 -0.7074 1.180104062e-38
-0.5978 -2.5085 -0.6338 1.180104062e-38
-1.1599 -2.3603 -0.6464 1.180104062e-38
-0.924 -2.3993 -0.632 1.180104062e-38
-0.4898 -2.5556 -0.6396 1.180104062e-38
-0.0326 -2.9299 -0.7202 1.180104062e-38
0.2765 -3.5382 -0.8723 1.180104062e-38
-1.0405 -2.3798 -0.6844 1.180104062e-38
-0.5989 -2.5131 -0.6807 1.180104062e-38
-0.3837 -2.6306 -0.7005 1.180104062e-38
1.8254 5.0737 -1.4208 1.180104062e-38
-0.7053 -2.4668 -0.676 1.180104062e-38
-0.4907 -2.5603 -0.6869 1.180104062e-38
0.2884 -3.6909 -0.9755 1.180104062e-38
-1.6248 -2.4245 -0.8212 1.180104062e-38
-1.3017 -2.3754 -0.7621 1.180104062e-38
-1.0425 -2.3842 -0.7321 1.180104062e-38
-0.3849 -2.6393 -0.7505 1.180104062e-38
-0.1578 -2.8303 -0.7975 1.180104062e-38
1.8253 5.0736 -1.5171 1.180104062e-38
-1.4457 -2.3799 -0.7835 1.180104062e-38
-1.1654 -2.3716 -0.7435 1.180104062e-38
-0.7067 -2.4713 -0.7232 1.180104062e-38
-0.0331 -2.9758 -0.8373 1.180104062e-38
-1.639 -2.4456 -0.8814 1.180104062e-38
-1.0486 -2.3982 -0.7836 1.180104062e-38
-0.6033 -2.5315 -0.7791 1.180104062e-38
-0.3875 -2.6573 -0.804 1.180104062e-38
-1.1732 -2.3875 -0.7964 1.180104062e-38
-0.9323 -2.4208 -0.7766 1.180104062e-38
-0.2758 -2.7419 -0.825 1.180104062e-38
-1.3199 -2.4085 -0.8722 1.180104062e-38
-0.8231 -2.4586 -0.8234 1.180104062e-38
-0.607 -2.5472 -0.8316 1.180104062e-38
0.11 -3.2883 -1.0449 1.180104062e-38
1.8252 5.0734 -1.7123 1.180104062e-38
-1.8846 -2.5578 -1.009 1.180104062e-38
-0.9381 -2.4358 -0.829 1.180104062e-38
-0.4978 -2.5969 -0.8398 1.180104062e-38
-0.2778 -2.7614 -0.8814 1.180104062e-38
-1.6687 -2.4898 -1.007 1.180104062e-38
-1.3293 -2.4258 -0.9294 1.180104062e-38
-0.8283 -2.474 -0.8766 1.180104062e-38
0.1137 -3.4013 -1.1434 1.180104062e-38
1.8252 5.0732 -1.8115 1.180104062e-38
-1.9168 -2.6015 -1.0857 1.180104062e-38
-1.4826 -2.4408 -0.9595 1.180104062e-38
-1.1895 -2.4206 -0.9062 1.180104062e-38
-0.944 -2.4512 -0.8825 1.180104062e-38
-0.719 -2.5147 -0.8787 1.180104062e-38
-0.2798 -2.7814 -0.9392 1.180104062e-38
-0.034 -3.0578 -1.0274 1.180104062e-38
-1.0688 -2.4443 -0.9459 1.180104062e-38
-0.3958 -2.7138 -0.9725 1.180104062e-38
0.1213 -3.6288 -1.2875 1.180104062e-38
1.8252 5.0731 -1.9117 1.180104062e-38
-1.9729 -2.6776 -1.1793 1.180104062e-38
-0.9501 -2.4669 -0.9374 1.180104062e-38
-0.7236 -2.5307 -0.9333 1.180104062e-38
-0.5043 -2.6308 -0.9498 1.180104062e-38
-0.2818 -2.8018 -0.9985 1.180104062e-38
-0.0347 -3.1158 -1.1049 1.180104062e-38
-1.7194 -2.5655 -1.1533 1.180104062e-38
-1.0758 -2.4604 -1.0027 1.180104062e-38
-0.3987 -2.7337 -1.0316 1.180104062e-38
1.8251 5.073 -2.0132 1.180104062e-38
-2.0654 -2.8032 -1.3002 1.180104062e-38
-1.5142 -2.4927 -1.0891 1.180104062e-38
-0.9563 -2.483 -0.9936 1.180104062e-38
-0.7283 -2.5472 -0.9893 1.180104062e-38
-0.5079 -2.6496 -1.0074 1.180104062e-38
-0.284 -2.8229 -1.0594 1.180104062e-38
-0.0357 -3.2045 -1.1967 1.180104062e-38
-1.7625 -2.6298 -1.2425 1.180104062e-38
-1.3668 -2.4942 -1.1162 1.180104062e-38
-0.623 -2.6142 -1.0547 1.180104062e-38
-0.1691 -3.033 -1.1922 1.180104062e-38
1.8251 5.0729 -2.1159 1.180104062e-38
-0.5117 -2.6696 -1.0668 1.180104062e-38
-0.2881 -2.8643 -1.1298 1.180104062e-38
-0.0367 -3.2996 -1.2951 1.180104062e-38
-1.3881 -2.5329 -1.1894 1.180104062e-38
-0.8539 -2.5506 -1.1076 1.180104062e-38
-0.6307 -2.6467 -1.1204 1.180104062e-38
-0.4092 -2.8055 -1.1675 1.180104062e-38
1.825 5.0727 -2.2199 1.180104062e-38
-1.573 -2.5896 -1.2477 1.180104062e-38
-1.2365 -2.5163 -1.1545 1.180104062e-38
-0.9743 -2.5297 -1.1163 1.180104062e-38
-0.7416 -2.5934 -1.1107 1.180104062e-38
-0.5193 -2.7092 -1.1359 1.180104062e-38
-0.0396 -3.5526 -1.463 1.180104062e-38
-1.9753 -2.9474 -1.5305 1.180104062e-38
-1.6049 -2.642 -1.3334 1.180104062e-38
-1.2557 -2.5554 -1.2282 1.180104062e-38
-0.9877 -2.5646 -1.1855 1.180104062e-38
-0.7517 -2.6291 -1.1795 1.180104062e-38
-1.4345 -2.6177 -1.3469 1.180104062e-38
-1.1287 -2.5815 -1.2713 1.180104062e-38
-0.6486 -2.7216 -1.2624 1.180104062e-38
-0.4223 -2.8956 -1.3204 1.180104062e-38
1.8249 5.0725 -2.4324 1.180104062e-38
-1.6618 -2.7358 -1.4443 1.180104062e-38
-1.2758 -2.5963 -1.3053 1.180104062e-38
-1.0018 -2.601 -1.2577 1.180104062e-38
-0.7624 -2.6662 -1.2513 1.180104062e-38
-0.3059 -3.0405 -1.3789 1.180104062e-38
-1.4889 -2.717 -1.4604 1.180104062e-38
-0.4322 -2.9638 -1.4118 1.180104062e-38
-1.7757 -2.9232 -1.6122 1.180104062e-38
-1.0164 -2.6391 -1.3331 1.180104062e-38
-0.7735 -2.705 -1.3262 1.180104062e-38
-1.1792 -2.697 -1.4478 1.180104062e-38
-0.4471 -3.066 -1.524 1.180104062e-38
-1.0398 -2.6999 -1.423 1.180104062e-38
-0.7902 -2.7635 -1.4137 1.180104062e-38
-0.5616 -2.9302 -1.4674 1.180104062e-38
-1.2193 -2.7886 -1.5603 1.180104062e-38
-0.6942 -2.9132 -1.5353 1.180104062e-38
-0.4777 -3.2756 -1.6971 1.180104062e-38
-1.2937 -2.9588 -1.7239 1.180104062e-38
-0.9654 -2.8834 -1.6233 1.180104062e-38
-0.8392 -2.9351 -1.6297 1.180104062e-38
-0.6235 -3.2528 -1.7681 1.180104062e-38
-0.9085 -3.1771 -1.8353 1.180104062e-38
