ply
format ascii 1.0
element vertex 1586
property float32 x
property float32 y
property float32 z
property float32 I
end_header
-5.7529 7.1204 2.2500 0.9630
-5.7520 7.1193 2.0890 0.9631
-5.7502 7.1172 1.7707 0.9634
8.0729 -6.0881 1.7829 0.9598
-5.7494 7.1161 1.6131 0.9635
8.4058 -5.7703 1.6235 0.9595
-5.7485 7.1151 1.4566 0.9636
7.0007 -6.3318 1.3426 0.9626
7.5438 -5.6890 1.3439 0.9625
6.9182 -6.8415 1.3839 0.9615
-5.7477 7.1140 1.3009 0.9637
6.9593 -7.5243 1.2844 0.9595
6.8891 -6.2308 1.1641 0.9632
7.4212 -5.5966 1.1648 0.9632
8.8513 -5.5126 1.3067 0.9588
-5.7468 7.1129 1.1459 0.9638
7.3338 -5.5307 0.9963 0.9637
8.4223 -5.2455 1.0762 0.9609
6.6669 -6.5931 1.0170 0.9630
7.7497 -5.3199 1.0196 0.9629
6.5867 -7.1215 0.8893 0.9618
7.2627 -5.4771 0.8339 0.9641
8.2655 -5.1478 0.8927 0.9616
6.9652 -5.7569 0.8284 0.9644
8.1499 -5.0758 0.7195 0.9622
6.5380 -6.4656 0.6891 0.9638
7.5909 -5.2109 0.6900 0.9637
6.4389 -6.9617 0.5523 0.9627
6.4999 -6.4279 0.5324 0.9640
6.8812 -5.6875 0.5200 0.9649
7.1362 -5.3817 0.3716 0.9648
8.0121 -4.9900 0.3925 0.9629
7.5047 -5.1517 0.3785 0.9642
-5.7427 7.1078 0.3799 0.9641
7.1242 -5.3726 0.2225 0.9649
7.9883 -4.9752 0.2347 0.9630
6.8374 -5.6512 0.2212 0.9651
7.9669 -4.9618 0.0780 0.9632
6.5290 -7.7225 0.0840 0.9604
7.4770 -5.1326 0.0754 0.9644
8.9278 -5.0227 0.0851 0.9599
-5.7410 7.1058 0.0759 0.9641
7.1113 -5.3629 -0.0740 0.9650
6.5260 -7.7190 -0.0840 0.9604
-5.7402 7.1048 -0.0759 0.9641
7.9868 -4.9742 -0.2346 0.9631
6.5768 -7.7791 -0.2540 0.9601
6.4506 -6.3791 -0.2262 0.9644
6.8365 -5.6505 -0.2212 0.9651
8.9914 -5.0585 -0.2573 0.9596
-5.7394 7.1037 -0.2278 0.9641
6.6235 -5.9906 -0.3713 0.9649
6.6501 -7.8657 -0.4283 0.9596
6.4625 -6.3909 -0.3779 0.9643
6.8476 -5.6597 -0.3694 0.9651
6.4349 -6.9574 -0.5520 0.9627
6.6547 -6.0188 -0.5226 0.9647
8.0754 -5.0294 -0.5541 0.9626
6.4971 -6.4251 -0.5322 0.9641
6.8785 -5.6853 -0.5198 0.9649
6.4905 -7.0175 -0.7163 0.9624
6.6900 -6.0508 -0.6760 0.9645
7.2067 -5.4348 -0.6764 0.9644
6.5793 -7.1135 -0.8883 0.9618
7.2575 -5.4731 -0.8333 0.9641
6.9603 -5.7529 -0.8279 0.9644
7.6496 -5.2512 -0.8506 0.9634
-5.7361 7.0996 -0.8368 0.9640
6.6866 -7.2294 -1.0681 0.9612
6.8030 -6.1529 -0.9949 0.9638
7.3283 -5.5265 -0.9956 0.9637
6.6606 -6.5869 -1.0161 0.9630
7.7428 -5.3151 -1.0187 0.9629
-5.7353 7.0986 -0.9899 0.9639
6.9272 -7.4896 -1.2785 0.9597
6.8813 -6.2238 -1.1627 0.9633
7.4126 -5.5901 -1.1635 0.9633
6.7664 -6.6915 -1.1926 0.9624
7.1027 -5.8705 -1.1548 0.9635
-5.7344 7.0976 -1.1435 0.9639
7.5343 -5.6819 -1.3422 0.9626
7.2136 -5.9621 -1.3311 0.9629
8.0293 -5.5118 -1.3853 0.9614
-5.7336 7.0965 -1.2977 0.9638
7.1566 -6.4728 -1.5366 0.9617
7.1764 -7.0969 -1.6072 0.9599
8.3663 -5.7432 -1.6159 0.9597
-5.7327 7.0955 -1.4526 0.9637
7.4413 -6.7303 -1.7692 0.9601
-5.7319 7.0945 -1.6082 0.9636
2.4483 14.5145 -2.8485 0.9418
1.1463 14.6691 -2.8474 0.9418
-0.1638 14.7071 -2.8462 0.9418
-2.7667 14.4336 -2.8440 0.9419
-5.2780 13.7040 -2.8418 0.9419
-6.4744 13.1750 -2.8408 0.9419
-7.6187 12.5421 -2.8398 0.9420
-8.7019 11.8104 -2.8389 0.9420
-9.7156 10.9856 -2.8380 0.9420
-11.5031 9.0839 -2.8365 0.9420
-12.2631 8.0222 -2.8358 0.9420
-12.9258 6.8975 -2.8352 0.9421
3.0930 14.3938 -2.8490 0.9418
1.7989 14.6063 -2.8479 0.9418
0.4916 14.7026 -2.8468 0.9418
-0.8187 14.6822 -2.8457 0.9418
-5.8821 13.4528 -2.8413 0.9419
-7.0536 12.8713 -2.8403 0.9420
-10.1938 10.5404 -2.8376 0.9420
-11.0884 9.5886 -2.8368 0.9420
-13.2191 6.3142 -2.8350 0.9421
-13.7264 5.1118 -2.8345 0.9421
-14.1662 0.0000 -2.9865 0.9437
-14.1101 -1.2608 -2.9865 0.9437
-13.9425 -2.5118 -2.9867 0.9437
-13.6647 -3.7431 -2.9869 0.9437
-13.2787 -4.9450 -2.9872 0.9437
-11.5062 -8.2816 -2.9887 0.9437
-10.7258 -9.2749 -2.9894 0.9437
-9.8601 -10.1953 -2.9901 0.9437
-7.9007 -11.7886 -2.9918 0.9436
-6.8221 -12.4488 -2.9927 0.9436
-4.5098 -13.4701 -2.9947 0.9436
-3.2942 -13.8228 -2.9957 0.9436
-2.0515 -14.0661 -2.9968 0.9435
0.4753 -14.2173 -2.9990 0.9435
1.7395 -14.1237 -3.0001 0.9435
2.9907 -13.9178 -3.0011 0.9435
5.4148 -13.1762 -3.0032 0.9434
6.5682 -12.6461 -3.0042 0.9434
7.6702 -12.0151 -3.0052 0.9434
9.6846 -10.4708 -3.0069 0.9434
11.3933 -8.5921 -3.0084 0.9433
13.6846 -4.0784 -3.0104 0.9433
14.1931 -1.5877 -3.0108 0.9433
14.2500 0.9539 -3.0109 0.9433
14.1080 2.2184 -3.0108 0.9433
13.8537 3.4651 -3.0106 0.9433
12.3552 5.5670 -2.8569 0.9461
11.1685 7.6668 -2.8559 0.9461
10.4395 8.6285 -2.8553 0.9461
9.6278 9.5212 -2.8546 0.9462
8.7398 10.3376 -2.8539 0.9462
5.6930 12.2681 -2.8513 0.9462
3.4253 13.0742 -2.8493 0.9462
2.2472 13.3225 -2.8483 0.9463
1.0522 13.4647 -2.8473 0.9463
-0.1504 13.5001 -2.8463 0.9463
-1.3509 13.4282 -2.8452 0.9463
-4.8454 12.5809 -2.8422 0.9464
-7.9894 10.8434 -2.8395 0.9464
-9.7801 9.2500 -2.8379 0.9465
-10.5620 8.3408 -2.8373 0.9465
-11.2601 7.3660 -2.8367 0.9465
-11.8688 6.3334 -2.8361 0.9465
-13.4853 4.3485 -2.9871 0.9437
-13.8175 3.1307 -2.9868 0.9437
-14.0404 1.8883 -2.9866 0.9437
-14.1522 0.6311 -2.9865 0.9437
-14.1521 -0.6310 -2.9865 0.9437
-13.8173 -3.1305 -2.9868 0.9437
-13.4850 -4.3483 -2.9871 0.9437
-13.0461 -5.5320 -2.9874 0.9437
-12.5038 -6.6722 -2.9879 0.9437
-11.8625 -7.7601 -2.9884 0.9437
-9.3974 -10.6258 -2.9905 0.9437
-8.4167 -11.4232 -2.9914 0.9436
-7.3688 -12.1307 -2.9922 0.9436
-6.2618 -12.7424 -2.9932 0.9436
-5.1045 -13.2535 -2.9942 0.9436
-3.9060 -13.6600 -2.9952 0.9436
-1.4231 -14.1461 -2.9973 0.9435
1.1084 -14.1846 -2.9995 0.9435
2.3674 -14.0347 -3.0006 0.9435
3.6084 -13.7732 -3.0017 0.9435
4.8217 -13.4020 -3.0027 0.9434
10.1428 -10.0303 -3.0073 0.9434
10.9980 -9.0900 -3.0080 0.9433
11.7660 -8.0769 -3.0087 0.9433
14.2785 0.3182 -3.0109 0.9433
13.9948 2.8446 -3.0107 0.9433
12.5918 5.0115 -2.8571 0.9461
12.0940 6.1114 -2.8567 0.9461
10.8148 8.1558 -2.8556 0.9461
9.1929 9.9393 -2.8542 0.9462
8.2695 10.7151 -2.8535 0.9462
7.2808 11.4053 -2.8526 0.9462
6.2349 12.0043 -2.8517 0.9462
5.1400 12.5074 -2.8508 0.9462
4.0050 12.9109 -2.8498 0.9462
2.8390 13.2115 -2.8488 0.9463
1.6512 13.4070 -2.8478 0.9463
-0.7515 13.4775 -2.8457 0.9463
-3.1270 13.1213 -2.8437 0.9464
-6.4759 11.8170 -2.8408 0.9464
-9.3595 9.6777 -2.8383 0.9465
-10.1812 8.8041 -2.8376 0.9465
-10.9219 7.8611 -2.8370 0.9465
-13.9427 2.5120 -2.9867 0.9437
-13.0370 -1.1650 -2.9875 0.9477
-12.8821 -2.3208 -2.9876 0.9477
-12.6253 -3.4584 -2.9878 0.9477
-12.2686 -4.5689 -2.9881 0.9477
-11.2673 -6.6736 -2.9889 0.9477
-9.9094 -8.5689 -2.9901 0.9477
-7.2988 -10.8905 -2.9923 0.9476
-6.3023 -11.5002 -2.9932 0.9476
-3.0429 -12.7686 -2.9960 0.9476
-1.8950 -12.9930 -2.9969 0.9476
3.8967 -12.5617 -3.0019 0.9475
5.0009 -12.1689 -3.0029 0.9475
6.0660 -11.6791 -3.0038 0.9474
10.5210 -7.9342 -3.0076 0.9474
11.7653 -5.9453 -3.0087 0.9474
12.2495 -4.8752 -3.0091 0.9473
12.6362 -3.7660 -3.0095 0.9473
12.9223 -2.6266 -3.0097 0.9473
13.1055 -1.4661 -3.0099 0.9473
12.7922 3.1996 -3.0097 0.9473
11.4088 5.1406 -2.8561 0.9500
9.6403 7.9679 -2.8546 0.9500
8.8908 8.7924 -2.8540 0.9500
8.0710 9.5464 -2.8533 0.9500
6.2471 10.8203 -2.8517 0.9500
4.2271 11.7494 -2.8500 0.9501
-0.1389 12.4695 -2.8463 0.9501
-1.2478 12.4035 -2.8453 0.9501
-2.3460 12.2391 -2.8444 0.9502
-3.4250 11.9778 -2.8434 0.9502
-4.4760 11.6218 -2.8425 0.9502
-5.4910 11.1738 -2.8416 0.9502
-6.4618 10.6376 -2.8408 0.9502
-7.3809 10.0175 -2.8400 0.9502
-9.7581 7.7059 -2.8380 0.9503
-10.9657 5.8515 -2.8369 0.9503
-11.4413 4.8516 -2.8365 0.9503
-12.4596 4.0177 -2.9880 0.9477
-12.9725 1.7447 -2.9875 0.9477
-13.0759 0.5831 -2.9874 0.9477
-13.0759 -0.5830 -2.9874 0.9477
-12.7664 -2.8924 -2.9877 0.9477
-12.0536 -5.1112 -2.9883 0.9477
-11.5525 -6.1646 -2.9887 0.9477
-10.9598 -7.1695 -2.9892 0.9477
-8.6818 -9.8167 -2.9911 0.9477
-7.7757 -10.5531 -2.9919 0.9476
-6.8074 -11.2064 -2.9927 0.9476
-3.6081 -12.6183 -2.9955 0.9476
-1.3145 -13.0667 -2.9974 0.9475
1.0238 -13.1015 -2.9994 0.9475
3.3327 -12.7208 -3.0014 0.9475
5.5388 -11.9359 -3.0033 0.9474
6.5812 -11.3989 -3.0042 0.9474
8.5027 -10.0570 -3.0059 0.9474
12.0193 -5.4156 -3.0089 0.9473
12.4552 -4.3249 -3.0093 0.9473
13.0269 -2.0484 -3.0098 0.9473
13.1844 0.2938 -3.0100 0.9473
13.1056 1.4661 -3.0099 0.9473
11.1677 5.6433 -2.8559 0.9500
9.9867 7.5313 -2.8549 0.9500
8.4893 9.1786 -2.8536 0.9500
6.7239 10.5328 -2.8521 0.9500
5.7581 11.0862 -2.8513 0.9500
1.5251 12.3829 -2.8477 0.9501
-0.6941 12.4488 -2.8458 0.9501
-1.7988 12.3336 -2.8448 0.9501
-3.9545 11.8115 -2.8430 0.9502
-4.9885 11.4091 -2.8421 0.9502
-6.9283 10.3377 -2.8404 0.9502
-9.4062 8.1338 -2.8383 0.9503
-10.0907 7.2628 -2.8377 0.9503
-11.2146 5.3568 -2.8367 0.9503
-12.8823 2.3209 -2.9876 0.9477
-12.1091 -1.0821 -2.9883 0.9512
-11.7266 -3.2122 -2.9886 0.9512
-10.4650 -6.1984 -2.9896 0.9511
-9.8734 -7.1064 -2.9901 0.9511
-8.4604 -8.7479 -2.9913 0.9511
-7.6499 -9.4684 -2.9920 0.9511
-4.8805 -11.1619 -2.9944 0.9511
-2.8257 -11.8573 -2.9962 0.9510
-1.7597 -12.0654 -2.9971 0.9510
-0.6790 -12.1779 -2.9980 0.9510
3.6181 -11.6636 -3.0017 0.9509
4.6432 -11.2986 -3.0026 0.9509
5.6320 -10.8436 -3.0034 0.9509
9.0712 -8.2044 -3.0064 0.9509
9.7674 -7.3659 -3.0070 0.9509
10.9223 -5.5193 -3.0080 0.9508
11.3717 -4.5258 -3.0084 0.9508
11.7306 -3.4961 -3.0087 0.9508
11.9962 -2.4383 -3.0090 0.9508
12.1662 -1.3610 -3.0091 0.9508
12.2394 -0.2727 -3.0092 0.9508
9.5745 6.5725 -2.8545 0.9533
8.9498 7.3973 -2.8540 0.9533
2.9374 11.2119 -2.8489 0.9534
-0.1290 11.5789 -2.8463 0.9534
-1.1587 11.5178 -2.8454 0.9534
-2.1786 11.3655 -2.8445 0.9535
-4.1567 10.7927 -2.8428 0.9535
-6.0011 9.8791 -2.8412 0.9535
-9.0630 7.1571 -2.8385 0.9535
-10.1849 5.4349 -2.8376 0.9536
-11.1958 4.7475 -2.9891 0.9511
-11.5726 3.7317 -2.9888 0.9511
-12.0491 1.6204 -2.9883 0.9512
-12.1451 -0.5416 -2.9882 0.9512
-12.0490 -1.6204 -2.9883 0.9512
-11.1955 -4.7472 -2.9890 0.9511
-10.7299 -5.7256 -2.9894 0.9511
-10.1793 -6.6590 -2.9899 0.9511
-9.5479 -7.5399 -2.9904 0.9511
-8.8407 -8.3614 -2.9910 0.9511
-8.0632 -9.1171 -2.9917 0.9511
-7.2214 -9.8010 -2.9924 0.9511
-6.3221 -10.4075 -2.9932 0.9511
-4.3790 -11.3698 -2.9948 0.9511
-3.3507 -11.7179 -2.9957 0.9510
-2.2951 -11.9732 -2.9966 0.9510
-1.2207 -12.1337 -2.9975 0.9510
-0.1359 -12.1980 -2.9985 0.9510
0.9506 -12.1654 -2.9994 0.9510
2.0303 -12.0363 -3.0003 0.9510
4.1347 -11.4925 -3.0021 0.9509
6.1103 -10.5833 -3.0038 0.9509
7.0299 -10.0001 -3.0046 0.9509
7.8940 -9.3371 -3.0054 0.9509
8.6958 -8.5994 -3.0061 0.9509
11.1581 -5.0276 -3.0082 0.9508
11.8752 -2.9701 -3.0088 0.9508
12.2149 -0.8177 -3.0092 0.9508
12.2394 0.2728 -3.0092 0.9508
11.9963 2.4384 -3.0090 0.9508
11.7308 3.4962 -3.0088 0.9508
10.3675 5.2389 -2.8552 0.9533
9.8586 6.1400 -2.8548 0.9533
9.2714 6.9919 -2.8543 0.9533
7.0901 9.1870 -2.8524 0.9533
6.2427 9.7790 -2.8517 0.9533
5.3461 10.2931 -2.8509 0.9533
4.4075 10.7251 -2.8501 0.9534
2.4346 11.3299 -2.8485 0.9534
1.4161 11.4981 -2.8476 0.9534
0.3870 11.5749 -2.8467 0.9534
-2.6823 11.2554 -2.8441 0.9535
-3.6724 10.9688 -2.8432 0.9535
-4.6327 10.5953 -2.8424 0.9535
-5.5558 10.1380 -2.8416 0.9535
-5.6667 7.0137 -2.2163 0.9635
-8.0308 8.3038 -2.8394 0.9535
-9.9335 5.8836 -2.8378 0.9536
-10.4162 4.9754 -2.8374 0.9536
-11.9653 2.1557 -2.9884 0.9512
-12.1092 1.0821 -2.9883 0.9512
-11.3432 0.0000 -2.9889 0.9542
-10.9413 -2.9971 -2.9893 0.9542
-10.6321 -3.9594 -2.9895 0.9542
-9.7640 -5.7832 -2.9902 0.9541
-9.2119 -6.6303 -2.9907 0.9541
-8.5868 -7.4252 -2.9912 0.9541
-4.5531 -10.4131 -2.9947 0.9541
-2.6361 -11.0614 -2.9963 0.9541
-1.6416 -11.2554 -2.9972 0.9540
0.3803 -11.3747 -2.9989 0.9540
1.3916 -11.2989 -2.9998 0.9540
2.3924 -11.1334 -3.0006 0.9540
3.3748 -10.8794 -3.0015 0.9540
6.1341 -9.6088 -3.0039 0.9539
7.7441 -8.3729 -3.0053 0.9539
9.1096 -6.8698 -3.0064 0.9539
9.6865 -6.0328 -3.0069 0.9539
10.6055 -4.2208 -3.0077 0.9539
10.9402 -3.2605 -3.0080 0.9539
11.3918 0.7627 -3.0085 0.9539
11.2784 1.7735 -3.0084 0.9539
11.0752 2.7701 -3.0082 0.9539
9.4412 5.3115 -2.8544 0.9562
8.3471 6.8991 -2.8535 0.9562
6.2239 8.8536 -2.8517 0.9562
5.4099 9.3702 -2.8510 0.9562
4.5532 9.8120 -2.8503 0.9562
3.6609 10.1755 -2.8495 0.9563
2.7399 10.4581 -2.8487 0.9563
1.7977 10.6574 -2.8479 0.9563
-0.1203 10.8011 -2.8463 0.9563
-1.0809 10.7444 -2.8454 0.9563
-2.9671 10.3766 -2.8438 0.9563
-3.8778 10.0685 -2.8430 0.9564
-4.7573 9.6809 -2.8423 0.9564
-5.4358 7.3775 -2.4147 0.9628
-7.8294 7.4050 -2.8396 0.9564
-8.4558 6.6775 -2.8391 0.9564
-10.4459 4.4295 -2.9897 0.9542
-10.7976 3.4818 -2.9894 0.9542
-11.3320 0.5053 -2.9889 0.9542
-11.2423 -1.5119 -2.9890 0.9542
-11.0636 -2.5066 -2.9892 0.9542
-10.4457 -4.4293 -2.9897 0.9542
-10.0112 -5.3421 -2.9900 0.9541
-9.4974 -6.2129 -2.9905 0.9541
-8.9082 -7.0347 -2.9910 0.9541
-7.5227 -8.5061 -2.9921 0.9541
-6.7373 -9.1439 -2.9928 0.9541
-5.8981 -9.7096 -2.9935 0.9541
2.8864 -11.0173 -3.0011 0.9540
3.8566 -10.7197 -3.0019 0.9540
6.5568 -9.3272 -3.0042 0.9539
7.3627 -8.7086 -3.0049 0.9539
8.7937 -7.2682 -3.0062 0.9539
9.4074 -6.4578 -3.0067 0.9539
10.4063 -4.6888 -3.0076 0.9539
10.7836 -3.7444 -3.0079 0.9539
11.2783 -1.7734 -3.0083 0.9539
11.3464 1.2693 -3.0084 0.9539
11.1879 2.2741 -3.0083 0.9539
10.6057 4.2210 -3.0078 0.9539
9.1945 5.7264 -2.8542 0.9562
8.0307 7.2634 -2.8532 0.9562
7.3509 7.9477 -2.8526 0.9562
4.1111 10.0037 -2.8499 0.9562
0.3610 10.7973 -2.8467 0.9563
-0.6013 10.7834 -2.8458 0.9563
-1.5582 10.6840 -2.8450 0.9563
-3.4259 10.2327 -2.8434 0.9563
-4.3219 9.8845 -2.8426 0.9564
-7.4925 7.7472 -2.8399 0.9564
-8.1507 7.0482 -2.8393 0.9564
-8.7441 6.2936 -2.8388 0.9564
-9.2680 5.4895 -2.8384 0.9564
-10.6323 3.9595 -2.9896 0.9542
-10.9415 2.9972 -2.9893 0.9542
-11.1641 2.0113 -2.9891 0.9542
-10.6255 0.0000 -2.9895 0.9568
-10.5834 -0.9457 -2.9896 0.9568
-10.4576 -1.8840 -2.9897 0.9568
-9.9592 -3.7088 -2.9901 0.9568
-8.0431 -6.9551 -2.9917 0.9568
-7.3935 -7.6448 -2.9923 0.9568
-6.6850 -8.2741 -2.9929 0.9568
-5.1144 -9.3325 -2.9942 0.9567
-4.2645 -9.7530 -2.9949 0.9567
-3.3803 -10.0964 -2.9957 0.9567
-1.5374 -10.5414 -2.9973 0.9567
-0.5932 -10.6393 -2.9981 0.9567
1.3033 -10.5816 -2.9997 0.9567
2.2405 -10.4264 -3.0005 0.9567
5.7441 -8.9980 -3.0035 0.9566
7.2517 -7.8404 -3.0048 0.9566
7.9222 -7.1652 -3.0054 0.9566
10.2438 -3.0530 -3.0074 0.9566
10.6879 -0.2381 -3.0078 0.9565
10.6666 0.7141 -3.0078 0.9565
10.3702 2.5938 -3.0076 0.9566
10.0974 3.5062 -3.0074 0.9566
8.8404 4.9735 -2.8539 0.9587
8.3614 5.7398 -2.8535 0.9587
7.8161 6.4602 -2.8530 0.9587
7.2088 7.1290 -2.8525 0.9587
3.4283 9.5291 -2.8493 0.9588
1.6835 9.9807 -2.8478 0.9588
0.7883 10.0882 -2.8470 0.9588
-0.1127 10.1156 -2.8463 0.9588
-1.9034 9.9300 -2.8447 0.9589
-2.7789 9.7186 -2.8440 0.9589
-4.4558 9.0673 -2.8425 0.9589
-5.4157 7.3502 -2.5688 0.9628
-6.6884 7.5628 -2.8406 0.9589
-7.9204 6.2547 -2.8395 0.9589
-10.1143 3.2615 -2.9900 0.9568
-10.3637 2.3481 -2.9898 0.9568
-10.5310 1.4163 -2.9896 0.9568
-10.6150 0.4734 -2.9896 0.9568
-10.3636 -2.3480 -2.9898 0.9568
-9.3776 -5.0040 -2.9906 0.9568
-8.8962 -5.8196 -2.9910 0.9568
-5.5244 -9.0944 -2.9939 0.9567
-2.9276 -10.2383 -2.9961 0.9567
-2.0052 -10.4610 -2.9969 0.9567
-1.0665 -10.6008 -2.9977 0.9567
-0.1187 -10.6565 -2.9985 0.9567
0.8305 -10.6277 -2.9993 0.9567
1.7736 -10.5145 -3.0001 0.9567
2.7031 -10.3176 -3.0009 0.9566
4.4919 -9.6798 -3.0025 0.9566
5.3370 -9.2439 -3.0032 0.9566
6.1400 -8.7342 -3.0039 0.9566
7.5945 -7.5103 -3.0051 0.9566
9.7441 -4.3904 -3.0070 0.9566
10.3700 -2.5937 -3.0076 0.9566
10.6666 -0.7140 -3.0078 0.9566
10.6879 0.2382 -3.0078 0.9565
10.4757 2.1293 -3.0077 0.9566
10.2440 3.0530 -3.0075 0.9566
9.9307 3.9524 -3.0072 0.9566
9.3364 4.7179 -2.9432 0.9575
8.0968 6.1061 -2.8533 0.9587
7.5199 6.8014 -2.8528 0.9587
6.1924 8.0237 -2.8517 0.9588
3.0000 9.6711 -2.8489 0.9588
0.3381 10.1120 -2.8466 0.9588
-0.5631 10.0992 -2.8459 0.9588
-1.4594 10.0062 -2.8451 0.9589
-4.0479 9.2579 -2.8429 0.9589
-4.8547 8.8587 -2.8422 0.9589
-7.6346 6.6019 -2.8398 0.9589
-8.6814 5.1420 -2.8389 0.9589
-10.4577 1.8841 -2.9897 0.9568
-9.9876 0.0000 -2.9901 0.9592
-9.8298 -1.7709 -2.9902 0.9592
-9.6337 -2.6389 -2.9904 0.9592
-8.5967 -5.0918 -2.9913 0.9591
-8.1105 -5.8376 -2.9917 0.9591
-6.2833 -7.7769 -2.9932 0.9591
-5.5673 -8.3070 -2.9938 0.9591
-1.4449 -9.9070 -2.9974 0.9591
-0.5575 -9.9988 -2.9981 0.9590
0.3347 -10.0113 -2.9989 0.9590
1.2248 -9.9443 -2.9996 0.9590
2.1055 -9.7983 -3.0004 0.9590
2.9700 -9.5744 -3.0011 0.9590
3.8113 -9.2743 -3.0019 0.9590
4.6227 -8.9004 -3.0026 0.9590
6.1302 -7.9431 -3.0039 0.9590
7.4443 -6.7329 -3.0050 0.9590
8.0153 -6.0446 -3.0055 0.9589
8.5228 -5.3080 -3.0059 0.9589
9.6254 -2.8686 -3.0069 0.9589
9.9826 -1.1167 -3.0072 0.9589
10.0226 0.6710 -3.0073 0.9589
9.9228 1.5604 -3.0072 0.9589
9.7441 2.4372 -3.0071 0.9589
9.4878 3.2946 -3.0068 0.9589
9.1561 4.1256 -3.0066 0.9589
6.7739 6.6988 -2.8521 0.9610
6.1496 7.2738 -2.8516 0.9610
5.4767 7.7907 -2.8510 0.9610
4.0068 8.6346 -2.8498 0.9610
2.4113 9.2037 -2.8484 0.9611
1.5821 9.3795 -2.8477 0.9611
-0.1059 9.5066 -2.8463 0.9611
-1.7889 9.3325 -2.8448 0.9611
-2.6118 9.1339 -2.8441 0.9611
-4.1879 8.5221 -2.8427 0.9611
-6.2865 7.1083 -2.8409 0.9612
-6.8930 6.5194 -2.8404 0.9612
-7.9371 5.1923 -2.8395 0.9612
-9.1973 3.9000 -2.9908 0.9591
-9.5070 3.0656 -2.9905 0.9591
-9.7415 2.2072 -2.9903 0.9592
-9.8988 1.3313 -2.9902 0.9592
-9.9778 0.4450 -2.9901 0.9592
-9.9777 -0.4449 -2.9901 0.9592
-9.5069 -3.0655 -2.9905 0.9591
-9.1971 -3.8998 -2.9907 0.9591
-8.8144 -4.7035 -2.9911 0.9591
-8.3619 -5.4700 -2.9914 0.9591
-7.2618 -6.8681 -2.9924 0.9591
-5.9312 -8.0499 -2.9935 0.9591
-1.8846 -9.8316 -2.9970 0.9591
-1.0023 -9.9628 -2.9977 0.9591
-0.1116 -10.0150 -2.9985 0.9590
0.7805 -9.9877 -2.9993 0.9590
1.6668 -9.8812 -3.0000 0.9590
2.5403 -9.6960 -3.0008 0.9590
3.3940 -9.4337 -3.0015 0.9590
5.7697 -8.2075 -3.0036 0.9590
6.4786 -7.6629 -3.0042 0.9590
7.7375 -6.3952 -3.0053 0.9590
8.2773 -5.6820 -3.0057 0.9589
9.4877 -3.2944 -3.0068 0.9589
9.9228 -1.5603 -3.0072 0.9589
10.0426 0.2238 -3.0073 0.9589
9.9827 1.1168 -3.0073 0.9589
9.8433 2.0008 -3.0071 0.9589
9.3313 3.7138 -3.0067 0.9589
8.9628 4.5291 -3.0064 0.9589
7.0662 6.3910 -2.8524 0.9610
6.4682 6.9933 -2.8519 0.9610
5.1237 8.0261 -2.8507 0.9610
4.3880 8.4485 -2.8501 0.9610
2.8192 9.0883 -2.8488 0.9610
0.3177 9.5031 -2.8466 0.9611
-0.5292 9.4912 -2.8459 0.9611
-3.0157 9.0074 -2.8438 0.9611
-4.5628 8.3261 -2.8424 0.9611
-5.2846 7.8852 -2.8418 0.9611
-5.6179 6.9533 -2.6762 0.9634
-6.5963 6.8205 -2.8407 0.9612
-7.6985 5.5411 -2.8397 0.9612
-8.1600 4.8332 -2.8393 0.9612
-9.0149 4.3061 -2.9910 0.9591
-9.6338 2.6390 -2.9904 0.9592
-9.8299 1.7710 -2.9902 0.9592
-9.9481 0.8890 -2.9901 0.9592
-8.8260 -3.2868 -2.9911 0.9612
-7.1274 -6.1633 -2.9925 0.9612
-5.9238 -7.3319 -2.9935 0.9612
-5.2487 -7.8316 -2.9941 0.9612
-4.5317 -8.2693 -2.9947 0.9612
-2.9950 -8.9457 -2.9960 0.9612
-2.1875 -9.1789 -2.9967 0.9612
1.1545 -9.3741 -2.9996 0.9611
4.3574 -8.3895 -3.0023 0.9611
5.0879 -7.9701 -3.0030 0.9611
7.5549 -5.6974 -3.0051 0.9611
9.0722 -2.7038 -3.0064 0.9610
9.4088 -1.0525 -3.0067 0.9610
9.4653 -0.2109 -3.0068 0.9610
9.4465 0.6324 -3.0068 0.9610
9.1841 2.2971 -3.0066 0.9610
8.9426 3.1053 -3.0064 0.9610
8.6300 3.8885 -3.0061 0.9611
5.7965 6.8562 -2.8513 0.9630
5.1623 7.3435 -2.8508 0.9630
3.7769 8.1390 -2.8496 0.9630
1.4914 8.8416 -2.8476 0.9631
-2.4622 8.6107 -2.8442 0.9631
-5.3078 7.2038 -2.8418 0.9631
-5.9268 6.7016 -2.8412 0.9631
-6.4986 6.1464 -2.8407 0.9632
-9.4074 0.4195 -2.9906 0.9613
-9.4073 -0.4195 -2.9906 0.9613
-7.8837 -5.1572 -2.9919 0.9612
-6.2439 -7.0601 -2.9933 0.9612
-5.5918 -7.5892 -2.9938 0.9612
-3.3902 -8.8024 -2.9957 0.9612
-2.5939 -9.0713 -2.9964 0.9612
-1.7766 -9.2683 -2.9971 0.9612
-0.9448 -9.3919 -2.9978 0.9612
-0.1052 -9.4410 -2.9985 0.9611
1.5712 -9.3145 -2.9999 0.9611
3.9789 -8.5744 -3.0020 0.9611
4.7273 -8.1879 -3.0027 0.9611
5.4385 -7.7363 -3.0033 0.9611
6.1066 -7.2230 -3.0039 0.9611
6.7265 -6.6519 -3.0044 0.9611
7.8018 -5.3556 -3.0053 0.9611
9.1840 -2.2971 -3.0065 0.9610
9.4465 -0.6323 -3.0068 0.9610
9.4654 0.2110 -3.0068 0.9610
9.4089 1.0526 -3.0068 0.9610
9.2775 1.8858 -3.0067 0.9610
8.7950 3.5004 -3.0063 0.9611
8.4478 4.2688 -3.0060 0.9611
7.6284 4.7510 -2.8541 0.9630
7.1712 5.4080 -2.8525 0.9630
6.6603 6.0239 -2.8520 0.9630
6.0967 6.5917 -2.8516 0.9630
4.1362 7.9636 -2.8499 0.9630
3.4102 8.2983 -2.8493 0.9630
2.6575 8.5670 -2.8486 0.9631
1.8840 8.7674 -2.8480 0.9631
1.0959 8.8982 -2.8473 0.9631
0.2995 8.9583 -2.8466 0.9631
-2.0764 8.7129 -2.8446 0.9631
-2.8430 8.4915 -2.8439 0.9631
-3.5867 8.2029 -2.8433 0.9631
-4.3016 7.8495 -2.8426 0.9631
-5.5965 6.9268 -2.8281 0.9633
-6.2189 6.4304 -2.8410 0.9632
-6.7654 5.8503 -2.8405 0.9632
-7.2582 5.2241 -2.8401 0.9632
-8.0455 4.7654 -2.9697 0.9615
-8.4994 4.0599 -2.9914 0.9612
-9.2679 1.6697 -2.9907 0.9612
-9.3794 0.8382 -2.9906 0.9612
-8.8671 -0.7923 -2.9911 0.9631
-8.7616 -1.5785 -2.9911 0.9631
-8.3439 -3.1073 -2.9915 0.9631
-8.0349 -3.8379 -2.9917 0.9631
-7.2288 -5.2029 -2.9924 0.9631
-6.7379 -5.8265 -2.9928 0.9631
-6.1936 -6.4041 -2.9933 0.9631
-4.9617 -7.4033 -2.9944 0.9631
-4.2839 -7.8171 -2.9949 0.9631
1.0913 -8.8607 -2.9995 0.9630
1.8760 -8.7304 -3.0002 0.9630
4.8090 -7.5331 -3.0027 0.9630
5.4614 -7.0765 -3.0033 0.9630
6.6318 -5.9981 -3.0043 0.9630
7.1404 -5.3848 -3.0048 0.9630
7.9839 -4.0344 -3.0055 0.9630
8.8923 -0.9947 -3.0063 0.9629
8.6799 2.1711 -3.0061 0.9629
8.1563 3.6751 -3.0057 0.9630
7.7960 4.3860 -3.0054 0.9630
6.9991 4.8046 -2.8523 0.9648
6.0346 5.9678 -2.8515 0.9648
5.4786 6.4801 -2.8510 0.9648
4.8792 6.9408 -2.8505 0.9648
4.2413 7.3461 -2.8500 0.9648
3.5699 7.6929 -2.8494 0.9648
2.1484 8.2004 -2.8482 0.9649
1.4097 8.3572 -2.8475 0.9649
-0.0944 8.4710 -2.8463 0.9649
-0.8478 8.4270 -2.8456 0.9649
-3.0420 7.8984 -2.8437 0.9649
-3.7321 7.5947 -2.8431 0.9649
-4.3924 7.2309 -2.8426 0.9649
-5.6028 6.3353 -2.8415 0.9649
-6.1434 5.8104 -2.8410 0.9649
-7.2929 4.7709 -2.9280 0.9639
-8.1977 3.4761 -2.9917 0.9631
-8.4738 2.7325 -2.9914 0.9631
-8.6829 1.9673 -2.9912 0.9631
-8.8935 0.3966 -2.9910 0.9631
-8.8231 -1.1866 -2.9911 0.9631
-8.4737 -2.7324 -2.9914 0.9631
-8.1975 -3.4760 -2.9916 0.9631
-7.8564 -4.1923 -2.9919 0.9631
-6.9903 -5.5201 -2.9926 0.9631
-6.4722 -6.1213 -2.9931 0.9631
-5.9026 -6.6742 -2.9936 0.9631
-5.2861 -7.1743 -2.9941 0.9631
-4.6274 -7.6177 -2.9946 0.9631
-3.9318 -8.0009 -2.9952 0.9631
-2.4519 -8.5749 -2.9965 0.9631
-1.6794 -8.7611 -2.9972 0.9631
-0.8931 -8.8778 -2.9978 0.9630
0.6954 -8.8995 -2.9992 0.9630
1.4851 -8.8043 -2.9999 0.9630
3.0239 -8.4052 -3.0012 0.9630
3.7608 -8.1044 -3.0018 0.9630
5.1402 -7.3121 -3.0030 0.9630
5.7717 -6.8268 -3.0036 0.9630
8.1561 -3.6749 -3.0056 0.9630
8.6798 -2.1709 -3.0061 0.9629
8.9279 -0.5976 -3.0063 0.9629
8.9457 0.1994 -3.0064 0.9629
8.7683 1.7823 -3.0062 0.9629
8.5744 2.5555 -3.0061 0.9629
8.3123 3.3082 -3.0058 0.9630
7.9841 4.0346 -3.0056 0.9630
7.5682 4.7136 -2.9956 0.9631
6.7777 5.1113 -2.8521 0.9648
6.2949 5.6935 -2.8517 0.9648
5.7623 6.2302 -2.8513 0.9648
5.1840 6.7171 -2.8508 0.9648
4.5647 7.1506 -2.8502 0.9648
3.9094 7.5270 -2.8497 0.9648
3.2233 7.8435 -2.8491 0.9648
0.2831 8.4677 -2.8466 0.9649
-0.4716 8.4574 -2.8459 0.9649
-1.9627 8.2360 -2.8447 0.9649
-2.6874 8.0269 -2.8440 0.9649
-4.0663 7.4202 -2.8428 0.9649
-4.7097 7.0274 -2.8423 0.9649
-5.3155 6.5791 -2.8418 0.9649
-6.3957 5.5306 -2.8408 0.9649
-7.6624 4.5385 -2.9921 0.9631
-8.3440 3.1074 -2.9915 0.9631
-8.7617 1.5785 -2.9912 0.9631
-8.8671 0.7924 -2.9911 0.9631
-8.4364 0.0001 -2.9914 0.9648
-8.3030 -1.4958 -2.9915 0.9648
-8.1373 -2.2290 -2.9917 0.9648
-7.9071 -2.9446 -2.9919 0.9648
-7.6143 -3.6370 -2.9921 0.9648
-7.2611 -4.3007 -2.9924 0.9648
-6.3851 -5.5213 -2.9931 0.9648
-5.3066 -6.5680 -2.9941 0.9648
-2.6828 -8.0129 -2.9963 0.9648
-1.9593 -8.2216 -2.9969 0.9648
-1.2200 -8.3651 -2.9976 0.9648
1.7776 -8.2721 -3.0001 0.9647
2.5073 -8.0827 -3.0008 0.9647
5.7516 -6.2185 -3.0036 0.9647
6.2832 -5.6828 -3.0040 0.9647
6.7650 -5.1017 -3.0044 0.9647
7.5641 -3.8223 -3.0051 0.9647
7.8750 -3.1342 -3.0054 0.9647
8.1233 -2.4210 -3.0056 0.9647
8.2235 2.0569 -3.0057 0.9647
6.8793 4.7225 -2.9588 0.9652
6.1989 5.1235 -2.8516 0.9664
4.0185 6.9602 -2.8498 0.9665
3.3824 7.2888 -2.8492 0.9665
-0.0894 8.0265 -2.8463 0.9665
-2.2054 7.7128 -2.8444 0.9665
-2.8825 7.4843 -2.8439 0.9665
-4.1622 6.8520 -2.8428 0.9665
-6.2877 4.9654 -2.8409 0.9666
-7.0628 4.6203 -2.9926 0.9648
-7.4452 3.9729 -2.9923 0.9648
-8.0303 2.5895 -2.9918 0.9648
-8.3613 1.1245 -2.9915 0.9648
-8.4281 0.3759 -2.9914 0.9648
-8.4280 -0.3758 -2.9914 0.9648
-7.7684 -3.2940 -2.9920 0.9648
-7.0627 -4.6201 -2.9926 0.9648
-6.6242 -5.2311 -2.9929 0.9648
-6.1332 -5.8007 -2.9934 0.9648
-5.5934 -6.3246 -2.9938 0.9648
-4.3849 -7.2185 -2.9948 0.9648
-3.7257 -7.5816 -2.9954 0.9648
-2.3234 -8.1253 -2.9966 0.9648
-1.5913 -8.3016 -2.9972 0.9648
-0.0942 -8.4559 -2.9985 0.9647
0.6589 -8.4325 -2.9992 0.9647
1.4072 -8.3421 -2.9998 0.9647
2.1445 -8.1855 -3.0004 0.9647
3.5633 -7.6787 -3.0017 0.9647
4.8702 -6.9279 -3.0028 0.9647
5.4684 -6.4680 -3.0033 0.9647
6.5306 -5.3976 -3.0042 0.9647
6.9860 -4.7956 -3.0046 0.9647
7.7273 -3.4817 -3.0053 0.9647
8.2234 -2.0568 -3.0057 0.9647
8.4584 -0.5662 -3.0059 0.9647
8.4247 0.9425 -3.0059 0.9647
7.8752 3.1343 -3.0055 0.9647
7.5643 3.8224 -3.0052 0.9647
6.4214 4.8426 -2.8518 0.9664
5.9641 5.3942 -2.8514 0.9664
2.3800 7.6723 -2.8484 0.9665
1.6873 7.8521 -2.8478 0.9665
0.9815 7.9694 -2.8472 0.9665
-0.4468 8.0137 -2.8460 0.9665
-1.1581 7.9404 -2.8453 0.9665
-2.5465 7.6061 -2.8441 0.9665
-3.8532 7.0313 -2.8430 0.9665
-5.0370 6.2344 -2.8420 0.9666
-5.5710 5.7604 -2.8415 0.9666
-6.6334 4.7745 -2.8980 0.9659
-7.2612 4.3009 -2.9925 0.9648
-7.6144 3.6371 -2.9922 0.9648
-7.9072 2.9447 -2.9919 0.9648
-8.3031 1.4959 -2.9916 0.9648
-8.0121 0.0001 -2.9918 0.9664
-7.9803 -0.7131 -2.9918 0.9664
-6.8957 -4.0843 -2.9927 0.9664
-6.5055 -4.6824 -2.9930 0.9664
-5.5737 -5.7632 -2.9938 0.9663
-3.2142 -7.3510 -2.9959 0.9663
-1.1585 -7.9436 -2.9976 0.9663
0.2684 -8.0264 -2.9988 0.9663
0.9819 -7.9723 -2.9995 0.9663
1.6879 -7.8549 -3.0001 0.9663
3.7053 -7.1340 -3.0018 0.9663
5.4612 -5.9045 -3.0033 0.9662
6.8298 -4.2536 -3.0045 0.9662
7.1820 -3.6292 -3.0048 0.9662
7.7129 -2.2987 -3.0053 0.9662
7.9990 -0.8948 -3.0055 0.9662
8.0470 -0.1793 -3.0056 0.9662
8.0310 0.5377 -3.0056 0.9662
7.6027 2.6400 -3.0052 0.9662
7.3370 3.3059 -3.0050 0.9662
5.8858 4.8647 -2.8514 0.9679
4.9286 5.8296 -2.8505 0.9679
4.3895 6.2441 -2.8501 0.9679
3.2117 6.9210 -2.8491 0.9679
1.9329 7.3780 -2.8480 0.9680
0.5939 7.6007 -2.8468 0.9680
-0.0849 7.6219 -2.8463 0.9680
-0.7628 7.5825 -2.8457 0.9680
-2.0943 7.3242 -2.8445 0.9680
-3.3584 6.8342 -2.8434 0.9680
-3.9527 6.5069 -2.8429 0.9680
-4.5153 6.1283 -2.8424 0.9680
-5.0421 5.7012 -2.8420 0.9680
-5.5287 5.2290 -2.8416 0.9680
-6.7074 4.3879 -2.9929 0.9664
-7.3777 3.1284 -2.9924 0.9664
-7.6263 2.4592 -2.9921 0.9664
-8.0041 -0.3569 -2.9918 0.9664
-7.8144 -1.7705 -2.9919 0.9664
-7.3776 -3.1283 -2.9923 0.9664
-7.0705 -3.7729 -2.9926 0.9664
-6.7073 -4.3877 -2.9929 0.9664
-5.8245 -5.5087 -2.9936 0.9663
-3.5381 -7.1998 -2.9956 0.9663
-0.0895 -8.0296 -2.9985 0.9663
0.6257 -8.0073 -2.9991 0.9663
2.0364 -7.7727 -3.0004 0.9663
2.7206 -7.5620 -3.0009 0.9663
3.3835 -7.2912 -3.0015 0.9663
4.0198 -6.9625 -3.0021 0.9663
5.7192 -5.6558 -3.0035 0.9662
6.2008 -5.1250 -3.0040 0.9662
6.6332 -4.5534 -3.0043 0.9662
7.0129 -3.9454 -3.0047 0.9662
7.6026 -2.6399 -3.0052 0.9662
7.8079 -1.9528 -3.0054 0.9662
7.9990 0.8949 -3.0055 0.9662
7.7130 2.2987 -3.0053 0.9662
7.1822 3.6293 -3.0049 0.9662
6.2709 4.7291 -2.9328 0.9670
5.6629 5.1218 -2.8512 0.9679
5.1838 5.6047 -2.8508 0.9679
4.1066 6.4329 -2.8498 0.9679
1.6022 7.4560 -2.8477 0.9680
0.9320 7.5675 -2.8471 0.9680
0.2547 7.6189 -2.8466 0.9680
-0.4243 7.6097 -2.8460 0.9680
-2.4182 7.2229 -2.8443 0.9680
-3.0509 6.9777 -2.8437 0.9680
-3.6592 6.6772 -2.8432 0.9680
-4.2382 6.3239 -2.8427 0.9680
-6.8959 4.0845 -2.9928 0.9664
-7.9804 0.7132 -2.9918 0.9664
-7.6238 0.0000 -2.9921 0.9678
-7.5936 -0.6785 -2.9921 0.9678
-7.3535 -2.0143 -2.9923 0.9678
-7.1454 -2.6609 -2.9925 0.9678
-6.8807 -3.2866 -2.9927 0.9678
-5.3035 -5.4837 -2.9941 0.9678
-4.7950 -5.9349 -2.9945 0.9677
-4.2484 -6.3391 -2.9950 0.9677
-3.0582 -6.9943 -2.9960 0.9677
-1.7703 -7.4284 -2.9971 0.9677
-1.1023 -7.5579 -2.9977 0.9677
-0.4253 -7.6275 -2.9982 0.9677
1.6059 -7.4732 -3.0000 0.9677
2.2651 -7.3020 -3.0006 0.9677
4.1160 -6.4476 -3.0022 0.9677
5.1956 -5.6174 -3.0031 0.9677
5.6757 -5.1334 -3.0035 0.9677
6.4975 -4.0467 -3.0042 0.9676
6.8326 -3.4526 -3.0045 0.9676
7.3376 -2.1868 -3.0050 0.9676
7.6097 -0.8512 -3.0052 0.9676
7.5641 1.1894 -3.0052 0.9676
6.6718 3.7535 -3.0044 0.9676
5.1647 5.1075 -2.8507 0.9693
3.6301 6.2876 -2.8494 0.9693
3.0556 6.5846 -2.8489 0.9693
2.4569 6.8292 -2.8484 0.9693
1.8390 7.0195 -2.8479 0.9693
0.5651 7.2315 -2.8468 0.9693
-0.7258 7.2144 -2.8457 0.9693
-1.3647 7.1197 -2.8452 0.9693
-3.1955 6.5026 -2.8436 0.9693
-4.2963 5.8311 -2.8426 0.9694
-5.2606 4.9755 -2.8418 0.9694
-7.6163 0.3397 -2.9921 0.9678
-7.2566 -2.3399 -2.9924 0.9678
-7.0200 -2.9767 -2.9926 0.9678
-6.7278 -3.5900 -2.9929 0.9678
-5.9859 -4.7270 -2.9935 0.9678
-5.0543 -5.7149 -2.9943 0.9677
-4.5262 -6.1430 -2.9947 0.9677
-3.9621 -6.5226 -2.9952 0.9677
-2.7438 -7.1242 -2.9963 0.9677
-1.4378 -7.5006 -2.9974 0.9677
-0.7646 -7.6003 -2.9980 0.9677
-0.0851 -7.6396 -2.9985 0.9677
0.5953 -7.6184 -2.9991 0.9677
1.2713 -7.5366 -2.9997 0.9677
2.5884 -7.1945 -3.0008 0.9677
3.2191 -6.9368 -3.0014 0.9677
3.8244 -6.6239 -3.0019 0.9677
4.3995 -6.2583 -3.0024 0.9677
4.9398 -5.8428 -3.0029 0.9677
5.4410 -5.3807 -3.0033 0.9677
6.3104 -4.3319 -3.0041 0.9676
6.9799 -3.1449 -3.0046 0.9676
7.2326 -2.5114 -3.0049 0.9676
7.6401 -0.5114 -3.0052 0.9676
7.6553 0.1706 -3.0052 0.9676
7.5035 1.5252 -3.0051 0.9676
7.1134 2.8311 -3.0048 0.9676
6.4977 4.0468 -3.0043 0.9676
6.1110 4.6086 -3.0040 0.9676
5.3874 4.8726 -2.8509 0.9693
4.9317 5.3321 -2.8505 0.9693
4.4369 5.7490 -2.8501 0.9693
3.9069 6.1201 -2.8497 0.9693
2.1501 6.9312 -2.8482 0.9693
-0.4037 7.2402 -2.8460 0.9693
-2.3009 6.8724 -2.8444 0.9693
-3.4817 6.3532 -2.8433 0.9693
-4.0326 6.0171 -2.8429 0.9694
-4.5515 5.6335 -2.8424 0.9694
-6.8808 3.2867 -2.9928 0.9678
-7.5936 0.6786 -2.9922 0.9678
-7.2670 0.0000 -2.9924 0.9691
-7.2383 -0.6468 -2.9925 0.9691
-6.8110 -2.5364 -2.9928 0.9690
-6.5587 -3.1328 -2.9930 0.9690
-6.2543 -3.7044 -2.9933 0.9690
-5.9004 -4.2468 -2.9936 0.9690
-5.4996 -4.7557 -2.9939 0.9690
-5.0551 -5.2269 -2.9943 0.9690
-4.5705 -5.6569 -2.9947 0.9690
-3.4961 -6.3796 -2.9956 0.9690
-0.4054 -7.2699 -2.9983 0.9690
0.8904 -7.2293 -2.9994 0.9690
1.5306 -7.1226 -2.9999 0.9690
2.7702 -6.7408 -3.0010 0.9690
3.3597 -6.4686 -3.0015 0.9690
4.9516 -5.3536 -3.0029 0.9689
5.4091 -4.8923 -3.0033 0.9689
6.1923 -3.8565 -3.0040 0.9689
6.7791 -2.6980 -3.0045 0.9689
7.1509 -1.4534 -3.0048 0.9689
7.2956 -0.1625 -3.0049 0.9689
7.2087 1.1335 -3.0049 0.9689
7.0789 1.7706 -3.0048 0.9689
6.8929 2.3935 -3.0046 0.9689
6.6520 2.9973 -3.0044 0.9689
5.6222 4.6469 -3.0035 0.9689
4.9221 4.8676 -2.8505 0.9705
4.4687 5.2856 -2.8502 0.9705
3.9800 5.6616 -2.8497 0.9705
2.9121 6.2755 -2.8488 0.9705
1.7527 6.6901 -2.8478 0.9705
1.1501 6.8183 -2.8473 0.9705
0.5386 6.8924 -2.8468 0.9705
-0.6917 6.8761 -2.8457 0.9705
-1.3008 6.7860 -2.8452 0.9706
-1.8992 6.6421 -2.8447 0.9706
-2.4824 6.4455 -2.8442 0.9706
-4.0951 5.5579 -2.8428 0.9706
-5.7058 4.5059 -2.9938 0.9690
-6.0835 3.9797 -2.9935 0.9690
-6.6916 2.8375 -2.9929 0.9690
-7.2024 0.9686 -2.9925 0.9691
-7.2598 -0.3237 -2.9924 0.9691
-7.0877 -1.6058 -2.9926 0.9691
-6.9170 -2.2304 -2.9927 0.9690
-5.7057 -4.5057 -2.9937 0.9690
-5.2826 -4.9962 -2.9941 0.9690
-4.3143 -5.8553 -2.9949 0.9690
-2.6153 -6.7904 -2.9964 0.9690
-1.3704 -7.1490 -2.9974 0.9690
-0.7288 -7.2439 -2.9980 0.9690
-0.0811 -7.2814 -2.9985 0.9690
0.5674 -7.2611 -2.9991 0.9690
1.2116 -7.1831 -2.9997 0.9690
1.8465 -7.0480 -3.0002 0.9690
2.4669 -6.8569 -3.0007 0.9690
3.6448 -6.3130 -3.0018 0.9690
5.1855 -5.1280 -3.0031 0.9689
5.6221 -4.6467 -3.0035 0.9689
6.3582 -3.5770 -3.0041 0.9689
6.6519 -2.9972 -3.0044 0.9689
6.8928 -2.3934 -3.0046 0.9689
7.2086 -1.1334 -3.0049 0.9689
6.5117 3.2905 -3.0043 0.9689
6.1924 3.8567 -3.0040 0.9689
4.7001 5.0817 -2.8503 0.9705
4.2285 5.4791 -2.8499 0.9705
3.1891 6.1401 -2.8491 0.9705
2.6295 6.3985 -2.8486 0.9705
-0.3848 6.9007 -2.8460 0.9705
-0.9973 6.8378 -2.8455 0.9705
-1.6016 6.7207 -2.8450 0.9706
-3.3186 6.0556 -2.8435 0.9706
-4.3383 5.3696 -2.8426 0.9706
-5.9005 4.2470 -2.9936 0.9690
-6.5588 3.1329 -2.9931 0.9690
-6.8111 2.5365 -2.9928 0.9690
-7.0094 1.9201 -2.9927 0.9691
-7.1522 1.2885 -2.9925 0.9691
-7.2383 0.6468 -2.9925 0.9691
-6.9379 0.0000 -2.9927 0.9702
-6.9104 -0.6175 -2.9927 0.9702
-6.6918 -1.8330 -2.9929 0.9702
-6.5025 -2.4215 -2.9931 0.9702
-6.2615 -2.9908 -2.9933 0.9702
-5.9710 -3.5366 -2.9935 0.9702
-5.6330 -4.0544 -2.9938 0.9702
-4.8260 -4.9901 -2.9945 0.9702
-4.3633 -5.4005 -2.9949 0.9702
-3.3376 -6.0903 -2.9958 0.9702
-2.7827 -6.3642 -2.9962 0.9702
-2.2056 -6.5878 -2.9967 0.9702
-1.6108 -6.7590 -2.9972 0.9702
0.2323 -6.9481 -2.9988 0.9702
0.8500 -6.9011 -2.9993 0.9702
1.4611 -6.7993 -2.9999 0.9702
2.0608 -6.6434 -3.0004 0.9702
2.6444 -6.4346 -3.0009 0.9701
3.7445 -5.8657 -3.0018 0.9701
4.2524 -5.5099 -3.0023 0.9701
5.1633 -4.6699 -3.0031 0.9701
5.5591 -4.1923 -3.0034 0.9701
5.9108 -3.6812 -3.0037 0.9701
6.9223 -0.7743 -3.0046 0.9701
6.7570 1.6901 -3.0045 0.9701
6.3496 2.8610 -3.0041 0.9701
6.0693 3.4146 -3.0039 0.9701
5.3667 4.4357 -3.0033 0.9701
4.2657 5.0454 -2.8500 0.9716
3.7991 5.4043 -2.8496 0.9716
3.3025 5.7202 -2.8492 0.9716
2.2353 6.2131 -2.8482 0.9716
1.6731 6.3863 -2.8478 0.9717
1.0979 6.5088 -2.8473 0.9717
0.5141 6.5795 -2.8468 0.9717
-0.6603 6.5641 -2.8458 0.9717
-1.2418 6.4781 -2.8453 0.9717
-3.4222 5.6337 -2.8434 0.9717
-3.9095 5.3060 -2.8430 0.9717
-5.4472 4.3017 -2.9940 0.9702
-5.8079 3.7994 -2.9937 0.9702
-6.6038 2.1295 -2.9930 0.9702
-6.9310 0.3091 -2.9927 0.9702
-6.7667 -1.5331 -2.9928 0.9702
-6.3883 -2.7089 -2.9932 0.9702
-5.8078 -3.7993 -2.9937 0.9702
-4.5992 -5.2004 -2.9947 0.9702
-1.9101 -6.6800 -2.9970 0.9702
-0.0774 -6.9510 -2.9985 0.9702
0.5416 -6.9315 -2.9991 0.9702
2.9286 -6.3110 -3.0011 0.9701
3.4793 -6.0262 -3.0016 0.9701
4.0024 -5.6935 -3.0021 0.9701
4.4939 -5.3154 -3.0025 0.9701
5.3665 -4.4355 -3.0032 0.9701
6.5794 -2.2846 -3.0043 0.9701
6.8808 -1.0820 -3.0046 0.9701
6.9500 -0.4652 -3.0046 0.9701
6.9638 0.1552 -3.0047 0.9701
6.6749 1.9894 -3.0044 0.9701
6.2156 3.1409 -3.0040 0.9701
5.5592 4.1924 -3.0035 0.9701
5.1634 4.6701 -3.0031 0.9701
4.4865 4.8507 -2.8502 0.9716
4.0364 5.2301 -2.8498 0.9716
3.5544 5.5678 -2.8494 0.9716
0.8068 6.5507 -2.8470 0.9717
-0.3673 6.5876 -2.8460 0.9717
-0.9520 6.5276 -2.8455 0.9717
-1.5290 6.4158 -2.8450 0.9717
-2.0936 6.2532 -2.8445 0.9717
-2.6414 6.0410 -2.8441 0.9717
-3.1681 5.7811 -2.8436 0.9717
-5.2505 4.5403 -2.9942 0.9702
-6.2616 2.9910 -2.9933 0.9702
-6.6331 0.0000 -2.9930 0.9713
-6.6068 -0.5904 -2.9930 0.9713
-6.2168 -2.3151 -2.9933 0.9713
-5.7086 -3.3812 -2.9937 0.9713
-5.3855 -3.8762 -2.9940 0.9713
-4.6139 -4.7707 -2.9947 0.9713
-3.1909 -5.8226 -2.9959 0.9713
-2.6604 -6.0843 -2.9963 0.9713
-0.3699 -6.6346 -2.9983 0.9713
0.8125 -6.5973 -2.9993 0.9713
1.3967 -6.4999 -2.9998 0.9712
1.9701 -6.3508 -3.0003 0.9712
3.0658 -5.9028 -3.0013 0.9712
3.5796 -5.6073 -3.0017 0.9712
4.0650 -5.2671 -3.0021 0.9712
5.3141 -4.0075 -3.0032 0.9712
5.6502 -3.5189 -3.0035 0.9712
6.1856 -2.4618 -3.0040 0.9712
6.5247 -1.3262 -3.0043 0.9712
6.6435 0.4448 -3.0044 0.9712
6.5775 1.0343 -3.0043 0.9712
6.4591 1.6155 -3.0042 0.9712
6.0697 2.7349 -3.0039 0.9712
5.4877 3.7671 -3.0034 0.9712
5.1301 4.2402 -3.0031 0.9712
3.6317 5.1662 -2.8494 0.9727
3.1570 5.4682 -2.8490 0.9727
2.6574 5.7266 -2.8486 0.9727
2.1368 5.9395 -2.8482 0.9727
1.0496 6.2222 -2.8472 0.9727
0.4915 6.2899 -2.8467 0.9727
-0.0703 6.3076 -2.8463 0.9727
-0.6313 6.2752 -2.8458 0.9727
-1.7333 6.0619 -2.8448 0.9727
-2.7798 5.6567 -2.8439 0.9727
-3.7376 5.0728 -2.8431 0.9727
-4.8217 4.5603 -2.9946 0.9713
-6.1077 2.5899 -2.9934 0.9713
-6.3136 2.0359 -2.9933 0.9713
-6.4695 1.4658 -2.9931 0.9713
-6.5741 0.8841 -2.9930 0.9713
-6.6266 0.2955 -2.9930 0.9713
-5.8533 -3.1234 -2.9936 0.9713
-5.5526 -3.6323 -2.9939 0.9713
-3.9376 -5.3442 -2.9952 0.9713
-3.4468 -5.6742 -2.9957 0.9713
-1.8261 -6.3862 -2.9971 0.9713
-1.2506 -6.5245 -2.9975 0.9713
-0.6651 -6.6110 -2.9980 0.9713
0.5178 -6.6264 -2.9991 0.9713
2.7996 -6.0330 -3.0010 0.9712
3.8261 -5.4426 -3.0019 0.9712
4.2959 -5.0812 -3.0023 0.9712
4.7317 -4.6792 -3.0027 0.9712
5.4876 -3.7670 -3.0034 0.9712
5.8016 -3.2639 -3.0036 0.9712
6.2893 -2.1838 -3.0041 0.9712
6.6435 -0.4447 -3.0044 0.9712
6.6568 0.1484 -3.0044 0.9712
6.1857 2.4619 -3.0040 0.9712
5.3142 4.0076 -3.0033 0.9712
4.3827 4.7386 -2.9124 0.9721
3.8585 4.9996 -2.8496 0.9727
3.3978 5.3225 -2.8492 0.9727
2.3995 5.8389 -2.8484 0.9727
1.8700 6.0283 -2.8479 0.9727
-0.3512 6.2976 -2.8460 0.9727
-0.9101 6.2404 -2.8455 0.9727
-1.4617 6.1336 -2.8451 0.9727
-3.0288 5.5268 -2.8437 0.9727
-5.3856 3.8763 -2.9941 0.9713
-5.9865 2.8596 -2.9936 0.9713
-6.2169 2.3153 -2.9934 0.9713
-6.3979 1.7526 -2.9932 0.9713
-6.5282 1.1762 -2.9931 0.9713
-6.6069 0.5904 -2.9930 0.9713
-6.3500 0.0000 -2.9932 0.9723
-6.2495 -1.1259 -2.9933 0.9723
-6.1247 -1.6777 -2.9934 0.9723
-5.9514 -2.2163 -2.9935 0.9723
-5.4649 -3.2368 -2.9940 0.9723
-5.1555 -3.7107 -2.9942 0.9723
-4.4168 -4.5669 -2.9948 0.9723
-1.4741 -6.1855 -2.9974 0.9723
-0.9178 -6.2931 -2.9978 0.9723
-0.3541 -6.3509 -2.9983 0.9723
0.2126 -6.3582 -2.9988 0.9723
0.7778 -6.3151 -2.9993 0.9723
2.9346 -5.6501 -3.0011 0.9722
4.3248 -4.6759 -3.0023 0.9722
4.7244 -4.2729 -3.0027 0.9722
5.0865 -3.8358 -3.0030 0.9722
5.4082 -3.3682 -3.0033 0.9722
5.6870 -2.8737 -3.0035 0.9722
5.9206 -2.3563 -3.0037 0.9722
6.2452 -1.2693 -3.0040 0.9722
6.1824 1.5464 -3.0040 0.9722
6.0199 2.0904 -3.0039 0.9722
5.8096 2.6177 -3.0037 0.9722
5.2526 3.6058 -3.0032 0.9722
4.9104 4.0586 -3.0029 0.9722
4.5292 4.4790 -3.0026 0.9722
4.0053 4.7375 -2.9243 0.9729
2.5437 5.4815 -2.8485 0.9736
2.0454 5.6853 -2.8481 0.9736
1.5310 5.8439 -2.8476 0.9736
1.0047 5.9560 -2.8472 0.9736
0.4705 6.0209 -2.8467 0.9736
-0.6043 6.0069 -2.8458 0.9737
-1.6592 5.8027 -2.8449 0.9737
-2.1688 5.6312 -2.8445 0.9737
-2.6610 5.4149 -2.8440 0.9737
-4.6157 4.3656 -2.9947 0.9723
-4.9854 3.9370 -2.9944 0.9723
-5.6035 2.9901 -2.9939 0.9723
-5.8470 2.4794 -2.9937 0.9723
-6.1933 1.4033 -2.9934 0.9723
-6.3437 -0.2829 -2.9932 0.9723
-6.2934 -0.8464 -2.9933 0.9723
-6.1932 -1.4032 -2.9933 0.9723
-6.0440 -1.9489 -2.9935 0.9723
-5.3155 -3.4772 -2.9941 0.9723
-4.9853 -3.9368 -2.9944 0.9723
-3.2995 -5.4318 -2.9958 0.9723
-2.8034 -5.7047 -2.9962 0.9723
-1.7480 -6.1132 -2.9971 0.9723
-0.0709 -6.3609 -2.9986 0.9723
1.0584 -6.2746 -2.9995 0.9723
2.6798 -5.7748 -3.0009 0.9722
3.1836 -5.5142 -3.0014 0.9722
3.6623 -5.2096 -3.0018 0.9722
4.5291 -4.4788 -3.0025 0.9722
5.2525 -3.6056 -3.0032 0.9722
5.5531 -3.1241 -3.0034 0.9722
5.8096 -2.6176 -3.0036 0.9722
6.1823 -1.5463 -3.0040 0.9722
6.2956 -0.9899 -3.0041 0.9722
6.3589 -0.4256 -3.0041 0.9722
6.1072 1.8202 -3.0039 0.9722
5.9207 2.3564 -3.0038 0.9722
3.6934 4.7856 -2.8495 0.9736
3.2523 5.0946 -2.8491 0.9736
2.2968 5.5890 -2.8483 0.9736
1.7900 5.7704 -2.8479 0.9736
0.7383 5.9944 -2.8470 0.9736
-0.3361 6.0284 -2.8460 0.9737
-0.8712 5.9735 -2.8456 0.9737
-1.9159 5.7226 -2.8447 0.9737
-2.8994 5.2907 -2.8438 0.9737
-5.7309 2.7375 -2.9938 0.9723
-6.1248 1.6778 -2.9934 0.9723
-6.2495 1.1260 -2.9933 0.9723
-6.3248 0.5652 -2.9932 0.9723
-6.0860 0.0001 -2.9934 0.9732
-6.0619 -0.5417 -2.9935 0.9732
-5.7040 -2.1242 -2.9938 0.9732
-5.4926 -2.6236 -2.9939 0.9732
-5.2377 -3.1022 -2.9941 0.9732
-4.9412 -3.5564 -2.9944 0.9732
-4.6055 -3.9824 -2.9947 0.9732
-3.8272 -4.7370 -2.9953 0.9732
-2.9274 -5.3419 -2.9961 0.9732
-0.8796 -6.0312 -2.9979 0.9732
-0.3394 -6.0865 -2.9983 0.9732
0.7454 -6.0521 -2.9993 0.9732
2.3189 -5.6427 -3.0006 0.9732
2.8123 -5.4147 -3.0010 0.9732
3.2836 -5.1436 -3.0014 0.9732
3.7288 -4.8315 -3.0018 0.9732
4.1445 -4.4810 -3.0022 0.9732
4.8744 -3.6759 -3.0028 0.9732
5.9847 -1.2164 -3.0038 0.9731
6.1058 -0.1360 -3.0039 0.9731
6.0331 0.9487 -3.0039 0.9731
5.9245 1.4819 -3.0038 0.9731
5.3216 2.9939 -3.0033 0.9731
4.7057 3.8894 -3.0027 0.9732
3.3432 4.7558 -2.8593 0.9744
2.4377 5.2531 -2.8484 0.9745
1.9602 5.4485 -2.8480 0.9745
-0.5791 5.7569 -2.8458 0.9745
-1.0891 5.6816 -2.8454 0.9745
-1.5902 5.5612 -2.8450 0.9745
-2.0786 5.3969 -2.8445 0.9745
-2.5503 5.1897 -2.8441 0.9746
-3.0017 4.9415 -2.8437 0.9746
-4.4238 4.1841 -2.9949 0.9732
-4.7782 3.7733 -2.9946 0.9732
-5.0946 3.3328 -2.9943 0.9732
-5.3705 2.8658 -2.9941 0.9732
-5.9359 1.3449 -2.9936 0.9732
-6.0800 -0.2711 -2.9934 0.9732
-6.0318 -0.8112 -2.9935 0.9732
-5.9358 -1.3449 -2.9936 0.9732
-5.6039 -2.3762 -2.9938 0.9732
-4.4237 -4.1839 -2.9948 0.9732
-4.0342 -4.5615 -2.9952 0.9732
-3.6126 -4.9031 -2.9955 0.9732
-3.1623 -5.2058 -2.9959 0.9732
-2.6868 -5.4674 -2.9963 0.9732
-2.1898 -5.6856 -2.9967 0.9732
-1.6753 -5.8588 -2.9972 0.9732
-1.1473 -5.9856 -2.9976 0.9732
-0.6101 -6.0649 -2.9981 0.9732
-0.0679 -6.0960 -2.9986 0.9732
0.4750 -6.0789 -2.9990 0.9732
1.0143 -6.0133 -2.9995 0.9732
3.9406 -4.6609 -3.0020 0.9732
4.3403 -4.2922 -3.0024 0.9732
4.7056 -3.8892 -3.0027 0.9732
5.0335 -3.4553 -3.0030 0.9732
5.5673 -2.5085 -3.0034 0.9731
5.9245 -1.4818 -3.0037 0.9731
6.0694 0.6790 -3.0039 0.9731
5.4499 2.7540 -3.0034 0.9731
5.1828 3.2279 -3.0031 0.9731
4.8745 3.6761 -3.0029 0.9732
4.5275 4.0949 -3.0026 0.9732
3.6545 4.7353 -2.9420 0.9737
2.2011 5.3562 -2.8482 0.9745
1.7154 5.5300 -2.8478 0.9745
1.2162 5.6598 -2.8474 0.9745
0.7075 5.7448 -2.8469 0.9745
-0.3221 5.7774 -2.8460 0.9745
-0.8350 5.7249 -2.8456 0.9745
-1.3410 5.6270 -2.8452 0.9745
-2.3167 5.2985 -2.8443 0.9746
-2.7787 5.0706 -2.8439 0.9746
-3.2186 4.8025 -2.8435 0.9746
-4.6056 3.9826 -2.9947 0.9732
-5.2378 3.1024 -2.9942 0.9732
-5.7041 2.1242 -2.9938 0.9732
-5.8702 1.6081 -2.9936 0.9732
-5.8394 0.0001 -2.9937 0.9741
-5.2699 -2.5172 -2.9941 0.9741
-5.0253 -2.9765 -2.9943 0.9741
-4.7408 -3.4122 -2.9946 0.9741
-4.4187 -3.8210 -2.9948 0.9741
-3.6720 -4.5449 -2.9955 0.9741
-2.3417 -5.3555 -2.9966 0.9741
-1.8560 -5.5435 -2.9970 0.9741
-1.3554 -5.6875 -2.9975 0.9741
-0.3256 -5.8394 -2.9983 0.9741
0.1955 -5.8461 -2.9988 0.9740
2.2247 -5.4134 -3.0005 0.9740
4.3434 -3.9283 -3.0024 0.9740
4.6762 -3.5265 -3.0027 0.9740
4.9720 -3.0965 -3.0029 0.9740
5.2282 -2.6419 -3.0031 0.9740
5.7413 -1.1670 -3.0036 0.9740
5.7877 0.9101 -3.0036 0.9740
5.6836 1.4216 -3.0036 0.9740
5.5343 1.9217 -3.0034 0.9740
5.3410 2.4066 -3.0033 0.9740
4.1639 4.1178 -3.0023 0.9740
3.3264 4.7320 -2.9653 0.9743
2.7783 4.8122 -2.8487 0.9753
2.3386 5.0397 -2.8483 0.9753
1.4077 5.3730 -2.8475 0.9753
-2.4468 4.9791 -2.8442 0.9754
-2.8975 4.7700 -2.8612 0.9752
-3.4662 4.7044 -2.9957 0.9741
-4.5844 3.6203 -2.9948 0.9741
-5.3767 2.2800 -2.9941 0.9741
-5.5580 1.7923 -2.9939 0.9741
-5.6953 1.2904 -2.9938 0.9741
-5.8336 0.2602 -2.9937 0.9741
-5.8336 -0.2601 -2.9937 0.9741
-5.6952 -1.2903 -2.9938 0.9741
-5.5580 -1.7922 -2.9939 0.9741
-5.1527 -2.7496 -2.9942 0.9741
-4.2443 -4.0142 -2.9950 0.9741
-3.8706 -4.3765 -2.9953 0.9741
-3.4661 -4.7042 -2.9957 0.9741
-3.0340 -4.9946 -2.9960 0.9741
-2.5778 -5.2455 -2.9964 0.9741
-1.6073 -5.6210 -2.9972 0.9741
-1.1008 -5.7426 -2.9977 0.9741
-0.0652 -5.8485 -2.9986 0.9741
0.4557 -5.8320 -2.9990 0.9740
0.9731 -5.7691 -2.9995 0.9740
1.9812 -5.5068 -3.0003 0.9740
3.3670 -4.7896 -3.0015 0.9740
3.7804 -4.4714 -3.0019 0.9740
4.1638 -4.1177 -3.0022 0.9740
4.5143 -3.7311 -3.0025 0.9740
4.8289 -3.3148 -3.0028 0.9740
5.3409 -2.4064 -3.0032 0.9740
5.6835 -1.4215 -3.0035 0.9740
5.7877 -0.9100 -3.0036 0.9740
5.8226 0.6514 -3.0037 0.9740
5.6145 1.6734 -3.0035 0.9740
5.4430 2.1663 -3.0034 0.9740
4.9721 3.0966 -3.0030 0.9740
4.6763 3.5266 -3.0027 0.9740
3.5773 4.6353 -3.0018 0.9740
3.0305 4.7473 -2.8874 0.9750
2.5610 4.9308 -2.8485 0.9753
2.1117 5.1385 -2.8481 0.9753
1.1668 5.4300 -2.8473 0.9753
0.1855 5.5492 -2.8465 0.9754
-0.8011 5.4925 -2.8456 0.9754
-1.2866 5.3986 -2.8452 0.9754
-1.7617 5.2619 -2.8448 0.9754
-2.2227 5.0836 -2.8444 0.9754
-2.6660 4.8649 -2.8440 0.9754
-3.6721 4.5450 -2.9956 0.9741
-4.0616 4.1997 -2.9952 0.9741
-4.7409 3.4124 -2.9946 0.9741
-5.2700 2.5173 -2.9942 0.9741
-5.4728 2.0381 -2.9940 0.9741
-5.7470 1.0354 -2.9937 0.9741
-5.8162 0.5198 -2.9937 0.9741
-5.5194 -0.9944 -2.9939 0.9749
-5.4091 -1.4817 -2.9940 0.9749
-5.0612 -2.4175 -2.9943 0.9749
-4.8263 -2.8586 -2.9945 0.9749
-3.9006 -4.0331 -2.9953 0.9749
-3.5265 -4.3648 -2.9956 0.9749
-3.1244 -4.6619 -2.9960 0.9749
-2.2489 -5.1432 -2.9967 0.9749
-1.3017 -5.4620 -2.9975 0.9749
-0.8105 -5.5569 -2.9979 0.9749
-0.3127 -5.6078 -2.9984 0.9749
0.1877 -5.6142 -2.9988 0.9749
0.6867 -5.5760 -2.9992 0.9748
1.6650 -5.3674 -3.0001 0.9748
2.5910 -4.9885 -3.0009 0.9748
3.8182 -4.1282 -3.0019 0.9748
4.1709 -3.7723 -3.0022 0.9748
4.4905 -3.3864 -3.0025 0.9748
4.7745 -2.9735 -3.0027 0.9748
5.5578 0.8740 -3.0035 0.9748
5.3144 1.8454 -3.0032 0.9748
4.3351 3.5831 -3.0024 0.9748
2.7375 4.7416 -2.9228 0.9755
2.2458 4.8397 -2.8482 0.9761
1.3518 5.1598 -2.8475 0.9761
0.4154 5.3162 -2.8467 0.9761
-0.5336 5.3041 -2.8459 0.9761
-1.0034 5.2348 -2.8455 0.9761
-1.4652 5.1240 -2.8451 0.9761
-2.3505 4.7831 -2.8451 0.9761
-4.4028 3.4769 -2.9949 0.9749
-4.6944 3.0710 -2.9947 0.9749
-4.9487 2.6408 -2.9944 0.9749
-5.1638 2.1897 -2.9943 0.9749
-5.4697 1.2393 -2.9940 0.9749
-5.6026 0.2498 -2.9939 0.9749
-5.6026 -0.2498 -2.9939 0.9749
-5.4697 -1.2392 -2.9940 0.9749
-4.6943 -3.0708 -2.9946 0.9749
-4.4027 -3.4768 -2.9949 0.9749
-3.7172 -4.2031 -2.9954 0.9749
-2.4756 -5.0377 -2.9965 0.9749
-2.0176 -5.2387 -2.9969 0.9749
-0.5622 -5.5879 -2.9981 0.9749
1.9026 -5.2882 -3.0003 0.9748
2.8108 -4.8684 -3.0010 0.9748
3.2333 -4.5995 -3.0014 0.9748
3.6303 -4.2939 -3.0018 0.9748
4.9024 -2.7580 -3.0029 0.9748
5.1288 -2.3109 -3.0031 0.9748
5.3144 -1.8453 -3.0032 0.9748
5.5578 -0.8739 -3.0034 0.9748
5.6248 0.1254 -3.0035 0.9748
5.2268 2.0803 -3.0032 0.9748
5.0206 2.5371 -3.0030 0.9748
4.4906 3.3865 -3.0026 0.9748
3.8183 4.1283 -3.0020 0.9748
3.4354 4.4513 -3.0017 0.9748
3.0180 4.7275 -2.9942 0.9749
2.4705 4.7561 -2.8610 0.9760
1.5804 5.0948 -2.8477 0.9761
1.1205 5.2145 -2.8473 0.9761
0.6519 5.2928 -2.8469 0.9761
-0.2968 5.3230 -2.8461 0.9761
-1.2355 5.1846 -2.8453 0.9761
-2.1346 4.8821 -2.8445 0.9761
-2.6097 4.7621 -2.8989 0.9757
-3.1245 4.6621 -2.9960 0.9749
-3.5266 4.3649 -2.9957 0.9749
-3.9007 4.0333 -2.9954 0.9749
-4.2438 3.6697 -2.9951 0.9749
-5.4092 1.4818 -2.9940 0.9749
-5.5194 0.9944 -2.9939 0.9749
-5.3695 -0.4798 -2.9941 0.9756
-5.1996 -1.4243 -2.9942 0.9756
-4.6392 -2.7478 -2.9947 0.9756
-4.3766 -3.1500 -2.9949 0.9756
-4.0792 -3.5274 -2.9951 0.9756
-3.7494 -3.8768 -2.9954 0.9756
-3.0032 -4.4811 -2.9961 0.9756
-1.2512 -5.2501 -2.9976 0.9756
-0.7790 -5.3413 -2.9980 0.9756
-0.3006 -5.3902 -2.9984 0.9756
2.0534 -4.9968 -3.0004 0.9756
2.9076 -4.5546 -3.0011 0.9756
3.3018 -4.2782 -3.0015 0.9756
3.6699 -3.9678 -3.0018 0.9756
5.1819 -1.5444 -3.0031 0.9756
5.2990 -1.0770 -3.0032 0.9756
5.3954 0.3612 -3.0033 0.9756
4.7120 2.6510 -3.0027 0.9756
3.1078 4.4210 -3.0014 0.9756
1.2993 4.9595 -2.8474 0.9768
0.3993 5.1099 -2.8467 0.9768
-0.5129 5.0983 -2.8459 0.9768
-1.4098 4.9304 -2.8480 0.9768
-1.8415 4.7813 -2.8457 0.9768
-2.3359 4.7534 -2.9416 0.9761
-3.5732 4.0403 -2.9956 0.9756
-3.9183 3.7059 -2.9953 0.9756
-4.5125 2.9520 -2.9948 0.9756
-4.7570 2.5384 -2.9946 0.9756
-5.1311 1.6546 -2.9943 0.9756
-5.3428 -0.7185 -2.9941 0.9756
-5.2578 -1.1912 -2.9941 0.9756
-4.9636 -2.1047 -2.9944 0.9756
-4.7569 -2.5383 -2.9946 0.9756
-4.2321 -3.3420 -2.9950 0.9756
-3.5731 -4.0402 -2.9956 0.9756
-3.1997 -4.3426 -2.9959 0.9756
-1.4837 -5.1888 -2.9974 0.9756
-1.0161 -5.3010 -2.9978 0.9756
-0.5403 -5.3711 -2.9982 0.9756
-0.0601 -5.3986 -2.9986 0.9756
1.8287 -5.0829 -3.0002 0.9756
2.7016 -4.6793 -3.0010 0.9756
3.1078 -4.4208 -3.0013 0.9756
3.4893 -4.1271 -3.0016 0.9756
3.8432 -3.8006 -3.0019 0.9756
4.7119 -2.6509 -3.0027 0.9756
4.9295 -2.2211 -3.0029 0.9756
5.1079 -1.7736 -3.0030 0.9756
5.4062 0.1205 -3.0033 0.9756
5.3740 0.6012 -3.0033 0.9756
5.1819 1.5444 -3.0031 0.9756
5.0237 1.9995 -3.0030 0.9756
4.8255 2.4385 -3.0028 0.9756
4.0089 3.6259 -3.0021 0.9756
3.3019 4.2784 -3.0015 0.9756
2.9077 4.5548 -3.0012 0.9756
2.4593 4.7350 -2.9633 0.9759
1.5191 4.8970 -2.8476 0.9768
1.0770 5.0121 -2.8472 0.9768
0.6266 5.0874 -2.8468 0.9768
-0.2853 5.1165 -2.8461 0.9768
-1.1876 4.9834 -2.8453 0.9768
-1.6262 4.8574 -2.8449 0.9768
-2.0825 4.7628 -2.8870 0.9765
-2.5928 4.7313 -2.9965 0.9756
-4.6393 2.7479 -2.9947 0.9756
