ply
format ascii 1.0
element vertex 1586
property float32 x
property float32 y
property float32 z
property float32 I
end_header
-4.3113 7.0973 -0.2071 0.9673
9.0292 -5.0797 -0.2584 0.9594
7.8243 -7.0767 -0.4387 0.9586
9.8683 -4.9867 -0.4597 0.9567
7.8536 -6.4912 -0.4236 0.9600
7.8845 -7.1311 -0.6192 0.9583
8.0570 -6.0760 -0.5877 0.9604
8.6417 -5.3821 -0.5930 0.9600
8.3030 -5.6997 -0.5866 0.9605
9.1272 -5.1348 -0.6099 0.9589
7.9473 -6.5686 -0.7727 0.9595
9.2030 -5.1775 -0.7913 0.9585
8.0884 -7.3155 -0.9998 0.9571
-4.3096 7.0946 -0.7610 0.9672
8.0380 -6.6436 -0.9560 0.9590
8.4249 -5.7834 -0.9368 0.9598
8.8823 -5.5319 -1.1350 0.9588
8.1433 -6.7306 -1.1459 0.9584
-4.3087 7.0931 -1.0400 0.9671
8.2976 -6.8582 -1.3490 0.9575
9.2762 -5.7772 -1.5544 0.9568
8.8926 -6.7062 -1.7736 0.9559
-4.3079 7.0917 -1.3213 0.9669
13.3589 6.0192 -2.8355 0.9421
10.4266 10.3110 -2.8377 0.9420
9.4699 11.2011 -2.8385 0.9420
6.1797 13.3168 -2.8410 0.9419
3.7231 14.2111 -2.8429 0.9419
2.4443 14.4911 -2.8439 0.9419
1.1453 14.6563 -2.8449 0.9419
-4.0474 14.1545 -2.8489 0.9418
13.6129 5.4178 -2.8353 0.9421
7.8958 12.3686 -2.8397 0.9420
6.7657 13.0262 -2.8405 0.9419
5.5812 13.5811 -2.8415 0.9419
4.3517 14.0287 -2.8424 0.9419
0.4913 14.6954 -2.8454 0.9419
-2.1235 14.5600 -2.8474 0.9418
-3.4122 14.3183 -2.8484 0.9418
-14.2748 0.0000 -3.0094 0.9433
-14.2180 -1.2705 -3.0094 0.9433
-14.0479 -2.5308 -3.0093 0.9433
-13.7659 -3.7709 -3.0090 0.9433
-11.5781 -8.3334 -3.0074 0.9434
-10.7882 -9.3289 -3.0068 0.9434
-7.9345 -11.8390 -3.0046 0.9434
-5.7064 -13.0508 -3.0029 0.9434
-4.5208 -13.5028 -3.0020 0.9435
-3.3000 -13.8472 -3.0010 0.9435
-2.0537 -14.0814 -3.0001 0.9435
-0.7920 -14.2037 -2.9991 0.9435
2.9858 -13.8947 -2.9961 0.9436
5.3987 -13.1369 -2.9943 0.9436
6.5445 -12.6005 -2.9934 0.9436
7.6379 -11.9646 -2.9925 0.9436
9.6332 -10.4153 -2.9910 0.9437
12.6523 -6.3935 -2.9886 0.9437
13.5820 -4.0479 -2.9878 0.9437
13.8873 -2.8227 -2.9876 0.9437
14.0826 -1.5754 -2.9874 0.9437
14.1666 -0.3157 -2.9873 0.9437
14.1385 0.9465 -2.9873 0.9437
13.7479 3.4386 -2.9876 0.9437
12.2662 5.5270 -2.8364 0.9465
11.7273 6.5977 -2.8368 0.9465
11.0954 7.6166 -2.8372 0.9465
9.5731 9.4671 -2.8384 0.9464
7.7467 11.0199 -2.8398 0.9464
3.4179 13.0459 -2.8431 0.9464
2.2439 13.3026 -2.8441 0.9463
-0.1504 13.4984 -2.8459 0.9463
-3.7149 12.9917 -2.8487 0.9463
-4.3066 7.0896 -1.7488 0.9667
-8.0247 10.8913 -2.8520 0.9462
-8.9646 10.1364 -2.8528 0.9462
-9.8336 9.3005 -2.8535 0.9462
-11.3315 7.4127 -2.8546 0.9462
-11.9483 6.3758 -2.8551 0.9461
-13.5833 4.3801 -3.0088 0.9433
-13.9205 3.1540 -3.0091 0.9433
-14.1469 1.9026 -3.0093 0.9433
-14.2605 0.6359 -3.0094 0.9433
-14.1470 -1.9026 -3.0093 0.9433
-13.9208 -3.1540 -3.0092 0.9433
-13.1385 -5.5712 -3.0086 0.9433
-10.3608 -9.7992 -3.0065 0.9434
-9.4453 -10.6800 -3.0058 0.9434
-8.4551 -11.4754 -3.0050 0.9434
-6.2830 -12.7855 -3.0033 0.9434
-3.9142 -13.6886 -3.0015 0.9435
1.1077 -14.1756 -2.9976 0.9435
3.6012 -13.7457 -2.9957 0.9436
4.8088 -13.3664 -2.9947 0.9436
7.0983 -12.2947 -2.9929 0.9436
8.1622 -11.6108 -2.9921 0.9436
10.0864 -9.9746 -2.9906 0.9437
10.9318 -9.0353 -2.9899 0.9437
12.3559 -6.9513 -2.9888 0.9437
12.9236 -5.8231 -2.9884 0.9437
13.3889 -4.6491 -2.9880 0.9437
14.1386 -0.9465 -2.9874 0.9437
14.1665 0.3157 -2.9873 0.9437
13.5817 4.0478 -2.9877 0.9437
12.0087 6.0683 -2.8365 0.9465
10.7461 8.1041 -2.8375 0.9465
9.1430 9.8853 -2.8387 0.9464
3.9950 12.8786 -2.8427 0.9464
-0.7517 13.4805 -2.8464 0.9463
-1.9492 13.3645 -2.8473 0.9463
-3.1319 13.1422 -2.8482 0.9463
-5.4159 12.3864 -2.8500 0.9462
-6.4988 11.8587 -2.8509 0.9462
-10.2393 8.8543 -2.8538 0.9462
-13.7656 3.7708 -3.0090 0.9433
-14.0477 2.5308 -3.0092 0.9433
-13.1814 0.0000 -3.0086 0.9474
-12.9719 -2.3370 -3.0084 0.9474
-11.8904 -5.6796 -3.0076 0.9474
-11.3361 -6.7144 -3.0072 0.9474
-10.6918 -7.6955 -3.0067 0.9474
-9.9625 -8.6149 -3.0061 0.9474
-9.1543 -9.4655 -3.0055 0.9474
-7.3276 -10.9335 -3.0041 0.9474
-6.3237 -11.5394 -3.0033 0.9474
-1.8969 -13.0059 -2.9999 0.9475
1.6052 -13.0331 -2.9972 0.9475
2.7580 -12.8347 -2.9963 0.9476
4.9871 -12.1353 -2.9946 0.9476
6.0457 -11.6401 -2.9937 0.9476
7.0559 -11.0529 -2.9930 0.9476
11.1189 -6.9249 -2.9898 0.9477
12.1672 -4.8424 -2.9889 0.9477
12.8306 -2.6079 -2.9884 0.9477
13.0112 -1.4555 -2.9882 0.9477
13.0888 -0.2917 -2.9882 0.9477
12.7019 3.1770 -2.9884 0.9477
11.3328 5.1063 -2.8371 0.9503
10.2508 7.0369 -2.8379 0.9503
9.5855 7.9227 -2.8384 0.9503
7.1565 10.1803 -2.8403 0.9502
6.2236 10.7796 -2.8410 0.9502
4.2160 11.7186 -2.8425 0.9502
2.0727 12.2877 -2.8442 0.9502
0.9711 12.4271 -2.8450 0.9501
-0.1389 12.4680 -2.8459 0.9501
-5.5073 11.2070 -2.8501 0.9501
-4.3061 7.0888 -1.8931 0.9665
-8.2787 9.3609 -2.8523 0.9500
-9.0810 8.5888 -2.8529 0.9500
-10.4640 6.8453 -2.8540 0.9500
-11.5153 4.8829 -2.8548 0.9500
-13.1682 -0.5872 -3.0086 0.9474
-13.0634 -1.7568 -3.0085 0.9474
-11.6248 -6.2032 -3.0074 0.9474
-7.8083 -10.5975 -3.0045 0.9474
-6.8324 -11.2477 -3.0037 0.9474
-5.8026 -11.8080 -3.0029 0.9475
-2.4747 -12.9104 -3.0004 0.9475
-0.1464 -13.1368 -2.9986 0.9475
2.1838 -12.9468 -2.9968 0.9476
5.5219 -11.8994 -2.9942 0.9476
7.5403 -10.7262 -2.9926 0.9476
8.4630 -10.0101 -2.9919 0.9476
9.3183 -9.2150 -2.9912 0.9477
10.0994 -8.3474 -2.9906 0.9477
10.8003 -7.4139 -2.9900 0.9477
11.4155 -6.4222 -2.9895 0.9477
11.9401 -5.3799 -2.9891 0.9477
13.0629 -0.8745 -2.9882 0.9477
13.0888 0.2917 -2.9882 0.9477
12.5483 3.7398 -2.9886 0.9477
10.5533 6.5727 -2.8377 0.9503
9.9280 7.4871 -2.8381 0.9503
9.2240 8.3426 -2.8387 0.9503
7.6020 9.8502 -2.8399 0.9502
5.7380 11.0476 -2.8414 0.9502
1.5235 12.3696 -2.8446 0.9502
-2.8927 12.1382 -2.8480 0.9501
-3.9627 11.8361 -2.8489 0.9501
-6.0019 10.9520 -2.8505 0.9501
-8.6885 8.9838 -2.8526 0.9500
-9.4556 8.1766 -2.8532 0.9500
-10.1478 7.3040 -2.8537 0.9500
-10.7594 6.3729 -2.8542 0.9500
-11.2856 5.3907 -2.8546 0.9500
-12.7113 3.4820 -3.0082 0.9474
-12.9717 2.3370 -3.0084 0.9474
-11.8009 -3.2326 -3.0075 0.9508
-9.9261 -7.1444 -3.0061 0.9509
-7.6815 -9.5075 -3.0044 0.9509
-5.8714 -10.7139 -3.0030 0.9509
-2.8300 -11.8751 -3.0006 0.9510
-0.6793 -12.1820 -2.9990 0.9510
0.4076 -12.1906 -2.9981 0.9510
1.4906 -12.1026 -2.9973 0.9510
2.5611 -11.9185 -2.9965 0.9510
3.6108 -11.6401 -2.9956 0.9510
4.6313 -11.2696 -2.9948 0.9511
5.6145 -10.8098 -2.9941 0.9511
7.4386 -9.6385 -2.9926 0.9511
9.7150 -7.3264 -2.9909 0.9511
11.3006 -4.4975 -2.9896 0.9511
11.6550 -3.4736 -2.9893 0.9511
12.0847 -1.3519 -2.9890 0.9511
12.1569 -0.2709 -2.9889 0.9511
11.4889 3.9894 -2.9894 0.9511
10.5374 4.7479 -2.8409 0.9535
6.6463 9.4545 -2.8407 0.9535
5.7798 10.0109 -2.8413 0.9535
4.8670 10.4882 -2.8420 0.9535
1.9247 11.4105 -2.8443 0.9535
0.9017 11.5397 -2.8451 0.9534
-1.1592 11.5233 -2.8467 0.9534
-2.1809 11.3775 -2.8475 0.9534
-3.1858 11.1413 -2.8483 0.9534
-4.3057 7.0881 -2.0385 0.9664
-7.6862 8.6909 -2.8518 0.9533
-9.7146 6.3550 -2.8534 0.9533
-10.2432 5.4660 -2.8538 0.9533
-11.2629 4.7759 -3.0070 0.9509
-11.9334 2.7037 -3.0076 0.9508
-12.2247 0.5451 -3.0078 0.9508
-12.2247 -0.5451 -3.0078 0.9508
-12.1274 -1.6310 -3.0078 0.9508
-11.6447 -3.7549 -3.0074 0.9509
-11.2632 -4.7760 -3.0071 0.9509
-10.2353 -6.6956 -3.0063 0.9509
-9.5972 -7.5788 -3.0058 0.9509
-7.2496 -9.8392 -3.0040 0.9509
-5.3876 -10.9635 -3.0026 0.9509
-4.3893 -11.3965 -3.0018 0.9509
-1.2214 -12.1413 -2.9994 0.9510
0.9501 -12.1587 -2.9977 0.9510
2.0279 -12.0225 -2.9969 0.9510
3.0891 -11.7910 -2.9960 0.9510
4.1252 -11.4662 -2.9952 0.9510
5.1280 -11.0506 -2.9945 0.9511
7.8598 -9.2965 -2.9923 0.9511
8.6542 -8.5583 -2.9917 0.9511
10.6023 -5.9647 -2.9902 0.9511
11.0897 -4.9968 -2.9898 0.9511
11.7977 -2.9508 -2.9892 0.9511
12.0128 -1.8889 -2.9890 0.9511
12.1328 -0.8122 -2.9889 0.9511
10.3045 5.2071 -2.8379 0.9536
9.8015 6.1045 -2.8383 0.9536
9.2207 6.9537 -2.8387 0.9535
8.5667 7.7482 -2.8392 0.9535
7.8446 8.4816 -2.8398 0.9535
6.2193 9.7423 -2.8410 0.9535
5.3288 10.2597 -2.8417 0.9535
4.3956 10.6960 -2.8424 0.9535
3.4270 11.0477 -2.8432 0.9535
2.4308 11.3119 -2.8439 0.9535
-1.6717 11.4618 -2.8471 0.9534
-5.5725 10.1686 -2.8501 0.9534
-7.2906 9.0237 -2.8515 0.9533
-9.4211 6.7809 -2.8532 0.9533
-10.4772 5.0046 -2.8540 0.9533
-11.4651 4.2696 -3.0072 0.9509
-12.0423 2.1695 -3.0076 0.9508
-12.1881 1.0892 -3.0078 0.9508
-11.4125 0.0000 -3.0072 0.9539
-10.6931 -3.9821 -3.0067 0.9539
-10.2952 -4.9176 -3.0064 0.9539
-9.2577 -6.6633 -3.0056 0.9539
-7.9269 -8.1964 -3.0046 0.9539
-7.1645 -8.8677 -3.0040 0.9539
-3.6161 -10.8006 -3.0012 0.9540
-2.6397 -11.0768 -3.0005 0.9540
-0.6336 -11.3635 -2.9989 0.9540
0.3802 -11.3718 -2.9981 0.9540
2.3892 -11.1184 -2.9966 0.9540
5.2378 -10.0846 -2.9944 0.9541
8.4210 -7.6163 -2.9919 0.9541
9.6349 -6.0006 -2.9909 0.9541
11.2754 -1.2613 -2.9896 0.9542
11.3426 -0.2528 -2.9895 0.9542
10.3464 4.6619 -2.9903 0.9541
9.3888 5.2821 -2.8386 0.9564
8.8826 6.0976 -2.8390 0.9564
8.3059 6.8650 -2.8394 0.9564
6.9597 8.2319 -2.8404 0.9564
6.2006 8.8205 -2.8410 0.9564
4.5405 9.7845 -2.8423 0.9564
1.7955 10.6444 -2.8444 0.9563
0.8412 10.7648 -2.8452 0.9563
-2.9716 10.3923 -2.8481 0.9563
-4.7695 9.7056 -2.8495 0.9563
-7.8634 7.4372 -2.8520 0.9562
-8.4956 6.7089 -2.8525 0.9562
-9.5534 5.0979 -2.8533 0.9562
-11.1294 2.5216 -3.0069 0.9539
-11.3103 1.5211 -3.0071 0.9539
-11.4011 0.5084 -3.0072 0.9539
-11.4011 -0.5084 -3.0072 0.9539
-9.5461 -6.2447 -3.0058 0.9539
-8.9510 -7.0685 -3.0053 0.9539
-8.2849 -7.8358 -3.0048 0.9539
-7.5532 -8.5405 -3.0043 0.9539
-5.9168 -9.7404 -3.0030 0.9540
-2.1434 -11.1820 -3.0001 0.9540
-1.1394 -11.3254 -2.9993 0.9540
0.8863 -11.3421 -2.9978 0.9540
2.8817 -10.9995 -2.9962 0.9541
3.8484 -10.6967 -2.9954 0.9541
4.7840 -10.3092 -2.9947 0.9541
5.6812 -9.8402 -2.9940 0.9541
7.3328 -8.6732 -2.9927 0.9541
8.0741 -7.9846 -2.9921 0.9541
8.7511 -7.2330 -2.9916 0.9541
9.8919 -5.5651 -2.9907 0.9541
10.3467 -4.6620 -2.9903 0.9541
10.7195 -3.7222 -2.9900 0.9541
11.2082 -1.7624 -2.9896 0.9542
11.3202 -0.7578 -2.9895 0.9542
11.3426 0.2528 -2.9895 0.9542
10.5433 4.1962 -2.9901 0.9541
9.6142 4.8583 -2.8384 0.9564
7.9925 7.2288 -2.8397 0.9564
7.3187 7.9130 -2.8402 0.9564
5.8022 9.0889 -2.8413 0.9564
2.2676 10.5525 -2.8441 0.9563
1.3197 10.7152 -2.8448 0.9563
0.3609 10.7930 -2.8455 0.9563
-3.4320 10.2509 -2.8485 0.9563
-4.0579 7.4046 -2.2249 0.9657
-6.0226 8.9863 -2.8505 0.9562
-8.1876 7.0802 -2.8522 0.9562
-8.7868 6.3244 -2.8527 0.9562
-9.3162 5.5180 -2.8531 0.9562
-10.0252 4.7886 -2.9275 0.9551
-11.0057 3.0148 -3.0068 0.9539
-11.2310 2.0234 -3.0070 0.9539
-11.3670 1.0158 -3.0071 0.9539
-10.6862 -0.0000 -3.0066 0.9566
-10.5165 -1.8946 -3.0065 0.9566
-10.3056 -2.8230 -3.0064 0.9566
-9.6402 -4.6047 -3.0059 0.9566
-9.1910 -5.4438 -3.0055 0.9566
-6.7091 -8.3039 -3.0036 0.9566
-5.9422 -8.8663 -3.0030 0.9566
-5.1284 -9.3581 -3.0024 0.9566
-3.3864 -10.1145 -3.0011 0.9566
-2.4721 -10.3733 -3.0003 0.9567
-1.5386 -10.5497 -2.9996 0.9567
0.3561 -10.6501 -2.9982 0.9567
1.3023 -10.5736 -2.9974 0.9567
7.8876 -7.1339 -2.9923 0.9568
9.0248 -5.6207 -2.9914 0.9568
9.4881 -4.7946 -2.9910 0.9568
10.4987 1.6509 -2.9902 0.9568
9.6914 4.3668 -2.9908 0.9568
8.7944 4.9476 -2.8391 0.9589
8.3202 5.7115 -2.8394 0.9589
7.1779 7.0984 -2.8403 0.9589
6.5188 7.7104 -2.8408 0.9589
5.8077 8.2616 -2.8413 0.9589
5.0504 8.7476 -2.8419 0.9589
4.2527 9.1643 -2.8425 0.9589
3.4209 9.5086 -2.8432 0.9589
2.5616 9.7776 -2.8438 0.9589
-1.0127 10.0667 -2.8466 0.9588
-2.7829 9.7323 -2.8480 0.9588
-3.6389 9.4482 -2.8487 0.9588
-4.4664 9.0889 -2.8493 0.9588
-4.2554 7.0054 -2.3062 0.9665
-6.0097 8.1564 -2.8505 0.9588
-6.7131 7.5906 -2.8511 0.9588
-7.9553 6.2822 -2.8520 0.9588
-8.4841 5.5501 -2.8525 0.9587
-9.8359 4.1708 -3.0059 0.9566
-10.1690 3.2791 -3.0062 0.9566
-10.5905 1.4243 -3.0065 0.9566
-10.6755 -0.4760 -3.0066 0.9566
-10.4214 -2.3612 -3.0064 0.9566
-10.1692 -3.2792 -3.0063 0.9566
-9.4250 -5.0293 -3.0057 0.9566
-8.9388 -5.8475 -3.0053 0.9566
-7.7581 -7.3375 -3.0044 0.9566
-7.0730 -7.9975 -3.0039 0.9566
-6.3319 -8.5937 -3.0033 0.9566
-5.5407 -9.1213 -3.0027 0.9566
-4.7059 -9.5762 -3.0021 0.9566
1.7718 -10.5038 -2.9971 0.9567
2.6990 -10.3019 -2.9963 0.9567
4.4807 -9.6557 -2.9949 0.9567
6.8682 -8.1237 -2.9931 0.9568
8.1969 -6.7749 -2.9920 0.9568
8.7661 -6.0176 -2.9916 0.9568
10.0410 -3.4866 -2.9906 0.9568
10.3107 -2.5789 -2.9904 0.9568
10.4988 -1.6508 -2.9902 0.9568
10.4149 2.1170 -2.9902 0.9568
10.1857 3.0357 -2.9904 0.9568
9.8759 3.9305 -2.9906 0.9568
9.3456 4.7225 -2.9460 0.9574
6.1694 7.9939 -2.8411 0.9589
5.4345 8.5130 -2.8416 0.9589
0.3380 10.1081 -2.8456 0.9588
-1.4603 10.0128 -2.8470 0.9588
-2.3463 9.8454 -2.8476 0.9588
-4.0336 7.3604 -2.3615 0.9657
-5.6398 8.4152 -2.8502 0.9588
-6.3677 7.8814 -2.8508 0.9588
-7.6669 6.6299 -2.8518 0.9588
-10.3054 2.8230 -3.0063 0.9566
-10.5163 1.8946 -3.0065 0.9566
-10.6436 0.9511 -3.0066 0.9566
-10.0012 -0.8937 -3.0061 0.9589
-9.4084 -3.5037 -3.0057 0.9589
-9.0584 -4.3268 -3.0054 0.9590
-8.1458 -5.8630 -3.0047 0.9590
-6.9752 -7.2123 -3.0038 0.9590
-6.3045 -7.8031 -3.0033 0.9590
-5.5839 -8.3318 -3.0027 0.9590
-3.1823 -9.5051 -3.0009 0.9590
-2.3232 -9.7484 -3.0002 0.9590
-0.5577 -10.0013 -2.9989 0.9590
1.2239 -9.9372 -2.9975 0.9591
3.8032 -9.2546 -2.9955 0.9591
5.3816 -8.4301 -2.9942 0.9591
7.4136 -6.7052 -2.9926 0.9591
8.4827 -5.2830 -2.9918 0.9591
8.9182 -4.5065 -2.9914 0.9591
9.2830 -3.6946 -2.9912 0.9591
9.7896 -1.9898 -2.9907 0.9591
9.9275 -1.1105 -2.9906 0.9591
9.9669 0.6672 -2.9906 0.9591
9.8682 1.5517 -2.9907 0.9591
9.6914 2.4240 -2.9908 0.9591
9.1094 4.1045 -2.9912 0.9591
8.4174 4.7356 -2.8914 0.9605
6.7465 6.6718 -2.8406 0.9612
4.7467 8.2216 -2.8422 0.9611
3.2152 8.9367 -2.8433 0.9611
1.5804 9.3693 -2.8446 0.9611
-0.1059 9.5055 -2.8459 0.9611
-0.9517 9.4605 -2.8466 0.9611
-1.7904 9.3404 -2.8472 0.9611
-3.4196 8.8789 -2.8485 0.9611
-4.1972 8.5411 -2.8491 0.9610
-5.6473 7.6646 -2.8502 0.9610
-6.3083 7.1329 -2.8508 0.9610
-6.9192 6.5442 -2.8512 0.9610
-7.9723 5.2152 -2.8521 0.9610
-8.8559 4.7257 -3.0052 0.9590
-9.2423 3.9191 -3.0055 0.9589
-9.5553 3.0812 -3.0057 0.9589
-9.7922 2.2186 -3.0059 0.9589
-10.0311 0.4473 -3.0061 0.9589
-9.7924 -2.2187 -3.0059 0.9589
-9.2426 -3.9192 -3.0055 0.9589
-8.8562 -4.7258 -3.0052 0.9590
-8.3995 -5.4946 -3.0049 0.9590
-7.8760 -6.2196 -3.0045 0.9590
-7.2901 -6.8949 -3.0041 0.9590
-5.9501 -8.0755 -3.0030 0.9590
0.7801 -9.9830 -2.9978 0.9591
3.3875 -9.4158 -2.9958 0.9591
4.2112 -9.0750 -2.9951 0.9591
5.7512 -8.1812 -2.9939 0.9591
7.1082 -7.0294 -2.9929 0.9591
7.7044 -6.3678 -2.9924 0.9591
8.2394 -5.6560 -2.9920 0.9591
8.7090 -4.8996 -2.9916 0.9591
9.1096 -4.1046 -2.9913 0.9591
9.9867 0.2226 -2.9906 0.9591
9.9274 1.1106 -2.9906 0.9591
9.7895 1.9898 -2.9907 0.9591
9.5740 2.8534 -2.9909 0.9591
9.2828 3.6945 -2.9911 0.9591
8.9179 4.5064 -2.9914 0.9591
8.0512 5.0143 -2.8396 0.9612
7.5739 5.7118 -2.8400 0.9612
5.7986 7.5134 -2.8414 0.9611
5.1078 8.0012 -2.8419 0.9611
4.3762 8.4257 -2.8424 0.9611
2.8142 9.0720 -2.8437 0.9611
1.9960 9.2886 -2.8443 0.9611
1.1616 9.4315 -2.8449 0.9611
0.3176 9.4996 -2.8456 0.9611
-0.5293 9.4924 -2.8462 0.9611
-2.2049 9.2524 -2.8475 0.9611
-3.0204 9.0214 -2.8482 0.9611
-3.8122 8.7187 -2.8488 0.9610
-4.0152 7.3268 -2.5013 0.9657
-7.2045 6.2299 -2.8515 0.9610
-7.7315 5.5648 -2.8519 0.9610
-8.1972 4.8552 -2.8522 0.9610
-9.0581 4.3267 -3.0053 0.9590
-9.4082 3.5037 -3.0056 0.9589
-9.6834 2.6526 -3.0058 0.9589
-9.4265 -0.8423 -3.0056 0.9611
-9.3139 -1.6780 -3.0056 0.9611
-9.1272 -2.5002 -3.0054 0.9611
-8.1403 -4.8215 -3.0047 0.9611
-7.6780 -5.5263 -3.0043 0.9611
-7.1547 -6.1869 -3.0039 0.9611
-5.9425 -7.3552 -3.0030 0.9611
-5.2634 -7.8535 -3.0025 0.9611
-2.9998 -8.9598 -3.0007 0.9611
-2.1899 -9.1893 -3.0001 0.9611
-1.3630 -9.3458 -2.9995 0.9611
-0.5257 -9.4280 -2.9988 0.9611
0.3155 -9.4353 -2.9982 0.9612
2.7952 -9.0109 -2.9962 0.9612
4.3468 -8.3692 -2.9950 0.9612
5.0735 -7.9475 -2.9945 0.9612
5.7597 -7.4631 -2.9939 0.9612
6.9894 -6.3216 -2.9930 0.9612
7.5233 -5.6736 -2.9925 0.9612
8.4081 -4.2488 -2.9918 0.9612
9.2298 -1.8760 -2.9912 0.9612
9.3598 -1.0471 -2.9911 0.9612
9.4157 -0.2098 -2.9910 0.9612
9.3970 0.6291 -2.9910 0.9612
9.3039 1.4630 -2.9911 0.9612
9.1372 2.2854 -2.9912 0.9612
8.8980 3.0897 -2.9914 0.9612
8.5884 3.8697 -2.9916 0.9612
8.2106 4.6192 -2.9919 0.9612
6.8941 5.6981 -2.8405 0.9632
6.3605 6.2900 -2.8409 0.9632
5.7763 6.8323 -2.8414 0.9631
5.1462 7.3205 -2.8419 0.9631
4.4750 7.7510 -2.8424 0.9631
3.7681 8.1200 -2.8429 0.9631
3.0310 8.4248 -2.8435 0.9631
-0.0998 8.9606 -2.8459 0.9631
-0.8972 8.9181 -2.8465 0.9631
-3.2234 8.3695 -2.8483 0.9631
-4.2328 6.9682 -2.5893 0.9664
-5.3232 7.2246 -2.8500 0.9630
-6.5219 6.1684 -2.8509 0.9630
-9.0063 2.9042 -3.0053 0.9611
-9.2296 2.0912 -3.0055 0.9611
-9.3795 1.2614 -3.0056 0.9611
-9.4548 -0.4216 -3.0057 0.9611
-8.3475 -4.4543 -3.0048 0.9611
-7.9170 -5.1791 -3.0045 0.9611
-7.4237 -5.8624 -3.0041 0.9611
-6.8715 -6.4990 -3.0037 0.9611
-6.2648 -7.0837 -3.0033 0.9611
-5.6085 -7.6119 -3.0028 0.9611
-4.9079 -8.0794 -3.0022 0.9611
-4.1685 -8.4826 -3.0016 0.9611
-3.3963 -8.8182 -3.0010 0.9611
-0.9453 -9.3962 -2.9992 0.9611
-0.1052 -9.4410 -2.9985 0.9611
0.7354 -9.4108 -2.9978 0.9612
3.9701 -8.5553 -2.9953 0.9612
5.4220 -7.7129 -2.9942 0.9612
6.7014 -6.6271 -2.9932 0.9612
7.7681 -5.3325 -2.9924 0.9612
8.8982 -3.0898 -2.9915 0.9612
9.1373 -2.2854 -2.9913 0.9612
9.3040 -1.4630 -2.9911 0.9612
9.3971 -0.6290 -2.9910 0.9612
9.4157 0.2098 -2.9910 0.9612
9.0265 2.6902 -2.9913 0.9612
8.7519 3.4832 -2.9915 0.9612
8.4078 4.2487 -2.9918 0.9612
7.6238 4.7479 -2.8522 0.9630
6.6339 6.0000 -2.8407 0.9632
6.0745 6.5677 -2.8411 0.9632
5.4667 7.0834 -2.8416 0.9631
4.8154 7.5432 -2.8421 0.9631
1.8816 8.7564 -2.8444 0.9631
-0.4989 8.9482 -2.8462 0.9631
-1.2937 8.8702 -2.8468 0.9631
-3.5934 8.2184 -2.8486 0.9631
-3.9967 7.2931 -2.6412 0.9657
-5.6402 6.9810 -2.8502 0.9630
-7.2874 5.2452 -2.8515 0.9630
-8.0592 4.7735 -2.9748 0.9615
-8.5378 4.0781 -3.0049 0.9611
-8.8677 3.3023 -3.0052 0.9611
-9.1270 2.5002 -3.0054 0.9611
-9.3138 1.6780 -3.0055 0.9611
-9.4265 0.8424 -3.0056 0.9611
-8.9447 0.0000 -3.0053 0.9630
-8.8027 -1.5859 -3.0052 0.9630
-8.0695 -3.8545 -3.0046 0.9630
-6.7622 -5.8475 -3.0036 0.9630
-6.2140 -6.4253 -3.0032 0.9630
-5.6166 -6.9518 -3.0028 0.9630
-4.9748 -7.4229 -3.0023 0.9630
-4.2936 -7.8348 -3.0017 0.9630
-3.5786 -8.1844 -3.0012 0.9630
-2.8354 -8.4688 -3.0006 0.9630
-1.2884 -8.8338 -2.9994 0.9630
-0.4969 -8.9116 -2.9988 0.9630
0.2982 -8.9187 -2.9982 0.9630
1.8740 -8.7209 -2.9970 0.9631
2.6423 -8.5178 -2.9964 0.9631
3.3892 -8.2472 -2.9958 0.9631
4.1090 -7.9114 -2.9952 0.9631
4.7960 -7.5129 -2.9947 0.9631
5.4448 -7.0550 -2.9942 0.9631
6.0501 -6.5413 -2.9937 0.9631
6.6074 -5.9760 -2.9933 0.9631
7.1121 -5.3635 -2.9929 0.9631
7.5603 -4.7086 -2.9925 0.9631
8.2738 -3.2929 -2.9919 0.9631
8.8485 -0.9898 -2.9915 0.9631
8.8836 0.5947 -2.9914 0.9631
8.7956 1.3831 -2.9915 0.9631
8.6380 2.1605 -2.9916 0.9631
8.4119 2.9209 -2.9918 0.9631
8.1191 3.6583 -2.9920 0.9631
6.5173 5.3867 -2.8408 0.9650
6.0128 5.9462 -2.8412 0.9649
5.4605 6.4587 -2.8416 0.9649
4.8648 6.9202 -2.8421 0.9649
2.8652 7.9639 -2.8436 0.9649
-1.5953 8.3224 -2.8471 0.9649
-5.0313 6.8285 -2.8498 0.9648
-6.1642 5.8301 -2.8507 0.9648
-7.3052 4.7788 -2.9329 0.9638
-7.8892 4.2098 -3.0044 0.9630
-8.5120 2.7448 -3.0049 0.9630
-8.9358 0.3985 -3.0053 0.9630
-8.2335 -3.4913 -3.0048 0.9630
-7.8894 -4.2099 -3.0045 0.9630
-7.4826 -4.8949 -3.0042 0.9630
-7.0165 -5.5408 -3.0038 0.9630
-6.4946 -6.1425 -3.0034 0.9630
-1.6808 -8.7686 -2.9997 0.9630
1.4838 -8.7966 -2.9973 0.9631
2.2604 -8.6279 -2.9967 0.9631
4.4570 -7.7197 -2.9949 0.9631
5.1255 -7.2911 -2.9944 0.9631
6.3350 -6.2648 -2.9935 0.9631
7.3435 -5.0410 -2.9927 0.9631
7.7622 -4.3669 -2.9923 0.9631
8.7254 1.7735 -2.9915 0.9631
8.5334 2.5432 -2.9917 0.9631
7.9484 4.0165 -2.9921 0.9631
7.5601 4.7085 -2.9924 0.9631
6.7503 5.0907 -2.8406 0.9650
5.7424 6.2086 -2.8414 0.9649
3.2168 7.8276 -2.8434 0.9649
1.7787 8.2772 -2.8445 0.9649
1.0351 8.4044 -2.8450 0.9649
-1.2228 8.3843 -2.8468 0.9649
-1.9646 8.2439 -2.8474 0.9649
-2.6911 8.0380 -2.8479 0.9649
-3.3965 7.7680 -2.8485 0.9649
-5.3309 6.5982 -2.8500 0.9648
-5.8979 6.0985 -2.8504 0.9648
-8.0693 3.8544 -3.0045 0.9630
-8.3810 3.1212 -3.0048 0.9630
-8.9091 0.7961 -3.0052 0.9630
-8.4744 0.0000 -3.0049 0.9647
-8.3399 -1.5025 -3.0048 0.9647
-8.1727 -2.2387 -3.0047 0.9647
-7.9406 -2.9571 -3.0045 0.9647
-7.2892 -4.3174 -3.0040 0.9647
-3.3906 -7.7546 -3.0010 0.9647
-2.6865 -8.0242 -3.0005 0.9647
-1.2208 -8.3702 -2.9994 0.9647
-0.4708 -8.4440 -2.9988 0.9647
2.5037 -8.0712 -2.9965 0.9648
4.5447 -7.1191 -2.9949 0.9648
5.1595 -6.6853 -2.9944 0.9648
7.5324 -3.8063 -2.9925 0.9648
7.8406 -3.1205 -2.9923 0.9648
8.0867 -2.4101 -2.9921 0.9648
8.4353 -0.1879 -2.9918 0.9648
7.3555 4.1381 -2.9926 0.9648
6.1759 5.1046 -2.8411 0.9666
5.6978 5.6347 -2.8414 0.9666
5.1744 6.1204 -2.8418 0.9666
4.6098 6.5576 -2.8423 0.9666
4.0085 6.9430 -2.8427 0.9665
3.3752 7.2735 -2.8432 0.9665
-0.8035 7.9873 -2.8465 0.9665
-1.5115 7.8856 -2.8470 0.9665
-2.2078 7.7212 -2.8476 0.9665
-4.1715 6.8673 -2.8491 0.9665
-4.7670 6.4698 -2.8496 0.9665
-5.8403 5.5237 -2.8504 0.9665
-7.0891 4.6375 -3.0038 0.9647
-7.4745 3.9885 -3.0041 0.9647
-7.8005 3.3077 -3.0043 0.9647
-8.0645 2.6005 -3.0046 0.9647
-8.4660 -0.3775 -3.0049 0.9647
-8.3986 -1.1295 -3.0049 0.9647
-8.2645 -1.8725 -3.0048 0.9647
-7.8007 -3.3078 -3.0044 0.9647
-7.0893 -4.6376 -3.0039 0.9647
-6.1533 -5.8197 -3.0032 0.9647
-5.0225 -6.8165 -3.0023 0.9647
-1.5926 -8.3083 -2.9996 0.9647
-0.0942 -8.4557 -2.9985 0.9647
0.6586 -8.4289 -2.9979 0.9648
1.4060 -8.3352 -2.9973 0.9648
2.1419 -8.1754 -2.9967 0.9648
2.8605 -7.9509 -2.9962 0.9648
4.8569 -6.9091 -2.9946 0.9648
5.4517 -6.4484 -2.9942 0.9648
6.0032 -5.9367 -2.9937 0.9648
6.9589 -4.7770 -2.9930 0.9648
7.3557 -4.1382 -2.9927 0.9648
8.1858 -2.0474 -2.9920 0.9648
8.3352 -1.3106 -2.9919 0.9648
8.4186 -0.5636 -2.9918 0.9648
8.3852 0.9380 -2.9918 0.9648
8.0866 2.4101 -2.9920 0.9648
7.8405 3.1204 -2.9922 0.9648
7.1642 4.4619 -2.9927 0.9648
6.3968 4.8241 -2.8409 0.9666
4.3135 6.7570 -2.8425 0.9666
3.6956 7.1153 -2.8430 0.9665
2.3763 7.6605 -2.8440 0.9665
1.6854 7.8431 -2.8445 0.9665
-0.4469 8.0144 -2.8462 0.9665
-1.1586 7.9443 -2.8467 0.9665
-1.8615 7.8112 -2.8473 0.9665
-3.2181 7.3601 -2.8484 0.9665
-3.8611 7.0457 -2.8489 0.9665
-5.0508 6.2515 -2.8498 0.9665
-5.5880 5.7780 -2.8502 0.9665
-6.0810 5.2584 -2.8506 0.9665
-7.2890 4.3173 -3.0039 0.9647
-7.6451 3.6518 -3.0042 0.9647
-8.4407 0.7542 -3.0049 0.9647
-8.0143 -0.7161 -3.0046 0.9662
-7.7599 -2.1256 -3.0044 0.9662
-7.2591 -3.4674 -3.0040 0.9662
-6.9211 -4.0994 -3.0037 0.9662
-6.5281 -4.6987 -3.0034 0.9662
-4.4756 -6.6780 -3.0019 0.9663
-3.2196 -7.3633 -3.0009 0.9663
-1.8624 -7.8148 -2.9998 0.9663
-1.1592 -7.9481 -2.9993 0.9663
1.6862 -7.8471 -2.9971 0.9663
3.0498 -7.4212 -2.9960 0.9663
4.3158 -6.7606 -2.9950 0.9663
5.9461 -5.3779 -2.9938 0.9663
6.4004 -4.8267 -2.9934 0.9664
7.1533 -3.6147 -2.9928 0.9664
7.4461 -2.9635 -2.9926 0.9664
7.6798 -2.2888 -2.9924 0.9664
8.0109 -0.1785 -2.9921 0.9664
7.9950 0.5352 -2.9921 0.9664
7.9158 1.2447 -2.9922 0.9664
7.3068 3.2923 -2.9926 0.9664
6.6084 4.5365 -2.9932 0.9664
4.9139 5.8122 -2.8421 0.9680
4.3777 6.2274 -2.8425 0.9680
3.8067 6.5934 -2.8429 0.9680
2.5782 7.1662 -2.8439 0.9680
1.9305 7.3685 -2.8444 0.9680
1.2672 7.5125 -2.8449 0.9680
0.5936 7.5969 -2.8454 0.9680
-0.0849 7.6210 -2.8459 0.9680
-1.4353 7.4879 -2.8470 0.9680
-2.0965 7.3318 -2.8475 0.9680
-3.3643 6.8463 -2.8485 0.9680
-3.9610 6.5207 -2.8489 0.9679
-4.5264 6.1432 -2.8494 0.9679
-5.5454 5.2448 -2.8502 0.9679
-6.0582 4.7841 -2.8825 0.9676
-6.7311 4.4033 -3.0035 0.9662
-7.6572 2.4691 -3.0042 0.9662
-7.8469 1.7779 -3.0044 0.9662
-7.9743 1.0724 -3.0045 0.9662
-8.0383 0.3585 -3.0046 0.9662
-8.0383 -0.3584 -3.0046 0.9662
-7.9744 -1.0724 -3.0045 0.9662
-7.8470 -1.7779 -3.0044 0.9662
-7.4067 -3.1407 -3.0041 0.9662
-4.7690 -6.4725 -3.0021 0.9663
-4.1733 -6.8702 -3.0016 0.9663
-3.5447 -7.2132 -3.0011 0.9663
-2.8881 -7.4988 -3.0006 0.9663
-2.2088 -7.7247 -3.0001 0.9663
-1.5123 -7.8893 -2.9996 0.9663
-0.0895 -8.0295 -2.9985 0.9663
0.6254 -8.0041 -2.9979 0.9663
2.0340 -7.7635 -2.9968 0.9663
2.7164 -7.5503 -2.9963 0.9663
4.0107 -6.9467 -2.9953 0.9663
4.6124 -6.5612 -2.9948 0.9663
5.1773 -6.1237 -2.9944 0.9663
6.9855 -3.9300 -2.9929 0.9664
7.3070 -3.2924 -2.9927 0.9664
7.5705 -2.6287 -2.9925 0.9664
7.7740 -1.9444 -2.9923 0.9664
7.9159 -1.2447 -2.9922 0.9664
7.9951 -0.5352 -2.9921 0.9664
7.9633 0.8909 -2.9921 0.9664
7.6797 2.2888 -2.9923 0.9664
7.4460 2.9634 -2.9925 0.9664
7.1532 3.6146 -2.9927 0.9664
6.8037 4.2374 -2.9930 0.9664
6.2777 4.7343 -2.9360 0.9670
5.6436 5.1044 -2.8415 0.9680
5.1676 5.5871 -2.8419 0.9680
4.6505 6.0258 -2.8423 0.9680
4.0963 6.4167 -2.8427 0.9680
3.5095 6.7570 -2.8431 0.9680
2.8946 7.0437 -2.8436 0.9680
1.6005 7.4479 -2.8446 0.9680
0.9314 7.5622 -2.8451 0.9680
0.2546 7.6165 -2.8457 0.9680
-1.1002 7.5437 -2.8467 0.9680
-3.0558 6.9887 -2.8482 0.9680
-3.6663 6.6902 -2.8487 0.9680
-4.2479 6.3383 -2.8492 0.9679
-4.7959 5.9360 -2.8496 0.9679
-5.7739 4.9929 -2.8504 0.9679
-6.9209 4.0993 -3.0037 0.9662
-7.7598 2.1256 -3.0043 0.9662
-7.9185 1.4266 -3.0045 0.9662
-8.0143 0.7162 -3.0045 0.9662
-7.3823 -2.0222 -3.0041 0.9676
-6.5844 -3.8999 -3.0035 0.9677
-5.3184 -5.4992 -3.0025 0.9677
-4.8072 -5.9499 -3.0021 0.9677
-4.2580 -6.3533 -3.0017 0.9677
-3.6750 -6.7061 -3.0012 0.9677
-2.4270 -7.2491 -3.0003 0.9677
-1.1029 -7.5619 -2.9993 0.9677
-0.4254 -7.6288 -2.9987 0.9677
0.2553 -7.6350 -2.9982 0.9677
2.2622 -7.2925 -2.9966 0.9677
2.9018 -7.0611 -2.9961 0.9677
5.1805 -5.6011 -2.9944 0.9677
5.6577 -5.1171 -2.9940 0.9678
6.4740 -4.0320 -2.9933 0.9678
6.8066 -3.4395 -2.9931 0.9678
7.4721 -1.5188 -2.9925 0.9678
7.6227 -0.1698 -2.9924 0.9678
7.6075 0.5093 -2.9924 0.9678
7.2034 2.5013 -2.9927 0.9678
5.7338 4.7391 -2.9195 0.9685
4.6756 5.5303 -2.8422 0.9694
1.2057 7.1478 -2.8449 0.9693
-0.0808 7.2509 -2.8459 0.9693
-1.3656 7.1241 -2.8469 0.9693
-1.9946 6.9755 -2.8474 0.9693
-2.6080 6.7714 -2.8479 0.9693
-3.7684 6.2037 -2.8488 0.9693
-4.8101 5.4388 -2.8496 0.9693
-6.0048 4.7419 -3.0029 0.9677
-6.4037 4.1891 -3.0033 0.9677
-6.7517 3.6029 -3.0035 0.9677
-7.4651 1.6914 -3.0041 0.9676
-7.6471 -0.3410 -3.0043 0.9676
-7.5863 -1.0203 -3.0042 0.9676
-7.4652 -1.6914 -3.0041 0.9676
-7.2847 -2.3490 -3.0040 0.9676
-6.0050 -4.7421 -3.0030 0.9677
-5.5584 -5.2571 -3.0027 0.9677
-5.0678 -5.7303 -3.0023 0.9677
-4.5371 -6.1578 -3.0019 0.9677
-3.9704 -6.5362 -3.0015 0.9677
-3.3724 -6.8626 -3.0010 0.9677
-2.7478 -7.1344 -3.0005 0.9677
-0.7649 -7.6029 -2.9990 0.9677
1.9352 -7.3867 -2.9969 0.9677
2.5846 -7.1839 -2.9964 0.9677
3.2132 -6.9242 -2.9959 0.9677
3.8161 -6.6097 -2.9954 0.9677
4.9262 -5.8267 -2.9946 0.9677
5.4245 -5.3644 -2.9942 0.9677
5.8797 -4.8597 -2.9938 0.9678
6.6469 -3.7395 -2.9932 0.9678
6.9528 -3.1327 -2.9930 0.9678
7.2035 -2.5013 -2.9928 0.9678
7.3972 -1.8502 -2.9926 0.9678
7.6076 -0.5093 -2.9924 0.9678
7.5773 0.8477 -2.9924 0.9678
7.4720 1.5187 -2.9925 0.9678
7.3075 2.1779 -2.9926 0.9678
6.4738 4.0319 -2.9933 0.9678
6.0899 4.5926 -2.9936 0.9678
3.8976 6.1054 -2.8428 0.9694
3.3392 6.4291 -2.8433 0.9693
-0.4037 7.2407 -2.8462 0.9693
-1.0468 7.1773 -2.8467 0.9693
-2.3035 6.8804 -2.8476 0.9693
-2.9073 6.6491 -2.8481 0.9693
-4.0414 6.0302 -2.8490 0.9693
-4.5627 5.6473 -2.8494 0.9693
-5.5330 4.7846 -2.8708 0.9691
-6.2104 4.4700 -3.0031 0.9677
-6.5843 3.8999 -3.0034 0.9677
-6.9058 3.2986 -3.0037 0.9676
-7.1725 2.6711 -3.0039 0.9676
-7.5332 1.3572 -3.0042 0.9676
-7.6243 0.6813 -3.0042 0.9676
-6.5816 -3.1437 -3.0035 0.9689
-5.9189 -4.2601 -3.0030 0.9689
-5.5157 -4.7696 -3.0027 0.9689
-5.0687 -5.2410 -3.0023 0.9690
-4.5815 -5.6706 -3.0019 0.9690
-3.5025 -6.3913 -3.0011 0.9690
-2.9193 -6.6767 -3.0007 0.9690
-2.3131 -6.9089 -3.0002 0.9690
-0.4054 -7.2710 -2.9987 0.9690
3.3533 -6.4563 -2.9958 0.9690
3.9141 -6.1313 -2.9953 0.9690
4.4436 -5.7578 -2.9949 0.9690
5.8049 -4.3777 -2.9939 0.9690
6.1709 -3.8432 -2.9936 0.9690
7.1223 -1.4477 -2.9928 0.9690
7.2227 -0.8080 -2.9927 0.9690
7.1796 1.1290 -2.9927 0.9690
7.0508 1.7635 -2.9928 0.9690
5.9937 4.1145 -2.9936 0.9690
5.6042 4.6320 -2.9939 0.9690
4.9075 4.8531 -2.8421 0.9706
4.4566 5.2713 -2.8424 0.9706
3.9703 5.6478 -2.8428 0.9706
3.4523 5.9796 -2.8432 0.9706
2.9068 6.2640 -2.8436 0.9706
2.3381 6.4989 -2.8440 0.9706
1.7507 6.6823 -2.8445 0.9706
1.1492 6.8127 -2.8450 0.9706
-0.0770 6.9108 -2.8459 0.9705
-2.4856 6.4537 -2.8478 0.9705
-3.0506 6.2078 -2.8482 0.9705
-4.1041 5.5702 -2.8491 0.9705
-4.5842 5.1835 -2.8494 0.9705
-5.7228 4.5193 -3.0027 0.9689
-6.1029 3.9924 -3.0030 0.9689
-6.4346 3.4336 -3.0033 0.9689
-6.7152 2.8475 -3.0035 0.9689
-6.9424 2.2386 -3.0037 0.9689
-7.1144 1.6119 -3.0038 0.9689
-7.2299 -0.9723 -3.0039 0.9689
-7.1145 -1.6119 -3.0039 0.9689
-6.4347 -3.4337 -3.0034 0.9689
-5.2974 -5.0102 -3.0025 0.9690
-3.2141 -6.5405 -3.0009 0.9690
-2.0029 -7.0046 -2.9999 0.9690
0.5672 -7.2583 -2.9980 0.9690
1.2108 -7.1779 -2.9975 0.9690
3.6373 -6.3000 -2.9956 0.9690
4.1830 -5.9504 -2.9951 0.9690
5.1705 -5.1131 -2.9944 0.9690
5.6044 -4.6321 -2.9940 0.9690
5.9938 -4.1145 -2.9937 0.9690
6.3357 -3.5644 -2.9934 0.9690
6.6273 -2.9861 -2.9932 0.9690
7.1796 -1.1289 -2.9928 0.9690
7.2227 0.8080 -2.9927 0.9690
7.1223 1.4477 -2.9928 0.9690
6.1707 3.8432 -2.9935 0.9690
5.2432 4.7422 -2.9111 0.9699
4.6867 5.0672 -2.8422 0.9706
4.2176 5.4650 -2.8426 0.9706
3.7150 5.8195 -2.8430 0.9706
2.6251 6.3878 -2.8438 0.9706
2.0465 6.5971 -2.8443 0.9706
0.2309 6.9068 -2.8457 0.9705
-0.9977 6.8406 -2.8466 0.9705
-1.6028 6.7258 -2.8471 0.9705
-2.7708 6.3371 -2.8480 0.9705
-3.3244 6.0662 -2.8484 0.9705
-3.8517 5.7471 -2.8489 0.9705
-4.3485 5.3822 -2.8492 0.9705
-4.8109 4.9744 -2.8496 0.9705
-5.5058 4.7611 -2.9973 0.9690
-5.9187 4.2601 -3.0029 0.9689
-6.2750 3.7167 -3.0032 0.9689
-6.8356 2.5456 -3.0036 0.9689
-7.0354 1.9272 -3.0038 0.9689
-7.1793 1.2934 -3.0039 0.9689
-7.2661 0.6493 -3.0040 0.9689
-6.9358 -0.6198 -3.0037 0.9701
-6.7156 -1.8396 -3.0036 0.9701
-6.2824 -3.0008 -3.0032 0.9701
-5.6499 -4.0665 -3.0028 0.9701
-3.8737 -5.7800 -3.0014 0.9701
-2.7867 -6.3734 -3.0006 0.9702
-2.2081 -6.5952 -3.0001 0.9702
-1.6121 -6.7645 -2.9996 0.9702
0.2323 -6.9467 -2.9982 0.9702
0.8495 -6.8974 -2.9977 0.9702
1.4598 -6.7933 -2.9973 0.9702
4.2422 -5.4968 -2.9951 0.9702
4.7140 -5.0967 -2.9947 0.9702
5.8912 -3.6691 -2.9938 0.9702
6.4475 -2.5660 -2.9933 0.9702
6.6499 -1.9819 -2.9932 0.9702
6.7997 -1.3821 -2.9931 0.9702
6.8955 -0.7713 -2.9930 0.9702
6.9229 0.4634 -2.9929 0.9702
6.8543 1.0778 -2.9930 0.9702
6.3269 2.8507 -2.9934 0.9702
5.7221 3.9280 -2.9938 0.9702
4.7970 4.7438 -2.9101 0.9710
3.2958 5.7085 -2.8433 0.9717
2.7750 5.9800 -2.8437 0.9717
1.6713 6.3791 -2.8446 0.9717
1.0970 6.5036 -2.8450 0.9717
0.5139 6.5765 -2.8455 0.9717
-0.0735 6.5972 -2.8459 0.9717
-0.6605 6.5655 -2.8464 0.9717
-1.2424 6.4817 -2.8468 0.9717
-1.8147 6.3464 -2.8473 0.9717
-2.3727 6.1606 -2.8477 0.9717
-3.9177 5.3171 -2.8489 0.9716
-5.4627 4.3139 -3.0025 0.9701
-5.8255 3.8109 -3.0028 0.9701
-6.4099 2.7181 -3.0033 0.9701
-6.7910 1.5387 -3.0036 0.9701
-6.9012 0.9281 -3.0037 0.9701
-6.9565 -0.3102 -3.0037 0.9701
-6.7910 -1.5386 -3.0036 0.9701
-6.4100 -2.7180 -3.0033 0.9701
-6.1422 -3.2776 -3.0031 0.9701
-5.8257 -3.8110 -3.0029 0.9701
-4.1276 -5.6020 -3.0016 0.9701
-3.6121 -5.9464 -3.0012 0.9701
-3.0681 -6.2434 -3.0008 0.9701
-1.3090 -6.8291 -2.9994 0.9702
-0.6959 -6.9174 -2.9989 0.9702
-0.0774 -6.9508 -2.9985 0.9702
1.7608 -6.7210 -2.9970 0.9702
2.9237 -6.3004 -2.9961 0.9702
3.9934 -5.6806 -2.9953 0.9702
4.9361 -4.8814 -2.9945 0.9702
5.3504 -4.4222 -2.9942 0.9702
5.7222 -3.9281 -2.9939 0.9702
6.3270 -2.8508 -2.9934 0.9702
6.7315 -1.6836 -2.9931 0.9702
6.8544 -1.0778 -2.9930 0.9702
6.8955 0.7714 -2.9930 0.9702
6.7996 1.3821 -2.9930 0.9702
6.6498 1.9819 -2.9931 0.9702
6.4474 2.5660 -2.9933 0.9702
6.1938 3.1299 -2.9935 0.9702
5.5417 4.1792 -2.9940 0.9702
5.1482 4.6563 -2.9943 0.9702
4.0264 5.2172 -2.8427 0.9717
3.0384 5.8500 -2.8435 0.9717
1.9536 6.2979 -2.8443 0.9717
-0.3673 6.5879 -2.8461 0.9717
-0.9524 6.5301 -2.8466 0.9717
-2.0958 6.2597 -2.8475 0.9717
-3.6767 5.4860 -2.8487 0.9716
-4.1509 5.1377 -2.8491 0.9716
-4.6247 4.7819 -2.8695 0.9714
-5.9898 3.5478 -3.0029 0.9701
-6.5248 2.4299 -3.0034 0.9701
-6.9357 0.6198 -3.0037 0.9701
-6.6300 -0.5924 -3.0035 0.9712
-6.4196 -1.7585 -3.0033 0.9712
-6.2373 -2.3228 -3.0032 0.9712
-6.0054 -2.8685 -3.0030 0.9712
-5.7259 -3.3914 -3.0028 0.9712
-5.4009 -3.8873 -3.0026 0.9712
-3.7031 -5.5253 -3.0013 0.9712
-2.6640 -6.0927 -3.0005 0.9712
-2.1108 -6.3047 -3.0000 0.9712
-1.5411 -6.4666 -2.9996 0.9712
1.3956 -6.4945 -2.9973 0.9713
3.0605 -5.8924 -2.9960 0.9713
4.0557 -5.2551 -2.9952 0.9713
4.9220 -4.4517 -2.9946 0.9713
5.2982 -3.9956 -2.9943 0.9713
5.6323 -3.5078 -2.9940 0.9713
5.9217 -2.9924 -2.9938 0.9713
6.1642 -2.4533 -2.9936 0.9713
6.5009 -1.3214 -2.9933 0.9713
6.6319 -0.1478 -2.9932 0.9713
6.6188 0.4431 -2.9932 0.9713
6.5532 1.0304 -2.9932 0.9713
5.1151 4.2277 -2.9943 0.9713
4.7190 4.6667 -2.9946 0.9713
3.1508 5.4575 -2.8434 0.9727
2.6530 5.7170 -2.8438 0.9727
2.1339 5.9313 -2.8442 0.9727
1.0488 6.2175 -2.8451 0.9727
-1.7348 6.0670 -2.8472 0.9727
-2.2682 5.8893 -2.8476 0.9727
-3.7451 5.0829 -2.8488 0.9727
-5.2220 4.1237 -3.0023 0.9712
-5.8714 3.1331 -3.0029 0.9712
-6.3346 2.0427 -3.0032 0.9712
-6.4916 1.4708 -3.0033 0.9712
-6.5969 0.8872 -3.0034 0.9712
-6.6498 0.2965 -3.0035 0.9712
-6.5970 -0.8872 -3.0035 0.9712
-6.4916 -1.4708 -3.0034 0.9712
-5.8715 -3.1331 -3.0029 0.9712
-5.5689 -3.6430 -3.0027 0.9712
-4.4073 -4.9833 -3.0018 0.9712
-2.9330 -5.9684 -3.0007 0.9712
-1.2514 -6.5284 -2.9994 0.9713
-0.0740 -6.6448 -2.9984 0.9713
0.5176 -6.6240 -2.9980 0.9713
1.1050 -6.5506 -2.9975 0.9713
2.2482 -6.2491 -2.9966 0.9713
2.7951 -6.0234 -2.9962 0.9713
3.8178 -5.4309 -2.9954 0.9713
4.2855 -5.0689 -2.9951 0.9713
5.1152 -4.2278 -2.9944 0.9713
5.7828 -3.2533 -2.9939 0.9713
6.6188 -0.4431 -2.9932 0.9713
6.5008 1.3214 -2.9933 0.9713
6.1641 2.4532 -2.9935 0.9713
5.9216 2.9924 -2.9937 0.9713
5.6322 3.5078 -2.9939 0.9713
5.2981 3.9955 -2.9942 0.9713
4.3879 4.7441 -2.9159 0.9720
3.3906 5.3113 -2.8432 0.9727
2.3958 5.8299 -2.8440 0.9727
1.8677 6.0208 -2.8444 0.9727
1.3246 6.1641 -2.8448 0.9727
0.7708 6.2585 -2.8453 0.9727
-0.3512 6.2979 -2.8461 0.9727
-0.9105 6.2426 -2.8466 0.9727
-1.4627 6.1377 -2.8470 0.9727
-2.0035 5.9840 -2.8474 0.9727
-3.0336 5.5356 -2.8482 0.9727
-3.5147 5.2443 -2.8486 0.9727
-5.0328 4.3521 -3.0022 0.9712
-6.0053 2.8685 -3.0030 0.9712
-6.5508 1.1802 -3.0034 0.9712
-6.3713 0.0000 -3.0033 0.9722
-6.2702 -1.1296 -3.0032 0.9722
-5.9701 -2.2233 -3.0030 0.9722
-5.7482 -2.7457 -3.0028 0.9722
-5.1696 -3.7208 -3.0024 0.9722
-4.8174 -4.1658 -3.0021 0.9722
-4.0017 -4.9529 -3.0015 0.9722
-3.5445 -5.2888 -3.0011 0.9722
-3.0594 -5.5826 -3.0008 0.9722
-1.4752 -6.1900 -2.9995 0.9723
-0.9182 -6.2958 -2.9991 0.9723
0.2125 -6.3570 -2.9982 0.9723
1.3359 -6.2168 -2.9974 0.9723
2.4163 -5.8798 -2.9965 0.9723
2.9297 -5.6406 -2.9961 0.9723
3.4197 -5.3568 -2.9957 0.9723
3.8824 -5.0305 -2.9954 0.9723
4.7118 -4.2616 -2.9947 0.9723
5.3918 -3.3580 -2.9942 0.9723
5.6688 -2.8646 -2.9940 0.9723
5.9009 -2.3485 -2.9938 0.9723
6.0863 -1.8139 -2.9936 0.9723
6.2233 -1.2650 -2.9935 0.9723
6.3110 -0.7060 -2.9934 0.9723
6.2734 0.9865 -2.9934 0.9723
5.2369 3.5950 -2.9942 0.9723
4.8966 4.0471 -2.9945 0.9723
3.4688 4.9344 -2.8432 0.9737
3.0162 5.2242 -2.8435 0.9737
2.0427 5.6777 -2.8443 0.9737
1.0039 5.9516 -2.8451 0.9737
-0.0673 6.0371 -2.8459 0.9737
-0.6044 6.0080 -2.8463 0.9737
-1.1369 5.9313 -2.8467 0.9736
-2.6646 5.4224 -2.8479 0.9736
-3.1371 5.1644 -2.8483 0.9736
-3.5847 4.8653 -2.8487 0.9736
-4.2075 4.7575 -2.9938 0.9723
-4.9983 3.9472 -3.0022 0.9722
-5.3303 3.4869 -3.0024 0.9722
-5.8649 2.4869 -3.0029 0.9722
-6.3143 0.8492 -3.0032 0.9722
-6.3649 0.2838 -3.0033 0.9722
-6.3649 -0.2838 -3.0033 0.9722
-6.3144 -0.8492 -3.0032 0.9722
-6.0634 -1.9552 -3.0031 0.9722
-5.8650 -2.4870 -3.0029 0.9722
-4.2186 -4.7700 -3.0016 0.9722
-3.3052 -5.4411 -3.0009 0.9722
-2.8074 -5.7130 -3.0006 0.9722
-1.7496 -6.1186 -2.9997 0.9723
-0.6368 -6.3300 -2.9989 0.9723
0.4955 -6.3408 -2.9980 0.9723
1.0577 -6.2706 -2.9976 0.9723
1.6114 -6.1507 -2.9971 0.9723
3.1778 -5.5042 -2.9959 0.9723
3.6547 -5.1988 -2.9955 0.9723
4.1024 -4.8523 -2.9952 0.9723
4.8967 -4.0472 -2.9946 0.9723
5.2370 -3.5950 -2.9943 0.9723
5.7906 -2.6091 -2.9939 0.9723
6.1609 -1.5410 -2.9936 0.9723
6.2734 -0.9864 -2.9935 0.9723
6.3362 -0.4241 -2.9934 0.9723
6.3488 0.1415 -2.9934 0.9723
5.0718 3.8248 -2.9944 0.9723
4.7117 4.2614 -2.9946 0.9723
4.3141 4.6644 -2.9949 0.9723
2.7807 5.3537 -2.8437 0.9737
1.7879 5.7635 -2.8445 0.9737
1.2680 5.9006 -2.8449 0.9737
0.7378 5.9909 -2.8453 0.9737
0.2017 6.0337 -2.8457 0.9737
-0.3361 6.0285 -2.8461 0.9737
-0.8715 5.9756 -2.8465 0.9736
-1.4001 5.8751 -2.8470 0.9736
-1.9177 5.7280 -2.8474 0.9736
-2.4203 5.5354 -2.8477 0.9736
-2.9037 5.2987 -2.8481 0.9736
-4.8173 4.1657 -3.0020 0.9722
-5.1694 3.7207 -3.0023 0.9722
-5.4805 3.2461 -3.0025 0.9722
-6.1056 0.0000 -3.0031 0.9732
-6.0813 -0.5434 -3.0031 0.9732
-6.0087 -1.0825 -3.0030 0.9732
-5.8884 -1.6130 -3.0029 0.9732
-5.7212 -2.1306 -3.0028 0.9732
-5.5086 -2.6312 -3.0026 0.9732
-5.2522 -3.1109 -3.0024 0.9732
-4.9541 -3.5657 -3.0022 0.9732
-3.8349 -4.7465 -3.0013 0.9732
-2.4438 -5.5890 -3.0003 0.9732
-1.4137 -5.9322 -2.9995 0.9732
-0.8800 -6.0336 -2.9991 0.9732
0.7450 -6.0492 -2.9978 0.9732
1.8053 -5.8196 -2.9970 0.9732
2.3158 -5.6351 -2.9966 0.9732
2.8078 -5.4059 -2.9962 0.9732
3.7209 -4.8213 -2.9955 0.9732
4.1348 -4.4705 -2.9952 0.9732
4.8610 -3.6659 -2.9946 0.9732
5.1676 -3.2184 -2.9943 0.9732
5.4332 -2.7455 -2.9941 0.9732
5.6556 -2.2509 -2.9940 0.9732
5.9646 -1.2124 -2.9937 0.9732
6.0849 -0.1356 -2.9936 0.9732
6.0728 0.4065 -2.9936 0.9732
6.0126 0.9454 -2.9937 0.9732
5.9047 1.4769 -2.9937 0.9732
5.7501 1.9966 -2.9938 0.9732
5.5498 2.5006 -2.9940 0.9732
5.3055 2.9849 -2.9942 0.9732
5.0192 3.4455 -2.9944 0.9732
4.6930 3.8789 -2.9946 0.9732
4.3295 4.2816 -2.9949 0.9732
3.9317 4.6504 -2.9952 0.9732
2.8907 5.0069 -2.8436 0.9746
2.4339 5.2449 -2.8440 0.9746
1.9577 5.4415 -2.8444 0.9746
1.4658 5.5949 -2.8447 0.9745
0.4507 5.7677 -2.8455 0.9745
-0.0645 5.7857 -2.8459 0.9745
-0.5792 5.7579 -2.8463 0.9745
-1.5914 5.5655 -2.8471 0.9745
-2.5536 5.1965 -2.8479 0.9745
-3.0064 4.9492 -2.8482 0.9745
-3.5146 4.7700 -2.9142 0.9739
-4.4339 4.1936 -3.0017 0.9732
-5.3856 2.8738 -3.0025 0.9732
-5.6204 2.3833 -3.0027 0.9732
-5.8105 1.8736 -3.0028 0.9732
-6.0510 0.8138 -3.0030 0.9732
-6.0510 -0.8138 -3.0030 0.9732
-5.9545 -1.3491 -3.0030 0.9732
-5.3857 -2.8739 -3.0025 0.9732
-5.1082 -3.3416 -3.0023 0.9732
-4.4340 -4.1937 -3.0018 0.9732
-4.0427 -4.5712 -3.0015 0.9732
-3.6194 -4.9123 -3.0012 0.9732
-3.1675 -5.2144 -3.0008 0.9732
-2.6905 -5.4749 -3.0005 0.9732
-2.1922 -5.6920 -3.0001 0.9732
-1.1480 -5.9888 -2.9993 0.9732
-0.0679 -6.0958 -2.9984 0.9732
0.4748 -6.0768 -2.9980 0.9732
1.0137 -6.0096 -2.9976 0.9732
1.5443 -5.8947 -2.9972 0.9732
2.5643 -5.5260 -2.9964 0.9732
3.9318 -4.6505 -2.9953 0.9732
4.6931 -3.8789 -2.9947 0.9732
5.5499 -2.5006 -2.9940 0.9732
5.7501 -1.9967 -2.9939 0.9732
5.9048 -1.4769 -2.9938 0.9732
6.0126 -0.9454 -2.9937 0.9732
6.0728 -0.4065 -2.9936 0.9732
6.0848 0.1356 -2.9936 0.9732
5.9646 1.2124 -2.9937 0.9732
5.8332 1.7385 -2.9938 0.9732
5.1675 3.2183 -2.9943 0.9732
4.1347 4.4704 -2.9951 0.9732
3.1107 4.8729 -2.8435 0.9746
0.7071 5.7415 -2.8453 0.9745
0.1933 5.7825 -2.8457 0.9745
-0.8352 5.7267 -2.8465 0.9745
-1.8379 5.4894 -2.8473 0.9745
-2.7828 5.0779 -2.8480 0.9745
-4.2425 4.3867 -3.0016 0.9732
-4.9539 3.5657 -3.0021 0.9732
-5.5085 2.6312 -3.0026 0.9732
-5.7211 2.1306 -3.0027 0.9732
-5.8883 1.6130 -3.0029 0.9732
-6.0087 1.0825 -3.0030 0.9732
-5.8340 -0.5213 -3.0029 0.9740
-5.7644 -1.0385 -3.0028 0.9740
-5.6489 -1.5474 -3.0027 0.9740
-5.4886 -2.0439 -3.0026 0.9740
-5.0386 -2.9844 -3.0023 0.9740
-4.7527 -3.4207 -3.0020 0.9740
-3.2588 -4.8624 -3.0009 0.9740
-2.8128 -5.1326 -3.0006 0.9740
-2.3445 -5.3619 -3.0002 0.9740
-1.8577 -5.5486 -2.9998 0.9740
-1.3563 -5.6912 -2.9994 0.9740
-0.3256 -5.8400 -2.9986 0.9741
0.1954 -5.8450 -2.9982 0.9741
0.7148 -5.8036 -2.9978 0.9741
1.2283 -5.7162 -2.9974 0.9741
2.2218 -5.4065 -2.9967 0.9741
3.9671 -4.2892 -2.9953 0.9741
4.3327 -3.9187 -2.9950 0.9741
4.6639 -3.5172 -2.9947 0.9741
5.2129 -2.6342 -2.9943 0.9741
5.4263 -2.1596 -2.9941 0.9741
5.5967 -1.6680 -2.9940 0.9741
5.7228 -1.1632 -2.9939 0.9741
5.8035 -0.6492 -2.9938 0.9741
5.8382 -0.1301 -2.9938 0.9741
5.7688 0.9071 -2.9938 0.9741
5.5169 1.9157 -2.9940 0.9741
5.3248 2.3992 -2.9942 0.9741
5.0904 2.8638 -2.9943 0.9741
4.5027 3.7216 -2.9948 0.9741
4.1539 4.1079 -2.9951 0.9741
2.7734 4.8038 -2.8437 0.9754
0.9231 5.4724 -2.8452 0.9754
0.4324 5.5336 -2.8455 0.9754
-0.0618 5.5509 -2.8459 0.9754
-0.5557 5.5240 -2.8463 0.9754
-1.0453 5.4534 -2.8467 0.9753
-1.9962 5.1830 -2.8474 0.9753
-2.4499 4.9854 -2.8478 0.9753
-3.8783 4.3853 -3.0013 0.9740
-4.5953 3.6289 -3.0019 0.9740
-4.9004 3.2057 -3.0021 0.9740
-5.1666 2.7570 -3.0023 0.9740
-5.5742 1.7975 -3.0026 0.9740
-5.8050 0.7807 -3.0028 0.9740
-5.8515 0.2610 -3.0029 0.9740
-5.1667 -2.7570 -3.0024 0.9740
-4.9005 -3.2057 -3.0022 0.9740
-3.8784 -4.3854 -3.0014 0.9740
-3.4724 -4.7127 -3.0011 0.9740
-3.0388 -5.0025 -3.0007 0.9740
-2.5812 -5.2525 -3.0004 0.9740
-2.1032 -5.4607 -3.0000 0.9740
-1.6086 -5.6255 -2.9996 0.9740
-1.1013 -5.7456 -2.9992 0.9740
-0.5855 -5.8201 -2.9988 0.9740
0.4556 -5.8301 -2.9980 0.9741
1.9789 -5.5004 -2.9968 0.9741
5.3249 -2.3992 -2.9942 0.9741
5.6654 -1.4170 -2.9939 0.9741
5.7689 -0.9071 -2.9939 0.9741
5.8035 0.6492 -2.9938 0.9741
5.7227 1.1632 -2.9939 0.9741
5.5967 1.6680 -2.9940 0.9741
5.2128 2.6341 -2.9943 0.9741
4.6638 3.5171 -2.9947 0.9741
3.9670 4.2891 -2.9952 0.9741
3.5699 4.6256 -2.9955 0.9741
2.5586 4.9262 -2.8459 0.9754
2.1088 5.1315 -2.8442 0.9754
-1.7632 5.2665 -2.8472 0.9753
-2.6697 4.8716 -2.8479 0.9753
-3.1929 4.7642 -2.9402 0.9745
-3.6789 4.5535 -3.0011 0.9740
-4.0700 4.2084 -3.0014 0.9740
-4.4289 3.8298 -3.0017 0.9740
-4.7526 3.4207 -3.0020 0.9740
-5.2845 2.5242 -3.0024 0.9740
-5.6489 1.5474 -3.0027 0.9740
-5.7644 1.0385 -3.0028 0.9740
-5.5354 -0.9972 -3.0026 0.9748
-5.2706 -1.9628 -3.0024 0.9748
-4.5639 -3.2849 -3.0019 0.9748
-4.2531 -3.6778 -3.0017 0.9748
-3.9085 -4.0414 -3.0014 0.9748
-3.5330 -4.3728 -3.0011 0.9748
-2.7011 -4.9289 -3.0005 0.9748
-1.7840 -5.3285 -2.9998 0.9748
-0.3127 -5.6083 -2.9986 0.9749
0.1877 -5.6132 -2.9982 0.9749
0.6864 -5.5735 -2.9978 0.9749
1.1796 -5.4896 -2.9975 0.9749
3.0198 -4.7304 -2.9960 0.9749
3.4285 -4.4424 -2.9957 0.9749
3.8099 -4.1192 -2.9954 0.9749
5.2114 -2.0741 -2.9943 0.9749
5.3751 -1.6019 -2.9942 0.9749
5.4961 -1.1171 -2.9941 0.9749
5.5736 -0.6235 -2.9940 0.9749
5.5958 0.3746 -2.9940 0.9749
5.5403 0.8712 -2.9940 0.9749
5.2984 1.8398 -2.9942 0.9749
5.1139 2.3042 -2.9943 0.9749
4.8888 2.7504 -2.9945 0.9749
4.3243 3.5741 -2.9949 0.9749
3.9893 3.9452 -2.9952 0.9749
3.2273 4.5909 -2.9958 0.9749
2.7410 4.7475 -2.9265 0.9754
2.2426 4.8327 -2.8441 0.9761
1.8038 5.0137 -2.8445 0.9761
-0.0594 5.3307 -2.8459 0.9761
-0.5337 5.3049 -2.8463 0.9761
-2.8899 4.7574 -2.9715 0.9751
-3.3344 4.5255 -3.0009 0.9748
-3.7244 4.2112 -3.0012 0.9748
-4.4128 3.4848 -3.0017 0.9748
-4.7058 3.0784 -3.0019 0.9748
-4.9615 2.6475 -3.0021 0.9748
-5.1777 2.1955 -3.0023 0.9748
-5.3528 1.7261 -3.0025 0.9748
-5.5744 0.7497 -3.0026 0.9748
-5.6191 0.2506 -3.0027 0.9748
-5.5744 -0.7497 -3.0027 0.9748
-5.4855 -1.2428 -3.0026 0.9748
-5.3529 -1.7261 -3.0025 0.9748
-4.9616 -2.6475 -3.0022 0.9748
-4.0849 -3.8634 -3.0015 0.9748
-3.7245 -4.2113 -3.0013 0.9748
-3.3345 -4.5256 -3.0010 0.9748
-2.0197 -5.2440 -2.9999 0.9748
-1.5448 -5.4023 -2.9996 0.9748
-0.5623 -5.5892 -2.9988 0.9749
0.4375 -5.5989 -2.9980 0.9749
3.2274 -4.5910 -2.9959 0.9749
3.6228 -4.2851 -2.9956 0.9749
4.6250 -3.1748 -2.9948 0.9749
5.2985 -1.8398 -2.9942 0.9749
5.6069 0.1249 -2.9940 0.9749
5.4961 1.1172 -2.9940 0.9749
5.3750 1.6019 -2.9941 0.9749
5.2113 2.0741 -2.9943 0.9749
5.0063 2.5298 -2.9944 0.9749
4.1609 3.7634 -2.9951 0.9749
3.8098 4.1192 -2.9953 0.9749
3.4284 4.4423 -2.9956 0.9749
3.0197 4.7304 -2.9959 0.9749
1.1196 5.2104 -2.8450 0.9761
0.6515 5.2900 -2.8454 0.9761
0.1781 5.3277 -2.8457 0.9761
-0.2968 5.3231 -2.8461 0.9761
-0.7695 5.2762 -2.8465 0.9761
-1.6932 5.0575 -2.8472 0.9761
-2.6136 4.7691 -2.9032 0.9756
-3.1293 4.6693 -3.0007 0.9748
-3.9084 4.0413 -3.0013 0.9748
-4.5638 3.2849 -3.0018 0.9748
-4.8384 2.8658 -3.0021 0.9748
-5.2705 1.9628 -3.0024 0.9748
-5.4245 1.4860 -3.0025 0.9748
-5.3846 -0.4812 -3.0025 0.9756
-5.3203 -0.9585 -3.0025 0.9756
-5.2138 -1.4282 -3.0024 0.9756
-4.3866 -3.1573 -3.0018 0.9756
-4.0879 -3.5349 -3.0015 0.9756
-3.3958 -4.2030 -3.0010 0.9756
-3.0079 -4.4881 -3.0007 0.9756
-2.1640 -4.9492 -3.0001 0.9756
-1.7147 -5.1216 -2.9997 0.9756
-1.2519 -5.2533 -2.9993 0.9756
-0.3006 -5.3907 -2.9986 0.9756
2.4868 -4.7879 -2.9964 0.9756
2.9027 -4.5470 -2.9961 0.9756
3.6622 -3.9596 -2.9955 0.9756
3.9997 -3.6176 -2.9953 0.9756
5.0094 -1.9937 -2.9945 0.9756
5.2831 -1.0738 -2.9942 0.9756
5.3576 -0.5993 -2.9942 0.9756
5.3790 0.3601 -2.9941 0.9756
5.3256 0.8374 -2.9942 0.9756
5.2301 1.3081 -2.9943 0.9756
5.0931 1.7685 -2.9944 0.9756
4.6993 2.6438 -2.9947 0.9756
4.4456 3.0518 -2.9948 0.9756
4.1567 3.4356 -2.9951 0.9756
3.4823 4.1188 -2.9956 0.9756
3.1021 4.4129 -2.9959 0.9756
2.6973 4.6719 -2.9962 0.9756
1.2981 4.9550 -2.8449 0.9768
0.8521 5.0515 -2.8452 0.9768
0.3991 5.1079 -2.8456 0.9768
-0.5130 5.0990 -2.8463 0.9768
-0.9649 5.0338 -2.8466 0.9768
-2.3393 4.7604 -2.9459 0.9760
-3.2049 4.3497 -3.0008 0.9756
-4.2414 3.3494 -3.0016 0.9756
-4.7687 2.5446 -3.0020 0.9756
-5.1448 1.6590 -3.0023 0.9756
-5.2723 1.1946 -3.0024 0.9756
-5.3578 0.7206 -3.0025 0.9756
-5.4007 -0.2408 -3.0025 0.9756
-5.1449 -1.6590 -3.0023 0.9756
-4.7688 -2.5447 -3.0021 0.9756
-4.5231 -2.9588 -3.0019 0.9756
-3.5798 -4.0477 -3.0011 0.9756
-2.8048 -4.6174 -3.0005 0.9756
-2.3825 -4.8482 -3.0002 0.9756
-1.9413 -5.0404 -2.9999 0.9756
-0.5405 -5.3723 -2.9988 0.9756
0.8977 -5.3222 -2.9977 0.9756
1.8267 -5.0775 -2.9970 0.9756
3.1022 -4.4130 -2.9960 0.9756
4.1567 -3.4356 -2.9951 0.9756
4.6994 -2.6438 -2.9947 0.9756
4.9158 -2.2149 -2.9945 0.9756
5.2301 -1.3081 -2.9943 0.9756
5.3257 -0.8374 -2.9942 0.9756
5.3576 0.5994 -2.9942 0.9756
5.1667 1.5398 -2.9943 0.9756
5.0093 1.9937 -2.9944 0.9756
3.9996 3.6175 -2.9952 0.9756
3.2955 4.2701 -2.9957 0.9756
2.9026 4.5469 -2.9960 0.9756
1.9571 4.7624 -2.8597 0.9767
1.0762 5.0083 -2.8450 0.9768
-0.2853 5.1165 -2.8461 0.9768
-0.7396 5.0715 -2.8464 0.9768
-2.0855 4.7697 -2.8912 0.9765
-3.3957 4.2029 -3.0009 0.9756
-4.3865 3.1573 -3.0017 0.9756
-4.6505 2.7545 -3.0019 0.9756
-4.8775 2.3298 -3.0021 0.9756
-5.0657 1.8865 -3.0022 0.9756
-5.3203 0.9585 -3.0024 0.9756
-5.3846 0.4812 -3.0025 0.9756
-5.1796 -0.4628 -3.0024 0.9763
-5.0153 -1.3738 -3.0022 0.9763
-4.8729 -1.8146 -3.0021 0.9763
-4.2196 -3.0371 -3.0016 0.9763
-3.9323 -3.4004 -3.0014 0.9763
-3.6137 -3.7365 -3.0012 0.9763
-2.8934 -4.3173 -3.0006 0.9763
-2.4974 -4.5572 -3.0003 0.9763
-1.6495 -4.9268 -2.9997 0.9763
-1.2043 -5.0534 -2.9993 0.9763
-0.2892 -5.1857 -2.9986 0.9763
0.6347 -5.1535 -2.9979 0.9763
1.0908 -5.0760 -2.9975 0.9763
1.9730 -4.8011 -2.9968 0.9763
2.3923 -4.6059 -2.9965 0.9763
3.1704 -4.1079 -2.9959 0.9763
3.8478 -3.4801 -2.9954 0.9763
4.1420 -3.1236 -2.9951 0.9763
5.0825 -1.0330 -2.9944 0.9763
5.1542 -0.5766 -2.9943 0.9763
5.1850 -0.1155 -2.9943 0.9763
4.7290 2.1308 -2.9946 0.9763
4.5208 2.5434 -2.9948 0.9763
4.2768 2.9358 -2.9950 0.9763
3.9988 3.3051 -2.9952 0.9763
2.9843 4.2452 -2.9960 0.9763
1.7099 4.7527 -2.9162 0.9769
0.8197 4.8595 -2.8452 0.9775
0.3840 4.9137 -2.8456 0.9775
-0.0550 4.9336 -2.8486 0.9775
-1.8329 4.7590 -2.9443 0.9767
-2.2917 4.6636 -3.0001 0.9763
-3.4435 3.8936 -3.0010 0.9763
-3.7767 3.5720 -3.0012 0.9763
-4.5871 2.4478 -3.0019 0.9763
-4.7871 2.0299 -3.0020 0.9763
-4.9489 1.5958 -3.0022 0.9763
-5.1538 0.6931 -3.0023 0.9763
-5.1951 0.2317 -3.0024 0.9763
-5.1538 -0.6931 -3.0023 0.9763
-4.9490 -1.5958 -3.0022 0.9763
-4.3509 -2.8462 -3.0017 0.9763
-4.0800 -3.2220 -3.0015 0.9763
-2.6981 -4.4417 -3.0005 0.9763
-2.2918 -4.6637 -3.0002 0.9763
-1.8674 -4.8487 -2.9998 0.9763
-0.9779 -5.1018 -2.9991 0.9763
0.8636 -5.1198 -2.9977 0.9763
1.3157 -5.0221 -2.9974 0.9763
2.1848 -4.7081 -2.9967 0.9763
2.5949 -4.4945 -2.9964 0.9763
3.3500 -3.9624 -2.9958 0.9763
3.6891 -3.6482 -2.9955 0.9763
3.9988 -3.3051 -2.9953 0.9763
