ply
format ascii 1.0
element vertex 1585
property float32 x
property float32 y
property float32 z
property float32 I
end_header
4.9826 13.8493 -2.8483 0.9418
2.4472 14.5080 -2.8472 0.9418
-0.1638 14.7065 -2.8462 0.9418
-2.7677 14.4391 -2.8451 0.9419
-5.2821 13.7146 -2.8441 0.9419
-7.6275 12.5565 -2.8431 0.9419
-10.6691 10.0908 -2.8418 0.9419
-12.2864 8.0374 -2.8412 0.9419
-12.9518 6.9113 -2.8409 0.9419
4.1303 -5.8754 -1.3898 0.9712
7.9231 12.4113 -2.8495 0.9418
6.7858 13.0650 -2.8490 0.9418
4.3603 14.0563 -2.8480 0.9418
0.4915 14.7006 -2.8464 0.9418
-0.8187 14.6832 -2.8459 0.9418
-3.4079 14.3001 -2.8448 0.9419
-5.8872 13.4645 -2.8438 0.9419
-8.1786 12.2033 -2.8429 0.9419
-10.2097 10.5568 -2.8420 0.9419
-11.1074 9.6049 -2.8417 0.9419
-11.9168 8.5772 -2.8413 0.9419
-13.2462 6.3272 -2.8408 0.9419
-14.1399 -1.2635 -2.9928 0.9436
-13.9716 -2.5171 -2.9929 0.9436
-13.6927 -3.7508 -2.9930 0.9436
-12.2177 -7.2365 -2.9936 0.9436
-11.5262 -8.2961 -2.9939 0.9436
-10.7432 -9.2901 -2.9942 0.9436
-8.9281 -11.0504 -2.9950 0.9436
-7.9102 -11.8029 -2.9954 0.9436
-6.8293 -12.4619 -2.9959 0.9436
-5.6939 -13.0223 -2.9963 0.9436
-4.5130 -13.4796 -2.9968 0.9435
-3.2959 -13.8301 -2.9973 0.9435
-2.0522 -14.0709 -2.9978 0.9435
-0.7918 -14.2002 -2.9983 0.9435
6.5620 -12.6340 -3.0013 0.9435
9.6708 -10.4559 -3.0026 0.9434
11.3741 -8.5776 -3.0033 0.9434
12.0936 -7.5320 -3.0036 0.9434
13.2395 -5.2692 -3.0041 0.9434
14.1629 -1.5844 -3.0044 0.9434
14.2195 0.9519 -3.0045 0.9434
13.8247 3.4578 -3.0043 0.9434
12.3309 5.5560 -2.8513 0.9462
9.6128 9.5063 -2.8502 0.9462
8.7274 10.3229 -2.8498 0.9462
7.7729 11.0571 -2.8494 0.9462
5.6876 12.2564 -2.8486 0.9463
4.5734 12.7120 -2.8481 0.9463
2.2463 13.3170 -2.8471 0.9463
1.0519 13.4618 -2.8467 0.9463
-0.1504 13.4996 -2.8462 0.9463
-2.5407 13.2545 -2.8452 0.9463
-3.7097 12.9736 -2.8447 0.9463
-7.0021 11.5271 -2.8434 0.9464
-7.9991 10.8565 -2.8429 0.9464
-9.7948 9.2638 -2.8422 0.9464
-11.2797 7.3788 -2.8416 0.9464
-11.8906 6.3450 -2.8414 0.9464
-12.4073 5.2611 -2.8411 0.9464
-13.8458 3.1370 -2.9930 0.9436
-14.0697 1.8922 -2.9929 0.9436
-14.1820 0.6324 -2.9928 0.9436
-14.0697 -1.8922 -2.9929 0.9436
-13.5123 -4.3572 -2.9931 0.9436
-13.0717 -5.5429 -2.9933 0.9436
-11.8837 -7.7740 -2.9938 0.9436
-11.1458 -8.8018 -2.9941 0.9436
-10.3193 -9.7600 -2.9944 0.9436
-8.4275 -11.4379 -2.9952 0.9436
-6.2679 -12.7547 -2.9961 0.9436
-5.1086 -13.2641 -2.9966 0.9436
1.1083 -14.1827 -2.9991 0.9435
2.3666 -14.0302 -2.9996 0.9435
4.8183 -13.3928 -3.0006 0.9435
5.9922 -12.9128 -3.0011 0.9435
7.1188 -12.3301 -3.0016 0.9435
10.1276 -10.0154 -3.0028 0.9434
10.9801 -9.0753 -3.0032 0.9434
11.7455 -8.0628 -3.0035 0.9434
12.9912 -5.8535 -3.0040 0.9434
13.4615 -4.6743 -3.0042 0.9434
13.8247 -3.4578 -3.0043 0.9434
14.2195 -0.9519 -3.0045 0.9434
14.2479 0.3175 -3.0045 0.9434
13.9653 2.8385 -3.0044 0.9434
13.6566 4.0701 -3.0042 0.9434
12.5665 5.0013 -2.8514 0.9462
10.0273 9.0692 -2.8503 0.9462
9.1792 9.9245 -2.8500 0.9462
7.2721 11.3916 -2.8492 0.9463
4.0023 12.9020 -2.8479 0.9463
2.8375 13.2048 -2.8474 0.9463
0.4512 13.4941 -2.8464 0.9463
-0.7515 13.4783 -2.8459 0.9463
-3.1283 13.1270 -2.8449 0.9463
-4.2836 12.7944 -2.8445 0.9463
-5.4045 12.3604 -2.8440 0.9463
-6.4821 11.8284 -2.8436 0.9464
-8.4742 10.4887 -2.8427 0.9464
-9.3729 9.6916 -2.8424 0.9464
-10.1971 8.8178 -2.8420 0.9464
-10.9403 7.8744 -2.8417 0.9464
-12.8689 4.7924 -2.8950 0.9454
-13.1143 0.0000 -2.9933 0.9476
-12.6492 -3.4650 -2.9935 0.9476
-11.2864 -6.6850 -2.9940 0.9476
-10.6476 -7.6637 -2.9943 0.9476
-7.3069 -10.9028 -2.9957 0.9476
-5.2596 -12.0289 -2.9965 0.9476
-3.0444 -12.7748 -2.9974 0.9475
-0.7314 -13.1163 -2.9984 0.9475
0.4390 -13.1314 -2.9988 0.9475
2.7612 -12.8496 -2.9998 0.9475
3.8945 -12.5548 -3.0003 0.9475
6.0606 -11.6688 -3.0011 0.9475
4.3217 -6.7698 -1.8332 0.9676
4.6919 -6.0795 -1.7528 0.9690
8.9316 -9.6568 -3.0023 0.9475
9.7568 -8.8245 -3.0027 0.9475
10.5046 -7.9219 -3.0030 0.9475
11.7447 -5.9349 -3.0035 0.9474
12.2271 -4.8663 -3.0037 0.9474
13.0798 -1.4632 -3.0040 0.9474
13.1583 -0.2932 -3.0040 0.9474
13.0015 2.0444 -3.0040 0.9474
12.7675 3.1934 -3.0039 0.9474
10.2962 7.0679 -2.8505 0.9501
9.6253 7.9555 -2.8502 0.9501
7.1789 10.2122 -2.8492 0.9501
6.2407 10.8092 -2.8488 0.9501
5.2531 11.3201 -2.8484 0.9501
4.2241 11.7410 -2.8480 0.9501
-1.2480 12.4053 -2.8457 0.9501
-3.4266 11.9837 -2.8448 0.9501
-4.4790 11.6294 -2.8444 0.9502
-5.4954 11.1829 -2.8440 0.9502
-6.4681 10.6479 -2.8436 0.9502
-7.3892 10.0287 -2.8432 0.9502
-8.2514 9.3300 -2.8428 0.9502
-10.4199 6.8164 -2.8420 0.9502
-11.4617 4.8602 -2.8415 0.9502
-12.4825 4.0251 -2.9935 0.9476
-12.9975 1.7480 -2.9933 0.9476
-13.1013 0.5842 -2.9933 0.9476
-12.0755 -5.1204 -2.9937 0.9476
-11.5726 -6.1753 -2.9939 0.9476
-10.2961 -8.1308 -2.9944 0.9476
-9.5326 -9.0159 -2.9947 0.9476
-7.7848 -10.5657 -2.9955 0.9476
-6.8145 -11.2182 -2.9959 0.9476
-4.7188 -12.2522 -2.9967 0.9476
-3.6102 -12.6255 -2.9972 0.9475
2.1859 -12.9588 -2.9996 0.9475
3.3311 -12.7148 -3.0000 0.9475
5.5344 -11.9264 -3.0009 0.9475
6.5749 -11.3880 -3.0013 0.9475
9.3535 -9.2498 -3.0025 0.9475
11.4682 -6.4519 -3.0033 0.9474
11.9978 -5.4060 -3.0036 0.9474
13.0015 -2.0444 -3.0040 0.9474
13.1321 -0.8791 -3.0040 0.9474
13.1583 0.2932 -3.0040 0.9474
13.0798 1.4632 -3.0040 0.9474
12.8973 2.6215 -3.0039 0.9474
8.4776 9.1659 -2.8497 0.9501
7.6272 9.8829 -2.8494 0.9501
4.7432 11.5420 -2.8482 0.9501
2.6209 12.1964 -2.8473 0.9501
-0.6942 12.4495 -2.8459 0.9501
-3.9568 11.8183 -2.8446 0.9502
-5.9877 10.9262 -2.8438 0.9502
-7.8281 9.6889 -2.8430 0.9502
-9.4198 8.1456 -2.8424 0.9502
-10.1064 7.2741 -2.8421 0.9502
-10.7128 6.3452 -2.8418 0.9502
-11.2342 5.3661 -2.8416 0.9502
-12.2911 4.5773 -2.9936 0.9476
-12.1792 0.0000 -2.9936 0.9511
-11.7472 -3.2179 -2.9938 0.9511
-11.4147 -4.2509 -2.9940 0.9511
-10.9917 -5.2503 -2.9941 0.9511
-10.4815 -6.2082 -2.9943 0.9511
-7.6588 -9.4795 -2.9955 0.9510
-6.7855 -10.1247 -2.9959 0.9510
-5.8582 -10.6899 -2.9963 0.9510
-3.8711 -11.5623 -2.9971 0.9510
-1.7602 -12.0690 -2.9979 0.9510
-0.6791 -12.1796 -2.9984 0.9510
1.4916 -12.1105 -2.9993 0.9510
2.5639 -11.9315 -2.9997 0.9510
5.6274 -10.8347 -3.0010 0.9510
6.5703 -10.2922 -3.0013 0.9509
7.4612 -9.6677 -3.0017 0.9509
8.2930 -8.9663 -3.0021 0.9509
9.7533 -7.3553 -3.0026 0.9509
12.2169 -0.2722 -3.0036 0.9509
12.0713 1.8981 -3.0036 0.9509
11.8541 2.9649 -3.0035 0.9509
8.9369 7.3865 -2.8499 0.9534
7.4841 8.8522 -2.8493 0.9534
6.6657 9.4821 -2.8490 0.9534
3.9222 10.9019 -2.8478 0.9534
2.9359 11.2061 -2.8474 0.9534
1.9265 11.4213 -2.8470 0.9534
-0.1290 11.5785 -2.8462 0.9534
-1.1589 11.5193 -2.8457 0.9534
-3.1820 11.1282 -2.8449 0.9534
-4.1592 10.7993 -2.8445 0.9535
-7.6627 8.6644 -2.8431 0.9535
-10.2010 5.4434 -2.8420 0.9535
-11.2142 4.7552 -2.9940 0.9511
-11.8786 2.6913 -2.9938 0.9511
-12.0707 1.6233 -2.9937 0.9511
-12.1671 -0.5426 -2.9936 0.9511
-12.0707 -1.6234 -2.9937 0.9511
-11.5924 -3.7381 -2.9939 0.9511
-11.2143 -4.7553 -2.9940 0.9511
-10.7472 -5.7349 -2.9942 0.9511
-10.1949 -6.6692 -2.9945 0.9511
-9.5617 -7.5508 -2.9947 0.9511
-8.0731 -9.1284 -2.9953 0.9510
-6.3282 -10.4176 -2.9961 0.9510
-5.3765 -10.9410 -2.9964 0.9510
-3.3524 -11.7241 -2.9973 0.9510
-1.2209 -12.1363 -2.9982 0.9510
2.0297 -12.0330 -2.9995 0.9510
4.1322 -11.4858 -3.0003 0.9510
5.1388 -11.0739 -3.0008 0.9510
10.0717 -6.9138 -3.0028 0.9509
11.1396 -5.0193 -3.0032 0.9509
12.0713 -1.8981 -3.0036 0.9509
12.1440 1.3585 -3.0036 0.9509
11.9746 2.4339 -3.0035 0.9509
10.3503 5.2302 -2.8505 0.9534
9.8430 6.1303 -2.8503 0.9534
6.2363 9.7690 -2.8488 0.9534
5.3414 10.2839 -2.8484 0.9534
4.4042 10.7171 -2.8480 0.9534
3.4324 11.0650 -2.8476 0.9534
1.4157 11.4950 -2.8468 0.9534
-0.6446 11.5604 -2.8460 0.9534
-1.6707 11.4555 -2.8455 0.9534
-3.6743 10.9746 -2.8447 0.9534
-4.6359 10.6025 -2.8443 0.9535
-6.4406 9.6101 -2.8436 0.9535
-8.0406 8.3139 -2.8429 0.9535
-9.9487 5.8927 -2.8422 0.9535
-11.7471 3.2179 -2.9938 0.9511
-11.1826 -2.0146 -2.9941 0.9541
-10.6490 -3.9657 -2.9943 0.9541
-10.2543 -4.8981 -2.9944 0.9541
-9.7783 -5.7918 -2.9946 0.9541
-9.2247 -6.6396 -2.9949 0.9541
-8.5979 -7.4349 -2.9951 0.9541
-7.1449 -8.8433 -2.9957 0.9541
-5.4650 -9.9723 -2.9964 0.9541
-1.6420 -11.2584 -2.9980 0.9540
1.3913 -11.2969 -2.9992 0.9540
2.3916 -11.1298 -2.9996 0.9540
4.3282 -10.5321 -3.0004 0.9540
10.1710 -5.1397 -3.0028 0.9540
11.1690 -2.2702 -3.0032 0.9539
11.3270 -1.2671 -3.0033 0.9539
11.3949 -0.2539 -3.0033 0.9539
11.3723 0.7613 -3.0033 0.9539
11.0566 2.7654 -3.0032 0.9539
9.4269 5.3035 -2.8501 0.9562
8.9168 6.1210 -2.8499 0.9562
8.3359 6.8898 -2.8496 0.9563
6.9808 8.2570 -2.8491 0.9563
6.2175 8.8446 -2.8488 0.9563
3.6586 10.1692 -2.8477 0.9563
2.7386 10.4531 -2.8473 0.9563
1.7971 10.6539 -2.8470 0.9563
0.8416 10.7701 -2.8466 0.9563
-0.1203 10.8008 -2.8462 0.9563
-1.0810 10.7457 -2.8458 0.9563
-2.0329 10.6054 -2.8454 0.9563
-3.8800 10.0742 -2.8446 0.9563
-4.7607 9.6877 -2.8443 0.9563
-5.6033 9.2244 -2.8439 0.9563
-7.1485 8.0829 -2.8433 0.9563
-7.8388 7.4138 -2.8430 0.9564
-8.4668 6.6861 -2.8428 0.9564
-9.0275 5.9055 -2.8425 0.9564
-9.5167 5.0782 -2.8423 0.9564
-10.4620 4.4362 -2.9943 0.9541
-11.0819 2.5108 -2.9941 0.9541
-11.3511 0.5062 -2.9940 0.9541
-11.3511 -0.5061 -2.9940 0.9541
-11.2611 -1.5145 -2.9940 0.9541
-11.0819 -2.5108 -2.9941 0.9541
-10.8149 -3.4874 -2.9942 0.9541
-10.4621 -4.4363 -2.9944 0.9541
-8.9202 -7.0442 -2.9950 0.9541
-8.2586 -7.8109 -2.9953 0.9541
-7.5313 -8.5158 -2.9956 0.9541
-6.7442 -9.1533 -2.9959 0.9541
-5.9034 -9.7184 -2.9962 0.9541
-5.0156 -10.2065 -2.9966 0.9540
-4.0878 -10.6137 -2.9970 0.9540
-2.1418 -11.1733 -2.9978 0.9540
0.8867 -11.3469 -2.9990 0.9540
1.8933 -11.2245 -2.9994 0.9540
2.8852 -11.0129 -2.9998 0.9540
3.8545 -10.7138 -3.0002 0.9540
4.7934 -10.3296 -3.0006 0.9540
6.5505 -9.3182 -3.0013 0.9540
8.1006 -8.0108 -3.0020 0.9540
8.7823 -7.2587 -3.0022 0.9540
9.9317 -5.5875 -3.0027 0.9540
10.3902 -4.6816 -3.0029 0.9540
10.7662 -3.7384 -3.0031 0.9540
11.0567 -2.7654 -3.0032 0.9539
11.3723 -0.7613 -3.0033 0.9539
11.3270 1.2671 -3.0033 0.9539
11.1690 2.2702 -3.0032 0.9539
9.1809 5.7179 -2.8500 0.9562
8.6349 6.5119 -2.8498 0.9562
6.6057 8.5593 -2.8489 0.9563
4.9823 9.5926 -2.8483 0.9563
2.2701 10.5640 -2.8472 0.9563
0.3610 10.7962 -2.8464 0.9563
-1.5585 10.6861 -2.8456 0.9563
-2.5031 10.5035 -2.8452 0.9563
-3.4276 10.2377 -2.8448 0.9563
-5.1872 9.4654 -2.8441 0.9563
-6.0084 8.9651 -2.8438 0.9563
-9.2813 5.4974 -2.8424 0.9564
-10.9592 3.0020 -2.9941 0.9541
-10.6001 -0.9472 -2.9943 0.9567
-9.9741 -3.7144 -2.9946 0.9567
-9.6044 -4.5876 -2.9947 0.9567
-8.6400 -6.2187 -2.9951 0.9567
-8.0528 -6.9636 -2.9953 0.9567
-5.9287 -8.8462 -2.9962 0.9567
-5.1184 -9.3399 -2.9966 0.9567
-4.2673 -9.7595 -2.9969 0.9567
-3.3821 -10.1018 -2.9973 0.9567
-1.5378 -10.5440 -2.9980 0.9567
0.3561 -10.6524 -2.9988 0.9567
1.3030 -10.5798 -2.9992 0.9567
4.0534 -9.8634 -3.0003 0.9567
4.9158 -9.4646 -3.0007 0.9567
5.7393 -8.9905 -3.0010 0.9566
6.5174 -8.4449 -3.0013 0.9566
8.5193 -6.4247 -3.0021 0.9566
9.9158 -3.9464 -3.0027 0.9566
10.6071 -1.1866 -3.0030 0.9566
10.6707 -0.2378 -3.0030 0.9566
10.6495 0.7129 -3.0030 0.9566
10.5436 1.6579 -3.0030 0.9566
10.3539 2.5897 -3.0029 0.9566
8.8278 4.9664 -2.8499 0.9588
8.3502 5.7321 -2.8497 0.9588
7.2004 7.1206 -2.8492 0.9588
6.5374 7.7325 -2.8489 0.9588
5.8226 8.2828 -2.8486 0.9588
5.0617 8.7672 -2.8483 0.9588
4.2608 9.1819 -2.8480 0.9588
2.5647 9.7894 -2.8473 0.9588
1.6830 9.9776 -2.8469 0.9588
-0.1127 10.1153 -2.8462 0.9588
-1.0124 10.0638 -2.8458 0.9588
-1.9039 9.9325 -2.8454 0.9588
-2.7800 9.7224 -2.8451 0.9589
-3.6339 9.4352 -2.8447 0.9589
-5.2480 8.6394 -2.8441 0.9589
-5.9955 8.1371 -2.8438 0.9589
-7.3418 6.9438 -2.8432 0.9589
-7.9301 6.2623 -2.8430 0.9589
-9.7989 4.1551 -2.9946 0.9567
-10.1294 3.2663 -2.9945 0.9567
-10.5475 1.4185 -2.9943 0.9567
-10.6317 -0.4741 -2.9943 0.9567
-10.5475 -1.4185 -2.9943 0.9567
-10.3796 -2.3517 -2.9944 0.9567
-9.3908 -5.0111 -2.9948 0.9567
-8.3547 -6.5977 -2.9952 0.9567
-7.7350 -7.3157 -2.9955 0.9567
-5.5291 -9.1021 -2.9964 0.9567
-4.6975 -9.5592 -2.9967 0.9567
-1.0667 -10.6028 -2.9982 0.9567
-0.1187 -10.6570 -2.9986 0.9567
1.7731 -10.5120 -2.9994 0.9567
2.7021 -10.3137 -2.9998 0.9567
3.6098 -10.0335 -3.0001 0.9567
4.4890 -9.6736 -3.0005 0.9567
5.3328 -9.2367 -3.0008 0.9566
7.5860 -7.5019 -3.0018 0.9566
8.7973 -6.0390 -3.0023 0.9566
9.3006 -5.2324 -3.0025 0.9566
10.0820 -3.5009 -3.0028 0.9566
10.5436 -1.6579 -3.0030 0.9566
10.6707 0.2378 -3.0030 0.9566
10.4592 2.1259 -3.0029 0.9566
10.2281 3.0483 -3.0028 0.9566
8.5975 5.3546 -2.8498 0.9588
8.0862 6.0981 -2.8495 0.9588
6.8757 7.4339 -2.8490 0.9588
6.1861 8.0156 -2.8488 0.9588
4.6659 8.9835 -2.8481 0.9588
2.9985 9.6661 -2.8475 0.9588
1.2368 10.0420 -2.8467 0.9588
0.3381 10.1109 -2.8464 0.9588
-2.3443 9.8372 -2.8453 0.9588
-5.6273 8.3966 -2.8439 0.9589
-6.3517 7.8616 -2.8436 0.9589
-7.6435 6.6096 -2.8431 0.9589
-8.2008 5.9026 -2.8429 0.9589
-9.9741 3.7144 -2.9945 0.9567
-10.2647 2.8118 -2.9944 0.9567
-10.6001 0.9472 -2.9943 0.9567
-10.0025 0.0000 -2.9945 0.9591
-9.9628 -0.8903 -2.9946 0.9591
-9.8442 -1.7735 -2.9946 0.9591
-9.3744 -3.4911 -2.9948 0.9591
-9.0269 -4.3118 -2.9949 0.9591
-8.6078 -5.0984 -2.9951 0.9591
-7.5685 -6.5447 -2.9955 0.9591
-5.5720 -8.3141 -2.9964 0.9591
-4.8104 -8.7779 -2.9967 0.9591
-4.0105 -9.1722 -2.9970 0.9591
-3.1786 -9.4939 -2.9973 0.9591
-1.4453 -9.9094 -2.9981 0.9590
0.3347 -10.0111 -2.9988 0.9590
1.2246 -9.9428 -2.9992 0.9590
2.1049 -9.7955 -2.9995 0.9590
2.9688 -9.5704 -2.9999 0.9590
4.6196 -8.8944 -3.0005 0.9590
6.1247 -7.9360 -3.0012 0.9590
6.8074 -7.3601 -3.0014 0.9590
7.4361 -6.7256 -3.0017 0.9590
8.0058 -6.0375 -3.0019 0.9590
8.5120 -5.3013 -3.0021 0.9590
8.9506 -4.5229 -3.0023 0.9590
9.6115 -2.8646 -3.0026 0.9590
9.8286 -1.9978 -3.0027 0.9590
10.0274 -0.2234 -3.0028 0.9590
10.0075 0.6699 -3.0027 0.9590
9.9080 1.5579 -3.0027 0.9590
9.4742 3.2898 -3.0025 0.9590
9.1434 4.1198 -3.0024 0.9590
6.1435 7.2665 -2.8487 0.9610
5.4718 7.7837 -2.8485 0.9611
4.7568 8.2390 -2.8482 0.9611
1.5817 9.3768 -2.8469 0.9611
-0.1059 9.5063 -2.8462 0.9611
-2.6127 9.1373 -2.8452 0.9611
-3.4152 8.8674 -2.8448 0.9611
-4.9323 8.1197 -2.8442 0.9611
-5.6348 7.6477 -2.8439 0.9611
-6.2925 7.1151 -2.8436 0.9611
-6.9002 6.5262 -2.8434 0.9611
-7.9468 5.1986 -2.8430 0.9611
-9.2097 3.9053 -2.9949 0.9591
-9.5204 3.0699 -2.9947 0.9591
-9.7555 2.2103 -2.9946 0.9591
-9.9925 0.4456 -2.9945 0.9591
-9.9133 -1.3332 -2.9946 0.9591
-9.7555 -2.2103 -2.9946 0.9591
-8.8261 -4.7097 -2.9950 0.9591
-8.3724 -5.4770 -2.9952 0.9591
-7.8523 -6.2009 -2.9954 0.9591
-7.2698 -6.8757 -2.9957 0.9591
-6.6295 -7.4961 -2.9959 0.9591
-5.9366 -8.0572 -2.9962 0.9591
-3.5981 -9.3423 -2.9972 0.9591
-2.7527 -9.6266 -2.9975 0.9591
-1.8851 -9.8346 -2.9979 0.9591
-1.0024 -9.9645 -2.9982 0.9590
-0.1116 -10.0154 -2.9986 0.9590
0.7804 -9.9868 -2.9990 0.9590
4.2186 -9.0908 -3.0004 0.9590
5.7648 -8.2006 -3.0010 0.9590
7.1288 -7.0498 -3.0016 0.9590
7.7286 -6.3879 -3.0018 0.9590
8.2671 -5.6751 -3.0020 0.9590
9.4742 -3.2898 -3.0025 0.9590
9.7298 -2.4336 -3.0026 0.9590
9.9080 -1.5579 -3.0027 0.9590
10.0075 -0.6699 -3.0027 0.9590
9.9676 1.1150 -3.0027 0.9590
9.6115 2.8645 -3.0026 0.9590
9.3180 3.7085 -3.0025 0.9590
12.6816 6.4083 -4.2538 0.9424
7.5989 5.7306 -2.8493 0.9610
7.0581 6.3837 -2.8491 0.9610
5.8134 7.5326 -2.8486 0.9610
4.3848 8.4422 -2.8480 0.9611
2.8179 9.0839 -2.8474 0.9611
1.9979 9.2975 -2.8470 0.9611
1.1623 9.4373 -2.8467 0.9611
0.3177 9.5022 -2.8464 0.9611
-3.0170 9.0113 -2.8450 0.9611
-4.5659 8.3318 -2.8444 0.9611
-5.9696 7.3887 -2.8438 0.9611
-6.6030 6.8274 -2.8435 0.9611
-7.1838 6.2121 -2.8433 0.9611
-7.7076 5.5476 -2.8431 0.9611
-8.1703 4.8393 -2.8429 0.9611
-9.3744 3.4910 -2.9948 0.9591
-9.6475 2.6427 -2.9947 0.9591
-9.3925 -0.8393 -2.9948 0.9612
-9.0952 -2.4915 -2.9949 0.9612
-7.6554 -5.5100 -2.9955 0.9612
-7.1351 -6.1700 -2.9957 0.9612
-6.5581 -6.7811 -2.9960 0.9612
-5.9291 -7.3385 -2.9962 0.9612
-5.2529 -7.8379 -2.9965 0.9612
-3.7807 -8.6468 -2.9971 0.9612
-2.9964 -8.9499 -2.9974 0.9612
-2.1882 -9.1821 -2.9978 0.9612
-0.5256 -9.4267 -2.9984 0.9612
0.3155 -9.4372 -2.9988 0.9611
1.1544 -9.3727 -2.9991 0.9611
2.7985 -9.0216 -2.9998 0.9611
4.3547 -8.3842 -3.0004 0.9611
5.0841 -7.9642 -3.0007 0.9611
7.5464 -5.6910 -3.0017 0.9611
8.7833 -3.4957 -3.0022 0.9611
9.2645 -1.8831 -3.0024 0.9611
9.3955 -1.0510 -3.0025 0.9611
8.9305 3.1010 -3.0023 0.9611
8.6186 3.8833 -3.0022 0.9611
11.6725 6.5669 -4.2534 0.9453
7.3966 5.0775 -2.8493 0.9630
6.3782 6.3075 -2.8488 0.9631
5.1579 7.3372 -2.8483 0.9631
4.4840 7.7665 -2.8481 0.9631
3.7745 8.1339 -2.8478 0.9631
3.0353 8.4367 -2.8475 0.9631
2.2721 8.6724 -2.8472 0.9631
0.6983 8.9357 -2.8465 0.9631
-4.6497 7.6545 -2.8443 0.9631
-5.3121 7.2096 -2.8441 0.9631
-5.9322 6.7076 -2.8438 0.9631
-6.5051 6.1525 -2.8436 0.9631
-7.4918 4.9010 -2.8432 0.9631
-8.6825 3.6817 -2.9951 0.9612
-8.9753 2.8942 -2.9950 0.9612
-9.3458 1.2569 -2.9948 0.9612
-9.3458 -1.2569 -2.9948 0.9612
-9.1970 -2.0838 -2.9949 0.9612
-8.9754 -2.8942 -2.9950 0.9612
-8.6825 -3.6817 -2.9951 0.9612
-8.3208 -4.4401 -2.9952 0.9612
-7.8930 -5.1634 -2.9954 0.9612
-7.4026 -5.8458 -2.9956 0.9612
-6.2498 -7.0668 -2.9961 0.9612
-5.5965 -7.5957 -2.9964 0.9612
-4.8988 -8.0645 -2.9966 0.9612
-3.3920 -8.8071 -2.9973 0.9612
-2.5949 -9.0750 -2.9976 0.9612
-0.9450 -9.3934 -2.9983 0.9612
2.3937 -9.1368 -2.9996 0.9611
3.9766 -8.5695 -3.0003 0.9611
4.7241 -8.1823 -3.0006 0.9611
5.4341 -7.7302 -3.0009 0.9611
6.7198 -6.6453 -3.0014 0.9611
7.2852 -6.0213 -3.0016 0.9611
8.2384 -4.6348 -3.0020 0.9611
8.6187 -3.8834 -3.0022 0.9611
8.9305 -3.1010 -3.0023 0.9611
9.1713 -2.2939 -3.0024 0.9611
9.3393 -1.4685 -3.0025 0.9611
9.4331 -0.6315 -3.0025 0.9611
9.3955 1.0511 -3.0025 0.9611
8.7833 3.4956 -3.0022 0.9611
11.9538 6.0405 -4.2535 0.9453
11.3681 7.0801 -4.2533 0.9453
7.1629 5.4017 -2.8492 0.9630
6.6531 6.0174 -2.8490 0.9631
1.0957 8.8963 -2.8467 0.9631
0.2995 8.9575 -2.8463 0.9631
-0.4989 8.9476 -2.8460 0.9631
-1.2932 8.8666 -2.8457 0.9631
-2.0770 8.7154 -2.8454 0.9631
-2.8441 8.4950 -2.8451 0.9631
-4.3044 7.8545 -2.8445 0.9631
-6.2248 6.4364 -2.8437 0.9631
-7.2663 5.2299 -2.8433 0.9631
-8.0354 4.7594 -2.9660 0.9616
-8.8377 3.2912 -2.9950 0.9612
-9.0952 2.4914 -2.9949 0.9612
-9.2806 1.6720 -2.9948 0.9612
-9.3925 0.8393 -2.9948 0.9612
-8.9141 0.0000 -2.9950 0.9631
-8.8788 -0.7934 -2.9950 0.9631
-8.7731 -1.5805 -2.9950 0.9631
-8.5978 -2.3552 -2.9951 0.9631
-8.3543 -3.1112 -2.9952 0.9631
-7.2366 -5.2086 -2.9957 0.9631
-6.7448 -5.8324 -2.9959 0.9631
-4.9654 -7.4090 -2.9966 0.9631
-3.5738 -8.1735 -2.9972 0.9631
-2.8324 -8.4600 -2.9975 0.9631
-1.2878 -8.8300 -2.9981 0.9630
1.0911 -8.8595 -2.9991 0.9630
3.3941 -8.2590 -3.0000 0.9630
4.1161 -7.9249 -3.0003 0.9630
6.0652 -6.5576 -3.0011 0.9630
7.1328 -5.3791 -3.0016 0.9630
7.5837 -4.7232 -3.0018 0.9630
7.9744 -4.0296 -3.0019 0.9630
8.3018 -3.3041 -3.0020 0.9630
8.7566 -1.7799 -3.0022 0.9630
8.8804 -0.9934 -3.0023 0.9630
8.9337 -0.1991 -3.0023 0.9630
8.8273 1.3880 -3.0023 0.9630
11.0327 6.2069 -4.2532 0.9480
6.5359 5.4020 -2.8489 0.9649
4.8753 6.9352 -2.8482 0.9649
4.2383 7.3409 -2.8480 0.9649
3.5677 7.6882 -2.8477 0.9649
1.4093 8.3551 -2.8468 0.9649
-0.0944 8.4707 -2.8462 0.9649
-0.8478 8.4278 -2.8459 0.9649
-2.3282 8.1422 -2.8453 0.9649
-3.0433 7.9019 -2.8450 0.9649
-4.3953 7.2356 -2.8444 0.9649
-6.1492 5.8158 -2.8437 0.9649
-6.6420 5.2451 -2.8435 0.9649
-7.8656 4.1972 -2.9954 0.9631
-8.2076 3.4803 -2.9953 0.9631
-8.4844 2.7359 -2.9952 0.9631
-8.6940 1.9698 -2.9951 0.9631
-8.8347 1.1882 -2.9950 0.9631
-8.9053 0.3971 -2.9950 0.9631
-8.9053 -0.3971 -2.9950 0.9631
-8.8347 -1.1881 -2.9950 0.9631
-8.6940 -1.9698 -2.9951 0.9631
-8.4845 -2.7359 -2.9952 0.9631
-8.2076 -3.4803 -2.9953 0.9631
-6.9977 -5.5260 -2.9958 0.9631
-6.4785 -6.1273 -2.9960 0.9631
-5.9079 -6.6802 -2.9962 0.9631
-5.2903 -7.1801 -2.9965 0.9631
-4.6307 -7.6231 -2.9967 0.9631
-3.9342 -8.0058 -2.9970 0.9631
-1.6798 -8.7634 -2.9980 0.9630
-0.8933 -8.8791 -2.9983 0.9630
-0.0994 -8.9244 -2.9986 0.9630
3.0226 -8.4015 -2.9999 0.9630
3.7588 -8.1000 -3.0002 0.9630
4.4652 -7.7340 -3.0005 0.9630
5.7668 -6.8210 -3.0010 0.9630
7.7868 -4.3808 -3.0018 0.9630
8.8273 -1.3880 -3.0023 0.9630
8.9337 0.1991 -3.0023 0.9630
8.7566 1.7799 -3.0022 0.9630
8.5632 2.5521 -3.0021 0.9630
7.9744 4.0296 -3.0019 0.9630
6.7703 5.1057 -2.8490 0.9649
6.2885 5.6876 -2.8488 0.9649
3.9069 7.5220 -2.8478 0.9649
3.2215 7.8391 -2.8475 0.9649
2.5108 8.0939 -2.8473 0.9649
1.7802 8.2844 -2.8470 0.9649
1.0357 8.4091 -2.8467 0.9649
0.2831 8.4670 -2.8463 0.9649
-1.9633 8.2383 -2.8454 0.9649
-3.3921 7.7580 -2.8448 0.9649
-4.0688 7.4246 -2.8446 0.9649
-5.3198 6.5844 -2.8440 0.9649
-5.8842 6.0843 -2.8438 0.9649
-6.4019 5.5360 -2.8436 0.9649
-6.8688 4.9438 -2.8434 0.9649
-7.6710 4.5435 -2.9955 0.9631
-8.0446 3.8426 -2.9953 0.9631
-8.7730 1.5806 -2.9950 0.9631
-8.4135 -0.7518 -2.9952 0.9648
-8.1472 -2.2317 -2.9953 0.9648
-7.6229 -3.6412 -2.9955 0.9648
-7.2690 -4.3054 -2.9957 0.9648
-6.8573 -4.9356 -2.9958 0.9648
-5.3108 -6.5733 -2.9965 0.9648
-4.0619 -7.4120 -2.9970 0.9648
-1.9599 -8.2242 -2.9978 0.9648
-0.4708 -8.4431 -2.9985 0.9647
2.5064 -8.0798 -2.9997 0.9647
3.2159 -7.8254 -3.0000 0.9647
3.9000 -7.5089 -3.0002 0.9647
4.5533 -7.1326 -3.0005 0.9647
6.7582 -5.0966 -3.0014 0.9647
7.1854 -4.4751 -3.0016 0.9647
7.8658 -3.1305 -3.0019 0.9647
8.1134 -2.4181 -3.0020 0.9647
8.4140 -0.9412 -3.0021 0.9647
8.2132 2.0543 -3.0020 0.9647
7.9975 2.7771 -3.0019 0.9647
7.7183 3.4777 -3.0018 0.9647
6.1926 5.1183 -2.8488 0.9665
5.7121 5.6488 -2.8486 0.9665
5.1863 6.1343 -2.8484 0.9665
4.0158 6.9555 -2.8479 0.9665
2.0349 7.7671 -2.8471 0.9665
0.6254 8.0032 -2.8465 0.9665
-0.0894 8.0263 -2.8462 0.9665
-1.5108 7.8817 -2.8456 0.9665
-2.2061 7.7151 -2.8453 0.9665
-3.5384 7.2004 -2.8448 0.9665
-4.1648 6.8562 -2.8445 0.9665
-5.3136 6.0082 -2.8441 0.9665
-7.0701 4.6250 -2.9957 0.9648
-7.7774 3.2979 -2.9954 0.9648
-8.2384 1.8665 -2.9953 0.9648
-8.3717 1.1259 -2.9952 0.9648
-8.4386 0.3763 -2.9952 0.9648
-8.4386 -0.3763 -2.9952 0.9648
-8.3717 -1.1259 -2.9952 0.9648
-8.2384 -1.8666 -2.9953 0.9648
-8.0398 -2.5925 -2.9953 0.9648
-7.0701 -4.6251 -2.9957 0.9648
-6.6308 -5.2363 -2.9959 0.9648
-6.1389 -5.8061 -2.9961 0.9648
-5.0129 -6.8036 -2.9966 0.9648
-3.7279 -7.5860 -2.9971 0.9648
-2.3242 -8.1283 -2.9977 0.9648
-0.0942 -8.4562 -2.9986 0.9647
0.6589 -8.4318 -2.9989 0.9647
1.4069 -8.3406 -2.9992 0.9647
2.8640 -7.9605 -2.9998 0.9647
3.5615 -7.6748 -3.0001 0.9647
4.2308 -7.3280 -3.0004 0.9647
4.8667 -6.9229 -3.0006 0.9647
5.4640 -6.4629 -3.0009 0.9647
6.9787 -4.7907 -3.0015 0.9647
7.3778 -4.1507 -3.0017 0.9647
8.2132 -2.0543 -3.0020 0.9647
8.3636 -1.3151 -3.0021 0.9647
8.4476 -0.5655 -3.0021 0.9647
8.4644 0.1886 -3.0021 0.9647
8.4140 0.9412 -3.0021 0.9647
8.2967 1.6864 -3.0020 0.9647
8.1134 2.4180 -3.0020 0.9647
10.1807 6.3406 -4.2528 0.9504
5.9583 5.3889 -2.8487 0.9665
5.4546 5.8974 -2.8485 0.9665
4.3218 6.7700 -2.8480 0.9665
3.7018 7.1272 -2.8477 0.9665
3.0524 7.4277 -2.8475 0.9665
1.6868 7.8497 -2.8469 0.9665
0.9813 7.9678 -2.8466 0.9665
0.2682 8.0228 -2.8463 0.9665
-1.1582 7.9415 -2.8458 0.9665
-2.5475 7.6088 -2.8452 0.9665
-4.4659 6.6636 -2.8444 0.9665
-6.6231 4.7670 -2.8935 0.9660
-7.2689 4.3054 -2.9957 0.9648
-7.9164 2.9481 -2.9954 0.9648
-8.1472 2.2317 -2.9953 0.9648
-8.3133 1.4977 -2.9952 0.9648
-8.4135 0.7518 -2.9952 0.9648
-7.9898 -0.7140 -2.9954 0.9663
-7.7369 -2.1193 -2.9955 0.9663
-7.5178 -2.7996 -2.9956 0.9663
-7.2390 -3.4578 -2.9957 0.9663
-6.9029 -4.0886 -2.9958 0.9663
-6.5119 -4.6870 -2.9960 0.9663
-6.0693 -5.2483 -2.9962 0.9663
-5.5784 -5.7680 -2.9964 0.9663
-3.8572 -7.0386 -2.9971 0.9663
-2.5486 -7.6123 -2.9976 0.9663
-1.8611 -7.8097 -2.9979 0.9663
-1.1588 -7.9451 -2.9982 0.9663
-0.4471 -8.0175 -2.9985 0.9663
1.6875 -7.8530 -2.9993 0.9663
2.3800 -7.6724 -2.9996 0.9663
5.4568 -5.8998 -3.0009 0.9663
5.9606 -5.3911 -3.0011 0.9663
7.4688 -2.9725 -3.0017 0.9663
7.7040 -2.2960 -3.0018 0.9663
8.0212 0.5370 -3.0019 0.9663
7.9415 1.2487 -3.0019 0.9663
7.7987 1.9506 -3.0018 0.9663
7.3288 3.3022 -3.0016 0.9663
5.4239 5.3638 -2.8485 0.9680
3.8132 6.6047 -2.8478 0.9680
3.2099 6.9172 -2.8475 0.9680
0.5939 7.5997 -2.8465 0.9680
-0.0849 7.6217 -2.8462 0.9680
-2.0949 7.3263 -2.8454 0.9680
-2.7384 7.1101 -2.8451 0.9680
-3.3601 6.8375 -2.8449 0.9680
-5.5333 5.2334 -2.8440 0.9680
-6.0383 4.7684 -2.8730 0.9677
-7.8235 1.7726 -2.9954 0.9663
-7.6349 -2.4619 -2.9955 0.9663
-7.3857 -3.1318 -2.9956 0.9663
-7.0780 -3.7769 -2.9957 0.9663
-6.7140 -4.3921 -2.9959 0.9663
-6.2968 -4.9726 -2.9961 0.9663
-4.7604 -6.4609 -2.9967 0.9663
-2.2071 -7.7186 -2.9977 0.9663
-1.5115 -7.8852 -2.9980 0.9663
-0.8037 -7.9892 -2.9983 0.9663
1.3359 -7.9200 -2.9992 0.9663
2.7195 -7.5591 -2.9998 0.9663
4.0174 -6.9584 -3.0003 0.9663
5.1883 -6.1368 -3.0008 0.9663
5.7144 -5.6511 -3.0010 0.9663
7.3289 -3.3022 -3.0016 0.9663
7.7987 -1.9506 -3.0018 0.9663
7.9415 -1.2487 -3.0019 0.9663
8.0372 0.1791 -3.0019 0.9663
7.9893 0.8937 -3.0019 0.9663
6.8228 4.2492 -3.0014 0.9663
5.1794 5.5999 -2.8484 0.9680
4.1038 6.4285 -2.8479 0.9680
2.2590 7.2824 -2.8472 0.9680
1.6017 7.4538 -2.8469 0.9680
0.2547 7.6183 -2.8463 0.9680
-0.4243 7.6100 -2.8461 0.9680
-1.0999 7.5412 -2.8458 0.9680
-1.7665 7.4127 -2.8455 0.9680
-2.4191 7.2254 -2.8452 0.9680
-3.0523 6.9808 -2.8450 0.9680
-5.7608 4.9815 -2.8439 0.9680
-6.5119 4.6870 -2.9960 0.9663
-7.9898 0.7140 -2.9954 0.9663
-7.6324 0.0000 -2.9955 0.9677
-7.3615 -2.0165 -2.9956 0.9677
-6.8878 -3.2901 -2.9958 0.9677
-6.1959 -4.4596 -2.9961 0.9677
-4.7985 -5.9392 -2.9967 0.9677
-4.2512 -6.3432 -2.9969 0.9677
-3.0596 -6.9976 -2.9974 0.9677
-1.1025 -7.5593 -2.9982 0.9677
0.2553 -7.6365 -2.9988 0.9677
0.9341 -7.5841 -2.9990 0.9677
1.6055 -7.4716 -2.9993 0.9677
2.2644 -7.2996 -2.9996 0.9677
4.1135 -6.4437 -3.0003 0.9677
4.6710 -6.0525 -3.0006 0.9677
5.6709 -5.1291 -3.0010 0.9677
6.4912 -4.0428 -3.0013 0.9677
7.1058 -2.8280 -3.0016 0.9677
7.3295 -2.1844 -3.0016 0.9677
7.6465 -0.1704 -3.0018 0.9677
8.9325 6.1318 -4.2523 0.9545
5.7037 4.7142 -2.9042 0.9687
4.6853 5.5418 -2.8482 0.9693
4.1732 5.9364 -2.8479 0.9693
2.4559 6.8263 -2.8472 0.9693
1.8384 7.0172 -2.8470 0.9693
0.5650 7.2306 -2.8465 0.9693
-0.0808 7.2515 -2.8462 0.9693
-0.7258 7.2149 -2.8459 0.9693
-1.3650 7.1210 -2.8457 0.9693
-5.2648 4.9794 -2.8441 0.9693
-7.4440 1.6866 -2.9956 0.9677
-7.5644 1.0173 -2.9955 0.9677
-7.6249 0.3400 -2.9955 0.9677
-7.0274 -2.9799 -2.9958 0.9677
-6.7345 -3.5937 -2.9959 0.9677
-6.3883 -4.1790 -2.9960 0.9677
-5.9913 -4.7312 -2.9962 0.9677
-5.5467 -5.2461 -2.9964 0.9677
-5.0581 -5.7193 -2.9966 0.9677
-3.9645 -6.5265 -2.9970 0.9677
-3.3682 -6.8541 -2.9973 0.9677
-2.0999 -7.3439 -2.9978 0.9677
-1.4381 -7.5023 -2.9981 0.9677
-0.7647 -7.6013 -2.9983 0.9677
1.2710 -7.5353 -2.9992 0.9677
1.9369 -7.3929 -2.9994 0.9677
3.2175 -6.9336 -3.0000 0.9677
4.3966 -6.2543 -3.0004 0.9677
5.4366 -5.3764 -3.0009 0.9677
6.3045 -4.3278 -3.0012 0.9677
6.6650 -3.7496 -3.0014 0.9677
6.9726 -3.1417 -3.0015 0.9677
7.4196 -1.8558 -3.0017 0.9677
7.6313 -0.5109 -3.0018 0.9677
7.4950 1.5234 -3.0017 0.9677
7.1057 2.8280 -3.0015 0.9677
6.8256 3.4491 -3.0014 0.9677
6.4912 4.0428 -3.0013 0.9677
5.3827 4.8684 -2.8484 0.9693
4.9277 5.3278 -2.8483 0.9693
4.4336 5.7448 -2.8480 0.9693
3.9044 6.1162 -2.8478 0.9693
3.3443 6.4389 -2.8476 0.9693
2.7577 6.7104 -2.8474 0.9693
0.8866 7.1986 -2.8466 0.9693
0.2423 7.2483 -2.8463 0.9693
-1.6808 7.0528 -2.8455 0.9693
-2.3016 6.8746 -2.8453 0.9693
-3.4835 6.3565 -2.8448 0.9693
-4.0351 6.0207 -2.8446 0.9693
-4.5546 5.6373 -2.8444 0.9693
-5.0379 5.2092 -2.8442 0.9693
-5.5143 4.7684 -2.8612 0.9692
-6.5679 3.8902 -2.9959 0.9677
-6.8878 3.2900 -2.9958 0.9677
-7.1530 2.6638 -2.9957 0.9677
-7.3615 2.0165 -2.9956 0.9677
-7.2749 0.0000 -2.9957 0.9690
-7.2460 -0.6475 -2.9957 0.9690
-6.5651 -3.1359 -2.9960 0.9690
-4.0519 -6.0459 -2.9970 0.9690
-3.4980 -6.3830 -2.9972 0.9690
-2.9162 -6.6696 -2.9975 0.9690
-1.6878 -7.0821 -2.9980 0.9690
-0.4054 -7.2704 -2.9985 0.9690
0.2433 -7.2783 -2.9987 0.9690
0.8903 -7.2284 -2.9990 0.9690
3.3581 -6.4654 -3.0000 0.9690
3.9205 -6.1413 -3.0003 0.9690
4.4519 -5.7685 -3.0005 0.9690
4.9480 -5.3497 -3.0007 0.9690
5.4048 -4.8884 -3.0009 0.9690
6.1865 -3.8530 -3.0012 0.9690
6.5052 -3.2872 -3.0013 0.9690
6.7722 -2.6953 -3.0014 0.9690
6.9854 -2.0819 -3.0015 0.9690
7.1432 -1.4519 -3.0016 0.9690
7.2441 -0.8104 -3.0016 0.9690
7.2731 0.4869 -3.0016 0.9690
7.0713 1.7686 -3.0015 0.9690
6.8857 2.3910 -3.0015 0.9690
6.6453 2.9942 -3.0014 0.9690
6.3522 3.5736 -3.0012 0.9690
6.0086 4.1247 -3.0011 0.9690
4.9182 4.8637 -2.8482 0.9705
4.4654 5.2817 -2.8481 0.9705
3.4577 5.9890 -2.8476 0.9705
2.3407 6.5061 -2.8472 0.9705
1.1499 6.8168 -2.8467 0.9705
0.5385 6.8915 -2.8465 0.9705
-0.0770 6.9115 -2.8462 0.9705
-0.6918 6.8766 -2.8459 0.9705
-1.3010 6.7871 -2.8457 0.9705
-1.8997 6.6438 -2.8455 0.9706
-3.5866 5.9044 -2.8448 0.9706
-4.5761 5.1742 -2.8444 0.9706
-5.0419 4.7686 -2.8576 0.9704
-5.7105 4.5095 -2.9963 0.9690
-6.0889 3.9832 -2.9961 0.9690
-6.4190 3.4253 -2.9960 0.9690
-7.0952 1.6076 -2.9957 0.9690
-7.2100 0.9696 -2.9957 0.9690
-7.2100 -0.9696 -2.9957 0.9690
-7.0952 -1.6076 -2.9957 0.9690
-6.4190 -3.4253 -2.9960 0.9690
-6.0889 -3.9832 -2.9961 0.9690
-5.2868 -5.0003 -2.9965 0.9690
-4.3171 -5.8592 -2.9969 0.9690
-2.6163 -6.7931 -2.9976 0.9690
-2.0015 -6.9996 -2.9978 0.9690
-0.7288 -7.2449 -2.9983 0.9690
-0.0811 -7.2816 -2.9986 0.9690
0.5674 -7.2606 -2.9989 0.9690
1.2114 -7.1819 -2.9991 0.9690
1.8460 -7.0462 -2.9994 0.9690
2.4660 -6.8545 -2.9997 0.9690
3.0666 -6.6083 -2.9999 0.9690
4.7046 -5.5646 -3.0006 0.9690
5.1815 -5.1241 -3.0008 0.9690
5.6174 -4.6429 -3.0009 0.9690
6.3522 -3.5737 -3.0012 0.9690
6.8857 -2.3910 -3.0015 0.9690
7.2008 -1.1323 -3.0016 0.9690
7.2731 -0.4869 -3.0016 0.9690
6.7722 2.6953 -3.0014 0.9690
6.5052 3.2872 -3.0013 0.9690
6.1865 3.8530 -3.0012 0.9690
5.2162 4.7177 -2.8961 0.9700
3.7212 5.8292 -2.8478 0.9705
1.4525 6.7591 -2.8468 0.9705
0.2310 6.9084 -2.8463 0.9705
-0.3848 6.9009 -2.8461 0.9705
-0.9974 6.8387 -2.8458 0.9705
-1.6020 6.7221 -2.8456 0.9705
-2.1937 6.5523 -2.8453 0.9706
-2.7680 6.3306 -2.8451 0.9706
-4.3412 5.3731 -2.8445 0.9706
-4.8018 4.9651 -2.8443 0.9706
-5.9056 4.2506 -2.9962 0.9690
-6.2602 3.7079 -2.9961 0.9690
-6.5651 3.1359 -2.9959 0.9690
-7.0166 1.9221 -2.9958 0.9690
-7.1597 1.2899 -2.9957 0.9690
-6.9450 0.0000 -2.9958 0.9702
-6.9175 -0.6181 -2.9958 0.9702
-6.8351 -1.2314 -2.9958 0.9702
-6.6985 -1.8349 -2.9959 0.9702
-6.5088 -2.4239 -2.9960 0.9702
-4.8295 -4.9937 -2.9967 0.9702
-3.8681 -5.7717 -2.9971 0.9702
-2.7839 -6.3670 -2.9975 0.9702
-1.6112 -6.7608 -2.9980 0.9702
0.2323 -6.9480 -2.9987 0.9702
0.8499 -6.9003 -2.9990 0.9702
3.2056 -6.1719 -3.0000 0.9702
5.9056 -3.6780 -3.0011 0.9701
6.9151 -0.7736 -3.0015 0.9701
6.8737 1.0808 -3.0015 0.9701
6.7501 1.6883 -3.0014 0.9701
6.0636 3.4113 -3.0011 0.9701
5.7357 3.9373 -3.0010 0.9701
5.3622 4.4320 -3.0008 0.9701
4.2627 5.0419 -2.8480 0.9716
3.7967 5.4009 -2.8478 0.9716
3.3007 5.7170 -2.8476 0.9717
2.7786 5.9877 -2.8474 0.9717
-1.8136 6.3424 -2.8455 0.9717
-2.9089 5.9194 -2.8450 0.9717
-3.4240 5.6366 -2.8448 0.9717
-3.9118 5.3091 -2.8446 0.9717
-4.3685 4.9395 -2.8444 0.9717
-5.8128 3.8026 -2.9962 0.9702
-6.3944 2.7115 -2.9960 0.9702
-6.9381 -0.3094 -2.9958 0.9702
-6.7735 -1.5347 -2.9959 0.9702
-6.1279 -3.2700 -2.9961 0.9702
-5.8128 -3.8026 -2.9963 0.9702
-5.0470 -4.7735 -2.9966 0.9702
-4.6024 -5.2041 -2.9968 0.9702
-4.1213 -5.5934 -2.9970 0.9702
-3.6073 -5.9385 -2.9972 0.9702
-1.9107 -6.6820 -2.9979 0.9702
-1.3085 -6.8262 -2.9981 0.9702
0.5416 -6.9310 -2.9989 0.9702
1.1564 -6.8559 -2.9991 0.9702
1.7622 -6.7263 -2.9994 0.9702
2.3541 -6.5433 -2.9996 0.9702
3.4775 -6.0232 -3.0001 0.9702
4.9462 -4.8914 -3.0007 0.9702
5.3622 -4.4320 -3.0008 0.9701
6.0637 -3.4113 -3.0011 0.9701
6.5729 -2.2824 -3.0013 0.9701
6.8737 -1.0808 -3.0015 0.9701
6.9565 0.1550 -3.0015 0.9701
6.9151 0.7736 -3.0015 0.9701
6.8187 1.3860 -3.0014 0.9701
6.6681 1.9873 -3.0014 0.9701
6.4646 2.5728 -3.0013 0.9701
5.9055 3.6780 -3.0011 0.9701
5.1593 4.6663 -3.0007 0.9702
4.4832 4.8471 -2.8481 0.9716
3.5522 5.5645 -2.8477 0.9717
1.3865 6.4523 -2.8468 0.9717
0.8067 6.5496 -2.8466 0.9717
0.2205 6.5948 -2.8463 0.9717
-3.1696 5.7838 -2.8449 0.9717
-4.1443 5.1294 -2.8445 0.9717
-4.6088 4.7651 -2.8595 0.9715
-5.6378 4.0578 -2.9963 0.9702
-6.2674 2.9937 -2.9961 0.9702
-6.5088 2.4239 -2.9960 0.9702
-6.8351 1.2314 -2.9958 0.9702
-6.9175 0.6181 -2.9958 0.9702
-6.6133 -0.5909 -2.9959 0.9713
-6.5345 -1.1772 -2.9960 0.9713
-5.3898 -3.8794 -2.9964 0.9713
-4.6171 -4.7741 -2.9968 0.9713
-4.1741 -5.1664 -2.9969 0.9713
-3.1924 -5.8254 -2.9973 0.9713
-2.1093 -6.3001 -2.9978 0.9713
-1.5403 -6.4633 -2.9980 0.9713
0.8124 -6.5966 -2.9990 0.9713
1.3965 -6.4986 -2.9992 0.9713
1.9695 -6.3490 -2.9995 0.9712
3.0644 -5.9001 -2.9999 0.9712
3.5777 -5.6044 -3.0001 0.9712
4.0626 -5.2640 -3.0003 0.9712
4.9321 -4.4608 -3.0007 0.9712
6.1798 -2.4595 -3.0012 0.9712
6.3744 -1.8998 -3.0013 0.9712
6.5183 -1.3249 -3.0013 0.9712
6.6104 -0.7395 -3.0014 0.9712
6.6501 -0.1482 -3.0014 0.9712
6.6368 0.4443 -3.0014 0.9712
6.4528 1.6139 -3.0013 0.9712
6.2833 2.1818 -3.0012 0.9712
5.7966 3.2611 -3.0010 0.9712
5.4831 3.7639 -3.0009 0.9712
5.1260 4.2368 -3.0007 0.9712
4.0749 4.8199 -2.8479 0.9727
3.6296 5.1631 -2.8477 0.9727
3.1554 5.4653 -2.8475 0.9727
2.6562 5.7240 -2.8473 0.9727
1.5990 6.1033 -2.8469 0.9727
-1.1873 6.1940 -2.8457 0.9727
-1.7338 6.0633 -2.8455 0.9727
-3.2733 5.3886 -2.8449 0.9727
-3.7397 5.0756 -2.8447 0.9727
-5.8584 3.1261 -2.9962 0.9713
-6.4756 1.4672 -2.9960 0.9713
-6.4757 -1.4672 -2.9960 0.9713
-5.8585 -3.1262 -2.9962 0.9713
-4.8251 -4.5635 -2.9967 0.9713
-4.4000 -4.9752 -2.9968 0.9713
-2.3877 -6.1996 -2.9977 0.9713
-1.8266 -6.3880 -2.9979 0.9713
-0.0740 -6.6452 -2.9986 0.9713
4.2932 -5.0780 -3.0004 0.9712
4.7284 -4.6760 -3.0006 0.9712
5.4831 -3.7639 -3.0009 0.9712
6.4528 -1.6139 -3.0013 0.9712
6.5709 -1.0332 -3.0013 0.9712
6.6104 0.7395 -3.0013 0.9712
6.5183 1.3249 -3.0013 0.9712
6.1798 2.4595 -3.0012 0.9712
5.3098 4.0043 -3.0008 0.9712
4.9321 4.4608 -3.0007 0.9712
3.8561 4.9965 -2.8478 0.9727
3.3958 5.3195 -2.8476 0.9727
2.9087 5.6002 -2.8474 0.9727
2.3985 5.8365 -2.8472 0.9727
1.8694 6.0263 -2.8470 0.9727
0.2108 6.3046 -2.8463 0.9727
-0.9102 6.2411 -2.8459 0.9727
-2.0021 5.9798 -2.8454 0.9727
-2.5262 5.7775 -2.8452 0.9727
-3.0301 5.5293 -2.8450 0.9727
-3.9620 4.9038 -2.8446 0.9727
-4.5872 4.7430 -2.9773 0.9715
-5.3898 3.8794 -2.9964 0.9713
-5.7135 3.3841 -2.9963 0.9713
-5.9918 2.8620 -2.9962 0.9713
-6.2225 2.3173 -2.9961 0.9713
-6.4039 1.7542 -2.9960 0.9713
-6.3559 0.0000 -2.9960 0.9723
-6.2553 -1.1269 -2.9961 0.9723
-6.1303 -1.6793 -2.9961 0.9723
-5.9566 -2.2183 -2.9962 0.9723
-5.1595 -3.7136 -2.9965 0.9723
-4.8087 -4.1583 -2.9967 0.9723
-4.4198 -4.5700 -2.9968 0.9723
-3.9957 -4.9455 -2.9970 0.9723
-2.5476 -5.8266 -2.9976 0.9723
-1.4744 -6.1869 -2.9980 0.9723
0.2126 -6.3581 -2.9987 0.9723
0.7777 -6.3144 -2.9990 0.9723
1.3367 -6.2206 -2.9992 0.9723
1.8852 -6.0774 -2.9994 0.9723
2.4188 -5.8860 -2.9996 0.9723
3.8887 -5.0388 -3.0002 0.9722
5.0826 -3.8330 -3.0007 0.9722
5.6821 -2.8713 -3.0010 0.9722
6.2393 -1.2682 -3.0012 0.9722
6.3275 -0.7078 -3.0012 0.9722
6.3528 0.4253 -3.0012 0.9722
6.2896 0.9890 -3.0012 0.9722
5.8045 2.6154 -3.0010 0.9722
5.5485 3.1215 -3.0009 0.9722
5.2484 3.6028 -3.0008 0.9722
4.5260 4.4758 -3.0005 0.9722
3.4742 4.9422 -2.8477 0.9736
1.0045 5.9549 -2.8466 0.9736
0.4704 6.0202 -2.8464 0.9737
-0.0673 6.0377 -2.8462 0.9737
-1.6596 5.8041 -2.8456 0.9737
-2.1695 5.6329 -2.8453 0.9737
-3.5798 4.8586 -2.8448 0.9737
-4.9890 3.9398 -2.9966 0.9723
-5.3197 3.4800 -2.9965 0.9723
-5.8520 2.4814 -2.9962 0.9723
-6.1989 1.4045 -2.9961 0.9723
-6.3496 -0.2831 -2.9960 0.9723
-6.2993 -0.8471 -2.9961 0.9723
-6.1989 -1.4045 -2.9961 0.9723
-6.0495 -1.9507 -2.9962 0.9723
-4.6188 -4.3685 -2.9968 0.9723
-3.7715 -5.1188 -2.9971 0.9723
-3.3012 -5.4346 -2.9973 0.9723
-2.2856 -5.9345 -2.9977 0.9723
-1.1974 -6.2467 -2.9982 0.9723
2.1542 -5.9876 -2.9995 0.9723
3.1821 -5.5116 -3.0000 0.9722
3.6603 -5.2069 -3.0001 0.9722
4.1094 -4.8607 -3.0003 0.9722
4.9067 -4.0555 -3.0007 0.9722
5.2484 -3.6028 -3.0008 0.9722
5.8045 -2.6154 -3.0010 0.9722
6.1766 -1.5449 -3.0012 0.9722
6.3654 0.1419 -3.0012 0.9722
6.3275 0.7079 -3.0012 0.9722
6.2393 1.2682 -3.0012 0.9722
5.9153 2.3542 -3.0011 0.9722
5.6821 2.8712 -3.0010 0.9722
5.4038 3.3655 -3.0009 0.9722
5.0826 3.8329 -3.0007 0.9722
4.3220 4.6729 -3.0004 0.9722
3.6910 4.7827 -2.8477 0.9736
2.2959 5.5868 -2.8472 0.9736
1.7894 5.7685 -2.8470 0.9736
1.2688 5.9044 -2.8468 0.9736
0.2018 6.0349 -2.8463 0.9737
-0.3361 6.0285 -2.8461 0.9737
-1.3995 5.8725 -2.8457 0.9737
-1.9165 5.7241 -2.8454 0.9737
-2.4182 5.5305 -2.8452 0.9737
-2.9006 5.2929 -2.8450 0.9737
-3.3600 5.0134 -2.8449 0.9737
-3.8438 4.7575 -2.8830 0.9733
-4.8087 4.1582 -2.9967 0.9723
-5.9566 2.2183 -2.9962 0.9723
-6.1303 1.6793 -2.9961 0.9723
-6.3307 0.5657 -2.9960 0.9723
-6.0674 -0.5422 -2.9962 0.9732
-5.9951 -1.0801 -2.9962 0.9732
-5.8753 -1.6094 -2.9962 0.9732
-5.7088 -2.1260 -2.9963 0.9732
-5.4971 -2.6257 -2.9964 0.9732
-5.2418 -3.1047 -2.9965 0.9732
-4.9448 -3.5591 -2.9966 0.9732
-4.2359 -4.3798 -2.9969 0.9732
-3.8294 -4.7397 -2.9971 0.9732
-2.9287 -5.3443 -2.9974 0.9732
-2.4416 -5.5841 -2.9976 0.9732
-0.8798 -6.0320 -2.9983 0.9732
-0.3394 -6.0869 -2.9985 0.9732
0.2037 -6.0934 -2.9987 0.9732
0.7453 -6.0515 -2.9990 0.9732
3.7267 -4.8288 -3.0002 0.9732
4.1420 -4.4783 -3.0003 0.9732
4.5244 -4.0920 -3.0005 0.9732
5.1787 -3.2253 -3.0008 0.9732
5.4454 -2.7517 -3.0009 0.9732
5.8473 -1.7427 -3.0010 0.9732
6.1002 -0.1359 -3.0011 0.9732
6.0880 0.4076 -3.0011 0.9732
6.0276 0.9478 -3.0011 0.9732
5.7638 2.0014 -3.0010 0.9732
5.0297 3.4527 -3.0007 0.9732
4.7023 3.8865 -3.0006 0.9732
2.8946 5.0135 -2.8474 0.9745
1.9595 5.4466 -2.8470 0.9745
0.9626 5.7069 -2.8466 0.9745
-0.0645 5.7863 -2.8462 0.9745
-1.0892 5.6824 -2.8458 0.9745
-2.0792 5.3985 -2.8454 0.9745
-2.5512 5.1916 -2.8452 0.9745
-3.0030 4.9436 -2.8450 0.9745
-4.0366 4.5643 -2.9970 0.9732
-4.7815 3.7759 -2.9967 0.9732
-5.6085 2.3782 -2.9963 0.9732
-5.9411 1.3461 -2.9962 0.9732
-6.0372 0.8120 -2.9962 0.9732
-6.0855 -0.2713 -2.9961 0.9732
-6.0372 -0.8119 -2.9962 0.9732
-5.9411 -1.3461 -2.9962 0.9732
-4.7815 -3.7759 -2.9967 0.9732
-4.4266 -4.1867 -2.9968 0.9732
-4.0367 -4.5643 -2.9970 0.9732
-3.6146 -4.9058 -2.9972 0.9732
-3.1638 -5.2083 -2.9973 0.9732
-2.1905 -5.6876 -2.9977 0.9732
-0.0679 -6.0962 -2.9986 0.9732
1.0142 -6.0125 -2.9991 0.9732
2.0645 -5.7382 -2.9995 0.9732
2.5672 -5.5321 -2.9997 0.9732
3.0497 -5.2820 -2.9999 0.9732
5.0297 -3.4527 -3.0007 0.9732
5.3173 -2.9915 -3.0008 0.9732
5.7638 -2.0014 -3.0010 0.9732
5.9192 -1.4805 -3.0011 0.9732
6.0276 -0.9478 -3.0011 0.9732
6.0880 -0.4075 -3.0011 0.9732
6.1002 0.1360 -3.0011 0.9732
6.0638 0.6783 -3.0011 0.9732
5.9793 1.2154 -3.0011 0.9732
5.8473 1.7427 -3.0010 0.9732
5.6689 2.2561 -3.0010 0.9732
5.1787 3.2253 -3.0008 0.9732
4.5243 4.0920 -3.0005 0.9732
4.1419 4.4782 -3.0003 0.9732
3.6410 4.7177 -2.9311 0.9738
2.6683 5.1373 -2.8473 0.9745
1.7149 5.5283 -2.8469 0.9745
0.1934 5.7837 -2.8463 0.9745
-0.3222 5.7775 -2.8461 0.9745
-0.8350 5.7254 -2.8459 0.9745
-2.3175 5.3003 -2.8453 0.9745
-4.6086 3.9852 -2.9967 0.9732
-5.7088 2.1260 -2.9963 0.9732
-5.8753 1.6094 -2.9962 0.9732
-5.9951 1.0801 -2.9962 0.9732
-5.8444 0.0000 -2.9962 0.9741
-5.8212 -0.5202 -2.9963 0.9741
-5.7519 -1.0362 -2.9963 0.9741
-5.6369 -1.5441 -2.9963 0.9741
-4.7442 -3.4147 -2.9967 0.9741
-4.0640 -4.2021 -2.9970 0.9741
-2.8099 -5.1274 -2.9975 0.9741
-1.8565 -5.5451 -2.9979 0.9741
-1.3557 -5.6887 -2.9981 0.9741
0.7151 -5.8058 -2.9989 0.9740
1.2290 -5.7195 -2.9992 0.9740
1.7333 -5.5878 -2.9994 0.9740
3.1486 -4.9322 -2.9999 0.9740
3.5753 -4.6327 -3.0001 0.9740
4.3405 -3.9258 -3.0004 0.9740
4.9683 -3.0943 -3.0007 0.9740
5.2241 -2.6399 -3.0008 0.9740
5.7364 -1.1660 -3.0010 0.9740
5.8407 0.3910 -3.0010 0.9740
5.5296 1.9201 -3.0009 0.9740
5.3366 2.4046 -3.0008 0.9740
4.5112 3.7286 -3.0005 0.9740
4.1612 4.1151 -3.0003 0.9740
3.3144 4.7147 -2.9546 0.9744
2.3377 5.0377 -2.8472 0.9753
1.8799 5.2254 -2.8470 0.9753
1.4073 5.3716 -2.8468 0.9753
-0.0618 5.5514 -2.8462 0.9754
-0.5557 5.5235 -2.8460 0.9754
-1.0450 5.4517 -2.8458 0.9754
-2.4477 4.9809 -2.8452 0.9754
-2.8925 4.7617 -2.8563 0.9753
-3.4679 4.7067 -2.9972 0.9741
-3.8729 4.3791 -2.9970 0.9741
-4.2470 4.0168 -2.9969 0.9741
-4.5875 3.6227 -2.9968 0.9741
-4.8915 3.1999 -2.9966 0.9741
-5.1567 2.7517 -2.9965 0.9741
-5.7000 1.2914 -2.9963 0.9741
-5.7000 -1.2914 -2.9963 0.9741
-5.5626 -1.7937 -2.9964 0.9741
-5.3810 -2.2817 -2.9964 0.9741
-5.1567 -2.7517 -2.9965 0.9741
-4.8915 -3.1999 -2.9966 0.9741
-4.5875 -3.6227 -2.9968 0.9741
-3.4679 -4.7067 -2.9972 0.9741
-3.0354 -4.9970 -2.9974 0.9741
-2.5788 -5.2476 -2.9976 0.9741
-1.6077 -5.6224 -2.9980 0.9741
-1.1010 -5.7436 -2.9982 0.9741
0.4557 -5.8317 -2.9988 0.9740
0.9730 -5.7684 -2.9990 0.9740
1.4827 -5.6593 -2.9993 0.9740
1.9806 -5.5052 -2.9995 0.9740
3.3653 -4.7872 -3.0000 0.9740
4.5112 -3.7287 -3.0005 0.9740
4.8254 -3.3124 -3.0006 0.9740
5.1013 -2.8699 -3.0007 0.9740
5.3366 -2.4046 -3.0008 0.9740
5.5296 -1.9201 -3.0009 0.9740
5.7826 -0.9093 -3.0010 0.9740
5.8523 0.1304 -3.0010 0.9740
5.4385 2.1645 -3.0009 0.9740
4.9683 3.0943 -3.0007 0.9740
4.3405 3.9258 -3.0004 0.9740
3.5753 4.6327 -3.0001 0.9740
2.1109 5.1366 -2.8471 0.9753
1.6452 5.3038 -2.8469 0.9753
1.1666 5.4288 -2.8467 0.9753
0.6787 5.5107 -2.8465 0.9754
0.1855 5.5488 -2.8463 0.9754
-0.3091 5.5429 -2.8461 0.9754
-1.2868 5.3996 -2.8457 0.9754
-1.7621 5.2632 -2.8455 0.9754
-2.2235 5.0852 -2.8453 0.9754
-2.6671 4.8668 -2.8451 0.9754
-4.0640 4.2021 -2.9970 0.9741
-5.6128 -0.0000 -2.9963 0.9749
-5.5905 -0.4996 -2.9963 0.9749
-4.8298 -2.8607 -2.9967 0.9749
-4.2464 -3.6720 -2.9969 0.9749
-3.9029 -4.0355 -2.9970 0.9749
-3.5284 -4.3671 -2.9972 0.9749
-3.1259 -4.6641 -2.9974 0.9749
-2.6985 -4.9241 -2.9975 0.9749
-1.7829 -5.3252 -2.9979 0.9749
0.6867 -5.5755 -2.9989 0.9748
1.6646 -5.3661 -2.9993 0.9748
2.1357 -5.1970 -2.9995 0.9748
2.5900 -4.9866 -2.9997 0.9748
3.4335 -4.4489 -3.0001 0.9748
3.8160 -4.1258 -3.0002 0.9748
4.1683 -3.7700 -3.0004 0.9748
4.7711 -2.9714 -3.0006 0.9748
5.2227 -2.0786 -3.0008 0.9748
5.4533 1.3640 -3.0009 0.9748
5.1248 2.3091 -3.0007 0.9748
3.9961 3.9518 -3.0003 0.9748
3.6283 4.2916 -3.0001 0.9748
2.7279 4.7249 -2.9126 0.9756
2.2450 4.8378 -2.8472 0.9761
1.3515 5.1585 -2.8468 0.9761
0.8869 5.2580 -2.8466 0.9761
0.4154 5.3157 -2.8464 0.9761
-0.0594 5.3312 -2.8462 0.9761
-0.5336 5.3044 -2.8460 0.9761
-2.3507 4.7834 -2.8453 0.9761
-3.7193 4.2055 -2.9971 0.9749
-4.0787 3.8576 -2.9970 0.9749
-4.4056 3.4790 -2.9968 0.9749
-4.9523 2.6426 -2.9966 0.9749
-5.4741 1.2403 -2.9964 0.9749
-5.5627 0.7481 -2.9964 0.9749
-5.6072 -0.2500 -2.9963 0.9749
-5.5627 -0.7481 -2.9964 0.9749
-5.4741 -1.2403 -2.9964 0.9749
-4.9523 -2.6426 -2.9966 0.9749
-4.0787 -3.8576 -2.9970 0.9749
-3.7193 -4.2055 -2.9971 0.9749
-3.3304 -4.5201 -2.9973 0.9749
-2.9151 -4.7988 -2.9974 0.9749
-2.4765 -5.0396 -2.9976 0.9749
-1.0573 -5.5158 -2.9982 0.9749
-0.5622 -5.5884 -2.9984 0.9749
0.4376 -5.6004 -2.9988 0.9749
2.8096 -4.8664 -2.9998 0.9748
4.6339 -3.1810 -3.0005 0.9748
5.3101 -1.8439 -3.0008 0.9748
5.5531 -0.8732 -3.0009 0.9748
5.6088 -0.3755 -3.0009 0.9748
5.6200 0.1252 -3.0009 0.9748
5.5865 0.6250 -3.0009 0.9748
5.5087 1.1197 -3.0009 0.9748
5.2227 2.0786 -3.0008 0.9748
5.0168 2.5351 -3.0007 0.9748
3.0071 4.7106 -2.9835 0.9750
2.0272 4.9329 -2.8471 0.9761
1.5800 5.0933 -2.8469 0.9761
0.6518 5.2921 -2.8465 0.9761
-0.2968 5.3231 -2.8461 0.9761
-0.7694 5.2752 -2.8459 0.9761
-1.2358 5.1854 -2.8457 0.9761
-1.6923 5.0545 -2.8455 0.9761
-3.1258 4.6641 -2.9974 0.9749
-3.5284 4.3671 -2.9972 0.9749
-3.9029 4.0355 -2.9970 0.9749
-5.2601 1.9589 -2.9965 0.9749
-5.4135 1.4829 -2.9964 0.9749
-5.5239 0.9952 -2.9964 0.9749
-5.3951 0.0000 -2.9964 0.9756
-5.3737 -0.4802 -2.9964 0.9756
-5.3097 -0.9566 -2.9965 0.9756
-5.0561 -1.8829 -2.9966 0.9756
-4.8686 -2.3256 -2.9966 0.9756
-4.3794 -3.1521 -2.9968 0.9756
-4.0817 -3.5296 -2.9970 0.9756
-2.5938 -4.7331 -2.9976 0.9756
-2.1624 -4.9454 -2.9978 0.9756
-0.3006 -5.3905 -2.9985 0.9756
0.1804 -5.3962 -2.9987 0.9756
1.1345 -5.2794 -2.9991 0.9756
2.0528 -4.9953 -2.9995 0.9756
2.4894 -4.7930 -2.9997 0.9756
3.3002 -4.2762 -3.0000 0.9756
3.6679 -3.9657 -3.0001 0.9756
4.0064 -3.6236 -3.0003 0.9756
4.3133 -3.2528 -3.0004 0.9756
4.8220 -2.4367 -3.0006 0.9756
5.1779 -1.5432 -3.0008 0.9756
5.2947 -1.0762 -3.0008 0.9756
5.4017 -0.1204 -3.0009 0.9756
5.3375 0.8393 -3.0008 0.9756
4.9258 2.2195 -3.0007 0.9756
4.4539 3.0575 -3.0005 0.9756
3.8410 3.7984 -3.0002 0.9756
3.1063 4.4188 -2.9999 0.9756
1.7353 4.8233 -2.8469 0.9768
1.2990 4.9583 -2.8468 0.9768
0.3993 5.1094 -2.8464 0.9768
-0.9646 5.0324 -2.8458 0.9768
-1.4086 4.9262 -2.8457 0.9768
-1.8413 4.7810 -2.8455 0.9768
-2.8020 4.6127 -2.9975 0.9756
-3.2012 4.3447 -2.9973 0.9756
-3.5750 4.0424 -2.9972 0.9756
-4.7602 2.5401 -2.9967 0.9756
-4.9673 2.1063 -2.9966 0.9756
-5.1349 1.6558 -2.9965 0.9756
-5.3470 0.7192 -2.9964 0.9756
-5.3898 0.2403 -2.9964 0.9756
-5.2619 -1.1922 -2.9965 0.9756
-5.1350 -1.6558 -2.9965 0.9756
-4.5154 -2.9538 -2.9968 0.9756
-3.9205 -3.7080 -2.9970 0.9756
-3.2012 -4.3448 -2.9973 0.9756
-2.8020 -4.6127 -2.9975 0.9756
-1.9400 -5.0370 -2.9978 0.9756
-1.4840 -5.1900 -2.9980 0.9756
-0.5404 -5.3716 -2.9984 0.9756
0.4206 -5.3830 -2.9988 0.9756
3.1063 -4.4188 -2.9999 0.9756
3.8410 -3.7984 -3.0002 0.9756
4.7086 -2.6490 -3.0006 0.9756
5.3375 -0.8393 -3.0008 0.9756
5.3910 -0.3609 -3.0008 0.9756
5.4017 0.1204 -3.0009 0.9756
5.2947 1.0762 -3.0008 0.9756
4.8220 2.4366 -3.0006 0.9756
4.5858 2.8561 -3.0005 0.9756
4.3132 3.2528 -3.0004 0.9756
4.0064 3.6236 -3.0003 0.9756
3.6679 3.9656 -3.0001 0.9756
3.3002 4.2761 -3.0000 0.9756
2.9063 4.5526 -2.9998 0.9756
2.4508 4.7186 -2.9531 0.9760
1.5201 4.9028 -2.8510 0.9768
0.6265 5.0867 -2.8465 0.9768
0.1712 5.1219 -2.8463 0.9768
-0.2853 5.1165 -2.8461 0.9768
-0.7395 5.0705 -2.8459 0.9768
-2.5927 4.7313 -2.9965 0.9756
-3.0046 4.4831 -2.9974 0.9756
-4.3794 3.1521 -2.9968 0.9756
-4.6424 2.7497 -2.9967 0.9756
-5.3097 0.9566 -2.9965 0.9756
-5.1901 0.0000 -2.9965 0.9763
-5.1695 -0.4619 -2.9965 0.9763
-5.1079 -0.9202 -2.9965 0.9763
-4.6836 -2.2372 -2.9967 0.9763
-4.4660 -2.6452 -2.9968 0.9763
-4.2130 -3.0323 -2.9969 0.9763
-3.9266 -3.3954 -2.9970 0.9763
-3.6089 -3.7316 -2.9972 0.9763
-3.2626 -4.0382 -2.9973 0.9763
-2.8904 -4.3128 -2.9975 0.9763
-1.2038 -5.0515 -2.9982 0.9763
-0.7495 -5.1389 -2.9983 0.9763
-0.2891 -5.1856 -2.9985 0.9763
0.1736 -5.1911 -2.9987 0.9763
0.6349 -5.1553 -2.9989 0.9763
1.9747 -4.8053 -2.9995 0.9763
2.3947 -4.6107 -2.9996 0.9763
3.1746 -4.1135 -2.9999 0.9763
3.5283 -3.8148 -3.0001 0.9763
3.8540 -3.4858 -3.0002 0.9763
4.4113 -2.7474 -3.0005 0.9763
4.8288 -1.9219 -3.0006 0.9763
4.9808 -1.4845 -3.0007 0.9763
5.1652 -0.5778 -3.0008 0.9763
5.0421 1.2611 -3.0007 0.9763
4.9097 1.7049 -3.0006 0.9763
4.7384 2.1350 -3.0006 0.9763
4.5294 2.5482 -3.0005 0.9763
4.2845 2.9411 -3.0004 0.9763
3.6948 3.6539 -3.0001 0.9763
3.3548 3.9680 -3.0000 0.9763
2.1863 4.7112 -2.9986 0.9763
1.2496 4.7697 -2.8467 0.9775
-0.0549 4.9295 -2.8462 0.9775
-1.3600 4.7562 -2.8561 0.9774
-1.8256 4.7400 -2.9326 0.9768
-2.2899 4.6599 -2.9977 0.9763
-4.0738 3.2171 -2.9970 0.9763
-4.9398 1.5929 -2.9966 0.9763
-5.0619 1.1469 -2.9966 0.9763
-5.1438 0.6918 -2.9965 0.9763
-5.1850 0.2312 -2.9965 0.9763
-5.1850 -0.2312 -2.9965 0.9763
-5.0619 -1.1469 -2.9966 0.9763
-4.9398 -1.5929 -2.9966 0.9763
-4.7786 -2.0263 -2.9967 0.9763
-4.3438 -2.8416 -2.9969 0.9763
-4.0738 -3.2171 -2.9970 0.9763
-3.0796 -4.1796 -2.9974 0.9763
-1.8662 -4.8455 -2.9979 0.9763
-0.9776 -5.1003 -2.9982 0.9763
-0.5198 -5.1673 -2.9984 0.9763
0.4046 -5.1783 -2.9988 0.9763
0.8640 -5.1220 -2.9990 0.9763
1.3165 -5.0252 -2.9992 0.9763
1.7587 -4.8883 -2.9994 0.9763
2.1869 -4.7127 -2.9995 0.9763
2.5978 -4.4996 -2.9997 0.9763
3.3548 -3.9681 -3.0000 0.9763
3.6948 -3.6539 -3.0002 0.9763
4.0056 -3.3107 -3.0003 0.9763
4.5294 -2.5482 -3.0005 0.9763
4.7384 -2.1350 -3.0006 0.9763
4.9097 -1.7048 -3.0007 0.9763
5.1344 -0.8073 -3.0007 0.9763
5.1859 -0.3471 -3.0008 0.9763
5.1962 0.1158 -3.0008 0.9763
5.1652 0.5778 -3.0008 0.9763
4.9808 1.4844 -3.0007 0.9763
4.8288 1.9218 -3.0006 0.9763
4.6385 2.3439 -3.0005 0.9763
4.4113 2.7474 -3.0004 0.9763
4.1491 3.1290 -3.0003 0.9763
2.7958 4.3795 -2.9998 0.9763
2.3947 4.6107 -2.9996 0.9763
1.0359 4.8205 -2.8467 0.9775
