ply
format ascii 1.0
element vertex 1587
property float32 x
property float32 y
property float32 z
property float32 I
end_header
-6.2833 7.1046 2.6685 0.9614
-6.2829 7.1041 2.4990 0.9615
-6.2824 7.1037 2.3310 0.9617
-6.2820 7.1032 2.1643 0.9618
7.1879 -6.5011 1.8755 0.9613
6.8240 -6.1720 1.6224 0.9633
-6.2808 7.1018 1.6717 0.9622
6.6312 -6.5577 1.6444 0.9628
6.3876 -6.9062 1.4980 0.9626
6.6483 -6.0130 1.4274 0.9643
7.4633 -5.6284 1.4885 0.9628
6.4390 -6.3676 1.4420 0.9640
6.9659 -5.7575 1.4391 0.9641
6.2107 -6.7149 1.3010 0.9637
6.5385 -5.9137 1.2540 0.9650
6.3228 -6.2527 1.2648 0.9647
-6.2796 7.1004 1.1879 0.9625
6.2236 -6.1546 1.0969 0.9653
6.7332 -5.5651 1.0947 0.9654
7.0413 -5.3101 0.9566 0.9651
-6.2792 7.1000 1.0281 0.9626
5.9935 -7.0892 1.0069 0.9633
6.6678 -5.5111 0.9383 0.9658
7.5965 -5.2147 0.9994 0.9636
6.6038 -5.4582 0.7855 0.9662
7.4822 -5.1363 0.8320 0.9642
5.9029 -6.3821 0.6515 0.9657
6.9183 -5.2174 0.6494 0.9658
-6.2784 7.0991 0.7102 0.9627
6.2527 -5.6552 0.4910 0.9668
6.8791 -5.1878 0.5018 0.9661
8.1581 -5.0809 0.5598 0.9622
-6.2780 7.0986 0.5519 0.9627
5.7820 -6.8390 0.5216 0.9648
6.0315 -5.9647 0.4941 0.9666
7.3403 -5.0388 0.5186 0.9650
5.8604 -7.5935 0.3988 0.9623
5.8379 -6.3119 0.3575 0.9662
6.2267 -5.6317 0.3491 0.9669
6.8460 -5.1628 0.3565 0.9663
-6.2776 7.0982 0.3940 0.9628
6.0050 -5.9385 0.3512 0.9668
6.5025 -5.3745 0.3508 0.9668
7.2928 -5.0062 0.3678 0.9652
5.8268 -6.2999 0.2140 0.9662
6.4916 -5.3655 0.2100 0.9669
7.2775 -4.9957 0.2201 0.9653
5.8158 -6.2879 0.0712 0.9663
6.2063 -5.6133 0.0696 0.9671
6.8213 -5.1442 0.0710 0.9664
-6.2768 7.0973 0.0787 0.9628
5.7179 -6.7632 0.0736 0.9652
5.8019 -7.5177 -0.0789 0.9627
6.2059 -5.6129 -0.0695 0.9671
7.9641 -4.9601 -0.0780 0.9632
-6.2764 7.0968 -0.0787 0.9628
5.7176 -6.7627 -0.0736 0.9652
5.9842 -5.9179 -0.0699 0.9669
6.4804 -5.3562 -0.0699 0.9669
7.2617 -4.9848 -0.0732 0.9654
5.8284 -7.5521 -0.2379 0.9625
5.8264 -6.2994 -0.2140 0.9662
6.2160 -5.6221 -0.2090 0.9670
7.9937 -4.9785 -0.2349 0.9630
6.4912 -5.3651 -0.2100 0.9669
5.8576 -7.5899 -0.3986 0.9623
6.2262 -5.6313 -0.3491 0.9669
8.0235 -4.9971 -0.3930 0.9629
5.7435 -6.7934 -0.3699 0.9650
6.0045 -5.9380 -0.3511 0.9668
7.2921 -5.0058 -0.3678 0.9652
5.9850 -7.7550 -0.5705 0.9615
5.8663 -6.3426 -0.5032 0.9660
6.2514 -5.6541 -0.4909 0.9668
8.1520 -5.0771 -0.5594 0.9623
5.7805 -6.8372 -0.5215 0.9648
6.0302 -5.9634 -0.4940 0.9666
6.5291 -5.3964 -0.4934 0.9666
7.3381 -5.0373 -0.5184 0.9650
5.9014 -6.3805 -0.6513 0.9657
6.2836 -5.6832 -0.6349 0.9666
6.9167 -5.2161 -0.6492 0.9658
8.3267 -5.1859 -0.7351 0.9614
-6.2748 7.0950 -0.7098 0.9627
5.8223 -6.8866 -0.6758 0.9645
5.9436 -6.4261 -0.8025 0.9655
6.3186 -5.7149 -0.7811 0.9664
6.0094 -6.4972 -0.9600 0.9650
7.0381 -5.3077 -0.9561 0.9652
-6.2740 7.0941 -1.0272 0.9626
5.9895 -7.0844 -1.0062 0.9634
6.0790 -6.5725 -1.1219 0.9646
7.1247 -5.3730 -1.1183 0.9647
-6.2736 7.0937 -1.1867 0.9625
6.1270 -7.2471 -1.1893 0.9625
6.2209 -6.1520 -1.0964 0.9653
7.2671 -5.4804 -1.2946 0.9639
6.3188 -6.2488 -1.2640 0.9647
6.8329 -5.6476 -1.2609 0.9648
6.3791 -6.8971 -1.4960 0.9627
6.6420 -6.0073 -1.4261 0.9644
7.4520 -5.6198 -1.4862 0.9629
6.4327 -6.3614 -1.4406 0.9640
4.9841 13.8535 -2.8491 0.9418
2.4476 14.5105 -2.8477 0.9418
1.1461 14.6670 -2.8470 0.9418
-1.4718 14.6304 -2.8455 0.9419
-2.7675 14.4376 -2.8448 0.9419
-7.6247 12.5520 -2.8421 0.9419
-8.7098 11.8210 -2.8415 0.9419
-12.2788 8.0324 -2.8394 0.9420
-12.9433 6.9068 -2.8391 0.9420
-13.5051 5.7267 -2.8387 0.9420
5.5969 13.6194 -2.8495 0.9418
3.0920 14.3889 -2.8481 0.9418
1.7986 14.6033 -2.8473 0.9418
-3.4074 14.2982 -2.8444 0.9419
-4.6654 13.9347 -2.8437 0.9419
-8.1754 12.1986 -2.8418 0.9419
-11.1013 9.5997 -2.8401 0.9420
-13.2373 6.3230 -2.8389 0.9420
-13.7462 5.1192 -2.8386 0.9420
-13.6833 -3.7482 -2.9910 0.9437
-12.8039 -6.1159 -2.9915 0.9436
-12.2101 -7.2321 -2.9918 0.9436
-11.5194 -8.2912 -2.9922 0.9436
-9.8698 -10.2053 -2.9931 0.9436
-5.6921 -13.0182 -2.9954 0.9436
-4.5118 -13.4761 -2.9960 0.9436
-3.2952 -13.8274 -2.9967 0.9435
-2.0519 -14.0690 -2.9974 0.9435
-0.7917 -14.1991 -2.9981 0.9435
0.4753 -14.2166 -2.9988 0.9435
1.7392 -14.1212 -2.9995 0.9435
2.9899 -13.9136 -3.0002 0.9435
4.2173 -13.5954 -3.0009 0.9435
6.5639 -12.6378 -3.0022 0.9434
7.6643 -12.0059 -3.0029 0.9434
10.5696 -9.5597 -3.0045 0.9434
11.3803 -8.5823 -3.0050 0.9434
12.1006 -7.5363 -3.0054 0.9434
12.7249 -6.4302 -3.0057 0.9434
13.9750 -2.8405 -3.0064 0.9434
14.1729 -1.5854 -3.0066 0.9434
14.2297 0.9526 -3.0066 0.9434
14.0881 2.2153 -3.0065 0.9434
13.8344 3.4602 -3.0064 0.9434
10.4279 8.6190 -2.8521 0.9462
9.6179 9.5114 -2.8517 0.9462
7.7763 11.0621 -2.8507 0.9462
5.6895 12.2606 -2.8495 0.9462
3.4240 13.0693 -2.8482 0.9463
2.2466 13.3191 -2.8476 0.9463
-0.1504 13.5001 -2.8463 0.9463
-1.3511 13.4299 -2.8456 0.9463
-2.5404 13.2533 -2.8449 0.9463
-4.8478 12.5871 -2.8436 0.9464
-5.9476 12.1031 -2.8430 0.9464
-6.2716 7.0914 -1.9958 0.9620
-9.7900 9.2594 -2.8408 0.9464
-11.2733 7.3747 -2.8400 0.9464
-13.5034 4.3543 -2.9911 0.9437
-14.0600 1.8909 -2.9908 0.9437
-14.1721 0.6320 -2.9907 0.9437
-14.1721 -0.6320 -2.9907 0.9437
-13.5032 -4.3541 -2.9911 0.9437
-13.0631 -5.5392 -2.9913 0.9436
-12.5194 -6.6805 -2.9916 0.9436
-11.8765 -7.7693 -2.9920 0.9436
-11.1394 -8.7967 -2.9924 0.9436
-9.4062 -10.6358 -2.9933 0.9436
-8.4238 -11.4328 -2.9939 0.9436
-7.3742 -12.1396 -2.9945 0.9436
-6.2657 -12.7504 -2.9951 0.9436
-5.1070 -13.2603 -2.9957 0.9436
-3.9075 -13.6653 -2.9964 0.9436
-2.6763 -13.9621 -2.9971 0.9435
-0.1584 -14.2220 -2.9985 0.9435
3.6071 -13.7682 -3.0006 0.9435
4.8193 -13.3956 -3.0013 0.9435
5.9938 -12.9163 -3.0019 0.9435
7.1211 -12.3341 -3.0025 0.9434
9.1988 -10.8804 -3.0037 0.9434
10.1325 -10.0202 -3.0042 0.9434
11.7521 -8.0674 -3.0052 0.9434
12.4251 -6.9902 -3.0055 0.9434
13.8342 -3.4602 -3.0064 0.9434
13.6661 4.0729 -3.0063 0.9434
12.5750 5.0048 -2.8533 0.9462
11.4860 7.1536 -2.8527 0.9462
10.8023 8.1464 -2.8523 0.9462
8.2622 10.7056 -2.8509 0.9462
7.2752 11.3964 -2.8504 0.9462
6.2307 11.9962 -2.8498 0.9462
5.1371 12.5005 -2.8492 0.9463
2.8381 13.2073 -2.8479 0.9463
0.4512 13.4949 -2.8466 0.9463
-1.9477 13.3548 -2.8452 0.9463
-3.1279 13.1254 -2.8446 0.9463
-4.2828 12.7921 -2.8439 0.9463
-5.4031 12.3574 -2.8433 0.9464
-6.4802 11.8249 -2.8427 0.9464
-7.5054 11.1989 -2.8421 0.9464
-9.3686 9.6871 -2.8411 0.9464
-10.1920 8.8134 -2.8406 0.9464
-11.5899 6.8647 -2.8398 0.9464
-12.1535 5.8053 -2.8395 0.9464
-12.8976 4.8031 -2.9015 0.9453
-13.6835 3.7484 -2.9910 0.9437
-13.9621 2.5154 -2.9909 0.9437
-13.1059 0.0000 -2.9913 0.9476
-12.8986 -2.3238 -2.9914 0.9476
-11.8287 -5.6501 -2.9920 0.9476
-10.6418 -7.6594 -2.9927 0.9476
-9.9191 -8.5774 -2.9931 0.9476
-9.1177 -9.4276 -2.9935 0.9476
-8.2437 -10.2034 -2.9940 0.9476
-1.8953 -12.9954 -2.9975 0.9475
0.4390 -13.1313 -2.9988 0.9475
7.0785 -11.0882 -3.0025 0.9475
8.0387 -10.4161 -3.0031 0.9474
8.9354 -9.6608 -3.0036 0.9474
9.7613 -8.8286 -3.0040 0.9474
11.1750 -6.9598 -3.0049 0.9474
11.7514 -5.9382 -3.0052 0.9474
12.2344 -4.8691 -3.0055 0.9474
12.9056 -2.6231 -3.0058 0.9474
13.0883 -1.4641 -3.0060 0.9474
13.1669 -0.2934 -3.0060 0.9474
13.0100 2.0458 -3.0059 0.9474
12.7758 3.1954 -3.0058 0.9474
11.3950 5.1344 -2.8527 0.9500
10.8917 6.1276 -2.8524 0.9500
9.6304 7.9597 -2.8517 0.9500
8.8824 8.7840 -2.8513 0.9500
8.0641 9.5382 -2.8508 0.9500
4.2251 11.7440 -2.8487 0.9501
3.1624 12.0710 -2.8481 0.9501
2.0751 12.3019 -2.8475 0.9501
0.9717 12.4351 -2.8469 0.9501
-1.2479 12.4049 -2.8456 0.9501
-4.4781 11.6271 -2.8438 0.9502
-6.4661 10.6447 -2.8427 0.9502
-7.3865 10.0251 -2.8422 0.9502
-6.2446 7.0608 -2.1514 0.9621
-10.4145 6.8129 -2.8405 0.9502
-11.4550 4.8574 -2.8399 0.9502
-12.4750 4.0227 -2.9917 0.9476
-12.7827 2.8962 -2.9915 0.9476
-13.0929 0.5838 -2.9913 0.9476
-13.0929 -0.5838 -2.9913 0.9476
-12.9892 -1.7469 -2.9914 0.9476
-12.7826 -2.8961 -2.9915 0.9476
-12.4748 -4.0226 -2.9917 0.9476
-10.9718 -7.1774 -2.9925 0.9476
-9.5279 -9.0114 -2.9933 0.9476
-8.6894 -9.8252 -2.9937 0.9476
-6.8120 -11.2141 -2.9948 0.9476
-0.1464 -13.1364 -2.9985 0.9475
1.0237 -13.1001 -2.9991 0.9475
2.1861 -12.9598 -2.9998 0.9475
3.3316 -12.7166 -3.0004 0.9475
4.4511 -12.3721 -3.0011 0.9475
5.5358 -11.9293 -3.0017 0.9475
12.4397 -4.3195 -3.0056 0.9474
12.7756 -3.1954 -3.0058 0.9474
13.0099 -2.0456 -3.0059 0.9474
13.1407 -0.8796 -3.0060 0.9474
13.1669 0.2935 -3.0060 0.9474
13.0884 1.4642 -3.0060 0.9474
12.9057 2.6232 -3.0059 0.9474
11.1544 5.6366 -2.8525 0.9500
10.6074 6.6064 -2.8522 0.9500
9.2656 8.3802 -2.8515 0.9500
8.4816 9.1703 -2.8510 0.9500
7.6305 9.8871 -2.8506 0.9500
6.7190 10.5252 -2.8501 0.9501
5.7545 11.0794 -2.8495 0.9501
2.6213 12.1986 -2.8478 0.9501
1.5248 12.3808 -2.8472 0.9501
-0.6942 12.4496 -2.8459 0.9501
-1.7991 12.3357 -2.8453 0.9501
-3.9561 11.8162 -2.8441 0.9502
-6.9332 10.3452 -2.8424 0.9502
-7.8251 9.6853 -2.8419 0.9502
-10.1013 7.2705 -2.8407 0.9502
-12.2838 4.5746 -2.9918 0.9476
-13.0540 1.1665 -2.9914 0.9476
-11.9794 -2.1581 -2.9919 0.9511
-11.7403 -3.2160 -2.9921 0.9511
-10.4759 -6.2049 -2.9928 0.9511
-7.6558 -9.4756 -2.9943 0.9511
-5.8564 -10.6865 -2.9953 0.9510
-2.8265 -11.8606 -2.9970 0.9510
1.4916 -12.1111 -2.9994 0.9510
3.6168 -11.6594 -3.0006 0.9510
7.4638 -9.6710 -3.0028 0.9509
9.7578 -7.3587 -3.0041 0.9509
11.3587 -4.5206 -3.0050 0.9509
11.7168 -3.4920 -3.0052 0.9509
11.9817 -2.4354 -3.0053 0.9509
12.1514 -1.3593 -3.0054 0.9509
12.2000 0.8167 -3.0055 0.9509
11.8612 2.9667 -3.0053 0.9509
11.5495 4.0104 -3.0051 0.9509
10.1122 5.6890 -2.8519 0.9533
9.5647 6.5658 -2.8516 0.9533
8.9413 7.3902 -2.8513 0.9533
8.2469 8.1556 -2.8509 0.9533
7.4872 8.8560 -2.8505 0.9534
3.9231 10.9045 -2.8485 0.9534
1.9268 11.4229 -2.8474 0.9534
0.9023 11.5468 -2.8468 0.9534
-0.1290 11.5789 -2.8463 0.9534
-1.1588 11.5191 -2.8457 0.9534
-6.0048 9.8853 -2.8430 0.9535
-11.2082 4.7527 -2.9924 0.9511
-11.8717 2.6898 -2.9920 0.9511
-12.0636 1.6224 -2.9919 0.9511
-12.1598 0.5422 -2.9919 0.9511
-12.1598 -0.5422 -2.9919 0.9511
-11.5857 -3.7359 -2.9922 0.9511
-9.5570 -7.5470 -2.9933 0.9511
-8.8485 -8.3688 -2.9937 0.9511
-6.3260 -10.4140 -2.9950 0.9510
-4.3809 -11.3748 -2.9961 0.9510
-1.2208 -12.1352 -2.9979 0.9510
0.9505 -12.1643 -2.9991 0.9510
2.0299 -12.0338 -2.9997 0.9510
4.1330 -11.4878 -3.0009 0.9510
6.1066 -10.5769 -3.0020 0.9509
7.0250 -9.9931 -3.0025 0.9509
7.8878 -9.3297 -3.0030 0.9509
9.4197 -7.7856 -3.0039 0.9509
10.6534 -5.9935 -3.0046 0.9509
11.1456 -5.0219 -3.0048 0.9509
11.8611 -2.9666 -3.0053 0.9509
12.0786 -1.8992 -3.0054 0.9509
12.2243 0.2724 -3.0055 0.9509
12.1514 1.3594 -3.0054 0.9509
11.9819 2.4354 -3.0054 0.9509
11.7170 3.4921 -3.0052 0.9509
10.3561 5.2332 -2.8521 0.9533
9.8483 6.1336 -2.8518 0.9533
8.6027 7.7807 -2.8511 0.9533
3.4331 11.0674 -2.8482 0.9534
2.4340 11.3269 -2.8477 0.9534
-1.6706 11.4549 -2.8454 0.9534
-2.6830 11.2585 -2.8448 0.9534
-3.6737 10.9729 -2.8443 0.9535
-4.6349 10.6004 -2.8437 0.9535
-7.2670 8.9945 -2.8422 0.9535
-8.7440 7.5613 -2.8414 0.9535
-9.3811 6.7522 -2.8410 0.9535
-9.9437 5.8897 -2.8407 0.9535
-10.4275 4.9808 -2.8405 0.9535
-11.4083 4.2485 -2.9923 0.9511
-11.7404 3.2161 -2.9921 0.9511
-11.9795 2.1582 -2.9920 0.9511
-11.3560 0.0000 -2.9923 0.9541
-9.7735 -5.7888 -2.9932 0.9541
-7.8996 -8.1680 -2.9942 0.9541
-7.1422 -8.8400 -2.9946 0.9541
-6.3280 -9.4420 -2.9951 0.9541
-5.4634 -9.9693 -2.9955 0.9541
-4.5551 -10.4178 -2.9960 0.9541
-2.6368 -11.0643 -2.9971 0.9540
0.3803 -11.3742 -2.9988 0.9540
1.3914 -11.2973 -2.9994 0.9540
4.3291 -10.5341 -3.0010 0.9540
5.2504 -10.1088 -3.0015 0.9540
6.1303 -9.6029 -3.0020 0.9540
7.7381 -8.3663 -3.0029 0.9540
8.4532 -7.6454 -3.0033 0.9539
9.6771 -6.0269 -3.0040 0.9539
10.9281 -3.2569 -3.0047 0.9539
11.2656 1.7715 -3.0050 0.9539
11.0628 2.7670 -3.0048 0.9539
10.7721 3.7405 -3.0047 0.9539
9.4317 5.3062 -2.8516 0.9562
8.3397 6.8930 -2.8510 0.9562
6.9836 8.2602 -2.8502 0.9562
6.2197 8.8477 -2.8498 0.9562
5.4067 9.3647 -2.8493 0.9563
4.5510 9.8071 -2.8489 0.9563
2.7391 10.4549 -2.8478 0.9563
1.7973 10.6553 -2.8473 0.9563
0.8417 10.7709 -2.8468 0.9563
-0.1203 10.8011 -2.8463 0.9563
-1.0810 10.7455 -2.8457 0.9563
-2.0327 10.6046 -2.8452 0.9563
-2.9680 10.3797 -2.8447 0.9563
-3.8793 10.0725 -2.8441 0.9563
-4.7596 9.6856 -2.8437 0.9563
-6.1792 6.9870 -2.4578 0.9622
-7.8357 7.4110 -2.8419 0.9564
-8.4632 6.6834 -2.8416 0.9564
-9.5121 5.0758 -2.8410 0.9564
-10.4567 4.4341 -2.9928 0.9541
-10.8092 3.4855 -2.9926 0.9541
-11.0759 2.5095 -2.9925 0.9541
-11.2549 1.5137 -2.9924 0.9541
-11.3447 0.5059 -2.9923 0.9541
-11.3447 -0.5058 -2.9923 0.9541
-11.0758 -2.5094 -2.9924 0.9541
-10.4565 -4.4339 -2.9928 0.9541
-10.0212 -5.3474 -2.9930 0.9541
-8.9161 -7.0409 -2.9936 0.9541
-8.2550 -7.8075 -2.9940 0.9541
-5.9016 -9.7153 -2.9953 0.9541
-5.0143 -10.2037 -2.9958 0.9541
-4.0869 -10.6113 -2.9963 0.9541
-3.1267 -10.9349 -2.9968 0.9540
-2.1415 -11.1719 -2.9974 0.9540
-1.1388 -11.3202 -2.9979 0.9540
-0.1268 -11.3788 -2.9985 0.9540
0.8867 -11.3471 -2.9991 0.9540
1.8935 -11.2252 -2.9996 0.9540
2.8856 -11.0142 -3.0002 0.9540
3.8552 -10.7156 -3.0007 0.9540
5.6960 -9.8657 -3.0018 0.9540
6.5525 -9.3210 -3.0023 0.9540
8.7860 -7.2617 -3.0035 0.9539
9.3985 -6.4517 -3.0039 0.9539
10.3955 -4.6840 -3.0044 0.9539
11.0627 -2.7669 -3.0048 0.9539
11.2655 -1.7714 -3.0049 0.9539
11.4014 0.2541 -3.0050 0.9539
11.1753 2.2715 -3.0049 0.9539
10.9283 3.2570 -3.0048 0.9539
9.6591 4.8810 -2.8517 0.9562
8.6390 6.5150 -2.8511 0.9562
8.0239 7.2572 -2.8508 0.9562
7.3451 7.9415 -2.8504 0.9562
6.6082 8.5625 -2.8500 0.9562
5.8190 9.1153 -2.8496 0.9563
4.9838 9.5955 -2.8491 0.9563
1.3208 10.7238 -2.8471 0.9563
-0.6013 10.7840 -2.8460 0.9563
-1.5585 10.6856 -2.8454 0.9563
-2.5029 10.5026 -2.8449 0.9563
-3.4271 10.2362 -2.8444 0.9563
-5.1859 9.4631 -2.8434 0.9563
-6.0066 8.9625 -2.8429 0.9564
-6.7795 8.3911 -2.8425 0.9564
-7.4983 7.7533 -2.8421 0.9564
-8.7520 6.2994 -2.8414 0.9564
-9.2770 5.4948 -2.8411 0.9564
-10.9534 3.0005 -2.9925 0.9541
-9.5998 -4.5854 -2.9933 0.9568
-8.6362 -6.2159 -2.9938 0.9567
-5.9268 -8.8435 -2.9953 0.9567
-3.3815 -10.0998 -2.9967 0.9567
-1.5377 -10.5430 -2.9977 0.9567
0.3561 -10.6523 -2.9988 0.9567
3.1594 -10.1851 -3.0003 0.9567
4.0541 -9.8651 -3.0009 0.9566
4.9169 -9.4666 -3.0013 0.9566
5.7408 -8.9928 -3.0018 0.9566
6.5194 -8.4474 -3.0022 0.9566
7.2464 -7.8347 -3.0026 0.9566
8.5227 -6.4273 -3.0034 0.9566
10.4646 -2.1270 -3.0045 0.9566
10.6764 -0.2379 -3.0046 0.9566
10.3594 2.5911 -3.0045 0.9566
10.0871 3.5027 -3.0043 0.9566
8.8320 4.9688 -2.8512 0.9588
8.3540 5.7347 -2.8510 0.9588
7.8096 6.4548 -2.8507 0.9588
5.8245 8.2855 -2.8496 0.9588
5.0632 8.7698 -2.8491 0.9588
4.2619 9.1842 -2.8487 0.9588
3.4270 9.5255 -2.8482 0.9588
1.6832 9.9788 -2.8473 0.9588
0.7882 10.0873 -2.8468 0.9588
-0.1127 10.1156 -2.8463 0.9588
-2.7797 9.7213 -2.8448 0.9589
-3.6333 9.4337 -2.8443 0.9589
-5.9938 8.1348 -2.8430 0.9589
-7.3392 6.9414 -2.8422 0.9589
-7.9269 6.2599 -2.8419 0.9589
-8.4517 5.5289 -2.8416 0.9589
-8.9837 4.7938 -2.8650 0.9586
-9.7943 4.1532 -2.9932 0.9568
-10.5420 1.4178 -2.9928 0.9568
-10.6262 0.4738 -2.9927 0.9568
-10.6262 -0.4738 -2.9927 0.9568
-10.5420 -1.4177 -2.9927 0.9568
-10.1243 -3.2646 -2.9930 0.9568
-9.7941 -4.1530 -2.9931 0.9568
-8.9041 -5.8247 -2.9936 0.9568
-8.3511 -6.5948 -2.9939 0.9567
-7.7319 -7.3128 -2.9943 0.9567
-7.0512 -7.9729 -2.9947 0.9567
-6.3145 -8.5701 -2.9951 0.9567
-5.5274 -9.0994 -2.9955 0.9567
-3.8277 -9.9383 -2.9964 0.9567
-2.9284 -10.2413 -2.9969 0.9567
-0.1187 -10.6567 -2.9985 0.9567
4.4899 -9.6755 -3.0011 0.9566
5.3341 -9.2389 -3.0016 0.9566
7.5887 -7.5046 -3.0028 0.9566
9.7345 -4.3861 -3.0041 0.9566
10.3592 -2.5910 -3.0044 0.9566
10.6764 0.2379 -3.0046 0.9566
10.4647 2.1271 -3.0045 0.9566
9.9208 3.9484 -3.0042 0.9566
8.0898 6.1009 -2.8508 0.9588
6.8783 7.4368 -2.8501 0.9588
6.1883 8.0184 -2.8498 0.9588
3.8482 9.3642 -2.8485 0.9588
-0.5631 10.0996 -2.8460 0.9588
-4.8571 8.8631 -2.8436 0.9589
-6.3497 7.8592 -2.8428 0.9589
-8.1975 5.9002 -2.8417 0.9589
-8.6892 5.1467 -2.8414 0.9589
-9.5999 4.5855 -2.9933 0.9568
-9.9693 3.7126 -2.9931 0.9568
-10.2596 2.8104 -2.9929 0.9568
-10.4686 1.8860 -2.9928 0.9568
-9.9975 0.0000 -2.9931 0.9591
-9.9579 -0.8898 -2.9931 0.9591
-9.3700 -3.4894 -2.9934 0.9591
-8.6040 -5.0962 -2.9938 0.9591
-8.1170 -5.8422 -2.9941 0.9591
-7.5656 -6.5422 -2.9944 0.9591
-6.9540 -7.1904 -2.9947 0.9591
-4.8092 -8.7757 -2.9959 0.9591
-4.0096 -9.1702 -2.9964 0.9591
-3.1780 -9.4922 -2.9968 0.9591
-2.3209 -9.7389 -2.9973 0.9591
-1.4451 -9.9084 -2.9978 0.9591
-0.5576 -9.9994 -2.9983 0.9590
0.3347 -10.0110 -2.9988 0.9590
1.2246 -9.9431 -2.9993 0.9590
2.9691 -9.5715 -3.0002 0.9590
3.8099 -9.2708 -3.0007 0.9590
4.6206 -8.8962 -3.0012 0.9590
5.3949 -8.4509 -3.0016 0.9590
6.1265 -7.9383 -3.0020 0.9590
6.8096 -7.3624 -3.0024 0.9590
7.4387 -6.7279 -3.0028 0.9590
8.5155 -5.3035 -3.0034 0.9590
9.3223 -3.7102 -3.0038 0.9590
9.9726 -1.1156 -3.0042 0.9590
10.0324 -0.2235 -3.0043 0.9590
9.7345 2.4348 -3.0041 0.9590
9.4788 3.2914 -3.0040 0.9590
7.8502 5.3889 -2.8507 0.9610
7.3387 6.0656 -2.8504 0.9610
5.4735 7.7862 -2.8494 0.9610
4.0051 8.6308 -2.8485 0.9611
2.4106 9.2013 -2.8477 0.9611
-0.1059 9.5066 -2.8463 0.9611
-0.9515 9.4579 -2.8458 0.9611
-1.7892 9.3341 -2.8453 0.9611
-4.9311 8.1178 -2.8435 0.9611
-5.6333 7.6456 -2.8431 0.9611
-6.1422 6.9452 -2.7757 0.9620
-6.8979 6.5240 -2.8424 0.9611
-7.9437 5.1965 -2.8418 0.9611
-8.8223 4.7078 -2.9937 0.9591
-9.2057 3.9036 -2.9935 0.9591
-9.9876 0.4454 -2.9931 0.9591
-9.5159 -3.0684 -2.9933 0.9591
-9.2055 -3.9035 -2.9935 0.9591
-7.2670 -6.8731 -2.9945 0.9591
-5.9347 -8.0546 -2.9953 0.9591
-4.4138 -8.9818 -2.9961 0.9591
-3.5974 -9.3404 -2.9966 0.9591
-1.8849 -9.8334 -2.9975 0.9591
-1.0024 -9.9638 -2.9980 0.9590
-0.1116 -10.0151 -2.9985 0.9590
1.6665 -9.8795 -2.9995 0.9590
3.3928 -9.4305 -3.0005 0.9590
5.7664 -8.2027 -3.0018 0.9590
6.4744 -7.6579 -3.0022 0.9590
7.7315 -6.3902 -3.0029 0.9590
8.2704 -5.6773 -3.0032 0.9590
9.4786 -3.2913 -3.0039 0.9590
9.9129 -1.5587 -3.0042 0.9590
9.9726 1.1156 -3.0042 0.9590
9.6162 2.8660 -3.0040 0.9590
12.6874 6.4112 -4.2558 0.9424
7.0609 6.3862 -2.8502 0.9610
6.4637 6.9885 -2.8499 0.9610
4.3859 8.4445 -2.8488 0.9610
1.1624 9.4382 -2.8470 0.9611
0.3177 9.5027 -2.8465 0.9611
-0.5292 9.4916 -2.8460 0.9611
-1.3717 9.4053 -2.8455 0.9611
-4.5649 8.3300 -2.8438 0.9611
-5.2875 7.8895 -2.8433 0.9611
-7.1813 6.2099 -2.8423 0.9611
-7.7047 5.5455 -2.8420 0.9611
-8.1669 4.8373 -2.8417 0.9611
-9.6430 2.6415 -2.9933 0.9591
-9.8395 1.7727 -2.9932 0.9591
-9.9579 0.8899 -2.9931 0.9591
-8.1116 -4.8045 -2.9941 0.9612
-5.2514 -7.8356 -2.9957 0.9612
-4.5338 -8.2730 -2.9961 0.9612
-3.7799 -8.6449 -2.9965 0.9612
-1.3623 -9.3406 -2.9978 0.9612
0.3155 -9.4371 -2.9988 0.9611
1.1544 -9.3730 -2.9992 0.9611
1.9844 -9.2345 -2.9997 0.9611
2.7989 -9.0226 -3.0002 0.9611
5.0853 -7.9660 -3.0014 0.9611
5.7749 -7.4828 -3.0018 0.9611
6.4188 -6.9399 -3.0022 0.9611
7.5492 -5.6931 -3.0028 0.9611
8.4404 -4.2651 -3.0033 0.9611
8.7871 -3.4971 -3.0035 0.9611
9.3999 -1.0515 -3.0039 0.9611
9.3437 1.4693 -3.0039 0.9611
8.9345 3.1024 -3.0037 0.9611
8.2419 4.6368 -3.0033 0.9611
6.9175 5.7175 -2.8502 0.9630
5.1594 7.3394 -2.8492 0.9630
3.7754 8.1357 -2.8484 0.9631
3.0358 8.4382 -2.8480 0.9631
2.2724 8.6737 -2.8476 0.9631
1.4911 8.8401 -2.8471 0.9631
-3.9497 8.0374 -2.8441 0.9631
-5.3107 7.2078 -2.8433 0.9631
-7.4890 4.8991 -2.8421 0.9631
-8.3174 4.4383 -2.9940 0.9612
-9.3415 1.2563 -2.9934 0.9612
-9.4161 -0.4199 -2.9934 0.9612
-9.1928 -2.0828 -2.9935 0.9612
-8.3173 -4.4382 -2.9940 0.9612
-7.8898 -5.1613 -2.9942 0.9612
-4.1610 -8.4674 -2.9963 0.9612
-3.3913 -8.8054 -2.9967 0.9612
-1.7769 -9.2699 -2.9976 0.9612
-0.9449 -9.3928 -2.9981 0.9612
-0.1052 -9.4411 -2.9985 0.9611
1.5709 -9.3130 -2.9995 0.9611
2.3940 -9.1377 -2.9999 0.9611
3.1982 -8.8897 -3.0004 0.9611
3.9774 -8.5710 -3.0008 0.9611
5.4355 -7.7321 -3.0016 0.9611
6.7219 -6.6475 -3.0024 0.9611
7.2877 -6.0234 -3.0027 0.9611
7.7956 -5.3514 -3.0030 0.9611
8.2417 -4.6367 -3.0032 0.9611
9.1755 -2.2949 -3.0038 0.9611
9.3436 -1.4692 -3.0039 0.9611
9.4375 -0.6318 -3.0039 0.9611
9.4563 0.2107 -3.0039 0.9611
9.4000 1.0516 -3.0039 0.9611
9.2689 1.8840 -3.0038 0.9611
9.0641 2.7014 -3.0037 0.9611
5.4816 7.1027 -2.8494 0.9630
4.8270 7.5615 -2.8490 0.9631
4.1343 7.9600 -2.8486 0.9631
2.6567 8.5645 -2.8478 0.9631
1.8836 8.7656 -2.8474 0.9631
1.0958 8.8971 -2.8469 0.9631
0.2995 8.9579 -2.8465 0.9631
-0.4989 8.9476 -2.8460 0.9631
-1.2931 8.8663 -2.8456 0.9631
-2.0768 8.7147 -2.8451 0.9631
-3.5880 8.2059 -2.8443 0.9631
-4.3035 7.8529 -2.8439 0.9631
-4.9847 7.4377 -2.8435 0.9631
-6.2229 6.4345 -2.8428 0.9631
-6.7702 5.8545 -2.8425 0.9631
-7.2637 5.2281 -2.8422 0.9631
-8.5066 4.0633 -2.9939 0.9612
-9.2764 1.6712 -2.9935 0.9612
-9.3881 0.8389 -2.9934 0.9612
-8.9102 0.0000 -2.9937 0.9631
-8.8749 -0.7930 -2.9937 0.9631
-7.6681 -4.5418 -2.9943 0.9631
-6.7424 -5.8304 -2.9948 0.9631
-4.9641 -7.4070 -2.9958 0.9631
-3.5731 -8.1719 -2.9966 0.9631
-2.8320 -8.4587 -2.9970 0.9631
-2.0682 -8.6783 -2.9974 0.9631
-1.2877 -8.8293 -2.9979 0.9630
1.0912 -8.8597 -2.9992 0.9630
1.8757 -8.7287 -2.9996 0.9630
3.3946 -8.2602 -3.0005 0.9630
4.8066 -7.5294 -3.0013 0.9630
6.6274 -5.9941 -3.0023 0.9630
8.3052 -3.3054 -3.0033 0.9630
8.7604 -1.7806 -3.0035 0.9630
8.9377 -0.1992 -3.0036 0.9630
8.9199 0.5971 -3.0036 0.9630
8.8312 1.3887 -3.0036 0.9630
8.6723 2.1691 -3.0035 0.9630
8.1496 3.6721 -3.0032 0.9630
6.5382 5.4040 -2.8499 0.9648
6.0307 5.9639 -2.8497 0.9648
4.8766 6.9371 -2.8490 0.9649
4.2393 7.3427 -2.8487 0.9649
3.5685 7.6899 -2.8483 0.9649
2.1479 8.1985 -2.8475 0.9649
1.4095 8.3559 -2.8471 0.9649
-3.0429 7.9008 -2.8446 0.9649
-3.7336 7.5976 -2.8442 0.9649
-4.3944 7.2342 -2.8438 0.9649
-5.6061 6.3389 -2.8432 0.9649
-6.6398 5.2434 -2.8426 0.9649
-7.8626 4.1956 -2.9943 0.9631
-8.8308 -1.1876 -2.9937 0.9631
-8.4809 -2.7347 -2.9939 0.9631
-8.2042 -3.4788 -2.9940 0.9631
-7.4584 -4.8790 -2.9945 0.9631
-6.9951 -5.5240 -2.9947 0.9631
-6.4763 -6.1252 -2.9950 0.9631
-5.9061 -6.6780 -2.9953 0.9631
-5.2888 -7.1781 -2.9956 0.9631
-3.9333 -8.0040 -2.9964 0.9631
1.4849 -8.8029 -2.9994 0.9630
2.2628 -8.6371 -2.9999 0.9630
3.0230 -8.4026 -3.0003 0.9630
5.1376 -7.3083 -3.0015 0.9630
6.8881 -5.6932 -3.0025 0.9630
7.3682 -5.0579 -3.0027 0.9630
8.8312 -1.3886 -3.0036 0.9630
8.9199 -0.5971 -3.0036 0.9630
8.3053 3.3054 -3.0033 0.9630
7.9777 4.0313 -3.0031 0.9630
6.7728 5.1076 -2.8501 0.9648
4.5625 7.1471 -2.8488 0.9649
3.9078 7.5238 -2.8485 0.9649
3.2222 7.8407 -2.8481 0.9649
-2.6881 8.0291 -2.8448 0.9649
-3.3916 7.7569 -2.8444 0.9649
-4.0680 7.4233 -2.8440 0.9649
-5.3184 6.5827 -2.8433 0.9649
-5.8826 6.0826 -2.8430 0.9649
-6.3999 5.5343 -2.8427 0.9649
-7.6682 4.5419 -2.9944 0.9631
-8.5942 2.3542 -2.9939 0.9631
-8.7693 1.5799 -2.9938 0.9631
-8.4435 0.0000 -2.9939 0.9648
-7.9133 -2.9469 -2.9942 0.9648
-7.6200 -3.6397 -2.9944 0.9648
-6.8549 -4.9338 -2.9948 0.9648
-4.7039 -7.0187 -2.9960 0.9648
-3.3858 -7.7434 -2.9967 0.9648
-1.9597 -8.2232 -2.9975 0.9648
0.2826 -8.4523 -2.9988 0.9647
1.0339 -8.3948 -2.9992 0.9647
3.2164 -7.8265 -3.0004 0.9647
3.9007 -7.5101 -3.0008 0.9647
4.5542 -7.1341 -3.0011 0.9647
5.1717 -6.7012 -3.0015 0.9647
6.7604 -5.0982 -3.0024 0.9647
7.1879 -4.4766 -3.0026 0.9647
8.3001 -1.6870 -3.0033 0.9647
8.4680 -0.1887 -3.0034 0.9647
8.4512 0.5658 -3.0034 0.9647
8.2166 2.0551 -3.0033 0.9647
8.0008 2.7782 -3.0031 0.9647
7.7214 3.4791 -3.0030 0.9647
7.3806 4.1523 -3.0028 0.9647
6.8651 4.7126 -2.9526 0.9653
4.6205 6.5729 -2.8489 0.9665
3.3811 7.2862 -2.8482 0.9665
2.7188 7.5572 -2.8478 0.9665
2.0352 7.7682 -2.8474 0.9665
1.3355 7.9174 -2.8470 0.9665
-0.8033 7.9855 -2.8459 0.9665
-1.5107 7.8813 -2.8455 0.9665
-2.2059 7.7145 -2.8451 0.9665
-2.8834 7.4865 -2.8447 0.9665
-3.5378 7.1992 -2.8443 0.9665
-4.7570 6.4563 -2.8436 0.9665
-5.3122 6.0067 -2.8433 0.9665
-6.2918 4.9686 -2.8428 0.9665
-7.0677 4.6236 -2.9947 0.9648
-7.4507 3.9758 -2.9945 0.9648
-8.2351 1.8659 -2.9941 0.9648
-8.4351 0.3762 -2.9939 0.9648
-8.0366 -2.5914 -2.9941 0.9648
-7.4505 -3.9757 -2.9945 0.9648
-7.0676 -4.6234 -2.9947 0.9648
-6.1369 -5.8042 -2.9952 0.9648
-5.5965 -6.3280 -2.9955 0.9648
-3.7271 -7.5844 -2.9965 0.9648
0.6589 -8.4319 -2.9990 0.9647
1.4069 -8.3410 -2.9994 0.9647
4.2316 -7.3294 -3.0010 0.9647
7.7213 -3.4790 -3.0029 0.9647
8.3671 -1.3156 -3.0033 0.9647
8.4511 -0.5657 -3.0034 0.9647
8.4175 0.9416 -3.0034 0.9647
8.1168 2.4191 -3.0032 0.9647
7.8689 3.1318 -3.0031 0.9647
7.5585 3.8195 -3.0029 0.9647
7.1881 4.4768 -3.0027 0.9647
5.9602 5.3907 -2.8496 0.9665
5.4563 5.8993 -2.8493 0.9665
4.3229 6.7717 -2.8487 0.9665
0.9814 7.9685 -2.8468 0.9665
-0.4469 8.0140 -2.8461 0.9665
-1.1582 7.9413 -2.8457 0.9665
-1.8602 7.8056 -2.8453 0.9665
-2.5472 7.6080 -2.8449 0.9665
-3.2138 7.3502 -2.8445 0.9665
-4.4650 6.6622 -2.8438 0.9665
-5.0397 6.2377 -2.8435 0.9665
-5.5742 5.7638 -2.8432 0.9665
-6.0645 5.2442 -2.8429 0.9665
-7.2664 4.3040 -2.9946 0.9648
-7.6201 3.6399 -2.9944 0.9648
-8.1439 2.2309 -2.9941 0.9648
-8.3099 1.4971 -2.9940 0.9648
-7.9866 -0.7137 -2.9942 0.9663
-7.5149 -2.7986 -2.9944 0.9663
-6.9004 -4.0871 -2.9948 0.9663
-6.5097 -4.6854 -2.9950 0.9663
-6.0674 -5.2466 -2.9952 0.9663
-5.0419 -6.2405 -2.9958 0.9663
-1.1587 -7.9445 -2.9980 0.9663
3.0541 -7.4317 -3.0003 0.9663
4.3245 -6.7741 -3.0010 0.9663
4.9108 -6.3630 -3.0014 0.9663
6.8251 -4.2507 -3.0024 0.9663
7.7069 -2.2969 -3.0029 0.9662
7.9925 -0.8941 -3.0031 0.9662
8.0245 0.5372 -3.0031 0.9662
7.8018 1.9514 -3.0030 0.9662
7.3316 3.3035 -3.0028 0.9662
5.4256 5.3654 -2.8493 0.9679
4.9260 5.8265 -2.8490 0.9679
4.3874 6.2412 -2.8487 0.9680
3.2106 6.9186 -2.8481 0.9680
1.2681 7.5182 -2.8470 0.9680
-0.0849 7.6219 -2.8463 0.9680
-0.7629 7.5830 -2.8459 0.9680
-1.4346 7.4841 -2.8455 0.9680
-3.3596 6.8366 -2.8444 0.9680
-3.9543 6.5096 -2.8441 0.9680
-5.0447 5.7041 -2.8435 0.9680
-6.0519 4.7791 -2.8795 0.9676
-6.7119 4.3908 -2.9949 0.9663
-7.0755 3.7757 -2.9947 0.9663
-7.3831 3.1307 -2.9945 0.9663
-7.6321 2.4610 -2.9944 0.9663
-7.9470 1.0688 -2.9942 0.9663
-7.0754 -3.7755 -2.9947 0.9663
-6.7118 -4.3906 -2.9949 0.9663
-6.2948 -4.9709 -2.9951 0.9663
-5.8279 -5.5120 -2.9954 0.9663
-4.7592 -6.4592 -2.9959 0.9663
-2.8846 -7.4897 -2.9970 0.9663
-2.2068 -7.7176 -2.9974 0.9663
-1.5113 -7.8845 -2.9978 0.9663
0.6257 -8.0068 -2.9989 0.9663
2.7199 -7.5600 -3.0001 0.9663
4.6222 -6.5751 -3.0012 0.9663
5.1896 -6.1383 -3.0015 0.9663
5.7159 -5.6526 -3.0018 0.9663
6.1969 -5.1219 -3.0021 0.9663
7.3315 -3.3034 -3.0027 0.9662
7.8017 -1.9513 -3.0030 0.9662
8.0245 -0.5371 -3.0031 0.9662
8.0405 0.1792 -3.0031 0.9662
7.8811 1.6019 -3.0031 0.9662
7.1770 3.6267 -3.0027 0.9662
6.2585 4.7198 -2.9271 0.9671
5.1809 5.6016 -2.8492 0.9679
4.1048 6.4301 -2.8486 0.9680
2.8990 7.0544 -2.8479 0.9680
2.2593 7.2835 -2.8476 0.9680
0.2547 7.6186 -2.8464 0.9680
-1.7664 7.4122 -2.8453 0.9680
-2.4188 7.2246 -2.8449 0.9680
-3.0519 6.9798 -2.8446 0.9680
-3.6606 6.6797 -2.8442 0.9680
-4.2401 6.3267 -2.8439 0.9680
-4.7858 5.9235 -2.8436 0.9680
-5.2935 5.4735 -2.8433 0.9680
-7.2365 3.4566 -2.9946 0.9663
-7.5150 2.7987 -2.9945 0.9663
-7.7340 2.1186 -2.9943 0.9663
-7.5993 -0.6790 -2.9944 0.9677
-7.5088 -1.3528 -2.9944 0.9677
-7.1505 -2.6628 -2.9946 0.9677
-6.5657 -3.8889 -2.9950 0.9677
-6.1940 -4.4581 -2.9952 0.9677
-5.7730 -4.9921 -2.9954 0.9677
-5.3063 -5.4866 -2.9956 0.9677
-4.7973 -5.9377 -2.9959 0.9677
-4.2502 -6.3417 -2.9962 0.9677
-3.6693 -6.6956 -2.9966 0.9677
-2.4246 -7.2418 -2.9972 0.9677
-1.7706 -7.4297 -2.9976 0.9677
-1.1024 -7.5587 -2.9980 0.9677
-0.4253 -7.6278 -2.9984 0.9677
0.9341 -7.5843 -2.9991 0.9677
4.1143 -6.4449 -3.0009 0.9677
6.8279 -3.4502 -3.0024 0.9677
7.1082 -2.8290 -3.0026 0.9677
7.4978 -1.5239 -3.0028 0.9677
7.6494 -0.1705 -3.0029 0.9677
7.5583 1.1885 -3.0029 0.9677
7.4224 1.8565 -3.0028 0.9677
6.9751 3.1429 -3.0026 0.9677
6.6673 3.7510 -3.0024 0.9677
4.6865 5.5433 -2.8489 0.9693
4.1741 5.9379 -2.8486 0.9693
3.6287 6.2851 -2.8483 0.9693
3.0545 6.5824 -2.8480 0.9693
2.4563 6.8274 -2.8477 0.9693
1.8386 7.0180 -2.8473 0.9693
1.2065 7.1530 -2.8470 0.9693
-0.0808 7.2517 -2.8463 0.9693
-1.3649 7.1207 -2.8455 0.9693
-2.6052 6.7642 -2.8448 0.9693
-3.1965 6.5048 -2.8445 0.9693
-4.2982 5.8336 -2.8439 0.9693
-4.7999 5.4274 -2.8436 0.9693
-5.9896 4.7299 -2.9953 0.9677
-6.7324 3.5925 -2.9949 0.9677
-7.4412 -1.6859 -2.9945 0.9677
-7.2619 -2.3416 -2.9946 0.9677
-6.7323 -3.5924 -2.9949 0.9677
-6.3862 -4.1776 -2.9951 0.9677
-5.9895 -4.7298 -2.9953 0.9677
-5.5452 -5.2446 -2.9955 0.9677
-4.5283 -6.1458 -2.9961 0.9677
-3.3676 -6.8528 -2.9967 0.9677
-1.4380 -7.5017 -2.9978 0.9677
-0.0851 -7.6397 -2.9986 0.9677
0.5953 -7.6179 -2.9989 0.9677
1.9370 -7.3935 -2.9997 0.9677
2.5877 -7.1926 -3.0000 0.9677
3.2180 -6.9346 -3.0004 0.9677
3.8229 -6.6214 -3.0007 0.9677
4.3975 -6.2555 -3.0011 0.9677
4.9374 -5.8399 -3.0014 0.9677
6.3064 -4.3291 -3.0021 0.9677
6.9750 -3.1427 -3.0025 0.9677
7.2274 -2.5096 -3.0027 0.9677
7.4223 -1.8564 -3.0028 0.9677
7.5583 -1.1885 -3.0029 0.9677
7.3322 2.1852 -3.0028 0.9677
6.4934 4.0441 -3.0023 0.9677
6.1072 4.6057 -3.0021 0.9677
3.9053 6.1175 -2.8485 0.9693
0.8867 7.1991 -2.8468 0.9693
-0.4037 7.2404 -2.8461 0.9693
-2.3014 6.8740 -2.8450 0.9693
-2.9037 6.6411 -2.8447 0.9693
-3.4829 6.3555 -2.8443 0.9693
-4.0343 6.0197 -2.8440 0.9693
-4.5536 5.6361 -2.8437 0.9693
-6.1941 4.4583 -2.9952 0.9677
-6.8855 3.2890 -2.9948 0.9677
-7.5089 1.3528 -2.9945 0.9677
-7.2723 0.0000 -2.9946 0.9690
-7.2434 -0.6472 -2.9946 0.9690
-6.8156 -2.5381 -2.9948 0.9690
-6.5629 -3.1348 -2.9950 0.9690
-6.2582 -3.7067 -2.9951 0.9690
-5.9038 -4.2493 -2.9953 0.9690
-4.5725 -5.6595 -2.9961 0.9690
-4.0511 -6.0446 -2.9963 0.9690
-3.4973 -6.3818 -2.9967 0.9690
-2.9158 -6.6685 -2.9970 0.9690
-2.3109 -6.9023 -2.9973 0.9690
-1.6876 -7.0814 -2.9977 0.9690
1.5303 -7.1215 -2.9995 0.9690
2.1584 -6.9579 -2.9998 0.9690
3.3586 -6.4664 -3.0005 0.9690
3.9212 -6.1425 -3.0008 0.9690
4.9491 -5.3509 -3.0014 0.9690
5.8204 -4.3893 -3.0019 0.9690
6.9879 -2.0826 -3.0025 0.9689
7.1457 -1.4524 -3.0026 0.9689
7.2468 -0.8106 -3.0027 0.9689
7.2902 -0.1624 -3.0027 0.9689
7.2034 1.1327 -3.0027 0.9689
7.0739 1.7693 -3.0026 0.9689
6.6476 2.9953 -3.0024 0.9690
6.3543 3.5749 -3.0022 0.9690
4.9195 4.8650 -2.8490 0.9705
4.4666 5.2831 -2.8488 0.9705
2.3410 6.5070 -2.8476 0.9705
1.1500 6.8174 -2.8469 0.9705
0.5385 6.8919 -2.8466 0.9705
-0.0770 6.9116 -2.8463 0.9705
-0.6918 6.8765 -2.8459 0.9705
-1.3009 6.7869 -2.8456 0.9705
-3.5860 5.9035 -2.8443 0.9706
-5.7090 4.5084 -2.9955 0.9690
-6.0872 3.9821 -2.9953 0.9690
-6.4170 3.4243 -2.9951 0.9690
-6.9218 2.2320 -2.9948 0.9690
-7.0928 1.6071 -2.9947 0.9690
-7.2075 0.9693 -2.9946 0.9690
-7.2075 -0.9693 -2.9946 0.9690
-7.0927 -1.6070 -2.9947 0.9690
-6.6959 -2.8393 -2.9949 0.9690
-4.3161 -5.8578 -2.9962 0.9690
-3.7780 -6.2193 -2.9965 0.9690
-3.2097 -6.5316 -2.9968 0.9690
-2.6159 -6.7921 -2.9971 0.9690
-2.0013 -6.9987 -2.9975 0.9690
-1.3705 -7.1500 -2.9978 0.9690
0.5674 -7.2606 -2.9989 0.9690
3.0670 -6.6092 -3.0003 0.9690
5.1828 -5.1253 -3.0015 0.9690
5.6189 -4.6441 -3.0018 0.9690
6.0104 -4.1258 -3.0020 0.9690
6.3542 -3.5748 -3.0022 0.9690
7.2034 -1.1326 -3.0027 0.9689
7.2468 0.8107 -3.0027 0.9689
7.1457 1.4525 -3.0027 0.9689
6.9879 2.0826 -3.0026 0.9689
5.8205 4.3895 -3.0019 0.9690
4.6977 5.0791 -2.8489 0.9705
4.2266 5.4766 -2.8486 0.9705
3.7220 5.8305 -2.8484 0.9705
3.1880 6.1380 -2.8481 0.9705
2.6287 6.3967 -2.8478 0.9705
2.0487 6.6045 -2.8474 0.9705
1.4526 6.7598 -2.8471 0.9705
0.8451 6.8615 -2.8468 0.9705
0.2310 6.9086 -2.8464 0.9705
-0.3848 6.9009 -2.8461 0.9705
-2.7676 6.3298 -2.8447 0.9706
-3.8453 5.7376 -2.8441 0.9706
-4.8007 4.9639 -2.8436 0.9706
-5.4995 4.7556 -2.9939 0.9690
-5.9039 4.2494 -2.9954 0.9690
-6.2583 3.7068 -2.9952 0.9690
-7.2435 0.6473 -2.9946 0.9690
-6.9151 -0.6179 -2.9948 0.9702
-6.8328 -1.2309 -2.9948 0.9702
-6.5066 -2.4231 -2.9950 0.9702
-5.9745 -3.5387 -2.9953 0.9702
-5.2531 -4.5425 -2.9957 0.9702
-4.3652 -5.4028 -2.9962 0.9702
-3.8673 -5.7704 -2.9965 0.9702
-3.3387 -6.0924 -2.9967 0.9702
-2.7835 -6.3660 -2.9971 0.9702
-1.6110 -6.7601 -2.9977 0.9702
1.4609 -6.7983 -2.9994 0.9702
3.2061 -6.1727 -3.0004 0.9702
3.7431 -5.8635 -3.0007 0.9702
4.2506 -5.5076 -3.0010 0.9701
5.1606 -4.6675 -3.0015 0.9701
5.5560 -4.1899 -3.0017 0.9701
6.4667 -2.5736 -3.0022 0.9701
6.9175 -0.7738 -3.0025 0.9701
6.9451 0.4649 -3.0025 0.9701
6.5751 2.2832 -3.0023 0.9701
6.0655 3.4124 -3.0021 0.9701
4.2637 5.0432 -2.8487 0.9716
2.2347 6.2116 -2.8475 0.9717
1.0978 6.5079 -2.8469 0.9717
0.5141 6.5791 -2.8466 0.9717
-0.0735 6.5980 -2.8463 0.9717
-1.8134 6.3420 -2.8453 0.9717
-2.9085 5.9187 -2.8447 0.9717
-3.4234 5.6357 -2.8444 0.9717
-3.9110 5.3081 -2.8441 0.9717
-4.3705 4.9418 -2.8457 0.9717
-5.8112 3.8016 -2.9954 0.9702
-6.3925 2.7107 -2.9951 0.9702
-6.6081 2.1309 -2.9950 0.9702
-6.9358 0.3093 -2.9948 0.9702
-6.9358 -0.3093 -2.9948 0.9702
-6.8808 -0.9253 -2.9948 0.9702
-6.7712 -1.5341 -2.9949 0.9702
-6.6080 -2.1308 -2.9949 0.9702
-6.3924 -2.7106 -2.9951 0.9702
-6.1260 -3.2689 -2.9952 0.9702
-5.8111 -3.8014 -2.9954 0.9702
-4.6013 -5.2028 -2.9960 0.9702
-4.1204 -5.5921 -2.9963 0.9702
-3.6066 -5.9373 -2.9966 0.9702
-2.4973 -6.4840 -2.9972 0.9702
-1.9105 -6.6812 -2.9975 0.9702
1.7623 -6.7268 -2.9996 0.9702
2.9277 -6.3091 -3.0002 0.9702
3.4780 -6.0241 -3.0006 0.9702
4.4919 -5.3130 -3.0011 0.9701
4.9474 -4.8925 -3.0014 0.9701
5.7373 -3.9384 -3.0018 0.9701
6.0655 -3.4123 -3.0020 0.9701
6.3454 -2.8591 -3.0022 0.9701
6.9451 -0.4649 -3.0025 0.9701
6.9175 0.7738 -3.0025 0.9701
6.8210 1.3865 -3.0025 0.9701
6.2117 3.1389 -3.0021 0.9701
5.9073 3.6791 -3.0020 0.9701
5.1607 4.6676 -3.0016 0.9701
4.0346 5.2279 -2.8485 0.9716
3.5530 5.5657 -2.8483 0.9716
3.0432 5.8593 -2.8480 0.9716
2.5094 6.1062 -2.8477 0.9717
0.2205 6.5951 -2.8464 0.9717
-0.9521 6.5282 -2.8458 0.9717
-2.0940 6.2546 -2.8451 0.9717
-6.2655 2.9928 -2.9952 0.9702
-6.6963 1.8343 -2.9949 0.9702
-6.8328 1.2310 -2.9948 0.9702
-6.9152 0.6179 -2.9948 0.9702
-6.6375 0.0000 -2.9949 0.9713
-6.6112 -0.5907 -2.9950 0.9713
-6.2206 -2.3165 -2.9952 0.9713
-5.7118 -3.3831 -2.9954 0.9713
-4.1732 -5.1652 -2.9963 0.9713
-3.6972 -5.5166 -2.9965 0.9713
-2.6610 -6.0859 -2.9971 0.9713
-2.1090 -6.2993 -2.9974 0.9713
-0.3700 -6.6348 -2.9984 0.9713
3.0649 -5.9009 -3.0003 0.9712
4.9333 -4.4618 -3.0014 0.9712
5.9379 -3.0005 -3.0019 0.9712
6.3764 -1.9003 -3.0022 0.9712
6.5204 -1.3253 -3.0023 0.9712
6.6523 -0.1482 -3.0024 0.9712
6.6391 0.4445 -3.0024 0.9712
6.5731 1.0336 -3.0023 0.9712
5.7983 3.2621 -3.0019 0.9712
5.4846 3.7650 -3.0017 0.9712
4.7295 4.6772 -3.0013 0.9712
4.0759 4.8210 -2.8486 0.9727
3.6303 5.1642 -2.8483 0.9727
2.6566 5.7250 -2.8478 0.9727
2.1363 5.9381 -2.8475 0.9727
1.5992 6.1040 -2.8472 0.9727
0.4915 6.2895 -2.8466 0.9727
-0.6313 6.2756 -2.8459 0.9727
-1.7336 6.0629 -2.8453 0.9727
-2.2661 5.8839 -2.8450 0.9727
-3.2728 5.3878 -2.8445 0.9727
-4.2207 4.7725 -2.8748 0.9724
-4.8240 4.5625 -2.9960 0.9713
-5.5557 3.6344 -2.9956 0.9713
-5.8568 3.1253 -2.9954 0.9713
-6.1114 2.5915 -2.9953 0.9713
-6.4736 1.4668 -2.9950 0.9713
-6.6309 0.2957 -2.9949 0.9713
-6.5783 -0.8846 -2.9950 0.9713
-6.3175 -2.0371 -2.9951 0.9713
-6.1114 -2.5914 -2.9952 0.9713
-5.2104 -4.1146 -2.9957 0.9713
-4.3990 -4.9740 -2.9962 0.9713
-3.4480 -5.6761 -2.9967 0.9713
-2.3874 -6.1988 -2.9973 0.9713
-1.8264 -6.3873 -2.9976 0.9713
-0.6651 -6.6114 -2.9982 0.9713
0.5178 -6.6260 -2.9989 0.9713
1.1056 -6.5543 -2.9992 0.9713
2.7988 -6.0313 -3.0002 0.9712
3.3249 -5.7588 -3.0005 0.9712
3.8246 -5.4405 -3.0008 0.9712
4.2940 -5.0790 -3.0010 0.9712
4.7294 -4.6770 -3.0013 0.9712
5.1273 -4.2378 -3.0015 0.9712
5.4845 -3.7649 -3.0017 0.9712
5.7982 -3.2620 -3.0019 0.9712
6.2853 -2.1825 -3.0021 0.9712
6.4548 -1.6144 -3.0022 0.9712
6.5731 -1.0335 -3.0023 0.9712
6.6390 -0.4444 -3.0024 0.9712
6.5205 1.3254 -3.0023 0.9712
6.3765 1.9004 -3.0022 0.9712
6.1818 2.4603 -3.0021 0.9712
5.6471 3.5171 -3.0018 0.9712
5.3113 4.0055 -3.0016 0.9712
4.9334 4.4620 -3.0014 0.9712
4.3758 4.7311 -2.9078 0.9721
3.3965 5.3205 -2.8482 0.9727
2.9092 5.6012 -2.8479 0.9727
2.3989 5.8373 -2.8476 0.9727
1.8696 6.0271 -2.8473 0.9727
0.7712 6.2617 -2.8467 0.9727
0.2108 6.3048 -2.8464 0.9727
-0.3512 6.2978 -2.8461 0.9727
-0.9102 6.2409 -2.8458 0.9727
-1.4619 6.1345 -2.8455 0.9727
-2.0019 5.9794 -2.8452 0.9727
-2.5259 5.7769 -2.8449 0.9727
-3.9612 4.9029 -2.8441 0.9727
-4.5975 4.7538 -2.9840 0.9714
-5.7119 3.3832 -2.9955 0.9713
-6.2207 2.3166 -2.9952 0.9713
-6.4019 1.7537 -2.9951 0.9713
-6.5324 1.1769 -2.9950 0.9713
-6.3539 0.0000 -2.9951 0.9723
-5.7341 -2.7389 -2.9954 0.9723
-5.1581 -3.7126 -2.9957 0.9723
-3.9949 -4.9445 -2.9964 0.9723
-3.5392 -5.2808 -2.9966 0.9723
-3.0554 -5.5754 -2.9969 0.9723
-2.5473 -5.8258 -2.9972 0.9723
-1.4743 -6.1863 -2.9978 0.9723
-0.3541 -6.3511 -2.9984 0.9723
1.8854 -6.0779 -2.9997 0.9723
2.4191 -5.8865 -3.0000 0.9722
2.9337 -5.6484 -3.0003 0.9722
4.3229 -4.6738 -3.0010 0.9722
4.7221 -4.2709 -3.0013 0.9722
6.1034 -1.8190 -3.0020 0.9722
6.3295 -0.7080 -3.0022 0.9722
6.3674 -0.1419 -3.0022 0.9722
6.3548 0.4254 -3.0022 0.9722
6.2916 0.9894 -3.0022 0.9722
6.0163 2.0891 -3.0020 0.9722
5.8062 2.6162 -3.0019 0.9722
4.9079 4.0566 -3.0014 0.9722
3.9993 4.7304 -2.9199 0.9730
3.4749 4.9432 -2.8482 0.9736
3.0209 5.2324 -2.8480 0.9736
1.5308 5.8429 -2.8471 0.9736
1.0045 5.9553 -2.8468 0.9736
-0.6043 6.0072 -2.8459 0.9737
-1.6595 5.8037 -2.8454 0.9737
-2.1693 5.6324 -2.8451 0.9737
-3.5792 4.8578 -2.8443 0.9737
-4.2018 4.7511 -2.9897 0.9723
-5.6066 2.9918 -2.9955 0.9723
-6.3476 -0.2830 -2.9951 0.9723
-6.1970 -1.4040 -2.9952 0.9723
-6.0476 -1.9501 -2.9953 0.9723
-5.8503 -2.4807 -2.9954 0.9723
-5.6065 -2.9917 -2.9955 0.9723
-3.7708 -5.1177 -2.9965 0.9723
-3.3006 -5.4335 -2.9968 0.9723
-2.2854 -5.9337 -2.9973 0.9723
-1.7483 -6.1142 -2.9976 0.9723
-0.6367 -6.3287 -2.9983 0.9723
-0.0709 -6.3608 -2.9986 0.9723
0.4956 -6.3426 -2.9989 0.9723
2.1544 -5.9882 -2.9998 0.9723
3.6609 -5.2077 -3.0007 0.9722
4.1102 -4.8616 -3.0009 0.9722
4.5270 -4.4768 -3.0012 0.9722
4.9078 -4.0564 -3.0014 0.9722
5.5500 -3.1223 -3.0017 0.9722
6.0162 -2.0890 -3.0020 0.9722
6.1785 -1.5453 -3.0021 0.9722
6.2916 -0.9893 -3.0022 0.9722
6.3548 -0.4254 -3.0022 0.9722
6.3674 0.1419 -3.0022 0.9722
6.3295 0.7081 -3.0022 0.9722
6.2413 1.2686 -3.0021 0.9722
6.1034 1.8191 -3.0021 0.9722
5.9171 2.3550 -3.0020 0.9722
3.6918 4.7837 -2.8483 0.9736
2.2962 5.5876 -2.8476 0.9736
1.7896 5.7692 -2.8473 0.9736
0.7382 5.9939 -2.8467 0.9736
0.2018 6.0351 -2.8464 0.9737
-0.8713 5.9740 -2.8458 0.9737
-1.3994 5.8722 -2.8455 0.9737
-1.9163 5.7237 -2.8452 0.9737
-2.4179 5.5299 -2.8449 0.9737
-2.9002 5.2922 -2.8447 0.9737
-3.3594 5.0127 -2.8444 0.9737
-5.4679 3.2386 -2.9956 0.9723
-5.7341 2.7390 -2.9955 0.9723
-5.9549 2.2177 -2.9953 0.9723
-6.1285 1.6788 -2.9952 0.9723
-6.0656 -0.5420 -2.9953 0.9732
-5.8735 -1.6089 -2.9954 0.9732
-5.2404 -3.1039 -2.9957 0.9732
-3.8287 -4.7388 -2.9965 0.9732
-3.3920 -5.0611 -2.9967 0.9732
-2.9283 -5.3434 -2.9970 0.9732
-2.4413 -5.5834 -2.9972 0.9732
-1.9348 -5.7790 -2.9975 0.9732
-1.4129 -5.9289 -2.9978 0.9732
-0.3394 -6.0867 -2.9984 0.9732
0.2037 -6.0933 -2.9987 0.9732
1.8069 -5.8248 -2.9996 0.9732
2.8115 -5.4131 -3.0002 0.9732
3.2825 -5.1419 -3.0005 0.9732
3.7274 -4.8297 -3.0007 0.9732
4.1428 -4.4791 -3.0009 0.9732
4.5253 -4.0929 -3.0012 0.9732
4.8720 -3.6741 -3.0013 0.9732
5.1800 -3.2261 -3.0015 0.9732
5.4468 -2.7524 -3.0017 0.9732
6.0657 -0.6786 -3.0020 0.9732
6.1020 -0.1359 -3.0021 0.9732
6.0899 0.4077 -3.0021 0.9732
5.9210 1.4810 -3.0020 0.9732
5.0311 3.4537 -3.0015 0.9732
4.7034 3.8875 -3.0013 0.9732
3.3396 4.7507 -2.8562 0.9744
2.8951 5.0145 -2.8479 0.9745
2.4371 5.2517 -2.8476 0.9745
1.9598 5.4473 -2.8474 0.9745
-0.0645 5.7864 -2.8463 0.9745
-1.0892 5.6822 -2.8457 0.9745
-2.0790 5.3980 -2.8451 0.9745
-3.0026 4.9429 -2.8446 0.9745
-3.5094 4.7630 -2.9100 0.9740
-4.0359 4.5635 -2.9964 0.9732
-4.4257 4.1858 -2.9962 0.9732
-4.7804 3.7751 -2.9960 0.9732
-5.0971 3.3344 -2.9958 0.9732
-5.7962 1.8691 -2.9954 0.9732
-5.9394 1.3457 -2.9953 0.9732
-6.0837 0.2713 -2.9953 0.9732
-6.0837 -0.2713 -2.9952 0.9732
-6.0354 -0.8116 -2.9953 0.9732
-5.3733 -2.8672 -2.9956 0.9732
-5.0970 -3.3343 -2.9958 0.9732
-4.7803 -3.7749 -2.9960 0.9732
-4.4256 -4.1857 -2.9961 0.9732
-3.6139 -4.9048 -2.9966 0.9732
-2.6875 -5.4688 -2.9971 0.9732
-2.1903 -5.6868 -2.9974 0.9732
-1.1475 -5.9862 -2.9980 0.9732
0.4750 -6.0785 -2.9989 0.9732
2.5675 -5.5327 -3.0000 0.9732
3.9390 -4.6590 -3.0008 0.9732
5.3187 -2.9922 -3.0016 0.9732
5.5642 -2.5071 -3.0017 0.9732
6.0294 -0.9480 -3.0020 0.9732
6.0899 -0.4076 -3.0021 0.9732
5.9811 1.2158 -3.0020 0.9732
5.8490 1.7432 -3.0019 0.9732
2.6687 5.1382 -2.8478 0.9745
2.2006 5.3548 -2.8475 0.9745
1.7151 5.5289 -2.8472 0.9745
1.2161 5.6591 -2.8470 0.9745
0.7075 5.7443 -2.8467 0.9745
-0.3221 5.7776 -2.8461 0.9745
-0.8350 5.7254 -2.8458 0.9745
-1.3412 5.6277 -2.8455 0.9745
-3.2197 4.8041 -2.8445 0.9745
-3.8287 4.7389 -2.9965 0.9732
-4.2350 4.3790 -2.9963 0.9732
-4.6076 3.9844 -2.9961 0.9732
-4.9437 3.5582 -2.9959 0.9732
-5.7073 2.1254 -2.9955 0.9732
-5.8736 1.6090 -2.9954 0.9732
-5.8427 0.0000 -2.9954 0.9741
-5.8195 -0.5200 -2.9954 0.9741
-5.4757 -2.0391 -2.9956 0.9741
-5.0278 -2.9780 -2.9958 0.9741
-3.6733 -4.5465 -2.9966 0.9741
-2.8095 -5.1266 -2.9970 0.9741
-2.3422 -5.3567 -2.9973 0.9741
-1.8563 -5.5445 -2.9976 0.9741
-1.3556 -5.6882 -2.9979 0.9741
-0.8440 -5.7869 -2.9981 0.9741
-0.3256 -5.8396 -2.9984 0.9741
0.7151 -5.8059 -2.9990 0.9740
2.2242 -5.4122 -2.9999 0.9740
2.6973 -5.1932 -3.0001 0.9740
3.9745 -4.2971 -3.0008 0.9740
4.6740 -3.5248 -3.0012 0.9740
5.2255 -2.6405 -3.0016 0.9740
5.4400 -2.1650 -3.0017 0.9740
5.6113 -1.6723 -3.0018 0.9740
5.7380 -1.1662 -3.0018 0.9740
5.8191 -0.6510 -3.0019 0.9740
5.8540 -0.1304 -3.0019 0.9740
5.8424 0.3912 -3.0019 0.9740
5.7843 0.9096 -3.0019 0.9740
5.6803 1.4207 -3.0018 0.9740
5.5312 1.9207 -3.0018 0.9740
5.1026 2.8707 -3.0015 0.9740
4.5123 3.7296 -3.0012 0.9740
4.1622 4.1161 -3.0010 0.9740
2.7775 4.8107 -2.8478 0.9753
2.3380 5.0384 -2.8476 0.9753
1.8802 5.2261 -2.8473 0.9753
1.4074 5.3721 -2.8471 0.9753
0.9236 5.4756 -2.8468 0.9753
-0.0618 5.5515 -2.8463 0.9754
-0.5557 5.5234 -2.8460 0.9754
-1.0450 5.4515 -2.8457 0.9754
-1.5259 5.3364 -2.8454 0.9754
-2.4474 4.9804 -2.8449 0.9754
-2.8973 4.7696 -2.8610 0.9752
-3.4673 4.7060 -2.9967 0.9741
-4.2462 4.0160 -2.9963 0.9741
-4.5865 3.6220 -2.9961 0.9741
-4.8904 3.1992 -2.9959 0.9741
-5.8369 -0.2603 -2.9954 0.9741
-5.7906 -0.7787 -2.9954 0.9741
-5.5610 -1.7932 -2.9955 0.9741
-5.3795 -2.2811 -2.9956 0.9741
-4.8903 -3.1991 -2.9959 0.9741
-4.5864 -3.6218 -2.9961 0.9741
-4.2461 -4.0159 -2.9963 0.9741
-3.8721 -4.3782 -2.9965 0.9741
-3.0349 -4.9961 -2.9969 0.9741
-2.5784 -5.2469 -2.9972 0.9741
-2.1014 -5.4560 -2.9974 0.9741
-1.6076 -5.6219 -2.9977 0.9741
-1.1009 -5.7432 -2.9980 0.9741
-0.5854 -5.8190 -2.9983 0.9741
-0.0652 -5.8486 -2.9986 0.9741
0.4557 -5.8317 -2.9989 0.9740
1.9808 -5.5056 -2.9997 0.9740
2.4632 -5.3080 -3.0000 0.9740
2.9261 -5.0681 -3.0003 0.9740
3.3659 -4.7880 -3.0005 0.9740
3.7790 -4.4697 -3.0007 0.9740
4.1621 -4.1160 -3.0009 0.9740
4.8265 -3.3132 -3.0013 0.9740
5.3380 -2.4052 -3.0016 0.9740
5.6803 -1.4207 -3.0018 0.9740
5.7843 -0.9095 -3.0019 0.9740
5.8540 0.1305 -3.0019 0.9740
5.8191 0.6510 -3.0019 0.9740
4.9695 3.0951 -3.0014 0.9740
4.6741 3.5249 -3.0013 0.9740
3.9745 4.2972 -3.0009 0.9740
3.5760 4.6336 -3.0007 0.9740
2.1112 5.1373 -2.8475 0.9753
-0.3091 5.5430 -2.8461 0.9754
-0.8011 5.4929 -2.8458 0.9754
-1.7620 5.2629 -2.8453 0.9754
-2.6667 4.8662 -2.8448 0.9754
-3.1881 4.7570 -2.9358 0.9746
-3.6734 4.5467 -2.9966 0.9741
-5.2727 2.5186 -2.9957 0.9741
-5.4758 2.0392 -2.9956 0.9741
-5.6354 1.5437 -2.9955 0.9741
-5.8196 0.5200 -2.9954 0.9741
-5.5890 -0.4994 -2.9955 0.9749
-5.5224 -0.9949 -2.9956 0.9749
-5.0638 -2.4187 -2.9958 0.9749
-4.5551 -3.2785 -2.9961 0.9749
-4.2454 -3.6711 -2.9963 0.9749
-3.5277 -4.3663 -2.9966 0.9749
-3.1253 -4.6633 -2.9969 0.9749
-2.2494 -5.1444 -2.9974 0.9749
-1.7827 -5.3246 -2.9976 0.9749
-1.3018 -5.4626 -2.9979 0.9749
0.1877 -5.6140 -2.9987 0.9749
1.1803 -5.4929 -2.9993 0.9748
1.6647 -5.3665 -2.9995 0.9748
2.1359 -5.1975 -2.9998 0.9748
4.7722 -2.9721 -3.0013 0.9748
5.0180 -2.5357 -3.0014 0.9748
5.2240 -2.0791 -3.0016 0.9748
5.3885 -1.6059 -3.0017 0.9748
5.6104 0.3756 -3.0018 0.9748
5.5547 0.8735 -3.0018 0.9748
5.3116 1.8444 -3.0016 0.9748
4.6350 3.1818 -3.0013 0.9748
4.3332 3.5815 -3.0011 0.9748
3.6290 4.2925 -3.0007 0.9748
3.2324 4.5981 -3.0005 0.9748
2.7342 4.7357 -2.9192 0.9755
2.2453 4.8385 -2.8475 0.9761
0.8870 5.2584 -2.8468 0.9761
-0.0594 5.3313 -2.8463 0.9761
-0.5336 5.3044 -2.8460 0.9761
-1.0035 5.2354 -2.8457 0.9761
-1.4654 5.1248 -2.8455 0.9761
-1.9155 4.9736 -2.8452 0.9761
-3.3299 4.5194 -2.9968 0.9749
-3.7187 4.2048 -2.9966 0.9749
-4.0779 3.8569 -2.9964 0.9749
-4.6966 3.0724 -2.9960 0.9749
-4.9511 2.6420 -2.9959 0.9749
-5.3407 1.7222 -2.9957 0.9749
-5.5612 0.7479 -2.9955 0.9749
-5.6057 0.2500 -2.9955 0.9749
-5.6057 -0.2499 -2.9955 0.9749
-5.5612 -0.7479 -2.9955 0.9749
-5.3407 -1.7221 -2.9957 0.9749
-4.0778 -3.8567 -2.9963 0.9749
-3.7186 -4.2046 -2.9965 0.9749
-3.3298 -4.5193 -2.9968 0.9749
-2.0180 -5.2397 -2.9975 0.9749
-1.0572 -5.5155 -2.9980 0.9749
0.9344 -5.5397 -2.9991 0.9748
1.4239 -5.4350 -2.9994 0.9748
1.9022 -5.2872 -2.9997 0.9748
2.8100 -4.8670 -3.0002 0.9748
3.9969 -3.9526 -3.0009 0.9748
4.3331 -3.5814 -3.0010 0.9748
4.6349 -3.1817 -3.0012 0.9748
4.9000 -2.7566 -3.0014 0.9748
5.1261 -2.3097 -3.0015 0.9748
5.6216 0.1253 -3.0018 0.9748
5.5102 1.1200 -3.0017 0.9748
5.2241 2.0792 -3.0016 0.9748
4.7723 2.9722 -3.0013 0.9748
4.4885 3.3850 -3.0012 0.9748
3.4341 4.4497 -3.0006 0.9748
2.4680 4.7517 -2.8584 0.9760
0.6518 5.2924 -2.8466 0.9761
-0.2968 5.3231 -2.8461 0.9761
-1.6921 5.0542 -2.8453 0.9761
-2.1351 4.8831 -2.8451 0.9761
-3.1254 4.6635 -2.9969 0.9749
-3.5278 4.3665 -2.9967 0.9749
-5.0638 2.4188 -2.9958 0.9749
-5.2588 1.9584 -2.9957 0.9749
-5.5890 0.4995 -2.9955 0.9749
-5.3723 -0.4801 -2.9956 0.9756
-5.3083 -0.9563 -2.9957 0.9756
-5.2022 -1.4250 -2.9957 0.9756
-3.7508 -3.8782 -2.9965 0.9756
-3.0041 -4.4824 -2.9969 0.9756
-2.5934 -4.7324 -2.9972 0.9756
-2.1621 -4.9448 -2.9974 0.9756
-1.7136 -5.1181 -2.9977 0.9756
-1.2513 -5.2507 -2.9979 0.9756
0.1804 -5.3962 -2.9987 0.9756
0.6600 -5.3592 -2.9990 0.9756
1.1345 -5.2797 -2.9992 0.9756
1.6001 -5.1582 -2.9995 0.9756
2.0530 -4.9957 -2.9998 0.9756
2.4897 -4.7935 -3.0000 0.9756
2.9067 -4.5532 -3.0002 0.9756
3.3007 -4.2768 -3.0005 0.9756
3.6685 -3.9663 -3.0007 0.9756
4.0072 -3.6243 -3.0009 0.9756
4.8231 -2.4372 -3.0013 0.9756
5.0211 -1.9983 -3.0014 0.9756
5.1792 -1.5436 -3.0015 0.9756
5.3389 0.8396 -3.0016 0.9756
4.9271 2.2200 -3.0014 0.9756
4.4550 3.0582 -3.0012 0.9756
4.1649 3.4424 -3.0010 0.9756
3.4881 4.1258 -3.0006 0.9756
1.2991 4.9588 -2.8470 0.9768
0.8525 5.0543 -2.8468 0.9768
-0.0571 5.1245 -2.8463 0.9768
-0.5129 5.0985 -2.8460 0.9768
-0.9646 5.0322 -2.8457 0.9768
-1.4095 4.9293 -2.8474 0.9768
-1.8412 4.7806 -2.8452 0.9768
-3.2007 4.3441 -2.9969 0.9756
-3.5745 4.0418 -2.9967 0.9756
-4.2339 3.3435 -2.9963 0.9756
-4.5145 2.9532 -2.9961 0.9756
-5.1337 1.6554 -2.9958 0.9756
-5.2605 1.1919 -2.9957 0.9756
-5.3456 0.7189 -2.9957 0.9756
-5.3883 0.2403 -2.9956 0.9756
-5.3883 -0.2403 -2.9956 0.9756
-4.9661 -2.1057 -2.9959 0.9756
-4.7591 -2.5395 -2.9960 0.9756
-2.8016 -4.6120 -2.9971 0.9756
-2.3801 -4.8434 -2.9973 0.9756
-1.9398 -5.0364 -2.9975 0.9756
-1.4839 -5.1895 -2.9978 0.9756
-1.0162 -5.3015 -2.9980 0.9756
-0.5404 -5.3714 -2.9983 0.9756
-0.0601 -5.3986 -2.9986 0.9756
0.4206 -5.3831 -2.9989 0.9756
0.8982 -5.3247 -2.9991 0.9756
2.7009 -4.6780 -3.0001 0.9756
3.4881 -4.1257 -3.0006 0.9756
4.1648 -3.4423 -3.0010 0.9756
4.4549 -3.0581 -3.0011 0.9756
4.9270 -2.2200 -3.0014 0.9756
5.1052 -1.7727 -3.0015 0.9756
5.2429 -1.3113 -3.0016 0.9756
5.3925 -0.3610 -3.0017 0.9756
5.3710 0.6009 -3.0017 0.9756
5.1792 1.5436 -3.0016 0.9756
5.0211 1.9984 -3.0015 0.9756
4.8232 2.4373 -3.0014 0.9756
4.0073 3.6244 -3.0009 0.9756
2.4563 4.7294 -2.9598 0.9759
1.5188 4.8962 -2.8471 0.9768
1.0769 5.0115 -2.8469 0.9768
0.1712 5.1221 -2.8464 0.9768
-0.2853 5.1166 -2.8461 0.9768
-0.7395 5.0704 -2.8459 0.9768
-1.1878 4.9841 -2.8456 0.9768
-1.6265 4.8581 -2.8454 0.9768
-2.0820 4.7616 -2.8863 0.9765
-2.5935 4.7326 -2.9972 0.9756
-3.3910 4.1971 -2.9968 0.9756
-4.0809 3.5289 -2.9964 0.9756
-4.3785 3.1515 -2.9962 0.9756
-4.8675 2.3250 -2.9959 0.9756
-5.2023 1.4251 -2.9958 0.9756
-5.1682 -0.4618 -2.9958 0.9763
-4.8628 -1.8109 -2.9959 0.9763
