ply
format ascii 1.0
element vertex 1585
property float32 x
property float32 y
property float32 z
property float32 I
end_header
6.8693 -5.6776 -1.1168 0.9647
6.5070 -7.0354 -1.3631 0.9620
6.5303 -6.4580 -1.3063 0.9636
6.9791 -5.7683 -1.2879 0.9641
7.9932 -5.4870 -1.3790 0.9616
6.6826 -6.6086 -1.4966 0.9626
7.0228 -6.3517 -1.6697 0.9623
6.9710 -6.8937 -1.7287 0.9610
7.3160 -6.0469 -1.6736 0.9622
11.3214 9.3574 -2.8424 0.9419
10.4447 10.3290 -2.8427 0.9419
9.4850 11.2189 -2.8430 0.9419
8.4499 12.0201 -2.8434 0.9419
6.1865 13.3315 -2.8441 0.9419
4.9761 13.8312 -2.8445 0.9419
2.4456 14.4987 -2.8454 0.9419
-0.1639 14.7072 -2.8463 0.9418
-1.4724 14.6365 -2.8467 0.9418
-2.7698 14.4496 -2.8472 0.9418
-5.2894 13.7337 -2.8480 0.9418
-8.7334 11.8531 -2.8492 0.9418
13.1064 6.6229 -2.8418 0.9419
12.4659 7.7638 -2.8420 0.9419
11.7264 8.8433 -2.8422 0.9419
10.8939 9.8529 -2.8425 0.9419
9.9748 10.7846 -2.8428 0.9419
6.7737 13.0417 -2.8439 0.9419
5.5869 13.5948 -2.8443 0.9419
3.0889 14.3743 -2.8452 0.9419
1.7975 14.5944 -2.8456 0.9418
0.4914 14.6988 -2.8461 0.9418
-0.8189 14.6865 -2.8465 0.9418
-4.6720 13.9547 -2.8478 0.9418
-5.8964 13.4854 -2.8482 0.9418
-7.0743 12.9089 -2.8486 0.9418
-8.1962 12.2296 -2.8490 0.9418
-14.0203 -2.5259 -3.0033 0.9434
-13.7393 -3.7636 -3.0032 0.9434
-12.8530 -6.1394 -3.0029 0.9434
-12.2547 -7.2585 -3.0027 0.9434
-9.8990 -10.2355 -3.0019 0.9435
-6.8407 -12.4828 -3.0009 0.9435
-4.5179 -13.4943 -3.0001 0.9435
-3.2985 -13.8409 -2.9997 0.9435
-0.7919 -14.2024 -2.9988 0.9435
2.9872 -13.9011 -2.9975 0.9435
5.4031 -13.1476 -2.9967 0.9435
8.6814 -11.2488 -2.9956 0.9436
9.6471 -10.4304 -2.9953 0.9436
10.5362 -9.5294 -2.9950 0.9436
12.6764 -6.4057 -2.9943 0.9436
13.1955 -5.2517 -2.9941 0.9436
14.1971 -0.3164 -2.9938 0.9436
14.0285 2.2059 -2.9938 0.9436
13.7769 3.4458 -2.9939 0.9436
12.2908 5.5380 -2.8420 0.9464
11.7499 6.6104 -2.8422 0.9464
7.7570 11.0345 -2.8436 0.9464
4.5679 12.6967 -2.8447 0.9463
3.4202 13.0547 -2.8451 0.9463
-1.3516 13.4351 -2.8467 0.9463
-2.5424 13.2634 -2.8471 0.9463
-8.0160 10.8794 -2.8489 0.9463
-8.9535 10.1239 -2.8493 0.9462
-9.8200 9.2877 -2.8495 0.9462
-11.3132 7.4007 -2.8500 0.9462
-11.9279 6.3649 -2.8502 0.9462
-13.5579 4.3719 -3.0032 0.9434
-14.1191 1.8988 -3.0034 0.9434
-14.2322 0.6346 -3.0034 0.9434
-14.2322 -0.6346 -3.0034 0.9434
-14.1190 -1.8988 -3.0034 0.9434
-13.8936 -3.1479 -3.0033 0.9434
-13.5578 -4.3718 -3.0032 0.9434
-13.1142 -5.5609 -3.0030 0.9434
-11.9188 -7.7969 -3.0026 0.9434
-9.4327 -10.6657 -3.0017 0.9435
-5.1149 -13.2805 -3.0003 0.9435
-1.4239 -14.1541 -2.9990 0.9435
2.3651 -14.0213 -2.9977 0.9435
3.6032 -13.7533 -2.9973 0.9435
4.8123 -13.3762 -2.9969 0.9435
5.9830 -12.8930 -2.9965 0.9436
7.1059 -12.3078 -2.9961 0.9436
10.9497 -9.0502 -2.9948 0.9436
11.7108 -8.0390 -2.9946 0.9436
12.3789 -6.9642 -2.9944 0.9436
12.9488 -5.8344 -2.9942 0.9436
13.4160 -4.6586 -2.9940 0.9436
13.7768 -3.4458 -2.9939 0.9436
14.0285 -2.2059 -2.9938 0.9436
14.1971 0.3164 -2.9938 0.9436
14.1127 1.5788 -2.9938 0.9436
13.6100 4.0562 -2.9940 0.9436
11.4442 7.1275 -2.8423 0.9464
10.7653 8.1185 -2.8426 0.9464
9.1570 9.9005 -2.8431 0.9464
6.2182 11.9722 -2.8441 0.9463
0.4511 13.4925 -2.8461 0.9463
-0.7517 13.4810 -2.8465 0.9463
-3.1309 13.1379 -2.8473 0.9463
-4.2884 12.8088 -2.8477 0.9463
-5.4122 12.3780 -2.8481 0.9463
-6.4932 11.8487 -2.8484 0.9463
-7.5230 11.2251 -2.8488 0.9463
-8.4932 10.5121 -2.8491 0.9463
-9.3961 9.7155 -2.8494 0.9462
-10.2245 8.8415 -2.8497 0.9462
-11.6321 6.8897 -2.8502 0.9462
-12.2000 5.8274 -2.8503 0.9462
-14.1898 1.2680 -3.0034 0.9434
-13.1572 0.0000 -3.0030 0.9474
-13.1049 -1.1711 -3.0030 0.9474
-12.9484 -2.3328 -3.0030 0.9475
-12.3288 -4.5913 -3.0028 0.9475
-11.3181 -6.7037 -3.0024 0.9475
-9.9486 -8.6029 -3.0019 0.9475
-9.1425 -9.4533 -3.0017 0.9475
-1.8964 -13.0027 -2.9992 0.9475
-0.7315 -13.1182 -2.9988 0.9475
0.4390 -13.1295 -2.9984 0.9475
1.6056 -13.0366 -2.9980 0.9475
4.9909 -12.1445 -2.9969 0.9476
8.0193 -10.3909 -2.9958 0.9476
8.9115 -9.6350 -2.9955 0.9476
9.7327 -8.8027 -2.9953 0.9476
11.1376 -6.9365 -2.9948 0.9476
11.7100 -5.9173 -2.9946 0.9476
12.1895 -4.8513 -2.9944 0.9476
13.0369 -1.4584 -2.9942 0.9476
13.1149 -0.2922 -2.9941 0.9476
13.0889 0.8762 -2.9941 0.9476
12.7267 3.1832 -2.9943 0.9476
8.8573 8.7591 -2.8432 0.9502
8.0433 9.5137 -2.8435 0.9502
7.1654 10.1929 -2.8438 0.9502
6.2304 10.7914 -2.8441 0.9502
0.9714 12.4308 -2.8459 0.9501
-0.1389 12.4695 -2.8463 0.9501
-2.3482 12.2506 -2.8470 0.9501
-6.4791 10.6661 -2.8484 0.9501
-7.4035 10.0481 -2.8487 0.9501
-9.0696 8.5779 -2.8493 0.9501
-9.7979 7.7373 -2.8495 0.9501
-10.4485 6.8351 -2.8497 0.9501
-12.5214 4.0376 -3.0028 0.9475
-13.0396 -1.7536 -3.0030 0.9474
-12.5213 -4.0376 -3.0028 0.9475
-12.1117 -5.1358 -3.0027 0.9475
-11.6058 -6.1930 -3.0025 0.9475
-11.0078 -7.2010 -3.0023 0.9475
-8.7119 -9.8508 -3.0015 0.9475
-7.7998 -10.5859 -3.0012 0.9475
-5.7979 -11.7985 -3.0005 0.9475
-4.7242 -12.2662 -3.0001 0.9475
-3.6133 -12.6364 -2.9998 0.9475
-2.4739 -12.9062 -2.9994 0.9475
-1.3152 -13.0734 -2.9990 0.9475
-0.1464 -13.1369 -2.9986 0.9475
3.3282 -12.7038 -2.9974 0.9475
4.4452 -12.3556 -2.9970 0.9476
5.5266 -11.9094 -2.9967 0.9476
10.1148 -8.3601 -2.9951 0.9476
11.9616 -5.3896 -2.9945 0.9476
13.1149 0.2923 -2.9941 0.9476
13.0370 1.4584 -2.9942 0.9476
12.8557 2.6130 -2.9942 0.9476
12.5725 3.7470 -2.9943 0.9476
11.1150 5.6166 -2.8424 0.9502
10.5717 6.5841 -2.8426 0.9502
9.2383 8.3555 -2.8431 0.9502
8.4587 9.1454 -2.8433 0.9502
7.6119 9.8630 -2.8436 0.9502
5.7438 11.0589 -2.8443 0.9502
3.6930 11.9050 -2.8450 0.9501
0.4167 12.4625 -2.8461 0.9501
-1.8001 12.3422 -2.8468 0.9501
-2.8918 12.1346 -2.8472 0.9501
-6.9482 10.3674 -2.8486 0.9501
-5.8939 7.2950 -2.1406 0.9623
-9.4431 8.1658 -2.8494 0.9501
-11.2674 5.3820 -2.8500 0.9501
-12.3289 4.5913 -3.0028 0.9475
-12.1676 -1.0873 -3.0027 0.9509
-12.0223 -2.1659 -3.0027 0.9509
-11.4470 -4.2629 -3.0025 0.9509
-11.0216 -5.2646 -3.0023 0.9509
-10.5087 -6.2243 -3.0021 0.9509
-9.9123 -7.1344 -3.0019 0.9509
-8.4889 -8.7775 -3.0014 0.9509
-7.6733 -9.4973 -3.0012 0.9510
-6.7968 -10.1416 -3.0009 0.9510
-5.8666 -10.7052 -3.0005 0.9510
-2.8289 -11.8706 -2.9995 0.9510
3.6128 -11.6467 -2.9973 0.9510
4.6346 -11.2776 -2.9970 0.9510
9.7293 -7.3372 -2.9953 0.9510
10.3430 -6.4417 -2.9951 0.9510
10.8746 -5.4952 -2.9949 0.9511
11.3200 -4.5053 -2.9947 0.9511
11.6756 -3.4797 -2.9946 0.9511
12.1553 0.8137 -2.9945 0.9511
12.0348 1.8924 -2.9945 0.9511
11.8189 2.9561 -2.9946 0.9511
11.5093 3.9965 -2.9947 0.9511
9.5357 6.5458 -2.8430 0.9535
6.6540 9.4654 -2.8440 0.9535
5.7857 10.0211 -2.8443 0.9535
2.9336 11.1975 -2.8452 0.9534
1.9256 11.4155 -2.8456 0.9534
-4.1638 10.8110 -2.8476 0.9534
-6.8743 9.3298 -2.8485 0.9534
-9.7013 6.3463 -2.8495 0.9534
-10.2283 5.4580 -2.8497 0.9534
-11.6259 3.7489 -3.0025 0.9509
-12.1070 1.6283 -3.0027 0.9509
-12.2040 0.5442 -3.0027 0.9509
-12.1070 -1.6282 -3.0027 0.9509
-11.9137 -2.6993 -3.0026 0.9509
-11.6258 -3.7489 -3.0025 0.9509
-11.2455 -4.7685 -3.0024 0.9509
-10.7759 -5.7502 -3.0022 0.9509
-10.2207 -6.6860 -3.0020 0.9509
-8.0891 -9.1465 -3.0013 0.9509
-6.3380 -10.4337 -3.0007 0.9510
-5.3836 -10.9553 -3.0004 0.9510
-4.3866 -11.3896 -3.0000 0.9510
-3.3551 -11.7335 -2.9997 0.9510
-2.2972 -11.9841 -2.9993 0.9510
2.0286 -12.0264 -2.9979 0.9510
3.0906 -11.7968 -2.9975 0.9510
4.1278 -11.4735 -2.9971 0.9510
7.0101 -9.9721 -2.9962 0.9510
8.6655 -8.5695 -2.9956 0.9510
9.3931 -7.7636 -2.9954 0.9510
10.0461 -6.8963 -2.9952 0.9510
10.6193 -5.9744 -2.9950 0.9510
11.8189 -2.9561 -2.9946 0.9511
11.9387 2.4266 -2.9945 0.9511
9.8175 6.1144 -2.8429 0.9535
9.2349 6.9644 -2.8431 0.9535
7.8551 8.4928 -2.8435 0.9535
7.0687 9.1592 -2.8438 0.9535
6.2261 9.7529 -2.8441 0.9535
4.3991 10.7047 -2.8447 0.9534
3.4293 11.0550 -2.8451 0.9534
-0.6447 11.5623 -2.8464 0.9534
-1.6715 11.4605 -2.8468 0.9534
-3.6779 10.9852 -2.8475 0.9534
-4.6415 10.6154 -2.8478 0.9534
-5.8384 7.2262 -2.2835 0.9625
-8.0576 8.3315 -2.8489 0.9534
-9.4087 6.7720 -2.8494 0.9534
-9.9747 5.9080 -2.8496 0.9534
-10.4616 4.9971 -2.8497 0.9534
-11.7816 3.2273 -3.0026 0.9509
-11.3945 0.0000 -3.0024 0.9540
-11.2137 -2.0202 -3.0024 0.9540
-10.9891 -3.0102 -3.0023 0.9540
-10.6772 -3.9762 -3.0022 0.9540
-9.2458 -6.6547 -3.0017 0.9540
-8.6162 -7.4507 -3.0015 0.9540
-7.1574 -8.8588 -3.0010 0.9540
-6.3399 -9.4598 -3.0007 0.9540
-5.4723 -9.9856 -3.0004 0.9540
-4.5613 -10.4319 -3.0001 0.9540
-2.6388 -11.0730 -2.9994 0.9540
1.3908 -11.2926 -2.9981 0.9540
4.3234 -10.5204 -2.9971 0.9540
5.2421 -10.0928 -2.9968 0.9540
6.1190 -9.5852 -2.9965 0.9540
6.9472 -9.0017 -2.9962 0.9541
7.7201 -8.3469 -2.9959 0.9541
8.4317 -7.6261 -2.9957 0.9541
9.6490 -6.0095 -2.9953 0.9541
10.1450 -5.1265 -2.9951 0.9541
10.5605 -4.2030 -2.9950 0.9541
10.8923 -3.2462 -2.9949 0.9541
11.1377 -2.2638 -2.9948 0.9541
11.3624 -0.2532 -2.9947 0.9541
11.0260 2.7578 -2.9948 0.9541
10.7371 3.7283 -2.9950 0.9541
9.4034 5.2903 -2.8430 0.9564
8.8958 6.1066 -2.8432 0.9563
7.6732 7.5882 -2.8436 0.9563
5.3973 9.3484 -2.8444 0.9563
4.5443 9.7927 -2.8447 0.9563
3.6550 10.1594 -2.8450 0.9563
2.7366 10.4455 -2.8453 0.9563
1.7962 10.6488 -2.8456 0.9563
0.8414 10.7677 -2.8459 0.9563
-0.1203 10.8011 -2.8463 0.9563
-1.0813 10.7487 -2.8466 0.9563
-2.0340 10.6110 -2.8469 0.9563
-3.8840 10.0845 -2.8475 0.9563
-4.7666 9.6998 -2.8478 0.9563
-5.6116 9.2379 -2.8481 0.9563
-6.4122 8.7027 -2.8484 0.9563
-6.1786 6.9862 -2.4575 0.9622
-8.4856 6.7010 -2.8491 0.9563
-10.4893 4.4479 -3.0022 0.9540
-10.8440 3.4968 -3.0023 0.9540
-11.1125 2.5178 -3.0024 0.9540
-11.2927 1.5187 -3.0024 0.9540
-11.2927 -1.5187 -3.0024 0.9540
-11.1124 -2.5177 -3.0023 0.9540
-10.8439 -3.4967 -3.0022 0.9540
-10.0512 -5.3635 -3.0020 0.9540
-9.5334 -6.2364 -3.0018 0.9540
-8.9398 -7.0597 -3.0016 0.9540
-5.0217 -10.2189 -3.0003 0.9540
-3.1297 -10.9451 -2.9996 0.9540
-2.1428 -11.1789 -2.9993 0.9540
-1.1392 -11.3240 -2.9989 0.9540
-0.1268 -11.3791 -2.9986 0.9540
1.8924 -11.2188 -2.9979 0.9540
3.8507 -10.7031 -2.9972 0.9540
4.7875 -10.3168 -2.9969 0.9540
5.6862 -9.8488 -2.9966 0.9540
6.5396 -9.3027 -2.9963 0.9541
8.0840 -7.9944 -2.9958 0.9541
9.9068 -5.5735 -2.9952 0.9541
10.3630 -4.6694 -2.9951 0.9541
11.2274 -1.7654 -2.9948 0.9541
11.2948 1.2635 -2.9948 0.9541
10.8924 3.2463 -2.9949 0.9541
10.5606 4.2030 -2.9950 0.9541
8.6152 6.4971 -2.8433 0.9563
7.3279 7.9228 -2.8437 0.9563
5.8081 9.0982 -2.8442 0.9563
-0.6014 10.7856 -2.8464 0.9563
-2.5048 10.5104 -2.8471 0.9563
-3.4307 10.2469 -2.8474 0.9563
-5.1942 9.4783 -2.8480 0.9563
-8.7760 6.3166 -2.8492 0.9563
-9.3039 5.5107 -2.8494 0.9563
-10.0199 4.7861 -2.9260 0.9551
-10.6773 3.9763 -3.0022 0.9540
-11.3492 1.0142 -3.0024 0.9540
-10.5012 -1.8919 -3.0021 0.9566
-10.2909 -2.8190 -3.0021 0.9566
-9.6273 -4.5986 -3.0018 0.9566
-8.6584 -6.2320 -3.0015 0.9566
-6.7028 -8.2962 -3.0008 0.9566
-5.9373 -8.8591 -3.0006 0.9567
-5.1248 -9.3515 -3.0003 0.9567
-3.3848 -10.1100 -2.9997 0.9567
-2.4713 -10.3701 -2.9994 0.9567
-0.5934 -10.6416 -2.9987 0.9567
0.3561 -10.6511 -2.9984 0.9567
1.3026 -10.5760 -2.9981 0.9567
2.2385 -10.4170 -2.9978 0.9567
5.7309 -8.9773 -2.9966 0.9567
7.2306 -7.8176 -2.9961 0.9567
8.5009 -6.4108 -2.9957 0.9567
9.5018 -4.8015 -2.9953 0.9567
9.8911 -3.9366 -2.9952 0.9567
10.4317 -2.1203 -2.9950 0.9567
10.6210 0.7110 -2.9950 0.9567
10.5157 1.6535 -2.9950 0.9567
10.0565 3.4920 -2.9952 0.9567
8.8073 4.9549 -2.8432 0.9589
8.3318 5.7194 -2.8434 0.9589
7.7902 6.4387 -2.8436 0.9589
7.1867 7.1071 -2.8438 0.9589
6.5261 7.7191 -2.8440 0.9589
5.8137 8.2700 -2.8442 0.9589
2.5630 9.7828 -2.8453 0.9588
0.7880 10.0844 -2.8459 0.9588
-2.7821 9.7295 -2.8472 0.9588
-3.6374 9.4442 -2.8474 0.9588
-5.2552 8.6513 -2.8480 0.9588
-7.3560 6.9572 -2.8487 0.9588
-8.4741 5.5435 -2.8491 0.9588
-8.9829 4.7934 -2.8647 0.9586
-9.8229 4.1653 -3.0019 0.9566
-10.4064 2.3578 -3.0021 0.9566
-10.6599 0.4753 -3.0022 0.9566
-10.6599 -0.4754 -3.0022 0.9566
-10.1549 -3.2745 -3.0020 0.9566
-9.8228 -4.1653 -3.0019 0.9566
-9.4126 -5.0227 -3.0018 0.9566
-8.9277 -5.8403 -3.0016 0.9566
-4.7029 -9.5701 -3.0001 0.9567
-2.0068 -10.4693 -2.9992 0.9567
-1.0669 -10.6052 -2.9989 0.9567
-0.1187 -10.6570 -2.9986 0.9567
0.8302 -10.6241 -2.9983 0.9567
2.7002 -10.3064 -2.9976 0.9567
3.6064 -10.0241 -2.9973 0.9567
4.4838 -9.6624 -2.9970 0.9567
7.5714 -7.4875 -2.9960 0.9567
8.7778 -6.0256 -2.9956 0.9567
10.0564 -3.4919 -2.9952 0.9567
10.5157 -1.6535 -2.9950 0.9567
10.6210 -0.7110 -2.9950 0.9567
10.4317 2.1203 -2.9950 0.9567
10.2019 3.0405 -2.9951 0.9567
9.8911 3.9366 -2.9952 0.9567
6.8632 7.4204 -2.8439 0.9589
6.1760 8.0025 -2.8441 0.9589
4.6601 8.9724 -2.8446 0.9589
3.8434 9.3525 -2.8449 0.9589
2.9961 9.6584 -2.8452 0.9589
2.1248 9.8878 -2.8455 0.9588
-0.5632 10.1010 -2.8464 0.9588
-4.8644 8.8764 -2.8479 0.9588
-5.6357 8.4090 -2.8481 0.9588
-5.7974 7.1755 -2.5955 0.9624
-7.6589 6.6229 -2.8488 0.9588
-8.2185 5.9153 -2.8490 0.9588
-8.7129 5.1607 -2.8492 0.9588
-9.6274 4.5986 -3.0019 0.9566
-10.2909 2.8190 -3.0021 0.9566
-10.5012 1.8919 -3.0022 0.9566
-9.6706 -2.6491 -3.0019 0.9590
-9.3962 -3.4992 -3.0018 0.9590
-9.0471 -4.3214 -3.0016 0.9590
-8.1367 -5.8564 -3.0013 0.9590
-6.9685 -7.2054 -3.0009 0.9590
-6.2990 -7.7963 -3.0007 0.9590
-4.8161 -8.7882 -3.0002 0.9590
-2.3225 -9.7456 -2.9993 0.9590
-1.4457 -9.9126 -2.9990 0.9590
-0.5577 -10.0010 -2.9987 0.9590
2.1037 -9.7900 -2.9978 0.9591
3.8055 -9.2601 -2.9973 0.9591
5.3861 -8.4372 -2.9967 0.9591
6.1152 -7.9236 -2.9965 0.9591
8.4937 -5.2899 -2.9957 0.9591
9.2962 -3.6998 -2.9954 0.9591
9.5883 -2.8576 -2.9953 0.9591
9.8044 -1.9929 -2.9952 0.9591
9.9427 -1.1123 -2.9952 0.9591
10.0021 -0.2229 -2.9952 0.9591
9.9823 0.6682 -2.9952 0.9591
9.7060 2.4277 -2.9953 0.9591
9.4517 3.2820 -2.9954 0.9591
9.1224 4.1104 -2.9955 0.9591
8.3941 4.7225 -2.8834 0.9606
7.8306 5.3754 -2.8435 0.9611
6.7544 6.6795 -2.8439 0.9611
5.4639 7.7725 -2.8444 0.9611
1.5810 9.3728 -2.8457 0.9611
-2.6145 9.1435 -2.8471 0.9611
-4.9387 8.1301 -2.8479 0.9611
-6.1416 6.9444 -2.7754 0.9620
-6.9127 6.5380 -2.8485 0.9611
-8.8455 4.7201 -3.0016 0.9590
-9.5430 3.0772 -3.0018 0.9590
-9.7792 2.2157 -3.0019 0.9590
-10.0174 0.4467 -3.0020 0.9590
-10.0174 -0.4467 -3.0020 0.9590
-8.8454 -4.7200 -3.0016 0.9590
-7.2828 -6.8880 -3.0010 0.9590
-5.2030 -8.5654 -3.0003 0.9590
-4.4196 -8.9936 -3.0001 0.9590
-3.6012 -9.3504 -2.9998 0.9590
-2.7545 -9.6329 -2.9995 0.9590
-1.0027 -9.9667 -2.9989 0.9590
2.5376 -9.6861 -2.9977 0.9591
3.3894 -9.4209 -2.9974 0.9591
4.2140 -9.0810 -2.9971 0.9591
5.7563 -8.1885 -2.9966 0.9591
7.7135 -6.3753 -2.9959 0.9591
8.2498 -5.6632 -2.9958 0.9591
8.7207 -4.9062 -2.9956 0.9591
9.4516 -3.2820 -2.9954 0.9591
9.9427 1.1122 -2.9952 0.9591
9.5884 2.8576 -2.9953 0.9591
9.2963 3.6998 -2.9954 0.9591
8.9304 4.5128 -2.9956 0.9591
8.0621 5.0211 -2.8435 0.9611
6.4503 6.9740 -2.8440 0.9611
5.8045 7.5210 -2.8442 0.9611
1.9969 9.2926 -2.8455 0.9611
1.1620 9.4344 -2.8458 0.9611
0.3177 9.5014 -2.8461 0.9611
-0.5293 9.4929 -2.8464 0.9611
-2.2045 9.2505 -2.8470 0.9611
-3.0194 9.0184 -2.8472 0.9611
-3.8104 8.7147 -2.8475 0.9611
-5.7768 7.1500 -2.7519 0.9623
-6.6144 6.8393 -2.8484 0.9611
-7.1974 6.2238 -2.8486 0.9610
-7.7232 5.5588 -2.8488 0.9610
-9.3962 3.4992 -3.0018 0.9590
-9.4519 0.0000 -3.0018 0.9611
-9.3020 -1.6758 -3.0017 0.9611
-8.8570 -3.2984 -3.0016 0.9611
-8.5280 -4.0735 -3.0015 0.9611
-7.6699 -5.5204 -3.0012 0.9611
-6.5687 -6.7920 -3.0008 0.9611
-5.2596 -7.8479 -3.0003 0.9611
-4.5399 -8.2842 -3.0001 0.9611
-3.7842 -8.6546 -2.9998 0.9611
-2.9986 -8.9563 -2.9996 0.9611
-2.1893 -9.1868 -2.9993 0.9611
-0.5257 -9.4277 -2.9987 0.9611
0.3155 -9.4362 -2.9984 0.9612
1.9832 -9.2290 -2.9979 0.9612
2.7965 -9.0150 -2.9976 0.9612
4.3498 -8.3749 -2.9971 0.9612
7.5320 -5.6802 -2.9960 0.9612
8.0073 -4.9870 -2.9958 0.9612
8.4190 -4.2543 -2.9957 0.9612
8.7639 -3.4879 -2.9956 0.9612
9.0392 -2.6940 -2.9955 0.9612
9.3733 -1.0486 -2.9954 0.9612
9.4107 0.6300 -2.9954 0.9612
9.1502 2.2886 -2.9955 0.9612
8.9104 3.0941 -2.9956 0.9612
8.6000 3.8750 -2.9957 0.9612
8.2213 4.6253 -2.9958 0.9612
7.3822 5.0675 -2.8437 0.9631
6.3675 6.2969 -2.8440 0.9631
5.7822 6.8392 -2.8442 0.9631
4.4786 7.7572 -2.8447 0.9631
3.0328 8.4298 -2.8452 0.9631
1.4904 8.8356 -2.8457 0.9631
0.6981 8.9341 -2.8460 0.9631
-1.6875 8.8036 -2.8468 0.9631
-3.2223 8.3664 -2.8473 0.9631
-3.9545 8.0471 -2.8475 0.9631
-6.5162 6.1630 -2.8484 0.9631
-7.0393 5.5588 -2.8486 0.9631
-7.5065 4.9105 -2.8487 0.9631
-8.3380 4.4492 -3.0014 0.9611
-8.9954 2.9007 -3.0016 0.9611
-9.4425 0.4211 -3.0018 0.9611
-9.4425 -0.4210 -3.0018 0.9611
-9.2180 -2.0886 -3.0017 0.9611
-8.7012 -3.6896 -3.0015 0.9611
-7.4161 -5.8564 -3.0011 0.9611
-6.2594 -7.0777 -3.0007 0.9611
-2.5965 -9.0806 -2.9994 0.9611
-1.7778 -9.2748 -2.9992 0.9611
-0.9452 -9.3953 -2.9989 0.9611
-0.1052 -9.4412 -2.9986 0.9611
0.7355 -9.4123 -2.9983 0.9612
2.3922 -9.1311 -2.9977 0.9612
3.9726 -8.5607 -2.9972 0.9612
4.7184 -8.1724 -2.9970 0.9612
6.0917 -7.2053 -2.9965 0.9612
8.2213 -4.6252 -2.9958 0.9612
8.9104 -3.0940 -2.9955 0.9612
9.1502 -2.2886 -2.9955 0.9612
9.3174 -1.4651 -2.9954 0.9612
9.2430 1.8787 -2.9955 0.9612
9.0393 2.6940 -2.9955 0.9612
8.7639 3.4879 -2.9956 0.9612
8.4190 4.2543 -2.9957 0.9612
7.6122 4.7409 -2.8480 0.9631
7.1493 5.3915 -2.8438 0.9631
6.0809 6.5746 -2.8441 0.9631
5.4720 7.0902 -2.8443 0.9631
4.8196 7.5497 -2.8446 0.9631
4.1288 7.9493 -2.8448 0.9631
3.4052 8.2860 -2.8451 0.9631
1.8824 8.7600 -2.8456 0.9631
1.0954 8.8937 -2.8458 0.9631
-0.4990 8.9487 -2.8464 0.9631
-2.0781 8.7201 -2.8469 0.9631
-2.8462 8.5013 -2.8472 0.9631
-4.3092 7.8633 -2.8477 0.9631
-4.9924 7.4492 -2.8479 0.9631
-6.7845 5.8668 -2.8485 0.9631
-8.0531 4.7698 -2.9725 0.9615
-9.1158 2.4971 -3.0017 0.9611
-9.3020 1.6758 -3.0017 0.9611
-8.9339 -0.0000 -3.0016 0.9630
-8.8984 -0.7951 -3.0016 0.9630
-8.7921 -1.5840 -3.0016 0.9630
-8.6161 -2.3602 -3.0015 0.9630
-8.3716 -3.1176 -3.0014 0.9630
-7.6856 -4.5522 -3.0012 0.9630
-6.7560 -5.8421 -3.0009 0.9630
-6.2088 -6.4198 -3.0007 0.9630
-4.2912 -7.8304 -3.0000 0.9630
-2.8343 -8.4657 -2.9995 0.9630
-2.0694 -8.6837 -2.9993 0.9630
-1.2882 -8.8326 -2.9990 0.9630
-0.4969 -8.9114 -2.9987 0.9630
0.2982 -8.9195 -2.9985 0.9630
1.0908 -8.8567 -2.9982 0.9630
1.8746 -8.7237 -2.9979 0.9630
2.6434 -8.5215 -2.9977 0.9631
6.6141 -5.9821 -2.9963 0.9631
7.1199 -5.3694 -2.9961 0.9631
7.5692 -4.7141 -2.9960 0.9631
8.2844 -3.2971 -2.9958 0.9631
8.5448 -2.5466 -2.9957 0.9631
8.9136 -0.1986 -2.9956 0.9631
8.8959 0.5955 -2.9956 0.9631
8.8077 1.3850 -2.9956 0.9631
8.6497 2.1634 -2.9957 0.9631
8.1295 3.6630 -2.9958 0.9631
7.7716 4.3722 -2.9960 0.9631
5.4657 6.4649 -2.8443 0.9649
4.8690 6.9262 -2.8446 0.9649
2.8668 7.9684 -2.8452 0.9649
2.1464 8.1926 -2.8455 0.9649
0.6599 8.4449 -2.8460 0.9649
-3.7378 7.6063 -2.8475 0.9649
-4.4004 7.2439 -2.8477 0.9649
-5.0280 6.8240 -2.8479 0.9649
-5.6158 6.3499 -2.8481 0.9649
-6.1591 5.8253 -2.8483 0.9649
-6.6535 5.2542 -2.8485 0.9649
-7.2989 4.7747 -2.9304 0.9639
-8.2243 3.4874 -3.0014 0.9630
-8.5023 2.7417 -3.0015 0.9630
-8.9250 0.3980 -3.0016 0.9630
-8.9250 -0.3979 -3.0016 0.9630
-8.8540 -1.1907 -3.0016 0.9630
-8.5023 -2.7416 -3.0015 0.9630
-7.8809 -4.2054 -3.0012 0.9630
-7.4750 -4.8899 -3.0011 0.9630
-7.0097 -5.5355 -3.0009 0.9630
-6.4888 -6.1371 -3.0008 0.9630
-5.9164 -6.6898 -3.0006 0.9630
-4.6359 -7.6317 -3.0001 0.9630
-3.2088 -8.3314 -2.9996 0.9630
-1.6805 -8.7668 -2.9991 0.9630
0.6952 -8.8969 -2.9983 0.9630
1.4842 -8.7989 -2.9981 0.9630
2.2613 -8.6312 -2.9978 0.9630
3.0202 -8.3949 -2.9975 0.9631
6.3413 -6.2710 -2.9964 0.9631
7.3518 -5.0468 -2.9961 0.9631
8.4229 -2.9247 -2.9957 0.9631
8.8077 -1.3850 -2.9956 0.9631
8.8959 -0.5955 -2.9956 0.9631
8.9136 0.1987 -2.9956 0.9631
8.8606 0.9912 -2.9956 0.9631
8.5448 2.5466 -2.9957 0.9631
8.2845 3.2971 -2.9958 0.9631
7.5559 4.7058 -2.9907 0.9631
6.7581 5.0966 -2.8439 0.9649
6.2780 5.6781 -2.8441 0.9649
5.1725 6.7022 -2.8444 0.9649
4.5558 7.1365 -2.8447 0.9649
3.9028 7.5143 -2.8449 0.9649
3.2188 7.8324 -2.8451 0.9649
-0.4717 8.4587 -2.8464 0.9649
-1.2228 8.3839 -2.8466 0.9649
-2.6903 8.0356 -2.8471 0.9649
-3.3952 7.7649 -2.8474 0.9649
-4.7189 7.0410 -2.8478 0.9649
-5.3272 6.5935 -2.8480 0.9649
-5.8933 6.0936 -2.8482 0.9649
-6.8812 4.9527 -2.8485 0.9649
-8.0607 3.8503 -3.0013 0.9630
-8.4310 -0.7534 -3.0014 0.9647
-8.3304 -1.5008 -3.0014 0.9647
-8.1636 -2.2362 -3.0013 0.9647
-7.9320 -2.9539 -3.0013 0.9647
-7.6373 -3.6480 -3.0012 0.9647
-7.2820 -4.3131 -3.0010 0.9647
-6.4013 -5.5354 -3.0007 0.9647
-5.8828 -6.0828 -3.0006 0.9647
-4.7105 -7.0285 -3.0002 0.9647
-4.0659 -7.4194 -2.9999 0.9647
-2.6856 -8.0214 -2.9995 0.9647
-1.2206 -8.3691 -2.9990 0.9647
3.2132 -7.8189 -2.9975 0.9648
4.5480 -7.1243 -2.9970 0.9648
5.1636 -6.6907 -2.9968 0.9648
6.7466 -5.0879 -2.9963 0.9648
7.8502 -3.1243 -2.9959 0.9648
8.0969 -2.4131 -2.9958 0.9648
8.4464 -0.1882 -2.9957 0.9648
8.3460 1.3123 -2.9958 0.9648
8.1963 2.0500 -2.9958 0.9648
7.9815 2.7715 -2.9959 0.9648
5.7035 5.6403 -2.8443 0.9665
5.1791 6.1259 -2.8444 0.9665
4.0115 6.9481 -2.8448 0.9665
3.3774 7.2781 -2.8451 0.9665
2.7164 7.5505 -2.8453 0.9665
2.0338 7.7629 -2.8455 0.9665
-2.2073 7.7196 -2.8470 0.9665
-2.8859 7.4930 -2.8472 0.9665
-3.5416 7.2070 -2.8474 0.9665
-4.7641 6.4658 -2.8478 0.9665
-5.3210 6.0165 -2.8480 0.9665
-5.8357 5.5194 -2.8482 0.9665
-6.3042 4.9783 -2.8483 0.9665
-7.0826 4.6332 -3.0010 0.9647
-7.7924 3.3043 -3.0012 0.9647
-8.0558 2.5977 -3.0013 0.9647
-8.2553 1.8704 -3.0014 0.9647
-8.3891 1.1282 -3.0014 0.9647
-8.2552 -1.8704 -3.0014 0.9647
-8.0558 -2.5977 -3.0013 0.9647
-7.7924 -3.3043 -3.0012 0.9647
-7.4671 -3.9846 -3.0011 0.9647
-6.6417 -5.2449 -3.0008 0.9647
-6.1481 -5.8148 -3.0006 0.9647
-3.7312 -7.5928 -2.9998 0.9647
-2.3255 -8.1328 -2.9993 0.9647
0.6587 -8.4301 -2.9983 0.9647
1.4063 -8.3374 -2.9981 0.9648
4.2262 -7.3200 -2.9971 0.9648
4.8606 -6.9143 -2.9969 0.9648
5.4564 -6.4538 -2.9967 0.9648
6.0088 -5.9422 -2.9965 0.9648
6.5135 -5.3835 -2.9964 0.9648
7.3641 -4.1429 -2.9961 0.9648
7.9814 -2.7714 -2.9959 0.9648
8.1962 -2.0500 -2.9958 0.9648
8.3460 -1.3123 -2.9957 0.9648
8.4464 0.1883 -2.9957 0.9648
8.3962 0.9393 -2.9957 0.9648
8.2794 1.6829 -2.9958 0.9648
7.8502 3.1243 -2.9959 0.9648
5.9489 5.3804 -2.8442 0.9665
3.6981 7.1202 -2.8450 0.9665
3.0500 7.4217 -2.8452 0.9665
2.3775 7.6643 -2.8454 0.9665
1.6860 7.8461 -2.8456 0.9665
0.9811 7.9657 -2.8459 0.9665
-1.1586 7.9439 -2.8466 0.9665
-5.0475 6.2474 -2.8479 0.9665
-5.5839 5.7737 -2.8481 0.9665
-6.0760 5.2541 -2.8483 0.9665
-6.6380 4.7778 -2.9000 0.9659
-7.2821 4.3132 -3.0011 0.9647
-7.6374 3.6481 -3.0012 0.9647
-7.9320 2.9540 -3.0013 0.9647
-8.1637 2.2363 -3.0014 0.9647
-8.3304 1.5008 -3.0014 0.9647
-8.4310 0.7534 -3.0014 0.9647
-8.0056 -0.7154 -3.0013 0.9663
-7.9101 -1.4251 -3.0013 0.9663
-7.7517 -2.1234 -3.0012 0.9663
-7.5317 -2.8048 -3.0011 0.9663
-6.9146 -4.0955 -3.0009 0.9663
-6.0783 -5.2562 -3.0006 0.9663
-5.0495 -6.2498 -3.0003 0.9663
-4.4729 -6.6740 -3.0001 0.9663
-3.2182 -7.3603 -2.9997 0.9663
-2.5502 -7.6169 -2.9994 0.9663
-1.8620 -7.8131 -2.9992 0.9663
0.9815 -7.9691 -2.9982 0.9663
1.6867 -7.8495 -2.9980 0.9663
3.0513 -7.4249 -2.9975 0.9663
3.6998 -7.1233 -2.9973 0.9663
4.9035 -6.3536 -2.9969 0.9663
5.4492 -5.8916 -2.9967 0.9663
6.4068 -4.8316 -2.9964 0.9663
6.8111 -4.2420 -2.9963 0.9663
7.4547 -2.9669 -2.9960 0.9663
7.6890 -2.2916 -2.9960 0.9663
7.8623 -1.5981 -2.9959 0.9663
7.9733 -0.8919 -2.9959 0.9663
8.0210 -0.1787 -2.9959 0.9663
7.9257 1.2462 -2.9959 0.9663
7.7834 1.9468 -2.9959 0.9663
6.6156 4.5413 -2.9964 0.9663
3.8094 6.5980 -2.8449 0.9680
2.5795 7.1699 -2.8453 0.9680
1.9313 7.3716 -2.8456 0.9680
0.5938 7.5985 -2.8460 0.9680
-1.4352 7.4871 -2.8467 0.9680
-2.7404 7.1152 -2.8471 0.9680
-3.3630 6.8435 -2.8473 0.9680
-3.9591 6.5175 -2.8475 0.9680
-4.5238 6.1397 -2.8477 0.9680
-5.0526 5.7131 -2.8479 0.9680
-5.5413 5.2410 -2.8481 0.9680
-6.0521 4.7793 -2.8796 0.9676
-6.7252 4.3995 -3.0009 0.9663
-7.6494 2.4666 -3.0012 0.9663
-8.0296 0.3580 -3.0013 0.9663
-8.0296 -0.3580 -3.0013 0.9663
-7.6493 -2.4666 -3.0012 0.9663
-6.7252 -4.3994 -3.0008 0.9663
-6.3066 -4.9803 -3.0007 0.9663
-5.8380 -5.5215 -3.0005 0.9663
-5.3231 -6.0189 -3.0004 0.9663
-4.1710 -6.8664 -3.0000 0.9663
-3.5430 -7.2099 -2.9998 0.9663
-2.8871 -7.4961 -2.9995 0.9663
-2.2082 -7.7227 -2.9993 0.9663
-0.8039 -7.9906 -2.9988 0.9663
0.6255 -8.0052 -2.9983 0.9663
1.3355 -7.9171 -2.9981 0.9663
4.6157 -6.5660 -2.9970 0.9663
5.1815 -6.1287 -2.9968 0.9663
6.1853 -5.1123 -2.9965 0.9663
7.5794 -2.6318 -2.9960 0.9663
7.7834 -1.9468 -2.9959 0.9663
7.9256 -1.2462 -2.9959 0.9663
8.0050 -0.5359 -2.9959 0.9663
8.0210 0.1788 -2.9959 0.9663
7.8623 1.5981 -2.9959 0.9663
7.4548 2.9669 -2.9961 0.9663
6.8111 4.2420 -2.9963 0.9663
5.6492 5.1094 -2.8443 0.9680
3.5118 6.7614 -2.8450 0.9680
2.8963 7.0476 -2.8452 0.9680
2.2577 7.2780 -2.8454 0.9680
1.6010 7.4506 -2.8457 0.9680
0.9316 7.5642 -2.8459 0.9680
0.2547 7.6177 -2.8461 0.9680
-0.4244 7.6107 -2.8464 0.9680
-1.1002 7.5434 -2.8466 0.9680
-2.4206 7.2299 -2.8470 0.9680
-3.0547 6.9863 -2.8472 0.9680
-5.3022 5.4824 -2.8480 0.9680
-5.7695 4.9890 -2.8482 0.9680
-7.2520 3.4640 -3.0011 0.9663
-7.5318 2.8049 -3.0011 0.9663
-7.7517 2.1234 -3.0012 0.9663
-8.0056 0.7154 -3.0013 0.9663
-7.6469 0.0000 -3.0012 0.9677
-7.5256 -1.3558 -3.0011 0.9677
-7.1657 -2.6685 -3.0010 0.9677
-6.8995 -3.2956 -3.0009 0.9677
-6.2054 -4.4663 -3.0007 0.9677
-5.7829 -5.0007 -3.0005 0.9677
-4.2556 -6.3498 -3.0000 0.9677
-3.6733 -6.7029 -2.9998 0.9677
-2.4263 -7.2469 -2.9994 0.9677
-1.7715 -7.4336 -2.9992 0.9677
-1.1028 -7.5612 -2.9989 0.9677
0.9338 -7.5821 -2.9982 0.9677
2.2630 -7.2953 -2.9978 0.9677
2.9032 -7.0644 -2.9976 0.9677
3.5202 -6.7775 -2.9974 0.9677
4.1092 -6.4369 -2.9972 0.9677
4.6655 -6.0452 -2.9970 0.9677
6.0958 -4.5971 -2.9965 0.9677
7.0930 -2.8230 -2.9962 0.9677
7.3159 -2.1804 -2.9961 0.9677
7.5864 -0.8486 -2.9960 0.9677
7.6318 -0.1701 -2.9960 0.9677
7.6166 0.5099 -2.9960 0.9677
7.5411 1.1858 -2.9960 0.9677
6.9604 3.1362 -2.9962 0.9677
4.6795 5.5349 -2.8446 0.9693
3.6244 6.2777 -2.8450 0.9693
3.0515 6.5758 -2.8452 0.9693
1.2061 7.1500 -2.8458 0.9693
0.5649 7.2295 -2.8460 0.9693
-0.7260 7.2162 -2.8465 0.9693
-1.3655 7.1235 -2.8467 0.9693
-1.9942 6.9742 -2.8469 0.9693
-3.7667 6.2009 -2.8475 0.9693
-4.8071 5.4354 -2.8478 0.9693
-6.7458 3.5997 -3.0009 0.9677
-7.0396 2.9851 -3.0010 0.9677
-7.2776 2.3467 -3.0011 0.9677
-7.4577 1.6897 -3.0011 0.9677
-7.6393 -0.3406 -3.0012 0.9677
-7.5786 -1.0192 -3.0012 0.9677
-7.4577 -1.6897 -3.0011 0.9677
-7.2775 -2.3467 -3.0010 0.9677
-7.0396 -2.9850 -3.0010 0.9677
-6.7457 -3.5996 -3.0009 0.9677
-6.3983 -4.1856 -3.0007 0.9677
-4.5343 -6.1541 -3.0001 0.9677
-1.4386 -7.5048 -2.9990 0.9677
-0.0851 -7.6398 -2.9986 0.9677
0.5952 -7.6165 -2.9984 0.9677
1.2706 -7.5327 -2.9981 0.9677
3.2149 -6.9279 -2.9975 0.9677
5.4291 -5.3689 -2.9967 0.9677
6.2944 -4.3209 -2.9964 0.9677
6.6538 -3.7434 -2.9963 0.9677
6.9603 -3.1362 -2.9962 0.9677
7.2116 -2.5041 -2.9961 0.9677
7.4057 -1.8523 -2.9961 0.9677
7.3160 2.1804 -2.9961 0.9677
7.0930 2.8230 -2.9962 0.9677
6.8139 3.4432 -2.9963 0.9677
6.4806 4.0361 -2.9964 0.9677
6.0959 4.5971 -2.9965 0.9677
5.3750 4.8614 -2.8444 0.9693
3.9004 6.1098 -2.8449 0.9693
3.3413 6.4331 -2.8451 0.9693
2.7556 6.7055 -2.8453 0.9693
2.1480 6.9246 -2.8455 0.9693
0.8864 7.1969 -2.8459 0.9693
-1.0467 7.1770 -2.8466 0.9693
-1.6815 7.0559 -2.8468 0.9693
-5.0446 5.2160 -2.8479 0.9693
-6.5786 3.8965 -3.0008 0.9677
-6.8996 3.2957 -3.0009 0.9677
-7.1657 2.6686 -3.0010 0.9677
-7.3750 2.0203 -3.0011 0.9677
-7.5256 1.3558 -3.0011 0.9677
-7.2880 0.0000 -3.0011 0.9690
-7.2590 -0.6487 -3.0010 0.9690
-7.0288 -1.9254 -3.0010 0.9690
-6.8294 -2.5433 -3.0009 0.9690
-6.5757 -3.1410 -3.0008 0.9690
-5.0652 -5.2374 -3.0003 0.9690
-4.5787 -5.6672 -3.0001 0.9690
-2.9183 -6.6742 -2.9996 0.9690
-1.6884 -7.0849 -2.9991 0.9690
-0.4054 -7.2710 -2.9987 0.9690
0.8900 -7.2266 -2.9983 0.9690
2.7671 -6.7333 -2.9976 0.9690
3.3551 -6.4598 -2.9974 0.9690
4.9417 -5.3429 -2.9969 0.9690
5.3974 -4.8816 -2.9967 0.9690
6.1768 -3.8470 -2.9965 0.9690
6.4945 -3.2818 -2.9964 0.9690
7.2309 -0.8089 -2.9961 0.9690
7.2742 -0.1621 -2.9961 0.9690
7.2598 0.4860 -2.9961 0.9690
7.1877 1.1302 -2.9961 0.9690
7.0587 1.7655 -2.9962 0.9690
6.8737 2.3868 -2.9963 0.9690
6.3420 3.5680 -2.9964 0.9690
5.9995 4.1184 -2.9966 0.9690
5.6094 4.6363 -2.9967 0.9690
4.4602 5.2755 -2.8447 0.9706
3.9731 5.6519 -2.8449 0.9706
3.4545 5.9834 -2.8450 0.9706
2.9085 6.2676 -2.8452 0.9706
2.3392 6.5020 -2.8454 0.9706
1.7514 6.6849 -2.8456 0.9705
1.1495 6.8147 -2.8458 0.9705
0.5384 6.8905 -2.8460 0.9705
-0.0770 6.9116 -2.8462 0.9705
-0.6919 6.8778 -2.8464 0.9705
-1.9007 6.6471 -2.8468 0.9705
-3.0495 6.2056 -2.8472 0.9705
-4.1020 5.5673 -2.8476 0.9705
-5.7186 4.5160 -3.0005 0.9690
-6.4292 3.4307 -3.0008 0.9690
-6.9360 2.2366 -3.0009 0.9690
-7.1077 1.6104 -3.0010 0.9690
-7.2229 0.9714 -3.0010 0.9690
-7.2807 -0.3246 -3.0011 0.9690
-7.1077 -1.6104 -3.0010 0.9690
-6.9360 -2.2366 -3.0009 0.9690
-6.4292 -3.4307 -3.0008 0.9690
-6.0981 -3.9892 -3.0006 0.9690
-3.7822 -6.2263 -2.9998 0.9690
-3.2128 -6.5378 -2.9997 0.9690
-2.6180 -6.7974 -2.9994 0.9690
-2.0024 -7.0029 -2.9992 0.9690
-1.3711 -7.1529 -2.9990 0.9690
-0.0811 -7.2816 -2.9986 0.9690
0.5673 -7.2593 -2.9984 0.9690
1.2110 -7.1795 -2.9981 0.9690
1.8451 -7.0427 -2.9979 0.9690
3.0641 -6.6031 -2.9975 0.9690
3.6395 -6.3037 -2.9973 0.9690
4.1858 -5.9544 -2.9971 0.9690
4.6989 -5.5579 -2.9970 0.9690
5.6093 -4.6362 -2.9967 0.9690
6.3420 -3.5679 -2.9964 0.9690
6.6341 -2.9892 -2.9963 0.9690
6.8737 -2.3868 -2.9962 0.9690
7.2742 0.1621 -2.9961 0.9690
7.2309 0.8089 -2.9961 0.9690
6.9731 2.0782 -2.9962 0.9690
6.4946 3.2818 -2.9964 0.9690
5.2307 4.7309 -2.9042 0.9700
4.6906 5.0714 -2.8446 0.9706
4.2208 5.4691 -2.8448 0.9706
3.7175 5.8234 -2.8449 0.9706
2.6265 6.3911 -2.8453 0.9706
0.8448 6.8594 -2.8459 0.9705
-2.1950 6.5561 -2.8469 0.9705
-2.7700 6.3351 -2.8471 0.9705
-3.3231 6.0638 -2.8473 0.9705
-4.3461 5.3792 -2.8477 0.9705
-5.9142 4.2568 -3.0006 0.9690
-6.5758 3.1410 -3.0008 0.9690
-6.8294 2.5433 -3.0009 0.9690
-7.1724 1.2922 -3.0010 0.9690
-6.9293 -0.6192 -3.0009 0.9701
-6.8466 -1.2335 -3.0009 0.9701
-6.7096 -1.8380 -3.0009 0.9701
-6.5192 -2.4278 -3.0008 0.9701
-6.2771 -2.9983 -3.0007 0.9702
-5.2613 -4.5496 -3.0004 0.9702
-4.8352 -4.9996 -3.0002 0.9702
-4.3708 -5.4099 -3.0000 0.9702
-3.8718 -5.7771 -2.9999 0.9702
-2.7858 -6.3712 -2.9995 0.9702
-0.3870 -6.9410 -2.9987 0.9702
1.4602 -6.7952 -2.9981 0.9702
2.0591 -6.6378 -2.9979 0.9702
3.2029 -6.1667 -2.9975 0.9702
3.7389 -5.8569 -2.9973 0.9702
4.2451 -5.5005 -2.9971 0.9702
5.1526 -4.6602 -2.9968 0.9702
6.2000 -3.1329 -2.9965 0.9702
6.9030 -0.7722 -2.9962 0.9702
6.8618 1.0790 -2.9963 0.9702
6.5620 2.2786 -2.9964 0.9702
6.3333 2.8537 -2.9964 0.9702
6.0544 3.4062 -2.9965 0.9702
4.7858 4.7328 -2.9034 0.9711
4.2578 5.0362 -2.8448 0.9717
2.7765 5.9832 -2.8453 0.9717
2.2331 6.2070 -2.8454 0.9717
1.0973 6.5055 -2.8458 0.9717
-0.0735 6.5979 -2.8462 0.9717
-0.6605 6.5656 -2.8464 0.9717
-2.3721 6.1591 -2.8470 0.9717
-4.3735 4.9451 -2.8477 0.9717
-5.0283 4.7557 -2.9854 0.9703
-5.4589 4.3109 -3.0004 0.9702
-6.1372 3.2749 -3.0007 0.9702
-6.6210 2.1350 -3.0008 0.9701
-6.9501 0.3099 -3.0009 0.9701
-6.7849 -1.5372 -3.0009 0.9701
-6.1372 -3.2749 -3.0007 0.9702
-5.0533 -4.7794 -3.0003 0.9702
-4.6076 -5.2099 -3.0001 0.9702
-4.1254 -5.5990 -3.0000 0.9702
-3.6105 -5.9436 -2.9998 0.9702
-3.0669 -6.2410 -2.9996 0.9702
-2.4991 -6.4888 -2.9994 0.9702
-1.9115 -6.6850 -2.9992 0.9702
0.5415 -6.9299 -2.9984 0.9702
2.9251 -6.3035 -2.9976 0.9702
4.4858 -5.3058 -2.9970 0.9702
5.7274 -3.9316 -2.9966 0.9702
6.5620 -2.2786 -2.9963 0.9702
6.7386 -1.6854 -2.9963 0.9702
6.8618 -1.0789 -2.9963 0.9702
6.9305 -0.4639 -2.9962 0.9702
6.9030 0.7722 -2.9962 0.9702
6.8070 1.3836 -2.9963 0.9702
6.4541 2.5687 -2.9964 0.9702
5.8968 3.6725 -2.9966 0.9702
5.5467 4.1830 -2.9967 0.9702
4.0294 5.2210 -2.8448 0.9717
3.5489 5.5593 -2.8450 0.9717
0.8065 6.5481 -2.8459 0.9717
0.2205 6.5944 -2.8461 0.9717
-0.9524 6.5299 -2.8465 0.9717
-2.0953 6.2584 -2.8469 0.9717
-2.6442 6.0475 -2.8471 0.9717
-5.2614 4.5497 -3.0004 0.9702
-5.6457 4.0635 -3.0005 0.9702
-5.9852 3.5450 -3.0006 0.9702
-6.5193 2.4278 -3.0008 0.9701
-6.7096 1.8380 -3.0009 0.9701
-6.8467 1.2335 -3.0009 0.9701
-6.9293 0.6192 -3.0009 0.9701
-6.6505 0.0000 -3.0008 0.9712
-6.4141 -1.7570 -3.0008 0.9712
-6.0006 -2.8662 -3.0006 0.9712
-5.7215 -3.3888 -3.0005 0.9712
-5.3970 -3.8845 -3.0004 0.9712
-5.0296 -4.3493 -3.0003 0.9712
-4.1784 -5.1716 -3.0000 0.9712
-2.6631 -6.0907 -2.9995 0.9712
-2.1103 -6.3032 -2.9993 0.9713
-1.5408 -6.4656 -2.9991 0.9713
-0.9592 -6.5766 -2.9989 0.9713
0.8123 -6.5951 -2.9983 0.9713
1.3959 -6.4962 -2.9981 0.9713
3.0620 -5.8954 -2.9975 0.9713
3.5744 -5.5992 -2.9974 0.9713
4.0583 -5.2585 -2.9972 0.9713
4.9259 -4.4552 -2.9969 0.9713
5.3027 -3.9989 -2.9968 0.9713
5.6373 -3.5110 -2.9967 0.9713
6.1702 -2.4556 -2.9965 0.9713
6.3641 -1.8967 -2.9964 0.9713
6.5994 -0.7382 -2.9963 0.9713
6.6389 -0.1479 -2.9963 0.9713
6.6257 0.4435 -2.9963 0.9713
6.4423 1.6113 -2.9964 0.9713
6.0548 2.7281 -2.9965 0.9713
5.7881 3.2563 -2.9966 0.9713
5.4755 3.7587 -2.9967 0.9713
5.1194 4.2313 -2.9969 0.9713
4.0705 4.8147 -2.8448 0.9727
3.1527 5.4607 -2.8451 0.9727
2.6543 5.7199 -2.8453 0.9727
1.0490 6.2192 -2.8458 0.9727
0.4914 6.2883 -2.8460 0.9727
-0.6314 6.2766 -2.8464 0.9727
-2.7829 5.6631 -2.8471 0.9727
-3.2761 5.3932 -2.8473 0.9727
-4.2212 4.7730 -2.8751 0.9724
-4.8308 4.5689 -3.0002 0.9712
-5.2185 4.1210 -3.0004 0.9712
-5.5648 3.6403 -3.0005 0.9712
-5.8669 3.1307 -3.0006 0.9712
-6.4860 1.4696 -3.0008 0.9712
-6.6439 -0.2962 -3.0008 0.9712
-6.5912 -0.8864 -3.0008 0.9712
-6.4860 -1.4695 -3.0008 0.9712
-6.3294 -2.0410 -3.0007 0.9712
-5.8669 -3.1307 -3.0006 0.9712
-4.8308 -4.5689 -3.0002 0.9712
-4.4047 -4.9805 -3.0001 0.9712
-3.9437 -5.3525 -2.9999 0.9712
-2.9319 -5.9662 -2.9996 0.9712
2.7964 -6.0262 -2.9976 0.9713
3.3215 -5.7530 -2.9974 0.9713
3.8202 -5.4342 -2.9973 0.9713
5.1194 -4.2312 -2.9968 0.9713
5.4754 -3.7587 -2.9967 0.9713
6.6257 -0.4435 -2.9963 0.9713
6.5994 0.7382 -2.9963 0.9713
6.5076 1.3228 -2.9964 0.9713
5.9273 2.9952 -2.9966 0.9713
5.6374 3.5110 -2.9967 0.9713
4.9259 4.4553 -2.9969 0.9713
4.3779 4.7333 -2.9092 0.9721
3.8521 4.9913 -2.8449 0.9727
2.9064 5.5959 -2.8452 0.9727
2.3970 5.8327 -2.8454 0.9727
0.2108 6.3041 -2.8461 0.9727
-0.9104 6.2425 -2.8465 0.9727
-2.0031 5.9829 -2.8469 0.9727
-2.5278 5.7812 -2.8471 0.9727
-3.5132 5.2421 -2.8474 0.9727
-5.0297 4.3493 -3.0003 0.9712
-5.3970 3.8846 -3.0004 0.9712
-5.7216 3.3889 -3.0005 0.9712
-6.0007 2.8663 -3.0006 0.9712
-6.2321 2.3209 -3.0007 0.9712
-6.4141 1.7570 -3.0008 0.9712
-6.5451 1.1792 -3.0008 0.9712
-6.6241 0.5920 -3.0008 0.9712
-6.3406 -0.5666 -3.0007 0.9722
-6.2650 -1.1287 -3.0007 0.9722
-5.4767 -3.2439 -3.0004 0.9722
-5.1660 -3.7183 -3.0003 0.9722
-4.4245 -4.5749 -3.0001 0.9722
-3.5429 -5.2864 -2.9998 0.9723
-3.0582 -5.5804 -2.9996 0.9723
-2.0200 -6.0335 -2.9992 0.9723
-0.9182 -6.2953 -2.9989 0.9723
-0.3542 -6.3517 -2.9987 0.9723
0.2126 -6.3576 -2.9985 0.9723
1.3362 -6.2184 -2.9981 0.9723
1.8843 -6.0744 -2.9979 0.9723
2.4173 -5.8822 -2.9977 0.9723
2.9311 -5.6434 -2.9976 0.9723
3.4216 -5.3598 -2.9974 0.9723
4.3172 -4.6678 -2.9971 0.9723
4.7154 -4.2648 -2.9970 0.9723
5.6739 -2.8672 -2.9966 0.9723
5.9065 -2.3507 -2.9966 0.9723
6.3426 0.4246 -2.9964 0.9723
5.7960 2.6116 -2.9966 0.9723
5.5407 3.1172 -2.9967 0.9723
5.2415 3.5980 -2.9968 0.9723
4.9006 4.0504 -2.9969 0.9723
4.5208 4.4707 -2.9971 0.9723
4.0011 4.7325 -2.9212 0.9730
1.0042 5.9532 -2.8459 0.9737
-0.0673 6.0377 -2.8462 0.9737
-0.6044 6.0082 -2.8464 0.9737
-1.1369 5.9309 -2.8466 0.9736
-1.6603 5.8065 -2.8468 0.9736
-2.6639 5.4208 -2.8471 0.9736
-4.2023 4.7516 -2.9901 0.9723
-4.6241 4.3734 -3.0002 0.9722
-4.9952 3.9447 -3.0003 0.9722
-6.0585 1.9536 -3.0006 0.9722
-6.2085 1.4066 -3.0007 0.9722
-6.3091 -0.8485 -3.0007 0.9722
-6.0585 -1.9536 -3.0006 0.9722
-5.8604 -2.4850 -3.0006 0.9722
-5.6158 -2.9967 -3.0005 0.9722
-5.3266 -3.4845 -3.0004 0.9722
-4.6241 -4.3734 -3.0001 0.9722
-4.2163 -4.7674 -3.0000 0.9722
-3.7750 -5.1235 -2.9998 0.9722
-1.1977 -6.2484 -2.9990 0.9723
-0.0709 -6.3609 -2.9986 0.9723
1.0579 -6.2719 -2.9982 0.9723
2.6769 -5.7685 -2.9977 0.9723
4.1051 -4.8556 -2.9972 0.9723
4.5208 -4.4707 -2.9970 0.9723
5.2414 -3.5980 -2.9968 0.9723
6.0053 -2.0852 -2.9965 0.9723
6.1669 -1.5424 -2.9965 0.9723
6.2796 -0.9874 -2.9964 0.9723
6.3552 0.1416 -2.9964 0.9723
6.2295 1.2662 -2.9965 0.9723
6.0922 1.8157 -2.9965 0.9723
5.9065 2.3507 -2.9966 0.9723
5.3964 3.3610 -2.9968 0.9723
5.0761 3.8280 -2.9969 0.9723
4.3173 4.6678 -2.9971 0.9723
0.2018 6.0345 -2.8461 0.9737
-0.3362 6.0289 -2.8463 0.9737
-2.9028 5.2969 -2.8472 0.9736
-3.3629 5.0178 -2.8473 0.9736
-3.8529 4.7688 -2.8899 0.9733
-4.8144 4.1632 -3.0002 0.9722
-5.1661 3.7183 -3.0003 0.9722
-5.9654 2.2216 -3.0006 0.9722
-6.3406 0.5666 -3.0007 0.9722
-6.1007 -0.0000 -3.0007 0.9732
-6.0765 -0.5430 -3.0006 0.9732
-6.0040 -1.0817 -3.0006 0.9732
-5.8838 -1.6117 -3.0006 0.9732
-5.5045 -2.6293 -3.0004 0.9732
-5.2485 -3.1087 -3.0004 0.9732
-4.9508 -3.5634 -3.0003 0.9732
-4.2402 -4.3844 -3.0000 0.9732
-3.8330 -4.7442 -2.9999 0.9732
-3.3954 -5.0662 -2.9997 0.9732
-2.4430 -5.5873 -2.9994 0.9732
-1.9359 -5.7823 -2.9992 0.9732
-1.4135 -5.9313 -2.9990 0.9732
-0.3394 -6.0872 -2.9987 0.9732
0.2037 -6.0929 -2.9985 0.9732
1.2806 -5.9595 -2.9981 0.9732
1.8059 -5.8215 -2.9980 0.9732
2.3167 -5.6374 -2.9978 0.9732
3.7232 -4.8242 -2.9973 0.9732
4.1376 -4.4735 -2.9972 0.9732
5.1719 -3.2211 -2.9968 0.9732
5.9703 -1.2135 -2.9966 0.9732
6.0184 0.9464 -2.9965 0.9732
5.9103 1.4783 -2.9966 0.9732
5.7554 1.9985 -2.9966 0.9732
5.5548 2.5029 -2.9967 0.9732
4.3327 4.2847 -2.9971 0.9732
3.9343 4.6535 -2.9973 0.9732
2.8923 5.0096 -2.8452 0.9745
1.4663 5.5967 -2.8457 0.9745
-1.5912 5.5648 -2.8467 0.9745
-2.5529 5.1950 -2.8471 0.9745
-4.0407 4.5688 -3.0000 0.9732
-4.7871 3.7804 -3.0002 0.9732
-5.1048 3.3394 -3.0003 0.9732
-5.3819 2.8719 -3.0004 0.9732
-5.8061 1.8722 -3.0006 0.9732
-6.0946 0.2718 -3.0007 0.9732
-5.1047 -3.3394 -3.0003 0.9732
-4.7871 -3.7803 -3.0002 0.9732
-3.6178 -4.9101 -2.9998 0.9732
-2.6896 -5.4732 -2.9995 0.9732
-2.1917 -5.6905 -2.9993 0.9732
-1.6764 -5.8627 -2.9991 0.9732
-0.6103 -6.0662 -2.9988 0.9732
0.4749 -6.0776 -2.9984 0.9732
1.5448 -5.8964 -2.9980 0.9732
2.0633 -5.7352 -2.9979 0.9732
2.5655 -5.5284 -2.9977 0.9732
3.9343 -4.6535 -2.9972 0.9732
4.6966 -3.8819 -2.9970 0.9732
5.0233 -3.4483 -2.9969 0.9732
5.3101 -2.9874 -2.9968 0.9732
5.9103 -1.4783 -2.9966 0.9732
6.0184 -0.9463 -2.9965 0.9732
6.0787 -0.4069 -2.9965 0.9732
6.0908 0.1357 -2.9965 0.9732
6.0545 0.6773 -2.9965 0.9732
5.9703 1.2135 -2.9966 0.9732
5.6607 2.2529 -2.9967 0.9732
5.1719 3.2211 -2.9968 0.9732
3.1126 4.8757 -2.8451 0.9745
2.6664 5.1337 -2.8453 0.9745
0.7073 5.7428 -2.8460 0.9745
0.1934 5.7833 -2.8461 0.9745
-0.3222 5.7779 -2.8463 0.9745
-1.3417 5.6299 -2.8467 0.9745
-2.7819 5.0763 -2.8471 0.9745
-3.2228 4.8088 -2.8473 0.9745
-3.8330 4.7442 -2.9999 0.9732
-4.2403 4.3844 -3.0000 0.9732
-4.6139 3.9898 -3.0002 0.9732
-5.2486 3.1087 -3.0004 0.9732
-5.5046 2.6293 -3.0005 0.9732
-5.7169 2.1290 -3.0005 0.9732
-6.0040 1.0817 -3.0006 0.9732
-6.0765 0.5430 -3.0006 0.9732
-5.7600 -1.0378 -3.0005 0.9740
-5.4846 -2.0425 -3.0004 0.9740
-5.2809 -2.5225 -3.0004 0.9740
-5.0353 -2.9824 -3.0003 0.9740
-4.7497 -3.4186 -3.0002 0.9740
-4.0680 -4.2063 -2.9999 0.9740
-3.6773 -4.5515 -2.9998 0.9740
-3.2575 -4.8604 -2.9997 0.9740
-2.8118 -5.1308 -2.9995 0.9740
-2.3438 -5.3604 -2.9994 0.9740
-1.8573 -5.5475 -2.9992 0.9740
-1.3561 -5.6904 -2.9990 0.9740
-0.3256 -5.8401 -2.9987 0.9741
0.7149 -5.8046 -2.9983 0.9741
1.2286 -5.7176 -2.9981 0.9741
2.2227 -5.4086 -2.9978 0.9741
3.1461 -4.9282 -2.9975 0.9741
3.9697 -4.2919 -2.9972 0.9741
4.3357 -3.9214 -2.9971 0.9741
4.6674 -3.5199 -2.9970 0.9741
5.2172 -2.6364 -2.9968 0.9741
5.8436 -0.1302 -2.9966 0.9741
5.8320 0.3904 -2.9966 0.9741
5.7742 0.9079 -2.9966 0.9741
5.6705 1.4183 -2.9967 0.9741
5.5219 1.9174 -2.9967 0.9741
4.8195 3.3084 -2.9970 0.9741
4.1569 4.1108 -2.9972 0.9741
3.3233 4.7275 -2.9626 0.9744
2.3363 5.0345 -2.8454 0.9754
1.8790 5.2227 -2.8456 0.9754
0.9233 5.4738 -2.8459 0.9754
0.4325 5.5346 -2.8461 0.9754
-0.5557 5.5242 -2.8464 0.9754
-1.0453 5.4531 -2.8466 0.9754
-2.4492 4.9840 -2.8470 0.9753
-3.8765 4.3833 -2.9999 0.9740
-4.2515 4.0210 -3.0000 0.9740
-4.5927 3.6268 -3.0002 0.9740
-4.8974 3.2037 -3.0003 0.9740
-5.3881 2.2848 -3.0004 0.9740
-5.5702 1.7962 -3.0005 0.9740
-5.8006 0.7801 -3.0006 0.9740
-5.8006 -0.7801 -3.0005 0.9740
-5.5702 -1.7962 -3.0005 0.9740
-5.1632 -2.7552 -3.0003 0.9740
-3.8765 -4.3832 -2.9999 0.9740
-3.4708 -4.7106 -2.9997 0.9740
-2.5804 -5.2509 -2.9994 0.9740
-1.6083 -5.6246 -2.9991 0.9740
-0.0652 -5.8486 -2.9986 0.9741
0.4556 -5.8308 -2.9984 0.9741
0.9727 -5.7668 -2.9982 0.9741
1.4821 -5.6570 -2.9981 0.9741
1.9796 -5.5023 -2.9979 0.9741
4.1568 -4.1108 -2.9972 0.9741
5.8320 -0.3904 -2.9966 0.9741
5.8436 0.1302 -2.9966 0.9741
5.8089 0.6498 -2.9966 0.9741
5.6018 1.6695 -2.9967 0.9741
5.2172 2.6364 -2.9968 0.9741
4.9620 3.0904 -2.9969 0.9741
3.9697 4.2920 -2.9972 0.9741
3.5721 4.6285 -2.9974 0.9741
2.1097 5.1337 -2.8455 0.9754
0.6786 5.5096 -2.8460 0.9754
0.1855 5.5485 -2.8461 0.9754
-1.2872 5.4013 -2.8466 0.9753
-2.6689 4.8701 -2.8471 0.9753
-3.1886 4.7577 -2.9362 0.9746
-3.6773 4.5515 -2.9998 0.9740
-4.0680 4.2063 -3.0000 0.9740
-4.4265 3.8277 -3.0001 0.9740
-5.0353 2.9824 -3.0003 0.9740
-5.4846 2.0425 -3.0004 0.9740
-5.6448 1.5463 -3.0005 0.9740
-5.7600 1.0378 -3.0005 0.9740
-5.6205 0.0000 -3.0005 0.9748
-5.5314 -0.9965 -3.0005 0.9748
-5.0713 -2.4224 -3.0003 0.9748
-4.8355 -2.8641 -3.0002 0.9748
-4.5612 -3.2830 -3.0001 0.9748
-3.5314 -4.3709 -2.9998 0.9748
-3.1282 -4.6676 -2.9996 0.9748
-2.7002 -4.9273 -2.9995 0.9748
-2.2508 -5.1478 -2.9993 0.9748
-1.7836 -5.3274 -2.9992 0.9748
-1.3023 -5.4647 -2.9990 0.9748
0.6866 -5.5744 -2.9983 0.9749
1.6638 -5.3637 -2.9980 0.9749
2.1345 -5.1941 -2.9978 0.9749
2.5882 -4.9832 -2.9977 0.9749
3.0213 -4.7329 -2.9975 0.9749
3.4304 -4.4449 -2.9974 0.9749
4.1639 -3.7660 -2.9972 0.9749
5.0104 -2.5319 -2.9969 0.9749
5.3797 -1.6033 -2.9968 0.9749
5.5010 -1.1181 -2.9967 0.9749
5.6120 -0.1250 -2.9967 0.9749
5.6009 0.3749 -2.9967 0.9749
5.1182 2.3061 -2.9969 0.9749
4.6285 3.1773 -2.9970 0.9749
4.3274 3.5767 -2.9971 0.9749
3.9921 3.9478 -2.9972 0.9749
3.2291 4.5935 -2.9975 0.9749
2.7353 4.7376 -2.9204 0.9755
2.2436 4.8349 -2.8454 0.9761
1.8045 5.0156 -2.8456 0.9761
0.4153 5.3151 -2.8461 0.9761
-0.5337 5.3051 -2.8464 0.9761
-2.3520 4.7863 -2.8470 0.9761
-2.8858 4.7507 -2.9674 0.9751
-3.7227 4.2094 -2.9999 0.9748
-4.4104 3.4829 -3.0001 0.9748
-4.7031 3.0766 -3.0002 0.9748
-5.1743 2.1941 -3.0003 0.9748
-5.4815 1.2420 -3.0004 0.9748
-5.5704 0.7491 -3.0005 0.9748
-5.6150 0.2504 -3.0005 0.9748
-5.4815 -1.2419 -3.0004 0.9748
-5.3491 -1.7249 -3.0004 0.9748
-5.1743 -2.1941 -3.0003 0.9748
-4.7030 -3.0766 -3.0002 0.9748
-4.4104 -3.4828 -3.0001 0.9748
-4.0827 -3.8614 -3.0000 0.9748
-2.9171 -4.8022 -2.9996 0.9748
-2.0192 -5.2428 -2.9993 0.9748
-1.5445 -5.4014 -2.9991 0.9748
-1.0576 -5.5172 -2.9989 0.9748
-0.5623 -5.5891 -2.9988 0.9749
-0.0626 -5.6166 -2.9986 0.9749
0.4376 -5.5996 -2.9984 0.9749
1.4233 -5.4327 -2.9981 0.9749
2.8076 -4.8629 -2.9976 0.9749
3.9920 -3.9478 -2.9972 0.9749
4.6284 -3.1772 -2.9970 0.9749
4.8927 -2.7526 -2.9969 0.9749
5.3030 -1.8414 -2.9968 0.9749
5.4457 -1.3621 -2.9967 0.9749
5.5453 -0.8720 -2.9967 0.9749
5.6009 -0.3749 -2.9967 0.9749
5.6120 0.1251 -2.9967 0.9749
5.3797 1.6034 -2.9968 0.9749
5.2158 2.0759 -2.9968 0.9749
5.0104 2.5319 -2.9969 0.9749
4.1639 3.7660 -2.9972 0.9749
3.4305 4.4450 -2.9974 0.9749
2.4684 4.7518 -2.8585 0.9760
2.0261 4.9302 -2.8455 0.9761
1.5793 5.0912 -2.8457 0.9761
1.1200 5.2118 -2.8458 0.9761
0.1782 5.3284 -2.8461 0.9761
-0.7695 5.2762 -2.8465 0.9761
-2.1365 4.8862 -2.8469 0.9761
-3.9066 4.0394 -2.9999 0.9748
-4.2508 3.6758 -3.0000 0.9748
-4.5613 3.2830 -3.0001 0.9748
-4.8355 2.8641 -3.0002 0.9748
-5.0714 2.4224 -3.0003 0.9748
-5.4207 1.4849 -3.0004 0.9748
-5.5982 0.5003 -3.0005 0.9748
-5.3808 -0.4808 -3.0004 0.9756
-5.3166 -0.9578 -3.0004 0.9756
-5.2102 -1.4272 -3.0003 0.9756
-5.0624 -1.8853 -3.0003 0.9756
-4.8744 -2.3283 -3.0002 0.9756
-4.6477 -2.7529 -3.0001 0.9756
-4.0857 -3.5331 -3.0000 0.9756
-3.7549 -3.8825 -2.9998 0.9756
-3.3943 -4.2012 -2.9997 0.9756
-1.2518 -5.2526 -2.9990 0.9756
-0.7792 -5.3429 -2.9988 0.9756
-0.3006 -5.3908 -2.9987 0.9756
1.1341 -5.2778 -2.9982 0.9756
1.5993 -5.1556 -2.9980 0.9756
2.0517 -4.9926 -2.9979 0.9756
2.4878 -4.7899 -2.9977 0.9756
4.3085 -3.2492 -2.9971 0.9756
5.0135 -1.9953 -2.9969 0.9756
5.2876 -1.0747 -2.9968 0.9756
5.3837 0.3604 -2.9968 0.9756
5.3303 0.8381 -2.9968 0.9756
4.9197 2.2167 -2.9969 0.9756
4.1596 3.4380 -2.9972 0.9756
3.8372 3.7947 -2.9973 0.9756
3.4844 4.1213 -2.9974 0.9756
3.1039 4.4153 -2.9975 0.9756
2.6987 4.6743 -2.9977 0.9756
2.2009 4.7427 -2.9039 0.9764
1.2986 4.9565 -2.8458 0.9768
0.3992 5.1088 -2.8461 0.9768
-0.5130 5.0992 -2.8464 0.9768
-0.9648 5.0336 -2.8465 0.9768
-1.8422 4.7833 -2.8468 0.9768
-2.3359 4.7534 -2.9415 0.9761
-3.5782 4.0459 -2.9998 0.9756
-3.9243 3.7116 -2.9999 0.9756
-4.9734 2.1089 -3.0003 0.9756
-5.2687 1.1938 -3.0004 0.9756
-5.3969 -0.2407 -3.0004 0.9756
-5.3541 -0.7201 -3.0004 0.9756
-5.2687 -1.1937 -3.0004 0.9756
-5.1414 -1.6579 -3.0003 0.9756
-4.9734 -2.1089 -3.0003 0.9756
-4.5204 -2.9571 -3.0001 0.9756
-4.2392 -3.3476 -3.0000 0.9756
-0.0601 -5.3987 -2.9986 0.9756
0.4206 -5.3823 -2.9984 0.9756
1.3681 -5.2219 -2.9981 0.9756
1.8273 -5.0791 -2.9979 0.9756
2.6987 -4.6742 -2.9977 0.9756
3.1038 -4.4153 -2.9975 0.9756
3.8372 -3.7947 -2.9973 0.9756
4.1596 -3.4380 -2.9972 0.9756
4.4489 -3.0540 -2.9971 0.9756
5.2345 -1.3093 -2.9968 0.9756
5.3837 -0.3604 -2.9968 0.9756
5.3944 0.1203 -2.9968 0.9756
5.1711 1.5412 -2.9968 0.9756
5.0135 1.9954 -2.9969 0.9756
4.8161 2.4337 -2.9970 0.9756
4.3085 3.2492 -2.9971 0.9756
3.2974 4.2726 -2.9975 0.9756
2.9042 4.5493 -2.9976 0.9756
2.4573 4.7312 -2.9610 0.9759
1.5180 4.8936 -2.8457 0.9768
1.0765 5.0096 -2.8458 0.9768
-1.1882 4.9857 -2.8466 0.9768
-1.6273 4.8604 -2.8467 0.9768
-2.0824 4.7625 -2.8869 0.9765
-3.0068 4.4865 -2.9996 0.9756
-3.3943 4.2012 -2.9997 0.9756
-4.0858 3.5331 -3.0000 0.9756
-4.3842 3.1555 -3.0001 0.9756
-5.3167 0.9579 -3.0004 0.9756
-5.3809 0.4808 -3.0004 0.9756
-5.1968 0.0000 -3.0003 0.9763
-5.1761 -0.4625 -3.0003 0.9763
-5.1144 -0.9214 -3.0003 0.9763
-5.0120 -1.3729 -3.0003 0.9763
-4.8698 -1.8135 -3.0002 0.9763
-4.6890 -2.2397 -3.0002 0.9763
-4.4709 -2.6481 -3.0001 0.9763
-3.9303 -3.3987 -2.9999 0.9763
-3.2652 -4.0414 -2.9997 0.9763
-2.0812 -4.7598 -2.9993 0.9763
-1.6492 -4.9259 -2.9991 0.9763
-0.7496 -5.1397 -2.9988 0.9763
-0.2891 -5.1858 -2.9987 0.9763
3.1720 -4.1101 -2.9975 0.9763
3.8502 -3.4823 -2.9973 0.9763
4.1448 -3.1257 -2.9972 0.9763
4.4064 -2.7443 -2.9971 0.9763
4.9745 -1.4826 -2.9969 0.9763
5.1894 -0.1156 -2.9968 0.9763
5.1791 0.3467 -2.9968 0.9763
5.1277 0.8063 -2.9968 0.9763
4.5242 2.5453 -2.9971 0.9763
3.6914 3.6505 -2.9973 0.9763
2.1857 4.7100 -2.9979 0.9763
1.7065 4.7434 -2.9105 0.9770
0.8199 4.8606 -2.8459 0.9775
0.3846 4.9213 -2.8500 0.9775
-1.8301 4.7517 -2.9398 0.9768
-2.6973 4.4403 -2.9995 0.9763
-3.0819 4.1828 -2.9996 0.9763
-3.4421 3.8920 -2.9998 0.9763
-3.7750 3.5704 -2.9999 0.9763
-4.0779 3.2203 -3.0000 0.9763
-4.3485 2.8446 -3.0001 0.9763
-4.5845 2.4464 -3.0001 0.9763
-4.7842 2.0287 -3.0002 0.9763
-4.9458 1.5948 -3.0003 0.9763
-5.1916 0.2315 -3.0003 0.9763
-5.1916 -0.2315 -3.0003 0.9763
-5.1504 -0.6927 -3.0003 0.9763
-5.0682 -1.1483 -3.0003 0.9763
-4.7842 -2.0287 -3.0002 0.9763
-4.5845 -2.4464 -3.0001 0.9763
-4.0779 -3.2203 -3.0000 0.9763
-3.0819 -4.1827 -2.9996 0.9763
-1.8670 -4.8477 -2.9992 0.9763
-0.0578 -5.1934 -2.9986 0.9763
0.4046 -5.1777 -2.9984 0.9763
0.8638 -5.1208 -2.9983 0.9763
1.3161 -5.0233 -2.9981 0.9763
1.7579 -4.8860 -2.9980 0.9763
2.5961 -4.4965 -2.9977 0.9763
3.6913 -3.6504 -2.9973 0.9763
4.0015 -3.3073 -2.9972 0.9763
4.5242 -2.5453 -2.9970 0.9763
4.7327 -2.1325 -2.9970 0.9763
4.9036 -1.7027 -2.9969 0.9763
5.0356 -1.2595 -2.9969 0.9763
5.1277 -0.8063 -2.9968 0.9763
5.1791 -0.3467 -2.9968 0.9763
4.8229 1.9195 -2.9970 0.9763
4.4064 2.7443 -2.9971 0.9763
4.1448 3.1257 -2.9972 0.9763
3.8503 3.4824 -2.9973 0.9763
3.1721 4.1102 -2.9975 0.9763
2.3933 4.6079 -2.9978 0.9763
1.0356 4.8192 -2.8458 0.9775
0.6026 4.8924 -2.8460 0.9775
-0.2747 4.9258 -2.8483 0.9775
-1.1430 4.7961 -2.8466 0.9775
