ply
format ascii 1.0
element vertex 1585
property float32 x
property float32 y
property float32 z
property float32 I
end_header
7.5574 -6.8353 -0.4237 0.9600
7.8345 -5.9083 -0.4080 0.9615
8.4617 -5.2700 -0.4145 0.9609
10.0025 -5.0545 -0.4660 0.9561
7.6845 -7.5993 -0.4494 0.9577
7.6493 -6.3223 -0.4126 0.9610
7.8750 -5.9388 -0.5745 0.9613
7.7891 -7.7028 -0.6380 0.9571
8.1408 -5.5884 -0.5751 0.9612
7.6559 -6.9243 -0.7736 0.9594
7.9160 -5.9697 -0.7430 0.9610
8.5626 -5.3328 -0.7559 0.9603
-4.3702 7.1944 -0.6308 0.9668
8.1829 -5.6172 -0.7438 0.9610
7.7647 -7.0228 -0.9598 0.9588
8.6519 -5.3884 -0.9344 0.9599
-4.3700 7.1939 -0.7717 0.9668
8.2545 -5.6664 -0.9179 0.9606
8.7474 -5.4479 -1.1178 0.9594
-4.3697 7.1935 -0.9129 0.9667
8.3361 -5.7224 -1.0967 0.9601
9.4396 -5.3107 -1.1748 0.9574
8.1153 -7.3398 -1.3712 0.9568
8.9047 -5.5459 -1.3146 0.9586
8.0205 -6.6291 -1.3040 0.9589
9.9441 -5.5945 -1.4298 0.9550
9.1500 -5.6987 -1.5332 0.9574
8.2160 -6.7907 -1.5161 0.9578
-4.3686 7.1918 -1.4837 0.9664
2.4486 14.5161 -2.8488 0.9418
-2.7664 14.4322 -2.8437 0.9419
-5.2769 13.7012 -2.8413 0.9419
-6.4728 13.1717 -2.8401 0.9420
-9.7118 10.9813 -2.8369 0.9420
-10.6472 10.0700 -2.8360 0.9420
-12.2570 8.0182 -2.8344 0.9421
-13.4787 5.7155 -2.8332 0.9421
3.0935 14.3958 -2.8494 0.9418
1.7991 14.6075 -2.8482 0.9418
0.4916 14.7031 -2.8469 0.9418
-0.8187 14.6820 -2.8456 0.9418
-2.1212 14.5443 -2.8444 0.9419
-7.0517 12.8677 -2.8395 0.9420
-8.1658 12.1843 -2.8384 0.9420
-9.2145 11.4050 -2.8374 0.9420
-10.1896 10.5361 -2.8364 0.9420
-11.0835 9.5843 -2.8356 0.9420
-13.2120 6.3108 -2.8335 0.9421
-14.1583 0.0000 -2.9849 0.9438
-13.6573 -3.7411 -2.9853 0.9438
-12.7812 -6.1050 -2.9861 0.9437
-12.1894 -7.2197 -2.9867 0.9437
-10.7212 -9.2710 -2.9881 0.9437
-9.8562 -10.1913 -2.9889 0.9437
-6.8202 -12.4454 -2.9919 0.9436
-4.5089 -13.4675 -2.9941 0.9436
-3.2937 -13.8208 -2.9953 0.9436
-0.7916 -14.1973 -2.9977 0.9435
2.9910 -13.9192 -3.0014 0.9435
6.5698 -12.6491 -3.0049 0.9434
12.7473 -6.4415 -3.0110 0.9433
13.2724 -5.2823 -3.0115 0.9433
14.0021 -2.8460 -3.0123 0.9433
14.2863 -0.3184 -3.0126 0.9433
14.1158 2.2196 -3.0124 0.9433
13.8611 3.4669 -3.0122 0.9433
12.3615 5.5698 -2.8584 0.9461
11.8146 6.6468 -2.8579 0.9461
11.1737 7.6703 -2.8572 0.9461
9.6317 9.5250 -2.8558 0.9461
8.7430 10.3413 -2.8549 0.9461
6.7664 11.7198 -2.8530 0.9462
5.6944 12.2710 -2.8520 0.9462
4.5778 12.7244 -2.8509 0.9462
2.2474 13.3238 -2.8486 0.9463
-2.5396 13.2487 -2.8439 0.9463
-3.7072 12.9649 -2.8428 0.9464
-4.3681 7.1909 -1.7738 0.9662
-7.9869 10.8399 -2.8386 0.9464
-10.5576 8.3372 -2.8361 0.9465
-12.3772 5.2484 -2.8343 0.9465
-13.4783 4.3462 -2.9856 0.9438
-14.1444 0.6307 -2.9849 0.9438
-14.1443 -0.6307 -2.9849 0.9438
-13.4779 -4.3461 -2.9855 0.9438
-12.4977 -6.6689 -2.9864 0.9437
-11.1221 -8.7830 -2.9877 0.9437
-10.2990 -9.7407 -2.9885 0.9437
-7.3665 -12.1270 -2.9913 0.9436
-6.2602 -12.7391 -2.9924 0.9436
-5.1034 -13.2507 -2.9935 0.9436
-3.9053 -13.6577 -2.9947 0.9436
-0.1584 -14.2214 -2.9983 0.9435
2.3675 -14.0357 -3.0008 0.9435
3.6089 -13.7748 -3.0020 0.9435
5.9987 -12.9268 -3.0044 0.9434
7.1281 -12.3462 -3.0055 0.9434
8.2015 -11.6668 -3.0065 0.9434
9.2104 -10.8941 -3.0075 0.9434
11.7712 -8.0805 -3.0100 0.9433
12.4465 -7.0023 -3.0107 0.9433
13.0228 -5.8678 -3.0113 0.9433
14.2864 0.3184 -3.0126 0.9433
14.2010 1.5886 -3.0125 0.9433
14.0024 2.8461 -3.0123 0.9433
12.5984 5.0140 -2.8586 0.9461
11.5055 7.1657 -2.8576 0.9461
10.0478 9.0877 -2.8562 0.9461
8.2724 10.7188 -2.8544 0.9462
7.2831 11.4087 -2.8535 0.9462
6.2365 12.0075 -2.8525 0.9462
2.8393 13.2131 -2.8492 0.9463
1.6514 13.4079 -2.8480 0.9463
0.4512 13.4962 -2.8469 0.9463
-1.9472 13.3514 -2.8445 0.9463
-4.2802 12.7843 -2.8422 0.9464
-5.3990 12.3479 -2.8411 0.9464
-6.4742 11.8139 -2.8401 0.9464
-10.9171 7.8577 -2.8357 0.9465
-11.5705 6.8532 -2.8351 0.9465
-12.9091 4.8074 -2.9041 0.9452
-13.9352 2.5106 -2.9851 0.9438
-14.1025 1.2602 -2.9849 0.9438
-13.0821 0.0000 -2.9859 0.9477
-12.8756 -2.3196 -2.9861 0.9477
-12.2627 -4.5666 -2.9867 0.9477
-11.2623 -6.6706 -2.9876 0.9477
-10.6260 -7.6481 -2.9882 0.9477
-9.9054 -8.5655 -2.9889 0.9477
-8.2342 -10.1916 -2.9905 0.9477
-7.2966 -10.8873 -2.9914 0.9476
-5.2541 -12.0165 -2.9934 0.9476
-4.1652 -12.4408 -2.9945 0.9476
-3.0425 -12.7669 -2.9956 0.9476
-1.8948 -12.9918 -2.9967 0.9476
-0.7312 -13.1138 -2.9978 0.9475
2.7625 -12.8557 -3.0012 0.9475
3.8972 -12.5634 -3.0023 0.9475
5.0018 -12.1711 -3.0034 0.9474
7.0853 -11.0989 -3.0054 0.9474
8.9464 -9.6727 -3.0073 0.9474
9.7745 -8.8405 -3.0081 0.9474
11.7705 -5.9479 -3.0101 0.9473
12.2552 -4.8774 -3.0106 0.9473
12.9287 -2.6279 -3.0112 0.9473
13.1910 -0.2940 -3.0115 0.9473
11.4141 5.1430 -2.8574 0.9499
10.9093 6.1374 -2.8570 0.9499
9.6441 7.9711 -2.8558 0.9500
8.0737 9.5497 -2.8542 0.9500
7.1896 10.2273 -2.8534 0.9500
6.2488 10.8232 -2.8525 0.9500
5.2589 11.3326 -2.8515 0.9500
4.2279 11.7515 -2.8505 0.9501
3.1640 12.0768 -2.8495 0.9501
2.0758 12.3060 -2.8484 0.9501
-0.1389 12.4696 -2.8463 0.9501
-2.3458 12.2381 -2.8441 0.9502
-4.4752 11.6198 -2.8420 0.9502
-5.4898 11.1714 -2.8410 0.9502
-4.3678 7.1904 -1.9202 0.9661
-7.3787 10.0145 -2.8392 0.9502
-9.0322 8.5427 -2.8376 0.9503
-9.7543 7.7029 -2.8368 0.9503
-10.9608 5.8489 -2.8356 0.9503
-11.4360 4.8493 -2.8352 0.9503
-12.7602 2.8911 -2.9863 0.9477
-12.9660 1.7438 -2.9860 0.9477
-13.0692 -0.5828 -2.9859 0.9477
-12.9658 -1.7437 -2.9860 0.9477
-12.7599 -2.8910 -2.9862 0.9477
-12.4532 -4.0156 -2.9865 0.9477
-10.9550 -7.1664 -2.9879 0.9477
-3.6076 -12.6163 -2.9950 0.9476
-2.4712 -12.8921 -2.9961 0.9476
1.0238 -13.1018 -2.9995 0.9475
2.1867 -12.9635 -3.0006 0.9475
5.5400 -11.9383 -3.0039 0.9474
9.3697 -9.2659 -3.0077 0.9474
10.1599 -8.3973 -3.0085 0.9474
12.0248 -5.4181 -3.0103 0.9473
13.0334 -2.0494 -3.0113 0.9473
13.1123 1.4668 -3.0115 0.9473
10.6240 6.6167 -2.8567 0.9499
9.2783 8.3917 -2.8554 0.9500
8.4923 9.1819 -2.8546 0.9500
7.6392 9.8984 -2.8538 0.9500
6.7258 10.5358 -2.8529 0.9500
5.7595 11.0889 -2.8520 0.9500
4.7480 11.5536 -2.8510 0.9500
3.6995 11.9261 -2.8500 0.9501
2.6224 12.2035 -2.8490 0.9501
0.4168 12.4657 -2.8468 0.9501
-5.9810 10.9139 -2.8406 0.9502
-6.9264 10.3349 -2.8396 0.9502
-7.8163 9.6744 -2.8388 0.9503
-8.6439 8.9378 -2.8379 0.9503
-10.6904 6.3320 -2.8359 0.9503
-12.6194 3.4568 -2.9864 0.9477
-12.8758 2.3197 -2.9861 0.9477
-12.1514 0.0000 -2.9868 0.9512
-11.9595 -2.1546 -2.9870 0.9512
-11.7212 -3.2107 -2.9872 0.9512
-11.3901 -4.2417 -2.9875 0.9512
-10.9688 -5.2394 -2.9879 0.9512
-9.8695 -7.1037 -2.9890 0.9511
-7.6476 -9.4655 -2.9911 0.9511
-6.7766 -10.1114 -2.9919 0.9511
-5.8515 -10.6777 -2.9928 0.9511
-3.8681 -11.5534 -2.9948 0.9511
-0.6790 -12.1774 -2.9979 0.9510
0.4077 -12.1939 -2.9989 0.9510
4.6440 -11.3005 -3.0031 0.9509
6.5782 -10.3046 -3.0050 0.9509
7.4714 -9.6810 -3.0058 0.9509
8.3057 -8.9800 -3.0067 0.9509
9.0743 -8.2072 -3.0074 0.9509
10.3902 -6.4711 -3.0087 0.9508
10.9268 -5.5216 -3.0093 0.9508
11.3766 -4.5278 -3.0097 0.9508
12.0017 -2.4395 -3.0103 0.9508
12.1719 -1.3616 -3.0105 0.9508
12.2451 -0.2729 -3.0106 0.9508
12.0990 1.9025 -3.0105 0.9508
9.5783 6.5751 -2.8557 0.9533
8.9532 7.4000 -2.8551 0.9533
6.6749 9.4952 -2.8529 0.9533
4.8826 10.5218 -2.8511 0.9533
2.9378 11.2133 -2.8493 0.9534
-0.1290 11.5789 -2.8463 0.9534
-3.1802 11.1218 -2.8433 0.9535
-4.1560 10.7909 -2.8423 0.9535
-4.3675 7.1900 -2.0678 0.9659
-6.8529 9.3008 -2.8397 0.9535
-7.6514 8.6516 -2.8389 0.9535
-8.3889 7.9342 -2.8382 0.9536
-9.0597 7.1544 -2.8375 0.9536
-10.1807 5.4326 -2.8364 0.9536
-11.5674 3.7300 -2.9874 0.9512
-12.0435 1.6197 -2.9869 0.9512
-12.1394 0.5413 -2.9868 0.9512
-12.0433 -1.6197 -2.9869 0.9512
-11.8521 -2.6853 -2.9871 0.9512
-11.5671 -3.7299 -2.9873 0.9512
-11.1905 -4.7452 -2.9877 0.9512
-10.1752 -6.6562 -2.9887 0.9512
-8.0606 -9.1142 -2.9907 0.9511
-7.2193 -9.7981 -2.9915 0.9511
-6.3204 -10.4048 -2.9924 0.9511
-5.3709 -10.9294 -2.9933 0.9511
-4.3782 -11.3678 -2.9943 0.9511
-3.3502 -11.7162 -2.9953 0.9510
0.9506 -12.1657 -2.9995 0.9510
2.0304 -12.0370 -3.0005 0.9510
3.0948 -11.8127 -3.0015 0.9509
5.1436 -11.0842 -3.0036 0.9509
6.1117 -10.5857 -3.0045 0.9509
7.0317 -10.0028 -3.0054 0.9509
9.4320 -7.7957 -3.0078 0.9508
10.0906 -6.9268 -3.0084 0.9508
10.6691 -6.0023 -3.0090 0.9508
11.5678 -4.0167 -3.0099 0.9508
11.8806 -2.9715 -3.0102 0.9508
12.0989 -1.9024 -3.0104 0.9508
12.2207 -0.8181 -3.0106 0.9508
12.2452 0.2729 -3.0106 0.9508
12.1720 1.3617 -3.0105 0.9508
11.7362 3.4978 -3.0101 0.9508
10.3719 5.2412 -2.8564 0.9533
9.2749 6.9946 -2.8554 0.9533
8.6136 7.7906 -2.8547 0.9533
7.8841 8.5242 -2.8540 0.9533
6.2444 9.7816 -2.8525 0.9533
4.4083 10.7271 -2.8507 0.9534
3.4349 11.0732 -2.8497 0.9534
2.4349 11.3312 -2.8488 0.9534
1.4162 11.4989 -2.8478 0.9534
0.3870 11.5752 -2.8468 0.9534
-0.6446 11.5596 -2.8458 0.9534
-2.6820 11.2543 -2.8438 0.9535
-3.6718 10.9672 -2.8428 0.9535
-4.6319 10.5934 -2.8419 0.9535
-6.4327 9.5983 -2.8401 0.9535
-7.2594 8.9851 -2.8393 0.9535
-8.0282 8.3011 -2.8385 0.9535
-8.7330 7.5518 -2.8378 0.9536
-10.4117 4.9733 -2.8362 0.9536
-11.9597 2.1547 -2.9870 0.9512
-12.1034 1.0816 -2.9869 0.9512
-11.2933 -1.0092 -2.9876 0.9542
-10.9366 -2.9958 -2.9880 0.9542
-10.6276 -3.9578 -2.9883 0.9542
-10.2344 -4.8886 -2.9886 0.9542
-9.2085 -6.6279 -2.9896 0.9542
-8.5838 -7.4227 -2.9902 0.9541
-6.3224 -9.4336 -2.9924 0.9541
-4.5522 -10.4111 -2.9941 0.9541
-2.6358 -11.0602 -2.9960 0.9541
-1.6414 -11.2545 -2.9969 0.9540
-0.6334 -11.3596 -2.9979 0.9540
1.3917 -11.2994 -2.9999 0.9540
2.3926 -11.1343 -3.0009 0.9540
3.3752 -10.8807 -3.0018 0.9540
4.3316 -10.5403 -3.0028 0.9540
5.2541 -10.1160 -3.0037 0.9539
7.7464 -8.3753 -3.0061 0.9539
11.3968 0.7629 -3.0098 0.9539
11.2833 1.7742 -3.0097 0.9539
11.0799 2.7713 -3.0095 0.9539
10.7883 3.7461 -3.0092 0.9539
9.4448 5.3136 -2.8555 0.9562
7.7009 7.6156 -2.8539 0.9562
4.5541 9.8139 -2.8508 0.9562
3.6614 10.1772 -2.8499 0.9562
2.7402 10.4594 -2.8491 0.9563
0.8418 10.7725 -2.8472 0.9563
-2.0322 10.6017 -2.8444 0.9563
-2.9668 10.3754 -2.8435 0.9563
-3.8772 10.0670 -2.8426 0.9564
-4.7564 9.6790 -2.8417 0.9564
-6.3936 8.6774 -2.8401 0.9564
-7.8269 7.4026 -2.8387 0.9564
-8.4529 6.6752 -2.8381 0.9564
-10.4417 4.4277 -2.9885 0.9542
-11.0590 2.5056 -2.9879 0.9542
-11.3270 0.5051 -2.9876 0.9542
-11.3269 -0.5051 -2.9876 0.9542
-11.0588 -2.5056 -2.9879 0.9542
-10.0072 -5.3400 -2.9888 0.9542
-8.9050 -7.0322 -2.9899 0.9541
-7.5205 -8.5035 -2.9912 0.9541
-6.7355 -9.1414 -2.9920 0.9541
-5.0107 -10.1964 -2.9937 0.9541
-4.0845 -10.6052 -2.9946 0.9541
-2.1409 -11.1684 -2.9965 0.9540
-1.1386 -11.3183 -2.9974 0.9540
-0.1268 -11.3785 -2.9984 0.9540
0.8868 -11.3483 -2.9994 0.9540
1.8939 -11.2280 -3.0004 0.9540
2.8867 -11.0185 -3.0014 0.9540
4.7976 -10.3385 -3.0032 0.9539
5.7004 -9.8733 -3.0041 0.9539
6.5584 -9.3294 -3.0050 0.9539
9.9501 -5.5978 -3.0083 0.9539
10.7880 -3.7460 -3.0091 0.9539
11.0797 -2.7712 -3.0094 0.9539
11.3967 -0.7629 -3.0098 0.9539
11.4195 0.2545 -3.0098 0.9538
11.3514 1.2698 -3.0097 0.9539
11.1928 2.2750 -3.0096 0.9539
10.9450 3.2620 -3.0094 0.9539
8.0334 7.2658 -2.8542 0.9562
7.3532 7.9502 -2.8535 0.9562
6.6147 8.5709 -2.8528 0.9562
5.8240 9.1232 -2.8520 0.9562
4.1118 10.0055 -2.8504 0.9562
0.3610 10.7976 -2.8467 0.9563
-3.4255 10.2313 -2.8430 0.9564
-4.3212 9.8828 -2.8422 0.9564
-6.0015 8.9548 -2.8405 0.9564
-6.7729 8.3829 -2.8398 0.9564
-7.4903 7.7449 -2.8390 0.9564
-8.1480 7.0459 -2.8384 0.9564
-10.0321 4.7919 -2.9295 0.9551
-10.6211 0.0000 -2.9883 0.9568
-10.5790 -0.9454 -2.9883 0.9568
-10.4533 -1.8832 -2.9885 0.9568
-10.2448 -2.8064 -2.9886 0.9568
-9.9553 -3.7074 -2.9889 0.9568
-9.1426 -5.4152 -2.9897 0.9568
-8.6258 -6.2084 -2.9902 0.9568
-8.0405 -6.9529 -2.9907 0.9568
-7.3913 -7.6425 -2.9914 0.9568
-5.1133 -9.3305 -2.9936 0.9568
-3.3798 -10.0950 -2.9953 0.9567
1.3033 -10.5820 -2.9998 0.9567
3.1608 -10.1894 -3.0016 0.9566
6.5252 -8.4550 -3.0049 0.9566
7.2536 -7.8425 -3.0056 0.9566
8.5328 -6.4349 -3.0069 0.9566
9.0733 -5.6509 -3.0074 0.9566
10.2478 -3.0542 -3.0086 0.9565
10.5647 1.6612 -3.0090 0.9565
10.3744 2.5948 -3.0088 0.9565
7.2110 7.1311 -2.8534 0.9587
5.0671 8.7764 -2.8513 0.9588
2.5662 9.7950 -2.8489 0.9588
0.7883 10.0886 -2.8471 0.9588
-1.0123 10.0623 -2.8454 0.9588
-1.9033 9.9293 -2.8445 0.9589
-3.6315 9.4289 -2.8428 0.9589
-4.2853 7.0546 -2.3224 0.9663
-5.9886 8.1278 -2.8405 0.9589
-8.4414 5.5221 -2.8381 0.9590
-8.9941 4.7994 -2.8683 0.9585
-10.1103 3.2602 -2.9888 0.9568
-10.3595 2.3471 -2.9886 0.9568
-10.5267 1.4157 -2.9884 0.9568
-10.6106 0.4731 -2.9883 0.9568
-10.6106 -0.4731 -2.9883 0.9568
-10.5266 -1.4157 -2.9884 0.9568
-10.1101 -3.2601 -2.9888 0.9568
-9.7808 -4.1474 -2.9891 0.9568
-9.3741 -5.0022 -2.9895 0.9568
-8.3414 -6.5871 -2.9905 0.9568
-7.7235 -7.3048 -2.9911 0.9568
-7.0443 -7.9651 -2.9917 0.9568
-6.3089 -8.5624 -2.9924 0.9568
-5.5231 -9.0923 -2.9932 0.9568
-4.6932 -9.5504 -2.9940 0.9567
-2.0050 -10.4601 -2.9966 0.9567
-0.1187 -10.6564 -2.9984 0.9567
1.7737 -10.5150 -3.0003 0.9567
2.7034 -10.3186 -3.0012 0.9566
6.8962 -8.1569 -3.0053 0.9566
8.2369 -6.8079 -3.0066 0.9566
9.3167 -5.2415 -3.0077 0.9566
10.3742 -2.5947 -3.0087 0.9565
10.6709 -0.7143 -3.0091 0.9565
10.6923 0.2383 -3.0091 0.9565
10.2481 3.0543 -3.0087 0.9565
9.9346 3.9539 -3.0084 0.9565
6.8854 7.4444 -2.8531 0.9587
6.1940 8.0258 -2.8524 0.9587
5.4537 8.5431 -2.8517 0.9588
4.6704 8.9922 -2.8509 0.9588
3.8505 9.3696 -2.8501 0.9588
3.0004 9.6723 -2.8493 0.9588
2.1270 9.8981 -2.8484 0.9588
-0.5631 10.0990 -2.8458 0.9588
-1.4593 10.0058 -2.8450 0.9589
-3.2083 9.5827 -2.8432 0.9589
-4.0473 9.2564 -2.8424 0.9589
-4.8537 8.8570 -2.8416 0.9589
-6.3440 7.8521 -2.8402 0.9589
-9.5873 4.5795 -2.9894 0.9568
-9.9556 3.7075 -2.9890 0.9568
-10.2451 2.8064 -2.9887 0.9568
-10.4534 1.8833 -2.9885 0.9568
-10.5791 0.9454 -2.9884 0.9568
-9.9837 0.0000 -2.9889 0.9592
-9.9442 -0.8886 -2.9890 0.9592
-9.8260 -1.7702 -2.9891 0.9592
-9.3578 -3.4849 -2.9895 0.9592
-9.0115 -4.3044 -2.9898 0.9592
-8.1079 -5.8357 -2.9907 0.9591
-5.5660 -8.3051 -2.9931 0.9591
-4.0073 -9.1650 -2.9947 0.9591
-2.3201 -9.7356 -2.9963 0.9591
2.1057 -9.7990 -3.0006 0.9590
2.9703 -9.5754 -3.0015 0.9590
4.6235 -8.9019 -3.0031 0.9590
5.3989 -8.4571 -3.0038 0.9590
6.1316 -7.9450 -3.0046 0.9590
8.0177 -6.0465 -3.0064 0.9589
8.5255 -5.3097 -3.0069 0.9589
9.6289 -2.8697 -3.0080 0.9589
9.9864 -1.1171 -3.0084 0.9589
10.0265 0.6712 -3.0084 0.9589
9.9266 1.5609 -3.0084 0.9589
9.4913 3.2958 -3.0080 0.9589
7.8594 5.3952 -2.8540 0.9610
6.7758 6.7008 -2.8529 0.9610
5.4780 7.7926 -2.8517 0.9610
4.7615 8.2472 -2.8510 0.9610
3.2221 8.9560 -2.8495 0.9610
2.4115 9.2048 -2.8487 0.9610
1.5822 9.3802 -2.8479 0.9611
-0.9513 9.4567 -2.8454 0.9611
-4.1872 8.5206 -2.8423 0.9611
-7.9346 5.1906 -2.8386 0.9612
-8.8116 4.7021 -2.9901 0.9592
-9.1940 3.8986 -2.9897 0.9592
-9.5035 3.0645 -2.9894 0.9592
-9.7378 2.2063 -2.9892 0.9592
-9.8950 1.3308 -2.9890 0.9592
-9.9739 0.4448 -2.9889 0.9592
-9.1937 -3.8985 -2.9897 0.9592
-8.8113 -4.7019 -2.9900 0.9592
-8.3591 -5.4683 -2.9905 0.9592
-7.2597 -6.8661 -2.9915 0.9591
-6.6211 -7.4866 -2.9921 0.9591
-3.5956 -9.3357 -2.9951 0.9591
-1.8844 -9.8307 -2.9967 0.9591
-1.0022 -9.9623 -2.9976 0.9591
5.0161 -8.6881 -3.0035 0.9590
5.7709 -8.2092 -3.0042 0.9590
6.4802 -7.6648 -3.0049 0.9590
7.1382 -7.0591 -3.0055 0.9589
8.2799 -5.6838 -3.0067 0.9589
9.1591 -4.1269 -3.0075 0.9589
9.4911 -3.2957 -3.0079 0.9589
9.7476 -2.4380 -3.0081 0.9589
9.9265 -1.5609 -3.0083 0.9589
10.0264 -0.6712 -3.0084 0.9589
9.9865 1.1172 -3.0084 0.9589
9.8470 2.0015 -3.0083 0.9589
9.3346 3.7151 -3.0078 0.9589
8.0926 5.0401 -2.8542 0.9610
6.4699 6.9952 -2.8526 0.9610
5.8203 7.5416 -2.8520 0.9610
4.3888 8.4500 -2.8506 0.9610
2.8196 9.0894 -2.8491 0.9610
1.1626 9.4400 -2.8475 0.9611
-1.3715 9.4036 -2.8450 0.9611
-3.0153 9.0063 -2.8434 0.9611
-4.5620 8.3246 -2.8419 0.9611
-5.9628 7.3802 -2.8405 0.9612
-7.1738 6.2035 -2.8393 0.9612
-7.6961 5.5394 -2.8388 0.9612
-8.1573 4.8316 -2.8384 0.9612
-9.3580 3.4850 -2.9896 0.9592
-9.6302 2.6380 -2.9893 0.9592
-9.3759 -0.8378 -2.9895 0.9613
-9.2644 -1.6690 -2.9896 0.9613
-8.8229 -3.2857 -2.9900 0.9613
-8.4964 -4.0584 -2.9903 0.9613
-7.6443 -5.5020 -2.9911 0.9612
-7.1254 -6.1615 -2.9916 0.9612
-6.5499 -6.7726 -2.9922 0.9612
-4.5309 -8.2678 -2.9942 0.9612
-3.7779 -8.6403 -2.9949 0.9612
-2.1872 -9.1780 -2.9964 0.9612
-1.3620 -9.3387 -2.9972 0.9612
-0.5256 -9.4255 -2.9980 0.9612
0.3155 -9.4374 -2.9989 0.9611
1.1546 -9.3745 -2.9997 0.9611
1.9849 -9.2370 -3.0005 0.9611
3.5931 -8.7433 -3.0021 0.9611
5.0889 -7.9716 -3.0035 0.9611
6.4245 -6.9460 -3.0048 0.9611
7.0186 -6.3479 -3.0054 0.9611
8.4503 -4.2701 -3.0069 0.9610
8.7978 -3.5014 -3.0072 0.9610
9.0754 -2.7047 -3.0075 0.9610
9.4122 -1.0529 -3.0078 0.9610
9.4688 -0.2110 -3.0079 0.9610
9.4500 0.6326 -3.0079 0.9610
9.1874 2.2979 -3.0076 0.9610
8.9457 3.1063 -3.0074 0.9610
7.4077 5.0851 -2.8535 0.9630
6.9246 5.7234 -2.8531 0.9630
5.7979 6.8578 -2.8520 0.9630
5.1634 7.3451 -2.8514 0.9630
4.4881 7.7737 -2.8507 0.9630
3.7775 8.1403 -2.8500 0.9630
3.0372 8.4421 -2.8493 0.9630
0.6984 8.9375 -2.8470 0.9631
-0.0998 8.9617 -2.8463 0.9631
-0.8968 8.9148 -2.8455 0.9631
-1.6863 8.7972 -2.8447 0.9631
-2.4619 8.6099 -2.8440 0.9631
-5.3067 7.2023 -2.8412 0.9632
-5.9254 6.7000 -2.8406 0.9632
-8.9604 2.8893 -2.9900 0.9613
-9.1813 2.0802 -2.9897 0.9613
-9.4039 -0.4193 -2.9895 0.9613
-7.8812 -5.1556 -2.9909 0.9612
-5.5905 -7.5875 -2.9931 0.9612
-4.8941 -8.0568 -2.9938 0.9612
-4.1586 -8.4624 -2.9945 0.9612
-0.9448 -9.3914 -2.9976 0.9612
-0.1052 -9.4408 -2.9985 0.9612
0.7357 -9.4153 -2.9993 0.9611
2.3947 -9.1406 -3.0009 0.9611
3.1996 -8.8935 -3.0017 0.9611
3.9795 -8.5756 -3.0024 0.9611
5.4396 -7.7379 -3.0039 0.9611
6.1080 -7.2246 -3.0045 0.9611
7.2950 -6.0295 -3.0057 0.9611
8.6326 -3.8896 -3.0070 0.9610
8.9455 -3.1062 -3.0073 0.9610
9.1872 -2.2979 -3.0076 0.9610
9.4499 -0.6326 -3.0079 0.9610
9.4123 1.0530 -3.0079 0.9610
9.2809 1.8864 -3.0077 0.9610
7.6293 4.7516 -2.8545 0.9630
7.1733 5.4096 -2.8533 0.9630
4.8305 7.5669 -2.8511 0.9630
4.1369 7.9650 -2.8504 0.9630
2.6578 8.5679 -2.8489 0.9631
1.8842 8.7682 -2.8482 0.9631
1.0960 8.8987 -2.8474 0.9631
-1.2929 8.8648 -2.8451 0.9631
-2.0762 8.7122 -2.8443 0.9631
-4.3009 7.8481 -2.8422 0.9631
-4.6653 6.9611 -2.6613 0.9654
-5.6216 6.9580 -2.8409 0.9632
-6.7636 5.8487 -2.8397 0.9632
-8.4966 4.0585 -2.9904 0.9613
-8.8232 3.2858 -2.9901 0.9613
-8.8992 0.0000 -2.9900 0.9631
-8.7586 -1.5779 -2.9901 0.9631
-8.5839 -2.3514 -2.9903 0.9631
-8.3411 -3.1063 -2.9905 0.9631
-8.0323 -3.8367 -2.9908 0.9631
-7.6599 -4.5370 -2.9911 0.9631
-6.7361 -5.8249 -2.9920 0.9631
-5.5986 -6.9295 -2.9931 0.9631
-3.5713 -8.1678 -2.9951 0.9631
-0.4968 -8.9095 -2.9981 0.9630
2.6465 -8.5314 -3.0011 0.9630
4.1192 -7.9308 -3.0026 0.9630
4.8098 -7.5344 -3.0033 0.9630
5.4625 -7.0779 -3.0039 0.9630
7.5945 -4.7299 -3.0060 0.9630
7.9864 -4.0357 -3.0064 0.9629
8.5770 -2.5562 -3.0070 0.9629
8.7711 -1.7828 -3.0072 0.9629
8.9488 -0.1994 -3.0074 0.9629
8.9310 0.5979 -3.0074 0.9629
8.6829 2.1718 -3.0072 0.9629
8.1589 3.6762 -3.0067 0.9629
6.5446 5.4092 -2.8527 0.9648
4.8802 6.9422 -2.8511 0.9648
4.2420 7.3474 -2.8505 0.9648
3.5704 7.6940 -2.8498 0.9648
2.8707 7.9794 -2.8492 0.9648
2.1486 8.2012 -2.8484 0.9649
1.4098 8.3578 -2.8477 0.9649
0.6601 8.4479 -2.8470 0.9649
-0.0944 8.4710 -2.8463 0.9649
-0.8477 8.4268 -2.8455 0.9649
-3.0416 7.8975 -2.8434 0.9649
-3.7316 7.5936 -2.8427 0.9649
-5.6016 6.3338 -2.8409 0.9649
-7.3083 4.7809 -2.9342 0.9638
-7.8541 4.1911 -2.9911 0.9631
-8.4711 2.7316 -2.9904 0.9631
-8.6800 1.9666 -2.9902 0.9631
-8.8201 1.1862 -2.9901 0.9631
-8.8905 0.3965 -2.9900 0.9631
-8.8200 -1.1862 -2.9901 0.9631
-8.6798 -1.9666 -2.9902 0.9631
-8.1949 -3.4749 -2.9906 0.9631
-6.4705 -6.1197 -2.9923 0.9631
-4.6265 -7.6163 -2.9941 0.9631
-3.2043 -8.3197 -2.9954 0.9631
-2.4517 -8.5740 -2.9962 0.9631
-1.6792 -8.7604 -2.9969 0.9631
-0.8931 -8.8774 -2.9977 0.9631
-0.0994 -8.9239 -2.9985 0.9630
0.6954 -8.8996 -2.9992 0.9630
1.4852 -8.8047 -3.0000 0.9630
3.7613 -8.1055 -3.0022 0.9630
4.4689 -7.7403 -3.0029 0.9630
5.7729 -6.8282 -3.0042 0.9630
6.8947 -5.6986 -3.0053 0.9630
7.3757 -5.0631 -3.0058 0.9630
8.4543 -2.9356 -3.0069 0.9629
8.6827 -2.1717 -3.0071 0.9629
8.8420 -1.3903 -3.0073 0.9629
8.9310 -0.5979 -3.0074 0.9629
8.9488 0.1994 -3.0074 0.9629
8.8954 0.9951 -3.0073 0.9629
8.7712 1.7828 -3.0072 0.9629
8.5772 2.5563 -3.0071 0.9629
8.3150 3.3093 -3.0068 0.9629
6.2966 5.6949 -2.8525 0.9648
5.1851 6.7186 -2.8514 0.9648
4.5656 7.1519 -2.8508 0.9648
3.2237 7.8445 -2.8495 0.9648
1.7809 8.2878 -2.8481 0.9649
1.0359 8.4112 -2.8474 0.9649
-0.4716 8.4573 -2.8459 0.9649
-2.6871 8.0261 -2.8437 0.9649
-3.3900 7.7532 -2.8430 0.9649
-4.0657 7.4190 -2.8424 0.9649
-5.8776 6.0774 -2.8406 0.9650
-6.3940 5.5292 -2.8401 0.9650
-8.3413 3.1063 -2.9906 0.9631
-8.5840 2.3514 -2.9903 0.9631
-8.7587 1.5780 -2.9901 0.9631
-8.4002 -0.7506 -2.9905 0.9648
-7.9046 -2.9437 -2.9909 0.9648
-7.6120 -3.6359 -2.9912 0.9648
-7.2589 -4.2995 -2.9915 0.9648
-6.8484 -4.9291 -2.9919 0.9648
-5.8678 -6.0672 -2.9929 0.9648
-4.7008 -7.0141 -2.9940 0.9648
-2.6824 -8.0120 -2.9960 0.9648
-1.9592 -8.2209 -2.9967 0.9648
-1.2200 -8.3647 -2.9974 0.9648
1.7777 -8.2726 -3.0003 0.9647
3.2178 -7.8300 -3.0017 0.9647
4.5571 -7.1385 -3.0030 0.9647
5.1754 -6.7059 -3.0036 0.9647
5.7528 -6.2199 -3.0042 0.9647
7.1951 -4.4812 -3.0056 0.9647
7.5663 -3.8234 -3.0060 0.9647
7.8774 -3.1351 -3.0063 0.9647
8.1259 -2.4218 -3.0066 0.9647
8.3097 -1.6890 -3.0067 0.9647
8.4611 0.5664 -3.0069 0.9647
8.3769 1.3172 -3.0068 0.9647
8.2261 2.0575 -3.0067 0.9647
8.0098 2.7813 -3.0065 0.9647
7.7297 3.4829 -3.0062 0.9647
7.3883 4.1566 -3.0059 0.9647
6.8804 4.7231 -2.9592 0.9652
6.2004 5.1248 -2.8524 0.9664
5.7188 5.6554 -2.8519 0.9664
4.6237 6.5773 -2.8508 0.9665
2.0358 7.7706 -2.8483 0.9665
1.3358 7.9190 -2.8477 0.9665
-1.5104 7.8797 -2.8449 0.9665
-2.2052 7.7121 -2.8442 0.9665
-2.8822 7.4835 -2.8435 0.9665
-4.1615 6.8509 -2.8423 0.9666
-5.3082 6.0021 -2.8412 0.9666
-5.8203 5.5048 -2.8406 0.9666
-6.2861 4.9641 -2.8402 0.9666
-7.0609 4.6191 -2.9918 0.9648
-7.4431 3.9717 -2.9915 0.9648
-7.7662 3.2932 -2.9911 0.9648
-8.2257 1.8637 -2.9907 0.9648
-8.4253 0.3757 -2.9905 0.9648
-8.3585 -1.1241 -2.9905 0.9648
-8.2256 -1.8637 -2.9906 0.9648
-8.0276 -2.5886 -2.9908 0.9648
-7.7660 -3.2930 -2.9911 0.9648
-7.4428 -3.9716 -2.9914 0.9648
-7.0607 -4.6188 -2.9917 0.9648
-6.6225 -5.2297 -2.9921 0.9648
-3.7252 -7.5804 -2.9949 0.9648
-3.0363 -7.8837 -2.9956 0.9648
-2.3231 -8.1245 -2.9963 0.9648
-0.8462 -8.4117 -2.9977 0.9648
1.4072 -8.3425 -2.9999 0.9647
2.1447 -8.1862 -3.0007 0.9647
2.8654 -7.9646 -3.0014 0.9647
3.5638 -7.6797 -3.0021 0.9647
4.2341 -7.3337 -3.0027 0.9647
6.0247 -5.9580 -3.0045 0.9647
6.5322 -5.3990 -3.0050 0.9647
6.9878 -4.7969 -3.0054 0.9647
7.3880 -4.1564 -3.0058 0.9647
7.7295 -3.4827 -3.0062 0.9647
8.0096 -2.7812 -3.0064 0.9647
8.2259 -2.0574 -3.0067 0.9647
8.4611 -0.5664 -3.0069 0.9647
8.4274 0.9428 -3.0069 0.9647
8.3098 1.6890 -3.0068 0.9647
7.5665 3.8235 -3.0061 0.9647
6.4231 4.8439 -2.8526 0.9664
5.9655 5.3955 -2.8521 0.9664
5.4607 5.9041 -2.8517 0.9664
4.3257 6.7761 -2.8506 0.9665
3.0544 7.4325 -2.8493 0.9665
-1.1580 7.9401 -2.8452 0.9665
-2.5463 7.6054 -2.8439 0.9665
-3.8526 7.0302 -2.8426 0.9665
-4.4621 6.6580 -2.8420 0.9666
-5.0360 6.2332 -2.8414 0.9666
-5.5698 5.7591 -2.8409 0.9666
-6.0592 5.2396 -2.8404 0.9666
-6.6467 4.7840 -2.9038 0.9658
-7.2592 4.2996 -2.9916 0.9648
-7.6122 3.6361 -2.9913 0.9648
-7.9048 2.9438 -2.9910 0.9648
-8.1348 2.2284 -2.9908 0.9648
-8.4002 0.7506 -2.9905 0.9648
-8.0096 0.0000 -2.9909 0.9664
-7.9778 -0.7129 -2.9909 0.9664
-7.2291 -3.4530 -2.9916 0.9664
-6.8938 -4.0832 -2.9919 0.9664
-5.5725 -5.7619 -2.9932 0.9664
-5.0384 -6.2361 -2.9937 0.9663
-3.2137 -7.3499 -2.9954 0.9663
-1.8604 -7.8067 -2.9968 0.9663
-1.1585 -7.9431 -2.9974 0.9663
1.6880 -7.8553 -3.0002 0.9663
2.3810 -7.6756 -3.0009 0.9663
3.0554 -7.4349 -3.0016 0.9663
3.7058 -7.1349 -3.0022 0.9663
4.3270 -6.7781 -3.0028 0.9662
4.9141 -6.3673 -3.0034 0.9662
5.4623 -5.9058 -3.0039 0.9662
6.4249 -4.8453 -3.0049 0.9662
6.8316 -4.2547 -3.0053 0.9662
7.1840 -3.6302 -3.0056 0.9662
7.8897 -1.6036 -3.0063 0.9662
8.0495 -0.1794 -3.0065 0.9662
8.0335 0.5378 -3.0065 0.9662
7.9535 1.2506 -3.0064 0.9662
7.8103 1.9535 -3.0063 0.9662
7.3391 3.3069 -3.0059 0.9662
5.4299 5.3698 -2.8516 0.9679
4.3903 6.2453 -2.8506 0.9679
2.5827 7.1788 -2.8489 0.9679
1.9331 7.3786 -2.8482 0.9680
0.5939 7.6010 -2.8469 0.9680
-0.0849 7.6219 -2.8463 0.9680
-1.4343 7.4826 -2.8449 0.9680
-2.7370 7.1066 -2.8437 0.9680
-3.3580 6.8333 -2.8431 0.9680
-4.5145 6.1272 -2.8419 0.9680
-5.0410 5.7000 -2.8414 0.9680
-6.0601 4.7856 -2.8834 0.9676
-6.7057 4.3867 -2.9922 0.9664
-7.3756 3.1275 -2.9915 0.9664
-7.8121 1.7700 -2.9911 0.9664
-7.9383 1.0676 -2.9909 0.9664
-7.6239 -2.4584 -2.9912 0.9664
-7.0685 -3.7719 -2.9917 0.9664
-6.7055 -4.3865 -2.9921 0.9664
-5.8232 -5.5075 -2.9929 0.9664
-5.3107 -6.0049 -2.9934 0.9664
-4.7560 -6.4549 -2.9940 0.9663
-4.1634 -6.8539 -2.9945 0.9663
-3.5376 -7.1987 -2.9951 0.9663
-1.5110 -7.8827 -2.9971 0.9663
2.0365 -7.7732 -3.0006 0.9663
2.7209 -7.5628 -3.0012 0.9663
3.3839 -7.2921 -3.0019 0.9663
4.6251 -6.5793 -3.0031 0.9662
5.1933 -6.1427 -3.0037 0.9662
6.6348 -4.5546 -3.0051 0.9662
7.6048 -2.6407 -3.0060 0.9662
7.8102 -1.9535 -3.0063 0.9662
8.0334 -0.5377 -3.0065 0.9662
8.0015 0.8951 -3.0065 0.9662
7.8898 1.6037 -3.0064 0.9662
7.7153 2.2994 -3.0062 0.9662
7.4795 2.9768 -3.0060 0.9662
7.1842 3.6303 -3.0057 0.9662
6.8318 4.2549 -3.0054 0.9662
3.5177 6.7727 -2.8498 0.9679
2.9003 7.0574 -2.8492 0.9679
2.2601 7.2860 -2.8485 0.9680
1.6023 7.4566 -2.8479 0.9680
0.2547 7.6190 -2.8466 0.9680
-0.4243 7.6096 -2.8459 0.9680
-1.7660 7.4104 -2.8446 0.9680
-3.0506 6.9768 -2.8434 0.9680
-3.6587 6.6762 -2.8428 0.9680
-4.7825 5.9194 -2.8417 0.9680
-6.5041 4.6814 -2.9924 0.9664
-7.2293 3.4532 -2.9917 0.9664
-7.9779 0.7129 -2.9909 0.9664
-7.6215 0.0000 -2.9912 0.9678
-7.5010 -1.3513 -2.9913 0.9678
-7.3513 -2.0137 -2.9915 0.9678
-7.1434 -2.6602 -2.9917 0.9678
-6.5598 -3.8854 -2.9922 0.9678
-6.1886 -4.4543 -2.9926 0.9678
-4.7941 -5.9337 -2.9939 0.9678
-4.2477 -6.3379 -2.9945 0.9677
-3.6674 -6.6921 -2.9950 0.9677
-1.7701 -7.4278 -2.9969 0.9677
-1.1022 -7.5576 -2.9975 0.9677
0.2553 -7.6366 -2.9988 0.9677
4.1166 -6.4485 -3.0026 0.9677
4.6751 -6.0577 -3.0032 0.9677
5.6769 -5.1345 -3.0041 0.9676
6.1123 -4.6095 -3.0046 0.9676
6.4991 -4.0477 -3.0050 0.9676
7.5056 -1.5256 -3.0060 0.9676
7.6119 -0.8515 -3.0061 0.9676
7.6424 0.5116 -3.0061 0.9676
7.5663 1.1897 -3.0061 0.9676
7.4301 1.8584 -3.0059 0.9676
7.2348 2.5122 -3.0057 0.9676
6.9819 3.1459 -3.0055 0.9676
5.1658 5.1086 -2.8514 0.9693
3.6307 6.2885 -2.8499 0.9693
3.0560 6.5855 -2.8493 0.9693
2.4572 6.8299 -2.8487 0.9693
1.8392 7.0200 -2.8481 0.9693
-0.0808 7.2517 -2.8463 0.9693
-0.7257 7.2142 -2.8456 0.9693
-1.3647 7.1194 -2.8450 0.9693
-3.1951 6.5018 -2.8432 0.9693
-4.7966 5.4237 -2.8416 0.9694
-5.2595 4.9744 -2.8412 0.9694
-6.3807 4.1741 -2.9925 0.9678
-6.7261 3.5892 -2.9921 0.9678
-7.2547 2.3393 -2.9916 0.9678
-7.4336 1.6842 -2.9914 0.9678
-7.6140 0.3395 -2.9912 0.9678
-7.6140 -0.3395 -2.9912 0.9678
-7.0181 -2.9759 -2.9918 0.9678
-6.7260 -3.5891 -2.9921 0.9678
-5.9845 -4.7259 -2.9928 0.9678
-5.0532 -5.7138 -2.9937 0.9678
-4.5254 -6.1419 -2.9942 0.9677
-3.9615 -6.5215 -2.9947 0.9677
-0.7646 -7.6000 -2.9978 0.9677
0.5953 -7.6185 -2.9992 0.9677
1.2713 -7.5369 -2.9998 0.9677
2.5886 -7.1952 -3.0011 0.9677
3.8249 -6.6249 -3.0023 0.9677
4.9407 -5.8439 -3.0034 0.9677
5.9004 -4.8768 -3.0044 0.9676
6.3119 -4.3329 -3.0048 0.9676
6.6733 -3.7544 -3.0051 0.9676
6.9817 -3.1458 -3.0054 0.9676
7.4300 -1.8584 -3.0059 0.9676
7.5663 -1.1897 -3.0060 0.9676
7.6423 -0.5116 -3.0061 0.9676
7.6576 0.1707 -3.0061 0.9676
7.1154 2.8319 -3.0056 0.9676
6.8345 3.4536 -3.0054 0.9676
6.1125 4.6096 -3.0047 0.9676
5.3886 4.8737 -2.8516 0.9693
4.4377 5.7501 -2.8507 0.9693
3.9076 6.1211 -2.8501 0.9693
2.7593 6.7144 -2.8490 0.9693
2.1503 6.9319 -2.8484 0.9693
0.8868 7.2002 -2.8472 0.9693
-0.4037 7.2401 -2.8459 0.9693
-1.0463 7.1739 -2.8453 0.9693
-1.6803 7.0508 -2.8447 0.9693
-3.4812 6.3524 -2.8429 0.9694
-4.0320 6.0162 -2.8424 0.9694
-4.5506 5.6324 -2.8419 0.9694
-5.0331 5.2042 -2.8414 0.9694
-6.1888 4.4545 -2.9927 0.9678
-6.8790 3.2858 -2.9920 0.9678
-7.5011 1.3514 -2.9914 0.9678
-7.5914 0.6784 -2.9913 0.9678
-7.2362 -0.6466 -2.9916 0.9691
-7.1501 -1.2882 -2.9917 0.9691
-7.0074 -1.9195 -2.9918 0.9691
-6.8091 -2.5357 -2.9920 0.9691
-6.5569 -3.1320 -2.9922 0.9691
-6.2528 -3.7035 -2.9925 0.9691
-5.8990 -4.2458 -2.9929 0.9690
-5.4984 -4.7546 -2.9932 0.9690
-4.5696 -5.6559 -2.9941 0.9690
-4.0488 -6.0411 -2.9946 0.9690
-3.4956 -6.3787 -2.9952 0.9690
0.2433 -7.2785 -2.9988 0.9690
0.8904 -7.2294 -2.9994 0.9690
2.1590 -6.9599 -3.0007 0.9690
3.9233 -6.1458 -3.0024 0.9690
4.4555 -5.7732 -3.0029 0.9689
4.9525 -5.3546 -3.0034 0.9689
6.1937 -3.8575 -3.0047 0.9689
6.7809 -2.6987 -3.0052 0.9689
6.9946 -2.0846 -3.0055 0.9689
7.2541 -0.8115 -3.0057 0.9689
7.2107 1.1338 -3.0057 0.9689
6.8947 2.3942 -3.0054 0.9689
6.0156 4.1295 -3.0046 0.9689
4.4696 5.2866 -2.8507 0.9705
3.9806 5.6625 -2.8502 0.9705
3.4602 5.9933 -2.8497 0.9705
2.9125 6.2763 -2.8492 0.9705
2.3419 6.5094 -2.8486 0.9705
1.1502 6.8187 -2.8475 0.9705
0.5386 6.8925 -2.8469 0.9705
-0.0770 6.9117 -2.8463 0.9705
-0.6917 6.8760 -2.8457 0.9705
-1.8991 6.6416 -2.8445 0.9706
-3.0454 6.1972 -2.8434 0.9706
-3.5842 5.9004 -2.8428 0.9706
-4.0944 5.5570 -2.8423 0.9706
-6.0821 3.9787 -2.9928 0.9690
-7.2578 0.3236 -2.9916 0.9691
-7.2003 -0.9683 -2.9916 0.9691
-7.0858 -1.6054 -2.9917 0.9691
-6.9151 -2.2298 -2.9919 0.9691
-6.6897 -2.8366 -2.9921 0.9691
-6.4112 -3.4211 -2.9924 0.9691
-6.0819 -3.9786 -2.9927 0.9691
-5.7044 -4.5047 -2.9931 0.9690
-5.2815 -4.9952 -2.9935 0.9690
-4.8166 -5.4463 -2.9939 0.9690
-3.7760 -6.2161 -2.9949 0.9690
0.5674 -7.2612 -2.9991 0.9690
1.2117 -7.1833 -2.9998 0.9690
1.8466 -7.0485 -3.0004 0.9690
2.4671 -6.8575 -3.0010 0.9690
3.0683 -6.6120 -3.0016 0.9690
3.6453 -6.3138 -3.0021 0.9690
4.1936 -5.9654 -3.0027 0.9689
4.7087 -5.5694 -3.0032 0.9689
5.1865 -5.1290 -3.0037 0.9689
6.3598 -3.5779 -3.0048 0.9689
7.2106 -1.1338 -3.0057 0.9689
7.2831 -0.4875 -3.0058 0.9689
7.1529 1.4539 -3.0057 0.9689
6.9948 2.0847 -3.0055 0.9689
6.7810 2.6988 -3.0053 0.9689
5.8253 4.3931 -3.0044 0.9689
4.7010 5.0827 -2.8509 0.9705
3.1895 6.1409 -2.8494 0.9705
2.6298 6.3992 -2.8489 0.9705
2.0494 6.6066 -2.8483 0.9705
1.4529 6.7614 -2.8478 0.9705
0.2310 6.9090 -2.8466 0.9705
-0.9972 6.8376 -2.8454 0.9706
-2.1929 6.5497 -2.8442 0.9706
-3.8432 5.7344 -2.8426 0.9706
-4.3376 5.3687 -2.8421 0.9706
-4.7974 4.9605 -2.8416 0.9706
-5.8992 4.2460 -2.9930 0.9690
-6.2529 3.7036 -2.9926 0.9691
-7.2362 0.6467 -2.9916 0.9691
-6.9360 0.0000 -2.9919 0.9702
-6.9085 -0.6173 -2.9919 0.9702
-6.8263 -1.2298 -2.9920 0.9702
-6.6901 -1.8326 -2.9921 0.9702
-6.5008 -2.4209 -2.9923 0.9702
-6.2600 -2.9901 -2.9925 0.9702
-5.2493 -4.5392 -2.9935 0.9702
-4.8251 -4.9891 -2.9939 0.9702
-4.3625 -5.3996 -2.9943 0.9702
-3.3372 -6.0895 -2.9953 0.9702
-2.7824 -6.3635 -2.9959 0.9702
-2.2054 -6.5871 -2.9964 0.9702
-1.0029 -6.8765 -2.9976 0.9702
2.0609 -6.6438 -3.0006 0.9702
3.7451 -5.8665 -3.0022 0.9701
4.2530 -5.5108 -3.0027 0.9701
5.1643 -4.6708 -3.0036 0.9701
5.9121 -3.6821 -3.0044 0.9701
6.4725 -2.5760 -3.0049 0.9701
6.6765 -1.9898 -3.0051 0.9701
6.8275 -1.3877 -3.0053 0.9701
6.9241 -0.7746 -3.0054 0.9701
6.9518 0.4654 -3.0054 0.9701
6.5811 2.2853 -3.0051 0.9701
6.3512 2.8617 -3.0049 0.9701
6.0707 3.4153 -3.0046 0.9701
5.7420 3.9417 -3.0043 0.9701
5.3678 4.4366 -3.0039 0.9701
4.7935 4.7404 -2.9081 0.9711
3.7997 5.4052 -2.8500 0.9716
3.3030 5.7210 -2.8495 0.9716
2.2355 6.2137 -2.8485 0.9716
1.6733 6.3868 -2.8480 0.9716
0.5141 6.5796 -2.8468 0.9717
-0.6603 6.5639 -2.8457 0.9717
-1.2417 6.4778 -2.8451 0.9717
-1.8130 6.3403 -2.8446 0.9717
-2.9073 5.9162 -2.8435 0.9717
-3.4217 5.6330 -2.8430 0.9717
-3.9089 5.3052 -2.8425 0.9717
-4.3648 4.9354 -2.8421 0.9717
-6.1210 3.2663 -2.9927 0.9702
-6.3868 2.7083 -2.9925 0.9702
-6.8742 -0.9245 -2.9920 0.9702
-6.7649 -1.5327 -2.9921 0.9702
-6.3867 -2.7082 -2.9924 0.9702
-6.1208 -3.2662 -2.9927 0.9702
-5.8064 -3.7984 -2.9930 0.9702
-5.0422 -4.7689 -2.9937 0.9702
-4.1180 -5.5890 -2.9946 0.9702
-1.3081 -6.8243 -2.9973 0.9702
-0.6957 -6.9150 -2.9979 0.9702
-0.0774 -6.9509 -2.9985 0.9702
1.1567 -6.8572 -2.9997 0.9702
2.3551 -6.5461 -3.0009 0.9701
2.9289 -6.3116 -3.0014 0.9701
4.4947 -5.3163 -3.0030 0.9701
4.9508 -4.8959 -3.0034 0.9701
5.3676 -4.4364 -3.0038 0.9701
6.0706 -3.4153 -3.0045 0.9701
6.3510 -2.8616 -3.0048 0.9701
6.7587 -1.6905 -3.0052 0.9701
6.8275 1.3878 -3.0053 0.9701
6.6766 1.9899 -3.0052 0.9701
6.4726 2.5761 -3.0050 0.9701
6.2171 3.1417 -3.0048 0.9701
5.9123 3.6822 -3.0045 0.9701
5.5604 4.1933 -3.0041 0.9701
4.4873 4.8516 -2.8507 0.9716
4.0371 5.2310 -2.8503 0.9716
2.5103 6.1085 -2.8488 0.9716
1.3870 6.4544 -2.8477 0.9717
0.2205 6.5954 -2.8466 0.9717
-0.9520 6.5273 -2.8454 0.9717
-2.6411 6.0404 -2.8438 0.9717
-5.6319 4.0536 -2.9932 0.9702
-6.5009 2.4210 -2.9924 0.9702
-6.6901 1.8326 -2.9922 0.9702
-6.8264 1.2299 -2.9920 0.9702
-6.6051 -0.5902 -2.9922 0.9713
-6.5265 -1.1758 -2.9923 0.9713
-6.3962 -1.7521 -2.9924 0.9713
-6.2152 -2.3146 -2.9926 0.9713
-5.9850 -2.8588 -2.9928 0.9713
-5.3843 -3.8754 -2.9934 0.9713
-5.0186 -4.3398 -2.9937 0.9713
-4.6130 -4.7698 -2.9941 0.9713
-3.1904 -5.8218 -2.9955 0.9713
-2.1084 -6.2974 -2.9965 0.9713
-0.9588 -6.5739 -2.9977 0.9713
0.8126 -6.5974 -2.9994 0.9713
1.3968 -6.5002 -3.0000 0.9712
1.9702 -6.3512 -3.0005 0.9712
2.5281 -6.1518 -3.0011 0.9712
3.0662 -5.9034 -3.0016 0.9712
3.5800 -5.6080 -3.0021 0.9712
4.5190 -4.8859 -3.0030 0.9712
4.9366 -4.4649 -3.0034 0.9712
5.6514 -3.5197 -3.0041 0.9712
5.9428 -3.0030 -3.0044 0.9712
6.1870 -2.4624 -3.0047 0.9712
6.3821 -1.9021 -3.0049 0.9712
6.5263 -1.3265 -3.0050 0.9712
6.6452 0.4449 -3.0051 0.9712
6.5791 1.0345 -3.0051 0.9712
6.2909 2.1845 -3.0048 0.9712
6.0711 2.7355 -3.0046 0.9712
5.4889 3.7679 -3.0041 0.9712
5.1311 4.2410 -3.0037 0.9712
4.7327 4.6803 -3.0033 0.9712
4.0784 4.8239 -2.8503 0.9727
3.6323 5.1670 -2.8499 0.9727
3.1575 5.4689 -2.8494 0.9727
2.6577 5.7272 -2.8489 0.9727
2.1370 5.9400 -2.8484 0.9727
1.5996 6.1055 -2.8479 0.9727
1.0496 6.2225 -2.8474 0.9727
0.4915 6.2900 -2.8468 0.9727
-0.0703 6.3076 -2.8463 0.9727
-0.6313 6.2751 -2.8457 0.9727
-1.1871 6.1929 -2.8452 0.9727
-2.2654 5.8821 -2.8441 0.9727
-3.2713 5.3854 -2.8431 0.9727
-4.2270 4.7796 -2.8790 0.9724
-4.8208 4.5595 -2.9940 0.9713
-5.5515 3.6316 -2.9933 0.9713
-6.1063 2.5893 -2.9927 0.9713
-6.3121 2.0354 -2.9925 0.9713
-6.5724 0.8839 -2.9923 0.9713
-6.6248 0.2954 -2.9922 0.9713
-6.6248 -0.2954 -2.9922 0.9713
-6.4678 -1.4654 -2.9923 0.9713
-6.3120 -2.0354 -2.9925 0.9713
-5.8520 -3.1227 -2.9929 0.9713
-5.5513 -3.6315 -2.9932 0.9713
-5.2067 -4.1116 -2.9935 0.9713
-4.8206 -4.5593 -2.9939 0.9713
-4.3963 -4.9710 -2.9943 0.9713
-3.9370 -5.3433 -2.9948 0.9713
-3.4463 -5.6734 -2.9952 0.9713
-2.3866 -6.1967 -2.9963 0.9713
-1.8259 -6.3857 -2.9968 0.9713
-1.2506 -6.5240 -2.9974 0.9713
-0.6650 -6.6107 -2.9979 0.9713
0.5178 -6.6265 -2.9991 0.9713
1.1058 -6.5553 -2.9997 0.9712
3.3264 -5.7615 -3.0018 0.9712
5.1310 -4.2408 -3.0036 0.9712
5.8029 -3.2646 -3.0043 0.9712
6.4606 -1.6159 -3.0049 0.9712
6.6585 0.1484 -3.0052 0.9712
6.6188 0.7404 -3.0051 0.9712
5.9430 3.0031 -3.0045 0.9712
5.3153 4.0085 -3.0039 0.9712
4.9368 4.4651 -3.0035 0.9712
4.3849 4.7409 -2.9139 0.9721
3.3982 5.3233 -2.8496 0.9727
1.8701 6.0288 -2.8482 0.9727
1.3259 6.1702 -2.8476 0.9727
0.7713 6.2625 -2.8471 0.9727
0.2108 6.3051 -2.8465 0.9727
-0.9101 6.2401 -2.8454 0.9727
-2.0013 5.9777 -2.8444 0.9727
-2.5250 5.7748 -2.8439 0.9727
-3.5077 5.2338 -2.8429 0.9727
-5.7074 3.3805 -2.9931 0.9713
-5.9851 2.8589 -2.9929 0.9713
-6.5266 1.1758 -2.9923 0.9713
-6.3484 0.0000 -2.9925 0.9723
-6.3232 -0.5650 -2.9925 0.9723
-5.7295 -2.7368 -2.9930 0.9723
-4.4160 -4.5662 -2.9943 0.9723
-3.5375 -5.2783 -2.9952 0.9723
-3.0541 -5.5731 -2.9956 0.9723
-0.3541 -6.3508 -2.9982 0.9723
0.7778 -6.3152 -2.9993 0.9723
1.3370 -6.2221 -2.9999 0.9722
2.9349 -5.6507 -3.0015 0.9722
3.8915 -5.0424 -3.0024 0.9722
4.3255 -4.6766 -3.0028 0.9722
5.0874 -3.8366 -3.0036 0.9722
5.6882 -2.8744 -3.0042 0.9722
5.9219 -2.3569 -3.0044 0.9722
6.1086 -1.8205 -3.0046 0.9722
6.3604 0.4258 -3.0049 0.9722
6.2972 0.9902 -3.0048 0.9722
6.1838 1.5467 -3.0047 0.9722
6.0213 2.0908 -3.0046 0.9722
5.5544 3.1249 -3.0041 0.9722
5.2537 3.6065 -3.0038 0.9722
0.4705 6.0210 -2.8468 0.9736
-2.1686 5.6307 -2.8442 0.9737
-2.6607 5.4144 -2.8437 0.9737
-3.1315 5.1553 -2.8433 0.9737
-3.5774 4.8553 -2.8428 0.9737
-4.6149 4.3648 -2.9942 0.9723
-5.8456 2.4788 -2.9930 0.9723
-6.0427 1.9485 -2.9928 0.9723
-6.3421 0.2828 -2.9925 0.9723
-6.3421 -0.2828 -2.9925 0.9723
-6.2918 -0.8462 -2.9925 0.9723
-6.1917 -1.4029 -2.9926 0.9723
-6.0426 -1.9485 -2.9927 0.9723
-5.3143 -3.4764 -2.9934 0.9723
-4.9843 -3.9361 -2.9938 0.9723
-4.6148 -4.3646 -2.9941 0.9723
-4.2085 -4.7587 -2.9945 0.9723
-3.2991 -5.4310 -2.9954 0.9723
-2.8031 -5.7040 -2.9959 0.9723
-2.2846 -5.9319 -2.9964 0.9723
-1.1971 -6.2452 -2.9974 0.9723
-0.6366 -6.3281 -2.9980 0.9723
-0.0709 -6.3608 -2.9985 0.9723
1.6130 -6.1569 -3.0002 0.9722
2.1550 -5.9900 -3.0007 0.9722
2.6800 -5.7754 -3.0012 0.9722
5.2536 -3.6064 -3.0037 0.9722
5.5543 -3.1248 -3.0040 0.9722
5.8108 -2.6182 -3.0043 0.9722
6.1838 -1.5467 -3.0047 0.9722
6.3604 -0.4258 -3.0049 0.9722
6.3351 0.7087 -3.0048 0.9722
6.1087 1.8206 -3.0046 0.9722
5.9220 2.3569 -3.0045 0.9722
5.6883 2.8744 -3.0042 0.9722
4.7253 4.2738 -3.0033 0.9722
3.6940 4.7863 -2.8499 0.9736
1.7901 5.7708 -2.8481 0.9736
1.2692 5.9061 -2.8476 0.9736
0.7383 5.9946 -2.8470 0.9736
-0.3361 6.0283 -2.8460 0.9737
-0.8712 5.9734 -2.8455 0.9737
-1.3991 5.8711 -2.8450 0.9737
-3.3578 5.0102 -2.8430 0.9737
-4.8045 4.1546 -2.9940 0.9723
-5.7296 2.7368 -2.9931 0.9723
-6.1233 1.6774 -2.9927 0.9723
-6.2480 1.1256 -2.9926 0.9723
-6.0846 0.0000 -2.9927 0.9732
-5.8688 -1.6076 -2.9929 0.9732
-5.7027 -2.1237 -2.9931 0.9732
-5.4914 -2.6230 -2.9933 0.9732
-5.2366 -3.1016 -2.9935 0.9732
-4.9402 -3.5557 -2.9938 0.9732
-2.9271 -5.3413 -2.9957 0.9732
-2.4405 -5.5815 -2.9962 0.9732
-1.9343 -5.7774 -2.9967 0.9732
0.2037 -6.0935 -2.9988 0.9732
0.7454 -6.0522 -2.9993 0.9732
1.2814 -5.9629 -2.9998 0.9732
1.8073 -5.8262 -3.0004 0.9732
3.7293 -4.8322 -3.0022 0.9732
4.1452 -4.4817 -3.0027 0.9732
4.5282 -4.0955 -3.0030 0.9732
4.8753 -3.6766 -3.0034 0.9731
5.1837 -3.2284 -3.0037 0.9731
5.4510 -2.7545 -3.0039 0.9731
5.6749 -2.2586 -3.0042 0.9731
5.9861 -1.2167 -3.0045 0.9731
6.0708 -0.6791 -3.0046 0.9731
6.1072 -0.1361 -3.0046 0.9731
6.0345 0.9489 -3.0046 0.9731
5.9259 1.4822 -3.0045 0.9731
5.5686 2.5091 -3.0041 0.9731
5.3227 2.9945 -3.0039 0.9731
4.7065 3.8901 -3.0033 0.9731
3.9413 4.6618 -3.0026 0.9732
3.3448 4.7580 -2.8607 0.9744
2.4379 5.2537 -2.8487 0.9745
1.9604 5.4489 -2.8482 0.9745
0.9629 5.7082 -2.8473 0.9745
0.4509 5.7703 -2.8468 0.9745
-0.0645 5.7864 -2.8463 0.9745
-1.0890 5.6814 -2.8453 0.9745
-1.5901 5.5609 -2.8448 0.9745
-2.0784 5.3964 -2.8443 0.9746
-2.5500 5.1892 -2.8438 0.9746
-3.5148 4.7704 -2.9144 0.9739
-4.4231 4.1833 -2.9944 0.9732
-4.7773 3.7726 -2.9940 0.9732
-5.0936 3.3321 -2.9937 0.9732
-5.3694 2.8653 -2.9935 0.9732
-5.6027 2.3758 -2.9932 0.9732
-5.7916 1.8675 -2.9930 0.9732
-5.9345 1.3446 -2.9929 0.9732
-6.0304 0.8111 -2.9928 0.9732
-6.0786 0.2710 -2.9927 0.9732
-6.0304 -0.8110 -2.9928 0.9732
-5.9344 -1.3445 -2.9929 0.9732
-5.7915 -1.8675 -2.9930 0.9732
-5.6026 -2.3757 -2.9932 0.9732
-5.3693 -2.8652 -2.9934 0.9732
-4.7771 -3.7725 -2.9940 0.9732
-4.0335 -4.5608 -2.9947 0.9732
-3.6121 -4.9023 -2.9951 0.9732
-3.1619 -5.2052 -2.9955 0.9732
-1.6752 -5.8584 -2.9970 0.9732
1.0144 -6.0136 -2.9996 0.9732
2.0652 -5.7404 -3.0006 0.9732
2.5684 -5.5347 -3.0011 0.9732
3.9411 -4.6616 -3.0025 0.9732
4.3410 -4.2929 -3.0028 0.9732
4.7064 -3.8899 -3.0032 0.9731
5.0345 -3.4560 -3.0035 0.9731
5.7701 -2.0036 -3.0043 0.9731
6.0344 -0.9488 -3.0045 0.9731
6.1072 0.1361 -3.0046 0.9731
5.1838 3.2285 -3.0038 0.9731
4.1453 4.4819 -3.0028 0.9732
3.1172 4.8830 -2.8494 0.9745
2.2013 5.3566 -2.8485 0.9745
1.7155 5.5304 -2.8480 0.9745
0.7076 5.7449 -2.8470 0.9745
0.1934 5.7841 -2.8465 0.9745
-0.3221 5.7773 -2.8460 0.9745
-1.3409 5.6267 -2.8450 0.9745
-2.3165 5.2980 -2.8441 0.9746
-2.7784 5.0700 -2.8436 0.9746
-3.2182 4.8019 -2.8432 0.9746
-3.8268 4.7365 -2.9950 0.9732
-4.2326 4.3765 -2.9946 0.9732
-4.6047 3.9819 -2.9942 0.9732
-5.4915 2.6231 -2.9933 0.9732
-5.9884 1.0789 -2.9928 0.9732
-5.7457 -1.0351 -2.9930 0.9741
-5.4716 -2.0376 -2.9933 0.9741
-5.2688 -2.5167 -2.9935 0.9741
-5.0243 -2.9759 -2.9937 0.9741
-4.7399 -3.4116 -2.9940 0.9741
-4.4179 -3.8203 -2.9943 0.9741
-3.2529 -4.8536 -2.9954 0.9741
-2.8084 -5.1246 -2.9959 0.9741
-2.3414 -5.3550 -2.9963 0.9741
-1.8558 -5.5431 -2.9968 0.9741
0.1955 -5.8461 -2.9988 0.9740
1.2293 -5.7207 -2.9998 0.9740
1.7339 -5.5895 -3.0003 0.9740
2.2249 -5.4139 -3.0008 0.9740
2.6983 -5.1952 -3.0012 0.9740
4.3441 -3.9290 -3.0029 0.9740
4.9729 -3.0972 -3.0035 0.9740
5.2293 -2.6425 -3.0037 0.9740
5.6157 -1.6736 -3.0041 0.9740
5.7426 -1.1672 -3.0042 0.9740
5.8238 -0.6515 -3.0043 0.9740
5.7890 0.9103 -3.0043 0.9740
5.5355 1.9221 -3.0041 0.9740
5.1063 2.8728 -3.0037 0.9740
3.7811 4.4723 -3.0024 0.9740
3.3286 4.7349 -2.9673 0.9743
2.7786 4.8127 -2.8490 0.9753
1.8807 5.2275 -2.8482 0.9753
0.9237 5.4764 -2.8472 0.9753
0.4326 5.5359 -2.8467 0.9753
-0.5556 5.5230 -2.8458 0.9754
-1.0448 5.4507 -2.8453 0.9754
-1.5256 5.3352 -2.8448 0.9754
-2.4466 4.9787 -2.8439 0.9754
-3.4657 4.7037 -2.9953 0.9741
-3.8701 4.3760 -2.9949 0.9741
-4.2437 4.0137 -2.9946 0.9741
-4.5836 3.6196 -2.9942 0.9741
-5.3756 2.2795 -2.9934 0.9741
-5.5568 1.7919 -2.9933 0.9741
-5.7860 0.7782 -2.9930 0.9741
-5.8322 -0.2601 -2.9930 0.9741
-5.6939 -1.2900 -2.9931 0.9741
-5.5568 -1.7918 -2.9932 0.9741
-4.5835 -3.6195 -2.9942 0.9741
-3.4656 -4.7035 -2.9952 0.9741
-3.0336 -4.9940 -2.9956 0.9741
-2.5775 -5.2450 -2.9961 0.9741
-2.1007 -5.4545 -2.9966 0.9741
0.9732 -5.7693 -2.9995 0.9740
1.9813 -5.5072 -3.0005 0.9740
2.4640 -5.3098 -3.0010 0.9740
2.9273 -5.0702 -3.0015 0.9740
3.7809 -4.4721 -3.0023 0.9740
4.1645 -4.1184 -3.0027 0.9740
4.5150 -3.7318 -3.0030 0.9740
5.1061 -2.8727 -3.0036 0.9740
5.5354 -1.9221 -3.0040 0.9740
5.7890 -0.9103 -3.0043 0.9740
5.8471 -0.3914 -3.0044 0.9740
5.8239 0.6515 -3.0043 0.9740
5.7426 1.1673 -3.0043 0.9740
5.2294 2.6425 -3.0038 0.9740
4.9730 3.0972 -3.0035 0.9740
4.6772 3.5272 -3.0033 0.9740
3.5778 4.6359 -3.0022 0.9740
3.0326 4.7505 -2.8894 0.9750
2.5613 4.9314 -2.8488 0.9753
2.1119 5.1390 -2.8484 0.9753
1.1669 5.4302 -2.8475 0.9753
0.1855 5.5492 -2.8465 0.9754
-1.2865 5.3984 -2.8451 0.9754
-2.2225 5.0831 -2.8442 0.9754
-3.6716 4.5444 -2.9951 0.9741
-4.4180 3.8204 -2.9944 0.9741
-4.7400 3.4117 -2.9941 0.9741
-5.0244 2.9760 -2.9938 0.9741
-5.2689 2.5167 -2.9936 0.9741
-5.6310 1.5425 -2.9932 0.9741
-5.7457 1.0352 -2.9931 0.9741
-5.6069 0.0000 -2.9932 0.9749
-5.5847 -0.4990 -2.9932 0.9749
-5.4080 -1.4814 -2.9934 0.9749
-5.0602 -2.4170 -2.9937 0.9749
-4.8253 -2.8581 -2.9939 0.9749
-4.2429 -3.6690 -2.9945 0.9749
-3.9000 -4.0325 -2.9948 0.9749
-3.1240 -4.6613 -2.9956 0.9749
-2.6971 -4.9215 -2.9960 0.9749
-1.7823 -5.3233 -2.9969 0.9749
0.1877 -5.6142 -2.9988 0.9749
1.1805 -5.4938 -2.9998 0.9748
1.6651 -5.3677 -3.0002 0.9748
2.1366 -5.1990 -3.0007 0.9748
3.4357 -4.4517 -3.0020 0.9748
3.8187 -4.1287 -3.0023 0.9748
4.7754 -2.9741 -3.0033 0.9748
5.0215 -2.5375 -3.0035 0.9748
5.5924 -0.6256 -3.0041 0.9748
5.6260 -0.1254 -3.0041 0.9748
5.6148 0.3759 -3.0041 0.9748
5.3155 1.8458 -3.0039 0.9748
4.9034 2.7586 -3.0035 0.9748
4.6380 3.1838 -3.0032 0.9748
4.3358 3.5837 -3.0029 0.9748
1.8061 5.0201 -2.8481 0.9761
-0.5336 5.3040 -2.8458 0.9761
-1.0034 5.2346 -2.8453 0.9761
-2.8899 4.7574 -2.9716 0.9751
-4.4021 3.4763 -2.9944 0.9749
-4.6935 3.0704 -2.9941 0.9749
-4.9478 2.6402 -2.9939 0.9749
-5.3368 1.7209 -2.9935 0.9749
-5.4686 1.2390 -2.9933 0.9749
-5.6013 0.2498 -2.9932 0.9749
-5.5569 -0.7473 -2.9932 0.9749
-5.1627 -2.1891 -2.9936 0.9749
-4.9477 -2.6402 -2.9938 0.9749
-4.4019 -3.4762 -2.9943 0.9749
-3.3283 -4.5172 -2.9954 0.9749
-2.9134 -4.7962 -2.9958 0.9749
-2.0175 -5.2382 -2.9966 0.9749
-1.5435 -5.3979 -2.9971 0.9749
-0.0626 -5.6165 -2.9985 0.9749
0.4376 -5.6007 -2.9990 0.9748
1.9027 -5.2886 -3.0005 0.9748
2.3662 -5.0991 -3.0009 0.9748
2.8111 -4.8689 -3.0013 0.9748
4.3357 -3.5835 -3.0028 0.9748
4.6379 -3.1838 -3.0031 0.9748
5.5590 -0.8741 -3.0041 0.9748
5.6260 0.1254 -3.0041 0.9748
5.5925 0.6256 -3.0041 0.9748
5.5145 1.1209 -3.0041 0.9748
5.3926 1.6072 -3.0039 0.9748
5.0216 2.5375 -3.0036 0.9748
3.4358 4.4519 -3.0021 0.9748
3.0201 4.7308 -2.9962 0.9749
2.4709 4.7587 -2.8626 0.9760
0.6519 5.2929 -2.8470 0.9761
-1.2355 5.1843 -2.8451 0.9761
-2.1344 4.8816 -2.8442 0.9761
-4.8254 2.8581 -2.9940 0.9749
-5.4080 1.4814 -2.9934 0.9749
-5.5847 0.4991 -2.9932 0.9749
-5.1985 -1.4240 -2.9936 0.9756
-5.0513 -1.8812 -2.9937 0.9756
-4.8641 -2.3234 -2.9939 0.9756
-4.3758 -3.1495 -2.9944 0.9756
-4.0785 -3.5268 -2.9946 0.9756
-3.7488 -3.8763 -2.9950 0.9756
-3.3893 -4.1950 -2.9953 0.9756
-2.5925 -4.7307 -2.9961 0.9756
-1.7131 -5.1168 -2.9969 0.9756
-1.2511 -5.2498 -2.9974 0.9756
-0.7790 -5.3412 -2.9978 0.9756
-0.3006 -5.3901 -2.9983 0.9756
0.1804 -5.3963 -2.9988 0.9756
0.6601 -5.3597 -2.9992 0.9756
1.1347 -5.2805 -2.9997 0.9756
2.0536 -4.9971 -3.0006 0.9756
2.4906 -4.7952 -3.0010 0.9756
2.9079 -4.5551 -3.0014 0.9756
4.0095 -3.6263 -3.0025 0.9756
4.3167 -3.2554 -3.0028 0.9756
4.5898 -2.8585 -3.0031 0.9756
4.8264 -2.4388 -3.0033 0.9756
5.0246 -1.9997 -3.0035 0.9756
5.1829 -1.5447 -3.0037 0.9756
5.3000 -1.0773 -3.0038 0.9756
5.4073 -0.1205 -3.0039 0.9756
4.9305 2.2215 -3.0035 0.9756
4.4578 3.0601 -3.0030 0.9756
4.1673 3.4444 -3.0028 0.9756
2.7020 4.6800 -3.0013 0.9756
1.7359 4.8252 -2.8480 0.9768
1.2994 4.9597 -2.8476 0.9768
0.8527 5.0549 -2.8472 0.9768
0.3993 5.1100 -2.8467 0.9768
-0.5129 5.0982 -2.8458 0.9768
-1.4083 4.9250 -2.8449 0.9768
-1.8432 4.7857 -2.8483 0.9768
-3.1994 4.3422 -2.9956 0.9756
-3.5727 4.0398 -2.9952 0.9756
-4.2315 3.3416 -2.9946 0.9756
-4.9627 2.1044 -2.9938 0.9756
-5.2567 -1.1910 -2.9935 0.9756
-5.1300 -1.6542 -2.9936 0.9756
-3.9176 -3.7052 -2.9948 0.9756
-3.1993 -4.3421 -2.9955 0.9756
-2.8005 -4.6102 -2.9959 0.9756
-2.3793 -4.8418 -2.9963 0.9756
-1.9392 -5.0351 -2.9967 0.9756
-1.0161 -5.3008 -2.9976 0.9756
-0.0601 -5.3986 -2.9985 0.9756
0.4207 -5.3834 -2.9990 0.9756
0.8983 -5.3254 -2.9995 0.9756
1.3690 -5.2251 -2.9999 0.9756
3.8437 -3.8011 -3.0024 0.9756
4.7127 -2.6513 -3.0032 0.9756
5.4073 0.1205 -3.0039 0.9756
5.3751 0.6013 -3.0039 0.9756
5.3001 1.0773 -3.0038 0.9756
5.1830 1.5447 -3.0037 0.9756
4.5899 2.8586 -3.0032 0.9756
4.3168 3.2555 -3.0029 0.9756
3.3023 4.2789 -3.0019 0.9756
1.0771 5.0123 -2.8474 0.9768
0.6266 5.0875 -2.8469 0.9768
0.1713 5.1223 -2.8465 0.9768
-1.1876 4.9832 -2.8452 0.9768
-1.6261 4.8570 -2.8447 0.9768
-3.3894 4.1952 -2.9954 0.9756
-4.3759 3.1496 -2.9944 0.9756
-5.0514 1.8812 -2.9938 0.9756
-5.1985 1.4240 -2.9936 0.9756
-5.3683 0.4797 -2.9934 0.9756
-5.1645 -0.4615 -2.9936 0.9763
-5.0011 -1.3700 -2.9938 0.9763
-4.8596 -1.8097 -2.9939 0.9763
-4.6795 -2.2352 -2.9941 0.9763
-4.4623 -2.6430 -2.9943 0.9763
-4.2096 -3.0299 -2.9945 0.9763
-3.2606 -4.0357 -2.9954 0.9763
-2.4940 -4.5510 -2.9962 0.9763
-2.0793 -4.7555 -2.9966 0.9763
-1.2035 -5.0503 -2.9974 0.9763
-0.7494 -5.1381 -2.9979 0.9763
0.1736 -5.1911 -2.9988 0.9763
1.9755 -4.8070 -3.0005 0.9763
2.3958 -4.6127 -3.0009 0.9763
2.7972 -4.3818 -3.0013 0.9763
3.5306 -3.8173 -3.0021 0.9763
3.8568 -3.4882 -3.0024 0.9763
4.1524 -3.1314 -3.0027 0.9763
4.4150 -2.7497 -3.0029 0.9763
4.6426 -2.3460 -3.0032 0.9763
4.8332 -1.9236 -3.0034 0.9763
4.9855 -1.4858 -3.0035 0.9763
5.0982 -1.0362 -3.0036 0.9763
5.2013 -0.1159 -3.0037 0.9763
5.1910 0.3475 -3.0037 0.9763
5.1394 0.8082 -3.0037 0.9763
4.7427 2.1370 -3.0033 0.9763
4.2880 2.9436 -3.0029 0.9763
4.0087 3.3133 -3.0026 0.9763
3.3570 3.9707 -3.0020 0.9763
2.9899 4.2532 -3.0016 0.9763
2.5992 4.5019 -3.0012 0.9763
2.1879 4.7147 -3.0008 0.9763
1.2510 4.7750 -2.8499 0.9775
0.8202 4.8627 -2.8471 0.9775
0.3841 4.9156 -2.8467 0.9775
-0.4934 4.9044 -2.8458 0.9775
-1.3643 4.7714 -2.8652 0.9773
-2.2890 4.6580 -2.9965 0.9763
-3.0778 4.1773 -2.9957 0.9763
-3.7689 3.5646 -2.9950 0.9763
-4.0708 3.2147 -2.9947 0.9763
-4.3404 2.8394 -2.9945 0.9763
-4.9353 1.5914 -2.9939 0.9763
