ply
format ascii 1.0
element vertex 1586
property float32 x
property float32 y
property float32 z
property float32 I
end_header
7.8148 -5.3645 -0.3941 0.9628
8.8341 -4.9700 -0.4215 0.9602
7.1590 -6.4749 -0.5622 0.9621
7.5468 -5.6913 -0.5505 0.9628
8.2686 -5.1497 -0.5674 0.9617
7.1261 -7.0471 -0.5837 0.9606
7.3151 -6.0461 -0.5527 0.9627
8.9140 -5.0149 -0.5957 0.9598
7.3537 -6.0779 -0.7149 0.9625
7.8988 -5.4222 -0.7180 0.9623
9.0005 -5.0636 -0.7739 0.9594
7.2715 -6.5767 -0.8989 0.9614
7.6475 -5.7672 -0.8781 0.9623
8.4202 -5.2441 -0.9094 0.9609
7.2921 -7.2113 -0.9402 0.9596
7.3587 -6.6555 -1.0762 0.9609
8.5284 -5.3115 -1.0898 0.9604
7.4871 -6.1883 -1.0536 0.9617
7.4940 -6.7779 -1.2663 0.9601
8.7028 -5.4201 -1.2848 0.9595
8.1649 -5.6049 -1.2411 0.9609
7.6811 -6.9471 -1.4731 0.9590
9.0101 -5.6116 -1.5098 0.9580
8.3223 -5.7129 -1.4358 0.9600
8.1522 -6.1479 -1.6259 0.9595
-4.9122 7.3295 -1.5558 0.9648
13.3803 6.0289 -2.8400 0.9420
12.1012 8.3070 -2.8405 0.9420
11.3150 9.3521 -2.8408 0.9419
9.4799 11.2129 -2.8415 0.9419
7.3438 12.7198 -2.8423 0.9419
6.1835 13.3252 -2.8428 0.9419
4.9739 13.8252 -2.8433 0.9419
3.7243 14.2156 -2.8438 0.9419
2.4447 14.4934 -2.8443 0.9419
-1.4721 14.6331 -2.8460 0.9418
-4.0449 14.1459 -2.8472 0.9418
-5.2889 13.7325 -2.8478 0.9418
-8.7340 11.8539 -2.8494 0.9418
-9.7560 11.0313 -2.8498 0.9418
10.8877 9.8474 -2.8409 0.9419
7.9025 12.3791 -2.8421 0.9419
6.7704 13.0354 -2.8425 0.9419
5.5843 13.5887 -2.8430 0.9419
4.3535 14.0342 -2.8435 0.9419
3.0877 14.3687 -2.8441 0.9419
1.7968 14.5894 -2.8446 0.9419
-0.8187 14.6827 -2.8458 0.9418
-2.1227 14.5545 -2.8463 0.9418
-3.4104 14.3106 -2.8469 0.9418
-4.6715 13.9531 -2.8475 0.9418
-5.8960 13.4846 -2.8480 0.9418
-9.2542 11.4540 -2.8496 0.9418
-14.2528 0.0000 -3.0048 0.9434
-14.0272 -2.5271 -3.0048 0.9434
-12.8598 -6.1425 -3.0045 0.9434
-11.5652 -8.3241 -3.0040 0.9434
-10.7774 -9.3195 -3.0038 0.9434
-9.9040 -10.2406 -3.0034 0.9434
-7.9293 -11.8313 -3.0026 0.9434
-5.7042 -13.0458 -3.0017 0.9435
-0.7921 -14.2065 -2.9997 0.9435
0.4754 -14.2179 -2.9991 0.9435
2.9876 -13.9033 -2.9980 0.9435
6.5511 -12.6131 -2.9964 0.9436
7.6465 -11.9779 -2.9959 0.9436
8.6808 -11.2480 -2.9954 0.9436
9.6460 -10.4291 -2.9949 0.9436
10.5344 -9.5278 -2.9945 0.9436
12.0538 -7.5071 -2.9937 0.9436
12.6727 -6.4037 -2.9934 0.9436
13.1911 -5.2499 -2.9931 0.9436
13.9109 -2.8275 -2.9927 0.9436
14.1067 -1.5780 -2.9925 0.9436
14.1906 -0.3162 -2.9924 0.9436
14.1622 0.9481 -2.9924 0.9436
13.7699 3.4441 -2.9924 0.9436
12.2843 5.5351 -2.8405 0.9464
11.1099 7.6265 -2.8409 0.9464
9.5836 9.4774 -2.8415 0.9464
8.7030 10.2940 -2.8418 0.9464
7.7533 11.0293 -2.8422 0.9464
1.0513 13.4540 -2.8450 0.9463
-2.5419 13.2611 -2.8466 0.9463
-3.7128 12.9846 -2.8471 0.9463
-4.8547 12.6049 -2.8476 0.9463
-5.9583 12.1249 -2.8481 0.9463
-9.8215 9.2892 -2.8500 0.9462
-10.6108 8.3793 -2.8504 0.9462
-11.3159 7.4025 -2.8507 0.9462
-11.9312 6.3667 -2.8510 0.9462
-12.4517 5.2800 -2.8513 0.9462
-13.8990 3.1491 -3.0045 0.9434
-14.2385 0.6350 -3.0047 0.9434
-14.2388 -0.6349 -3.0048 0.9434
-13.9006 -3.1494 -3.0048 0.9434
-12.5730 -6.7091 -3.0044 0.9434
-11.9250 -7.8009 -3.0042 0.9434
-11.1824 -8.8306 -3.0039 0.9434
-9.4374 -10.6710 -3.0032 0.9434
-8.4491 -11.4671 -3.0029 0.9434
-6.2802 -12.7798 -3.0020 0.9435
-1.4244 -14.1583 -2.9999 0.9435
-0.1585 -14.2264 -2.9994 0.9435
2.3655 -14.0238 -2.9983 0.9435
4.8128 -13.3773 -2.9972 0.9435
8.1718 -11.6245 -2.9956 0.9436
9.1725 -10.8492 -2.9951 0.9436
10.1003 -9.9883 -2.9947 0.9436
12.9447 -5.8326 -2.9932 0.9436
13.4113 -4.6569 -2.9930 0.9436
13.7716 -3.4445 -2.9928 0.9436
14.0227 -2.2049 -2.9926 0.9436
14.1905 0.3162 -2.9924 0.9436
14.1059 1.5780 -2.9923 0.9436
13.9095 2.8273 -2.9924 0.9436
13.6030 4.0542 -2.9924 0.9436
12.5184 4.9822 -2.8405 0.9464
11.4381 7.1238 -2.8408 0.9464
10.7596 8.1142 -2.8411 0.9464
9.9957 9.0406 -2.8413 0.9464
8.2364 10.6722 -2.8420 0.9464
5.1265 12.4746 -2.8433 0.9464
3.9965 12.8835 -2.8438 0.9464
2.8344 13.1903 -2.8442 0.9463
0.4510 13.4887 -2.8453 0.9463
-0.7515 13.4778 -2.8458 0.9463
-1.9485 13.3599 -2.8463 0.9463
-3.1304 13.1359 -2.8468 0.9463
-4.2879 12.8075 -2.8474 0.9463
-4.9085 7.3240 -1.8587 0.9646
-9.3973 9.7168 -2.8498 0.9462
-10.2263 8.8430 -2.8502 0.9462
-11.6351 6.8915 -2.8509 0.9462
-12.8453 4.7837 -2.8897 0.9455
-13.7445 3.7651 -3.0044 0.9434
-14.0260 2.5269 -3.0046 0.9434
-13.1107 -1.1715 -3.0043 0.9474
-12.9543 -2.3338 -3.0043 0.9474
-9.1468 -9.4577 -3.0031 0.9474
-8.2678 -10.2331 -3.0027 0.9475
-7.3233 -10.9270 -3.0023 0.9475
-5.2683 -12.0489 -3.0015 0.9475
-4.1744 -12.4682 -3.0010 0.9475
-1.8970 -13.0066 -3.0001 0.9475
-0.7317 -13.1216 -2.9996 0.9475
0.4391 -13.1324 -2.9991 0.9475
1.6059 -13.0390 -2.9986 0.9475
2.7596 -12.8421 -2.9980 0.9475
8.0188 -10.3902 -2.9956 0.9476
8.9105 -9.6338 -2.9952 0.9476
9.7313 -8.8014 -2.9948 0.9476
10.4747 -7.8993 -2.9944 0.9476
13.1094 -0.2921 -2.9929 0.9476
13.0832 0.8758 -2.9928 0.9476
12.9533 2.0368 -2.9928 0.9476
11.3483 5.1133 -2.8410 0.9502
10.8488 6.1035 -2.8411 0.9502
9.5962 7.9315 -2.8416 0.9502
7.1622 10.1884 -2.8425 0.9502
6.2278 10.7868 -2.8429 0.9502
-0.1389 12.4666 -2.8456 0.9501
-1.2481 12.4069 -2.8461 0.9501
-2.3479 12.2486 -2.8466 0.9501
-3.4293 11.9931 -2.8470 0.9501
-4.4839 11.6422 -2.8475 0.9501
-9.0708 8.5792 -2.8497 0.9501
-11.0189 5.8799 -2.8507 0.9500
-11.4996 4.8763 -2.8509 0.9500
-12.5255 4.0390 -3.0038 0.9474
-13.0447 1.7544 -3.0042 0.9474
-13.1495 0.5864 -3.0043 0.9474
-13.1498 -0.5863 -3.0043 0.9474
-13.0455 -1.7544 -3.0043 0.9474
-12.8374 -2.9085 -3.0043 0.9474
-12.5273 -4.0395 -3.0042 0.9474
-12.1175 -5.1382 -3.0041 0.9474
-11.0131 -7.2044 -3.0038 0.9474
-9.5596 -9.0413 -3.0032 0.9474
-7.8032 -10.5906 -3.0025 0.9475
-6.8288 -11.2416 -3.0021 0.9475
-1.3156 -13.0771 -2.9998 0.9475
-0.1464 -13.1400 -2.9993 0.9475
7.5485 -10.7379 -2.9958 0.9476
8.4731 -10.0219 -2.9954 0.9476
11.4323 -6.4316 -2.9939 0.9476
11.9582 -5.3880 -2.9936 0.9476
12.5665 3.7453 -2.9929 0.9476
10.5665 6.5809 -2.8412 0.9502
9.9396 7.4959 -2.8414 0.9502
9.2338 8.3515 -2.8417 0.9502
8.4548 9.1412 -2.8420 0.9502
7.6085 9.8586 -2.8423 0.9502
6.7017 10.4980 -2.8427 0.9502
4.7355 11.5231 -2.8435 0.9502
2.6182 12.1840 -2.8444 0.9502
1.5236 12.3707 -2.8449 0.9501
0.4166 12.4593 -2.8453 0.9501
-1.7997 12.3400 -2.8463 0.9501
-2.8914 12.1329 -2.8468 0.9501
-3.9605 11.8294 -2.8473 0.9501
-4.9985 11.4319 -2.8478 0.9501
-7.8448 9.7096 -2.8491 0.9501
-8.6791 8.9741 -2.8495 0.9501
-9.4446 8.1671 -2.8499 0.9501
-10.7455 6.3646 -2.8505 0.9501
-12.3327 4.5928 -3.0037 0.9474
-12.9533 2.3337 -3.0041 0.9474
-13.1101 1.1715 -3.0042 0.9474
-12.1725 -1.0877 -3.0039 0.9509
-11.0266 -5.2669 -3.0037 0.9509
-9.9168 -7.1376 -3.0033 0.9509
-6.7996 -10.1456 -3.0021 0.9509
-4.8917 -11.1876 -3.0013 0.9509
-3.8760 -11.5769 -3.0009 0.9510
-2.8298 -11.8742 -3.0004 0.9510
-1.7614 -12.0771 -3.0000 0.9510
-0.6794 -12.1841 -2.9995 0.9510
0.4077 -12.1943 -2.9990 0.9510
1.4912 -12.1077 -2.9986 0.9510
2.5625 -11.9250 -2.9981 0.9510
3.6132 -11.6477 -2.9976 0.9510
4.6348 -11.2782 -2.9971 0.9510
5.6194 -10.8193 -2.9967 0.9510
7.4466 -9.6487 -2.9958 0.9510
8.2747 -8.9465 -2.9954 0.9510
9.0370 -8.1734 -2.9951 0.9510
9.7275 -7.3358 -2.9947 0.9511
10.3407 -6.4402 -2.9944 0.9511
10.8719 -5.4938 -2.9941 0.9511
11.9346 -2.4258 -2.9935 0.9511
12.1026 -1.3538 -2.9934 0.9511
12.1747 -0.2713 -2.9933 0.9511
12.0297 1.8916 -2.9932 0.9511
11.8138 2.9549 -2.9933 0.9511
11.5042 3.9947 -2.9934 0.9511
8.2216 8.1306 -2.8422 0.9535
6.6512 9.4615 -2.8428 0.9535
5.7834 10.0172 -2.8431 0.9535
4.8695 10.4936 -2.8435 0.9535
2.9327 11.1939 -2.8443 0.9535
1.9250 11.4122 -2.8447 0.9534
0.9018 11.5400 -2.8452 0.9534
-0.1290 11.5763 -2.8456 0.9534
-3.1843 11.1362 -2.8470 0.9534
-5.2079 7.0682 -2.1580 0.9645
-9.0988 7.1853 -2.8498 0.9534
-9.7033 6.3477 -2.8501 0.9534
-11.2270 4.7607 -2.9974 0.9510
-11.6294 3.7500 -3.0034 0.9509
-12.2089 -0.5444 -3.0039 0.9509
-12.1120 -1.6288 -3.0039 0.9509
-11.2505 -4.7706 -3.0037 0.9509
-9.5886 -7.5720 -3.0031 0.9509
-5.3856 -10.9593 -3.0015 0.9509
-1.2216 -12.1427 -2.9997 0.9510
0.9504 -12.1630 -2.9988 0.9510
2.0289 -12.0283 -2.9983 0.9510
3.0910 -11.7981 -2.9978 0.9510
4.1281 -11.4743 -2.9974 0.9510
5.1322 -11.0597 -2.9969 0.9510
7.0098 -9.9716 -2.9960 0.9510
8.6645 -8.5684 -2.9952 0.9510
9.3916 -7.7623 -2.9949 0.9511
10.0441 -6.8948 -2.9946 0.9511
11.1054 -5.0038 -2.9940 0.9511
11.8150 -2.9551 -2.9936 0.9511
12.1507 -0.8133 -2.9933 0.9511
12.1746 0.2713 -2.9933 0.9511
12.1020 1.3538 -2.9932 0.9511
8.5753 7.7559 -2.8420 0.9535
7.8517 8.4892 -2.8423 0.9535
7.0657 9.1553 -2.8426 0.9535
6.2235 9.7490 -2.8430 0.9535
4.3975 10.7009 -2.8437 0.9535
2.4313 11.3143 -2.8445 0.9535
-2.6848 11.2661 -2.8468 0.9534
-4.6413 10.6149 -2.8476 0.9534
-5.5685 10.1612 -2.8481 0.9534
-4.8468 7.2320 -2.1399 0.9648
-9.9769 5.9094 -2.8502 0.9534
-10.4642 4.9984 -2.8505 0.9534
-11.7853 3.2284 -3.0035 0.9509
-12.1721 1.0877 -3.0038 0.9509
-11.3535 -1.0145 -3.0036 0.9539
-10.9936 -3.0114 -3.0035 0.9539
-10.2847 -4.9126 -3.0033 0.9539
-9.8061 -5.8081 -3.0032 0.9539
-9.2496 -6.6574 -3.0030 0.9540
-8.6197 -7.4537 -3.0027 0.9540
-7.9214 -8.1906 -3.0025 0.9540
-7.1602 -8.8622 -3.0022 0.9540
-6.3423 -9.4633 -3.0018 0.9540
-4.5628 -10.4354 -3.0011 0.9540
-3.6154 -10.7987 -3.0007 0.9540
-0.6337 -11.3654 -2.9994 0.9540
2.3904 -11.1241 -2.9981 0.9540
3.3705 -10.8655 -2.9977 0.9540
4.3236 -10.5209 -2.9972 0.9540
5.2422 -10.0929 -2.9968 0.9540
6.1188 -9.5849 -2.9964 0.9541
6.9468 -9.0011 -2.9960 0.9541
7.7194 -8.3461 -2.9956 0.9541
9.0749 -6.8437 -2.9950 0.9541
9.6470 -6.0081 -2.9947 0.9541
10.8891 -3.2453 -2.9940 0.9541
11.1341 -2.2631 -2.9938 0.9541
11.2230 1.7648 -2.9936 0.9541
11.0215 2.7567 -2.9936 0.9541
10.7327 3.7269 -2.9937 0.9541
9.3994 5.2881 -2.8418 0.9564
8.8920 6.1041 -2.8420 0.9564
7.6701 7.5852 -2.8424 0.9564
6.9652 8.2385 -2.8427 0.9564
6.2049 8.8267 -2.8430 0.9564
5.3953 9.3450 -2.8433 0.9563
4.5427 9.7894 -2.8437 0.9563
3.6539 10.1561 -2.8440 0.9563
2.7358 10.4424 -2.8444 0.9563
1.7957 10.6460 -2.8448 0.9563
0.8412 10.7651 -2.8452 0.9563
-1.0811 10.7468 -2.8461 0.9563
-2.0337 10.6096 -2.8465 0.9563
-2.9703 10.3879 -2.8469 0.9563
-3.8837 10.0838 -2.8473 0.9563
-4.7665 9.6995 -2.8477 0.9563
-8.4869 6.7021 -2.8495 0.9563
-9.5426 5.0921 -2.8501 0.9562
-11.1169 -2.5187 -3.0035 0.9539
-10.8484 -3.4981 -3.0035 0.9539
-10.4936 -4.4496 -3.0034 0.9539
-10.0554 -5.3657 -3.0032 0.9539
-8.2788 -7.8299 -3.0026 0.9540
-7.5483 -8.5349 -3.0023 0.9540
-6.7580 -9.1720 -3.0020 0.9540
-5.9141 -9.7360 -3.0017 0.9540
-3.1306 -10.9483 -3.0005 0.9540
-2.1434 -11.1819 -3.0001 0.9540
-1.1395 -11.3267 -2.9997 0.9540
-0.1268 -11.3815 -2.9992 0.9540
0.8866 -11.3459 -2.9988 0.9540
3.8509 -10.7038 -2.9975 0.9540
5.6862 -9.8487 -2.9966 0.9540
6.5393 -9.3022 -2.9962 0.9541
7.3404 -8.6822 -2.9958 0.9541
8.7614 -7.2415 -2.9951 0.9541
9.3702 -6.4322 -2.9948 0.9541
10.3605 -4.6681 -2.9943 0.9541
10.7341 -3.7272 -2.9941 0.9541
11.3358 -0.7588 -2.9937 0.9541
11.3581 0.2531 -2.9936 0.9541
11.2904 1.2631 -2.9936 0.9541
11.1333 2.2630 -2.9936 0.9541
10.5562 4.2013 -2.9938 0.9541
9.6254 4.8640 -2.8417 0.9564
7.3249 7.9197 -2.8426 0.9564
5.8059 9.0948 -2.8432 0.9563
4.9740 9.5767 -2.8435 0.9563
2.2681 10.5547 -2.8446 0.9563
-0.6013 10.7836 -2.8459 0.9563
-1.5589 10.6888 -2.8463 0.9563
-2.5045 10.5092 -2.8467 0.9563
-3.4304 10.2461 -2.8471 0.9563
-7.5166 7.7721 -2.8490 0.9563
-8.1795 7.0731 -2.8494 0.9563
-9.9925 4.7731 -2.9180 0.9552
-11.2173 2.0209 -3.0034 0.9539
-11.3531 1.0146 -3.0035 0.9539
-10.6741 0.0000 -3.0032 0.9566
-10.6318 -0.9500 -3.0033 0.9566
-10.0027 -3.7250 -3.0031 0.9566
-8.6618 -6.2343 -3.0027 0.9566
-8.0720 -6.9801 -3.0025 0.9566
-6.7053 -8.2992 -3.0019 0.9566
-5.9394 -8.8621 -3.0016 0.9566
-5.1265 -9.3546 -3.0013 0.9566
-4.2730 -9.7726 -3.0009 0.9566
-2.4720 -10.3728 -3.0002 0.9567
-1.5387 -10.5503 -2.9998 0.9567
2.2387 -10.4181 -2.9981 0.9567
3.1567 -10.1762 -2.9977 0.9567
4.9096 -9.4527 -2.9969 0.9567
5.7308 -8.9771 -2.9965 0.9567
7.2299 -7.8169 -2.9958 0.9567
7.8961 -7.1416 -2.9955 0.9567
8.4996 -6.4098 -2.9952 0.9567
9.4998 -4.8004 -2.9947 0.9567
10.5754 -1.1830 -2.9940 0.9567
10.6172 0.7108 -2.9939 0.9567
10.3231 2.5821 -2.9939 0.9567
8.3285 5.7172 -2.8422 0.9589
7.7871 6.4362 -2.8424 0.9589
7.1839 7.1044 -2.8427 0.9589
4.2546 9.1686 -2.8438 0.9589
3.4221 9.5120 -2.8442 0.9589
1.6818 9.9706 -2.8449 0.9589
-0.1127 10.1136 -2.8457 0.9588
-3.6371 9.4436 -2.8473 0.9588
-5.2553 8.6514 -2.8480 0.9588
-5.1427 6.9798 -2.4393 0.9646
-8.4756 5.5445 -2.8496 0.9588
-8.9686 4.7859 -2.8602 0.9586
-10.1577 3.2754 -3.0028 0.9566
-10.5785 1.4227 -3.0031 0.9566
-10.5790 -1.4227 -3.0033 0.9566
-10.4103 -2.3586 -3.0032 0.9566
-10.1588 -3.2757 -3.0032 0.9566
-9.4163 -5.0247 -3.0029 0.9566
-8.9312 -5.8425 -3.0028 0.9566
-7.0687 -7.9926 -3.0021 0.9566
-6.3286 -8.5892 -3.0018 0.9566
-5.5384 -9.1175 -3.0015 0.9566
-4.7044 -9.5731 -3.0011 0.9566
-2.9318 -10.2530 -3.0004 0.9567
-1.0671 -10.6076 -2.9996 0.9567
1.7725 -10.5083 -2.9984 0.9567
2.7004 -10.3074 -2.9979 0.9567
5.3255 -9.2240 -2.9967 0.9567
6.1246 -8.7123 -2.9964 0.9567
7.5706 -7.4866 -2.9957 0.9567
8.2060 -6.7824 -2.9954 0.9567
9.7038 -4.3723 -2.9946 0.9567
10.0538 -3.4910 -2.9944 0.9567
10.6384 0.2371 -2.9939 0.9567
10.1979 3.0393 -2.9940 0.9567
9.8872 3.9351 -2.9941 0.9567
8.5746 5.3404 -2.8422 0.9589
8.0658 6.0828 -2.8423 0.9589
6.8606 7.4177 -2.8428 0.9589
5.4378 8.5182 -2.8434 0.9589
4.6586 8.9694 -2.8437 0.9589
2.9952 9.6556 -2.8444 0.9589
0.3379 10.1079 -2.8455 0.9588
-2.3455 9.8421 -2.8467 0.9588
-3.2126 9.5956 -2.8471 0.9588
-4.0545 9.2729 -2.8475 0.9588
-4.7842 7.1385 -2.4178 0.9649
-6.3626 7.8752 -2.8485 0.9588
-7.0391 7.2784 -2.8489 0.9588
-7.6598 6.6238 -2.8492 0.9588
-8.2198 5.9163 -2.8494 0.9588
-10.0013 3.7246 -3.0027 0.9566
-10.5044 1.8925 -3.0031 0.9566
-10.6315 0.9501 -3.0032 0.9566
-9.9908 -0.8927 -3.0030 0.9590
-9.6741 -2.6500 -3.0029 0.9590
-9.3996 -3.5004 -3.0029 0.9590
-9.0504 -4.3230 -3.0027 0.9590
-8.6293 -5.1111 -3.0026 0.9590
-8.1397 -5.8585 -3.0024 0.9590
-7.5854 -6.5593 -3.0022 0.9590
-6.9709 -7.2079 -3.0020 0.9590
-6.3012 -7.7990 -3.0017 0.9590
-4.8176 -8.7909 -3.0011 0.9590
0.3347 -10.0116 -2.9990 0.9590
1.2243 -9.9407 -2.9986 0.9590
2.1040 -9.7910 -2.9982 0.9590
2.9667 -9.5637 -2.9978 0.9591
3.8057 -9.2605 -2.9974 0.9591
4.6142 -8.8839 -2.9970 0.9591
5.3860 -8.4369 -2.9967 0.9591
6.7950 -7.3467 -2.9960 0.9591
8.4922 -5.2889 -2.9952 0.9591
8.9285 -4.5117 -2.9949 0.9591
9.8016 -1.9922 -2.9944 0.9591
9.9989 -0.2228 -2.9942 0.9591
9.9790 0.6680 -2.9942 0.9591
9.8799 1.5536 -2.9942 0.9591
9.1190 4.1089 -2.9944 0.9591
8.4295 4.7424 -2.8956 0.9604
7.8277 5.3735 -2.8425 0.9611
6.7519 6.6771 -2.8429 0.9611
6.1313 7.2522 -2.8431 0.9611
3.9987 8.6170 -2.8440 0.9611
3.2162 8.9397 -2.8443 0.9611
2.4081 9.1916 -2.8446 0.9611
-0.1059 9.5048 -2.8457 0.9611
-0.9516 9.4589 -2.8461 0.9611
-2.6143 9.1427 -2.8468 0.9611
-4.1949 8.5365 -2.8476 0.9611
-4.9387 8.1302 -2.8479 0.9611
-5.1283 6.9603 -2.5883 0.9645
-6.3034 7.1273 -2.8485 0.9611
-6.9135 6.5387 -2.8488 0.9610
-7.9647 5.2103 -2.8494 0.9610
-9.2329 3.9152 -3.0024 0.9590
-9.5453 3.0780 -3.0026 0.9590
-9.7818 2.2163 -3.0027 0.9590
-9.9411 -1.3369 -3.0030 0.9590
-9.7826 -2.2164 -3.0030 0.9590
-9.5463 -3.0783 -3.0029 0.9590
-9.2342 -3.9156 -3.0028 0.9590
-8.8486 -4.7218 -3.0027 0.9590
-8.3928 -5.4903 -3.0025 0.9590
-6.6426 -7.5109 -3.0019 0.9590
-1.0029 -9.9688 -2.9995 0.9590
0.7803 -9.9860 -2.9988 0.9590
3.3896 -9.4214 -2.9976 0.9591
4.2141 -9.0812 -2.9972 0.9591
5.7561 -8.1882 -2.9965 0.9591
7.1152 -7.0363 -2.9958 0.9591
7.7125 -6.3745 -2.9955 0.9591
8.2485 -5.6622 -2.9953 0.9591
9.8804 -1.5536 -2.9944 0.9591
9.5849 2.8566 -2.9942 0.9591
9.2928 3.6985 -2.9943 0.9591
8.0591 5.0193 -2.8424 0.9611
7.0424 6.3695 -2.8428 0.9611
6.4480 6.9716 -2.8430 0.9611
5.8024 7.5185 -2.8433 0.9611
5.1107 8.0059 -2.8435 0.9611
3.6111 8.7871 -2.8441 0.9611
2.8150 9.0746 -2.8445 0.9611
1.9964 9.2903 -2.8448 0.9611
0.3176 9.4995 -2.8455 0.9611
-2.2043 9.2495 -2.8466 0.9611
-5.9793 7.4007 -2.8484 0.9611
-6.6150 6.8399 -2.8487 0.9610
-9.0490 4.3224 -3.0023 0.9590
-9.3984 3.5001 -3.0025 0.9590
-9.6732 2.6498 -3.0026 0.9590
-9.8711 1.7784 -3.0028 0.9590
-9.9905 0.8928 -3.0029 0.9590
-9.4548 0.0001 -3.0027 0.9611
-9.3050 -1.6763 -3.0027 0.9611
-9.1188 -2.4978 -3.0027 0.9611
-8.5309 -4.0748 -3.0025 0.9611
-8.1340 -4.8177 -3.0024 0.9611
-5.2613 -7.8503 -3.0013 0.9611
-3.7852 -8.6570 -3.0007 0.9611
-2.1899 -9.1889 -3.0000 0.9611
-1.3631 -9.3463 -2.9997 0.9611
-0.5258 -9.4294 -2.9993 0.9611
0.3155 -9.4376 -2.9989 0.9611
1.1541 -9.3709 -2.9986 0.9611
2.7967 -9.0156 -2.9978 0.9612
3.5876 -8.7299 -2.9975 0.9612
4.3498 -8.3749 -2.9971 0.9612
5.7646 -7.4693 -2.9965 0.9612
6.4059 -6.9259 -2.9961 0.9612
6.9962 -6.3276 -2.9959 0.9612
8.4173 -4.2534 -2.9951 0.9612
8.7619 -3.4871 -2.9949 0.9612
9.2405 -1.8782 -2.9946 0.9612
9.3707 -1.0483 -2.9945 0.9612
9.4077 0.6298 -2.9944 0.9612
9.3143 1.4646 -2.9944 0.9612
8.9074 3.0930 -2.9945 0.9612
7.3796 5.0658 -2.8427 0.9631
6.8998 5.7029 -2.8429 0.9631
6.3653 6.2948 -2.8431 0.9631
4.4773 7.7549 -2.8438 0.9631
3.7696 8.1234 -2.8441 0.9631
-0.0998 8.9601 -2.8457 0.9631
-2.4644 8.6185 -2.8468 0.9631
-3.2221 8.3660 -2.8471 0.9631
-3.9544 8.0469 -2.8475 0.9631
-4.6554 7.6639 -2.8478 0.9631
-6.5168 6.1636 -2.8487 0.9631
-7.5077 4.9113 -2.8492 0.9630
-8.9975 2.9013 -3.0023 0.9611
-9.2204 2.0891 -3.0025 0.9611
-9.4453 0.4212 -3.0027 0.9611
-9.3705 -1.2602 -3.0027 0.9611
-8.9984 -2.9016 -3.0026 0.9611
-8.7042 -3.6908 -3.0026 0.9611
-8.3408 -4.4507 -3.0024 0.9611
-7.9111 -5.1752 -3.0023 0.9611
-7.4187 -5.8584 -3.0021 0.9611
-6.8673 -6.4950 -3.0019 0.9611
-4.9061 -8.0764 -3.0011 0.9611
-4.1673 -8.4802 -3.0008 0.9611
-2.5972 -9.0828 -3.0002 0.9611
-1.7782 -9.2768 -2.9998 0.9611
-0.1052 -9.4429 -2.9991 0.9611
0.7356 -9.4136 -2.9987 0.9611
3.1953 -8.8816 -2.9976 0.9612
3.9727 -8.5609 -2.9973 0.9612
4.7183 -8.1723 -2.9969 0.9612
6.7077 -6.6333 -2.9960 0.9612
7.2708 -6.0094 -2.9957 0.9612
7.7761 -5.3380 -2.9955 0.9612
8.5982 -3.8741 -2.9950 0.9612
9.1478 -2.2880 -2.9947 0.9612
9.3148 -1.4647 -2.9946 0.9612
9.4265 0.2101 -2.9945 0.9612
9.2399 1.8781 -2.9944 0.9612
8.7609 3.4868 -2.9946 0.9612
6.6392 6.0048 -2.8430 0.9631
6.0788 6.5724 -2.8432 0.9631
5.4702 7.0879 -2.8434 0.9631
4.1276 7.9470 -2.8440 0.9631
2.6537 8.5548 -2.8446 0.9631
1.8820 8.7580 -2.8449 0.9631
-1.2934 8.8685 -2.8463 0.9631
-3.5918 8.2146 -2.8473 0.9631
-5.6363 6.9762 -2.8483 0.9631
-6.7852 5.8675 -2.8488 0.9631
-7.2812 5.2407 -2.8491 0.9630
-8.5297 4.0743 -3.0021 0.9611
-9.1180 2.4977 -3.0024 0.9611
-9.4171 0.8416 -3.0026 0.9611
-8.9364 0.0000 -3.0025 0.9630
-8.9010 -0.7954 -3.0025 0.9630
-7.6881 -4.5536 -3.0022 0.9630
-7.2519 -5.2196 -3.0020 0.9630
-6.7582 -5.8440 -3.0018 0.9630
-6.2107 -6.4218 -3.0016 0.9630
-5.6141 -6.9486 -3.0014 0.9630
-4.9729 -7.4201 -3.0011 0.9630
-4.2924 -7.8325 -3.0009 0.9630
-3.5778 -8.1826 -3.0006 0.9630
-2.8350 -8.4678 -3.0003 0.9630
-1.2885 -8.8343 -2.9996 0.9630
1.0909 -8.8578 -2.9986 0.9630
1.8748 -8.7245 -2.9982 0.9630
5.4491 -7.0606 -2.9966 0.9631
7.1190 -5.3686 -2.9958 0.9631
7.5680 -4.7134 -2.9955 0.9631
7.9569 -4.0207 -2.9953 0.9631
8.5428 -2.5460 -2.9950 0.9631
8.7351 -1.7754 -2.9949 0.9631
8.8582 -0.9909 -2.9948 0.9631
8.9111 -0.1985 -2.9947 0.9631
8.8050 1.3846 -2.9947 0.9631
8.6469 2.1628 -2.9947 0.9631
8.4202 2.9239 -2.9948 0.9631
8.1268 3.6618 -2.9948 0.9631
6.0171 5.9505 -2.8432 0.9649
4.8675 6.9242 -2.8437 0.9649
4.2323 7.3306 -2.8439 0.9649
3.5634 7.6789 -2.8442 0.9649
2.1459 8.1907 -2.8448 0.9649
-0.0944 8.4695 -2.8458 0.9649
-1.5949 8.3206 -2.8464 0.9649
-2.3294 8.1465 -2.8468 0.9649
-3.0456 7.9078 -2.8471 0.9649
-3.7377 7.6061 -2.8474 0.9649
-4.4004 7.2440 -2.8477 0.9649
-5.6162 6.3504 -2.8483 0.9649
-6.1597 5.8258 -2.8486 0.9649
-6.6543 5.2549 -2.8488 0.9649
-7.2864 4.7666 -2.9254 0.9639
-8.7149 1.9746 -3.0023 0.9630
-8.8564 1.1911 -3.0024 0.9630
-8.9274 0.3981 -3.0024 0.9630
-8.8567 -1.1911 -3.0025 0.9630
-8.7155 -1.9746 -3.0025 0.9630
-8.2269 -3.4885 -3.0023 0.9630
-6.4909 -6.1390 -3.0017 0.9630
-5.9183 -6.6919 -3.0015 0.9630
-3.2096 -8.3335 -3.0004 0.9630
-1.6808 -8.7687 -2.9998 0.9630
-0.8936 -8.8825 -2.9994 0.9630
1.4844 -8.7999 -2.9984 0.9630
2.2615 -8.6318 -2.9980 0.9630
3.0204 -8.3954 -2.9977 0.9631
4.4601 -7.7251 -2.9970 0.9631
5.1295 -7.2967 -2.9967 0.9631
6.3407 -6.2704 -2.9961 0.9631
7.3508 -5.0460 -2.9956 0.9631
7.7702 -4.3713 -2.9954 0.9631
8.1279 -3.6622 -2.9952 0.9631
8.6475 -2.1629 -2.9949 0.9631
8.8054 -1.3845 -2.9948 0.9631
8.8935 -0.5953 -2.9947 0.9631
8.9110 0.1986 -2.9947 0.9631
8.7346 1.7754 -2.9947 0.9631
8.2817 3.2961 -2.9948 0.9631
6.7559 5.0949 -2.8430 0.9649
5.7463 6.2129 -2.8433 0.9649
5.1709 6.7002 -2.8436 0.9649
3.9017 7.5122 -2.8441 0.9649
3.2179 7.8304 -2.8444 0.9649
2.5085 8.0866 -2.8447 0.9649
-0.4716 8.4574 -2.8459 0.9649
-1.2226 8.3828 -2.8463 0.9649
-1.9641 8.2417 -2.8466 0.9649
-3.3950 7.7647 -2.8472 0.9649
-5.3275 6.5939 -2.8481 0.9649
-5.8938 6.0942 -2.8484 0.9649
-6.8821 4.9535 -2.8489 0.9649
-7.6869 4.5530 -3.0017 0.9630
-8.0621 3.8510 -3.0019 0.9630
-8.3734 3.1183 -3.0021 0.9630
-8.6181 2.3608 -3.0022 0.9630
-8.7944 1.5844 -3.0023 0.9630
-8.4669 0.0000 -3.0023 0.9647
-8.4334 -0.7536 -3.0023 0.9647
-8.3329 -1.5012 -3.0023 0.9647
-7.9344 -2.9547 -3.0022 0.9647
-7.6397 -3.6491 -3.0021 0.9647
-7.2843 -4.3145 -3.0020 0.9647
-6.8710 -4.9454 -3.0018 0.9647
-5.8846 -6.0846 -3.0015 0.9647
-4.7118 -7.0304 -3.0010 0.9647
-4.0670 -7.4212 -3.0007 0.9647
-3.3900 -7.7531 -3.0005 0.9647
-2.6862 -8.0232 -3.0002 0.9647
-1.9612 -8.2296 -2.9999 0.9647
1.7764 -8.2668 -2.9982 0.9648
2.5049 -8.0750 -2.9979 0.9648
3.8961 -7.5014 -2.9973 0.9648
5.7379 -6.2037 -2.9964 0.9648
6.2667 -5.6679 -2.9961 0.9648
6.7458 -5.0872 -2.9959 0.9648
7.5399 -3.8100 -2.9955 0.9648
7.8486 -3.1237 -2.9953 0.9648
8.0951 -2.4126 -2.9952 0.9648
8.3940 -0.9389 -2.9950 0.9648
8.4441 -0.1881 -2.9949 0.9648
8.4272 0.5642 -2.9949 0.9648
8.1938 2.0495 -2.9949 0.9648
7.7009 3.4699 -2.9950 0.9648
5.1776 6.1241 -2.8436 0.9665
4.6123 6.5612 -2.8438 0.9665
4.0104 6.9462 -2.8441 0.9665
0.6252 8.0004 -2.8455 0.9665
-0.0894 8.0252 -2.8458 0.9665
-4.1694 6.8638 -2.8476 0.9665
-5.3213 6.0169 -2.8482 0.9665
-5.8362 5.5199 -2.8484 0.9665
-6.3049 4.9790 -2.8487 0.9665
-8.0575 2.5982 -3.0019 0.9647
-8.2571 1.8709 -3.0021 0.9647
-8.4586 -0.3771 -3.0023 0.9647
-8.0582 -2.5984 -3.0022 0.9647
-7.7948 -3.3052 -3.0021 0.9647
-7.4694 -3.9857 -3.0020 0.9647
-7.0847 -4.6345 -3.0019 0.9647
-6.6437 -5.2464 -3.0017 0.9647
-4.3937 -7.2330 -3.0009 0.9647
-3.7322 -7.5947 -3.0006 0.9647
-3.0411 -7.8960 -3.0003 0.9647
-1.5926 -8.3084 -2.9997 0.9647
-0.0942 -8.4573 -2.9991 0.9647
0.6588 -8.4312 -2.9987 0.9647
2.1428 -8.1790 -2.9981 0.9648
4.8605 -6.9141 -2.9968 0.9648
6.5127 -5.3829 -2.9960 0.9648
6.9655 -4.7815 -2.9958 0.9648
7.3629 -4.1422 -2.9956 0.9648
7.7019 -3.4702 -2.9954 0.9648
7.9798 -2.7708 -2.9952 0.9648
8.1944 -2.0495 -2.9951 0.9648
8.4440 0.1882 -2.9949 0.9648
8.3937 0.9390 -2.9949 0.9648
8.2769 1.6824 -2.9949 0.9648
7.8478 3.1234 -2.9950 0.9648
7.5389 3.8096 -2.9951 0.9648
5.9470 5.3788 -2.8433 0.9665
5.4451 5.8872 -2.8435 0.9665
4.8998 6.3489 -2.8437 0.9665
3.0492 7.4198 -2.8445 0.9665
1.6857 7.8445 -2.8450 0.9665
0.2682 8.0208 -2.8456 0.9665
-1.1584 7.9430 -2.8463 0.9665
-1.8610 7.8092 -2.8466 0.9665
-4.4712 6.6716 -2.8478 0.9665
-5.0478 6.2477 -2.8480 0.9665
-5.5843 5.7742 -2.8483 0.9665
-6.0766 5.2546 -2.8485 0.9665
-6.6283 4.7708 -2.8958 0.9659
-7.2832 4.3138 -3.0015 0.9647
-7.9336 2.9545 -3.0019 0.9647
-8.1654 2.2368 -3.0020 0.9647
-8.4332 0.7537 -3.0022 0.9647
-7.5339 -2.8056 -3.0020 0.9663
-6.9167 -4.0967 -3.0018 0.9663
-5.0509 -6.2515 -3.0011 0.9663
-4.4741 -6.6757 -3.0009 0.9663
-1.8623 -7.8146 -2.9998 0.9663
-0.4472 -8.0194 -2.9992 0.9663
0.9816 -7.9699 -2.9986 0.9663
1.6869 -7.8501 -2.9983 0.9663
2.3787 -7.6680 -2.9979 0.9663
3.0514 -7.4251 -2.9976 0.9663
3.6998 -7.1233 -2.9973 0.9663
6.4060 -4.8309 -2.9960 0.9663
7.1601 -3.6181 -2.9956 0.9663
7.8605 -1.5977 -2.9952 0.9663
8.0029 0.5358 -2.9951 0.9663
7.3131 3.2952 -2.9952 0.9663
5.4145 5.3546 -2.8435 0.9680
4.9168 5.8156 -2.8437 0.9680
3.8084 6.5963 -2.8442 0.9680
2.5789 7.1683 -2.8447 0.9680
1.9309 7.3701 -2.8449 0.9680
-0.7629 7.5837 -2.8461 0.9680
-2.0959 7.3298 -2.8467 0.9680
-2.7402 7.1149 -2.8470 0.9680
-4.5239 6.1399 -2.8478 0.9680
-7.0915 3.7842 -3.0015 0.9663
-7.8404 1.7765 -3.0019 0.9663
-7.9676 1.0716 -3.0020 0.9663
-8.0316 0.3582 -3.0021 0.9663
-8.0317 -0.3581 -3.0021 0.9663
-7.6515 -2.4673 -3.0020 0.9663
-6.3084 -4.9817 -3.0016 0.9663
-5.8397 -5.5230 -3.0014 0.9663
-4.7672 -6.4701 -3.0010 0.9663
-4.1721 -6.8681 -3.0008 0.9663
-2.8877 -7.4977 -3.0002 0.9663
-0.0895 -8.0309 -2.9990 0.9663
0.6256 -8.0062 -2.9987 0.9663
1.3356 -7.9179 -2.9984 0.9663
2.0348 -7.7667 -2.9981 0.9663
3.3790 -7.2814 -2.9975 0.9663
4.0133 -6.9511 -2.9972 0.9663
4.6156 -6.5657 -2.9969 0.9663
5.7056 -5.6423 -2.9964 0.9663
6.9920 -3.9336 -2.9957 0.9663
7.3140 -3.2954 -2.9956 0.9663
8.0030 -0.5357 -2.9951 0.9663
7.4526 2.9661 -2.9952 0.9663
4.6530 6.0291 -2.8438 0.9680
4.0983 6.4198 -2.8441 0.9680
3.5109 6.7597 -2.8443 0.9680
2.8956 7.0460 -2.8445 0.9680
1.6007 7.4492 -2.8451 0.9680
0.9314 7.5628 -2.8454 0.9680
-0.4243 7.6097 -2.8460 0.9680
-1.1000 7.5426 -2.8463 0.9680
-1.7672 7.4155 -2.8466 0.9680
-2.4204 7.2295 -2.8468 0.9680
-3.6646 6.6871 -2.8474 0.9680
-4.2457 6.3351 -2.8477 0.9680
-4.7931 5.9325 -2.8480 0.9680
-5.3026 5.4829 -2.8482 0.9680
-5.7700 4.9896 -2.8484 0.9680
-6.9157 4.0962 -3.0014 0.9663
-7.5332 2.8054 -3.0017 0.9663
-7.7533 2.1239 -3.0018 0.9663
-7.9119 1.4254 -3.0019 0.9663
-7.6487 0.0000 -3.0019 0.9677
-7.5276 -1.3561 -3.0019 0.9677
-7.3769 -2.0207 -3.0019 0.9677
-7.1677 -2.6692 -3.0018 0.9677
-6.9014 -3.2965 -3.0018 0.9677
-6.5804 -3.8975 -3.0016 0.9677
-6.2071 -4.4676 -3.0015 0.9677
-5.7845 -5.0020 -3.0014 0.9677
-5.3160 -5.4967 -3.0012 0.9677
-4.2566 -6.3513 -3.0008 0.9677
-3.0626 -7.0042 -3.0003 0.9677
-2.4268 -7.2484 -3.0000 0.9677
-1.7719 -7.4349 -2.9997 0.9677
-1.1030 -7.5624 -2.9995 0.9677
0.2553 -7.6366 -2.9989 0.9677
0.9339 -7.5829 -2.9986 0.9677
2.2632 -7.2957 -2.9980 0.9677
6.0952 -4.5965 -2.9962 0.9677
6.4797 -4.0355 -2.9960 0.9677
7.0917 -2.8224 -2.9956 0.9677
7.4792 -1.5202 -2.9954 0.9677
7.6299 -0.1700 -2.9953 0.9677
7.6147 0.5098 -2.9952 0.9677
7.5391 1.1855 -2.9952 0.9677
7.2096 2.5035 -2.9953 0.9677
6.9584 3.1353 -2.9954 0.9677
6.2927 4.3197 -2.9956 0.9677
3.6235 6.2762 -2.8443 0.9693
3.0508 6.5743 -2.8445 0.9693
1.8371 7.0123 -2.8450 0.9693
1.2058 7.1487 -2.8453 0.9693
-4.3041 5.8416 -2.8477 0.9693
-4.8073 5.4357 -2.8480 0.9693
-6.3992 4.1862 -3.0011 0.9677
-7.0408 2.9856 -3.0015 0.9677
-7.4592 1.6901 -3.0017 0.9677
-7.5803 1.0195 -3.0018 0.9677
-7.6412 -0.3407 -3.0019 0.9677
-7.0416 -2.9858 -3.0018 0.9677
-6.7476 -3.6006 -3.0017 0.9677
-6.4001 -4.1867 -3.0016 0.9677
-6.0018 -4.7395 -3.0014 0.9677
-5.5558 -5.2546 -3.0013 0.9677
-5.0657 -5.7279 -3.0011 0.9677
-4.5355 -6.1556 -3.0009 0.9677
-3.9693 -6.5343 -3.0006 0.9677
-3.3717 -6.8612 -3.0004 0.9677
-2.7474 -7.1334 -3.0001 0.9677
-2.1014 -7.3490 -2.9999 0.9677
2.5858 -7.1873 -2.9978 0.9677
4.3916 -6.2470 -2.9970 0.9677
5.8845 -4.8637 -2.9963 0.9677
6.9591 -3.1356 -2.9957 0.9677
7.5394 -1.1855 -2.9954 0.9677
7.6148 -0.5097 -2.9953 0.9677
7.5844 0.8485 -2.9952 0.9677
7.3139 2.1798 -2.9953 0.9677
7.0910 2.8222 -2.9953 0.9677
6.8119 3.4422 -2.9954 0.9677
6.4787 4.0350 -2.9955 0.9677
6.0942 4.5959 -2.9957 0.9677
4.9199 5.3194 -2.8438 0.9693
3.8994 6.1083 -2.8442 0.9693
3.3405 6.4316 -2.8444 0.9693
2.7550 6.7040 -2.8446 0.9693
2.1476 6.9232 -2.8449 0.9693
0.8862 7.1957 -2.8454 0.9693
-1.0466 7.1763 -2.8463 0.9693
-1.6814 7.0553 -2.8465 0.9693
-5.0449 5.2164 -2.8481 0.9693
-5.5213 4.7745 -2.8648 0.9691
-6.5795 3.8971 -3.0012 0.9677
-6.9007 3.2962 -3.0014 0.9677
-7.3764 2.0207 -3.0017 0.9677
-7.5272 1.3561 -3.0018 0.9677
-7.6183 0.6808 -3.0019 0.9677
-7.2897 0.0000 -3.0017 0.9690
-7.2608 -0.6488 -3.0018 0.9690
-7.0306 -1.9258 -3.0017 0.9690
-6.5775 -3.1418 -3.0016 0.9690
-5.9158 -4.2579 -3.0014 0.9690
-5.5130 -4.7673 -3.0012 0.9690
-5.0665 -5.2387 -3.0011 0.9690
-4.0569 -6.0532 -3.0007 0.9690
-2.9189 -6.6756 -3.0002 0.9690
-2.3129 -6.9083 -2.9999 0.9690
-1.6887 -7.0862 -2.9997 0.9690
0.8901 -7.2273 -2.9986 0.9690
2.7671 -6.7334 -2.9977 0.9690
6.7595 -2.6902 -2.9958 0.9690
7.1288 -1.4490 -2.9955 0.9690
7.2725 -0.1620 -2.9954 0.9690
7.2580 0.4859 -2.9954 0.9690
7.1859 1.1300 -2.9954 0.9690
6.3403 3.5670 -2.9956 0.9690
5.9979 4.1173 -2.9957 0.9690
3.9722 5.6505 -2.8441 0.9706
3.4537 5.9821 -2.8444 0.9706
2.9078 6.2662 -2.8446 0.9706
2.3387 6.5007 -2.8448 0.9706
1.7510 6.6836 -2.8451 0.9706
1.1493 6.8136 -2.8453 0.9706
-0.0770 6.9107 -2.8458 0.9705
-0.6918 6.8771 -2.8461 0.9705
-1.9006 6.6467 -2.8467 0.9705
-2.4848 6.4517 -2.8469 0.9705
-3.0495 6.2055 -2.8472 0.9705
-3.5900 5.9100 -2.8474 0.9705
-5.0491 4.7754 -2.8618 0.9704
-5.7192 4.5164 -3.0008 0.9690
-6.0988 3.9897 -3.0010 0.9690
-6.4301 3.4312 -3.0012 0.9690
-6.7103 2.8454 -3.0013 0.9690
-6.9373 2.2370 -3.0015 0.9690
-7.2824 0.3248 -3.0017 0.9690
-7.2825 -0.3247 -3.0018 0.9690
-7.2247 -0.9716 -3.0018 0.9690
-6.4309 -3.4316 -3.0016 0.9690
-5.7201 -4.5171 -3.0013 0.9690
-4.8280 -5.4591 -3.0010 0.9690
-2.0028 -7.0042 -2.9998 0.9690
-1.3713 -7.1540 -2.9995 0.9690
-0.7291 -7.2470 -2.9993 0.9690
1.2111 -7.1801 -2.9984 0.9690
2.4646 -6.8503 -2.9979 0.9690
3.6395 -6.3037 -2.9973 0.9690
4.1857 -5.9542 -2.9971 0.9690
4.6987 -5.5576 -2.9968 0.9690
5.6088 -4.6357 -2.9964 0.9690
6.3411 -3.5674 -2.9960 0.9690
6.6331 -2.9886 -2.9958 0.9690
7.0573 -1.7651 -2.9956 0.9690
7.1862 -1.1299 -2.9955 0.9690
6.7588 2.6900 -2.9955 0.9690
6.4928 3.2810 -2.9956 0.9690
5.2465 4.7452 -2.9130 0.9699
3.7166 5.8220 -2.8442 0.9706
3.1839 6.1302 -2.8445 0.9706
1.4516 6.7553 -2.8452 0.9706
0.2309 6.9069 -2.8457 0.9705
-0.3848 6.9007 -2.8460 0.9705
-0.9975 6.8397 -2.8462 0.9705
-1.6025 6.7244 -2.8465 0.9705
-4.3462 5.3794 -2.8478 0.9705
-4.8082 4.9717 -2.8480 0.9705
-5.9149 4.2573 -3.0009 0.9690
-6.5768 3.1415 -3.0013 0.9690
-6.8306 2.5438 -3.0014 0.9690
-7.1739 1.2925 -3.0016 0.9690
-6.9585 0.0000 -3.0016 0.9701
-6.9309 -0.6193 -3.0016 0.9701
-6.7112 -1.8384 -3.0016 0.9701
-4.3719 -5.4111 -3.0008 0.9702
-1.0035 -6.8805 -2.9994 0.9702
-0.3871 -6.9419 -2.9991 0.9702
0.2323 -6.9481 -2.9988 0.9702
0.8497 -6.8993 -2.9986 0.9702
1.4603 -6.7956 -2.9983 0.9702
2.6416 -6.4279 -2.9978 0.9702
3.2030 -6.1668 -2.9975 0.9702
3.7388 -5.8567 -2.9973 0.9702
4.7173 -5.1002 -2.9968 0.9702
5.1521 -4.6598 -2.9966 0.9702
5.5461 -4.1824 -2.9964 0.9702
5.8960 -3.6720 -2.9962 0.9702
6.4530 -2.5682 -2.9959 0.9702
6.6557 -1.9836 -2.9958 0.9702
6.9016 -0.7721 -2.9956 0.9702
6.9289 0.4639 -2.9955 0.9702
6.7369 1.6850 -2.9956 0.9702
6.0528 3.4053 -2.9958 0.9702
5.7259 3.9307 -2.9959 0.9702
5.3536 4.4249 -2.9960 0.9702
4.7994 4.7463 -2.9116 0.9710
3.2971 5.7107 -2.8444 0.9717
2.7759 5.9820 -2.8447 0.9717
2.2327 6.2058 -2.8449 0.9717
0.5139 6.5769 -2.8456 0.9717
-0.6604 6.5650 -2.8461 0.9717
-1.2422 6.4807 -2.8464 0.9717
-1.8143 6.3450 -2.8466 0.9717
-5.4594 4.3113 -3.0007 0.9702
-6.1381 3.2754 -3.0011 0.9701
-6.4055 2.7162 -3.0012 0.9701
-6.8962 0.9275 -3.0015 0.9701
-6.6226 -2.1355 -3.0016 0.9701
-5.8226 -3.8089 -3.0013 0.9701
-5.4603 -4.3119 -3.0012 0.9701
-4.6087 -5.2111 -3.0009 0.9701
-2.4996 -6.4900 -3.0000 0.9702
-1.9119 -6.6862 -2.9998 0.9702
-0.6960 -6.9180 -2.9992 0.9702
-0.0774 -6.9519 -2.9990 0.9702
0.5416 -6.9306 -2.9987 0.9702
1.7615 -6.7235 -2.9982 0.9702
2.9252 -6.3036 -2.9976 0.9702
3.4744 -6.0177 -2.9974 0.9702
3.9959 -5.6841 -2.9971 0.9702
5.7267 -3.9311 -2.9963 0.9702
6.0535 -3.4056 -2.9961 0.9702
6.5608 -2.2781 -2.9958 0.9702
6.7373 -1.6851 -2.9957 0.9702
6.8604 -1.0787 -2.9956 0.9702
6.9014 0.7721 -2.9955 0.9702
6.4524 2.5680 -2.9956 0.9702
6.1984 3.1322 -2.9957 0.9702
5.1513 4.6591 -2.9961 0.9702
3.5481 5.5580 -2.8443 0.9717
1.9541 6.2994 -2.8450 0.9717
1.3858 6.4488 -2.8452 0.9717
-0.3673 6.5876 -2.8460 0.9717
-0.9523 6.5293 -2.8462 0.9717
-2.0952 6.2581 -2.8468 0.9717
-2.6441 6.0473 -2.8470 0.9717
-3.1722 5.7885 -2.8473 0.9717
-3.6751 5.4837 -2.8475 0.9717
-4.6159 4.7729 -2.8641 0.9715
-5.6462 4.0640 -3.0008 0.9701
-5.9859 3.5455 -3.0010 0.9701
-6.2780 2.9988 -3.0012 0.9701
-6.6519 0.0000 -3.0015 0.9712
-6.5466 -1.1794 -3.0015 0.9712
-6.4156 -1.7573 -3.0015 0.9712
-6.0021 -2.8669 -3.0013 0.9712
-5.7229 -3.3896 -3.0012 0.9712
-5.0308 -4.3503 -3.0010 0.9712
-4.1793 -5.1728 -3.0007 0.9712
-3.1955 -5.8310 -3.0003 0.9712
-2.6636 -6.0919 -3.0001 0.9712
-2.1107 -6.3043 -2.9998 0.9712
-0.9593 -6.5776 -2.9993 0.9713
-0.3700 -6.6363 -2.9991 0.9713
0.8123 -6.5956 -2.9986 0.9713
1.3960 -6.4966 -2.9983 0.9713
2.5254 -6.1451 -2.9978 0.9713
3.0620 -5.8954 -2.9975 0.9713
4.9255 -4.4548 -2.9967 0.9713
5.3022 -3.9985 -2.9965 0.9713
5.6367 -3.5105 -2.9963 0.9713
5.9265 -2.9947 -2.9961 0.9713
6.1692 -2.4552 -2.9960 0.9713
6.5981 -0.7381 -2.9957 0.9713
6.6242 0.4435 -2.9957 0.9713
6.5585 1.0313 -2.9957 0.9713
6.0533 2.7275 -2.9958 0.9713
5.7867 3.2556 -2.9959 0.9713
5.4741 3.7578 -2.9960 0.9713
4.7216 4.6693 -2.9963 0.9713
2.6538 5.7188 -2.8447 0.9727
0.4913 6.2874 -2.8456 0.9727
-0.6314 6.2760 -2.8461 0.9727
-1.1876 6.1954 -2.8464 0.9727
-1.7344 6.0657 -2.8466 0.9727
-2.2676 5.8877 -2.8469 0.9727
-2.7829 5.6630 -2.8471 0.9727
-3.2761 5.3933 -2.8473 0.9727
-5.2190 4.1214 -3.0006 0.9712
-5.5654 3.6408 -3.0008 0.9712
-5.8677 3.1311 -3.0010 0.9712
-6.3304 2.0413 -3.0012 0.9712
-6.4872 1.4698 -3.0013 0.9712
-6.6454 -0.2963 -3.0015 0.9712
-6.5926 -0.8866 -3.0015 0.9712
-6.4875 -1.4698 -3.0015 0.9712
-6.3309 -2.0414 -3.0014 0.9712
-6.1239 -2.5967 -3.0014 0.9712
-5.5661 -3.6411 -3.0012 0.9712
-4.4057 -4.9816 -3.0008 0.9712
-1.2514 -6.5286 -2.9995 0.9713
-0.6653 -6.6135 -2.9992 0.9713
0.5177 -6.6256 -2.9987 0.9713
1.1053 -6.5526 -2.9984 0.9713
1.6840 -6.4277 -2.9982 0.9713
2.2492 -6.2517 -2.9979 0.9713
3.3215 -5.7529 -2.9974 0.9713
4.2882 -5.0721 -2.9970 0.9713
4.7223 -4.6700 -2.9968 0.9713
5.1189 -4.2309 -2.9966 0.9713
5.7873 -3.2558 -2.9962 0.9713
6.0538 -2.7277 -2.9961 0.9713
6.2723 -2.1779 -2.9960 0.9713
6.6374 0.1479 -2.9957 0.9713
6.5979 0.7381 -2.9957 0.9713
6.5061 1.3225 -2.9957 0.9713
6.3626 1.8963 -2.9957 0.9713
5.9258 2.9945 -2.9958 0.9713
5.6360 3.5102 -2.9959 0.9713
5.3014 3.9980 -2.9961 0.9713
4.9247 4.4542 -2.9962 0.9713
4.3897 4.7461 -2.9170 0.9720
3.3920 5.3135 -2.8444 0.9727
2.9058 5.5947 -2.8446 0.9727
2.3965 5.8316 -2.8448 0.9727
1.3248 6.1651 -2.8453 0.9727
0.7709 6.2590 -2.8455 0.9727
0.2107 6.3034 -2.8458 0.9727
-0.3511 6.2976 -2.8460 0.9727
-0.9104 6.2419 -2.8462 0.9727
-2.0030 5.9827 -2.8467 0.9727
-2.5277 5.7811 -2.8470 0.9727
-3.0325 5.5336 -2.8472 0.9727
-3.5133 5.2422 -2.8474 0.9727
-3.9662 4.9091 -2.8476 0.9727
-5.7222 3.3893 -3.0009 0.9712
-6.0015 2.8667 -3.0010 0.9712
-6.4152 1.7573 -3.0013 0.9712
-6.5463 1.1794 -3.0014 0.9712
-6.3672 0.0000 -3.0013 0.9722
-6.2663 -1.1289 -3.0014 0.9722
-6.1409 -1.6821 -3.0013 0.9722
-5.9668 -2.2220 -3.0013 0.9722
-5.7452 -2.7442 -3.0012 0.9722
-5.4779 -3.2445 -3.0011 0.9722
-4.8155 -4.1640 -3.0009 0.9722
-4.0005 -4.9514 -3.0006 0.9722
-3.5437 -5.2875 -3.0004 0.9722
-2.0204 -6.0346 -2.9998 0.9723
-0.9183 -6.2962 -2.9993 0.9723
-0.3542 -6.3524 -2.9991 0.9723
0.2126 -6.3582 -2.9988 0.9723
1.3363 -6.2188 -2.9983 0.9723
2.9311 -5.6434 -2.9976 0.9723
4.3170 -4.6674 -2.9969 0.9723
4.7150 -4.2644 -2.9967 0.9723
5.3958 -3.3605 -2.9964 0.9723
5.6732 -2.8667 -2.9963 0.9723
6.0911 -1.8153 -2.9960 0.9723
6.2283 -1.2659 -2.9959 0.9723
6.1655 1.5421 -2.9958 0.9723
6.0039 2.0848 -2.9958 0.9723
5.2402 3.5972 -2.9961 0.9723
4.8994 4.0495 -2.9962 0.9723
3.4703 4.9366 -2.8444 0.9737
3.0173 5.2262 -2.8446 0.9737
2.5404 5.4744 -2.8448 0.9737
2.0432 5.6792 -2.8450 0.9737
1.5297 5.8389 -2.8452 0.9737
1.0040 5.9524 -2.8454 0.9737
-0.6044 6.0076 -2.8461 0.9737
-1.1368 5.9305 -2.8464 0.9737
-2.1706 5.6359 -2.8468 0.9736
-2.6638 5.4207 -2.8470 0.9736
-3.5833 4.8633 -2.8475 0.9736
-6.0595 1.9540 -3.0011 0.9722
-6.3102 0.8487 -3.0013 0.9722
-6.3608 0.2837 -3.0013 0.9722
-5.6171 -2.9973 -3.0012 0.9722
-5.3279 -3.4853 -3.0011 0.9722
-4.9963 -3.9455 -3.0010 0.9722
-4.6251 -4.3743 -3.0008 0.9722
-4.2172 -4.7684 -3.0007 0.9722
-3.7758 -5.1245 -3.0005 0.9722
-2.2873 -5.9388 -2.9999 0.9722
-1.7495 -6.1183 -2.9997 0.9723
-1.1979 -6.2493 -2.9994 0.9723
-0.6369 -6.3306 -2.9992 0.9723
0.4956 -6.3421 -2.9987 0.9723
1.6120 -6.1528 -2.9982 0.9723
3.1795 -5.5070 -2.9975 0.9723
3.6568 -5.2018 -2.9973 0.9723
4.1049 -4.8553 -2.9970 0.9723
4.9001 -4.0500 -2.9967 0.9723
5.2409 -3.5976 -2.9965 0.9723
5.5400 -3.1167 -2.9963 0.9723
6.0043 -2.0848 -2.9961 0.9723
6.2785 -0.9872 -2.9959 0.9723
6.3413 -0.4245 -2.9958 0.9723
6.0907 1.8153 -2.9958 0.9723
5.9051 2.3502 -2.9959 0.9723
4.7143 4.2638 -2.9963 0.9723
3.6864 4.7769 -2.8443 0.9737
3.2470 5.0864 -2.8445 0.9737
2.2941 5.5823 -2.8449 0.9737
1.2681 5.9015 -2.8453 0.9737
0.7379 5.9914 -2.8455 0.9737
0.2017 6.0338 -2.8458 0.9737
-0.3361 6.0283 -2.8460 0.9737
-1.9173 5.7267 -2.8467 0.9736
-2.4196 5.5338 -2.8469 0.9736
-2.9028 5.2969 -2.8472 0.9736
-4.4248 4.5753 -3.0003 0.9722
-4.8148 4.1636 -3.0005 0.9722
-5.9663 2.2219 -3.0011 0.9722
-6.3418 0.5668 -3.0013 0.9722
-6.0777 -0.5431 -3.0013 0.9732
-6.0052 -1.0819 -3.0012 0.9732
-5.2497 -3.1093 -3.0010 0.9732
-4.9519 -3.5641 -3.0009 0.9732
-4.2412 -4.3853 -3.0007 0.9732
-3.3960 -5.0672 -3.0003 0.9732
-2.4435 -5.5883 -2.9999 0.9732
-1.4137 -5.9322 -2.9995 0.9732
-0.3395 -6.0879 -2.9990 0.9732
1.2807 -5.9599 -2.9983 0.9732
1.8059 -5.8218 -2.9981 0.9732
3.2791 -5.1366 -2.9974 0.9732
3.7230 -4.8240 -2.9972 0.9732
4.8644 -3.6683 -2.9966 0.9732
5.4372 -2.7475 -2.9963 0.9732
5.6599 -2.2525 -2.9962 0.9732
5.9692 -1.2133 -2.9960 0.9732
6.0896 -0.1357 -2.9959 0.9732
6.0774 0.4069 -2.9959 0.9732
6.0171 0.9462 -2.9959 0.9732
5.9090 1.4780 -2.9959 0.9732
5.7541 1.9981 -2.9960 0.9732
5.5536 2.5024 -2.9960 0.9732
5.0222 3.4476 -2.9962 0.9732
4.6956 3.8811 -2.9963 0.9732
4.3317 4.2838 -2.9965 0.9732
3.9335 4.6526 -2.9966 0.9732
2.8917 5.0087 -2.8447 0.9745
2.4346 5.2466 -2.8448 0.9745
1.9582 5.4428 -2.8450 0.9745
0.4507 5.7681 -2.8457 0.9745
-0.0645 5.7857 -2.8459 0.9745
-0.5792 5.7575 -2.8461 0.9745
-1.5911 5.5645 -2.8466 0.9745
-3.0053 4.9475 -2.8472 0.9745
-3.5089 4.7624 -2.9095 0.9740
-4.0408 4.5691 -3.0001 0.9732
-4.4318 4.1916 -3.0003 0.9732
-4.7875 3.7807 -3.0005 0.9732
-5.6171 2.3819 -3.0009 0.9732
-5.8070 1.8725 -3.0010 0.9732
-6.0958 -0.2718 -3.0012 0.9732
-5.9510 -1.3483 -3.0012 0.9732
-5.6175 -2.3820 -3.0011 0.9732
-5.3831 -2.8724 -3.0011 0.9732
-5.1059 -3.3401 -3.0010 0.9732
-4.7881 -3.7811 -3.0009 0.9732
-4.0415 -4.5697 -3.0006 0.9732
-3.6185 -4.9111 -3.0004 0.9732
-3.1668 -5.2133 -3.0002 0.9732
-1.6766 -5.8635 -2.9996 0.9732
1.0140 -6.0112 -2.9984 0.9732
1.5449 -5.8967 -2.9982 0.9732
2.0634 -5.7353 -2.9980 0.9732
3.0472 -5.2778 -2.9975 0.9732
5.0228 -3.4479 -2.9966 0.9732
5.3095 -2.9870 -2.9964 0.9732
5.5541 -2.5025 -2.9963 0.9732
5.9094 -1.4780 -2.9961 0.9732
6.0173 -0.9461 -2.9960 0.9732
6.0895 0.1357 -2.9959 0.9732
5.8374 1.7398 -2.9959 0.9732
5.6595 2.2524 -2.9960 0.9732
5.1707 3.2204 -2.9962 0.9732
4.8637 3.6680 -2.9963 0.9732
4.5182 4.0865 -2.9964 0.9732
4.1367 4.4726 -2.9965 0.9732
3.1119 4.8748 -2.8446 0.9745
2.6658 5.1327 -2.8447 0.9745
2.1986 5.3500 -2.8449 0.9745
1.7138 5.5248 -2.8451 0.9745
1.2154 5.6559 -2.8453 0.9745
0.7072 5.7420 -2.8456 0.9745
0.1933 5.7826 -2.8458 0.9745
-0.3221 5.7773 -2.8460 0.9745
-1.3416 5.6296 -2.8465 0.9745
-1.8375 5.4883 -2.8467 0.9745
-2.3188 5.3033 -2.8469 0.9745
-2.7819 5.0763 -2.8471 0.9745
-3.2229 4.8089 -2.8473 0.9745
-3.8332 4.7444 -3.0000 0.9732
-4.2405 4.3847 -3.0002 0.9732
-4.9513 3.5638 -3.0005 0.9732
-5.5053 2.6297 -3.0008 0.9732
-5.7177 2.1293 -3.0010 0.9732
-6.0050 1.0819 -3.0011 0.9732
-5.8539 0.0000 -3.0011 0.9740
-5.8307 -0.5210 -3.0011 0.9740
-5.6459 -1.5465 -3.0011 0.9740
-5.4858 -2.0429 -3.0011 0.9740
-5.2820 -2.5230 -3.0010 0.9740
-4.7507 -3.4193 -3.0008 0.9740
-3.2581 -4.8613 -3.0002 0.9740
-2.8123 -5.1317 -3.0001 0.9740
-2.3442 -5.3613 -2.9999 0.9740
-0.8443 -5.7889 -2.9992 0.9740
-0.3257 -5.8407 -2.9990 0.9740
0.1955 -5.8460 -2.9988 0.9740
0.7150 -5.8050 -2.9986 0.9741
2.2227 -5.4087 -2.9979 0.9741
2.6951 -5.1890 -2.9977 0.9741
3.1460 -4.9281 -2.9975 0.9741
3.5719 -4.6282 -2.9973 0.9741
3.9695 -4.2917 -2.9971 0.9741
4.6670 -3.5195 -2.9967 0.9741
4.9615 -3.0900 -2.9966 0.9741
5.2166 -2.6360 -2.9964 0.9741
5.8078 -0.6496 -2.9961 0.9741
5.6693 1.4180 -2.9960 0.9741
5.5207 1.9170 -2.9961 0.9741
5.3283 2.4008 -2.9961 0.9741
4.5051 3.7236 -2.9964 0.9741
3.7739 4.4638 -2.9967 0.9741
2.7744 4.8055 -2.8447 0.9754
1.8787 5.2219 -2.8451 0.9754
1.4065 5.3688 -2.8453 0.9754
0.9232 5.4731 -2.8455 0.9754
-0.5557 5.5237 -2.8461 0.9754
-1.0452 5.4528 -2.8463 0.9754
-1.9957 5.1818 -2.8468 0.9753
-2.8980 4.7707 -2.8617 0.9752
-3.8767 4.3835 -3.0000 0.9740
-4.5930 3.6271 -3.0004 0.9740
-5.7090 1.2935 -3.0010 0.9740
-5.8481 0.2608 -3.0011 0.9740
-5.8481 -0.2608 -3.0011 0.9740
-5.5714 -1.7965 -3.0011 0.9740
-5.3893 -2.2852 -3.0010 0.9740
-5.1643 -2.7557 -3.0010 0.9740
-4.5936 -3.6275 -3.0008 0.9740
-4.2523 -4.0218 -3.0006 0.9740
-3.4715 -4.7115 -3.0003 0.9740
-3.0382 -5.0015 -3.0002 0.9740
-2.1030 -5.4603 -2.9998 0.9740
-1.6085 -5.6254 -2.9996 0.9740
-1.1014 -5.7458 -2.9994 0.9740
-0.5856 -5.8206 -2.9991 0.9740
-0.0652 -5.8492 -2.9989 0.9740
1.4822 -5.6573 -2.9982 0.9741
2.9235 -5.0636 -2.9976 0.9741
3.7745 -4.4644 -2.9972 0.9741
4.1566 -4.1105 -2.9970 0.9741
4.8190 -3.3080 -2.9966 0.9741
5.6696 -1.4180 -2.9962 0.9741
5.8310 -0.3903 -2.9961 0.9741
5.8425 0.1302 -2.9960 0.9741
5.8077 0.6497 -2.9960 0.9741
5.7268 1.1641 -2.9960 0.9741
5.6006 1.6692 -2.9960 0.9741
5.2161 2.6358 -2.9962 0.9741
4.9609 3.0897 -2.9963 0.9741
4.3348 3.9207 -2.9965 0.9741
3.9689 4.2911 -2.9966 0.9741
3.5714 4.6276 -2.9968 0.9741
2.5577 4.9244 -2.8448 0.9754
2.1094 5.1329 -2.8450 0.9754
1.1660 5.4263 -2.8454 0.9754
0.6785 5.5089 -2.8456 0.9754
0.1855 5.5479 -2.8458 0.9754
-0.3091 5.5428 -2.8460 0.9754
-0.8012 5.4937 -2.8462 0.9754
-1.2871 5.4010 -2.8465 0.9754
-1.7629 5.2654 -2.8467 0.9753
-2.2247 5.0880 -2.8469 0.9753
-2.6689 4.8701 -2.8471 0.9753
-3.6775 4.5517 -2.9999 0.9740
-5.0359 2.9828 -3.0006 0.9740
-5.2816 2.5229 -3.0007 0.9740
-5.7610 1.0379 -3.0010 0.9740
-5.6215 0.0001 -3.0010 0.9748
-5.5993 -0.5003 -3.0010 0.9748
-5.5325 -0.9967 -3.0010 0.9748
-5.4218 -1.4851 -3.0010 0.9748
-5.2680 -1.9618 -3.0010 0.9748
-4.5622 -3.2836 -3.0007 0.9748
-3.9074 -4.0401 -3.0005 0.9748
-2.2512 -5.1486 -2.9998 0.9748
-1.7839 -5.3282 -2.9996 0.9748
1.1800 -5.4911 -2.9983 0.9749
2.5882 -4.9832 -2.9977 0.9749
3.8121 -4.1216 -2.9971 0.9749
4.1636 -3.7657 -2.9970 0.9749
4.4820 -3.3800 -2.9968 0.9749
4.7648 -2.9675 -2.9967 0.9749
5.0098 -2.5315 -2.9965 0.9749
5.3789 -1.6031 -2.9963 0.9749
5.5001 -1.1179 -2.9962 0.9749
5.5777 -0.6239 -2.9962 0.9749
5.6110 -0.1250 -2.9961 0.9749
5.5998 0.3749 -2.9961 0.9749
5.1171 2.3057 -2.9962 0.9749
4.3265 3.5760 -2.9965 0.9749
3.2285 4.5927 -2.9969 0.9749
2.7409 4.7475 -2.9264 0.9754
1.8042 5.0149 -2.8451 0.9761
1.3508 5.1559 -2.8453 0.9761
0.4153 5.3145 -2.8457 0.9761
-0.5336 5.3046 -2.8461 0.9761
-4.0830 3.8617 -3.0001 0.9748
-4.4107 3.4831 -3.0003 0.9748
-4.7035 3.0769 -3.0005 0.9748
-4.9589 2.6462 -3.0006 0.9748
-5.1749 2.1944 -3.0007 0.9748
-5.3499 1.7252 -3.0008 0.9748
-5.6159 0.2504 -3.0010 0.9748
-5.1753 -2.1945 -3.0009 0.9748
-4.7040 -3.0771 -3.0008 0.9748
-4.4113 -3.4835 -3.0007 0.9748
-3.7234 -4.2101 -3.0004 0.9748
-2.0196 -5.2436 -2.9997 0.9748
-1.5447 -5.4022 -2.9995 0.9748
-0.5623 -5.5897 -2.9991 0.9748
0.4376 -5.6000 -2.9987 0.9749
1.9011 -5.2843 -2.9980 0.9749
3.2290 -4.5933 -2.9974 0.9749
4.3271 -3.5764 -2.9969 0.9749
5.1175 -2.3058 -2.9965 0.9749
5.3022 -1.8411 -2.9964 0.9749
5.4449 -1.3618 -2.9963 0.9749
5.5444 -0.8718 -2.9962 0.9749
5.5999 -0.3748 -2.9962 0.9749
5.6110 0.1251 -2.9961 0.9749
5.5775 0.6240 -2.9961 0.9749
5.3786 1.6031 -2.9961 0.9749
3.8116 4.1211 -2.9967 0.9749
3.4298 4.4442 -2.9968 0.9749
3.0208 4.7321 -2.9970 0.9749
2.4721 4.7597 -2.8632 0.9760
2.0257 4.9294 -2.8450 0.9761
1.5791 5.0904 -2.8452 0.9761
0.6516 5.2904 -2.8456 0.9761
-1.2361 5.1867 -2.8464 0.9761
-1.6929 5.0565 -2.8466 0.9761
-2.1364 4.8861 -2.8468 0.9761
-3.9068 4.0397 -3.0001 0.9748
-4.2511 3.6761 -3.0002 0.9748
-4.8360 2.8644 -3.0005 0.9748
-5.0719 2.4227 -3.0007 0.9748
-5.2676 1.9617 -3.0008 0.9748
-5.4215 1.4852 -3.0009 0.9748
-5.5992 0.5004 -3.0010 0.9748
-5.4032 0.0000 -3.0009 0.9756
-5.3818 -0.4809 -3.0009 0.9756
-5.3176 -0.9580 -3.0009 0.9756
-4.6487 -2.7533 -3.0007 0.9756
-2.5958 -4.7368 -3.0000 0.9756
-1.2519 -5.2533 -2.9994 0.9756
-0.7793 -5.3435 -2.9992 0.9756
-0.3006 -5.3913 -2.9990 0.9756
0.1804 -5.3963 -2.9988 0.9756
0.6600 -5.3584 -2.9986 0.9756
1.5994 -5.1558 -2.9981 0.9756
2.4878 -4.7899 -2.9977 0.9756
2.9041 -4.5492 -2.9975 0.9756
3.2973 -4.2723 -2.9974 0.9756
4.0021 -3.6196 -2.9970 0.9756
4.3082 -3.2489 -2.9969 0.9756
5.0128 -1.9950 -2.9965 0.9756
5.1703 -1.5409 -2.9964 0.9756
5.2868 -1.0746 -2.9963 0.9756
5.3614 -0.5997 -2.9963 0.9756
5.2335 1.3090 -2.9962 0.9756
4.9187 2.2162 -2.9963 0.9756
4.7020 2.6453 -2.9964 0.9756
4.1588 3.4373 -2.9966 0.9756
3.1033 4.4145 -2.9970 0.9756
2.2050 4.7517 -2.9093 0.9763
1.2984 4.9559 -2.8453 0.9768
-1.4103 4.9323 -2.8491 0.9768
-2.3362 4.7542 -2.9420 0.9761
-2.8039 4.6159 -2.9996 0.9756
-3.2038 4.3483 -2.9997 0.9756
-3.5783 4.0461 -2.9999 0.9756
-3.9245 3.7118 -3.0001 0.9756
-4.2395 3.3479 -3.0002 0.9756
-4.5208 2.9574 -3.0004 0.9756
-4.9740 2.1092 -3.0006 0.9756
-5.2694 1.1939 -3.0008 0.9756
-5.3549 0.7202 -3.0009 0.9756
-5.1424 -1.6582 -3.0009 0.9756
-4.9744 -2.1093 -3.0009 0.9756
-4.2400 -3.3482 -3.0006 0.9756
-3.9250 -3.7122 -3.0005 0.9756
-3.5788 -4.0466 -3.0003 0.9756
-3.2043 -4.3488 -3.0002 0.9756
-1.9412 -5.0400 -2.9997 0.9756
-0.5405 -5.3727 -2.9991 0.9756
-0.0602 -5.3991 -2.9989 0.9756
0.4206 -5.3827 -2.9987 0.9756
1.8274 -5.0792 -2.9980 0.9756
3.1038 -4.4152 -2.9975 0.9756
3.4842 -4.1211 -2.9973 0.9756
4.4485 -3.0537 -2.9968 0.9756
4.9191 -2.2164 -2.9965 0.9756
5.3294 -0.8380 -2.9963 0.9756
5.3827 -0.3603 -2.9962 0.9756
5.3613 0.5998 -2.9962 0.9756
5.2866 1.0746 -2.9962 0.9756
4.5796 2.8522 -2.9964 0.9756
4.3077 3.2486 -2.9965 0.9756
4.0016 3.6193 -2.9966 0.9756
2.4621 4.7405 -2.9668 0.9759
1.5178 4.8930 -2.8453 0.9768
1.0764 5.0089 -2.8454 0.9768
0.6263 5.0852 -2.8456 0.9768
0.1712 5.1212 -2.8458 0.9768
-2.0829 4.7638 -2.8876 0.9765
-2.5954 4.7361 -2.9995 0.9756
-3.0068 4.4865 -2.9996 0.9756
-3.3944 4.2014 -2.9998 0.9756
-4.3845 3.1558 -3.0003 0.9756
-4.6482 2.7532 -3.0005 0.9756
-5.0631 1.8855 -3.0007 0.9756
-5.3817 0.4809 -3.0009 0.9756
-5.1770 -0.4626 -3.0009 0.9763
-5.1153 -0.9215 -3.0009 0.9763
-5.0129 -1.3731 -3.0008 0.9763
-4.8707 -1.8138 -3.0008 0.9763
-4.6899 -2.2401 -3.0007 0.9763
-4.4718 -2.6486 -3.0007 0.9763
-4.2181 -3.0360 -3.0006 0.9763
-3.9310 -3.3993 -3.0005 0.9763
-3.6127 -3.7355 -3.0003 0.9763
-3.2658 -4.0421 -3.0002 0.9763
-2.8929 -4.3164 -3.0001 0.9763
-2.0815 -4.7605 -2.9997 0.9763
-1.6494 -4.9265 -2.9996 0.9763
-0.7497 -5.1403 -2.9992 0.9763
0.1736 -5.1911 -2.9988 0.9763
1.0911 -5.0774 -2.9984 0.9763
1.9738 -4.8028 -2.9980 0.9763
2.3933 -4.6078 -2.9978 0.9763
3.1719 -4.1099 -2.9974 0.9763
3.8500 -3.4821 -2.9971 0.9763
4.4060 -2.7440 -2.9968 0.9763
4.6325 -2.3409 -2.9967 0.9763
4.9739 -1.4823 -2.9965 0.9763
5.0859 -1.0337 -2.9964 0.9763
5.1577 -0.5770 -2.9964 0.9763
5.1885 -0.1156 -2.9963 0.9763
5.1782 0.3467 -2.9963 0.9763
5.0347 1.2593 -2.9963 0.9763
4.9027 1.7025 -2.9963 0.9763
4.5233 2.5448 -2.9965 0.9763
4.2790 2.9374 -2.9966 0.9763
3.3513 3.9640 -2.9969 0.9763
2.9854 4.2468 -2.9971 0.9763
2.5957 4.4958 -2.9972 0.9763
2.1853 4.7093 -2.9974 0.9763
1.2507 4.7739 -2.8492 0.9775
-0.4934 4.9049 -2.8461 0.9775
-0.9281 4.8419 -2.8463 0.9775
-1.3631 4.7670 -2.8625 0.9774
-1.8307 4.7534 -2.9409 0.9767
-2.6973 4.4403 -2.9995 0.9763
-4.3488 2.8449 -3.0003 0.9763
-4.5850 2.4467 -3.0004 0.9763
-4.9465 1.5951 -3.0006 0.9763
-5.1511 0.6928 -3.0008 0.9763
-5.1924 0.2316 -3.0008 0.9763
-5.1513 -0.6927 -3.0009 0.9763
-4.5854 -2.4468 -3.0007 0.9763
-4.0786 -3.2208 -3.0005 0.9763
-3.4427 -3.8926 -3.0003 0.9763
-2.6977 -4.4409 -3.0000 0.9763
-2.2916 -4.6631 -2.9998 0.9763
-1.8673 -4.8483 -2.9996 0.9763
-0.9780 -5.1019 -2.9993 0.9763
