ply
format ascii 1.0
element vertex 1586
property float32 x
property float32 y
property float32 z
property float32 I
end_header
-4.3048 7.0867 -0.6214 0.9673
8.0642 -7.2936 -0.9968 0.9573
8.0232 -6.6313 -0.9543 0.9591
9.3300 -5.2490 -0.9814 0.9579
8.2780 -7.4871 -1.2107 0.9561
8.8860 -5.5342 -1.1355 0.9588
9.5158 -5.3535 -1.1843 0.9570
9.0467 -5.6344 -1.3356 0.9579
-4.3037 7.0849 -1.0388 0.9671
9.8638 -5.5493 -1.4183 0.9554
8.5621 -7.0768 -1.5800 0.9561
-4.3030 7.0837 -1.3198 0.9670
-4.3027 7.0831 -1.4613 0.9669
13.2635 5.9763 -2.8152 0.9425
12.6849 7.1364 -2.8166 0.9424
11.2318 9.2833 -2.8199 0.9424
9.4217 11.1441 -2.8240 0.9423
6.1590 13.2724 -2.8315 0.9421
4.9581 13.7814 -2.8343 0.9421
2.4411 14.4716 -2.8401 0.9420
1.1445 14.6468 -2.8431 0.9419
-4.3023 7.0826 -1.6037 0.9668
13.5138 5.3784 -2.8147 0.9425
12.9870 6.5626 -2.8159 0.9424
10.8108 9.7778 -2.8208 0.9423
8.9196 11.5574 -2.8252 0.9423
7.8623 12.3160 -2.8276 0.9422
6.7410 12.9787 -2.8302 0.9422
5.5644 13.5401 -2.8329 0.9421
4.3415 13.9955 -2.8357 0.9420
3.0817 14.3410 -2.8386 0.9420
-14.3792 0.0000 -3.0314 0.9429
-14.3216 -1.2798 -3.0313 0.9429
-14.1491 -2.5491 -3.0309 0.9429
-13.4661 -5.0148 -3.0294 0.9430
-12.9614 -6.1911 -3.0282 0.9430
-10.8479 -9.3805 -3.0234 0.9431
-7.9667 -11.8871 -3.0168 0.9432
-6.8713 -12.5386 -3.0143 0.9432
-5.7230 -13.0889 -3.0117 0.9433
-3.3055 -13.8706 -3.0061 0.9434
0.4751 -14.2098 -2.9974 0.9435
2.9813 -13.8736 -2.9916 0.9436
5.3839 -13.1009 -2.9861 0.9437
6.5228 -12.5586 -2.9834 0.9438
7.6083 -11.9182 -2.9809 0.9438
8.6320 -11.1848 -2.9785 0.9439
11.2572 -8.4894 -2.9725 0.9440
13.0814 -5.2062 -2.9682 0.9441
13.4885 -4.0200 -2.9673 0.9441
13.9821 -1.5641 -2.9661 0.9441
14.0648 -0.3134 -2.9659 0.9441
14.0371 0.9397 -2.9659 0.9441
13.8992 2.1855 -2.9662 0.9441
13.6520 3.4146 -2.9668 0.9441
12.1857 5.4906 -2.8177 0.9468
11.6537 6.5563 -2.8189 0.9468
10.3178 8.5279 -2.8220 0.9467
9.5239 9.4184 -2.8238 0.9467
8.6539 10.2360 -2.8258 0.9467
6.7125 11.6265 -2.8303 0.9466
5.6559 12.1882 -2.8327 0.9466
3.4115 13.0216 -2.8379 0.9465
1.0507 13.4459 -2.8433 0.9464
-0.1504 13.4991 -2.8461 0.9463
-1.3526 13.4453 -2.8488 0.9463
-4.8705 12.6461 -2.8569 0.9461
-8.0593 10.9382 -2.8643 0.9460
-11.4006 7.4580 -2.8721 0.9458
-12.5540 5.3234 -2.8748 0.9458
-14.2494 1.9164 -3.0311 0.9429
-14.3648 -0.6405 -3.0314 0.9429
-14.0202 -3.1766 -3.0306 0.9429
-13.6783 -4.4107 -3.0299 0.9429
-12.6700 -6.7609 -3.0276 0.9430
-11.2585 -8.8907 -3.0244 0.9430
-8.4917 -11.5251 -3.0180 0.9432
-7.4262 -12.2252 -3.0156 0.9432
-3.9220 -13.7161 -3.0075 0.9434
1.1071 -14.1677 -2.9959 0.9436
2.3614 -13.9993 -2.9930 0.9436
3.5946 -13.7205 -2.9902 0.9437
5.9595 -12.8423 -2.9847 0.9438
7.0727 -12.2503 -2.9821 0.9438
8.1284 -11.5628 -2.9797 0.9439
9.1182 -10.7851 -2.9774 0.9439
10.0348 -9.9236 -2.9753 0.9439
11.6209 -7.9773 -2.9716 0.9440
12.8390 -5.7849 -2.9688 0.9441
13.2981 -4.6176 -2.9677 0.9441
13.6524 -3.4147 -2.9669 0.9441
13.8995 -2.1856 -2.9663 0.9441
14.0648 0.3135 -2.9659 0.9441
13.9819 1.5641 -2.9660 0.9441
13.7892 2.8028 -2.9665 0.9441
11.9315 6.0293 -2.8183 0.9468
10.6842 8.0574 -2.8212 0.9468
9.0981 9.8367 -2.8248 0.9467
7.2208 11.3112 -2.8291 0.9466
6.1906 11.9190 -2.8315 0.9466
5.1096 12.4336 -2.8339 0.9465
3.9863 12.8507 -2.8365 0.9465
2.8294 13.1668 -2.8392 0.9464
0.4509 13.4859 -2.8447 0.9463
-0.7519 13.4856 -2.8474 0.9463
-1.9511 13.3781 -2.8502 0.9462
-5.4315 12.4222 -2.8582 0.9461
-8.5419 10.5724 -2.8654 0.9460
-9.4559 9.7774 -2.8676 0.9459
-10.2956 8.9030 -2.8695 0.9459
-12.9145 4.8095 -2.9053 0.9452
-13.8626 3.7974 -3.0302 0.9429
-13.2704 0.0000 -3.0289 0.9470
-12.7944 -3.5047 -3.0278 0.9470
-11.4019 -6.7534 -3.0247 0.9471
-10.0134 -8.6589 -3.0215 0.9471
-6.3442 -11.5767 -3.0131 0.9473
-4.1842 -12.4975 -3.0081 0.9474
-3.0526 -12.8092 -3.0055 0.9474
-0.7318 -13.1241 -3.0001 0.9475
1.6039 -13.0225 -2.9948 0.9476
6.0271 -11.6043 -2.9846 0.9478
9.6706 -8.7465 -2.9761 0.9479
10.4047 -7.8465 -2.9744 0.9479
12.0921 -4.8125 -2.9705 0.9480
12.4687 -3.7161 -2.9696 0.9480
12.7471 -2.5909 -2.9689 0.9480
13.0019 -0.2897 -2.9683 0.9480
12.8486 2.0204 -2.9686 0.9480
12.6200 3.1565 -2.9692 0.9480
10.7719 6.0602 -2.8210 0.9506
10.1945 6.9981 -2.8223 0.9505
8.8021 8.7046 -2.8255 0.9505
6.2027 10.7434 -2.8314 0.9504
5.2260 11.2618 -2.8337 0.9503
3.1518 12.0302 -2.8385 0.9503
-0.1389 12.4686 -2.8460 0.9501
-1.2492 12.4179 -2.8486 0.9501
-2.3516 12.2684 -2.8511 0.9500
-3.4373 12.0209 -2.8537 0.9500
-4.4974 11.6773 -2.8561 0.9500
-4.3016 7.0813 -1.8911 0.9666
-7.4404 10.0982 -2.8629 0.9498
-8.3155 9.4025 -2.8649 0.9498
-9.1253 8.6307 -2.8668 0.9498
-9.8632 7.7889 -2.8685 0.9497
-11.0990 5.9227 -2.8714 0.9497
-12.6235 4.0706 -3.0273 0.9470
-12.9389 2.9316 -3.0281 0.9470
-13.1507 1.7686 -3.0286 0.9470
-13.2570 0.5912 -3.0288 0.9470
-12.9392 -2.9316 -3.0281 0.9470
-12.6240 -4.0707 -3.0274 0.9470
-11.0871 -7.2529 -3.0239 0.9471
-9.6148 -9.0936 -3.0206 0.9472
-8.7616 -9.9068 -3.0186 0.9472
-7.8395 -10.6399 -3.0165 0.9472
-6.8563 -11.2870 -3.0142 0.9473
-2.4779 -12.9268 -3.0042 0.9474
-0.1464 -13.1378 -2.9988 0.9475
3.3209 -12.6757 -2.9908 0.9477
5.5064 -11.8661 -2.9858 0.9477
7.5114 -10.6851 -2.9811 0.9478
8.4266 -9.9671 -2.9790 0.9479
9.2742 -9.1714 -2.9770 0.9479
10.0476 -8.3046 -2.9752 0.9479
10.7411 -7.3733 -2.9736 0.9480
11.3493 -6.3850 -2.9722 0.9480
12.2925 -4.2684 -2.9700 0.9480
12.8489 -2.0203 -2.9687 0.9480
12.9763 -0.8686 -2.9684 0.9480
13.0018 0.2898 -2.9683 0.9480
12.9251 1.4459 -2.9685 0.9480
12.7468 2.5909 -2.9689 0.9480
12.4683 3.7160 -2.9695 0.9480
10.4936 6.5354 -2.8216 0.9505
8.4083 9.0910 -2.8264 0.9505
4.7211 11.4881 -2.8349 0.9503
2.6139 12.1639 -2.8397 0.9502
1.5222 12.3592 -2.8422 0.9502
-2.8971 12.1568 -2.8524 0.9500
-3.9711 11.8610 -2.8549 0.9500
-6.0211 10.9872 -2.8596 0.9499
-7.8857 9.7602 -2.8639 0.9498
-11.3542 5.4235 -2.8720 0.9497
-12.7940 3.5047 -3.0277 0.9470
-13.0579 2.3525 -3.0284 0.9470
-13.2171 1.1811 -3.0287 0.9470
-12.2643 -1.0959 -3.0266 0.9505
-11.8722 -3.2521 -3.0257 0.9506
-11.5327 -4.2948 -3.0249 0.9506
-11.1011 -5.3025 -3.0239 0.9506
-10.5809 -6.2671 -3.0228 0.9506
-9.2930 -8.0360 -3.0198 0.9507
-8.5360 -8.8262 -3.0181 0.9507
-7.7117 -9.5449 -3.0162 0.9507
-1.7629 -12.0874 -3.0025 0.9509
-0.6795 -12.1862 -3.0000 0.9510
1.4894 -12.0934 -2.9950 0.9510
6.5309 -10.2305 -2.9834 0.9512
8.9846 -8.1261 -2.9777 0.9513
10.2727 -6.3979 -2.9747 0.9514
10.7969 -5.4559 -2.9735 0.9514
11.8449 -2.4076 -2.9710 0.9514
12.0818 -0.2692 -2.9704 0.9514
12.0580 0.8072 -2.9705 0.9514
11.4218 3.9661 -2.9719 0.9514
10.5112 4.7359 -2.8337 0.9536
9.4719 6.5021 -2.8240 0.9538
6.6225 9.4207 -2.8305 0.9537
5.7618 9.9797 -2.8325 0.9536
4.8542 10.4606 -2.8346 0.9536
0.9013 11.5339 -2.8437 0.9535
-3.1911 11.1602 -2.8531 0.9533
-6.9060 9.3729 -2.8617 0.9532
-8.4691 8.0101 -2.8653 0.9531
-9.1535 7.2285 -2.8669 0.9531
-10.2997 5.4961 -2.8696 0.9531
-12.0062 2.7203 -3.0259 0.9506
-12.3012 0.5485 -3.0266 0.9505
-12.3012 -0.5485 -3.0266 0.9505
-12.2027 -1.6411 -3.0264 0.9505
-11.7142 -3.7773 -3.0253 0.9506
-11.3282 -4.8036 -3.0245 0.9506
-10.8518 -5.7907 -3.0234 0.9506
-9.6444 -7.6160 -3.0206 0.9506
-8.1318 -9.1948 -3.0172 0.9507
-7.2764 -9.8756 -3.0152 0.9507
-6.3642 -10.4768 -3.0131 0.9508
-5.4024 -10.9936 -3.0109 0.9508
-4.3991 -11.4221 -3.0086 0.9508
-1.2222 -12.1489 -3.0013 0.9509
2.0259 -12.0101 -2.9938 0.9511
3.0843 -11.7725 -2.9913 0.9511
4.1165 -11.4421 -2.9890 0.9511
5.1147 -11.0218 -2.9866 0.9512
9.3351 -7.7156 -2.9769 0.9513
9.9798 -6.8507 -2.9754 0.9514
12.0581 -0.8072 -2.9705 0.9514
12.0105 1.3436 -2.9706 0.9514
10.2476 5.1784 -2.8222 0.9538
9.7500 6.0724 -2.8233 0.9538
8.5273 7.7125 -2.8261 0.9537
7.8115 8.4458 -2.8278 0.9537
5.3134 10.2301 -2.8335 0.9536
4.3851 10.6705 -2.8356 0.9536
3.4206 11.0271 -2.8379 0.9536
2.4275 11.2969 -2.8401 0.9535
-5.5891 10.1989 -2.8586 0.9532
-7.3191 9.0590 -2.8626 0.9532
-8.1015 8.3769 -2.8644 0.9531
-9.4688 6.8153 -2.8676 0.9531
-11.8719 3.2521 -3.0256 0.9506
-12.1165 2.1829 -3.0262 0.9506
-11.4791 0.0000 -3.0247 0.9536
-11.2957 -2.0350 -3.0243 0.9536
-11.0679 -3.0318 -3.0238 0.9536
-10.3494 -4.9435 -3.0222 0.9537
-9.8647 -5.8429 -3.0211 0.9537
-9.3016 -6.6948 -3.0198 0.9537
-8.6646 -7.4926 -3.0184 0.9537
-4.5748 -10.4628 -3.0090 0.9539
0.3801 -11.3696 -2.9976 0.9540
1.3895 -11.2818 -2.9952 0.9541
4.3110 -10.4902 -2.9885 0.9542
6.0943 -9.5465 -2.9844 0.9542
7.6809 -8.3044 -2.9807 0.9543
10.0773 -5.0922 -2.9751 0.9544
10.8142 -3.2230 -2.9734 0.9544
11.2773 -0.2513 -2.9723 0.9544
10.6608 3.7019 -2.9737 0.9544
9.3415 5.2555 -2.8243 0.9566
8.8402 6.0685 -2.8254 0.9566
8.2688 6.8344 -2.8267 0.9566
7.6317 7.5472 -2.8282 0.9566
6.1799 8.7910 -2.8315 0.9565
4.5293 9.7605 -2.8353 0.9565
3.6453 10.1322 -2.8374 0.9564
2.7310 10.4241 -2.8395 0.9564
-0.1203 10.8002 -2.8460 0.9563
-2.0365 10.6242 -2.8504 0.9562
-2.9763 10.4087 -2.8526 0.9562
-3.8938 10.1100 -2.8547 0.9562
-4.2790 7.0442 -2.1718 0.9665
-7.8966 7.4686 -2.8640 0.9560
-8.5344 6.7396 -2.8655 0.9560
-9.1046 5.9560 -2.8668 0.9560
-9.6024 5.1240 -2.8680 0.9560
-11.3757 1.5299 -3.0245 0.9536
-11.4676 -0.5113 -3.0247 0.9536
-11.1930 -2.5360 -3.0241 0.9536
-8.9920 -7.1009 -3.0191 0.9537
-8.3201 -7.8690 -3.0176 0.9537
-6.7851 -9.2088 -3.0140 0.9538
-5.9347 -9.7698 -3.0121 0.9538
-2.1458 -11.1942 -3.0034 0.9539
-0.1268 -11.3797 -2.9987 0.9540
0.8859 -11.3369 -2.9964 0.9541
1.8900 -11.2044 -2.9941 0.9541
3.8408 -10.6757 -2.9896 0.9542
4.7723 -10.2841 -2.9874 0.9542
7.3054 -8.6409 -2.9816 0.9543
8.7122 -7.2008 -2.9783 0.9543
9.3142 -6.3938 -2.9769 0.9543
10.2924 -4.6375 -2.9746 0.9544
11.2551 -0.7534 -2.9724 0.9544
11.2772 0.2513 -2.9723 0.9544
11.2106 1.2541 -2.9724 0.9544
11.0558 2.2472 -2.9728 0.9544
10.8139 3.2229 -2.9733 0.9544
10.4867 4.1737 -2.9741 0.9544
9.0999 5.6675 -2.8248 0.9566
7.9582 7.1978 -2.8275 0.9566
7.2899 7.8818 -2.8290 0.9566
5.7840 9.0605 -2.8324 0.9565
2.2648 10.5394 -2.8405 0.9564
1.3187 10.7074 -2.8427 0.9564
0.3608 10.7906 -2.8449 0.9563
-0.6015 10.7883 -2.8471 0.9563
-1.5606 10.7003 -2.8493 0.9563
-3.4383 10.2696 -2.8537 0.9562
-4.3418 9.9301 -2.8558 0.9562
-6.0420 9.0153 -2.8597 0.9561
-6.8248 8.4471 -2.8615 0.9561
-7.5540 7.8108 -2.8632 0.9560
-8.2236 7.1113 -2.8647 0.9560
-8.8283 6.3542 -2.8661 0.9560
-9.3628 5.5456 -2.8674 0.9560
-10.0359 4.7938 -2.9307 0.9550
-11.0676 3.0318 -3.0238 0.9536
-11.2956 2.0350 -3.0243 0.9536
-10.7446 0.0000 -3.0231 0.9563
-10.7016 -0.9563 -3.0230 0.9563
-10.5730 -1.9048 -3.0227 0.9563
-10.3599 -2.8378 -3.0222 0.9563
-10.0640 -3.7479 -3.0215 0.9564
-9.6877 -4.6274 -3.0207 0.9564
-8.7073 -6.2671 -3.0184 0.9564
-8.1113 -7.0141 -3.0171 0.9564
-7.4510 -7.7043 -3.0156 0.9564
-6.7321 -8.3324 -3.0139 0.9565
-0.5936 -10.6454 -2.9998 0.9567
0.3560 -10.6482 -2.9976 0.9567
1.3014 -10.5665 -2.9954 0.9567
2.2351 -10.4013 -2.9933 0.9568
3.1498 -10.1539 -2.9912 0.9568
4.0383 -9.8265 -2.9891 0.9568
5.7092 -8.9432 -2.9852 0.9569
7.1961 -7.7803 -2.9818 0.9569
7.8560 -7.1053 -2.9803 0.9569
8.4533 -6.3749 -2.9789 0.9570
8.9834 -5.5949 -2.9777 0.9570
9.4423 -4.7714 -2.9766 0.9570
9.8266 -3.9109 -2.9757 0.9570
10.1332 -3.0200 -2.9750 0.9570
10.3599 -2.1057 -2.9744 0.9570
10.5050 -1.1752 -2.9741 0.9570
10.5674 -0.2354 -2.9739 0.9570
10.5465 0.7060 -2.9740 0.9570
10.4426 1.6420 -2.9742 0.9570
9.9895 3.4688 -2.9752 0.9570
9.6436 4.3453 -2.9760 0.9570
6.4959 7.6834 -2.8308 0.9591
4.2429 9.1432 -2.8360 0.9590
2.5580 9.7640 -2.8399 0.9589
1.6800 9.9600 -2.8419 0.9589
0.7874 10.0773 -2.8439 0.9589
-0.1127 10.1147 -2.8460 0.9588
-2.7870 9.7467 -2.8522 0.9588
-6.0290 8.1827 -2.8597 0.9586
-7.9893 6.3091 -2.8642 0.9586
-8.5228 5.5754 -2.8655 0.9586
-9.0093 4.8076 -2.8732 0.9585
-9.8853 4.1918 -3.0210 0.9564
-10.2218 3.2962 -3.0218 0.9564
-10.6478 1.4320 -3.0228 0.9563
-10.6480 -1.4320 -3.0228 0.9563
-10.4769 -2.3737 -3.0225 0.9563
-9.4704 -5.0535 -3.0202 0.9564
-8.4176 -6.6473 -3.0178 0.9564
-7.7888 -7.3666 -3.0163 0.9564
-5.5564 -9.1471 -3.0112 0.9565
-4.7172 -9.5992 -3.0093 0.9565
-3.8415 -9.9743 -3.0073 0.9566
-2.9365 -10.2695 -3.0052 0.9566
-2.0094 -10.4826 -3.0031 0.9566
-1.0676 -10.6122 -3.0009 0.9566
-0.1187 -10.6574 -2.9987 0.9567
3.5977 -10.0000 -2.9901 0.9568
4.4705 -9.6337 -2.9881 0.9568
6.1000 -8.6774 -2.9843 0.9569
6.8442 -8.0954 -2.9826 0.9569
8.7270 -5.9907 -2.9783 0.9570
9.2220 -5.1882 -2.9771 0.9570
9.6440 -4.3454 -2.9761 0.9570
9.9898 -3.4688 -2.9753 0.9570
10.2567 -2.5654 -2.9747 0.9570
10.4428 -1.6421 -2.9742 0.9570
10.5466 -0.7060 -2.9740 0.9570
10.5674 0.2355 -2.9739 0.9570
10.5049 1.1752 -2.9741 0.9570
10.3598 2.1057 -2.9744 0.9570
10.1330 3.0200 -2.9749 0.9570
9.8263 3.9108 -2.9756 0.9570
7.4562 6.7438 -2.8286 0.9591
6.8298 7.3844 -2.8300 0.9591
6.1489 7.9674 -2.8316 0.9590
5.4186 8.4880 -2.8333 0.9590
3.8327 9.3263 -2.8369 0.9590
2.1213 9.8717 -2.8409 0.9589
1.2351 10.0286 -2.8429 0.9589
-1.4614 10.0204 -2.8491 0.9588
-3.2195 9.6162 -2.8532 0.9587
-4.0654 9.2979 -2.8551 0.9587
-4.0489 7.3884 -2.3704 0.9656
-8.2642 5.9483 -2.8649 0.9586
-9.6873 4.6273 -3.0206 0.9564
-10.0636 3.7478 -3.0214 0.9564
-10.3596 2.8378 -3.0221 0.9563
-10.5729 1.9048 -3.0226 0.9563
-10.0524 -0.8983 -3.0215 0.9587
-7.6201 -6.5893 -3.0159 0.9588
-5.5998 -8.3555 -3.0113 0.9589
-4.0248 -9.2049 -3.0077 0.9589
-3.1875 -9.5205 -3.0058 0.9589
-2.3259 -9.7600 -3.0038 0.9590
-1.4470 -9.9216 -3.0018 0.9590
0.3346 -10.0072 -2.9976 0.9591
2.1007 -9.7761 -2.9936 0.9591
5.3669 -8.4070 -2.9860 0.9592
6.0904 -7.8915 -2.9844 0.9592
6.7651 -7.3143 -2.9828 0.9593
7.3857 -6.6799 -2.9814 0.9593
7.9474 -5.9934 -2.9801 0.9593
8.4461 -5.2602 -2.9789 0.9593
8.8777 -4.4861 -2.9779 0.9593
9.2392 -3.6771 -2.9770 0.9593
9.7409 -1.9799 -2.9759 0.9593
9.8774 -1.1049 -2.9755 0.9593
9.9360 -0.2214 -2.9754 0.9594
9.9164 0.6638 -2.9754 0.9594
9.8187 1.5439 -2.9756 0.9593
9.3924 3.2614 -2.9766 0.9593
8.4096 4.7312 -2.8888 0.9605
7.7875 5.3458 -2.8279 0.9613
7.2837 6.0202 -2.8290 0.9613
6.7220 6.6476 -2.8303 0.9613
4.7346 8.2005 -2.8349 0.9612
2.4043 9.1774 -2.8402 0.9612
0.7401 9.4710 -2.8441 0.9611
-1.7921 9.3491 -2.8499 0.9610
-2.6188 9.1587 -2.8518 0.9610
-3.4258 8.8950 -2.8537 0.9610
-4.2066 8.5602 -2.8555 0.9610
-4.2453 6.9888 -2.4481 0.9664
-5.6644 7.6878 -2.8588 0.9609
-6.9449 6.5685 -2.8618 0.9609
-8.0064 5.2376 -2.8643 0.9608
-9.2859 3.9376 -3.0196 0.9588
-10.0019 1.3452 -3.0213 0.9587
-10.0826 0.4496 -3.0215 0.9587
-10.0826 -0.4496 -3.0215 0.9587
-10.0020 -1.3451 -3.0214 0.9587
-9.2863 -3.9377 -3.0197 0.9588
-7.9077 -6.2447 -3.0166 0.9588
-6.6690 -7.5407 -3.0138 0.9588
-2.7593 -9.6499 -3.0048 0.9590
-0.1116 -10.0156 -2.9987 0.9590
3.3817 -9.3995 -2.9906 0.9591
5.7344 -8.1573 -2.9852 0.9592
8.2049 -5.6323 -2.9795 0.9593
8.6705 -4.8779 -2.9784 0.9593
9.0674 -4.0855 -2.9774 0.9593
9.9360 0.2214 -2.9754 0.9594
8.0164 4.9927 -2.8273 0.9613
7.0099 6.3401 -2.8296 0.9613
5.7804 7.4900 -2.8325 0.9613
5.0937 7.9792 -2.8340 0.9612
3.6026 8.7664 -2.8375 0.9612
2.8099 9.0581 -2.8393 0.9612
0.3175 9.4978 -2.8450 0.9611
-1.3734 9.4165 -2.8489 0.9610
-3.0252 9.0359 -2.8527 0.9610
-4.0302 7.3542 -2.5106 0.9656
-5.3148 7.9303 -2.8580 0.9609
-6.6438 6.8697 -2.8611 0.9609
-9.1000 4.3467 -3.0192 0.9588
-9.4534 3.5205 -3.0200 0.9588
-10.0523 0.8983 -3.0214 0.9587
-9.4719 -0.8463 -3.0201 0.9609
-9.1698 -2.5118 -3.0195 0.9609
-8.9080 -3.3173 -3.0189 0.9609
-8.5753 -4.0960 -3.0181 0.9609
-7.7081 -5.5479 -3.0161 0.9609
-7.1808 -6.2095 -3.0149 0.9609
-6.5967 -6.8210 -3.0136 0.9610
-3.7934 -8.6757 -3.0071 0.9610
-2.1924 -9.1996 -3.0035 0.9611
-1.3640 -9.3522 -3.0016 0.9611
0.3154 -9.4337 -2.9977 0.9612
1.1531 -9.3622 -2.9958 0.9612
2.7912 -8.9980 -2.9920 0.9612
3.5788 -8.7086 -2.9902 0.9613
4.3372 -8.3506 -2.9884 0.9613
5.0604 -7.9270 -2.9867 0.9613
5.7428 -7.4412 -2.9852 0.9613
6.9646 -6.2991 -2.9823 0.9614
8.3721 -4.2306 -2.9790 0.9614
9.3153 -1.0421 -2.9768 0.9614
9.3706 -0.2088 -2.9767 0.9614
9.2599 1.4561 -2.9769 0.9614
9.0947 2.2748 -2.9773 0.9614
8.8577 3.0757 -2.9778 0.9614
8.1763 4.5999 -2.9794 0.9614
7.3437 5.0412 -2.8289 0.9633
6.8685 5.6771 -2.8300 0.9633
6.3387 6.2685 -2.8312 0.9633
5.1319 7.3002 -2.8340 0.9632
4.4642 7.7322 -2.8355 0.9632
3.7604 8.1034 -2.8371 0.9632
3.0260 8.4110 -2.8388 0.9632
1.4886 8.8252 -2.8423 0.9631
-0.0998 8.9609 -2.8460 0.9631
-0.8976 8.9222 -2.8478 0.9631
-1.6892 8.8125 -2.8497 0.9630
-2.4684 8.6327 -2.8515 0.9630
-3.2290 8.3838 -2.8532 0.9630
-3.9647 8.0680 -2.8549 0.9630
-4.2340 6.9701 -2.5900 0.9664
-5.9650 6.7448 -2.8595 0.9629
-7.0727 5.5853 -2.8621 0.9629
-7.5446 4.9355 -2.8632 0.9629
-8.7501 3.7104 -3.0184 0.9609
-9.0477 2.9175 -3.0191 0.9609
-9.2731 2.1010 -3.0196 0.9609
-9.5004 -0.4236 -3.0202 0.9609
-9.4245 -1.2675 -3.0200 0.9609
-9.2733 -2.1011 -3.0197 0.9609
-9.0479 -2.9176 -3.0192 0.9609
-7.9490 -5.2000 -3.0167 0.9609
-7.4519 -5.8846 -3.0155 0.9609
-6.8956 -6.5218 -3.0143 0.9609
-4.1773 -8.5006 -3.0080 0.9610
-2.6008 -9.0956 -3.0044 0.9611
0.7351 -9.4073 -2.9967 0.9612
1.5685 -9.2986 -2.9948 0.9612
2.3884 -9.1163 -2.9929 0.9612
3.1883 -8.8621 -2.9911 0.9612
3.9621 -8.5380 -2.9893 0.9613
6.0671 -7.1761 -2.9844 0.9613
6.6785 -6.6045 -2.9830 0.9613
7.2367 -5.9813 -2.9817 0.9614
7.7374 -5.3114 -2.9805 0.9614
8.1766 -4.6000 -2.9795 0.9614
8.5511 -3.8529 -2.9786 0.9614
8.8579 -3.0758 -2.9779 0.9614
9.2600 -1.4561 -2.9770 0.9614
9.3706 0.2088 -2.9767 0.9614
9.1863 1.8672 -2.9771 0.9614
8.9850 2.6779 -2.9775 0.9614
7.6134 4.7417 -2.8485 0.9631
6.6102 5.9786 -2.8306 0.9633
5.4506 7.0625 -2.8332 0.9633
4.1164 7.9256 -2.8363 0.9632
3.3967 8.2654 -2.8379 0.9632
-0.4991 8.9504 -2.8469 0.9631
-1.2946 8.8762 -2.8488 0.9631
-2.0808 8.7313 -2.8506 0.9630
-2.8514 8.5168 -2.8523 0.9630
-3.6003 8.2342 -2.8541 0.9630
-4.0115 7.3200 -2.6509 0.9656
-5.0089 7.4738 -2.8573 0.9629
-5.6572 7.0021 -2.8588 0.9629
-6.2610 6.4739 -2.8602 0.9629
-8.0661 4.7776 -2.9773 0.9614
-9.1695 2.5118 -3.0194 0.9609
-9.4719 0.8464 -3.0201 0.9609
-8.8423 -1.5930 -3.0187 0.9628
-8.1028 -3.8704 -3.0170 0.9628
-7.7239 -4.5749 -3.0162 0.9628
-7.2836 -5.2424 -3.0151 0.9628
-6.2338 -6.4457 -3.0127 0.9629
-5.6327 -6.9717 -3.0114 0.9629
-4.9874 -7.4417 -3.0099 0.9629
-4.3030 -7.8520 -3.0083 0.9629
-3.5851 -8.1993 -3.0067 0.9629
-2.8395 -8.4810 -3.0049 0.9630
-0.4970 -8.9138 -2.9996 0.9630
1.0900 -8.8499 -2.9959 0.9631
1.8722 -8.7125 -2.9941 0.9631
2.6387 -8.5063 -2.9923 0.9631
4.1004 -7.8947 -2.9889 0.9632
4.7843 -7.4945 -2.9874 0.9632
6.0315 -6.5212 -2.9845 0.9632
6.5851 -5.9559 -2.9832 0.9632
7.0863 -5.3440 -2.9820 0.9632
7.5313 -4.6905 -2.9810 0.9633
7.9165 -4.0004 -2.9801 0.9633
8.2390 -3.2790 -2.9793 0.9633
8.8086 -0.9854 -2.9780 0.9633
8.8610 -0.1974 -2.9779 0.9633
8.7562 1.3769 -2.9781 0.9633
8.6000 2.1510 -2.9784 0.9633
8.3758 2.9084 -2.9789 0.9633
8.0855 3.6432 -2.9796 0.9633
6.4944 5.3678 -2.8308 0.9651
5.4444 6.4397 -2.8333 0.9650
4.2206 7.3103 -2.8361 0.9650
3.5551 7.6610 -2.8376 0.9650
2.1429 8.1793 -2.8408 0.9649
0.6595 8.4398 -2.8443 0.9649
-0.0944 8.4702 -2.8460 0.9649
-0.8484 8.4333 -2.8477 0.9649
-2.3330 8.1591 -2.8512 0.9648
-3.7470 7.6249 -2.8544 0.9648
-4.2226 6.9514 -2.7327 0.9663
-5.0448 6.8469 -2.8574 0.9647
-5.6369 6.3738 -2.8588 0.9647
-6.6833 5.2778 -2.8612 0.9647
-7.3108 4.7825 -2.9352 0.9638
-7.9209 4.2268 -3.0165 0.9628
-8.7619 1.9852 -3.0185 0.9628
-8.9766 0.4003 -3.0190 0.9628
-8.9766 -0.4002 -3.0190 0.9628
-8.7621 -1.9852 -3.0185 0.9628
-8.2682 -3.5060 -3.0174 0.9628
-7.9212 -4.2269 -3.0166 0.9628
-7.0416 -5.5607 -3.0146 0.9628
-6.5161 -6.1629 -3.0134 0.9629
-5.9391 -6.7154 -3.0121 0.9629
-5.3153 -7.2140 -3.0106 0.9629
-4.6498 -7.6546 -3.0091 0.9629
-3.2154 -8.3485 -3.0058 0.9630
-2.4581 -8.5966 -3.0041 0.9630
-1.6822 -8.7760 -3.0023 0.9630
0.6949 -8.8924 -2.9968 0.9631
3.0141 -8.3779 -2.9915 0.9631
3.7457 -8.0718 -2.9898 0.9631
4.4469 -7.7022 -2.9881 0.9632
6.3146 -6.2446 -2.9838 0.9632
6.8425 -5.6555 -2.9826 0.9632
7.3161 -5.0222 -2.9815 0.9632
7.7315 -4.3496 -2.9805 0.9633
8.6001 -2.1510 -2.9785 0.9633
8.7564 -1.3768 -2.9781 0.9633
8.8435 -0.5920 -2.9779 0.9633
8.8610 0.1975 -2.9779 0.9633
8.6867 1.7657 -2.9782 0.9633
8.4963 2.5322 -2.9787 0.9633
7.9162 4.0002 -2.9800 0.9633
6.7258 5.0722 -2.8303 0.9651
6.2501 5.6529 -2.8314 0.9651
5.1534 6.6774 -2.8339 0.9650
4.5408 7.1131 -2.8353 0.9650
3.8918 7.4930 -2.8368 0.9650
3.2112 7.8140 -2.8384 0.9650
2.5044 8.0734 -2.8400 0.9650
1.0345 8.3995 -2.8434 0.9649
-1.2236 8.3896 -2.8486 0.9649
-2.6949 8.0494 -2.8520 0.9648
-3.9928 7.2859 -2.7914 0.9655
-6.9131 4.9758 -2.8618 0.9647
-7.7236 4.5747 -3.0160 0.9628
-8.5111 0.0001 -3.0179 0.9645
-8.3754 -1.5089 -3.0176 0.9645
-7.3164 -4.3335 -3.0152 0.9646
-6.8995 -4.9659 -3.0143 0.9646
-6.4278 -5.5583 -3.0132 0.9646
-4.7248 -7.0498 -3.0093 0.9646
-3.3965 -7.7680 -3.0062 0.9647
-2.6902 -8.0351 -3.0046 0.9647
-0.4709 -8.4460 -2.9995 0.9647
1.7741 -8.2560 -2.9943 0.9648
3.2063 -7.8021 -2.9910 0.9648
3.8859 -7.4818 -2.9894 0.9649
4.5342 -7.1026 -2.9879 0.9649
5.1459 -6.6677 -2.9865 0.9649
6.2413 -5.6449 -2.9840 0.9649
7.1383 -4.4458 -2.9819 0.9649
8.0534 -2.4002 -2.9798 0.9650
8.2339 -1.6736 -2.9793 0.9650
8.2998 1.3051 -2.9791 0.9650
8.1516 2.0389 -2.9795 0.9650
7.3279 4.1226 -2.9813 0.9649
5.6803 5.6174 -2.8327 0.9667
3.9998 6.9279 -2.8366 0.9666
2.0306 7.7509 -2.8411 0.9666
0.6249 7.9972 -2.8443 0.9665
-0.0894 8.0257 -2.8460 0.9665
-0.8038 7.9906 -2.8476 0.9665
-2.8912 7.5070 -2.8525 0.9664
-3.5498 7.2237 -2.8540 0.9664
-4.7791 6.4863 -2.8568 0.9664
-5.3399 6.0379 -2.8581 0.9664
-7.1147 4.6542 -3.0146 0.9646
-8.2993 1.8804 -3.0174 0.9645
-8.5025 0.3792 -3.0179 0.9645
-8.5026 -0.3791 -3.0179 0.9645
-8.4347 -1.1343 -3.0177 0.9645
-7.8318 -3.3209 -3.0164 0.9645
-7.5032 -4.0038 -3.0156 0.9645
-6.6702 -5.2674 -3.0137 0.9646
-6.1726 -5.8380 -3.0126 0.9646
-5.6261 -6.3616 -3.0113 0.9646
-5.0353 -6.8340 -3.0100 0.9646
-4.4050 -7.2515 -3.0085 0.9646
-2.3289 -8.1447 -3.0038 0.9647
-0.8470 -8.4190 -3.0004 0.9647
0.6584 -8.4260 -2.9969 0.9648
1.4050 -8.3292 -2.9952 0.9648
3.5497 -7.6494 -2.9902 0.9648
5.4366 -6.4304 -2.9858 0.9649
6.9342 -4.7601 -2.9824 0.9649
7.3281 -4.1227 -2.9815 0.9649
7.6640 -3.4532 -2.9807 0.9650
7.9392 -2.7568 -2.9800 0.9650
8.1517 -2.0389 -2.9795 0.9650
8.3825 -0.5611 -2.9790 0.9650
8.3991 0.1872 -2.9789 0.9650
8.3493 0.9340 -2.9790 0.9650
8.2338 1.6736 -2.9793 0.9650
8.0533 2.4002 -2.9797 0.9650
7.8091 3.1080 -2.9802 0.9650
7.1380 4.4456 -2.9818 0.9649
6.3748 4.8075 -2.8311 0.9667
5.4256 5.8661 -2.8333 0.9667
4.8841 6.3285 -2.8345 0.9666
4.3034 6.7413 -2.8359 0.9666
3.0431 7.4050 -2.8388 0.9666
2.3732 7.6506 -2.8403 0.9666
1.6838 7.8358 -2.8419 0.9666
-0.4470 8.0161 -2.8468 0.9665
-1.1593 7.9491 -2.8485 0.9665
-5.6047 5.7953 -2.8587 0.9664
-6.6489 4.7856 -2.9048 0.9658
-7.6749 3.6660 -3.0159 0.9645
-7.9726 2.9690 -3.0166 0.9645
-8.2067 2.2481 -3.0172 0.9645
-8.4770 0.7575 -3.0178 0.9645
-8.0471 -0.7191 -3.0168 0.9661
-7.9506 -1.4323 -3.0166 0.9661
-4.4858 -6.6932 -3.0087 0.9662
-2.5543 -7.6292 -3.0043 0.9662
-0.4472 -8.0201 -2.9994 0.9663
0.2683 -8.0236 -2.9978 0.9663
1.6848 -7.8403 -2.9945 0.9663
3.6906 -7.1056 -2.9899 0.9664
4.3063 -6.7457 -2.9885 0.9664
5.4294 -5.8702 -2.9859 0.9664
5.9281 -5.3616 -2.9847 0.9664
6.3795 -4.8110 -2.9836 0.9665
7.1273 -3.6016 -2.9819 0.9665
7.8213 -1.5897 -2.9803 0.9665
7.9311 -0.8872 -2.9800 0.9665
7.9782 -0.1777 -2.9799 0.9665
7.8839 1.2397 -2.9801 0.9665
7.7431 1.9367 -2.9804 0.9665
7.5411 2.6186 -2.9809 0.9665
7.2796 3.2801 -2.9815 0.9665
6.9604 3.9159 -2.9822 0.9665
5.3952 5.3355 -2.8334 0.9681
4.9009 5.7968 -2.8345 0.9681
4.3674 6.2127 -2.8357 0.9681
3.1997 6.8951 -2.8384 0.9681
2.5746 7.1562 -2.8399 0.9680
1.2663 7.5072 -2.8429 0.9680
0.5934 7.5943 -2.8444 0.9680
-0.0849 7.6211 -2.8460 0.9680
-1.4364 7.4936 -2.8491 0.9679
-2.0988 7.3399 -2.8506 0.9679
-2.7452 7.1277 -2.8521 0.9679
-3.9694 6.5345 -2.8549 0.9679
-4.5373 6.1581 -2.8563 0.9679
-5.5619 5.2604 -2.8586 0.9678
-7.4345 3.1525 -3.0154 0.9661
-7.8783 1.7850 -3.0164 0.9661
-8.0068 1.0769 -3.0167 0.9661
-8.0712 0.3599 -3.0169 0.9661
-8.0713 -0.3599 -3.0169 0.9661
-7.6872 -2.4788 -3.0160 0.9661
-7.4347 -3.1526 -3.0155 0.9661
-6.3323 -5.0006 -3.0129 0.9661
-5.8600 -5.5424 -3.0119 0.9661
-4.7805 -6.4882 -3.0094 0.9662
-4.1822 -6.8848 -3.0080 0.9662
-3.5511 -7.2262 -3.0066 0.9662
-2.2113 -7.7334 -3.0035 0.9662
-0.0895 -8.0298 -2.9986 0.9663
0.6253 -8.0014 -2.9970 0.9663
1.3342 -7.9097 -2.9953 0.9663
2.0318 -7.7554 -2.9937 0.9663
3.3712 -7.2648 -2.9906 0.9664
4.0025 -6.9325 -2.9892 0.9664
4.6015 -6.5457 -2.9878 0.9664
5.1636 -6.1075 -2.9865 0.9664
5.6844 -5.6214 -2.9853 0.9664
6.5864 -4.5213 -2.9832 0.9665
6.9607 -3.9160 -2.9823 0.9665
7.7432 -1.9367 -2.9805 0.9665
7.8840 -1.2397 -2.9801 0.9665
7.9782 0.1778 -2.9799 0.9665
7.4177 2.9522 -2.9812 0.9665
6.7800 4.2227 -2.9826 0.9665
5.6265 5.0889 -2.8329 0.9681
2.8901 7.0326 -2.8391 0.9681
2.2538 7.2656 -2.8406 0.9680
1.5990 7.4413 -2.8421 0.9680
-0.4244 7.6119 -2.8468 0.9680
-1.7692 7.4241 -2.8499 0.9679
-3.0607 7.0001 -2.8528 0.9679
-5.7918 5.0084 -2.8592 0.9678
-7.2858 3.4802 -3.0150 0.9661
-7.5683 2.8185 -3.0157 0.9661
-7.9505 1.4324 -3.0166 0.9661
-8.0470 0.7191 -3.0168 0.9661
-7.6846 0.0000 -3.0160 0.9675
-7.6540 -0.6839 -3.0159 0.9675
-7.5622 -1.3624 -3.0157 0.9675
-7.1989 -2.6808 -3.0149 0.9675
-6.6065 -3.9130 -3.0136 0.9675
-5.8045 -5.0193 -3.0117 0.9676
-5.3328 -5.5141 -3.0107 0.9676
-4.2672 -6.3671 -3.0082 0.9676
-3.6819 -6.7186 -3.0069 0.9676
-3.0679 -7.0163 -3.0055 0.9676
-2.4300 -7.2580 -3.0040 0.9676
-1.7735 -7.4417 -3.0025 0.9677
-0.4255 -7.6304 -2.9994 0.9677
0.2552 -7.6340 -2.9978 0.9677
0.9332 -7.5770 -2.9962 0.9677
2.2595 -7.2841 -2.9932 0.9678
4.0979 -6.4192 -2.9889 0.9678
5.6414 -5.1024 -2.9854 0.9678
6.0711 -4.5784 -2.9844 0.9679
7.0596 -2.8096 -2.9821 0.9679
7.4436 -1.5130 -2.9812 0.9679
7.5481 -0.8444 -2.9809 0.9679
7.5780 0.5073 -2.9808 0.9679
7.3692 1.8432 -2.9813 0.9679
5.7301 4.7361 -2.9176 0.9686
4.6638 5.5163 -2.8351 0.9694
4.1560 5.9120 -2.8362 0.9694
-0.0808 7.2510 -2.8460 0.9693
-1.9967 6.9829 -2.8504 0.9693
-3.2063 6.5246 -2.8532 0.9692
-3.7760 6.2162 -2.8545 0.9692
-4.3162 5.8580 -2.8558 0.9692
-4.8224 5.4528 -2.8569 0.9692
-6.0231 4.7564 -3.0121 0.9676
-6.4245 4.2028 -3.0130 0.9675
-7.6156 1.0243 -3.0158 0.9675
-7.6157 -1.0242 -3.0159 0.9675
-5.5742 -5.2720 -3.0112 0.9676
-5.0809 -5.7451 -3.0101 0.9676
-4.5476 -6.1720 -3.0089 0.9676
-3.9785 -6.5494 -3.0075 0.9676
-3.3782 -6.8744 -3.0062 0.9676
-2.7516 -7.1443 -3.0047 0.9676
1.2695 -7.5260 -2.9955 0.9677
1.9333 -7.3794 -2.9939 0.9678
2.5811 -7.1744 -2.9924 0.9678
3.2079 -6.9128 -2.9910 0.9678
3.8087 -6.5968 -2.9896 0.9678
4.3788 -6.2289 -2.9883 0.9678
4.9138 -5.8120 -2.9870 0.9678
7.1771 -2.4921 -2.9818 0.9679
7.3693 -1.8432 -2.9813 0.9679
7.5781 -0.5073 -2.9808 0.9679
7.4435 1.5130 -2.9811 0.9679
7.2802 2.1698 -2.9815 0.9679
6.7828 3.4275 -2.9826 0.9679
6.4524 4.0186 -2.9834 0.9679
5.3544 4.8428 -2.8335 0.9695
4.9039 5.3021 -2.8345 0.9694
3.8894 6.0926 -2.8368 0.9694
3.3331 6.4175 -2.8381 0.9694
2.7500 6.6918 -2.8395 0.9694
1.5215 7.0804 -2.8423 0.9694
0.8857 7.1915 -2.8438 0.9693
0.2422 7.2455 -2.8452 0.9693
-0.4038 7.2421 -2.8467 0.9693
-1.6832 7.0631 -2.8497 0.9693
-4.5738 5.6611 -2.8564 0.9692
-5.5370 4.7880 -2.8729 0.9690
-6.2300 4.4841 -3.0126 0.9676
-6.6063 3.9130 -3.0135 0.9675
-6.9301 3.3103 -3.0142 0.9675
-7.1987 2.6809 -3.0148 0.9675
-7.4100 2.0299 -3.0153 0.9675
-7.0607 -1.9341 -3.0146 0.9688
-6.8595 -2.5545 -3.0141 0.9688
-6.6037 -3.1543 -3.0135 0.9688
-5.0818 -5.2545 -3.0101 0.9689
-4.5922 -5.6838 -3.0089 0.9689
-4.0665 -6.0675 -3.0077 0.9689
-3.5088 -6.4027 -3.0065 0.9689
-2.9237 -6.6866 -3.0051 0.9689
-1.6902 -7.0923 -3.0023 0.9690
-1.0517 -7.2111 -3.0008 0.9690
-0.4055 -7.2724 -2.9993 0.9690
0.2433 -7.2760 -2.9978 0.9690
2.7619 -6.7206 -2.9920 0.9691
3.3476 -6.4452 -2.9907 0.9691
3.9063 -6.1190 -2.9894 0.9691
4.4336 -5.7447 -2.9881 0.9691
4.9254 -5.3253 -2.9870 0.9691
5.3780 -4.8641 -2.9860 0.9691
5.7877 -4.3647 -2.9850 0.9691
6.4665 -3.2676 -2.9834 0.9691
6.9408 -2.0685 -2.9823 0.9692
7.1961 -0.8050 -2.9817 0.9692
7.2390 -0.1613 -2.9816 0.9692
7.2246 0.4836 -2.9816 0.9692
6.8421 2.3759 -2.9825 0.9692
6.3150 3.5528 -2.9837 0.9691
4.8945 4.8403 -2.8345 0.9707
4.4459 5.2586 -2.8356 0.9707
3.9617 5.6357 -2.8367 0.9706
2.9022 6.2542 -2.8391 0.9706
2.3351 6.4906 -2.8404 0.9706
1.7490 6.6759 -2.8418 0.9706
1.1484 6.8084 -2.8432 0.9706
0.5382 6.8870 -2.8446 0.9706
-0.6921 6.8801 -2.8474 0.9705
-1.3024 6.7946 -2.8488 0.9705
-1.9029 6.6549 -2.8502 0.9705
-3.0555 6.2179 -2.8528 0.9705
-4.1131 5.5824 -2.8553 0.9704
-5.7394 4.5324 -3.0115 0.9689
-6.1219 4.0048 -3.0123 0.9689
-6.9669 2.2465 -3.0143 0.9688
-7.3149 0.3262 -3.0151 0.9688
-7.3150 -0.3261 -3.0152 0.9688
-7.1403 -1.6177 -3.0148 0.9688
-6.7383 -2.8572 -3.0139 0.9688
-6.1221 -4.0049 -3.0125 0.9688
-5.3117 -5.0238 -3.0106 0.9689
-4.8418 -5.4747 -3.0095 0.9689
-2.6223 -6.8086 -3.0044 0.9689
-2.0049 -7.0117 -3.0030 0.9689
-1.3722 -7.1588 -3.0015 0.9690
-0.7293 -7.2490 -3.0001 0.9690
-0.0811 -7.2815 -2.9986 0.9690
0.5670 -7.2562 -2.9971 0.9690
2.4603 -6.8386 -2.9927 0.9691
3.6306 -6.2883 -2.9900 0.9691
5.1568 -5.0997 -2.9865 0.9691
5.9755 -4.1019 -2.9846 0.9691
6.6049 -2.9760 -2.9831 0.9691
7.0256 -1.7572 -2.9821 0.9692
7.2247 -0.4836 -2.9816 0.9692
7.2389 0.1613 -2.9816 0.9692
7.1961 0.8050 -2.9817 0.9692
7.0964 1.4424 -2.9819 0.9692
6.7301 2.6786 -2.9827 0.9692
6.4663 3.2676 -2.9833 0.9691
4.2080 5.4525 -2.8361 0.9706
3.7075 5.8078 -2.8373 0.9706
3.1772 6.1173 -2.8385 0.9706
2.6213 6.3787 -2.8398 0.9706
1.4502 6.7488 -2.8425 0.9706
-0.3849 6.9024 -2.8467 0.9705
-0.9982 6.8442 -2.8481 0.9705
-1.6042 6.7314 -2.8495 0.9705
-2.1980 6.5651 -2.8509 0.9705
-2.7749 6.3464 -2.8522 0.9705
-5.5090 4.7639 -2.9990 0.9690
-5.9365 4.2729 -3.0119 0.9689
-6.2950 3.7286 -3.0127 0.9688
-6.6035 3.1542 -3.0135 0.9688
-7.0606 1.9341 -3.0145 0.9688
-7.2055 1.2982 -3.0149 0.9688
-7.2930 0.6517 -3.0151 0.9688
-6.9603 -0.6219 -3.0143 0.9700
-5.2791 -4.5650 -3.0105 0.9701
-4.3831 -5.4250 -3.0085 0.9701
-0.3871 -6.9423 -2.9993 0.9702
0.2322 -6.9459 -2.9978 0.9702
0.8491 -6.8944 -2.9964 0.9702
1.4587 -6.7883 -2.9950 0.9702
2.0562 -6.6284 -2.9936 0.9702
2.6368 -6.4162 -2.9923 0.9702
3.1960 -6.1534 -2.9910 0.9702
3.7295 -5.8421 -2.9898 0.9703
4.2330 -5.4849 -2.9886 0.9703
5.1348 -4.6442 -2.9865 0.9703
5.8735 -3.6580 -2.9848 0.9703
6.1744 -3.1200 -2.9841 0.9703
6.6274 -1.9751 -2.9830 0.9703
6.9122 -0.1540 -2.9824 0.9703
6.8985 0.4618 -2.9824 0.9703
6.7083 1.6779 -2.9828 0.9703
6.5332 2.2686 -2.9832 0.9703
6.0298 3.3923 -2.9843 0.9703
5.7053 3.9165 -2.9851 0.9703
5.3356 4.4100 -2.9859 0.9703
4.2448 5.0208 -2.8360 0.9718
3.7825 5.3807 -2.8371 0.9718
3.2899 5.6983 -2.8382 0.9717
2.7708 5.9710 -2.8394 0.9717
1.6697 6.3733 -2.8420 0.9717
0.5137 6.5746 -2.8446 0.9717
-0.0735 6.5973 -2.8460 0.9717
-1.2432 6.4859 -2.8487 0.9716
-3.4347 5.6542 -2.8537 0.9716
-3.9259 5.3282 -2.8549 0.9716
-4.3862 4.9595 -2.8559 0.9716
-5.4779 4.3259 -3.0109 0.9701
-5.8428 3.8222 -3.0117 0.9700
-6.1613 3.2878 -3.0124 0.9700
-6.4308 2.7269 -3.0131 0.9700
-6.6491 2.1441 -3.0136 0.9700
-6.9812 0.3113 -3.0144 0.9700
-6.9812 -0.3113 -3.0144 0.9700
-6.9255 -0.9313 -3.0143 0.9700
-6.6493 -2.1441 -3.0136 0.9700
-6.4310 -2.7269 -3.0131 0.9700
-6.1615 -3.2878 -3.0125 0.9700
-5.8430 -3.8223 -3.0118 0.9700
-5.4781 -4.3260 -3.0110 0.9700
-5.0697 -4.7949 -3.0100 0.9701
-3.0729 -6.2532 -3.0055 0.9701
-2.5031 -6.4990 -3.0041 0.9701
-1.9138 -6.6930 -3.0028 0.9701
-1.3099 -6.8336 -3.0014 0.9701
0.5413 -6.9270 -2.9971 0.9702
2.3489 -6.5287 -2.9930 0.9702
2.9194 -6.2910 -2.9916 0.9702
3.4662 -6.0037 -2.9904 0.9703
3.9852 -5.6691 -2.9892 0.9703
4.4723 -5.2899 -2.9881 0.9703
4.9237 -4.8691 -2.9870 0.9703
5.7055 -3.9166 -2.9852 0.9703
6.5333 -2.2686 -2.9833 0.9703
6.7084 -1.6779 -2.9828 0.9703
6.8304 -1.0740 -2.9826 0.9703
6.8985 -0.4618 -2.9824 0.9703
6.9122 0.1541 -2.9824 0.9703
6.7760 1.3773 -2.9827 0.9703
6.1742 3.1200 -2.9840 0.9703
5.8734 3.6580 -2.9847 0.9703
5.5259 4.1673 -2.9855 0.9703
5.1346 4.6440 -2.9864 0.9703
4.0177 5.2059 -2.8366 0.9718
3.0334 5.8404 -2.8388 0.9717
1.9515 6.2912 -2.8413 0.9717
1.3845 6.4429 -2.8426 0.9717
0.2204 6.5925 -2.8453 0.9717
-0.3674 6.5891 -2.8466 0.9717
-0.9528 6.5333 -2.8480 0.9716
-1.5313 6.4256 -2.8493 0.9716
-2.6487 6.0578 -2.8519 0.9716
-4.1601 5.1490 -2.8554 0.9716
-5.2789 4.5649 -3.0104 0.9701
-6.0080 3.5586 -3.0121 0.9700
-6.3023 3.0104 -3.0128 0.9700
-6.6524 -0.5944 -3.0136 0.9711
-6.0238 -2.8773 -3.0122 0.9711
-5.7426 -3.4013 -3.0116 0.9711
-5.0459 -4.3633 -3.0100 0.9712
-3.7100 -5.5357 -3.0069 0.9712
-2.1131 -6.3115 -3.0032 0.9712
-1.5423 -6.4717 -3.0019 0.9712
-0.3701 -6.6366 -2.9992 0.9713
0.2220 -6.6402 -2.9979 0.9713
0.8118 -6.5911 -2.9965 0.9713
1.3946 -6.4898 -2.9952 0.9713
1.9658 -6.3371 -2.9938 0.9713
3.0557 -5.8832 -2.9913 0.9713
4.0473 -5.2442 -2.9890 0.9713
5.2839 -3.9847 -2.9862 0.9714
5.6161 -3.4978 -2.9854 0.9714
6.1448 -2.4456 -2.9842 0.9714
6.4793 -1.3170 -2.9834 0.9714
6.5964 0.4416 -2.9831 0.9714
6.0302 2.7171 -2.9844 0.9714
5.1017 4.2167 -2.9865 0.9714
4.7076 4.6554 -2.9874 0.9714
3.6165 5.1446 -2.8375 0.9728
3.1455 5.4481 -2.8386 0.9728
1.0481 6.2138 -2.8434 0.9727
0.4911 6.2853 -2.8447 0.9727
-0.0703 6.3069 -2.8460 0.9727
-2.2709 5.8964 -2.8510 0.9727
-2.7879 5.6732 -2.8522 0.9726
-3.2831 5.4047 -2.8534 0.9726
-3.7525 5.0930 -2.8545 0.9726
-4.2283 4.7810 -2.8799 0.9724
-5.8889 3.1424 -3.0118 0.9711
-6.1465 2.6063 -3.0124 0.9711
-6.5130 1.4757 -3.0133 0.9711
-6.6723 -0.2975 -3.0137 0.9711
-6.6191 -0.8902 -3.0136 0.9711
-6.1466 -2.6064 -3.0125 0.9711
-5.5847 -3.6533 -3.0112 0.9711
-5.2360 -4.1348 -3.0104 0.9711
-4.4172 -4.9945 -3.0085 0.9712
-3.9537 -5.3660 -3.0075 0.9712
-3.4591 -5.6944 -3.0063 0.9712
-2.9373 -5.9773 -3.0051 0.9712
-2.3927 -6.2124 -3.0039 0.9712
1.1043 -6.5469 -2.9958 0.9713
2.2457 -6.2419 -2.9932 0.9713
2.7911 -6.0147 -2.9919 0.9713
3.3141 -5.7401 -2.9907 0.9713
3.8104 -5.4203 -2.9896 0.9713
4.2761 -5.0578 -2.9885 0.9714
5.4554 -3.7449 -2.9858 0.9714
5.7657 -3.2437 -2.9850 0.9714
6.0303 -2.7171 -2.9844 0.9714
6.2471 -2.1692 -2.9839 0.9714
6.6095 0.1473 -2.9831 0.9714
6.5703 0.7350 -2.9831 0.9714
5.9037 2.9833 -2.9846 0.9714
5.2837 3.9846 -2.9861 0.9714
4.9095 4.4404 -2.9869 0.9714
4.3857 4.7418 -2.9144 0.9721
3.8414 4.9775 -2.8370 0.9728
3.3844 5.3016 -2.8380 0.9728
2.9002 5.5839 -2.8391 0.9728
2.3927 5.8223 -2.8403 0.9728
0.7705 6.2558 -2.8440 0.9727
0.2107 6.3024 -2.8453 0.9727
-0.3512 6.2990 -2.8466 0.9727
-4.6056 4.7622 -2.9893 0.9713
-5.0457 4.3632 -3.0099 0.9712
-5.4155 3.8979 -3.0107 0.9711
-6.2570 2.3301 -3.0127 0.9711
-6.4405 1.7643 -3.0131 0.9711
-6.1638 -1.6884 -3.0125 0.9721
-5.7651 -2.7537 -3.0116 0.9721
-5.4960 -3.2552 -3.0110 0.9721
-5.1832 -3.7306 -3.0103 0.9722
-4.8293 -4.1760 -3.0095 0.9722
-4.0098 -4.9630 -3.0076 0.9722
-3.0641 -5.5913 -3.0054 0.9722
-2.0226 -6.0412 -3.0030 0.9722
-0.9186 -6.2987 -3.0005 0.9722
-0.3542 -6.3527 -2.9992 0.9723
0.2125 -6.3563 -2.9979 0.9723
0.7771 -6.3094 -2.9966 0.9723
1.3350 -6.2125 -2.9953 0.9723
2.9253 -5.6322 -2.9916 0.9723
3.8747 -5.0206 -2.9894 0.9723
4.3048 -4.6542 -2.9884 0.9724
5.0588 -3.8150 -2.9867 0.9724
5.6525 -2.8563 -2.9853 0.9724
5.8832 -2.3414 -2.9848 0.9724
6.3157 0.4228 -2.9837 0.9724
5.9811 2.0769 -2.9845 0.9724
5.7734 2.6014 -2.9849 0.9724
5.2229 3.5853 -2.9862 0.9724
4.0082 4.7410 -2.9264 0.9729
3.4623 4.9251 -2.8378 0.9737
3.0113 5.2157 -2.8389 0.9737
1.5282 5.8329 -2.8423 0.9737
1.0034 5.9483 -2.8435 0.9737
0.4701 6.0166 -2.8447 0.9737
-0.0673 6.0372 -2.8460 0.9737
-1.1376 5.9348 -2.8484 0.9736
-1.6620 5.8124 -2.8496 0.9736
-2.6684 5.4301 -2.8520 0.9736
-3.5916 4.8746 -2.8541 0.9736
-4.2093 4.7596 -2.9951 0.9723
-4.6376 4.3862 -3.0089 0.9722
-5.0110 3.9572 -3.0098 0.9722
-5.3447 3.4963 -3.0106 0.9722
-5.8824 2.4944 -3.0118 0.9721
-6.0820 1.9612 -3.0123 0.9721
-6.2332 1.4123 -3.0126 0.9721
-6.2332 -1.4122 -3.0127 0.9721
-6.0821 -1.9612 -3.0123 0.9721
-5.8825 -2.4944 -3.0119 0.9721
-5.6361 -3.0075 -3.0113 0.9721
-4.6378 -4.3863 -3.0090 0.9722
-3.3108 -5.4502 -3.0060 0.9722
-2.8115 -5.7211 -3.0048 0.9722
-2.2902 -5.9463 -3.0036 0.9722
-1.7511 -6.1240 -3.0024 0.9722
-0.6370 -6.3320 -2.9998 0.9723
0.4953 -6.3391 -2.9972 0.9723
2.6720 -5.7580 -2.9922 0.9723
3.1727 -5.4952 -2.9910 0.9723
4.0938 -4.8421 -2.9889 0.9723
4.8845 -4.0371 -2.9871 0.9724
5.5202 -3.1056 -2.9856 0.9724
6.1415 -1.5361 -2.9842 0.9724
6.2533 -0.9833 -2.9839 0.9724
6.3157 -0.4228 -2.9837 0.9724
6.2035 1.2609 -2.9840 0.9724
6.0673 1.8082 -2.9843 0.9724
5.8831 2.3414 -2.9847 0.9724
5.3768 3.3487 -2.9859 0.9724
4.3046 4.6541 -2.9883 0.9724
3.6805 4.7689 -2.8396 0.9737
1.2671 5.8964 -2.8429 0.9737
0.7375 5.9884 -2.8441 0.9737
0.2017 6.0329 -2.8453 0.9737
-0.3362 6.0295 -2.8466 0.9736
-1.4011 5.8795 -2.8490 0.9736
-1.9197 5.7338 -2.8502 0.9736
-2.4234 5.5425 -2.8514 0.9736
-3.8594 4.7769 -2.8948 0.9732
-4.4369 4.5878 -3.0085 0.9722
-4.8291 4.1759 -3.0094 0.9722
-5.1830 3.7305 -3.0102 0.9722
-6.1637 1.6885 -3.0125 0.9721
-6.3665 0.5689 -3.0130 0.9721
-5.9060 -1.6178 -3.0119 0.9731
-5.5240 -2.6386 -3.0111 0.9731
-5.2662 -3.1192 -3.0105 0.9731
-4.9666 -3.5747 -3.0098 0.9731
-4.6275 -4.0015 -3.0090 0.9731
-3.8424 -4.7558 -3.0072 0.9731
-3.4027 -5.0772 -3.0062 0.9731
-2.9362 -5.3579 -3.0051 0.9731
-0.8804 -6.0363 -3.0004 0.9732
-0.3395 -6.0881 -2.9992 0.9732
0.2037 -6.0917 -2.9979 0.9732
0.7447 -6.0468 -2.9967 0.9732
2.3130 -5.6284 -2.9930 0.9732
2.8038 -5.3982 -2.9919 0.9732
3.2719 -5.1254 -2.9908 0.9733
4.1261 -4.4611 -2.9888 0.9733
4.5054 -4.0749 -2.9880 0.9733
5.4181 -2.7378 -2.9858 0.9733
5.9465 -1.2087 -2.9846 0.9733
6.0300 -0.6746 -2.9844 0.9733
5.9941 0.9426 -2.9845 0.9733
5.8869 1.4724 -2.9847 0.9733
5.7332 1.9908 -2.9850 0.9733
5.5341 2.4936 -2.9855 0.9733
5.0063 3.4367 -2.9867 0.9733
4.6817 3.8696 -2.9874 0.9733
4.3199 4.2721 -2.9883 0.9733
3.9237 4.6410 -2.9892 0.9733
2.4307 5.2380 -2.8402 0.9746
1.9556 5.4357 -2.8413 0.9746
0.9616 5.7009 -2.8436 0.9746
-0.0645 5.7858 -2.8460 0.9745
-0.5794 5.7596 -2.8471 0.9745
-1.5927 5.5702 -2.8495 0.9745
-2.5571 5.2036 -2.8517 0.9745
-4.8016 3.7918 -3.0093 0.9731
-5.1213 3.3503 -3.0100 0.9731
-5.8277 1.8792 -3.0117 0.9731
-6.0697 0.8163 -3.0123 0.9731
-6.1185 -0.2728 -3.0124 0.9731
-6.0697 -0.8163 -3.0123 0.9731
-5.8278 -1.8792 -3.0117 0.9731
-5.4005 -2.8817 -3.0108 0.9731
-5.1215 -3.3503 -3.0101 0.9731
-4.8018 -3.7919 -3.0094 0.9731
-3.1726 -5.2228 -3.0057 0.9731
-2.6942 -5.4824 -3.0046 0.9731
-0.6105 -6.0683 -2.9998 0.9732
-0.0679 -6.0960 -2.9985 0.9732
1.5431 -5.8900 -2.9948 0.9732
2.5610 -5.5187 -2.9925 0.9732
3.0409 -5.2670 -2.9913 0.9733
3.4964 -4.9737 -2.9903 0.9733
3.9239 -4.6412 -2.9893 0.9733
4.6819 -3.8696 -2.9875 0.9733
5.2913 -2.9768 -2.9861 0.9733
5.5342 -2.4936 -2.9856 0.9733
5.7333 -1.9908 -2.9851 0.9733
5.8870 -1.4724 -2.9847 0.9733
6.0540 -0.4052 -2.9843 0.9733
6.0660 0.1352 -2.9843 0.9733
6.0300 0.6746 -2.9844 0.9733
5.6392 2.2444 -2.9853 0.9733
5.4180 2.7379 -2.9858 0.9733
4.8488 3.6567 -2.9871 0.9733
4.5053 4.0748 -2.9879 0.9733
4.1260 4.4609 -2.9887 0.9733
3.6574 4.7390 -2.9443 0.9737
3.1055 4.8646 -2.8387 0.9746
2.6611 5.1236 -2.8397 0.9746
1.7118 5.5185 -2.8419 0.9746
1.2144 5.6512 -2.8430 0.9746
0.7069 5.7392 -2.8442 0.9746
-1.3427 5.6344 -2.8489 0.9745
-1.8396 5.4947 -2.8501 0.9745
-2.3223 5.3113 -2.8512 0.9745
-2.7869 5.0854 -2.8522 0.9745
-3.2296 4.8189 -2.8533 0.9745
-4.2516 4.3961 -3.0080 0.9731
-4.6273 4.0014 -3.0089 0.9731
-4.9664 3.5746 -3.0097 0.9731
-5.7378 2.1368 -3.0115 0.9731
-6.0271 1.0858 -3.0122 0.9731
-5.8748 0.0000 -3.0118 0.9739
-5.7813 -1.0415 -3.0116 0.9739
-5.5039 -2.0497 -3.0110 0.9739
-5.0516 -2.9920 -3.0100 0.9740
-4.0786 -4.2172 -3.0077 0.9740
-2.8168 -5.1399 -3.0048 0.9740
-2.3473 -5.3683 -3.0038 0.9740
-1.8594 -5.5538 -3.0026 0.9740
-1.3572 -5.6951 -3.0015 0.9740
-0.8446 -5.7910 -3.0003 0.9740
-0.3257 -5.8409 -2.9991 0.9740
1.2276 -5.7126 -2.9955 0.9741
1.7305 -5.5785 -2.9944 0.9741
2.6901 -5.1795 -2.9922 0.9741
3.1394 -4.9177 -2.9911 0.9741
3.9591 -4.2805 -2.9892 0.9741
4.3231 -3.9100 -2.9884 0.9741
4.6528 -3.5088 -2.9876 0.9741
4.9455 -3.0801 -2.9869 0.9742
5.1990 -2.6271 -2.9863 0.9742
5.4113 -2.1536 -2.9858 0.9742
5.5808 -1.6632 -2.9854 0.9742
5.7061 -1.1598 -2.9852 0.9742
5.7863 -0.6473 -2.9850 0.9742
5.8208 -0.1297 -2.9849 0.9742
5.7518 0.9045 -2.9850 0.9742
5.5014 1.9103 -2.9856 0.9742
5.3103 2.3927 -2.9860 0.9742
5.0771 2.8564 -2.9865 0.9742
4.1451 4.0992 -2.9887 0.9741
3.7649 4.4531 -2.9896 0.9741
-0.0618 5.5509 -2.8460 0.9754
-0.5559 5.5256 -2.8471 0.9753
-1.0459 5.4564 -2.8482 0.9753
-1.9983 5.1885 -2.8504 0.9753
-2.9031 4.7792 -2.8668 0.9752
-3.4783 4.7209 -3.0062 0.9740
-5.1802 2.7643 -3.0102 0.9740
-5.5900 1.8026 -3.0111 0.9739
-5.8689 0.2617 -3.0118 0.9739
-5.8222 -0.7830 -3.0117 0.9739
-5.7290 -1.2980 -3.0115 0.9739
-5.5901 -1.8026 -3.0112 0.9739
-5.4067 -2.2926 -3.0108 0.9739
-5.1803 -2.7643 -3.0103 0.9740
-4.2630 -4.0319 -3.0082 0.9740
-3.8861 -4.3941 -3.0073 0.9740
-3.4785 -4.7210 -3.0064 0.9740
-3.0435 -5.0102 -3.0054 0.9740
-2.1054 -5.4665 -3.0032 0.9740
-1.6099 -5.6301 -3.0021 0.9740
1.4805 -5.6511 -2.9950 0.9741
1.9769 -5.4948 -2.9938 0.9741
2.4572 -5.2951 -2.9927 0.9741
2.9177 -5.0536 -2.9916 0.9741
3.3548 -4.7722 -2.9906 0.9741
3.7650 -4.4532 -2.9897 0.9741
4.4924 -3.7131 -2.9880 0.9741
5.0773 -2.8564 -2.9866 0.9742
5.3104 -2.3927 -2.9861 0.9742
5.6490 -1.4129 -2.9853 0.9742
5.7519 -0.9044 -2.9850 0.9742
5.8208 0.1297 -2.9849 0.9742
5.7863 0.6473 -2.9849 0.9742
5.7060 1.1598 -2.9851 0.9742
5.5807 1.6632 -2.9854 0.9742
4.9454 3.0800 -2.9868 0.9742
4.6526 3.5087 -2.9875 0.9741
3.5633 4.6171 -2.9900 0.9741
2.5570 4.9232 -2.8441 0.9754
1.1651 5.4220 -2.8431 0.9754
0.6782 5.5063 -2.8443 0.9754
-0.3091 5.5438 -2.8465 0.9754
-1.7648 5.2713 -2.8499 0.9753
-2.2278 5.0953 -2.8510 0.9753
-2.6735 4.8785 -2.8520 0.9753
-3.6858 4.5620 -3.0067 0.9740
-4.0784 4.2171 -3.0076 0.9740
-4.4388 3.8384 -3.0085 0.9740
-5.0514 2.9920 -3.0099 0.9740
-5.2987 2.5310 -3.0105 0.9739
-5.5038 2.0496 -3.0109 0.9739
-5.7813 1.0416 -3.0116 0.9739
-5.5510 -1.0000 -3.0111 0.9747
-5.4395 -1.4900 -3.0108 0.9748
-5.0878 -2.4302 -3.0100 0.9748
-4.8505 -2.8729 -3.0095 0.9748
-4.5745 -3.2925 -3.0089 0.9748
-3.5393 -4.3806 -3.0065 0.9748
-2.2540 -5.1550 -3.0036 0.9748
-1.7856 -5.3333 -3.0025 0.9748
-1.3033 -5.4690 -3.0014 0.9748
-0.8111 -5.5612 -3.0002 0.9748
-0.3128 -5.6092 -2.9991 0.9748
0.6862 -5.5714 -2.9968 0.9749
2.1314 -5.1864 -2.9934 0.9749
2.5837 -4.9744 -2.9924 0.9749
3.4225 -4.4346 -2.9905 0.9749
3.8025 -4.1112 -2.9896 0.9749
4.4689 -3.3701 -2.9880 0.9749
5.3603 -1.5975 -2.9860 0.9750
5.5798 0.3735 -2.9854 0.9750
5.5247 0.8687 -2.9855 0.9750
5.2841 1.8349 -2.9861 0.9750
5.1005 2.2982 -2.9865 0.9750
4.8765 2.7435 -2.9870 0.9749
3.2219 4.5833 -2.9908 0.9749
1.8020 5.0088 -2.8417 0.9762
1.3495 5.1512 -2.8427 0.9761
0.4151 5.3128 -2.8449 0.9761
-0.0594 5.3308 -2.8460 0.9761
-0.5338 5.3063 -2.8470 0.9761
-1.9189 4.9824 -2.8502 0.9761
-2.8907 4.7588 -2.9724 0.9751
-3.7314 4.2192 -3.0068 0.9748
-4.0932 3.8714 -3.0077 0.9748
-5.3674 1.7308 -3.0106 0.9748
-5.5007 1.2463 -3.0109 0.9748
-5.5902 0.7518 -3.0112 0.9747
-5.6352 -0.2512 -3.0113 0.9747
-5.3675 -1.7308 -3.0107 0.9748
-4.9741 -2.6542 -3.0098 0.9748
-4.7172 -3.0858 -3.0092 0.9748
-4.4228 -3.4926 -3.0085 0.9748
-4.0934 -3.8715 -3.0078 0.9748
-3.7315 -4.2193 -3.0069 0.9748
-3.3402 -4.5333 -3.0060 0.9748
-2.9225 -4.8111 -3.0051 0.9748
-2.0217 -5.2494 -3.0030 0.9748
-1.0582 -5.5206 -3.0008 0.9748
-0.5624 -5.5907 -2.9997 0.9748
-0.0626 -5.6165 -2.9985 0.9749
0.9335 -5.5343 -2.9962 0.9749
1.8986 -5.2772 -2.9940 0.9749
3.6161 -4.2771 -2.9900 0.9749
3.9813 -3.9372 -2.9892 0.9749
4.3148 -3.5663 -2.9884 0.9749
4.6140 -3.1673 -2.9877 0.9749
4.8767 -2.7435 -2.9871 0.9749
5.1006 -2.2982 -2.9866 0.9750
5.5798 -0.3735 -2.9854 0.9750
4.7499 2.9583 -2.9873 0.9749
4.4687 3.3701 -2.9879 0.9749
3.4224 4.4345 -2.9903 0.9749
3.0150 4.7230 -2.9913 0.9749
2.4716 4.7587 -2.8626 0.9760
2.0247 4.9268 -2.8435 0.9761
1.5774 5.0850 -2.8422 0.9761
1.1189 5.2071 -2.8432 0.9761
0.6513 5.2881 -2.8443 0.9761
0.1781 5.3271 -2.8454 0.9761
-0.2969 5.3239 -2.8465 0.9761
-0.7698 5.2783 -2.8476 0.9761
-1.2370 5.1908 -2.8487 0.9761
-2.1393 4.8928 -2.8508 0.9761
-2.6142 4.7704 -2.9040 0.9756
-3.9162 4.0493 -3.0073 0.9748
-4.2622 3.6857 -3.0081 0.9748
-4.8503 2.8729 -3.0094 0.9748
-5.4395 1.4900 -3.0108 0.9748
-5.4210 0.0000 -3.0108 0.9755
-5.3994 -0.4825 -3.0107 0.9755
-5.3347 -0.9611 -3.0106 0.9755
-5.0788 -1.8914 -3.0100 0.9755
-4.8896 -2.3356 -3.0096 0.9755
-4.3964 -3.1643 -3.0085 0.9755
-3.7639 -3.8918 -3.0070 0.9755
-2.5996 -4.7438 -3.0043 0.9756
-1.7162 -5.1260 -3.0023 0.9756
-0.7796 -5.3453 -3.0002 0.9756
-0.3006 -5.3915 -2.9991 0.9756
0.6596 -5.3554 -2.9968 0.9756
1.1332 -5.2735 -2.9957 0.9756
1.5975 -5.1499 -2.9947 0.9756
2.0488 -4.9855 -2.9936 0.9756
2.8984 -4.5403 -2.9917 0.9757
3.2900 -4.2630 -2.9908 0.9757
3.6554 -3.9521 -2.9899 0.9757
3.9916 -3.6101 -2.9891 0.9757
4.8005 -2.4258 -2.9873 0.9757
4.9966 -1.9886 -2.9868 0.9757
5.1531 -1.5358 -2.9864 0.9757
5.3430 -0.5977 -2.9860 0.9757
5.2161 1.3046 -2.9862 0.9757
5.0798 1.7639 -2.9866 0.9757
4.9033 2.2093 -2.9870 0.9757
4.6880 2.6375 -2.9874 0.9757
4.4355 3.0448 -2.9880 0.9757
3.4760 4.1115 -2.9902 0.9757
1.2972 4.9515 -2.8428 0.9769
0.3991 5.1068 -2.8449 0.9768
-0.0571 5.1239 -2.8460 0.9768
-0.5131 5.1004 -2.8470 0.9768
-1.4119 4.9377 -2.8522 0.9768
-2.3398 4.7615 -2.9465 0.9760
-2.8087 4.6238 -3.0047 0.9756
-3.9339 3.7207 -3.0073 0.9755
-4.5334 2.9656 -3.0087 0.9755
-4.9891 2.1156 -3.0098 0.9755
-5.1583 1.6634 -3.0102 0.9755
-5.4156 0.2415 -3.0108 0.9755
-5.3724 -0.7225 -3.0107 0.9755
-5.1584 -1.6633 -3.0102 0.9755
-4.9892 -2.1156 -3.0098 0.9755
-4.5335 -2.9657 -3.0088 0.9755
-3.5863 -4.0551 -3.0066 0.9755
-3.2102 -4.3570 -3.0057 0.9755
-2.8088 -4.6240 -3.0048 0.9755
-1.9432 -5.0454 -3.0028 0.9756
-1.4859 -5.1965 -3.0018 0.9756
-1.0171 -5.3062 -3.0007 0.9756
-0.5406 -5.3737 -2.9996 0.9756
-0.0601 -5.3985 -2.9985 0.9756
0.8973 -5.3197 -2.9963 0.9756
1.3668 -5.2168 -2.9952 0.9756
1.8250 -5.0727 -2.9941 0.9756
2.6937 -4.6656 -2.9921 0.9757
4.1479 -3.4283 -2.9888 0.9757
4.4356 -3.0449 -2.9881 0.9757
4.6881 -2.6375 -2.9875 0.9757
4.9034 -2.2094 -2.9870 0.9757
5.2162 -1.3046 -2.9863 0.9757
5.3112 -0.8351 -2.9861 0.9757
5.3748 0.1198 -2.9859 0.9757
5.2688 1.0710 -2.9861 0.9757
5.1531 1.5358 -2.9864 0.9757
4.9965 1.9886 -2.9867 0.9757
4.5663 2.8439 -2.9877 0.9757
4.2959 3.2397 -2.9883 0.9757
3.2899 4.2629 -2.9906 0.9757
2.8983 4.5401 -2.9915 0.9757
1.9567 4.7613 -2.8590 0.9767
1.5162 4.8879 -2.8423 0.9769
1.0756 5.0053 -2.8433 0.9768
0.6260 5.0829 -2.8444 0.9768
-0.2853 5.1172 -2.8465 0.9768
-1.1890 4.9892 -2.8486 0.9768
-2.0859 4.7706 -2.8918 0.9765
-3.4015 4.2101 -3.0061 0.9755
-4.0963 3.5422 -3.0077 0.9755
-4.3963 3.1643 -3.0084 0.9755
-4.8895 2.3355 -3.0095 0.9755
-5.0788 1.8914 -3.0100 0.9755
-5.2140 0.0000 -3.0103 0.9762
-5.1311 -0.9244 -3.0101 0.9762
-5.0281 -1.3773 -3.0099 0.9762
-4.8850 -1.8192 -3.0096 0.9762
-4.7030 -2.2464 -3.0092 0.9762
-4.4837 -2.6557 -3.0087 0.9762
-3.9401 -3.4071 -3.0074 0.9762
-3.6204 -3.7434 -3.0067 0.9762
-2.0839 -4.7659 -3.0032 0.9763
-1.6509 -4.9309 -3.0022 0.9763
-0.7499 -5.1419 -3.0001 0.9763
-0.2892 -5.1864 -2.9990 0.9763
1.0901 -5.0731 -2.9958 0.9763
1.5368 -4.9543 -2.9948 0.9763
1.9710 -4.7962 -2.9938 0.9763
2.7884 -4.3680 -2.9919 0.9763
3.1652 -4.1013 -2.9910 0.9764
3.5167 -3.8022 -2.9902 0.9764
4.1332 -3.1170 -2.9888 0.9764
4.3933 -2.7362 -2.9882 0.9764
5.1610 0.3455 -2.9864 0.9764
5.1100 0.8036 -2.9865 0.9764
4.7175 2.1256 -2.9874 0.9764
4.5103 2.5375 -2.9879 0.9764
4.2674 2.9294 -2.9884 0.9764
3.9906 3.2983 -2.9890 0.9764
3.6820 3.6412 -2.9898 0.9764
2.9797 4.2387 -2.9914 0.9764
1.7095 4.7518 -2.9156 0.9769
1.2506 4.7734 -2.8489 0.9775
-0.0550 4.9336 -2.8486 0.9775
-2.2944 4.6689 -3.0035 0.9763
-3.7839 3.5788 -3.0070 0.9762
-4.0884 3.2286 -3.0077 0.9762
-4.3604 2.8525 -3.0083 0.9762
-4.5978 2.4535 -3.0089 0.9762
-4.7987 2.0348 -3.0093 0.9762
-4.9614 1.5999 -3.0097 0.9762
-5.0846 1.1520 -3.0100 0.9762
-5.2088 -0.2322 -3.0103 0.9762
-5.1673 -0.6949 -3.0102 0.9762
-4.9615 -1.5998 -3.0097 0.9762
-4.7988 -2.0349 -3.0094 0.9762
-4.0885 -3.2286 -3.0078 0.9762
-3.7840 -3.5788 -3.0071 0.9762
-3.4496 -3.9004 -3.0063 0.9762
-2.2945 -4.6691 -3.0036 0.9763
-1.8692 -4.8532 -3.0027 0.9763
-0.9784 -5.1042 -3.0006 0.9763
-0.0579 -5.1932 -2.9985 0.9763
0.8632 -5.1175 -2.9964 0.9763
1.3148 -5.0187 -2.9953 0.9763
