ply
format ascii 1.0
element vertex 1585
property float32 x
property float32 y
property float32 z
property float32 I
end_header
5.1996 -6.7373 -1.3552 0.9661
5.3026 -6.2719 -1.3078 0.9673
5.7679 -5.7040 -1.2917 0.9677
6.6407 -5.4887 -1.3719 0.9657
5.6063 -6.0615 -1.4559 0.9670
5.4192 -6.4099 -1.4800 0.9665
5.8781 -5.8129 -1.4577 0.9670
5.7609 -6.2287 -1.6419 0.9660
13.3868 6.0318 -2.8414 0.9419
12.7975 7.1998 -2.8416 0.9419
12.1068 8.3109 -2.8418 0.9419
11.3200 9.3563 -2.8420 0.9419
7.3464 12.7243 -2.8433 0.9419
6.1855 13.3295 -2.8437 0.9419
4.9753 13.8291 -2.8441 0.9419
3.7252 14.2191 -2.8445 0.9419
2.4452 14.4964 -2.8449 0.9419
1.1455 14.6588 -2.8454 0.9419
-0.1638 14.7049 -2.8458 0.9418
-6.4909 13.2086 -2.8481 0.9418
-8.7325 11.8518 -2.8489 0.9418
-10.6982 10.1183 -2.8496 0.9418
5.6199 -6.6472 -1.6845 0.9652
13.6418 5.4294 -2.8413 0.9419
12.4645 7.7630 -2.8417 0.9419
11.7251 8.8423 -2.8419 0.9419
7.9054 12.3836 -2.8431 0.9419
3.0884 14.3720 -2.8447 0.9419
-0.8188 14.6842 -2.8461 0.9418
-2.1228 14.5554 -2.8465 0.9418
-3.4105 14.3109 -2.8470 0.9418
-7.0734 12.9073 -2.8483 0.9418
-8.1953 12.2283 -2.8487 0.9418
-11.1390 9.6323 -2.8498 0.9418
-14.2467 0.0000 -3.0035 0.9434
-14.0209 -2.5260 -3.0035 0.9434
-13.7402 -3.7638 -3.0034 0.9434
-13.3502 -4.9716 -3.0033 0.9434
-12.8541 -6.1399 -3.0032 0.9434
-12.2559 -7.2592 -3.0030 0.9434
-11.5603 -8.3206 -3.0028 0.9434
-10.7730 -9.3158 -3.0025 0.9434
-9.9002 -10.2367 -3.0023 0.9434
-0.7920 -14.2045 -2.9992 0.9435
0.4753 -14.2165 -2.9988 0.9435
1.7385 -14.1157 -2.9984 0.9435
4.2125 -13.5799 -2.9975 0.9435
7.6475 -11.9796 -2.9963 0.9436
8.6823 -11.2499 -2.9959 0.9436
10.5370 -9.5301 -2.9952 0.9436
11.3422 -8.5536 -2.9949 0.9436
12.0574 -7.5094 -2.9946 0.9436
13.9165 -2.8286 -2.9939 0.9436
14.1125 -1.5787 -2.9938 0.9436
14.1968 -0.3163 -2.9937 0.9436
14.0279 2.2058 -2.9937 0.9436
11.7488 6.6098 -2.8420 0.9464
11.1146 7.6298 -2.8421 0.9464
10.3922 8.5894 -2.8424 0.9464
7.7560 11.0331 -2.8432 0.9464
6.7440 11.6810 -2.8435 0.9464
5.6783 12.2364 -2.8439 0.9463
4.5672 12.6949 -2.8443 0.9463
2.2446 13.3072 -2.8450 0.9463
-0.1504 13.4982 -2.8459 0.9463
-2.5420 13.2616 -2.8467 0.9463
-3.7128 12.9846 -2.8471 0.9463
-7.0143 11.5471 -2.8483 0.9463
-8.9527 10.1230 -2.8490 0.9463
-7.4784 7.0731 -2.1701 0.9588
-12.4474 5.2782 -2.8503 0.9462
-14.1192 1.8989 -3.0034 0.9434
-14.2325 0.6347 -3.0035 0.9434
-14.2326 -0.6346 -3.0035 0.9434
-13.1152 -5.5613 -3.0033 0.9434
-11.9200 -7.7977 -3.0029 0.9434
-10.3469 -9.7860 -3.0024 0.9434
-8.4461 -11.4631 -3.0018 0.9435
-7.3915 -12.1680 -3.0015 0.9435
-5.1156 -13.2824 -3.0007 0.9435
-2.6788 -13.9751 -2.9999 0.9435
-1.4241 -14.1561 -2.9995 0.9435
-0.1585 -14.2246 -2.9990 0.9435
4.8130 -13.3778 -2.9973 0.9435
8.1730 -11.6262 -2.9961 0.9436
10.1025 -9.9906 -2.9954 0.9436
10.9505 -9.0508 -2.9951 0.9436
12.3795 -6.9646 -2.9945 0.9436
12.9492 -5.8346 -2.9943 0.9436
13.4163 -4.6586 -2.9941 0.9436
14.0284 -2.2058 -2.9938 0.9436
14.1687 -0.9485 -2.9937 0.9436
14.1967 0.3164 -2.9937 0.9436
14.1122 1.5787 -2.9937 0.9436
13.9158 2.8285 -2.9937 0.9436
13.6091 4.0560 -2.9938 0.9436
12.5240 4.9844 -2.8417 0.9464
11.4431 7.1268 -2.8420 0.9464
10.7641 8.1176 -2.8423 0.9464
9.9997 9.0442 -2.8425 0.9464
8.2394 10.6760 -2.8431 0.9464
7.2573 11.3683 -2.8434 0.9464
5.1279 12.4780 -2.8441 0.9463
1.6497 13.3950 -2.8453 0.9463
-1.9486 13.3607 -2.8465 0.9463
-3.1305 13.1361 -2.8469 0.9463
-5.4115 12.3765 -2.8477 0.9463
-7.5222 11.2239 -2.8485 0.9463
-9.3953 9.7147 -2.8492 0.9463
-10.9711 7.8966 -2.8497 0.9462
-12.1995 5.8272 -2.8502 0.9462
-12.9177 4.8106 -2.9060 0.9452
-13.7392 3.7636 -3.0032 0.9434
-13.1575 0.0000 -3.0031 0.9474
-13.1053 -1.1711 -3.0031 0.9474
-12.9490 -2.3329 -3.0031 0.9474
-11.8715 -5.6705 -3.0028 0.9475
-10.6767 -7.6846 -3.0025 0.9475
-9.9496 -8.6037 -3.0022 0.9475
-9.1436 -9.4544 -3.0020 0.9475
-8.2650 -10.2297 -3.0017 0.9475
-5.2670 -12.0459 -3.0007 0.9475
-0.7316 -13.1199 -2.9992 0.9475
2.7595 -12.8418 -2.9980 0.9475
4.9914 -12.1459 -2.9972 0.9475
6.0519 -11.6520 -2.9968 0.9476
7.0641 -11.0657 -2.9964 0.9476
9.7334 -8.8033 -2.9955 0.9476
12.1899 -4.8514 -2.9945 0.9476
12.5726 -3.7470 -2.9944 0.9476
12.8557 -2.6130 -2.9942 0.9476
13.0368 -1.4584 -2.9941 0.9476
13.1146 -0.2922 -2.9941 0.9476
13.0885 0.8762 -2.9940 0.9476
12.7260 3.1830 -2.9941 0.9476
11.3530 5.1154 -2.8421 0.9502
10.8532 6.1059 -2.8423 0.9502
10.2673 7.0481 -2.8425 0.9502
9.5999 7.9346 -2.8427 0.9502
8.0424 9.5126 -2.8432 0.9502
7.1645 10.1917 -2.8434 0.9502
6.2296 10.7901 -2.8437 0.9502
5.2451 11.3030 -2.8441 0.9502
2.0734 12.2918 -2.8451 0.9501
-0.1389 12.4679 -2.8459 0.9501
-2.3479 12.2491 -2.8467 0.9501
-4.4837 11.6418 -2.8474 0.9501
-8.2686 9.3495 -2.8488 0.9501
-11.0157 5.8782 -2.8498 0.9501
-12.5212 4.0376 -3.0028 0.9475
-13.0397 1.7537 -3.0030 0.9474
-13.1445 -0.5861 -3.0031 0.9474
-13.0401 -1.7537 -3.0031 0.9474
-12.8321 -2.9074 -3.0031 0.9474
-12.1126 -5.1362 -3.0029 0.9475
-11.6068 -6.1936 -3.0027 0.9475
-11.0088 -7.2016 -3.0026 0.9475
-10.3234 -8.1523 -3.0024 0.9475
-6.8267 -11.2383 -3.0012 0.9475
-4.7249 -12.2678 -3.0005 0.9475
-2.4743 -12.9079 -2.9998 0.9475
-1.3154 -13.0752 -2.9994 0.9475
-0.1464 -13.1386 -2.9990 0.9475
1.0235 -13.0977 -2.9986 0.9475
2.1849 -12.9529 -2.9982 0.9475
4.4457 -12.3570 -2.9974 0.9475
7.5496 -10.7394 -2.9963 0.9476
11.4356 -6.4336 -2.9948 0.9476
11.9620 -5.3898 -2.9946 0.9476
12.7268 -3.1831 -2.9943 0.9476
13.0887 -0.8762 -2.9941 0.9476
13.1146 0.2923 -2.9941 0.9476
12.8551 2.6129 -2.9941 0.9476
11.1141 5.6162 -2.8422 0.9502
9.9435 7.4987 -2.8426 0.9502
8.4578 9.1444 -2.8430 0.9502
6.7038 10.5012 -2.8436 0.9502
-0.6942 12.4502 -2.8461 0.9501
-3.9604 11.8292 -2.8472 0.9501
-4.9982 11.4312 -2.8476 0.9501
-5.9965 10.9424 -2.8480 0.9501
-6.9475 10.3664 -2.8483 0.9501
-7.8435 9.7080 -2.8486 0.9501
-9.4425 8.1652 -2.8492 0.9501
-10.1327 7.2931 -2.8495 0.9501
-10.7425 6.3628 -2.8497 0.9501
-11.2670 5.3818 -2.8499 0.9501
-12.3286 4.5912 -3.0027 0.9475
-12.9485 2.3328 -3.0030 0.9474
-13.1051 1.1711 -3.0031 0.9474
-12.0228 -2.1660 -3.0028 0.9509
-11.7821 -3.2274 -3.0027 0.9509
-11.0224 -5.2649 -3.0025 0.9509
-10.5095 -6.2248 -3.0024 0.9509
-8.4898 -8.7784 -3.0017 0.9509
-5.8673 -10.7064 -3.0009 0.9510
-4.8905 -11.1849 -3.0006 0.9510
-3.8751 -11.5745 -3.0002 0.9510
-1.7611 -12.0753 -2.9995 0.9510
-0.6793 -12.1826 -2.9991 0.9510
1.4911 -12.1070 -2.9984 0.9510
2.5625 -11.9248 -2.9980 0.9510
3.6132 -11.6479 -2.9977 0.9510
4.6351 -11.2787 -2.9973 0.9510
9.0389 -8.1752 -2.9957 0.9510
9.7298 -7.3376 -2.9954 0.9510
10.3435 -6.4420 -2.9952 0.9510
10.8750 -5.4954 -2.9950 0.9510
11.3203 -4.5053 -2.9948 0.9511
12.1069 -1.3544 -2.9944 0.9511
12.1792 -0.2714 -2.9944 0.9511
12.0343 1.8923 -2.9944 0.9511
11.8183 2.9560 -2.9944 0.9511
9.5348 6.5453 -2.8427 0.9535
8.2244 8.1333 -2.8431 0.9535
6.6532 9.4644 -2.8436 0.9535
3.9176 10.8893 -2.8445 0.9535
2.9332 11.1961 -2.8449 0.9534
1.9253 11.4141 -2.8452 0.9534
0.9019 11.5416 -2.8456 0.9534
-3.1843 11.1362 -2.8470 0.9534
-4.1633 10.8099 -2.8473 0.9534
-5.1096 10.3977 -2.8477 0.9534
-6.0154 9.9028 -2.8480 0.9534
-6.8737 9.3291 -2.8483 0.9534
-7.6775 8.6812 -2.8486 0.9534
-7.3882 6.9877 -2.4996 0.9590
-10.2279 5.4578 -2.8496 0.9534
-11.2453 4.7685 -3.0023 0.9509
-11.6257 3.7488 -3.0025 0.9509
-11.9137 2.6993 -3.0026 0.9509
-12.1071 1.6283 -3.0027 0.9509
-12.2042 0.5442 -3.0028 0.9509
-12.1074 -1.6283 -3.0028 0.9509
-11.9143 -2.6994 -3.0028 0.9509
-11.6265 -3.7490 -3.0027 0.9509
-8.8728 -8.3918 -3.0019 0.9509
-8.0900 -9.1475 -3.0016 0.9509
-7.2430 -9.8303 -3.0013 0.9509
-5.3842 -10.9565 -3.0007 0.9510
-4.3872 -11.3910 -3.0004 0.9510
-3.3555 -11.7349 -3.0001 0.9510
-2.2975 -11.9856 -2.9997 0.9510
-0.1359 -12.2000 -2.9990 0.9510
0.9504 -12.1622 -2.9986 0.9510
3.0910 -11.7980 -2.9978 0.9510
4.1283 -11.4747 -2.9975 0.9510
6.0960 -10.5585 -2.9968 0.9510
7.0107 -9.9729 -2.9964 0.9510
8.6662 -8.5701 -2.9958 0.9510
11.5095 -3.9965 -2.9947 0.9511
12.1551 -0.8137 -2.9944 0.9511
12.1792 0.2714 -2.9944 0.9511
12.1067 1.3544 -2.9944 0.9511
11.6751 3.4796 -2.9945 0.9511
10.3213 5.2156 -2.8425 0.9535
9.8166 6.1139 -2.8426 0.9535
9.2341 6.9638 -2.8428 0.9535
8.5782 7.7586 -2.8430 0.9535
7.8543 8.4920 -2.8432 0.9535
6.2253 9.7518 -2.8438 0.9535
4.3986 10.7034 -2.8444 0.9535
3.4289 11.0537 -2.8447 0.9534
2.4317 11.3163 -2.8450 0.9534
1.4150 11.4892 -2.8454 0.9534
-0.6446 11.5610 -2.8461 0.9534
-2.6849 11.2663 -2.8468 0.9534
-5.5680 10.1603 -2.8478 0.9534
-6.4509 9.6255 -2.8481 0.9534
-7.2828 9.0141 -2.8484 0.9534
-7.0981 7.3394 -2.5097 0.9588
-8.7674 7.5815 -2.8490 0.9534
-12.1677 1.0873 -3.0027 0.9509
-11.3495 -1.0142 -3.0025 0.9540
-11.2141 -2.0203 -3.0025 0.9540
-10.9896 -3.0104 -3.0025 0.9540
-9.8027 -5.8062 -3.0021 0.9540
-9.2465 -6.6552 -3.0019 0.9540
-7.9189 -8.1881 -3.0015 0.9540
-7.1581 -8.8597 -3.0013 0.9540
-6.3406 -9.4608 -3.0010 0.9540
-5.4729 -9.9867 -3.0007 0.9540
-4.5618 -10.4331 -3.0004 0.9540
-3.6147 -10.7966 -3.0001 0.9540
-1.6428 -11.2639 -2.9995 0.9540
-0.6337 -11.3641 -2.9991 0.9540
1.3910 -11.2938 -2.9984 0.9540
2.3904 -11.1239 -2.9981 0.9540
3.3706 -10.8657 -2.9977 0.9540
4.3238 -10.5214 -2.9974 0.9540
5.2426 -10.0937 -2.9970 0.9540
6.9477 -9.0024 -2.9964 0.9541
7.7207 -8.3475 -2.9961 0.9541
8.4323 -7.6265 -2.9959 0.9541
10.1453 -5.1266 -2.9952 0.9541
10.5608 -4.2031 -2.9951 0.9541
11.2947 -1.2635 -2.9947 0.9541
11.3622 -0.2532 -2.9947 0.9541
11.2270 1.7654 -2.9947 0.9541
10.7365 3.7281 -2.9948 0.9541
8.3168 6.8741 -2.8431 0.9563
7.6725 7.5875 -2.8433 0.9563
6.9673 8.2410 -2.8436 0.9563
5.3967 9.3474 -2.8441 0.9563
4.5438 9.7916 -2.8444 0.9563
3.6546 10.1582 -2.8446 0.9563
2.7363 10.4443 -2.8450 0.9563
1.7960 10.6476 -2.8453 0.9563
0.8413 10.7665 -2.8456 0.9563
-1.0812 10.7475 -2.8463 0.9563
-2.0337 10.6099 -2.8466 0.9563
-2.9703 10.3879 -2.8469 0.9563
-4.7662 9.6989 -2.8476 0.9563
-7.1614 8.0975 -2.8484 0.9563
-8.4851 6.7007 -2.8489 0.9563
-9.0485 5.9193 -2.8491 0.9563
-10.4890 4.4478 -3.0021 0.9540
-10.8438 3.4967 -3.0022 0.9540
-11.2928 1.5187 -3.0024 0.9540
-11.3834 -0.5076 -3.0025 0.9540
-11.2931 -1.5188 -3.0025 0.9540
-10.0519 -5.3638 -3.0022 0.9540
-9.5341 -6.2369 -3.0020 0.9540
-8.9406 -7.0603 -3.0019 0.9540
-8.2762 -7.8275 -3.0016 0.9540
-6.7561 -9.1694 -3.0012 0.9540
-3.1300 -10.9463 -3.0000 0.9540
-2.1431 -11.1802 -2.9996 0.9540
0.8865 -11.3452 -2.9986 0.9540
3.8511 -10.7042 -2.9975 0.9540
6.5401 -9.3034 -2.9966 0.9540
7.3415 -8.6835 -2.9963 0.9541
8.7633 -7.2430 -2.9958 0.9541
9.3724 -6.4338 -2.9955 0.9541
10.3633 -4.6695 -2.9951 0.9541
11.0260 -2.7578 -2.9949 0.9541
11.2945 1.2635 -2.9947 0.9541
10.8918 3.2461 -2.9947 0.9541
10.5600 4.2028 -2.9948 0.9541
5.8075 9.0973 -2.8439 0.9563
4.9752 9.5790 -2.8442 0.9563
4.1033 9.9848 -2.8445 0.9563
3.1987 10.3115 -2.8448 0.9563
2.2684 10.5564 -2.8451 0.9563
-2.5045 10.5094 -2.8468 0.9563
-3.4303 10.2459 -2.8471 0.9563
-6.0173 8.9785 -2.8480 0.9563
-7.0755 7.3161 -2.6819 0.9588
-8.1779 7.0717 -2.8488 0.9563
-8.7755 6.3163 -2.8490 0.9563
-10.0306 4.7913 -2.9291 0.9551
-11.2137 2.0203 -3.0024 0.9540
-11.3493 1.0142 -3.0025 0.9540
-10.6284 -0.9497 -3.0023 0.9566
-10.5016 -1.8919 -3.0023 0.9566
-9.9993 -3.7238 -3.0021 0.9566
-9.1799 -5.4372 -3.0019 0.9566
-8.0695 -6.9780 -3.0016 0.9566
-7.4159 -7.6680 -3.0013 0.9566
-6.7035 -8.2969 -3.0011 0.9566
-5.9379 -8.8599 -3.0009 0.9566
-1.5385 -10.5488 -2.9994 0.9567
-0.5934 -10.6428 -2.9991 0.9567
1.3027 -10.5771 -2.9984 0.9567
2.2387 -10.4180 -2.9981 0.9567
4.0495 -9.8539 -2.9975 0.9567
4.9100 -9.4534 -2.9971 0.9567
6.5071 -8.4315 -2.9966 0.9567
9.0376 -5.6286 -2.9956 0.9567
10.2019 -3.0404 -2.9951 0.9567
10.4317 -2.1203 -2.9950 0.9567
10.5788 -1.1834 -2.9950 0.9567
10.6419 -0.2371 -2.9949 0.9567
10.6208 0.7110 -2.9949 0.9567
10.5154 1.6535 -2.9949 0.9567
7.7895 6.4382 -2.8433 0.9589
7.1860 7.1065 -2.8435 0.9589
5.8131 8.2693 -2.8440 0.9589
5.0545 8.7546 -2.8442 0.9589
4.2556 9.1706 -2.8445 0.9589
1.6821 9.9721 -2.8453 0.9588
0.7879 10.0833 -2.8456 0.9588
-0.1127 10.1145 -2.8459 0.9588
-1.0126 10.0654 -2.8463 0.9588
-1.9047 9.9364 -2.8466 0.9588
-3.6370 9.4433 -2.8472 0.9588
-4.4635 9.0831 -2.8475 0.9588
-6.7066 7.5833 -2.8483 0.9588
-7.3345 6.9370 -2.8404 0.9589
-8.4737 5.5433 -2.8490 0.9588
-8.9901 4.7973 -2.8670 0.9585
-9.8226 4.1652 -3.0019 0.9566
-10.4064 2.3578 -3.0021 0.9566
-10.6600 0.4754 -3.0022 0.9566
-10.6601 -0.4753 -3.0023 0.9566
-10.5755 -1.4222 -3.0023 0.9566
-10.1554 -3.2747 -3.0022 0.9566
-9.8234 -4.1654 -3.0021 0.9566
-9.4133 -5.0230 -3.0020 0.9566
-8.9284 -5.8407 -3.0018 0.9566
-8.3726 -6.6118 -3.0016 0.9566
-7.7504 -7.3303 -3.0015 0.9566
-7.0667 -7.9904 -3.0012 0.9566
-6.3270 -8.5870 -3.0010 0.9566
-4.7034 -9.5710 -3.0005 0.9567
-3.8325 -9.9507 -3.0002 0.9567
-2.0070 -10.4704 -2.9996 0.9567
-0.1187 -10.6581 -2.9989 0.9567
0.8303 -10.6252 -2.9986 0.9567
3.6067 -10.0251 -2.9976 0.9567
6.1253 -8.7134 -2.9967 0.9567
6.8759 -8.1328 -2.9964 0.9567
8.2076 -6.7838 -2.9959 0.9567
9.7063 -4.3734 -2.9954 0.9567
10.3271 -2.5829 -2.9951 0.9567
10.5157 -1.6535 -2.9950 0.9567
10.6209 -0.7110 -2.9949 0.9567
10.6419 0.2372 -2.9949 0.9567
10.2014 3.0404 -2.9950 0.9567
8.5774 5.3421 -2.8431 0.9589
8.0683 6.0846 -2.8432 0.9589
7.4952 6.7790 -2.8434 0.9589
6.8626 7.4198 -2.8436 0.9589
5.4392 8.5203 -2.8441 0.9589
4.6597 8.9715 -2.8443 0.9589
3.8430 9.3515 -2.8446 0.9589
1.2363 10.0376 -2.8455 0.9588
0.3380 10.1089 -2.8458 0.9588
-2.3455 9.8423 -2.8467 0.9588
-7.0339 7.2731 -2.8468 0.9588
-7.6584 6.6225 -2.8486 0.9588
-9.6271 4.5985 -3.0018 0.9566
-9.9987 3.7236 -3.0019 0.9566
-10.2908 2.8190 -3.0021 0.9566
-10.0275 0.0000 -3.0020 0.9590
-9.6710 -2.6491 -3.0020 0.9590
-9.3967 -3.4993 -3.0019 0.9590
-6.2996 -7.7971 -3.0010 0.9590
-5.5802 -8.3261 -3.0007 0.9590
-4.8165 -8.7890 -3.0005 0.9590
-4.0148 -9.1820 -3.0002 0.9590
-3.1813 -9.5021 -2.9999 0.9590
-2.3227 -9.7465 -2.9996 0.9590
0.3347 -10.0108 -2.9987 0.9590
1.2243 -9.9403 -2.9984 0.9590
2.1039 -9.7909 -2.9981 0.9590
3.8058 -9.2609 -2.9975 0.9591
6.1156 -7.9242 -2.9967 0.9591
6.7960 -7.3478 -2.9964 0.9591
7.9900 -6.0255 -2.9960 0.9591
9.5884 -2.8576 -2.9954 0.9591
9.9426 -1.1122 -2.9952 0.9591
9.1219 4.1102 -2.9953 0.9591
7.3210 6.0510 -2.8435 0.9611
6.7538 6.6790 -2.8437 0.9611
4.7504 8.2279 -2.8443 0.9611
3.9995 8.6188 -2.8446 0.9611
2.4085 9.1931 -2.8451 0.9611
-0.9516 9.4594 -2.8463 0.9611
-1.7900 9.3381 -2.8465 0.9611
-2.6143 9.1427 -2.8468 0.9611
-3.4180 8.8746 -2.8471 0.9611
-4.9383 8.1296 -2.8477 0.9611
-6.3025 7.1264 -2.8482 0.9611
-6.9123 6.5377 -2.8484 0.9611
-7.4673 5.8969 -2.8486 0.9610
-7.9631 5.2092 -2.8488 0.9610
-9.2307 3.9142 -3.0017 0.9590
-9.5428 3.0772 -3.0018 0.9590
-9.9380 -1.3365 -3.0020 0.9590
-9.7795 -2.2157 -3.0020 0.9590
-9.5433 -3.0773 -3.0020 0.9590
-8.3903 -5.4887 -3.0016 0.9590
-6.6409 -7.5090 -3.0011 0.9590
-4.4200 -8.9945 -3.0003 0.9590
-1.8862 -9.8399 -2.9995 0.9590
0.7803 -9.9855 -2.9986 0.9590
1.6658 -9.8754 -2.9983 0.9590
7.1163 -7.0375 -2.9963 0.9591
7.7139 -6.3757 -2.9961 0.9591
8.2502 -5.6634 -2.9959 0.9591
8.7210 -4.9063 -2.9957 0.9591
9.1226 -4.1104 -2.9955 0.9591
9.4518 -3.2820 -2.9954 0.9591
9.8833 -1.5541 -2.9952 0.9591
9.9822 -0.6682 -2.9952 0.9591
9.9424 1.1123 -2.9951 0.9591
9.8040 1.9928 -2.9951 0.9591
9.2958 3.6996 -2.9953 0.9591
12.6524 6.3936 -4.2440 0.9425
7.5831 5.7187 -2.8434 0.9611
6.4498 6.9735 -2.8438 0.9611
5.8039 7.5204 -2.8440 0.9611
5.1120 8.0078 -2.8442 0.9611
4.3793 8.4317 -2.8444 0.9611
2.8155 9.0762 -2.8450 0.9611
1.9967 9.2917 -2.8452 0.9611
0.3176 9.5004 -2.8458 0.9611
-1.3721 9.4081 -2.8464 0.9611
-3.8101 8.7140 -2.8473 0.9611
-8.1875 4.8495 -2.8489 0.9610
-9.3961 3.4991 -3.0017 0.9590
-9.9876 0.8925 -3.0020 0.9590
-9.4521 0.0000 -3.0018 0.9611
-9.4146 -0.8413 -3.0018 0.9611
-9.3023 -1.6759 -3.0018 0.9611
-9.1161 -2.4971 -3.0018 0.9611
-8.8575 -3.2986 -3.0017 0.9611
-8.5285 -4.0737 -3.0016 0.9611
-7.6704 -5.5208 -3.0014 0.9611
-5.2601 -7.8486 -3.0006 0.9611
-4.5403 -8.2850 -3.0004 0.9611
-3.7845 -8.6554 -3.0001 0.9611
-2.1895 -9.1877 -2.9996 0.9611
-1.3630 -9.3452 -2.9993 0.9611
-0.5257 -9.4285 -2.9990 0.9611
1.9834 -9.2298 -2.9981 0.9612
3.5877 -8.7302 -2.9976 0.9612
4.3501 -8.3755 -2.9973 0.9612
5.0779 -7.9543 -2.9970 0.9612
6.9973 -6.3287 -2.9963 0.9612
7.5323 -5.6804 -2.9961 0.9612
8.0075 -4.9871 -2.9960 0.9612
8.4192 -4.2544 -2.9958 0.9612
8.7640 -3.4880 -2.9957 0.9612
9.2430 -1.8787 -2.9954 0.9612
9.3733 -1.0486 -2.9954 0.9612
9.3171 1.4651 -2.9953 0.9612
9.1499 2.2886 -2.9954 0.9612
8.9100 3.0939 -2.9954 0.9612
11.6478 6.5529 -4.2444 0.9455
7.3817 5.0672 -2.8435 0.9631
6.3670 6.2965 -2.8438 0.9631
4.4782 7.7566 -2.8444 0.9631
3.7704 8.1250 -2.8447 0.9631
2.2705 8.6663 -2.8452 0.9631
0.6981 8.9332 -2.8457 0.9631
-0.0998 8.9608 -2.8460 0.9631
-1.6874 8.8028 -2.8465 0.9631
-2.4644 8.6185 -2.8468 0.9631
-3.2220 8.3658 -2.8471 0.9631
-3.9542 8.0465 -2.8473 0.9631
-5.3191 7.2192 -2.8478 0.9631
-7.0390 5.5587 -2.8485 0.9631
-7.5063 4.9104 -2.8486 0.9631
-9.2180 2.0886 -3.0017 0.9611
-9.4427 -0.4211 -3.0018 0.9611
-8.7016 -3.6898 -3.0017 0.9611
-8.3384 -4.4495 -3.0016 0.9611
-6.8655 -6.4934 -3.0011 0.9611
-6.2599 -7.0782 -3.0009 0.9611
-5.6047 -7.6068 -3.0007 0.9611
-0.1052 -9.4421 -2.9989 0.9611
0.7356 -9.4131 -2.9986 0.9611
2.3924 -9.1318 -2.9980 0.9612
3.1954 -8.8818 -2.9977 0.9612
4.7187 -8.1730 -2.9972 0.9612
5.4270 -7.7199 -2.9969 0.9612
6.0920 -7.2057 -2.9967 0.9612
6.7087 -6.6343 -2.9964 0.9612
8.2215 -4.6254 -2.9959 0.9612
8.6001 -3.8750 -2.9957 0.9612
9.4106 -0.6299 -2.9954 0.9612
9.4293 0.2102 -2.9953 0.9612
9.0389 2.6939 -2.9954 0.9612
8.7635 3.4878 -2.9955 0.9612
11.9279 6.0275 -4.2443 0.9455
7.5999 4.7332 -2.8434 0.9631
6.6409 6.0064 -2.8437 0.9631
6.0804 6.5741 -2.8439 0.9631
4.8191 7.5490 -2.8443 0.9631
4.1284 7.9487 -2.8445 0.9631
3.4049 8.2852 -2.8448 0.9631
0.2994 8.9559 -2.8458 0.9631
-0.4989 8.9479 -2.8461 0.9631
-1.2935 8.8688 -2.8464 0.9631
-3.5916 8.2143 -2.8472 0.9631
-4.3089 7.8627 -2.8475 0.9631
-4.9920 7.4487 -2.8477 0.9631
-6.2346 6.4466 -2.8482 0.9631
-6.7841 5.8665 -2.8484 0.9631
-7.2798 5.2397 -2.8485 0.9631
-8.0576 4.7726 -2.9742 0.9615
-8.5278 4.0734 -3.0014 0.9611
-9.1157 2.4971 -3.0017 0.9611
-9.3020 1.6759 -3.0017 0.9611
-8.8986 -0.7952 -3.0017 0.9630
-8.3720 -3.1177 -3.0016 0.9630
-8.0610 -3.8504 -3.0015 0.9630
-7.6860 -4.5524 -3.0014 0.9630
-6.7564 -5.8425 -3.0011 0.9630
-6.2093 -6.4203 -3.0009 0.9630
-5.6128 -6.9471 -3.0007 0.9630
-4.2915 -7.8310 -3.0003 0.9630
-3.5772 -8.1812 -3.0000 0.9630
-2.8346 -8.4665 -2.9998 0.9630
0.2982 -8.9202 -2.9987 0.9630
2.6436 -8.5221 -2.9979 0.9630
3.3913 -8.2523 -2.9976 0.9631
4.1120 -7.9171 -2.9974 0.9631
4.8000 -7.5190 -2.9971 0.9631
6.0561 -6.5478 -2.9967 0.9631
6.6144 -5.9824 -2.9965 0.9631
7.5694 -4.7143 -2.9961 0.9631
8.2846 -3.2972 -2.9958 0.9631
8.5448 -2.5466 -2.9957 0.9631
8.9135 -0.1986 -2.9955 0.9631
8.8958 0.5955 -2.9955 0.9631
8.6493 2.1634 -2.9955 0.9631
8.4226 2.9247 -2.9956 0.9631
6.9778 4.7900 -2.8436 0.9649
6.5241 5.3923 -2.8438 0.9649
6.0186 5.9519 -2.8439 0.9649
5.4653 6.4644 -2.8441 0.9649
4.8686 6.9257 -2.8443 0.9649
4.2332 7.3321 -2.8445 0.9649
3.5640 7.6804 -2.8447 0.9649
1.4087 8.3512 -2.8455 0.9649
0.6598 8.4442 -2.8457 0.9649
-0.0944 8.4702 -2.8460 0.9649
-2.3294 8.1465 -2.8468 0.9649
-3.0455 7.9076 -2.8470 0.9649
-5.0277 6.8237 -2.8477 0.9649
-7.8808 4.2053 -3.0012 0.9630
-8.2241 3.4873 -3.0013 0.9630
-8.5022 2.7417 -3.0014 0.9630
-8.7128 1.9741 -3.0015 0.9630
-8.8541 1.1908 -3.0016 0.9630
-8.8543 -1.1908 -3.0017 0.9630
-8.7131 -1.9741 -3.0016 0.9630
-8.5026 -2.7417 -3.0016 0.9630
-8.2247 -3.4875 -3.0015 0.9630
-7.4754 -4.8902 -3.0013 0.9630
-7.0102 -5.5358 -3.0011 0.9630
-6.4893 -6.1375 -3.0010 0.9630
-4.6363 -7.6323 -3.0004 0.9630
-3.9383 -8.0141 -3.0002 0.9630
-3.2091 -8.3322 -2.9999 0.9630
-1.6806 -8.7676 -2.9994 0.9630
-0.8935 -8.8816 -2.9991 0.9630
-0.0994 -8.9251 -2.9989 0.9630
0.6953 -8.8977 -2.9986 0.9630
2.2615 -8.6319 -2.9980 0.9630
3.0205 -8.3955 -2.9978 0.9630
4.4604 -7.7257 -2.9973 0.9631
5.1300 -7.2974 -2.9970 0.9631
6.3416 -6.2713 -2.9966 0.9631
6.8741 -5.6816 -2.9964 0.9631
7.3521 -5.0469 -2.9962 0.9631
7.7717 -4.3723 -2.9960 0.9631
8.1296 -3.6630 -2.9959 0.9631
8.6497 -2.1634 -2.9957 0.9631
8.7371 1.7759 -2.9955 0.9631
8.2841 3.2970 -2.9956 0.9631
7.9580 4.0214 -2.9957 0.9631
7.5302 4.6898 -2.9805 0.9633
6.7577 5.0962 -2.8437 0.9649
6.2776 5.6778 -2.8439 0.9649
5.1721 6.7017 -2.8442 0.9649
3.9025 7.5136 -2.8446 0.9649
3.2185 7.8318 -2.8449 0.9649
2.5089 8.0878 -2.8451 0.9649
0.2830 8.4655 -2.8459 0.9649
-2.6901 8.0350 -2.8469 0.9649
-6.8809 4.9526 -2.8484 0.9649
-7.6854 4.5521 -3.0011 0.9630
-8.3715 3.1176 -3.0014 0.9630
-8.6161 2.3602 -3.0015 0.9630
-8.4648 0.0000 -3.0015 0.9647
-8.4312 -0.7534 -3.0015 0.9647
-8.3307 -1.5008 -3.0015 0.9647
-8.1639 -2.2363 -3.0015 0.9647
-7.9323 -2.9540 -3.0014 0.9647
-7.2824 -4.3133 -3.0012 0.9647
-6.4017 -5.5357 -3.0009 0.9647
-5.8832 -6.0832 -3.0008 0.9647
-5.3181 -6.5823 -3.0006 0.9647
-3.3894 -7.7518 -3.0000 0.9647
-2.6858 -8.0221 -2.9997 0.9647
-1.2207 -8.3698 -2.9992 0.9647
0.2826 -8.4522 -2.9987 0.9647
1.0337 -8.3928 -2.9985 0.9647
2.5049 -8.0751 -2.9979 0.9648
5.7386 -6.2045 -2.9968 0.9648
7.5414 -3.8108 -2.9961 0.9648
8.0969 -2.4131 -2.9959 0.9648
8.2794 -1.6829 -2.9958 0.9648
8.4295 0.5643 -2.9957 0.9648
8.3458 1.3124 -2.9957 0.9648
8.1960 2.0500 -2.9957 0.9648
7.7030 3.4708 -2.9958 0.9648
7.3637 4.1428 -2.9959 0.9648
6.8468 4.7001 -2.9447 0.9654
5.7031 5.6399 -2.8441 0.9665
5.1788 6.1255 -2.8442 0.9665
4.6133 6.5625 -2.8444 0.9665
4.0112 6.9476 -2.8446 0.9665
2.7162 7.5499 -2.8450 0.9665
0.6252 8.0012 -2.8457 0.9665
-0.8035 7.9866 -2.8462 0.9665
-1.5113 7.8841 -2.8465 0.9665
-2.2072 7.7190 -2.8467 0.9665
-2.8857 7.4925 -2.8470 0.9665
-4.1691 6.8633 -2.8474 0.9665
-4.7638 6.4655 -2.8476 0.9665
-5.3207 6.0162 -2.8479 0.9665
-5.8354 5.5191 -2.8480 0.9665
-7.0823 4.6331 -3.0009 0.9647
-7.4669 3.9845 -3.0010 0.9647
-8.4564 -0.3771 -3.0015 0.9647
-8.0561 -2.5977 -3.0014 0.9647
-7.7927 -3.3044 -3.0014 0.9647
-6.1486 -5.8153 -3.0009 0.9647
-5.6062 -6.3390 -3.0007 0.9647
-4.3929 -7.2317 -3.0003 0.9647
-3.7315 -7.5934 -3.0001 0.9647
-1.5924 -8.3075 -2.9994 0.9647
-0.8466 -8.4155 -2.9991 0.9647
1.4065 -8.3380 -2.9983 0.9647
2.1428 -8.1790 -2.9981 0.9648
3.5585 -7.6683 -2.9976 0.9648
4.2265 -7.3205 -2.9973 0.9648
5.4567 -6.4542 -2.9969 0.9648
6.5137 -5.3837 -2.9965 0.9648
6.9667 -4.7823 -2.9963 0.9648
7.3643 -4.1430 -2.9962 0.9648
7.7035 -3.4710 -2.9960 0.9648
7.9815 -2.7714 -2.9959 0.9648
8.1963 -2.0500 -2.9958 0.9648
8.3460 -1.3123 -2.9957 0.9648
8.4462 0.1882 -2.9957 0.9648
8.3960 0.9392 -2.9957 0.9648
8.0966 2.4131 -2.9957 0.9648
6.4034 4.8290 -2.8438 0.9665
5.9485 5.3801 -2.8440 0.9665
4.9009 6.3503 -2.8443 0.9665
4.3165 6.7618 -2.8445 0.9665
2.3773 7.6637 -2.8452 0.9665
1.6859 7.8454 -2.8454 0.9665
0.2682 8.0214 -2.8459 0.9665
-1.1585 7.9433 -2.8464 0.9665
-3.2167 7.3569 -2.8471 0.9665
-5.0472 6.2471 -2.8478 0.9665
-6.0757 5.2539 -2.8481 0.9665
-7.2818 4.3130 -3.0010 0.9647
-8.1636 2.2363 -3.0013 0.9647
-8.4311 0.7534 -3.0015 0.9647
-8.0058 -0.7154 -3.0014 0.9663
-7.7520 -2.1235 -3.0013 0.9663
-7.2523 -3.4641 -3.0012 0.9663
-6.9150 -4.0957 -3.0011 0.9663
-6.5227 -4.6948 -3.0010 0.9663
-6.0787 -5.2564 -3.0008 0.9663
-5.5864 -5.7763 -3.0007 0.9663
-5.0499 -6.2502 -3.0005 0.9663
-4.4732 -6.6745 -3.0003 0.9663
-2.5504 -7.6176 -2.9997 0.9663
-1.8621 -7.8137 -2.9994 0.9663
-1.1592 -7.9478 -2.9992 0.9663
-0.4471 -8.0188 -2.9990 0.9663
0.2683 -8.0261 -2.9987 0.9663
0.9816 -7.9697 -2.9985 0.9663
2.3787 -7.6681 -2.9980 0.9663
4.9037 -6.3539 -2.9971 0.9663
5.4495 -5.8919 -2.9969 0.9663
6.4070 -4.8317 -2.9965 0.9663
6.8113 -4.2421 -2.9963 0.9663
7.1615 -3.6188 -2.9962 0.9663
7.4549 -2.9669 -2.9961 0.9663
7.6891 -2.2916 -2.9960 0.9663
7.9732 -0.8919 -2.9959 0.9663
8.0209 -0.1787 -2.9958 0.9663
6.9928 3.9341 -2.9961 0.9663
6.6152 4.5411 -2.9962 0.9663
5.8707 4.8522 -2.8440 0.9680
5.4158 5.3558 -2.8442 0.9680
4.9178 5.8169 -2.8443 0.9680
3.8091 6.5975 -2.8447 0.9680
1.9311 7.3711 -2.8453 0.9680
0.5937 7.5979 -2.8458 0.9680
-0.0849 7.6212 -2.8460 0.9680
-0.7630 7.5840 -2.8462 0.9680
-1.4351 7.4867 -2.8465 0.9680
-2.7402 7.1147 -2.8469 0.9680
-4.5235 6.1394 -2.8476 0.9680
-5.0523 5.7128 -2.8478 0.9680
-5.5411 5.2408 -2.8479 0.9680
-6.0524 4.7796 -2.8798 0.9676
-6.7250 4.3993 -3.0008 0.9663
-7.0902 3.7834 -3.0009 0.9663
-7.6493 2.4666 -3.0012 0.9663
-7.8387 1.7761 -3.0012 0.9663
-7.9658 1.0713 -3.0013 0.9663
-8.0296 0.3580 -3.0013 0.9663
-7.8389 -1.7760 -3.0013 0.9663
-7.6496 -2.4667 -3.0013 0.9663
-7.3995 -3.1376 -3.0012 0.9663
-7.0907 -3.7837 -3.0011 0.9663
-6.3070 -4.9805 -3.0009 0.9663
-4.7663 -6.4688 -3.0004 0.9663
-3.5433 -7.2104 -3.0000 0.9663
-0.0895 -8.0304 -2.9988 0.9663
2.0348 -7.7668 -2.9981 0.9663
2.7178 -7.5543 -2.9978 0.9663
4.6160 -6.5663 -2.9972 0.9663
5.1817 -6.1290 -2.9970 0.9663
5.7063 -5.6431 -2.9968 0.9663
6.1856 -5.1125 -2.9966 0.9663
7.3154 -3.2961 -2.9961 0.9663
7.5795 -2.6319 -2.9960 0.9663
8.0050 -0.5358 -2.9958 0.9663
8.0208 0.1788 -2.9958 0.9663
7.9731 0.8920 -2.9958 0.9663
7.8621 1.5981 -2.9958 0.9663
7.1610 3.6186 -2.9960 0.9663
6.8108 4.2418 -2.9961 0.9663
5.6488 5.1091 -2.8441 0.9680
4.0990 6.4211 -2.8446 0.9680
2.8960 7.0471 -2.8450 0.9680
2.2575 7.2774 -2.8452 0.9680
0.9315 7.5636 -2.8457 0.9680
0.2547 7.6171 -2.8459 0.9680
-0.4243 7.6102 -2.8461 0.9680
-1.1001 7.5428 -2.8464 0.9680
-1.7672 7.4156 -2.8466 0.9680
-2.4204 7.2294 -2.8468 0.9680
-3.0545 6.9859 -2.8470 0.9680
-3.6644 6.6868 -2.8473 0.9680
-4.2454 6.3345 -2.8475 0.9680
-4.7927 5.9320 -2.8477 0.9680
-5.3020 5.4822 -2.8479 0.9680
-6.5222 4.6944 -3.0007 0.9663
-7.2519 3.4639 -3.0010 0.9663
-7.5317 2.8048 -3.0011 0.9663
-7.7517 2.1235 -3.0012 0.9663
-7.9101 1.4251 -3.0013 0.9663
-8.0057 0.7154 -3.0013 0.9663
-7.5258 -1.3558 -3.0012 0.9677
-7.3752 -2.0203 -3.0012 0.9677
-7.1660 -2.6686 -3.0011 0.9677
-6.5789 -3.8967 -3.0010 0.9677
-6.2057 -4.4666 -3.0008 0.9677
-5.7833 -5.0010 -3.0007 0.9677
-5.3150 -5.4956 -3.0006 0.9677
-3.6735 -6.7033 -3.0000 0.9677
-3.0621 -7.0032 -2.9998 0.9677
-2.4265 -7.2475 -2.9996 0.9677
-1.1029 -7.5617 -2.9992 0.9677
-0.4254 -7.6293 -2.9989 0.9677
0.2553 -7.6363 -2.9987 0.9677
0.9339 -7.5827 -2.9985 0.9677
2.2632 -7.2958 -2.9980 0.9677
2.9033 -7.0649 -2.9978 0.9677
3.5204 -6.7779 -2.9976 0.9677
4.6657 -6.0455 -2.9971 0.9677
5.1850 -5.6059 -2.9969 0.9677
5.6630 -5.1218 -2.9968 0.9677
6.0961 -4.5972 -2.9966 0.9677
6.4807 -4.0362 -2.9965 0.9677
6.8140 -3.4432 -2.9963 0.9677
7.3160 -2.1804 -2.9961 0.9677
7.4808 -1.5205 -2.9960 0.9677
7.6165 0.5099 -2.9959 0.9677
7.5409 1.1858 -2.9960 0.9677
7.4055 1.8523 -2.9960 0.9677
6.6535 3.7432 -2.9962 0.9677
5.1529 5.0958 -2.8443 0.9693
4.6792 5.5346 -2.8444 0.9693
4.1682 5.9294 -2.8446 0.9693
3.6242 6.2772 -2.8448 0.9693
3.0513 6.5754 -2.8450 0.9693
1.8374 7.0132 -2.8454 0.9693
1.2060 7.1494 -2.8456 0.9693
-1.3654 7.1230 -2.8465 0.9693
-1.9941 6.9737 -2.8467 0.9693
-4.3037 5.8411 -2.8475 0.9693
-5.2718 4.9861 -2.8479 0.9693
-6.3982 4.1855 -3.0007 0.9677
-7.0395 2.9850 -3.0009 0.9677
-7.2775 2.3467 -3.0010 0.9677
-7.4577 1.6897 -3.0011 0.9677
-7.6394 0.3407 -3.0012 0.9677
-7.4579 -1.6897 -3.0012 0.9677
-7.0399 -2.9851 -3.0011 0.9677
-6.3987 -4.1858 -3.0009 0.9677
-6.0005 -4.7385 -3.0008 0.9677
-5.0647 -5.7268 -3.0005 0.9677
-4.5347 -6.1545 -3.0003 0.9677
-3.9686 -6.5333 -3.0001 0.9677
-3.3712 -6.8601 -2.9999 0.9677
-2.1011 -7.3481 -2.9995 0.9677
-0.7649 -7.6030 -2.9991 0.9677
-0.0851 -7.6404 -2.9988 0.9677
0.5952 -7.6170 -2.9986 0.9677
1.9360 -7.3896 -2.9981 0.9677
2.5858 -7.1875 -2.9979 0.9677
3.2151 -6.9283 -2.9977 0.9677
3.8187 -6.6141 -2.9974 0.9677
4.3919 -6.2475 -2.9972 0.9677
4.9302 -5.8315 -2.9970 0.9677
5.8854 -4.8643 -2.9967 0.9677
7.2117 -2.5042 -2.9962 0.9677
7.4058 -1.8523 -2.9961 0.9677
7.5862 0.8487 -2.9959 0.9677
7.4806 1.5205 -2.9960 0.9677
7.3157 2.1804 -2.9960 0.9677
6.8135 3.4430 -2.9961 0.9677
5.3747 4.8611 -2.8442 0.9693
4.9209 5.3205 -2.8443 0.9693
4.4281 5.7377 -2.8445 0.9693
2.7554 6.7050 -2.8451 0.9693
2.1479 6.9241 -2.8453 0.9693
0.8863 7.1963 -2.8457 0.9693
-2.3028 6.8783 -2.8468 0.9693
-2.9061 6.6465 -2.8470 0.9693
-3.4864 6.3619 -2.8472 0.9693
-4.0391 6.0268 -2.8474 0.9693
-4.5598 5.6437 -2.8476 0.9693
-5.0443 5.2158 -2.8478 0.9693
-7.5256 1.3558 -3.0011 0.9677
-7.2881 0.0000 -3.0011 0.9690
-7.2592 -0.6487 -3.0011 0.9690
-6.2701 -3.7138 -3.0008 0.9690
-4.0562 -6.0522 -3.0001 0.9690
-3.5012 -6.3888 -3.0000 0.9690
-2.9185 -6.6747 -2.9998 0.9690
-2.3126 -6.9075 -2.9996 0.9690
0.2433 -7.2782 -2.9987 0.9690
0.8901 -7.2271 -2.9985 0.9690
2.1571 -6.9537 -2.9980 0.9690
2.7672 -6.7336 -2.9978 0.9690
3.3553 -6.4602 -2.9976 0.9690
3.9168 -6.1355 -2.9974 0.9690
4.4470 -5.7621 -2.9972 0.9690
4.9419 -5.3431 -2.9970 0.9690
5.3976 -4.8818 -2.9969 0.9690
6.1770 -3.8471 -2.9966 0.9690
6.4946 -3.2819 -2.9964 0.9690
6.9732 -2.0782 -2.9962 0.9690
7.2596 0.4860 -2.9961 0.9690
7.1876 1.1302 -2.9961 0.9690
5.6091 4.6361 -2.9965 0.9690
4.9114 4.8570 -2.8444 0.9706
3.4543 5.9830 -2.8448 0.9706
2.9082 6.2671 -2.8450 0.9706
2.3391 6.5016 -2.8452 0.9706
1.7512 6.6844 -2.8454 0.9706
-0.0770 6.9111 -2.8460 0.9705
-0.6919 6.8773 -2.8462 0.9705
-3.0494 6.2053 -2.8471 0.9705
-3.5898 5.9096 -2.8473 0.9705
-4.1018 5.5671 -2.8474 0.9705
-4.5813 5.1802 -2.8476 0.9705
-5.0519 4.7775 -2.8630 0.9704
-6.4291 3.4307 -3.0007 0.9690
-6.9360 2.2366 -3.0009 0.9690
-7.1077 1.6104 -3.0010 0.9690
-7.2809 -0.3247 -3.0011 0.9690
-7.2231 -0.9714 -3.0011 0.9690
-6.9362 -2.2366 -3.0010 0.9690
-6.7095 -2.8450 -3.0010 0.9690
-6.4295 -3.4308 -3.0009 0.9690
-5.2940 -5.0070 -3.0005 0.9690
-4.8271 -5.4580 -3.0004 0.9690
-4.3219 -5.8657 -3.0002 0.9690
-3.7824 -6.2267 -3.0001 0.9690
-3.2130 -6.5383 -2.9999 0.9690
-0.7290 -7.2465 -2.9990 0.9690
-0.0811 -7.2821 -2.9988 0.9690
0.5673 -7.2598 -2.9986 0.9690
1.2111 -7.1800 -2.9984 0.9690
4.1860 -5.9547 -2.9973 0.9690
4.6991 -5.5581 -2.9971 0.9690
5.1749 -5.1175 -2.9969 0.9690
6.8738 -2.3868 -2.9963 0.9690
7.0587 -1.7655 -2.9962 0.9690
7.1877 -1.1302 -2.9961 0.9690
7.2597 -0.4860 -2.9961 0.9690
7.1301 1.4493 -2.9961 0.9690
6.7604 2.6906 -2.9962 0.9690
6.4943 3.2817 -2.9963 0.9690
6.1766 3.8469 -2.9963 0.9690
5.8099 4.3815 -2.9965 0.9690
4.2206 5.4688 -2.8446 0.9706
3.7173 5.8230 -2.8447 0.9706
2.6263 6.3907 -2.8451 0.9706
2.0472 6.5995 -2.8453 0.9706
0.8448 6.8589 -2.8457 0.9705
0.2309 6.9074 -2.8459 0.9705
-1.6025 6.7245 -2.8466 0.9705
-3.3229 6.0635 -2.8472 0.9705
-4.3459 5.3790 -2.8475 0.9705
-4.8077 4.9711 -2.8477 0.9705
-5.4994 4.7555 -2.9938 0.9690
-5.9140 4.2567 -3.0005 0.9690
-6.8293 2.5433 -3.0009 0.9690
-7.0288 1.9254 -3.0010 0.9690
-7.1724 1.2922 -3.0010 0.9690
-7.2591 0.6487 -3.0011 0.9690
-6.9571 0.0000 -3.0010 0.9701
-6.8468 -1.2335 -3.0010 0.9701
-6.7098 -1.8380 -3.0009 0.9701
-5.9854 -3.5451 -3.0007 0.9702
-3.8720 -5.7774 -3.0001 0.9702
-3.3422 -6.0988 -2.9999 0.9702
-2.7860 -6.3717 -2.9997 0.9702
-2.2077 -6.5939 -2.9995 0.9702
-1.6119 -6.7638 -2.9993 0.9702
-0.3871 -6.9414 -2.9989 0.9702
0.8497 -6.8991 -2.9985 0.9702
1.4603 -6.7956 -2.9983 0.9702
2.6417 -6.4281 -2.9978 0.9702
3.2031 -6.1671 -2.9976 0.9702
4.2453 -5.5007 -2.9973 0.9702
4.7178 -5.1008 -2.9971 0.9702
5.1528 -4.6604 -2.9969 0.9702
5.5468 -4.1830 -2.9968 0.9702
5.8969 -3.6726 -2.9966 0.9702
6.6569 -1.9840 -2.9963 0.9702
6.9030 -0.7722 -2.9962 0.9702
6.8616 1.0790 -2.9962 0.9702
6.7384 1.6854 -2.9962 0.9702
6.3331 2.8536 -2.9963 0.9702
6.0541 3.4060 -2.9964 0.9702
5.7271 3.9315 -2.9965 0.9702
5.3547 4.4258 -2.9966 0.9702
4.2576 5.0359 -2.8446 0.9717
3.7927 5.3952 -2.8447 0.9717
2.7763 5.9828 -2.8451 0.9717
1.6718 6.3811 -2.8454 0.9717
1.0973 6.5050 -2.8456 0.9717
-0.0735 6.5974 -2.8460 0.9717
-1.2423 6.4808 -2.8464 0.9717
-2.9109 5.9236 -2.8470 0.9717
-4.3733 4.9450 -2.8476 0.9717
-5.4587 4.3107 -3.0003 0.9702
-6.7849 1.5373 -3.0009 0.9701
-6.9501 0.3099 -3.0010 0.9701
-6.9502 -0.3099 -3.0010 0.9701
-6.8950 -0.9273 -3.0010 0.9701
-6.6212 -2.1350 -3.0009 0.9701
-6.1375 -3.2750 -3.0008 0.9701
-5.4592 -4.3110 -3.0006 0.9702
-4.6079 -5.2102 -3.0003 0.9702
-4.1257 -5.5993 -3.0002 0.9702
-3.0671 -6.2414 -2.9998 0.9702
-1.9117 -6.6855 -2.9994 0.9702
-0.6959 -6.9176 -2.9990 0.9702
2.3528 -6.5396 -2.9979 0.9702
2.9253 -6.3038 -2.9977 0.9702
3.4746 -6.0181 -2.9975 0.9702
5.3551 -4.4261 -2.9969 0.9702
5.7275 -3.9317 -2.9967 0.9702
6.3334 -2.8537 -2.9965 0.9702
6.5620 -2.2786 -2.9964 0.9702
6.8618 -1.0789 -2.9962 0.9702
6.9442 0.1548 -2.9962 0.9702
6.9029 0.7722 -2.9962 0.9702
6.8068 1.3836 -2.9962 0.9702
6.1997 3.1329 -2.9964 0.9702
5.8965 3.6724 -2.9965 0.9702
5.5464 4.1828 -2.9966 0.9702
4.0291 5.2207 -2.8447 0.9717
3.5487 5.5589 -2.8448 0.9717
2.5071 6.1008 -2.8452 0.9717
1.3859 6.4495 -2.8455 0.9717
0.2205 6.5940 -2.8459 0.9717
-2.6441 6.0472 -2.8469 0.9717
-3.1720 5.7882 -2.8471 0.9717
-3.6748 5.4833 -2.8473 0.9717
-4.1485 5.1348 -2.8475 0.9717
-4.6178 4.7748 -2.8653 0.9715
-5.2612 4.5495 -3.0003 0.9702
-5.9850 3.5450 -3.0005 0.9702
-6.2770 2.9983 -3.0007 0.9702
-6.5192 2.4278 -3.0008 0.9701
-6.7096 1.8380 -3.0008 0.9701
-6.9294 0.6193 -3.0010 0.9701
-6.6506 0.0000 -3.0009 0.9712
-6.6242 -0.5919 -3.0009 0.9712
-6.4142 -1.7570 -3.0008 0.9712
-6.2323 -2.3209 -3.0008 0.9712
-6.0009 -2.8663 -3.0007 0.9712
-5.7218 -3.3890 -3.0006 0.9712
-5.0299 -4.3495 -3.0004 0.9712
-4.1786 -5.1719 -3.0002 0.9712
-3.7015 -5.5230 -3.0000 0.9712
-3.1951 -5.8303 -2.9998 0.9712
-2.1105 -6.3036 -2.9995 0.9712
0.2221 -6.6420 -2.9987 0.9713
0.8123 -6.5954 -2.9985 0.9713
1.3960 -6.4965 -2.9983 0.9713
3.0622 -5.8957 -2.9977 0.9713
4.0585 -5.2587 -2.9973 0.9713
4.9261 -4.4554 -2.9970 0.9713
5.3028 -3.9990 -2.9969 0.9713
5.6375 -3.5111 -2.9967 0.9713
5.9274 -2.9952 -2.9966 0.9713
6.1703 -2.4557 -2.9965 0.9713
6.3642 -1.8967 -2.9964 0.9713
6.5076 -1.3227 -2.9964 0.9713
6.6388 -0.1479 -2.9963 0.9713
6.5599 1.0315 -2.9963 0.9713
6.4421 1.6113 -2.9963 0.9713
5.4752 3.7585 -2.9966 0.9713
5.1192 4.2311 -2.9967 0.9713
4.0703 4.8144 -2.8446 0.9727
3.1525 5.4604 -2.8449 0.9727
2.6542 5.7196 -2.8451 0.9727
2.1347 5.9335 -2.8453 0.9727
-0.0703 6.3071 -2.8460 0.9727
-0.6314 6.2763 -2.8462 0.9727
-1.1876 6.1956 -2.8464 0.9727
-1.7344 6.0657 -2.8466 0.9727
-3.2759 5.3929 -2.8472 0.9727
-3.7432 5.0803 -2.8473 0.9727
-4.8306 4.5688 -3.0001 0.9712
-5.2184 4.1209 -3.0003 0.9712
-6.1224 2.5962 -3.0006 0.9712
-6.4860 1.4696 -3.0008 0.9712
-6.5912 0.8865 -3.0008 0.9712
-6.6440 0.2963 -3.0009 0.9712
-6.6440 -0.2963 -3.0009 0.9712
-6.5913 -0.8864 -3.0009 0.9712
-6.4862 -1.4696 -3.0009 0.9712
-6.3296 -2.0410 -3.0008 0.9712
-6.1227 -2.5962 -3.0008 0.9712
-5.5650 -3.6404 -3.0006 0.9712
-4.4050 -4.9808 -3.0002 0.9712
-3.9440 -5.3528 -3.0001 0.9712
-3.4517 -5.6823 -2.9999 0.9712
-2.9321 -5.9666 -2.9998 0.9712
-1.8275 -6.3912 -2.9994 0.9713
-0.6653 -6.6130 -2.9990 0.9713
-0.0740 -6.6455 -2.9988 0.9713
1.1053 -6.5525 -2.9984 0.9713
1.6840 -6.4277 -2.9982 0.9713
2.2492 -6.2519 -2.9980 0.9713
3.8203 -5.4345 -2.9974 0.9713
4.2886 -5.0726 -2.9972 0.9713
4.7228 -4.6705 -2.9971 0.9713
6.0548 -2.7282 -2.9966 0.9713
6.4423 -1.6113 -2.9964 0.9713
6.5600 -1.0315 -2.9963 0.9713
6.5074 1.3227 -2.9963 0.9713
6.1700 2.4556 -2.9964 0.9713
5.6371 3.5108 -2.9965 0.9713
4.9257 4.4550 -2.9968 0.9713
3.3926 5.3143 -2.8449 0.9727
2.9062 5.5955 -2.8450 0.9727
2.3968 5.8323 -2.8452 0.9727
1.3249 6.1657 -2.8456 0.9727
0.7709 6.2596 -2.8457 0.9727
-0.9104 6.2421 -2.8463 0.9727
-1.4624 6.1367 -2.8465 0.9727
-2.0030 5.9826 -2.8467 0.9727
-3.5130 5.2419 -2.8473 0.9727
-4.5965 4.7528 -2.9834 0.9714
-5.3969 3.8844 -3.0003 0.9712
-6.5451 1.1792 -3.0008 0.9712
-6.6242 0.5920 -3.0008 0.9712
-6.2651 -1.1287 -3.0008 0.9722
-6.1397 -1.6818 -3.0007 0.9722
-5.9656 -2.2216 -3.0007 0.9722
-5.7440 -2.7437 -3.0006 0.9722
-5.4769 -3.2439 -3.0006 0.9722
-4.8146 -4.1633 -3.0004 0.9722
-3.9998 -4.9506 -3.0001 0.9722
-3.5431 -5.2867 -2.9999 0.9722
-1.4750 -6.1894 -2.9993 0.9723
-0.9182 -6.2957 -2.9991 0.9723
1.3363 -6.2187 -2.9983 0.9723
1.8844 -6.0747 -2.9981 0.9723
2.4175 -5.8825 -2.9979 0.9723
3.8850 -5.0339 -2.9974 0.9723
4.7155 -4.2649 -2.9971 0.9723
5.3965 -3.3610 -2.9968 0.9723
6.0922 -1.8156 -2.9965 0.9723
6.2295 -1.2662 -2.9965 0.9723
6.3551 -0.1416 -2.9964 0.9723
6.2795 0.9874 -2.9964 0.9723
6.1668 1.5425 -2.9964 0.9723
6.0051 2.0852 -2.9965 0.9723
5.7958 2.6115 -2.9965 0.9723
5.2412 3.5979 -2.9967 0.9723
4.9004 4.0503 -2.9968 0.9723
4.5206 4.4705 -2.9969 0.9723
3.9911 4.7207 -2.9139 0.9730
3.4708 4.9373 -2.8449 0.9737
2.0434 5.6798 -2.8453 0.9737
1.5299 5.8395 -2.8455 0.9737
1.0041 5.9529 -2.8457 0.9737
-0.6044 6.0078 -2.8462 0.9737
-1.1368 5.9306 -2.8464 0.9737
-1.6602 5.8062 -2.8466 0.9736
-4.2006 4.7497 -2.9888 0.9724
-4.9951 3.9446 -3.0002 0.9722
-5.3265 3.4845 -3.0003 0.9722
-6.2084 1.4067 -3.0007 0.9722
-6.3091 0.8485 -3.0007 0.9722
-6.3596 0.2836 -3.0008 0.9722
-6.3092 -0.8485 -3.0008 0.9722
-6.0587 -1.9537 -3.0007 0.9722
-5.8606 -2.4851 -3.0007 0.9722
-5.3269 -3.4846 -3.0005 0.9722
-4.2165 -4.7677 -3.0002 0.9722
-2.8066 -5.7113 -2.9997 0.9723
-2.2870 -5.9381 -2.9995 0.9723
-1.1978 -6.2488 -2.9992 0.9723
-0.6368 -6.3302 -2.9990 0.9723
-0.0709 -6.3613 -2.9988 0.9723
2.1531 -5.9846 -2.9980 0.9723
2.6770 -5.7688 -2.9978 0.9723
3.1797 -5.5073 -2.9976 0.9723
3.6570 -5.2021 -2.9975 0.9723
4.1053 -4.8557 -2.9973 0.9723
4.9007 -4.0505 -2.9970 0.9723
5.2416 -3.5981 -2.9969 0.9723
5.5408 -3.1172 -2.9968 0.9723
5.7961 -2.6115 -2.9967 0.9723
6.0053 -2.0853 -2.9966 0.9723
6.1669 -1.5424 -2.9965 0.9723
6.2796 -0.9874 -2.9964 0.9723
6.3425 -0.4246 -2.9964 0.9723
6.3551 0.1416 -2.9964 0.9723
6.3173 0.7067 -2.9964 0.9723
6.2293 1.2662 -2.9964 0.9723
6.0920 1.8156 -2.9964 0.9723
5.9063 2.3507 -2.9965 0.9723
5.6738 2.8671 -2.9965 0.9723
5.0758 3.8279 -2.9967 0.9723
4.3171 4.6676 -2.9970 0.9723
2.7820 5.3563 -2.8451 0.9737
-0.3361 6.0286 -2.8461 0.9737
-0.8714 5.9751 -2.8463 0.9737
-1.9173 5.7267 -2.8467 0.9736
-2.4195 5.5336 -2.8469 0.9736
-3.3627 5.0176 -2.8472 0.9736
-4.8143 4.1631 -3.0001 0.9722
-5.4766 3.2438 -3.0004 0.9722
-5.9653 2.2215 -3.0006 0.9722
-6.2650 1.1287 -3.0007 0.9722
-6.0766 -0.5430 -3.0007 0.9732
-5.5047 -2.6294 -3.0005 0.9732
-4.9511 -3.5635 -3.0004 0.9732
-4.6141 -3.9899 -3.0003 0.9732
-3.8332 -4.7444 -3.0000 0.9732
-2.4432 -5.5877 -2.9996 0.9732
-1.4136 -5.9316 -2.9992 0.9732
-0.8800 -6.0336 -2.9990 0.9732
-0.3394 -6.0876 -2.9989 0.9732
0.2037 -6.0932 -2.9987 0.9732
0.7452 -6.0505 -2.9985 0.9732
1.2807 -5.9598 -2.9983 0.9732
1.8060 -5.8218 -2.9981 0.9732
2.3168 -5.6376 -2.9979 0.9732
3.2793 -5.1370 -2.9976 0.9732
3.7233 -4.8244 -2.9974 0.9732
4.1377 -4.4736 -2.9973 0.9732
4.5193 -4.0874 -2.9971 0.9732
5.1720 -3.2211 -2.9969 0.9732
5.4380 -2.7479 -2.9968 0.9732
5.8387 -1.7401 -2.9966 0.9732
5.9703 -1.2135 -2.9966 0.9732
6.0786 0.4070 -2.9965 0.9732
6.0183 0.9464 -2.9965 0.9732
5.7552 1.9985 -2.9965 0.9732
5.3100 2.9873 -2.9967 0.9732
4.6965 3.8817 -2.9969 0.9732
3.9341 4.6533 -2.9971 0.9732
2.8922 5.0094 -2.8450 0.9745
1.9584 5.4434 -2.8454 0.9745
0.9623 5.7051 -2.8457 0.9745
-0.0645 5.7861 -2.8460 0.9745
-0.5792 5.7577 -2.8462 0.9745
-1.0895 5.6837 -2.8464 0.9745
-1.5911 5.5645 -2.8466 0.9745
-2.0802 5.4011 -2.8468 0.9745
-3.0052 4.9473 -2.8471 0.9745
-4.0405 4.5687 -2.9999 0.9732
-5.1047 3.3393 -3.0003 0.9732
-5.8061 1.8722 -3.0005 0.9732
-5.9498 1.3481 -3.0006 0.9732
-6.0462 0.8132 -3.0006 0.9732
-6.0463 -0.8131 -3.0007 0.9732
-5.6165 -2.3816 -3.0006 0.9732
-5.3821 -2.8719 -3.0005 0.9732
-4.7873 -3.7805 -3.0003 0.9732
-4.4317 -4.1914 -3.0002 0.9732
-4.0408 -4.5690 -3.0001 0.9732
-3.1664 -5.2126 -2.9998 0.9732
-1.6765 -5.8630 -2.9993 0.9732
-1.1479 -5.9885 -2.9991 0.9732
-0.6103 -6.0666 -2.9990 0.9732
-0.0679 -6.0965 -2.9988 0.9732
0.4749 -6.0779 -2.9986 0.9732
2.0634 -5.7354 -2.9980 0.9732
3.0473 -5.2781 -2.9977 0.9732
4.3328 -4.2848 -2.9972 0.9732
4.6968 -3.8820 -2.9971 0.9732
5.0234 -3.4484 -2.9969 0.9732
5.3102 -2.9875 -2.9968 0.9732
5.9104 -1.4782 -2.9966 0.9732
5.9702 1.2135 -2.9965 0.9732
5.6606 2.2529 -2.9966 0.9732
5.4377 2.7478 -2.9966 0.9732
4.1374 4.4733 -2.9970 0.9732
3.6421 4.7192 -2.9320 0.9738
2.1989 5.3506 -2.8453 0.9745
1.7140 5.5254 -2.8454 0.9745
-0.3222 5.7776 -2.8461 0.9745
-0.8352 5.7263 -2.8463 0.9745
-1.8375 5.4882 -2.8467 0.9745
-3.2227 4.8086 -2.8472 0.9745
-3.8329 4.7440 -2.9998 0.9732
-4.2401 4.3843 -2.9999 0.9732
-4.9507 3.5633 -3.0002 0.9732
-5.2484 3.1087 -3.0003 0.9732
-5.5045 2.6293 -3.0004 0.9732
-5.7168 2.1290 -3.0005 0.9732
-5.8838 1.6118 -3.0006 0.9732
-6.0040 1.0817 -3.0006 0.9732
-6.0765 0.5430 -3.0007 0.9732
-5.8529 0.0000 -3.0006 0.9740
-5.8297 -0.5209 -3.0006 0.9740
-5.4848 -2.0425 -3.0005 0.9740
-5.2811 -2.5226 -3.0005 0.9740
-5.0355 -2.9825 -3.0004 0.9740
-4.0682 -4.2065 -3.0001 0.9740
-3.6775 -4.5517 -3.0000 0.9740
-3.2576 -4.8607 -2.9998 0.9740
-2.8119 -5.1311 -2.9997 0.9740
-2.3440 -5.3607 -2.9995 0.9740
-1.3562 -5.6908 -2.9992 0.9740
-0.8442 -5.7886 -2.9990 0.9740
-0.3257 -5.8404 -2.9989 0.9740
0.1955 -5.8458 -2.9987 0.9741
1.2287 -5.7179 -2.9983 0.9741
2.6952 -5.1892 -2.9978 0.9741
3.5722 -4.6286 -2.9975 0.9741
3.9698 -4.2921 -2.9973 0.9741
4.6675 -3.5199 -2.9971 0.9741
5.2173 -2.6364 -2.9969 0.9741
5.4311 -2.1615 -2.9968 0.9741
5.8088 -0.6498 -2.9966 0.9741
5.8436 -0.1302 -2.9966 0.9741
5.8320 0.3904 -2.9966 0.9741
5.6704 1.4183 -2.9966 0.9741
5.5217 1.9174 -2.9966 0.9741
5.3293 2.4012 -2.9967 0.9741
5.0945 2.8662 -2.9967 0.9741
4.8193 3.3083 -2.9968 0.9741
4.5059 3.7242 -2.9969 0.9741
3.3156 4.7165 -2.9557 0.9744
2.7748 4.8061 -2.8451 0.9754
1.8789 5.2225 -2.8454 0.9754
1.4067 5.3693 -2.8456 0.9754
0.4325 5.5343 -2.8459 0.9754
-0.0618 5.5511 -2.8461 0.9754
-0.5557 5.5239 -2.8462 0.9754
-1.9957 5.1818 -2.8467 0.9753
-2.8965 4.7683 -2.8603 0.9752
-3.8764 4.3831 -2.9998 0.9740
-4.5925 3.6267 -3.0001 0.9740
-4.8973 3.2037 -3.0002 0.9740
-5.3881 2.2848 -3.0004 0.9740
-5.8006 0.7801 -3.0006 0.9740
-5.8471 -0.2607 -3.0006 0.9740
-5.8007 -0.7801 -3.0006 0.9740
-5.7082 -1.2933 -3.0006 0.9740
-5.5703 -1.7962 -3.0005 0.9740
-5.3883 -2.2848 -3.0005 0.9740
-4.8976 -3.2038 -3.0004 0.9740
-4.2516 -4.0211 -3.0002 0.9740
-3.8767 -4.3834 -3.0000 0.9740
-3.4710 -4.7109 -2.9999 0.9740
-2.5805 -5.2512 -2.9996 0.9740
-2.1028 -5.4597 -2.9995 0.9740
-1.1013 -5.7454 -2.9991 0.9740
-0.0652 -5.8489 -2.9988 0.9740
0.9728 -5.7671 -2.9984 0.9741
1.4822 -5.6573 -2.9982 0.9741
1.9797 -5.5026 -2.9980 0.9741
2.4614 -5.3043 -2.9979 0.9741
2.9236 -5.0639 -2.9977 0.9741
3.3626 -4.7833 -2.9976 0.9741
3.7748 -4.4648 -2.9974 0.9741
4.1570 -4.1109 -2.9973 0.9741
4.5062 -3.7244 -2.9971 0.9741
5.0947 -2.8662 -2.9969 0.9741
5.3295 -2.4013 -2.9968 0.9741
5.6705 -1.4183 -2.9967 0.9741
5.7742 -0.9079 -2.9966 0.9741
5.8320 -0.3904 -2.9966 0.9741
5.8436 0.1302 -2.9966 0.9741
5.6016 1.6695 -2.9966 0.9741
5.4309 2.1614 -2.9967 0.9741
5.2170 2.6363 -2.9967 0.9741
4.6672 3.5197 -2.9969 0.9741
4.3356 3.9213 -2.9970 0.9741
3.0210 4.7324 -2.8783 0.9751
2.5580 4.9250 -2.8452 0.9754
2.1096 5.1335 -2.8453 0.9754
1.6444 5.3012 -2.8455 0.9754
1.1661 5.4268 -2.8456 0.9754
-0.3091 5.5430 -2.8461 0.9754
-0.8013 5.4938 -2.8463 0.9754
-1.2871 5.4010 -2.8465 0.9754
-2.2246 5.0878 -2.8468 0.9753
-3.1864 4.7545 -2.9343 0.9746
-4.0679 4.2062 -2.9999 0.9740
-4.4263 3.8276 -3.0000 0.9740
-5.0352 2.9824 -3.0002 0.9740
-5.7600 1.0378 -3.0005 0.9740
-5.5315 -0.9965 -3.0005 0.9748
-5.4208 -1.4849 -3.0005 0.9748
-5.2671 -1.9614 -3.0004 0.9748
-5.0715 -2.4225 -3.0004 0.9748
-4.8357 -2.8641 -3.0003 0.9748
-3.9068 -4.0396 -3.0000 0.9748
-3.5316 -4.3710 -2.9999 0.9748
-2.7004 -4.9275 -2.9996 0.9748
-1.3024 -5.4650 -2.9992 0.9748
-0.8108 -5.5589 -2.9990 0.9748
-0.3127 -5.6087 -2.9988 0.9749
0.6866 -5.5747 -2.9985 0.9749
1.1800 -5.4911 -2.9983 0.9749
3.4306 -4.4451 -2.9975 0.9749
3.8124 -4.1219 -2.9974 0.9749
4.4825 -3.3804 -2.9971 0.9749
4.7654 -2.9679 -2.9970 0.9749
5.5010 -1.1181 -2.9967 0.9749
5.5786 -0.6240 -2.9967 0.9749
5.6120 -0.1250 -2.9967 0.9749
5.5452 0.8720 -2.9966 0.9749
5.4456 1.3621 -2.9967 0.9749
5.3029 1.8414 -2.9967 0.9749
4.8926 2.7525 -2.9968 0.9749
4.6283 3.1771 -2.9969 0.9749
3.6248 4.2875 -2.9972 0.9749
2.7293 4.7273 -2.9140 0.9756
1.3509 5.1564 -2.8456 0.9761
0.4153 5.3148 -2.8459 0.9761
-0.0594 5.3310 -2.8461 0.9761
-0.5337 5.3048 -2.8462 0.9761
-1.4659 5.1267 -2.8465 0.9761
-2.3519 4.7861 -2.8469 0.9761
-2.8837 4.7472 -2.9652 0.9751
-3.3330 4.5236 -2.9996 0.9748
-3.7226 4.2092 -2.9998 0.9748
-4.0826 3.8614 -2.9999 0.9748
-4.4103 3.4828 -3.0000 0.9748
-4.7029 3.0765 -3.0001 0.9748
-5.1742 2.1941 -3.0003 0.9748
-5.5704 0.7492 -3.0005 0.9748
-5.6150 -0.2504 -3.0005 0.9748
-5.5705 -0.7491 -3.0005 0.9748
-5.1744 -2.1941 -3.0004 0.9748
-4.7032 -3.0767 -3.0003 0.9748
-4.4106 -3.4830 -3.0002 0.9748
-3.7229 -4.2095 -3.0000 0.9748
-3.3333 -4.5239 -2.9999 0.9748
-1.5446 -5.4018 -2.9993 0.9748
-1.0576 -5.5174 -2.9991 0.9748
-0.0626 -5.6169 -2.9988 0.9749
0.9342 -5.5384 -2.9984 0.9749
1.9012 -5.2844 -2.9981 0.9749
2.3638 -5.0939 -2.9979 0.9749
3.2292 -4.5936 -2.9976 0.9749
3.9922 -3.9479 -2.9973 0.9749
4.3275 -3.5768 -2.9972 0.9749
5.4458 -1.3621 -2.9967 0.9749
5.5453 -0.8719 -2.9967 0.9749
5.6008 -0.3749 -2.9967 0.9749
5.5785 0.6241 -2.9966 0.9749
5.5009 1.1181 -2.9967 0.9749
5.2156 2.0758 -2.9967 0.9749
4.7651 2.9678 -2.9969 0.9749
4.1637 3.7659 -2.9970 0.9749
3.8121 4.1217 -2.9972 0.9749
3.4303 4.4448 -2.9973 0.9749
3.0085 4.7127 -2.9848 0.9750
1.1199 5.2116 -2.8457 0.9761
0.1781 5.3282 -2.8460 0.9761
-0.2968 5.3232 -2.8461 0.9761
-0.7695 5.2760 -2.8463 0.9761
-1.2361 5.1868 -2.8465 0.9761
-1.6929 5.0565 -2.8466 0.9761
-2.6077 4.7584 -2.8967 0.9757
-3.1281 4.6675 -2.9995 0.9748
-3.5313 4.3708 -2.9997 0.9748
-3.9065 4.0393 -2.9998 0.9748
-4.2507 3.6757 -2.9999 0.9748
-4.8354 2.8640 -3.0002 0.9748
-5.4207 1.4849 -3.0004 0.9748
-5.5314 0.9966 -3.0005 0.9748
-5.5982 0.5003 -3.0005 0.9748
-5.4024 0.0000 -3.0004 0.9756
-5.3809 -0.4808 -3.0004 0.9756
-5.3167 -0.9579 -3.0004 0.9756
-4.8746 -2.3284 -3.0003 0.9756
-4.6479 -2.7529 -3.0003 0.9756
-3.0069 -4.4866 -2.9997 0.9756
-2.5955 -4.7362 -2.9996 0.9756
-1.7145 -5.1209 -2.9993 0.9756
-1.2518 -5.2529 -2.9992 0.9756
-0.7793 -5.3431 -2.9990 0.9756
1.1342 -5.2780 -2.9983 0.9756
1.5994 -5.1559 -2.9982 0.9756
2.4879 -4.7901 -2.9979 0.9756
2.9043 -4.5494 -2.9977 0.9756
3.2975 -4.2727 -2.9976 0.9756
4.0025 -3.6200 -2.9973 0.9756
4.5806 -2.8528 -2.9971 0.9756
4.8161 -2.4337 -2.9970 0.9756
5.0135 -1.9953 -2.9969 0.9756
5.1711 -1.5411 -2.9968 0.9756
5.3943 -0.1202 -2.9967 0.9756
5.3836 0.3604 -2.9967 0.9756
4.9195 2.2167 -2.9968 0.9756
4.4488 3.0539 -2.9970 0.9756
4.1594 3.4378 -2.9971 0.9756
3.4842 4.1212 -2.9973 0.9756
2.6985 4.6740 -2.9975 0.9756
2.1964 4.7331 -2.8979 0.9764
1.7344 4.8208 -2.8455 0.9768
1.2985 4.9563 -2.8456 0.9768
0.8523 5.0525 -2.8458 0.9768
-0.5130 5.0989 -2.8462 0.9768
-1.8421 4.7830 -2.8467 0.9768
-2.3338 4.7491 -2.9389 0.9761
-2.8038 4.6157 -2.9994 0.9756
-3.2037 4.3480 -2.9996 0.9756
-3.5781 4.0458 -2.9997 0.9756
-3.9241 3.7115 -2.9998 0.9756
-4.5204 2.9571 -3.0001 0.9756
-4.7658 2.5431 -3.0002 0.9756
-4.9733 2.1089 -3.0002 0.9756
-5.1414 1.6579 -3.0003 0.9756
-5.3970 -0.2406 -3.0004 0.9756
-5.3542 -0.7200 -3.0004 0.9756
-5.2688 -1.1937 -3.0004 0.9756
-5.1416 -1.6579 -3.0004 0.9756
-4.7660 -2.5432 -3.0003 0.9756
-3.9244 -3.7116 -3.0000 0.9756
-2.8040 -4.6160 -2.9997 0.9756
-1.4846 -5.1921 -2.9992 0.9756
0.4206 -5.3826 -2.9986 0.9756
1.8274 -5.0794 -2.9981 0.9756
2.2721 -4.8963 -2.9979 0.9756
2.6988 -4.6744 -2.9978 0.9756
3.8373 -3.7948 -2.9974 0.9756
4.1597 -3.4380 -2.9972 0.9756
5.0974 -1.7700 -2.9969 0.9756
5.3302 -0.8381 -2.9968 0.9756
5.3836 -0.3604 -2.9967 0.9756
5.3622 0.5999 -2.9967 0.9756
5.2875 1.0748 -2.9967 0.9756
5.1710 1.5412 -2.9968 0.9756
4.5803 2.8527 -2.9969 0.9756
4.3084 3.2491 -2.9970 0.9756
2.9040 4.5491 -2.9975 0.9756
2.4521 4.7212 -2.9547 0.9760
1.5179 4.8934 -2.8455 0.9768
0.6263 5.0855 -2.8458 0.9768
-0.7396 5.0712 -2.8463 0.9768
-1.1881 4.9855 -2.8465 0.9768
-2.5953 4.7359 -2.9993 0.9756
-3.3942 4.2011 -2.9996 0.9756
-3.7548 3.8825 -2.9998 0.9756
-4.0857 3.5330 -2.9999 0.9756
-4.3841 3.1555 -3.0000 0.9756
-4.6477 2.7529 -3.0001 0.9756
-4.8744 2.3283 -3.0002 0.9756
-5.0624 1.8853 -3.0003 0.9756
-5.2102 1.4273 -3.0003 0.9756
-5.3809 0.4808 -3.0004 0.9756
-5.1762 -0.4625 -3.0004 0.9763
-4.8700 -1.8136 -3.0003 0.9763
-4.6891 -2.2398 -3.0003 0.9763
-4.4711 -2.6482 -3.0002 0.9763
-2.4968 -4.5561 -2.9996 0.9763
-2.0813 -4.7600 -2.9994 0.9763
-1.6493 -4.9261 -2.9993 0.9763
-1.2042 -5.0531 -2.9991 0.9763
