ply
format ascii 1.0
element vertex 1587
property float32 x
property float32 y
property float32 z
property float32 I
end_header
-3.5881 7.3016 1.0195 0.9677
9.8898 -5.5639 1.4220 0.9553
8.7460 -6.5957 1.1882 0.9569
9.2108 -5.7365 1.1770 0.9573
8.8089 -7.2807 1.2396 0.9551
9.6841 -5.4482 1.2052 0.9563
8.5552 -6.4518 0.8030 0.9579
9.0174 -5.6161 0.7961 0.9583
10.1260 -5.1169 0.8502 0.9555
-3.5774 7.2798 0.6079 0.9680
8.5174 -7.0398 0.8281 0.9566
8.5031 -6.4125 0.6203 0.9582
8.9668 -5.5846 0.6153 0.9586
9.9984 -5.0524 0.6525 0.9561
9.3773 -5.2756 0.6267 0.9578
8.9207 -5.5559 0.4370 0.9588
8.6427 -5.9329 0.4359 0.9589
9.3205 -5.2436 0.4447 0.9581
8.5314 -7.7162 0.2869 0.9550
8.8998 -5.5428 0.2615 0.9589
9.8739 -4.9895 0.2759 0.9567
8.3503 -6.9017 0.2702 0.9576
9.2932 -5.2283 0.2659 0.9582
8.4901 -7.6789 0.0951 0.9552
8.4207 -6.3504 0.0877 0.9587
9.8506 -4.9777 0.0917 0.9568
-3.5633 7.2510 0.0671 0.9682
8.3339 -6.8881 0.0899 0.9577
8.6085 -5.9094 0.0868 0.9591
9.2753 -5.2182 0.0885 0.9583
8.8870 -5.5349 -0.0870 0.9590
9.8534 -4.9792 -0.0918 0.9568
8.3359 -6.8898 -0.0899 0.9577
8.6103 -5.9106 -0.0868 0.9591
9.2775 -5.2195 -0.0885 0.9583
8.5362 -7.7205 -0.2870 0.9550
8.4372 -6.3628 -0.2635 0.9586
8.9016 -5.5440 -0.2615 0.9589
9.8767 -4.9909 -0.2760 0.9567
-3.5563 7.2368 -0.2011 0.9683
8.4627 -6.3820 -0.4407 0.9585
8.9265 -5.5595 -0.4373 0.9588
9.9223 -5.0139 -0.4622 0.9565
9.3275 -5.2476 -0.4450 0.9581
8.7607 -7.9236 -0.6880 0.9538
8.9726 -5.5882 -0.6157 0.9585
10.0099 -5.0582 -0.6532 0.9561
9.3844 -5.2796 -0.6271 0.9578
10.1472 -5.1276 -0.8520 0.9554
-3.5523 7.2287 -0.6036 0.9682
8.7460 -6.0038 -0.7950 0.9583
9.4564 -5.3201 -0.8131 0.9574
9.5624 -5.3797 -1.0059 0.9569
8.7650 -6.6100 -1.1908 0.9568
9.2287 -5.7477 -1.1793 0.9572
8.8390 -7.3057 -1.2438 0.9549
8.9314 -6.1311 -1.1750 0.9573
9.7051 -5.4600 -1.2078 0.9562
9.3791 -5.8413 -1.3847 0.9564
9.0693 -6.2257 -1.3785 0.9566
9.9291 -5.5860 -1.4277 0.9551
9.2011 -6.9389 -1.6392 0.9545
9.6195 -5.9911 -1.6119 0.9552
9.7545 -6.6961 -1.8840 0.9532
-3.5505 7.2250 -1.4195 0.9678
12.7746 7.1869 -2.8365 0.9420
12.0842 8.2953 -2.8365 0.9420
10.4219 10.3065 -2.8365 0.9420
9.4632 11.1932 -2.8365 0.9420
8.4294 11.9910 -2.8365 0.9420
7.3287 12.6937 -2.8365 0.9420
6.1698 13.2956 -2.8365 0.9420
3.7147 14.1789 -2.8365 0.9420
2.4380 14.4533 -2.8365 0.9420
1.1419 14.6129 -2.8365 0.9420
-2.7594 14.3953 -2.8365 0.9420
-4.0297 14.0926 -2.8365 0.9420
-3.5502 7.2244 -1.5577 0.9677
-7.6097 12.5273 -2.8365 0.9420
-8.6945 11.8003 -2.8365 0.9420
-9.7103 10.9796 -2.8365 0.9420
-10.6490 10.0717 -2.8365 0.9420
-11.5031 9.0839 -2.8365 0.9420
-12.9315 6.9005 -2.8365 0.9420
-13.4943 5.7221 -2.8365 0.9420
13.6185 5.4200 -2.8365 0.9420
12.4417 7.7488 -2.8365 0.9420
8.9552 11.6036 -2.8365 0.9420
7.8869 12.3546 -2.8365 0.9420
6.7560 13.0076 -2.8365 0.9420
3.0794 14.3303 -2.8365 0.9420
1.7917 14.5475 -2.8365 0.9420
-7.0441 12.8538 -2.8365 0.9420
-9.2115 11.4012 -2.8365 0.9420
-10.1897 10.5361 -2.8365 0.9420
-12.6113 7.4697 -2.8365 0.9420
-13.2860 -4.9478 -2.9889 0.9437
-11.5068 -8.2820 -2.9889 0.9437
-8.9098 -11.0278 -2.9889 0.9437
-4.5010 -13.4439 -2.9889 0.9437
0.4737 -14.1695 -2.9889 0.9437
2.9785 -13.8610 -2.9889 0.9437
5.3890 -13.1132 -2.9889 0.9437
6.5347 -12.5815 -2.9889 0.9437
8.6619 -11.2236 -2.9889 0.9437
10.5147 -9.5100 -2.9889 0.9437
12.0343 -7.4950 -2.9889 0.9437
12.6536 -6.3941 -2.9889 0.9437
13.5868 -4.0493 -2.9889 0.9437
13.8933 -2.8239 -2.9889 0.9437
14.0895 -1.5761 -2.9889 0.9437
11.7261 6.5970 -2.8365 0.9465
11.0924 7.6145 -2.8365 0.9465
10.3707 8.5716 -2.8365 0.9465
9.5666 9.4606 -2.8365 0.9465
8.6866 10.2746 -2.8365 0.9465
6.7273 11.6520 -2.8365 0.9465
5.6635 12.2045 -2.8365 0.9465
4.5547 12.6601 -2.8365 0.9465
3.4098 13.0153 -2.8365 0.9465
-1.3467 13.3870 -2.8365 0.9465
-2.5329 13.2139 -2.8365 0.9465
-3.5498 7.2237 -1.6969 0.9676
-6.9852 11.4992 -2.8365 0.9465
-8.9134 10.0785 -2.8365 0.9465
-9.7750 9.2452 -2.8365 0.9465
-11.2593 7.3655 -2.8365 0.9465
-12.3869 5.2525 -2.8365 0.9465
-13.4932 4.3510 -2.9889 0.9437
-13.8269 3.1328 -2.9889 0.9437
-14.1633 0.6316 -2.9889 0.9437
-14.0509 -1.8896 -2.9889 0.9437
-11.8643 -7.7612 -2.9889 0.9437
-10.3002 -9.7419 -2.9889 0.9437
-9.3923 -10.6200 -2.9889 0.9437
-8.4097 -11.4138 -2.9889 0.9437
-7.3605 -12.1170 -2.9889 0.9437
-6.2528 -12.7240 -2.9889 0.9437
-3.8977 -13.6311 -2.9889 0.9437
-0.1579 -14.1765 -2.9889 0.9437
4.7994 -13.3403 -2.9889 0.9437
5.9678 -12.8602 -2.9889 0.9437
9.1533 -10.8266 -2.9889 0.9437
10.9279 -9.0321 -2.9889 0.9437
11.6884 -8.0236 -2.9889 0.9437
12.3562 -6.9515 -2.9889 0.9437
12.9259 -5.8241 -2.9889 0.9437
13.3929 -4.6505 -2.9889 0.9437
14.0053 -2.2022 -2.9889 0.9437
14.1739 0.3159 -2.9889 0.9437
14.0895 1.5762 -2.9889 0.9437
13.8933 2.8239 -2.9889 0.9437
12.5008 4.9752 -2.8365 0.9465
12.0084 6.0681 -2.8365 0.9465
11.4206 7.1129 -2.8365 0.9465
9.9786 9.0251 -2.8365 0.9465
7.2396 11.3407 -2.8365 0.9465
5.1142 12.4446 -2.8365 0.9465
3.9863 12.8504 -2.8365 0.9465
1.6447 13.3536 -2.8365 0.9465
-3.1190 13.0880 -2.8365 0.9465
-4.2715 12.7585 -2.8365 0.9465
-5.3901 12.3276 -2.8365 0.9465
-6.4660 11.7989 -2.8365 0.9465
-7.4905 11.1766 -2.8365 0.9465
-9.3535 9.6714 -2.8365 0.9465
-10.1771 8.8005 -2.8365 0.9465
-10.9200 7.8598 -2.8365 0.9465
-11.5763 6.8566 -2.8365 0.9465
-12.1406 5.7991 -2.8365 0.9465
-13.9528 2.5137 -2.9889 0.9437
-14.1211 1.2619 -2.9889 0.9437
-13.0431 -1.1655 -2.9889 0.9477
-12.6298 -3.4596 -2.9889 0.9477
-11.8163 -5.6441 -2.9889 0.9477
-10.6284 -7.6498 -2.9889 0.9477
-8.2297 -10.1860 -2.9889 0.9477
-7.2904 -10.8780 -2.9889 0.9477
-6.2933 -11.4837 -2.9889 0.9477
-4.1575 -12.4176 -2.9889 0.9477
-3.0357 -12.7384 -2.9889 0.9477
-0.7290 -13.0748 -2.9889 0.9477
0.4376 -13.0878 -2.9889 0.9477
1.6007 -12.9969 -2.9889 0.9477
4.9776 -12.1122 -2.9889 0.9477
6.0359 -11.6211 -2.9889 0.9477
7.0463 -11.0378 -2.9889 0.9477
8.8917 -9.6135 -2.9889 0.9477
9.7120 -8.7840 -2.9889 0.9477
10.4553 -7.8847 -2.9889 0.9477
12.8327 -2.6084 -2.9889 0.9477
13.0139 -1.4558 -2.9889 0.9477
12.9362 2.0341 -2.9889 0.9477
12.7038 3.1775 -2.9889 0.9477
11.3304 5.1052 -2.8365 0.9503
10.8310 6.0934 -2.8365 0.9503
8.8363 8.7384 -2.8365 0.9503
8.0235 9.4902 -2.8365 0.9503
7.1470 10.1667 -2.8365 0.9503
6.2137 10.7625 -2.8365 0.9503
5.2311 11.2728 -2.8365 0.9503
3.1495 12.0217 -2.8365 0.9503
2.0670 12.2543 -2.8365 0.9503
0.9681 12.3896 -2.8365 0.9503
-0.1384 12.4266 -2.8365 0.9503
-1.2439 12.3650 -2.8365 0.9503
-3.4166 11.9486 -2.8365 0.9503
-9.0288 8.5394 -2.8365 0.9503
-10.9641 5.8506 -2.8365 0.9503
-12.4632 4.0189 -2.9889 0.9477
-12.9783 1.7454 -2.9889 0.9477
-13.0821 0.5834 -2.9889 0.9477
-13.0821 -0.5833 -2.9889 0.9477
-12.7714 -2.8936 -2.9889 0.9477
-10.9586 -7.1688 -2.9889 0.9477
-10.2770 -8.1157 -2.9889 0.9477
-8.6753 -9.8093 -2.9889 0.9477
-7.7678 -10.5424 -2.9889 0.9477
-6.7986 -11.1920 -2.9889 0.9477
-4.7065 -12.2201 -2.9889 0.9477
-1.3108 -13.0294 -2.9889 0.9477
-0.1459 -13.0943 -2.9889 0.9477
1.0202 -13.0553 -2.9889 0.9477
2.1781 -12.9127 -2.9889 0.9477
4.4331 -12.3219 -2.9889 0.9477
6.5476 -11.3407 -2.9889 0.9477
8.4546 -10.0001 -2.9889 0.9477
9.3111 -9.2079 -2.9889 0.9477
10.0937 -8.3426 -2.9889 0.9477
10.7961 -7.4111 -2.9889 0.9477
11.4129 -6.4208 -2.9889 0.9477
12.7038 -3.1774 -2.9889 0.9477
13.0659 -0.8746 -2.9889 0.9477
9.9222 7.4827 -2.8365 0.9503
9.2168 8.3361 -2.8365 0.9503
8.4383 9.1234 -2.8365 0.9503
7.5928 9.8382 -2.8365 0.9503
6.6870 10.4749 -2.8365 0.9503
5.7281 11.0286 -2.8365 0.9503
2.6109 12.1500 -2.8365 0.9503
-1.7935 12.2973 -2.8365 0.9503
-4.9787 11.3865 -2.8365 0.9503
-5.9724 10.8982 -2.8365 0.9503
-6.9187 10.3234 -2.8365 0.9503
-8.6394 8.9331 -2.8365 0.9503
-9.4002 8.1287 -2.8365 0.9503
-12.2718 4.5701 -2.9889 0.9477
-12.6298 3.4597 -2.9889 0.9477
-12.8876 2.3218 -2.9889 0.9477
-12.1598 0.0000 -2.9889 0.9511
-12.1115 -1.0822 -2.9889 0.9511
-11.7277 -3.2126 -2.9889 0.9511
-10.4623 -6.1968 -2.9889 0.9511
-9.8692 -7.1034 -2.9889 0.9511
-2.8189 -11.8285 -2.9889 0.9511
-1.7549 -12.0325 -2.9889 0.9511
0.4063 -12.1530 -2.9889 0.9511
1.4864 -12.0686 -2.9889 0.9511
2.5547 -11.8884 -2.9889 0.9511
4.6220 -11.2471 -2.9889 0.9511
5.6047 -10.7911 -2.9889 0.9511
7.4292 -9.6263 -2.9889 0.9511
9.0183 -8.1566 -2.9889 0.9511
9.7085 -7.3215 -2.9889 0.9511
10.3216 -6.4284 -2.9889 0.9511
11.6533 -3.4730 -2.9889 0.9511
12.1326 0.8122 -2.9889 0.9511
12.0122 1.8889 -2.9889 0.9511
10.0574 5.6582 -2.8365 0.9536
9.5139 6.5309 -2.8365 0.9536
8.8948 7.3518 -2.8365 0.9536
3.9065 10.8584 -2.8365 0.9536
1.9194 11.3790 -2.8365 0.9536
-0.1286 11.5390 -2.8365 0.9536
-4.1475 10.7687 -2.8365 0.9536
-3.5492 7.2225 -1.9781 0.9674
-5.9911 9.8627 -2.8365 0.9536
-6.8452 9.2903 -2.8365 0.9536
-7.6449 8.6442 -2.8365 0.9536
-8.3839 7.9295 -2.8365 0.9536
-9.0564 7.1518 -2.8365 0.9536
-11.1949 4.7471 -2.9889 0.9511
-12.0513 1.6208 -2.9889 0.9511
-12.1477 0.5417 -2.9889 0.9511
-12.0513 -1.6207 -2.9889 0.9511
-11.8592 -2.6869 -2.9889 0.9511
-11.5730 -3.7318 -2.9889 0.9511
-11.1949 -4.7470 -2.9889 0.9511
-9.5430 -7.5360 -2.9889 0.9511
-8.0556 -9.1086 -2.9889 0.9511
-6.3130 -10.3926 -2.9889 0.9511
-5.3629 -10.9132 -2.9889 0.9511
-2.2892 -11.9423 -2.9889 0.9511
-1.2171 -12.0987 -2.9889 0.9511
-0.1355 -12.1590 -2.9889 0.9511
3.0817 -11.7628 -2.9889 0.9511
4.1164 -11.4418 -2.9889 0.9511
6.0799 -10.5306 -2.9889 0.9511
6.9931 -9.9478 -2.9889 0.9511
8.6460 -8.5502 -2.9889 0.9511
10.0250 -6.8818 -2.9889 0.9511
11.0864 -4.9953 -2.9889 0.9511
11.7964 -2.9505 -2.9889 0.9511
12.0122 -1.8888 -2.9889 0.9511
12.1326 -0.8122 -2.9889 0.9511
12.1568 0.2709 -2.9889 0.9511
12.0844 1.3519 -2.9889 0.9511
11.9161 2.4221 -2.9889 0.9511
11.2979 4.4965 -2.9889 0.9511
9.7954 6.1006 -2.8365 0.9536
7.0504 9.1355 -2.8365 0.9536
5.3190 10.2409 -2.8365 0.9536
4.3864 10.6736 -2.8365 0.9536
3.4190 11.0217 -2.8365 0.9536
2.4244 11.2822 -2.8365 0.9536
-0.6424 11.5219 -2.8365 0.9536
-4.6231 10.5733 -2.8365 0.9536
-8.7288 7.5481 -2.8365 0.9536
-9.3660 6.7413 -2.8365 0.9536
-9.9288 5.8809 -2.8365 0.9536
-11.3953 4.2436 -2.9889 0.9511
-11.9671 2.1560 -2.9889 0.9511
-12.1115 1.0823 -2.9889 0.9511
-11.2979 -1.0096 -2.9889 0.9542
-11.1632 -2.0112 -2.9889 0.9542
-10.6298 -3.9586 -2.9889 0.9542
-10.2353 -4.8889 -2.9889 0.9542
-9.2063 -6.6263 -2.9889 0.9542
-8.5800 -7.4194 -2.9889 0.9542
-7.1285 -8.8231 -2.9889 0.9542
-6.3149 -9.4226 -2.9889 0.9542
-4.5442 -10.3929 -2.9889 0.9542
-3.6012 -10.7561 -2.9889 0.9542
0.3790 -11.3366 -2.9889 0.9542
1.3865 -11.2579 -2.9889 0.9542
2.3831 -11.0898 -2.9889 0.9542
4.3116 -10.4916 -2.9889 0.9542
6.9302 -8.9797 -2.9889 0.9542
9.6283 -5.9965 -2.9889 0.9542
10.1238 -5.1158 -2.9889 0.9542
11.2726 -1.2610 -2.9889 0.9542
11.3176 0.7576 -2.9889 0.9542
11.2054 1.7619 -2.9889 0.9542
10.7153 3.7208 -2.9889 0.9542
10.3417 4.6597 -2.9889 0.9542
8.2973 6.8579 -2.8365 0.9564
6.9499 8.2204 -2.8365 0.9564
6.1907 8.8063 -2.8365 0.9564
5.3823 9.3224 -2.8365 0.9564
2.7281 10.4132 -2.8365 0.9564
0.8386 10.7319 -2.8365 0.9564
-2.0265 10.5721 -2.8365 0.9564
-3.8689 10.0453 -2.8365 0.9564
-3.5372 7.1981 -2.1133 0.9674
-6.3853 8.6663 -2.8365 0.9564
-8.4480 6.6714 -2.8365 0.9564
-9.0083 5.8930 -2.8365 0.9564
-9.4971 5.0678 -2.8365 0.9564
-10.4429 4.4282 -2.9889 0.9542
-10.7956 3.4811 -2.9889 0.9542
-11.0626 2.5064 -2.9889 0.9542
-11.3317 -0.5053 -2.9889 0.9542
-11.0626 -2.5064 -2.9889 0.9542
-10.7956 -3.4811 -2.9889 0.9542
-10.4429 -4.4282 -2.9889 0.9542
-9.4923 -6.2096 -2.9889 0.9542
-8.9020 -7.0298 -2.9889 0.9542
-7.5145 -8.4968 -2.9889 0.9542
-5.8889 -9.6945 -2.9889 0.9542
-5.0027 -10.1802 -2.9889 0.9542
-4.0767 -10.5850 -2.9889 0.9542
-2.1354 -11.1401 -2.9889 0.9542
-0.1264 -11.3423 -2.9889 0.9542
1.8867 -11.1849 -2.9889 0.9542
4.7746 -10.2891 -2.9889 0.9542
5.6715 -9.8233 -2.9889 0.9542
6.5233 -9.2795 -2.9889 0.9542
7.3233 -8.6621 -2.9889 0.9542
8.0652 -7.9759 -2.9889 0.9542
8.7431 -7.2263 -2.9889 0.9542
9.3516 -6.4195 -2.9889 0.9542
10.7153 -3.7208 -2.9889 0.9542
11.0040 -2.7523 -2.9889 0.9542
11.2053 -1.7620 -2.9889 0.9542
11.3176 -0.7576 -2.9889 0.9542
11.3401 0.2527 -2.9889 0.9542
11.2726 1.2610 -2.9889 0.9542
10.8705 3.2397 -2.9889 0.9542
10.5390 4.1944 -2.9889 0.9542
9.6076 4.8549 -2.8365 0.9564
9.1374 5.6908 -2.8365 0.9564
8.5946 6.4815 -2.8365 0.9564
7.9836 7.2207 -2.8365 0.9564
4.9617 9.5529 -2.8365 0.9564
4.0917 9.9566 -2.8365 0.9564
3.1893 10.2813 -2.8365 0.9564
2.2615 10.5244 -2.8365 0.9564
1.3158 10.6839 -2.8365 0.9564
0.3597 10.7586 -2.8365 0.9564
-0.5993 10.7479 -2.8365 0.9564
-1.5535 10.6519 -2.8365 0.9564
-2.4954 10.4714 -2.8365 0.9564
-3.4175 10.2077 -2.8365 0.9564
-3.8772 7.0749 -2.1258 0.9672
-5.9929 8.9421 -2.8365 0.9564
-7.4835 7.7379 -2.8365 0.9564
-10.0132 4.7829 -2.9240 0.9551
-10.6298 3.9586 -2.9889 0.9542
-10.9399 2.9968 -2.9889 0.9542
-10.6231 0.0000 -2.9889 0.9568
-10.5809 -0.9455 -2.9889 0.9568
-10.2456 -2.8066 -2.9889 0.9568
-9.9552 -3.7073 -2.9889 0.9568
-9.5857 -4.5787 -2.9889 0.9568
-9.1401 -5.4137 -2.9889 0.9568
-8.6220 -6.2057 -2.9889 0.9568
-8.0354 -6.9485 -2.9889 0.9568
-6.6761 -8.2631 -2.9889 0.9568
-5.1053 -9.3159 -2.9889 0.9568
-2.4627 -10.3337 -2.9889 0.9568
-1.5331 -10.5119 -2.9889 0.9568
0.3550 -10.6172 -2.9889 0.9568
1.2985 -10.5434 -2.9889 0.9568
3.1474 -10.1462 -2.9889 0.9568
4.0379 -9.8257 -2.9889 0.9568
6.4904 -8.4098 -2.9889 0.9568
7.8786 -7.1258 -2.9889 0.9568
9.0172 -5.6160 -2.9889 0.9568
9.4813 -4.7911 -2.9889 0.9568
10.4102 -2.1160 -2.9889 0.9568
10.6205 -0.2367 -2.9889 0.9568
10.5994 0.7096 -2.9889 0.9568
10.4941 1.6501 -2.9889 0.9568
10.3056 2.5776 -2.9889 0.9568
9.6853 4.3640 -2.9889 0.9568
8.3115 5.7056 -2.8365 0.9590
7.1682 7.0888 -2.8365 0.9590
6.5088 7.6987 -2.8365 0.9590
5.7978 8.2475 -2.8365 0.9590
3.4129 9.4862 -2.8365 0.9590
-0.1123 10.0808 -2.8365 0.9590
-2.7716 9.6930 -2.8365 0.9590
-3.6233 9.4078 -2.8365 0.9590
-3.4882 7.0984 -2.2253 0.9677
-6.6788 7.5518 -2.8365 0.9590
-7.3244 6.9274 -2.8365 0.9590
-8.9793 4.7915 -2.8636 0.9586
-9.7801 4.1471 -2.9889 0.9568
-10.1104 3.2602 -2.9889 0.9568
-10.3605 2.3474 -2.9889 0.9568
-10.5283 -1.4159 -2.9889 0.9568
-10.3605 -2.3474 -2.9889 0.9568
-9.3722 -5.0012 -2.9889 0.9568
-7.7179 -7.2996 -2.9889 0.9568
-4.6852 -9.5341 -2.9889 0.9568
-2.9205 -10.2137 -2.9889 0.9568
-1.0633 -10.5697 -2.9889 0.9568
-0.1183 -10.6224 -2.9889 0.9568
4.4716 -9.6361 -2.9889 0.9568
6.1093 -8.6906 -2.9889 0.9568
6.8586 -8.1123 -2.9889 0.9568
9.2585 -5.2087 -2.9889 0.9568
9.6853 -4.3640 -2.9889 0.9568
10.3056 -2.5776 -2.9889 0.9568
10.6205 0.2367 -2.9889 0.9568
10.5572 1.1810 -2.9889 0.9568
10.1806 3.0342 -2.9889 0.9568
8.5575 5.3296 -2.8365 0.9590
8.0491 6.0701 -2.8365 0.9590
6.1594 7.9810 -2.8365 0.9590
5.4246 8.4976 -2.8365 0.9590
4.6468 8.9467 -2.8365 0.9590
0.3369 10.0758 -2.8365 0.9590
-0.5613 10.0658 -2.8365 0.9590
-2.3371 9.8068 -2.8365 0.9590
-4.0388 9.2371 -2.8365 0.9590
-5.6126 8.3746 -2.8365 0.9590
-6.3357 7.8418 -2.8365 0.9590
-7.6257 6.5942 -2.8365 0.9590
-8.1824 5.8894 -2.8365 0.9590
-9.5857 4.5787 -2.9889 0.9568
-9.9552 3.7074 -2.9889 0.9568
-10.2456 2.8066 -2.9889 0.9568
-9.9835 0.0000 -2.9889 0.9592
-9.8254 -1.7701 -2.9889 0.9592
-9.6288 -2.6376 -2.9889 0.9592
-9.0086 -4.3031 -2.9889 0.9592
-8.5898 -5.0878 -2.9889 0.9592
-7.5517 -6.5302 -2.9889 0.9592
-6.9405 -7.1764 -2.9889 0.9592
-6.2742 -7.7657 -2.9889 0.9592
-4.7979 -8.7551 -2.9889 0.9592
-3.9996 -9.1473 -2.9889 0.9592
-1.4408 -9.8790 -2.9889 0.9592
-0.5558 -9.9681 -2.9889 0.9592
0.3336 -9.9779 -2.9889 0.9592
3.7948 -9.2342 -2.9889 0.9592
4.6017 -8.8598 -2.9889 0.9592
5.3720 -8.4150 -2.9889 0.9592
6.7789 -7.3292 -2.9889 0.9592
7.4043 -6.6968 -2.9889 0.9592
7.9710 -6.0112 -2.9889 0.9592
9.9216 -1.1099 -2.9889 0.9592
9.9811 -0.2224 -2.9889 0.9592
9.9612 0.6668 -2.9889 0.9592
9.8624 1.5508 -2.9889 0.9592
9.6852 2.4225 -2.9889 0.9592
9.4311 3.2749 -2.9889 0.9592
9.1022 4.1013 -2.9889 0.9592
8.4292 4.7422 -2.8955 0.9604
7.8112 5.3621 -2.8365 0.9612
7.3029 6.0360 -2.8365 0.9612
6.7367 6.6621 -2.8365 0.9612
6.1170 7.2352 -2.8365 0.9612
4.7372 8.2052 -2.8365 0.9612
3.9881 8.5942 -2.8365 0.9612
3.2074 8.9151 -2.8365 0.9612
0.7381 9.4457 -2.8365 0.9612
-0.9484 9.4269 -2.8365 0.9612
-1.7836 9.3051 -2.8365 0.9612
-3.4715 7.0643 -2.3565 0.9677
-4.9189 8.0976 -2.8365 0.9612
-5.6201 7.6276 -2.8365 0.9612
-6.2767 7.0971 -2.8365 0.9612
-6.8834 6.5103 -2.8365 0.9612
-7.4356 5.8718 -2.8365 0.9612
-7.9287 5.1867 -2.8365 0.9612
-8.8080 4.7001 -2.9889 0.9592
-9.1913 3.8975 -2.9889 0.9592
-9.7367 2.2061 -2.9889 0.9592
-9.7367 -2.2060 -2.9889 0.9592
-7.2533 -6.8601 -2.9889 0.9592
-5.9220 -8.0374 -2.9889 0.9592
-4.4031 -8.9601 -2.9889 0.9592
-3.5882 -9.3164 -2.9889 0.9592
-0.9993 -9.9334 -2.9889 0.9592
0.7778 -9.9532 -2.9889 0.9592
2.5302 -9.6576 -2.9889 0.9592
4.2024 -9.0560 -2.9889 0.9592
5.7415 -8.1674 -2.9889 0.9592
6.4456 -7.6239 -2.9889 0.9592
7.0986 -7.0200 -2.9889 0.9592
8.7011 -4.8951 -2.9889 0.9592
9.1022 -4.1012 -2.9889 0.9592
9.4311 -3.2748 -2.9889 0.9592
9.9811 0.2224 -2.9889 0.9592
9.9216 1.1099 -2.9889 0.9592
9.7835 1.9886 -2.9889 0.9592
9.5677 2.8515 -2.9889 0.9592
8.9104 4.5027 -2.9889 0.9592
7.5645 5.7047 -2.8365 0.9612
7.0268 6.3554 -2.8365 0.9612
6.4332 6.9555 -2.8365 0.9612
5.7886 7.5005 -2.8365 0.9612
4.3670 8.4080 -2.8365 0.9612
1.9905 9.2631 -2.8365 0.9612
1.1581 9.4034 -2.8365 0.9612
-0.5275 9.4598 -2.8365 0.9612
-1.3673 9.3753 -2.8365 0.9612
-3.7957 8.6809 -2.8365 0.9612
-5.2747 7.8704 -2.8365 0.9612
-6.5866 6.8105 -2.8365 0.9612
-9.8254 1.7702 -2.9889 0.9592
-9.3739 -0.8376 -2.9889 0.9613
-9.2622 -1.6687 -2.9889 0.9613
-9.0769 -2.4864 -2.9889 0.9613
-8.8195 -3.2844 -2.9889 0.9613
-8.4922 -4.0564 -2.9889 0.9613
-7.6385 -5.4978 -2.9889 0.9613
-6.5426 -6.7650 -2.9889 0.9613
-5.9145 -7.3205 -2.9889 0.9613
-5.2395 -7.8179 -2.9889 0.9613
-3.7703 -8.6230 -2.9889 0.9613
-2.9879 -8.9244 -2.9889 0.9613
-0.5240 -9.3967 -2.9889 0.9613
0.3145 -9.4060 -2.9889 0.9613
3.5773 -8.7049 -2.9889 0.9613
4.3379 -8.3519 -2.9889 0.9613
5.0640 -7.9327 -2.9889 0.9613
5.7500 -7.4505 -2.9889 0.9613
6.9799 -6.3129 -2.9889 0.9613
7.5141 -5.6666 -2.9889 0.9613
7.9886 -4.9753 -2.9889 0.9613
8.7442 -3.4801 -2.9889 0.9613
9.2227 -1.8746 -2.9889 0.9613
9.3529 -1.0463 -2.9889 0.9613
9.1300 2.2836 -2.9889 0.9613
8.5805 3.8662 -2.9889 0.9613
8.2022 4.6146 -2.9889 0.9613
7.3634 5.0547 -2.8365 0.9632
6.8843 5.6900 -2.8365 0.9632
6.3505 6.2802 -2.8365 0.9632
1.4856 8.8070 -2.8365 0.9632
-0.8940 8.8866 -2.8365 0.9632
-2.4554 8.5873 -2.8365 0.9632
-3.2100 8.3346 -2.8365 0.9632
-3.4580 7.0369 -2.4901 0.9676
-5.2979 7.1904 -2.8365 0.9632
-7.0094 5.5352 -2.8365 0.9632
-8.3031 4.4307 -2.9889 0.9613
-9.1786 2.0796 -2.9889 0.9613
-9.4019 0.4193 -2.9889 0.9613
-9.4019 -0.4192 -2.9889 0.9613
-9.3273 -1.2544 -2.9889 0.9613
-9.1786 -2.0796 -2.9889 0.9613
-8.9571 -2.8883 -2.9889 0.9613
-8.6645 -3.6740 -2.9889 0.9613
-8.3031 -4.4307 -2.9889 0.9613
-7.3860 -5.8326 -2.9889 0.9613
-6.8375 -6.4669 -2.9889 0.9613
-6.2348 -7.0498 -2.9889 0.9613
-4.1507 -8.4465 -2.9889 0.9613
-2.5874 -9.0486 -2.9889 0.9613
-1.7717 -9.2430 -2.9889 0.9613
-0.9420 -9.3640 -2.9889 0.9613
0.7332 -9.3827 -2.9889 0.9613
1.5654 -9.2802 -2.9889 0.9613
3.1860 -8.8556 -2.9889 0.9613
3.9615 -8.5369 -2.9889 0.9613
6.0762 -7.1869 -2.9889 0.9613
6.6917 -6.6176 -2.9889 0.9613
9.3529 1.0463 -2.9889 0.9613
9.0192 2.6880 -2.9889 0.9613
8.3997 4.2446 -2.9889 0.9613
7.6296 4.7517 -2.8545 0.9630
6.6240 5.9911 -2.8365 0.9632
5.4568 7.0706 -2.8365 0.9632
4.8058 7.5282 -2.8365 0.9632
2.6462 8.5304 -2.8365 0.9632
-0.4972 8.9175 -2.8365 0.9632
-2.0705 8.6881 -2.8365 0.9632
-2.8355 8.4694 -2.8365 0.9632
-4.9724 7.4193 -2.8365 0.9632
-5.6130 6.9473 -2.8365 0.9632
-6.7558 5.8420 -2.8365 0.9632
-7.2490 5.2175 -2.8365 0.9632
-8.4922 4.0564 -2.9889 0.9613
-9.0769 2.4864 -2.9889 0.9613
-8.8606 -0.7918 -2.9889 0.9632
-8.7550 -1.5773 -2.9889 0.9632
-8.5798 -2.3503 -2.9889 0.9632
-8.3366 -3.1046 -2.9889 0.9632
-8.0272 -3.8343 -2.9889 0.9632
-7.6541 -4.5335 -2.9889 0.9632
-7.2202 -5.1967 -2.9889 0.9632
-6.7290 -5.8188 -2.9889 0.9632
-2.0623 -8.6536 -2.9889 0.9632
-1.2839 -8.8028 -2.9889 0.9632
-0.4953 -8.8821 -2.9889 0.9632
0.2973 -8.8910 -2.9889 0.9632
1.0874 -8.8292 -2.9889 0.9632
1.8690 -8.6974 -2.9889 0.9632
2.6356 -8.4965 -2.9889 0.9632
3.3814 -8.2282 -2.9889 0.9632
4.1004 -7.8946 -2.9889 0.9632
5.4351 -7.0425 -2.9889 0.9632
6.0404 -6.5308 -2.9889 0.9632
6.5977 -5.9673 -2.9889 0.9632
7.1026 -5.3563 -2.9889 0.9632
7.5512 -4.7029 -2.9889 0.9632
8.8937 -0.1982 -2.9889 0.9632
8.8761 0.5942 -2.9889 0.9632
8.7880 1.3819 -2.9889 0.9632
8.4037 2.9181 -2.9889 0.9632
8.1106 3.6545 -2.9889 0.9632
6.9601 4.7779 -2.8365 0.9650
6.5073 5.3785 -2.8365 0.9650
6.0028 5.9363 -2.8365 0.9650
5.4506 6.4470 -2.8365 0.9650
2.8580 7.9439 -2.8365 0.9650
0.6577 8.4167 -2.8365 0.9650
-1.5893 8.2914 -2.8365 0.9650
-2.3210 8.1170 -2.8365 0.9650
-3.4445 7.0094 -2.6240 0.9676
-4.3830 7.2154 -2.8365 0.9650
-6.1336 5.8011 -2.8365 0.9650
-6.6255 5.2321 -2.8365 0.9650
-7.2992 4.7749 -2.9305 0.9639
-7.8484 4.1880 -2.9889 0.9632
-8.1900 3.4729 -2.9889 0.9632
-8.4666 2.7302 -2.9889 0.9632
-8.8871 0.3963 -2.9889 0.9632
-8.8166 -1.1857 -2.9889 0.9632
-8.4666 -2.7301 -2.9889 0.9632
-7.4445 -4.8700 -2.9889 0.9632
-6.9815 -5.5132 -2.9889 0.9632
-6.4631 -6.1128 -2.9889 0.9632
-5.2769 -7.1618 -2.9889 0.9632
-3.9235 -7.9840 -2.9889 0.9632
-1.6747 -8.7369 -2.9889 0.9632
-0.8904 -8.8512 -2.9889 0.9632
1.4797 -8.7720 -2.9889 0.9632
5.7435 -6.7934 -2.9889 0.9632
8.1106 -3.6545 -2.9889 0.9632
8.6301 -2.1585 -2.9889 0.9632
8.7879 -1.3818 -2.9889 0.9632
8.8937 0.1982 -2.9889 0.9632
8.8408 0.9890 -2.9889 0.9632
8.7177 1.7720 -2.9889 0.9632
8.5254 2.5408 -2.9889 0.9632
6.7405 5.0832 -2.8365 0.9650
6.2613 5.6630 -2.8365 0.9650
5.7324 6.1978 -2.8365 0.9650
5.1580 6.6834 -2.8365 0.9650
3.8913 7.4921 -2.8365 0.9650
3.2090 7.8087 -2.8365 0.9650
2.5013 8.0633 -2.8365 0.9650
1.7737 8.2539 -2.8365 0.9650
1.0320 8.3790 -2.8365 0.9650
0.2821 8.4376 -2.8365 0.9650
-0.4700 8.4293 -2.8365 0.9650
-1.2184 8.3540 -2.8365 0.9650
-3.8117 6.9555 -2.6648 0.9671
-6.8520 4.9318 -2.8365 0.9650
-8.0272 3.8343 -2.9889 0.9632
-8.5798 2.3503 -2.9889 0.9632
-8.7550 1.5773 -2.9889 0.9632
-8.8606 0.7918 -2.9889 0.9632
-8.4292 0.0000 -2.9889 0.9649
-8.2956 -1.4945 -2.9889 0.9649
-6.3759 -5.5135 -2.9889 0.9649
-5.2974 -6.5566 -2.9889 0.9649
-4.0509 -7.3920 -2.9889 0.9649
-1.2165 -8.3409 -2.9889 0.9649
0.2817 -8.4245 -2.9889 0.9649
1.0304 -8.3660 -2.9889 0.9649
3.2040 -7.7965 -2.9889 0.9649
3.8852 -7.4804 -2.9889 0.9649
5.1500 -6.6730 -2.9889 0.9649
5.7235 -6.1881 -2.9889 0.9649
6.2515 -5.6542 -2.9889 0.9649
8.0781 -2.4075 -2.9889 0.9649
8.2603 -1.6790 -2.9889 0.9649
8.4271 -0.1878 -2.9889 0.9649
8.4104 0.5630 -2.9889 0.9649
8.3269 1.3093 -2.9889 0.9649
8.1773 2.0453 -2.9889 0.9649
7.9628 2.7650 -2.9889 0.9649
7.6851 3.4628 -2.9889 0.9649
7.3464 4.1330 -2.9889 0.9649
6.8949 4.7330 -2.9654 0.9651
6.1659 5.0963 -2.8365 0.9666
5.6878 5.6248 -2.8365 0.9666
5.1646 6.1088 -2.8365 0.9666
3.9997 6.9277 -2.8365 0.9666
0.6232 7.9751 -2.8365 0.9666
-0.0891 7.9989 -2.8365 0.9666
-4.1530 6.8368 -2.8365 0.9666
-5.8117 5.4967 -2.8365 0.9666
-6.2779 4.9577 -2.8365 0.9666
-8.0224 2.5869 -2.9889 0.9649
-8.2208 1.8626 -2.9889 0.9649
-8.3540 1.1235 -2.9889 0.9649
-8.4208 0.3755 -2.9889 0.9649
-8.3540 -1.1235 -2.9889 0.9649
-8.0224 -2.5869 -2.9889 0.9649
-7.4366 -3.9683 -2.9889 0.9649
-7.0539 -4.6145 -2.9889 0.9649
-6.6152 -5.2240 -2.9889 0.9649
-5.0000 -6.7861 -2.9889 0.9649
-4.3762 -7.2042 -2.9889 0.9649
-3.0295 -7.8660 -2.9889 0.9649
-2.3174 -8.1044 -2.9889 0.9649
-0.8437 -8.3869 -2.9889 0.9649
-0.0939 -8.4286 -2.9889 0.9649
0.6567 -8.4036 -2.9889 0.9649
2.8535 -7.9315 -2.9889 0.9649
3.5481 -7.6460 -2.9889 0.9649
4.8476 -6.8958 -2.9889 0.9649
5.4421 -6.4370 -2.9889 0.9649
5.9934 -5.9271 -2.9889 0.9649
6.4972 -5.3701 -2.9889 0.9649
6.9494 -4.7705 -2.9889 0.9649
7.6851 -3.4627 -2.9889 0.9649
8.1773 -2.0453 -2.9889 0.9649
8.3269 -1.3093 -2.9889 0.9649
8.4271 0.1878 -2.9889 0.9649
8.3769 0.9371 -2.9889 0.9649
8.0781 2.4075 -2.9889 0.9649
7.8317 3.1170 -2.9889 0.9649
7.5232 3.8017 -2.9889 0.9649
6.3868 4.8165 -2.8365 0.9666
5.4316 5.8726 -2.8365 0.9666
4.8874 6.3328 -2.8365 0.9666
4.3043 6.7426 -2.8365 0.9666
3.0406 7.3990 -2.8365 0.9666
2.3700 7.6403 -2.8365 0.9666
1.6806 7.8209 -2.8365 0.9666
0.2673 7.9949 -2.8365 0.9666
-1.1545 7.9156 -2.8365 0.9666
-3.8016 6.9371 -2.8050 0.9670
-5.5611 5.7502 -2.8365 0.9666
-6.6395 4.7788 -2.9007 0.9659
-7.8992 2.9417 -2.9889 0.9649
-8.1297 2.2270 -2.9889 0.9649
-7.9725 -0.7124 -2.9889 0.9664
-7.8774 -1.4192 -2.9889 0.9664
-7.2226 -3.4499 -2.9889 0.9664
-6.8869 -4.0791 -2.9889 0.9664
-6.4965 -4.6759 -2.9889 0.9664
-6.0545 -5.2355 -2.9889 0.9664
-5.5645 -5.7536 -2.9889 0.9664
-5.0303 -6.2261 -2.9889 0.9664
-3.8467 -7.0193 -2.9889 0.9664
-3.2067 -7.3338 -2.9889 0.9664
-2.5412 -7.5901 -2.9889 0.9664
-1.8555 -7.7862 -2.9889 0.9664
-1.1552 -7.9204 -2.9889 0.9664
-0.4456 -7.9918 -2.9889 0.9664
0.9784 -7.9442 -2.9889 0.9664
1.6816 -7.8256 -2.9889 0.9664
2.3715 -7.6449 -2.9889 0.9664
3.0425 -7.4034 -2.9889 0.9664
3.6894 -7.1033 -2.9889 0.9664
4.3069 -6.7467 -2.9889 0.9664
4.8903 -6.3366 -2.9889 0.9664
5.4349 -5.8762 -2.9889 0.9664
6.3907 -4.8194 -2.9889 0.9664
7.1439 -3.6100 -2.9889 0.9664
7.6708 -2.2862 -2.9889 0.9664
7.8439 -1.5943 -2.9889 0.9664
7.9546 -0.8899 -2.9889 0.9664
7.9864 0.5346 -2.9889 0.9664
7.7650 1.9422 -2.9889 0.9664
7.2977 3.2882 -2.9889 0.9664
6.9760 3.9246 -2.9889 0.9664
6.5990 4.5300 -2.9889 0.9664
5.8551 4.8394 -2.8365 0.9681
5.4011 5.3413 -2.8365 0.9681
4.3685 6.2143 -2.8365 0.9681
3.7981 6.5784 -2.8365 0.9681
2.5715 7.1476 -2.8365 0.9681
1.9251 7.3481 -2.8365 0.9681
1.2635 7.4903 -2.8365 0.9681
0.5918 7.5730 -2.8365 0.9681
-0.0846 7.5957 -2.8365 0.9681
-0.7603 7.5580 -2.8365 0.9681
-2.7301 7.0885 -2.8365 0.9681
-4.5059 6.1154 -2.8365 0.9681
-6.0543 4.7810 -2.8807 0.9676
-7.8064 1.7687 -2.9889 0.9664
-7.9963 -0.3565 -2.9889 0.9664
-7.9328 -1.0668 -2.9889 0.9664
-6.6983 -4.3818 -2.9889 0.9664
-5.8153 -5.5000 -2.9889 0.9664
-3.5302 -7.1837 -2.9889 0.9664
-2.2006 -7.6958 -2.9889 0.9664
-0.0892 -8.0037 -2.9889 0.9664
0.6236 -7.9799 -2.9889 0.9664
3.3693 -7.2606 -2.9889 0.9664
4.6032 -6.5481 -2.9889 0.9664
5.1678 -6.1124 -2.9889 0.9664
6.5990 -4.5300 -2.9889 0.9664
6.9760 -3.9247 -2.9889 0.9664
7.2977 -3.2881 -2.9889 0.9664
8.0023 0.1783 -2.9889 0.9664
7.9546 0.8899 -2.9889 0.9664
7.8439 1.5944 -2.9889 0.9664
7.6708 2.2862 -2.9889 0.9664
7.4369 2.9598 -2.9889 0.9664
6.7943 4.2315 -2.9889 0.9664
6.2846 4.7394 -2.9392 0.9669
5.1578 5.5766 -2.8365 0.9681
4.0873 6.4027 -2.8365 0.9681
2.2505 7.2551 -2.8365 0.9681
0.2538 7.5919 -2.8365 0.9681
-1.7609 7.3892 -2.8365 0.9681
-3.0432 6.9599 -2.8365 0.9681
-4.2290 6.3101 -2.8365 0.9681
-4.7738 5.9086 -2.8365 0.9681
-5.2808 5.4603 -2.8365 0.9681
-5.7458 4.9686 -2.8365 0.9681
-6.8869 4.0791 -2.9889 0.9664
-7.2226 3.4500 -2.9889 0.9664
-7.5010 2.7934 -2.9889 0.9664
-7.7198 2.1147 -2.9889 0.9664
-7.8774 1.4192 -2.9889 0.9664
-7.6155 0.0000 -2.9889 0.9678
-7.3449 -2.0120 -2.9889 0.9678
-6.5524 -3.8810 -2.9889 0.9678
-6.1810 -4.4488 -2.9889 0.9678
-5.7605 -4.9812 -2.9889 0.9678
-4.7860 -5.9237 -2.9889 0.9678
-4.2398 -6.3262 -2.9889 0.9678
-3.0509 -6.9777 -2.9889 0.9678
-2.4178 -7.2215 -2.9889 0.9678
-1.7654 -7.4081 -2.9889 0.9678
-1.0991 -7.5358 -2.9889 0.9678
0.2545 -7.6112 -2.9889 0.9678
2.8947 -7.0439 -2.9889 0.9678
3.5102 -6.7583 -2.9889 0.9678
4.6528 -6.0288 -2.9889 0.9678
6.0803 -4.5854 -2.9889 0.9678
6.7970 -3.4347 -2.9889 0.9678
7.0757 -2.8161 -2.9889 0.9678
7.2983 -2.1751 -2.9889 0.9678
7.6136 -0.1696 -2.9889 0.9678
7.3879 1.8479 -2.9889 0.9678
7.1942 2.4981 -2.9889 0.9678
5.7396 4.7439 -2.9224 0.9685
5.1388 5.0819 -2.8365 0.9694
4.6661 5.5191 -2.8365 0.9694
3.6136 6.2590 -2.8365 0.9694
3.0422 6.5558 -2.8365 0.9694
2.4466 6.8005 -2.8365 0.9694
1.2021 7.1266 -2.8365 0.9694
0.5630 7.2053 -2.8365 0.9694
-2.5975 6.7443 -2.8365 0.9694
-3.1875 6.4863 -2.8365 0.9694
-4.2870 5.8184 -2.8365 0.9694
-5.9767 4.7197 -2.9889 0.9678
-6.3730 4.1690 -2.9889 0.9678
-6.7188 3.5853 -2.9889 0.9678
-7.0112 2.9730 -2.9889 0.9678
-7.4273 1.6828 -2.9889 0.9678
-7.5476 1.0151 -2.9889 0.9678
-7.6080 0.3393 -2.9889 0.9678
-7.5476 -1.0150 -2.9889 0.9678
-7.4273 -1.6828 -2.9889 0.9678
-7.2480 -2.3372 -2.9889 0.9678
-6.7188 -3.5853 -2.9889 0.9678
-5.9767 -4.7197 -2.9889 0.9678
-5.0451 -5.7046 -2.9889 0.9678
-3.9538 -6.5088 -2.9889 0.9678
-2.0937 -7.3221 -2.9889 0.9678
-0.0848 -7.6151 -2.9889 0.9678
0.5933 -7.5924 -2.9889 0.9678
1.9300 -7.3669 -2.9889 0.9678
2.5781 -7.1659 -2.9889 0.9678
3.2056 -6.9080 -2.9889 0.9678
4.3797 -6.2301 -2.9889 0.9678
4.9168 -5.8156 -2.9889 0.9678
6.9433 -3.1285 -2.9889 0.9678
7.1942 -2.4981 -2.9889 0.9678
7.5231 -1.1829 -2.9889 0.9678
7.5683 0.8467 -2.9889 0.9678
7.0757 2.8161 -2.9889 0.9678
6.7970 3.4347 -2.9889 0.9678
6.4643 4.0261 -2.9889 0.9678
6.0803 4.5854 -2.9889 0.9678
4.9073 5.3057 -2.8365 0.9694
4.4156 5.7215 -2.8365 0.9694
3.8888 6.0918 -2.8365 0.9694
2.1413 6.9028 -2.8365 0.9694
0.2415 7.2232 -2.8365 0.9694
-0.4024 7.2160 -2.8365 0.9694
-1.0430 7.1516 -2.8365 0.9694
-1.6754 7.0304 -2.8365 0.9694
-2.8954 6.6219 -2.8365 0.9694
-4.0236 6.0036 -2.8365 0.9694
-4.5420 5.6217 -2.8365 0.9694
-5.0243 5.1951 -2.8365 0.9694
-5.5299 4.7819 -2.8692 0.9691
-6.5524 3.8810 -2.9889 0.9678
-6.8718 3.2824 -2.9889 0.9678
-7.1367 2.6578 -2.9889 0.9678
-7.3449 2.0120 -2.9889 0.9678
-7.0005 -1.9176 -2.9889 0.9691
-6.5496 -3.1285 -2.9889 0.9691
-5.4903 -4.7477 -2.9889 0.9691
-5.0460 -5.2175 -2.9889 0.9691
-3.4883 -6.3652 -2.9889 0.9691
-2.3044 -6.8829 -2.9889 0.9691
-1.6826 -7.0606 -2.9889 0.9691
0.2425 -7.2543 -2.9889 0.9691
1.5249 -7.0964 -2.9889 0.9691
2.1505 -6.9325 -2.9889 0.9691
3.9056 -6.1180 -2.9889 0.9691
5.7952 -4.3704 -2.9889 0.9691
6.1612 -3.8372 -2.9889 0.9691
6.4783 -3.2736 -2.9889 0.9691
6.9560 -2.0731 -2.9889 0.9691
7.1130 -1.4458 -2.9889 0.9691
7.2134 -0.8069 -2.9889 0.9691
7.2566 -0.1617 -2.9889 0.9691
7.1703 1.1275 -2.9889 0.9691
7.0415 1.7612 -2.9889 0.9691
6.8568 2.3810 -2.9889 0.9691
6.6177 2.9818 -2.9889 0.9691
5.5948 4.6242 -2.9889 0.9691
3.4442 5.9654 -2.8365 0.9706
2.3319 6.4816 -2.8365 0.9706
-2.4757 6.4280 -2.8365 0.9706
-3.0380 6.1822 -2.8365 0.9706
-4.0860 5.5456 -2.8365 0.9706
-5.6964 4.4984 -2.9889 0.9691
-6.0742 3.9736 -2.9889 0.9691
-6.9081 2.2276 -2.9889 0.9691
-7.0790 1.6039 -2.9889 0.9691
-7.1936 0.9675 -2.9889 0.9691
-7.2512 -0.3233 -2.9889 0.9691
-7.1936 -0.9674 -2.9889 0.9691
-5.6964 -4.4984 -2.9889 0.9691
-5.2734 -4.9875 -2.9889 0.9691
-4.3055 -5.8435 -2.9889 0.9691
-1.9955 -6.9787 -2.9889 0.9691
-0.7265 -7.2220 -2.9889 0.9691
-0.0809 -7.2579 -2.9889 0.9691
2.4572 -6.8298 -2.9889 0.9691
3.6292 -6.2860 -2.9889 0.9691
4.1743 -5.9380 -2.9889 0.9691
5.1610 -5.1038 -2.9889 0.9691
5.9841 -4.1079 -2.9889 0.9691
6.8568 -2.3809 -2.9889 0.9691
7.0415 -1.7612 -2.9889 0.9691
7.1703 -1.1275 -2.9889 0.9691
7.2422 -0.4848 -2.9889 0.9691
7.2566 0.1617 -2.9889 0.9691
7.1130 1.4458 -2.9889 0.9691
6.9560 2.0731 -2.9889 0.9691
4.2085 5.4531 -2.8365 0.9706
3.7065 5.8061 -2.8365 0.9706
2.0408 6.5791 -2.8365 0.9706
1.4472 6.7346 -2.8365 0.9706
-0.9941 6.8162 -2.8365 0.9706
-2.1869 6.5320 -2.8365 0.9706
-3.8349 5.7221 -2.8365 0.9706
-5.4903 4.7477 -2.9889 0.9691
-6.6828 -1.8306 -2.9889 0.9703
-6.4933 -2.4181 -2.9889 0.9703
-6.2523 -2.9865 -2.9889 0.9703
-5.9617 -3.5311 -2.9889 0.9703
-5.6238 -4.0477 -2.9889 0.9703
-3.3299 -6.0764 -2.9889 0.9703
-2.7759 -6.3486 -2.9889 0.9703
-2.1998 -6.5705 -2.9889 0.9703
-0.3858 -6.9182 -2.9889 0.9703
0.2315 -6.9251 -2.9889 0.9703
2.0529 -6.6179 -2.9889 0.9703
2.6338 -6.4089 -2.9889 0.9703
3.1937 -6.1490 -2.9889 0.9703
4.2334 -5.4853 -2.9889 0.9703
5.5322 -4.1720 -2.9889 0.9703
6.1843 -3.1250 -2.9889 0.9703
6.4379 -2.5622 -2.9889 0.9703
6.6404 -1.9790 -2.9889 0.9703
6.7901 -1.3802 -2.9889 0.9703
6.8860 -0.7703 -2.9889 0.9703
6.9135 0.4628 -2.9889 0.9703
6.7219 1.6813 -2.9889 0.9703
6.5456 2.2729 -2.9889 0.9703
6.3173 2.8464 -2.9889 0.9703
5.3408 4.4143 -2.9889 0.9703
1.0937 6.4841 -2.8365 0.9718
-0.6582 6.5427 -2.8365 0.9718
-2.3633 6.1363 -2.8365 0.9718
-3.4139 5.6201 -2.8365 0.9718
-4.3563 4.9257 -2.8365 0.9718
-5.0315 4.7587 -2.9873 0.9703
-6.1131 3.2621 -2.9889 0.9703
-6.3792 2.7050 -2.9889 0.9703
-6.7577 1.5311 -2.9889 0.9703
-6.8672 -0.9235 -2.9889 0.9703
-6.3792 -2.7050 -2.9889 0.9703
-5.7985 -3.7932 -2.9889 0.9703
-5.4379 -4.2942 -2.9889 0.9703
-5.0341 -4.7612 -2.9889 0.9703
-4.5903 -5.1904 -2.9889 0.9703
-4.1101 -5.5783 -2.9889 0.9703
-3.5973 -5.9220 -2.9889 0.9703
-0.6936 -6.8942 -2.9889 0.9703
1.7560 -6.7028 -2.9889 0.9703
2.9166 -6.2852 -2.9889 0.9703
3.4645 -6.0007 -2.9889 0.9703
3.9848 -5.6685 -2.9889 0.9703
4.9268 -4.8721 -2.9889 0.9703
5.7125 -3.9214 -2.9889 0.9703
6.3173 -2.8464 -2.9889 0.9703
6.8449 -1.0763 -2.9889 0.9703
6.9135 -0.4628 -2.9889 0.9703
6.9273 0.1544 -2.9889 0.9703
6.6404 1.9790 -2.9889 0.9703
6.1843 3.1250 -2.9889 0.9703
5.8816 3.6631 -2.9889 0.9703
4.0175 5.2057 -2.8365 0.9718
2.4995 6.0821 -2.8365 0.9718
1.3815 6.4289 -2.8365 0.9718
0.8038 6.5264 -2.8365 0.9718
0.2197 6.5720 -2.8365 0.9718
-0.3661 6.5655 -2.8365 0.9718
-1.5244 6.3966 -2.8365 0.9718
-2.0877 6.2355 -2.8365 0.9718
-3.1602 5.7666 -2.8365 0.9718
-4.6226 4.7798 -2.8683 0.9714
-5.2412 4.5322 -2.9889 0.9703
-5.6238 4.0478 -2.9889 0.9703
-6.2523 2.9865 -2.9889 0.9703
-6.4933 2.4182 -2.9889 0.9703
-6.9015 0.6167 -2.9889 0.9703
-6.6240 0.0000 -2.9889 0.9713
-6.2075 -2.3117 -2.9889 0.9713
-5.9772 -2.8551 -2.9889 0.9713
-5.3762 -3.8696 -2.9889 0.9713
-5.0105 -4.3327 -2.9889 0.9713
-3.1834 -5.8089 -2.9889 0.9713
-2.6537 -6.0692 -2.9889 0.9713
-2.1030 -6.2813 -2.9889 0.9714
-0.3688 -6.6137 -2.9889 0.9714
0.2213 -6.6203 -2.9889 0.9713
0.8097 -6.5744 -2.9889 0.9713
1.9625 -6.3266 -2.9889 0.9713
2.5178 -6.1268 -2.9889 0.9713
4.0471 -5.2439 -2.9889 0.9714
4.4977 -4.8629 -2.9889 0.9713
5.2887 -3.9884 -2.9889 0.9714
5.9121 -2.9875 -2.9889 0.9713
6.3481 -1.8919 -2.9889 0.9713
6.4913 -1.3194 -2.9889 0.9713
6.5830 -0.7364 -2.9889 0.9713
6.6224 -0.1476 -2.9889 0.9713
6.5436 1.0289 -2.9889 0.9713
6.4261 1.6073 -2.9889 0.9713
6.2575 2.1728 -2.9889 0.9713
4.0585 4.8005 -2.8365 0.9728
2.6461 5.7022 -2.8365 0.9728
1.5932 6.0810 -2.8365 0.9728
1.0456 6.1987 -2.8365 0.9728
-0.6292 6.2547 -2.8365 0.9728
-1.7282 6.0440 -2.8365 0.9728
-3.2636 5.3727 -2.8365 0.9728
-3.7289 5.0609 -2.8365 0.9728
-4.8125 4.5516 -2.9889 0.9713
-5.1985 4.1052 -2.9889 0.9713
-5.5433 3.6263 -2.9889 0.9713
-6.0984 2.5859 -2.9889 0.9713
-6.4603 1.4637 -2.9889 0.9713
-6.6174 0.2951 -2.9889 0.9713
-6.5649 -0.8829 -2.9889 0.9713
-6.4603 -1.4637 -2.9889 0.9713
-6.3044 -2.0329 -2.9889 0.9713
-5.8440 -3.1184 -2.9889 0.9714
-5.5433 -3.6262 -2.9889 0.9713
-4.8125 -4.5516 -2.9889 0.9714
-2.3807 -6.1814 -2.9889 0.9713
-1.8211 -6.3688 -2.9889 0.9713
-0.6630 -6.5908 -2.9889 0.9713
0.5160 -6.6039 -2.9889 0.9714
1.1018 -6.5317 -2.9889 0.9714
1.6788 -6.4078 -2.9889 0.9713
2.2424 -6.2329 -2.9889 0.9713
3.8095 -5.4190 -2.9889 0.9713
4.7099 -4.6577 -2.9889 0.9713
5.4611 -3.7488 -2.9889 0.9714
5.7731 -3.2479 -2.9889 0.9713
6.2575 -2.1728 -2.9889 0.9713
6.4261 -1.6072 -2.9889 0.9713
6.6092 -0.4424 -2.9889 0.9713
6.4913 1.3194 -2.9889 0.9713
6.1545 2.4494 -2.9889 0.9713
5.9121 2.9875 -2.9889 0.9713
4.9127 4.4433 -2.9889 0.9713
3.8407 4.9766 -2.8365 0.9728
3.3825 5.2987 -2.8365 0.9728
2.3895 5.8144 -2.8365 0.9728
1.8625 6.0040 -2.8365 0.9728
0.2101 6.2828 -2.8365 0.9728
-1.4573 6.1150 -2.8365 0.9728
-3.0211 5.5127 -2.8365 0.9728
-3.4997 5.2220 -2.8365 0.9728
-3.9506 4.8898 -2.8365 0.9728
-4.6014 4.7578 -2.9865 0.9714
-5.3762 3.8696 -2.9889 0.9713
-5.9772 2.8551 -2.9889 0.9713
-6.2075 2.3117 -2.9889 0.9713
-6.3887 1.7501 -2.9889 0.9713
-6.5977 0.5896 -2.9889 0.9713
-6.3407 0.0000 -2.9889 0.9724
-6.3156 -0.5643 -2.9889 0.9724
-6.2403 -1.1242 -2.9889 0.9724
-5.9421 -2.2128 -2.9889 0.9724
-5.7215 -2.7329 -2.9889 0.9724
-5.4556 -3.2313 -2.9889 0.9724
-5.1463 -3.7041 -2.9889 0.9724
-4.7962 -4.1474 -2.9889 0.9724
-4.4080 -4.5579 -2.9889 0.9724
-3.9849 -4.9321 -2.9889 0.9723
-3.5301 -5.2672 -2.9889 0.9724
-3.0472 -5.5605 -2.9889 0.9724
-2.0131 -6.0127 -2.9889 0.9723
-1.4699 -6.1680 -2.9889 0.9724
-0.9151 -6.2743 -2.9889 0.9724
0.7751 -6.2932 -2.9889 0.9724
2.9226 -5.6270 -2.9889 0.9724
3.8740 -5.0196 -2.9889 0.9724
4.3054 -4.6549 -2.9889 0.9724
5.0625 -3.8178 -2.9889 0.9724
5.3822 -3.3521 -2.9889 0.9724
6.3014 -0.7049 -2.9889 0.9724
6.3392 -0.1412 -2.9889 0.9724
6.3266 0.4236 -2.9889 0.9724
6.2638 0.9850 -2.9889 0.9723
5.9899 2.0799 -2.9889 0.9723
5.7810 2.6048 -2.9889 0.9723
5.5262 3.1090 -2.9889 0.9723
5.2276 3.5885 -2.9889 0.9723
4.0132 4.7468 -2.9300 0.9729
3.4640 4.9275 -2.8392 0.9737
3.0087 5.2112 -2.8365 0.9737
2.5329 5.4583 -2.8365 0.9737
1.5250 5.8210 -2.8365 0.9737
1.0009 5.9336 -2.8365 0.9737
0.4688 5.9991 -2.8365 0.9737
-0.0670 6.0171 -2.8365 0.9737
-0.6023 5.9872 -2.8365 0.9737
-2.1627 5.6154 -2.8365 0.9737
-3.1241 5.1429 -2.8365 0.9737
-4.2006 4.7497 -2.9889 0.9724
-4.9762 3.9297 -2.9889 0.9723
-5.3062 3.4712 -2.9889 0.9724
-5.8376 2.4754 -2.9889 0.9723
-6.2842 0.8452 -2.9889 0.9724
-6.3344 0.2824 -2.9889 0.9724
-6.3344 -0.2825 -2.9889 0.9724
-6.1840 -1.4011 -2.9889 0.9724
-6.0347 -1.9460 -2.9889 0.9724
-5.5941 -2.9851 -2.9889 0.9724
-5.3062 -3.4712 -2.9889 0.9724
-4.9762 -3.9297 -2.9889 0.9724
-4.6067 -4.3570 -2.9889 0.9724
-3.7612 -5.1047 -2.9889 0.9723
-2.7965 -5.6907 -2.9889 0.9724
-2.2789 -5.9171 -2.9889 0.9724
-1.7432 -6.0964 -2.9889 0.9723
-0.0706 -6.3403 -2.9889 0.9724
0.4940 -6.3214 -2.9889 0.9724
1.0547 -6.2524 -2.9889 0.9724
2.1465 -5.9663 -2.9889 0.9724
2.6690 -5.7516 -2.9889 0.9724
3.1704 -5.4912 -2.9889 0.9724
3.6465 -5.1873 -2.9889 0.9723
4.5085 -4.4585 -2.9889 0.9724
6.2638 -0.9849 -2.9889 0.9724
6.3266 -0.4235 -2.9889 0.9724
6.2137 1.2630 -2.9889 0.9724
6.0766 1.8110 -2.9889 0.9723
5.8913 2.3447 -2.9889 0.9723
5.0625 3.8179 -2.9889 0.9723
4.7026 4.2533 -2.9889 0.9724
1.7828 5.7473 -2.8365 0.9737
1.2642 5.8831 -2.8365 0.9737
0.7356 5.9723 -2.8365 0.9737
0.2011 6.0141 -2.8365 0.9737
-0.3350 6.0081 -2.8365 0.9737
-0.8684 5.9545 -2.8365 0.9737
-1.9104 5.7062 -2.8365 0.9737
-2.4107 5.5135 -2.8365 0.9737
-2.8919 5.2770 -2.8365 0.9737
-3.3501 4.9987 -2.8365 0.9737
-3.8566 4.7733 -2.8927 0.9732
-4.4080 4.5579 -2.9889 0.9723
-5.4556 3.2314 -2.9889 0.9723
-5.9421 2.2129 -2.9889 0.9723
-6.3156 0.5644 -2.9889 0.9724
-6.0767 0.0000 -2.9889 0.9733
-5.9805 -1.0774 -2.9889 0.9733
-5.8608 -1.6054 -2.9889 0.9733
-5.6947 -2.1207 -2.9889 0.9733
-5.2284 -3.0968 -2.9889 0.9733
-4.9321 -3.5498 -2.9889 0.9733
-4.2245 -4.3681 -2.9889 0.9733
-3.8190 -4.7268 -2.9889 0.9733
-3.3831 -5.0479 -2.9889 0.9733
-2.9204 -5.3290 -2.9889 0.9733
-2.4345 -5.5678 -2.9889 0.9733
0.2031 -6.0734 -2.9889 0.9733
0.7428 -6.0312 -2.9889 0.9733
1.8004 -5.8039 -2.9889 0.9733
3.2698 -5.1220 -2.9889 0.9733
3.7127 -4.8107 -2.9889 0.9733
4.8517 -3.6589 -2.9889 0.9733
5.1581 -3.2125 -2.9889 0.9733
5.4236 -2.7407 -2.9889 0.9733
5.7405 1.9933 -2.9889 0.9733
5.2961 2.9796 -2.9889 0.9733
5.0099 3.4391 -2.9889 0.9733
4.6839 3.8714 -2.9889 0.9733
4.3208 4.2729 -2.9889 0.9733
3.3469 4.7610 -2.8624 0.9744
2.4275 5.2311 -2.8365 0.9746
1.9523 5.4264 -2.8365 0.9746
0.9592 5.6866 -2.8365 0.9746
0.4493 5.7494 -2.8365 0.9746
-0.0642 5.7666 -2.8365 0.9746
-1.5855 5.5447 -2.8365 0.9746
-2.0727 5.3816 -2.8365 0.9746
-2.5434 5.1757 -2.8365 0.9746
-2.9940 4.9288 -2.8365 0.9746
-3.5136 4.7687 -2.9134 0.9739
-4.4149 4.1756 -2.9889 0.9733
-5.0853 3.3267 -2.9889 0.9733
-5.3612 2.8608 -2.9889 0.9733
-5.5946 2.3723 -2.9889 0.9733
-5.7835 1.8650 -2.9889 0.9733
-5.9265 1.3428 -2.9889 0.9733
-6.0225 0.8099 -2.9889 0.9733
-6.0707 0.2707 -2.9889 0.9733
-6.0707 -0.2707 -2.9889 0.9733
-5.7835 -1.8649 -2.9889 0.9733
-5.5946 -2.3723 -2.9889 0.9733
-5.0853 -3.3267 -2.9889 0.9733
-4.7690 -3.7660 -2.9889 0.9733
-4.4149 -4.1756 -2.9889 0.9733
-3.6046 -4.8922 -2.9889 0.9733
-3.1549 -5.1936 -2.9889 0.9733
-2.6801 -5.4538 -2.9889 0.9733
-2.1840 -5.6707 -2.9889 0.9733
-0.6083 -6.0462 -2.9889 0.9733
1.0107 -5.9921 -2.9889 0.9733
1.5401 -5.8784 -2.9889 0.9733
3.4947 -4.9713 -2.9889 0.9733
3.9233 -4.6405 -2.9889 0.9733
4.3208 -4.2729 -2.9889 0.9733
4.6839 -3.8714 -2.9889 0.9733
5.0099 -3.4391 -2.9889 0.9733
5.5403 -2.4963 -2.9889 0.9733
5.7405 -1.9933 -2.9889 0.9733
5.8951 -1.4745 -2.9889 0.9733
6.0030 -0.9439 -2.9889 0.9733
5.9550 1.2104 -2.9889 0.9733
5.8236 1.7356 -2.9889 0.9733
5.1581 3.2125 -2.9889 0.9733
2.6581 5.1178 -2.8365 0.9746
1.7086 5.5080 -2.8365 0.9746
-2.3103 5.2839 -2.8365 0.9746
-3.2123 4.7930 -2.8380 0.9746
-3.8190 4.7268 -2.9889 0.9733
-4.5965 3.9748 -2.9889 0.9733
-5.2284 3.0968 -2.9889 0.9733
-5.4833 2.6192 -2.9889 0.9733
-5.6947 2.1207 -2.9889 0.9733
-6.0526 0.5409 -2.9889 0.9733
-5.8300 0.0000 -2.9889 0.9741
-5.6229 -1.5403 -2.9889 0.9741
-4.0530 -4.1907 -2.9889 0.9741
-3.6639 -4.5348 -2.9889 0.9741
-2.8018 -5.1126 -2.9889 0.9741
-1.8509 -5.5284 -2.9889 0.9741
0.1948 -5.8268 -2.9889 0.9741
0.7126 -5.7863 -2.9889 0.9741
1.2248 -5.6999 -2.9889 0.9741
2.6872 -5.1738 -2.9889 0.9741
3.5620 -4.6154 -2.9889 0.9741
4.3238 -3.9107 -2.9889 0.9741
4.9487 -3.0821 -2.9889 0.9741
5.2034 -2.6294 -2.9889 0.9741
5.4168 -2.1558 -2.9889 0.9741
5.5872 -1.6651 -2.9889 0.9741
5.7939 -0.6481 -2.9889 0.9741
5.8170 0.3894 -2.9889 0.9741
5.3154 2.3950 -2.9889 0.9741
5.0811 2.8586 -2.9889 0.9741
4.8065 3.2995 -2.9889 0.9741
4.4938 3.7142 -2.9889 0.9741
4.1453 4.0994 -2.9889 0.9741
3.7640 4.4521 -2.9889 0.9741
3.3328 4.7409 -2.9710 0.9743
2.3289 5.0187 -2.8365 0.9754
1.8730 5.2061 -2.8365 0.9754
1.4022 5.3521 -2.8365 0.9754
0.9203 5.4557 -2.8365 0.9754
-0.5538 5.5050 -2.8365 0.9754
-1.0416 5.4338 -2.8365 0.9754
-1.5211 5.3196 -2.8365 0.9754
-2.9012 4.7761 -2.8649 0.9752
-3.4582 4.6936 -2.9889 0.9741
-4.8788 3.1916 -2.9889 0.9741
-5.1435 2.7447 -2.9889 0.9741
-5.3674 2.2760 -2.9889 0.9741
-5.6859 1.2883 -2.9889 0.9741
-5.8242 0.2597 -2.9889 0.9741
-5.8242 -0.2597 -2.9889 0.9741
-5.5487 -1.7892 -2.9889 0.9741
-5.3674 -2.2759 -2.9889 0.9741
-5.1435 -2.7447 -2.9889 0.9741
-4.8788 -3.1916 -2.9889 0.9741
-3.4582 -4.6936 -2.9889 0.9741
-3.0268 -4.9827 -2.9889 0.9741
-0.5836 -5.8007 -2.9889 0.9741
-0.0649 -5.8296 -2.9889 0.9741
0.9697 -5.7488 -2.9889 0.9741
2.9150 -5.0489 -2.9889 0.9741
3.3528 -4.7695 -2.9889 0.9741
4.1453 -4.0994 -2.9889 0.9741
4.4938 -3.7142 -2.9889 0.9741
5.0811 -2.8586 -2.9889 0.9741
5.6558 -1.4146 -2.9889 0.9741
5.8170 -0.3894 -2.9889 0.9741
5.7939 0.6481 -2.9889 0.9741
5.7132 1.1613 -2.9889 0.9741
5.4168 2.1558 -2.9889 0.9741
4.9487 3.0821 -2.9889 0.9741
4.3238 3.9107 -2.9889 0.9741
3.9586 4.2800 -2.9889 0.9741
3.5620 4.6154 -2.9889 0.9741
3.0362 4.7561 -2.8928 0.9750
2.1030 5.1175 -2.8365 0.9754
1.6392 5.2843 -2.8365 0.9754
1.1624 5.4093 -2.8365 0.9754
0.6763 5.4913 -2.8365 0.9754
0.1849 5.5297 -2.8365 0.9754
-0.3080 5.5242 -2.8365 0.9754
-1.2826 5.3820 -2.8365 0.9754
-1.7565 5.2465 -2.8365 0.9754
-2.2165 5.0694 -2.8365 0.9754
-2.6589 4.8520 -2.8365 0.9754
-3.1921 4.7630 -2.9395 0.9746
-3.6639 4.5349 -2.9889 0.9741
-4.0530 4.1908 -2.9889 0.9741
-4.4099 3.8134 -2.9889 0.9741
-5.2607 2.5128 -2.9889 0.9741
-5.4635 2.0346 -2.9889 0.9741
-5.6229 1.5403 -2.9889 0.9741
-5.8069 0.5189 -2.9889 0.9741
-5.5766 -0.4983 -2.9889 0.9749
-5.3999 -1.4792 -2.9889 0.9749
-5.2468 -1.9539 -2.9889 0.9749
-5.0520 -2.4131 -2.9889 0.9749
-4.5441 -3.2707 -2.9889 0.9749
-3.8922 -4.0245 -2.9889 0.9749
-3.5186 -4.3550 -2.9889 0.9749
-2.6907 -4.9098 -2.9889 0.9749
-1.2979 -5.4462 -2.9889 0.9749
-0.8080 -5.5402 -2.9889 0.9749
0.1871 -5.5957 -2.9889 0.9749
0.6844 -5.5568 -2.9889 0.9749
1.6588 -5.3474 -2.9889 0.9749
2.1281 -5.1785 -2.9889 0.9749
3.0126 -4.7192 -2.9889 0.9749
3.4207 -4.4323 -2.9889 0.9749
4.1523 -3.7556 -2.9889 0.9749
4.4701 -3.3711 -2.9889 0.9749
5.4866 -1.1152 -2.9889 0.9749
5.5641 -0.6224 -2.9889 0.9749
5.5308 0.8697 -2.9889 0.9749
5.4315 1.3585 -2.9889 0.9749
5.2890 1.8365 -2.9889 0.9749
5.1045 2.3000 -2.9889 0.9749
4.3155 3.5669 -2.9889 0.9749
2.7426 4.7503 -2.9282 0.9754
1.7987 4.9996 -2.8365 0.9762
0.4139 5.2972 -2.8365 0.9762
-0.0592 5.3130 -2.8365 0.9762
-1.0003 5.2183 -2.8365 0.9762
-1.4608 5.1086 -2.8365 0.9762
-1.9096 4.9583 -2.8365 0.9762
-2.3507 4.7835 -2.8453 0.9761
-2.8893 4.7564 -2.9709 0.9751
-3.3211 4.5074 -2.9889 0.9749
-3.7091 4.1939 -2.9889 0.9749
-4.3939 3.4698 -2.9889 0.9749
-5.4604 1.2372 -2.9889 0.9749
-5.5932 -0.2494 -2.9889 0.9749
-5.5488 -0.7462 -2.9889 0.9749
-5.1545 -2.1857 -2.9889 0.9749
-4.6853 -3.0650 -2.9889 0.9749
-4.3939 -3.4698 -2.9889 0.9749
-3.7091 -4.1939 -2.9889 0.9749
-3.3211 -4.5074 -2.9889 0.9749
-1.5392 -5.3830 -2.9889 0.9749
-1.0540 -5.4987 -2.9889 0.9749
0.9312 -5.5208 -2.9889 0.9749
1.4189 -5.4160 -2.9889 0.9749
3.6147 -4.2755 -2.9889 0.9749
3.9809 -3.9368 -2.9889 0.9749
5.1045 -2.3000 -2.9889 0.9749
5.4315 -1.3585 -2.9889 0.9749
5.5863 -0.3739 -2.9889 0.9749
5.5974 0.1248 -2.9889 0.9749
5.5641 0.6225 -2.9889 0.9749
5.3656 1.5991 -2.9889 0.9749
5.2019 2.0703 -2.9889 0.9749
4.9970 2.5251 -2.9889 0.9749
4.4701 3.3711 -2.9889 0.9749
4.1523 3.7556 -2.9889 0.9749
2.0196 4.9145 -2.8365 0.9762
1.5742 5.0747 -2.8365 0.9762
0.6495 5.2735 -2.8365 0.9762
0.1775 5.3104 -2.8365 0.9762
-0.2958 5.3051 -2.8365 0.9762
-1.2317 5.1686 -2.8365 0.9762
-1.6869 5.0384 -2.8365 0.9762
-2.1286 4.8683 -2.8365 0.9762
-4.5441 3.2707 -2.9889 0.9749
-5.0520 2.4132 -2.9889 0.9749
-5.2468 1.9539 -2.9889 0.9749
-5.3999 1.4792 -2.9889 0.9749
-5.5101 0.9927 -2.9889 0.9749
-5.3815 0.0000 -2.9889 0.9757
-5.3602 -0.4790 -2.9889 0.9757
-5.1903 -1.4218 -2.9889 0.9757
-4.0706 -3.5200 -2.9889 0.9757
-3.7412 -3.8684 -2.9889 0.9757
-3.3820 -4.1860 -2.9889 0.9757
-2.9960 -4.4704 -2.9889 0.9757
-2.5863 -4.7193 -2.9889 0.9757
-1.2475 -5.2349 -2.9889 0.9757
-0.7767 -5.3251 -2.9889 0.9757
-0.2996 -5.3731 -2.9889 0.9757
0.6578 -5.3411 -2.9889 0.9757
1.5944 -5.1399 -2.9889 0.9757
3.2879 -4.2603 -2.9889 0.9757
3.6541 -3.9507 -2.9889 0.9757
3.9912 -3.6098 -2.9889 0.9757
4.2967 -3.2403 -2.9889 0.9757
4.5680 -2.8450 -2.9889 0.9757
5.0001 -1.9900 -2.9889 0.9757
5.1573 -1.5371 -2.9889 0.9757
5.3482 -0.5983 -2.9889 0.9757
5.3802 -0.1199 -2.9889 0.9757
5.3695 0.3594 -2.9889 0.9757
5.3162 0.8360 -2.9889 0.9757
4.9065 2.2107 -2.9889 0.9757
4.6902 2.6387 -2.9889 0.9757
4.4367 3.0457 -2.9889 0.9757
4.1481 3.4285 -2.9889 0.9757
3.4745 4.1096 -2.9889 0.9757
2.2064 4.7548 -2.9113 0.9763
1.7289 4.8056 -2.8365 0.9769
1.2943 4.9404 -2.8365 0.9769
0.8495 5.0360 -2.8365 0.9769
-0.0569 5.1068 -2.8365 0.9769
-0.5112 5.0815 -2.8365 0.9769
-0.9614 5.0158 -2.8365 0.9769
-1.8416 4.7817 -2.8459 0.9768
-2.3390 4.7598 -2.9455 0.9760
-3.1922 4.3325 -2.9889 0.9757
-3.9098 3.6979 -2.9889 0.9757
-4.2234 3.3352 -2.9889 0.9757
-4.9545 2.1009 -2.9889 0.9757
-5.1218 1.6516 -2.9889 0.9757
-5.2485 1.1892 -2.9889 0.9757
-5.3762 0.2398 -2.9889 0.9757
-5.2485 -1.1891 -2.9889 0.9757
-4.9545 -2.1009 -2.9889 0.9757
-4.7478 -2.5335 -2.9889 0.9757
-4.5035 -2.9461 -2.9889 0.9757
-4.2234 -3.3352 -2.9889 0.9757
-3.9098 -3.6979 -2.9889 0.9757
-3.1922 -4.3325 -2.9889 0.9757
-2.7939 -4.5994 -2.9889 0.9757
-1.4795 -5.1742 -2.9889 0.9757
-0.5387 -5.3545 -2.9889 0.9757
-0.0599 -5.3812 -2.9889 0.9757
0.4192 -5.3651 -2.9889 0.9757
0.8951 -5.3066 -2.9889 0.9757
3.0949 -4.4025 -2.9889 0.9757
3.4745 -4.1096 -2.9889 0.9757
3.8264 -3.7840 -2.9889 0.9757
4.6902 -2.6387 -2.9889 0.9757
5.0838 -1.7653 -2.9889 0.9757
5.2207 -1.3058 -2.9889 0.9757
5.3162 -0.8359 -2.9889 0.9757
5.3802 0.1199 -2.9889 0.9757
5.3482 0.5983 -2.9889 0.9757
5.0001 1.9900 -2.9889 0.9757
4.8031 2.4271 -2.9889 0.9757
4.5680 2.8450 -2.9889 0.9757
3.9912 3.6099 -2.9889 0.9757
3.6541 3.9508 -2.9889 0.9757
2.8957 4.5360 -2.9889 0.9757
2.4637 4.7435 -2.9687 0.9758
1.5131 4.8778 -2.8365 0.9769
1.0729 4.9932 -2.8365 0.9769
0.6243 5.0688 -2.8365 0.9769
0.1707 5.1043 -2.8365 0.9769
-0.2843 5.0992 -2.8365 0.9769
-0.7371 5.0537 -2.8365 0.9769
-1.6214 4.8429 -2.8365 0.9769
-4.0706 3.5200 -2.9889 0.9757
-4.6303 2.7425 -2.9889 0.9757
-4.8560 2.3195 -2.9889 0.9757
-5.1903 1.4218 -2.9889 0.9757
-5.2963 0.9542 -2.9889 0.9757
-5.3602 0.4790 -2.9889 0.9757
-5.1563 -0.4607 -2.9889 0.9764
-5.0949 -0.9179 -2.9889 0.9764
-4.9929 -1.3677 -2.9889 0.9764
-4.6713 -2.2313 -2.9889 0.9764
-4.4542 -2.6382 -2.9889 0.9764
-4.2017 -3.0242 -2.9889 0.9764
-3.2534 -4.0268 -2.9889 0.9764
-2.0740 -4.7433 -2.9889 0.9764
-0.2882 -5.1688 -2.9889 0.9764
1.0876 -5.0613 -2.9889 0.9764
1.9678 -4.7883 -2.9889 0.9764
2.7856 -4.3636 -2.9889 0.9764
3.8394 -3.4726 -2.9889 0.9764
