ply
format ascii 1.0
element vertex 1586
property float32 x
property float32 y
property float32 z
property float32 I
end_header
6.8917 -5.1973 0.0717 0.9661
7.9261 -4.9364 0.0776 0.9633
5.8805 -6.9555 0.0757 0.9642
6.0981 -6.0305 0.0713 0.9663
6.5664 -5.4272 0.0708 0.9665
7.3129 -5.0201 0.0737 0.9651
5.9472 -6.4301 -0.0728 0.9656
6.3058 -5.7032 -0.0707 0.9666
7.9269 -4.9369 -0.0776 0.9633
6.5667 -5.4275 -0.0708 0.9665
7.3133 -5.0203 -0.0737 0.9651
5.9585 -6.4423 -0.2188 0.9655
6.3161 -5.7126 -0.2124 0.9665
6.9045 -5.2070 -0.2157 0.9660
5.8979 -6.9761 -0.2278 0.9641
6.5776 -5.4365 -0.2128 0.9664
5.9698 -6.4545 -0.3656 0.9654
6.9170 -5.2164 -0.3602 0.9659
5.9149 -6.9962 -0.3809 0.9640
6.5886 -5.4456 -0.3554 0.9664
6.0016 -6.4888 -0.5148 0.9652
5.9672 -7.0580 -0.5383 0.9636
6.6176 -5.4696 -0.5000 0.9662
7.3886 -5.0720 -0.5220 0.9647
6.0375 -6.5278 -0.6663 0.9650
6.3865 -5.7762 -0.6453 0.9660
7.4378 -5.1058 -0.6761 0.9645
6.0873 -6.5816 -0.8219 0.9646
6.4251 -5.8112 -0.7942 0.9658
7.0402 -5.3093 -0.8084 0.9652
8.4437 -5.2588 -0.9120 0.9608
6.1069 -7.2233 -0.8672 0.9627
6.2206 -6.1517 -0.8021 0.9655
6.6938 -5.5325 -0.7961 0.9657
7.5057 -5.1524 -0.8346 0.9641
6.4861 -5.8663 -0.9486 0.9654
6.2498 -7.3923 -1.0500 0.9618
6.2823 -6.2127 -0.9583 0.9651
6.2601 -6.7684 -1.1554 0.9635
6.5485 -5.9228 -1.1065 0.9650
7.1956 -5.4265 -1.1294 0.9643
6.3475 -6.2772 -1.1187 0.9647
7.7637 -5.3295 -1.1801 0.9627
6.6503 -6.0149 -1.2754 0.9644
7.3277 -5.5261 -1.3054 0.9636
7.5187 -5.6701 -1.4995 0.9626
6.6029 -6.5298 -1.4787 0.9631
6.9494 -6.2854 -1.6522 0.9627
7.9595 -6.0026 -1.7578 0.9603
6.8408 -6.7650 -1.6964 0.9617
7.2551 -5.9965 -1.6597 0.9625
7.4940 -6.7780 -1.9554 0.9597
12.1222 8.3214 -2.8454 0.9419
11.3337 9.3675 -2.8455 0.9419
4.9785 13.8379 -2.8459 0.9418
-0.1639 14.7072 -2.8463 0.9418
-1.4723 14.6347 -2.8464 0.9418
-2.7691 14.4460 -2.8465 0.9418
-5.2868 13.7270 -2.8466 0.9418
-6.4878 13.2023 -2.8467 0.9418
-7.6374 12.5728 -2.8468 0.9418
-12.9801 6.9263 -2.8471 0.9418
-13.5452 5.7437 -2.8472 0.9418
13.6608 5.4369 -2.8453 0.9419
12.4807 7.7731 -2.8454 0.9419
11.7396 8.8532 -2.8454 0.9419
9.9844 10.7950 -2.8456 0.9419
8.9841 11.6411 -2.8456 0.9418
7.9126 12.3948 -2.8457 0.9418
5.5899 13.6022 -2.8459 0.9418
3.0898 14.3787 -2.8460 0.9418
1.7978 14.5971 -2.8461 0.9418
-3.4099 14.3085 -2.8465 0.9418
-7.0696 12.9004 -2.8467 0.9418
-8.1900 12.2203 -2.8468 0.9418
-11.9408 8.5945 -2.8471 0.9418
-12.6586 7.4977 -2.8471 0.9418
-13.7877 5.1346 -2.8472 0.9418
-14.2282 0.0000 -2.9996 0.9435
-13.7224 -3.7590 -2.9995 0.9435
-12.2413 -7.2505 -2.9994 0.9435
-11.5472 -8.3111 -2.9994 0.9435
-10.7614 -9.3057 -2.9993 0.9435
-8.9405 -11.0659 -2.9992 0.9435
-7.9199 -11.8174 -2.9991 0.9435
-6.8365 -12.4751 -2.9990 0.9435
-2.0528 -14.0750 -2.9987 0.9435
-0.7919 -14.2014 -2.9986 0.9435
0.4753 -14.2152 -2.9985 0.9435
2.9880 -13.9048 -2.9983 0.9435
4.2136 -13.5833 -2.9983 0.9435
8.6882 -11.2577 -2.9980 0.9435
9.6556 -10.4395 -2.9979 0.9435
10.5462 -9.5385 -2.9978 0.9435
11.3531 -8.5618 -2.9978 0.9435
12.0699 -7.5172 -2.9977 0.9435
12.6909 -6.4130 -2.9977 0.9435
13.6267 -4.0612 -2.9976 0.9435
13.9340 -2.8322 -2.9976 0.9435
14.1307 -1.5808 -2.9976 0.9435
14.2153 -0.3168 -2.9976 0.9435
14.1871 0.9497 -2.9976 0.9435
14.0464 2.2087 -2.9976 0.9435
13.7942 3.4502 -2.9977 0.9435
12.3053 5.5446 -2.8454 0.9463
11.1276 7.6386 -2.8455 0.9463
10.4038 8.5989 -2.8455 0.9463
8.7147 10.3078 -2.8456 0.9463
7.7628 11.0428 -2.8457 0.9463
5.6822 12.2448 -2.8459 0.9463
4.5699 12.7023 -2.8459 0.9463
3.4213 13.0591 -2.8460 0.9463
1.0517 13.4596 -2.8462 0.9463
-1.3514 13.4335 -2.8464 0.9463
-2.5418 13.2604 -2.8464 0.9463
-5.9553 12.1187 -2.8467 0.9463
-10.5982 8.3693 -2.8470 0.9463
-12.4332 5.2722 -2.8471 0.9463
-13.8765 3.1440 -2.9996 0.9435
-14.1013 1.8965 -2.9996 0.9435
-14.2141 -0.6338 -2.9996 0.9435
-14.1012 -1.8964 -2.9996 0.9435
-13.5413 -4.3665 -2.9995 0.9435
-13.0988 -5.5543 -2.9995 0.9435
-12.5522 -6.6980 -2.9994 0.9435
-10.3361 -9.7758 -2.9993 0.9435
-7.3857 -12.1583 -2.9991 0.9435
-2.6778 -13.9698 -2.9987 0.9435
-0.1584 -14.2224 -2.9986 0.9435
1.1080 -14.1797 -2.9985 0.9435
2.3656 -14.0243 -2.9984 0.9435
4.8144 -13.3820 -2.9982 0.9435
7.1105 -12.3157 -2.9981 0.9435
10.1109 -9.9989 -2.9979 0.9435
10.9605 -9.0591 -2.9978 0.9435
12.9640 -5.8413 -2.9977 0.9435
13.4323 -4.6642 -2.9977 0.9435
13.7940 -3.4501 -2.9976 0.9435
14.2153 0.3168 -2.9976 0.9435
14.1308 1.5808 -2.9976 0.9435
13.9341 2.8322 -2.9976 0.9435
12.5400 4.9908 -2.8454 0.9463
12.0462 6.0872 -2.8454 0.9463
10.0105 9.0539 -2.8455 0.9463
8.2469 10.6859 -2.8457 0.9463
7.2633 11.3778 -2.8457 0.9463
5.1312 12.4860 -2.8459 0.9463
3.9996 12.8935 -2.8460 0.9463
-0.7516 13.4802 -2.8463 0.9463
-1.9485 13.3602 -2.8464 0.9463
-6.4893 11.8415 -2.8467 0.9463
-12.1860 5.8207 -2.8471 0.9463
-12.8956 4.8024 -2.9011 0.9453
-14.0028 2.5227 -2.9996 0.9435
-14.1717 1.2664 -2.9996 0.9435
-13.0895 -1.1697 -2.9995 0.9475
-12.6746 -3.4719 -2.9995 0.9475
-12.3151 -4.5862 -2.9994 0.9475
-11.3066 -6.6969 -2.9994 0.9475
-9.9397 -8.5952 -2.9993 0.9475
-7.3153 -10.9151 -2.9991 0.9475
-6.3146 -11.5227 -2.9990 0.9475
-5.2638 -12.0387 -2.9989 0.9475
-4.1713 -12.4591 -2.9988 0.9475
-3.0458 -12.7805 -2.9988 0.9475
-0.7314 -13.1173 -2.9986 0.9475
3.8920 -12.5465 -2.9983 0.9475
7.0679 -11.0717 -2.9981 0.9475
9.7413 -8.8105 -2.9979 0.9475
10.4867 -7.9084 -2.9978 0.9475
11.1488 -6.9435 -2.9978 0.9475
12.2030 -4.8567 -2.9977 0.9475
13.0523 -1.4601 -2.9977 0.9475
13.1305 -0.2926 -2.9977 0.9475
13.1045 0.8773 -2.9977 0.9475
12.9744 2.0402 -2.9977 0.9475
10.8654 6.1128 -2.8455 0.9501
10.2783 7.0556 -2.8455 0.9501
9.6097 7.9427 -2.8456 0.9501
8.8648 8.7666 -2.8456 0.9501
7.1703 10.1999 -2.8457 0.9501
6.2342 10.7979 -2.8458 0.9501
5.2485 11.3102 -2.8459 0.9501
2.0741 12.2960 -2.8461 0.9501
-0.1389 12.4696 -2.8463 0.9501
-2.3477 12.2480 -2.8464 0.9501
-4.4824 11.6383 -2.8466 0.9501
-6.2591 7.0772 -2.1564 0.9620
-9.7889 7.7302 -2.8469 0.9501
-11.4838 4.8696 -2.8470 0.9501
-12.5074 4.0331 -2.9995 0.9475
-13.1287 0.5854 -2.9995 0.9475
-13.1287 -0.5854 -2.9995 0.9475
-12.8167 -2.9039 -2.9995 0.9475
-12.5073 -4.0331 -2.9995 0.9475
-12.0986 -5.1302 -2.9994 0.9475
-9.5469 -9.0294 -2.9992 0.9475
-8.7051 -9.8430 -2.9992 0.9475
-7.7943 -10.5786 -2.9991 0.9475
-6.8217 -11.2300 -2.9990 0.9475
-5.7949 -11.7923 -2.9990 0.9475
-4.7222 -12.2610 -2.9989 0.9475
-2.4734 -12.9033 -2.9987 0.9475
-1.3151 -13.0719 -2.9986 0.9475
1.0234 -13.0972 -2.9985 0.9475
2.1850 -12.9538 -2.9984 0.9475
4.4470 -12.3606 -2.9982 0.9475
5.5293 -11.9154 -2.9982 0.9475
7.5540 -10.7458 -2.9980 0.9475
8.4803 -10.0306 -2.9980 0.9475
10.1240 -8.3677 -2.9979 0.9475
11.9746 -5.3955 -2.9978 0.9475
13.1044 -0.8772 -2.9977 0.9475
13.0524 1.4601 -2.9977 0.9475
12.5869 3.7513 -2.9977 0.9475
10.5824 6.5908 -2.8455 0.9501
9.2465 8.3629 -2.8456 0.9501
8.4656 9.1529 -2.8457 0.9501
7.6175 9.8703 -2.8457 0.9501
6.7089 10.5093 -2.8458 0.9501
5.7470 11.0650 -2.8459 0.9501
3.6943 11.9093 -2.8460 0.9501
0.4167 12.4632 -2.8462 0.9501
-1.7998 12.3403 -2.8464 0.9501
-2.8911 12.1314 -2.8465 0.9501
-5.9587 7.3751 -2.1641 0.9618
-8.6710 8.9658 -2.8468 0.9501
-9.4348 8.1586 -2.8469 0.9501
-11.2555 5.3763 -2.8470 0.9501
-12.3153 4.5863 -2.9995 0.9475
-12.9335 2.3301 -2.9995 0.9475
-12.2028 0.0000 -2.9994 0.9510
-11.4353 -4.2586 -2.9994 0.9510
-10.4988 -6.2185 -2.9993 0.9510
-9.2296 -7.9812 -2.9992 0.9510
-5.8635 -10.6995 -2.9990 0.9510
-4.8878 -11.1787 -2.9989 0.9510
-2.8282 -11.8676 -2.9987 0.9510
1.4911 -12.1073 -2.9984 0.9510
3.6140 -11.6505 -2.9983 0.9510
5.6222 -10.8246 -2.9982 0.9510
7.4520 -9.6559 -2.9980 0.9510
9.7378 -7.3437 -2.9979 0.9510
10.8853 -5.5006 -2.9978 0.9510
11.3316 -4.5099 -2.9978 0.9510
11.6880 -3.4834 -2.9978 0.9510
11.9516 -2.4293 -2.9978 0.9510
12.1203 -1.3558 -2.9978 0.9510
12.1687 0.8146 -2.9978 0.9510
11.8316 2.9593 -2.9978 0.9510
11.5214 4.0007 -2.9978 0.9510
9.5444 6.5519 -2.8456 0.9534
8.9235 7.3755 -2.8456 0.9534
8.2318 8.1406 -2.8457 0.9534
7.4747 8.8411 -2.8457 0.9534
6.6583 9.4715 -2.8458 0.9534
4.8736 10.5025 -2.8459 0.9534
3.9196 10.8948 -2.8460 0.9534
0.9021 11.5441 -2.8462 0.9534
-0.1290 11.5789 -2.8463 0.9534
-1.1591 11.5217 -2.8463 0.9534
-2.1800 11.3731 -2.8464 0.9534
-3.1837 11.1342 -2.8465 0.9534
-6.0126 9.8981 -2.8467 0.9534
-8.4145 7.9584 -2.8468 0.9534
-9.6925 6.3405 -2.8469 0.9534
-10.2185 5.4528 -2.8469 0.9534
-11.2343 4.7638 -2.9994 0.9510
-11.6138 3.7450 -2.9994 0.9510
-11.9011 2.6965 -2.9994 0.9510
-12.0939 1.6265 -2.9994 0.9510
-12.1907 0.5436 -2.9994 0.9510
-12.0939 -1.6264 -2.9994 0.9510
-11.9010 -2.6964 -2.9994 0.9510
-11.6137 -3.7449 -2.9994 0.9510
-11.2342 -4.7637 -2.9994 0.9510
-10.7655 -5.7446 -2.9993 0.9510
-9.5761 -7.5621 -2.9992 0.9510
-8.8648 -8.3843 -2.9992 0.9510
-7.2375 -9.8229 -2.9991 0.9510
-6.3344 -10.4278 -2.9990 0.9510
-5.3810 -10.9500 -2.9989 0.9510
-3.3541 -11.7300 -2.9988 0.9510
-0.1359 -12.1985 -2.9986 0.9510
3.0915 -11.8001 -2.9983 0.9510
4.1294 -11.4778 -2.9983 0.9510
5.1344 -11.0645 -2.9982 0.9510
6.0987 -10.5633 -2.9981 0.9510
7.8747 -9.3143 -2.9980 0.9510
9.4011 -7.7702 -2.9979 0.9510
10.0552 -6.9025 -2.9979 0.9510
10.6296 -5.9801 -2.9978 0.9510
11.5212 -4.0006 -2.9978 0.9510
12.1929 0.2717 -2.9978 0.9510
12.1204 1.3559 -2.9978 0.9510
11.9517 2.4293 -2.9978 0.9510
11.6881 3.4834 -2.9978 0.9510
10.3323 5.2212 -2.8455 0.9534
9.8267 6.1201 -2.8455 0.9534
4.4010 10.7093 -2.8459 0.9534
0.3869 11.5730 -2.8462 0.9534
-0.6447 11.5618 -2.8463 0.9534
-1.6712 11.4588 -2.8464 0.9534
-2.6845 11.2648 -2.8464 0.9534
-4.6395 10.6109 -2.8466 0.9534
-5.9118 7.3171 -2.3122 0.9620
-8.7607 7.5757 -2.8468 0.9534
-9.4004 6.7660 -2.8469 0.9534
-10.4513 4.9922 -2.8469 0.9534
-11.4354 4.2586 -2.9994 0.9510
-12.0095 2.1636 -2.9994 0.9510
-12.1544 1.0861 -2.9994 0.9510
-11.3377 -1.0131 -2.9994 0.9540
-11.2025 -2.0182 -2.9994 0.9540
-10.9783 -3.0073 -2.9993 0.9540
-9.2381 -6.6492 -2.9992 0.9540
-8.6095 -7.4449 -2.9992 0.9540
-7.1528 -8.8532 -2.9991 0.9540
-6.3363 -9.4545 -2.9990 0.9540
-5.4696 -9.9807 -2.9989 0.9540
-2.6382 -11.0704 -2.9987 0.9540
-1.6424 -11.2610 -2.9987 0.9540
0.3803 -11.3733 -2.9985 0.9540
1.3910 -11.2940 -2.9985 0.9540
2.3906 -11.1252 -2.9984 0.9540
6.1224 -9.5906 -2.9981 0.9540
7.7255 -8.3528 -2.9980 0.9540
8.4382 -7.6319 -2.9980 0.9540
9.6574 -6.0147 -2.9979 0.9540
11.1489 -2.2661 -2.9978 0.9540
11.3515 0.7599 -2.9978 0.9540
11.2389 1.7672 -2.9978 0.9540
10.7476 3.7320 -2.9979 0.9540
9.4119 5.2951 -2.8456 0.9563
7.6789 7.5938 -2.8457 0.9563
6.9727 8.2473 -2.8458 0.9563
6.2111 8.8354 -2.8458 0.9563
4.5463 9.7970 -2.8459 0.9563
2.7373 10.4483 -2.8461 0.9563
1.7966 10.6508 -2.8461 0.9563
-0.1203 10.8010 -2.8463 0.9563
-2.0336 10.6091 -2.8464 0.9563
-2.9698 10.3862 -2.8465 0.9563
-3.8826 10.0809 -2.8465 0.9563
-6.1788 6.9865 -2.4576 0.9622
-10.4795 4.4437 -2.9993 0.9540
-10.8335 3.4934 -2.9994 0.9540
-11.1015 2.5153 -2.9994 0.9540
-11.2813 1.5172 -2.9994 0.9540
-11.3716 0.5071 -2.9994 0.9540
-11.3716 -0.5071 -2.9994 0.9540
-10.4794 -4.4436 -2.9993 0.9540
-10.0422 -5.3586 -2.9993 0.9540
-8.9327 -7.0541 -2.9992 0.9540
-8.2692 -7.8210 -2.9991 0.9540
-7.5402 -8.5258 -2.9991 0.9540
-6.7513 -9.1629 -2.9990 0.9540
-5.9088 -9.7273 -2.9990 0.9540
-5.0195 -10.2144 -2.9989 0.9540
-4.0903 -10.6204 -2.9988 0.9540
-3.1288 -10.9420 -2.9988 0.9540
-2.1424 -11.1768 -2.9987 0.9540
3.8520 -10.7069 -2.9983 0.9540
9.3799 -6.4390 -2.9979 0.9540
9.9157 -5.5785 -2.9979 0.9540
10.3728 -4.6737 -2.9979 0.9540
10.7475 -3.7319 -2.9978 0.9540
11.3741 0.2535 -2.9978 0.9540
11.3064 1.2648 -2.9978 0.9540
11.1490 2.2661 -2.9978 0.9540
10.9031 3.2495 -2.9979 0.9540
10.5708 4.2071 -2.9979 0.9540
8.6223 6.5024 -2.8456 0.9563
8.0095 7.2442 -2.8457 0.9563
7.3331 7.9284 -2.8457 0.9563
6.5984 8.5498 -2.8458 0.9563
5.8114 9.1033 -2.8458 0.9563
4.9782 9.5847 -2.8459 0.9563
4.1054 9.9899 -2.8460 0.9563
3.2000 10.3159 -2.8460 0.9563
1.3203 10.7203 -2.8462 0.9563
-1.5590 10.6890 -2.8464 0.9563
-2.5042 10.5080 -2.8464 0.9563
-4.3278 9.8980 -2.8465 0.9563
-5.1917 9.4737 -2.8466 0.9563
-6.0145 8.9742 -2.8467 0.9563
-5.8911 7.2915 -2.4700 0.9620
-8.1721 7.0667 -2.8468 0.9563
-10.0204 4.7864 -2.9261 0.9551
-10.9784 3.0073 -2.9994 0.9540
-11.2025 2.0183 -2.9994 0.9540
-10.4913 -1.8901 -2.9993 0.9567
-9.9898 -3.7203 -2.9993 0.9567
-8.6517 -6.2271 -2.9992 0.9567
-8.0630 -6.9724 -2.9991 0.9567
-7.4103 -7.6622 -2.9991 0.9567
-5.1224 -9.3472 -2.9989 0.9567
-2.4708 -10.3678 -2.9987 0.9567
-0.5933 -10.6411 -2.9986 0.9567
0.3561 -10.6515 -2.9985 0.9567
3.1573 -10.1783 -2.9983 0.9567
4.0506 -9.8567 -2.9983 0.9567
4.9118 -9.4568 -2.9982 0.9567
6.5104 -8.4358 -2.9981 0.9567
7.2353 -7.8228 -2.9981 0.9567
8.5075 -6.4158 -2.9980 0.9567
9.0446 -5.6330 -2.9980 0.9567
9.8999 -3.9401 -2.9979 0.9567
10.4416 -2.1223 -2.9979 0.9567
10.5258 1.6551 -2.9979 0.9567
10.0657 3.4952 -2.9979 0.9567
8.8147 4.9591 -2.8456 0.9588
8.3384 5.7240 -2.8456 0.9588
5.0574 8.7598 -2.8459 0.9588
4.2578 9.1753 -2.8459 0.9588
1.6825 9.9748 -2.8461 0.9588
-0.1127 10.1156 -2.8463 0.9588
-3.6361 9.4410 -2.8465 0.9588
-5.2527 8.6471 -2.8466 0.9588
-6.0016 8.1454 -2.8467 0.9588
-8.4673 5.5391 -2.8468 0.9588
-10.1458 3.2716 -2.9993 0.9567
-10.3968 2.3556 -2.9993 0.9567
-10.5652 1.4209 -2.9993 0.9567
-10.6497 0.4749 -2.9993 0.9567
-9.4047 -5.0185 -2.9992 0.9567
-8.3657 -6.6063 -2.9992 0.9567
-7.7444 -7.3246 -2.9991 0.9567
-6.3228 -8.5813 -2.9990 0.9567
-5.5338 -9.1099 -2.9989 0.9567
-4.7009 -9.5660 -2.9989 0.9567
-3.8307 -9.9463 -2.9988 0.9567
-2.0064 -10.4674 -2.9987 0.9567
-1.0668 -10.6042 -2.9986 0.9567
-0.1187 -10.6569 -2.9986 0.9567
0.8302 -10.6249 -2.9985 0.9567
1.7726 -10.5086 -2.9984 0.9567
2.7008 -10.3090 -2.9984 0.9567
3.6076 -10.0274 -2.9983 0.9567
4.4857 -9.6663 -2.9983 0.9567
6.1282 -8.7175 -2.9981 0.9567
6.8797 -8.1373 -2.9981 0.9567
8.7848 -6.0304 -2.9980 0.9567
10.0656 -3.4952 -2.9979 0.9567
10.5257 -1.6551 -2.9979 0.9567
10.6312 -0.7117 -2.9979 0.9567
10.6524 0.2374 -2.9979 0.9567
10.5890 1.1846 -2.9979 0.9567
10.4416 2.1224 -2.9979 0.9567
10.2114 3.0433 -2.9979 0.9567
9.9000 3.9401 -2.9979 0.9567
8.0752 6.0898 -2.8457 0.9588
6.1797 8.0073 -2.8458 0.9588
2.9970 9.6613 -2.8460 0.9588
2.1252 9.8899 -2.8461 0.9588
1.2365 10.0400 -2.8462 0.9588
0.3380 10.1104 -2.8462 0.9588
-1.4600 10.0106 -2.8463 0.9588
-3.2119 9.5936 -2.8465 0.9588
-4.0531 9.2698 -2.8465 0.9588
-5.8704 7.2658 -2.6281 0.9619
-7.0338 7.2730 -2.8467 0.9588
-9.6191 4.5947 -2.9993 0.9567
-9.9899 3.7203 -2.9993 0.9567
-10.2815 2.8164 -2.9993 0.9567
-10.4914 1.8901 -2.9993 0.9567
-10.6180 0.9488 -2.9993 0.9567
-10.0184 0.0000 -2.9993 0.9590
-9.9786 -0.8917 -2.9993 0.9590
-9.8596 -1.7763 -2.9993 0.9590
-9.6623 -2.6468 -2.9993 0.9590
-7.5775 -6.5525 -2.9991 0.9590
-6.9641 -7.2008 -2.9991 0.9590
-6.2955 -7.7920 -2.9990 0.9590
-4.8140 -8.7844 -2.9989 0.9590
-4.0129 -9.1779 -2.9988 0.9590
-3.1801 -9.4984 -2.9988 0.9590
-2.3220 -9.7436 -2.9987 0.9590
-0.5576 -10.0005 -2.9986 0.9590
0.3347 -10.0102 -2.9985 0.9590
2.9673 -9.5655 -2.9984 0.9590
5.3887 -8.4413 -2.9982 0.9590
7.4271 -6.7174 -2.9981 0.9590
7.9954 -6.0296 -2.9980 0.9590
8.5002 -5.2940 -2.9980 0.9590
9.3040 -3.7029 -2.9979 0.9591
9.5966 -2.8601 -2.9979 0.9591
9.9516 -1.1132 -2.9979 0.9591
10.0112 -0.2231 -2.9979 0.9591
9.7146 2.4298 -2.9979 0.9591
9.4598 3.2848 -2.9980 0.9590
8.3924 4.7215 -2.8828 0.9606
7.3267 6.0557 -2.8457 0.9611
6.1371 7.2590 -2.8458 0.9611
4.0015 8.6230 -2.8460 0.9611
3.2182 8.9451 -2.8460 0.9611
1.5813 9.3743 -2.8461 0.9611
0.7406 9.4780 -2.8462 0.9611
-0.9516 9.4596 -2.8463 0.9611
-1.7899 9.3375 -2.8464 0.9611
-4.9364 8.1264 -2.8466 0.9611
-5.6402 7.6549 -2.8466 0.9611
-6.1418 6.9446 -2.7755 0.9620
-7.4625 5.8930 -2.8467 0.9611
-7.9575 5.2056 -2.8468 0.9611
-8.8385 4.7164 -2.9992 0.9590
-9.7707 2.2138 -2.9993 0.9590
-10.0084 0.4463 -2.9993 0.9590
-10.0084 -0.4463 -2.9993 0.9590
-9.7706 -2.2137 -2.9993 0.9590
-9.2232 -3.9110 -2.9992 0.9590
-8.8384 -4.7163 -2.9992 0.9590
-7.8619 -6.2085 -2.9991 0.9590
-3.6001 -9.3474 -2.9988 0.9590
-1.8856 -9.8372 -2.9987 0.9590
-1.0026 -9.9658 -2.9986 0.9590
-0.1116 -10.0153 -2.9986 0.9590
2.5382 -9.6883 -2.9984 0.9590
3.3904 -9.4238 -2.9983 0.9590
5.7594 -8.1928 -2.9982 0.9590
6.4656 -7.6475 -2.9981 0.9590
8.2560 -5.6674 -2.9980 0.9590
8.7276 -4.9101 -2.9980 0.9590
9.1299 -4.1137 -2.9980 0.9591
9.4597 -3.2848 -2.9979 0.9591
9.7145 -2.4297 -2.9979 0.9591
8.9377 4.5164 -2.9980 0.9590
7.0497 6.3761 -2.8457 0.9611
6.4543 6.9784 -2.8458 0.9611
5.8077 7.5253 -2.8458 0.9611
5.1150 8.0125 -2.8459 0.9611
3.6134 8.7928 -2.8460 0.9611
2.8165 9.0797 -2.8460 0.9611
1.9973 9.2945 -2.8461 0.9611
-2.2041 9.2486 -2.8464 0.9611
-3.0185 9.0159 -2.8464 0.9611
-3.8091 8.7116 -2.8465 0.9611
-4.5694 8.3382 -2.8466 0.9611
-5.2935 7.8985 -2.8466 0.9611
-5.8496 7.2401 -2.7866 0.9619
-6.6103 6.8350 -2.8467 0.9611
-7.1925 6.2196 -2.8467 0.9611
-8.1815 4.8460 -2.8468 0.9611
-9.6623 2.6468 -2.9993 0.9590
-9.8596 1.7763 -2.9993 0.9590
-9.9786 0.8917 -2.9993 0.9590
-9.4440 0.0000 -2.9993 0.9611
-9.4065 -0.8406 -2.9993 0.9611
-9.2943 -1.6744 -2.9992 0.9611
-9.1083 -2.4950 -2.9992 0.9611
-8.1253 -4.8126 -2.9991 0.9611
-7.1431 -6.1769 -2.9991 0.9611
-5.9346 -7.3453 -2.9990 0.9611
-5.2572 -7.8442 -2.9989 0.9611
-4.5380 -8.2808 -2.9989 0.9611
-3.7829 -8.6518 -2.9988 0.9611
-2.1889 -9.1850 -2.9987 0.9611
-1.3627 -9.3432 -2.9987 0.9611
-0.5257 -9.4272 -2.9986 0.9611
0.3155 -9.4364 -2.9985 0.9611
1.9835 -9.2306 -2.9984 0.9612
4.3515 -8.3782 -2.9983 0.9612
5.0799 -7.9575 -2.9982 0.9612
6.4101 -6.9305 -2.9981 0.9612
7.5372 -5.6840 -2.9981 0.9612
8.0131 -4.9906 -2.9980 0.9612
8.4254 -4.2575 -2.9980 0.9612
8.7708 -3.4907 -2.9980 0.9612
9.2507 -1.8803 -2.9980 0.9612
9.3813 -1.0495 -2.9979 0.9612
9.3253 1.4663 -2.9980 0.9612
8.9177 3.0966 -2.9980 0.9612
8.6067 3.8780 -2.9980 0.9612
6.3714 6.3008 -2.8458 0.9631
5.7854 6.8430 -2.8458 0.9631
4.4806 7.7606 -2.8459 0.9631
3.0337 8.4324 -2.8460 0.9631
2.2712 8.6690 -2.8461 0.9631
1.4906 8.8370 -2.8461 0.9631
0.6982 8.9348 -2.8462 0.9631
-1.6873 8.8023 -2.8464 0.9631
-2.4641 8.6173 -2.8464 0.9631
-3.9530 8.0442 -2.8465 0.9631
-4.6534 7.6605 -2.8466 0.9631
-5.3168 7.2161 -2.8466 0.9631
-5.9381 6.7143 -2.8466 0.9631
-6.5122 6.1592 -2.8467 0.9631
-8.3318 4.4460 -2.9992 0.9611
-8.9882 2.8983 -2.9992 0.9611
-9.2104 -2.0868 -2.9992 0.9611
-8.9881 -2.8983 -2.9992 0.9611
-8.6944 -3.6867 -2.9992 0.9611
-6.8608 -6.4889 -2.9990 0.9611
-5.6014 -7.6023 -2.9990 0.9611
-4.9025 -8.0706 -2.9989 0.9611
-3.3937 -8.8116 -2.9988 0.9611
-1.7776 -9.2734 -2.9987 0.9611
-0.1052 -9.4412 -2.9986 0.9611
0.7355 -9.4129 -2.9985 0.9611
2.3927 -9.1330 -2.9984 0.9612
5.4293 -7.7232 -2.9982 0.9612
6.7124 -6.6380 -2.9981 0.9612
7.2765 -6.0142 -2.9981 0.9612
7.7828 -5.3426 -2.9980 0.9612
8.6067 -3.8780 -2.9980 0.9612
9.1578 -2.2905 -2.9980 0.9612
9.3814 1.0495 -2.9980 0.9612
9.2508 1.8803 -2.9980 0.9612
8.7709 3.4908 -2.9980 0.9612
8.4255 4.2576 -2.9980 0.9612
7.1542 5.3952 -2.8457 0.9631
6.6457 6.0107 -2.8458 0.9631
5.4748 7.0940 -2.8459 0.9631
4.8218 7.5532 -2.8459 0.9631
3.4063 8.2888 -2.8460 0.9631
-1.2935 8.8686 -2.8463 0.9631
-2.8455 8.4991 -2.8464 0.9631
-3.5907 8.2122 -2.8465 0.9631
-4.3075 7.8602 -2.8465 0.9631
-6.7802 5.8630 -2.8467 0.9631
-8.5216 4.0704 -2.9992 0.9611
-9.4065 0.8405 -2.9993 0.9611
-8.7852 -1.5827 -2.9992 0.9630
-8.6095 -2.3584 -2.9992 0.9630
-8.3653 -3.1153 -2.9992 0.9630
-8.0548 -3.8474 -2.9991 0.9630
-7.2448 -5.2145 -2.9991 0.9630
-5.6096 -6.9430 -2.9990 0.9630
-4.9693 -7.4146 -2.9989 0.9630
-2.0690 -8.6821 -2.9987 0.9630
1.8749 -8.7252 -2.9984 0.9630
3.3921 -8.2543 -2.9983 0.9630
4.1133 -7.9194 -2.9983 0.9630
4.8017 -7.5218 -2.9982 0.9630
7.1245 -5.3729 -2.9981 0.9630
7.5744 -4.7174 -2.9981 0.9630
8.8677 -0.9920 -2.9980 0.9630
8.9031 0.5960 -2.9980 0.9630
8.8148 1.3861 -2.9980 0.9630
7.7771 4.3753 -2.9981 0.9630
6.9830 4.7935 -2.8457 0.9649
6.5287 5.3961 -2.8458 0.9649
6.0226 5.9558 -2.8458 0.9649
5.4686 6.4683 -2.8459 0.9649
4.8713 6.9295 -2.8459 0.9649
4.2353 7.3357 -2.8459 0.9649
1.4090 8.3531 -2.8461 0.9649
0.6599 8.4455 -2.8462 0.9649
-0.8480 8.4290 -2.8463 0.9649
-1.5949 8.3203 -2.8463 0.9649
-3.7366 7.6037 -2.8465 0.9649
-4.3986 7.2410 -2.8465 0.9649
-5.0257 6.8209 -2.8466 0.9649
-5.6129 6.3466 -2.8466 0.9649
-7.2990 4.7748 -2.9304 0.9639
-8.7060 -1.9725 -2.9992 0.9630
-8.4958 -2.7396 -2.9992 0.9630
-7.4700 -4.8866 -2.9991 0.9630
-7.0053 -5.5320 -2.9991 0.9630
-6.4851 -6.1335 -2.9990 0.9630
-5.2947 -7.1860 -2.9989 0.9630
-3.9365 -8.0106 -2.9988 0.9630
-2.4538 -8.5813 -2.9987 0.9630
-1.6802 -8.7655 -2.9987 0.9630
-0.8934 -8.8801 -2.9986 0.9630
-0.0994 -8.9243 -2.9986 0.9630
1.4844 -8.8002 -2.9985 0.9630
2.2617 -8.6329 -2.9984 0.9630
4.4619 -7.7283 -2.9983 0.9630
5.1320 -7.3004 -2.9982 0.9630
6.8781 -5.6849 -2.9981 0.9630
7.3567 -5.0501 -2.9981 0.9630
7.7770 -4.3752 -2.9980 0.9630
8.1355 -3.6656 -2.9980 0.9630
8.4294 -2.9270 -2.9980 0.9630
8.6564 -2.1651 -2.9980 0.9630
8.8147 -1.3860 -2.9980 0.9630
8.9208 0.1988 -2.9980 0.9630
8.8678 0.9920 -2.9980 0.9630
8.7443 1.7774 -2.9980 0.9630
8.2907 3.2996 -2.9980 0.9630
7.9642 4.0245 -2.9981 0.9630
5.1751 6.7056 -2.8459 0.9649
4.5578 7.1397 -2.8459 0.9649
3.9043 7.5171 -2.8460 0.9649
1.7797 8.2820 -2.8461 0.9649
1.0355 8.4076 -2.8462 0.9649
-0.4716 8.4584 -2.8463 0.9649
-1.2226 8.3830 -2.8463 0.9649
-3.3941 7.7625 -2.8465 0.9649
-4.0716 7.4297 -2.8465 0.9649
-4.7168 7.0379 -2.8466 0.9649
-5.3246 6.5903 -2.8466 0.9649
-5.8901 6.0903 -2.8466 0.9649
-8.0549 3.8475 -2.9992 0.9630
-8.3654 3.1153 -2.9992 0.9630
-8.7853 1.5827 -2.9992 0.9630
-8.8913 0.7946 -2.9992 0.9630
-8.4583 0.0000 -2.9992 0.9647
-8.3242 -1.4997 -2.9992 0.9647
-5.8797 -6.0796 -2.9990 0.9647
-4.7085 -7.0256 -2.9989 0.9647
-4.0644 -7.4167 -2.9989 0.9647
-2.6849 -8.0195 -2.9988 0.9647
-1.2205 -8.3682 -2.9987 0.9647
-0.4708 -8.4435 -2.9986 0.9647
0.2826 -8.4518 -2.9985 0.9647
1.7766 -8.2675 -2.9984 0.9647
2.5053 -8.0764 -2.9984 0.9647
3.8975 -7.5040 -2.9983 0.9647
4.5498 -7.1272 -2.9983 0.9648
5.1661 -6.6938 -2.9982 0.9648
5.7413 -6.2074 -2.9982 0.9648
6.2709 -5.6717 -2.9981 0.9648
7.1770 -4.4699 -2.9981 0.9648
7.8557 -3.1265 -2.9980 0.9648
8.1028 -2.4149 -2.9980 0.9648
8.2856 -1.6841 -2.9980 0.9648
8.3524 1.3134 -2.9980 0.9648
8.2024 2.0516 -2.9980 0.9648
7.3691 4.1458 -2.9981 0.9648
5.1817 6.1290 -2.8459 0.9665
4.0131 6.9508 -2.8460 0.9665
3.3785 7.2805 -2.8460 0.9665
2.7172 7.5525 -2.8460 0.9665
1.3351 7.9148 -2.8461 0.9665
-0.8035 7.9868 -2.8463 0.9665
-2.2069 7.7180 -2.8464 0.9665
-2.8851 7.4911 -2.8464 0.9665
-4.7619 6.4630 -2.8466 0.9665
-5.3184 6.0135 -2.8466 0.9665
-7.4622 3.9820 -2.9991 0.9647
-8.3828 1.1274 -2.9992 0.9647
-8.4499 0.3768 -2.9992 0.9647
-8.4499 -0.3768 -2.9992 0.9647
-8.2491 -1.8690 -2.9992 0.9647
-8.0500 -2.5958 -2.9991 0.9647
-7.4621 -3.9819 -2.9991 0.9647
-6.1448 -5.8117 -2.9990 0.9647
-5.6030 -6.3354 -2.9990 0.9647
-5.0168 -6.8089 -2.9989 0.9647
-4.3908 -7.2283 -2.9989 0.9647
-2.3250 -8.1311 -2.9987 0.9647
-1.5921 -8.3056 -2.9987 0.9647
-0.8465 -8.4142 -2.9986 0.9647
-0.0942 -8.4560 -2.9986 0.9647
0.6588 -8.4307 -2.9985 0.9647
1.4065 -8.3385 -2.9985 0.9647
2.1431 -8.1801 -2.9984 0.9647
3.5594 -7.6702 -2.9983 0.9647
4.8628 -6.9174 -2.9982 0.9648
6.9708 -4.7852 -2.9981 0.9648
7.3690 -4.1457 -2.9981 0.9648
8.2023 -2.0515 -2.9980 0.9648
8.3523 -1.3133 -2.9980 0.9648
7.5464 3.8134 -2.9981 0.9648
3.0509 7.4239 -2.8460 0.9665
1.6863 7.8475 -2.8461 0.9665
-0.4469 8.0146 -2.8463 0.9665
-2.5486 7.6121 -2.8464 0.9665
-3.2160 7.3552 -2.8465 0.9665
-3.8579 7.0399 -2.8465 0.9665
-5.0452 6.2445 -2.8466 0.9665
-7.2774 4.3104 -2.9991 0.9647
-7.6322 3.6456 -2.9991 0.9647
-8.1577 2.2347 -2.9992 0.9647
-8.3243 1.4997 -2.9992 0.9647
-8.0318 0.0000 -2.9992 0.9663
-7.9999 -0.7149 -2.9992 0.9663
-7.9045 -1.4241 -2.9991 0.9663
-7.5267 -2.8030 -2.9991 0.9663
-7.2473 -3.4617 -2.9991 0.9663
-4.4711 -6.6713 -2.9989 0.9663
-3.2173 -7.3582 -2.9988 0.9663
-1.8616 -7.8118 -2.9987 0.9663
-1.1590 -7.9463 -2.9986 0.9663
-0.4471 -8.0178 -2.9986 0.9663
0.2683 -8.0257 -2.9985 0.9663
2.3790 -7.6693 -2.9984 0.9663
3.0521 -7.4269 -2.9984 0.9663
4.3205 -6.7679 -2.9983 0.9663
6.4105 -4.8344 -2.9981 0.9663
6.8153 -4.2446 -2.9981 0.9663
7.1660 -3.6211 -2.9981 0.9663
7.4598 -2.9689 -2.9981 0.9663
7.7889 1.9482 -2.9981 0.9663
7.5847 2.6337 -2.9981 0.9663
7.3202 3.2984 -2.9981 0.9663
6.9976 3.9368 -2.9981 0.9663
6.6196 4.5441 -2.9982 0.9663
5.8744 4.8553 -2.8458 0.9680
4.9205 5.8200 -2.8459 0.9680
4.3831 6.2350 -2.8459 0.9680
3.2082 6.9135 -2.8460 0.9680
2.5802 7.1717 -2.8461 0.9680
1.9317 7.3730 -2.8461 0.9680
-0.7630 7.5841 -2.8463 0.9680
-3.9576 6.5151 -2.8465 0.9680
-5.5385 5.2382 -2.8466 0.9680
-6.0521 4.7793 -2.8796 0.9676
-7.3944 3.1355 -2.9991 0.9663
-7.6442 2.4650 -2.9991 0.9663
-7.8332 1.7748 -2.9992 0.9663
-8.0238 0.3578 -2.9992 0.9663
-8.0238 -0.3578 -2.9992 0.9663
-7.9601 -1.0705 -2.9991 0.9663
-7.8332 -1.7747 -2.9991 0.9663
-7.0859 -3.7811 -2.9991 0.9663
-6.3031 -4.9775 -2.9990 0.9663
-5.3205 -6.0160 -2.9989 0.9663
-3.5419 -7.2076 -2.9988 0.9663
-1.5118 -7.8869 -2.9987 0.9663
-0.8038 -7.9900 -2.9986 0.9663
-0.0895 -8.0297 -2.9986 0.9663
1.3356 -7.9181 -2.9985 0.9663
2.0350 -7.7677 -2.9984 0.9663
2.7183 -7.5556 -2.9984 0.9663
4.0147 -6.9537 -2.9983 0.9663
4.6177 -6.5687 -2.9983 0.9663
5.1839 -6.1316 -2.9982 0.9663
5.7090 -5.6458 -2.9982 0.9663
6.1888 -5.1152 -2.9982 0.9663
6.6195 -4.5440 -2.9981 0.9663
7.7889 -1.9481 -2.9981 0.9663
8.0109 -0.5362 -2.9980 0.9663
7.6944 2.2932 -2.9981 0.9663
7.4598 2.9690 -2.9981 0.9663
6.2608 4.7216 -2.9281 0.9671
5.6523 5.1122 -2.8458 0.9680
5.1749 5.5950 -2.8459 0.9680
4.1010 6.4241 -2.8459 0.9680
3.5130 6.7637 -2.8460 0.9680
2.8971 7.0496 -2.8460 0.9680
0.9317 7.5649 -2.8462 0.9680
0.2547 7.6179 -2.8462 0.9680
-1.1001 7.5427 -2.8463 0.9680
-1.7671 7.4149 -2.8464 0.9680
-3.6634 6.6849 -2.8465 0.9680
-4.7908 5.9296 -2.8466 0.9680
-5.7664 4.9864 -2.8466 0.9680
-6.9104 4.0931 -2.9991 0.9663
-7.5267 2.8030 -2.9991 0.9663
-7.9045 1.4241 -2.9992 0.9663
-7.5206 -1.3549 -2.9991 0.9677
-7.1611 -2.6668 -2.9991 0.9677
-5.7800 -4.9981 -2.9990 0.9677
-5.3121 -5.4927 -2.9989 0.9677
-4.8021 -5.9436 -2.9989 0.9677
-4.2540 -6.3473 -2.9989 0.9677
-1.7712 -7.4324 -2.9987 0.9677
0.9339 -7.5828 -2.9985 0.9677
2.9039 -7.0663 -2.9984 0.9677
3.5213 -6.7797 -2.9983 0.9677
4.6674 -6.0478 -2.9983 0.9677
6.8180 -3.4453 -2.9981 0.9677
7.3208 -2.1818 -2.9981 0.9677
7.4859 -1.5215 -2.9981 0.9677
7.6371 -0.1702 -2.9981 0.9677
7.6219 0.5103 -2.9981 0.9677
7.5463 1.1866 -2.9981 0.9677
7.4107 1.8536 -2.9981 0.9677
7.2164 2.5058 -2.9981 0.9677
6.6579 3.7457 -2.9982 0.9677
6.2981 4.3234 -2.9982 0.9677
5.7188 4.7267 -2.9119 0.9686
5.1558 5.0987 -2.8459 0.9693
4.6816 5.5375 -2.8459 0.9693
3.6257 6.2799 -2.8460 0.9693
3.0524 6.5778 -2.8460 0.9693
2.4549 6.8235 -2.8461 0.9693
1.8378 7.0150 -2.8461 0.9693
0.5650 7.2300 -2.8462 0.9693
-0.7259 7.2158 -2.8463 0.9693
-2.6066 6.7679 -2.8464 0.9693
-3.7654 6.1987 -2.8465 0.9693
-5.9970 4.7358 -2.9990 0.9677
-6.3947 4.1833 -2.9991 0.9677
-7.0352 2.9832 -2.9991 0.9677
-7.6341 0.3404 -2.9991 0.9677
-7.6341 -0.3404 -2.9991 0.9677
-7.5735 -1.0185 -2.9991 0.9677
-7.4527 -1.6885 -2.9991 0.9677
-6.7417 -3.5975 -2.9991 0.9677
-6.3947 -4.1832 -2.9990 0.9677
-3.9670 -6.5305 -2.9988 0.9677
-1.4384 -7.5039 -2.9987 0.9677
-0.7648 -7.6020 -2.9986 0.9677
0.5952 -7.6169 -2.9985 0.9677
2.5863 -7.1887 -2.9984 0.9677
3.2158 -6.9299 -2.9984 0.9677
3.8198 -6.6160 -2.9983 0.9677
4.3934 -6.2497 -2.9983 0.9677
4.9322 -5.8338 -2.9982 0.9677
5.4318 -5.3716 -2.9982 0.9677
6.2980 -4.3233 -2.9981 0.9677
6.6578 -3.7456 -2.9981 0.9677
6.9647 -3.1381 -2.9981 0.9677
7.6371 0.1702 -2.9981 0.9677
7.5916 0.8493 -2.9981 0.9677
7.4859 1.5216 -2.9981 0.9677
7.3208 2.1819 -2.9981 0.9677
6.8181 3.4454 -2.9981 0.9677
6.0994 4.5997 -2.9982 0.9677
4.9236 5.3234 -2.8459 0.9693
4.4303 5.7405 -2.8459 0.9693
3.9018 6.1121 -2.8460 0.9693
3.3424 6.4353 -2.8460 0.9693
2.7564 6.7073 -2.8460 0.9693
1.5235 7.0900 -2.8461 0.9693
0.2423 7.2480 -2.8462 0.9693
-0.4037 7.2409 -2.8463 0.9693
-1.6812 7.0548 -2.8463 0.9693
-2.3025 6.8773 -2.8464 0.9693
-2.9055 6.6451 -2.8464 0.9693
-4.0378 6.0248 -2.8465 0.9693
-5.0422 5.2136 -2.8466 0.9693
-5.5270 4.7794 -2.8677 0.9691
-6.5748 3.8943 -2.9991 0.9677
-7.3701 2.0189 -2.9991 0.9677
-7.2543 -0.6482 -2.9991 0.9690
-7.0244 -1.9242 -2.9991 0.9690
-6.8252 -2.5417 -2.9991 0.9690
-6.2663 -3.7116 -2.9990 0.9690
-5.5089 -4.7637 -2.9990 0.9690
-4.5769 -5.6648 -2.9989 0.9690
-4.0545 -6.0497 -2.9989 0.9690
-1.6882 -7.0839 -2.9987 0.9690
0.8901 -7.2272 -2.9985 0.9690
2.7678 -6.7349 -2.9984 0.9690
3.9179 -6.1374 -2.9983 0.9690
4.4486 -5.7642 -2.9983 0.9690
5.8132 -4.3840 -2.9982 0.9690
6.1803 -3.8491 -2.9982 0.9690
6.7648 -2.6923 -2.9981 0.9690
7.2357 -0.8094 -2.9981 0.9690
7.2790 -0.1622 -2.9981 0.9690
7.2646 0.4863 -2.9981 0.9690
7.1925 1.1310 -2.9981 0.9690
6.8780 2.3883 -2.9981 0.9690
6.6382 2.9910 -2.9982 0.9690
6.0028 4.1207 -2.9982 0.9690
5.6123 4.6387 -2.9982 0.9690
4.9141 4.8596 -2.8459 0.9705
3.9747 5.6541 -2.8460 0.9705
3.4557 5.9855 -2.8460 0.9705
1.7517 6.6861 -2.8461 0.9705
0.5385 6.8909 -2.8462 0.9705
-0.6919 6.8774 -2.8463 0.9705
-1.3013 6.7887 -2.8463 0.9705
-1.9004 6.6460 -2.8464 0.9705
-2.4844 6.4505 -2.8464 0.9705
-3.0487 6.2039 -2.8464 0.9705
-4.5796 5.1782 -2.8465 0.9705
-5.0522 4.7783 -2.8635 0.9704
-5.7157 4.5137 -2.9990 0.9690
-6.0948 3.9871 -2.9990 0.9690
-6.4255 3.4288 -2.9991 0.9690
-6.7053 2.8433 -2.9991 0.9690
-6.9317 2.2352 -2.9991 0.9690
-7.2183 0.9708 -2.9991 0.9690
-7.2760 -0.3244 -2.9991 0.9690
-7.2182 -0.9708 -2.9991 0.9690
-6.9317 -2.2352 -2.9991 0.9690
-6.0948 -3.9870 -2.9990 0.9690
-5.7157 -4.5136 -2.9990 0.9690
-3.7809 -6.2242 -2.9988 0.9690
-3.2119 -6.5360 -2.9988 0.9690
-2.6173 -6.7958 -2.9988 0.9690
-2.0021 -7.0017 -2.9987 0.9690
-1.3709 -7.1520 -2.9987 0.9690
-0.7289 -7.2455 -2.9986 0.9690
-0.0811 -7.2815 -2.9986 0.9690
1.2112 -7.1803 -2.9985 0.9690
1.8454 -7.0439 -2.9984 0.9690
2.4650 -6.8516 -2.9984 0.9690
4.1874 -5.9567 -2.9983 0.9690
5.1771 -5.1198 -2.9982 0.9690
5.6122 -4.6386 -2.9982 0.9690
6.0027 -4.1207 -2.9982 0.9690
6.3456 -3.5700 -2.9981 0.9690
6.6382 -2.9910 -2.9981 0.9690
6.8780 -2.3883 -2.9981 0.9690
7.0632 -1.7667 -2.9981 0.9690
7.2645 -0.4863 -2.9981 0.9690
7.2790 0.1622 -2.9981 0.9690
5.8133 4.3841 -2.9982 0.9690
5.2299 4.7302 -2.9037 0.9700
4.6927 5.0737 -2.8459 0.9705
3.7189 5.8255 -2.8460 0.9705
3.1857 6.1335 -2.8460 0.9705
2.6271 6.3928 -2.8460 0.9705
2.0478 6.6013 -2.8461 0.9705
1.4521 6.7575 -2.8461 0.9705
0.8449 6.8600 -2.8462 0.9705
0.2310 6.9081 -2.8462 0.9705
-0.9976 6.8398 -2.8463 0.9705
-2.7693 6.3335 -2.8464 0.9705
-3.8485 5.7423 -2.8465 0.9705
-4.3443 5.3770 -2.8465 0.9705
-6.5719 3.1391 -2.9991 0.9690
-6.8253 2.5418 -2.9991 0.9690
-7.1679 1.2914 -2.9991 0.9690
-7.2543 0.6482 -2.9991 0.9690
-6.8425 -1.2327 -2.9991 0.9702
-6.7056 -1.8369 -2.9991 0.9702
-6.5154 -2.4264 -2.9990 0.9702
-6.2736 -2.9967 -2.9990 0.9702
-5.9819 -3.5431 -2.9990 0.9702
-5.6428 -4.0614 -2.9990 0.9702
-5.2588 -4.5475 -2.9989 0.9702
-3.8704 -5.7751 -2.9988 0.9702
-3.3410 -6.0966 -2.9988 0.9702
-1.6116 -6.7624 -2.9987 0.9702
-0.3870 -6.9408 -2.9986 0.9702
0.8497 -6.8992 -2.9985 0.9702
1.4604 -6.7961 -2.9985 0.9702
4.2467 -5.5026 -2.9983 0.9702
6.4578 -2.5702 -2.9981 0.9702
6.8661 1.0796 -2.9981 0.9702
6.7428 1.6865 -2.9981 0.9702
6.3370 2.8553 -2.9982 0.9702
6.0577 3.4081 -2.9982 0.9702
5.3576 4.4282 -2.9983 0.9702
4.2596 5.0383 -2.8459 0.9717
3.7943 5.3975 -2.8460 0.9717
3.2989 5.7138 -2.8460 0.9717
1.0975 6.5062 -2.8462 0.9717
0.5140 6.5782 -2.8462 0.9717
-2.9103 5.9223 -2.8464 0.9717
-3.9143 5.3126 -2.8465 0.9717
-5.0282 4.7556 -2.9854 0.9703
-5.4563 4.3088 -2.9990 0.9702
-5.8182 3.8061 -2.9990 0.9702
-6.4009 2.7142 -2.9991 0.9702
-6.6171 2.1338 -2.9991 0.9702
-6.7808 1.5363 -2.9991 0.9702
-6.8906 0.9267 -2.9991 0.9702
-6.9458 0.3097 -2.9991 0.9702
-6.8906 -0.9267 -2.9991 0.9702
-6.7808 -1.5363 -2.9991 0.9702
-6.4009 -2.7142 -2.9990 0.9702
-5.4562 -4.3087 -2.9990 0.9702
-5.0510 -4.7772 -2.9989 0.9702
-2.4986 -6.4874 -2.9987 0.9702
-0.0774 -6.9511 -2.9986 0.9702
0.5415 -6.9303 -2.9985 0.9702
1.1562 -6.8544 -2.9985 0.9702
1.7617 -6.7242 -2.9985 0.9702
2.3531 -6.5407 -2.9984 0.9702
3.4755 -6.0197 -2.9983 0.9702
3.9974 -5.6864 -2.9983 0.9702
5.3575 -4.4281 -2.9982 0.9702
5.7303 -3.9337 -2.9982 0.9702
6.0577 -3.4080 -2.9982 0.9702
6.3369 -2.8553 -2.9982 0.9702
6.7427 -1.6865 -2.9981 0.9702
6.9349 -0.4642 -2.9981 0.9702
6.9487 0.1548 -2.9981 0.9702
6.9074 0.7727 -2.9981 0.9702
6.2035 3.1348 -2.9982 0.9702
5.8999 3.6745 -2.9982 0.9702
3.0411 5.8551 -2.8460 0.9717
2.5079 6.1027 -2.8461 0.9717
1.3862 6.4508 -2.8461 0.9717
0.8065 6.5487 -2.8462 0.9717
0.2205 6.5946 -2.8462 0.9717
-2.6436 6.0460 -2.8464 0.9717
-3.1713 5.7868 -2.8464 0.9717
-3.6738 5.4817 -2.8465 0.9717
-4.1471 5.1330 -2.8465 0.9717
-4.6191 4.7761 -2.8661 0.9715
-5.2589 4.5476 -2.9990 0.9702
-5.6428 4.0615 -2.9990 0.9702
-6.2736 2.9967 -2.9990 0.9702
-6.5155 2.4264 -2.9991 0.9702
-6.7056 1.8369 -2.9991 0.9702
-6.9251 0.6188 -2.9991 0.9702
-6.6202 -0.5916 -2.9991 0.9713
-6.4104 -1.7560 -2.9990 0.9713
-5.7186 -3.3871 -2.9990 0.9713
-5.3944 -3.8827 -2.9990 0.9713
-5.0274 -4.3473 -2.9989 0.9713
-4.6204 -4.7775 -2.9989 0.9713
-3.7001 -5.5209 -2.9988 0.9713
-3.1940 -5.8282 -2.9988 0.9713
-2.6625 -6.0893 -2.9988 0.9713
-2.1099 -6.3020 -2.9987 0.9713
-1.5406 -6.4647 -2.9987 0.9713
-0.9591 -6.5761 -2.9986 0.9713
0.2221 -6.6418 -2.9986 0.9713
1.9688 -6.3469 -2.9984 0.9713
3.0629 -5.8971 -2.9984 0.9713
3.5756 -5.6010 -2.9983 0.9713
4.0598 -5.2605 -2.9983 0.9713
4.5119 -4.8782 -2.9983 0.9713
5.3052 -4.0008 -2.9982 0.9713
5.6402 -3.5128 -2.9982 0.9713
6.1736 -2.4571 -2.9982 0.9713
6.3678 -1.8978 -2.9982 0.9713
6.5114 -1.3235 -2.9981 0.9713
6.6297 0.4438 -2.9981 0.9713
6.5639 1.0321 -2.9982 0.9713
6.4460 1.6123 -2.9982 0.9713
6.2770 2.1796 -2.9982 0.9713
5.4782 3.7606 -2.9982 0.9713
4.7248 4.6725 -2.9983 0.9713
4.0721 4.8166 -2.8459 0.9727
2.6550 5.7215 -2.8460 0.9727
2.1353 5.9351 -2.8461 0.9727
1.5986 6.1017 -2.8461 0.9727
1.0492 6.2199 -2.8462 0.9727
-0.0703 6.3075 -2.8462 0.9727
-1.1875 6.1953 -2.8463 0.9727
-1.7343 6.0651 -2.8463 0.9727
-4.2211 4.7729 -2.8750 0.9724
-5.2161 4.1191 -2.9990 0.9713
-5.5621 3.6385 -2.9990 0.9713
-6.3258 2.0398 -2.9990 0.9713
-6.6400 0.2961 -2.9991 0.9713
-6.3258 -2.0398 -2.9990 0.9713
-6.1191 -2.5947 -2.9990 0.9713
-5.5620 -3.6385 -2.9990 0.9713
-4.8287 -4.5669 -2.9989 0.9713
-4.4030 -4.9786 -2.9989 0.9713
-3.9424 -5.3506 -2.9989 0.9713
-2.3886 -6.2018 -2.9987 0.9713
-0.0740 -6.6451 -2.9986 0.9713
0.5177 -6.6253 -2.9985 0.9713
1.1053 -6.5528 -2.9985 0.9713
1.6841 -6.4283 -2.9985 0.9713
2.2496 -6.2529 -2.9984 0.9713
3.3225 -5.7548 -2.9983 0.9713
3.8215 -5.4361 -2.9983 0.9713
4.2901 -5.0744 -2.9983 0.9713
4.7247 -4.6723 -2.9983 0.9713
5.4782 -3.7605 -2.9982 0.9713
6.2769 -2.1796 -2.9982 0.9713
6.4460 -1.6122 -2.9981 0.9713
6.6297 -0.4438 -2.9981 0.9713
6.6429 0.1480 -2.9981 0.9713
6.3678 1.8978 -2.9982 0.9713
5.6403 3.5129 -2.9982 0.9713
4.9282 4.4573 -2.9983 0.9713
4.3772 4.7326 -2.9088 0.9721
3.8536 4.9932 -2.8460 0.9727
2.9073 5.5975 -2.8460 0.9727
2.3975 5.8341 -2.8461 0.9727
0.7711 6.2605 -2.8462 0.9727
0.2108 6.3043 -2.8462 0.9727
-0.9104 6.2420 -2.8463 0.9727
-1.4623 6.1363 -2.8463 0.9727
-2.5272 5.7800 -2.8464 0.9727
-3.0317 5.5321 -2.8464 0.9727
-3.5121 5.2404 -2.8465 0.9727
-3.9646 4.9071 -2.8465 0.9727
-4.5978 4.7541 -2.9842 0.9714
-5.0274 4.3474 -2.9990 0.9713
-5.7187 3.3872 -2.9990 0.9713
-5.9975 2.8648 -2.9990 0.9713
-6.2287 2.3196 -2.9990 0.9713
-6.4104 1.7560 -2.9991 0.9713
-6.5413 1.1785 -2.9991 0.9713
-5.9622 -2.2204 -2.9990 0.9723
-5.1637 -3.7165 -2.9989 0.9723
-4.8123 -4.1614 -2.9989 0.9723
-3.9982 -4.9486 -2.9989 0.9723
-2.5486 -5.8289 -2.9988 0.9723
-2.0197 -6.0325 -2.9987 0.9723
-0.9181 -6.2948 -2.9986 0.9723
0.2126 -6.3577 -2.9986 0.9723
0.7776 -6.3135 -2.9985 0.9723
1.3364 -6.2192 -2.9985 0.9723
2.9319 -5.6449 -2.9984 0.9723
3.4226 -5.3615 -2.9983 0.9723
5.0784 -3.8298 -2.9982 0.9723
5.3990 -3.3626 -2.9982 0.9723
5.6769 -2.8687 -2.9982 0.9723
5.9096 -2.3520 -2.9982 0.9723
6.0955 -1.8166 -2.9982 0.9723
6.2330 -1.2669 -2.9982 0.9723
6.3589 -0.1417 -2.9982 0.9723
6.1704 1.5433 -2.9982 0.9723
6.0086 2.0864 -2.9982 0.9723
5.7991 2.6129 -2.9982 0.9723
5.5435 3.1187 -2.9982 0.9723
5.2440 3.5998 -2.9983 0.9723
4.5227 4.4726 -2.9983 0.9723
4.0005 4.7319 -2.9208 0.9730
3.4722 4.9393 -2.8460 0.9737
3.0188 5.2288 -2.8460 0.9737
2.5415 5.4768 -2.8460 0.9737
1.5302 5.8408 -2.8461 0.9737
0.4704 6.0197 -2.8462 0.9737
-0.0673 6.0377 -2.8462 0.9737
-0.6044 6.0079 -2.8463 0.9737
-1.1367 5.9303 -2.8463 0.9737
-1.6601 5.8057 -2.8463 0.9737
-2.1703 5.6350 -2.8464 0.9737
-3.5820 4.8615 -2.8465 0.9736
-4.2022 4.7515 -2.9900 0.9723
-4.9930 3.9429 -2.9990 0.9723
-5.3242 3.4829 -2.9990 0.9723
-5.8574 2.4838 -2.9990 0.9723
-6.0553 1.9526 -2.9990 0.9723
-6.2050 1.4059 -2.9990 0.9723
-6.3560 0.2835 -2.9990 0.9723
-6.3560 -0.2834 -2.9990 0.9723
-6.0552 -1.9525 -2.9990 0.9723
-5.8574 -2.4837 -2.9990 0.9723
-5.3241 -3.4829 -2.9990 0.9723
-4.6222 -4.3716 -2.9989 0.9723
-2.8058 -5.7096 -2.9988 0.9723
-2.2864 -5.9366 -2.9987 0.9723
-1.7489 -6.1164 -2.9987 0.9723
-1.1976 -6.2477 -2.9987 0.9723
-0.6367 -6.3295 -2.9986 0.9723
1.6121 -6.1534 -2.9985 0.9723
2.1534 -5.9854 -2.9984 0.9723
2.6775 -5.7699 -2.9984 0.9723
4.1067 -4.8574 -2.9983 0.9723
4.5227 -4.4725 -2.9983 0.9723
4.9027 -4.0522 -2.9982 0.9723
5.5435 -3.1187 -2.9982 0.9723
5.7990 -2.6129 -2.9982 0.9723
6.1704 -1.5433 -2.9982 0.9723
6.2832 -0.9880 -2.9982 0.9723
6.3462 -0.4248 -2.9982 0.9723
6.3589 0.1417 -2.9982 0.9723
6.3210 0.7071 -2.9982 0.9723
6.2330 1.2669 -2.9982 0.9723
5.6769 2.8687 -2.9982 0.9723
5.3991 3.3626 -2.9982 0.9723
4.7174 4.2667 -2.9983 0.9723
2.7829 5.3581 -2.8460 0.9737
2.2950 5.5846 -2.8461 0.9737
1.7889 5.7668 -2.8461 0.9737
0.7381 5.9927 -2.8462 0.9737
0.2018 6.0347 -2.8462 0.9737
-0.3362 6.0288 -2.8463 0.9737
-0.8714 5.9751 -2.8463 0.9737
-1.3998 5.8738 -2.8463 0.9737
-2.9020 5.2955 -2.8464 0.9737
-3.3619 5.0163 -2.8465 0.9736
-4.4229 4.5732 -2.9989 0.9723
-4.8124 4.1614 -2.9990 0.9723
-5.1637 3.7166 -2.9990 0.9723
-5.7409 2.7422 -2.9990 0.9723
-5.9622 2.2204 -2.9990 0.9723
-6.2615 1.1281 -2.9990 0.9723
-6.0732 -0.5427 -2.9990 0.9732
-5.7140 -2.1279 -2.9990 0.9732
-5.5018 -2.6280 -2.9990 0.9732
-5.2461 -3.1072 -2.9990 0.9732
-4.9487 -3.5618 -2.9989 0.9732
-3.3943 -5.0647 -2.9988 0.9732
-2.4425 -5.5862 -2.9987 0.9732
-1.9356 -5.7813 -2.9987 0.9732
-0.8799 -6.0328 -2.9986 0.9732
1.2808 -5.9602 -2.9985 0.9732
2.3172 -5.6386 -2.9984 0.9732
3.2802 -5.1383 -2.9984 0.9732
4.1392 -4.4752 -2.9983 0.9732
4.5210 -4.0890 -2.9983 0.9732
4.8670 -3.6704 -2.9982 0.9732
5.1743 -3.2226 -2.9982 0.9732
5.4406 -2.7492 -2.9982 0.9732
5.6636 -2.2541 -2.9982 0.9732
5.9735 -1.2142 -2.9982 0.9732
6.0579 -0.6777 -2.9982 0.9732
6.0217 0.9469 -2.9982 0.9732
5.9135 1.4791 -2.9982 0.9732
5.3127 2.9889 -2.9982 0.9732
5.0257 3.4499 -2.9983 0.9732
4.6987 3.8836 -2.9983 0.9732
4.3344 4.2864 -2.9983 0.9732
3.9358 4.6553 -2.9983 0.9732
3.3395 4.7506 -2.8562 0.9744
1.9589 5.4448 -2.8461 0.9745
0.4508 5.7691 -2.8462 0.9745
-0.0645 5.7864 -2.8462 0.9745
-1.5910 5.5640 -2.8463 0.9745
-2.0799 5.4003 -2.8464 0.9745
-3.0045 4.9461 -2.8464 0.9745
-4.0392 4.5672 -2.9989 0.9732
-4.4297 4.1897 -2.9989 0.9732
-5.1025 3.3379 -2.9990 0.9732
-5.8031 1.8713 -2.9990 0.9732
-6.0430 0.8127 -2.9990 0.9732
-6.0913 0.2716 -2.9990 0.9732
-6.0913 -0.2716 -2.9990 0.9732
-5.8031 -1.8712 -2.9990 0.9732
-5.3793 -2.8705 -2.9990 0.9732
-4.7851 -3.7787 -2.9989 0.9732
-4.0392 -4.5672 -2.9989 0.9732
-2.6890 -5.4719 -2.9988 0.9732
-2.1912 -5.6894 -2.9987 0.9732
-1.6761 -5.8618 -2.9987 0.9732
-0.0679 -6.0961 -2.9986 0.9732
1.0140 -6.0114 -2.9985 0.9732
1.5450 -5.8972 -2.9985 0.9732
2.5661 -5.5297 -2.9984 0.9732
3.0480 -5.2793 -2.9984 0.9732
3.5058 -4.9870 -2.9983 0.9732
3.9357 -4.6552 -2.9983 0.9732
5.7584 -1.9995 -2.9982 0.9732
6.0821 -0.4071 -2.9982 0.9732
6.0942 0.1358 -2.9982 0.9732
5.4406 2.7493 -2.9982 0.9732
4.5211 4.0891 -2.9983 0.9732
4.1392 4.4753 -2.9983 0.9732
3.6504 4.7299 -2.9387 0.9737
2.6671 5.1351 -2.8460 0.9745
1.7144 5.5267 -2.8461 0.9745
0.7073 5.7432 -2.8462 0.9745
0.1934 5.7835 -2.8462 0.9745
-0.8352 5.7262 -2.8463 0.9745
-1.8373 5.4876 -2.8464 0.9745
-2.3184 5.3024 -2.8464 0.9745
-3.2219 4.8074 -2.8464 0.9745
-4.2387 4.3828 -2.9989 0.9732
-4.6120 3.9881 -2.9989 0.9732
-5.5019 2.6280 -2.9990 0.9732
-5.8807 1.6109 -2.9990 0.9732
-6.0008 1.0811 -2.9990 0.9732
-5.7571 -1.0372 -2.9990 0.9740
-5.2784 -2.5213 -2.9990 0.9740
-4.4247 -3.8262 -2.9989 0.9740
-3.2565 -4.8590 -2.9988 0.9740
-2.8111 -5.1296 -2.9988 0.9740
-1.8570 -5.5466 -2.9987 0.9741
-0.3256 -5.8399 -2.9986 0.9741
0.7150 -5.8050 -2.9985 0.9741
1.7328 -5.5861 -2.9985 0.9741
2.2231 -5.4097 -2.9984 0.9741
3.1470 -4.9297 -2.9984 0.9741
3.9711 -4.2935 -2.9983 0.9741
4.3375 -3.9230 -2.9983 0.9741
4.9642 -3.0918 -2.9982 0.9741
5.6046 -1.6703 -2.9982 0.9741
5.8119 -0.6502 -2.9982 0.9741
5.8351 0.3907 -2.9982 0.9741
5.7772 0.9084 -2.9982 0.9741
5.0971 2.8676 -2.9983 0.9741
4.5079 3.7259 -2.9983 0.9741
3.3229 4.7269 -2.9622 0.9744
2.3368 5.0357 -2.8461 0.9754
1.8794 5.2237 -2.8461 0.9754
0.9234 5.4743 -2.8462 0.9754
0.4325 5.5349 -2.8462 0.9754
-0.0618 5.5514 -2.8462 0.9754
-1.5264 5.3380 -2.8463 0.9754
-1.9954 5.1811 -2.8464 0.9754
-2.4487 4.9830 -2.8464 0.9754
-4.5908 3.6254 -2.9989 0.9740
-4.8953 3.2023 -2.9990 0.9740
-5.3856 2.2837 -2.9990 0.9740
-5.5675 1.7953 -2.9990 0.9740
-5.8440 0.2606 -2.9990 0.9740
-5.8440 -0.2606 -2.9990 0.9740
-5.7052 -1.2926 -2.9990 0.9740
-5.5674 -1.7953 -2.9990 0.9740
-4.5908 -3.6253 -2.9989 0.9740
-3.8752 -4.3817 -2.9989 0.9740
-2.5798 -5.2497 -2.9988 0.9740
-2.1023 -5.4584 -2.9987 0.9741
-1.6081 -5.6238 -2.9987 0.9741
-1.1011 -5.7445 -2.9987 0.9741
0.4557 -5.8311 -2.9985 0.9741
0.9728 -5.7673 -2.9985 0.9741
2.9243 -5.0650 -2.9984 0.9741
3.7759 -4.4662 -2.9983 0.9741
4.1584 -4.1123 -2.9983 0.9741
4.5079 -3.7259 -2.9983 0.9741
4.8216 -3.3098 -2.9983 0.9741
5.0970 -2.8675 -2.9982 0.9741
5.3320 -2.4025 -2.9982 0.9741
5.5246 -1.9184 -2.9982 0.9741
5.7772 -0.9084 -2.9982 0.9741
5.8351 -0.3906 -2.9982 0.9741
5.6046 1.6704 -2.9982 0.9741
5.4337 2.1626 -2.9982 0.9741
4.9643 3.0918 -2.9983 0.9741
4.6694 3.5214 -2.9983 0.9741
4.3375 3.9230 -2.9983 0.9741
3.9712 4.2936 -2.9983 0.9741
2.1102 5.1348 -2.8461 0.9754
1.6448 5.3023 -2.8461 0.9754
1.1663 5.4277 -2.8461 0.9754
0.6786 5.5100 -2.8462 0.9754
-0.8012 5.4938 -2.8463 0.9754
-1.2871 5.4007 -2.8463 0.9754
-1.7627 5.2647 -2.8463 0.9754
-2.2243 5.0870 -2.8464 0.9754
-2.6683 4.8690 -2.8464 0.9754
-3.1884 4.7575 -2.9361 0.9746
-4.0666 4.2048 -2.9989 0.9740
-4.4247 3.8262 -2.9989 0.9740
-5.2785 2.5213 -2.9990 0.9740
-5.6419 1.5455 -2.9990 0.9740
-5.8266 0.5207 -2.9990 0.9740
-5.4181 -1.4842 -2.9990 0.9748
-5.2645 -1.9605 -2.9990 0.9748
-4.8334 -2.8629 -2.9989 0.9748
-4.5594 -3.2816 -2.9989 0.9748
-3.9052 -4.0380 -2.9989 0.9749
-3.1274 -4.6663 -2.9988 0.9749
-2.6996 -4.9261 -2.9988 0.9749
-1.7834 -5.3266 -2.9987 0.9749
-0.3127 -5.6083 -2.9986 0.9749
0.1877 -5.6138 -2.9986 0.9749
0.6866 -5.5747 -2.9985 0.9749
1.6641 -5.3646 -2.9985 0.9749
2.5888 -4.9844 -2.9984 0.9749
3.0222 -4.7342 -2.9984 0.9749
3.4315 -4.4463 -2.9983 0.9749
3.8136 -4.1233 -2.9983 0.9749
4.1654 -3.7674 -2.9983 0.9749
4.4842 -3.3817 -2.9983 0.9749
4.7674 -2.9691 -2.9983 0.9749
5.2182 -2.0768 -2.9982 0.9749
5.6037 0.3752 -2.9982 0.9749
5.4485 1.3628 -2.9982 0.9749
5.3056 1.8423 -2.9982 0.9749
5.1206 2.3072 -2.9983 0.9749
4.6304 3.1786 -2.9983 0.9749
4.3292 3.5782 -2.9983 0.9749
3.6262 4.2891 -2.9984 0.9749
2.2441 4.8360 -2.8461 0.9761
1.3512 5.1574 -2.8461 0.9761
0.8868 5.2572 -2.8462 0.9761
0.4153 5.3153 -2.8462 0.9761
-0.0594 5.3312 -2.8462 0.9761
-0.5337 5.3049 -2.8463 0.9761
-1.9163 4.9756 -2.8464 0.9761
-2.8857 4.7505 -2.9672 0.9751
-3.3322 4.5225 -2.9989 0.9749
-4.0813 3.8601 -2.9989 0.9748
-5.1719 2.1931 -2.9990 0.9748
-5.4789 1.2413 -2.9990 0.9748
-5.5676 0.7488 -2.9990 0.9748
-5.6122 -0.2503 -2.9990 0.9748
-5.4788 -1.2413 -2.9990 0.9748
-5.3466 -1.7240 -2.9990 0.9748
-4.9562 -2.6447 -2.9989 0.9748
-4.7011 -3.0753 -2.9989 0.9748
-4.4087 -3.4815 -2.9989 0.9749
-4.0813 -3.8600 -2.9989 0.9749
-3.7215 -4.2079 -2.9988 0.9749
-3.3321 -4.5224 -2.9988 0.9749
-2.0188 -5.2419 -2.9987 0.9749
-1.5443 -5.4007 -2.9987 0.9749
-0.0626 -5.6166 -2.9986 0.9749
0.4376 -5.5998 -2.9985 0.9749
3.2301 -4.5948 -2.9984 0.9749
3.6262 -4.2891 -2.9983 0.9749
4.3291 -3.5781 -2.9983 0.9749
4.6304 -3.1786 -2.9983 0.9749
5.1205 -2.3072 -2.9982 0.9749
5.4484 -1.3628 -2.9982 0.9749
5.6037 -0.3751 -2.9982 0.9749
5.6149 0.1251 -2.9982 0.9749
5.3824 1.6041 -2.9982 0.9749
5.2183 2.0768 -2.9983 0.9749
4.4842 3.3817 -2.9983 0.9749
3.8137 4.1233 -2.9984 0.9749
3.0148 4.7227 -2.9911 0.9749
2.0265 4.9312 -2.8461 0.9761
1.1201 5.2125 -2.8461 0.9761
0.6517 5.2915 -2.8462 0.9761
-0.7695 5.2759 -2.8463 0.9761
-2.1360 4.8853 -2.8464 0.9761
-2.6097 4.7621 -2.8989 0.9757
-3.1274 4.6664 -2.9988 0.9749
-3.5303 4.3696 -2.9989 0.9749
-4.2492 3.6744 -2.9989 0.9748
-4.5594 3.2817 -2.9989 0.9748
-4.8334 2.8629 -2.9989 0.9748
-5.0691 2.4213 -2.9990 0.9748
-5.2645 1.9605 -2.9990 0.9748
-5.3997 0.0000 -2.9990 0.9756
-5.3141 -0.9574 -2.9990 0.9756
-5.0602 -1.8844 -2.9989 0.9756
-4.8723 -2.3273 -2.9989 0.9756
-4.3824 -3.1543 -2.9989 0.9756
-4.0843 -3.5318 -2.9989 0.9756
-3.7537 -3.8813 -2.9988 0.9756
-3.3933 -4.1999 -2.9988 0.9756
-2.5948 -4.7349 -2.9988 0.9756
-2.1631 -4.9470 -2.9987 0.9756
-1.7141 -5.1199 -2.9987 0.9756
-1.2516 -5.2521 -2.9987 0.9756
-0.7792 -5.3425 -2.9986 0.9756
-0.3006 -5.3906 -2.9986 0.9756
0.1804 -5.3960 -2.9986 0.9756
0.6600 -5.3584 -2.9985 0.9756
1.1342 -5.2784 -2.9985 0.9756
2.0521 -4.9935 -2.9984 0.9756
2.4884 -4.7910 -2.9984 0.9756
2.9049 -4.5504 -2.9984 0.9756
3.2984 -4.2738 -2.9984 0.9756
3.6656 -3.9632 -2.9983 0.9756
4.0038 -3.6212 -2.9983 0.9756
4.5824 -2.8539 -2.9983 0.9756
4.8182 -2.4347 -2.9983 0.9756
5.3649 -0.6001 -2.9982 0.9756
5.3970 -0.1203 -2.9982 0.9756
5.3329 0.8385 -2.9982 0.9756
5.2371 1.3099 -2.9982 0.9756
4.4507 3.0553 -2.9983 0.9756
4.1612 3.4393 -2.9983 0.9756
3.4855 4.1227 -2.9984 0.9756
2.2006 4.7421 -2.9035 0.9764
-0.0571 5.1244 -2.8462 0.9768
-0.5130 5.0990 -2.8463 0.9768
-1.4098 4.9303 -2.8480 0.9768
-2.3357 4.7531 -2.9414 0.9761
-3.2029 4.3470 -2.9988 0.9756
-3.5771 4.0446 -2.9989 0.9756
-4.5186 2.9560 -2.9989 0.9756
-4.9712 2.1080 -2.9990 0.9756
-5.2662 -1.1932 -2.9990 0.9756
-5.1391 -1.6571 -2.9990 0.9756
-4.9712 -2.1079 -2.9989 0.9756
-4.2376 -3.3464 -2.9989 0.9756
-3.2028 -4.3469 -2.9988 0.9756
-2.8032 -4.6146 -2.9988 0.9756
-1.9405 -5.0385 -2.9987 0.9756
-0.5404 -5.3720 -2.9986 0.9756
0.4206 -5.3825 -2.9986 0.9756
0.8980 -5.3237 -2.9985 0.9756
1.3682 -5.2226 -2.9985 0.9756
1.8276 -5.0800 -2.9985 0.9756
2.2725 -4.8971 -2.9984 0.9756
3.1047 -4.4165 -2.9984 0.9756
4.9219 -2.2177 -2.9983 0.9756
5.0997 -1.7708 -2.9982 0.9756
5.3328 -0.8385 -2.9982 0.9756
5.3863 -0.3606 -2.9982 0.9756
5.3970 0.1203 -2.9982 0.9756
5.1735 1.5419 -2.9983 0.9756
4.5824 2.8540 -2.9983 0.9756
4.3102 3.2505 -2.9983 0.9756
4.0039 3.6212 -2.9983 0.9756
1.9546 4.7563 -2.8560 0.9767
1.5183 4.8944 -2.8461 0.9768
1.0766 5.0102 -2.8461 0.9768
0.6264 5.0862 -2.8462 0.9768
0.1712 5.1218 -2.8462 0.9768
-0.2853 5.1168 -2.8462 0.9768
-0.7396 5.0712 -2.8463 0.9768
-1.1880 4.9852 -2.8463 0.9768
-1.6270 4.8597 -2.8463 0.9768
-2.5948 4.7350 -2.9988 0.9756
-3.3933 4.2000 -2.9989 0.9756
-3.7537 3.8813 -2.9989 0.9756
-4.3825 3.1543 -2.9989 0.9756
-5.3142 0.9574 -2.9990 0.9756
-5.1737 -0.4623 -2.9990 0.9763
-5.1120 -0.9210 -2.9990 0.9763
-5.0098 -1.3723 -2.9989 0.9763
-4.2158 -3.0343 -2.9989 0.9763
-3.9289 -3.3975 -2.9989 0.9763
-3.6109 -3.7337 -2.9988 0.9763
-3.2643 -4.0402 -2.9988 0.9763
-2.8917 -4.3147 -2.9988 0.9763
-1.6490 -4.9252 -2.9987 0.9763
-0.2891 -5.1857 -2.9986 0.9763
0.1735 -5.1908 -2.9986 0.9763
1.0911 -5.0776 -2.9985 0.9763
1.5387 -4.9604 -2.9985 0.9763
4.8250 -1.9203 -2.9983 0.9763
4.9768 -1.4833 -2.9983 0.9763
5.1609 -0.5773 -2.9982 0.9763
5.1815 0.3469 -2.9982 0.9763
5.1301 0.8067 -2.9983 0.9763
4.9058 1.7035 -2.9983 0.9763
4.0030 3.3085 -2.9983 0.9763
3.6926 3.6517 -2.9984 0.9763
1.7064 4.7429 -2.9101 0.9770
1.2493 4.7687 -2.8461 0.9775
-0.9281 4.8418 -2.8463 0.9775
-2.6966 4.4393 -2.9988 0.9763
-3.4410 3.8908 -2.9989 0.9763
-3.7737 3.5692 -2.9989 0.9763
-4.0764 3.2191 -2.9989 0.9763
-4.5827 2.4454 -2.9989 0.9763
