ply
format ascii 1.0
element vertex 1586
property float32 x
property float32 y
property float32 z
property float32 I
end_header
5.7317 -5.1840 0.4501 0.9695
6.6404 -5.0077 0.4844 0.9672
4.6272 -7.2484 0.3576 0.9662
4.7537 -6.1596 0.3235 0.9693
5.1488 -5.5668 0.3153 0.9701
5.7123 -5.1665 0.3202 0.9696
6.5901 -4.9698 0.3432 0.9675
4.6291 -6.5849 0.3347 0.9683
4.9305 -5.8318 0.3175 0.9699
5.4068 -5.3469 0.3162 0.9700
6.0874 -5.0314 0.3284 0.9689
4.6105 -7.2223 0.2137 0.9663
4.7452 -6.1486 0.1937 0.9694
5.1403 -5.5576 0.1888 0.9702
4.6175 -6.5685 0.2002 0.9684
5.3979 -5.3381 0.1893 0.9701
6.0755 -5.0215 0.1966 0.9690
5.1319 -5.5485 0.0628 0.9702
5.6925 -5.1485 0.0638 0.9698
5.3890 -5.3293 0.0630 0.9701
6.0635 -5.0116 0.0654 0.9690
4.5944 -7.1970 -0.0710 0.9664
4.7370 -6.1379 -0.0644 0.9695
4.6063 -6.5525 -0.0666 0.9685
6.0639 -5.0119 -0.0654 0.9690
4.7454 -6.1488 -0.1937 0.9694
5.1405 -5.5579 -0.1888 0.9702
5.7026 -5.1577 -0.1918 0.9697
4.6178 -6.5689 -0.2002 0.9684
4.9225 -5.8224 -0.1901 0.9700
4.6276 -7.2491 -0.3576 0.9662
4.7540 -6.1599 -0.3235 0.9693
4.6294 -6.5854 -0.3347 0.9683
4.9307 -5.8321 -0.3175 0.9699
6.0877 -5.0316 -0.3284 0.9689
4.6795 -7.3304 -0.5065 0.9658
4.7716 -6.1828 -0.4549 0.9692
5.1652 -5.5846 -0.4431 0.9700
6.6421 -5.0090 -0.4845 0.9672
-7.5383 7.1297 -0.6043 0.9593
5.4241 -5.3641 -0.4443 0.9699
4.7739 -7.4781 -0.6649 0.9650
4.8014 -6.2213 -0.5889 0.9690
5.7640 -5.2133 -0.5824 0.9693
6.7095 -5.0599 -0.6298 0.9669
4.6932 -6.6762 -0.6116 0.9678
4.9745 -5.8838 -0.5774 0.9696
5.4523 -5.3919 -0.5746 0.9697
4.7310 -6.7300 -0.7542 0.9675
5.4808 -5.4201 -0.7067 0.9695
6.1905 -5.1166 -0.7363 0.9683
-7.5343 7.1259 -1.1248 0.9591
4.7997 -6.8277 -0.9053 0.9670
5.3105 -5.7416 -0.9801 0.9690
5.9055 -5.3412 -0.9978 0.9684
-7.5330 7.1247 -1.2993 0.9591
4.8736 -6.9327 -1.0620 0.9664
5.0968 -6.0285 -0.9893 0.9687
6.3524 -5.2504 -1.0328 0.9673
5.0311 -7.1568 -1.2443 0.9653
6.0982 -5.5155 -1.3093 0.9672
-7.5303 7.1221 -1.6505 0.9589
5.2456 -6.2045 -1.2938 0.9676
5.2954 -6.8614 -1.5283 0.9654
-7.5289 7.1209 -1.8273 0.9588
5.3550 -6.3339 -1.4625 0.9669
5.7045 -6.1676 -1.6258 0.9664
6.5295 -5.9056 -1.7037 0.9648
11.3320 9.3662 -2.8450 0.9419
10.4535 10.3378 -2.8451 0.9419
7.3514 12.7331 -2.8453 0.9419
6.1891 13.3372 -2.8453 0.9419
4.9776 13.8356 -2.8454 0.9419
1.1456 14.6605 -2.8457 0.9418
-0.1638 14.7049 -2.8458 0.9418
-7.6366 12.5715 -2.8465 0.9418
-8.7255 11.8424 -2.8466 0.9418
-9.7453 11.0192 -2.8467 0.9418
-7.5276 7.1196 -2.0051 0.9587
-11.5454 9.1174 -2.8469 0.9418
-12.3115 8.0539 -2.8470 0.9418
-12.9798 6.9263 -2.8471 0.9418
12.4790 7.7721 -2.8450 0.9419
10.9036 9.8618 -2.8451 0.9419
9.9828 10.7932 -2.8451 0.9419
8.9827 11.6392 -2.8452 0.9419
7.9113 12.3928 -2.8452 0.9419
4.3564 14.0438 -2.8455 0.9419
1.7975 14.5947 -2.8457 0.9418
-3.4094 14.3066 -2.8461 0.9418
-4.6694 13.9469 -2.8462 0.9418
-7.0688 12.8990 -2.8464 0.9418
-8.1892 12.2192 -2.8465 0.9418
-10.2267 10.5743 -2.8468 0.9418
-11.1276 9.6225 -2.8469 0.9418
-12.6582 7.4975 -2.8470 0.9418
-13.2757 6.3413 -2.8471 0.9418
-13.7878 5.1346 -2.8472 0.9418
-14.2290 0.0000 -2.9998 0.9435
-14.0038 -2.5229 -2.9998 0.9435
-12.8397 -6.1330 -2.9998 0.9435
-11.5487 -8.3122 -2.9998 0.9435
-7.9212 -11.8192 -2.9996 0.9435
-4.5168 -13.4909 -2.9993 0.9435
-0.7920 -14.2035 -2.9990 0.9435
0.4753 -14.2172 -2.9989 0.9435
6.5555 -12.6216 -2.9984 0.9435
7.6527 -11.9877 -2.9983 0.9435
8.6889 -11.2585 -2.9982 0.9435
10.5468 -9.5390 -2.9980 0.9435
11.3536 -8.5621 -2.9979 0.9435
12.0703 -7.5174 -2.9978 0.9435
12.6911 -6.4131 -2.9977 0.9435
13.2112 -5.2579 -2.9977 0.9435
14.0452 2.2086 -2.9974 0.9435
12.3039 5.5439 -2.8451 0.9463
9.5959 9.4896 -2.8452 0.9463
8.7134 10.3062 -2.8452 0.9463
7.7616 11.0411 -2.8453 0.9463
6.7483 11.6884 -2.8453 0.9463
5.6813 12.2430 -2.8454 0.9463
4.5692 12.7004 -2.8455 0.9463
3.4208 13.0571 -2.8456 0.9463
2.2451 13.3101 -2.8457 0.9463
-1.3512 13.4317 -2.8460 0.9463
-5.9546 12.1174 -2.8464 0.9463
-7.0098 11.5397 -2.8465 0.9463
-8.0093 10.8704 -2.8466 0.9463
-11.3008 7.3927 -2.8469 0.9463
-11.9143 6.3577 -2.8470 0.9463
-12.4332 5.2722 -2.8471 0.9463
-14.1018 1.8966 -2.9997 0.9435
-13.5427 -4.3669 -2.9998 0.9435
-12.5537 -6.6988 -2.9998 0.9435
-11.9076 -7.7895 -2.9998 0.9435
-11.1669 -8.8184 -2.9997 0.9435
-9.4261 -10.6582 -2.9997 0.9435
-7.3868 -12.1601 -2.9995 0.9435
-6.2749 -12.7690 -2.9995 0.9435
-5.1134 -13.2765 -2.9994 0.9435
-3.9113 -13.6785 -2.9993 0.9435
-2.6782 -13.9719 -2.9992 0.9435
-1.4239 -14.1544 -2.9991 0.9435
-0.1585 -14.2245 -2.9990 0.9435
1.1082 -14.1816 -2.9989 0.9435
2.3659 -14.0262 -2.9988 0.9435
4.8150 -13.3835 -2.9986 0.9435
5.9869 -12.9014 -2.9985 0.9435
8.1789 -11.6346 -2.9982 0.9435
9.1817 -10.8601 -2.9981 0.9435
10.9611 -9.0595 -2.9979 0.9435
11.7236 -8.0477 -2.9979 0.9435
14.0458 -2.2086 -2.9975 0.9435
14.1864 -0.9496 -2.9975 0.9435
14.2145 0.3168 -2.9974 0.9435
14.1297 1.5807 -2.9974 0.9435
13.9329 2.8320 -2.9974 0.9435
13.6255 4.0609 -2.9974 0.9435
11.4553 7.1345 -2.8451 0.9463
10.0091 9.0527 -2.8451 0.9463
7.2622 11.3760 -2.8453 0.9463
6.2210 11.9776 -2.8454 0.9463
5.1304 12.4841 -2.8455 0.9463
2.8358 13.1967 -2.8456 0.9463
1.6500 13.3971 -2.8457 0.9463
0.4511 13.4913 -2.8458 0.9463
-0.7515 13.4783 -2.8459 0.9463
-1.9483 13.3584 -2.8460 0.9463
-5.4088 12.3704 -2.8463 0.9463
-7.5170 11.2162 -2.8465 0.9463
-8.4858 10.5029 -2.8466 0.9463
-10.9601 7.8887 -2.8469 0.9463
-11.6191 6.8821 -2.8470 0.9463
-12.1858 5.8207 -2.8470 0.9463
-12.9130 4.8089 -2.9050 0.9452
-13.7228 3.7591 -2.9996 0.9435
-14.0032 2.5229 -2.9997 0.9435
-13.0904 -1.1697 -2.9997 0.9475
-12.9344 -2.3302 -2.9997 0.9475
-12.3163 -4.5866 -2.9997 0.9475
-11.8592 -5.6646 -2.9997 0.9475
-10.6668 -7.6774 -2.9997 0.9475
-9.1363 -9.4468 -2.9996 0.9475
-8.2591 -10.2223 -2.9995 0.9475
-4.1719 -12.4608 -2.9993 0.9475
1.6060 -13.0401 -2.9988 0.9475
3.8924 -12.5479 -2.9986 0.9475
4.9936 -12.1512 -2.9985 0.9475
7.0685 -11.0726 -2.9983 0.9475
10.4871 -7.9086 -2.9980 0.9475
12.2030 -4.8566 -2.9977 0.9475
12.5866 -3.7512 -2.9977 0.9475
12.8703 -2.6159 -2.9976 0.9475
13.0518 -1.4600 -2.9976 0.9475
13.1298 -0.2926 -2.9975 0.9475
12.9735 2.0400 -2.9975 0.9475
12.7403 3.1866 -2.9975 0.9475
11.3650 5.1209 -2.8451 0.9501
10.2771 7.0549 -2.8452 0.9501
9.6085 7.9417 -2.8452 0.9501
8.0484 9.5198 -2.8453 0.9501
6.2333 10.7964 -2.8454 0.9501
3.1597 12.0605 -2.8456 0.9501
-0.1389 12.4679 -2.8459 0.9501
-1.2481 12.4064 -2.8460 0.9501
-2.3475 12.2465 -2.8461 0.9501
-4.4819 11.6371 -2.8463 0.9501
-8.2624 9.3425 -2.8466 0.9501
-7.4110 7.0093 -2.3282 0.9590
-11.0045 5.8723 -2.8469 0.9501
-12.8171 2.9040 -2.9996 0.9475
-13.1295 -0.5854 -2.9997 0.9475
-13.0253 -1.7517 -2.9997 0.9475
-12.8178 -2.9041 -2.9997 0.9475
-12.5084 -4.0334 -2.9997 0.9475
-12.0998 -5.1307 -2.9997 0.9475
-11.5950 -6.1873 -2.9997 0.9475
-10.9983 -7.1947 -2.9997 0.9475
-8.7063 -9.8443 -2.9996 0.9475
-7.7954 -10.5800 -2.9995 0.9475
-6.8227 -11.2316 -2.9995 0.9475
-5.7958 -11.7940 -2.9994 0.9475
-3.6126 -12.6341 -2.9992 0.9475
-2.4737 -12.9051 -2.9991 0.9475
1.0236 -13.0989 -2.9989 0.9475
7.5546 -10.7466 -2.9983 0.9475
9.3398 -9.2363 -2.9981 0.9475
10.8288 -7.4335 -2.9979 0.9475
11.9747 -5.3955 -2.9978 0.9475
13.0515 1.4601 -2.9975 0.9475
12.8697 2.6159 -2.9975 0.9475
11.1256 5.6221 -2.8451 0.9501
10.5811 6.5901 -2.8452 0.9501
9.9527 7.5057 -2.8452 0.9501
9.2453 8.3619 -2.8452 0.9501
7.6164 9.8689 -2.8453 0.9501
4.7388 11.5313 -2.8455 0.9501
3.6938 11.9076 -2.8456 0.9501
2.6194 12.1895 -2.8457 0.9501
-0.6942 12.4495 -2.8459 0.9501
-4.9959 11.4261 -2.8463 0.9501
-6.9431 10.3599 -2.8465 0.9501
-7.8379 9.7011 -2.8466 0.9501
-8.6705 8.9653 -2.8467 0.9501
-10.7319 6.3566 -2.8469 0.9501
-11.2553 5.3762 -2.8470 0.9501
-12.6749 3.4721 -2.9995 0.9475
-13.0901 1.1698 -2.9996 0.9475
-12.2034 0.0000 -2.9996 0.9510
-12.1551 -1.0862 -2.9996 0.9510
-12.0102 -2.1637 -2.9996 0.9510
-11.0118 -5.2599 -2.9996 0.9510
-8.4835 -8.7719 -2.9995 0.9510
-7.6690 -9.4920 -2.9995 0.9510
-5.8643 -10.7009 -2.9994 0.9510
-4.8884 -11.1801 -2.9993 0.9510
-3.8739 -11.5706 -2.9992 0.9510
-2.8286 -11.8692 -2.9991 0.9510
-1.7609 -12.0735 -2.9991 0.9510
0.4077 -12.1937 -2.9989 0.9510
1.4913 -12.1087 -2.9988 0.9510
2.5631 -11.9275 -2.9987 0.9510
3.6144 -11.6517 -2.9986 0.9510
5.6227 -10.8255 -2.9984 0.9510
6.5637 -10.2818 -2.9983 0.9510
7.4525 -9.6565 -2.9983 0.9510
9.0461 -8.1817 -2.9981 0.9510
9.7382 -7.3439 -2.9980 0.9510
10.3529 -6.4478 -2.9979 0.9510
10.8855 -5.5006 -2.9979 0.9510
11.6878 -3.4833 -2.9977 0.9510
11.9513 -2.4291 -2.9977 0.9510
12.1680 0.8146 -2.9976 0.9510
12.0471 1.8944 -2.9976 0.9510
11.8307 2.9591 -2.9976 0.9510
11.5204 4.0004 -2.9976 0.9510
10.0884 5.6757 -2.8452 0.9534
6.6574 9.4703 -2.8454 0.9534
5.7882 10.0254 -2.8455 0.9534
3.9191 10.8934 -2.8456 0.9534
1.9257 11.4162 -2.8457 0.9534
-0.1290 11.5775 -2.8459 0.9534
-1.1590 11.5204 -2.8460 0.9534
-9.0892 7.1777 -2.8468 0.9534
-10.2183 5.4527 -2.8469 0.9534
-11.2343 4.7638 -2.9994 0.9510
-11.6139 3.7451 -2.9994 0.9510
-12.0943 1.6266 -2.9995 0.9510
-12.1912 0.5437 -2.9996 0.9510
-12.1914 -0.5436 -2.9996 0.9510
-12.0947 -1.6265 -2.9996 0.9510
-11.6147 -3.7452 -2.9996 0.9510
-5.3817 -10.9514 -2.9993 0.9510
-4.3855 -11.3867 -2.9993 0.9510
0.9505 -12.1632 -2.9988 0.9510
2.0292 -12.0300 -2.9988 0.9510
3.0918 -11.8013 -2.9987 0.9510
4.1298 -11.4789 -2.9986 0.9510
5.1349 -11.0654 -2.9985 0.9510
8.6728 -8.5767 -2.9981 0.9510
9.4015 -7.7705 -2.9980 0.9510
10.6297 -5.9802 -2.9979 0.9510
11.1196 -5.0102 -2.9978 0.9510
11.5212 -4.0005 -2.9978 0.9510
11.8313 -2.9592 -2.9977 0.9510
12.0475 -1.8943 -2.9977 0.9510
12.1682 -0.8145 -2.9976 0.9510
12.1923 0.2717 -2.9976 0.9510
12.1196 1.3558 -2.9976 0.9510
9.8256 6.1195 -2.8452 0.9534
9.2421 6.9698 -2.8453 0.9534
8.5851 7.7648 -2.8453 0.9534
7.8601 8.4982 -2.8453 0.9534
7.0726 9.1643 -2.8454 0.9534
6.2290 9.7576 -2.8454 0.9534
5.3359 10.2734 -2.8455 0.9534
-2.6843 11.2637 -2.8461 0.9534
-3.6762 10.9804 -2.8462 0.9534
-4.6391 10.6099 -2.8463 0.9534
-5.5652 10.1552 -2.8464 0.9534
-6.4472 9.6199 -2.8465 0.9534
-7.1745 7.4184 -2.5367 0.9584
-9.9652 5.9024 -2.8469 0.9534
-11.7693 3.2240 -2.9995 0.9510
-11.3383 -1.0132 -2.9996 0.9540
-11.2032 -2.0183 -2.9996 0.9540
-10.9791 -3.0075 -2.9996 0.9540
-10.2719 -4.9064 -2.9996 0.9540
-9.7944 -5.8012 -2.9996 0.9540
-9.2391 -6.6499 -2.9995 0.9540
-6.3371 -9.4556 -2.9994 0.9540
-5.4703 -9.9819 -2.9993 0.9540
-4.5600 -10.4290 -2.9992 0.9540
-3.6136 -10.7932 -2.9992 0.9540
-1.6426 -11.2623 -2.9990 0.9540
0.3803 -11.3745 -2.9989 0.9540
2.3909 -11.1262 -2.9987 0.9540
3.3716 -10.8690 -2.9986 0.9540
4.3255 -10.5254 -2.9985 0.9540
5.2450 -10.0984 -2.9984 0.9540
6.1228 -9.5912 -2.9984 0.9540
10.1544 -5.1312 -2.9979 0.9540
11.1487 -2.2660 -2.9978 0.9540
11.3060 -1.2647 -2.9977 0.9540
11.3736 -0.2534 -2.9977 0.9540
11.2382 1.7671 -2.9976 0.9540
11.0362 2.7604 -2.9976 0.9540
10.7467 3.7317 -2.9976 0.9540
6.9718 8.2463 -2.8454 0.9563
6.2103 8.8343 -2.8455 0.9563
-0.1203 10.7998 -2.8459 0.9563
-2.0334 10.6080 -2.8461 0.9563
-2.9696 10.3852 -2.8462 0.9563
-6.4079 8.6969 -2.8465 0.9563
-7.3634 6.9643 -2.6706 0.9589
-9.0410 5.9144 -2.8468 0.9563
-9.5318 5.0864 -2.8468 0.9563
-11.3721 0.5071 -2.9995 0.9540
-11.1022 -2.5154 -2.9996 0.9540
-10.8342 -3.4935 -2.9996 0.9540
-10.4803 -4.4440 -2.9996 0.9540
-10.0431 -5.3591 -2.9996 0.9540
-8.9337 -7.0548 -2.9995 0.9540
-8.2702 -7.8219 -2.9995 0.9540
-7.5411 -8.5268 -2.9994 0.9540
-6.7521 -9.1640 -2.9994 0.9540
-3.1292 -10.9433 -2.9991 0.9540
-1.1392 -11.3242 -2.9990 0.9540
-0.1268 -11.3803 -2.9989 0.9540
0.8866 -11.3461 -2.9988 0.9540
2.8841 -11.0086 -2.9987 0.9540
4.7900 -10.3221 -2.9985 0.9540
5.6896 -9.8546 -2.9984 0.9540
6.5439 -9.3088 -2.9983 0.9540
7.3463 -8.6892 -2.9982 0.9540
8.7701 -7.2486 -2.9981 0.9540
9.3802 -6.4391 -2.9980 0.9540
10.3728 -4.6737 -2.9979 0.9540
10.7474 -3.7319 -2.9978 0.9540
11.0368 -2.7604 -2.9978 0.9540
11.3735 0.2535 -2.9977 0.9540
10.9023 3.2493 -2.9976 0.9540
9.6375 4.8701 -2.8453 0.9563
7.3322 7.9276 -2.8454 0.9563
3.1996 10.3147 -2.8457 0.9563
2.2689 10.5587 -2.8457 0.9563
1.3202 10.7191 -2.8458 0.9563
0.3609 10.7944 -2.8459 0.9563
-0.6013 10.7839 -2.8460 0.9563
-1.5588 10.6879 -2.8460 0.9563
-5.1913 9.4730 -2.8464 0.9563
-6.0140 8.9736 -2.8465 0.9563
-6.7890 8.4029 -2.8465 0.9563
-8.1718 7.0665 -2.8467 0.9563
-8.7685 6.3112 -2.8467 0.9563
-10.6671 3.9725 -2.9994 0.9540
-10.9785 3.0074 -2.9994 0.9540
-11.3381 1.0132 -2.9995 0.9540
-10.6608 0.0000 -2.9995 0.9567
-10.6185 -0.9489 -2.9995 0.9567
-10.4920 -1.8902 -2.9995 0.9567
-10.2821 -2.8165 -2.9995 0.9567
-9.6198 -4.5949 -2.9995 0.9567
-9.1726 -5.4329 -2.9995 0.9567
-6.6996 -8.2921 -2.9994 0.9567
-5.1230 -9.3483 -2.9993 0.9567
-4.2705 -9.7670 -2.9992 0.9567
-3.3842 -10.1081 -2.9991 0.9567
-2.4711 -10.3689 -2.9991 0.9567
-1.5383 -10.5475 -2.9990 0.9567
-0.5934 -10.6422 -2.9989 0.9567
0.3562 -10.6526 -2.9989 0.9567
2.2391 -10.4201 -2.9987 0.9567
4.9121 -9.4575 -2.9985 0.9567
5.7343 -8.9825 -2.9984 0.9567
6.5108 -8.4363 -2.9983 0.9567
7.2357 -7.8231 -2.9982 0.9567
9.0448 -5.6331 -2.9980 0.9567
9.5101 -4.8056 -2.9980 0.9567
9.8999 -3.9400 -2.9979 0.9567
10.5887 -1.1845 -2.9978 0.9567
10.0649 3.4949 -2.9977 0.9567
7.1909 7.1112 -2.8454 0.9588
6.5295 7.7231 -2.8455 0.9588
5.8163 8.2738 -2.8455 0.9588
3.4239 9.5170 -2.8457 0.9588
2.5633 9.7842 -2.8457 0.9588
1.6824 9.9737 -2.8458 0.9588
-2.7811 9.7261 -2.8462 0.9588
-4.4617 9.0794 -2.8463 0.9588
-5.2523 8.6465 -2.8464 0.9588
-6.0012 8.1449 -2.8465 0.9588
-7.3338 6.9363 -2.8401 0.9589
-7.9404 6.2705 -2.8467 0.9588
-8.4671 5.5390 -2.8467 0.9588
-8.9877 4.7960 -2.8662 0.9586
-10.1459 3.2717 -2.9993 0.9567
-10.3969 2.3557 -2.9994 0.9567
-10.5655 1.4209 -2.9994 0.9567
-10.6501 0.4749 -2.9995 0.9567
-10.6502 -0.4749 -2.9995 0.9567
-10.3974 -2.3557 -2.9995 0.9567
-9.8150 -4.1619 -2.9995 0.9567
-9.4055 -5.0189 -2.9995 0.9567
-8.9214 -5.8361 -2.9995 0.9567
-7.0624 -7.9855 -2.9994 0.9567
-5.5344 -9.1109 -2.9993 0.9567
-4.7014 -9.5671 -2.9992 0.9567
-2.9305 -10.2487 -2.9991 0.9567
-1.0669 -10.6054 -2.9990 0.9567
1.7728 -10.5096 -2.9987 0.9567
2.7011 -10.3099 -2.9987 0.9567
3.6079 -10.0283 -2.9986 0.9567
6.1286 -8.7180 -2.9983 0.9567
7.5769 -7.4929 -2.9982 0.9567
8.2136 -6.7886 -2.9981 0.9567
9.2867 -5.2246 -2.9980 0.9567
10.0655 -3.4951 -2.9979 0.9567
10.3365 -2.5853 -2.9978 0.9567
10.5254 -1.6550 -2.9978 0.9567
10.6309 -0.7116 -2.9978 0.9567
10.5884 1.1845 -2.9977 0.9567
9.8992 3.9398 -2.9977 0.9567
7.5005 6.7838 -2.8454 0.9588
6.1790 8.0064 -2.8455 0.9588
5.4420 8.5247 -2.8455 0.9588
4.6617 8.9754 -2.8456 0.9588
3.8444 9.3549 -2.8456 0.9588
2.9966 9.6602 -2.8457 0.9588
2.1250 9.8888 -2.8458 0.9588
1.2364 10.0389 -2.8458 0.9588
-0.5631 10.0996 -2.8460 0.9588
-3.2116 9.5927 -2.8462 0.9588
-4.0528 9.2691 -2.8463 0.9588
-6.3581 7.8696 -2.8465 0.9588
-7.0335 7.2726 -2.8466 0.9588
-9.9900 3.7204 -2.9993 0.9567
-10.2816 2.8165 -2.9994 0.9567
-10.4916 1.8902 -2.9994 0.9567
-9.9791 -0.8917 -2.9994 0.9590
-9.8601 -1.7764 -2.9995 0.9590
-9.3890 -3.4965 -2.9995 0.9590
-8.6202 -5.1058 -2.9994 0.9590
-6.9648 -7.2016 -2.9994 0.9590
-4.0134 -9.1788 -2.9992 0.9590
-2.3223 -9.7446 -2.9990 0.9590
-1.4457 -9.9124 -2.9990 0.9590
-0.5577 -10.0015 -2.9989 0.9590
1.2244 -9.9414 -2.9988 0.9590
2.9675 -9.5663 -2.9986 0.9590
3.8071 -9.2640 -2.9985 0.9590
5.3891 -8.4418 -2.9984 0.9590
6.1189 -7.9284 -2.9983 0.9590
6.8001 -7.3522 -2.9982 0.9590
7.4273 -6.7176 -2.9982 0.9590
7.9956 -6.0297 -2.9981 0.9590
8.5004 -5.2940 -2.9980 0.9590
8.9377 -4.5164 -2.9980 0.9590
9.5965 -2.8600 -2.9979 0.9591
9.8129 -1.9945 -2.9979 0.9591
9.9513 -1.1132 -2.9978 0.9591
10.0108 -0.2231 -2.9978 0.9591
9.9909 0.6688 -2.9978 0.9591
9.4591 3.2846 -2.9977 0.9591
9.1293 4.1135 -2.9977 0.9591
7.8358 5.3790 -2.8454 0.9611
7.3260 6.0552 -2.8454 0.9611
6.7581 6.6832 -2.8455 0.9611
6.1365 7.2583 -2.8455 0.9611
5.4662 7.7758 -2.8456 0.9611
4.7525 8.2316 -2.8456 0.9611
0.7405 9.4771 -2.8459 0.9611
-0.9515 9.4587 -2.8460 0.9611
-1.7897 9.3367 -2.8461 0.9611
-2.6137 9.1406 -2.8462 0.9611
-3.4169 8.8719 -2.8462 0.9611
-4.1931 8.5328 -2.8463 0.9611
-5.6399 7.6545 -2.8465 0.9611
-9.5349 3.0747 -2.9993 0.9590
-9.7712 -2.2138 -2.9995 0.9590
-9.2239 -3.9112 -2.9995 0.9590
-8.8391 -4.7167 -2.9994 0.9590
-7.8627 -6.2091 -2.9994 0.9590
-3.6005 -9.3484 -2.9991 0.9590
-1.8859 -9.8383 -2.9990 0.9590
-1.0027 -9.9668 -2.9989 0.9590
-0.1116 -10.0163 -2.9989 0.9590
0.7803 -9.9862 -2.9988 0.9590
2.5385 -9.6892 -2.9987 0.9590
5.0077 -8.6736 -2.9984 0.9590
6.4659 -7.6479 -2.9983 0.9590
7.1208 -7.0419 -2.9982 0.9590
7.7191 -6.3800 -2.9981 0.9590
8.2562 -5.6675 -2.9981 0.9590
8.7277 -4.9101 -2.9980 0.9590
9.4597 -3.2847 -2.9979 0.9591
9.7144 -2.4297 -2.9979 0.9591
9.8919 -1.5554 -2.9978 0.9591
10.0108 0.2231 -2.9978 0.9591
9.9512 1.1133 -2.9978 0.9591
9.8125 1.9945 -2.9977 0.9591
9.3034 3.7027 -2.9977 0.9591
8.0676 5.0246 -2.8454 0.9611
7.5884 5.7228 -2.8454 0.9611
6.4537 6.9777 -2.8455 0.9611
5.8071 7.5245 -2.8455 0.9611
5.1144 8.0116 -2.8456 0.9611
1.9970 9.2935 -2.8458 0.9611
1.1620 9.4346 -2.8459 0.9611
0.3176 9.5008 -2.8459 0.9611
-2.2039 9.2479 -2.8461 0.9611
-3.0183 9.0152 -2.8462 0.9611
-5.2932 7.8981 -2.8464 0.9611
-7.1923 6.2194 -2.8466 0.9611
-8.1814 4.8459 -2.8467 0.9611
-9.8598 1.7764 -2.9994 0.9590
-9.9789 0.8918 -2.9994 0.9590
-9.2948 -1.6745 -2.9994 0.9611
-7.6653 -5.5171 -2.9994 0.9611
-7.1437 -6.1774 -2.9993 0.9611
-5.9351 -7.3460 -2.9993 0.9611
-4.5385 -8.2817 -2.9992 0.9611
-3.7833 -8.6526 -2.9991 0.9611
-1.3628 -9.3441 -2.9990 0.9611
1.1542 -9.3715 -2.9988 0.9611
1.9837 -9.2314 -2.9987 0.9611
2.7974 -9.0179 -2.9986 0.9611
3.5889 -8.7330 -2.9985 0.9611
4.3518 -8.3787 -2.9985 0.9612
7.0017 -6.3326 -2.9982 0.9612
8.4255 -4.2575 -2.9980 0.9612
8.7708 -3.4906 -2.9980 0.9612
9.0466 -2.6961 -2.9979 0.9612
9.3811 -1.0494 -2.9979 0.9612
9.3248 1.4663 -2.9978 0.9612
8.6061 3.8778 -2.9978 0.9612
11.6563 6.5577 -4.2475 0.9454
7.3867 5.0708 -2.8455 0.9631
6.3708 6.3003 -2.8455 0.9631
5.1529 7.3302 -2.8456 0.9631
4.4801 7.7598 -2.8456 0.9631
3.0334 8.4315 -2.8457 0.9631
1.4905 8.8361 -2.8458 0.9631
-0.0998 8.9608 -2.8460 0.9631
-1.6871 8.8015 -2.8461 0.9631
-2.4638 8.6167 -2.8462 0.9631
-5.3165 7.2157 -2.8464 0.9631
-7.5011 4.9071 -2.8467 0.9631
-8.3317 4.4459 -2.9992 0.9611
-8.6945 3.6868 -2.9992 0.9611
-8.9882 2.8984 -2.9993 0.9611
-9.2106 2.0869 -2.9993 0.9611
-9.3599 1.2588 -2.9993 0.9611
-9.4349 0.4207 -2.9994 0.9611
-9.3601 -1.2588 -2.9994 0.9611
-8.3323 -4.4462 -2.9994 0.9611
-6.2565 -7.0744 -2.9993 0.9611
-4.9030 -8.0713 -2.9992 0.9611
-4.1650 -8.4755 -2.9992 0.9611
-3.3941 -8.8125 -2.9991 0.9611
-0.9452 -9.3954 -2.9989 0.9611
0.7356 -9.4138 -2.9988 0.9611
3.1963 -8.8843 -2.9986 0.9611
3.9743 -8.5644 -2.9985 0.9611
6.7127 -6.6383 -2.9982 0.9612
8.9176 -3.0965 -2.9980 0.9612
9.3250 -1.4663 -2.9979 0.9612
9.4185 -0.6304 -2.9979 0.9612
9.3809 1.0494 -2.9978 0.9612
9.2502 1.8802 -2.9978 0.9612
8.7703 3.4905 -2.9978 0.9612
7.6055 4.7366 -2.8455 0.9631
7.1536 5.3948 -2.8455 0.9631
6.6451 6.0101 -2.8455 0.9631
6.0838 6.5778 -2.8455 0.9631
5.4743 7.0933 -2.8456 0.9631
4.8213 7.5525 -2.8456 0.9631
3.4060 8.2879 -2.8457 0.9631
2.6548 8.5584 -2.8458 0.9631
1.0954 8.8938 -2.8459 0.9631
-0.4989 8.9476 -2.8460 0.9631
-4.9898 7.4453 -2.8464 0.9631
-6.7799 5.8629 -2.8466 0.9631
-8.0556 4.7714 -2.9734 0.9615
-8.5215 4.0704 -2.9992 0.9611
-8.8501 3.2959 -2.9992 0.9611
-9.1085 2.4951 -2.9993 0.9611
-9.2945 1.6745 -2.9993 0.9611
-9.4068 0.8406 -2.9993 0.9611
-8.9271 0.0000 -2.9993 0.9630
-8.8917 -0.7945 -2.9993 0.9630
-8.7857 -1.5828 -2.9994 0.9630
-8.6100 -2.3585 -2.9994 0.9630
-8.0554 -3.8477 -2.9994 0.9630
-7.6809 -4.5494 -2.9993 0.9630
-7.2454 -5.2149 -2.9993 0.9630
-5.6101 -6.9437 -2.9992 0.9630
-4.9697 -7.4153 -2.9992 0.9630
-3.5761 -8.1787 -2.9991 0.9630
-1.2882 -8.8324 -2.9989 0.9630
-0.4969 -8.9118 -2.9989 0.9630
1.8751 -8.7259 -2.9987 0.9630
4.1135 -7.9199 -2.9985 0.9630
4.8020 -7.5222 -2.9984 0.9630
5.4524 -7.0648 -2.9983 0.9630
6.0594 -6.5513 -2.9983 0.9630
6.6183 -5.9859 -2.9982 0.9630
7.1247 -5.3729 -2.9982 0.9630
7.9642 -4.0244 -2.9981 0.9630
8.2906 -3.2996 -2.9980 0.9630
8.5513 -2.5485 -2.9980 0.9630
8.7441 -1.7773 -2.9979 0.9630
8.9205 -0.1987 -2.9979 0.9630
8.9028 0.5960 -2.9979 0.9630
8.8143 1.3860 -2.9978 0.9630
11.0182 6.1988 -4.2475 0.9481
6.0220 5.9553 -2.8456 0.9649
5.4681 6.4678 -2.8456 0.9649
4.8708 6.9289 -2.8456 0.9649
3.5652 7.6829 -2.8457 0.9649
2.8673 7.9699 -2.8458 0.9649
0.6599 8.4448 -2.8459 0.9649
-0.0944 8.4702 -2.8460 0.9649
-0.8479 8.4284 -2.8460 0.9649
-1.5947 8.3196 -2.8461 0.9649
-3.0447 7.9054 -2.8462 0.9649
-4.3983 7.2406 -2.8464 0.9649
-5.0254 6.8205 -2.8464 0.9649
-6.1553 5.8218 -2.8465 0.9649
-7.2999 4.7754 -2.9308 0.9639
-7.8754 4.2025 -2.9991 0.9630
-8.2183 3.4849 -2.9992 0.9630
-8.4960 2.7396 -2.9992 0.9630
-8.7062 1.9726 -2.9993 0.9630
-8.9182 0.3977 -2.9993 0.9630
-8.8475 -1.1898 -2.9994 0.9630
-8.7065 -1.9726 -2.9994 0.9630
-8.4964 -2.7397 -2.9994 0.9630
-7.8759 -4.2027 -2.9994 0.9630
-7.4706 -4.8870 -2.9993 0.9630
-7.0059 -5.5325 -2.9993 0.9630
-6.4856 -6.1340 -2.9993 0.9630
-4.6344 -7.6293 -2.9992 0.9630
-3.9369 -8.0113 -2.9991 0.9630
-3.2082 -8.3298 -2.9991 0.9630
-1.6804 -8.7663 -2.9990 0.9630
-0.0994 -8.9250 -2.9988 0.9630
2.2619 -8.6336 -2.9986 0.9630
3.0213 -8.3978 -2.9986 0.9630
3.7567 -8.0954 -2.9985 0.9630
4.4622 -7.7287 -2.9984 0.9630
5.1323 -7.3007 -2.9984 0.9630
5.7616 -6.8148 -2.9983 0.9630
7.3569 -5.0502 -2.9981 0.9630
7.7771 -4.3753 -2.9981 0.9630
8.1355 -3.6656 -2.9980 0.9630
8.8145 -1.3860 -2.9979 0.9630
8.8673 0.9920 -2.9979 0.9630
8.7438 1.7773 -2.9978 0.9630
8.5509 2.5485 -2.9978 0.9630
7.9636 4.0242 -2.9978 0.9630
7.5310 4.6904 -2.9809 0.9633
6.7620 5.0995 -2.8455 0.9649
5.1746 6.7050 -2.8456 0.9649
3.2195 7.8342 -2.8457 0.9649
1.7795 8.2812 -2.8458 0.9649
0.2830 8.4659 -2.8460 0.9649
-1.2225 8.3823 -2.8461 0.9649
-1.9638 8.2404 -2.8461 0.9649
-3.3939 7.7620 -2.8463 0.9649
-4.7165 7.0376 -2.8464 0.9649
-5.3243 6.5900 -2.8465 0.9649
-5.8898 6.0901 -2.8465 0.9649
-6.4086 5.5418 -2.8466 0.9649
-8.3654 3.1154 -2.9992 0.9630
-8.6096 2.3584 -2.9992 0.9630
-8.7855 1.5828 -2.9993 0.9630
-8.4586 0.0000 -2.9993 0.9647
-8.3246 -1.4998 -2.9993 0.9647
-7.6326 -3.6457 -2.9993 0.9647
-6.8652 -4.9412 -2.9993 0.9647
-6.3981 -5.5326 -2.9993 0.9647
-5.3157 -6.5792 -2.9992 0.9647
-3.3884 -7.7495 -2.9991 0.9647
-1.9607 -8.2272 -2.9990 0.9647
-1.2206 -8.3689 -2.9989 0.9647
-0.4708 -8.4442 -2.9989 0.9647
0.2826 -8.4524 -2.9988 0.9647
1.0338 -8.3936 -2.9987 0.9647
2.5055 -8.0769 -2.9986 0.9647
3.8977 -7.5044 -2.9985 0.9647
4.5501 -7.1276 -2.9984 0.9647
5.1663 -6.6941 -2.9984 0.9647
6.2711 -5.6719 -2.9982 0.9648
6.7509 -5.0911 -2.9982 0.9648
7.5464 -3.8133 -2.9981 0.9648
7.8557 -3.1265 -2.9980 0.9648
8.4023 -0.9399 -2.9979 0.9648
8.4526 -0.1883 -2.9979 0.9648
6.1857 5.1126 -2.8456 0.9665
5.7061 5.6429 -2.8456 0.9665
5.1813 6.1285 -2.8456 0.9665
2.7169 7.5518 -2.8458 0.9665
2.0340 7.7638 -2.8458 0.9665
1.3349 7.9142 -2.8459 0.9665
0.6253 8.0017 -2.8459 0.9665
-0.8034 7.9862 -2.8461 0.9665
-2.2067 7.7175 -2.8462 0.9665
-3.5403 7.2042 -2.8463 0.9665
-4.1675 6.8607 -2.8464 0.9665
-5.8324 5.5162 -2.8465 0.9665
-6.3003 4.9753 -2.8466 0.9665
-7.4621 3.9820 -2.9991 0.9647
-7.7870 3.3020 -2.9991 0.9647
-8.0501 2.5959 -2.9992 0.9647
-8.4501 0.3768 -2.9993 0.9647
-8.4502 -0.3768 -2.9993 0.9647
-8.3832 -1.1274 -2.9993 0.9647
-8.2496 -1.8691 -2.9993 0.9647
-7.7875 -3.3021 -2.9993 0.9647
-7.4626 -3.9821 -2.9993 0.9647
-7.0785 -4.6305 -2.9993 0.9647
-6.1453 -5.8121 -2.9993 0.9647
-5.6035 -6.3359 -2.9992 0.9647
-5.0173 -6.8095 -2.9992 0.9647
-3.7303 -7.5909 -2.9991 0.9647
-3.0398 -7.8927 -2.9991 0.9647
-2.3252 -8.1318 -2.9990 0.9647
-0.8466 -8.4149 -2.9989 0.9647
0.6588 -8.4314 -2.9988 0.9647
2.1432 -8.1806 -2.9986 0.9647
2.8628 -7.9572 -2.9986 0.9647
4.2281 -7.3232 -2.9985 0.9647
4.8630 -6.9177 -2.9984 0.9647
5.4593 -6.4573 -2.9983 0.9647
6.0123 -5.9456 -2.9983 0.9648
6.5175 -5.3868 -2.9982 0.9648
7.3691 -4.1457 -2.9981 0.9648
8.2022 -2.0515 -2.9980 0.9648
8.4526 0.1884 -2.9979 0.9648
7.5459 3.8131 -2.9979 0.9648
7.1766 4.4696 -2.9979 0.9648
4.9032 6.3532 -2.8456 0.9665
4.3183 6.7645 -2.8457 0.9665
3.0506 7.4232 -2.8458 0.9665
1.6862 7.8468 -2.8459 0.9665
0.9811 7.9659 -2.8459 0.9665
0.2682 8.0217 -2.8460 0.9665
-1.8607 7.8080 -2.8461 0.9665
-2.5484 7.6116 -2.8462 0.9665
-3.8577 7.0395 -2.8463 0.9665
-4.4691 6.6683 -2.8464 0.9665
-5.0449 6.2442 -2.8464 0.9665
-5.5808 5.7705 -2.8465 0.9665
-6.0723 5.2510 -2.8466 0.9665
-6.6380 4.7778 -2.9000 0.9659
-7.2772 4.3104 -2.9991 0.9647
-7.6321 3.6456 -2.9991 0.9647
-7.9264 2.9519 -2.9992 0.9647
-8.1578 2.2347 -2.9992 0.9647
-8.4249 0.7529 -2.9993 0.9647
-8.0321 0.0001 -2.9993 0.9663
-7.9049 -1.4241 -2.9993 0.9663
-7.7468 -2.1220 -2.9993 0.9663
-7.5271 -2.8031 -2.9993 0.9663
-7.2478 -3.4619 -2.9993 0.9663
-6.9108 -4.0933 -2.9993 0.9663
-5.0476 -6.2475 -2.9992 0.9663
-4.4715 -6.6719 -2.9991 0.9663
-3.2176 -7.3588 -2.9991 0.9663
-2.5498 -7.6158 -2.9990 0.9663
-1.8618 -7.8124 -2.9990 0.9663
-1.1590 -7.9470 -2.9989 0.9663
-0.4471 -8.0185 -2.9989 0.9663
0.2684 -8.0263 -2.9988 0.9663
1.6871 -7.8512 -2.9987 0.9663
3.0523 -7.4274 -2.9985 0.9663
3.7012 -7.1261 -2.9985 0.9663
4.3207 -6.7682 -2.9984 0.9663
4.9059 -6.3567 -2.9984 0.9663
5.9550 -5.3860 -2.9983 0.9663
6.4106 -4.8345 -2.9982 0.9663
6.8154 -4.2446 -2.9982 0.9663
7.6943 -2.2931 -2.9980 0.9663
7.8678 -1.5992 -2.9980 0.9663
7.5842 2.6336 -2.9979 0.9663
7.3197 3.2982 -2.9979 0.9663
6.9972 3.9366 -2.9979 0.9663
6.6191 4.5438 -2.9979 0.9663
5.8739 4.8549 -2.8456 0.9680
5.4185 5.3585 -2.8456 0.9680
4.9201 5.8196 -2.8456 0.9680
3.8104 6.5999 -2.8457 0.9680
3.2079 6.9129 -2.8458 0.9680
2.5800 7.1712 -2.8458 0.9680
1.9315 7.3725 -2.8458 0.9680
1.2677 7.5153 -2.8459 0.9680
-0.0849 7.6212 -2.8460 0.9680
-2.0955 7.3284 -2.8462 0.9680
-2.7395 7.1130 -2.8462 0.9680
-3.3618 6.8411 -2.8463 0.9680
-4.5216 6.1369 -2.8464 0.9680
-5.5383 5.2381 -2.8465 0.9680
-7.0858 3.7812 -2.9991 0.9663
-7.3944 3.1355 -2.9991 0.9663
-7.8333 1.7749 -2.9992 0.9663
-7.9603 1.0706 -2.9992 0.9663
-7.9604 -1.0705 -2.9993 0.9663
-7.3948 -3.1356 -2.9993 0.9663
-7.0863 -3.7813 -2.9993 0.9663
-6.3035 -4.9778 -2.9992 0.9663
-3.5422 -7.2082 -2.9991 0.9663
-2.8866 -7.4947 -2.9990 0.9663
-2.2080 -7.7218 -2.9990 0.9663
-1.5119 -7.8875 -2.9989 0.9663
-0.8039 -7.9906 -2.9989 0.9663
-0.0895 -8.0303 -2.9988 0.9663
0.6256 -8.0062 -2.9988 0.9663
1.3357 -7.9187 -2.9987 0.9663
4.0150 -6.9541 -2.9985 0.9663
6.6196 -4.5441 -2.9982 0.9663
6.9976 -3.9368 -2.9981 0.9663
7.3202 -3.2983 -2.9981 0.9663
7.7888 -1.9481 -2.9980 0.9663
7.9312 -1.2471 -2.9980 0.9663
8.0107 -0.5362 -2.9980 0.9663
8.0265 0.1789 -2.9979 0.9663
7.8676 1.5992 -2.9979 0.9663
7.6940 2.2931 -2.9979 0.9663
7.1656 3.6210 -2.9979 0.9663
6.8149 4.2444 -2.9979 0.9663
5.1745 5.5946 -2.8456 0.9680
4.6560 6.0330 -2.8457 0.9680
4.1006 6.4236 -2.8457 0.9680
2.8968 7.0491 -2.8458 0.9680
2.2580 7.2790 -2.8458 0.9680
1.6012 7.4512 -2.8459 0.9680
0.2547 7.6173 -2.8460 0.9680
-0.4243 7.6100 -2.8460 0.9680
-1.7669 7.4144 -2.8461 0.9680
-2.4199 7.2279 -2.8462 0.9680
-3.6632 6.6846 -2.8463 0.9680
-4.2437 6.3321 -2.8464 0.9680
-5.7662 4.9862 -2.8465 0.9680
-6.5185 4.6918 -2.9990 0.9663
-6.9103 4.0930 -2.9991 0.9663
-7.9047 1.4242 -2.9992 0.9663
-7.6419 0.0000 -2.9992 0.9677
-7.6116 -0.6801 -2.9992 0.9677
-7.5209 -1.3549 -2.9993 0.9677
-6.8957 -3.2937 -2.9993 0.9677
-6.2024 -4.4642 -2.9992 0.9677
-5.3125 -5.4931 -2.9992 0.9677
-4.8025 -5.9440 -2.9992 0.9677
-4.2543 -6.3478 -2.9991 0.9677
-1.7714 -7.4330 -2.9989 0.9677
-0.4254 -7.6290 -2.9988 0.9677
0.9340 -7.5833 -2.9987 0.9677
2.2636 -7.2973 -2.9986 0.9677
2.9041 -7.0667 -2.9986 0.9677
3.5215 -6.7800 -2.9985 0.9677
5.6658 -5.1244 -2.9983 0.9677
6.0994 -4.5997 -2.9982 0.9677
6.4844 -4.0385 -2.9982 0.9677
6.8181 -3.4453 -2.9981 0.9677
7.0976 -2.8247 -2.9981 0.9677
7.4858 -1.5215 -2.9980 0.9677
7.5914 -0.8492 -2.9980 0.9677
7.6368 -0.1701 -2.9980 0.9677
7.2160 2.5057 -2.9979 0.9677
5.1554 5.0984 -2.8456 0.9693
4.6812 5.5370 -2.8457 0.9693
4.1699 5.9318 -2.8457 0.9693
3.0522 6.5773 -2.8458 0.9693
2.4547 6.8229 -2.8458 0.9693
1.8377 7.0144 -2.8459 0.9693
1.2061 7.1503 -2.8459 0.9693
-1.3652 7.1222 -2.8461 0.9693
-1.9937 6.9725 -2.8462 0.9693
-3.1985 6.5088 -2.8463 0.9693
-3.7652 6.1984 -2.8463 0.9693
-4.8047 5.4328 -2.8464 0.9693
-5.2693 4.9837 -2.8465 0.9693
-6.7417 3.5976 -2.9991 0.9677
-7.0352 2.9832 -2.9991 0.9677
-7.2729 2.3453 -2.9991 0.9677
-7.4528 1.6886 -2.9992 0.9677
-7.5736 1.0186 -2.9992 0.9677
-7.6343 0.3405 -2.9992 0.9677
-7.4531 -1.6886 -2.9993 0.9677
-7.0356 -2.9833 -2.9993 0.9677
-5.9973 -4.7360 -2.9992 0.9677
-5.0625 -5.7243 -2.9992 0.9677
-4.5329 -6.1520 -2.9991 0.9677
-3.9673 -6.5310 -2.9991 0.9677
-2.7464 -7.1308 -2.9990 0.9677
-1.4385 -7.5044 -2.9989 0.9677
-0.7648 -7.6026 -2.9989 0.9677
-0.0851 -7.6403 -2.9988 0.9677
0.5952 -7.6174 -2.9988 0.9677
1.2709 -7.5341 -2.9987 0.9677
5.4320 -5.3718 -2.9983 0.9677
6.2982 -4.3234 -2.9982 0.9677
6.6579 -3.7456 -2.9982 0.9677
6.9647 -3.1381 -2.9981 0.9677
7.6217 -0.5102 -2.9980 0.9677
7.6368 0.1702 -2.9980 0.9677
7.5913 0.8492 -2.9980 0.9677
7.3204 2.1818 -2.9979 0.9677
7.0972 2.8247 -2.9979 0.9677
6.8177 3.4452 -2.9980 0.9677
6.0989 4.5994 -2.9980 0.9677
5.3774 4.8636 -2.8456 0.9693
4.9232 5.3229 -2.8457 0.9693
4.4299 5.7401 -2.8457 0.9693
3.9015 6.1116 -2.8457 0.9693
3.3421 6.4347 -2.8458 0.9693
2.7562 6.7068 -2.8458 0.9693
0.8864 7.1970 -2.8459 0.9693
0.2423 7.2475 -2.8460 0.9693
-3.4853 6.3600 -2.8463 0.9693
-6.2019 4.4639 -2.9990 0.9677
-7.1612 2.6669 -2.9991 0.9677
-7.5207 1.3549 -2.9992 0.9677
-7.6115 0.6802 -2.9992 0.9677
-7.2835 0.0000 -2.9992 0.9690
-7.2546 -0.6482 -2.9992 0.9690
-7.1681 -1.2914 -2.9992 0.9690
-6.8256 -2.5418 -2.9992 0.9690
-5.9115 -4.2548 -2.9992 0.9690
-0.4054 -7.2712 -2.9988 0.9690
0.8902 -7.2277 -2.9987 0.9690
2.1575 -6.9551 -2.9986 0.9690
2.7679 -6.7353 -2.9986 0.9690
3.3563 -6.4621 -2.9985 0.9690
3.9181 -6.1376 -2.9984 0.9690
5.8134 -4.3840 -2.9982 0.9690
6.1804 -3.8492 -2.9982 0.9690
6.4984 -3.2837 -2.9982 0.9690
7.1348 -1.4502 -2.9981 0.9690
7.2355 -0.8094 -2.9980 0.9690
7.1922 1.1309 -2.9980 0.9690
6.8777 2.3882 -2.9980 0.9690
6.6378 2.9909 -2.9980 0.9690
6.3453 3.5699 -2.9980 0.9690
6.0024 4.1204 -2.9980 0.9690
4.4617 5.2774 -2.8457 0.9705
3.9744 5.6536 -2.8457 0.9705
2.9091 6.2689 -2.8458 0.9705
2.3396 6.5030 -2.8458 0.9705
1.7515 6.6856 -2.8459 0.9705
1.1495 6.8150 -2.8459 0.9705
0.5384 6.8904 -2.8460 0.9705
-0.0770 6.9111 -2.8460 0.9705
-2.4842 6.4502 -2.8462 0.9705
-3.0485 6.2036 -2.8463 0.9705
-3.5886 5.9078 -2.8463 0.9705
-4.1003 5.5650 -2.8464 0.9705
-4.5794 5.1780 -2.8464 0.9705
-5.7156 4.5136 -2.9989 0.9690
-6.4255 3.4288 -2.9990 0.9690
-6.9318 2.2353 -2.9991 0.9690
-7.2184 0.9708 -2.9992 0.9690
-7.2762 0.3245 -2.9992 0.9690
-7.2763 -0.3244 -2.9992 0.9690
-7.2185 -0.9708 -2.9992 0.9690
-7.1035 -1.6094 -2.9992 0.9690
-6.9321 -2.2352 -2.9992 0.9690
-6.4259 -3.4289 -2.9992 0.9690
-5.7160 -4.5139 -2.9992 0.9690
-3.7812 -6.2247 -2.9991 0.9690
-3.2121 -6.5364 -2.9990 0.9690
-2.0022 -7.0022 -2.9990 0.9690
-0.0811 -7.2821 -2.9988 0.9690
0.5673 -7.2602 -2.9987 0.9690
1.8455 -7.0443 -2.9986 0.9690
3.0652 -6.6052 -2.9985 0.9690
3.6409 -6.3061 -2.9985 0.9690
6.6382 -2.9910 -2.9981 0.9690
7.0632 -1.7666 -2.9981 0.9690
7.2644 -0.4863 -2.9980 0.9690
7.1346 1.4502 -2.9980 0.9690
6.9772 2.0795 -2.9980 0.9690
6.4980 3.2836 -2.9980 0.9690
5.8129 4.3838 -2.9980 0.9690
5.2164 4.7179 -2.8962 0.9700
4.2222 5.4709 -2.8457 0.9705
3.7186 5.8251 -2.8457 0.9705
2.0476 6.6008 -2.8459 0.9705
0.2310 6.9076 -2.8460 0.9705
-0.3848 6.9009 -2.8461 0.9705
-0.9975 6.8394 -2.8461 0.9705
-1.6023 6.7236 -2.8462 0.9705
-2.1944 6.5544 -2.8462 0.9705
-6.8253 2.5418 -2.9991 0.9690
-6.9529 0.0000 -2.9992 0.9702
-6.9253 -0.6188 -2.9992 0.9702
-5.9823 -3.5433 -2.9992 0.9702
-5.6431 -4.0616 -2.9992 0.9702
-4.8335 -4.9978 -2.9991 0.9702
-3.8707 -5.7755 -2.9991 0.9702
-3.3413 -6.0970 -2.9990 0.9702
-2.7853 -6.3701 -2.9990 0.9702
-2.2072 -6.5926 -2.9990 0.9702
-0.3870 -6.9412 -2.9988 0.9702
0.2323 -6.9480 -2.9988 0.9702
1.4605 -6.7965 -2.9987 0.9702
3.7403 -5.8591 -2.9985 0.9702
4.7197 -5.1029 -2.9984 0.9702
5.9000 -3.6745 -2.9982 0.9702
6.4578 -2.5701 -2.9981 0.9702
6.9347 0.4642 -2.9980 0.9702
6.8658 1.0796 -2.9980 0.9702
6.3366 2.8552 -2.9980 0.9702
6.0574 3.4079 -2.9980 0.9702
5.7300 3.9335 -2.9980 0.9702
4.7731 4.7203 -2.8957 0.9712
3.7940 5.3971 -2.8457 0.9717
2.2334 6.2079 -2.8459 0.9717
1.0974 6.5058 -2.8459 0.9717
0.5140 6.5777 -2.8460 0.9717
-0.0735 6.5975 -2.8460 0.9717
-0.6604 6.5649 -2.8461 0.9717
-1.2421 6.4801 -2.8461 0.9717
-3.9142 5.3124 -2.8464 0.9717
-4.3716 4.9430 -2.8464 0.9717
-5.0263 4.7539 -2.9843 0.9703
-5.4562 4.3087 -2.9989 0.9702
-5.8181 3.8061 -2.9990 0.9702
-6.1338 3.2732 -2.9990 0.9702
-6.6171 2.1338 -2.9991 0.9702
-6.7809 1.5364 -2.9991 0.9702
-6.4012 -2.7143 -2.9992 0.9702
-6.1342 -3.2733 -2.9992 0.9702
-4.1242 -5.5973 -2.9991 0.9702
-3.6096 -5.9421 -2.9991 0.9702
-3.0663 -6.2398 -2.9990 0.9702
-2.4988 -6.4878 -2.9990 0.9702
-1.9114 -6.6844 -2.9989 0.9702
-1.3088 -6.8279 -2.9989 0.9702
-0.6959 -6.9171 -2.9988 0.9702
0.5416 -6.9307 -2.9987 0.9702
1.7618 -6.7246 -2.9986 0.9702
2.3533 -6.5410 -2.9986 0.9702
5.7304 -3.9337 -2.9982 0.9702
6.0577 -3.4080 -2.9982 0.9702
6.5659 -2.2799 -2.9981 0.9702
6.7427 -1.6864 -2.9981 0.9702
6.8659 -1.0796 -2.9981 0.9702
6.9485 0.1549 -2.9980 0.9702
6.9071 0.7727 -2.9980 0.9702
6.6606 1.9851 -2.9980 0.9702
6.4575 2.5701 -2.9980 0.9702
5.5492 4.1848 -2.9980 0.9702
5.1547 4.6622 -2.9981 0.9702
4.4795 4.8432 -2.8457 0.9717
3.5499 5.5608 -2.8458 0.9717
2.5077 6.1022 -2.8458 0.9717
1.9547 6.3013 -2.8459 0.9717
0.8065 6.5482 -2.8460 0.9717
-0.3673 6.5877 -2.8461 0.9717
-1.5296 6.4185 -2.8462 0.9717
-2.0948 6.2570 -2.8462 0.9717
-3.6736 5.4815 -2.8464 0.9717
-4.1470 5.1328 -2.8464 0.9717
-5.6427 4.0615 -2.9990 0.9702
-5.9819 3.5431 -2.9990 0.9702
-6.5155 2.4264 -2.9991 0.9702
-6.7057 1.8369 -2.9991 0.9702
-6.8426 1.2328 -2.9991 0.9702
-6.6204 -0.5916 -2.9992 0.9713
-6.5415 -1.1785 -2.9992 0.9713
-6.4107 -1.7560 -2.9992 0.9713
-5.9977 -2.8648 -2.9992 0.9713
-5.7189 -3.3873 -2.9992 0.9713
-5.3947 -3.8828 -2.9991 0.9713
-4.6207 -4.7778 -2.9991 0.9713
-4.1771 -5.1700 -2.9991 0.9713
-2.6627 -6.0897 -2.9990 0.9713
-2.1101 -6.3025 -2.9989 0.9713
-1.5407 -6.4652 -2.9989 0.9713
-0.3700 -6.6357 -2.9988 0.9713
0.2221 -6.6422 -2.9988 0.9713
1.9689 -6.3472 -2.9986 0.9713
3.0630 -5.8973 -2.9985 0.9713
4.0600 -5.2606 -2.9984 0.9713
5.3053 -4.0009 -2.9983 0.9713
5.6403 -3.5128 -2.9982 0.9713
6.5113 -1.3234 -2.9981 0.9713
6.6032 -0.7387 -2.9981 0.9713
6.6427 -0.1480 -2.9981 0.9713
6.6295 0.4438 -2.9980 0.9713
6.5637 1.0321 -2.9980 0.9713
6.2767 2.1795 -2.9980 0.9713
6.0578 2.7295 -2.9980 0.9713
4.7244 4.6721 -2.9981 0.9713
3.6271 5.1596 -2.8458 0.9727
3.1535 5.4620 -2.8458 0.9727
2.6548 5.7211 -2.8458 0.9727
2.1351 5.9348 -2.8459 0.9727
1.5985 6.1013 -2.8459 0.9727
0.4914 6.2882 -2.8460 0.9727
-0.0703 6.3071 -2.8460 0.9727
-0.6314 6.2759 -2.8461 0.9727
-3.2750 5.3914 -2.8463 0.9727
-3.7419 5.0786 -2.8464 0.9727
-4.2188 4.7703 -2.8734 0.9724
-4.8286 4.5669 -2.9989 0.9713
-5.5620 3.6385 -2.9990 0.9713
-6.1191 2.5948 -2.9990 0.9713
-6.3259 2.0399 -2.9991 0.9713
-6.4824 1.4688 -2.9991 0.9713
-6.6402 0.2961 -2.9991 0.9713
-6.6402 -0.2961 -2.9992 0.9713
-6.5875 -0.8859 -2.9992 0.9713
-6.3261 -2.0398 -2.9992 0.9713
-5.5623 -3.6387 -2.9992 0.9713
-5.2164 -4.1193 -2.9991 0.9713
-4.8290 -4.5672 -2.9991 0.9713
-3.9426 -5.3510 -2.9991 0.9713
-3.4507 -5.6805 -2.9990 0.9713
-1.8272 -6.3902 -2.9989 0.9713
-0.0740 -6.6455 -2.9988 0.9713
1.1054 -6.5532 -2.9987 0.9713
1.6842 -6.4287 -2.9986 0.9713
2.7973 -6.0280 -2.9985 0.9713
3.3227 -5.7550 -2.9985 0.9713
3.8216 -5.4363 -2.9984 0.9713
4.2903 -5.0745 -2.9984 0.9713
4.7248 -4.6724 -2.9983 0.9713
5.1219 -4.2333 -2.9983 0.9713
5.4783 -3.7606 -2.9983 0.9713
6.0581 -2.7296 -2.9982 0.9713
6.2769 -2.1795 -2.9981 0.9713
6.4459 -1.6122 -2.9981 0.9713
6.5638 -1.0321 -2.9981 0.9713
6.6296 -0.4438 -2.9981 0.9713
6.6427 0.1481 -2.9981 0.9713
6.6032 0.7387 -2.9980 0.9713
6.1734 2.4570 -2.9980 0.9713
5.9302 2.9967 -2.9980 0.9713
4.3667 4.7213 -2.9018 0.9722
3.3936 5.3161 -2.8458 0.9727
2.9070 5.5971 -2.8458 0.9727
2.3974 5.8337 -2.8459 0.9727
1.8687 6.0240 -2.8459 0.9727
0.7710 6.2601 -2.8460 0.9727
0.2108 6.3039 -2.8460 0.9727
-0.3512 6.2978 -2.8461 0.9727
-2.0026 5.9815 -2.8462 0.9727
-3.5119 5.2402 -2.8463 0.9727
-3.9645 4.9069 -2.8464 0.9727
-5.7186 3.3872 -2.9990 0.9713
-6.4105 1.7561 -2.9991 0.9713
-6.6204 0.5916 -2.9991 0.9713
-6.3625 0.0000 -2.9991 0.9723
-6.3372 -0.5663 -2.9991 0.9723
-5.9625 -2.2204 -2.9991 0.9723
-5.1640 -3.7168 -2.9991 0.9723
-4.8126 -4.1616 -2.9991 0.9723
-2.0198 -6.0329 -2.9989 0.9723
-1.4748 -6.1887 -2.9989 0.9723
-0.9181 -6.2953 -2.9988 0.9723
-0.3542 -6.3519 -2.9988 0.9723
0.2126 -6.3581 -2.9988 0.9723
0.7776 -6.3139 -2.9987 0.9723
1.8847 -6.0757 -2.9986 0.9723
2.4180 -5.8838 -2.9986 0.9723
2.9320 -5.6451 -2.9985 0.9723
4.3191 -4.6697 -2.9984 0.9723
4.7175 -4.2667 -2.9983 0.9723
5.3991 -3.3625 -2.9983 0.9723
5.6769 -2.8686 -2.9982 0.9723
5.9096 -2.3519 -2.9982 0.9723
6.2329 -1.2669 -2.9981 0.9723
6.3587 -0.1417 -2.9981 0.9723
6.3460 0.4248 -2.9981 0.9723
6.2830 0.9880 -2.9981 0.9723
6.1701 1.5433 -2.9981 0.9723
6.0083 2.0863 -2.9981 0.9723
5.2437 3.5996 -2.9981 0.9723
4.9025 4.0521 -2.9981 0.9723
4.5224 4.4724 -2.9981 0.9723
3.9912 4.7209 -2.9140 0.9730
3.4720 4.9390 -2.8458 0.9737
3.0186 5.2284 -2.8458 0.9737
2.0438 5.6810 -2.8459 0.9737
1.5301 5.8404 -2.8459 0.9737
-0.0673 6.0374 -2.8460 0.9737
-1.6600 5.8054 -2.8462 0.9737
-4.6221 4.3716 -2.9989 0.9723
-5.3241 3.4829 -2.9989 0.9723
-6.0553 1.9526 -2.9990 0.9723
-6.2051 1.4059 -2.9991 0.9723
-6.3561 0.2834 -2.9991 0.9723
-6.3562 -0.2834 -2.9991 0.9723
-5.3244 -3.4830 -2.9991 0.9723
-4.9933 -3.9431 -2.9991 0.9723
-4.2149 -4.7659 -2.9991 0.9723
-3.3031 -5.4376 -2.9990 0.9723
-2.8060 -5.7099 -2.9990 0.9723
-2.2866 -5.9370 -2.9989 0.9723
-1.7491 -6.1168 -2.9989 0.9723
-0.6368 -6.3299 -2.9988 0.9723
0.4956 -6.3423 -2.9987 0.9723
1.6122 -6.1537 -2.9986 0.9723
2.1535 -5.9857 -2.9986 0.9723
2.6777 -5.7702 -2.9985 0.9723
3.6582 -5.2038 -2.9984 0.9723
4.1068 -4.8575 -2.9984 0.9723
5.2440 -3.5998 -2.9983 0.9723
6.1703 -1.5433 -2.9981 0.9723
6.3587 0.1418 -2.9981 0.9723
6.0953 1.8166 -2.9981 0.9723
5.6766 2.8686 -2.9981 0.9723
5.3988 3.3624 -2.9981 0.9723
5.0781 3.8296 -2.9981 0.9723
3.6886 4.7794 -2.8458 0.9737
3.2485 5.0888 -2.8458 0.9737
2.7827 5.3577 -2.8458 0.9737
2.2949 5.5842 -2.8459 0.9737
1.2684 5.9028 -2.8459 0.9737
-0.3361 6.0285 -2.8461 0.9737
-1.3997 5.8735 -2.8462 0.9737
-3.3617 5.0161 -2.8463 0.9737
-3.8504 4.7657 -2.8880 0.9733
-4.4227 4.5731 -2.9988 0.9723
-4.8123 4.1614 -2.9989 0.9723
-5.1636 3.7166 -2.9989 0.9723
-5.7409 2.7422 -2.9990 0.9723
-6.2616 1.1281 -2.9991 0.9723
-6.3372 0.5663 -2.9991 0.9723
-6.0975 0.0000 -2.9991 0.9732
-6.0734 -0.5427 -2.9991 0.9732
-6.0010 -1.0811 -2.9991 0.9732
-5.7142 -2.1279 -2.9991 0.9732
-5.5021 -2.6281 -2.9991 0.9732
-4.9489 -3.5620 -2.9991 0.9732
-4.6122 -3.9883 -2.9991 0.9732
-4.2389 -4.3830 -2.9991 0.9732
-3.3946 -5.0650 -2.9990 0.9732
-2.4427 -5.5865 -2.9989 0.9732
-1.9357 -5.7817 -2.9989 0.9732
-1.4134 -5.9310 -2.9989 0.9732
-0.8799 -6.0331 -2.9988 0.9732
0.7453 -6.0510 -2.9987 0.9732
1.2808 -5.9605 -2.9987 0.9732
2.3173 -5.6388 -2.9986 0.9732
3.2803 -5.1384 -2.9985 0.9732
3.7246 -4.8260 -2.9984 0.9732
4.1393 -4.4753 -2.9984 0.9732
5.1744 -3.2226 -2.9983 0.9732
5.6636 -2.2540 -2.9982 0.9732
5.9735 -1.2141 -2.9981 0.9732
6.0578 -0.6776 -2.9981 0.9732
6.0819 0.4072 -2.9981 0.9732
5.5574 2.5041 -2.9981 0.9732
4.3342 4.2862 -2.9981 0.9732
1.9587 5.4445 -2.8459 0.9745
0.4508 5.7687 -2.8460 0.9745
-0.0645 5.7861 -2.8461 0.9745
-1.0894 5.6831 -2.8461 0.9745
-2.0798 5.4001 -2.8462 0.9745
-3.0044 4.9460 -2.8463 0.9745
-4.0391 4.5671 -2.9988 0.9732
-5.9467 1.3474 -2.9991 0.9732
-6.0915 0.2717 -2.9991 0.9732
-6.0915 -0.2716 -2.9991 0.9732
-5.9469 -1.3473 -2.9991 0.9732
-5.8033 -1.8713 -2.9991 0.9732
-5.3796 -2.8706 -2.9991 0.9732
-5.1027 -3.3380 -2.9991 0.9732
-4.7853 -3.7789 -2.9991 0.9732
-3.6168 -4.9088 -2.9990 0.9732
-3.1656 -5.2112 -2.9990 0.9732
-2.1914 -5.6897 -2.9989 0.9732
-1.6762 -5.8621 -2.9989 0.9732
-1.1478 -5.9880 -2.9989 0.9732
-0.0679 -6.0964 -2.9988 0.9732
1.5451 -5.8975 -2.9986 0.9732
2.5662 -5.5300 -2.9985 0.9732
4.6987 -3.8836 -2.9983 0.9732
5.0257 -3.4499 -2.9983 0.9732
5.3127 -2.9888 -2.9982 0.9732
5.5576 -2.5041 -2.9982 0.9732
5.7584 -1.9995 -2.9982 0.9732
5.9135 -1.4790 -2.9982 0.9732
6.0216 -0.9468 -2.9981 0.9732
6.0819 -0.4071 -2.9981 0.9732
6.0940 0.1358 -2.9981 0.9732
5.9733 1.2142 -2.9981 0.9732
5.6634 2.2540 -2.9981 0.9732
4.8667 3.6703 -2.9981 0.9732
4.5208 4.0888 -2.9981 0.9732
4.1389 4.4750 -2.9981 0.9732
3.6422 4.7193 -2.9321 0.9738
3.1133 4.8769 -2.8458 0.9745
2.6669 5.1347 -2.8458 0.9745
2.1993 5.3518 -2.8459 0.9745
1.7143 5.5263 -2.8459 0.9745
1.2156 5.6571 -2.8460 0.9745
-0.8351 5.7260 -2.8461 0.9745
-2.7811 5.0748 -2.8463 0.9745
-3.2218 4.8072 -2.8463 0.9745
-3.8316 4.7425 -2.9988 0.9732
-4.2386 4.3827 -2.9988 0.9732
-4.6119 3.9881 -2.9989 0.9732
-5.7140 2.1279 -2.9990 0.9732
-6.0733 0.5428 -2.9991 0.9732
-5.8499 0.0000 -2.9991 0.9740
-5.7573 -1.0372 -2.9991 0.9740
-5.6421 -1.5455 -2.9991 0.9740
-5.4822 -2.0416 -2.9991 0.9740
-4.0668 -4.2050 -2.9990 0.9740
-3.6763 -4.5502 -2.9990 0.9740
-3.2567 -4.8593 -2.9990 0.9740
-1.8571 -5.5469 -2.9989 0.9740
-1.3560 -5.6901 -2.9989 0.9740
-0.8442 -5.7881 -2.9988 0.9740
-0.3257 -5.8402 -2.9988 0.9740
1.7329 -5.5863 -2.9986 0.9741
2.6959 -5.1904 -2.9985 0.9741
3.5733 -4.6301 -2.9984 0.9741
4.3376 -3.9231 -2.9984 0.9741
4.9643 -3.0917 -2.9983 0.9741
5.4337 -2.1625 -2.9982 0.9741
5.6046 -1.6703 -2.9982 0.9741
5.8118 -0.6501 -2.9981 0.9741
5.8466 -0.1303 -2.9981 0.9741
5.8350 0.3907 -2.9981 0.9741
5.7770 0.9084 -2.9981 0.9741
5.5244 1.9183 -2.9981 0.9741
5.0968 2.8674 -2.9981 0.9741
4.8214 3.3097 -2.9981 0.9741
4.5077 3.7257 -2.9981 0.9741
3.7757 4.4660 -2.9982 0.9741
2.7755 4.8074 -2.8458 0.9754
2.3366 5.0354 -2.8459 0.9754
1.4069 5.3700 -2.8459 0.9754
0.9233 5.4740 -2.8460 0.9754
0.4325 5.5345 -2.8460 0.9754
-0.0618 5.5511 -2.8461 0.9754
-1.5263 5.3378 -2.8462 0.9754
-2.8960 4.7676 -2.8598 0.9752
-4.5907 3.6253 -2.9989 0.9740
-5.3856 2.2837 -2.9990 0.9740
-5.5675 1.7953 -2.9990 0.9740
-5.7052 1.2927 -2.9990 0.9740
-5.7977 0.7798 -2.9991 0.9740
-5.7978 -0.7797 -2.9991 0.9740
-5.7054 -1.2926 -2.9991 0.9740
-5.1611 -2.7540 -2.9991 0.9740
-4.8955 -3.2024 -2.9991 0.9740
-4.2501 -4.0196 -2.9991 0.9740
-3.8754 -4.3819 -2.9990 0.9740
-3.4700 -4.7095 -2.9990 0.9740
-3.0370 -4.9996 -2.9990 0.9740
-2.5799 -5.2500 -2.9990 0.9740
-2.1024 -5.4587 -2.9989 0.9740
-0.5855 -5.8200 -2.9988 0.9740
-0.0652 -5.8489 -2.9988 0.9741
0.4557 -5.8314 -2.9987 0.9741
1.4824 -5.6580 -2.9986 0.9741
1.9800 -5.5036 -2.9986 0.9741
4.1585 -4.1124 -2.9984 0.9741
4.5080 -3.7259 -2.9983 0.9741
5.0971 -2.8675 -2.9983 0.9741
5.3320 -2.4024 -2.9982 0.9741
5.5246 -1.9183 -2.9982 0.9741
5.6734 -1.4190 -2.9982 0.9741
5.7771 -0.9083 -2.9982 0.9741
5.8350 -0.3906 -2.9981 0.9741
5.8466 0.1304 -2.9981 0.9741
5.8118 0.6502 -2.9981 0.9741
5.7308 1.1649 -2.9981 0.9741
5.6044 1.6703 -2.9981 0.9741
5.2195 2.6375 -2.9981 0.9741
4.9640 3.0917 -2.9981 0.9741
4.6692 3.5212 -2.9981 0.9741
2.5586 4.9262 -2.8459 0.9754
1.6447 5.3020 -2.8459 0.9754
0.6786 5.5097 -2.8460 0.9754
0.1855 5.5483 -2.8460 0.9754
-0.3091 5.5429 -2.8461 0.9754
-1.2870 5.4004 -2.8462 0.9754
-2.2242 5.0869 -2.8462 0.9754
-2.6681 4.8688 -2.8463 0.9754
-3.6760 4.5499 -2.9988 0.9740
-4.7477 3.4172 -2.9989 0.9740
-5.0330 2.9811 -2.9989 0.9740
-5.6420 1.5455 -2.9990 0.9740
-5.4183 -1.4842 -2.9991 0.9748
-4.2494 -3.6746 -2.9990 0.9748
-3.5305 -4.3697 -2.9990 0.9748
-2.6997 -4.9264 -2.9990 0.9748
-2.2505 -5.1471 -2.9989 0.9748
-1.7835 -5.3269 -2.9989 0.9749
-1.3022 -5.4644 -2.9989 0.9749
0.1877 -5.6141 -2.9987 0.9749
1.1801 -5.4917 -2.9987 0.9749
2.1350 -5.1953 -2.9986 0.9749
3.4316 -4.4464 -2.9984 0.9749
3.8137 -4.1233 -2.9984 0.9749
4.4843 -3.3817 -2.9983 0.9749
4.7674 -2.9691 -2.9983 0.9749
5.0127 -2.5330 -2.9983 0.9749
5.3823 -1.6040 -2.9982 0.9749
5.5037 -1.1187 -2.9982 0.9749
5.5814 -0.6243 -2.9982 0.9749
5.6148 -0.1251 -2.9981 0.9749
5.6036 0.3752 -2.9981 0.9749
5.4483 1.3627 -2.9981 0.9749
3.6260 4.2889 -2.9982 0.9749
3.2299 4.5946 -2.9982 0.9749
2.2440 4.8357 -2.8459 0.9761
1.8047 5.0163 -2.8459 0.9761
0.8867 5.2569 -2.8460 0.9761
-0.0594 5.3310 -2.8461 0.9761
-0.5336 5.3046 -2.8461 0.9761
-1.4658 5.1261 -2.8462 0.9761
-1.9162 4.9754 -2.8462 0.9761
-2.3514 4.7851 -2.8463 0.9761
-2.8833 4.7466 -2.9648 0.9751
-3.7214 4.2079 -2.9988 0.9749
-4.0812 3.8600 -2.9988 0.9749
-4.9562 2.6447 -2.9989 0.9748
-5.1719 2.1931 -2.9990 0.9748
-5.4789 1.2414 -2.9990 0.9748
-5.5677 0.7488 -2.9990 0.9748
-5.6123 0.2503 -2.9991 0.9748
-5.6123 -0.2502 -2.9991 0.9748
-5.3468 -1.7241 -2.9991 0.9748
-4.9564 -2.6448 -2.9991 0.9748
-4.7013 -3.0754 -2.9991 0.9748
-4.0815 -3.8602 -2.9990 0.9748
-3.3323 -4.5226 -2.9990 0.9748
-2.9165 -4.8012 -2.9990 0.9748
-2.4776 -5.0417 -2.9989 0.9748
-1.5444 -5.4010 -2.9989 0.9749
1.9015 -5.2853 -2.9986 0.9749
3.2302 -4.5949 -2.9985 0.9749
3.6263 -4.2892 -2.9984 0.9749
3.9936 -3.9493 -2.9984 0.9749
5.5480 -0.8723 -2.9982 0.9749
5.6036 -0.3751 -2.9982 0.9749
5.5813 0.6244 -2.9981 0.9749
5.3822 1.6041 -2.9981 0.9749
5.0125 2.5329 -2.9981 0.9749
4.7672 2.9691 -2.9981 0.9749
4.4840 3.3816 -2.9981 0.9749
4.1653 3.7673 -2.9982 0.9749
2.4646 4.7451 -2.8545 0.9760
1.5795 5.0917 -2.8459 0.9761
0.6517 5.2912 -2.8460 0.9761
0.1781 5.3283 -2.8460 0.9761
-0.2968 5.3231 -2.8461 0.9761
-0.7694 5.2756 -2.8461 0.9761
-1.2359 5.1863 -2.8462 0.9761
-2.6074 4.7579 -2.8963 0.9757
-3.1273 4.6663 -2.9987 0.9749
-3.9052 4.0380 -2.9988 0.9749
-4.5594 3.2817 -2.9989 0.9748
-5.5288 0.9961 -2.9990 0.9748
-5.3998 0.0001 -2.9990 0.9756
-5.3784 -0.4806 -2.9991 0.9756
-5.2080 -1.4266 -2.9991 0.9756
-4.8725 -2.3274 -2.9991 0.9756
-4.6460 -2.7518 -2.9991 0.9756
-3.0062 -4.4855 -2.9990 0.9756
-2.5950 -4.7352 -2.9989 0.9756
-2.1632 -4.9473 -2.9989 0.9756
-1.2517 -5.2523 -2.9988 0.9756
-0.3006 -5.3909 -2.9988 0.9756
0.1804 -5.3962 -2.9987 0.9756
0.6600 -5.3587 -2.9987 0.9756
1.1342 -5.2786 -2.9986 0.9756
1.5996 -5.1566 -2.9986 0.9756
4.0039 -3.6212 -2.9984 0.9756
4.3103 -3.2505 -2.9983 0.9756
4.5824 -2.8539 -2.9983 0.9756
5.2901 -1.0752 -2.9982 0.9756
5.3969 -0.1202 -2.9982 0.9756
5.3327 0.8386 -2.9981 0.9756
5.2369 1.3099 -2.9981 0.9756
5.0995 1.7708 -2.9981 0.9756
4.9217 2.2177 -2.9981 0.9756
4.4505 3.0551 -2.9982 0.9756
4.1610 3.4392 -2.9982 0.9756
3.8384 3.7959 -2.9982 0.9756
3.1046 4.4164 -2.9982 0.9756
2.6992 4.6752 -2.9983 0.9756
2.1963 4.7331 -2.8979 0.9764
1.2987 4.9570 -2.8460 0.9768
0.8523 5.0529 -2.8460 0.9768
-0.0571 5.1241 -2.8461 0.9768
-0.5129 5.0988 -2.8461 0.9768
-2.8031 4.6146 -2.9987 0.9756
-3.5770 4.0446 -2.9988 0.9756
-4.5186 2.9560 -2.9989 0.9756
-4.9712 2.1080 -2.9990 0.9756
-5.3945 0.2406 -2.9990 0.9756
-5.3517 -0.7197 -2.9991 0.9756
-5.1393 -1.6572 -2.9991 0.9756
-4.9714 -2.1080 -2.9991 0.9756
-4.7640 -2.5421 -2.9991 0.9756
-4.5188 -2.9560 -2.9990 0.9756
-4.2378 -3.3465 -2.9990 0.9756
-2.8033 -4.6149 -2.9990 0.9756
-2.3814 -4.8461 -2.9989 0.9756
0.4206 -5.3828 -2.9987 0.9756
2.6994 -4.6755 -2.9985 0.9756
3.8386 -3.7961 -2.9984 0.9756
4.1612 -3.4393 -2.9984 0.9756
4.4508 -3.0552 -2.9983 0.9756
5.0997 -1.7707 -2.9982 0.9756
5.3328 -0.8385 -2.9982 0.9756
5.0156 1.9962 -2.9981 0.9756
4.8180 2.4347 -2.9981 0.9756
4.5822 2.8539 -2.9982 0.9756
3.6655 3.9631 -2.9982 0.9756
1.9520 4.7501 -2.8522 0.9768
1.5182 4.8941 -2.8459 0.9768
1.0766 5.0099 -2.8460 0.9768
0.6264 5.0859 -2.8460 0.9768
0.1712 5.1215 -2.8461 0.9768
-0.2853 5.1165 -2.8461 0.9768
-1.6270 4.8596 -2.8462 0.9768
-2.0802 4.7575 -2.8838 0.9765
-2.5947 4.7348 -2.9987 0.9756
-3.0059 4.4851 -2.9987 0.9756
-3.3932 4.1999 -2.9988 0.9756
-4.0842 3.5318 -2.9988 0.9756
-4.3824 3.1543 -2.9989 0.9756
-4.6458 2.7518 -2.9989 0.9756
-4.8723 2.3274 -2.9989 0.9756
-5.0602 1.8845 -2.9990 0.9756
-5.3142 0.9574 -2.9990 0.9756
-5.1945 0.0001 -2.9990 0.9763
-4.8679 -1.8128 -2.9990 0.9763
-4.4693 -2.6471 -2.9990 0.9763
-3.6111 -3.7338 -2.9990 0.9763
-3.2644 -4.0404 -2.9990 0.9763
-2.4963 -4.5551 -2.9989 0.9763
-2.0809 -4.7591 -2.9989 0.9763
-1.2041 -5.0526 -2.9988 0.9763
-0.2892 -5.1859 -2.9988 0.9763
