ply
format ascii 1.0
element vertex 1586
property float32 x
property float32 y
property float32 z
property float32 I
end_header
10.4787 -5.8952 -1.7101 0.9526
10.2877 -6.4072 -1.9299 0.9521
9.6548 -6.6277 -1.8648 0.9537
10.4705 10.3545 -2.8497 0.9418
9.5049 11.2424 -2.8489 0.9418
6.1913 13.3420 -2.8464 0.9418
4.9776 13.8355 -2.8454 0.9419
3.7251 14.2188 -2.8444 0.9419
1.1443 14.6435 -2.8424 0.9419
-0.1636 14.6819 -2.8414 0.9419
-1.4691 14.6038 -2.8404 0.9420
-2.7621 14.4099 -2.8393 0.9420
-4.0323 14.1019 -2.8383 0.9420
-5.2696 13.6823 -2.8374 0.9420
-7.6071 12.5230 -2.8355 0.9420
-8.6889 11.7927 -2.8346 0.9421
-10.6362 10.0597 -2.8331 0.9421
-11.4866 9.0709 -2.8324 0.9421
9.9976 10.8093 -2.8493 0.9418
8.9934 11.6530 -2.8486 0.9418
5.5899 13.6023 -2.8459 0.9418
4.3556 14.0412 -2.8449 0.9419
3.0875 14.3681 -2.8439 0.9419
1.7958 14.5806 -2.8429 0.9419
-3.4007 14.2700 -2.8388 0.9420
-8.1561 12.1698 -2.8351 0.9421
-11.0724 9.5747 -2.8327 0.9421
-12.5892 7.4566 -2.8315 0.9421
-13.2006 6.3054 -2.8310 0.9421
-14.0915 -1.2592 -2.9826 0.9438
-13.9241 -2.5085 -2.9827 0.9438
-13.6464 -3.7381 -2.9829 0.9438
-13.2608 -4.9384 -2.9832 0.9438
-12.7703 -6.0998 -2.9836 0.9438
-11.4902 -8.2701 -2.9846 0.9438
-10.7106 -9.2618 -2.9852 0.9438
-9.8460 -10.1806 -2.9858 0.9437
-6.8118 -12.4300 -2.9882 0.9437
-3.2889 -13.8006 -2.9909 0.9437
2.9855 -13.8934 -2.9959 0.9436
4.2117 -13.5770 -2.9968 0.9435
5.4050 -13.1523 -2.9978 0.9435
6.5562 -12.6229 -2.9987 0.9435
7.6559 -11.9928 -2.9996 0.9435
10.5605 -9.5514 -3.0019 0.9435
11.3712 -8.5754 -3.0025 0.9434
13.2393 -5.2691 -3.0041 0.9434
13.9667 -2.8388 -3.0047 0.9434
14.0800 2.2140 -3.0048 0.9434
13.8263 3.4582 -3.0046 0.9434
12.3300 5.5557 -2.8511 0.9462
11.7849 6.6301 -2.8507 0.9462
10.4188 8.6114 -2.8496 0.9462
8.7229 10.3175 -2.8483 0.9463
7.7679 11.0500 -2.8476 0.9463
3.4191 13.0506 -2.8442 0.9463
-0.1501 13.4770 -2.8414 0.9464
-2.5356 13.2281 -2.8395 0.9464
-3.6046 7.3352 -1.7230 0.9671
-7.9773 10.8269 -2.8352 0.9465
-8.9070 10.0713 -2.8344 0.9465
-9.7656 9.2363 -2.8338 0.9465
-11.2438 7.3554 -2.8326 0.9466
-13.4675 4.3427 -2.9832 0.9438
-13.7993 3.1265 -2.9829 0.9438
-14.0219 1.8858 -2.9827 0.9438
-14.1335 -0.6302 -2.9826 0.9438
-14.0217 -1.8857 -2.9827 0.9438
-13.4670 -4.3425 -2.9831 0.9438
-13.0285 -5.5245 -2.9834 0.9438
-12.4867 -6.6631 -2.9838 0.9438
-11.8461 -7.7493 -2.9843 0.9438
-9.3838 -10.6104 -2.9862 0.9437
-7.3577 -12.1125 -2.9878 0.9437
-5.0966 -13.2329 -2.9895 0.9437
-3.8998 -13.6383 -2.9905 0.9437
-2.6713 -13.9357 -2.9914 0.9436
-1.4208 -14.1228 -2.9924 0.9436
-0.1582 -14.1979 -2.9934 0.9436
2.3632 -14.0103 -2.9954 0.9436
4.8130 -13.3780 -2.9973 0.9435
5.9865 -12.9005 -2.9982 0.9435
7.1130 -12.3201 -2.9991 0.9435
8.1837 -11.6414 -3.0000 0.9435
10.9767 -9.0724 -3.0022 0.9434
11.7430 -8.0611 -3.0028 0.9434
12.4162 -6.9852 -3.0034 0.9434
12.9906 -5.8533 -3.0039 0.9434
13.8258 -3.4580 -3.0045 0.9434
14.2215 -0.9520 -3.0049 0.9434
14.2500 0.3176 -3.0049 0.9434
14.1650 1.5846 -3.0049 0.9434
13.6579 4.0705 -3.0045 0.9434
12.5660 5.0012 -2.8513 0.9462
10.7932 8.1395 -2.8499 0.9462
10.0238 9.0660 -2.8493 0.9462
8.2536 10.6945 -2.8480 0.9463
7.2670 11.3836 -2.8472 0.9463
6.2232 11.9818 -2.8464 0.9463
5.1305 12.4843 -2.8455 0.9463
3.9977 12.8874 -2.8446 0.9463
2.8339 13.1879 -2.8437 0.9464
-0.7502 13.4547 -2.8409 0.9464
-1.9441 13.3301 -2.8400 0.9464
-3.1218 13.0998 -2.8390 0.9464
-6.4658 11.7986 -2.8364 0.9465
-7.4881 11.1730 -2.8356 0.9465
-10.1662 8.7911 -2.8334 0.9465
-11.5593 6.8466 -2.8323 0.9466
-12.8716 4.7935 -2.8956 0.9454
-13.6469 3.7383 -2.9830 0.9438
-13.0713 0.0000 -2.9834 0.9478
-13.0195 -1.1634 -2.9835 0.9478
-11.7984 -5.6356 -2.9844 0.9478
-11.2516 -6.6643 -2.9848 0.9478
-9.0962 -9.4054 -2.9864 0.9477
-7.2879 -10.8742 -2.9878 0.9477
-4.1594 -12.4234 -2.9903 0.9477
-3.0380 -12.7481 -2.9911 0.9477
1.6039 -13.0226 -2.9948 0.9476
2.7574 -12.8321 -2.9957 0.9476
3.8898 -12.5395 -2.9966 0.9476
4.9919 -12.1470 -2.9975 0.9475
10.5007 -7.9190 -3.0019 0.9475
11.1659 -6.9542 -3.0024 0.9475
11.7424 -5.9336 -3.0029 0.9475
13.1584 -0.2932 -3.0041 0.9474
13.1322 0.8791 -3.0041 0.9474
13.0015 2.0444 -3.0040 0.9474
11.3858 5.1302 -2.8503 0.9501
10.8825 6.1224 -2.8500 0.9501
10.2928 7.0656 -2.8495 0.9501
9.6213 7.9522 -2.8490 0.9501
8.8735 8.7752 -2.8484 0.9501
7.1737 10.2048 -2.8471 0.9501
5.2480 11.3091 -2.8456 0.9501
2.0719 12.2830 -2.8431 0.9502
0.9701 12.4149 -2.8422 0.9502
-0.1387 12.4481 -2.8414 0.9502
-2.3421 12.2188 -2.8396 0.9502
-3.4194 11.9583 -2.8388 0.9503
-4.4688 11.6031 -2.8380 0.9503
-7.3695 10.0021 -2.8357 0.9503
-9.0220 8.5330 -2.8343 0.9503
-10.3879 6.7955 -2.8332 0.9503
-10.9498 5.8430 -2.8328 0.9504
-11.4248 4.8446 -2.8324 0.9504
-13.0583 -0.5822 -2.9834 0.9478
-12.9549 -1.7422 -2.9835 0.9478
-12.4423 -4.0121 -2.9839 0.9478
-12.0371 -5.1042 -2.9842 0.9478
-11.5365 -6.1560 -2.9846 0.9478
-9.5051 -8.9898 -2.9861 0.9477
-5.7757 -11.7532 -2.9890 0.9477
-3.6024 -12.5982 -2.9907 0.9477
-0.1461 -13.1142 -2.9934 0.9476
1.0220 -13.0792 -2.9943 0.9476
2.1827 -12.9403 -2.9953 0.9476
3.3268 -12.6984 -2.9962 0.9476
4.4452 -12.3556 -2.9970 0.9476
8.4868 -10.0382 -3.0003 0.9475
9.3487 -9.2451 -3.0009 0.9475
10.1366 -8.3781 -3.0016 0.9475
10.8441 -7.4440 -3.0021 0.9475
11.9959 -5.4050 -3.0031 0.9474
12.4308 -4.3164 -3.0034 0.9474
13.0013 -2.0443 -3.0039 0.9474
13.1321 -0.8791 -3.0040 0.9474
13.1584 0.2933 -3.0041 0.9474
13.0799 1.4632 -3.0040 0.9474
12.8972 2.6215 -3.0039 0.9474
12.6118 3.7588 -3.0037 0.9474
11.1452 5.6320 -2.8502 0.9501
10.5982 6.6006 -2.8497 0.9501
9.9669 7.5164 -2.8493 0.9501
7.6221 9.8763 -2.8474 0.9501
5.7473 11.0656 -2.8460 0.9501
4.7383 11.5300 -2.8452 0.9501
3.6922 11.9026 -2.8444 0.9502
1.5224 12.3612 -2.8427 0.9502
0.4160 12.4438 -2.8418 0.9502
-0.6930 12.4277 -2.8409 0.9502
-1.7958 12.3129 -2.8401 0.9502
-3.9481 11.7924 -2.8384 0.9503
-4.9806 11.3909 -2.8376 0.9503
-10.0758 7.2521 -2.8335 0.9503
-10.6795 6.3255 -2.8330 0.9503
-12.2523 4.5629 -2.9841 0.9478
-12.6086 3.4538 -2.9838 0.9478
-12.8650 2.3178 -2.9836 0.9478
-13.0196 1.1635 -2.9835 0.9478
-12.1406 0.0000 -2.9842 0.9512
-12.0925 -1.0805 -2.9842 0.9512
-11.3794 -4.2377 -2.9847 0.9512
-9.1901 -7.9470 -2.9864 0.9512
-8.4479 -8.7351 -2.9869 0.9512
-7.6385 -9.4543 -2.9876 0.9512
-4.8729 -11.1445 -2.9897 0.9511
-3.8626 -11.5370 -2.9905 0.9511
-2.8212 -11.8382 -2.9913 0.9511
-1.7568 -12.0457 -2.9922 0.9511
-0.6779 -12.1578 -2.9930 0.9511
4.6349 -11.2784 -2.9972 0.9510
9.7488 -7.3519 -3.0013 0.9509
10.3662 -6.4561 -3.0018 0.9509
10.9013 -5.5087 -3.0022 0.9509
11.3497 -4.5171 -3.0026 0.9509
11.7079 -3.4893 -3.0029 0.9509
11.9728 -2.4336 -3.0031 0.9509
12.1425 -1.3583 -3.0032 0.9509
12.0699 1.8979 -3.0032 0.9509
11.8525 2.9645 -3.0031 0.9509
10.5699 4.7627 -2.8497 0.9534
8.2383 8.1470 -2.8479 0.9534
6.6604 9.4746 -2.8467 0.9534
3.9177 10.8893 -2.8445 0.9534
2.9321 11.1918 -2.8438 0.9535
1.9238 11.4052 -2.8430 0.9535
0.9008 11.5279 -2.8422 0.9535
-1.1567 11.4984 -2.8406 0.9535
-2.1749 11.3466 -2.8398 0.9535
-3.1753 11.1049 -2.8390 0.9535
-3.5987 7.3230 -2.0056 0.9669
-6.8442 9.2890 -2.8361 0.9536
-7.6420 8.6410 -2.8354 0.9536
-10.1699 5.4268 -2.8334 0.9536
-11.5567 3.7266 -2.9847 0.9512
-11.8416 2.6830 -2.9844 0.9512
-12.0327 1.6183 -2.9843 0.9512
-12.1286 0.5409 -2.9842 0.9512
-11.1799 -4.7406 -2.9849 0.9512
-10.7148 -5.7176 -2.9852 0.9512
-9.5342 -7.5290 -2.9861 0.9512
-5.3638 -10.9150 -2.9893 0.9511
-4.3721 -11.3520 -2.9901 0.9511
-3.3453 -11.6992 -2.9909 0.9511
-2.2914 -11.9538 -2.9917 0.9511
-1.2187 -12.1137 -2.9926 0.9511
-0.1357 -12.1776 -2.9934 0.9511
0.9490 -12.1448 -2.9943 0.9511
2.0268 -12.0155 -2.9951 0.9510
5.1334 -11.0622 -2.9976 0.9510
7.0170 -9.9818 -2.9991 0.9510
8.6794 -8.5833 -3.0004 0.9510
9.4108 -7.7782 -3.0010 0.9510
10.0675 -6.9110 -3.0015 0.9509
10.6443 -5.9884 -3.0020 0.9509
11.1366 -5.0179 -3.0024 0.9509
11.5403 -4.0072 -3.0027 0.9509
11.8521 -2.9644 -3.0030 0.9509
12.0697 -1.8979 -3.0032 0.9509
12.1912 -0.8161 -3.0033 0.9509
12.1427 1.3584 -3.0033 0.9509
11.9731 2.4337 -3.0032 0.9509
9.8391 6.1278 -2.8491 0.9534
9.2532 6.9782 -2.8487 0.9534
6.2310 9.7606 -2.8464 0.9534
5.3362 10.2740 -2.8457 0.9534
3.4282 11.0516 -2.8442 0.9535
1.4136 11.4779 -2.8426 0.9535
0.3863 11.5549 -2.8418 0.9535
-7.2503 8.9739 -2.8357 0.9536
-8.0185 8.2911 -2.8351 0.9536
-9.9187 5.8749 -2.8336 0.9536
-11.3798 4.2379 -2.9848 0.9512
-11.7108 3.2079 -2.9845 0.9512
-12.0927 1.0806 -2.9842 0.9512
-11.1485 -2.0085 -2.9849 0.9542
-10.9260 -2.9929 -2.9851 0.9542
-10.6171 -3.9538 -2.9853 0.9542
-10.2241 -4.8836 -2.9856 0.9542
-9.7500 -5.7749 -2.9860 0.9542
-8.5742 -7.4144 -2.9869 0.9542
-7.1264 -8.8204 -2.9880 0.9542
-5.4520 -9.9486 -2.9893 0.9542
-2.6318 -11.0436 -2.9915 0.9541
-1.6389 -11.2370 -2.9923 0.9541
1.3892 -11.2796 -2.9947 0.9541
5.2437 -10.0959 -2.9977 0.9540
10.5852 -4.2128 -3.0020 0.9540
10.9191 -3.2542 -3.0023 0.9540
11.3699 0.7611 -3.0027 0.9540
11.2567 1.7701 -3.0026 0.9540
10.7633 3.7374 -3.0022 0.9540
8.9121 6.1179 -2.8484 0.9563
6.9755 8.2507 -2.8469 0.9563
6.2122 8.8370 -2.8463 0.9563
1.7945 10.6386 -2.8429 0.9564
-1.0791 10.7262 -2.8406 0.9564
-2.0289 10.5848 -2.8399 0.9564
-2.9622 10.3595 -2.8391 0.9564
-3.8715 10.0522 -2.8384 0.9564
-5.5898 9.2021 -2.8370 0.9564
-7.1297 8.0617 -2.8358 0.9565
-9.0014 5.8885 -2.8343 0.9565
-9.4885 5.0633 -2.8339 0.9565
-10.4313 4.4233 -2.9856 0.9542
-11.0484 2.5033 -2.9851 0.9542
-11.2268 1.5099 -2.9849 0.9542
-11.3163 0.5046 -2.9848 0.9542
-11.0482 -2.5032 -2.9850 0.9542
-9.9970 -5.3345 -2.9858 0.9542
-9.4837 -6.2039 -2.9862 0.9542
-8.8952 -7.0245 -2.9866 0.9542
-8.2361 -7.7896 -2.9871 0.9542
-6.7271 -9.1301 -2.9883 0.9542
-5.8891 -9.6947 -2.9889 0.9542
-5.0040 -10.1828 -2.9896 0.9542
-0.1266 -11.3596 -2.9935 0.9541
0.8853 -11.3288 -2.9943 0.9541
1.8906 -11.2080 -2.9950 0.9541
3.8498 -10.7008 -2.9966 0.9540
8.0952 -8.0055 -3.0000 0.9540
8.7772 -7.2546 -3.0005 0.9540
9.3896 -6.4456 -3.0010 0.9540
9.9275 -5.5850 -3.0014 0.9540
10.7629 -3.7373 -3.0021 0.9540
11.0537 -2.7647 -3.0024 0.9540
11.3698 -0.7611 -3.0026 0.9540
11.3246 1.2669 -3.0026 0.9540
10.9195 3.2544 -3.0024 0.9540
10.5856 4.2130 -3.0021 0.9540
9.6500 4.8764 -2.8490 0.9563
8.6301 6.5083 -2.8482 0.9563
8.0153 7.2494 -2.8477 0.9563
7.3369 7.9326 -2.8472 0.9563
4.9772 9.5829 -2.8454 0.9563
4.1036 9.9855 -2.8447 0.9563
3.1977 10.3085 -2.8440 0.9563
0.3604 10.7786 -2.8417 0.9564
-0.6002 10.7650 -2.8410 0.9564
-1.5556 10.6661 -2.8402 0.9564
-3.4203 10.2159 -2.8388 0.9564
-4.3149 9.8685 -2.8381 0.9564
-3.8678 7.0579 -2.1207 0.9673
-5.9935 8.9429 -2.8367 0.9564
-6.7642 8.3722 -2.8361 0.9565
-9.2542 5.4813 -2.8341 0.9565
-10.0108 4.7818 -2.9233 0.9551
-10.6175 3.9540 -2.9854 0.9542
-11.2827 1.0082 -2.9849 0.9542
-10.6106 0.0000 -2.9854 0.9569
-10.4429 -1.8814 -2.9855 0.9569
-9.9451 -3.7036 -2.9858 0.9569
-9.1327 -5.4093 -2.9865 0.9569
-8.0312 -6.9448 -2.9873 0.9568
-7.3824 -7.6334 -2.9878 0.9568
-5.1064 -9.3181 -2.9896 0.9568
-3.3749 -10.0804 -2.9909 0.9568
0.3556 -10.6348 -2.9938 0.9567
1.3010 -10.5636 -2.9946 0.9567
2.2366 -10.4084 -2.9953 0.9567
3.1549 -10.1705 -2.9961 0.9567
5.7337 -8.9817 -2.9981 0.9567
6.5118 -8.4375 -2.9987 0.9567
7.2383 -7.8260 -2.9993 0.9567
9.5202 -4.8108 -3.0011 0.9566
9.9117 -3.9447 -3.0015 0.9566
10.2243 -3.0472 -3.0017 0.9566
10.6038 -1.1862 -3.0020 0.9566
10.6463 0.7127 -3.0021 0.9566
10.3505 2.5888 -3.0019 0.9566
9.7260 4.3823 -3.0014 0.9566
8.8231 4.9638 -2.8483 0.9588
8.3452 5.7287 -2.8480 0.9588
7.1950 7.1153 -2.8471 0.9588
4.2561 9.1716 -2.8448 0.9589
2.5613 9.7763 -2.8435 0.9589
1.6806 9.9631 -2.8428 0.9589
-0.1125 10.0982 -2.8414 0.9589
-1.0106 10.0456 -2.8407 0.9589
-1.9002 9.9134 -2.8400 0.9589
-2.7743 9.7025 -2.8393 0.9589
-3.6260 9.4149 -2.8386 0.9589
-7.3223 6.9254 -2.8356 0.9590
-8.9775 4.7906 -2.8630 0.9586
-9.7710 4.1433 -2.9861 0.9569
-10.1001 3.2569 -2.9858 0.9569
-10.3492 2.3448 -2.9856 0.9569
-10.5163 1.4143 -2.9855 0.9569
-10.6001 0.4727 -2.9854 0.9569
-9.7707 -4.1431 -2.9860 0.9569
-7.7145 -7.2963 -2.9875 0.9568
-6.3009 -8.5516 -2.9886 0.9568
-4.6868 -9.5373 -2.9899 0.9568
-3.8202 -9.9189 -2.9906 0.9568
-2.0020 -10.4440 -2.9920 0.9568
-1.0647 -10.5834 -2.9927 0.9568
-0.1185 -10.6388 -2.9935 0.9568
3.6053 -10.0210 -2.9964 0.9567
4.4839 -9.6627 -2.9971 0.9567
6.1288 -8.7183 -2.9984 0.9567
6.8818 -8.1399 -2.9990 0.9567
8.7923 -6.0356 -3.0005 0.9567
9.7256 -4.3821 -3.0013 0.9566
10.3503 -2.5887 -3.0018 0.9566
10.6039 1.1862 -3.0021 0.9566
9.9120 3.9449 -3.0016 0.9566
9.3645 4.7321 -2.9520 0.9573
8.0812 6.0943 -2.8478 0.9588
5.4423 8.5253 -2.8457 0.9588
2.1230 9.8796 -2.8431 0.9589
1.2349 10.0269 -2.8424 0.9589
-1.4569 9.9894 -2.8403 0.9589
-3.2034 9.5682 -2.8389 0.9589
-4.0414 9.2429 -2.8383 0.9589
-3.8416 7.0101 -2.2491 0.9673
-5.6137 8.3762 -2.8370 0.9590
-6.3356 7.8417 -2.8364 0.9590
-7.0071 7.2453 -2.8359 0.9590
-7.6229 6.5918 -2.8354 0.9590
-8.6682 5.1342 -2.8346 0.9590
-9.9454 3.7037 -2.9859 0.9569
-10.2348 2.8036 -2.9857 0.9569
-10.5687 0.9444 -2.9854 0.9569
-9.9735 0.0000 -2.9859 0.9592
-9.9340 -0.8877 -2.9859 0.9592
-9.6199 -2.6352 -2.9861 0.9592
-9.0017 -4.2997 -2.9866 0.9592
-8.5841 -5.0844 -2.9869 0.9592
-8.0986 -5.8289 -2.9873 0.9592
-6.9388 -7.1747 -2.9882 0.9592
-6.2738 -7.7651 -2.9887 0.9592
-3.1719 -9.4740 -2.9911 0.9591
-2.3166 -9.7209 -2.9918 0.9591
-0.5566 -9.9822 -2.9931 0.9591
1.2227 -9.9274 -2.9945 0.9591
2.1019 -9.7815 -2.9952 0.9591
3.8046 -9.2579 -2.9966 0.9591
6.1191 -7.9288 -2.9984 0.9590
7.4305 -6.7205 -2.9995 0.9590
8.9457 -4.5204 -3.0007 0.9590
9.3135 -3.7067 -3.0010 0.9590
9.6072 -2.8632 -3.0012 0.9590
9.9637 -1.1146 -3.0015 0.9590
10.0235 -0.2233 -3.0016 0.9590
9.9041 1.5574 -3.0015 0.9590
9.7258 2.4326 -3.0014 0.9590
9.4701 3.2884 -3.0012 0.9590
7.3304 6.0588 -2.8472 0.9611
6.7610 6.6861 -2.8467 0.9611
5.4665 7.7763 -2.8457 0.9611
4.7518 8.2303 -2.8452 0.9611
3.2159 8.9386 -2.8440 0.9611
-3.4079 8.8486 -2.8388 0.9612
-3.4844 7.0904 -2.3652 0.9676
-4.9207 8.1007 -2.8376 0.9612
-6.2767 7.0972 -2.8365 0.9612
-6.8823 6.5093 -2.8360 0.9612
-8.8020 4.6969 -2.9869 0.9592
-9.1842 3.8945 -2.9865 0.9592
-9.7277 2.2040 -2.9861 0.9592
-9.8848 1.3294 -2.9860 0.9592
-9.9636 -0.4443 -2.9859 0.9592
-9.8847 -1.3293 -2.9859 0.9592
-9.7275 -2.2039 -2.9860 0.9592
-8.8016 -4.6967 -2.9867 0.9592
-8.3496 -5.4620 -2.9871 0.9592
-7.8314 -6.1844 -2.9875 0.9592
-6.6129 -7.4773 -2.9884 0.9592
-5.9222 -8.0376 -2.9889 0.9592
-4.4050 -8.9638 -2.9901 0.9592
-2.7470 -9.6070 -2.9914 0.9591
1.6639 -9.8643 -2.9949 0.9591
3.3880 -9.4172 -2.9962 0.9591
5.0062 -8.6710 -2.9975 0.9591
5.7593 -8.1927 -2.9981 0.9590
7.1232 -7.0443 -2.9992 0.9590
8.2619 -5.6714 -3.0001 0.9590
9.1387 -4.1177 -3.0008 0.9590
10.0236 0.2234 -3.0016 0.9590
9.8247 1.9970 -3.0015 0.9590
9.3138 3.7068 -3.0011 0.9590
8.9462 4.5207 -3.0008 0.9590
8.0742 5.0287 -2.8477 0.9611
5.8080 7.5257 -2.8460 0.9611
4.3800 8.4329 -2.8449 0.9611
3.6112 8.7875 -2.8443 0.9611
2.8142 9.0720 -2.8437 0.9611
1.1606 9.4230 -2.8424 0.9611
0.3172 9.4866 -2.8417 0.9611
-0.5283 9.4750 -2.8410 0.9612
-1.3692 9.3882 -2.8404 0.9612
-3.7983 8.6870 -2.8384 0.9612
-3.8317 6.9920 -2.3870 0.9673
-5.9548 7.3704 -2.8367 0.9612
-7.6867 5.5325 -2.8353 0.9612
-8.1475 4.8258 -2.8350 0.9612
-9.3481 3.4813 -2.9864 0.9592
-9.8160 1.7685 -2.9860 0.9592
-9.9341 0.8877 -2.9859 0.9592
-9.3660 -0.8369 -2.9863 0.9613
-9.2545 -1.6673 -2.9864 0.9613
-9.0698 -2.4844 -2.9865 0.9613
-8.8132 -3.2821 -2.9867 0.9613
-7.6353 -5.4955 -2.9876 0.9613
-6.5418 -6.7641 -2.9885 0.9613
-5.9147 -7.3207 -2.9890 0.9613
-5.2406 -7.8195 -2.9895 0.9613
-4.5246 -8.2564 -2.9900 0.9613
-2.9903 -8.9314 -2.9912 0.9612
-0.5247 -9.4102 -2.9932 0.9612
0.3150 -9.4216 -2.9938 0.9612
1.9814 -9.2205 -2.9951 0.9612
2.7948 -9.0095 -2.9958 0.9612
4.3497 -8.3746 -2.9970 0.9612
5.7678 -7.4736 -2.9981 0.9612
6.4112 -6.9317 -2.9987 0.9611
7.5410 -5.6869 -2.9996 0.9611
8.0182 -4.9938 -3.0000 0.9611
8.4318 -4.2608 -3.0003 0.9611
9.2600 -1.8821 -3.0010 0.9611
9.3350 1.4679 -3.0011 0.9611
9.1669 2.2928 -3.0010 0.9611
8.9260 3.0995 -3.0008 0.9611
8.6140 3.8813 -3.0005 0.9611
6.9094 5.7108 -2.8468 0.9631
5.1527 7.3298 -2.8455 0.9631
3.7700 8.1242 -2.8444 0.9631
3.0314 8.4258 -2.8438 0.9631
2.2689 8.6604 -2.8432 0.9631
-0.0997 8.9462 -2.8414 0.9631
-1.6835 8.7830 -2.8401 0.9632
-2.4581 8.5964 -2.8395 0.9632
-5.2994 7.1924 -2.8372 0.9632
-7.0079 5.5341 -2.8359 0.9632
-7.4716 4.8878 -2.8355 0.9632
-8.2986 4.4282 -2.9872 0.9613
-8.6589 3.6717 -2.9870 0.9613
-9.3939 0.4189 -2.9863 0.9613
-9.3939 -0.4189 -2.9863 0.9613
-9.3195 -1.2533 -2.9864 0.9613
-8.9504 -2.8861 -2.9866 0.9613
-8.2982 -4.4281 -2.9871 0.9613
-6.8361 -6.4655 -2.9882 0.9613
-6.2344 -7.0494 -2.9887 0.9613
-5.5832 -7.5776 -2.9892 0.9613
-4.1528 -8.4506 -2.9903 0.9613
-2.5897 -9.0567 -2.9916 0.9612
-0.1050 -9.4252 -2.9935 0.9612
0.7345 -9.3992 -2.9942 0.9612
1.5685 -9.2986 -2.9948 0.9612
2.3904 -9.1241 -2.9955 0.9612
3.1937 -8.8770 -2.9961 0.9612
4.7189 -8.1734 -2.9973 0.9612
7.7873 -5.3457 -2.9998 0.9611
8.2332 -4.6319 -3.0001 0.9611
8.6137 -3.8811 -3.0004 0.9611
9.1667 -2.2928 -3.0009 0.9611
9.3912 1.0506 -3.0011 0.9611
9.2602 1.8822 -3.0010 0.9611
9.0555 2.6989 -3.0009 0.9611
8.7787 3.4939 -3.0007 0.9611
7.1575 5.3977 -2.8470 0.9631
6.0853 6.5793 -2.8462 0.9631
5.4746 7.0937 -2.8457 0.9631
4.8206 7.5514 -2.8452 0.9631
4.1286 7.9490 -2.8447 0.9631
3.4040 8.2833 -2.8441 0.9631
2.6527 8.5516 -2.8435 0.9631
-0.4980 8.9320 -2.8410 0.9632
-2.0729 8.6983 -2.8398 0.9632
-3.5808 8.1896 -2.8386 0.9632
-3.8217 6.9738 -2.5255 0.9672
-4.9742 7.4220 -2.8375 0.9632
-6.2091 6.4202 -2.8365 0.9632
-6.7549 5.8412 -2.8361 0.9632
-7.2470 5.2161 -2.8357 0.9632
-8.0505 4.7684 -2.9715 0.9615
-8.4872 4.0540 -2.9871 0.9613
-8.8135 3.2822 -2.9868 0.9613
-9.0700 2.4846 -2.9866 0.9613
-9.2547 1.6673 -2.9865 0.9613
-9.3660 0.8370 -2.9864 0.9613
-8.5743 -2.3487 -2.9869 0.9632
-7.6509 -4.5316 -2.9876 0.9632
-7.2180 -5.1952 -2.9880 0.9632
-6.7278 -5.8177 -2.9883 0.9632
-6.1841 -6.3943 -2.9888 0.9632
-4.2772 -7.8048 -2.9902 0.9631
-3.5662 -8.1561 -2.9908 0.9631
-2.8266 -8.4427 -2.9914 0.9631
-2.0644 -8.6626 -2.9920 0.9631
-1.2854 -8.8137 -2.9926 0.9631
0.2978 -8.9057 -2.9938 0.9631
1.0895 -8.8456 -2.9944 0.9631
1.8728 -8.7154 -2.9951 0.9631
3.3898 -8.2486 -2.9963 0.9631
5.4516 -7.0638 -2.9979 0.9630
8.2967 -3.3020 -3.0002 0.9630
8.7518 -1.7789 -3.0006 0.9630
8.8757 -0.9929 -3.0007 0.9630
8.9290 -0.1990 -3.0007 0.9630
8.9113 0.5966 -3.0007 0.9630
8.6638 2.1670 -3.0006 0.9630
8.4361 2.9294 -3.0004 0.9630
7.7818 4.3780 -2.9999 0.9630
6.9856 4.7955 -2.8469 0.9649
5.4684 6.4680 -2.8457 0.9649
4.8702 6.9279 -2.8452 0.9649
3.5634 7.6789 -2.8442 0.9649
2.8652 7.9641 -2.8437 0.9649
1.4072 8.3425 -2.8425 0.9649
0.6590 8.4330 -2.8419 0.9649
-0.8463 8.4127 -2.8408 0.9650
-5.0096 6.7991 -2.8375 0.9650
-7.2982 4.7743 -2.9301 0.9639
-8.6704 1.9645 -2.9869 0.9632
-8.8807 0.3961 -2.9867 0.9632
-8.8807 -0.3960 -2.9867 0.9632
-8.8103 -1.1849 -2.9868 0.9632
-8.6702 -1.9644 -2.9869 0.9632
-8.1855 -3.4709 -2.9872 0.9632
-7.8448 -4.1861 -2.9875 0.9632
-5.8936 -6.6640 -2.9890 0.9632
-3.1996 -8.3076 -2.9911 0.9631
-2.4480 -8.5611 -2.9917 0.9631
-0.0993 -8.9092 -2.9935 0.9631
0.6942 -8.8845 -2.9941 0.9631
1.4826 -8.7893 -2.9948 0.9631
2.2594 -8.6242 -2.9954 0.9631
5.7613 -6.8145 -2.9982 0.9630
7.7815 -4.3777 -2.9998 0.9630
8.1410 -3.6682 -3.0001 0.9630
8.4359 -2.9292 -3.0003 0.9630
8.8225 -1.3873 -3.0006 0.9630
8.9112 -0.5965 -3.0007 0.9630
8.8758 0.9929 -3.0007 0.9630
8.7519 1.7789 -3.0006 0.9630
8.2969 3.3021 -3.0003 0.9630
6.7648 5.1016 -2.8467 0.9649
5.7515 6.2185 -2.8459 0.9649
4.5563 7.1374 -2.8450 0.9649
3.2175 7.8293 -2.8440 0.9649
1.0341 8.3961 -2.8422 0.9649
-0.4708 8.4429 -2.8411 0.9649
-1.9595 8.2222 -2.8399 0.9650
-2.6830 8.0136 -2.8393 0.9650
-3.3849 7.7415 -2.8388 0.9650
-4.7021 7.0161 -2.8377 0.9650
-8.0234 3.8325 -2.9875 0.9632
-8.5745 2.3488 -2.9870 0.9632
-8.8544 0.7912 -2.9868 0.9632
-8.4241 0.0000 -2.9871 0.9649
-8.1254 -2.2257 -2.9873 0.9649
-7.6030 -3.6316 -2.9877 0.9649
-7.2502 -4.2943 -2.9880 0.9649
-6.8400 -4.9231 -2.9883 0.9649
-6.3754 -5.5130 -2.9886 0.9649
-5.2984 -6.5579 -2.9895 0.9649
-4.6944 -7.0045 -2.9899 0.9648
-4.0530 -7.3958 -2.9904 0.9648
-1.9561 -8.2083 -2.9921 0.9648
-0.4700 -8.4284 -2.9932 0.9648
0.2821 -8.4384 -2.9938 0.9648
2.5030 -8.0688 -2.9956 0.9648
3.2118 -7.8154 -2.9961 0.9648
5.1652 -6.6927 -2.9977 0.9648
6.2718 -5.6725 -2.9986 0.9647
6.7527 -5.0924 -2.9990 0.9647
7.1799 -4.4717 -2.9993 0.9647
7.8605 -3.1284 -2.9999 0.9647
8.2916 -1.6853 -3.0002 0.9647
8.4595 -0.1885 -3.0004 0.9647
8.4427 0.5652 -3.0004 0.9647
7.9925 2.7753 -3.0000 0.9647
7.3727 4.1478 -2.9996 0.9647
6.8977 4.7350 -2.9666 0.9651
5.7067 5.6435 -2.8459 0.9665
3.3762 7.2756 -2.8441 0.9665
2.0320 7.7561 -2.8430 0.9665
0.6244 7.9904 -2.8419 0.9666
-2.2017 7.6999 -2.8397 0.9666
-4.1555 6.8409 -2.8381 0.9666
-4.7471 6.4428 -2.8377 0.9666
-5.3009 5.9938 -2.8372 0.9666
-5.8124 5.4974 -2.8368 0.9666
-6.2778 4.9576 -2.8364 0.9666
-7.0524 4.6135 -2.9882 0.9649
-7.4343 3.9671 -2.9879 0.9649
-8.4158 0.3753 -2.9871 0.9649
-8.4158 -0.3753 -2.9871 0.9649
-8.0184 -2.5855 -2.9874 0.9649
-7.4340 -3.9669 -2.9878 0.9649
-6.6143 -5.2232 -2.9884 0.9649
-6.1239 -5.7919 -2.9888 0.9649
-5.0014 -6.7879 -2.9897 0.9648
-4.3781 -7.2073 -2.9902 0.9648
-1.5887 -8.2880 -2.9923 0.9648
0.6578 -8.4183 -2.9941 0.9648
2.1408 -8.1715 -2.9953 0.9648
2.8602 -7.9500 -2.9959 0.9648
5.4586 -6.4564 -2.9979 0.9648
6.5187 -5.3878 -2.9988 0.9647
6.9732 -4.7868 -2.9991 0.9647
7.3724 -4.1476 -2.9995 0.9647
7.7130 -3.4753 -2.9997 0.9647
7.9923 -2.7752 -3.0000 0.9647
8.2081 -2.0530 -3.0001 0.9647
8.3586 -1.3143 -3.0003 0.9647
8.4091 0.9407 -3.0003 0.9647
8.2918 1.6854 -3.0003 0.9647
8.1085 2.4166 -3.0001 0.9647
7.8607 3.1285 -2.9999 0.9647
7.5505 3.8154 -2.9997 0.9647
7.1802 4.4719 -2.9994 0.9647
6.4092 4.8334 -2.8464 0.9665
5.9528 5.3841 -2.8461 0.9665
4.9025 6.3524 -2.8453 0.9665
3.0485 7.4181 -2.8438 0.9665
1.6843 7.8382 -2.8427 0.9665
0.9798 7.9554 -2.8422 0.9666
-0.4461 7.9999 -2.8411 0.9666
-1.1561 7.9270 -2.8405 0.9666
-1.8567 7.7911 -2.8400 0.9666
-2.5423 7.5935 -2.8394 0.9666
-3.2075 7.3357 -2.8389 0.9666
-5.0290 6.2244 -2.8374 0.9666
-7.2505 4.2945 -2.9881 0.9649
-7.8957 2.9404 -2.9875 0.9649
-7.8738 -1.4185 -2.9875 0.9664
-7.2205 -3.4489 -2.9880 0.9664
-5.5652 -5.7543 -2.9893 0.9664
-5.0316 -6.2277 -2.9897 0.9664
-4.4580 -6.6518 -2.9901 0.9664
-3.8489 -7.0233 -2.9906 0.9664
-1.8576 -7.7947 -2.9921 0.9664
-1.1566 -7.9305 -2.9927 0.9664
-0.4463 -8.0035 -2.9933 0.9664
0.2679 -8.0130 -2.9938 0.9663
2.3767 -7.6617 -2.9955 0.9663
3.0497 -7.4211 -2.9960 0.9663
3.6988 -7.1214 -2.9965 0.9663
4.9044 -6.3548 -2.9975 0.9663
5.9551 -5.3861 -2.9983 0.9663
6.8173 -4.2459 -2.9990 0.9663
7.9842 -0.8931 -3.0000 0.9663
8.0321 -0.1790 -3.0000 0.9663
8.0162 0.5367 -3.0000 0.9663
7.9365 1.2479 -3.0000 0.9663
7.7936 1.9493 -2.9999 0.9663
7.5888 2.6351 -2.9997 0.9663
5.8747 4.8556 -2.8460 0.9680
5.4186 5.3586 -2.8457 0.9680
4.9195 5.8188 -2.8453 0.9680
4.3814 6.2326 -2.8448 0.9680
3.2059 6.9085 -2.8439 0.9680
2.5778 7.1652 -2.8434 0.9680
1.9295 7.3649 -2.8429 0.9680
1.2661 7.5060 -2.8424 0.9680
-0.7615 7.5696 -2.8408 0.9680
-1.4319 7.4704 -2.8403 0.9680
-2.0908 7.3119 -2.8398 0.9681
-2.7328 7.0955 -2.8393 0.9681
-3.3529 6.8230 -2.8388 0.9681
-5.0340 5.6920 -2.8374 0.9681
-5.5199 5.2207 -2.8370 0.9681
-6.0538 4.7806 -2.8804 0.9676
-6.6975 4.3813 -2.9885 0.9664
-7.3669 3.1238 -2.9880 0.9664
-7.6151 2.4556 -2.9878 0.9664
-7.8031 1.7680 -2.9876 0.9664
-7.9292 1.0664 -2.9875 0.9664
-7.9924 0.3564 -2.9874 0.9664
-7.9291 -1.0663 -2.9875 0.9664
-7.3666 -3.1237 -2.9879 0.9664
-7.0599 -3.7673 -2.9881 0.9664
-6.2814 -4.9604 -2.9887 0.9664
-5.3037 -5.9970 -2.9895 0.9664
-4.1576 -6.8443 -2.9903 0.9664
-2.2028 -7.7035 -2.9919 0.9664
-1.5086 -7.8704 -2.9924 0.9664
-0.8023 -7.9750 -2.9930 0.9664
1.3339 -7.9080 -2.9947 0.9663
2.0329 -7.7593 -2.9952 0.9663
2.7159 -7.5489 -2.9957 0.9663
3.3776 -7.2785 -2.9963 0.9663
4.0127 -6.9502 -2.9968 0.9663
6.1895 -5.1158 -2.9985 0.9663
7.3234 -3.2997 -2.9994 0.9663
8.0161 -0.5366 -3.0000 0.9663
8.0321 0.1790 -3.0000 0.9663
7.6989 2.2945 -2.9998 0.9663
7.1691 3.6227 -2.9994 0.9663
6.8176 4.2461 -2.9991 0.9663
6.2870 4.7413 -2.9404 0.9669
5.6523 5.1122 -2.8458 0.9680
5.1742 5.5943 -2.8455 0.9680
4.0991 6.4211 -2.8446 0.9680
3.5107 6.7594 -2.8442 0.9680
2.8947 7.0438 -2.8437 0.9680
2.2559 7.2722 -2.8432 0.9680
-0.4236 7.5967 -2.8411 0.9680
-1.0978 7.5274 -2.8406 0.9680
-4.2314 6.3137 -2.8381 0.9681
-5.2822 5.4618 -2.8372 0.9681
-6.4960 4.6756 -2.9887 0.9664
-7.2207 3.4490 -2.9881 0.9664
-7.4984 2.7925 -2.9879 0.9664
-7.7167 2.1139 -2.9877 0.9664
-7.9687 0.7121 -2.9875 0.9664
-7.6126 0.0000 -2.9877 0.9678
-7.5824 -0.6775 -2.9877 0.9678
-7.4922 -1.3497 -2.9878 0.9678
-7.1348 -2.6570 -2.9881 0.9678
-6.8704 -3.2817 -2.9883 0.9678
-2.4201 -7.2284 -2.9917 0.9678
-1.7674 -7.4163 -2.9922 0.9678
-1.1005 -7.5455 -2.9927 0.9678
-0.4246 -7.6149 -2.9933 0.9678
3.5190 -6.7753 -2.9964 0.9677
4.1087 -6.4362 -2.9969 0.9677
4.6660 -6.0458 -2.9973 0.9677
5.6655 -5.1241 -2.9981 0.9677
6.0998 -4.6001 -2.9984 0.9677
6.4857 -4.0393 -2.9988 0.9677
6.8201 -3.4463 -2.9990 0.9677
7.3241 -2.1828 -2.9994 0.9677
7.4897 -1.5223 -2.9996 0.9677
7.5957 -0.8497 -2.9997 0.9677
7.6261 0.5105 -2.9997 0.9677
7.5503 1.1872 -2.9997 0.9677
6.2993 4.3242 -2.9987 0.9677
5.1550 5.0979 -2.8454 0.9693
3.0500 6.5727 -2.8438 0.9693
2.4525 6.8170 -2.8433 0.9693
1.2046 7.1413 -2.8424 0.9694
-3.7548 6.1812 -2.8384 0.9694
-4.2894 5.8216 -2.8380 0.9694
-5.9771 4.7201 -2.9891 0.9678
-6.7179 3.5848 -2.9885 0.9678
-7.2460 2.3366 -2.9880 0.9678
-7.5448 1.0147 -2.9878 0.9678
-7.6051 -0.3391 -2.9877 0.9678
-7.5448 -1.0147 -2.9878 0.9678
-7.4247 -1.6822 -2.9878 0.9678
-7.0096 -2.9723 -2.9882 0.9678
-6.7177 -3.5846 -2.9884 0.9678
-6.3725 -4.1687 -2.9886 0.9678
-5.5336 -5.2336 -2.9893 0.9678
-5.0465 -5.7061 -2.9897 0.9678
-4.5192 -6.1335 -2.9901 0.9678
-2.0959 -7.3296 -2.9920 0.9678
-0.7633 -7.5877 -2.9930 0.9678
0.5943 -7.6056 -2.9941 0.9678
1.2691 -7.5238 -2.9946 0.9677
3.2134 -6.9248 -2.9961 0.9677
6.9671 -3.1392 -2.9992 0.9677
7.2194 -2.5068 -2.9994 0.9677
7.4143 -1.8544 -2.9995 0.9677
7.5502 -1.1872 -2.9996 0.9677
7.6261 -0.5105 -2.9997 0.9677
7.4898 1.5224 -2.9996 0.9677
7.3243 2.1829 -2.9995 0.9677
7.1005 2.8260 -2.9993 0.9677
6.4859 4.0395 -2.9989 0.9677
4.4287 5.7385 -2.8449 0.9693
2.7540 6.7015 -2.8436 0.9693
1.5217 7.0812 -2.8426 0.9694
0.8852 7.1873 -2.8421 0.9694
-0.4030 7.2278 -2.8411 0.9694
-2.2970 6.8609 -2.8396 0.9694
-3.4760 6.3428 -2.8387 0.9694
-4.0261 6.0073 -2.8382 0.9694
-5.0260 5.1969 -2.8374 0.9694
-5.5295 4.7815 -2.8690 0.9691
-6.1811 4.4489 -2.9889 0.9678
-6.8706 3.2818 -2.9884 0.9678
-7.1350 2.6571 -2.9881 0.9678
-7.3427 2.0114 -2.9880 0.9678
-7.1415 -1.2866 -2.9881 0.9691
-6.9989 -1.9172 -2.9882 0.9691
-6.2449 -3.6988 -2.9887 0.9691
-5.4912 -4.7484 -2.9893 0.9691
-5.0473 -5.2189 -2.9897 0.9691
-4.5634 -5.6481 -2.9900 0.9691
-4.0431 -6.0327 -2.9904 0.9691
-3.4906 -6.3695 -2.9909 0.9691
-2.9103 -6.6559 -2.9913 0.9691
-1.0489 -7.1918 -2.9928 0.9690
0.2429 -7.2663 -2.9938 0.9690
2.7654 -6.7291 -2.9958 0.9690
3.3538 -6.4573 -2.9963 0.9690
3.9159 -6.1340 -2.9967 0.9690
4.4469 -5.7620 -2.9971 0.9690
5.3995 -4.8835 -2.9979 0.9690
5.8133 -4.3840 -2.9982 0.9690
6.4997 -3.2844 -2.9988 0.9690
6.7668 -2.6931 -2.9990 0.9690
7.1378 -1.4508 -2.9993 0.9690
7.2388 -0.8098 -2.9994 0.9690
7.2678 0.4865 -2.9994 0.9690
7.0660 1.7674 -2.9993 0.9690
6.6400 2.9919 -2.9990 0.9690
6.0034 4.1211 -2.9985 0.9690
5.6122 4.6386 -2.9982 0.9690
4.9130 4.8586 -2.8452 0.9706
4.4605 5.2759 -2.8449 0.9706
3.9727 5.6512 -2.8445 0.9706
3.4534 5.9815 -2.8441 0.9706
2.9069 6.2642 -2.8437 0.9706
1.1481 6.8064 -2.8423 0.9706
-0.0769 6.8997 -2.8413 0.9706
-0.6906 6.8643 -2.8409 0.9706
-1.8961 6.6309 -2.8399 0.9706
-2.4783 6.4348 -2.8395 0.9706
-3.5789 5.8916 -2.8386 0.9706
-4.0884 5.5489 -2.8382 0.9706
-4.5655 5.1623 -2.8378 0.9706
-5.6972 4.4991 -2.9893 0.9691
-6.4034 3.4170 -2.9887 0.9691
-6.6816 2.8333 -2.9885 0.9691
-7.1916 -0.9672 -2.9880 0.9691
-6.9067 -2.2271 -2.9882 0.9691
-6.6814 -2.8331 -2.9884 0.9691
-6.4032 -3.4168 -2.9886 0.9691
-5.6970 -4.4988 -2.9892 0.9691
-4.3075 -5.8462 -2.9902 0.9691
-3.7706 -6.2072 -2.9907 0.9691
-3.2036 -6.5192 -2.9911 0.9691
-2.6111 -6.7795 -2.9916 0.9691
-1.9976 -6.9861 -2.9920 0.9691
-1.3681 -7.1374 -2.9925 0.9691
-0.7275 -7.2320 -2.9930 0.9690
0.5664 -7.2489 -2.9941 0.9690
1.2096 -7.1709 -2.9946 0.9690
1.8433 -7.0360 -2.9951 0.9690
3.0626 -6.5998 -2.9960 0.9690
5.1762 -5.1189 -2.9977 0.9690
5.6120 -4.6384 -2.9981 0.9690
6.0032 -4.1209 -2.9984 0.9690
6.8802 -2.3890 -2.9991 0.9690
7.0659 -1.7673 -2.9992 0.9690
7.2678 -0.4865 -2.9994 0.9690
7.2823 0.1623 -2.9994 0.9690
7.2389 0.8098 -2.9994 0.9690
7.1379 1.4509 -2.9994 0.9690
6.7669 2.6932 -2.9991 0.9690
6.4999 3.2846 -2.9989 0.9690
6.1813 3.8498 -2.9986 0.9690
5.8136 4.3843 -2.9983 0.9690
5.2500 4.7484 -2.9149 0.9698
4.6914 5.0723 -2.8451 0.9706
4.2208 5.4690 -2.8447 0.9706
3.7167 5.8222 -2.8443 0.9706
3.1833 6.1290 -2.8439 0.9706
1.4503 6.7490 -2.8425 0.9706
0.2306 6.8969 -2.8416 0.9706
-0.3841 6.8889 -2.8411 0.9706
-0.9956 6.8262 -2.8406 0.9706
-1.5989 6.7094 -2.8401 0.9706
-5.4914 4.7486 -2.9895 0.9691
-5.8916 4.2406 -2.9891 0.9691
-6.2451 3.6990 -2.9889 0.9691
-6.5490 3.1282 -2.9886 0.9691
-6.8010 2.5327 -2.9884 0.9691
-6.9990 1.9172 -2.9882 0.9691
-7.1416 1.2866 -2.9881 0.9691
-6.2521 -2.9863 -2.9888 0.9703
-5.9619 -3.5313 -2.9890 0.9703
-5.6244 -4.0482 -2.9892 0.9703
-4.3565 -5.3921 -2.9902 0.9703
-2.7783 -6.3541 -2.9914 0.9702
-2.2020 -6.5771 -2.9919 0.9702
-1.6082 -6.7480 -2.9924 0.9702
-1.0013 -6.8655 -2.9928 0.9702
-0.3863 -6.9285 -2.9933 0.9702
0.8485 -6.8895 -2.9943 0.9702
1.4586 -6.7877 -2.9948 0.9702
2.0573 -6.6320 -2.9952 0.9702
2.6398 -6.4235 -2.9957 0.9702
3.7380 -5.8554 -2.9966 0.9702
4.2449 -5.5002 -2.9970 0.9702
4.7182 -5.1012 -2.9974 0.9702
5.5491 -4.1848 -2.9980 0.9702
6.9512 -0.1548 -2.9992 0.9702
6.8684 1.0800 -2.9991 0.9702
6.5676 2.2805 -2.9989 0.9702
6.3382 2.8559 -2.9987 0.9702
6.0584 3.4084 -2.9985 0.9702
5.7305 3.9338 -2.9983 0.9702
4.2578 5.0362 -2.8447 0.9717
3.7922 5.3945 -2.8444 0.9717
3.2966 5.7098 -2.8440 0.9717
0.5132 6.5681 -2.8418 0.9717
-0.6592 6.5529 -2.8409 0.9717
-1.8100 6.3301 -2.8400 0.9717
-2.9028 5.9071 -2.8391 0.9717
-3.9031 5.2973 -2.8383 0.9717
-5.0312 4.7585 -2.9872 0.9703
-5.7991 3.7937 -2.9892 0.9703
-6.1133 3.2621 -2.9889 0.9703
-6.5939 2.1263 -2.9886 0.9703
-6.7567 1.5309 -2.9884 0.9703
-6.1131 -3.2620 -2.9889 0.9703
-5.7989 -3.7935 -2.9891 0.9703
-4.5921 -5.1923 -2.9900 0.9703
-4.1122 -5.5812 -2.9904 0.9703
-3.5996 -5.9258 -2.9908 0.9702
-3.0584 -6.2236 -2.9912 0.9702
-1.9070 -6.6692 -2.9921 0.9702
-1.3061 -6.8136 -2.9926 0.9702
-0.6945 -6.9038 -2.9931 0.9702
-0.0773 -6.9394 -2.9936 0.9702
1.1547 -6.8454 -2.9945 0.9702
2.3508 -6.5342 -2.9955 0.9702
3.9954 -5.6835 -2.9968 0.9702
4.9410 -4.8863 -2.9975 0.9702
6.8683 -1.0800 -2.9991 0.9702
6.9373 -0.4644 -2.9992 0.9702
6.9512 0.1550 -2.9992 0.9702
6.9097 0.7730 -2.9992 0.9702
6.8134 1.3849 -2.9991 0.9702
6.4593 2.5707 -2.9988 0.9702
5.9003 3.6748 -2.9984 0.9702
5.5493 4.1850 -2.9981 0.9702
5.1543 4.6618 -2.9978 0.9702
4.4782 4.8418 -2.8449 0.9717
4.0290 5.2205 -2.8446 0.9717
3.5479 5.5577 -2.8442 0.9717
2.5056 6.0970 -2.8434 0.9717
1.9527 6.2948 -2.8429 0.9717
1.3844 6.4426 -2.8425 0.9717
-0.3667 6.5763 -2.8411 0.9717
-0.9504 6.5165 -2.8407 0.9717
-1.5264 6.4050 -2.8402 0.9717
-3.1629 5.7715 -2.8389 0.9717
-4.6225 4.7797 -2.8682 0.9714
-5.2425 4.5334 -2.9897 0.9703
-5.6246 4.0484 -2.9893 0.9703
-5.9621 3.5314 -2.9891 0.9703
-6.2523 2.9865 -2.9888 0.9703
-6.4928 2.4180 -2.9886 0.9703
-6.6232 0.0000 -2.9885 0.9714
-6.5184 -1.1743 -2.9886 0.9714
-6.3882 -1.7499 -2.9887 0.9714
-6.2074 -2.3117 -2.9888 0.9714
-5.9774 -2.8551 -2.9890 0.9713
-5.3772 -3.8703 -2.9894 0.9713
-5.0119 -4.3339 -2.9897 0.9713
-4.1650 -5.1550 -2.9904 0.9713
-3.6901 -5.5059 -2.9907 0.9713
-3.1858 -5.8133 -2.9911 0.9713
-2.6561 -6.0746 -2.9915 0.9713
-1.5374 -6.4512 -2.9924 0.9713
0.8112 -6.5862 -2.9943 0.9713
1.9667 -6.3400 -2.9952 0.9713
2.5235 -6.1406 -2.9956 0.9713
3.5733 -5.5975 -2.9964 0.9713
4.5103 -4.8765 -2.9972 0.9713
4.9269 -4.4562 -2.9975 0.9713
5.6401 -3.5127 -2.9981 0.9713
5.9308 -2.9970 -2.9983 0.9713
6.6447 -0.1480 -2.9989 0.9713
6.6315 0.4439 -2.9989 0.9713
6.5656 1.0324 -2.9989 0.9713
6.4474 1.6126 -2.9988 0.9713
6.2781 2.1800 -2.9987 0.9713
6.0588 2.7300 -2.9985 0.9713
5.4779 3.7604 -2.9981 0.9713
5.1210 4.2327 -2.9978 0.9713
3.6251 5.1568 -2.8442 0.9727
3.1513 5.4583 -2.8439 0.9727
2.6526 5.7163 -2.8435 0.9727
1.0477 6.2113 -2.8422 0.9727
0.4906 6.2789 -2.8418 0.9727
-0.0702 6.2967 -2.8413 0.9727
-0.6302 6.2645 -2.8409 0.9727
-1.1851 6.1826 -2.8405 0.9728
-1.7304 6.0517 -2.8400 0.9728
-2.2618 5.8728 -2.8396 0.9728
-2.7752 5.6473 -2.8392 0.9728
-3.2663 5.3772 -2.8388 0.9728
-3.7315 5.0644 -2.8384 0.9728
-4.2247 4.7770 -2.8775 0.9724
-5.1999 4.1064 -2.9897 0.9713
-5.5443 3.6269 -2.9894 0.9713
-6.6166 -0.2950 -2.9885 0.9714
-6.5642 -0.8828 -2.9885 0.9714
-6.3041 -2.0328 -2.9887 0.9714
-6.0984 -2.5859 -2.9889 0.9713
-5.8444 -3.1187 -2.9891 0.9713
-5.5441 -3.6267 -2.9893 0.9713
-5.1997 -4.1062 -2.9896 0.9713
-4.8141 -4.5531 -2.9899 0.9713
-2.9239 -5.9499 -2.9913 0.9713
-1.8231 -6.3758 -2.9922 0.9713
-1.2486 -6.5138 -2.9926 0.9713
-0.6640 -6.6000 -2.9931 0.9713
-0.0739 -6.6340 -2.9936 0.9713
0.5169 -6.6153 -2.9940 0.9713
1.6822 -6.4207 -2.9949 0.9713
3.3202 -5.7507 -2.9962 0.9713
3.8194 -5.4331 -2.9966 0.9713
4.2883 -5.0722 -2.9970 0.9713
4.7233 -4.6710 -2.9974 0.9713
5.1208 -4.2324 -2.9977 0.9713
5.7912 -3.2580 -2.9982 0.9713
6.0586 -2.7298 -2.9984 0.9713
6.2779 -2.1799 -2.9986 0.9713
6.4473 -1.6126 -2.9988 0.9713
6.5655 -1.0323 -2.9989 0.9713
6.6447 0.1481 -2.9989 0.9713
6.5130 1.3238 -2.9989 0.9713
5.6402 3.5128 -2.9982 0.9713
4.3929 4.7496 -2.9192 0.9720
3.3916 5.3129 -2.8441 0.9727
2.3952 5.8284 -2.8433 0.9727
1.8667 6.0176 -2.8429 0.9727
0.2104 6.2941 -2.8416 0.9727
-0.3505 6.2869 -2.8411 0.9727
-0.9086 6.2297 -2.8407 0.9728
-3.0238 5.5177 -2.8390 0.9728
-3.5024 5.2260 -2.8386 0.9728
-3.9532 4.8929 -2.8383 0.9728
-5.9775 2.8552 -2.9891 0.9713
-6.2075 2.3117 -2.9889 0.9714
-6.3883 1.7500 -2.9887 0.9714
-6.5970 0.5895 -2.9885 0.9714
-6.2401 -1.1242 -2.9888 0.9724
-6.1155 -1.6752 -2.9889 0.9723
-5.1476 -3.7050 -2.9896 0.9723
-4.7978 -4.1488 -2.9899 0.9723
-4.4100 -4.5599 -2.9902 0.9723
-3.9870 -4.9348 -2.9905 0.9723
-3.5324 -5.2707 -2.9909 0.9723
-2.5426 -5.8150 -2.9916 0.9723
-2.0152 -6.0191 -2.9920 0.9723
0.7765 -6.3044 -2.9942 0.9723
1.3347 -6.2112 -2.9947 0.9723
1.8825 -6.0687 -2.9951 0.9723
3.8841 -5.0328 -2.9967 0.9723
4.3172 -4.6676 -2.9970 0.9723
5.3985 -3.3622 -2.9979 0.9723
5.6768 -2.8686 -2.9981 0.9723
5.9099 -2.3521 -2.9983 0.9723
6.2339 -1.2671 -2.9986 0.9723
6.3221 -0.7072 -2.9987 0.9723
6.3474 0.4249 -2.9987 0.9723
6.2843 0.9882 -2.9987 0.9723
5.7993 2.6130 -2.9983 0.9723
5.2433 3.5993 -2.9979 0.9723
4.9017 4.0514 -2.9976 0.9723
4.5213 4.4712 -2.9973 0.9723
4.0144 4.7482 -2.9309 0.9729
3.4699 4.9361 -2.8441 0.9737
2.5391 5.4717 -2.8434 0.9737
2.0418 5.6752 -2.8430 0.9737
1.0029 5.9456 -2.8422 0.9737
0.4697 6.0104 -2.8418 0.9737
-0.0672 6.0274 -2.8413 0.9737
-0.6033 5.9966 -2.8409 0.9737
-2.1652 5.6217 -2.8397 0.9737
-2.6566 5.4060 -2.8393 0.9737
-4.2029 4.7523 -2.9905 0.9723
-4.6087 4.3589 -2.9901 0.9723
-5.8381 2.4756 -2.9892 0.9723
-6.1840 1.4011 -2.9889 0.9724
-6.3341 -0.2824 -2.9887 0.9724
-6.2839 -0.8451 -2.9888 0.9724
-6.0349 -1.9460 -2.9889 0.9723
-4.9777 -3.9308 -2.9897 0.9723
-4.6085 -4.3587 -2.9900 0.9723
-2.7989 -5.6956 -2.9914 0.9723
-2.2812 -5.9229 -2.9918 0.9723
-0.0707 -6.3503 -2.9936 0.9723
0.4948 -6.3323 -2.9940 0.9723
2.1512 -5.9792 -2.9953 0.9723
2.6752 -5.7648 -2.9957 0.9723
3.6559 -5.2005 -2.9965 0.9723
4.1047 -4.8550 -2.9969 0.9723
4.9016 -4.0512 -2.9975 0.9723
5.7991 -2.6129 -2.9982 0.9723
6.1712 -1.5435 -2.9985 0.9723
6.3474 -0.4249 -2.9987 0.9723
6.3600 0.1418 -2.9987 0.9723
6.3221 0.7073 -2.9987 0.9723
6.2340 1.2671 -2.9986 0.9723
5.3987 3.3624 -2.9980 0.9723
5.0776 3.8292 -2.9978 0.9723
4.3174 4.6679 -2.9972 0.9723
3.6869 4.7773 -2.8445 0.9737
3.2464 5.0854 -2.8439 0.9737
2.7805 5.3535 -2.8436 0.9737
-1.3968 5.8614 -2.8403 0.9737
-1.9127 5.7130 -2.8399 0.9737
-2.8945 5.2819 -2.8391 0.9737
-4.7980 4.1490 -2.9900 0.9723
-5.1478 3.7052 -2.9897 0.9723
-5.4567 3.2320 -2.9895 0.9723
-5.7223 2.7333 -2.9892 0.9723
-6.2402 1.1242 -2.9888 0.9724
-6.3153 0.5643 -2.9888 0.9724
-6.0769 0.0000 -2.9889 0.9733
-5.9807 -1.0775 -2.9890 0.9733
-5.8612 -1.6055 -2.9891 0.9733
-5.6953 -2.1209 -2.9892 0.9733
-5.4842 -2.6196 -2.9894 0.9733
-5.2296 -3.0975 -2.9896 0.9733
-4.9336 -3.5509 -2.9898 0.9733
-4.5983 -3.9763 -2.9900 0.9733
-3.3855 -5.0515 -2.9910 0.9733
-1.9313 -5.7686 -2.9921 0.9732
-1.4104 -5.9184 -2.9925 0.9732
-0.8782 -6.0213 -2.9929 0.9732
0.7441 -6.0419 -2.9942 0.9732
1.8041 -5.8159 -2.9951 0.9732
2.3149 -5.6330 -2.9955 0.9732
2.8075 -5.4053 -2.9958 0.9732
3.2778 -5.1346 -2.9962 0.9732
3.7223 -4.8231 -2.9966 0.9732
4.8657 -3.6694 -2.9975 0.9732
5.6635 -2.2540 -2.9981 0.9732
5.8419 -1.7411 -2.9983 0.9732
5.9740 -1.2142 -2.9984 0.9732
6.0827 0.4072 -2.9985 0.9732
6.0222 0.9470 -2.9985 0.9732
5.9139 1.4792 -2.9984 0.9732
5.5575 2.5041 -2.9981 0.9732
5.3122 2.9886 -2.9979 0.9732
5.0247 3.4493 -2.9977 0.9732
4.3328 4.2848 -2.9972 0.9732
2.8908 5.0069 -2.8437 0.9746
2.4333 5.2437 -2.8433 0.9746
1.9567 5.4387 -2.8429 0.9746
0.4501 5.7601 -2.8417 0.9746
-0.0644 5.7765 -2.8413 0.9746
-0.5781 5.7470 -2.8409 0.9746
-1.0872 5.6719 -2.8405 0.9746
-2.0751 5.3878 -2.8398 0.9746
-3.0017 4.9414 -2.8437 0.9746
-3.5136 4.7687 -2.9134 0.9739
-4.0281 4.5546 -2.9906 0.9733
-5.0868 3.3277 -2.9898 0.9733
-5.3624 2.8615 -2.9895 0.9733
-5.5954 2.3727 -2.9893 0.9733
-5.7841 1.8652 -2.9892 0.9733
-5.9269 1.3429 -2.9891 0.9733
-6.0228 0.8100 -2.9890 0.9733
-6.0708 0.2707 -2.9889 0.9733
-6.0708 -0.2707 -2.9889 0.9733
-6.0227 -0.8100 -2.9890 0.9733
-5.9268 -1.3428 -2.9890 0.9733
-5.7840 -1.8651 -2.9891 0.9733
-4.4168 -4.1774 -2.9902 0.9733
-4.0279 -4.5544 -2.9905 0.9733
-2.6825 -5.4586 -2.9915 0.9733
-1.1455 -5.9758 -2.9927 0.9732
-0.0678 -6.0859 -2.9936 0.9732
1.0126 -6.0032 -2.9944 0.9732
1.5431 -5.8901 -2.9948 0.9732
2.0615 -5.7301 -2.9953 0.9732
3.5035 -4.9838 -2.9964 0.9732
3.9336 -4.6527 -2.9967 0.9732
4.3326 -4.2846 -2.9971 0.9732
4.6972 -3.8823 -2.9974 0.9732
5.7585 -1.9995 -2.9982 0.9732
6.0827 -0.4072 -2.9985 0.9732
6.0948 0.1358 -2.9985 0.9732
5.6636 2.2541 -2.9982 0.9732
5.4402 2.7491 -2.9980 0.9732
4.8659 3.6696 -2.9976 0.9732
4.1374 4.4733 -2.9970 0.9732
3.6626 4.7458 -2.9485 0.9736
3.1111 4.8735 -2.8438 0.9746
2.6647 5.1304 -2.8435 0.9746
1.7124 5.5201 -2.8427 0.9746
0.1930 5.7740 -2.8415 0.9746
-0.3216 5.7674 -2.8411 0.9746
-0.8335 5.7151 -2.8407 0.9746
-1.3387 5.6175 -2.8403 0.9746
-1.8331 5.4753 -2.8399 0.9746
-2.3129 5.2897 -2.8396 0.9746
-2.7741 5.0621 -2.8392 0.9746
-3.2133 4.7946 -2.8389 0.9746
-3.8214 4.7298 -2.9908 0.9733
-4.5985 3.9765 -2.9902 0.9733
-5.2298 3.0976 -2.9896 0.9733
-5.4844 2.6197 -2.9894 0.9733
-5.6954 2.1210 -2.9893 0.9733
-5.9808 1.0775 -2.9890 0.9733
-6.0528 0.5409 -2.9890 0.9733
-5.8074 -0.5189 -2.9891 0.9741
-5.7382 -1.0338 -2.9892 0.9741
-5.4644 -2.0349 -2.9894 0.9741
-4.0551 -4.1929 -2.9905 0.9741
-3.2481 -4.8465 -2.9911 0.9741
-2.8042 -5.1170 -2.9914 0.9741
-1.3532 -5.6782 -2.9926 0.9741
-0.8425 -5.7769 -2.9930 0.9741
-0.3251 -5.8297 -2.9934 0.9741
0.7139 -5.7966 -2.9942 0.9741
1.2272 -5.7108 -2.9946 0.9741
2.2209 -5.4042 -2.9954 0.9741
2.6934 -5.1857 -2.9958 0.9741
3.9691 -4.2913 -2.9968 0.9741
4.3357 -3.9214 -2.9971 0.9741
4.9631 -3.0910 -2.9976 0.9741
5.2189 -2.6372 -2.9978 0.9741
5.6044 -1.6703 -2.9981 0.9741
5.7310 -1.1648 -2.9982 0.9741
5.8121 -0.6502 -2.9983 0.9741
5.7774 0.9085 -2.9983 0.9741
5.0962 2.8671 -2.9978 0.9741
4.5064 3.7247 -2.9973 0.9741
4.1567 4.1106 -2.9970 0.9741
3.3337 4.7423 -2.9718 0.9743
2.7733 4.8035 -2.8436 0.9754
1.8772 5.2178 -2.8429 0.9754
1.4052 5.3635 -2.8425 0.9754
-0.0617 5.5419 -2.8413 0.9754
-1.0431 5.4417 -2.8406 0.9754
-1.5231 5.3265 -2.8402 0.9754
-1.9909 5.1692 -2.8398 0.9754
-3.4608 4.6970 -2.9911 0.9741
-3.8647 4.3699 -2.9907 0.9741
-5.1450 2.7454 -2.9897 0.9741
-5.3686 2.2765 -2.9895 0.9741
-5.7786 0.7772 -2.9892 0.9741
-5.8247 0.2598 -2.9891 0.9741
-5.6866 -1.2884 -2.9892 0.9741
-5.5495 -1.7895 -2.9893 0.9741
-5.3685 -2.2764 -2.9895 0.9741
-1.6047 -5.6119 -2.9924 0.9741
-1.0990 -5.7332 -2.9928 0.9741
-0.5844 -5.8091 -2.9932 0.9741
-0.0650 -5.8388 -2.9936 0.9741
0.4550 -5.8222 -2.9940 0.9741
1.4805 -5.6509 -2.9948 0.9741
1.9778 -5.4974 -2.9952 0.9741
2.9219 -5.0609 -2.9959 0.9741
3.7738 -4.4637 -2.9966 0.9741
4.1565 -4.1104 -2.9969 0.9741
4.5063 -3.7245 -2.9972 0.9741
4.8203 -3.3089 -2.9975 0.9741
5.0961 -2.8670 -2.9977 0.9741
5.3314 -2.4022 -2.9979 0.9741
5.5243 -1.9182 -2.9980 0.9741
5.6734 -1.4190 -2.9982 0.9741
5.7773 -0.9084 -2.9982 0.9741
5.8353 -0.3906 -2.9983 0.9741
5.6045 1.6703 -2.9981 0.9741
5.4334 2.1625 -2.9980 0.9741
5.2190 2.6373 -2.9979 0.9741
3.9692 4.2915 -2.9969 0.9741
3.5712 4.6273 -2.9966 0.9741
2.5599 4.9287 -2.8473 0.9753
2.1079 5.1294 -2.8430 0.9754
1.1648 5.4204 -2.8423 0.9754
0.6776 5.5018 -2.8419 0.9754
-0.3085 5.5333 -2.8411 0.9754
-0.7997 5.4831 -2.8408 0.9754
-1.2844 5.3895 -2.8404 0.9754
-1.7587 5.2530 -2.8400 0.9754
-2.6616 4.8568 -2.8393 0.9754
-3.1922 4.7631 -2.9396 0.9746
-4.4120 3.8152 -2.9903 0.9741
-4.7336 3.4071 -2.9900 0.9741
-5.2620 2.5135 -2.9896 0.9741
-5.6237 1.5405 -2.9893 0.9741
-5.8074 0.5190 -2.9892 0.9741
-5.5996 0.0000 -2.9893 0.9749
-5.5774 -0.4984 -2.9893 0.9749
-5.0534 -2.4138 -2.9897 0.9749
-4.8188 -2.8542 -2.9899 0.9749
-4.2371 -3.6639 -2.9903 0.9749
-3.5209 -4.3579 -2.9909 0.9749
-3.1194 -4.6545 -2.9912 0.9749
-1.7795 -5.3151 -2.9922 0.9749
-0.8091 -5.5478 -2.9930 0.9749
0.1874 -5.6048 -2.9938 0.9749
0.6856 -5.5666 -2.9942 0.9749
2.1327 -5.1897 -2.9953 0.9749
2.5865 -4.9799 -2.9957 0.9749
3.4292 -4.4434 -2.9964 0.9749
4.4826 -3.3805 -2.9972 0.9749
5.3818 -1.6039 -2.9979 0.9749
5.5034 -1.1186 -2.9980 0.9749
5.5479 0.8724 -2.9981 0.9749
5.3050 1.8421 -2.9979 0.9749
5.1197 2.3069 -2.9978 0.9749
4.8938 2.7532 -2.9976 0.9749
3.6241 4.2866 -2.9966 0.9749
3.2279 4.5917 -2.9963 0.9749
2.2418 4.8310 -2.8431 0.9761
1.8027 5.0107 -2.8428 0.9761
-0.0593 5.3221 -2.8413 0.9762
-0.5327 5.2950 -2.8410 0.9762
-1.0017 5.2259 -2.8406 0.9762
-2.3516 4.7853 -2.8464 0.9761
-2.8894 4.7566 -2.9711 0.9751
-3.3236 4.5109 -2.9912 0.9749
-3.7115 4.1967 -2.9909 0.9749
-4.0699 3.8494 -2.9906 0.9749
-4.3960 3.4715 -2.9903 0.9749
-4.9412 2.6367 -2.9899 0.9749
-5.1559 2.1863 -2.9897 0.9749
-5.5497 0.7464 -2.9894 0.9749
-5.5940 -0.2494 -2.9893 0.9749
-4.9410 -2.6366 -2.9898 0.9749
-4.3959 -3.4714 -2.9902 0.9749
-4.0698 -3.8492 -2.9905 0.9749
-1.0554 -5.5059 -2.9928 0.9749
-0.5612 -5.5787 -2.9932 0.9749
-0.0625 -5.6072 -2.9936 0.9749
0.4369 -5.5913 -2.9940 0.9749
0.9330 -5.5309 -2.9944 0.9749
2.8059 -4.8600 -2.9959 0.9749
3.2277 -4.5915 -2.9962 0.9749
3.6240 -4.2864 -2.9965 0.9749
4.6289 -3.1776 -2.9973 0.9749
5.5478 -0.8723 -2.9981 0.9749
5.6147 0.1251 -2.9981 0.9749
5.5813 0.6244 -2.9981 0.9749
5.3819 1.6040 -2.9980 0.9749
5.2176 2.0765 -2.9978 0.9749
5.0118 2.5326 -2.9977 0.9749
4.7662 2.9684 -2.9975 0.9749
3.0200 4.7307 -2.9962 0.9749
1.1186 5.2054 -2.8423 0.9761
0.6507 5.2836 -2.8419 0.9762
-0.7680 5.2657 -2.8408 0.9762
-2.1310 4.8739 -2.8397 0.9762
-2.6133 4.7686 -2.9029 0.9756
-4.2372 3.6641 -2.9904 0.9749
-4.5461 3.2721 -2.9902 0.9749
-4.8190 2.8543 -2.9900 0.9749
-5.2481 1.9544 -2.9896 0.9749
-5.4010 1.4795 -2.9895 0.9749
-5.5110 0.9929 -2.9894 0.9749
-5.5774 0.4984 -2.9893 0.9749
-5.3826 0.0000 -2.9895 0.9757
-5.3613 -0.4791 -2.9895 0.9757
-5.2974 -0.9544 -2.9895 0.9757
-5.1916 -1.4221 -2.9896 0.9757
-5.0446 -1.8786 -2.9897 0.9757
-4.6321 -2.7436 -2.9900 0.9757
-4.3698 -3.1451 -2.9902 0.9757
-4.0728 -3.5219 -2.9905 0.9757
-3.7435 -3.8707 -2.9907 0.9757
-3.3844 -4.1889 -2.9910 0.9757
-2.1582 -4.9359 -2.9919 0.9757
-1.7105 -5.1089 -2.9923 0.9756
-1.2491 -5.2415 -2.9927 0.9756
-0.7777 -5.3326 -2.9930 0.9756
0.6590 -5.3506 -2.9942 0.9756
1.1327 -5.2713 -2.9945 0.9756
1.5976 -5.1503 -2.9949 0.9756
2.0499 -4.9882 -2.9953 0.9756
2.9025 -4.5467 -2.9959 0.9756
3.2961 -4.2708 -2.9962 0.9756
4.0018 -3.6194 -2.9968 0.9756
4.5809 -2.8530 -2.9973 0.9756
4.8169 -2.4341 -2.9975 0.9756
5.2895 -1.0751 -2.9979 0.9756
5.3965 -0.1202 -2.9980 0.9756
5.3858 0.3605 -2.9980 0.9756
5.3323 0.8385 -2.9979 0.9756
4.9208 2.2172 -2.9976 0.9756
4.4492 3.0542 -2.9973 0.9756
4.1594 3.4378 -2.9970 0.9756
3.8366 3.7941 -2.9968 0.9756
3.4833 4.1201 -2.9965 0.9756
3.1025 4.4134 -2.9962 0.9756
2.2070 4.7559 -2.9119 0.9763
-1.4059 4.9169 -2.8403 0.9769
-1.8424 4.7838 -2.8471 0.9768
-3.1948 4.3360 -2.9913 0.9757
-3.9122 3.7001 -2.9907 0.9757
-4.5055 2.9474 -2.9902 0.9757
-4.7497 2.5345 -2.9900 0.9757
-4.9561 2.1016 -2.9898 0.9757
-5.1232 1.6520 -2.9897 0.9757
-5.3347 0.7175 -2.9895 0.9757
-5.3773 0.2398 -2.9895 0.9757
-5.3773 -0.2398 -2.9895 0.9757
-5.3346 -0.7174 -2.9895 0.9757
-5.2497 -1.1894 -2.9896 0.9757
-5.1232 -1.6520 -2.9897 0.9757
-4.5054 -2.9472 -2.9901 0.9757
-3.9120 -3.6999 -2.9906 0.9757
-3.5675 -4.0338 -2.9909 0.9757
-3.1946 -4.3358 -2.9911 0.9757
-2.3758 -4.8345 -2.9918 0.9757
-1.4813 -5.1804 -2.9925 0.9756
-1.0145 -5.2923 -2.9928 0.9756
-0.0600 -5.3897 -2.9936 0.9756
0.4200 -5.3743 -2.9940 0.9756
1.3665 -5.2160 -2.9947 0.9756
1.8256 -5.0743 -2.9951 0.9756
3.4832 -4.1199 -2.9964 0.9756
3.8364 -3.7939 -2.9967 0.9756
4.1593 -3.4377 -2.9969 0.9756
4.4491 -3.0541 -2.9972 0.9756
4.9207 -2.2171 -2.9976 0.9756
5.2363 -1.3097 -2.9978 0.9756
5.3322 -0.8384 -2.9979 0.9756
5.3858 -0.3605 -2.9979 0.9756
5.3965 0.1203 -2.9980 0.9756
5.2896 1.0752 -2.9979 0.9756
4.8170 2.4342 -2.9975 0.9756
4.5810 2.8531 -2.9974 0.9756
4.0019 3.6196 -2.9969 0.9756
3.2962 4.2710 -2.9964 0.9756
2.9027 4.5470 -2.9961 0.9756
1.9585 4.7658 -2.8617 0.9767
1.5164 4.8883 -2.8426 0.9769
1.0751 5.0033 -2.8422 0.9769
0.6255 5.0785 -2.8419 0.9769
0.1710 5.1134 -2.8415 0.9769
-0.2848 5.1077 -2.8412 0.9769
-0.7382 5.0614 -2.8408 0.9769
-1.1856 4.9750 -2.8405 0.9769
-1.6235 4.8491 -2.8401 0.9769
-2.9986 4.4742 -2.9914 0.9757
-3.3846 4.1891 -2.9911 0.9757
-3.7436 3.8709 -2.9908 0.9757
-4.0729 3.5220 -2.9906 0.9757
-4.6322 2.7437 -2.9901 0.9757
-4.8577 2.3204 -2.9899 0.9757
-5.0447 1.8787 -2.9898 0.9757
-5.1917 1.4222 -2.9896 0.9757
-5.2975 0.9544 -2.9896 0.9757
-5.3613 0.4791 -2.9895 0.9757
-5.1782 0.0000 -2.9896 0.9764
-5.0963 -0.9181 -2.9897 0.9764
-4.6731 -2.2321 -2.9900 0.9764
-3.9181 -3.3881 -2.9906 0.9764
-3.2559 -4.0298 -2.9911 0.9764
-2.0761 -4.7482 -2.9920 0.9763
-0.7482 -5.1298 -2.9931 0.9763
0.1733 -5.1825 -2.9938 0.9763
0.6339 -5.1471 -2.9941 0.9763
1.9719 -4.7985 -2.9952 0.9763
2.7921 -4.3737 -2.9959 0.9763
3.1706 -4.1082 -2.9962 0.9763
4.1444 -3.1254 -2.9969 0.9763
5.0881 -1.0342 -2.9977 0.9763
5.1601 -0.5772 -2.9978 0.9763
5.1910 -0.1157 -2.9978 0.9763
5.1293 0.8065 -2.9978 0.9763
5.0370 1.2599 -2.9977 0.9763
4.9047 1.7031 -2.9976 0.9763
4.7335 2.1328 -2.9975 0.9763
4.5246 2.5455 -2.9973 0.9763
4.0011 3.3070 -2.9969 0.9763
3.6905 3.6497 -2.9967 0.9763
3.3508 3.9633 -2.9964 0.9763
2.9844 4.2454 -2.9961 0.9763
1.7110 4.7559 -2.9181 0.9769
1.2511 4.7755 -2.8502 0.9775
-0.0548 4.9211 -2.8413 0.9775
-0.4925 4.8960 -2.8410 0.9775
-1.3647 4.7726 -2.8659 0.9773
-2.6902 4.4287 -2.9917 0.9764
-4.3344 2.8354 -2.9903 0.9764
-4.5693 2.4382 -2.9902 0.9764
-4.7679 2.0218 -2.9900 0.9764
-5.0504 1.1443 -2.9898 0.9764
-5.1321 0.6902 -2.9897 0.9764
-5.1731 -0.2307 -2.9896 0.9764
-4.7678 -2.0217 -2.9899 0.9764
-4.3343 -2.8354 -2.9903 0.9764
-2.6901 -4.4285 -2.9915 0.9764
-0.5189 -5.1584 -2.9932 0.9763
-0.0578 -5.1847 -2.9936 0.9763
0.4040 -5.1699 -2.9940 0.9763
0.8626 -5.1141 -2.9943 0.9763
1.3146 -5.0176 -2.9947 0.9763
1.7561 -4.8812 -2.9950 0.9763
2.1839 -4.7061 -2.9954 0.9763
2.5943 -4.4935 -2.9957 0.9763
4.2797 -2.9378 -2.9970 0.9763
4.7334 -2.1327 -2.9974 0.9763
4.9046 -1.7031 -2.9975 0.9763
5.1292 -0.8065 -2.9977 0.9763
5.1601 0.5773 -2.9978 0.9763
4.8239 1.9199 -2.9975 0.9763
4.1446 3.1255 -2.9970 0.9763
3.8496 3.4818 -2.9968 0.9763
3.5241 3.8103 -2.9965 0.9763
3.1707 4.1085 -2.9963 0.9763
2.3916 4.6046 -2.9957 0.9763
1.4777 4.7636 -2.8795 0.9772
1.0342 4.8130 -2.8422 0.9775
0.6017 4.8853 -2.8419 0.9775
