ply
format ascii 1.0
element vertex 1585
property float32 x
property float32 y
property float32 z
property float32 I
end_header
4.2374 -5.4905 -0.2884 0.9726
5.4924 -4.9676 -0.3079 0.9708
4.0262 -5.7273 -0.2911 0.9724
5.0852 -5.0289 -0.2974 0.9718
6.0977 -5.0399 -0.3289 0.9688
3.8523 -6.0345 -0.4170 0.9717
4.7681 -5.1553 -0.4090 0.9723
3.7062 -6.4194 -0.4317 0.9707
4.4861 -5.3062 -0.4047 0.9725
5.0996 -5.0431 -0.4177 0.9717
6.1558 -5.0879 -0.4651 0.9685
-8.2957 7.1736 -0.6388 0.9570
3.7007 -7.1251 -0.6017 0.9683
3.8751 -6.0703 -0.5397 0.9715
4.2683 -5.5306 -0.5235 0.9724
4.7936 -5.1828 -0.5291 0.9721
5.5526 -5.0221 -0.5611 0.9704
5.1296 -5.0728 -0.5406 0.9715
-8.2952 7.1731 -0.8218 0.9570
3.7547 -7.2292 -0.7468 0.9678
3.8983 -6.1066 -0.6642 0.9713
4.2905 -5.5593 -0.6438 0.9722
4.8194 -5.2107 -0.6507 0.9719
5.5947 -5.0601 -0.6916 0.9702
4.0790 -5.8025 -0.6502 0.9719
6.3675 -5.2629 -0.7573 0.9674
-8.2946 7.1726 -1.0053 0.9569
5.6650 -5.1237 -0.8285 0.9697
3.7975 -6.5774 -0.8238 0.9699
4.1026 -5.8361 -0.7738 0.9717
4.5570 -5.3900 -0.7656 0.9720
-8.2940 7.1721 -1.1893 0.9568
3.9695 -6.2182 -0.9245 0.9707
4.3547 -5.6425 -0.8932 0.9717
4.6018 -5.4431 -0.8932 0.9717
5.2573 -5.1991 -0.9266 0.9706
-8.2935 7.1716 -1.3740 0.9568
4.0159 -6.2909 -1.0616 0.9703
5.8681 -5.3074 -1.1254 0.9685
5.3256 -5.2666 -1.0653 0.9702
-8.2929 7.1711 -1.5594 0.9567
4.0927 -6.4111 -1.2112 0.9697
4.4501 -5.7662 -1.1598 0.9709
5.0187 -5.4262 -1.1770 0.9705
6.1271 -5.5417 -1.3155 0.9671
4.2408 -6.0327 -1.1742 0.9706
5.4275 -5.3674 -1.2155 0.9696
5.1115 -5.5265 -1.3274 0.9699
5.5489 -5.4874 -1.3760 0.9688
4.6141 -5.9786 -1.4615 0.9697
13.4065 6.0406 -2.8456 0.9418
12.8157 7.2100 -2.8456 0.9418
12.1232 8.3221 -2.8456 0.9418
11.3345 9.3683 -2.8457 0.9418
10.4559 10.3400 -2.8457 0.9418
9.4942 11.2298 -2.8458 0.9418
8.4571 12.0304 -2.8458 0.9418
7.3529 12.7356 -2.8458 0.9418
4.9785 13.8381 -2.8460 0.9418
3.7272 14.2265 -2.8460 0.9418
-1.4722 14.6340 -2.8462 0.9418
-4.0437 14.1417 -2.8464 0.9418
-5.2864 13.7260 -2.8464 0.9418
-8.7254 11.8423 -2.8466 0.9418
-9.7450 11.0188 -2.8466 0.9418
-10.6872 10.1079 -2.8467 0.9418
-12.9785 6.9255 -2.8468 0.9418
4.4260 -6.2961 -1.4893 0.9691
13.1241 6.6319 -2.8456 0.9418
11.7406 8.8539 -2.8457 0.9418
10.9060 9.8639 -2.8457 0.9418
9.9850 10.7956 -2.8457 0.9418
8.9846 11.6417 -2.8458 0.9418
6.7784 13.0507 -2.8459 0.9418
5.5900 13.6024 -2.8459 0.9418
4.3572 14.0462 -2.8460 0.9418
3.0898 14.3786 -2.8460 0.9418
1.7978 14.5968 -2.8461 0.9418
-0.8188 14.6849 -2.8462 0.9418
-2.1226 14.5541 -2.8463 0.9418
-3.4097 14.3077 -2.8463 0.9418
-5.8927 13.4770 -2.8464 0.9418
-7.0690 12.8993 -2.8465 0.9418
-9.2444 11.4420 -2.8466 0.9418
-11.9394 8.5935 -2.8467 0.9418
-13.7859 5.1339 -2.8468 0.9418
-13.3320 -4.9649 -2.9992 0.9435
-12.8371 -6.1318 -2.9992 0.9435
-10.7607 -9.3052 -2.9991 0.9435
-8.9401 -11.0653 -2.9990 0.9435
-4.5160 -13.4887 -2.9988 0.9435
-3.2975 -13.8369 -2.9988 0.9435
0.4753 -14.2156 -2.9986 0.9435
1.7386 -14.1167 -2.9986 0.9435
2.9881 -13.9056 -2.9985 0.9435
4.2139 -13.5842 -2.9984 0.9435
5.4061 -13.1550 -2.9984 0.9435
6.5554 -12.6214 -2.9983 0.9435
7.6526 -11.9876 -2.9983 0.9435
5.4418 -5.8836 -1.6896 0.9678
10.5473 -9.5395 -2.9981 0.9435
11.3544 -8.5628 -2.9981 0.9435
12.0713 -7.5181 -2.9981 0.9435
12.6924 -6.4137 -2.9980 0.9435
13.2128 -5.2586 -2.9980 0.9435
13.9356 -2.8326 -2.9980 0.9435
14.1324 -1.5809 -2.9980 0.9435
13.7956 3.4505 -2.9980 0.9435
8.7151 10.3083 -2.8458 0.9463
7.7632 11.0433 -2.8458 0.9463
6.7496 11.6906 -2.8459 0.9463
5.6823 12.2451 -2.8459 0.9463
4.5700 12.7025 -2.8460 0.9463
2.2455 13.3120 -2.8461 0.9463
1.0517 13.4593 -2.8461 0.9463
-0.1504 13.4997 -2.8462 0.9463
-1.3514 13.4330 -2.8462 0.9463
-2.5417 13.2596 -2.8463 0.9463
-3.7118 12.9811 -2.8463 0.9463
-4.8526 12.5994 -2.8464 0.9463
-5.9548 12.1177 -2.8464 0.9463
-8.0093 10.8703 -2.8465 0.9463
-9.8100 9.2783 -2.8466 0.9463
-10.5970 8.3684 -2.8467 0.9463
-11.2999 7.3921 -2.8467 0.9463
-11.9131 6.3571 -2.8467 0.9463
-13.5399 4.3661 -2.9992 0.9435
-14.2125 0.6337 -2.9992 0.9435
-14.2125 -0.6338 -2.9992 0.9435
-13.8749 -3.1436 -2.9992 0.9435
-11.9051 -7.7880 -2.9992 0.9435
-8.4383 -11.4525 -2.9990 0.9435
-6.2738 -12.7668 -2.9989 0.9435
-3.9107 -13.6764 -2.9988 0.9435
-1.4238 -14.1526 -2.9987 0.9435
1.1080 -14.1802 -2.9986 0.9435
3.6046 -13.7586 -2.9985 0.9435
7.1110 -12.3168 -2.9983 0.9435
4.5836 -6.5203 -1.6803 0.9679
5.0239 -5.9423 -1.6405 0.9687
10.1120 -9.9999 -2.9982 0.9435
10.9617 -9.0601 -2.9981 0.9435
11.7245 -8.0484 -2.9981 0.9435
12.3942 -6.9729 -2.9981 0.9435
14.0479 -2.2089 -2.9980 0.9435
14.2170 0.3168 -2.9980 0.9435
13.6282 4.0616 -2.9980 0.9435
11.4577 7.1359 -2.8457 0.9463
10.7772 8.1274 -2.8457 0.9463
7.2636 11.3782 -2.8459 0.9463
6.2221 11.9797 -2.8459 0.9463
5.1313 12.4862 -2.8459 0.9463
3.9996 12.8936 -2.8460 0.9463
2.8362 13.1986 -2.8460 0.9463
-0.7516 13.4798 -2.8462 0.9463
-1.9484 13.3596 -2.8463 0.9463
-3.1298 13.1334 -2.8463 0.9463
-4.2864 12.8029 -2.8464 0.9463
-5.4091 12.3708 -2.8464 0.9463
-8.4856 10.5028 -2.8466 0.9463
-9.3869 9.7060 -2.8466 0.9463
-10.9593 7.8881 -2.8467 0.9463
-11.6181 6.8814 -2.8467 0.9463
-12.8825 4.7975 -2.8981 0.9454
-13.7210 3.7586 -2.9992 0.9435
-14.0011 2.5224 -2.9992 0.9435
-14.1701 1.2663 -2.9992 0.9435
-11.8570 -5.6636 -2.9992 0.9475
-11.3057 -6.6964 -2.9991 0.9475
-6.3144 -11.5223 -2.9989 0.9475
-5.2637 -12.0384 -2.9989 0.9475
-4.1713 -12.4590 -2.9988 0.9475
-3.0458 -12.7806 -2.9988 0.9475
-0.7314 -13.1176 -2.9987 0.9475
1.6059 -13.0390 -2.9986 0.9475
3.8922 -12.5473 -2.9985 0.9475
7.0685 -11.0726 -2.9983 0.9475
8.9195 -9.6436 -2.9982 0.9475
9.7423 -8.8113 -2.9982 0.9475
12.5881 -3.7517 -2.9980 0.9475
13.0538 -1.4603 -2.9980 0.9475
13.1319 -0.2926 -2.9980 0.9475
13.1058 0.8773 -2.9980 0.9475
12.9757 2.0403 -2.9980 0.9475
11.3671 5.1218 -2.8457 0.9501
10.8662 6.1132 -2.8457 0.9501
8.8653 8.7671 -2.8458 0.9501
8.0499 9.5215 -2.8458 0.9501
4.2212 11.7329 -2.8460 0.9501
3.1602 12.0622 -2.8460 0.9501
0.9714 12.4318 -2.8461 0.9501
-0.1389 12.4692 -2.8462 0.9501
-1.2482 12.4075 -2.8462 0.9501
-5.5002 11.1926 -2.8464 0.9501
-6.4747 10.6588 -2.8465 0.9501
-7.3978 10.0404 -2.8465 0.9501
-8.2622 9.3422 -2.8466 0.9501
-11.0036 5.8717 -2.8467 0.9501
-11.4826 4.8691 -2.8467 0.9501
-12.5061 4.0327 -2.9992 0.9475
-12.8154 2.9036 -2.9992 0.9475
-13.0231 1.7514 -2.9992 0.9475
-13.1273 0.5854 -2.9992 0.9475
-13.1273 -0.5854 -2.9992 0.9475
-13.0231 -1.7514 -2.9992 0.9475
-12.8155 -2.9036 -2.9992 0.9475
-12.0975 -5.1298 -2.9992 0.9475
-11.5928 -6.1862 -2.9991 0.9475
-10.3122 -8.1435 -2.9991 0.9475
-8.7047 -9.8426 -2.9990 0.9475
-4.7222 -12.2609 -2.9988 0.9475
-2.4734 -12.9034 -2.9987 0.9475
-1.3151 -13.0721 -2.9987 0.9475
1.0235 -13.0977 -2.9986 0.9475
4.4472 -12.3613 -2.9984 0.9475
6.5683 -11.3766 -2.9983 0.9475
7.5547 -10.7466 -2.9983 0.9475
5.4551 -6.4523 -1.9285 0.9659
9.3401 -9.2367 -2.9982 0.9475
10.1250 -8.3686 -2.9982 0.9475
10.8296 -7.4341 -2.9981 0.9475
12.4085 -4.3087 -2.9981 0.9475
12.9758 -2.0404 -2.9980 0.9475
13.1058 -0.8773 -2.9980 0.9475
13.0537 1.4603 -2.9980 0.9475
12.5881 3.7516 -2.9980 0.9475
10.5832 6.5912 -2.8457 0.9501
9.9546 7.5071 -2.8457 0.9501
6.7092 10.5097 -2.8459 0.9501
5.7472 11.0653 -2.8459 0.9501
4.7396 11.5331 -2.8460 0.9501
3.6943 11.9094 -2.8460 0.9501
1.5243 12.3761 -2.8461 0.9501
0.4167 12.4629 -2.8462 0.9501
-0.6942 12.4507 -2.8462 0.9501
-1.7997 12.3397 -2.8463 0.9501
-4.9961 11.4264 -2.8464 0.9501
-5.9934 10.9366 -2.8465 0.9501
-7.8378 9.7009 -2.8465 0.9501
-8.6702 8.9649 -2.8466 0.9501
-10.1226 7.2858 -2.8466 0.9501
-11.2542 5.3757 -2.8467 0.9501
-12.9321 2.3298 -2.9992 0.9475
-12.2016 0.0000 -2.9992 0.9510
-12.0083 -2.1634 -2.9992 0.9510
-11.7680 -3.2236 -2.9991 0.9510
-8.4820 -8.7704 -2.9990 0.9510
-6.7925 -10.1351 -2.9989 0.9510
-4.8877 -11.1785 -2.9988 0.9510
-2.8282 -11.8676 -2.9988 0.9510
-1.7607 -12.0721 -2.9987 0.9510
-0.6792 -12.1807 -2.9987 0.9510
0.4076 -12.1926 -2.9986 0.9510
2.5629 -11.9267 -2.9985 0.9510
6.5637 -10.2818 -2.9983 0.9510
9.7387 -7.3444 -2.9982 0.9510
11.6892 -3.4837 -2.9981 0.9510
12.1941 -0.2717 -2.9981 0.9510
11.8327 2.9595 -2.9981 0.9510
9.5450 6.5523 -2.8458 0.9534
8.9240 7.3759 -2.8458 0.9534
7.4750 8.8415 -2.8458 0.9534
3.9197 10.8949 -2.8460 0.9534
2.9345 11.2007 -2.8460 0.9534
1.9259 11.4176 -2.8461 0.9534
0.9021 11.5439 -2.8461 0.9534
-0.1290 11.5786 -2.8462 0.9534
-4.1620 10.8063 -2.8464 0.9534
-6.0122 9.8974 -2.8465 0.9534
-6.8693 9.3231 -2.8465 0.9534
-7.6720 8.6749 -2.8465 0.9534
-8.4138 7.9577 -2.8466 0.9534
-9.6916 6.3399 -2.8466 0.9534
-11.6127 3.7446 -2.9991 0.9510
-11.8999 2.6962 -2.9991 0.9510
-12.0927 1.6263 -2.9991 0.9510
-12.1895 -0.5435 -2.9992 0.9510
-12.0928 -1.6263 -2.9992 0.9510
-11.9000 -2.6962 -2.9991 0.9510
-11.2333 -4.7633 -2.9991 0.9510
-10.2106 -6.6795 -2.9991 0.9510
-8.8644 -8.3839 -2.9990 0.9510
-8.0829 -9.1395 -2.9990 0.9510
-7.2373 -9.8225 -2.9990 0.9510
-5.3809 -10.9497 -2.9989 0.9510
-4.3849 -11.3850 -2.9988 0.9510
-2.2967 -11.9818 -2.9987 0.9510
-0.1359 -12.1987 -2.9986 0.9510
0.9504 -12.1622 -2.9986 0.9510
3.0916 -11.8006 -2.9985 0.9510
6.0992 -10.5641 -2.9983 0.9510
7.8754 -9.3151 -2.9983 0.9510
9.4020 -7.7709 -2.9982 0.9510
10.0562 -6.9032 -2.9982 0.9510
11.1206 -5.0107 -2.9981 0.9510
11.5224 -4.0010 -2.9981 0.9510
11.8327 -2.9596 -2.9981 0.9510
12.0491 -1.8946 -2.9981 0.9510
12.1699 -0.8147 -2.9981 0.9510
11.9528 2.4295 -2.9981 0.9510
9.8274 6.1205 -2.8457 0.9534
8.5866 7.7662 -2.8458 0.9534
7.8614 8.4997 -2.8458 0.9534
7.0738 9.1658 -2.8459 0.9534
6.2300 9.7591 -2.8459 0.9534
3.4305 11.0588 -2.8460 0.9534
2.4326 11.3204 -2.8461 0.9534
1.4154 11.4922 -2.8461 0.9534
-0.6447 11.5614 -2.8462 0.9534
-3.6764 10.9809 -2.8463 0.9534
-4.6392 10.6102 -2.8464 0.9534
-8.1532 7.0503 -2.6494 0.9566
-11.7680 3.2236 -2.9991 0.9510
-10.9774 -3.0070 -2.9991 0.9540
-10.6661 -3.9721 -2.9991 0.9540
-10.2702 -4.9057 -2.9991 0.9540
-9.2376 -6.6488 -2.9990 0.9540
-8.6091 -7.4446 -2.9990 0.9540
-7.9122 -8.1812 -2.9990 0.9540
-7.1526 -8.8528 -2.9989 0.9540
-6.3361 -9.4542 -2.9989 0.9540
-4.5594 -10.4275 -2.9988 0.9540
-3.6131 -10.7918 -2.9988 0.9540
-1.6424 -11.2611 -2.9987 0.9540
-0.6336 -11.3624 -2.9987 0.9540
1.3910 -11.2944 -2.9986 0.9540
2.3907 -11.1256 -2.9985 0.9540
4.3253 -10.5251 -2.9984 0.9540
6.1228 -9.5912 -2.9983 0.9540
6.9521 -9.0081 -2.9983 0.9540
10.1553 -5.1317 -2.9982 0.9540
10.9041 -3.2498 -2.9981 0.9540
11.3074 -1.2649 -2.9981 0.9540
11.3525 0.7600 -2.9981 0.9540
11.0380 2.7608 -2.9981 0.9540
10.7485 3.7323 -2.9981 0.9540
9.4125 5.2954 -2.8458 0.9563
8.3246 6.8805 -2.8458 0.9563
6.9730 8.2476 -2.8459 0.9563
4.5464 9.7972 -2.8460 0.9563
1.7965 10.6507 -2.8461 0.9563
0.8415 10.7685 -2.8461 0.9563
-0.1203 10.8008 -2.8462 0.9563
-2.0335 10.6087 -2.8463 0.9563
-5.6083 9.2325 -2.8464 0.9563
-6.4079 8.6968 -2.8465 0.9563
-7.8485 7.4231 -2.8465 0.9563
-8.4781 6.6951 -2.8466 0.9563
-9.0405 5.9140 -2.8466 0.9563
-10.4785 4.4433 -2.9991 0.9540
-11.1004 2.5150 -2.9991 0.9540
-11.3705 0.5070 -2.9991 0.9540
-11.3706 -0.5070 -2.9991 0.9540
-11.2803 -1.5171 -2.9991 0.9540
-11.1005 -2.5150 -2.9991 0.9540
-10.4786 -4.4433 -2.9991 0.9540
-10.0415 -5.3583 -2.9991 0.9540
-9.5246 -6.2307 -2.9990 0.9540
-8.9322 -7.0537 -2.9990 0.9540
-7.5399 -8.5255 -2.9990 0.9540
-6.7510 -9.1626 -2.9989 0.9540
-5.0194 -10.2141 -2.9989 0.9540
-1.1391 -11.3230 -2.9987 0.9540
-0.1268 -11.3793 -2.9986 0.9540
1.8928 -11.2212 -2.9985 0.9540
2.8840 -11.0080 -2.9985 0.9540
3.8522 -10.7074 -2.9985 0.9540
4.7899 -10.3219 -2.9984 0.9540
6.5439 -9.3089 -2.9983 0.9540
7.3464 -8.6894 -2.9983 0.9540
8.7705 -7.2490 -2.9982 0.9540
9.3808 -6.4395 -2.9982 0.9540
9.9166 -5.5790 -2.9982 0.9540
11.2399 -1.7674 -2.9981 0.9540
11.3074 1.2649 -2.9981 0.9540
10.9040 3.2497 -2.9981 0.9540
9.6391 4.8708 -2.8458 0.9563
8.0099 7.2445 -2.8458 0.9563
6.5987 8.5501 -2.8459 0.9563
5.8115 9.1036 -2.8459 0.9563
4.1055 9.9901 -2.8460 0.9563
3.2000 10.3160 -2.8460 0.9563
-0.6013 10.7848 -2.8462 0.9563
-2.5041 10.5076 -2.8463 0.9563
-3.4294 10.2432 -2.8463 0.9563
-5.1914 9.4731 -2.8464 0.9563
-6.0140 8.9736 -2.8465 0.9563
-6.7889 8.4028 -2.8465 0.9563
-7.5100 7.7653 -2.8465 0.9563
-8.7680 6.3108 -2.8466 0.9563
-9.2950 5.5054 -2.8466 0.9563
-10.9774 3.0070 -2.9991 0.9540
-11.3367 1.0130 -2.9991 0.9540
-10.6594 0.0000 -2.9991 0.9567
-10.6171 -0.9487 -2.9991 0.9567
-10.2806 -2.8162 -2.9991 0.9567
-9.9891 -3.7200 -2.9991 0.9567
-7.4100 -7.6619 -2.9990 0.9567
-6.6986 -8.2909 -2.9989 0.9567
-5.1223 -9.3471 -2.9989 0.9567
-2.4708 -10.3678 -2.9987 0.9567
-1.5382 -10.5464 -2.9987 0.9567
-0.5934 -10.6413 -2.9987 0.9567
1.3028 -10.5776 -2.9986 0.9567
2.2390 -10.4196 -2.9985 0.9567
3.1575 -10.1788 -2.9985 0.9567
4.0509 -9.8572 -2.9984 0.9567
4.9121 -9.4574 -2.9984 0.9567
5.7343 -8.9826 -2.9984 0.9567
6.5109 -8.4364 -2.9983 0.9567
9.0454 -5.6335 -2.9982 0.9567
9.5108 -4.8061 -2.9982 0.9567
10.5899 -1.1847 -2.9981 0.9567
10.6533 -0.2374 -2.9981 0.9567
10.5266 1.6552 -2.9981 0.9567
10.0664 3.4954 -2.9981 0.9567
8.3389 5.7243 -2.8458 0.9588
7.7964 6.4439 -2.8458 0.9588
6.5305 7.7243 -2.8459 0.9588
5.0576 8.7600 -2.8460 0.9588
2.5636 9.7853 -2.8461 0.9588
1.6825 9.9748 -2.8461 0.9588
0.7881 10.0851 -2.8461 0.9588
-0.1127 10.1154 -2.8462 0.9588
-1.0126 10.0653 -2.8462 0.9588
-2.7812 9.7265 -2.8463 0.9588
-5.2523 8.6465 -2.8464 0.9588
-6.0011 8.1448 -2.8465 0.9588
-6.7023 7.5785 -2.8465 0.9588
-7.9400 6.2701 -2.8466 0.9588
-10.5643 1.4208 -2.9991 0.9567
-10.6488 -0.4748 -2.9991 0.9567
-10.3959 -2.3554 -2.9991 0.9567
-9.4041 -5.0182 -2.9990 0.9567
-7.7440 -7.3242 -2.9990 0.9567
-7.0613 -7.9843 -2.9989 0.9567
-6.3226 -8.5811 -2.9989 0.9567
-4.7008 -9.5659 -2.9988 0.9567
-2.9302 -10.2475 -2.9988 0.9567
-2.0065 -10.4675 -2.9987 0.9567
-0.1187 -10.6571 -2.9986 0.9567
3.6078 -10.0279 -2.9985 0.9567
5.3284 -9.2292 -2.9984 0.9567
6.1287 -8.7182 -2.9983 0.9567
8.2139 -6.7890 -2.9982 0.9567
8.7855 -6.0309 -2.9982 0.9567
9.7155 -4.3776 -2.9982 0.9567
10.3376 -2.5856 -2.9981 0.9567
10.6533 0.2374 -2.9981 0.9567
10.4425 2.1225 -2.9981 0.9567
10.2121 3.0435 -2.9981 0.9567
8.0757 6.0902 -2.8458 0.9588
7.5016 6.7848 -2.8459 0.9588
5.4428 8.5259 -2.8459 0.9588
4.6624 8.9766 -2.8460 0.9588
2.1252 9.8898 -2.8461 0.9588
1.2365 10.0399 -2.8461 0.9588
-0.5632 10.1003 -2.8462 0.9588
-4.0529 9.2693 -2.8464 0.9588
-5.6323 8.4040 -2.8464 0.9588
-6.3581 7.8695 -2.8465 0.9588
-7.0333 7.2724 -2.8465 0.9588
-7.6528 6.6176 -2.8465 0.9588
-8.7050 5.1560 -2.8466 0.9588
-9.9891 3.7200 -2.9990 0.9567
-10.2806 2.8161 -2.9991 0.9567
-10.6171 0.9487 -2.9991 0.9567
-9.9778 -0.8916 -2.9991 0.9590
-9.8588 -1.7762 -2.9991 0.9590
-9.0392 -4.3177 -2.9990 0.9590
-6.9638 -7.2006 -2.9989 0.9590
-6.2952 -7.7917 -2.9989 0.9590
-5.5767 -8.3210 -2.9989 0.9590
-4.0129 -9.1778 -2.9988 0.9590
-2.3220 -9.7436 -2.9987 0.9590
1.2243 -9.9408 -2.9986 0.9590
4.6163 -8.8881 -2.9984 0.9590
6.1190 -7.9286 -2.9983 0.9590
6.8003 -7.3524 -2.9983 0.9590
7.4276 -6.7179 -2.9983 0.9590
7.9960 -6.0301 -2.9983 0.9590
8.9383 -4.5167 -2.9982 0.9590
9.3048 -3.7033 -2.9982 0.9590
9.8139 -1.9947 -2.9982 0.9590
9.9525 -1.1133 -2.9982 0.9590
10.0120 -0.2231 -2.9982 0.9590
9.1306 4.1140 -2.9982 0.9590
12.3667 6.9574 -4.2480 0.9425
7.8369 5.3797 -2.8458 0.9611
6.7590 6.6842 -2.8459 0.9611
6.1373 7.2593 -2.8459 0.9611
5.4669 7.7768 -2.8459 0.9611
4.0015 8.6231 -2.8460 0.9611
3.2182 8.9452 -2.8460 0.9611
2.4093 9.1962 -2.8461 0.9611
1.5812 9.3742 -2.8461 0.9611
-0.9516 9.4593 -2.8462 0.9611
-1.7898 9.3372 -2.8463 0.9611
-3.4170 8.8722 -2.8463 0.9611
-4.1932 8.5329 -2.8464 0.9611
-4.9361 8.1259 -2.8464 0.9611
-6.2988 7.1222 -2.8465 0.9611
-6.9078 6.5333 -2.8465 0.9611
-7.9569 5.2051 -2.8466 0.9611
-8.8378 4.7160 -2.9990 0.9590
-9.2225 3.9107 -2.9990 0.9590
-9.7699 2.2136 -2.9990 0.9590
-9.9281 1.3352 -2.9991 0.9590
-10.0076 -0.4462 -2.9991 0.9590
-9.9282 -1.3352 -2.9991 0.9590
-9.5341 -3.0744 -2.9990 0.9590
-9.2226 -3.9107 -2.9990 0.9590
-8.3830 -5.4839 -2.9990 0.9590
-7.8615 -6.2082 -2.9990 0.9590
-7.2777 -6.8832 -2.9989 0.9590
-6.6361 -7.5036 -2.9989 0.9590
-4.4178 -8.9899 -2.9988 0.9590
-1.8857 -9.8373 -2.9987 0.9590
-1.0026 -9.9660 -2.9987 0.9590
-0.1116 -10.0155 -2.9986 0.9590
0.7803 -9.9855 -2.9986 0.9590
2.5383 -9.6887 -2.9985 0.9590
3.3906 -9.4243 -2.9985 0.9590
4.2159 -9.0850 -2.9984 0.9590
5.0077 -8.6736 -2.9984 0.9590
5.7597 -8.1933 -2.9984 0.9590
6.4660 -7.6480 -2.9983 0.9590
8.7283 -4.9105 -2.9982 0.9590
9.1306 -4.1141 -2.9982 0.9590
9.7153 -2.4300 -2.9982 0.9590
9.8930 -1.5556 -2.9982 0.9590
9.8139 1.9947 -2.9982 0.9590
9.3048 3.7032 -2.9982 0.9590
8.0688 5.0253 -2.8458 0.9611
5.8079 7.5255 -2.8459 0.9611
5.1151 8.0127 -2.8460 0.9611
2.8166 9.0797 -2.8461 0.9611
1.9973 9.2945 -2.8461 0.9611
1.1621 9.4355 -2.8461 0.9611
0.3177 9.5016 -2.8462 0.9611
-0.5293 9.4923 -2.8462 0.9611
-1.3721 9.4076 -2.8462 0.9611
-2.2040 9.2483 -2.8463 0.9611
-3.0184 9.0155 -2.8463 0.9611
-3.8089 8.7112 -2.8464 0.9611
-4.5692 8.3377 -2.8464 0.9611
-5.9752 7.3956 -2.8465 0.9611
-7.1920 6.2192 -2.8465 0.9611
-7.7171 5.5544 -2.8465 0.9611
-9.0391 4.3176 -2.9990 0.9590
-9.3876 3.4960 -2.9990 0.9590
-9.8588 1.7761 -2.9990 0.9590
-9.9778 0.8916 -2.9991 0.9590
-9.2936 -1.6743 -2.9990 0.9611
-9.1077 -2.4949 -2.9990 0.9611
-8.8495 -3.2956 -2.9990 0.9611
-8.5210 -4.0701 -2.9990 0.9611
-6.5646 -6.7878 -2.9989 0.9611
-3.7829 -8.6516 -2.9988 0.9611
-2.9978 -8.9539 -2.9988 0.9611
-0.5257 -9.4274 -2.9986 0.9611
0.3155 -9.4367 -2.9986 0.9611
2.7973 -9.0177 -2.9985 0.9611
3.5888 -8.7328 -2.9985 0.9612
4.3517 -8.3786 -2.9984 0.9612
5.0802 -7.9580 -2.9984 0.9612
5.7682 -7.4741 -2.9984 0.9612
6.4105 -6.9310 -2.9983 0.9612
8.4260 -4.2579 -2.9982 0.9612
8.7715 -3.4910 -2.9982 0.9612
9.0474 -2.6964 -2.9982 0.9612
9.2514 -1.8804 -2.9982 0.9612
9.4195 0.6306 -2.9982 0.9612
9.3260 1.4664 -2.9982 0.9612
8.9183 3.0968 -2.9982 0.9612
8.6073 3.8782 -2.9982 0.9612
11.6579 6.5586 -4.2481 0.9454
6.3716 6.3010 -2.8459 0.9631
5.7856 6.8432 -2.8459 0.9631
5.1536 7.3311 -2.8460 0.9631
4.4807 7.7607 -2.8460 0.9631
3.0337 8.4325 -2.8460 0.9631
1.4906 8.8370 -2.8461 0.9631
0.6982 8.9346 -2.8462 0.9631
-5.3165 7.2157 -2.8464 0.9631
-5.9377 6.7139 -2.8465 0.9631
-7.0342 5.5548 -2.8465 0.9631
-8.3311 4.4456 -2.9990 0.9611
-8.9875 2.8981 -2.9990 0.9611
-9.4339 0.4206 -2.9990 0.9611
-9.4339 -0.4207 -2.9990 0.9611
-8.9875 -2.8981 -2.9990 0.9611
-8.6939 -3.6865 -2.9990 0.9611
-8.3312 -4.4457 -2.9990 0.9611
-7.4109 -5.8523 -2.9990 0.9611
-6.8605 -6.4886 -2.9989 0.9611
-6.2557 -7.0735 -2.9989 0.9611
-4.9023 -8.0704 -2.9988 0.9611
-2.5959 -9.0785 -2.9987 0.9611
-1.7776 -9.2734 -2.9987 0.9611
-0.9451 -9.3947 -2.9987 0.9611
0.7356 -9.4132 -2.9986 0.9611
1.5704 -9.3102 -2.9986 0.9611
2.3928 -9.1334 -2.9985 0.9611
4.7206 -8.1764 -2.9984 0.9612
5.4296 -7.7237 -2.9984 0.9612
6.0954 -7.2097 -2.9983 0.9612
7.2770 -6.0146 -2.9983 0.9612
7.7834 -5.3430 -2.9983 0.9612
8.2280 -4.6290 -2.9982 0.9612
8.6073 -3.8783 -2.9982 0.9612
8.9183 -3.0968 -2.9982 0.9612
9.3260 -1.4664 -2.9982 0.9612
9.4195 -0.6306 -2.9982 0.9612
9.3820 1.0495 -2.9982 0.9612
11.9384 6.0328 -4.2481 0.9454
11.3542 7.0714 -4.2481 0.9454
7.1545 5.3955 -2.8459 0.9631
6.6460 6.0110 -2.8459 0.9631
4.8219 7.5534 -2.8460 0.9631
4.1305 7.9527 -2.8460 0.9631
2.6551 8.5593 -2.8461 0.9631
1.0955 8.8946 -2.8461 0.9631
0.2995 8.9569 -2.8462 0.9631
-1.2934 8.8683 -2.8462 0.9631
-2.0776 8.7181 -2.8463 0.9631
-2.8454 8.4987 -2.8463 0.9631
-3.5906 8.2118 -2.8463 0.9631
-4.3073 7.8598 -2.8464 0.9631
-4.9898 7.4453 -2.8464 0.9631
-6.2309 6.4427 -2.8465 0.9631
-6.7797 5.8626 -2.8465 0.9631
-7.2747 5.2360 -2.8465 0.9631
-8.0417 4.7631 -2.9683 0.9615
-8.5209 4.0701 -2.9990 0.9611
-9.4058 0.8405 -2.9990 0.9611
-8.9261 0.0000 -2.9990 0.9630
-8.0543 -3.8472 -2.9990 0.9630
-7.2445 -5.2143 -2.9989 0.9630
-6.7516 -5.8384 -2.9989 0.9630
-6.2051 -6.4161 -2.9989 0.9630
-5.6094 -6.9428 -2.9989 0.9630
-4.2894 -7.8272 -2.9988 0.9630
-3.5757 -8.1779 -2.9988 0.9630
0.2982 -8.9199 -2.9986 0.9630
1.0910 -8.8579 -2.9986 0.9630
1.8750 -8.7255 -2.9985 0.9630
2.6441 -8.5239 -2.9985 0.9630
4.1135 -7.9199 -2.9984 0.9630
4.8020 -7.5222 -2.9984 0.9630
6.6185 -5.9861 -2.9983 0.9630
7.5749 -4.7177 -2.9983 0.9630
8.2913 -3.2998 -2.9982 0.9630
8.5520 -2.5488 -2.9982 0.9630
8.9215 -0.1988 -2.9982 0.9630
8.9038 0.5961 -2.9982 0.9630
8.8154 1.3861 -2.9982 0.9630
8.1360 3.6659 -2.9982 0.9630
10.4242 7.1558 -4.2481 0.9480
6.5290 5.3963 -2.8459 0.9649
4.2353 7.3358 -2.8460 0.9649
3.5656 7.6837 -2.8460 0.9649
2.1468 8.1944 -2.8461 0.9649
1.4090 8.3530 -2.8461 0.9649
0.6599 8.4454 -2.8462 0.9649
-0.0944 8.4707 -2.8462 0.9649
-2.3290 8.1451 -2.8463 0.9649
-3.0448 7.9056 -2.8463 0.9649
-4.3983 7.2406 -2.8464 0.9649
-5.0254 6.8205 -2.8464 0.9649
-5.6126 6.3462 -2.8464 0.9649
-7.2881 4.7676 -2.9261 0.9639
-8.8464 1.1897 -2.9990 0.9630
-8.9172 -0.3976 -2.9990 0.9630
-8.4953 -2.7394 -2.9990 0.9630
-7.4696 -4.8864 -2.9990 0.9630
-7.0050 -5.5318 -2.9989 0.9630
-6.4848 -6.1333 -2.9989 0.9630
-4.6339 -7.6284 -2.9988 0.9630
-3.2078 -8.3290 -2.9988 0.9630
-0.8934 -8.8802 -2.9987 0.9630
0.6953 -8.8978 -2.9986 0.9630
1.4845 -8.8004 -2.9986 0.9630
2.2618 -8.6333 -2.9985 0.9630
3.0212 -8.3976 -2.9985 0.9630
3.7566 -8.0953 -2.9985 0.9630
5.1323 -7.3008 -2.9984 0.9630
8.4300 -2.9272 -2.9982 0.9630
8.8684 0.9921 -2.9982 0.9630
8.7449 1.7775 -2.9982 0.9630
8.5520 2.5488 -2.9982 0.9630
10.7325 6.6843 -4.2481 0.9480
6.2821 5.6819 -2.8459 0.9649
5.1753 6.7057 -2.8460 0.9649
2.5097 8.0906 -2.8461 0.9649
1.7797 8.2819 -2.8461 0.9649
0.2831 8.4665 -2.8462 0.9649
-0.4716 8.4582 -2.8462 0.9649
-1.2226 8.3827 -2.8462 0.9649
-1.9639 8.2408 -2.8463 0.9649
-5.8897 6.0899 -2.8465 0.9649
-8.6089 2.3582 -2.9990 0.9630
-8.7846 1.5826 -2.9990 0.9630
-8.8907 0.7945 -2.9990 0.9630
-8.4577 0.0000 -2.9990 0.9647
-8.4241 -0.7528 -2.9990 0.9647
-8.3237 -1.4996 -2.9990 0.9647
-8.1572 -2.2345 -2.9990 0.9647
-7.6317 -3.6454 -2.9990 0.9647
-6.8644 -4.9407 -2.9989 0.9647
-5.8795 -6.0794 -2.9989 0.9647
-4.7084 -7.0254 -2.9988 0.9647
-3.3881 -7.7488 -2.9988 0.9647
-1.9605 -8.2266 -2.9987 0.9647
-1.2205 -8.3683 -2.9987 0.9647
-0.4708 -8.4436 -2.9986 0.9647
1.0337 -8.3931 -2.9986 0.9647
1.7766 -8.2677 -2.9985 0.9647
3.8977 -7.5044 -2.9984 0.9647
4.5501 -7.1276 -2.9984 0.9647
5.1664 -6.6943 -2.9984 0.9647
5.7416 -6.2078 -2.9984 0.9647
6.7512 -5.0913 -2.9983 0.9647
7.5469 -3.8136 -2.9983 0.9648
8.1034 -2.4151 -2.9982 0.9648
8.2861 -1.6842 -2.9982 0.9648
8.4031 -0.9400 -2.9982 0.9648
8.4535 -0.1884 -2.9982 0.9648
8.3529 1.3134 -2.9982 0.9648
8.2029 2.0517 -2.9982 0.9648
7.3695 4.1460 -2.9983 0.9648
9.8773 6.7804 -4.2481 0.9504
4.6158 6.5661 -2.8460 0.9665
4.0131 6.9510 -2.8460 0.9665
3.3786 7.2807 -2.8460 0.9665
1.3351 7.9148 -2.8461 0.9665
-0.8035 7.9866 -2.8462 0.9665
-1.5111 7.8835 -2.8463 0.9665
-2.2068 7.7178 -2.8463 0.9665
-3.5403 7.2043 -2.8463 0.9665
-4.7617 6.4626 -2.8464 0.9665
-5.3181 6.0132 -2.8464 0.9665
-5.8322 5.5161 -2.8465 0.9665
-7.7865 3.3018 -2.9990 0.9647
-8.0495 2.5956 -2.9990 0.9647
-8.3822 1.1273 -2.9990 0.9647
-8.3822 -1.1273 -2.9990 0.9647
-8.0495 -2.5956 -2.9990 0.9647
-7.0777 -4.6300 -2.9989 0.9647
-6.6374 -5.2415 -2.9989 0.9647
-5.6029 -6.3353 -2.9989 0.9647
-5.0167 -6.8087 -2.9988 0.9647
-4.3907 -7.2281 -2.9988 0.9647
-3.7299 -7.5902 -2.9988 0.9647
-1.5921 -8.3057 -2.9987 0.9647
-0.8465 -8.4144 -2.9987 0.9647
-0.0942 -8.4562 -2.9986 0.9647
1.4066 -8.3387 -2.9986 0.9647
2.1432 -8.1803 -2.9985 0.9647
4.8630 -6.9178 -2.9984 0.9647
5.4594 -6.4574 -2.9984 0.9647
6.0124 -5.9458 -2.9983 0.9647
6.5177 -5.3870 -2.9983 0.9647
7.3695 -4.1460 -2.9983 0.9647
8.3529 -1.3134 -2.9982 0.9648
8.4535 0.1884 -2.9982 0.9648
8.4031 0.9400 -2.9982 0.9648
8.2862 1.6842 -2.9982 0.9648
8.1034 2.4151 -2.9982 0.9648
4.9037 6.3540 -2.8460 0.9665
1.6863 7.8474 -2.8461 0.9665
0.9812 7.9665 -2.8461 0.9665
-1.1584 7.9429 -2.8462 0.9665
-1.8608 7.8084 -2.8463 0.9665
-3.2159 7.3548 -2.8463 0.9665
-3.8578 7.0395 -2.8464 0.9665
-5.5807 5.7704 -2.8464 0.9665
-6.0722 5.2508 -2.8465 0.9665
-6.6277 4.7704 -2.8955 0.9659
-7.2769 4.3101 -2.9989 0.9647
-8.1572 2.2345 -2.9990 0.9647
-8.3237 1.4996 -2.9990 0.9647
-8.4241 0.7528 -2.9990 0.9647
-8.0313 -0.0000 -2.9990 0.9663
-7.9994 -0.7148 -2.9990 0.9663
-7.5263 -2.8028 -2.9990 0.9663
-6.9100 -4.0928 -2.9989 0.9663
-6.5183 -4.6916 -2.9989 0.9663
-5.0471 -6.2469 -2.9988 0.9663
-4.4710 -6.6712 -2.9988 0.9663
-3.8595 -7.0426 -2.9988 0.9663
-3.2173 -7.3581 -2.9988 0.9663
-2.5496 -7.6152 -2.9987 0.9663
-1.8616 -7.8118 -2.9987 0.9663
1.6871 -7.8510 -2.9985 0.9663
2.3791 -7.6696 -2.9985 0.9663
3.0523 -7.4273 -2.9985 0.9663
4.3207 -6.7683 -2.9984 0.9663
5.9552 -5.3862 -2.9983 0.9663
6.4109 -4.8347 -2.9983 0.9663
6.8157 -4.2449 -2.9983 0.9663
7.8685 -1.5993 -2.9983 0.9663
7.9796 -0.8926 -2.9982 0.9663
8.0273 -0.1789 -2.9982 0.9663
8.0114 0.5363 -2.9982 0.9663
7.9319 1.2472 -2.9982 0.9663
7.7894 1.9482 -2.9982 0.9663
7.3206 3.2985 -2.9983 0.9663
6.9980 3.9370 -2.9983 0.9663
6.6198 4.5443 -2.9983 0.9663
5.8746 4.8555 -2.8459 0.9680
4.3832 6.2351 -2.8460 0.9680
3.2083 6.9136 -2.8460 0.9680
2.5802 7.1718 -2.8461 0.9680
-0.0849 7.6217 -2.8462 0.9680
-2.0956 7.3287 -2.8463 0.9680
-2.7396 7.1131 -2.8463 0.9680
-3.9574 6.5148 -2.8464 0.9680
-4.5216 6.1368 -2.8464 0.9680
-7.0855 3.7809 -2.9989 0.9663
-7.6437 2.4647 -2.9989 0.9663
-7.9596 1.0704 -2.9990 0.9663
-8.0233 0.3578 -2.9990 0.9663
-8.0233 -0.3577 -2.9990 0.9663
-7.8327 -1.7746 -2.9990 0.9663
-7.6437 -2.4648 -2.9990 0.9663
-7.3939 -3.1353 -2.9989 0.9663
-7.0855 -3.7809 -2.9989 0.9663
-6.7208 -4.3965 -2.9989 0.9663
-6.3028 -4.9772 -2.9989 0.9663
-5.8347 -5.5185 -2.9989 0.9663
-5.3204 -6.0159 -2.9989 0.9663
-4.7638 -6.4654 -2.9988 0.9663
-4.1694 -6.8637 -2.9988 0.9663
-2.8863 -7.4941 -2.9988 0.9663
-2.2078 -7.7212 -2.9987 0.9663
-1.5118 -7.8869 -2.9987 0.9663
-0.8038 -7.9901 -2.9987 0.9663
-0.0895 -8.0299 -2.9986 0.9663
0.6256 -8.0059 -2.9986 0.9663
2.7184 -7.5559 -2.9985 0.9663
3.3801 -7.2839 -2.9985 0.9663
6.1892 -5.1155 -2.9983 0.9663
6.6199 -4.5443 -2.9983 0.9663
7.5851 -2.6338 -2.9983 0.9663
8.0273 0.1789 -2.9982 0.9663
7.8684 1.5993 -2.9982 0.9663
7.6949 2.2933 -2.9983 0.9663
7.1664 3.6213 -2.9983 0.9663
6.2442 4.7089 -2.9203 0.9672
5.1751 5.5952 -2.8460 0.9680
4.6565 6.0337 -2.8460 0.9680
4.1011 6.4242 -2.8460 0.9680
3.5130 6.7638 -2.8460 0.9680
0.9317 7.5648 -2.8461 0.9680
0.2547 7.6178 -2.8462 0.9680
-0.4243 7.6104 -2.8462 0.9680
-2.4200 7.2281 -2.8463 0.9680
-3.0537 6.9841 -2.8463 0.9680
-3.6633 6.6846 -2.8464 0.9680
-4.2437 6.3321 -2.8464 0.9680
-4.7905 5.9293 -2.8464 0.9680
-7.5262 2.8028 -2.9989 0.9663
-7.7459 2.1218 -2.9990 0.9663
-7.6109 -0.6801 -2.9990 0.9677
-7.5201 -1.3548 -2.9989 0.9677
-6.8949 -3.2934 -2.9989 0.9677
-6.5744 -3.8940 -2.9989 0.9677
-5.7798 -4.9979 -2.9989 0.9677
-5.3119 -5.4925 -2.9989 0.9677
-4.2539 -6.3472 -2.9988 0.9677
-2.4258 -7.2454 -2.9987 0.9677
-1.7712 -7.4324 -2.9987 0.9677
-0.4254 -7.6286 -2.9986 0.9677
0.9339 -7.5830 -2.9986 0.9677
1.6051 -7.4696 -2.9985 0.9677
2.9040 -7.0666 -2.9985 0.9677
4.1109 -6.4396 -2.9984 0.9677
4.6677 -6.0481 -2.9984 0.9677
5.1874 -5.6086 -2.9984 0.9677
5.6660 -5.1246 -2.9984 0.9677
6.0996 -4.5999 -2.9983 0.9677
6.4847 -4.0387 -2.9983 0.9677
7.3213 -2.1820 -2.9983 0.9677
7.4864 -1.5217 -2.9983 0.9677
7.5921 -0.8493 -2.9983 0.9677
7.6375 -0.1702 -2.9983 0.9677
7.5467 1.1867 -2.9983 0.9677
7.4112 1.8537 -2.9983 0.9677
5.7038 4.7143 -2.9042 0.9687
5.1560 5.0988 -2.8460 0.9693
4.6817 5.5376 -2.8460 0.9693
4.1703 5.9324 -2.8460 0.9693
3.6258 6.2800 -2.8460 0.9693
3.0525 6.5779 -2.8461 0.9693
2.4549 6.8235 -2.8461 0.9693
-0.0808 7.2515 -2.8462 0.9693
-1.3653 7.1225 -2.8463 0.9693
-1.9938 6.9728 -2.8463 0.9693
-3.7652 6.1984 -2.8464 0.9693
-4.3020 5.8388 -2.8464 0.9693
-5.2692 4.9836 -2.8464 0.9693
-5.9966 4.7355 -2.9989 0.9677
-7.0348 2.9830 -2.9989 0.9677
-7.5730 1.0185 -2.9989 0.9677
-7.5730 -1.0185 -2.9989 0.9677
-7.4523 -1.6885 -2.9989 0.9677
-6.7414 -3.5973 -2.9989 0.9677
-5.9967 -4.7355 -2.9989 0.9677
-4.5324 -6.1514 -2.9988 0.9677
-3.9669 -6.5304 -2.9988 0.9677
-2.1006 -7.3462 -2.9987 0.9677
0.5952 -7.6171 -2.9986 0.9677
1.9363 -7.3907 -2.9985 0.9677
3.2159 -6.9302 -2.9985 0.9677
3.8200 -6.6164 -2.9984 0.9677
4.9325 -5.8342 -2.9984 0.9677
5.8886 -4.8671 -2.9983 0.9677
6.6582 -3.7459 -2.9983 0.9677
7.2168 -2.5060 -2.9983 0.9677
7.4112 -1.8537 -2.9983 0.9677
7.3212 2.1820 -2.9983 0.9677
6.4847 4.0387 -2.9983 0.9677
5.3780 4.8641 -2.8460 0.9693
4.4304 5.7406 -2.8460 0.9693
2.1485 6.9262 -2.8461 0.9693
1.5235 7.0899 -2.8461 0.9693
-1.0466 7.1762 -2.8462 0.9693
-2.9054 6.6449 -2.8463 0.9693
-4.0376 6.0246 -2.8464 0.9693
-6.2017 4.4637 -2.9989 0.9677
-6.5744 3.8940 -2.9989 0.9677
-6.8949 3.2934 -2.9989 0.9677
-7.3697 2.0188 -2.9989 0.9677
-7.5201 1.3548 -2.9989 0.9677
-7.6109 0.6801 -2.9989 0.9677
-7.2828 0.0000 -2.9989 0.9690
-7.2539 -0.6482 -2.9989 0.9690
-4.5768 -5.6647 -2.9988 0.9690
-4.0544 -6.0495 -2.9988 0.9690
-2.3120 -6.9056 -2.9987 0.9690
-1.6882 -7.0839 -2.9987 0.9690
-1.0510 -7.2059 -2.9987 0.9690
0.8901 -7.2273 -2.9986 0.9690
2.7679 -6.7352 -2.9985 0.9690
3.3563 -6.4621 -2.9985 0.9690
3.9181 -6.1376 -2.9984 0.9690
4.4488 -5.7645 -2.9984 0.9690
5.4003 -4.8843 -2.9984 0.9690
6.4987 -3.2839 -2.9983 0.9690
7.2361 -0.8095 -2.9983 0.9690
7.2794 -0.1622 -2.9983 0.9690
7.2650 0.4863 -2.9983 0.9690
7.1929 1.1310 -2.9983 0.9690
6.8784 2.3884 -2.9983 0.9690
6.3460 3.5702 -2.9983 0.9690
5.6125 4.6388 -2.9983 0.9690
3.4558 5.9855 -2.8460 0.9705
2.3398 6.5036 -2.8461 0.9705
1.1496 6.8155 -2.8461 0.9705
0.5385 6.8909 -2.8462 0.9705
-0.0770 6.9115 -2.8462 0.9705
-0.6919 6.8773 -2.8462 0.9705
-1.3012 6.7885 -2.8462 0.9705
-2.4843 6.4503 -2.8463 0.9705
-4.1003 5.5649 -2.8464 0.9705
-4.5793 5.1779 -2.8464 0.9705
-5.0452 4.7718 -2.8596 0.9704
-6.4252 3.4286 -2.9989 0.9690
-6.9313 2.2351 -2.9989 0.9690
-7.1028 1.6093 -2.9989 0.9690
-7.2178 0.9707 -2.9989 0.9690
-7.2756 0.3244 -2.9989 0.9690
-7.1028 -1.6093 -2.9989 0.9690
-6.9314 -2.2351 -2.9989 0.9690
-6.7049 -2.8431 -2.9989 0.9690
-6.4252 -3.4286 -2.9989 0.9690
-6.0945 -3.9869 -2.9989 0.9690
-5.7154 -4.5135 -2.9989 0.9690
-5.2910 -5.0042 -2.9989 0.9690
-4.3199 -5.8629 -2.9988 0.9690
-3.2118 -6.5359 -2.9988 0.9690
-2.6173 -6.7957 -2.9987 0.9690
-2.0021 -7.0017 -2.9987 0.9690
-0.0811 -7.2816 -2.9986 0.9690
0.5673 -7.2599 -2.9986 0.9690
1.8455 -7.0441 -2.9985 0.9690
3.0651 -6.6052 -2.9985 0.9690
4.7012 -5.5606 -2.9984 0.9690
6.6386 -2.9912 -2.9983 0.9690
7.2794 0.1622 -2.9983 0.9690
7.2361 0.8095 -2.9983 0.9690
7.1353 1.4503 -2.9983 0.9690
6.7652 2.6925 -2.9983 0.9690
5.2164 4.7179 -2.8962 0.9700
4.2227 5.4715 -2.8460 0.9705
3.7190 5.8256 -2.8460 0.9705
3.1857 6.1336 -2.8460 0.9705
2.6272 6.3928 -2.8461 0.9705
1.4521 6.7575 -2.8461 0.9705
0.8449 6.8600 -2.8462 0.9705
0.2310 6.9080 -2.8462 0.9705
-1.6024 6.7238 -2.8463 0.9705
-3.3219 6.0617 -2.8463 0.9705
-4.3441 5.3768 -2.8464 0.9705
-4.8055 4.9688 -2.8464 0.9705
-5.4907 4.7480 -2.9891 0.9691
-5.9108 4.2543 -2.9989 0.9690
-7.1674 1.2912 -2.9989 0.9690
-7.2539 0.6482 -2.9989 0.9690
-6.9247 -0.6188 -2.9989 0.9702
-6.5151 -2.4262 -2.9989 0.9702
-5.2587 -4.5474 -2.9989 0.9702
-4.3690 -5.4076 -2.9988 0.9702
-3.3410 -6.0965 -2.9988 0.9702
-2.7851 -6.3696 -2.9987 0.9702
-2.2071 -6.5922 -2.9987 0.9702
-1.6116 -6.7624 -2.9987 0.9702
0.2323 -6.9477 -2.9986 0.9702
0.8497 -6.8994 -2.9986 0.9702
1.4604 -6.7963 -2.9986 0.9702
2.6423 -6.4296 -2.9985 0.9702
3.2040 -6.1688 -2.9985 0.9702
3.7403 -5.8591 -2.9984 0.9702
4.2469 -5.5029 -2.9984 0.9702
4.7198 -5.1030 -2.9984 0.9702
5.1552 -4.6626 -2.9984 0.9702
5.5498 -4.1853 -2.9984 0.9702
5.9002 -3.6747 -2.9983 0.9702
6.2038 -3.1349 -2.9983 0.9702
6.4582 -2.5703 -2.9983 0.9702
6.6613 -1.9853 -2.9983 0.9702
6.9077 -0.7727 -2.9983 0.9702
6.9491 -0.1548 -2.9983 0.9702
6.9353 0.4643 -2.9983 0.9702
6.3373 2.8554 -2.9983 0.9702
6.0580 3.4082 -2.9983 0.9702
5.3578 4.4283 -2.9984 0.9702
4.7729 4.7200 -2.8955 0.9712
4.2597 5.0384 -2.8460 0.9717
2.7773 5.9849 -2.8461 0.9717
1.6722 6.3826 -2.8461 0.9717
1.0975 6.5062 -2.8461 0.9717
-1.2422 6.4804 -2.8462 0.9717
-2.9102 5.9221 -2.8463 0.9717
-3.4258 5.6396 -2.8463 0.9717
-3.9142 5.3123 -2.8464 0.9717
-5.0197 4.7475 -2.9803 0.9704
-6.1336 3.2730 -2.9989 0.9702
-6.4005 2.7141 -2.9989 0.9702
-6.6167 2.1336 -2.9989 0.9702
-6.7804 1.5362 -2.9989 0.9702
-6.7804 -1.5362 -2.9989 0.9702
-6.6168 -2.1336 -2.9989 0.9702
-6.1336 -3.2730 -2.9989 0.9702
-5.4560 -4.3086 -2.9989 0.9702
-5.0509 -4.7771 -2.9988 0.9702
-4.6056 -5.2077 -2.9988 0.9702
-3.6092 -5.9417 -2.9988 0.9702
-2.4985 -6.4873 -2.9987 0.9702
-1.9112 -6.6839 -2.9987 0.9702
-1.3087 -6.8274 -2.9987 0.9702
-0.6958 -6.9167 -2.9986 0.9702
0.5416 -6.9304 -2.9986 0.9702
1.1562 -6.8546 -2.9986 0.9702
2.9260 -6.3054 -2.9985 0.9702
3.4756 -6.0199 -2.9985 0.9702
4.9424 -4.8877 -2.9984 0.9702
5.3578 -4.4284 -2.9984 0.9702
6.0580 -3.4082 -2.9983 0.9702
6.3373 -2.8555 -2.9983 0.9702
6.5663 -2.2801 -2.9983 0.9702
6.8665 -1.0797 -2.9983 0.9702
6.6613 1.9853 -2.9983 0.9702
6.4582 2.5703 -2.9983 0.9702
3.0411 5.8552 -2.8461 0.9717
2.5079 6.1027 -2.8461 0.9717
1.9548 6.3018 -2.8461 0.9717
0.2205 6.5945 -2.8462 0.9717
-0.3673 6.5880 -2.8462 0.9717
-0.9523 6.5293 -2.8462 0.9717
-1.5296 6.4186 -2.8463 0.9717
-3.6736 5.4814 -2.8464 0.9717
-4.1470 5.1327 -2.8464 0.9717
-4.6110 4.7681 -2.8613 0.9715
-5.2586 4.5473 -2.9988 0.9702
-5.6425 4.0612 -2.9989 0.9702
-5.9816 3.5429 -2.9989 0.9702
-6.5151 2.4262 -2.9989 0.9702
-6.8421 1.2327 -2.9989 0.9702
-6.6199 -0.5916 -2.9989 0.9713
-6.5409 -1.1784 -2.9989 0.9713
-6.4101 -1.7559 -2.9989 0.9713
-5.9972 -2.8646 -2.9989 0.9713
-5.7184 -3.3870 -2.9989 0.9713
-5.3942 -3.8825 -2.9989 0.9713
-5.0272 -4.3472 -2.9988 0.9713
-4.6203 -4.7773 -2.9988 0.9713
-4.1767 -5.1696 -2.9988 0.9713
-3.7000 -5.5208 -2.9988 0.9713
-3.1939 -5.8281 -2.9988 0.9713
-0.3700 -6.6354 -2.9986 0.9713
2.5260 -6.1466 -2.9985 0.9713
4.0600 -5.2607 -2.9984 0.9713
5.9308 -2.9970 -2.9983 0.9713
6.1740 -2.4572 -2.9983 0.9713
6.3682 -1.8979 -2.9983 0.9713
6.6433 -0.1480 -2.9983 0.9713
6.6301 0.4438 -2.9983 0.9713
6.5643 1.0322 -2.9983 0.9713
6.4464 1.6123 -2.9983 0.9713
6.0584 2.7298 -2.9983 0.9713
5.4784 3.7607 -2.9983 0.9713
4.7249 4.6725 -2.9984 0.9713
4.0722 4.8167 -2.8460 0.9727
3.1537 5.4624 -2.8461 0.9727
1.0492 6.2198 -2.8461 0.9727
-2.2672 5.8866 -2.8463 0.9727
-2.7821 5.6614 -2.8463 0.9727
-3.2750 5.3914 -2.8463 0.9727
-4.2137 4.7645 -2.8699 0.9725
-4.8285 4.5668 -2.9988 0.9713
-5.8636 3.1289 -2.9989 0.9713
-6.1188 2.5946 -2.9989 0.9713
-6.3255 2.0397 -2.9989 0.9713
-6.4819 1.4686 -2.9989 0.9713
-6.6397 0.2960 -2.9989 0.9713
-5.2159 -4.1190 -2.9988 0.9713
-4.8285 -4.5668 -2.9988 0.9713
-4.4029 -4.9784 -2.9988 0.9713
-3.4504 -5.6801 -2.9988 0.9713
-2.9311 -5.9646 -2.9987 0.9713
-2.3886 -6.2018 -2.9987 0.9713
-1.8271 -6.3897 -2.9987 0.9713
-1.2511 -6.5269 -2.9987 0.9713
-0.6652 -6.6123 -2.9986 0.9713
-0.0740 -6.6452 -2.9986 0.9713
1.6842 -6.4285 -2.9985 0.9713
2.7973 -6.0279 -2.9985 0.9713
3.8217 -5.4363 -2.9984 0.9713
4.2903 -5.0746 -2.9984 0.9713
5.1220 -4.2335 -2.9984 0.9713
5.4785 -3.7608 -2.9984 0.9713
6.2773 -2.1797 -2.9983 0.9713
6.4464 -1.6123 -2.9983 0.9713
6.5643 -1.0322 -2.9983 0.9713
6.6301 -0.4438 -2.9983 0.9713
6.6433 0.1480 -2.9983 0.9713
6.3681 1.8979 -2.9983 0.9713
6.1740 2.4571 -2.9983 0.9713
5.9308 2.9969 -2.9983 0.9713
5.3055 4.0010 -2.9984 0.9713
4.9283 4.4574 -2.9984 0.9713
3.8536 4.9933 -2.8460 0.9727
2.3976 5.8341 -2.8461 0.9727
1.8688 6.0244 -2.8461 0.9727
1.3252 6.1669 -2.8461 0.9727
-0.3512 6.2980 -2.8462 0.9727
-0.9103 6.2419 -2.8462 0.9727
-2.0027 5.9817 -2.8463 0.9727
-2.5271 5.7798 -2.8463 0.9727
-3.0316 5.5319 -2.8463 0.9727
-3.5119 5.2402 -2.8464 0.9727
-4.5899 4.7459 -2.9791 0.9714
-5.3942 3.8825 -2.9988 0.9713
-5.7184 3.3870 -2.9989 0.9713
-6.2283 2.3194 -2.9989 0.9713
-6.4101 1.7559 -2.9989 0.9713
-6.5409 1.1784 -2.9989 0.9713
-6.6199 0.5915 -2.9989 0.9713
-6.3620 0.0000 -2.9989 0.9723
-6.2612 -1.1280 -2.9989 0.9723
-6.1359 -1.6808 -2.9989 0.9723
-5.9620 -2.2203 -2.9989 0.9723
-5.4738 -3.2421 -2.9989 0.9723
-5.1635 -3.7165 -2.9988 0.9723
-3.5418 -5.2847 -2.9988 0.9723
-3.0573 -5.5789 -2.9988 0.9723
-0.3542 -6.3516 -2.9986 0.9723
0.2126 -6.3579 -2.9986 0.9723
0.7776 -6.3136 -2.9986 0.9723
1.3364 -6.2193 -2.9986 0.9723
1.8847 -6.0756 -2.9985 0.9723
2.4179 -5.8837 -2.9985 0.9723
3.4228 -5.3617 -2.9985 0.9723
4.3191 -4.6698 -2.9984 0.9723
4.7176 -4.2668 -2.9984 0.9723
5.0786 -3.8300 -2.9984 0.9723
5.6772 -2.8688 -2.9984 0.9723
5.9100 -2.3521 -2.9983 0.9723
6.0958 -1.8168 -2.9983 0.9723
6.2333 -1.2670 -2.9983 0.9723
6.3592 -0.1417 -2.9983 0.9723
6.3466 0.4248 -2.9983 0.9723
6.1707 1.5434 -2.9983 0.9723
6.0088 2.0865 -2.9983 0.9723
5.2442 3.5999 -2.9984 0.9723
3.9906 4.7201 -2.9136 0.9730
3.0189 5.2288 -2.8461 0.9737
2.0440 5.6813 -2.8461 0.9737
0.4704 6.0196 -2.8462 0.9737
-0.0673 6.0377 -2.8462 0.9737
-0.6044 6.0078 -2.8462 0.9737
-1.6600 5.8055 -2.8463 0.9737
-3.1349 5.1608 -2.8463 0.9737
-4.1948 4.7431 -2.9847 0.9724
-4.9928 3.9427 -2.9988 0.9723
-5.3239 3.4827 -2.9988 0.9723
-6.2047 1.4058 -2.9989 0.9723
-6.3052 0.8480 -2.9989 0.9723
-6.2047 -1.4058 -2.9989 0.9723
-5.8571 -2.4836 -2.9989 0.9723
-5.3239 -3.4828 -2.9989 0.9723
-4.2146 -4.7655 -2.9988 0.9723
-3.3028 -5.4372 -2.9988 0.9723
-2.8057 -5.7095 -2.9987 0.9723
-2.2864 -5.9365 -2.9987 0.9723
-1.1976 -6.2478 -2.9987 0.9723
-0.6368 -6.3295 -2.9986 0.9723
0.4956 -6.3421 -2.9986 0.9723
1.6122 -6.1536 -2.9985 0.9723
2.6776 -5.7702 -2.9985 0.9723
3.1806 -5.5089 -2.9985 0.9723
3.6582 -5.2039 -2.9984 0.9723
4.1068 -4.8576 -2.9984 0.9723
4.5229 -4.4728 -2.9984 0.9723
4.9030 -4.0524 -2.9984 0.9723
5.2442 -3.5999 -2.9984 0.9723
5.5438 -3.1189 -2.9984 0.9723
5.7993 -2.6131 -2.9983 0.9723
6.0089 -2.0865 -2.9983 0.9723
6.3466 -0.4248 -2.9983 0.9723
6.3592 0.1417 -2.9983 0.9723
5.9099 2.3521 -2.9983 0.9723
5.6772 2.8688 -2.9983 0.9723
5.3993 3.3627 -2.9984 0.9723
4.7176 4.2668 -2.9984 0.9723
4.3191 4.6698 -2.9984 0.9723
3.2488 5.0892 -2.8460 0.9737
2.7830 5.3582 -2.8461 0.9737
1.7889 5.7668 -2.8461 0.9737
1.2685 5.9032 -2.8461 0.9737
0.7381 5.9927 -2.8462 0.9737
-0.3362 6.0287 -2.8462 0.9737
-1.9170 5.7258 -2.8463 0.9737
-2.4191 5.5325 -2.8463 0.9737
-3.3617 5.0160 -2.8463 0.9737
-3.8459 4.7601 -2.8846 0.9733
-4.4227 4.5730 -2.9988 0.9723
-6.1359 1.6808 -2.9989 0.9723
-6.0729 -0.5427 -2.9989 0.9732
-6.0005 -1.0811 -2.9989 0.9732
-3.8316 -4.7425 -2.9988 0.9732
-3.3943 -5.0646 -2.9988 0.9732
-2.4425 -5.5861 -2.9987 0.9732
-1.9356 -5.7813 -2.9987 0.9732
-0.8799 -6.0328 -2.9987 0.9732
0.7452 -6.0508 -2.9986 0.9732
2.8099 -5.4101 -2.9985 0.9732
4.5212 -4.0892 -2.9984 0.9732
5.1746 -3.2227 -2.9984 0.9732
5.6639 -2.2542 -2.9984 0.9732
5.8421 -1.7411 -2.9983 0.9732
5.9738 -1.2142 -2.9983 0.9732
6.0582 -0.6777 -2.9983 0.9732
6.0945 -0.1358 -2.9983 0.9732
6.0220 0.9469 -2.9983 0.9732
5.7587 1.9996 -2.9983 0.9732
5.3129 2.9890 -2.9984 0.9732
5.0258 3.4501 -2.9984 0.9732
4.6988 3.8837 -2.9984 0.9732
4.3345 4.2865 -2.9984 0.9732
3.3340 4.7426 -2.8514 0.9745
2.4357 5.2488 -2.8461 0.9745
1.9589 5.4448 -2.8461 0.9745
0.9625 5.7059 -2.8461 0.9745
-0.5792 5.7576 -2.8462 0.9745
-2.0798 5.4002 -2.8463 0.9745
-3.5034 4.7548 -2.9049 0.9740
-4.0391 4.5671 -2.9988 0.9732
-4.4296 4.1895 -2.9988 0.9732
-5.6132 2.3802 -2.9989 0.9732
-5.8028 1.8712 -2.9989 0.9732
-6.0427 0.8127 -2.9989 0.9732
-6.0910 0.2716 -2.9989 0.9732
-6.0427 -0.8127 -2.9989 0.9732
-5.9464 -1.3473 -2.9989 0.9732
-5.8028 -1.8712 -2.9989 0.9732
-5.6133 -2.3802 -2.9989 0.9732
-5.1023 -3.3378 -2.9988 0.9732
-4.4296 -4.1895 -2.9988 0.9732
-4.0391 -4.5671 -2.9988 0.9732
-3.6165 -4.9084 -2.9988 0.9732
-2.6889 -5.4718 -2.9987 0.9732
-2.1912 -5.6894 -2.9987 0.9732
-1.6761 -5.8618 -2.9987 0.9732
-1.1477 -5.9876 -2.9987 0.9732
1.5450 -5.8974 -2.9985 0.9732
3.0482 -5.2795 -2.9985 0.9732
3.5059 -4.9872 -2.9985 0.9732
3.9359 -4.6554 -2.9984 0.9732
4.3346 -4.2865 -2.9984 0.9732
5.0259 -3.4501 -2.9984 0.9732
6.0945 0.1358 -2.9983 0.9732
5.8420 1.7411 -2.9983 0.9732
5.1745 3.2227 -2.9984 0.9732
4.8672 3.6705 -2.9984 0.9732
4.1393 4.4754 -2.9984 0.9732
3.1136 4.8773 -2.8461 0.9745
2.1995 5.3521 -2.8461 0.9745
0.7073 5.7432 -2.8462 0.9745
-1.3415 5.6291 -2.8463 0.9745
-2.7811 5.0748 -2.8463 0.9745
-3.2218 4.8072 -2.8463 0.9745
-3.8291 4.7392 -2.9968 0.9732
-4.2385 4.3826 -2.9988 0.9732
-4.9485 3.5617 -2.9988 0.9732
-5.2459 3.1071 -2.9988 0.9732
-5.5016 2.6279 -2.9988 0.9732
-5.7137 2.1278 -2.9989 0.9732
-6.0729 0.5427 -2.9989 0.9732
-5.7568 -1.0371 -2.9989 0.9740
-5.4817 -2.0414 -2.9989 0.9740
-5.2782 -2.5212 -2.9988 0.9740
-5.0329 -2.9810 -2.9988 0.9740
-2.8110 -5.1295 -2.9987 0.9740
-1.8570 -5.5466 -2.9987 0.9741
-1.3559 -5.6898 -2.9987 0.9741
-0.3256 -5.8400 -2.9986 0.9741
0.1954 -5.8457 -2.9986 0.9741
1.7329 -5.5863 -2.9985 0.9741
2.2232 -5.4098 -2.9985 0.9741
2.6958 -5.1904 -2.9985 0.9741
3.5734 -4.6302 -2.9985 0.9741
4.3376 -3.9232 -2.9984 0.9741
5.6049 -1.6704 -2.9984 0.9741
5.8470 -0.1303 -2.9983 0.9741
5.8354 0.3906 -2.9983 0.9741
5.7775 0.9085 -2.9983 0.9741
5.6737 1.4191 -2.9983 0.9741
5.5249 1.9184 -2.9984 0.9741
5.0972 2.8677 -2.9984 0.9741
4.8218 3.3100 -2.9984 0.9741
2.7757 4.8077 -2.8461 0.9754
0.4325 5.5348 -2.8462 0.9754
-0.0618 5.5513 -2.8462 0.9754
-1.5263 5.3379 -2.8463 0.9754
-2.4486 4.9828 -2.8463 0.9754
-3.4697 4.7091 -2.9988 0.9740
-3.8751 4.3816 -2.9988 0.9740
-4.8951 3.2022 -2.9988 0.9740
-5.3853 2.2836 -2.9988 0.9740
-5.5672 1.7952 -2.9989 0.9740
-5.7049 1.2926 -2.9989 0.9740
-5.7049 -1.2926 -2.9989 0.9740
-5.3853 -2.2836 -2.9989 0.9740
-4.8951 -3.2022 -2.9988 0.9740
-4.5906 -3.6252 -2.9988 0.9740
-3.8751 -4.3816 -2.9988 0.9740
-3.0368 -4.9992 -2.9988 0.9740
-2.1022 -5.4584 -2.9987 0.9741
-1.1011 -5.7445 -2.9987 0.9741
-0.5855 -5.8197 -2.9986 0.9741
-0.0652 -5.8487 -2.9986 0.9741
0.4557 -5.8312 -2.9986 0.9741
1.4823 -5.6579 -2.9985 0.9741
1.9800 -5.5035 -2.9985 0.9741
3.3636 -4.7847 -2.9985 0.9741
4.1586 -4.1125 -2.9984 0.9741
4.5081 -3.7260 -2.9984 0.9741
4.8218 -3.3100 -2.9984 0.9741
5.3323 -2.4026 -2.9984 0.9741
5.7775 -0.9085 -2.9983 0.9741
5.8354 -0.3906 -2.9983 0.9741
3.9713 4.2937 -2.9984 0.9741
3.5734 4.6301 -2.9984 0.9741
2.5588 4.9266 -2.8461 0.9754
0.6786 5.5100 -2.8462 0.9754
0.1855 5.5486 -2.8462 0.9754
-0.8012 5.4937 -2.8462 0.9754
-1.2870 5.4006 -2.8463 0.9754
-1.7626 5.2646 -2.8463 0.9754
-2.2242 5.0869 -2.8463 0.9754
-2.6682 4.8688 -2.8463 0.9754
-5.4817 2.0414 -2.9988 0.9740
-5.7568 1.0371 -2.9989 0.9740
-5.5952 -0.5000 -2.9989 0.9749
-5.4179 -1.4841 -2.9989 0.9749
-4.8332 -2.8627 -2.9988 0.9749
-4.2491 -3.6743 -2.9988 0.9749
-3.5302 -4.3695 -2.9988 0.9749
-2.2504 -5.1468 -2.9987 0.9749
-1.7833 -5.3266 -2.9987 0.9749
0.1877 -5.6139 -2.9986 0.9749
0.6866 -5.5749 -2.9986 0.9749
1.1801 -5.4916 -2.9986 0.9749
2.1350 -5.1953 -2.9985 0.9749
2.5889 -4.9846 -2.9985 0.9749
3.0223 -4.7344 -2.9985 0.9749
4.4844 -3.3818 -2.9984 0.9749
4.7676 -2.9693 -2.9984 0.9749
5.0129 -2.5331 -2.9984 0.9749
5.5040 -1.1187 -2.9984 0.9749
5.6151 -0.1251 -2.9984 0.9749
5.6040 0.3752 -2.9983 0.9749
5.4487 1.3628 -2.9984 0.9749
5.3058 1.8424 -2.9984 0.9749
4.8951 2.7539 -2.9984 0.9749
4.6306 3.1787 -2.9984 0.9749
3.6263 4.2892 -2.9984 0.9749
3.2302 4.5950 -2.9984 0.9749
0.8868 5.2572 -2.8462 0.9761
-0.0594 5.3312 -2.8462 0.9761
-1.9162 4.9754 -2.8463 0.9761
-2.8803 4.7416 -2.9617 0.9752
-3.3321 4.5223 -2.9987 0.9749
-4.0811 3.8599 -2.9988 0.9749
-4.4085 3.4813 -2.9988 0.9749
-4.9560 2.6446 -2.9988 0.9749
-5.1717 2.1930 -2.9988 0.9749
-5.3464 1.7240 -2.9988 0.9749
-5.4786 1.2413 -2.9988 0.9749
-5.6119 0.2503 -2.9989 0.9749
-5.4786 -1.2413 -2.9989 0.9749
-5.3464 -1.7240 -2.9988 0.9749
-5.1717 -2.1930 -2.9988 0.9749
-4.7009 -3.0752 -2.9988 0.9749
-4.4085 -3.4814 -2.9988 0.9749
-4.0812 -3.8599 -2.9988 0.9749
-3.7214 -4.2079 -2.9988 0.9749
-2.9163 -4.8009 -2.9987 0.9749
-2.0189 -5.2419 -2.9987 0.9749
-1.5443 -5.4007 -2.9987 0.9749
-1.0575 -5.5167 -2.9987 0.9749
0.4376 -5.5999 -2.9986 0.9749
0.9343 -5.5387 -2.9986 0.9749
1.9015 -5.2852 -2.9985 0.9749
2.3643 -5.0950 -2.9985 0.9749
3.9937 -3.9494 -2.9984 0.9749
5.1208 -2.3073 -2.9984 0.9749
5.5484 -0.8725 -2.9984 0.9749
5.6151 0.1252 -2.9983 0.9749
5.5040 1.1187 -2.9984 0.9749
5.3826 1.6041 -2.9984 0.9749
5.2185 2.0769 -2.9984 0.9749
4.4844 3.3818 -2.9984 0.9749
4.1656 3.7675 -2.9984 0.9749
3.8138 4.1234 -2.9984 0.9749
3.0077 4.7114 -2.9840 0.9750
2.4640 4.7441 -2.8538 0.9761
1.5796 5.0920 -2.8461 0.9761
1.1201 5.2124 -2.8461 0.9761
0.1782 5.3285 -2.8462 0.9761
-0.7694 5.2758 -2.8462 0.9761
-1.6927 5.0558 -2.8463 0.9761
-2.1360 4.8851 -2.8463 0.9761
-4.2490 3.6743 -2.9988 0.9749
-5.0689 2.4212 -2.9988 0.9749
-5.5285 0.9960 -2.9989 0.9749
-5.5952 0.5000 -2.9989 0.9749
-5.3995 0.0000 -2.9988 0.9756
-5.3781 -0.4806 -2.9988 0.9756
-5.3139 -0.9574 -2.9988 0.9756
-5.2076 -1.4265 -2.9988 0.9756
-5.0600 -1.8844 -2.9988 0.9756
-4.3823 -3.1542 -2.9988 0.9756
-4.0842 -3.5317 -2.9988 0.9756
-3.7536 -3.8812 -2.9988 0.9756
-3.0059 -4.4852 -2.9987 0.9756
-2.1630 -4.9470 -2.9987 0.9756
-1.2516 -5.2521 -2.9987 0.9756
0.1804 -5.3960 -2.9986 0.9756
1.5996 -5.1565 -2.9985 0.9756
2.0522 -4.9937 -2.9985 0.9756
2.4885 -4.7912 -2.9985 0.9756
2.9050 -4.5506 -2.9985 0.9756
3.2985 -4.2740 -2.9985 0.9756
5.0160 -1.9963 -2.9984 0.9756
5.3651 -0.6002 -2.9984 0.9756
5.3865 0.3606 -2.9984 0.9756
5.3331 0.8386 -2.9984 0.9756
4.9221 2.2178 -2.9984 0.9756
4.7051 2.6471 -2.9984 0.9756
3.8387 3.7961 -2.9984 0.9756
3.1048 4.4166 -2.9985 0.9756
1.7348 4.8219 -2.8461 0.9768
0.3992 5.1090 -2.8462 0.9768
-0.0571 5.1243 -2.8462 0.9768
-0.5130 5.0989 -2.8462 0.9768
-0.9647 5.0331 -2.8462 0.9768
-2.3312 4.7439 -2.9357 0.9761
-3.2027 4.3468 -2.9987 0.9756
-3.9227 3.7101 -2.9988 0.9756
-4.7636 2.5420 -2.9988 0.9756
-4.9710 2.1079 -2.9988 0.9756
-5.3513 0.7197 -2.9988 0.9756
-5.3941 -0.2405 -2.9988 0.9756
-4.7636 -2.5420 -2.9988 0.9756
-4.2374 -3.3463 -2.9988 0.9756
-3.9228 -3.7101 -2.9988 0.9756
-3.2028 -4.3468 -2.9988 0.9756
-1.4844 -5.1911 -2.9987 0.9756
0.4206 -5.3826 -2.9986 0.9756
1.8277 -5.0802 -2.9985 0.9756
2.2726 -4.8973 -2.9985 0.9756
3.1048 -4.4167 -2.9985 0.9756
3.4856 -4.1228 -2.9985 0.9756
3.8387 -3.7962 -2.9984 0.9756
4.4509 -3.0554 -2.9984 0.9756
5.3331 -0.8386 -2.9984 0.9756
5.2904 1.0753 -2.9984 0.9756
5.1737 1.5419 -2.9984 0.9756
5.0160 1.9963 -2.9984 0.9756
4.3104 3.2506 -2.9984 0.9756
3.6658 3.9634 -2.9984 0.9756
3.2985 4.2740 -2.9984 0.9756
2.9050 4.5506 -2.9985 0.9756
2.4513 4.7195 -2.9537 0.9760
1.9515 4.7487 -2.8514 0.9768
1.5210 4.9032 -2.8512 0.9768
0.1713 5.1217 -2.8462 0.9768
-0.2853 5.1167 -2.8462 0.9768
-0.7396 5.0710 -2.8462 0.9768
-1.1880 4.9851 -2.8462 0.9768
-1.6270 4.8596 -2.8463 0.9768
-2.0782 4.7529 -2.8811 0.9765
-3.0059 4.4851 -2.9987 0.9756
-3.3932 4.1998 -2.9987 0.9756
-4.0841 3.5317 -2.9988 0.9756
-4.3823 3.1542 -2.9988 0.9756
-4.6457 2.7516 -2.9988 0.9756
-4.8721 2.3272 -2.9988 0.9756
-5.2076 1.4265 -2.9988 0.9756
-5.3780 0.4806 -2.9988 0.9756
-5.1118 -0.9209 -2.9988 0.9763
-5.0096 -1.3723 -2.9988 0.9763
-4.6869 -2.2387 -2.9988 0.9763
-4.4690 -2.6470 -2.9988 0.9763
-4.2157 -3.0342 -2.9988 0.9763
-3.9288 -3.3974 -2.9988 0.9763
-3.6108 -3.7336 -2.9988 0.9763
-2.8916 -4.3146 -2.9987 0.9763
-2.0808 -4.7589 -2.9987 0.9763
-1.6490 -4.9252 -2.9987 0.9763
-1.2040 -5.0523 -2.9987 0.9763
-0.7496 -5.1394 -2.9986 0.9763
-0.2892 -5.1857 -2.9986 0.9763
0.1736 -5.1909 -2.9986 0.9763
0.6349 -5.1548 -2.9986 0.9763
1.0911 -5.0778 -2.9986 0.9763
3.1731 -4.1115 -2.9985 0.9763
3.5264 -3.8127 -2.9985 0.9763
4.1465 -3.1270 -2.9984 0.9763
4.4083 -2.7455 -2.9984 0.9763
4.6352 -2.3423 -2.9984 0.9763
4.8253 -1.9204 -2.9984 0.9763
4.9770 -1.4833 -2.9984 0.9763
5.0893 -1.0344 -2.9984 0.9763
5.1611 -0.5773 -2.9984 0.9763
5.1817 0.3469 -2.9984 0.9763
4.7349 2.1334 -2.9984 0.9763
4.2816 2.9392 -2.9984 0.9763
4.0031 3.3086 -2.9984 0.9763
3.6927 3.6518 -2.9984 0.9763
3.3530 3.9660 -2.9984 0.9763
2.9868 4.2487 -2.9985 0.9763
2.5968 4.4977 -2.9985 0.9763
2.1861 4.7110 -2.9985 0.9763
-0.0549 4.9294 -2.8462 0.9775
-0.9281 4.8417 -2.8462 0.9775
-2.6965 4.4391 -2.9987 0.9763
-3.4409 3.8907 -2.9988 0.9763
-4.0763 3.2190 -2.9988 0.9763
-4.3466 2.8434 -2.9988 0.9763
-4.5825 2.4453 -2.9988 0.9763
-5.0657 1.1477 -2.9988 0.9763
-5.1890 0.2314 -2.9988 0.9763
-5.1478 -0.6923 -2.9988 0.9763
-4.3466 -2.8434 -2.9988 0.9763
-3.7736 -3.5690 -2.9988 0.9763
-3.0810 -4.1815 -2.9988 0.9763
-2.2907 -4.6615 -2.9987 0.9763
-0.0579 -5.1934 -2.9986 0.9763
0.4046 -5.1779 -2.9986 0.9763
0.8639 -5.1213 -2.9986 0.9763
