ply
format ascii 1.0
element vertex 1584
property float32 x
property float32 y
property float32 z
property float32 I
end_header
-4.3154 7.1041 4.6165 0.9627
-4.3146 7.1028 4.2606 0.9633
-4.3138 7.1014 3.9167 0.9639
-4.3130 7.1001 3.5835 0.9645
-4.3126 7.0995 3.4206 0.9647
-4.3122 7.0989 3.2599 0.9649
-4.3111 7.0971 2.7899 0.9656
-4.3104 7.0959 2.4856 0.9659
-4.3097 7.0947 2.1873 0.9662
-4.3093 7.0942 2.0402 0.9664
8.7669 -6.6114 1.7485 0.9565
9.8116 -6.1107 1.8406 0.9543
-4.3077 7.0914 1.3212 0.9670
8.7465 -6.0042 1.5090 0.9580
8.3276 -6.2801 1.3071 0.9588
8.9916 -5.6000 1.3275 0.9582
8.2191 -6.7933 1.3363 0.9579
-4.3067 7.0897 0.8998 0.9672
8.0671 -6.6677 1.1352 0.9588
9.4458 -5.3142 1.1756 0.9573
7.9931 -7.2293 0.9880 0.9576
8.7367 -5.4412 0.9436 0.9595
-4.3063 7.0892 0.7604 0.9672
8.3785 -5.7515 0.9317 0.9600
9.2882 -5.2254 0.9770 0.9581
7.8812 -7.1281 0.7963 0.9583
8.0552 -6.0747 0.7561 0.9603
9.1671 -5.1573 0.7882 0.9587
8.0136 -6.0434 0.5846 0.9606
8.2636 -5.6726 0.5838 0.9606
9.1004 -5.1198 0.6082 0.9590
8.5594 -5.3308 0.4193 0.9604
8.1034 -8.0136 0.4739 0.9554
8.2215 -5.6438 0.4146 0.9609
9.0360 -5.0836 0.4311 0.9593
8.5426 -5.3204 0.2510 0.9605
9.7935 -4.9489 0.2736 0.9570
7.7897 -6.4383 0.2520 0.9604
7.7145 -6.9773 0.0865 0.9592
7.9452 -5.9918 0.0827 0.9610
8.5280 -5.3113 0.0835 0.9606
-4.3047 7.0865 0.0689 0.9674
7.7761 -6.4272 0.0838 0.9604
8.9897 -5.0575 0.0857 0.9596
7.7182 -6.9807 -0.0865 0.9592
8.1965 -5.6266 -0.0826 0.9610
8.9941 -5.0600 -0.0858 0.9596
7.9613 -6.0039 -0.2487 0.9609
9.8028 -4.9536 -0.2739 0.9570
-4.3041 7.0854 -0.2067 0.9674
8.0228 -7.9339 -0.2814 0.9559
7.7930 -6.4411 -0.2521 0.9604
8.2102 -5.6360 -0.2483 0.9609
7.9816 -6.0192 -0.4157 0.9608
8.5697 -5.3373 -0.4198 0.9604
9.8937 -4.9995 -0.4609 0.9566
7.8152 -6.4594 -0.4216 0.9602
8.2309 -5.6502 -0.4151 0.9608
9.0500 -5.0915 -0.4318 0.9593
7.8305 -7.0823 -0.6149 0.9586
8.0232 -6.0506 -0.5853 0.9605
8.2734 -5.6794 -0.5845 0.9606
8.0669 -6.0836 -0.7572 0.9603
8.6671 -5.3979 -0.7652 0.9599
-4.3031 7.0838 -0.6211 0.9673
8.3180 -5.7100 -0.7561 0.9603
9.1932 -5.1720 -0.7905 0.9586
8.0188 -7.2526 -0.9912 0.9575
-4.3028 7.0833 -0.7598 0.9673
8.3964 -5.7638 -0.9337 0.9599
9.3151 -5.2406 -0.9799 0.9580
9.5022 -5.3459 -1.1826 0.9571
8.3562 -6.3017 -1.3116 0.9587
8.6131 -5.9126 -1.3092 0.9588
9.2730 -5.7753 -1.5538 0.9568
-4.3018 7.0817 -1.1785 0.9671
-4.3014 7.0811 -1.3193 0.9670
9.1054 -6.2505 -1.7587 0.9563
-4.3011 7.0806 -1.4608 0.9669
12.7128 7.1522 -2.8228 0.9423
12.0311 8.2589 -2.8240 0.9423
8.4120 11.9662 -2.8306 0.9421
3.7182 14.1923 -2.8392 0.9420
2.4423 14.4788 -2.8415 0.9419
-0.1639 14.7071 -2.8462 0.9418
-1.4734 14.6463 -2.8486 0.9418
13.0163 6.5774 -2.8222 0.9423
12.3842 7.7130 -2.8234 0.9423
11.6541 8.7888 -2.8247 0.9423
10.8313 9.7963 -2.8262 0.9422
5.5701 13.5540 -2.8358 0.9420
4.3450 14.0070 -2.8380 0.9420
0.4913 14.6936 -2.8451 0.9419
-2.1253 14.5722 -2.8498 0.9418
-14.3466 0.0000 -3.0246 0.9430
-14.1174 -2.5434 -3.0241 0.9430
-13.8326 -3.7891 -3.0236 0.9431
-13.4373 -5.0041 -3.0229 0.9431
-12.3289 -7.3024 -3.0209 0.9431
-10.8290 -9.3641 -3.0182 0.9432
-9.9472 -10.2854 -3.0165 0.9432
-8.9871 -11.1235 -3.0148 0.9432
-7.9564 -11.8718 -3.0129 0.9433
-4.5278 -13.5239 -3.0067 0.9434
-2.0552 -14.0913 -3.0021 0.9434
-0.7922 -14.2074 -2.9998 0.9435
0.4751 -14.2105 -2.9975 0.9435
1.7367 -14.1010 -2.9952 0.9436
5.3884 -13.1119 -2.9886 0.9437
7.6174 -11.9325 -2.9845 0.9438
10.4809 -9.4794 -2.9793 0.9439
11.2775 -8.5048 -2.9778 0.9439
11.9845 -7.4640 -2.9765 0.9439
12.5965 -6.3653 -2.9754 0.9439
13.1090 -5.2172 -2.9745 0.9440
13.5179 -4.0287 -2.9737 0.9440
13.8203 -2.8091 -2.9732 0.9440
14.0138 -1.5677 -2.9728 0.9440
14.0969 -0.3141 -2.9727 0.9440
14.0692 0.9418 -2.9727 0.9440
13.6825 3.4222 -2.9734 0.9440
11.6773 6.5696 -2.8247 0.9467
11.0507 7.5859 -2.8258 0.9467
9.5399 9.4342 -2.8285 0.9466
8.6672 10.2517 -2.8301 0.9466
7.7250 10.9890 -2.8319 0.9466
6.7206 11.6405 -2.8337 0.9465
5.6618 12.2008 -2.8356 0.9465
2.2421 13.2923 -2.8419 0.9464
-4.8669 12.6368 -2.8548 0.9461
-5.9766 12.1621 -2.8569 0.9461
-8.9947 10.1705 -2.8624 0.9460
-12.0016 6.4043 -2.8679 0.9459
-12.5282 5.3124 -2.8688 0.9459
-13.9889 3.1695 -3.0239 0.9431
-14.2175 1.9121 -3.0243 0.9430
-14.3323 0.6391 -3.0245 0.9430
-14.2175 -1.9121 -3.0243 0.9430
-13.9890 -3.1695 -3.0239 0.9431
-13.6486 -4.4011 -3.0233 0.9431
-13.1991 -5.5969 -3.0225 0.9431
-12.6444 -6.7472 -3.0215 0.9431
-11.9889 -7.8427 -3.0203 0.9431
-10.3984 -9.8347 -3.0174 0.9432
-9.4765 -10.7152 -3.0157 0.9432
-2.6818 -13.9911 -3.0033 0.9434
1.1072 -14.1698 -2.9964 0.9436
2.3622 -14.0043 -2.9941 0.9436
3.5966 -13.7281 -2.9918 0.9436
4.8007 -13.3437 -2.9896 0.9437
5.9650 -12.8543 -2.9875 0.9437
7.0806 -12.2640 -2.9855 0.9438
8.1388 -11.5776 -2.9835 0.9438
11.6425 -7.9921 -2.9771 0.9439
12.8655 -5.7969 -2.9749 0.9439
13.9307 -2.1904 -2.9730 0.9440
14.0692 -0.9418 -2.9727 0.9440
14.0969 0.3142 -2.9726 0.9440
14.0137 1.5677 -2.9728 0.9440
13.8202 2.8091 -2.9731 0.9440
13.5178 4.0288 -2.9737 0.9440
12.4426 4.9521 -2.8233 0.9467
10.7042 8.0724 -2.8264 0.9467
9.9481 8.9975 -2.8278 0.9466
2.8310 13.1742 -2.8408 0.9464
1.6484 13.3841 -2.8429 0.9464
0.4510 13.4880 -2.8451 0.9463
-0.7519 13.4850 -2.8473 0.9463
-1.9507 13.3749 -2.8495 0.9462
-3.1357 13.1581 -2.8517 0.9462
-4.2976 12.8364 -2.8538 0.9462
-9.4415 9.7625 -2.8632 0.9460
-10.2785 8.8882 -2.8647 0.9460
-12.2771 5.8643 -2.8684 0.9459
-12.9077 4.8069 -2.9038 0.9452
-12.7685 -3.4976 -3.0217 0.9471
-11.9401 -5.7032 -3.0202 0.9472
-11.3812 -6.7411 -3.0192 0.9472
-10.7318 -7.7243 -3.0180 0.9472
-8.2976 -10.2700 -3.0135 0.9473
-7.3463 -10.9615 -3.0118 0.9473
-6.3377 -11.5648 -3.0100 0.9473
-5.2798 -12.0752 -3.0080 0.9474
-4.1813 -12.4889 -3.0060 0.9474
-3.0510 -12.8027 -3.0040 0.9474
-0.7317 -13.1223 -2.9997 0.9475
1.6042 -13.0256 -2.9955 0.9476
2.7553 -12.8221 -2.9934 0.9476
3.8829 -12.5174 -2.9913 0.9476
7.0384 -11.0255 -2.9855 0.9477
7.9872 -10.3493 -2.9838 0.9478
9.6855 -8.7600 -2.9807 0.9478
10.4221 -7.8597 -2.9794 0.9479
11.0758 -6.8981 -2.9782 0.9479
11.6418 -5.8828 -2.9771 0.9479
12.4938 -3.7235 -2.9756 0.9479
12.7734 -2.5963 -2.9751 0.9479
12.8756 2.0246 -2.9749 0.9479
12.6461 3.1630 -2.9753 0.9479
10.2126 7.0106 -2.8273 0.9504
9.5522 7.8951 -2.8285 0.9504
8.0090 9.4731 -2.8313 0.9504
7.1380 10.1540 -2.8329 0.9504
6.2097 10.7555 -2.8346 0.9503
2.0712 12.2789 -2.8422 0.9502
0.9708 12.4233 -2.8442 0.9502
-0.1389 12.4693 -2.8462 0.9501
-2.3509 12.2645 -2.8502 0.9501
-4.4943 11.6693 -2.8542 0.9500
-5.5187 11.2304 -2.8560 0.9500
-7.4316 10.0862 -2.8595 0.9499
-8.3044 9.3900 -2.8611 0.9499
-9.1119 8.6180 -2.8626 0.9498
-9.8474 7.7764 -2.8639 0.9498
-11.0789 5.9119 -2.8662 0.9498
-11.5647 4.9039 -2.8671 0.9498
-12.9127 2.9256 -3.0219 0.9471
-13.1235 1.7650 -3.0223 0.9471
-13.2293 0.5899 -3.0225 0.9471
-13.2294 -0.5899 -3.0225 0.9471
-13.1235 -1.7649 -3.0223 0.9471
-12.9127 -2.9256 -3.0219 0.9471
-12.1841 -5.1665 -3.0206 0.9471
-11.0675 -7.2400 -3.0186 0.9472
-9.6000 -9.0795 -3.0159 0.9472
-7.8296 -10.6264 -3.0127 0.9473
-6.8487 -11.2744 -3.0109 0.9473
-4.7351 -12.2943 -3.0070 0.9474
-0.1464 -13.1372 -2.9987 0.9475
4.4352 -12.3278 -2.9903 0.9477
5.5112 -11.8763 -2.9883 0.9477
6.5423 -11.3315 -2.9865 0.9477
7.5204 -10.6978 -2.9847 0.9478
9.2879 -9.1850 -2.9814 0.9478
11.3700 -6.3966 -2.9776 0.9479
11.8904 -5.3576 -2.9767 0.9479
12.6461 -3.1630 -2.9753 0.9479
12.8756 -2.0246 -2.9749 0.9479
13.0293 0.2904 -2.9746 0.9479
12.9524 1.4490 -2.9747 0.9479
12.7734 2.5963 -2.9751 0.9479
12.4938 3.7236 -2.9756 0.9479
11.0500 5.5838 -2.8258 0.9505
10.5128 6.5474 -2.8268 0.9505
9.8922 7.4601 -2.8279 0.9504
8.4208 9.1045 -2.8306 0.9504
0.4165 12.4587 -2.8452 0.9501
-0.6945 12.4552 -2.8472 0.9501
-1.8016 12.3527 -2.8492 0.9501
-6.0155 10.9768 -2.8569 0.9499
-6.9728 10.4042 -2.8587 0.9499
-7.8757 9.7480 -2.8603 0.9499
-9.4891 8.2056 -2.8633 0.9498
-10.8026 6.3984 -2.8657 0.9498
-12.4037 4.6192 -3.0210 0.9471
-13.0311 2.3477 -3.0221 0.9471
-13.1896 1.1787 -3.0224 0.9471
-12.2897 0.0000 -3.0208 0.9506
-11.8499 -3.2460 -3.0200 0.9507
-11.5116 -4.2870 -3.0194 0.9507
-9.9607 -7.1692 -3.0166 0.9507
-9.2792 -8.0240 -3.0153 0.9507
-8.5243 -8.8141 -3.0139 0.9507
-6.8194 -10.1753 -3.0108 0.9508
-5.8834 -10.7358 -3.0091 0.9508
-4.9016 -11.2101 -3.0073 0.9509
-3.8819 -11.5948 -3.0055 0.9509
-2.8327 -11.8867 -3.0036 0.9509
-1.7624 -12.0837 -3.0016 0.9509
3.6062 -11.6253 -2.9918 0.9511
4.6237 -11.2511 -2.9900 0.9511
6.5377 -10.2411 -2.9865 0.9512
7.4192 -9.6134 -2.9849 0.9512
8.9975 -8.1377 -2.9820 0.9513
9.6820 -7.3015 -2.9807 0.9513
10.2896 -6.4084 -2.9796 0.9513
11.2562 -4.4798 -2.9778 0.9513
11.6077 -3.4595 -2.9772 0.9513
11.8677 -2.4122 -2.9767 0.9513
12.0340 -1.3462 -2.9764 0.9513
11.9626 1.8811 -2.9765 0.9513
10.5187 4.7398 -2.8360 0.9536
9.4876 6.5129 -2.8286 0.9537
8.8738 7.3344 -2.8298 0.9537
8.1894 8.0987 -2.8310 0.9537
6.6304 9.4319 -2.8339 0.9536
3.9098 10.8674 -2.8388 0.9535
1.9234 11.4030 -2.8424 0.9535
0.9015 11.5365 -2.8443 0.9535
-0.1290 11.5786 -2.8462 0.9534
-2.1827 11.3873 -2.8499 0.9534
-3.1897 11.1550 -2.8518 0.9533
-5.1233 10.4256 -2.8553 0.9533
-4.2997 7.0783 -2.0357 0.9665
-6.8984 9.3626 -2.8585 0.9532
-8.4576 7.9991 -2.8614 0.9532
-9.1400 7.2178 -2.8626 0.9532
-9.7499 6.3781 -2.8638 0.9531
-10.2824 5.4869 -2.8647 0.9531
-11.2755 4.7813 -3.0104 0.9508
-11.6924 3.7703 -3.0197 0.9507
-12.1792 1.6380 -3.0206 0.9506
-12.2774 0.5475 -3.0208 0.9506
-12.1792 -1.6379 -3.0206 0.9506
-11.9837 -2.7151 -3.0202 0.9506
-11.3078 -4.7949 -3.0190 0.9507
-8.1212 -9.1828 -3.0132 0.9508
-7.2679 -9.8641 -3.0117 0.9508
-6.3576 -10.4660 -3.0100 0.9508
-5.3977 -10.9840 -3.0082 0.9508
-3.3605 -11.7524 -3.0045 0.9509
5.1188 -11.0307 -2.9891 0.9511
6.9855 -9.9370 -2.9856 0.9512
8.6280 -8.5324 -2.9826 0.9512
9.9958 -6.8617 -2.9801 0.9513
11.0469 -4.9775 -2.9782 0.9513
11.7493 -2.9387 -2.9769 0.9513
12.0817 -0.8088 -2.9763 0.9513
11.8677 2.4122 -2.9767 0.9513
8.5401 7.7241 -2.8304 0.9537
6.2053 9.7205 -2.8346 0.9536
4.3886 10.6792 -2.8379 0.9536
3.4229 11.0343 -2.8397 0.9535
-0.6449 11.5652 -2.8471 0.9534
-3.6846 11.0053 -2.8527 0.9533
-5.5843 10.1900 -2.8561 0.9533
-7.3106 9.0484 -2.8593 0.9532
-8.0909 8.3660 -2.8607 0.9532
-8.8075 7.6162 -2.8620 0.9532
-10.0261 5.9385 -2.8643 0.9531
-10.5182 5.0241 -2.8652 0.9531
-11.5115 4.2870 -3.0194 0.9507
-12.2405 1.0938 -3.0207 0.9506
-11.4584 0.0000 -3.0193 0.9537
-11.2756 -2.0314 -3.0190 0.9537
-11.0485 -3.0265 -3.0185 0.9537
-10.7333 -3.9971 -3.0180 0.9537
-10.3324 -4.9354 -3.0172 0.9537
-9.8492 -5.8337 -3.0164 0.9538
-9.2878 -6.6849 -3.0153 0.9538
-7.9489 -8.2191 -3.0129 0.9538
-6.3596 -9.4891 -3.0100 0.9538
-5.4868 -10.0122 -3.0084 0.9539
-4.5714 -10.4550 -3.0067 0.9539
-3.6206 -10.8141 -3.0050 0.9539
-2.6421 -11.0869 -3.0032 0.9539
1.3898 -11.2842 -2.9959 0.9541
2.3872 -11.1090 -2.9940 0.9541
4.3139 -10.4974 -2.9905 0.9541
5.2282 -10.0661 -2.9889 0.9542
6.1002 -9.5557 -2.9873 0.9542
8.3962 -7.5939 -2.9831 0.9543
9.0352 -6.8138 -2.9819 0.9543
10.0936 -5.1005 -2.9800 0.9543
10.5049 -4.1808 -2.9792 0.9543
10.8331 -3.2286 -2.9786 0.9543
11.2312 -1.2564 -2.9779 0.9543
11.2980 -0.2517 -2.9778 0.9543
11.2757 0.7548 -2.9778 0.9543
10.9653 2.7426 -2.9784 0.9543
10.6795 3.7084 -2.9789 0.9543
10.3094 4.6452 -2.9796 0.9543
9.3567 5.2640 -2.8289 0.9566
7.6420 7.5573 -2.8320 0.9565
6.9421 8.2112 -2.8333 0.9565
6.1867 8.8008 -2.8347 0.9565
2.7325 10.4297 -2.8410 0.9564
0.8410 10.7620 -2.8444 0.9563
-0.1203 10.8007 -2.8462 0.9563
-3.8915 10.1041 -2.8531 0.9562
-4.7781 9.7231 -2.8547 0.9562
-4.2813 7.0479 -2.1729 0.9665
-7.1882 8.1278 -2.8591 0.9561
-9.0911 5.9472 -2.8626 0.9561
-11.4469 0.5104 -3.0193 0.9537
-11.3554 -1.5271 -3.0191 0.9537
-11.1732 -2.5315 -3.0188 0.9537
-10.1009 -5.3899 -3.0168 0.9537
-9.5780 -6.2656 -3.0159 0.9538
-8.3090 -7.8586 -3.0135 0.9538
-7.5732 -8.5631 -3.0122 0.9538
-5.0340 -10.2438 -3.0076 0.9539
-3.1344 -10.9615 -3.0041 0.9539
-1.1398 -11.3298 -3.0005 0.9540
2.8788 -10.9883 -2.9931 0.9541
3.8431 -10.6822 -2.9914 0.9541
5.6699 -9.8206 -2.9880 0.9542
9.3281 -6.4034 -2.9814 0.9543
9.8578 -5.5459 -2.9804 0.9543
10.3095 -4.6452 -2.9796 0.9543
10.6796 -3.7083 -2.9789 0.9543
10.9653 -2.7426 -2.9784 0.9543
11.2757 -0.7548 -2.9778 0.9543
11.2980 0.2518 -2.9778 0.9543
10.8331 3.2286 -2.9786 0.9543
9.1144 5.6765 -2.8293 0.9566
8.5759 6.4674 -2.8303 0.9565
7.2993 7.8920 -2.8326 0.9565
6.5710 8.5144 -2.8340 0.9565
3.1934 10.2946 -2.8401 0.9564
2.2658 10.5442 -2.8418 0.9564
1.3191 10.7105 -2.8435 0.9563
0.3608 10.7921 -2.8453 0.9563
-1.5603 10.6982 -2.8488 0.9563
-2.5078 10.5233 -2.8505 0.9562
-6.8173 8.4380 -2.8584 0.9561
-7.5448 7.8013 -2.8597 0.9561
-8.2127 7.1018 -2.8609 0.9561
-10.7332 3.9971 -3.0180 0.9537
-11.0485 3.0265 -3.0185 0.9537
-11.4126 1.0199 -3.0192 0.9537
-10.3429 -2.8332 -3.0173 0.9564
-10.0479 -3.7419 -3.0167 0.9564
-8.6952 -6.2584 -3.0143 0.9565
-8.1008 -7.0050 -3.0132 0.9565
-7.4421 -7.6951 -3.0120 0.9565
-6.7248 -8.3234 -3.0107 0.9565
-4.2805 -9.7897 -3.0062 0.9566
-0.5935 -10.6442 -2.9995 0.9567
1.3017 -10.5686 -2.9960 0.9567
3.1513 -10.1589 -2.9926 0.9568
4.0408 -9.8328 -2.9910 0.9568
6.4853 -8.4033 -2.9866 0.9569
7.2044 -7.7893 -2.9852 0.9569
10.3774 -2.1093 -2.9794 0.9570
10.5856 -0.2359 -2.9791 0.9570
10.5647 0.7073 -2.9791 0.9570
10.0059 3.4745 -2.9801 0.9569
8.7662 4.9318 -2.8300 0.9591
8.2950 5.6942 -2.8308 0.9591
7.7580 6.4121 -2.8318 0.9590
7.1592 7.0799 -2.8329 0.9590
6.5034 7.6923 -2.8341 0.9590
5.7956 8.2444 -2.8354 0.9590
5.0412 8.7317 -2.8368 0.9590
4.2462 9.1504 -2.8382 0.9589
2.5593 9.7689 -2.8413 0.9589
1.6806 9.9635 -2.8429 0.9589
0.7876 10.0793 -2.8445 0.9589
-6.7300 7.6097 -2.8582 0.9587
-7.3837 6.9835 -2.8594 0.9586
-10.2056 3.2909 -3.0170 0.9564
-10.6301 1.4296 -3.0178 0.9564
-10.7157 0.4779 -3.0179 0.9564
-10.6301 -1.4296 -3.0178 0.9564
-10.4596 -2.3698 -3.0175 0.9564
-10.2056 -3.2909 -3.0170 0.9564
-9.4561 -5.0459 -3.0156 0.9564
-7.7791 -7.3574 -3.0126 0.9565
-5.5514 -9.1389 -3.0085 0.9565
-4.7136 -9.5919 -3.0070 0.9566
-2.0087 -10.4791 -3.0021 0.9566
-1.0674 -10.6103 -3.0003 0.9567
0.8298 -10.6192 -2.9969 0.9567
2.6964 -10.2921 -2.9935 0.9568
6.1060 -8.6858 -2.9872 0.9568
7.5426 -7.4591 -2.9846 0.9569
8.1734 -6.7555 -2.9835 0.9569
8.7393 -5.9991 -2.9824 0.9569
9.2357 -5.1959 -2.9815 0.9569
9.6590 -4.3521 -2.9808 0.9569
10.4605 -1.6448 -2.9793 0.9570
10.5230 1.1772 -2.9792 0.9570
9.3389 4.7192 -2.9440 0.9575
8.5391 5.3182 -2.8304 0.9591
8.0345 6.0591 -2.8313 0.9590
7.4660 6.7526 -2.8323 0.9590
6.8381 7.3933 -2.8335 0.9590
6.1556 7.9761 -2.8347 0.9590
4.6484 8.9498 -2.8375 0.9590
3.8354 9.3329 -2.8390 0.9589
2.1222 9.8760 -2.8421 0.9589
1.2355 10.0313 -2.8437 0.9589
0.3379 10.1073 -2.8453 0.9588
-1.4612 10.0186 -2.8486 0.9588
-4.8763 8.8982 -2.8549 0.9587
-5.6518 8.4331 -2.8563 0.9587
-6.3829 7.9003 -2.8576 0.9587
-7.6889 6.6489 -2.8600 0.9586
-8.7519 5.1838 -2.8619 0.9586
-10.0479 3.7419 -3.0167 0.9564
-10.3429 2.8333 -3.0172 0.9564
-10.5554 1.9017 -3.0176 0.9564
-10.6836 0.9547 -3.0179 0.9564
-10.0767 0.0000 -3.0168 0.9588
-9.9161 -1.7864 -3.0165 0.9588
-9.7165 -2.6616 -3.0161 0.9588
-7.6108 -6.5813 -3.0123 0.9589
-6.3184 -7.8203 -3.0099 0.9589
-5.5948 -8.3480 -3.0086 0.9589
-4.8273 -8.8087 -3.0072 0.9589
-2.3250 -9.7562 -3.0026 0.9590
-0.5578 -10.0032 -2.9994 0.9590
0.3346 -10.0077 -2.9978 0.9591
1.2233 -9.9328 -2.9962 0.9591
2.1014 -9.7793 -2.9946 0.9591
2.9620 -9.5484 -2.9930 0.9591
3.7981 -9.2422 -2.9915 0.9591
4.6034 -8.8631 -2.9900 0.9592
5.3715 -8.4142 -2.9886 0.9592
6.0963 -7.8992 -2.9873 0.9592
7.9576 -6.0011 -2.9839 0.9592
8.4574 -5.2674 -2.9829 0.9593
8.8905 -4.4925 -2.9822 0.9593
9.5423 -2.8439 -2.9810 0.9593
8.4121 4.7326 -2.8896 0.9605
7.7981 5.3531 -2.8317 0.9613
7.2931 6.0279 -2.8327 0.9613
6.7301 6.6555 -2.8337 0.9612
6.1134 7.2310 -2.8348 0.9612
5.4479 7.7497 -2.8360 0.9612
4.7386 8.2076 -2.8373 0.9612
3.9912 8.6009 -2.8387 0.9612
3.2115 8.9265 -2.8401 0.9612
2.4055 9.1817 -2.8416 0.9611
-0.1059 9.5062 -2.8461 0.9611
-0.9521 9.4642 -2.8477 0.9611
-3.4241 8.8905 -2.8522 0.9610
-4.2039 8.5547 -2.8536 0.9610
-5.6593 7.6809 -2.8563 0.9609
-6.3232 7.1498 -2.8575 0.9609
-8.8837 4.7405 -3.0146 0.9588
-9.2726 3.9320 -3.0153 0.9588
-9.8261 2.2263 -3.0163 0.9588
-9.9862 1.3430 -3.0166 0.9588
-9.9862 -1.3430 -3.0166 0.9588
-9.8261 -2.2263 -3.0163 0.9588
-9.2726 -3.9319 -3.0153 0.9588
-8.4242 -5.5109 -3.0138 0.9588
-7.8978 -6.2368 -3.0128 0.9589
-5.9624 -8.0923 -3.0093 0.9589
-5.2162 -8.5870 -3.0079 0.9589
-4.4290 -9.0128 -3.0065 0.9589
-2.7581 -9.6455 -3.0034 0.9590
-1.8876 -9.8475 -3.0018 0.9590
-0.1116 -10.0154 -2.9986 0.9590
1.6642 -9.8658 -2.9954 0.9591
4.2050 -9.0615 -2.9907 0.9591
5.7397 -8.1648 -2.9879 0.9592
7.0905 -7.0119 -2.9854 0.9592
8.2157 -5.6398 -2.9834 0.9592
8.6826 -4.8847 -2.9825 0.9593
9.4070 -3.2664 -2.9812 0.9593
9.6589 -2.4158 -2.9808 0.9593
9.8345 -1.5463 -2.9804 0.9593
9.9325 -0.6649 -2.9802 0.9593
9.8932 1.1067 -2.9803 0.9593
9.7563 1.9831 -2.9806 0.9593
7.5531 5.6961 -2.8322 0.9613
2.8114 9.0630 -2.8408 0.9612
1.9946 9.2821 -2.8423 0.9611
0.3176 9.4989 -2.8454 0.9611
-0.5294 9.4946 -2.8469 0.9611
-6.6367 6.8624 -2.8581 0.9609
-7.2239 6.2468 -2.8591 0.9609
-7.7538 5.5809 -2.8601 0.9609
-8.2223 4.8701 -2.8610 0.9609
-9.9161 1.7865 -3.0165 0.9588
-10.0364 0.8969 -3.0167 0.9588
-8.8955 -3.3127 -3.0146 0.9609
-7.6987 -5.5411 -3.0124 0.9610
-6.5898 -6.8138 -3.0104 0.9610
-5.9549 -7.3704 -3.0093 0.9610
-5.2731 -7.8679 -3.0080 0.9610
-4.5498 -8.3024 -3.0067 0.9610
-3.7911 -8.6704 -3.0053 0.9611
-3.0029 -8.9691 -3.0039 0.9611
-1.3637 -9.3501 -3.0009 0.9611
-0.5258 -9.4296 -2.9993 0.9611
1.1533 -9.3638 -2.9963 0.9612
2.7925 -9.0020 -2.9933 0.9612
4.3402 -8.3563 -2.9905 0.9613
6.3857 -6.9041 -2.9867 0.9613
8.3835 -4.2363 -2.9831 0.9613
8.9984 -2.6818 -2.9820 0.9614
9.2002 -1.8700 -2.9816 0.9614
9.3294 -1.0437 -2.9814 0.9614
9.3664 0.6271 -2.9813 0.9614
8.8706 3.0803 -2.9822 0.9614
8.1874 4.6062 -2.9834 0.9613
7.3532 5.0477 -2.8325 0.9633
5.1366 7.3070 -2.8366 0.9632
4.4678 7.7385 -2.8378 0.9632
3.7630 8.1091 -2.8391 0.9632
3.0278 8.4158 -2.8404 0.9632
2.2678 8.6561 -2.8418 0.9631
1.4891 8.8280 -2.8432 0.9631
0.6978 8.9300 -2.8447 0.9631
-1.6888 8.8106 -2.8490 0.9630
-3.9623 8.0631 -2.8532 0.9630
-5.3338 7.2391 -2.8557 0.9630
-5.9594 6.7384 -2.8568 0.9630
-7.0647 5.5789 -2.8589 0.9629
-8.7382 3.7054 -3.0143 0.9609
-9.2597 2.0980 -3.0153 0.9609
-9.4863 0.4230 -3.0157 0.9609
-9.4863 -0.4230 -3.0157 0.9609
-9.4105 -1.2656 -3.0155 0.9609
-8.7383 -3.7053 -3.0143 0.9609
-6.8880 -6.5146 -3.0110 0.9610
-6.2785 -7.0992 -3.0098 0.9610
-4.9163 -8.0933 -3.0074 0.9610
-1.7793 -9.2824 -3.0016 0.9611
-0.9456 -9.3992 -3.0001 0.9611
-0.1052 -9.4412 -2.9986 0.9611
0.7352 -9.4083 -2.9970 0.9612
3.1899 -8.8665 -2.9926 0.9612
3.9645 -8.5434 -2.9912 0.9612
4.7071 -8.1529 -2.9898 0.9613
5.4117 -7.6983 -2.9885 0.9613
6.6857 -6.6116 -2.9862 0.9613
7.7470 -5.3180 -2.9842 0.9613
8.5629 -3.8583 -2.9828 0.9613
9.1083 -2.2781 -2.9818 0.9614
9.2740 -1.4582 -2.9815 0.9614
9.2002 1.8700 -2.9816 0.9614
8.9983 2.6818 -2.9819 0.9614
7.6154 4.7429 -2.8492 0.9630
7.1221 5.3711 -2.8330 0.9633
6.0611 6.5532 -2.8349 0.9632
4.8070 7.5301 -2.8372 0.9632
2.6505 8.5444 -2.8411 0.9632
0.2994 8.9545 -2.8454 0.9631
-0.4991 8.9503 -2.8469 0.9631
-1.2944 8.8748 -2.8483 0.9631
-2.0802 8.7288 -2.8498 0.9630
-2.8502 8.5132 -2.8512 0.9630
-6.8080 5.8871 -2.8584 0.9629
-7.3073 5.2595 -2.8593 0.9629
-8.5636 4.0905 -3.0140 0.9610
-9.4578 0.8452 -3.0156 0.9609
-8.9371 -0.7986 -3.0147 0.9628
-8.8300 -1.5908 -3.0145 0.9628
-8.0924 -3.8654 -3.0131 0.9629
-6.7783 -5.8613 -3.0108 0.9629
-5.6277 -6.9655 -3.0087 0.9629
-2.8382 -8.4771 -3.0036 0.9630
-2.0714 -8.6921 -3.0022 0.9630
1.0902 -8.8514 -2.9964 0.9631
2.6398 -8.5098 -2.9936 0.9631
3.3852 -8.2374 -2.9922 0.9631
5.4344 -7.0415 -2.9885 0.9632
6.0373 -6.5275 -2.9874 0.9632
6.5921 -5.9622 -2.9864 0.9632
8.5082 -2.5357 -2.9829 0.9632
8.8563 0.5929 -2.9822 0.9632
8.6121 2.1541 -2.9827 0.9632
8.3874 2.9124 -2.9831 0.9632
8.0963 3.6480 -2.9836 0.9632
6.5019 5.3740 -2.8341 0.9650
5.9997 5.9332 -2.8350 0.9650
4.2238 7.3159 -2.8383 0.9650
3.5574 7.6661 -2.8395 0.9650
1.4076 8.3451 -2.8434 0.9649
-0.8483 8.4326 -2.8475 0.9649
-1.5963 8.3277 -2.8489 0.9649
-3.7448 7.6205 -2.8528 0.9648
-5.0408 6.8415 -2.8552 0.9648
-6.1785 5.8436 -2.8572 0.9648
-6.6762 5.2721 -2.8581 0.9647
-7.9113 4.2216 -3.0128 0.9629
-8.2573 3.5014 -3.0134 0.9629
-8.7499 1.9825 -3.0143 0.9628
-8.8924 1.1959 -3.0146 0.9628
-8.9640 0.3998 -3.0147 0.9628
-8.7500 -1.9825 -3.0143 0.9628
-8.2574 -3.5014 -3.0134 0.9629
-7.5023 -4.9078 -3.0121 0.9629
-5.9335 -6.7091 -3.0092 0.9629
-5.3108 -7.2079 -3.0081 0.9629
-4.6463 -7.6488 -3.0069 0.9629
-3.2137 -8.3442 -3.0043 0.9630
-2.4572 -8.5932 -3.0029 0.9630
-1.6818 -8.7736 -3.0015 0.9630
-0.8938 -8.8843 -3.0000 0.9630
-0.0994 -8.9242 -2.9986 0.9630
0.6949 -8.8933 -2.9971 0.9631
2.2586 -8.6210 -2.9943 0.9631
3.0156 -8.3819 -2.9929 0.9631
5.1163 -7.2780 -2.9891 0.9632
6.3210 -6.2510 -2.9869 0.9632
7.3247 -5.0281 -2.9850 0.9632
7.7412 -4.3551 -2.9843 0.9632
8.3874 -2.9124 -2.9831 0.9632
8.6122 -2.1540 -2.9827 0.9632
8.7688 -1.3788 -2.9824 0.9632
8.8738 0.1978 -2.9822 0.9632
8.6991 1.7682 -2.9825 0.9632
8.2500 3.2834 -2.9833 0.9632
7.5404 4.6962 -2.9846 0.9632
6.7338 5.0782 -2.8337 0.9650
6.2570 5.6591 -2.8345 0.9650
5.7304 6.1957 -2.8355 0.9650
5.1581 6.6836 -2.8365 0.9650
4.5446 7.1190 -2.8377 0.9650
2.5056 8.0773 -2.8414 0.9649
1.7776 8.2721 -2.8427 0.9649
1.0347 8.4015 -2.8441 0.9649
-0.4717 8.4600 -2.8468 0.9649
-1.9661 8.2502 -2.8495 0.9648
-3.4009 7.7781 -2.8522 0.9648
-4.7301 7.0578 -2.8546 0.9648
-5.9110 6.1120 -2.8567 0.9648
-6.4337 5.5635 -2.8577 0.9647
-7.7144 4.5693 -3.0124 0.9629
-8.4059 3.1304 -3.0137 0.9629
-8.6524 2.3702 -3.0142 0.9629
-8.9371 0.7987 -3.0147 0.9628
-8.4658 -0.7565 -3.0138 0.9646
-8.3644 -1.5069 -3.0136 0.9646
-8.1962 -2.2452 -3.0133 0.9646
-7.9627 -2.9653 -3.0129 0.9646
-7.6658 -3.6616 -3.0124 0.9646
-7.3079 -4.3285 -3.0117 0.9646
-6.8919 -4.9605 -3.0110 0.9646
-5.8997 -6.1002 -3.0092 0.9646
-5.3315 -6.5988 -3.0081 0.9646
-2.6890 -8.0317 -3.0033 0.9647
-1.9626 -8.2354 -3.0020 0.9647
-1.2213 -8.3737 -3.0006 0.9647
0.2825 -8.4499 -2.9979 0.9648
3.2079 -7.8061 -2.9925 0.9648
3.8884 -7.4864 -2.9913 0.9648
4.5375 -7.1078 -2.9901 0.9648
5.1502 -6.6732 -2.9890 0.9649
5.7217 -6.1862 -2.9879 0.9649
6.2476 -5.6506 -2.9870 0.9649
6.7237 -5.0706 -2.9861 0.9649
7.1465 -4.4509 -2.9853 0.9649
7.5126 -3.7963 -2.9847 0.9649
8.0640 -2.4033 -2.9837 0.9649
8.3608 -0.9353 -2.9831 0.9649
8.4106 -0.1874 -2.9830 0.9649
8.3940 0.5620 -2.9831 0.9649
7.9494 2.7604 -2.9839 0.9649
7.6735 3.4575 -2.9844 0.9649
7.3368 4.1277 -2.9850 0.9649
6.8831 4.7250 -2.9604 0.9652
6.1621 5.0931 -2.8347 0.9666
5.6861 5.6231 -2.8356 0.9666
5.1647 6.1089 -2.8365 0.9666
4.6022 6.5467 -2.8376 0.9666
3.3712 7.2647 -2.8398 0.9666
1.3338 7.9076 -2.8435 0.9665
-0.0894 8.0261 -2.8461 0.9665
-2.8900 7.5037 -2.8512 0.9664
-4.7755 6.4814 -2.8547 0.9664
-6.3245 4.9944 -2.8575 0.9664
-7.8220 3.3169 -3.0126 0.9646
-8.4912 -0.3786 -3.0139 0.9646
-8.2886 -1.8779 -3.0135 0.9646
-7.8221 -3.3168 -3.0127 0.9646
-7.4943 -3.9991 -3.0121 0.9646
-6.6632 -5.2618 -3.0105 0.9646
-6.1665 -5.8323 -3.0096 0.9646
-3.0448 -7.9056 -3.0039 0.9647
-2.3281 -8.1417 -3.0026 0.9647
-1.5934 -8.3129 -3.0013 0.9647
1.4053 -8.3311 -2.9958 0.9648
2.8576 -7.9429 -2.9932 0.9648
3.5517 -7.6538 -2.9919 0.9648
4.2172 -7.3043 -2.9907 0.9648
4.8487 -6.8973 -2.9895 0.9649
5.4414 -6.4360 -2.9885 0.9649
5.9906 -5.9242 -2.9875 0.9649
6.4921 -5.3659 -2.9865 0.9649
6.9420 -4.7654 -2.9857 0.9649
7.3368 -4.1276 -2.9850 0.9649
7.6735 -3.4575 -2.9844 0.9649
8.1625 -2.0416 -2.9835 0.9649
8.3111 -1.3068 -2.9832 0.9649
8.4106 0.1875 -2.9830 0.9649
7.5126 3.7963 -2.9847 0.9649
7.1465 4.4509 -2.9853 0.9649
4.8884 6.3340 -2.8370 0.9666
4.3068 6.7465 -2.8381 0.9666
3.6907 7.1059 -2.8392 0.9666
2.3743 7.6542 -2.8416 0.9666
0.9805 7.9610 -2.8442 0.9665
0.2682 8.0203 -2.8455 0.9665
-1.1592 7.9480 -2.8481 0.9665
-1.8628 7.8168 -2.8494 0.9665
-2.5523 7.6234 -2.8506 0.9665
-3.8668 7.0560 -2.8530 0.9664
-5.0604 6.2634 -2.8552 0.9664
-6.0948 5.2704 -2.8571 0.9664
-6.6471 4.7843 -2.9040 0.9658
-7.3079 4.3285 -3.0117 0.9646
-7.6658 3.6617 -3.0124 0.9646
-7.9627 2.9654 -3.0129 0.9646
-8.1962 2.2452 -3.0133 0.9646
-8.0691 0.0000 -3.0131 0.9661
-7.7811 -2.1314 -3.0126 0.9661
-7.5595 -2.8152 -3.0122 0.9661
-6.0963 -5.2717 -3.0095 0.9662
-5.6012 -5.7916 -3.0086 0.9662
-5.0619 -6.2651 -3.0076 0.9662
-4.4826 -6.6884 -3.0066 0.9662
-3.8680 -7.0582 -3.0054 0.9662
-2.5532 -7.6261 -3.0030 0.9662
-1.8636 -7.8198 -3.0018 0.9663
0.2683 -8.0239 -2.9979 0.9663
0.9809 -7.9647 -2.9966 0.9663
1.6852 -7.8424 -2.9953 0.9663
2.3756 -7.6581 -2.9941 0.9663
3.6928 -7.1098 -2.9916 0.9664
4.3093 -6.7504 -2.9905 0.9664
4.8913 -6.3378 -2.9895 0.9664
5.4342 -5.8754 -2.9885 0.9664
5.9337 -5.3667 -2.9876 0.9664
6.7877 -4.2274 -2.9860 0.9664
7.1355 -3.6057 -2.9854 0.9664
7.4268 -2.9558 -2.9848 0.9664
7.6593 -2.2827 -2.9844 0.9665
7.9413 -0.8883 -2.9839 0.9665
7.9887 -0.1780 -2.9838 0.9665
7.7530 1.9392 -2.9842 0.9665
7.2884 3.2840 -2.9851 0.9664
6.5934 4.5262 -2.9863 0.9664
4.9052 5.8019 -2.8370 0.9681
2.5758 7.1597 -2.8413 0.9680
1.2667 7.5093 -2.8436 0.9680
-0.0849 7.6215 -2.8461 0.9680
-0.7633 7.5870 -2.8474 0.9680
-1.4361 7.4922 -2.8486 0.9680
-3.9669 6.5305 -2.8532 0.9679
-4.5341 6.1537 -2.8542 0.9679
-5.0655 5.7277 -2.8552 0.9679
-5.5570 5.2557 -2.8561 0.9679
-6.7472 4.4138 -3.0107 0.9662
-7.6779 2.4758 -3.0124 0.9661
-8.0611 0.3595 -3.0131 0.9661
-8.0611 -0.3594 -3.0131 0.9661
-7.6779 -2.4758 -3.0124 0.9661
-7.4260 -3.1489 -3.0119 0.9661
-7.1149 -3.7966 -3.0114 0.9662
-6.3260 -4.9955 -3.0099 0.9662
-5.3368 -6.0344 -3.0081 0.9662
-4.1794 -6.8802 -3.0060 0.9662
-3.5491 -7.2221 -3.0049 0.9662
-1.5130 -7.8934 -3.0011 0.9663
-0.8041 -7.9933 -2.9999 0.9663
1.3345 -7.9114 -2.9960 0.9663
2.7138 -7.5431 -2.9934 0.9664
3.3730 -7.2687 -2.9922 0.9664
4.0051 -6.9370 -2.9911 0.9664
4.6049 -6.5506 -2.9900 0.9664
5.6896 -5.6266 -2.9880 0.9664
6.9685 -3.9204 -2.9857 0.9664
7.7530 -1.9391 -2.9842 0.9665
7.8941 -1.2413 -2.9840 0.9665
7.9729 -0.5337 -2.9838 0.9665
7.1355 3.6057 -2.9853 0.9664
6.7877 4.2274 -2.9860 0.9664
6.2747 4.7320 -2.9346 0.9670
5.6321 5.0940 -2.8357 0.9681
5.1579 5.5767 -2.8366 0.9681
4.0903 6.4073 -2.8385 0.9681
3.5051 6.7485 -2.8396 0.9681
2.8916 7.0364 -2.8407 0.9680
1.5996 7.4438 -2.8430 0.9680
0.2546 7.6161 -2.8455 0.9680
-0.4244 7.6118 -2.8467 0.9680
-3.0593 6.9969 -2.8515 0.9679
-4.2547 6.3485 -2.8537 0.9679
-4.8045 5.9467 -2.8547 0.9679
-5.3165 5.4972 -2.8557 0.9679
-5.7864 5.0037 -2.8565 0.9679
-7.5594 2.8152 -3.0122 0.9661
-7.9406 1.4306 -3.0129 0.9661
-8.0369 0.7182 -3.0130 0.9661
-7.6754 0.0000 -3.0124 0.9676
-7.5533 -1.3607 -3.0122 0.9676
-7.4015 -2.0275 -3.0119 0.9676
-7.1907 -2.6778 -3.0115 0.9676
-6.9227 -3.3067 -3.0110 0.9676
-5.7992 -5.0147 -3.0090 0.9676
-5.3283 -5.5094 -3.0081 0.9676
-4.2643 -6.3628 -3.0062 0.9676
-3.6798 -6.7147 -3.0051 0.9676
-2.4291 -7.2552 -3.0028 0.9677
-1.7730 -7.4396 -3.0016 0.9677
0.2552 -7.6343 -2.9979 0.9677
3.5138 -6.7653 -2.9920 0.9678
4.1006 -6.4234 -2.9909 0.9678
4.6544 -6.0309 -2.9899 0.9678
5.6466 -5.1070 -2.9881 0.9678
6.7904 -3.4313 -2.9860 0.9678
7.0677 -2.8129 -2.9855 0.9678
7.2890 -2.1724 -2.9851 0.9678
7.5575 -0.8454 -2.9846 0.9679
7.5125 1.1813 -2.9847 0.9679
6.9359 3.1252 -2.9857 0.9678
4.6677 5.5210 -2.8374 0.9694
3.6173 6.2653 -2.8394 0.9694
2.4509 6.8125 -2.8415 0.9694
1.8356 7.0064 -2.8426 0.9694
-0.0808 7.2514 -2.8461 0.9693
-0.7262 7.2184 -2.8473 0.9693
-1.3663 7.1280 -2.8485 0.9693
-2.6106 6.7782 -2.8507 0.9693
-3.2047 6.5214 -2.8518 0.9693
-3.7738 6.2126 -2.8528 0.9692
-4.8188 5.4487 -2.8548 0.9692
-6.0176 4.7521 -3.0093 0.9676
-7.0637 2.9953 -3.0113 0.9676
-7.3034 2.3551 -3.0117 0.9676
-7.4848 1.6958 -3.0120 0.9676
-7.6066 1.0230 -3.0123 0.9676
-6.4183 -4.1986 -3.0101 0.9676
-5.5693 -5.2674 -3.0085 0.9676
-5.0768 -5.7404 -3.0076 0.9676
-4.5443 -6.1675 -3.0067 0.9676
-3.9759 -6.5453 -3.0056 0.9676
-3.3764 -6.8707 -3.0045 0.9676
-2.7504 -7.1412 -3.0034 0.9677
-2.1030 -7.3548 -3.0022 0.9677
-0.0851 -7.6397 -2.9985 0.9677
1.9339 -7.3816 -2.9949 0.9677
2.5822 -7.1773 -2.9937 0.9678
3.2096 -6.9164 -2.9925 0.9678
3.8110 -6.6009 -2.9914 0.9678
6.2745 -4.3072 -2.9869 0.9678
6.6315 -3.7308 -2.9863 0.9678
6.9359 -3.1252 -2.9857 0.9678
7.1855 -2.4950 -2.9853 0.9678
7.6025 0.1694 -2.9845 0.9679
7.4527 1.5149 -2.9848 0.9678
7.2890 2.1724 -2.9851 0.9678
6.0771 4.5830 -2.9873 0.9678
5.3595 4.8474 -2.8362 0.9694
4.9082 5.3068 -2.8370 0.9694
2.7515 6.6953 -2.8409 0.9694
0.8859 7.1929 -2.8443 0.9693
-3.4927 6.3734 -2.8523 0.9693
-5.0575 5.2294 -2.8552 0.9692
-6.5996 3.9090 -3.0104 0.9676
-7.1907 2.6779 -3.0115 0.9676
-7.5532 1.3608 -3.0122 0.9676
-7.3139 0.0000 -3.0117 0.9689
-7.0529 -1.9320 -3.0112 0.9689
-6.2890 -3.7250 -3.0099 0.9689
-5.9312 -4.2690 -3.0092 0.9689
-5.5263 -4.7788 -3.0085 0.9689
-4.5889 -5.6797 -3.0068 0.9689
-1.0515 -7.2098 -3.0003 0.9690
-0.4055 -7.2720 -2.9991 0.9690
0.2433 -7.2763 -2.9979 0.9690
1.5284 -7.1124 -2.9956 0.9690
3.3494 -6.4487 -2.9923 0.9691
4.9293 -5.3296 -2.9894 0.9691
5.7931 -4.3688 -2.9878 0.9691
6.1576 -3.8350 -2.9871 0.9691
6.7376 -2.6815 -2.9861 0.9691
7.1047 -1.4441 -2.9854 0.9691
7.2476 -0.1615 -2.9851 0.9691
5.9813 4.1059 -2.9875 0.9691
4.4494 5.2628 -2.8378 0.9706
3.4480 5.9722 -2.8397 0.9706
2.3362 6.4935 -2.8417 0.9706
1.7496 6.6782 -2.8428 0.9706
-0.0770 6.9113 -2.8461 0.9705
-0.6921 6.8797 -2.8472 0.9705
-1.3022 6.7935 -2.8483 0.9705
-1.9024 6.6532 -2.8494 0.9705
-2.4880 6.4598 -2.8505 0.9705
-3.0541 6.2150 -2.8515 0.9705
-3.5964 5.9206 -2.8525 0.9705
-5.7344 4.5284 -3.0088 0.9689
-6.4493 3.4415 -3.0101 0.9689
-7.1323 1.6160 -3.0114 0.9689
-7.2483 0.9748 -3.0116 0.9689
-7.3066 -0.3258 -3.0117 0.9689
-7.2483 -0.9748 -3.0116 0.9689
-7.1323 -1.6159 -3.0114 0.9689
-6.4493 -3.4414 -3.0101 0.9689
-5.7345 -4.5285 -3.0088 0.9689
-5.3073 -5.0196 -3.0081 0.9689
-4.3306 -5.8775 -3.0063 0.9689
-3.7891 -6.2376 -3.0053 0.9689
-3.2177 -6.5478 -3.0043 0.9689
-2.6212 -6.8058 -3.0032 0.9689
-2.0043 -7.0094 -3.0020 0.9690
-0.7292 -7.2481 -2.9997 0.9690
1.2102 -7.1748 -2.9962 0.9690
1.8433 -7.0358 -2.9950 0.9690
3.0593 -6.5927 -2.9928 0.9690
3.6327 -6.2920 -2.9918 0.9691
4.1769 -5.9417 -2.9908 0.9691
5.1611 -5.1039 -2.9890 0.9691
5.5934 -4.6231 -2.9882 0.9691
5.9813 -4.1059 -2.9875 0.9691
6.3217 -3.5565 -2.9868 0.9691
6.6120 -2.9792 -2.9863 0.9691
7.0336 -1.7592 -2.9855 0.9691
7.2476 0.1615 -2.9851 0.9691
7.1047 1.4441 -2.9854 0.9691
6.1576 3.8350 -2.9871 0.9691
5.7931 4.3688 -2.9878 0.9691
4.6788 5.0587 -2.8374 0.9706
3.7100 5.8117 -2.8392 0.9706
2.6226 6.3819 -2.8412 0.9706
1.4507 6.7509 -2.8433 0.9706
0.8444 6.8558 -2.8444 0.9706
-0.3849 6.9023 -2.8467 0.9705
-1.6038 6.7300 -2.8489 0.9705
-3.8573 5.7554 -2.8530 0.9705
-5.5077 4.7627 -2.9983 0.9690
-5.9312 4.2690 -3.0092 0.9689
-6.5968 3.1510 -3.0104 0.9689
-7.0529 1.9320 -3.0112 0.9689
-7.1975 1.2967 -3.0115 0.9689
-6.8695 -1.2376 -3.0109 0.9701
-6.7315 -1.8439 -3.0107 0.9701
-4.8466 -5.0113 -3.0072 0.9701
-3.3473 -6.1081 -3.0045 0.9701
-2.2098 -6.6003 -3.0024 0.9701
-0.3871 -6.9419 -2.9991 0.9702
0.2322 -6.9462 -2.9980 0.9702
0.8492 -6.8954 -2.9968 0.9702
1.4591 -6.7899 -2.9957 0.9702
2.0568 -6.6306 -2.9946 0.9702
4.2359 -5.4886 -2.9907 0.9702
6.4330 -2.5603 -2.9866 0.9703
6.6346 -1.9773 -2.9863 0.9703
6.7836 -1.3788 -2.9860 0.9703
6.8790 -0.7695 -2.9858 0.9703
6.9200 -0.1542 -2.9857 0.9703
6.9063 0.4623 -2.9858 0.9703
6.8381 1.0753 -2.9859 0.9703
6.7157 1.6797 -2.9861 0.9703
5.7108 3.9202 -2.9879 0.9703
4.7951 4.7421 -2.9090 0.9710
4.2481 5.0246 -2.8382 0.9717
2.7723 5.9741 -2.8409 0.9717
2.2303 6.1993 -2.8419 0.9717
1.0966 6.5012 -2.8440 0.9717
0.5138 6.5755 -2.8450 0.9717
-0.6607 6.5673 -2.8472 0.9717
-1.2430 6.4849 -2.8482 0.9716
-2.9153 5.9324 -2.8513 0.9716
-5.8376 3.8188 -3.0090 0.9701
-6.1555 3.2847 -3.0096 0.9701
-6.6423 2.1419 -3.0105 0.9701
-6.8073 1.5423 -3.0108 0.9701
-6.9180 0.9304 -3.0110 0.9700
-6.9736 0.3110 -3.0111 0.9700
-6.8073 -1.5423 -3.0108 0.9701
-6.6423 -2.1419 -3.0105 0.9701
-6.4245 -2.7242 -3.0101 0.9701
-6.1555 -3.2847 -3.0096 0.9701
-5.4733 -4.3222 -3.0084 0.9701
-4.1336 -5.6101 -3.0059 0.9701
-3.6167 -5.9539 -3.0050 0.9701
-3.0714 -6.2501 -3.0040 0.9701
-1.3096 -6.8322 -3.0008 0.9701
0.5413 -6.9276 -2.9974 0.9702
1.1554 -6.8494 -2.9963 0.9702
1.7597 -6.7169 -2.9952 0.9702
3.4682 -6.0071 -2.9921 0.9702
4.4756 -5.2937 -2.9902 0.9703
4.9276 -4.8730 -2.9894 0.9703
5.7108 -3.9202 -2.9880 0.9703
6.0359 -3.3957 -2.9874 0.9703
6.7157 -1.6797 -2.9861 0.9703
6.8381 -1.0752 -2.9859 0.9703
6.6346 1.9773 -2.9863 0.9703
6.1806 3.1232 -2.9871 0.9703
5.5311 4.1712 -2.9883 0.9703
4.4670 4.8297 -2.8378 0.9717
4.0206 5.2096 -2.8386 0.9717
3.5420 5.5485 -2.8395 0.9717
3.0351 5.8437 -2.8404 0.9717
2.5038 6.0927 -2.8414 0.9717
1.9523 6.2936 -2.8424 0.9717
1.3849 6.4447 -2.8434 0.9717
0.8061 6.5448 -2.8445 0.9717
-0.3674 6.5890 -2.8466 0.9717
-0.9528 6.5326 -2.8477 0.9717
-2.0975 6.2648 -2.8498 0.9716
-2.6477 6.0554 -2.8508 0.9716
-3.1772 5.7977 -2.8518 0.9716
-3.6818 5.4937 -2.8527 0.9716
-4.1574 5.1457 -2.8536 0.9716
-5.2747 4.5612 -3.0080 0.9701
-6.0025 3.5553 -3.0093 0.9701
-6.2962 3.0075 -3.0099 0.9701
-6.7315 1.8440 -3.0107 0.9701
-6.9527 0.6213 -3.0111 0.9700
-6.6721 0.0000 -3.0105 0.9711
-6.2510 -2.3279 -3.0098 0.9712
-6.0181 -2.8746 -3.0094 0.9712
-5.0419 -4.3598 -3.0076 0.9712
-3.7079 -5.5325 -3.0051 0.9712
-2.6665 -6.0984 -3.0033 0.9712
-1.5419 -6.4701 -3.0012 0.9712
-0.9596 -6.5794 -3.0001 0.9712
1.3949 -6.4913 -2.9958 0.9713
1.9664 -6.3391 -2.9948 0.9713
2.5220 -6.1369 -2.9938 0.9713
3.0572 -5.8861 -2.9928 0.9713
4.4997 -4.8650 -2.9902 0.9713
5.2884 -3.9882 -2.9887 0.9714
5.6213 -3.5010 -2.9881 0.9714
6.4862 -1.3184 -2.9865 0.9714
6.6167 -0.1474 -2.9863 0.9714
6.6036 0.4421 -2.9863 0.9714
6.5383 1.0281 -2.9864 0.9714
5.7711 3.2468 -2.9878 0.9714
4.7113 4.6591 -2.9898 0.9713
3.1473 5.4513 -2.8402 0.9728
2.6504 5.7116 -2.8411 0.9727
2.1323 5.9268 -2.8421 0.9727
1.5969 6.0952 -2.8430 0.9727
1.0484 6.2153 -2.8440 0.9727
-0.0703 6.3072 -2.8461 0.9727
-0.6316 6.2782 -2.8471 0.9727
-1.1883 6.1993 -2.8481 0.9727
-2.2702 5.8945 -2.8501 0.9727
-2.7867 5.6709 -2.8510 0.9727
-3.2815 5.4021 -2.8520 0.9726
-3.7504 5.0901 -2.8528 0.9726
-4.2275 4.7801 -2.8793 0.9724
-4.8420 4.5796 -3.0072 0.9712
-6.3488 2.0473 -3.0100 0.9712
-6.5065 1.4742 -3.0102 0.9711
-6.6123 0.8893 -3.0104 0.9711
-6.6654 0.2972 -3.0105 0.9711
-6.6123 -0.8892 -3.0104 0.9711
-6.3488 -2.0472 -3.0100 0.9712
-5.8836 -3.1396 -3.0091 0.9712
-5.5798 -3.6501 -3.0086 0.9712
-4.8420 -4.5796 -3.0072 0.9712
-4.4141 -4.9911 -3.0064 0.9712
-3.9512 -5.3626 -3.0056 0.9712
-1.8289 -6.3961 -3.0017 0.9712
-1.2519 -6.5312 -3.0007 0.9712
0.5175 -6.6228 -2.9974 0.9713
1.1045 -6.5481 -2.9964 0.9713
2.2465 -6.2442 -2.9943 0.9713
3.3158 -5.7432 -2.9923 0.9713
4.7113 -4.6591 -2.9898 0.9713
5.7711 -3.2468 -2.9878 0.9714
6.2535 -2.1715 -2.9870 0.9714
6.6036 -0.4420 -2.9863 0.9714
6.6167 0.1475 -2.9863 0.9714
6.5774 0.7358 -2.9864 0.9714
6.4862 1.3184 -2.9865 0.9714
6.1509 2.4481 -2.9871 0.9714
5.6213 3.5010 -2.9881 0.9714
4.9136 4.4441 -2.9894 0.9713
3.8441 4.9809 -2.8389 0.9728
3.3865 5.3048 -2.8398 0.9728
2.9018 5.5870 -2.8407 0.9728
1.8665 6.0169 -2.8426 0.9727
1.3240 6.1613 -2.8435 0.9727
-0.3512 6.2990 -2.8466 0.9727
-3.5194 5.2513 -2.8524 0.9726
-6.0181 2.8746 -3.0094 0.9712
-6.4341 1.7625 -3.0101 0.9711
-6.5659 1.1829 -3.0104 0.9711
-6.6455 0.5939 -3.0105 0.9711
-6.1579 -1.6868 -3.0096 0.9722
-5.9827 -2.2279 -3.0093 0.9722
-4.4340 -4.5847 -3.0065 0.9722
-3.5489 -5.2954 -3.0049 0.9722
-3.0626 -5.5886 -3.0040 0.9722
-2.0220 -6.0392 -3.0021 0.9722
-0.3542 -6.3524 -2.9990 0.9723
1.3353 -6.2139 -2.9959 0.9723
1.8824 -6.0683 -2.9949 0.9723
2.9267 -5.6349 -2.9930 0.9723
3.4156 -5.3504 -2.9922 0.9723
3.8771 -5.0237 -2.9913 0.9723
4.3078 -4.6575 -2.9905 0.9723
5.0630 -3.8181 -2.9891 0.9723
5.6577 -2.8589 -2.9881 0.9724
6.2099 -1.2622 -2.9870 0.9724
6.3348 -0.1411 -2.9868 0.9724
6.3223 0.4233 -2.9868 0.9724
6.2597 0.9843 -2.9869 0.9724
6.1477 1.5377 -2.9872 0.9724
5.9870 2.0789 -2.9874 0.9724
5.7790 2.6039 -2.9878 0.9724
5.5251 3.1084 -2.9883 0.9724
5.2275 3.5885 -2.9888 0.9724
4.8884 4.0404 -2.9894 0.9723
4.0087 4.7416 -2.9268 0.9729
3.0130 5.2186 -2.8405 0.9737
2.5373 5.4677 -2.8413 0.9737
2.0412 5.6737 -2.8422 0.9737
0.4702 6.0174 -2.8451 0.9737
-2.1730 5.6420 -2.8499 0.9736
-4.2085 4.7587 -2.9945 0.9723
-5.8771 2.4921 -3.0091 0.9722
-6.2272 1.4109 -3.0097 0.9722
-6.3284 0.8511 -3.0099 0.9722
-6.3284 -0.8511 -3.0099 0.9722
-6.2272 -1.4109 -3.0097 0.9722
-6.0763 -1.9594 -3.0095 0.9722
-3.3090 -5.4474 -3.0044 0.9722
-2.2893 -5.9442 -3.0026 0.9722
0.4954 -6.3397 -2.9975 0.9723
1.0573 -6.2682 -2.9965 0.9723
1.6105 -6.1472 -2.9954 0.9723
2.6732 -5.7605 -2.9935 0.9723
3.1743 -5.4980 -2.9926 0.9723
4.0965 -4.8454 -2.9909 0.9723
4.5104 -4.4604 -2.9902 0.9723
5.2275 -3.5885 -2.9888 0.9724
5.5251 -3.1084 -2.9883 0.9724
5.7790 -2.6039 -2.9878 0.9724
5.9870 -2.0789 -2.9875 0.9724
6.1477 -1.5376 -2.9872 0.9724
6.3223 -0.4232 -2.9868 0.9724
6.3348 0.1412 -2.9868 0.9724
6.2972 0.7045 -2.9869 0.9724
6.2099 1.2622 -2.9870 0.9724
6.0734 1.8101 -2.9873 0.9724
5.8888 2.3437 -2.9876 0.9724
5.3816 3.3517 -2.9885 0.9724
5.0630 3.8182 -2.9891 0.9723
2.7779 5.3485 -2.8409 0.9737
-0.3362 6.0295 -2.8466 0.9736
-0.8718 5.9777 -2.8476 0.9736
-1.9192 5.7323 -2.8495 0.9736
-2.4225 5.5405 -2.8504 0.9736
-3.3685 5.0262 -2.8521 0.9736
-4.4340 4.5847 -3.0065 0.9722
-4.8256 4.1729 -3.0072 0.9722
-5.4912 3.2525 -3.0084 0.9722
-6.1579 1.6868 -3.0096 0.9722
-6.0944 -0.5446 -3.0095 0.9731
-6.0215 -1.0848 -3.0094 0.9731
-5.9006 -1.6163 -3.0091 0.9731
-5.2619 -3.1166 -3.0080 0.9731
-4.6241 -3.9986 -3.0068 0.9731
-4.2489 -4.3933 -3.0061 0.9731
-3.8401 -4.7529 -3.0054 0.9731
-3.4009 -5.0745 -3.0046 0.9731
-2.4459 -5.5938 -3.0028 0.9732
-0.8803 -6.0355 -3.0000 0.9732
-0.3395 -6.0879 -2.9990 0.9732
0.7448 -6.0476 -2.9970 0.9732
1.2797 -5.9554 -2.9960 0.9732
1.8041 -5.8160 -2.9951 0.9732
3.2737 -5.1281 -2.9924 0.9732
3.7161 -4.8151 -2.9916 0.9733
4.5088 -4.0779 -2.9902 0.9733
4.8528 -3.6596 -2.9895 0.9733
5.1583 -3.2126 -2.9890 0.9733
5.4229 -2.7403 -2.9885 0.9733
6.0360 -0.6752 -2.9874 0.9733
6.0720 -0.1353 -2.9873 0.9733
6.0001 0.9435 -2.9874 0.9733
5.7386 1.9927 -2.9879 0.9733
5.5392 2.4959 -2.9883 0.9733
5.0105 3.4396 -2.9892 0.9733
2.4318 5.2405 -2.8415 0.9746
1.9563 5.4377 -2.8424 0.9746
1.4650 5.5920 -2.8433 0.9746
-0.0645 5.7861 -2.8461 0.9745
-0.5794 5.7593 -2.8470 0.9745
-1.5924 5.5689 -2.8489 0.9745
-2.0824 5.4068 -2.8498 0.9745
-3.0098 4.9548 -2.8515 0.9745
-3.5153 4.7710 -2.9148 0.9739
-4.4409 4.2002 -3.0065 0.9731
-4.7981 3.7891 -3.0071 0.9731
-6.0640 0.8155 -3.0094 0.9731
-6.1127 0.2726 -3.0095 0.9731
-6.1127 -0.2725 -3.0095 0.9731
-5.1174 -3.3476 -3.0077 0.9731
-2.6930 -5.4801 -3.0033 0.9731
-2.1939 -5.6963 -3.0024 0.9732
-1.1484 -5.9913 -3.0005 0.9732
-0.6104 -6.0677 -2.9995 0.9732
0.4748 -6.0758 -2.9975 0.9732
1.5435 -5.8915 -2.9956 0.9732
2.0611 -5.7289 -2.9946 0.9732
3.0424 -5.2696 -2.9928 0.9732
3.4984 -4.9764 -2.9920 0.9732
4.3231 -4.2752 -2.9905 0.9733
5.0105 -3.4395 -2.9892 0.9733
5.7387 -1.9926 -2.9879 0.9733
5.8927 -1.4738 -2.9876 0.9733
6.0600 -0.4056 -2.9873 0.9733
6.0720 0.1354 -2.9873 0.9733
5.9523 1.2098 -2.9875 0.9733
5.4229 2.7403 -2.9885 0.9733
5.1583 3.2126 -2.9890 0.9733
4.5087 4.0779 -2.9901 0.9733
3.6578 4.7396 -2.9447 0.9737
3.1072 4.8674 -2.8403 0.9746
1.7124 5.5204 -2.8428 0.9746
0.7070 5.7402 -2.8447 0.9745
-0.3222 5.7784 -2.8466 0.9745
-1.3425 5.6334 -2.8484 0.9745
-1.8392 5.4933 -2.8493 0.9745
-2.3215 5.3095 -2.8502 0.9745
-2.7857 5.0833 -2.8510 0.9745
-3.8400 4.7529 -3.0054 0.9731
-5.9006 1.6164 -3.0091 0.9731
-6.0944 0.5446 -3.0095 0.9731
-5.8694 0.0000 -3.0091 0.9740
-5.8461 -0.5224 -3.0090 0.9740
-4.7606 -3.4265 -3.0071 0.9740
-3.2625 -4.8680 -3.0043 0.9740
-2.8155 -5.1377 -3.0035 0.9740
-1.8589 -5.5522 -3.0018 0.9740
0.1954 -5.8446 -2.9980 0.9741
1.2278 -5.7137 -2.9961 0.9741
1.7310 -5.5801 -2.9952 0.9741
2.2201 -5.4022 -2.9943 0.9741
2.6913 -5.1817 -2.9935 0.9741
3.1410 -4.9203 -2.9927 0.9741
3.9616 -4.2833 -2.9912 0.9741
4.9495 -3.0826 -2.9893 0.9741
5.4161 -2.1555 -2.9885 0.9741
5.5859 -1.6647 -2.9882 0.9741
5.7918 -0.6479 -2.9878 0.9741
5.8264 -0.1298 -2.9877 0.9741
5.8148 0.3893 -2.9878 0.9741
5.6542 1.4143 -2.9881 0.9741
5.0815 2.8588 -2.9891 0.9741
4.8077 3.3003 -2.9896 0.9741
3.7673 4.4560 -2.9915 0.9741
2.7707 4.7990 -2.8409 0.9754
1.8770 5.2172 -2.8425 0.9754
0.9228 5.4707 -2.8443 0.9754
0.4323 5.5329 -2.8452 0.9754
-0.0618 5.5512 -2.8461 0.9754
-0.5559 5.5254 -2.8470 0.9753
-1.0458 5.4557 -2.8479 0.9753
-1.9977 5.1870 -2.8496 0.9753
-2.9024 4.7781 -2.8661 0.9752
-3.4766 4.7185 -3.0047 0.9740
-4.2601 4.0292 -3.0061 0.9740
-5.1761 2.7621 -3.0078 0.9740
-5.8636 0.2615 -3.0091 0.9740
-5.8636 -0.2615 -3.0091 0.9740
-5.8169 -0.7823 -3.0090 0.9740
-5.7238 -1.2968 -3.0088 0.9740
-5.5852 -1.8010 -3.0086 0.9740
-3.4766 -4.7184 -3.0047 0.9740
-2.5835 -5.2572 -3.0031 0.9740
-1.6095 -5.6287 -3.0013 0.9740
-0.5856 -5.8212 -2.9995 0.9740
0.4555 -5.8292 -2.9976 0.9741
0.9722 -5.7637 -2.9966 0.9741
2.4582 -5.2972 -2.9939 0.9741
2.9191 -5.0560 -2.9931 0.9741
4.1480 -4.1021 -2.9908 0.9741
4.4957 -3.7158 -2.9902 0.9741
4.8077 -3.3003 -2.9896 0.9741
5.3150 -2.3948 -2.9887 0.9741
5.5064 -1.9120 -2.9883 0.9741
5.6542 -1.4142 -2.9881 0.9741
5.7573 -0.9053 -2.9879 0.9741
5.8148 -0.3892 -2.9878 0.9741
5.4161 2.1556 -2.9885 0.9741
4.6563 3.5115 -2.9899 0.9741
4.3262 3.9128 -2.9905 0.9741
3.9616 4.2833 -2.9911 0.9741
3.0335 4.7519 -2.8902 0.9750
2.5575 4.9241 -2.8446 0.9754
1.6430 5.2965 -2.8430 0.9754
0.1855 5.5475 -2.8456 0.9754
-0.3091 5.5438 -2.8465 0.9754
-0.8016 5.4960 -2.8474 0.9753
-1.2880 5.4045 -2.8483 0.9753
-1.7644 5.2701 -2.8492 0.9753
-2.2271 5.0936 -2.8500 0.9753
-3.6838 4.5595 -3.0051 0.9740
-4.7606 3.4265 -3.0071 0.9740
-5.6602 1.5505 -3.0087 0.9740
-5.8461 0.5224 -3.0090 0.9740
-5.6358 0.0000 -3.0087 0.9748
-5.5463 -0.9992 -3.0085 0.9748
-5.4349 -1.4888 -3.0083 0.9748
-5.2804 -1.9664 -3.0080 0.9748
-5.0838 -2.4283 -3.0077 0.9748
-4.8468 -2.8707 -3.0072 0.9748
-4.5713 -3.2902 -3.0067 0.9748
-4.2595 -3.6833 -3.0062 0.9748
-3.9139 -4.0469 -3.0055 0.9748
-2.2532 -5.1532 -3.0025 0.9748
-1.3031 -5.4679 -3.0008 0.9748
-0.3128 -5.6089 -2.9990 0.9748
0.6863 -5.5721 -2.9971 0.9749
1.1791 -5.4873 -2.9962 0.9749
2.1321 -5.1883 -2.9945 0.9749
2.5848 -4.9765 -2.9937 0.9749
3.0166 -4.7255 -2.9929 0.9749
3.4244 -4.4371 -2.9921 0.9749
3.8049 -4.1137 -2.9914 0.9749
4.4721 -3.3726 -2.9902 0.9749
4.7538 -2.9607 -2.9897 0.9749
5.2020 -2.0703 -2.9889 0.9749
5.4857 -1.1150 -2.9884 0.9749
5.5629 -0.6223 -2.9882 0.9749
5.5961 -0.1247 -2.9882 0.9749
5.4307 1.3583 -2.9885 0.9749
5.1049 2.3002 -2.9891 0.9749
2.2408 4.8289 -2.8419 0.9762
0.8862 5.2539 -2.8443 0.9761
0.4152 5.3135 -2.8452 0.9761
-0.0594 5.3310 -2.8461 0.9761
-1.9184 4.9810 -2.8495 0.9761
-2.8903 4.7581 -2.9720 0.9751
-3.3384 4.5309 -3.0045 0.9748
-4.7137 3.0836 -3.0070 0.9748
-4.9702 2.6522 -3.0074 0.9748
-5.1872 2.1996 -3.0078 0.9748
-5.3630 1.7294 -3.0082 0.9748
-5.4961 1.2453 -3.0084 0.9748
-5.5854 0.7512 -3.0086 0.9748
-5.6302 -0.2510 -3.0086 0.9748
-5.5854 -0.7511 -3.0086 0.9748
-5.4961 -1.2452 -3.0084 0.9748
-4.9702 -2.6522 -3.0074 0.9748
-4.7137 -3.0835 -3.0070 0.9748
-4.4198 -3.4902 -3.0064 0.9748
-2.9212 -4.8088 -3.0037 0.9748
-2.4809 -5.0484 -3.0029 0.9748
-1.5456 -5.4052 -3.0012 0.9748
0.4374 -5.5980 -2.9976 0.9749
1.8992 -5.2788 -2.9949 0.9749
2.3608 -5.0874 -2.9941 0.9749
2.8035 -4.8558 -2.9933 0.9749
3.2237 -4.5858 -2.9925 0.9749
3.6182 -4.2796 -2.9918 0.9749
4.3179 -3.5688 -2.9905 0.9749
4.8805 -2.7457 -2.9895 0.9749
5.2887 -1.8364 -2.9887 0.9749
5.5961 0.1247 -2.9882 0.9749
5.3650 1.5990 -2.9886 0.9749
5.2019 2.0704 -2.9889 0.9749
4.9976 2.5254 -2.9892 0.9749
4.7537 2.9607 -2.9897 0.9749
4.1550 3.7580 -2.9908 0.9749
3.8048 4.1138 -2.9914 0.9749
3.4244 4.4371 -2.9921 0.9749
2.0250 4.9275 -2.8440 0.9761
0.1781 5.3275 -2.8456 0.9761
-0.2969 5.3239 -2.8465 0.9761
-1.2368 5.1900 -2.8482 0.9761
-2.1387 4.8913 -2.8499 0.9761
-2.6139 4.7698 -2.9036 0.9756
-3.5373 4.3782 -3.0048 0.9748
-4.5712 3.2902 -3.0067 0.9748
-5.5462 0.9992 -3.0085 0.9748
-5.3949 -0.4821 -3.0082 0.9755
-4.6582 -2.7590 -3.0069 0.9755
-4.3934 -3.1621 -3.0064 0.9755
-4.0938 -3.5400 -3.0059 0.9755
-3.7617 -3.8896 -3.0052 0.9755
-2.5986 -4.7418 -3.0031 0.9756
-2.1657 -4.9530 -3.0023 0.9756
-1.7158 -5.1247 -3.0015 0.9756
-1.2525 -5.2555 -3.0007 0.9756
-0.3006 -5.3912 -2.9989 0.9756
0.1804 -5.3950 -2.9981 0.9756
2.4846 -4.7837 -2.9938 0.9756
3.2918 -4.2653 -2.9924 0.9756
3.9942 -3.6125 -2.9911 0.9757
4.5698 -2.8461 -2.9900 0.9757
5.0007 -1.9902 -2.9893 0.9757
5.3796 -0.1199 -2.9886 0.9757
5.2206 1.3058 -2.9888 0.9757
4.6917 2.6395 -2.9898 0.9757
3.8297 3.7873 -2.9914 0.9757
2.6949 4.6677 -2.9934 0.9756
1.7328 4.8163 -2.8428 0.9769
0.8518 5.0501 -2.8444 0.9768
0.3991 5.1074 -2.8452 0.9768
-0.9653 5.0357 -2.8477 0.9768
-2.3396 4.7609 -2.9462 0.9760
-4.2478 3.3545 -3.0061 0.9755
-4.7768 2.5490 -3.0071 0.9755
-5.1542 1.6621 -3.0078 0.9755
-5.3679 -0.7219 -3.0082 0.9755
-5.2821 -1.1968 -3.0080 0.9755
-5.1542 -1.6620 -3.0078 0.9755
-4.9853 -2.1139 -3.0075 0.9755
-4.5303 -2.9636 -3.0066 0.9755
-3.5843 -4.0528 -3.0049 0.9755
-2.3845 -4.8522 -3.0027 0.9756
-1.4856 -5.1953 -3.0011 0.9756
-0.5406 -5.3733 -2.9994 0.9756
1.8256 -5.0742 -2.9951 0.9756
2.2693 -4.8903 -2.9942 0.9756
3.8297 -3.7872 -2.9914 0.9757
4.1507 -3.4306 -2.9908 0.9757
4.4388 -3.0471 -2.9903 0.9757
5.0007 1.9902 -2.9892 0.9757
4.2990 3.2421 -2.9905 0.9757
3.9942 3.6125 -2.9911 0.9757
3.2918 4.2653 -2.9924 0.9756
2.8998 4.5425 -2.9931 0.9756
1.9568 4.7615 -2.8591 0.9767
1.0758 5.0064 -2.8440 0.9768
-0.2853 5.1172 -2.8465 0.9768
-1.6285 4.8642 -2.8489 0.9768
-3.0111 4.4928 -3.0039 0.9756
-3.7617 3.8896 -3.0052 0.9755
-4.3934 3.1622 -3.0064 0.9755
-4.6581 2.7590 -3.0069 0.9755
-4.8859 2.3338 -3.0073 0.9755
-5.2234 1.4309 -3.0079 0.9755
-5.3303 0.9603 -3.0081 0.9755
-5.3949 0.4821 -3.0082 0.9755
-4.8813 -1.8178 -3.0073 0.9762
-4.6996 -2.2448 -3.0070 0.9762
-2.8964 -4.3217 -3.0037 0.9763
-1.2048 -5.0555 -3.0006 0.9763
-0.7498 -5.1413 -2.9998 0.9763
-0.2892 -5.1862 -2.9989 0.9763
1.0904 -5.0740 -2.9964 0.9763
1.5372 -4.9555 -2.9956 0.9763
1.9717 -4.7978 -2.9948 0.9763
3.5188 -3.8045 -2.9920 0.9763
4.6221 -2.3357 -2.9899 0.9764
4.8111 -1.9148 -2.9896 0.9764
5.0736 -1.0312 -2.9891 0.9764
5.1654 0.3458 -2.9889 0.9764
4.8914 1.6985 -2.9894 0.9764
4.7213 2.1273 -2.9898 0.9764
4.5138 2.5395 -2.9901 0.9764
3.9933 3.3005 -2.9911 0.9764
3.6844 3.6436 -2.9916 0.9764
2.5926 4.4905 -2.9936 0.9763
1.7096 4.7520 -2.9157 0.9769
1.2507 4.7738 -2.8492 0.9775
0.8195 4.8582 -2.8445 0.9775
-0.0550 4.9335 -2.8485 0.9775
-1.8330 4.7594 -2.9446 0.9767
-2.2937 4.6674 -3.0026 0.9763
-3.4477 3.8984 -3.0047 0.9762
-3.7818 3.5768 -3.0053 0.9762
-4.3575 2.8506 -3.0063 0.9762
-4.7952 2.0334 -3.0071 0.9762
-4.9576 1.5987 -3.0074 0.9762
-5.0806 1.1511 -3.0076 0.9762
-5.2046 -0.2320 -3.0079 0.9762
-5.1632 -0.6944 -3.0078 0.9762
-4.9576 -1.5986 -3.0074 0.9762
-4.7952 -2.0333 -3.0071 0.9762
-4.5946 -2.4517 -3.0068 0.9762
-4.3576 -2.8506 -3.0063 0.9762
-3.7818 -3.5767 -3.0053 0.9762
-2.7007 -4.4459 -3.0033 0.9763
-2.2937 -4.6675 -3.0026 0.9763
-1.4290 -4.9976 -3.0010 0.9763
0.8634 -5.1183 -2.9968 0.9763
1.3151 -5.0197 -2.9960 0.9763
1.7562 -4.8815 -2.9952 0.9763
2.5926 -4.4904 -2.9937 0.9763
2.9813 -4.2409 -2.9929 0.9763
3.3461 -3.9578 -2.9923 0.9763
3.9933 -3.3005 -2.9911 0.9764
4.5138 -2.5394 -2.9901 0.9764
4.7213 -2.1273 -2.9898 0.9764
4.8914 -1.6985 -2.9895 0.9764
5.1654 -0.3458 -2.9889 0.9764
5.1450 0.5756 -2.9890 0.9764
5.0736 1.0312 -2.9891 0.9764
4.8111 1.9148 -2.9896 0.9764
4.6221 2.3357 -2.9899 0.9764
4.3965 2.7382 -2.9903 0.9764
3.8426 3.4755 -2.9914 0.9764
3.5187 3.8044 -2.9919 0.9763
2.3903 4.6021 -2.9940 0.9763
1.0349 4.8162 -2.8441 0.9775
0.1649 4.9320 -2.8490 0.9775
-0.7117 4.8800 -2.8473 0.9775
-1.1436 4.7986 -2.8481 0.9775
-3.2703 4.0477 -3.0043 0.9763
-3.9377 3.4051 -3.0056 0.9762
-4.6996 2.2448 -3.0069 0.9762
-4.8813 1.8178 -3.0073 0.9762
-5.0241 1.3763 -3.0075 0.9762
-5.1270 0.9237 -3.0077 0.9762
-5.1891 0.4637 -3.0078 0.9762
