ply
format ascii 1.0
element vertex 1585
property float32 x
property float32 y
property float32 z
property float32 I
end_header
0.4126 -5.2798 0.5744 0.9789
-1.2191 -5.1155 0.4821 0.9791
-0.7292 -4.9999 0.4632 0.9799
0.1712 -5.1218 0.4698 0.9796
8.7444 7.2275 1.0401 0.9555
-1.5041 -5.2602 0.5016 0.9783
-0.0563 -5.0507 0.4631 0.9799
0.4100 -5.2470 0.4825 0.9791
0.9705 -5.7538 0.5349 0.9768
-1.8318 -5.4712 0.4324 0.9771
-0.7258 -4.9763 0.3769 0.9800
-0.2779 -4.9837 0.3741 0.9802
0.1704 -5.0959 0.3821 0.9798
0.6639 -5.3905 0.4070 0.9784
8.7433 7.2265 0.8501 0.9555
-0.9598 -5.0072 0.3821 0.9798
-0.4992 -4.9620 0.3737 0.9802
-0.0560 -5.0268 0.3767 0.9800
0.4075 -5.2147 0.3920 0.9792
0.9602 -5.6926 0.4326 0.9771
-1.8210 -5.4391 0.3341 0.9773
-1.2094 -5.0750 0.3039 0.9793
-0.2774 -4.9755 0.2902 0.9802
0.1701 -5.0870 0.2965 0.9798
0.6618 -5.3731 0.3153 0.9785
8.7421 7.2255 0.6606 0.9556
-0.9580 -4.9979 0.2964 0.9798
-0.4984 -4.9538 0.2900 0.9802
0.4067 -5.2044 0.3040 0.9793
0.9542 -5.6568 0.3341 0.9773
-1.8154 -5.4223 0.2378 0.9774
-0.7233 -4.9595 0.2084 0.9801
0.1698 -5.0782 0.2113 0.9799
0.6602 -5.3603 0.2246 0.9786
-0.9562 -4.9887 0.2112 0.9799
-0.0558 -5.0096 0.2083 0.9801
0.4059 -5.1942 0.2166 0.9794
0.9510 -5.6381 0.2377 0.9774
-1.8098 -5.4056 0.1422 0.9774
-1.2049 -5.0558 0.1296 0.9794
-0.7221 -4.9511 0.1248 0.9802
1.4023 -6.5256 0.1665 0.9736
-2.3720 -6.1588 0.1646 0.9739
-1.4818 -5.1820 0.1344 0.9787
-0.4967 -4.9376 0.1238 0.9803
-0.0557 -5.0010 0.1247 0.9802
-1.2026 -5.0462 0.0431 0.9795
0.6571 -5.3349 0.0447 0.9787
-2.3403 -6.0764 0.0541 0.9743
-1.4784 -5.1702 0.0447 0.9787
-0.4959 -4.9295 0.0412 0.9804
-0.0556 -4.9925 0.0415 0.9802
0.9448 -5.6011 0.0472 0.9775
-1.2027 -5.0465 -0.0431 0.9795
-0.7209 -4.9431 -0.0415 0.9802
-0.2761 -4.9514 -0.0412 0.9804
0.1692 -5.0610 -0.0421 0.9799
0.6571 -5.3353 -0.0447 0.9787
8.7374 7.2217 -0.0942 0.9557
-1.4785 -5.1706 -0.0447 0.9787
-0.9528 -4.9705 -0.0421 0.9800
-0.4959 -4.9298 -0.0412 0.9804
-0.0556 -4.9928 -0.0415 0.9802
0.4043 -5.1744 -0.0431 0.9795
0.9449 -5.6016 -0.0472 0.9775
-1.8100 -5.4061 -0.1422 0.9774
-1.2049 -5.0561 -0.1296 0.9794
-0.7221 -4.9514 -0.1248 0.9802
1.4030 -6.5289 -0.1665 0.9736
8.7363 7.2207 -0.2827 0.9557
-2.3728 -6.1609 -0.1646 0.9739
0.9480 -5.6201 -0.1421 0.9775
-1.8156 -5.4228 -0.2378 0.9774
-1.2072 -5.0657 -0.2165 0.9794
-0.2770 -4.9676 -0.2069 0.9803
8.7351 7.2197 -0.4712 0.9556
-1.4852 -5.1942 -0.2246 0.9786
-0.0558 -5.0098 -0.2083 0.9801
0.4059 -5.1946 -0.2166 0.9794
0.9511 -5.6386 -0.2378 0.9774
-1.8212 -5.4396 -0.3341 0.9773
-1.2095 -5.0754 -0.3039 0.9793
-0.7246 -4.9682 -0.2924 0.9801
-0.2774 -4.9758 -0.2903 0.9802
8.7339 7.2188 -0.6600 0.9556
-1.4886 -5.2061 -0.3154 0.9785
-0.4984 -4.9541 -0.2900 0.9802
-0.0559 -5.0184 -0.2923 0.9801
0.9543 -5.6574 -0.3342 0.9773
-1.8323 -5.4727 -0.4325 0.9771
-0.7258 -4.9766 -0.3769 0.9800
0.1704 -5.0962 -0.3821 0.9798
0.6641 -5.3918 -0.4071 0.9784
-0.9599 -5.0075 -0.3821 0.9798
0.4076 -5.2157 -0.3921 0.9792
-1.8507 -5.5276 -0.5344 0.9769
-0.7293 -5.0007 -0.4633 0.9799
-0.2792 -5.0068 -0.4597 0.9801
0.1713 -5.1227 -0.4699 0.9796
8.7322 7.2173 -1.0386 0.9555
-1.5044 -5.2614 -0.5017 0.9783
-0.5015 -4.9849 -0.4593 0.9801
-0.0563 -5.0516 -0.4632 0.9799
-1.8695 -5.5838 -0.6387 0.9766
0.1722 -5.1511 -0.5590 0.9795
0.6743 -5.4748 -0.5983 0.9781
8.7316 7.2169 -1.2287 0.9554
-1.5156 -5.3003 -0.5979 0.9781
-0.9710 -5.0654 -0.5594 0.9795
0.4127 -5.2809 -0.5745 0.9789
0.9814 -5.8184 -0.6400 0.9765
-1.2343 -5.1794 -0.6672 0.9788
-0.7373 -5.0552 -0.6402 0.9796
-0.2821 -5.0597 -0.6350 0.9798
0.6795 -5.5175 -0.6967 0.9778
-0.9768 -5.0958 -0.6502 0.9793
-1.2420 -5.2117 -0.7620 0.9786
-0.7413 -5.0830 -0.7306 0.9795
8.7304 7.2159 -1.6110 0.9553
-1.5416 -5.3913 -0.7976 0.9776
-0.0572 -5.1357 -0.7305 0.9795
-1.2583 -5.2800 -0.8643 0.9783
-0.7477 -5.1263 -0.8249 0.9792
8.7299 7.2154 -1.8035 0.9552
-1.5684 -5.4849 -0.9084 0.9772
-0.5135 -5.1044 -0.8169 0.9794
-0.0577 -5.1800 -0.8249 0.9792
0.4229 -5.4117 -0.8644 0.9783
-1.2758 -5.3534 -0.9704 0.9779
-0.2888 -5.1787 -0.9146 0.9792
0.7100 -5.7649 -1.0242 0.9767
8.7293 7.2149 -1.9969 0.9550
-1.0041 -5.2381 -0.9404 0.9786
-0.5187 -5.1556 -0.9137 0.9792
-0.0583 -5.2343 -0.9230 0.9790
0.4281 -5.4786 -0.9690 0.9779
0.1802 -5.3902 -1.0437 0.9783
13.4079 6.0413 -2.8459 0.9418
12.8170 7.2108 -2.8459 0.9418
12.1244 8.3230 -2.8459 0.9418
10.4568 10.3410 -2.8460 0.9418
9.4950 11.2307 -2.8460 0.9418
8.4578 12.0314 -2.8460 0.9418
6.1907 13.3406 -2.8461 0.9418
3.7273 14.2271 -2.8461 0.9418
-0.1638 14.7069 -2.8462 0.9418
-2.7689 14.4452 -2.8463 0.9418
-5.2863 13.7256 -2.8463 0.9418
-8.7250 11.8417 -2.8464 0.9418
-9.7444 11.0182 -2.8464 0.9418
-11.5437 9.1161 -2.8465 0.9418
-12.3094 8.0525 -2.8465 0.9418
-1.6369 -5.7247 -1.1522 0.9760
-1.0158 -5.2994 -1.0442 0.9783
-0.5239 -5.2082 -1.0130 0.9789
-0.0589 -5.2901 -1.0238 0.9787
13.1255 6.6326 -2.8459 0.9418
11.7417 8.8548 -2.8459 0.9418
9.9858 10.7966 -2.8460 0.9418
6.7788 13.0515 -2.8461 0.9418
4.3574 14.0469 -2.8461 0.9418
1.7978 14.5973 -2.8462 0.9418
0.4915 14.6995 -2.8462 0.9418
-2.1226 14.5541 -2.8463 0.9418
-3.4096 14.3075 -2.8463 0.9418
-4.6696 13.9474 -2.8463 0.9418
-9.2439 11.4413 -2.8464 0.9418
-12.6559 7.4961 -2.8465 0.9418
-13.2729 6.3400 -2.8465 0.9418
-14.2252 0.0000 -2.9989 0.9435
-13.9997 -2.5221 -2.9989 0.9435
-13.7197 -3.7582 -2.9989 0.9435
-11.5453 -8.3098 -2.9989 0.9435
-10.7598 -9.3043 -2.9989 0.9435
-9.8889 -10.2250 -2.9988 0.9435
-8.9395 -11.0645 -2.9988 0.9435
-6.8359 -12.4740 -2.9988 0.9435
-4.5159 -13.4881 -2.9987 0.9435
-0.7724 -5.2963 -1.1284 0.9784
-0.2949 -5.2880 -1.1165 0.9786
0.1830 -5.4729 -1.1544 0.9779
0.7666 -6.2246 -1.3222 0.9747
5.4059 -13.1555 -2.9985 0.9435
8.6895 -11.2593 -2.9984 0.9435
9.6571 -10.4412 -2.9984 0.9435
10.5480 -9.5401 -2.9983 0.9435
11.3552 -8.5633 -2.9983 0.9435
12.6935 -6.4143 -2.9983 0.9435
13.2140 -5.2590 -2.9983 0.9435
13.9370 -2.8328 -2.9983 0.9435
14.1338 -1.5811 -2.9983 0.9435
14.1902 0.9500 -2.9983 0.9435
12.3076 5.5456 -2.8459 0.9463
11.7652 6.6190 -2.8459 0.9463
8.6529 7.1518 -2.3667 0.9551
8.7158 10.3091 -2.8460 0.9463
7.7637 11.0440 -2.8460 0.9463
4.5702 12.7031 -2.8461 0.9463
3.4215 13.0596 -2.8461 0.9463
2.2455 13.3124 -2.8462 0.9463
1.0517 13.4596 -2.8462 0.9463
-2.5416 13.2596 -2.8463 0.9463
-3.7118 12.9809 -2.8463 0.9463
-5.9546 12.1173 -2.8464 0.9463
-7.0096 11.5394 -2.8464 0.9463
-8.0089 10.8697 -2.8464 0.9463
-10.5963 8.3678 -2.8465 0.9463
-12.4307 5.2711 -2.8465 0.9463
-13.5386 4.3657 -2.9989 0.9435
-13.8735 3.1433 -2.9989 0.9435
-14.2110 -0.6337 -2.9989 0.9435
-13.8735 -3.1433 -2.9989 0.9435
-13.0963 -5.5532 -2.9989 0.9435
-9.4235 -10.6553 -2.9988 0.9435
-8.4377 -11.4517 -2.9988 0.9435
-7.3849 -12.1571 -2.9988 0.9435
-5.1122 -13.2736 -2.9987 0.9435
-1.0310 -5.3787 -1.1546 0.9779
-0.5296 -5.2639 -1.1153 0.9786
-0.0596 -5.3539 -1.1288 0.9783
0.4444 -5.6869 -1.2026 0.9770
2.3657 -14.0251 -2.9985 0.9435
4.8149 -13.3831 -2.9985 0.9435
8.1794 -11.6353 -2.9984 0.9435
9.1824 -10.8610 -2.9984 0.9435
10.9625 -9.0607 -2.9983 0.9435
12.3952 -6.9734 -2.9983 0.9435
13.4351 -4.6652 -2.9983 0.9435
14.1902 -0.9499 -2.9983 0.9435
13.9370 2.8329 -2.9983 0.9435
13.6296 4.0621 -2.9983 0.9435
12.0484 6.0884 -2.8459 0.9463
11.4587 7.1366 -2.8459 0.9463
9.1663 9.9106 -2.8460 0.9463
7.2641 11.3789 -2.8460 0.9463
6.2225 11.9804 -2.8461 0.9463
3.9998 12.8941 -2.8461 0.9463
-0.7516 13.4799 -2.8462 0.9463
-1.9484 13.3596 -2.8463 0.9463
-4.2864 12.8027 -2.8463 0.9463
-5.4089 12.3705 -2.8463 0.9463
-7.5167 11.2157 -2.8464 0.9463
-9.3863 9.7054 -2.8464 0.9463
-10.2130 8.8315 -2.8465 0.9463
-10.9585 7.8875 -2.8465 0.9463
-11.6171 6.8809 -2.8465 0.9463
-12.1835 5.8196 -2.8465 0.9463
-13.7197 3.7582 -2.9989 0.9435
-14.1687 1.2662 -2.9989 0.9435
-13.1391 0.0000 -2.9989 0.9475
-12.9309 -2.3296 -2.9989 0.9475
-11.8559 -5.6630 -2.9989 0.9475
-11.3047 -6.6958 -2.9989 0.9475
-9.9383 -8.5940 -2.9988 0.9475
-8.2570 -10.2198 -2.9988 0.9475
-7.3146 -10.9141 -2.9988 0.9475
-4.1711 -12.4584 -2.9987 0.9475
0.1868 -5.5876 -1.2760 0.9773
3.8923 -12.5475 -2.9985 0.9475
4.9936 -12.1511 -2.9985 0.9475
6.0552 -11.6583 -2.9985 0.9475
8.0262 -10.3999 -2.9984 0.9475
11.1508 -6.9447 -2.9983 0.9475
12.5892 -3.7520 -2.9983 0.9475
12.8732 -2.6166 -2.9983 0.9475
13.1070 0.8775 -2.9983 0.9475
12.7439 3.1875 -2.9983 0.9475
11.3682 5.1223 -2.8459 0.9501
10.2799 7.0568 -2.8460 0.9501
7.1711 10.2010 -2.8460 0.9501
5.2488 11.3110 -2.8461 0.9501
2.0741 12.2962 -2.8462 0.9501
0.9715 12.4321 -2.8462 0.9501
-0.1389 12.4693 -2.8462 0.9501
-1.2482 12.4076 -2.8462 0.9501
-5.5000 11.1923 -2.8463 0.9501
-9.7873 7.7290 -2.8464 0.9501
-10.4364 6.8272 -2.8465 0.9501
-11.4817 4.8687 -2.8465 0.9501
-12.8143 2.9034 -2.9989 0.9475
-13.0219 1.7513 -2.9989 0.9475
-13.1261 -0.5853 -2.9989 0.9475
-10.9952 -7.1927 -2.9989 0.9475
-10.3113 -8.1428 -2.9988 0.9475
-8.7041 -9.8419 -2.9988 0.9475
-7.7935 -10.5774 -2.9988 0.9475
-3.6120 -12.6318 -2.9987 0.9475
-0.0607 -5.4524 -1.2446 0.9779
0.4562 -5.8381 -1.3366 0.9763
2.1852 -12.9545 -2.9985 0.9475
3.3295 -12.7085 -2.9985 0.9475
4.4473 -12.3616 -2.9985 0.9475
5.5299 -11.9166 -2.9985 0.9475
6.5686 -11.3769 -2.9984 0.9475
8.4815 -10.0320 -2.9984 0.9475
9.3407 -9.2372 -2.9984 0.9475
10.1257 -8.3691 -2.9984 0.9475
10.8303 -7.4346 -2.9983 0.9475
12.9769 -2.0405 -2.9983 0.9475
13.1331 0.2927 -2.9983 0.9475
12.5892 3.7521 -2.9983 0.9475
11.1287 5.6236 -2.8459 0.9501
10.5841 6.5918 -2.8460 0.9501
9.9554 7.5077 -2.8460 0.9501
9.2477 8.3641 -2.8460 0.9501
8.4666 9.1541 -2.8460 0.9501
7.6183 9.8714 -2.8460 0.9501
5.7475 11.0659 -2.8461 0.9501
4.7398 11.5337 -2.8461 0.9501
3.6945 11.9099 -2.8461 0.9501
2.6198 12.1915 -2.8461 0.9501
1.5243 12.3764 -2.8462 0.9501
-0.6942 12.4508 -2.8462 0.9501
-3.9591 11.8254 -2.8463 0.9501
-4.9960 11.4261 -2.8463 0.9501
-6.9428 10.3595 -2.8464 0.9501
-7.8374 9.7005 -2.8464 0.9501
-10.1219 7.2854 -2.8465 0.9501
-12.3130 4.5854 -2.9989 0.9475
-12.6723 3.4713 -2.9989 0.9475
-12.2006 0.0000 -2.9989 0.9510
-11.4334 -4.2578 -2.9989 0.9510
-11.0090 -5.2585 -2.9989 0.9510
-9.9021 -7.1271 -2.9988 0.9510
-8.4815 -8.7697 -2.9988 0.9510
-5.8631 -10.6987 -2.9987 0.9510
-4.8875 -11.1780 -2.9987 0.9510
-1.4253 -5.9806 -1.5112 0.9750
-0.8011 -5.4929 -1.3644 0.9774
-0.3054 -5.4772 -1.3484 0.9777
1.4912 -12.1077 -2.9986 0.9510
2.5629 -11.9268 -2.9985 0.9510
5.6227 -10.8257 -2.9985 0.9510
7.4530 -9.6571 -2.9984 0.9510
10.8872 -5.5015 -2.9983 0.9510
11.6901 -3.4840 -2.9983 0.9510
11.9538 -2.4297 -2.9983 0.9510
12.1710 0.8148 -2.9983 0.9510
12.0501 1.8948 -2.9983 0.9510
11.8337 2.9598 -2.9983 0.9510
11.5233 4.0014 -2.9983 0.9510
4.8740 10.5032 -2.8461 0.9534
3.9198 10.8954 -2.8461 0.9534
1.9260 11.4179 -2.8462 0.9534
-0.1290 11.5787 -2.8462 0.9534
-2.1799 11.3726 -2.8463 0.9534
-5.1072 10.3929 -2.8463 0.9534
-6.8691 9.3228 -2.8464 0.9534
-8.4133 7.9573 -2.8464 0.9534
-9.6909 6.3395 -2.8464 0.9534
-10.2168 5.4519 -2.8465 0.9534
-11.1571 4.7311 -2.9788 0.9513
-11.8990 2.6960 -2.9989 0.9510
-12.0917 1.6262 -2.9989 0.9510
-12.1885 -0.5435 -2.9989 0.9510
-11.6118 -3.7443 -2.9989 0.9510
-11.2324 -4.7629 -2.9989 0.9510
-10.7638 -5.7437 -2.9989 0.9510
-8.8638 -8.3833 -2.9988 0.9510
-7.2368 -9.8219 -2.9988 0.9510
-5.3806 -10.9492 -2.9987 0.9510
-3.3540 -11.7296 -2.9987 0.9510
-1.0741 -5.6033 -1.4024 0.9768
-0.0619 -5.5554 -1.3656 0.9774
0.4797 -6.1383 -1.5134 0.9750
2.0291 -12.0292 -2.9986 0.9510
3.0917 -11.8007 -2.9985 0.9510
5.1349 -11.0655 -2.9985 0.9510
7.0154 -9.9795 -2.9984 0.9510
9.4025 -7.7714 -2.9984 0.9510
10.0569 -6.9036 -2.9984 0.9510
11.1215 -5.0111 -2.9983 0.9510
11.5233 -4.0013 -2.9983 0.9510
11.8337 -2.9597 -2.9983 0.9510
12.1710 -0.8147 -2.9983 0.9510
12.1952 0.2718 -2.9983 0.9510
11.6901 3.4841 -2.9983 0.9510
10.3339 5.2220 -2.8460 0.9534
9.8282 6.1211 -2.8460 0.9534
7.8620 8.5003 -2.8460 0.9534
6.2303 9.7597 -2.8461 0.9534
5.3370 10.2756 -2.8461 0.9534
4.4013 10.7099 -2.8461 0.9534
3.4306 11.0592 -2.8461 0.9534
2.4327 11.3208 -2.8462 0.9534
-3.6763 10.9807 -2.8463 0.9534
-4.6391 10.6100 -2.8463 0.9534
-5.5651 10.1551 -2.8463 0.9534
-8.7594 7.5746 -2.8464 0.9534
-11.4334 4.2579 -2.9989 0.9510
-11.7670 3.2234 -2.9989 0.9510
-12.1522 1.0860 -2.9989 0.9510
-10.9765 -3.0068 -2.9989 0.9540
-10.6653 -3.9718 -2.9989 0.9540
-9.7920 -5.7998 -2.9988 0.9540
-9.2369 -6.6483 -2.9988 0.9540
-7.9117 -8.1806 -2.9988 0.9540
-7.1521 -8.8523 -2.9988 0.9540
-6.3358 -9.4537 -2.9988 0.9540
-5.4692 -9.9800 -2.9987 0.9540
-4.5592 -10.4271 -2.9987 0.9540
-3.6130 -10.7914 -2.9987 0.9540
-2.6381 -11.0701 -2.9987 0.9540
-0.3130 -5.6127 -1.4812 0.9770
0.1991 -5.9538 -1.5697 0.9757
1.3910 -11.2944 -2.9986 0.9540
2.3908 -11.1256 -2.9985 0.9540
3.3715 -10.8686 -2.9985 0.9540
4.3254 -10.5254 -2.9985 0.9540
6.1230 -9.5915 -2.9985 0.9540
8.4393 -7.6329 -2.9984 0.9540
9.0852 -6.8514 -2.9984 0.9540
9.6589 -6.0156 -2.9984 0.9540
10.1559 -5.1320 -2.9984 0.9540
10.5724 -4.2077 -2.9984 0.9540
10.9049 -3.2500 -2.9983 0.9540
11.3535 0.7601 -2.9983 0.9540
11.2408 1.7676 -2.9983 0.9540
10.7493 3.7326 -2.9984 0.9540
8.9046 6.1127 -2.8460 0.9563
8.3252 6.8810 -2.8460 0.9563
6.2116 8.8362 -2.8461 0.9563
5.4005 9.3540 -2.8461 0.9563
4.5466 9.7977 -2.8461 0.9563
2.7374 10.4487 -2.8461 0.9563
1.7966 10.6510 -2.8462 0.9563
0.8415 10.7687 -2.8462 0.9563
-2.0335 10.6086 -2.8463 0.9563
-3.8823 10.0802 -2.8463 0.9563
-4.7641 9.6947 -2.8463 0.9563
-5.6081 9.2323 -2.8463 0.9563
-6.4076 8.6965 -2.8464 0.9563
-8.4777 6.6948 -2.8464 0.9563
-9.0399 5.9137 -2.8464 0.9563
-9.5304 5.0856 -2.8464 0.9563
-11.2794 1.5170 -2.9989 0.9540
-11.3696 0.5070 -2.9989 0.9540
-11.3696 -0.5070 -2.9989 0.9540
-10.8317 -3.4928 -2.9989 0.9540
-10.0407 -5.3579 -2.9988 0.9540
-8.9316 -7.0532 -2.9988 0.9540
-7.5394 -8.5249 -2.9988 0.9540
-5.9084 -9.7265 -2.9987 0.9540
-5.0192 -10.2137 -2.9987 0.9540
-1.1217 -5.8520 -1.5701 0.9757
0.8865 -11.3452 -2.9986 0.9540
1.8928 -11.2212 -2.9986 0.9540
2.8840 -11.0080 -2.9985 0.9540
8.0910 -8.0013 -2.9984 0.9540
10.3745 -4.6745 -2.9984 0.9540
10.7493 -3.7325 -2.9983 0.9540
11.3535 -0.7600 -2.9983 0.9540
11.3760 0.2535 -2.9983 0.9540
11.3083 1.2650 -2.9983 0.9540
10.9049 3.2501 -2.9983 0.9540
10.5724 4.2077 -2.9984 0.9540
9.1680 5.7099 -2.8460 0.9563
8.6235 6.5033 -2.8460 0.9563
5.8118 9.1041 -2.8461 0.9563
4.9785 9.5853 -2.8461 0.9563
2.2693 10.5603 -2.8462 0.9563
1.3203 10.7204 -2.8462 0.9563
-0.6014 10.7849 -2.8462 0.9563
-1.5589 10.6887 -2.8462 0.9563
-2.5041 10.5075 -2.8463 0.9563
-3.4294 10.2431 -2.8463 0.9563
-7.5096 7.7650 -2.8464 0.9563
-8.7675 6.3105 -2.8464 0.9563
-11.3358 1.0130 -2.9989 0.9540
-10.6586 0.0000 -2.9989 0.9567
-9.6176 -4.5939 -2.9988 0.9567
-8.0621 -6.9715 -2.9988 0.9567
-7.4096 -7.6614 -2.9988 0.9567
-5.9337 -8.8537 -2.9987 0.9567
-5.1221 -9.3466 -2.9987 0.9567
-4.2698 -9.7653 -2.9987 0.9567
-3.3837 -10.1065 -2.9987 0.9567
-0.3233 -5.7974 -1.6337 0.9762
0.3561 -10.6516 -2.9986 0.9567
2.2390 -10.4196 -2.9985 0.9567
3.1575 -10.1789 -2.9985 0.9567
4.0509 -9.8574 -2.9985 0.9567
7.2362 -7.8237 -2.9984 0.9567
8.5086 -6.4167 -2.9984 0.9567
9.0459 -5.6338 -2.9984 0.9567
9.5115 -4.8063 -2.9984 0.9567
9.9015 -3.9407 -2.9984 0.9567
10.5907 -1.1847 -2.9984 0.9567
8.8159 4.9598 -2.8460 0.9588
8.3395 5.7247 -2.8460 0.9588
7.7969 6.4443 -2.8460 0.9588
7.1924 7.1127 -2.8460 0.9588
6.5308 7.7247 -2.8461 0.9588
5.8174 8.2754 -2.8461 0.9588
5.0578 8.7604 -2.8461 0.9588
2.5637 9.7856 -2.8461 0.9588
1.6826 9.9750 -2.8462 0.9588
0.7881 10.0852 -2.8462 0.9588
-0.1127 10.1155 -2.8462 0.9588
-1.9044 9.9353 -2.8463 0.9588
-7.9396 6.2699 -2.8464 0.9588
-8.4662 5.5383 -2.8464 0.9588
-8.9260 4.7631 -2.8466 0.9588
-10.5635 1.4207 -2.9989 0.9567
-10.6480 0.4748 -2.9989 0.9567
-10.6480 -0.4748 -2.9989 0.9567
-10.5635 -1.4206 -2.9989 0.9567
-10.3951 -2.3552 -2.9989 0.9567
-10.1442 -3.2711 -2.9988 0.9567
-9.8128 -4.1610 -2.9988 0.9567
-9.4034 -5.0178 -2.9988 0.9567
-8.9195 -5.8348 -2.9988 0.9567
-7.7435 -7.3238 -2.9988 0.9567
-7.0609 -7.9838 -2.9988 0.9567
-6.3222 -8.5806 -2.9988 0.9567
-3.8306 -9.9458 -2.9987 0.9567
-2.9301 -10.2472 -2.9987 0.9567
-2.0064 -10.4672 -2.9986 0.9567
0.8303 -10.6252 -2.9986 0.9567
1.7727 -10.5090 -2.9986 0.9567
2.7010 -10.3095 -2.9985 0.9567
3.6078 -10.0280 -2.9985 0.9567
4.4860 -9.6671 -2.9985 0.9567
7.5775 -7.4935 -2.9984 0.9567
9.2879 -5.2253 -2.9984 0.9567
10.5274 -1.6554 -2.9984 0.9567
10.6330 -0.7118 -2.9984 0.9567
10.6541 0.2374 -2.9984 0.9567
10.5907 1.1848 -2.9984 0.9567
10.4433 2.1227 -2.9984 0.9567
10.2129 3.0438 -2.9984 0.9567
8.0762 6.0906 -2.8460 0.9588
6.1803 8.0080 -2.8461 0.9588
5.4430 8.5264 -2.8461 0.9588
4.6626 8.9771 -2.8461 0.9588
2.1253 9.8901 -2.8462 0.9588
1.2366 10.0401 -2.8462 0.9588
-0.5632 10.1004 -2.8462 0.9588
-2.3451 9.8407 -2.8463 0.9588
-5.6321 8.4038 -2.8463 0.9588
-7.0330 7.2721 -2.8464 0.9588
-8.7045 5.1557 -2.8464 0.9588
-9.6177 4.5940 -2.9988 0.9567
-9.9884 3.7198 -2.9988 0.9567
-10.2799 2.8160 -2.9989 0.9567
-10.6163 0.9487 -2.9989 0.9567
-10.0168 0.0000 -2.9988 0.9590
-7.5767 -6.5518 -2.9988 0.9590
-6.9635 -7.2001 -2.9988 0.9590
-4.8137 -8.7838 -2.9987 0.9590
-3.1800 -9.4980 -2.9987 0.9590
-1.4455 -9.9113 -2.9986 0.9590
0.3347 -10.0104 -2.9986 0.9590
1.2243 -9.9408 -2.9986 0.9590
2.1042 -9.7923 -2.9985 0.9590
2.9674 -9.5661 -2.9985 0.9590
3.8071 -9.2639 -2.9985 0.9590
5.3892 -8.4421 -2.9985 0.9590
6.8006 -7.3527 -2.9984 0.9590
7.9964 -6.0304 -2.9984 0.9590
9.9532 -1.1134 -2.9984 0.9590
9.9929 0.6690 -2.9984 0.9590
9.4611 3.2853 -2.9984 0.9590
9.1312 4.1143 -2.9984 0.9590
7.8375 5.3801 -2.8460 0.9611
7.3275 6.0564 -2.8460 0.9611
6.7594 6.6845 -2.8460 0.9611
4.0017 8.6234 -2.8461 0.9611
3.2183 8.9454 -2.8461 0.9611
2.4094 9.1965 -2.8462 0.9611
-0.9516 9.4594 -2.8462 0.9611
-1.7898 9.3372 -2.8463 0.9611
-3.4170 8.8721 -2.8463 0.9611
-4.1931 8.5328 -2.8463 0.9611
-4.9360 8.1257 -2.8463 0.9611
-6.2985 7.1219 -2.8464 0.9611
-6.9075 6.5331 -2.8464 0.9611
-7.4616 5.8923 -2.8464 0.9611
-9.9275 1.3352 -2.9988 0.9590
-10.0069 0.4462 -2.9988 0.9590
-10.0069 -0.4462 -2.9988 0.9590
-9.9275 -1.3351 -2.9988 0.9590
-9.7692 -2.2134 -2.9988 0.9590
-9.2219 -3.9104 -2.9988 0.9590
-7.2773 -6.8828 -2.9988 0.9590
-5.2002 -8.5607 -2.9987 0.9590
-4.4176 -8.9896 -2.9987 0.9590
-3.5999 -9.3470 -2.9987 0.9590
-2.7537 -9.6303 -2.9987 0.9590
-0.1116 -10.0154 -2.9986 0.9590
0.7803 -9.9855 -2.9986 0.9590
3.3906 -9.4244 -2.9985 0.9590
5.0078 -8.6737 -2.9985 0.9590
6.4663 -7.6483 -2.9984 0.9590
7.1213 -7.0424 -2.9984 0.9590
7.7199 -6.3806 -2.9984 0.9590
8.7288 -4.9107 -2.9984 0.9590
9.1312 -4.1143 -2.9984 0.9590
9.4611 -3.2852 -2.9984 0.9590
10.0128 0.2232 -2.9984 0.9590
9.9532 1.1135 -2.9984 0.9590
9.3054 3.7035 -2.9984 0.9590
12.6651 6.4000 -4.2483 0.9425
7.5900 5.7240 -2.8460 0.9611
6.4550 6.9790 -2.8461 0.9611
4.3819 8.4366 -2.8461 0.9611
2.8166 9.0800 -2.8461 0.9611
0.3177 9.5017 -2.8462 0.9611
-0.5293 9.4923 -2.8462 0.9611
-1.3721 9.4076 -2.8462 0.9611
-3.8088 8.7111 -2.8463 0.9611
-4.5691 8.3375 -2.8463 0.9611
-5.9750 7.3954 -2.8464 0.9611
-7.1917 6.2189 -2.8464 0.9611
-7.7166 5.5541 -2.8464 0.9611
-8.1804 4.8453 -2.8464 0.9611
-9.3870 3.4958 -2.9988 0.9590
-9.4426 0.0000 -2.9988 0.9611
-9.4051 -0.8404 -2.9988 0.9611
-9.2930 -1.6742 -2.9988 0.9611
-8.8489 -3.2953 -2.9988 0.9611
-8.1244 -4.8121 -2.9988 0.9611
-7.6638 -5.5160 -2.9988 0.9611
-7.1424 -6.1762 -2.9988 0.9611
-5.9341 -7.3447 -2.9987 0.9611
-3.7827 -8.6513 -2.9987 0.9611
-2.1889 -9.1848 -2.9987 0.9611
-0.5257 -9.4273 -2.9986 0.9611
1.1541 -9.3710 -2.9986 0.9611
3.5888 -8.7329 -2.9985 0.9611
4.3519 -8.3788 -2.9985 0.9611
5.7684 -7.4743 -2.9985 0.9612
6.4108 -6.9312 -2.9984 0.9612
7.5381 -5.6847 -2.9984 0.9612
8.0141 -4.9912 -2.9984 0.9612
8.4265 -4.2581 -2.9984 0.9612
9.0479 -2.6966 -2.9984 0.9612
9.3827 -1.0496 -2.9984 0.9612
9.4201 0.6306 -2.9984 0.9612
9.1591 2.2909 -2.9984 0.9612
6.9075 5.7092 -2.8460 0.9631
6.3720 6.3014 -2.8461 0.9631
4.4809 7.7611 -2.8461 0.9631
3.7723 8.1292 -2.8461 0.9631
3.0338 8.4327 -2.8461 0.9631
1.4906 8.8371 -2.8462 0.9631
0.6982 8.9348 -2.8462 0.9631
-0.0998 8.9615 -2.8462 0.9631
-0.8971 8.9171 -2.8462 0.9631
-4.6530 7.6599 -2.8463 0.9631
-5.9375 6.7137 -2.8464 0.9631
-6.5115 6.1586 -2.8464 0.9631
-7.5062 4.9104 -2.8486 0.9631
-8.9869 2.8979 -2.9988 0.9611
-9.2092 2.0865 -2.9988 0.9611
-9.4333 0.4207 -2.9988 0.9611
-9.4333 -0.4206 -2.9988 0.9611
-9.3584 -1.2586 -2.9988 0.9611
-9.2092 -2.0865 -2.9988 0.9611
-8.9869 -2.8979 -2.9988 0.9611
-7.4104 -5.8519 -2.9988 0.9611
-5.6010 -7.6017 -2.9987 0.9611
-3.3936 -8.8112 -2.9987 0.9611
-2.5959 -9.0782 -2.9987 0.9611
-0.1052 -9.4413 -2.9986 0.9611
0.7356 -9.4131 -2.9986 0.9611
1.5704 -9.3102 -2.9986 0.9611
4.7208 -8.1766 -2.9985 0.9611
6.0957 -7.2100 -2.9985 0.9612
7.2774 -6.0149 -2.9984 0.9612
8.2285 -4.6293 -2.9984 0.9612
8.6078 -3.8785 -2.9984 0.9612
8.9188 -3.0969 -2.9984 0.9612
9.3266 -1.4665 -2.9984 0.9612
9.4201 -0.6306 -2.9984 0.9612
9.2520 1.8806 -2.9984 0.9612
9.0479 2.6966 -2.9984 0.9612
11.9392 6.0332 -4.2483 0.9454
6.0850 6.5790 -2.8461 0.9631
5.4753 7.0946 -2.8461 0.9631
3.4065 8.2892 -2.8461 0.9631
1.0955 8.8948 -2.8462 0.9631
-0.4989 8.9482 -2.8462 0.9631
-2.0776 8.7181 -2.8463 0.9631
-2.8453 8.4986 -2.8463 0.9631
-3.5905 8.2117 -2.8463 0.9631
-5.6325 6.9715 -2.8463 0.9631
-6.2307 6.4425 -2.8464 0.9631
-6.7794 5.8624 -2.8464 0.9631
-8.8489 3.2954 -2.9988 0.9611
-9.1071 2.4947 -2.9988 0.9611
-9.2930 1.6743 -2.9988 0.9611
-8.9255 0.0000 -2.9988 0.9630
-8.8901 -0.7944 -2.9988 0.9630
-8.7841 -1.5825 -2.9988 0.9630
-8.6084 -2.3580 -2.9988 0.9630
-8.0539 -3.8470 -2.9988 0.9630
-7.2441 -5.2140 -2.9988 0.9630
-6.7513 -5.8380 -2.9988 0.9630
-6.2048 -6.4157 -2.9988 0.9630
-5.6091 -6.9425 -2.9987 0.9630
-3.5756 -8.1776 -2.9987 0.9630
-2.0690 -8.6819 -2.9987 0.9630
-1.2880 -8.8315 -2.9986 0.9630
1.8750 -8.7255 -2.9986 0.9630
2.6442 -8.5240 -2.9985 0.9630
4.1136 -7.9200 -2.9985 0.9630
4.8021 -7.5224 -2.9985 0.9630
6.0598 -6.5517 -2.9985 0.9630
7.5753 -4.7179 -2.9984 0.9630
7.9651 -4.0249 -2.9984 0.9630
8.7454 -1.7776 -2.9984 0.9630
8.8689 -0.9921 -2.9984 0.9630
8.9220 -0.1988 -2.9984 0.9630
8.9043 0.5961 -2.9984 0.9630
8.6576 2.1654 -2.9984 0.9630
8.4305 2.9274 -2.9984 0.9630
8.1365 3.6662 -2.9984 0.9630
6.5293 5.3966 -2.8461 0.9649
6.0231 5.9564 -2.8461 0.9649
5.4691 6.4688 -2.8461 0.9649
4.8716 6.9300 -2.8461 0.9649
4.2355 7.3361 -2.8461 0.9649
2.8677 7.9710 -2.8461 0.9649
1.4090 8.3533 -2.8462 0.9649
-0.8479 8.4288 -2.8462 0.9649
-3.7363 7.6032 -2.8463 0.9649
-5.6123 6.3460 -2.8463 0.9649
-6.1549 5.8213 -2.8464 0.9649
-7.8745 4.2020 -2.9988 0.9630
-8.2173 3.4844 -2.9988 0.9630
-8.4948 2.7393 -2.9988 0.9630
-8.7049 1.9723 -2.9988 0.9630
-8.9167 -0.3976 -2.9988 0.9630
-8.8459 -1.1896 -2.9988 0.9630
-7.8745 -4.2019 -2.9988 0.9630
-7.4692 -4.8861 -2.9988 0.9630
-7.0046 -5.5315 -2.9988 0.9630
-5.9129 -6.6858 -2.9987 0.9630
-4.6337 -7.6281 -2.9987 0.9630
-3.2078 -8.3287 -2.9987 0.9630
-2.4537 -8.5811 -2.9987 0.9630
-0.8934 -8.8801 -2.9986 0.9630
-0.0994 -8.9243 -2.9986 0.9630
1.4845 -8.8004 -2.9986 0.9630
2.2618 -8.6333 -2.9985 0.9630
3.0213 -8.3977 -2.9985 0.9630
3.7567 -8.0954 -2.9985 0.9630
5.7619 -6.8152 -2.9985 0.9630
6.3456 -6.2752 -2.9985 0.9630
7.7779 -4.3757 -2.9984 0.9630
8.6576 -2.1654 -2.9984 0.9630
8.8159 -1.3862 -2.9984 0.9630
8.9043 -0.5960 -2.9984 0.9630
8.5525 2.5489 -2.9984 0.9630
7.9651 4.0250 -2.9984 0.9630
10.7332 6.6847 -4.2484 0.9480
6.7632 5.1004 -2.8460 0.9649
6.2824 5.6821 -2.8461 0.9649
5.7518 6.2188 -2.8461 0.9649
4.5581 7.1401 -2.8461 0.9649
3.9045 7.5175 -2.8461 0.9649
3.2199 7.8353 -2.8461 0.9649
2.5098 8.0908 -2.8461 0.9649
0.2831 8.4666 -2.8462 0.9649
-2.6895 8.0333 -2.8463 0.9649
-4.0713 7.4292 -2.8463 0.9649
-5.3241 6.5897 -2.8463 0.9649
-5.8895 6.0897 -2.8464 0.9649
-6.4082 5.5414 -2.8464 0.9649
-7.6795 4.5486 -2.9988 0.9630
-8.0539 3.8470 -2.9988 0.9630
-8.6084 2.3581 -2.9988 0.9630
-8.7841 1.5825 -2.9988 0.9630
-8.4572 0.0000 -2.9988 0.9647
-8.4236 -0.7527 -2.9988 0.9647
-8.1567 -2.2343 -2.9988 0.9647
-7.6313 -3.6451 -2.9988 0.9647
-5.3148 -6.5782 -2.9987 0.9647
-4.0642 -7.4162 -2.9987 0.9647
-3.3880 -7.7485 -2.9987 0.9647
-2.6849 -8.0193 -2.9987 0.9647
-1.2205 -8.3681 -2.9986 0.9647
-0.4708 -8.4435 -2.9986 0.9647
0.2826 -8.4519 -2.9986 0.9647
1.0337 -8.3931 -2.9986 0.9647
1.7766 -8.2678 -2.9986 0.9647
3.2144 -7.8216 -2.9985 0.9647
3.8977 -7.5045 -2.9985 0.9647
4.5502 -7.1277 -2.9985 0.9647
5.1665 -6.6944 -2.9985 0.9647
6.7515 -5.0915 -2.9984 0.9647
7.8567 -3.1269 -2.9984 0.9647
8.4036 -0.9401 -2.9984 0.9647
8.3534 1.3136 -2.9984 0.9647
7.7096 3.4738 -2.9984 0.9647
7.3699 4.1462 -2.9984 0.9647
6.1867 5.1135 -2.8461 0.9665
5.7071 5.6439 -2.8461 0.9665
4.6160 6.5664 -2.8461 0.9665
1.3351 7.9150 -2.8462 0.9665
-0.0894 8.0264 -2.8462 0.9665
-2.2068 7.7177 -2.8463 0.9665
-4.7615 6.4625 -2.8463 0.9665
-5.3179 6.0130 -2.8463 0.9665
-7.0773 4.6298 -2.9988 0.9647
-7.4613 3.9815 -2.9988 0.9647
-8.3817 1.1272 -2.9988 0.9647
-8.4488 0.3768 -2.9988 0.9647
-8.4488 -0.3767 -2.9988 0.9647
-8.3817 -1.1272 -2.9988 0.9647
-8.0491 -2.5955 -2.9988 0.9647
-7.4613 -3.9814 -2.9988 0.9647
-7.0773 -4.6298 -2.9988 0.9647
-2.3250 -8.1309 -2.9987 0.9647
-1.5920 -8.3055 -2.9986 0.9647
-0.8465 -8.4142 -2.9986 0.9647
-0.0942 -8.4561 -2.9986 0.9647
0.6588 -8.4309 -2.9986 0.9647
2.8627 -7.9571 -2.9985 0.9647
5.4596 -6.4576 -2.9985 0.9647
6.5180 -5.3872 -2.9984 0.9647
6.9716 -4.7857 -2.9984 0.9647
7.7096 -3.4738 -2.9984 0.9647
7.9882 -2.7738 -2.9984 0.9647
8.2034 -2.0518 -2.9984 0.9647
8.3534 -1.3135 -2.9984 0.9647
8.4372 -0.5648 -2.9984 0.9647
8.2866 1.6844 -2.9984 0.9647
7.8567 3.1269 -2.9984 0.9647
7.5473 3.8138 -2.9984 0.9647
10.1701 6.3340 -4.2484 0.9504
9.5659 7.2140 -4.2484 0.9504
2.3781 7.6663 -2.8462 0.9665
1.6863 7.8476 -2.8462 0.9665
0.9812 7.9666 -2.8462 0.9665
-0.4469 8.0144 -2.8462 0.9665
-1.8608 7.8083 -2.8463 0.9665
-2.5484 7.6118 -2.8463 0.9665
-3.2158 7.3548 -2.8463 0.9665
-3.8577 7.0394 -2.8463 0.9665
-4.4689 6.6681 -2.8463 0.9665
-7.6313 3.6452 -2.9988 0.9647
-7.9254 2.9515 -2.9988 0.9647
-8.3232 1.4996 -2.9988 0.9647
-8.4236 0.7528 -2.9988 0.9647
-8.0308 0.0000 -2.9988 0.9663
-7.7455 -2.1217 -2.9988 0.9663
-7.2465 -3.4613 -2.9988 0.9663
-6.0745 -5.2528 -2.9987 0.9663
-5.5829 -5.7726 -2.9987 0.9663
-3.8593 -7.0423 -2.9987 0.9663
-3.2172 -7.3579 -2.9987 0.9663
-0.4471 -8.0179 -2.9986 0.9663
1.6871 -7.8510 -2.9986 0.9663
4.3208 -6.7684 -2.9985 0.9663
4.9061 -6.3570 -2.9985 0.9663
6.4112 -4.8348 -2.9984 0.9663
7.6953 -2.2934 -2.9984 0.9663
7.8689 -1.5994 -2.9984 0.9663
8.0278 -0.1789 -2.9984 0.9663
8.0119 0.5364 -2.9984 0.9663
4.9209 5.8205 -2.8461 0.9680
4.3833 6.2354 -2.8461 0.9680
3.8110 6.6008 -2.8461 0.9680
3.2084 6.9139 -2.8461 0.9680
1.2678 7.5159 -2.8462 0.9680
0.5938 7.5990 -2.8462 0.9680
-0.0849 7.6218 -2.8462 0.9680
-2.0956 7.3286 -2.8463 0.9680
-2.7395 7.1131 -2.8463 0.9680
-4.5215 6.1367 -2.8463 0.9680
-5.5380 5.2378 -2.8463 0.9680
-6.7205 4.3964 -2.9988 0.9663
-7.6433 2.4647 -2.9988 0.9663
-7.8323 1.7746 -2.9988 0.9663
-7.9592 1.0704 -2.9988 0.9663
-8.0229 -0.3577 -2.9988 0.9663
-7.9592 -1.0704 -2.9988 0.9663
-7.8323 -1.7745 -2.9988 0.9663
-7.6432 -2.4646 -2.9988 0.9663
-7.3935 -3.1351 -2.9988 0.9663
-7.0851 -3.7807 -2.9988 0.9663
-6.7205 -4.3963 -2.9988 0.9663
-6.3025 -4.9770 -2.9988 0.9663
-5.8345 -5.5182 -2.9987 0.9663
-3.5418 -7.2073 -2.9987 0.9663
-2.8862 -7.4938 -2.9987 0.9663
-1.5118 -7.8868 -2.9986 0.9663
-0.8038 -7.9900 -2.9986 0.9663
0.6256 -8.0058 -2.9986 0.9663
3.3801 -7.2840 -2.9985 0.9663
7.5855 -2.6339 -2.9984 0.9663
7.7898 -1.9484 -2.9984 0.9663
7.9323 -1.2472 -2.9984 0.9663
8.0119 -0.5363 -2.9984 0.9663
8.0278 0.1789 -2.9984 0.9663
7.8689 1.5995 -2.9984 0.9663
7.1668 3.6216 -2.9984 0.9663
9.0837 6.8504 -4.2484 0.9526
5.6527 5.1126 -2.8461 0.9680
5.1753 5.5955 -2.8461 0.9680
4.1012 6.4245 -2.8461 0.9680
3.5131 6.7640 -2.8461 0.9680
2.2582 7.2799 -2.8462 0.9680
0.9317 7.5650 -2.8462 0.9680
-0.4244 7.6104 -2.8462 0.9680
-1.7670 7.4147 -2.8463 0.9680
-2.4199 7.2280 -2.8463 0.9680
-5.2991 5.4793 -2.8463 0.9680
-5.7658 4.9859 -2.8463 0.9680
-7.5259 2.8027 -2.9988 0.9663
-7.6408 0.0000 -2.9988 0.9677
-7.6105 -0.6800 -2.9988 0.9677
-7.1604 -2.6665 -2.9988 0.9677
-6.5741 -3.8938 -2.9988 0.9677
-5.3117 -5.4922 -2.9987 0.9677
-4.2537 -6.3470 -2.9987 0.9677
-3.0609 -7.0005 -2.9987 0.9677
-1.1027 -7.5604 -2.9986 0.9677
-0.4254 -7.6285 -2.9986 0.9677
2.9041 -7.0667 -2.9985 0.9677
3.5215 -6.7801 -2.9985 0.9677
4.6678 -6.0482 -2.9985 0.9677
5.1876 -5.6087 -2.9985 0.9677
5.6662 -5.1248 -2.9985 0.9677
6.8188 -3.4457 -2.9984 0.9677
7.3216 -2.1820 -2.9984 0.9677
7.4868 -1.5217 -2.9984 0.9677
7.5925 -0.8493 -2.9984 0.9677
7.6380 -0.1702 -2.9984 0.9677
7.6228 0.5103 -2.9984 0.9677
7.4116 1.8538 -2.9984 0.9677
7.2172 2.5061 -2.9984 0.9677
6.6585 3.7460 -2.9984 0.9677
8.9244 6.1262 -4.2484 0.9546
4.1705 5.9326 -2.8461 0.9693
3.6259 6.2803 -2.8461 0.9693
3.0525 6.5781 -2.8461 0.9693
1.8379 7.0152 -2.8462 0.9693
1.2062 7.1510 -2.8462 0.9693
0.5650 7.2300 -2.8462 0.9693
-0.0808 7.2516 -2.8462 0.9693
-0.7259 7.2156 -2.8462 0.9693
-1.3653 7.1225 -2.8462 0.9693
-3.1985 6.5088 -2.8463 0.9693
-7.2720 2.3449 -2.9988 0.9677
-7.5726 1.0184 -2.9988 0.9677
-7.6332 0.3404 -2.9988 0.9677
-7.2720 -2.3449 -2.9988 0.9677
-7.0345 -2.9829 -2.9988 0.9677
-6.7410 -3.5971 -2.9988 0.9677
-5.9964 -4.7353 -2.9987 0.9677
-5.0618 -5.7234 -2.9987 0.9677
-4.5322 -6.1512 -2.9987 0.9677
-3.9668 -6.5301 -2.9987 0.9677
-3.3698 -6.8572 -2.9987 0.9677
-2.7460 -7.1299 -2.9987 0.9677
-2.1005 -7.3460 -2.9987 0.9677
-1.4384 -7.5038 -2.9986 0.9677
0.5952 -7.6170 -2.9986 0.9677
1.2708 -7.5338 -2.9986 0.9677
1.9363 -7.3908 -2.9986 0.9677
2.5864 -7.1890 -2.9985 0.9677
3.8200 -6.6164 -2.9985 0.9677
5.4323 -5.3721 -2.9985 0.9677
5.8889 -4.8673 -2.9985 0.9677
6.6585 -3.7460 -2.9984 0.9677
6.9655 -3.1385 -2.9984 0.9677
7.2172 -2.5060 -2.9984 0.9677
7.6228 -0.5103 -2.9984 0.9677
7.6380 0.1702 -2.9984 0.9677
7.3216 2.1821 -2.9984 0.9677
6.4850 4.0389 -2.9985 0.9677
8.6426 6.5177 -4.2484 0.9546
4.9240 5.3238 -2.8461 0.9693
4.4306 5.7409 -2.8461 0.9693
3.9021 6.1125 -2.8461 0.9693
3.3425 6.4356 -2.8461 0.9693
2.1486 6.9263 -2.8462 0.9693
0.8865 7.1976 -2.8462 0.9693
-0.4037 7.2408 -2.8462 0.9693
-1.6812 7.0546 -2.8462 0.9693
-2.3024 6.8770 -2.8463 0.9693
-2.9054 6.6448 -2.8463 0.9693
-4.5577 5.6412 -2.8463 0.9693
-5.0418 5.2132 -2.8463 0.9693
-5.4945 4.7513 -2.8509 0.9693
-6.2014 4.4636 -2.9988 0.9677
-6.8946 3.2933 -2.9988 0.9677
-7.5197 1.3548 -2.9988 0.9677
-7.2536 -0.6482 -2.9988 0.9690
-7.1671 -1.2912 -2.9988 0.9690
-6.8246 -2.5415 -2.9988 0.9690
-6.5713 -3.1388 -2.9988 0.9690
-5.5085 -4.7633 -2.9987 0.9690
-4.5766 -5.6645 -2.9987 0.9690
-2.9174 -6.6722 -2.9987 0.9690
-2.3119 -6.9054 -2.9987 0.9690
-1.6881 -7.0837 -2.9986 0.9690
-0.4054 -7.2707 -2.9986 0.9690
3.3564 -6.4621 -2.9985 0.9690
4.4489 -5.7646 -2.9985 0.9690
5.4005 -4.8844 -2.9985 0.9690
5.8138 -4.3844 -2.9985 0.9690
6.1809 -3.8495 -2.9985 0.9690
6.9783 -2.0797 -2.9984 0.9690
7.2365 -0.8095 -2.9984 0.9690
7.1932 1.1311 -2.9984 0.9690
6.8787 2.3886 -2.9984 0.9690
6.0033 4.1211 -2.9985 0.9690
7.9525 6.5729 -4.2484 0.9564
7.3359 7.2546 -4.2484 0.9564
3.4559 5.9858 -2.8461 0.9705
2.3398 6.5037 -2.8462 0.9705
1.7517 6.6862 -2.8462 0.9705
1.1496 6.8156 -2.8462 0.9705
0.5385 6.8910 -2.8462 0.9705
-0.0770 6.9115 -2.8462 0.9705
-1.9003 6.6457 -2.8463 0.9705
-3.0485 6.2036 -2.8463 0.9705
-5.0253 4.7529 -2.8483 0.9705
-6.0942 3.9867 -2.9988 0.9690
-6.4249 3.4285 -2.9988 0.9690
-7.2175 0.9707 -2.9988 0.9690
-7.2752 0.3244 -2.9988 0.9690
-7.1024 -1.6092 -2.9988 0.9690
-6.9310 -2.2349 -2.9988 0.9690
-6.4249 -3.4284 -2.9988 0.9690
-5.7152 -4.5132 -2.9987 0.9690
-5.2908 -5.0040 -2.9987 0.9690
-4.8244 -5.4550 -2.9987 0.9690
-4.3197 -5.8627 -2.9987 0.9690
-2.6173 -6.7956 -2.9987 0.9690
-2.0020 -7.0015 -2.9987 0.9690
-1.3709 -7.1519 -2.9986 0.9690
-0.7289 -7.2455 -2.9986 0.9690
1.2112 -7.1805 -2.9986 0.9690
1.8455 -7.0442 -2.9986 0.9690
3.0652 -6.6053 -2.9985 0.9690
3.6409 -6.3062 -2.9985 0.9690
4.1877 -5.9571 -2.9985 0.9690
6.0033 -4.1211 -2.9985 0.9690
6.3463 -3.5704 -2.9985 0.9690
6.6388 -2.9913 -2.9984 0.9690
6.8788 -2.3885 -2.9984 0.9690
7.1932 -1.1311 -2.9984 0.9690
7.2654 -0.4863 -2.9984 0.9690
7.2798 0.1622 -2.9984 0.9690
7.1357 1.4504 -2.9984 0.9690
6.7655 2.6926 -2.9984 0.9690
6.4990 3.2842 -2.9985 0.9690
6.1809 3.8496 -2.9985 0.9690
4.6931 5.0741 -2.8461 0.9705
4.2228 5.4717 -2.8461 0.9705
2.6272 6.3930 -2.8461 0.9705
2.0478 6.6015 -2.8462 0.9705
1.4521 6.7577 -2.8462 0.9705
0.8449 6.8601 -2.8462 0.9705
0.2310 6.9081 -2.8462 0.9705
-0.3848 6.9013 -2.8462 0.9705
-0.9975 6.8396 -2.8462 0.9705
-2.1945 6.5545 -2.8463 0.9705
-2.7691 6.3332 -2.8463 0.9705
-3.3218 6.0616 -2.8463 0.9705
-4.8053 4.9687 -2.8463 0.9705
-5.4586 4.7202 -2.9716 0.9693
-6.2658 3.7112 -2.9988 0.9690
-6.8246 2.5415 -2.9988 0.9690
-7.1671 1.2912 -2.9988 0.9690
-7.2536 0.6482 -2.9988 0.9690
-6.9519 0.0001 -2.9988 0.9702
-6.9243 -0.6187 -2.9988 0.9702
-6.7049 -1.8366 -2.9988 0.9702
-6.5148 -2.4261 -2.9988 0.9702
-6.2730 -2.9963 -2.9988 0.9702
-5.9814 -3.5428 -2.9987 0.9702
-5.2585 -4.5471 -2.9987 0.9702
-4.8328 -4.9971 -2.9987 0.9702
-3.8702 -5.7748 -2.9987 0.9702
-3.3409 -6.0963 -2.9987 0.9702
-1.6115 -6.7622 -2.9986 0.9702
-1.0033 -6.8788 -2.9986 0.9702
0.2323 -6.9476 -2.9986 0.9702
1.4604 -6.7963 -2.9986 0.9702
3.2041 -6.1689 -2.9985 0.9702
3.7404 -5.8592 -2.9985 0.9702
4.7200 -5.1031 -2.9985 0.9702
5.5500 -4.1854 -2.9985 0.9702
5.9004 -3.6748 -2.9985 0.9702
6.4585 -2.5704 -2.9984 0.9702
6.9081 -0.7727 -2.9984 0.9702
6.9494 -0.1548 -2.9984 0.9702
6.9356 0.4643 -2.9984 0.9702
6.8668 1.0798 -2.9984 0.9702
6.7434 1.6867 -2.9984 0.9702
6.5666 2.2802 -2.9984 0.9702
6.3376 2.8556 -2.9985 0.9702
5.7309 3.9341 -2.9985 0.9702
3.2990 5.7142 -2.8461 0.9717
2.7774 5.9851 -2.8461 0.9717
1.6722 6.3828 -2.8462 0.9717
0.5140 6.5782 -2.8462 0.9717
-0.0735 6.5979 -2.8462 0.9717
-1.2422 6.4804 -2.8462 0.9717
-1.8140 6.3441 -2.8463 0.9717
-2.3715 6.1575 -2.8463 0.9717
-2.9102 5.9220 -2.8463 0.9717
-3.4257 5.6395 -2.8463 0.9717
-5.4558 4.3084 -2.9987 0.9702
-5.8176 3.8058 -2.9987 0.9702
-6.4003 2.7140 -2.9988 0.9702
-6.6164 2.1336 -2.9988 0.9702
-6.8899 0.9266 -2.9988 0.9702
-6.9450 0.3097 -2.9988 0.9702
-6.8899 -0.9266 -2.9988 0.9702
-6.7801 -1.5362 -2.9988 0.9702
-6.1333 -3.2728 -2.9988 0.9702
-2.4985 -6.4871 -2.9987 0.9702
-1.3087 -6.8273 -2.9986 0.9702
-0.0774 -6.9511 -2.9986 0.9702
0.5415 -6.9303 -2.9986 0.9702
1.1562 -6.8546 -2.9986 0.9702
2.9261 -6.3055 -2.9985 0.9702
3.4757 -6.0200 -2.9985 0.9702
3.9977 -5.6868 -2.9985 0.9702
4.4880 -5.3083 -2.9985 0.9702
6.0583 -3.4083 -2.9985 0.9702
6.3376 -2.8555 -2.9985 0.9702
6.9494 0.1549 -2.9984 0.9702
6.9081 0.7728 -2.9984 0.9702
6.8119 1.3846 -2.9984 0.9702
6.6616 1.9854 -2.9984 0.9702
6.4585 2.5704 -2.9985 0.9702
5.9004 3.6748 -2.9985 0.9702
5.5500 4.1854 -2.9985 0.9702
4.0312 5.2234 -2.8461 0.9717
3.5503 5.5615 -2.8461 0.9717
3.0412 5.8554 -2.8461 0.9717
2.5080 6.1029 -2.8461 0.9717
1.3862 6.4509 -2.8462 0.9717
0.2205 6.5946 -2.8462 0.9717
-2.0949 6.2570 -2.8463 0.9717
-2.6435 6.0458 -2.8463 0.9717
-3.1711 5.7865 -2.8463 0.9717
-3.6735 5.4813 -2.8463 0.9717
-4.1468 5.1326 -2.8463 0.9717
-4.5937 4.7499 -2.8504 0.9716
-5.2585 4.5472 -2.9987 0.9702
-5.6423 4.0611 -2.9987 0.9702
-6.5148 2.4262 -2.9988 0.9702
-6.8418 1.2326 -2.9988 0.9702
-6.6196 -0.5915 -2.9988 0.9713
-6.2281 -2.3194 -2.9988 0.9713
-5.7181 -3.3869 -2.9987 0.9713
-4.1766 -5.1694 -2.9987 0.9713
-2.6624 -6.0891 -2.9987 0.9713
-2.1099 -6.3018 -2.9987 0.9713
-1.5406 -6.4646 -2.9986 0.9713
-0.3700 -6.6353 -2.9986 0.9713
0.8123 -6.5957 -2.9986 0.9713
1.3962 -6.4972 -2.9986 0.9713
2.5260 -6.1466 -2.9985 0.9713
3.5758 -5.6013 -2.9985 0.9713
4.9285 -4.4575 -2.9985 0.9713
5.6407 -3.5130 -2.9985 0.9713
6.6040 -0.7388 -2.9984 0.9713
6.6304 0.4439 -2.9984 0.9713
6.5646 1.0323 -2.9984 0.9713
6.4467 1.6124 -2.9985 0.9713
5.7916 3.2583 -2.9985 0.9713
5.1222 4.2336 -2.9985 0.9713
6.6948 6.6206 -4.2484 0.9595
2.6551 5.7217 -2.8461 0.9727
1.5986 6.1019 -2.8462 0.9727
0.4914 6.2887 -2.8462 0.9727
-0.0703 6.3075 -2.8462 0.9727
-1.1875 6.1952 -2.8462 0.9727
-1.7342 6.0649 -2.8463 0.9727
-2.2671 5.8865 -2.8463 0.9727
-2.7821 5.6614 -2.8463 0.9727
-3.2749 5.3913 -2.8463 0.9727
-5.5616 3.6382 -2.9987 0.9713
-6.1186 2.5945 -2.9988 0.9713
-6.3252 2.0396 -2.9988 0.9713
-6.4817 1.4686 -2.9988 0.9713
-6.6393 0.2961 -2.9988 0.9713
-6.5866 -0.8858 -2.9988 0.9713
-6.4817 -1.4685 -2.9988 0.9713
-6.3252 -2.0396 -2.9988 0.9713
-5.5616 -3.6382 -2.9987 0.9713
-5.2157 -4.1188 -2.9987 0.9713
-4.4027 -4.9782 -2.9987 0.9713
-3.9422 -5.3503 -2.9987 0.9713
-2.9310 -5.9644 -2.9987 0.9713
-1.8271 -6.3896 -2.9986 0.9713
-0.6652 -6.6122 -2.9986 0.9713
-0.0740 -6.6452 -2.9986 0.9713
1.6842 -6.4285 -2.9986 0.9713
2.2497 -6.2530 -2.9985 0.9713
2.7973 -6.0280 -2.9985 0.9713
4.7251 -4.6727 -2.9985 0.9713
5.4787 -3.7608 -2.9985 0.9713
6.0587 -2.7299 -2.9985 0.9713
6.2776 -2.1798 -2.9985 0.9713
6.5646 -1.0322 -2.9984 0.9713
6.6436 0.1481 -2.9984 0.9713
6.6041 0.7388 -2.9984 0.9713
6.3684 1.8980 -2.9985 0.9713
5.6408 3.5131 -2.9985 0.9713
6.3932 6.9123 -4.2485 0.9595
2.9074 5.5977 -2.8461 0.9727
1.3252 6.1670 -2.8462 0.9727
-0.9103 6.2419 -2.8462 0.9727
-1.4623 6.1361 -2.8462 0.9727
-3.0315 5.5318 -2.8463 0.9727
-4.5647 4.7200 -2.9628 0.9716
-5.0270 4.3471 -2.9987 0.9713
-5.7181 3.3869 -2.9987 0.9713
-5.9969 2.8645 -2.9988 0.9713
-6.2281 2.3194 -2.9988 0.9713
-6.4098 1.7559 -2.9988 0.9713
-6.3365 -0.5662 -2.9988 0.9723
-6.2609 -1.1279 -2.9988 0.9723
-5.9617 -2.2201 -2.9987 0.9723
-5.1633 -3.7163 -2.9987 0.9723
-4.4225 -4.5729 -2.9987 0.9723
-3.5417 -5.2845 -2.9987 0.9723
-3.0572 -5.5787 -2.9987 0.9723
-1.4747 -6.1881 -2.9986 0.9723
-0.9181 -6.2948 -2.9986 0.9723
-0.3542 -6.3515 -2.9986 0.9723
0.7776 -6.3136 -2.9986 0.9723
1.3365 -6.2193 -2.9986 0.9723
2.4180 -5.8838 -2.9985 0.9723
2.9320 -5.6452 -2.9985 0.9723
3.8865 -5.0358 -2.9985 0.9723
4.3193 -4.6699 -2.9985 0.9723
5.9102 -2.3521 -2.9985 0.9723
6.0961 -1.8168 -2.9985 0.9723
6.2336 -1.2671 -2.9985 0.9723
6.3595 -0.1417 -2.9985 0.9723
6.3469 0.4249 -2.9985 0.9723
6.0091 2.0866 -2.9985 0.9723
4.9032 4.0526 -2.9985 0.9723
5.8190 6.8827 -4.2485 0.9609
3.0190 5.2290 -2.8461 0.9737
-0.0673 6.0378 -2.8462 0.9737
-0.6044 6.0078 -2.8462 0.9737
-4.1726 4.7180 -2.9689 0.9725
-4.6219 4.3714 -2.9987 0.9723
-4.9926 3.9426 -2.9987 0.9723
-5.6126 2.9950 -2.9987 0.9723
-5.8569 2.4836 -2.9987 0.9723
-6.2044 1.4058 -2.9988 0.9723
-6.3049 0.8480 -2.9988 0.9723
-6.3554 -0.2834 -2.9988 0.9723
-6.3049 -0.8479 -2.9988 0.9723
-6.2044 -1.4057 -2.9988 0.9723
-5.6126 -2.9949 -2.9987 0.9723
-5.3237 -3.4826 -2.9987 0.9723
-4.2144 -4.7653 -2.9987 0.9723
-2.2864 -5.9364 -2.9987 0.9723
-1.7489 -6.1163 -2.9986 0.9723
-1.1976 -6.2477 -2.9986 0.9723
-0.6368 -6.3294 -2.9986 0.9723
-0.0709 -6.3610 -2.9986 0.9723
1.0581 -6.2727 -2.9986 0.9723
2.1535 -5.9856 -2.9986 0.9723
3.1806 -5.5089 -2.9985 0.9723
4.1069 -4.8577 -2.9985 0.9723
4.5230 -4.4729 -2.9985 0.9723
4.9031 -4.0525 -2.9985 0.9723
5.7996 -2.6131 -2.9985 0.9723
6.0091 -2.0866 -2.9985 0.9723
6.1710 -1.5434 -2.9985 0.9723
6.2839 -0.9881 -2.9985 0.9723
6.3469 -0.4248 -2.9985 0.9723
6.3216 0.7072 -2.9985 0.9723
5.9102 2.3523 -2.9985 0.9723
5.6774 2.8689 -2.9985 0.9723
5.3995 3.3629 -2.9985 0.9723
5.0788 3.8301 -2.9985 0.9723
3.2489 5.0893 -2.8461 0.9737
0.2018 6.0347 -2.8462 0.9737
-0.8714 5.9749 -2.8462 0.9737
-1.3998 5.8737 -2.8462 0.9737
-1.9170 5.7258 -2.8463 0.9737
-2.4190 5.5325 -2.8463 0.9737
-3.8260 4.7356 -2.8697 0.9734
-4.4225 4.5729 -2.9987 0.9723
-4.8120 4.1612 -2.9987 0.9723
-5.1633 3.7164 -2.9987 0.9723
-5.4736 3.2421 -2.9987 0.9723
-5.7404 2.7420 -2.9987 0.9723
-5.9617 2.2202 -2.9987 0.9723
-6.1357 1.6808 -2.9988 0.9723
-6.0726 -0.5426 -2.9988 0.9732
-5.7135 -2.1277 -2.9987 0.9732
-4.9483 -3.5615 -2.9987 0.9732
-4.6117 -3.9878 -2.9987 0.9732
-2.9299 -5.3464 -2.9987 0.9732
-2.4424 -5.5860 -2.9987 0.9732
-0.3394 -6.0871 -2.9986 0.9732
0.2037 -6.0931 -2.9986 0.9732
0.7452 -6.0507 -2.9986 0.9732
1.8062 -5.8227 -2.9986 0.9732
3.7247 -4.8262 -2.9985 0.9732
4.1394 -4.4755 -2.9985 0.9732
4.5213 -4.0893 -2.9985 0.9732
4.8674 -3.6706 -2.9985 0.9732
5.1747 -3.2228 -2.9985 0.9732
5.6641 -2.2543 -2.9985 0.9732
5.8423 -1.7412 -2.9985 0.9732
5.9741 -1.2143 -2.9985 0.9732
6.0584 -0.6777 -2.9985 0.9732
6.0947 -0.1358 -2.9985 0.9732
6.0826 0.4072 -2.9985 0.9732
6.0222 0.9470 -2.9985 0.9732
5.9141 1.4792 -2.9985 0.9732
5.7589 1.9997 -2.9985 0.9732
5.5581 2.5044 -2.9985 0.9732
5.3132 2.9891 -2.9985 0.9732
5.0260 3.4502 -2.9985 0.9732
4.6990 3.8839 -2.9985 0.9732
6.1417 6.0736 -4.2485 0.9622
4.9675 7.0664 -4.2485 0.9622
2.4358 5.2490 -2.8462 0.9745
1.4665 5.5977 -2.8462 0.9745
0.4508 5.7691 -2.8462 0.9745
-0.0645 5.7864 -2.8462 0.9745
-0.5792 5.7577 -2.8462 0.9745
-1.5909 5.5638 -2.8462 0.9745
-3.0043 4.9459 -2.8463 0.9745
-4.0390 4.5669 -2.9987 0.9732
-5.8026 1.8711 -2.9987 0.9732
-5.9461 1.3472 -2.9987 0.9732
-6.0908 -0.2716 -2.9988 0.9732
-6.0424 -0.8126 -2.9988 0.9732
-5.9461 -1.3472 -2.9987 0.9732
-5.8026 -1.8711 -2.9987 0.9732
-5.1021 -3.3376 -2.9987 0.9732
-4.4294 -4.1893 -2.9987 0.9732
-4.0390 -4.5669 -2.9987 0.9732
-3.1652 -5.2106 -2.9987 0.9732
-2.6889 -5.4717 -2.9987 0.9732
-0.6102 -6.0659 -2.9986 0.9732
1.0140 -6.0115 -2.9986 0.9732
1.5451 -5.8974 -2.9986 0.9732
3.5060 -4.9873 -2.9985 0.9732
4.6990 -3.8838 -2.9985 0.9732
5.0260 -3.4501 -2.9985 0.9732
5.3132 -2.9891 -2.9985 0.9732
5.7589 -1.9997 -2.9985 0.9732
6.0222 -0.9469 -2.9985 0.9732
6.0947 0.1358 -2.9985 0.9732
6.0584 0.6778 -2.9985 0.9732
5.9741 1.2143 -2.9985 0.9732
5.1747 3.2229 -2.9985 0.9732
4.5213 4.0893 -2.9985 0.9732
5.8650 6.3412 -4.2485 0.9622
2.1995 5.3523 -2.8462 0.9745
1.7144 5.5268 -2.8462 0.9745
1.2157 5.6575 -2.8462 0.9745
-0.3222 5.7777 -2.8462 0.9745
-0.8351 5.7262 -2.8462 0.9745
-2.3183 5.3021 -2.8463 0.9745
-3.8094 4.7149 -2.9813 0.9733
-4.6117 3.9879 -2.9987 0.9732
-4.9483 3.5616 -2.9987 0.9732
-5.5014 2.6278 -2.9987 0.9732
-5.7566 -1.0371 -2.9987 0.9741
-5.6414 -1.5453 -2.9987 0.9741
-4.7474 -3.4169 -2.9987 0.9741
-3.6759 -4.5497 -2.9987 0.9741
-2.8110 -5.1294 -2.9987 0.9741
-2.3433 -5.3592 -2.9987 0.9741
-0.8441 -5.7878 -2.9986 0.9741
0.1954 -5.8457 -2.9986 0.9741
0.7150 -5.8051 -2.9986 0.9741
1.2288 -5.7184 -2.9986 0.9741
2.2232 -5.4098 -2.9985 0.9741
3.5734 -4.6302 -2.9985 0.9741
3.9714 -4.2938 -2.9985 0.9741
4.6697 -3.5216 -2.9985 0.9741
5.7315 -1.1650 -2.9985 0.9741
5.8125 -0.6502 -2.9985 0.9741
5.8473 -0.1303 -2.9985 0.9741
5.8357 0.3907 -2.9985 0.9741
5.6739 1.4192 -2.9985 0.9741
5.3324 2.4027 -2.9985 0.9741
5.3503 6.3284 -4.2485 0.9634
4.1435 7.1768 -4.2485 0.9634
1.8794 5.2239 -2.8462 0.9754
1.4070 5.3704 -2.8462 0.9754
-0.0618 5.5514 -2.8462 0.9754
-0.5557 5.5239 -2.8462 0.9754
-1.0452 5.4526 -2.8462 0.9754
-1.5263 5.3379 -2.8462 0.9754
-1.9954 5.1809 -2.8463 0.9754
-2.4486 4.9827 -2.8463 0.9754
-4.8949 3.2021 -2.9987 0.9741
-5.3851 2.2835 -2.9987 0.9741
-5.7971 0.7797 -2.9987 0.9740
-5.8435 -0.2605 -2.9987 0.9740
-5.7971 -0.7796 -2.9987 0.9740
-5.5670 -1.7951 -2.9987 0.9741
-5.1605 -2.7537 -2.9987 0.9741
-4.8949 -3.2021 -2.9987 0.9741
-3.0367 -4.9991 -2.9987 0.9741
-2.5797 -5.2495 -2.9987 0.9741
-1.1011 -5.7444 -2.9986 0.9741
-0.5855 -5.8196 -2.9986 0.9741
-0.0652 -5.8486 -2.9986 0.9741
0.9729 -5.7674 -2.9986 0.9741
1.4823 -5.6579 -2.9986 0.9741
2.9244 -5.0652 -2.9985 0.9741
3.3636 -4.7848 -2.9985 0.9741
3.7762 -4.4664 -2.9985 0.9741
5.0974 -2.8677 -2.9985 0.9741
5.5251 -1.9185 -2.9985 0.9741
5.8357 -0.3906 -2.9985 0.9741
5.8473 0.1303 -2.9985 0.9741
5.8125 0.6503 -2.9985 0.9741
5.7315 1.1650 -2.9985 0.9741
5.6051 1.6705 -2.9985 0.9741
5.4342 2.1628 -2.9985 0.9741
5.6269 6.0837 -4.2485 0.9634
2.5589 4.9267 -2.8461 0.9754
1.6448 5.3024 -2.8462 0.9754
1.1664 5.4278 -2.8462 0.9754
-0.8012 5.4937 -2.8462 0.9754
-1.7626 5.2646 -2.8463 0.9754
-2.2242 5.0869 -2.8463 0.9754
-2.6681 4.8688 -2.8463 0.9754
-3.1670 4.7255 -2.9164 0.9748
-3.6760 4.5498 -2.9987 0.9741
-4.0663 4.2046 -2.9987 0.9741
-5.2780 2.5211 -2.9987 0.9741
-5.4815 2.0413 -2.9987 0.9741
-5.6414 1.5454 -2.9987 0.9740
-5.7566 1.0371 -2.9987 0.9740
-5.6173 0.0000 -2.9987 0.9749
-5.4177 -1.4840 -2.9987 0.9749
-3.1272 -4.6661 -2.9987 0.9749
-2.2503 -5.1466 -2.9987 0.9749
-1.7833 -5.3265 -2.9986 0.9749
0.1877 -5.6138 -2.9986 0.9749
1.1801 -5.4916 -2.9986 0.9749
1.6642 -5.3647 -2.9986 0.9749
3.4317 -4.4466 -2.9985 0.9749
3.8139 -4.1235 -2.9985 0.9749
4.1657 -3.7676 -2.9985 0.9749
5.0131 -2.5332 -2.9985 0.9749
5.3828 -1.6042 -2.9985 0.9749
5.5042 -1.1187 -2.9985 0.9749
5.5819 -0.6245 -2.9985 0.9749
5.6154 -0.1251 -2.9985 0.9749
4.3294 3.5784 -2.9985 0.9749
5.1381 6.0774 -4.2485 0.9646
4.5768 6.5106 -4.2485 0.9646
3.3499 7.2189 -4.2485 0.9646
1.8048 5.0167 -2.8462 0.9761
1.3512 5.1574 -2.8462 0.9761
-0.5337 5.3048 -2.8462 0.9761
-1.0037 5.2363 -2.8462 0.9761
-1.4658 5.1262 -2.8462 0.9761
-1.9162 4.9754 -2.8463 0.9761
-2.8666 4.7191 -2.9476 0.9753
-4.4084 3.4813 -2.9987 0.9749
-4.7007 3.0751 -2.9987 0.9749
-4.9558 2.6445 -2.9987 0.9749
-5.1715 2.1930 -2.9987 0.9749
-5.4784 1.2413 -2.9987 0.9749
-5.5671 0.7487 -2.9987 0.9749
-5.6117 -0.2502 -2.9987 0.9749
-5.4784 -1.2412 -2.9987 0.9749
-5.1715 -2.1929 -2.9987 0.9749
-4.9558 -2.6445 -2.9987 0.9749
-2.9163 -4.8008 -2.9987 0.9749
-1.5443 -5.4006 -2.9986 0.9749
-0.0626 -5.6166 -2.9986 0.9749
0.4376 -5.5999 -2.9986 0.9749
0.9343 -5.5387 -2.9986 0.9749
1.9015 -5.2853 -2.9986 0.9749
2.3643 -5.0950 -2.9985 0.9749
3.2302 -4.5951 -2.9985 0.9749
4.3294 -3.5784 -2.9985 0.9749
5.1210 -2.3074 -2.9985 0.9749
5.4489 -1.3628 -2.9985 0.9749
5.5486 -0.8724 -2.9985 0.9749
5.6042 -0.3751 -2.9985 0.9749
5.6154 0.1251 -2.9985 0.9749
5.5042 1.1188 -2.9985 0.9749
5.3828 1.6043 -2.9985 0.9749
5.2187 2.0770 -2.9985 0.9749
5.0131 2.5332 -2.9985 0.9749
4.7677 2.9694 -2.9985 0.9749
4.1657 3.7677 -2.9985 0.9749
3.8139 4.1236 -2.9985 0.9749
4.8623 6.3002 -4.2485 0.9646
3.6682 7.0626 -4.2485 0.9646
1.5796 5.0921 -2.8462 0.9761
1.1201 5.2125 -2.8462 0.9761
0.6517 5.2916 -2.8462 0.9761
-1.2360 5.1864 -2.8462 0.9761
-1.6927 5.0558 -2.8462 0.9761
-2.1360 4.8851 -2.8463 0.9761
-2.5927 4.7310 -2.8800 0.9758
-3.1272 4.6662 -2.9987 0.9749
-3.5301 4.3693 -2.9987 0.9749
-3.9050 4.0378 -2.9987 0.9749
-4.2489 3.6742 -2.9987 0.9749
-4.8331 2.8627 -2.9987 0.9749
-5.5950 0.5000 -2.9987 0.9749
-5.3993 0.0000 -2.9987 0.9756
-5.3778 -0.4805 -2.9987 0.9756
-5.3137 -0.9573 -2.9987 0.9756
-5.0598 -1.8842 -2.9987 0.9756
-4.8720 -2.3271 -2.9987 0.9756
-4.3822 -3.1541 -2.9987 0.9756
-4.0840 -3.5316 -2.9987 0.9756
-3.7535 -3.8810 -2.9987 0.9756
-3.3931 -4.1997 -2.9987 0.9756
-3.0059 -4.4850 -2.9987 0.9756
-2.5947 -4.7348 -2.9987 0.9756
-0.7792 -5.3425 -2.9986 0.9756
-0.3006 -5.3906 -2.9986 0.9756
0.6600 -5.3585 -2.9986 0.9756
1.1343 -5.2785 -2.9986 0.9756
1.5996 -5.1565 -2.9986 0.9756
2.0522 -4.9937 -2.9986 0.9756
2.4885 -4.7912 -2.9985 0.9756
2.9051 -4.5507 -2.9985 0.9756
3.2986 -4.2740 -2.9985 0.9756
3.6659 -3.9635 -2.9985 0.9756
4.0041 -3.6214 -2.9985 0.9756
4.8186 -2.4349 -2.9985 0.9756
5.1739 -1.5420 -2.9985 0.9756
5.2375 1.3100 -2.9985 0.9756
4.7053 2.6472 -2.9985 0.9756
3.4857 4.1229 -2.9985 0.9756
3.2199 6.9388 -4.2485 0.9656
1.2988 4.9573 -2.8462 0.9768
0.8524 5.0532 -2.8462 0.9768
0.3992 5.1091 -2.8462 0.9768
-0.0571 5.1244 -2.8462 0.9768
-0.5129 5.0989 -2.8462 0.9768
-1.8419 4.7823 -2.8463 0.9768
-2.3207 4.7226 -2.9225 0.9762
-3.2027 4.3468 -2.9987 0.9756
-3.5769 4.0445 -2.9987 0.9756
-4.2373 3.3462 -2.9987 0.9756
-4.5183 2.9558 -2.9987 0.9756
-4.9708 2.1078 -2.9987 0.9756
-5.1387 1.6570 -2.9987 0.9756
-5.3939 -0.2405 -2.9987 0.9756
-5.3511 -0.7196 -2.9987 0.9756
-5.2658 -1.1930 -2.9987 0.9756
-5.1387 -1.6570 -2.9987 0.9756
-4.7635 -2.5419 -2.9987 0.9756
-3.9227 -3.7100 -2.9987 0.9756
-3.2027 -4.3467 -2.9987 0.9756
-2.8031 -4.6145 -2.9987 0.9756
-2.3812 -4.8456 -2.9987 0.9756
-0.5404 -5.3719 -2.9986 0.9756
1.3683 -5.2227 -2.9986 0.9756
1.8277 -5.0802 -2.9986 0.9756
2.6995 -4.6756 -2.9985 0.9756
3.1049 -4.4167 -2.9985 0.9756
4.1614 -3.4395 -2.9985 0.9756
4.4510 -3.0554 -2.9985 0.9756
4.9222 -2.2178 -2.9985 0.9756
5.1001 -1.7709 -2.9985 0.9756
5.3333 -0.8386 -2.9985 0.9756
5.3868 -0.3606 -2.9985 0.9756
5.3975 0.1203 -2.9985 0.9756
5.2906 1.0754 -2.9985 0.9756
5.0162 1.9964 -2.9985 0.9756
4.5827 2.8542 -2.9985 0.9756
4.6736 6.0557 -4.2485 0.9656
2.9077 7.0754 -4.2485 0.9656
1.0766 5.0103 -2.8462 0.9768
0.6264 5.0862 -2.8462 0.9768
0.1712 5.1218 -2.8462 0.9768
