ply
format ascii 1.0
element vertex 1586
property float32 x
property float32 y
property float32 z
property float32 I
end_header
2.3039 -4.9648 0.2276 0.9783
2.9750 -5.1529 0.2474 0.9765
1.5594 -5.0270 0.1313 0.9792
0.4564 -5.8404 0.1461 0.9768
0.9045 -5.3621 0.1356 0.9785
1.7879 -4.9694 0.1317 0.9791
11.4466 7.1290 0.3363 0.9475
1.5568 -5.0188 0.0437 0.9792
2.0290 -4.9373 0.0444 0.9789
2.5934 -4.9931 0.0468 0.9777
3.5109 -5.4996 0.0542 0.9742
0.4550 -5.8228 0.0485 0.9769
1.3339 -5.0912 0.0437 0.9792
2.2952 -4.9460 0.0453 0.9784
2.9566 -5.1209 0.0491 0.9766
0.2128 -6.3655 -0.0529 0.9748
0.6827 -5.5431 -0.0464 0.9779
1.1188 -5.2064 -0.0443 0.9789
2.0292 -4.9377 -0.0444 0.9789
2.5936 -4.9936 -0.0468 0.9777
3.5116 -5.5008 -0.0542 0.9742
0.4551 -5.8234 -0.0485 0.9769
0.9029 -5.3524 -0.0451 0.9785
2.9570 -5.1216 -0.0492 0.9766
11.4452 7.1281 -0.1121 0.9475
0.2139 -6.3979 -0.1596 0.9747
3.5400 -5.5454 -0.1641 0.9740
0.9046 -5.3626 -0.1356 0.9785
1.3362 -5.1002 -0.1315 0.9791
1.7880 -4.9697 -0.1317 0.9791
2.2998 -4.9558 -0.1362 0.9784
11.4445 7.1277 -0.3362 0.9475
0.2150 -6.4307 -0.2675 0.9746
0.6858 -5.5682 -0.2333 0.9778
2.0361 -4.9546 -0.2227 0.9788
2.6055 -5.0165 -0.2350 0.9776
3.5908 -5.6248 -0.2775 0.9736
0.9063 -5.3727 -0.2265 0.9784
1.3384 -5.1088 -0.2196 0.9791
2.3041 -4.9652 -0.2276 0.9783
11.4438 7.1273 -0.5606 0.9475
0.2161 -6.4639 -0.3767 0.9744
0.6874 -5.5809 -0.3275 0.9777
1.5646 -5.0438 -0.3076 0.9791
2.6115 -5.0280 -0.3300 0.9776
0.4592 -5.8769 -0.3433 0.9767
0.9080 -5.3829 -0.3179 0.9784
1.7940 -4.9866 -0.3087 0.9790
2.3085 -4.9747 -0.3194 0.9783
0.2206 -6.5989 -0.4948 0.9739
0.6901 -5.6034 -0.4231 0.9776
1.5677 -5.0538 -0.3965 0.9790
2.0443 -4.9746 -0.4030 0.9787
2.6226 -5.0495 -0.4264 0.9774
1.7978 -4.9970 -0.3980 0.9789
11.4425 7.1264 -1.0102 0.9474
0.2313 -6.9179 -0.6346 0.9726
1.5759 -5.0800 -0.4876 0.9789
0.7002 -5.6854 -0.6213 0.9772
2.0667 -5.0290 -0.5897 0.9784
2.6616 -5.1244 -0.6263 0.9770
1.3579 -5.1831 -0.5812 0.9787
3.0679 -5.3137 -0.6655 0.9756
3.1032 -5.3749 -0.7778 0.9753
11.4404 7.1251 -1.6890 0.9471
0.7134 -5.7927 -0.8302 0.9767
1.1529 -5.3651 -0.7805 0.9781
1.6014 -5.1623 -0.7688 0.9784
2.7137 -5.2247 -0.8374 0.9765
0.4857 -6.2155 -0.8868 0.9751
1.8380 -5.1087 -0.7722 0.9783
2.3776 -5.1236 -0.8034 0.9774
11.4397 7.1247 -1.9169 0.9470
0.7235 -5.8745 -0.9425 0.9763
1.1648 -5.4204 -0.8828 0.9778
1.6172 -5.2133 -0.8692 0.9781
2.1133 -5.1423 -0.8853 0.9777
0.9454 -5.6049 -0.9051 0.9772
1.3873 -5.2951 -0.8716 0.9781
1.8567 -5.1609 -0.8734 0.9780
2.4053 -5.1833 -0.9099 0.9771
1.6334 -5.2656 -0.9721 0.9779
1.4016 -5.3499 -0.9752 0.9778
2.4338 -5.2447 -1.0195 0.9768
11.3339 7.0588 -2.3544 0.9472
0.7525 -6.1101 -1.1914 0.9752
1.1896 -5.5361 -1.0958 0.9772
1.6501 -5.3193 -1.0778 0.9776
2.8829 -5.5506 -1.2104 0.9748
13.3928 6.0345 -2.8427 0.9419
11.3248 9.3603 -2.8432 0.9419
10.4476 10.3319 -2.8435 0.9419
8.4518 12.0229 -2.8440 0.9419
6.1875 13.3337 -2.8446 0.9419
4.9767 13.8330 -2.8449 0.9419
2.4458 14.4997 -2.8456 0.9419
1.1457 14.6615 -2.8459 0.9418
-2.7695 14.4485 -2.8469 0.9418
-4.0450 14.1463 -2.8473 0.9418
-5.2886 13.7317 -2.8476 0.9418
-7.6412 12.5792 -2.8482 0.9418
-8.7313 11.8503 -2.8485 0.9418
-9.7523 11.0271 -2.8488 0.9418
-11.5549 9.1248 -2.8492 0.9418
-12.9914 6.9324 -2.8496 0.9418
-13.5575 5.7489 -2.8498 0.9418
0.9691 -5.7451 -1.1275 0.9765
1.4163 -5.4061 -1.0815 0.9775
1.8958 -5.2695 -1.0837 0.9774
2.4710 -5.3248 -1.1360 0.9764
13.6480 5.4318 -2.8426 0.9419
13.1110 6.6253 -2.8428 0.9419
9.9775 10.7875 -2.8436 0.9419
7.9082 12.3880 -2.8441 0.9419
6.7749 13.0441 -2.8444 0.9419
3.0891 14.3754 -2.8454 0.9419
1.7976 14.5951 -2.8457 0.9418
0.4914 14.6989 -2.8461 0.9418
-0.8189 14.6861 -2.8464 0.9418
-2.1230 14.5567 -2.8468 0.9418
-8.1944 12.2269 -2.8484 0.9418
-9.2510 11.4502 -2.8486 0.9418
-10.2343 10.5823 -2.8489 0.9418
-11.1365 9.6301 -2.8491 0.9418
-11.7458 6.9571 -2.6418 0.9459
-13.8005 5.1394 -2.8498 0.9418
-14.2412 0.0000 -3.0023 0.9434
-14.1846 -1.2675 -3.0023 0.9434
-14.0152 -2.5249 -3.0023 0.9434
-13.3447 -4.9696 -3.0021 0.9434
-12.8489 -6.1373 -3.0019 0.9435
-12.2509 -7.2562 -3.0018 0.9435
-11.5558 -8.3173 -3.0016 0.9435
-8.9457 -11.0722 -3.0009 0.9435
-5.7010 -13.0385 -3.0001 0.9435
-4.5174 -13.4928 -2.9998 0.9435
-3.2982 -13.8399 -2.9994 0.9435
0.4753 -14.2148 -2.9984 0.9435
2.2038 -5.3626 -1.2223 0.9766
7.6482 -11.9807 -2.9966 0.9436
8.6834 -11.2514 -2.9963 0.9436
12.6806 -6.4078 -2.9953 0.9436
13.2000 -5.2534 -2.9951 0.9436
13.9215 -2.8296 -2.9949 0.9436
13.7818 3.4471 -2.9950 0.9436
12.2949 5.5398 -2.8430 0.9464
11.7536 6.6125 -2.8431 0.9464
9.5909 9.4847 -2.8437 0.9464
8.7094 10.3015 -2.8439 0.9463
7.7586 11.0368 -2.8442 0.9463
5.6799 12.2400 -2.8447 0.9463
4.5684 12.6982 -2.8450 0.9463
3.4205 13.0558 -2.8453 0.9463
2.2451 13.3099 -2.8456 0.9463
-0.1504 13.5000 -2.8462 0.9463
-1.3515 13.4346 -2.8466 0.9463
-3.7129 12.9849 -2.8472 0.9463
-5.9576 12.1233 -2.8478 0.9463
-7.0137 11.5461 -2.8480 0.9463
-8.0142 10.8770 -2.8483 0.9463
-8.9513 10.1214 -2.8486 0.9463
-9.8174 9.2853 -2.8488 0.9463
-12.4436 5.2766 -2.8495 0.9462
-13.5531 4.3704 -3.0021 0.9434
-13.8887 3.1468 -3.0022 0.9434
-14.1140 1.8982 -3.0023 0.9434
-14.2270 -0.6344 -3.0023 0.9434
-14.1139 -1.8981 -3.0023 0.9434
-13.8887 -3.1467 -3.0022 0.9434
-13.1098 -5.5590 -3.0020 0.9435
-12.5624 -6.7035 -3.0019 0.9435
-11.9152 -7.7945 -3.0017 0.9435
-10.3430 -9.7823 -3.0013 0.9435
-9.4305 -10.6632 -3.0010 0.9435
-6.2765 -12.7723 -3.0002 0.9435
-3.9117 -13.6799 -2.9996 0.9435
-2.6783 -13.9723 -2.9993 0.9435
-1.4239 -14.1537 -2.9989 0.9435
1.1079 -14.1787 -2.9983 0.9435
1.9264 -5.3544 -1.1996 0.9770
9.1756 -10.8530 -2.9962 0.9436
10.9529 -9.0528 -2.9957 0.9436
11.7143 -8.0414 -2.9955 0.9436
12.3829 -6.9664 -2.9953 0.9436
13.4207 -4.6601 -2.9951 0.9436
14.1741 -0.9488 -2.9949 0.9436
12.5292 4.9865 -2.8429 0.9464
12.0362 6.0822 -2.8430 0.9464
10.7684 8.1209 -2.8434 0.9464
10.0036 9.0477 -2.8436 0.9464
9.1593 9.9029 -2.8438 0.9463
8.2422 10.6798 -2.8440 0.9463
-0.7517 13.4807 -2.8464 0.9463
-3.1306 13.1367 -2.8470 0.9463
-4.2879 12.8073 -2.8473 0.9463
-5.4113 12.3761 -2.8476 0.9463
-6.4920 11.8465 -2.8479 0.9463
-7.5214 11.2228 -2.8482 0.9463
-9.3937 9.7130 -2.8487 0.9463
-10.2217 8.8390 -2.8489 0.9463
-11.6217 6.8835 -2.8476 0.9463
-12.8276 4.7771 -2.8857 0.9456
-14.0153 2.5250 -3.0023 0.9434
-13.1528 0.0000 -3.0020 0.9475
-12.9441 -2.3320 -3.0020 0.9475
-12.6849 -3.4747 -3.0019 0.9475
-12.3249 -4.5898 -3.0018 0.9475
-11.3148 -6.7018 -3.0015 0.9475
-9.9461 -8.6007 -3.0012 0.9475
-9.1405 -9.4511 -3.0010 0.9475
-6.3172 -11.5274 -3.0002 0.9475
-3.0464 -12.7831 -2.9994 0.9475
-1.8963 -13.0022 -2.9991 0.9475
-0.7315 -13.1180 -2.9988 0.9475
0.4390 -13.1297 -2.9985 0.9475
1.6057 -13.0372 -2.9981 0.9475
1.2365 -5.7541 -1.3433 0.9761
2.2488 -5.4721 -1.3503 0.9760
6.0522 -11.6526 -2.9970 0.9476
8.0210 -10.3931 -2.9965 0.9476
8.9136 -9.6372 -2.9962 0.9476
9.7352 -8.8050 -2.9960 0.9476
10.4796 -7.9030 -2.9958 0.9476
11.7136 -5.9191 -2.9955 0.9476
12.1934 -4.8529 -2.9954 0.9476
12.8599 -2.6139 -2.9952 0.9476
12.9635 2.0384 -2.9952 0.9476
12.7309 3.1842 -2.9953 0.9476
10.8573 6.1082 -2.8434 0.9502
10.2711 7.0507 -2.8435 0.9502
9.6034 7.9374 -2.8437 0.9502
7.1667 10.1949 -2.8443 0.9502
5.2465 11.3060 -2.8448 0.9501
4.2198 11.7292 -2.8451 0.9501
0.9714 12.4311 -2.8460 0.9501
-0.1389 12.4695 -2.8462 0.9501
-2.3481 12.2498 -2.8468 0.9501
-3.4294 11.9934 -2.8471 0.9501
-4.4837 11.6416 -2.8474 0.9501
-5.5026 11.1974 -2.8476 0.9501
-7.4020 10.0461 -2.8481 0.9501
-8.2675 9.3482 -2.8484 0.9501
-9.0673 8.5759 -2.8486 0.9501
-9.7953 7.7353 -2.8488 0.9501
-10.4455 6.8332 -2.8489 0.9501
-11.0128 5.8766 -2.8491 0.9501
-13.0353 1.7531 -3.0020 0.9475
-13.1397 0.5859 -3.0020 0.9475
-13.1397 -0.5859 -3.0020 0.9475
-13.0353 -1.7530 -3.0020 0.9475
-12.1080 -5.1342 -3.0018 0.9475
-11.6024 -6.1912 -3.0016 0.9475
-9.5528 -9.0349 -3.0011 0.9475
-8.7100 -9.8486 -3.0009 0.9475
-7.7983 -10.5839 -3.0006 0.9475
-5.7971 -11.7968 -3.0001 0.9475
-2.4738 -12.9054 -2.9992 0.9475
-1.3152 -13.0731 -2.9989 0.9475
-0.1464 -13.1369 -2.9986 0.9475
1.0234 -13.0964 -2.9983 0.9475
1.4649 -5.5914 -1.3193 0.9766
1.9614 -5.4517 -1.3224 0.9765
2.5964 -5.5951 -1.4079 0.9750
6.5650 -11.3709 -2.9968 0.9476
7.5504 -10.7406 -2.9966 0.9476
9.3337 -9.2303 -2.9961 0.9476
10.1175 -8.3623 -2.9959 0.9476
10.8210 -7.4281 -2.9957 0.9476
11.9654 -5.3913 -2.9954 0.9476
13.1194 0.2924 -2.9952 0.9476
13.0414 1.4589 -2.9952 0.9476
12.8600 2.6139 -2.9952 0.9476
12.5766 3.7483 -2.9953 0.9476
9.9471 7.5015 -2.8436 0.9502
9.2406 8.3576 -2.8438 0.9502
6.7058 10.5045 -2.8444 0.9502
5.7447 11.0606 -2.8447 0.9501
3.6933 11.9061 -2.8452 0.9501
2.6192 12.1888 -2.8455 0.9501
1.5241 12.3748 -2.8458 0.9501
-1.8000 12.3416 -2.8467 0.9501
-2.8916 12.1336 -2.8470 0.9501
-3.9604 11.8292 -2.8472 0.9501
-7.8425 9.7068 -2.8483 0.9501
-8.6760 8.9710 -2.8485 0.9501
-10.1305 7.2915 -2.8489 0.9501
-10.7398 6.3612 -2.8490 0.9501
-11.2639 5.3804 -2.8491 0.9501
-12.3250 4.5899 -3.0018 0.9475
-12.6850 3.4748 -3.0019 0.9475
-12.2123 0.0000 -3.0018 0.9509
-12.1638 -1.0870 -3.0018 0.9509
-11.0186 -5.2631 -3.0015 0.9509
-9.2351 -7.9859 -3.0010 0.9510
-8.4871 -8.7756 -3.0008 0.9510
-7.6718 -9.4955 -3.0006 0.9510
-6.7957 -10.1398 -3.0004 0.9510
-5.8657 -10.7036 -3.0001 0.9510
-3.8743 -11.5720 -2.9996 0.9510
-2.8287 -11.8698 -2.9993 0.9510
1.2713 -5.9160 -1.4874 0.9754
2.3148 -5.6327 -1.4969 0.9752
5.6202 -10.8207 -2.9971 0.9510
7.4485 -9.6513 -2.9966 0.9510
10.8777 -5.4967 -2.9957 0.9510
11.3234 -4.5066 -2.9956 0.9510
11.6792 -3.4807 -2.9955 0.9510
11.9424 -2.4273 -2.9955 0.9510
12.1833 -0.2715 -2.9954 0.9510
12.1591 0.8140 -2.9954 0.9510
11.8225 2.9571 -2.9955 0.9510
11.5127 3.9977 -2.9956 0.9510
10.0825 5.6724 -2.8436 0.9535
9.5381 6.5476 -2.8437 0.9535
8.9180 7.3709 -2.8439 0.9535
8.2271 8.1359 -2.8440 0.9535
6.6552 9.4671 -2.8445 0.9535
4.8720 10.4988 -2.8449 0.9534
2.9338 11.1983 -2.8454 0.9534
1.9256 11.4161 -2.8457 0.9534
-0.1290 11.5788 -2.8462 0.9534
-1.1592 11.5225 -2.8465 0.9534
-4.1633 10.8098 -2.8473 0.9534
-6.8730 9.3281 -2.8480 0.9534
-8.4192 7.9629 -2.8484 0.9534
-9.0951 7.1823 -2.8486 0.9534
-9.6988 6.3447 -2.8487 0.9534
-10.2255 5.4565 -2.8489 0.9534
-11.2054 4.7515 -2.9917 0.9511
-11.9102 2.6985 -3.0017 0.9509
-12.2002 -0.5440 -3.0018 0.9509
-11.6224 -3.7477 -3.0016 0.9509
-10.7729 -5.7486 -3.0014 0.9509
-8.0875 -9.1446 -3.0007 0.9510
-7.2409 -9.8275 -3.0005 0.9510
0.9503 -12.1611 -2.9983 0.9510
1.0676 -6.3289 -1.5776 0.9739
2.0056 -5.5748 -1.4563 0.9759
2.7582 -5.9437 -1.6106 0.9734
7.0114 -9.9739 -2.9967 0.9510
8.6675 -8.5715 -2.9963 0.9510
9.3954 -7.7655 -2.9961 0.9510
10.6223 -5.9760 -2.9958 0.9510
11.5127 -3.9976 -2.9956 0.9510
11.8225 -2.9570 -2.9955 0.9510
11.9424 2.4274 -2.9955 0.9510
9.2372 6.9661 -2.8438 0.9535
7.0700 9.1609 -2.8444 0.9535
6.2271 9.7546 -2.8446 0.9534
3.4296 11.0560 -2.8453 0.9534
1.4153 11.4911 -2.8458 0.9534
0.3869 11.5725 -2.8461 0.9534
-1.6714 11.4599 -2.8466 0.9534
-2.6850 11.2667 -2.8469 0.9534
-3.6775 10.9840 -2.8472 0.9534
-5.5677 10.1597 -2.8477 0.9534
-6.4504 9.6246 -2.8479 0.9534
-8.0558 8.3297 -2.8483 0.9534
-9.4063 6.7703 -2.8487 0.9534
-9.9720 5.9065 -2.8488 0.9534
-11.4438 4.2617 -3.0016 0.9509
-11.7780 3.2263 -3.0017 0.9509
-12.0187 2.1653 -3.0017 0.9509
-12.1638 1.0870 -3.0018 0.9509
-11.3912 0.0000 -3.0016 0.9540
-11.3459 -1.0138 -3.0016 0.9540
-10.9860 -3.0094 -3.0015 0.9540
-10.6743 -3.9751 -3.0014 0.9540
-9.7996 -5.8043 -3.0011 0.9540
-9.2436 -6.6531 -3.0010 0.9540
-6.3390 -9.4583 -3.0002 0.9540
-4.5608 -10.4308 -2.9998 0.9540
-1.6426 -11.2622 -2.9990 0.9540
-0.6336 -11.3627 -2.9987 0.9540
1.3201 -6.1433 -1.6557 0.9743
1.7943 -5.7843 -1.5958 0.9753
2.4253 -5.9015 -1.6813 0.9740
7.7217 -8.3486 -2.9966 0.9540
8.4336 -7.6277 -2.9964 0.9541
10.1477 -5.1278 -2.9959 0.9541
11.1409 -2.2645 -2.9957 0.9541
11.2307 1.7660 -2.9956 0.9541
9.4058 5.2916 -2.8437 0.9563
8.8979 6.1081 -2.8439 0.9563
6.9693 8.2433 -2.8444 0.9563
5.3981 9.3498 -2.8448 0.9563
2.7368 10.4463 -2.8455 0.9563
-0.1203 10.8010 -2.8462 0.9563
-1.0813 10.7484 -2.8465 0.9563
-2.0338 10.6104 -2.8467 0.9563
-2.9704 10.3882 -2.8470 0.9563
-3.8835 10.0834 -2.8472 0.9563
-4.7660 9.6985 -2.8475 0.9563
-6.4110 8.7011 -2.8479 0.9563
-7.1605 8.0966 -2.8481 0.9563
-7.8532 7.4275 -2.8483 0.9563
-10.4865 4.4467 -3.0013 0.9540
-10.8410 3.4958 -3.0014 0.9540
-11.1093 2.5171 -3.0015 0.9540
-11.3799 0.5075 -3.0016 0.9540
-11.2894 -1.5183 -3.0015 0.9540
-10.8409 -3.4958 -3.0014 0.9540
-10.4864 -4.4466 -3.0013 0.9540
-10.0487 -5.3621 -3.0012 0.9540
-9.5311 -6.2349 -3.0011 0.9540
-8.2737 -7.8251 -3.0007 0.9540
-7.5439 -8.5299 -3.0006 0.9540
-6.7542 -9.1669 -3.0003 0.9540
-5.9111 -9.7310 -3.0001 0.9540
-5.0211 -10.2176 -2.9999 0.9540
-4.0914 -10.6231 -2.9996 0.9540
1.8925 -11.2194 -2.9981 0.9540
2.0719 -5.7589 -1.6127 0.9750
4.7881 -10.3181 -2.9973 0.9540
6.5407 -9.3043 -2.9969 0.9540
7.3424 -8.6846 -2.9967 0.9540
9.3743 -6.4351 -2.9961 0.9541
9.9094 -5.5749 -2.9960 0.9541
11.2981 1.2639 -2.9956 0.9541
8.0051 7.2402 -2.8441 0.9563
7.3293 7.9244 -2.8443 0.9563
2.2688 10.5583 -2.8456 0.9563
1.3202 10.7193 -2.8459 0.9563
0.3609 10.7952 -2.8461 0.9563
-1.5591 10.6900 -2.8466 0.9563
-3.4304 10.2460 -2.8471 0.9563
-4.3290 9.9008 -2.8473 0.9563
-6.7925 8.4072 -2.8480 0.9563
-8.1765 7.0706 -2.8483 0.9563
-8.7739 6.3151 -2.8485 0.9563
-9.9692 4.7619 -2.9112 0.9553
-10.6743 3.9752 -3.0014 0.9540
-10.6252 -0.9494 -3.0014 0.9566
-10.4984 -1.8913 -3.0013 0.9566
-10.2882 -2.8182 -3.0013 0.9566
-9.6249 -4.5974 -3.0011 0.9566
-9.1772 -5.4356 -3.0010 0.9566
-8.6565 -6.2306 -3.0008 0.9566
-7.4139 -7.6659 -3.0005 0.9567
-6.7017 -8.2948 -3.0003 0.9567
-5.9364 -8.8578 -3.0001 0.9567
-5.1241 -9.3503 -2.9999 0.9567
-4.2712 -9.7685 -2.9997 0.9567
-3.3846 -10.1092 -2.9995 0.9567
-1.5383 -10.5474 -2.9990 0.9567
0.3561 -10.6512 -2.9985 0.9567
1.3026 -10.5764 -2.9982 0.9567
4.0496 -9.8541 -2.9975 0.9567
4.9102 -9.4538 -2.9973 0.9567
5.7318 -8.9787 -2.9971 0.9567
6.5077 -8.4323 -2.9969 0.9567
7.8988 -7.1440 -2.9965 0.9567
9.5042 -4.8027 -2.9961 0.9567
9.8936 -3.9375 -2.9960 0.9567
10.4345 -2.1209 -2.9959 0.9567
10.6451 -0.2372 -2.9958 0.9567
10.5186 1.6540 -2.9958 0.9567
10.3298 2.5837 -2.9959 0.9567
8.3336 5.7208 -2.8440 0.9589
6.5272 7.7205 -2.8445 0.9589
5.8146 8.2713 -2.8447 0.9589
5.0557 8.7567 -2.8449 0.9589
4.2565 9.1726 -2.8451 0.9589
-0.1127 10.1155 -2.8462 0.9588
-2.7818 9.7287 -2.8469 0.9588
-3.6370 9.4433 -2.8472 0.9588
-6.7058 7.5824 -2.8480 0.9588
-7.9448 6.2740 -2.8483 0.9588
-9.8204 4.1642 -3.0012 0.9566
-10.4036 2.3572 -3.0013 0.9566
-10.6570 0.4752 -3.0014 0.9566
-10.6570 -0.4752 -3.0014 0.9566
-10.4036 -2.3571 -3.0013 0.9566
-10.1523 -3.2737 -3.0012 0.9566
-9.8203 -4.1641 -3.0012 0.9566
-8.9257 -5.8389 -3.0009 0.9566
-8.3702 -6.6098 -3.0008 0.9566
-7.0648 -7.9882 -3.0004 0.9567
-5.5358 -9.1131 -3.0000 0.9567
-4.7023 -9.5689 -2.9998 0.9567
-2.9308 -10.2495 -2.9993 0.9567
-2.0067 -10.4688 -2.9991 0.9567
-1.0669 -10.6050 -2.9989 0.9567
-0.1187 -10.6570 -2.9986 0.9567
0.8302 -10.6244 -2.9984 0.9567
1.6455 -6.2809 -1.8268 0.9734
2.2174 -6.1635 -1.8430 0.9731
4.4844 -9.6635 -2.9974 0.9567
5.3263 -9.2254 -2.9972 0.9567
7.5729 -7.4889 -2.9966 0.9567
8.2089 -6.7848 -2.9964 0.9567
9.2810 -5.2213 -2.9961 0.9567
10.0591 -3.4929 -2.9959 0.9567
10.6239 -0.7112 -2.9958 0.9567
10.6451 0.2372 -2.9958 0.9567
10.4345 2.1209 -2.9959 0.9567
9.8937 3.9376 -2.9960 0.9567
8.5800 5.3437 -2.8439 0.9589
8.0707 6.0864 -2.8441 0.9589
6.8645 7.4218 -2.8444 0.9589
5.4405 8.5224 -2.8448 0.9589
4.6607 8.9735 -2.8450 0.9589
0.3380 10.1101 -2.8461 0.9588
-1.4601 10.0115 -2.8466 0.9588
-2.3456 9.8426 -2.8468 0.9588
-3.2126 9.5955 -2.8470 0.9588
-4.0542 9.2722 -2.8473 0.9588
-4.8637 8.8752 -2.8475 0.9588
-5.6348 8.4077 -2.8477 0.9588
-7.6573 6.6215 -2.8482 0.9588
-8.2166 5.9140 -2.8484 0.9588
-9.9963 3.7227 -3.0012 0.9566
-10.4984 1.8914 -3.0013 0.9566
-8.6242 -5.1081 -3.0008 0.9590
-7.5812 -6.5557 -3.0006 0.9590
-6.9672 -7.2040 -3.0004 0.9590
-6.2980 -7.7951 -3.0002 0.9590
-5.5789 -8.3242 -3.0000 0.9590
-4.0140 -9.1802 -2.9996 0.9590
-0.5576 -10.0008 -2.9987 0.9590
1.2242 -9.9397 -2.9983 0.9590
2.9667 -9.5637 -2.9978 0.9591
6.1162 -7.9249 -2.9970 0.9591
6.7968 -7.3486 -2.9968 0.9591
7.4235 -6.7141 -2.9966 0.9591
7.9913 -6.0265 -2.9965 0.9591
8.9325 -4.5137 -2.9962 0.9591
9.2985 -3.7007 -2.9961 0.9591
9.5907 -2.8583 -2.9961 0.9591
9.8069 -1.9933 -2.9960 0.9591
10.0047 -0.2229 -2.9960 0.9591
9.9849 0.6684 -2.9960 0.9591
9.8859 1.5545 -2.9960 0.9591
9.7084 2.4283 -2.9960 0.9591
9.4540 3.2828 -2.9961 0.9591
7.3230 6.0527 -2.8443 0.9611
6.7556 6.6808 -2.8444 0.9611
6.1345 7.2559 -2.8446 0.9611
5.4647 7.7737 -2.8448 0.9611
4.0003 8.6205 -2.8452 0.9611
3.2174 8.9430 -2.8454 0.9611
1.5811 9.3732 -2.8458 0.9611
0.7406 9.4775 -2.8460 0.9611
-0.1059 9.5065 -2.8462 0.9611
-0.9517 9.4601 -2.8465 0.9611
-3.4180 8.8746 -2.8471 0.9611
-6.3018 7.1256 -2.8479 0.9611
-7.4662 5.8960 -2.8482 0.9611
-7.9617 5.2083 -2.8483 0.9611
-9.2287 3.9133 -3.0010 0.9590
-9.9353 1.3362 -3.0012 0.9590
-10.0148 -0.4466 -3.0012 0.9590
-9.9352 -1.3361 -3.0012 0.9590
-9.7767 -2.2151 -3.0011 0.9590
-9.2286 -3.9132 -3.0010 0.9590
-8.8434 -4.7189 -3.0009 0.9590
-7.8659 -6.2116 -3.0006 0.9590
-5.2023 -8.5642 -2.9999 0.9590
-4.4191 -8.9926 -2.9997 0.9590
-3.6009 -9.3496 -2.9995 0.9590
-2.7543 -9.6323 -2.9993 0.9590
0.7802 -9.9848 -2.9984 0.9590
1.6657 -9.8749 -2.9981 0.9590
4.2145 -9.0820 -2.9975 0.9591
7.1173 -7.0384 -2.9967 0.9591
7.7151 -6.3766 -2.9966 0.9591
8.2516 -5.6644 -2.9964 0.9591
8.7227 -4.9072 -2.9963 0.9591
9.4539 -3.2827 -2.9961 0.9591
9.8859 -1.5545 -2.9960 0.9591
9.9849 -0.6684 -2.9960 0.9591
10.0047 0.2230 -2.9960 0.9591
9.8069 1.9933 -2.9960 0.9591
9.5907 2.8584 -2.9961 0.9591
9.2985 3.7007 -2.9962 0.9591
12.6561 6.3955 -4.2453 0.9425
7.0463 6.3730 -2.8444 0.9611
6.4515 6.9753 -2.8445 0.9611
3.6125 8.7905 -2.8453 0.9611
2.8160 9.0778 -2.8455 0.9611
1.9970 9.2931 -2.8457 0.9611
0.3177 9.5014 -2.8461 0.9611
-0.5293 9.4928 -2.8463 0.9611
-2.2044 9.2499 -2.8468 0.9611
-3.0191 9.0177 -2.8470 0.9611
-3.8100 8.7138 -2.8472 0.9611
-5.2954 7.9013 -2.8476 0.9611
-5.9780 7.3990 -2.8478 0.9611
-8.1860 4.8486 -2.8483 0.9611
-9.0450 4.3205 -3.0010 0.9590
-9.3940 3.4984 -3.0011 0.9590
-9.6683 2.6484 -3.0011 0.9590
-9.8658 1.7774 -3.0012 0.9590
-9.9849 0.8923 -3.0012 0.9590
-9.4497 0.0000 -3.0011 0.9611
-9.2998 -1.6754 -3.0010 0.9611
-8.8550 -3.2976 -3.0009 0.9611
-8.5261 -4.0726 -3.0008 0.9611
-8.1295 -4.8151 -3.0007 0.9611
-7.6684 -5.5193 -3.0006 0.9611
-6.5676 -6.7909 -3.0003 0.9611
-4.5394 -8.2833 -2.9998 0.9611
-2.9984 -8.9557 -2.9994 0.9611
0.3155 -9.4362 -2.9985 0.9611
1.9833 -9.2295 -2.9981 0.9612
4.3503 -8.3758 -2.9974 0.9612
5.0782 -7.9549 -2.9972 0.9612
5.7657 -7.4709 -2.9971 0.9612
6.9983 -6.3295 -2.9967 0.9612
8.0089 -4.9880 -2.9965 0.9612
8.4208 -4.2552 -2.9964 0.9612
8.7659 -3.4887 -2.9963 0.9612
9.2452 -1.8791 -2.9962 0.9612
9.3756 -1.0488 -2.9961 0.9612
8.9125 3.0947 -2.9963 0.9612
8.6019 3.8759 -2.9963 0.9612
7.3836 5.0686 -2.8443 0.9631
6.3686 6.2980 -2.8445 0.9631
5.7830 6.8403 -2.8447 0.9631
3.0331 8.4305 -2.8454 0.9631
1.4904 8.8360 -2.8458 0.9631
-0.0998 8.9616 -2.8462 0.9631
-0.8971 8.9178 -2.8464 0.9631
-1.6874 8.8032 -2.8466 0.9631
-3.9540 8.0463 -2.8472 0.9631
-5.9404 6.7170 -2.8478 0.9631
-6.5150 6.1619 -2.8479 0.9631
-7.0379 5.5578 -2.8480 0.9631
-7.5050 4.9096 -2.8482 0.9631
-8.3362 4.4484 -3.0008 0.9611
-8.6993 3.6888 -3.0009 0.9611
-9.3653 1.2595 -3.0010 0.9611
-9.3653 -1.2595 -3.0010 0.9611
-9.2159 -2.0880 -3.0010 0.9611
-8.9933 -2.8999 -3.0009 0.9611
-8.3361 -4.4482 -3.0008 0.9611
-7.4148 -5.8553 -3.0005 0.9611
-6.8638 -6.4917 -3.0004 0.9611
-3.3945 -8.8135 -2.9995 0.9611
-2.5964 -9.0800 -2.9993 0.9611
-0.9452 -9.3952 -2.9988 0.9611
0.7355 -9.4125 -2.9984 0.9612
4.7190 -8.1734 -2.9973 0.9612
5.4274 -7.7205 -2.9972 0.9612
6.7095 -6.6352 -2.9968 0.9612
7.2731 -6.0114 -2.9967 0.9612
8.2230 -4.6262 -2.9964 0.9612
8.6019 -3.8758 -2.9963 0.9612
8.9125 -3.0947 -2.9962 0.9612
9.1524 -2.2891 -2.9962 0.9612
9.4130 -0.6301 -2.9961 0.9612
9.4317 0.2102 -2.9961 0.9612
9.2452 1.8792 -2.9962 0.9612
9.0414 2.6946 -2.9962 0.9612
8.7659 3.4888 -2.9963 0.9612
11.9312 6.0291 -4.2455 0.9454
11.3476 7.0674 -4.2456 0.9454
7.1507 5.3926 -2.8443 0.9631
6.6426 6.0079 -2.8445 0.9631
5.4728 7.0913 -2.8448 0.9631
4.8202 7.5507 -2.8449 0.9631
2.6546 8.5576 -2.8455 0.9631
1.8825 8.7605 -2.8457 0.9631
0.2995 8.9568 -2.8461 0.9631
-3.5916 8.2141 -2.8471 0.9631
-4.3087 7.8624 -2.8473 0.9631
-4.9917 7.4482 -2.8475 0.9631
-6.2339 6.4458 -2.8478 0.9631
-6.7832 5.8657 -2.8480 0.9631
-8.5262 4.0726 -3.0008 0.9611
-9.2998 1.6755 -3.0010 0.9611
-9.4121 0.8411 -3.0011 0.9611
-8.9318 0.0000 -3.0009 0.9630
-8.6142 -2.3597 -3.0008 0.9630
-8.3698 -3.1169 -3.0008 0.9630
-8.0590 -3.8494 -3.0007 0.9630
-7.6841 -4.5512 -3.0006 0.9630
-7.2482 -5.2169 -3.0005 0.9630
-6.2078 -6.4188 -3.0002 0.9630
-5.6116 -6.9455 -3.0000 0.9630
-4.9708 -7.4170 -2.9999 0.9630
-4.2907 -7.8295 -2.9997 0.9630
-3.5766 -8.1798 -2.9995 0.9630
-2.8342 -8.4651 -2.9993 0.9630
-1.2882 -8.8323 -2.9989 0.9630
1.8747 -8.7242 -2.9981 0.9630
6.0568 -6.5485 -2.9970 0.9631
6.6153 -5.9831 -2.9968 0.9631
7.1212 -5.3704 -2.9967 0.9631
8.2862 -3.2978 -2.9964 0.9631
8.8626 -0.9914 -2.9963 0.9631
8.6516 2.1639 -2.9963 0.9631
8.4248 2.9254 -2.9964 0.9631
8.1312 3.6638 -2.9965 0.9631
6.0200 5.9534 -2.8446 0.9649
5.4665 6.4659 -2.8448 0.9649
4.2340 7.3335 -2.8451 0.9649
3.5647 7.6817 -2.8453 0.9649
2.8670 7.9691 -2.8454 0.9649
2.1465 8.1931 -2.8456 0.9649
1.4088 8.3522 -2.8458 0.9649
-0.0944 8.4709 -2.8462 0.9649
-0.8480 8.4294 -2.8464 0.9649
-4.3998 7.2431 -2.8474 0.9649
-5.0273 6.8231 -2.8475 0.9649
-5.6150 6.3490 -2.8477 0.9649
-6.1581 5.8243 -2.8478 0.9649
-6.6523 5.2533 -2.8479 0.9649
-7.2628 4.7511 -2.9159 0.9640
-8.2226 3.4867 -3.0007 0.9630
-8.7109 1.9737 -3.0009 0.9630
-8.8521 -1.1905 -3.0009 0.9630
-8.7109 -1.9736 -3.0009 0.9630
-8.5005 -2.7410 -3.0008 0.9630
-8.2226 -3.4867 -3.0007 0.9630
-7.4736 -4.8889 -3.0005 0.9630
-6.4878 -6.1361 -3.0003 0.9630
-5.9156 -6.6888 -3.0001 0.9630
-5.2965 -7.1884 -3.0000 0.9630
-4.6354 -7.6308 -2.9998 0.9630
-3.2085 -8.3308 -2.9994 0.9630
-1.6804 -8.7665 -2.9990 0.9630
-0.0994 -8.9243 -2.9986 0.9630
0.6952 -8.8971 -2.9984 0.9630
3.0205 -8.3956 -2.9978 0.9630
4.4607 -7.7261 -2.9974 0.9631
6.8751 -5.6824 -2.9968 0.9631
8.8097 -1.3853 -2.9963 0.9631
8.8980 -0.5956 -2.9963 0.9631
8.9157 0.1987 -2.9963 0.9631
8.8627 0.9915 -2.9963 0.9631
8.7393 1.7763 -2.9963 0.9631
7.9601 4.0224 -2.9965 0.9631
6.7593 5.0975 -2.8444 0.9649
5.7490 6.2158 -2.8447 0.9649
4.5563 7.1374 -2.8450 0.9649
3.9032 7.5151 -2.8452 0.9649
2.5093 8.0891 -2.8455 0.9649
1.7795 8.2809 -2.8457 0.9649
1.0354 8.4070 -2.8459 0.9649
0.2831 8.4664 -2.8461 0.9649
-0.4716 8.4586 -2.8463 0.9649
-1.2227 8.3836 -2.8465 0.9649
-1.9642 8.2420 -2.8467 0.9649
-2.6901 8.0351 -2.8469 0.9649
-4.7182 7.0402 -2.8474 0.9649
-5.8924 6.0927 -2.8477 0.9649
-6.4116 5.5443 -2.8479 0.9649
-7.6841 4.5514 -3.0006 0.9630
-8.3698 3.1170 -3.0008 0.9630
-8.6142 2.3597 -3.0008 0.9630
-8.7902 1.5837 -3.0009 0.9630
-6.4002 -5.5344 -3.0003 0.9647
-5.3170 -6.5809 -3.0000 0.9647
-4.0655 -7.4186 -2.9996 0.9647
-2.6854 -8.0209 -2.9993 0.9647
-1.9607 -8.2276 -2.9991 0.9647
-1.2206 -8.3688 -2.9989 0.9647
-0.4708 -8.4438 -2.9987 0.9647
0.2826 -8.4516 -2.9985 0.9647
1.0336 -8.3923 -2.9983 0.9647
1.7764 -8.2665 -2.9981 0.9648
2.5049 -8.0751 -2.9979 0.9648
3.2135 -7.8196 -2.9977 0.9648
3.8965 -7.5021 -2.9976 0.9648
5.1644 -6.6916 -2.9972 0.9648
6.7478 -5.0888 -2.9968 0.9648
7.1737 -4.4678 -2.9967 0.9648
8.0986 -2.4136 -2.9965 0.9648
7.9831 2.7720 -2.9965 0.9648
6.1835 5.1108 -2.8446 0.9665
5.1799 6.1268 -2.8448 0.9665
4.6142 6.5638 -2.8450 0.9665
4.0119 6.9489 -2.8451 0.9665
3.3777 7.2788 -2.8453 0.9665
2.7166 7.5510 -2.8455 0.9665
2.0339 7.7634 -2.8457 0.9665
-0.0894 8.0264 -2.8462 0.9665
-2.2072 7.7191 -2.8468 0.9665
-2.8857 7.4925 -2.8470 0.9665
-3.5413 7.2063 -2.8471 0.9665
-4.7634 6.4650 -2.8474 0.9665
-5.8348 5.5186 -2.8477 0.9665
-7.7909 3.3037 -3.0006 0.9647
-8.2535 1.8700 -3.0008 0.9647
-8.4544 0.3770 -3.0008 0.9647
-8.4544 -0.3770 -3.0008 0.9647
-8.3873 -1.1280 -3.0008 0.9647
-8.2535 -1.8700 -3.0007 0.9647
-8.0541 -2.5971 -3.0007 0.9647
-7.4657 -3.9837 -3.0005 0.9647
-6.1472 -5.8139 -3.0002 0.9647
-5.0185 -6.8111 -2.9999 0.9647
-3.7309 -7.5921 -2.9996 0.9647
-1.5922 -8.3064 -2.9990 0.9647
1.4064 -8.3377 -2.9982 0.9648
2.1428 -8.1789 -2.9980 0.9648
2.8621 -7.9552 -2.9978 0.9648
4.8613 -6.9152 -2.9973 0.9648
5.4572 -6.4547 -2.9971 0.9648
6.0097 -5.9431 -2.9970 0.9648
6.9677 -4.7830 -2.9968 0.9648
7.9831 -2.7720 -2.9965 0.9648
8.1980 -2.0504 -2.9964 0.9648
8.3478 -1.3126 -2.9964 0.9648
8.4315 -0.5644 -2.9964 0.9648
8.4482 0.1883 -2.9964 0.9648
8.2811 1.6832 -2.9964 0.9648
8.0986 2.4137 -2.9965 0.9648
9.5608 7.2102 -4.2461 0.9504
5.9498 5.3813 -2.8446 0.9665
5.4475 5.8898 -2.8448 0.9665
4.9019 6.3516 -2.8449 0.9665
3.6985 7.1209 -2.8452 0.9665
0.9811 7.9659 -2.8459 0.9665
-1.1585 7.9437 -2.8465 0.9665
-1.8611 7.8095 -2.8467 0.9665
-2.5490 7.6133 -2.8469 0.9665
-3.2167 7.3567 -2.8470 0.9665
-3.8589 7.0417 -2.8472 0.9665
-5.0468 6.2465 -2.8475 0.9665
-5.5830 5.7729 -2.8477 0.9665
-6.0750 5.2533 -2.8478 0.9665
-6.6054 4.7543 -2.8858 0.9660
-7.9304 2.9534 -3.0007 0.9647
-8.1619 2.2358 -3.0007 0.9647
-8.3287 1.5005 -3.0008 0.9647
-8.4292 0.7533 -3.0008 0.9647
-8.0040 -0.7152 -3.0007 0.9663
-6.9134 -4.0948 -3.0004 0.9663
-6.5213 -4.6937 -3.0003 0.9663
-6.0774 -5.2553 -3.0002 0.9663
-5.5853 -5.7751 -3.0000 0.9663
-4.4724 -6.6733 -2.9997 0.9663
-3.2180 -7.3597 -2.9994 0.9663
-2.5500 -7.6164 -2.9992 0.9663
-1.8619 -7.8127 -2.9991 0.9663
-1.1590 -7.9469 -2.9989 0.9663
-0.4471 -8.0181 -2.9987 0.9663
0.2683 -8.0255 -2.9985 0.9663
1.6868 -7.8498 -2.9981 0.9663
3.0515 -7.4255 -2.9978 0.9663
4.9041 -6.3544 -2.9973 0.9663
5.4500 -5.8924 -2.9972 0.9663
5.9525 -5.3837 -2.9970 0.9663
6.8123 -4.2427 -2.9968 0.9663
7.4562 -2.9675 -2.9966 0.9663
7.6906 -2.2920 -2.9966 0.9663
7.8639 -1.5984 -2.9965 0.9663
7.9749 -0.8921 -2.9965 0.9663
7.9273 1.2466 -2.9965 0.9663
7.7850 1.9472 -2.9966 0.9663
7.5809 2.6324 -2.9966 0.9663
7.3167 3.2968 -2.9967 0.9663
6.9944 3.9351 -2.9968 0.9663
5.4169 5.3569 -2.8448 0.9680
4.9188 5.8181 -2.8449 0.9680
4.3817 6.2331 -2.8451 0.9680
3.8097 6.5987 -2.8452 0.9680
-1.4351 7.4869 -2.8466 0.9680
-2.7402 7.1147 -2.8469 0.9680
-3.3627 6.8430 -2.8471 0.9680
-3.9586 6.5168 -2.8472 0.9680
-5.0519 5.7123 -2.8475 0.9680
-5.5405 5.2402 -2.8476 0.9680
-6.0225 4.7559 -2.8655 0.9678
-6.7240 4.3987 -3.0004 0.9663
-7.0891 3.7829 -3.0005 0.9663
-7.6479 2.4661 -3.0006 0.9663
-7.8371 1.7757 -3.0006 0.9663
-7.9642 1.0711 -3.0007 0.9663
-8.0279 -0.3580 -3.0007 0.9663
-7.9641 -1.0710 -3.0007 0.9663
-7.6478 -2.4661 -3.0006 0.9663
-7.3978 -3.1369 -3.0005 0.9663
-7.0891 -3.7828 -3.0004 0.9663
-6.7240 -4.3987 -3.0003 0.9663
-6.3056 -4.9794 -3.0002 0.9663
-5.8371 -5.5207 -3.0001 0.9663
-3.5427 -7.2092 -2.9995 0.9663
-2.2081 -7.7222 -2.9992 0.9663
0.6256 -8.0054 -2.9984 0.9663
1.3355 -7.9174 -2.9982 0.9663
2.0348 -7.7667 -2.9980 0.9663
3.3792 -7.2819 -2.9977 0.9663
4.0137 -6.9519 -2.9975 0.9663
5.1822 -6.1295 -2.9972 0.9663
6.1863 -5.1131 -2.9970 0.9663
6.9944 -3.9350 -2.9967 0.9663
7.3167 -3.2967 -2.9967 0.9663
7.9273 -1.2465 -2.9965 0.9663
8.0226 0.1788 -2.9965 0.9663
7.6906 2.2921 -2.9966 0.9663
7.1627 3.6195 -2.9967 0.9663
6.8123 4.2428 -2.9968 0.9663
5.6500 5.1102 -2.8447 0.9680
5.1730 5.5930 -2.8448 0.9680
2.8965 7.0482 -2.8454 0.9680
1.6011 7.4510 -2.8458 0.9680
0.9316 7.5644 -2.8460 0.9680
-0.4244 7.6107 -2.8463 0.9680
-1.1001 7.5432 -2.8465 0.9680
-1.7673 7.4158 -2.8467 0.9680
-2.4204 7.2295 -2.8468 0.9680
-4.2451 6.3342 -2.8473 0.9680
-7.2507 3.4634 -3.0005 0.9663
-7.9085 1.4248 -3.0007 0.9663
-7.6454 0.0000 -3.0006 0.9677
-7.5242 -1.3555 -3.0006 0.9677
-7.1644 -2.6680 -3.0005 0.9677
-5.7821 -5.0000 -3.0001 0.9677
-5.3139 -5.4945 -3.0000 0.9677
-4.8036 -5.9454 -2.9998 0.9677
-4.2551 -6.3490 -2.9997 0.9677
-3.0617 -7.0022 -2.9994 0.9677
-2.4261 -7.2465 -2.9992 0.9677
-1.7714 -7.4332 -2.9990 0.9677
-0.4254 -7.6287 -2.9987 0.9677
0.2553 -7.6358 -2.9985 0.9677
0.9339 -7.5823 -2.9983 0.9677
1.6049 -7.4687 -2.9982 0.9677
2.2632 -7.2957 -2.9980 0.9677
4.1096 -6.4375 -2.9975 0.9677
5.1854 -5.6064 -2.9972 0.9677
6.0968 -4.5978 -2.9970 0.9677
6.8150 -3.4437 -2.9968 0.9677
7.3173 -2.1808 -2.9967 0.9677
7.4823 -1.5208 -2.9966 0.9677
7.4072 1.8527 -2.9966 0.9677
6.6550 3.7440 -2.9969 0.9677
8.3398 6.8930 -4.2464 0.9546
4.6801 5.5356 -2.8450 0.9693
4.1690 5.9305 -2.8451 0.9693
3.6248 6.2784 -2.8452 0.9693
3.0518 6.5764 -2.8454 0.9693
2.4545 6.8223 -2.8456 0.9693
1.8376 7.0141 -2.8457 0.9693
0.5649 7.2296 -2.8461 0.9693
-2.6070 6.7691 -2.8469 0.9693
-3.7663 6.2003 -2.8472 0.9693
-4.8064 5.4347 -2.8475 0.9693
-6.3973 4.1850 -3.0003 0.9677
-7.0384 2.9845 -3.0004 0.9677
-7.2762 2.3463 -3.0005 0.9677
-7.4563 1.6894 -3.0005 0.9677
-7.6378 0.3406 -3.0006 0.9677
-7.6378 -0.3406 -3.0006 0.9677
-7.2762 -2.3463 -3.0005 0.9677
-7.0383 -2.9845 -3.0004 0.9677
-6.7446 -3.5990 -3.0003 0.9677
-6.3973 -4.1849 -3.0003 0.9677
-5.5535 -5.2524 -3.0000 0.9677
-3.3706 -6.8590 -2.9995 0.9677
-2.7466 -7.1314 -2.9993 0.9677
-2.1009 -7.3472 -2.9991 0.9677
-0.0851 -7.6398 -2.9986 0.9677
1.9360 -7.3895 -2.9981 0.9677
3.2151 -6.9284 -2.9977 0.9677
3.8189 -6.6144 -2.9976 0.9677
4.9306 -5.8320 -2.9973 0.9677
5.4299 -5.3697 -2.9972 0.9677
6.2955 -4.3216 -2.9969 0.9677
6.6549 -3.7440 -2.9968 0.9677
6.9616 -3.1367 -2.9968 0.9677
7.2130 -2.5046 -2.9967 0.9677
7.4071 -1.8526 -2.9966 0.9677
7.6333 0.1701 -2.9966 0.9677
7.5879 0.8489 -2.9966 0.9677
7.4823 1.5209 -2.9966 0.9677
7.3173 2.1808 -2.9967 0.9677
7.0943 2.8235 -2.9967 0.9677
2.1482 6.9251 -2.8456 0.9693
0.8864 7.1971 -2.8460 0.9693
0.2423 7.2478 -2.8461 0.9693
-0.4038 7.2410 -2.8463 0.9693
-2.3029 6.8783 -2.8468 0.9693
-2.9061 6.6464 -2.8470 0.9693
-4.5595 5.6433 -2.8474 0.9693
-5.0439 5.2154 -2.8475 0.9693
-6.2044 4.4657 -3.0002 0.9677
-7.3736 2.0198 -3.0005 0.9677
-7.2866 0.0000 -3.0005 0.9690
-7.2577 -0.6485 -3.0005 0.9690
-7.0276 -1.9250 -3.0004 0.9690
-6.5746 -3.1404 -3.0003 0.9690
-5.9133 -4.2561 -3.0001 0.9690
-5.5108 -4.7654 -3.0000 0.9690
-4.5782 -5.6665 -2.9998 0.9690
-3.5006 -6.3878 -2.9995 0.9690
-2.3124 -6.9066 -2.9992 0.9690
-1.0510 -7.2064 -2.9989 0.9690
-0.4054 -7.2709 -2.9987 0.9690
2.1571 -6.9537 -2.9980 0.9690
2.7673 -6.7337 -2.9979 0.9690
3.3555 -6.4604 -2.9977 0.9690
4.4473 -5.7625 -2.9974 0.9690
5.8111 -4.3823 -2.9971 0.9690
6.1779 -3.8476 -2.9970 0.9690
6.4956 -3.2824 -2.9969 0.9690
6.9744 -2.0786 -2.9968 0.9690
7.1316 -1.4495 -2.9967 0.9690
7.2323 -0.8090 -2.9967 0.9690
7.2755 -0.1621 -2.9967 0.9690
7.1891 1.1304 -2.9967 0.9690
6.8749 2.3873 -2.9968 0.9690
3.9736 5.6525 -2.8452 0.9706
3.4549 5.9840 -2.8453 0.9706
2.9087 6.2681 -2.8454 0.9706
1.7514 6.6852 -2.8457 0.9705
1.1495 6.8149 -2.8459 0.9705
-0.0770 6.9116 -2.8462 0.9705
-0.6919 6.8777 -2.8464 0.9705
-1.3014 6.7892 -2.8465 0.9705
-1.9006 6.6467 -2.8467 0.9705
-3.0493 6.2051 -2.8470 0.9705
-3.5896 5.9094 -2.8471 0.9705
-4.1016 5.5667 -2.8473 0.9705
-4.5810 5.1798 -2.8474 0.9705
-5.7178 4.5153 -3.0001 0.9690
-7.1064 1.6101 -3.0005 0.9690
-7.2216 0.9712 -3.0005 0.9690
-7.2794 0.3246 -3.0005 0.9690
-6.9348 -2.2362 -3.0004 0.9690
-6.7081 -2.8445 -3.0003 0.9690
-4.8262 -5.4570 -2.9998 0.9690
-4.3212 -5.8647 -2.9997 0.9690
-2.6178 -6.7969 -2.9993 0.9690
-1.3710 -7.1526 -2.9989 0.9690
1.8452 -7.0431 -2.9981 0.9690
2.4646 -6.8505 -2.9979 0.9690
3.6398 -6.3043 -2.9976 0.9690
4.1863 -5.9551 -2.9975 0.9690
5.6102 -4.6369 -2.9971 0.9690
6.3430 -3.5685 -2.9969 0.9690
6.6353 -2.9897 -2.9968 0.9690
6.8749 -2.3872 -2.9968 0.9690
7.0600 -1.7658 -2.9967 0.9690
7.2611 -0.4860 -2.9967 0.9690
7.2756 0.1622 -2.9967 0.9690
7.2323 0.8091 -2.9967 0.9690
6.7618 2.6912 -2.9968 0.9690
8.2335 6.2092 -4.2464 0.9564
4.6912 5.0721 -2.8450 0.9706
4.2213 5.4697 -2.8451 0.9706
3.1849 6.1321 -2.8454 0.9706
2.6266 6.3916 -2.8455 0.9705
1.4519 6.7568 -2.8458 0.9705
0.2310 6.9080 -2.8461 0.9705
-0.9976 6.8402 -2.8465 0.9705
-1.6026 6.7247 -2.8466 0.9705
-2.1948 6.5557 -2.8468 0.9705
-4.8072 4.9707 -2.8475 0.9705
-5.4731 4.7328 -2.9795 0.9692
-5.9133 4.2562 -3.0001 0.9690
-6.2689 3.7131 -3.0002 0.9690
-6.5747 3.1404 -3.0003 0.9690
-6.8282 2.5429 -3.0004 0.9690
-7.0276 1.9251 -3.0004 0.9690
-7.2577 0.6486 -3.0005 0.9690
-6.9557 0.0000 -3.0004 0.9702
-6.9281 -0.6191 -3.0004 0.9702
-6.8455 -1.2333 -3.0004 0.9702
-6.7084 -1.8376 -3.0003 0.9702
-6.5181 -2.4273 -3.0003 0.9702
-6.2761 -2.9978 -3.0002 0.9702
-5.9842 -3.5444 -3.0002 0.9702
-4.8347 -4.9990 -2.9998 0.9702
-3.3417 -6.0979 -2.9995 0.9702
-2.2074 -6.5931 -2.9992 0.9702
-0.3870 -6.9409 -2.9987 0.9702
0.2323 -6.9474 -2.9985 0.9702
2.0592 -6.6382 -2.9980 0.9702
2.6417 -6.4282 -2.9979 0.9702
3.2032 -6.1673 -2.9977 0.9702
4.2456 -5.5011 -2.9975 0.9702
4.7182 -5.1012 -2.9973 0.9702
5.5475 -4.1835 -2.9971 0.9702
5.8976 -3.6730 -2.9970 0.9702
6.4551 -2.5690 -2.9969 0.9702
6.6581 -1.9843 -2.9968 0.9702
6.9042 -0.7724 -2.9968 0.9702
6.9318 0.4640 -2.9968 0.9702
6.5631 2.2790 -2.9969 0.9702
6.0553 3.4067 -2.9970 0.9702
7.5883 6.2719 -4.2466 0.9580
7.0002 6.9227 -4.2468 0.9580
3.2981 5.7125 -2.8453 0.9717
2.2332 6.2074 -2.8456 0.9717
0.5140 6.5779 -2.8461 0.9717
-0.0735 6.5979 -2.8462 0.9717
-0.6605 6.5655 -2.8464 0.9717
-2.9109 5.9235 -2.8470 0.9717
-3.4267 5.6411 -2.8471 0.9717
-4.3730 4.9446 -2.8473 0.9717
-5.0039 4.7326 -2.9709 0.9704
-5.4582 4.3103 -3.0000 0.9702
-6.1363 3.2744 -3.0002 0.9702
-6.4035 2.7153 -3.0003 0.9702
-6.6199 2.1347 -3.0003 0.9702
-6.7837 1.5370 -3.0004 0.9702
-6.8936 0.9271 -3.0004 0.9702
-6.9488 -0.3099 -3.0004 0.9702
-6.8936 -0.9271 -3.0004 0.9702
-6.6199 -2.1346 -3.0003 0.9702
-6.1362 -3.2744 -3.0002 0.9702
-5.8203 -3.8074 -3.0001 0.9702
-5.4581 -4.3102 -3.0000 0.9702
-5.0527 -4.7787 -2.9999 0.9702
-4.6071 -5.2093 -2.9998 0.9702
-4.1250 -5.5984 -2.9997 0.9702
-3.6101 -5.9431 -2.9995 0.9702
-1.3088 -6.8279 -2.9989 0.9702
-0.6959 -6.9170 -2.9988 0.9702
0.5415 -6.9300 -2.9984 0.9702
1.1561 -6.8539 -2.9983 0.9702
2.3528 -6.5397 -2.9980 0.9702
3.4747 -6.0183 -2.9977 0.9702
3.9964 -5.6849 -2.9975 0.9702
4.4863 -5.3064 -2.9974 0.9702
4.9406 -4.8859 -2.9973 0.9702
5.7282 -3.9321 -2.9971 0.9702
6.0553 -3.4066 -2.9970 0.9702
6.3343 -2.8541 -2.9969 0.9702
6.5631 -2.2789 -2.9969 0.9702
6.8630 -1.0791 -2.9968 0.9702
6.9043 0.7724 -2.9968 0.9702
6.6581 1.9843 -2.9968 0.9702
6.4551 2.5691 -2.9969 0.9702
7.3015 6.6038 -4.2467 0.9580
4.0298 5.2216 -2.8451 0.9717
3.5492 5.5598 -2.8453 0.9717
0.8065 6.5483 -2.8460 0.9717
-0.9523 6.5297 -2.8464 0.9717
-2.0952 6.2581 -2.8467 0.9717
-4.6020 4.7584 -2.8555 0.9716
-5.9842 3.5445 -3.0002 0.9702
-6.2761 2.9979 -3.0002 0.9702
-6.5182 2.4274 -3.0003 0.9702
-6.7085 1.8376 -3.0003 0.9702
-6.8455 1.2333 -3.0004 0.9702
-6.6494 0.0000 -3.0003 0.9712
-6.6230 -0.5918 -3.0003 0.9712
-6.2311 -2.3205 -3.0002 0.9712
-5.9997 -2.8658 -3.0002 0.9712
-4.6218 -4.7789 -2.9998 0.9712
-2.6630 -6.0903 -2.9993 0.9713
-2.1102 -6.3029 -2.9991 0.9713
-0.9592 -6.5765 -2.9988 0.9713
0.2221 -6.6417 -2.9985 0.9713
1.3960 -6.4964 -2.9982 0.9713
3.0623 -5.8959 -2.9978 0.9713
3.5747 -5.5997 -2.9976 0.9713
4.0588 -5.2591 -2.9975 0.9713
4.9266 -4.4558 -2.9973 0.9713
5.3034 -3.9995 -2.9972 0.9713
6.1712 -2.4561 -2.9970 0.9713
6.3652 -1.8970 -2.9969 0.9713
6.5087 -1.3229 -2.9969 0.9713
6.6006 -0.7384 -2.9969 0.9713
6.6401 -0.1479 -2.9968 0.9713
6.4433 1.6116 -2.9969 0.9713
6.2744 2.1787 -2.9969 0.9713
6.0557 2.7286 -2.9970 0.9713
5.7890 3.2569 -2.9971 0.9713
5.4763 3.7593 -2.9972 0.9713
6.6923 6.6182 -4.2468 0.9595
6.0769 7.1878 -4.2470 0.9595
3.6264 5.1586 -2.8452 0.9727
3.1530 5.4612 -2.8454 0.9727
2.6545 5.7204 -2.8455 0.9727
1.5984 6.1010 -2.8458 0.9727
1.0491 6.2194 -2.8459 0.9727
0.4914 6.2884 -2.8461 0.9727
-0.0703 6.3075 -2.8462 0.9727
-1.7344 6.0657 -2.8467 0.9727
-2.7827 5.6627 -2.8469 0.9727
-3.2758 5.3928 -2.8471 0.9727
-3.7430 5.0800 -2.8472 0.9727
-4.2017 4.7507 -2.8616 0.9726
-5.5640 3.6398 -3.0001 0.9712
-6.1215 2.5958 -3.0002 0.9712
-6.5901 0.8863 -3.0003 0.9712
-6.6428 0.2962 -3.0003 0.9712
-6.6428 -0.2962 -3.0003 0.9712
-6.5901 -0.8862 -3.0003 0.9712
-6.4850 -1.4693 -3.0003 0.9712
-6.1215 -2.5957 -3.0002 0.9712
-5.8660 -3.1302 -3.0001 0.9712
-5.2178 -4.1204 -2.9999 0.9712
-4.8302 -4.5683 -2.9998 0.9712
-3.4512 -5.6814 -2.9995 0.9712
-2.9317 -5.9658 -2.9993 0.9713
-2.3890 -6.2027 -2.9992 0.9713
-1.8273 -6.3905 -2.9991 0.9713
-0.0740 -6.6452 -2.9986 0.9713
0.5177 -6.6250 -2.9984 0.9713
1.6840 -6.4276 -2.9981 0.9713
2.2493 -6.2519 -2.9980 0.9713
3.3218 -5.7535 -2.9977 0.9713
3.8205 -5.4347 -2.9976 0.9713
4.2889 -5.0729 -2.9975 0.9713
4.7233 -4.6709 -2.9973 0.9713
5.1201 -4.2318 -2.9972 0.9713
5.7889 -3.2568 -2.9971 0.9713
6.0557 -2.7285 -2.9970 0.9713
6.4433 -1.6116 -2.9969 0.9713
6.5611 -1.0317 -2.9969 0.9713
6.6269 -0.4436 -2.9969 0.9713
6.6401 0.1480 -2.9968 0.9713
6.6006 0.7384 -2.9969 0.9713
6.5087 1.3230 -2.9969 0.9713
6.1712 2.4561 -2.9970 0.9713
5.9282 2.9957 -2.9970 0.9713
5.3034 3.9995 -2.9972 0.9713
3.8525 4.9919 -2.8452 0.9727
2.3971 5.8331 -2.8456 0.9727
-0.9104 6.2423 -2.8464 0.9727
-2.0030 5.9826 -2.8467 0.9727
-3.9698 4.9136 -2.8503 0.9727
-5.3963 3.8840 -3.0000 0.9712
-5.7207 3.3884 -3.0001 0.9712
-6.4130 1.7567 -3.0003 0.9712
-6.5440 1.1790 -3.0003 0.9712
-6.1386 -1.6815 -3.0002 0.9722
-5.4759 -3.2434 -3.0000 0.9722
-4.8138 -4.1626 -2.9998 0.9723
-4.4241 -4.5744 -2.9997 0.9723
-3.5426 -5.2859 -2.9995 0.9723
-3.0580 -5.5800 -2.9994 0.9723
-2.0200 -6.0333 -2.9991 0.9723
-0.9181 -6.2952 -2.9988 0.9723
-0.3542 -6.3516 -2.9987 0.9723
3.4219 -5.3603 -2.9977 0.9723
3.8853 -5.0342 -2.9976 0.9723
5.3972 -3.3614 -2.9972 0.9723
5.9074 -2.3511 -2.9970 0.9723
6.3562 -0.1416 -2.9969 0.9723
6.3436 0.4247 -2.9969 0.9723
6.2807 0.9876 -2.9969 0.9723
6.1679 1.5428 -2.9970 0.9723
5.7969 2.6120 -2.9971 0.9723
5.2422 3.5986 -2.9972 0.9723
6.4062 6.3352 -4.2469 0.9609
5.8171 6.8805 -4.2471 0.9609
3.4713 4.9381 -2.8453 0.9737
2.5410 5.4758 -2.8455 0.9737
2.0437 5.6805 -2.8457 0.9737
1.0042 5.9534 -2.8459 0.9737
-0.0673 6.0378 -2.8462 0.9737
-1.1368 5.9307 -2.8465 0.9736
-2.1706 5.6358 -2.8468 0.9736
-4.1820 4.7288 -2.9757 0.9725
-4.6235 4.3729 -2.9998 0.9723
-4.9946 3.9442 -2.9999 0.9722
-5.3259 3.4841 -3.0000 0.9722
-5.6151 2.9963 -3.0001 0.9722
-5.8596 2.4847 -3.0001 0.9722
-6.0576 1.9533 -3.0002 0.9722
-6.2075 1.4065 -3.0002 0.9722
-6.3586 -0.2835 -3.0003 0.9722
-6.3081 -0.8483 -3.0002 0.9722
-6.0576 -1.9533 -3.0002 0.9722
-5.8596 -2.4846 -3.0001 0.9722
-5.6150 -2.9962 -3.0001 0.9722
-4.9946 -3.9441 -2.9999 0.9722
-4.6235 -4.3729 -2.9998 0.9723
-3.7747 -5.1229 -2.9996 0.9723
-3.3036 -5.4384 -2.9994 0.9723
-1.1977 -6.2482 -2.9989 0.9723
1.0580 -6.2721 -2.9983 0.9723
3.1798 -5.5075 -2.9977 0.9723
3.6572 -5.2024 -2.9976 0.9723
4.1056 -4.8561 -2.9975 0.9723
4.5213 -4.4712 -2.9974 0.9723
4.9012 -4.0509 -2.9973 0.9723
5.2421 -3.5985 -2.9972 0.9723
6.0062 -2.0856 -2.9970 0.9723
6.2305 1.2664 -2.9970 0.9723
5.9074 2.3511 -2.9970 0.9723
5.6748 2.8676 -2.9971 0.9723
3.2480 5.0879 -2.8453 0.9737
2.7824 5.3571 -2.8455 0.9737
1.2684 5.9026 -2.8459 0.9737
0.7380 5.9924 -2.8460 0.9737
-1.3999 5.8744 -2.8466 0.9736
-1.9173 5.7267 -2.8467 0.9736
-2.4195 5.5336 -2.8468 0.9736
-2.9026 5.2965 -2.8470 0.9736
-3.3626 5.0174 -2.8471 0.9736
-4.8138 4.1627 -2.9999 0.9722
-5.1654 3.7178 -2.9999 0.9722
-6.1386 1.6816 -3.0002 0.9722
-6.3396 0.5665 -3.0003 0.9722
-6.0030 -1.0815 -3.0002 0.9732
-5.8829 -1.6115 -3.0001 0.9732
-5.7160 -2.1287 -3.0001 0.9732
-4.6133 -3.9893 -2.9998 0.9732
-4.2398 -4.3839 -2.9997 0.9732
-3.3951 -5.0658 -2.9995 0.9732
-2.9306 -5.3476 -2.9993 0.9732
-1.9358 -5.7820 -2.9991 0.9732
-1.4135 -5.9311 -2.9989 0.9732
-0.8799 -6.0331 -2.9988 0.9732
-0.3394 -6.0872 -2.9987 0.9732
0.7452 -6.0503 -2.9984 0.9732
1.2807 -5.9597 -2.9982 0.9732
2.3169 -5.6377 -2.9980 0.9732
3.2795 -5.1372 -2.9977 0.9732
5.1726 -3.2215 -2.9972 0.9732
5.6616 -2.2532 -2.9971 0.9732
5.8395 -1.7404 -2.9971 0.9732
5.7563 1.9988 -2.9971 0.9732
5.0240 3.4488 -2.9973 0.9732
4.6972 3.8824 -2.9974 0.9732
6.1395 6.0715 -4.2470 0.9622
1.4663 5.5970 -2.8458 0.9745
0.9624 5.7056 -2.8459 0.9745
-1.0895 5.6838 -2.8465 0.9745
-2.5528 5.1947 -2.8469 0.9745
-4.0402 4.5684 -2.9997 0.9732
-4.4310 4.1908 -2.9998 0.9732
-5.1041 3.3390 -2.9999 0.9732
-5.3812 2.8715 -3.0000 0.9732
-5.6155 2.3812 -3.0001 0.9732
-6.0453 0.8131 -3.0002 0.9732
-6.0937 0.2718 -3.0002 0.9732
-6.0937 -0.2717 -3.0002 0.9732
-6.0453 -0.8130 -3.0002 0.9732
-5.9489 -1.3478 -3.0001 0.9732
-5.8052 -1.8719 -3.0001 0.9732
-5.3812 -2.8715 -3.0000 0.9732
-4.4310 -4.1908 -2.9997 0.9732
-1.6763 -5.8624 -2.9990 0.9732
-1.1478 -5.9880 -2.9989 0.9732
-0.0679 -6.0961 -2.9986 0.9732
1.0139 -6.0110 -2.9983 0.9732
1.5449 -5.8966 -2.9982 0.9732
2.5656 -5.5288 -2.9979 0.9732
3.0475 -5.2783 -2.9978 0.9732
3.9347 -4.6539 -2.9975 0.9732
4.3332 -4.2851 -2.9974 0.9732
5.0240 -3.4488 -2.9973 0.9732
5.7563 -1.9988 -2.9971 0.9732
6.0917 0.1358 -2.9970 0.9732
6.0555 0.6774 -2.9970 0.9732
5.9712 1.2137 -2.9970 0.9732
5.1726 3.2215 -2.9972 0.9732
4.5197 4.0879 -2.9974 0.9732
5.8631 6.3391 -4.2471 0.9622
3.1128 4.8761 -2.8454 0.9745
2.1991 5.3513 -2.8456 0.9745
0.7073 5.7429 -2.8460 0.9745
0.1934 5.7834 -2.8461 0.9745
-0.3222 5.7779 -2.8463 0.9745
-0.8352 5.7265 -2.8464 0.9745
-1.3416 5.6297 -2.8465 0.9745
-2.3187 5.3032 -2.8468 0.9745
-5.5038 2.6290 -3.0000 0.9732
-5.7160 2.1287 -3.0001 0.9732
-6.0755 0.5429 -3.0002 0.9732
-5.8520 0.0000 -3.0001 0.9740
-5.7592 -1.0375 -3.0001 0.9740
-5.6439 -1.5460 -3.0001 0.9740
-2.8116 -5.1305 -2.9993 0.9740
-2.3437 -5.3601 -2.9992 0.9740
-1.8572 -5.5472 -2.9991 0.9740
-1.3561 -5.6903 -2.9989 0.9740
0.7149 -5.8047 -2.9984 0.9741
1.2287 -5.7178 -2.9983 0.9741
1.7326 -5.5855 -2.9981 0.9741
2.6953 -5.1893 -2.9979 0.9741
3.5724 -4.6289 -2.9976 0.9741
3.9701 -4.2924 -2.9975 0.9741
4.6680 -3.5203 -2.9974 0.9741
4.9626 -3.0907 -2.9973 0.9741
5.8097 -0.6499 -2.9971 0.9741
5.6714 1.4185 -2.9971 0.9741
5.5227 1.9177 -2.9971 0.9741
5.3302 2.4017 -2.9972 0.9741
4.8201 3.3088 -2.9973 0.9741
4.5066 3.7248 -2.9974 0.9741
4.1573 4.1113 -2.9975 0.9741
5.3487 6.3265 -4.2472 0.9634
2.7751 4.8067 -2.8455 0.9754
2.3364 5.0349 -2.8456 0.9754
1.8791 5.2230 -2.8457 0.9754
1.4068 5.3698 -2.8458 0.9754
0.9233 5.4739 -2.8460 0.9754
-0.0618 5.5514 -2.8462 0.9754
-2.8884 4.7550 -2.8522 0.9753
-3.4705 4.7103 -2.9995 0.9740
-4.5921 3.6264 -2.9998 0.9740
-4.8968 3.2034 -2.9999 0.9740
-5.1626 2.7549 -2.9999 0.9740
-5.7997 0.7800 -3.0001 0.9740
-5.8461 -0.2607 -3.0001 0.9740
-5.7997 -0.7800 -3.0001 0.9740
-5.5694 -1.7959 -3.0000 0.9740
-4.5921 -3.6263 -2.9998 0.9740
-2.1025 -5.4591 -2.9991 0.9740
-1.6082 -5.6243 -2.9990 0.9740
-1.1012 -5.7449 -2.9989 0.9740
-0.5855 -5.8198 -2.9987 0.9741
0.4556 -5.8309 -2.9985 0.9741
0.9728 -5.7670 -2.9983 0.9741
1.4821 -5.6572 -2.9982 0.9741
1.9797 -5.5026 -2.9981 0.9741
2.4615 -5.3044 -2.9979 0.9741
4.1573 -4.1112 -2.9975 0.9741
4.5066 -3.7247 -2.9974 0.9741
4.8201 -3.3088 -2.9973 0.9741
5.5227 -1.9177 -2.9971 0.9741
5.6714 -1.4185 -2.9971 0.9741
5.7751 -0.9081 -2.9971 0.9741
5.8329 -0.3904 -2.9971 0.9741
5.8445 0.1303 -2.9971 0.9741
5.6026 1.6697 -2.9971 0.9741
5.2179 2.6368 -2.9972 0.9741
4.9627 3.0908 -2.9973 0.9741
4.6680 3.5204 -2.9974 0.9741
5.6251 6.0818 -4.2471 0.9634
2.5583 4.9257 -2.8455 0.9754
2.1099 5.1340 -2.8456 0.9754
1.6446 5.3017 -2.8458 0.9754
0.1855 5.5485 -2.8461 0.9754
-0.3091 5.5433 -2.8463 0.9754
-1.2871 5.4011 -2.8465 0.9754
-3.1733 4.7350 -2.9222 0.9747
-4.4260 3.8273 -2.9998 0.9740
-4.7492 3.4183 -2.9998 0.9740
-5.0347 2.9821 -2.9999 0.9740
-5.2802 2.5222 -3.0000 0.9740
-5.4839 2.0422 -3.0000 0.9740
-5.6439 1.5461 -3.0001 0.9740
-5.7592 1.0376 -3.0001 0.9740
-5.8287 0.5209 -3.0001 0.9740
-5.6197 0.0000 -3.0001 0.9748
-5.5974 -0.5002 -3.0001 0.9748
-5.5307 -0.9964 -3.0000 0.9748
-5.2662 -1.9611 -3.0000 0.9748
-5.0707 -2.4220 -2.9999 0.9748
-4.5607 -3.2826 -2.9998 0.9748
-4.2503 -3.6754 -2.9997 0.9748
-3.9062 -4.0389 -2.9996 0.9748
-3.1280 -4.6672 -2.9994 0.9748
-2.7000 -4.9269 -2.9993 0.9748
-2.2507 -5.1475 -2.9992 0.9748
-1.7836 -5.3272 -2.9990 0.9748
0.1877 -5.6137 -2.9985 0.9749
0.6866 -5.5745 -2.9984 0.9749
3.0216 -4.7332 -2.9978 0.9749
3.4308 -4.4453 -2.9977 0.9749
4.1643 -3.7664 -2.9975 0.9749
4.4829 -3.3807 -2.9974 0.9749
4.7659 -2.9682 -2.9973 0.9749
5.5794 -0.6241 -2.9971 0.9749
5.6128 -0.1251 -2.9971 0.9749
5.6017 0.3750 -2.9971 0.9749
5.3037 1.8417 -2.9972 0.9749
5.1189 2.3064 -2.9973 0.9749
4.8933 2.7530 -2.9973 0.9749
5.1366 6.0756 -4.2473 0.9646
2.7229 4.7162 -2.9072 0.9756
2.2438 4.8352 -2.8456 0.9761
1.8046 5.0159 -2.8457 0.9761
1.3510 5.1569 -2.8458 0.9761
-0.5337 5.3050 -2.8463 0.9761
-1.0038 5.2367 -2.8465 0.9761
-1.9165 4.9762 -2.8467 0.9761
-3.3329 4.5234 -2.9995 0.9748
-3.7224 4.2090 -2.9996 0.9748
-4.0823 3.8611 -2.9997 0.9748
-5.1736 2.1938 -2.9999 0.9748
-5.3484 1.7246 -3.0000 0.9748
-5.4808 1.2418 -3.0000 0.9748
-5.5696 0.7491 -3.0000 0.9748
-5.6142 0.2504 -3.0001 0.9748
-5.6142 -0.2503 -3.0001 0.9748
-5.5696 -0.7490 -3.0000 0.9748
-5.4808 -1.2418 -3.0000 0.9748
-5.3484 -1.7246 -3.0000 0.9748
-5.1736 -2.1938 -2.9999 0.9748
-4.7025 -3.0762 -2.9998 0.9748
-3.7223 -4.2089 -2.9996 0.9748
-2.9169 -4.8018 -2.9993 0.9748
-2.4778 -5.0422 -2.9992 0.9748
-1.5444 -5.4012 -2.9990 0.9748
-1.0575 -5.5170 -2.9989 0.9749
0.4376 -5.5996 -2.9985 0.9749
0.9342 -5.5382 -2.9983 0.9749
2.3639 -5.0940 -2.9980 0.9749
2.8078 -4.8632 -2.9978 0.9749
3.2294 -4.5938 -2.9977 0.9749
3.6253 -4.2880 -2.9976 0.9749
4.8933 -2.7529 -2.9973 0.9749
5.4465 -1.3623 -2.9972 0.9749
5.6017 -0.3750 -2.9971 0.9749
5.5794 0.6242 -2.9971 0.9749
5.2165 2.0761 -2.9972 0.9749
4.7659 2.9683 -2.9973 0.9749
4.4829 3.3807 -2.9974 0.9749
3.0016 4.7020 -2.9780 0.9750
1.5794 5.0914 -2.8458 0.9761
0.6517 5.2912 -2.8460 0.9761
0.1781 5.3285 -2.8462 0.9761
-0.2968 5.3234 -2.8463 0.9761
-2.1363 4.8860 -2.8468 0.9761
-3.1280 4.6673 -2.9994 0.9748
-3.5311 4.3705 -2.9995 0.9748
-3.9062 4.0390 -2.9996 0.9748
-4.2503 3.6754 -2.9997 0.9748
-4.5607 3.2826 -2.9998 0.9748
-5.0707 2.4221 -2.9999 0.9748
-5.2663 1.9612 -3.0000 0.9748
-5.4200 1.4847 -3.0000 0.9748
-5.4016 0.0000 -3.0000 0.9756
-5.2095 -1.4270 -3.0000 0.9756
-4.3837 -3.1552 -2.9997 0.9756
-4.0853 -3.5327 -2.9997 0.9756
-3.7546 -3.8821 -2.9996 0.9756
-3.3940 -4.2008 -2.9995 0.9756
-2.5952 -4.7357 -2.9993 0.9756
-2.1634 -4.9477 -2.9991 0.9756
-1.7143 -5.1204 -2.9990 0.9756
-1.2517 -5.2525 -2.9989 0.9756
-0.7792 -5.3428 -2.9988 0.9756
0.1804 -5.3958 -2.9985 0.9756
0.6599 -5.3582 -2.9984 0.9756
1.5994 -5.1558 -2.9982 0.9756
2.9044 -4.5496 -2.9978 0.9756
3.2977 -4.2729 -2.9977 0.9756
3.6648 -3.9623 -2.9976 0.9756
4.5810 -2.8531 -2.9974 0.9756
4.8167 -2.4340 -2.9973 0.9756
5.1718 -1.5413 -2.9972 0.9756
5.3630 -0.5999 -2.9972 0.9756
5.3951 -0.1202 -2.9972 0.9756
4.9203 2.2170 -2.9973 0.9756
4.4494 3.0544 -2.9974 0.9756
4.1600 3.4384 -2.9975 0.9756
3.4847 4.1217 -2.9977 0.9756
3.1041 4.4157 -2.9978 0.9756
2.1909 4.7212 -2.8907 0.9765
1.2986 4.9568 -2.8459 0.9768
0.8523 5.0529 -2.8460 0.9768
-0.5130 5.0992 -2.8463 0.9768
-1.8419 4.7830 -2.8467 0.9768
-2.3248 4.7309 -2.9276 0.9762
-3.2035 4.3479 -2.9994 0.9756
-3.5779 4.0456 -2.9995 0.9756
-4.2387 3.3473 -2.9997 0.9756
-4.5199 2.9568 -2.9998 0.9756
-4.9728 2.1087 -2.9999 0.9756
-5.3962 0.2407 -3.0000 0.9756
-5.3962 -0.2406 -3.0000 0.9756
-5.2680 -1.1935 -3.0000 0.9756
-4.7653 -2.5428 -2.9998 0.9756
-4.5199 -2.9568 -2.9998 0.9756
-4.2387 -3.3472 -2.9997 0.9756
-2.8037 -4.6154 -2.9993 0.9756
-1.9408 -5.0390 -2.9991 0.9756
-1.0165 -5.3029 -2.9988 0.9756
0.4206 -5.3823 -2.9985 0.9756
1.3681 -5.2221 -2.9982 0.9756
1.8274 -5.0794 -2.9981 0.9756
2.2722 -4.8963 -2.9980 0.9756
2.6989 -4.6745 -2.9979 0.9756
3.1041 -4.4156 -2.9978 0.9756
4.1600 -3.4383 -2.9975 0.9756
4.7035 -2.6461 -2.9974 0.9756
4.9203 -2.2170 -2.9973 0.9756
5.2353 -1.3094 -2.9972 0.9756
5.3310 -0.8382 -2.9972 0.9756
5.3951 0.1203 -2.9972 0.9756
5.3630 0.5999 -2.9972 0.9756
5.2884 1.0749 -2.9972 0.9756
5.1718 1.5414 -2.9972 0.9756
5.0141 1.9956 -2.9973 0.9756
4.5810 2.8531 -2.9974 0.9756
4.0028 3.6204 -2.9975 0.9756
3.6648 3.9624 -2.9976 0.9756
4.6724 6.0542 -4.2474 0.9656
2.9044 4.5496 -2.9978 0.9756
1.5181 4.8939 -2.8458 0.9768
1.0765 5.0098 -2.8459 0.9768
0.6264 5.0860 -2.8460 0.9768
