ply
format ascii 1.0
element vertex 1585
property float32 x
property float32 y
property float32 z
property float32 I
end_header
0.8486 -5.0309 0.5534 0.9797
1.8781 -5.2204 0.6018 0.9779
-0.3105 -5.5687 0.5113 0.9778
0.1742 -5.2106 0.4780 0.9793
1.0714 -4.9857 0.4675 0.9797
10.3834 7.1278 1.1546 0.9507
0.3991 -5.1070 0.4696 0.9796
1.8633 -5.1792 0.5046 0.9781
-0.3082 -5.5266 0.4148 0.9780
0.6176 -5.0148 0.3786 0.9799
1.0661 -4.9610 0.3803 0.9799
1.5627 -5.0375 0.3953 0.9791
10.3828 7.1274 0.9438 0.9507
-0.0592 -5.3161 0.3984 0.9789
0.8402 -4.9813 0.3786 0.9799
1.3061 -4.9854 0.3862 0.9795
-0.3071 -5.5077 0.3213 0.9781
1.0642 -4.9524 0.2950 0.9799
2.1846 -5.3159 0.3347 0.9772
-0.0591 -5.3028 0.3089 0.9790
0.3964 -5.0734 0.2964 0.9798
0.8389 -4.9731 0.2937 0.9800
1.3038 -4.9766 0.2996 0.9796
-0.3064 -5.4954 0.2289 0.9782
0.1726 -5.1623 0.2148 0.9795
0.6156 -4.9981 0.2094 0.9800
2.1770 -5.2974 0.2381 0.9773
0.3958 -5.0649 0.2112 0.9799
2.7448 -5.9149 0.2711 0.9742
0.1723 -5.1529 0.1286 0.9796
0.6146 -4.9898 0.1254 0.9801
10.3808 7.1260 0.3140 0.9509
-0.0588 -5.2801 0.1317 0.9791
0.8361 -4.9568 0.1254 0.9801
1.2993 -4.9592 0.1278 0.9797
2.6937 -5.8047 0.1596 0.9747
-0.3051 -5.4711 0.0455 0.9783
1.0587 -4.9270 0.0419 0.9800
1.5500 -4.9969 0.0435 0.9793
2.1626 -5.2623 0.0473 0.9775
10.3801 7.1256 0.1046 0.9509
0.8347 -4.9487 0.0417 0.9801
1.2970 -4.9506 0.0425 0.9797
1.8289 -5.0835 0.0449 0.9786
2.6760 -5.7667 0.0528 0.9749
0.1720 -5.1438 -0.0428 0.9796
1.0588 -4.9272 -0.0419 0.9800
2.1628 -5.2628 -0.0473 0.9775
10.3795 7.1251 -0.1046 0.9509
-0.5825 -5.7903 -0.0484 0.9770
-0.0587 -5.2692 -0.0438 0.9791
0.3945 -5.0482 -0.0421 0.9799
0.8348 -4.9490 -0.0417 0.9801
1.2971 -4.9509 -0.0425 0.9797
2.6765 -5.7677 -0.0528 0.9749
-0.3058 -5.4836 -0.1370 0.9783
0.1723 -5.1532 -0.1286 0.9796
1.5532 -5.0071 -0.1307 0.9792
10.3788 7.1247 -0.3139 0.9509
-0.0588 -5.2805 -0.1317 0.9791
0.8362 -4.9571 -0.1254 0.9801
1.2993 -4.9595 -0.1279 0.9797
1.8335 -5.0963 -0.1351 0.9786
2.6942 -5.8058 -0.1596 0.9747
-0.3064 -5.4958 -0.2289 0.9782
0.1726 -5.1626 -0.2148 0.9795
0.6156 -4.9984 -0.2094 0.9800
2.1772 -5.2979 -0.2382 0.9773
0.3958 -5.0651 -0.2112 0.9799
0.8375 -4.9652 -0.2094 0.9800
1.8380 -5.1088 -0.2258 0.9785
0.1729 -5.1721 -0.3014 0.9795
1.0643 -4.9527 -0.2950 0.9799
1.5594 -5.0270 -0.3066 0.9791
2.1848 -5.3164 -0.3348 0.9772
-0.5885 -5.8502 -0.3425 0.9767
-0.0591 -5.3031 -0.3089 0.9790
1.3039 -4.9769 -0.2997 0.9796
-0.3082 -5.5277 -0.4149 0.9780
0.6177 -5.0151 -0.3787 0.9799
1.5630 -5.0385 -0.3953 0.9791
-0.0592 -5.3172 -0.3985 0.9789
1.8492 -5.1400 -0.4094 0.9783
-0.3106 -5.5702 -0.5115 0.9778
0.1742 -5.2116 -0.4781 0.9793
0.6207 -5.0394 -0.4655 0.9798
1.0716 -4.9866 -0.4676 0.9797
-0.6027 -5.9906 -0.5520 0.9761
0.3991 -5.1078 -0.4697 0.9796
1.3133 -5.0128 -0.4751 0.9794
0.1753 -5.2422 -0.5689 0.9791
0.6240 -5.0662 -0.5537 0.9797
1.0775 -5.0141 -0.5563 0.9796
1.5829 -5.1027 -0.5795 0.9787
2.2505 -5.4762 -0.6422 0.9765
10.3755 7.1224 -1.3650 0.9506
-0.6114 -6.0778 -0.6626 0.9757
0.4013 -5.1353 -0.5587 0.9795
1.8786 -5.2216 -0.6019 0.9779
-0.3163 -5.6726 -0.7120 0.9774
0.1763 -5.2732 -0.6612 0.9790
0.6273 -5.0935 -0.6431 0.9795
1.5931 -5.1355 -0.6738 0.9786
2.2768 -5.5402 -0.7506 0.9761
-0.6214 -6.1772 -0.7780 0.9753
-0.0605 -5.4282 -0.6803 0.9784
0.4035 -5.1631 -0.6490 0.9793
0.8532 -5.0584 -0.6429 0.9795
1.8937 -5.2637 -0.7010 0.9777
1.0895 -5.0703 -0.7376 0.9793
1.6040 -5.1707 -0.7700 0.9784
2.3261 -5.6602 -0.8704 0.9756
10.3741 7.1215 -1.7898 0.9504
-0.6613 -6.5731 -0.9397 0.9737
-0.0610 -5.4711 -0.7782 0.9781
0.4057 -5.1913 -0.7406 0.9792
1.3357 -5.0983 -0.7496 0.9789
1.9142 -5.3205 -0.8043 0.9774
0.1792 -5.3612 -0.8542 0.9785
1.0994 -5.1163 -0.8333 0.9790
10.3735 7.1210 -2.0036 0.9503
-0.0618 -5.5437 -0.8828 0.9778
0.4093 -5.2379 -0.8366 0.9789
0.8650 -5.1283 -0.8281 0.9792
1.3489 -5.1486 -0.8475 0.9787
-0.3322 -5.9582 -1.0522 0.9761
0.6426 -5.2175 -0.9269 0.9789
1.1111 -5.1705 -0.9325 0.9787
1.6436 -5.2984 -0.9782 0.9777
0.8737 -5.1799 -0.9263 0.9789
1.3634 -5.2041 -0.9486 0.9784
-0.3452 -6.1912 -1.2000 0.9751
0.1834 -5.4843 -1.0619 0.9779
1.6643 -5.3653 -1.0871 0.9774
12.8155 7.2099 -2.8456 0.9419
11.3343 9.3681 -2.8456 0.9418
10.4557 10.3399 -2.8457 0.9418
9.4940 11.2296 -2.8457 0.9418
8.4570 12.0303 -2.8457 0.9418
7.3528 12.7355 -2.8458 0.9418
6.1902 13.3396 -2.8458 0.9418
4.9784 13.8379 -2.8459 0.9418
3.7271 14.2263 -2.8460 0.9418
2.4462 14.5019 -2.8460 0.9418
1.1457 14.6624 -2.8461 0.9418
-0.1638 14.7065 -2.8461 0.9418
-1.4722 14.6339 -2.8462 0.9418
-4.0437 14.1417 -2.8463 0.9418
-5.2864 13.7259 -2.8464 0.9418
-6.4872 13.2012 -2.8465 0.9418
-7.6366 12.5716 -2.8465 0.9418
-11.5447 9.1167 -2.8467 0.9418
-12.3104 8.0532 -2.8468 0.9418
-0.0635 -5.6961 -1.1024 0.9771
1.3783 -5.2611 -1.0525 0.9781
10.9058 9.8638 -2.8456 0.9418
3.0897 14.3784 -2.8460 0.9418
1.7977 14.5967 -2.8461 0.9418
-0.8188 14.6848 -2.8462 0.9418
-8.1891 12.2191 -2.8465 0.9418
-11.1270 9.6219 -2.8467 0.9418
-11.9394 8.5935 -2.8467 0.9418
-12.6410 7.4873 -2.8432 0.9419
-14.2267 0.0001 -2.9993 0.9435
-14.1703 -1.2663 -2.9993 0.9435
-14.0013 -2.5224 -2.9993 0.9435
-12.2405 -7.2500 -2.9992 0.9435
-11.5465 -8.3106 -2.9992 0.9435
-8.9403 -11.0655 -2.9991 0.9435
-7.9198 -11.8171 -2.9990 0.9435
-5.6989 -13.0336 -2.9989 0.9435
-4.5161 -13.4889 -2.9989 0.9435
-3.2976 -13.8371 -2.9988 0.9435
6.5554 -12.6214 -2.9984 0.9435
8.6891 -11.2587 -2.9982 0.9435
9.6566 -10.4405 -2.9982 0.9435
13.6282 -4.0616 -2.9980 0.9435
13.9355 -2.8325 -2.9980 0.9435
14.1322 -1.5809 -2.9979 0.9435
14.0477 2.2089 -2.9979 0.9435
10.2294 7.0221 -2.6158 0.9505
10.4043 8.5994 -2.8457 0.9463
8.7150 10.3082 -2.8457 0.9463
7.7630 11.0431 -2.8458 0.9463
6.7494 11.6904 -2.8458 0.9463
-0.1504 13.4996 -2.8461 0.9463
-2.5416 13.2596 -2.8463 0.9463
-8.0092 10.8703 -2.8465 0.9463
-8.9451 10.1144 -2.8466 0.9463
-9.8100 9.2783 -2.8466 0.9463
-10.5970 8.3684 -2.8467 0.9463
-11.2999 7.3921 -2.8467 0.9463
-11.9132 6.3571 -2.8467 0.9463
-12.4319 5.2716 -2.8468 0.9463
-13.5400 4.3661 -2.9992 0.9435
-14.0997 1.8963 -2.9993 0.9435
-14.0998 -1.8962 -2.9993 0.9435
-13.8751 -3.1436 -2.9993 0.9435
-13.0977 -5.5538 -2.9993 0.9435
-11.9053 -7.7880 -2.9992 0.9435
-10.3356 -9.7753 -2.9991 0.9435
-8.4384 -11.4526 -2.9991 0.9435
-7.3854 -12.1581 -2.9990 0.9435
-6.2739 -12.7669 -2.9990 0.9435
-5.1126 -13.2744 -2.9989 0.9435
-2.6779 -13.9701 -2.9988 0.9435
-1.4238 -14.1527 -2.9987 0.9435
0.4234 -5.4183 -1.1458 0.9780
0.8930 -5.2942 -1.1319 0.9783
2.1081 -5.8596 -1.3128 0.9749
5.9867 -12.9011 -2.9984 0.9435
8.1790 -11.6347 -2.9983 0.9435
9.1819 -10.8604 -2.9982 0.9435
10.1120 -9.9999 -2.9982 0.9435
11.7244 -8.0483 -2.9981 0.9435
12.9654 -5.8419 -2.9980 0.9435
14.0478 -2.2089 -2.9979 0.9435
13.9354 2.8325 -2.9979 0.9435
13.6280 4.0616 -2.9979 0.9435
12.5410 4.9912 -2.8456 0.9463
12.0471 6.0877 -2.8456 0.9463
11.4575 7.1358 -2.8456 0.9463
7.2635 11.3780 -2.8458 0.9463
6.2220 11.9796 -2.8459 0.9463
5.1312 12.4860 -2.8459 0.9463
3.9996 12.8934 -2.8460 0.9463
-0.7516 13.4796 -2.8462 0.9463
-1.9484 13.3595 -2.8462 0.9463
-3.1298 13.1333 -2.8463 0.9463
-4.2864 12.8029 -2.8463 0.9463
-6.4887 11.8405 -2.8465 0.9463
-8.4856 10.5028 -2.8466 0.9463
-11.6181 6.8815 -2.8467 0.9463
-12.7986 4.7663 -2.8792 0.9457
-13.7211 3.7587 -2.9992 0.9435
-14.0012 2.5225 -2.9993 0.9435
-14.1702 1.2663 -2.9993 0.9435
-13.1405 0.0000 -2.9992 0.9475
-13.0883 -1.1695 -2.9992 0.9475
-12.9323 -2.3298 -2.9992 0.9475
-12.6736 -3.4716 -2.9992 0.9475
-11.8571 -5.6636 -2.9992 0.9475
-9.9393 -8.5948 -2.9991 0.9475
-9.1347 -9.4452 -2.9991 0.9475
-8.2577 -10.2206 -2.9990 0.9475
-7.3151 -10.9149 -2.9990 0.9475
-6.3145 -11.5225 -2.9990 0.9475
-4.1713 -12.4591 -2.9989 0.9475
-3.0458 -12.7807 -2.9988 0.9475
-1.8961 -13.0008 -2.9988 0.9475
0.1904 -5.6945 -1.3005 0.9769
0.6687 -5.4298 -1.2487 0.9778
1.1587 -5.3924 -1.2589 0.9776
4.9935 -12.1509 -2.9984 0.9475
6.0550 -11.6580 -2.9984 0.9475
8.9195 -9.6436 -2.9982 0.9475
9.7423 -8.8113 -2.9982 0.9475
11.7236 -5.9242 -2.9981 0.9475
12.5880 -3.7516 -2.9980 0.9475
13.0536 -1.4602 -2.9980 0.9475
13.1318 -0.2926 -2.9980 0.9475
12.9756 2.0404 -2.9980 0.9475
12.7425 3.1871 -2.9980 0.9475
9.6102 7.9431 -2.8457 0.9501
8.8652 8.7670 -2.8457 0.9501
7.1705 10.2002 -2.8458 0.9501
6.2343 10.7981 -2.8459 0.9501
2.0740 12.2957 -2.8460 0.9501
0.9714 12.4318 -2.8461 0.9501
-1.2482 12.4075 -2.8462 0.9501
-2.3476 12.2474 -2.8463 0.9501
-3.4284 11.9900 -2.8463 0.9501
-5.5002 11.1926 -2.8464 0.9501
-7.3978 10.0404 -2.8465 0.9501
-9.0610 8.5699 -2.8466 0.9501
-9.7880 7.7295 -2.8466 0.9501
-12.5062 4.0328 -2.9992 0.9475
-12.8155 2.9037 -2.9992 0.9475
-13.0232 1.7515 -2.9992 0.9475
-13.1274 0.5854 -2.9992 0.9475
-13.0232 -1.7514 -2.9992 0.9475
-12.0977 -5.1298 -2.9992 0.9475
-10.3123 -8.1435 -2.9991 0.9475
-8.7048 -9.8427 -2.9991 0.9475
-7.7941 -10.5783 -2.9990 0.9475
-6.8216 -11.2298 -2.9990 0.9475
-1.3151 -13.0722 -2.9987 0.9475
-0.0671 -6.0255 -1.3754 0.9756
6.5683 -11.3767 -2.9983 0.9475
8.4811 -10.0314 -2.9982 0.9475
9.3401 -9.2367 -2.9982 0.9475
10.1250 -8.3685 -2.9982 0.9475
10.8296 -7.4341 -2.9981 0.9475
11.4481 -6.4406 -2.9981 0.9475
11.9758 -5.3960 -2.9981 0.9475
12.9757 -2.0403 -2.9980 0.9475
13.1318 0.2927 -2.9980 0.9475
13.0536 1.4603 -2.9980 0.9475
7.6177 9.8706 -2.8458 0.9501
5.7471 11.0652 -2.8459 0.9501
3.6943 11.9093 -2.8460 0.9501
2.6197 12.1910 -2.8460 0.9501
0.4167 12.4628 -2.8461 0.9501
-0.6942 12.4506 -2.8462 0.9501
-4.9961 11.4264 -2.8464 0.9501
-6.9431 10.3598 -2.8465 0.9501
-7.8377 9.7009 -2.8465 0.9501
-9.4339 8.1578 -2.8466 0.9501
-10.1226 7.2859 -2.8467 0.9501
-10.7310 6.3561 -2.8467 0.9501
-12.3140 4.5859 -2.9992 0.9475
-12.6734 3.4716 -2.9992 0.9475
-12.9322 2.3299 -2.9992 0.9475
-13.0883 1.1696 -2.9992 0.9475
-12.1533 -1.0860 -2.9992 0.9510
-12.0084 -2.1634 -2.9992 0.9510
-11.7682 -3.2236 -2.9992 0.9510
-11.0101 -5.2590 -2.9992 0.9510
-9.9030 -7.1277 -2.9991 0.9510
-8.4822 -8.7705 -2.9990 0.9510
-4.8878 -11.1786 -2.9989 0.9510
-2.8282 -11.8678 -2.9988 0.9510
-1.7607 -12.0722 -2.9987 0.9510
-0.6792 -12.1808 -2.9987 0.9510
0.1956 -5.8493 -1.4386 0.9762
0.6810 -5.5290 -1.3693 0.9773
1.1809 -5.4953 -1.3816 0.9771
5.6226 -10.8254 -2.9984 0.9510
6.5637 -10.2818 -2.9983 0.9510
9.7387 -7.3443 -2.9982 0.9510
10.3537 -6.4483 -2.9981 0.9510
11.6891 -3.4837 -2.9981 0.9510
11.9527 -2.4295 -2.9980 0.9510
12.1215 -1.3560 -2.9980 0.9510
12.1940 -0.2717 -2.9980 0.9510
12.1698 0.8147 -2.9980 0.9510
12.0490 1.8947 -2.9980 0.9510
10.0901 5.6766 -2.8457 0.9534
8.9239 7.3758 -2.8457 0.9534
6.6584 9.4717 -2.8458 0.9534
1.9259 11.4175 -2.8461 0.9534
0.9020 11.5438 -2.8461 0.9534
-0.1290 11.5785 -2.8462 0.9534
-3.1835 11.1336 -2.8463 0.9534
-4.1619 10.8062 -2.8464 0.9534
-5.1073 10.3931 -2.8464 0.9534
-6.0122 9.8974 -2.8464 0.9534
-6.8693 9.3231 -2.8465 0.9534
-9.6916 6.3400 -2.8466 0.9534
-10.2175 5.4523 -2.8467 0.9534
-11.1824 4.7418 -2.9855 0.9512
-11.6127 3.7446 -2.9991 0.9510
-11.9000 2.6962 -2.9992 0.9510
-12.1896 0.5436 -2.9992 0.9510
-12.1896 -0.5435 -2.9992 0.9510
-11.2334 -4.7633 -2.9992 0.9510
-10.2108 -6.6795 -2.9991 0.9510
-8.0830 -9.1396 -2.9990 0.9510
-7.2374 -9.8226 -2.9990 0.9510
-6.3343 -10.4276 -2.9990 0.9510
-5.3810 -10.9499 -2.9989 0.9510
-4.3849 -11.3852 -2.9989 0.9510
-1.2212 -12.1386 -2.9987 0.9510
1.4625 -5.5825 -1.4185 0.9765
4.1296 -11.4785 -2.9985 0.9510
6.0992 -10.5641 -2.9984 0.9510
7.0152 -9.9791 -2.9983 0.9510
7.8754 -9.3150 -2.9983 0.9510
10.0562 -6.9032 -2.9982 0.9510
10.6306 -5.9806 -2.9981 0.9510
11.1206 -5.0107 -2.9981 0.9510
11.5224 -4.0010 -2.9981 0.9510
12.1698 -0.8146 -2.9980 0.9510
12.1940 0.2718 -2.9980 0.9510
9.8273 6.1205 -2.8457 0.9534
7.8613 8.4996 -2.8458 0.9534
6.2299 9.7590 -2.8459 0.9534
5.3367 10.2749 -2.8459 0.9534
4.4010 10.7093 -2.8459 0.9534
2.4326 11.3203 -2.8460 0.9534
1.4154 11.4921 -2.8461 0.9534
0.3869 11.5727 -2.8461 0.9534
-1.6711 11.4583 -2.8462 0.9534
-4.6392 10.6102 -2.8464 0.9534
-6.4471 9.6198 -2.8465 0.9534
-7.2779 9.0080 -2.8465 0.9534
-9.3995 6.7654 -2.8466 0.9534
-9.9645 5.9020 -2.8466 0.9534
-10.4503 4.9917 -2.8467 0.9534
-11.4344 4.2582 -2.9991 0.9510
-11.7681 3.2236 -2.9991 0.9510
-12.0083 2.1635 -2.9992 0.9510
-11.3368 -1.0130 -2.9991 0.9540
-11.2016 -2.0180 -2.9991 0.9540
-10.2703 -4.9057 -2.9991 0.9540
-9.2377 -6.6489 -2.9991 0.9540
-8.6092 -7.4446 -2.9990 0.9540
-6.3362 -9.4543 -2.9989 0.9540
-5.4695 -9.9806 -2.9989 0.9540
-4.5594 -10.4276 -2.9989 0.9540
-2.6382 -11.0705 -2.9988 0.9540
-0.6336 -11.3625 -2.9987 0.9540
0.2050 -6.1318 -1.6166 0.9749
4.3254 -10.5252 -2.9984 0.9540
6.1228 -9.5912 -2.9984 0.9540
6.9521 -9.0081 -2.9983 0.9540
9.0846 -6.8510 -2.9982 0.9540
10.1552 -5.1316 -2.9981 0.9540
10.9040 -3.2497 -2.9981 0.9540
11.1499 -2.2663 -2.9981 0.9540
11.3074 -1.2649 -2.9981 0.9540
11.3750 -0.2534 -2.9981 0.9540
11.3524 0.7600 -2.9981 0.9540
11.2397 1.7674 -2.9981 0.9540
10.7483 3.7323 -2.9981 0.9540
9.4124 5.2954 -2.8457 0.9563
7.6792 7.5941 -2.8458 0.9563
6.2112 8.8355 -2.8459 0.9563
5.4002 9.3535 -2.8459 0.9563
-0.1203 10.8007 -2.8462 0.9563
-2.0335 10.6086 -2.8463 0.9563
-4.7642 9.6949 -2.8464 0.9563
-7.1566 8.0921 -2.8465 0.9563
-9.5311 5.0860 -2.8466 0.9563
-11.1005 2.5151 -2.9991 0.9540
-11.3706 0.5071 -2.9991 0.9540
-11.3707 -0.5070 -2.9991 0.9540
-11.2804 -1.5170 -2.9991 0.9540
-11.1006 -2.5151 -2.9991 0.9540
-10.8327 -3.4930 -2.9991 0.9540
-10.4787 -4.4433 -2.9991 0.9540
-8.9323 -7.0537 -2.9991 0.9540
-8.2689 -7.8207 -2.9990 0.9540
-7.5400 -8.5255 -2.9990 0.9540
-5.9087 -9.7271 -2.9989 0.9540
-5.0195 -10.2142 -2.9989 0.9540
-4.0904 -10.6203 -2.9988 0.9540
-3.1288 -10.9421 -2.9988 0.9540
-2.1425 -11.1770 -2.9988 0.9540
-0.1268 -11.3794 -2.9987 0.9540
3.8522 -10.7075 -2.9985 0.9540
4.7899 -10.3220 -2.9984 0.9540
6.5440 -9.3089 -2.9983 0.9540
7.3464 -8.6893 -2.9983 0.9540
8.0906 -8.0009 -2.9983 0.9540
10.3737 -4.6741 -2.9981 0.9540
11.3525 -0.7599 -2.9981 0.9540
11.3750 0.2535 -2.9981 0.9540
11.3073 1.2650 -2.9981 0.9540
11.1499 2.2664 -2.9981 0.9540
10.9039 3.2498 -2.9981 0.9540
10.5714 4.2074 -2.9981 0.9540
8.6227 6.5028 -2.8458 0.9563
6.5986 8.5501 -2.8459 0.9563
5.8115 9.1036 -2.8459 0.9563
4.9782 9.5848 -2.8459 0.9563
3.2000 10.3159 -2.8460 0.9563
-2.5041 10.5076 -2.8463 0.9563
-3.4294 10.2432 -2.8463 0.9563
-10.9774 3.0071 -2.9991 0.9540
-11.2015 2.0181 -2.9991 0.9540
-10.6595 0.0000 -2.9991 0.9567
-10.6172 -0.9487 -2.9991 0.9567
-9.1713 -5.4321 -2.9991 0.9567
-8.6513 -6.2268 -2.9990 0.9567
-8.0627 -6.9721 -2.9990 0.9567
-7.4101 -7.6620 -2.9990 0.9567
-6.6987 -8.2910 -2.9990 0.9567
-4.2700 -9.7658 -2.9989 0.9567
-2.4708 -10.3679 -2.9988 0.9567
0.3561 -10.6518 -2.9986 0.9567
0.7238 -5.8771 -1.6660 0.9757
3.1575 -10.1788 -2.9985 0.9567
4.0509 -9.8572 -2.9985 0.9567
5.7343 -8.9825 -2.9984 0.9567
7.9034 -7.1481 -2.9983 0.9567
8.5082 -6.4162 -2.9982 0.9567
9.0454 -5.6335 -2.9982 0.9567
9.5108 -4.8060 -2.9982 0.9567
9.9008 -3.9404 -2.9982 0.9567
10.4424 -2.1225 -2.9981 0.9567
8.3388 5.7243 -2.8458 0.9588
7.7963 6.4438 -2.8458 0.9588
7.1919 7.1123 -2.8458 0.9588
6.5304 7.7242 -2.8459 0.9588
4.2578 9.1754 -2.8460 0.9588
-1.0126 10.0653 -2.8462 0.9588
-1.9044 9.9353 -2.8462 0.9588
-3.6359 9.4405 -2.8463 0.9588
-5.2523 8.6465 -2.8464 0.9588
-7.3503 6.9519 -2.8465 0.9588
-8.9380 4.7695 -2.8504 0.9588
-9.8134 4.1613 -2.9991 0.9567
-10.1449 3.2714 -2.9991 0.9567
-10.3959 2.3554 -2.9991 0.9567
-10.5643 1.4208 -2.9991 0.9567
-10.6489 0.4749 -2.9991 0.9567
-10.6489 -0.4748 -2.9991 0.9567
-10.3960 -2.3554 -2.9991 0.9567
-10.1450 -3.2713 -2.9991 0.9567
-9.8136 -4.1613 -2.9991 0.9567
-9.4042 -5.0182 -2.9991 0.9567
-8.3653 -6.6060 -2.9990 0.9567
-7.7441 -7.3243 -2.9990 0.9567
-7.0614 -7.9844 -2.9990 0.9567
-6.3226 -8.5811 -2.9989 0.9567
-4.7009 -9.5659 -2.9989 0.9567
-2.9302 -10.2476 -2.9988 0.9567
-2.0065 -10.4676 -2.9987 0.9567
-0.1187 -10.6572 -2.9987 0.9567
0.4793 -6.1335 -1.7310 0.9748
0.9812 -5.8171 -1.6598 0.9758
2.7010 -10.3094 -2.9985 0.9567
4.4859 -9.6669 -2.9984 0.9567
5.3285 -9.2291 -2.9984 0.9567
6.8802 -8.1379 -2.9983 0.9567
7.5772 -7.4932 -2.9983 0.9567
8.7855 -6.0309 -2.9982 0.9567
9.2873 -5.2249 -2.9982 0.9567
9.7154 -4.3775 -2.9982 0.9567
10.6321 -0.7117 -2.9981 0.9567
10.2120 3.0436 -2.9981 0.9567
9.9006 3.9404 -2.9981 0.9567
8.5855 5.3472 -2.8458 0.9588
6.8680 7.4256 -2.8458 0.9588
4.6623 8.9766 -2.8459 0.9588
2.9969 9.6613 -2.8460 0.9588
2.1252 9.8898 -2.8461 0.9588
1.2365 10.0398 -2.8461 0.9588
-0.5632 10.1003 -2.8462 0.9588
-1.4599 10.0102 -2.8462 0.9588
-3.2118 9.5931 -2.8463 0.9588
-4.8619 8.8719 -2.8464 0.9588
-7.0333 7.2724 -2.8465 0.9588
-7.6528 6.6177 -2.8465 0.9588
-8.2115 5.9103 -2.8466 0.9588
-8.7050 5.1561 -2.8466 0.9588
-9.6183 4.5943 -2.9990 0.9567
-9.9891 3.7200 -2.9991 0.9567
-10.2806 2.8162 -2.9991 0.9567
-10.4905 1.8900 -2.9991 0.9567
-10.6171 0.9488 -2.9991 0.9567
-10.0176 0.0000 -2.9991 0.9590
-8.1304 -5.8519 -2.9990 0.9590
-7.5772 -6.5522 -2.9990 0.9590
-6.9639 -7.2006 -2.9990 0.9590
-6.2953 -7.7918 -2.9989 0.9590
-5.5768 -8.3211 -2.9989 0.9590
-4.8140 -8.7843 -2.9989 0.9590
-4.0129 -9.1778 -2.9988 0.9590
-3.1801 -9.4985 -2.9988 0.9590
-2.3220 -9.7437 -2.9988 0.9590
-0.5576 -10.0007 -2.9987 0.9590
2.9674 -9.5660 -2.9985 0.9590
3.8070 -9.2638 -2.9985 0.9590
4.6163 -8.8882 -2.9984 0.9590
7.9960 -6.0300 -2.9983 0.9590
8.9383 -4.5167 -2.9982 0.9590
9.3048 -3.7032 -2.9982 0.9590
10.0120 -0.2231 -2.9981 0.9590
9.9921 0.6689 -2.9981 0.9590
9.7152 2.4300 -2.9981 0.9590
9.1305 4.1140 -2.9982 0.9590
7.8369 5.3797 -2.8458 0.9611
6.7590 6.6841 -2.8459 0.9611
6.1373 7.2593 -2.8459 0.9611
5.4669 7.7768 -2.8459 0.9611
3.2182 8.9451 -2.8460 0.9611
1.5812 9.3742 -2.8461 0.9611
-0.9516 9.4593 -2.8462 0.9611
-4.1932 8.5329 -2.8464 0.9611
-6.2988 7.1222 -2.8465 0.9611
-6.9078 6.5333 -2.8465 0.9611
-8.8378 4.7161 -2.9990 0.9590
-10.0077 -0.4462 -2.9991 0.9590
-9.9282 -1.3352 -2.9991 0.9590
-9.2227 -3.9107 -2.9991 0.9590
-7.8616 -6.2082 -2.9990 0.9590
-7.2778 -6.8832 -2.9990 0.9590
-5.2005 -8.5612 -2.9989 0.9590
-4.4178 -8.9900 -2.9989 0.9590
-0.1116 -10.0155 -2.9987 0.9590
0.7803 -9.9856 -2.9986 0.9590
4.2159 -9.0849 -2.9984 0.9590
6.4660 -7.6480 -2.9983 0.9590
8.7283 -4.9104 -2.9982 0.9590
9.1306 -4.1140 -2.9982 0.9590
9.4605 -3.2850 -2.9982 0.9590
9.8929 -1.5556 -2.9981 0.9590
10.0119 0.2230 -2.9981 0.9590
9.8138 1.9948 -2.9981 0.9590
9.5973 2.8603 -2.9981 0.9590
9.3047 3.7032 -2.9981 0.9590
7.0500 6.3764 -2.8458 0.9611
6.4545 6.9786 -2.8459 0.9611
5.8078 7.5255 -2.8459 0.9611
5.1150 8.0126 -2.8459 0.9611
4.3816 8.4362 -2.8460 0.9611
1.9972 9.2944 -2.8461 0.9611
1.1621 9.4354 -2.8461 0.9611
-0.5293 9.4922 -2.8462 0.9611
-1.3720 9.4075 -2.8462 0.9611
-2.2040 9.2483 -2.8463 0.9611
-3.0184 9.0155 -2.8463 0.9611
-4.5692 8.3377 -2.8464 0.9611
-5.9752 7.3957 -2.8465 0.9611
-6.6098 6.8346 -2.8465 0.9611
-7.1920 6.2192 -2.8465 0.9611
-7.7171 5.5544 -2.8465 0.9611
-8.1809 4.8456 -2.8466 0.9611
-9.3876 3.4960 -2.9990 0.9590
-9.6616 2.6467 -2.9991 0.9590
-9.4433 0.0000 -2.9991 0.9611
-9.4058 -0.8405 -2.9991 0.9611
-9.2937 -1.6743 -2.9991 0.9611
-9.1078 -2.4948 -2.9990 0.9611
-8.8495 -3.2955 -2.9990 0.9611
-8.1249 -4.8124 -2.9990 0.9611
-7.6643 -5.5164 -2.9990 0.9611
-7.1429 -6.1766 -2.9990 0.9611
-6.5647 -6.7878 -2.9989 0.9611
-5.9344 -7.3451 -2.9989 0.9611
-5.2571 -7.8441 -2.9989 0.9611
2.7973 -9.0177 -2.9985 0.9611
4.3518 -8.3786 -2.9984 0.9612
6.4105 -6.9309 -2.9983 0.9612
7.0019 -6.3328 -2.9983 0.9612
7.5377 -5.6844 -2.9983 0.9612
8.0137 -4.9909 -2.9982 0.9612
9.2514 -1.8804 -2.9982 0.9612
9.4382 -0.2103 -2.9982 0.9612
9.4194 0.6306 -2.9982 0.9612
9.3259 1.4665 -2.9982 0.9612
8.9182 3.0968 -2.9982 0.9612
11.6578 6.5586 -4.2480 0.9454
6.9071 5.7088 -2.8459 0.9631
6.3716 6.3010 -2.8459 0.9631
5.7855 6.8432 -2.8459 0.9631
4.4806 7.7607 -2.8460 0.9631
3.0337 8.4324 -2.8460 0.9631
0.6982 8.9346 -2.8461 0.9631
-0.0998 8.9614 -2.8462 0.9631
-0.8971 8.9171 -2.8462 0.9631
-3.2211 8.3636 -2.8463 0.9631
-5.9377 6.7139 -2.8465 0.9631
-6.5118 6.1589 -2.8465 0.9631
-7.0342 5.5548 -2.8465 0.9631
-8.3312 4.4457 -2.9990 0.9611
-8.6938 3.6865 -2.9990 0.9611
-8.9875 2.8981 -2.9990 0.9611
-9.3590 1.2587 -2.9990 0.9611
-9.2099 -2.0866 -2.9991 0.9611
-8.9876 -2.8981 -2.9990 0.9611
-7.9025 -5.1695 -2.9990 0.9611
-7.4109 -5.8523 -2.9990 0.9611
-6.8606 -6.4886 -2.9990 0.9611
-6.2558 -7.0735 -2.9989 0.9611
-5.6013 -7.6021 -2.9989 0.9611
-4.9024 -8.0704 -2.9989 0.9611
-4.1646 -8.4746 -2.9988 0.9611
-3.3937 -8.8116 -2.9988 0.9611
-2.5960 -9.0786 -2.9988 0.9611
-1.7776 -9.2735 -2.9987 0.9611
-0.1052 -9.4414 -2.9987 0.9611
0.7356 -9.4132 -2.9986 0.9611
1.5705 -9.3103 -2.9986 0.9611
2.3929 -9.1334 -2.9985 0.9611
3.1962 -8.8841 -2.9985 0.9611
4.7207 -8.1764 -2.9984 0.9612
5.4296 -7.7237 -2.9984 0.9612
6.0954 -7.2097 -2.9983 0.9612
7.2770 -6.0146 -2.9983 0.9612
9.1584 -2.2906 -2.9982 0.9612
9.4194 -0.6305 -2.9982 0.9612
9.3820 1.0496 -2.9982 0.9612
9.0473 2.6964 -2.9982 0.9612
11.9383 6.0327 -4.2480 0.9454
6.0846 6.5786 -2.8459 0.9631
5.4750 7.0942 -2.8459 0.9631
4.1305 7.9527 -2.8460 0.9631
3.4063 8.2888 -2.8460 0.9631
-0.4989 8.9481 -2.8462 0.9631
-2.0776 8.7181 -2.8463 0.9631
-3.5905 8.2119 -2.8463 0.9631
-4.9898 7.4453 -2.8464 0.9631
-8.5210 4.0701 -2.9990 0.9611
-8.8495 3.2956 -2.9990 0.9611
-9.1077 2.4949 -2.9990 0.9611
-9.2937 1.6744 -2.9990 0.9611
-9.4058 0.8405 -2.9990 0.9611
-8.9262 0.0001 -2.9990 0.9630
-8.8907 -0.7944 -2.9990 0.9630
-8.7847 -1.5826 -2.9990 0.9630
-8.6090 -2.3582 -2.9990 0.9630
-7.6800 -4.5488 -2.9990 0.9630
-7.2446 -5.2143 -2.9990 0.9630
-5.6094 -6.9428 -2.9989 0.9630
-4.9692 -7.4145 -2.9989 0.9630
-4.2895 -7.8273 -2.9988 0.9630
-3.5757 -8.1779 -2.9988 0.9630
-0.4969 -8.9112 -2.9987 0.9630
1.0910 -8.8579 -2.9986 0.9630
5.4524 -7.0649 -2.9984 0.9630
6.0595 -6.5514 -2.9983 0.9630
7.1250 -5.3732 -2.9983 0.9630
7.5749 -4.7177 -2.9983 0.9630
8.2912 -3.2998 -2.9982 0.9630
8.5520 -2.5487 -2.9982 0.9630
8.8683 -0.9920 -2.9982 0.9630
8.9214 -0.1988 -2.9982 0.9630
8.9037 0.5961 -2.9982 0.9630
8.1359 3.6659 -2.9982 0.9630
11.0195 6.1995 -4.2481 0.9480
6.5289 5.3963 -2.8459 0.9649
4.8714 6.9297 -2.8459 0.9649
2.8676 7.9707 -2.8460 0.9649
1.4090 8.3530 -2.8461 0.9649
-0.0944 8.4707 -2.8462 0.9649
-0.8479 8.4288 -2.8462 0.9649
-2.3290 8.1451 -2.8463 0.9649
-3.0448 7.9056 -2.8463 0.9649
-3.7364 7.6033 -2.8463 0.9649
-4.3983 7.2407 -2.8464 0.9649
-7.2516 4.7438 -2.9114 0.9641
-8.4953 2.7394 -2.9990 0.9630
-8.9173 0.3977 -2.9990 0.9630
-8.9173 -0.3976 -2.9990 0.9630
-7.0051 -5.5318 -2.9990 0.9630
-5.2946 -7.1858 -2.9989 0.9630
-4.6339 -7.6285 -2.9989 0.9630
-2.4538 -8.5814 -2.9988 0.9630
-0.0994 -8.9245 -2.9987 0.9630
0.6953 -8.8978 -2.9986 0.9630
1.4845 -8.8004 -2.9986 0.9630
2.2618 -8.6333 -2.9985 0.9630
3.0212 -8.3976 -2.9985 0.9630
5.1323 -7.3008 -2.9984 0.9630
6.3453 -6.2750 -2.9983 0.9630
6.8786 -5.6853 -2.9983 0.9630
7.3573 -5.0504 -2.9983 0.9630
7.7775 -4.3755 -2.9983 0.9630
8.4300 -2.9271 -2.9982 0.9630
8.9037 -0.5960 -2.9982 0.9630
8.9214 0.1989 -2.9982 0.9630
8.7448 1.7775 -2.9982 0.9630
8.5519 2.5488 -2.9982 0.9630
8.2912 3.2998 -2.9982 0.9630
7.9646 4.0247 -2.9982 0.9630
10.7324 6.6842 -4.2481 0.9480
6.7628 5.1001 -2.8459 0.9649
6.2820 5.6818 -2.8459 0.9649
5.1752 6.7057 -2.8459 0.9649
4.5579 7.1398 -2.8460 0.9649
3.2198 7.8350 -2.8460 0.9649
2.5097 8.0905 -2.8460 0.9649
1.7797 8.2819 -2.8461 0.9649
-0.4716 8.4582 -2.8462 0.9649
-1.9639 8.2407 -2.8463 0.9649
-2.6896 8.0333 -2.8463 0.9649
-4.0714 7.4294 -2.8464 0.9649
-5.8897 6.0899 -2.8465 0.9649
-6.4084 5.5416 -2.8465 0.9649
-6.8763 4.9493 -2.8465 0.9649
-7.6799 4.5489 -2.9989 0.9630
-8.0543 3.8473 -2.9990 0.9630
-8.6089 2.3583 -2.9990 0.9630
-8.7847 1.5827 -2.9990 0.9630
-8.8907 0.7945 -2.9990 0.9630
-8.4578 0.0000 -2.9990 0.9647
-8.4242 -0.7528 -2.9990 0.9647
-7.9260 -2.9516 -2.9990 0.9647
-7.6318 -3.6454 -2.9990 0.9647
-6.8644 -4.9407 -2.9990 0.9647
-5.8796 -6.0794 -2.9989 0.9647
-5.3151 -6.5786 -2.9989 0.9647
-4.0644 -7.4166 -2.9988 0.9647
-3.3881 -7.7488 -2.9988 0.9647
-1.9605 -8.2266 -2.9987 0.9647
0.2826 -8.4520 -2.9986 0.9647
1.7766 -8.2677 -2.9986 0.9647
2.5054 -8.0767 -2.9985 0.9647
5.7416 -6.2078 -2.9984 0.9647
6.7512 -5.0913 -2.9983 0.9647
7.1775 -4.4701 -2.9983 0.9648
7.5468 -3.8135 -2.9983 0.9648
7.8563 -3.1267 -2.9982 0.9648
8.1034 -2.4151 -2.9982 0.9648
8.4534 -0.1883 -2.9982 0.9648
9.8772 6.7803 -4.2481 0.9504
6.1864 5.1132 -2.8459 0.9665
5.7068 5.6436 -2.8459 0.9665
3.3785 7.2806 -2.8460 0.9665
2.7172 7.5525 -2.8460 0.9665
1.3350 7.9148 -2.8461 0.9665
0.6253 8.0023 -2.8461 0.9665
-0.0894 8.0263 -2.8462 0.9665
-0.8034 7.9865 -2.8462 0.9665
-2.2068 7.7178 -2.8463 0.9665
-3.5403 7.2044 -2.8463 0.9665
-4.1675 6.8607 -2.8464 0.9665
-5.3180 6.0133 -2.8464 0.9665
-6.3001 4.9752 -2.8465 0.9665
-7.0776 4.6300 -2.9989 0.9647
-8.0495 2.5957 -2.9990 0.9647
-8.2486 1.8689 -2.9990 0.9647
-8.4494 -0.3768 -2.9990 0.9647
-8.0496 -2.5956 -2.9990 0.9647
-7.4618 -3.9817 -2.9990 0.9647
-7.0777 -4.6300 -2.9990 0.9647
-6.6375 -5.2416 -2.9989 0.9647
-6.1446 -5.8115 -2.9989 0.9647
-5.0167 -6.8088 -2.9989 0.9647
-4.3908 -7.2282 -2.9988 0.9647
-3.7300 -7.5902 -2.9988 0.9647
-1.5921 -8.3057 -2.9987 0.9647
-0.8465 -8.4143 -2.9987 0.9647
2.8627 -7.9570 -2.9985 0.9647
4.2281 -7.3232 -2.9984 0.9647
5.4594 -6.4574 -2.9984 0.9647
6.0124 -5.9458 -2.9983 0.9647
7.7092 -3.4736 -2.9983 0.9648
8.2029 -2.0516 -2.9982 0.9648
8.3529 -1.3134 -2.9982 0.9648
8.4366 -0.5647 -2.9982 0.9648
8.4534 0.1884 -2.9982 0.9648
8.4031 0.9400 -2.9982 0.9648
8.2861 1.6843 -2.9982 0.9648
7.8562 3.1267 -2.9982 0.9648
7.5468 3.8136 -2.9982 0.9648
10.1694 6.3336 -4.2481 0.9504
9.5654 7.2136 -4.2481 0.9504
5.9525 5.3837 -2.8459 0.9665
4.9037 6.3539 -2.8459 0.9665
3.0509 7.4239 -2.8460 0.9665
2.3780 7.6661 -2.8461 0.9665
1.6863 7.8474 -2.8461 0.9665
0.9812 7.9665 -2.8461 0.9665
0.2682 8.0222 -2.8462 0.9665
-0.4469 8.0144 -2.8462 0.9665
-1.8608 7.8084 -2.8463 0.9665
-3.2158 7.3549 -2.8463 0.9665
-6.0722 5.2508 -2.8465 0.9665
-7.2769 4.3102 -2.9989 0.9647
-7.6317 3.6454 -2.9989 0.9647
-8.4242 0.7529 -2.9990 0.9647
-7.9995 -0.7148 -2.9990 0.9663
-7.5263 -2.8028 -2.9990 0.9663
-7.2470 -3.4616 -2.9990 0.9663
-6.9101 -4.0928 -2.9990 0.9663
-6.5183 -4.6916 -2.9989 0.9663
-6.0749 -5.2531 -2.9989 0.9663
-3.8595 -7.0426 -2.9988 0.9663
-3.2173 -7.3581 -2.9988 0.9663
-1.8617 -7.8118 -2.9987 0.9663
3.0523 -7.4273 -2.9985 0.9663
4.3207 -6.7682 -2.9984 0.9663
5.4522 -5.8948 -2.9984 0.9663
6.4109 -4.8346 -2.9983 0.9663
6.8157 -4.2448 -2.9983 0.9663
7.6949 -2.2933 -2.9983 0.9663
7.8684 -1.5993 -2.9982 0.9663
7.9795 -0.8926 -2.9982 0.9663
8.0114 0.5363 -2.9982 0.9663
7.7893 1.9483 -2.9982 0.9663
7.3205 3.2985 -2.9982 0.9663
6.9979 3.9370 -2.9983 0.9663
5.4191 5.3591 -2.8459 0.9680
4.9206 5.8202 -2.8459 0.9680
3.8108 6.6005 -2.8460 0.9680
3.2082 6.9136 -2.8460 0.9680
2.5802 7.1718 -2.8460 0.9680
-0.0849 7.6217 -2.8462 0.9680
-1.4349 7.4860 -2.8462 0.9680
-3.3618 6.8412 -2.8463 0.9680
-3.9574 6.5149 -2.8464 0.9680
-4.5216 6.1368 -2.8464 0.9680
-5.0499 5.7101 -2.8464 0.9680
-6.0141 4.7495 -2.8616 0.9678
-6.7207 4.3966 -2.9989 0.9663
-7.3939 3.1353 -2.9989 0.9663
-7.6437 2.4648 -2.9990 0.9663
-7.8328 1.7747 -2.9990 0.9663
-7.9596 1.0705 -2.9990 0.9663
-8.0233 0.3578 -2.9990 0.9663
-7.9597 -1.0704 -2.9990 0.9663
-7.8328 -1.7747 -2.9990 0.9663
-7.6437 -2.4648 -2.9990 0.9663
-7.0856 -3.7809 -2.9990 0.9663
-6.7209 -4.3966 -2.9989 0.9663
-6.3029 -4.9773 -2.9989 0.9663
-5.8348 -5.5185 -2.9989 0.9663
-5.3204 -6.0158 -2.9989 0.9663
-4.1694 -6.8638 -2.9988 0.9663
-3.5419 -7.2075 -2.9988 0.9663
-2.2078 -7.7212 -2.9987 0.9663
-0.0895 -8.0299 -2.9986 0.9663
0.6256 -8.0059 -2.9986 0.9663
1.3357 -7.9183 -2.9986 0.9663
4.6179 -6.5690 -2.9984 0.9663
5.7094 -5.6461 -2.9984 0.9663
6.9980 -3.9370 -2.9983 0.9663
7.5851 -2.6338 -2.9983 0.9663
7.9319 -1.2471 -2.9982 0.9663
8.0114 -0.5362 -2.9982 0.9663
7.6948 2.2933 -2.9982 0.9663
7.4602 2.9691 -2.9982 0.9663
7.1663 3.6213 -2.9982 0.9663
9.0832 6.8500 -4.2481 0.9526
5.6524 5.1124 -2.8459 0.9680
5.1750 5.5952 -2.8459 0.9680
4.1010 6.4242 -2.8460 0.9680
2.8971 7.0497 -2.8460 0.9680
0.9317 7.5648 -2.8461 0.9680
-1.1000 7.5425 -2.8462 0.9680
-1.7670 7.4147 -2.8463 0.9680
-4.2437 6.3321 -2.8464 0.9680
-5.7660 4.9861 -2.8465 0.9680
-6.5182 4.6916 -2.9989 0.9663
-6.9100 4.0928 -2.9989 0.9663
-7.5263 2.8029 -2.9989 0.9663
-7.7459 2.1218 -2.9990 0.9663
-7.9040 1.4240 -2.9990 0.9663
-7.9994 0.7148 -2.9990 0.9663
-7.6412 0.0000 -2.9990 0.9677
-7.6109 -0.6801 -2.9990 0.9677
-7.5202 -1.3548 -2.9990 0.9677
-7.3697 -2.0187 -2.9990 0.9677
-6.8950 -3.2934 -2.9989 0.9677
-4.8020 -5.9435 -2.9989 0.9677
-3.6720 -6.7006 -2.9988 0.9677
-2.4258 -7.2454 -2.9988 0.9677
-1.1027 -7.5605 -2.9987 0.9677
0.2553 -7.6361 -2.9986 0.9677
0.9339 -7.5829 -2.9986 0.9677
3.5215 -6.7800 -2.9985 0.9677
4.1109 -6.4396 -2.9984 0.9677
4.6677 -6.0481 -2.9984 0.9677
5.1874 -5.6086 -2.9984 0.9677
5.6660 -5.1246 -2.9984 0.9677
6.8184 -3.4455 -2.9983 0.9677
7.0980 -2.8249 -2.9983 0.9677
7.4864 -1.5216 -2.9983 0.9677
7.5921 -0.8493 -2.9982 0.9677
7.6223 0.5103 -2.9982 0.9677
7.5467 1.1867 -2.9982 0.9677
7.4111 1.8537 -2.9982 0.9677
8.3433 6.8959 -4.2482 0.9546
4.6817 5.5376 -2.8460 0.9693
3.6258 6.2800 -2.8460 0.9693
3.0524 6.5779 -2.8460 0.9693
-0.0808 7.2515 -2.8462 0.9693
-3.1986 6.5089 -2.8463 0.9693
-4.3020 5.8388 -2.8464 0.9693
-5.2692 4.9836 -2.8464 0.9693
-5.9834 4.7251 -2.9922 0.9678
-6.3944 4.1831 -2.9989 0.9677
-7.2724 2.3451 -2.9989 0.9677
-7.5730 1.0185 -2.9990 0.9677
-7.6337 0.3404 -2.9990 0.9677
-7.6337 -0.3404 -2.9990 0.9677
-7.5731 -1.0185 -2.9990 0.9677
-7.4524 -1.6885 -2.9990 0.9677
-7.2725 -2.3450 -2.9990 0.9677
-6.3945 -4.1830 -2.9989 0.9677
-3.9669 -6.5304 -2.9988 0.9677
-3.3699 -6.8575 -2.9988 0.9677
-2.7461 -7.1302 -2.9988 0.9677
-2.1006 -7.3462 -2.9987 0.9677
-1.4384 -7.5039 -2.9987 0.9677
-0.0851 -7.6399 -2.9986 0.9677
0.5952 -7.6171 -2.9986 0.9677
1.2708 -7.5338 -2.9986 0.9677
1.9363 -7.3907 -2.9985 0.9677
2.5864 -7.1890 -2.9985 0.9677
3.8200 -6.6163 -2.9985 0.9677
4.3937 -6.2500 -2.9984 0.9677
4.9325 -5.8341 -2.9984 0.9677
6.6582 -3.7458 -2.9983 0.9677
6.9651 -3.1383 -2.9983 0.9677
7.2168 -2.5059 -2.9983 0.9677
7.5467 -1.1866 -2.9983 0.9677
7.4863 1.5217 -2.9982 0.9677
6.8184 3.4455 -2.9983 0.9677
8.0278 7.2607 -4.2482 0.9546
4.4304 5.7406 -2.8460 0.9693
3.9019 6.1122 -2.8460 0.9693
3.3424 6.4353 -2.8460 0.9693
1.5235 7.0899 -2.8461 0.9693
-1.0466 7.1762 -2.8462 0.9693
-2.9054 6.6449 -2.8463 0.9693
-4.5579 5.6414 -2.8464 0.9693
-5.4998 4.7559 -2.8536 0.9692
-6.5744 3.8941 -2.9989 0.9677
-7.1607 2.6667 -2.9989 0.9677
-7.3697 2.0188 -2.9989 0.9677
-7.5201 1.3549 -2.9990 0.9677
-7.2829 0.0000 -2.9989 0.9690
-7.1675 -1.2912 -2.9990 0.9690
-6.2661 -3.7114 -2.9989 0.9690
-5.9109 -4.2544 -2.9989 0.9690
-5.0629 -5.2349 -2.9989 0.9690
-4.5768 -5.6647 -2.9988 0.9690
-2.9175 -6.6724 -2.9988 0.9690
-2.3120 -6.9056 -2.9987 0.9690
-1.6882 -7.0839 -2.9987 0.9690
-1.0510 -7.2060 -2.9987 0.9690
0.2433 -7.2780 -2.9986 0.9690
1.5299 -7.1194 -2.9986 0.9690
2.7679 -6.7352 -2.9985 0.9690
3.9181 -6.1376 -2.9984 0.9690
5.4003 -4.8843 -2.9984 0.9690
5.8136 -4.3842 -2.9983 0.9690
6.4987 -3.2839 -2.9983 0.9690
6.9779 -2.0796 -2.9983 0.9690
7.1353 -1.4503 -2.9983 0.9690
7.2649 0.4864 -2.9983 0.9690
7.0636 1.7668 -2.9983 0.9690
6.0030 4.1209 -2.9983 0.9690
4.4622 5.2779 -2.8460 0.9705
3.9747 5.6542 -2.8460 0.9705
2.9093 6.2694 -2.8460 0.9705
2.3398 6.5036 -2.8461 0.9705
1.7517 6.6860 -2.8461 0.9705
1.1496 6.8155 -2.8461 0.9705
-0.6919 6.8773 -2.8462 0.9705
-1.3012 6.7885 -2.8462 0.9705
-3.0486 6.2037 -2.8463 0.9705
-4.1003 5.5650 -2.8464 0.9705
-5.0299 4.7572 -2.8508 0.9705
-6.0945 3.9869 -2.9989 0.9690
-6.4252 3.4286 -2.9989 0.9690
-6.7049 2.8432 -2.9989 0.9690
-6.9314 2.2351 -2.9989 0.9690
-7.1028 1.6093 -2.9989 0.9690
-7.2756 0.3245 -2.9989 0.9690
-7.1028 -1.6093 -2.9989 0.9690
-6.4253 -3.4286 -2.9989 0.9690
-6.0946 -3.9869 -2.9989 0.9690
-5.2911 -5.0042 -2.9989 0.9690
-4.8246 -5.4552 -2.9989 0.9690
-4.3199 -5.8630 -2.9988 0.9690
-3.2119 -6.5359 -2.9988 0.9690
-2.0021 -7.0017 -2.9987 0.9690
-1.3709 -7.1520 -2.9987 0.9690
-0.7289 -7.2456 -2.9987 0.9690
-0.0811 -7.2816 -2.9986 0.9690
0.5673 -7.2599 -2.9986 0.9690
5.1774 -5.1200 -2.9984 0.9690
5.6125 -4.6388 -2.9984 0.9690
6.3460 -3.5701 -2.9983 0.9690
6.6385 -2.9911 -2.9983 0.9690
7.0636 -1.7667 -2.9983 0.9690
7.1928 -1.1310 -2.9983 0.9690
7.2649 -0.4863 -2.9983 0.9690
7.1353 1.4504 -2.9983 0.9690
6.9779 2.0797 -2.9983 0.9690
6.7651 2.6925 -2.9983 0.9690
7.6514 6.9203 -4.2482 0.9564
4.6928 5.0739 -2.8460 0.9705
4.2226 5.4714 -2.8460 0.9705
3.7189 5.8256 -2.8460 0.9705
0.8449 6.8600 -2.8461 0.9705
-5.9108 4.2544 -2.9989 0.9690
-6.5716 3.1390 -2.9989 0.9690
-6.8249 2.5416 -2.9989 0.9690
-7.0241 1.9241 -2.9989 0.9690
-7.2540 0.6482 -2.9989 0.9690
-6.9247 -0.6188 -2.9989 0.9702
-6.8422 -1.2326 -2.9989 0.9702
-6.7053 -1.8367 -2.9989 0.9702
-5.6426 -4.0613 -2.9989 0.9702
-5.2587 -4.5474 -2.9989 0.9702
-4.8331 -4.9973 -2.9989 0.9702
-2.2071 -6.5922 -2.9987 0.9702
-1.6116 -6.7624 -2.9987 0.9702
-1.0033 -6.8789 -2.9987 0.9702
-0.3870 -6.9408 -2.9987 0.9702
2.0595 -6.6393 -2.9985 0.9702
3.7403 -5.8591 -2.9985 0.9702
5.1552 -4.6626 -2.9984 0.9702
5.9002 -3.6746 -2.9983 0.9702
6.6613 -1.9853 -2.9983 0.9702
6.9353 0.4643 -2.9983 0.9702
6.3372 2.8554 -2.9983 0.9702
5.7306 3.9338 -2.9983 0.9702
7.0027 6.9251 -4.2482 0.9580
4.2597 5.0384 -2.8460 0.9717
3.7944 5.3976 -2.8460 0.9717
2.2336 6.2084 -2.8461 0.9717
1.0974 6.5062 -2.8461 0.9717
0.5140 6.5781 -2.8461 0.9717
-0.0735 6.5978 -2.8462 0.9717
-1.2422 6.4804 -2.8462 0.9717
-2.3715 6.1576 -2.8463 0.9717
-2.9102 5.9221 -2.8463 0.9717
-3.4258 5.6396 -2.8463 0.9717
-3.9142 5.3124 -2.8464 0.9717
-5.8179 3.8059 -2.9989 0.9702
-6.6168 2.1337 -2.9989 0.9702
-6.7804 1.5363 -2.9989 0.9702
-6.9454 -0.3097 -2.9989 0.9702
-6.7805 -1.5362 -2.9989 0.9702
-6.4006 -2.7140 -2.9989 0.9702
-6.1336 -3.2730 -2.9989 0.9702
-5.8179 -3.8059 -2.9989 0.9702
-5.0509 -4.7771 -2.9989 0.9702
-2.4986 -6.4873 -2.9988 0.9702
-1.9112 -6.6839 -2.9987 0.9702
-1.3087 -6.8274 -2.9987 0.9702
-0.0774 -6.9512 -2.9986 0.9702
0.5416 -6.9304 -2.9986 0.9702
2.3532 -6.5409 -2.9985 0.9702
2.9260 -6.3054 -2.9985 0.9702
3.4756 -6.0199 -2.9985 0.9702
4.4878 -5.3082 -2.9984 0.9702
5.3578 -4.4283 -2.9984 0.9702
5.7307 -3.9338 -2.9984 0.9702
6.0580 -3.4081 -2.9983 0.9702
6.3373 -2.8554 -2.9983 0.9702
6.5663 -2.2800 -2.9983 0.9702
6.7431 -1.6865 -2.9983 0.9702
6.8664 -1.0796 -2.9983 0.9702
6.9353 -0.4642 -2.9983 0.9702
6.9491 0.1549 -2.9983 0.9702
6.6613 1.9853 -2.9983 0.9702
6.4581 2.5703 -2.9983 0.9702
6.2037 3.1349 -2.9983 0.9702
5.5497 4.1853 -2.9983 0.9702
4.0310 5.2232 -2.8460 0.9717
3.5502 5.5612 -2.8460 0.9717
1.9548 6.3018 -2.8461 0.9717
1.3862 6.4508 -2.8461 0.9717
0.2205 6.5945 -2.8462 0.9717
-0.3673 6.5880 -2.8462 0.9717
-0.9523 6.5292 -2.8462 0.9717
-1.5296 6.4187 -2.8462 0.9717
-2.6435 6.0458 -2.8463 0.9717
-3.1711 5.7866 -2.8463 0.9717
-5.9817 3.5430 -2.9989 0.9702
-6.7052 1.8368 -2.9989 0.9702
-6.8421 1.2327 -2.9989 0.9702
-6.9247 0.6188 -2.9989 0.9702
-6.6463 0.0000 -2.9989 0.9713
-5.9972 -2.8646 -2.9989 0.9713
-5.3942 -3.8825 -2.9989 0.9713
-5.0272 -4.3472 -2.9989 0.9713
-4.1768 -5.1696 -2.9988 0.9713
-3.7000 -5.5208 -2.9988 0.9713
-3.1939 -5.8282 -2.9988 0.9713
-2.1099 -6.3020 -2.9987 0.9713
-0.3700 -6.6354 -2.9987 0.9713
1.9689 -6.3471 -2.9985 0.9713
2.5260 -6.1465 -2.9985 0.9713
3.0630 -5.8973 -2.9985 0.9713
3.5757 -5.6012 -2.9985 0.9713
4.0600 -5.2607 -2.9984 0.9713
4.5121 -4.8784 -2.9984 0.9713
5.3055 -4.0010 -2.9984 0.9713
5.9308 -2.9969 -2.9983 0.9713
6.1740 -2.4571 -2.9983 0.9713
6.3681 -1.8979 -2.9983 0.9713
6.5642 1.0322 -2.9983 0.9713
6.0583 2.7298 -2.9983 0.9713
5.7914 3.2582 -2.9983 0.9713
5.1220 4.2335 -2.9983 0.9713
6.6945 6.6203 -4.2483 0.9595
6.0787 7.1900 -4.2483 0.9595
3.6274 5.1601 -2.8460 0.9727
2.6550 5.7215 -2.8461 0.9727
1.5986 6.1017 -2.8461 0.9727
1.0491 6.2198 -2.8461 0.9727
0.4914 6.2886 -2.8462 0.9727
-2.2671 5.8866 -2.8463 0.9727
-3.2750 5.3914 -2.8463 0.9727
-4.1970 4.7465 -2.8591 0.9726
-4.8285 4.5668 -2.9988 0.9713
-5.2159 4.1190 -2.9988 0.9713
-5.8636 3.1289 -2.9989 0.9713
-6.1188 2.5946 -2.9989 0.9713
-6.4820 1.4687 -2.9989 0.9713
-6.5870 0.8859 -2.9989 0.9713
-6.6397 0.2961 -2.9989 0.9713
-6.4820 -1.4686 -2.9989 0.9713
-5.8636 -3.1289 -2.9989 0.9713
-5.5619 -3.6384 -2.9989 0.9713
-5.2159 -4.1189 -2.9989 0.9713
-2.3886 -6.2018 -2.9987 0.9713
-0.6652 -6.6123 -2.9987 0.9713
3.3227 -5.7550 -2.9985 0.9713
3.8217 -5.4363 -2.9984 0.9713
4.2903 -5.0746 -2.9984 0.9713
4.7249 -4.6725 -2.9984 0.9713
5.4785 -3.7607 -2.9984 0.9713
5.7914 -3.2582 -2.9983 0.9713
6.2773 -2.1796 -2.9983 0.9713
6.6301 -0.4438 -2.9983 0.9713
6.6432 0.1481 -2.9983 0.9713
6.6037 0.7387 -2.9983 0.9713
6.5117 1.3236 -2.9983 0.9713
5.9307 2.9970 -2.9983 0.9713
5.6405 3.5129 -2.9983 0.9713
5.3054 4.0011 -2.9983 0.9713
6.9827 6.3155 -4.2482 0.9595
6.3929 6.9120 -4.2483 0.9595
3.8536 4.9933 -2.8460 0.9727
2.9073 5.5975 -2.8460 0.9727
2.3976 5.8341 -2.8461 0.9727
1.8688 6.0244 -2.8461 0.9727
1.3252 6.1669 -2.8461 0.9727
0.7710 6.2604 -2.8461 0.9727
-0.3512 6.2981 -2.8462 0.9727
-0.9103 6.2419 -2.8462 0.9727
-3.5119 5.2402 -2.8463 0.9727
-3.9644 4.9068 -2.8464 0.9727
-4.5703 4.7257 -2.9664 0.9716
-5.0272 4.3472 -2.9988 0.9713
-5.3942 3.8826 -2.9988 0.9713
-5.9972 2.8647 -2.9989 0.9713
-6.2284 2.3195 -2.9989 0.9713
-6.4101 1.7559 -2.9989 0.9713
-6.3620 0.0000 -2.9989 0.9723
-6.3368 -0.5662 -2.9989 0.9723
-6.2612 -1.1280 -2.9989 0.9723
-6.1360 -1.6808 -2.9989 0.9723
-5.9620 -2.2202 -2.9989 0.9723
-5.7407 -2.7421 -2.9989 0.9723
-5.4738 -3.2421 -2.9989 0.9723
-4.4227 -4.5730 -2.9988 0.9723
-3.9981 -4.9485 -2.9988 0.9723
-3.5418 -5.2846 -2.9988 0.9723
-0.3542 -6.3516 -2.9987 0.9723
0.2126 -6.3578 -2.9986 0.9723
0.7776 -6.3136 -2.9986 0.9723
1.3365 -6.2193 -2.9986 0.9723
2.9320 -5.6451 -2.9985 0.9723
3.8864 -5.0357 -2.9984 0.9723
4.3191 -4.6698 -2.9984 0.9723
4.7176 -4.2668 -2.9984 0.9723
5.0786 -3.8300 -2.9984 0.9723
5.3993 -3.3627 -2.9984 0.9723
5.6772 -2.8687 -2.9983 0.9723
6.0958 -1.8167 -2.9983 0.9723
6.2333 -1.2669 -2.9983 0.9723
6.3213 -0.7071 -2.9983 0.9723
6.3592 -0.1417 -2.9983 0.9723
6.3465 0.4249 -2.9983 0.9723
6.0088 2.0865 -2.9983 0.9723
5.5437 3.1188 -2.9983 0.9723
5.2441 3.5999 -2.9983 0.9723
3.4722 4.9394 -2.8460 0.9737
2.5415 5.4769 -2.8461 0.9737
1.5302 5.8408 -2.8461 0.9737
1.0043 5.9538 -2.8461 0.9737
0.4704 6.0197 -2.8462 0.9737
-0.0673 6.0377 -2.8462 0.9737
-1.6600 5.8055 -2.8463 0.9737
-2.6631 5.4193 -2.8463 0.9737
-3.1349 5.1608 -2.8463 0.9737
-4.6220 4.3715 -2.9988 0.9723
-6.0549 1.9525 -2.9989 0.9723
-6.2047 1.4059 -2.9989 0.9723
-6.3557 0.2834 -2.9989 0.9723
-6.3557 -0.2833 -2.9989 0.9723
-6.2048 -1.4058 -2.9989 0.9723
-6.0550 -1.9525 -2.9989 0.9723
-5.8572 -2.4836 -2.9989 0.9723
-5.3240 -3.4828 -2.9989 0.9723
-4.9928 -3.9428 -2.9989 0.9723
-4.6221 -4.3715 -2.9988 0.9723
-4.2146 -4.7655 -2.9988 0.9723
-3.7737 -5.1217 -2.9988 0.9723
-3.3028 -5.4372 -2.9988 0.9723
-2.8058 -5.7096 -2.9988 0.9723
-1.7490 -6.1165 -2.9987 0.9723
-1.1976 -6.2478 -2.9987 0.9723
-0.6368 -6.3295 -2.9987 0.9723
0.4956 -6.3420 -2.9986 0.9723
1.0581 -6.2727 -2.9986 0.9723
1.6122 -6.1536 -2.9986 0.9723
2.1535 -5.9856 -2.9985 0.9723
2.6776 -5.7701 -2.9985 0.9723
3.1806 -5.5088 -2.9985 0.9723
4.1068 -4.8576 -2.9984 0.9723
4.9030 -4.0524 -2.9984 0.9723
5.5437 -3.1188 -2.9984 0.9723
6.0088 -2.0864 -2.9983 0.9723
6.2835 -0.9880 -2.9983 0.9723
6.3465 -0.4248 -2.9983 0.9723
6.3592 0.1418 -2.9983 0.9723
6.2333 1.2670 -2.9983 0.9723
6.0958 1.8168 -2.9983 0.9723
5.9099 2.3521 -2.9983 0.9723
5.3993 3.3627 -2.9983 0.9723
5.0786 3.8299 -2.9983 0.9723
6.6841 6.0454 -4.2483 0.9609
6.1196 6.6164 -4.2483 0.9609
5.5064 7.1348 -4.2483 0.9609
2.2950 5.5846 -2.8461 0.9737
1.7889 5.7668 -2.8461 0.9737
1.2685 5.9032 -2.8461 0.9737
0.7381 5.9927 -2.8461 0.9737
0.2018 6.0346 -2.8462 0.9737
-0.3362 6.0287 -2.8462 0.9737
-0.8714 5.9749 -2.8462 0.9737
-1.3998 5.8737 -2.8462 0.9737
-3.8302 4.7408 -2.8729 0.9734
-4.4227 4.5730 -2.9988 0.9723
-4.8122 4.1613 -2.9988 0.9723
-5.4738 3.2422 -2.9988 0.9723
-6.1359 1.6808 -2.9989 0.9723
-6.0971 0.0000 -2.9989 0.9732
-6.0729 -0.5426 -2.9989 0.9732
-5.8805 -1.6108 -2.9989 0.9732
-5.5017 -2.6279 -2.9989 0.9732
-5.2459 -3.1071 -2.9989 0.9732
-4.6119 -3.9880 -2.9988 0.9732
-3.3943 -5.0646 -2.9988 0.9732
-1.9356 -5.7813 -2.9987 0.9732
-0.3394 -6.0871 -2.9986 0.9732
0.2037 -6.0931 -2.9986 0.9732
1.2808 -5.9604 -2.9986 0.9732
1.8062 -5.8227 -2.9985 0.9732
2.8099 -5.4101 -2.9985 0.9732
3.7246 -4.8261 -2.9985 0.9732
4.1393 -4.4754 -2.9984 0.9732
5.1745 -3.2227 -2.9984 0.9732
5.4408 -2.7493 -2.9984 0.9732
5.8420 -1.7411 -2.9983 0.9732
5.9738 -1.2142 -2.9983 0.9732
6.0944 -0.1358 -2.9983 0.9732
6.0823 0.4072 -2.9983 0.9732
6.0219 0.9470 -2.9983 0.9732
5.9138 1.4792 -2.9983 0.9732
5.7587 1.9997 -2.9983 0.9732
5.5578 2.5043 -2.9983 0.9732
5.3129 2.9891 -2.9983 0.9732
5.0258 3.4501 -2.9984 0.9732
4.6988 3.8837 -2.9984 0.9732
5.5765 6.5959 -4.2483 0.9622
1.4665 5.5976 -2.8461 0.9745
-0.0645 5.7863 -2.8462 0.9745
-1.0894 5.6833 -2.8462 0.9745
-1.5909 5.5638 -2.8463 0.9745
-3.4895 4.7360 -2.8934 0.9741
-5.3791 2.8704 -2.9988 0.9732
-5.6132 2.3803 -2.9989 0.9732
-5.8028 1.8712 -2.9989 0.9732
-5.9464 1.3473 -2.9989 0.9732
-6.0427 0.8127 -2.9989 0.9732
-6.0911 0.2716 -2.9989 0.9732
-6.0911 -0.2716 -2.9989 0.9732
-5.9464 -1.3472 -2.9989 0.9732
-5.8029 -1.8712 -2.9989 0.9732
-5.6133 -2.3802 -2.9989 0.9732
-4.7849 -3.7786 -2.9988 0.9732
-3.6166 -4.9084 -2.9988 0.9732
-1.6761 -5.8618 -2.9987 0.9732
-0.6103 -6.0660 -2.9987 0.9732
1.0140 -6.0115 -2.9986 0.9732
1.5451 -5.8973 -2.9986 0.9732
2.0638 -5.7364 -2.9985 0.9732
3.0481 -5.2795 -2.9985 0.9732
3.5059 -4.9872 -2.9985 0.9732
5.0259 -3.4500 -2.9984 0.9732
5.5579 -2.5042 -2.9984 0.9732
5.7587 -1.9996 -2.9983 0.9732
6.0944 0.1359 -2.9983 0.9732
5.9738 1.2143 -2.9983 0.9732
5.4408 2.7494 -2.9983 0.9732
4.8671 3.6705 -2.9984 0.9732
5.8647 6.3409 -4.2483 0.9622
4.6476 7.2804 -4.2484 0.9622
2.6671 5.1351 -2.8461 0.9745
0.1934 5.7834 -2.8462 0.9745
-0.3222 5.7777 -2.8462 0.9745
-2.3183 5.3022 -2.8463 0.9745
-3.8134 4.7200 -2.9846 0.9733
-4.6118 3.9880 -2.9988 0.9732
-4.9485 3.5617 -2.9988 0.9732
-5.7137 2.1279 -2.9989 0.9732
-5.8804 1.6109 -2.9989 0.9732
-6.0729 0.5427 -2.9989 0.9732
-5.8495 0.0000 -2.9989 0.9740
-5.8263 -0.5206 -2.9989 0.9740
-4.7476 -3.4171 -2.9988 0.9740
-4.4246 -3.8260 -2.9988 0.9740
-4.0665 -4.2047 -2.9988 0.9740
-2.3433 -5.3593 -2.9987 0.9741
-0.3256 -5.8400 -2.9986 0.9741
2.2232 -5.4098 -2.9985 0.9741
2.6959 -5.1904 -2.9985 0.9741
3.1471 -4.9298 -2.9985 0.9741
3.5734 -4.6301 -2.9985 0.9741
4.3376 -3.9232 -2.9984 0.9741
5.4340 -2.1626 -2.9984 0.9741
5.6049 -1.6704 -2.9983 0.9741
5.7313 -1.1649 -2.9983 0.9741
5.7775 0.9085 -2.9983 0.9741
5.3322 2.4026 -2.9983 0.9741
5.0972 2.8677 -2.9983 0.9741
4.8218 3.3100 -2.9984 0.9741
4.5080 3.7260 -2.9984 0.9741
5.3501 6.3281 -4.2483 0.9634
4.7657 6.7793 -4.2483 0.9634
1.8793 5.2238 -2.8461 0.9754
1.4070 5.3704 -2.8461 0.9754
0.4325 5.5348 -2.8462 0.9754
-0.0618 5.5514 -2.8462 0.9754
-0.5557 5.5239 -2.8462 0.9754
-2.8863 4.7515 -2.8501 0.9753
-3.4697 4.7091 -2.9987 0.9740
-4.5906 3.6252 -2.9988 0.9740
-5.5672 1.7952 -2.9989 0.9740
-5.8437 0.2606 -2.9989 0.9740
-5.7973 -0.7796 -2.9989 0.9740
-5.1607 -2.7538 -2.9989 0.9740
-4.8951 -3.2022 -2.9989 0.9740
-4.5907 -3.6251 -2.9988 0.9740
-3.8751 -4.3816 -2.9988 0.9740
-3.4697 -4.7091 -2.9988 0.9740
-2.1023 -5.4584 -2.9987 0.9741
-1.1011 -5.7445 -2.9987 0.9741
0.4557 -5.8312 -2.9986 0.9741
0.9729 -5.7674 -2.9986 0.9741
1.9800 -5.5035 -2.9985 0.9741
2.4620 -5.3054 -2.9985 0.9741
2.9244 -5.0652 -2.9985 0.9741
3.3636 -4.7847 -2.9985 0.9741
3.7761 -4.4663 -2.9984 0.9741
4.5081 -3.7260 -2.9984 0.9741
4.8218 -3.3100 -2.9984 0.9741
5.3322 -2.4026 -2.9984 0.9741
5.5249 -1.9184 -2.9984 0.9741
5.6737 -1.4190 -2.9983 0.9741
5.7775 -0.9084 -2.9983 0.9741
5.8354 -0.3906 -2.9983 0.9741
5.8470 0.1303 -2.9983 0.9741
5.8122 0.6502 -2.9983 0.9741
5.7313 1.1650 -2.9983 0.9741
5.6048 1.6705 -2.9983 0.9741
5.2199 2.6378 -2.9983 0.9741
4.9644 3.0919 -2.9984 0.9741
4.3376 3.9232 -2.9984 0.9741
2.5588 4.9266 -2.8461 0.9754
1.6448 5.3023 -2.8461 0.9754
0.6786 5.5100 -2.8461 0.9754
0.1855 5.5486 -2.8462 0.9754
-0.3091 5.5431 -2.8462 0.9754
-0.8012 5.4937 -2.8462 0.9754
-1.7626 5.2647 -2.8463 0.9754
-2.6682 4.8688 -2.8463 0.9754
-3.6760 4.5499 -2.9988 0.9740
-4.4245 3.8261 -2.9988 0.9740
-4.7475 3.4171 -2.9988 0.9740
-5.0329 2.9810 -2.9988 0.9740
-5.2782 2.5213 -2.9988 0.9740
-5.4817 2.0415 -2.9989 0.9740
-5.7568 1.0372 -2.9989 0.9740
-5.5952 -0.5000 -2.9989 0.9749
-5.5285 -0.9960 -2.9989 0.9749
-5.0689 -2.4212 -2.9989 0.9749
-4.5593 -3.2815 -2.9988 0.9749
-3.9052 -4.0379 -2.9988 0.9749
-3.5303 -4.3694 -2.9988 0.9749
-2.2504 -5.1467 -2.9987 0.9749
-1.3022 -5.4641 -2.9987 0.9749
-0.8107 -5.5583 -2.9987 0.9749
0.1877 -5.6139 -2.9986 0.9749
0.6866 -5.5748 -2.9986 0.9749
2.1350 -5.1952 -2.9985 0.9749
2.5889 -4.9845 -2.9985 0.9749
3.0223 -4.7343 -2.9985 0.9749
3.4317 -4.4465 -2.9985 0.9749
3.8138 -4.1234 -2.9984 0.9749
4.1656 -3.7675 -2.9984 0.9749
4.7676 -2.9692 -2.9984 0.9749
5.5040 -1.1187 -2.9983 0.9749
5.5817 -0.6244 -2.9983 0.9749
5.5483 0.8725 -2.9983 0.9749
5.4487 1.3629 -2.9983 0.9749
4.8951 2.7539 -2.9984 0.9749
4.6305 3.1787 -2.9984 0.9749
3.9936 3.9494 -2.9984 0.9749
5.1380 6.0772 -4.2483 0.9646
3.9790 6.8919 -4.2484 0.9646
3.3499 7.2188 -4.2484 0.9646
1.3512 5.1574 -2.8461 0.9761
-3.3320 4.5223 -2.9987 0.9749
-3.7214 4.2079 -2.9988 0.9749
-4.4085 3.4814 -2.9988 0.9749
-5.1717 2.1930 -2.9988 0.9749
-5.3464 1.7240 -2.9989 0.9749
-5.4786 1.2413 -2.9989 0.9749
-5.5674 0.7488 -2.9989 0.9749
-5.4787 -1.2412 -2.9989 0.9749
-5.3464 -1.7240 -2.9989 0.9749
-4.7009 -3.0752 -2.9988 0.9749
-4.4086 -3.4813 -2.9988 0.9749
-4.0812 -3.8599 -2.9988 0.9749
-3.7214 -4.2078 -2.9988 0.9749
-2.9163 -4.8009 -2.9988 0.9749
-2.4774 -5.0414 -2.9987 0.9749
-1.5443 -5.4007 -2.9987 0.9749
-1.0575 -5.5167 -2.9987 0.9749
-0.0626 -5.6167 -2.9986 0.9749
0.4376 -5.5999 -2.9986 0.9749
0.9343 -5.5387 -2.9986 0.9749
1.4235 -5.4335 -2.9986 0.9749
1.9015 -5.2852 -2.9985 0.9749
2.3643 -5.0950 -2.9985 0.9749
2.8084 -4.8643 -2.9985 0.9749
3.2302 -4.5950 -2.9985 0.9749
3.6263 -4.2892 -2.9985 0.9749
4.6306 -3.1787 -2.9984 0.9749
5.4487 -1.3628 -2.9984 0.9749
5.5484 -0.8724 -2.9983 0.9749
5.5040 1.1187 -2.9983 0.9749
5.2184 2.0769 -2.9983 0.9749
5.0129 2.5332 -2.9984 0.9749
4.7675 2.9693 -2.9984 0.9749
4.4844 3.3819 -2.9984 0.9749
4.1656 3.7676 -2.9984 0.9749
3.8137 4.1234 -2.9984 0.9749
0.6517 5.2915 -2.8461 0.9761
-0.7694 5.2758 -2.8462 0.9761
-1.2360 5.1864 -2.8462 0.9761
-1.6927 5.0558 -2.8463 0.9761
-2.1360 4.8852 -2.8463 0.9761
-2.5950 4.7353 -2.8826 0.9758
-3.1273 4.6662 -2.9987 0.9749
-3.5302 4.3694 -2.9988 0.9749
-3.9051 4.0379 -2.9988 0.9749
-4.5592 3.2816 -2.9988 0.9749
-4.8332 2.8628 -2.9988 0.9749
-5.0689 2.4212 -2.9988 0.9749
-5.2643 1.9605 -2.9988 0.9749
-5.5285 0.9960 -2.9989 0.9749
-5.3995 0.0001 -2.9989 0.9756
-5.2076 -1.4265 -2.9989 0.9756
-5.0600 -1.8843 -2.9989 0.9756
-4.3823 -3.1542 -2.9988 0.9756
-4.0842 -3.5317 -2.9988 0.9756
-3.7536 -3.8812 -2.9988 0.9756
-3.3933 -4.1998 -2.9988 0.9756
-2.5948 -4.7349 -2.9987 0.9756
-2.1631 -4.9470 -2.9987 0.9756
-1.7142 -5.1199 -2.9987 0.9756
-1.2516 -5.2521 -2.9987 0.9756
-0.3006 -5.3907 -2.9986 0.9756
0.1804 -5.3960 -2.9986 0.9756
1.5996 -5.1565 -2.9986 0.9756
2.0522 -4.9936 -2.9985 0.9756
3.2985 -4.2740 -2.9985 0.9756
4.0040 -3.6214 -2.9984 0.9756
5.0160 -1.9963 -2.9984 0.9756
5.1737 -1.5419 -2.9984 0.9756
5.2904 -1.0753 -2.9984 0.9756
5.3651 -0.6001 -2.9984 0.9756
5.3865 0.3606 -2.9983 0.9756
5.3330 0.8386 -2.9983 0.9756
5.0999 1.7709 -2.9984 0.9756
4.9220 2.2178 -2.9984 0.9756
4.7051 2.6471 -2.9984 0.9756
4.4509 3.0554 -2.9984 0.9756
4.1613 3.4394 -2.9984 0.9756
3.8387 3.7962 -2.9984 0.9756
3.8247 6.6245 -4.2484 0.9656
3.2199 6.9387 -4.2484 0.9656
-0.5130 5.0990 -2.8462 0.9768
-0.9648 5.0331 -2.8462 0.9768
-1.8419 4.7824 -2.8463 0.9768
-2.8031 4.6146 -2.9987 0.9756
-3.2027 4.3468 -2.9987 0.9756
-3.9227 3.7102 -2.9988 0.9756
-4.2374 3.3463 -2.9988 0.9756
-4.5185 2.9559 -2.9988 0.9756
-4.7636 2.5420 -2.9988 0.9756
-5.1389 1.6571 -2.9988 0.9756
-5.2660 1.1931 -2.9988 0.9756
-5.3941 0.2405 -2.9989 0.9756
-5.3513 -0.7197 -2.9989 0.9756
-4.7637 -2.5420 -2.9988 0.9756
-4.2375 -3.3463 -2.9988 0.9756
-2.8032 -4.6146 -2.9988 0.9756
-2.3813 -4.8458 -2.9987 0.9756
