ply
format ascii 1.0
element vertex 1585
property float32 x
property float32 y
property float32 z
property float32 I
end_header
1.0778 -5.0154 0.2133 0.9797
1.6292 -5.2522 0.2286 0.9782
-0.0563 -5.0566 0.2103 0.9800
0.3877 -4.9615 0.2069 0.9803
1.9968 -5.5502 0.2453 0.9767
0.6081 -4.9373 0.1241 0.9803
1.0757 -5.0061 0.1277 0.9797
1.6255 -5.2400 0.1368 0.9783
-1.1400 -5.9471 0.1510 0.9761
-0.5307 -5.2748 0.1322 0.9790
0.8366 -4.9600 0.1254 0.9801
1.3320 -5.0842 0.1311 0.9792
-0.7999 -5.4848 0.0461 0.9781
0.1662 -4.9718 0.0413 0.9803
0.6071 -4.9291 0.0413 0.9803
1.0737 -4.9967 0.0425 0.9798
1.6217 -5.2278 0.0455 0.9783
-0.5294 -5.2626 0.0440 0.9791
-0.0561 -5.0392 0.0419 0.9800
1.9800 -5.5034 0.0486 0.9769
-0.8000 -5.4852 -0.0461 0.9781
-0.2862 -5.1329 -0.0427 0.9796
0.6071 -4.9293 -0.0413 0.9803
1.0738 -4.9970 -0.0425 0.9798
-0.5295 -5.2630 -0.0440 0.9791
-0.0561 -5.0395 -0.0419 0.9800
0.8353 -4.9518 -0.0417 0.9801
1.9800 -5.5037 -0.0486 0.9769
-0.8019 -5.4985 -0.1386 0.9780
-0.0562 -5.0481 -0.1259 0.9800
0.8367 -4.9602 -0.1254 0.9801
-0.8039 -5.5119 -0.2316 0.9779
0.1668 -4.9888 -0.2075 0.9802
0.6091 -4.9458 -0.2072 0.9802
1.0778 -5.0157 -0.2133 0.9797
1.6293 -5.2525 -0.2287 0.9782
-0.5319 -5.2874 -0.2210 0.9790
-0.0563 -5.0568 -0.2103 0.9800
-0.8058 -5.5253 -0.3252 0.9779
0.1671 -4.9973 -0.2912 0.9802
0.6102 -4.9542 -0.2907 0.9802
1.0798 -5.0251 -0.2994 0.9796
1.6332 -5.2648 -0.3211 0.9782
-1.1529 -6.0144 -0.3567 0.9758
0.8395 -4.9771 -0.2940 0.9800
2.0070 -5.5786 -0.3453 0.9765
1.6392 -5.2843 -0.4146 0.9781
-0.5347 -5.3155 -0.4003 0.9788
-0.0565 -5.0742 -0.3803 0.9799
0.8410 -4.9856 -0.3789 0.9799
1.0882 -5.0639 -0.4748 0.9794
-0.5387 -5.3550 -0.4934 0.9786
-0.0568 -5.1000 -0.4676 0.9797
1.3506 -5.1554 -0.4886 0.9788
2.0630 -5.7342 -0.5587 0.9758
-0.2920 -5.2359 -0.5688 0.9791
0.6174 -5.0127 -0.5478 0.9799
1.6681 -5.3773 -0.6107 0.9776
0.3928 -5.0270 -0.5469 0.9799
-0.2938 -5.2685 -0.6613 0.9790
0.1700 -5.0848 -0.6376 0.9797
0.6207 -5.0399 -0.6364 0.9797
1.1014 -5.1254 -0.6570 0.9791
1.6846 -5.4308 -0.7126 0.9773
-0.5469 -5.4364 -0.6847 0.9782
0.8544 -5.0652 -0.6437 0.9795
1.3704 -5.2307 -0.6776 0.9784
-0.2956 -5.3016 -0.7553 0.9788
0.1709 -5.1129 -0.7277 0.9795
0.6241 -5.0675 -0.7262 0.9796
-0.0578 -5.1855 -0.7376 0.9793
0.8591 -5.0932 -0.7347 0.9793
1.3814 -5.2728 -0.7753 0.9782
-0.8675 -5.9480 -0.9572 0.9759
1.1200 -5.2119 -0.8489 0.9786
1.7423 -5.6168 -0.9364 0.9765
-0.5599 -5.5651 -0.8906 0.9776
-0.0583 -5.2324 -0.8332 0.9790
0.8667 -5.1379 -0.8297 0.9791
1.4007 -5.3463 -0.8801 0.9779
0.1742 -5.2096 -0.9191 0.9791
0.6357 -5.1619 -0.9171 0.9791
1.1330 -5.2726 -0.9509 0.9783
1.7777 -5.7308 -1.0580 0.9759
-0.5682 -5.6478 -1.0009 0.9772
-0.0589 -5.2877 -0.9324 0.9788
1.4206 -5.4223 -0.9884 0.9775
-0.3062 -5.4914 -1.0643 0.9778
0.1760 -5.2648 -1.0194 0.9788
0.6424 -5.2160 -1.0170 0.9788
1.1464 -5.3351 -1.0560 0.9780
2.4472 14.5078 -2.8472 0.9418
1.1460 14.6653 -2.8466 0.9418
-0.1638 14.7064 -2.8461 0.9418
-4.0412 14.1328 -2.8446 0.9419
-5.2821 13.7146 -2.8441 0.9419
-6.4807 13.1878 -2.8436 0.9419
-7.6275 12.5567 -2.8431 0.9419
-8.7135 11.8261 -2.8427 0.9419
-10.6694 10.0910 -2.8419 0.9419
-11.5238 9.1003 -2.8416 0.9419
-12.9521 6.9115 -2.8410 0.9419
-13.5148 5.7308 -2.8408 0.9419
-0.0595 -5.3446 -1.0343 0.9785
0.4083 -5.2250 -1.0142 0.9789
9.7789 7.3746 -2.3702 0.9513
7.9228 12.4108 -2.8494 0.9418
0.4915 14.7004 -2.8464 0.9418
-0.8187 14.6831 -2.8459 0.9418
-3.4079 14.3001 -2.8448 0.9419
-7.0612 12.8850 -2.8434 0.9419
-10.2099 10.5570 -2.8421 0.9419
-11.9171 8.5774 -2.8414 0.9419
-12.6320 7.4819 -2.8411 0.9419
-12.2181 -7.2368 -2.9937 0.9436
-8.9283 -11.0508 -2.9951 0.9436
-7.9104 -11.8032 -2.9955 0.9436
-6.8295 -12.4622 -2.9959 0.9436
-5.6940 -13.0226 -2.9964 0.9436
-4.5131 -13.4799 -2.9969 0.9435
0.1781 -5.3260 -1.1235 0.9785
1.1649 -5.4209 -1.1689 0.9776
5.4106 -13.1659 -3.0009 0.9435
12.7167 -6.4260 -3.0038 0.9434
13.9649 -2.8385 -3.0043 0.9434
14.2190 0.9518 -3.0044 0.9434
10.4216 8.6137 -2.8504 0.9462
9.6125 9.5060 -2.8501 0.9462
6.7568 11.7030 -2.8489 0.9463
2.2463 13.3168 -2.8471 0.9463
1.0519 13.4616 -2.8466 0.9463
-0.1504 13.4994 -2.8461 0.9463
-1.3511 13.4302 -2.8456 0.9463
-2.5407 13.2544 -2.8452 0.9463
-7.0022 11.5272 -2.8434 0.9464
-7.9992 10.8567 -2.8430 0.9464
-9.7950 9.2640 -2.8423 0.9464
-10.5795 8.3545 -2.8420 0.9464
-13.5127 4.3573 -2.9932 0.9436
-14.0702 -1.8922 -2.9930 0.9436
-12.5279 -6.6850 -2.9936 0.9436
-11.8842 -7.7743 -2.9939 0.9436
-10.3197 -9.7603 -2.9945 0.9436
-9.4112 -10.6413 -2.9949 0.9436
-7.3773 -12.1447 -2.9957 0.9436
-6.2680 -12.7551 -2.9962 0.9436
-5.1087 -13.2644 -2.9966 0.9435
-2.6768 -13.9646 -2.9976 0.9435
-0.5973 -5.9376 -1.2581 0.9759
-0.0604 -5.4173 -1.1421 0.9781
0.4127 -5.2814 -1.1168 0.9786
5.9921 -12.9128 -3.0011 0.9435
8.1891 -11.6491 -3.0020 0.9435
9.1947 -10.8755 -3.0024 0.9434
10.1274 -10.0152 -3.0027 0.9434
12.4173 -6.9859 -3.0037 0.9434
13.4610 -4.6742 -3.0041 0.9434
13.8243 -3.4577 -3.0042 0.9434
14.0776 -2.2136 -3.0043 0.9434
14.2190 -0.9519 -3.0044 0.9434
14.1624 1.5843 -3.0043 0.9434
12.5661 5.0012 -2.8513 0.9462
12.0702 6.0994 -2.8511 0.9462
9.7519 7.3543 -2.5750 0.9513
10.0270 9.0689 -2.8502 0.9462
9.1789 9.9241 -2.8499 0.9462
8.2581 10.7003 -2.8495 0.9462
7.2719 11.3913 -2.8491 0.9463
5.1354 12.4963 -2.8483 0.9463
4.0022 12.9017 -2.8478 0.9463
1.6507 13.4025 -2.8469 0.9463
-3.1283 13.1270 -2.8449 0.9463
-4.2836 12.7944 -2.8445 0.9463
-6.4822 11.8285 -2.8436 0.9464
-8.4744 10.4888 -2.8428 0.9464
-9.3731 9.6917 -2.8424 0.9464
-10.1973 8.8180 -2.8421 0.9464
-12.7832 4.7605 -2.8758 0.9458
-13.6931 3.7510 -2.9931 0.9436
-14.1403 1.2636 -2.9929 0.9436
-13.1148 0.0000 -2.9934 0.9476
-12.9074 -2.3254 -2.9935 0.9476
-12.6496 -3.4651 -2.9936 0.9476
-11.8362 -5.6536 -2.9939 0.9476
-11.2868 -6.6852 -2.9941 0.9476
-10.6479 -7.6639 -2.9944 0.9476
-9.1223 -9.4324 -2.9950 0.9476
-8.2475 -10.2081 -2.9954 0.9476
-7.3071 -10.9030 -2.9957 0.9476
-6.3086 -11.5117 -2.9961 0.9476
-4.1688 -12.4514 -2.9970 0.9476
-1.8956 -12.9972 -2.9979 0.9475
0.1813 -5.4232 -1.2385 0.9780
0.6614 -5.3701 -1.2349 0.9780
7.0761 -11.0845 -3.0015 0.9475
8.0356 -10.4120 -3.0019 0.9475
9.7566 -8.8243 -3.0026 0.9475
11.1687 -6.9559 -3.0032 0.9474
11.7444 -5.9347 -3.0034 0.9474
12.2268 -4.8661 -3.0036 0.9474
12.6120 -3.7588 -3.0037 0.9474
12.8969 -2.6214 -3.0038 0.9474
13.0794 -1.4631 -3.0039 0.9474
12.7671 3.1933 -3.0038 0.9474
11.3876 5.1310 -2.8508 0.9500
10.8849 6.1238 -2.8506 0.9500
10.0845 6.9226 -2.7919 0.9511
8.0602 9.5336 -2.8494 0.9501
7.1787 10.2119 -2.8491 0.9501
5.2530 11.3198 -2.8483 0.9501
4.2240 11.7407 -2.8479 0.9501
2.0747 12.2999 -2.8470 0.9501
-1.2480 12.4052 -2.8457 0.9501
-4.4790 11.6294 -2.8444 0.9502
-5.4955 11.1830 -2.8440 0.9502
-6.4681 10.6480 -2.8436 0.9502
-7.3892 10.0288 -2.8432 0.9502
-8.2515 9.3301 -2.8429 0.9502
-10.4202 6.8165 -2.8420 0.9502
-10.9846 5.8616 -2.8418 0.9502
-11.4620 4.8603 -2.8416 0.9502
-12.9979 1.7481 -2.9934 0.9476
-13.1018 0.5842 -2.9934 0.9476
-12.7912 -2.8981 -2.9935 0.9476
-12.0759 -5.1206 -2.9938 0.9476
-11.5730 -6.1755 -2.9940 0.9476
-10.9783 -7.1817 -2.9942 0.9476
-10.2965 -8.1310 -2.9945 0.9476
-9.5329 -9.0161 -2.9948 0.9476
-7.7851 -10.5660 -2.9955 0.9476
-5.7899 -11.7821 -2.9964 0.9476
-3.6102 -12.6257 -2.9972 0.9475
-2.4725 -12.8989 -2.9977 0.9475
-0.6285 -6.2475 -1.4331 0.9746
0.4199 -5.3737 -1.2303 0.9781
1.5325 -5.8495 -1.3802 0.9755
4.4503 -12.3697 -3.0005 0.9475
5.5344 -11.9263 -3.0009 0.9475
6.5748 -11.3879 -3.0013 0.9475
7.5633 -10.7589 -3.0017 0.9475
9.3533 -9.2497 -3.0024 0.9475
10.1405 -8.3813 -3.0027 0.9475
13.1317 -0.8790 -3.0039 0.9474
13.1578 0.2932 -3.0039 0.9474
13.0793 1.4631 -3.0039 0.9474
12.8969 2.6214 -3.0038 0.9474
11.1473 5.6330 -2.8507 0.9500
10.6009 6.6023 -2.8505 0.9501
9.7249 7.3339 -2.7801 0.9513
9.2606 8.3757 -2.8499 0.9501
5.7524 11.0754 -2.8485 0.9501
3.6965 11.9164 -2.8477 0.9501
1.5246 12.3791 -2.8468 0.9501
-0.6942 12.4494 -2.8459 0.9501
-2.8896 12.1253 -2.8450 0.9501
-3.9568 11.8182 -2.8446 0.9502
-5.9878 10.9263 -2.8438 0.9502
-6.9356 10.3487 -2.8434 0.9502
-7.8282 9.6890 -2.8431 0.9502
-11.2345 5.3663 -2.8417 0.9502
-12.2915 4.5774 -2.9937 0.9476
-12.9073 2.3254 -2.9934 0.9476
-12.1313 -1.0840 -2.9938 0.9511
-11.7476 -3.2180 -2.9939 0.9511
-11.4150 -4.2510 -2.9941 0.9511
-10.4818 -6.2084 -2.9944 0.9511
-9.2165 -7.9698 -2.9950 0.9510
-6.7857 -10.1250 -2.9959 0.9510
-5.8583 -10.6901 -2.9963 0.9510
-4.8842 -11.1706 -2.9967 0.9510
-0.3298 -5.9152 -1.4562 0.9759
0.6736 -5.4694 -1.3545 0.9776
3.6162 -11.6576 -3.0001 0.9510
4.6401 -11.2910 -3.0005 0.9510
6.5702 -10.2921 -3.0013 0.9509
8.2928 -8.9661 -3.0020 0.9509
9.0589 -8.1933 -3.0023 0.9509
10.9043 -5.5102 -3.0030 0.9509
11.7098 -3.4899 -3.0034 0.9509
11.9743 -2.4339 -3.0035 0.9509
12.1437 -1.3585 -3.0035 0.9509
12.0709 1.8981 -3.0035 0.9509
11.8537 2.9648 -3.0034 0.9509
11.5423 4.0079 -3.0033 0.9509
9.5594 6.5622 -2.8501 0.9534
8.2429 8.1516 -2.8495 0.9534
7.4839 8.8520 -2.8492 0.9534
6.6655 9.4818 -2.8489 0.9534
5.7944 10.0362 -2.8485 0.9534
4.8775 10.5108 -2.8482 0.9534
1.9265 11.4211 -2.8470 0.9534
-2.1792 11.3688 -2.8453 0.9534
-3.1820 11.1281 -2.8449 0.9534
-4.1593 10.7993 -2.8445 0.9535
-5.1033 10.3848 -2.8441 0.9535
-6.0065 9.8881 -2.8438 0.9535
-6.8620 9.3131 -2.8434 0.9535
-8.4027 7.9472 -2.8428 0.9535
-9.0758 7.1671 -2.8426 0.9535
-9.6769 6.3304 -2.8423 0.9535
-11.8790 2.6914 -2.9938 0.9511
-12.1675 0.5426 -2.9937 0.9511
-12.0711 -1.6234 -2.9938 0.9511
-11.8790 -2.6914 -2.9939 0.9511
-11.2147 -4.7554 -2.9941 0.9511
-6.3283 -10.4179 -2.9961 0.9510
-4.3821 -11.3778 -2.9969 0.9510
-3.3525 -11.7243 -2.9973 0.9510
-2.2960 -11.9778 -2.9978 0.9510
-1.2209 -12.1364 -2.9982 0.9510
-0.0629 -5.6462 -1.3879 0.9770
0.9327 -5.5292 -1.3783 0.9772
4.1322 -11.4857 -3.0003 0.9510
6.1048 -10.5739 -3.0011 0.9510
7.8848 -9.3262 -3.0018 0.9509
10.0715 -6.9137 -3.0027 0.9509
10.6477 -5.9903 -3.0029 0.9509
11.1393 -5.0191 -3.0031 0.9509
11.5424 -4.0079 -3.0033 0.9509
11.8538 -2.9648 -3.0034 0.9509
12.0710 -1.8981 -3.0035 0.9509
11.7097 3.4899 -3.0033 0.9509
10.3500 5.2301 -2.8504 0.9534
9.8427 6.1300 -2.8502 0.9534
9.2572 6.9812 -2.8499 0.9534
8.5983 7.7767 -2.8497 0.9534
7.8712 8.5103 -2.8494 0.9534
7.0817 9.1760 -2.8491 0.9534
6.2361 9.7688 -2.8487 0.9534
5.3412 10.2837 -2.8483 0.9534
1.4157 11.4948 -2.8468 0.9534
0.3869 11.5735 -2.8464 0.9534
-0.6446 11.5603 -2.8459 0.9534
-1.6707 11.4554 -2.8455 0.9534
-2.6833 11.2596 -2.8451 0.9534
-4.6359 10.6026 -2.8443 0.9535
-6.4407 9.6102 -2.8436 0.9535
-7.2696 8.9977 -2.8433 0.9535
-8.0407 8.3141 -2.8430 0.9535
-8.7480 7.5647 -2.8427 0.9535
-9.3857 6.7554 -2.8424 0.9535
-10.4332 4.9835 -2.8420 0.9535
-11.7475 3.2180 -2.9939 0.9511
-11.1829 -2.0147 -2.9941 0.9541
-10.9596 -3.0021 -2.9942 0.9541
-10.2546 -4.8982 -2.9945 0.9541
-8.5981 -7.4351 -2.9952 0.9541
-7.9030 -8.1716 -2.9955 0.9541
-7.1450 -8.8435 -2.9958 0.9541
-2.6372 -11.0662 -2.9976 0.9540
-0.6335 -11.3615 -2.9984 0.9540
0.6913 -5.6132 -1.4903 0.9769
3.3732 -10.8741 -3.0000 0.9540
6.9594 -9.0176 -3.0015 0.9540
7.7352 -8.3632 -3.0018 0.9540
8.4497 -7.6423 -3.0021 0.9540
9.0971 -6.8605 -3.0023 0.9540
9.6724 -6.0240 -3.0026 0.9540
10.5885 -4.2141 -3.0029 0.9540
11.1687 -2.2701 -3.0031 0.9539
11.3267 -1.2671 -3.0032 0.9539
11.3719 0.7612 -3.0032 0.9539
11.2588 1.7704 -3.0032 0.9539
11.0563 2.7654 -3.0031 0.9540
9.4266 5.3033 -2.8500 0.9562
8.9165 6.1208 -2.8498 0.9562
8.3356 6.8896 -2.8496 0.9563
7.6886 7.6034 -2.8493 0.9563
6.2174 8.8444 -2.8487 0.9563
4.5497 9.8043 -2.8480 0.9563
2.7385 10.4529 -2.8473 0.9563
-0.1203 10.8007 -2.8462 0.9563
-1.0810 10.7456 -2.8458 0.9563
-2.0329 10.6053 -2.8454 0.9563
-2.9683 10.3809 -2.8450 0.9563
-4.7607 9.6877 -2.8443 0.9563
-7.8389 7.4140 -2.8431 0.9563
-8.4669 6.6863 -2.8428 0.9564
-9.0277 5.9057 -2.8426 0.9564
-9.5169 5.0784 -2.8424 0.9564
-11.2614 1.5145 -2.9941 0.9541
-11.3514 -0.5062 -2.9941 0.9541
-11.2615 -1.5145 -2.9941 0.9541
-11.0822 -2.5109 -2.9942 0.9541
-10.8152 -3.4874 -2.9943 0.9541
-10.4624 -4.4364 -2.9944 0.9541
-8.9204 -7.0444 -2.9951 0.9541
-8.2588 -7.8111 -2.9953 0.9541
-7.5315 -8.5160 -2.9956 0.9541
-6.7444 -9.1535 -2.9960 0.9541
-5.9036 -9.7186 -2.9963 0.9541
-5.0157 -10.2067 -2.9967 0.9540
-3.1274 -10.9371 -2.9974 0.9540
0.4380 -5.6054 -1.4815 0.9770
5.6944 -9.8630 -3.0010 0.9540
7.3546 -8.6990 -3.0016 0.9540
8.7821 -7.2586 -3.0022 0.9540
9.3941 -6.4487 -3.0024 0.9540
11.2589 -1.7704 -3.0032 0.9539
11.3266 1.2671 -3.0032 0.9539
10.9219 3.2551 -3.0030 0.9540
10.5884 4.2141 -3.0029 0.9540
9.6538 4.8783 -2.8501 0.9562
9.1806 5.7178 -2.8499 0.9562
8.0201 7.2537 -2.8494 0.9563
7.3419 7.9380 -2.8492 0.9563
6.6056 8.5591 -2.8489 0.9563
5.8169 9.1120 -2.8485 0.9563
4.9822 9.5924 -2.8482 0.9563
4.1081 9.9966 -2.8479 0.9563
-0.6013 10.7839 -2.8460 0.9563
-3.4276 10.2377 -2.8448 0.9563
-5.1872 9.4654 -2.8441 0.9563
-6.7818 8.3939 -2.8435 0.9563
-7.5012 7.7562 -2.8432 0.9563
-8.1610 7.0571 -2.8429 0.9564
-8.7560 6.3022 -2.8427 0.9564
-9.9406 4.7482 -2.9028 0.9555
-10.9595 3.0021 -2.9942 0.9541
-11.3176 1.0113 -2.9941 0.9541
-10.6426 0.0000 -2.9944 0.9567
-10.6004 -0.9472 -2.9944 0.9567
-10.4742 -1.8870 -2.9944 0.9567
-10.2650 -2.8119 -2.9945 0.9567
-8.6402 -6.2188 -2.9952 0.9567
-7.4019 -7.6536 -2.9957 0.9567
-6.6920 -8.2828 -2.9960 0.9567
-5.9288 -8.8464 -2.9963 0.9567
-5.1185 -9.3400 -2.9966 0.9567
-2.4699 -10.3642 -2.9977 0.9567
-0.5933 -10.6405 -2.9984 0.9567
0.1963 -5.8716 -1.6529 0.9759
0.7149 -5.8047 -1.6455 0.9760
2.2398 -10.4232 -2.9996 0.9567
3.1590 -10.1837 -2.9999 0.9567
4.9157 -9.4645 -3.0006 0.9567
5.7393 -8.9904 -3.0010 0.9566
6.5173 -8.4448 -3.0013 0.9566
9.0578 -5.6412 -3.0023 0.9566
9.5245 -4.8129 -3.0025 0.9566
10.4589 -2.1258 -3.0029 0.9566
10.6068 -1.1865 -3.0029 0.9566
10.6492 0.7129 -3.0029 0.9566
10.5433 1.6579 -3.0029 0.9566
10.0817 3.5008 -3.0027 0.9566
8.8276 4.9663 -2.8498 0.9588
8.3499 5.7319 -2.8496 0.9588
7.2002 7.1204 -2.8491 0.9588
5.8225 8.2826 -2.8486 0.9588
5.0616 8.7670 -2.8482 0.9588
4.2607 9.1817 -2.8479 0.9588
3.4262 9.5233 -2.8476 0.9588
1.6830 9.9775 -2.8469 0.9588
-0.1127 10.1152 -2.8462 0.9588
-1.0124 10.0637 -2.8458 0.9588
-1.9039 9.9325 -2.8454 0.9588
-3.6339 9.4352 -2.8447 0.9589
-4.4587 9.0733 -2.8444 0.9589
-5.9955 8.1372 -2.8438 0.9589
-7.3419 6.9439 -2.8433 0.9589
-10.5477 1.4185 -2.9944 0.9567
-10.6320 -0.4741 -2.9944 0.9567
-10.3799 -2.3518 -2.9945 0.9567
-10.1297 -3.2664 -2.9946 0.9567
-9.3910 -5.0112 -2.9949 0.9567
-7.0540 -7.9761 -2.9958 0.9567
-5.5292 -9.1022 -2.9964 0.9567
-4.6976 -9.5593 -2.9968 0.9567
-3.8286 -9.9407 -2.9971 0.9567
-2.0059 -10.4646 -2.9979 0.9567
-0.0699 -6.2730 -1.7651 0.9743
0.4524 -5.7896 -1.6339 0.9762
1.0153 -6.0191 -1.7174 0.9750
2.7021 -10.3137 -2.9998 0.9567
3.6098 -10.0335 -3.0001 0.9567
4.4890 -9.6735 -3.0005 0.9567
5.3328 -9.2366 -3.0008 0.9566
7.5858 -7.5018 -3.0017 0.9566
8.7972 -6.0389 -3.0022 0.9566
9.3004 -5.2323 -3.0024 0.9566
9.7297 -4.3840 -3.0026 0.9566
10.0817 -3.5008 -3.0027 0.9566
10.3537 -2.5896 -3.0028 0.9566
10.5433 -1.6579 -3.0029 0.9566
10.6492 -0.7129 -3.0029 0.9566
10.6704 0.2378 -3.0029 0.9566
10.6068 1.1866 -3.0029 0.9566
10.4589 2.1259 -3.0028 0.9566
8.5973 5.3545 -2.8497 0.9588
8.0860 6.0979 -2.8495 0.9588
6.8755 7.4337 -2.8490 0.9588
6.1860 8.0154 -2.8487 0.9588
5.4475 8.5333 -2.8484 0.9588
3.8473 9.3618 -2.8478 0.9588
2.9984 9.6659 -2.8474 0.9588
1.2368 10.0419 -2.8467 0.9588
0.3380 10.1109 -2.8463 0.9588
-1.4596 10.0080 -2.8456 0.9588
-2.3443 9.8372 -2.8453 0.9588
-3.2102 9.5883 -2.8449 0.9589
-4.8582 8.8652 -2.8443 0.9589
-5.6274 8.3967 -2.8439 0.9589
-7.6436 6.6097 -2.8431 0.9589
-8.2010 5.9027 -2.8429 0.9589
-8.6932 5.1490 -2.8427 0.9589
-10.6004 0.9473 -2.9944 0.9567
-10.0027 0.0000 -2.9946 0.9591
-9.8445 -1.7736 -2.9947 0.9591
-9.6478 -2.6428 -2.9948 0.9591
-9.0271 -4.3119 -2.9950 0.9591
-8.6080 -5.0985 -2.9952 0.9591
-6.2894 -7.7845 -2.9961 0.9591
-4.8105 -8.7781 -2.9967 0.9591
-1.4453 -9.9095 -2.9981 0.9590
0.3347 -10.0111 -2.9988 0.9590
1.2246 -9.9428 -2.9992 0.9590
2.1049 -9.7955 -2.9995 0.9590
5.3935 -8.4487 -3.0008 0.9590
6.1246 -7.9359 -3.0011 0.9590
9.3179 -3.7085 -3.0024 0.9590
9.8284 -1.9977 -3.0026 0.9590
9.9674 -1.1150 -3.0027 0.9590
10.0271 -0.2234 -3.0027 0.9590
9.4739 3.2897 -3.0024 0.9590
9.1431 4.1197 -3.0023 0.9590
12.3828 6.9664 -4.2536 0.9424
6.7663 6.6913 -2.8489 0.9610
4.7567 8.2389 -2.8481 0.9611
4.0041 8.6286 -2.8478 0.9611
3.2199 8.9497 -2.8475 0.9611
1.5816 9.3767 -2.8468 0.9611
-0.1059 9.5062 -2.8462 0.9611
-0.9515 9.4580 -2.8458 0.9611
-1.7893 9.3346 -2.8455 0.9611
-2.6127 9.1373 -2.8452 0.9611
-3.4152 8.8674 -2.8448 0.9611
-6.2926 7.1152 -2.8437 0.9611
-6.9003 6.5263 -2.8434 0.9611
-7.4532 5.8858 -2.8432 0.9611
-8.8262 4.7098 -2.9951 0.9591
-9.7557 2.2104 -2.9947 0.9591
-9.9136 1.3333 -2.9946 0.9591
-9.9928 -0.4456 -2.9946 0.9591
-9.9136 -1.3333 -2.9947 0.9591
-9.7558 -2.2104 -2.9947 0.9591
-9.2100 -3.9054 -2.9949 0.9591
-7.8524 -6.2010 -2.9955 0.9591
-6.6297 -7.4962 -2.9960 0.9591
-4.4149 -8.9842 -2.9969 0.9591
-3.5982 -9.3425 -2.9972 0.9591
-1.8852 -9.8347 -2.9979 0.9591
-1.0025 -9.9646 -2.9983 0.9590
-0.1116 -10.0155 -2.9986 0.9590
0.7804 -9.9869 -2.9990 0.9590
1.6664 -9.8790 -2.9993 0.9590
6.4724 -7.6556 -3.0013 0.9590
8.2669 -5.6749 -3.0020 0.9590
9.4740 -3.2897 -3.0025 0.9590
9.7295 -2.4336 -3.0026 0.9590
10.0072 -0.6699 -3.0027 0.9590
10.0271 0.2235 -3.0027 0.9590
9.8284 1.9977 -3.0026 0.9590
9.3178 3.7084 -3.0024 0.9590
12.6813 6.4081 -4.2537 0.9424
6.4612 6.9858 -2.8488 0.9610
4.3847 8.4421 -2.8480 0.9611
3.6155 8.7979 -2.8477 0.9611
0.3177 9.5021 -2.8463 0.9611
-0.5292 9.4915 -2.8460 0.9611
-1.3718 9.4056 -2.8457 0.9611
-3.8066 8.7061 -2.8447 0.9611
-4.5659 8.3318 -2.8444 0.9611
-5.2889 7.8915 -2.8441 0.9611
-6.6030 6.8275 -2.8436 0.9611
-7.7078 5.5477 -2.8431 0.9611
-8.1704 4.8394 -2.8429 0.9611
-9.6477 2.6428 -2.9947 0.9591
-9.9631 0.8903 -2.9946 0.9591
-9.3927 -0.8393 -2.9949 0.9612
-9.0954 -2.4915 -2.9950 0.9612
-7.6556 -5.5101 -2.9956 0.9612
-5.9292 -7.3387 -2.9963 0.9612
-2.1882 -9.1822 -2.9978 0.9612
-1.3624 -9.3415 -2.9981 0.9612
-0.5256 -9.4268 -2.9985 0.9612
1.9842 -9.2339 -2.9995 0.9611
3.5908 -8.7376 -3.0001 0.9611
5.0841 -7.9641 -3.0007 0.9611
5.7733 -7.4807 -3.0010 0.9611
7.0093 -6.3396 -3.0015 0.9611
7.5463 -5.6909 -3.0017 0.9611
8.0234 -4.9970 -3.0019 0.9611
9.0597 -2.7001 -3.0023 0.9611
9.1711 2.2938 -3.0023 0.9611
8.9302 3.1009 -3.0022 0.9611
8.6184 3.8833 -3.0021 0.9611
11.6723 6.5667 -4.2533 0.9453
7.3964 5.0774 -2.8492 0.9630
6.3781 6.3074 -2.8488 0.9631
4.4839 7.7663 -2.8480 0.9631
3.0352 8.4365 -2.8474 0.9631
0.6982 8.9357 -2.8465 0.9631
-3.9504 8.0388 -2.8446 0.9631
-5.3121 7.2097 -2.8441 0.9631
-5.9322 6.7077 -2.8438 0.9631
-6.5052 6.1526 -2.8436 0.9631
-7.0264 5.5487 -2.8434 0.9631
-7.4919 4.9010 -2.8432 0.9631
-8.3209 4.4402 -2.9953 0.9612
-8.6826 3.6818 -2.9951 0.9612
-9.4207 0.4201 -2.9948 0.9612
-9.4207 -0.4201 -2.9948 0.9612
-9.3460 -1.2569 -2.9949 0.9612
-9.1973 -2.0838 -2.9949 0.9612
-8.9756 -2.8943 -2.9950 0.9612
-8.6827 -3.6818 -2.9952 0.9612
-8.3210 -4.4402 -2.9953 0.9612
-7.8932 -5.1635 -2.9955 0.9612
-6.8536 -6.4821 -2.9959 0.9612
-5.5967 -7.5958 -2.9964 0.9612
-4.8988 -8.0646 -2.9967 0.9612
-3.3920 -8.8072 -2.9973 0.9612
-2.5950 -9.0751 -2.9976 0.9612
-1.7771 -9.2711 -2.9980 0.9612
-0.1052 -9.4414 -2.9986 0.9611
2.3937 -9.1368 -2.9996 0.9611
3.1978 -8.8884 -3.0000 0.9611
3.9766 -8.5694 -3.0003 0.9611
4.7240 -8.1822 -3.0006 0.9611
6.1011 -7.2164 -3.0011 0.9611
6.7197 -6.6453 -3.0014 0.9611
7.2850 -6.0212 -3.0016 0.9611
7.7926 -5.3493 -3.0018 0.9611
8.2382 -4.6348 -3.0020 0.9611
9.4329 -0.6314 -3.0024 0.9611
8.7831 3.4956 -3.0022 0.9611
7.1627 5.4016 -2.8491 0.9630
6.6530 6.0173 -2.8489 0.9631
5.4798 7.1004 -2.8484 0.9631
3.4082 8.2933 -2.8476 0.9631
-0.4989 8.9475 -2.8460 0.9631
-1.2932 8.8666 -2.8457 0.9631
-2.8441 8.4950 -2.8451 0.9631
-3.5886 8.2073 -2.8448 0.9631
-4.9859 7.4395 -2.8442 0.9631
-5.6278 6.9656 -2.8439 0.9631
-6.2249 6.4365 -2.8437 0.9631
-7.2664 5.2300 -2.8433 0.9631
-8.5102 4.0650 -2.9952 0.9612
-8.8378 3.2912 -2.9951 0.9612
-8.9143 0.0000 -2.9951 0.9631
-8.8790 -0.7934 -2.9951 0.9631
-8.7733 -1.5806 -2.9951 0.9631
-8.5980 -2.3552 -2.9952 0.9631
-8.3545 -3.1112 -2.9953 0.9631
-7.6712 -4.5437 -2.9956 0.9631
-7.2368 -5.2087 -2.9957 0.9631
-5.6048 -6.9371 -2.9964 0.9631
-4.2868 -7.8223 -2.9969 0.9631
-3.5739 -8.1736 -2.9972 0.9631
-2.8325 -8.4601 -2.9975 0.9631
-1.2878 -8.8301 -2.9982 0.9630
-0.4969 -8.9107 -2.9985 0.9630
1.0911 -8.8595 -2.9991 0.9630
1.8755 -8.7281 -2.9994 0.9630
2.6452 -8.5274 -2.9997 0.9630
4.1161 -7.9248 -3.0003 0.9630
4.8055 -7.5277 -3.0006 0.9630
6.6252 -5.9921 -3.0013 0.9630
7.5836 -4.7231 -3.0017 0.9630
7.9743 -4.0296 -3.0019 0.9630
8.3017 -3.3040 -3.0020 0.9630
8.5631 -2.5520 -3.0021 0.9630
8.9157 0.5968 -3.0022 0.9630
8.6683 2.1681 -3.0021 0.9630
11.0325 6.2068 -4.2531 0.9480
6.0285 5.9618 -2.8486 0.9649
4.8752 6.9350 -2.8482 0.9649
4.2382 7.3408 -2.8479 0.9649
3.5677 7.6881 -2.8476 0.9649
2.1476 8.1972 -2.8471 0.9649
0.6600 8.4463 -2.8465 0.9649
-2.3282 8.1422 -2.8453 0.9649
-3.7342 7.5989 -2.8447 0.9649
-4.3953 7.2357 -2.8444 0.9649
-5.6076 6.3407 -2.8440 0.9649
-7.8657 4.1973 -2.9955 0.9631
-8.4846 2.7359 -2.9952 0.9631
-8.8349 1.1882 -2.9951 0.9631
-8.9055 0.3971 -2.9951 0.9631
-8.8349 -1.1882 -2.9951 0.9631
-8.6942 -1.9699 -2.9951 0.9631
-8.4847 -2.7359 -2.9952 0.9631
-7.8658 -4.1973 -2.9955 0.9631
-7.4614 -4.8810 -2.9957 0.9631
-6.9978 -5.5261 -2.9958 0.9631
-5.2904 -7.1802 -2.9965 0.9631
-3.9342 -8.0059 -2.9971 0.9631
-3.2064 -8.3251 -2.9974 0.9631
-2.4529 -8.5784 -2.9977 0.9631
-0.8933 -8.8792 -2.9983 0.9630
-0.0994 -8.9244 -2.9986 0.9630
0.6954 -8.8988 -2.9989 0.9630
1.4848 -8.8025 -2.9993 0.9630
2.2626 -8.6363 -2.9996 0.9630
4.4652 -7.7340 -3.0005 0.9630
6.3514 -6.2811 -3.0012 0.9630
6.8858 -5.6912 -3.0014 0.9630
8.1461 -3.6704 -3.0019 0.9630
8.6684 -2.1681 -3.0021 0.9630
8.8271 -1.3880 -3.0022 0.9630
8.8802 0.9934 -3.0022 0.9630
8.7564 1.7798 -3.0022 0.9630
7.9742 4.0296 -3.0018 0.9630
10.7447 6.6919 -4.2529 0.9480
6.2884 5.6875 -2.8487 0.9649
4.5612 7.1450 -2.8480 0.9649
3.2215 7.8391 -2.8475 0.9649
2.5107 8.0938 -2.8472 0.9649
1.7802 8.2843 -2.8469 0.9649
-0.4716 8.4576 -2.8460 0.9649
-1.2224 8.3812 -2.8457 0.9649
-3.3922 7.7581 -2.8448 0.9649
-6.4020 5.5360 -2.8436 0.9649
-6.8689 4.9439 -2.8435 0.9649
-7.6711 4.5436 -2.9955 0.9631
-8.3544 3.1112 -2.9953 0.9631
-8.4137 -0.7519 -2.9953 0.9648
-8.3135 -1.4977 -2.9953 0.9648
-7.2691 -4.3055 -2.9957 0.9648
-6.3913 -5.5268 -2.9961 0.9648
-5.8745 -6.0742 -2.9963 0.9648
-4.7052 -7.0206 -2.9968 0.9648
-4.0620 -7.4121 -2.9970 0.9648
-3.3864 -7.7450 -2.9973 0.9648
-1.2203 -8.3669 -2.9982 0.9648
-0.4708 -8.4432 -2.9985 0.9647
0.2826 -8.4524 -2.9988 0.9647
2.5064 -8.0798 -2.9997 0.9647
6.2773 -5.6775 -3.0012 0.9647
7.1853 -4.4750 -3.0015 0.9647
7.5555 -3.8179 -3.0017 0.9647
7.8656 -3.1304 -3.0018 0.9647
8.3634 1.3151 -3.0020 0.9647
8.2130 2.0542 -3.0019 0.9647
7.3776 4.1506 -3.0016 0.9647
5.1862 6.1342 -2.8483 0.9665
4.6192 6.5709 -2.8481 0.9665
4.0157 6.9554 -2.8478 0.9665
3.3804 7.2846 -2.8476 0.9665
0.6254 8.0031 -2.8465 0.9665
-0.0894 8.0262 -2.8462 0.9665
-1.5108 7.8816 -2.8456 0.9665
-3.5384 7.2004 -2.8448 0.9665
-4.1649 6.8563 -2.8445 0.9665
-4.7582 6.4579 -2.8443 0.9665
-5.3137 6.0082 -2.8441 0.9665
-6.2939 4.9702 -2.8437 0.9665
-7.0702 4.6251 -2.9958 0.9648
-7.4534 3.9773 -2.9956 0.9648
-8.0399 2.5926 -2.9954 0.9648
-8.2385 1.8666 -2.9953 0.9648
-8.3718 1.1259 -2.9953 0.9648
-8.4388 0.3763 -2.9952 0.9648
-8.3719 -1.1259 -2.9953 0.9648
-7.0703 -4.6252 -2.9958 0.9648
-6.6310 -5.2364 -2.9960 0.9648
-6.1390 -5.8062 -2.9962 0.9648
-5.5983 -6.3300 -2.9964 0.9648
-5.0130 -6.8037 -2.9966 0.9648
-4.3879 -7.2235 -2.9969 0.9648
-2.3243 -8.1284 -2.9977 0.9648
-1.5917 -8.3038 -2.9980 0.9648
-0.8464 -8.4134 -2.9983 0.9647
0.6589 -8.4319 -2.9989 0.9647
2.1439 -8.1830 -2.9995 0.9647
2.8640 -7.9606 -2.9998 0.9647
4.2308 -7.3280 -3.0004 0.9647
6.0179 -5.9512 -3.0011 0.9647
6.5242 -5.3923 -3.0013 0.9647
6.9786 -4.7906 -3.0015 0.9647
7.3777 -4.1506 -3.0016 0.9647
7.7182 -3.4777 -3.0018 0.9647
7.9974 -2.7770 -3.0019 0.9647
8.4642 0.1887 -3.0020 0.9647
8.4138 0.9412 -3.0020 0.9647
8.2965 1.6863 -3.0020 0.9647
7.8656 3.1304 -3.0018 0.9647
10.1805 6.3404 -4.2527 0.9504
5.4545 5.8973 -2.8484 0.9665
4.9076 6.3589 -2.8482 0.9665
4.3218 6.7699 -2.8480 0.9665
3.0524 7.4276 -2.8474 0.9665
2.3790 7.6690 -2.8472 0.9665
0.9813 7.9678 -2.8466 0.9665
-0.4468 8.0139 -2.8460 0.9665
-1.1582 7.9415 -2.8457 0.9665
-1.8603 7.8062 -2.8455 0.9665
-2.5475 7.6089 -2.8452 0.9665
-3.2143 7.3512 -2.8449 0.9665
-3.8555 7.0353 -2.8447 0.9665
-4.4660 6.6637 -2.8444 0.9665
-6.5911 4.7440 -2.8795 0.9661
-7.2690 4.3055 -2.9957 0.9648
-7.6230 3.6412 -2.9956 0.9648
-7.9166 2.9482 -2.9954 0.9648
-8.0218 0.0000 -2.9954 0.9663
-7.8948 -1.4223 -2.9955 0.9663
-7.7370 -2.1194 -2.9955 0.9663
-7.2392 -3.4579 -2.9957 0.9663
-6.9030 -4.0886 -2.9959 0.9663
-6.5120 -4.6871 -2.9960 0.9663
-6.0694 -5.2484 -2.9962 0.9663
-5.5785 -5.7682 -2.9964 0.9663
-5.0434 -6.2422 -2.9966 0.9663
-2.5486 -7.6124 -2.9976 0.9663
-1.8612 -7.8097 -2.9979 0.9663
-1.1588 -7.9452 -2.9982 0.9663
-0.4471 -8.0175 -2.9985 0.9663
0.9818 -7.9713 -2.9991 0.9663
1.6875 -7.8530 -2.9993 0.9663
2.3800 -7.6723 -2.9996 0.9663
3.0537 -7.4307 -2.9999 0.9663
4.3236 -6.7727 -3.0004 0.9663
4.9096 -6.3615 -3.0006 0.9663
5.4567 -5.8997 -3.0009 0.9663
6.8227 -4.2492 -3.0014 0.9663
7.1742 -3.6253 -3.0015 0.9663
7.9892 -0.8937 -3.0019 0.9663
8.0371 -0.1791 -3.0019 0.9663
7.7985 1.9505 -3.0018 0.9663
7.3287 3.3021 -3.0016 0.9663
8.7773 7.2546 -4.2521 0.9525
5.4238 5.3637 -2.8484 0.9680
4.3862 6.2395 -2.8480 0.9680
1.9323 7.3754 -2.8470 0.9680
1.2680 7.5174 -2.8467 0.9680
-0.0849 7.6216 -2.8462 0.9680
-0.7629 7.5831 -2.8459 0.9680
-2.0949 7.3263 -2.8454 0.9680
-2.7384 7.1101 -2.8451 0.9680
-3.3601 6.8376 -2.8449 0.9680
-4.5184 6.1325 -2.8444 0.9680
-5.0460 5.7056 -2.8442 0.9680
-5.5334 5.2334 -2.8440 0.9680
-6.0101 4.7462 -2.8596 0.9678
-6.7141 4.3922 -2.9959 0.9663
-7.3858 3.1319 -2.9957 0.9663
-7.6350 2.4620 -2.9956 0.9663
-7.9502 1.0692 -2.9954 0.9663
-8.0138 0.3573 -2.9954 0.9663
-7.9503 -1.0692 -2.9954 0.9663
-7.6351 -2.4620 -2.9956 0.9663
-7.3859 -3.1319 -2.9957 0.9663
-6.7142 -4.3922 -2.9960 0.9663
-6.2970 -4.9727 -2.9961 0.9663
-5.8297 -5.5137 -2.9963 0.9663
-4.7605 -6.4610 -2.9967 0.9663
-2.8851 -7.4910 -2.9975 0.9663
-1.5115 -7.8853 -2.9981 0.9663
-0.0895 -8.0299 -2.9986 0.9663
1.3359 -7.9200 -2.9992 0.9663
4.6212 -6.5737 -3.0005 0.9663
5.7143 -5.6510 -3.0010 0.9663
6.1950 -5.1203 -3.0011 0.9663
6.6265 -4.5488 -3.0013 0.9663
7.3287 -3.3021 -3.0016 0.9663
8.0211 -0.5369 -3.0019 0.9663
8.0371 0.1791 -3.0019 0.9663
7.9892 0.8937 -3.0018 0.9663
7.8778 1.6012 -3.0018 0.9663
7.7038 2.2960 -3.0017 0.9663
7.4686 2.9724 -3.0016 0.9663
6.8227 4.2492 -3.0014 0.9663
9.0920 6.8566 -4.2523 0.9525
5.1793 5.5998 -2.8483 0.9680
4.1038 6.4284 -2.8479 0.9680
3.5150 6.7676 -2.8476 0.9680
2.8985 7.0530 -2.8474 0.9680
1.6017 7.4538 -2.8469 0.9680
0.2547 7.6182 -2.8463 0.9680
-0.4243 7.6099 -2.8460 0.9680
-1.7665 7.4127 -2.8455 0.9680
-2.4191 7.2254 -2.8452 0.9680
-3.0523 6.9808 -2.8450 0.9680
-3.6612 6.6808 -2.8447 0.9680
-5.2949 5.4749 -2.8441 0.9680
-5.7608 4.9816 -2.8439 0.9680
-6.5120 4.6871 -2.9960 0.9663
-7.5179 2.7997 -2.9956 0.9663
-7.8948 1.4223 -2.9955 0.9663
-7.9899 0.7140 -2.9954 0.9663
-7.6326 0.0000 -2.9956 0.9677
-7.6023 -0.6793 -2.9956 0.9677
-7.3617 -2.0166 -2.9957 0.9677
-6.8879 -3.2901 -2.9959 0.9677
-6.5681 -3.8903 -2.9960 0.9677
-6.1960 -4.4596 -2.9962 0.9677
-0.4253 -7.6282 -2.9985 0.9677
0.9341 -7.5841 -2.9990 0.9677
2.2644 -7.2996 -2.9996 0.9677
2.9053 -7.0698 -2.9998 0.9677
4.6710 -6.0524 -3.0005 0.9677
5.1915 -5.6130 -3.0007 0.9677
6.1052 -4.6042 -3.0011 0.9677
6.8255 -3.4491 -3.0014 0.9677
7.3294 -2.1844 -3.0016 0.9677
7.6463 -0.1704 -3.0017 0.9677
7.6311 0.5109 -3.0017 0.9677
6.9724 3.1416 -3.0014 0.9677
6.6649 3.7496 -3.0013 0.9677
8.3507 6.9021 -4.2520 0.9545
3.0539 6.5811 -2.8474 0.9693
2.4559 6.8262 -2.8472 0.9693
1.8384 7.0171 -2.8470 0.9693
1.2064 7.1522 -2.8467 0.9693
-1.9932 6.9706 -2.8454 0.9693
-4.2991 5.8349 -2.8445 0.9693
-5.2649 4.9795 -2.8441 0.9693
-5.9794 4.7219 -2.9902 0.9678
-6.3883 4.1791 -2.9961 0.9677
-7.5645 1.0173 -2.9956 0.9677
-7.6250 -0.3400 -2.9956 0.9677
-7.5646 -1.0174 -2.9956 0.9677
-7.4441 -1.6866 -2.9956 0.9677
-7.2646 -2.3425 -2.9957 0.9677
-7.0275 -2.9799 -2.9958 0.9677
-6.7347 -3.5937 -2.9959 0.9677
-6.3884 -4.1791 -2.9961 0.9677
-5.9914 -4.7314 -2.9962 0.9677
-5.0582 -5.7194 -2.9966 0.9677
-4.5294 -6.1474 -2.9968 0.9677
-3.3682 -6.8541 -2.9973 0.9677
-2.7450 -7.1273 -2.9976 0.9677
-1.4381 -7.5024 -2.9981 0.9677
-0.0851 -7.6399 -2.9986 0.9677
0.5953 -7.6179 -2.9989 0.9677
2.5874 -7.1918 -2.9997 0.9677
3.8222 -6.6203 -3.0002 0.9677
4.3966 -6.2542 -3.0004 0.9677
5.8939 -4.8714 -3.0010 0.9677
6.3044 -4.3278 -3.0012 0.9677
6.6649 -3.7496 -3.0013 0.9677
7.2247 -2.5087 -3.0016 0.9677
7.4195 -1.8557 -3.0016 0.9677
7.5553 -1.1880 -3.0017 0.9677
7.6312 -0.5108 -3.0017 0.9677
7.6463 0.1704 -3.0017 0.9677
7.6008 0.8503 -3.0017 0.9677
7.3293 2.1844 -3.0016 0.9677
6.8254 3.4490 -3.0014 0.9677
6.4911 4.0427 -3.0012 0.9677
3.3442 6.4388 -2.8476 0.9693
2.1493 6.9286 -2.8471 0.9693
0.8866 7.1985 -2.8466 0.9693
-1.0465 7.1750 -2.8458 0.9693
-1.6808 7.0528 -2.8455 0.9693
-2.3016 6.8746 -2.8453 0.9693
-3.4835 6.3565 -2.8448 0.9693
-4.0351 6.0208 -2.8446 0.9693
-4.5546 5.6373 -2.8444 0.9693
-5.0380 5.2093 -2.8442 0.9693
-5.4959 4.7525 -2.8516 0.9693
-6.5680 3.8902 -2.9960 0.9677
-7.5118 1.3533 -2.9956 0.9677
-7.6023 0.6793 -2.9956 0.9677
-7.2750 0.0000 -2.9957 0.9690
-6.8180 -2.5391 -2.9959 0.9690
-6.5652 -3.1359 -2.9960 0.9690
-5.0591 -5.2310 -2.9966 0.9690
-4.5737 -5.6609 -2.9968 0.9690
-4.0520 -6.0460 -2.9970 0.9690
-3.4980 -6.3831 -2.9973 0.9690
-2.9162 -6.6696 -2.9975 0.9690
-2.3112 -6.9033 -2.9977 0.9690
-1.6878 -7.0822 -2.9980 0.9690
-1.0508 -7.2049 -2.9982 0.9690
-0.4054 -7.2705 -2.9985 0.9690
1.5302 -7.1211 -2.9993 0.9690
2.7690 -6.7381 -2.9998 0.9690
3.3580 -6.4654 -3.0000 0.9690
3.9205 -6.1413 -3.0002 0.9690
5.4047 -4.8883 -3.0008 0.9690
6.7721 -2.6953 -3.0014 0.9690
6.9853 -2.0819 -3.0015 0.9690
7.1430 -1.4519 -3.0015 0.9690
7.2440 -0.8104 -3.0016 0.9690
7.2874 -0.1624 -3.0016 0.9690
7.2729 0.4869 -3.0016 0.9690
6.8855 2.3909 -3.0014 0.9690
6.6452 2.9942 -3.0013 0.9690
7.9588 6.5781 -4.2518 0.9563
7.3413 7.2600 -4.2516 0.9563
4.4654 5.2817 -2.8480 0.9705
3.9773 5.6578 -2.8478 0.9705
3.4577 5.9888 -2.8476 0.9705
1.1498 6.8168 -2.8467 0.9705
0.5385 6.8915 -2.8464 0.9705
-0.0770 6.9115 -2.8462 0.9705
-0.6918 6.8766 -2.8459 0.9705
-1.3010 6.7871 -2.8457 0.9705
-2.4833 6.4479 -2.8452 0.9706
-3.0471 6.2007 -2.8450 0.9706
-3.5867 5.9045 -2.8448 0.9706
-4.5761 5.1743 -2.8444 0.9706
-6.4191 3.4253 -2.9960 0.9690
-6.9242 2.2328 -2.9958 0.9690
-7.0953 1.6076 -2.9958 0.9690
-7.2678 -0.3241 -2.9957 0.9690
-7.0954 -1.6076 -2.9958 0.9690
-6.9243 -2.2328 -2.9959 0.9690
-6.6983 -2.8403 -2.9960 0.9690
-6.0891 -3.9833 -2.9962 0.9690
-4.8212 -5.4514 -2.9967 0.9690
-3.7788 -6.2207 -2.9971 0.9690
-3.2103 -6.5329 -2.9974 0.9690
-0.0811 -7.2817 -2.9986 0.9690
0.5674 -7.2606 -2.9989 0.9690
1.2114 -7.1819 -2.9992 0.9690
2.4660 -6.8545 -2.9997 0.9690
3.0666 -6.6083 -2.9999 0.9690
3.6429 -6.3096 -3.0001 0.9690
4.1903 -5.9608 -3.0003 0.9690
4.7045 -5.5645 -3.0006 0.9690
5.6173 -4.6428 -3.0009 0.9690
6.6452 -2.9942 -3.0013 0.9690
7.0712 -1.7686 -3.0015 0.9690
7.2007 -1.1322 -3.0015 0.9690
7.2729 -0.4869 -3.0016 0.9690
7.2440 0.8104 -3.0015 0.9690
6.9853 2.0818 -3.0014 0.9690
6.7721 2.6952 -3.0014 0.9690
6.5051 3.2872 -3.0012 0.9690
3.7212 5.8291 -2.8477 0.9705
3.1873 6.1367 -2.8475 0.9705
2.6283 6.3955 -2.8473 0.9705
0.8450 6.8609 -2.8466 0.9705
-1.6020 6.7221 -2.8456 0.9705
-2.1937 6.5523 -2.8453 0.9706
-3.3202 6.0586 -2.8449 0.9706
-4.3412 5.3731 -2.8445 0.9706
-5.4625 4.7236 -2.9737 0.9692
-5.9057 4.2506 -2.9962 0.9690
-6.2602 3.7079 -2.9961 0.9690
-6.5652 3.1359 -2.9960 0.9690
-6.8180 2.5391 -2.9959 0.9690
-7.0167 1.9221 -2.9958 0.9690
-7.1598 1.2899 -2.9958 0.9690
-7.2462 0.6475 -2.9957 0.9690
-6.8352 -1.2314 -2.9959 0.9702
-6.6986 -1.8349 -2.9959 0.9702
-6.2675 -2.9937 -2.9961 0.9702
-5.9764 -3.5398 -2.9962 0.9702
-5.2546 -4.5438 -2.9965 0.9702
-3.8682 -5.7717 -2.9971 0.9702
-3.3394 -6.0935 -2.9973 0.9702
-2.7839 -6.3670 -2.9975 0.9702
-2.2064 -6.5901 -2.9978 0.9702
-1.6112 -6.7608 -2.9980 0.9702
-1.0031 -6.8779 -2.9983 0.9702
-0.3870 -6.9405 -2.9985 0.9702
1.4608 -6.7979 -2.9993 0.9702
2.6433 -6.4322 -2.9997 0.9702
3.2056 -6.1718 -2.9999 0.9702
3.7425 -5.8624 -3.0002 0.9702
4.2497 -5.5065 -3.0004 0.9702
4.7232 -5.1067 -3.0006 0.9702
5.1593 -4.6663 -3.0007 0.9702
6.4645 -2.5728 -3.0012 0.9701
6.6680 -1.9873 -3.0013 0.9701
6.8186 -1.3859 -3.0014 0.9701
6.9150 -0.7736 -3.0014 0.9701
6.9564 -0.1550 -3.0014 0.9701
6.9426 0.4648 -3.0014 0.9701
6.7500 1.6883 -3.0013 0.9701
6.0635 3.4113 -3.0011 0.9701
5.7356 3.9373 -3.0009 0.9701
7.5973 6.2794 -4.2517 0.9580
4.2626 5.0418 -2.8479 0.9716
3.7967 5.4009 -2.8477 0.9717
3.3007 5.7169 -2.8475 0.9717
2.7785 5.9876 -2.8473 0.9717
1.6726 6.3844 -2.8469 0.9717
0.5141 6.5787 -2.8464 0.9717
-0.0735 6.5978 -2.8462 0.9717
-1.2419 6.4791 -2.8457 0.9717
-2.3707 6.1553 -2.8453 0.9717
-4.3685 4.9396 -2.8445 0.9717
-5.4516 4.3051 -2.9964 0.9702
-6.6103 2.1315 -2.9960 0.9702
-6.7736 1.5347 -2.9959 0.9702
-6.8832 -0.9257 -2.9959 0.9702
-6.7736 -1.5347 -2.9959 0.9702
-6.3945 -2.7115 -2.9961 0.9702
-5.8129 -3.8026 -2.9963 0.9702
-5.4517 -4.3051 -2.9965 0.9702
-5.0471 -4.7735 -2.9966 0.9702
-4.6025 -5.2041 -2.9968 0.9702
-3.6074 -5.9385 -2.9972 0.9702
-3.0647 -6.2365 -2.9974 0.9702
-2.4977 -6.4850 -2.9977 0.9702
-1.9107 -6.6821 -2.9979 0.9702
-1.3085 -6.8262 -2.9981 0.9702
-0.6958 -6.9162 -2.9984 0.9702
0.5416 -6.9311 -2.9989 0.9702
1.1564 -6.8559 -2.9991 0.9702
2.9273 -6.3083 -2.9998 0.9702
3.4775 -6.0231 -3.0001 0.9702
4.0000 -5.6901 -3.0003 0.9702
4.4909 -5.3119 -3.0005 0.9702
4.9462 -4.8914 -3.0006 0.9702
5.3622 -4.4320 -3.0008 0.9701
6.7500 -1.6883 -3.0014 0.9701
6.9564 0.1551 -3.0014 0.9701
6.6680 1.9873 -3.0013 0.9701
6.2096 3.1379 -3.0011 0.9701
5.5544 4.1888 -3.0009 0.9701
7.3099 6.6114 -4.2516 0.9580
6.6920 7.2354 -4.2513 0.9580
4.0336 5.2265 -2.8478 0.9716
3.5522 5.5644 -2.8476 0.9717
3.0426 5.8581 -2.8474 0.9717
1.9554 6.3038 -2.8470 0.9717
-0.3673 6.5877 -2.8461 0.9717
-0.9521 6.5283 -2.8458 0.9717
-2.0942 6.2550 -2.8454 0.9717
-3.1696 5.7838 -2.8449 0.9717
-3.6715 5.4783 -2.8447 0.9717
-4.1443 5.1294 -2.8446 0.9717
-4.5949 4.7511 -2.8511 0.9716
-5.2546 4.5438 -2.9965 0.9702
-5.6378 4.0579 -2.9964 0.9702
-5.9764 3.5398 -2.9962 0.9702
-6.2675 2.9937 -2.9961 0.9702
-6.5088 2.4239 -2.9960 0.9702
-6.6986 1.8349 -2.9959 0.9702
-6.6134 -0.5910 -2.9960 0.9713
-6.5346 -1.1773 -2.9960 0.9713
-6.4040 -1.7542 -2.9961 0.9713
-6.2226 -2.3173 -2.9961 0.9713
-5.7136 -3.3842 -2.9964 0.9713
-5.3899 -3.8794 -2.9965 0.9713
-5.0235 -4.3440 -2.9966 0.9713
-1.5403 -6.4634 -2.9980 0.9713
-0.3700 -6.6351 -2.9985 0.9713
1.9695 -6.3490 -2.9995 0.9712
2.5269 -6.1490 -2.9997 0.9712
3.0644 -5.9001 -2.9999 0.9712
3.5777 -5.6043 -3.0001 0.9712
4.0625 -5.2640 -3.0003 0.9712
4.9321 -4.4608 -3.0006 0.9712
5.3098 -4.0043 -3.0008 0.9712
5.9361 -2.9996 -3.0010 0.9712
6.1797 -2.4595 -3.0011 0.9712
6.3743 -1.8997 -3.0012 0.9712
6.6367 0.4443 -3.0013 0.9712
6.5708 1.0332 -3.0013 0.9712
6.2832 2.1818 -3.0012 0.9712
5.7965 3.2610 -3.0010 0.9712
5.1260 4.2367 -3.0007 0.9712
6.6993 6.6251 -4.2513 0.9595
2.6562 5.7240 -2.8473 0.9727
2.1360 5.9372 -2.8471 0.9727
0.4914 6.2892 -2.8464 0.9727
-0.0703 6.3074 -2.8462 0.9727
-0.6313 6.2756 -2.8460 0.9727
-2.2664 5.8845 -2.8453 0.9727
-3.7397 5.0756 -2.8447 0.9727
-4.1960 4.7438 -2.8575 0.9726
-4.8251 4.5636 -2.9967 0.9713
-6.1133 2.5923 -2.9962 0.9713
-6.3196 2.0378 -2.9961 0.9713
-6.4757 1.4672 -2.9960 0.9713
-6.5806 -0.8850 -2.9960 0.9713
-6.4758 -1.4672 -2.9960 0.9713
-6.1133 -2.5923 -2.9962 0.9713
-5.2119 -4.1158 -2.9966 0.9713
-4.8251 -4.5636 -2.9967 0.9713
-3.9400 -5.3474 -2.9971 0.9713
-3.4487 -5.6773 -2.9973 0.9713
-2.9299 -5.9621 -2.9975 0.9713
-2.3878 -6.1996 -2.9977 0.9713
-1.8266 -6.3880 -2.9979 0.9713
-1.2509 -6.5258 -2.9982 0.9713
-0.0740 -6.6452 -2.9986 0.9713
0.5178 -6.6260 -2.9989 0.9713
2.2504 -6.2552 -2.9996 0.9712
2.7985 -6.0305 -2.9998 0.9712
3.3243 -5.7579 -3.0000 0.9712
3.8239 -5.4396 -3.0002 0.9712
4.2931 -5.0779 -3.0004 0.9712
4.7283 -4.6759 -3.0006 0.9712
5.1260 -4.2368 -3.0007 0.9712
5.4830 -3.7639 -3.0009 0.9712
6.2833 -2.1818 -3.0012 0.9712
6.4527 -1.6139 -3.0012 0.9712
6.6367 -0.4443 -3.0013 0.9712
6.6499 0.1482 -3.0013 0.9712
6.5182 1.3249 -3.0013 0.9712
6.1797 2.4595 -3.0011 0.9712
5.9361 2.9997 -3.0010 0.9712
5.6453 3.5159 -3.0009 0.9712
5.3097 4.0043 -3.0008 0.9712
6.9879 6.3202 -4.2514 0.9595
6.3973 6.9167 -4.2512 0.9595
3.3958 5.3194 -2.8476 0.9727
2.9086 5.6002 -2.8474 0.9727
1.8693 6.0262 -2.8470 0.9727
1.3255 6.1682 -2.8467 0.9727
0.7711 6.2613 -2.8465 0.9727
-0.9102 6.2410 -2.8458 0.9727
-1.4620 6.1348 -2.8456 0.9727
-2.0021 5.9798 -2.8454 0.9727
-2.5262 5.7775 -2.8452 0.9727
-3.0301 5.5293 -2.8450 0.9727
-3.5100 5.2373 -2.8448 0.9727
-5.0234 4.3440 -2.9966 0.9713
-5.3899 3.8794 -2.9965 0.9713
-5.7135 3.3842 -2.9963 0.9713
-6.4040 1.7542 -2.9961 0.9713
-6.3560 0.0000 -2.9961 0.9723
-6.3308 -0.5657 -2.9961 0.9723
-6.1304 -1.6793 -2.9962 0.9723
-5.9567 -2.2183 -2.9962 0.9723
-5.7358 -2.7398 -2.9963 0.9723
-5.4694 -3.2395 -2.9964 0.9723
-4.8088 -4.1584 -2.9967 0.9723
-4.4198 -4.5701 -2.9969 0.9723
-3.9958 -4.9456 -2.9970 0.9723
-3.0560 -5.5764 -2.9974 0.9723
-2.5477 -5.8267 -2.9976 0.9723
-2.0191 -6.0307 -2.9978 0.9723
-0.3541 -6.3513 -2.9985 0.9723
2.4188 -5.8859 -2.9996 0.9723
2.9333 -5.6476 -2.9998 0.9723
3.4246 -5.3645 -3.0000 0.9722
3.8887 -5.0387 -3.0002 0.9722
4.3220 -4.6729 -3.0004 0.9722
4.7210 -4.2699 -3.0006 0.9722
5.0825 -3.8329 -3.0007 0.9722
5.4037 -3.3655 -3.0008 0.9722
6.3274 -0.7078 -3.0012 0.9722
6.3527 0.4252 -3.0012 0.9722
6.1764 1.5448 -3.0011 0.9722
6.0143 2.0884 -3.0010 0.9722
5.8044 2.6154 -3.0010 0.9722
5.2483 3.6028 -3.0007 0.9722
5.8223 6.8867 -4.2510 0.9609
2.5426 5.4791 -2.8472 0.9736
2.0447 5.6832 -2.8470 0.9736
1.5306 5.8422 -2.8468 0.9736
1.0045 5.9548 -2.8466 0.9736
0.4704 6.0202 -2.8464 0.9737
-1.1365 5.9292 -2.8458 0.9737
-2.1695 5.6329 -2.8453 0.9737
-2.6620 5.4171 -2.8451 0.9737
-3.1334 5.1583 -2.8450 0.9737
-3.5799 4.8586 -2.8448 0.9737
-4.1750 4.7209 -2.9707 0.9725
-4.9891 3.9399 -2.9966 0.9723
-5.3197 3.4800 -2.9965 0.9723
-6.0495 1.9507 -2.9962 0.9723
-6.1990 1.4045 -2.9961 0.9723
-6.3497 0.2831 -2.9961 0.9723
-6.2994 -0.8472 -2.9961 0.9723
-6.1990 -1.4045 -2.9961 0.9723
-6.0496 -1.9507 -2.9962 0.9723
-5.8521 -2.4815 -2.9963 0.9723
-5.6082 -2.9926 -2.9964 0.9723
-5.3198 -3.4800 -2.9965 0.9723
-4.6189 -4.3685 -2.9968 0.9723
-3.7716 -5.1188 -2.9971 0.9723
1.0583 -6.2737 -2.9991 0.9723
1.6126 -6.1552 -2.9993 0.9723
2.6787 -5.7725 -2.9997 0.9723
3.1821 -5.5116 -2.9999 0.9722
3.6603 -5.2068 -3.0001 0.9722
4.1094 -4.8606 -3.0003 0.9722
4.5260 -4.4758 -3.0005 0.9722
4.9066 -4.0554 -3.0006 0.9722
5.5484 -3.1215 -3.0009 0.9722
5.8044 -2.6153 -3.0010 0.9722
6.1765 -1.5448 -3.0011 0.9722
6.2895 -0.9890 -3.0012 0.9722
6.3527 -0.4253 -3.0012 0.9722
6.3653 0.1418 -3.0012 0.9722
6.2392 1.2682 -3.0011 0.9722
5.9152 2.3542 -3.0010 0.9722
5.6820 2.8713 -3.0009 0.9722
6.1236 6.6207 -4.2511 0.9609
5.5096 7.1391 -4.2508 0.9609
2.2959 5.5867 -2.8471 0.9736
1.7894 5.7685 -2.8469 0.9736
1.2688 5.9044 -2.8467 0.9736
0.2018 6.0349 -2.8463 0.9737
-0.3361 6.0285 -2.8461 0.9737
-0.8713 5.9742 -2.8459 0.9737
-1.9165 5.7241 -2.8454 0.9737
-3.8283 4.7384 -2.8715 0.9734
-4.8088 4.1583 -2.9967 0.9723
-5.1595 3.7136 -2.9965 0.9723
-6.2554 1.1270 -2.9961 0.9723
-6.3308 0.5657 -2.9961 0.9723
-6.0916 0.0000 -2.9962 0.9732
-5.7089 -2.1260 -2.9963 0.9732
-5.4972 -2.6258 -2.9964 0.9732
-5.2418 -3.1048 -2.9965 0.9732
-4.6087 -3.9853 -2.9968 0.9732
-4.2359 -4.3799 -2.9969 0.9732
-3.8295 -4.7398 -2.9971 0.9732
-3.3926 -5.0621 -2.9973 0.9732
-2.4416 -5.5842 -2.9977 0.9732
-0.8798 -6.0321 -2.9983 0.9732
-0.3394 -6.0869 -2.9985 0.9732
0.7453 -6.0515 -2.9990 0.9732
1.2811 -5.9616 -2.9992 0.9732
1.8067 -5.8243 -2.9994 0.9732
2.8112 -5.4124 -2.9998 0.9732
3.2819 -5.1411 -3.0000 0.9732
3.7267 -4.8288 -3.0002 0.9732
4.5243 -4.0920 -3.0005 0.9732
4.8708 -3.6732 -3.0006 0.9732
5.1786 -3.2253 -3.0007 0.9732
5.4453 -2.7516 -3.0008 0.9732
5.6688 -2.2561 -3.0009 0.9732
5.8472 -1.7427 -3.0010 0.9732
6.0637 -0.6783 -3.0011 0.9732
6.0275 0.9478 -3.0011 0.9732
5.9191 1.4805 -3.0010 0.9732
5.5625 2.5064 -3.0009 0.9732
5.0297 3.4527 -3.0006 0.9732
4.7022 3.8865 -3.0005 0.9732
5.5798 6.5999 -4.2509 0.9622
2.4367 5.2509 -2.8472 0.9745
0.4508 5.7695 -2.8464 0.9745
-0.0645 5.7863 -2.8462 0.9745
-1.0892 5.6824 -2.8458 0.9745
-2.0792 5.3985 -2.8454 0.9745
-3.0030 4.9436 -2.8450 0.9745
-3.4878 4.7337 -2.8920 0.9741
-4.0367 4.5644 -2.9970 0.9732
-5.0984 3.3352 -2.9966 0.9732
-5.3748 2.8681 -2.9965 0.9732
-5.6086 2.3782 -2.9964 0.9732
-5.9411 1.3461 -2.9962 0.9732
-6.0856 0.2714 -2.9962 0.9732
-6.0856 -0.2714 -2.9962 0.9732
-6.0373 -0.8120 -2.9962 0.9732
-5.0984 -3.3352 -2.9966 0.9732
-4.7816 -3.7760 -2.9967 0.9732
-4.4267 -4.1867 -2.9969 0.9732
-3.6146 -4.9058 -2.9972 0.9732
-2.6879 -5.4697 -2.9976 0.9732
-1.1476 -5.9867 -2.9982 0.9732
-0.6102 -6.0655 -2.9984 0.9732
-0.0679 -6.0962 -2.9986 0.9732
1.0142 -6.0125 -2.9991 0.9732
2.0645 -5.7382 -2.9995 0.9732
2.5672 -5.5321 -2.9997 0.9732
3.5078 -4.9899 -3.0001 0.9732
5.0297 -3.4527 -3.0007 0.9732
5.3172 -2.9915 -3.0008 0.9732
5.5626 -2.5064 -3.0009 0.9732
5.7637 -2.0014 -3.0010 0.9732
5.9191 -1.4805 -3.0010 0.9732
6.0880 -0.4075 -3.0011 0.9732
6.0637 0.6783 -3.0011 0.9732
5.6688 2.2561 -3.0009 0.9732
4.8708 3.6732 -3.0006 0.9732
4.5243 4.0920 -3.0004 0.9732
5.8685 6.3449 -4.2510 0.9622
5.2802 6.8417 -4.2507 0.9622
4.6500 7.2840 -4.2505 0.9622
2.6683 5.1373 -2.8473 0.9745
1.2159 5.6585 -2.8467 0.9745
-0.3221 5.7775 -2.8461 0.9745
-0.8350 5.7254 -2.8459 0.9745
-2.3175 5.3003 -2.8453 0.9745
-2.7799 5.0727 -2.8451 0.9745
-3.8115 4.7177 -2.9831 0.9733
-4.6087 3.9853 -2.9968 0.9732
-4.9449 3.5591 -2.9966 0.9732
-5.4972 2.6258 -2.9964 0.9732
-5.7089 2.1260 -2.9963 0.9732
-5.9952 1.0801 -2.9962 0.9732
-6.0675 0.5422 -2.9962 0.9732
-5.6370 -1.5441 -2.9964 0.9741
-5.2742 -2.5192 -2.9965 0.9741
-5.0292 -2.9788 -2.9966 0.9741
-4.7443 -3.4147 -2.9967 0.9741
-4.0640 -4.2022 -2.9970 0.9741
-3.6741 -4.5474 -2.9972 0.9741
-1.3557 -5.6887 -2.9981 0.9741
-0.8440 -5.7872 -2.9983 0.9741
0.7151 -5.8058 -2.9989 0.9740
2.2240 -5.4117 -2.9996 0.9740
2.6970 -5.1926 -2.9997 0.9740
3.1486 -4.9322 -2.9999 0.9740
3.5753 -4.6327 -3.0001 0.9740
3.9737 -4.2963 -3.0003 0.9740
4.3405 -3.9258 -3.0004 0.9740
4.6729 -3.5240 -3.0005 0.9740
4.9682 -3.0942 -3.0006 0.9740
5.4385 -2.1644 -3.0008 0.9740
5.6096 -1.6718 -3.0009 0.9740
5.7363 -1.1660 -3.0009 0.9740
5.8173 -0.6508 -3.0010 0.9740
5.8522 -0.1304 -3.0010 0.9740
5.8406 0.3910 -3.0010 0.9740
5.6786 1.4203 -3.0009 0.9740
4.5111 3.7286 -3.0004 0.9740
4.1612 4.1151 -3.0003 0.9740
4.7681 6.7827 -4.2505 0.9634
2.3377 5.0376 -2.8472 0.9753
1.4073 5.3716 -2.8468 0.9753
0.9235 5.4751 -2.8466 0.9754
0.4325 5.5352 -2.8464 0.9754
-1.5260 5.3367 -2.8456 0.9754
-1.9948 5.1794 -2.8454 0.9754
-2.4477 4.9809 -2.8452 0.9754
-2.8850 4.7494 -2.8489 0.9753
-3.4679 4.7067 -2.9972 0.9741
-3.8729 4.3791 -2.9971 0.9741
-5.1567 2.7517 -2.9966 0.9741
-5.7924 0.7790 -2.9963 0.9741
-5.8387 0.2604 -2.9963 0.9741
-5.8387 -0.2603 -2.9963 0.9741
-5.7924 -0.7790 -2.9963 0.9741
-5.3811 -2.2818 -2.9965 0.9741
-4.8916 -3.1999 -2.9967 0.9741
-3.0354 -4.9970 -2.9974 0.9741
-2.5788 -5.2477 -2.9976 0.9741
-2.1016 -5.4567 -2.9978 0.9741
1.4827 -5.6593 -2.9993 0.9740
1.9806 -5.5052 -2.9995 0.9740
2.4629 -5.3074 -2.9996 0.9740
2.9257 -5.0674 -2.9998 0.9740
3.7783 -4.4689 -3.0002 0.9740
4.1612 -4.1151 -3.0003 0.9740
4.5112 -3.7286 -3.0005 0.9740
4.8253 -3.3124 -3.0006 0.9740
5.3366 -2.4046 -3.0008 0.9740
5.5295 -1.9201 -3.0009 0.9740
5.6786 -1.4203 -3.0009 0.9740
5.7826 -0.9093 -3.0010 0.9740
5.8522 0.1304 -3.0010 0.9740
5.7363 1.1659 -3.0009 0.9740
5.6096 1.6719 -3.0009 0.9740
5.4384 2.1645 -3.0008 0.9740
5.2240 2.6398 -3.0007 0.9740
4.3405 3.9257 -3.0004 0.9740
5.6301 6.0872 -4.2509 0.9634
4.4611 6.9882 -4.2504 0.9634
2.1109 5.1366 -2.8471 0.9753
1.6452 5.3037 -2.8469 0.9753
0.1855 5.5488 -2.8463 0.9754
-0.3091 5.5429 -2.8461 0.9754
-0.8011 5.4930 -2.8459 0.9754
-1.2868 5.3996 -2.8457 0.9754
-1.7621 5.2632 -2.8455 0.9754
-3.1687 4.7281 -2.9180 0.9747
-3.6740 4.5474 -2.9971 0.9741
-4.0640 4.2021 -2.9970 0.9741
-5.2741 2.5192 -2.9965 0.9741
-5.4773 2.0397 -2.9964 0.9741
-5.6370 1.5441 -2.9964 0.9741
-5.7519 1.0362 -2.9963 0.9741
-5.4136 -1.4829 -2.9965 0.9749
-5.2602 -1.9589 -2.9965 0.9749
-4.2464 -3.6720 -2.9969 0.9749
-3.9029 -4.0356 -2.9971 0.9749
-2.6985 -4.9241 -2.9976 0.9749
-2.2497 -5.1451 -2.9978 0.9749
-1.3019 -5.4631 -2.9981 0.9749
0.6867 -5.5755 -2.9989 0.9748
1.1803 -5.4926 -2.9991 0.9748
3.4335 -4.4489 -3.0000 0.9748
4.4875 -3.3841 -3.0005 0.9748
4.7710 -2.9714 -3.0006 0.9748
5.0167 -2.5351 -3.0007 0.9748
5.2226 -2.0786 -3.0007 0.9748
5.5086 -1.1197 -3.0009 0.9748
5.6087 0.3755 -3.0009 0.9748
5.3100 1.8439 -3.0008 0.9748
5.1247 2.3091 -3.0007 0.9748
4.8987 2.7560 -3.0006 0.9748
4.6338 3.1809 -3.0005 0.9748
3.9807 6.8949 -4.2502 0.9645
1.8053 5.0180 -2.8469 0.9761
0.8869 5.2580 -2.8466 0.9761
0.4154 5.3157 -2.8464 0.9761
-0.0594 5.3312 -2.8462 0.9761
-0.5336 5.3044 -2.8460 0.9761
-1.4655 5.1251 -2.8456 0.9761
-1.9157 4.9739 -2.8454 0.9761
-2.8681 4.7215 -2.9492 0.9753
-3.7193 4.2055 -2.9971 0.9749
-4.0787 3.8576 -2.9970 0.9749
-4.6976 3.0730 -2.9967 0.9749
-4.9523 2.6427 -2.9966 0.9749
-5.3422 1.7226 -2.9965 0.9749
-5.4742 1.2403 -2.9964 0.9749
-5.5628 0.7481 -2.9964 0.9749
-5.6073 -0.2500 -2.9964 0.9749
-5.1678 -2.1913 -2.9966 0.9749
-4.9524 -2.6427 -2.9967 0.9749
-4.6977 -3.0731 -2.9968 0.9749
-3.7194 -4.2056 -2.9972 0.9749
-2.0183 -5.2404 -2.9978 0.9749
-1.5440 -5.3996 -2.9980 0.9749
-0.0626 -5.6167 -2.9986 0.9749
0.4376 -5.6004 -2.9988 0.9749
0.9344 -5.5396 -2.9990 0.9748
4.3322 -3.5806 -3.0004 0.9748
4.8987 -2.7560 -3.0006 0.9748
5.1248 -2.3091 -3.0007 0.9748
5.6087 -0.3755 -3.0009 0.9748
5.5864 0.6249 -3.0009 0.9748
5.3870 1.6055 -3.0008 0.9748
4.7710 2.9714 -3.0005 0.9748
4.4874 3.3841 -3.0004 0.9748
4.1682 3.7699 -3.0003 0.9748
4.8647 6.3033 -4.2506 0.9645
1.1203 5.2134 -2.8467 0.9761
-0.2968 5.3231 -2.8461 0.9761
-0.7694 5.2752 -2.8459 0.9761
-1.2357 5.1854 -2.8457 0.9761
-1.6923 5.0546 -2.8455 0.9761
-2.5940 4.7334 -2.8814 0.9758
-3.1259 4.6641 -2.9974 0.9749
-3.5284 4.3671 -2.9972 0.9749
-3.9029 4.0356 -2.9971 0.9749
-5.0651 2.4194 -2.9966 0.9749
-5.2602 1.9589 -2.9965 0.9749
-5.4136 1.4829 -2.9965 0.9749
-5.5906 0.4996 -2.9964 0.9749
-5.3738 -0.4802 -2.9965 0.9756
-5.3098 -0.9566 -2.9965 0.9756
-5.0562 -1.8830 -2.9966 0.9756
-4.8687 -2.3256 -2.9967 0.9756
-4.6425 -2.7498 -2.9968 0.9756
-4.3795 -3.1522 -2.9969 0.9756
-4.0817 -3.5296 -2.9970 0.9756
-2.5938 -4.7331 -2.9976 0.9756
-2.1624 -4.9455 -2.9978 0.9756
-1.7137 -5.1186 -2.9980 0.9756
0.1804 -5.3962 -2.9987 0.9756
0.6600 -5.3591 -2.9989 0.9756
1.1345 -5.2795 -2.9991 0.9756
1.6000 -5.1578 -2.9993 0.9756
2.0528 -4.9953 -2.9995 0.9756
2.4894 -4.7930 -2.9997 0.9756
3.3002 -4.2761 -3.0000 0.9756
3.6678 -3.9656 -3.0001 0.9756
4.0064 -3.6236 -3.0003 0.9756
4.3132 -3.2528 -3.0004 0.9756
4.5858 -2.8561 -3.0005 0.9756
4.8219 -2.4366 -3.0006 0.9756
5.1778 -1.5431 -3.0007 0.9756
5.3695 -0.6007 -3.0008 0.9756
5.3909 0.3609 -3.0008 0.9756
5.3374 0.8393 -3.0008 0.9756
4.7085 2.6489 -3.0005 0.9756
4.4539 3.0574 -3.0004 0.9756
4.1639 3.4416 -3.0003 0.9756
3.4874 4.1249 -3.0000 0.9756
3.2210 6.9411 -4.2499 0.9656
2.5903 7.1998 -4.2497 0.9656
1.2990 4.9583 -2.8467 0.9768
0.3993 5.1094 -2.8464 0.9768
-0.0571 5.1243 -2.8462 0.9768
-0.5129 5.0986 -2.8460 0.9768
-1.4086 4.9262 -2.8457 0.9768
-1.8416 4.7810 -2.8455 0.9768
-2.8020 4.6127 -2.9975 0.9756
-3.2012 4.3448 -2.9973 0.9756
-3.5751 4.0424 -2.9972 0.9756
-3.9205 3.7080 -2.9970 0.9756
-4.5155 2.9539 -2.9968 0.9756
-4.9674 2.1063 -2.9966 0.9756
-5.1350 1.6558 -2.9966 0.9756
-5.3898 0.2404 -2.9965 0.9756
-5.3898 -0.2404 -2.9965 0.9756
-5.1350 -1.6558 -2.9966 0.9756
-4.5155 -2.9539 -2.9968 0.9756
