ply
format ascii 1.0
element vertex 1587
property float32 x
property float32 y
property float32 z
property float32 I
end_header
-9.1551 7.2297 0.4850 0.9544
3.6856 -5.2429 0.2665 0.9747
4.2399 -5.0149 0.2731 0.9741
5.0445 -4.9886 0.2950 0.9720
2.7459 -6.6819 0.1802 0.9715
3.0397 -5.8524 0.1645 0.9740
3.4484 -5.4019 0.1598 0.9747
3.9348 -5.0984 0.1606 0.9746
2.8680 -6.1804 0.1699 0.9731
3.6796 -5.2342 0.1596 0.9747
4.2323 -5.0060 0.1635 0.9741
2.7364 -6.6587 0.0598 0.9716
4.5731 -4.9444 0.0560 0.9734
5.9520 -5.3832 0.0667 0.9684
2.8610 -6.1654 0.0565 0.9732
3.2296 -5.5938 0.0537 0.9745
4.2248 -4.9971 0.0544 0.9742
5.0183 -4.9627 0.0587 0.9722
3.9286 -5.0904 -0.0534 0.9746
4.5735 -4.9448 -0.0560 0.9734
5.9611 -5.3914 -0.0668 0.9684
-9.1532 7.2282 -0.0969 0.9544
2.8613 -6.1660 -0.0565 0.9732
3.6738 -5.2260 -0.0531 0.9748
3.9351 -5.0988 -0.1606 0.9746
4.5829 -4.9550 -0.1683 0.9734
3.6799 -5.2346 -0.1596 0.9747
3.0460 -5.8646 -0.2748 0.9739
4.5924 -4.9652 -0.2812 0.9733
-9.1519 7.2272 -0.4849 0.9544
4.2402 -5.0154 -0.2731 0.9740
5.0451 -4.9892 -0.2950 0.9720
2.7718 -6.7448 -0.4247 0.9712
3.4601 -5.4202 -0.3745 0.9746
3.9482 -5.1158 -0.3764 0.9744
4.6031 -4.9768 -0.3948 0.9732
-9.1513 7.2267 -0.6792 0.9544
3.2468 -5.6237 -0.3782 0.9743
3.6920 -5.2520 -0.3739 0.9746
5.0647 -5.0086 -0.4149 0.9719
3.4766 -5.4460 -0.4842 0.9744
3.9674 -5.1407 -0.4866 0.9743
3.2637 -5.6529 -0.4892 0.9742
5.1149 -5.0582 -0.5391 0.9716
2.8351 -6.8988 -0.6838 0.9705
3.9894 -5.1693 -0.5986 0.9741
4.6636 -5.0422 -0.6297 0.9728
-9.1500 7.2257 -1.0689 0.9542
2.9295 -6.3129 -0.6380 0.9724
2.9067 -7.0731 -0.8295 0.9697
3.5133 -5.5034 -0.7082 0.9741
-9.1494 7.2252 -1.2645 0.9542
2.9529 -6.3634 -0.7609 0.9722
3.3003 -5.7162 -0.7159 0.9738
3.7487 -5.3326 -0.7070 0.9741
4.3200 -5.1097 -0.7258 0.9734
5.2490 -5.1909 -0.8007 0.9707
3.5399 -5.5452 -0.8244 0.9738
4.0451 -5.2414 -0.8297 0.9737
4.7589 -5.1453 -0.8783 0.9721
2.9967 -6.4576 -0.8921 0.9717
4.3596 -5.1566 -0.8462 0.9731
5.3671 -5.3077 -0.9459 0.9700
3.1803 -6.1232 -0.9814 0.9725
3.3629 -5.8246 -0.9566 0.9732
3.6103 -5.6554 -1.0684 0.9732
4.1310 -5.3528 -1.0767 0.9730
3.1203 -6.7241 -1.1804 0.9704
3.3986 -5.8865 -1.0824 0.9728
3.6624 -5.7370 -1.2001 0.9727
4.1970 -5.4382 -1.2113 0.9725
5.0763 -5.4884 -1.3182 0.9701
3.2650 -7.0360 -1.3677 0.9690
3.4537 -5.9820 -1.2180 0.9723
4.5563 -5.3892 -1.2444 0.9717
13.3926 6.0344 -2.8426 0.9419
12.1119 8.3144 -2.8430 0.9419
11.3246 9.3600 -2.8432 0.9419
9.4872 11.2216 -2.8437 0.9419
6.1873 13.3334 -2.8445 0.9419
4.9766 13.8328 -2.8449 0.9419
3.7261 14.2225 -2.8452 0.9419
-0.1638 14.7068 -2.8462 0.9418
-1.4723 14.6356 -2.8466 0.9418
-4.0450 14.1461 -2.8472 0.9418
-5.2886 13.7315 -2.8476 0.9418
-7.6411 12.5790 -2.8482 0.9418
-9.0856 7.1748 -2.2403 0.9539
-12.3220 8.0607 -2.8494 0.9418
-12.9914 6.9324 -2.8496 0.9418
9.9773 10.7873 -2.8435 0.9419
1.7975 14.5948 -2.8457 0.9418
-3.4106 14.3114 -2.8471 0.9418
-4.6714 13.9527 -2.8474 0.9418
-8.1943 12.2267 -2.8483 0.9418
-9.2509 11.4500 -2.8486 0.9418
-10.2343 10.5822 -2.8489 0.9418
-11.9503 8.6013 -2.8493 0.9418
-13.2877 6.3470 -2.8497 0.9418
-14.2413 -0.0000 -3.0024 0.9434
-14.0154 -2.5250 -3.0023 0.9434
-13.7347 -3.7623 -3.0022 0.9434
-10.7691 -9.3123 -3.0014 0.9435
-9.8967 -10.2331 -3.0012 0.9435
-8.9459 -11.0725 -3.0010 0.9435
-0.7919 -14.2025 -2.9988 0.9435
0.4753 -14.2150 -2.9985 0.9435
1.7384 -14.1147 -2.9982 0.9435
3.5620 -6.8580 -1.6292 0.9689
3.8090 -5.9667 -1.4924 0.9715
9.6497 -10.4331 -2.9961 0.9436
11.3449 -8.5556 -2.9956 0.9436
12.0606 -7.5114 -2.9954 0.9436
13.6146 -4.0576 -2.9950 0.9436
14.1177 -1.5793 -2.9949 0.9436
14.0334 2.2067 -2.9949 0.9436
11.1189 7.6327 -2.8432 0.9464
10.3961 8.5926 -2.8434 0.9464
8.7092 10.3014 -2.8439 0.9463
4.5684 12.6980 -2.8450 0.9463
3.4204 13.0556 -2.8453 0.9463
2.2451 13.3097 -2.8456 0.9463
-0.1504 13.4999 -2.8462 0.9463
-2.5421 13.2622 -2.8468 0.9463
-7.0136 11.5460 -2.8480 0.9463
-8.0142 10.8770 -2.8483 0.9463
-11.3097 7.3985 -2.8492 0.9463
-11.9240 6.3629 -2.8493 0.9462
-13.5532 4.3704 -3.0022 0.9434
-14.1141 1.8982 -3.0023 0.9434
-14.2271 0.6344 -3.0023 0.9434
-14.2272 -0.6344 -3.0023 0.9434
-13.8889 -3.1468 -3.0023 0.9434
-13.1100 -5.5591 -3.0021 0.9435
-12.5626 -6.7036 -3.0019 0.9435
-11.9154 -7.7947 -3.0017 0.9435
-11.1736 -8.8237 -3.0016 0.9435
-10.3431 -9.7825 -3.0013 0.9435
-9.4307 -10.6634 -3.0011 0.9435
-8.4434 -11.4595 -3.0008 0.9435
-6.2766 -12.7725 -3.0003 0.9435
-3.9117 -13.6802 -2.9996 0.9435
-2.6783 -13.9726 -2.9993 0.9435
-1.4239 -14.1539 -2.9990 0.9435
2.3653 -14.0225 -2.9980 0.9435
3.6036 -13.7548 -2.9977 0.9435
4.0632 -5.7800 -1.4895 0.9715
4.8491 -5.7356 -1.5834 0.9698
10.9529 -9.0528 -2.9957 0.9436
11.7144 -8.0415 -2.9955 0.9436
12.9531 -5.8364 -2.9952 0.9436
13.4206 -4.6601 -2.9950 0.9436
14.1177 1.5793 -2.9949 0.9436
13.9213 2.8296 -2.9949 0.9436
12.0360 6.0821 -2.8430 0.9464
11.4475 7.1296 -2.8432 0.9464
10.0034 9.0475 -2.8435 0.9464
8.2421 10.6796 -2.8440 0.9463
2.8356 13.1957 -2.8454 0.9463
1.6500 13.3972 -2.8457 0.9463
-4.2878 12.8071 -2.8473 0.9463
-5.4113 12.3760 -2.8476 0.9463
-7.5213 11.2226 -2.8482 0.9463
-8.4911 10.5096 -2.8484 0.9463
-9.3936 9.7130 -2.8487 0.9463
-10.2216 8.8390 -2.8489 0.9463
-11.6284 6.8876 -2.8492 0.9462
-12.8643 4.7907 -2.8940 0.9454
-13.7347 3.7623 -3.0022 0.9434
-14.1847 1.2676 -3.0023 0.9434
-13.1529 0.0000 -3.0021 0.9475
-12.6851 -3.4748 -3.0019 0.9475
-12.3251 -4.5899 -3.0019 0.9475
-11.3150 -6.7019 -3.0016 0.9475
-10.6730 -7.6819 -3.0014 0.9475
-8.2625 -10.2266 -3.0008 0.9475
-5.2657 -12.0430 -3.0000 0.9475
-3.0465 -12.7833 -2.9994 0.9475
-1.8964 -13.0024 -2.9991 0.9475
1.6057 -13.0374 -2.9982 0.9475
4.9916 -12.1463 -2.9973 0.9475
6.0523 -11.6527 -2.9970 0.9476
4.5619 -5.9111 -1.7042 0.9698
8.9136 -9.6373 -2.9962 0.9476
9.7353 -8.8050 -2.9960 0.9476
10.4796 -7.9030 -2.9958 0.9476
12.8599 -2.6138 -2.9952 0.9476
13.1192 -0.2923 -2.9951 0.9476
13.0932 0.8765 -2.9951 0.9476
11.3572 5.1173 -2.8432 0.9502
10.8571 6.1081 -2.8433 0.9502
8.8592 8.7611 -2.8438 0.9502
8.0449 9.5156 -2.8440 0.9502
6.2313 10.7930 -2.8445 0.9502
5.2464 11.3058 -2.8448 0.9501
0.9714 12.4309 -2.8459 0.9501
-3.4294 11.9932 -2.8471 0.9501
-4.4836 11.6415 -2.8474 0.9501
-5.5025 11.1973 -2.8476 0.9501
-6.4779 10.6641 -2.8479 0.9501
-7.4020 10.0461 -2.8481 0.9501
-9.0673 8.5758 -2.8486 0.9501
-11.0128 5.8766 -2.8491 0.9501
-12.5174 4.0364 -3.0019 0.9475
-12.8274 2.9063 -3.0020 0.9475
-13.0354 1.7531 -3.0020 0.9475
-13.0354 -1.7531 -3.0020 0.9475
-12.1081 -5.1343 -3.0018 0.9475
-11.6026 -6.1913 -3.0017 0.9475
-11.0049 -7.1991 -3.0015 0.9475
-10.3199 -8.1495 -3.0013 0.9475
-9.5529 -9.0351 -3.0011 0.9475
-8.7102 -9.8487 -3.0009 0.9475
-5.7973 -11.7970 -3.0001 0.9475
-2.4738 -12.9057 -2.9993 0.9475
-1.3152 -13.0733 -2.9990 0.9475
1.0234 -13.0967 -2.9983 0.9475
2.1848 -12.9522 -2.9980 0.9475
4.4458 -12.3572 -2.9974 0.9475
5.5274 -11.9113 -2.9971 0.9475
3.7969 -6.5763 -1.7332 0.9693
4.1832 -5.9507 -1.6602 0.9706
8.4758 -10.0252 -2.9964 0.9476
10.1175 -8.3624 -2.9959 0.9476
11.4385 -6.4352 -2.9956 0.9476
12.7308 -3.1842 -2.9952 0.9476
12.9634 -2.0384 -2.9952 0.9476
12.5764 3.7482 -2.9953 0.9476
11.1182 5.6183 -2.8432 0.9502
9.2404 8.3574 -2.8437 0.9502
7.6133 9.8649 -2.8442 0.9502
6.7057 10.5043 -2.8444 0.9502
3.6933 11.9060 -2.8452 0.9501
2.6192 12.1887 -2.8455 0.9501
0.4167 12.4625 -2.8461 0.9501
-0.6943 12.4514 -2.8464 0.9501
-2.8915 12.1335 -2.8469 0.9501
-4.9980 11.4307 -2.8475 0.9501
-5.9961 10.9416 -2.8478 0.9501
-7.8425 9.7067 -2.8482 0.9501
-9.4407 8.1637 -2.8487 0.9501
-10.1305 7.2915 -2.8489 0.9501
-10.7398 6.3612 -2.8490 0.9501
-11.2640 5.3804 -2.8492 0.9501
-12.9443 2.3320 -3.0020 0.9475
-13.1006 1.1707 -3.0020 0.9475
-12.2124 0.0000 -3.0018 0.9509
-12.0188 -2.1653 -3.0018 0.9509
-11.0187 -5.2632 -3.0015 0.9509
-9.9100 -7.1328 -3.0012 0.9510
-6.7958 -10.1400 -3.0004 0.9510
-5.8658 -10.7037 -3.0002 0.9510
-4.8894 -11.1824 -2.9999 0.9510
-3.8744 -11.5722 -2.9996 0.9510
-2.8288 -11.8700 -2.9994 0.9510
-1.7609 -12.0735 -2.9991 0.9510
0.4076 -12.1921 -2.9985 0.9510
1.4910 -12.1063 -2.9982 0.9510
2.5624 -11.9244 -2.9979 0.9510
4.6352 -11.2791 -2.9974 0.9510
5.6202 -10.8208 -2.9971 0.9510
6.5605 -10.2768 -2.9969 0.9510
9.0405 -8.1766 -2.9962 0.9510
10.8777 -5.4967 -2.9957 0.9510
11.3233 -4.5066 -2.9956 0.9510
11.9423 -2.4274 -2.9954 0.9510
12.1108 -1.3548 -2.9954 0.9510
12.1832 -0.2715 -2.9954 0.9510
12.0384 1.8930 -2.9954 0.9510
11.8224 2.9570 -2.9955 0.9510
10.0824 5.6723 -2.8435 0.9535
9.5380 6.5475 -2.8437 0.9535
8.2270 8.1358 -2.8440 0.9535
6.6551 9.4670 -2.8444 0.9535
5.7865 10.0226 -2.8446 0.9534
2.9338 11.1982 -2.8454 0.9534
1.9256 11.4159 -2.8457 0.9534
-0.1290 11.5787 -2.8462 0.9534
-2.1803 11.3745 -2.8467 0.9534
-3.1843 11.1363 -2.8470 0.9534
-5.1093 10.3972 -2.8475 0.9534
-6.8729 9.3281 -2.8480 0.9534
-7.6765 8.6800 -2.8482 0.9534
-8.4192 7.9629 -2.8484 0.9534
-11.2359 4.7645 -2.9998 0.9510
-11.6225 3.7478 -3.0017 0.9509
-11.9102 2.6985 -3.0017 0.9509
-12.1033 1.6278 -3.0018 0.9509
-12.2003 -0.5440 -3.0018 0.9509
-11.6225 -3.7478 -3.0017 0.9509
-10.7731 -5.7487 -3.0014 0.9509
-10.2182 -6.6844 -3.0013 0.9509
-8.8701 -8.3893 -3.0009 0.9510
-8.0876 -9.1448 -3.0007 0.9510
-4.3862 -11.3886 -2.9998 0.9510
-2.2971 -11.9837 -2.9992 0.9510
-1.2212 -12.1394 -2.9989 0.9510
2.0288 -12.0273 -2.9981 0.9510
5.1328 -11.0610 -2.9972 0.9510
6.0964 -10.5593 -2.9970 0.9510
7.0115 -9.9739 -2.9968 0.9510
10.6223 -5.9760 -2.9958 0.9510
12.0385 -1.8930 -2.9954 0.9510
12.1590 -0.8140 -2.9954 0.9510
11.9423 2.4274 -2.9954 0.9510
9.8199 6.1159 -2.8436 0.9535
7.8566 8.4945 -2.8441 0.9535
5.3345 10.2708 -2.8448 0.9534
4.3996 10.7057 -2.8450 0.9534
1.4152 11.4909 -2.8458 0.9534
0.3869 11.5723 -2.8461 0.9534
-2.6850 11.2666 -2.8469 0.9534
-4.6409 10.6140 -2.8474 0.9534
-5.5676 10.1597 -2.8476 0.9534
-6.4503 9.6246 -2.8479 0.9534
-8.0558 8.3297 -2.8483 0.9534
-8.7658 7.5801 -2.8485 0.9534
-11.7780 3.2264 -3.0017 0.9509
-11.3460 -1.0139 -3.0016 0.9540
-11.2106 -2.0197 -3.0016 0.9540
-10.9861 -3.0094 -3.0015 0.9540
-10.6744 -3.9752 -3.0014 0.9540
-9.7997 -5.8044 -3.0012 0.9540
-9.2437 -6.6532 -3.0010 0.9540
-8.6144 -7.4491 -3.0009 0.9540
-7.1562 -8.8574 -3.0005 0.9540
-5.4716 -9.9844 -3.0000 0.9540
-4.5609 -10.4309 -2.9998 0.9540
-3.6140 -10.7946 -2.9996 0.9540
-2.6387 -11.0725 -2.9993 0.9540
-1.6426 -11.2624 -2.9990 0.9540
0.3803 -11.3731 -2.9985 0.9540
1.3909 -11.2932 -2.9982 0.9540
2.3903 -11.1236 -2.9980 0.9540
3.3706 -10.8657 -2.9977 0.9540
4.3240 -10.5217 -2.9975 0.9540
5.2428 -10.0943 -2.9972 0.9540
6.1200 -9.5868 -2.9970 0.9540
6.9485 -9.0034 -2.9968 0.9540
7.7218 -8.3487 -2.9966 0.9540
9.0786 -6.8464 -2.9962 0.9541
9.6514 -6.0109 -2.9960 0.9541
10.5634 -4.2041 -2.9958 0.9541
10.8953 -3.2471 -2.9957 0.9541
11.3431 0.7594 -2.9956 0.9541
11.2306 1.7660 -2.9956 0.9541
11.0290 2.7586 -2.9957 0.9541
10.7400 3.7294 -2.9957 0.9541
8.8978 6.1080 -2.8438 0.9563
7.6747 7.5897 -2.8441 0.9563
6.2083 8.8314 -2.8445 0.9563
4.5448 9.7937 -2.8450 0.9563
3.6553 10.1602 -2.8452 0.9563
2.7368 10.4461 -2.8454 0.9563
1.7963 10.6492 -2.8457 0.9563
-2.0338 10.6103 -2.8467 0.9563
-3.8835 10.0833 -2.8472 0.9563
-6.4110 8.7011 -2.8479 0.9563
-7.8532 7.4275 -2.8483 0.9563
-8.4836 6.6995 -2.8484 0.9563
-10.4865 4.4466 -3.0014 0.9540
-10.8410 3.4958 -3.0014 0.9540
-11.1094 2.5170 -3.0015 0.9540
-11.2895 1.5183 -3.0016 0.9540
-11.3799 -0.5075 -3.0016 0.9540
-11.2895 -1.5183 -3.0016 0.9540
-11.1094 -2.5170 -3.0015 0.9540
-10.4866 -4.4467 -3.0014 0.9540
-7.5440 -8.5301 -3.0006 0.9540
-2.1427 -11.1785 -2.9992 0.9540
-1.1392 -11.3239 -2.9989 0.9540
-0.1268 -11.3793 -2.9986 0.9540
0.8865 -11.3444 -2.9984 0.9540
1.8925 -11.2195 -2.9981 0.9540
2.8833 -11.0056 -2.9978 0.9540
6.5408 -9.3043 -2.9969 0.9540
8.0857 -7.9961 -2.9965 0.9540
9.3743 -6.4351 -2.9961 0.9541
9.9094 -5.5749 -2.9960 0.9541
10.7400 -3.7293 -2.9958 0.9541
11.2306 -1.7659 -2.9956 0.9541
11.3656 0.2533 -2.9956 0.9541
11.2980 1.2639 -2.9956 0.9541
11.1408 2.2645 -2.9956 0.9541
10.8953 3.2471 -2.9957 0.9541
10.5634 4.2041 -2.9958 0.9541
8.6171 6.4985 -2.8439 0.9563
8.0050 7.2401 -2.8441 0.9563
6.5953 8.5458 -2.8444 0.9563
2.2688 10.5581 -2.8456 0.9563
0.3609 10.7950 -2.8461 0.9563
-3.4303 10.2459 -2.8471 0.9563
-4.3290 9.9007 -2.8473 0.9563
-6.0168 8.9777 -2.8478 0.9563
-6.7925 8.4071 -2.8480 0.9563
-8.1765 7.0705 -2.8483 0.9563
-8.7739 6.3151 -2.8485 0.9563
-9.3016 5.5094 -2.8486 0.9563
-9.9954 4.7744 -2.9188 0.9552
-10.9861 3.0094 -3.0015 0.9540
-11.3460 1.0139 -3.0016 0.9540
-10.6676 0.0000 -3.0014 0.9566
-10.6253 -0.9494 -3.0014 0.9566
-9.9964 -3.7227 -3.0012 0.9566
-9.1773 -5.4357 -3.0010 0.9566
-8.0673 -6.9760 -3.0007 0.9567
-7.4140 -7.6660 -3.0006 0.9567
-5.9365 -8.8579 -3.0002 0.9567
-5.1242 -9.3504 -3.0000 0.9567
-3.3846 -10.1093 -2.9995 0.9567
-1.5383 -10.5475 -2.9990 0.9567
1.3026 -10.5765 -2.9983 0.9567
2.2386 -10.4177 -2.9980 0.9567
3.1567 -10.1763 -2.9978 0.9567
4.0496 -9.8542 -2.9975 0.9567
4.9103 -9.4539 -2.9973 0.9567
5.7318 -8.9787 -2.9971 0.9567
6.5078 -8.4323 -2.9969 0.9567
7.2320 -7.8191 -2.9967 0.9567
7.8988 -7.1440 -2.9965 0.9567
8.5028 -6.4123 -2.9964 0.9567
9.0394 -5.6298 -2.9962 0.9567
9.5042 -4.8027 -2.9961 0.9567
10.4345 -2.1209 -2.9958 0.9567
10.6239 0.7112 -2.9958 0.9567
10.5185 1.6540 -2.9958 0.9567
10.0590 3.4929 -2.9959 0.9567
8.3335 5.7207 -2.8440 0.9589
7.1880 7.1084 -2.8443 0.9589
5.0556 8.7565 -2.8448 0.9589
1.6823 9.9735 -2.8457 0.9588
0.7880 10.0845 -2.8460 0.9588
-1.0126 10.0660 -2.8464 0.9588
-1.9047 9.9368 -2.8467 0.9588
-5.2544 8.6500 -2.8476 0.9588
-7.9448 6.2740 -2.8483 0.9588
-8.9665 4.7847 -2.8595 0.9586
-9.8204 4.1643 -3.0012 0.9566
-10.4037 2.3572 -3.0013 0.9566
-10.6570 0.4752 -3.0014 0.9566
-10.5724 -1.4219 -3.0014 0.9566
-10.4037 -2.3571 -3.0013 0.9566
-9.4105 -5.0216 -3.0011 0.9566
-8.9258 -5.8390 -3.0010 0.9566
-8.3703 -6.6099 -3.0008 0.9566
-7.0649 -7.9884 -3.0005 0.9567
-6.3254 -8.5849 -3.0003 0.9567
-5.5358 -9.1132 -3.0001 0.9567
-3.8317 -9.9489 -2.9996 0.9567
-0.1187 -10.6571 -2.9986 0.9567
2.7004 -10.3072 -2.9979 0.9567
5.3263 -9.2254 -2.9972 0.9567
7.5729 -7.4890 -2.9966 0.9567
8.2090 -6.7849 -2.9964 0.9567
8.7798 -6.0270 -2.9963 0.9567
9.2810 -5.2214 -2.9961 0.9567
9.7085 -4.3745 -2.9960 0.9567
10.0590 -3.4929 -2.9959 0.9567
10.3297 -2.5836 -2.9959 0.9567
10.6239 -0.7112 -2.9958 0.9567
10.6450 0.2372 -2.9958 0.9567
10.5817 1.1838 -2.9958 0.9567
10.4344 2.1209 -2.9958 0.9567
8.5799 5.3436 -2.8439 0.9589
8.0706 6.0863 -2.8440 0.9589
6.1770 8.0037 -2.8445 0.9589
5.4405 8.5223 -2.8447 0.9589
2.9963 9.6591 -2.8454 0.9588
0.3380 10.1100 -2.8461 0.9588
-0.5632 10.1008 -2.8463 0.9588
-1.4601 10.0114 -2.8466 0.9588
-2.3456 9.8425 -2.8468 0.9588
-3.2126 9.5954 -2.8470 0.9588
-4.8637 8.8751 -2.8475 0.9588
-5.6347 8.4077 -2.8477 0.9588
-6.3611 7.8733 -2.8479 0.9588
-7.6572 6.6215 -2.8482 0.9588
-8.7108 5.1594 -2.8485 0.9588
-9.6250 4.5975 -3.0011 0.9566
-9.9963 3.7227 -3.0012 0.9566
-10.2882 2.8183 -3.0013 0.9566
-10.6252 0.9495 -3.0014 0.9566
-10.0248 0.0000 -3.0012 0.9590
-9.6683 -2.6484 -3.0011 0.9590
-6.2981 -7.7953 -3.0003 0.9590
-5.5789 -8.3244 -3.0001 0.9590
-3.1808 -9.5005 -2.9994 0.9590
-2.3224 -9.7452 -2.9992 0.9590
1.2242 -9.9398 -2.9983 0.9590
2.1039 -9.7907 -2.9980 0.9590
2.9667 -9.5638 -2.9978 0.9591
5.3869 -8.4384 -2.9972 0.9591
6.1162 -7.9249 -2.9970 0.9591
6.7969 -7.3487 -2.9968 0.9591
8.4956 -5.2911 -2.9964 0.9591
8.9324 -4.5138 -2.9962 0.9591
9.5907 -2.8583 -2.9961 0.9591
9.8068 -1.9933 -2.9960 0.9591
9.9452 -1.1125 -2.9960 0.9591
9.9848 0.6684 -2.9959 0.9591
9.8858 1.5545 -2.9960 0.9591
9.1245 4.1113 -2.9962 0.9591
12.3588 6.9530 -4.2453 0.9425
7.8322 5.3765 -2.8441 0.9611
7.3229 6.0526 -2.8442 0.9611
5.4646 7.7735 -2.8447 0.9611
3.2174 8.9429 -2.8453 0.9611
2.4088 9.1945 -2.8455 0.9611
-0.1059 9.5064 -2.8462 0.9611
-0.9517 9.4600 -2.8464 0.9611
-1.7900 9.3385 -2.8466 0.9611
-4.1945 8.5356 -2.8473 0.9611
-4.9380 8.1290 -2.8475 0.9611
-5.6422 7.6577 -2.8477 0.9611
-6.9114 6.5368 -2.8480 0.9611
-7.4662 5.8960 -2.8482 0.9611
-7.9617 5.2083 -2.8483 0.9611
-8.8435 4.7190 -3.0009 0.9590
-9.5406 3.0765 -3.0011 0.9590
-9.7768 2.2151 -3.0012 0.9590
-9.9353 1.3362 -3.0012 0.9590
-10.0149 0.4466 -3.0012 0.9590
-9.9353 -1.3362 -3.0012 0.9590
-9.7768 -2.2151 -3.0012 0.9590
-9.2287 -3.9133 -3.0010 0.9590
-8.3881 -5.4872 -3.0008 0.9590
-7.8660 -6.2117 -3.0007 0.9590
-7.2815 -6.8868 -3.0005 0.9590
-6.6393 -7.5072 -3.0004 0.9590
-5.2024 -8.5643 -3.0000 0.9590
-3.6010 -9.3497 -2.9996 0.9590
-2.7543 -9.6324 -2.9993 0.9590
-1.8859 -9.8386 -2.9991 0.9590
-1.0027 -9.9666 -2.9989 0.9590
-0.1116 -10.0155 -2.9986 0.9590
0.7802 -9.9849 -2.9984 0.9590
1.6657 -9.8751 -2.9982 0.9590
2.5378 -9.6869 -2.9979 0.9591
5.0058 -8.6703 -2.9973 0.9591
6.4629 -7.6444 -2.9969 0.9591
7.1173 -7.0384 -2.9967 0.9591
8.2516 -5.6644 -2.9964 0.9591
9.1245 -4.1113 -2.9962 0.9591
9.8858 -1.5545 -2.9960 0.9591
9.9848 -0.6684 -2.9960 0.9591
10.0047 0.2229 -2.9959 0.9591
9.9452 1.1125 -2.9960 0.9591
9.5906 2.8583 -2.9960 0.9591
12.6560 6.3953 -4.2452 0.9425
8.0638 5.0222 -2.8440 0.9611
6.4514 6.9752 -2.8445 0.9611
5.1131 8.0095 -2.8448 0.9611
3.6124 8.7904 -2.8452 0.9611
2.8159 9.0777 -2.8454 0.9611
0.3177 9.5013 -2.8461 0.9611
-0.5293 9.4926 -2.8463 0.9611
-1.3722 9.4086 -2.8465 0.9611
-3.0191 9.0176 -2.8470 0.9611
-3.8100 8.7137 -2.8472 0.9611
-5.2953 7.9012 -2.8476 0.9611
-6.6132 6.8380 -2.8479 0.9611
-7.1959 6.2226 -2.8481 0.9611
-8.1860 4.8486 -2.8483 0.9611
-9.0451 4.3205 -3.0010 0.9590
-9.3940 3.4984 -3.0011 0.9590
-9.6683 2.6484 -3.0011 0.9590
-9.9850 0.8922 -3.0012 0.9590
-9.4497 0.0000 -3.0011 0.9611
-9.2999 -1.6755 -3.0010 0.9611
-8.8551 -3.2977 -3.0009 0.9611
-8.1296 -4.8152 -3.0007 0.9611
-6.5677 -6.7910 -3.0003 0.9611
-4.5394 -8.2834 -2.9998 0.9611
-2.9984 -8.9557 -2.9994 0.9611
-2.1892 -9.1865 -2.9992 0.9611
-1.3628 -9.3442 -2.9990 0.9611
-0.5257 -9.4277 -2.9987 0.9611
0.3155 -9.4363 -2.9985 0.9611
1.1540 -9.3701 -2.9983 0.9612
3.5878 -8.7304 -2.9977 0.9612
4.3503 -8.3759 -2.9975 0.9612
5.0782 -7.9549 -2.9973 0.9612
5.7658 -7.4709 -2.9971 0.9612
6.4075 -6.9277 -2.9969 0.9612
6.9983 -6.3296 -2.9967 0.9612
7.5335 -5.6813 -2.9966 0.9612
8.7658 -3.4887 -2.9963 0.9612
9.0414 -2.6946 -2.9962 0.9612
9.3196 1.4655 -2.9961 0.9612
9.1523 2.2892 -2.9962 0.9612
8.9124 3.0947 -2.9962 0.9612
8.6018 3.8758 -2.9963 0.9612
11.6509 6.5546 -4.2455 0.9454
5.7830 6.8401 -2.8446 0.9631
5.1515 7.3281 -2.8448 0.9631
4.4791 7.7581 -2.8450 0.9631
3.7711 8.1265 -2.8452 0.9631
2.2708 8.6676 -2.8456 0.9631
1.4904 8.8359 -2.8458 0.9631
0.6981 8.9341 -2.8460 0.9631
-0.8971 8.9177 -2.8464 0.9631
-2.4644 8.6186 -2.8468 0.9631
-3.2219 8.3656 -2.8470 0.9631
-3.9540 8.0462 -2.8472 0.9631
-6.5150 6.1619 -2.8479 0.9631
-8.3362 4.4483 -3.0008 0.9611
-8.9933 2.9000 -3.0010 0.9611
-9.2159 2.0880 -3.0010 0.9611
-9.4403 0.4210 -3.0011 0.9611
-9.4403 -0.4210 -3.0011 0.9611
-9.3653 -1.2595 -3.0011 0.9611
-9.2160 -2.0880 -3.0010 0.9611
-8.6993 -3.6888 -3.0009 0.9611
-6.8639 -6.4918 -3.0004 0.9611
-6.2585 -7.0766 -3.0003 0.9611
-4.1658 -8.4771 -2.9997 0.9611
-1.7778 -9.2745 -2.9991 0.9611
-0.9452 -9.3953 -2.9989 0.9611
-0.1052 -9.4414 -2.9986 0.9611
2.3924 -9.1317 -2.9980 0.9612
3.1955 -8.8819 -2.9978 0.9612
4.7190 -8.1735 -2.9974 0.9612
6.7095 -6.6352 -2.9968 0.9612
7.2731 -6.0114 -2.9967 0.9612
8.2230 -4.6262 -2.9964 0.9612
9.1523 -2.2891 -2.9962 0.9612
9.2451 1.8792 -2.9961 0.9612
8.7658 3.4887 -2.9963 0.9612
7.1506 5.3925 -2.8443 0.9631
6.0818 6.5756 -2.8446 0.9631
4.1292 7.9501 -2.8451 0.9631
3.4054 8.2867 -2.8453 0.9631
2.6546 8.5575 -2.8455 0.9631
-0.4990 8.9485 -2.8463 0.9631
-2.8460 8.5006 -2.8469 0.9631
-4.3087 7.8623 -2.8473 0.9631
-6.7832 5.8657 -2.8480 0.9631
-7.2787 5.2389 -2.8481 0.9631
-8.5262 4.0726 -3.0008 0.9611
-9.1137 2.4965 -3.0010 0.9611
-9.2999 1.6755 -3.0010 0.9611
-8.9319 0.0000 -3.0009 0.9630
-8.8964 -0.7950 -3.0009 0.9630
-8.7903 -1.5836 -3.0009 0.9630
-8.6143 -2.3597 -3.0009 0.9630
-8.3699 -3.1170 -3.0008 0.9630
-8.0590 -3.8495 -3.0007 0.9630
-7.2483 -5.2170 -3.0005 0.9630
-6.2079 -6.4189 -3.0002 0.9630
-5.6117 -6.9456 -3.0001 0.9630
-4.9709 -7.4171 -2.9999 0.9630
1.0909 -8.8571 -2.9983 0.9630
2.6436 -8.5222 -2.9979 0.9630
3.3914 -8.2525 -2.9977 0.9631
4.1122 -7.9174 -2.9975 0.9631
6.0568 -6.5486 -2.9970 0.9631
6.6153 -5.9832 -2.9968 0.9631
7.9600 -4.0224 -2.9965 0.9631
8.2862 -3.2978 -2.9964 0.9631
8.7393 -1.7763 -2.9963 0.9631
8.8626 -0.9914 -2.9962 0.9631
8.8979 0.5957 -2.9962 0.9631
8.1311 3.6637 -2.9964 0.9631
6.5256 5.3936 -2.8445 0.9649
5.4665 6.4658 -2.8447 0.9649
4.8696 6.9271 -2.8449 0.9649
4.2339 7.3334 -2.8451 0.9649
3.5646 7.6816 -2.8452 0.9649
1.4088 8.3521 -2.8458 0.9649
0.6599 8.4449 -2.8460 0.9649
-0.0944 8.4708 -2.8462 0.9649
-0.8480 8.4293 -2.8464 0.9649
-1.5950 8.3210 -2.8466 0.9649
-2.3294 8.1465 -2.8468 0.9649
-3.0455 7.9074 -2.8470 0.9649
-3.7374 7.6055 -2.8472 0.9649
-4.3998 7.2431 -2.8473 0.9649
-5.0273 6.8231 -2.8475 0.9649
-6.6523 5.2533 -2.8479 0.9649
-7.8794 4.2046 -3.0007 0.9630
-8.2226 3.4867 -3.0008 0.9630
-8.5005 2.7411 -3.0008 0.9630
-8.9230 0.3979 -3.0009 0.9630
-8.9230 -0.3979 -3.0009 0.9630
-8.8521 -1.1905 -3.0009 0.9630
-8.7109 -1.9736 -3.0009 0.9630
-8.5005 -2.7411 -3.0008 0.9630
-8.2226 -3.4867 -3.0008 0.9630
-7.8794 -4.2046 -3.0007 0.9630
-7.4737 -4.8890 -3.0006 0.9630
-7.0086 -5.5346 -3.0004 0.9630
-5.2965 -7.1885 -3.0000 0.9630
-0.0994 -8.9244 -2.9986 0.9630
1.4843 -8.7994 -2.9982 0.9630
4.4607 -7.7261 -2.9974 0.9631
6.3423 -6.2721 -2.9969 0.9631
6.8751 -5.6824 -2.9968 0.9631
7.3533 -5.0477 -2.9967 0.9631
8.6515 -2.1639 -2.9963 0.9631
8.8097 -1.3852 -2.9963 0.9631
8.8979 -0.5956 -2.9962 0.9631
8.5466 2.5472 -2.9963 0.9631
8.2862 3.2978 -2.9964 0.9631
6.7593 5.0974 -2.8444 0.9649
6.2790 5.6791 -2.8445 0.9649
5.7489 6.2157 -2.8447 0.9649
3.2190 7.8330 -2.8453 0.9649
2.5092 8.0890 -2.8455 0.9649
1.7794 8.2808 -2.8457 0.9649
0.2831 8.4663 -2.8461 0.9649
-0.4716 8.4585 -2.8463 0.9649
-2.6901 8.0350 -2.8469 0.9649
-3.3948 7.7642 -2.8471 0.9649
-4.7182 7.0401 -2.8474 0.9649
-5.3264 6.5926 -2.8476 0.9649
-5.8923 6.0927 -2.8477 0.9649
-8.0590 3.8495 -3.0007 0.9630
-8.7902 1.5837 -3.0009 0.9630
-8.8964 0.7950 -3.0009 0.9630
-8.3287 -1.5005 -3.0008 0.9647
-8.1620 -2.2358 -3.0007 0.9647
-7.6359 -3.6474 -3.0006 0.9647
-5.8820 -6.0820 -3.0002 0.9647
-5.3171 -6.5810 -3.0000 0.9647
-3.3889 -7.7506 -2.9995 0.9647
-1.9608 -8.2276 -2.9991 0.9647
-1.2206 -8.3690 -2.9989 0.9647
-0.4708 -8.4438 -2.9987 0.9647
1.0336 -8.3924 -2.9983 0.9647
3.2135 -7.8196 -2.9978 0.9648
4.5485 -7.1251 -2.9974 0.9648
5.7392 -6.2051 -2.9971 0.9648
6.2684 -5.6694 -2.9969 0.9648
7.8517 -3.1249 -2.9965 0.9648
8.2811 -1.6832 -2.9964 0.9648
8.4314 0.5645 -2.9964 0.9648
8.1979 2.0505 -2.9964 0.9648
7.3655 4.1437 -2.9966 0.9648
9.8722 6.7769 -4.2460 0.9504
6.1835 5.1108 -2.8445 0.9665
5.7043 5.6411 -2.8447 0.9665
4.6142 6.5638 -2.8450 0.9665
4.0119 6.9488 -2.8451 0.9665
2.7166 7.5509 -2.8455 0.9665
2.0339 7.7632 -2.8456 0.9665
0.6253 8.0019 -2.8460 0.9665
-0.0894 8.0263 -2.8462 0.9665
-3.5413 7.2063 -2.8471 0.9665
-4.1689 6.8629 -2.8473 0.9665
-5.3202 6.0157 -2.8476 0.9665
-5.8348 5.5185 -2.8477 0.9665
-6.3031 4.9775 -2.8478 0.9665
-7.0813 4.6324 -3.0005 0.9647
-7.4657 3.9838 -3.0006 0.9647
-7.7909 3.3036 -3.0006 0.9647
-8.0542 2.5971 -3.0007 0.9647
-8.2535 1.8700 -3.0008 0.9647
-8.3873 1.1280 -3.0008 0.9647
-8.4545 0.3770 -3.0008 0.9647
-8.4545 -0.3770 -3.0008 0.9647
-8.2535 -1.8700 -3.0008 0.9647
-8.0542 -2.5971 -3.0007 0.9647
-7.7909 -3.3036 -3.0007 0.9647
-5.0185 -6.8112 -2.9999 0.9647
-4.3921 -7.2304 -2.9998 0.9647
-0.0942 -8.4562 -2.9986 0.9647
0.6588 -8.4304 -2.9984 0.9647
5.4572 -6.4548 -2.9972 0.9648
6.5146 -5.3844 -2.9969 0.9648
6.9677 -4.7830 -2.9968 0.9648
7.3655 -4.1437 -2.9966 0.9648
7.7048 -3.4716 -2.9966 0.9648
8.4314 -0.5644 -2.9964 0.9648
8.4482 0.1883 -2.9964 0.9648
8.3979 0.9394 -2.9964 0.9648
8.2811 1.6832 -2.9964 0.9648
7.8517 3.1249 -2.9965 0.9648
7.5426 3.8115 -2.9966 0.9648
10.1641 6.3303 -4.2459 0.9505
5.9498 5.3813 -2.8446 0.9665
5.4475 5.8897 -2.8447 0.9665
4.9019 6.3515 -2.8449 0.9665
4.3173 6.7630 -2.8450 0.9665
3.6985 7.1208 -2.8452 0.9665
3.0502 7.4222 -2.8454 0.9665
2.3776 7.6647 -2.8455 0.9665
0.9811 7.9658 -2.8459 0.9665
0.2682 8.0221 -2.8461 0.9665
-1.1585 7.9436 -2.8465 0.9665
-1.8611 7.8095 -2.8467 0.9665
-2.5489 7.6133 -2.8468 0.9665
-3.2166 7.3567 -2.8470 0.9665
-3.8589 7.0416 -2.8472 0.9665
-4.4706 6.6706 -2.8474 0.9665
-5.5830 5.7728 -2.8477 0.9665
-6.0750 5.2533 -2.8478 0.9665
-6.6210 4.7655 -2.8926 0.9660
-7.9304 2.9533 -3.0007 0.9647
-8.3287 1.5005 -3.0008 0.9647
-8.4293 0.7533 -3.0008 0.9647
-8.0040 -0.7153 -3.0007 0.9663
-5.5853 -5.7752 -3.0001 0.9663
-3.8605 -7.0445 -2.9996 0.9663
-1.8619 -7.8128 -2.9991 0.9663
-1.1590 -7.9470 -2.9989 0.9663
1.6868 -7.8499 -2.9982 0.9663
3.0516 -7.4255 -2.9978 0.9663
3.7002 -7.1240 -2.9976 0.9663
4.9041 -6.3544 -2.9973 0.9663
5.4500 -5.8924 -2.9972 0.9663
7.1627 -3.6194 -2.9967 0.9663
7.6905 -2.2920 -2.9966 0.9663
7.8639 -1.5984 -2.9965 0.9663
7.9272 1.2465 -2.9965 0.9663
7.7849 1.9471 -2.9965 0.9663
7.3167 3.2967 -2.9966 0.9663
6.9944 3.9350 -2.9967 0.9663
5.4169 5.3569 -2.8447 0.9680
4.9188 5.8180 -2.8449 0.9680
4.3817 6.2330 -2.8450 0.9680
3.8097 6.5986 -2.8452 0.9680
3.2074 6.9119 -2.8453 0.9680
2.5797 7.1704 -2.8455 0.9680
1.2676 7.5151 -2.8458 0.9680
0.5938 7.5985 -2.8460 0.9680
-0.0849 7.6217 -2.8462 0.9680
-1.4351 7.4869 -2.8466 0.9680
-3.3627 6.8429 -2.8471 0.9680
-3.9586 6.5168 -2.8472 0.9680
-4.5232 6.1389 -2.8474 0.9680
-5.0519 5.7122 -2.8475 0.9680
-5.5405 5.2402 -2.8476 0.9680
-7.0891 3.7829 -3.0005 0.9663
-7.6479 2.4661 -3.0006 0.9663
-7.9642 1.0711 -3.0007 0.9663
-8.0280 0.3580 -3.0007 0.9663
-8.0280 -0.3579 -3.0007 0.9663
-7.9642 -1.0711 -3.0007 0.9663
-7.8372 -1.7756 -3.0007 0.9663
-7.6479 -2.4661 -3.0006 0.9663
-7.3979 -3.1370 -3.0005 0.9663
-6.7241 -4.3987 -3.0004 0.9663
-6.3057 -4.9795 -3.0003 0.9663
-5.8372 -5.5208 -3.0001 0.9663
-4.7654 -6.4676 -2.9999 0.9663
-2.2081 -7.7224 -2.9992 0.9663
-0.8039 -7.9905 -2.9988 0.9663
0.6256 -8.0054 -2.9984 0.9663
1.3355 -7.9175 -2.9982 0.9663
4.0137 -6.9520 -2.9975 0.9663
4.6163 -6.5668 -2.9974 0.9663
5.7069 -5.6437 -2.9971 0.9663
6.1863 -5.1131 -2.9970 0.9663
7.7849 -1.9471 -2.9965 0.9663
7.9273 -1.2465 -2.9965 0.9663
8.0067 -0.5360 -2.9965 0.9663
7.9749 0.8921 -2.9965 0.9663
7.6905 2.2920 -2.9966 0.9663
7.1626 3.6194 -2.9967 0.9663
6.8123 4.2427 -2.9968 0.9663
5.6500 5.1102 -2.8447 0.9680
3.5121 6.7620 -2.8452 0.9680
2.8965 7.0481 -2.8454 0.9680
0.9316 7.5643 -2.8459 0.9680
-1.7672 7.4157 -2.8466 0.9680
-3.6643 6.6865 -2.8471 0.9680
-4.2451 6.3342 -2.8473 0.9680
-4.7923 5.9315 -2.8474 0.9680
-5.3014 5.4817 -2.8476 0.9680
-5.7686 4.9883 -2.8477 0.9680
-6.9134 4.0948 -3.0004 0.9663
-7.2507 3.4634 -3.0005 0.9663
-7.9085 1.4248 -3.0007 0.9663
-7.6151 -0.6805 -3.0006 0.9677
-7.1644 -2.6681 -3.0005 0.9677
-6.8984 -3.2950 -3.0004 0.9677
-6.5775 -3.8959 -3.0003 0.9677
-6.2045 -4.4657 -3.0002 0.9677
-5.7822 -5.0000 -3.0001 0.9677
-5.3140 -5.4946 -3.0000 0.9677
-3.6730 -6.7023 -2.9996 0.9677
-3.0617 -7.0022 -2.9994 0.9677
-1.1028 -7.5611 -2.9989 0.9677
2.2632 -7.2958 -2.9980 0.9677
3.5205 -6.7782 -2.9977 0.9677
4.1096 -6.4376 -2.9975 0.9677
5.1854 -5.6064 -2.9972 0.9677
6.4816 -4.0368 -2.9969 0.9677
6.8150 -3.4438 -2.9968 0.9677
7.3173 -2.1808 -2.9967 0.9677
7.4823 -1.5208 -2.9966 0.9677
7.5425 1.1860 -2.9966 0.9677
7.4071 1.8527 -2.9966 0.9677
7.2129 2.5046 -2.9967 0.9677
6.6549 3.7440 -2.9968 0.9677
5.1539 5.0969 -2.8448 0.9693
3.6248 6.2783 -2.8452 0.9693
3.0517 6.5763 -2.8454 0.9693
2.4544 6.8222 -2.8455 0.9693
1.8376 7.0140 -2.8457 0.9693
0.5649 7.2295 -2.8460 0.9693
-0.0808 7.2515 -2.8462 0.9693
-1.3654 7.1232 -2.8465 0.9693
-1.9941 6.9738 -2.8467 0.9693
-3.7663 6.2002 -2.8472 0.9693
-4.3034 5.8406 -2.8473 0.9693
-4.8064 5.4347 -2.8474 0.9693
-5.9992 4.7375 -3.0002 0.9677
-6.3973 4.1850 -3.0003 0.9677
-7.0384 2.9846 -3.0004 0.9677
-7.2762 2.3463 -3.0005 0.9677
-7.5772 1.0190 -3.0006 0.9677
-7.2763 -2.3463 -3.0005 0.9677
-7.0384 -2.9845 -3.0005 0.9677
-6.3974 -4.1850 -3.0003 0.9677
-5.9993 -4.7376 -3.0002 0.9677
-5.0638 -5.7257 -2.9999 0.9677
-4.5339 -6.1534 -2.9998 0.9677
-3.9680 -6.5322 -2.9996 0.9677
-2.7466 -7.1315 -2.9993 0.9677
-2.1009 -7.3472 -2.9992 0.9677
0.5952 -7.6167 -2.9984 0.9677
1.2707 -7.5330 -2.9983 0.9677
2.5859 -7.1876 -2.9979 0.9677
3.2152 -6.9285 -2.9977 0.9677
3.8189 -6.6145 -2.9976 0.9677
4.3922 -6.2480 -2.9974 0.9677
4.9307 -5.8320 -2.9973 0.9677
5.8861 -4.8649 -2.9970 0.9677
6.2955 -4.3216 -2.9969 0.9677
6.6549 -3.7440 -2.9968 0.9677
6.9616 -3.1367 -2.9968 0.9677
7.5425 -1.1860 -2.9966 0.9677
7.6181 -0.5099 -2.9966 0.9677
7.6332 0.1701 -2.9966 0.9677
6.4816 4.0368 -2.9969 0.9677
8.6384 6.5145 -4.2463 0.9546
5.3757 4.8621 -2.8448 0.9693
4.4289 5.7387 -2.8450 0.9693
3.3416 6.4337 -2.8453 0.9693
2.7558 6.7059 -2.8454 0.9693
2.1481 6.9250 -2.8456 0.9693
0.2423 7.2478 -2.8461 0.9693
-1.0467 7.1767 -2.8465 0.9693
-1.6814 7.0555 -2.8466 0.9693
-4.0389 6.0264 -2.8472 0.9693
-5.5141 4.7683 -2.8611 0.9692
-6.2044 4.4657 -3.0002 0.9677
-6.5775 3.8959 -3.0003 0.9677
-7.1644 2.6681 -3.0005 0.9677
-7.5242 1.3555 -3.0006 0.9677
-7.2577 -0.6486 -3.0005 0.9690
-7.1712 -1.2920 -3.0005 0.9690
-7.0276 -1.9251 -3.0004 0.9690
-6.2689 -3.7131 -3.0002 0.9690
-5.5109 -4.7654 -3.0001 0.9690
-4.0555 -6.0513 -2.9997 0.9690
-0.4054 -7.2710 -2.9987 0.9690
0.2433 -7.2778 -2.9985 0.9690
1.5297 -7.1185 -2.9982 0.9690
3.3555 -6.4604 -2.9977 0.9690
3.9170 -6.1358 -2.9976 0.9690
4.9424 -5.3436 -2.9973 0.9690
5.8111 -4.3823 -2.9971 0.9690
6.7618 -2.6911 -2.9968 0.9690
6.9744 -2.0786 -2.9967 0.9690
7.2322 -0.8091 -2.9967 0.9690
7.2755 -0.1621 -2.9967 0.9690
7.1890 1.1304 -2.9967 0.9690
6.3430 3.5685 -2.9969 0.9690
6.0004 4.1191 -2.9970 0.9690
5.6101 4.6369 -2.9971 0.9690
4.9123 4.8579 -2.8449 0.9706
3.9735 5.6524 -2.8451 0.9706
3.4548 5.9839 -2.8453 0.9706
2.9087 6.2680 -2.8454 0.9706
2.3394 6.5023 -2.8456 0.9705
1.7514 6.6851 -2.8457 0.9705
1.1495 6.8149 -2.8459 0.9705
-0.0770 6.9115 -2.8462 0.9705
-0.6919 6.8776 -2.8464 0.9705
-1.3014 6.7891 -2.8465 0.9705
-1.9006 6.6467 -2.8467 0.9705
-2.4847 6.4515 -2.8468 0.9705
-3.5896 5.9093 -2.8471 0.9705
-4.1015 5.5667 -2.8473 0.9705
-4.5809 5.1798 -2.8474 0.9705
-6.4282 3.4302 -3.0003 0.9690
-6.9348 2.2362 -3.0004 0.9690
-7.1064 1.6101 -3.0005 0.9690
-7.2794 0.3246 -3.0005 0.9690
-7.2794 -0.3246 -3.0005 0.9690
-7.2216 -0.9712 -3.0005 0.9690
-7.1064 -1.6101 -3.0005 0.9690
-6.0972 -3.9886 -3.0002 0.9690
-5.2930 -5.0061 -3.0000 0.9690
-4.3212 -5.8647 -2.9997 0.9690
-3.7819 -6.2258 -2.9996 0.9690
-3.2126 -6.5374 -2.9994 0.9690
-2.6178 -6.7970 -2.9993 0.9690
-1.3711 -7.1527 -2.9990 0.9690
1.2111 -7.1798 -2.9983 0.9690
1.8452 -7.0431 -2.9981 0.9690
2.4646 -6.8505 -2.9979 0.9690
3.6398 -6.3044 -2.9976 0.9690
4.1863 -5.9551 -2.9975 0.9690
5.1754 -5.1180 -2.9972 0.9690
5.6102 -4.6369 -2.9971 0.9690
6.0004 -4.1190 -2.9970 0.9690
6.8749 -2.3872 -2.9968 0.9690
7.2611 -0.4861 -2.9967 0.9690
7.2755 0.1622 -2.9967 0.9690
7.1316 1.4496 -2.9967 0.9690
6.9744 2.0786 -2.9967 0.9690
6.1778 3.8476 -2.9969 0.9690
5.2149 4.7166 -2.8954 0.9700
3.7179 5.8239 -2.8452 0.9706
3.1849 6.1321 -2.8453 0.9706
2.6266 6.3916 -2.8455 0.9705
2.0474 6.6003 -2.8456 0.9705
0.2310 6.9079 -2.8461 0.9705
-0.3848 6.9014 -2.8463 0.9705
-1.6025 6.7246 -2.8466 0.9705
-3.8494 5.7437 -2.8472 0.9705
-4.8072 4.9707 -2.8474 0.9705
-6.2689 3.7131 -3.0002 0.9690
-6.5747 3.1405 -3.0003 0.9690
-7.0276 1.9251 -3.0004 0.9690
-7.1711 1.2920 -3.0005 0.9690
-7.2577 0.6486 -3.0005 0.9690
-6.7085 -1.8376 -3.0004 0.9702
-5.6449 -4.0629 -3.0001 0.9702
-5.2607 -4.5490 -3.0000 0.9702
-3.8714 -5.7765 -2.9996 0.9702
-3.3418 -6.0979 -2.9995 0.9702
-2.2074 -6.5931 -2.9992 0.9702
-1.0033 -6.8794 -2.9989 0.9702
0.2323 -6.9475 -2.9985 0.9702
1.4603 -6.7955 -2.9982 0.9702
2.0592 -6.6382 -2.9981 0.9702
3.7393 -5.8574 -2.9976 0.9702
4.2456 -5.5011 -2.9975 0.9702
4.7182 -5.1012 -2.9973 0.9702
6.2010 -3.1335 -2.9970 0.9702
6.6580 -1.9843 -2.9968 0.9702
6.9455 -0.1548 -2.9968 0.9702
6.9318 0.4640 -2.9968 0.9702
6.8630 1.0792 -2.9968 0.9702
6.5631 2.2790 -2.9969 0.9702
6.0553 3.4067 -2.9970 0.9702
5.7282 3.9322 -2.9971 0.9702
4.7714 4.7186 -2.8946 0.9712
4.2583 5.0368 -2.8451 0.9717
3.7932 5.3960 -2.8452 0.9717
3.2981 5.7125 -2.8453 0.9717
2.7767 5.9837 -2.8454 0.9717
2.2332 6.2073 -2.8456 0.9717
1.6720 6.3818 -2.8457 0.9717
1.0974 6.5056 -2.8459 0.9717
0.5140 6.5778 -2.8460 0.9717
-1.2423 6.4810 -2.8465 0.9717
-5.0150 4.7432 -2.9776 0.9704
-5.4582 4.3103 -3.0000 0.9702
-6.6199 2.1347 -3.0003 0.9702
-6.7837 1.5370 -3.0004 0.9702
-6.8937 0.9271 -3.0004 0.9702
-6.9489 0.3099 -3.0004 0.9702
-6.8937 -0.9271 -3.0004 0.9702
-6.7837 -1.5370 -3.0004 0.9702
-6.4035 -2.7153 -3.0003 0.9702
-6.1363 -3.2744 -3.0002 0.9702
-5.4582 -4.3103 -3.0000 0.9702
-4.6072 -5.2093 -2.9998 0.9702
-1.9115 -6.6848 -2.9991 0.9702
-1.3088 -6.8280 -2.9989 0.9702
2.3528 -6.5397 -2.9980 0.9702
3.4747 -6.0183 -2.9977 0.9702
3.9964 -5.6849 -2.9975 0.9702
4.9406 -4.8859 -2.9973 0.9702
5.7282 -3.9322 -2.9971 0.9702
6.0553 -3.4067 -2.9970 0.9702
6.9318 -0.4640 -2.9968 0.9702
6.8081 1.3838 -2.9968 0.9702
5.8976 3.6731 -2.9970 0.9702
5.1532 4.6609 -2.9972 0.9702
4.4783 4.8420 -2.8450 0.9717
3.5492 5.5597 -2.8452 0.9717
2.5074 6.1015 -2.8455 0.9717
1.9545 6.3008 -2.8457 0.9717
0.8065 6.5482 -2.8460 0.9717
0.2205 6.5944 -2.8461 0.9717
-2.0952 6.2580 -2.8467 0.9717
-2.6440 6.0470 -2.8469 0.9717
-3.1719 5.7880 -2.8470 0.9717
-3.6746 5.4830 -2.8471 0.9717
-4.1483 5.1344 -2.8473 0.9717
-5.2606 4.5491 -3.0000 0.9702
-5.6448 4.0629 -3.0001 0.9702
-6.2761 2.9979 -3.0002 0.9702
-6.5182 2.4274 -3.0003 0.9702
-6.7085 1.8377 -3.0004 0.9702
-6.8455 1.2333 -3.0004 0.9702
-6.6495 0.0000 -3.0003 0.9712
-6.6230 -0.5918 -3.0003 0.9712
-6.5440 -1.1789 -3.0003 0.9712
-6.4131 -1.7567 -3.0003 0.9712
-6.2312 -2.3205 -3.0002 0.9712
-5.9998 -2.8659 -3.0002 0.9712
-5.3963 -3.8840 -3.0000 0.9712
-4.6218 -4.7789 -2.9998 0.9712
-4.1780 -5.1711 -2.9997 0.9712
-3.7010 -5.5222 -2.9996 0.9712
-2.1102 -6.3029 -2.9992 0.9713
-0.9592 -6.5765 -2.9989 0.9713
-0.3700 -6.6355 -2.9987 0.9713
0.2221 -6.6417 -2.9985 0.9713
0.8123 -6.5953 -2.9984 0.9713
4.0588 -5.2591 -2.9975 0.9713
4.5106 -4.8768 -2.9974 0.9713
5.3034 -3.9995 -2.9972 0.9713
6.1712 -2.4561 -2.9970 0.9713
6.3652 -1.8971 -2.9969 0.9713
6.6400 -0.1480 -2.9968 0.9713
6.6268 0.4436 -2.9968 0.9713
6.0557 2.7285 -2.9970 0.9713
4.7232 4.6709 -2.9973 0.9713
3.1530 5.4611 -2.8453 0.9727
2.1349 5.9342 -2.8456 0.9727
0.4914 6.2883 -2.8460 0.9727
-0.6314 6.2765 -2.8463 0.9727
-2.2675 5.8876 -2.8468 0.9727
-2.7827 5.6626 -2.8469 0.9727
-3.2758 5.3927 -2.8470 0.9727
-4.2100 4.7603 -2.8674 0.9725
-4.8302 4.5684 -2.9999 0.9712
-6.1215 2.5958 -3.0002 0.9712
-6.3284 2.0407 -3.0003 0.9712
-6.4850 1.4693 -3.0003 0.9712
-6.6428 0.2962 -3.0003 0.9712
-6.6428 -0.2962 -3.0003 0.9712
-6.5901 -0.8863 -3.0003 0.9712
-6.4850 -1.4693 -3.0003 0.9712
-6.3284 -2.0406 -3.0003 0.9712
-6.1215 -2.5957 -3.0002 0.9712
-5.8661 -3.1302 -3.0001 0.9712
-5.5640 -3.6398 -3.0001 0.9712
-4.4043 -4.9800 -2.9998 0.9712
-3.9434 -5.3520 -2.9996 0.9712
-3.4512 -5.6815 -2.9995 0.9712
-2.9317 -5.9658 -2.9994 0.9713
-1.2512 -6.5275 -2.9989 0.9713
-0.6652 -6.6126 -2.9988 0.9713
0.5177 -6.6251 -2.9985 0.9713
2.2493 -6.2519 -2.9980 0.9713
2.7967 -6.0266 -2.9979 0.9713
3.3218 -5.7535 -2.9977 0.9713
5.4762 -3.7592 -2.9971 0.9713
6.0557 -2.7286 -2.9970 0.9713
6.4433 -1.6116 -2.9969 0.9713
6.5611 -1.0317 -2.9969 0.9713
6.6400 0.1480 -2.9968 0.9713
6.6005 0.7384 -2.9968 0.9713
6.5087 1.3229 -2.9969 0.9713
6.1712 2.4561 -2.9970 0.9713
5.9282 2.9956 -2.9970 0.9713
5.6382 3.5115 -2.9971 0.9713
5.3034 3.9995 -2.9972 0.9713
2.9066 5.5963 -2.8454 0.9727
1.3250 6.1662 -2.8458 0.9727
0.7710 6.2600 -2.8460 0.9727
0.2108 6.3041 -2.8461 0.9727
-2.0030 5.9826 -2.8467 0.9727
-3.5129 5.2416 -2.8471 0.9727
-4.5857 4.7416 -2.9764 0.9715
-5.0290 4.3488 -2.9999 0.9712
-5.3963 3.8840 -3.0000 0.9712
-5.9997 2.8659 -3.0002 0.9712
-6.5440 1.1790 -3.0003 0.9712
-6.3396 -0.5665 -3.0003 0.9722
-6.1386 -1.6815 -3.0002 0.9722
-5.1654 -3.7178 -3.0000 0.9722
-4.8138 -4.1627 -2.9999 0.9722
-3.9992 -4.9499 -2.9997 0.9723
-3.5427 -5.2860 -2.9995 0.9723
-2.5491 -5.8299 -2.9993 0.9723
-1.4749 -6.1888 -2.9990 0.9723
-0.9181 -6.2952 -2.9988 0.9723
1.3363 -6.2187 -2.9982 0.9723
4.3178 -4.6683 -2.9975 0.9723
5.9074 -2.3511 -2.9970 0.9723
6.2305 -1.2664 -2.9969 0.9723
6.3436 0.4246 -2.9969 0.9723
6.1679 1.5427 -2.9970 0.9723
5.7968 2.6119 -2.9971 0.9723
5.2421 3.5985 -2.9972 0.9723
4.9012 4.0509 -2.9973 0.9723
3.4713 4.9380 -2.8453 0.9737
3.0182 5.2276 -2.8454 0.9737
2.5410 5.4757 -2.8455 0.9737
1.0042 5.9534 -2.8459 0.9737
-0.6044 6.0080 -2.8463 0.9737
-1.1368 5.9307 -2.8465 0.9736
-1.6602 5.8063 -2.8466 0.9736
-2.1705 5.6357 -2.8468 0.9736
-2.6637 5.4204 -2.8469 0.9736
-3.1357 5.1620 -2.8470 0.9736
-4.1911 4.7389 -2.9821 0.9724
-5.3260 3.4841 -3.0000 0.9722
-6.2075 1.4064 -3.0002 0.9722
-6.3081 0.8484 -3.0003 0.9722
-6.3586 0.2835 -3.0003 0.9722
-6.3081 -0.8484 -3.0003 0.9722
-6.0576 -1.9533 -3.0002 0.9722
-5.6151 -2.9963 -3.0001 0.9722
-5.3260 -3.4840 -3.0000 0.9722
-3.7747 -5.1230 -2.9996 0.9723
-1.7492 -6.1172 -2.9991 0.9723
-0.6368 -6.3297 -2.9988 0.9723
0.4956 -6.3417 -2.9985 0.9723
1.6120 -6.1528 -2.9982 0.9723
2.6771 -5.7689 -2.9979 0.9723
3.6572 -5.2024 -2.9976 0.9723
4.5213 -4.4712 -2.9974 0.9723
5.2421 -3.5985 -2.9972 0.9723
5.5415 -3.1175 -2.9971 0.9723
5.7968 -2.6119 -2.9971 0.9723
6.1679 -1.5427 -2.9970 0.9723
6.2807 -0.9876 -2.9969 0.9723
6.3436 -0.4247 -2.9969 0.9723
6.3184 0.7068 -2.9969 0.9723
6.2304 1.2664 -2.9969 0.9723
5.9074 2.3511 -2.9970 0.9723
5.6748 2.8676 -2.9971 0.9723
5.3972 3.3614 -2.9972 0.9723
4.7159 4.2653 -2.9973 0.9723
4.3177 4.6683 -2.9974 0.9723
3.6876 4.7784 -2.8452 0.9737
3.2480 5.0879 -2.8453 0.9737
2.7824 5.3570 -2.8454 0.9737
1.7886 5.7660 -2.8457 0.9737
1.2684 5.9026 -2.8458 0.9737
0.7380 5.9923 -2.8460 0.9737
-0.3362 6.0288 -2.8463 0.9737
-0.8715 5.9753 -2.8464 0.9737
-1.3999 5.8743 -2.8465 0.9736
-2.4195 5.5336 -2.8468 0.9736
-2.9025 5.2965 -2.8469 0.9736
-4.4241 4.5745 -2.9997 0.9723
-5.4759 3.2434 -3.0000 0.9722
-5.9645 2.2212 -3.0002 0.9722
-6.1386 1.6816 -3.0002 0.9722
-6.2640 1.1285 -3.0002 0.9722
-6.3396 0.5666 -3.0003 0.9722
-6.0998 0.0000 -3.0002 0.9732
-6.0031 -1.0815 -3.0002 0.9732
-5.7161 -2.1287 -3.0001 0.9732
-5.2479 -3.1083 -3.0000 0.9732
-4.6133 -3.9893 -2.9998 0.9732
-4.2398 -4.3839 -2.9997 0.9732
-3.8327 -4.7437 -2.9996 0.9732
-3.3951 -5.0658 -2.9995 0.9732
-2.9306 -5.3477 -2.9994 0.9732
-2.4429 -5.5871 -2.9992 0.9732
-1.9359 -5.7821 -2.9991 0.9732
0.7452 -6.0504 -2.9984 0.9732
1.2807 -5.9598 -2.9983 0.9732
2.3169 -5.6377 -2.9980 0.9732
2.8093 -5.4089 -2.9979 0.9732
3.7236 -4.8247 -2.9976 0.9732
4.1381 -4.4740 -2.9975 0.9732
5.1726 -3.2215 -2.9972 0.9732
5.8395 -1.7404 -2.9970 0.9732
5.9712 -1.2137 -2.9970 0.9732
6.0555 -0.6774 -2.9970 0.9732
5.9112 1.4785 -2.9970 0.9732
5.7562 1.9988 -2.9971 0.9732
5.0240 3.4488 -2.9973 0.9732
4.6972 3.8823 -2.9973 0.9732
4.3332 4.2852 -2.9974 0.9732
3.3328 4.7409 -2.8504 0.9745
2.4352 5.2478 -2.8455 0.9745
0.9624 5.7055 -2.8459 0.9745
0.4508 5.7688 -2.8461 0.9745
-0.0645 5.7863 -2.8462 0.9745
-0.5792 5.7579 -2.8463 0.9745
-1.0895 5.6837 -2.8465 0.9745
-2.0802 5.4010 -2.8467 0.9745
-3.0051 4.9471 -2.8470 0.9745
-3.5005 4.7509 -2.9025 0.9740
-4.4310 4.1908 -2.9998 0.9732
-5.6155 2.3812 -3.0001 0.9732
-5.8053 1.8720 -3.0001 0.9732
-6.0453 0.8130 -3.0002 0.9732
-6.0937 0.2717 -3.0002 0.9732
-6.0937 -0.2717 -3.0002 0.9732
-6.0453 -0.8130 -3.0002 0.9732
-5.9489 -1.3478 -3.0002 0.9732
-5.6155 -2.3812 -3.0001 0.9732
-4.7866 -3.7799 -2.9999 0.9732
-4.4310 -4.1908 -2.9998 0.9732
-3.1661 -5.2119 -2.9994 0.9732
-2.6894 -5.4728 -2.9993 0.9732
-2.1916 -5.6903 -2.9992 0.9732
-0.0679 -6.0962 -2.9986 0.9732
0.4749 -6.0777 -2.9985 0.9732
1.5449 -5.8967 -2.9982 0.9732
2.0635 -5.7355 -2.9981 0.9732
2.5657 -5.5288 -2.9979 0.9732
3.5050 -4.9859 -2.9977 0.9732
3.9347 -4.6540 -2.9976 0.9732
4.6972 -3.8823 -2.9974 0.9732
5.0240 -3.4488 -2.9973 0.9732
5.5556 -2.5032 -2.9971 0.9732
5.7563 -1.9988 -2.9971 0.9732
6.0555 0.6774 -2.9970 0.9732
5.9712 1.2137 -2.9970 0.9732
5.6615 2.2532 -2.9971 0.9732
5.4386 2.7483 -2.9971 0.9732
4.8654 3.6692 -2.9973 0.9732
4.5197 4.0878 -2.9974 0.9732
3.6401 4.7165 -2.9304 0.9738
3.1128 4.8761 -2.8454 0.9745
2.6666 5.1340 -2.8455 0.9745
1.2156 5.6569 -2.8459 0.9745
-0.8352 5.7265 -2.8464 0.9745
-1.3416 5.6297 -2.8465 0.9745
-2.7817 5.0759 -2.8469 0.9745
-3.2225 4.8084 -2.8470 0.9745
-4.9502 3.5630 -2.9999 0.9732
-5.2478 3.1083 -3.0000 0.9732
-6.0031 1.0815 -3.0002 0.9732
-6.0755 0.5429 -3.0002 0.9732
-5.7592 -1.0376 -3.0001 0.9740
-5.6440 -1.5461 -3.0001 0.9740
-5.0347 -2.9820 -2.9999 0.9740
-4.4260 -3.8272 -2.9998 0.9740
-4.0676 -4.2059 -2.9997 0.9740
-3.6770 -4.5511 -2.9996 0.9740
-3.2572 -4.8601 -2.9995 0.9740
-2.8116 -5.1305 -2.9993 0.9740
-1.8572 -5.5473 -2.9991 0.9740
-1.3561 -5.6903 -2.9990 0.9740
0.7149 -5.8047 -2.9984 0.9741
1.2287 -5.7178 -2.9983 0.9741
2.6953 -5.1893 -2.9979 0.9741
3.1464 -4.9287 -2.9978 0.9741
3.5724 -4.6289 -2.9977 0.9741
4.3362 -3.9219 -2.9974 0.9741
5.2179 -2.6367 -2.9972 0.9741
5.6026 -1.6697 -2.9971 0.9741
5.7289 -1.1644 -2.9971 0.9741
5.8329 0.3905 -2.9970 0.9741
5.7750 0.9081 -2.9971 0.9741
5.5226 1.9177 -2.9971 0.9741
5.0953 2.8666 -2.9972 0.9741
3.3136 4.7136 -2.9538 0.9744
2.3364 5.0348 -2.8456 0.9754
1.4068 5.3698 -2.8458 0.9754
-0.0618 5.5514 -2.8462 0.9754
-0.5557 5.5241 -2.8463 0.9754
-1.0452 5.4529 -2.8465 0.9754
-1.9957 5.1817 -2.8467 0.9753
-2.4491 4.9837 -2.8468 0.9753
-2.8925 4.7618 -2.8563 0.9753
-3.4705 4.7103 -2.9995 0.9740
-3.8762 4.3828 -2.9996 0.9740
-4.5921 3.6263 -2.9998 0.9740
-5.3874 2.2845 -3.0000 0.9740
-5.8462 -0.2607 -3.0001 0.9740
-5.7997 -0.7800 -3.0001 0.9740
-4.5921 -3.6263 -2.9998 0.9740
-4.2510 -4.0205 -2.9997 0.9740
-3.8762 -4.3828 -2.9996 0.9740
-3.4706 -4.7103 -2.9995 0.9740
-1.6083 -5.6244 -2.9990 0.9740
-0.5855 -5.8199 -2.9988 0.9741
-0.0652 -5.8486 -2.9986 0.9741
0.9728 -5.7670 -2.9983 0.9741
1.4821 -5.6573 -2.9982 0.9741
3.3627 -4.7835 -2.9977 0.9741
4.1573 -4.1112 -2.9975 0.9741
4.5066 -3.7248 -2.9974 0.9741
5.3301 -2.4016 -2.9972 0.9741
5.6713 -1.4185 -2.9971 0.9741
5.7750 -0.9081 -2.9971 0.9741
5.8329 -0.3904 -2.9970 0.9741
5.6025 1.6697 -2.9971 0.9741
5.4318 2.1618 -2.9971 0.9741
4.6680 3.5203 -2.9973 0.9741
3.9701 4.2924 -2.9975 0.9741
3.5724 4.6289 -2.9976 0.9741
2.1098 5.1340 -2.8456 0.9754
1.6446 5.3016 -2.8457 0.9754
1.1662 5.4272 -2.8459 0.9754
0.6786 5.5097 -2.8460 0.9754
0.1855 5.5485 -2.8461 0.9754
-0.3091 5.5432 -2.8463 0.9754
-1.2871 5.4011 -2.8465 0.9754
-4.0676 4.2059 -2.9997 0.9740
-4.7492 3.4182 -2.9998 0.9740
-5.4839 2.0422 -3.0000 0.9740
-5.8287 0.5208 -3.0001 0.9740
-5.5975 -0.5002 -3.0001 0.9748
-5.4200 -1.4847 -3.0000 0.9748
-5.0707 -2.4221 -2.9999 0.9748
-4.8349 -2.8637 -2.9999 0.9748
-4.5607 -3.2826 -2.9998 0.9748
-4.2504 -3.6754 -2.9997 0.9748
-2.7001 -4.9270 -2.9993 0.9748
-2.2507 -5.1476 -2.9992 0.9748
-1.7836 -5.3272 -2.9991 0.9748
-1.3023 -5.4646 -2.9989 0.9748
3.8127 -4.1222 -2.9976 0.9749
4.1643 -3.7664 -2.9975 0.9749
4.4829 -3.3807 -2.9974 0.9749
4.7659 -2.9682 -2.9973 0.9749
5.0111 -2.5322 -2.9973 0.9749
5.5018 -1.1183 -2.9971 0.9749
5.5794 -0.6242 -2.9971 0.9749
5.6128 -0.1251 -2.9971 0.9749
5.6017 0.3750 -2.9971 0.9749
5.5461 0.8721 -2.9971 0.9749
5.4465 1.3622 -2.9971 0.9749
4.8933 2.7530 -2.9973 0.9749
3.9925 3.9482 -2.9975 0.9749
3.6253 4.2880 -2.9976 0.9749
3.2294 4.5939 -2.9977 0.9749
2.7272 4.7237 -2.9118 0.9756
1.8046 5.0159 -2.8457 0.9761
-0.0594 5.3312 -2.8462 0.9761
-1.0038 5.2367 -2.8464 0.9761
-1.4660 5.1268 -2.8466 0.9761
-2.3519 4.7860 -2.8468 0.9761
-2.8780 4.7378 -2.9593 0.9752
-3.7224 4.2089 -2.9996 0.9748
-4.7025 3.0762 -2.9998 0.9748
-5.3484 1.7246 -3.0000 0.9748
-5.4808 1.2418 -3.0000 0.9748
-5.6142 0.2504 -3.0001 0.9748
-5.6142 -0.2504 -3.0001 0.9748
-5.4808 -1.2418 -3.0000 0.9748
-5.1736 -2.1938 -3.0000 0.9748
-4.9577 -2.6455 -2.9999 0.9748
-4.4099 -3.4824 -2.9998 0.9748
-3.3329 -4.5234 -2.9995 0.9748
-2.4779 -5.0422 -2.9993 0.9748
-1.5445 -5.4012 -2.9990 0.9748
-0.0626 -5.6167 -2.9986 0.9749
3.9925 -3.9482 -2.9975 0.9749
4.3279 -3.5771 -2.9975 0.9749
4.6290 -3.1776 -2.9974 0.9749
5.1188 -2.3064 -2.9972 0.9749
5.3037 -1.8417 -2.9972 0.9749
5.4465 -1.3622 -2.9972 0.9749
5.5461 -0.8721 -2.9971 0.9749
5.5018 1.1183 -2.9971 0.9749
5.0110 2.5322 -2.9973 0.9749
4.4829 3.3807 -2.9974 0.9749
4.1643 3.7664 -2.9975 0.9749
3.8127 4.1222 -2.9976 0.9749
3.4308 4.4454 -2.9977 0.9749
2.0262 4.9304 -2.8456 0.9761
1.1200 5.2120 -2.8459 0.9761
0.1782 5.3285 -2.8461 0.9761
-0.7695 5.2761 -2.8464 0.9761
-1.6929 5.0565 -2.8466 0.9761
-2.1363 4.8859 -2.8467 0.9761
-3.1280 4.6673 -2.9994 0.9748
-3.5311 4.3705 -2.9995 0.9748
-4.5607 3.2826 -2.9998 0.9748
-4.8349 2.8637 -2.9999 0.9748
-5.0707 2.4221 -2.9999 0.9748
-5.2663 1.9612 -3.0000 0.9748
-5.5307 0.9964 -3.0000 0.9748
-5.5974 0.5002 -3.0001 0.9748
-5.4016 -0.0000 -3.0000 0.9756
-5.3160 -0.9577 -3.0000 0.9756
-5.2096 -1.4271 -3.0000 0.9756
-4.8739 -2.3280 -2.9999 0.9756
-4.0854 -3.5327 -2.9997 0.9756
-3.7546 -3.8822 -2.9996 0.9756
-3.0066 -4.4861 -2.9994 0.9756
-1.7143 -5.1205 -2.9990 0.9756
-1.2517 -5.2525 -2.9989 0.9756
-0.3006 -5.3908 -2.9987 0.9756
0.1804 -5.3959 -2.9985 0.9756
1.1342 -5.2780 -2.9983 0.9756
2.0518 -4.9928 -2.9981 0.9756
2.9044 -4.5496 -2.9978 0.9756
4.3090 -3.2495 -2.9975 0.9756
4.8167 -2.4340 -2.9973 0.9756
5.0141 -1.9956 -2.9973 0.9756
5.1717 -1.5414 -2.9972 0.9756
5.3951 -0.1202 -2.9972 0.9756
5.3844 0.3605 -2.9972 0.9756
5.2352 1.3094 -2.9972 0.9756
4.7035 2.6462 -2.9973 0.9756
4.4494 3.0544 -2.9974 0.9756
4.1600 3.4383 -2.9975 0.9756
3.8376 3.7951 -2.9976 0.9756
3.4847 4.1217 -2.9977 0.9756
3.1041 4.4156 -2.9978 0.9756
1.7345 4.8212 -2.8457 0.9768
-0.0571 5.1243 -2.8462 0.9768
-0.5130 5.0991 -2.8463 0.9768
-0.9648 5.0334 -2.8464 0.9768
-1.4091 4.9278 -2.8466 0.9768
-1.8422 4.7830 -2.8467 0.9768
-3.2035 4.3478 -2.9994 0.9756
-3.9239 3.7112 -2.9996 0.9756
-5.1408 1.6577 -2.9999 0.9756
-5.2680 1.1936 -3.0000 0.9756
-5.3534 0.7200 -3.0000 0.9756
-5.3962 -0.2406 -3.0000 0.9756
-5.1408 -1.6577 -2.9999 0.9756
-4.5199 -2.9568 -2.9998 0.9756
-3.5779 -4.0455 -2.9995 0.9756
-3.2035 -4.3478 -2.9994 0.9756
-2.8037 -4.6155 -2.9993 0.9756
-1.0165 -5.3029 -2.9989 0.9756
-0.5404 -5.3721 -2.9987 0.9756
-0.0601 -5.3987 -2.9986 0.9756
0.4206 -5.3824 -2.9985 0.9756
1.8274 -5.0794 -2.9981 0.9756
3.8376 -3.7950 -2.9976 0.9756
4.1600 -3.4384 -2.9975 0.9756
4.4494 -3.0543 -2.9974 0.9756
4.9203 -2.2170 -2.9973 0.9756
5.0980 -1.7702 -2.9972 0.9756
5.3310 -0.8382 -2.9972 0.9756
5.1717 1.5414 -2.9972 0.9756
5.0141 1.9956 -2.9973 0.9756
4.3090 3.2496 -2.9974 0.9756
3.6648 3.9623 -2.9976 0.9756
2.4501 4.7173 -2.9523 0.9760
1.5210 4.9014 -2.8501 0.9768
0.6264 5.0859 -2.8460 0.9768
0.1712 5.1217 -2.8461 0.9768
-1.1881 4.9855 -2.8465 0.9768
-1.6272 4.8602 -2.8466 0.9768
-2.5920 4.7299 -2.9956 0.9756
-3.0066 4.4861 -2.9994 0.9756
-3.7546 3.8822 -2.9996 0.9756
-4.8739 2.3280 -2.9999 0.9756
-5.0618 1.8851 -2.9999 0.9756
-5.3801 0.4808 -3.0000 0.9756
-5.1961 0.0000 -3.0000 0.9763
-5.1755 -0.4624 -3.0000 0.9763
-4.6885 -2.2395 -2.9998 0.9763
-4.4704 -2.6478 -2.9998 0.9763
-4.2169 -3.0351 -2.9997 0.9763
-3.2650 -4.0410 -2.9995 0.9763
-2.4966 -4.5556 -2.9993 0.9763
-1.6491 -4.9257 -2.9990 0.9763
-1.2041 -5.0527 -2.9989 0.9763
-0.7496 -5.1396 -2.9988 0.9763
0.1735 -5.1907 -2.9985 0.9763
0.6348 -5.1545 -2.9984 0.9763
1.0911 -5.0773 -2.9983 0.9763
1.5386 -4.9598 -2.9982 0.9763
1.9738 -4.8030 -2.9981 0.9763
2.3934 -4.6081 -2.9980 0.9763
2.7940 -4.3767 -2.9979 0.9763
3.1723 -4.1104 -2.9978 0.9763
4.6336 -2.3414 -2.9974 0.9763
4.8235 -1.9197 -2.9973 0.9763
4.9752 -1.4828 -2.9973 0.9763
5.0874 -1.0340 -2.9972 0.9763
5.1592 -0.5771 -2.9972 0.9763
5.1283 0.8064 -2.9972 0.9763
5.0363 1.2597 -2.9973 0.9763
4.7333 2.1327 -2.9973 0.9763
4.5247 2.5456 -2.9974 0.9763
4.2803 2.9383 -2.9975 0.9763
3.6917 3.6508 -2.9976 0.9763
3.3522 3.9650 -2.9977 0.9763
2.5962 4.4969 -2.9979 0.9763
2.1857 4.7100 -2.9978 0.9763
1.7016 4.7297 -2.9020 0.9771
1.2492 4.7682 -2.8459 0.9775
0.8199 4.8607 -2.8460 0.9775
0.3840 4.9146 -2.8461 0.9775
-0.4940 4.9107 -2.8495 0.9775
-0.9281 4.8420 -2.8464 0.9775
-2.2911 4.6622 -2.9992 0.9763
-2.6971 4.4400 -2.9993 0.9763
-3.0816 4.1824 -2.9994 0.9763
