ply
format ascii 1.0
element vertex 1585
property float32 x
property float32 y
property float32 z
property float32 I
end_header
1.9054 -5.2962 -0.4218 0.9777
-0.8916 -6.1134 -0.5664 0.9755
-0.2991 -5.3632 -0.4925 0.9787
0.6163 -5.0043 -0.4622 0.9800
1.6000 -5.1579 -0.4951 0.9785
10.2941 7.0665 -1.1447 0.9511
-0.0581 -5.2136 -0.4780 0.9793
0.8408 -4.9849 -0.4635 0.9799
1.3263 -5.0624 -0.4798 0.9792
-0.3012 -5.4019 -0.5868 0.9785
0.1717 -5.1351 -0.5573 0.9795
0.6196 -5.0305 -0.5498 0.9798
1.0825 -5.0377 -0.5589 0.9795
1.6121 -5.1969 -0.5902 0.9783
10.2909 7.0643 -1.3539 0.9510
-0.5691 -5.6571 -0.6167 0.9774
0.8454 -5.0120 -0.5513 0.9798
1.9444 -5.4045 -0.6230 0.9772
-0.3034 -5.4412 -0.6829 0.9783
0.6228 -5.0571 -0.6385 0.9797
1.6244 -5.2366 -0.6871 0.9781
-0.5747 -5.7129 -0.7195 0.9771
0.3979 -5.0927 -0.6401 0.9796
0.8501 -5.0395 -0.6405 0.9796
1.3428 -5.1255 -0.6640 0.9789
10.2845 7.0599 -1.7743 0.9508
-0.0591 -5.3091 -0.7552 0.9788
0.4001 -5.1205 -0.7305 0.9795
0.8548 -5.0674 -0.7310 0.9795
1.9993 -5.5571 -0.8400 0.9764
-0.3102 -5.5633 -0.8873 0.9777
0.1751 -5.2385 -0.8346 0.9790
1.6634 -5.3624 -0.8940 0.9775
10.2812 7.0576 -1.9858 0.9507
-0.5946 -5.9108 -0.9460 0.9762
-0.0598 -5.3672 -0.8547 0.9785
0.4035 -5.1639 -0.8248 0.9792
1.3668 -5.2171 -0.8588 0.9784
2.0415 -5.6746 -0.9603 0.9759
0.1770 -5.2931 -0.9338 0.9787
1.1165 -5.1959 -0.9371 0.9786
1.6883 -5.4424 -1.0048 0.9771
10.2103 7.0090 -2.1837 0.9509
-13.0290 6.9525 -2.6040 0.9418
1.3832 -5.2797 -0.9624 0.9781
2.1115 -5.8689 -1.0998 0.9750
0.1788 -5.3492 -1.0357 0.9784
0.6441 -5.2298 -1.0197 0.9788
1.7156 -5.5306 -1.1206 0.9767
12.8031 7.2029 -2.8428 0.9419
10.4475 10.3318 -2.8434 0.9419
9.4873 11.2216 -2.8437 0.9419
8.4516 12.0226 -2.8439 0.9419
7.3488 12.7284 -2.8442 0.9419
2.4457 14.4993 -2.8455 0.9419
-0.1638 14.7068 -2.8462 0.9418
-2.7695 14.4482 -2.8469 0.9418
-4.0449 14.1460 -2.8472 0.9418
-5.2885 13.7314 -2.8475 0.9418
-6.4904 13.2077 -2.8479 0.9418
-12.3219 8.0606 -2.8494 0.9418
-12.9099 6.8889 -2.8317 0.9421
-13.5574 5.7489 -2.8497 0.9418
0.8804 -5.2191 -1.0243 0.9787
1.4001 -5.3441 -1.0691 0.9777
13.6479 5.4318 -2.8426 0.9419
13.1109 6.6253 -2.8427 0.9419
12.4699 7.7663 -2.8429 0.9419
9.9773 10.7874 -2.8435 0.9419
8.9784 11.6336 -2.8438 0.9419
6.7748 13.0439 -2.8444 0.9419
4.3557 14.0415 -2.8450 0.9419
0.4914 14.6986 -2.8460 0.9418
-0.8189 14.6858 -2.8464 0.9418
-2.1230 14.5563 -2.8467 0.9418
-4.6713 13.9526 -2.8474 0.9418
-7.0727 12.9061 -2.8480 0.9418
-9.2508 11.4500 -2.8486 0.9418
-11.1363 9.6300 -2.8491 0.9418
-12.6691 7.5040 -2.8495 0.9418
-13.2875 6.3469 -2.8497 0.9418
-13.8004 5.1394 -2.8498 0.9418
-14.2412 0.0000 -3.0023 0.9434
-14.1846 -1.2675 -3.0023 0.9434
-13.3448 -4.9696 -3.0021 0.9434
-12.8490 -6.1374 -3.0020 0.9435
-12.2511 -7.2563 -3.0018 0.9435
-5.7011 -13.0388 -3.0001 0.9435
-0.3290 -5.8996 -1.2457 0.9761
0.1813 -5.4241 -1.1442 0.9781
1.1436 -5.3220 -1.1476 0.9780
1.7741 -5.7192 -1.2624 0.9758
7.6484 -11.9809 -2.9966 0.9435
8.6836 -11.2516 -2.9963 0.9436
9.6497 -10.4331 -2.9961 0.9436
10.5392 -9.5321 -2.9958 0.9436
12.0607 -7.5114 -2.9954 0.9436
12.6807 -6.4078 -2.9953 0.9436
13.2001 -5.2535 -2.9951 0.9436
13.9215 -2.8296 -2.9949 0.9436
14.1179 -1.5793 -2.9949 0.9436
14.2023 -0.3165 -2.9949 0.9436
13.7817 3.4471 -2.9950 0.9436
12.2948 5.5398 -2.8430 0.9464
11.7535 6.6124 -2.8431 0.9464
10.3962 8.5927 -2.8434 0.9464
8.7093 10.3014 -2.8439 0.9463
5.6798 12.2398 -2.8447 0.9463
4.5684 12.6980 -2.8450 0.9463
3.4204 13.0556 -2.8453 0.9463
1.0516 13.4581 -2.8459 0.9463
-0.1504 13.4998 -2.8462 0.9463
-7.0136 11.5459 -2.8480 0.9463
-8.0141 10.8769 -2.8483 0.9463
-8.9512 10.1213 -2.8485 0.9463
-9.8173 9.2851 -2.8487 0.9463
-11.9239 6.3628 -2.8493 0.9462
-12.4435 5.2765 -2.8494 0.9462
-13.8887 3.1468 -3.0022 0.9434
-14.1139 1.8982 -3.0023 0.9434
-14.1140 -1.8981 -3.0023 0.9434
-13.8887 -3.1467 -3.0022 0.9434
-13.5532 -4.3703 -3.0022 0.9434
-13.1099 -5.5590 -3.0020 0.9435
-10.3431 -9.7824 -3.0013 0.9435
-1.4239 -14.1539 -2.9990 0.9435
0.4168 -5.3338 -1.1279 0.9784
0.8910 -5.2820 -1.1293 0.9783
1.4249 -5.4389 -1.1853 0.9773
5.9841 -12.8953 -2.9971 0.9435
9.1758 -10.8531 -2.9962 0.9436
10.1045 -9.9926 -2.9960 0.9436
10.9530 -9.0529 -2.9957 0.9436
11.7145 -8.0415 -2.9955 0.9436
12.9532 -5.8364 -2.9952 0.9436
13.4208 -4.6602 -2.9951 0.9436
13.7818 -3.4470 -2.9950 0.9436
14.0336 -2.2066 -2.9949 0.9436
14.2023 0.3166 -2.9949 0.9436
14.1178 1.5794 -2.9949 0.9436
13.6147 4.0577 -2.9950 0.9436
10.7683 8.1207 -2.8433 0.9464
9.1592 9.9028 -2.8438 0.9464
7.2595 11.3719 -2.8443 0.9463
6.2191 11.9740 -2.8445 0.9463
1.6500 13.3972 -2.8457 0.9463
0.4511 13.4923 -2.8460 0.9463
-1.9487 13.3615 -2.8467 0.9463
-3.1306 13.1364 -2.8470 0.9463
-4.2878 12.8071 -2.8473 0.9463
-5.4112 12.3759 -2.8476 0.9463
-6.4919 11.8463 -2.8479 0.9463
-7.5213 11.2225 -2.8481 0.9463
-8.4910 10.5095 -2.8484 0.9463
-10.2215 8.8389 -2.8488 0.9463
-10.9684 7.8947 -2.8490 0.9463
-12.7933 4.7643 -2.8780 0.9457
-14.0152 2.5250 -3.0023 0.9434
-14.1846 1.2676 -3.0023 0.9434
-13.1528 0.0000 -3.0020 0.9475
-12.9442 -2.3320 -3.0020 0.9475
-11.8671 -5.6684 -3.0017 0.9475
-11.3149 -6.7018 -3.0016 0.9475
-10.6729 -7.6819 -3.0014 0.9475
-9.9462 -8.6008 -3.0012 0.9475
-9.1406 -9.4513 -3.0010 0.9475
-7.3189 -10.9205 -3.0005 0.9475
-5.2657 -12.0429 -3.0000 0.9475
-1.8964 -13.0024 -2.9991 0.9475
0.1850 -5.5327 -1.2635 0.9775
8.0211 -10.3933 -2.9965 0.9476
9.7354 -8.8051 -2.9961 0.9476
10.4797 -7.9031 -2.9959 0.9476
11.7137 -5.9191 -2.9955 0.9476
12.8600 -2.6138 -2.9952 0.9476
13.0414 -1.4588 -2.9952 0.9476
11.3572 5.1173 -2.8432 0.9502
10.8572 6.1082 -2.8433 0.9502
10.0810 6.9202 -2.7909 0.9511
8.0449 9.5156 -2.8441 0.9502
4.2198 11.7290 -2.8451 0.9501
2.0737 12.2938 -2.8456 0.9501
-2.3480 12.2496 -2.8468 0.9501
-3.4293 11.9931 -2.8471 0.9501
-4.4836 11.6414 -2.8473 0.9501
-9.0672 8.5758 -2.8485 0.9501
-9.7952 7.7352 -2.8487 0.9501
-10.4454 6.8331 -2.8489 0.9501
-11.4926 4.8733 -2.8492 0.9501
-12.8273 2.9063 -3.0019 0.9475
-13.0353 1.7531 -3.0020 0.9475
-13.1397 -0.5859 -3.0020 0.9475
-13.0353 -1.7530 -3.0020 0.9475
-11.0048 -7.1990 -3.0015 0.9475
-10.3198 -8.1494 -3.0013 0.9475
-8.7102 -9.8487 -3.0009 0.9475
-3.6130 -12.6355 -2.9996 0.9475
-2.4738 -12.9056 -2.9993 0.9475
0.9072 -5.3785 -1.2450 0.9779
6.5651 -11.3711 -2.9969 0.9476
7.5505 -10.7407 -2.9966 0.9476
8.4758 -10.0252 -2.9964 0.9476
12.3973 -4.3048 -2.9953 0.9476
12.7309 -3.1842 -2.9953 0.9476
13.1193 0.2924 -2.9951 0.9476
13.0413 1.4590 -2.9952 0.9476
10.5746 6.5859 -2.8434 0.9502
9.2404 8.3575 -2.8437 0.9502
8.4605 9.1474 -2.8439 0.9502
7.6134 9.8649 -2.8442 0.9502
4.7378 11.5289 -2.8449 0.9501
1.5241 12.3746 -2.8458 0.9501
0.4167 12.4624 -2.8460 0.9501
-1.7999 12.3413 -2.8466 0.9501
-2.8915 12.1334 -2.8469 0.9501
-4.9980 11.4307 -2.8475 0.9501
-5.9961 10.9415 -2.8477 0.9501
-6.9468 10.3653 -2.8480 0.9501
-12.3249 4.5899 -3.0018 0.9475
-13.1005 1.1707 -3.0020 0.9475
-11.7780 -3.2263 -3.0017 0.9509
-11.4438 -4.2617 -3.0016 0.9509
-11.0186 -5.2631 -3.0015 0.9509
-10.5060 -6.2227 -3.0014 0.9509
-9.9099 -7.1327 -3.0012 0.9510
-8.4872 -8.7757 -3.0008 0.9510
-7.6719 -9.4956 -3.0006 0.9510
-6.7958 -10.1400 -3.0004 0.9510
-5.8658 -10.7037 -3.0002 0.9510
-3.8744 -11.5721 -2.9996 0.9510
-2.8288 -11.8700 -2.9994 0.9510
-0.6792 -12.1812 -2.9988 0.9510
3.6133 -11.6480 -2.9977 0.9510
4.6352 -11.2791 -2.9974 0.9510
5.6203 -10.8209 -2.9971 0.9510
6.5605 -10.2768 -2.9969 0.9510
7.4486 -9.6514 -2.9967 0.9510
8.2775 -8.9494 -2.9964 0.9510
9.0406 -8.1766 -2.9962 0.9510
11.3234 -4.5066 -2.9956 0.9510
11.9424 -2.4274 -2.9955 0.9510
12.1109 -1.3548 -2.9954 0.9510
12.1833 -0.2715 -2.9954 0.9510
12.1591 0.8140 -2.9954 0.9510
12.0385 1.8930 -2.9954 0.9510
10.0824 5.6723 -2.8435 0.9535
9.5380 6.5475 -2.8437 0.9535
8.2270 8.1358 -2.8440 0.9535
7.4707 8.8364 -2.8442 0.9535
5.7865 10.0225 -2.8446 0.9534
2.9338 11.1982 -2.8454 0.9534
1.9256 11.4159 -2.8457 0.9534
0.9020 11.5430 -2.8459 0.9534
-0.1290 11.5786 -2.8462 0.9534
-2.1803 11.3745 -2.8467 0.9534
-3.1843 11.1363 -2.8470 0.9534
-5.1093 10.3971 -2.8475 0.9534
-6.0149 9.9019 -2.8477 0.9534
-6.8729 9.3280 -2.8480 0.9534
-7.6764 8.6799 -2.8482 0.9534
-8.4191 7.9628 -2.8484 0.9534
-9.0950 7.1823 -2.8486 0.9534
-9.6987 6.3446 -2.8487 0.9534
-10.2254 5.4565 -2.8489 0.9534
-11.9102 -2.6985 -3.0017 0.9509
-10.7730 -5.7486 -3.0014 0.9509
-10.2181 -6.6843 -3.0013 0.9509
-2.2971 -11.9837 -2.9992 0.9510
-1.2212 -12.1394 -2.9989 0.9510
-0.0656 -5.8916 -1.4482 0.9760
0.4321 -5.5302 -1.3635 0.9774
7.0115 -9.9740 -2.9968 0.9510
7.8709 -9.3096 -2.9965 0.9510
8.6676 -8.5716 -2.9963 0.9510
9.3955 -7.7656 -2.9961 0.9510
10.0488 -6.8981 -2.9960 0.9510
11.8225 -2.9570 -2.9955 0.9510
12.0386 -1.8929 -2.9954 0.9510
12.1591 -0.8139 -2.9954 0.9510
12.1833 0.2715 -2.9954 0.9510
11.9424 2.4274 -2.9955 0.9510
11.6792 3.4808 -2.9955 0.9510
10.3249 5.2174 -2.8435 0.9535
9.8200 6.1160 -2.8436 0.9535
9.2371 6.9661 -2.8438 0.9535
8.5810 7.7611 -2.8439 0.9535
5.3345 10.2708 -2.8448 0.9534
4.3996 10.7058 -2.8450 0.9534
3.4296 11.0559 -2.8453 0.9534
2.4321 11.3183 -2.8455 0.9534
1.4152 11.4909 -2.8458 0.9534
-3.6774 10.9839 -2.8471 0.9534
-4.6408 10.6139 -2.8474 0.9534
-5.5676 10.1596 -2.8476 0.9534
-8.0558 8.3296 -2.8483 0.9534
-8.7657 7.5800 -2.8485 0.9534
-9.4062 6.7702 -2.8486 0.9534
-9.9719 5.9064 -2.8488 0.9534
-11.7779 3.2263 -3.0017 0.9509
-12.0186 2.1653 -3.0017 0.9509
-11.3912 0.0000 -3.0016 0.9540
-11.2105 -2.0197 -3.0015 0.9540
-10.9861 -3.0094 -3.0015 0.9540
-9.7997 -5.8043 -3.0012 0.9540
-9.2437 -6.6532 -3.0010 0.9540
-6.3390 -9.4585 -3.0003 0.9540
-5.4716 -9.9844 -3.0000 0.9540
-4.5609 -10.4309 -2.9998 0.9540
-2.6387 -11.0725 -2.9993 0.9540
-0.6336 -11.3629 -2.9988 0.9540
0.6919 -5.6180 -1.4915 0.9769
3.3706 -10.8658 -2.9977 0.9540
5.2429 -10.0943 -2.9972 0.9540
6.1201 -9.5869 -2.9970 0.9540
7.7218 -8.3487 -2.9966 0.9540
8.4337 -7.6278 -2.9964 0.9541
9.6515 -6.0110 -2.9961 0.9541
10.1477 -5.1279 -2.9959 0.9541
10.5635 -4.2041 -2.9958 0.9541
10.8954 -3.2472 -2.9957 0.9541
11.1410 -2.2645 -2.9957 0.9541
11.2981 -1.2639 -2.9956 0.9541
11.3657 -0.2533 -2.9956 0.9541
11.2307 1.7660 -2.9956 0.9541
10.7401 3.7294 -2.9958 0.9541
6.9692 8.2432 -2.8443 0.9563
3.6553 10.1602 -2.8452 0.9563
1.7963 10.6492 -2.8457 0.9563
0.8414 10.7677 -2.8459 0.9563
-0.1203 10.8008 -2.8462 0.9563
-1.0813 10.7482 -2.8464 0.9563
-2.0338 10.6103 -2.8467 0.9563
-4.7659 9.6984 -2.8474 0.9563
-7.8531 7.4275 -2.8482 0.9563
-9.0466 5.9181 -2.8485 0.9563
-9.5379 5.0896 -2.8487 0.9563
-10.4864 4.4467 -3.0013 0.9540
-10.8409 3.4958 -3.0014 0.9540
-11.1093 2.5171 -3.0015 0.9540
-11.2894 1.5183 -3.0015 0.9540
-11.3799 -0.5074 -3.0016 0.9540
-11.2894 -1.5183 -3.0016 0.9540
-11.1093 -2.5170 -3.0015 0.9540
-10.8410 -3.4957 -3.0014 0.9540
-10.0487 -5.3621 -3.0012 0.9540
-9.5311 -6.2350 -3.0011 0.9540
-8.9379 -7.0582 -3.0009 0.9540
-7.5440 -8.5300 -3.0006 0.9540
-5.0212 -10.2178 -2.9999 0.9540
-4.0915 -10.6233 -2.9997 0.9540
-1.1392 -11.3239 -2.9989 0.9540
-0.0696 -6.2429 -1.6451 0.9745
0.9502 -5.6334 -1.5054 0.9766
3.8511 -10.7044 -2.9976 0.9540
4.7882 -10.3183 -2.9974 0.9540
5.6871 -9.8504 -2.9971 0.9540
6.5408 -9.3044 -2.9969 0.9540
9.9094 -5.5749 -2.9960 0.9541
10.7401 -3.7293 -2.9958 0.9541
11.3432 -0.7593 -2.9956 0.9541
11.2981 1.2639 -2.9956 0.9541
9.6319 4.8673 -2.8437 0.9563
9.1609 5.7055 -2.8438 0.9563
8.6171 6.4986 -2.8439 0.9563
8.0050 7.2401 -2.8441 0.9563
6.5953 8.5458 -2.8444 0.9563
5.8089 9.0996 -2.8446 0.9563
4.9763 9.5812 -2.8449 0.9563
2.2688 10.5581 -2.8456 0.9563
-1.5591 10.6898 -2.8466 0.9563
-3.4303 10.2458 -2.8471 0.9563
-5.1934 9.4768 -2.8475 0.9563
-6.0168 8.9777 -2.8477 0.9563
-7.5142 7.7697 -2.8481 0.9563
-8.1765 7.0705 -2.8483 0.9563
-11.3459 1.0139 -3.0016 0.9540
-10.6252 -0.9494 -3.0014 0.9566
-9.6250 -4.5974 -3.0011 0.9566
-9.1772 -5.4356 -3.0010 0.9566
-7.4139 -7.6659 -3.0005 0.9567
-6.7018 -8.2949 -3.0004 0.9567
-5.9365 -8.8579 -3.0002 0.9567
-5.1242 -9.3504 -3.0000 0.9567
-4.2713 -9.7687 -2.9997 0.9567
-3.3846 -10.1093 -2.9995 0.9567
-2.4712 -10.3696 -2.9993 0.9567
-1.5383 -10.5475 -2.9990 0.9567
0.2077 -6.2125 -1.7489 0.9745
1.3347 -6.2112 -1.7875 0.9739
3.1568 -10.1763 -2.9978 0.9567
4.0497 -9.8542 -2.9976 0.9567
4.9103 -9.4539 -2.9973 0.9567
5.7318 -8.9788 -2.9971 0.9567
6.5078 -8.4324 -2.9969 0.9567
7.2320 -7.8192 -2.9967 0.9567
9.5043 -4.8027 -2.9961 0.9567
9.8937 -3.9376 -2.9960 0.9567
10.2046 -3.0413 -2.9959 0.9567
10.4346 -2.1209 -2.9959 0.9567
10.5818 -1.1837 -2.9958 0.9567
10.6451 -0.2372 -2.9958 0.9567
10.6239 0.7113 -2.9958 0.9567
10.3298 2.5837 -2.9959 0.9567
8.8093 4.9561 -2.8439 0.9589
7.7917 6.4400 -2.8441 0.9589
6.5272 7.7204 -2.8445 0.9589
5.8145 8.2713 -2.8446 0.9589
4.2565 9.1724 -2.8451 0.9589
2.5631 9.7833 -2.8455 0.9588
0.7880 10.0844 -2.8460 0.9588
-0.1127 10.1154 -2.8462 0.9588
-1.0126 10.0660 -2.8464 0.9588
-2.7818 9.7286 -2.8469 0.9588
-5.2544 8.6500 -2.8475 0.9588
-6.7057 7.5823 -2.8479 0.9588
-10.1523 3.2737 -3.0012 0.9566
-10.5723 1.4219 -3.0014 0.9566
-9.8204 -4.1641 -3.0012 0.9566
-9.4105 -5.0216 -3.0011 0.9566
-7.7483 -7.3282 -3.0006 0.9567
-7.0649 -7.9884 -3.0005 0.9567
-6.3254 -8.5849 -3.0003 0.9567
-5.5358 -9.1132 -3.0001 0.9567
-2.0067 -10.4689 -2.9991 0.9567
5.3264 -9.2255 -2.9972 0.9567
6.1259 -8.7142 -2.9970 0.9567
6.8768 -8.1338 -2.9968 0.9567
8.7799 -6.0270 -2.9963 0.9567
9.2811 -5.2214 -2.9962 0.9567
9.7086 -4.3745 -2.9961 0.9567
10.0591 -3.4929 -2.9960 0.9567
10.5186 -1.6539 -2.9958 0.9567
10.6239 -0.7112 -2.9958 0.9567
10.5817 1.1838 -2.9958 0.9567
10.4345 2.1209 -2.9958 0.9567
10.2045 3.0413 -2.9959 0.9567
9.8936 3.9376 -2.9960 0.9567
8.0707 6.0864 -2.8441 0.9589
4.6607 8.9734 -2.8449 0.9589
3.8438 9.3533 -2.8452 0.9589
2.9963 9.6590 -2.8454 0.9588
2.1248 9.8882 -2.8456 0.9588
0.3380 10.1099 -2.8461 0.9588
-4.0541 9.2721 -2.8472 0.9588
-7.0370 7.2763 -2.8480 0.9588
-7.6572 6.6214 -2.8482 0.9588
-8.7107 5.1594 -2.8485 0.9588
-9.6249 4.5975 -3.0011 0.9566
-9.9962 3.7227 -3.0012 0.9566
-10.4984 1.8914 -3.0013 0.9566
-10.0248 0.0000 -3.0012 0.9590
-9.3940 -3.4983 -3.0011 0.9590
-8.6243 -5.1081 -3.0009 0.9590
-8.1351 -5.8552 -3.0007 0.9590
-7.5813 -6.5557 -3.0006 0.9590
-6.9673 -7.2041 -3.0004 0.9590
-5.5789 -8.3243 -3.0001 0.9590
-4.8156 -8.7872 -2.9999 0.9590
-4.0140 -9.1803 -2.9997 0.9590
-3.1808 -9.5005 -2.9994 0.9590
-1.4457 -9.9124 -2.9990 0.9590
0.3347 -10.0101 -2.9985 0.9590
2.9667 -9.5638 -2.9978 0.9591
5.3869 -8.4384 -2.9972 0.9591
6.7969 -7.3487 -2.9968 0.9591
7.9913 -6.0265 -2.9965 0.9591
8.9325 -4.5138 -2.9963 0.9591
9.5907 -2.8583 -2.9961 0.9591
9.8069 -1.9933 -2.9960 0.9591
9.9849 0.6684 -2.9960 0.9591
9.7084 2.4283 -2.9960 0.9591
9.4539 3.2828 -2.9961 0.9591
12.3588 6.9529 -4.2453 0.9425
7.3229 6.0526 -2.8443 0.9611
6.7555 6.6807 -2.8444 0.9611
6.1344 7.2559 -2.8446 0.9611
5.4646 7.7736 -2.8447 0.9611
4.0003 8.6204 -2.8451 0.9611
2.4088 9.1945 -2.8455 0.9611
1.5810 9.3731 -2.8458 0.9611
-0.9517 9.4600 -2.8464 0.9611
-1.7900 9.3384 -2.8466 0.9611
-2.6143 9.1428 -2.8469 0.9611
-4.1945 8.5356 -2.8473 0.9611
-6.3018 7.1255 -2.8478 0.9611
-6.9114 6.5368 -2.8480 0.9611
-7.9616 5.2083 -2.8483 0.9611
-8.8434 4.7190 -3.0009 0.9590
-9.2286 3.9133 -3.0010 0.9590
-9.5406 3.0765 -3.0011 0.9590
-9.7767 2.2152 -3.0011 0.9590
-9.9352 1.3362 -3.0012 0.9590
-10.0148 -0.4465 -3.0012 0.9590
-9.7768 -2.2151 -3.0012 0.9590
-9.5406 -3.0764 -3.0011 0.9590
-9.2287 -3.9132 -3.0010 0.9590
-8.3880 -5.4871 -3.0008 0.9590
-7.8660 -6.2116 -3.0007 0.9590
-7.2815 -6.8868 -3.0005 0.9590
-6.6393 -7.5071 -3.0003 0.9590
-5.9444 -8.0678 -3.0002 0.9590
-5.2024 -8.5643 -3.0000 0.9590
-3.6010 -9.3497 -2.9996 0.9590
-1.0027 -9.9666 -2.9989 0.9590
0.7802 -9.9849 -2.9984 0.9590
1.6657 -9.8751 -2.9982 0.9590
6.4630 -7.6444 -2.9969 0.9591
7.1173 -7.0385 -2.9967 0.9591
7.7151 -6.3767 -2.9966 0.9591
8.7227 -4.9073 -2.9963 0.9591
9.8859 -1.5545 -2.9960 0.9591
9.9849 -0.6684 -2.9960 0.9591
10.0047 0.2230 -2.9960 0.9591
9.8068 1.9934 -2.9960 0.9591
9.2985 3.7007 -2.9961 0.9591
8.0638 5.0222 -2.8441 0.9611
7.0462 6.3730 -2.8443 0.9611
6.4514 6.9752 -2.8445 0.9611
5.1131 8.0095 -2.8448 0.9611
4.3802 8.4334 -2.8450 0.9611
2.8159 9.0777 -2.8454 0.9611
1.9969 9.2930 -2.8456 0.9611
-0.5293 9.4926 -2.8463 0.9611
-1.3722 9.4086 -2.8465 0.9611
-2.2043 9.2498 -2.8467 0.9611
-3.0191 9.0176 -2.8470 0.9611
-3.8100 8.7137 -2.8472 0.9611
-4.5707 8.3406 -2.8474 0.9611
-5.9779 7.3990 -2.8477 0.9611
-7.1959 6.2226 -2.8481 0.9611
-8.1859 4.8486 -2.8483 0.9611
-9.0450 4.3204 -3.0009 0.9590
-9.8658 1.7775 -3.0012 0.9590
-9.4497 0.0001 -3.0011 0.9611
-7.6685 -5.5194 -3.0006 0.9611
-7.1464 -6.1797 -3.0005 0.9611
-6.5677 -6.7909 -3.0003 0.9611
-4.5394 -8.2834 -2.9998 0.9611
-1.3628 -9.3442 -2.9990 0.9611
-0.5257 -9.4277 -2.9987 0.9611
0.3155 -9.4364 -2.9985 0.9611
3.5878 -8.7305 -2.9977 0.9612
6.9983 -6.3296 -2.9968 0.9612
8.0090 -4.9880 -2.9965 0.9612
8.7659 -3.4887 -2.9963 0.9612
9.3756 -1.0488 -2.9961 0.9612
8.9125 3.0948 -2.9962 0.9612
8.6019 3.8759 -2.9963 0.9612
11.6509 6.5546 -4.2455 0.9454
7.3836 5.0686 -2.8442 0.9631
6.9035 5.7059 -2.8444 0.9631
5.7830 6.8402 -2.8447 0.9631
5.1515 7.3282 -2.8448 0.9631
4.4791 7.7581 -2.8450 0.9631
3.0330 8.4305 -2.8454 0.9631
2.2708 8.6675 -2.8456 0.9631
1.4904 8.8359 -2.8458 0.9631
-0.0998 8.9614 -2.8462 0.9631
-0.8971 8.9177 -2.8464 0.9631
-1.6874 8.8031 -2.8466 0.9631
-2.4644 8.6186 -2.8468 0.9631
-3.2219 8.3656 -2.8470 0.9631
-3.9540 8.0462 -2.8472 0.9631
-6.5150 6.1619 -2.8479 0.9631
-7.5147 4.9159 -2.8518 0.9630
-8.6992 3.6888 -3.0009 0.9611
-8.9933 2.9000 -3.0009 0.9611
-9.3653 1.2595 -3.0010 0.9611
-9.4403 0.4210 -3.0011 0.9611
-9.4403 -0.4209 -3.0011 0.9611
-8.9933 -2.9000 -3.0010 0.9611
-8.6993 -3.6888 -3.0009 0.9611
-8.3362 -4.4483 -3.0008 0.9611
-6.8639 -6.4918 -3.0004 0.9611
-6.2585 -7.0766 -3.0002 0.9611
-5.6035 -7.6051 -3.0001 0.9611
-4.9041 -8.0731 -2.9999 0.9611
-4.1658 -8.4771 -2.9997 0.9611
-0.9452 -9.3953 -2.9989 0.9611
-0.1052 -9.4414 -2.9986 0.9611
0.7355 -9.4126 -2.9984 0.9612
1.5703 -9.3091 -2.9982 0.9612
3.1955 -8.8819 -2.9978 0.9612
3.9730 -8.5617 -2.9976 0.9612
4.7190 -8.1735 -2.9974 0.9612
5.4274 -7.7206 -2.9972 0.9612
6.0927 -7.2064 -2.9970 0.9612
7.2732 -6.0114 -2.9967 0.9612
7.7790 -5.3399 -2.9966 0.9612
8.2231 -4.6262 -2.9964 0.9612
8.9125 -3.0947 -2.9963 0.9612
9.3197 -1.4654 -2.9961 0.9612
9.4130 -0.6301 -2.9961 0.9612
9.4317 0.2102 -2.9961 0.9612
9.2452 1.8792 -2.9962 0.9612
9.0414 2.6946 -2.9962 0.9612
8.7659 3.4887 -2.9963 0.9612
11.9312 6.0290 -4.2454 0.9454
6.6426 6.0079 -2.8444 0.9631
6.0818 6.5756 -2.8446 0.9631
4.8201 7.5506 -2.8449 0.9631
4.1292 7.9502 -2.8451 0.9631
2.6546 8.5575 -2.8455 0.9631
1.8825 8.7604 -2.8457 0.9631
1.0954 8.8938 -2.8459 0.9631
0.2995 8.9567 -2.8461 0.9631
-2.8460 8.5005 -2.8469 0.9631
-4.3086 7.8623 -2.8473 0.9631
-6.2338 6.4458 -2.8478 0.9631
-9.1136 2.4965 -3.0010 0.9611
-9.2998 1.6755 -3.0010 0.9611
-8.9318 0.0001 -3.0009 0.9630
-8.8963 -0.7950 -3.0009 0.9630
-8.6142 -2.3596 -3.0009 0.9630
-8.3699 -3.1170 -3.0008 0.9630
-8.0590 -3.8494 -3.0007 0.9630
-6.7549 -5.8411 -3.0004 0.9630
-6.2079 -6.4188 -3.0002 0.9630
-2.8342 -8.4652 -2.9994 0.9630
-2.0693 -8.6833 -2.9992 0.9630
-1.2882 -8.8324 -2.9989 0.9630
-0.4969 -8.9114 -2.9987 0.9630
4.1122 -7.9174 -2.9975 0.9631
7.9601 -4.0224 -2.9965 0.9631
8.2863 -3.2978 -2.9964 0.9631
8.5467 -2.5472 -2.9964 0.9631
8.7393 -1.7763 -2.9963 0.9631
8.8627 -0.9914 -2.9963 0.9631
8.9157 -0.1986 -2.9963 0.9631
8.6516 2.1639 -2.9963 0.9631
8.1312 3.6638 -2.9964 0.9631
10.4185 7.1519 -4.2458 0.9481
4.8696 6.9271 -2.8449 0.9649
4.2339 7.3334 -2.8451 0.9649
3.5646 7.6817 -2.8452 0.9649
2.1465 8.1930 -2.8456 0.9649
0.6599 8.4450 -2.8460 0.9649
-0.0944 8.4708 -2.8462 0.9649
-3.0455 7.9074 -2.8470 0.9649
-5.0273 6.8231 -2.8475 0.9649
-5.6149 6.3489 -2.8476 0.9649
-6.1580 5.8243 -2.8478 0.9649
-7.2496 4.7425 -2.9106 0.9641
-7.8793 4.2046 -3.0006 0.9630
-8.5004 2.7411 -3.0008 0.9630
-8.7108 1.9737 -3.0009 0.9630
-8.8521 -1.1905 -3.0009 0.9630
-8.7109 -1.9736 -3.0009 0.9630
-8.5005 -2.7410 -3.0008 0.9630
-8.2226 -3.4866 -3.0008 0.9630
-7.4736 -4.8890 -3.0006 0.9630
-7.0085 -5.5346 -3.0004 0.9630
-6.4878 -6.1361 -3.0003 0.9630
-5.2965 -7.1885 -3.0000 0.9630
-3.2086 -8.3309 -2.9994 0.9630
-1.6804 -8.7666 -2.9990 0.9630
-0.8934 -8.8807 -2.9988 0.9630
1.4843 -8.7994 -2.9982 0.9630
3.0205 -8.3957 -2.9978 0.9630
3.7556 -8.0930 -2.9976 0.9631
5.1304 -7.2980 -2.9973 0.9631
6.3424 -6.2721 -2.9969 0.9631
7.3533 -5.0477 -2.9967 0.9631
8.4248 -2.9254 -2.9964 0.9631
8.6516 -2.1639 -2.9963 0.9631
8.8980 -0.5956 -2.9963 0.9631
8.9157 0.1987 -2.9963 0.9631
8.8627 0.9914 -2.9963 0.9631
8.7393 1.7764 -2.9963 0.9631
7.9600 4.0224 -2.9965 0.9631
6.7593 5.0975 -2.8444 0.9649
5.7489 6.2158 -2.8447 0.9649
5.1732 6.7031 -2.8448 0.9649
3.9032 7.5150 -2.8451 0.9649
3.2190 7.8331 -2.8453 0.9649
2.5092 8.0890 -2.8455 0.9649
1.7794 8.2808 -2.8457 0.9649
0.2831 8.4662 -2.8461 0.9649
-2.6901 8.0349 -2.8469 0.9649
-5.8923 6.0927 -2.8477 0.9649
-6.4115 5.5443 -2.8479 0.9649
-7.6841 4.5513 -3.0006 0.9630
-8.3698 3.1170 -3.0008 0.9630
-8.7902 1.5837 -3.0009 0.9630
-8.8963 0.7950 -3.0009 0.9630
-8.4628 0.0001 -3.0008 0.9647
-8.4292 -0.7532 -3.0008 0.9647
-8.3287 -1.5004 -3.0008 0.9647
-8.1619 -2.2357 -3.0007 0.9647
-7.9304 -2.9533 -3.0007 0.9647
-7.6359 -3.6473 -3.0006 0.9647
-6.8678 -4.9431 -3.0004 0.9647
-6.4003 -5.5345 -3.0003 0.9647
-4.7100 -7.0277 -2.9998 0.9647
-2.6855 -8.0210 -2.9993 0.9647
-1.9608 -8.2277 -2.9991 0.9647
1.7764 -8.2666 -2.9981 0.9648
3.8965 -7.5022 -2.9976 0.9648
5.7392 -6.2051 -2.9971 0.9648
7.5427 -3.8115 -2.9966 0.9648
8.0986 -2.4136 -2.9965 0.9648
8.2811 -1.6832 -2.9964 0.9648
8.3980 -0.9394 -2.9964 0.9648
8.4482 -0.1882 -2.9964 0.9648
8.4315 0.5645 -2.9964 0.9648
8.1980 2.0505 -2.9964 0.9648
7.7049 3.4717 -2.9966 0.9648
7.3655 4.1438 -2.9966 0.9648
5.1798 6.1268 -2.8448 0.9665
4.0119 6.9488 -2.8451 0.9665
3.3777 7.2787 -2.8453 0.9665
2.7166 7.5509 -2.8455 0.9665
-0.0894 8.0263 -2.8462 0.9665
-2.2072 7.7190 -2.8467 0.9665
-2.8856 7.4924 -2.8469 0.9665
-3.5413 7.2063 -2.8471 0.9665
-4.1688 6.8629 -2.8473 0.9665
-4.7634 6.4650 -2.8474 0.9665
-5.8348 5.5185 -2.8477 0.9665
-6.3031 4.9775 -2.8478 0.9665
-7.0812 4.6324 -3.0004 0.9647
-8.2535 1.8700 -3.0007 0.9647
-8.3873 1.1280 -3.0008 0.9647
-8.4544 0.3770 -3.0008 0.9647
-8.3873 -1.1279 -3.0008 0.9647
-8.2535 -1.8700 -3.0008 0.9647
-8.0542 -2.5971 -3.0007 0.9647
-7.7909 -3.3036 -3.0006 0.9647
-7.4657 -3.9838 -3.0006 0.9647
-7.0813 -4.6323 -3.0005 0.9647
-6.6406 -5.2440 -3.0003 0.9647
-5.6051 -6.3377 -3.0001 0.9647
-5.0185 -6.8112 -2.9999 0.9647
-3.0402 -7.8936 -2.9994 0.9647
-1.5922 -8.3065 -2.9990 0.9647
-0.8465 -8.4147 -2.9988 0.9647
0.6588 -8.4304 -2.9984 0.9647
2.1428 -8.1790 -2.9980 0.9648
2.8621 -7.9553 -2.9979 0.9648
3.5586 -7.6685 -2.9977 0.9648
4.2268 -7.3209 -2.9975 0.9648
4.8613 -6.9153 -2.9973 0.9648
5.4572 -6.4548 -2.9972 0.9648
8.1980 -2.0504 -2.9964 0.9648
8.3478 -1.3126 -2.9964 0.9648
8.3980 0.9395 -2.9964 0.9648
8.2811 1.6833 -2.9964 0.9648
7.8518 3.1250 -2.9965 0.9648
7.5427 3.8115 -2.9966 0.9648
10.1642 6.3303 -4.2459 0.9505
5.9498 5.3813 -2.8446 0.9665
4.3173 6.7630 -2.8450 0.9665
3.6985 7.1208 -2.8452 0.9665
2.3776 7.6647 -2.8455 0.9665
1.6861 7.8464 -2.8457 0.9665
0.2682 8.0221 -2.8461 0.9665
-1.1585 7.9436 -2.8465 0.9665
-3.2166 7.3567 -2.8470 0.9665
-4.4705 6.6705 -2.8473 0.9665
-5.0468 6.2465 -2.8475 0.9665
-5.5830 5.7728 -2.8476 0.9665
-6.5941 4.7462 -2.8808 0.9661
-7.6358 3.6474 -3.0006 0.9647
-7.9304 2.9534 -3.0007 0.9647
-8.0359 0.0000 -3.0007 0.9663
-8.0040 -0.7152 -3.0007 0.9663
-7.9085 -1.4247 -3.0007 0.9663
-7.7502 -2.1230 -3.0006 0.9663
-7.2507 -3.4633 -3.0005 0.9663
-6.0774 -5.2553 -3.0002 0.9663
-5.5853 -5.7752 -3.0001 0.9663
-5.0489 -6.2491 -2.9999 0.9663
-2.5500 -7.6165 -2.9993 0.9663
-1.1590 -7.9470 -2.9989 0.9663
-0.4471 -8.0181 -2.9987 0.9663
0.2683 -8.0256 -2.9985 0.9663
0.9815 -7.9694 -2.9984 0.9663
3.0516 -7.4255 -2.9978 0.9663
4.3193 -6.7661 -2.9975 0.9663
5.9526 -5.3837 -2.9970 0.9663
6.4079 -4.8324 -2.9969 0.9663
6.8123 -4.2427 -2.9968 0.9663
7.6906 -2.2920 -2.9966 0.9663
7.8639 -1.5984 -2.9965 0.9663
7.9749 -0.8921 -2.9965 0.9663
8.0226 -0.1787 -2.9965 0.9663
7.7850 1.9472 -2.9965 0.9663
7.5809 2.6324 -2.9966 0.9663
7.3167 3.2968 -2.9967 0.9663
1.2676 7.5151 -2.8458 0.9680
-0.0849 7.6217 -2.8462 0.9680
-1.4351 7.4868 -2.8465 0.9680
-2.0959 7.3298 -2.8467 0.9680
-2.7401 7.1146 -2.8469 0.9680
-3.3627 6.8429 -2.8471 0.9680
-4.5232 6.1389 -2.8474 0.9680
-5.0518 5.7122 -2.8475 0.9680
-5.5405 5.2402 -2.8476 0.9680
-6.0142 4.7493 -2.8615 0.9678
-7.0891 3.7829 -3.0004 0.9663
-7.8371 1.7757 -3.0006 0.9663
-7.9641 1.0711 -3.0007 0.9663
-8.0279 -0.3579 -3.0007 0.9663
-7.9642 -1.0710 -3.0007 0.9663
-7.8371 -1.7756 -3.0006 0.9663
-6.3056 -4.9795 -3.0003 0.9663
-4.7654 -6.4676 -2.9999 0.9663
-4.1706 -6.8657 -2.9997 0.9663
-3.5428 -7.2093 -2.9995 0.9663
-2.8869 -7.4956 -2.9994 0.9663
-2.2081 -7.7223 -2.9992 0.9663
-0.8039 -7.9905 -2.9988 0.9663
-0.0895 -8.0298 -2.9986 0.9663
2.0348 -7.7667 -2.9981 0.9663
2.7178 -7.5543 -2.9979 0.9663
5.1822 -6.1295 -2.9972 0.9663
5.7070 -5.6437 -2.9971 0.9663
6.1864 -5.1131 -2.9970 0.9663
6.6167 -4.5420 -2.9969 0.9663
7.3167 -3.2967 -2.9967 0.9663
7.5809 -2.6323 -2.9966 0.9663
8.0226 0.1788 -2.9965 0.9663
7.9749 0.8922 -2.9965 0.9663
7.6906 2.2921 -2.9966 0.9663
7.1627 3.6195 -2.9967 0.9663
9.0790 6.8468 -4.2462 0.9526
5.6500 5.1102 -2.8447 0.9680
5.1730 5.5930 -2.8448 0.9680
4.6549 6.0315 -2.8450 0.9680
4.0998 6.4222 -2.8451 0.9680
1.6011 7.4509 -2.8458 0.9680
-0.4244 7.6106 -2.8463 0.9680
-1.1001 7.5431 -2.8465 0.9680
-5.3014 5.4817 -2.8476 0.9680
-5.7685 4.9883 -2.8477 0.9680
-6.9134 4.0948 -3.0004 0.9663
-7.2506 3.4634 -3.0005 0.9663
-7.7502 2.1230 -3.0006 0.9663
-8.0040 0.7153 -3.0007 0.9663
-7.6150 -0.6804 -3.0006 0.9677
-7.5242 -1.3555 -3.0006 0.9677
-7.3736 -2.0198 -3.0005 0.9677
-7.1644 -2.6680 -3.0005 0.9677
-6.5775 -3.8958 -3.0003 0.9677
-6.2045 -4.4657 -3.0002 0.9677
-5.7821 -5.0000 -3.0001 0.9677
-5.3140 -5.4946 -3.0000 0.9677
-4.2552 -6.3491 -2.9997 0.9677
-3.6730 -6.7023 -2.9996 0.9677
-2.4262 -7.2465 -2.9992 0.9677
-1.7715 -7.4333 -2.9991 0.9677
-1.1028 -7.5611 -2.9989 0.9677
-0.4254 -7.6287 -2.9987 0.9677
0.2553 -7.6358 -2.9985 0.9677
0.9339 -7.5824 -2.9984 0.9677
1.6049 -7.4688 -2.9982 0.9677
2.2632 -7.2958 -2.9980 0.9677
2.9034 -7.0650 -2.9978 0.9677
4.6661 -6.0460 -2.9974 0.9677
5.1855 -5.6064 -2.9972 0.9677
6.0969 -4.5978 -2.9970 0.9677
6.4817 -4.0368 -2.9969 0.9677
6.8150 -3.4438 -2.9968 0.9677
7.0943 -2.8234 -2.9967 0.9677
7.3173 -2.1808 -2.9967 0.9677
7.4823 -1.5208 -2.9966 0.9677
7.6333 -0.1701 -2.9966 0.9677
7.5426 1.1861 -2.9966 0.9677
7.2130 2.5047 -2.9967 0.9677
4.1690 5.9305 -2.8451 0.9693
3.6248 6.2783 -2.8452 0.9693
0.5649 7.2295 -2.8460 0.9693
-0.0808 7.2515 -2.8462 0.9693
-1.9941 6.9738 -2.8467 0.9693
-3.1993 6.5105 -2.8470 0.9693
-4.3034 5.8407 -2.8473 0.9693
-4.8064 5.4347 -2.8474 0.9693
-5.2713 4.9856 -2.8476 0.9693
-5.9818 4.7239 -2.9915 0.9678
-6.3973 4.1850 -3.0003 0.9677
-7.2762 2.3463 -3.0005 0.9677
-7.5771 -1.0190 -3.0006 0.9677
-7.2762 -2.3463 -3.0005 0.9677
-6.7446 -3.5990 -3.0004 0.9677
-5.5536 -5.2525 -3.0001 0.9677
-5.0638 -5.7257 -2.9999 0.9677
-3.3707 -6.8591 -2.9995 0.9677
-2.7467 -7.1315 -2.9993 0.9677
-2.1009 -7.3472 -2.9992 0.9677
-1.4385 -7.5046 -2.9990 0.9677
-0.7648 -7.6024 -2.9988 0.9677
-0.0851 -7.6399 -2.9986 0.9677
0.5952 -7.6167 -2.9985 0.9677
2.5859 -7.1876 -2.9979 0.9677
3.2152 -6.9285 -2.9978 0.9677
3.8189 -6.6145 -2.9976 0.9677
6.6550 -3.7440 -2.9969 0.9677
7.2130 -2.5046 -2.9967 0.9677
7.6333 0.1701 -2.9966 0.9677
7.5879 0.8489 -2.9966 0.9677
7.4823 1.5209 -2.9966 0.9677
7.0943 2.8235 -2.9967 0.9677
6.8150 3.4438 -2.9968 0.9677
8.6383 6.5144 -4.2463 0.9546
4.9219 5.3215 -2.8449 0.9693
3.9007 6.1104 -2.8452 0.9693
2.7558 6.7059 -2.8455 0.9693
2.1481 6.9250 -2.8456 0.9693
1.5234 7.0891 -2.8458 0.9693
-0.4037 7.2410 -2.8463 0.9693
-4.0389 6.0264 -2.8472 0.9693
-4.5594 5.6433 -2.8474 0.9693
-5.0438 5.2153 -2.8475 0.9693
-5.4996 4.7557 -2.8535 0.9692
-6.5775 3.8959 -3.0003 0.9677
-6.8983 3.2951 -3.0004 0.9677
-7.6150 0.6805 -3.0006 0.9677
-7.2866 0.0000 -3.0005 0.9690
-7.1711 -1.2919 -3.0005 0.9690
-6.8282 -2.5428 -3.0004 0.9690
-6.2689 -3.7130 -3.0002 0.9690
-5.9133 -4.2561 -3.0001 0.9690
-5.0646 -5.2368 -2.9999 0.9690
-4.5782 -5.6665 -2.9998 0.9690
-4.0555 -6.0512 -2.9997 0.9690
-3.5007 -6.3879 -2.9995 0.9690
-2.3124 -6.9066 -2.9992 0.9690
-0.4054 -7.2710 -2.9987 0.9690
0.8901 -7.2268 -2.9984 0.9690
1.5297 -7.1185 -2.9982 0.9690
2.1571 -6.9537 -2.9980 0.9690
2.7673 -6.7338 -2.9979 0.9690
4.9424 -5.3437 -2.9973 0.9690
5.3982 -4.8823 -2.9972 0.9690
6.1779 -3.8476 -2.9970 0.9690
6.4956 -3.2823 -2.9969 0.9690
7.1316 -1.4495 -2.9967 0.9690
7.2323 -0.8090 -2.9967 0.9690
7.2756 -0.1621 -2.9967 0.9690
7.2611 0.4861 -2.9967 0.9690
7.1891 1.1305 -2.9967 0.9690
6.6353 2.9898 -2.9968 0.9690
6.0004 4.1191 -2.9970 0.9690
7.9488 6.5699 -4.2465 0.9564
3.4548 5.9840 -2.8453 0.9706
2.9087 6.2680 -2.8454 0.9706
2.3394 6.5024 -2.8456 0.9705
1.7514 6.6852 -2.8457 0.9705
1.1495 6.8149 -2.8459 0.9705
0.5384 6.8905 -2.8460 0.9705
-3.5896 5.9093 -2.8471 0.9705
-4.5809 5.1798 -2.8474 0.9705
-5.0297 4.7571 -2.8507 0.9705
-5.7177 4.5153 -3.0001 0.9690
-6.0971 3.9886 -3.0002 0.9690
-6.7081 2.8445 -3.0003 0.9690
-7.2216 0.9713 -3.0005 0.9690
-7.2794 0.3246 -3.0005 0.9690
-7.1064 -1.6101 -3.0005 0.9690
-6.9348 -2.2362 -3.0004 0.9690
-6.7081 -2.8444 -3.0004 0.9690
-6.0972 -3.9886 -3.0002 0.9690
-5.7178 -4.5152 -3.0001 0.9690
-5.2930 -5.0061 -3.0000 0.9690
-4.8262 -5.4571 -2.9999 0.9690
-4.3212 -5.8647 -2.9997 0.9690
-3.7819 -6.2257 -2.9996 0.9690
-2.6178 -6.7970 -2.9993 0.9690
-1.3711 -7.1526 -2.9990 0.9690
-0.7289 -7.2459 -2.9988 0.9690
-0.0811 -7.2816 -2.9986 0.9690
1.8452 -7.0431 -2.9981 0.9690
3.0644 -6.6037 -2.9978 0.9690
4.6995 -5.5586 -2.9974 0.9690
5.1754 -5.1180 -2.9972 0.9690
5.6102 -4.6369 -2.9971 0.9690
6.0004 -4.1190 -2.9970 0.9690
6.3431 -3.5685 -2.9969 0.9690
6.8750 -2.3872 -2.9968 0.9690
7.0600 -1.7658 -2.9967 0.9690
7.1891 -1.1304 -2.9967 0.9690
7.2323 0.8091 -2.9967 0.9690
6.9744 2.0786 -2.9968 0.9690
6.7618 2.6912 -2.9968 0.9690
6.4956 3.2824 -2.9969 0.9690
7.6484 6.9175 -4.2466 0.9564
4.2213 5.4697 -2.8451 0.9706
3.7179 5.8240 -2.8452 0.9706
2.0474 6.6003 -2.8456 0.9705
0.2310 6.9079 -2.8461 0.9705
-1.6025 6.7246 -2.8466 0.9705
-3.3227 6.0633 -2.8470 0.9705
-3.8494 5.7437 -2.8472 0.9705
-4.8072 4.9706 -2.8474 0.9705
-5.4646 4.7255 -2.9749 0.9692
-5.9133 4.2562 -3.0001 0.9690
-6.2689 3.7131 -3.0002 0.9690
-6.5746 3.1405 -3.0003 0.9690
-6.8282 2.5429 -3.0004 0.9690
-7.1711 1.2920 -3.0005 0.9690
-6.9557 0.0000 -3.0004 0.9702
-6.9281 -0.6191 -3.0004 0.9702
-6.2761 -2.9978 -3.0002 0.9702
-5.2606 -4.5490 -3.0000 0.9702
-4.3704 -5.4093 -2.9997 0.9702
-3.3418 -6.0979 -2.9995 0.9702
-2.7856 -6.3708 -2.9993 0.9702
-1.6117 -6.7631 -2.9990 0.9702
-1.0033 -6.8793 -2.9989 0.9702
-0.3870 -6.9410 -2.9987 0.9702
0.8497 -6.8989 -2.9984 0.9702
3.7393 -5.8574 -2.9976 0.9702
5.5475 -4.1835 -2.9971 0.9702
5.8977 -3.6730 -2.9971 0.9702
6.2010 -3.1335 -2.9970 0.9702
6.4551 -2.5690 -2.9969 0.9702
6.6581 -1.9843 -2.9968 0.9702
6.9456 -0.1547 -2.9968 0.9702
6.9318 0.4641 -2.9968 0.9702
6.7398 1.6858 -2.9968 0.9702
6.5631 2.2790 -2.9969 0.9702
6.3343 2.8542 -2.9969 0.9702
6.0553 3.4067 -2.9970 0.9702
5.7282 3.9322 -2.9971 0.9702
7.0002 6.9226 -4.2467 0.9580
2.2332 6.2074 -2.8456 0.9717
1.6719 6.3818 -2.8457 0.9717
-0.0735 6.5979 -2.8462 0.9717
-0.6605 6.5655 -2.8463 0.9717
-2.3720 6.1587 -2.8468 0.9717
-2.9108 5.9234 -2.8469 0.9717
-3.4267 5.6411 -2.8471 0.9717
-4.3729 4.9446 -2.8473 0.9717
-5.8203 3.8075 -3.0001 0.9702
-6.1362 3.2745 -3.0002 0.9702
-6.7837 1.5371 -3.0004 0.9702
-6.8936 0.9272 -3.0004 0.9702
-6.7837 -1.5369 -3.0004 0.9702
-6.1363 -3.2744 -3.0002 0.9702
-5.8203 -3.8075 -3.0001 0.9702
-5.4582 -4.3102 -3.0000 0.9702
-4.6071 -5.2093 -2.9998 0.9702
-4.1250 -5.5985 -2.9997 0.9702
-2.4990 -6.4885 -2.9993 0.9702
-0.6959 -6.9170 -2.9988 0.9702
-0.0774 -6.9511 -2.9986 0.9702
1.1561 -6.8540 -2.9983 0.9702
2.3528 -6.5397 -2.9980 0.9702
2.9254 -6.3040 -2.9978 0.9702
3.9964 -5.6849 -2.9976 0.9702
5.3557 -4.4266 -2.9972 0.9702
6.0553 -3.4066 -2.9970 0.9702
6.7398 -1.6857 -2.9968 0.9702
6.8630 -1.0791 -2.9968 0.9702
6.9318 -0.4640 -2.9968 0.9702
6.9042 0.7724 -2.9968 0.9702
5.8976 3.6731 -2.9970 0.9702
5.5475 4.1836 -2.9971 0.9702
7.3015 6.6038 -4.2467 0.9580
3.5492 5.5598 -2.8452 0.9717
3.0404 5.8539 -2.8454 0.9717
2.5074 6.1016 -2.8455 0.9717
1.9545 6.3008 -2.8457 0.9717
1.3860 6.4501 -2.8458 0.9717
0.8065 6.5482 -2.8460 0.9717
-0.3674 6.5882 -2.8463 0.9717
-2.0952 6.2580 -2.8467 0.9717
-3.1719 5.7880 -2.8470 0.9717
-3.6746 5.4830 -2.8471 0.9717
-4.1482 5.1344 -2.8473 0.9717
-5.2606 4.5491 -3.0000 0.9702
-5.6448 4.0629 -3.0001 0.9702
-6.9281 0.6192 -3.0004 0.9702
-6.6494 0.0000 -3.0003 0.9712
-6.5440 -1.1789 -3.0003 0.9712
-6.4130 -1.7567 -3.0003 0.9712
-5.9997 -2.8658 -3.0002 0.9712
-5.0290 -4.3487 -2.9999 0.9712
-4.6218 -4.7789 -2.9998 0.9712
-4.1780 -5.1711 -2.9997 0.9712
-3.1946 -5.8294 -2.9994 0.9713
-2.6630 -6.0903 -2.9993 0.9713
-2.1102 -6.3029 -2.9992 0.9713
-0.9592 -6.5765 -2.9989 0.9713
-0.3700 -6.6354 -2.9987 0.9713
0.2221 -6.6417 -2.9985 0.9713
0.8123 -6.5953 -2.9984 0.9713
1.3960 -6.4965 -2.9982 0.9713
1.9686 -6.3461 -2.9981 0.9713
3.0623 -5.8960 -2.9978 0.9713
4.9266 -4.4558 -2.9973 0.9713
5.3034 -3.9995 -2.9972 0.9713
5.9282 -2.9956 -2.9970 0.9713
6.3652 -1.8970 -2.9969 0.9713
6.6400 -0.1479 -2.9968 0.9713
6.5611 1.0317 -2.9969 0.9713
6.4433 1.6116 -2.9969 0.9713
5.4762 3.7592 -2.9971 0.9713
5.1201 4.2319 -2.9972 0.9713
6.6922 6.6180 -4.2468 0.9595
3.1530 5.4612 -2.8453 0.9727
2.6545 5.7204 -2.8455 0.9727
2.1349 5.9342 -2.8456 0.9727
1.5984 6.1010 -2.8458 0.9727
-0.0703 6.3075 -2.8462 0.9727
-1.1876 6.1957 -2.8465 0.9727
-3.7429 5.0800 -2.8472 0.9727
-5.5640 3.6398 -3.0000 0.9712
-6.1215 2.5958 -3.0002 0.9712
-6.3284 2.0407 -3.0002 0.9712
-6.6428 0.2962 -3.0003 0.9712
-6.6428 -0.2962 -3.0003 0.9712
-6.4850 -1.4693 -3.0003 0.9712
-6.3284 -2.0406 -3.0003 0.9712
-6.1215 -2.5957 -3.0002 0.9712
-5.8661 -3.1302 -3.0001 0.9712
-5.5640 -3.6398 -3.0001 0.9712
-5.2178 -4.1204 -3.0000 0.9712
-3.9434 -5.3520 -2.9996 0.9712
-2.9317 -5.9658 -2.9994 0.9713
-2.3890 -6.2028 -2.9992 0.9713
-1.8273 -6.3905 -2.9991 0.9713
-1.2512 -6.5274 -2.9989 0.9713
0.5177 -6.6251 -2.9985 0.9713
1.1052 -6.5523 -2.9983 0.9713
1.6840 -6.4276 -2.9982 0.9713
2.2493 -6.2520 -2.9980 0.9713
3.8206 -5.4348 -2.9976 0.9713
4.2890 -5.0730 -2.9975 0.9713
4.7233 -4.6709 -2.9974 0.9713
5.1201 -4.2318 -2.9973 0.9713
6.0557 -2.7285 -2.9970 0.9713
6.2744 -2.1787 -2.9969 0.9713
6.5611 -1.0317 -2.9969 0.9713
6.6005 0.7384 -2.9969 0.9713
6.5087 1.3230 -2.9969 0.9713
6.3652 1.8970 -2.9969 0.9713
5.9282 2.9957 -2.9970 0.9713
5.3034 3.9995 -2.9972 0.9713
6.3909 6.9097 -4.2469 0.9595
3.3930 5.3151 -2.8453 0.9727
-0.3512 6.2982 -2.8463 0.9727
-2.0030 5.9826 -2.8467 0.9727
-3.0322 5.5332 -2.8470 0.9727
-5.3962 3.8840 -3.0000 0.9712
-5.7207 3.3884 -3.0001 0.9712
-6.2311 2.3205 -3.0002 0.9712
-6.6230 0.5919 -3.0003 0.9712
-6.3649 0.0000 -3.0003 0.9722
-6.3396 -0.5665 -3.0003 0.9722
-5.7430 -2.7432 -3.0001 0.9722
-5.1654 -3.7178 -3.0000 0.9722
-4.8138 -4.1627 -2.9999 0.9722
-4.4241 -4.5744 -2.9998 0.9723
-3.9992 -4.9499 -2.9996 0.9723
-3.5426 -5.2860 -2.9995 0.9723
-2.5491 -5.8298 -2.9993 0.9723
-2.0200 -6.0333 -2.9991 0.9723
-1.4749 -6.1888 -2.9990 0.9723
1.3363 -6.2186 -2.9983 0.9723
2.4175 -5.8826 -2.9980 0.9723
2.9314 -5.6438 -2.9978 0.9723
3.8853 -5.0343 -2.9976 0.9723
5.0767 -3.8285 -2.9973 0.9723
5.6748 -2.8676 -2.9971 0.9723
5.9074 -2.3511 -2.9970 0.9723
6.0931 -1.8159 -2.9970 0.9723
6.2305 -1.2664 -2.9970 0.9723
6.3184 -0.7068 -2.9969 0.9723
6.3562 -0.1416 -2.9969 0.9723
6.3436 0.4247 -2.9969 0.9723
5.7968 2.6120 -2.9971 0.9723
5.5415 3.1176 -2.9971 0.9723
4.9012 4.0510 -2.9973 0.9723
3.4713 4.9381 -2.8453 0.9737
2.5410 5.4758 -2.8455 0.9737
2.0437 5.6804 -2.8456 0.9737
1.5300 5.8401 -2.8458 0.9737
0.4704 6.0195 -2.8461 0.9737
-0.0673 6.0377 -2.8462 0.9737
-0.6044 6.0080 -2.8463 0.9737
-1.1368 5.9307 -2.8465 0.9736
-2.1705 5.6357 -2.8467 0.9736
-3.1357 5.1620 -2.8470 0.9736
-3.5828 4.8627 -2.8471 0.9736
-4.1764 4.7224 -2.9717 0.9725
-4.6235 4.3729 -2.9998 0.9723
-4.9945 3.9442 -2.9999 0.9722
-5.3259 3.4841 -3.0000 0.9722
-5.6150 2.9963 -3.0001 0.9722
-5.8596 2.4847 -3.0001 0.9722
-6.2075 1.4065 -3.0002 0.9722
-6.3081 -0.8483 -3.0002 0.9722
-5.8596 -2.4846 -3.0001 0.9722
-5.6151 -2.9962 -3.0001 0.9722
-4.9946 -3.9441 -2.9999 0.9722
-3.3036 -5.4384 -2.9995 0.9723
-2.8063 -5.7106 -2.9993 0.9723
-2.2868 -5.9375 -2.9992 0.9723
-1.7492 -6.1171 -2.9991 0.9723
-1.1977 -6.2483 -2.9989 0.9723
-0.0709 -6.3610 -2.9986 0.9723
0.4956 -6.3417 -2.9985 0.9723
1.0580 -6.2721 -2.9983 0.9723
1.6120 -6.1528 -2.9982 0.9723
2.1531 -5.9846 -2.9980 0.9723
3.1798 -5.5075 -2.9978 0.9723
4.1056 -4.8561 -2.9975 0.9723
4.5214 -4.4712 -2.9974 0.9723
5.7969 -2.6119 -2.9971 0.9723
6.0062 -2.0855 -2.9970 0.9723
6.1679 -1.5427 -2.9970 0.9723
6.3436 -0.4246 -2.9969 0.9723
6.2305 1.2664 -2.9970 0.9723
6.0931 1.8160 -2.9970 0.9723
5.6748 2.8676 -2.9971 0.9723
5.3972 3.3614 -2.9972 0.9723
5.0767 3.8286 -2.9972 0.9723
6.6818 6.0434 -4.2468 0.9609
6.1176 6.6143 -4.2470 0.9609
5.5049 7.1329 -4.2471 0.9609
2.2946 5.5836 -2.8456 0.9737
1.7886 5.7660 -2.8457 0.9737
1.2684 5.9026 -2.8458 0.9737
0.7380 5.9923 -2.8460 0.9737
-0.8715 5.9753 -2.8464 0.9737
-1.3999 5.8743 -2.8465 0.9736
-1.9173 5.7267 -2.8467 0.9736
-3.8295 4.7398 -2.8723 0.9734
-4.4240 4.5745 -2.9997 0.9723
-4.8138 4.1627 -2.9998 0.9722
-5.7430 2.7432 -3.0001 0.9722
-6.1386 1.6816 -3.0002 0.9722
-6.2640 1.1286 -3.0002 0.9722
-6.0755 -0.5429 -3.0002 0.9732
-6.0031 -1.0815 -3.0002 0.9732
-5.8829 -1.6115 -3.0001 0.9732
-5.5038 -2.6289 -3.0000 0.9732
-5.2479 -3.1083 -3.0000 0.9732
-4.9502 -3.5629 -2.9999 0.9732
-4.6133 -3.9893 -2.9998 0.9732
-4.2398 -4.3839 -2.9997 0.9732
-3.3951 -5.0658 -2.9995 0.9732
-2.9306 -5.3477 -2.9994 0.9732
-2.4429 -5.5870 -2.9992 0.9732
-1.4135 -5.9311 -2.9990 0.9732
0.7452 -6.0504 -2.9984 0.9732
2.3169 -5.6377 -2.9980 0.9732
2.8093 -5.4089 -2.9979 0.9732
3.7236 -4.8247 -2.9976 0.9732
4.1381 -4.4740 -2.9975 0.9732
4.5197 -4.0878 -2.9974 0.9732
4.8655 -3.6692 -2.9973 0.9732
5.4387 -2.7482 -2.9972 0.9732
5.8396 -1.7403 -2.9971 0.9732
6.0796 0.4070 -2.9970 0.9732
6.0193 0.9465 -2.9970 0.9732
5.9112 1.4786 -2.9970 0.9732
5.5556 2.5033 -2.9971 0.9732
5.3109 2.9879 -2.9972 0.9732
5.0240 3.4488 -2.9973 0.9732
4.6972 3.8824 -2.9973 0.9732
6.1395 6.0715 -4.2470 0.9622
4.9661 7.0643 -4.2473 0.9622
2.4352 5.2479 -2.8455 0.9745
1.9586 5.4440 -2.8457 0.9745
1.4663 5.5970 -2.8458 0.9745
-0.0645 5.7863 -2.8462 0.9745
-0.5792 5.7579 -2.8463 0.9745
-2.5527 5.1947 -2.8468 0.9745
-4.0402 4.5684 -2.9996 0.9732
-4.7865 3.7799 -2.9998 0.9732
-5.1041 3.3390 -2.9999 0.9732
-5.3811 2.8715 -3.0000 0.9732
-5.6155 2.3812 -3.0001 0.9732
-6.0937 0.2717 -3.0002 0.9732
-6.0453 -0.8130 -3.0002 0.9732
-5.6155 -2.3811 -3.0001 0.9732
-5.3812 -2.8714 -3.0000 0.9732
-5.1041 -3.3389 -2.9999 0.9732
-4.4310 -4.1907 -2.9998 0.9732
-3.6175 -4.9096 -2.9995 0.9732
-2.6894 -5.4728 -2.9993 0.9732
-1.1478 -5.9881 -2.9989 0.9732
0.4749 -6.0777 -2.9985 0.9732
2.5657 -5.5288 -2.9979 0.9732
3.5050 -4.9859 -2.9977 0.9732
4.3332 -4.2851 -2.9975 0.9732
4.6972 -3.8823 -2.9974 0.9732
5.0240 -3.4488 -2.9973 0.9732
5.3109 -2.9878 -2.9972 0.9732
5.5556 -2.5032 -2.9971 0.9732
5.7563 -1.9987 -2.9971 0.9732
6.0193 -0.9464 -2.9970 0.9732
6.0796 -0.4069 -2.9970 0.9732
6.0555 0.6774 -2.9970 0.9732
5.9712 1.2138 -2.9970 0.9732
5.8395 1.7404 -2.9971 0.9732
5.6616 2.2533 -2.9971 0.9732
5.1726 3.2215 -2.9972 0.9732
5.8630 6.3390 -4.2470 0.9622
2.6665 5.1341 -2.8455 0.9745
0.7073 5.7429 -2.8460 0.9745
0.1934 5.7833 -2.8461 0.9745
-0.3222 5.7779 -2.8463 0.9745
-1.3416 5.6297 -2.8465 0.9745
-1.8375 5.4882 -2.8467 0.9745
-2.3187 5.3031 -2.8468 0.9745
-2.7817 5.0759 -2.8469 0.9745
-3.2225 4.8084 -2.8470 0.9745
-4.9502 3.5630 -2.9999 0.9732
-5.5038 2.6290 -3.0000 0.9732
-5.8829 1.6115 -3.0001 0.9732
-6.0030 1.0816 -3.0002 0.9732
-5.8287 -0.5208 -3.0001 0.9740
-5.6439 -1.5460 -3.0001 0.9740
-5.2802 -2.5221 -3.0000 0.9740
-5.0347 -2.9820 -2.9999 0.9740
-4.4260 -3.8272 -2.9998 0.9740
-4.0676 -4.2058 -2.9997 0.9740
-3.6770 -4.5510 -2.9996 0.9740
-2.8116 -5.1305 -2.9993 0.9740
-2.3437 -5.3602 -2.9992 0.9740
-1.8572 -5.5473 -2.9991 0.9740
-1.3561 -5.6903 -2.9990 0.9740
-0.8442 -5.7881 -2.9988 0.9740
-0.3256 -5.8400 -2.9987 0.9741
0.1954 -5.8456 -2.9986 0.9741
0.7149 -5.8047 -2.9984 0.9741
1.2287 -5.7178 -2.9983 0.9741
2.2228 -5.4089 -2.9980 0.9741
2.6953 -5.1894 -2.9979 0.9741
3.1464 -4.9287 -2.9978 0.9741
3.5724 -4.6289 -2.9977 0.9741
3.9701 -4.2924 -2.9976 0.9741
4.9627 -3.0907 -2.9973 0.9741
5.2179 -2.6367 -2.9972 0.9741
5.6026 -1.6697 -2.9971 0.9741
5.7289 -1.1644 -2.9971 0.9741
5.8098 -0.6499 -2.9971 0.9741
5.8445 -0.1302 -2.9971 0.9741
5.6714 1.4186 -2.9971 0.9741
5.5227 1.9177 -2.9971 0.9741
5.0953 2.8666 -2.9972 0.9741
4.8201 3.3088 -2.9973 0.9741
4.5066 3.7248 -2.9974 0.9741
4.1573 4.1113 -2.9975 0.9741
5.3487 6.3264 -4.2472 0.9634
0.9233 5.4739 -2.8459 0.9754
0.4325 5.5346 -2.8461 0.9754
-0.5557 5.5241 -2.8463 0.9754
-1.0452 5.4530 -2.8464 0.9754
-2.4491 4.9837 -2.8468 0.9753
-4.2510 4.0206 -2.9997 0.9740
-4.8968 3.2034 -2.9999 0.9740
-5.1626 2.7549 -2.9999 0.9740
-5.3874 2.2845 -3.0000 0.9740
-5.7997 0.7800 -3.0001 0.9740
-5.7997 -0.7799 -3.0001 0.9740
-5.3874 -2.2844 -3.0000 0.9740
-5.1626 -2.7548 -2.9999 0.9740
-3.4706 -4.7102 -2.9995 0.9740
-2.5802 -5.2505 -2.9993 0.9740
-1.1012 -5.7449 -2.9989 0.9740
-0.5855 -5.8199 -2.9988 0.9741
-0.0652 -5.8486 -2.9986 0.9741
0.9728 -5.7670 -2.9983 0.9741
1.4821 -5.6573 -2.9982 0.9741
1.9797 -5.5027 -2.9981 0.9741
2.9237 -5.0640 -2.9978 0.9741
3.3627 -4.7835 -2.9977 0.9741
3.7750 -4.4651 -2.9976 0.9741
4.1573 -4.1112 -2.9975 0.9741
4.5066 -3.7248 -2.9974 0.9741
4.8201 -3.3088 -2.9973 0.9741
5.0954 -2.8665 -2.9973 0.9741
5.3302 -2.4016 -2.9972 0.9741
5.5227 -1.9176 -2.9971 0.9741
5.6714 -1.4185 -2.9971 0.9741
5.7751 -0.9080 -2.9971 0.9741
5.8098 0.6499 -2.9971 0.9741
5.7289 1.1645 -2.9971 0.9741
5.6026 1.6698 -2.9971 0.9741
5.2179 2.6368 -2.9972 0.9741
4.9626 3.0908 -2.9973 0.9741
4.6680 3.5203 -2.9974 0.9741
5.6251 6.0817 -4.2471 0.9634
5.0616 6.5585 -4.2472 0.9634
2.5583 4.9256 -2.8455 0.9754
1.6446 5.3017 -2.8457 0.9754
0.6786 5.5097 -2.8460 0.9754
-0.3091 5.5433 -2.8463 0.9754
-0.8013 5.4940 -2.8464 0.9754
-1.2872 5.4011 -2.8465 0.9754
-1.7628 5.2654 -2.8466 0.9753
-2.2246 5.0878 -2.8468 0.9753
-2.6687 4.8698 -2.8469 0.9753
-3.6770 4.5511 -2.9995 0.9740
-4.4259 3.8273 -2.9997 0.9740
-5.2802 2.5222 -3.0000 0.9740
-5.7592 1.0376 -3.0001 0.9740
-5.8287 0.5209 -3.0001 0.9740
-5.6197 0.0000 -3.0001 0.9748
-5.5974 -0.5001 -3.0001 0.9748
-5.4200 -1.4846 -3.0000 0.9748
-5.2663 -1.9612 -3.0000 0.9748
-5.0707 -2.4220 -2.9999 0.9748
-4.5607 -3.2826 -2.9998 0.9748
-3.9062 -4.0390 -2.9996 0.9748
-3.1280 -4.6673 -2.9994 0.9748
-0.8107 -5.5586 -2.9988 0.9749
0.1877 -5.6137 -2.9986 0.9749
0.6866 -5.5745 -2.9984 0.9749
1.1800 -5.4910 -2.9983 0.9749
1.6639 -5.3640 -2.9982 0.9749
3.0216 -4.7332 -2.9978 0.9749
3.8127 -4.1222 -2.9976 0.9749
4.1643 -3.7664 -2.9975 0.9749
4.4829 -3.3807 -2.9974 0.9749
5.3805 -1.6035 -2.9972 0.9749
5.5794 -0.6241 -2.9971 0.9749
5.6128 -0.1251 -2.9971 0.9749
5.6017 0.3750 -2.9971 0.9749
4.6290 3.1777 -2.9974 0.9749
4.5756 6.5088 -4.2474 0.9646
3.9782 6.8905 -4.2475 0.9646
1.3510 5.1568 -2.8458 0.9761
0.4153 5.3151 -2.8461 0.9761
-0.5337 5.3050 -2.8463 0.9761
-1.0038 5.2367 -2.8464 0.9761
-1.4660 5.1268 -2.8466 0.9761
-1.9165 4.9762 -2.8467 0.9761
-2.8688 4.7228 -2.9499 0.9753
-3.3328 4.5234 -2.9995 0.9748
-4.0823 3.8611 -2.9996 0.9748
-5.4808 1.2418 -3.0000 0.9748
-5.6142 0.2504 -3.0001 0.9748
-5.6142 -0.2503 -3.0001 0.9748
-5.4808 -1.2417 -3.0000 0.9748
-5.3484 -1.7246 -3.0000 0.9748
-5.1736 -2.1938 -2.9999 0.9748
-4.9577 -2.6455 -2.9999 0.9748
-4.0823 -3.8610 -2.9997 0.9748
-3.3329 -4.5234 -2.9995 0.9748
-2.9169 -4.8019 -2.9994 0.9748
-2.0192 -5.2426 -2.9991 0.9748
-0.5623 -5.5890 -2.9987 0.9749
-0.0626 -5.6167 -2.9986 0.9749
1.4234 -5.4329 -2.9982 0.9749
1.9011 -5.2845 -2.9981 0.9749
3.2294 -4.5938 -2.9978 0.9749
3.9925 -3.9482 -2.9976 0.9749
4.3279 -3.5771 -2.9975 0.9749
4.8933 -2.7529 -2.9973 0.9749
5.1189 -2.3064 -2.9973 0.9749
5.3037 -1.8416 -2.9972 0.9749
5.6017 -0.3750 -2.9971 0.9749
5.5018 1.1183 -2.9971 0.9749
5.3805 1.6036 -2.9972 0.9749
5.2165 2.0761 -2.9972 0.9749
4.4829 3.3808 -2.9974 0.9749
4.1643 3.7664 -2.9975 0.9749
3.8127 4.1223 -2.9976 0.9749
1.5794 5.0914 -2.8458 0.9761
0.1782 5.3285 -2.8461 0.9761
-0.2968 5.3234 -2.8463 0.9761
-1.2361 5.1869 -2.8465 0.9761
-2.1363 4.8859 -2.8467 0.9761
-2.5946 4.7345 -2.8821 0.9758
-3.5311 4.3705 -2.9995 0.9748
-4.2503 3.6755 -2.9997 0.9748
-4.5607 3.2827 -2.9998 0.9748
-5.0707 2.4221 -2.9999 0.9748
-5.2662 1.9612 -3.0000 0.9748
-5.5307 0.9964 -3.0000 0.9748
-5.4016 0.0001 -3.0000 0.9756
-5.3801 -0.4807 -3.0000 0.9756
-5.3159 -0.9577 -3.0000 0.9756
-4.8739 -2.3280 -2.9999 0.9756
-4.6472 -2.7525 -2.9998 0.9756
-4.3837 -3.1551 -2.9997 0.9756
-3.7546 -3.8822 -2.9996 0.9756
-3.3940 -4.2008 -2.9995 0.9756
-3.0066 -4.4861 -2.9994 0.9756
-2.5953 -4.7357 -2.9993 0.9756
-2.1634 -4.9477 -2.9992 0.9756
-1.7143 -5.1204 -2.9990 0.9756
-0.3006 -5.3908 -2.9987 0.9756
0.6599 -5.3582 -2.9984 0.9756
1.1341 -5.2780 -2.9983 0.9756
1.5994 -5.1558 -2.9982 0.9756
2.9044 -4.5496 -2.9978 0.9756
3.2977 -4.2729 -2.9977 0.9756
4.3090 -3.2496 -2.9975 0.9756
4.8167 -2.4339 -2.9973 0.9756
5.1718 -1.5413 -2.9972 0.9756
5.3630 -0.5999 -2.9972 0.9756
5.3951 -0.1202 -2.9972 0.9756
5.3844 0.3605 -2.9972 0.9756
5.3310 0.8383 -2.9972 0.9756
5.0980 1.7703 -2.9972 0.9756
4.7035 2.6462 -2.9973 0.9756
4.4494 3.0544 -2.9974 0.9756
3.4847 4.1217 -2.9977 0.9756
1.7345 4.8213 -2.8457 0.9768
1.2986 4.9567 -2.8458 0.9768
0.8523 5.0529 -2.8460 0.9768
0.3992 5.1089 -2.8461 0.9768
-0.0571 5.1244 -2.8462 0.9768
-1.8420 4.7830 -2.8467 0.9768
-2.8037 4.6155 -2.9993 0.9756
-4.2387 3.3473 -2.9997 0.9756
-4.5199 2.9568 -2.9998 0.9756
-4.7652 2.5429 -2.9998 0.9756
-4.9728 2.1087 -2.9999 0.9756
-5.2680 1.1936 -3.0000 0.9756
-5.3533 0.7200 -3.0000 0.9756
-5.3962 0.2406 -3.0000 0.9756
-5.3962 -0.2406 -3.0000 0.9756
-5.3533 -0.7199 -3.0000 0.9756
-5.2680 -1.1935 -3.0000 0.9756
-5.1408 -1.6577 -2.9999 0.9756
-4.2387 -3.3473 -2.9997 0.9756
-3.5779 -4.0455 -2.9995 0.9756
-3.2035 -4.3478 -2.9994 0.9756
-2.8037 -4.6155 -2.9993 0.9756
-1.4845 -5.1916 -2.9990 0.9756
-1.0165 -5.3029 -2.9989 0.9756
-0.5404 -5.3721 -2.9987 0.9756
0.4206 -5.3824 -2.9985 0.9756
1.8274 -5.0794 -2.9981 0.9756
2.2722 -4.8964 -2.9980 0.9756
2.6989 -4.6746 -2.9979 0.9756
3.1041 -4.4156 -2.9978 0.9756
3.4847 -4.1217 -2.9977 0.9756
4.1600 -3.4383 -2.9975 0.9756
4.4494 -3.0543 -2.9974 0.9756
4.9203 -2.2169 -2.9973 0.9756
5.2353 -1.3094 -2.9972 0.9756
5.3310 -0.8382 -2.9972 0.9756
5.3951 0.1203 -2.9972 0.9756
5.2884 1.0749 -2.9972 0.9756
5.0141 1.9956 -2.9973 0.9756
4.8167 2.4340 -2.9973 0.9756
4.3090 3.2496 -2.9975 0.9756
4.0028 3.6203 -2.9975 0.9756
3.6648 3.9623 -2.9976 0.9756
4.6724 6.0541 -4.2473 0.9656
4.1151 6.4461 -4.2475 0.9656
1.5181 4.8939 -2.8458 0.9768
1.0765 5.0098 -2.8459 0.9768
0.6264 5.0859 -2.8460 0.9768
0.1712 5.1217 -2.8461 0.9768
-0.7396 5.0713 -2.8464 0.9768
-1.1881 4.9856 -2.8465 0.9768
-1.6272 4.8603 -2.8466 0.9768
-2.0704 4.7352 -2.8703 0.9766
-3.0066 4.4861 -2.9994 0.9756
-3.3940 4.2009 -2.9995 0.9756
-4.3837 3.1552 -2.9997 0.9756
-4.6472 2.7526 -2.9998 0.9756
-4.8738 2.3281 -2.9999 0.9756
-5.0618 1.8851 -2.9999 0.9756
-5.2095 1.4271 -2.9999 0.9756
-5.3801 0.4808 -3.0000 0.9756
-5.1961 0.0000 -2.9999 0.9763
-5.1754 -0.4624 -2.9999 0.9763
-5.1137 -0.9212 -2.9999 0.9763
-5.0114 -1.3727 -2.9999 0.9763
-4.8692 -1.8133 -2.9999 0.9763
-4.4704 -2.6478 -2.9998 0.9763
-3.9299 -3.3983 -2.9996 0.9763
-2.0811 -4.7595 -2.9991 0.9763
-1.6491 -4.9257 -2.9990 0.9763
-1.2041 -5.0528 -2.9989 0.9763
-0.2892 -5.1858 -2.9987 0.9763
0.1735 -5.1907 -2.9986 0.9763
0.6348 -5.1545 -2.9984 0.9763
3.8506 -3.4827 -2.9976 0.9763
4.1452 -3.1260 -2.9975 0.9763
4.4069 -2.7446 -2.9974 0.9763
4.8235 -1.9197 -2.9973 0.9763
5.0874 -1.0340 -2.9973 0.9763
5.1592 -0.5771 -2.9972 0.9763
5.1901 -0.1156 -2.9972 0.9763
