ply
format ascii 1.0
element vertex 1585
property float32 x
property float32 y
property float32 z
property float32 I
end_header
1.4221 -5.4280 -0.3268 0.9778
1.8523 -5.1486 -0.3187 0.9783
2.3166 -4.9922 -0.3205 0.9782
3.6868 -5.2445 -0.3734 0.9746
2.0850 -5.0736 -0.4111 0.9782
2.5877 -4.9823 -0.4207 0.9777
3.2375 -5.0715 -0.4509 0.9762
1.0064 -5.9663 -0.4534 0.9760
2.3230 -5.0059 -0.4136 0.9781
3.7261 -5.3004 -0.4855 0.9743
0.8193 -6.6525 -0.6145 0.9734
1.2242 -5.6971 -0.5342 0.9769
1.0151 -6.0178 -0.5595 0.9758
2.3358 -5.0335 -0.5087 0.9780
3.7864 -5.3863 -0.6036 0.9739
0.8415 -6.8325 -0.7467 0.9727
1.2325 -5.7356 -0.6363 0.9767
1.6552 -5.3358 -0.6060 0.9778
2.1069 -5.1269 -0.6012 0.9779
2.6170 -5.0386 -0.6158 0.9774
-11.2158 7.3371 -1.4537 0.9475
1.0240 -6.0704 -0.6677 0.9755
1.4430 -5.5080 -0.6176 0.9774
1.8766 -5.2162 -0.6013 0.9779
3.8685 -5.5031 -0.7296 0.9733
2.1181 -5.1542 -0.6983 0.9778
2.6319 -5.0674 -0.7156 0.9772
3.3199 -5.2005 -0.7732 0.9754
-11.2146 7.3363 -1.6794 0.9474
1.0340 -6.1302 -0.7791 0.9752
1.4515 -5.5402 -0.7177 0.9772
2.3620 -5.0899 -0.7032 0.9776
2.9409 -5.0937 -0.7371 0.9766
1.6761 -5.4032 -0.8047 0.9774
2.1326 -5.1895 -0.7980 0.9776
2.6537 -5.1093 -0.8189 0.9770
3.3729 -5.2835 -0.8916 0.9750
-11.2133 7.3354 -1.9059 0.9473
2.3797 -5.1281 -0.8041 0.9774
2.9726 -5.1487 -0.8456 0.9763
1.2713 -5.9162 -0.9636 0.9758
2.1538 -5.2410 -0.9023 0.9773
2.6822 -5.1641 -0.9266 0.9767
3.4484 -5.4018 -1.0205 0.9744
-11.1763 7.3112 -2.1267 0.9473
2.4047 -5.1821 -0.9097 0.9771
3.0096 -5.2127 -0.9585 0.9759
1.7123 -5.5201 -1.0191 0.9768
2.1755 -5.2938 -1.0092 0.9770
2.7143 -5.2260 -1.0384 0.9764
-11.0969 7.2593 -2.3382 0.9476
1.1139 -6.6039 -1.1809 0.9732
1.4965 -5.7120 -1.0412 0.9763
1.9381 -5.3871 -1.0095 0.9770
2.4305 -5.2375 -1.0181 0.9768
3.0530 -5.2880 -1.0767 0.9755
1.7337 -5.5888 -1.1324 0.9764
2.1990 -5.3510 -1.1195 0.9767
13.4079 6.0413 -2.8459 0.9418
12.2970 6.9182 -2.7304 0.9441
10.4568 10.3410 -2.8460 0.9418
9.4950 11.2308 -2.8460 0.9418
6.1907 13.3407 -2.8461 0.9418
4.9788 13.8389 -2.8461 0.9418
2.4463 14.5027 -2.8462 0.9418
1.1458 14.6630 -2.8462 0.9418
-1.4722 14.6341 -2.8463 0.9418
-2.7689 14.4452 -2.8463 0.9418
-6.4871 13.2008 -2.8464 0.9418
-7.6363 12.5712 -2.8464 0.9418
-8.7250 11.8417 -2.8464 0.9418
-9.7444 11.0182 -2.8465 0.9418
-10.6865 10.1073 -2.8465 0.9418
-11.5438 9.1161 -2.8465 0.9418
-12.9773 6.9249 -2.8465 0.9418
-13.5422 5.7425 -2.8465 0.9418
1.5200 -5.8018 -1.1606 0.9759
1.9592 -5.4457 -1.1200 0.9767
13.1255 6.6326 -2.8459 0.9418
11.8569 7.3846 -2.7031 0.9447
11.7417 8.8549 -2.8459 0.9418
9.9858 10.7966 -2.8460 0.9418
6.7788 13.0516 -2.8461 0.9418
4.3574 14.0470 -2.8461 0.9418
3.0899 14.3792 -2.8462 0.9418
0.4915 14.6996 -2.8462 0.9418
-4.6696 13.9475 -2.8463 0.9418
-5.8926 13.4767 -2.8464 0.9418
-7.0687 12.8988 -2.8464 0.9418
-8.1888 12.2186 -2.8464 0.9418
-9.2439 11.4413 -2.8464 0.9418
-10.2256 10.5733 -2.8465 0.9418
-11.1262 9.6212 -2.8465 0.9418
-11.9384 8.5928 -2.8465 0.9418
-12.6559 7.4962 -2.8465 0.9418
-13.2730 6.3400 -2.8465 0.9418
-13.7846 5.1335 -2.8465 0.9418
-12.2391 -7.2492 -2.9989 0.9435
-10.7597 -9.3043 -2.9988 0.9435
-9.8888 -10.2250 -2.9988 0.9435
-6.8359 -12.4739 -2.9987 0.9435
-5.6985 -13.0327 -2.9987 0.9435
-3.2974 -13.8363 -2.9987 0.9435
-0.7919 -14.2014 -2.9986 0.9435
0.4753 -14.2154 -2.9986 0.9435
1.7386 -14.1165 -2.9985 0.9435
1.3613 -6.3351 -1.3660 0.9739
1.7661 -5.6935 -1.2567 0.9759
2.2368 -5.4429 -1.2406 0.9762
2.8152 -5.4203 -1.2876 0.9753
8.6895 -11.2593 -2.9984 0.9435
9.6571 -10.4411 -2.9984 0.9435
10.5480 -9.5401 -2.9983 0.9435
12.0722 -7.5186 -2.9983 0.9435
12.6935 -6.4143 -2.9983 0.9435
13.6295 -4.0620 -2.9983 0.9435
14.1338 -1.5811 -2.9983 0.9435
14.2184 -0.3168 -2.9983 0.9435
13.7970 3.4509 -2.9983 0.9435
12.3076 5.5456 -2.8459 0.9463
11.7653 6.6191 -2.8459 0.9463
11.1295 7.6400 -2.8460 0.9463
8.7158 10.3091 -2.8460 0.9463
7.7637 11.0441 -2.8460 0.9463
5.6827 12.2459 -2.8461 0.9463
4.5702 12.7032 -2.8461 0.9463
3.4215 13.0596 -2.8461 0.9463
1.0518 13.4596 -2.8462 0.9463
-2.5417 13.2597 -2.8463 0.9463
-4.8525 12.5992 -2.8463 0.9463
-5.9547 12.1174 -2.8464 0.9463
-8.9446 10.1139 -2.8464 0.9463
-11.0388 7.2213 -2.7809 0.9475
-12.4307 5.2711 -2.8465 0.9463
-14.2110 -0.6336 -2.9989 0.9435
-13.5386 -4.3656 -2.9989 0.9435
-13.0963 -5.5532 -2.9989 0.9435
-12.5499 -6.6968 -2.9989 0.9435
-11.9040 -7.7872 -2.9989 0.9435
-11.1636 -8.8158 -2.9989 0.9435
-10.3345 -9.7743 -2.9988 0.9435
-8.4377 -11.4516 -2.9988 0.9435
-6.2734 -12.7660 -2.9987 0.9435
-5.1122 -13.2736 -2.9987 0.9435
1.1080 -14.1801 -2.9986 0.9435
1.5537 -5.9303 -1.2924 0.9753
8.1793 -11.6352 -2.9984 0.9435
10.1126 -10.0005 -2.9983 0.9435
10.9625 -9.0607 -2.9983 0.9435
12.9666 -5.8424 -2.9983 0.9435
13.4351 -4.6651 -2.9983 0.9435
13.7969 -3.4508 -2.9983 0.9435
14.1902 -0.9499 -2.9983 0.9435
14.2184 0.3169 -2.9983 0.9435
13.9370 2.8329 -2.9983 0.9435
12.5424 4.9918 -2.8459 0.9463
12.0484 6.0884 -2.8459 0.9463
11.4588 7.1366 -2.8459 0.9463
9.1664 9.9106 -2.8460 0.9463
8.2480 10.6872 -2.8460 0.9463
7.2641 11.3790 -2.8461 0.9463
6.2225 11.9805 -2.8461 0.9463
5.1315 12.4869 -2.8461 0.9463
3.9998 12.8942 -2.8461 0.9463
2.8363 13.1991 -2.8462 0.9463
-0.7516 13.4799 -2.8462 0.9463
-1.9484 13.3597 -2.8463 0.9463
-6.4886 11.8402 -2.8464 0.9463
-7.5167 11.2158 -2.8464 0.9463
-11.6172 6.8809 -2.8465 0.9463
-12.1835 5.8196 -2.8465 0.9463
-14.1687 1.2662 -2.9989 0.9435
-13.0870 -1.1694 -2.9989 0.9475
-12.9309 -2.3296 -2.9989 0.9475
-12.6722 -3.4713 -2.9989 0.9475
-12.3129 -4.5854 -2.9989 0.9475
-11.8559 -5.6630 -2.9989 0.9475
-10.6638 -7.6754 -2.9988 0.9475
-9.9383 -8.5939 -2.9988 0.9475
-9.1339 -9.4443 -2.9988 0.9475
-7.3145 -10.9140 -2.9988 0.9475
-5.2634 -12.0378 -2.9987 0.9475
-4.1711 -12.4584 -2.9987 0.9475
-3.0457 -12.7800 -2.9987 0.9475
-1.8961 -13.0003 -2.9986 0.9475
-0.7314 -13.1173 -2.9986 0.9475
1.6059 -13.0389 -2.9985 0.9475
2.7600 -12.8441 -2.9985 0.9475
1.8001 -5.8029 -1.3867 0.9754
7.0688 -11.0730 -2.9984 0.9475
8.9199 -9.6441 -2.9984 0.9475
11.1507 -6.9447 -2.9983 0.9475
12.2053 -4.8575 -2.9983 0.9475
12.5892 -3.7520 -2.9983 0.9475
10.8672 6.1138 -2.8460 0.9501
9.6111 7.9438 -2.8460 0.9501
8.0505 9.5222 -2.8460 0.9501
7.1711 10.2010 -2.8461 0.9501
6.2347 10.7989 -2.8461 0.9501
5.2489 11.3111 -2.8461 0.9501
4.2213 11.7335 -2.8461 0.9501
0.9715 12.4321 -2.8462 0.9501
-1.2482 12.4077 -2.8463 0.9501
-2.3476 12.2474 -2.8463 0.9501
-5.5001 11.1923 -2.8464 0.9501
-7.3975 10.0400 -2.8464 0.9501
-9.0605 8.5694 -2.8464 0.9501
-11.0027 5.8713 -2.8465 0.9501
-11.4817 4.8687 -2.8465 0.9501
-13.0219 1.7513 -2.9989 0.9475
-12.5050 -4.0323 -2.9989 0.9475
-11.5918 -6.1855 -2.9989 0.9475
-10.9952 -7.1927 -2.9989 0.9475
-8.7041 -9.8418 -2.9988 0.9475
-4.7220 -12.2603 -2.9987 0.9475
-3.6120 -12.6318 -2.9987 0.9475
-2.4733 -12.9030 -2.9986 0.9475
-0.1464 -13.1369 -2.9986 0.9475
1.0235 -13.0976 -2.9986 0.9475
2.1851 -12.9544 -2.9985 0.9475
1.5926 -6.0787 -1.4343 0.9745
2.5521 -5.4996 -1.3838 0.9754
3.5012 -6.0643 -1.5983 0.9717
7.5550 -10.7471 -2.9984 0.9475
9.3407 -9.2371 -2.9984 0.9475
11.4490 -6.4411 -2.9983 0.9475
11.9768 -5.3964 -2.9983 0.9475
12.7438 -3.1874 -2.9983 0.9475
13.1331 0.2927 -2.9983 0.9475
13.0550 1.4604 -2.9983 0.9475
12.8732 2.6166 -2.9983 0.9475
12.5892 3.7521 -2.9983 0.9475
11.1288 5.6237 -2.8459 0.9501
9.9554 7.5078 -2.8460 0.9501
8.4667 9.1541 -2.8460 0.9501
6.7096 10.5104 -2.8461 0.9501
5.7475 11.0660 -2.8461 0.9501
2.6198 12.1916 -2.8462 0.9501
1.5243 12.3765 -2.8462 0.9501
0.4167 12.4632 -2.8462 0.9501
-0.6942 12.4509 -2.8462 0.9501
-1.7997 12.3398 -2.8463 0.9501
-3.9592 11.8254 -2.8463 0.9501
-4.9960 11.4262 -2.8463 0.9501
-5.9932 10.9363 -2.8464 0.9501
-7.8374 9.7005 -2.8464 0.9501
-9.4333 8.1573 -2.8464 0.9501
-10.1219 7.2854 -2.8465 0.9501
-12.9310 2.3297 -2.9989 0.9475
-13.0870 1.1695 -2.9989 0.9475
-12.2006 0.0001 -2.9989 0.9510
-11.7670 -3.2233 -2.9989 0.9510
-11.4334 -4.2578 -2.9989 0.9510
-11.0090 -5.2585 -2.9989 0.9510
-9.9021 -7.1271 -2.9988 0.9510
-9.2284 -7.9801 -2.9988 0.9510
-8.4815 -8.7697 -2.9988 0.9510
-6.7921 -10.1344 -2.9988 0.9510
-2.8281 -11.8672 -2.9987 0.9510
-1.7606 -12.0717 -2.9986 0.9510
2.5629 -11.9268 -2.9985 0.9510
2.3357 -5.6835 -1.5104 0.9750
6.5639 -10.2821 -2.9984 0.9510
7.4530 -9.6571 -2.9984 0.9510
8.2829 -8.9553 -2.9984 0.9510
9.0470 -8.1825 -2.9984 0.9510
10.3544 -6.4487 -2.9983 0.9510
10.8872 -5.5015 -2.9983 0.9510
11.9538 -2.4297 -2.9983 0.9510
12.1226 -1.3561 -2.9983 0.9510
12.1952 -0.2717 -2.9983 0.9510
12.1710 0.8148 -2.9983 0.9510
12.0502 1.8948 -2.9983 0.9510
11.8337 2.9598 -2.9983 0.9510
11.5233 4.0014 -2.9983 0.9510
10.0911 5.6772 -2.8460 0.9534
9.5458 6.5529 -2.8460 0.9534
8.2328 8.1416 -2.8460 0.9534
7.4755 8.8421 -2.8460 0.9534
0.9021 11.5442 -2.8462 0.9534
-0.1290 11.5787 -2.8462 0.9534
-2.1799 11.3726 -2.8463 0.9534
-3.1835 11.1336 -2.8463 0.9534
-4.1619 10.8061 -2.8463 0.9534
-6.0120 9.8971 -2.8464 0.9534
-6.8691 9.3228 -2.8464 0.9534
-8.4133 7.9573 -2.8464 0.9534
-9.0882 7.1769 -2.8464 0.9534
-9.6910 6.3396 -2.8464 0.9534
-11.6118 3.7443 -2.9989 0.9510
-12.0917 1.6262 -2.9989 0.9510
-12.1885 -0.5435 -2.9989 0.9510
-12.0917 -1.6261 -2.9989 0.9510
-9.5748 -7.5611 -2.9988 0.9510
-8.8637 -8.3832 -2.9988 0.9510
-5.3806 -10.9492 -2.9987 0.9510
-4.3847 -11.3845 -2.9987 0.9510
-2.2966 -11.9814 -2.9986 0.9510
-0.1359 -12.1985 -2.9986 0.9510
0.9504 -12.1621 -2.9986 0.9510
2.0291 -12.0291 -2.9985 0.9510
1.6690 -6.3704 -1.6187 0.9732
2.0821 -5.7873 -1.5118 0.9750
6.0994 -10.5644 -2.9984 0.9510
7.8757 -9.3154 -2.9984 0.9510
9.4025 -7.7713 -2.9984 0.9510
10.6313 -5.9811 -2.9983 0.9510
11.1215 -5.0111 -2.9983 0.9510
9.2444 6.9716 -2.8460 0.9534
5.3370 10.2756 -2.8461 0.9534
4.4013 10.7099 -2.8461 0.9534
3.4306 11.0593 -2.8461 0.9534
1.4154 11.4925 -2.8462 0.9534
0.3869 11.5729 -2.8462 0.9534
-1.6712 11.4584 -2.8463 0.9534
-2.6844 11.2643 -2.8463 0.9534
-3.6764 10.9807 -2.8463 0.9534
-4.6391 10.6100 -2.8463 0.9534
-5.5651 10.1551 -2.8464 0.9534
-7.2776 9.0076 -2.8464 0.9534
-9.3989 6.7650 -2.8464 0.9534
-9.9638 5.9016 -2.8465 0.9534
-11.4334 4.2579 -2.9989 0.9510
-12.0073 2.1633 -2.9989 0.9510
-12.1522 1.0860 -2.9989 0.9510
-11.3809 0.0001 -2.9989 0.9540
-11.3358 -1.0129 -2.9989 0.9540
-11.2006 -2.0178 -2.9989 0.9540
-10.2694 -4.9053 -2.9988 0.9540
-9.7920 -5.7998 -2.9988 0.9540
-6.3358 -9.4536 -2.9987 0.9540
-5.4692 -9.9800 -2.9987 0.9540
-3.6130 -10.7914 -2.9987 0.9540
-2.6381 -11.0700 -2.9987 0.9540
-0.6336 -11.3622 -2.9986 0.9540
1.3910 -11.2943 -2.9986 0.9540
1.9528 -6.2952 -1.7368 0.9731
2.4143 -5.8749 -1.6737 0.9741
5.2450 -10.0985 -2.9985 0.9540
6.1230 -9.5915 -2.9984 0.9540
6.9523 -9.0084 -2.9984 0.9540
7.7265 -8.3538 -2.9984 0.9540
9.0852 -6.8514 -2.9984 0.9540
9.6589 -6.0155 -2.9984 0.9540
10.1559 -5.1320 -2.9984 0.9540
10.9049 -3.2500 -2.9983 0.9540
11.3760 -0.2535 -2.9983 0.9540
11.3535 0.7601 -2.9983 0.9540
11.0389 2.7611 -2.9983 0.9540
10.7493 3.7326 -2.9984 0.9540
6.9734 8.2482 -2.8461 0.9563
5.4006 9.3541 -2.8461 0.9563
4.5466 9.7977 -2.8461 0.9563
3.6565 10.1636 -2.8461 0.9563
-1.0812 10.7475 -2.8462 0.9563
-2.9697 10.3857 -2.8463 0.9563
-3.8823 10.0802 -2.8463 0.9563
-4.7641 9.6947 -2.8463 0.9563
-7.1563 8.0917 -2.8464 0.9563
-8.4777 6.6948 -2.8464 0.9563
-9.0399 5.9137 -2.8464 0.9563
-10.4778 4.4430 -2.9989 0.9540
-11.0996 2.5149 -2.9989 0.9540
-11.2794 1.5170 -2.9989 0.9540
-11.2794 -1.5169 -2.9989 0.9540
-11.0996 -2.5148 -2.9989 0.9540
-10.8317 -3.4927 -2.9989 0.9540
-9.5239 -6.2302 -2.9988 0.9540
-8.9315 -7.0531 -2.9988 0.9540
-7.5394 -8.5249 -2.9988 0.9540
-5.9084 -9.7265 -2.9987 0.9540
-4.0901 -10.6198 -2.9987 0.9540
-2.1424 -11.1765 -2.9986 0.9540
-1.1391 -11.3228 -2.9986 0.9540
-0.1268 -11.3791 -2.9986 0.9540
0.8865 -11.3451 -2.9986 0.9540
2.8840 -11.0080 -2.9985 0.9540
2.1537 -5.9862 -1.6763 0.9740
2.7565 -5.9400 -1.7255 0.9733
6.5442 -9.3091 -2.9984 0.9540
7.3467 -8.6897 -2.9984 0.9540
8.0909 -8.0013 -2.9984 0.9540
8.7710 -7.2494 -2.9984 0.9540
9.3813 -6.4399 -2.9984 0.9540
9.9172 -5.5793 -2.9984 0.9540
11.0388 -2.7609 -2.9983 0.9540
11.3535 -0.7600 -2.9983 0.9540
11.3083 1.2651 -2.9983 0.9540
11.1509 2.2665 -2.9983 0.9540
10.9049 3.2500 -2.9983 0.9540
10.5724 4.2078 -2.9984 0.9540
8.6235 6.5033 -2.8460 0.9563
8.0105 7.2451 -2.8460 0.9563
7.3339 7.9293 -2.8460 0.9563
5.8119 9.1042 -2.8461 0.9563
4.1056 9.9905 -2.8461 0.9563
3.2002 10.3164 -2.8461 0.9563
2.2693 10.5604 -2.8462 0.9563
1.3204 10.7205 -2.8462 0.9563
0.3609 10.7956 -2.8462 0.9563
-1.5589 10.6887 -2.8463 0.9563
-2.5041 10.5076 -2.8463 0.9563
-3.4294 10.2431 -2.8463 0.9563
-4.3275 9.8973 -2.8463 0.9563
-5.1913 9.4729 -2.8463 0.9563
-6.0138 8.9733 -2.8464 0.9563
-9.9733 4.7639 -2.9124 0.9553
-10.6653 3.9719 -2.9989 0.9540
-11.2006 2.0179 -2.9989 0.9540
-10.4897 -1.8898 -2.9989 0.9567
-10.2798 -2.8159 -2.9988 0.9567
-9.9884 -3.7197 -2.9988 0.9567
-8.0621 -6.9715 -2.9988 0.9567
-6.6982 -8.2904 -2.9988 0.9567
-5.9337 -8.8536 -2.9987 0.9567
-5.1221 -9.3466 -2.9987 0.9567
-4.2698 -9.7653 -2.9987 0.9567
-3.3837 -10.1065 -2.9987 0.9567
-0.5933 -10.6411 -2.9986 0.9567
0.3561 -10.6516 -2.9986 0.9567
2.2390 -10.4196 -2.9985 0.9567
4.0509 -9.8573 -2.9985 0.9567
5.7344 -8.9828 -2.9985 0.9567
6.5111 -8.4367 -2.9984 0.9567
8.5086 -6.4166 -2.9984 0.9567
9.0459 -5.6338 -2.9984 0.9567
9.9015 -3.9406 -2.9984 0.9567
10.2129 -3.0437 -2.9984 0.9567
10.4432 -2.1226 -2.9984 0.9567
10.6330 0.7118 -2.9984 0.9567
10.5274 1.6554 -2.9984 0.9567
10.0672 3.4958 -2.9984 0.9567
8.8159 4.9598 -2.8460 0.9588
8.3395 5.7248 -2.8460 0.9588
5.8174 8.2754 -2.8461 0.9588
5.0578 8.7604 -2.8461 0.9588
4.2581 9.1759 -2.8461 0.9588
3.4245 9.5185 -2.8461 0.9588
2.5637 9.7856 -2.8462 0.9588
-1.0126 10.0654 -2.8462 0.9588
-2.7812 9.7265 -2.8463 0.9588
-4.4617 9.0794 -2.8463 0.9588
-6.0009 8.1446 -2.8464 0.9588
-6.7021 7.5782 -2.8464 0.9588
-8.4662 5.5384 -2.8464 0.9588
-8.9512 4.7766 -2.8546 0.9587
-9.8128 4.1610 -2.9988 0.9567
-10.1442 3.2711 -2.9989 0.9567
-10.5635 1.4207 -2.9989 0.9567
-10.6480 0.4749 -2.9989 0.9567
-10.5635 -1.4206 -2.9989 0.9567
-9.4034 -5.0178 -2.9988 0.9567
-8.9194 -5.8348 -2.9988 0.9567
-8.3647 -6.6055 -2.9988 0.9567
-7.0609 -7.9838 -2.9988 0.9567
-6.3222 -8.5805 -2.9987 0.9567
-4.7006 -9.5654 -2.9987 0.9567
-3.8306 -9.9457 -2.9987 0.9567
-2.9301 -10.2471 -2.9987 0.9567
-2.0064 -10.4672 -2.9986 0.9567
-1.0668 -10.6042 -2.9986 0.9567
-0.1187 -10.6569 -2.9986 0.9567
0.8303 -10.6251 -2.9986 0.9567
3.6078 -10.0280 -2.9985 0.9567
4.4860 -9.6671 -2.9985 0.9567
5.3286 -9.2294 -2.9985 0.9567
6.1289 -8.7184 -2.9984 0.9567
6.8805 -8.1382 -2.9984 0.9567
7.5775 -7.4935 -2.9984 0.9567
8.2143 -6.7893 -2.9984 0.9567
8.7860 -6.0312 -2.9984 0.9567
9.2879 -5.2253 -2.9984 0.9567
10.3383 -2.5857 -2.9984 0.9567
10.5274 -1.6553 -2.9984 0.9567
10.6330 -0.7117 -2.9984 0.9567
10.6541 0.2375 -2.9984 0.9567
10.5907 1.1848 -2.9984 0.9567
10.4433 2.1227 -2.9984 0.9567
10.2129 3.0438 -2.9984 0.9567
6.8685 7.4261 -2.8461 0.9588
5.4430 8.5264 -2.8461 0.9588
4.6626 8.9771 -2.8461 0.9588
3.8451 9.3565 -2.8461 0.9588
1.2366 10.0401 -2.8462 0.9588
0.3380 10.1104 -2.8462 0.9588
-3.2117 9.5930 -2.8463 0.9588
-6.3578 7.8692 -2.8464 0.9588
-7.6524 6.6173 -2.8464 0.9588
-8.2110 5.9100 -2.8464 0.9588
-9.6177 4.5940 -2.9988 0.9567
-10.2799 2.8160 -2.9989 0.9567
-10.6163 0.9487 -2.9989 0.9567
-10.0168 0.0000 -2.9988 0.9590
-9.9771 -0.8915 -2.9988 0.9590
-9.6609 -2.6464 -2.9988 0.9590
-9.3870 -3.4957 -2.9988 0.9590
-8.1298 -5.8515 -2.9988 0.9590
-7.5767 -6.5518 -2.9988 0.9590
-6.9634 -7.2001 -2.9988 0.9590
-6.2949 -7.7913 -2.9987 0.9590
-4.0127 -9.1774 -2.9987 0.9590
-3.1800 -9.4980 -2.9987 0.9590
-2.3220 -9.7433 -2.9986 0.9590
-1.4455 -9.9112 -2.9986 0.9590
-0.5576 -10.0005 -2.9986 0.9590
0.3347 -10.0104 -2.9986 0.9590
1.2243 -9.9408 -2.9986 0.9590
2.1042 -9.7922 -2.9985 0.9590
3.8071 -9.2639 -2.9985 0.9590
5.3892 -8.4420 -2.9985 0.9590
6.1192 -7.9288 -2.9984 0.9590
6.8006 -7.3527 -2.9984 0.9590
7.4280 -6.7181 -2.9984 0.9590
7.9964 -6.0303 -2.9984 0.9590
8.5014 -5.2947 -2.9984 0.9590
8.9388 -4.5170 -2.9984 0.9590
9.5981 -2.8605 -2.9984 0.9590
9.8146 -1.9949 -2.9984 0.9590
10.0128 -0.2231 -2.9984 0.9590
9.8937 1.5558 -2.9984 0.9590
9.7160 2.4302 -2.9984 0.9590
7.8375 5.3801 -2.8460 0.9611
7.3275 6.0564 -2.8460 0.9611
6.7594 6.6846 -2.8461 0.9611
6.1377 7.2597 -2.8461 0.9611
4.7533 8.2330 -2.8461 0.9611
4.0017 8.6235 -2.8461 0.9611
1.5813 9.3745 -2.8462 0.9611
0.7406 9.4781 -2.8462 0.9611
-0.1059 9.5065 -2.8462 0.9611
-1.7898 9.3372 -2.8463 0.9611
-2.6138 9.1409 -2.8463 0.9611
-4.1931 8.5328 -2.8463 0.9611
-4.9360 8.1257 -2.8463 0.9611
-6.9075 6.5331 -2.8464 0.9611
-7.4616 5.8924 -2.8464 0.9611
-7.9564 5.2049 -2.8464 0.9611
-9.2220 3.9105 -2.9988 0.9590
-9.5334 3.0742 -2.9988 0.9590
-9.9275 1.3351 -2.9988 0.9590
-10.0069 -0.4462 -2.9988 0.9590
-9.9275 -1.3351 -2.9988 0.9590
-9.7692 -2.2134 -2.9988 0.9590
-9.5334 -3.0741 -2.9988 0.9590
-9.2219 -3.9104 -2.9988 0.9590
-8.8372 -4.7157 -2.9988 0.9590
-7.2773 -6.8828 -2.9988 0.9590
-6.6358 -7.5031 -2.9988 0.9590
-5.9416 -8.0639 -2.9987 0.9590
-5.2002 -8.5607 -2.9987 0.9590
-4.4176 -8.9895 -2.9987 0.9590
-3.5999 -9.3470 -2.9987 0.9590
-2.7537 -9.6302 -2.9987 0.9590
-1.8856 -9.8370 -2.9986 0.9590
0.7803 -9.9854 -2.9986 0.9590
2.5384 -9.6888 -2.9985 0.9590
5.0078 -8.6737 -2.9985 0.9590
5.7599 -8.1935 -2.9985 0.9590
6.4663 -7.6483 -2.9984 0.9590
7.1213 -7.0424 -2.9984 0.9590
8.2571 -5.6681 -2.9984 0.9590
9.4611 -3.2852 -2.9984 0.9590
9.7159 -2.4301 -2.9984 0.9590
9.8937 -1.5557 -2.9984 0.9590
9.8146 1.9950 -2.9984 0.9590
9.3054 3.7035 -2.9984 0.9590
8.0693 5.0256 -2.8460 0.9611
4.3819 8.4366 -2.8461 0.9611
3.6136 8.7932 -2.8461 0.9611
-1.3721 9.4077 -2.8463 0.9611
-2.2040 9.2482 -2.8463 0.9611
-3.0184 9.0155 -2.8463 0.9611
-4.5691 8.3375 -2.8463 0.9611
-5.2931 7.8978 -2.8463 0.9611
-5.9750 7.3954 -2.8464 0.9611
-7.7167 5.5542 -2.8464 0.9611
-8.1804 4.8453 -2.8464 0.9611
-9.6609 2.6464 -2.9988 0.9590
-9.8581 1.7761 -2.9988 0.9590
-9.9771 0.8916 -2.9988 0.9590
-9.2930 -1.6742 -2.9988 0.9611
-8.8489 -3.2953 -2.9988 0.9611
-8.1243 -4.8120 -2.9988 0.9611
-7.6638 -5.5160 -2.9988 0.9611
-7.1424 -6.1762 -2.9988 0.9611
-6.5643 -6.7874 -2.9988 0.9611
-5.9341 -7.3446 -2.9987 0.9611
-5.2568 -7.8436 -2.9987 0.9611
-4.5378 -8.2803 -2.9987 0.9611
-2.1889 -9.1848 -2.9986 0.9611
-1.3627 -9.3431 -2.9986 0.9611
0.3155 -9.4365 -2.9986 0.9611
1.1541 -9.3709 -2.9986 0.9611
1.9836 -9.2310 -2.9985 0.9611
4.3518 -8.3788 -2.9985 0.9611
5.0803 -7.9581 -2.9985 0.9612
6.4108 -6.9312 -2.9984 0.9612
7.0022 -6.3331 -2.9984 0.9612
8.0141 -4.9912 -2.9984 0.9612
8.4265 -4.2580 -2.9984 0.9612
8.7720 -3.4912 -2.9984 0.9612
9.0479 -2.6965 -2.9984 0.9612
9.2520 -1.8805 -2.9984 0.9612
9.4389 -0.2103 -2.9984 0.9612
9.3266 1.4666 -2.9984 0.9612
8.9189 3.0970 -2.9984 0.9612
8.6079 3.8786 -2.9984 0.9612
6.3720 6.3015 -2.8461 0.9631
5.7859 6.8436 -2.8461 0.9631
5.1538 7.3315 -2.8461 0.9631
3.0338 8.4327 -2.8461 0.9631
1.4906 8.8372 -2.8462 0.9631
-0.0998 8.9616 -2.8462 0.9631
-0.8971 8.9172 -2.8462 0.9631
-1.6872 8.8020 -2.8463 0.9631
-2.4639 8.6169 -2.8463 0.9631
-3.2211 8.3635 -2.8463 0.9631
-3.9528 8.0437 -2.8463 0.9631
-4.6530 7.6599 -2.8463 0.9631
-5.9375 6.7137 -2.8464 0.9631
-8.9869 2.8979 -2.9988 0.9611
-9.2092 2.0866 -2.9988 0.9611
-9.3584 1.2586 -2.9988 0.9611
-9.4333 0.4207 -2.9988 0.9611
-9.4333 -0.4206 -2.9988 0.9611
-9.3584 -1.2586 -2.9988 0.9611
-8.6933 -3.6862 -2.9988 0.9611
-8.3307 -4.4453 -2.9988 0.9611
-7.9019 -5.1692 -2.9988 0.9611
-5.6010 -7.6017 -2.9987 0.9611
-4.1644 -8.4742 -2.9987 0.9611
-3.3936 -8.8112 -2.9987 0.9611
-1.7775 -9.2731 -2.9986 0.9611
-0.1052 -9.4412 -2.9986 0.9611
1.5704 -9.3102 -2.9986 0.9611
2.3929 -9.1334 -2.9985 0.9611
3.9743 -8.5643 -2.9985 0.9611
4.7208 -8.1766 -2.9985 0.9612
6.0956 -7.2099 -2.9984 0.9612
6.7131 -6.6388 -2.9984 0.9612
7.2773 -6.0148 -2.9984 0.9612
7.7838 -5.3432 -2.9984 0.9612
8.6078 -3.8785 -2.9984 0.9612
8.9188 -3.0969 -2.9984 0.9612
9.4389 0.2104 -2.9984 0.9612
9.2520 1.8806 -2.9984 0.9612
9.0480 2.6966 -2.9984 0.9612
8.7721 3.4912 -2.9984 0.9612
11.9392 6.0332 -4.2483 0.9454
11.3549 7.0719 -4.2483 0.9454
6.6464 6.0113 -2.8461 0.9631
6.0850 6.5790 -2.8461 0.9631
5.4753 7.0946 -2.8461 0.9631
4.8221 7.5538 -2.8461 0.9631
2.6552 8.5596 -2.8462 0.9631
1.0955 8.8948 -2.8462 0.9631
0.2995 8.9571 -2.8462 0.9631
-0.4989 8.9482 -2.8462 0.9631
-1.2934 8.8684 -2.8463 0.9631
-2.8454 8.4987 -2.8463 0.9631
-3.5905 8.2117 -2.8463 0.9631
-4.3072 7.8596 -2.8463 0.9631
-4.9896 7.4451 -2.8463 0.9631
-5.6325 6.9715 -2.8464 0.9631
-6.7794 5.8624 -2.8464 0.9631
-7.2743 5.2358 -2.8464 0.9631
-8.0163 4.7481 -2.9589 0.9617
-8.5205 4.0699 -2.9988 0.9611
-8.8489 3.2954 -2.9988 0.9611
-9.1071 2.4947 -2.9988 0.9611
-9.4052 0.8405 -2.9988 0.9611
-8.7841 -1.5825 -2.9988 0.9630
-8.6084 -2.3580 -2.9988 0.9630
-7.6794 -4.5485 -2.9988 0.9630
-6.7512 -5.8380 -2.9988 0.9630
-4.2893 -7.8269 -2.9987 0.9630
-3.5756 -8.1775 -2.9987 0.9630
-0.4969 -8.9110 -2.9986 0.9630
1.0909 -8.8578 -2.9986 0.9630
4.1136 -7.9200 -2.9985 0.9630
4.8021 -7.5224 -2.9985 0.9630
6.0597 -6.5517 -2.9985 0.9630
7.1253 -5.3734 -2.9984 0.9630
7.9651 -4.0249 -2.9984 0.9630
8.5525 -2.5489 -2.9984 0.9630
8.7454 -1.7775 -2.9984 0.9630
8.8689 -0.9921 -2.9984 0.9630
8.9220 -0.1988 -2.9984 0.9630
8.9043 0.5961 -2.9984 0.9630
8.4305 2.9274 -2.9984 0.9630
11.0203 6.1999 -4.2484 0.9480
10.4247 7.1562 -4.2484 0.9480
6.5293 5.3967 -2.8461 0.9649
4.8716 6.9300 -2.8461 0.9649
4.2355 7.3362 -2.8461 0.9649
3.5658 7.6840 -2.8461 0.9649
-1.5948 8.3200 -2.8463 0.9649
-3.0447 7.9055 -2.8463 0.9649
-3.7363 7.6032 -2.8463 0.9649
-6.1549 5.8213 -2.8464 0.9649
-6.6487 5.2504 -2.8464 0.9649
-7.2657 4.7531 -2.9171 0.9640
-7.8745 4.2020 -2.9988 0.9630
-8.4948 2.7393 -2.9988 0.9630
-8.8459 1.1897 -2.9988 0.9630
-8.9167 -0.3976 -2.9988 0.9630
-8.8459 -1.1896 -2.9988 0.9630
-8.7049 -1.9722 -2.9988 0.9630
-8.4948 -2.7392 -2.9988 0.9630
-8.2172 -3.4844 -2.9988 0.9630
-7.4692 -4.8861 -2.9988 0.9630
-6.4845 -6.1329 -2.9988 0.9630
-4.6337 -7.6281 -2.9987 0.9630
-2.4537 -8.5811 -2.9987 0.9630
-1.6802 -8.7654 -2.9986 0.9630
-0.0994 -8.9243 -2.9986 0.9630
0.6953 -8.8976 -2.9986 0.9630
3.0212 -8.3977 -2.9985 0.9630
3.7567 -8.0954 -2.9985 0.9630
5.1325 -7.3010 -2.9985 0.9630
6.3456 -6.2752 -2.9984 0.9630
6.8789 -5.6855 -2.9984 0.9630
7.7779 -4.3757 -2.9984 0.9630
8.4305 -2.9273 -2.9984 0.9630
8.6576 -2.1654 -2.9984 0.9630
8.8159 -1.3862 -2.9984 0.9630
8.9043 -0.5960 -2.9984 0.9630
8.9221 0.1989 -2.9984 0.9630
8.8689 0.9922 -2.9984 0.9630
8.7455 1.7777 -2.9984 0.9630
8.5525 2.5490 -2.9984 0.9630
8.2918 3.3001 -2.9984 0.9630
7.9652 4.0250 -2.9984 0.9630
10.7332 6.6847 -4.2484 0.9480
6.7632 5.1004 -2.8461 0.9649
6.2824 5.6822 -2.8461 0.9649
5.7518 6.2188 -2.8461 0.9649
5.1755 6.7061 -2.8461 0.9649
4.5581 7.1402 -2.8461 0.9649
3.9045 7.5176 -2.8461 0.9649
3.2199 7.8353 -2.8461 0.9649
1.7797 8.2822 -2.8462 0.9649
0.2831 8.4666 -2.8462 0.9649
-1.9639 8.2407 -2.8463 0.9649
-3.3939 7.7621 -2.8463 0.9649
-4.0713 7.4292 -2.8463 0.9649
-4.7164 7.0374 -2.8463 0.9649
-5.3241 6.5897 -2.8463 0.9649
-5.8895 6.0897 -2.8464 0.9649
-6.4082 5.5414 -2.8464 0.9649
-6.8760 4.9491 -2.8464 0.9649
-7.6795 4.5486 -2.9988 0.9630
-8.7841 1.5826 -2.9988 0.9630
-8.4236 -0.7527 -2.9988 0.9647
-8.1567 -2.2343 -2.9988 0.9647
-7.6313 -3.6451 -2.9988 0.9647
-6.8640 -4.9404 -2.9988 0.9647
-6.3970 -5.5317 -2.9988 0.9647
-5.3148 -6.5782 -2.9987 0.9647
-4.7082 -7.0251 -2.9987 0.9647
-4.0642 -7.4162 -2.9987 0.9647
-3.3880 -7.7485 -2.9987 0.9647
-2.6849 -8.0192 -2.9987 0.9647
-1.2205 -8.3681 -2.9986 0.9647
1.7766 -8.2677 -2.9986 0.9647
5.7418 -6.2080 -2.9985 0.9647
7.1779 -4.4704 -2.9984 0.9647
7.5472 -3.8138 -2.9984 0.9647
8.2866 -1.6843 -2.9984 0.9647
8.4036 -0.9401 -2.9984 0.9647
8.3534 1.3136 -2.9984 0.9647
8.2034 2.0519 -2.9984 0.9647
7.9882 2.7739 -2.9984 0.9647
7.7097 3.4739 -2.9984 0.9647
6.1868 5.1135 -2.8461 0.9665
5.7071 5.6439 -2.8461 0.9665
4.6160 6.5664 -2.8461 0.9665
4.0133 6.9513 -2.8461 0.9665
3.3787 7.2809 -2.8461 0.9665
2.0343 7.7647 -2.8462 0.9665
1.3351 7.9150 -2.8462 0.9665
0.6253 8.0025 -2.8462 0.9665
-0.0894 8.0264 -2.8462 0.9665
-2.2068 7.7178 -2.8463 0.9665
-3.5403 7.2043 -2.8463 0.9665
-5.3179 6.0131 -2.8463 0.9665
-6.2998 4.9750 -2.8464 0.9665
-7.7861 3.3016 -2.9988 0.9647
-8.0491 2.5955 -2.9988 0.9647
-8.2481 1.8688 -2.9988 0.9647
-8.3817 1.1273 -2.9988 0.9647
-8.0490 -2.5954 -2.9988 0.9647
-7.7861 -3.3015 -2.9988 0.9647
-7.4613 -3.9814 -2.9988 0.9647
-7.0773 -4.6297 -2.9988 0.9647
-5.6026 -6.3349 -2.9987 0.9647
-5.0165 -6.8084 -2.9987 0.9647
-4.3906 -7.2278 -2.9987 0.9647
-3.7298 -7.5899 -2.9987 0.9647
-0.8465 -8.4142 -2.9986 0.9647
-0.0942 -8.4560 -2.9986 0.9647
0.6588 -8.4308 -2.9986 0.9647
2.8627 -7.9571 -2.9985 0.9647
4.2282 -7.3233 -2.9985 0.9647
5.4596 -6.4576 -2.9985 0.9647
6.0127 -5.9460 -2.9985 0.9647
7.3699 -4.1462 -2.9984 0.9647
8.2034 -2.0518 -2.9984 0.9647
8.3534 -1.3135 -2.9984 0.9647
8.4372 -0.5648 -2.9984 0.9647
8.4540 0.1884 -2.9984 0.9647
8.4036 0.9401 -2.9984 0.9647
8.1038 2.4152 -2.9984 0.9647
7.5473 3.8138 -2.9984 0.9647
9.5660 7.2140 -4.2484 0.9504
5.9528 5.3841 -2.8461 0.9665
4.9040 6.3543 -2.8461 0.9665
3.6997 7.1231 -2.8461 0.9665
3.0510 7.4242 -2.8461 0.9665
2.3781 7.6664 -2.8462 0.9665
0.9812 7.9666 -2.8462 0.9665
-0.4469 8.0145 -2.8462 0.9665
-1.1584 7.9430 -2.8462 0.9665
-1.8608 7.8084 -2.8463 0.9665
-2.5484 7.6118 -2.8463 0.9665
-3.8577 7.0394 -2.8463 0.9665
-4.4689 6.6681 -2.8463 0.9665
-5.0447 6.2440 -2.8463 0.9665
-6.0719 5.2506 -2.8464 0.9665
-6.6081 4.7563 -2.8870 0.9660
-7.2765 4.3099 -2.9988 0.9647
-7.9255 2.9515 -2.9988 0.9647
-8.1567 2.2344 -2.9988 0.9647
-8.3232 1.4996 -2.9988 0.9647
-8.0308 0.0000 -2.9988 0.9663
-7.7455 -2.1217 -2.9988 0.9663
-7.2465 -3.4613 -2.9988 0.9663
-6.5179 -4.6913 -2.9988 0.9663
-5.5828 -5.7726 -2.9987 0.9663
-5.0469 -6.2465 -2.9987 0.9663
-3.2172 -7.3579 -2.9987 0.9663
-2.5495 -7.6150 -2.9987 0.9663
-0.4471 -8.0179 -2.9986 0.9663
0.2683 -8.0257 -2.9986 0.9663
2.3791 -7.6696 -2.9985 0.9663
3.0523 -7.4273 -2.9985 0.9663
3.7012 -7.1261 -2.9985 0.9663
4.3208 -6.7684 -2.9985 0.9663
5.9554 -5.3863 -2.9985 0.9663
6.4111 -4.8349 -2.9984 0.9663
6.8160 -4.2450 -2.9984 0.9663
7.6953 -2.2934 -2.9984 0.9663
7.8689 -1.5994 -2.9984 0.9663
8.0119 0.5364 -2.9984 0.9663
7.5855 2.6340 -2.9984 0.9663
7.3210 3.2987 -2.9984 0.9663
8.7696 7.2483 -4.2484 0.9526
5.4194 5.3594 -2.8461 0.9680
4.9209 5.8205 -2.8461 0.9680
4.3833 6.2354 -2.8461 0.9680
3.8110 6.6008 -2.8461 0.9680
3.2084 6.9139 -2.8461 0.9680
1.9317 7.3733 -2.8462 0.9680
-0.0849 7.6218 -2.8462 0.9680
-1.4349 7.4861 -2.8463 0.9680
-2.7395 7.1131 -2.8463 0.9680
-3.3618 6.8410 -2.8463 0.9680
-3.9574 6.5147 -2.8463 0.9680
-5.0498 5.7099 -2.8463 0.9680
-5.5380 5.2378 -2.8463 0.9680
-6.7205 4.3964 -2.9988 0.9663
-7.3936 3.1352 -2.9988 0.9663
-7.6433 2.4647 -2.9988 0.9663
-8.0229 0.3578 -2.9988 0.9663
-8.0228 -0.3577 -2.9988 0.9663
-7.8323 -1.7745 -2.9988 0.9663
-7.0851 -3.7807 -2.9988 0.9663
-6.7205 -4.3963 -2.9988 0.9663
-4.1692 -6.8634 -2.9987 0.9663
-3.5418 -7.2072 -2.9987 0.9663
-2.8862 -7.4938 -2.9987 0.9663
-2.2078 -7.7209 -2.9986 0.9663
-1.5118 -7.8867 -2.9986 0.9663
-0.0895 -8.0298 -2.9986 0.9663
0.6256 -8.0058 -2.9986 0.9663
1.3357 -7.9183 -2.9986 0.9663
2.7184 -7.5560 -2.9985 0.9663
4.6180 -6.5692 -2.9985 0.9663
5.7095 -5.6462 -2.9985 0.9663
6.1894 -5.1156 -2.9984 0.9663
6.9983 -3.9371 -2.9984 0.9663
7.3210 -3.2986 -2.9984 0.9663
7.7898 -1.9483 -2.9984 0.9663
7.9323 -1.2473 -2.9984 0.9663
7.9800 0.8927 -2.9984 0.9663
7.8689 1.5995 -2.9984 0.9663
7.6953 2.2935 -2.9984 0.9663
7.1668 3.6216 -2.9984 0.9663
9.0837 6.8504 -4.2484 0.9526
5.6528 5.1127 -2.8461 0.9680
5.1753 5.5955 -2.8461 0.9680
4.6567 6.0340 -2.8461 0.9680
4.1012 6.4245 -2.8461 0.9680
1.6013 7.4520 -2.8462 0.9680
0.2547 7.6179 -2.8462 0.9680
-1.1000 7.5425 -2.8462 0.9680
-1.7670 7.4147 -2.8463 0.9680
-3.0537 6.9840 -2.8463 0.9680
-4.7904 5.9292 -2.8463 0.9680
-5.2991 5.4793 -2.8463 0.9680
-5.7658 4.9860 -2.8464 0.9680
-6.9097 4.0927 -2.9988 0.9663
-7.2465 3.4614 -2.9988 0.9663
-7.9036 1.4240 -2.9988 0.9663
-7.9989 0.7148 -2.9988 0.9663
-7.6105 -0.6800 -2.9988 0.9677
-7.5197 -1.3547 -2.9988 0.9677
-7.1604 -2.6665 -2.9988 0.9677
-6.2014 -4.4635 -2.9987 0.9677
-5.7795 -4.9977 -2.9987 0.9677
-4.8018 -5.9432 -2.9987 0.9677
-4.2537 -6.3469 -2.9987 0.9677
2.2636 -7.2971 -2.9985 0.9677
3.5215 -6.7801 -2.9985 0.9677
4.1110 -6.4397 -2.9985 0.9677
4.6678 -6.0482 -2.9985 0.9677
6.4850 -4.0389 -2.9984 0.9677
6.8188 -3.4456 -2.9984 0.9677
7.0984 -2.8251 -2.9984 0.9677
7.3216 -2.1820 -2.9984 0.9677
7.5471 1.1868 -2.9984 0.9677
7.2172 2.5061 -2.9984 0.9677
6.9655 3.1385 -2.9984 0.9677
6.6585 3.7461 -2.9985 0.9677
8.9244 6.1262 -4.2484 0.9546
8.3437 6.8962 -4.2484 0.9546
5.1562 5.0991 -2.8461 0.9693
4.6819 5.5379 -2.8461 0.9693
3.6259 6.2803 -2.8461 0.9693
1.8379 7.0152 -2.8462 0.9693
-0.0808 7.2516 -2.8462 0.9693
-3.1985 6.5088 -2.8463 0.9693
-3.7652 6.1983 -2.8463 0.9693
-4.3019 5.8387 -2.8463 0.9693
-4.8045 5.4326 -2.8463 0.9693
-5.2690 4.9834 -2.8463 0.9693
-5.9941 4.7335 -2.9976 0.9677
-6.3941 4.1829 -2.9988 0.9677
-6.7410 3.5972 -2.9988 0.9677
-7.0345 2.9829 -2.9988 0.9677
-7.5726 1.0185 -2.9988 0.9677
-7.6332 0.3404 -2.9988 0.9677
-7.5726 -1.0184 -2.9988 0.9677
-7.2720 -2.3449 -2.9988 0.9677
-6.7410 -3.5971 -2.9988 0.9677
-5.5511 -5.2502 -2.9987 0.9677
-4.5322 -6.1512 -2.9987 0.9677
-3.9667 -6.5301 -2.9987 0.9677
-3.3698 -6.8572 -2.9987 0.9677
-0.7648 -7.6019 -2.9986 0.9677
-0.0851 -7.6398 -2.9986 0.9677
1.9363 -7.3907 -2.9985 0.9677
3.2160 -6.9302 -2.9985 0.9677
4.3938 -6.2502 -2.9985 0.9677
5.4323 -5.3721 -2.9985 0.9677
5.8888 -4.8672 -2.9985 0.9677
6.2987 -4.3237 -2.9984 0.9677
6.9655 -3.1384 -2.9984 0.9677
7.2172 -2.5060 -2.9984 0.9677
7.4116 -1.8537 -2.9984 0.9677
7.6228 -0.5103 -2.9984 0.9677
7.6380 0.1703 -2.9984 0.9677
7.5925 0.8494 -2.9984 0.9677
6.4850 4.0390 -2.9985 0.9677
8.0282 7.2612 -4.2484 0.9546
4.4306 5.7410 -2.8461 0.9693
3.9021 6.1125 -2.8461 0.9693
3.3426 6.4356 -2.8461 0.9693
2.1486 6.9263 -2.8462 0.9693
1.5236 7.0901 -2.8462 0.9693
0.8865 7.1976 -2.8462 0.9693
0.2423 7.2480 -2.8462 0.9693
-1.0466 7.1762 -2.8462 0.9693
-3.4853 6.3599 -2.8463 0.9693
-4.0375 6.0245 -2.8463 0.9693
-4.5577 5.6412 -2.8463 0.9693
-5.0418 5.2132 -2.8463 0.9693
-5.5063 4.7615 -2.8570 0.9692
-6.2014 4.4636 -2.9988 0.9677
-6.5741 3.8939 -2.9988 0.9677
-6.8946 3.2933 -2.9988 0.9677
-7.1604 2.6666 -2.9988 0.9677
-7.5197 1.3548 -2.9988 0.9677
-7.6105 0.6801 -2.9988 0.9677
-7.2825 0.0000 -2.9988 0.9690
-6.8246 -2.5415 -2.9988 0.9690
-6.2658 -3.7112 -2.9988 0.9690
-5.5085 -4.7633 -2.9987 0.9690
-5.0626 -5.2347 -2.9987 0.9690
-3.4997 -6.3861 -2.9987 0.9690
-2.9174 -6.6722 -2.9987 0.9690
-2.3119 -6.9054 -2.9987 0.9690
-1.6881 -7.0837 -2.9986 0.9690
-0.4054 -7.2707 -2.9986 0.9690
0.8901 -7.2273 -2.9986 0.9690
1.5299 -7.1194 -2.9986 0.9690
2.1574 -6.9549 -2.9985 0.9690
3.3564 -6.4621 -2.9985 0.9690
3.9182 -6.1377 -2.9985 0.9690
4.9443 -5.3457 -2.9985 0.9690
5.8138 -4.3844 -2.9985 0.9690
6.1809 -3.8495 -2.9985 0.9690
6.4990 -3.2841 -2.9984 0.9690
6.7655 -2.6926 -2.9984 0.9690
7.1357 -1.4504 -2.9984 0.9690
7.2365 -0.8095 -2.9984 0.9690
7.2654 0.4864 -2.9984 0.9690
7.1932 1.1311 -2.9984 0.9690
6.8787 2.3886 -2.9984 0.9690
6.6389 2.9914 -2.9985 0.9690
6.3463 3.5704 -2.9985 0.9690
6.0033 4.1211 -2.9985 0.9690
7.9525 6.5729 -4.2484 0.9564
7.3359 7.2546 -4.2484 0.9564
3.9749 5.6544 -2.8461 0.9705
3.4559 5.9858 -2.8461 0.9705
1.7517 6.6862 -2.8462 0.9705
0.5385 6.8909 -2.8462 0.9705
-0.6919 6.8773 -2.8462 0.9705
-1.3012 6.7885 -2.8462 0.9705
-2.4843 6.4503 -2.8463 0.9705
-3.5886 5.9077 -2.8463 0.9705
-4.1002 5.5648 -2.8463 0.9705
-4.5792 5.1779 -2.8463 0.9705
-5.0356 4.7627 -2.8541 0.9705
-6.4249 3.4285 -2.9988 0.9690
-6.7046 2.8430 -2.9988 0.9690
-6.9310 2.2350 -2.9988 0.9690
-6.4249 -3.4284 -2.9988 0.9690
-6.0942 -3.9866 -2.9987 0.9690
-5.2908 -5.0040 -2.9987 0.9690
-4.8244 -5.4550 -2.9987 0.9690
-3.7807 -6.2239 -2.9987 0.9690
-3.2117 -6.5357 -2.9987 0.9690
-2.0020 -7.0015 -2.9986 0.9690
-0.0811 -7.2815 -2.9986 0.9690
1.2112 -7.1805 -2.9986 0.9690
1.8455 -7.0441 -2.9986 0.9690
2.4651 -6.8519 -2.9985 0.9690
4.1877 -5.9571 -2.9985 0.9690
5.1775 -5.1202 -2.9985 0.9690
6.3463 -3.5703 -2.9984 0.9690
6.8787 -2.3885 -2.9984 0.9690
7.1932 -1.1311 -2.9984 0.9690
7.2365 0.8096 -2.9984 0.9690
6.4990 3.2841 -2.9985 0.9690
7.6518 6.9206 -4.2484 0.9564
3.7191 5.8259 -2.8461 0.9705
2.6272 6.3931 -2.8462 0.9705
2.0478 6.6015 -2.8462 0.9705
1.4521 6.7576 -2.8462 0.9705
0.2310 6.9081 -2.8462 0.9705
-0.3848 6.9013 -2.8462 0.9705
-0.9975 6.8397 -2.8462 0.9705
-5.9106 4.2542 -2.9988 0.9690
-6.8246 2.5415 -2.9988 0.9690
-7.0237 1.9240 -2.9988 0.9690
-6.9243 -0.6187 -2.9988 0.9702
-6.8418 -1.2326 -2.9988 0.9702
-6.5148 -2.4261 -2.9988 0.9702
-6.2730 -2.9963 -2.9988 0.9702
-5.9814 -3.5428 -2.9987 0.9702
-5.6423 -4.0611 -2.9987 0.9702
-5.2584 -4.5471 -2.9987 0.9702
-4.3689 -5.4074 -2.9987 0.9702
-3.8702 -5.7747 -2.9987 0.9702
-3.3409 -6.0963 -2.9987 0.9702
-2.7850 -6.3694 -2.9987 0.9702
-2.2070 -6.5920 -2.9986 0.9702
-1.0032 -6.8788 -2.9986 0.9702
0.2323 -6.9476 -2.9986 0.9702
0.8497 -6.8993 -2.9986 0.9702
2.6423 -6.4296 -2.9985 0.9702
4.2470 -5.5030 -2.9985 0.9702
4.7200 -5.1031 -2.9985 0.9702
5.9004 -3.6748 -2.9985 0.9702
6.2041 -3.1350 -2.9985 0.9702
6.4585 -2.5704 -2.9984 0.9702
6.6616 -1.9853 -2.9984 0.9702
6.8119 -1.3846 -2.9984 0.9702
6.9081 -0.7728 -2.9984 0.9702
6.9494 -0.1548 -2.9984 0.9702
6.9356 0.4643 -2.9984 0.9702
6.8668 1.0798 -2.9984 0.9702
7.5916 6.2747 -4.2484 0.9580
7.0030 6.9254 -4.2484 0.9580
3.7945 5.3978 -2.8461 0.9717
3.2990 5.7141 -2.8461 0.9717
2.7774 5.9851 -2.8461 0.9717
2.2337 6.2086 -2.8462 0.9717
1.6722 6.3828 -2.8462 0.9717
1.0975 6.5063 -2.8462 0.9717
-1.8140 6.3441 -2.8463 0.9717
-2.9102 5.9221 -2.8463 0.9717
-5.8177 3.8058 -2.9988 0.9702
-6.1333 3.2729 -2.9988 0.9702
-6.4003 2.7140 -2.9988 0.9702
-6.6164 2.1336 -2.9988 0.9702
-6.9450 0.3097 -2.9988 0.9702
-6.7801 -1.5362 -2.9988 0.9702
-6.4003 -2.7139 -2.9988 0.9702
-6.1333 -3.2728 -2.9987 0.9702
-5.4558 -4.3083 -2.9987 0.9702
-3.6091 -5.9414 -2.9987 0.9702
-3.0660 -6.2390 -2.9987 0.9702
-0.6958 -6.9166 -2.9986 0.9702
-0.0774 -6.9511 -2.9986 0.9702
1.7617 -6.7244 -2.9986 0.9702
2.3532 -6.5409 -2.9985 0.9702
3.4757 -6.0200 -2.9985 0.9702
3.9977 -5.6867 -2.9985 0.9702
4.4880 -5.3083 -2.9985 0.9702
6.0583 -3.4083 -2.9985 0.9702
6.3376 -2.8555 -2.9984 0.9702
6.7434 -1.6866 -2.9984 0.9702
6.9494 0.1549 -2.9984 0.9702
6.9081 0.7728 -2.9984 0.9702
6.8119 1.3846 -2.9984 0.9702
6.2041 3.1351 -2.9985 0.9702
7.3045 6.6065 -4.2484 0.9580
4.0312 5.2234 -2.8461 0.9717
2.5080 6.1029 -2.8462 0.9717
0.8066 6.5488 -2.8462 0.9717
0.2205 6.5946 -2.8462 0.9717
-1.5296 6.4186 -2.8463 0.9717
-2.0949 6.2571 -2.8463 0.9717
-2.6435 6.0458 -2.8463 0.9717
-3.1711 5.7866 -2.8463 0.9717
-4.1468 5.1327 -2.8463 0.9717
-5.6423 4.0612 -2.9987 0.9702
-6.5148 2.4262 -2.9988 0.9702
-6.7049 1.8367 -2.9988 0.9702
-6.6460 0.0000 -2.9988 0.9713
-6.6196 -0.5915 -2.9988 0.9713
-6.5406 -1.1783 -2.9988 0.9713
-6.4098 -1.7558 -2.9988 0.9713
-6.2281 -2.3193 -2.9988 0.9713
-5.3940 -3.8823 -2.9987 0.9713
-4.6201 -4.7771 -2.9987 0.9713
-4.1766 -5.1694 -2.9987 0.9713
-3.1938 -5.8280 -2.9987 0.9713
-2.6624 -6.0891 -2.9987 0.9713
-2.1099 -6.3019 -2.9986 0.9713
-1.5406 -6.4646 -2.9986 0.9713
-0.3700 -6.6353 -2.9986 0.9713
0.8123 -6.5957 -2.9986 0.9713
1.3962 -6.4972 -2.9986 0.9713
2.5260 -6.1466 -2.9985 0.9713
3.5758 -5.6013 -2.9985 0.9713
4.0601 -5.2608 -2.9985 0.9713
6.1742 -2.4572 -2.9985 0.9713
6.6436 -0.1480 -2.9984 0.9713
6.5646 1.0323 -2.9985 0.9713
6.4467 1.6125 -2.9985 0.9713
6.2776 2.1799 -2.9985 0.9713
6.6948 6.6206 -4.2485 0.9595
6.0790 7.1902 -4.2485 0.9595
2.6551 5.7217 -2.8462 0.9727
2.1354 5.9354 -2.8462 0.9727
1.0492 6.2200 -2.8462 0.9727
0.4914 6.2887 -2.8462 0.9727
-0.6314 6.2763 -2.8462 0.9727
-1.7342 6.0649 -2.8463 0.9727
-2.7821 5.6614 -2.8463 0.9727
-3.2749 5.3913 -2.8463 0.9727
-3.7418 5.0785 -2.8463 0.9727
-5.2157 4.1188 -2.9987 0.9713
-5.5616 3.6383 -2.9987 0.9713
-6.1186 2.5946 -2.9988 0.9713
-6.3252 2.0397 -2.9988 0.9713
-6.4817 1.4686 -2.9988 0.9713
-6.5866 0.8859 -2.9988 0.9713
-6.6393 0.2961 -2.9988 0.9713
-6.6393 -0.2960 -2.9988 0.9713
-5.8633 -3.1287 -2.9987 0.9713
-4.8284 -4.5666 -2.9987 0.9713
-3.9421 -5.3503 -2.9987 0.9713
-2.9310 -5.9644 -2.9987 0.9713
-2.3885 -6.2016 -2.9987 0.9713
1.1053 -6.5529 -2.9986 0.9713
1.6842 -6.4285 -2.9986 0.9713
2.2497 -6.2531 -2.9985 0.9713
3.3227 -5.7551 -2.9985 0.9713
5.1222 -4.2336 -2.9985 0.9713
6.2776 -2.1798 -2.9985 0.9713
6.4467 -1.6124 -2.9984 0.9713
6.5646 -1.0322 -2.9984 0.9713
6.6304 -0.4438 -2.9984 0.9713
6.6041 0.7388 -2.9984 0.9713
6.5121 1.3237 -2.9985 0.9713
6.3684 1.8980 -2.9985 0.9713
6.1743 2.4573 -2.9985 0.9713
5.3057 4.0013 -2.9985 0.9713
6.9830 6.3158 -4.2484 0.9595
6.3932 6.9123 -4.2485 0.9595
3.8538 4.9935 -2.8461 0.9727
2.3976 5.8343 -2.8462 0.9727
1.8688 6.0246 -2.8462 0.9727
1.3252 6.1671 -2.8462 0.9727
0.7711 6.2606 -2.8462 0.9727
0.2108 6.3044 -2.8462 0.9727
-0.3512 6.2981 -2.8462 0.9727
-0.9104 6.2419 -2.8462 0.9727
-2.5271 5.7797 -2.8463 0.9727
-3.0315 5.5319 -2.8463 0.9727
-5.0270 4.3471 -2.9987 0.9713
-5.7181 3.3869 -2.9987 0.9713
-5.9969 2.8646 -2.9988 0.9713
-6.2281 2.3194 -2.9988 0.9713
-6.5406 1.1784 -2.9988 0.9713
-6.3365 -0.5662 -2.9988 0.9723
-5.9617 -2.2201 -2.9987 0.9723
-5.7404 -2.7419 -2.9987 0.9723
-4.8120 -4.1611 -2.9987 0.9723
-4.4225 -4.5728 -2.9987 0.9723
-3.9980 -4.9483 -2.9987 0.9723
-2.5485 -5.8287 -2.9987 0.9723
-2.0196 -6.0323 -2.9986 0.9723
-1.4747 -6.1881 -2.9986 0.9723
0.7776 -6.3136 -2.9986 0.9723
2.9320 -5.6452 -2.9985 0.9723
4.3193 -4.6699 -2.9985 0.9723
5.0788 -3.8300 -2.9985 0.9723
5.3995 -3.3628 -2.9985 0.9723
5.9102 -2.3522 -2.9985 0.9723
6.0961 -1.8168 -2.9985 0.9723
6.2336 -1.2670 -2.9985 0.9723
6.3216 -0.7071 -2.9985 0.9723
6.3469 0.4249 -2.9985 0.9723
6.2839 0.9881 -2.9985 0.9723
6.0091 2.0866 -2.9985 0.9723
5.7996 2.6132 -2.9985 0.9723
5.2444 3.6001 -2.9985 0.9723
5.8190 6.8827 -4.2485 0.9609
2.5416 5.4770 -2.8462 0.9737
2.0440 5.6815 -2.8462 0.9737
-0.0673 6.0378 -2.8462 0.9737
-0.6044 6.0079 -2.8462 0.9737
-1.6600 5.8055 -2.8463 0.9737
-2.1702 5.6348 -2.8463 0.9737
-3.1349 5.1607 -2.8463 0.9737
-3.5818 4.8613 -2.8463 0.9737
-4.1838 4.7307 -2.9769 0.9725
-4.9926 3.9427 -2.9987 0.9723
-5.3237 3.4826 -2.9987 0.9723
-5.6126 2.9950 -2.9987 0.9723
-6.0547 1.9524 -2.9988 0.9723
-6.2044 1.4058 -2.9988 0.9723
-6.3554 0.2834 -2.9988 0.9723
-6.3049 -0.8479 -2.9988 0.9723
-4.9926 -3.9426 -2.9987 0.9723
-4.6219 -4.3713 -2.9987 0.9723
-4.2144 -4.7653 -2.9987 0.9723
-3.3027 -5.4370 -2.9987 0.9723
-2.8057 -5.7093 -2.9987 0.9723
-1.7489 -6.1163 -2.9986 0.9723
-1.1976 -6.2476 -2.9986 0.9723
0.4956 -6.3420 -2.9986 0.9723
1.0581 -6.2727 -2.9986 0.9723
1.6122 -6.1536 -2.9986 0.9723
2.6777 -5.7702 -2.9985 0.9723
3.1806 -5.5089 -2.9985 0.9723
4.1069 -4.8577 -2.9985 0.9723
4.5230 -4.4729 -2.9985 0.9723
4.9031 -4.0525 -2.9985 0.9723
5.2444 -3.6000 -2.9985 0.9723
5.7995 -2.6131 -2.9985 0.9723
6.1710 -1.5434 -2.9985 0.9723
6.3469 -0.4248 -2.9985 0.9723
6.3216 0.7072 -2.9985 0.9723
6.0961 1.8169 -2.9985 0.9723
5.9102 2.3522 -2.9985 0.9723
5.6774 2.8690 -2.9985 0.9723
3.2489 5.0894 -2.8461 0.9737
2.7830 5.3584 -2.8461 0.9737
2.2951 5.5848 -2.8462 0.9737
1.7889 5.7670 -2.8462 0.9737
1.2685 5.9033 -2.8462 0.9737
0.7381 5.9928 -2.8462 0.9737
0.2018 6.0347 -2.8462 0.9737
-1.3998 5.8737 -2.8462 0.9737
-2.4190 5.5325 -2.8463 0.9737
-3.8360 4.7479 -2.8772 0.9734
-4.4225 4.5729 -2.9987 0.9723
-4.8120 4.1612 -2.9987 0.9723
-5.4736 3.2421 -2.9987 0.9723
-5.9617 2.2202 -2.9988 0.9723
-6.1357 1.6808 -2.9988 0.9723
-6.2609 1.1280 -2.9988 0.9723
-4.6117 -3.9878 -2.9987 0.9732
-4.2384 -4.3824 -2.9987 0.9732
-3.8315 -4.7423 -2.9987 0.9732
-3.3942 -5.0645 -2.9987 0.9732
-2.9299 -5.3464 -2.9987 0.9732
-2.4424 -5.5860 -2.9987 0.9732
-1.4133 -5.9304 -2.9986 0.9732
-0.8799 -6.0327 -2.9986 0.9732
-0.3394 -6.0870 -2.9986 0.9732
0.7452 -6.0507 -2.9986 0.9732
1.2808 -5.9604 -2.9986 0.9732
2.3173 -5.6388 -2.9985 0.9732
2.8100 -5.4101 -2.9985 0.9732
3.2803 -5.1386 -2.9985 0.9732
4.5213 -4.0893 -2.9985 0.9732
5.1747 -3.2228 -2.9985 0.9732
5.6641 -2.2543 -2.9985 0.9732
5.8423 -1.7411 -2.9985 0.9732
6.0584 -0.6777 -2.9985 0.9732
6.0947 -0.1358 -2.9985 0.9732
6.0826 0.4072 -2.9985 0.9732
5.9141 1.4792 -2.9985 0.9732
5.7589 1.9998 -2.9985 0.9732
5.5581 2.5044 -2.9985 0.9732
4.6990 3.8839 -2.9985 0.9732
6.1417 6.0736 -4.2485 0.9622
5.5767 6.5962 -4.2485 0.9622
3.3304 4.7376 -2.8483 0.9745
1.9589 5.4450 -2.8462 0.9745
1.4665 5.5978 -2.8462 0.9745
0.9625 5.7061 -2.8462 0.9745
0.4508 5.7692 -2.8462 0.9745
-0.0645 5.7864 -2.8462 0.9745
-0.5792 5.7577 -2.8462 0.9745
-1.5909 5.5638 -2.8463 0.9745
-2.0798 5.4002 -2.8463 0.9745
-2.5522 5.1936 -2.8463 0.9745
-3.0044 4.9459 -2.8463 0.9745
-3.4945 4.7429 -2.8976 0.9741
-4.0390 4.5670 -2.9987 0.9732
-4.7847 3.7785 -2.9987 0.9732
-5.3789 2.8704 -2.9987 0.9732
-5.8026 1.8712 -2.9987 0.9732
-6.0424 0.8127 -2.9988 0.9732
-6.0908 -0.2716 -2.9988 0.9732
-5.1021 -3.3376 -2.9987 0.9732
-4.7847 -3.7784 -2.9987 0.9732
-4.4294 -4.1893 -2.9987 0.9732
-4.0390 -4.5669 -2.9987 0.9732
-2.6889 -5.4716 -2.9987 0.9732
-2.1912 -5.6892 -2.9986 0.9732
-1.6761 -5.8616 -2.9986 0.9732
-0.6102 -6.0659 -2.9986 0.9732
-0.0679 -6.0961 -2.9986 0.9732
1.0140 -6.0115 -2.9986 0.9732
2.5662 -5.5300 -2.9985 0.9732
3.0482 -5.2796 -2.9985 0.9732
3.5060 -4.9873 -2.9985 0.9732
3.9360 -4.6554 -2.9985 0.9732
4.3347 -4.2866 -2.9985 0.9732
4.6990 -3.8838 -2.9985 0.9732
5.7589 -1.9997 -2.9985 0.9732
5.4410 2.7496 -2.9985 0.9732
5.1747 3.2229 -2.9985 0.9732
4.8674 3.6707 -2.9985 0.9732
5.8650 6.3412 -4.2485 0.9622
2.6672 5.1353 -2.8462 0.9745
1.7144 5.5269 -2.8462 0.9745
1.2157 5.6576 -2.8462 0.9745
-0.8351 5.7262 -2.8462 0.9745
-1.3415 5.6292 -2.8462 0.9745
-1.8372 5.4875 -2.8463 0.9745
-3.2217 4.8072 -2.8463 0.9745
-3.8192 4.7271 -2.9891 0.9733
-5.2457 3.1071 -2.9987 0.9732
-5.8802 1.6108 -2.9987 0.9732
-6.0002 1.0811 -2.9988 0.9732
-6.0726 0.5427 -2.9988 0.9732
-5.8493 0.0001 -2.9987 0.9740
-5.8261 -0.5206 -2.9987 0.9741
-5.7566 -1.0371 -2.9987 0.9741
-5.6414 -1.5453 -2.9987 0.9741
-1.3559 -5.6897 -2.9986 0.9741
0.1954 -5.8457 -2.9986 0.9741
1.7329 -5.5863 -2.9986 0.9741
2.2232 -5.4098 -2.9985 0.9741
3.1472 -4.9299 -2.9985 0.9741
3.5734 -4.6302 -2.9985 0.9741
4.3378 -3.9232 -2.9985 0.9741
4.9646 -3.0920 -2.9985 0.9741
5.7315 -1.1650 -2.9985 0.9741
5.8125 -0.6502 -2.9985 0.9741
5.8473 -0.1303 -2.9985 0.9741
5.7777 0.9086 -2.9985 0.9741
4.1587 4.1127 -2.9985 0.9741
3.3096 4.7081 -2.9504 0.9745
2.3369 5.0359 -2.8462 0.9754
1.4070 5.3705 -2.8462 0.9754
0.9234 5.4744 -2.8462 0.9754
-0.0618 5.5514 -2.8462 0.9754
-0.5557 5.5240 -2.8462 0.9754
-1.0452 5.4526 -2.8462 0.9754
-1.9954 5.1809 -2.8463 0.9754
-2.4486 4.9828 -2.8463 0.9754
-3.4696 4.7090 -2.9987 0.9741
-3.8750 4.3815 -2.9987 0.9741
-5.7047 1.2926 -2.9987 0.9740
-5.8435 0.2606 -2.9987 0.9740
-5.7971 -0.7796 -2.9987 0.9741
-5.3851 -2.2834 -2.9987 0.9741
-5.1605 -2.7537 -2.9987 0.9741
-4.5905 -3.6250 -2.9987 0.9741
-3.4696 -4.7089 -2.9987 0.9741
-2.5797 -5.2495 -2.9987 0.9741
-2.1022 -5.4582 -2.9986 0.9741
-1.6080 -5.6236 -2.9986 0.9741
-1.1011 -5.7444 -2.9986 0.9741
0.4557 -5.8312 -2.9986 0.9741
0.9728 -5.7674 -2.9986 0.9741
1.9800 -5.5035 -2.9985 0.9741
2.4620 -5.3054 -2.9985 0.9741
2.9244 -5.0652 -2.9985 0.9741
3.3636 -4.7848 -2.9985 0.9741
4.1587 -4.1126 -2.9985 0.9741
4.5082 -3.7261 -2.9985 0.9741
5.3324 -2.4026 -2.9985 0.9741
5.8357 -0.3906 -2.9985 0.9741
5.6051 1.6705 -2.9985 0.9741
5.4342 2.1628 -2.9985 0.9741
5.2201 2.6379 -2.9985 0.9741
4.9646 3.0921 -2.9985 0.9741
4.6697 3.5217 -2.9985 0.9741
5.6269 6.0838 -4.2485 0.9634
3.0154 4.7235 -2.8730 0.9751
1.6448 5.3025 -2.8462 0.9754
1.1664 5.4278 -2.8462 0.9754
0.6786 5.5101 -2.8462 0.9754
-0.3091 5.5432 -2.8462 0.9754
-1.7626 5.2647 -2.8463 0.9754
-2.2242 5.0869 -2.8463 0.9754
-2.6681 4.8688 -2.8463 0.9754
-3.1746 4.7369 -2.9234 0.9747
-4.0663 4.2046 -2.9987 0.9741
-4.4244 3.8260 -2.9987 0.9741
-5.0327 2.9809 -2.9987 0.9741
-5.2780 2.5212 -2.9987 0.9740
-5.6414 1.5454 -2.9987 0.9740
-5.5950 -0.4999 -2.9987 0.9749
-5.5283 -0.9959 -2.9987 0.9749
-5.4177 -1.4840 -2.9987 0.9749
-4.5591 -3.2814 -2.9987 0.9749
-4.2489 -3.6741 -2.9987 0.9749
-3.9050 -4.0377 -2.9987 0.9749
-3.5301 -4.3693 -2.9987 0.9749
-3.1272 -4.6661 -2.9987 0.9749
-2.2503 -5.1466 -2.9987 0.9749
-0.8106 -5.5582 -2.9986 0.9749
1.1801 -5.4916 -2.9986 0.9749
1.6642 -5.3647 -2.9986 0.9749
3.0223 -4.7344 -2.9985 0.9749
4.1657 -3.7676 -2.9985 0.9749
4.4845 -3.3819 -2.9985 0.9749
5.0131 -2.5332 -2.9985 0.9749
5.2187 -2.0769 -2.9985 0.9749
5.5042 -1.1187 -2.9985 0.9749
5.6154 -0.1251 -2.9985 0.9749
5.5486 0.8725 -2.9985 0.9749
5.4489 1.3629 -2.9985 0.9749
5.1210 2.3074 -2.9985 0.9749
4.6307 3.1789 -2.9985 0.9749
3.9938 3.9496 -2.9985 0.9749
3.6264 4.2894 -2.9985 0.9749
2.2442 4.8362 -2.8462 0.9761
1.3512 5.1575 -2.8462 0.9761
-0.0594 5.3313 -2.8462 0.9761
-0.5337 5.3049 -2.8462 0.9761
-1.4658 5.1262 -2.8462 0.9761
-2.3515 4.7851 -2.8463 0.9761
-3.3320 4.5222 -2.9987 0.9749
-4.0810 3.8599 -2.9987 0.9749
-4.4084 3.4813 -2.9987 0.9749
-4.9558 2.6445 -2.9987 0.9749
-5.1715 2.1930 -2.9987 0.9749
-5.3462 1.7240 -2.9987 0.9749
-5.4784 1.2413 -2.9987 0.9749
-5.5671 0.7487 -2.9987 0.9749
-5.6117 -0.2502 -2.9987 0.9749
-5.5671 -0.7487 -2.9987 0.9749
-5.4784 -1.2412 -2.9987 0.9749
-5.3462 -1.7239 -2.9987 0.9749
-5.1715 -2.1929 -2.9987 0.9749
-4.7007 -3.0750 -2.9987 0.9749
-4.4084 -3.4812 -2.9987 0.9749
-3.3320 -4.5222 -2.9987 0.9749
-2.9162 -4.8007 -2.9987 0.9749
-2.4774 -5.0413 -2.9987 0.9749
-2.0188 -5.2417 -2.9986 0.9749
-1.5443 -5.4006 -2.9986 0.9749
-1.0574 -5.5166 -2.9986 0.9749
-0.5622 -5.5888 -2.9986 0.9749
0.9343 -5.5387 -2.9986 0.9749
1.4235 -5.4335 -2.9986 0.9749
1.9014 -5.2852 -2.9986 0.9749
2.3643 -5.0950 -2.9985 0.9749
3.6264 -4.2893 -2.9985 0.9749
3.9938 -3.9495 -2.9985 0.9749
4.3294 -3.5783 -2.9985 0.9749
4.8953 -2.7540 -2.9985 0.9749
5.1210 -2.3074 -2.9985 0.9749
5.3060 -1.8424 -2.9985 0.9749
5.5486 -0.8725 -2.9985 0.9749
5.6042 -0.3751 -2.9985 0.9749
5.5042 1.1188 -2.9985 0.9749
5.2187 2.0770 -2.9985 0.9749
5.0131 2.5332 -2.9985 0.9749
4.7677 2.9694 -2.9985 0.9749
4.4845 3.3820 -2.9985 0.9749
4.1657 3.7677 -2.9985 0.9749
2.4612 4.7386 -2.8505 0.9761
2.0265 4.9313 -2.8462 0.9761
1.1201 5.2125 -2.8462 0.9761
0.6517 5.2916 -2.8462 0.9761
0.1782 5.3286 -2.8462 0.9761
-0.2968 5.3233 -2.8462 0.9761
-0.7694 5.2758 -2.8462 0.9761
-2.5985 4.7416 -2.8864 0.9758
-3.1272 4.6662 -2.9987 0.9749
-3.5301 4.3693 -2.9987 0.9749
-4.2489 3.6742 -2.9987 0.9749
-4.8331 2.8627 -2.9987 0.9749
-5.2641 1.9604 -2.9987 0.9749
-5.4177 1.4841 -2.9987 0.9749
-5.5950 0.5000 -2.9987 0.9749
-5.3778 -0.4805 -2.9987 0.9756
-5.3137 -0.9573 -2.9987 0.9756
-5.0598 -1.8843 -2.9987 0.9756
-4.6455 -2.7515 -2.9987 0.9756
-4.0840 -3.5315 -2.9987 0.9756
-3.7535 -3.8810 -2.9987 0.9756
-3.0059 -4.4850 -2.9987 0.9756
-2.5947 -4.7347 -2.9987 0.9756
-1.2516 -5.2520 -2.9986 0.9756
-0.7792 -5.3425 -2.9986 0.9756
0.6600 -5.3585 -2.9986 0.9756
2.0522 -4.9937 -2.9985 0.9756
2.4885 -4.7912 -2.9985 0.9756
2.9051 -4.5507 -2.9985 0.9756
3.6659 -3.9635 -2.9985 0.9756
4.0041 -3.6214 -2.9985 0.9756
4.3105 -3.2507 -2.9985 0.9756
5.3653 -0.6002 -2.9985 0.9756
5.3868 0.3606 -2.9985 0.9756
5.2375 1.3100 -2.9985 0.9756
4.4510 3.0555 -2.9985 0.9756
3.8388 3.7963 -2.9985 0.9756
3.1049 4.4168 -2.9985 0.9756
2.1917 4.7230 -2.8918 0.9765
1.2988 4.9573 -2.8462 0.9768
0.8524 5.0533 -2.8462 0.9768
-0.0571 5.1244 -2.8462 0.9768
-0.5130 5.0990 -2.8462 0.9768
-0.9648 5.0331 -2.8462 0.9768
-1.4089 4.9273 -2.8462 0.9768
-3.2027 4.3468 -2.9987 0.9756
-3.9227 3.7101 -2.9987 0.9756
-4.7635 2.5419 -2.9987 0.9756
-4.9708 2.1079 -2.9987 0.9756
-5.2658 1.1931 -2.9987 0.9756
-5.3511 0.7197 -2.9987 0.9756
-5.3939 -0.2405 -2.9987 0.9756
-5.2658 -1.1930 -2.9987 0.9756
-4.9708 -2.1078 -2.9987 0.9756
-4.2373 -3.3461 -2.9987 0.9756
-3.5769 -4.0444 -2.9987 0.9756
-2.3812 -4.8456 -2.9987 0.9756
-1.9405 -5.0383 -2.9986 0.9756
-1.4843 -5.1910 -2.9986 0.9756
-1.0164 -5.3025 -2.9986 0.9756
-0.5404 -5.3719 -2.9986 0.9756
-0.0601 -5.3987 -2.9986 0.9756
0.8980 -5.3238 -2.9986 0.9756
3.1049 -4.4167 -2.9985 0.9756
3.4857 -4.1228 -2.9985 0.9756
3.8388 -3.7962 -2.9985 0.9756
4.7053 -2.6471 -2.9985 0.9756
5.1001 -1.7709 -2.9985 0.9756
