ply
format ascii 1.0
element vertex 1590
property float32 x
property float32 y
property float32 z
property float32 I
end_header
-12.0496 7.1370 4.4477 0.9429
11.4061 7.1038 4.0229 0.9454
-12.0489 7.1366 4.1925 0.9432
1.8666 -6.0174 1.7726 0.9742
11.4016 7.1010 3.7792 0.9457
-12.0481 7.1361 3.9398 0.9435
1.7735 -5.7173 1.5773 0.9755
1.5082 -5.7566 1.5681 0.9757
2.0791 -5.7790 1.6183 0.9749
-12.0474 7.1357 3.6895 0.9437
0.7872 -6.3916 1.5829 0.9738
1.2240 -5.6958 1.4320 0.9763
1.7176 -5.5372 1.4250 0.9764
2.3619 -5.7474 1.5273 0.9747
1.4620 -5.5804 1.4179 0.9765
0.7441 -6.0415 1.3894 0.9753
1.1995 -5.5820 1.3031 0.9768
2.2748 -5.5354 1.3660 0.9757
1.4358 -5.4805 1.2931 0.9770
1.9575 -5.4408 1.3198 0.9766
11.3882 7.0926 3.0622 0.9464
-12.0459 7.1348 3.1955 0.9442
0.7249 -5.8859 1.2502 0.9760
1.6554 -5.3364 1.1779 0.9774
2.2210 -5.4046 1.2318 0.9764
0.5013 -6.4155 1.3566 0.9740
0.9503 -5.6340 1.2045 0.9769
1.9193 -5.3348 1.1953 0.9771
2.6112 -5.6271 1.3078 0.9750
-12.0452 7.1344 2.9514 0.9444
1.1604 -5.3998 1.0688 0.9777
2.1735 -5.2889 1.1065 0.9770
0.9332 -5.5323 1.0857 0.9774
1.3916 -5.3119 1.0626 0.9779
1.8872 -5.2454 1.0788 0.9775
2.5279 -5.4474 1.1621 0.9758
1.6148 -5.2055 0.9610 0.9781
2.1483 -5.2276 0.9966 0.9773
2.4776 -5.3391 1.0379 0.9764
11.3751 7.0845 2.3629 0.9470
-12.0438 7.1335 2.4682 0.9447
0.2182 -6.5274 1.0400 0.9739
1.1362 -5.2875 0.8612 0.9783
0.4600 -5.8863 0.9402 0.9764
-12.0431 7.1331 2.2288 0.9449
0.2103 -6.2886 0.8950 0.9749
1.1249 -5.2347 0.7616 0.9786
1.5828 -5.1025 0.7599 0.9786
2.1000 -5.1101 0.7858 0.9779
2.8051 -5.4008 0.8656 0.9757
0.4532 -5.8000 0.8275 0.9768
1.3510 -5.1568 0.7582 0.9787
11.3665 7.0791 1.9046 0.9473
-12.0424 7.1327 1.9908 0.9450
1.1186 -5.2057 0.6673 0.9788
2.0853 -5.0742 0.6875 0.9781
2.7578 -5.3096 0.7498 0.9762
1.8180 -5.0533 0.6730 0.9786
-12.0417 7.1323 1.7539 0.9451
0.6724 -5.4598 0.5967 0.9781
1.5658 -5.0476 0.5732 0.9790
2.0728 -5.0438 0.5915 0.9783
2.7314 -5.2589 0.6428 0.9764
0.8935 -5.2968 0.5826 0.9786
1.3368 -5.1024 0.5721 0.9790
1.8082 -5.0258 0.5793 0.9787
2.3694 -5.1059 0.6105 0.9776
3.3781 -5.8511 0.7328 0.9732
-12.0410 7.1319 1.5179 0.9452
0.2007 -6.0033 0.5507 0.9762
1.5574 -5.0207 0.4819 0.9791
2.7056 -5.2093 0.5381 0.9767
1.3298 -5.0758 0.4810 0.9791
1.7984 -4.9988 0.4870 0.9789
3.2506 -5.6302 0.5960 0.9742
0.1986 -5.9399 0.4454 0.9764
1.1005 -5.1213 0.3926 0.9792
2.0484 -4.9845 0.4038 0.9786
2.6804 -5.1607 0.4358 0.9769
0.4379 -5.6033 0.4212 0.9777
1.7888 -4.9721 0.3960 0.9790
-12.0396 7.1310 1.0486 0.9454
0.1972 -5.8980 0.3437 0.9766
0.6624 -5.3782 0.3156 0.9785
1.5465 -4.9856 0.3040 0.9793
2.0434 -4.9724 0.3131 0.9787
2.6649 -5.1309 0.3367 0.9771
1.7854 -4.9626 0.3072 0.9791
2.3281 -5.0169 0.3221 0.9781
3.1418 -5.4418 0.3660 0.9751
-12.0389 7.1306 0.8150 0.9455
0.6611 -5.3678 0.2249 0.9786
1.5439 -4.9772 0.2167 0.9794
0.4351 -5.5679 0.2322 0.9779
0.8804 -5.2192 0.2201 0.9790
3.1271 -5.4163 0.2600 0.9753
-12.0382 7.1302 0.5818 0.9455
0.1959 -5.8593 0.1462 0.9768
0.6598 -5.3573 0.1346 0.9786
1.5414 -4.9689 0.1297 0.9794
2.0358 -4.9539 0.1336 0.9788
2.6495 -5.1012 0.1434 0.9773
-0.0726 -6.5162 0.1625 0.9743
0.8788 -5.2102 0.1318 0.9791
3.1125 -5.3910 0.1552 0.9754
11.3371 7.0608 0.3331 0.9480
-12.0375 7.1298 0.3489 0.9456
0.1953 -5.8402 0.0486 0.9769
-0.0722 -6.4781 0.0538 0.9744
0.4330 -5.5416 0.0462 0.9780
1.3142 -5.0164 0.0431 0.9795
1.7764 -4.9375 0.0436 0.9792
2.3128 -4.9840 0.0457 0.9783
3.0981 -5.3660 0.0515 0.9755
11.3329 7.0582 0.1110 0.9480
0.1953 -5.8406 -0.0486 0.9769
1.0930 -5.0863 -0.0432 0.9794
1.5388 -4.9608 -0.0432 0.9794
0.4330 -5.5419 -0.0462 0.9780
0.8774 -5.2014 -0.0438 0.9791
1.3143 -5.0165 -0.0431 0.9795
2.3129 -4.9841 -0.0457 0.9783
3.0981 -5.3661 -0.0515 0.9755
-12.0361 7.1290 -0.1163 0.9456
0.1959 -5.8596 -0.1462 0.9768
0.6598 -5.3575 -0.1346 0.9786
1.0948 -5.0950 -0.1300 0.9794
1.5414 -4.9690 -0.1297 0.9794
2.6496 -5.1014 -0.1434 0.9773
0.4341 -5.5549 -0.1390 0.9780
1.3164 -5.0247 -0.1295 0.9794
1.7794 -4.9460 -0.1311 0.9792
3.1127 -5.3912 -0.1552 0.9754
11.3246 7.0530 -0.3327 0.9480
0.1965 -5.8787 -0.2446 0.9767
0.6611 -5.3679 -0.2249 0.9786
0.4351 -5.5680 -0.2322 0.9779
1.3186 -5.0330 -0.2163 0.9794
1.7824 -4.9543 -0.2189 0.9791
2.3230 -5.0060 -0.2295 0.9781
3.1273 -5.4167 -0.2601 0.9753
-12.0347 7.1282 -0.5816 0.9455
0.6624 -5.3783 -0.3156 0.9785
2.0435 -4.9725 -0.3131 0.9787
2.6651 -5.1312 -0.3368 0.9771
-0.0751 -6.7377 -0.3924 0.9734
0.4361 -5.5812 -0.3261 0.9778
0.8819 -5.2283 -0.3088 0.9790
1.3207 -5.0412 -0.3035 0.9793
1.7854 -4.9627 -0.3072 0.9791
3.1421 -5.4423 -0.3660 0.9751
-12.0340 7.1278 -0.8146 0.9455
0.6642 -5.3931 -0.4072 0.9784
1.5493 -4.9946 -0.3919 0.9792
1.7889 -4.9724 -0.3960 0.9790
2.3364 -5.0348 -0.4160 0.9780
11.3143 7.0466 -0.9989 0.9479
1.1065 -5.1495 -0.4829 0.9791
2.7059 -5.2099 -0.5382 0.9767
0.4412 -5.6465 -0.5192 0.9775
2.3529 -5.0703 -0.5124 0.9778
3.2521 -5.6327 -0.5963 0.9742
11.3133 7.0460 -1.2219 0.9479
0.2029 -6.0689 -0.6586 0.9759
0.6725 -5.4602 -0.5967 0.9781
1.1126 -5.1775 -0.5744 0.9789
1.5659 -5.0479 -0.5733 0.9790
2.7317 -5.2595 -0.6428 0.9764
0.8935 -5.2972 -0.5827 0.9786
1.3369 -5.1028 -0.5722 0.9790
1.8083 -5.0262 -0.5794 0.9787
2.3696 -5.1064 -0.6106 0.9776
3.3799 -5.8541 -0.7332 0.9732
-12.0319 7.1265 -1.5168 0.9453
0.2052 -6.1381 -0.7696 0.9755
1.1187 -5.2060 -0.6673 0.9788
1.5743 -5.0752 -0.6659 0.9788
2.0854 -5.0746 -0.6875 0.9781
0.4480 -5.7338 -0.7207 0.9771
0.8985 -5.3268 -0.6770 0.9785
1.3439 -5.1297 -0.6645 0.9788
0.2103 -6.2912 -0.8953 0.9749
1.1249 -5.2349 -0.7616 0.9786
1.5829 -5.1029 -0.7599 0.9786
2.8056 -5.4018 -0.8658 0.9757
0.4533 -5.8012 -0.8277 0.9768
0.9039 -5.3589 -0.7730 0.9783
1.8285 -5.0823 -0.7682 0.9784
2.4109 -5.1953 -0.8146 0.9771
0.2183 -6.5296 -1.0403 0.9739
2.1241 -5.1687 -0.8898 0.9776
0.4600 -5.8873 -0.9403 0.9764
0.9134 -5.4150 -0.8745 0.9780
1.8471 -5.1342 -0.8689 0.9781
11.2946 7.0344 -2.1188 0.9475
1.1483 -5.3436 -0.9637 0.9780
2.1486 -5.2283 -0.9967 0.9773
0.4670 -5.9765 -1.0570 0.9759
0.9231 -5.4726 -0.9786 0.9777
1.8663 -5.1875 -0.9721 0.9779
2.4780 -5.3399 -1.0380 0.9764
-11.9048 7.0512 -2.4397 0.9454
0.7076 -5.7451 -1.1202 0.9767
1.1605 -5.4004 -1.0689 0.9777
8.4685 12.0465 -2.8496 0.9418
7.3615 12.7505 -2.8492 0.9418
6.1964 13.3529 -2.8487 0.9418
4.9825 13.8490 -2.8482 0.9418
3.7294 14.2350 -2.8477 0.9418
-0.1638 14.7064 -2.8461 0.9418
-4.0412 14.1329 -2.8446 0.9419
-5.2821 13.7147 -2.8441 0.9419
-6.4807 13.1879 -2.8436 0.9419
-8.7136 11.8262 -2.8427 0.9419
-9.7302 11.0021 -2.8423 0.9419
-11.5238 9.1003 -2.8416 0.9419
-12.2867 8.0377 -2.8413 0.9419
-13.5149 5.7308 -2.8408 0.9419
0.4808 -6.1525 -1.1943 0.9752
0.9333 -5.5329 -1.0858 0.9774
1.3918 -5.3125 -1.0628 0.9779
1.8875 -5.2463 -1.0790 0.9775
11.1509 6.9448 -2.5422 0.9479
8.9974 11.6583 -2.8498 0.9418
6.7856 13.0647 -2.8489 0.9418
-0.8187 14.6831 -2.8459 0.9418
-4.6663 13.9376 -2.8443 0.9419
-5.8873 13.4646 -2.8438 0.9419
-7.0612 12.8851 -2.8434 0.9419
-10.2099 10.5571 -2.8421 0.9419
-11.8738 7.0329 -2.6706 0.9453
-13.7563 5.1229 -2.8407 0.9419
-13.6932 -3.7509 -2.9931 0.9436
-12.2181 -7.2368 -2.9937 0.9436
-11.5266 -8.2963 -2.9940 0.9436
-8.9283 -11.0507 -2.9951 0.9436
-6.8295 -12.4621 -2.9959 0.9436
-4.5130 -13.4799 -2.9969 0.9435
0.4753 -14.2168 -2.9989 0.9435
0.7251 -5.8876 -1.2506 0.9760
1.6557 -5.3376 -1.1782 0.9774
2.2217 -5.4061 -1.2322 0.9764
6.5619 -12.6339 -3.0013 0.9435
7.6615 -12.0015 -3.0018 0.9435
10.5641 -9.5546 -3.0029 0.9434
11.3738 -8.5773 -3.0032 0.9434
12.7167 -6.4260 -3.0038 0.9434
13.2390 -5.2690 -3.0040 0.9434
14.1624 -1.5843 -3.0043 0.9434
14.2190 0.9519 -3.0044 0.9434
14.0776 2.2136 -3.0043 0.9434
13.8242 3.4577 -3.0042 0.9434
11.7860 6.6307 -2.8510 0.9462
10.4216 8.6137 -2.8504 0.9462
9.6125 9.5060 -2.8501 0.9462
8.7272 10.3226 -2.8497 0.9462
7.7727 11.0569 -2.8493 0.9462
6.7568 11.7031 -2.8489 0.9463
5.6875 12.2562 -2.8485 0.9463
3.4232 13.0662 -2.8476 0.9463
2.2463 13.3168 -2.8471 0.9463
1.0519 13.4616 -2.8466 0.9463
-0.1504 13.4995 -2.8461 0.9463
-1.3511 13.4303 -2.8457 0.9463
-2.5407 13.2545 -2.8452 0.9463
-4.8489 12.5899 -2.8443 0.9463
-5.9493 12.1065 -2.8438 0.9463
-7.0022 11.5272 -2.8434 0.9464
-7.9993 10.8567 -2.8430 0.9464
-8.9326 10.1003 -2.8426 0.9464
-9.7950 9.2641 -2.8423 0.9464
-10.5795 8.3546 -2.8420 0.9464
-11.2800 7.3790 -2.8417 0.9464
-11.8910 6.3453 -2.8414 0.9464
-13.5127 4.3573 -2.9932 0.9436
-14.1825 0.6325 -2.9929 0.9436
-14.0702 -1.8922 -2.9930 0.9436
-13.8464 -3.1371 -2.9931 0.9436
-13.5128 -4.3573 -2.9932 0.9436
-13.0722 -5.5430 -2.9934 0.9436
-12.5278 -6.6850 -2.9936 0.9436
-11.1462 -8.8020 -2.9942 0.9436
-8.4278 -11.4382 -2.9953 0.9436
-5.1087 -13.2643 -2.9966 0.9435
-3.9084 -13.6686 -2.9971 0.9435
-2.6768 -13.9645 -2.9976 0.9435
0.5016 -6.4198 -1.3575 0.9740
0.9506 -5.6354 -1.2048 0.9769
9.1946 -10.8755 -3.0024 0.9434
10.9798 -9.0750 -3.0031 0.9434
11.7452 -8.0626 -3.0034 0.9434
12.4173 -6.9858 -3.0037 0.9434
12.9908 -5.8533 -3.0039 0.9434
13.4610 -4.6741 -3.0041 0.9434
14.2190 -0.9518 -3.0044 0.9434
14.2474 0.3175 -3.0044 0.9434
14.1624 1.5844 -3.0043 0.9434
13.6561 4.0700 -3.0041 0.9434
12.0702 6.0994 -2.8511 0.9462
11.1101 6.9195 -2.7594 0.9479
10.7956 8.1413 -2.8506 0.9462
9.1789 9.9242 -2.8499 0.9462
4.0022 12.9018 -2.8478 0.9463
0.4512 13.4939 -2.8464 0.9463
-0.7515 13.4783 -2.8459 0.9463
-1.9479 13.3556 -2.8454 0.9463
-4.2836 12.7945 -2.8445 0.9463
-6.4822 11.8286 -2.8436 0.9464
-8.4744 10.4889 -2.8428 0.9464
-9.3731 9.6918 -2.8424 0.9464
-10.9406 7.8746 -2.8418 0.9464
-13.6931 3.7510 -2.9931 0.9436
-13.9721 2.5172 -2.9930 0.9436
-13.0628 -1.1672 -2.9934 0.9476
-12.9074 -2.3253 -2.9935 0.9476
-9.1223 -9.4323 -2.9950 0.9476
-7.3071 -10.9030 -2.9957 0.9476
-5.2597 -12.0291 -2.9966 0.9476
-4.1687 -12.4513 -2.9970 0.9476
-3.0444 -12.7749 -2.9975 0.9475
-1.8956 -12.9972 -2.9979 0.9475
0.7443 -6.0431 -1.3897 0.9753
1.1997 -5.5831 -1.3034 0.9768
1.6854 -5.4334 -1.2984 0.9769
7.0761 -11.0844 -3.0015 0.9475
8.0356 -10.4120 -3.0019 0.9475
9.7566 -8.8243 -3.0026 0.9475
10.5043 -7.9217 -3.0029 0.9475
11.7444 -5.9347 -3.0034 0.9474
12.6120 -3.7587 -3.0037 0.9474
12.8969 -2.6214 -3.0038 0.9474
13.0010 2.0443 -3.0039 0.9474
10.8849 6.1238 -2.8506 0.9500
8.8778 8.7794 -2.8498 0.9501
8.0602 9.5337 -2.8495 0.9501
6.2405 10.8089 -2.8487 0.9501
5.2530 11.3199 -2.8483 0.9501
4.2240 11.7408 -2.8479 0.9501
2.0747 12.3000 -2.8470 0.9501
-0.1389 12.4690 -2.8461 0.9501
-1.2480 12.4052 -2.8457 0.9501
-2.3468 12.2430 -2.8453 0.9501
-3.4266 11.9838 -2.8448 0.9501
-4.4790 11.6294 -2.8444 0.9502
-6.4682 10.6480 -2.8436 0.9502
-8.2515 9.3302 -2.8429 0.9502
-9.7730 7.7177 -2.8423 0.9502
-10.4202 6.8166 -2.8420 0.9502
-11.4620 4.8603 -2.8416 0.9502
-12.4829 4.0252 -2.9936 0.9476
-13.1018 0.5843 -2.9934 0.9476
-13.1018 -0.5842 -2.9934 0.9476
-12.9980 -1.7480 -2.9934 0.9476
-12.4830 -4.0252 -2.9936 0.9476
-12.0759 -5.1206 -2.9938 0.9476
-11.5730 -6.1755 -2.9940 0.9476
-10.2965 -8.1310 -2.9945 0.9476
-8.6935 -9.8299 -2.9952 0.9476
-7.7851 -10.5660 -2.9955 0.9476
-4.7189 -12.2524 -2.9968 0.9476
-2.4725 -12.8988 -2.9977 0.9475
-0.1464 -13.1370 -2.9986 0.9475
1.4361 -5.4816 -1.2934 0.9770
1.9579 -5.4421 -1.3201 0.9765
5.5344 -11.9262 -3.0009 0.9475
9.3533 -9.2496 -3.0024 0.9475
10.1405 -8.3813 -3.0027 0.9475
10.8473 -7.4462 -3.0030 0.9474
11.4679 -6.4517 -3.0033 0.9474
12.4317 -4.3168 -3.0037 0.9474
12.7671 -3.1932 -3.0038 0.9474
13.1317 -0.8790 -3.0039 0.9474
13.0793 1.4632 -3.0039 0.9474
12.8969 2.6214 -3.0038 0.9474
12.6119 3.7588 -3.0037 0.9474
11.1474 5.6330 -2.8507 0.9500
9.9703 7.5190 -2.8502 0.9501
8.4774 9.1657 -2.8496 0.9501
6.7163 10.5209 -2.8489 0.9501
5.7524 11.0754 -2.8485 0.9501
4.7432 11.5418 -2.8481 0.9501
3.6965 11.9164 -2.8477 0.9501
2.6208 12.1962 -2.8473 0.9501
1.5246 12.3792 -2.8468 0.9501
-0.6942 12.4495 -2.8459 0.9501
-1.7992 12.3364 -2.8455 0.9501
-2.8896 12.1254 -2.8450 0.9501
-4.9922 11.4176 -2.8442 0.9502
-7.8282 9.6891 -2.8431 0.9502
-8.6585 8.9528 -2.8427 0.9502
-9.4200 8.1458 -2.8424 0.9502
-10.7130 6.3454 -2.8419 0.9502
-12.2915 4.5774 -2.9937 0.9476
-12.9073 2.3254 -2.9934 0.9476
-11.4150 -4.2510 -2.9941 0.9511
-10.9920 -5.2504 -2.9942 0.9511
-9.8884 -7.1172 -2.9947 0.9511
-9.2165 -7.9698 -2.9950 0.9510
-8.4714 -8.7594 -2.9953 0.9510
-6.7857 -10.1249 -2.9959 0.9510
-5.8583 -10.6900 -2.9963 0.9510
-4.8842 -11.1705 -2.9967 0.9510
-1.7602 -12.0690 -2.9980 0.9510
-0.6791 -12.1796 -2.9984 0.9510
0.4077 -12.1935 -2.9988 0.9510
0.7878 -6.3965 -1.5841 0.9738
2.3636 -5.7516 -1.5285 0.9747
7.4610 -9.6675 -3.0017 0.9509
8.2928 -8.9661 -3.0020 0.9509
9.0589 -8.1932 -3.0023 0.9509
9.7531 -7.3551 -3.0026 0.9509
10.9043 -5.5101 -3.0030 0.9509
11.7097 -3.4898 -3.0034 0.9509
12.2165 -0.2722 -3.0036 0.9509
12.1922 0.8162 -3.0035 0.9509
12.0709 1.8981 -3.0035 0.9509
11.8537 2.9649 -3.0034 0.9509
11.5423 4.0080 -3.0033 0.9509
9.5595 6.5622 -2.8501 0.9534
8.9367 7.3864 -2.8498 0.9534
6.6655 9.4819 -2.8489 0.9534
5.7944 10.0363 -2.8485 0.9534
4.8775 10.5108 -2.8482 0.9534
3.9221 10.9017 -2.8478 0.9534
1.9265 11.4212 -2.8470 0.9534
0.9022 11.5457 -2.8466 0.9534
-1.1589 11.5194 -2.8457 0.9534
-2.1792 11.3689 -2.8453 0.9534
-5.1033 10.3849 -2.8442 0.9535
-6.8620 9.3132 -2.8434 0.9535
-8.4027 7.9473 -2.8428 0.9535
-9.0759 7.1671 -2.8426 0.9535
-11.5927 3.7382 -2.9940 0.9511
-11.8790 2.6914 -2.9939 0.9511
-12.1675 0.5426 -2.9937 0.9511
-12.1675 -0.5425 -2.9937 0.9511
-12.0711 -1.6234 -2.9938 0.9511
-11.5928 -3.7381 -2.9940 0.9511
-10.7476 -5.7350 -2.9943 0.9511
-9.5620 -7.5510 -2.9948 0.9511
-8.8528 -8.3729 -2.9951 0.9510
-8.0733 -9.1286 -2.9954 0.9510
-4.3821 -11.3777 -2.9969 0.9510
-3.3525 -11.7243 -2.9973 0.9510
-1.2209 -12.1363 -2.9982 0.9510
-0.1359 -12.1986 -2.9986 0.9510
0.9972 -5.9117 -1.4736 0.9756
1.4625 -5.5824 -1.4185 0.9765
6.1048 -10.5738 -3.0011 0.9510
7.8848 -9.3261 -3.0018 0.9509
10.0714 -6.9136 -3.0027 0.9509
11.1393 -5.0191 -3.0031 0.9509
11.8538 -2.9648 -3.0034 0.9509
12.0710 -1.8980 -3.0035 0.9509
12.1922 -0.8162 -3.0035 0.9509
12.1436 1.3585 -3.0035 0.9509
11.9742 2.4339 -3.0034 0.9509
8.5983 7.7768 -2.8497 0.9534
7.8712 8.5103 -2.8494 0.9534
7.0817 9.1761 -2.8491 0.9534
5.3413 10.2838 -2.8484 0.9534
1.4157 11.4949 -2.8468 0.9534
0.3869 11.5736 -2.8464 0.9534
-0.6446 11.5603 -2.8459 0.9534
-2.6833 11.2597 -2.8451 0.9534
-4.6359 10.6026 -2.8443 0.9535
-6.4407 9.6102 -2.8436 0.9535
-7.2696 8.9977 -2.8433 0.9535
-9.3857 6.7555 -2.8424 0.9535
-9.9489 5.8928 -2.8422 0.9535
-10.4332 4.9836 -2.8420 0.9535
-11.7475 3.2180 -2.9939 0.9511
-11.3627 0.0001 -2.9941 0.9541
-10.6493 -3.9658 -2.9944 0.9541
-10.2546 -4.8982 -2.9945 0.9541
-9.2250 -6.6397 -2.9949 0.9541
-2.6372 -11.0662 -2.9976 0.9540
-0.6335 -11.3615 -2.9984 0.9540
1.3913 -11.2969 -2.9992 0.9540
5.2491 -10.1063 -3.0008 0.9540
6.1285 -9.6001 -3.0011 0.9540
6.9594 -9.0175 -3.0015 0.9540
8.4496 -7.6422 -3.0021 0.9540
9.6723 -6.0240 -3.0025 0.9540
10.5885 -4.2141 -3.0029 0.9540
10.9220 -3.2551 -3.0030 0.9540
11.3946 -0.2539 -3.0032 0.9539
11.3719 0.7613 -3.0032 0.9539
11.2589 1.7704 -3.0032 0.9539
11.0563 2.7654 -3.0031 0.9540
8.9165 6.1209 -2.8498 0.9562
8.3356 6.8896 -2.8496 0.9563
6.9807 8.2568 -2.8490 0.9563
4.5497 9.8043 -2.8480 0.9563
1.7971 10.6538 -2.8469 0.9563
-0.1203 10.8007 -2.8462 0.9563
-1.0810 10.7457 -2.8458 0.9563
-2.9683 10.3810 -2.8450 0.9563
-3.8800 10.0743 -2.8446 0.9563
-6.4015 8.6882 -2.8436 0.9563
-7.1486 8.0831 -2.8433 0.9563
-8.4669 6.6863 -2.8428 0.9564
-9.5169 5.0784 -2.8424 0.9564
-11.0822 2.5109 -2.9942 0.9541
-11.2614 1.5146 -2.9941 0.9541
-11.3514 0.5062 -2.9941 0.9541
-11.3514 -0.5061 -2.9941 0.9541
-10.8152 -3.4874 -2.9943 0.9541
-10.4624 -4.4364 -2.9944 0.9541
-10.0266 -5.3503 -2.9946 0.9541
-8.2588 -7.8111 -2.9953 0.9541
-6.7444 -9.1535 -2.9960 0.9541
-4.0879 -10.6139 -2.9970 0.9540
-2.1418 -11.1734 -2.9978 0.9540
-1.1389 -11.3212 -2.9982 0.9540
0.8867 -11.3469 -2.9990 0.9540
1.0388 -6.1588 -1.6458 0.9745
2.0799 -5.7812 -1.6189 0.9749
4.7934 -10.3295 -3.0006 0.9540
6.5504 -9.3181 -3.0013 0.9540
7.3546 -8.6990 -3.0016 0.9540
8.1004 -8.0106 -3.0019 0.9540
8.7821 -7.2585 -3.0022 0.9540
10.3899 -4.6815 -3.0028 0.9540
10.7659 -3.7383 -3.0030 0.9540
11.2589 -1.7704 -3.0032 0.9539
11.3719 -0.7612 -3.0032 0.9539
11.3946 0.2539 -3.0032 0.9539
11.1687 2.2702 -3.0031 0.9539
10.9219 3.2551 -3.0030 0.9540
9.1807 5.7178 -2.8499 0.9562
8.6347 6.5117 -2.8497 0.9563
8.0201 7.2538 -2.8494 0.9563
6.6056 8.5591 -2.8489 0.9563
5.8169 9.1121 -2.8486 0.9563
4.1081 9.9966 -2.8479 0.9563
3.2017 10.3213 -2.8475 0.9563
2.2700 10.5639 -2.8471 0.9563
-2.5031 10.5036 -2.8452 0.9563
-6.0084 8.9652 -2.8438 0.9563
-7.5012 7.7562 -2.8432 0.9563
-8.7560 6.3022 -2.8427 0.9564
-9.2815 5.4975 -2.8425 0.9564
-10.6492 3.9659 -2.9943 0.9541
-10.2650 -2.8119 -2.9945 0.9567
-9.1588 -5.4247 -2.9950 0.9567
-8.6402 -6.2188 -2.9952 0.9567
-8.0530 -6.9637 -2.9954 0.9567
-7.4019 -7.6535 -2.9957 0.9567
-6.6920 -8.2827 -2.9960 0.9567
-5.9288 -8.8464 -2.9963 0.9567
-5.1185 -9.3400 -2.9966 0.9567
-3.3821 -10.1019 -2.9973 0.9567
-2.4699 -10.3641 -2.9977 0.9567
-1.5378 -10.5441 -2.9980 0.9567
-0.5933 -10.6405 -2.9984 0.9567
1.3030 -10.5798 -2.9992 0.9567
1.8680 -6.0220 -1.7740 0.9741
4.0534 -9.8633 -3.0003 0.9567
5.7392 -8.9904 -3.0010 0.9566
6.5173 -8.4447 -3.0013 0.9566
7.2438 -7.8319 -3.0016 0.9566
7.9128 -7.1567 -3.0018 0.9566
8.5191 -6.4245 -3.0021 0.9566
9.0577 -5.6412 -3.0023 0.9566
9.5245 -4.8129 -3.0025 0.9566
9.9156 -3.9463 -3.0026 0.9566
10.2279 -3.0482 -3.0028 0.9566
10.4589 -2.1258 -3.0029 0.9566
10.6068 -1.1865 -3.0029 0.9566
10.6704 -0.2377 -3.0029 0.9566
8.8276 4.9664 -2.8498 0.9588
8.3500 5.7320 -2.8496 0.9588
7.8061 6.4519 -2.8494 0.9588
6.5372 7.7323 -2.8488 0.9588
5.8225 8.2826 -2.8486 0.9588
2.5647 9.7894 -2.8472 0.9588
1.6830 9.9775 -2.8469 0.9588
0.7882 10.0864 -2.8465 0.9588
-1.9039 9.9325 -2.8454 0.9588
-2.7800 9.7224 -2.8451 0.9589
-3.6339 9.4353 -2.8447 0.9589
-5.2481 8.6395 -2.8441 0.9589
-5.9956 8.1373 -2.8438 0.9589
-7.3419 6.9440 -2.8433 0.9589
-8.4555 5.5314 -2.8428 0.9589
-8.9424 4.7719 -2.8518 0.9588
-10.3798 2.3518 -2.9945 0.9567
-10.5477 1.4186 -2.9944 0.9567
-10.5478 -1.4185 -2.9944 0.9567
-10.3799 -2.3517 -2.9945 0.9567
-10.1297 -3.2664 -2.9946 0.9567
-8.9083 -5.8275 -2.9951 0.9567
-4.6976 -9.5593 -2.9968 0.9567
-3.8286 -9.9406 -2.9971 0.9567
-2.9290 -10.2431 -2.9975 0.9567
-1.0667 -10.6028 -2.9982 0.9567
-0.1187 -10.6570 -2.9986 0.9567
1.7731 -10.5119 -2.9994 0.9567
1.5818 -6.0375 -1.7560 0.9744
3.6097 -10.0335 -3.0001 0.9567
7.5858 -7.5018 -3.0017 0.9566
8.2241 -6.7974 -3.0020 0.9566
8.7971 -6.0389 -3.0022 0.9566
9.7297 -4.3840 -3.0026 0.9566
10.0817 -3.5007 -3.0027 0.9566
10.3537 -2.5896 -3.0028 0.9566
10.5433 -1.6578 -3.0029 0.9566
10.6704 0.2379 -3.0029 0.9566
10.4589 2.1259 -3.0028 0.9566
9.9155 3.9463 -3.0026 0.9566
6.8755 7.4338 -2.8490 0.9588
5.4475 8.5333 -2.8484 0.9588
4.6658 8.9833 -2.8481 0.9588
2.9984 9.6660 -2.8474 0.9588
2.1259 9.8933 -2.8471 0.9588
-2.3443 9.8372 -2.8453 0.9588
-3.2102 9.5883 -2.8449 0.9589
-5.6274 8.3967 -2.8439 0.9589
-6.3518 7.8617 -2.8437 0.9589
-7.6437 6.6098 -2.8431 0.9589
-8.2010 5.9027 -2.8429 0.9589
-8.6932 5.1490 -2.8427 0.9589
-9.6046 4.5878 -2.9948 0.9567
-10.4742 1.8871 -2.9944 0.9567
-10.6004 0.9473 -2.9944 0.9567
-9.9631 -0.8903 -2.9946 0.9591
-9.8445 -1.7735 -2.9947 0.9591
-9.6478 -2.6428 -2.9948 0.9591
-9.3746 -3.4911 -2.9949 0.9591
-8.6080 -5.0985 -2.9952 0.9591
-7.5687 -6.5449 -2.9956 0.9591
-6.2894 -7.7845 -2.9961 0.9591
-5.5721 -8.3142 -2.9964 0.9591
-4.8105 -8.7780 -2.9967 0.9591
-4.0106 -9.1723 -2.9971 0.9591
-1.4453 -9.9094 -2.9981 0.9590
0.3347 -10.0111 -2.9988 0.9590
1.2246 -9.9427 -2.9992 0.9590
2.1049 -9.7954 -2.9995 0.9590
2.9688 -9.5703 -2.9999 0.9590
3.8092 -9.2691 -3.0002 0.9590
5.3935 -8.4487 -3.0008 0.9590
6.1246 -7.9359 -3.0011 0.9590
6.8073 -7.3599 -3.0014 0.9590
9.6113 -2.8644 -3.0025 0.9590
9.8284 -1.9977 -3.0026 0.9590
9.9674 -1.1150 -3.0027 0.9590
10.0271 -0.2234 -3.0027 0.9590
10.0072 0.6700 -3.0027 0.9590
9.9077 1.5579 -3.0026 0.9590
9.7295 2.4335 -3.0025 0.9590
9.1431 4.1197 -3.0023 0.9590
12.3829 6.9665 -4.2536 0.9424
7.8467 5.3865 -2.8494 0.9610
6.7663 6.6913 -2.8489 0.9610
4.7567 8.2389 -2.8481 0.9611
4.0041 8.6286 -2.8478 0.9611
3.2199 8.9498 -2.8475 0.9611
0.7407 9.4791 -2.8465 0.9611
-0.1059 9.5063 -2.8462 0.9611
-1.7893 9.3347 -2.8455 0.9611
-2.6127 9.1373 -2.8452 0.9611
-3.4152 8.8675 -2.8448 0.9611
-4.1905 8.5274 -2.8445 0.9611
-6.2926 7.1152 -2.8437 0.9611
-6.9003 6.5263 -2.8434 0.9611
-7.4533 5.8858 -2.8432 0.9611
-7.9470 5.1987 -2.8430 0.9611
-9.7558 2.2104 -2.9947 0.9591
-9.9928 0.4456 -2.9946 0.9591
-9.2100 -3.9054 -2.9949 0.9591
-7.8524 -6.2010 -2.9955 0.9591
-7.2699 -6.8758 -2.9957 0.9591
-5.9367 -8.0573 -2.9963 0.9591
-5.1965 -8.5546 -2.9966 0.9591
-3.5982 -9.3424 -2.9972 0.9591
-2.7527 -9.6267 -2.9976 0.9591
-1.0025 -9.9646 -2.9983 0.9590
0.7804 -9.9868 -2.9990 0.9590
4.2186 -9.0907 -3.0004 0.9590
5.0115 -8.6801 -3.0007 0.9590
7.1287 -7.0497 -3.0015 0.9590
7.7285 -6.3877 -3.0018 0.9590
9.4740 -3.2897 -3.0025 0.9590
9.9077 -1.5579 -3.0026 0.9590
10.0271 0.2235 -3.0027 0.9590
9.3178 3.7084 -3.0024 0.9590
6.4612 6.9858 -2.8488 0.9610
5.8133 7.5325 -2.8486 0.9611
5.1193 8.0192 -2.8483 0.9611
3.6155 8.7980 -2.8477 0.9611
1.9979 9.2975 -2.8470 0.9611
1.1623 9.4373 -2.8467 0.9611
0.3177 9.5022 -2.8463 0.9611
-1.3718 9.4057 -2.8457 0.9611
-4.5659 8.3318 -2.8444 0.9611
-5.2889 7.8915 -2.8441 0.9611
-6.6030 6.8276 -2.8436 0.9611
-9.0270 4.3119 -2.9950 0.9591
-9.3746 3.4912 -2.9949 0.9591
-9.6477 2.6428 -2.9947 0.9591
-9.8444 1.7736 -2.9947 0.9591
-9.9631 0.8904 -2.9946 0.9591
-9.2809 -1.6720 -2.9949 0.9612
-9.0954 -2.4915 -2.9950 0.9612
-7.6556 -5.5101 -2.9956 0.9612
-7.1353 -6.1701 -2.9958 0.9612
-6.5583 -6.7812 -2.9960 0.9612
-5.9292 -7.3386 -2.9963 0.9612
-3.7808 -8.6469 -2.9971 0.9612
-2.9965 -8.9500 -2.9975 0.9612
-1.3624 -9.3415 -2.9981 0.9612
-0.5256 -9.4268 -2.9985 0.9612
0.3155 -9.4372 -2.9988 0.9611
1.9842 -9.2338 -2.9995 0.9611
2.7985 -9.0215 -2.9998 0.9611
3.5907 -8.7376 -3.0001 0.9611
4.3546 -8.3842 -3.0004 0.9611
5.0841 -7.9641 -3.0007 0.9611
5.7733 -7.4806 -3.0010 0.9611
8.0234 -4.9970 -3.0019 0.9611
8.4367 -4.2633 -3.0020 0.9611
9.0597 -2.7000 -3.0023 0.9611
9.4516 -0.2106 -3.0024 0.9611
9.4328 0.6315 -3.0024 0.9611
9.3391 1.4686 -3.0024 0.9611
9.1711 2.2939 -3.0023 0.9611
8.6184 3.8833 -3.0021 0.9611
11.6723 6.5668 -4.2533 0.9453
6.9147 5.7152 -2.8490 0.9631
5.7909 6.8495 -2.8485 0.9631
5.1578 7.3371 -2.8483 0.9631
1.4910 8.8391 -2.8468 0.9631
0.6982 8.9357 -2.8465 0.9631
-0.8969 8.9159 -2.8459 0.9631
-1.6868 8.7997 -2.8455 0.9631
-2.4630 8.6137 -2.8452 0.9631
-3.2196 8.3595 -2.8449 0.9631
-3.9504 8.0389 -2.8446 0.9631
-4.6498 7.6546 -2.8443 0.9631
-5.3121 7.2097 -2.8441 0.9631
-5.9322 6.7077 -2.8438 0.9631
-7.0265 5.5488 -2.8434 0.9631
-7.4919 4.9010 -2.8432 0.9631
-8.3209 4.4402 -2.9953 0.9612
-8.6826 3.6818 -2.9951 0.9612
-8.9755 2.8942 -2.9950 0.9612
-9.4207 -0.4201 -2.9948 0.9612
-8.6827 -3.6818 -2.9952 0.9612
-8.3210 -4.4401 -2.9953 0.9612
-7.4028 -5.8459 -2.9957 0.9612
-6.8536 -6.4820 -2.9959 0.9612
-6.2500 -7.0669 -2.9961 0.9612
-4.1620 -8.4694 -2.9970 0.9612
-3.3920 -8.8072 -2.9973 0.9612
-2.5950 -9.0751 -2.9976 0.9612
-1.7771 -9.2710 -2.9979 0.9612
-0.9450 -9.3934 -2.9983 0.9612
-0.1052 -9.4414 -2.9986 0.9611
0.7356 -9.4143 -2.9990 0.9611
1.5708 -9.3125 -2.9993 0.9611
2.3937 -9.1367 -2.9996 0.9611
3.9766 -8.5694 -3.0003 0.9611
4.7240 -8.1823 -3.0006 0.9611
5.4341 -7.7300 -3.0008 0.9611
7.2850 -6.0212 -3.0016 0.9611
8.6185 -3.8833 -3.0021 0.9611
9.1711 -2.2938 -3.0023 0.9611
9.4516 0.2107 -3.0024 0.9611
9.2643 1.8831 -3.0024 0.9611
9.0597 2.7001 -3.0023 0.9611
8.7831 3.4956 -3.0022 0.9611
11.9536 6.0404 -4.2534 0.9453
6.6530 6.0173 -2.8489 0.9631
5.4798 7.1004 -2.8484 0.9631
4.8256 7.5592 -2.8482 0.9631
3.4082 8.2934 -2.8476 0.9631
2.6562 8.5629 -2.8473 0.9631
1.8834 8.7644 -2.8470 0.9631
1.0957 8.8962 -2.8467 0.9631
0.2995 8.9575 -2.8463 0.9631
-0.4989 8.9476 -2.8460 0.9631
-1.2932 8.8666 -2.8457 0.9631
-2.0770 8.7154 -2.8454 0.9631
-3.5886 8.2073 -2.8448 0.9631
-4.3044 7.8545 -2.8445 0.9631
-4.9859 7.4395 -2.8442 0.9631
-5.6278 6.9656 -2.8440 0.9631
-6.2249 6.4365 -2.8437 0.9631
-6.7725 5.8565 -2.8435 0.9631
-7.2664 5.2301 -2.8433 0.9631
-8.0098 4.7442 -2.9565 0.9617
-8.5102 4.0650 -2.9952 0.9612
-8.8378 3.2913 -2.9951 0.9612
-9.2808 1.6721 -2.9949 0.9612
-8.9143 0.0000 -2.9951 0.9631
-8.5980 -2.3552 -2.9952 0.9631
-8.3545 -3.1112 -2.9953 0.9631
-8.0448 -3.8426 -2.9954 0.9631
-7.2368 -5.2087 -2.9957 0.9631
-6.1995 -6.4102 -2.9962 0.9631
-4.9655 -7.4090 -2.9967 0.9631
-3.5739 -8.1736 -2.9972 0.9631
-2.8325 -8.4601 -2.9975 0.9631
-1.2878 -8.8301 -2.9981 0.9630
1.8755 -8.7280 -2.9994 0.9630
2.6452 -8.5273 -2.9997 0.9630
4.1161 -7.9248 -3.0003 0.9630
4.8055 -7.5277 -3.0006 0.9630
6.0651 -6.5575 -3.0011 0.9630
7.1327 -5.3789 -3.0015 0.9630
7.9743 -4.0296 -3.0019 0.9630
8.7564 -1.7798 -3.0022 0.9630
8.8802 -0.9933 -3.0022 0.9630
8.9335 -0.1990 -3.0022 0.9630
8.9157 0.5969 -3.0022 0.9630
8.8271 1.3880 -3.0022 0.9630
8.6683 2.1682 -3.0021 0.9630
8.4407 2.9310 -3.0020 0.9630
2.8689 7.9744 -2.8474 0.9649
2.1476 8.1973 -2.8471 0.9649
-0.0944 8.4707 -2.8462 0.9649
-2.3282 8.1422 -2.8453 0.9649
-3.7342 7.5989 -2.8447 0.9649
-4.3953 7.2357 -2.8444 0.9649
-5.6077 6.3407 -2.8440 0.9649
-6.1493 5.8160 -2.8437 0.9649
-7.8657 4.1973 -2.9955 0.9631
-8.2077 3.4804 -2.9953 0.9631
-8.4846 2.7360 -2.9952 0.9631
-8.8349 1.1882 -2.9951 0.9631
-8.9055 -0.3970 -2.9951 0.9631
-8.4846 -2.7359 -2.9952 0.9631
-7.8658 -4.1972 -2.9955 0.9631
-6.9978 -5.5260 -2.9958 0.9631
-6.4786 -6.1274 -2.9960 0.9631
-3.9342 -8.0059 -2.9971 0.9631
-3.2064 -8.3251 -2.9974 0.9631
-2.4529 -8.5783 -2.9977 0.9631
3.0226 -8.4015 -2.9999 0.9630
4.4652 -7.7339 -3.0005 0.9630
5.1363 -7.3064 -3.0007 0.9630
6.3514 -6.2810 -3.0012 0.9630
6.8858 -5.6912 -3.0014 0.9630
7.3654 -5.0561 -3.0016 0.9630
8.1460 -3.6704 -3.0019 0.9630
8.4407 -2.9309 -3.0020 0.9630
8.6684 -2.1681 -3.0021 0.9630
8.8271 -1.3880 -3.0022 0.9630
8.9335 0.1991 -3.0022 0.9630
8.7564 1.7799 -3.0022 0.9630
8.5630 2.5521 -3.0021 0.9630
8.3016 3.3040 -3.0020 0.9630
6.2884 5.6875 -2.8488 0.9649
5.7568 6.2242 -2.8485 0.9649
5.1795 6.7113 -2.8483 0.9649
4.5612 7.1450 -2.8481 0.9649
3.9068 7.5220 -2.8478 0.9649
3.2215 7.8391 -2.8475 0.9649
1.0357 8.4091 -2.8466 0.9649
-0.4716 8.4577 -2.8460 0.9649
-1.2224 8.3812 -2.8457 0.9649
-1.9633 8.2383 -2.8454 0.9649
-3.3922 7.7581 -2.8449 0.9649
-4.0688 7.4247 -2.8446 0.9649
-4.7131 7.0324 -2.8443 0.9649
-8.0447 3.8427 -2.9954 0.9631
-8.3544 3.1113 -2.9953 0.9631
-8.5979 2.3553 -2.9952 0.9631
-8.7732 1.5806 -2.9951 0.9631
-8.4471 0.0000 -2.9952 0.9648
-8.1474 -2.2318 -2.9954 0.9648
-7.9166 -2.9481 -2.9955 0.9648
-6.8574 -4.9356 -2.9959 0.9648
-6.3913 -5.5267 -2.9961 0.9648
-4.0620 -7.4121 -2.9970 0.9648
-3.3864 -7.7449 -2.9973 0.9648
-1.9599 -8.2242 -2.9979 0.9648
-1.2203 -8.3668 -2.9982 0.9648
1.0339 -8.3945 -2.9991 0.9647
3.2159 -7.8254 -3.0000 0.9647
4.5532 -7.1325 -3.0005 0.9647
5.1704 -6.6995 -3.0007 0.9647
6.7581 -5.0965 -3.0014 0.9647
8.2965 -1.6863 -3.0020 0.9647
8.4642 -0.1886 -3.0020 0.9647
8.4474 0.5655 -3.0020 0.9647
7.3776 4.1506 -3.0016 0.9647
6.1925 5.1183 -2.8487 0.9665
5.7120 5.6487 -2.8485 0.9665
4.0157 6.9554 -2.8478 0.9665
2.0349 7.7671 -2.8470 0.9665
1.3354 7.9166 -2.8468 0.9665
-0.0894 8.0263 -2.8462 0.9665
-2.2061 7.7152 -2.8453 0.9665
-2.8837 7.4875 -2.8451 0.9665
-4.1649 6.8563 -2.8445 0.9665
-4.7582 6.4579 -2.8443 0.9665
-5.3137 6.0083 -2.8441 0.9665
-5.8269 5.5111 -2.8439 0.9665
-6.2939 4.9703 -2.8437 0.9665
-7.0702 4.6252 -2.9958 0.9648
-7.7775 3.2980 -2.9955 0.9648
-8.0399 2.5926 -2.9954 0.9648
-8.2386 1.8666 -2.9953 0.9648
-8.4388 0.3763 -2.9952 0.9648
-8.4388 -0.3763 -2.9952 0.9648
-7.7776 -3.2979 -2.9955 0.9648
-6.6310 -5.2364 -2.9960 0.9648
-6.1390 -5.8062 -2.9962 0.9648
-5.0130 -6.8037 -2.9966 0.9648
-3.0382 -7.8885 -2.9974 0.9648
-1.5917 -8.3038 -2.9980 0.9648
-0.8464 -8.4133 -2.9983 0.9647
-0.0942 -8.4561 -2.9986 0.9647
0.6589 -8.4318 -2.9989 0.9647
2.1439 -8.1830 -2.9995 0.9647
4.2308 -7.3279 -3.0004 0.9647
4.8666 -6.9229 -3.0006 0.9647
6.0179 -5.9512 -3.0011 0.9647
7.7182 -3.4776 -3.0018 0.9647
8.3635 -1.3151 -3.0020 0.9647
8.4474 -0.5654 -3.0020 0.9647
8.4642 0.1887 -3.0020 0.9647
8.1133 2.4180 -3.0019 0.9647
5.9582 5.3889 -2.8486 0.9665
5.4545 5.8974 -2.8484 0.9665
4.3218 6.7699 -2.8480 0.9665
2.3790 7.6691 -2.8472 0.9665
1.6868 7.8496 -2.8469 0.9665
0.2682 8.0227 -2.8463 0.9665
-0.4468 8.0139 -2.8460 0.9665
-1.1582 7.9416 -2.8457 0.9665
-1.8603 7.8062 -2.8455 0.9665
-2.5475 7.6089 -2.8452 0.9665
-3.2143 7.3513 -2.8449 0.9665
-4.4660 6.6637 -2.8444 0.9665
-5.0409 6.2393 -2.8442 0.9665
-5.5758 5.7654 -2.8440 0.9665
-8.1473 2.2318 -2.9954 0.9648
-7.9900 -0.7140 -2.9954 0.9663
-7.8948 -1.4223 -2.9955 0.9663
-7.5179 -2.7997 -2.9956 0.9663
-7.2392 -3.4579 -2.9957 0.9663
-6.0694 -5.2484 -2.9962 0.9663
-5.5785 -5.7681 -2.9964 0.9663
-5.0434 -6.2422 -2.9966 0.9663
-4.4681 -6.6668 -2.9969 0.9663
-3.2158 -7.3546 -2.9974 0.9663
-1.8612 -7.8097 -2.9979 0.9663
0.9818 -7.9713 -2.9991 0.9663
2.3800 -7.6723 -2.9996 0.9663
3.0537 -7.4307 -2.9999 0.9663
3.7033 -7.1300 -3.0001 0.9663
4.9096 -6.3615 -3.0006 0.9663
5.4567 -5.8997 -3.0009 0.9663
5.9605 -5.3910 -3.0011 0.9663
6.4171 -4.8393 -3.0012 0.9663
6.8227 -4.2492 -3.0014 0.9663
7.1742 -3.6253 -3.0015 0.9663
7.4687 -2.9724 -3.0017 0.9663
7.8778 -1.6012 -3.0018 0.9663
8.0371 -0.1791 -3.0019 0.9663
8.0211 0.5370 -3.0019 0.9663
7.7985 1.9506 -3.0018 0.9663
9.3887 6.4450 -4.2524 0.9525
8.7773 7.2546 -4.2521 0.9525
4.9245 5.8248 -2.8482 0.9680
4.3862 6.2396 -2.8480 0.9680
3.8132 6.6046 -2.8478 0.9680
3.2099 6.9172 -2.8475 0.9680
2.5813 7.1748 -2.8473 0.9680
1.2680 7.5174 -2.8467 0.9680
0.5938 7.5997 -2.8465 0.9680
-1.4346 7.4844 -2.8456 0.9680
-2.7384 7.1102 -2.8451 0.9680
-4.5185 6.1325 -2.8444 0.9680
-5.5334 5.2335 -2.8440 0.9680
-6.0204 4.7543 -2.8645 0.9678
-6.7141 4.3922 -2.9959 0.9663
-7.0781 3.7770 -2.9958 0.9663
-7.3858 3.1319 -2.9957 0.9663
-8.0138 0.3574 -2.9954 0.9663
-7.9503 -1.0692 -2.9954 0.9663
-7.8237 -1.7726 -2.9955 0.9663
-7.6351 -2.4619 -2.9956 0.9663
-7.3859 -3.1318 -2.9957 0.9663
-7.0781 -3.7770 -2.9958 0.9663
-6.7142 -4.3921 -2.9959 0.9663
-5.3162 -6.0111 -2.9965 0.9663
-4.1668 -6.8595 -2.9970 0.9663
-3.5401 -7.2038 -2.9972 0.9663
-1.5115 -7.8852 -2.9981 0.9663
-0.8037 -7.9893 -2.9983 0.9663
0.6257 -8.0067 -2.9989 0.9663
1.3359 -7.9200 -2.9992 0.9663
2.7195 -7.5590 -2.9998 0.9663
3.3818 -7.2876 -3.0000 0.9663
4.6211 -6.5736 -3.0005 0.9663
5.1883 -6.1367 -3.0007 0.9663
5.7143 -5.6510 -3.0010 0.9663
6.1950 -5.1202 -3.0011 0.9663
7.5938 -2.6368 -3.0017 0.9663
7.7986 -1.9505 -3.0018 0.9663
7.9414 -1.2487 -3.0018 0.9663
8.0211 -0.5369 -3.0019 0.9663
8.0370 0.1791 -3.0019 0.9663
7.9892 0.8937 -3.0018 0.9663
7.8778 1.6013 -3.0018 0.9663
9.0920 6.8567 -4.2523 0.9525
5.1793 5.5998 -2.8483 0.9680
4.6600 6.0382 -2.8481 0.9680
4.1038 6.4284 -2.8479 0.9680
3.5150 6.7676 -2.8476 0.9680
2.8985 7.0530 -2.8474 0.9680
1.6017 7.4538 -2.8469 0.9680
0.9318 7.5661 -2.8466 0.9680
0.2547 7.6182 -2.8463 0.9680
-0.4243 7.6099 -2.8460 0.9680
-1.0999 7.5413 -2.8458 0.9680
-1.7665 7.4127 -2.8455 0.9680
-3.6612 6.6809 -2.8447 0.9680
-5.7609 4.9816 -2.8439 0.9680
-6.5120 4.6871 -2.9960 0.9663
-7.2391 3.4579 -2.9957 0.9663
-7.7370 2.1194 -2.9955 0.9663
-7.6326 0.0000 -2.9956 0.9677
-7.3617 -2.0165 -2.9957 0.9677
-7.1532 -2.6638 -2.9958 0.9677
-6.5680 -3.8902 -2.9960 0.9677
-6.1960 -4.4596 -2.9962 0.9677
-5.7748 -4.9937 -2.9963 0.9677
-5.3078 -5.4882 -2.9965 0.9677
-4.7986 -5.9392 -2.9967 0.9677
-4.2512 -6.3432 -2.9969 0.9677
-3.0597 -6.9976 -2.9974 0.9677
-1.7708 -7.4305 -2.9979 0.9677
-1.1025 -7.5593 -2.9982 0.9677
0.2553 -7.6364 -2.9988 0.9677
2.9053 -7.0697 -2.9998 0.9677
4.1135 -6.4436 -3.0003 0.9677
4.6710 -6.0523 -3.0005 0.9677
5.6709 -5.1289 -3.0009 0.9677
6.1052 -4.6041 -3.0011 0.9677
6.8255 -3.4490 -3.0014 0.9677
7.1056 -2.8280 -3.0015 0.9677
7.3294 -2.1843 -3.0016 0.9677
7.4948 -1.5233 -3.0017 0.9677
7.6311 0.5109 -3.0017 0.9677
7.5553 1.1881 -3.0017 0.9677
7.2246 2.5087 -3.0015 0.9677
6.6649 3.7496 -3.0013 0.9677
8.9323 6.1318 -4.2522 0.9545
8.3507 6.9020 -4.2520 0.9545
5.1602 5.1031 -2.8483 0.9693
4.6852 5.5418 -2.8481 0.9693
4.1731 5.9363 -2.8479 0.9693
3.6279 6.2837 -2.8477 0.9693
3.0540 6.5811 -2.8474 0.9693
1.2064 7.1523 -2.8467 0.9693
-0.0808 7.2515 -2.8462 0.9693
-0.7258 7.2149 -2.8459 0.9693
-1.9932 6.9706 -2.8454 0.9693
-2.6055 6.7650 -2.8452 0.9693
-5.2649 4.9795 -2.8441 0.9693
-6.7346 3.5938 -2.9959 0.9677
-7.0275 2.9800 -2.9958 0.9677
-7.4441 1.6866 -2.9956 0.9677
-7.5645 1.0174 -2.9956 0.9677
-7.6250 0.3401 -2.9956 0.9677
-7.4441 -1.6866 -2.9956 0.9677
-7.2646 -2.3425 -2.9957 0.9677
-5.5468 -5.2461 -2.9964 0.9677
-5.0582 -5.7194 -2.9966 0.9677
-3.3682 -6.8541 -2.9973 0.9677
-2.7450 -7.1272 -2.9976 0.9677
-2.1000 -7.3439 -2.9978 0.9677
-0.7647 -7.6013 -2.9984 0.9677
-0.0851 -7.6399 -2.9986 0.9677
0.5953 -7.6178 -2.9989 0.9677
1.9369 -7.3929 -2.9994 0.9677
2.5874 -7.1918 -2.9997 0.9677
3.2175 -6.9335 -3.0000 0.9677
5.4366 -5.3763 -3.0008 0.9677
6.3044 -4.3277 -3.0012 0.9677
7.2247 -2.5086 -3.0016 0.9677
7.6312 -0.5108 -3.0017 0.9677
7.6463 0.1704 -3.0017 0.9677
7.4948 1.5234 -3.0016 0.9677
7.3293 2.1844 -3.0016 0.9677
6.4911 4.0427 -3.0012 0.9677
8.6501 6.5234 -4.2521 0.9545
8.0347 7.2670 -4.2518 0.9545
3.3442 6.4388 -2.8476 0.9693
2.7576 6.7104 -2.8473 0.9693
1.5239 7.0918 -2.8468 0.9693
0.8866 7.1986 -2.8466 0.9693
-0.4037 7.2404 -2.8461 0.9693
-1.6808 7.0529 -2.8455 0.9693
-2.3016 6.8746 -2.8453 0.9693
-4.0351 6.0209 -2.8446 0.9693
-5.0380 5.2093 -2.8442 0.9693
-6.1960 4.4596 -2.9961 0.9677
-7.3616 2.0166 -2.9957 0.9677
-7.6023 0.6794 -2.9956 0.9677
-7.1599 -1.2899 -2.9958 0.9690
-7.0168 -1.9221 -2.9958 0.9690
-6.8180 -2.5390 -2.9959 0.9690
-6.2603 -3.7079 -2.9961 0.9690
-5.9057 -4.2506 -2.9963 0.9690
-5.0591 -5.2310 -2.9966 0.9690
-4.5737 -5.6609 -2.9968 0.9690
-2.3112 -6.9033 -2.9977 0.9690
-1.6878 -7.0821 -2.9980 0.9690
0.2433 -7.2783 -2.9988 0.9690
0.8903 -7.2284 -2.9990 0.9690
5.8187 -4.3880 -3.0010 0.9690
6.9853 -2.0818 -3.0015 0.9690
7.1430 -1.4519 -3.0015 0.9690
7.2874 -0.1623 -3.0016 0.9690
7.2007 1.1323 -3.0015 0.9690
7.0712 1.7687 -3.0015 0.9690
6.6452 2.9942 -3.0013 0.9690
6.3521 3.5737 -3.0012 0.9690
6.0085 4.1246 -3.0010 0.9690
7.9588 6.5781 -4.2518 0.9563
7.3413 7.2600 -4.2516 0.9563
3.4577 5.9889 -2.8476 0.9705
2.9107 6.2724 -2.8474 0.9705
-1.3010 6.7872 -2.8457 0.9705
-3.5867 5.9045 -2.8448 0.9706
-4.0977 5.5614 -2.8446 0.9706
-4.5761 5.1743 -2.8444 0.9706
-5.0319 4.7592 -2.8520 0.9705
-5.7106 4.5097 -2.9963 0.9690
-6.0890 3.9833 -2.9962 0.9690
-7.2102 0.9697 -2.9957 0.9690
-7.2678 0.3241 -2.9957 0.9690
-7.2102 -0.9696 -2.9957 0.9690
-6.9243 -2.2328 -2.9959 0.9690
-6.6983 -2.8403 -2.9960 0.9690
-6.4191 -3.4253 -2.9961 0.9690
-6.0891 -3.9833 -2.9962 0.9690
-4.8212 -5.4514 -2.9967 0.9690
-4.3171 -5.8592 -2.9969 0.9690
-3.7788 -6.2207 -2.9971 0.9690
-1.3707 -7.1506 -2.9981 0.9690
-0.7288 -7.2448 -2.9984 0.9690
-0.0811 -7.2816 -2.9986 0.9690
1.2114 -7.1819 -2.9991 0.9690
1.8460 -7.0461 -2.9994 0.9690
2.4660 -6.8544 -2.9997 0.9690
3.0666 -6.6083 -2.9999 0.9690
5.1815 -5.1240 -3.0007 0.9690
5.6173 -4.6428 -3.0009 0.9690
6.8856 -2.3909 -3.0014 0.9690
7.0712 -1.7686 -3.0015 0.9690
7.2007 -1.1322 -3.0015 0.9690
7.2729 -0.4868 -3.0016 0.9690
7.2874 0.1624 -3.0016 0.9690
7.1430 1.4519 -3.0015 0.9690
6.5051 3.2872 -3.0012 0.9690
6.1864 3.8530 -3.0011 0.9690
8.2442 6.2173 -4.2519 0.9563
7.6576 6.9259 -4.2517 0.9563
4.6964 5.0777 -2.8481 0.9705
4.2255 5.4752 -2.8479 0.9705
0.8450 6.8610 -2.8466 0.9705
0.2310 6.9084 -2.8463 0.9705
-0.3848 6.9009 -2.8461 0.9705
-4.3412 5.3732 -2.8445 0.9706
-5.4713 4.7312 -2.9785 0.9692
-5.9057 4.2507 -2.9962 0.9690
-6.8180 2.5391 -2.9959 0.9690
-7.1598 1.2900 -2.9958 0.9690
-6.9451 0.0000 -2.9958 0.9702
-6.8352 -1.2314 -2.9959 0.9702
-6.5089 -2.4239 -2.9960 0.9702
-5.9764 -3.5398 -2.9962 0.9702
-4.8296 -4.9938 -2.9967 0.9702
-4.3662 -5.4041 -2.9969 0.9702
-3.3393 -6.0935 -2.9973 0.9702
-2.7839 -6.3670 -2.9975 0.9702
-2.2064 -6.5900 -2.9978 0.9702
-1.6112 -6.7608 -2.9980 0.9702
-1.0031 -6.8779 -2.9983 0.9702
-0.3870 -6.9405 -2.9985 0.9702
0.2323 -6.9480 -2.9988 0.9702
1.4608 -6.7978 -2.9992 0.9702
2.0602 -6.6413 -2.9995 0.9702
2.6433 -6.4321 -2.9997 0.9702
3.7424 -5.8624 -3.0002 0.9702
6.9426 0.4648 -3.0014 0.9701
6.7500 1.6883 -3.0013 0.9701
6.3433 2.8582 -3.0012 0.9701
5.7356 3.9373 -3.0009 0.9701
7.0080 6.9303 -4.2514 0.9580
4.2626 5.0419 -2.8479 0.9716
3.3007 5.7170 -2.8475 0.9717
2.7785 5.9877 -2.8473 0.9717
1.6726 6.3844 -2.8469 0.9717
0.5141 6.5787 -2.8464 0.9717
-0.0735 6.5978 -2.8462 0.9717
-0.6604 6.5645 -2.8460 0.9717
-1.2420 6.4792 -2.8457 0.9717
-1.8136 6.3424 -2.8455 0.9717
-3.9118 5.3092 -2.8446 0.9717
-5.0023 4.7312 -2.9700 0.9705
-5.4516 4.3052 -2.9964 0.9702
-5.8129 3.8027 -2.9963 0.9702
-6.1280 3.2701 -2.9962 0.9702
-6.6103 2.1316 -2.9960 0.9702
-6.7736 1.5347 -2.9959 0.9702
-6.8832 0.9257 -2.9959 0.9702
-6.9383 -0.3094 -2.9958 0.9702
-6.8832 -0.9257 -2.9959 0.9702
-6.6103 -2.1315 -2.9960 0.9702
-6.3945 -2.7115 -2.9961 0.9702
-5.4517 -4.3051 -2.9965 0.9702
-5.0471 -4.7735 -2.9966 0.9702
-4.1213 -5.5935 -2.9970 0.9702
-2.4976 -6.4849 -2.9977 0.9702
-1.3085 -6.8262 -2.9981 0.9702
1.1564 -6.8559 -2.9991 0.9702
2.9273 -6.3083 -2.9998 0.9702
3.4775 -6.0231 -3.0001 0.9702
4.9461 -4.8913 -3.0006 0.9702
5.3622 -4.4319 -3.0008 0.9701
5.7356 -3.9373 -3.0010 0.9701
6.0636 -3.4113 -3.0011 0.9701
6.5728 -2.2823 -3.0013 0.9701
6.7500 -1.6883 -3.0014 0.9701
6.8736 -1.0808 -3.0014 0.9701
6.9564 0.1551 -3.0014 0.9701
6.2096 3.1379 -3.0011 0.9701
5.5544 4.1888 -3.0009 0.9701
7.3099 6.6115 -4.2516 0.9580
6.6921 7.2354 -4.2513 0.9580
4.0336 5.2266 -2.8478 0.9716
3.0426 5.8581 -2.8474 0.9717
2.5090 6.1053 -2.8472 0.9717
0.8067 6.5496 -2.8465 0.9717
0.2205 6.5948 -2.8463 0.9717
-0.9521 6.5283 -2.8458 0.9717
-1.5293 6.4172 -2.8456 0.9717
-2.0942 6.2551 -2.8454 0.9717
-2.6424 6.0435 -2.8452 0.9717
-3.1696 5.7838 -2.8449 0.9717
-3.6715 5.4784 -2.8447 0.9717
-5.2546 4.5438 -2.9965 0.9702
-6.2675 2.9937 -2.9961 0.9702
-6.8352 1.2315 -2.9959 0.9702
-6.9176 0.6182 -2.9959 0.9702
-6.6397 0.0000 -2.9960 0.9713
-6.4040 -1.7542 -2.9961 0.9713
-5.3899 -3.8794 -2.9965 0.9713
-5.0235 -4.3439 -2.9966 0.9713
-4.1742 -5.1664 -2.9970 0.9713
-3.1924 -5.8254 -2.9974 0.9713
-2.1093 -6.3001 -2.9978 0.9713
-1.5403 -6.4633 -2.9980 0.9713
0.2221 -6.6422 -2.9987 0.9713
1.3965 -6.4986 -2.9992 0.9713
1.9695 -6.3489 -2.9994 0.9713
2.5269 -6.1489 -2.9997 0.9712
3.5777 -5.6043 -3.0001 0.9712
4.0625 -5.2639 -3.0003 0.9712
5.6454 -3.5159 -3.0009 0.9712
6.1797 -2.4595 -3.0011 0.9712
6.6103 -0.7395 -3.0013 0.9712
6.6367 0.4443 -3.0013 0.9712
6.5708 1.0332 -3.0013 0.9712
6.2832 2.1818 -3.0012 0.9712
6.0639 2.7323 -3.0011 0.9712
5.7965 3.2611 -3.0010 0.9712
5.1260 4.2367 -3.0007 0.9712
6.6993 6.6251 -4.2513 0.9595
6.0827 7.1946 -4.2511 0.9595
3.1553 5.4653 -2.8475 0.9727
2.6562 5.7240 -2.8473 0.9727
1.5990 6.1033 -2.8469 0.9727
1.0493 6.2210 -2.8466 0.9727
-1.1873 6.1941 -2.8457 0.9727
-1.7338 6.0634 -2.8455 0.9727
-2.2664 5.8846 -2.8453 0.9727
-2.7809 5.6591 -2.8451 0.9727
-3.7397 5.0756 -2.8447 0.9727
-4.1997 4.7487 -2.8604 0.9726
-5.2118 4.1158 -2.9965 0.9713
-6.1133 2.5923 -2.9962 0.9713
-6.3196 2.0378 -2.9961 0.9713
-6.4758 -1.4671 -2.9960 0.9713
-6.3196 -2.0378 -2.9961 0.9713
-6.1133 -2.5922 -2.9962 0.9713
-5.5573 -3.6354 -2.9964 0.9713
-5.2119 -4.1158 -2.9966 0.9713
-4.8251 -4.5636 -2.9967 0.9713
-3.9400 -5.3474 -2.9971 0.9713
-3.4487 -5.6772 -2.9973 0.9713
-2.3878 -6.1996 -2.9977 0.9713
-1.2509 -6.5258 -2.9982 0.9713
0.5178 -6.6259 -2.9989 0.9713
1.1055 -6.5541 -2.9991 0.9713
1.6846 -6.4302 -2.9993 0.9713
2.2504 -6.2552 -2.9996 0.9712
3.3243 -5.7579 -3.0000 0.9712
3.8239 -5.4395 -3.0002 0.9712
4.2931 -5.0779 -3.0004 0.9712
4.7283 -4.6759 -3.0006 0.9712
5.7965 -3.2610 -3.0010 0.9712
6.2833 -2.1817 -3.0012 0.9712
6.4527 -1.6139 -3.0012 0.9712
6.6499 0.1482 -3.0013 0.9712
6.6103 0.7395 -3.0013 0.9712
6.5182 1.3249 -3.0013 0.9712
6.3743 1.8998 -3.0012 0.9712
6.1797 2.4595 -3.0011 0.9712
5.9361 2.9997 -3.0010 0.9712
5.3097 4.0043 -3.0008 0.9712
6.9879 6.3202 -4.2514 0.9595
3.3958 5.3195 -2.8476 0.9727
2.9087 5.6002 -2.8474 0.9727
1.8694 6.0263 -2.8470 0.9727
0.7711 6.2613 -2.8465 0.9727
0.2108 6.3046 -2.8463 0.9727
-0.3512 6.2978 -2.8461 0.9727
-3.5100 5.2373 -2.8448 0.9727
-3.9683 4.9113 -2.8489 0.9727
-4.5743 4.7299 -2.9690 0.9715
-5.0235 4.3440 -2.9966 0.9713
-5.3899 3.8795 -2.9965 0.9713
-5.9918 2.8621 -2.9962 0.9713
-6.4040 1.7543 -2.9961 0.9713
-6.5346 1.1773 -2.9960 0.9713
-6.6134 0.5910 -2.9960 0.9713
-6.1304 -1.6792 -2.9962 0.9723
-5.7358 -2.7397 -2.9963 0.9723
-5.4694 -3.2395 -2.9964 0.9723
-4.8088 -4.1583 -2.9967 0.9723
-4.4198 -4.5700 -2.9969 0.9723
-3.5399 -5.2819 -2.9972 0.9723
-2.0191 -6.0307 -2.9978 0.9723
-1.4744 -6.1869 -2.9981 0.9723
-0.3541 -6.3513 -2.9985 0.9723
2.4188 -5.8859 -2.9996 0.9723
2.9333 -5.6476 -2.9998 0.9723
3.4246 -5.3645 -3.0000 0.9722
4.3220 -4.6728 -3.0004 0.9722
4.7210 -4.2698 -3.0005 0.9722
5.4037 -3.3654 -3.0008 0.9722
5.6821 -2.8712 -3.0009 0.9722
5.9152 -2.3542 -3.0010 0.9722
6.1015 -1.8184 -3.0011 0.9722
6.2392 -1.2681 -3.0012 0.9722
6.3274 -0.7078 -3.0012 0.9722
6.3653 -0.1418 -3.0012 0.9722
6.3527 0.4253 -3.0012 0.9722
6.1764 1.5449 -3.0011 0.9722
5.8044 2.6154 -3.0010 0.9722
4.9066 4.0554 -3.0006 0.9722
6.4126 6.3416 -4.2512 0.9609
5.8224 6.8868 -4.2510 0.9609
3.4742 4.9422 -2.8476 0.9736
2.5426 5.4791 -2.8472 0.9736
2.0447 5.6832 -2.8470 0.9736
1.5306 5.8423 -2.8468 0.9736
0.4704 6.0202 -2.8464 0.9737
-2.1695 5.6329 -2.8453 0.9737
-2.6620 5.4171 -2.8452 0.9737
-3.1334 5.1584 -2.8450 0.9737
-3.5799 4.8587 -2.8448 0.9737
-4.9891 3.9399 -2.9966 0.9723
-5.3197 3.4801 -2.9965 0.9723
-6.0495 1.9508 -2.9962 0.9723
-6.1990 1.4046 -2.9961 0.9723
-6.2994 0.8472 -2.9961 0.9723
-6.2994 -0.8471 -2.9961 0.9723
-6.1990 -1.4045 -2.9961 0.9723
-6.0496 -1.9507 -2.9962 0.9723
-5.6082 -2.9926 -2.9964 0.9723
-5.3198 -3.4800 -2.9965 0.9723
-3.7716 -5.1188 -2.9971 0.9723
-3.3012 -5.4345 -2.9973 0.9723
-2.2857 -5.9346 -2.9977 0.9723
-0.6367 -6.3289 -2.9984 0.9723
-0.0709 -6.3610 -2.9986 0.9723
0.4956 -6.3425 -2.9989 0.9723
1.0583 -6.2737 -2.9991 0.9723
1.6126 -6.1551 -2.9993 0.9723
2.1542 -5.9876 -2.9995 0.9723
3.1821 -5.5115 -2.9999 0.9722
4.9066 -4.0554 -3.0006 0.9722
5.5484 -3.1214 -3.0009 0.9722
6.0143 -2.0884 -3.0011 0.9722
6.1765 -1.5448 -3.0011 0.9722
6.1014 1.8184 -3.0011 0.9722
5.9152 2.3542 -3.0010 0.9722
5.6820 2.8713 -3.0009 0.9722
5.0825 3.8330 -3.0007 0.9722
6.6889 6.0497 -4.2513 0.9609
6.1236 6.6208 -4.2511 0.9609
3.2505 5.0919 -2.8475 0.9736
2.2959 5.5868 -2.8471 0.9736
1.2688 5.9045 -2.8467 0.9736
-0.8713 5.9742 -2.8459 0.9737
-3.3600 5.0135 -2.8449 0.9737
-3.8333 4.7446 -2.8752 0.9734
-4.4198 4.5701 -2.9968 0.9723
-4.8088 4.1583 -2.9967 0.9723
-5.1595 3.7137 -2.9966 0.9723
-5.7358 2.7398 -2.9963 0.9723
-5.9567 2.2183 -2.9962 0.9723
-6.3308 0.5657 -2.9961 0.9723
-6.0916 0.0000 -2.9962 0.9732
-5.9952 -1.0800 -2.9962 0.9732
-5.8754 -1.6094 -2.9963 0.9732
-5.7089 -2.1260 -2.9963 0.9732
-4.9449 -3.5591 -2.9967 0.9732
-4.2359 -4.3798 -2.9969 0.9732
-0.8798 -6.0320 -2.9983 0.9732
-0.3394 -6.0869 -2.9985 0.9732
0.2037 -6.0934 -2.9987 0.9732
1.2811 -5.9615 -2.9992 0.9732
1.8067 -5.8243 -2.9994 0.9732
3.7267 -4.8288 -3.0002 0.9732
5.1786 -3.2252 -3.0007 0.9732
5.6688 -2.2561 -3.0009 0.9732
5.8472 -1.7426 -3.0010 0.9732
5.9792 -1.2153 -3.0010 0.9732
6.0637 -0.6783 -3.0011 0.9732
5.7637 2.0014 -3.0010 0.9732
5.0297 3.4527 -3.0007 0.9732
4.7022 3.8865 -3.0005 0.9732
5.5799 6.5999 -4.2509 0.9622
2.8946 5.0136 -2.8474 0.9745
2.4367 5.2509 -2.8472 0.9745
0.4508 5.7696 -2.8464 0.9745
-0.5792 5.7572 -2.8460 0.9745
-1.5905 5.5625 -2.8456 0.9745
-2.5512 5.1917 -2.8452 0.9745
-3.0030 4.9437 -2.8450 0.9745
-4.0367 4.5644 -2.9970 0.9732
-4.7815 3.7760 -2.9967 0.9732
-5.0984 3.3353 -2.9966 0.9732
-5.3748 2.8681 -2.9965 0.9732
-5.6086 2.3783 -2.9964 0.9732
-5.7979 1.8696 -2.9963 0.9732
-5.9411 1.3461 -2.9962 0.9732
-6.0373 0.8120 -2.9962 0.9732
-6.0856 0.2714 -2.9962 0.9732
-5.9412 -1.3460 -2.9963 0.9732
-5.6086 -2.3782 -2.9964 0.9732
-4.4267 -4.1867 -2.9969 0.9732
-4.0367 -4.5643 -2.9970 0.9732
-3.6146 -4.9058 -2.9972 0.9732
-0.6102 -6.0655 -2.9984 0.9732
0.4750 -6.0785 -2.9988 0.9732
2.0645 -5.7382 -2.9995 0.9732
2.5672 -5.5321 -2.9997 0.9732
3.9382 -4.6581 -3.0002 0.9732
5.5626 -2.5063 -3.0009 0.9732
5.9191 -1.4804 -3.0010 0.9732
6.0275 -0.9477 -3.0011 0.9732
6.0879 -0.4075 -3.0011 0.9732
6.1001 0.1360 -3.0011 0.9732
6.0637 0.6784 -3.0011 0.9732
5.9792 1.2154 -3.0010 0.9732
5.6688 2.2562 -3.0009 0.9732
5.4453 2.7516 -3.0008 0.9732
5.1786 3.2253 -3.0007 0.9732
4.8708 3.6732 -3.0006 0.9732
5.8685 6.3450 -4.2510 0.9622
2.6683 5.1373 -2.8473 0.9745
0.1934 5.7837 -2.8463 0.9745
-0.3221 5.7775 -2.8461 0.9745
-0.8350 5.7255 -2.8459 0.9745
-1.3412 5.6280 -2.8457 0.9745
-1.8367 5.4860 -2.8455 0.9745
-2.3175 5.3003 -2.8453 0.9745
-2.7799 5.0727 -2.8451 0.9745
-3.8166 4.7238 -2.9870 0.9733
-5.2418 3.1047 -2.9965 0.9732
-5.9952 1.0801 -2.9962 0.9732
-5.8445 0.0000 -2.9963 0.9741
-5.8213 -0.5202 -2.9963 0.9741
-5.7520 -1.0362 -2.9963 0.9741
-5.2741 -2.5192 -2.9965 0.9741
-5.0292 -2.9787 -2.9966 0.9741
-4.0640 -4.2021 -2.9970 0.9741
-3.6741 -4.5474 -2.9972 0.9741
-3.2549 -4.8566 -2.9973 0.9741
-1.8565 -5.5451 -2.9979 0.9741
-1.3557 -5.6887 -2.9981 0.9741
-0.8440 -5.7872 -2.9983 0.9741
-0.3256 -5.8397 -2.9985 0.9741
0.1955 -5.8459 -2.9987 0.9741
0.7150 -5.8057 -2.9989 0.9740
2.6970 -5.1925 -2.9997 0.9740
3.5753 -4.6327 -3.0001 0.9740
4.6729 -3.5240 -3.0005 0.9740
5.2241 -2.6398 -3.0007 0.9740
5.4384 -2.1644 -3.0008 0.9740
5.6096 -1.6718 -3.0009 0.9740
5.7363 -1.1659 -3.0009 0.9740
5.8173 -0.6507 -3.0010 0.9740
5.8522 -0.1304 -3.0010 0.9740
5.8406 0.3910 -3.0010 0.9740
5.6786 1.4204 -3.0009 0.9740
5.5295 1.9201 -3.0009 0.9740
4.8253 3.3124 -3.0006 0.9740
4.1612 4.1151 -3.0003 0.9740
5.3532 6.3318 -4.2508 0.9634
2.7770 4.8099 -2.8473 0.9753
1.8799 5.2254 -2.8470 0.9753
0.9236 5.4752 -2.8466 0.9754
0.4325 5.5353 -2.8464 0.9754
-0.5557 5.5235 -2.8460 0.9754
-1.9948 5.1794 -2.8454 0.9754
-2.8873 4.7532 -2.8512 0.9753
-4.5875 3.6227 -2.9968 0.9741
-4.8915 3.2000 -2.9967 0.9741
-5.5626 1.7937 -2.9964 0.9741
-5.7001 1.2915 -2.9963 0.9741
-5.7001 -1.2914 -2.9963 0.9741
-5.3811 -2.2817 -2.9965 0.9741
-4.8916 -3.1999 -2.9967 0.9741
-4.5875 -3.6227 -2.9968 0.9741
-3.4679 -4.7067 -2.9973 0.9741
-3.0354 -4.9970 -2.9974 0.9741
-2.1016 -5.4567 -2.9978 0.9741
-1.6077 -5.6225 -2.9980 0.9741
-1.1010 -5.7436 -2.9982 0.9741
0.9730 -5.7683 -2.9990 0.9740
1.9806 -5.5052 -2.9995 0.9740
2.4629 -5.3074 -2.9996 0.9740
4.5112 -3.7286 -3.0005 0.9740
4.8253 -3.3124 -3.0006 0.9740
5.1012 -2.8699 -3.0007 0.9740
5.3366 -2.4045 -3.0008 0.9740
5.5295 -1.9201 -3.0009 0.9740
5.7825 -0.9092 -3.0010 0.9740
5.6096 1.6719 -3.0009 0.9740
5.4384 2.1645 -3.0008 0.9740
5.2240 2.6399 -3.0007 0.9740
4.9682 3.0943 -3.0006 0.9740
5.6301 6.0872 -4.2509 0.9634
5.0657 6.5638 -4.2507 0.9634
0.6787 5.5107 -2.8465 0.9754
-1.2868 5.3996 -2.8457 0.9754
-2.2234 5.0852 -2.8453 0.9754
-3.1725 4.7337 -2.9215 0.9747
-3.6740 4.5474 -2.9971 0.9741
-4.0640 4.2022 -2.9970 0.9741
-4.4217 3.8236 -2.9968 0.9741
-5.0291 2.9788 -2.9966 0.9741
-5.7519 1.0363 -2.9963 0.9741
-5.5240 -0.9951 -2.9964 0.9749
-5.2602 -1.9589 -2.9965 0.9749
-5.0651 -2.4194 -2.9966 0.9749
-4.8298 -2.8607 -2.9967 0.9749
-4.2464 -3.6720 -2.9969 0.9749
-3.5284 -4.3671 -2.9972 0.9749
-3.1259 -4.6641 -2.9974 0.9749
-2.2496 -5.1450 -2.9977 0.9749
-1.7829 -5.3252 -2.9979 0.9749
0.6867 -5.5754 -2.9989 0.9748
2.1357 -5.1969 -2.9995 0.9748
2.5900 -4.9865 -2.9997 0.9748
3.0237 -4.7365 -2.9999 0.9748
4.1683 -3.7699 -3.0003 0.9748
4.4875 -3.3841 -3.0005 0.9748
5.3870 -1.6055 -3.0008 0.9748
5.5086 -1.1196 -3.0009 0.9748
5.5864 -0.6249 -3.0009 0.9748
5.6199 -0.1252 -3.0009 0.9748
5.6087 0.3755 -3.0009 0.9748
5.1247 2.3091 -3.0007 0.9748
4.8987 2.7560 -3.0006 0.9748
3.9961 3.9518 -3.0002 0.9748
5.1408 6.0806 -4.2507 0.9645
4.5789 6.5136 -4.2505 0.9645
2.2450 4.8378 -2.8471 0.9761
1.8054 5.0181 -2.8469 0.9761
-0.0594 5.3312 -2.8462 0.9761
-0.5336 5.3045 -2.8460 0.9761
-1.0036 5.2355 -2.8458 0.9761
-2.3508 4.7835 -2.8453 0.9761
-4.0787 3.8577 -2.9970 0.9749
-5.1678 2.1914 -2.9966 0.9749
