ply
format ascii 1.0
element vertex 1588
property float32 x
property float32 y
property float32 z
property float32 I
end_header
2.7184 -5.2339 0.9391 0.9764
3.3259 -5.2100 0.9843 0.9753
12.5740 7.0740 2.2973 0.9432
-10.8392 7.0907 2.0625 0.9489
2.9988 -5.1941 0.9550 0.9760
1.4466 -6.7319 0.9794 0.9726
1.7912 -5.7743 0.8599 0.9759
2.2125 -5.3839 0.8279 0.9768
1.9972 -5.5514 0.8392 0.9764
3.6861 -5.2435 0.9117 0.9744
1.4010 -6.5197 0.8357 0.9735
2.1951 -5.3414 0.7237 0.9770
2.6695 -5.1396 0.7258 0.9769
3.2441 -5.0818 0.7555 0.9760
4.2670 -5.5289 0.8752 0.9722
1.9796 -5.5025 0.7328 0.9767
2.1834 -5.3131 0.6231 0.9772
12.5708 7.0722 1.5645 0.9436
1.5604 -5.9560 0.6678 0.9755
1.9686 -5.4717 0.6307 0.9769
2.4093 -5.1920 0.6208 0.9772
2.9216 -5.0604 0.6338 0.9768
3.5883 -5.1044 0.6768 0.9752
1.7494 -5.6395 0.5413 0.9766
2.6411 -5.0850 0.5253 0.9772
3.2006 -5.0138 0.5453 0.9764
4.0683 -5.2714 0.6105 0.9736
12.5697 7.0716 1.3222 0.9437
1.5483 -5.9097 0.5601 0.9758
1.9577 -5.4414 0.5302 0.9770
2.3968 -5.1649 0.5220 0.9774
3.5573 -5.0604 0.5671 0.9755
1.3477 -6.2717 0.4807 0.9746
1.7385 -5.6044 0.4397 0.9767
2.1607 -5.2578 0.4260 0.9775
12.5686 7.0710 1.0807 0.9438
1.9469 -5.4115 0.4310 0.9772
2.3843 -5.1381 0.4245 0.9775
2.8883 -5.0027 0.4329 0.9771
3.5294 -5.0206 0.4599 0.9757
1.3351 -6.2130 0.3701 0.9749
2.1544 -5.2423 0.3301 0.9775
2.6192 -5.0429 0.3310 0.9775
3.1654 -4.9585 0.3426 0.9767
3.9672 -5.1404 0.3782 0.9743
12.5676 7.0704 0.8399 0.9439
-10.8344 7.0875 0.7541 0.9494
1.5278 -5.8314 0.3511 0.9761
1.9405 -5.3938 0.3339 0.9773
2.3775 -5.1233 0.3290 0.9776
2.1508 -5.2337 0.2353 0.9776
3.1593 -4.9490 0.2441 0.9768
3.9512 -5.1197 0.2689 0.9744
12.5666 7.0698 0.5995 0.9439
1.5246 -5.8194 0.2501 0.9762
1.9371 -5.3844 0.2379 0.9774
2.3736 -5.1149 0.2345 0.9777
2.1473 -5.2251 0.1409 0.9777
2.6105 -5.0261 0.1412 0.9776
12.5655 7.0692 0.3595 0.9439
-10.8328 7.0865 0.3228 0.9495
1.1936 -7.0759 0.1790 0.9717
1.5215 -5.8076 0.1497 0.9763
2.8679 -4.9674 0.1430 0.9773
1.7213 -5.5490 0.0483 0.9770
2.1437 -5.2165 0.0469 0.9777
-10.8320 7.0860 0.1076 0.9495
1.1670 -6.9186 0.0583 0.9723
1.9304 -5.3657 0.0474 0.9774
2.3658 -5.0981 0.0467 0.9778
2.8628 -4.9585 0.0476 0.9774
3.4881 -4.9619 0.0504 0.9760
1.3222 -6.1530 -0.0523 0.9751
1.7214 -5.5492 -0.0483 0.9770
2.6062 -5.0178 -0.0470 0.9776
3.1478 -4.9309 -0.0486 0.9769
1.1671 -6.9191 -0.0583 0.9723
1.5185 -5.7960 -0.0498 0.9763
2.3658 -5.0982 -0.0467 0.9778
3.4881 -4.9619 -0.0504 0.9760
1.3261 -6.1710 -0.1574 0.9751
1.7247 -5.5600 -0.1452 0.9770
2.6105 -5.0261 -0.1412 0.9776
3.9354 -5.0993 -0.1606 0.9746
-10.8304 7.0849 -0.3228 0.9495
1.1936 -7.0763 -0.1790 0.9717
1.5215 -5.8077 -0.1497 0.9763
2.3697 -5.1065 -0.1404 0.9777
2.8679 -4.9674 -0.1430 0.9773
3.4957 -4.9726 -0.1516 0.9760
1.3305 -6.1918 -0.2633 0.9750
1.7281 -5.5709 -0.2425 0.9769
2.6149 -5.0345 -0.2359 0.9775
3.1593 -4.9490 -0.2441 0.9768
3.9513 -5.1198 -0.2689 0.9744
1.9371 -5.3844 -0.2379 0.9774
1.3350 -6.2127 -0.3701 0.9749
1.7315 -5.5818 -0.3404 0.9769
2.6192 -5.0429 -0.3310 0.9775
3.9673 -5.1406 -0.3782 0.9743
12.5603 7.0663 -0.8394 0.9439
-10.8288 7.0839 -0.7537 0.9495
1.9405 -5.3937 -0.3339 0.9773
2.3774 -5.1233 -0.3290 0.9776
1.3478 -6.2720 -0.4807 0.9746
3.1795 -4.9806 -0.4428 0.9766
-10.8280 7.0834 -0.9696 0.9494
1.9469 -5.4116 -0.4310 0.9772
1.7494 -5.6396 -0.5413 0.9766
3.2007 -5.0138 -0.5453 0.9764
12.5582 7.0651 -1.3210 0.9438
1.5483 -5.9098 -0.5601 0.9758
2.3968 -5.1649 -0.5220 0.9774
3.5574 -5.0605 -0.5671 0.9755
1.3778 -6.4118 -0.7113 0.9740
1.7604 -5.6752 -0.6445 0.9764
2.1835 -5.3132 -0.6231 0.9772
12.5571 7.0645 -1.5628 0.9437
-10.8264 7.0823 -1.4032 0.9493
1.5604 -5.9560 -0.6678 0.9755
2.4093 -5.1920 -0.6208 0.9772
2.9216 -5.0604 -0.6338 0.9768
1.4011 -6.5202 -0.8357 0.9735
2.1951 -5.3414 -0.7237 0.9770
-10.8256 7.0818 -1.6211 0.9492
1.5740 -6.0078 -0.7783 0.9753
1.9796 -5.5025 -0.7328 0.9767
3.6257 -5.1576 -0.7901 0.9749
1.7913 -5.7745 -0.8599 0.9759
2.6913 -5.1818 -0.8305 0.9767
3.2836 -5.1437 -0.8680 0.9756
-10.8248 7.0813 -1.8399 0.9491
2.4411 -5.2604 -0.8249 0.9768
1.8128 -5.8439 -0.9743 0.9755
2.2346 -5.4376 -0.9361 0.9765
12.4220 6.9885 -2.2696 0.9439
1.6216 -6.1896 -1.0189 0.9744
2.9989 -5.1942 -0.9551 0.9760
-10.7128 7.0080 -2.2572 0.9493
1.6522 -6.3064 -1.1495 0.9739
2.0400 -5.6702 -1.0625 0.9758
2.4900 -5.3658 -1.0431 0.9763
3.8563 -5.4857 -1.1824 0.9731
2.2867 -5.5645 -1.1642 0.9758
2.7834 -5.3589 -1.1686 0.9757
12.3777 6.9636 -2.7484 0.9438
7.3616 12.7507 -2.8492 0.9418
4.9826 13.8493 -2.8483 0.9418
2.4472 14.5081 -2.8472 0.9418
-0.1638 14.7068 -2.8462 0.9418
-2.7678 14.4394 -2.8451 0.9419
-9.7303 11.0023 -2.8423 0.9419
-10.6728 6.9818 -2.4680 0.9494
-12.9523 6.9116 -2.8410 0.9419
-13.5150 5.7309 -2.8408 0.9419
2.0705 -5.7552 -1.1836 0.9754
4.1241 -5.8666 -1.3877 0.9712
8.9975 11.6585 -2.8499 0.9418
7.9230 12.4111 -2.8494 0.9418
5.5951 13.6148 -2.8485 0.9418
3.0914 14.3860 -2.8475 0.9418
1.7983 14.6014 -2.8470 0.9418
-0.8187 14.6835 -2.8459 0.9418
-3.4080 14.3004 -2.8449 0.9419
-9.2312 11.4256 -2.8425 0.9419
-10.2101 10.5572 -2.8421 0.9419
-11.9173 8.5776 -2.8415 0.9419
-12.6321 7.4821 -2.8412 0.9419
-13.7564 5.1229 -2.8407 0.9419
-14.1966 0.0000 -2.9929 0.9436
-14.1403 -1.2636 -2.9929 0.9436
-13.6931 -3.7509 -2.9931 0.9436
-12.2180 -7.2367 -2.9937 0.9436
-11.5264 -8.2962 -2.9940 0.9436
-10.7434 -9.2902 -2.9943 0.9436
-6.8293 -12.4620 -2.9959 0.9436
-5.6939 -13.0223 -2.9963 0.9436
-3.2959 -13.8300 -2.9973 0.9435
-2.0522 -14.0708 -2.9978 0.9435
-0.7918 -14.2000 -2.9983 0.9435
0.4753 -14.2166 -2.9988 0.9435
2.8319 -5.4523 -1.2953 0.9752
3.5403 -5.5458 -1.3871 0.9735
9.6705 -10.4556 -3.0025 0.9434
10.5639 -9.5546 -3.0029 0.9434
12.0931 -7.5317 -3.0035 0.9434
12.7165 -6.4260 -3.0037 0.9434
13.2390 -5.2690 -3.0040 0.9434
13.9648 -2.8385 -3.0043 0.9434
14.2190 0.9518 -3.0044 0.9434
14.0776 2.2136 -3.0043 0.9434
13.8243 3.4577 -3.0042 0.9434
11.1482 7.6528 -2.8507 0.9462
10.4218 8.6138 -2.8504 0.9462
9.6126 9.5062 -2.8501 0.9462
2.2463 13.3171 -2.8472 0.9463
-1.3511 13.4305 -2.8457 0.9463
-2.5407 13.2548 -2.8452 0.9463
-3.7098 12.9738 -2.8448 0.9463
-4.8490 12.5901 -2.8443 0.9463
-7.9994 10.8569 -2.8430 0.9464
-10.5796 8.3546 -2.8420 0.9464
-10.6369 6.9583 -2.6797 0.9494
-11.8911 6.3453 -2.8415 0.9464
-12.4077 5.2613 -2.8413 0.9464
-13.5128 4.3573 -2.9932 0.9436
-13.8463 3.1372 -2.9931 0.9436
-14.1825 -0.6324 -2.9929 0.9436
-13.8463 -3.1372 -2.9931 0.9436
-13.5127 -4.3573 -2.9932 0.9436
-13.0720 -5.5430 -2.9934 0.9436
-12.5277 -6.6850 -2.9936 0.9436
-11.1460 -8.8019 -2.9941 0.9436
-9.4110 -10.6412 -2.9948 0.9436
-7.3772 -12.1445 -2.9956 0.9436
-3.9084 -13.6683 -2.9970 0.9435
-2.6767 -13.9643 -2.9975 0.9435
-1.4234 -14.1495 -2.9980 0.9435
-0.1585 -14.2224 -2.9986 0.9435
1.1082 -14.1825 -2.9991 0.9435
2.3666 -14.0299 -2.9996 0.9435
2.1085 -5.8607 -1.3131 0.9749
8.1889 -11.6489 -3.0019 0.9435
9.1945 -10.8753 -3.0023 0.9434
10.9797 -9.0750 -3.0030 0.9434
11.7450 -8.0625 -3.0034 0.9434
12.4172 -6.9858 -3.0036 0.9434
12.9907 -5.8533 -3.0039 0.9434
13.8242 -3.4577 -3.0042 0.9434
14.0776 -2.2136 -3.0043 0.9434
14.2190 -0.9519 -3.0044 0.9434
14.2474 0.3175 -3.0044 0.9434
13.9648 2.8385 -3.0043 0.9434
12.5662 5.0013 -2.8513 0.9462
12.0703 6.0994 -2.8511 0.9462
10.0272 9.0690 -2.8503 0.9462
8.2583 10.7005 -2.8496 0.9462
7.2721 11.3915 -2.8492 0.9463
1.6507 13.4028 -2.8469 0.9463
0.4512 13.4942 -2.8464 0.9463
-1.9479 13.3559 -2.8455 0.9463
-3.1284 13.1273 -2.8450 0.9463
-4.2837 12.7947 -2.8445 0.9463
-5.4046 12.3607 -2.8441 0.9463
-6.4823 11.8288 -2.8436 0.9464
-7.5083 11.2032 -2.8432 0.9464
-9.3733 9.6919 -2.8425 0.9464
-10.9407 7.8747 -2.8418 0.9464
-11.5971 6.8690 -2.8416 0.9464
-13.6931 3.7509 -2.9931 0.9436
-13.9721 2.5172 -2.9930 0.9436
-14.1404 1.2636 -2.9929 0.9436
-13.1148 0.0000 -2.9934 0.9476
-13.0628 -1.1673 -2.9934 0.9476
-12.2915 -4.5774 -2.9937 0.9476
-11.2867 -6.6851 -2.9941 0.9476
-10.6478 -7.6638 -2.9943 0.9476
-9.9244 -8.5820 -2.9946 0.9476
-5.2596 -12.0289 -2.9965 0.9476
-4.1687 -12.4512 -2.9969 0.9476
-0.7314 -13.1162 -2.9983 0.9475
0.4390 -13.1312 -2.9988 0.9475
1.6063 -13.0421 -2.9993 0.9475
2.7612 -12.8494 -2.9997 0.9475
1.9965 -6.4362 -1.5381 0.9727
2.3701 -5.7674 -1.4232 0.9747
2.8859 -5.5564 -1.4291 0.9746
3.7771 -5.9167 -1.6022 0.9716
11.1686 -6.9559 -3.0031 0.9474
11.7443 -5.9346 -3.0034 0.9474
12.2267 -4.8661 -3.0036 0.9474
12.8969 -2.6214 -3.0038 0.9474
13.0011 2.0443 -3.0039 0.9474
12.7671 3.1933 -3.0038 0.9474
10.8851 6.1239 -2.8506 0.9500
9.6251 7.9554 -2.8501 0.9501
8.0603 9.5338 -2.8495 0.9501
4.2241 11.7410 -2.8480 0.9501
3.1618 12.0686 -2.8475 0.9501
2.0748 12.3002 -2.8471 0.9501
0.9716 12.4341 -2.8466 0.9501
-0.1389 12.4693 -2.8462 0.9501
-1.2480 12.4054 -2.8458 0.9501
-3.4267 11.9839 -2.8449 0.9501
-4.4791 11.6296 -2.8445 0.9502
-6.4683 10.6482 -2.8437 0.9502
-8.2517 9.3303 -2.8429 0.9502
-9.0483 8.5579 -2.8426 0.9502
-9.7731 7.7177 -2.8423 0.9502
-12.9980 1.7481 -2.9934 0.9476
-12.9979 -1.7480 -2.9934 0.9476
-12.7911 -2.8981 -2.9935 0.9476
-12.4829 -4.0252 -2.9936 0.9476
-12.0758 -5.1206 -2.9938 0.9476
-11.5729 -6.1755 -2.9940 0.9476
-10.9781 -7.1816 -2.9942 0.9476
-10.2963 -8.1309 -2.9945 0.9476
-9.5327 -9.0160 -2.9948 0.9476
-8.6934 -9.8298 -2.9951 0.9476
-6.8145 -11.2182 -2.9959 0.9476
-5.7898 -11.7818 -2.9963 0.9476
-2.4725 -12.8986 -2.9976 0.9475
2.1858 -12.9586 -2.9995 0.9475
3.3311 -12.7146 -3.0000 0.9475
2.1610 -6.0067 -1.4570 0.9741
2.6103 -5.6250 -1.4154 0.9749
7.5632 -10.7588 -3.0017 0.9475
8.4918 -10.0442 -3.0020 0.9475
9.3532 -9.2496 -3.0024 0.9475
13.1317 -0.8790 -3.0039 0.9474
13.0794 1.4631 -3.0039 0.9474
12.8969 2.6214 -3.0038 0.9474
10.6010 6.6024 -2.8505 0.9501
8.4775 9.1658 -2.8497 0.9501
7.6272 9.8828 -2.8493 0.9501
5.7525 11.0756 -2.8486 0.9501
3.6966 11.9166 -2.8477 0.9501
2.6209 12.1965 -2.8473 0.9501
0.4167 12.4640 -2.8464 0.9501
-1.7992 12.3366 -2.8455 0.9501
-2.8897 12.1256 -2.8451 0.9501
-4.9923 11.4177 -2.8442 0.9502
-5.9879 10.9265 -2.8438 0.9502
-7.8283 9.6892 -2.8431 0.9502
-10.1067 7.2744 -2.8422 0.9502
-12.2916 4.5774 -2.9937 0.9476
-12.6496 3.4651 -2.9936 0.9476
-12.9073 2.3254 -2.9934 0.9476
-11.9869 -2.1595 -2.9938 0.9511
-11.7475 -3.2179 -2.9939 0.9511
-11.4149 -4.2510 -2.9940 0.9511
-10.9919 -5.2504 -2.9942 0.9511
-9.8883 -7.1172 -2.9946 0.9511
-8.4713 -8.7593 -2.9952 0.9510
-4.8841 -11.1704 -2.9967 0.9510
-1.7602 -12.0689 -2.9979 0.9510
1.4915 -12.1104 -2.9992 0.9510
3.6162 -11.6574 -3.0001 0.9510
2.4467 -5.9538 -1.5822 0.9738
2.9828 -5.7430 -1.5907 0.9737
8.2927 -8.9660 -3.0020 0.9509
10.9042 -5.5101 -3.0030 0.9509
11.3520 -4.5180 -3.0032 0.9509
11.7097 -3.4899 -3.0033 0.9509
12.1436 -1.3585 -3.0035 0.9509
12.0710 1.8981 -3.0035 0.9509
11.8538 2.9649 -3.0034 0.9509
10.1065 5.6858 -2.8503 0.9534
9.5596 6.5623 -2.8501 0.9534
8.9368 7.3864 -2.8498 0.9534
7.4840 8.8521 -2.8493 0.9534
6.6656 9.4820 -2.8489 0.9534
5.7945 10.0364 -2.8486 0.9534
4.8776 10.5110 -2.8482 0.9534
3.9222 10.9019 -2.8478 0.9534
-0.1290 11.5786 -2.8462 0.9534
-2.1793 11.3690 -2.8454 0.9534
-6.8621 9.3133 -2.8435 0.9535
-7.6629 8.6646 -2.8432 0.9535
-9.0760 7.1672 -2.8426 0.9535
-9.6770 6.3304 -2.8424 0.9535
-10.2013 5.4436 -2.8421 0.9535
-11.2134 4.7549 -2.9938 0.9511
-11.5927 3.7382 -2.9940 0.9511
-11.8790 2.6914 -2.9939 0.9511
-12.1675 0.5425 -2.9937 0.9511
-12.0711 -1.6234 -2.9938 0.9511
-10.7475 -5.7350 -2.9943 0.9511
-9.5619 -7.5509 -2.9948 0.9511
-7.2294 -9.8119 -2.9957 0.9510
-3.3524 -11.7241 -2.9973 0.9510
-1.2209 -12.1362 -2.9981 0.9510
-0.1359 -12.1985 -2.9986 0.9510
0.9505 -12.1639 -2.9990 0.9510
3.0930 -11.8061 -2.9999 0.9510
3.3599 -5.8196 -1.6517 0.9727
7.0225 -9.9896 -3.0014 0.9509
8.6843 -8.5881 -3.0021 0.9509
10.0713 -6.9136 -3.0027 0.9509
11.1392 -5.0191 -3.0031 0.9509
11.5423 -4.0079 -3.0033 0.9509
11.8538 -2.9648 -3.0034 0.9509
12.1922 -0.8162 -3.0035 0.9509
12.2165 0.2722 -3.0036 0.9509
12.1437 1.3585 -3.0035 0.9509
11.7097 3.4899 -3.0034 0.9509
10.3501 5.2302 -2.8504 0.9534
7.8713 8.5104 -2.8494 0.9534
7.0818 9.1762 -2.8491 0.9534
6.2363 9.7689 -2.8488 0.9534
5.3413 10.2839 -2.8484 0.9534
3.4324 11.0650 -2.8476 0.9534
-0.6446 11.5606 -2.8460 0.9534
-1.6708 11.4556 -2.8456 0.9534
-4.6360 10.6028 -2.8444 0.9535
-6.4408 9.6103 -2.8437 0.9535
-7.2697 8.9979 -2.8433 0.9535
-8.0409 8.3142 -2.8430 0.9535
-8.7481 7.5648 -2.8427 0.9535
-9.9490 5.8929 -2.8422 0.9535
-10.4333 4.9836 -2.8420 0.9535
-11.4150 4.2510 -2.9940 0.9511
-11.7475 3.2180 -2.9939 0.9511
-11.9869 2.1596 -2.9938 0.9511
-11.3627 0.0000 -2.9941 0.9541
-11.3176 -1.0113 -2.9941 0.9541
-11.1829 -2.0147 -2.9941 0.9541
-10.2545 -4.8982 -2.9945 0.9541
-9.7785 -5.7918 -2.9947 0.9541
-9.2249 -6.6397 -2.9949 0.9541
-8.5980 -7.4350 -2.9952 0.9541
-7.1449 -8.8434 -2.9957 0.9541
-2.6372 -11.0660 -2.9976 0.9540
-0.6335 -11.3614 -2.9984 0.9540
0.3803 -11.3742 -2.9988 0.9540
1.3913 -11.2967 -2.9992 0.9540
3.1581 -6.0805 -1.8054 0.9721
7.7351 -8.3631 -3.0017 0.9540
9.0970 -6.8604 -3.0023 0.9540
9.6723 -6.0239 -3.0025 0.9540
10.5884 -4.2141 -3.0029 0.9540
11.3267 -1.2671 -3.0032 0.9539
11.3720 0.7613 -3.0032 0.9539
11.2589 1.7704 -3.0032 0.9539
10.7659 3.7383 -3.0030 0.9540
8.3357 6.8897 -2.8496 0.9563
7.6887 7.6036 -2.8493 0.9563
6.9808 8.2569 -2.8491 0.9563
6.2175 8.8445 -2.8488 0.9563
4.5497 9.8045 -2.8481 0.9563
0.8416 10.7702 -2.8466 0.9563
-0.1203 10.8009 -2.8462 0.9563
-1.0810 10.7458 -2.8458 0.9563
-2.0329 10.6055 -2.8454 0.9563
-3.8801 10.0744 -2.8447 0.9563
-4.7608 9.6879 -2.8443 0.9563
-5.6035 9.2246 -2.8440 0.9563
-6.4015 8.6883 -2.8437 0.9563
-7.8390 7.4141 -2.8431 0.9563
-8.4670 6.6863 -2.8428 0.9564
-9.0278 5.9057 -2.8426 0.9564
-10.4623 4.4364 -2.9944 0.9541
-10.8152 3.4874 -2.9943 0.9541
-11.0822 2.5109 -2.9942 0.9541
-11.2614 1.5145 -2.9941 0.9541
-11.3514 0.5062 -2.9941 0.9541
-10.8151 -3.4874 -2.9943 0.9541
-10.4623 -4.4364 -2.9944 0.9541
-9.5111 -6.2219 -2.9948 0.9541
-8.9203 -7.0443 -2.9950 0.9541
-8.2587 -7.8110 -2.9953 0.9541
-5.9035 -9.7184 -2.9962 0.9541
-2.1417 -11.1733 -2.9978 0.9540
-1.1389 -11.3211 -2.9982 0.9540
1.8933 -11.2243 -2.9994 0.9540
3.8544 -10.7136 -3.0002 0.9540
5.6943 -9.8629 -3.0009 0.9540
10.3899 -4.6815 -3.0028 0.9540
11.0563 -2.7654 -3.0031 0.9540
11.3946 0.2539 -3.0032 0.9539
11.3267 1.2671 -3.0032 0.9539
10.9220 3.2551 -3.0030 0.9540
9.6539 4.8783 -2.8501 0.9562
6.6057 8.5592 -2.8489 0.9563
5.8170 9.1121 -2.8486 0.9563
4.1082 9.9968 -2.8479 0.9563
3.2017 10.3214 -2.8475 0.9563
1.3206 10.7227 -2.8468 0.9563
0.3610 10.7962 -2.8464 0.9563
-3.4277 10.2379 -2.8449 0.9563
-4.3247 9.8909 -2.8445 0.9563
-8.7561 6.3023 -2.8427 0.9564
-9.2816 5.4975 -2.8425 0.9564
-10.6493 3.9659 -2.9944 0.9541
-10.9595 3.0021 -2.9942 0.9541
-10.6004 -0.9472 -2.9944 0.9567
-10.4742 -1.8870 -2.9944 0.9567
-10.2649 -2.8119 -2.9945 0.9567
-9.6046 -4.5877 -2.9948 0.9567
-6.6919 -8.2826 -2.9959 0.9567
-5.9287 -8.8463 -2.9962 0.9567
-3.3821 -10.1018 -2.9973 0.9567
-1.5378 -10.5440 -2.9980 0.9567
3.1590 -10.1836 -2.9999 0.9567
4.9157 -9.4643 -3.0006 0.9567
5.7392 -8.9903 -3.0009 0.9566
6.5172 -8.4446 -3.0012 0.9566
7.2437 -7.8318 -3.0015 0.9566
9.0577 -5.6412 -3.0023 0.9566
10.4589 -2.1259 -3.0028 0.9566
10.6068 -1.1866 -3.0029 0.9566
10.6492 0.7129 -3.0029 0.9566
10.3537 2.5897 -3.0028 0.9566
8.3500 5.7320 -2.8496 0.9588
7.8061 6.4519 -2.8494 0.9588
5.0617 8.7671 -2.8483 0.9588
3.4263 9.5235 -2.8476 0.9588
2.5647 9.7895 -2.8473 0.9588
0.7882 10.0866 -2.8466 0.9588
-0.1127 10.1154 -2.8462 0.9588
-1.0124 10.0639 -2.8458 0.9588
-3.6340 9.4354 -2.8448 0.9589
-5.2481 8.6396 -2.8441 0.9589
-8.4555 5.5314 -2.8428 0.9589
-8.9496 4.7756 -2.8541 0.9587
-9.7992 4.1552 -2.9947 0.9567
-10.5477 1.4186 -2.9944 0.9567
-10.6320 0.4741 -2.9944 0.9567
-10.5477 -1.4185 -2.9944 0.9567
-10.1297 -3.2664 -2.9946 0.9567
-9.7992 -4.1552 -2.9947 0.9567
-9.3910 -5.0112 -2.9948 0.9567
-8.9082 -5.8275 -2.9950 0.9567
-7.7351 -7.3158 -2.9955 0.9567
-6.3166 -8.5729 -2.9961 0.9567
-5.5291 -9.1021 -2.9964 0.9567
-2.9289 -10.2430 -2.9974 0.9567
-2.0059 -10.4644 -2.9978 0.9567
-0.1187 -10.6569 -2.9986 0.9567
2.7020 -10.3135 -2.9997 0.9567
5.3327 -9.2365 -3.0008 0.9566
6.1343 -8.7261 -3.0011 0.9566
6.8873 -8.1463 -3.0014 0.9566
7.5857 -7.5017 -3.0017 0.9566
8.2240 -6.7973 -3.0019 0.9566
9.3003 -5.2323 -3.0024 0.9566
9.7296 -4.3839 -3.0025 0.9566
10.0817 -3.5007 -3.0027 0.9566
10.6492 -0.7129 -3.0029 0.9566
10.6704 0.2378 -3.0029 0.9566
10.6068 1.1866 -3.0029 0.9566
10.4589 2.1259 -3.0029 0.9566
8.5974 5.3545 -2.8497 0.9588
7.5107 6.7930 -2.8493 0.9588
6.8756 7.4338 -2.8490 0.9588
5.4475 8.5334 -2.8484 0.9588
2.9985 9.6661 -2.8475 0.9588
0.3381 10.1111 -2.8464 0.9588
-0.5632 10.0997 -2.8460 0.9588
-2.3444 9.8374 -2.8453 0.9588
-3.2102 9.5885 -2.8450 0.9589
-4.8583 8.8653 -2.8443 0.9589
-7.6437 6.6098 -2.8432 0.9589
-8.2010 5.9028 -2.8429 0.9589
-9.9743 3.7145 -2.9946 0.9567
-10.4742 1.8870 -2.9944 0.9567
-9.6477 -2.6428 -2.9947 0.9591
-9.3746 -3.4911 -2.9949 0.9591
-9.0271 -4.3118 -2.9950 0.9591
-7.5686 -6.5448 -2.9956 0.9591
-6.9566 -7.1931 -2.9958 0.9591
-6.2893 -7.7844 -2.9961 0.9591
-5.5721 -8.3141 -2.9964 0.9591
-4.0105 -9.1722 -2.9970 0.9591
-3.1786 -9.4939 -2.9973 0.9591
-2.3212 -9.7402 -2.9977 0.9591
-0.5576 -9.9998 -2.9984 0.9590
1.2245 -9.9426 -2.9991 0.9590
2.9687 -9.5702 -2.9998 0.9590
6.1246 -7.9358 -3.0011 0.9590
7.4359 -6.7254 -3.0016 0.9590
8.5117 -5.3011 -3.0021 0.9590
8.9503 -4.5228 -3.0022 0.9590
9.9674 -1.1150 -3.0026 0.9590
7.8468 5.3865 -2.8494 0.9610
7.3357 6.0631 -2.8492 0.9610
6.7664 6.6914 -2.8490 0.9610
6.1434 7.2665 -2.8487 0.9610
5.4718 7.7837 -2.8485 0.9611
4.7568 8.2390 -2.8482 0.9611
3.2199 8.9499 -2.8475 0.9611
1.5817 9.3768 -2.8469 0.9611
0.7407 9.4793 -2.8466 0.9611
-0.1059 9.5064 -2.8462 0.9611
-3.4153 8.8676 -2.8449 0.9611
-4.1905 8.5275 -2.8446 0.9611
-6.2927 7.1153 -2.8437 0.9611
-6.9004 6.5264 -2.8435 0.9611
-7.9471 5.1987 -2.8430 0.9611
-8.8263 4.7099 -2.9951 0.9591
-9.5206 3.0700 -2.9948 0.9591
-9.7558 2.2104 -2.9947 0.9591
-9.9136 1.3332 -2.9946 0.9591
-9.9928 0.4456 -2.9946 0.9591
-9.9928 -0.4456 -2.9946 0.9591
-8.8262 -4.7098 -2.9951 0.9591
-8.3725 -5.4771 -2.9953 0.9591
-7.2698 -6.8758 -2.9957 0.9591
-3.5981 -9.3423 -2.9972 0.9591
-2.7526 -9.6266 -2.9975 0.9591
-1.0024 -9.9645 -2.9982 0.9590
-0.1116 -10.0153 -2.9986 0.9590
4.2185 -9.0907 -3.0003 0.9590
7.7284 -6.3877 -3.0017 0.9590
8.7397 -4.9169 -3.0021 0.9590
9.1432 -4.1197 -3.0023 0.9590
9.4740 -3.2897 -3.0024 0.9590
9.7295 -2.4335 -3.0026 0.9590
10.0072 -0.6699 -3.0027 0.9590
10.0271 0.2235 -3.0027 0.9590
9.9674 1.1150 -3.0027 0.9590
9.8284 1.9977 -3.0026 0.9590
9.6113 2.8645 -3.0025 0.9590
9.3179 3.7084 -3.0024 0.9590
12.6814 6.4082 -4.2538 0.9424
8.0792 5.0318 -2.8495 0.9610
7.0580 6.3836 -2.8491 0.9610
6.4613 6.9859 -2.8489 0.9610
5.1193 8.0193 -2.8483 0.9611
4.3848 8.4423 -2.8480 0.9611
2.8179 9.0839 -2.8474 0.9611
0.3177 9.5023 -2.8464 0.9611
-3.8067 8.7062 -2.8447 0.9611
-4.5660 8.3319 -2.8444 0.9611
-5.2889 7.8917 -2.8441 0.9611
-7.1840 6.2123 -2.8434 0.9611
-7.7078 5.5478 -2.8431 0.9611
-8.1705 4.8394 -2.8430 0.9611
-9.6478 2.6428 -2.9948 0.9591
-9.8444 1.7736 -2.9947 0.9591
-9.9631 0.8903 -2.9946 0.9591
-9.4301 0.0000 -2.9948 0.9612
-9.3927 -0.8393 -2.9949 0.9612
-9.0954 -2.4915 -2.9950 0.9612
-8.8378 -3.2912 -2.9951 0.9612
-8.5102 -4.0650 -2.9952 0.9612
-6.5582 -6.7812 -2.9960 0.9612
-5.9291 -7.3386 -2.9962 0.9612
-1.3624 -9.3414 -2.9981 0.9612
1.1543 -9.3726 -2.9991 0.9611
1.9842 -9.2337 -2.9994 0.9611
2.7985 -9.0214 -2.9997 0.9611
3.5907 -8.7375 -3.0001 0.9611
4.3546 -8.3841 -3.0004 0.9611
5.0840 -7.9640 -3.0007 0.9611
6.4167 -6.9376 -3.0012 0.9611
7.0093 -6.3395 -3.0014 0.9611
7.5462 -5.6909 -3.0017 0.9611
8.0233 -4.9970 -3.0019 0.9611
8.4367 -4.2632 -3.0020 0.9611
8.7831 -3.4956 -3.0022 0.9611
9.3953 -1.0510 -3.0024 0.9611
9.4516 -0.2106 -3.0024 0.9611
9.3391 1.4685 -3.0024 0.9611
9.1711 2.2938 -3.0023 0.9611
8.6185 3.8833 -3.0021 0.9611
6.3782 6.3075 -2.8488 0.9631
5.7910 6.8496 -2.8486 0.9631
5.1579 7.3371 -2.8483 0.9631
3.7745 8.1339 -2.8478 0.9631
3.0353 8.4366 -2.8475 0.9631
2.2721 8.6724 -2.8472 0.9631
1.4910 8.8392 -2.8469 0.9631
-0.0998 8.9615 -2.8462 0.9631
-0.8970 8.9161 -2.8459 0.9631
-1.6868 8.7999 -2.8456 0.9631
-2.4631 8.6138 -2.8453 0.9631
-3.9505 8.0390 -2.8447 0.9631
-6.5052 6.1526 -2.8436 0.9631
-7.0265 5.5488 -2.8434 0.9631
-7.4920 4.9010 -2.8432 0.9631
-9.1973 2.0838 -2.9949 0.9612
-9.3460 1.2569 -2.9949 0.9612
-9.4207 -0.4200 -2.9948 0.9612
-9.1972 -2.0838 -2.9949 0.9612
-8.3209 -4.4402 -2.9953 0.9612
-7.4027 -5.8458 -2.9956 0.9612
-6.2499 -7.0669 -2.9961 0.9612
-4.1620 -8.4693 -2.9969 0.9612
-3.3920 -8.8071 -2.9973 0.9612
-2.5949 -9.0750 -2.9976 0.9612
-1.7771 -9.2709 -2.9979 0.9612
-0.9450 -9.3934 -2.9982 0.9612
-0.1052 -9.4413 -2.9986 0.9611
1.5708 -9.3124 -2.9993 0.9611
4.7240 -8.1821 -3.0005 0.9611
5.4340 -7.7300 -3.0008 0.9611
6.7196 -6.6452 -3.0013 0.9611
7.7925 -5.3492 -3.0018 0.9611
8.9303 -3.1009 -3.0022 0.9611
9.3391 -1.4685 -3.0024 0.9611
9.4329 -0.6315 -3.0024 0.9611
9.4517 0.2106 -3.0024 0.9611
9.2643 1.8831 -3.0024 0.9611
9.0597 2.7001 -3.0023 0.9611
8.7831 3.4956 -3.0022 0.9611
11.9536 6.0404 -4.2535 0.9453
11.3679 7.0800 -4.2532 0.9453
6.0906 6.5851 -2.8487 0.9631
5.4799 7.1004 -2.8485 0.9631
4.8257 7.5593 -2.8482 0.9631
2.6563 8.5630 -2.8473 0.9631
1.0957 8.8963 -2.8467 0.9631
0.2995 8.9576 -2.8464 0.9631
-0.4989 8.9477 -2.8461 0.9631
-2.0770 8.7155 -2.8454 0.9631
-2.8442 8.4951 -2.8451 0.9631
-5.6278 6.9657 -2.8440 0.9631
-6.7726 5.8565 -2.8435 0.9631
-7.2665 5.2301 -2.8433 0.9631
-8.5102 4.0650 -2.9952 0.9612
-9.0954 2.4915 -2.9950 0.9612
-9.2808 1.6720 -2.9949 0.9612
-9.3927 0.8393 -2.9949 0.9612
-8.9143 0.0000 -2.9950 0.9631
-8.8790 -0.7934 -2.9951 0.9631
-8.3545 -3.1112 -2.9953 0.9631
-8.0447 -3.8426 -2.9954 0.9631
-7.6711 -4.5437 -2.9955 0.9631
-6.7448 -5.8325 -2.9959 0.9631
-6.1994 -6.4101 -2.9961 0.9631
-5.6047 -6.9371 -2.9964 0.9631
-3.5738 -8.1735 -2.9972 0.9631
-2.0684 -8.6794 -2.9978 0.9630
-1.2878 -8.8300 -2.9981 0.9630
0.2982 -8.9203 -2.9987 0.9630
1.0911 -8.8593 -2.9991 0.9630
1.8755 -8.7280 -2.9994 0.9630
4.1160 -7.9247 -3.0003 0.9630
6.0650 -6.5575 -3.0011 0.9630
7.1326 -5.3790 -3.0015 0.9630
8.3016 -3.3040 -3.0020 0.9630
8.5630 -2.5521 -3.0021 0.9630
8.9157 0.5969 -3.0022 0.9630
8.1460 3.6704 -3.0019 0.9630
10.4358 7.1637 -4.2529 0.9480
6.5358 5.4020 -2.8489 0.9649
2.8690 7.9745 -2.8474 0.9649
2.1476 8.1974 -2.8471 0.9649
1.4093 8.3551 -2.8468 0.9649
0.6600 8.4465 -2.8465 0.9649
-0.0944 8.4708 -2.8462 0.9649
-2.3282 8.1423 -2.8453 0.9649
-3.0434 7.9020 -2.8450 0.9649
-3.7343 7.5990 -2.8447 0.9649
-4.3954 7.2358 -2.8445 0.9649
-5.6077 6.3407 -2.8440 0.9649
-7.2681 4.7546 -2.9180 0.9640
-7.8658 4.1973 -2.9955 0.9631
-8.2078 3.4804 -2.9953 0.9631
-8.9055 -0.3971 -2.9951 0.9631
-8.8349 -1.1882 -2.9951 0.9631
-8.6942 -1.9698 -2.9951 0.9631
-8.4846 -2.7359 -2.9952 0.9631
-8.2077 -3.4804 -2.9953 0.9631
-6.9977 -5.5261 -2.9958 0.9631
-5.9079 -6.6802 -2.9962 0.9631
-5.2903 -7.1801 -2.9965 0.9631
-4.6307 -7.6231 -2.9968 0.9631
-3.9342 -8.0058 -2.9970 0.9631
-1.6798 -8.7634 -2.9979 0.9630
-0.0994 -8.9243 -2.9986 0.9630
0.6954 -8.8987 -2.9989 0.9630
1.4848 -8.8024 -2.9992 0.9630
4.4652 -7.7339 -3.0004 0.9630
5.1363 -7.3064 -3.0007 0.9630
5.7667 -6.8209 -3.0009 0.9630
6.8857 -5.6912 -3.0014 0.9630
8.6683 -2.1681 -3.0021 0.9630
8.8271 -1.3880 -3.0022 0.9630
8.8802 0.9934 -3.0022 0.9630
8.7564 1.7798 -3.0022 0.9630
6.7702 5.1056 -2.8490 0.9649
6.2884 5.6875 -2.8488 0.9649
5.1796 6.7114 -2.8483 0.9649
3.9069 7.5221 -2.8478 0.9649
3.2215 7.8392 -2.8475 0.9649
1.0357 8.4092 -2.8467 0.9649
0.2831 8.4670 -2.8464 0.9649
-0.4716 8.4577 -2.8461 0.9649
-1.9633 8.2384 -2.8455 0.9649
-2.6885 8.0301 -2.8452 0.9649
-3.3922 7.7582 -2.8449 0.9649
-5.3199 6.5845 -2.8441 0.9649
-5.8844 6.0844 -2.8439 0.9649
-6.4021 5.5361 -2.8437 0.9649
-7.6712 4.5437 -2.9956 0.9631
-8.0447 3.8427 -2.9954 0.9631
-8.3545 3.1112 -2.9953 0.9631
-8.5979 2.3552 -2.9952 0.9631
-8.7732 1.5806 -2.9951 0.9631
-8.8790 0.7934 -2.9951 0.9631
-8.4471 -0.0000 -2.9952 0.9648
-8.1473 -2.2318 -2.9954 0.9648
-7.9166 -2.9481 -2.9954 0.9648
-7.6231 -3.6412 -2.9956 0.9648
-7.2691 -4.3055 -2.9957 0.9648
-2.6839 -8.0163 -2.9975 0.9648
-1.9599 -8.2242 -2.9978 0.9648
1.0339 -8.3945 -2.9990 0.9647
1.7771 -8.2699 -2.9993 0.9647
2.5064 -8.0797 -2.9996 0.9647
5.7466 -6.2131 -3.0009 0.9647
6.7581 -5.0965 -3.0014 0.9647
8.1133 -2.4180 -3.0019 0.9647
8.2965 -1.6863 -3.0020 0.9647
8.4138 -0.9412 -3.0020 0.9647
8.4642 -0.1886 -3.0020 0.9647
8.4474 0.5655 -3.0020 0.9647
8.3635 1.3151 -3.0020 0.9647
7.9974 2.7770 -3.0019 0.9647
7.7182 3.4777 -3.0018 0.9647
9.8877 6.7876 -4.2526 0.9504
6.1926 5.1183 -2.8487 0.9665
5.7121 5.6488 -2.8485 0.9665
4.6193 6.5710 -2.8481 0.9665
4.0158 6.9555 -2.8479 0.9665
2.7184 7.5559 -2.8473 0.9665
-0.0894 8.0264 -2.8462 0.9665
-1.5108 7.8818 -2.8456 0.9665
-4.7582 6.4579 -2.8443 0.9665
-5.3137 6.0083 -2.8441 0.9665
-5.8270 5.5111 -2.8439 0.9665
-6.2939 4.9703 -2.8437 0.9665
-7.0703 4.6252 -2.9958 0.9648
-7.4535 3.9773 -2.9956 0.9648
-7.7776 3.2980 -2.9955 0.9648
-8.3719 1.1259 -2.9953 0.9648
-8.4388 0.3763 -2.9952 0.9648
-8.4388 -0.3762 -2.9952 0.9648
-8.3718 -1.1259 -2.9953 0.9648
-8.0399 -2.5926 -2.9954 0.9648
-7.7775 -3.2979 -2.9955 0.9648
-7.0702 -4.6251 -2.9958 0.9648
-3.7279 -7.5860 -2.9971 0.9648
-1.5917 -8.3037 -2.9980 0.9648
2.1438 -8.1829 -2.9995 0.9647
3.5614 -7.6746 -3.0001 0.9647
6.9786 -4.7905 -3.0014 0.9647
7.7182 -3.4777 -3.0017 0.9647
8.2130 -2.0542 -3.0019 0.9647
8.2965 1.6863 -3.0020 0.9647
8.1133 2.4180 -3.0019 0.9647
5.9582 5.3889 -2.8486 0.9665
5.4546 5.8974 -2.8484 0.9665
4.9076 6.3590 -2.8482 0.9665
4.3218 6.7700 -2.8480 0.9665
3.7018 7.1272 -2.8477 0.9665
3.0524 7.4277 -2.8475 0.9665
2.3790 7.6692 -2.8472 0.9665
0.9813 7.9679 -2.8466 0.9665
-0.4469 8.0140 -2.8461 0.9665
-1.1583 7.9416 -2.8458 0.9665
-2.5475 7.6090 -2.8452 0.9665
-3.2143 7.3513 -2.8450 0.9665
-7.6231 3.6412 -2.9956 0.9648
-8.4136 0.7518 -2.9953 0.9648
-8.0217 0.0000 -2.9954 0.9663
-7.8948 -1.4223 -2.9955 0.9663
-6.9029 -4.0886 -2.9959 0.9663
-6.5120 -4.6870 -2.9960 0.9663
-5.5785 -5.7681 -2.9964 0.9663
-5.0433 -6.2421 -2.9966 0.9663
-4.4680 -6.6668 -2.9968 0.9663
-3.8572 -7.0386 -2.9971 0.9663
-3.2157 -7.3546 -2.9973 0.9663
-2.5486 -7.6123 -2.9976 0.9663
-1.8611 -7.8096 -2.9979 0.9663
-0.4470 -8.0174 -2.9984 0.9663
0.2683 -8.0262 -2.9987 0.9663
1.6875 -7.8529 -2.9993 0.9663
3.7032 -7.1300 -3.0001 0.9663
4.3235 -6.7727 -3.0004 0.9663
4.9095 -6.3615 -3.0006 0.9663
5.9605 -5.3910 -3.0010 0.9663
6.8227 -4.2492 -3.0014 0.9663
7.1742 -3.6253 -3.0015 0.9663
7.7038 -2.2960 -3.0017 0.9663
8.0371 -0.1791 -3.0019 0.9663
8.0211 0.5369 -3.0019 0.9663
7.9414 1.2487 -3.0018 0.9663
7.0054 3.9412 -3.0015 0.9663
8.7774 7.2547 -4.2522 0.9525
2.5813 7.1749 -2.8473 0.9680
1.9323 7.3755 -2.8470 0.9680
1.2680 7.5175 -2.8468 0.9680
0.5939 7.5997 -2.8465 0.9680
-0.7629 7.5832 -2.8459 0.9680
-1.4347 7.4845 -2.8457 0.9680
-2.0949 7.3264 -2.8454 0.9680
-4.5185 6.1326 -2.8444 0.9680
-5.0460 5.7056 -2.8442 0.9680
-6.0269 4.7594 -2.8676 0.9677
-6.7142 4.3922 -2.9959 0.9663
-7.8237 1.7726 -2.9955 0.9663
-7.9503 1.0692 -2.9954 0.9663
-8.0138 -0.3574 -2.9954 0.9663
-7.8237 -1.7726 -2.9955 0.9663
-7.6350 -2.4620 -2.9956 0.9663
-7.0781 -3.7770 -2.9958 0.9663
-6.2969 -4.9726 -2.9961 0.9663
-5.8297 -5.5137 -2.9963 0.9663
-5.3162 -6.0111 -2.9965 0.9663
-4.1668 -6.8595 -2.9969 0.9663
-3.5400 -7.2037 -2.9972 0.9663
-2.8851 -7.4909 -2.9975 0.9663
-2.2071 -7.7186 -2.9977 0.9663
-1.5115 -7.8852 -2.9980 0.9663
-0.8037 -7.9892 -2.9983 0.9663
0.6256 -8.0066 -2.9989 0.9663
1.3359 -7.9199 -2.9992 0.9663
2.0357 -7.7703 -2.9994 0.9663
2.7195 -7.5590 -2.9997 0.9663
4.6211 -6.5736 -3.0005 0.9663
5.1882 -6.1367 -3.0007 0.9663
7.3287 -3.3021 -3.0016 0.9663
7.5938 -2.6369 -3.0017 0.9663
7.7986 -1.9506 -3.0018 0.9663
7.9414 -1.2487 -3.0018 0.9663
8.0371 0.1791 -3.0019 0.9663
7.7038 2.2960 -3.0017 0.9663
7.4687 2.9725 -3.0016 0.9663
9.0921 6.8567 -4.2523 0.9525
5.6576 5.1170 -2.8485 0.9680
4.1038 6.4285 -2.8479 0.9680
2.8985 7.0530 -2.8474 0.9680
1.6017 7.4539 -2.8469 0.9680
-0.4243 7.6100 -2.8461 0.9680
-1.0999 7.5413 -2.8458 0.9680
-2.4191 7.2255 -2.8453 0.9680
-3.6612 6.6809 -2.8448 0.9680
-6.5120 4.6871 -2.9960 0.9663
-6.9030 4.0887 -2.9959 0.9663
-7.2392 3.4579 -2.9957 0.9663
-7.5179 2.7997 -2.9956 0.9663
-7.9899 0.7140 -2.9954 0.9663
-7.6023 -0.6794 -2.9956 0.9677
-7.1531 -2.6639 -2.9958 0.9677
-6.8879 -3.2901 -2.9959 0.9677
-6.5680 -3.8902 -2.9960 0.9677
-6.1960 -4.4596 -2.9961 0.9677
-3.6700 -6.6969 -2.9971 0.9677
-3.0596 -6.9976 -2.9974 0.9677
-2.4249 -7.2427 -2.9977 0.9677
-1.1025 -7.5593 -2.9982 0.9677
-0.4253 -7.6281 -2.9985 0.9677
1.6055 -7.4715 -2.9993 0.9677
2.2643 -7.2996 -2.9995 0.9677
3.5233 -6.7836 -3.0000 0.9677
4.6710 -6.0523 -3.0005 0.9677
5.6708 -5.1290 -3.0009 0.9677
6.8254 -3.4491 -3.0014 0.9677
7.1056 -2.8280 -3.0015 0.9677
7.3293 -2.1844 -3.0016 0.9677
7.6464 -0.1704 -3.0017 0.9677
7.5553 1.1880 -3.0017 0.9677
6.9725 3.1416 -3.0014 0.9677
6.6649 3.7496 -3.0013 0.9677
8.9324 6.1318 -4.2522 0.9545
8.3508 6.9021 -4.2520 0.9545
4.1731 5.9364 -2.8479 0.9693
3.6279 6.2838 -2.8477 0.9693
1.2064 7.1523 -2.8467 0.9693
0.5650 7.2307 -2.8465 0.9693
-0.0808 7.2516 -2.8462 0.9693
-1.3650 7.1211 -2.8457 0.9693
-3.1970 6.5058 -2.8450 0.9693
-3.7631 6.1949 -2.8447 0.9693
-4.2992 5.8349 -2.8445 0.9693
-5.2649 4.9795 -2.8441 0.9693
-5.9914 4.7313 -2.9962 0.9677
-6.3884 4.1791 -2.9961 0.9677
-6.7347 3.5938 -2.9959 0.9677
-7.0275 2.9799 -2.9958 0.9677
-7.4441 1.6866 -2.9956 0.9677
-7.5646 1.0173 -2.9956 0.9677
-7.6250 0.3400 -2.9956 0.9677
-7.6250 -0.3400 -2.9956 0.9677
-7.5645 -1.0173 -2.9956 0.9677
-6.7346 -3.5937 -2.9959 0.9677
-5.9914 -4.7313 -2.9962 0.9677
-5.5468 -5.2461 -2.9964 0.9677
-5.0582 -5.7193 -2.9966 0.9677
-3.9645 -6.5265 -2.9970 0.9677
-3.3682 -6.8541 -2.9973 0.9677
-2.7450 -7.1272 -2.9975 0.9677
-0.7647 -7.6012 -2.9983 0.9677
-0.0851 -7.6398 -2.9986 0.9677
0.5953 -7.6178 -2.9989 0.9677
1.9368 -7.3929 -2.9994 0.9677
3.2175 -6.9335 -2.9999 0.9677
3.8222 -6.6202 -3.0002 0.9677
5.8938 -4.8714 -3.0010 0.9677
6.3044 -4.3277 -3.0012 0.9677
6.9725 -3.1417 -3.0014 0.9677
7.6008 0.8503 -3.0017 0.9677
7.4948 1.5234 -3.0017 0.9677
7.1056 2.8280 -3.0015 0.9677
6.8255 3.4491 -3.0014 0.9677
8.6502 6.5234 -4.2521 0.9545
8.0348 7.2670 -4.2519 0.9545
3.9044 6.1161 -2.8478 0.9693
0.8866 7.1987 -2.8466 0.9693
0.2423 7.2483 -2.8463 0.9693
-0.4037 7.2404 -2.8461 0.9693
-1.0465 7.1751 -2.8458 0.9693
-1.6808 7.0529 -2.8456 0.9693
-2.3017 6.8747 -2.8453 0.9693
-2.9042 6.6420 -2.8451 0.9693
-3.4835 6.3566 -2.8448 0.9693
-4.0352 6.0209 -2.8446 0.9693
-4.5547 5.6374 -2.8444 0.9693
-6.1960 4.4596 -2.9962 0.9677
-6.5680 3.8903 -2.9960 0.9677
-6.8879 3.2901 -2.9959 0.9677
-7.5118 1.3533 -2.9956 0.9677
-7.6023 0.6794 -2.9956 0.9677
-7.2750 0.0000 -2.9957 0.9690
-7.0168 -1.9221 -2.9958 0.9690
-6.8180 -2.5390 -2.9959 0.9690
-6.2603 -3.7080 -2.9961 0.9690
-4.0519 -6.0459 -2.9970 0.9690
-2.9162 -6.6696 -2.9975 0.9690
-1.6878 -7.0821 -2.9979 0.9690
-1.0508 -7.2048 -2.9982 0.9690
-0.4054 -7.2704 -2.9985 0.9690
0.8903 -7.2283 -2.9990 0.9690
2.7690 -6.7380 -2.9997 0.9690
4.4518 -5.7684 -3.0004 0.9690
4.9479 -5.3496 -3.0006 0.9690
5.4047 -4.8883 -3.0008 0.9690
6.5051 -3.2871 -3.0013 0.9690
6.7721 -2.6952 -3.0014 0.9690
7.1430 -1.4519 -3.0015 0.9690
7.2874 -0.1624 -3.0016 0.9690
6.6452 2.9942 -3.0013 0.9690
7.9589 6.5782 -4.2519 0.9563
4.4654 5.2817 -2.8480 0.9705
3.4577 5.9889 -2.8476 0.9705
2.9107 6.2724 -2.8474 0.9705
1.7522 6.6880 -2.8470 0.9705
1.1499 6.8169 -2.8467 0.9705
-0.6918 6.8767 -2.8460 0.9705
-1.3010 6.7872 -2.8457 0.9705
-1.8998 6.6439 -2.8455 0.9705
-3.0472 6.2008 -2.8450 0.9706
-3.5867 5.9045 -2.8448 0.9706
-4.5761 5.1743 -2.8444 0.9706
-5.0356 4.7626 -2.8541 0.9705
-5.7106 4.5096 -2.9963 0.9690
-6.4191 3.4254 -2.9961 0.9690
-6.9243 2.2328 -2.9959 0.9690
-7.2678 0.3241 -2.9957 0.9690
-7.2678 -0.3241 -2.9957 0.9690
-6.9242 -2.2328 -2.9958 0.9690
-6.6982 -2.8403 -2.9959 0.9690
-6.4191 -3.4253 -2.9960 0.9690
-6.0890 -3.9833 -2.9962 0.9690
-5.2869 -5.0003 -2.9965 0.9690
-4.8211 -5.4513 -2.9967 0.9690
-3.2103 -6.5328 -2.9973 0.9690
-2.6163 -6.7931 -2.9976 0.9690
1.8460 -7.0461 -2.9994 0.9690
2.4660 -6.8544 -2.9996 0.9690
3.6428 -6.3096 -3.0001 0.9690
4.1903 -5.9607 -3.0003 0.9690
4.7045 -5.5645 -3.0005 0.9690
5.1814 -5.1240 -3.0007 0.9690
6.0085 -4.1246 -3.0010 0.9690
6.3521 -3.5736 -3.0012 0.9690
6.6452 -2.9942 -3.0013 0.9690
6.8855 -2.3909 -3.0014 0.9690
7.2729 -0.4869 -3.0016 0.9690
7.2874 0.1624 -3.0016 0.9690
6.7721 2.6952 -3.0014 0.9690
6.5051 3.2872 -3.0013 0.9690
6.1865 3.8529 -3.0011 0.9690
8.2442 6.2173 -4.2520 0.9563
7.6577 6.9260 -4.2517 0.9563
4.6964 5.0777 -2.8481 0.9705
4.2256 5.4752 -2.8479 0.9705
3.7212 5.8292 -2.8477 0.9705
3.1874 6.1368 -2.8475 0.9705
1.4525 6.7591 -2.8468 0.9705
0.8450 6.8610 -2.8466 0.9705
0.2310 6.9084 -2.8463 0.9705
-0.9974 6.8387 -2.8458 0.9705
-1.6020 6.7222 -2.8456 0.9705
-3.3202 6.0587 -2.8449 0.9706
-3.8460 5.7387 -2.8447 0.9706
-4.8019 4.9652 -2.8443 0.9706
-5.4771 4.7362 -2.9817 0.9692
-7.0168 1.9221 -2.9958 0.9690
-7.1599 1.2899 -2.9958 0.9690
-6.9176 -0.6181 -2.9959 0.9702
-6.8352 -1.2314 -2.9959 0.9702
-6.2675 -2.9937 -2.9961 0.9702
-5.9764 -3.5398 -2.9962 0.9702
-4.3662 -5.4041 -2.9969 0.9702
-3.8681 -5.7717 -2.9971 0.9702
-3.3393 -6.0935 -2.9973 0.9702
-2.2063 -6.5900 -2.9977 0.9702
-0.3870 -6.9404 -2.9985 0.9702
2.0602 -6.6413 -2.9995 0.9702
2.6433 -6.4321 -2.9997 0.9702
3.2055 -6.1718 -2.9999 0.9702
3.7424 -5.8624 -3.0001 0.9702
4.2496 -5.5064 -3.0003 0.9702
5.5544 -4.1888 -3.0009 0.9701
5.9054 -3.6779 -3.0010 0.9701
6.2096 -3.1379 -3.0011 0.9701
6.6680 -1.9873 -3.0013 0.9701
6.9149 -0.7735 -3.0014 0.9701
6.9426 0.4647 -3.0014 0.9701
6.8736 1.0808 -3.0014 0.9701
6.3434 2.8582 -3.0012 0.9701
5.7356 3.9373 -3.0010 0.9701
7.5974 6.2794 -4.2517 0.9580
7.0080 6.9304 -4.2515 0.9580
3.3007 5.7170 -2.8476 0.9717
2.2344 6.2107 -2.8471 0.9717
1.6726 6.3844 -2.8469 0.9717
1.0977 6.5075 -2.8467 0.9717
0.5141 6.5788 -2.8465 0.9717
-0.6604 6.5646 -2.8460 0.9717
-1.2420 6.4792 -2.8457 0.9717
-1.8136 6.3425 -2.8455 0.9717
-2.9089 5.9195 -2.8451 0.9717
-3.4240 5.6367 -2.8449 0.9717
-3.9118 5.3092 -2.8447 0.9717
-4.3686 4.9396 -2.8445 0.9717
-5.0075 4.7361 -2.9731 0.9704
-6.1280 3.2700 -2.9962 0.9702
-6.6103 2.1316 -2.9960 0.9702
-6.7736 1.5347 -2.9959 0.9702
-6.8832 0.9257 -2.9959 0.9702
-5.8129 -3.8026 -2.9963 0.9702
-4.6024 -5.2041 -2.9968 0.9702
-3.6073 -5.9385 -2.9972 0.9702
-3.0647 -6.2364 -2.9974 0.9702
-2.4976 -6.4850 -2.9976 0.9702
-1.9107 -6.6820 -2.9979 0.9702
-0.6958 -6.9161 -2.9983 0.9702
-0.0774 -6.9511 -2.9986 0.9702
0.5416 -6.9310 -2.9988 0.9702
1.7622 -6.7262 -2.9993 0.9702
4.0000 -5.6901 -3.0002 0.9702
4.4909 -5.3118 -3.0004 0.9702
5.3621 -4.4319 -3.0008 0.9701
5.7356 -3.9373 -3.0009 0.9701
6.0635 -3.4113 -3.0011 0.9701
6.5728 -2.2823 -3.0013 0.9701
6.7500 -1.6883 -3.0014 0.9701
6.9149 0.7735 -3.0014 0.9701
6.8186 1.3859 -3.0014 0.9701
6.6680 1.9873 -3.0013 0.9701
6.4645 2.5728 -3.0012 0.9701
5.9055 3.6780 -3.0010 0.9701
6.6921 7.2354 -4.2513 0.9580
3.0427 5.8582 -2.8475 0.9717
0.2205 6.5949 -2.8463 0.9717
-0.3673 6.5878 -2.8461 0.9717
-0.9521 6.5284 -2.8459 0.9717
-2.0942 6.2551 -2.8454 0.9717
-2.6424 6.0435 -2.8452 0.9717
-3.1696 5.7838 -2.8450 0.9717
-5.6379 4.0579 -2.9964 0.9702
-6.2675 2.9937 -2.9961 0.9702
-6.5089 2.4239 -2.9960 0.9702
-6.6986 1.8349 -2.9959 0.9702
-6.8352 1.2314 -2.9959 0.9702
-6.9176 0.6182 -2.9959 0.9702
-6.6397 0.0000 -2.9960 0.9713
-6.4040 -1.7543 -2.9961 0.9713
-5.9919 -2.8621 -2.9962 0.9713
-5.3899 -3.8794 -2.9965 0.9713
-3.6980 -5.5178 -2.9971 0.9713
-3.1924 -5.8254 -2.9973 0.9713
-2.6614 -6.0868 -2.9976 0.9713
-2.1093 -6.3001 -2.9978 0.9713
0.2221 -6.6421 -2.9987 0.9713
0.8124 -6.5965 -2.9990 0.9713
2.5269 -6.1489 -2.9996 0.9712
3.0644 -5.9000 -2.9999 0.9712
4.9320 -4.4607 -3.0006 0.9712
5.3097 -4.0043 -3.0008 0.9712
5.6453 -3.5159 -3.0009 0.9712
6.1797 -2.4595 -3.0011 0.9712
6.5182 -1.3249 -3.0013 0.9712
6.6103 -0.7395 -3.0013 0.9712
6.6499 -0.1482 -3.0013 0.9712
6.6367 0.4443 -3.0013 0.9712
6.2833 2.1818 -3.0012 0.9712
6.0640 2.7323 -3.0011 0.9712
6.6993 6.6251 -4.2513 0.9595
4.0749 4.8199 -2.8479 0.9727
3.6295 5.1631 -2.8477 0.9727
3.1554 5.4653 -2.8475 0.9727
1.5990 6.1034 -2.8469 0.9727
1.0494 6.2210 -2.8467 0.9727
-2.2664 5.8846 -2.8453 0.9727
-3.2734 5.3887 -2.8449 0.9727
-3.7397 5.0756 -2.8447 0.9727
-5.2119 4.1158 -2.9965 0.9713
-5.8585 3.1262 -2.9963 0.9713
-6.1133 2.5923 -2.9962 0.9713
-6.4758 1.4672 -2.9960 0.9713
-6.5806 0.8850 -2.9960 0.9713
-6.6332 0.2958 -2.9960 0.9713
-6.6332 -0.2958 -2.9960 0.9713
-6.5805 -0.8850 -2.9960 0.9713
-5.8585 -3.1262 -2.9963 0.9713
-5.2119 -4.1158 -2.9965 0.9713
-3.9400 -5.3474 -2.9970 0.9713
-3.4486 -5.6772 -2.9972 0.9713
-2.9298 -5.9621 -2.9974 0.9713
-1.8266 -6.3880 -2.9979 0.9713
-1.2509 -6.5257 -2.9981 0.9713
-0.0740 -6.6452 -2.9986 0.9713
1.1055 -6.5540 -2.9991 0.9713
1.6846 -6.4301 -2.9993 0.9713
2.7984 -6.0305 -2.9998 0.9712
3.3243 -5.7579 -3.0000 0.9712
3.8238 -5.4395 -3.0002 0.9712
6.2832 -2.1818 -3.0012 0.9712
6.4526 -1.6139 -3.0012 0.9712
6.5708 -1.0332 -3.0013 0.9712
6.3743 1.8997 -3.0012 0.9712
5.9361 2.9996 -3.0010 0.9712
3.3958 5.3194 -2.8476 0.9727
2.3985 5.8365 -2.8472 0.9727
0.2108 6.3046 -2.8463 0.9727
-0.3512 6.2979 -2.8461 0.9727
-0.9102 6.2411 -2.8459 0.9727
-1.4620 6.1348 -2.8457 0.9727
-2.0021 5.9799 -2.8454 0.9727
-2.5262 5.7776 -2.8452 0.9727
-3.5101 5.2374 -2.8448 0.9727
-3.9620 4.9039 -2.8447 0.9727
-4.5791 4.7347 -2.9721 0.9715
-5.9919 2.8621 -2.9962 0.9713
-6.3560 0.0000 -2.9961 0.9723
-6.2554 -1.1269 -2.9961 0.9723
-6.1304 -1.6793 -2.9962 0.9723
-4.8088 -4.1583 -2.9967 0.9723
-2.5477 -5.8266 -2.9976 0.9723
-2.0191 -6.0307 -2.9978 0.9723
-1.4744 -6.1869 -2.9980 0.9723
-0.9180 -6.2940 -2.9983 0.9723
0.2126 -6.3581 -2.9987 0.9723
0.7777 -6.3144 -2.9989 0.9723
1.3367 -6.2206 -2.9992 0.9723
1.8852 -6.0773 -2.9994 0.9723
3.4245 -5.3645 -3.0000 0.9722
5.0825 -3.8329 -3.0007 0.9722
5.9152 -2.3542 -3.0010 0.9722
6.3274 -0.7078 -3.0012 0.9722
6.2895 0.9890 -3.0012 0.9722
6.1765 1.5448 -3.0011 0.9722
5.8044 2.6153 -3.0010 0.9722
5.5484 3.1215 -3.0009 0.9722
5.2483 3.6028 -3.0008 0.9722
4.9066 4.0554 -3.0006 0.9722
3.9862 4.7149 -2.9103 0.9731
3.4742 4.9422 -2.8476 0.9736
2.5426 5.4791 -2.8473 0.9736
2.0447 5.6833 -2.8471 0.9736
1.5306 5.8423 -2.8469 0.9736
1.0045 5.9549 -2.8467 0.9736
0.4704 6.0202 -2.8464 0.9737
-0.0673 6.0377 -2.8462 0.9737
-4.1852 4.7322 -2.9779 0.9725
-5.3198 3.4800 -2.9965 0.9723
-5.6082 2.9926 -2.9964 0.9723
-5.8521 2.4815 -2.9963 0.9723
-6.1990 1.4045 -2.9961 0.9723
-6.2994 0.8472 -2.9961 0.9723
-6.3497 0.2831 -2.9961 0.9723
-6.3497 -0.2831 -2.9961 0.9723
-6.0495 -1.9507 -2.9962 0.9723
-5.8521 -2.4815 -2.9963 0.9723
-5.6082 -2.9926 -2.9964 0.9723
-4.9891 -3.9398 -2.9966 0.9723
-3.7716 -5.1188 -2.9971 0.9723
-3.3012 -5.4345 -2.9973 0.9723
-2.8046 -5.7071 -2.9975 0.9723
-2.2856 -5.9346 -2.9977 0.9723
-1.7485 -6.1149 -2.9979 0.9723
-1.1974 -6.2467 -2.9981 0.9723
0.4956 -6.3425 -2.9988 0.9723
1.0582 -6.2737 -2.9991 0.9723
1.6126 -6.1551 -2.9993 0.9723
2.1541 -5.9876 -2.9995 0.9723
3.1821 -5.5115 -2.9999 0.9722
3.6602 -5.2067 -3.0001 0.9722
5.5484 -3.1215 -3.0009 0.9722
5.8044 -2.6154 -3.0010 0.9722
6.1765 -1.5448 -3.0011 0.9722
6.3527 -0.4253 -3.0012 0.9722
6.3274 0.7078 -3.0012 0.9722
6.2392 1.2682 -3.0012 0.9722
6.1015 1.8184 -3.0011 0.9722
5.6821 2.8713 -3.0009 0.9722
6.6889 6.0498 -4.2513 0.9609
3.6909 4.7827 -2.8477 0.9736
2.2959 5.5868 -2.8472 0.9736
0.2018 6.0350 -2.8463 0.9737
-0.3361 6.0285 -2.8461 0.9737
-1.3995 5.8725 -2.8457 0.9737
-2.9006 5.2930 -2.8451 0.9737
-3.8372 4.7494 -2.8781 0.9734
-5.1596 3.7136 -2.9966 0.9723
-5.7358 2.7397 -2.9963 0.9723
-5.9567 2.2183 -2.9962 0.9723
-6.1304 1.6793 -2.9962 0.9723
-6.2554 1.1270 -2.9961 0.9723
-6.0916 0.0000 -2.9962 0.9732
-6.0675 -0.5421 -2.9962 0.9732
-5.9952 -1.0801 -2.9962 0.9732
-5.8753 -1.6094 -2.9963 0.9732
-5.2418 -3.1047 -2.9965 0.9732
-4.9449 -3.5591 -2.9966 0.9732
-4.6087 -3.9853 -2.9968 0.9732
-3.8294 -4.7398 -2.9971 0.9732
-2.9287 -5.3443 -2.9975 0.9732
-1.4130 -5.9294 -2.9981 0.9732
-0.8798 -6.0320 -2.9983 0.9732
-0.3394 -6.0869 -2.9985 0.9732
1.2811 -5.9615 -2.9991 0.9732
2.3181 -5.6407 -2.9996 0.9732
5.8472 -1.7426 -3.0010 0.9732
5.9792 -1.2153 -3.0010 0.9732
6.0637 -0.6783 -3.0011 0.9732
5.7637 2.0014 -3.0010 0.9732
5.0297 3.4527 -3.0007 0.9732
4.7022 3.8865 -3.0005 0.9732
6.1455 6.0774 -4.2511 0.9622
3.9382 4.6582 -3.0002 0.9732
3.3317 4.7394 -2.8495 0.9745
2.8946 5.0136 -2.8474 0.9745
2.4367 5.2509 -2.8472 0.9745
1.9595 5.4466 -2.8470 0.9745
0.9626 5.7070 -2.8466 0.9745
-0.0645 5.7864 -2.8462 0.9745
-2.0792 5.3985 -2.8454 0.9745
-3.0030 4.9437 -2.8450 0.9745
-3.4957 4.7444 -2.8986 0.9741
-4.7815 3.7760 -2.9967 0.9732
-5.0984 3.3352 -2.9966 0.9732
-5.3748 2.8681 -2.9965 0.9732
-5.6086 2.3782 -2.9964 0.9732
-6.0856 -0.2714 -2.9962 0.9732
-5.9411 -1.3461 -2.9962 0.9732
-5.7979 -1.8696 -2.9963 0.9732
-5.3748 -2.8681 -2.9965 0.9732
-5.0984 -3.3352 -2.9966 0.9732
-4.0367 -4.5644 -2.9970 0.9732
-3.6146 -4.9058 -2.9972 0.9732
-3.1638 -5.2083 -2.9974 0.9732
-1.6757 -5.8603 -2.9980 0.9732
-1.1475 -5.9867 -2.9982 0.9732
-0.6102 -6.0654 -2.9984 0.9732
-0.0679 -6.0962 -2.9986 0.9732
0.4750 -6.0784 -2.9988 0.9732
1.0142 -6.0125 -2.9990 0.9732
3.0495 -5.2820 -2.9999 0.9732
3.5078 -4.9899 -3.0000 0.9732
4.3374 -4.2893 -3.0004 0.9732
5.0297 -3.4527 -3.0007 0.9732
5.5626 -2.5064 -3.0009 0.9732
5.9191 -1.4804 -3.0010 0.9732
6.0275 -0.9478 -3.0011 0.9732
6.1001 0.1359 -3.0011 0.9732
6.0637 0.6784 -3.0011 0.9732
5.9792 1.2153 -3.0010 0.9732
5.8472 1.7427 -3.0010 0.9732
5.6688 2.2561 -3.0009 0.9732
5.4453 2.7517 -3.0008 0.9732
4.8708 3.6732 -3.0006 0.9732
4.5243 4.0920 -3.0005 0.9732
3.6372 4.7129 -2.9281 0.9738
2.6683 5.1373 -2.8473 0.9745
2.2003 5.3541 -2.8471 0.9745
1.7149 5.5283 -2.8469 0.9745
1.2160 5.6586 -2.8467 0.9745
0.7074 5.7440 -2.8465 0.9745
-0.3222 5.7775 -2.8461 0.9745
-0.8350 5.7255 -2.8459 0.9745
-1.8367 5.4860 -2.8455 0.9745
-3.2202 4.8049 -2.8449 0.9745
-4.6087 3.9853 -2.9968 0.9732
-4.9449 3.5591 -2.9967 0.9732
-5.2418 3.1047 -2.9965 0.9732
-5.7089 2.1260 -2.9963 0.9732
-5.8753 1.6094 -2.9963 0.9732
-6.0675 0.5422 -2.9962 0.9732
-5.8213 -0.5202 -2.9963 0.9741
-5.7519 -1.0363 -2.9963 0.9741
-5.6370 -1.5441 -2.9964 0.9741
-5.4773 -2.0398 -2.9964 0.9741
-4.7442 -3.4147 -2.9967 0.9741
-4.0640 -4.2021 -2.9970 0.9741
-3.2549 -4.8566 -2.9973 0.9741
-2.3425 -5.3575 -2.9977 0.9741
-1.8565 -5.5451 -2.9979 0.9741
-1.3557 -5.6887 -2.9981 0.9741
-0.8440 -5.7871 -2.9983 0.9741
0.1955 -5.8459 -2.9987 0.9741
0.7150 -5.8057 -2.9989 0.9740
2.6969 -5.1925 -2.9997 0.9740
3.1486 -4.9322 -2.9999 0.9740
3.5753 -4.6327 -3.0001 0.9740
3.9737 -4.2963 -3.0002 0.9740
4.6729 -3.5240 -3.0005 0.9740
5.2240 -2.6398 -3.0007 0.9740
5.4384 -2.1645 -3.0008 0.9740
5.6096 -1.6718 -3.0009 0.9740
5.7363 -1.1660 -3.0009 0.9740
5.8173 -0.6508 -3.0010 0.9740
5.8522 -0.1304 -3.0010 0.9740
5.7825 0.9093 -3.0010 0.9740
5.5295 1.9201 -3.0009 0.9740
4.1612 4.1151 -3.0003 0.9740
3.7782 4.4689 -3.0002 0.9740
2.7770 4.8099 -2.8474 0.9753
1.8799 5.2254 -2.8470 0.9753
1.4073 5.3716 -2.8468 0.9753
0.4325 5.5353 -2.8464 0.9754
-1.5260 5.3367 -2.8456 0.9754
-1.9948 5.1794 -2.8454 0.9754
-3.4679 4.7067 -2.9972 0.9741
-4.5875 3.6227 -2.9968 0.9741
-4.8916 3.1999 -2.9967 0.9741
-5.1568 2.7518 -2.9966 0.9741
-5.5626 1.7937 -2.9964 0.9741
-5.7001 1.2915 -2.9963 0.9741
-5.7924 0.7790 -2.9963 0.9741
-5.8387 0.2604 -2.9963 0.9741
-5.5626 -1.7937 -2.9964 0.9741
-5.1568 -2.7517 -2.9966 0.9741
-4.5875 -3.6227 -2.9968 0.9741
-4.2470 -4.0169 -2.9969 0.9741
-3.4679 -4.7067 -2.9972 0.9741
-3.0354 -4.9970 -2.9974 0.9741
-2.5788 -5.2476 -2.9976 0.9741
-2.1016 -5.4567 -2.9978 0.9741
-1.6077 -5.6225 -2.9980 0.9741
-0.5854 -5.8192 -2.9984 0.9741
-0.0652 -5.8486 -2.9986 0.9741
0.4557 -5.8316 -2.9988 0.9740
1.9806 -5.5052 -2.9994 0.9740
2.4629 -5.3073 -2.9996 0.9740
2.9257 -5.0674 -2.9998 0.9740
3.3653 -4.7872 -3.0000 0.9740
4.5112 -3.7286 -3.0004 0.9740
5.3365 -2.4045 -3.0008 0.9740
5.5295 -1.9201 -3.0009 0.9740
5.7826 -0.9093 -3.0010 0.9740
5.8406 -0.3910 -3.0010 0.9740
5.6096 1.6719 -3.0009 0.9740
5.4384 2.1644 -3.0008 0.9740
5.2241 2.6398 -3.0007 0.9740
4.9682 3.0942 -3.0006 0.9740
3.9737 4.2963 -3.0002 0.9740
3.5753 4.6327 -3.0001 0.9740
3.0164 4.7252 -2.8740 0.9751
2.5599 4.9287 -2.8473 0.9753
0.6787 5.5107 -2.8465 0.9754
0.1855 5.5489 -2.8463 0.9754
-0.3091 5.5430 -2.8461 0.9754
-2.6671 4.8668 -2.8452 0.9754
-3.6741 4.5475 -2.9972 0.9741
-5.0291 2.9788 -2.9966 0.9741
-5.4773 2.0398 -2.9964 0.9741
-5.7519 1.0363 -2.9963 0.9741
-5.5240 -0.9952 -2.9964 0.9749
-5.4136 -1.4829 -2.9965 0.9749
-5.2602 -1.9589 -2.9965 0.9749
-4.2464 -3.6720 -2.9969 0.9749
-2.2496 -5.1450 -2.9977 0.9749
-0.8106 -5.5577 -2.9983 0.9749
0.1877 -5.6141 -2.9987 0.9749
0.6867 -5.5754 -2.9989 0.9748
2.1357 -5.1969 -2.9995 0.9748
3.0237 -4.7365 -2.9998 0.9748
3.8160 -4.1258 -3.0002 0.9748
4.1682 -3.7700 -3.0003 0.9748
4.4874 -3.3841 -3.0004 0.9748
5.2226 -2.0786 -3.0007 0.9748
5.5086 -1.1196 -3.0009 0.9748
5.5864 -0.6249 -3.0009 0.9748
5.6199 -0.1252 -3.0009 0.9748
5.3101 1.8438 -3.0008 0.9748
5.1248 2.3091 -3.0007 0.9748
4.8987 2.7560 -3.0006 0.9748
3.9961 3.9518 -3.0003 0.9748
3.2318 4.5973 -2.9999 0.9748
2.2450 4.8378 -2.8471 0.9761
1.8054 5.0181 -2.8470 0.9761
1.3515 5.1585 -2.8468 0.9761
0.8869 5.2580 -2.8466 0.9761
0.4154 5.3158 -2.8464 0.9761
-1.9157 4.9740 -2.8455 0.9761
-2.3508 4.7835 -2.8453 0.9761
-4.9524 2.6427 -2.9966 0.9749
-5.1678 2.1913 -2.9966 0.9749
-5.4742 1.2403 -2.9964 0.9749
-5.5628 0.7481 -2.9964 0.9749
-5.4742 -1.2403 -2.9964 0.9749
-5.3422 -1.7227 -2.9965 0.9749
-5.1678 -2.1913 -2.9966 0.9749
-4.9524 -2.6426 -2.9966 0.9749
-4.6977 -3.0730 -2.9967 0.9749
-4.0787 -3.8576 -2.9970 0.9749
-2.9151 -4.7989 -2.9975 0.9749
-2.4765 -5.0396 -2.9976 0.9749
-1.0573 -5.5158 -2.9982 0.9749
-0.5622 -5.5884 -2.9984 0.9749
-0.0626 -5.6167 -2.9986 0.9749
0.4376 -5.6003 -2.9988 0.9749
0.9344 -5.5395 -2.9990 0.9748
2.3652 -5.0968 -2.9996 0.9748
2.8096 -4.8663 -2.9998 0.9748
3.2318 -4.5972 -2.9999 0.9748
3.6283 -4.2916 -3.0001 0.9748
3.9961 -3.9518 -3.0002 0.9748
4.3321 -3.5806 -3.0004 0.9748
4.8987 -2.7560 -3.0006 0.9748
5.3101 -1.8439 -3.0008 0.9748
5.5530 -0.8732 -3.0009 0.9748
5.6199 0.1253 -3.0009 0.9748
5.5086 1.1197 -3.0009 0.9748
5.3870 1.6055 -3.0008 0.9748
5.0167 2.5351 -3.0007 0.9748
4.7710 2.9714 -3.0006 0.9748
4.1683 3.7700 -3.0003 0.9748
3.8160 4.1258 -3.0002 0.9748
3.0039 4.7055 -2.9802 0.9750
2.4620 4.7402 -2.8515 0.9761
1.1203 5.2135 -2.8467 0.9761
0.6518 5.2921 -2.8465 0.9761
-0.2968 5.3231 -2.8461 0.9761
-2.1353 4.8836 -2.8454 0.9761
-2.5993 4.7432 -2.8874 0.9758
-4.2464 3.6721 -2.9969 0.9749
-4.8298 2.8607 -2.9967 0.9749
-5.0651 2.4194 -2.9966 0.9749
-5.5906 0.4996 -2.9964 0.9749
-5.3738 -0.4802 -2.9965 0.9756
-5.3098 -0.9566 -2.9965 0.9756
-5.2036 -1.4254 -2.9965 0.9756
-4.8687 -2.3256 -2.9967 0.9756
-4.6425 -2.7497 -2.9968 0.9756
-4.3795 -3.1521 -2.9969 0.9756
-4.0817 -3.5296 -2.9970 0.9756
-3.7515 -3.8790 -2.9971 0.9756
-2.5938 -4.7331 -2.9976 0.9756
-0.3006 -5.3905 -2.9985 0.9756
0.1804 -5.3962 -2.9987 0.9756
1.1347 -5.2794 -2.9991 0.9756
1.6000 -5.1578 -2.9993 0.9756
2.0528 -4.9952 -2.9995 0.9756
2.4894 -4.7929 -2.9996 0.9756
2.9063 -4.5526 -2.9998 0.9756
3.6678 -3.9656 -3.0001 0.9756
4.5858 -2.8560 -3.0005 0.9756
4.8219 -2.4366 -3.0006 0.9756
5.0198 -1.9978 -3.0007 0.9756
5.1778 -1.5431 -3.0007 0.9756
5.2947 -1.0762 -3.0008 0.9756
5.3695 -0.6007 -3.0008 0.9756
5.4017 -0.1204 -3.0008 0.9756
5.2414 1.3110 -3.0008 0.9756
5.1038 1.7722 -3.0007 0.9756
4.7085 2.6490 -3.0005 0.9756
3.8409 3.7984 -3.0002 0.9756
3.1063 4.4188 -2.9999 0.9756
1.7353 4.8233 -2.8469 0.9768
1.2990 4.9583 -2.8468 0.9768
0.8525 5.0539 -2.8466 0.9768
-0.0571 5.1244 -2.8462 0.9768
-0.9646 5.0324 -2.8459 0.9768
-1.4086 4.9263 -2.8457 0.9768
-1.8414 4.7811 -2.8455 0.9768
-2.3265 4.7344 -2.9298 0.9762
-2.8020 4.6127 -2.9975 0.9756
-3.2013 4.3448 -2.9974 0.9756
-3.5751 4.0424 -2.9972 0.9756
-4.2348 3.3442 -2.9969 0.9756
-4.5155 2.9539 -2.9968 0.9756
-4.9674 2.1063 -2.9966 0.9756
-5.3471 0.7191 -2.9965 0.9756
-5.3471 -0.7191 -2.9965 0.9756
-4.9674 -2.1063 -2.9966 0.9756
-4.5155 -2.9539 -2.9968 0.9756
-3.9205 -3.7080 -2.9971 0.9756
-3.2013 -4.3448 -2.9973 0.9756
-2.3804 -4.8440 -2.9977 0.9756
