ply
format ascii 1.0
element vertex 1586
property float32 x
property float32 y
property float32 z
property float32 I
end_header
3.1047 -5.3775 -0.5693 0.9754
3.6047 -5.1277 -0.5746 0.9751
-9.8703 7.1042 -1.1149 0.9523
2.9022 -5.5876 -0.6829 0.9750
4.7937 -5.1829 -0.7658 0.9720
2.3907 -6.6450 -0.7660 0.9720
2.7046 -5.8283 -0.6969 0.9745
3.1212 -5.4061 -0.6771 0.9752
3.6246 -5.1561 -0.6836 0.9750
4.2885 -5.0725 -0.7205 0.9736
3.3818 -5.2975 -0.7876 0.9750
3.9579 -5.1284 -0.8118 0.9742
4.8928 -5.2901 -0.9030 0.9714
2.4496 -6.8088 -0.9068 0.9713
2.7260 -5.8744 -0.8116 0.9742
3.1409 -5.4402 -0.7872 0.9750
4.3396 -5.1329 -0.8423 0.9733
2.5909 -6.3045 -0.9695 0.9728
2.9518 -5.6833 -0.9109 0.9745
3.4148 -5.3493 -0.9027 0.9747
4.0041 -5.1883 -0.9322 0.9739
2.5347 -7.0452 -1.0650 0.9702
2.7557 -5.9384 -0.9312 0.9739
3.6871 -5.2450 -0.9119 0.9744
4.4026 -5.2074 -0.9699 0.9728
2.9838 -5.7448 -1.0308 0.9741
3.4487 -5.4023 -1.0206 0.9744
3.2037 -5.5490 -1.0203 0.9744
-9.8596 7.0965 -1.9344 0.9520
2.7075 -6.5883 -1.2560 0.9715
3.4893 -5.4659 -1.1434 0.9740
3.2418 -5.6150 -1.1432 0.9740
4.5994 -5.4402 -1.2561 0.9715
2.8363 -6.9016 -1.4440 0.9701
3.5477 -5.5574 -1.2759 0.9735
4.2030 -5.4460 -1.3313 0.9724
13.3931 6.0347 -2.8427 0.9419
9.4875 11.2219 -2.8437 0.9419
8.4518 12.0229 -2.8440 0.9419
7.3489 12.7287 -2.8443 0.9419
6.1875 13.3337 -2.8446 0.9419
4.9767 13.8330 -2.8449 0.9419
3.7262 14.2227 -2.8452 0.9419
2.4458 14.4996 -2.8456 0.9419
-0.1638 14.7069 -2.8462 0.9418
-1.4724 14.6357 -2.8466 0.9418
-6.4904 13.2076 -2.8478 0.9418
-8.7311 11.8500 -2.8484 0.9418
-10.6957 10.1160 -2.8489 0.9418
-12.3217 8.0605 -2.8493 0.9418
-13.5571 5.7488 -2.8497 0.9418
4.8215 -5.7029 -1.4452 0.9700
13.1113 6.6255 -2.8428 0.9419
12.4703 7.7666 -2.8430 0.9419
8.9786 11.6339 -2.8439 0.9419
7.9083 12.3881 -2.8441 0.9419
5.5877 13.5968 -2.8447 0.9419
4.3558 14.0418 -2.8451 0.9419
0.4914 14.6987 -2.8461 0.9418
-4.6713 13.9526 -2.8474 0.9418
-5.8953 13.4829 -2.8477 0.9418
-7.0727 12.9061 -2.8480 0.9418
-10.2340 10.5820 -2.8488 0.9418
-11.1362 9.6299 -2.8490 0.9418
-12.6689 7.5038 -2.8494 0.9418
-13.8000 5.1392 -2.8497 0.9418
-14.1842 -1.2675 -3.0022 0.9434
-13.7342 -3.7621 -3.0021 0.9434
-12.2507 -7.2561 -3.0017 0.9435
-11.5556 -8.3172 -3.0016 0.9435
-8.9457 -11.0721 -3.0009 0.9435
-5.7010 -13.0385 -3.0001 0.9435
-4.5174 -13.4929 -2.9998 0.9435
-3.2982 -13.8399 -2.9994 0.9435
-0.7919 -14.2024 -2.9988 0.9435
0.4753 -14.2150 -2.9985 0.9435
1.7384 -14.1147 -2.9982 0.9435
5.4040 -13.1498 -2.9972 0.9435
3.1447 -6.0546 -1.4383 0.9725
3.6091 -5.6536 -1.4140 0.9730
11.3452 -8.5558 -2.9957 0.9436
12.0609 -7.5116 -2.9955 0.9436
12.6809 -6.4079 -2.9953 0.9436
13.2004 -5.2536 -2.9952 0.9436
13.6151 -4.0577 -2.9951 0.9436
13.9219 -2.8297 -2.9950 0.9436
14.1745 0.9489 -2.9949 0.9436
13.7821 3.4472 -2.9950 0.9436
12.2951 5.5400 -2.8430 0.9464
11.7538 6.6126 -2.8432 0.9464
11.1192 7.6330 -2.8433 0.9464
10.3964 8.5929 -2.8435 0.9464
9.5910 9.4848 -2.8437 0.9464
4.5684 12.6982 -2.8450 0.9463
2.2451 13.3098 -2.8456 0.9463
1.0516 13.4583 -2.8459 0.9463
-0.1504 13.4999 -2.8462 0.9463
-1.3515 13.4344 -2.8465 0.9463
-2.5421 13.2622 -2.8468 0.9463
-3.7129 12.9847 -2.8471 0.9463
-4.8543 12.6040 -2.8474 0.9463
-5.9575 12.1231 -2.8477 0.9463
-8.0140 10.8768 -2.8482 0.9463
-11.9237 6.3627 -2.8492 0.9462
-13.5528 4.3703 -3.0021 0.9434
-13.8884 3.1468 -3.0022 0.9434
-14.1136 1.8981 -3.0022 0.9434
-14.2267 -0.6343 -3.0022 0.9434
-13.8884 -3.1467 -3.0022 0.9434
-13.5528 -4.3702 -3.0021 0.9434
-10.3429 -9.7821 -3.0013 0.9435
-9.4304 -10.6631 -3.0010 0.9435
-8.4432 -11.4592 -3.0008 0.9435
-7.3891 -12.1641 -3.0005 0.9435
-3.9117 -13.6800 -2.9996 0.9435
-2.6783 -13.9723 -2.9993 0.9435
-1.4239 -14.1538 -2.9990 0.9435
-0.1585 -14.2228 -2.9986 0.9435
2.3653 -14.0225 -2.9980 0.9435
3.9187 -5.5744 -1.4365 0.9725
10.9531 -9.0529 -2.9958 0.9436
11.7147 -8.0416 -2.9956 0.9436
13.4210 -4.6603 -2.9951 0.9436
13.7821 -3.4471 -2.9951 0.9436
14.0339 -2.2067 -2.9950 0.9436
14.1745 -0.9488 -2.9950 0.9436
14.2026 0.3165 -2.9949 0.9436
14.1182 1.5794 -2.9950 0.9436
13.9218 2.8298 -2.9950 0.9436
13.6151 4.0578 -2.9951 0.9436
12.5294 4.9866 -2.8430 0.9464
11.4479 7.1298 -2.8432 0.9464
10.0037 9.0479 -2.8436 0.9464
9.1594 9.9030 -2.8438 0.9463
8.2423 10.6799 -2.8441 0.9463
7.2596 11.3721 -2.8443 0.9463
6.2192 11.9742 -2.8446 0.9463
1.6500 13.3973 -2.8458 0.9463
0.4511 13.4925 -2.8461 0.9463
-5.4112 12.3759 -2.8476 0.9463
-6.4919 11.8463 -2.8478 0.9463
-7.5212 11.2225 -2.8481 0.9463
-9.3934 9.7128 -2.8486 0.9463
-10.2214 8.8388 -2.8488 0.9463
-9.6929 6.9765 -2.5177 0.9524
-12.1956 5.8254 -2.8493 0.9462
-12.8561 4.7877 -2.8922 0.9455
-14.0149 2.5250 -3.0022 0.9434
-12.9439 -2.3319 -3.0019 0.9475
-12.6847 -3.4746 -3.0018 0.9475
-11.3146 -6.7016 -3.0015 0.9475
-10.6727 -7.6817 -3.0013 0.9475
-9.9460 -8.6006 -3.0011 0.9475
-8.2623 -10.2263 -3.0007 0.9475
-7.3187 -10.9202 -3.0005 0.9475
-5.2656 -12.0427 -2.9999 0.9475
-4.1725 -12.4624 -2.9997 0.9475
-0.7315 -13.1181 -2.9988 0.9475
0.4390 -13.1298 -2.9985 0.9475
1.6057 -13.0373 -2.9982 0.9475
2.7595 -12.8414 -2.9979 0.9475
3.8911 -12.5436 -2.9976 0.9475
4.9916 -12.1464 -2.9973 0.9475
8.0212 -10.3934 -2.9965 0.9476
9.7355 -8.8052 -2.9961 0.9476
10.4799 -7.9032 -2.9959 0.9476
11.7139 -5.9193 -2.9956 0.9476
12.1937 -4.8530 -2.9955 0.9476
12.5769 -3.7483 -2.9954 0.9476
12.8602 -2.6139 -2.9953 0.9476
13.0417 -1.4589 -2.9952 0.9476
13.1197 -0.2923 -2.9952 0.9476
12.9638 2.0385 -2.9953 0.9476
12.7312 3.1843 -2.9953 0.9476
10.8574 6.1083 -2.8434 0.9502
10.2712 7.0508 -2.8435 0.9502
9.6035 7.9375 -2.8437 0.9502
8.8595 8.7614 -2.8439 0.9502
7.1668 10.1949 -2.8443 0.9502
5.2465 11.3061 -2.8448 0.9501
4.2198 11.7293 -2.8451 0.9501
3.1594 12.0595 -2.8454 0.9501
2.0737 12.2940 -2.8456 0.9501
0.9714 12.4310 -2.8459 0.9501
-2.3480 12.2496 -2.8468 0.9501
-3.4293 11.9932 -2.8471 0.9501
-4.4836 11.6415 -2.8473 0.9501
-5.5025 11.1972 -2.8476 0.9501
-6.4778 10.6640 -2.8478 0.9501
-8.2673 9.3480 -2.8483 0.9501
-11.0125 5.8765 -2.8490 0.9501
-12.5171 4.0363 -3.0018 0.9475
-12.8270 2.9062 -3.0019 0.9475
-13.0350 1.7531 -3.0019 0.9475
-13.1394 0.5860 -3.0020 0.9475
-12.8270 -2.9062 -3.0019 0.9475
-12.5171 -4.0362 -3.0018 0.9475
-12.1078 -5.1341 -3.0017 0.9475
-11.0046 -7.1988 -3.0014 0.9475
-10.3196 -8.1492 -3.0012 0.9475
-8.7100 -9.8485 -3.0008 0.9475
-4.7237 -12.2648 -2.9998 0.9475
-0.1464 -13.1370 -2.9986 0.9475
1.0234 -13.0966 -2.9983 0.9475
2.1848 -12.9522 -2.9980 0.9475
3.3286 -12.7051 -2.9977 0.9475
3.4544 -5.9832 -1.5769 0.9721
4.0538 -5.7667 -1.6089 0.9715
9.3339 -9.2304 -2.9962 0.9476
10.8212 -7.4283 -2.9958 0.9476
11.4388 -6.4353 -2.9957 0.9476
11.9657 -5.3914 -2.9955 0.9476
12.3976 -4.3049 -2.9954 0.9476
12.9638 -2.0384 -2.9953 0.9476
13.1197 0.2924 -2.9952 0.9476
13.0417 1.4590 -2.9952 0.9476
10.5748 6.5861 -2.8435 0.9502
6.7058 10.5045 -2.8445 0.9502
5.7447 11.0606 -2.8447 0.9501
4.7379 11.5291 -2.8450 0.9501
3.6933 11.9062 -2.8452 0.9501
2.6192 12.1888 -2.8455 0.9501
-2.8915 12.1334 -2.8469 0.9501
-3.9604 11.8291 -2.8472 0.9501
-7.8423 9.7066 -2.8482 0.9501
-9.4405 8.1635 -2.8486 0.9501
-9.6567 6.9505 -2.7156 0.9524
-10.7396 6.3611 -2.8489 0.9501
-12.3247 4.5898 -3.0017 0.9475
-12.6846 3.4747 -3.0018 0.9475
-12.9438 2.3320 -3.0019 0.9475
-12.2121 0.0001 -3.0017 0.9509
-12.1636 -1.0869 -3.0017 0.9509
-11.7777 -3.2262 -3.0016 0.9509
-10.5058 -6.2225 -3.0013 0.9509
-9.2350 -7.9858 -3.0010 0.9510
-8.4870 -8.7755 -3.0008 0.9510
-7.6718 -9.4954 -3.0006 0.9510
-6.7957 -10.1398 -3.0003 0.9510
-4.8894 -11.1822 -2.9999 0.9510
-3.8743 -11.5721 -2.9996 0.9510
-2.8287 -11.8698 -2.9993 0.9510
-0.6792 -12.1811 -2.9988 0.9510
2.5624 -11.9244 -2.9979 0.9510
3.6133 -11.6480 -2.9977 0.9510
5.6203 -10.8209 -2.9972 0.9510
7.4486 -9.6515 -2.9967 0.9510
9.0407 -8.1768 -2.9963 0.9510
10.3460 -6.4435 -2.9959 0.9510
12.1111 -1.3548 -2.9955 0.9510
12.1836 -0.2715 -2.9955 0.9510
12.0388 1.8931 -2.9955 0.9510
11.5129 3.9978 -2.9956 0.9510
10.0827 5.6725 -2.8436 0.9535
8.9181 7.3710 -2.8439 0.9535
8.2272 8.1361 -2.8441 0.9535
7.4709 8.8366 -2.8443 0.9535
5.7866 10.0228 -2.8447 0.9534
3.9185 10.8918 -2.8452 0.9534
0.9020 11.5432 -2.8459 0.9534
-1.1592 11.5224 -2.8465 0.9534
-2.1803 11.3745 -2.8467 0.9534
-3.1843 11.1363 -2.8470 0.9534
-5.1093 10.3971 -2.8475 0.9534
-6.0149 9.9019 -2.8477 0.9534
-11.2292 4.7616 -2.9980 0.9510
-11.6222 3.7477 -3.0016 0.9509
-11.9099 2.6985 -3.0016 0.9509
-12.1999 0.5440 -3.0017 0.9509
-11.2421 -4.7671 -3.0015 0.9509
-10.7728 -5.7485 -3.0014 0.9509
-9.5819 -7.5667 -3.0011 0.9510
-7.2409 -9.8273 -3.0005 0.9510
-6.3370 -10.4320 -3.0002 0.9510
-5.3829 -10.9537 -3.0000 0.9510
-1.2212 -12.1393 -2.9989 0.9510
0.9503 -12.1613 -2.9984 0.9510
2.0288 -12.0273 -2.9981 0.9510
3.0909 -11.7979 -2.9978 0.9510
7.0116 -9.9741 -2.9968 0.9510
7.8709 -9.3097 -2.9966 0.9510
8.6677 -8.5716 -2.9964 0.9510
10.0490 -6.8982 -2.9960 0.9510
10.6226 -5.9761 -2.9959 0.9510
12.1594 -0.8139 -2.9955 0.9510
12.1836 0.2716 -2.9955 0.9510
12.1111 1.3549 -2.9955 0.9510
11.9426 2.4275 -2.9955 0.9510
9.8202 6.1161 -2.8437 0.9535
7.8568 8.4948 -2.8442 0.9535
7.0701 9.1610 -2.8444 0.9535
4.3996 10.7060 -2.8451 0.9534
3.4296 11.0560 -2.8453 0.9534
0.3869 11.5725 -2.8461 0.9534
-0.6447 11.5620 -2.8463 0.9534
-1.6714 11.4598 -2.8466 0.9534
-3.6774 10.9839 -2.8471 0.9534
-4.6408 10.6139 -2.8474 0.9534
-7.2818 9.0129 -2.8481 0.9534
-8.7656 7.5800 -2.8484 0.9534
-11.7777 3.2263 -3.0016 0.9509
-12.0184 2.1652 -3.0017 0.9509
-12.1636 1.0870 -3.0017 0.9509
-11.3457 -1.0138 -3.0015 0.9540
-10.9858 -3.0093 -3.0014 0.9540
-10.6741 -3.9750 -3.0013 0.9540
-9.7995 -5.8042 -3.0011 0.9540
-9.2435 -6.6530 -3.0010 0.9540
-8.6142 -7.4489 -3.0008 0.9540
-7.9165 -8.1856 -3.0006 0.9540
-7.1561 -8.8571 -3.0004 0.9540
-2.6387 -11.0723 -2.9993 0.9540
0.3802 -11.3731 -2.9985 0.9540
2.3903 -11.1236 -2.9980 0.9540
5.2429 -10.0943 -2.9972 0.9540
9.0788 -6.8466 -2.9963 0.9541
10.5637 -4.2042 -2.9959 0.9541
10.8956 -3.2472 -2.9958 0.9541
11.1412 -2.2645 -2.9957 0.9541
11.3659 -0.2532 -2.9957 0.9541
10.7403 3.7295 -2.9958 0.9541
8.8980 6.1082 -2.8439 0.9563
8.3195 6.8763 -2.8440 0.9563
6.9693 8.2434 -2.8444 0.9563
6.2084 8.8316 -2.8446 0.9563
5.3981 9.3498 -2.8448 0.9563
4.5448 9.7939 -2.8450 0.9563
2.7368 10.4463 -2.8455 0.9563
1.7963 10.6493 -2.8457 0.9563
0.8414 10.7679 -2.8460 0.9563
-0.1203 10.8010 -2.8462 0.9563
-2.0338 10.6103 -2.8467 0.9563
-7.8531 7.4274 -2.8482 0.9563
-10.4862 4.4466 -3.0013 0.9540
-10.8407 3.4957 -3.0014 0.9540
-11.1091 2.5170 -3.0014 0.9540
-11.3796 0.5075 -3.0015 0.9540
-11.3796 -0.5074 -3.0015 0.9540
-11.2892 -1.5182 -3.0015 0.9540
-11.1091 -2.5170 -3.0014 0.9540
-10.8407 -3.4957 -3.0014 0.9540
-10.0485 -5.3620 -3.0012 0.9540
-8.2736 -7.8251 -3.0007 0.9540
-6.7542 -9.1668 -3.0003 0.9540
-5.9111 -9.7309 -3.0001 0.9540
-4.0914 -10.6232 -2.9996 0.9540
-3.1294 -10.9442 -2.9994 0.9540
-2.1427 -11.1784 -2.9991 0.9540
-1.1392 -11.3237 -2.9989 0.9540
-0.1268 -11.3792 -2.9986 0.9540
4.7882 -10.3183 -2.9974 0.9540
6.5409 -9.3044 -2.9969 0.9540
7.3425 -8.6847 -2.9967 0.9540
8.0859 -7.9962 -2.9965 0.9540
10.3661 -4.6707 -2.9959 0.9541
10.7403 -3.7294 -2.9958 0.9541
11.2309 -1.7659 -2.9957 0.9541
11.3659 0.2533 -2.9957 0.9541
11.2983 1.2639 -2.9957 0.9541
10.8956 3.2473 -2.9958 0.9541
9.1611 5.7056 -2.8438 0.9563
8.0051 7.2403 -2.8441 0.9563
6.5954 8.5460 -2.8445 0.9563
4.9764 9.5814 -2.8449 0.9563
3.1993 10.3135 -2.8454 0.9563
2.2688 10.5583 -2.8456 0.9563
0.3609 10.7951 -2.8461 0.9563
-1.5591 10.6899 -2.8466 0.9563
-3.4303 10.2458 -2.8471 0.9563
-6.0167 8.9776 -2.8477 0.9563
-6.7924 8.4071 -2.8479 0.9563
-7.5142 7.7696 -2.8481 0.9563
-8.1764 7.0705 -2.8483 0.9563
-9.3014 5.5093 -2.8486 0.9563
-10.6741 3.9751 -3.0013 0.9540
-10.9858 3.0094 -3.0014 0.9540
-11.2103 2.0197 -3.0015 0.9540
-11.3457 1.0139 -3.0015 0.9540
-10.6674 0.0000 -3.0013 0.9566
-10.6250 -0.9494 -3.0013 0.9566
-10.4982 -1.8913 -3.0013 0.9566
-9.6248 -4.5973 -3.0011 0.9566
-9.1770 -5.4356 -3.0009 0.9566
-8.6564 -6.2305 -3.0008 0.9566
-7.4138 -7.6658 -3.0005 0.9567
-3.3846 -10.1092 -2.9995 0.9567
-0.5934 -10.6416 -2.9987 0.9567
0.3561 -10.6513 -2.9985 0.9567
1.3026 -10.5765 -2.9983 0.9567
2.2386 -10.4178 -2.9980 0.9567
4.0497 -9.8542 -2.9976 0.9567
6.5079 -8.4324 -2.9969 0.9567
8.5030 -6.4124 -2.9964 0.9567
10.4347 -2.1209 -2.9959 0.9567
10.5820 -1.1837 -2.9959 0.9567
10.6453 -0.2371 -2.9959 0.9567
10.5188 1.6540 -2.9959 0.9567
10.0592 3.4930 -2.9960 0.9567
8.3337 5.7208 -2.8440 0.9589
7.7919 6.4402 -2.8442 0.9589
6.5273 7.7206 -2.8445 0.9589
5.0557 8.7567 -2.8449 0.9589
3.4235 9.5158 -2.8453 0.9588
1.6823 9.9736 -2.8457 0.9588
0.7880 10.0845 -2.8460 0.9588
-4.4633 9.0827 -2.8473 0.9588
-5.2544 8.6499 -2.8475 0.9588
-6.0038 8.1485 -2.8477 0.9588
-6.7057 7.5823 -2.8479 0.9588
-7.9447 6.2739 -2.8482 0.9588
-9.8202 4.1641 -3.0011 0.9566
-10.1521 3.2737 -3.0012 0.9566
-10.6568 0.4752 -3.0013 0.9566
-10.5721 -1.4218 -3.0013 0.9566
-10.4034 -2.3571 -3.0013 0.9566
-10.1521 -3.2736 -3.0012 0.9566
-7.0648 -7.9882 -3.0004 0.9567
-5.5358 -9.1131 -3.0000 0.9567
-3.8317 -9.9487 -2.9996 0.9567
-2.9308 -10.2495 -2.9993 0.9567
0.8302 -10.6245 -2.9984 0.9567
3.6068 -10.0252 -2.9977 0.9567
4.4844 -9.6637 -2.9974 0.9567
6.1260 -8.7143 -2.9970 0.9567
6.8768 -8.1339 -2.9968 0.9567
7.5730 -7.4891 -2.9966 0.9567
8.7800 -6.0271 -2.9963 0.9567
10.3300 -2.5837 -2.9959 0.9567
10.6241 -0.7112 -2.9959 0.9567
10.6452 0.2373 -2.9959 0.9567
10.2047 3.0414 -2.9960 0.9567
8.5801 5.3438 -2.8440 0.9589
8.0708 6.0865 -2.8441 0.9589
7.4974 6.7811 -2.8443 0.9589
6.8645 7.4219 -2.8444 0.9589
4.6607 8.9735 -2.8450 0.9589
2.9963 9.6592 -2.8454 0.9588
2.1249 9.8883 -2.8456 0.9588
-1.4601 10.0114 -2.8466 0.9588
-2.3456 9.8425 -2.8468 0.9588
-3.2125 9.5954 -2.8470 0.9588
-5.6347 8.4076 -2.8476 0.9588
-6.3610 7.8732 -2.8478 0.9588
-7.0370 7.2762 -2.8480 0.9588
-7.6571 6.6214 -2.8481 0.9588
-8.7106 5.1594 -2.8484 0.9588
-9.9961 3.7226 -3.0012 0.9566
-10.2880 2.8182 -3.0012 0.9566
-10.6250 0.9495 -3.0013 0.9566
-10.0246 0.0000 -3.0012 0.9590
-9.6681 -2.6483 -3.0011 0.9590
-8.6241 -5.1081 -3.0008 0.9590
-8.1349 -5.8551 -3.0007 0.9590
-5.5789 -8.3241 -3.0000 0.9590
-4.8155 -8.7871 -2.9998 0.9590
-4.0140 -9.1802 -2.9996 0.9590
-3.1808 -9.5004 -2.9994 0.9590
-2.3224 -9.7450 -2.9992 0.9590
0.3347 -10.0101 -2.9985 0.9590
2.1039 -9.7907 -2.9981 0.9590
2.9667 -9.5638 -2.9978 0.9591
3.8059 -9.2612 -2.9976 0.9591
6.1163 -7.9250 -2.9970 0.9591
6.7970 -7.3488 -2.9968 0.9591
7.9914 -6.0266 -2.9965 0.9591
8.9326 -4.5138 -2.9963 0.9591
9.2986 -3.7007 -2.9962 0.9591
9.5909 -2.8584 -2.9961 0.9591
9.7086 2.4283 -2.9961 0.9591
9.1247 4.1114 -2.9962 0.9591
7.8324 5.3767 -2.8442 0.9611
7.3231 6.0527 -2.8443 0.9611
4.0003 8.6205 -2.8452 0.9611
3.2174 8.9431 -2.8454 0.9611
2.4089 9.1946 -2.8456 0.9611
-0.1059 9.5064 -2.8462 0.9611
-0.9517 9.4600 -2.8464 0.9611
-1.7900 9.3385 -2.8466 0.9611
-4.1945 8.5356 -2.8473 0.9611
-4.9379 8.1289 -2.8475 0.9611
-5.6422 7.6577 -2.8476 0.9611
-6.3017 7.1255 -2.8478 0.9611
-6.9113 6.5367 -2.8480 0.9611
-7.9615 5.2083 -2.8482 0.9611
-8.8433 4.7190 -3.0009 0.9590
-9.2285 3.9133 -3.0010 0.9590
-9.5404 3.0764 -3.0010 0.9590
-10.0146 -0.4465 -3.0012 0.9590
-9.9351 -1.3361 -3.0011 0.9590
-9.7766 -2.2150 -3.0011 0.9590
-9.5404 -3.0764 -3.0010 0.9590
-8.8433 -4.7189 -3.0009 0.9590
-8.3879 -5.4870 -3.0007 0.9590
-7.8659 -6.2115 -3.0006 0.9590
-7.2814 -6.8867 -3.0005 0.9590
-6.6392 -7.5070 -3.0003 0.9590
-5.2023 -8.5642 -2.9999 0.9590
-2.7543 -9.6323 -2.9993 0.9590
-1.0027 -9.9665 -2.9989 0.9590
-0.1116 -10.0154 -2.9986 0.9590
1.6657 -9.8750 -2.9982 0.9590
2.5379 -9.6868 -2.9979 0.9591
4.2146 -9.0821 -2.9975 0.9591
5.7573 -8.1899 -2.9971 0.9591
6.4630 -7.6445 -2.9969 0.9591
7.1174 -7.0385 -2.9968 0.9591
8.7228 -4.9074 -2.9964 0.9591
9.4541 -3.2828 -2.9962 0.9591
9.9454 1.1126 -2.9960 0.9591
9.2986 3.7008 -2.9962 0.9591
5.8054 7.5223 -2.8447 0.9611
3.6125 8.7905 -2.8453 0.9611
1.9970 9.2931 -2.8457 0.9611
1.1620 9.4347 -2.8459 0.9611
0.3177 9.5014 -2.8461 0.9611
-0.5293 9.4926 -2.8463 0.9611
-1.3722 9.4086 -2.8465 0.9611
-2.2043 9.2498 -2.8467 0.9611
-3.0191 9.0176 -2.8470 0.9611
-7.1958 6.2225 -2.8480 0.9611
-7.7215 5.5576 -2.8482 0.9611
-8.1858 4.8485 -2.8483 0.9611
-9.0449 4.3204 -3.0009 0.9590
-9.6681 2.6484 -3.0011 0.9590
-9.9848 0.8923 -3.0012 0.9590
-9.4495 0.0000 -3.0010 0.9611
-9.1135 -2.4964 -3.0009 0.9611
-8.5260 -4.0725 -3.0008 0.9611
-8.1295 -4.8151 -3.0007 0.9611
-7.6683 -5.5193 -3.0006 0.9611
-7.1463 -6.1796 -3.0004 0.9611
-5.9368 -7.3480 -3.0001 0.9611
-2.9984 -8.9557 -2.9994 0.9611
-2.1892 -9.1863 -2.9992 0.9611
1.1540 -9.3701 -2.9983 0.9612
1.9833 -9.2296 -2.9981 0.9612
3.5878 -8.7304 -2.9977 0.9612
4.3504 -8.3759 -2.9975 0.9612
5.0783 -7.9550 -2.9973 0.9612
8.4210 -4.2553 -2.9964 0.9612
9.2453 -1.8792 -2.9962 0.9612
9.4132 0.6302 -2.9962 0.9612
9.3198 1.4655 -2.9962 0.9612
8.6020 3.8759 -2.9964 0.9612
11.6511 6.5548 -4.2456 0.9454
7.3837 5.0687 -2.8443 0.9631
6.9036 5.7060 -2.8444 0.9631
6.3686 6.2981 -2.8445 0.9631
5.7831 6.8403 -2.8447 0.9631
3.7711 8.1266 -2.8452 0.9631
3.0330 8.4306 -2.8454 0.9631
1.4904 8.8360 -2.8458 0.9631
-2.4644 8.6186 -2.8468 0.9631
-3.9540 8.0462 -2.8472 0.9631
-4.6547 7.6628 -2.8474 0.9631
-5.3186 7.2185 -2.8475 0.9631
-7.0378 5.5578 -2.8480 0.9631
-8.3360 4.4483 -3.0007 0.9611
-8.9931 2.8999 -3.0009 0.9611
-9.4401 0.4210 -3.0010 0.9611
-9.4401 -0.4209 -3.0010 0.9611
-9.3651 -1.2594 -3.0010 0.9611
-8.6991 -3.6887 -3.0008 0.9611
-7.4147 -5.8553 -3.0005 0.9611
-6.2584 -7.0764 -3.0002 0.9611
-5.6034 -7.6050 -3.0000 0.9611
-4.1657 -8.4770 -2.9997 0.9611
-2.5964 -9.0800 -2.9993 0.9611
-0.9452 -9.3952 -2.9988 0.9611
-0.1052 -9.4413 -2.9986 0.9611
1.5703 -9.3090 -2.9982 0.9612
3.1955 -8.8819 -2.9978 0.9612
6.0928 -7.2065 -2.9970 0.9612
6.7096 -6.6353 -2.9969 0.9612
7.2732 -6.0114 -2.9967 0.9612
7.7791 -5.3400 -2.9966 0.9612
8.2232 -4.6263 -2.9965 0.9612
8.6020 -3.8758 -2.9964 0.9612
8.9126 -3.0948 -2.9963 0.9612
9.1525 -2.2892 -2.9962 0.9612
9.4132 -0.6301 -2.9962 0.9612
9.4319 0.2102 -2.9962 0.9612
9.3758 1.0489 -2.9962 0.9612
9.2453 1.8792 -2.9962 0.9612
9.0415 2.6947 -2.9963 0.9612
8.7660 3.4889 -2.9963 0.9612
11.3477 7.0674 -4.2457 0.9454
5.4728 7.0913 -2.8448 0.9631
4.8202 7.5507 -2.8449 0.9631
4.1293 7.9503 -2.8451 0.9631
3.4055 8.2868 -2.8453 0.9631
2.6546 8.5576 -2.8455 0.9631
1.8825 8.7605 -2.8457 0.9631
0.2995 8.9568 -2.8461 0.9631
-0.4990 8.9485 -2.8463 0.9631
-1.2935 8.8692 -2.8465 0.9631
-4.3086 7.8623 -2.8473 0.9631
-4.9916 7.4480 -2.8475 0.9631
-5.6351 6.9746 -2.8476 0.9631
-6.2338 6.4458 -2.8478 0.9631
-6.7831 5.8656 -2.8479 0.9631
-8.0285 4.7554 -2.9634 0.9616
-8.5260 4.0726 -3.0008 0.9611
-8.8549 3.2977 -3.0009 0.9611
-9.1135 2.4965 -3.0009 0.9611
-9.2997 1.6754 -3.0010 0.9611
-9.4120 0.8411 -3.0010 0.9611
-8.7901 -1.5836 -3.0008 0.9630
-8.6141 -2.3596 -3.0008 0.9630
-7.2482 -5.2169 -3.0005 0.9630
-6.7548 -5.8411 -3.0003 0.9630
-6.2078 -6.4188 -3.0002 0.9630
-5.6116 -6.9455 -3.0000 0.9630
-4.9708 -7.4170 -2.9999 0.9630
-4.2907 -7.8295 -2.9997 0.9630
-2.0693 -8.6832 -2.9991 0.9630
-1.2882 -8.8323 -2.9989 0.9630
0.2982 -8.9196 -2.9985 0.9630
1.0909 -8.8571 -2.9983 0.9630
1.8747 -8.7242 -2.9981 0.9630
2.6436 -8.5222 -2.9979 0.9630
4.8003 -7.5195 -2.9974 0.9631
5.4503 -7.0621 -2.9972 0.9631
6.6154 -5.9832 -2.9969 0.9631
8.7395 -1.7764 -2.9963 0.9631
8.9158 -0.1987 -2.9963 0.9631
8.8981 0.5957 -2.9963 0.9631
8.8099 1.3853 -2.9963 0.9631
8.4249 2.9255 -2.9964 0.9631
11.0136 6.1962 -4.2458 0.9481
6.0201 5.9534 -2.8446 0.9649
5.4666 6.4659 -2.8448 0.9649
4.8696 6.9272 -2.8449 0.9649
4.2340 7.3336 -2.8451 0.9649
3.5647 7.6817 -2.8453 0.9649
0.6599 8.4450 -2.8460 0.9649
-0.0944 8.4708 -2.8462 0.9649
-5.0272 6.8231 -2.8475 0.9649
-6.6522 5.2532 -2.8479 0.9649
-8.2224 3.4867 -3.0007 0.9630
-8.7107 1.9736 -3.0008 0.9630
-8.8519 1.1905 -3.0009 0.9630
-8.9228 0.3979 -3.0009 0.9630
-8.9228 -0.3979 -3.0009 0.9630
-8.8519 -1.1904 -3.0009 0.9630
-8.2225 -3.4866 -3.0007 0.9630
-7.0084 -5.5345 -3.0004 0.9630
-4.6354 -7.6308 -2.9998 0.9630
-3.2085 -8.3307 -2.9994 0.9630
-2.4542 -8.5827 -2.9992 0.9630
-1.6804 -8.7665 -2.9990 0.9630
-0.8934 -8.8807 -2.9988 0.9630
1.4843 -8.7994 -2.9982 0.9630
2.2614 -8.6318 -2.9980 0.9630
6.3424 -6.2721 -2.9970 0.9631
6.8752 -5.6825 -2.9968 0.9631
7.3534 -5.0478 -2.9967 0.9631
8.1313 -3.6638 -2.9965 0.9631
8.6517 -2.1639 -2.9964 0.9631
8.8099 -1.3852 -2.9963 0.9631
8.9158 0.1987 -2.9963 0.9631
8.8628 0.9915 -2.9963 0.9631
8.7394 1.7764 -2.9963 0.9631
8.2864 3.2979 -2.9965 0.9631
7.9602 4.0225 -2.9965 0.9631
10.7268 6.6807 -4.2458 0.9481
6.7594 5.0975 -2.8444 0.9649
5.1732 6.7032 -2.8449 0.9649
3.9032 7.5151 -2.8452 0.9649
2.5093 8.0891 -2.8455 0.9649
1.0354 8.4070 -2.8459 0.9649
-1.2227 8.3835 -2.8465 0.9649
-2.6901 8.0350 -2.8469 0.9649
-4.0726 7.4316 -2.8472 0.9649
-4.7182 7.0401 -2.8474 0.9649
-6.4115 5.5443 -2.8478 0.9649
-6.8798 4.9518 -2.8480 0.9649
-8.0588 3.8495 -3.0007 0.9630
-8.6141 2.3596 -3.0008 0.9630
-8.7901 1.5837 -3.0008 0.9630
-8.8962 0.7950 -3.0009 0.9630
-8.4627 0.0000 -3.0008 0.9647
-8.4291 -0.7532 -3.0008 0.9647
-7.9303 -2.9532 -3.0006 0.9647
-6.8676 -4.9430 -3.0004 0.9647
-6.4002 -5.5344 -3.0002 0.9647
-4.7099 -7.0276 -2.9998 0.9647
-1.2206 -8.3689 -2.9989 0.9647
1.0336 -8.3924 -2.9983 0.9647
2.5049 -8.0752 -2.9980 0.9648
3.2135 -7.8197 -2.9978 0.9648
3.8966 -7.5022 -2.9976 0.9648
5.7393 -6.2052 -2.9971 0.9648
8.0987 -2.4137 -2.9965 0.9648
8.3981 -0.9394 -2.9964 0.9648
8.4484 -0.1882 -2.9964 0.9648
8.4316 0.5645 -2.9964 0.9648
7.3656 4.1439 -2.9967 0.9648
9.8724 6.7771 -4.2460 0.9504
5.7044 5.6412 -2.8447 0.9665
5.1799 6.1269 -2.8449 0.9665
4.6142 6.5639 -2.8450 0.9665
3.3777 7.2788 -2.8453 0.9665
2.0339 7.7633 -2.8457 0.9665
0.6253 8.0020 -2.8460 0.9665
-0.0894 8.0264 -2.8462 0.9665
-1.5113 7.8844 -2.8466 0.9665
-2.2072 7.7191 -2.8467 0.9665
-2.8856 7.4924 -2.8469 0.9665
-4.1688 6.8629 -2.8473 0.9665
-7.0811 4.6323 -3.0004 0.9647
-8.2534 1.8700 -3.0007 0.9647
-8.3871 1.1280 -3.0007 0.9647
-8.4543 0.3771 -3.0008 0.9647
-8.4543 -0.3770 -3.0008 0.9647
-8.3872 -1.1279 -3.0007 0.9647
-8.2534 -1.8700 -3.0007 0.9647
-8.0540 -2.5971 -3.0007 0.9647
-7.4656 -3.9837 -3.0005 0.9647
-6.1471 -5.8139 -3.0002 0.9647
-5.6050 -6.3377 -3.0000 0.9647
-3.7309 -7.5921 -2.9996 0.9647
-3.0402 -7.8935 -2.9994 0.9647
-2.3254 -8.1323 -2.9992 0.9647
1.4064 -8.3378 -2.9982 0.9648
3.5586 -7.6685 -2.9977 0.9648
4.2268 -7.3209 -2.9975 0.9648
4.8613 -6.9153 -2.9973 0.9648
6.0098 -5.9432 -2.9970 0.9648
6.5147 -5.3845 -2.9969 0.9648
6.9678 -4.7831 -2.9968 0.9648
7.7050 -3.4717 -2.9966 0.9648
8.3480 -1.3126 -2.9964 0.9648
8.4316 -0.5644 -2.9964 0.9648
10.1644 6.3304 -4.2460 0.9504
5.9499 5.3814 -2.8447 0.9665
5.4475 5.8898 -2.8448 0.9665
4.9019 6.3517 -2.8449 0.9665
3.6985 7.1210 -2.8452 0.9665
2.3776 7.6648 -2.8456 0.9665
1.6861 7.8465 -2.8458 0.9665
0.9811 7.9659 -2.8459 0.9665
0.2682 8.0221 -2.8461 0.9665
-1.1585 7.9436 -2.8465 0.9665
-1.8611 7.8094 -2.8467 0.9665
-2.5489 7.6133 -2.8468 0.9665
-3.2166 7.3567 -2.8470 0.9665
-3.8589 7.0416 -2.8472 0.9665
-4.4705 6.6705 -2.8473 0.9665
-5.0468 6.2465 -2.8475 0.9665
-5.5830 5.7728 -2.8476 0.9665
-6.0749 5.2532 -2.8477 0.9665
-7.6357 3.6473 -3.0005 0.9647
-8.1618 2.2358 -3.0007 0.9647
-8.4291 0.7533 -3.0008 0.9647
-8.0358 0.0001 -3.0007 0.9663
-8.0039 -0.7152 -3.0006 0.9663
-7.9084 -1.4247 -3.0006 0.9663
-7.7501 -2.1229 -3.0006 0.9663
-7.5302 -2.8043 -3.0005 0.9663
-6.9133 -4.0947 -3.0004 0.9663
-6.5212 -4.6937 -3.0003 0.9663
-6.0774 -5.2553 -3.0002 0.9663
-4.4724 -6.6732 -2.9997 0.9663
-3.8605 -7.0444 -2.9996 0.9663
-3.2180 -7.3596 -2.9994 0.9663
-0.4471 -8.0181 -2.9987 0.9663
0.2683 -8.0256 -2.9985 0.9663
0.9815 -7.9693 -2.9983 0.9663
1.6868 -7.8499 -2.9982 0.9663
3.0516 -7.4255 -2.9978 0.9663
3.7002 -7.1241 -2.9976 0.9663
4.9042 -6.3545 -2.9973 0.9663
5.4501 -5.8925 -2.9972 0.9663
6.4079 -4.8324 -2.9969 0.9663
6.8124 -4.2428 -2.9968 0.9663
7.8640 -1.5984 -2.9966 0.9663
8.0227 -0.1787 -2.9965 0.9663
8.0068 0.5361 -2.9965 0.9663
7.9274 1.2466 -2.9966 0.9663
7.7851 1.9472 -2.9966 0.9663
7.3168 3.2968 -2.9967 0.9663
9.3750 6.4356 -4.2462 0.9526
8.7653 7.2447 -4.2463 0.9526
5.4169 5.3570 -2.8448 0.9680
4.3817 6.2331 -2.8451 0.9680
3.8098 6.5987 -2.8452 0.9680
3.2075 6.9120 -2.8454 0.9680
2.5797 7.1704 -2.8455 0.9680
1.9314 7.3720 -2.8457 0.9680
0.5938 7.5986 -2.8460 0.9680
-0.0849 7.6217 -2.8462 0.9680
-1.4351 7.4869 -2.8466 0.9680
-2.0959 7.3299 -2.8467 0.9680
-2.7401 7.1146 -2.8469 0.9680
-3.3627 6.8429 -2.8470 0.9680
-5.0518 5.7122 -2.8475 0.9680
-6.0334 4.7646 -2.8707 0.9677
-6.7239 4.3987 -3.0003 0.9663
-7.3977 3.1370 -3.0005 0.9663
-7.9640 1.0711 -3.0006 0.9663
-8.0278 -0.3579 -3.0006 0.9663
-7.8370 -1.7756 -3.0006 0.9663
-7.6478 -2.4661 -3.0006 0.9663
-7.0890 -3.7828 -3.0004 0.9663
-6.3056 -4.9794 -3.0002 0.9663
-5.8371 -5.5207 -3.0001 0.9663
-5.3223 -6.0180 -3.0000 0.9663
-4.1706 -6.8656 -2.9997 0.9663
-2.2081 -7.7222 -2.9992 0.9663
-0.8039 -7.9904 -2.9988 0.9663
0.6256 -8.0054 -2.9984 0.9663
1.3355 -7.9175 -2.9983 0.9663
2.0348 -7.7667 -2.9981 0.9663
4.0138 -6.9520 -2.9976 0.9663
4.6164 -6.5668 -2.9974 0.9663
6.1864 -5.1132 -2.9970 0.9663
6.6167 -4.5421 -2.9969 0.9663
7.5810 -2.6324 -2.9966 0.9663
7.7851 -1.9471 -2.9966 0.9663
8.0068 -0.5359 -2.9965 0.9663
8.0228 0.1788 -2.9965 0.9663
7.9750 0.8922 -2.9965 0.9663
7.8640 1.5985 -2.9966 0.9663
7.6907 2.2921 -2.9966 0.9663
6.8124 4.2428 -2.9968 0.9663
5.6501 5.1103 -2.8447 0.9680
5.1731 5.5931 -2.8449 0.9680
4.6549 6.0316 -2.8450 0.9680
2.2578 7.2785 -2.8456 0.9680
1.6011 7.4510 -2.8458 0.9680
0.2547 7.6177 -2.8461 0.9680
-1.1001 7.5431 -2.8465 0.9680
-3.0544 6.9857 -2.8470 0.9680
-3.6643 6.6865 -2.8471 0.9680
-4.7922 5.9314 -2.8474 0.9680
-5.3014 5.4816 -2.8475 0.9680
-6.5212 4.6937 -3.0003 0.9663
-7.5302 2.8043 -3.0005 0.9663
-7.6453 0.0000 -3.0006 0.9677
-7.6149 -0.6804 -3.0005 0.9677
-6.5774 -3.8958 -3.0003 0.9677
-6.2044 -4.4656 -3.0002 0.9677
-5.7821 -4.9999 -3.0001 0.9677
-5.3139 -5.4945 -3.0000 0.9677
-4.2551 -6.3490 -2.9997 0.9677
-3.6729 -6.7022 -2.9995 0.9677
-3.0617 -7.0021 -2.9994 0.9677
-2.4261 -7.2465 -2.9992 0.9677
-1.7714 -7.4333 -2.9990 0.9677
0.2553 -7.6358 -2.9985 0.9677
0.9339 -7.5823 -2.9984 0.9677
2.9034 -7.0650 -2.9978 0.9677
4.1097 -6.4376 -2.9975 0.9677
4.6661 -6.0460 -2.9974 0.9677
5.1855 -5.6065 -2.9973 0.9677
7.0944 -2.8235 -2.9968 0.9677
7.3174 -2.1808 -2.9967 0.9677
7.4824 -1.5208 -2.9967 0.9677
7.5880 -0.8488 -2.9966 0.9677
7.6182 0.5100 -2.9966 0.9677
7.5427 1.1861 -2.9967 0.9677
7.4072 1.8527 -2.9967 0.9677
7.2131 2.5047 -2.9967 0.9677
6.9617 3.1368 -2.9968 0.9677
6.6550 3.7441 -2.9969 0.9677
8.3398 6.8930 -4.2464 0.9546
5.1540 5.0969 -2.8449 0.9693
1.8376 7.0141 -2.8457 0.9693
-0.7259 7.2161 -2.8464 0.9693
-1.3654 7.1232 -2.8465 0.9693
-2.6070 6.7690 -2.8469 0.9693
-3.1993 6.5104 -2.8470 0.9693
-3.7663 6.2002 -2.8472 0.9693
-4.8064 5.4347 -2.8474 0.9693
-5.2712 4.9855 -2.8475 0.9693
-5.9992 4.7375 -3.0001 0.9677
-7.0383 2.9845 -3.0004 0.9677
-7.2761 2.3463 -3.0005 0.9677
-7.4562 1.6894 -3.0005 0.9677
-7.6377 -0.3405 -3.0005 0.9677
-7.5770 -1.0190 -3.0005 0.9677
-7.4562 -1.6893 -3.0005 0.9677
-7.0383 -2.9844 -3.0004 0.9677
-6.7445 -3.5989 -3.0003 0.9677
-6.3972 -4.1848 -3.0002 0.9677
-5.9992 -4.7375 -3.0001 0.9677
-5.5535 -5.2524 -3.0000 0.9677
-5.0637 -5.7256 -2.9999 0.9677
-3.3706 -6.8590 -2.9995 0.9677
-2.7466 -7.1314 -2.9993 0.9677
-2.1009 -7.3471 -2.9991 0.9677
-1.4385 -7.5046 -2.9990 0.9677
-0.7648 -7.6024 -2.9988 0.9677
1.2707 -7.5330 -2.9983 0.9677
4.9307 -5.8320 -2.9973 0.9677
5.4300 -5.3698 -2.9972 0.9677
5.8861 -4.8650 -2.9971 0.9677
6.2956 -4.3216 -2.9970 0.9677
7.2131 -2.5046 -2.9967 0.9677
7.4073 -1.8527 -2.9967 0.9677
7.5880 0.8489 -2.9966 0.9677
7.4824 1.5209 -2.9967 0.9677
6.4817 4.0369 -2.9969 0.9677
8.0247 7.2579 -4.2465 0.9546
4.9220 5.3216 -2.8449 0.9693
4.4290 5.7388 -2.8450 0.9693
3.9008 6.1105 -2.8452 0.9693
1.5234 7.0892 -2.8458 0.9693
0.8864 7.1970 -2.8460 0.9693
0.2423 7.2478 -2.8461 0.9693
-2.3028 6.8783 -2.8468 0.9693
-3.4863 6.3617 -2.8471 0.9693
-4.0388 6.0264 -2.8472 0.9693
-6.2044 4.4657 -3.0002 0.9677
-7.6149 0.6805 -3.0005 0.9677
-7.2576 -0.6485 -3.0005 0.9690
-3.5006 -6.3878 -2.9995 0.9690
-2.3124 -6.9066 -2.9992 0.9690
-1.0510 -7.2063 -2.9989 0.9690
0.2433 -7.2777 -2.9985 0.9690
2.1571 -6.9537 -2.9980 0.9690
2.7673 -6.7337 -2.9979 0.9690
3.9170 -6.1358 -2.9976 0.9690
4.4474 -5.7626 -2.9975 0.9690
5.3982 -4.8824 -2.9972 0.9690
6.1779 -3.8476 -2.9970 0.9690
6.4957 -3.2824 -2.9969 0.9690
6.9745 -2.0786 -2.9968 0.9690
7.1317 -1.4496 -2.9968 0.9690
7.2324 -0.8090 -2.9967 0.9690
7.2756 -0.1621 -2.9967 0.9690
7.2612 0.4861 -2.9967 0.9690
7.1892 1.1305 -2.9967 0.9690
6.8750 2.3873 -2.9968 0.9690
6.6354 2.9898 -2.9969 0.9690
6.3431 3.5686 -2.9970 0.9690
4.9124 4.8580 -2.8449 0.9706
3.9736 5.6526 -2.8452 0.9706
2.9087 6.2681 -2.8454 0.9706
2.3394 6.5024 -2.8456 0.9705
1.7514 6.6852 -2.8457 0.9705
1.1495 6.8149 -2.8459 0.9705
-0.6919 6.8777 -2.8464 0.9705
-1.3014 6.7891 -2.8465 0.9705
-1.9006 6.6467 -2.8467 0.9705
-2.4847 6.4515 -2.8468 0.9705
-3.0492 6.2051 -2.8470 0.9705
-3.5896 5.9093 -2.8471 0.9705
-6.0971 3.9886 -3.0002 0.9690
-7.1063 1.6101 -3.0004 0.9690
-7.2215 0.9712 -3.0004 0.9690
-7.2793 0.3246 -3.0005 0.9690
-7.2793 -0.3246 -3.0005 0.9690
-6.9347 -2.2361 -3.0004 0.9690
-6.7080 -2.8444 -3.0003 0.9690
-6.4281 -3.4301 -3.0002 0.9690
-6.0971 -3.9885 -3.0002 0.9690
-5.7177 -4.5152 -3.0001 0.9690
-4.8262 -5.4570 -2.9998 0.9690
-2.6178 -6.7969 -2.9993 0.9690
-2.0023 -7.0026 -2.9991 0.9690
-1.3711 -7.1526 -2.9989 0.9690
-0.7289 -7.2458 -2.9988 0.9690
1.2111 -7.1798 -2.9983 0.9690
1.8452 -7.0431 -2.9981 0.9690
3.0644 -6.6037 -2.9978 0.9690
3.6399 -6.3044 -2.9977 0.9690
4.1864 -5.9551 -2.9975 0.9690
5.1755 -5.1181 -2.9973 0.9690
6.3431 -3.5686 -2.9970 0.9690
7.2612 -0.4860 -2.9967 0.9690
7.2756 0.1622 -2.9967 0.9690
7.2324 0.8091 -2.9967 0.9690
6.9745 2.0787 -2.9968 0.9690
6.7619 2.6912 -2.9969 0.9690
6.4957 3.2824 -2.9969 0.9690
6.1779 3.8477 -2.9970 0.9690
5.2137 4.7155 -2.8947 0.9700
4.6912 5.0721 -2.8450 0.9706
4.2213 5.4698 -2.8451 0.9706
3.7179 5.8240 -2.8452 0.9706
2.6266 6.3916 -2.8455 0.9705
-0.3848 6.9014 -2.8463 0.9705
-0.9976 6.8402 -2.8464 0.9705
-2.7697 6.3346 -2.8469 0.9705
-4.3455 5.3786 -2.8473 0.9705
-4.8072 4.9706 -2.8474 0.9705
-5.4829 4.7413 -2.9848 0.9691
-6.5746 3.1404 -3.0003 0.9690
-6.8281 2.5429 -3.0003 0.9690
-7.0275 1.9251 -3.0004 0.9690
-7.2576 0.6486 -3.0005 0.9690
-6.9557 0.0000 -3.0004 0.9702
-6.7084 -1.8376 -3.0003 0.9702
-6.2760 -2.9978 -3.0002 0.9702
-5.9842 -3.5444 -3.0001 0.9702
-5.6448 -4.0628 -3.0000 0.9702
-5.2606 -4.5490 -2.9999 0.9702
-3.8714 -5.7764 -2.9996 0.9702
-3.3417 -6.0978 -2.9995 0.9702
-2.7856 -6.3707 -2.9993 0.9702
-2.2074 -6.5931 -2.9992 0.9702
-1.6117 -6.7630 -2.9990 0.9702
-1.0033 -6.8793 -2.9989 0.9702
-0.3870 -6.9409 -2.9987 0.9702
0.8497 -6.8988 -2.9984 0.9702
1.4603 -6.7955 -2.9982 0.9702
3.7393 -5.8575 -2.9976 0.9702
4.7182 -5.1013 -2.9974 0.9702
5.1533 -4.6609 -2.9973 0.9702
5.8977 -3.6731 -2.9971 0.9702
6.9044 -0.7723 -2.9968 0.9702
6.9457 -0.1547 -2.9968 0.9702
6.8631 1.0792 -2.9968 0.9702
6.7399 1.6858 -2.9969 0.9702
6.0554 3.4068 -2.9970 0.9702
5.7283 3.9323 -2.9971 0.9702
7.5883 6.2719 -4.2466 0.9580
4.7702 4.7174 -2.8939 0.9712
4.2583 5.0369 -2.8451 0.9717
3.7933 5.3961 -2.8452 0.9717
3.2981 5.7125 -2.8453 0.9717
2.7767 5.9837 -2.8455 0.9717
1.6720 6.3819 -2.8458 0.9717
1.0974 6.5057 -2.8459 0.9717
0.5140 6.5779 -2.8461 0.9717
-0.0735 6.5979 -2.8462 0.9717
-0.6605 6.5655 -2.8464 0.9717
-2.3719 6.1587 -2.8468 0.9717
-3.4266 5.6411 -2.8471 0.9717
-5.0127 4.7410 -2.9762 0.9704
-5.8202 3.8075 -3.0001 0.9702
-6.1362 3.2744 -3.0002 0.9702
-6.4034 2.7153 -3.0002 0.9702
-6.6198 2.1346 -3.0003 0.9702
-6.7836 1.5370 -3.0003 0.9702
-6.8936 0.9271 -3.0004 0.9702
-6.9487 -0.3098 -3.0004 0.9702
-6.6198 -2.1346 -3.0003 0.9702
-6.4034 -2.7153 -3.0002 0.9702
-6.1362 -3.2743 -3.0002 0.9702
-2.4990 -6.4883 -2.9992 0.9702
-1.9115 -6.6847 -2.9991 0.9702
1.1561 -6.8540 -2.9983 0.9702
3.9964 -5.6850 -2.9976 0.9702
5.3558 -4.4266 -2.9972 0.9702
5.7283 -3.9322 -2.9971 0.9702
6.3344 -2.8541 -2.9970 0.9702
6.5632 -2.2790 -2.9969 0.9702
6.7399 -1.6857 -2.9969 0.9702
6.9457 0.1548 -2.9968 0.9702
6.8082 1.3839 -2.9968 0.9702
6.6581 1.9844 -2.9969 0.9702
6.2011 3.1336 -2.9970 0.9702
5.5475 4.1836 -2.9972 0.9702
4.4784 4.8420 -2.8450 0.9717
3.5492 5.5598 -2.8453 0.9717
3.0404 5.8539 -2.8454 0.9717
2.5075 6.1016 -2.8455 0.9717
1.9545 6.3009 -2.8457 0.9717
0.8065 6.5483 -2.8460 0.9717
0.2205 6.5944 -2.8461 0.9717
-2.0952 6.2581 -2.8467 0.9717
-2.6440 6.0470 -2.8469 0.9717
-3.1719 5.7880 -2.8470 0.9717
-3.6746 5.4830 -2.8471 0.9717
-4.1482 5.1343 -2.8472 0.9717
-4.6075 4.7642 -2.8589 0.9715
-5.6448 4.0629 -3.0000 0.9702
-5.9841 3.5445 -3.0001 0.9702
-6.2760 2.9979 -3.0002 0.9702
-6.5181 2.4274 -3.0003 0.9702
-6.7084 1.8376 -3.0003 0.9702
-6.8454 1.2333 -3.0003 0.9702
-6.6493 0.0000 -3.0003 0.9712
-6.6229 -0.5918 -3.0003 0.9712
-6.5439 -1.1789 -3.0003 0.9712
-6.4130 -1.7566 -3.0002 0.9712
-6.2311 -2.3204 -3.0002 0.9712
-5.9997 -2.8658 -3.0001 0.9712
-5.7206 -3.3883 -3.0001 0.9712
-5.3962 -3.8839 -3.0000 0.9712
-5.0289 -4.3487 -2.9999 0.9712
-4.1779 -5.1711 -2.9997 0.9712
-2.1102 -6.3029 -2.9991 0.9713
-0.3700 -6.6354 -2.9987 0.9713
0.8123 -6.5952 -2.9984 0.9713
1.9686 -6.3461 -2.9981 0.9713
4.9266 -4.4558 -2.9973 0.9713
5.3035 -3.9995 -2.9972 0.9713
5.6383 -3.5115 -2.9971 0.9713
5.9283 -2.9957 -2.9971 0.9713
6.6401 -0.1479 -2.9969 0.9713
6.5612 1.0318 -2.9969 0.9713
6.4434 1.6116 -2.9969 0.9713
6.0558 2.7286 -2.9970 0.9713
4.7233 4.6710 -2.9974 0.9713
4.0710 4.8152 -2.8451 0.9727
2.6545 5.7204 -2.8455 0.9727
2.1350 5.9343 -2.8456 0.9727
1.5984 6.1010 -2.8458 0.9727
-0.6314 6.2765 -2.8463 0.9727
-1.1876 6.1957 -2.8465 0.9727
-2.2675 5.8876 -2.8468 0.9727
-3.2758 5.3927 -2.8470 0.9727
-4.8301 4.5684 -2.9998 0.9712
-5.2178 4.1205 -2.9999 0.9712
-6.1214 2.5958 -3.0002 0.9712
-6.4849 1.4693 -3.0003 0.9712
-6.5900 0.8863 -3.0003 0.9712
-6.6427 -0.2962 -3.0003 0.9712
-6.5900 -0.8862 -3.0003 0.9712
-5.8660 -3.1302 -3.0001 0.9712
-4.4042 -4.9799 -2.9997 0.9712
-2.9317 -5.9658 -2.9993 0.9713
-2.3890 -6.2027 -2.9992 0.9713
-1.8273 -6.3904 -2.9991 0.9713
0.5177 -6.6250 -2.9985 0.9713
1.1052 -6.5523 -2.9983 0.9713
1.6840 -6.4277 -2.9982 0.9713
3.3218 -5.7536 -2.9977 0.9713
3.8206 -5.4348 -2.9976 0.9713
5.4763 -3.7592 -2.9972 0.9713
6.0558 -2.7286 -2.9970 0.9713
6.5612 -1.0316 -2.9969 0.9713
6.6270 -0.4436 -2.9969 0.9713
6.6006 0.7384 -2.9969 0.9713
5.9283 2.9957 -2.9971 0.9713
5.3035 3.9996 -2.9972 0.9713
3.3931 5.3152 -2.8453 0.9727
2.9067 5.5964 -2.8454 0.9727
2.3971 5.8331 -2.8456 0.9727
1.8685 6.0236 -2.8457 0.9727
1.3251 6.1663 -2.8458 0.9727
0.2108 6.3042 -2.8461 0.9727
-0.3512 6.2983 -2.8463 0.9727
-1.4625 6.1368 -2.8466 0.9727
-2.5276 5.7808 -2.8468 0.9727
-3.0322 5.5332 -2.8470 0.9727
-3.9656 4.9083 -2.8472 0.9727
-4.5837 4.7395 -2.9750 0.9715
-5.7206 3.3884 -3.0001 0.9712
-5.9997 2.8658 -3.0001 0.9712
-6.2310 2.3205 -3.0002 0.9712
-6.5439 1.1790 -3.0003 0.9712
-6.3648 0.0000 -3.0002 0.9722
-6.2639 -1.1285 -3.0002 0.9722
-6.1385 -1.6815 -3.0002 0.9722
-5.9644 -2.2212 -3.0001 0.9722
-5.4759 -3.2433 -3.0000 0.9722
-5.1653 -3.7177 -2.9999 0.9722
-4.8138 -4.1626 -2.9998 0.9723
-4.4240 -4.5744 -2.9997 0.9723
-3.9992 -4.9498 -2.9996 0.9723
-1.4749 -6.1888 -2.9990 0.9723
0.7775 -6.3132 -2.9984 0.9723
2.9314 -5.6438 -2.9978 0.9723
3.4219 -5.3604 -2.9977 0.9723
3.8853 -5.0343 -2.9976 0.9723
4.7160 -4.2653 -2.9974 0.9723
5.6749 -2.8676 -2.9971 0.9723
5.9075 -2.3511 -2.9971 0.9723
6.0932 -1.8159 -2.9970 0.9723
6.3185 -0.7068 -2.9970 0.9723
6.3563 -0.1416 -2.9970 0.9723
6.3437 0.4247 -2.9970 0.9723
6.1680 1.5428 -2.9970 0.9723
5.5415 3.1177 -2.9972 0.9723
4.5214 4.4713 -2.9974 0.9723
3.4714 4.9381 -2.8453 0.9737
1.5300 5.8401 -2.8458 0.9737
1.0042 5.9534 -2.8459 0.9737
-0.6044 6.0080 -2.8463 0.9737
-1.1368 5.9307 -2.8465 0.9736
-1.6602 5.8063 -2.8466 0.9736
-2.6636 5.4204 -2.8469 0.9736
-3.5828 4.8626 -2.8471 0.9736
-4.1892 4.7369 -2.9808 0.9724
-4.6234 4.3729 -2.9998 0.9723
-4.9945 3.9442 -2.9999 0.9722
-5.3259 3.4841 -3.0000 0.9722
-5.8595 2.4847 -3.0001 0.9722
-6.0575 1.9533 -3.0001 0.9722
-6.2074 1.4064 -3.0002 0.9722
-6.3080 0.8484 -3.0002 0.9722
-6.3585 -0.2835 -3.0002 0.9722
-6.0575 -1.9532 -3.0001 0.9722
-5.8595 -2.4846 -3.0001 0.9722
-5.6150 -2.9962 -3.0000 0.9722
-4.9945 -3.9441 -2.9999 0.9722
-4.6235 -4.3729 -2.9998 0.9723
-2.2868 -5.9374 -2.9992 0.9723
-1.1977 -6.2482 -2.9989 0.9723
-0.6368 -6.3297 -2.9988 0.9723
0.4956 -6.3417 -2.9985 0.9723
2.1531 -5.9846 -2.9980 0.9723
2.6771 -5.7690 -2.9979 0.9723
4.1056 -4.8561 -2.9975 0.9723
4.5214 -4.4713 -2.9974 0.9723
4.9013 -4.0510 -2.9973 0.9723
5.2422 -3.5986 -2.9972 0.9723
5.5415 -3.1176 -2.9972 0.9723
6.3185 0.7069 -2.9970 0.9723
6.2305 1.2665 -2.9970 0.9723
5.9075 2.3511 -2.9971 0.9723
5.6749 2.8677 -2.9971 0.9723
5.3972 3.3615 -2.9972 0.9723
4.7160 4.2654 -2.9974 0.9723
2.7824 5.3571 -2.8455 0.9737
2.2946 5.5837 -2.8456 0.9737
1.7886 5.7661 -2.8457 0.9737
0.2018 6.0346 -2.8461 0.9737
-0.8715 5.9754 -2.8464 0.9737
-1.3999 5.8743 -2.8465 0.9736
-2.9025 5.2965 -2.8469 0.9736
-3.3625 5.0173 -2.8470 0.9736
-4.4240 4.5745 -2.9997 0.9723
-4.8138 4.1627 -2.9998 0.9723
-5.1653 3.7178 -2.9999 0.9722
-5.7429 2.7432 -3.0001 0.9722
-5.9644 2.2212 -3.0001 0.9722
-6.2639 1.1286 -3.0002 0.9722
-6.3395 0.5665 -3.0002 0.9722
-6.0997 0.0000 -3.0002 0.9732
-6.0030 -1.0815 -3.0001 0.9732
-5.7160 -2.1286 -3.0001 0.9732
-5.5037 -2.6289 -3.0000 0.9732
-5.2478 -3.1082 -2.9999 0.9732
-4.2398 -4.3839 -2.9997 0.9732
-3.3951 -5.0658 -2.9995 0.9732
-2.9306 -5.3477 -2.9993 0.9732
-1.9358 -5.7820 -2.9991 0.9732
-1.4135 -5.9311 -2.9990 0.9732
-0.3394 -6.0872 -2.9987 0.9732
0.7452 -6.0504 -2.9984 0.9732
1.8060 -5.8219 -2.9981 0.9732
2.3169 -5.6377 -2.9980 0.9732
2.8094 -5.4089 -2.9979 0.9732
3.7236 -4.8248 -2.9976 0.9732
4.1381 -4.4740 -2.9975 0.9732
5.8396 -1.7404 -2.9971 0.9732
5.9713 -1.2137 -2.9971 0.9732
6.0556 -0.6774 -2.9970 0.9732
6.0918 -0.1357 -2.9970 0.9732
6.0194 0.9466 -2.9970 0.9732
5.9113 1.4786 -2.9971 0.9732
5.7563 1.9989 -2.9971 0.9732
5.5557 2.5033 -2.9972 0.9732
5.3109 2.9879 -2.9972 0.9732
4.6973 3.8824 -2.9974 0.9732
3.9347 4.6541 -2.9976 0.9732
2.4353 5.2479 -2.8456 0.9745
1.9586 5.4440 -2.8457 0.9745
1.4663 5.5970 -2.8458 0.9745
-0.0645 5.7863 -2.8462 0.9745
-0.5792 5.7579 -2.8463 0.9745
-1.5911 5.5645 -2.8466 0.9745
-2.0801 5.4011 -2.8467 0.9745
-2.5527 5.1947 -2.8468 0.9745
-3.0051 4.9471 -2.8470 0.9745
-3.4990 4.7489 -2.9013 0.9740
-4.4309 4.1908 -2.9997 0.9732
-5.3811 2.8715 -3.0000 0.9732
-5.6154 2.3812 -3.0000 0.9732
-5.8052 1.8720 -3.0001 0.9732
-5.9488 1.3479 -3.0001 0.9732
-6.0936 0.2718 -3.0002 0.9732
-6.0452 -0.8130 -3.0001 0.9732
-5.9488 -1.3478 -3.0001 0.9732
-5.6154 -2.3811 -3.0000 0.9732
-5.1041 -3.3389 -2.9999 0.9732
-4.7865 -3.7798 -2.9998 0.9732
-4.0402 -4.5683 -2.9996 0.9732
-3.6174 -4.9096 -2.9995 0.9732
-3.1660 -5.2119 -2.9994 0.9732
-1.6763 -5.8624 -2.9990 0.9732
0.4749 -6.0777 -2.9985 0.9732
1.0139 -6.0111 -2.9983 0.9732
1.5449 -5.8966 -2.9982 0.9732
2.0635 -5.7355 -2.9981 0.9732
2.5657 -5.5288 -2.9979 0.9732
3.5050 -4.9859 -2.9977 0.9732
4.6973 -3.8824 -2.9974 0.9732
5.0240 -3.4488 -2.9973 0.9732
5.3109 -2.9879 -2.9972 0.9732
5.5557 -2.5032 -2.9972 0.9732
5.7563 -1.9988 -2.9971 0.9732
5.9113 -1.4785 -2.9971 0.9732
6.0194 -0.9465 -2.9970 0.9732
6.0797 -0.4069 -2.9970 0.9732
6.0556 0.6775 -2.9970 0.9732
5.8396 1.7404 -2.9971 0.9732
5.4387 2.7484 -2.9972 0.9732
4.5197 4.0879 -2.9974 0.9732
3.6391 4.7153 -2.9296 0.9738
3.1128 4.8762 -2.8454 0.9745
2.1991 5.3513 -2.8456 0.9745
1.7142 5.5260 -2.8457 0.9745
1.2156 5.6569 -2.8459 0.9745
0.7073 5.7429 -2.8460 0.9745
0.1934 5.7834 -2.8461 0.9745
-0.3222 5.7779 -2.8463 0.9745
-0.8352 5.7265 -2.8464 0.9745
-2.3187 5.3031 -2.8468 0.9745
-2.7816 5.0759 -2.8469 0.9745
-3.2225 4.8084 -2.8470 0.9745
-4.6133 3.9893 -2.9998 0.9732
-5.2478 3.1083 -2.9999 0.9732
-5.5037 2.6290 -3.0000 0.9732
-5.7160 2.1287 -3.0001 0.9732
-6.0755 0.5430 -3.0001 0.9732
-5.8519 0.0000 -3.0001 0.9740
-5.8287 -0.5208 -3.0001 0.9740
-5.6439 -1.5460 -3.0000 0.9740
-5.4838 -2.0421 -3.0000 0.9740
-5.0346 -2.9820 -2.9999 0.9740
-4.4259 -3.8272 -2.9997 0.9740
-3.6770 -4.5510 -2.9995 0.9740
-2.8116 -5.1305 -2.9993 0.9740
-2.3437 -5.3601 -2.9992 0.9740
-0.8442 -5.7881 -2.9988 0.9740
1.7327 -5.5855 -2.9981 0.9741
2.2228 -5.4089 -2.9980 0.9741
3.1464 -4.9287 -2.9978 0.9741
3.5724 -4.6289 -2.9977 0.9741
3.9701 -4.2924 -2.9976 0.9741
4.3363 -3.9219 -2.9975 0.9741
4.6680 -3.5203 -2.9974 0.9741
4.9627 -3.0907 -2.9973 0.9741
5.2180 -2.6367 -2.9973 0.9741
5.4319 -2.1618 -2.9972 0.9741
5.6026 -1.6697 -2.9972 0.9741
5.8098 -0.6499 -2.9971 0.9741
5.8446 -0.1302 -2.9971 0.9741
5.8330 0.3905 -2.9971 0.9741
5.6714 1.4186 -2.9971 0.9741
5.5227 1.9177 -2.9972 0.9741
5.3302 2.4017 -2.9972 0.9741
5.0954 2.8667 -2.9973 0.9741
4.5066 3.7249 -2.9974 0.9741
4.1573 4.1113 -2.9975 0.9741
3.3126 4.7123 -2.9530 0.9744
1.4068 5.3698 -2.8458 0.9754
0.4325 5.5346 -2.8461 0.9754
-0.0618 5.5514 -2.8462 0.9754
-0.5557 5.5241 -2.8463 0.9754
-1.0452 5.4530 -2.8465 0.9754
-3.8760 4.3828 -2.9996 0.9740
-4.5921 3.6263 -2.9998 0.9740
-5.1625 2.7548 -2.9999 0.9740
-5.5694 1.7959 -3.0000 0.9740
-5.7072 1.2931 -3.0001 0.9740
-5.7997 0.7800 -3.0001 0.9740
-5.7072 -1.2930 -3.0001 0.9740
-5.3873 -2.2844 -3.0000 0.9740
-4.8967 -3.2033 -2.9998 0.9740
-4.5921 -3.6263 -2.9998 0.9740
-4.2510 -4.0205 -2.9997 0.9740
-3.8761 -4.3828 -2.9996 0.9740
-3.0374 -5.0002 -2.9994 0.9740
-2.5802 -5.2505 -2.9993 0.9740
-1.1012 -5.7449 -2.9989 0.9740
1.4821 -5.6572 -2.9982 0.9741
1.9797 -5.5027 -2.9981 0.9741
2.4615 -5.3044 -2.9980 0.9741
2.9238 -5.0640 -2.9978 0.9741
3.3628 -4.7836 -2.9977 0.9741
4.1573 -4.1112 -2.9975 0.9741
4.5066 -3.7248 -2.9974 0.9741
5.3302 -2.4016 -2.9972 0.9741
5.8330 -0.3905 -2.9971 0.9741
5.8098 0.6500 -2.9971 0.9741
5.6026 1.6698 -2.9971 0.9741
5.4319 2.1619 -2.9972 0.9741
5.2180 2.6368 -2.9972 0.9741
4.9627 3.0908 -2.9973 0.9741
4.6680 3.5204 -2.9974 0.9741
4.3363 3.9220 -2.9975 0.9741
3.5724 4.6290 -2.9977 0.9741
2.5583 4.9257 -2.8455 0.9754
1.6446 5.3017 -2.8458 0.9754
1.1663 5.4273 -2.8459 0.9754
0.6786 5.5098 -2.8460 0.9754
0.1855 5.5485 -2.8461 0.9754
-0.8013 5.4940 -2.8464 0.9754
-1.7628 5.2654 -2.8466 0.9753
-3.1786 4.7429 -2.9271 0.9747
-4.4259 3.8273 -2.9997 0.9740
-4.7491 3.4183 -2.9998 0.9740
-5.2802 2.5222 -2.9999 0.9740
-5.4838 2.0422 -3.0000 0.9740
-5.6439 1.5460 -3.0000 0.9740
-5.8287 0.5209 -3.0001 0.9740
-5.6197 0.0000 -3.0000 0.9748
-5.5974 -0.5002 -3.0000 0.9748
-5.0707 -2.4220 -2.9999 0.9748
-4.5607 -3.2826 -2.9998 0.9748
-4.2503 -3.6753 -2.9997 0.9748
-3.9062 -4.0389 -2.9996 0.9748
-3.5311 -4.3704 -2.9995 0.9748
-2.7000 -4.9269 -2.9993 0.9748
-1.3023 -5.4645 -2.9989 0.9748
-0.3127 -5.6084 -2.9987 0.9749
0.1877 -5.6137 -2.9985 0.9749
0.6866 -5.5745 -2.9984 0.9749
1.6639 -5.3640 -2.9982 0.9749
2.1347 -5.1944 -2.9980 0.9749
3.0216 -4.7333 -2.9978 0.9749
4.1644 -3.7664 -2.9975 0.9749
5.0111 -2.5322 -2.9973 0.9749
5.2165 -2.0761 -2.9973 0.9749
5.5795 -0.6241 -2.9972 0.9749
5.5462 0.8721 -2.9972 0.9749
5.4466 1.3623 -2.9972 0.9749
5.3038 1.8417 -2.9972 0.9749
5.1189 2.3065 -2.9973 0.9749
4.8934 2.7530 -2.9973 0.9749
4.6290 3.1777 -2.9974 0.9749
3.6254 4.2881 -2.9977 0.9749
3.2294 4.5939 -2.9978 0.9749
2.7264 4.7224 -2.9110 0.9756
0.4153 5.3152 -2.8461 0.9761
-1.4659 5.1268 -2.8466 0.9761
-2.3518 4.7860 -2.8468 0.9761
-2.8768 4.7359 -2.9581 0.9752
-3.7223 4.2089 -2.9995 0.9748
-4.0823 3.8611 -2.9996 0.9748
-4.4099 3.4825 -2.9997 0.9748
-4.7024 3.0762 -2.9998 0.9748
-4.9577 2.6455 -2.9999 0.9748
-5.1736 2.1938 -2.9999 0.9748
-5.5695 0.7491 -3.0000 0.9748
-5.6141 0.2504 -3.0000 0.9748
-5.6141 -0.2503 -3.0000 0.9748
-5.5695 -0.7490 -3.0000 0.9748
-5.3484 -1.7246 -3.0000 0.9748
-4.4099 -3.4824 -2.9997 0.9748
-2.0191 -5.2425 -2.9991 0.9748
-1.0575 -5.5170 -2.9989 0.9749
-0.5623 -5.5890 -2.9987 0.9749
-0.0626 -5.6166 -2.9986 0.9749
0.4376 -5.5997 -2.9985 0.9749
1.4234 -5.4329 -2.9982 0.9749
1.9012 -5.2845 -2.9981 0.9749
2.3639 -5.0940 -2.9980 0.9749
3.2294 -4.5939 -2.9978 0.9749
3.9925 -3.9482 -2.9976 0.9749
4.6290 -3.1776 -2.9974 0.9749
4.8934 -2.7529 -2.9973 0.9749
5.1189 -2.3064 -2.9973 0.9749
5.3038 -1.8416 -2.9972 0.9749
5.4466 -1.3622 -2.9972 0.9749
5.5462 -0.8721 -2.9972 0.9749
5.6018 -0.3750 -2.9972 0.9749
5.5795 0.6242 -2.9972 0.9749
5.5018 1.1183 -2.9972 0.9749
5.3805 1.6036 -2.9972 0.9749
5.2165 2.0762 -2.9972 0.9749
4.4829 3.3808 -2.9974 0.9749
3.4308 4.4454 -2.9977 0.9749
3.0055 4.7082 -2.9819 0.9750
2.0262 4.9305 -2.8457 0.9761
-0.2968 5.3234 -2.8463 0.9761
-0.7695 5.2761 -2.8464 0.9761
-1.6929 5.0565 -2.8466 0.9761
-3.1280 4.6673 -2.9994 0.9748
-3.9062 4.0390 -2.9996 0.9748
-4.5607 3.2826 -2.9998 0.9748
-4.8349 2.8637 -2.9998 0.9748
-5.2662 1.9612 -2.9999 0.9748
-5.4199 1.4847 -3.0000 0.9748
-5.5306 0.9964 -3.0000 0.9748
-5.5974 0.5002 -3.0000 0.9748
-5.3801 -0.4807 -3.0000 0.9756
-5.3159 -0.9577 -3.0000 0.9756
-5.2095 -1.4270 -2.9999 0.9756
-5.0618 -1.8850 -2.9999 0.9756
-4.8738 -2.3280 -2.9998 0.9756
-4.3836 -3.1551 -2.9997 0.9756
-4.0853 -3.5327 -2.9996 0.9756
-3.0066 -4.4861 -2.9994 0.9756
-1.7143 -5.1204 -2.9990 0.9756
-1.2517 -5.2525 -2.9989 0.9756
-0.7792 -5.3428 -2.9988 0.9756
-0.3006 -5.3907 -2.9987 0.9756
0.1804 -5.3959 -2.9985 0.9756
0.6599 -5.3582 -2.9984 0.9756
1.5994 -5.1559 -2.9982 0.9756
2.0519 -4.9929 -2.9981 0.9756
2.4880 -4.7902 -2.9980 0.9756
2.9044 -4.5496 -2.9978 0.9756
3.6648 -3.9623 -2.9977 0.9756
4.0028 -3.6203 -2.9976 0.9756
4.3090 -3.2496 -2.9975 0.9756
4.5811 -2.8531 -2.9974 0.9756
4.8167 -2.4340 -2.9974 0.9756
5.1718 -1.5413 -2.9973 0.9756
5.3952 -0.1202 -2.9972 0.9756
5.3845 0.3605 -2.9972 0.9756
5.2353 1.3095 -2.9972 0.9756
5.0980 1.7703 -2.9973 0.9756
4.9203 2.2170 -2.9973 0.9756
4.7036 2.6462 -2.9974 0.9756
3.8376 3.7952 -2.9976 0.9756
3.4847 4.1218 -2.9977 0.9756
3.1041 4.4157 -2.9978 0.9756
1.7346 4.8213 -2.8457 0.9768
0.8523 5.0529 -2.8460 0.9768
0.3992 5.1089 -2.8461 0.9768
-0.0571 5.1243 -2.8462 0.9768
-2.3285 4.7385 -2.9323 0.9761
-2.8037 4.6155 -2.9993 0.9756
-3.5778 4.0456 -2.9995 0.9756
-3.9238 3.7112 -2.9996 0.9756
-4.2387 3.3473 -2.9997 0.9756
-4.5199 2.9568 -2.9997 0.9756
-4.9727 2.1086 -2.9999 0.9756
-5.2679 1.1936 -2.9999 0.9756
-5.3533 0.7200 -3.0000 0.9756
-5.3961 0.2407 -3.0000 0.9756
-5.3961 -0.2406 -3.0000 0.9756
-5.3533 -0.7199 -3.0000 0.9756
-5.2679 -1.1935 -2.9999 0.9756
-5.1407 -1.6576 -2.9999 0.9756
-4.5199 -2.9567 -2.9998 0.9756
-4.2387 -3.3472 -2.9997 0.9756
-3.9238 -3.7111 -2.9996 0.9756
-2.8037 -4.6155 -2.9993 0.9756
-1.0165 -5.3029 -2.9989 0.9756
-0.5404 -5.3721 -2.9987 0.9756
-0.0601 -5.3987 -2.9986 0.9756
1.3681 -5.2221 -2.9982 0.9756
1.8274 -5.0794 -2.9981 0.9756
3.1041 -4.4156 -2.9978 0.9756
3.8376 -3.7951 -2.9976 0.9756
4.1601 -3.4383 -2.9975 0.9756
4.4495 -3.0544 -2.9974 0.9756
4.9203 -2.2170 -2.9973 0.9756
5.0981 -1.7702 -2.9973 0.9756
5.3310 -0.8382 -2.9972 0.9756
5.3845 -0.3604 -2.9972 0.9756
5.3952 0.1203 -2.9972 0.9756
5.3631 0.6000 -2.9972 0.9756
4.8167 2.4340 -2.9974 0.9756
4.3090 3.2496 -2.9975 0.9756
4.0028 3.6204 -2.9976 0.9756
3.6648 3.9624 -2.9976 0.9756
2.9044 4.5497 -2.9978 0.9756
1.9503 4.7459 -2.8497 0.9768
0.1712 5.1217 -2.8461 0.9768
-0.2853 5.1168 -2.8463 0.9768
-1.1881 4.9856 -2.8465 0.9768
-3.0065 4.4861 -2.9994 0.9756
-3.7546 3.8822 -2.9995 0.9756
-4.0853 3.5327 -2.9996 0.9756
-4.3836 3.1552 -2.9997 0.9756
-5.0617 1.8851 -2.9999 0.9756
-5.2095 1.4271 -2.9999 0.9756
-5.3159 0.9577 -3.0000 0.9756
-5.1960 0.0000 -2.9999 0.9763
-5.1754 -0.4624 -2.9999 0.9763
-5.1137 -0.9212 -2.9999 0.9763
-5.0113 -1.3727 -2.9999 0.9763
-4.8692 -1.8133 -2.9998 0.9763
-4.4704 -2.6478 -2.9997 0.9763
-4.2169 -3.0351 -2.9997 0.9763
-3.6117 -3.7345 -2.9995 0.9763
-2.8922 -4.3154 -2.9993 0.9763
-2.0811 -4.7595 -2.9991 0.9763
-1.6491 -4.9257 -2.9990 0.9763
-1.2041 -5.0527 -2.9989 0.9763
-0.7496 -5.1396 -2.9988 0.9763
-0.2892 -5.1857 -2.9987 0.9763
0.1735 -5.1907 -2.9985 0.9763
1.0911 -5.0773 -2.9983 0.9763
1.5386 -4.9598 -2.9982 0.9763
2.3934 -4.6081 -2.9980 0.9763
2.7940 -4.3767 -2.9979 0.9763
3.1723 -4.1105 -2.9978 0.9763
3.5255 -3.8117 -2.9977 0.9763
5.0874 -1.0340 -2.9973 0.9763
5.1592 -0.5771 -2.9973 0.9763
5.1901 -0.1156 -2.9973 0.9763
5.1284 0.8064 -2.9973 0.9763
5.0363 1.2597 -2.9973 0.9763
