ply
format ascii 1.0
element vertex 1586
property float32 x
property float32 y
property float32 z
property float32 I
end_header
2.5352 -6.1689 -0.1663 0.9737
3.3416 -5.2346 -0.1549 0.9755
3.8691 -5.0134 -0.1579 0.9750
4.5915 -4.9643 -0.1686 0.9733
2.4085 -6.6946 -0.1774 0.9719
2.7099 -5.8397 -0.1605 0.9746
3.1164 -5.3978 -0.1554 0.9754
5.1802 -5.1228 -0.1817 0.9713
2.9110 -5.6046 -0.2626 0.9750
3.8759 -5.0222 -0.2638 0.9749
4.6029 -4.9766 -0.2819 0.9732
2.7155 -5.8517 -0.2682 0.9745
3.1216 -5.4068 -0.2596 0.9753
3.5936 -5.1120 -0.2598 0.9753
4.2009 -4.9688 -0.2705 0.9743
5.2104 -5.1527 -0.3047 0.9711
2.9162 -5.6146 -0.3685 0.9750
3.3526 -5.2518 -0.3629 0.9753
3.8827 -5.0310 -0.3701 0.9749
2.4317 -6.7589 -0.4184 0.9716
4.2093 -4.9787 -0.3797 0.9742
2.5694 -6.2524 -0.5066 0.9732
3.3669 -5.2742 -0.4689 0.9752
3.9015 -5.0553 -0.4785 0.9747
4.6519 -5.0296 -0.5134 0.9729
3.1404 -5.4394 -0.4707 0.9751
3.6152 -5.1427 -0.4711 0.9751
5.3641 -5.3046 -0.5653 0.9702
3.3845 -5.3017 -0.5766 0.9751
3.9232 -5.0835 -0.5887 0.9745
4.6889 -5.0696 -0.6331 0.9726
2.4941 -6.9325 -0.6754 0.9708
2.7551 -5.9371 -0.6001 0.9741
5.6266 -5.5643 -0.7255 0.9687
3.4022 -5.3295 -0.6858 0.9749
4.7266 -5.1103 -0.7550 0.9724
2.7733 -5.9763 -0.7146 0.9738
4.2884 -5.0723 -0.7205 0.9736
2.6510 -6.4509 -0.8740 0.9723
3.4245 -5.3644 -0.7975 0.9747
4.3304 -5.1220 -0.8405 0.9733
3.0183 -5.8112 -0.9314 0.9739
4.0172 -5.2052 -0.9352 0.9738
4.9194 -5.3188 -1.0305 0.9712
2.8354 -6.1101 -0.9581 0.9732
3.2266 -5.5887 -0.9179 0.9743
4.3851 -5.1867 -0.9661 0.9729
3.4922 -5.4704 -1.0335 0.9741
4.0631 -5.2647 -1.0590 0.9734
5.1151 -5.5304 -1.1996 0.9699
2.8712 -6.1873 -1.0862 0.9728
3.7556 -5.3423 -1.0399 0.9739
4.4500 -5.2635 -1.0975 0.9725
3.0963 -5.9613 -1.1845 0.9731
3.5355 -5.5382 -1.1586 0.9737
2.9279 -6.3094 -1.2265 0.9721
3.3006 -5.7168 -1.1640 0.9735
4.5581 -5.3913 -1.2449 0.9717
3.1533 -6.0712 -1.3239 0.9725
3.5946 -5.6309 -1.2928 0.9731
12.8343 7.2204 -2.8497 0.9418
12.1399 8.3336 -2.8495 0.9418
11.3491 9.3803 -2.8493 0.9418
10.4683 10.3523 -2.8491 0.9418
9.5044 11.2419 -2.8488 0.9418
8.4653 12.0420 -2.8485 0.9418
7.3591 12.7463 -2.8482 0.9418
6.1947 13.3493 -2.8479 0.9418
4.9814 13.8460 -2.8476 0.9418
2.4469 14.5063 -2.8469 0.9418
-0.1638 14.7066 -2.8462 0.9418
-1.4720 14.6318 -2.8458 0.9418
-4.0419 14.1355 -2.8451 0.9419
-5.2834 13.7180 -2.8448 0.9419
-7.6302 12.5611 -2.8441 0.9419
-9.7345 11.0070 -2.8436 0.9419
-10.6746 10.0960 -2.8433 0.9419
-12.9598 6.9155 -2.8427 0.9419
3.0059 -6.4776 -1.3819 0.9713
4.6868 -5.5435 -1.4048 0.9709
13.1436 6.6418 -2.8498 0.9418
11.7562 8.8657 -2.8494 0.9418
9.9963 10.8079 -2.8490 0.9418
6.7836 13.0607 -2.8481 0.9418
4.3594 14.0533 -2.8474 0.9418
3.0909 14.3838 -2.8471 0.9418
1.7982 14.6000 -2.8467 0.9418
0.4915 14.7002 -2.8463 0.9418
-0.8188 14.6838 -2.8460 0.9418
-3.4084 14.3024 -2.8453 0.9419
-4.6673 13.9406 -2.8449 0.9419
-5.8889 13.4683 -2.8446 0.9419
-7.0635 12.8893 -2.8443 0.9419
-9.2349 11.4302 -2.8437 0.9419
-10.2147 10.5619 -2.8434 0.9419
-13.2546 6.3312 -2.8426 0.9419
-13.7648 5.1261 -2.8425 0.9419
-13.3132 -4.9579 -2.9950 0.9436
-12.8197 -6.1234 -2.9951 0.9436
-12.2244 -7.2406 -2.9953 0.9436
-10.7484 -9.2945 -2.9957 0.9436
-8.9317 -11.0549 -2.9962 0.9436
-7.9130 -11.8071 -2.9965 0.9436
-6.8314 -12.4657 -2.9968 0.9435
-3.2964 -13.8321 -2.9977 0.9435
2.9891 -13.9101 -2.9995 0.9435
4.2158 -13.5903 -2.9998 0.9435
5.4092 -13.1626 -3.0001 0.9435
3.2352 -6.2289 -1.4797 0.9717
3.6615 -5.7357 -1.4346 0.9726
4.3324 -5.6136 -1.4949 0.9714
9.6665 -10.4513 -3.0013 0.9435
10.5592 -9.5503 -3.0015 0.9435
14.1538 -1.5833 -3.0025 0.9434
14.2103 0.9513 -3.0025 0.9434
13.8160 3.4556 -3.0024 0.9434
12.3235 5.5528 -2.8496 0.9462
11.7798 6.6272 -2.8494 0.9462
11.1425 7.6489 -2.8493 0.9462
9.6083 9.5019 -2.8488 0.9463
8.7238 10.3185 -2.8486 0.9463
-0.1504 13.4997 -2.8462 0.9463
-1.3512 13.4311 -2.8458 0.9463
-3.7103 12.9758 -2.8452 0.9463
-4.8500 12.5927 -2.8449 0.9463
-8.0022 10.8607 -2.8440 0.9463
-8.9363 10.1044 -2.8438 0.9464
-9.3873 7.4131 -2.5217 0.9523
-11.2858 7.3828 -2.8431 0.9464
-11.8974 6.3486 -2.8430 0.9464
-13.8545 3.1390 -2.9948 0.9436
-14.1911 0.6328 -2.9947 0.9436
-13.8545 -3.1390 -2.9948 0.9436
-12.5345 -6.6886 -2.9952 0.9436
-11.8901 -7.7782 -2.9954 0.9436
-6.2696 -12.7583 -2.9969 0.9435
-3.9090 -13.6708 -2.9976 0.9435
-1.4236 -14.1505 -2.9983 0.9435
1.1082 -14.1819 -2.9989 0.9435
3.6060 -13.7639 -2.9996 0.9435
4.8173 -13.3898 -3.0000 0.9435
3.1779 -6.8481 -1.5916 0.9696
3.4217 -5.9266 -1.4427 0.9724
3.9546 -5.6255 -1.4497 0.9723
9.1909 -10.8711 -3.0012 0.9435
10.1229 -10.0107 -3.0014 0.9435
12.4106 -6.9821 -3.0020 0.9435
13.4532 -4.6715 -3.0023 0.9434
13.8160 -3.4556 -3.0024 0.9434
14.0691 -2.2122 -3.0025 0.9434
14.2386 0.3173 -3.0025 0.9434
14.1537 1.5833 -3.0025 0.9434
12.0636 6.0961 -2.8495 0.9462
10.7903 8.1374 -2.8492 0.9463
9.1752 9.9201 -2.8487 0.9463
8.2551 10.6964 -2.8485 0.9463
5.1343 12.4936 -2.8476 0.9463
4.0015 12.8995 -2.8473 0.9463
1.6506 13.4016 -2.8467 0.9463
0.4512 13.4938 -2.8463 0.9463
-1.9480 13.3569 -2.8457 0.9463
-3.1288 13.1290 -2.8454 0.9463
-9.3771 9.6959 -2.8436 0.9464
-9.6928 6.9764 -2.5177 0.9524
-11.6031 6.8725 -2.8430 0.9464
-12.1681 5.8122 -2.8429 0.9464
-12.8558 4.7876 -2.8921 0.9455
-13.1221 0.0000 -2.9950 0.9476
-12.9145 -2.3267 -2.9951 0.9476
-11.8421 -5.6565 -2.9954 0.9476
-11.2922 -6.6884 -2.9955 0.9476
-9.9287 -8.5856 -2.9959 0.9476
-9.1258 -9.4360 -2.9961 0.9476
-8.2503 -10.2116 -2.9964 0.9476
-7.3094 -10.9063 -2.9966 0.9476
-4.1695 -12.4535 -2.9975 0.9475
-3.0448 -12.7765 -2.9978 0.9475
-1.8957 -12.9981 -2.9981 0.9475
-0.7314 -13.1167 -2.9984 0.9475
0.4390 -13.1311 -2.9988 0.9475
2.7609 -12.8479 -2.9994 0.9475
3.3606 -6.4703 -1.6641 0.9705
3.7689 -5.9039 -1.5987 0.9717
9.7524 -8.8205 -3.0013 0.9475
10.4995 -7.9180 -3.0015 0.9475
11.7384 -5.9316 -3.0018 0.9475
12.2203 -4.8635 -3.0020 0.9475
13.0720 -1.4623 -3.0022 0.9475
12.9938 2.0432 -3.0022 0.9475
12.7601 3.1915 -3.0021 0.9475
11.3818 5.1284 -2.8493 0.9501
10.8796 6.1208 -2.8492 0.9501
10.2910 7.0644 -2.8490 0.9501
8.8742 8.7759 -2.8486 0.9501
8.0573 9.5302 -2.8484 0.9501
6.2388 10.8059 -2.8479 0.9501
5.2517 11.3172 -2.8477 0.9501
4.2232 11.7386 -2.8474 0.9501
3.1613 12.0666 -2.8471 0.9501
2.0746 12.2988 -2.8468 0.9501
-0.1389 12.4691 -2.8462 0.9501
-1.2480 12.4060 -2.8459 0.9501
-2.3470 12.2444 -2.8456 0.9501
-3.4272 11.9856 -2.8453 0.9501
-5.4969 11.1858 -2.8447 0.9501
-9.0519 8.5613 -2.8437 0.9502
-10.4251 6.8198 -2.8434 0.9502
-11.4680 4.8628 -2.8431 0.9502
-12.7981 2.8996 -2.9951 0.9476
-13.1091 0.5846 -2.9950 0.9476
-12.4896 -4.0274 -2.9952 0.9476
-11.5786 -6.1785 -2.9955 0.9476
-10.9834 -7.1849 -2.9956 0.9476
-9.5367 -9.0197 -2.9960 0.9476
-8.6967 -9.8335 -2.9963 0.9476
-7.7876 -10.5694 -2.9965 0.9476
-6.8166 -11.2216 -2.9968 0.9476
-5.7913 -11.7849 -2.9971 0.9476
-4.7199 -12.2547 -2.9973 0.9475
-3.6107 -12.6275 -2.9977 0.9475
-2.4727 -12.9001 -2.9980 0.9475
2.1857 -12.9575 -2.9992 0.9475
3.3306 -12.7129 -2.9996 0.9475
5.5330 -11.9233 -3.0002 0.9475
4.0788 -5.8022 -1.6188 0.9713
11.4622 -6.4485 -3.0018 0.9475
11.9912 -5.4030 -3.0019 0.9475
12.7601 -3.1915 -3.0021 0.9475
13.0720 1.4623 -3.0022 0.9475
12.8897 2.6199 -3.0022 0.9475
11.1417 5.6302 -2.8493 0.9501
9.9658 7.5156 -2.8489 0.9501
3.6959 11.9144 -2.8472 0.9501
0.4167 12.4636 -2.8463 0.9501
-0.6942 12.4499 -2.8460 0.9501
-1.7994 12.3374 -2.8457 0.9501
-3.9575 11.8205 -2.8451 0.9501
-4.9934 11.4202 -2.8448 0.9501
-6.9378 10.3519 -2.8443 0.9502
-7.8310 9.6925 -2.8441 0.9502
-8.6619 8.9564 -2.8438 0.9502
-9.4240 8.1492 -2.8436 0.9502
-9.6566 6.9504 -2.7156 0.9524
-12.2980 4.5798 -2.9953 0.9476
-12.6564 3.4670 -2.9952 0.9476
-12.9144 2.3266 -2.9951 0.9476
-13.0701 1.1679 -2.9950 0.9476
-11.9931 -2.1607 -2.9953 0.9510
-11.7534 -3.2196 -2.9954 0.9510
-10.9971 -5.2529 -2.9956 0.9510
-10.4864 -6.2111 -2.9958 0.9510
-9.2201 -7.9729 -2.9961 0.9510
-6.7876 -10.1278 -2.9968 0.9510
-3.8717 -11.5643 -2.9976 0.9510
-0.6791 -12.1798 -2.9985 0.9510
1.4914 -12.1097 -2.9991 0.9510
2.5636 -11.9300 -2.9993 0.9510
3.6156 -11.6556 -2.9996 0.9510
5.6260 -10.8319 -3.0002 0.9510
7.4585 -9.6645 -3.0007 0.9510
8.2898 -8.9629 -3.0009 0.9510
9.0553 -8.1900 -3.0011 0.9510
10.3652 -6.4555 -3.0015 0.9509
10.8991 -5.5076 -3.0016 0.9509
11.3465 -4.5158 -3.0017 0.9509
11.7038 -3.4881 -3.0018 0.9509
11.9681 -2.4326 -3.0019 0.9509
12.1373 -1.3577 -3.0020 0.9509
12.1858 0.8158 -3.0020 0.9509
12.0647 1.8971 -3.0019 0.9509
10.1018 5.6832 -2.8490 0.9534
9.5553 6.5594 -2.8488 0.9534
8.9331 7.3834 -2.8487 0.9534
8.2399 8.1486 -2.8485 0.9534
4.8765 10.5085 -2.8476 0.9534
2.9355 11.2045 -2.8470 0.9534
1.9264 11.4202 -2.8467 0.9534
0.9022 11.5452 -2.8465 0.9534
-0.1290 11.5786 -2.8462 0.9534
-1.1589 11.5200 -2.8459 0.9534
-2.1794 11.3700 -2.8456 0.9534
-3.1825 11.1298 -2.8453 0.9534
-4.1601 10.8014 -2.8451 0.9534
-7.6655 8.6675 -2.8441 0.9535
-8.4059 7.9503 -2.8439 0.9535
-9.6812 6.3331 -2.8436 0.9535
-10.2059 5.4461 -2.8434 0.9535
-11.2199 4.7577 -2.9956 0.9510
-11.5985 3.7400 -2.9954 0.9510
-11.8850 2.6928 -2.9954 0.9510
-12.0773 1.6242 -2.9953 0.9510
-12.1738 0.5429 -2.9953 0.9510
-12.0773 -1.6242 -2.9953 0.9510
-10.7524 -5.7377 -2.9957 0.9510
-8.0760 -9.1316 -2.9964 0.9510
-7.2317 -9.8150 -2.9967 0.9510
-6.3300 -10.4206 -2.9969 0.9510
-4.3829 -11.3798 -2.9974 0.9510
-3.3529 -11.7258 -2.9977 0.9510
-2.2962 -11.9789 -2.9980 0.9510
-1.2210 -12.1369 -2.9983 0.9510
2.0295 -12.0318 -2.9992 0.9510
7.0204 -9.9866 -3.0006 0.9510
7.8820 -9.3229 -3.0008 0.9510
8.6812 -8.5850 -3.0010 0.9510
9.4114 -7.7787 -3.0012 0.9510
10.0670 -6.9106 -3.0014 0.9509
10.6427 -5.9875 -3.0015 0.9509
11.1339 -5.0167 -3.0017 0.9509
11.8477 -2.9633 -3.0019 0.9509
12.1858 -0.8157 -3.0020 0.9509
12.1373 1.3578 -3.0020 0.9509
10.3452 5.2276 -2.8491 0.9534
9.8383 6.1274 -2.8489 0.9534
9.2534 6.9783 -2.8488 0.9534
8.5950 7.7737 -2.8486 0.9534
6.2344 9.7661 -2.8479 0.9534
3.4318 11.0632 -2.8472 0.9534
-2.6836 11.2611 -2.8455 0.9534
-3.6749 10.9765 -2.8452 0.9534
-4.6369 10.6048 -2.8449 0.9534
-7.2720 9.0007 -2.8442 0.9535
-8.0437 8.3171 -2.8440 0.9535
-8.7514 7.5677 -2.8438 0.9535
-9.9534 5.8954 -2.8435 0.9535
-10.4382 4.9859 -2.8434 0.9535
-11.4205 4.2531 -2.9955 0.9510
-11.7534 3.2196 -2.9954 0.9510
-11.9930 2.1607 -2.9953 0.9510
-12.1376 1.0846 -2.9953 0.9510
-11.3682 0.0000 -2.9955 0.9541
-11.3231 -1.0118 -2.9955 0.9541
-11.1882 -2.0157 -2.9956 0.9541
-10.9647 -3.0035 -2.9956 0.9541
-10.6541 -3.9677 -2.9957 0.9541
-10.2591 -4.9003 -2.9958 0.9541
-8.6012 -7.4378 -2.9963 0.9541
-7.1472 -8.8462 -2.9967 0.9540
-6.3319 -9.4479 -2.9969 0.9540
-5.4663 -9.9747 -2.9971 0.9540
-3.6117 -10.7877 -2.9977 0.9540
0.3803 -11.3741 -2.9987 0.9540
1.3912 -11.2961 -2.9990 0.9540
2.3914 -11.1285 -2.9993 0.9540
3.3727 -10.8724 -2.9996 0.9540
4.3274 -10.5300 -2.9998 0.9540
5.2479 -10.1039 -3.0001 0.9540
6.9573 -9.0148 -3.0005 0.9540
8.4465 -7.6394 -3.0009 0.9540
9.0935 -6.8577 -3.0011 0.9540
9.6683 -6.0214 -3.0013 0.9540
10.5836 -4.2122 -3.0015 0.9540
10.9168 -3.2536 -3.0016 0.9540
11.3211 -1.2664 -3.0017 0.9540
11.3890 -0.2538 -3.0017 0.9540
11.0510 2.7640 -3.0017 0.9540
9.4226 5.3011 -2.8488 0.9563
8.3325 6.8870 -2.8485 0.9563
7.6860 7.6008 -2.8483 0.9563
6.2157 8.8420 -2.8479 0.9563
5.4036 9.3593 -2.8477 0.9563
3.6579 10.1674 -2.8472 0.9563
2.7382 10.4517 -2.8470 0.9563
-1.0811 10.7462 -2.8459 0.9563
-2.0331 10.6064 -2.8457 0.9563
-2.9688 10.3824 -2.8454 0.9563
-4.7617 9.6899 -2.8449 0.9563
-5.6048 9.2268 -2.8447 0.9563
-6.4033 8.6907 -2.8445 0.9563
-7.1509 8.0857 -2.8443 0.9563
-7.8417 7.4166 -2.8441 0.9563
-10.4670 4.4384 -2.9958 0.9541
-10.8201 3.4890 -2.9957 0.9541
-11.0874 2.5121 -2.9956 0.9541
-11.2668 1.5153 -2.9955 0.9541
-11.3569 0.5064 -2.9955 0.9541
-11.2669 -1.5152 -2.9955 0.9541
-11.0875 -2.5121 -2.9956 0.9541
-10.8201 -3.4890 -2.9957 0.9541
-10.0308 -5.3526 -2.9959 0.9541
-8.2616 -7.8138 -2.9964 0.9541
-5.9050 -9.7209 -2.9970 0.9540
-5.0167 -10.2088 -2.9973 0.9540
-4.0886 -10.6157 -2.9975 0.9540
-3.1277 -10.9384 -2.9978 0.9540
-1.1390 -11.3217 -2.9983 0.9540
-0.1268 -11.3792 -2.9986 0.9540
1.8932 -11.2235 -2.9992 0.9540
4.7923 -10.3272 -3.0000 0.9540
5.6930 -9.8605 -3.0002 0.9540
6.5485 -9.3154 -3.0004 0.9540
7.3522 -8.6962 -3.0007 0.9540
11.3664 -0.7608 -3.0017 0.9540
11.1633 2.2690 -3.0017 0.9540
10.9168 3.2536 -3.0016 0.9540
10.5836 4.2122 -3.0015 0.9540
8.6313 6.5092 -2.8486 0.9563
6.6036 8.5566 -2.8480 0.9563
4.1074 9.9948 -2.8473 0.9563
2.2698 10.5628 -2.8468 0.9563
1.3205 10.7219 -2.8466 0.9563
0.3609 10.7959 -2.8463 0.9563
-2.5034 10.5048 -2.8455 0.9563
-3.4282 10.2394 -2.8453 0.9563
-6.0101 8.9677 -2.8446 0.9563
-7.5037 7.7588 -2.8442 0.9563
-8.7595 6.3047 -2.8438 0.9563
-9.9898 4.7717 -2.9172 0.9552
-10.6541 3.9676 -2.9957 0.9541
-11.1882 2.0157 -2.9956 0.9541
-10.6474 0.0000 -2.9957 0.9567
-9.9786 -3.7160 -2.9959 0.9567
-7.4042 -7.6559 -2.9966 0.9567
-6.6938 -8.2851 -2.9968 0.9567
-5.1195 -9.3420 -2.9972 0.9567
-4.2681 -9.7613 -2.9975 0.9567
-2.4701 -10.3651 -2.9980 0.9567
-1.5379 -10.5447 -2.9982 0.9567
-0.5933 -10.6407 -2.9985 0.9567
2.2396 -10.4221 -2.9993 0.9567
4.0526 -9.8615 -2.9997 0.9567
7.2415 -7.8294 -3.0006 0.9567
7.9101 -7.1543 -3.0008 0.9566
9.0542 -5.6390 -3.0011 0.9566
9.5205 -4.8109 -3.0012 0.9566
10.2233 -3.0469 -3.0014 0.9566
10.6655 -0.2377 -3.0015 0.9566
10.6443 0.7126 -3.0015 0.9566
8.8241 4.9643 -2.8486 0.9588
8.3468 5.7298 -2.8485 0.9588
7.1979 7.1181 -2.8482 0.9588
6.5353 7.7300 -2.8480 0.9588
5.8210 8.2804 -2.8478 0.9588
5.0605 8.7650 -2.8476 0.9588
4.2599 9.1800 -2.8474 0.9588
3.4257 9.5219 -2.8472 0.9588
2.5644 9.7882 -2.8469 0.9588
1.6829 9.9768 -2.8467 0.9588
0.7881 10.0861 -2.8464 0.9588
-0.1127 10.1153 -2.8462 0.9588
-1.0125 10.0643 -2.8459 0.9588
-2.7804 9.7236 -2.8455 0.9588
-3.6345 9.4369 -2.8452 0.9588
-5.2493 8.6415 -2.8448 0.9589
-7.3444 6.9463 -2.8442 0.9589
-7.9330 6.2647 -2.8440 0.9589
-8.4587 5.5335 -2.8439 0.9589
-8.9586 4.7805 -2.8570 0.9587
-10.1341 3.2678 -2.9958 0.9567
-10.3845 2.3528 -2.9958 0.9567
-10.6368 -0.4743 -2.9957 0.9567
-10.5525 -1.4191 -2.9957 0.9567
-10.1341 -3.2678 -2.9959 0.9567
-9.3948 -5.0132 -2.9961 0.9567
-8.3578 -6.6001 -2.9963 0.9567
-7.0560 -7.9784 -2.9967 0.9567
-4.6985 -9.5612 -2.9974 0.9567
-2.0060 -10.4653 -2.9981 0.9567
-1.0667 -10.6033 -2.9983 0.9567
0.8303 -10.6262 -2.9989 0.9567
1.7730 -10.5111 -2.9991 0.9567
2.7017 -10.3124 -2.9994 0.9567
4.4881 -9.6715 -2.9999 0.9567
5.3315 -9.2344 -3.0001 0.9567
6.1327 -8.7239 -3.0003 0.9567
6.8853 -8.1440 -3.0005 0.9567
8.2212 -6.7949 -3.0009 0.9566
9.2966 -5.2302 -3.0012 0.9566
10.0773 -3.4992 -3.0014 0.9566
10.3490 -2.5884 -3.0015 0.9566
10.5385 -1.6571 -3.0015 0.9566
10.6655 0.2377 -3.0015 0.9566
10.6019 1.1860 -3.0015 0.9566
10.2233 3.0469 -3.0014 0.9566
9.9113 3.9446 -3.0013 0.9566
8.0831 6.0957 -2.8484 0.9588
7.5080 6.7906 -2.8483 0.9588
6.8734 7.4314 -2.8481 0.9588
6.1843 8.0132 -2.8479 0.9588
5.4461 8.5312 -2.8477 0.9588
1.2367 10.0414 -2.8466 0.9588
-0.5632 10.0999 -2.8461 0.9588
-4.0511 9.2652 -2.8451 0.9589
-4.8593 8.8672 -2.8449 0.9589
-5.6288 8.3988 -2.8447 0.9589
-8.2040 5.9049 -2.8440 0.9589
-8.6966 5.1510 -2.8438 0.9589
-9.9786 3.7161 -2.9959 0.9567
-10.2694 2.8131 -2.9958 0.9567
-10.0070 0.0000 -2.9959 0.9591
-9.8486 -1.7743 -2.9959 0.9591
-9.6517 -2.6439 -2.9960 0.9591
-9.3783 -3.4925 -2.9961 0.9591
-8.6111 -5.1004 -2.9963 0.9591
-7.5711 -6.5470 -2.9966 0.9591
-6.9587 -7.1953 -2.9967 0.9591
-6.2911 -7.7865 -2.9969 0.9591
-2.3215 -9.7412 -2.9980 0.9590
-1.4453 -9.9100 -2.9982 0.9590
-0.5576 -10.0001 -2.9985 0.9590
1.2245 -9.9422 -2.9990 0.9590
2.1047 -9.7945 -2.9992 0.9590
3.8086 -9.2676 -2.9997 0.9590
6.1230 -7.9337 -3.0003 0.9590
6.8052 -7.3578 -3.0005 0.9590
8.0029 -6.0352 -3.0008 0.9590
8.9469 -4.5211 -3.0011 0.9590
9.9631 -1.1145 -3.0014 0.9590
10.0029 0.6696 -3.0014 0.9590
9.7254 2.4325 -3.0013 0.9590
12.3783 6.9639 -4.2520 0.9424
7.3332 6.0610 -2.8482 0.9611
6.1416 7.2644 -2.8479 0.9611
4.7557 8.2371 -2.8475 0.9611
3.2194 8.9485 -2.8471 0.9611
1.5815 9.3761 -2.8467 0.9611
0.7407 9.4788 -2.8464 0.9611
-0.9515 9.4584 -2.8460 0.9611
-4.1913 8.5290 -2.8451 0.9611
-6.2944 7.1172 -2.8445 0.9611
-7.4558 5.8878 -2.8442 0.9611
-7.9498 5.2006 -2.8440 0.9611
-9.2136 3.9069 -2.9961 0.9591
-9.5245 3.0713 -2.9960 0.9591
-9.9178 1.3338 -2.9959 0.9591
-9.9970 0.4458 -2.9959 0.9591
-9.9970 -0.4458 -2.9959 0.9591
-9.9178 -1.3338 -2.9959 0.9591
-9.5245 -3.0712 -2.9960 0.9591
-9.2136 -3.9069 -2.9961 0.9591
-8.8296 -4.7116 -2.9962 0.9591
-8.3755 -5.4790 -2.9963 0.9591
-7.2721 -6.8779 -2.9966 0.9591
-5.1976 -8.5564 -2.9972 0.9591
-3.5987 -9.3438 -2.9977 0.9591
-2.7530 -9.6278 -2.9979 0.9591
-1.8853 -9.8354 -2.9981 0.9590
1.6662 -9.8781 -2.9991 0.9590
2.5390 -9.6914 -2.9993 0.9590
3.3918 -9.4277 -2.9996 0.9590
5.0104 -8.6782 -3.0000 0.9590
5.7633 -8.1984 -3.0002 0.9590
6.4705 -7.6534 -3.0004 0.9590
7.1265 -7.0475 -3.0006 0.9590
8.2640 -5.6729 -3.0009 0.9590
9.1396 -4.1181 -3.0011 0.9590
9.4701 -3.2884 -3.0012 0.9590
9.7254 -2.4325 -3.0013 0.9590
9.9035 -1.5572 -3.0013 0.9590
10.0029 -0.6696 -3.0014 0.9590
10.0228 0.2234 -3.0014 0.9590
9.9631 1.1146 -3.0014 0.9590
9.3141 3.7069 -3.0012 0.9590
12.6764 6.4056 -4.2521 0.9424
8.0762 5.0299 -2.8484 0.9611
7.5961 5.7285 -2.8483 0.9611
7.0557 6.3815 -2.8482 0.9611
6.4593 6.9838 -2.8480 0.9611
3.6150 8.7965 -2.8472 0.9611
2.8175 9.0827 -2.8470 0.9611
-0.5293 9.4918 -2.8461 0.9611
-1.3719 9.4063 -2.8458 0.9611
-3.0174 9.0126 -2.8454 0.9611
-3.8073 8.7076 -2.8452 0.9611
-4.5669 8.3335 -2.8450 0.9611
-5.2901 7.8935 -2.8448 0.9611
-6.6050 6.8296 -2.8444 0.9611
-7.1863 6.2142 -2.8443 0.9611
-9.0305 4.3135 -2.9962 0.9591
-9.3783 3.4925 -2.9961 0.9591
-9.6517 2.6439 -2.9960 0.9591
-9.8486 1.7743 -2.9959 0.9591
-9.9673 0.8907 -2.9959 0.9591
-9.4339 0.0000 -2.9960 0.9612
-9.0989 -2.4924 -2.9961 0.9612
-8.8412 -3.2925 -2.9962 0.9612
-8.1179 -4.8082 -2.9964 0.9612
-7.1374 -6.1720 -2.9967 0.9612
-6.5601 -6.7830 -2.9968 0.9612
-5.2541 -7.8397 -2.9972 0.9612
-3.7814 -8.6482 -2.9976 0.9612
-2.9968 -8.9511 -2.9978 0.9612
0.3155 -9.4370 -2.9987 0.9611
1.9840 -9.2330 -2.9992 0.9611
2.7982 -9.0204 -2.9994 0.9611
3.5902 -8.7362 -2.9996 0.9611
4.3538 -8.3826 -2.9998 0.9611
5.0829 -7.9623 -3.0000 0.9611
5.7718 -7.4787 -3.0002 0.9611
7.5438 -5.6891 -3.0007 0.9611
8.0206 -4.9953 -3.0008 0.9611
8.4337 -4.2617 -3.0009 0.9611
8.7798 -3.4943 -3.0010 0.9611
9.0562 -2.6990 -3.0011 0.9611
8.6152 3.8818 -3.0010 0.9611
11.6682 6.5644 -4.2518 0.9454
7.3940 5.0757 -2.8482 0.9631
6.9126 5.7134 -2.8481 0.9631
5.7894 6.8477 -2.8478 0.9631
5.1566 7.3354 -2.8476 0.9631
4.4830 7.7647 -2.8474 0.9631
3.7738 8.1324 -2.8473 0.9631
2.2718 8.6714 -2.8468 0.9631
1.4909 8.8385 -2.8466 0.9631
-0.8970 8.9163 -2.8460 0.9631
-1.6869 8.8004 -2.8458 0.9631
-2.4633 8.6147 -2.8455 0.9631
-3.2200 8.3606 -2.8453 0.9631
-3.9511 8.0403 -2.8451 0.9631
-5.3134 7.2114 -2.8448 0.9631
-7.4945 4.9027 -2.8442 0.9631
-8.3238 4.4417 -2.9963 0.9612
-8.9790 2.8953 -2.9962 0.9612
-9.4245 0.4203 -2.9960 0.9612
-9.2009 -2.0846 -2.9961 0.9612
-8.3239 -4.4417 -2.9964 0.9612
-7.4051 -5.8477 -2.9966 0.9612
-6.8556 -6.4839 -2.9968 0.9612
-3.3925 -8.8084 -2.9977 0.9612
-2.5952 -9.0760 -2.9979 0.9612
-0.1052 -9.4413 -2.9986 0.9611
0.7356 -9.4139 -2.9988 0.9611
1.5707 -9.3118 -2.9991 0.9611
4.7230 -8.1806 -2.9999 0.9611
8.2353 -4.6331 -3.0009 0.9611
8.9268 -3.0997 -3.0011 0.9611
9.4290 -0.6312 -3.0012 0.9611
9.3915 1.0506 -3.0012 0.9611
9.2606 1.8823 -3.0012 0.9611
9.0561 2.6990 -3.0011 0.9611
11.9493 6.0382 -4.2519 0.9454
7.1604 5.3999 -2.8482 0.9631
6.6510 6.0155 -2.8480 0.9631
6.0889 6.5832 -2.8479 0.9631
5.4784 7.0987 -2.8477 0.9631
4.1325 7.9565 -2.8474 0.9631
3.4077 8.2921 -2.8472 0.9631
2.6559 8.5619 -2.8469 0.9631
1.0956 8.8958 -2.8465 0.9631
-1.2932 8.8672 -2.8459 0.9631
-2.8445 8.4961 -2.8454 0.9631
-4.3052 7.8561 -2.8450 0.9631
-4.9870 7.4412 -2.8449 0.9631
-5.6292 6.9674 -2.8447 0.9631
-6.2266 6.4383 -2.8445 0.9631
-7.2688 5.2318 -2.8442 0.9631
-8.5133 4.0665 -2.9963 0.9612
-8.8412 3.2925 -2.9962 0.9612
-8.7765 -1.5812 -2.9962 0.9631
-8.0475 -3.8439 -2.9964 0.9631
-7.2390 -5.2103 -2.9967 0.9631
-4.9665 -7.4105 -2.9973 0.9631
-2.0686 -8.6802 -2.9981 0.9630
-1.2879 -8.8305 -2.9983 0.9630
3.3935 -8.2576 -2.9996 0.9630
4.1153 -7.9234 -2.9998 0.9630
4.8045 -7.5261 -3.0000 0.9630
6.0635 -6.5558 -3.0003 0.9630
6.6232 -5.9903 -3.0004 0.9630
7.9715 -4.0282 -3.0008 0.9630
8.2986 -3.3028 -3.0009 0.9630
8.5599 -2.5511 -3.0010 0.9630
8.9300 -0.1990 -3.0011 0.9630
8.9123 0.5966 -3.0011 0.9630
8.8237 1.3875 -3.0010 0.9630
11.0289 6.2047 -4.2516 0.9480
10.4324 7.1614 -4.2515 0.9480
6.5338 5.4003 -2.8480 0.9649
6.0269 5.9602 -2.8479 0.9649
2.1474 8.1965 -2.8468 0.9649
1.4092 8.3545 -2.8466 0.9649
-0.0944 8.4707 -2.8462 0.9649
-0.8479 8.4281 -2.8460 0.9649
-2.3284 8.1431 -2.8456 0.9649
-5.0226 6.8168 -2.8448 0.9649
-8.2106 3.4816 -2.9964 0.9631
-8.4877 2.7369 -2.9963 0.9631
-8.6974 1.9706 -2.9962 0.9631
-8.8382 -1.1886 -2.9962 0.9631
-8.6974 -1.9706 -2.9962 0.9631
-6.4804 -6.1291 -2.9969 0.9631
-5.9094 -6.6819 -2.9970 0.9631
-4.6316 -7.6247 -2.9974 0.9631
-3.9349 -8.0072 -2.9976 0.9631
-3.2068 -8.3262 -2.9978 0.9630
-2.4531 -8.5791 -2.9980 0.9630
-0.8933 -8.8794 -2.9984 0.9630
0.6953 -8.8985 -2.9988 0.9630
2.2624 -8.6354 -2.9993 0.9630
3.0222 -8.4003 -2.9995 0.9630
3.7581 -8.0986 -2.9997 0.9630
5.1351 -7.3048 -3.0000 0.9630
5.7653 -6.8191 -3.0002 0.9630
6.3497 -6.2793 -3.0004 0.9630
7.3631 -5.0545 -3.0007 0.9630
8.1432 -3.6691 -3.0009 0.9630
8.4376 -2.9299 -3.0009 0.9630
8.8237 -1.3875 -3.0010 0.9630
8.8768 0.9930 -3.0011 0.9630
8.7531 1.7792 -3.0010 0.9630
8.5599 2.5511 -3.0010 0.9630
7.9715 4.0281 -3.0008 0.9630
6.2866 5.6859 -2.8479 0.9649
2.5105 8.0930 -2.8469 0.9649
1.7801 8.2837 -2.8467 0.9649
0.2831 8.4669 -2.8463 0.9649
-2.6888 8.0310 -2.8455 0.9649
-3.3927 7.7593 -2.8453 0.9649
-4.7141 7.0339 -2.8449 0.9649
-5.3211 6.5861 -2.8448 0.9649
-5.8859 6.0860 -2.8446 0.9649
-6.4039 5.5377 -2.8445 0.9649
-6.8710 4.9455 -2.8443 0.9649
-7.6737 4.5451 -2.9965 0.9631
-8.0475 3.8439 -2.9964 0.9631
-8.3574 3.1123 -2.9963 0.9631
-8.6011 2.3561 -2.9963 0.9631
-8.8823 0.7937 -2.9962 0.9631
-8.3164 -1.4982 -2.9964 0.9648
-8.1502 -2.2326 -2.9964 0.9648
-7.9193 -2.9491 -2.9965 0.9648
-7.6256 -3.6424 -2.9965 0.9648
-6.8594 -4.9371 -2.9968 0.9648
-6.3930 -5.5283 -2.9969 0.9648
-5.8759 -6.0756 -2.9970 0.9648
-5.3121 -6.5748 -2.9972 0.9648
-3.3869 -7.7460 -2.9977 0.9648
-2.6842 -8.0173 -2.9979 0.9648
-1.9601 -8.2249 -2.9981 0.9648
-1.2203 -8.3672 -2.9983 0.9647
1.0338 -8.3941 -2.9989 0.9647
1.7770 -8.2693 -2.9991 0.9647
2.5061 -8.0789 -2.9993 0.9647
3.2154 -7.8243 -2.9995 0.9647
3.8993 -7.5075 -2.9997 0.9647
6.7561 -5.0950 -3.0005 0.9647
7.1831 -4.4737 -3.0006 0.9647
7.8629 -3.1294 -3.0008 0.9647
8.1104 -2.4172 -3.0009 0.9647
8.4611 -0.1885 -3.0009 0.9647
8.4443 0.5653 -3.0009 0.9647
8.3604 1.3146 -3.0009 0.9647
7.9946 2.7760 -3.0008 0.9647
7.7156 3.4764 -3.0007 0.9647
7.3753 4.1493 -3.0006 0.9647
9.8847 6.7854 -4.2513 0.9504
6.1908 5.1168 -2.8479 0.9665
5.1850 6.1328 -2.8476 0.9665
4.6183 6.5696 -2.8475 0.9665
4.0150 6.9542 -2.8473 0.9665
-1.5109 7.8822 -2.8458 0.9665
-2.2063 7.7159 -2.8456 0.9665
-3.5390 7.2016 -2.8453 0.9665
-4.7592 6.4593 -2.8449 0.9665
-5.3149 6.0097 -2.8448 0.9665
-5.8284 5.5125 -2.8446 0.9665
-6.2957 4.9717 -2.8445 0.9665
-7.0724 4.6265 -2.9967 0.9648
-7.4558 3.9785 -2.9966 0.9648
-7.7801 3.2990 -2.9965 0.9648
-8.0427 2.5934 -2.9964 0.9648
-8.2414 1.8672 -2.9964 0.9648
-8.3748 1.1263 -2.9963 0.9648
-8.4418 0.3765 -2.9963 0.9648
-8.4418 -0.3764 -2.9963 0.9648
-8.3748 -1.1263 -2.9963 0.9648
-7.7801 -3.2990 -2.9965 0.9648
-7.4558 -3.9786 -2.9966 0.9648
-7.0724 -4.6265 -2.9967 0.9648
-6.1406 -5.8077 -2.9970 0.9648
-4.3887 -7.2248 -2.9974 0.9648
-3.0386 -7.8894 -2.9978 0.9648
-1.5918 -8.3043 -2.9982 0.9648
-0.8464 -8.4136 -2.9984 0.9647
0.6588 -8.4315 -2.9988 0.9647
1.4068 -8.3400 -2.9990 0.9647
2.1436 -8.1822 -2.9992 0.9647
3.5609 -7.6735 -2.9996 0.9647
5.4626 -6.4612 -3.0001 0.9647
6.0163 -5.9496 -3.0003 0.9647
6.5223 -5.3908 -3.0004 0.9647
6.9765 -4.7891 -3.0005 0.9647
7.3753 -4.1493 -3.0007 0.9647
7.7156 -3.4765 -3.0007 0.9647
8.2101 -2.0535 -3.0009 0.9647
8.4443 -0.5653 -3.0009 0.9647
8.4611 0.1886 -3.0009 0.9647
8.2935 1.6857 -3.0009 0.9647
8.1104 2.4171 -3.0008 0.9647
7.8629 3.1294 -3.0008 0.9647
10.1774 6.3385 -4.2514 0.9504
5.9566 5.3874 -2.8479 0.9665
5.4532 5.8959 -2.8477 0.9665
4.9065 6.3575 -2.8476 0.9665
4.3209 6.7686 -2.8474 0.9665
3.7011 7.1259 -2.8472 0.9665
0.2682 8.0226 -2.8463 0.9665
-0.4469 8.0141 -2.8461 0.9665
-1.1583 7.9420 -2.8459 0.9665
-2.5478 7.6097 -2.8455 0.9665
-3.8561 7.0366 -2.8452 0.9665
-5.5772 5.7668 -2.8447 0.9665
-6.0681 5.2473 -2.8446 0.9665
-7.9193 2.9492 -2.9965 0.9648
-8.1501 2.2325 -2.9964 0.9648
-8.3164 1.4982 -2.9963 0.9648
-8.0245 -0.0000 -2.9964 0.9663
-7.8974 -1.4228 -2.9965 0.9663
-7.7396 -2.1201 -2.9965 0.9663
-7.5203 -2.8006 -2.9966 0.9663
-7.2414 -3.4589 -2.9966 0.9663
-6.9050 -4.0898 -2.9967 0.9663
-6.0709 -5.2497 -2.9970 0.9663
-5.5798 -5.7695 -2.9971 0.9663
-5.0444 -6.2435 -2.9973 0.9663
-4.4689 -6.6681 -2.9974 0.9663
-3.8579 -7.0397 -2.9976 0.9663
-1.8613 -7.8103 -2.9981 0.9663
-0.4471 -8.0176 -2.9985 0.9663
0.9817 -7.9709 -2.9989 0.9663
3.7027 -7.1289 -2.9997 0.9663
4.3227 -6.7714 -2.9998 0.9663
5.9590 -5.3896 -3.0003 0.9663
6.8207 -4.2479 -3.0005 0.9663
7.7013 -2.2952 -3.0007 0.9663
7.8751 -1.6007 -3.0008 0.9663
7.0033 3.9400 -3.0005 0.9663
8.7750 7.2527 -4.2510 0.9526
4.9234 5.8235 -2.8476 0.9680
4.3854 6.2383 -2.8474 0.9680
3.8125 6.6035 -2.8473 0.9680
3.2094 6.9162 -2.8471 0.9680
1.9321 7.3747 -2.8467 0.9680
1.2680 7.5170 -2.8466 0.9680
-0.0849 7.6217 -2.8462 0.9680
-0.7629 7.5834 -2.8460 0.9680
-1.4347 7.4849 -2.8458 0.9680
-2.0951 7.3271 -2.8456 0.9680
-2.7388 7.1110 -2.8455 0.9680
-3.3606 6.8387 -2.8453 0.9680
-3.9557 6.5120 -2.8451 0.9680
-4.5194 6.1338 -2.8450 0.9680
-5.0471 5.7069 -2.8448 0.9680
-5.5348 5.2348 -2.8447 0.9680
-6.0338 4.7648 -2.8709 0.9677
-6.7160 4.3934 -2.9968 0.9663
-7.3882 3.1329 -2.9966 0.9663
-7.6375 2.4628 -2.9965 0.9663
-7.8263 1.7732 -2.9965 0.9663
-7.9529 1.0696 -2.9964 0.9663
-8.0165 -0.3574 -2.9964 0.9663
-7.9529 -1.0695 -2.9965 0.9663
-7.8263 -1.7732 -2.9965 0.9663
-7.0802 -3.7781 -2.9967 0.9663
-4.1676 -6.8607 -2.9975 0.9663
-2.2073 -7.7194 -2.9980 0.9663
-1.5116 -7.8857 -2.9982 0.9663
-0.0895 -8.0298 -2.9986 0.9663
1.3359 -7.9195 -2.9990 0.9663
2.0356 -7.7696 -2.9992 0.9663
5.1871 -6.1353 -3.0001 0.9663
7.0033 -3.9400 -3.0006 0.9663
7.3264 -3.3011 -3.0006 0.9663
7.9387 -1.2483 -3.0008 0.9663
8.0183 -0.5368 -3.0008 0.9663
8.0343 0.1790 -3.0008 0.9663
7.9864 0.8934 -3.0008 0.9663
7.8751 1.6007 -3.0008 0.9663
7.7013 2.2952 -3.0007 0.9663
7.4662 2.9715 -3.0007 0.9663
7.1719 3.6241 -3.0006 0.9663
9.0896 6.8547 -4.2511 0.9526
5.6561 5.1157 -2.8478 0.9680
5.1781 5.5985 -2.8476 0.9680
4.1030 6.4272 -2.8473 0.9680
3.5145 6.7666 -2.8472 0.9680
2.8981 7.0521 -2.8470 0.9680
-0.4243 7.6101 -2.8461 0.9680
-1.0999 7.5416 -2.8459 0.9680
-3.0527 6.9818 -2.8454 0.9680
-3.6618 6.6819 -2.8452 0.9680
-4.2418 6.3292 -2.8451 0.9680
-4.7880 5.9262 -2.8449 0.9680
-7.5203 2.8006 -2.9966 0.9663
-7.9927 0.7142 -2.9964 0.9663
-7.5142 -1.3537 -2.9966 0.9677
-7.3640 -2.0172 -2.9966 0.9677
-6.8899 -3.2910 -2.9967 0.9677
-6.5699 -3.8913 -2.9968 0.9677
-6.1977 -4.4608 -2.9969 0.9677
-4.7995 -5.9405 -2.9973 0.9677
-2.4251 -7.2435 -2.9980 0.9677
0.2553 -7.6363 -2.9987 0.9677
0.9340 -7.5838 -2.9989 0.9677
1.6054 -7.4710 -2.9991 0.9677
2.2641 -7.2989 -2.9993 0.9677
2.9050 -7.0688 -2.9994 0.9677
3.5228 -6.7826 -2.9996 0.9677
4.1127 -6.4425 -2.9998 0.9677
6.1036 -4.6029 -3.0003 0.9677
6.4893 -4.0415 -3.0004 0.9677
6.8234 -3.4480 -3.0005 0.9677
7.3270 -2.1837 -3.0006 0.9677
7.4924 -1.5229 -3.0007 0.9677
7.6438 -0.1703 -3.0007 0.9677
7.6286 0.5107 -3.0007 0.9677
7.4171 1.8551 -3.0007 0.9677
6.9703 3.1407 -3.0005 0.9677
6.6630 3.7485 -3.0004 0.9677
4.1723 5.9352 -2.8474 0.9693
3.6273 6.2827 -2.8472 0.9693
1.8382 7.0165 -2.8467 0.9693
-0.0808 7.2516 -2.8462 0.9693
-0.7258 7.2151 -2.8460 0.9693
-1.9934 6.9713 -2.8457 0.9693
-2.6058 6.7658 -2.8455 0.9693
-4.8021 5.4299 -2.8449 0.9693
-5.2661 4.9807 -2.8448 0.9693
-6.3901 4.1802 -2.9969 0.9677
-7.0296 2.9808 -2.9967 0.9677
-7.5670 1.0177 -2.9966 0.9677
-7.6275 0.3401 -2.9965 0.9677
-7.6275 -0.3401 -2.9965 0.9677
-7.4465 -1.6871 -2.9966 0.9677
-7.0296 -2.9808 -2.9967 0.9677
-6.7366 -3.5947 -2.9968 0.9677
-6.3901 -4.1802 -2.9969 0.9677
-4.5303 -6.1485 -2.9974 0.9677
-3.9652 -6.5277 -2.9976 0.9677
-3.3687 -6.8551 -2.9977 0.9677
-2.1001 -7.3446 -2.9981 0.9677
-1.4382 -7.5028 -2.9982 0.9677
-0.0851 -7.6399 -2.9986 0.9677
0.5952 -7.6176 -2.9988 0.9677
1.9367 -7.3922 -2.9992 0.9677
2.5871 -7.1910 -2.9993 0.9677
3.8215 -6.6190 -2.9997 0.9677
4.3957 -6.2530 -2.9998 0.9677
5.4353 -5.3750 -3.0001 0.9677
5.8924 -4.8701 -3.0002 0.9677
6.3027 -4.3265 -3.0004 0.9677
6.9704 -3.1407 -3.0005 0.9677
7.5529 -1.1876 -3.0007 0.9677
7.6438 0.1704 -3.0007 0.9677
7.3270 2.1837 -3.0006 0.9677
7.1034 2.8271 -3.0006 0.9677
6.8234 3.4480 -3.0005 0.9677
8.6478 6.5216 -4.2510 0.9545
5.3813 4.8671 -2.8477 0.9693
3.3437 6.4378 -2.8471 0.9693
2.7573 6.7095 -2.8470 0.9693
2.1491 6.9279 -2.8468 0.9693
1.5238 7.0912 -2.8466 0.9693
0.2423 7.2482 -2.8463 0.9693
-1.0465 7.1754 -2.8459 0.9693
-2.3019 6.8753 -2.8456 0.9693
-2.9045 6.6428 -2.8454 0.9693
-4.5556 5.6385 -2.8450 0.9693
-5.5108 4.7654 -2.8593 0.9692
-7.3640 2.0172 -2.9966 0.9677
-7.6048 0.6796 -2.9965 0.9677
-7.2773 0.0000 -2.9966 0.9690
-7.2484 -0.6477 -2.9966 0.9690
-7.1620 -1.2903 -2.9967 0.9690
-6.5670 -3.1368 -2.9968 0.9690
-6.2619 -3.7089 -2.9969 0.9690
-4.5746 -5.6620 -2.9974 0.9690
-4.0527 -6.0470 -2.9975 0.9690
-3.4985 -6.3840 -2.9977 0.9690
-2.9166 -6.6704 -2.9978 0.9690
-1.6879 -7.0826 -2.9982 0.9690
-1.0509 -7.2052 -2.9983 0.9690
-0.4054 -7.2705 -2.9985 0.9690
0.2433 -7.2782 -2.9987 0.9690
0.8902 -7.2281 -2.9989 0.9690
2.1579 -6.9565 -2.9992 0.9690
2.7687 -6.7372 -2.9994 0.9690
4.9468 -5.3484 -3.0000 0.9690
6.5033 -3.2862 -3.0004 0.9690
6.7701 -2.6944 -3.0005 0.9690
7.2417 -0.8101 -3.0006 0.9690
7.2851 -0.1623 -3.0006 0.9690
7.2706 0.4867 -3.0006 0.9690
7.0690 1.7681 -3.0006 0.9690
6.8835 2.3902 -3.0005 0.9690
6.6433 2.9933 -3.0004 0.9690
6.0069 4.1235 -3.0003 0.9690
7.9569 6.5765 -4.2508 0.9563
4.9170 4.8625 -2.8476 0.9705
3.9766 5.6568 -2.8473 0.9705
3.4571 5.9879 -2.8472 0.9705
2.3404 6.5053 -2.8469 0.9705
1.7520 6.6874 -2.8467 0.9705
1.1498 6.8164 -2.8465 0.9705
0.5385 6.8913 -2.8464 0.9705
-0.6918 6.8768 -2.8460 0.9705
-1.3011 6.7875 -2.8459 0.9705
-1.8999 6.6444 -2.8457 0.9705
-2.4836 6.4486 -2.8455 0.9705
-4.5770 5.1753 -2.8450 0.9706
-6.0906 3.9843 -2.9970 0.9690
-6.9263 2.2334 -2.9967 0.9690
-7.2700 0.3242 -2.9966 0.9690
-7.2700 -0.3242 -2.9966 0.9690
-6.9263 -2.2334 -2.9967 0.9690
-6.7002 -2.8411 -2.9968 0.9690
-6.0906 -3.9843 -2.9970 0.9690
-4.8221 -5.4525 -2.9973 0.9690
-4.3179 -5.8603 -2.9975 0.9690
-3.7794 -6.2216 -2.9976 0.9690
-3.2108 -6.5337 -2.9978 0.9690
-0.7289 -7.2450 -2.9984 0.9690
0.5673 -7.2603 -2.9988 0.9690
2.4658 -6.8537 -2.9993 0.9690
3.0661 -6.6074 -2.9995 0.9690
4.1895 -5.9596 -2.9998 0.9690
5.6159 -4.6417 -3.0002 0.9690
6.8835 -2.3902 -3.0005 0.9690
7.0690 -1.7681 -3.0006 0.9690
7.2851 0.1624 -3.0006 0.9690
7.1408 1.4514 -3.0006 0.9690
6.9832 2.0812 -3.0005 0.9690
6.7701 2.6944 -3.0005 0.9690
6.5033 3.2862 -3.0004 0.9690
8.2421 6.2157 -4.2509 0.9563
5.2146 4.7163 -2.8952 0.9700
4.2247 5.4741 -2.8474 0.9705
3.7205 5.8281 -2.8472 0.9705
2.0483 6.6029 -2.8468 0.9705
0.8450 6.8607 -2.8465 0.9705
-0.3848 6.9010 -2.8461 0.9705
-0.9974 6.8390 -2.8459 0.9705
-1.6021 6.7227 -2.8458 0.9705
-2.1940 6.5530 -2.8456 0.9705
-2.7683 6.3314 -2.8455 0.9706
-3.3207 6.0596 -2.8453 0.9706
-4.3420 5.3742 -2.8450 0.9706
-4.8029 4.9662 -2.8449 0.9706
-5.4832 4.7415 -2.9850 0.9691
-6.5670 3.1368 -2.9968 0.9690
-6.8200 2.5398 -2.9968 0.9690
-6.9196 -0.6183 -2.9967 0.9702
-6.7005 -1.8354 -2.9968 0.9702
-4.8306 -4.9948 -2.9973 0.9702
0.2323 -6.9479 -2.9987 0.9702
2.0600 -6.6408 -2.9992 0.9702
2.6430 -6.4314 -2.9994 0.9702
5.1581 -4.6652 -3.0000 0.9702
5.9039 -3.6770 -3.0002 0.9702
6.2080 -3.1370 -3.0003 0.9702
6.4627 -2.5720 -3.0004 0.9702
6.6661 -1.9867 -3.0005 0.9702
6.7480 1.6878 -3.0005 0.9702
6.5709 2.2817 -3.0004 0.9702
6.3416 2.8574 -3.0004 0.9702
5.7342 3.9363 -3.0002 0.9702
4.2618 5.0409 -2.8474 0.9717
3.7960 5.3999 -2.8473 0.9717
2.7782 5.9868 -2.8470 0.9717
1.0976 6.5071 -2.8465 0.9717
-0.6604 6.5647 -2.8460 0.9717
-1.2420 6.4796 -2.8459 0.9717
-2.3709 6.1560 -2.8456 0.9717
-3.4245 5.6375 -2.8453 0.9717
-4.3694 4.9405 -2.8450 0.9717
-5.4529 4.3061 -2.9971 0.9702
-6.1296 3.2709 -2.9969 0.9702
-6.6121 2.1321 -2.9968 0.9702
-6.7756 1.5351 -2.9968 0.9702
-6.8852 0.9260 -2.9967 0.9702
-6.9403 0.3095 -2.9967 0.9702
-6.8853 -0.9260 -2.9967 0.9702
-6.7756 -1.5351 -2.9968 0.9702
-6.1296 -3.2708 -2.9970 0.9702
-3.6079 -5.9394 -2.9976 0.9702
-3.0651 -6.2372 -2.9978 0.9702
-1.3085 -6.8265 -2.9983 0.9702
-0.0774 -6.9511 -2.9986 0.9702
1.1564 -6.8555 -2.9990 0.9702
3.9993 -5.6891 -2.9997 0.9702
4.4900 -5.3108 -2.9999 0.9702
4.9451 -4.8903 -3.0000 0.9702
5.7342 -3.9363 -3.0002 0.9702
6.0620 -3.4104 -3.0003 0.9702
6.8715 -1.0805 -3.0005 0.9702
6.9405 -0.4646 -3.0005 0.9702
6.9129 0.7733 -3.0005 0.9702
6.8165 1.3855 -3.0005 0.9702
6.6661 1.9867 -3.0005 0.9702
6.4627 2.5721 -3.0004 0.9702
6.2080 3.1370 -3.0003 0.9702
5.9039 3.6770 -3.0002 0.9702
5.5531 4.1878 -3.0001 0.9702
5.1581 4.6652 -3.0000 0.9702
4.4822 4.8461 -2.8475 0.9717
3.5516 5.5635 -2.8472 0.9717
3.0422 5.8573 -2.8471 0.9717
2.5087 6.1045 -2.8469 0.9717
1.9553 6.3032 -2.8468 0.9717
1.3864 6.4519 -2.8466 0.9717
0.8066 6.5493 -2.8464 0.9717
0.2205 6.5948 -2.8463 0.9717
-0.3673 6.5878 -2.8461 0.9717
-0.9522 6.5286 -2.8460 0.9717
-1.5294 6.4176 -2.8458 0.9717
-2.0944 6.2557 -2.8456 0.9717
-3.1700 5.7846 -2.8454 0.9717
-3.6722 5.4792 -2.8452 0.9717
-4.1451 5.1304 -2.8451 0.9717
-4.6065 4.7631 -2.8583 0.9715
-5.9779 3.5407 -2.9970 0.9702
-6.2692 2.9945 -2.9969 0.9702
-6.5107 2.4246 -2.9968 0.9702
-6.7005 1.8355 -2.9968 0.9702
-6.8372 1.2318 -2.9968 0.9702
-6.9196 0.6184 -2.9967 0.9702
-6.6153 -0.5911 -2.9968 0.9713
-6.2243 -2.3179 -2.9969 0.9713
-5.9934 -2.8628 -2.9970 0.9713
-5.7149 -3.3850 -2.9971 0.9713
-5.3911 -3.8803 -2.9972 0.9713
-5.0246 -4.3449 -2.9973 0.9713
-4.6181 -4.7750 -2.9974 0.9713
-3.6986 -5.5186 -2.9976 0.9713
-3.1929 -5.8262 -2.9978 0.9713
-2.6617 -6.0876 -2.9979 0.9713
-2.1095 -6.3006 -2.9981 0.9713
-1.5404 -6.4637 -2.9982 0.9713
-0.9590 -6.5755 -2.9984 0.9713
-0.3700 -6.6351 -2.9985 0.9713
0.2221 -6.6421 -2.9987 0.9713
0.8124 -6.5963 -2.9989 0.9713
1.9693 -6.3484 -2.9992 0.9713
4.0618 -5.2630 -2.9997 0.9712
4.5143 -4.8808 -2.9999 0.9712
5.3085 -4.0033 -3.0001 0.9712
5.6440 -3.5151 -3.0002 0.9712
5.9346 -2.9989 -3.0003 0.9712
6.5164 -1.3245 -3.0004 0.9712
6.6348 0.4442 -3.0004 0.9712
6.4508 1.6135 -3.0004 0.9712
6.0623 2.7315 -3.0003 0.9712
5.7950 3.2602 -3.0002 0.9712
5.1248 4.2358 -3.0000 0.9712
4.0741 4.8189 -2.8473 0.9727
3.6289 5.1622 -2.8472 0.9727
3.1549 5.4645 -2.8471 0.9727
2.6559 5.7233 -2.8469 0.9727
1.0493 6.2206 -2.8465 0.9727
-0.0703 6.3075 -2.8462 0.9727
-0.6313 6.2758 -2.8460 0.9727
-1.7339 6.0638 -2.8457 0.9727
-2.2666 5.8851 -2.8456 0.9727
-2.7813 5.6597 -2.8455 0.9727
-3.7404 5.0765 -2.8452 0.9727
-4.2084 4.7585 -2.8663 0.9725
-5.2130 4.1167 -2.9972 0.9713
-5.8600 3.1270 -2.9970 0.9713
-6.3213 2.0384 -2.9969 0.9713
-6.4775 1.4676 -2.9969 0.9713
-6.6350 0.2959 -2.9968 0.9713
-6.5824 -0.8852 -2.9968 0.9713
-6.1149 -2.5929 -2.9970 0.9713
-5.8600 -3.1270 -2.9970 0.9713
-5.5586 -3.6362 -2.9971 0.9713
-4.8261 -4.5645 -2.9973 0.9713
-4.4009 -4.9761 -2.9974 0.9713
-3.9407 -5.3483 -2.9976 0.9713
-1.8267 -6.3885 -2.9981 0.9713
0.5177 -6.6258 -2.9988 0.9713
1.6845 -6.4297 -2.9991 0.9713
2.2502 -6.2545 -2.9993 0.9713
2.7981 -6.0297 -2.9994 0.9713
3.3238 -5.7571 -2.9995 0.9712
3.8232 -5.4386 -2.9997 0.9712
4.2923 -5.0770 -2.9998 0.9712
4.7273 -4.6750 -2.9999 0.9712
5.1248 -4.2358 -3.0000 0.9712
5.4817 -3.7630 -3.0001 0.9712
5.7950 -3.2602 -3.0002 0.9712
6.6348 -0.4441 -3.0004 0.9712
6.5163 1.3245 -3.0004 0.9712
6.1781 2.4588 -3.0003 0.9712
5.6439 3.5151 -3.0002 0.9712
5.3085 4.0034 -3.0001 0.9712
4.9310 4.4598 -3.0000 0.9712
4.3644 4.7187 -2.9002 0.9722
3.8553 4.9955 -2.8473 0.9727
2.3982 5.8358 -2.8469 0.9727
1.8692 6.0258 -2.8467 0.9727
0.7711 6.2610 -2.8464 0.9727
-1.4621 6.1352 -2.8458 0.9727
-2.5265 5.7781 -2.8455 0.9727
-3.5106 5.2382 -2.8453 0.9727
-4.5840 4.7398 -2.9752 0.9715
-5.0245 4.3449 -2.9972 0.9713
-5.3911 3.8803 -2.9971 0.9713
-5.7149 3.3850 -2.9971 0.9713
-5.9934 2.8628 -2.9970 0.9713
-6.4058 1.7547 -2.9969 0.9713
-6.3577 0.0000 -2.9969 0.9723
-6.3325 -0.5659 -2.9969 0.9723
-6.1320 -1.6797 -2.9970 0.9723
-5.9582 -2.2188 -2.9970 0.9723
-5.7372 -2.7404 -2.9971 0.9723
-4.8098 -4.1591 -2.9973 0.9723
-3.5404 -5.2827 -2.9977 0.9723
-3.0563 -5.5771 -2.9978 0.9723
-2.5479 -5.8273 -2.9979 0.9723
-2.0193 -6.0312 -2.9981 0.9723
-1.4745 -6.1873 -2.9982 0.9723
-0.3542 -6.3514 -2.9985 0.9723
0.2126 -6.3580 -2.9987 0.9723
1.3366 -6.2202 -2.9990 0.9723
3.4241 -5.3637 -2.9996 0.9723
3.8880 -5.0378 -2.9997 0.9723
4.3212 -4.6720 -2.9998 0.9723
5.0814 -3.8321 -3.0000 0.9722
5.4025 -3.3647 -3.0001 0.9722
5.6806 -2.8706 -3.0002 0.9722
6.2375 -1.2678 -3.0003 0.9722
6.2878 0.9887 -3.0003 0.9722
6.0127 2.0879 -3.0003 0.9722
5.8029 2.6147 -3.0002 0.9722
5.5471 3.1207 -3.0001 0.9722
4.5251 4.4749 -2.9999 0.9722
3.9888 4.7179 -2.9122 0.9730
3.4737 4.9413 -2.8472 0.9736
3.0199 5.2307 -2.8470 0.9736
2.5423 5.4785 -2.8469 0.9736
1.5305 5.8418 -2.8466 0.9736
1.0044 5.9546 -2.8465 0.9736
0.4704 6.0200 -2.8464 0.9737
-0.0673 6.0377 -2.8462 0.9737
-0.6044 6.0075 -2.8461 0.9737
-1.1366 5.9295 -2.8459 0.9737
-2.1697 5.6335 -2.8456 0.9737
-2.6624 5.4177 -2.8455 0.9737
-3.1339 5.1590 -2.8454 0.9737
-4.1896 4.7372 -2.9810 0.9724
-5.6095 2.9933 -2.9971 0.9723
-6.2007 1.4049 -2.9969 0.9723
-6.3010 0.8474 -2.9969 0.9723
-6.3514 0.2832 -2.9969 0.9723
-6.3010 -0.8474 -2.9969 0.9723
-6.2007 -1.4049 -2.9969 0.9723
-5.8535 -2.4821 -2.9970 0.9723
-5.6095 -2.9933 -2.9971 0.9723
-4.6198 -4.3694 -2.9974 0.9723
-4.2127 -4.7634 -2.9975 0.9723
-3.3017 -5.4353 -2.9977 0.9723
-2.8049 -5.7078 -2.9979 0.9723
-1.7486 -6.1153 -2.9982 0.9723
-1.1975 -6.2470 -2.9983 0.9723
2.1540 -5.9870 -2.9992 0.9723
2.6784 -5.7718 -2.9994 0.9723
3.1816 -5.5107 -2.9995 0.9723
3.6597 -5.2059 -2.9996 0.9723
4.1087 -4.8597 -2.9998 0.9723
4.5251 -4.4749 -2.9999 0.9722
4.9056 -4.0546 -3.0000 0.9722
5.5471 -3.1207 -3.0002 0.9722
5.8029 -2.6147 -3.0002 0.9722
6.0128 -2.0878 -3.0003 0.9722
6.2878 -0.9887 -3.0004 0.9722
6.3635 0.1418 -3.0004 0.9722
6.3256 0.7077 -3.0004 0.9722
6.2375 1.2678 -3.0003 0.9722
5.6806 2.8705 -3.0002 0.9722
5.4025 3.3647 -3.0001 0.9722
5.0814 3.8320 -3.0000 0.9722
4.3211 4.6720 -2.9998 0.9723
1.7893 5.7680 -2.8467 0.9736
0.2018 6.0348 -2.8463 0.9737
-0.8713 5.9744 -2.8460 0.9737
-1.3996 5.8728 -2.8458 0.9737
-1.9166 5.7247 -2.8457 0.9737
-2.4184 5.5311 -2.8456 0.9737
-2.9010 5.2936 -2.8454 0.9737
-3.8412 4.7543 -2.8811 0.9733
-4.4206 4.5709 -2.9974 0.9723
-5.4706 3.2403 -2.9971 0.9723
-6.1320 1.6797 -2.9969 0.9723
-6.3325 0.5659 -2.9969 0.9723
-6.0690 -0.5423 -2.9970 0.9732
-5.7103 -2.1265 -2.9971 0.9732
-4.9459 -3.5598 -2.9973 0.9732
-4.6096 -3.9861 -2.9974 0.9732
-4.2367 -4.3807 -2.9975 0.9732
-3.3931 -5.0628 -2.9977 0.9732
-2.9291 -5.3450 -2.9978 0.9732
-2.4419 -5.5847 -2.9980 0.9732
-1.9352 -5.7802 -2.9981 0.9732
-0.8798 -6.0323 -2.9984 0.9732
-0.3394 -6.0869 -2.9985 0.9732
0.2037 -6.0933 -2.9987 0.9732
0.7453 -6.0512 -2.9988 0.9732
2.3179 -5.6402 -2.9993 0.9732
3.2815 -5.1403 -2.9995 0.9732
3.7261 -4.8280 -2.9997 0.9732
4.1412 -4.4774 -2.9998 0.9732
4.5234 -4.0912 -2.9999 0.9732
4.8697 -3.6725 -3.0000 0.9732
5.1774 -3.2245 -3.0000 0.9732
5.4440 -2.7510 -3.0001 0.9732
5.6674 -2.2556 -3.0002 0.9732
6.0985 -0.1359 -3.0003 0.9732
6.0863 0.4075 -3.0003 0.9732
6.0259 0.9476 -3.0003 0.9732
5.9176 1.4801 -3.0002 0.9732
5.7623 2.0009 -3.0002 0.9732
5.0286 3.4519 -3.0000 0.9732
3.9375 4.6574 -2.9997 0.9732
3.3331 4.7414 -2.8507 0.9745
2.4364 5.2503 -2.8469 0.9745
1.9593 5.4461 -2.8468 0.9745
0.9626 5.7066 -2.8465 0.9745
0.4508 5.7694 -2.8463 0.9745
-0.0645 5.7863 -2.8462 0.9745
-1.0893 5.6826 -2.8459 0.9745
-2.0794 5.3990 -2.8457 0.9745
-2.5515 5.1923 -2.8455 0.9745
-3.0034 4.9443 -2.8454 0.9745
-3.4992 4.7492 -2.9015 0.9740
-4.0374 4.5651 -2.9975 0.9732
-4.4275 4.1875 -2.9974 0.9732
-4.7825 3.7767 -2.9973 0.9732
-5.3761 2.8688 -2.9972 0.9732
-5.6099 2.3788 -2.9971 0.9732
-5.7993 1.8700 -2.9970 0.9732
-6.0388 0.8121 -2.9970 0.9732
-6.0871 0.2715 -2.9970 0.9732
-6.0389 -0.8121 -2.9970 0.9732
-5.9427 -1.3464 -2.9970 0.9732
-5.7993 -1.8700 -2.9970 0.9732
-5.3761 -2.8687 -2.9972 0.9732
-4.7825 -3.7767 -2.9973 0.9732
-4.4275 -4.1875 -2.9974 0.9732
-4.0374 -4.5651 -2.9975 0.9732
-2.1907 -5.6881 -2.9980 0.9732
-1.1476 -5.9870 -2.9983 0.9732
-0.6102 -6.0656 -2.9985 0.9732
-0.0679 -6.0962 -2.9986 0.9732
0.4750 -6.0783 -2.9988 0.9732
1.5453 -5.8984 -2.9991 0.9732
2.5669 -5.5314 -2.9993 0.9732
3.0492 -5.2812 -2.9995 0.9732
4.3366 -4.2885 -2.9998 0.9732
4.7012 -3.8857 -2.9999 0.9732
5.0286 -3.4519 -3.0000 0.9732
5.7623 -2.0009 -3.0002 0.9732
6.0621 0.6782 -3.0003 0.9732
5.8457 1.7422 -3.0002 0.9732
5.6674 2.2556 -3.0002 0.9732
4.1412 4.4774 -2.9998 0.9732
2.6679 5.1367 -2.8470 0.9745
2.2001 5.3535 -2.8468 0.9745
1.7147 5.5279 -2.8467 0.9745
1.2159 5.6583 -2.8466 0.9745
-0.3222 5.7776 -2.8461 0.9745
-1.3413 5.6284 -2.8459 0.9745
-1.8368 5.4863 -2.8457 0.9745
-2.3178 5.3008 -2.8456 0.9745
-2.7802 5.0733 -2.8455 0.9745
-3.8245 4.7335 -2.9931 0.9732
-4.2367 4.3806 -2.9975 0.9732
-5.2430 3.1054 -2.9972 0.9732
-5.8768 1.6098 -2.9970 0.9732
-5.9967 1.0804 -2.9970 0.9732
-5.8459 0.0000 -2.9970 0.9741
-5.7533 -1.0365 -2.9971 0.9741
-5.4786 -2.0402 -2.9971 0.9741
-5.2753 -2.5198 -2.9972 0.9741
-4.7452 -3.4154 -2.9973 0.9741
-3.6746 -4.5481 -2.9976 0.9741
-2.3428 -5.3580 -2.9980 0.9741
-1.8566 -5.5455 -2.9981 0.9741
-0.8441 -5.7874 -2.9984 0.9741
-0.3256 -5.8398 -2.9985 0.9741
0.7150 -5.8056 -2.9988 0.9740
1.2290 -5.7191 -2.9990 0.9740
1.7332 -5.5873 -2.9991 0.9740
2.2237 -5.4111 -2.9992 0.9740
3.1482 -4.9315 -2.9995 0.9740
3.9730 -4.2955 -2.9997 0.9740
4.6719 -3.5233 -2.9999 0.9740
4.9671 -3.0935 -3.0000 0.9740
5.4372 -2.1639 -3.0001 0.9740
5.6083 -1.6714 -3.0002 0.9740
5.7348 -1.1656 -3.0002 0.9740
5.8159 -0.6506 -3.0002 0.9740
5.8507 -0.1304 -3.0002 0.9740
5.8391 0.3909 -3.0002 0.9740
5.7811 0.9091 -3.0002 0.9740
5.6772 1.4199 -3.0002 0.9740
5.3353 2.4040 -3.0001 0.9740
5.1001 2.8692 -3.0000 0.9740
4.8243 3.3117 -2.9999 0.9740
4.1604 4.1143 -2.9998 0.9740
3.7776 4.4682 -2.9997 0.9740
3.3131 4.7130 -2.9535 0.9744
2.7766 4.8092 -2.8470 0.9753
1.8798 5.2249 -2.8467 0.9753
1.4072 5.3712 -2.8466 0.9754
0.4325 5.5351 -2.8463 0.9754
-0.0618 5.5514 -2.8462 0.9754
-1.0451 5.4520 -2.8459 0.9754
-1.5261 5.3371 -2.8458 0.9754
-1.9950 5.1798 -2.8457 0.9754
-3.4684 4.7074 -2.9977 0.9741
-3.8735 4.3799 -2.9976 0.9741
-4.2478 4.0176 -2.9975 0.9741
-4.5884 3.6234 -2.9974 0.9741
-4.8926 3.2006 -2.9973 0.9741
-5.1579 2.7523 -2.9972 0.9741
-5.5640 1.7942 -2.9971 0.9741
-5.7015 1.2918 -2.9971 0.9741
-5.7938 0.7792 -2.9970 0.9741
-5.7015 -1.2918 -2.9971 0.9741
-5.5640 -1.7941 -2.9971 0.9741
-5.3823 -2.2822 -2.9972 0.9741
-4.5884 -3.6234 -2.9974 0.9741
-4.2478 -4.0176 -2.9975 0.9741
-3.4684 -4.7074 -2.9977 0.9741
-2.5791 -5.2482 -2.9979 0.9741
1.4826 -5.6589 -2.9990 0.9740
2.4626 -5.3068 -2.9993 0.9740
2.9253 -5.0668 -2.9994 0.9740
4.1605 -4.1143 -2.9998 0.9740
4.5103 -3.7278 -2.9999 0.9740
4.8243 -3.3117 -3.0000 0.9740
5.1001 -2.8692 -3.0000 0.9740
5.6772 -1.4199 -3.0002 0.9740
5.8391 -0.3908 -3.0002 0.9740
5.8507 0.1304 -3.0002 0.9740
5.8159 0.6506 -3.0002 0.9740
5.7348 1.1657 -3.0002 0.9740
5.6083 1.6714 -3.0002 0.9740
3.0185 4.7285 -2.8760 0.9751
2.5596 4.9281 -2.8469 0.9753
2.1107 5.1361 -2.8468 0.9753
1.6451 5.3033 -2.8467 0.9753
-0.3091 5.5430 -2.8461 0.9754
-1.2869 5.3999 -2.8459 0.9754
-2.6674 4.8674 -2.8455 0.9754
-3.6746 4.5481 -2.9976 0.9741
-4.0647 4.2029 -2.9975 0.9741
-4.4225 3.8243 -2.9974 0.9741
-4.7452 3.4154 -2.9973 0.9741
-5.0302 2.9794 -2.9972 0.9741
-5.4785 2.0403 -2.9971 0.9741
-5.8227 0.5204 -2.9970 0.9741
-5.6142 0.0000 -2.9971 0.9749
-5.4148 -1.4833 -2.9971 0.9749
-5.2614 -1.9593 -2.9972 0.9749
-4.2472 -3.6726 -2.9975 0.9749
-3.5289 -4.3678 -2.9977 0.9749
-2.2499 -5.1455 -2.9980 0.9749
-1.7830 -5.3256 -2.9981 0.9749
-1.3020 -5.4634 -2.9983 0.9749
-0.8106 -5.5578 -2.9984 0.9749
0.1877 -5.6140 -2.9987 0.9749
1.6645 -5.3657 -2.9991 0.9748
2.1355 -5.1964 -2.9992 0.9748
3.0233 -4.7359 -2.9995 0.9748
3.4329 -4.4481 -2.9996 0.9748
3.8153 -4.1251 -2.9997 0.9748
4.4866 -3.3835 -2.9999 0.9748
4.7700 -2.9708 -2.9999 0.9748
5.0156 -2.5345 -3.0000 0.9748
5.3857 -1.6051 -3.0001 0.9748
5.5073 -1.1194 -3.0001 0.9748
5.5851 -0.6248 -3.0002 0.9748
5.6185 -0.1252 -3.0002 0.9748
5.6074 0.3754 -3.0002 0.9748
5.5517 0.8730 -3.0001 0.9748
5.1236 2.3086 -3.0000 0.9748
4.8977 2.7554 -3.0000 0.9748
4.3313 3.5799 -2.9998 0.9748
3.2313 4.5966 -2.9995 0.9748
2.7268 4.7230 -2.9114 0.9756
2.2447 4.8373 -2.8468 0.9761
1.8052 5.0177 -2.8467 0.9761
1.3514 5.1582 -2.8466 0.9761
0.4154 5.3156 -2.8463 0.9761
-0.0594 5.3312 -2.8462 0.9761
-1.4656 5.1254 -2.8458 0.9761
-2.3510 4.7839 -2.8456 0.9761
-2.8770 4.7362 -2.9584 0.9752
-3.3309 4.5207 -2.9977 0.9749
-3.7199 4.2062 -2.9976 0.9749
-4.4065 3.4798 -2.9974 0.9749
-4.6986 3.0737 -2.9973 0.9749
-4.9534 2.6432 -2.9973 0.9749
-5.4755 1.2406 -2.9971 0.9749
-5.6086 -0.2501 -2.9971 0.9749
-5.3434 -1.7230 -2.9972 0.9749
-5.1689 -2.1918 -2.9972 0.9749
-3.7199 -4.2062 -2.9976 0.9749
-2.4768 -5.0401 -2.9980 0.9749
-1.5440 -5.3998 -2.9982 0.9749
-1.0573 -5.5161 -2.9983 0.9749
-0.5622 -5.5886 -2.9985 0.9749
-0.0626 -5.6166 -2.9986 0.9749
0.4376 -5.6002 -2.9988 0.9749
0.9344 -5.5393 -2.9989 0.9749
1.9019 -5.2863 -2.9992 0.9748
2.3649 -5.0963 -2.9993 0.9748
2.8093 -4.8658 -2.9994 0.9748
3.6277 -4.2909 -2.9996 0.9748
4.3313 -3.5799 -2.9998 0.9748
4.8977 -2.7554 -3.0000 0.9748
5.3088 -1.8434 -3.0001 0.9748
5.4519 -1.3636 -3.0001 0.9748
5.5517 -0.8729 -3.0001 0.9748
5.6185 0.1252 -3.0002 0.9748
5.5073 1.1194 -3.0001 0.9748
3.8153 4.1251 -2.9997 0.9748
3.4329 4.4481 -2.9996 0.9748
3.0060 4.7088 -2.9823 0.9750
2.4632 4.7425 -2.8529 0.9761
0.6518 5.2919 -2.8464 0.9761
-0.2968 5.3231 -2.8461 0.9761
-1.2358 5.1857 -2.8459 0.9761
-1.6924 5.0549 -2.8458 0.9761
-2.1355 4.8840 -2.8456 0.9761
-3.1263 4.6647 -2.9978 0.9749
-3.9035 4.0362 -2.9976 0.9749
-4.8308 2.8613 -2.9973 0.9749
-5.0662 2.4199 -2.9972 0.9749
-5.2614 1.9594 -2.9972 0.9749
-5.5919 0.4997 -2.9971 0.9749
-5.3964 0.0000 -2.9972 0.9756
-5.2048 -1.4257 -2.9972 0.9756
-5.0573 -1.8834 -2.9972 0.9756
-4.8697 -2.3260 -2.9973 0.9756
-4.6434 -2.7503 -2.9974 0.9756
-4.3803 -3.1528 -2.9974 0.9756
-4.0824 -3.5302 -2.9975 0.9756
-3.7521 -3.8796 -2.9976 0.9756
-3.3920 -4.1983 -2.9977 0.9756
-3.0050 -4.4837 -2.9978 0.9756
-0.7791 -5.3422 -2.9984 0.9756
-0.3006 -5.3906 -2.9986 0.9756
0.1804 -5.3962 -2.9987 0.9756
0.6600 -5.3589 -2.9988 0.9756
1.1345 -5.2791 -2.9989 0.9756
1.5999 -5.1574 -2.9991 0.9756
2.0526 -4.9947 -2.9992 0.9756
2.4891 -4.7924 -2.9993 0.9756
3.6672 -3.9650 -2.9996 0.9756
4.0057 -3.6229 -2.9997 0.9756
4.3124 -3.2521 -2.9998 0.9756
4.8209 -2.4361 -3.0000 0.9756
5.1766 -1.5428 -3.0000 0.9756
5.2935 -1.0759 -3.0001 0.9756
5.3361 0.8391 -3.0001 0.9756
5.2402 1.3107 -3.0001 0.9756
4.7075 2.6484 -2.9999 0.9756
4.4530 3.0568 -2.9998 0.9756
4.1632 3.4409 -2.9998 0.9756
3.8403 3.7977 -2.9997 0.9756
3.4869 4.1243 -2.9996 0.9756
3.1059 4.4182 -2.9995 0.9756
1.7351 4.8229 -2.8467 0.9768
-0.5129 5.0987 -2.8461 0.9768
-1.4087 4.9265 -2.8458 0.9768
-1.8414 4.7814 -2.8457 0.9768
-3.2017 4.3454 -2.9977 0.9756
-4.7613 2.5407 -2.9973 0.9756
-4.9684 2.1068 -2.9973 0.9756
-5.3483 0.7193 -2.9972 0.9756
-5.3483 -0.7193 -2.9972 0.9756
-5.1361 -1.6562 -2.9972 0.9756
-4.7613 -2.5407 -2.9973 0.9756
-4.2356 -3.3448 -2.9975 0.9756
-1.0163 -5.3021 -2.9984 0.9756
0.8981 -5.3243 -2.9989 0.9756
3.8403 -3.7977 -2.9997 0.9756
4.9247 -2.2189 -3.0000 0.9756
5.1027 -1.7718 -3.0000 0.9756
5.3361 -0.8390 -3.0001 0.9756
5.3897 -0.3608 -3.0001 0.9756
5.4004 0.1204 -3.0001 0.9756
5.3682 0.6005 -3.0001 0.9756
5.1766 1.5428 -3.0000 0.9756
