ply
format ascii 1.0
element vertex 1585
property float32 x
property float32 y
property float32 z
property float32 I
end_header
1.2999 -4.9618 -0.2133 0.9797
2.4108 -5.1951 -0.2381 0.9773
0.1821 -5.4480 -0.3175 0.9784
0.6341 -5.1487 -0.3021 0.9794
1.0735 -4.9955 -0.2976 0.9797
1.5386 -4.9600 -0.3025 0.9794
2.0798 -5.0609 -0.3187 0.9783
0.4116 -5.2680 -0.3078 0.9791
1.3021 -4.9701 -0.2992 0.9796
2.4174 -5.2093 -0.3345 0.9773
2.9671 -5.7127 -0.4824 0.9745
-0.0639 -5.7380 -0.4300 0.9772
0.8553 -5.0705 -0.3853 0.9796
2.4305 -5.2376 -0.4327 0.9771
-0.3596 -6.4493 -0.5922 0.9744
1.0806 -5.0288 -0.4716 0.9796
1.5502 -4.9973 -0.4797 0.9792
-0.0645 -5.7865 -0.5305 0.9770
0.4149 -5.3093 -0.4882 0.9788
0.8597 -5.0964 -0.4738 0.9795
0.1851 -5.5375 -0.6010 0.9780
0.6424 -5.2160 -0.5700 0.9791
1.8187 -5.0553 -0.5827 0.9786
0.1864 -5.5747 -0.6990 0.9778
1.0921 -5.0821 -0.6514 0.9793
1.5680 -5.0548 -0.6632 0.9789
-0.0656 -5.8864 -0.7377 0.9765
0.4199 -5.3742 -0.6755 0.9785
0.8688 -5.1506 -0.6546 0.9792
1.3250 -5.0575 -0.6552 0.9791
1.8294 -5.0850 -0.6772 0.9785
0.1880 -5.6238 -0.8004 0.9775
1.0979 -5.1094 -0.7433 0.9791
-0.0669 -6.0045 -0.8541 0.9760
0.8735 -5.1784 -0.7470 0.9790
1.8419 -5.1197 -0.7739 0.9783
0.1909 -5.7090 -0.9096 0.9771
0.6564 -5.3299 -0.8551 0.9785
1.5936 -5.1374 -0.8565 0.9784
2.1814 -5.3080 -0.9138 0.9770
-0.0685 -6.1484 -0.9791 0.9754
1.3445 -5.1319 -0.8448 0.9787
1.8652 -5.1843 -0.8773 0.9779
2.6176 -5.6407 -0.9902 0.9751
1.1189 -5.2069 -0.9391 0.9786
1.6112 -5.1939 -0.9589 0.9782
2.2179 -5.3970 -1.0289 0.9766
-0.0705 -6.3252 -1.1154 0.9746
0.4335 -5.5471 -0.9811 0.9777
1.8891 -5.2509 -0.9840 0.9776
2.7516 -5.9297 -1.1526 0.9738
-12.2910 7.2800 -2.5189 0.9436
1.1303 -5.2602 -1.0412 0.9783
1.6292 -5.2519 -1.0641 0.9778
13.3924 6.0344 -2.8426 0.9419
9.4869 11.2212 -2.8436 0.9419
8.4513 12.0221 -2.8438 0.9419
6.1871 13.3328 -2.8444 0.9419
3.7259 14.2217 -2.8450 0.9419
2.4456 14.4986 -2.8454 0.9419
1.1456 14.6604 -2.8457 0.9418
-0.1638 14.7060 -2.8461 0.9418
-2.7693 14.4474 -2.8467 0.9418
-5.2883 13.7308 -2.8474 0.9418
-6.4901 13.2071 -2.8477 0.9418
-7.6407 12.5783 -2.8480 0.9418
-9.7518 11.0265 -2.8486 0.9418
-11.5544 9.1244 -2.8491 0.9418
-13.5571 5.7487 -2.8497 0.9418
0.4390 -5.6178 -1.0905 0.9773
1.3722 -5.2377 -1.0478 0.9782
13.6476 5.4317 -2.8425 0.9419
7.9077 12.3873 -2.8440 0.9419
6.7745 13.0433 -2.8443 0.9419
4.3555 14.0408 -2.8449 0.9419
1.7974 14.5940 -2.8455 0.9419
-0.8188 14.6850 -2.8462 0.9418
-3.4104 14.3106 -2.8469 0.9418
-4.6711 13.9519 -2.8472 0.9418
-7.0724 12.9055 -2.8479 0.9418
-10.2338 10.5817 -2.8487 0.9418
-11.9498 8.6010 -2.8492 0.9418
-12.2597 7.2614 -2.7574 0.9436
-13.2872 6.3468 -2.8496 0.9418
-14.0154 -2.5250 -3.0023 0.9434
-13.3450 -4.9697 -3.0021 0.9434
-12.8492 -6.1376 -3.0020 0.9435
-12.2514 -7.2565 -3.0019 0.9435
-11.5562 -8.3177 -3.0017 0.9435
-9.8970 -10.2334 -3.0013 0.9435
-7.9245 -11.8241 -3.0008 0.9435
-5.7014 -13.0394 -3.0002 0.9435
-4.5177 -13.4937 -2.9999 0.9435
-3.2984 -13.8408 -2.9996 0.9435
0.2036 -6.0904 -1.2847 0.9754
0.6811 -5.5304 -1.1747 0.9775
2.3397 -5.6934 -1.2977 0.9752
7.6487 -11.9814 -2.9967 0.9435
10.5395 -9.5325 -2.9959 0.9436
12.0610 -7.5116 -2.9955 0.9436
12.6810 -6.4080 -2.9953 0.9436
13.9217 -2.8297 -2.9950 0.9436
14.1179 -1.5793 -2.9949 0.9436
14.1741 0.9488 -2.9949 0.9436
13.7816 3.4470 -2.9949 0.9436
12.2946 5.5397 -2.8429 0.9464
10.6368 7.3018 -2.7200 0.9486
9.5905 9.4843 -2.8436 0.9464
8.7090 10.3010 -2.8438 0.9464
7.7582 11.0362 -2.8440 0.9463
5.6796 12.2392 -2.8445 0.9463
4.5682 12.6974 -2.8448 0.9463
1.0516 13.4574 -2.8457 0.9463
-2.5420 13.2615 -2.8467 0.9463
-4.8541 12.6034 -2.8473 0.9463
-5.9572 12.1227 -2.8476 0.9463
-8.0138 10.8764 -2.8482 0.9463
-9.8170 9.2848 -2.8486 0.9463
-11.3093 7.3982 -2.8491 0.9463
-14.1138 1.8981 -3.0023 0.9434
-14.2271 -0.6344 -3.0023 0.9434
-13.5534 -4.3704 -3.0022 0.9434
-13.1101 -5.5591 -3.0021 0.9434
-12.5628 -6.7037 -3.0020 0.9435
-10.3434 -9.7827 -3.0014 0.9435
-8.4437 -11.4599 -3.0009 0.9435
-7.3895 -12.1648 -3.0007 0.9435
-6.2769 -12.7731 -3.0004 0.9435
-5.1146 -13.2797 -3.0001 0.9435
-3.9119 -13.6808 -2.9998 0.9435
-2.6785 -13.9732 -2.9995 0.9435
-1.4240 -14.1546 -2.9991 0.9435
0.4479 -5.7318 -1.2121 0.9768
5.9843 -12.8959 -2.9972 0.9435
7.1076 -12.3109 -2.9969 0.9435
8.1744 -11.6282 -2.9966 0.9436
9.1761 -10.8535 -2.9963 0.9436
10.9533 -9.0531 -2.9958 0.9436
12.3833 -6.9667 -2.9954 0.9436
12.9535 -5.8365 -2.9953 0.9436
13.4210 -4.6603 -2.9951 0.9436
14.1742 -0.9488 -2.9949 0.9436
13.9213 2.8296 -2.9949 0.9436
12.5289 4.9864 -2.8428 0.9464
9.1588 9.9024 -2.8437 0.9464
7.2592 11.3713 -2.8441 0.9463
6.2189 11.9735 -2.8444 0.9463
0.4511 13.4917 -2.8459 0.9463
-0.7516 13.4798 -2.8462 0.9463
-3.1304 13.1359 -2.8468 0.9463
-9.3932 9.7125 -2.8485 0.9463
-12.1956 5.8253 -2.8493 0.9462
-12.8136 4.7718 -2.8826 0.9456
-13.7344 3.7622 -3.0021 0.9434
-13.1006 -1.1707 -3.0020 0.9475
-12.9443 -2.3320 -3.0020 0.9475
-12.6851 -3.4748 -3.0020 0.9475
-11.8673 -5.6685 -3.0018 0.9475
-11.3152 -6.7020 -3.0016 0.9475
-10.6732 -7.6821 -3.0015 0.9475
-8.2627 -10.2269 -3.0009 0.9475
-7.3191 -10.9209 -3.0006 0.9475
-5.2659 -12.0435 -3.0001 0.9475
-4.1727 -12.4632 -2.9998 0.9475
-3.0466 -12.7838 -2.9995 0.9475
-1.8964 -13.0030 -2.9992 0.9475
-0.7315 -13.1188 -2.9989 0.9475
0.2200 -6.5801 -1.5027 0.9733
1.1649 -5.4209 -1.2655 0.9775
4.9918 -12.1469 -2.9974 0.9475
6.0526 -11.6532 -2.9971 0.9475
7.0651 -11.0673 -2.9969 0.9476
8.9140 -9.6376 -2.9964 0.9476
11.7139 -5.9193 -2.9956 0.9476
12.5768 -3.7483 -2.9953 0.9476
12.9634 2.0384 -2.9952 0.9476
11.3570 5.1173 -2.8431 0.9502
10.8569 6.1080 -2.8433 0.9502
10.2707 7.0505 -2.8434 0.9502
8.8590 8.7608 -2.8438 0.9502
7.1664 10.1943 -2.8442 0.9502
6.2311 10.7926 -2.8444 0.9502
5.2462 11.3054 -2.8447 0.9501
0.9713 12.4303 -2.8458 0.9501
-2.3479 12.2490 -2.8467 0.9501
-4.4834 11.6410 -2.8472 0.9501
-5.5023 11.1968 -2.8475 0.9501
-6.4776 10.6636 -2.8478 0.9501
-7.4017 10.0456 -2.8480 0.9501
-8.2671 9.3478 -2.8482 0.9501
-9.0670 8.5755 -2.8485 0.9501
-10.4452 6.8329 -2.8488 0.9501
-12.5172 4.0363 -3.0018 0.9475
-13.1397 0.5859 -3.0020 0.9475
-13.1397 -0.5859 -3.0020 0.9475
-12.1083 -5.1343 -3.0018 0.9475
-11.6028 -6.1914 -3.0017 0.9475
-11.0051 -7.1992 -3.0016 0.9475
-9.5532 -9.0353 -3.0012 0.9475
-7.7987 -10.5844 -3.0008 0.9475
-6.8251 -11.2356 -3.0005 0.9475
-5.7974 -11.7974 -3.0003 0.9475
-3.6132 -12.6360 -2.9997 0.9475
-2.4739 -12.9062 -2.9994 0.9475
-1.3153 -13.0739 -2.9991 0.9475
-0.1464 -13.1378 -2.9988 0.9475
0.9275 -5.4988 -1.2728 0.9774
1.9997 -5.5581 -1.3482 0.9761
7.5508 -10.7411 -2.9967 0.9476
8.4761 -10.0256 -2.9965 0.9476
9.3341 -9.2306 -2.9963 0.9476
10.1179 -8.3627 -2.9960 0.9476
11.9657 -5.3915 -2.9955 0.9476
12.3975 -4.3049 -2.9954 0.9476
12.7311 -3.1843 -2.9953 0.9476
12.9636 -2.0384 -2.9952 0.9476
13.1193 0.2924 -2.9951 0.9476
13.0413 1.4589 -2.9952 0.9476
12.5764 3.7482 -2.9952 0.9476
11.1180 5.6182 -2.8432 0.9502
10.5743 6.5858 -2.8433 0.9502
9.2402 8.3572 -2.8437 0.9502
8.4603 9.1471 -2.8439 0.9502
7.6131 9.8646 -2.8441 0.9502
3.6931 11.9054 -2.8451 0.9501
0.4166 12.4619 -2.8459 0.9501
-0.6942 12.4508 -2.8462 0.9501
-3.9602 11.8285 -2.8471 0.9501
-5.9959 10.9411 -2.8476 0.9501
-6.9465 10.3649 -2.8479 0.9501
-7.8421 9.7063 -2.8481 0.9501
-10.1301 7.2912 -2.8488 0.9501
-13.1005 1.1706 -3.0020 0.9475
-12.1639 -1.0869 -3.0018 0.9509
-11.4439 -4.2618 -3.0016 0.9509
-11.0188 -5.2632 -3.0015 0.9509
-10.5062 -6.2229 -3.0014 0.9509
-9.2355 -7.9862 -3.0011 0.9510
-8.4875 -8.7760 -3.0009 0.9510
-5.8660 -10.7041 -3.0003 0.9510
-4.8896 -11.1828 -3.0000 0.9510
-2.8289 -11.8705 -2.9995 0.9510
-1.7610 -12.0740 -2.9992 0.9510
0.4076 -12.1927 -2.9986 0.9510
4.6354 -11.2796 -2.9975 0.9510
9.0408 -8.1769 -2.9963 0.9510
9.7321 -7.3393 -2.9961 0.9510
10.3461 -6.4436 -2.9960 0.9510
12.0385 1.8930 -2.9954 0.9510
11.5125 3.9976 -2.9955 0.9510
10.0822 5.6722 -2.8435 0.9535
9.5378 6.5473 -2.8436 0.9535
8.9177 7.3707 -2.8438 0.9535
7.4705 8.8362 -2.8441 0.9535
6.6549 9.4667 -2.8443 0.9535
5.7863 10.0222 -2.8445 0.9534
3.9183 10.8912 -2.8450 0.9534
2.9337 11.1977 -2.8453 0.9534
0.9020 11.5426 -2.8458 0.9534
-0.1290 11.5782 -2.8461 0.9534
-1.1591 11.5218 -2.8464 0.9534
-4.1631 10.8092 -2.8471 0.9534
-5.1091 10.3967 -2.8474 0.9534
-6.8727 9.3277 -2.8479 0.9534
-7.6762 8.6796 -2.8481 0.9534
-8.4189 7.9625 -2.8483 0.9534
-9.0948 7.1821 -2.8485 0.9534
-11.6222 3.7477 -3.0016 0.9509
-12.1032 1.6277 -3.0017 0.9509
-12.2002 -0.5440 -3.0018 0.9509
-11.9103 -2.6985 -3.0017 0.9509
-11.6226 -3.7478 -3.0017 0.9509
-11.2426 -4.7673 -3.0016 0.9509
-10.7732 -5.7488 -3.0015 0.9509
-10.2183 -6.6845 -3.0013 0.9509
-9.5823 -7.5671 -3.0012 0.9510
-8.8703 -8.3894 -3.0010 0.9510
-8.0878 -9.1451 -3.0008 0.9510
-7.2413 -9.8279 -3.0006 0.9510
-5.3831 -10.9544 -3.0001 0.9510
-4.3864 -11.3890 -2.9999 0.9510
-3.3550 -11.7332 -2.9996 0.9510
-2.2972 -11.9842 -2.9993 0.9510
-1.2213 -12.1399 -2.9991 0.9510
-0.1359 -12.1993 -2.9988 0.9510
0.4758 -6.0889 -1.5012 0.9752
1.4410 -5.5004 -1.3976 0.9769
5.1330 -11.0614 -2.9974 0.9510
6.0967 -10.5597 -2.9971 0.9510
7.0118 -9.9744 -2.9969 0.9510
7.8711 -9.3099 -2.9966 0.9510
8.6679 -8.5718 -2.9964 0.9510
10.6226 -5.9762 -2.9959 0.9510
11.5129 -3.9977 -2.9956 0.9510
11.8227 -2.9570 -2.9955 0.9510
12.1592 -0.8140 -2.9954 0.9510
12.1108 1.3548 -2.9954 0.9510
10.3247 5.2173 -2.8434 0.9535
9.8198 6.1158 -2.8435 0.9535
7.0697 9.1605 -2.8442 0.9535
6.2268 9.7541 -2.8444 0.9535
4.3994 10.7054 -2.8449 0.9534
3.4294 11.0554 -2.8452 0.9534
-1.6713 11.4593 -2.8465 0.9534
-5.5674 10.1592 -2.8475 0.9534
-6.4501 9.6242 -2.8478 0.9534
-8.0555 8.3293 -2.8482 0.9534
-8.7655 7.5798 -2.8484 0.9534
-10.4584 4.9955 -2.8489 0.9534
-12.0185 2.1652 -3.0017 0.9509
-12.1638 1.0870 -3.0018 0.9509
-11.3460 -1.0139 -3.0016 0.9540
-11.2106 -2.0197 -3.0016 0.9540
-10.9862 -3.0094 -3.0015 0.9540
-10.6745 -3.9752 -3.0014 0.9540
-8.6146 -7.4494 -3.0009 0.9540
-7.9169 -8.1860 -3.0008 0.9540
-7.1564 -8.8577 -3.0006 0.9540
-5.4718 -9.9847 -3.0001 0.9540
-4.5610 -10.4313 -2.9999 0.9540
-3.6142 -10.7950 -2.9997 0.9540
-1.6426 -11.2628 -2.9992 0.9540
-0.6336 -11.3633 -2.9989 0.9540
1.2204 -5.6791 -1.5306 0.9763
5.2431 -10.0946 -2.9973 0.9540
6.9488 -9.0038 -2.9969 0.9540
7.7220 -8.3490 -2.9967 0.9540
8.4339 -7.6280 -2.9965 0.9540
9.0788 -6.8467 -2.9963 0.9541
9.6517 -6.0111 -2.9961 0.9541
11.1410 -2.2645 -2.9957 0.9541
10.7399 3.7293 -2.9957 0.9541
8.8976 6.1079 -2.8438 0.9563
8.3191 6.8759 -2.8439 0.9563
6.9690 8.2430 -2.8443 0.9563
4.5446 9.7934 -2.8449 0.9563
-0.1203 10.8004 -2.8461 0.9563
-1.0812 10.7478 -2.8463 0.9563
-2.0337 10.6098 -2.8466 0.9563
-2.9703 10.3876 -2.8468 0.9563
-4.7658 9.6980 -2.8473 0.9563
-5.6105 9.2361 -2.8475 0.9563
-9.5377 5.0895 -2.8486 0.9563
-10.4863 4.4465 -3.0013 0.9540
-11.1092 2.5170 -3.0015 0.9540
-11.3799 -0.5074 -3.0016 0.9540
-11.2895 -1.5183 -3.0016 0.9540
-11.1094 -2.5171 -3.0015 0.9540
-10.8411 -3.4958 -3.0015 0.9540
-10.0489 -5.3622 -3.0013 0.9540
-8.9381 -7.0584 -3.0010 0.9540
-7.5442 -8.5303 -3.0007 0.9540
-5.0214 -10.2181 -3.0000 0.9540
-4.0916 -10.6237 -2.9998 0.9540
-2.1428 -11.1790 -2.9993 0.9540
-1.1392 -11.3243 -2.9990 0.9540
-0.1268 -11.3797 -2.9988 0.9540
0.9739 -5.7735 -1.5428 0.9761
1.4860 -5.6722 -1.5451 0.9760
5.6873 -9.8507 -2.9972 0.9540
6.5410 -9.3047 -2.9970 0.9540
7.3427 -8.6850 -2.9968 0.9540
8.7651 -7.2445 -2.9964 0.9541
9.3746 -6.4353 -2.9962 0.9541
9.9096 -5.5751 -2.9961 0.9541
10.7403 -3.7294 -2.9958 0.9541
11.0292 -2.7586 -2.9957 0.9541
11.2308 -1.7659 -2.9957 0.9541
11.3432 -0.7594 -2.9956 0.9541
11.2981 1.2638 -2.9956 0.9541
10.8953 3.2472 -2.9957 0.9541
10.5633 4.2041 -2.9958 0.9541
9.1607 5.7053 -2.8437 0.9563
8.0048 7.2399 -2.8440 0.9563
6.5951 8.5455 -2.8444 0.9563
5.8087 9.0992 -2.8446 0.9563
4.9762 9.5809 -2.8448 0.9563
3.1991 10.3130 -2.8452 0.9563
1.3201 10.7187 -2.8457 0.9563
0.3609 10.7946 -2.8460 0.9563
-3.4302 10.2455 -2.8470 0.9563
-5.1933 9.4765 -2.8474 0.9563
-8.7736 6.3149 -2.8484 0.9563
-10.9859 3.0094 -3.0014 0.9540
-11.2104 2.0197 -3.0015 0.9540
-11.3459 1.0139 -3.0015 0.9540
-10.6252 -0.9495 -3.0014 0.9566
-9.9964 -3.7227 -3.0013 0.9566
-8.0675 -6.9762 -3.0008 0.9566
-5.9367 -8.8581 -3.0003 0.9567
-3.3847 -10.1096 -2.9996 0.9567
-2.4713 -10.3700 -2.9994 0.9567
6.5080 -8.4326 -2.9970 0.9567
7.8990 -7.1443 -2.9966 0.9567
9.0396 -5.6299 -2.9963 0.9567
9.5044 -4.8028 -2.9962 0.9567
9.8938 -3.9376 -2.9960 0.9567
10.2047 -3.0413 -2.9960 0.9567
10.4346 -2.1209 -2.9959 0.9567
10.3297 2.5836 -2.9959 0.9567
10.0589 3.4928 -2.9959 0.9567
8.8091 4.9559 -2.8438 0.9589
8.3334 5.7206 -2.8439 0.9589
7.7915 6.4399 -2.8441 0.9589
7.1878 7.1082 -2.8442 0.9589
6.5270 7.7202 -2.8444 0.9589
5.8143 8.2710 -2.8446 0.9589
5.0554 8.7563 -2.8448 0.9589
2.5630 9.7830 -2.8454 0.9588
0.7880 10.0840 -2.8459 0.9588
-1.9046 9.9364 -2.8466 0.9588
-2.7817 9.7282 -2.8468 0.9588
-5.2542 8.6497 -2.8475 0.9588
-7.3542 6.9556 -2.8480 0.9588
-7.9446 6.2738 -2.8482 0.9588
-8.4719 5.5421 -2.8483 0.9588
-8.9452 4.7733 -2.8527 0.9587
-10.5723 -1.4219 -3.0014 0.9566
-10.1524 -3.2737 -3.0013 0.9566
-9.4106 -5.0217 -3.0011 0.9566
-8.9260 -5.8391 -3.0010 0.9566
-8.3705 -6.6101 -3.0009 0.9566
-5.5360 -9.1135 -3.0002 0.9567
-3.8319 -9.9492 -2.9997 0.9567
-0.1187 -10.6575 -2.9988 0.9567
0.8302 -10.6249 -2.9985 0.9567
1.0200 -6.0471 -1.7254 0.9748
1.5593 -5.9518 -1.7311 0.9748
3.6069 -10.0256 -2.9978 0.9567
6.8770 -8.1341 -2.9969 0.9567
7.5731 -7.4893 -2.9967 0.9567
9.7087 -4.3746 -2.9961 0.9567
10.0592 -3.4929 -2.9960 0.9567
10.5817 1.1838 -2.9958 0.9567
10.2044 3.0412 -2.9959 0.9567
8.0705 6.0863 -2.8440 0.9589
7.4971 6.7807 -2.8441 0.9589
6.8642 7.4215 -2.8443 0.9589
6.1768 8.0035 -2.8445 0.9589
2.9962 9.6587 -2.8453 0.9588
0.3380 10.1096 -2.8460 0.9588
-4.8635 8.8748 -2.8474 0.9588
-7.6570 6.6213 -2.8481 0.9588
-9.9961 3.7226 -3.0012 0.9566
-10.2881 2.8182 -3.0013 0.9566
-10.4983 1.8914 -3.0013 0.9566
-10.0248 0.0000 -3.0012 0.9590
-9.9850 -0.8922 -3.0012 0.9590
-9.0452 -4.3205 -3.0010 0.9590
-7.5814 -6.5559 -3.0007 0.9590
-6.9675 -7.2044 -3.0005 0.9590
-2.3225 -9.7455 -2.9993 0.9590
-1.4457 -9.9128 -2.9991 0.9590
-0.5577 -10.0013 -2.9989 0.9590
1.2243 -9.9402 -2.9984 0.9590
2.1040 -9.7910 -2.9982 0.9590
2.9668 -9.5642 -2.9979 0.9591
3.8060 -9.2614 -2.9977 0.9591
6.1164 -7.9252 -2.9971 0.9591
7.4238 -6.7144 -2.9967 0.9591
9.2986 -3.7008 -2.9962 0.9591
9.8069 -1.9933 -2.9960 0.9591
9.9453 -1.1125 -2.9960 0.9591
9.9849 0.6684 -2.9960 0.9591
9.8858 1.5545 -2.9960 0.9591
9.1244 4.1113 -2.9961 0.9591
7.8321 5.3764 -2.8441 0.9611
6.1343 7.2557 -2.8445 0.9611
4.7512 8.2294 -2.8448 0.9611
4.0002 8.6202 -2.8450 0.9611
3.2173 8.9426 -2.8452 0.9611
-0.1059 9.5060 -2.8461 0.9611
-0.9516 9.4596 -2.8463 0.9611
-1.7900 9.3381 -2.8465 0.9611
-3.4178 8.8741 -2.8470 0.9611
-5.6421 7.6575 -2.8476 0.9611
-6.3016 7.1254 -2.8478 0.9611
-7.9615 5.2082 -2.8482 0.9611
-8.8433 4.7189 -3.0008 0.9590
-9.2285 3.9132 -3.0010 0.9590
-9.5405 3.0764 -3.0011 0.9590
-9.7767 2.2151 -3.0011 0.9590
-9.9352 1.3361 -3.0012 0.9590
-9.9353 -1.3362 -3.0012 0.9590
-9.7768 -2.2152 -3.0012 0.9590
-9.5407 -3.0765 -3.0011 0.9590
-9.2288 -3.9133 -3.0011 0.9590
-8.8436 -4.7191 -3.0010 0.9590
-8.3882 -5.4873 -3.0009 0.9590
-7.8662 -6.2118 -3.0007 0.9590
-6.6395 -7.5073 -3.0004 0.9590
-2.7544 -9.6327 -2.9994 0.9590
-0.1116 -10.0158 -2.9987 0.9590
4.2147 -9.0824 -2.9976 0.9591
8.7229 -4.9074 -2.9964 0.9591
9.1247 -4.1114 -2.9962 0.9591
9.7085 -2.4283 -2.9961 0.9591
9.8859 -1.5545 -2.9960 0.9591
10.0047 0.2229 -2.9960 0.9591
9.8068 1.9933 -2.9960 0.9591
9.5906 2.8583 -2.9960 0.9591
9.2983 3.7007 -2.9961 0.9591
12.6559 6.3953 -4.2452 0.9425
7.5850 5.7201 -2.8441 0.9611
6.4512 6.9750 -2.8444 0.9611
4.3801 8.4331 -2.8449 0.9611
3.6123 8.7901 -2.8451 0.9611
1.1619 9.4342 -2.8458 0.9611
-0.5293 9.4923 -2.8462 0.9611
-1.3721 9.4082 -2.8464 0.9611
-2.2043 9.2495 -2.8467 0.9611
-4.5706 8.3403 -2.8473 0.9611
-5.2952 7.9010 -2.8475 0.9611
-6.6130 6.8378 -2.8478 0.9611
-7.7214 5.5575 -2.8481 0.9611
-8.1858 4.8485 -2.8483 0.9611
-9.0449 4.3204 -3.0009 0.9590
-9.3938 3.4983 -3.0010 0.9590
-9.6682 2.6484 -3.0011 0.9590
-9.4497 -0.0000 -3.0011 0.9611
-9.4122 -0.8410 -3.0011 0.9611
-9.1137 -2.4965 -3.0010 0.9611
-7.1466 -6.1799 -3.0005 0.9611
-5.2591 -7.8471 -3.0001 0.9611
-4.5395 -8.2836 -2.9999 0.9611
-3.7840 -8.6542 -2.9997 0.9611
-2.9985 -8.9561 -2.9995 0.9611
-0.5257 -9.4280 -2.9988 0.9611
1.1541 -9.3704 -2.9984 0.9612
3.5879 -8.7308 -2.9978 0.9612
4.3505 -8.3762 -2.9976 0.9612
7.5337 -5.6814 -2.9967 0.9612
8.0091 -4.9881 -2.9966 0.9612
8.4210 -4.2553 -2.9964 0.9612
8.7660 -3.4888 -2.9963 0.9612
9.3757 -1.0488 -2.9961 0.9612
9.4130 0.6302 -2.9961 0.9612
9.1523 2.2891 -2.9962 0.9612
8.9124 3.0947 -2.9962 0.9612
8.6018 3.8758 -2.9963 0.9612
11.6508 6.5546 -4.2455 0.9454
6.9033 5.7057 -2.8443 0.9631
6.3684 6.2978 -2.8444 0.9631
5.7829 6.8400 -2.8446 0.9631
4.4790 7.7579 -2.8449 0.9631
3.7710 8.1263 -2.8451 0.9631
3.0329 8.4302 -2.8453 0.9631
1.4904 8.8356 -2.8457 0.9631
0.6981 8.9338 -2.8459 0.9631
-0.0998 8.9612 -2.8461 0.9631
-0.8971 8.9174 -2.8463 0.9631
-2.4643 8.6183 -2.8467 0.9631
-4.6546 7.6626 -2.8473 0.9631
-5.9402 6.7167 -2.8477 0.9631
-7.5048 4.9095 -2.8481 0.9631
-8.3360 4.4482 -3.0007 0.9611
-9.3652 1.2595 -3.0010 0.9611
-9.2160 -2.0881 -3.0010 0.9611
-8.6994 -3.6888 -3.0009 0.9611
-7.9070 -5.1725 -3.0007 0.9611
-7.4150 -5.8555 -3.0006 0.9611
-6.8640 -6.4920 -3.0005 0.9611
-6.2587 -7.0768 -3.0003 0.9611
-5.6036 -7.6054 -3.0002 0.9611
-2.5965 -9.0804 -2.9994 0.9611
-0.9452 -9.3956 -2.9990 0.9611
0.7355 -9.4129 -2.9985 0.9611
1.5703 -9.3094 -2.9983 0.9612
2.3925 -9.1320 -2.9981 0.9612
3.1956 -8.8822 -2.9979 0.9612
4.7191 -8.1738 -2.9975 0.9612
5.4276 -7.7208 -2.9973 0.9612
6.7097 -6.6354 -2.9969 0.9612
7.2733 -6.0116 -2.9968 0.9612
7.7791 -5.3401 -2.9966 0.9612
8.2232 -4.6263 -2.9965 0.9612
8.9126 -3.0948 -2.9963 0.9612
9.1525 -2.2891 -2.9962 0.9612
9.3197 -1.4654 -2.9962 0.9612
9.2451 1.8792 -2.9961 0.9612
11.9310 6.0290 -4.2454 0.9454
11.3474 7.0672 -4.2455 0.9454
6.6424 6.0077 -2.8444 0.9631
6.0817 6.5754 -2.8445 0.9631
4.8200 7.5504 -2.8448 0.9631
2.6545 8.5572 -2.8454 0.9631
1.8824 8.7601 -2.8456 0.9631
0.2994 8.9564 -2.8460 0.9631
-2.8459 8.5003 -2.8468 0.9631
-4.3085 7.8621 -2.8472 0.9631
-5.6349 6.9745 -2.8476 0.9631
-6.2337 6.4456 -2.8477 0.9631
-9.2998 1.6754 -3.0010 0.9611
-9.4121 0.8411 -3.0010 0.9611
-8.8964 -0.7950 -3.0009 0.9630
-8.0591 -3.8495 -3.0007 0.9630
-7.6843 -4.5514 -3.0007 0.9630
-7.2484 -5.2171 -3.0006 0.9630
-5.6118 -6.9458 -3.0001 0.9630
-4.9710 -7.4172 -3.0000 0.9630
-4.2909 -7.8298 -2.9998 0.9630
-3.5767 -8.1802 -2.9996 0.9630
-2.0694 -8.6836 -2.9992 0.9630
3.3915 -8.2528 -2.9978 0.9630
4.8004 -7.5198 -2.9974 0.9631
6.0570 -6.5487 -2.9971 0.9631
6.6155 -5.9833 -2.9969 0.9631
7.9602 -4.0224 -2.9966 0.9631
8.5468 -2.5472 -2.9964 0.9631
8.8627 -0.9914 -2.9963 0.9631
8.4247 2.9254 -2.9963 0.9631
6.5255 5.3935 -2.8444 0.9649
6.0199 5.9532 -2.8445 0.9649
5.4664 6.4657 -2.8447 0.9649
4.2338 7.3333 -2.8450 0.9649
2.8669 7.9687 -2.8453 0.9649
2.1464 8.1928 -2.8455 0.9649
1.4088 8.3519 -2.8457 0.9649
-1.5949 8.3207 -2.8465 0.9649
-3.0454 7.9072 -2.8469 0.9649
-4.3997 7.2428 -2.8473 0.9649
-5.0272 6.8229 -2.8474 0.9649
-5.6148 6.3488 -2.8476 0.9649
-6.1579 5.8241 -2.8477 0.9649
-6.6522 5.2531 -2.8479 0.9649
-7.2570 4.7473 -2.9136 0.9641
-7.8792 4.2045 -3.0006 0.9630
-8.7108 1.9736 -3.0008 0.9630
-8.8521 -1.1905 -3.0009 0.9630
-8.2227 -3.4867 -3.0008 0.9630
-7.8795 -4.2046 -3.0007 0.9630
-7.4738 -4.8891 -3.0006 0.9630
-7.0087 -5.5347 -3.0005 0.9630
-6.4880 -6.1363 -3.0004 0.9630
-5.9158 -6.6890 -3.0002 0.9630
-5.2967 -7.1887 -3.0001 0.9630
-3.9377 -8.0130 -2.9997 0.9630
-3.2087 -8.3311 -2.9995 0.9630
-0.8934 -8.8810 -2.9989 0.9630
-0.0994 -8.9247 -2.9987 0.9630
1.4843 -8.7997 -2.9983 0.9630
2.2615 -8.6321 -2.9981 0.9630
3.0206 -8.3960 -2.9979 0.9630
3.7557 -8.0933 -2.9977 0.9631
5.1305 -7.2982 -2.9973 0.9631
6.3425 -6.2722 -2.9970 0.9631
7.3534 -5.0478 -2.9967 0.9631
7.7732 -4.3731 -2.9966 0.9631
8.1313 -3.6638 -2.9965 0.9631
8.8098 -1.3853 -2.9963 0.9631
8.9157 0.1987 -2.9962 0.9631
8.8626 0.9914 -2.9963 0.9631
8.7393 1.7763 -2.9963 0.9631
8.2861 3.2978 -2.9964 0.9631
10.7264 6.6805 -4.2457 0.9481
6.2789 5.6790 -2.8445 0.9649
4.5562 7.1371 -2.8449 0.9649
3.9031 7.5148 -2.8451 0.9649
3.2189 7.8328 -2.8452 0.9649
1.7794 8.2805 -2.8456 0.9649
1.0354 8.4066 -2.8458 0.9649
-1.2227 8.3832 -2.8464 0.9649
-1.9641 8.2417 -2.8466 0.9649
-3.3947 7.7639 -2.8470 0.9649
-4.0725 7.4314 -2.8472 0.9649
-4.7181 7.0399 -2.8473 0.9649
-5.3262 6.5924 -2.8475 0.9649
-5.8922 6.0925 -2.8477 0.9649
-6.4114 5.5441 -2.8478 0.9649
-6.8797 4.9517 -2.8479 0.9649
-7.6840 4.5512 -3.0005 0.9630
-8.0588 3.8494 -3.0007 0.9630
-8.3697 3.1169 -3.0007 0.9630
-8.6141 2.3597 -3.0008 0.9630
-8.4628 -0.0000 -3.0008 0.9647
-8.3287 -1.5005 -3.0008 0.9647
-8.1620 -2.2358 -3.0008 0.9647
-7.9305 -2.9533 -3.0007 0.9647
-5.8821 -6.0821 -3.0002 0.9647
-5.3172 -6.5812 -3.0001 0.9647
-4.7101 -7.0279 -2.9999 0.9647
-3.3890 -7.7509 -2.9996 0.9647
-2.6855 -8.0212 -2.9994 0.9647
-1.2206 -8.3692 -2.9990 0.9647
1.7764 -8.2668 -2.9982 0.9648
3.2136 -7.8199 -2.9978 0.9648
5.1645 -6.6919 -2.9973 0.9648
6.2686 -5.6696 -2.9970 0.9648
6.7480 -5.0889 -2.9969 0.9648
7.1739 -4.4679 -2.9968 0.9648
7.5428 -3.8115 -2.9967 0.9648
8.0987 -2.4137 -2.9965 0.9648
8.2812 -1.6832 -2.9964 0.9648
8.3980 -0.9394 -2.9964 0.9648
8.4315 0.5644 -2.9964 0.9648
7.9830 2.7720 -2.9965 0.9648
7.7048 3.4716 -2.9965 0.9648
7.3654 4.1437 -2.9966 0.9648
9.8721 6.7769 -4.2459 0.9505
6.1834 5.1107 -2.8445 0.9665
5.7042 5.6410 -2.8446 0.9665
5.1797 6.1266 -2.8448 0.9665
4.6141 6.5637 -2.8449 0.9665
1.3349 7.9137 -2.8457 0.9665
0.6253 8.0017 -2.8459 0.9665
-2.8856 7.4922 -2.8469 0.9665
-3.5412 7.2061 -2.8470 0.9665
-4.7633 6.4648 -2.8474 0.9665
-5.8346 5.5184 -2.8476 0.9665
-6.3029 4.9774 -2.8478 0.9665
-7.0811 4.6322 -3.0004 0.9647
-7.4656 3.9838 -3.0005 0.9647
-8.0541 2.5971 -3.0007 0.9647
-8.4544 0.3770 -3.0008 0.9647
-8.2536 -1.8700 -3.0008 0.9647
-8.0542 -2.5971 -3.0007 0.9647
-7.7910 -3.3037 -3.0007 0.9647
-6.6407 -5.2441 -3.0004 0.9647
-6.1474 -5.8141 -3.0003 0.9647
-5.6052 -6.3379 -3.0001 0.9647
-5.0186 -6.8113 -3.0000 0.9647
-3.0403 -7.8939 -2.9995 0.9647
-1.5923 -8.3068 -2.9991 0.9647
-0.0942 -8.4564 -2.9987 0.9647
0.6588 -8.4307 -2.9985 0.9647
1.4065 -8.3380 -2.9983 0.9647
2.1429 -8.1793 -2.9981 0.9648
2.8622 -7.9555 -2.9979 0.9648
3.5587 -7.6687 -2.9978 0.9648
4.8614 -6.9154 -2.9974 0.9648
5.4573 -6.4550 -2.9972 0.9648
6.0099 -5.9433 -2.9971 0.9648
6.5147 -5.3846 -2.9969 0.9648
7.3656 -4.1438 -2.9967 0.9648
8.1981 -2.0505 -2.9965 0.9648
8.4482 0.1883 -2.9964 0.9648
8.3980 0.9395 -2.9964 0.9648
9.5605 7.2100 -4.2460 0.9504
5.9497 5.3812 -2.8446 0.9665
5.4474 5.8896 -2.8447 0.9665
3.6984 7.1206 -2.8451 0.9665
2.3775 7.6645 -2.8455 0.9665
0.2682 8.0218 -2.8460 0.9665
-0.4469 8.0144 -2.8462 0.9665
-1.1585 7.9434 -2.8464 0.9665
-1.8610 7.8092 -2.8466 0.9665
-2.5489 7.6130 -2.8468 0.9665
-3.2165 7.3564 -2.8469 0.9665
-5.0467 6.2464 -2.8474 0.9665
-5.5829 5.7727 -2.8476 0.9665
-6.0748 5.2531 -2.8477 0.9665
-6.6004 4.7507 -2.8836 0.9661
-7.6357 3.6473 -3.0005 0.9647
-7.9303 2.9533 -3.0006 0.9647
-8.1619 2.2358 -3.0007 0.9647
-8.0359 0.0000 -3.0007 0.9663
-7.2508 -3.4634 -3.0005 0.9663
-6.9135 -4.0949 -3.0005 0.9663
-6.0775 -5.2555 -3.0002 0.9663
-5.0490 -6.2493 -3.0000 0.9663
-4.4725 -6.6735 -2.9998 0.9663
-2.5501 -7.6167 -2.9994 0.9663
-1.8619 -7.8130 -2.9992 0.9663
-0.4471 -8.0184 -2.9988 0.9663
0.2683 -8.0259 -2.9986 0.9663
0.9816 -7.9696 -2.9984 0.9663
1.6869 -7.8501 -2.9982 0.9663
3.0517 -7.4258 -2.9979 0.9663
3.7003 -7.1243 -2.9977 0.9663
5.4501 -5.8926 -2.9972 0.9663
6.4080 -4.8325 -2.9970 0.9663
7.4563 -2.9675 -2.9967 0.9663
7.6906 -2.2920 -2.9966 0.9663
7.8640 -1.5984 -2.9965 0.9663
7.9749 -0.8921 -2.9965 0.9663
8.0226 -0.1787 -2.9965 0.9663
8.0067 0.5360 -2.9965 0.9663
7.9273 1.2465 -2.9965 0.9663
7.5808 2.6324 -2.9966 0.9663
6.9943 3.9349 -2.9967 0.9663
9.3747 6.4354 -4.2461 0.9526
5.4168 5.3568 -2.8447 0.9680
4.3816 6.2329 -2.8450 0.9680
2.5796 7.1702 -2.8454 0.9680
1.9313 7.3717 -2.8456 0.9680
0.5937 7.5983 -2.8459 0.9680
-1.4351 7.4866 -2.8465 0.9680
-3.9585 6.5166 -2.8471 0.9680
-6.0181 4.7524 -2.8634 0.9678
-6.7239 4.3986 -3.0003 0.9663
-7.9641 1.0711 -3.0007 0.9663
-8.0279 0.3580 -3.0007 0.9663
-8.0279 -0.3580 -3.0007 0.9663
-7.8372 -1.7757 -3.0007 0.9663
-7.6479 -2.4662 -3.0006 0.9663
-7.0892 -3.7829 -3.0005 0.9663
-6.7242 -4.3987 -3.0004 0.9663
-6.3058 -4.9796 -3.0003 0.9663
-5.8373 -5.5209 -3.0002 0.9663
-4.7655 -6.4678 -2.9999 0.9663
-2.8870 -7.4958 -2.9994 0.9663
-2.2082 -7.7226 -2.9993 0.9663
-0.8039 -7.9908 -2.9989 0.9663
-0.0895 -8.0301 -2.9987 0.9663
0.6256 -8.0057 -2.9985 0.9663
1.3356 -7.9177 -2.9983 0.9663
2.0349 -7.7670 -2.9982 0.9663
2.7179 -7.5546 -2.9980 0.9663
3.3793 -7.2822 -2.9978 0.9663
4.0138 -6.9521 -2.9976 0.9663
5.7071 -5.6439 -2.9972 0.9663
6.1865 -5.1133 -2.9970 0.9663
6.9945 -3.9351 -2.9968 0.9663
7.3168 -3.2968 -2.9967 0.9663
7.5810 -2.6324 -2.9966 0.9663
7.9273 -1.2465 -2.9965 0.9663
8.0067 -0.5360 -2.9965 0.9663
7.8639 1.5984 -2.9965 0.9663
7.4561 2.9675 -2.9966 0.9663
6.8122 4.2427 -2.9968 0.9663
9.0789 6.8467 -4.2461 0.9526
5.1729 5.5929 -2.8448 0.9680
4.0997 6.4220 -2.8450 0.9680
2.8964 7.0480 -2.8453 0.9680
0.2547 7.6175 -2.8460 0.9680
-1.7672 7.4154 -2.8466 0.9680
-2.4203 7.2292 -2.8467 0.9680
-3.0543 6.9855 -2.8469 0.9680
-3.6642 6.6863 -2.8471 0.9680
-4.7921 5.9313 -2.8474 0.9680
-5.3013 5.4815 -2.8475 0.9680
-5.7684 4.9881 -2.8476 0.9680
-6.5212 4.6937 -3.0002 0.9663
-6.9133 4.0948 -3.0003 0.9663
-7.5302 2.8043 -3.0005 0.9663
-7.7501 2.1230 -3.0006 0.9663
-7.6150 -0.6805 -3.0006 0.9677
-7.5242 -1.3556 -3.0006 0.9677
-6.5776 -3.8959 -3.0004 0.9677
-6.2045 -4.4658 -3.0003 0.9677
-3.6731 -6.7025 -2.9996 0.9677
-3.0618 -7.0024 -2.9995 0.9677
-2.4262 -7.2468 -2.9993 0.9677
-1.7715 -7.4335 -2.9991 0.9677
-1.1028 -7.5613 -2.9990 0.9677
0.2553 -7.6361 -2.9986 0.9677
1.6050 -7.4690 -2.9983 0.9677
2.2633 -7.2960 -2.9981 0.9677
2.9035 -7.0652 -2.9979 0.9677
3.5206 -6.7784 -2.9977 0.9677
5.6637 -5.1225 -2.9972 0.9677
6.0970 -4.5979 -2.9970 0.9677
6.4818 -4.0369 -2.9969 0.9677
7.4823 -1.5209 -2.9966 0.9677
7.6181 0.5100 -2.9966 0.9677
7.5425 1.1860 -2.9966 0.9677
6.9615 3.1367 -2.9967 0.9677
8.3396 6.8929 -4.2463 0.9546
4.6799 5.5355 -2.8449 0.9693
3.0517 6.5762 -2.8453 0.9693
2.4544 6.8221 -2.8455 0.9693
-0.0808 7.2514 -2.8461 0.9693
-0.7259 7.2158 -2.8463 0.9693
-2.6070 6.7688 -2.8468 0.9693
-3.1993 6.5103 -2.8469 0.9693
-3.7662 6.2000 -2.8471 0.9693
-4.8063 5.4346 -2.8474 0.9693
-5.9873 4.7281 -2.9942 0.9677
-6.3972 4.1849 -3.0002 0.9677
-6.7445 3.5990 -3.0003 0.9677
-7.0383 2.9845 -3.0004 0.9677
-7.2761 2.3463 -3.0005 0.9677
-7.5771 1.0190 -3.0006 0.9677
-7.6378 0.3406 -3.0006 0.9677
-7.6378 -0.3406 -3.0006 0.9677
-7.5772 -1.0190 -3.0006 0.9677
-7.0384 -2.9846 -3.0005 0.9677
-6.7447 -3.5991 -3.0004 0.9677
-5.5536 -5.2526 -3.0001 0.9677
-5.0639 -5.7258 -3.0000 0.9677
-4.5340 -6.1536 -2.9999 0.9677
-3.9681 -6.5324 -2.9997 0.9677
-2.7467 -7.1317 -2.9994 0.9677
-0.7648 -7.6027 -2.9989 0.9677
1.9360 -7.3898 -2.9982 0.9677
3.8190 -6.6146 -2.9977 0.9677
4.9308 -5.8321 -2.9974 0.9677
5.8862 -4.8651 -2.9971 0.9677
6.6551 -3.7441 -2.9969 0.9677
6.9617 -3.1368 -2.9968 0.9677
7.2131 -2.5046 -2.9967 0.9677
7.5426 -1.1860 -2.9966 0.9677
7.6182 -0.5100 -2.9966 0.9677
7.4822 1.5209 -2.9966 0.9677
7.3173 2.1808 -2.9966 0.9677
7.0942 2.8234 -2.9967 0.9677
8.6382 6.5144 -4.2462 0.9546
3.3415 6.4335 -2.8452 0.9693
2.1481 6.9248 -2.8455 0.9693
-2.9060 6.6462 -2.8469 0.9693
-3.4862 6.3615 -2.8470 0.9693
-4.0388 6.0263 -2.8472 0.9693
-4.5593 5.6432 -2.8473 0.9693
-5.0437 5.2152 -2.8474 0.9693
-7.3735 2.0198 -3.0005 0.9677
-7.2866 0.0000 -3.0005 0.9690
-7.0276 -1.9251 -3.0005 0.9690
-6.2690 -3.7131 -3.0003 0.9690
-5.9134 -4.2562 -3.0002 0.9690
-5.0647 -5.2369 -3.0000 0.9690
-2.9181 -6.6740 -2.9994 0.9690
-2.3124 -6.9069 -2.9993 0.9690
-1.6884 -7.0849 -2.9991 0.9690
-1.0511 -7.2066 -2.9990 0.9690
0.2433 -7.2780 -2.9986 0.9690
0.8901 -7.2270 -2.9984 0.9690
1.5297 -7.1187 -2.9983 0.9690
4.9425 -5.3438 -2.9974 0.9690
5.3983 -4.8824 -2.9972 0.9690
5.8112 -4.3824 -2.9971 0.9690
6.1780 -3.8477 -2.9970 0.9690
6.4957 -3.2824 -2.9969 0.9690
6.7619 -2.6912 -2.9969 0.9690
7.1317 -1.4496 -2.9967 0.9690
7.2323 -0.8090 -2.9967 0.9690
7.2756 -0.1621 -2.9967 0.9690
7.2611 0.4861 -2.9967 0.9690
7.1891 1.1304 -2.9967 0.9690
7.0600 1.7658 -2.9967 0.9690
6.8749 2.3872 -2.9968 0.9690
7.9488 6.5698 -4.2464 0.9564
7.3327 7.2514 -4.2466 0.9564
3.9735 5.6523 -2.8451 0.9706
2.9086 6.2679 -2.8453 0.9706
2.3393 6.5022 -2.8455 0.9705
0.5384 6.8903 -2.8460 0.9705
-0.0770 6.9113 -2.8461 0.9705
-1.3013 6.7889 -2.8464 0.9705
-1.9005 6.6465 -2.8466 0.9705
-2.4847 6.4513 -2.8468 0.9705
-3.0492 6.2049 -2.8469 0.9705
-4.1014 5.5665 -2.8472 0.9705
-5.7177 4.5152 -3.0000 0.9690
-6.0971 3.9885 -3.0001 0.9690
-6.9347 2.2362 -3.0004 0.9690
-7.1064 1.6101 -3.0004 0.9690
-7.2215 0.9712 -3.0005 0.9690
-7.2794 0.3246 -3.0005 0.9690
-7.2794 -0.3246 -3.0005 0.9690
-6.7082 -2.8445 -3.0004 0.9690
-6.4282 -3.4302 -3.0003 0.9690
-6.0973 -3.9886 -3.0002 0.9690
-5.7179 -4.5153 -3.0001 0.9690
-5.2931 -5.0062 -3.0000 0.9690
-4.8263 -5.4572 -2.9999 0.9690
-3.7819 -6.2259 -2.9997 0.9690
-2.0024 -7.0028 -2.9992 0.9690
-0.7290 -7.2461 -2.9989 0.9690
-0.0811 -7.2818 -2.9987 0.9690
1.2111 -7.1800 -2.9984 0.9690
1.8453 -7.0433 -2.9982 0.9690
2.4647 -6.8507 -2.9980 0.9690
3.0645 -6.6038 -2.9979 0.9690
3.6399 -6.3045 -2.9977 0.9690
4.1864 -5.9553 -2.9976 0.9690
4.6996 -5.5587 -2.9974 0.9690
5.1755 -5.1182 -2.9973 0.9690
5.6103 -4.6370 -2.9972 0.9690
6.0005 -4.1191 -2.9971 0.9690
6.3431 -3.5686 -2.9970 0.9690
6.6354 -2.9898 -2.9969 0.9690
7.1891 -1.1304 -2.9967 0.9690
7.2323 0.8090 -2.9967 0.9690
6.7618 2.6911 -2.9968 0.9690
6.4955 3.2824 -2.9968 0.9690
6.1778 3.8476 -2.9969 0.9690
4.6911 5.0720 -2.8449 0.9706
4.2212 5.4696 -2.8450 0.9706
3.7178 5.8239 -2.8451 0.9706
3.1848 6.1319 -2.8453 0.9706
2.0474 6.6002 -2.8456 0.9705
0.8448 6.8593 -2.8459 0.9705
-0.3848 6.9012 -2.8462 0.9705
-0.9976 6.8400 -2.8464 0.9705
-1.6025 6.7244 -2.8465 0.9705
-3.3227 6.0631 -2.8470 0.9705
-3.8493 5.7436 -2.8471 0.9705
-4.8071 4.9705 -2.8474 0.9705
-5.4693 4.7295 -2.9774 0.9692
-6.8282 2.5428 -3.0003 0.9690
-7.0275 1.9251 -3.0004 0.9690
-6.8455 -1.2333 -3.0004 0.9702
-6.7085 -1.8376 -3.0004 0.9702
-5.9843 -3.5445 -3.0002 0.9702
-5.2607 -4.5491 -3.0000 0.9702
-4.8348 -4.9991 -2.9999 0.9702
-3.3418 -6.0980 -2.9995 0.9702
-2.2075 -6.5933 -2.9992 0.9702
-1.0034 -6.8796 -2.9989 0.9702
0.8497 -6.8991 -2.9985 0.9702
1.4603 -6.7957 -2.9983 0.9702
2.0592 -6.6384 -2.9981 0.9702
2.6418 -6.4284 -2.9980 0.9702
5.1534 -4.6610 -2.9973 0.9702
5.8977 -3.6731 -2.9971 0.9702
6.6581 -1.9843 -2.9969 0.9702
6.8082 -1.3838 -2.9968 0.9702
6.9043 -0.7724 -2.9968 0.9702
6.9456 -0.1548 -2.9968 0.9702
6.7398 1.6857 -2.9968 0.9702
6.5631 2.2789 -2.9968 0.9702
6.3343 2.8541 -2.9969 0.9702
3.2980 5.7123 -2.8453 0.9717
2.7766 5.9835 -2.8454 0.9717
1.6719 6.3816 -2.8457 0.9717
1.0973 6.5054 -2.8458 0.9717
0.5140 6.5777 -2.8460 0.9717
-0.6605 6.5653 -2.8463 0.9717
-1.2423 6.4808 -2.8464 0.9717
-1.8143 6.3448 -2.8466 0.9717
-2.3719 6.1585 -2.8467 0.9717
-2.9108 5.9232 -2.8469 0.9717
-3.4266 5.6409 -2.8470 0.9717
-4.3728 4.9445 -2.8473 0.9717
-5.4581 4.3102 -3.0000 0.9702
-6.1362 3.2743 -3.0002 0.9702
-6.4034 2.7153 -3.0002 0.9702
-6.6198 2.1346 -3.0003 0.9702
-6.7837 1.5370 -3.0003 0.9702
-6.8936 0.9271 -3.0004 0.9702
-6.8937 -0.9271 -3.0004 0.9702
-6.6199 -2.1346 -3.0003 0.9702
-5.4582 -4.3104 -3.0001 0.9702
-5.0528 -4.7789 -3.0000 0.9702
-4.6072 -5.2095 -2.9999 0.9702
-4.1251 -5.5986 -2.9997 0.9702
-2.4990 -6.4886 -2.9993 0.9702
-1.3089 -6.8282 -2.9990 0.9702
-0.6959 -6.9172 -2.9989 0.9702
-0.0774 -6.9513 -2.9987 0.9702
1.1562 -6.8542 -2.9984 0.9702
2.9255 -6.3042 -2.9979 0.9702
3.4748 -6.0185 -2.9978 0.9702
3.9965 -5.6851 -2.9976 0.9702
4.4864 -5.3066 -2.9975 0.9702
4.9407 -4.8860 -2.9974 0.9702
5.7283 -3.9323 -2.9971 0.9702
6.0554 -3.4067 -2.9970 0.9702
6.5632 -2.2790 -2.9969 0.9702
6.7398 -1.6858 -2.9968 0.9702
6.8630 -1.0792 -2.9968 0.9702
6.9318 -0.4640 -2.9968 0.9702
6.9042 0.7724 -2.9968 0.9702
6.8081 1.3838 -2.9968 0.9702
6.2009 3.1335 -2.9969 0.9702
7.3014 6.6037 -4.2466 0.9580
6.6849 7.2276 -4.2467 0.9580
4.0297 5.2215 -2.8451 0.9717
3.5491 5.5596 -2.8452 0.9717
3.0404 5.8537 -2.8453 0.9717
1.9545 6.3007 -2.8456 0.9717
0.2205 6.5942 -2.8460 0.9717
-0.9523 6.5295 -2.8464 0.9717
-1.5298 6.4192 -2.8465 0.9717
-2.6440 6.0469 -2.8468 0.9717
-3.1718 5.7878 -2.8469 0.9717
-4.1482 5.1342 -2.8472 0.9717
-5.2605 4.5490 -2.9999 0.9702
-6.2760 2.9978 -3.0002 0.9702
-6.7084 1.8376 -3.0003 0.9702
-6.8454 1.2333 -3.0004 0.9702
-6.4131 -1.7567 -3.0003 0.9712
-5.9998 -2.8658 -3.0002 0.9712
-5.7208 -3.3884 -3.0001 0.9712
-5.0291 -4.3488 -3.0000 0.9712
-4.1780 -5.1712 -2.9997 0.9712
-3.7010 -5.5223 -2.9996 0.9712
-2.6630 -6.0905 -2.9994 0.9713
-0.3700 -6.6356 -2.9988 0.9713
0.2221 -6.6419 -2.9986 0.9713
0.8123 -6.5954 -2.9985 0.9713
1.3960 -6.4966 -2.9983 0.9713
2.5255 -6.1455 -2.9980 0.9713
3.0624 -5.8961 -2.9979 0.9713
3.5748 -5.5999 -2.9977 0.9713
4.0589 -5.2592 -2.9976 0.9713
4.9267 -4.4559 -2.9974 0.9713
5.6383 -3.5115 -2.9972 0.9713
6.1712 -2.4561 -2.9970 0.9713
6.6006 -0.7384 -2.9969 0.9713
6.6401 -0.1480 -2.9969 0.9713
6.5611 1.0317 -2.9969 0.9713
6.4433 1.6116 -2.9969 0.9713
5.7889 3.2568 -2.9970 0.9713
5.1200 4.2318 -2.9972 0.9713
6.6921 6.6180 -4.2468 0.9595
3.1529 5.4610 -2.8453 0.9727
-0.0703 6.3073 -2.8461 0.9727
-0.6314 6.2763 -2.8463 0.9727
-1.1876 6.1955 -2.8464 0.9727
-1.7344 6.0656 -2.8466 0.9727
-3.7429 5.0799 -2.8471 0.9727
-4.8301 4.5683 -2.9998 0.9712
-5.5639 3.6398 -3.0000 0.9712
-5.8660 3.1302 -3.0001 0.9712
-6.1214 2.5957 -3.0002 0.9712
-6.3283 2.0406 -3.0002 0.9712
-6.5900 0.8863 -3.0003 0.9712
-6.6428 0.2962 -3.0003 0.9712
-6.6428 -0.2962 -3.0003 0.9712
-6.5901 -0.8863 -3.0003 0.9712
-6.4850 -1.4693 -3.0003 0.9712
-6.3284 -2.0406 -3.0003 0.9712
-5.8661 -3.1302 -3.0002 0.9712
-5.5641 -3.6398 -3.0001 0.9712
-5.2179 -4.1205 -3.0000 0.9712
-3.4513 -5.6816 -2.9996 0.9712
-1.8274 -6.3907 -2.9991 0.9713
-1.2512 -6.5276 -2.9990 0.9713
1.1053 -6.5525 -2.9984 0.9713
2.2493 -6.2521 -2.9981 0.9713
2.7967 -6.0268 -2.9979 0.9713
3.3219 -5.7537 -2.9978 0.9713
4.2890 -5.0731 -2.9975 0.9713
4.7234 -4.6710 -2.9974 0.9713
5.1202 -4.2319 -2.9973 0.9713
5.4763 -3.7593 -2.9972 0.9713
5.7890 -3.2569 -2.9971 0.9713
6.5612 -1.0317 -2.9969 0.9713
6.3651 1.8970 -2.9969 0.9713
6.1711 2.4560 -2.9969 0.9713
5.3033 3.9994 -2.9971 0.9713
6.9802 6.3131 -4.2467 0.9595
3.8524 4.9917 -2.8451 0.9727
2.9066 5.5961 -2.8454 0.9727
2.3971 5.8329 -2.8455 0.9727
-0.3512 6.2981 -2.8462 0.9727
-2.5276 5.7807 -2.8468 0.9727
-3.0322 5.5331 -2.8469 0.9727
-3.5128 5.2414 -2.8470 0.9727
-3.9682 4.9115 -2.8491 0.9727
-5.3962 3.8839 -3.0000 0.9712
-6.4130 1.7567 -3.0002 0.9712
-6.6230 0.5919 -3.0003 0.9712
-6.3649 0.0000 -3.0003 0.9722
-6.3396 -0.5665 -3.0003 0.9722
-6.1387 -1.6815 -3.0002 0.9722
-5.4760 -3.2434 -3.0001 0.9722
-4.8139 -4.1627 -2.9999 0.9722
-4.4242 -4.5746 -2.9998 0.9723
-3.0580 -5.5802 -2.9995 0.9723
-2.0200 -6.0335 -2.9992 0.9723
-1.4749 -6.1890 -2.9991 0.9723
-0.9182 -6.2954 -2.9989 0.9723
-0.3542 -6.3519 -2.9988 0.9723
0.2126 -6.3579 -2.9986 0.9723
0.7776 -6.3134 -2.9985 0.9723
2.9314 -5.6440 -2.9979 0.9723
3.4220 -5.3604 -2.9978 0.9723
4.3178 -4.6684 -2.9975 0.9723
4.7160 -4.2654 -2.9974 0.9723
5.0768 -3.8286 -2.9973 0.9723
5.3973 -3.3614 -2.9972 0.9723
6.0932 -1.8159 -2.9970 0.9723
6.3184 -0.7068 -2.9969 0.9723
6.3562 -0.1416 -2.9969 0.9723
6.3436 0.4246 -2.9969 0.9723
6.2807 0.9876 -2.9969 0.9723
5.7968 2.6119 -2.9970 0.9723
6.4060 6.3350 -4.2468 0.9609
5.8169 6.8803 -4.2470 0.9609
3.4713 4.9379 -2.8452 0.9737
2.5410 5.4756 -2.8455 0.9737
1.5300 5.8399 -2.8457 0.9737
-0.0673 6.0376 -2.8461 0.9737
-1.1368 5.9305 -2.8464 0.9737
-1.6602 5.8061 -2.8466 0.9736
-3.1356 5.1619 -2.8469 0.9736
-4.1793 4.7258 -2.9738 0.9725
-4.9945 3.9441 -2.9998 0.9722
-5.8595 2.4846 -3.0001 0.9722
-6.3080 0.8484 -3.0002 0.9722
-6.3586 0.2836 -3.0003 0.9722
-6.3081 -0.8483 -3.0003 0.9722
-6.2075 -1.4064 -3.0002 0.9722
-4.9946 -3.9442 -2.9999 0.9722
-2.2868 -5.9376 -2.9993 0.9723
-0.6368 -6.3299 -2.9988 0.9723
-0.0709 -6.3612 -2.9987 0.9723
0.4956 -6.3419 -2.9985 0.9723
2.1531 -5.9848 -2.9981 0.9723
3.1799 -5.5077 -2.9978 0.9723
4.1057 -4.8562 -2.9976 0.9723
5.2422 -3.5986 -2.9973 0.9723
5.5416 -3.1176 -2.9972 0.9723
6.1680 -1.5427 -2.9970 0.9723
6.2807 -0.9876 -2.9970 0.9723
6.3184 0.7068 -2.9969 0.9723
6.2304 1.2664 -2.9969 0.9723
6.0931 1.8159 -2.9970 0.9723
5.9073 2.3511 -2.9970 0.9723
5.3971 3.3613 -2.9971 0.9723
5.5048 7.1327 -4.2471 0.9609
2.2946 5.5835 -2.8455 0.9737
1.7886 5.7658 -2.8456 0.9737
1.2684 5.9024 -2.8458 0.9737
0.2018 6.0344 -2.8461 0.9737
-0.3362 6.0287 -2.8462 0.9737
-0.8715 5.9752 -2.8463 0.9737
-2.4194 5.5335 -2.8468 0.9736
-2.9025 5.2963 -2.8469 0.9736
-3.3625 5.0172 -2.8470 0.9736
-3.8321 4.7431 -2.8743 0.9734
-4.8137 4.1626 -2.9998 0.9723
-5.4759 3.2433 -3.0000 0.9722
-5.7429 2.7432 -3.0001 0.9722
-5.9644 2.2212 -3.0001 0.9722
-6.1386 1.6815 -3.0002 0.9722
-6.0998 0.0000 -3.0002 0.9732
-6.0755 -0.5429 -3.0002 0.9732
-6.0031 -1.0815 -3.0002 0.9732
-5.8829 -1.6115 -3.0002 0.9732
-5.7161 -2.1287 -3.0001 0.9732
-5.2479 -3.1083 -3.0000 0.9732
-3.8327 -4.7438 -2.9997 0.9732
-2.4430 -5.5872 -2.9993 0.9732
-0.8799 -6.0333 -2.9989 0.9732
-0.3394 -6.0874 -2.9988 0.9732
0.2037 -6.0931 -2.9986 0.9732
1.8060 -5.8220 -2.9982 0.9732
3.2795 -5.1373 -2.9978 0.9732
3.7236 -4.8248 -2.9977 0.9732
4.8655 -3.6692 -2.9974 0.9732
5.1726 -3.2215 -2.9973 0.9732
6.0555 -0.6774 -2.9970 0.9732
6.0796 0.4070 -2.9970 0.9732
6.0193 0.9465 -2.9970 0.9732
5.9112 1.4785 -2.9970 0.9732
5.7562 1.9988 -2.9971 0.9732
5.5556 2.5032 -2.9971 0.9732
5.3108 2.9878 -2.9972 0.9732
5.0239 3.4487 -2.9972 0.9732
6.1394 6.0714 -4.2469 0.9622
5.5749 6.5940 -4.2470 0.9622
2.8925 5.0099 -2.8454 0.9745
2.4352 5.2477 -2.8455 0.9745
1.9586 5.4439 -2.8456 0.9745
0.9624 5.7054 -2.8459 0.9745
-0.0645 5.7862 -2.8461 0.9745
-0.5792 5.7577 -2.8463 0.9745
-2.5527 5.1945 -2.8468 0.9745
-3.0050 4.9469 -2.8469 0.9745
-4.0402 4.5683 -2.9996 0.9732
-4.4309 4.1907 -2.9997 0.9732
-4.7865 3.7798 -2.9998 0.9732
-5.1040 3.3389 -2.9999 0.9732
-5.8052 1.8719 -3.0001 0.9732
-6.0937 0.2717 -3.0002 0.9732
-6.0937 -0.2717 -3.0002 0.9732
-5.3812 -2.8715 -3.0000 0.9732
-5.1042 -3.3390 -3.0000 0.9732
-4.7866 -3.7799 -2.9999 0.9732
-2.6895 -5.4729 -2.9994 0.9732
-1.6764 -5.8626 -2.9991 0.9732
0.4749 -6.0779 -2.9985 0.9732
1.5449 -5.8968 -2.9983 0.9732
2.0635 -5.7356 -2.9981 0.9732
2.5657 -5.5290 -2.9980 0.9732
3.5051 -4.9860 -2.9977 0.9732
4.3333 -4.2852 -2.9975 0.9732
4.6973 -3.8824 -2.9974 0.9732
5.5557 -2.5033 -2.9972 0.9732
5.7563 -1.9988 -2.9971 0.9732
5.9113 -1.4785 -2.9971 0.9732
6.0797 -0.4070 -2.9970 0.9732
6.0917 0.1358 -2.9970 0.9732
5.6615 2.2533 -2.9971 0.9732
5.1725 3.2215 -2.9972 0.9732
4.8654 3.6692 -2.9973 0.9732
4.5196 4.0878 -2.9974 0.9732
5.8629 6.3390 -4.2470 0.9622
4.6465 7.2786 -4.2473 0.9622
2.6665 5.1339 -2.8454 0.9745
2.1991 5.3511 -2.8455 0.9745
1.2155 5.6567 -2.8458 0.9745
-0.8352 5.7264 -2.8463 0.9745
-1.8374 5.4880 -2.8466 0.9745
-2.3187 5.3030 -2.8467 0.9745
-3.2225 4.8083 -2.8470 0.9745
-5.2478 3.1083 -2.9999 0.9732
-5.5037 2.6289 -3.0000 0.9732
-5.8829 1.6115 -3.0001 0.9732
-6.0030 1.0815 -3.0001 0.9732
-6.0755 0.5429 -3.0002 0.9732
-5.6440 -1.5461 -3.0001 0.9740
-5.0347 -2.9821 -2.9999 0.9740
-2.8117 -5.1306 -2.9994 0.9740
-2.3437 -5.3603 -2.9993 0.9740
-0.3256 -5.8402 -2.9987 0.9740
0.1954 -5.8457 -2.9986 0.9741
0.7149 -5.8049 -2.9985 0.9741
1.7327 -5.5856 -2.9982 0.9741
2.2229 -5.4090 -2.9981 0.9741
2.6954 -5.1895 -2.9979 0.9741
3.1464 -4.9288 -2.9978 0.9741
3.5725 -4.6290 -2.9977 0.9741
3.9702 -4.2925 -2.9976 0.9741
4.3363 -3.9220 -2.9975 0.9741
4.9627 -3.0908 -2.9973 0.9741
5.8329 0.3905 -2.9971 0.9741
5.7750 0.9081 -2.9971 0.9741
5.6713 1.4185 -2.9971 0.9741
5.0953 2.8665 -2.9972 0.9741
4.8200 3.3088 -2.9973 0.9741
4.5065 3.7247 -2.9974 0.9741
4.1572 4.1112 -2.9974 0.9741
5.3486 6.3263 -4.2471 0.9634
4.1425 7.1750 -4.2474 0.9634
-0.0618 5.5512 -2.8461 0.9754
-0.5557 5.5240 -2.8463 0.9754
-1.5265 5.3384 -2.8465 0.9754
-1.9956 5.1816 -2.8466 0.9753
-2.4490 4.9836 -2.8468 0.9753
-3.8761 4.3827 -2.9996 0.9740
-4.5920 3.6263 -2.9997 0.9740
-4.8967 3.2033 -2.9998 0.9740
-5.1625 2.7548 -2.9999 0.9740
-5.7072 1.2931 -3.0001 0.9740
-5.7997 0.7800 -3.0001 0.9740
-5.8462 -0.2607 -3.0001 0.9740
-5.7997 -0.7800 -3.0001 0.9740
-5.7073 -1.2931 -3.0001 0.9740
-5.5695 -1.7959 -3.0001 0.9740
-4.5922 -3.6264 -2.9998 0.9740
-4.2511 -4.0206 -2.9998 0.9740
-3.4706 -4.7103 -2.9996 0.9740
-2.5803 -5.2507 -2.9993 0.9740
-2.1026 -5.4593 -2.9992 0.9740
-1.6083 -5.6245 -2.9991 0.9740
-1.1012 -5.7451 -2.9989 0.9740
0.4556 -5.8311 -2.9985 0.9741
1.4822 -5.6574 -2.9983 0.9741
2.4616 -5.3045 -2.9980 0.9741
2.9238 -5.0642 -2.9979 0.9741
3.7751 -4.4652 -2.9977 0.9741
4.8202 -3.3088 -2.9974 0.9741
5.5227 -1.9177 -2.9972 0.9741
5.6714 -1.4185 -2.9971 0.9741
5.7751 -0.9081 -2.9971 0.9741
5.8445 0.1302 -2.9971 0.9741
5.8097 0.6499 -2.9971 0.9741
5.6025 1.6698 -2.9971 0.9741
5.4318 2.1618 -2.9971 0.9741
5.2179 2.6367 -2.9972 0.9741
4.6679 3.5202 -2.9973 0.9741
5.6250 6.0817 -4.2470 0.9634
2.1098 5.1339 -2.8456 0.9754
1.6445 5.3015 -2.8457 0.9754
0.6786 5.5096 -2.8459 0.9754
0.1855 5.5484 -2.8461 0.9754
-0.3091 5.5431 -2.8462 0.9754
-2.6686 4.8697 -2.8468 0.9753
-3.1715 4.7323 -2.9206 0.9747
-3.6769 4.5510 -2.9995 0.9740
-4.0675 4.2058 -2.9996 0.9740
-4.4259 3.8272 -2.9997 0.9740
-4.7491 3.4182 -2.9998 0.9740
-5.0346 2.9820 -2.9999 0.9740
-5.4838 2.0422 -3.0000 0.9740
-5.8287 0.5208 -3.0001 0.9740
-5.4200 -1.4847 -3.0000 0.9748
-5.0708 -2.4221 -2.9999 0.9748
-4.8350 -2.8637 -2.9999 0.9748
-4.5608 -3.2827 -2.9998 0.9748
-3.5312 -4.3706 -2.9996 0.9748
-1.3023 -5.4647 -2.9990 0.9748
-0.8107 -5.5587 -2.9989 0.9749
-0.3127 -5.6086 -2.9987 0.9749
0.6866 -5.5746 -2.9985 0.9749
1.1800 -5.4912 -2.9983 0.9749
2.5885 -4.9837 -2.9980 0.9749
3.0217 -4.7333 -2.9979 0.9749
4.1644 -3.7665 -2.9975 0.9749
4.4830 -3.3808 -2.9975 0.9749
5.5794 -0.6242 -2.9971 0.9749
5.6128 -0.1251 -2.9971 0.9749
5.6017 0.3750 -2.9971 0.9749
5.5461 0.8721 -2.9971 0.9749
5.4465 1.3623 -2.9971 0.9749
4.8933 2.7529 -2.9973 0.9749
4.3279 3.5771 -2.9974 0.9749
3.9924 3.9482 -2.9975 0.9749
5.1365 6.0755 -4.2472 0.9646
4.5755 6.5088 -4.2473 0.9646
2.2437 4.8351 -2.8455 0.9761
1.3510 5.1567 -2.8458 0.9761
0.4153 5.3150 -2.8460 0.9761
-0.0594 5.3311 -2.8461 0.9761
-1.0038 5.2365 -2.8464 0.9761
-1.9165 4.9760 -2.8466 0.9761
-3.3328 4.5233 -2.9994 0.9748
-4.4098 3.4824 -2.9997 0.9748
-4.7024 3.0762 -2.9998 0.9748
-5.3485 1.7246 -3.0000 0.9748
-5.4807 1.2418 -3.0000 0.9748
-5.5696 0.7490 -3.0000 0.9748
-5.6142 0.2504 -3.0001 0.9748
-5.6142 -0.2503 -3.0001 0.9748
-4.9578 -2.6455 -2.9999 0.9748
-3.7224 -4.2090 -2.9996 0.9748
-2.9170 -4.8020 -2.9994 0.9748
-1.0576 -5.5172 -2.9989 0.9748
-0.5623 -5.5892 -2.9988 0.9749
-0.0626 -5.6168 -2.9987 0.9749
0.9342 -5.5384 -2.9984 0.9749
1.4234 -5.4330 -2.9983 0.9749
1.9013 -5.2845 -2.9982 0.9749
2.3639 -5.0942 -2.9980 0.9749
2.8079 -4.8634 -2.9979 0.9749
3.6254 -4.2881 -2.9977 0.9749
4.3280 -3.5772 -2.9975 0.9749
4.6291 -3.1777 -2.9974 0.9749
5.4466 -1.3623 -2.9972 0.9749
5.5461 -0.8721 -2.9971 0.9749
5.6017 -0.3750 -2.9971 0.9749
5.5794 0.6242 -2.9971 0.9749
5.5018 1.1183 -2.9971 0.9749
5.3804 1.6036 -2.9972 0.9749
5.0110 2.5322 -2.9972 0.9749
4.1643 3.7664 -2.9975 0.9749
3.8126 4.1222 -2.9975 0.9749
4.8609 6.2984 -4.2472 0.9646
4.2811 6.7063 -4.2474 0.9646
2.0261 4.9303 -2.8456 0.9761
1.1200 5.2119 -2.8458 0.9761
-0.2968 5.3233 -2.8462 0.9761
-2.1363 4.8858 -2.8467 0.9761
-3.1279 4.6672 -2.9994 0.9748
-3.5310 4.3704 -2.9995 0.9748
-4.2503 3.6754 -2.9997 0.9748
-4.8348 2.8637 -2.9998 0.9748
-5.0707 2.4220 -2.9999 0.9748
-5.5306 0.9964 -3.0000 0.9748
-5.4016 -0.0000 -3.0000 0.9756
-5.3801 -0.4808 -3.0000 0.9756
-5.3160 -0.9577 -3.0000 0.9756
-5.0618 -1.8850 -2.9999 0.9756
-4.3837 -3.1552 -2.9998 0.9756
-4.0854 -3.5328 -2.9997 0.9756
-3.0066 -4.4862 -2.9994 0.9756
-2.1634 -4.9479 -2.9992 0.9756
-1.7144 -5.1206 -2.9991 0.9756
-1.2518 -5.2526 -2.9990 0.9756
-0.7793 -5.3429 -2.9989 0.9756
-0.3006 -5.3909 -2.9987 0.9756
0.1804 -5.3960 -2.9986 0.9756
1.1341 -5.2781 -2.9984 0.9756
1.5994 -5.1560 -2.9982 0.9756
2.0519 -4.9930 -2.9981 0.9756
2.9044 -4.5497 -2.9979 0.9756
3.2977 -4.2730 -2.9978 0.9756
3.6648 -3.9624 -2.9977 0.9756
4.8167 -2.4340 -2.9974 0.9756
5.0142 -1.9956 -2.9973 0.9756
5.1718 -1.5413 -2.9973 0.9756
5.2884 -1.0749 -2.9972 0.9756
5.0979 1.7702 -2.9972 0.9756
4.9202 2.2170 -2.9973 0.9756
4.7035 2.6462 -2.9973 0.9756
4.1600 3.4383 -2.9975 0.9756
3.8375 3.7950 -2.9975 0.9756
3.8239 6.6231 -4.2475 0.9656
2.1902 4.7199 -2.8899 0.9765
1.2986 4.9566 -2.8458 0.9768
0.3992 5.1087 -2.8460 0.9768
-0.9648 5.0333 -2.8464 0.9768
-1.4090 4.9277 -2.8465 0.9768
-1.8420 4.7829 -2.8466 0.9768
-3.2034 4.3477 -2.9994 0.9756
-3.5778 4.0455 -2.9995 0.9756
-3.9238 3.7111 -2.9996 0.9756
-4.2387 3.3472 -2.9997 0.9756
-4.5199 2.9568 -2.9997 0.9756
-4.7652 2.5428 -2.9998 0.9756
-4.9727 2.1086 -2.9999 0.9756
-5.1407 1.6577 -2.9999 0.9756
-5.2679 1.1936 -3.0000 0.9756
-5.3533 0.7200 -3.0000 0.9756
-5.3962 -0.2406 -3.0000 0.9756
-5.2680 -1.1936 -3.0000 0.9756
-5.1408 -1.6577 -3.0000 0.9756
-4.9728 -2.1087 -2.9999 0.9756
-4.5200 -2.9568 -2.9998 0.9756
-4.2388 -3.3473 -2.9997 0.9756
-3.9239 -3.7112 -2.9997 0.9756
-3.5779 -4.0456 -2.9996 0.9756
-3.2035 -4.3479 -2.9995 0.9756
-2.8037 -4.6156 -2.9994 0.9756
-1.9408 -5.0392 -2.9992 0.9756
-1.4845 -5.1917 -2.9990 0.9756
-1.0165 -5.3030 -2.9989 0.9756
-0.0601 -5.3988 -2.9987 0.9756
0.4206 -5.3825 -2.9985 0.9756
1.3682 -5.2222 -2.9983 0.9756
1.8275 -5.0795 -2.9982 0.9756
3.1042 -4.4157 -2.9978 0.9756
3.8377 -3.7951 -2.9976 0.9756
4.1601 -3.4384 -2.9975 0.9756
4.7036 -2.6462 -2.9974 0.9756
5.0980 -1.7702 -2.9973 0.9756
5.2353 -1.3095 -2.9972 0.9756
5.3844 -0.3604 -2.9972 0.9756
5.3951 0.1202 -2.9972 0.9756
5.3630 0.5999 -2.9972 0.9756
5.1717 1.5413 -2.9972 0.9756
4.8166 2.4340 -2.9973 0.9756
4.5810 2.8531 -2.9974 0.9756
4.3090 3.2496 -2.9974 0.9756
4.0027 3.6203 -2.9975 0.9756
3.6647 3.9623 -2.9976 0.9756
4.6723 6.0541 -4.2473 0.9656
4.1150 6.4461 -4.2474 0.9656
2.4456 4.7085 -2.9468 0.9760
1.9481 4.7404 -2.8465 0.9768
1.5181 4.8937 -2.8457 0.9768
0.1712 5.1215 -2.8461 0.9768
-0.2853 5.1167 -2.8462 0.9768
-1.1881 4.9854 -2.8464 0.9768
-1.6272 4.8601 -2.8466 0.9768
-2.0715 4.7376 -2.8718 0.9766
-2.5854 4.7178 -2.9879 0.9757
-3.0066 4.4860 -2.9993 0.9756
-3.7545 3.8821 -2.9995 0.9756
-4.6471 2.7525 -2.9998 0.9756
-5.0618 1.8850 -2.9999 0.9756
-5.2095 1.4270 -2.9999 0.9756
-5.3159 0.9577 -3.0000 0.9756
-5.3801 0.4808 -3.0000 0.9756
-5.0114 -1.3728 -2.9999 0.9763
-4.2170 -3.0352 -2.9997 0.9763
-3.9300 -3.3984 -2.9997 0.9763
-3.6118 -3.7346 -2.9996 0.9763
-3.2650 -4.0411 -2.9995 0.9763
-2.8923 -4.3155 -2.9994 0.9763
-1.2042 -5.0529 -2.9990 0.9763
0.1735 -5.1908 -2.9986 0.9763
1.0911 -5.0774 -2.9984 0.9763
1.5386 -4.9600 -2.9982 0.9763
1.9739 -4.8031 -2.9981 0.9763
2.3935 -4.6082 -2.9980 0.9763
2.7940 -4.3767 -2.9979 0.9763
3.1724 -4.1105 -2.9978 0.9763
3.8507 -3.4827 -2.9976 0.9763
4.6336 -2.3415 -2.9974 0.9763
4.8236 -1.9197 -2.9973 0.9763
4.9752 -1.4828 -2.9973 0.9763
5.1798 0.3468 -2.9972 0.9763
5.0363 1.2597 -2.9973 0.9763
4.9042 1.7029 -2.9973 0.9763
3.3522 3.9649 -2.9977 0.9763
2.9860 4.2477 -2.9978 0.9763
3.6785 6.3713 -4.2475 0.9666
1.6982 4.7204 -2.8963 0.9771
0.8199 4.8606 -2.8459 0.9775
-0.9281 4.8419 -2.8464 0.9775
-3.0816 4.1824 -2.9993 0.9763
-4.0774 3.2199 -2.9996 0.9763
-4.7835 2.0284 -2.9998 0.9763
-4.9452 1.5946 -2.9999 0.9763
-5.0675 1.1481 -2.9999 0.9763
-5.1909 0.2315 -2.9999 0.9763
-5.1909 -0.2315 -3.0000 0.9763
-5.1497 -0.6926 -2.9999 0.9763
-4.9452 -1.5946 -2.9999 0.9763
-4.7836 -2.0284 -2.9999 0.9763
-4.5840 -2.4461 -2.9998 0.9763
-4.3480 -2.8443 -2.9998 0.9763
-4.0775 -3.2200 -2.9997 0.9763
-3.7747 -3.5700 -2.9996 0.9763
-3.4418 -3.8917 -2.9995 0.9763
-0.0579 -5.1935 -2.9987 0.9763
0.8638 -5.1211 -2.9984 0.9763
1.7580 -4.8864 -2.9982 0.9763
2.1858 -4.7104 -2.9981 0.9763
3.3523 -3.9651 -2.9978 0.9763
