ply
format ascii 1.0
element vertex 1586
property float32 x
property float32 y
property float32 z
property float32 I
end_header
-1.4653 -5.1244 -0.8487 0.9786
7.8370 7.0882 -1.6826 0.9581
-2.3935 -5.4742 -1.0535 0.9760
-1.7420 -5.2031 -0.9675 0.9780
-0.7801 -5.3485 -0.9531 0.9783
-0.3178 -5.7003 -1.0067 0.9771
-2.0351 -5.2840 -0.9984 0.9773
-1.4802 -5.1767 -0.9494 0.9784
-0.0679 -6.0990 -1.0755 0.9755
7.8365 7.0877 -1.8631 0.9580
-2.4634 -5.6339 -1.1899 0.9753
-1.2511 -5.2499 -1.0444 0.9783
-0.7886 -5.4068 -1.0574 0.9780
-0.3231 -5.7950 -1.1232 0.9766
13.4064 6.0406 -2.8456 0.9419
12.8157 7.2100 -2.8456 0.9418
12.1233 8.3222 -2.8456 0.9418
11.3346 9.3683 -2.8457 0.9418
10.4560 10.3401 -2.8457 0.9418
8.4572 12.0306 -2.8458 0.9418
3.7273 14.2268 -2.8461 0.9418
2.4463 14.5024 -2.8461 0.9418
1.1458 14.6629 -2.8462 0.9418
-1.4722 14.6344 -2.8463 0.9418
-2.7690 14.4456 -2.8464 0.9418
-4.0438 14.1421 -2.8464 0.9418
-5.2866 13.7263 -2.8465 0.9418
-12.3107 8.0533 -2.8468 0.9418
-13.5438 5.7431 -2.8469 0.9418
-1.4956 -5.2304 -1.0528 0.9781
-1.0179 -5.3102 -1.0463 0.9782
-0.0708 -6.3542 -1.2297 0.9744
13.1241 6.6319 -2.8456 0.9418
11.7406 8.8540 -2.8457 0.9418
7.8359 7.0871 -2.0446 0.9579
7.9130 12.3955 -2.8459 0.9418
4.3573 14.0465 -2.8460 0.9418
-2.1227 14.5544 -2.8463 0.9418
-3.4098 14.3080 -2.8464 0.9418
-4.6698 13.9480 -2.8465 0.9418
-8.1894 12.2194 -2.8466 0.9418
-9.2446 11.4422 -2.8467 0.9418
-10.2265 10.5741 -2.8467 0.9418
-11.1272 9.6221 -2.8468 0.9418
-11.9396 8.5937 -2.8468 0.9418
-12.6573 7.4970 -2.8468 0.9418
-13.2744 6.3407 -2.8468 0.9418
-14.1703 -1.2662 -2.9993 0.9435
-13.7211 -3.7586 -2.9992 0.9435
-11.5463 -8.3105 -2.9991 0.9435
-10.7606 -9.3051 -2.9991 0.9435
-9.8896 -10.2257 -2.9991 0.9435
-8.9400 -11.0652 -2.9990 0.9435
-7.9196 -11.8168 -2.9990 0.9435
-6.8362 -12.4745 -2.9989 0.9435
-1.7909 -5.3493 -1.1893 0.9772
-1.2674 -5.3184 -1.1526 0.9779
-0.3322 -5.9573 -1.2579 0.9759
0.4753 -14.2153 -2.9986 0.9435
4.2138 -13.5838 -2.9984 0.9435
5.4060 -13.1546 -2.9983 0.9435
6.5552 -12.6211 -2.9983 0.9435
7.6525 -11.9873 -2.9982 0.9435
12.0711 -7.5179 -2.9980 0.9435
12.6922 -6.4136 -2.9980 0.9435
13.2126 -5.2585 -2.9980 0.9435
13.6281 -4.0616 -2.9979 0.9435
13.9354 -2.8325 -2.9979 0.9435
14.0478 2.2089 -2.9979 0.9435
13.7955 3.4505 -2.9980 0.9435
11.7641 6.6184 -2.8457 0.9463
11.1285 7.6393 -2.8457 0.9463
10.4045 8.5996 -2.8457 0.9463
7.7632 11.0434 -2.8459 0.9463
6.7496 11.6907 -2.8459 0.9463
5.6824 12.2453 -2.8460 0.9463
2.2455 13.3122 -2.8461 0.9463
1.0517 13.4595 -2.8462 0.9463
-1.3514 13.4333 -2.8463 0.9463
-2.5417 13.2600 -2.8464 0.9463
-4.8527 12.5997 -2.8465 0.9463
-5.9550 12.1180 -2.8465 0.9463
-8.9453 10.1146 -2.8466 0.9463
-9.8102 9.2785 -2.8467 0.9463
-10.5972 8.3686 -2.8467 0.9463
-11.9134 6.3572 -2.8468 0.9463
-13.8750 3.1437 -2.9993 0.9435
-13.5400 -4.3661 -2.9992 0.9435
-10.3354 -9.7751 -2.9991 0.9435
-8.4382 -11.4523 -2.9990 0.9435
-7.3852 -12.1577 -2.9989 0.9435
-6.2737 -12.7666 -2.9989 0.9435
-2.1096 -5.4775 -1.2375 0.9763
-1.0312 -5.3799 -1.1548 0.9779
-0.5693 -5.6594 -1.1991 0.9770
-0.1585 -14.2225 -2.9986 0.9435
2.3656 -14.0248 -2.9985 0.9435
4.8147 -13.3826 -2.9983 0.9435
5.9866 -12.9006 -2.9983 0.9435
10.1118 -9.9997 -2.9981 0.9435
11.7242 -8.0482 -2.9980 0.9435
13.7954 -3.4504 -2.9979 0.9435
14.0478 -2.2089 -2.9979 0.9435
14.2168 0.3169 -2.9979 0.9435
14.1322 1.5810 -2.9979 0.9435
13.6281 4.0616 -2.9980 0.9435
12.5411 4.9913 -2.8456 0.9463
11.4577 7.1359 -2.8457 0.9463
10.7772 8.1275 -2.8457 0.9463
6.2222 11.9799 -2.8459 0.9463
5.1313 12.4864 -2.8460 0.9463
3.9997 12.8938 -2.8460 0.9463
2.8363 13.1989 -2.8461 0.9463
1.6503 13.3992 -2.8462 0.9463
0.4511 13.4932 -2.8462 0.9463
-0.7516 13.4800 -2.8463 0.9463
-1.9485 13.3599 -2.8463 0.9463
-3.1299 13.1337 -2.8464 0.9463
-8.4858 10.5030 -2.8466 0.9463
-11.6183 6.8816 -2.8468 0.9463
-12.1848 5.8202 -2.8468 0.9463
-13.7212 3.7587 -2.9993 0.9435
-14.1703 1.2663 -2.9993 0.9435
-13.1405 0.0000 -2.9992 0.9475
-13.0883 -1.1696 -2.9992 0.9475
-12.9322 -2.3298 -2.9992 0.9475
-12.6735 -3.4716 -2.9992 0.9475
-12.3141 -4.5858 -2.9992 0.9475
-11.8570 -5.6636 -2.9992 0.9475
-11.3057 -6.6964 -2.9991 0.9475
-9.1345 -9.4450 -2.9990 0.9475
-7.3149 -10.9146 -2.9989 0.9475
-6.3143 -11.5222 -2.9989 0.9475
-5.2636 -12.0383 -2.9988 0.9475
-0.3418 -6.1308 -1.4015 0.9751
2.7600 -12.8438 -2.9984 0.9475
3.8921 -12.5470 -2.9984 0.9475
7.0683 -11.0723 -2.9982 0.9475
8.9193 -9.6434 -2.9982 0.9475
11.7235 -5.9241 -2.9980 0.9475
13.0536 -1.4603 -2.9980 0.9475
12.9756 2.0404 -2.9980 0.9475
12.7426 3.1872 -2.9980 0.9475
10.8662 6.1132 -2.8457 0.9501
10.2791 7.0562 -2.8457 0.9501
8.8654 8.7672 -2.8458 0.9501
7.1707 10.2004 -2.8459 0.9501
5.2487 11.3106 -2.8460 0.9501
4.2212 11.7331 -2.8460 0.9501
3.1602 12.0624 -2.8461 0.9501
-0.1389 12.4694 -2.8462 0.9501
-1.2482 12.4078 -2.8463 0.9501
-3.4285 11.9903 -2.8464 0.9501
-6.4748 10.6590 -2.8465 0.9501
-9.0612 8.5701 -2.8467 0.9501
-10.4374 6.8278 -2.8467 0.9501
-11.4828 4.8691 -2.8468 0.9501
-12.5063 4.0328 -2.9992 0.9475
-13.1274 0.5854 -2.9992 0.9475
-13.1274 -0.5854 -2.9992 0.9475
-13.0232 -1.7514 -2.9992 0.9475
-8.7046 -9.8425 -2.9990 0.9475
-7.7939 -10.5780 -2.9990 0.9475
-6.8214 -11.2296 -2.9989 0.9475
-2.1719 -5.6391 -1.3793 0.9755
-1.0494 -5.4746 -1.2723 0.9774
-0.5819 -5.7839 -1.3268 0.9764
1.0235 -13.0975 -2.9985 0.9475
2.1851 -12.9541 -2.9985 0.9475
3.3294 -12.7080 -2.9984 0.9475
4.4472 -12.3610 -2.9984 0.9475
5.5296 -11.9160 -2.9983 0.9475
10.1249 -8.3684 -2.9981 0.9475
10.8294 -7.4339 -2.9981 0.9475
12.7425 -3.1871 -2.9980 0.9475
13.1057 -0.8773 -2.9980 0.9475
13.0536 1.4603 -2.9980 0.9475
12.8719 2.6163 -2.9980 0.9475
10.5832 6.5913 -2.8457 0.9501
9.9546 7.5072 -2.8457 0.9501
7.7251 6.9869 -2.3774 0.9582
6.7092 10.5098 -2.8459 0.9501
5.7473 11.0655 -2.8460 0.9501
1.5243 12.3763 -2.8462 0.9501
-1.7997 12.3400 -2.8463 0.9501
-2.8910 12.1310 -2.8464 0.9501
-5.9935 10.9368 -2.8465 0.9501
-7.8379 9.7012 -2.8466 0.9501
-10.1228 7.2860 -2.8467 0.9501
-10.7312 6.3561 -2.8467 0.9501
-11.2544 5.3758 -2.8467 0.9501
-12.6735 3.4717 -2.9992 0.9475
-13.0883 1.1696 -2.9992 0.9475
-12.2017 0.0000 -2.9992 0.9510
-12.1533 -1.0860 -2.9992 0.9510
-12.0084 -2.1634 -2.9992 0.9510
-11.0099 -5.2590 -2.9991 0.9510
-10.4981 -6.2180 -2.9991 0.9510
-9.2291 -7.9807 -2.9990 0.9510
-7.6676 -9.4903 -2.9989 0.9510
-5.8633 -10.6991 -2.9989 0.9510
-4.8877 -11.1783 -2.9988 0.9510
-1.8778 -5.6087 -1.4538 0.9759
-0.6792 -12.1805 -2.9986 0.9510
0.4076 -12.1923 -2.9986 0.9510
1.4912 -12.1075 -2.9985 0.9510
2.5629 -11.9265 -2.9985 0.9510
4.6367 -11.2828 -2.9984 0.9510
5.6225 -10.8251 -2.9983 0.9510
7.4525 -9.6565 -2.9982 0.9510
8.2823 -8.9547 -2.9982 0.9510
10.8863 -5.5011 -2.9981 0.9510
11.6890 -3.4837 -2.9980 0.9510
12.1940 -0.2717 -2.9980 0.9510
12.1698 0.8147 -2.9980 0.9510
12.0490 1.8947 -2.9980 0.9510
11.8326 2.9596 -2.9980 0.9510
9.5450 6.5523 -2.8458 0.9534
7.4751 8.8416 -2.8459 0.9534
6.6586 9.4719 -2.8459 0.9534
5.7892 10.0271 -2.8460 0.9534
4.8738 10.5028 -2.8460 0.9534
0.9021 11.5441 -2.8462 0.9534
-0.1290 11.5788 -2.8462 0.9534
-1.1591 11.5215 -2.8463 0.9534
-2.1800 11.3728 -2.8463 0.9534
-3.1836 11.1339 -2.8464 0.9534
-7.6721 8.6751 -2.8466 0.9534
-9.0889 7.1775 -2.8467 0.9534
-9.6917 6.3401 -2.8467 0.9534
-11.6128 3.7447 -2.9992 0.9510
-11.9001 2.6962 -2.9992 0.9510
-12.0929 1.6263 -2.9992 0.9510
-12.1896 0.5435 -2.9992 0.9510
-12.1896 -0.5435 -2.9992 0.9510
-11.6128 -3.7446 -2.9991 0.9510
-11.2333 -4.7633 -2.9991 0.9510
-10.7647 -5.7442 -2.9991 0.9510
-10.2106 -6.6795 -2.9991 0.9510
-9.5755 -7.5617 -2.9990 0.9510
-8.8643 -8.3838 -2.9990 0.9510
-8.0828 -9.1394 -2.9990 0.9510
-7.2372 -9.8224 -2.9989 0.9510
-2.3211 -6.0266 -1.5874 0.9737
-1.5748 -5.5074 -1.4080 0.9767
-1.0684 -5.5735 -1.3949 0.9769
-0.1359 -12.1985 -2.9986 0.9510
3.0916 -11.8004 -2.9984 0.9510
5.1347 -11.0649 -2.9983 0.9510
7.0150 -9.9789 -2.9983 0.9510
7.8752 -9.3148 -2.9982 0.9510
9.4018 -7.7707 -2.9981 0.9510
10.0560 -6.9031 -2.9981 0.9510
10.6304 -5.9806 -2.9981 0.9510
12.1698 -0.8146 -2.9980 0.9510
12.1940 0.2718 -2.9980 0.9510
12.1214 1.3560 -2.9980 0.9510
11.9527 2.4295 -2.9980 0.9510
11.6891 3.4837 -2.9981 0.9510
9.2437 6.9711 -2.8458 0.9534
7.8615 8.4997 -2.8458 0.9534
7.0738 9.1659 -2.8459 0.9534
5.3368 10.2752 -2.8460 0.9534
4.4011 10.7096 -2.8460 0.9534
3.4305 11.0590 -2.8461 0.9534
2.4326 11.3205 -2.8461 0.9534
-0.6447 11.5616 -2.8463 0.9534
-2.6845 11.2645 -2.8464 0.9534
-3.6765 10.9811 -2.8464 0.9534
-4.6393 10.6104 -2.8464 0.9534
-5.5654 10.1556 -2.8465 0.9534
-8.7601 7.5752 -2.8466 0.9534
-9.3997 6.7655 -2.8467 0.9534
-9.9646 5.9021 -2.8467 0.9534
-11.4345 4.2582 -2.9992 0.9510
-12.0084 2.1634 -2.9992 0.9510
-11.2016 -2.0181 -2.9991 0.9540
-10.6662 -3.9721 -2.9991 0.9540
-10.2702 -4.9056 -2.9991 0.9540
-9.2376 -6.6487 -2.9990 0.9540
-1.3525 -5.6753 -1.5373 0.9762
-0.6336 -11.3622 -2.9986 0.9540
5.2448 -10.0980 -2.9983 0.9540
6.9519 -9.0079 -2.9983 0.9540
8.4387 -7.6324 -2.9982 0.9540
9.6581 -6.0151 -2.9981 0.9540
10.1551 -5.1316 -2.9981 0.9540
10.9039 -3.2497 -2.9981 0.9540
11.1499 -2.2663 -2.9981 0.9540
11.3750 -0.2535 -2.9981 0.9540
11.3524 0.7599 -2.9981 0.9540
11.2398 1.7674 -2.9981 0.9540
9.4125 5.2954 -2.8458 0.9563
8.9039 6.1122 -2.8458 0.9563
8.3247 6.8805 -2.8458 0.9563
7.5812 7.4972 -2.8095 0.9569
3.6564 10.1632 -2.8461 0.9563
1.7966 10.6508 -2.8461 0.9563
0.8415 10.7687 -2.8462 0.9563
-2.9698 10.3859 -2.8464 0.9563
-4.7643 9.6951 -2.8465 0.9563
-5.6084 9.2327 -2.8465 0.9563
-7.8486 7.4232 -2.8466 0.9563
-8.4783 6.6953 -2.8466 0.9563
-9.0406 5.9141 -2.8466 0.9563
-11.1006 2.5151 -2.9991 0.9540
-11.2804 1.5171 -2.9991 0.9540
-11.3707 0.5071 -2.9991 0.9540
-11.3706 -0.5070 -2.9991 0.9540
-11.2804 -1.5171 -2.9991 0.9540
-11.1005 -2.5150 -2.9991 0.9540
-10.8326 -3.4930 -2.9991 0.9540
-10.4786 -4.4433 -2.9991 0.9540
-8.9322 -7.0536 -2.9990 0.9540
-7.5398 -8.5254 -2.9989 0.9540
-5.0193 -10.2140 -2.9988 0.9540
-4.0903 -10.6201 -2.9988 0.9540
-1.1003 -5.7404 -1.5401 0.9761
-0.6302 -6.2639 -1.6589 0.9743
-0.1268 -11.3791 -2.9986 0.9540
1.8927 -11.2209 -2.9985 0.9540
2.8839 -11.0077 -2.9984 0.9540
4.7898 -10.3217 -2.9984 0.9540
6.5438 -9.3087 -2.9983 0.9540
8.0904 -8.0008 -2.9982 0.9540
8.7703 -7.2489 -2.9982 0.9540
9.9165 -5.5789 -2.9981 0.9540
10.3736 -4.6741 -2.9981 0.9540
10.7484 -3.7322 -2.9981 0.9540
11.0379 -2.7607 -2.9981 0.9540
11.1499 2.2663 -2.9981 0.9540
10.9040 3.2497 -2.9981 0.9540
10.5715 4.2074 -2.9981 0.9540
9.1673 5.7095 -2.8458 0.9563
7.6855 6.9511 -2.7306 0.9580
7.3334 7.9288 -2.8459 0.9563
4.9783 9.5849 -2.8460 0.9563
4.1055 9.9902 -2.8460 0.9563
1.3203 10.7204 -2.8462 0.9563
-1.5589 10.6888 -2.8463 0.9563
-5.1915 9.4733 -2.8465 0.9563
-6.0142 8.9738 -2.8465 0.9563
-6.7891 8.4029 -2.8465 0.9563
-7.5101 7.7654 -2.8466 0.9563
-8.7681 6.3109 -2.8466 0.9563
-9.9236 4.7401 -2.8978 0.9555
-10.9775 3.0071 -2.9991 0.9540
-11.2016 2.0181 -2.9991 0.9540
-10.6172 -0.9487 -2.9991 0.9567
-10.4905 -1.8899 -2.9991 0.9567
-9.1712 -5.4321 -2.9990 0.9567
-8.6512 -6.2267 -2.9990 0.9567
-8.0626 -6.9720 -2.9990 0.9567
-6.6985 -8.2909 -2.9989 0.9567
-5.9339 -8.8540 -2.9989 0.9567
-4.2699 -9.7656 -2.9988 0.9567
-0.9191 -6.3020 -1.7919 0.9739
-0.5933 -10.6412 -2.9986 0.9567
0.3561 -10.6516 -2.9986 0.9567
1.3027 -10.5774 -2.9985 0.9567
3.1574 -10.1786 -2.9984 0.9567
4.0508 -9.8570 -2.9984 0.9567
5.7342 -8.9824 -2.9983 0.9567
7.2358 -7.8232 -2.9982 0.9567
7.9033 -7.1481 -2.9982 0.9567
8.5080 -6.4162 -2.9982 0.9567
10.6532 -0.2374 -2.9981 0.9567
10.5266 1.6553 -2.9981 0.9567
10.3375 2.5856 -2.9981 0.9567
10.0664 3.4954 -2.9981 0.9567
8.8153 4.9594 -2.8458 0.9588
6.5305 7.7243 -2.8459 0.9588
5.8172 8.2750 -2.8459 0.9588
4.2579 9.1756 -2.8460 0.9588
3.4244 9.5183 -2.8461 0.9588
2.5637 9.7854 -2.8461 0.9588
0.7881 10.0853 -2.8462 0.9588
-2.7813 9.7267 -2.8464 0.9588
-4.4619 9.0798 -2.8464 0.9588
-7.9401 6.2703 -2.8466 0.9588
-8.4668 5.5387 -2.8466 0.9588
-8.9262 4.7632 -2.8466 0.9588
-9.8135 4.1613 -2.9991 0.9567
-10.1450 3.2714 -2.9991 0.9567
-10.3960 2.3554 -2.9991 0.9567
-10.5644 1.4208 -2.9991 0.9567
-10.6489 0.4749 -2.9991 0.9567
-9.8135 -4.1613 -2.9991 0.9567
-9.4041 -5.0182 -2.9990 0.9567
-7.7440 -7.3242 -2.9990 0.9567
-5.5336 -9.1095 -2.9988 0.9567
-3.8307 -9.9461 -2.9988 0.9567
-1.0668 -10.6043 -2.9986 0.9567
1.7726 -10.5088 -2.9985 0.9567
2.7009 -10.3092 -2.9985 0.9567
4.4858 -9.6667 -2.9984 0.9567
5.3284 -9.2289 -2.9983 0.9567
7.5770 -7.4930 -2.9982 0.9567
10.0664 -3.4954 -2.9981 0.9567
10.3375 -2.5856 -2.9981 0.9567
10.5265 -1.6552 -2.9981 0.9567
10.6321 -0.7117 -2.9981 0.9567
10.6532 0.2374 -2.9981 0.9567
10.5898 1.1846 -2.9981 0.9567
10.4424 2.1225 -2.9981 0.9567
10.2121 3.0436 -2.9981 0.9567
8.5856 5.3472 -2.8458 0.9588
6.8681 7.4257 -2.8459 0.9588
5.4428 8.5260 -2.8460 0.9588
4.6624 8.9767 -2.8460 0.9588
1.2366 10.0400 -2.8462 0.9588
0.3380 10.1104 -2.8462 0.9588
-1.4600 10.0104 -2.8463 0.9588
-3.2118 9.5932 -2.8464 0.9588
-4.0530 9.2695 -2.8464 0.9588
-4.8620 8.8720 -2.8465 0.9588
-5.6324 8.4042 -2.8465 0.9588
-6.3582 7.8696 -2.8465 0.9588
-7.0334 7.2725 -2.8466 0.9588
-8.2116 5.9104 -2.8466 0.9588
-8.7051 5.1561 -2.8466 0.9588
-9.9892 3.7200 -2.9991 0.9567
-10.4906 1.8900 -2.9991 0.9567
-10.0176 0.0000 -2.9991 0.9590
-9.0392 -4.3177 -2.9990 0.9590
-7.5771 -6.5522 -2.9989 0.9590
-6.9638 -7.2005 -2.9989 0.9590
-5.5767 -8.3209 -2.9989 0.9590
-4.0129 -9.1776 -2.9988 0.9590
-3.1800 -9.4983 -2.9987 0.9590
-2.3220 -9.7435 -2.9987 0.9590
0.3347 -10.0103 -2.9986 0.9590
2.1042 -9.7921 -2.9985 0.9590
2.9674 -9.5658 -2.9984 0.9590
4.6163 -8.8879 -2.9984 0.9590
5.3890 -8.4416 -2.9983 0.9590
6.1189 -7.9284 -2.9983 0.9590
6.8002 -7.3523 -2.9983 0.9590
7.4275 -6.7178 -2.9982 0.9590
8.5008 -5.2943 -2.9982 0.9590
8.9382 -4.5167 -2.9982 0.9590
9.5973 -2.8603 -2.9981 0.9590
9.9921 0.6689 -2.9981 0.9590
9.8929 1.5556 -2.9981 0.9590
9.7152 2.4300 -2.9981 0.9590
9.4604 3.2850 -2.9982 0.9590
9.1306 4.1141 -2.9982 0.9590
12.3667 6.9574 -4.2480 0.9425
6.7591 6.6842 -2.8459 0.9611
4.0016 8.6232 -2.8460 0.9611
2.4093 9.1963 -2.8461 0.9611
0.7406 9.4780 -2.8462 0.9611
-0.9516 9.4595 -2.8463 0.9611
-4.1933 8.5331 -2.8464 0.9611
-5.6399 7.6546 -2.8465 0.9611
-6.2989 7.1223 -2.8465 0.9611
-7.4620 5.8928 -2.8466 0.9611
-7.9570 5.2052 -2.8466 0.9611
-9.9282 1.3353 -2.9991 0.9590
-10.0077 -0.4462 -2.9991 0.9590
-9.7699 -2.2136 -2.9991 0.9590
-9.5341 -3.0743 -2.9990 0.9590
-9.2226 -3.9107 -2.9990 0.9590
-8.8379 -4.7160 -2.9990 0.9590
-7.8615 -6.2082 -2.9990 0.9590
-6.6361 -7.5035 -2.9989 0.9590
-4.4177 -8.9898 -2.9988 0.9590
-3.6000 -9.3472 -2.9988 0.9590
-2.7537 -9.6304 -2.9987 0.9590
-0.1116 -10.0154 -2.9986 0.9590
1.6659 -9.8762 -2.9985 0.9590
3.3905 -9.4241 -2.9984 0.9590
4.2158 -9.0847 -2.9984 0.9590
5.0076 -8.6734 -2.9983 0.9590
5.7596 -8.1931 -2.9983 0.9590
7.1209 -7.0420 -2.9983 0.9590
8.2565 -5.6678 -2.9982 0.9590
9.1305 -4.1140 -2.9982 0.9590
9.4604 -3.2850 -2.9981 0.9590
9.8929 -1.5556 -2.9981 0.9590
9.9921 -0.6689 -2.9981 0.9590
9.9524 1.1133 -2.9981 0.9590
9.3047 3.7032 -2.9982 0.9590
12.6643 6.3996 -4.2480 0.9425
7.5896 5.7236 -2.8459 0.9611
7.0501 6.3764 -2.8459 0.9611
6.4546 6.9787 -2.8459 0.9611
3.6135 8.7929 -2.8461 0.9611
1.9973 9.2946 -2.8461 0.9611
1.1621 9.4356 -2.8462 0.9611
0.3177 9.5017 -2.8462 0.9611
-0.5293 9.4924 -2.8462 0.9611
-1.3721 9.4078 -2.8463 0.9611
-2.2040 9.2484 -2.8463 0.9611
-3.0185 9.0157 -2.8464 0.9611
-3.8090 8.7114 -2.8464 0.9611
-5.2933 7.8982 -2.8465 0.9611
-7.7172 5.5545 -2.8466 0.9611
-9.3877 3.4961 -2.9991 0.9590
-9.6617 2.6466 -2.9991 0.9590
-9.8589 1.7762 -2.9991 0.9590
-9.4433 0.0000 -2.9991 0.9611
-9.2937 -1.6743 -2.9990 0.9611
-9.1077 -2.4949 -2.9990 0.9611
-8.8495 -3.2955 -2.9990 0.9611
-8.5210 -4.0701 -2.9990 0.9611
-8.1248 -4.8123 -2.9990 0.9611
-7.6642 -5.5163 -2.9990 0.9611
-6.5646 -6.7878 -2.9989 0.9611
-2.1889 -9.1849 -2.9987 0.9611
-1.3627 -9.3432 -2.9986 0.9611
-0.5257 -9.4273 -2.9986 0.9611
0.3155 -9.4365 -2.9986 0.9611
1.1541 -9.3709 -2.9985 0.9611
2.7973 -9.0175 -2.9985 0.9612
3.5887 -8.7326 -2.9984 0.9612
4.3517 -8.3785 -2.9984 0.9612
5.0801 -7.9578 -2.9983 0.9612
5.7682 -7.4740 -2.9983 0.9612
6.4104 -6.9309 -2.9983 0.9612
7.0018 -6.3327 -2.9983 0.9612
8.7714 -3.4910 -2.9982 0.9612
9.0473 -2.6964 -2.9982 0.9612
9.4382 -0.2103 -2.9982 0.9612
9.4194 0.6306 -2.9982 0.9612
8.9182 3.0968 -2.9982 0.9612
8.6073 3.8783 -2.9982 0.9612
11.6579 6.5586 -4.2481 0.9454
6.3717 6.3011 -2.8459 0.9631
5.7856 6.8433 -2.8459 0.9631
4.4807 7.7608 -2.8460 0.9631
3.7722 8.1289 -2.8460 0.9631
3.0338 8.4325 -2.8461 0.9631
2.2712 8.6692 -2.8461 0.9631
0.6982 8.9348 -2.8462 0.9631
-2.4640 8.6171 -2.8463 0.9631
-3.9529 8.0439 -2.8464 0.9631
-5.3166 7.2158 -2.8465 0.9631
-6.5119 6.1589 -2.8465 0.9631
-7.0343 5.5549 -2.8465 0.9631
-7.5008 4.9068 -2.8466 0.9631
-9.2099 2.0867 -2.9990 0.9611
-9.3591 1.2587 -2.9991 0.9611
-9.4339 0.4207 -2.9991 0.9611
-9.2098 -2.0867 -2.9990 0.9611
-8.9875 -2.8981 -2.9990 0.9611
-8.6939 -3.6865 -2.9990 0.9611
-7.4108 -5.8523 -2.9989 0.9611
-6.8605 -6.4886 -2.9989 0.9611
-5.6012 -7.6020 -2.9989 0.9611
-4.9023 -8.0703 -2.9988 0.9611
-0.9451 -9.3946 -2.9986 0.9611
-0.1052 -9.4413 -2.9986 0.9611
0.7356 -9.4130 -2.9985 0.9611
1.5704 -9.3101 -2.9985 0.9611
3.9742 -8.5641 -2.9984 0.9612
4.7206 -8.1762 -2.9984 0.9612
5.4295 -7.7236 -2.9983 0.9612
6.7128 -6.6384 -2.9983 0.9612
7.2769 -6.0145 -2.9982 0.9612
7.7833 -5.3429 -2.9982 0.9612
9.1584 -2.2907 -2.9982 0.9612
9.3259 -1.4664 -2.9982 0.9612
9.4382 0.2104 -2.9982 0.9612
9.3820 1.0496 -2.9982 0.9612
9.2514 1.8804 -2.9982 0.9612
9.0473 2.6964 -2.9982 0.9612
11.9384 6.0327 -4.2481 0.9454
7.1546 5.3955 -2.8459 0.9631
6.0847 6.5787 -2.8459 0.9631
5.4751 7.0942 -2.8460 0.9631
4.1306 7.9528 -2.8460 0.9631
3.4064 8.2889 -2.8461 0.9631
2.6551 8.5594 -2.8461 0.9631
1.8828 8.7618 -2.8461 0.9631
1.0955 8.8948 -2.8462 0.9631
0.2995 8.9571 -2.8462 0.9631
-1.2934 8.8685 -2.8463 0.9631
-2.0777 8.7183 -2.8463 0.9631
-4.3073 7.8599 -2.8464 0.9631
-4.9899 7.4454 -2.8465 0.9631
-5.6328 6.9718 -2.8465 0.9631
-6.2310 6.4429 -2.8465 0.9631
-7.2748 5.2361 -2.8466 0.9631
-7.9813 4.7274 -2.9460 0.9618
-8.5210 4.0702 -2.9990 0.9611
-9.1078 2.4949 -2.9990 0.9611
-9.4058 0.8405 -2.9991 0.9611
-8.9262 0.0000 -2.9990 0.9630
-8.8907 -0.7945 -2.9990 0.9630
-8.6089 -2.3582 -2.9990 0.9630
-8.3648 -3.1151 -2.9990 0.9630
-8.0543 -3.8472 -2.9990 0.9630
-7.6799 -4.5488 -2.9990 0.9630
-6.7516 -5.8383 -2.9989 0.9630
-6.2051 -6.4160 -2.9989 0.9630
-5.6094 -6.9428 -2.9989 0.9630
-4.9691 -7.4144 -2.9988 0.9630
-1.2881 -8.8316 -2.9986 0.9630
-0.4969 -8.9110 -2.9986 0.9630
1.0909 -8.8578 -2.9985 0.9630
1.8750 -8.7254 -2.9985 0.9630
4.1134 -7.9197 -2.9984 0.9630
5.4523 -7.0648 -2.9983 0.9630
7.9646 -4.0247 -2.9982 0.9630
8.5519 -2.5487 -2.9982 0.9630
8.7448 -1.7775 -2.9982 0.9630
8.9037 0.5960 -2.9982 0.9630
8.4300 2.9272 -2.9982 0.9630
8.1360 3.6659 -2.9982 0.9630
10.4242 7.1558 -4.2481 0.9480
6.5290 5.3964 -2.8459 0.9649
4.8714 6.9297 -2.8460 0.9649
3.5657 7.6838 -2.8461 0.9649
2.8677 7.9708 -2.8461 0.9649
2.1469 8.1945 -2.8461 0.9649
0.6599 8.4455 -2.8462 0.9649
-1.5948 8.3201 -2.8463 0.9649
-2.3291 8.1453 -2.8463 0.9649
-3.7364 7.6034 -2.8464 0.9649
-4.3984 7.2408 -2.8464 0.9649
-5.0254 6.8206 -2.8465 0.9649
-6.6490 5.2507 -2.8465 0.9649
-7.8750 4.2022 -2.9990 0.9630
-8.4954 2.7394 -2.9990 0.9630
-8.8465 1.1897 -2.9990 0.9630
-8.9173 0.3976 -2.9990 0.9630
-8.8465 -1.1897 -2.9990 0.9630
-8.7055 -1.9724 -2.9990 0.9630
-8.4953 -2.7394 -2.9990 0.9630
-8.2178 -3.4846 -2.9990 0.9630
-7.8749 -4.2022 -2.9990 0.9630
-7.4696 -4.8864 -2.9989 0.9630
-6.4848 -6.1333 -2.9989 0.9630
-3.2078 -8.3289 -2.9987 0.9630
-1.6802 -8.7655 -2.9987 0.9630
-0.8934 -8.8801 -2.9986 0.9630
-0.0994 -8.9243 -2.9986 0.9630
2.2618 -8.6331 -2.9985 0.9630
3.0212 -8.3975 -2.9984 0.9630
3.7566 -8.0951 -2.9984 0.9630
4.4621 -7.7286 -2.9984 0.9630
5.7616 -6.8148 -2.9983 0.9630
6.8785 -5.6852 -2.9983 0.9630
7.3572 -5.0504 -2.9982 0.9630
7.7774 -4.3755 -2.9982 0.9630
8.4299 -2.9272 -2.9982 0.9630
8.6570 -2.1652 -2.9982 0.9630
8.9037 -0.5960 -2.9982 0.9630
8.9214 0.1988 -2.9982 0.9630
8.8683 0.9921 -2.9982 0.9630
8.7449 1.7775 -2.9982 0.9630
8.5520 2.5488 -2.9982 0.9630
8.2912 3.2998 -2.9982 0.9630
6.7629 5.1001 -2.8459 0.9649
6.2821 5.6819 -2.8459 0.9649
4.5579 7.1399 -2.8460 0.9649
2.5098 8.0907 -2.8461 0.9649
0.2831 8.4666 -2.8462 0.9649
-0.4716 8.4583 -2.8462 0.9649
-1.9639 8.2409 -2.8463 0.9649
-2.6896 8.0335 -2.8463 0.9649
-3.3940 7.7623 -2.8464 0.9649
-4.0714 7.4295 -2.8464 0.9649
-5.3243 6.5900 -2.8465 0.9649
-5.8898 6.0900 -2.8465 0.9649
-6.8764 4.9493 -2.8465 0.9649
-8.0544 3.8473 -2.9990 0.9630
-8.4578 0.0000 -2.9990 0.9647
-8.3237 -1.4996 -2.9990 0.9647
-7.6317 -3.6453 -2.9990 0.9647
-7.2769 -4.3101 -2.9989 0.9647
-5.8795 -6.0793 -2.9989 0.9647
-5.3150 -6.5785 -2.9988 0.9647
-4.0643 -7.4165 -2.9988 0.9647
-3.3881 -7.7487 -2.9987 0.9647
-0.4708 -8.4435 -2.9986 0.9647
0.2826 -8.4518 -2.9986 0.9647
1.0337 -8.3930 -2.9985 0.9647
2.5054 -8.0766 -2.9985 0.9647
3.2143 -7.8214 -2.9984 0.9647
4.5500 -7.1275 -2.9984 0.9647
6.2712 -5.6720 -2.9983 0.9647
7.1774 -4.4701 -2.9983 0.9648
7.5468 -3.8135 -2.9982 0.9648
7.8562 -3.1267 -2.9982 0.9648
8.1033 -2.4150 -2.9982 0.9648
8.2861 -1.6842 -2.9982 0.9648
8.4031 -0.9400 -2.9982 0.9648
8.4534 -0.1884 -2.9982 0.9648
8.4366 0.5648 -2.9982 0.9648
7.9877 2.7737 -2.9982 0.9648
7.3695 4.1460 -2.9983 0.9648
9.8773 6.7804 -4.2481 0.9504
6.1865 5.1133 -2.8459 0.9665
5.7068 5.6436 -2.8459 0.9665
5.1819 6.1292 -2.8460 0.9665
4.6159 6.5662 -2.8460 0.9665
4.0132 6.9510 -2.8460 0.9665
1.3351 7.9149 -2.8462 0.9665
0.6253 8.0024 -2.8462 0.9665
-2.8851 7.4909 -2.8464 0.9665
-4.1676 6.8608 -2.8464 0.9665
-5.3181 6.0133 -2.8465 0.9665
-5.8323 5.5161 -2.8465 0.9665
-6.3001 4.9752 -2.8465 0.9665
-7.0777 4.6300 -2.9989 0.9647
-7.4618 3.9817 -2.9990 0.9647
-7.7866 3.3018 -2.9990 0.9647
-8.0496 2.5957 -2.9990 0.9647
-8.2487 1.8689 -2.9990 0.9647
-8.2487 -1.8689 -2.9990 0.9647
-7.0777 -4.6300 -2.9989 0.9647
-6.6374 -5.2415 -2.9989 0.9647
-3.7299 -7.5901 -2.9988 0.9647
-0.8465 -8.4142 -2.9986 0.9647
-0.0942 -8.4561 -2.9986 0.9647
0.6588 -8.4308 -2.9986 0.9647
2.8627 -7.9569 -2.9985 0.9647
4.2280 -7.3231 -2.9984 0.9647
4.8630 -6.9177 -2.9984 0.9647
6.5177 -5.3869 -2.9983 0.9648
6.9712 -4.7854 -2.9983 0.9648
7.3694 -4.1460 -2.9982 0.9648
7.7092 -3.4736 -2.9982 0.9648
7.9877 -2.7736 -2.9982 0.9648
8.4366 -0.5647 -2.9982 0.9648
8.4031 0.9401 -2.9982 0.9648
8.1033 2.4151 -2.9982 0.9648
7.8563 3.1268 -2.9982 0.9648
7.5468 3.8136 -2.9983 0.9648
9.5655 7.2137 -4.2482 0.9504
5.9526 5.3837 -2.8459 0.9665
3.6996 7.1229 -2.8460 0.9665
3.0509 7.4240 -2.8461 0.9665
2.3781 7.6662 -2.8461 0.9665
1.6863 7.8475 -2.8461 0.9665
0.2682 8.0224 -2.8462 0.9665
-0.4469 8.0145 -2.8462 0.9665
-1.8608 7.8085 -2.8463 0.9665
-2.5485 7.6119 -2.8463 0.9665
-3.2159 7.3550 -2.8464 0.9665
-3.8578 7.0396 -2.8464 0.9665
-6.5823 4.7377 -2.8757 0.9662
-7.2770 4.3102 -2.9990 0.9647
-7.6317 3.6454 -2.9990 0.9647
-7.9259 2.9517 -2.9990 0.9647
-8.1572 2.2345 -2.9990 0.9647
-8.0313 0.0000 -2.9990 0.9663
-7.7459 -2.1218 -2.9990 0.9663
-7.5263 -2.8028 -2.9990 0.9663
-6.9100 -4.0928 -2.9989 0.9663
-6.5183 -4.6915 -2.9989 0.9663
-5.0471 -6.2468 -2.9988 0.9663
-3.8594 -7.0426 -2.9988 0.9663
-1.1589 -7.9463 -2.9986 0.9663
-0.4471 -8.0179 -2.9986 0.9663
1.6870 -7.8508 -2.9985 0.9663
3.7011 -7.1260 -2.9984 0.9663
4.3207 -6.7682 -2.9984 0.9663
5.4521 -5.8948 -2.9983 0.9663
5.9551 -5.3861 -2.9983 0.9663
6.8156 -4.2448 -2.9983 0.9663
7.1664 -3.6213 -2.9983 0.9663
7.4602 -2.9691 -2.9982 0.9663
8.0273 -0.1789 -2.9982 0.9663
8.0114 0.5363 -2.9982 0.9663
7.3206 3.2985 -2.9983 0.9663
6.9980 3.9370 -2.9983 0.9663
9.3794 6.4386 -4.2482 0.9526
4.9207 5.8203 -2.8460 0.9680
4.3832 6.2352 -2.8460 0.9680
3.2083 6.9137 -2.8461 0.9680
2.5802 7.1719 -2.8461 0.9680
1.2678 7.5159 -2.8462 0.9680
0.5938 7.5990 -2.8462 0.9680
-2.0956 7.3288 -2.8463 0.9680
-2.7396 7.1133 -2.8463 0.9680
-3.9575 6.5150 -2.8464 0.9680
-5.0500 5.7101 -2.8465 0.9680
-5.5382 5.2380 -2.8465 0.9680
-6.0062 4.7431 -2.8578 0.9679
-6.7209 4.3966 -2.9989 0.9663
-7.0855 3.7810 -2.9989 0.9663
-7.3940 3.1353 -2.9990 0.9663
-7.6437 2.4648 -2.9990 0.9663
-7.9597 1.0705 -2.9990 0.9663
-7.6437 -2.4647 -2.9990 0.9663
-7.3939 -3.1353 -2.9989 0.9663
-7.0855 -3.7809 -2.9989 0.9663
-6.3028 -4.9773 -2.9989 0.9663
-4.7638 -6.4654 -2.9988 0.9663
-4.1693 -6.8637 -2.9988 0.9663
-3.5419 -7.2075 -2.9988 0.9663
-2.2078 -7.7211 -2.9987 0.9663
-0.8038 -7.9900 -2.9986 0.9663
1.3356 -7.9183 -2.9985 0.9663
2.0351 -7.7678 -2.9985 0.9663
2.7184 -7.5558 -2.9985 0.9663
3.3800 -7.2838 -2.9984 0.9663
4.0149 -6.9539 -2.9984 0.9663
5.1841 -6.1318 -2.9983 0.9663
5.7093 -5.6460 -2.9983 0.9663
6.6198 -4.5442 -2.9983 0.9663
6.9979 -3.9370 -2.9983 0.9663
7.7894 -1.9482 -2.9982 0.9663
8.0273 0.1789 -2.9982 0.9663
7.9795 0.8927 -2.9982 0.9663
7.8684 1.5993 -2.9982 0.9663
7.6949 2.2933 -2.9982 0.9663
7.1664 3.6213 -2.9983 0.9663
6.8157 4.2449 -2.9983 0.9663
5.6525 5.1124 -2.8459 0.9680
5.1751 5.5952 -2.8460 0.9680
4.1011 6.4243 -2.8460 0.9680
3.5131 6.7638 -2.8461 0.9680
2.8971 7.0498 -2.8461 0.9680
1.6013 7.4519 -2.8461 0.9680
0.9317 7.5650 -2.8462 0.9680
0.2547 7.6180 -2.8462 0.9680
-1.7670 7.4148 -2.8463 0.9680
-3.0538 6.9842 -2.8464 0.9680
-3.6633 6.6847 -2.8464 0.9680
-5.2994 5.4795 -2.8465 0.9680
-5.7661 4.9861 -2.8465 0.9680
-6.5183 4.6916 -2.9989 0.9663
-7.2470 3.4616 -2.9990 0.9663
-7.6109 -0.6801 -2.9990 0.9677
-7.3697 -2.0187 -2.9989 0.9677
-7.1607 -2.6667 -2.9989 0.9677
-6.5744 -3.8940 -2.9989 0.9677
-6.2017 -4.4637 -2.9989 0.9677
-4.8019 -5.9434 -2.9988 0.9677
-4.2538 -6.3472 -2.9988 0.9677
-2.4257 -7.2453 -2.9987 0.9677
-1.7712 -7.4324 -2.9987 0.9677
-1.1027 -7.5604 -2.9986 0.9677
-0.4254 -7.6285 -2.9986 0.9677
0.9339 -7.5829 -2.9985 0.9677
1.6051 -7.4696 -2.9985 0.9677
2.2636 -7.2970 -2.9985 0.9677
3.5214 -6.7799 -2.9984 0.9677
4.1108 -6.4395 -2.9984 0.9677
5.1874 -5.6085 -2.9983 0.9677
6.0995 -4.5998 -2.9983 0.9677
6.4847 -4.0387 -2.9983 0.9677
7.3212 -2.1819 -2.9983 0.9677
7.4863 -1.5216 -2.9982 0.9677
7.5920 -0.8493 -2.9982 0.9677
7.6375 -0.1702 -2.9982 0.9677
7.6223 0.5103 -2.9982 0.9677
6.9651 3.1383 -2.9983 0.9677
6.6582 3.7458 -2.9983 0.9677
8.9240 6.1259 -4.2482 0.9546
5.1560 5.0989 -2.8460 0.9693
4.6818 5.5377 -2.8460 0.9693
3.6258 6.2801 -2.8460 0.9693
3.0525 6.5779 -2.8461 0.9693
2.4549 6.8236 -2.8461 0.9693
1.2062 7.1509 -2.8462 0.9693
0.5650 7.2299 -2.8462 0.9693
-0.0808 7.2516 -2.8462 0.9693
-0.7259 7.2157 -2.8463 0.9693
-1.3653 7.1226 -2.8463 0.9693
-3.1986 6.5090 -2.8464 0.9693
-4.3021 5.8389 -2.8464 0.9693
-4.8047 5.4328 -2.8464 0.9693
-6.3944 4.1830 -2.9989 0.9677
-7.2725 2.3451 -2.9990 0.9677
-7.4523 1.6885 -2.9990 0.9677
-7.5731 1.0185 -2.9990 0.9677
-7.6337 0.3404 -2.9990 0.9677
-7.5731 -1.0185 -2.9990 0.9677
-7.2724 -2.3450 -2.9989 0.9677
-5.9967 -4.7355 -2.9989 0.9677
-5.0620 -5.7236 -2.9988 0.9677
-4.5324 -6.1514 -2.9988 0.9677
-1.4384 -7.5038 -2.9987 0.9677
-0.0851 -7.6398 -2.9986 0.9677
1.2708 -7.5337 -2.9985 0.9677
3.2159 -6.9301 -2.9984 0.9677
4.3936 -6.2499 -2.9984 0.9677
4.9324 -5.8340 -2.9984 0.9677
5.4320 -5.3719 -2.9983 0.9677
6.9651 -3.1383 -2.9983 0.9677
7.4111 -1.8536 -2.9982 0.9677
7.6223 -0.5102 -2.9982 0.9677
7.5921 0.8493 -2.9982 0.9677
7.3212 2.1820 -2.9983 0.9677
6.8184 3.4455 -2.9983 0.9677
8.0279 7.2608 -4.2482 0.9546
4.9238 5.3236 -2.8460 0.9693
4.4304 5.7407 -2.8460 0.9693
3.9019 6.1123 -2.8460 0.9693
1.5236 7.0900 -2.8461 0.9693
-0.4037 7.2408 -2.8462 0.9693
-1.0466 7.1763 -2.8463 0.9693
-1.6812 7.0547 -2.8463 0.9693
-3.4854 6.3601 -2.8464 0.9693
-6.2018 4.4638 -2.9989 0.9677
-7.1608 2.6667 -2.9989 0.9677
-7.5202 1.3548 -2.9990 0.9677
-7.6109 0.6801 -2.9990 0.9677
-7.2540 -0.6482 -2.9989 0.9690
-7.0241 -1.9241 -2.9989 0.9690
-6.5716 -3.1390 -2.9989 0.9690
-6.2661 -3.7114 -2.9989 0.9690
-5.9108 -4.2544 -2.9989 0.9690
-5.5087 -4.7635 -2.9989 0.9690
-5.0628 -5.2349 -2.9988 0.9690
-4.5767 -5.6647 -2.9988 0.9690
-4.0543 -6.0495 -2.9988 0.9690
-2.3120 -6.9055 -2.9987 0.9690
-1.0510 -7.2059 -2.9986 0.9690
0.8901 -7.2273 -2.9985 0.9690
2.1574 -6.9548 -2.9985 0.9690
2.7678 -6.7351 -2.9985 0.9690
3.3563 -6.4620 -2.9984 0.9690
3.9181 -6.1376 -2.9984 0.9690
5.4003 -4.8842 -2.9983 0.9690
5.8135 -4.3842 -2.9983 0.9690
6.4987 -3.2839 -2.9983 0.9690
6.7651 -2.6924 -2.9983 0.9690
7.2649 0.4863 -2.9983 0.9690
7.0636 1.7668 -2.9983 0.9690
6.8784 2.3885 -2.9983 0.9690
6.6385 2.9912 -2.9983 0.9690
6.0031 4.1209 -2.9983 0.9690
7.9521 6.5726 -4.2482 0.9564
7.3356 7.2543 -4.2483 0.9564
3.9748 5.6542 -2.8460 0.9705
3.4558 5.9856 -2.8461 0.9705
2.3398 6.5036 -2.8461 0.9705
1.7517 6.6861 -2.8461 0.9705
-0.0770 6.9116 -2.8462 0.9705
-0.6919 6.8774 -2.8463 0.9705
-1.9003 6.6458 -2.8463 0.9705
-2.4843 6.4504 -2.8463 0.9705
-3.5887 5.9078 -2.8464 0.9705
-4.1003 5.5650 -2.8464 0.9705
-4.5794 5.1780 -2.8464 0.9705
-5.7155 4.5134 -2.9989 0.9690
-6.0945 3.9869 -2.9989 0.9690
-6.4252 3.4286 -2.9989 0.9690
-6.7049 2.8431 -2.9989 0.9690
-7.1028 1.6093 -2.9989 0.9690
-7.2179 0.9707 -2.9989 0.9690
-7.2756 0.3245 -2.9989 0.9690
-7.1028 -1.6093 -2.9989 0.9690
-6.9314 -2.2351 -2.9989 0.9690
-6.7049 -2.8431 -2.9989 0.9690
-6.4252 -3.4286 -2.9989 0.9690
-5.7154 -4.5134 -2.9989 0.9690
-4.8246 -5.4552 -2.9988 0.9690
-4.3198 -5.8629 -2.9988 0.9690
-3.7808 -6.2241 -2.9988 0.9690
-3.2118 -6.5358 -2.9987 0.9690
-1.3709 -7.1519 -2.9987 0.9690
-0.7289 -7.2455 -2.9986 0.9690
-0.0811 -7.2815 -2.9986 0.9690
0.5673 -7.2598 -2.9986 0.9690
4.7011 -5.5605 -2.9984 0.9690
6.0030 -4.1208 -2.9983 0.9690
6.3459 -3.5702 -2.9983 0.9690
6.6385 -2.9911 -2.9983 0.9690
6.8783 -2.3884 -2.9983 0.9690
7.0636 -1.7667 -2.9983 0.9690
7.2361 0.8095 -2.9983 0.9690
6.7652 2.6925 -2.9983 0.9690
6.4987 3.2840 -2.9983 0.9690
6.1807 3.8494 -2.9983 0.9690
8.2370 6.2118 -4.2482 0.9564
2.6272 6.3929 -2.8461 0.9705
2.0478 6.6014 -2.8461 0.9705
1.4521 6.7576 -2.8461 0.9705
0.8449 6.8601 -2.8462 0.9705
0.2310 6.9081 -2.8462 0.9705
-0.9975 6.8397 -2.8463 0.9705
-1.6024 6.7239 -2.8463 0.9705
-3.3219 6.0618 -2.8464 0.9705
-4.3442 5.3769 -2.8464 0.9705
-5.9109 4.2544 -2.9989 0.9690
-6.2661 3.7114 -2.9989 0.9690
-6.5716 3.1390 -2.9989 0.9690
-6.8249 2.5417 -2.9989 0.9690
-7.0241 1.9241 -2.9989 0.9690
-7.1675 1.2913 -2.9989 0.9690
-7.2540 0.6482 -2.9989 0.9690
-6.9523 0.0000 -2.9989 0.9702
-6.9247 -0.6188 -2.9989 0.9702
-6.7053 -1.8367 -2.9989 0.9702
-6.5151 -2.4262 -2.9989 0.9702
-6.2733 -2.9965 -2.9989 0.9702
-5.9817 -3.5429 -2.9989 0.9702
-5.2587 -4.5473 -2.9988 0.9702
-3.8703 -5.7749 -2.9988 0.9702
-3.3409 -6.0964 -2.9987 0.9702
-2.2070 -6.5921 -2.9987 0.9702
-1.6115 -6.7623 -2.9987 0.9702
0.2323 -6.9476 -2.9986 0.9702
1.4604 -6.7962 -2.9985 0.9702
4.2469 -5.5028 -2.9984 0.9702
5.1552 -4.6626 -2.9983 0.9702
5.9001 -3.6746 -2.9983 0.9702
6.2038 -3.1349 -2.9983 0.9702
6.4581 -2.5703 -2.9983 0.9702
6.6613 -1.9853 -2.9983 0.9702
6.9077 -0.7727 -2.9983 0.9702
6.9353 0.4643 -2.9983 0.9702
6.7431 1.6866 -2.9983 0.9702
6.3373 2.8554 -2.9983 0.9702
6.0580 3.4082 -2.9983 0.9702
7.0027 6.9251 -4.2483 0.9580
4.2597 5.0385 -2.8460 0.9717
3.2990 5.7140 -2.8461 0.9717
2.7773 5.9850 -2.8461 0.9717
1.6722 6.3827 -2.8461 0.9717
0.5140 6.5782 -2.8462 0.9717
-0.0735 6.5979 -2.8462 0.9717
-0.6605 6.5652 -2.8462 0.9717
-1.2422 6.4804 -2.8463 0.9717
-1.8141 6.3442 -2.8463 0.9717
-2.3716 6.1577 -2.8463 0.9717
-3.4258 5.6397 -2.8464 0.9717
-3.9142 5.3124 -2.8464 0.9717
-4.3715 4.9430 -2.8464 0.9717
-6.4006 2.7141 -2.9989 0.9702
-6.9454 -0.3097 -2.9989 0.9702
-6.8903 -0.9266 -2.9989 0.9702
-6.4006 -2.7141 -2.9989 0.9702
-4.6056 -5.2076 -2.9988 0.9702
-3.0660 -6.2392 -2.9987 0.9702
-2.4985 -6.4873 -2.9987 0.9702
-1.9112 -6.6838 -2.9987 0.9702
1.1562 -6.8546 -2.9985 0.9702
2.9260 -6.3053 -2.9985 0.9702
3.4756 -6.0199 -2.9984 0.9702
3.9975 -5.6865 -2.9984 0.9702
4.4878 -5.3082 -2.9984 0.9702
5.7306 -3.9338 -2.9983 0.9702
6.3372 -2.8554 -2.9983 0.9702
6.8664 -1.0797 -2.9983 0.9702
6.9353 -0.4642 -2.9983 0.9702
6.9491 0.1549 -2.9983 0.9702
6.9077 0.7727 -2.9983 0.9702
6.6613 1.9853 -2.9983 0.9702
6.4582 2.5703 -2.9983 0.9702
7.3042 6.6063 -4.2483 0.9580
3.5502 5.5613 -2.8460 0.9717
3.0412 5.8553 -2.8461 0.9717
1.9548 6.3019 -2.8461 0.9717
1.3862 6.4509 -2.8462 0.9717
0.8065 6.5487 -2.8462 0.9717
0.2205 6.5946 -2.8462 0.9717
-0.3674 6.5881 -2.8462 0.9717
-2.0949 6.2572 -2.8463 0.9717
-3.1712 5.7867 -2.8464 0.9717
-4.5924 4.7485 -2.8495 0.9716
-5.2587 4.5474 -2.9989 0.9702
-5.9817 3.5430 -2.9989 0.9702
-6.5152 2.4263 -2.9989 0.9702
-6.7053 1.8368 -2.9989 0.9702
-6.6199 -0.5915 -2.9989 0.9713
-6.5410 -1.1784 -2.9989 0.9713
-6.2284 -2.3195 -2.9989 0.9713
-5.9972 -2.8646 -2.9989 0.9713
-5.7184 -3.3870 -2.9989 0.9713
-5.0272 -4.3472 -2.9988 0.9713
-4.1767 -5.1696 -2.9988 0.9713
-3.1939 -5.8281 -2.9987 0.9713
-2.6625 -6.0892 -2.9987 0.9713
-0.9591 -6.5761 -2.9986 0.9713
-0.3700 -6.6353 -2.9986 0.9713
0.8123 -6.5956 -2.9986 0.9713
4.5121 -4.8783 -2.9984 0.9713
4.9283 -4.4574 -2.9984 0.9713
5.3055 -4.0010 -2.9983 0.9713
5.6405 -3.5129 -2.9983 0.9713
5.9307 -2.9969 -2.9983 0.9713
6.3681 -1.8979 -2.9983 0.9713
6.5117 -1.3236 -2.9983 0.9713
6.6432 -0.1480 -2.9983 0.9713
6.5642 1.0322 -2.9983 0.9713
6.4463 1.6124 -2.9983 0.9713
6.2773 2.1797 -2.9983 0.9713
6.6945 6.6204 -4.2483 0.9595
6.0788 7.1900 -4.2483 0.9595
3.6274 5.1601 -2.8460 0.9727
2.6551 5.7215 -2.8461 0.9727
-1.7342 6.0650 -2.8463 0.9727
-2.7821 5.6615 -2.8463 0.9727
-4.1931 4.7413 -2.8560 0.9726
-5.2159 4.1190 -2.9989 0.9713
-5.5618 3.6384 -2.9989 0.9713
-5.8636 3.1289 -2.9989 0.9713
-6.1189 2.5946 -2.9989 0.9713
-6.3255 2.0397 -2.9989 0.9713
-6.6397 -0.2961 -2.9989 0.9713
-5.8636 -3.1289 -2.9989 0.9713
-5.2159 -4.1189 -2.9988 0.9713
-4.8285 -4.5668 -2.9988 0.9713
-3.4504 -5.6801 -2.9988 0.9713
-2.9311 -5.9646 -2.9987 0.9713
-2.3886 -6.2017 -2.9987 0.9713
-0.0740 -6.6451 -2.9986 0.9713
0.5177 -6.6253 -2.9986 0.9713
1.1053 -6.5529 -2.9985 0.9713
1.6842 -6.4284 -2.9985 0.9713
2.2496 -6.2529 -2.9985 0.9713
2.7972 -6.0279 -2.9985 0.9713
3.8216 -5.4363 -2.9984 0.9713
4.2903 -5.0745 -2.9984 0.9713
4.7249 -4.6725 -2.9984 0.9713
5.1220 -4.2334 -2.9984 0.9713
5.4784 -3.7607 -2.9983 0.9713
5.7914 -3.2581 -2.9983 0.9713
6.0584 -2.7297 -2.9983 0.9713
6.5642 -1.0322 -2.9983 0.9713
6.6301 -0.4438 -2.9983 0.9713
6.6432 0.1481 -2.9983 0.9713
6.3681 1.8979 -2.9983 0.9713
5.6405 3.5130 -2.9983 0.9713
5.3055 4.0011 -2.9984 0.9713
6.9828 6.3155 -4.2483 0.9595
6.3930 6.9120 -4.2483 0.9595
3.8537 4.9933 -2.8460 0.9727
2.3976 5.8342 -2.8461 0.9727
1.3252 6.1670 -2.8462 0.9727
0.7711 6.2605 -2.8462 0.9727
0.2108 6.3043 -2.8462 0.9727
-0.3512 6.2981 -2.8462 0.9727
-0.9104 6.2420 -2.8463 0.9727
-1.4623 6.1362 -2.8463 0.9727
-2.0027 5.9817 -2.8463 0.9727
-2.5272 5.7798 -2.8463 0.9727
-3.5120 5.2402 -2.8464 0.9727
-3.9645 4.9069 -2.8464 0.9727
-5.0272 4.3472 -2.9989 0.9713
-5.3942 3.8825 -2.9989 0.9713
-6.5410 1.1784 -2.9989 0.9713
-6.6199 0.5916 -2.9989 0.9713
-6.3620 0.0000 -2.9989 0.9723
-6.1359 -1.6808 -2.9989 0.9723
-5.9620 -2.2202 -2.9989 0.9723
-4.8122 -4.1613 -2.9988 0.9723
-4.4227 -4.5730 -2.9988 0.9723
-3.5417 -5.2846 -2.9988 0.9723
-3.0573 -5.5788 -2.9987 0.9723
-2.5486 -5.8288 -2.9987 0.9723
-0.3542 -6.3515 -2.9986 0.9723
0.2126 -6.3578 -2.9986 0.9723
1.3364 -6.2192 -2.9985 0.9723
1.8847 -6.0755 -2.9985 0.9723
2.4179 -5.8836 -2.9985 0.9723
2.9320 -5.6450 -2.9985 0.9723
3.4228 -5.3616 -2.9984 0.9723
4.3191 -4.6697 -2.9984 0.9723
4.7176 -4.2668 -2.9984 0.9723
5.6771 -2.8688 -2.9983 0.9723
6.0958 -1.8168 -2.9983 0.9723
6.2333 -1.2670 -2.9983 0.9723
6.3465 0.4249 -2.9983 0.9723
6.1707 1.5434 -2.9983 0.9723
6.0088 2.0865 -2.9983 0.9723
5.7993 2.6131 -2.9983 0.9723
5.5437 3.1189 -2.9983 0.9723
6.4083 6.3373 -4.2483 0.9609
5.8188 6.8826 -4.2483 0.9609
3.4723 4.9394 -2.8460 0.9737
3.0189 5.2289 -2.8461 0.9737
2.0440 5.6814 -2.8461 0.9737
0.4704 6.0197 -2.8462 0.9737
-0.0673 6.0378 -2.8462 0.9737
-0.6044 6.0079 -2.8462 0.9737
-1.6601 5.8056 -2.8463 0.9737
-2.6631 5.4194 -2.8463 0.9737
-3.5819 4.8614 -2.8464 0.9737
-4.6220 4.3715 -2.9988 0.9723
-5.3239 3.4828 -2.9989 0.9723
-5.6128 2.9951 -2.9989 0.9723
-5.8572 2.4836 -2.9989 0.9723
-6.3053 0.8480 -2.9989 0.9723
-6.3052 -0.8480 -2.9989 0.9723
-6.2047 -1.4058 -2.9989 0.9723
-5.8571 -2.4836 -2.9989 0.9723
-5.6128 -2.9951 -2.9989 0.9723
-4.9928 -3.9428 -2.9988 0.9723
-4.6220 -4.3714 -2.9988 0.9723
-4.2146 -4.7655 -2.9988 0.9723
-3.7737 -5.1216 -2.9988 0.9723
-2.2864 -5.9365 -2.9987 0.9723
-0.0709 -6.3610 -2.9986 0.9723
0.4956 -6.3419 -2.9986 0.9723
2.1534 -5.9855 -2.9985 0.9723
2.6776 -5.7701 -2.9985 0.9723
3.1805 -5.5088 -2.9984 0.9723
3.6582 -5.2038 -2.9984 0.9723
4.1068 -4.8575 -2.9984 0.9723
4.5228 -4.4727 -2.9984 0.9723
4.9029 -4.0523 -2.9984 0.9723
5.5437 -3.1188 -2.9983 0.9723
6.0088 -2.0865 -2.9983 0.9723
6.1707 -1.5434 -2.9983 0.9723
6.3465 -0.4249 -2.9983 0.9723
6.3213 0.7072 -2.9983 0.9723
6.2333 1.2670 -2.9983 0.9723
5.6772 2.8688 -2.9983 0.9723
5.3993 3.3627 -2.9984 0.9723
6.6841 6.0455 -4.2483 0.9609
6.1196 6.6164 -4.2483 0.9609
5.5064 7.1349 -4.2484 0.9609
2.7830 5.3582 -2.8461 0.9737
1.7889 5.7669 -2.8461 0.9737
1.2685 5.9032 -2.8462 0.9737
0.7381 5.9928 -2.8462 0.9737
-0.3362 6.0288 -2.8462 0.9737
-1.3998 5.8737 -2.8463 0.9737
-3.3618 5.0161 -2.8464 0.9737
-3.8244 4.7336 -2.8686 0.9734
-4.4227 4.5730 -2.9988 0.9723
-4.8122 4.1613 -2.9988 0.9723
-5.1635 3.7165 -2.9989 0.9723
-5.7407 2.7421 -2.9989 0.9723
-6.1360 1.6809 -2.9989 0.9723
-6.3368 0.5663 -2.9989 0.9723
-6.0971 0.0000 -2.9989 0.9732
-6.0005 -1.0810 -2.9989 0.9732
-5.8805 -1.6108 -2.9989 0.9732
-5.7137 -2.1278 -2.9989 0.9732
-5.2459 -3.1071 -2.9988 0.9732
-4.9485 -3.5617 -2.9988 0.9732
-3.3943 -5.0646 -2.9988 0.9732
-2.4425 -5.5861 -2.9987 0.9732
-1.9356 -5.7812 -2.9987 0.9732
-0.8799 -6.0328 -2.9986 0.9732
-0.3394 -6.0871 -2.9986 0.9732
0.2037 -6.0931 -2.9986 0.9732
0.7452 -6.0507 -2.9986 0.9732
1.2808 -5.9603 -2.9985 0.9732
1.8062 -5.8226 -2.9985 0.9732
2.3172 -5.6387 -2.9985 0.9732
3.2803 -5.1384 -2.9984 0.9732
3.7246 -4.8260 -2.9984 0.9732
4.1393 -4.4753 -2.9984 0.9732
4.5212 -4.0891 -2.9984 0.9732
4.8672 -3.6705 -2.9984 0.9732
5.1745 -3.2227 -2.9984 0.9732
5.4408 -2.7494 -2.9983 0.9732
6.0944 -0.1358 -2.9983 0.9732
6.0823 0.4072 -2.9983 0.9732
5.3129 2.9890 -2.9984 0.9732
6.1415 6.0735 -4.2483 0.9622
4.9674 7.0662 -4.2484 0.9622
2.8932 5.0112 -2.8461 0.9745
2.4357 5.2489 -2.8461 0.9745
0.9625 5.7060 -2.8462 0.9745
-1.5909 5.5639 -2.8463 0.9745
-2.0799 5.4003 -2.8463 0.9745
-2.5523 5.1937 -2.8463 0.9745
-3.0044 4.9460 -2.8464 0.9745
-3.4844 4.7291 -2.8892 0.9742
-4.0391 4.5671 -2.9988 0.9732
-4.7849 3.7786 -2.9988 0.9732
-5.1023 3.3378 -2.9989 0.9732
-5.6133 2.3802 -2.9989 0.9732
-5.8029 1.8712 -2.9989 0.9732
-5.9464 1.3473 -2.9989 0.9732
-6.0911 0.2716 -2.9989 0.9732
-5.8029 -1.8712 -2.9989 0.9732
-5.6133 -2.3802 -2.9989 0.9732
-5.3791 -2.8704 -2.9989 0.9732
-4.0391 -4.5671 -2.9988 0.9732
-2.1912 -5.6893 -2.9987 0.9732
-1.6761 -5.8617 -2.9987 0.9732
-0.0679 -6.0961 -2.9986 0.9732
0.4749 -6.0779 -2.9986 0.9732
1.0140 -6.0115 -2.9985 0.9732
1.5450 -5.8973 -2.9985 0.9732
2.0638 -5.7363 -2.9985 0.9732
2.5661 -5.5299 -2.9985 0.9732
3.0481 -5.2795 -2.9984 0.9732
3.9358 -4.6553 -2.9984 0.9732
4.6988 -3.8837 -2.9984 0.9732
5.7587 -1.9996 -2.9983 0.9732
6.0219 -0.9469 -2.9983 0.9732
6.0823 -0.4071 -2.9983 0.9732
6.0944 0.1358 -2.9983 0.9732
6.0582 0.6777 -2.9983 0.9732
4.8672 3.6705 -2.9984 0.9732
4.5212 4.0892 -2.9984 0.9732
5.8648 6.3410 -4.2483 0.9622
5.2772 6.8379 -4.2484 0.9622
4.6477 7.2805 -4.2484 0.9622
2.6671 5.1352 -2.8461 0.9745
2.1995 5.3522 -2.8461 0.9745
1.7144 5.5268 -2.8461 0.9745
1.2157 5.6575 -2.8462 0.9745
0.1934 5.7835 -2.8462 0.9745
-1.8372 5.4875 -2.8463 0.9745
-2.7811 5.0749 -2.8463 0.9745
-3.2218 4.8072 -2.8464 0.9745
-4.2386 4.3827 -2.9988 0.9732
-4.9485 3.5618 -2.9988 0.9732
-5.2459 3.1072 -2.9989 0.9732
-5.5017 2.6279 -2.9989 0.9732
-5.8805 1.6108 -2.9989 0.9732
-6.0005 1.0811 -2.9989 0.9732
-6.0729 0.5427 -2.9989 0.9732
-5.8495 0.0000 -2.9989 0.9740
-5.8263 -0.5206 -2.9989 0.9740
-5.6417 -1.5454 -2.9989 0.9740
-5.4817 -2.0414 -2.9989 0.9740
-5.2782 -2.5212 -2.9988 0.9740
-4.4245 -3.8261 -2.9988 0.9740
-3.2565 -4.8590 -2.9987 0.9740
-1.8570 -5.5465 -2.9987 0.9741
-1.3559 -5.6897 -2.9987 0.9741
-0.8441 -5.7878 -2.9986 0.9741
0.7150 -5.8050 -2.9986 0.9741
1.2288 -5.7183 -2.9985 0.9741
2.2232 -5.4098 -2.9985 0.9741
3.9712 -4.2937 -2.9984 0.9741
4.6696 -3.5215 -2.9984 0.9741
4.9644 -3.0919 -2.9984 0.9741
5.4339 -2.1627 -2.9983 0.9741
5.7313 -1.1649 -2.9983 0.9741
5.8122 -0.6502 -2.9983 0.9741
5.7775 0.9085 -2.9983 0.9741
5.3322 2.4026 -2.9984 0.9741
4.5081 3.7261 -2.9984 0.9741
4.1586 4.1125 -2.9984 0.9741
5.3502 6.3282 -4.2484 0.9634
4.1435 7.1766 -4.2484 0.9634
2.3368 5.0358 -2.8461 0.9754
1.8794 5.2238 -2.8461 0.9754
1.4070 5.3704 -2.8461 0.9754
0.4325 5.5349 -2.8462 0.9754
-0.0619 5.5514 -2.8462 0.9754
-0.5557 5.5239 -2.8462 0.9754
-1.0452 5.4526 -2.8463 0.9754
-1.9954 5.1810 -2.8463 0.9754
-3.4695 4.7088 -2.9986 0.9741
-3.8751 4.3816 -2.9988 0.9740
-4.2497 4.0194 -2.9988 0.9740
-4.5906 3.6252 -2.9988 0.9740
-5.1607 2.7539 -2.9989 0.9740
-5.3853 2.2836 -2.9989 0.9740
-5.5672 1.7952 -2.9989 0.9740
-5.7049 1.2926 -2.9989 0.9740
-5.8437 0.2606 -2.9989 0.9740
-5.8437 -0.2605 -2.9989 0.9740
-5.7973 -0.7796 -2.9989 0.9740
-5.3853 -2.2836 -2.9989 0.9740
-4.2497 -4.0193 -2.9988 0.9740
-3.8751 -4.3816 -2.9988 0.9740
-3.4697 -4.7091 -2.9988 0.9740
-2.5797 -5.2496 -2.9987 0.9741
-0.5855 -5.8196 -2.9986 0.9741
2.4619 -5.3053 -2.9985 0.9741
3.3635 -4.7847 -2.9984 0.9741
3.7760 -4.4663 -2.9984 0.9741
4.1586 -4.1125 -2.9984 0.9741
4.8218 -3.3100 -2.9984 0.9741
5.5249 -1.9185 -2.9983 0.9741
5.7775 -0.9085 -2.9983 0.9741
5.8470 0.1303 -2.9983 0.9741
5.8122 0.6502 -2.9983 0.9741
5.7313 1.1650 -2.9983 0.9741
5.4340 2.1627 -2.9984 0.9741
5.6268 6.0836 -4.2484 0.9634
5.0630 6.5603 -4.2484 0.9634
2.1102 5.1349 -2.8461 0.9754
1.6448 5.3024 -2.8461 0.9754
-0.3091 5.5432 -2.8462 0.9754
-0.8012 5.4937 -2.8463 0.9754
-1.2870 5.4006 -2.8463 0.9754
-2.2242 5.0870 -2.8463 0.9754
-2.6682 4.8689 -2.8463 0.9754
-3.1657 4.7236 -2.9152 0.9748
-4.0664 4.2047 -2.9988 0.9740
-5.0329 2.9810 -2.9988 0.9740
-5.4817 2.0414 -2.9989 0.9740
-5.6417 1.5454 -2.9989 0.9740
-5.8263 0.5206 -2.9989 0.9740
-5.5952 -0.5000 -2.9989 0.9749
-5.2643 -1.9604 -2.9988 0.9749
-5.0689 -2.4212 -2.9988 0.9749
-4.5592 -3.2815 -2.9988 0.9749
-3.9051 -4.0379 -2.9988 0.9749
-3.1273 -4.6662 -2.9987 0.9749
-2.6995 -4.9260 -2.9987 0.9749
-2.2504 -5.1467 -2.9987 0.9749
-0.8107 -5.5583 -2.9986 0.9749
-0.3127 -5.6083 -2.9986 0.9749
1.6641 -5.3646 -2.9985 0.9749
2.5889 -4.9845 -2.9985 0.9749
3.0223 -4.7343 -2.9985 0.9749
4.1656 -3.7675 -2.9984 0.9749
4.7675 -2.9692 -2.9984 0.9749
5.0129 -2.5331 -2.9984 0.9749
5.2184 -2.0769 -2.9984 0.9749
5.5483 0.8724 -2.9983 0.9749
5.4487 1.3628 -2.9983 0.9749
4.8951 2.7539 -2.9984 0.9749
4.3293 3.5783 -2.9984 0.9749
5.1380 6.0772 -4.2484 0.9646
4.5767 6.5104 -4.2484 0.9646
1.8048 5.0166 -2.8461 0.9761
0.8868 5.2572 -2.8462 0.9761
-0.0594 5.3312 -2.8462 0.9761
-1.0037 5.2363 -2.8463 0.9761
-1.9162 4.9755 -2.8463 0.9761
-2.3517 4.7852 -2.8463 0.9761
-2.8655 4.7173 -2.9465 0.9753
-3.3321 4.5224 -2.9988 0.9749
-3.7214 4.2079 -2.9988 0.9749
-4.4085 3.4814 -2.9988 0.9749
-4.7009 3.0752 -2.9988 0.9749
-4.9560 2.6446 -2.9988 0.9749
-5.1717 2.1930 -2.9989 0.9749
-5.3464 1.7240 -2.9989 0.9749
-5.5674 0.7487 -2.9989 0.9749
-5.6119 0.2503 -2.9989 0.9749
-5.6119 -0.2502 -2.9989 0.9749
-5.4786 -1.2413 -2.9989 0.9749
-5.1717 -2.1930 -2.9988 0.9749
-4.9560 -2.6446 -2.9988 0.9749
-4.7009 -3.0752 -2.9988 0.9749
-4.4085 -3.4813 -2.9988 0.9749
-3.7214 -4.2078 -2.9988 0.9749
-2.9163 -4.8009 -2.9987 0.9749
-2.0189 -5.2418 -2.9987 0.9749
-0.5622 -5.5888 -2.9986 0.9749
-0.0626 -5.6167 -2.9986 0.9749
1.4235 -5.4335 -2.9985 0.9749
1.9015 -5.2852 -2.9985 0.9749
2.3643 -5.0949 -2.9985 0.9749
2.8084 -4.8642 -2.9985 0.9749
3.2301 -4.5949 -2.9984 0.9749
4.6305 -3.1787 -2.9984 0.9749
4.8951 -2.7539 -2.9984 0.9749
5.4487 -1.3628 -2.9983 0.9749
5.5483 -0.8724 -2.9983 0.9749
5.6040 -0.3751 -2.9983 0.9749
5.6151 0.1252 -2.9983 0.9749
5.5817 0.6244 -2.9983 0.9749
5.3826 1.6042 -2.9984 0.9749
5.2184 2.0769 -2.9984 0.9749
5.0129 2.5331 -2.9984 0.9749
4.7676 2.9693 -2.9984 0.9749
4.8622 6.3001 -4.2484 0.9646
4.2822 6.7079 -4.2484 0.9646
2.0265 4.9312 -2.8461 0.9761
0.6517 5.2915 -2.8462 0.9761
0.1782 5.3286 -2.8462 0.9761
-0.2968 5.3233 -2.8462 0.9761
-3.1273 4.6663 -2.9988 0.9749
-3.5302 4.3695 -2.9988 0.9749
-4.2491 3.6743 -2.9988 0.9749
-4.5593 3.2816 -2.9988 0.9749
-4.8333 2.8628 -2.9988 0.9749
-5.0689 2.4212 -2.9988 0.9749
-5.4179 1.4841 -2.9989 0.9749
-5.3781 -0.4806 -2.9989 0.9756
-5.3139 -0.9574 -2.9989 0.9756
-5.2076 -1.4265 -2.9988 0.9756
-4.8722 -2.3272 -2.9988 0.9756
-4.6457 -2.7516 -2.9988 0.9756
-4.3823 -3.1542 -2.9988 0.9756
-4.0842 -3.5317 -2.9988 0.9756
-3.0059 -4.4851 -2.9987 0.9756
-2.5948 -4.7349 -2.9987 0.9756
-2.1630 -4.9470 -2.9987 0.9756
-0.7792 -5.3425 -2.9986 0.9756
-0.3006 -5.3906 -2.9986 0.9756
0.1804 -5.3960 -2.9986 0.9756
1.1343 -5.2784 -2.9985 0.9756
2.4884 -4.7911 -2.9985 0.9756
2.9050 -4.5506 -2.9985 0.9756
3.6658 -3.9633 -2.9984 0.9756
4.0039 -3.6213 -2.9984 0.9756
4.8184 -2.4348 -2.9984 0.9756
5.1737 -1.5419 -2.9984 0.9756
5.2904 -1.0753 -2.9984 0.9756
5.0999 1.7709 -2.9984 0.9756
4.9221 2.2178 -2.9984 0.9756
4.4509 3.0554 -2.9984 0.9756
4.3991 6.2578 -4.2484 0.9656
3.8247 6.6246 -4.2484 0.9656
3.2199 6.9388 -4.2485 0.9656
0.3992 5.1091 -2.8462 0.9768
-0.5130 5.0990 -2.8462 0.9768
-1.8417 4.7824 -2.8463 0.9768
-2.3199 4.7208 -2.9214 0.9762
-3.2028 4.3469 -2.9988 0.9756
-4.2375 3.3463 -2.9988 0.9756
-4.7637 2.5420 -2.9988 0.9756
-4.9710 2.1079 -2.9988 0.9756
-5.1389 1.6571 -2.9989 0.9756
-5.2660 1.1932 -2.9989 0.9756
-5.3513 0.7197 -2.9989 0.9756
-5.3941 0.2405 -2.9989 0.9756
-5.3513 -0.7197 -2.9989 0.9756
-5.1389 -1.6571 -2.9988 0.9756
-4.7636 -2.5420 -2.9988 0.9756
-4.5185 -2.9558 -2.9988 0.9756
-3.9228 -3.7101 -2.9988 0.9756
-3.5770 -4.0445 -2.9988 0.9756
-2.3813 -4.8457 -2.9987 0.9756
-1.9405 -5.0384 -2.9987 0.9756
-1.4844 -5.1911 -2.9987 0.9756
-1.0164 -5.3026 -2.9986 0.9756
-0.0601 -5.3987 -2.9986 0.9756
1.8277 -5.0801 -2.9985 0.9756
2.6994 -4.6755 -2.9985 0.9756
3.4856 -4.1227 -2.9984 0.9756
4.1613 -3.4394 -2.9984 0.9756
4.4509 -3.0553 -2.9984 0.9756
4.9220 -2.2177 -2.9984 0.9756
5.0999 -1.7708 -2.9984 0.9756
5.3651 0.6002 -2.9984 0.9756
5.1737 1.5420 -2.9984 0.9756
4.8184 2.4349 -2.9984 0.9756
4.5826 2.8541 -2.9984 0.9756
4.6735 6.0556 -4.2484 0.9656
4.1160 6.4476 -4.2484 0.9656
3.5258 6.7884 -4.2485 0.9656
2.9077 7.0753 -4.2485 0.9656
1.5183 4.8945 -2.8461 0.9768
0.6264 5.0862 -2.8462 0.9768
0.1712 5.1218 -2.8462 0.9768
-0.7396 5.0711 -2.8462 0.9768
-2.0683 4.7304 -2.8674 0.9767
-3.3932 4.1999 -2.9988 0.9756
-3.7536 3.8812 -2.9988 0.9756
-5.1942 0.0000 -2.9989 0.9763
-5.1735 -0.4623 -2.9988 0.9763
-5.1119 -0.9209 -2.9988 0.9763
-5.0096 -1.3723 -2.9988 0.9763
-4.8676 -1.8127 -2.9988 0.9763
-4.6869 -2.2387 -2.9988 0.9763
-4.2157 -3.0342 -2.9988 0.9763
-3.9288 -3.3974 -2.9988 0.9763
-3.6108 -3.7336 -2.9988 0.9763
-2.8916 -4.3146 -2.9987 0.9763
-2.4961 -4.5548 -2.9987 0.9763
-2.0808 -4.7588 -2.9987 0.9763
-1.6489 -4.9251 -2.9987 0.9763
-0.2892 -5.1857 -2.9986 0.9763
0.1735 -5.1908 -2.9986 0.9763
0.6349 -5.1547 -2.9986 0.9763
1.0911 -5.0777 -2.9985 0.9763
1.5387 -4.9604 -2.9985 0.9763
1.9741 -4.8037 -2.9985 0.9763
2.3938 -4.6089 -2.9985 0.9763
3.5264 -3.8127 -2.9984 0.9763
4.4083 -2.7455 -2.9984 0.9763
5.0893 -1.0344 -2.9984 0.9763
5.1611 -0.5773 -2.9984 0.9763
5.1920 -0.1157 -2.9984 0.9763
5.1303 0.8067 -2.9984 0.9763
5.0381 1.2601 -2.9984 0.9763
4.7349 2.1335 -2.9984 0.9763
4.5262 2.5464 -2.9984 0.9763
4.0031 3.3086 -2.9984 0.9763
3.6927 3.6518 -2.9984 0.9763
3.3531 3.9660 -2.9985 0.9763
3.6793 6.3727 -4.2484 0.9666
3.0975 6.6749 -4.2485 0.9666
2.4911 6.9241 -4.2485 0.9666
1.8649 7.1184 -4.2485 0.9666
0.3840 4.9148 -2.8462 0.9775
-0.4934 4.9051 -2.8462 0.9775
-1.3563 4.7433 -2.8483 0.9775
-1.8179 4.7201 -2.9203 0.9769
-2.6966 4.4392 -2.9987 0.9763
-3.0810 4.1815 -2.9988 0.9763
-3.7736 3.5691 -2.9988 0.9763
-4.3467 2.8435 -2.9988 0.9763
-4.7820 2.0277 -2.9988 0.9763
-5.1478 0.6923 -2.9988 0.9763
-5.1890 -0.2314 -2.9988 0.9763
-4.5825 -2.4453 -2.9988 0.9763
-4.3466 -2.8434 -2.9988 0.9763
-3.4409 -3.8907 -2.9988 0.9763
-3.0810 -4.1815 -2.9987 0.9763
