ply
format ascii 1.0
element vertex 1586
property float32 x
property float32 y
property float32 z
property float32 I
end_header
0.8516 -5.0486 0.0426 0.9797
1.4023 -5.3525 0.0460 0.9781
9.4893 7.1562 0.0988 0.9536
-1.3487 -5.6594 -0.0484 0.9770
0.6129 -4.9764 -0.0417 0.9801
1.1099 -5.1649 -0.0439 0.9791
1.7795 -5.7366 -0.0499 0.9763
-1.0244 -5.3445 -0.0452 0.9785
-0.5087 -5.0564 -0.0422 0.9799
-0.0551 -4.9495 -0.0411 0.9804
0.8516 -5.0489 -0.0426 0.9797
1.4024 -5.3530 -0.0460 0.9781
9.4887 7.1558 -0.0988 0.9536
-1.3538 -5.6807 -0.1456 0.9769
-0.2785 -4.9950 -0.1248 0.9802
0.1650 -4.9359 -0.1232 0.9804
0.6140 -4.9853 -0.1253 0.9801
-1.0271 -5.3581 -0.1361 0.9784
0.3871 -4.9541 -0.1239 0.9803
0.8532 -5.0581 -0.1279 0.9797
9.4881 7.1553 -0.2964 0.9536
-1.3589 -5.7021 -0.2437 0.9768
-0.2790 -5.0037 -0.2084 0.9801
1.1146 -5.1871 -0.2206 0.9790
-0.5105 -5.0744 -0.2121 0.9798
-0.0553 -4.9658 -0.2065 0.9803
0.3878 -4.9624 -0.2070 0.9803
1.4103 -5.3829 -0.2314 0.9780
9.4876 7.1549 -0.4941 0.9535
-0.7588 -5.2030 -0.3062 0.9792
-0.2795 -5.0125 -0.2924 0.9801
0.6162 -5.0032 -0.2936 0.9800
1.1170 -5.1983 -0.3097 0.9789
1.8029 -5.8121 -0.3544 0.9759
-1.0324 -5.3858 -0.3194 0.9783
-0.5114 -5.0834 -0.2976 0.9797
0.8563 -5.0767 -0.2999 0.9796
-0.7606 -5.2152 -0.3950 0.9791
-0.2800 -5.0213 -0.3769 0.9800
0.1658 -4.9603 -0.3719 0.9803
0.6173 -5.0122 -0.3785 0.9799
1.1201 -5.2124 -0.3995 0.9788
1.8371 -5.9224 -0.4647 0.9754
-1.0365 -5.4072 -0.4126 0.9782
-0.5123 -5.0925 -0.3836 0.9797
1.4210 -5.4241 -0.4202 0.9778
9.4864 7.1540 -0.8904 0.9535
-1.3923 -5.8422 -0.5506 0.9762
-0.7656 -5.2492 -0.4863 0.9789
-0.2814 -5.0465 -0.4634 0.9799
0.1666 -4.9826 -0.4570 0.9802
0.6205 -5.0385 -0.4654 0.9798
1.1278 -5.2482 -0.4921 0.9787
-1.0450 -5.4519 -0.5089 0.9779
0.3909 -5.0022 -0.4600 0.9800
-0.7706 -5.2836 -0.5792 0.9787
-0.2830 -5.0747 -0.5513 0.9798
0.1675 -5.0088 -0.5436 0.9800
0.6241 -5.0674 -0.5538 0.9797
1.1356 -5.2846 -0.5863 0.9785
-1.0538 -5.4974 -0.6071 0.9777
-0.5180 -5.1492 -0.5613 0.9794
0.3930 -5.0288 -0.5471 0.9799
0.8679 -5.1452 -0.5660 0.9792
1.4470 -5.5230 -0.6193 0.9773
9.4852 7.1531 -1.2886 0.9533
-0.7757 -5.3187 -0.6736 0.9786
0.6277 -5.0968 -0.6435 0.9795
-0.5210 -5.1788 -0.6523 0.9792
-0.0564 -5.0582 -0.6339 0.9798
0.8730 -5.1757 -0.6578 0.9791
1.4604 -5.5741 -0.7221 0.9770
9.4847 7.1527 -1.4887 0.9532
-0.7812 -5.3561 -0.7699 0.9784
0.1693 -5.0622 -0.7204 0.9797
0.6314 -5.1267 -0.7347 0.9793
1.1528 -5.3646 -0.7805 0.9781
-1.0753 -5.6096 -0.8124 0.9772
-0.5240 -5.2088 -0.7446 0.9791
0.3972 -5.0833 -0.7252 0.9796
0.8783 -5.2067 -0.7510 0.9789
9.4841 7.1523 -1.6896 0.9531
-0.2887 -5.1779 -0.8258 0.9792
-1.0965 -5.7205 -0.9275 0.9767
-0.5297 -5.2656 -0.8427 0.9788
0.4004 -5.1245 -0.8185 0.9794
0.8881 -5.2652 -0.8503 0.9786
1.5247 -5.8196 -0.9580 0.9759
-0.8023 -5.5012 -0.9803 0.9777
-0.2918 -5.2336 -0.9243 0.9789
0.1723 -5.1527 -0.9091 0.9793
-0.5363 -5.3307 -0.9447 0.9785
-0.0577 -5.1775 -0.9130 0.9792
0.4045 -5.1768 -0.9156 0.9791
-0.2950 -5.2908 -1.0255 0.9786
0.1740 -5.2054 -1.0079 0.9790
0.6516 -5.2908 -1.0316 0.9785
1.2091 -5.6265 -1.1137 0.9768
13.3927 6.0345 -2.8427 0.9419
12.8031 7.2029 -2.8428 0.9419
10.4475 10.3318 -2.8434 0.9419
9.4873 11.2217 -2.8437 0.9419
7.3488 12.7285 -2.8442 0.9419
6.1874 13.3335 -2.8445 0.9419
3.7261 14.2225 -2.8452 0.9419
-0.1638 14.7069 -2.8462 0.9418
-1.4724 14.6357 -2.8466 0.9418
-8.7312 11.8502 -2.8485 0.9418
-9.7522 11.0270 -2.8487 0.9418
-10.6959 10.1161 -2.8490 0.9418
-12.3219 8.0606 -2.8494 0.9418
-0.0583 -5.2306 -1.0123 0.9789
0.4087 -5.2305 -1.0153 0.9789
0.9117 -5.4047 -1.0607 0.9779
13.6479 5.4318 -2.8426 0.9419
13.1109 6.6253 -2.8427 0.9419
12.4699 7.7664 -2.8429 0.9419
9.3934 7.0839 -2.2768 0.9532
8.9784 11.6337 -2.8438 0.9419
7.9081 12.3879 -2.8441 0.9419
6.7748 13.0439 -2.8444 0.9419
5.5876 13.5966 -2.8447 0.9419
4.3557 14.0416 -2.8450 0.9419
3.0890 14.3752 -2.8454 0.9419
-2.1230 14.5564 -2.8467 0.9418
-3.4106 14.3114 -2.8471 0.9418
-4.6714 13.9527 -2.8474 0.9418
-5.8953 13.4830 -2.8477 0.9418
-7.0728 12.9062 -2.8480 0.9418
-8.1943 12.2267 -2.8483 0.9418
-9.2509 11.4500 -2.8486 0.9418
-10.2342 10.5821 -2.8489 0.9418
-11.1364 9.6300 -2.8491 0.9418
-11.9502 8.6012 -2.8493 0.9418
-13.2876 6.3469 -2.8497 0.9418
-14.2412 0.0000 -3.0023 0.9434
-14.1846 -1.2675 -3.0023 0.9434
-13.7346 -3.7623 -3.0022 0.9434
-13.3448 -4.9696 -3.0021 0.9434
-8.9458 -11.0724 -3.0009 0.9435
-7.9241 -11.8236 -3.0007 0.9435
-6.8397 -12.4808 -3.0004 0.9435
-5.7011 -13.0387 -3.0001 0.9435
-4.5175 -13.4930 -2.9998 0.9435
-0.8368 -5.7376 -1.2224 0.9766
0.6604 -5.3619 -1.1389 0.9782
1.2470 -5.8030 -1.2513 0.9760
4.2125 -13.5799 -2.9975 0.9435
7.6483 -11.9809 -2.9966 0.9435
8.6835 -11.2516 -2.9963 0.9436
10.5392 -9.5321 -2.9958 0.9436
11.3450 -8.5556 -2.9956 0.9436
12.0607 -7.5114 -2.9954 0.9436
12.6807 -6.4078 -2.9953 0.9436
13.6148 -4.0576 -2.9950 0.9436
13.9215 -2.8296 -2.9949 0.9436
14.1179 -1.5793 -2.9949 0.9436
14.2023 -0.3165 -2.9949 0.9436
14.1741 0.9489 -2.9949 0.9436
13.7818 3.4471 -2.9950 0.9436
12.2948 5.5398 -2.8430 0.9464
11.1190 7.6328 -2.8433 0.9464
9.5909 9.4846 -2.8437 0.9464
6.7461 11.6845 -2.8444 0.9463
5.6799 12.2398 -2.8447 0.9463
3.4204 13.0557 -2.8453 0.9463
2.2451 13.3097 -2.8456 0.9463
1.0516 13.4582 -2.8459 0.9463
-1.3515 13.4344 -2.8465 0.9463
-2.5421 13.2622 -2.8468 0.9463
-4.8543 12.6041 -2.8474 0.9463
-8.0141 10.8769 -2.8483 0.9463
-9.8173 9.2852 -2.8487 0.9463
-10.6056 8.3751 -2.8490 0.9463
-14.1139 1.8982 -3.0023 0.9434
-14.2270 -0.6344 -3.0023 0.9434
-12.5625 -6.7035 -3.0019 0.9435
-11.9153 -7.7946 -3.0017 0.9435
-11.1735 -8.8236 -3.0015 0.9435
-10.3431 -9.7824 -3.0013 0.9435
-8.4433 -11.4594 -3.0008 0.9435
-7.3892 -12.1643 -3.0005 0.9435
-6.2766 -12.7724 -3.0003 0.9435
-5.1143 -13.2791 -2.9999 0.9435
-2.6783 -13.9725 -2.9993 0.9435
-0.5521 -5.4878 -1.1628 0.9777
-0.0589 -5.2868 -1.1146 0.9786
0.9287 -5.5059 -1.1771 0.9774
5.9840 -12.8953 -2.9970 0.9435
8.1741 -11.6278 -2.9965 0.9436
9.1757 -10.8531 -2.9962 0.9436
10.1045 -9.9925 -2.9960 0.9436
11.7144 -8.0415 -2.9955 0.9436
12.3830 -6.9665 -2.9954 0.9436
14.0336 -2.2066 -2.9949 0.9436
13.9215 2.8297 -2.9949 0.9436
9.3677 7.0645 -2.4735 0.9532
10.0035 9.0476 -2.8436 0.9464
6.2192 11.9740 -2.8445 0.9463
5.1292 12.4813 -2.8448 0.9463
-3.1306 13.1365 -2.8470 0.9463
-4.2878 12.8071 -2.8473 0.9463
-5.4113 12.3759 -2.8476 0.9463
-6.4920 11.8464 -2.8479 0.9463
-7.5213 11.2226 -2.8481 0.9463
-8.4911 10.5096 -2.8484 0.9463
-11.6283 6.8875 -2.8492 0.9463
-12.7784 4.7587 -2.8747 0.9458
-12.9442 -2.3320 -3.0020 0.9475
-12.6850 -3.4748 -3.0019 0.9475
-12.3250 -4.5898 -3.0018 0.9475
-11.8671 -5.6684 -3.0017 0.9475
-11.3149 -6.7018 -3.0016 0.9475
-10.6729 -7.6819 -3.0014 0.9475
-9.9462 -8.6008 -3.0012 0.9475
-6.3172 -11.5275 -3.0003 0.9475
-5.2657 -12.0429 -3.0000 0.9475
-4.1725 -12.4626 -2.9997 0.9475
-3.0464 -12.7832 -2.9994 0.9475
-0.8630 -5.9173 -1.3649 0.9758
0.1789 -5.3516 -1.2222 0.9783
0.6733 -5.4667 -1.2572 0.9777
3.8911 -12.5436 -2.9976 0.9475
7.0648 -11.0668 -2.9968 0.9476
9.7353 -8.8051 -2.9960 0.9476
10.4797 -7.9031 -2.9959 0.9476
11.7137 -5.9191 -2.9955 0.9476
12.5766 -3.7482 -2.9953 0.9476
13.0414 -1.4589 -2.9952 0.9476
13.1194 -0.2923 -2.9952 0.9476
13.0933 0.8765 -2.9952 0.9476
12.9635 2.0385 -2.9952 0.9476
12.7309 3.1842 -2.9952 0.9476
10.8572 6.1082 -2.8433 0.9502
10.2710 7.0507 -2.8435 0.9502
8.8593 8.7612 -2.8439 0.9502
8.0450 9.5156 -2.8441 0.9502
7.1667 10.1947 -2.8443 0.9502
3.1594 12.0593 -2.8453 0.9501
2.0737 12.2938 -2.8456 0.9501
-0.1389 12.4693 -2.8462 0.9501
-4.4836 11.6415 -2.8473 0.9501
-5.5025 11.1973 -2.8476 0.9501
-6.4779 10.6640 -2.8479 0.9501
-7.4019 10.0460 -2.8481 0.9501
-8.2674 9.3481 -2.8483 0.9501
-10.4454 6.8331 -2.8489 0.9501
-11.4926 4.8733 -2.8492 0.9501
-12.8273 -2.9062 -3.0020 0.9475
-11.6025 -6.1912 -3.0016 0.9475
-9.5528 -9.0350 -3.0011 0.9475
-8.7101 -9.8487 -3.0009 0.9475
-7.7984 -10.5840 -3.0006 0.9475
-4.7238 -12.2649 -2.9998 0.9475
-0.0599 -5.3799 -1.2280 0.9782
3.3286 -12.7051 -2.9977 0.9475
4.4457 -12.3573 -2.9974 0.9475
6.5651 -11.3711 -2.9969 0.9476
7.5505 -10.7407 -2.9966 0.9476
8.4758 -10.0252 -2.9964 0.9476
11.4386 -6.4353 -2.9956 0.9476
11.9654 -5.3913 -2.9955 0.9476
13.0933 -0.8765 -2.9952 0.9476
12.5765 3.7482 -2.9953 0.9476
11.1183 5.6183 -2.8433 0.9502
9.2405 8.3575 -2.8438 0.9502
8.4606 9.1475 -2.8440 0.9502
6.7057 10.5043 -2.8444 0.9502
5.7447 11.0604 -2.8447 0.9502
4.7379 11.5289 -2.8449 0.9501
3.6933 11.9060 -2.8452 0.9501
1.5241 12.3747 -2.8458 0.9501
0.4167 12.4625 -2.8461 0.9501
-0.6943 12.4514 -2.8464 0.9501
-2.8915 12.1334 -2.8469 0.9501
-4.9980 11.4308 -2.8475 0.9501
-5.9961 10.9415 -2.8477 0.9501
-6.9468 10.3654 -2.8480 0.9501
-10.1304 7.2914 -2.8488 0.9501
-11.2639 5.3803 -2.8491 0.9501
-12.6849 3.4748 -3.0019 0.9475
-12.2123 0.0000 -3.0018 0.9509
-12.0187 -2.1653 -3.0017 0.9509
-11.4438 -4.2617 -3.0016 0.9509
-9.9099 -7.1327 -3.0012 0.9510
-6.7958 -10.1399 -3.0004 0.9510
-4.8894 -11.1823 -2.9999 0.9510
-1.7609 -12.0735 -2.9991 0.9510
-0.3103 -5.5643 -1.3698 0.9773
0.6868 -5.5765 -1.3811 0.9771
2.5624 -11.9244 -2.9979 0.9510
4.6352 -11.2791 -2.9974 0.9510
5.6202 -10.8208 -2.9971 0.9510
7.4486 -9.6514 -2.9966 0.9510
8.2774 -8.9495 -2.9964 0.9510
10.3459 -6.4435 -2.9959 0.9510
12.1109 -1.3548 -2.9954 0.9510
12.0385 1.8930 -2.9954 0.9510
10.0824 5.6723 -2.8435 0.9535
9.5380 6.5475 -2.8437 0.9535
7.4707 8.8365 -2.8442 0.9535
6.6551 9.4670 -2.8444 0.9535
4.8719 10.4987 -2.8449 0.9534
3.9185 10.8917 -2.8451 0.9534
2.9338 11.1982 -2.8454 0.9534
1.9256 11.4159 -2.8457 0.9534
0.9020 11.5431 -2.8459 0.9534
-1.1591 11.5223 -2.8465 0.9534
-2.1803 11.3745 -2.8467 0.9534
-3.1843 11.1363 -2.8470 0.9534
-4.1633 10.8097 -2.8473 0.9534
-5.1093 10.3971 -2.8475 0.9534
-6.8729 9.3280 -2.8480 0.9534
-9.6987 6.3446 -2.8487 0.9534
-11.1666 4.7351 -2.9813 0.9513
-11.6224 3.7478 -3.0016 0.9509
-11.9101 2.6985 -3.0017 0.9509
-12.1033 -1.6277 -3.0018 0.9509
-10.7730 -5.7487 -3.0014 0.9509
-10.2181 -6.6843 -3.0013 0.9509
-9.5821 -7.5669 -3.0011 0.9510
-8.8700 -8.3892 -3.0009 0.9510
-8.0876 -9.1447 -3.0007 0.9510
-7.2410 -9.8275 -3.0005 0.9510
-6.3371 -10.4322 -3.0003 0.9510
-5.3829 -10.9539 -3.0000 0.9510
-4.3862 -11.3885 -2.9998 0.9510
-2.2971 -11.9837 -2.9992 0.9510
-0.5775 -5.7400 -1.4180 0.9765
0.4283 -5.4813 -1.3514 0.9776
0.9801 -5.8104 -1.4484 0.9760
7.0115 -9.9740 -2.9968 0.9510
10.0488 -6.8981 -2.9960 0.9510
10.6224 -5.9760 -2.9958 0.9510
11.5127 -3.9976 -2.9956 0.9510
11.8225 -2.9570 -2.9955 0.9510
12.1591 -0.8139 -2.9954 0.9510
12.1833 0.2715 -2.9954 0.9510
12.1108 1.3548 -2.9954 0.9510
11.9424 2.4274 -2.9955 0.9510
11.6792 3.4808 -2.9955 0.9510
9.8200 6.1160 -2.8436 0.9535
8.5810 7.7611 -2.8439 0.9535
7.0699 9.1608 -2.8443 0.9535
6.2270 9.7545 -2.8445 0.9534
2.4322 11.3183 -2.8455 0.9534
-0.6447 11.5620 -2.8463 0.9534
-3.6774 10.9839 -2.8471 0.9534
-5.5676 10.1596 -2.8476 0.9534
-6.4503 9.6245 -2.8479 0.9534
-7.2819 9.0129 -2.8481 0.9534
-8.7658 7.5801 -2.8485 0.9534
-9.4062 6.7702 -2.8486 0.9534
-11.4437 4.2617 -3.0016 0.9509
-11.7780 3.2263 -3.0017 0.9509
-11.3912 0.0000 -3.0016 0.9540
-11.3459 -1.0138 -3.0016 0.9540
-10.9861 -3.0094 -3.0015 0.9540
-9.7996 -5.8043 -3.0012 0.9540
-7.9167 -8.1857 -3.0007 0.9540
-7.1562 -8.8573 -3.0005 0.9540
-6.3390 -9.4584 -3.0003 0.9540
-5.4716 -9.9843 -3.0000 0.9540
-4.5608 -10.4309 -2.9998 0.9540
-2.6387 -11.0725 -2.9993 0.9540
0.1865 -5.5784 -1.4707 0.9772
3.3706 -10.8657 -2.9977 0.9540
5.2429 -10.0943 -2.9972 0.9540
6.1200 -9.5869 -2.9970 0.9540
6.9485 -9.0035 -2.9968 0.9540
7.7218 -8.3487 -2.9966 0.9540
8.4337 -7.6278 -2.9964 0.9541
9.6515 -6.0110 -2.9961 0.9541
10.1477 -5.1279 -2.9959 0.9541
10.8954 -3.2472 -2.9957 0.9541
11.1410 -2.2645 -2.9957 0.9541
11.2981 -1.2638 -2.9956 0.9541
11.3657 -0.2533 -2.9956 0.9541
11.3432 0.7594 -2.9956 0.9541
10.7401 3.7294 -2.9958 0.9541
9.4057 5.2916 -2.8437 0.9563
8.8979 6.1080 -2.8438 0.9563
6.9692 8.2433 -2.8444 0.9563
4.5448 9.7938 -2.8450 0.9563
2.7368 10.4462 -2.8455 0.9563
1.7963 10.6492 -2.8457 0.9563
0.8414 10.7678 -2.8460 0.9563
-0.1203 10.8009 -2.8462 0.9563
-2.0338 10.6103 -2.8467 0.9563
-2.9704 10.3880 -2.8470 0.9563
-4.7659 9.6984 -2.8474 0.9563
-5.6107 9.2365 -2.8476 0.9563
-7.1605 8.0965 -2.8481 0.9563
-7.8532 7.4275 -2.8482 0.9563
-8.4836 6.6994 -2.8484 0.9563
-9.5379 5.0896 -2.8487 0.9563
-10.4864 4.4467 -3.0013 0.9540
-11.3798 0.5075 -3.0016 0.9540
-10.8410 -3.4958 -3.0014 0.9540
-10.4865 -4.4466 -3.0013 0.9540
-9.5311 -6.2350 -3.0011 0.9540
-8.9379 -7.0581 -3.0009 0.9540
-6.7543 -9.1670 -3.0004 0.9540
-5.9112 -9.7311 -3.0002 0.9540
-2.1428 -11.1785 -2.9992 0.9540
-0.6084 -6.0474 -1.6015 0.9752
-0.0625 -5.6125 -1.4790 0.9770
0.4393 -5.6218 -1.4859 0.9769
3.8511 -10.7044 -2.9976 0.9540
4.7882 -10.3183 -2.9973 0.9540
8.0858 -7.9962 -2.9965 0.9540
8.7649 -7.2443 -2.9963 0.9541
9.9094 -5.5749 -2.9960 0.9541
10.3659 -4.6706 -2.9959 0.9541
11.3432 -0.7593 -2.9956 0.9541
11.3657 0.2533 -2.9956 0.9541
11.2981 1.2639 -2.9956 0.9541
10.5634 4.2042 -2.9958 0.9541
9.1609 5.7055 -2.8438 0.9563
7.3293 7.9243 -2.8443 0.9563
6.5953 8.5458 -2.8444 0.9563
5.8089 9.0996 -2.8447 0.9563
4.1042 9.9869 -2.8451 0.9563
3.1993 10.3134 -2.8453 0.9563
2.2688 10.5582 -2.8456 0.9563
1.3202 10.7191 -2.8458 0.9563
0.3609 10.7950 -2.8461 0.9563
-0.6014 10.7853 -2.8463 0.9563
-1.5591 10.6899 -2.8466 0.9563
-3.4303 10.2459 -2.8471 0.9563
-4.3290 9.9007 -2.8473 0.9563
-5.1934 9.4769 -2.8475 0.9563
-6.7924 8.4071 -2.8480 0.9563
-8.1765 7.0705 -2.8483 0.9563
-9.9375 4.7467 -2.9019 0.9555
-10.6743 3.9752 -3.0014 0.9540
-10.9860 3.0094 -3.0015 0.9540
-11.2105 2.0197 -3.0015 0.9540
-10.2882 -2.8182 -3.0013 0.9566
-9.9963 -3.7226 -3.0012 0.9566
-9.6250 -4.5974 -3.0011 0.9566
-8.6566 -6.2306 -3.0009 0.9566
-5.9365 -8.8578 -3.0002 0.9567
-5.1242 -9.3504 -2.9999 0.9567
-4.2713 -9.7687 -2.9997 0.9567
-1.5383 -10.5475 -2.9990 0.9567
-0.3356 -6.0181 -1.6958 0.9753
2.2386 -10.4177 -2.9980 0.9567
5.7318 -8.9787 -2.9971 0.9567
6.5078 -8.4324 -2.9969 0.9567
7.2320 -7.8192 -2.9967 0.9567
8.5029 -6.4123 -2.9964 0.9567
9.0394 -5.6298 -2.9962 0.9567
10.5818 -1.1837 -2.9958 0.9567
10.6451 -0.2372 -2.9958 0.9567
10.6239 0.7112 -2.9958 0.9567
7.7917 6.4400 -2.8441 0.9589
5.8145 8.2713 -2.8447 0.9589
5.0556 8.7566 -2.8449 0.9589
2.5631 9.7833 -2.8455 0.9588
1.6823 9.9735 -2.8457 0.9588
-0.1127 10.1154 -2.8462 0.9588
-8.4721 5.5422 -2.8484 0.9588
-8.9321 4.7663 -2.8485 0.9588
-9.8203 4.1642 -3.0012 0.9566
-10.1523 3.2737 -3.0012 0.9566
-10.4036 2.3571 -3.0013 0.9566
-10.5723 -1.4218 -3.0014 0.9566
-10.4036 -2.3571 -3.0013 0.9566
-6.3254 -8.5849 -3.0003 0.9567
-4.7024 -9.5691 -2.9998 0.9567
-2.9308 -10.2496 -2.9994 0.9567
-0.0647 -5.8066 -1.6338 0.9762
0.4553 -5.8269 -1.6444 0.9760
1.7724 -10.5076 -2.9981 0.9567
5.3264 -9.2255 -2.9972 0.9567
6.1259 -8.7142 -2.9970 0.9567
6.8767 -8.1338 -2.9968 0.9567
7.5729 -7.4890 -2.9966 0.9567
8.7799 -6.0270 -2.9963 0.9567
9.7086 -4.3745 -2.9961 0.9567
10.0591 -3.4929 -2.9960 0.9567
10.6239 -0.7111 -2.9958 0.9567
10.6451 0.2372 -2.9958 0.9567
10.5817 1.1838 -2.9958 0.9567
10.4345 2.1209 -2.9959 0.9567
10.2045 3.0413 -2.9959 0.9567
9.8936 3.9376 -2.9960 0.9567
8.5800 5.3437 -2.8439 0.9589
6.8644 7.4218 -2.8444 0.9589
5.4405 8.5224 -2.8448 0.9589
3.8438 9.3533 -2.8452 0.9589
2.1248 9.8882 -2.8456 0.9588
-0.5632 10.1008 -2.8463 0.9588
-1.4601 10.0114 -2.8466 0.9588
-3.2126 9.5954 -2.8470 0.9588
-5.6347 8.4076 -2.8477 0.9588
-6.3611 7.8733 -2.8478 0.9588
-7.0371 7.2763 -2.8480 0.9588
-8.2166 5.9140 -2.8483 0.9588
-9.6249 4.5975 -3.0011 0.9566
-9.9962 3.7227 -3.0012 0.9566
-10.4984 1.8914 -3.0013 0.9566
-10.0248 0.0000 -3.0012 0.9590
-9.8658 -1.7774 -3.0012 0.9590
-9.6683 -2.6484 -3.0011 0.9590
-9.3940 -3.4983 -3.0011 0.9590
-9.0450 -4.3204 -3.0010 0.9590
-8.6243 -5.1082 -3.0009 0.9590
-8.1351 -5.8553 -3.0007 0.9590
-6.9673 -7.2041 -3.0004 0.9590
-5.5789 -8.3243 -3.0001 0.9590
-4.0140 -9.1803 -2.9997 0.9590
-3.1808 -9.5005 -2.9994 0.9590
-1.4457 -9.9124 -2.9990 0.9590
-0.5577 -10.0010 -2.9987 0.9590
0.2057 -6.1519 -1.8428 0.9746
1.2242 -9.9398 -2.9983 0.9590
3.8059 -9.2611 -2.9976 0.9591
4.6148 -8.8850 -2.9974 0.9591
6.7969 -7.3487 -2.9968 0.9591
7.9913 -6.0265 -2.9965 0.9591
8.4956 -5.2911 -2.9964 0.9591
8.9325 -4.5138 -2.9963 0.9591
9.2985 -3.7007 -2.9962 0.9591
9.5907 -2.8583 -2.9961 0.9591
9.8069 -1.9933 -2.9960 0.9591
9.8859 1.5545 -2.9960 0.9591
9.4540 3.2828 -2.9961 0.9591
9.1245 4.1113 -2.9962 0.9591
12.3588 6.9530 -4.2453 0.9425
6.7555 6.6807 -2.8444 0.9611
6.1345 7.2559 -2.8446 0.9611
4.7514 8.2296 -2.8449 0.9611
3.2174 8.9429 -2.8453 0.9611
1.5810 9.3731 -2.8458 0.9611
0.7406 9.4774 -2.8460 0.9611
-0.9517 9.4600 -2.8464 0.9611
-2.6143 9.1428 -2.8469 0.9611
-3.4179 8.8745 -2.8471 0.9611
-5.6422 7.6577 -2.8477 0.9611
-6.3018 7.1256 -2.8478 0.9611
-6.9114 6.5368 -2.8480 0.9611
-8.8434 4.7190 -3.0009 0.9590
-9.5406 3.0765 -3.0011 0.9590
-9.7768 -2.2151 -3.0012 0.9590
-9.5406 -3.0764 -3.0011 0.9590
-9.2287 -3.9132 -3.0010 0.9590
-8.8434 -4.7190 -3.0009 0.9590
-8.3880 -5.4871 -3.0008 0.9590
-7.2815 -6.8868 -3.0005 0.9590
-5.9444 -8.0678 -3.0002 0.9590
-1.8859 -9.8385 -2.9991 0.9590
-1.0027 -9.9666 -2.9989 0.9590
1.6657 -9.8750 -2.9982 0.9590
2.5379 -9.6869 -2.9979 0.9591
4.2145 -9.0821 -2.9975 0.9591
5.7573 -8.1898 -2.9971 0.9591
7.1173 -7.0384 -2.9967 0.9591
9.4540 -3.2828 -2.9961 0.9591
9.8859 -1.5544 -2.9960 0.9591
9.9849 -0.6684 -2.9960 0.9591
9.9452 1.1126 -2.9960 0.9591
9.2985 3.7007 -2.9961 0.9591
7.5851 5.7202 -2.8442 0.9611
7.0462 6.3729 -2.8443 0.9611
6.4514 6.9752 -2.8445 0.9611
5.1131 8.0096 -2.8448 0.9611
4.3802 8.4334 -2.8450 0.9611
1.1620 9.4346 -2.8459 0.9611
0.3177 9.5013 -2.8461 0.9611
-1.3722 9.4086 -2.8465 0.9611
-3.0191 9.0176 -2.8470 0.9611
-4.5708 8.3406 -2.8474 0.9611
-6.6131 6.8379 -2.8479 0.9611
-8.1859 4.8486 -2.8483 0.9611
-9.0450 4.3205 -3.0010 0.9590
-9.6683 2.6484 -3.0011 0.9590
-9.8658 1.7774 -3.0012 0.9590
-9.4497 0.0000 -3.0011 0.9611
-9.4121 -0.8410 -3.0011 0.9611
-9.1136 -2.4965 -3.0010 0.9611
-8.8551 -3.2976 -3.0009 0.9611
-7.6684 -5.5194 -3.0006 0.9611
-7.1464 -6.1797 -3.0005 0.9611
-6.5677 -6.7909 -3.0003 0.9611
-5.9369 -7.3481 -3.0002 0.9611
-3.7839 -8.6539 -2.9996 0.9611
-2.9984 -8.9557 -2.9994 0.9611
-2.1892 -9.1864 -2.9992 0.9611
-0.5257 -9.4277 -2.9987 0.9611
0.3155 -9.4364 -2.9985 0.9611
1.1540 -9.3701 -2.9983 0.9612
2.7967 -9.0158 -2.9979 0.9612
3.5878 -8.7305 -2.9977 0.9612
4.3503 -8.3759 -2.9975 0.9612
5.0783 -7.9550 -2.9973 0.9612
6.4075 -6.9277 -2.9969 0.9612
6.9983 -6.3296 -2.9968 0.9612
7.5335 -5.6813 -2.9966 0.9612
8.4208 -4.2552 -2.9964 0.9612
8.7659 -3.4887 -2.9963 0.9612
9.2452 -1.8791 -2.9962 0.9612
9.3756 -1.0488 -2.9961 0.9612
9.4317 -0.2102 -2.9961 0.9612
9.4130 0.6302 -2.9961 0.9612
8.9125 3.0948 -2.9962 0.9612
11.6509 6.5547 -4.2455 0.9454
5.7830 6.8402 -2.8447 0.9631
5.1515 7.3282 -2.8448 0.9631
2.2708 8.6676 -2.8456 0.9631
0.6981 8.9341 -2.8460 0.9631
-0.0998 8.9615 -2.8462 0.9631
-0.8971 8.9177 -2.8464 0.9631
-2.4644 8.6186 -2.8468 0.9631
-3.9540 8.0462 -2.8472 0.9631
-5.9404 6.7169 -2.8477 0.9631
-6.5150 6.1618 -2.8479 0.9631
-7.0379 5.5578 -2.8480 0.9631
-8.3361 4.4483 -3.0008 0.9611
-8.6992 3.6888 -3.0009 0.9611
-9.3653 1.2595 -3.0010 0.9611
-9.4403 0.4210 -3.0011 0.9611
-9.4403 -0.4209 -3.0011 0.9611
-9.2159 -2.0880 -3.0010 0.9611
-8.9933 -2.8999 -3.0009 0.9611
-7.9069 -5.1724 -3.0007 0.9611
-4.9041 -8.0732 -2.9999 0.9611
-4.1658 -8.4770 -2.9997 0.9611
-3.3945 -8.8136 -2.9995 0.9611
-2.5964 -9.0801 -2.9993 0.9611
-1.7778 -9.2745 -2.9991 0.9611
1.5703 -9.3091 -2.9982 0.9612
6.0927 -7.2064 -2.9970 0.9612
7.2732 -6.0114 -2.9967 0.9612
7.7790 -5.3399 -2.9966 0.9612
8.2231 -4.6262 -2.9964 0.9612
8.6019 -3.8758 -2.9963 0.9612
9.1524 -2.2891 -2.9962 0.9612
9.3197 -1.4654 -2.9961 0.9612
8.7659 3.4888 -2.9963 0.9612
11.3475 7.0673 -4.2456 0.9454
7.1506 5.3926 -2.8443 0.9631
6.0818 6.5756 -2.8446 0.9631
4.8201 7.5506 -2.8449 0.9631
3.4055 8.2867 -2.8453 0.9631
2.6546 8.5575 -2.8455 0.9631
1.8825 8.7604 -2.8457 0.9631
1.0954 8.8939 -2.8459 0.9631
0.2995 8.9567 -2.8461 0.9631
-0.4990 8.9485 -2.8463 0.9631
-3.5915 8.2141 -2.8471 0.9631
-4.3087 7.8623 -2.8473 0.9631
-4.9917 7.4481 -2.8475 0.9631
-7.2787 5.2389 -2.8481 0.9631
-8.5262 4.0726 -3.0008 0.9611
-8.8551 3.2977 -3.0009 0.9611
-9.4121 0.8411 -3.0011 0.9611
-8.0590 -3.8494 -3.0007 0.9630
-7.2483 -5.2170 -3.0005 0.9630
-6.2079 -6.4189 -3.0002 0.9630
-2.0693 -8.6833 -2.9991 0.9630
-1.2882 -8.8324 -2.9989 0.9630
-0.4969 -8.9114 -2.9987 0.9630
1.0909 -8.8571 -2.9983 0.9630
2.6436 -8.5222 -2.9979 0.9630
3.3914 -8.2525 -2.9977 0.9631
4.8003 -7.5195 -2.9973 0.9631
6.0568 -6.5485 -2.9970 0.9631
6.6153 -5.9832 -2.9969 0.9631
7.1213 -5.3704 -2.9967 0.9631
7.5707 -4.7151 -2.9966 0.9631
7.9601 -4.0224 -2.9965 0.9631
8.5467 -2.5472 -2.9964 0.9631
8.7393 -1.7763 -2.9963 0.9631
8.8097 1.3853 -2.9963 0.9631
8.1312 3.6638 -2.9965 0.9631
6.0200 5.9533 -2.8446 0.9649
4.8696 6.9271 -2.8449 0.9649
4.2340 7.3334 -2.8451 0.9649
3.5647 7.6817 -2.8452 0.9649
2.8670 7.9690 -2.8454 0.9649
2.1465 8.1931 -2.8456 0.9649
0.6599 8.4450 -2.8460 0.9649
-1.5950 8.3210 -2.8466 0.9649
-2.3294 8.1466 -2.8468 0.9649
-3.7374 7.6055 -2.8472 0.9649
-6.1580 5.8243 -2.8478 0.9649
-7.2442 4.7389 -2.9084 0.9641
-7.8793 4.2046 -3.0006 0.9630
-8.2225 3.4867 -3.0007 0.9630
-8.8521 1.1905 -3.0009 0.9630
-8.9229 0.3979 -3.0009 0.9630
-8.2226 -3.4866 -3.0007 0.9630
-6.4878 -6.1361 -3.0003 0.9630
-5.9156 -6.6888 -3.0001 0.9630
-4.6354 -7.6309 -2.9998 0.9630
-2.4542 -8.5828 -2.9992 0.9630
-1.6804 -8.7666 -2.9990 0.9630
-0.8934 -8.8807 -2.9988 0.9630
3.0205 -8.3957 -2.9978 0.9630
6.3424 -6.2721 -2.9969 0.9631
6.8751 -5.6824 -2.9968 0.9631
7.3533 -5.0477 -2.9967 0.9631
7.7731 -4.3731 -2.9966 0.9631
8.6516 -2.1639 -2.9963 0.9631
8.8097 -1.3853 -2.9963 0.9631
8.8980 -0.5956 -2.9963 0.9631
8.9157 0.1987 -2.9963 0.9631
8.8626 0.9915 -2.9963 0.9631
8.7393 1.7764 -2.9963 0.9631
8.5467 2.5472 -2.9963 0.9631
8.2862 3.2978 -2.9964 0.9631
10.7267 6.6806 -4.2458 0.9481
6.7593 5.0975 -2.8444 0.9649
6.2791 5.6791 -2.8445 0.9649
5.1732 6.7031 -2.8448 0.9649
4.5563 7.1374 -2.8450 0.9649
3.9032 7.5150 -2.8452 0.9649
2.5092 8.0890 -2.8455 0.9649
1.0354 8.4069 -2.8459 0.9649
-0.4716 8.4585 -2.8463 0.9649
-4.0726 7.4316 -2.8472 0.9649
-4.7182 7.0401 -2.8474 0.9649
-5.3264 6.5926 -2.8476 0.9649
-5.8923 6.0926 -2.8477 0.9649
-8.3698 3.1170 -3.0008 0.9630
-8.6142 2.3597 -3.0008 0.9630
-8.7902 1.5837 -3.0009 0.9630
-8.8963 0.7950 -3.0009 0.9630
-8.4628 0.0000 -3.0008 0.9647
-8.3287 -1.5004 -3.0008 0.9647
-7.6359 -3.6473 -3.0006 0.9647
-5.8820 -6.0819 -3.0001 0.9647
-3.3889 -7.7506 -2.9995 0.9647
-1.9608 -8.2276 -2.9991 0.9647
0.2826 -8.4517 -2.9985 0.9647
2.5049 -8.0751 -2.9979 0.9648
3.2135 -7.8197 -2.9978 0.9648
3.8965 -7.5022 -2.9976 0.9648
5.1644 -6.6917 -2.9972 0.9648
6.2684 -5.6695 -2.9970 0.9648
7.1737 -4.4678 -2.9967 0.9648
8.2811 -1.6832 -2.9964 0.9648
8.4482 -0.1882 -2.9964 0.9648
8.3478 1.3126 -2.9964 0.9648
8.1980 2.0505 -2.9964 0.9648
7.3655 4.1438 -2.9967 0.9648
9.8723 6.7769 -4.2460 0.9504
6.1835 5.1108 -2.8446 0.9665
4.6142 6.5638 -2.8450 0.9665
2.0339 7.7633 -2.8456 0.9665
-0.8035 7.9871 -2.8464 0.9665
-1.5113 7.8844 -2.8466 0.9665
-3.5413 7.2063 -2.8471 0.9665
-4.1689 6.8629 -2.8473 0.9665
-4.7634 6.4650 -2.8474 0.9665
-5.3202 6.0156 -2.8476 0.9665
-7.0812 4.6323 -3.0004 0.9647
-7.4657 3.9838 -3.0005 0.9647
-7.7908 3.3037 -3.0006 0.9647
-8.2535 1.8700 -3.0007 0.9647
-8.4544 0.3770 -3.0008 0.9647
-8.4544 -0.3770 -3.0008 0.9647
-8.2535 -1.8700 -3.0008 0.9647
-6.6406 -5.2440 -3.0003 0.9647
-6.1472 -5.8140 -3.0002 0.9647
-5.6051 -6.3378 -3.0001 0.9647
-5.0185 -6.8111 -2.9999 0.9647
-4.3921 -7.2304 -2.9997 0.9647
-0.0942 -8.4562 -2.9986 0.9647
1.4064 -8.3378 -2.9982 0.9648
4.2267 -7.3209 -2.9975 0.9648
4.8613 -6.9153 -2.9973 0.9648
5.4572 -6.4548 -2.9972 0.9648
6.5146 -5.3844 -2.9969 0.9648
7.9831 -2.7720 -2.9965 0.9648
8.1980 -2.0504 -2.9964 0.9648
8.3478 -1.3126 -2.9964 0.9648
8.3980 0.9395 -2.9964 0.9648
7.8518 3.1249 -2.9965 0.9648
7.5427 3.8115 -2.9966 0.9648
10.1642 6.3303 -4.2459 0.9505
9.5607 7.2101 -4.2461 0.9504
5.9498 5.3813 -2.8446 0.9665
5.4475 5.8898 -2.8448 0.9665
4.9019 6.3516 -2.8449 0.9665
3.0502 7.4222 -2.8454 0.9665
2.3776 7.6647 -2.8456 0.9665
0.9811 7.9659 -2.8459 0.9665
0.2682 8.0221 -2.8461 0.9665
-0.4469 8.0147 -2.8463 0.9665
-1.8611 7.8095 -2.8467 0.9665
-2.5489 7.6133 -2.8468 0.9665
-3.8589 7.0416 -2.8472 0.9665
-4.4706 6.6706 -2.8474 0.9665
-5.0468 6.2465 -2.8475 0.9665
-6.0749 5.2532 -2.8478 0.9665
-7.6358 3.6474 -3.0006 0.9647
-8.3287 1.5005 -3.0008 0.9647
-8.0040 -0.7152 -3.0007 0.9663
-7.7502 -2.1229 -3.0006 0.9663
-7.5303 -2.8043 -3.0006 0.9663
-6.0774 -5.2553 -3.0002 0.9663
-5.5853 -5.7752 -3.0001 0.9663
-5.0489 -6.2491 -2.9999 0.9663
-3.8605 -7.0445 -2.9996 0.9663
-3.2180 -7.3597 -2.9994 0.9663
-0.4471 -8.0181 -2.9987 0.9663
0.2683 -8.0256 -2.9985 0.9663
0.9815 -7.9693 -2.9983 0.9663
1.6868 -7.8499 -2.9982 0.9663
3.0516 -7.4256 -2.9978 0.9663
3.7002 -7.1241 -2.9976 0.9663
4.3193 -6.7661 -2.9975 0.9663
6.4079 -4.8324 -2.9969 0.9663
6.8123 -4.2427 -2.9968 0.9663
7.8639 -1.5984 -2.9965 0.9663
8.0226 -0.1787 -2.9965 0.9663
8.0067 0.5360 -2.9965 0.9663
7.5809 2.6324 -2.9966 0.9663
9.3749 6.4355 -4.2461 0.9526
5.4169 5.3569 -2.8448 0.9680
4.9188 5.8180 -2.8449 0.9680
4.3817 6.2331 -2.8450 0.9680
3.8097 6.5986 -2.8452 0.9680
1.9314 7.3720 -2.8457 0.9680
-0.0849 7.6217 -2.8462 0.9680
-0.7630 7.5844 -2.8464 0.9680
-1.4351 7.4869 -2.8466 0.9680
-2.0959 7.3298 -2.8467 0.9680
-2.7401 7.1146 -2.8469 0.9680
-3.3627 6.8429 -2.8471 0.9680
-3.9586 6.5168 -2.8472 0.9680
-5.0519 5.7122 -2.8475 0.9680
-6.0112 4.7471 -2.8602 0.9678
-7.0891 3.7829 -3.0004 0.9663
-7.3978 3.1370 -3.0005 0.9663
-7.8371 1.7757 -3.0006 0.9663
-7.9641 1.0711 -3.0007 0.9663
-8.0279 -0.3579 -3.0007 0.9663
-7.9642 -1.0711 -3.0007 0.9663
-7.8371 -1.7756 -3.0006 0.9663
-7.6479 -2.4661 -3.0006 0.9663
-7.3979 -3.1369 -3.0005 0.9663
-7.0891 -3.7829 -3.0005 0.9663
-6.3056 -4.9795 -3.0002 0.9663
-5.3224 -6.0181 -3.0000 0.9663
-2.8869 -7.4956 -2.9994 0.9663
-1.5120 -7.8877 -2.9990 0.9663
-0.8039 -7.9905 -2.9988 0.9663
0.6256 -8.0054 -2.9984 0.9663
1.3355 -7.9175 -2.9982 0.9663
3.3792 -7.2821 -2.9977 0.9663
4.6163 -6.5668 -2.9974 0.9663
6.9944 -3.9350 -2.9968 0.9663
7.3167 -3.2967 -2.9967 0.9663
7.5809 -2.6324 -2.9966 0.9663
7.9273 -1.2465 -2.9965 0.9663
8.0067 -0.5359 -2.9965 0.9663
8.0226 0.1788 -2.9965 0.9663
7.9749 0.8921 -2.9965 0.9663
7.6906 2.2921 -2.9966 0.9663
7.4562 2.9675 -2.9966 0.9663
7.1627 3.6195 -2.9967 0.9663
6.8123 4.2428 -2.9968 0.9663
9.0791 6.8468 -4.2462 0.9526
5.1730 5.5930 -2.8448 0.9680
3.5121 6.7620 -2.8453 0.9680
1.6011 7.4509 -2.8458 0.9680
0.9316 7.5643 -2.8459 0.9680
-0.4244 7.6106 -2.8463 0.9680
-4.7923 5.9315 -2.8474 0.9680
-5.3014 5.4817 -2.8476 0.9680
-6.5213 4.6937 -3.0003 0.9663
-6.9134 4.0949 -3.0004 0.9663
-7.2506 3.4633 -3.0005 0.9663
-7.9085 1.4248 -3.0007 0.9663
-7.6454 0.0000 -3.0006 0.9677
-7.6150 -0.6804 -3.0006 0.9677
-7.5242 -1.3555 -3.0006 0.9677
-7.3736 -2.0198 -3.0005 0.9677
-7.1644 -2.6680 -3.0005 0.9677
-6.5775 -3.8958 -3.0003 0.9677
-6.2044 -4.4657 -3.0002 0.9677
-4.2552 -6.3491 -2.9997 0.9677
-3.0617 -7.0022 -2.9994 0.9677
-0.4254 -7.6287 -2.9987 0.9677
0.9339 -7.5824 -2.9984 0.9677
1.6049 -7.4687 -2.9982 0.9677
2.2632 -7.2958 -2.9980 0.9677
4.6661 -6.0460 -2.9974 0.9677
5.1855 -5.6064 -2.9972 0.9677
5.6636 -5.1224 -2.9971 0.9677
7.0943 -2.8234 -2.9967 0.9677
7.5879 -0.8488 -2.9966 0.9677
7.6333 -0.1701 -2.9966 0.9677
7.2130 2.5046 -2.9967 0.9677
6.9616 3.1368 -2.9968 0.9677
5.1539 5.0969 -2.8448 0.9693
4.6800 5.5356 -2.8450 0.9693
4.1690 5.9305 -2.8451 0.9693
3.6248 6.2783 -2.8452 0.9693
3.0517 6.5763 -2.8454 0.9693
2.4544 6.8222 -2.8455 0.9693
1.8376 7.0140 -2.8457 0.9693
1.2061 7.1502 -2.8459 0.9693
-1.3654 7.1232 -2.8465 0.9693
-2.6070 6.7690 -2.8469 0.9693
-3.1993 6.5105 -2.8470 0.9693
-3.7663 6.2002 -2.8472 0.9693
-5.2713 4.9855 -2.8476 0.9693
-6.7446 3.5991 -3.0004 0.9677
-7.0383 2.9846 -3.0004 0.9677
-7.5771 1.0190 -3.0006 0.9677
-7.6378 0.3406 -3.0006 0.9677
-7.6378 -0.3406 -3.0006 0.9677
-7.5771 -1.0190 -3.0006 0.9677
-7.4563 -1.6894 -3.0005 0.9677
-7.0384 -2.9845 -3.0004 0.9677
-6.3973 -4.1849 -3.0003 0.9677
-4.5339 -6.1534 -2.9998 0.9677
-3.3707 -6.8591 -2.9995 0.9677
-2.1009 -7.3472 -2.9991 0.9677
-1.4385 -7.5046 -2.9990 0.9677
-0.0851 -7.6399 -2.9986 0.9677
0.5952 -7.6167 -2.9984 0.9677
1.9360 -7.3896 -2.9981 0.9677
2.5859 -7.1875 -2.9979 0.9677
3.2152 -6.9285 -2.9978 0.9677
4.3922 -6.2480 -2.9974 0.9677
5.4299 -5.3698 -2.9972 0.9677
6.9616 -3.1367 -2.9968 0.9677
7.2130 -2.5046 -2.9967 0.9677
7.4072 -1.8526 -2.9966 0.9677
7.5426 -1.1860 -2.9966 0.9677
7.6333 0.1701 -2.9966 0.9677
7.5879 0.8489 -2.9966 0.9677
7.4823 1.5209 -2.9966 0.9677
7.3173 2.1808 -2.9967 0.9677
6.4816 4.0368 -2.9969 0.9677
8.6384 6.5145 -4.2463 0.9546
8.0246 7.2578 -4.2465 0.9546
4.9219 5.3215 -2.8449 0.9693
2.7558 6.7059 -2.8455 0.9693
2.1482 6.9250 -2.8456 0.9693
1.5234 7.0891 -2.8458 0.9693
0.8864 7.1970 -2.8459 0.9693
0.2423 7.2477 -2.8461 0.9693
-0.4038 7.2410 -2.8463 0.9693
-1.0467 7.1767 -2.8465 0.9693
-2.3028 6.8782 -2.8468 0.9693
-2.9061 6.6464 -2.8469 0.9693
-3.4863 6.3617 -2.8471 0.9693
-4.0389 6.0264 -2.8472 0.9693
-4.5594 5.6433 -2.8474 0.9693
-5.0438 5.2153 -2.8475 0.9693
-6.5775 3.8959 -3.0003 0.9677
-6.8983 3.2951 -3.0004 0.9677
-7.1644 2.6681 -3.0005 0.9677
-7.3736 2.0199 -3.0005 0.9677
-7.2577 -0.6485 -3.0005 0.9690
-7.0276 -1.9250 -3.0004 0.9690
-6.2689 -3.7130 -3.0002 0.9690
-5.9133 -4.2561 -3.0001 0.9690
-5.5109 -4.7654 -3.0000 0.9690
-5.0646 -5.2368 -2.9999 0.9690
-2.3124 -6.9066 -2.9992 0.9690
-1.0510 -7.2064 -2.9989 0.9690
0.2433 -7.2778 -2.9985 0.9690
1.5297 -7.1185 -2.9982 0.9690
2.1571 -6.9537 -2.9980 0.9690
2.7673 -6.7338 -2.9979 0.9690
4.4473 -5.7626 -2.9974 0.9690
4.9424 -5.3436 -2.9973 0.9690
5.3982 -4.8824 -2.9972 0.9690
5.8111 -4.3823 -2.9971 0.9690
6.1779 -3.8476 -2.9970 0.9690
6.4956 -3.2824 -2.9969 0.9690
7.1316 -1.4495 -2.9967 0.9690
7.2323 -0.8090 -2.9967 0.9690
7.2756 -0.1621 -2.9967 0.9690
7.0600 1.7659 -2.9967 0.9690
6.8749 2.3872 -2.9968 0.9690
6.0004 4.1191 -2.9970 0.9690
7.3328 7.2516 -4.2467 0.9564
4.4607 5.2761 -2.8450 0.9706
3.4548 5.9839 -2.8453 0.9706
2.9087 6.2680 -2.8454 0.9706
2.3394 6.5024 -2.8456 0.9705
1.7514 6.6852 -2.8457 0.9705
0.5384 6.8906 -2.8460 0.9705
-0.0770 6.9115 -2.8462 0.9705
-0.6919 6.8776 -2.8464 0.9705
-1.3014 6.7891 -2.8465 0.9705
-3.0493 6.2051 -2.8470 0.9705
-4.1015 5.5667 -2.8473 0.9705
-4.5809 5.1798 -2.8474 0.9705
-6.4281 3.4302 -3.0003 0.9690
-6.7081 2.8445 -3.0003 0.9690
-7.2216 0.9712 -3.0005 0.9690
-7.2794 -0.3246 -3.0005 0.9690
-6.9348 -2.2362 -3.0004 0.9690
-6.4282 -3.4301 -3.0003 0.9690
-6.0972 -3.9886 -3.0002 0.9690
-5.2930 -5.0060 -3.0000 0.9690
-4.3212 -5.8647 -2.9997 0.9690
-3.2126 -6.5373 -2.9994 0.9690
-2.6178 -6.7970 -2.9993 0.9690
-0.0811 -7.2816 -2.9986 0.9690
2.4646 -6.8505 -2.9980 0.9690
3.0644 -6.6037 -2.9978 0.9690
5.6102 -4.6369 -2.9971 0.9690
6.3431 -3.5685 -2.9969 0.9690
6.6353 -2.9897 -2.9969 0.9690
7.0600 -1.7658 -2.9967 0.9690
7.2611 -0.4861 -2.9967 0.9690
7.1316 1.4496 -2.9967 0.9690
6.9744 2.0786 -2.9968 0.9690
6.7618 2.6912 -2.9968 0.9690
6.4956 3.2824 -2.9969 0.9690
6.1779 3.8476 -2.9970 0.9690
8.2335 6.2092 -4.2464 0.9564
7.6484 6.9176 -4.2466 0.9564
4.6912 5.0721 -2.8450 0.9706
3.1849 6.1321 -2.8453 0.9706
2.6266 6.3916 -2.8455 0.9705
0.8448 6.8595 -2.8460 0.9705
-0.9976 6.8402 -2.8464 0.9705
-2.1948 6.5556 -2.8468 0.9705
-2.7697 6.3346 -2.8469 0.9705
-3.3227 6.0632 -2.8471 0.9705
-4.8072 4.9706 -2.8474 0.9705
-5.4613 4.7226 -2.9731 0.9692
-5.9133 4.2562 -3.0001 0.9690
-6.2689 3.7131 -3.0002 0.9690
-6.5746 3.1405 -3.0003 0.9690
-6.8282 2.5429 -3.0004 0.9690
-7.0276 1.9251 -3.0004 0.9690
-7.1711 1.2920 -3.0005 0.9690
-6.9557 0.0000 -3.0004 0.9702
-6.9281 -0.6191 -3.0004 0.9702
-6.5182 -2.4274 -3.0003 0.9702
-5.9842 -3.5445 -3.0002 0.9702
-5.2606 -4.5490 -3.0000 0.9702
-4.8347 -4.9990 -2.9999 0.9702
-4.3704 -5.4093 -2.9997 0.9702
-3.8714 -5.7765 -2.9996 0.9702
-3.3418 -6.0979 -2.9995 0.9702
-2.7856 -6.3708 -2.9993 0.9702
-2.2074 -6.5931 -2.9992 0.9702
-1.0033 -6.8794 -2.9989 0.9702
0.2323 -6.9475 -2.9985 0.9702
3.7393 -5.8574 -2.9976 0.9702
4.2456 -5.5012 -2.9975 0.9702
5.1533 -4.6609 -2.9972 0.9702
5.8976 -3.6730 -2.9970 0.9702
6.4551 -2.5690 -2.9969 0.9702
6.8082 -1.3838 -2.9968 0.9702
6.9318 0.4641 -2.9968 0.9702
6.8630 1.0792 -2.9968 0.9702
6.5631 2.2789 -2.9969 0.9702
7.5883 6.2719 -4.2466 0.9580
7.0002 6.9226 -4.2467 0.9580
4.2583 5.0368 -2.8451 0.9717
3.2981 5.7125 -2.8453 0.9717
2.7767 5.9837 -2.8455 0.9717
2.2332 6.2074 -2.8456 0.9717
-0.0735 6.5979 -2.8462 0.9717
-0.6605 6.5655 -2.8464 0.9717
-1.2423 6.4810 -2.8465 0.9717
-1.8143 6.3450 -2.8467 0.9717
-2.9108 5.9234 -2.8469 0.9717
-3.4267 5.6411 -2.8471 0.9717
-3.9153 5.3139 -2.8472 0.9717
-5.8203 3.8075 -3.0001 0.9702
-6.1362 3.2744 -3.0002 0.9702
-6.6199 2.1346 -3.0003 0.9702
-6.8936 0.9271 -3.0004 0.9702
-6.8936 -0.9271 -3.0004 0.9702
-6.6199 -2.1346 -3.0003 0.9702
-6.4035 -2.7153 -3.0003 0.9702
-6.1363 -3.2744 -3.0002 0.9702
-5.8203 -3.8074 -3.0001 0.9702
-5.0527 -4.7787 -2.9999 0.9702
-4.6071 -5.2093 -2.9998 0.9702
-3.6102 -5.9431 -2.9995 0.9702
-3.0667 -6.2406 -2.9994 0.9702
-2.4990 -6.4885 -2.9993 0.9702
-1.9115 -6.6847 -2.9991 0.9702
-1.3088 -6.8280 -2.9989 0.9702
-0.0774 -6.9511 -2.9986 0.9702
0.5415 -6.9301 -2.9985 0.9702
1.1561 -6.8540 -2.9983 0.9702
1.7615 -6.7236 -2.9981 0.9702
2.3528 -6.5397 -2.9980 0.9702
2.9254 -6.3040 -2.9978 0.9702
3.9964 -5.6849 -2.9975 0.9702
4.4863 -5.3064 -2.9974 0.9702
4.9406 -4.8859 -2.9973 0.9702
5.3557 -4.4266 -2.9972 0.9702
5.7283 -3.9322 -2.9971 0.9702
6.0553 -3.4067 -2.9970 0.9702
6.5631 -2.2789 -2.9969 0.9702
6.9318 -0.4640 -2.9968 0.9702
6.6581 1.9844 -2.9968 0.9702
6.4551 2.5691 -2.9969 0.9702
5.8976 3.6731 -2.9970 0.9702
7.3015 6.6038 -4.2467 0.9580
4.0298 5.2216 -2.8451 0.9717
3.5492 5.5598 -2.8453 0.9717
3.0404 5.8539 -2.8454 0.9717
1.3860 6.4501 -2.8458 0.9717
0.2205 6.5944 -2.8461 0.9717
-1.5298 6.4194 -2.8466 0.9717
-2.0952 6.2581 -2.8467 0.9717
-2.6440 6.0471 -2.8469 0.9717
-3.1719 5.7880 -2.8470 0.9717
-3.6746 5.4829 -2.8471 0.9717
-4.5957 4.7520 -2.8516 0.9716
-6.5182 2.4274 -3.0003 0.9702
-6.9281 0.6191 -3.0004 0.9702
-6.6494 0.0000 -3.0003 0.9712
-6.6230 -0.5918 -3.0003 0.9712
-6.5440 -1.1789 -3.0003 0.9712
-5.9997 -2.8658 -3.0002 0.9712
-5.7207 -3.3884 -3.0001 0.9712
-4.6218 -4.7789 -2.9998 0.9712
-4.1780 -5.1711 -2.9997 0.9712
-0.3700 -6.6355 -2.9987 0.9713
0.8123 -6.5952 -2.9984 0.9713
4.9266 -4.4558 -2.9973 0.9713
5.6382 -3.5115 -2.9971 0.9713
5.9282 -2.9956 -2.9970 0.9713
6.3652 -1.8970 -2.9969 0.9713
6.6401 -0.1479 -2.9968 0.9713
6.5611 1.0317 -2.9969 0.9713
6.4433 1.6116 -2.9969 0.9713
6.2744 2.1787 -2.9969 0.9713
5.7889 3.2568 -2.9971 0.9713
5.4762 3.7593 -2.9971 0.9713
6.6922 6.6181 -4.2468 0.9595
6.0768 7.1877 -4.2470 0.9595
2.6545 5.7204 -2.8455 0.9727
2.1349 5.9342 -2.8456 0.9727
1.0491 6.2194 -2.8459 0.9727
-0.0703 6.3075 -2.8462 0.9727
-0.6314 6.2765 -2.8463 0.9727
-2.2675 5.8876 -2.8468 0.9727
-3.2758 5.3927 -2.8470 0.9727
-3.7429 5.0800 -2.8472 0.9727
-4.1961 4.7446 -2.8579 0.9726
-4.8302 4.5684 -2.9998 0.9712
-6.1215 2.5958 -3.0002 0.9712
-6.3284 2.0407 -3.0002 0.9712
-6.4850 1.4693 -3.0003 0.9712
-6.6428 0.2962 -3.0003 0.9712
-6.5901 -0.8863 -3.0003 0.9712
-6.4850 -1.4693 -3.0003 0.9712
-6.3284 -2.0406 -3.0002 0.9712
-4.8302 -4.5683 -2.9999 0.9712
-4.4043 -4.9799 -2.9997 0.9712
-3.9434 -5.3520 -2.9996 0.9712
-3.4512 -5.6814 -2.9995 0.9712
-2.9317 -5.9658 -2.9994 0.9713
-2.3890 -6.2028 -2.9992 0.9713
-1.8273 -6.3905 -2.9991 0.9713
-0.0740 -6.6452 -2.9986 0.9713
0.5177 -6.6251 -2.9985 0.9713
1.1052 -6.5523 -2.9983 0.9713
1.6840 -6.4277 -2.9982 0.9713
2.7967 -6.0266 -2.9979 0.9713
4.2890 -5.0730 -2.9975 0.9713
4.7233 -4.6709 -2.9974 0.9713
5.7890 -3.2568 -2.9971 0.9713
6.5611 -1.0317 -2.9969 0.9713
6.6269 -0.4436 -2.9969 0.9713
6.6005 0.7384 -2.9969 0.9713
6.3652 1.8970 -2.9969 0.9713
6.1712 2.4561 -2.9970 0.9713
5.6382 3.5115 -2.9971 0.9713
6.9802 6.3132 -4.2467 0.9595
6.3908 6.9097 -4.2469 0.9595
3.3930 5.3151 -2.8453 0.9727
2.3971 5.8331 -2.8456 0.9727
1.3250 6.1663 -2.8458 0.9727
0.2108 6.3042 -2.8461 0.9727
-0.3512 6.2982 -2.8463 0.9727
-0.9104 6.2423 -2.8464 0.9727
-2.5276 5.7808 -2.8468 0.9727
-3.0322 5.5332 -2.8470 0.9727
-3.5128 5.2416 -2.8471 0.9727
-5.3963 3.8840 -3.0000 0.9712
-5.7207 3.3884 -3.0001 0.9712
-6.4130 1.7567 -3.0003 0.9712
-6.5440 1.1790 -3.0003 0.9712
-6.3649 0.0000 -3.0003 0.9722
-6.2640 -1.1285 -3.0002 0.9722
-6.1386 -1.6815 -3.0002 0.9722
-5.9645 -2.2212 -3.0002 0.9722
-5.7430 -2.7432 -3.0001 0.9722
-4.8138 -4.1627 -2.9999 0.9722
-4.4241 -4.5744 -2.9998 0.9723
-3.9992 -4.9499 -2.9996 0.9723
-3.5426 -5.2860 -2.9995 0.9723
-2.5491 -5.8298 -2.9993 0.9723
-1.4749 -6.1888 -2.9990 0.9723
0.2126 -6.3577 -2.9985 0.9723
0.7775 -6.3132 -2.9984 0.9723
1.3363 -6.2186 -2.9982 0.9723
1.8844 -6.0747 -2.9981 0.9723
2.9314 -5.6439 -2.9978 0.9723
3.4219 -5.3603 -2.9977 0.9723
3.8853 -5.0343 -2.9976 0.9723
4.3178 -4.6683 -2.9975 0.9723
5.6748 -2.8676 -2.9971 0.9723
6.3562 -0.1416 -2.9969 0.9723
6.2807 0.9876 -2.9969 0.9723
6.1679 1.5427 -2.9970 0.9723
4.9012 4.0510 -2.9973 0.9723
6.4061 6.3352 -4.2469 0.9609
5.8170 6.8804 -4.2471 0.9609
3.4713 4.9380 -2.8453 0.9737
2.5410 5.4758 -2.8455 0.9737
2.0437 5.6804 -2.8456 0.9737
1.0042 5.9534 -2.8459 0.9737
0.4704 6.0194 -2.8461 0.9737
-0.0673 6.0377 -2.8462 0.9737
-0.6044 6.0080 -2.8463 0.9737
-1.1368 5.9307 -2.8465 0.9736
-1.6602 5.8063 -2.8466 0.9736
-2.6636 5.4204 -2.8469 0.9736
-3.5828 4.8626 -2.8471 0.9736
-5.3259 3.4841 -3.0000 0.9722
-6.3586 -0.2835 -3.0003 0.9722
-6.3081 -0.8483 -3.0002 0.9722
-6.0576 -1.9533 -3.0002 0.9722
-5.3260 -3.4841 -3.0000 0.9722
-4.9946 -3.9441 -2.9999 0.9722
-3.3036 -5.4384 -2.9995 0.9723
-2.8063 -5.7106 -2.9993 0.9723
-2.2868 -5.9375 -2.9992 0.9723
-0.0709 -6.3610 -2.9986 0.9723
0.4956 -6.3417 -2.9985 0.9723
1.0580 -6.2721 -2.9983 0.9723
1.6120 -6.1528 -2.9982 0.9723
3.1798 -5.5075 -2.9978 0.9723
3.6572 -5.2025 -2.9976 0.9723
4.1056 -4.8561 -2.9975 0.9723
6.0062 -2.0855 -2.9970 0.9723
6.2807 -0.9876 -2.9969 0.9723
6.3436 -0.4246 -2.9969 0.9723
6.2305 1.2664 -2.9970 0.9723
6.0931 1.8160 -2.9970 0.9723
5.9074 2.3511 -2.9970 0.9723
5.3972 3.3614 -2.9972 0.9723
6.6818 6.0433 -4.2468 0.9609
6.1176 6.6143 -4.2470 0.9609
5.5048 7.1328 -4.2471 0.9609
3.2480 5.0879 -2.8453 0.9737
2.2946 5.5837 -2.8456 0.9737
1.7886 5.7660 -2.8457 0.9737
-0.3362 6.0289 -2.8463 0.9737
-0.8715 5.9753 -2.8464 0.9737
-1.3999 5.8743 -2.8465 0.9736
-1.9173 5.7267 -2.8467 0.9736
-2.4195 5.5335 -2.8468 0.9736
-2.9025 5.2965 -2.8469 0.9736
-3.3626 5.0173 -2.8471 0.9736
-3.8276 4.7375 -2.8709 0.9734
-4.4241 4.5745 -2.9997 0.9723
-4.8138 4.1627 -2.9998 0.9722
-5.1654 3.7178 -2.9999 0.9722
-5.7430 2.7432 -3.0001 0.9722
-6.2640 1.1286 -3.0002 0.9722
-6.3396 0.5665 -3.0002 0.9722
-6.0755 -0.5429 -3.0002 0.9732
-6.0031 -1.0815 -3.0002 0.9732
-5.7161 -2.1287 -3.0001 0.9732
-4.9502 -3.5629 -2.9999 0.9732
-4.2398 -4.3839 -2.9997 0.9732
-3.8327 -4.7437 -2.9996 0.9732
-0.3394 -6.0872 -2.9987 0.9732
2.8093 -5.4089 -2.9979 0.9732
3.2795 -5.1372 -2.9977 0.9732
3.7236 -4.8247 -2.9976 0.9732
4.1381 -4.4740 -2.9975 0.9732
4.5197 -4.0878 -2.9974 0.9732
5.4387 -2.7482 -2.9972 0.9732
5.8396 -1.7404 -2.9971 0.9732
6.0555 -0.6774 -2.9970 0.9732
6.0193 0.9465 -2.9970 0.9732
5.7563 1.9988 -2.9971 0.9732
5.5556 2.5032 -2.9971 0.9732
5.3109 2.9879 -2.9972 0.9732
5.0240 3.4488 -2.9973 0.9732
4.6972 3.8824 -2.9974 0.9732
6.1395 6.0715 -4.2470 0.9622
0.4508 5.7688 -2.8461 0.9745
-0.0645 5.7863 -2.8462 0.9745
-1.5911 5.5645 -2.8466 0.9745
-2.5527 5.1947 -2.8468 0.9745
-3.4872 4.7329 -2.8915 0.9741
-4.4310 4.1908 -2.9997 0.9732
-5.8052 1.8720 -3.0001 0.9732
-5.9489 1.3478 -3.0001 0.9732
-6.0453 0.8130 -3.0002 0.9732
-6.0937 -0.2717 -3.0002 0.9732
-5.8052 -1.8719 -3.0001 0.9732
-5.6155 -2.3812 -3.0001 0.9732
-5.1041 -3.3389 -2.9999 0.9732
-4.7865 -3.7798 -2.9998 0.9732
-3.6175 -4.9096 -2.9995 0.9732
-2.6894 -5.4728 -2.9993 0.9732
0.4749 -6.0777 -2.9985 0.9732
1.0139 -6.0110 -2.9983 0.9732
2.0635 -5.7355 -2.9981 0.9732
2.5657 -5.5288 -2.9979 0.9732
3.9347 -4.6540 -2.9976 0.9732
4.6972 -3.8824 -2.9974 0.9732
5.5556 -2.5032 -2.9971 0.9732
5.9113 -1.4785 -2.9970 0.9732
6.0796 -0.4070 -2.9970 0.9732
6.0917 0.1358 -2.9970 0.9732
6.0555 0.6775 -2.9970 0.9732
5.6616 2.2533 -2.9971 0.9732
5.1726 3.2215 -2.9972 0.9732
5.8631 6.3391 -4.2470 0.9622
4.6465 7.2787 -4.2474 0.9622
2.6665 5.1340 -2.8455 0.9745
1.2156 5.6569 -2.8459 0.9745
-1.3416 5.6297 -2.8465 0.9745
-2.7817 5.0759 -2.8469 0.9745
-3.8109 4.7168 -2.9826 0.9733
-4.9502 3.5630 -2.9999 0.9732
-5.2478 3.1083 -3.0000 0.9732
-5.7160 2.1287 -3.0001 0.9732
-5.8829 1.6115 -3.0001 0.9732
-6.0030 1.0815 -3.0002 0.9732
-6.0755 0.5429 -3.0002 0.9732
-5.8287 -0.5208 -3.0001 0.9740
-5.7592 -1.0376 -3.0001 0.9740
-5.6439 -1.5460 -3.0001 0.9740
-5.4839 -2.0422 -3.0000 0.9740
-5.2802 -2.5221 -3.0000 0.9740
-5.0347 -2.9820 -2.9999 0.9740
-3.6770 -4.5511 -2.9996 0.9740
-3.2572 -4.8601 -2.9994 0.9740
-2.8116 -5.1305 -2.9993 0.9740
-1.8572 -5.5472 -2.9991 0.9740
-1.3561 -5.6903 -2.9990 0.9740
-0.3256 -5.8401 -2.9987 0.9741
2.2228 -5.4089 -2.9980 0.9741
3.1464 -4.9287 -2.9978 0.9741
3.5724 -4.6289 -2.9977 0.9741
5.7289 -1.1645 -2.9971 0.9741
5.8098 -0.6499 -2.9971 0.9741
5.8445 -0.1302 -2.9971 0.9741
5.8329 0.3905 -2.9971 0.9741
5.5227 1.9177 -2.9971 0.9741
5.0953 2.8666 -2.9972 0.9741
4.8201 3.3088 -2.9973 0.9741
4.5066 3.7248 -2.9974 0.9741
5.3487 6.3264 -4.2472 0.9634
1.8791 5.2230 -2.8457 0.9754
-0.0618 5.5514 -2.8462 0.9754
-1.0452 5.4530 -2.8465 0.9754
-1.9957 5.1817 -2.8467 0.9753
-2.8853 4.7499 -2.8492 0.9753
-3.8761 4.3828 -2.9996 0.9740
-4.5921 3.6263 -2.9998 0.9740
-4.8968 3.2034 -2.9999 0.9740
-5.1626 2.7548 -2.9999 0.9740
-5.3874 2.2845 -3.0000 0.9740
-5.5694 1.7959 -3.0000 0.9740
-5.8461 -0.2607 -3.0001 0.9740
-5.7997 -0.7800 -3.0001 0.9740
-5.1626 -2.7548 -2.9999 0.9740
-4.8968 -3.2033 -2.9999 0.9740
-4.2510 -4.0205 -2.9997 0.9740
-3.0374 -5.0003 -2.9994 0.9740
-2.5802 -5.2505 -2.9993 0.9740
-1.6083 -5.6244 -2.9990 0.9740
-0.0652 -5.8486 -2.9986 0.9741
1.9797 -5.5027 -2.9981 0.9741
2.4615 -5.3044 -2.9980 0.9741
4.1573 -4.1112 -2.9975 0.9741
4.5066 -3.7248 -2.9974 0.9741
5.5227 -1.9177 -2.9971 0.9741
5.6714 -1.4185 -2.9971 0.9741
5.7751 -0.9081 -2.9971 0.9741
5.8329 -0.3904 -2.9971 0.9741
5.7289 1.1645 -2.9971 0.9741
5.6026 1.6697 -2.9971 0.9741
5.2179 2.6368 -2.9972 0.9741
4.9626 3.0908 -2.9973 0.9741
4.6680 3.5203 -2.9974 0.9741
4.3362 3.9219 -2.9974 0.9741
5.0616 6.5585 -4.2473 0.9634
0.6786 5.5097 -2.8460 0.9754
-0.3091 5.5432 -2.8463 0.9754
-0.8013 5.4940 -2.8464 0.9754
-1.7628 5.2653 -2.8466 0.9753
-2.2246 5.0878 -2.8468 0.9753
-2.6687 4.8698 -2.8469 0.9753
-3.1682 4.7273 -2.9175 0.9747
-3.6770 4.5511 -2.9995 0.9740
-4.0676 4.2059 -2.9996 0.9740
-4.7491 3.4182 -2.9998 0.9740
-5.0347 2.9821 -2.9999 0.9740
-5.4838 2.0423 -3.0000 0.9740
-5.6439 1.5461 -3.0001 0.9740
-5.7592 1.0376 -3.0001 0.9740
-5.8287 0.5209 -3.0001 0.9740
-5.6197 0.0000 -3.0001 0.9748
-5.5307 -0.9964 -3.0000 0.9748
-5.2663 -1.9612 -3.0000 0.9748
-5.0707 -2.4221 -2.9999 0.9748
-4.2503 -3.6754 -2.9997 0.9748
-3.1280 -4.6672 -2.9994 0.9748
-2.2507 -5.1475 -2.9992 0.9748
-1.3023 -5.4646 -2.9989 0.9748
-0.3127 -5.6084 -2.9987 0.9749
0.1877 -5.6137 -2.9985 0.9749
0.6866 -5.5745 -2.9984 0.9749
1.1800 -5.4911 -2.9983 0.9749
1.6639 -5.3640 -2.9982 0.9749
2.1346 -5.1944 -2.9980 0.9749
2.5884 -4.9836 -2.9979 0.9749
3.0216 -4.7333 -2.9978 0.9749
3.4308 -4.4454 -2.9977 0.9749
3.8127 -4.1222 -2.9976 0.9749
4.4829 -3.3807 -2.9974 0.9749
4.7659 -2.9682 -2.9973 0.9749
5.0111 -2.5322 -2.9973 0.9749
5.2165 -2.0761 -2.9972 0.9749
5.5018 -1.1183 -2.9971 0.9749
5.5794 -0.6241 -2.9971 0.9749
5.6128 -0.1251 -2.9971 0.9749
5.6017 0.3750 -2.9971 0.9749
5.3037 1.8417 -2.9972 0.9749
5.1188 2.3064 -2.9972 0.9749
4.6290 3.1776 -2.9974 0.9749
3.9925 3.9482 -2.9975 0.9749
5.1366 6.0756 -4.2472 0.9646
1.8046 5.0159 -2.8457 0.9761
0.8867 5.2568 -2.8459 0.9761
0.4153 5.3151 -2.8461 0.9761
-0.5337 5.3050 -2.8463 0.9761
-1.4659 5.1268 -2.8466 0.9761
-2.3518 4.7860 -2.8468 0.9761
-2.8676 4.7208 -2.9487 0.9753
-3.3328 4.5234 -2.9995 0.9748
-3.7223 4.2089 -2.9996 0.9748
-4.0823 3.8611 -2.9997 0.9748
-4.4099 3.4825 -2.9997 0.9748
-4.9577 2.6455 -2.9999 0.9748
-5.5696 0.7490 -3.0000 0.9748
-5.4808 -1.2418 -3.0000 0.9748
-5.3484 -1.7246 -3.0000 0.9748
-5.1736 -2.1938 -2.9999 0.9748
-4.7025 -3.0762 -2.9998 0.9748
-4.0823 -3.8610 -2.9997 0.9748
-3.7224 -4.2089 -2.9996 0.9748
-2.4779 -5.0422 -2.9992 0.9748
-2.0191 -5.2426 -2.9991 0.9748
-1.5445 -5.4013 -2.9990 0.9748
0.9342 -5.5383 -2.9984 0.9749
2.3639 -5.0940 -2.9980 0.9749
2.8078 -4.8632 -2.9979 0.9749
3.6253 -4.2880 -2.9976 0.9749
3.9925 -3.9482 -2.9975 0.9749
4.3279 -3.5771 -2.9975 0.9749
5.1188 -2.3064 -2.9973 0.9749
5.3037 -1.8416 -2.9972 0.9749
5.5461 -0.8721 -2.9971 0.9749
5.5794 0.6242 -2.9971 0.9749
5.5018 1.1183 -2.9971 0.9749
5.2165 2.0761 -2.9972 0.9749
5.0111 2.5322 -2.9973 0.9749
4.7659 2.9683 -2.9973 0.9749
4.8609 6.2985 -4.2473 0.9646
3.6674 7.0610 -4.2476 0.9646
2.0262 4.9304 -2.8457 0.9761
0.6517 5.2912 -2.8460 0.9761
-0.7695 5.2761 -2.8464 0.9761
-1.6929 5.0565 -2.8466 0.9761
-3.1280 4.6673 -2.9994 0.9748
-3.5311 4.3705 -2.9995 0.9748
-4.5607 3.2826 -2.9998 0.9748
-4.8349 2.8637 -2.9999 0.9748
-5.2662 1.9612 -3.0000 0.9748
-5.4200 1.4847 -3.0000 0.9748
-5.5307 0.9964 -3.0000 0.9748
-5.5974 0.5002 -3.0001 0.9748
-5.3159 -0.9577 -3.0000 0.9756
-5.2096 -1.4270 -3.0000 0.9756
-5.0618 -1.8850 -2.9999 0.9756
-4.3837 -3.1551 -2.9997 0.9756
-4.0853 -3.5327 -2.9997 0.9756
-3.7546 -3.8822 -2.9996 0.9756
-3.3940 -4.2008 -2.9995 0.9756
-2.5953 -4.7357 -2.9993 0.9756
-1.7143 -5.1204 -2.9990 0.9756
0.6599 -5.3582 -2.9984 0.9756
1.1343 -5.2780 -2.9983 0.9756
2.4880 -4.7903 -2.9979 0.9756
2.9044 -4.5496 -2.9978 0.9756
3.2977 -4.2729 -2.9977 0.9756
3.6648 -3.9623 -2.9976 0.9756
4.3090 -3.2496 -2.9975 0.9756
4.8167 -2.4340 -2.9973 0.9756
5.2884 -1.0749 -2.9972 0.9756
5.3630 -0.5999 -2.9972 0.9756
5.3844 0.3604 -2.9972 0.9756
5.3310 0.8383 -2.9972 0.9756
5.2353 1.3095 -2.9972 0.9756
5.0980 1.7702 -2.9972 0.9756
4.9203 2.2170 -2.9973 0.9756
4.1600 3.4384 -2.9975 0.9756
3.8376 3.7951 -2.9976 0.9756
4.3981 6.2564 -4.2474 0.9656
3.2194 6.9375 -4.2477 0.9656
-0.0571 5.1243 -2.8462 0.9768
-0.5130 5.0991 -2.8463 0.9768
-1.8423 4.7830 -2.8467 0.9768
-2.8037 4.6155 -2.9993 0.9756
-3.2035 4.3478 -2.9994 0.9756
-3.9238 3.7112 -2.9996 0.9756
-4.2387 3.3473 -2.9997 0.9756
-4.7653 2.5428 -2.9998 0.9756
-5.1408 1.6577 -2.9999 0.9756
-5.3533 0.7200 -3.0000 0.9756
-5.3533 -0.7199 -3.0000 0.9756
-5.2680 -1.1935 -3.0000 0.9756
-5.1408 -1.6577 -2.9999 0.9756
-4.9728 -2.1086 -2.9999 0.9756
-4.7653 -2.5428 -2.9998 0.9756
-4.2387 -3.3473 -2.9997 0.9756
-3.9239 -3.7112 -2.9996 0.9756
-3.2035 -4.3478 -2.9994 0.9756
-2.8037 -4.6155 -2.9993 0.9756
-2.3817 -4.8465 -2.9992 0.9756
-1.9408 -5.0391 -2.9991 0.9756
-1.4845 -5.1916 -2.9990 0.9756
0.4206 -5.3824 -2.9985 0.9756
0.8979 -5.3234 -2.9984 0.9756
1.3681 -5.2221 -2.9982 0.9756
1.8274 -5.0794 -2.9981 0.9756
2.2722 -4.8964 -2.9980 0.9756
2.6989 -4.6746 -2.9979 0.9756
3.1041 -4.4156 -2.9978 0.9756
4.1600 -3.4383 -2.9975 0.9756
4.7035 -2.6461 -2.9974 0.9756
4.9203 -2.2170 -2.9973 0.9756
5.0980 -1.7702 -2.9973 0.9756
5.3310 -0.8382 -2.9972 0.9756
5.3844 -0.3604 -2.9972 0.9756
5.3951 0.1203 -2.9972 0.9756
5.1718 1.5414 -2.9972 0.9756
5.0141 1.9956 -2.9973 0.9756
4.8167 2.4340 -2.9973 0.9756
4.5810 2.8531 -2.9974 0.9756
4.3090 3.2496 -2.9975 0.9756
3.6648 3.9623 -2.9976 0.9756
4.6724 6.0541 -4.2474 0.9656
3.5252 6.7871 -4.2477 0.9656
2.9071 7.0742 -4.2478 0.9656
1.5181 4.8938 -2.8458 0.9768
1.0765 5.0098 -2.8459 0.9768
0.6264 5.0859 -2.8460 0.9768
0.1713 5.1217 -2.8461 0.9768
-0.7396 5.0713 -2.8464 0.9768
-1.6272 4.8602 -2.8466 0.9768
-2.0697 4.7335 -2.8693 0.9766
-2.5830 4.7134 -2.9851 0.9757
-3.3940 4.2009 -2.9995 0.9756
-3.7546 3.8822 -2.9996 0.9756
-4.0853 3.5327 -2.9997 0.9756
-4.3837 3.1552 -2.9997 0.9756
-5.0618 1.8850 -2.9999 0.9756
-5.2095 1.4271 -3.0000 0.9756
-5.3159 0.9577 -3.0000 0.9756
-4.6884 -2.2395 -2.9998 0.9763
-4.2169 -3.0351 -2.9997 0.9763
-3.9299 -3.3984 -2.9996 0.9763
