ply
format ascii 1.0
element vertex 1588
property float32 x
property float32 y
property float32 z
property float32 I
end_header
-10.9178 7.1421 3.4377 0.9475
2.3967 -5.8321 1.5499 0.9744
-10.9170 7.1416 3.2066 0.9477
2.1695 -6.0303 1.5753 0.9739
1.9017 -6.1306 1.4651 0.9740
2.1001 -5.8375 1.4160 0.9749
2.5826 -5.5653 1.4004 0.9751
3.2399 -5.6117 1.4790 0.9738
1.8522 -5.9710 1.3180 0.9748
3.6126 -5.6591 1.4154 0.9729
-10.9155 7.1406 2.7499 0.9481
1.6687 -6.3695 1.3881 0.9734
2.0613 -5.7296 1.2837 0.9754
2.5376 -5.4685 1.2709 0.9757
3.1483 -5.4530 1.3275 0.9746
2.2503 -5.4759 1.1457 0.9762
-10.9148 7.1401 2.5240 0.9482
2.0242 -5.6263 1.1571 0.9759
1.7831 -5.7480 1.0612 0.9759
2.2235 -5.4107 1.0315 0.9765
2.7271 -5.2506 1.0432 0.9763
-10.9140 7.1396 2.2996 0.9484
1.5826 -6.0409 1.1011 0.9750
2.4645 -5.3109 1.0324 0.9765
1.3798 -6.4212 1.0458 0.9737
1.7620 -5.6802 0.9470 0.9762
2.2013 -5.3567 0.9222 0.9768
2.6977 -5.1940 0.9320 0.9766
-10.9133 7.1392 2.0766 0.9485
1.5593 -5.9518 0.9797 0.9754
1.9762 -5.4929 0.9295 0.9766
2.4398 -5.2576 0.9230 0.9768
2.9885 -5.1762 0.9518 0.9761
1.3494 -6.2797 0.9136 0.9744
2.6691 -5.1388 0.8236 0.9769
1.5401 -5.8786 0.8644 0.9757
1.9555 -5.4355 0.8216 0.9769
2.4157 -5.2056 0.8163 0.9771
2.1636 -5.2648 0.7133 0.9773
2.6470 -5.0964 0.7197 0.9771
3.2557 -5.1000 0.7582 0.9759
2.3977 -5.1669 0.7138 0.9773
3.6758 -5.2289 0.8010 0.9746
1.3131 -6.1106 0.6779 0.9752
1.7181 -5.5385 0.6290 0.9769
2.1522 -5.2370 0.6141 0.9775
-10.9112 7.1378 1.4142 0.9489
1.1509 -6.8229 0.7505 0.9725
2.9121 -5.0439 0.6317 0.9768
3.6360 -5.1722 0.6858 0.9749
2.1409 -5.2096 0.5164 0.9776
2.6175 -5.0396 0.5206 0.9774
1.9183 -5.3319 0.5195 0.9775
2.8954 -5.0149 0.5309 0.9770
3.6046 -5.1276 0.5746 0.9751
1.2918 -6.0116 0.4608 0.9756
4.1887 -5.4275 0.5138 0.9729
-10.9097 7.1368 0.9770 0.9491
1.1032 -6.5405 0.4971 0.9737
1.9077 -5.3026 0.4223 0.9776
3.5739 -5.0839 0.4657 0.9754
1.2839 -5.9748 0.3559 0.9758
1.6933 -5.4588 0.3329 0.9774
2.1240 -5.1686 0.3255 0.9779
2.5963 -4.9988 0.3281 0.9777
-10.9090 7.1364 0.7593 0.9491
1.0910 -6.4681 0.3820 0.9741
1.9021 -5.2871 0.3273 0.9777
2.3536 -5.0719 0.3257 0.9778
3.5500 -5.0500 0.3595 0.9756
1.6903 -5.4491 0.2372 0.9774
2.1205 -5.1600 0.2320 0.9779
2.5920 -4.9904 0.2338 0.9777
3.1701 -4.9658 0.2450 0.9767
-10.9083 7.1359 0.5420 0.9492
1.0870 -6.4443 0.2717 0.9742
1.4839 -5.6641 0.2435 0.9768
1.8990 -5.2783 0.2332 0.9778
1.2774 -5.9446 0.1516 0.9760
2.1171 -5.1516 0.1389 0.9780
-10.9076 7.1354 0.3251 0.9492
1.0830 -6.4206 0.1624 0.9743
1.4809 -5.6527 0.1457 0.9769
1.8958 -5.2696 0.1397 0.9778
2.3458 -5.0551 0.1390 0.9779
3.5311 -5.0231 0.1531 0.9757
1.2742 -5.9296 0.0504 0.9760
2.1136 -5.1431 0.0462 0.9780
2.5834 -4.9739 0.0466 0.9778
1.8927 -5.2609 0.0465 0.9779
2.1137 -5.1434 -0.0462 0.9780
2.5835 -4.9742 -0.0466 0.9778
4.0381 -5.2323 -0.0549 0.9739
1.8928 -5.2612 -0.0465 0.9779
2.3421 -5.0470 -0.0462 0.9780
1.2775 -5.9450 -0.1516 0.9760
2.1172 -5.1519 -0.1389 0.9780
2.5878 -4.9824 -0.1400 0.9778
3.1637 -4.9558 -0.1466 0.9767
-10.9055 7.1340 -0.3250 0.9492
1.0831 -6.4213 -0.1624 0.9743
1.8959 -5.2698 -0.1397 0.9778
2.3459 -5.0554 -0.1390 0.9779
1.2807 -5.9601 -0.2535 0.9759
1.6904 -5.4494 -0.2372 0.9774
2.1207 -5.1603 -0.2320 0.9779
2.5921 -4.9907 -0.2338 0.9777
3.1703 -4.9661 -0.2450 0.9767
4.0706 -5.2745 -0.2770 0.9737
2.8642 -4.9609 -0.2382 0.9773
3.5408 -5.0369 -0.2560 0.9757
1.6934 -5.4591 -0.3329 0.9774
2.5964 -4.9991 -0.3281 0.9777
3.1769 -4.9766 -0.3439 0.9766
-10.9041 7.1331 -0.7589 0.9491
1.4870 -5.6760 -0.3417 0.9768
1.9023 -5.2874 -0.3273 0.9777
2.3537 -5.0721 -0.3257 0.9778
3.5503 -5.0504 -0.3596 0.9756
1.6991 -5.4775 -0.4298 0.9773
1.1036 -6.5426 -0.4972 0.9737
2.8794 -4.9873 -0.4316 0.9772
1.7087 -5.5083 -0.5287 0.9771
2.6179 -5.0404 -0.5207 0.9774
3.2127 -5.0327 -0.5474 0.9763
4.2999 -5.5715 -0.6452 0.9721
1.5031 -5.7374 -0.5437 0.9765
1.3134 -6.1121 -0.6781 0.9752
2.1525 -5.2379 -0.6142 0.9775
-10.9019 7.1317 -1.4130 0.9489
2.3853 -5.1403 -0.6147 0.9775
2.9126 -5.0448 -0.6318 0.9768
3.6369 -5.1736 -0.6859 0.9749
1.3266 -6.1733 -0.7913 0.9749
1.7282 -5.5712 -0.7310 0.9768
3.2564 -5.1011 -0.7584 0.9759
-10.9012 7.1312 -1.6324 0.9488
1.5229 -5.8128 -0.7530 0.9761
1.9401 -5.3927 -0.7182 0.9772
2.3981 -5.1678 -0.7139 0.9773
1.3503 -6.2836 -0.9142 0.9744
1.7439 -5.6217 -0.8372 0.9765
3.2968 -5.1643 -0.8715 0.9755
1.5407 -5.8807 -0.8647 0.9757
2.4164 -5.2072 -0.8165 0.9771
3.7606 -5.3496 -0.9301 0.9739
1.3807 -6.4253 -1.0465 0.9737
1.7626 -5.6820 -0.9473 0.9762
2.2020 -5.3583 -0.9225 0.9768
2.6986 -5.1957 -0.9323 0.9766
3.3405 -5.2328 -0.9886 0.9752
-10.8998 7.1303 -2.0740 0.9486
1.5599 -5.9541 -0.9801 0.9754
1.9768 -5.4946 -0.9299 0.9766
2.4405 -5.2593 -0.9232 0.9768
3.8539 -5.4822 -1.0671 0.9732
1.4324 -6.6657 -1.2022 0.9727
2.2242 -5.4124 -1.0318 0.9765
2.7280 -5.2523 -1.0436 0.9762
12.3507 6.9484 -2.4987 0.9441
1.5834 -6.0437 -1.1016 0.9749
1.9980 -5.5535 -1.0407 0.9763
3.0265 -5.2420 -1.0673 0.9757
2.7665 -5.3264 -1.1615 0.9758
3.4931 -5.4719 -1.2563 0.9739
13.4064 6.0407 -2.8456 0.9419
12.2968 6.9180 -2.7304 0.9441
9.4943 11.2299 -2.8458 0.9418
8.4572 12.0306 -2.8458 0.9418
6.1904 13.3400 -2.8459 0.9418
4.9786 13.8383 -2.8460 0.9418
3.7272 14.2268 -2.8461 0.9418
2.4462 14.5024 -2.8461 0.9418
1.1458 14.6628 -2.8462 0.9418
-0.1638 14.7070 -2.8462 0.9418
-4.0438 14.1421 -2.8464 0.9418
-5.2866 13.7262 -2.8465 0.9418
-7.6368 12.5719 -2.8466 0.9418
-8.7256 11.8426 -2.8466 0.9418
-9.7452 11.0191 -2.8467 0.9418
-10.6875 10.1082 -2.8467 0.9418
-11.5449 9.1169 -2.8468 0.9418
-10.7703 7.0456 -2.4906 0.9489
1.6248 -6.2019 -1.2407 0.9742
2.0253 -5.6294 -1.1577 0.9759
13.6621 5.4374 -2.8456 0.9419
13.1241 6.6319 -2.8456 0.9418
12.4819 7.7738 -2.8456 0.9418
11.7406 8.8540 -2.8457 0.9418
10.9061 9.8640 -2.8457 0.9418
9.9850 10.7957 -2.8457 0.9418
8.9847 11.6418 -2.8458 0.9418
5.5901 13.6026 -2.8460 0.9418
3.0898 14.3788 -2.8461 0.9418
-0.8188 14.6852 -2.8463 0.9418
-3.4098 14.3080 -2.8464 0.9418
-7.0691 12.8996 -2.8466 0.9418
-14.2268 0.0000 -2.9993 0.9435
-14.1703 -1.2663 -2.9993 0.9435
-13.3320 -4.9649 -2.9992 0.9435
-11.5463 -8.3105 -2.9991 0.9435
-10.7606 -9.3051 -2.9991 0.9435
-9.8896 -10.2257 -2.9991 0.9435
-7.9196 -11.8168 -2.9990 0.9435
-6.8363 -12.4746 -2.9989 0.9435
-5.6987 -13.0333 -2.9989 0.9435
-0.7919 -14.2015 -2.9986 0.9435
0.4753 -14.2154 -2.9986 0.9435
1.7386 -14.1164 -2.9985 0.9435
2.9881 -13.9053 -2.9984 0.9435
1.8534 -5.9747 -1.3188 0.9748
2.8182 -5.4261 -1.2890 0.9753
9.6563 -10.4403 -2.9981 0.9435
10.5471 -9.5393 -2.9981 0.9435
14.1322 -1.5809 -2.9979 0.9435
14.2168 -0.3168 -2.9979 0.9435
14.1886 0.9498 -2.9979 0.9435
14.0478 2.2089 -2.9979 0.9435
13.7955 3.4505 -2.9980 0.9435
12.3064 5.5450 -2.8456 0.9463
10.4045 8.5996 -2.8457 0.9463
2.2455 13.3122 -2.8461 0.9463
-0.1504 13.5000 -2.8462 0.9463
-1.3514 13.4332 -2.8463 0.9463
-2.5417 13.2599 -2.8463 0.9463
-3.7119 12.9813 -2.8464 0.9463
-5.9549 12.1180 -2.8465 0.9463
-8.0094 10.8705 -2.8466 0.9463
-10.7411 7.0265 -2.7059 0.9489
-13.8750 3.1437 -2.9993 0.9435
-14.0998 1.8963 -2.9993 0.9435
-14.2126 -0.6338 -2.9993 0.9435
-14.0998 -1.8963 -2.9993 0.9435
-13.8750 -3.1437 -2.9993 0.9435
-6.2737 -12.7666 -2.9989 0.9435
-5.1124 -13.2741 -2.9988 0.9435
-0.1585 -14.2226 -2.9986 0.9435
2.3657 -14.0248 -2.9985 0.9435
2.0624 -5.7326 -1.2844 0.9754
2.5390 -5.4713 -1.2716 0.9756
3.1503 -5.4565 -1.3283 0.9746
8.1789 -11.6344 -2.9982 0.9435
9.1817 -10.8602 -2.9982 0.9435
11.7242 -8.0482 -2.9980 0.9435
12.9652 -5.8419 -2.9980 0.9435
13.7954 -3.4505 -2.9979 0.9435
14.0478 -2.2089 -2.9979 0.9435
14.1322 1.5809 -2.9979 0.9435
13.9355 2.8325 -2.9979 0.9435
13.6281 4.0616 -2.9980 0.9435
12.5411 4.9912 -2.8456 0.9463
10.0112 9.0546 -2.8457 0.9463
6.2222 11.9798 -2.8459 0.9463
1.6503 13.3992 -2.8461 0.9463
0.4511 13.4931 -2.8462 0.9463
-0.7516 13.4800 -2.8463 0.9463
-3.1299 13.1337 -2.8464 0.9463
-4.2865 12.8032 -2.8464 0.9463
-5.4092 12.3711 -2.8465 0.9463
-6.4889 11.8408 -2.8465 0.9463
-7.5172 11.2164 -2.8466 0.9463
-12.8373 4.7807 -2.8879 0.9455
-14.1703 1.2663 -2.9993 0.9435
-13.1405 0.0000 -2.9992 0.9475
-13.0883 -1.1696 -2.9992 0.9475
-10.6647 -7.6760 -2.9991 0.9475
-9.9391 -8.5946 -2.9991 0.9475
-5.2637 -12.0383 -2.9988 0.9475
-4.1712 -12.4588 -2.9988 0.9475
-3.0457 -12.7804 -2.9987 0.9475
-1.8961 -13.0005 -2.9987 0.9475
1.9037 -6.1370 -1.4666 0.9740
2.3305 -5.6709 -1.3994 0.9752
2.8750 -5.5354 -1.4237 0.9747
7.0684 -11.0724 -2.9983 0.9475
9.7421 -8.8112 -2.9981 0.9475
11.7235 -5.9241 -2.9980 0.9475
12.2041 -4.8571 -2.9980 0.9475
13.0536 -1.4603 -2.9980 0.9475
13.1057 0.8773 -2.9980 0.9475
12.9756 2.0403 -2.9980 0.9475
10.8662 6.1133 -2.8457 0.9501
9.6104 7.9432 -2.8458 0.9501
8.0500 9.5215 -2.8458 0.9501
5.2486 11.3106 -2.8460 0.9501
3.1602 12.0624 -2.8461 0.9501
2.0741 12.2960 -2.8461 0.9501
-1.2482 12.4078 -2.8463 0.9501
-3.4285 11.9903 -2.8464 0.9501
-5.5003 11.1928 -2.8465 0.9501
-6.4748 10.6590 -2.8465 0.9501
-9.0612 8.5700 -2.8466 0.9501
-10.4373 6.8278 -2.8467 0.9501
-11.0037 5.8718 -2.8467 0.9501
-13.0232 1.7515 -2.9992 0.9475
-13.1274 0.5854 -2.9992 0.9475
-13.1274 -0.5854 -2.9992 0.9475
-13.0232 -1.7514 -2.9992 0.9475
-12.5062 -4.0327 -2.9992 0.9475
-12.0976 -5.1298 -2.9992 0.9475
-11.5929 -6.1861 -2.9991 0.9475
-10.9961 -7.1933 -2.9991 0.9475
-10.3121 -8.1434 -2.9991 0.9475
-9.5463 -9.0288 -2.9990 0.9475
-6.8214 -11.2296 -2.9989 0.9475
-5.7948 -11.7920 -2.9989 0.9475
-4.7221 -12.2607 -2.9988 0.9475
-3.6121 -12.6321 -2.9988 0.9475
-1.3151 -13.0719 -2.9986 0.9475
-0.1464 -13.1369 -2.9986 0.9475
1.0235 -13.0975 -2.9985 0.9475
2.1851 -12.9542 -2.9985 0.9475
3.3294 -12.7080 -2.9984 0.9475
2.1021 -5.8428 -1.4173 0.9748
3.2434 -5.6178 -1.4806 0.9737
8.4809 -10.0312 -2.9982 0.9475
9.3400 -9.2364 -2.9981 0.9475
11.4480 -6.4405 -2.9981 0.9475
12.4084 -4.3087 -2.9980 0.9475
13.1057 -0.8773 -2.9980 0.9475
13.0536 1.4602 -2.9980 0.9475
12.8719 2.6163 -2.9980 0.9475
9.9546 7.5071 -2.8457 0.9501
8.4661 9.1534 -2.8458 0.9501
6.7092 10.5098 -2.8459 0.9501
5.7472 11.0654 -2.8459 0.9501
3.6944 11.9095 -2.8460 0.9501
2.6198 12.1913 -2.8461 0.9501
0.4167 12.4631 -2.8462 0.9501
-0.6943 12.4510 -2.8463 0.9501
-3.9593 11.8258 -2.8464 0.9501
-4.9962 11.4266 -2.8465 0.9501
-10.1228 7.2860 -2.8467 0.9501
-10.7312 6.3561 -2.8467 0.9501
-12.3142 4.5859 -2.9992 0.9475
-12.1533 -1.0860 -2.9992 0.9510
-11.4344 -4.2582 -2.9991 0.9510
-10.4981 -6.2180 -2.9991 0.9510
-9.2291 -7.9806 -2.9990 0.9510
-8.4820 -8.7703 -2.9990 0.9510
-7.6676 -9.4903 -2.9990 0.9510
-3.8733 -11.5689 -2.9988 0.9510
-2.8282 -11.8675 -2.9987 0.9510
-1.7606 -12.0719 -2.9987 0.9510
1.4912 -12.1075 -2.9985 0.9510
2.5629 -11.9265 -2.9985 0.9510
2.3988 -5.8371 -1.5512 0.9743
2.9722 -5.7225 -1.5850 0.9738
6.5636 -10.2816 -2.9983 0.9510
8.2823 -8.9547 -2.9982 0.9510
11.3326 -4.5103 -2.9981 0.9510
11.6890 -3.4837 -2.9980 0.9510
11.9526 -2.4295 -2.9980 0.9510
12.1214 -1.3560 -2.9980 0.9510
12.1940 -0.2717 -2.9980 0.9510
12.1698 0.8147 -2.9980 0.9510
12.0490 1.8946 -2.9980 0.9510
11.8326 2.9595 -2.9980 0.9510
11.5223 4.0010 -2.9981 0.9510
10.0902 5.6767 -2.8457 0.9534
9.5450 6.5523 -2.8458 0.9534
8.9241 7.3759 -2.8458 0.9534
8.2322 8.1410 -2.8458 0.9534
7.4751 8.8415 -2.8459 0.9534
6.6585 9.4719 -2.8459 0.9534
4.8738 10.5028 -2.8460 0.9534
3.9197 10.8950 -2.8460 0.9534
2.9345 11.2009 -2.8461 0.9534
1.9259 11.4178 -2.8461 0.9534
0.9021 11.5441 -2.8462 0.9534
-0.1290 11.5788 -2.8462 0.9534
-1.1591 11.5215 -2.8463 0.9534
-2.1800 11.3728 -2.8463 0.9534
-3.1836 11.1338 -2.8464 0.9534
-4.1620 10.8065 -2.8464 0.9534
-6.8695 9.3233 -2.8465 0.9534
-10.2177 5.4523 -2.8467 0.9534
-12.0929 1.6263 -2.9992 0.9510
-12.1896 -0.5435 -2.9992 0.9510
-12.0928 -1.6263 -2.9992 0.9510
-11.2333 -4.7634 -2.9991 0.9510
-10.7647 -5.7442 -2.9991 0.9510
-8.0829 -9.1394 -2.9990 0.9510
-7.2372 -9.8224 -2.9989 0.9510
-6.3341 -10.4274 -2.9989 0.9510
-5.3808 -10.9496 -2.9988 0.9510
-4.3848 -11.3849 -2.9988 0.9510
-3.3541 -11.7298 -2.9987 0.9510
-1.2211 -12.1383 -2.9986 0.9510
-0.1359 -12.1986 -2.9986 0.9510
0.9504 -12.1620 -2.9985 0.9510
2.0290 -12.0290 -2.9985 0.9510
2.6606 -5.7335 -1.5536 0.9743
7.0150 -9.9790 -2.9983 0.9510
7.8752 -9.3148 -2.9982 0.9510
9.4018 -7.7708 -2.9981 0.9510
12.0490 -1.8946 -2.9980 0.9510
12.1940 0.2717 -2.9980 0.9510
12.1214 1.3560 -2.9980 0.9510
11.9527 2.4295 -2.9980 0.9510
10.3331 5.2215 -2.8457 0.9534
7.8615 8.4997 -2.8458 0.9534
6.2300 9.7592 -2.8459 0.9534
3.4305 11.0589 -2.8461 0.9534
1.4154 11.4923 -2.8462 0.9534
-0.6447 11.5616 -2.8463 0.9534
-1.6712 11.4586 -2.8463 0.9534
-4.6393 10.6104 -2.8464 0.9534
-5.5654 10.1555 -2.8465 0.9534
-6.4473 9.6200 -2.8465 0.9534
-8.0510 8.3247 -2.8466 0.9534
-8.7601 7.5752 -2.8466 0.9534
-9.3996 6.7655 -2.8467 0.9534
-10.4504 4.9917 -2.8467 0.9534
-11.7681 3.2236 -2.9992 0.9510
-12.1533 1.0860 -2.9992 0.9510
-11.3820 0.0000 -2.9991 0.9540
-11.3368 -1.0130 -2.9991 0.9540
-10.9775 -3.0070 -2.9991 0.9540
-10.6662 -3.9721 -2.9991 0.9540
-10.2702 -4.9057 -2.9991 0.9540
-7.9122 -8.1811 -2.9990 0.9540
-5.4694 -9.9804 -2.9988 0.9540
-4.5593 -10.4274 -2.9988 0.9540
-3.6131 -10.7917 -2.9988 0.9540
0.3803 -11.3734 -2.9986 0.9540
2.5016 -6.0873 -1.7342 0.9731
6.9520 -9.0079 -2.9983 0.9540
8.4388 -7.6324 -2.9982 0.9540
9.0845 -6.8509 -2.9982 0.9540
10.5715 -4.2074 -2.9981 0.9540
10.9040 -3.2497 -2.9981 0.9540
11.1499 -2.2663 -2.9981 0.9540
11.3750 -0.2535 -2.9981 0.9540
11.0379 2.7608 -2.9981 0.9540
8.3247 6.8805 -2.8458 0.9563
6.2113 8.8357 -2.8459 0.9563
5.4003 9.3536 -2.8460 0.9563
4.5464 9.7973 -2.8460 0.9563
3.6564 10.1632 -2.8460 0.9563
2.7374 10.4484 -2.8461 0.9563
0.8415 10.7686 -2.8462 0.9563
-0.1203 10.8009 -2.8462 0.9563
-1.0812 10.7476 -2.8463 0.9563
-2.0335 10.6088 -2.8463 0.9563
-2.9698 10.3859 -2.8464 0.9563
-3.8824 10.0805 -2.8464 0.9563
-5.6084 9.2327 -2.8465 0.9563
-6.4080 8.6970 -2.8465 0.9563
-7.1567 8.0922 -2.8466 0.9563
-9.0406 5.9141 -2.8466 0.9563
-9.5312 5.0860 -2.8467 0.9563
-10.4787 4.4433 -2.9991 0.9540
-11.1006 2.5151 -2.9991 0.9540
-11.2804 1.5171 -2.9991 0.9540
-11.2804 -1.5171 -2.9991 0.9540
-11.1005 -2.5150 -2.9991 0.9540
-10.8326 -3.4931 -2.9991 0.9540
-10.4786 -4.4433 -2.9991 0.9540
-9.5246 -6.2307 -2.9990 0.9540
-8.9322 -7.0537 -2.9990 0.9540
-8.2688 -7.8206 -2.9990 0.9540
-7.5398 -8.5254 -2.9989 0.9540
-6.7510 -9.1625 -2.9989 0.9540
-5.9086 -9.7269 -2.9989 0.9540
-5.0194 -10.2141 -2.9988 0.9540
-4.0903 -10.6201 -2.9988 0.9540
-3.1287 -10.9419 -2.9987 0.9540
-2.1424 -11.1767 -2.9987 0.9540
-0.1268 -11.3792 -2.9986 0.9540
0.8865 -11.3451 -2.9985 0.9540
1.8927 -11.2210 -2.9985 0.9540
2.8839 -11.0078 -2.9984 0.9540
2.3069 -6.4122 -1.7956 0.9722
2.7772 -5.9847 -1.7385 0.9731
5.6894 -9.8543 -2.9983 0.9540
6.5438 -9.3087 -2.9983 0.9540
8.7703 -7.2489 -2.9982 0.9540
9.9165 -5.5789 -2.9981 0.9540
10.7484 -3.7322 -2.9981 0.9540
11.0379 -2.7608 -2.9981 0.9540
11.2398 -1.7674 -2.9981 0.9540
11.3524 -0.7600 -2.9981 0.9540
11.1499 2.2663 -2.9981 0.9540
10.9040 3.2497 -2.9981 0.9540
10.5715 4.2074 -2.9981 0.9540
9.6391 4.8708 -2.8458 0.9563
9.1673 5.7095 -2.8458 0.9563
7.3334 7.9288 -2.8459 0.9563
6.5987 8.5502 -2.8459 0.9563
4.9783 9.5849 -2.8460 0.9563
4.1055 9.9902 -2.8460 0.9563
2.2692 10.5601 -2.8461 0.9563
1.3203 10.7204 -2.8462 0.9563
-0.6014 10.7849 -2.8462 0.9563
-3.4295 10.2434 -2.8464 0.9563
-4.3277 9.8976 -2.8464 0.9563
-6.7891 8.4029 -2.8465 0.9563
-7.5101 7.7654 -2.8466 0.9563
-10.6662 3.9721 -2.9991 0.9540
-10.2807 -2.8162 -2.9991 0.9567
-9.9892 -3.7200 -2.9991 0.9567
-9.6183 -4.5943 -2.9991 0.9567
-9.1712 -5.4321 -2.9990 0.9567
-8.0626 -6.9720 -2.9990 0.9567
-7.4100 -7.6619 -2.9989 0.9567
-4.2700 -9.7656 -2.9988 0.9567
-3.3838 -10.1068 -2.9987 0.9567
-2.4708 -10.3677 -2.9987 0.9567
-0.5933 -10.6412 -2.9986 0.9567
0.3561 -10.6516 -2.9986 0.9567
3.1574 -10.1786 -2.9984 0.9567
4.0508 -9.8570 -2.9984 0.9567
5.7342 -8.9824 -2.9983 0.9567
7.2358 -7.8232 -2.9982 0.9567
7.9033 -7.1481 -2.9982 0.9567
9.0453 -5.6335 -2.9982 0.9567
9.9007 -3.9404 -2.9981 0.9567
10.2120 -3.0435 -2.9981 0.9567
10.4424 -2.1225 -2.9981 0.9567
10.0664 3.4954 -2.9981 0.9567
8.8153 4.9594 -2.8458 0.9588
7.7964 6.4439 -2.8458 0.9588
7.1920 7.1123 -2.8459 0.9588
6.5305 7.7243 -2.8459 0.9588
5.8171 8.2750 -2.8459 0.9588
5.0576 8.7600 -2.8460 0.9588
3.4244 9.5182 -2.8461 0.9588
1.6826 9.9749 -2.8461 0.9588
0.7881 10.0852 -2.8462 0.9588
-1.0126 10.0654 -2.8463 0.9588
-1.9045 9.9355 -2.8463 0.9588
-4.4619 9.0797 -2.8464 0.9588
-5.2524 8.6467 -2.8465 0.9588
-6.0012 8.1450 -2.8465 0.9588
-7.9401 6.2703 -2.8466 0.9588
-8.9533 4.7776 -2.8553 0.9587
-9.8135 4.1613 -2.9991 0.9567
-10.1450 3.2714 -2.9991 0.9567
-10.3959 2.3554 -2.9991 0.9567
-10.6489 -0.4749 -2.9991 0.9567
-8.3652 -6.6060 -2.9990 0.9567
-6.3225 -8.5810 -2.9989 0.9567
-5.5336 -9.1096 -2.9989 0.9567
-3.8307 -9.9461 -2.9988 0.9567
-2.9302 -10.2474 -2.9987 0.9567
-2.0064 -10.4673 -2.9987 0.9567
-1.0668 -10.6042 -2.9986 0.9567
-0.1187 -10.6570 -2.9986 0.9567
0.8303 -10.6251 -2.9985 0.9567
1.7726 -10.5088 -2.9985 0.9567
2.7009 -10.3092 -2.9985 0.9567
4.4858 -9.6667 -2.9984 0.9567
5.3284 -9.2290 -2.9983 0.9567
6.1286 -8.7180 -2.9983 0.9567
6.8801 -8.1378 -2.9983 0.9567
10.0664 -3.4954 -2.9981 0.9567
10.3375 -2.5856 -2.9981 0.9567
10.6321 -0.7117 -2.9981 0.9567
10.5898 1.1846 -2.9981 0.9567
10.4424 2.1225 -2.9981 0.9567
10.2121 3.0435 -2.9981 0.9567
9.9007 3.9404 -2.9981 0.9567
6.8681 7.4257 -2.8459 0.9588
5.4428 8.5260 -2.8460 0.9588
2.9970 9.6614 -2.8461 0.9588
2.1252 9.8899 -2.8461 0.9588
1.2365 10.0400 -2.8462 0.9588
-2.3452 9.8409 -2.8463 0.9588
-3.2118 9.5932 -2.8464 0.9588
-4.8620 8.8720 -2.8464 0.9588
-5.6324 8.4042 -2.8465 0.9588
-6.3581 7.8696 -2.8465 0.9588
-7.6529 6.6177 -2.8466 0.9588
-8.7051 5.1561 -2.8466 0.9588
-9.6184 4.5943 -2.9991 0.9567
-10.2807 2.8162 -2.9991 0.9567
-10.4906 1.8900 -2.9991 0.9567
-10.6172 0.9488 -2.9991 0.9567
-9.9779 -0.8916 -2.9991 0.9590
-9.3877 -3.4960 -2.9990 0.9590
-9.0392 -4.3177 -2.9990 0.9590
-6.9638 -7.2005 -2.9989 0.9590
-5.5767 -8.3210 -2.9989 0.9590
-4.8139 -8.7842 -2.9988 0.9590
-4.0129 -9.1777 -2.9988 0.9590
-3.1800 -9.4983 -2.9987 0.9590
-1.4455 -9.9113 -2.9987 0.9590
-0.5576 -10.0005 -2.9986 0.9590
1.2243 -9.9406 -2.9985 0.9590
3.8069 -9.2636 -2.9984 0.9590
5.3890 -8.4417 -2.9983 0.9590
6.8002 -7.3523 -2.9983 0.9590
7.4275 -6.7178 -2.9982 0.9590
7.9959 -6.0300 -2.9982 0.9590
8.9382 -4.5167 -2.9982 0.9590
9.5973 -2.8603 -2.9981 0.9590
9.8138 -1.9948 -2.9981 0.9590
9.9524 -1.1134 -2.9981 0.9590
9.7152 2.4300 -2.9981 0.9590
9.4604 3.2850 -2.9982 0.9590
12.3667 6.9574 -4.2480 0.9425
6.7591 6.6842 -2.8459 0.9611
6.1374 7.2593 -2.8459 0.9611
5.4670 7.7769 -2.8460 0.9611
4.7531 8.2327 -2.8460 0.9611
3.2182 8.9452 -2.8461 0.9611
2.4093 9.1963 -2.8461 0.9611
0.7406 9.4780 -2.8462 0.9611
-0.9516 9.4595 -2.8463 0.9611
-1.7898 9.3373 -2.8463 0.9611
-2.6138 9.1411 -2.8463 0.9611
-3.4171 8.8723 -2.8464 0.9611
-6.2989 7.1222 -2.8465 0.9611
-7.4620 5.8927 -2.8466 0.9611
-7.9570 5.2052 -2.8466 0.9611
-8.8379 4.7161 -2.9990 0.9590
-9.7700 2.2136 -2.9991 0.9590
-9.9282 1.3352 -2.9991 0.9590
-10.0077 0.4462 -2.9991 0.9590
-9.5341 -3.0744 -2.9991 0.9590
-8.8379 -4.7160 -2.9990 0.9590
-6.6361 -7.5036 -2.9989 0.9590
-5.9418 -8.0643 -2.9989 0.9590
-2.7538 -9.6304 -2.9987 0.9590
-1.8856 -9.8371 -2.9987 0.9590
0.7803 -9.9854 -2.9986 0.9590
1.6659 -9.8762 -2.9985 0.9590
7.1209 -7.0420 -2.9983 0.9590
8.2565 -5.6678 -2.9982 0.9590
8.7282 -4.9104 -2.9982 0.9590
9.1305 -4.1140 -2.9982 0.9590
9.4604 -3.2850 -2.9982 0.9590
9.7152 -2.4299 -2.9981 0.9590
9.8929 -1.5556 -2.9981 0.9590
9.9921 -0.6688 -2.9981 0.9590
9.9524 1.1133 -2.9981 0.9590
9.8138 1.9947 -2.9981 0.9590
9.3047 3.7032 -2.9982 0.9590
12.6642 6.3996 -4.2480 0.9425
8.0688 5.0253 -2.8458 0.9611
5.8079 7.5255 -2.8459 0.9611
4.3817 8.4363 -2.8460 0.9611
3.6135 8.7929 -2.8460 0.9611
2.8166 9.0798 -2.8461 0.9611
1.9973 9.2946 -2.8461 0.9611
-2.2040 9.2484 -2.8463 0.9611
-4.5693 8.3379 -2.8464 0.9611
-6.6099 6.8346 -2.8465 0.9611
-7.1921 6.2193 -2.8466 0.9611
-7.7172 5.5545 -2.8466 0.9611
-9.3877 3.4960 -2.9991 0.9590
-9.6616 2.6466 -2.9991 0.9590
-9.8589 1.7762 -2.9991 0.9590
-9.4433 0.0000 -2.9991 0.9611
-9.4058 -0.8405 -2.9990 0.9611
-9.1077 -2.4949 -2.9990 0.9611
-8.8495 -3.2956 -2.9990 0.9611
-8.5210 -4.0702 -2.9990 0.9611
-8.1249 -4.8123 -2.9990 0.9611
-6.5646 -6.7878 -2.9989 0.9611
-4.5379 -8.2806 -2.9988 0.9611
-3.7828 -8.6516 -2.9988 0.9611
-2.9978 -8.9538 -2.9987 0.9611
-2.1889 -9.1850 -2.9987 0.9611
-1.3627 -9.3432 -2.9987 0.9611
1.1541 -9.3709 -2.9985 0.9611
3.5887 -8.7327 -2.9984 0.9612
4.3517 -8.3785 -2.9984 0.9612
5.0801 -7.9578 -2.9984 0.9612
5.7682 -7.4740 -2.9983 0.9612
6.4104 -6.9309 -2.9983 0.9612
7.0018 -6.3328 -2.9983 0.9612
7.5376 -5.6844 -2.9982 0.9612
8.4259 -4.2578 -2.9982 0.9612
9.0473 -2.6964 -2.9982 0.9612
9.2513 -1.8804 -2.9982 0.9612
9.3259 1.4664 -2.9982 0.9612
7.3878 5.0715 -2.8459 0.9631
6.9071 5.7089 -2.8459 0.9631
5.7856 6.8433 -2.8459 0.9631
5.1536 7.3311 -2.8460 0.9631
4.4807 7.7608 -2.8460 0.9631
3.0338 8.4325 -2.8461 0.9631
-2.4640 8.6171 -2.8463 0.9631
-3.9529 8.0439 -2.8464 0.9631
-5.3166 7.2157 -2.8465 0.9631
-5.9378 6.7139 -2.8465 0.9631
-6.5119 6.1589 -2.8465 0.9631
-7.0343 5.5549 -2.8465 0.9631
-7.5008 4.9068 -2.8466 0.9631
-9.2099 2.0867 -2.9990 0.9611
-9.4339 -0.4207 -2.9991 0.9611
-9.3590 -1.2587 -2.9990 0.9611
-9.2098 -2.0867 -2.9990 0.9611
-8.6939 -3.6865 -2.9990 0.9611
-7.9024 -5.1695 -2.9990 0.9611
-7.4109 -5.8523 -2.9989 0.9611
-6.8605 -6.4886 -2.9989 0.9611
-6.2557 -7.0734 -2.9989 0.9611
-5.6012 -7.6021 -2.9989 0.9611
-4.9023 -8.0703 -2.9988 0.9611
-3.3937 -8.8114 -2.9988 0.9611
-2.5959 -9.0784 -2.9987 0.9611
-1.7776 -9.2733 -2.9987 0.9611
0.7355 -9.4130 -2.9986 0.9611
2.3928 -9.1333 -2.9985 0.9611
3.9742 -8.5641 -2.9984 0.9612
6.0953 -7.2096 -2.9983 0.9612
7.2769 -6.0146 -2.9982 0.9612
7.7833 -5.3430 -2.9982 0.9612
9.3259 -1.4664 -2.9982 0.9612
9.4194 -0.6305 -2.9982 0.9612
9.3820 1.0496 -2.9982 0.9612
9.2514 1.8804 -2.9982 0.9612
9.0473 2.6964 -2.9982 0.9612
8.7715 3.4910 -2.9982 0.9612
11.9384 6.0328 -4.2480 0.9454
6.6460 6.0110 -2.8459 0.9631
5.4750 7.0942 -2.8460 0.9631
3.4064 8.2889 -2.8461 0.9631
2.6551 8.5593 -2.8461 0.9631
1.0955 8.8947 -2.8462 0.9631
-2.8454 8.4988 -2.8464 0.9631
-3.5906 8.2120 -2.8464 0.9631
-4.9898 7.4454 -2.8465 0.9631
-5.6328 6.9718 -2.8465 0.9631
-6.2310 6.4428 -2.8465 0.9631
-6.7798 5.8627 -2.8465 0.9631
-7.2747 5.2361 -2.8466 0.9631
-8.5210 4.0702 -2.9990 0.9611
-8.8495 3.2956 -2.9990 0.9611
-9.2937 1.6744 -2.9990 0.9611
-8.9262 0.0000 -2.9990 0.9630
-8.7847 -1.5826 -2.9990 0.9630
-8.3648 -3.1151 -2.9990 0.9630
-7.2445 -5.2143 -2.9989 0.9630
-6.2051 -6.4160 -2.9989 0.9630
-4.9691 -7.4144 -2.9988 0.9630
-4.2894 -7.8271 -2.9988 0.9630
-2.0690 -8.6820 -2.9987 0.9630
-1.2881 -8.8316 -2.9987 0.9630
0.2982 -8.9198 -2.9986 0.9630
1.0909 -8.8578 -2.9985 0.9630
2.6441 -8.5238 -2.9985 0.9630
3.3922 -8.2545 -2.9984 0.9630
4.8019 -7.5221 -2.9984 0.9630
5.4523 -7.0648 -2.9983 0.9630
6.0594 -6.5514 -2.9983 0.9630
7.5748 -4.7177 -2.9982 0.9630
7.9646 -4.0247 -2.9982 0.9630
8.2912 -3.2998 -2.9982 0.9630
8.5519 -2.5487 -2.9982 0.9630
8.7448 -1.7775 -2.9982 0.9630
8.8683 -0.9921 -2.9982 0.9630
8.9214 -0.1988 -2.9982 0.9630
8.8153 1.3862 -2.9982 0.9630
6.5290 5.3963 -2.8459 0.9649
4.8714 6.9297 -2.8460 0.9649
3.5657 7.6838 -2.8460 0.9649
2.8677 7.9708 -2.8461 0.9649
0.6599 8.4455 -2.8462 0.9649
-1.5948 8.3201 -2.8463 0.9649
-2.3291 8.1452 -2.8463 0.9649
-3.7364 7.6034 -2.8464 0.9649
-5.0254 6.8206 -2.8465 0.9649
-6.6490 5.2507 -2.8465 0.9649
-8.2178 3.4846 -2.9990 0.9630
-8.7055 1.9724 -2.9990 0.9630
-8.9173 0.3977 -2.9990 0.9630
-8.9173 -0.3977 -2.9990 0.9630
-8.7055 -1.9724 -2.9990 0.9630
-7.8749 -4.2022 -2.9990 0.9630
-7.4696 -4.8864 -2.9990 0.9630
-7.0050 -5.5318 -2.9989 0.9630
-6.4848 -6.1333 -2.9989 0.9630
-4.6339 -7.6284 -2.9988 0.9630
-3.9365 -8.0104 -2.9988 0.9630
-2.4538 -8.5813 -2.9987 0.9630
-0.0994 -8.9243 -2.9986 0.9630
2.2618 -8.6331 -2.9985 0.9630
3.0212 -8.3975 -2.9984 0.9630
3.7566 -8.0952 -2.9984 0.9630
5.1322 -7.3007 -2.9983 0.9630
6.8785 -5.6853 -2.9983 0.9630
7.3572 -5.0504 -2.9982 0.9630
8.1360 -3.6659 -2.9982 0.9630
8.8153 -1.3861 -2.9982 0.9630
8.5520 2.5487 -2.9982 0.9630
7.9647 4.0247 -2.9982 0.9630
10.7325 6.6843 -4.2481 0.9480
6.2821 5.6818 -2.8459 0.9649
5.1753 6.7058 -2.8460 0.9649
4.5579 7.1399 -2.8460 0.9649
3.9044 7.5173 -2.8460 0.9649
1.7797 8.2820 -2.8461 0.9649
0.2831 8.4666 -2.8462 0.9649
-4.0714 7.4294 -2.8464 0.9649
-4.7166 7.0377 -2.8464 0.9649
-6.8764 4.9493 -2.8465 0.9649
-8.0544 3.8473 -2.9990 0.9630
-8.3649 3.1151 -2.9990 0.9630
-8.6090 2.3582 -2.9990 0.9630
-8.7847 1.5826 -2.9990 0.9630
-8.4578 0.0000 -2.9990 0.9647
-8.3237 -1.4996 -2.9990 0.9647
-8.1572 -2.2345 -2.9990 0.9647
-7.9259 -2.9516 -2.9990 0.9647
-7.2769 -4.3101 -2.9989 0.9647
-6.8644 -4.9406 -2.9989 0.9647
-6.3973 -5.5320 -2.9989 0.9647
-5.3150 -6.5785 -2.9988 0.9647
-4.7084 -7.0254 -2.9988 0.9647
-4.0643 -7.4165 -2.9988 0.9647
-3.3881 -7.7487 -2.9988 0.9647
-2.6849 -8.0194 -2.9987 0.9647
-1.9605 -8.2265 -2.9987 0.9647
0.2826 -8.4518 -2.9986 0.9647
3.8976 -7.5042 -2.9984 0.9647
4.5500 -7.1275 -2.9984 0.9647
5.7416 -6.2077 -2.9983 0.9647
6.7511 -5.0913 -2.9983 0.9648
7.1774 -4.4702 -2.9983 0.9648
8.1033 -2.4150 -2.9982 0.9648
8.4031 -0.9400 -2.9982 0.9648
8.4366 0.5647 -2.9982 0.9648
7.9877 2.7736 -2.9982 0.9648
7.7092 3.4736 -2.9982 0.9648
7.3695 4.1460 -2.9983 0.9648
9.8773 6.7804 -4.2481 0.9504
6.1864 5.1132 -2.8459 0.9665
5.1819 6.1292 -2.8460 0.9665
4.6159 6.5662 -2.8460 0.9665
4.0132 6.9510 -2.8460 0.9665
3.3786 7.2807 -2.8461 0.9665
0.6253 8.0024 -2.8462 0.9665
-1.5111 7.8836 -2.8463 0.9665
-3.5404 7.2044 -2.8464 0.9665
-4.7617 6.4627 -2.8464 0.9665
-5.8323 5.5161 -2.8465 0.9665
-7.0777 4.6300 -2.9989 0.9647
-7.4618 3.9817 -2.9990 0.9647
-7.7866 3.3018 -2.9990 0.9647
-8.0496 2.5956 -2.9990 0.9647
-8.2487 1.8689 -2.9990 0.9647
-8.3823 1.1273 -2.9990 0.9647
-8.4494 -0.3768 -2.9990 0.9647
-8.3823 -1.1273 -2.9990 0.9647
-8.2487 -1.8689 -2.9990 0.9647
-7.7865 -3.3018 -2.9990 0.9647
-7.0777 -4.6300 -2.9989 0.9647
-6.6374 -5.2415 -2.9989 0.9647
-5.6028 -6.3352 -2.9989 0.9647
-4.3907 -7.2281 -2.9988 0.9647
-3.7299 -7.5901 -2.9988 0.9647
-2.3250 -8.1310 -2.9987 0.9647
-0.0942 -8.4560 -2.9986 0.9647
0.6588 -8.4308 -2.9986 0.9647
2.1431 -8.1802 -2.9985 0.9647
2.8627 -7.9569 -2.9985 0.9647
3.5595 -7.6705 -2.9984 0.9647
4.2280 -7.3231 -2.9984 0.9647
6.5177 -5.3870 -2.9983 0.9647
6.9712 -4.7854 -2.9983 0.9648
7.3694 -4.1460 -2.9982 0.9648
7.7092 -3.4736 -2.9982 0.9648
8.2028 -2.0516 -2.9982 0.9648
8.3529 -1.3134 -2.9982 0.9648
8.4366 -0.5647 -2.9982 0.9648
8.4534 0.1884 -2.9982 0.9648
8.1033 2.4151 -2.9982 0.9648
7.8563 3.1267 -2.9982 0.9648
7.5468 3.8136 -2.9983 0.9648
10.1695 6.3337 -4.2481 0.9504
5.9525 5.3838 -2.8459 0.9665
4.9038 6.3540 -2.8460 0.9665
4.3188 6.7653 -2.8460 0.9665
3.6996 7.1229 -2.8460 0.9665
3.0509 7.4240 -2.8461 0.9665
2.3781 7.6662 -2.8461 0.9665
0.9812 7.9666 -2.8462 0.9665
0.2682 8.0223 -2.8462 0.9665
-0.4469 8.0145 -2.8462 0.9665
-3.8578 7.0396 -2.8464 0.9665
-6.0722 5.2509 -2.8465 0.9665
-6.6099 4.7575 -2.8878 0.9660
-7.9259 2.9517 -2.9990 0.9647
-8.1572 2.2345 -2.9990 0.9647
-8.3237 1.4996 -2.9990 0.9647
-8.0313 0.0000 -2.9990 0.9663
-7.9994 -0.7148 -2.9990 0.9663
-7.9041 -1.4240 -2.9990 0.9663
-7.5263 -2.8028 -2.9990 0.9663
-6.9100 -4.0928 -2.9989 0.9663
-6.0748 -5.2530 -2.9989 0.9663
-5.0471 -6.2468 -2.9988 0.9663
-4.4710 -6.6712 -2.9988 0.9663
-2.5496 -7.6151 -2.9987 0.9663
-1.8616 -7.8117 -2.9987 0.9663
-0.4471 -8.0179 -2.9986 0.9663
1.6870 -7.8508 -2.9985 0.9663
2.3791 -7.6695 -2.9985 0.9663
4.9059 -6.3567 -2.9984 0.9663
5.4521 -5.8948 -2.9983 0.9663
5.9551 -5.3861 -2.9983 0.9663
6.4108 -4.8346 -2.9983 0.9663
7.1664 -3.6213 -2.9983 0.9663
7.4602 -2.9691 -2.9982 0.9663
7.5851 2.6338 -2.9982 0.9663
9.3794 6.4386 -4.2482 0.9526
8.7691 7.2479 -4.2482 0.9526
4.3832 6.2352 -2.8460 0.9680
3.2083 6.9137 -2.8461 0.9680
2.5802 7.1719 -2.8461 0.9680
1.9317 7.3731 -2.8461 0.9680
0.5938 7.5990 -2.8462 0.9680
-0.7630 7.5840 -2.8463 0.9680
-1.4350 7.4861 -2.8463 0.9680
-2.7396 7.1132 -2.8463 0.9680
-3.3619 6.8412 -2.8464 0.9680
-5.0500 5.7101 -2.8465 0.9680
-6.7209 4.3966 -2.9989 0.9663
-7.0855 3.7810 -2.9989 0.9663
-7.6437 2.4648 -2.9990 0.9663
-7.8328 1.7747 -2.9990 0.9663
-8.0234 0.3578 -2.9990 0.9663
-8.0233 -0.3578 -2.9990 0.9663
-7.8328 -1.7746 -2.9990 0.9663
-7.3940 -3.1353 -2.9989 0.9663
-6.7208 -4.3965 -2.9989 0.9663
-6.3028 -4.9773 -2.9989 0.9663
-5.8347 -5.5184 -2.9989 0.9663
-5.3204 -6.0158 -2.9988 0.9663
-4.7638 -6.4654 -2.9988 0.9663
-4.1694 -6.8637 -2.9988 0.9663
-2.8863 -7.4940 -2.9987 0.9663
-1.5118 -7.8869 -2.9987 0.9663
-0.8038 -7.9900 -2.9986 0.9663
-0.0895 -8.0298 -2.9986 0.9663
1.3356 -7.9182 -2.9985 0.9663
2.7184 -7.5558 -2.9985 0.9663
3.3800 -7.2838 -2.9984 0.9663
4.0149 -6.9540 -2.9984 0.9663
4.6178 -6.5690 -2.9984 0.9663
5.1841 -6.1319 -2.9983 0.9663
6.6198 -4.5442 -2.9983 0.9663
7.5851 -2.6338 -2.9982 0.9663
7.7894 -1.9483 -2.9982 0.9663
7.9318 -1.2472 -2.9982 0.9663
8.0273 0.1789 -2.9982 0.9663
7.9795 0.8926 -2.9982 0.9663
7.4602 2.9691 -2.9983 0.9663
7.1664 3.6213 -2.9983 0.9663
6.8157 4.2449 -2.9983 0.9663
9.0833 6.8501 -4.2482 0.9526
5.1751 5.5952 -2.8460 0.9680
4.6566 6.0337 -2.8460 0.9680
4.1011 6.4243 -2.8460 0.9680
2.8971 7.0498 -2.8461 0.9680
0.9317 7.5649 -2.8462 0.9680
-1.7670 7.4148 -2.8463 0.9680
-2.4200 7.2282 -2.8463 0.9680
-4.2438 6.3322 -2.8464 0.9680
-4.7906 5.9294 -2.8464 0.9680
-5.2994 5.4795 -2.8465 0.9680
-6.5183 4.6916 -2.9989 0.9663
-6.9101 4.0928 -2.9989 0.9663
-7.2470 3.4616 -2.9990 0.9663
-7.5263 2.8028 -2.9990 0.9663
-7.7459 2.1219 -2.9990 0.9663
-7.6109 -0.6801 -2.9990 0.9677
-7.5202 -1.3548 -2.9990 0.9677
-7.3697 -2.0188 -2.9990 0.9677
-6.8949 -3.2934 -2.9989 0.9677
-6.5744 -3.8940 -2.9989 0.9677
-6.2017 -4.4637 -2.9989 0.9677
-5.7797 -4.9979 -2.9989 0.9677
-5.3119 -5.4925 -2.9988 0.9677
-3.0610 -7.0007 -2.9987 0.9677
-2.4257 -7.2453 -2.9987 0.9677
-1.7712 -7.4323 -2.9987 0.9677
2.2636 -7.2970 -2.9985 0.9677
3.5214 -6.7799 -2.9984 0.9677
5.1874 -5.6086 -2.9983 0.9677
6.0995 -4.5999 -2.9983 0.9677
7.5920 -0.8493 -2.9982 0.9677
7.5467 1.1867 -2.9982 0.9677
7.2168 2.5059 -2.9983 0.9677
6.9651 3.1383 -2.9983 0.9677
5.1560 5.0989 -2.8460 0.9693
3.0525 6.5780 -2.8461 0.9693
1.8379 7.0151 -2.8461 0.9693
0.5650 7.2299 -2.8462 0.9693
-0.0808 7.2516 -2.8462 0.9693
-0.7259 7.2157 -2.8462 0.9693
-3.1986 6.5090 -2.8464 0.9693
-4.3021 5.8388 -2.8464 0.9693
-4.8047 5.4328 -2.8464 0.9693
-6.3944 4.1830 -2.9989 0.9677
-6.7414 3.5973 -2.9989 0.9677
-7.4523 1.6885 -2.9990 0.9677
-7.5731 1.0185 -2.9990 0.9677
-7.6337 0.3404 -2.9990 0.9677
-7.6337 -0.3404 -2.9990 0.9677
-7.5731 -1.0185 -2.9990 0.9677
-7.4523 -1.6885 -2.9990 0.9677
-7.2724 -2.3451 -2.9989 0.9677
-7.0348 -2.9830 -2.9989 0.9677
-6.7414 -3.5973 -2.9989 0.9677
-5.5513 -5.2504 -2.9989 0.9677
-5.0620 -5.7236 -2.9988 0.9677
-4.5324 -6.1514 -2.9988 0.9677
-3.3698 -6.8574 -2.9988 0.9677
-1.4384 -7.5038 -2.9987 0.9677
-0.0851 -7.6398 -2.9986 0.9677
3.2159 -6.9301 -2.9984 0.9677
5.8886 -4.8670 -2.9983 0.9677
6.9651 -3.1383 -2.9983 0.9677
7.2167 -2.5059 -2.9983 0.9677
7.4111 -1.8536 -2.9982 0.9677
7.6223 -0.5102 -2.9982 0.9677
7.0980 2.8249 -2.9983 0.9677
6.8184 3.4455 -2.9983 0.9677
8.6422 6.5174 -4.2482 0.9546
4.9238 5.3235 -2.8460 0.9693
4.4304 5.7407 -2.8460 0.9693
3.9019 6.1123 -2.8460 0.9693
2.1485 6.9262 -2.8461 0.9693
1.5236 7.0900 -2.8461 0.9693
0.2423 7.2480 -2.8462 0.9693
-0.4037 7.2409 -2.8462 0.9693
-1.0466 7.1762 -2.8463 0.9693
-1.6812 7.0547 -2.8463 0.9693
-2.3025 6.8771 -2.8463 0.9693
-2.9055 6.6450 -2.8464 0.9693
-3.4854 6.3601 -2.8464 0.9693
-4.0377 6.0246 -2.8464 0.9693
-4.5579 5.6414 -2.8464 0.9693
-5.0420 5.2134 -2.8465 0.9693
-6.2017 4.4637 -2.9989 0.9677
-6.8950 3.2935 -2.9989 0.9677
-7.1608 2.6667 -2.9989 0.9677
-7.5202 1.3548 -2.9990 0.9677
-7.2829 0.0000 -2.9989 0.9690
-7.1675 -1.2913 -2.9989 0.9690
-7.0241 -1.9241 -2.9989 0.9690
-5.9108 -4.2544 -2.9989 0.9690
-5.5087 -4.7635 -2.9989 0.9690
-3.4998 -6.3863 -2.9988 0.9690
-1.6882 -7.0838 -2.9987 0.9690
-1.0510 -7.2059 -2.9986 0.9690
-0.4054 -7.2707 -2.9986 0.9690
1.5298 -7.1193 -2.9985 0.9690
2.7678 -6.7352 -2.9985 0.9690
3.3563 -6.4620 -2.9984 0.9690
4.4488 -5.7644 -2.9984 0.9690
4.9441 -5.3456 -2.9984 0.9690
5.4003 -4.8843 -2.9983 0.9690
5.8135 -4.3842 -2.9983 0.9690
6.4987 -3.2839 -2.9983 0.9690
6.7651 -2.6925 -2.9983 0.9690
6.9779 -2.0796 -2.9983 0.9690
7.2361 -0.8095 -2.9983 0.9690
7.1928 1.1310 -2.9983 0.9690
7.0636 1.7667 -2.9983 0.9690
7.9521 6.5726 -4.2482 0.9564
7.3356 7.2543 -4.2483 0.9564
4.4622 5.2779 -2.8460 0.9705
2.9093 6.2695 -2.8461 0.9705
2.3398 6.5036 -2.8461 0.9705
1.7517 6.6861 -2.8461 0.9705
-0.0770 6.9115 -2.8462 0.9705
-1.3013 6.7885 -2.8463 0.9705
-2.4843 6.4504 -2.8463 0.9705
-3.0486 6.2037 -2.8464 0.9705
-4.1003 5.5650 -2.8464 0.9705
-4.5794 5.1780 -2.8464 0.9705
-5.7155 4.5134 -2.9989 0.9690
-6.4252 3.4286 -2.9989 0.9690
-6.7049 2.8431 -2.9989 0.9690
-6.9314 2.2351 -2.9989 0.9690
-7.2756 0.3244 -2.9989 0.9690
-7.2756 -0.3244 -2.9989 0.9690
-7.2179 -0.9707 -2.9989 0.9690
-7.1028 -1.6093 -2.9989 0.9690
-6.7049 -2.8431 -2.9989 0.9690
-6.4252 -3.4286 -2.9989 0.9690
-4.8246 -5.4552 -2.9988 0.9690
-3.2118 -6.5358 -2.9987 0.9690
-2.6173 -6.7957 -2.9987 0.9690
-2.0021 -7.0016 -2.9987 0.9690
-0.0811 -7.2816 -2.9986 0.9690
1.2112 -7.1804 -2.9985 0.9690
3.0651 -6.6051 -2.9984 0.9690
3.6408 -6.3061 -2.9984 0.9690
4.1876 -5.9569 -2.9984 0.9690
5.6125 -4.6388 -2.9983 0.9690
6.0030 -4.1208 -2.9983 0.9690
7.0636 -1.7667 -2.9983 0.9690
7.1928 -1.1310 -2.9983 0.9690
7.2794 0.1622 -2.9983 0.9690
7.1353 1.4503 -2.9983 0.9690
6.9779 2.0796 -2.9983 0.9690
6.7652 2.6925 -2.9983 0.9690
6.4987 3.2839 -2.9983 0.9690
6.1806 3.8494 -2.9983 0.9690
8.2370 6.2118 -4.2482 0.9564
3.7190 5.8257 -2.8460 0.9705
3.1857 6.1336 -2.8461 0.9705
2.0478 6.6014 -2.8461 0.9705
0.8449 6.8600 -2.8462 0.9705
0.2310 6.9081 -2.8462 0.9705
-0.3848 6.9013 -2.8462 0.9705
-0.9975 6.8397 -2.8463 0.9705
-1.6024 6.7239 -2.8463 0.9705
-2.1945 6.5546 -2.8463 0.9705
-3.8483 5.7421 -2.8464 0.9705
-4.8055 4.9689 -2.8464 0.9705
-5.9109 4.2544 -2.9989 0.9690
-6.8249 2.5417 -2.9989 0.9690
-7.0241 1.9241 -2.9989 0.9690
-7.1675 1.2913 -2.9989 0.9690
-7.2540 0.6482 -2.9989 0.9690
-6.9523 0.0000 -2.9989 0.9702
-6.7053 -1.8368 -2.9989 0.9702
-5.9817 -3.5429 -2.9989 0.9702
-5.2587 -4.5473 -2.9988 0.9702
-3.8703 -5.7750 -2.9988 0.9702
-3.3410 -6.0965 -2.9988 0.9702
-2.7850 -6.3696 -2.9987 0.9702
-1.0033 -6.8788 -2.9986 0.9702
-0.3870 -6.9408 -2.9986 0.9702
1.4604 -6.7962 -2.9985 0.9702
2.0595 -6.6392 -2.9985 0.9702
4.2469 -5.5028 -2.9984 0.9702
5.1552 -4.6626 -2.9984 0.9702
5.5497 -4.1852 -2.9983 0.9702
6.2038 -3.1349 -2.9983 0.9702
6.4581 -2.5703 -2.9983 0.9702
6.6613 -1.9853 -2.9983 0.9702
6.9077 -0.7727 -2.9983 0.9702
6.9353 0.4643 -2.9983 0.9702
6.7431 1.6866 -2.9983 0.9702
6.5662 2.2801 -2.9983 0.9702
6.0580 3.4082 -2.9983 0.9702
5.7306 3.9339 -2.9983 0.9702
7.5912 6.2743 -4.2483 0.9580
7.0027 6.9252 -4.2483 0.9580
4.2597 5.0384 -2.8460 0.9717
3.7944 5.3976 -2.8460 0.9717
3.2990 5.7139 -2.8461 0.9717
2.7773 5.9850 -2.8461 0.9717
1.6722 6.3827 -2.8461 0.9717
0.5140 6.5782 -2.8462 0.9717
-0.0735 6.5979 -2.8462 0.9717
-1.2422 6.4804 -2.8463 0.9717
-2.3716 6.1576 -2.8463 0.9717
-3.4258 5.6397 -2.8464 0.9717
-3.9142 5.3124 -2.8464 0.9717
-4.3715 4.9430 -2.8464 0.9717
-5.4561 4.3086 -2.9989 0.9702
-6.6168 2.1337 -2.9989 0.9702
-6.8903 0.9267 -2.9989 0.9702
-6.8903 -0.9267 -2.9989 0.9702
-6.7804 -1.5362 -2.9989 0.9702
-6.6168 -2.1336 -2.9989 0.9702
-6.4006 -2.7141 -2.9989 0.9702
-6.1336 -3.2730 -2.9989 0.9702
-5.8179 -3.8059 -2.9989 0.9702
-5.0509 -4.7771 -2.9988 0.9702
-4.6056 -5.2076 -2.9988 0.9702
-4.1238 -5.5968 -2.9988 0.9702
-3.6092 -5.9416 -2.9988 0.9702
-1.9112 -6.6839 -2.9987 0.9702
-1.3087 -6.8274 -2.9987 0.9702
-0.0774 -6.9511 -2.9986 0.9702
0.5415 -6.9303 -2.9986 0.9702
1.1562 -6.8546 -2.9985 0.9702
1.7617 -6.7244 -2.9985 0.9702
2.3532 -6.5409 -2.9985 0.9702
2.9260 -6.3054 -2.9985 0.9702
3.4756 -6.0199 -2.9984 0.9702
4.9424 -4.8876 -2.9984 0.9702
5.3578 -4.4283 -2.9983 0.9702
6.0580 -3.4082 -2.9983 0.9702
6.5662 -2.2801 -2.9983 0.9702
6.7431 -1.6866 -2.9983 0.9702
6.8664 -1.0797 -2.9983 0.9702
6.9353 -0.4643 -2.9983 0.9702
6.9077 0.7728 -2.9983 0.9702
6.8115 1.3845 -2.9983 0.9702
6.4582 2.5703 -2.9983 0.9702
6.2038 3.1349 -2.9983 0.9702
7.3043 6.6063 -4.2483 0.9580
6.6873 7.2303 -4.2483 0.9580
4.0311 5.2232 -2.8460 0.9717
2.5080 6.1028 -2.8461 0.9717
0.8066 6.5487 -2.8462 0.9717
0.2205 6.5946 -2.8462 0.9717
-0.9523 6.5293 -2.8463 0.9717
-1.5296 6.4187 -2.8463 0.9717
-2.0949 6.2571 -2.8463 0.9717
-3.6737 5.4815 -2.8464 0.9717
-4.1470 5.1328 -2.8464 0.9717
-5.9817 3.5430 -2.9989 0.9702
-6.5152 2.4263 -2.9989 0.9702
-6.7053 1.8368 -2.9989 0.9702
-6.8422 1.2327 -2.9989 0.9702
-6.6199 -0.5915 -2.9989 0.9713
-5.9972 -2.8646 -2.9989 0.9713
-5.3942 -3.8825 -2.9989 0.9713
-4.6203 -4.7774 -2.9988 0.9713
-4.1767 -5.1696 -2.9988 0.9713
-3.1939 -5.8281 -2.9987 0.9713
-2.1099 -6.3020 -2.9987 0.9713
-0.9591 -6.5761 -2.9986 0.9713
-0.3700 -6.6353 -2.9986 0.9713
0.8123 -6.5956 -2.9986 0.9713
1.3961 -6.4971 -2.9985 0.9713
2.5259 -6.1465 -2.9985 0.9713
4.0600 -5.2607 -2.9984 0.9713
4.9283 -4.4574 -2.9984 0.9713
5.3055 -4.0010 -2.9983 0.9713
6.1739 -2.4572 -2.9983 0.9713
6.3681 -1.8979 -2.9983 0.9713
6.5117 -1.3236 -2.9983 0.9713
6.6432 -0.1480 -2.9983 0.9713
6.4463 1.6123 -2.9983 0.9713
6.2773 2.1797 -2.9983 0.9713
6.0584 2.7298 -2.9983 0.9713
6.6945 6.6204 -4.2483 0.9595
4.0723 4.8167 -2.8460 0.9727
3.6274 5.1601 -2.8460 0.9727
2.6551 5.7216 -2.8461 0.9727
1.5986 6.1018 -2.8461 0.9727
1.0492 6.2199 -2.8462 0.9727
-0.0703 6.3075 -2.8462 0.9727
-0.6314 6.2762 -2.8462 0.9727
-1.1875 6.1952 -2.8463 0.9727
-1.7342 6.0650 -2.8463 0.9727
-2.7821 5.6615 -2.8463 0.9727
-3.2750 5.3915 -2.8464 0.9727
-3.7419 5.0786 -2.8464 0.9727
-4.8286 4.5668 -2.9988 0.9713
-5.2159 4.1190 -2.9989 0.9713
-6.3255 2.0397 -2.9989 0.9713
-6.4820 1.4686 -2.9989 0.9713
-6.5870 0.8859 -2.9989 0.9713
-6.6397 0.2961 -2.9989 0.9713
-6.5870 -0.8859 -2.9989 0.9713
-6.3255 -2.0397 -2.9989 0.9713
-6.1188 -2.5946 -2.9989 0.9713
-5.8636 -3.1289 -2.9989 0.9713
-5.2159 -4.1189 -2.9988 0.9713
-4.8285 -4.5668 -2.9988 0.9713
-4.4029 -4.9784 -2.9988 0.9713
-2.9311 -5.9646 -2.9987 0.9713
-2.3886 -6.2018 -2.9987 0.9713
-1.2511 -6.5269 -2.9987 0.9713
1.1053 -6.5529 -2.9985 0.9713
2.2496 -6.2530 -2.9985 0.9713
2.7972 -6.0279 -2.9985 0.9713
3.3226 -5.7549 -2.9984 0.9713
4.2903 -5.0746 -2.9984 0.9713
5.7914 -3.2582 -2.9983 0.9713
6.0584 -2.7297 -2.9983 0.9713
6.2773 -2.1797 -2.9983 0.9713
6.6432 0.1480 -2.9983 0.9713
6.6037 0.7387 -2.9983 0.9713
6.3681 1.8979 -2.9983 0.9713
6.9828 6.3156 -4.2483 0.9595
3.3940 5.3165 -2.8461 0.9727
2.9073 5.5976 -2.8461 0.9727
1.8688 6.0245 -2.8461 0.9727
1.3252 6.1670 -2.8462 0.9727
0.7711 6.2605 -2.8462 0.9727
0.2108 6.3043 -2.8462 0.9727
-0.9104 6.2419 -2.8463 0.9727
-2.0027 5.9817 -2.8463 0.9727
-3.0316 5.5320 -2.8464 0.9727
-3.9706 4.9153 -2.8513 0.9727
-4.5788 4.7344 -2.9719 0.9715
-5.0272 4.3472 -2.9988 0.9713
-5.7184 3.3870 -2.9989 0.9713
-5.9972 2.8646 -2.9989 0.9713
-6.5410 1.1784 -2.9989 0.9713
-6.6199 0.5916 -2.9989 0.9713
-6.1359 -1.6808 -2.9989 0.9723
-5.9620 -2.2203 -2.9989 0.9723
-5.7407 -2.7421 -2.9989 0.9723
-5.4738 -3.2422 -2.9989 0.9723
-5.1635 -3.7165 -2.9988 0.9723
-3.9981 -4.9485 -2.9988 0.9723
-3.5417 -5.2846 -2.9988 0.9723
-3.0573 -5.5789 -2.9987 0.9723
-0.9181 -6.2948 -2.9986 0.9723
-0.3542 -6.3515 -2.9986 0.9723
1.3364 -6.2192 -2.9985 0.9723
1.8847 -6.0756 -2.9985 0.9723
4.3191 -4.6698 -2.9984 0.9723
5.3993 -3.3627 -2.9983 0.9723
6.2835 0.9880 -2.9983 0.9723
6.1707 1.5434 -2.9983 0.9723
6.0088 2.0865 -2.9983 0.9723
5.5437 3.1188 -2.9983 0.9723
5.2442 3.5999 -2.9984 0.9723
4.9030 4.0524 -2.9984 0.9723
6.4083 6.3373 -4.2483 0.9609
3.4723 4.9394 -2.8460 0.9737
3.0189 5.2289 -2.8461 0.9737
2.0440 5.6814 -2.8461 0.9737
-0.0673 6.0377 -2.8462 0.9737
-0.6044 6.0078 -2.8462 0.9737
-2.6631 5.4194 -2.8463 0.9737
-3.1350 5.1609 -2.8464 0.9737
-4.1848 4.7319 -2.9777 0.9725
-5.3239 3.4828 -2.9989 0.9723
-5.8572 2.4836 -2.9989 0.9723
-6.3053 0.8480 -2.9989 0.9723
-6.3557 0.2834 -2.9989 0.9723
-6.3557 -0.2834 -2.9989 0.9723
-6.3052 -0.8480 -2.9989 0.9723
-5.8571 -2.4836 -2.9989 0.9723
-5.6128 -2.9951 -2.9989 0.9723
-4.6220 -4.3714 -2.9988 0.9723
-4.2146 -4.7655 -2.9988 0.9723
-3.7737 -5.1216 -2.9988 0.9723
-3.3028 -5.4371 -2.9988 0.9723
-2.8057 -5.7095 -2.9987 0.9723
-2.2864 -5.9365 -2.9987 0.9723
-1.1976 -6.2478 -2.9987 0.9723
-0.6368 -6.3295 -2.9986 0.9723
0.4956 -6.3420 -2.9986 0.9723
1.0581 -6.2727 -2.9985 0.9723
1.6121 -6.1535 -2.9985 0.9723
2.1534 -5.9855 -2.9985 0.9723
2.6776 -5.7701 -2.9985 0.9723
3.1805 -5.5088 -2.9984 0.9723
4.5228 -4.4727 -2.9984 0.9723
5.2441 -3.5999 -2.9983 0.9723
5.5437 -3.1188 -2.9983 0.9723
6.3465 -0.4248 -2.9983 0.9723
6.3592 0.1417 -2.9983 0.9723
6.3213 0.7071 -2.9983 0.9723
6.2333 1.2670 -2.9983 0.9723
6.0958 1.8168 -2.9983 0.9723
5.9099 2.3521 -2.9983 0.9723
5.6771 2.8688 -2.9983 0.9723
5.3993 3.3627 -2.9984 0.9723
5.0786 3.8300 -2.9984 0.9723
6.1196 6.6164 -4.2483 0.9609
3.6888 4.7798 -2.8460 0.9737
3.2488 5.0892 -2.8461 0.9737
2.7830 5.3582 -2.8461 0.9737
1.7889 5.7668 -2.8461 0.9737
0.7381 5.9928 -2.8462 0.9737
0.2018 6.0347 -2.8462 0.9737
-0.8714 5.9750 -2.8463 0.9737
-2.4191 5.5326 -2.8463 0.9737
-3.8370 4.7491 -2.8779 0.9734
-4.4227 4.5731 -2.9988 0.9723
-4.8122 4.1613 -2.9988 0.9723
-5.4738 3.2421 -2.9989 0.9723
-5.7407 2.7421 -2.9989 0.9723
-6.1360 1.6808 -2.9989 0.9723
-6.2612 1.1280 -2.9989 0.9723
-6.3368 0.5663 -2.9989 0.9723
-6.0005 -1.0811 -2.9989 0.9732
-5.8805 -1.6108 -2.9989 0.9732
-5.7137 -2.1278 -2.9989 0.9732
-5.5016 -2.6279 -2.9989 0.9732
-5.2459 -3.1072 -2.9988 0.9732
-4.6118 -3.9880 -2.9988 0.9732
-4.2385 -4.3826 -2.9988 0.9732
-3.8316 -4.7424 -2.9988 0.9732
-3.3943 -5.0646 -2.9988 0.9732
-2.4425 -5.5861 -2.9987 0.9732
-1.9356 -5.7813 -2.9987 0.9732
-1.4133 -5.9306 -2.9987 0.9732
-0.3394 -6.0871 -2.9986 0.9732
0.2037 -6.0931 -2.9986 0.9732
0.7452 -6.0507 -2.9986 0.9732
3.2803 -5.1384 -2.9984 0.9732
4.1393 -4.4754 -2.9984 0.9732
5.6639 -2.2542 -2.9983 0.9732
6.0823 0.4072 -2.9983 0.9732
6.0220 0.9469 -2.9983 0.9732
5.0258 3.4501 -2.9984 0.9732
3.9358 4.6554 -2.9984 0.9732
3.3308 4.7381 -2.8487 0.9745
2.4357 5.2489 -2.8461 0.9745
1.9589 5.4449 -2.8461 0.9745
1.4665 5.5977 -2.8461 0.9745
0.4508 5.7691 -2.8462 0.9745
-0.5792 5.7577 -2.8462 0.9745
-1.5909 5.5638 -2.8463 0.9745
-2.5523 5.1937 -2.8463 0.9745
-3.0044 4.9460 -2.8464 0.9745
-3.4954 4.7440 -2.8983 0.9741
-4.0391 4.5671 -2.9988 0.9732
-4.7849 3.7786 -2.9988 0.9732
-5.1023 3.3377 -2.9989 0.9732
-5.6133 2.3803 -2.9989 0.9732
-5.8029 1.8712 -2.9989 0.9732
-5.9464 1.3473 -2.9989 0.9732
-6.0427 0.8127 -2.9989 0.9732
-6.0911 -0.2716 -2.9989 0.9732
-6.0427 -0.8127 -2.9989 0.9732
-5.6133 -2.3802 -2.9989 0.9732
-5.3791 -2.8704 -2.9989 0.9732
-4.4296 -4.1895 -2.9988 0.9732
-4.0391 -4.5671 -2.9988 0.9732
-3.6165 -4.9084 -2.9988 0.9732
-2.6889 -5.4718 -2.9987 0.9732
-2.1912 -5.6893 -2.9987 0.9732
-1.6761 -5.8617 -2.9987 0.9732
-1.1477 -5.9876 -2.9986 0.9732
-0.6102 -6.0659 -2.9986 0.9732
0.4749 -6.0779 -2.9986 0.9732
1.0140 -6.0115 -2.9985 0.9732
2.0638 -5.7364 -2.9985 0.9732
3.0480 -5.2795 -2.9985 0.9732
3.9358 -4.6553 -2.9984 0.9732
5.3129 -2.9890 -2.9983 0.9732
5.5579 -2.5042 -2.9983 0.9732
5.8420 1.7411 -2.9983 0.9732
5.6639 2.2542 -2.9983 0.9732
5.4408 2.7493 -2.9984 0.9732
4.8672 3.6705 -2.9984 0.9732
5.8648 6.3410 -4.2483 0.9622
3.6366 4.7121 -2.9276 0.9738
3.1136 4.8773 -2.8461 0.9745
2.1995 5.3522 -2.8461 0.9745
1.7144 5.5267 -2.8461 0.9745
1.2157 5.6574 -2.8462 0.9745
0.1934 5.7835 -2.8462 0.9745
-0.3222 5.7778 -2.8462 0.9745
-0.8351 5.7262 -2.8463 0.9745
-1.8372 5.4875 -2.8463 0.9745
-2.3184 5.3022 -2.8463 0.9745
-2.7811 5.0749 -2.8463 0.9745
-3.2218 4.8072 -2.8464 0.9745
-4.9485 3.5617 -2.9988 0.9732
-5.2459 3.1072 -2.9989 0.9732
-5.8805 1.6108 -2.9989 0.9732
-6.0729 0.5427 -2.9989 0.9732
-5.8495 0.0000 -2.9989 0.9740
-5.7568 -1.0371 -2.9989 0.9740
-5.2782 -2.5212 -2.9989 0.9740
-5.0329 -2.9810 -2.9988 0.9740
-4.7476 -3.4171 -2.9988 0.9740
-2.3433 -5.3593 -2.9987 0.9741
-1.3559 -5.6898 -2.9987 0.9741
-0.8441 -5.7878 -2.9986 0.9741
-0.3256 -5.8399 -2.9986 0.9741
0.1954 -5.8457 -2.9986 0.9741
0.7150 -5.8050 -2.9986 0.9741
1.7329 -5.5862 -2.9985 0.9741
2.2232 -5.4098 -2.9985 0.9741
2.6958 -5.1904 -2.9985 0.9741
3.1471 -4.9298 -2.9984 0.9741
3.5733 -4.6301 -2.9984 0.9741
3.9712 -4.2937 -2.9984 0.9741
4.6696 -3.5215 -2.9984 0.9741
5.8122 -0.6502 -2.9983 0.9741
5.8470 -0.1303 -2.9983 0.9741
5.8354 0.3907 -2.9983 0.9741
4.8218 3.3100 -2.9984 0.9741
4.5081 3.7260 -2.9984 0.9741
3.7761 4.4663 -2.9984 0.9741
2.7757 4.8078 -2.8461 0.9754
2.3368 5.0358 -2.8461 0.9754
1.8794 5.2238 -2.8461 0.9754
1.4070 5.3704 -2.8461 0.9754
0.9234 5.4743 -2.8462 0.9754
0.4325 5.5348 -2.8462 0.9754
-0.0618 5.5514 -2.8462 0.9754
-0.5557 5.5239 -2.8462 0.9754
-1.0452 5.4526 -2.8463 0.9754
-1.9954 5.1809 -2.8463 0.9754
-2.8895 4.7568 -2.8533 0.9753
-3.4697 4.7091 -2.9988 0.9740
-5.1607 2.7538 -2.9989 0.9740
-5.3853 2.2836 -2.9989 0.9740
-5.5672 1.7952 -2.9989 0.9740
-5.7049 1.2926 -2.9989 0.9740
-5.7973 0.7796 -2.9989 0.9740
-5.7973 -0.7796 -2.9989 0.9740
-5.7049 -1.2926 -2.9989 0.9740
-5.1607 -2.7538 -2.9988 0.9740
-4.8951 -3.2022 -2.9988 0.9740
-4.5906 -3.6252 -2.9988 0.9740
-4.2497 -4.0193 -2.9988 0.9740
-3.8751 -4.3816 -2.9988 0.9740
-3.0368 -4.9992 -2.9987 0.9741
-2.5797 -5.2496 -2.9987 0.9741
-2.1022 -5.4584 -2.9987 0.9741
-1.6081 -5.6237 -2.9987 0.9741
0.9728 -5.7674 -2.9985 0.9741
1.4823 -5.6579 -2.9985 0.9741
1.9800 -5.5035 -2.9985 0.9741
2.4619 -5.3054 -2.9985 0.9741
2.9244 -5.0651 -2.9985 0.9741
3.7760 -4.4663 -2.9984 0.9741
4.8218 -3.3100 -2.9984 0.9741
5.0972 -2.8677 -2.9984 0.9741
5.8354 -0.3906 -2.9983 0.9741
5.8470 0.1303 -2.9983 0.9741
5.8122 0.6502 -2.9983 0.9741
5.4340 2.1627 -2.9983 0.9741
5.2199 2.6377 -2.9984 0.9741
4.9644 3.0919 -2.9984 0.9741
4.6696 3.5215 -2.9984 0.9741
3.5733 4.6301 -2.9984 0.9741
3.0160 4.7244 -2.8735 0.9751
2.5588 4.9266 -2.8461 0.9754
1.6448 5.3023 -2.8461 0.9754
1.1663 5.4277 -2.8462 0.9754
0.1855 5.5486 -2.8462 0.9754
-0.3091 5.5432 -2.8462 0.9754
-0.8012 5.4937 -2.8463 0.9754
-1.7626 5.2647 -2.8463 0.9754
-2.6682 4.8688 -2.8463 0.9754
-3.1754 4.7381 -2.9241 0.9747
-4.0664 4.2047 -2.9988 0.9740
-4.4246 3.8261 -2.9988 0.9740
-4.7476 3.4171 -2.9988 0.9740
-5.0329 2.9810 -2.9988 0.9740
-5.4817 2.0414 -2.9989 0.9740
-5.6175 0.0000 -2.9989 0.9749
-5.4179 -1.4841 -2.9989 0.9749
-5.0689 -2.4212 -2.9988 0.9749
-4.8333 -2.8627 -2.9988 0.9749
-3.5302 -4.3694 -2.9988 0.9749
-2.6995 -4.9261 -2.9987 0.9749
-2.2504 -5.1467 -2.9987 0.9749
-1.3022 -5.4641 -2.9987 0.9749
0.6866 -5.5748 -2.9986 0.9749
1.1801 -5.4915 -2.9985 0.9749
1.6641 -5.3646 -2.9985 0.9749
2.1350 -5.1952 -2.9985 0.9749
3.8137 -4.1234 -2.9984 0.9749
4.1656 -3.7676 -2.9984 0.9749
4.4844 -3.3818 -2.9984 0.9749
5.0129 -2.5331 -2.9984 0.9749
5.2184 -2.0769 -2.9984 0.9749
5.3826 -1.6042 -2.9983 0.9749
5.5040 -1.1187 -2.9983 0.9749
5.6151 -0.1251 -2.9983 0.9749
5.6040 0.3751 -2.9983 0.9749
5.3058 1.8424 -2.9984 0.9749
5.1208 2.3073 -2.9984 0.9749
4.8951 2.7539 -2.9984 0.9749
4.6306 3.1787 -2.9984 0.9749
4.3293 3.5782 -2.9984 0.9749
3.9936 3.9494 -2.9984 0.9749
3.6263 4.2892 -2.9984 0.9749
3.2302 4.5950 -2.9985 0.9749
2.2441 4.8360 -2.8461 0.9761
1.8048 5.0166 -2.8461 0.9761
0.8868 5.2572 -2.8462 0.9761
0.4153 5.3153 -2.8462 0.9761
-0.5337 5.3048 -2.8462 0.9761
-1.0037 5.2363 -2.8463 0.9761
-1.4658 5.1262 -2.8463 0.9761
-1.9163 4.9755 -2.8463 0.9761
-3.3321 4.5223 -2.9988 0.9749
-4.4085 3.4814 -2.9988 0.9749
-4.9560 2.6446 -2.9988 0.9749
-5.3464 1.7240 -2.9989 0.9749
-5.4786 1.2413 -2.9989 0.9749
-5.6119 0.2502 -2.9989 0.9749
-5.6119 -0.2503 -2.9989 0.9749
-5.5674 -0.7487 -2.9989 0.9749
-5.3464 -1.7240 -2.9989 0.9749
-4.9560 -2.6446 -2.9988 0.9749
-4.4085 -3.4814 -2.9988 0.9749
-4.0811 -3.8599 -2.9988 0.9749
-3.7214 -4.2078 -2.9988 0.9749
-3.3321 -4.5223 -2.9988 0.9749
-2.9163 -4.8009 -2.9987 0.9749
-1.5443 -5.4007 -2.9987 0.9749
-1.0575 -5.5167 -2.9986 0.9749
-0.5622 -5.5888 -2.9986 0.9749
-0.0626 -5.6167 -2.9986 0.9749
0.9343 -5.5387 -2.9986 0.9749
2.3643 -5.0949 -2.9985 0.9749
3.2301 -4.5949 -2.9984 0.9749
