ply
format ascii 1.0
element vertex 1584
property float32 x
property float32 y
property float32 z
property float32 I
end_header
-1.1184 -5.8348 1.3560 0.9759
-2.3557 -5.3876 1.2396 0.9762
-0.8762 -6.0073 1.2799 0.9755
-1.0959 -5.7173 1.2273 0.9765
-2.3091 -5.2810 1.1154 0.9768
-1.7643 -5.2696 1.0754 0.9776
-2.6577 -5.4083 1.1661 0.9757
-1.5272 -5.3411 1.0750 0.9776
-0.6390 -6.3519 1.2354 0.9743
-3.0614 -5.5863 1.1232 0.9745
-1.2853 -5.3932 0.9776 0.9777
7.2225 7.1425 1.7911 0.9596
-2.6091 -5.3093 1.0431 0.9763
-2.0014 -5.1964 0.9819 0.9776
-1.0625 -5.5430 0.9952 0.9773
-0.6176 -6.1387 1.0879 0.9753
-2.9850 -5.4470 0.9891 0.9752
-2.2553 -5.1580 0.8964 0.9775
-1.7291 -5.1645 0.8672 0.9782
7.2220 7.1420 1.6174 0.9597
-2.5723 -5.2346 0.9287 0.9767
-1.4968 -5.2347 0.8670 0.9782
-1.0503 -5.4796 0.8884 0.9777
-0.6057 -6.0208 0.9636 0.9758
-2.2297 -5.0994 0.7916 0.9778
-1.2591 -5.2836 0.7726 0.9783
-0.8187 -5.6134 0.8069 0.9773
-0.3678 -6.5965 0.9397 0.9737
-1.9605 -5.0903 0.7759 0.9782
-1.0385 -5.4179 0.7846 0.9780
-2.8767 -5.2494 0.7501 0.9762
-2.2133 -5.0621 0.6923 0.9780
-0.8120 -5.5673 0.7051 0.9776
7.2209 7.1409 1.2726 0.9599
-2.5107 -5.1091 0.7134 0.9773
-1.4743 -5.1561 0.6720 0.9786
-1.0313 -5.3803 0.6865 0.9782
-0.5874 -5.8392 0.7354 0.9766
-2.8482 -5.1973 0.6428 0.9764
-1.6941 -5.0601 0.5788 0.9788
-0.3480 -6.2405 0.6779 0.9752
-3.3952 -5.5892 0.7093 0.9740
-2.4924 -5.0718 0.6130 0.9775
-1.0251 -5.3479 0.5906 0.9783
-0.5830 -5.7954 0.6318 0.9768
-2.8213 -5.1482 0.5382 0.9767
-2.1867 -5.0012 0.5004 0.9783
-0.3435 -6.1605 0.5657 0.9755
7.2198 7.1398 0.9309 0.9600
-2.4744 -5.0352 0.5143 0.9777
-1.9278 -5.0054 0.4917 0.9787
-1.6766 -5.0077 0.3957 0.9790
-0.3400 -6.0980 0.4577 0.9758
7.2193 7.1393 0.7609 0.9601
-2.4586 -5.0030 0.4177 0.9779
-1.4514 -5.0758 0.3956 0.9790
-1.0134 -5.2871 0.4034 0.9786
-0.5744 -5.7100 0.4301 0.9772
-2.7873 -5.0862 0.3378 0.9770
-2.1683 -4.9589 0.3152 0.9785
-1.6736 -4.9987 0.3070 0.9791
-0.7949 -5.4501 0.3208 0.9782
-3.2405 -5.3346 0.3635 0.9753
-1.9136 -4.9685 0.3101 0.9789
-1.4488 -5.0668 0.3069 0.9791
-1.0112 -5.2755 0.3129 0.9787
-0.7934 -5.4397 0.2286 0.9782
-2.4463 -4.9781 0.2306 0.9780
-1.4464 -5.0585 0.2188 0.9792
-0.5707 -5.6725 0.2370 0.9774
-2.7743 -5.0624 0.1440 0.9772
-2.1601 -4.9403 0.1345 0.9787
-1.6681 -4.9824 0.1310 0.9792
-1.2252 -5.1412 0.1318 0.9791
-0.7919 -5.4294 0.1368 0.9783
-0.3354 -6.0145 0.1502 0.9762
-1.4441 -5.0502 0.1310 0.9792
-0.5693 -5.6594 0.1418 0.9775
-2.1561 -4.9311 0.0447 0.9787
-1.2231 -5.1326 0.0439 0.9791
-0.7903 -5.4190 0.0455 0.9783
7.2172 7.1372 0.0844 0.9602
-2.4369 -4.9590 0.0459 0.9781
-1.4417 -5.0420 0.0436 0.9792
-2.7681 -5.0511 -0.0479 0.9772
-1.6655 -4.9746 -0.0436 0.9792
7.2167 7.1367 -0.0844 0.9602
-2.7745 -5.0629 -0.1440 0.9772
-0.7919 -5.4298 -0.1368 0.9783
7.2162 7.1362 -0.2531 0.9602
-3.2088 -5.2824 -0.1541 0.9756
-2.4418 -4.9690 -0.1381 0.9781
-2.1643 -4.9500 -0.2246 0.9786
-1.2274 -5.1503 -0.2201 0.9790
-0.3365 -6.0342 -0.2513 0.9761
-3.2248 -5.3087 -0.2583 0.9754
-2.4465 -4.9786 -0.2306 0.9780
-1.0096 -5.2669 -0.2230 0.9788
-2.7876 -5.0867 -0.3378 0.9770
-1.2295 -5.1591 -0.3089 0.9790
7.2151 7.1352 -0.5910 0.9602
-3.2410 -5.3354 -0.3636 0.9753
-2.4513 -4.9882 -0.3237 0.9780
-0.5720 -5.6863 -0.3329 0.9774
-2.8011 -5.1113 -0.4368 0.9769
-2.1743 -4.9727 -0.4067 0.9785
-1.6770 -5.0088 -0.3958 0.9790
-0.7974 -5.4672 -0.4140 0.9781
-0.3401 -6.1002 -0.4579 0.9758
7.2146 7.1346 -0.7604 0.9601
-2.4592 -5.0044 -0.4179 0.9779
-1.9179 -4.9796 -0.3999 0.9788
-1.4517 -5.0770 -0.3957 0.9790
-2.8221 -5.1498 -0.5384 0.9767
-2.1873 -5.0025 -0.5005 0.9783
-1.6857 -5.0349 -0.4868 0.9789
-1.2387 -5.1977 -0.4899 0.9788
-0.3436 -6.1629 -0.5659 0.9755
7.2141 7.1341 -0.9301 0.9601
-3.3404 -5.4990 -0.5899 0.9745
-2.4751 -5.0367 -0.5145 0.9777
-1.4593 -5.1033 -0.4866 0.9789
-1.0193 -5.3175 -0.4964 0.9785
-0.5789 -5.7540 -0.5302 0.9770
-2.2005 -5.0327 -0.5958 0.9781
-1.2454 -5.2259 -0.5827 0.9786
-0.8072 -5.5344 -0.6066 0.9777
-0.3482 -6.2445 -0.6784 0.9752
-1.9387 -5.0338 -0.5851 0.9785
-1.4669 -5.1301 -0.5787 0.9788
-2.8778 -5.2513 -0.7504 0.9761
-1.7035 -5.0881 -0.6724 0.9786
-1.2522 -5.2545 -0.6769 0.9785
-0.3555 -6.3758 -0.8002 0.9746
-2.5114 -5.1106 -0.7136 0.9773
-1.9494 -5.0614 -0.6797 0.9784
-1.4747 -5.1572 -0.6722 0.9786
-2.9298 -5.3462 -0.8671 0.9757
-2.2307 -5.1018 -0.7920 0.9778
-1.7129 -5.1161 -0.7674 0.9784
-1.2597 -5.2858 -0.7729 0.9783
-0.3693 -6.6231 -0.9435 0.9736
7.2125 7.1325 -1.4428 0.9598
-0.5949 -5.9140 -0.8454 0.9763
-2.9872 -5.4509 -0.9898 0.9751
-0.8294 -5.6871 -0.9152 0.9770
7.2119 7.1320 -1.6151 0.9597
-1.9815 -5.1449 -0.8779 0.9779
-0.6061 -6.0253 -0.9643 0.9758
-1.7472 -5.2186 -0.9704 0.9779
-0.8411 -5.7672 -1.0277 0.9766
7.2114 7.1315 -1.7883 0.9596
-2.6105 -5.3122 -1.0437 0.9762
-2.0022 -5.1987 -0.9823 0.9776
-1.5125 -5.2894 -0.9700 0.9779
-1.7650 -5.2719 -1.0759 0.9776
-1.2994 -5.4527 -1.0847 0.9774
12.8343 7.2205 -2.8497 0.9418
9.5045 11.2420 -2.8488 0.9418
7.3591 12.7464 -2.8482 0.9418
4.9814 13.8461 -2.8476 0.9418
2.4469 14.5065 -2.8469 0.9418
1.1459 14.6648 -2.8466 0.9418
-1.4720 14.6320 -2.8458 0.9418
-4.0420 14.1357 -2.8451 0.9419
-5.2834 13.7182 -2.8448 0.9419
-11.5300 9.1052 -2.8431 0.9419
-12.2937 8.0422 -2.8429 0.9419
-12.9599 6.9156 -2.8427 0.9419
-13.5232 5.7344 -2.8425 0.9419
-2.0235 -5.2539 -1.0895 0.9773
-1.5279 -5.3433 -1.0755 0.9776
-0.6404 -6.3658 -1.2381 0.9743
13.1436 6.6417 -2.8498 0.9418
11.7562 8.8658 -2.8494 0.9418
9.9963 10.8079 -2.8490 0.9418
3.0909 14.3839 -2.8471 0.9418
0.4915 14.7004 -2.8464 0.9418
-0.8188 14.6839 -2.8460 0.9418
-2.1222 14.5510 -2.8457 0.9418
-3.4085 14.3026 -2.8453 0.9419
-7.0636 12.8894 -2.8443 0.9419
-8.1819 12.2083 -2.8440 0.9419
-9.2350 11.4304 -2.8437 0.9419
-11.1134 9.6102 -2.8432 0.9419
-12.6393 7.4863 -2.8428 0.9419
-13.9805 -2.5187 -2.9948 0.9436
-12.8197 -6.1234 -2.9951 0.9436
-12.2244 -7.2405 -2.9953 0.9436
-11.5322 -8.3003 -2.9955 0.9436
-10.7484 -9.2945 -2.9957 0.9436
-9.8793 -10.2151 -2.9959 0.9436
-7.9130 -11.8070 -2.9965 0.9436
-2.3575 -5.3918 -1.2406 0.9762
-1.3205 -5.5410 -1.2009 0.9770
-0.8770 -6.0129 -1.2810 0.9755
0.4753 -14.2162 -2.9987 0.9435
8.6970 -11.2691 -3.0010 0.9435
11.3680 -8.5730 -3.0017 0.9435
12.0868 -7.5277 -3.0019 0.9435
12.7095 -6.4224 -3.0021 0.9434
13.2313 -5.2659 -3.0022 0.9434
13.6481 -4.0675 -3.0023 0.9434
13.9563 -2.8367 -3.0024 0.9434
14.2102 0.9513 -3.0025 0.9434
14.0690 2.2123 -3.0025 0.9434
13.8160 3.4556 -3.0024 0.9434
12.3235 5.5527 -2.8496 0.9462
11.1425 7.6489 -2.8493 0.9462
10.4168 8.6097 -2.8491 0.9463
8.7238 10.3186 -2.8486 0.9463
6.7548 11.6996 -2.8481 0.9463
4.5724 12.7093 -2.8475 0.9463
1.0519 13.4612 -2.8465 0.9463
-0.1504 13.4998 -2.8462 0.9463
-1.3512 13.4313 -2.8459 0.9463
-2.5410 13.2562 -2.8455 0.9463
-4.8500 12.5929 -2.8449 0.9463
-5.9510 12.1100 -2.8446 0.9463
-7.0045 11.5311 -2.8443 0.9463
-8.0023 10.8608 -2.8441 0.9463
-9.7994 9.2683 -2.8436 0.9464
-10.5847 8.3587 -2.8433 0.9464
-11.2859 7.3829 -2.8432 0.9464
-12.4147 5.2643 -2.8428 0.9464
-13.8546 3.1391 -2.9949 0.9436
-14.0787 -1.8934 -2.9948 0.9436
-13.8546 -3.1390 -2.9948 0.9436
-13.0794 -5.5461 -2.9951 0.9436
-12.5345 -6.6886 -2.9952 0.9436
-11.8901 -7.7781 -2.9954 0.9436
-10.3241 -9.7644 -2.9958 0.9436
-9.4148 -10.6454 -2.9960 0.9436
-8.4307 -11.4422 -2.9963 0.9436
-2.7406 -5.5770 -1.3100 0.9749
-1.5508 -5.4234 -1.1892 0.9772
-1.0968 -5.7217 -1.2282 0.9765
-1.4235 -14.1503 -2.9982 0.9435
-0.1584 -14.2225 -2.9986 0.9435
2.3663 -14.0284 -2.9993 0.9435
3.6059 -13.7637 -2.9996 0.9435
4.8172 -13.3896 -2.9999 0.9435
5.9905 -12.9091 -3.0002 0.9435
7.1164 -12.3259 -3.0006 0.9435
10.9745 -9.0706 -3.0016 0.9435
12.4105 -6.9820 -3.0020 0.9435
13.8159 -3.4556 -3.0024 0.9434
14.0690 -2.2122 -3.0025 0.9434
14.2385 0.3173 -3.0025 0.9434
14.1537 1.5834 -3.0025 0.9434
12.5589 4.9984 -2.8497 0.9462
9.1752 9.9201 -2.8487 0.9463
7.2696 11.3877 -2.8482 0.9463
6.2266 11.9883 -2.8479 0.9463
0.4512 13.4939 -2.8464 0.9463
-4.2845 12.7971 -2.8451 0.9463
-5.4059 12.3637 -2.8448 0.9463
-8.4777 10.4930 -2.8439 0.9463
-10.2022 8.8222 -2.8435 0.9464
-12.1682 5.8123 -2.8429 0.9464
-12.7518 4.7488 -2.8687 0.9459
-13.9805 2.5187 -2.9948 0.9436
-13.1222 0.0000 -2.9950 0.9476
-13.0701 -1.1679 -2.9951 0.9476
-12.9145 -2.3266 -2.9951 0.9476
-12.6565 -3.4670 -2.9952 0.9476
-12.2980 -4.5798 -2.9953 0.9476
-11.8421 -5.6565 -2.9954 0.9476
-10.6527 -7.6673 -2.9957 0.9476
-9.9286 -8.5856 -2.9959 0.9476
-9.1257 -9.4359 -2.9961 0.9476
-7.3093 -10.9062 -2.9966 0.9476
-6.3102 -11.5146 -2.9969 0.9476
-1.8247 -5.4501 -1.3118 0.9767
-0.7314 -13.1165 -2.9984 0.9475
0.4390 -13.1310 -2.9987 0.9475
2.7608 -12.8478 -2.9994 0.9475
3.8938 -12.5524 -2.9997 0.9475
6.0589 -11.6654 -3.0003 0.9475
11.1632 -6.9525 -3.0017 0.9475
12.2202 -4.8635 -3.0020 0.9475
12.8897 -2.6199 -3.0021 0.9475
13.0719 -1.4623 -3.0022 0.9475
13.1503 -0.2930 -3.0022 0.9475
12.9937 2.0432 -3.0022 0.9475
12.7600 3.1915 -3.0021 0.9475
11.3818 5.1284 -2.8493 0.9501
10.8796 6.1208 -2.8492 0.9501
10.2911 7.0645 -2.8490 0.9501
9.6208 7.9519 -2.8489 0.9501
8.0573 9.5303 -2.8484 0.9501
3.1613 12.0668 -2.8471 0.9501
0.9716 12.4335 -2.8465 0.9501
-0.1389 12.4693 -2.8462 0.9501
-1.2481 12.4061 -2.8459 0.9501
-2.3471 12.2445 -2.8456 0.9501
-3.4272 11.9858 -2.8453 0.9501
-6.4701 10.6513 -2.8445 0.9502
-7.3918 10.0323 -2.8442 0.9502
-8.2547 9.3338 -2.8440 0.9502
-9.0520 8.5614 -2.8438 0.9502
-10.4252 6.8199 -2.8434 0.9502
-11.4680 4.8629 -2.8431 0.9502
-12.4897 4.0274 -2.9952 0.9476
-13.0052 1.7490 -2.9951 0.9476
-12.4896 -4.0274 -2.9952 0.9476
-12.0820 -5.1232 -2.9953 0.9476
-11.5786 -6.1785 -2.9955 0.9476
-10.3009 -8.1345 -2.9958 0.9476
-9.5366 -9.0197 -2.9960 0.9476
-8.6967 -9.8335 -2.9962 0.9476
-6.8165 -11.2215 -2.9968 0.9476
-2.9025 -5.9065 -1.5021 0.9734
-2.0949 -5.4394 -1.3304 0.9764
-1.5779 -5.5183 -1.3100 0.9767
-1.1193 -5.8393 -1.3571 0.9759
4.4493 -12.3671 -2.9998 0.9475
5.5329 -11.9232 -3.0001 0.9475
7.5607 -10.7552 -3.0007 0.9475
8.4887 -10.0404 -3.0009 0.9475
10.1359 -8.3775 -3.0014 0.9475
12.8897 2.6200 -3.0021 0.9475
12.6050 3.7567 -3.0021 0.9475
9.9659 7.5156 -2.8490 0.9501
9.2567 8.3722 -2.8488 0.9501
7.6245 9.8793 -2.8483 0.9501
4.7422 11.5395 -2.8475 0.9501
-4.9934 11.4203 -2.8449 0.9501
-6.9379 10.3521 -2.8443 0.9502
-7.8311 9.6926 -2.8441 0.9502
-8.6620 8.9565 -2.8439 0.9502
-9.4241 8.1493 -2.8437 0.9502
-10.1113 7.2777 -2.8435 0.9502
-12.2981 4.5799 -2.9953 0.9476
-12.9145 2.3267 -2.9951 0.9476
-11.9931 -2.1606 -2.9954 0.9510
-11.4206 -4.2530 -2.9955 0.9510
-9.8925 -7.1202 -2.9959 0.9510
-9.2201 -7.9729 -2.9961 0.9510
-8.4744 -8.7625 -2.9963 0.9510
-2.5085 -5.7371 -1.5391 0.9745
-1.3752 -5.7705 -1.4581 0.9759
-0.6791 -12.1797 -2.9984 0.9510
3.6156 -11.6555 -2.9996 0.9510
9.0552 -8.1899 -3.0011 0.9510
10.3651 -6.4554 -3.0014 0.9509
10.8990 -5.5075 -3.0016 0.9509
11.3464 -4.5158 -3.0017 0.9509
11.7037 -3.4880 -3.0018 0.9509
12.1372 -1.3577 -3.0019 0.9509
12.0646 1.8971 -3.0019 0.9509
8.9331 7.3834 -2.8487 0.9534
7.0958 7.0172 -2.4530 0.9597
7.4814 8.8491 -2.8483 0.9534
4.8765 10.5086 -2.8476 0.9534
2.9355 11.2046 -2.8470 0.9534
-0.1290 11.5787 -2.8462 0.9534
-1.1589 11.5201 -2.8459 0.9534
-3.1825 11.1299 -2.8454 0.9534
-5.1045 10.3874 -2.8448 0.9534
-6.0083 9.8910 -2.8446 0.9534
-6.8642 9.3162 -2.8444 0.9535
-8.4060 7.9504 -2.8439 0.9535
-9.0797 7.1702 -2.8438 0.9535
-9.6812 6.3332 -2.8436 0.9535
-10.2060 5.4461 -2.8435 0.9535
-11.1454 4.7261 -2.9756 0.9514
-11.5985 3.7401 -2.9955 0.9510
-11.8851 2.6929 -2.9954 0.9510
-12.0773 1.6243 -2.9953 0.9510
-12.0773 -1.6242 -2.9953 0.9510
-11.8850 -2.6928 -2.9954 0.9510
-11.5985 -3.7400 -2.9955 0.9510
-11.2200 -4.7577 -2.9956 0.9510
-10.1996 -6.6722 -2.9958 0.9510
-9.5658 -7.5540 -2.9960 0.9510
-8.0760 -9.1316 -2.9964 0.9510
-5.3778 -10.9435 -2.9971 0.9510
-2.1503 -5.5832 -1.4706 0.9757
2.0295 -12.0317 -2.9992 0.9510
4.1314 -11.4834 -2.9997 0.9510
7.0203 -9.9865 -3.0005 0.9510
8.6811 -8.5849 -3.0010 0.9510
10.6426 -5.9874 -3.0015 0.9509
11.1338 -5.0166 -3.0017 0.9509
11.8476 -2.9633 -3.0019 0.9509
11.7038 3.4881 -3.0018 0.9509
10.3452 5.2277 -2.8491 0.9534
9.8383 6.1274 -2.8489 0.9534
9.2534 6.9784 -2.8488 0.9534
7.8685 8.5073 -2.8484 0.9534
4.4033 10.7149 -2.8474 0.9534
3.4319 11.0633 -2.8472 0.9534
1.4157 11.4943 -2.8466 0.9534
-0.6446 11.5609 -2.8461 0.9534
-1.6709 11.4565 -2.8458 0.9534
-5.5619 10.1493 -2.8447 0.9534
-6.4426 9.6131 -2.8445 0.9535
-7.2721 9.0008 -2.8443 0.9535
-8.0438 8.3172 -2.8440 0.9535
-8.7515 7.5678 -2.8438 0.9535
-9.3898 6.7584 -2.8437 0.9535
-9.9535 5.8955 -2.8435 0.9535
-10.4382 4.9859 -2.8434 0.9535
-12.1376 1.0847 -2.9953 0.9510
-11.3682 0.0001 -2.9955 0.9541
-11.3231 -1.0118 -2.9955 0.9541
-10.6541 -3.9677 -2.9957 0.9541
-10.2591 -4.9004 -2.9958 0.9541
-8.6012 -7.4377 -2.9963 0.9541
-7.9056 -8.1743 -2.9965 0.9540
-6.3319 -9.4478 -2.9969 0.9540
-1.6421 -11.2591 -2.9982 0.9540
-0.6335 -11.3616 -2.9984 0.9540
0.3803 -11.3740 -2.9987 0.9540
3.3726 -10.8723 -2.9995 0.9540
5.2478 -10.1038 -3.0000 0.9540
6.1268 -9.5974 -3.0003 0.9540
7.7325 -8.3603 -3.0007 0.9540
9.6682 -6.0214 -3.0013 0.9540
10.1662 -5.1372 -3.0014 0.9540
11.1633 -2.2690 -3.0017 0.9540
11.3211 -1.2664 -3.0017 0.9540
11.2534 1.7695 -3.0017 0.9540
10.7609 3.7366 -3.0016 0.9540
8.9129 6.1184 -2.8487 0.9563
6.9785 8.2543 -2.8481 0.9563
6.2157 8.8420 -2.8479 0.9563
5.4036 9.3594 -2.8477 0.9563
0.8416 10.7697 -2.8465 0.9563
-0.1203 10.8009 -2.8462 0.9563
-2.0331 10.6065 -2.8457 0.9563
-3.8808 10.0762 -2.8452 0.9563
-5.6049 9.2269 -2.8447 0.9563
-6.4034 8.6908 -2.8445 0.9563
-8.4702 6.6889 -2.8439 0.9563
-9.5210 5.0806 -2.8436 0.9563
-10.4670 4.4384 -2.9958 0.9541
-10.8202 3.4891 -2.9957 0.9541
-11.0875 2.5121 -2.9956 0.9541
-11.2669 1.5153 -2.9956 0.9541
-11.2669 -1.5152 -2.9956 0.9541
-11.0875 -2.5121 -2.9956 0.9541
-10.8201 -3.4890 -2.9957 0.9541
-10.4670 -4.4384 -2.9958 0.9541
-10.0308 -5.3526 -2.9959 0.9541
-6.7462 -9.1560 -2.9968 0.9540
-5.9050 -9.7209 -2.9970 0.9540
-1.6607 -5.8078 -1.5917 0.9753
-1.2358 -6.4469 -1.7297 0.9732
-0.1268 -11.3791 -2.9986 0.9540
1.8931 -11.2233 -2.9991 0.9540
2.8848 -11.0112 -2.9994 0.9540
3.8538 -10.7117 -2.9997 0.9540
5.6929 -9.8604 -3.0002 0.9540
6.5485 -9.3153 -3.0004 0.9540
8.0975 -8.0078 -3.0008 0.9540
8.7786 -7.2557 -3.0010 0.9540
9.9271 -5.5849 -3.0013 0.9540
11.2534 -1.7695 -3.0017 0.9540
11.3889 0.2538 -3.0017 0.9540
11.3211 1.2665 -3.0017 0.9540
11.1633 2.2690 -3.0017 0.9540
10.5836 4.2122 -3.0015 0.9540
6.6037 8.5566 -2.8480 0.9563
5.8154 9.1097 -2.8478 0.9563
4.1074 9.9949 -2.8474 0.9563
3.2013 10.3199 -2.8471 0.9563
2.2698 10.5629 -2.8469 0.9563
1.3205 10.7221 -2.8466 0.9563
0.3610 10.7960 -2.8463 0.9563
-0.6013 10.7843 -2.8461 0.9563
-1.5587 10.6870 -2.8458 0.9563
-4.3256 9.8929 -2.8451 0.9563
-6.7839 8.3966 -2.8444 0.9563
-8.1641 7.0598 -2.8440 0.9563
-8.7596 6.3048 -2.8438 0.9563
-9.9200 4.7384 -2.8968 0.9555
-10.6542 3.9677 -2.9957 0.9541
-10.9647 3.0036 -2.9956 0.9541
-11.1883 2.0157 -2.9956 0.9541
-11.3232 1.0119 -2.9955 0.9541
-10.6474 0.0000 -2.9957 0.9567
-10.6052 -0.9477 -2.9957 0.9567
-9.1623 -5.4268 -2.9961 0.9567
-8.6433 -6.2211 -2.9963 0.9567
-5.1195 -9.3419 -2.9972 0.9567
-2.4701 -10.3650 -2.9979 0.9567
-1.5379 -10.5446 -2.9982 0.9567
0.3561 -10.6521 -2.9987 0.9567
2.2395 -10.4220 -2.9992 0.9567
6.5154 -8.4422 -3.0004 0.9567
7.2414 -7.8293 -3.0006 0.9567
7.9100 -7.1542 -3.0008 0.9566
9.0541 -5.6389 -3.0011 0.9566
9.5205 -4.8109 -3.0012 0.9566
10.2233 -3.0468 -3.0014 0.9566
10.6019 -1.1860 -3.0015 0.9566
10.6655 -0.2376 -3.0015 0.9566
10.6443 0.7126 -3.0015 0.9566
10.3490 2.5885 -3.0015 0.9566
8.8241 4.9644 -2.8486 0.9588
7.8033 6.4496 -2.8484 0.9588
7.0367 6.9588 -2.7844 0.9597
6.5353 7.7301 -2.8480 0.9588
5.0605 8.7651 -2.8476 0.9588
2.5644 9.7883 -2.8469 0.9588
1.6829 9.9769 -2.8467 0.9588
-0.1127 10.1154 -2.8462 0.9588
-1.0125 10.0644 -2.8460 0.9588
-1.9041 9.9335 -2.8457 0.9588
-2.7804 9.7238 -2.8455 0.9588
-3.6345 9.4369 -2.8452 0.9588
-5.2493 8.6417 -2.8448 0.9589
-8.4588 5.5335 -2.8439 0.9589
-8.9177 4.7587 -2.8439 0.9589
-9.8033 4.1570 -2.9960 0.9567
-10.1341 3.2678 -2.9959 0.9567
-10.5525 1.4192 -2.9958 0.9567
-10.6369 -0.4743 -2.9957 0.9567
-10.3845 -2.3528 -2.9958 0.9567
-10.1341 -3.2678 -2.9959 0.9567
-9.8033 -4.1569 -2.9959 0.9567
-9.3947 -5.0132 -2.9961 0.9567
-7.7377 -7.3182 -2.9965 0.9567
-7.0560 -7.9783 -2.9967 0.9567
-6.3183 -8.5753 -2.9969 0.9567
-4.6985 -9.5611 -2.9973 0.9567
-1.0667 -10.6032 -2.9983 0.9567
-0.1187 -10.6569 -2.9986 0.9567
3.6091 -10.0317 -2.9996 0.9567
6.1326 -8.7238 -3.0003 0.9567
8.2211 -6.7949 -3.0009 0.9566
8.7937 -6.0365 -3.0010 0.9566
10.5385 -1.6571 -3.0015 0.9566
10.6654 0.2377 -3.0015 0.9566
10.2233 3.0469 -3.0014 0.9566
8.0831 6.0958 -2.8484 0.9588
7.5081 6.7907 -2.8483 0.9588
6.1843 8.0133 -2.8479 0.9588
5.4462 8.5313 -2.8477 0.9588
4.6649 8.9815 -2.8475 0.9588
3.8467 9.3603 -2.8473 0.9588
2.9980 9.6648 -2.8471 0.9588
2.1257 9.8924 -2.8468 0.9588
1.2367 10.0415 -2.8466 0.9588
0.3380 10.1108 -2.8463 0.9588
-0.5632 10.0999 -2.8461 0.9588
-5.6289 8.3989 -2.8447 0.9589
-6.3536 7.8640 -2.8445 0.9589
-7.6464 6.6121 -2.8441 0.9589
-8.2041 5.9050 -2.8440 0.9589
-9.6086 4.5897 -2.9960 0.9567
-10.2695 2.8131 -2.9958 0.9567
-10.6052 0.9477 -2.9957 0.9567
-10.0070 0.0000 -2.9959 0.9591
-9.9673 -0.8906 -2.9959 0.9591
-9.8486 -1.7743 -2.9959 0.9591
-9.6517 -2.6439 -2.9960 0.9591
-9.3784 -3.4925 -2.9961 0.9591
-7.5711 -6.5469 -2.9966 0.9591
-6.2911 -7.7865 -2.9969 0.9591
-1.4453 -9.9099 -2.9982 0.9590
0.3347 -10.0107 -2.9987 0.9590
1.2245 -9.9421 -2.9990 0.9590
2.1047 -9.7944 -2.9992 0.9590
2.9683 -9.5689 -2.9994 0.9590
3.8085 -9.2675 -2.9997 0.9590
5.3921 -8.4466 -3.0001 0.9590
6.1229 -7.9337 -3.0003 0.9590
6.8052 -7.3577 -3.0005 0.9590
8.0028 -6.0352 -3.0008 0.9590
8.9468 -4.5210 -3.0011 0.9590
9.3140 -3.7069 -3.0012 0.9590
9.6073 -2.8632 -3.0012 0.9590
9.9630 -1.1145 -3.0013 0.9590
10.0228 -0.2233 -3.0014 0.9590
9.9035 1.5573 -3.0013 0.9590
12.3782 6.9639 -4.2520 0.9424
6.1417 7.2644 -2.8479 0.9611
5.4704 7.7817 -2.8477 0.9611
2.4100 9.1989 -2.8469 0.9611
1.5816 9.3761 -2.8467 0.9611
0.7407 9.4789 -2.8464 0.9611
-0.9515 9.4585 -2.8460 0.9611
-1.7895 9.3355 -2.8458 0.9611
-3.4158 8.8689 -2.8453 0.9611
-4.1913 8.5291 -2.8451 0.9611
-5.6364 7.6498 -2.8447 0.9611
-6.9026 6.5284 -2.8444 0.9611
-7.9499 5.2006 -2.8441 0.9611
-8.8296 4.7117 -2.9962 0.9591
-9.2136 3.9070 -2.9961 0.9591
-9.5245 3.0713 -2.9960 0.9591
-9.9178 1.3338 -2.9959 0.9591
-9.9971 0.4458 -2.9959 0.9591
-9.5245 -3.0712 -2.9960 0.9591
-8.8296 -4.7116 -2.9962 0.9591
-8.3755 -5.4790 -2.9963 0.9591
-7.2721 -6.8779 -2.9966 0.9591
-5.9381 -8.0593 -2.9970 0.9591
-3.5987 -9.3437 -2.9976 0.9591
-2.7530 -9.6277 -2.9979 0.9591
-1.8853 -9.8353 -2.9981 0.9590
5.0103 -8.6781 -3.0000 0.9590
6.4705 -7.6533 -3.0004 0.9590
7.7258 -6.3855 -3.0007 0.9590
8.2639 -5.6728 -3.0009 0.9590
8.7364 -4.9150 -3.0010 0.9590
9.1395 -4.1180 -3.0011 0.9590
9.4701 -3.2883 -3.0012 0.9590
9.7254 -2.4325 -3.0013 0.9590
9.9035 -1.5572 -3.0013 0.9590
10.0028 -0.6696 -3.0014 0.9590
9.9631 1.1146 -3.0013 0.9590
9.3141 3.7070 -3.0012 0.9590
12.6764 6.4057 -4.2521 0.9424
8.0762 5.0299 -2.8484 0.9611
7.0557 6.3815 -2.8482 0.9611
6.4594 6.9838 -2.8480 0.9611
5.8118 7.5305 -2.8478 0.9611
5.1181 8.0174 -2.8476 0.9611
4.3839 8.4405 -2.8474 0.9611
3.6150 8.7966 -2.8472 0.9611
2.8175 9.0827 -2.8470 0.9611
1.1623 9.4369 -2.8466 0.9611
0.3177 9.5021 -2.8463 0.9611
-0.5293 9.4919 -2.8461 0.9611
-5.9713 7.3909 -2.8446 0.9611
-8.1735 4.8412 -2.8440 0.9611
-9.4339 0.0001 -2.9961 0.9612
-9.3965 -0.8396 -2.9961 0.9612
-8.8412 -3.2925 -2.9962 0.9612
-8.1179 -4.8082 -2.9964 0.9612
-7.6580 -5.5119 -2.9965 0.9612
-5.9306 -7.3404 -2.9970 0.9612
-5.2541 -7.8396 -2.9972 0.9612
-3.7813 -8.6481 -2.9976 0.9612
-2.1884 -9.1829 -2.9980 0.9612
-0.5256 -9.4268 -2.9985 0.9612
0.3155 -9.4370 -2.9987 0.9611
1.1543 -9.3721 -2.9989 0.9611
1.9840 -9.2329 -2.9992 0.9611
2.7981 -9.0203 -2.9994 0.9611
3.5901 -8.7361 -2.9996 0.9611
4.3538 -8.3825 -2.9998 0.9611
5.0829 -7.9622 -3.0000 0.9611
5.7718 -7.4787 -3.0002 0.9611
8.0205 -4.9952 -3.0008 0.9611
8.7797 -3.4942 -3.0010 0.9611
9.3915 -1.0506 -3.0012 0.9611
8.9268 3.0998 -3.0011 0.9611
11.6682 6.5644 -4.2518 0.9454
6.9126 5.7134 -2.8481 0.9631
5.7894 6.8478 -2.8478 0.9631
5.1566 7.3354 -2.8476 0.9631
1.4909 8.8386 -2.8466 0.9631
-0.0998 8.9615 -2.8462 0.9631
-0.8970 8.9164 -2.8460 0.9631
-2.4633 8.6148 -2.8456 0.9631
-5.3134 7.2115 -2.8448 0.9631
-5.9339 6.7096 -2.8446 0.9631
-6.5071 6.1545 -2.8445 0.9631
-8.3239 4.4418 -2.9964 0.9612
-9.3498 1.2575 -2.9961 0.9612
-9.4245 0.4203 -2.9961 0.9612
-8.9790 -2.8953 -2.9962 0.9612
-7.8958 -5.1652 -2.9965 0.9612
-6.8555 -6.4839 -2.9968 0.9612
-4.8998 -8.0662 -2.9973 0.9612
-3.3925 -8.8083 -2.9977 0.9612
-1.7772 -9.2716 -2.9981 0.9612
0.7356 -9.4139 -2.9988 0.9611
1.5707 -9.3118 -2.9990 0.9611
2.3934 -9.1356 -2.9993 0.9611
3.1973 -8.8870 -2.9995 0.9611
3.9759 -8.5678 -2.9997 0.9611
7.2827 -6.0193 -3.0006 0.9611
7.7899 -5.3474 -3.0007 0.9611
8.2352 -4.6331 -3.0009 0.9611
8.6152 -3.8818 -3.0010 0.9611
9.1674 -2.2929 -3.0011 0.9611
9.3353 -1.4679 -3.0012 0.9611
9.4290 -0.6312 -3.0012 0.9611
9.4478 0.2106 -3.0012 0.9611
9.3915 1.0506 -3.0012 0.9611
9.0561 2.6990 -3.0011 0.9611
8.7797 3.4943 -3.0010 0.9611
11.9493 6.0382 -4.2519 0.9454
11.3639 7.0775 -4.2517 0.9454
6.6510 6.0155 -2.8480 0.9631
6.0889 6.5833 -2.8479 0.9631
5.4785 7.0987 -2.8477 0.9631
4.8246 7.5577 -2.8476 0.9631
4.1325 7.9565 -2.8474 0.9631
1.8832 8.7637 -2.8468 0.9631
1.0956 8.8959 -2.8465 0.9631
0.2995 8.9574 -2.8463 0.9631
-0.4989 8.9478 -2.8461 0.9631
-1.2932 8.8672 -2.8459 0.9631
-2.0772 8.7163 -2.8457 0.9631
-2.8445 8.4962 -2.8455 0.9631
-3.5892 8.2087 -2.8453 0.9631
-4.3053 7.8562 -2.8451 0.9631
-5.6292 6.9674 -2.8447 0.9631
-8.5133 4.0665 -2.9963 0.9612
-8.8412 3.2925 -2.9962 0.9612
-9.2845 1.6727 -2.9961 0.9612
-8.8824 -0.7937 -2.9962 0.9631
-8.7765 -1.5811 -2.9962 0.9631
-8.3575 -3.1123 -2.9963 0.9631
-8.0475 -3.8440 -2.9964 0.9631
-6.2011 -6.4118 -2.9969 0.9631
-5.6061 -6.9387 -2.9971 0.9631
-4.9665 -7.4105 -2.9973 0.9631
-3.5744 -8.1747 -2.9976 0.9631
-2.8328 -8.4610 -2.9978 0.9630
-2.0686 -8.6802 -2.9981 0.9630
-0.4969 -8.9107 -2.9985 0.9630
1.0911 -8.8589 -2.9989 0.9630
1.8754 -8.7272 -2.9991 0.9630
3.3935 -8.2576 -2.9995 0.9630
6.0634 -6.5557 -3.0003 0.9630
7.5810 -4.7215 -3.0007 0.9630
7.9715 -4.0281 -3.0008 0.9630
8.2986 -3.3028 -3.0009 0.9630
8.7531 -1.7791 -3.0010 0.9630
8.8768 -0.9930 -3.0010 0.9630
8.9300 -0.1990 -3.0011 0.9630
8.9123 0.5966 -3.0011 0.9630
8.8237 1.3875 -3.0010 0.9630
8.4376 2.9299 -3.0009 0.9630
8.1431 3.6691 -3.0009 0.9630
11.0288 6.2047 -4.2516 0.9480
10.4324 7.1614 -4.2515 0.9480
6.5338 5.4004 -2.8480 0.9649
4.2374 7.3394 -2.8474 0.9649
3.5671 7.6870 -2.8472 0.9649
2.1474 8.1965 -2.8468 0.9649
1.4092 8.3546 -2.8466 0.9649
-0.8479 8.4282 -2.8460 0.9649
-1.5946 8.3187 -2.8458 0.9649
-2.3285 8.1432 -2.8456 0.9649
-3.0438 7.9030 -2.8454 0.9649
-5.0226 6.8168 -2.8449 0.9649
-5.6091 6.3424 -2.8447 0.9649
-6.6441 5.2468 -2.8444 0.9649
-7.2337 4.7321 -2.9042 0.9642
-7.8684 4.1987 -2.9965 0.9631
-8.2106 3.4817 -2.9964 0.9631
-8.9089 -0.3972 -2.9962 0.9631
-8.8382 -1.1886 -2.9962 0.9631
-8.4877 -2.7369 -2.9963 0.9631
-8.2106 -3.4816 -2.9964 0.9631
-7.8684 -4.1987 -2.9965 0.9631
-6.9998 -5.5277 -2.9967 0.9631
-6.4804 -6.1291 -2.9969 0.9631
-5.9094 -6.6819 -2.9970 0.9631
-3.2068 -8.3261 -2.9977 0.9631
-1.6799 -8.7640 -2.9982 0.9630
-0.8933 -8.8794 -2.9984 0.9630
0.6953 -8.8983 -2.9988 0.9630
1.4847 -8.8018 -2.9990 0.9630
2.2624 -8.6353 -2.9992 0.9630
3.0222 -8.4003 -2.9994 0.9630
4.4643 -7.7323 -2.9998 0.9630
5.7652 -6.8191 -3.0002 0.9630
6.8836 -5.6894 -3.0005 0.9630
7.3630 -5.0544 -3.0006 0.9630
7.7840 -4.3792 -3.0007 0.9630
8.6651 -2.1672 -3.0010 0.9630
8.8237 -1.3875 -3.0010 0.9630
8.9300 0.1990 -3.0011 0.9630
8.2986 3.3028 -3.0009 0.9630
7.9715 4.0282 -3.0008 0.9630
10.7413 6.6897 -4.2516 0.9480
6.2866 5.6859 -2.8479 0.9649
5.7553 6.2226 -2.8478 0.9649
5.1783 6.7097 -2.8476 0.9649
4.5603 7.1436 -2.8475 0.9649
3.9061 7.5207 -2.8473 0.9649
3.2210 7.8380 -2.8471 0.9649
2.5105 8.0930 -2.8469 0.9649
1.7801 8.2838 -2.8467 0.9649
0.2831 8.4669 -2.8463 0.9649
-0.4716 8.4579 -2.8461 0.9649
-1.9635 8.2391 -2.8457 0.9649
-3.3927 7.7594 -2.8453 0.9649
-4.7141 7.0340 -2.8449 0.9649
-6.4039 5.5377 -2.8445 0.9649
-6.8711 4.9455 -2.8444 0.9649
-7.6737 4.5452 -2.9965 0.9631
-8.6011 2.3561 -2.9963 0.9631
-8.4502 0.0000 -2.9963 0.9648
-8.4167 -0.7521 -2.9963 0.9648
-8.3164 -1.4983 -2.9964 0.9648
-7.9193 -2.9491 -2.9965 0.9648
-7.2713 -4.3068 -2.9966 0.9648
-6.8594 -4.9371 -2.9968 0.9648
-5.3121 -6.5748 -2.9972 0.9648
-4.0626 -7.4133 -2.9975 0.9648
-3.3869 -7.7460 -2.9977 0.9648
-1.9601 -8.2248 -2.9981 0.9648
0.2826 -8.4521 -2.9987 0.9647
1.0338 -8.3940 -2.9989 0.9647
1.7770 -8.2693 -2.9991 0.9647
3.2154 -7.8242 -2.9995 0.9647
3.8993 -7.5074 -2.9997 0.9647
5.1692 -6.6979 -3.0000 0.9647
6.2755 -5.6758 -3.0003 0.9647
7.1830 -4.4736 -3.0006 0.9647
7.5529 -3.8167 -3.0007 0.9647
8.2935 -1.6857 -3.0009 0.9647
8.4611 -0.1885 -3.0009 0.9647
8.2101 2.0535 -3.0009 0.9647
7.7156 3.4765 -3.0007 0.9647
9.8847 6.7854 -4.2513 0.9504
6.1908 5.1169 -2.8479 0.9665
-1.5109 7.8823 -2.8458 0.9665
-2.2063 7.7160 -2.8456 0.9665
-3.5390 7.2016 -2.8453 0.9665
-5.3150 6.0098 -2.8448 0.9665
-7.0724 4.6266 -2.9967 0.9648
-8.0427 2.5935 -2.9964 0.9648
-8.3749 -1.1263 -2.9963 0.9648
-8.2415 -1.8673 -2.9964 0.9648
-8.0427 -2.5934 -2.9964 0.9648
-7.7801 -3.2990 -2.9965 0.9648
-6.6328 -5.2379 -2.9968 0.9648
-6.1405 -5.8077 -2.9969 0.9648
-5.0140 -6.8051 -2.9973 0.9648
-3.0386 -7.8894 -2.9978 0.9648
-0.8464 -8.4136 -2.9984 0.9647
5.4626 -6.4611 -3.0001 0.9647
6.0163 -5.9496 -3.0003 0.9647
6.5223 -5.3907 -3.0004 0.9647
6.9765 -4.7890 -3.0005 0.9647
7.3753 -4.1493 -3.0006 0.9647
7.7156 -3.4764 -3.0007 0.9647
8.4443 -0.5653 -3.0009 0.9647
8.4611 0.1886 -3.0009 0.9647
8.2935 1.6857 -3.0009 0.9647
8.1104 2.4172 -3.0008 0.9647
9.5724 7.2189 -4.2512 0.9504
5.9566 5.3874 -2.8479 0.9665
5.4532 5.8959 -2.8477 0.9665
4.9065 6.3575 -2.8476 0.9665
4.3209 6.7686 -2.8474 0.9665
3.7011 7.1260 -2.8472 0.9665
2.3787 7.6683 -2.8469 0.9665
0.9813 7.9675 -2.8465 0.9665
0.2682 8.0227 -2.8463 0.9665
-1.8605 7.8069 -2.8457 0.9665
-4.4669 6.6651 -2.8450 0.9665
-5.5773 5.7669 -2.8447 0.9665
-6.0681 5.2473 -2.8446 0.9665
-6.5804 4.7363 -2.8749 0.9662
-7.2714 4.3069 -2.9966 0.9648
-7.6256 3.6425 -2.9966 0.9648
-8.4167 0.7521 -2.9963 0.9648
-8.0245 0.0000 -2.9964 0.9663
-7.9927 -0.7142 -2.9964 0.9663
-5.0444 -6.2435 -2.9972 0.9663
-3.8579 -7.0397 -2.9976 0.9663
-2.5489 -7.6131 -2.9979 0.9663
-1.1588 -7.9454 -2.9983 0.9663
-0.4471 -8.0176 -2.9985 0.9663
0.9817 -7.9708 -2.9989 0.9663
1.6874 -7.8523 -2.9991 0.9663
2.3797 -7.6714 -2.9993 0.9663
3.7026 -7.1288 -2.9996 0.9663
4.3227 -6.7713 -2.9998 0.9663
6.4153 -4.8380 -3.0004 0.9663
7.1719 -3.6241 -3.0006 0.9663
7.4662 -2.9715 -3.0007 0.9663
7.8751 -1.6007 -3.0008 0.9663
7.9864 -0.8934 -3.0008 0.9663
7.9386 1.2483 -3.0008 0.9663
5.4225 5.3625 -2.8477 0.9680
4.9235 5.8235 -2.8476 0.9680
3.8125 6.6035 -2.8473 0.9680
3.2095 6.9162 -2.8471 0.9680
1.9321 7.3748 -2.8468 0.9680
1.2680 7.5171 -2.8466 0.9680
-0.0849 7.6217 -2.8462 0.9680
-4.5194 6.1338 -2.8450 0.9680
-5.5348 5.2348 -2.8447 0.9680
-6.7161 4.3935 -2.9968 0.9663
-7.0802 3.7782 -2.9967 0.9663
-7.6375 2.4628 -2.9965 0.9663
-7.8263 1.7732 -2.9965 0.9663
-7.9530 1.0696 -2.9965 0.9663
-8.0166 0.3575 -2.9964 0.9663
-8.0165 -0.3574 -2.9964 0.9663
-7.3882 -3.1328 -2.9966 0.9663
-7.0802 -3.7781 -2.9967 0.9663
-6.7161 -4.3934 -2.9968 0.9663
-6.2986 -4.9740 -2.9969 0.9663
-3.5406 -7.2048 -2.9977 0.9663
-2.8854 -7.4918 -2.9978 0.9663
-2.2073 -7.7193 -2.9980 0.9663
-1.5116 -7.8856 -2.9982 0.9663
-0.8037 -7.9894 -2.9984 0.9663
0.6256 -8.0064 -2.9988 0.9663
4.6202 -6.5723 -2.9999 0.9663
5.7128 -5.6495 -3.0002 0.9663
6.1933 -5.1188 -3.0003 0.9663
6.6245 -4.5475 -3.0004 0.9663
7.0032 -3.9399 -3.0005 0.9663
7.3264 -3.3011 -3.0006 0.9663
7.8751 1.6007 -3.0008 0.9663
7.4662 2.9715 -3.0007 0.9663
6.8207 4.2480 -3.0005 0.9663
9.0896 6.8547 -4.2511 0.9526
4.1030 6.4273 -2.8474 0.9680
3.5145 6.7666 -2.8472 0.9680
0.2547 7.6182 -2.8463 0.9680
-1.0999 7.5417 -2.8459 0.9680
-2.4194 7.2263 -2.8456 0.9680
-3.0527 6.9818 -2.8454 0.9680
-3.6618 6.6820 -2.8452 0.9680
-4.2418 6.3292 -2.8451 0.9680
-5.2962 5.4763 -2.8448 0.9680
-6.5138 4.6884 -2.9969 0.9663
-6.9050 4.0899 -2.9967 0.9663
-7.2414 3.4589 -2.9967 0.9663
-7.5203 2.8006 -2.9966 0.9663
-6.8899 -3.2910 -2.9967 0.9677
-6.5699 -3.8913 -2.9968 0.9677
-5.7762 -4.9949 -2.9970 0.9677
-5.3090 -5.4894 -2.9972 0.9677
-4.7995 -5.9404 -2.9973 0.9677
-4.2520 -6.3443 -2.9975 0.9677
-1.7709 -7.4310 -2.9981 0.9677
-0.4253 -7.6282 -2.9985 0.9677
1.6054 -7.4709 -2.9991 0.9677
2.2641 -7.2988 -2.9992 0.9677
4.1127 -6.4424 -2.9997 0.9677
5.6694 -5.1277 -3.0002 0.9677
7.1034 -2.8271 -3.0006 0.9677
7.5983 -0.8500 -3.0007 0.9677
7.6438 -0.1703 -3.0007 0.9677
7.6286 0.5107 -3.0007 0.9677
7.5528 1.1877 -3.0007 0.9677
7.4171 1.8552 -3.0007 0.9677
6.6630 3.7485 -3.0004 0.9677
8.9300 6.1301 -4.2511 0.9545
3.6273 6.2827 -2.8472 0.9693
3.0535 6.5803 -2.8471 0.9693
1.8383 7.0166 -2.8467 0.9693
1.2064 7.1519 -2.8466 0.9693
0.5650 7.2305 -2.8464 0.9693
-0.0808 7.2516 -2.8462 0.9693
-0.7258 7.2152 -2.8460 0.9693
-1.9934 6.9713 -2.8457 0.9693
-2.6058 6.7659 -2.8455 0.9693
-3.1975 6.5067 -2.8454 0.9693
-3.7637 6.1959 -2.8452 0.9693
-4.3000 5.8361 -2.8451 0.9693
-6.3901 4.1802 -2.9969 0.9677
-6.7366 3.5948 -2.9968 0.9677
-7.0296 2.9809 -2.9967 0.9677
-7.5670 1.0177 -2.9966 0.9677
-7.6275 0.3401 -2.9965 0.9677
-7.6275 -0.3401 -2.9965 0.9677
-7.5670 -1.0176 -2.9966 0.9677
-7.4465 -1.6871 -2.9966 0.9677
-7.2669 -2.3433 -2.9966 0.9677
-7.0296 -2.9808 -2.9967 0.9677
-6.7366 -3.5947 -2.9968 0.9677
-6.3901 -4.1802 -2.9969 0.9677
-5.9929 -4.7325 -2.9970 0.9677
-4.5302 -6.1485 -2.9974 0.9677
-3.9652 -6.5276 -2.9975 0.9677
-3.3687 -6.8550 -2.9977 0.9677
-2.7453 -7.1280 -2.9979 0.9677
-2.1001 -7.3445 -2.9980 0.9677
-1.4382 -7.5027 -2.9982 0.9677
-0.7647 -7.6014 -2.9984 0.9677
1.2710 -7.5348 -2.9990 0.9677
1.9367 -7.3922 -2.9991 0.9677
2.5871 -7.1909 -2.9993 0.9677
3.2170 -6.9325 -2.9995 0.9677
6.6629 -3.7485 -3.0004 0.9677
6.9703 -3.1406 -3.0005 0.9677
7.2224 -2.5079 -3.0006 0.9677
7.4171 -1.8551 -3.0006 0.9677
7.5983 0.8500 -3.0007 0.9677
7.3270 2.1837 -3.0006 0.9677
6.8234 3.4480 -3.0005 0.9677
6.4893 4.0416 -3.0004 0.9677
8.6479 6.5217 -4.2510 0.9545
8.0328 7.2652 -4.2508 0.9545
4.9265 5.3266 -2.8476 0.9693
4.4327 5.7436 -2.8474 0.9693
2.1491 6.9279 -2.8468 0.9693
0.8866 7.1984 -2.8465 0.9693
-0.4037 7.2406 -2.8461 0.9693
-1.0465 7.1755 -2.8460 0.9693
-2.3019 6.8754 -2.8456 0.9693
-3.4841 6.3576 -2.8453 0.9693
-4.5556 5.6386 -2.8450 0.9693
-5.0392 5.2105 -2.8449 0.9693
-6.1977 4.4608 -2.9969 0.9677
-6.5699 3.8914 -2.9968 0.9677
-7.1554 2.6647 -2.9967 0.9677
-7.6048 0.6796 -2.9966 0.9677
-7.1620 -1.2903 -2.9967 0.9690
-7.0189 -1.9226 -2.9967 0.9690
-6.2619 -3.7089 -2.9969 0.9690
-5.5055 -4.7607 -2.9971 0.9690
-4.5745 -5.6619 -2.9974 0.9690
-4.0526 -6.0470 -2.9975 0.9690
-2.9166 -6.6704 -2.9978 0.9690
-1.6879 -7.0826 -2.9982 0.9690
-1.0508 -7.2051 -2.9983 0.9690
-0.4054 -7.2705 -2.9985 0.9690
0.8902 -7.2280 -2.9989 0.9690
1.5301 -7.1205 -2.9990 0.9690
2.1579 -6.9565 -2.9992 0.9690
3.3575 -6.4643 -2.9995 0.9690
5.4034 -4.8871 -3.0001 0.9690
5.8172 -4.3869 -3.0002 0.9690
6.5032 -3.2862 -3.0004 0.9690
6.9832 -2.0812 -3.0005 0.9690
7.1408 -1.4514 -3.0006 0.9690
7.2417 -0.8101 -3.0006 0.9690
7.1984 1.1319 -3.0006 0.9690
7.0690 1.7681 -3.0006 0.9690
6.6433 2.9934 -3.0004 0.9690
6.0070 4.1236 -3.0003 0.9690
7.9569 6.5766 -4.2508 0.9563
7.3397 7.2584 -4.2506 0.9563
3.9766 5.6568 -2.8473 0.9705
1.1498 6.8165 -2.8465 0.9705
0.5385 6.8914 -2.8464 0.9705
-0.0770 6.9115 -2.8462 0.9705
-0.6918 6.8769 -2.8460 0.9705
-1.3011 6.7876 -2.8459 0.9705
-1.8999 6.6445 -2.8457 0.9705
-3.0476 6.2016 -2.8454 0.9706
-3.5873 5.9055 -2.8453 0.9706
-4.0985 5.5625 -2.8451 0.9706
-4.5771 5.1754 -2.8450 0.9706
-5.7120 4.5108 -2.9971 0.9690
-6.4209 3.4263 -2.9969 0.9690
-6.7002 2.8412 -2.9968 0.9690
-6.9263 2.2335 -2.9967 0.9690
-7.0975 1.6081 -2.9967 0.9690
-7.2124 0.9700 -2.9967 0.9690
-7.2701 0.3242 -2.9966 0.9690
-7.2700 -0.3241 -2.9966 0.9690
-7.0975 -1.6081 -2.9967 0.9690
-6.7002 -2.8411 -2.9968 0.9690
-6.4209 -3.4263 -2.9969 0.9690
-5.7120 -4.5107 -2.9971 0.9690
-5.2881 -5.0014 -2.9972 0.9690
-4.3179 -5.8603 -2.9974 0.9690
-2.6166 -6.7938 -2.9979 0.9690
-2.0016 -7.0002 -2.9981 0.9690
-0.7289 -7.2450 -2.9984 0.9690
-0.0811 -7.2816 -2.9986 0.9690
0.5673 -7.2603 -2.9988 0.9690
1.2114 -7.1814 -2.9990 0.9690
2.4657 -6.8536 -2.9993 0.9690
3.6422 -6.3085 -2.9996 0.9690
6.3503 -3.5726 -3.0004 0.9690
6.6433 -2.9933 -3.0004 0.9690
6.8835 -2.3902 -3.0005 0.9690
7.0690 -1.7680 -3.0006 0.9690
7.2706 -0.4867 -3.0006 0.9690
7.2851 0.1623 -3.0006 0.9690
6.9832 2.0812 -3.0005 0.9690
6.5033 3.2862 -3.0004 0.9690
8.2421 6.2157 -4.2509 0.9563
2.0483 6.6030 -2.8468 0.9705
1.4524 6.7587 -2.8466 0.9705
-0.9974 6.8390 -2.8460 0.9705
-1.6021 6.7227 -2.8458 0.9705
-2.7684 6.3314 -2.8455 0.9705
-3.3207 6.0596 -2.8453 0.9706
-4.3421 5.3743 -2.8450 0.9706
-6.2620 3.7090 -2.9969 0.9690
-6.5670 3.1368 -2.9968 0.9690
-6.9472 0.0000 -2.9967 0.9702
-5.9779 -3.5407 -2.9970 0.9702
-5.6392 -4.0588 -2.9971 0.9702
-5.2558 -4.5448 -2.9972 0.9702
-4.8306 -4.9947 -2.9973 0.9702
-3.8688 -5.7726 -2.9976 0.9702
-3.3398 -6.0943 -2.9977 0.9702
-2.7842 -6.3677 -2.9979 0.9702
-2.2066 -6.5906 -2.9980 0.9702
-1.6113 -6.7612 -2.9982 0.9702
-0.3870 -6.9405 -2.9985 0.9702
0.2323 -6.9478 -2.9987 0.9702
2.0600 -6.6407 -2.9992 0.9702
3.7418 -5.8614 -2.9996 0.9702
4.2488 -5.5054 -2.9998 0.9702
4.7222 -5.1055 -2.9999 0.9702
5.9039 -3.6770 -3.0002 0.9702
6.6661 -1.9867 -3.0004 0.9702
6.8165 -1.3855 -3.0005 0.9702
6.9129 -0.7733 -3.0005 0.9702
6.9405 0.4646 -3.0005 0.9702
6.8715 1.0805 -3.0005 0.9702
6.5709 2.2817 -3.0004 0.9702
6.0620 3.4104 -3.0003 0.9702
5.7342 3.9363 -3.0002 0.9702
7.5956 6.2779 -4.2507 0.9580
7.0064 6.9288 -4.2505 0.9580
4.2618 5.0409 -2.8474 0.9717
2.7782 5.9869 -2.8470 0.9717
2.2342 6.2101 -2.8468 0.9717
1.6725 6.3839 -2.8467 0.9717
1.0976 6.5071 -2.8465 0.9717
-0.0735 6.5979 -2.8462 0.9717
-0.6604 6.5648 -2.8461 0.9717
-1.2420 6.4796 -2.8459 0.9717
-1.8137 6.3430 -2.8457 0.9717
-2.3709 6.1560 -2.8456 0.9717
-2.9093 5.9203 -2.8454 0.9717
-3.4245 5.6376 -2.8453 0.9717
-4.3694 4.9406 -2.8450 0.9717
-4.9877 4.7174 -2.9613 0.9705
-5.4529 4.3061 -2.9971 0.9702
-5.8143 3.8036 -2.9970 0.9702
-6.1296 3.2709 -2.9970 0.9702
-6.3963 2.7123 -2.9969 0.9702
-6.6122 2.1322 -2.9968 0.9702
-6.9403 0.3095 -2.9967 0.9702
-6.8853 -0.9260 -2.9967 0.9702
-6.3963 -2.7122 -2.9969 0.9702
-6.1296 -3.2709 -2.9970 0.9702
-5.8143 -3.8035 -2.9970 0.9702
-3.6079 -5.9393 -2.9976 0.9702
-3.0651 -6.2372 -2.9978 0.9702
-0.6958 -6.9162 -2.9984 0.9702
1.7621 -6.7257 -2.9991 0.9702
3.9993 -5.6890 -2.9997 0.9702
5.3609 -4.4309 -3.0001 0.9702
6.3416 -2.8574 -3.0004 0.9702
6.5709 -2.2816 -3.0004 0.9702
6.7480 -1.6878 -3.0005 0.9702
6.9405 -0.4646 -3.0005 0.9702
6.9129 0.7733 -3.0005 0.9702
6.8165 1.3855 -3.0005 0.9702
6.6661 1.9867 -3.0004 0.9702
5.9039 3.6770 -3.0002 0.9702
5.5531 4.1878 -3.0001 0.9702
6.6907 7.2339 -4.2505 0.9580
3.5516 5.5636 -2.8472 0.9717
3.0422 5.8573 -2.8471 0.9717
2.5087 6.1046 -2.8469 0.9717
1.9553 6.3033 -2.8468 0.9717
-0.3673 6.5879 -2.8461 0.9717
-3.1701 5.7846 -2.8454 0.9717
-5.2558 4.5449 -2.9972 0.9702
-5.6392 4.0589 -2.9971 0.9702
-5.9779 3.5408 -2.9970 0.9702
-6.2692 2.9946 -2.9969 0.9702
-6.7005 1.8355 -2.9968 0.9702
-6.5365 -1.1776 -2.9968 0.9713
-5.9934 -2.8628 -2.9970 0.9713
-5.7149 -3.3850 -2.9971 0.9713
-5.0245 -4.3449 -2.9973 0.9713
-4.1749 -5.1673 -2.9975 0.9713
-3.1928 -5.8262 -2.9978 0.9713
-2.1095 -6.3006 -2.9980 0.9713
-1.5404 -6.4637 -2.9982 0.9713
-0.9590 -6.5755 -2.9984 0.9713
0.8124 -6.5963 -2.9988 0.9713
2.5266 -6.1482 -2.9993 0.9713
3.5771 -5.6033 -2.9996 0.9712
4.0618 -5.2630 -2.9997 0.9712
4.5143 -4.8808 -2.9999 0.9712
4.9310 -4.4598 -3.0000 0.9712
6.1781 -2.4588 -3.0003 0.9712
6.3725 -1.8992 -3.0004 0.9712
6.6084 -0.7393 -3.0004 0.9712
6.6480 -0.1481 -3.0004 0.9712
6.4508 1.6135 -3.0004 0.9712
6.0623 2.7316 -3.0003 0.9712
5.7950 3.2603 -3.0002 0.9712
5.1248 4.2358 -3.0000 0.9712
6.6980 6.6237 -4.2505 0.9595
3.6289 5.1622 -2.8472 0.9727
3.1549 5.4645 -2.8471 0.9727
2.1358 5.9367 -2.8468 0.9727
1.0493 6.2207 -2.8465 0.9727
-1.1874 6.1944 -2.8459 0.9727
-2.2666 5.8852 -2.8456 0.9727
-2.7813 5.6598 -2.8455 0.9727
-3.2738 5.3895 -2.8453 0.9727
-3.7404 5.0765 -2.8452 0.9727
-4.8261 4.5645 -2.9973 0.9713
-5.2130 4.1167 -2.9972 0.9713
-5.5586 3.6363 -2.9971 0.9713
-5.8600 3.1270 -2.9970 0.9713
-6.3213 2.0384 -2.9969 0.9713
-6.4776 1.4677 -2.9969 0.9713
-6.5824 0.8852 -2.9968 0.9713
-6.6350 0.2959 -2.9968 0.9713
-6.6350 -0.2958 -2.9968 0.9713
-6.4775 -1.4676 -2.9969 0.9713
-6.1149 -2.5929 -2.9970 0.9713
-5.8600 -3.1269 -2.9970 0.9713
-5.2130 -4.1167 -2.9972 0.9713
-4.8261 -4.5645 -2.9973 0.9713
-4.4008 -4.9761 -2.9974 0.9713
-3.9406 -5.3482 -2.9975 0.9713
-3.4491 -5.6780 -2.9977 0.9713
-2.9302 -5.9628 -2.9978 0.9713
-1.8267 -6.3885 -2.9981 0.9713
-1.2509 -6.5260 -2.9983 0.9713
0.5177 -6.6257 -2.9988 0.9713
1.1055 -6.5537 -2.9989 0.9713
3.3238 -5.7570 -2.9995 0.9712
4.7273 -4.6749 -2.9999 0.9712
5.4817 -3.7629 -3.0001 0.9712
5.7950 -3.2602 -3.0002 0.9712
6.4508 -1.6134 -3.0004 0.9712
6.5689 -1.0329 -3.0004 0.9712
6.5163 1.3245 -3.0004 0.9712
6.3725 1.8992 -3.0004 0.9712
5.6440 3.5151 -3.0002 0.9712
3.8554 4.9955 -2.8473 0.9727
1.8692 6.0258 -2.8467 0.9727
1.3254 6.1679 -2.8466 0.9727
-0.3512 6.2979 -2.8461 0.9727
-2.0023 5.9804 -2.8457 0.9727
-2.5265 5.7782 -2.8455 0.9727
-3.0306 5.5301 -2.8454 0.9727
-3.5106 5.2382 -2.8453 0.9727
-5.7150 3.3850 -2.9971 0.9713
-5.9934 2.8629 -2.9970 0.9713
-6.2243 2.3180 -2.9969 0.9713
-6.5365 1.1776 -2.9968 0.9713
-6.6153 0.5912 -2.9968 0.9713
-6.3578 0.0000 -2.9969 0.9723
-6.1320 -1.6797 -2.9970 0.9723
-5.9582 -2.2189 -2.9970 0.9723
-5.7372 -2.7404 -2.9971 0.9723
-5.4707 -3.2402 -2.9971 0.9723
-4.8098 -4.1591 -2.9973 0.9723
-3.9964 -4.9464 -2.9975 0.9723
-2.5479 -5.8273 -2.9979 0.9723
-2.0193 -6.0312 -2.9981 0.9723
-0.9180 -6.2943 -2.9984 0.9723
-0.3541 -6.3513 -2.9985 0.9723
0.7777 -6.3141 -2.9988 0.9723
2.4186 -5.8852 -2.9993 0.9723
2.9329 -5.6469 -2.9994 0.9723
3.4240 -5.3636 -2.9996 0.9723
3.8880 -5.0378 -2.9997 0.9723
4.7200 -4.2689 -2.9999 0.9722
5.0814 -3.8320 -3.0000 0.9722
5.4024 -3.3647 -3.0001 0.9722
6.2375 -1.2678 -3.0003 0.9722
6.0127 2.0879 -3.0003 0.9722
5.8029 2.6147 -3.0002 0.9722
4.9056 4.0546 -3.0000 0.9722
3.4737 4.9413 -2.8472 0.9736
1.5305 5.8419 -2.8467 0.9736
-5.3210 3.4808 -2.9972 0.9723
-5.8535 2.4821 -2.9970 0.9723
-6.0511 1.9513 -2.9970 0.9723
-6.3011 0.8474 -2.9969 0.9723
-6.3514 -0.2832 -2.9969 0.9723
-6.2007 -1.4049 -2.9969 0.9723
-5.8535 -2.4821 -2.9970 0.9723
-4.9902 -3.9407 -2.9973 0.9723
-4.2127 -4.7634 -2.9975 0.9723
-3.7722 -5.1196 -2.9976 0.9723
-3.3017 -5.4353 -2.9977 0.9723
-2.8049 -5.7078 -2.9979 0.9723
-2.2859 -5.9351 -2.9980 0.9723
0.4956 -6.3423 -2.9988 0.9723
1.6124 -6.1546 -2.9991 0.9723
2.1539 -5.9870 -2.9992 0.9723
2.6784 -5.7718 -2.9994 0.9723
3.6596 -5.2059 -2.9996 0.9723
5.5470 -3.1207 -3.0001 0.9722
5.8029 -2.6146 -3.0002 0.9722
6.0127 -2.0878 -3.0003 0.9722
6.1748 -1.5444 -3.0003 0.9722
6.3509 -0.4251 -3.0004 0.9722
6.2375 1.2679 -3.0003 0.9722
5.9137 2.3536 -3.0002 0.9722
5.4025 3.3647 -3.0001 0.9722
6.6876 6.0485 -4.2505 0.9609
3.2500 5.0911 -2.8471 0.9736
1.7893 5.7681 -2.8467 0.9736
1.2687 5.9041 -2.8466 0.9736
0.2018 6.0349 -2.8463 0.9737
-0.3361 6.0286 -2.8461 0.9737
-0.8713 5.9745 -2.8460 0.9737
-1.3996 5.8729 -2.8459 0.9737
-1.9166 5.7247 -2.8457 0.9737
-3.3605 5.0143 -2.8453 0.9737
-3.8236 4.7325 -2.8679 0.9735
-4.8098 4.1592 -2.9973 0.9723
-5.4707 3.2403 -2.9971 0.9723
-5.7372 2.7405 -2.9971 0.9723
-5.9582 2.2189 -2.9970 0.9723
-6.1320 1.6797 -2.9970 0.9723
-6.2571 1.1273 -2.9969 0.9723
-6.3325 0.5659 -2.9969 0.9723
-6.0932 0.0000 -2.9970 0.9732
-5.9967 -1.0804 -2.9970 0.9732
-5.7103 -2.1265 -2.9971 0.9732
-5.4985 -2.6264 -2.9971 0.9732
-5.2430 -3.1054 -2.9972 0.9732
-4.9459 -3.5598 -2.9973 0.9732
-4.6096 -3.9860 -2.9974 0.9732
-4.2367 -4.3806 -2.9975 0.9732
-3.8301 -4.7405 -2.9976 0.9732
-1.9352 -5.7801 -2.9981 0.9732
-0.8798 -6.0322 -2.9984 0.9732
-0.3394 -6.0869 -2.9985 0.9732
0.2037 -6.0932 -2.9987 0.9732
0.7453 -6.0512 -2.9988 0.9732
1.2810 -5.9612 -2.9990 0.9732
1.8066 -5.8238 -2.9991 0.9732
2.3178 -5.6401 -2.9993 0.9732
3.2814 -5.1403 -2.9995 0.9732
4.8697 -3.6724 -3.0000 0.9732
5.4440 -2.7509 -3.0001 0.9732
5.6674 -2.2555 -3.0002 0.9732
5.8457 -1.7422 -3.0002 0.9732
5.9777 -1.2150 -3.0003 0.9732
6.0984 -0.1359 -3.0003 0.9732
6.0259 0.9475 -3.0003 0.9732
5.9176 1.4801 -3.0002 0.9732
5.3160 2.9908 -3.0001 0.9732
4.7012 3.8857 -2.9999 0.9732
6.1443 6.0762 -4.2503 0.9622
4.9693 7.0688 -4.2500 0.9622
1.9594 5.4461 -2.8468 0.9745
1.4668 5.5986 -2.8466 0.9745
0.4508 5.7694 -2.8464 0.9745
-0.0645 5.7864 -2.8462 0.9745
-0.5792 5.7574 -2.8461 0.9745
-1.0893 5.6827 -2.8459 0.9745
-3.0034 4.9443 -2.8454 0.9745
-4.0374 4.5652 -2.9975 0.9732
-4.4275 4.1876 -2.9974 0.9732
-5.3761 2.8688 -2.9972 0.9732
-5.9427 1.3464 -2.9970 0.9732
-6.0389 0.8122 -2.9970 0.9732
-6.0872 0.2715 -2.9970 0.9732
-6.0872 -0.2714 -2.9970 0.9732
-5.9427 -1.3464 -2.9970 0.9732
-5.7993 -1.8700 -2.9970 0.9732
-5.0995 -3.3359 -2.9972 0.9732
-4.0374 -4.5651 -2.9975 0.9732
-3.6152 -4.9065 -2.9976 0.9732
-2.1907 -5.6880 -2.9980 0.9732
-1.6758 -5.8607 -2.9982 0.9732
-0.6102 -6.0656 -2.9985 0.9732
0.4750 -6.0783 -2.9988 0.9732
1.0141 -6.0122 -2.9989 0.9732
2.0642 -5.7376 -2.9992 0.9732
2.5669 -5.5314 -2.9993 0.9732
3.0491 -5.2812 -2.9995 0.9732
3.5072 -4.9891 -2.9996 0.9732
3.9375 -4.6573 -2.9997 0.9732
4.7012 -3.8856 -2.9999 0.9732
5.3160 -2.9907 -3.0001 0.9732
5.5612 -2.5057 -3.0001 0.9732
5.7623 -2.0008 -3.0002 0.9732
5.9176 -1.4801 -3.0002 0.9732
6.0259 -0.9475 -3.0003 0.9732
6.0863 -0.4074 -3.0003 0.9732
6.0984 0.1359 -3.0003 0.9732
6.0621 0.6782 -3.0003 0.9732
5.6674 2.2556 -3.0002 0.9732
5.4440 2.7510 -3.0001 0.9732
4.8697 3.6725 -3.0000 0.9732
5.8674 6.3438 -4.2502 0.9622
4.6493 7.2830 -4.2499 0.9622
0.7074 5.7437 -2.8464 0.9745
-0.3222 5.7776 -2.8461 0.9745
-0.8351 5.7257 -2.8460 0.9745
-1.3413 5.6284 -2.8459 0.9745
-1.8368 5.4864 -2.8457 0.9745
-2.7803 5.0733 -2.8455 0.9745
-4.2367 4.3807 -2.9975 0.9732
-4.6096 3.9861 -2.9974 0.9732
-5.2430 3.1055 -2.9972 0.9732
-5.7103 2.1266 -2.9971 0.9732
-5.8768 1.6099 -2.9970 0.9732
-5.9967 1.0804 -2.9970 0.9732
-6.0690 0.5424 -2.9970 0.9732
-5.8459 0.0000 -2.9970 0.9741
-5.7534 -1.0365 -2.9971 0.9741
-5.6383 -1.5445 -2.9971 0.9741
-5.4786 -2.0402 -2.9971 0.9741
-5.0302 -2.9794 -2.9973 0.9741
-4.7452 -3.4154 -2.9973 0.9741
-4.4225 -3.8243 -2.9974 0.9741
-2.8102 -5.1280 -2.9979 0.9741
-2.3427 -5.3579 -2.9980 0.9741
0.1955 -5.8458 -2.9987 0.9741
0.7150 -5.8055 -2.9988 0.9740
1.7332 -5.5873 -2.9991 0.9740
3.9730 -4.2955 -2.9997 0.9740
4.3397 -3.9250 -2.9998 0.9740
4.6719 -3.5233 -2.9999 0.9740
4.9671 -3.0935 -3.0000 0.9740
5.2229 -2.6392 -3.0000 0.9740
5.7348 -1.1656 -3.0002 0.9740
5.8159 -0.6506 -3.0002 0.9740
5.8507 -0.1304 -3.0002 0.9740
5.6772 1.4200 -3.0002 0.9740
5.1001 2.8693 -3.0000 0.9740
4.5103 3.7279 -2.9999 0.9740
5.3524 6.3308 -4.2501 0.9634
2.3375 5.0371 -2.8469 0.9753
1.8798 5.2249 -2.8467 0.9753
1.4072 5.3713 -2.8466 0.9754
0.9235 5.4749 -2.8465 0.9754
-0.5557 5.5236 -2.8461 0.9754
-1.0451 5.4520 -2.8459 0.9754
-1.5261 5.3371 -2.8458 0.9754
-1.9950 5.1798 -2.8457 0.9754
-5.1579 2.7523 -2.9972 0.9741
-5.3823 2.2823 -2.9972 0.9741
-5.5640 1.7942 -2.9971 0.9741
-5.7015 1.2918 -2.9971 0.9741
-5.7938 0.7792 -2.9970 0.9741
-5.8401 -0.2604 -2.9970 0.9741
-5.7938 -0.7792 -2.9970 0.9741
-5.7015 -1.2918 -2.9971 0.9741
-4.8926 -3.2005 -2.9973 0.9741
-4.5884 -3.6234 -2.9974 0.9741
-3.8735 -4.3798 -2.9976 0.9741
-3.4684 -4.7074 -2.9977 0.9741
-3.0358 -4.9976 -2.9978 0.9741
-1.6078 -5.6228 -2.9982 0.9741
-0.5854 -5.8193 -2.9985 0.9741
-0.0652 -5.8486 -2.9986 0.9741
1.4826 -5.6588 -2.9990 0.9740
1.9804 -5.5047 -2.9992 0.9740
3.3648 -4.7864 -2.9995 0.9740
3.7776 -4.4681 -2.9997 0.9740
4.5103 -3.7278 -2.9999 0.9740
5.1000 -2.8692 -3.0000 0.9740
5.3353 -2.4040 -3.0001 0.9740
5.6772 -1.4199 -3.0002 0.9740
5.7811 -0.9090 -3.0002 0.9740
5.8391 -0.3909 -3.0002 0.9740
5.8507 0.1304 -3.0002 0.9740
5.8159 0.6506 -3.0002 0.9740
5.7348 1.1657 -3.0002 0.9740
5.6083 1.6715 -3.0002 0.9740
5.2229 2.6393 -3.0001 0.9740
4.9671 3.0936 -3.0000 0.9740
4.6719 3.5233 -2.9999 0.9740
5.0649 6.5627 -4.2500 0.9634
4.4606 6.9873 -4.2499 0.9634
2.1107 5.1361 -2.8468 0.9753
1.1665 5.4285 -2.8466 0.9754
0.6787 5.5105 -2.8464 0.9754
-1.7623 5.2637 -2.8458 0.9754
-2.6674 4.8674 -2.8455 0.9754
-3.6746 4.5482 -2.9976 0.9741
-4.0647 4.2029 -2.9975 0.9741
-4.4225 3.8243 -2.9974 0.9741
-5.2753 2.5199 -2.9972 0.9741
-5.6383 1.5445 -2.9971 0.9741
-5.5919 -0.4997 -2.9971 0.9749
-5.5253 -0.9954 -2.9971 0.9749
-5.2614 -1.9593 -2.9972 0.9749
-5.0662 -2.4199 -2.9972 0.9749
-4.5571 -3.2799 -2.9974 0.9749
-4.2472 -3.6727 -2.9975 0.9749
-3.9035 -4.0362 -2.9976 0.9749
-1.3020 -5.4633 -2.9983 0.9749
-0.8106 -5.5578 -2.9984 0.9749
-0.3127 -5.6082 -2.9985 0.9749
0.1877 -5.6140 -2.9987 0.9749
0.6867 -5.5753 -2.9988 0.9749
1.6644 -5.3656 -2.9991 0.9748
3.8153 -4.1251 -2.9997 0.9748
4.4865 -3.3835 -2.9998 0.9748
4.7700 -2.9708 -2.9999 0.9748
5.2214 -2.0780 -3.0001 0.9748
5.3857 -1.6051 -3.0001 0.9748
5.5073 -1.1194 -3.0001 0.9748
5.6074 0.3754 -3.0002 0.9748
5.5517 0.8730 -3.0001 0.9748
5.4519 1.3636 -3.0001 0.9748
5.1236 2.3086 -3.0000 0.9748
4.8977 2.7554 -3.0000 0.9748
4.6329 3.1803 -2.9999 0.9748
4.3313 3.5800 -2.9998 0.9748
4.5783 6.5127 -4.2499 0.9645
3.9804 6.8941 -4.2497 0.9645
3.3508 7.2207 -4.2495 0.9645
1.8052 5.0177 -2.8467 0.9761
1.3514 5.1582 -2.8466 0.9761
0.4154 5.3156 -2.8463 0.9761
-0.5336 5.3046 -2.8461 0.9761
-1.0036 5.2358 -2.8460 0.9761
-1.4656 5.1254 -2.8458 0.9761
-1.9159 4.9744 -2.8457 0.9761
-2.8649 4.7163 -2.9459 0.9753
-3.7199 4.2062 -2.9976 0.9749
-4.6986 3.0737 -2.9973 0.9749
-4.9534 2.6433 -2.9973 0.9749
-5.3434 1.7230 -2.9972 0.9749
-5.5641 0.7484 -2.9971 0.9749
-5.6086 0.2501 -2.9971 0.9749
-5.6086 -0.2501 -2.9971 0.9749
-5.4755 -1.2406 -2.9971 0.9749
-5.1689 -2.1918 -2.9972 0.9749
-4.9534 -2.6432 -2.9973 0.9749
-4.4065 -3.4797 -2.9974 0.9749
-2.9154 -4.7994 -2.9978 0.9749
-2.4768 -5.0401 -2.9979 0.9749
-2.0184 -5.2407 -2.9981 0.9749
-1.5440 -5.3998 -2.9982 0.9749
-1.0573 -5.5161 -2.9983 0.9749
-0.5622 -5.5885 -2.9985 0.9749
-0.0626 -5.6166 -2.9986 0.9749
2.8092 -4.8657 -2.9994 0.9748
3.6277 -4.2909 -2.9996 0.9748
4.3313 -3.5799 -2.9998 0.9748
4.8977 -2.7554 -3.0000 0.9748
5.1236 -2.3086 -3.0000 0.9748
5.3088 -1.8434 -3.0001 0.9748
5.6074 -0.3754 -3.0002 0.9748
5.6185 0.1252 -3.0002 0.9748
5.5851 0.6248 -3.0002 0.9748
5.3857 1.6051 -3.0001 0.9748
5.0156 2.5345 -3.0000 0.9748
4.4866 3.3835 -2.9999 0.9748
4.1675 3.7693 -2.9998 0.9748
2.0270 4.9324 -2.8468 0.9761
1.1202 5.2132 -2.8465 0.9761
-0.7694 5.2754 -2.8460 0.9761
-1.2358 5.1858 -2.8459 0.9761
-2.1395 4.8931 -2.8509 0.9761
-3.1263 4.6648 -2.9978 0.9749
-3.9036 4.0363 -2.9976 0.9749
-4.2472 3.6727 -2.9975 0.9749
-4.5571 3.2800 -2.9974 0.9749
-5.2614 1.9594 -2.9972 0.9749
-5.5253 0.9954 -2.9971 0.9749
-5.5919 0.4997 -2.9971 0.9749
-5.3964 0.0000 -2.9972 0.9756
-5.3750 -0.4803 -2.9972 0.9756
-5.3110 -0.9568 -2.9972 0.9756
-5.0573 -1.8833 -2.9972 0.9756
-3.7521 -3.8796 -2.9976 0.9756
-3.3920 -4.1983 -2.9977 0.9756
-3.0050 -4.4837 -2.9978 0.9756
-1.2515 -5.2514 -2.9983 0.9756
-0.7791 -5.3421 -2.9984 0.9756
-0.3006 -5.3905 -2.9985 0.9756
0.6600 -5.3589 -2.9988 0.9756
1.1344 -5.2791 -2.9989 0.9756
1.5998 -5.1574 -2.9991 0.9756
2.0526 -4.9947 -2.9992 0.9756
3.2997 -4.2754 -2.9995 0.9756
4.0057 -3.6229 -2.9997 0.9756
4.8209 -2.4361 -2.9999 0.9756
5.0187 -1.9974 -3.0000 0.9756
5.4004 -0.1203 -3.0001 0.9756
5.2402 1.3107 -3.0001 0.9756
5.1027 1.7719 -3.0000 0.9756
4.9247 2.2190 -3.0000 0.9756
4.1632 3.4410 -2.9998 0.9756
3.8403 3.7978 -2.9997 0.9756
3.4869 4.1243 -2.9996 0.9756
4.4006 6.2599 -4.2498 0.9656
3.8258 6.6265 -4.2497 0.9656
3.2207 6.9404 -4.2495 0.9656
2.5901 7.1992 -4.2493 0.9656
0.3993 5.1093 -2.8463 0.9768
-0.5129 5.0987 -2.8461 0.9768
-0.9647 5.0326 -2.8460 0.9768
-2.3194 4.7200 -2.9208 0.9762
