ply
format ascii 1.0
element vertex 1585
property float32 x
property float32 y
property float32 z
property float32 I
end_header
0.3922 -5.0197 -0.2094 0.9800
0.8350 -4.9503 -0.2087 0.9801
1.3065 -4.9868 -0.2143 0.9796
-0.8961 -6.1441 -0.3616 0.9754
-0.2998 -5.3760 -0.3136 0.9787
0.6134 -4.9803 -0.2923 0.9801
1.5753 -5.0782 -0.3097 0.9789
2.2633 -5.5074 -0.3468 0.9764
-0.5662 -5.6283 -0.3295 0.9776
-0.0581 -5.2142 -0.3037 0.9793
1.3090 -4.9965 -0.3008 0.9795
-0.9188 -6.2996 -0.4771 0.9748
-0.3007 -5.3925 -0.4047 0.9786
0.6144 -4.9885 -0.3767 0.9800
1.0694 -4.9767 -0.3815 0.9798
10.3019 7.0719 -0.9364 0.9511
0.8378 -4.9666 -0.3775 0.9800
1.8868 -5.2445 -0.4177 0.9779
1.0749 -5.0024 -0.4691 0.9797
1.5892 -5.1232 -0.4918 0.9787
2.3260 -5.6601 -0.5610 0.9757
10.3011 7.0713 -1.1455 0.9511
-0.0586 -5.2557 -0.4819 0.9791
0.8417 -4.9902 -0.4640 0.9799
1.3196 -5.0367 -0.4773 0.9793
1.9016 -5.2857 -0.5150 0.9777
0.1725 -5.1591 -0.5599 0.9794
0.6205 -5.0382 -0.5506 0.9798
1.5994 -5.1558 -0.5855 0.9785
10.3004 7.0708 -1.3552 0.9510
-0.5804 -5.7689 -0.6289 0.9769
0.8462 -5.0164 -0.5518 0.9797
1.3277 -5.0678 -0.5682 0.9791
1.9168 -5.3277 -0.6141 0.9775
0.1735 -5.1897 -0.6507 0.9793
0.6238 -5.0648 -0.6395 0.9796
1.0869 -5.0579 -0.6483 0.9794
10.2996 7.0703 -1.5656 0.9509
-0.0593 -5.3194 -0.6666 0.9788
0.8507 -5.0430 -0.6409 0.9796
1.3360 -5.0995 -0.6606 0.9790
-0.3100 -5.5598 -0.7920 0.9778
0.1745 -5.2207 -0.7430 0.9791
0.6271 -5.0919 -0.7297 0.9795
1.0930 -5.0863 -0.7400 0.9792
1.6226 -5.2308 -0.7790 0.9781
10.2989 7.0698 -1.7768 0.9508
-0.5957 -5.9217 -0.8465 0.9762
-0.0596 -5.3520 -0.7613 0.9786
1.3444 -5.1317 -0.7545 0.9788
-0.3143 -5.6370 -0.8990 0.9774
0.1763 -5.2729 -0.8401 0.9789
0.6323 -5.1337 -0.8237 0.9793
1.6464 -5.3074 -0.8849 0.9777
10.2981 7.0693 -1.9890 0.9507
-0.0603 -5.4123 -0.8619 0.9783
0.4054 -5.1886 -0.8287 0.9791
1.3596 -5.1896 -0.8543 0.9785
0.1783 -5.3326 -0.9408 0.9786
10.2094 7.0084 -2.1835 0.9509
-0.6406 -6.3681 -1.1285 0.9743
0.4096 -5.2420 -0.9271 0.9789
0.8710 -5.1637 -0.9234 0.9790
1.3759 -5.2518 -0.9573 0.9782
0.1803 -5.3940 -1.0444 0.9783
0.6451 -5.2381 -1.0213 0.9787
1.1267 -5.2435 -1.0379 0.9784
1.6964 -5.4688 -1.1081 0.9769
10.1629 6.9764 -2.3855 0.9510
10.4429 10.3272 -2.8422 0.9419
9.4835 11.2171 -2.8425 0.9419
8.4486 12.0183 -2.8429 0.9419
7.3465 12.7245 -2.8433 0.9419
1.1456 14.6604 -2.8457 0.9418
-1.4724 14.6365 -2.8467 0.9418
-4.0456 14.1484 -2.8477 0.9418
-8.7344 11.8544 -2.8495 0.9418
-0.0618 -5.5505 -1.0742 0.9776
0.4139 -5.2969 -1.0282 0.9786
1.3927 -5.3159 -1.0634 0.9779
13.6400 5.4286 -2.8410 0.9419
13.1037 6.6216 -2.8412 0.9419
12.4633 7.7623 -2.8414 0.9419
11.7242 8.8416 -2.8417 0.9419
9.9731 10.7828 -2.8423 0.9419
8.9750 11.6292 -2.8427 0.9419
6.7729 13.0401 -2.8436 0.9419
5.5862 13.5933 -2.8440 0.9419
4.3549 14.0389 -2.8445 0.9419
3.0886 14.3732 -2.8450 0.9419
1.7974 14.5936 -2.8455 0.9419
-0.8189 14.6862 -2.8465 0.9418
-2.1232 14.5576 -2.8470 0.9418
-3.4110 14.3133 -2.8475 0.9418
-5.8968 13.4863 -2.8484 0.9418
-7.0748 12.9099 -2.8489 0.9418
-8.1970 12.2309 -2.8493 0.9418
-14.1926 -1.2682 -3.0040 0.9434
-13.3519 -4.9723 -3.0037 0.9434
-12.2570 -7.2598 -3.0033 0.9434
-8.9490 -11.0763 -3.0020 0.9435
-6.8415 -12.4842 -3.0012 0.9435
-2.0533 -14.0783 -2.9994 0.9435
-0.3368 -6.0396 -1.2752 0.9756
5.4028 -13.1469 -2.9965 0.9436
6.5505 -12.6120 -2.9961 0.9436
7.6460 -11.9772 -2.9957 0.9436
8.6805 -11.2477 -2.9953 0.9436
10.5347 -9.5281 -2.9946 0.9436
13.1931 -5.2507 -2.9936 0.9436
13.6073 -4.0554 -2.9934 0.9436
13.9137 -2.8281 -2.9933 0.9436
14.1099 -1.5784 -2.9932 0.9436
14.1942 -0.3163 -2.9932 0.9436
14.1661 0.9484 -2.9932 0.9436
13.7741 3.4452 -2.9933 0.9436
12.2884 5.5369 -2.8415 0.9464
11.7477 6.6091 -2.8417 0.9464
10.1295 6.9535 -2.5902 0.9510
8.7061 10.2976 -2.8428 0.9464
6.7441 11.6811 -2.8436 0.9464
5.6785 12.2368 -2.8440 0.9463
2.2448 13.3084 -2.8453 0.9463
-1.3516 13.4351 -2.8467 0.9463
-2.5424 13.2635 -2.8471 0.9463
-3.7134 12.9866 -2.8476 0.9463
-4.8553 12.6066 -2.8480 0.9463
-7.0156 11.5493 -2.8488 0.9463
-9.8213 9.2890 -2.8499 0.9462
-11.3149 7.4019 -2.8505 0.9462
-11.9298 6.3660 -2.8507 0.9462
-13.8963 3.1485 -3.0039 0.9434
-14.1219 1.8992 -3.0040 0.9434
-14.2351 -0.6347 -3.0040 0.9434
-13.8964 -3.1485 -3.0039 0.9434
-13.5605 -4.3727 -3.0038 0.9434
-13.1167 -5.5619 -3.0036 0.9434
-12.5687 -6.7069 -3.0034 0.9434
-11.9209 -7.7983 -3.0031 0.9434
-11.1785 -8.8276 -3.0029 0.9434
-10.3473 -9.7864 -3.0026 0.9434
-9.4341 -10.6673 -3.0022 0.9434
-6.2782 -12.7756 -3.0010 0.9435
-3.9123 -13.6823 -3.0001 0.9435
5.9826 -12.8922 -2.9963 0.9436
8.1714 -11.6239 -2.9955 0.9436
10.1004 -9.9885 -2.9947 0.9436
11.7090 -8.0378 -2.9941 0.9436
12.9465 -5.8334 -2.9936 0.9436
14.0257 -2.2054 -2.9932 0.9436
14.1942 0.3163 -2.9932 0.9436
14.1098 1.5785 -2.9932 0.9436
13.9137 2.8281 -2.9933 0.9436
13.6073 4.0554 -2.9934 0.9436
12.5225 4.9838 -2.8414 0.9464
10.7634 8.1171 -2.8421 0.9464
9.1556 9.8989 -2.8427 0.9464
8.2392 10.6759 -2.8430 0.9464
5.1281 12.4785 -2.8442 0.9463
3.9977 12.8874 -2.8446 0.9463
2.8352 13.1941 -2.8451 0.9463
-3.1310 13.1381 -2.8473 0.9463
-4.2886 12.8094 -2.8478 0.9463
-5.4125 12.3787 -2.8482 0.9463
-7.5236 11.2261 -2.8490 0.9463
-8.4941 10.5133 -2.8494 0.9462
-10.2259 8.8427 -2.8501 0.9462
-11.6339 6.8908 -2.8506 0.9462
-12.2020 5.8285 -2.8508 0.9462
-12.7961 4.7653 -2.8787 0.9457
-13.7420 3.7643 -3.0038 0.9434
-14.0230 2.5264 -3.0039 0.9434
-12.9508 -2.3332 -3.0035 0.9474
-11.8727 -5.6711 -3.0031 0.9474
-11.3200 -6.7048 -3.0029 0.9475
-10.6774 -7.6851 -3.0027 0.9475
-9.1439 -9.4547 -3.0021 0.9475
-5.2668 -12.0454 -3.0006 0.9475
-4.1732 -12.4647 -3.0002 0.9475
-3.0468 -12.7848 -2.9998 0.9475
1.8045 -5.8172 -1.3902 0.9753
4.9906 -12.1439 -2.9967 0.9476
6.0508 -11.6500 -2.9963 0.9476
8.0185 -10.3899 -2.9955 0.9476
9.7315 -8.8017 -2.9949 0.9476
11.7082 -5.9164 -2.9941 0.9476
12.1875 -4.8505 -2.9939 0.9476
12.5703 -3.7463 -2.9938 0.9476
12.8533 -2.6125 -2.9937 0.9476
13.0345 -1.4581 -2.9936 0.9476
13.1124 -0.2922 -2.9936 0.9476
12.9567 2.0374 -2.9936 0.9476
12.7243 3.1826 -2.9937 0.9476
10.0661 6.9100 -2.7867 0.9511
9.5994 7.9341 -2.8425 0.9502
8.8560 8.7579 -2.8428 0.9502
8.0422 9.5124 -2.8431 0.9502
5.2453 11.3033 -2.8442 0.9502
4.2190 11.7269 -2.8445 0.9502
2.0735 12.2927 -2.8454 0.9501
-1.2484 12.4093 -2.8466 0.9501
-2.3483 12.2507 -2.8471 0.9501
-4.4844 11.6436 -2.8479 0.9501
-7.4042 10.0491 -2.8490 0.9501
-10.4500 6.8361 -2.8502 0.9501
-13.0420 1.7540 -3.0036 0.9474
-13.1466 -0.5862 -3.0036 0.9474
-12.8338 -2.9078 -3.0035 0.9474
-9.5565 -9.0384 -3.0022 0.9475
-7.8008 -10.5873 -3.0016 0.9475
-6.8267 -11.2382 -3.0012 0.9475
-5.7985 -11.7996 -3.0008 0.9475
-4.7246 -12.2672 -3.0004 0.9475
-3.6135 -12.6373 -3.0000 0.9475
-2.4741 -12.9069 -2.9996 0.9475
-1.3153 -13.0739 -2.9991 0.9475
-0.0647 -5.8047 -1.3250 0.9765
0.4265 -5.4578 -1.2495 0.9778
1.4471 -5.5235 -1.3032 0.9768
9.3303 -9.2269 -2.9950 0.9476
10.8163 -7.4250 -2.9945 0.9476
12.9568 -2.0373 -2.9936 0.9476
13.0865 -0.8760 -2.9936 0.9476
13.1124 0.2922 -2.9936 0.9476
13.0345 1.4581 -2.9936 0.9476
12.5702 3.7463 -2.9938 0.9476
11.1130 5.6157 -2.8419 0.9502
9.9428 7.4982 -2.8424 0.9502
9.2368 8.3542 -2.8426 0.9502
8.4575 9.1441 -2.8429 0.9502
6.7038 10.5013 -2.8436 0.9502
5.7432 11.0577 -2.8440 0.9502
3.6927 11.9041 -2.8447 0.9501
-0.6943 12.4517 -2.8464 0.9501
-1.8001 12.3423 -2.8468 0.9501
-5.9976 10.9442 -2.8484 0.9501
-6.9488 10.3683 -2.8488 0.9501
-8.6790 8.9741 -2.8495 0.9501
-13.1073 1.1713 -3.0036 0.9474
-12.2183 0.0000 -3.0032 0.9509
-12.1697 -1.0875 -3.0032 0.9509
-12.0244 -2.1663 -3.0032 0.9509
-11.7835 -3.2278 -3.0031 0.9509
-11.4490 -4.2636 -3.0030 0.9509
-9.2386 -7.9889 -3.0021 0.9509
-8.4901 -8.7786 -3.0018 0.9509
-5.8672 -10.7062 -3.0008 0.9510
-4.8904 -11.1846 -3.0005 0.9510
-3.8750 -11.5739 -3.0001 0.9510
-0.6792 -12.1815 -2.9989 0.9510
4.6343 -11.2771 -2.9968 0.9510
6.5588 -10.2741 -2.9961 0.9510
7.4464 -9.6485 -2.9958 0.9510
9.7280 -7.3362 -2.9949 0.9511
10.3416 -6.4408 -2.9946 0.9511
10.8731 -5.4944 -2.9944 0.9511
11.6737 -3.4791 -2.9941 0.9511
12.1050 -1.3541 -2.9940 0.9511
12.0327 1.8921 -2.9940 0.9511
11.8169 2.9556 -2.9941 0.9511
11.5074 3.9958 -2.9942 0.9511
10.0781 5.6699 -2.8423 0.9535
8.9145 7.3681 -2.8428 0.9535
8.2241 8.1330 -2.8430 0.9535
7.4684 8.8336 -2.8433 0.9535
6.6532 9.4643 -2.8436 0.9535
4.8709 10.4965 -2.8443 0.9535
2.9334 11.1967 -2.8450 0.9534
1.9255 11.4149 -2.8454 0.9534
-0.1290 11.5787 -2.8462 0.9534
-1.1592 11.5228 -2.8466 0.9534
-2.1805 11.3754 -2.8470 0.9534
-3.1847 11.1378 -2.8474 0.9534
-4.1640 10.8115 -2.8477 0.9534
-6.0164 9.9044 -2.8485 0.9534
-6.8749 9.3307 -2.8488 0.9534
-12.1091 1.6285 -3.0032 0.9509
-12.2061 0.5443 -3.0032 0.9509
-12.2061 -0.5443 -3.0032 0.9509
-11.9158 -2.6998 -3.0031 0.9509
-10.7776 -5.7511 -3.0027 0.9509
-9.5857 -7.5698 -3.0023 0.9509
-8.0902 -9.1477 -3.0017 0.9509
-7.2431 -9.8304 -3.0014 0.9509
-5.3841 -10.9563 -3.0007 0.9510
-4.3870 -11.3905 -3.0003 0.9510
-3.3553 -11.7343 -2.9999 0.9510
-0.0670 -6.0131 -1.4781 0.9755
0.4344 -5.5586 -1.3705 0.9773
0.9227 -5.4700 -1.3635 0.9774
1.4887 -5.6825 -1.4439 0.9761
5.1318 -11.0587 -2.9966 0.9510
7.0096 -9.9712 -2.9959 0.9510
7.8683 -9.3068 -2.9956 0.9510
8.6646 -8.5686 -2.9953 0.9510
10.0448 -6.8953 -2.9948 0.9511
11.1067 -5.0044 -2.9943 0.9511
11.5074 -3.9958 -2.9942 0.9511
12.1532 -0.8136 -2.9939 0.9511
12.1050 1.3541 -2.9940 0.9511
11.6737 3.4791 -2.9941 0.9511
10.3204 5.2151 -2.8422 0.9535
8.5779 7.7582 -2.8429 0.9535
7.8541 8.4917 -2.8432 0.9535
7.0678 9.1580 -2.8435 0.9535
6.2254 9.7518 -2.8438 0.9535
4.3987 10.7037 -2.8445 0.9535
3.4291 11.0542 -2.8448 0.9534
-0.6447 11.5622 -2.8464 0.9534
-1.6715 11.4605 -2.8468 0.9534
-7.2841 9.0157 -2.8489 0.9534
-8.0585 8.3324 -2.8492 0.9534
-8.7689 7.5828 -2.8495 0.9534
-9.9761 5.9088 -2.8500 0.9534
-10.4631 4.9978 -2.8502 0.9534
-11.7834 3.2278 -3.0031 0.9509
-12.1697 1.0875 -3.0032 0.9509
-11.3963 0.0000 -3.0029 0.9540
-11.3510 -1.0143 -3.0029 0.9540
-10.6788 -3.9768 -3.0027 0.9540
-10.2820 -4.9113 -3.0025 0.9540
-9.8035 -5.8066 -3.0023 0.9540
-8.6173 -7.4517 -3.0019 0.9540
-5.4728 -9.9865 -3.0007 0.9540
-4.5617 -10.4328 -3.0003 0.9540
-2.6390 -11.0736 -2.9996 0.9540
-1.6427 -11.2631 -2.9992 0.9540
0.6933 -5.6291 -1.4945 0.9768
1.2270 -5.7101 -1.5390 0.9761
3.3701 -10.8643 -2.9973 0.9540
4.3232 -10.5199 -2.9970 0.9540
6.1185 -9.5845 -2.9963 0.9541
10.5590 -4.2024 -2.9946 0.9541
11.2930 -1.2633 -2.9943 0.9541
11.3605 -0.2531 -2.9942 0.9541
11.0242 2.7574 -2.9944 0.9541
10.7354 3.7278 -2.9945 0.9541
9.4020 5.2895 -2.8426 0.9564
8.3164 6.8737 -2.8430 0.9564
6.9671 8.2408 -2.8435 0.9563
5.3968 9.3475 -2.8441 0.9563
4.5439 9.7919 -2.8444 0.9563
3.6548 10.1586 -2.8448 0.9563
1.7961 10.6483 -2.8455 0.9563
0.8414 10.7673 -2.8458 0.9563
-0.1203 10.8009 -2.8462 0.9563
-2.0340 10.6111 -2.8469 0.9563
-2.9707 10.3893 -2.8473 0.9563
-6.4127 8.7034 -2.8486 0.9563
-7.1626 8.0989 -2.8489 0.9563
-7.8557 7.4299 -2.8492 0.9563
-9.0501 5.9203 -2.8496 0.9563
-9.5417 5.0916 -2.8498 0.9562
-11.2945 1.5190 -3.0029 0.9540
-11.3850 0.5077 -3.0029 0.9540
-11.1142 -2.5181 -3.0028 0.9540
-10.8456 -3.4972 -3.0027 0.9540
-10.4908 -4.4485 -3.0026 0.9540
-10.0527 -5.3643 -3.0024 0.9540
-9.5347 -6.2373 -3.0022 0.9540
-8.9411 -7.0607 -3.0020 0.9540
-7.5462 -8.5326 -3.0015 0.9540
-5.9125 -9.7334 -3.0009 0.9540
-5.0222 -10.2198 -3.0005 0.9540
-3.1299 -10.9457 -2.9998 0.9540
-0.1268 -11.3793 -2.9987 0.9540
0.4466 -5.7149 -1.5105 0.9766
0.9484 -5.6224 -1.5024 0.9767
1.5704 -5.9942 -1.6328 0.9747
4.7873 -10.3163 -2.9968 0.9540
6.5391 -9.3020 -2.9961 0.9541
7.3403 -8.6821 -2.9958 0.9541
8.0831 -7.9936 -2.9955 0.9541
8.7618 -7.2418 -2.9952 0.9541
9.3708 -6.4327 -2.9950 0.9541
9.9055 -5.5727 -2.9948 0.9541
10.7355 -3.7278 -2.9945 0.9541
11.3380 -0.7589 -2.9943 0.9541
11.2930 1.2633 -2.9943 0.9541
10.8906 3.2458 -2.9944 0.9541
8.6140 6.4961 -2.8429 0.9564
8.0023 7.2376 -2.8431 0.9563
6.5935 8.5434 -2.8436 0.9563
4.1034 9.9851 -2.8446 0.9563
3.1988 10.3120 -2.8449 0.9563
0.3609 10.7948 -2.8460 0.9563
-6.0183 8.9799 -2.8485 0.9563
-8.1793 7.0729 -2.8493 0.9563
-8.7770 6.3173 -2.8495 0.9563
-9.9487 4.7521 -2.9052 0.9554
-11.2155 2.0206 -3.0029 0.9540
-11.3510 1.0143 -3.0029 0.9540
-9.6286 -4.5992 -3.0023 0.9566
-5.9379 -8.8599 -3.0009 0.9566
-5.1252 -9.3523 -3.0006 0.9567
-2.4714 -10.3706 -2.9995 0.9567
-1.5384 -10.5481 -2.9992 0.9567
0.3561 -10.6512 -2.9985 0.9567
0.7161 -5.8142 -1.6482 0.9760
1.2993 -6.0463 -1.7400 0.9746
7.2299 -7.8169 -2.9958 0.9567
7.8963 -7.1418 -2.9956 0.9567
10.5773 -1.1832 -2.9945 0.9567
10.3255 2.5826 -2.9946 0.9567
10.0550 3.4915 -2.9947 0.9567
8.3306 5.7187 -2.8430 0.9589
6.5254 7.7183 -2.8437 0.9589
5.8131 8.2692 -2.8439 0.9589
3.4229 9.5142 -2.8449 0.9589
1.6822 9.9727 -2.8455 0.9588
-0.1127 10.1154 -2.8462 0.9588
-1.0127 10.0665 -2.8465 0.9588
-3.6375 9.4446 -2.8475 0.9588
-5.2556 8.6518 -2.8482 0.9588
-6.0054 8.1505 -2.8485 0.9588
-7.3567 6.9579 -2.8490 0.9588
-8.4750 5.5442 -2.8494 0.9588
-9.8242 4.1658 -3.0023 0.9566
-10.5767 1.4224 -3.0026 0.9566
-10.5767 -1.4224 -3.0026 0.9566
-10.4079 -2.3581 -3.0026 0.9566
-9.8242 -4.1658 -3.0023 0.9566
-8.3730 -6.6121 -3.0018 0.9566
-7.7507 -7.3305 -3.0016 0.9566
-7.0668 -7.9906 -3.0013 0.9566
-6.3270 -8.5871 -3.0010 0.9566
-4.7033 -9.5708 -3.0004 0.9567
-2.9311 -10.2508 -2.9997 0.9567
-2.0069 -10.4698 -2.9994 0.9567
-1.0669 -10.6055 -2.9990 0.9567
-0.1187 -10.6571 -2.9986 0.9567
2.7001 -10.3062 -2.9976 0.9567
5.3252 -9.2235 -2.9966 0.9567
10.0550 -3.4915 -2.9947 0.9567
10.6405 0.2371 -2.9945 0.9567
10.4301 2.1200 -2.9946 0.9567
9.8897 3.9360 -2.9948 0.9567
8.5768 5.3417 -2.8429 0.9589
7.4949 6.7787 -2.8433 0.9589
6.8624 7.4196 -2.8435 0.9589
6.1754 8.0016 -2.8438 0.9589
4.6597 8.9716 -2.8444 0.9589
3.8431 9.3518 -2.8447 0.9589
2.9959 9.6578 -2.8450 0.9589
2.1246 9.8873 -2.8453 0.9588
1.2363 10.0384 -2.8457 0.9588
0.3380 10.1097 -2.8460 0.9588
-0.5632 10.1010 -2.8464 0.9588
-2.3458 9.8434 -2.8471 0.9588
-4.8647 8.8769 -2.8480 0.9588
-5.6360 8.4096 -2.8483 0.9588
-6.3628 7.8753 -2.8486 0.9588
-8.2194 5.9160 -2.8493 0.9588
-8.7139 5.1613 -2.8495 0.9588
-10.0002 3.7241 -3.0024 0.9566
-10.2924 2.8194 -3.0025 0.9566
-10.5027 1.8922 -3.0026 0.9566
-10.6297 0.9499 -3.0026 0.9566
-9.6720 -2.6494 -3.0023 0.9590
-9.3975 -3.4996 -3.0022 0.9590
-8.6272 -5.1099 -3.0019 0.9590
-8.1377 -5.8571 -3.0017 0.9590
-7.5835 -6.5577 -3.0015 0.9590
-6.9692 -7.2061 -3.0013 0.9590
-6.2996 -7.7972 -3.0010 0.9590
-5.5802 -8.3262 -3.0007 0.9590
-4.8165 -8.7889 -3.0004 0.9590
-3.1812 -9.5017 -2.9998 0.9590
-1.4458 -9.9130 -2.9992 0.9590
-0.5577 -10.0012 -2.9988 0.9590
3.8053 -9.2597 -2.9971 0.9591
4.6139 -8.8833 -2.9968 0.9591
5.3857 -8.4366 -2.9965 0.9591
6.7950 -7.3467 -2.9960 0.9591
7.9888 -6.0246 -2.9955 0.9591
8.4927 -5.2893 -2.9953 0.9591
8.9293 -4.5122 -2.9952 0.9591
9.5870 -2.8572 -2.9949 0.9591
9.4504 3.2815 -2.9950 0.9591
12.3545 6.9505 -4.2438 0.9425
7.3207 6.0507 -2.8434 0.9611
5.4633 7.7717 -2.8441 0.9611
4.7504 8.2279 -2.8443 0.9611
3.9996 8.6190 -2.8446 0.9611
3.2169 8.9416 -2.8449 0.9611
2.4086 9.1935 -2.8452 0.9611
1.5809 9.3724 -2.8456 0.9611
0.7405 9.4770 -2.8459 0.9611
-0.1059 9.5064 -2.8462 0.9611
-0.9517 9.4603 -2.8465 0.9611
-1.7902 9.3391 -2.8468 0.9611
-2.6146 9.1437 -2.8472 0.9611
-4.9389 8.1306 -2.8480 0.9611
-5.6435 7.6595 -2.8483 0.9611
-6.3034 7.1274 -2.8486 0.9611
-7.9643 5.2100 -2.8492 0.9610
-9.5442 3.0776 -3.0022 0.9590
-9.7805 2.2160 -3.0023 0.9590
-9.9391 1.3367 -3.0024 0.9590
-10.0188 -0.4467 -3.0024 0.9590
-9.9392 -1.3367 -3.0024 0.9590
-9.7806 -2.2160 -3.0023 0.9590
-9.5442 -3.0776 -3.0022 0.9590
-9.2321 -3.9147 -3.0021 0.9590
-7.2836 -6.8888 -3.0014 0.9590
-6.6410 -7.5091 -3.0011 0.9590
-5.2035 -8.5661 -3.0006 0.9590
-3.6015 -9.3511 -3.0000 0.9590
-1.0027 -9.9670 -2.9990 0.9590
-0.1116 -10.0155 -2.9986 0.9590
3.3892 -9.4205 -2.9973 0.9591
4.2138 -9.0806 -2.9970 0.9591
5.0048 -8.6686 -2.9967 0.9591
5.7559 -8.1879 -2.9964 0.9591
6.4613 -7.6425 -2.9961 0.9591
7.1153 -7.0364 -2.9959 0.9591
8.2489 -5.6626 -2.9954 0.9591
8.7197 -4.9056 -2.9953 0.9591
9.7046 -2.4273 -2.9949 0.9591
9.9809 -0.6681 -2.9948 0.9591
10.0007 0.2229 -2.9948 0.9591
9.5870 2.8572 -2.9949 0.9591
9.2950 3.6993 -2.9950 0.9591
7.0441 6.3710 -2.8435 0.9611
6.4496 6.9732 -2.8437 0.9611
5.1120 8.0078 -2.8442 0.9611
4.3794 8.4318 -2.8445 0.9611
1.1619 9.4341 -2.8457 0.9611
0.3177 9.5012 -2.8460 0.9611
-0.5293 9.4928 -2.8464 0.9611
-1.3723 9.4091 -2.8467 0.9611
-4.5716 8.3421 -2.8479 0.9611
-5.2965 7.9029 -2.8482 0.9611
-6.6150 6.8399 -2.8487 0.9610
-7.7240 5.5594 -2.8491 0.9610
-9.6720 2.6495 -3.0023 0.9590
-9.4532 0.0000 -3.0022 0.9611
-9.4156 -0.8414 -3.0022 0.9611
-9.3033 -1.6761 -3.0021 0.9611
-8.5291 -4.0740 -3.0018 0.9611
-8.1322 -4.8167 -3.0017 0.9611
-7.1484 -6.1815 -3.0013 0.9611
-5.9383 -7.3499 -3.0009 0.9611
-4.5402 -8.2848 -3.0003 0.9611
-3.7844 -8.6553 -3.0000 0.9611
-2.9988 -8.9568 -2.9997 0.9611
-1.3629 -9.3446 -2.9991 0.9611
-0.5257 -9.4279 -2.9988 0.9611
1.1540 -9.3697 -2.9982 0.9612
1.9832 -9.2288 -2.9978 0.9612
2.7964 -9.0147 -2.9975 0.9612
3.5873 -8.7292 -2.9972 0.9612
5.0772 -7.9533 -2.9967 0.9612
5.7645 -7.4692 -2.9964 0.9612
6.9963 -6.3278 -2.9959 0.9612
7.5313 -5.6796 -2.9957 0.9612
8.0064 -4.9864 -2.9955 0.9612
8.4180 -4.2538 -2.9954 0.9612
9.3721 -1.0484 -2.9950 0.9612
9.4095 0.6299 -2.9950 0.9612
9.1490 2.2883 -2.9951 0.9612
8.9093 3.0937 -2.9952 0.9612
11.6470 6.5525 -4.2441 0.9455
6.9014 5.7042 -2.8435 0.9631
6.3668 6.2963 -2.8437 0.9631
5.7816 6.8385 -2.8440 0.9631
5.1504 7.3266 -2.8442 0.9631
4.4783 7.7566 -2.8445 0.9631
3.7705 8.1252 -2.8447 0.9631
3.0326 8.4293 -2.8450 0.9631
2.2706 8.6667 -2.8453 0.9631
1.4903 8.8353 -2.8456 0.9631
0.6981 8.9338 -2.8459 0.9631
-0.8972 8.9180 -2.8465 0.9631
-2.4646 8.6194 -2.8471 0.9631
-4.6557 7.6643 -2.8479 0.9631
-7.5161 4.9168 -2.8524 0.9630
-8.3389 4.4497 -3.0018 0.9611
-8.9965 2.9010 -3.0020 0.9611
-9.2192 2.0888 -3.0021 0.9611
-9.4438 0.4211 -3.0022 0.9611
-9.4438 -0.4211 -3.0022 0.9611
-8.9965 -2.9010 -3.0020 0.9611
-8.7023 -3.6901 -3.0019 0.9611
-7.4170 -5.8571 -3.0014 0.9611
-6.2601 -7.0783 -3.0010 0.9611
-5.6047 -7.6068 -3.0007 0.9611
-3.3950 -8.8148 -2.9999 0.9611
-2.5967 -9.0810 -2.9996 0.9611
-0.1052 -9.4414 -2.9986 0.9611
0.7355 -9.4123 -2.9983 0.9612
1.5701 -9.3085 -2.9980 0.9612
3.9724 -8.5603 -2.9971 0.9612
4.7181 -8.1720 -2.9968 0.9612
5.4262 -7.7189 -2.9965 0.9612
6.0912 -7.2047 -2.9963 0.9612
6.7078 -6.6334 -2.9960 0.9612
8.2204 -4.6247 -2.9954 0.9612
8.5989 -3.8745 -2.9953 0.9612
8.9093 -3.0936 -2.9952 0.9612
9.4282 0.2101 -2.9950 0.9612
9.3721 1.0485 -2.9950 0.9612
9.2417 1.8785 -2.9950 0.9612
9.0381 2.6937 -2.9951 0.9612
11.3439 7.0650 -4.2442 0.9455
7.1484 5.3909 -2.8434 0.9631
6.0802 6.5739 -2.8438 0.9631
3.4049 8.2855 -2.8449 0.9631
1.0953 8.8934 -2.8457 0.9631
-0.4990 8.9486 -2.8464 0.9631
-2.0781 8.7202 -2.8470 0.9631
-5.6364 6.9763 -2.8483 0.9631
-6.2355 6.4475 -2.8485 0.9631
-6.7851 5.8673 -2.8488 0.9631
-7.2809 5.2404 -2.8489 0.9631
-7.9987 4.7376 -2.9524 0.9617
-8.8581 3.2988 -3.0020 0.9611
-9.1169 2.4974 -3.0021 0.9611
-9.4156 0.8414 -3.0022 0.9611
-8.9350 0.0000 -3.0020 0.9630
-8.7933 -1.5842 -3.0019 0.9630
-8.3726 -3.1180 -3.0018 0.9630
-8.0616 -3.8507 -3.0017 0.9630
-7.6865 -4.5527 -3.0015 0.9630
-7.2503 -5.2185 -3.0014 0.9630
-6.2094 -6.4205 -3.0010 0.9630
-4.9719 -7.4185 -3.0005 0.9630
-4.2915 -7.8309 -3.0002 0.9630
-2.0695 -8.6840 -2.9994 0.9630
0.2982 -8.9195 -2.9985 0.9630
1.0908 -8.8567 -2.9982 0.9630
1.8746 -8.7236 -2.9979 0.9630
2.6433 -8.5213 -2.9976 0.9631
4.1115 -7.9161 -2.9970 0.9631
6.0554 -6.5470 -2.9963 0.9631
6.6136 -5.9816 -2.9961 0.9631
7.1193 -5.3689 -2.9959 0.9631
7.5684 -4.7136 -2.9957 0.9631
7.9575 -4.0211 -2.9955 0.9631
8.5438 -2.5463 -2.9953 0.9631
8.8595 -0.9911 -2.9952 0.9631
8.9125 -0.1986 -2.9952 0.9631
8.8066 1.3848 -2.9952 0.9631
8.4219 2.9244 -2.9954 0.9631
11.0099 6.1941 -4.2444 0.9481
10.4155 7.1498 -4.2446 0.9481
6.5239 5.3921 -2.8437 0.9649
4.8686 6.9256 -2.8443 0.9649
3.5641 7.6805 -2.8448 0.9649
2.8666 7.9679 -2.8451 0.9649
2.1463 8.1923 -2.8453 0.9649
0.6599 8.4447 -2.8459 0.9649
-0.8480 8.4296 -2.8465 0.9649
-3.0458 7.9084 -2.8473 0.9649
-3.7380 7.6066 -2.8476 0.9649
-4.4006 7.2444 -2.8478 0.9649
-5.0283 6.8245 -2.8481 0.9649
-5.6162 6.3504 -2.8483 0.9649
-6.1596 5.8257 -2.8485 0.9649
-6.6541 5.2547 -2.8487 0.9649
-7.8818 4.2059 -3.0016 0.9630
-8.8552 1.1909 -3.0020 0.9630
-8.9261 0.3980 -3.0020 0.9630
-8.5033 -2.7420 -3.0018 0.9630
-8.2253 -3.4878 -3.0017 0.9630
-7.8818 -4.2058 -3.0016 0.9630
-7.0105 -5.5361 -3.0013 0.9630
-6.4895 -6.1377 -3.0011 0.9630
-5.9170 -6.6904 -3.0009 0.9630
-5.2976 -7.1900 -3.0006 0.9630
-4.6363 -7.6323 -3.0004 0.9630
-3.2090 -8.3319 -2.9998 0.9630
-1.6805 -8.7671 -2.9992 0.9630
-0.0994 -8.9244 -2.9986 0.9630
2.2612 -8.6310 -2.9977 0.9631
5.7579 -6.8105 -2.9964 0.9631
7.3511 -5.0463 -2.9958 0.9631
7.7707 -4.3717 -2.9956 0.9631
8.1286 -3.6626 -2.9955 0.9631
8.6486 -2.1632 -2.9953 0.9631
8.9125 0.1986 -2.9952 0.9631
8.2835 3.2968 -2.9954 0.9631
7.9575 4.0211 -2.9955 0.9631
6.2774 5.6776 -2.8438 0.9649
5.7476 6.2142 -2.8440 0.9649
5.1720 6.7016 -2.8442 0.9649
4.5554 7.1359 -2.8444 0.9649
3.2186 7.8320 -2.8449 0.9649
2.5090 8.0881 -2.8452 0.9649
-0.4716 8.4586 -2.8463 0.9649
-4.0733 7.4329 -2.8477 0.9649
-5.3275 6.5940 -2.8482 0.9649
-5.8938 6.0941 -2.8484 0.9649
-6.8818 4.9532 -2.8488 0.9649
-8.0615 3.8507 -3.0016 0.9630
-8.6171 2.3605 -3.0019 0.9630
-8.7932 1.5842 -3.0019 0.9630
-8.8995 0.7953 -3.0020 0.9630
-8.4657 0.0000 -3.0018 0.9647
-8.1646 -2.2365 -3.0017 0.9647
-7.9329 -2.9542 -3.0016 0.9647
-7.2828 -4.3136 -3.0014 0.9647
-5.8834 -6.0834 -3.0008 0.9647
-5.3182 -6.5824 -3.0006 0.9647
-1.9609 -8.2283 -2.9993 0.9647
-0.4708 -8.4440 -2.9988 0.9647
0.2826 -8.4516 -2.9985 0.9647
1.0336 -8.3921 -2.9982 0.9648
2.5047 -8.0743 -2.9976 0.9648
3.8959 -7.5010 -2.9971 0.9648
4.5477 -7.1238 -2.9969 0.9648
5.7379 -6.2037 -2.9964 0.9648
6.7460 -5.0874 -2.9960 0.9648
7.5404 -3.8103 -2.9957 0.9648
7.8493 -3.1239 -2.9956 0.9648
8.0959 -2.4128 -2.9955 0.9648
8.3952 -0.9391 -2.9954 0.9648
8.4454 -0.1882 -2.9954 0.9648
8.3450 1.3122 -2.9954 0.9648
8.1953 2.0498 -2.9954 0.9648
7.9805 2.7712 -2.9955 0.9648
9.8695 6.7750 -4.2448 0.9505
5.7029 5.6397 -2.8440 0.9665
4.6133 6.5625 -2.8444 0.9665
4.0112 6.9476 -2.8446 0.9665
2.7163 7.5501 -2.8451 0.9665
2.0337 7.7626 -2.8454 0.9665
-0.0894 8.0263 -2.8462 0.9665
-0.8035 7.9872 -2.8465 0.9665
-4.1696 6.8641 -2.8478 0.9665
-4.7643 6.4662 -2.8480 0.9665
-5.8362 5.5198 -2.8484 0.9665
-7.0832 4.6337 -3.0013 0.9647
-7.4679 3.9850 -3.0014 0.9647
-8.0567 2.5980 -3.0017 0.9647
-8.4573 -0.3771 -3.0018 0.9647
-8.3901 -1.1283 -3.0018 0.9647
-8.2562 -1.8706 -3.0017 0.9647
-8.0567 -2.5980 -3.0017 0.9647
-7.7933 -3.3046 -3.0016 0.9647
-7.0832 -4.6337 -3.0013 0.9647
-6.6423 -5.2454 -3.0011 0.9647
-5.6063 -6.3392 -3.0007 0.9647
-5.0195 -6.8125 -3.0005 0.9647
-3.0405 -7.8946 -2.9998 0.9647
-2.3256 -8.1331 -2.9995 0.9647
-0.8466 -8.4150 -2.9989 0.9647
-0.0942 -8.4562 -2.9986 0.9647
0.6587 -8.4302 -2.9983 0.9647
3.5581 -7.6674 -2.9972 0.9648
4.8603 -6.9139 -2.9967 0.9648
5.4560 -6.4534 -2.9965 0.9648
6.0083 -5.9418 -2.9963 0.9648
6.5129 -5.3830 -2.9961 0.9648
6.9658 -4.7817 -2.9959 0.9648
7.7025 -3.4706 -2.9956 0.9648
7.9805 -2.7712 -2.9955 0.9648
8.4286 -0.5642 -2.9954 0.9648
8.4454 0.1882 -2.9954 0.9648
8.3951 0.9391 -2.9954 0.9648
7.8493 3.1240 -2.9956 0.9648
10.1612 6.3284 -4.2447 0.9505
5.9483 5.3799 -2.8439 0.9665
5.4462 5.8884 -2.8441 0.9665
4.3165 6.7618 -2.8445 0.9665
3.6979 7.1197 -2.8448 0.9665
2.3774 7.6639 -2.8453 0.9665
-1.1586 7.9439 -2.8466 0.9665
-1.8612 7.8100 -2.8469 0.9665
-2.5492 7.6141 -2.8471 0.9665
-3.2171 7.3576 -2.8474 0.9665
-5.0478 6.2478 -2.8481 0.9665
-5.5843 5.7741 -2.8483 0.9665
-6.0765 5.2546 -2.8485 0.9665
-7.2828 4.3136 -3.0014 0.9647
-7.6381 3.6485 -3.0015 0.9647
-7.9329 2.9543 -3.0016 0.9647
-8.3314 1.5010 -3.0018 0.9647
-8.4320 0.7535 -3.0018 0.9647
-8.0385 0.0000 -3.0016 0.9663
-7.9110 -1.4252 -3.0016 0.9663
-7.5326 -2.8051 -3.0015 0.9663
-7.2528 -3.4643 -3.0014 0.9663
-6.9153 -4.0959 -3.0012 0.9663
-6.0789 -5.2566 -3.0009 0.9663
-5.5865 -5.7764 -3.0007 0.9663
-5.0499 -6.2503 -3.0005 0.9663
-4.4732 -6.6745 -3.0003 0.9663
-1.8620 -7.8134 -2.9993 0.9663
-1.1591 -7.9474 -2.9990 0.9663
-0.4471 -8.0183 -2.9988 0.9663
0.9815 -7.9691 -2.9982 0.9663
1.6867 -7.8493 -2.9980 0.9663
2.3785 -7.6674 -2.9977 0.9663
4.9032 -6.3532 -2.9967 0.9663
5.9511 -5.3825 -2.9963 0.9663
6.8104 -4.2416 -2.9960 0.9663
7.4540 -2.9666 -2.9957 0.9663
7.8614 -1.5979 -2.9956 0.9663
7.9724 -0.8918 -2.9955 0.9663
8.0200 -0.1787 -2.9955 0.9663
7.7825 1.9465 -2.9956 0.9663
6.9924 3.9339 -2.9959 0.9663
5.4156 5.3556 -2.8441 0.9680
4.3809 6.2319 -2.8445 0.9680
3.2070 6.9110 -2.8449 0.9680
2.5794 7.1696 -2.8452 0.9680
1.2676 7.5146 -2.8457 0.9680
-0.0849 7.6217 -2.8462 0.9680
-1.4352 7.4873 -2.8467 0.9680
-2.0961 7.3304 -2.8470 0.9680
-3.3631 6.8438 -2.8474 0.9680
-3.9593 6.5178 -2.8477 0.9680
-4.5240 6.1400 -2.8479 0.9680
-5.0529 5.7134 -2.8481 0.9680
-5.5417 5.2413 -2.8483 0.9680
-7.8395 1.7762 -3.0016 0.9663
-7.9667 1.0714 -3.0016 0.9663
-8.0305 -0.3581 -3.0016 0.9663
-7.6502 -2.4668 -3.0015 0.9663
-7.0911 -3.7839 -3.0013 0.9663
-6.7258 -4.3998 -3.0012 0.9663
-6.3072 -4.9807 -3.0010 0.9663
-4.7663 -6.4689 -3.0004 0.9663
-3.5433 -7.2103 -2.9999 0.9663
-2.8872 -7.4964 -2.9997 0.9663
-2.2083 -7.7230 -2.9994 0.9663
-0.0895 -8.0299 -2.9986 0.9663
0.6255 -8.0052 -2.9984 0.9663
2.0346 -7.7661 -2.9978 0.9663
2.7175 -7.5535 -2.9976 0.9663
3.3788 -7.2810 -2.9973 0.9663
4.6155 -6.5656 -2.9968 0.9663
5.7056 -5.6424 -2.9964 0.9663
6.1848 -5.1119 -2.9962 0.9663
6.6149 -4.5409 -2.9961 0.9663
7.5786 -2.6316 -2.9957 0.9663
7.9248 -1.2461 -2.9956 0.9663
8.0041 -0.5358 -2.9955 0.9663
8.0200 0.1787 -2.9955 0.9663
7.8614 1.5979 -2.9956 0.9663
7.4539 2.9666 -2.9957 0.9663
7.1606 3.6184 -2.9958 0.9663
6.8104 4.2416 -2.9960 0.9663
9.0767 6.8451 -4.2451 0.9526
5.6486 5.1089 -2.8440 0.9680
4.6539 6.0303 -2.8444 0.9680
4.0991 6.4211 -2.8446 0.9680
2.2576 7.2777 -2.8453 0.9680
1.6010 7.4504 -2.8456 0.9680
0.9316 7.5640 -2.8458 0.9680
-1.1002 7.5434 -2.8466 0.9680
-2.4206 7.2301 -2.8471 0.9680
-4.7932 5.9326 -2.8480 0.9680
-5.7699 4.9895 -2.8484 0.9680
-6.5230 4.6950 -3.0011 0.9663
-7.2527 3.4644 -3.0013 0.9663
-7.5325 2.8052 -3.0015 0.9663
-7.7525 2.1237 -3.0015 0.9663
-7.9110 1.4253 -3.0016 0.9663
-7.6173 -0.6807 -3.0015 0.9677
-7.1664 -2.6688 -3.0013 0.9677
-6.9002 -3.2960 -3.0012 0.9677
-4.8045 -5.9466 -3.0004 0.9677
-4.2559 -6.3502 -3.0002 0.9677
-1.7716 -7.4338 -2.9993 0.9677
-0.4254 -7.6288 -2.9988 0.9677
4.1090 -6.4365 -2.9970 0.9677
5.1844 -5.6053 -2.9966 0.9677
6.8132 -3.4428 -2.9960 0.9677
7.0923 -2.8227 -2.9959 0.9677
7.3152 -2.1802 -2.9958 0.9677
7.4800 -1.5204 -2.9957 0.9677
7.6309 -0.1700 -2.9957 0.9677
7.6158 0.5098 -2.9957 0.9677
7.5403 1.1857 -2.9957 0.9677
7.2109 2.5039 -2.9958 0.9677
6.6531 3.7430 -2.9960 0.9677
8.3377 6.8913 -4.2454 0.9546
5.1528 5.0958 -2.8442 0.9693
4.6791 5.5345 -2.8444 0.9693
3.6242 6.2773 -2.8448 0.9693
3.0513 6.5755 -2.8450 0.9693
1.2060 7.1498 -2.8457 0.9693
0.5649 7.2293 -2.8459 0.9693
-0.0808 7.2515 -2.8462 0.9693
-0.7260 7.2162 -2.8464 0.9693
-3.1997 6.5113 -2.8474 0.9693
-3.7669 6.2012 -2.8476 0.9693
-4.3042 5.8417 -2.8478 0.9693
-4.8074 5.4358 -2.8480 0.9693
-5.2724 4.9866 -2.8482 0.9693
-5.9826 4.7245 -2.9919 0.9678
-7.0403 2.9854 -3.0013 0.9677
-7.5794 1.0193 -3.0015 0.9677
-7.6401 -0.3407 -3.0015 0.9677
-7.5794 -1.0193 -3.0015 0.9677
-6.7464 -3.6000 -3.0012 0.9677
-6.3989 -4.1860 -3.0010 0.9677
-6.0007 -4.7387 -3.0009 0.9677
-5.5548 -5.2536 -3.0007 0.9677
-4.5347 -6.1545 -3.0003 0.9677
-3.3711 -6.8600 -2.9999 0.9677
-2.1011 -7.3478 -2.9994 0.9677
-1.4386 -7.5050 -2.9991 0.9677
-0.7648 -7.6027 -2.9989 0.9677
2.5856 -7.1868 -2.9976 0.9677
3.2147 -6.9276 -2.9974 0.9677
4.3914 -6.2469 -2.9969 0.9677
5.4287 -5.3686 -2.9965 0.9677
6.2939 -4.3205 -2.9962 0.9677
6.9596 -3.1358 -2.9959 0.9677
7.4050 -1.8521 -2.9958 0.9677
7.6309 0.1701 -2.9957 0.9677
7.4800 1.5204 -2.9957 0.9677
6.8131 3.4429 -2.9960 0.9677
8.6362 6.5129 -4.2453 0.9546
8.0227 7.2561 -4.2455 0.9546
4.4281 5.7376 -2.8445 0.9693
3.9001 6.1094 -2.8447 0.9693
0.8864 7.1966 -2.8458 0.9693
0.2423 7.2477 -2.8461 0.9693
-1.0467 7.1770 -2.8466 0.9693
-1.6815 7.0560 -2.8468 0.9693
-2.3031 6.8789 -2.8470 0.9693
-2.9064 6.6471 -2.8473 0.9693
-3.4868 6.3626 -2.8475 0.9693
-4.0395 6.0274 -2.8477 0.9693
-4.5603 5.6444 -2.8479 0.9693
-5.5004 4.7564 -2.8539 0.9692
-6.2059 4.4668 -3.0009 0.9677
-6.5792 3.8969 -3.0011 0.9677
-7.1664 2.6688 -3.0013 0.9677
-7.2887 0.0000 -3.0014 0.9690
-7.2598 -0.6487 -3.0014 0.9690
-7.1731 -1.2923 -3.0013 0.9690
-6.8301 -2.5436 -3.0012 0.9690
-6.5764 -3.1413 -3.0011 0.9690
-6.2704 -3.7140 -3.0010 0.9690
-5.9147 -4.2571 -3.0008 0.9690
-5.5121 -4.7665 -3.0007 0.9690
-4.5791 -5.6676 -3.0003 0.9690
-3.5012 -6.3888 -2.9999 0.9690
-2.9184 -6.6745 -2.9997 0.9690
-1.6885 -7.0852 -2.9992 0.9690
-1.0511 -7.2067 -2.9990 0.9690
-0.4054 -7.2711 -2.9987 0.9690
0.2433 -7.2777 -2.9985 0.9690
1.5296 -7.1181 -2.9980 0.9690
4.4466 -5.7615 -2.9969 0.9690
5.3970 -4.8813 -2.9965 0.9690
6.1763 -3.8466 -2.9962 0.9690
6.4939 -3.2815 -2.9961 0.9690
6.7600 -2.6904 -2.9960 0.9690
6.9724 -2.0780 -2.9959 0.9690
7.1296 -1.4491 -2.9959 0.9690
6.8730 2.3866 -2.9959 0.9690
3.4543 5.9831 -2.8448 0.9706
2.3391 6.5017 -2.8453 0.9706
1.1495 6.8145 -2.8457 0.9705
-6.0986 3.9896 -3.0009 0.9690
-7.2236 0.9715 -3.0013 0.9690
-7.2815 -0.3247 -3.0014 0.9690
-7.1084 -1.6105 -3.0013 0.9690
-6.7099 -2.8452 -3.0011 0.9690
-6.4298 -3.4310 -3.0010 0.9690
-5.7191 -4.5163 -3.0008 0.9690
-4.8272 -5.4581 -3.0004 0.9690
-4.3219 -5.8657 -3.0002 0.9690
-3.7824 -6.2267 -3.0000 0.9690
-2.0025 -7.0031 -2.9994 0.9690
-1.3711 -7.1530 -2.9991 0.9690
-0.0811 -7.2816 -2.9986 0.9690
0.5673 -7.2593 -2.9984 0.9690
1.8451 -7.0426 -2.9979 0.9690
2.4644 -6.8499 -2.9977 0.9690
3.6393 -6.3035 -2.9972 0.9690
4.1856 -5.9541 -2.9970 0.9690
4.6986 -5.5576 -2.9968 0.9690
5.1743 -5.1170 -2.9966 0.9690
5.9990 -4.1181 -2.9963 0.9690
6.8730 -2.3866 -2.9960 0.9690
7.1870 -1.1301 -2.9958 0.9690
7.2590 -0.4859 -2.9958 0.9690
6.4939 3.2815 -2.9961 0.9690
7.6467 6.9161 -4.2456 0.9564
4.6902 5.0710 -2.8444 0.9706
3.7173 5.8230 -2.8447 0.9706
3.1845 6.1312 -2.8450 0.9706
2.6263 6.3908 -2.8452 0.9706
1.4518 6.7563 -2.8456 0.9705
-1.6026 6.7250 -2.8468 0.9705
-2.1950 6.5562 -2.8470 0.9705
-2.7701 6.3353 -2.8472 0.9705
-3.3232 6.0641 -2.8474 0.9705
-7.1731 1.2923 -3.0013 0.9690
-7.2598 0.6488 -3.0014 0.9690
-6.9577 0.0000 -3.0012 0.9701
-6.7102 -1.8381 -3.0011 0.9701
-6.5198 -2.4280 -3.0011 0.9701
-6.2777 -2.9986 -3.0010 0.9701
-5.6461 -4.0638 -3.0007 0.9702
-4.8356 -5.0000 -3.0004 0.9702
-4.3711 -5.4102 -3.0003 0.9702
-3.3422 -6.0987 -2.9999 0.9702
-2.2076 -6.5937 -2.9994 0.9702
-1.0034 -6.8796 -2.9990 0.9702
1.4602 -6.7951 -2.9980 0.9702
2.6414 -6.4276 -2.9976 0.9702
3.2028 -6.1665 -2.9974 0.9702
3.7387 -5.8566 -2.9972 0.9702
4.7173 -5.1003 -2.9968 0.9702
5.1522 -4.6599 -2.9966 0.9702
5.5462 -4.1826 -2.9965 0.9702
5.8962 -3.6722 -2.9963 0.9702
6.1995 -3.1327 -2.9962 0.9702
6.3327 2.8534 -2.9962 0.9702
6.0538 3.4058 -2.9963 0.9702
4.2575 5.0358 -2.8445 0.9717
0.5140 6.5777 -2.8460 0.9717
-0.0735 6.5978 -2.8462 0.9717
-2.9112 5.9241 -2.8473 0.9717
-3.9160 5.3148 -2.8477 0.9717
-4.9971 4.7262 -2.9669 0.9705
-5.4593 4.3112 -3.0007 0.9702
-5.8216 3.8083 -3.0008 0.9701
-6.6216 2.1352 -3.0011 0.9701
-6.8955 0.9274 -3.0012 0.9701
-6.9507 0.3099 -3.0012 0.9701
-6.9507 -0.3099 -3.0012 0.9701
-6.8955 -0.9273 -3.0012 0.9701
-6.4051 -2.7160 -3.0010 0.9701
-6.1378 -3.2752 -3.0009 0.9701
-5.0537 -4.7797 -3.0005 0.9702
-4.6080 -5.2103 -3.0003 0.9702
-3.0671 -6.2413 -2.9998 0.9702
-2.4992 -6.4891 -2.9995 0.9702
-1.3089 -6.8284 -2.9991 0.9702
-0.0774 -6.9512 -2.9986 0.9702
2.9250 -6.3033 -2.9975 0.9702
3.4742 -6.0175 -2.9973 0.9702
4.4855 -5.3055 -2.9969 0.9702
5.3546 -4.4256 -2.9965 0.9702
6.0539 -3.4058 -2.9963 0.9702
6.3327 -2.8534 -2.9962 0.9702
6.5614 -2.2783 -2.9961 0.9702
6.7380 -1.6853 -2.9960 0.9702
6.8611 -1.0788 -2.9960 0.9702
6.9298 -0.4639 -2.9959 0.9702
6.9436 0.1547 -2.9959 0.9702
6.9023 0.7721 -2.9959 0.9702
6.8063 1.3835 -2.9960 0.9702
5.5462 4.1826 -2.9965 0.9702
7.2999 6.6024 -4.2458 0.9580
4.0291 5.2207 -2.8446 0.9717
3.0400 5.8531 -2.8450 0.9717
2.5072 6.1009 -2.8452 0.9717
1.9544 6.3003 -2.8454 0.9717
0.8065 6.5480 -2.8459 0.9717
-0.3674 6.5883 -2.8463 0.9717
-0.9524 6.5299 -2.8465 0.9717
-3.1723 5.7887 -2.8474 0.9717
-3.6752 5.4837 -2.8476 0.9717
-4.1490 5.1352 -2.8478 0.9717
-4.5981 4.7544 -2.8530 0.9716
-5.6461 4.0638 -3.0007 0.9702
-5.9856 3.5453 -3.0009 0.9701
-6.5198 2.4280 -3.0011 0.9701
-6.8473 1.2336 -3.0012 0.9701
-6.6247 -0.5920 -3.0011 0.9712
-6.4147 -1.7571 -3.0010 0.9712
-6.2327 -2.3211 -3.0010 0.9712
-5.3974 -3.8848 -3.0006 0.9712
-5.0300 -4.3496 -3.0005 0.9712
-4.6227 -4.7798 -3.0004 0.9712
-4.1786 -5.1719 -3.0002 0.9712
-3.1950 -5.8302 -2.9998 0.9712
-2.6633 -6.0910 -2.9996 0.9712
-2.1104 -6.3034 -2.9994 0.9713
0.2221 -6.6417 -2.9985 0.9713
0.8123 -6.5950 -2.9983 0.9713
1.3959 -6.4961 -2.9981 0.9713
1.9684 -6.3456 -2.9978 0.9713
2.5252 -6.1448 -2.9976 0.9713
3.0619 -5.8952 -2.9974 0.9713
5.6369 -3.5107 -2.9964 0.9713
6.1697 -2.4554 -2.9962 0.9713
6.3636 -1.8965 -2.9962 0.9713
6.6383 -0.1479 -2.9960 0.9713
6.5594 1.0314 -2.9961 0.9713
6.4416 1.6112 -2.9961 0.9713
6.0758 7.1864 -4.2462 0.9595
3.6258 5.1578 -2.8448 0.9727
3.1525 5.4604 -2.8450 0.9727
2.6542 5.7197 -2.8452 0.9727
1.0490 6.2190 -2.8458 0.9727
-0.6314 6.2766 -2.8464 0.9727
-1.7345 6.0661 -2.8468 0.9727
-2.2677 5.8881 -2.8470 0.9727
-2.7830 5.6633 -2.8472 0.9727
-3.2762 5.3934 -2.8474 0.9727
-3.7435 5.0808 -2.8476 0.9727
-4.1980 4.7468 -2.8593 0.9726
-6.3299 2.0412 -3.0010 0.9712
-6.6446 0.2963 -3.0011 0.9712
-6.6446 -0.2963 -3.0011 0.9712
-6.5918 -0.8865 -3.0011 0.9712
-6.1230 -2.5963 -3.0009 0.9712
-5.5652 -3.6406 -3.0007 0.9712
-4.8311 -4.5693 -3.0004 0.9712
-4.4050 -4.9808 -3.0003 0.9712
-3.9440 -5.3528 -3.0001 0.9712
-3.4517 -5.6823 -2.9999 0.9712
-1.8274 -6.3910 -2.9993 0.9713
-1.2513 -6.5278 -2.9991 0.9713
-0.0740 -6.6452 -2.9986 0.9713
0.5177 -6.6249 -2.9984 0.9713
2.7964 -6.0260 -2.9975 0.9713
5.7876 -3.2561 -2.9964 0.9713
6.2728 -2.1782 -2.9962 0.9713
6.4417 -1.6112 -2.9961 0.9713
6.6251 -0.4435 -2.9961 0.9713
6.6383 0.1479 -2.9960 0.9713
6.5988 0.7382 -2.9961 0.9713
6.3635 1.8965 -2.9961 0.9713
5.9268 2.9949 -2.9963 0.9713
5.3023 3.9987 -2.9965 0.9713
6.9788 6.3120 -4.2459 0.9595
2.9063 5.5956 -2.8451 0.9727
0.2108 6.3041 -2.8461 0.9727
-0.3512 6.2983 -2.8463 0.9727
-0.9104 6.2425 -2.8465 0.9727
-1.4626 6.1371 -2.8467 0.9727
-3.9663 4.9091 -2.8477 0.9727
-4.5698 4.7252 -2.9660 0.9716
-5.0300 4.3496 -3.0005 0.9712
-5.3974 3.8848 -3.0006 0.9712
-6.0011 2.8665 -3.0009 0.9712
-6.2326 2.3211 -3.0010 0.9712
-6.5457 1.1793 -3.0011 0.9712
-6.6247 0.5920 -3.0011 0.9712
-6.2655 -1.1288 -3.0010 0.9722
-6.1401 -1.6820 -3.0009 0.9722
-5.9659 -2.2217 -3.0009 0.9722
-5.7443 -2.7438 -3.0008 0.9722
-5.4771 -3.2441 -3.0007 0.9722
-4.8148 -4.1635 -3.0004 0.9722
-3.5431 -5.2867 -2.9999 0.9722
-2.5493 -5.8304 -2.9996 0.9723
-1.4750 -6.1892 -2.9992 0.9723
-0.9182 -6.2955 -2.9989 0.9723
0.2126 -6.3576 -2.9985 0.9723
1.3362 -6.2183 -2.9981 0.9723
2.9310 -5.6432 -2.9975 0.9723
3.4214 -5.3596 -2.9973 0.9723
3.8847 -5.0335 -2.9971 0.9723
5.0757 -3.8278 -2.9966 0.9723
5.6735 -2.8670 -2.9964 0.9723
6.0916 -1.8155 -2.9963 0.9723
6.2289 -1.2661 -2.9962 0.9723
6.3546 -0.1416 -2.9962 0.9723
6.3420 0.4246 -2.9962 0.9723
6.1664 1.5423 -2.9962 0.9723
6.0047 2.0851 -2.9963 0.9723
5.7955 2.6113 -2.9964 0.9723
4.9002 4.0501 -2.9967 0.9723
6.4049 6.3340 -4.2461 0.9609
3.0178 5.2270 -2.8450 0.9737
2.5407 5.4751 -2.8452 0.9737
2.0435 5.6799 -2.8454 0.9737
-0.6044 6.0082 -2.8464 0.9737
-2.1707 5.6362 -2.8470 0.9736
-3.1361 5.1627 -2.8474 0.9736
-3.5833 4.8633 -2.8475 0.9736
-4.6244 4.3737 -3.0003 0.9722
-5.3270 3.4848 -3.0006 0.9722
-5.6163 2.9970 -3.0007 0.9722
-5.8609 2.4853 -3.0008 0.9722
-6.0590 1.9538 -3.0009 0.9722
-6.3096 0.8486 -3.0010 0.9722
-6.3602 -0.2836 -3.0010 0.9722
-6.3096 -0.8486 -3.0010 0.9722
-6.0590 -1.9538 -3.0009 0.9722
-5.6163 -2.9969 -3.0007 0.9722
-5.3271 -3.4848 -3.0006 0.9722
-4.9956 -3.9449 -3.0005 0.9722
-4.6244 -4.3737 -3.0004 0.9722
-3.7752 -5.1238 -3.0000 0.9722
-2.8066 -5.7112 -2.9997 0.9723
-1.7493 -6.1176 -2.9993 0.9723
-1.1978 -6.2486 -2.9990 0.9723
-0.6368 -6.3299 -2.9988 0.9723
-0.0709 -6.3610 -2.9986 0.9723
0.4955 -6.3416 -2.9984 0.9723
2.1529 -5.9841 -2.9978 0.9723
2.6768 -5.7683 -2.9976 0.9723
3.1794 -5.5068 -2.9974 0.9723
3.6567 -5.2017 -2.9972 0.9723
4.5205 -4.4704 -2.9969 0.9723
4.9002 -4.0502 -2.9967 0.9723
6.0048 -2.0851 -2.9963 0.9723
6.1664 -1.5423 -2.9962 0.9723
6.2791 -0.9873 -2.9962 0.9723
6.3420 -0.4245 -2.9962 0.9723
6.3168 0.7067 -2.9962 0.9723
6.2289 1.2661 -2.9962 0.9723
6.0916 1.8155 -2.9962 0.9723
5.3960 3.3606 -2.9965 0.9723
5.0757 3.8278 -2.9966 0.9723
6.6806 6.0422 -4.2460 0.9609
6.1166 6.6132 -4.2462 0.9609
5.5040 7.1317 -4.2465 0.9609
1.7885 5.7655 -2.8455 0.9737
1.2683 5.9022 -2.8457 0.9737
0.2018 6.0345 -2.8461 0.9737
-0.3362 6.0289 -2.8463 0.9737
-0.8715 5.9755 -2.8465 0.9736
-3.3630 5.0180 -2.8475 0.9736
-3.8298 4.7403 -2.8726 0.9734
-5.1664 3.7186 -3.0005 0.9722
-6.3412 0.5667 -3.0010 0.9722
-6.1012 0.0000 -3.0009 0.9732
-6.0045 -1.0817 -3.0009 0.9732
-5.8843 -1.6119 -3.0008 0.9732
-5.7173 -2.1291 -3.0008 0.9732
-5.2489 -3.1090 -3.0006 0.9732
-4.9512 -3.5636 -3.0005 0.9732
-4.2405 -4.3846 -3.0002 0.9732
-3.8332 -4.7445 -3.0001 0.9732
-3.3956 -5.0665 -2.9999 0.9732
-2.9310 -5.3483 -2.9997 0.9732
-2.4431 -5.5876 -2.9995 0.9732
0.2037 -6.0929 -2.9985 0.9732
1.2806 -5.9595 -2.9981 0.9732
1.8058 -5.8214 -2.9979 0.9732
2.3166 -5.6372 -2.9977 0.9732
2.8090 -5.4083 -2.9975 0.9732
4.5189 -4.0871 -2.9969 0.9732
5.4375 -2.7477 -2.9965 0.9732
5.6603 -2.2527 -2.9964 0.9732
5.8382 -1.7400 -2.9964 0.9732
5.9698 -1.2134 -2.9963 0.9732
6.0540 -0.6772 -2.9963 0.9732
6.0902 -0.1357 -2.9963 0.9732
6.0782 0.4069 -2.9963 0.9732
5.9098 1.4782 -2.9963 0.9732
5.5544 2.5027 -2.9965 0.9732
4.6963 3.8816 -2.9968 0.9732
6.1384 6.0704 -4.2462 0.9622
5.5741 6.5930 -4.2464 0.9622
1.9584 5.4435 -2.8454 0.9745
0.9624 5.7053 -2.8458 0.9745
0.4508 5.7687 -2.8460 0.9745
-0.0645 5.7863 -2.8462 0.9745
-1.0895 5.6840 -2.8466 0.9745
-2.0803 5.4015 -2.8470 0.9745
-2.5530 5.1952 -2.8471 0.9745
-3.4891 4.7355 -2.8931 0.9741
-4.0409 4.5691 -3.0001 0.9732
-5.1051 3.3396 -3.0005 0.9732
-5.3823 2.8721 -3.0006 0.9732
-5.8066 1.8724 -3.0008 0.9732
-5.9503 1.3482 -3.0008 0.9732
-6.0467 0.8132 -3.0009 0.9732
-5.1051 -3.3396 -3.0005 0.9732
-4.7874 -3.7806 -3.0004 0.9732
-4.4317 -4.1915 -3.0003 0.9732
-3.1664 -5.2126 -2.9998 0.9732
-2.6897 -5.4734 -2.9996 0.9732
-2.1917 -5.6907 -2.9994 0.9732
-1.6764 -5.8628 -2.9992 0.9732
-0.0679 -6.0961 -2.9986 0.9732
0.4749 -6.0776 -2.9984 0.9732
1.0139 -6.0108 -2.9982 0.9732
1.5448 -5.8963 -2.9980 0.9732
2.0633 -5.7350 -2.9978 0.9732
3.9341 -4.6533 -2.9971 0.9732
4.3324 -4.2844 -2.9969 0.9732
5.0230 -3.4481 -2.9967 0.9732
5.9098 -1.4781 -2.9963 0.9732
6.0782 -0.4069 -2.9963 0.9732
6.0540 0.6773 -2.9963 0.9732
5.8382 1.7400 -2.9963 0.9732
5.1715 3.2208 -2.9966 0.9732
4.6459 7.2777 -4.2468 0.9622
1.2155 5.6565 -2.8457 0.9745
0.7073 5.7427 -2.8459 0.9745
0.1934 5.7833 -2.8461 0.9745
-0.3222 5.7779 -2.8463 0.9745
-0.8352 5.7267 -2.8465 0.9745
-1.3417 5.6300 -2.8467 0.9745
-1.8376 5.4886 -2.8469 0.9745
-2.3190 5.3036 -2.8471 0.9745
-2.7820 5.0765 -2.8472 0.9745
-3.8131 4.7195 -2.9843 0.9733
-4.9512 3.5637 -3.0005 0.9732
-5.5050 2.6295 -3.0007 0.9732
-5.7173 2.1292 -3.0008 0.9732
-5.8533 0.0000 -3.0008 0.9740
-5.8301 -0.5209 -3.0008 0.9740
-5.6452 -1.5464 -3.0007 0.9740
-5.2813 -2.5227 -3.0006 0.9740
-4.7501 -3.4188 -3.0004 0.9740
-4.0683 -4.2065 -3.0001 0.9740
-3.6775 -4.5517 -3.0000 0.9740
-3.2576 -4.8607 -2.9998 0.9740
-2.3439 -5.3606 -2.9995 0.9740
-1.3561 -5.6906 -2.9991 0.9740
-0.3256 -5.8401 -2.9987 0.9741
0.7149 -5.8046 -2.9983 0.9741
1.2286 -5.7175 -2.9981 0.9741
1.7325 -5.5851 -2.9979 0.9741
2.2226 -5.4084 -2.9977 0.9741
2.6950 -5.1888 -2.9976 0.9741
3.1460 -4.9281 -2.9974 0.9741
3.5719 -4.6282 -2.9972 0.9741
3.9695 -4.2917 -2.9971 0.9741
4.3355 -3.9212 -2.9969 0.9741
5.4306 -2.1613 -2.9965 0.9741
5.6013 -1.6693 -2.9964 0.9741
5.8315 0.3904 -2.9964 0.9741
5.6701 1.4182 -2.9964 0.9741
5.3290 2.4012 -2.9965 0.9741
5.0943 2.8660 -2.9966 0.9741
4.8191 3.3082 -2.9967 0.9741
4.5058 3.7241 -2.9969 0.9741
4.1566 4.1106 -2.9970 0.9741
4.7638 6.7767 -4.2467 0.9634
2.3362 5.0343 -2.8453 0.9754
1.4067 5.3694 -2.8456 0.9754
0.4325 5.5345 -2.8460 0.9754
-0.0619 5.5514 -2.8462 0.9754
-1.5266 5.3388 -2.8468 0.9753
-2.8864 4.7516 -2.8502 0.9753
-3.4710 4.7109 -2.9999 0.9740
-3.8767 4.3835 -3.0001 0.9740
-4.2517 4.0212 -3.0002 0.9740
-4.8977 3.2039 -3.0004 0.9740
-5.3885 2.2850 -3.0006 0.9740
-5.5706 1.7963 -3.0007 0.9740
-5.3885 -2.2849 -3.0006 0.9740
-5.1636 -2.7554 -3.0006 0.9740
-4.8977 -3.2039 -3.0005 0.9740
-4.2517 -4.0212 -3.0002 0.9740
-3.8767 -4.3835 -3.0001 0.9740
-3.4710 -4.7109 -2.9999 0.9740
-3.0378 -5.0009 -2.9997 0.9740
-1.1013 -5.7452 -2.9990 0.9740
-0.5855 -5.8200 -2.9988 0.9740
-0.0652 -5.8486 -2.9986 0.9741
1.4821 -5.6569 -2.9980 0.9741
1.9795 -5.5022 -2.9978 0.9741
2.9234 -5.0635 -2.9975 0.9741
3.7744 -4.4644 -2.9971 0.9741
4.5058 -3.7241 -2.9969 0.9741
5.0943 -2.8660 -2.9966 0.9741
5.6701 -1.4182 -2.9964 0.9741
5.7276 1.1642 -2.9964 0.9741
5.6013 1.6694 -2.9964 0.9741
5.4306 2.1613 -2.9965 0.9741
5.2168 2.6362 -2.9966 0.9741
4.3355 3.9212 -2.9969 0.9741
5.0609 6.5576 -4.2466 0.9635
2.5580 4.9251 -2.8452 0.9754
-0.3091 5.5433 -2.8463 0.9754
-0.8013 5.4941 -2.8465 0.9754
-1.2872 5.4014 -2.8467 0.9753
-2.6690 4.8703 -2.8472 0.9753
-3.1698 4.7297 -2.9190 0.9747
-3.6775 4.5517 -3.0000 0.9740
-4.0682 4.2065 -3.0001 0.9740
-4.4267 3.8279 -3.0003 0.9740
-4.7500 3.4189 -3.0004 0.9740
-5.2813 2.5227 -3.0006 0.9740
-5.4850 2.0426 -3.0007 0.9740
-5.8301 0.5210 -3.0008 0.9740
-5.6210 0.0000 -3.0007 0.9748
-5.5987 -0.5003 -3.0007 0.9748
-5.4211 -1.4850 -3.0007 0.9748
-5.2673 -1.9616 -3.0006 0.9748
-4.8358 -2.8642 -3.0004 0.9748
-4.5615 -3.2832 -3.0003 0.9748
-2.2509 -5.1480 -2.9994 0.9748
-1.3023 -5.4648 -2.9991 0.9748
-0.8107 -5.5587 -2.9989 0.9748
-0.3127 -5.6085 -2.9987 0.9749
0.1877 -5.6137 -2.9985 0.9749
1.1799 -5.4908 -2.9981 0.9749
2.1345 -5.1939 -2.9978 0.9749
2.5882 -4.9831 -2.9976 0.9749
3.0212 -4.7327 -2.9974 0.9749
3.8121 -4.1216 -2.9971 0.9749
4.4821 -3.3801 -2.9969 0.9749
4.7650 -2.9676 -2.9968 0.9749
5.3793 -1.6032 -2.9965 0.9749
5.5782 -0.6240 -2.9965 0.9749
5.6116 -0.1251 -2.9964 0.9749
5.6004 0.3749 -2.9964 0.9749
5.4453 1.3620 -2.9965 0.9749
5.3026 1.8413 -2.9966 0.9749
5.1178 2.3060 -2.9966 0.9749
4.8924 2.7524 -2.9967 0.9749
4.6281 3.1770 -2.9968 0.9749
4.3271 3.5765 -2.9969 0.9749
3.9918 3.9476 -2.9970 0.9749
4.5750 6.5080 -4.2468 0.9646
3.9778 6.8897 -4.2470 0.9646
1.8044 5.0155 -2.8455 0.9761
0.8867 5.2566 -2.8458 0.9761
0.4153 5.3150 -2.8460 0.9761
-0.5337 5.3051 -2.8464 0.9761
-1.0038 5.2369 -2.8466 0.9761
-3.7229 4.2096 -3.0000 0.9748
-4.4107 3.4831 -3.0003 0.9748
-4.7033 3.0768 -3.0004 0.9748
-5.4819 1.2420 -3.0007 0.9748
-5.6154 -0.2504 -3.0007 0.9748
-5.5708 -0.7492 -3.0007 0.9748
-5.3496 -1.7250 -3.0006 0.9748
-4.9587 -2.6460 -3.0005 0.9748
-4.7034 -3.0768 -3.0004 0.9748
-4.4107 -3.4830 -3.0003 0.9748
-3.7229 -4.2095 -3.0000 0.9748
-2.9173 -4.8024 -2.9997 0.9748
-0.0626 -5.6167 -2.9986 0.9749
0.4376 -5.5996 -2.9984 0.9749
0.9342 -5.5380 -2.9982 0.9749
2.3637 -5.0936 -2.9977 0.9749
4.3272 -3.5765 -2.9969 0.9749
4.6281 -3.1770 -2.9968 0.9749
4.8924 -2.7524 -2.9967 0.9749
5.3026 -1.8412 -2.9966 0.9749
5.4453 -1.3620 -2.9965 0.9749
5.5782 0.6240 -2.9964 0.9749
5.5005 1.1180 -2.9965 0.9749
5.2154 2.0757 -2.9966 0.9749
4.2807 6.7055 -4.2469 0.9646
3.6670 7.0603 -4.2472 0.9646
2.0260 4.9300 -2.8454 0.9761
1.1199 5.2117 -2.8457 0.9761
0.6516 5.2911 -2.8459 0.9761
0.1782 5.3284 -2.8461 0.9761
-0.2968 5.3234 -2.8463 0.9761
-0.7695 5.2762 -2.8465 0.9761
-1.2362 5.1871 -2.8466 0.9761
-2.5948 4.7349 -2.8823 0.9758
-3.1284 4.6678 -2.9998 0.9748
-3.9068 4.0396 -3.0001 0.9748
-5.4211 1.4850 -3.0006 0.9748
-5.5319 0.9966 -3.0007 0.9748
-5.5987 0.5003 -3.0007 0.9748
-5.3813 -0.4809 -3.0006 0.9756
-5.3171 -0.9579 -3.0006 0.9756
-5.2106 -1.4273 -3.0006 0.9756
-5.0628 -1.8854 -3.0005 0.9756
-4.8748 -2.3285 -3.0004 0.9756
-4.3844 -3.1557 -3.0003 0.9756
-3.3945 -4.2014 -2.9999 0.9756
-2.5955 -4.7362 -2.9996 0.9756
-1.7145 -5.1208 -2.9992 0.9756
-0.7793 -5.3430 -2.9989 0.9756
-0.3006 -5.3908 -2.9987 0.9756
1.1340 -5.2778 -2.9982 0.9756
3.2972 -4.2723 -2.9973 0.9756
4.0021 -3.6197 -2.9971 0.9756
4.3083 -3.2490 -2.9969 0.9756
5.1707 -1.5410 -2.9966 0.9756
5.2872 -1.0746 -2.9966 0.9756
5.3619 -0.5998 -2.9965 0.9756
5.3939 -0.1202 -2.9965 0.9756
5.2342 1.3091 -2.9966 0.9756
5.0969 1.7699 -2.9966 0.9756
4.9193 2.2165 -2.9967 0.9756
4.7026 2.6457 -2.9968 0.9756
4.1593 3.4378 -2.9970 0.9756
3.8370 3.7945 -2.9971 0.9756
3.4842 4.1211 -2.9972 0.9756
4.3975 6.2556 -4.2469 0.9656
3.2190 6.9369 -4.2473 0.9656
0.3992 5.1087 -2.8460 0.9768
-0.5130 5.0992 -2.8464 0.9768
-0.9649 5.0336 -2.8465 0.9768
-1.4091 4.9280 -2.8467 0.9768
-1.8424 4.7834 -2.8469 0.9768
-3.2039 4.3483 -2.9998 0.9756
-3.5783 4.0461 -2.9999 0.9756
-4.2394 3.3479 -3.0002 0.9756
-4.5207 2.9573 -3.0003 0.9756
-4.9737 2.1091 -3.0005 0.9756
-5.3545 0.7201 -3.0006 0.9756
-5.3973 0.2407 -3.0006 0.9756
-5.3973 -0.2407 -3.0006 0.9756
-5.3545 -0.7201 -3.0006 0.9756
-5.1418 -1.6580 -3.0005 0.9756
-4.9737 -2.1090 -3.0005 0.9756
-4.7662 -2.5433 -3.0004 0.9756
-4.5207 -2.9573 -3.0003 0.9756
-3.2039 -4.3483 -2.9998 0.9756
-1.0165 -5.3032 -2.9990 0.9756
-0.0601 -5.3987 -2.9986 0.9756
0.8979 -5.3232 -2.9982 0.9756
1.3681 -5.2218 -2.9981 0.9756
2.2720 -4.8960 -2.9977 0.9756
3.1037 -4.4151 -2.9974 0.9756
3.4842 -4.1211 -2.9973 0.9756
3.8370 -3.7945 -2.9971 0.9756
4.1593 -3.4378 -2.9970 0.9756
5.0970 -1.7699 -2.9966 0.9756
5.2342 -1.3091 -2.9966 0.9756
5.3832 -0.3604 -2.9965 0.9756
5.0131 1.9952 -2.9967 0.9756
4.8157 2.4335 -2.9967 0.9756
4.5802 2.8525 -2.9968 0.9756
4.0021 3.6197 -2.9970 0.9756
3.6642 3.9618 -2.9972 0.9756
4.1146 6.4454 -4.2470 0.9656
3.5248 6.7864 -4.2472 0.9656
1.5180 4.8935 -2.8456 0.9768
0.6264 5.0857 -2.8459 0.9768
-1.1882 4.9858 -2.8466 0.9768
-3.0070 4.4866 -2.9997 0.9756
-3.3945 4.2014 -2.9999 0.9756
-3.7551 3.8828 -3.0000 0.9756
-4.0860 3.5333 -3.0001 0.9756
-4.3844 3.1557 -3.0002 0.9756
-4.6480 2.7531 -3.0003 0.9756
-5.0628 1.8854 -3.0005 0.9756
-5.3170 0.9579 -3.0006 0.9756
-5.3812 0.4808 -3.0006 0.9756
-4.4712 -2.6483 -3.0003 0.9763
-3.6123 -3.7351 -3.0000 0.9763
-3.2654 -4.0416 -2.9998 0.9763
-2.0813 -4.7600 -2.9994 0.9763
-1.6492 -4.9260 -2.9992 0.9763
0.1735 -5.1907 -2.9985 0.9763
0.6348 -5.1543 -2.9983 0.9763
1.0910 -5.0771 -2.9982 0.9763
1.9737 -4.8027 -2.9978 0.9763
2.3932 -4.6077 -2.9977 0.9763
3.5250 -3.8112 -2.9972 0.9763
3.8500 -3.4821 -2.9971 0.9763
4.1445 -3.1255 -2.9970 0.9763
4.9742 -1.4825 -2.9967 0.9763
5.0863 -1.0338 -2.9966 0.9763
5.1890 -0.1156 -2.9966 0.9763
5.1273 0.8062 -2.9966 0.9763
4.9033 1.7026 -2.9967 0.9763
4.7324 2.1323 -2.9968 0.9763
4.2796 2.9378 -2.9969 0.9763
4.0012 3.3071 -2.9970 0.9763
3.6911 3.6502 -2.9972 0.9763
3.3518 3.9645 -2.9973 0.9763
3.6782 6.3708 -4.2472 0.9666
3.0967 6.6732 -4.2474 0.9666
1.6980 4.7198 -2.8960 0.9771
0.8199 4.8605 -2.8459 0.9775
0.3840 4.9145 -2.8460 0.9775
-0.0549 4.9295 -2.8462 0.9775
-0.4935 4.9053 -2.8464 0.9775
-1.3573 4.7466 -2.8503 0.9775
-1.8198 4.7250 -2.9233 0.9769
-2.2913 4.6626 -2.9994 0.9763
-3.0820 4.1829 -2.9997 0.9763
-3.4422 3.8922 -2.9999 0.9763
-3.7751 3.5705 -3.0000 0.9763
-4.3487 2.8448 -3.0002 0.9763
-5.0686 1.1484 -3.0005 0.9763
-5.1920 -0.2315 -3.0006 0.9763
-5.1507 -0.6927 -3.0005 0.9763
-5.0686 -1.1484 -3.0005 0.9763
-4.9462 -1.5949 -3.0005 0.9763
-4.5848 -2.4465 -3.0003 0.9763
-4.0781 -3.2205 -3.0001 0.9763
-3.7752 -3.5705 -3.0000 0.9763
-3.4422 -3.8922 -2.9999 0.9763
-2.2913 -4.6626 -2.9995 0.9763
-1.4281 -4.9945 -2.9991 0.9763
-0.9779 -5.1015 -2.9990 0.9763
-0.5199 -5.1680 -2.9988 0.9763
-0.0579 -5.1934 -2.9986 0.9763
1.7578 -4.8859 -2.9979 0.9763
2.1856 -4.7098 -2.9978 0.9763
2.5960 -4.4964 -2.9976 0.9763
3.3518 -3.9645 -2.9973 0.9763
3.6912 -3.6503 -2.9972 0.9763
