ply
format ascii 1.0
element vertex 1586
property float32 x
property float32 y
property float32 z
property float32 I
end_header
0.1685 -5.0402 0.2097 0.9800
0.6105 -4.9566 0.2076 0.9802
1.0690 -4.9747 0.2116 0.9798
2.4034 -5.8484 0.2629 0.9750
-0.0570 -5.1204 0.2129 0.9797
0.3890 -4.9783 0.2076 0.9802
1.3198 -5.0376 0.2165 0.9794
1.9206 -5.3383 0.2359 0.9775
-0.2920 -5.2368 0.1308 0.9792
0.1682 -5.0317 0.1256 0.9801
0.6095 -4.9485 0.1243 0.9802
1.5914 -5.1303 0.1340 0.9787
0.8338 -4.9429 0.1250 0.9801
-0.8347 -5.7228 0.0481 0.9771
0.1679 -5.0232 0.0418 0.9801
0.6085 -4.9404 0.0414 0.9803
1.0653 -4.9577 0.0421 0.9799
2.3701 -5.7674 0.0518 0.9754
-0.0568 -5.1014 0.0424 0.9798
0.3877 -4.9621 0.0414 0.9803
0.8324 -4.9346 0.0416 0.9802
1.3147 -5.0183 0.0431 0.9795
1.9083 -5.3042 0.0469 0.9777
-0.8347 -5.7234 -0.0481 0.9771
-0.2915 -5.2271 -0.0435 0.9793
0.1680 -5.0235 -0.0418 0.9801
0.6085 -4.9407 -0.0414 0.9803
1.5879 -5.1187 -0.0445 0.9788
-0.5449 -5.4160 -0.0452 0.9785
-0.0568 -5.1017 -0.0424 0.9798
0.8324 -4.9349 -0.0416 0.9802
-0.8374 -5.7415 -0.1447 0.9771
0.1682 -5.0320 -0.1256 0.9801
2.3838 -5.8007 -0.1564 0.9752
-0.5461 -5.4286 -0.1361 0.9784
-0.0569 -5.1112 -0.1275 0.9798
0.3884 -4.9705 -0.1243 0.9802
-0.2926 -5.2472 -0.2185 0.9792
0.1685 -5.0405 -0.2097 0.9800
1.0691 -4.9750 -0.2116 0.9798
1.5953 -5.1426 -0.2239 0.9787
-0.5474 -5.4412 -0.2274 0.9783
-0.0570 -5.1208 -0.2129 0.9797
0.3890 -4.9786 -0.2076 0.9802
0.8352 -4.9516 -0.2088 0.9801
1.3199 -5.0379 -0.2165 0.9794
-0.8427 -5.7782 -0.3401 0.9769
-0.2931 -5.2573 -0.3067 0.9791
0.1688 -5.0491 -0.2942 0.9800
0.6115 -4.9650 -0.2914 0.9802
1.0709 -4.9836 -0.2969 0.9798
2.4459 -5.9517 -0.3748 0.9745
-0.5487 -5.4539 -0.3193 0.9783
-0.0572 -5.1304 -0.2988 0.9797
0.3897 -4.9868 -0.2913 0.9802
1.3224 -5.0476 -0.3039 0.9793
1.9269 -5.3560 -0.3315 0.9775
-0.8484 -5.8173 -0.4406 0.9767
0.1691 -5.0577 -0.3792 0.9799
1.3252 -5.0581 -0.3918 0.9792
1.9387 -5.3887 -0.4292 0.9773
-0.2956 -5.3013 -0.4868 0.9789
-0.5547 -5.5143 -0.5081 0.9780
0.3921 -5.0182 -0.4615 0.9800
0.8422 -4.9929 -0.4642 0.9799
1.9589 -5.4449 -0.5305 0.9770
-0.8736 -5.9899 -0.6566 0.9759
-0.2974 -5.3340 -0.5795 0.9787
0.6186 -5.0225 -0.5489 0.9798
1.0843 -5.0458 -0.5598 0.9794
1.6285 -5.2497 -0.5962 0.9781
0.3942 -5.0445 -0.5488 0.9798
0.8468 -5.0201 -0.5522 0.9797
-0.8892 -6.0971 -0.7722 0.9755
-0.2994 -5.3696 -0.6739 0.9786
0.6218 -5.0490 -0.6375 0.9797
1.6409 -5.2899 -0.6941 0.9779
-0.5632 -5.5981 -0.7051 0.9776
-0.0583 -5.2323 -0.6557 0.9791
0.3963 -5.0712 -0.6374 0.9797
2.0008 -5.5614 -0.7407 0.9765
0.1727 -5.1669 -0.7353 0.9793
0.6252 -5.0760 -0.7274 0.9795
1.6569 -5.3414 -0.7955 0.9777
0.3984 -5.0982 -0.7274 0.9796
1.3584 -5.1851 -0.7624 0.9786
0.1743 -5.2124 -0.8305 0.9791
-0.5816 -5.7814 -0.9253 0.9767
-0.0593 -5.3201 -0.8472 0.9787
-0.3102 -5.5641 -0.9826 0.9776
0.1761 -5.2668 -0.9292 0.9788
1.1197 -5.2109 -0.9398 0.9786
1.7069 -5.5025 -1.0158 0.9769
10.2110 7.0095 -2.1839 0.9509
-0.0600 -5.3819 -0.9490 0.9784
1.3908 -5.3086 -0.9677 0.9780
-0.3147 -5.6444 -1.0940 0.9772
0.1780 -5.3225 -1.0306 0.9785
11.3355 9.3691 -2.8459 0.9418
10.4567 10.3409 -2.8459 0.9418
9.4948 11.2306 -2.8459 0.9418
8.4576 12.0312 -2.8460 0.9418
7.3533 12.7363 -2.8460 0.9418
6.1906 13.3404 -2.8460 0.9418
4.9787 13.8386 -2.8460 0.9418
3.7273 14.2269 -2.8461 0.9418
-1.4722 14.6338 -2.8462 0.9418
-4.0436 14.1413 -2.8463 0.9418
-7.6362 12.5709 -2.8464 0.9418
-8.7249 11.8415 -2.8464 0.9418
-10.6864 10.1071 -2.8464 0.9418
-12.9618 6.9166 -2.8431 0.9419
-0.0607 -5.4455 -1.0539 0.9781
0.4099 -5.2454 -1.0182 0.9788
13.6636 5.4380 -2.8459 0.9418
13.1254 6.6326 -2.8459 0.9418
12.4830 7.7745 -2.8459 0.9418
10.9069 9.8647 -2.8459 0.9418
7.9133 12.3960 -2.8460 0.9418
6.7787 13.0513 -2.8460 0.9418
3.0898 14.3789 -2.8461 0.9418
-0.8188 14.6848 -2.8462 0.9418
-5.8924 13.4763 -2.8463 0.9418
-9.2437 11.4411 -2.8464 0.9418
-12.6558 7.4961 -2.8465 0.9418
-13.2728 6.3400 -2.8465 0.9418
-13.7845 5.1335 -2.8465 0.9418
-14.2252 0.0001 -2.9989 0.9435
-14.1687 -1.2661 -2.9989 0.9435
-13.9998 -2.5222 -2.9989 0.9435
-13.7197 -3.7582 -2.9989 0.9435
-12.2392 -7.2493 -2.9989 0.9435
-10.7599 -9.3044 -2.9989 0.9435
-8.9396 -11.0646 -2.9989 0.9435
-6.8360 -12.4741 -2.9988 0.9435
-5.6986 -13.0329 -2.9988 0.9435
0.1802 -5.3889 -1.1367 0.9782
1.1502 -5.3525 -1.1542 0.9779
1.8132 -5.8451 -1.2902 0.9753
5.4063 -13.1555 -2.9985 0.9435
6.5557 -12.6220 -2.9985 0.9435
7.6531 -11.9883 -2.9985 0.9435
8.6896 -11.2595 -2.9984 0.9435
9.6572 -10.4412 -2.9984 0.9435
12.0724 -7.5187 -2.9983 0.9435
14.1902 0.9500 -2.9983 0.9435
14.0493 2.2092 -2.9983 0.9435
11.7651 6.6190 -2.8459 0.9463
10.1210 6.9477 -2.5881 0.9511
10.4053 8.6002 -2.8459 0.9463
9.5986 9.4922 -2.8459 0.9463
8.7157 10.3090 -2.8460 0.9463
7.7636 11.0439 -2.8460 0.9463
6.7499 11.6911 -2.8460 0.9463
5.6826 12.2456 -2.8460 0.9463
2.2455 13.3122 -2.8461 0.9463
1.0517 13.4594 -2.8461 0.9463
-2.5416 13.2594 -2.8462 0.9463
-3.7117 12.9807 -2.8463 0.9463
-4.8524 12.5989 -2.8463 0.9463
-5.9545 12.1172 -2.8463 0.9463
-9.8093 9.2776 -2.8464 0.9463
-11.2990 7.3915 -2.8465 0.9463
-11.9121 6.3565 -2.8465 0.9463
-12.4306 5.2711 -2.8465 0.9463
-13.8735 3.1433 -2.9989 0.9435
-14.2111 -0.6336 -2.9989 0.9435
-14.0982 -1.8960 -2.9989 0.9435
-13.5387 -4.3656 -2.9989 0.9435
-13.0964 -5.5533 -2.9989 0.9435
-12.5501 -6.6969 -2.9989 0.9435
-5.1123 -13.2738 -2.9988 0.9435
-2.6778 -13.9697 -2.9987 0.9435
0.4146 -5.3052 -1.1218 0.9785
9.1825 -10.8611 -2.9984 0.9435
11.7255 -8.0491 -2.9983 0.9435
13.7970 -3.4508 -2.9983 0.9435
14.0494 -2.2091 -2.9983 0.9435
14.1338 1.5812 -2.9983 0.9435
13.6295 4.0620 -2.9983 0.9435
12.0483 6.0883 -2.8459 0.9463
10.0119 9.0552 -2.8459 0.9463
9.1662 9.9104 -2.8460 0.9463
8.2478 10.6870 -2.8460 0.9463
7.2639 11.3788 -2.8460 0.9463
6.2224 11.9803 -2.8460 0.9463
3.9997 12.8940 -2.8461 0.9463
1.6503 13.3991 -2.8461 0.9463
-1.9484 13.3594 -2.8462 0.9463
-3.1298 13.1331 -2.8462 0.9463
-4.2863 12.8025 -2.8463 0.9463
-6.4884 11.8399 -2.8463 0.9463
-11.6170 6.8808 -2.8465 0.9463
-12.1834 5.8196 -2.8465 0.9463
-14.1687 1.2661 -2.9989 0.9435
-13.1391 0.0000 -2.9989 0.9475
-13.0870 -1.1694 -2.9989 0.9475
-12.6723 -3.4713 -2.9989 0.9475
-11.8560 -5.6631 -2.9989 0.9475
-11.3048 -6.6958 -2.9989 0.9475
-9.9384 -8.5941 -2.9989 0.9475
-8.2571 -10.2199 -2.9988 0.9475
-7.3147 -10.9142 -2.9988 0.9475
-6.3142 -11.5218 -2.9988 0.9475
-5.2635 -12.0380 -2.9988 0.9475
-3.0457 -12.7803 -2.9987 0.9475
-1.8961 -13.0005 -2.9987 0.9475
0.1835 -5.4872 -1.2531 0.9777
0.6615 -5.3713 -1.2352 0.9780
7.0689 -11.0732 -2.9985 0.9475
9.7430 -8.8120 -2.9984 0.9475
10.4885 -7.9097 -2.9984 0.9475
11.1508 -6.9448 -2.9984 0.9475
12.2054 -4.8576 -2.9983 0.9475
13.0550 -1.4604 -2.9983 0.9475
12.9769 2.0405 -2.9983 0.9475
12.7438 3.1875 -2.9983 0.9475
11.3681 5.1222 -2.8459 0.9501
10.8671 6.1138 -2.8459 0.9501
9.6110 7.9437 -2.8460 0.9501
8.0504 9.5221 -2.8460 0.9501
7.1710 10.2009 -2.8460 0.9501
6.2346 10.7987 -2.8460 0.9501
5.2488 11.3109 -2.8460 0.9501
2.0741 12.2960 -2.8461 0.9501
0.9714 12.4319 -2.8461 0.9501
-1.2482 12.4074 -2.8462 0.9501
-4.4819 11.6371 -2.8463 0.9501
-5.5000 11.1921 -2.8463 0.9501
-13.0219 1.7513 -2.9989 0.9475
-13.0219 -1.7512 -2.9989 0.9475
-12.8143 -2.9033 -2.9989 0.9475
-12.0965 -5.1293 -2.9989 0.9475
-10.9953 -7.1928 -2.9989 0.9475
-8.7042 -9.8419 -2.9988 0.9475
-7.7936 -10.5776 -2.9988 0.9475
-5.7946 -11.7916 -2.9988 0.9475
-4.7220 -12.2605 -2.9988 0.9475
-3.6120 -12.6320 -2.9987 0.9475
-2.4734 -12.9033 -2.9987 0.9475
-0.0629 -5.6461 -1.2888 0.9771
0.4220 -5.4007 -1.2364 0.9780
0.9088 -5.3880 -1.2472 0.9778
1.4775 -5.6396 -1.3306 0.9764
5.5299 -11.9167 -2.9985 0.9475
6.5686 -11.3771 -2.9985 0.9475
7.5551 -10.7473 -2.9985 0.9475
8.4816 -10.0321 -2.9984 0.9475
9.3408 -9.2372 -2.9984 0.9475
10.1258 -8.3692 -2.9984 0.9475
10.8304 -7.4347 -2.9984 0.9475
11.4491 -6.4411 -2.9983 0.9475
12.4097 -4.3090 -2.9983 0.9475
13.1331 0.2927 -2.9983 0.9475
13.0549 1.4604 -2.9983 0.9475
12.8731 2.6166 -2.9983 0.9475
9.8740 7.4464 -2.8227 0.9505
8.4666 9.1540 -2.8460 0.9501
7.6183 9.8713 -2.8460 0.9501
3.6944 11.9097 -2.8461 0.9501
2.6198 12.1913 -2.8461 0.9501
1.5243 12.3763 -2.8461 0.9501
-1.7997 12.3396 -2.8462 0.9501
-3.9591 11.8252 -2.8463 0.9501
-5.9931 10.9360 -2.8463 0.9501
-6.9428 10.3594 -2.8463 0.9501
-8.6696 8.9644 -2.8464 0.9501
-10.1218 7.2853 -2.8464 0.9501
-12.3129 4.5854 -2.9989 0.9475
-12.6722 3.4713 -2.9989 0.9475
-12.2006 0.0000 -2.9989 0.9510
-12.1522 -1.0859 -2.9989 0.9510
-11.7671 -3.2233 -2.9989 0.9510
-10.4973 -6.2176 -2.9989 0.9510
-9.2285 -7.9802 -2.9989 0.9510
-8.4816 -8.7698 -2.9988 0.9510
-6.7922 -10.1346 -2.9988 0.9510
-5.8631 -10.6988 -2.9988 0.9510
-3.8732 -11.5687 -2.9987 0.9510
-2.8282 -11.8674 -2.9987 0.9510
-1.7607 -12.0720 -2.9987 0.9510
0.1870 -5.5930 -1.3755 0.9772
1.1990 -5.5795 -1.4027 0.9768
3.6143 -11.6514 -2.9986 0.9510
4.6370 -11.2834 -2.9985 0.9510
6.5640 -10.2823 -2.9985 0.9510
10.8873 -5.5016 -2.9984 0.9510
11.3337 -4.5107 -2.9983 0.9510
11.9538 -2.4297 -2.9983 0.9510
12.1709 0.8148 -2.9983 0.9510
12.0501 1.8948 -2.9983 0.9510
11.8337 2.9598 -2.9983 0.9510
11.5233 4.0013 -2.9983 0.9510
10.0910 5.6771 -2.8459 0.9534
9.5457 6.5528 -2.8460 0.9534
8.9246 7.3764 -2.8460 0.9534
8.2327 8.1415 -2.8460 0.9534
6.6588 9.4723 -2.8460 0.9534
4.8739 10.5030 -2.8461 0.9534
1.9259 11.4178 -2.8461 0.9534
0.9021 11.5440 -2.8462 0.9534
-0.1290 11.5786 -2.8462 0.9534
-1.1590 11.5212 -2.8462 0.9534
-2.1799 11.3725 -2.8462 0.9534
-4.1618 10.8060 -2.8463 0.9534
-6.0119 9.8970 -2.8463 0.9534
-6.8690 9.3227 -2.8463 0.9534
-9.0881 7.1769 -2.8464 0.9534
-10.2167 5.4518 -2.8464 0.9534
-11.1755 4.7388 -2.9837 0.9512
-11.6117 3.7443 -2.9989 0.9510
-11.8989 2.6960 -2.9989 0.9510
-12.1885 0.5435 -2.9989 0.9510
-8.8638 -8.3833 -2.9988 0.9510
-8.0825 -9.1389 -2.9988 0.9510
-7.2369 -9.8220 -2.9988 0.9510
-5.3807 -10.9493 -2.9988 0.9510
-4.3848 -11.3847 -2.9987 0.9510
-2.2967 -11.9816 -2.9987 0.9510
-0.0644 -5.7842 -1.4218 0.9765
0.4298 -5.5005 -1.3561 0.9775
0.9259 -5.4891 -1.3683 0.9773
1.5393 -5.8755 -1.4930 0.9753
6.0995 -10.5646 -2.9985 0.9510
8.6737 -8.5775 -2.9984 0.9510
9.4026 -7.7714 -2.9984 0.9510
10.6314 -5.9811 -2.9984 0.9510
11.8337 -2.9598 -2.9983 0.9510
12.0502 -1.8948 -2.9983 0.9510
12.1710 -0.8147 -2.9983 0.9510
12.1952 0.2718 -2.9983 0.9510
12.1226 1.3562 -2.9983 0.9510
11.9538 2.4297 -2.9983 0.9510
10.3339 5.2220 -2.8459 0.9534
8.5872 7.7667 -2.8460 0.9534
7.0741 9.1663 -2.8460 0.9534
6.2303 9.7596 -2.8460 0.9534
4.4012 10.7097 -2.8461 0.9534
2.4326 11.3206 -2.8461 0.9534
-0.6447 11.5614 -2.8462 0.9534
-1.6711 11.4582 -2.8462 0.9534
-2.6844 11.2641 -2.8462 0.9534
-4.6391 10.6099 -2.8463 0.9534
-5.5650 10.1549 -2.8463 0.9534
-6.4468 9.6194 -2.8463 0.9534
-7.2775 9.0075 -2.8464 0.9534
-8.0504 8.3241 -2.8464 0.9534
-8.7594 7.5746 -2.8464 0.9534
-10.4495 4.9913 -2.8464 0.9534
-11.7670 3.2234 -2.9989 0.9510
-12.0072 2.1632 -2.9989 0.9510
-10.2695 -4.9053 -2.9989 0.9540
-9.7921 -5.7998 -2.9989 0.9540
-9.2370 -6.6483 -2.9988 0.9540
-8.6086 -7.4441 -2.9988 0.9540
-7.9118 -8.1807 -2.9988 0.9540
-4.5592 -10.4272 -2.9987 0.9540
-1.6424 -11.2610 -2.9987 0.9540
-0.6336 -11.3624 -2.9987 0.9540
0.1931 -5.7752 -1.5226 0.9764
0.6905 -5.6063 -1.4884 0.9769
1.2459 -5.7978 -1.5626 0.9758
3.3715 -10.8687 -2.9986 0.9540
4.3255 -10.5255 -2.9985 0.9540
5.2451 -10.0986 -2.9985 0.9540
6.1231 -9.5916 -2.9985 0.9540
6.9524 -9.0085 -2.9985 0.9540
7.7266 -8.3538 -2.9984 0.9540
8.4394 -7.6330 -2.9984 0.9540
9.6590 -6.0156 -2.9984 0.9540
10.1560 -5.1320 -2.9984 0.9540
11.1509 -2.2665 -2.9983 0.9540
11.3760 -0.2535 -2.9983 0.9540
9.4132 5.2958 -2.8460 0.9563
8.3252 6.8810 -2.8460 0.9563
7.6797 7.5946 -2.8460 0.9563
6.2115 8.8361 -2.8460 0.9563
4.5465 9.7976 -2.8461 0.9563
1.7966 10.6508 -2.8461 0.9563
0.8415 10.7686 -2.8462 0.9563
-1.0812 10.7473 -2.8462 0.9563
-2.9696 10.3855 -2.8462 0.9563
-3.8822 10.0801 -2.8463 0.9563
-6.4075 8.6964 -2.8463 0.9563
-7.1562 8.0917 -2.8464 0.9563
-8.4776 6.6947 -2.8464 0.9563
-9.5304 5.0856 -2.8464 0.9563
-10.4777 4.4430 -2.9988 0.9540
-10.8316 3.4928 -2.9989 0.9540
-11.2794 1.5169 -2.9989 0.9540
-11.3696 -0.5069 -2.9989 0.9540
-11.0996 -2.5148 -2.9989 0.9540
-10.4778 -4.4429 -2.9989 0.9540
-8.9316 -7.0532 -2.9988 0.9540
-7.5395 -8.5250 -2.9988 0.9540
-5.0192 -10.2138 -2.9988 0.9540
-3.1287 -10.9417 -2.9987 0.9540
-0.0675 -6.0622 -1.5975 0.9752
0.4412 -5.6461 -1.4923 0.9768
2.8840 -11.0082 -2.9986 0.9540
5.6897 -9.8549 -2.9985 0.9540
9.3814 -6.4400 -2.9984 0.9540
9.9173 -5.5794 -2.9984 0.9540
10.7494 -3.7326 -2.9984 0.9540
11.0389 -2.7610 -2.9983 0.9540
11.3760 0.2536 -2.9983 0.9540
11.1508 2.2666 -2.9983 0.9540
9.6397 4.8712 -2.8460 0.9563
9.1680 5.7099 -2.8460 0.9563
8.6234 6.5032 -2.8460 0.9563
7.3338 7.9293 -2.8460 0.9563
5.8118 9.1040 -2.8460 0.9563
4.9784 9.5853 -2.8461 0.9563
4.1056 9.9904 -2.8461 0.9563
3.2001 10.3162 -2.8461 0.9563
1.3203 10.7203 -2.8461 0.9563
0.3609 10.7954 -2.8462 0.9563
-2.5040 10.5074 -2.8462 0.9563
-4.3274 9.8971 -2.8463 0.9563
-6.0138 8.9732 -2.8463 0.9563
-6.7886 8.4024 -2.8463 0.9563
-7.5096 7.7649 -2.8464 0.9563
-8.1709 7.0657 -2.8464 0.9563
-8.7674 6.3104 -2.8464 0.9563
-9.9447 4.7502 -2.9040 0.9554
-10.6653 3.9718 -2.9989 0.9540
-11.2006 2.0179 -2.9989 0.9540
-10.2799 -2.8159 -2.9989 0.9567
-9.9884 -3.7197 -2.9989 0.9567
-9.1706 -5.4317 -2.9988 0.9567
-8.0622 -6.9716 -2.9988 0.9567
-5.1221 -9.3467 -2.9988 0.9567
-3.3837 -10.1066 -2.9987 0.9567
-0.5934 -10.6413 -2.9987 0.9567
0.2022 -6.0479 -1.7026 0.9752
0.7132 -5.7906 -1.6415 0.9760
2.2391 -10.4197 -2.9986 0.9567
3.1576 -10.1790 -2.9986 0.9567
4.0510 -9.8575 -2.9985 0.9567
4.9122 -9.4577 -2.9985 0.9567
6.5112 -8.4368 -2.9985 0.9567
9.9015 -3.9407 -2.9984 0.9567
10.2129 -3.0437 -2.9984 0.9567
10.4433 -2.1227 -2.9984 0.9567
10.5907 -1.1847 -2.9984 0.9567
10.6541 -0.2374 -2.9984 0.9567
10.6330 0.7118 -2.9983 0.9567
10.5274 1.6554 -2.9983 0.9567
10.3383 2.5858 -2.9984 0.9567
8.3394 5.7247 -2.8460 0.9588
7.1924 7.1127 -2.8460 0.9588
6.5308 7.7247 -2.8460 0.9588
5.0578 8.7603 -2.8461 0.9588
4.2580 9.1758 -2.8461 0.9588
3.4244 9.5184 -2.8461 0.9588
-0.1127 10.1153 -2.8462 0.9588
-2.7812 9.7264 -2.8462 0.9588
-3.6358 9.4403 -2.8463 0.9588
-6.7020 7.5781 -2.8463 0.9588
-7.3499 6.9516 -2.8464 0.9588
-8.4661 5.5383 -2.8464 0.9588
-8.9345 4.7677 -2.8493 0.9588
-10.1442 3.2711 -2.9988 0.9567
-10.5635 1.4207 -2.9989 0.9567
-10.5635 -1.4206 -2.9989 0.9567
-7.0610 -7.9839 -2.9988 0.9567
-6.3223 -8.5807 -2.9988 0.9567
-5.5334 -9.1093 -2.9988 0.9567
-3.8306 -9.9459 -2.9987 0.9567
-1.0668 -10.6043 -2.9987 0.9567
-0.1187 -10.6571 -2.9986 0.9567
0.9884 -5.8595 -1.6719 0.9756
2.7010 -10.3096 -2.9986 0.9567
4.4861 -9.6672 -2.9985 0.9567
5.3287 -9.2295 -2.9985 0.9567
8.2144 -6.7894 -2.9984 0.9567
8.7861 -6.0313 -2.9984 0.9567
9.2880 -5.2253 -2.9984 0.9567
10.0672 -3.4956 -2.9984 0.9567
10.3384 -2.5858 -2.9984 0.9567
10.6541 0.2375 -2.9983 0.9567
10.4432 2.1227 -2.9983 0.9567
10.2129 3.0438 -2.9984 0.9567
9.9014 3.9407 -2.9984 0.9567
8.5862 5.3475 -2.8460 0.9588
7.5020 6.7853 -2.8460 0.9588
3.8450 9.3564 -2.8461 0.9588
2.1252 9.8900 -2.8461 0.9588
1.2365 10.0400 -2.8461 0.9588
0.3380 10.1103 -2.8462 0.9588
-3.2117 9.5929 -2.8463 0.9588
-4.8617 8.8716 -2.8463 0.9588
-7.6523 6.6173 -2.8464 0.9588
-10.6163 0.9487 -2.9989 0.9567
-10.0168 0.0000 -2.9988 0.9590
-9.9771 -0.8915 -2.9988 0.9590
-9.3870 -3.4957 -2.9988 0.9590
-9.0386 -4.3174 -2.9988 0.9590
-8.6185 -5.1047 -2.9988 0.9590
-7.5768 -6.5519 -2.9988 0.9590
-6.9635 -7.2002 -2.9988 0.9590
-6.2950 -7.7914 -2.9988 0.9590
-5.5765 -8.3207 -2.9988 0.9590
-4.0128 -9.1775 -2.9987 0.9590
-1.4455 -9.9114 -2.9987 0.9590
-0.5576 -10.0006 -2.9986 0.9590
0.3347 -10.0105 -2.9986 0.9590
1.2243 -9.9409 -2.9986 0.9590
2.9675 -9.5661 -2.9986 0.9590
3.8071 -9.2640 -2.9985 0.9590
6.8006 -7.3527 -2.9985 0.9590
7.4280 -6.7182 -2.9984 0.9590
8.5014 -5.2947 -2.9984 0.9590
9.3054 -3.7034 -2.9984 0.9590
9.5981 -2.8605 -2.9984 0.9590
9.9532 -1.1134 -2.9984 0.9590
10.0128 -0.2231 -2.9984 0.9590
9.9929 0.6690 -2.9984 0.9590
9.7159 2.4302 -2.9984 0.9590
9.4611 3.2853 -2.9984 0.9590
9.1312 4.1144 -2.9984 0.9590
7.8374 5.3801 -2.8460 0.9611
7.3275 6.0563 -2.8460 0.9611
6.7594 6.6845 -2.8460 0.9611
6.1376 7.2596 -2.8460 0.9611
4.7533 8.2329 -2.8461 0.9611
4.0016 8.6234 -2.8461 0.9611
0.7406 9.4780 -2.8462 0.9611
-0.9516 9.4593 -2.8462 0.9611
-3.4169 8.8719 -2.8463 0.9611
-5.6396 7.6541 -2.8463 0.9611
-6.2985 7.1218 -2.8463 0.9611
-6.9074 6.5330 -2.8464 0.9611
-9.5334 3.0742 -2.9988 0.9590
-9.7692 2.2135 -2.9988 0.9590
-9.9274 1.3352 -2.9988 0.9590
-10.0069 0.4462 -2.9988 0.9590
-10.0069 -0.4462 -2.9988 0.9590
-9.9275 -1.3351 -2.9988 0.9590
-8.8373 -4.7157 -2.9988 0.9590
-7.8611 -6.2079 -2.9988 0.9590
-6.6358 -7.5032 -2.9988 0.9590
-5.2003 -8.5608 -2.9988 0.9590
-4.4177 -8.9896 -2.9987 0.9590
-2.7537 -9.6303 -2.9987 0.9590
0.7803 -9.9856 -2.9986 0.9590
2.5384 -9.6889 -2.9986 0.9590
3.3907 -9.4245 -2.9986 0.9590
7.1214 -7.0425 -2.9985 0.9590
7.7199 -6.3806 -2.9984 0.9590
9.1312 -4.1143 -2.9984 0.9590
9.4612 -3.2852 -2.9984 0.9590
9.7160 -2.4301 -2.9984 0.9590
9.8937 -1.5557 -2.9984 0.9590
7.0504 6.3767 -2.8460 0.9611
5.1153 8.0130 -2.8461 0.9611
-0.5293 9.4922 -2.8462 0.9611
-3.0183 9.0153 -2.8463 0.9611
-4.5690 8.3374 -2.8463 0.9611
-7.1916 6.2189 -2.8464 0.9611
-7.7166 5.5541 -2.8464 0.9611
-9.0385 4.3174 -2.9988 0.9590
-9.8581 1.7761 -2.9988 0.9590
-9.4426 0.0000 -2.9988 0.9611
-9.4052 -0.8404 -2.9988 0.9611
-9.2930 -1.6742 -2.9988 0.9611
-8.8489 -3.2953 -2.9988 0.9611
-8.5205 -4.0698 -2.9988 0.9611
-8.1244 -4.8121 -2.9988 0.9611
-7.1424 -6.1762 -2.9988 0.9611
-5.9341 -7.3447 -2.9988 0.9611
-2.9977 -8.9537 -2.9987 0.9611
-2.1889 -9.1849 -2.9987 0.9611
-0.5257 -9.4274 -2.9986 0.9611
0.3155 -9.4367 -2.9986 0.9611
1.9836 -9.2311 -2.9986 0.9611
2.7974 -9.0178 -2.9986 0.9611
4.3519 -8.3788 -2.9985 0.9611
5.7685 -7.4744 -2.9985 0.9612
6.4108 -6.9312 -2.9985 0.9612
8.0141 -4.9912 -2.9984 0.9612
8.4266 -4.2581 -2.9984 0.9612
8.7721 -3.4912 -2.9984 0.9612
9.2520 -1.8805 -2.9984 0.9612
9.3827 -1.0496 -2.9984 0.9612
9.4389 -0.2103 -2.9984 0.9612
9.3266 1.4666 -2.9984 0.9612
11.6586 6.5590 -4.2483 0.9454
6.9075 5.7092 -2.8460 0.9631
5.7858 6.8436 -2.8460 0.9631
5.1538 7.3314 -2.8461 0.9631
4.4808 7.7610 -2.8461 0.9631
3.7723 8.1291 -2.8461 0.9631
3.0338 8.4327 -2.8461 0.9631
2.2712 8.6693 -2.8461 0.9631
1.4906 8.8371 -2.8461 0.9631
0.6982 8.9347 -2.8462 0.9631
-0.8971 8.9171 -2.8462 0.9631
-3.2211 8.3634 -2.8463 0.9631
-3.9527 8.0436 -2.8463 0.9631
-4.6530 7.6599 -2.8463 0.9631
-5.3163 7.2154 -2.8463 0.9631
-6.5115 6.1585 -2.8463 0.9631
-7.0338 5.5546 -2.8464 0.9631
-7.5124 4.9144 -2.8510 0.9630
-8.6933 3.6863 -2.9988 0.9611
-8.9869 2.8979 -2.9988 0.9611
-9.2092 2.0866 -2.9988 0.9611
-9.3584 1.2586 -2.9988 0.9611
-9.3584 -1.2585 -2.9988 0.9611
-8.3307 -4.4454 -2.9988 0.9611
-7.9020 -5.1692 -2.9988 0.9611
-7.4105 -5.8520 -2.9988 0.9611
-6.8602 -6.4883 -2.9988 0.9611
-6.2554 -7.0731 -2.9988 0.9611
-4.9022 -8.0701 -2.9987 0.9611
-1.7775 -9.2733 -2.9987 0.9611
-0.1052 -9.4414 -2.9986 0.9611
1.5705 -9.3103 -2.9986 0.9611
3.1963 -8.8842 -2.9986 0.9611
3.9743 -8.5644 -2.9985 0.9611
6.0957 -7.2100 -2.9985 0.9612
6.7132 -6.6388 -2.9985 0.9612
7.2774 -6.0149 -2.9984 0.9612
7.7839 -5.3433 -2.9984 0.9612
8.2285 -4.6293 -2.9984 0.9612
8.6079 -3.8785 -2.9984 0.9612
9.3266 -1.4665 -2.9984 0.9612
9.4201 -0.6306 -2.9984 0.9612
9.3827 1.0497 -2.9984 0.9612
8.7720 3.4912 -2.9984 0.9612
11.9392 6.0331 -4.2483 0.9454
11.3548 7.0718 -4.2483 0.9454
7.1549 5.3958 -2.8460 0.9631
6.6463 6.0113 -2.8460 0.9631
5.4752 7.0945 -2.8461 0.9631
4.1307 7.9529 -2.8461 0.9631
3.4064 8.2891 -2.8461 0.9631
2.6552 8.5595 -2.8461 0.9631
1.8828 8.7619 -2.8461 0.9631
-2.0776 8.7180 -2.8462 0.9631
-3.5905 8.2116 -2.8463 0.9631
-8.5204 4.0699 -2.9988 0.9611
-8.8489 3.2954 -2.9988 0.9611
-8.9255 0.0000 -2.9988 0.9630
-8.6084 -2.3580 -2.9988 0.9630
-8.3643 -3.1149 -2.9988 0.9630
-7.6795 -4.5486 -2.9988 0.9630
-7.2442 -5.2140 -2.9988 0.9630
-4.2893 -7.8270 -2.9987 0.9630
-2.8336 -8.4634 -2.9987 0.9630
-1.2881 -8.8316 -2.9987 0.9630
-0.4969 -8.9112 -2.9986 0.9630
2.6442 -8.5240 -2.9986 0.9630
4.1136 -7.9201 -2.9985 0.9630
6.0598 -6.5517 -2.9985 0.9630
6.6189 -5.9864 -2.9985 0.9630
7.1254 -5.3735 -2.9985 0.9630
7.5753 -4.7179 -2.9984 0.9630
7.9652 -4.0250 -2.9984 0.9630
8.2918 -3.3000 -2.9984 0.9630
8.5526 -2.5489 -2.9984 0.9630
8.8690 -0.9921 -2.9984 0.9630
8.9043 0.5961 -2.9984 0.9630
8.8159 1.3863 -2.9984 0.9630
11.0202 6.1998 -4.2483 0.9480
10.4247 7.1561 -4.2483 0.9480
6.5293 5.3966 -2.8460 0.9649
6.0231 5.9564 -2.8460 0.9649
5.4690 6.4688 -2.8461 0.9649
4.8716 6.9300 -2.8461 0.9649
3.5657 7.6840 -2.8461 0.9649
2.8677 7.9709 -2.8461 0.9649
2.1469 8.1946 -2.8461 0.9649
1.4090 8.3532 -2.8461 0.9649
0.6599 8.4455 -2.8462 0.9649
-1.5948 8.3199 -2.8462 0.9649
-3.0447 7.9054 -2.8463 0.9649
-3.7363 7.6031 -2.8463 0.9649
-4.3982 7.2404 -2.8463 0.9649
-5.0252 6.8203 -2.8463 0.9649
-5.6123 6.3460 -2.8463 0.9649
-6.6486 5.2504 -2.8464 0.9649
-7.2483 4.7417 -2.9101 0.9641
-8.2172 3.4844 -2.9988 0.9630
-8.4948 2.7392 -2.9988 0.9630
-8.7049 1.9723 -2.9988 0.9630
-8.4948 -2.7392 -2.9988 0.9630
-7.4692 -4.8861 -2.9988 0.9630
-7.0047 -5.5315 -2.9988 0.9630
-6.4845 -6.1330 -2.9988 0.9630
-5.9129 -6.6858 -2.9988 0.9630
-5.2943 -7.1855 -2.9988 0.9630
-4.6338 -7.6281 -2.9987 0.9630
-3.9364 -8.0103 -2.9987 0.9630
-3.2078 -8.3288 -2.9987 0.9630
-1.6802 -8.7655 -2.9987 0.9630
-0.8934 -8.8802 -2.9987 0.9630
-0.0994 -8.9244 -2.9986 0.9630
0.6953 -8.8978 -2.9986 0.9630
2.2619 -8.6334 -2.9986 0.9630
3.0213 -8.3978 -2.9986 0.9630
5.7619 -6.8152 -2.9985 0.9630
6.3456 -6.2753 -2.9985 0.9630
7.7780 -4.3758 -2.9984 0.9630
8.1365 -3.6661 -2.9984 0.9630
8.4305 -2.9274 -2.9984 0.9630
8.9043 -0.5960 -2.9984 0.9630
8.9220 0.1988 -2.9984 0.9630
8.5525 2.5489 -2.9984 0.9630
6.7632 5.1004 -2.8460 0.9649
6.2824 5.6821 -2.8460 0.9649
4.5581 7.1401 -2.8461 0.9649
3.9045 7.5175 -2.8461 0.9649
3.2199 7.8352 -2.8461 0.9649
1.0355 8.4076 -2.8462 0.9649
0.2831 8.4665 -2.8462 0.9649
-0.4716 8.4582 -2.8462 0.9649
-2.6895 8.0332 -2.8462 0.9649
-3.3938 7.7620 -2.8463 0.9649
-5.8894 6.0897 -2.8463 0.9649
-7.6794 4.5486 -2.9988 0.9630
-8.7841 1.5826 -2.9988 0.9630
-8.1567 -2.2343 -2.9988 0.9647
-7.9255 -2.9514 -2.9988 0.9647
-7.6313 -3.6451 -2.9988 0.9647
-7.2766 -4.3099 -2.9988 0.9647
-6.8641 -4.9404 -2.9988 0.9647
-5.3149 -6.5783 -2.9988 0.9647
-3.3880 -7.7486 -2.9987 0.9647
-2.6849 -8.0193 -2.9987 0.9647
-1.9605 -8.2264 -2.9987 0.9647
-0.4708 -8.4436 -2.9986 0.9647
0.2826 -8.4520 -2.9986 0.9647
1.0337 -8.3932 -2.9986 0.9647
1.7767 -8.2678 -2.9986 0.9647
3.2144 -7.8217 -2.9986 0.9647
3.8978 -7.5046 -2.9985 0.9647
4.5502 -7.1278 -2.9985 0.9647
5.1666 -6.6945 -2.9985 0.9647
6.2716 -5.6723 -2.9985 0.9647
6.7515 -5.0915 -2.9985 0.9647
7.5473 -3.8138 -2.9984 0.9647
8.1039 -2.4152 -2.9984 0.9647
8.2866 -1.6843 -2.9984 0.9647
8.4037 -0.9401 -2.9984 0.9647
8.4540 -0.1884 -2.9984 0.9647
8.4372 0.5648 -2.9984 0.9647
8.3534 1.3136 -2.9984 0.9647
8.2034 2.0518 -2.9984 0.9647
7.7096 3.4738 -2.9984 0.9647
7.3698 4.1462 -2.9984 0.9647
6.1867 5.1135 -2.8460 0.9665
3.3787 7.2808 -2.8461 0.9665
2.7172 7.5527 -2.8461 0.9665
1.3351 7.9149 -2.8462 0.9665
0.6253 8.0024 -2.8462 0.9665
-0.8034 7.9866 -2.8462 0.9665
-1.5111 7.8834 -2.8462 0.9665
-2.2068 7.7177 -2.8462 0.9665
-4.1674 6.8605 -2.8463 0.9665
-4.7615 6.4624 -2.8463 0.9665
-5.3178 6.0130 -2.8463 0.9665
-6.2998 4.9749 -2.8463 0.9665
-7.0773 4.6298 -2.9988 0.9647
-7.4613 3.9815 -2.9988 0.9647
-7.7861 3.3016 -2.9988 0.9647
-8.2481 1.8688 -2.9988 0.9647
-8.4488 0.3768 -2.9988 0.9647
-8.4488 -0.3767 -2.9988 0.9647
-8.3818 -1.1272 -2.9988 0.9647
-8.2482 -1.8688 -2.9988 0.9647
-7.7861 -3.3016 -2.9988 0.9647
-7.4613 -3.9815 -2.9988 0.9647
-6.1443 -5.8112 -2.9988 0.9647
-3.0395 -7.8918 -2.9987 0.9647
-1.5921 -8.3055 -2.9987 0.9647
-0.0942 -8.4562 -2.9986 0.9647
0.6588 -8.4309 -2.9986 0.9647
1.4066 -8.3388 -2.9986 0.9647
2.8628 -7.9572 -2.9986 0.9647
3.5596 -7.6707 -2.9985 0.9647
4.8632 -6.9180 -2.9985 0.9647
7.7097 -3.4738 -2.9984 0.9647
7.9882 -2.7738 -2.9984 0.9647
8.4540 0.1884 -2.9984 0.9647
8.2866 1.6844 -2.9984 0.9647
8.1038 2.4152 -2.9984 0.9647
7.5472 3.8138 -2.9984 0.9647
10.1700 6.3339 -4.2483 0.9504
5.9528 5.3840 -2.8460 0.9665
5.4500 5.8925 -2.8461 0.9665
4.9039 6.3542 -2.8461 0.9665
4.3189 6.7655 -2.8461 0.9665
0.9812 7.9665 -2.8462 0.9665
0.2682 8.0223 -2.8462 0.9665
-0.4469 8.0144 -2.8462 0.9665
-1.1584 7.9429 -2.8462 0.9665
-1.8608 7.8083 -2.8462 0.9665
-2.5484 7.6117 -2.8462 0.9665
-3.8576 7.0393 -2.8463 0.9665
-4.4689 6.6681 -2.8463 0.9665
-6.5930 4.7454 -2.8804 0.9661
-7.9254 2.9515 -2.9988 0.9647
-8.4236 0.7528 -2.9988 0.9647
-7.9990 -0.7147 -2.9988 0.9663
-7.9036 -1.4238 -2.9988 0.9663
-6.9097 -4.0926 -2.9988 0.9663
-5.0469 -6.2466 -2.9987 0.9663
-4.4709 -6.6710 -2.9987 0.9663
-0.4471 -8.0179 -2.9986 0.9663
1.6871 -7.8510 -2.9986 0.9663
4.3208 -6.7685 -2.9985 0.9663
6.4112 -4.8348 -2.9985 0.9663
6.8161 -4.2451 -2.9985 0.9663
7.1668 -3.6215 -2.9984 0.9663
7.8689 -1.5994 -2.9984 0.9663
7.9800 -0.8927 -2.9984 0.9663
7.9323 1.2473 -2.9984 0.9663
7.5855 2.6340 -2.9984 0.9663
7.3210 3.2987 -2.9984 0.9663
6.9983 3.9372 -2.9984 0.9663
9.3798 6.4389 -4.2484 0.9526
4.9209 5.8205 -2.8461 0.9680
3.8109 6.6008 -2.8461 0.9680
1.2678 7.5159 -2.8462 0.9680
0.5938 7.5990 -2.8462 0.9680
-0.7629 7.5839 -2.8462 0.9680
-3.3617 6.8410 -2.8463 0.9680
-3.9573 6.5147 -2.8463 0.9680
-4.5215 6.1366 -2.8463 0.9680
-5.0497 5.7099 -2.8463 0.9680
-7.6432 2.4647 -2.9988 0.9663
-7.8323 1.7746 -2.9988 0.9663
-8.0229 -0.3577 -2.9988 0.9663
-7.6433 -2.4646 -2.9988 0.9663
-7.0852 -3.7807 -2.9988 0.9663
-6.7205 -4.3963 -2.9988 0.9663
-5.8345 -5.5182 -2.9988 0.9663
-5.3202 -6.0156 -2.9988 0.9663
-4.1693 -6.8635 -2.9987 0.9663
-3.5418 -7.2073 -2.9987 0.9663
-2.8862 -7.4939 -2.9987 0.9663
-0.8038 -7.9901 -2.9986 0.9663
0.6256 -8.0059 -2.9986 0.9663
1.3357 -7.9184 -2.9986 0.9663
2.0351 -7.7680 -2.9986 0.9663
3.3802 -7.2840 -2.9985 0.9663
4.0151 -6.9542 -2.9985 0.9663
4.6181 -6.5692 -2.9985 0.9663
5.1844 -6.1321 -2.9985 0.9663
5.7096 -5.6463 -2.9985 0.9663
6.1895 -5.1157 -2.9985 0.9663
6.9984 -3.9372 -2.9984 0.9663
7.3210 -3.2987 -2.9984 0.9663
7.5855 -2.6340 -2.9984 0.9663
7.7899 -1.9484 -2.9984 0.9663
7.9323 -1.2473 -2.9984 0.9663
8.0119 -0.5363 -2.9984 0.9663
8.0278 0.1789 -2.9984 0.9663
7.9800 0.8927 -2.9984 0.9663
7.8689 1.5995 -2.9984 0.9663
7.4606 2.9693 -2.9984 0.9663
7.1668 3.6215 -2.9984 0.9663
5.6527 5.1126 -2.8461 0.9680
4.6567 6.0339 -2.8461 0.9680
2.8972 7.0499 -2.8461 0.9680
-1.1000 7.5425 -2.8462 0.9680
-3.0537 6.9840 -2.8463 0.9680
-3.6632 6.6845 -2.8463 0.9680
-4.2436 6.3319 -2.8463 0.9680
-6.5179 4.6914 -2.9987 0.9663
-7.6408 0.0001 -2.9988 0.9677
-7.6105 -0.6800 -2.9988 0.9677
-7.5197 -1.3547 -2.9988 0.9677
-7.3693 -2.0187 -2.9988 0.9677
-7.1604 -2.6665 -2.9988 0.9677
-6.8946 -3.2932 -2.9988 0.9677
-6.5741 -3.8938 -2.9988 0.9677
-5.7795 -4.9977 -2.9988 0.9677
-5.3117 -5.4923 -2.9987 0.9677
-4.8018 -5.9432 -2.9987 0.9677
-4.2538 -6.3470 -2.9987 0.9677
-2.4257 -7.2452 -2.9987 0.9677
-1.7712 -7.4323 -2.9987 0.9677
-1.1027 -7.5604 -2.9987 0.9677
-0.4254 -7.6285 -2.9986 0.9677
0.2553 -7.6361 -2.9986 0.9677
0.9339 -7.5830 -2.9986 0.9677
1.6052 -7.4697 -2.9986 0.9677
2.2636 -7.2972 -2.9986 0.9677
2.9041 -7.0667 -2.9986 0.9677
3.5215 -6.7802 -2.9985 0.9677
4.1110 -6.4398 -2.9985 0.9677
4.6679 -6.0483 -2.9985 0.9677
5.1876 -5.6088 -2.9985 0.9677
5.6662 -5.1248 -2.9985 0.9677
6.0999 -4.6001 -2.9985 0.9677
6.4851 -4.0389 -2.9985 0.9677
7.0984 -2.8251 -2.9984 0.9677
7.3216 -2.1820 -2.9984 0.9677
7.4868 -1.5217 -2.9984 0.9677
7.6380 -0.1702 -2.9984 0.9677
7.6228 0.5103 -2.9984 0.9677
7.5471 1.1868 -2.9984 0.9677
7.2171 2.5061 -2.9984 0.9677
8.3437 6.8962 -4.2484 0.9546
5.1562 5.0991 -2.8461 0.9693
4.1704 5.9325 -2.8461 0.9693
3.0525 6.5781 -2.8461 0.9693
1.2062 7.1509 -2.8462 0.9693
-1.3652 7.1224 -2.8462 0.9693
-2.6065 6.7676 -2.8462 0.9693
-3.7651 6.1983 -2.8463 0.9693
-4.3019 5.8386 -2.8463 0.9693
-4.8045 5.4326 -2.8463 0.9693
-5.2690 4.9834 -2.8463 0.9693
-5.9810 4.7232 -2.9911 0.9678
-6.3941 4.1829 -2.9987 0.9677
-7.2720 2.3450 -2.9988 0.9677
-7.4519 1.6884 -2.9988 0.9677
-7.5726 1.0185 -2.9988 0.9677
-7.6332 -0.3404 -2.9988 0.9677
-7.2721 -2.3449 -2.9988 0.9677
-7.0345 -2.9828 -2.9988 0.9677
-6.3941 -4.1828 -2.9988 0.9677
-5.5512 -5.2502 -2.9988 0.9677
-3.9668 -6.5302 -2.9987 0.9677
-3.3698 -6.8573 -2.9987 0.9677
-2.1006 -7.3460 -2.9987 0.9677
-1.4384 -7.5038 -2.9987 0.9677
0.5952 -7.6171 -2.9986 0.9677
3.2160 -6.9303 -2.9985 0.9677
3.8201 -6.6165 -2.9985 0.9677
4.3938 -6.2502 -2.9985 0.9677
6.2987 -4.3238 -2.9985 0.9677
7.4116 -1.8537 -2.9984 0.9677
7.3216 2.1821 -2.9984 0.9677
6.8187 3.4457 -2.9984 0.9677
6.4850 4.0389 -2.9984 0.9677
8.0282 7.2610 -4.2484 0.9546
4.4306 5.7409 -2.8461 0.9693
3.9020 6.1124 -2.8461 0.9693
2.7565 6.7075 -2.8461 0.9693
2.1485 6.9263 -2.8461 0.9693
0.8865 7.1976 -2.8462 0.9693
-0.4037 7.2408 -2.8462 0.9693
-2.3024 6.8770 -2.8462 0.9693
-2.9054 6.6448 -2.8463 0.9693
-5.0417 5.2132 -2.8463 0.9693
-5.4983 4.7546 -2.8528 0.9692
-6.2014 4.4635 -2.9987 0.9677
-6.5741 3.8938 -2.9988 0.9677
-7.3693 2.0187 -2.9988 0.9677
-7.2825 0.0001 -2.9988 0.9690
-6.8246 -2.5415 -2.9988 0.9690
-5.9106 -4.2542 -2.9988 0.9690
-4.5766 -5.6645 -2.9987 0.9690
-3.4997 -6.3862 -2.9987 0.9690
-2.3120 -6.9054 -2.9987 0.9690
-1.6882 -7.0838 -2.9987 0.9690
-0.4054 -7.2708 -2.9986 0.9690
0.2433 -7.2780 -2.9986 0.9690
0.8901 -7.2274 -2.9986 0.9690
1.5299 -7.1195 -2.9986 0.9690
2.1575 -6.9550 -2.9986 0.9690
2.7679 -6.7353 -2.9986 0.9690
3.3564 -6.4622 -2.9985 0.9690
3.9182 -6.1378 -2.9985 0.9690
5.4005 -4.8844 -2.9985 0.9690
6.9783 -2.0798 -2.9984 0.9690
7.1357 -1.4504 -2.9984 0.9690
7.2798 -0.1622 -2.9984 0.9690
7.2653 0.4864 -2.9984 0.9690
7.0640 1.7669 -2.9984 0.9690
7.3359 7.2546 -4.2484 0.9564
4.4623 5.2781 -2.8461 0.9705
3.4558 5.9857 -2.8461 0.9705
2.3398 6.5037 -2.8461 0.9705
1.1496 6.8156 -2.8462 0.9705
-0.6919 6.8773 -2.8462 0.9705
-2.4842 6.4502 -2.8462 0.9705
-4.1001 5.5648 -2.8463 0.9705
-5.0286 4.7560 -2.8501 0.9705
-5.7152 4.5133 -2.9987 0.9690
-6.0942 3.9867 -2.9987 0.9690
-6.4249 3.4285 -2.9988 0.9690
-6.9310 2.2350 -2.9988 0.9690
-7.1024 1.6092 -2.9988 0.9690
-7.2175 -0.9706 -2.9988 0.9690
-7.1024 -1.6092 -2.9988 0.9690
-6.7046 -2.8429 -2.9988 0.9690
-6.4249 -3.4284 -2.9988 0.9690
-6.0943 -3.9866 -2.9988 0.9690
-5.2908 -5.0040 -2.9987 0.9690
-3.7808 -6.2239 -2.9987 0.9690
-3.2118 -6.5357 -2.9987 0.9690
-1.3709 -7.1519 -2.9987 0.9690
1.2112 -7.1805 -2.9986 0.9690
2.4651 -6.8520 -2.9986 0.9690
3.0652 -6.6053 -2.9986 0.9690
4.1878 -5.9571 -2.9985 0.9690
4.7013 -5.5607 -2.9985 0.9690
5.1776 -5.1202 -2.9985 0.9690
6.6389 -2.9913 -2.9985 0.9690
6.8788 -2.3885 -2.9984 0.9690
7.1932 -1.1311 -2.9984 0.9690
7.2654 -0.4863 -2.9984 0.9690
7.1357 1.4504 -2.9984 0.9690
6.9783 2.0798 -2.9984 0.9690
6.7655 2.6926 -2.9984 0.9690
6.1809 3.8496 -2.9984 0.9690
8.2373 6.2120 -4.2484 0.9564
4.6930 5.0741 -2.8461 0.9705
4.2228 5.4717 -2.8461 0.9705
3.7191 5.8258 -2.8461 0.9705
3.1858 6.1337 -2.8461 0.9705
2.6272 6.3930 -2.8461 0.9705
2.0478 6.6015 -2.8461 0.9705
1.4521 6.7576 -2.8462 0.9705
-0.3848 6.9012 -2.8462 0.9705
-0.9975 6.8396 -2.8462 0.9705
-2.7691 6.3332 -2.8463 0.9705
-3.3218 6.0616 -2.8463 0.9705
-3.8482 5.7419 -2.8463 0.9705
-4.3440 5.3766 -2.8463 0.9705
-4.8053 4.9687 -2.8463 0.9705
-5.4639 4.7249 -2.9745 0.9692
-5.9106 4.2542 -2.9987 0.9690
-6.2658 3.7112 -2.9987 0.9690
-6.5712 3.1388 -2.9988 0.9690
-6.8245 2.5415 -2.9988 0.9690
-7.0237 1.9240 -2.9988 0.9690
-6.9519 0.0000 -2.9988 0.9702
-6.9244 -0.6187 -2.9988 0.9702
-6.2730 -2.9963 -2.9988 0.9702
-5.6424 -4.0611 -2.9988 0.9702
-5.2585 -4.5472 -2.9987 0.9702
-3.8703 -5.7748 -2.9987 0.9702
-3.3409 -6.0963 -2.9987 0.9702
-2.7850 -6.3695 -2.9987 0.9702
-1.6115 -6.7623 -2.9987 0.9702
-1.0033 -6.8788 -2.9986 0.9702
-0.3870 -6.9408 -2.9986 0.9702
0.8497 -6.8994 -2.9986 0.9702
2.0596 -6.6394 -2.9986 0.9702
2.6423 -6.4296 -2.9986 0.9702
3.7404 -5.8592 -2.9985 0.9702
4.2471 -5.5030 -2.9985 0.9702
4.7200 -5.1032 -2.9985 0.9702
5.1554 -4.6628 -2.9985 0.9702
5.5500 -4.1854 -2.9985 0.9702
5.9005 -3.6748 -2.9985 0.9702
6.2041 -3.1350 -2.9985 0.9702
6.6616 -1.9854 -2.9985 0.9702
6.8119 -1.3845 -2.9984 0.9702
6.9081 -0.7728 -2.9984 0.9702
6.9494 -0.1548 -2.9984 0.9702
6.9356 0.4643 -2.9984 0.9702
6.5666 2.2802 -2.9984 0.9702
6.0583 3.4083 -2.9985 0.9702
5.7309 3.9340 -2.9985 0.9702
7.0029 6.9254 -4.2484 0.9580
4.2598 5.0386 -2.8461 0.9717
3.7945 5.3978 -2.8461 0.9717
2.7773 5.9851 -2.8461 0.9717
1.6722 6.3827 -2.8461 0.9717
1.0975 6.5063 -2.8462 0.9717
0.5140 6.5782 -2.8462 0.9717
-0.6605 6.5652 -2.8462 0.9717
-1.8140 6.3441 -2.8462 0.9717
-2.3715 6.1575 -2.8462 0.9717
-2.9101 5.9220 -2.8463 0.9717
-4.9959 4.7251 -2.9662 0.9705
-5.4558 4.3084 -2.9987 0.9702
-5.8176 3.8058 -2.9987 0.9702
-6.1333 3.2729 -2.9987 0.9702
-6.6164 2.1336 -2.9988 0.9702
-6.7801 1.5362 -2.9988 0.9702
-6.8899 0.9266 -2.9988 0.9702
-6.9450 0.3097 -2.9988 0.9702
-6.9450 -0.3096 -2.9988 0.9702
-6.4003 -2.7139 -2.9988 0.9702
-5.0507 -4.7769 -2.9987 0.9702
-4.6055 -5.2074 -2.9987 0.9702
-4.1237 -5.5967 -2.9987 0.9702
-3.0660 -6.2391 -2.9987 0.9702
-2.4985 -6.4872 -2.9987 0.9702
-0.6958 -6.9167 -2.9986 0.9702
-0.0774 -6.9511 -2.9986 0.9702
1.7618 -6.7245 -2.9986 0.9702
3.9977 -5.6868 -2.9985 0.9702
4.9426 -4.8878 -2.9985 0.9702
5.7309 -3.9340 -2.9985 0.9702
6.3376 -2.8555 -2.9985 0.9702
6.5666 -2.2801 -2.9985 0.9702
6.7435 -1.6866 -2.9984 0.9702
6.9494 0.1549 -2.9984 0.9702
6.8119 1.3846 -2.9984 0.9702
6.4585 2.5704 -2.9984 0.9702
5.9004 3.6749 -2.9985 0.9702
5.5499 4.1854 -2.9985 0.9702
6.6875 7.2304 -4.2484 0.9580
3.5503 5.5614 -2.8461 0.9717
3.0412 5.8554 -2.8461 0.9717
1.9549 6.3019 -2.8461 0.9717
0.2205 6.5946 -2.8462 0.9717
-0.9523 6.5292 -2.8462 0.9717
-1.5296 6.4186 -2.8462 0.9717
-2.6434 6.0458 -2.8463 0.9717
-3.6735 5.4813 -2.8463 0.9717
-4.1468 5.1326 -2.8463 0.9717
-4.5965 4.7529 -2.8521 0.9716
-5.2584 4.5472 -2.9987 0.9702
-5.9814 3.5428 -2.9987 0.9702
-6.7049 1.8367 -2.9988 0.9702
-6.8418 1.2326 -2.9988 0.9702
-6.9243 0.6188 -2.9988 0.9702
-6.6196 -0.5915 -2.9988 0.9713
-6.5407 -1.1783 -2.9988 0.9713
-6.4098 -1.7558 -2.9988 0.9713
-5.9969 -2.8645 -2.9988 0.9713
-4.6202 -4.7772 -2.9987 0.9713
-3.6999 -5.5206 -2.9987 0.9713
-3.1938 -5.8280 -2.9987 0.9713
-2.1099 -6.3019 -2.9987 0.9713
-1.5406 -6.4647 -2.9987 0.9713
-0.9591 -6.5761 -2.9986 0.9713
-0.3700 -6.6353 -2.9986 0.9713
0.2221 -6.6419 -2.9986 0.9713
0.8123 -6.5957 -2.9986 0.9713
1.9689 -6.3471 -2.9986 0.9713
3.5758 -5.6014 -2.9985 0.9713
5.6408 -3.5131 -2.9985 0.9713
5.9311 -2.9971 -2.9985 0.9713
6.1743 -2.4572 -2.9985 0.9713
6.6041 -0.7387 -2.9984 0.9713
6.6436 -0.1480 -2.9984 0.9713
5.7916 3.2584 -2.9985 0.9713
5.4786 3.7609 -2.9985 0.9713
6.6948 6.6205 -4.2484 0.9595
6.0790 7.1902 -4.2484 0.9595
3.1538 5.4626 -2.8461 0.9727
1.5986 6.1018 -2.8462 0.9727
1.0492 6.2199 -2.8462 0.9727
-0.0703 6.3075 -2.8462 0.9727
-0.6314 6.2762 -2.8462 0.9727
-1.1875 6.1951 -2.8462 0.9727
-1.7342 6.0649 -2.8462 0.9727
-2.2671 5.8865 -2.8462 0.9727
-2.7821 5.6613 -2.8463 0.9727
-3.2749 5.3913 -2.8463 0.9727
-3.7418 5.0784 -2.8463 0.9727
-6.1185 2.5945 -2.9987 0.9713
-6.3252 2.0396 -2.9988 0.9713
-6.5866 0.8858 -2.9988 0.9713
-6.5867 -0.8858 -2.9988 0.9713
-6.4817 -1.4685 -2.9988 0.9713
-6.3252 -2.0396 -2.9988 0.9713
-6.1186 -2.5945 -2.9988 0.9713
-5.5616 -3.6382 -2.9987 0.9713
-5.2157 -4.1188 -2.9987 0.9713
-3.9422 -5.3503 -2.9987 0.9713
-3.4503 -5.6799 -2.9987 0.9713
-2.9311 -5.9645 -2.9987 0.9713
-1.2511 -6.5268 -2.9987 0.9713
0.5177 -6.6254 -2.9986 0.9713
1.1054 -6.5530 -2.9986 0.9713
1.6842 -6.4286 -2.9986 0.9713
2.7973 -6.0280 -2.9986 0.9713
3.3227 -5.7551 -2.9985 0.9713
4.7251 -4.6727 -2.9985 0.9713
5.1222 -4.2336 -2.9985 0.9713
5.4787 -3.7609 -2.9985 0.9713
6.4467 -1.6124 -2.9985 0.9713
6.5646 -1.0322 -2.9985 0.9713
6.6304 -0.4438 -2.9984 0.9713
6.6040 0.7388 -2.9984 0.9713
6.1742 2.4573 -2.9985 0.9713
5.9310 2.9971 -2.9985 0.9713
5.3057 4.0012 -2.9985 0.9713
6.9830 6.3158 -4.2484 0.9595
3.8538 4.9935 -2.8461 0.9727
2.3976 5.8343 -2.8461 0.9727
1.3252 6.1670 -2.8462 0.9727
0.7711 6.2605 -2.8462 0.9727
0.2108 6.3043 -2.8462 0.9727
-0.3512 6.2981 -2.8462 0.9727
-2.0026 5.9816 -2.8462 0.9727
-3.0315 5.5318 -2.8463 0.9727
-3.9643 4.9067 -2.8463 0.9727
-5.0270 4.3470 -2.9987 0.9713
-5.7181 3.3869 -2.9987 0.9713
-5.9969 2.8645 -2.9987 0.9713
-6.2281 2.3194 -2.9987 0.9713
-6.4098 1.7559 -2.9988 0.9713
-6.5406 1.1784 -2.9988 0.9713
-6.3617 0.0000 -2.9988 0.9723
-6.3365 -0.5662 -2.9988 0.9723
-3.9980 -4.9483 -2.9987 0.9723
-3.5418 -5.2845 -2.9987 0.9723
-2.0197 -6.0324 -2.9987 0.9723
-1.4747 -6.1881 -2.9987 0.9723
-0.9181 -6.2948 -2.9986 0.9723
-0.3542 -6.3515 -2.9986 0.9723
0.2126 -6.3578 -2.9986 0.9723
1.3365 -6.2193 -2.9986 0.9723
2.9321 -5.6452 -2.9986 0.9723
3.4229 -5.3618 -2.9985 0.9723
4.3193 -4.6699 -2.9985 0.9723
4.7178 -4.2670 -2.9985 0.9723
5.0788 -3.8301 -2.9985 0.9723
5.3995 -3.3628 -2.9985 0.9723
5.6774 -2.8689 -2.9985 0.9723
5.9102 -2.3522 -2.9985 0.9723
6.0961 -1.8168 -2.9985 0.9723
6.3216 -0.7071 -2.9985 0.9723
6.1710 1.5435 -2.9985 0.9723
5.7995 2.6132 -2.9985 0.9723
4.9031 4.0526 -2.9985 0.9723
6.4084 6.3374 -4.2484 0.9609
5.8190 6.8827 -4.2484 0.9609
3.4724 4.9395 -2.8461 0.9737
2.0440 5.6815 -2.8461 0.9737
1.5302 5.8409 -2.8462 0.9737
1.0043 5.9539 -2.8462 0.9737
-0.6044 6.0078 -2.8462 0.9737
-1.1367 5.9302 -2.8462 0.9737
-1.6600 5.8055 -2.8462 0.9737
-2.1702 5.6347 -2.8462 0.9737
-2.6631 5.4192 -2.8463 0.9737
-3.5818 4.8612 -2.8463 0.9737
-4.1760 4.7219 -2.9714 0.9725
-4.6218 4.3713 -2.9987 0.9723
-4.9926 3.9426 -2.9987 0.9723
-5.6126 2.9950 -2.9987 0.9723
-5.8569 2.4836 -2.9987 0.9723
-6.0547 1.9524 -2.9987 0.9723
-6.3049 0.8479 -2.9988 0.9723
-6.3554 0.2834 -2.9988 0.9723
-6.3049 -0.8479 -2.9988 0.9723
-6.2044 -1.4057 -2.9988 0.9723
-6.0547 -1.9524 -2.9988 0.9723
-5.6126 -2.9949 -2.9987 0.9723
-4.6219 -4.3713 -2.9987 0.9723
-4.2145 -4.7653 -2.9987 0.9723
-3.7736 -5.1215 -2.9987 0.9723
-3.3027 -5.4371 -2.9987 0.9723
-2.8057 -5.7094 -2.9987 0.9723
-1.7489 -6.1163 -2.9987 0.9723
-1.1976 -6.2477 -2.9987 0.9723
-0.6368 -6.3295 -2.9986 0.9723
-0.0709 -6.3610 -2.9986 0.9723
0.4956 -6.3420 -2.9986 0.9723
1.0581 -6.2727 -2.9986 0.9723
3.6584 -5.2040 -2.9985 0.9723
4.1070 -4.8577 -2.9985 0.9723
4.5230 -4.4729 -2.9985 0.9723
4.9032 -4.0525 -2.9985 0.9723
5.2444 -3.6000 -2.9985 0.9723
5.5440 -3.1189 -2.9985 0.9723
6.3469 -0.4248 -2.9985 0.9723
6.3595 0.1418 -2.9985 0.9723
6.2336 1.2671 -2.9985 0.9723
5.0788 3.8301 -2.9985 0.9723
6.6844 6.0457 -4.2484 0.9609
6.1198 6.6166 -4.2484 0.9609
5.5066 7.1351 -4.2485 0.9609
2.7830 5.3583 -2.8461 0.9737
1.7889 5.7669 -2.8461 0.9737
0.7381 5.9928 -2.8462 0.9737
0.2018 6.0347 -2.8462 0.9737
-0.3362 6.0287 -2.8462 0.9737
-1.3998 5.8737 -2.8462 0.9737
-2.9018 5.2952 -2.8463 0.9737
-3.8291 4.7394 -2.8720 0.9734
-4.4225 4.5729 -2.9987 0.9723
-4.8120 4.1611 -2.9987 0.9723
-6.0968 0.0001 -2.9988 0.9732
-5.5014 -2.6278 -2.9987 0.9732
-4.6117 -3.9878 -2.9987 0.9732
-4.2384 -4.3825 -2.9987 0.9732
-3.8315 -4.7423 -2.9987 0.9732
-2.9300 -5.3465 -2.9987 0.9732
-2.4425 -5.5860 -2.9987 0.9732
-1.4133 -5.9305 -2.9987 0.9732
-0.8799 -6.0327 -2.9986 0.9732
-0.3394 -6.0871 -2.9986 0.9732
0.2037 -6.0931 -2.9986 0.9732
0.7452 -6.0508 -2.9986 0.9732
1.2808 -5.9604 -2.9986 0.9732
2.8100 -5.4102 -2.9986 0.9732
3.2804 -5.1386 -2.9985 0.9732
3.7247 -4.8262 -2.9985 0.9732
5.4410 -2.7495 -2.9985 0.9732
5.8423 -1.7412 -2.9985 0.9732
6.0584 -0.6777 -2.9985 0.9732
6.0947 -0.1358 -2.9985 0.9732
5.9141 1.4792 -2.9985 0.9732
5.7589 1.9997 -2.9985 0.9732
5.5581 2.5044 -2.9985 0.9732
5.5767 6.5961 -4.2485 0.9622
4.9675 7.0663 -4.2485 0.9622
2.4358 5.2489 -2.8461 0.9745
1.9589 5.4449 -2.8461 0.9745
1.4665 5.5977 -2.8462 0.9745
-0.5792 5.7577 -2.8462 0.9745
-1.0894 5.6833 -2.8462 0.9745
-4.0389 4.5670 -2.9987 0.9732
-4.4294 4.1894 -2.9987 0.9732
-4.7847 3.7785 -2.9987 0.9732
-5.1020 3.3376 -2.9987 0.9732
-5.3789 2.8703 -2.9987 0.9732
-6.0424 0.8127 -2.9987 0.9732
-6.0908 -0.2715 -2.9988 0.9732
-5.9461 -1.3472 -2.9988 0.9732
-5.6130 -2.3801 -2.9987 0.9732
-5.3789 -2.8702 -2.9987 0.9732
-5.1021 -3.3376 -2.9987 0.9732
-4.7848 -3.7784 -2.9987 0.9732
-4.0390 -4.5669 -2.9987 0.9732
-2.6889 -5.4717 -2.9987 0.9732
-2.1912 -5.6893 -2.9987 0.9732
-1.6761 -5.8617 -2.9987 0.9732
-1.1477 -5.9876 -2.9987 0.9732
0.4749 -6.0779 -2.9986 0.9732
1.0140 -6.0116 -2.9986 0.9732
2.5662 -5.5300 -2.9986 0.9732
3.0482 -5.2796 -2.9985 0.9732
3.9360 -4.6555 -2.9985 0.9732
4.3347 -4.2867 -2.9985 0.9732
5.0260 -3.4502 -2.9985 0.9732
5.3132 -2.9891 -2.9985 0.9732
5.5581 -2.5043 -2.9985 0.9732
5.7590 -1.9997 -2.9985 0.9732
6.0826 -0.4071 -2.9985 0.9732
6.0584 0.6778 -2.9985 0.9732
5.8423 1.7412 -2.9985 0.9732
5.4410 2.7495 -2.9985 0.9732
5.1747 3.2229 -2.9985 0.9732
4.5213 4.0893 -2.9985 0.9732
5.8650 6.3412 -4.2484 0.9622
1.2157 5.6575 -2.8462 0.9745
0.1934 5.7834 -2.8462 0.9745
-0.3222 5.7777 -2.8462 0.9745
-0.8351 5.7262 -2.8462 0.9745
-1.3415 5.6291 -2.8462 0.9745
-1.8372 5.4874 -2.8462 0.9745
-2.3183 5.3021 -2.8462 0.9745
-2.7810 5.0748 -2.8463 0.9745
-3.2217 4.8071 -2.8463 0.9745
-3.8123 4.7186 -2.9837 0.9733
-4.6116 3.9879 -2.9987 0.9732
-5.2457 3.1071 -2.9987 0.9732
-5.7135 2.1278 -2.9987 0.9732
-5.8802 1.6108 -2.9987 0.9732
-5.6414 -1.5453 -2.9987 0.9741
-5.2781 -2.5211 -2.9987 0.9741
-4.4244 -3.8259 -2.9987 0.9741
-3.6760 -4.5497 -2.9987 0.9741
-3.2564 -4.8588 -2.9987 0.9741
-2.8110 -5.1294 -2.9987 0.9741
-1.8570 -5.5465 -2.9987 0.9741
-1.3559 -5.6897 -2.9987 0.9741
-0.8441 -5.7878 -2.9986 0.9741
0.1954 -5.8457 -2.9986 0.9741
2.2232 -5.4099 -2.9986 0.9741
3.1472 -4.9299 -2.9985 0.9741
4.3378 -3.9233 -2.9985 0.9741
4.6698 -3.5216 -2.9985 0.9741
5.4342 -2.1627 -2.9985 0.9741
5.7315 -1.1650 -2.9985 0.9741
5.8473 -0.1303 -2.9985 0.9741
5.5251 1.9186 -2.9985 0.9741
5.3324 2.4027 -2.9985 0.9741
4.8220 3.3101 -2.9985 0.9741
4.1587 4.1126 -2.9985 0.9741
4.7658 6.7794 -4.2485 0.9634
1.4070 5.3704 -2.8462 0.9754
0.9234 5.4744 -2.8462 0.9754
-0.0619 5.5514 -2.8462 0.9754
-0.5557 5.5239 -2.8462 0.9754
-1.9954 5.1809 -2.8462 0.9754
-2.4486 4.9827 -2.8463 0.9754
-2.8857 4.7506 -2.8496 0.9753
-3.4696 4.7090 -2.9987 0.9741
-4.8949 3.2021 -2.9987 0.9741
-5.3851 2.2835 -2.9987 0.9741
-5.5670 1.7952 -2.9987 0.9741
-5.7047 1.2926 -2.9987 0.9741
-5.8435 -0.2605 -2.9987 0.9740
-5.3851 -2.2834 -2.9987 0.9741
-4.8949 -3.2021 -2.9987 0.9741
-4.5905 -3.6250 -2.9987 0.9741
-3.8750 -4.3815 -2.9987 0.9741
-3.4696 -4.7089 -2.9987 0.9741
-3.0367 -4.9991 -2.9987 0.9741
-1.1011 -5.7445 -2.9986 0.9741
-0.5855 -5.8197 -2.9986 0.9741
-0.0652 -5.8486 -2.9986 0.9741
1.9800 -5.5036 -2.9986 0.9741
2.9244 -5.0653 -2.9986 0.9741
3.3637 -4.7848 -2.9985 0.9741
3.7762 -4.4664 -2.9985 0.9741
4.5082 -3.7262 -2.9985 0.9741
4.8220 -3.3101 -2.9985 0.9741
5.3325 -2.4027 -2.9985 0.9741
5.5251 -1.9185 -2.9985 0.9741
5.6740 -1.4191 -2.9985 0.9741
5.8357 -0.3906 -2.9985 0.9741
5.7315 1.1650 -2.9985 0.9741
4.9646 3.0921 -2.9985 0.9741
4.6697 3.5216 -2.9985 0.9741
4.3378 3.9233 -2.9985 0.9741
5.6269 6.0837 -4.2485 0.9634
4.4591 6.9850 -4.2485 0.9634
2.1102 5.1350 -2.8461 0.9754
1.6448 5.3024 -2.8462 0.9754
1.1663 5.4278 -2.8462 0.9754
0.6786 5.5101 -2.8462 0.9754
0.1855 5.5486 -2.8462 0.9754
-1.7626 5.2646 -2.8462 0.9754
-2.2242 5.0868 -2.8462 0.9754
-2.6681 4.8687 -2.8463 0.9754
-3.1693 4.7289 -2.9185 0.9747
-3.6759 4.5498 -2.9987 0.9741
-5.4815 2.0414 -2.9987 0.9741
-5.6414 1.5454 -2.9987 0.9741
-5.7566 1.0371 -2.9987 0.9741
-5.5950 -0.4999 -2.9987 0.9749
-5.5283 -0.9959 -2.9987 0.9749
-5.0687 -2.4211 -2.9987 0.9749
-4.5591 -3.2814 -2.9987 0.9749
-2.6995 -4.9259 -2.9987 0.9749
-2.2503 -5.1466 -2.9987 0.9749
-0.8107 -5.5583 -2.9986 0.9749
-0.3127 -5.6083 -2.9986 0.9749
0.1877 -5.6139 -2.9986 0.9749
0.6866 -5.5748 -2.9986 0.9749
1.6642 -5.3648 -2.9986 0.9749
2.1351 -5.1953 -2.9986 0.9749
2.5890 -4.9846 -2.9986 0.9749
3.0224 -4.7344 -2.9985 0.9749
3.4317 -4.4466 -2.9985 0.9749
4.1657 -3.7677 -2.9985 0.9749
4.4845 -3.3819 -2.9985 0.9749
4.7677 -2.9693 -2.9985 0.9749
5.0131 -2.5332 -2.9985 0.9749
5.5819 -0.6244 -2.9985 0.9749
5.6154 -0.1251 -2.9985 0.9749
5.6042 0.3752 -2.9985 0.9749
5.5486 0.8725 -2.9985 0.9749
5.3060 1.8425 -2.9985 0.9749
4.6307 3.1788 -2.9985 0.9749
4.3294 3.5784 -2.9985 0.9749
3.9938 3.9496 -2.9985 0.9749
5.1381 6.0774 -4.2485 0.9646
4.5768 6.5105 -4.2485 0.9646
3.3499 7.2189 -4.2485 0.9646
1.8048 5.0167 -2.8461 0.9761
0.4153 5.3153 -2.8462 0.9761
-1.0037 5.2363 -2.8462 0.9761
-2.3514 4.7851 -2.8462 0.9761
-3.7213 4.2077 -2.9987 0.9749
-4.4084 3.4813 -2.9987 0.9749
-4.7007 3.0751 -2.9987 0.9749
-4.9558 2.6445 -2.9987 0.9749
-5.1715 2.1929 -2.9987 0.9749
-5.4784 1.2413 -2.9987 0.9749
-5.6117 -0.2502 -2.9987 0.9749
-5.4784 -1.2412 -2.9987 0.9749
-5.1715 -2.1929 -2.9987 0.9749
-4.9558 -2.6445 -2.9987 0.9749
-4.7008 -3.0751 -2.9987 0.9749
-4.4084 -3.4812 -2.9987 0.9749
-4.0810 -3.8598 -2.9987 0.9749
-3.7213 -4.2077 -2.9987 0.9749
-3.3320 -4.5222 -2.9987 0.9749
-2.9163 -4.8008 -2.9987 0.9749
-2.4774 -5.0413 -2.9987 0.9749
-2.0188 -5.2418 -2.9987 0.9749
-1.5443 -5.4006 -2.9987 0.9749
-0.5622 -5.5888 -2.9986 0.9749
-0.0626 -5.6167 -2.9986 0.9749
0.4376 -5.5999 -2.9986 0.9749
1.4235 -5.4336 -2.9986 0.9749
1.9015 -5.2853 -2.9986 0.9749
3.2303 -4.5950 -2.9985 0.9749
3.6264 -4.2893 -2.9985 0.9749
4.6307 -3.1788 -2.9985 0.9749
5.1210 -2.3073 -2.9985 0.9749
5.3060 -1.8424 -2.9985 0.9749
5.6154 0.1252 -2.9985 0.9749
5.5819 0.6245 -2.9985 0.9749
5.3828 1.6043 -2.9985 0.9749
5.2186 2.0770 -2.9985 0.9749
4.7677 2.9694 -2.9985 0.9749
4.1657 3.7677 -2.9985 0.9749
3.6682 7.0625 -4.2485 0.9646
0.1781 5.3286 -2.8462 0.9761
-0.7694 5.2758 -2.8462 0.9761
-1.6927 5.0558 -2.8462 0.9761
-2.1360 4.8851 -2.8462 0.9761
-2.5944 4.7341 -2.8819 0.9758
-3.1272 4.6662 -2.9987 0.9749
-3.9050 4.0378 -2.9987 0.9749
-4.2489 3.6742 -2.9987 0.9749
-4.5591 3.2815 -2.9987 0.9749
-5.2641 1.9604 -2.9987 0.9749
-5.4177 1.4841 -2.9987 0.9749
-5.2074 -1.4264 -2.9987 0.9756
-5.0598 -1.8843 -2.9987 0.9756
-4.6455 -2.7515 -2.9987 0.9756
-4.3822 -3.1541 -2.9987 0.9756
-4.0840 -3.5316 -2.9987 0.9756
-3.7535 -3.8811 -2.9987 0.9756
-3.0059 -4.4850 -2.9987 0.9756
-2.5947 -4.7348 -2.9987 0.9756
-1.7141 -5.1198 -2.9987 0.9756
-0.7792 -5.3425 -2.9986 0.9756
-0.3006 -5.3907 -2.9986 0.9756
0.6600 -5.3585 -2.9986 0.9756
1.1343 -5.2785 -2.9986 0.9756
1.5996 -5.1566 -2.9986 0.9756
2.4885 -4.7912 -2.9986 0.9756
2.9051 -4.5507 -2.9985 0.9756
4.0041 -3.6214 -2.9985 0.9756
4.3105 -3.2507 -2.9985 0.9756
4.8186 -2.4349 -2.9985 0.9756
5.0162 -1.9964 -2.9985 0.9756
5.1739 -1.5420 -2.9985 0.9756
5.3653 -0.6002 -2.9985 0.9756
5.1001 1.7710 -2.9985 0.9756
4.7053 2.6472 -2.9985 0.9756
4.4510 3.0555 -2.9985 0.9756
3.4857 4.1229 -2.9985 0.9756
4.3992 6.2579 -4.2485 0.9656
0.8524 5.0532 -2.8462 0.9768
-0.9648 5.0331 -2.8462 0.9768
-1.8421 4.7823 -2.8462 0.9768
-3.2027 4.3468 -2.9987 0.9756
-4.2373 3.3462 -2.9987 0.9756
-4.9708 2.1079 -2.9987 0.9756
-5.2658 1.1931 -2.9987 0.9756
-5.3511 0.7197 -2.9987 0.9756
-5.3939 0.2406 -2.9987 0.9756
-5.3939 -0.2405 -2.9987 0.9756
-5.1387 -1.6570 -2.9987 0.9756
-4.5183 -2.9557 -2.9987 0.9756
-3.9227 -3.7100 -2.9987 0.9756
0.8980 -5.3238 -2.9986 0.9756
1.3683 -5.2227 -2.9986 0.9756
2.6995 -4.6756 -2.9986 0.9756
3.4857 -4.1229 -2.9985 0.9756
3.8388 -3.7962 -2.9985 0.9756
4.1614 -3.4395 -2.9985 0.9756
4.4510 -3.0554 -2.9985 0.9756
4.9223 -2.2178 -2.9985 0.9756
5.1001 -1.7709 -2.9985 0.9756
5.3868 -0.3606 -2.9985 0.9756
5.3975 0.1203 -2.9985 0.9756
5.3653 0.6002 -2.9985 0.9756
5.2906 1.0754 -2.9985 0.9756
5.1739 1.5420 -2.9985 0.9756
5.0161 1.9964 -2.9985 0.9756
4.8186 2.4350 -2.9985 0.9756
4.5827 2.8542 -2.9985 0.9756
4.3105 3.2508 -2.9985 0.9756
3.6659 3.9635 -2.9985 0.9756
4.1160 6.4477 -4.2485 0.9656
3.5258 6.7885 -4.2485 0.9656
1.5183 4.8945 -2.8462 0.9768
0.1712 5.1218 -2.8462 0.9768
-1.1880 4.9851 -2.8462 0.9768
-1.6270 4.8596 -2.8462 0.9768
-2.0703 4.7349 -2.8701 0.9766
-2.5837 4.7148 -2.9860 0.9757
-3.0058 4.4851 -2.9987 0.9756
-3.3931 4.1998 -2.9987 0.9756
-4.0840 3.5316 -2.9987 0.9756
-4.6455 2.7516 -2.9987 0.9756
-5.2074 1.4265 -2.9987 0.9756
-5.3778 0.4806 -2.9987 0.9756
-5.1733 -0.4623 -2.9987 0.9763
-5.1117 -0.9209 -2.9987 0.9763
-5.0094 -1.3722 -2.9987 0.9763
