ply
format ascii 1.0
element vertex 1584
property float32 x
property float32 y
property float32 z
property float32 I
end_header
-1.7681 -6.1835 1.2446 0.9741
-3.5849 -5.3490 1.1354 0.9742
-1.9229 -5.7435 1.0680 0.9757
-2.6094 -5.3099 1.0432 0.9763
-2.1372 -5.5491 1.0485 0.9761
-1.7241 -6.0296 1.1058 0.9748
-3.5188 -5.2504 1.0065 0.9747
-2.8468 -5.1947 0.9433 0.9763
-2.3414 -5.3549 0.9306 0.9766
-1.5229 -6.3904 1.0461 0.9737
-4.1116 -5.5803 1.1037 0.9723
-3.1469 -5.1804 0.9652 0.9757
-2.1147 -5.4907 0.9369 0.9764
-2.8163 -5.1390 0.8335 0.9766
-3.9830 -5.4058 0.9551 0.9732
-2.5575 -5.2042 0.8248 0.9768
-2.0928 -5.4339 0.8282 0.9767
-3.4201 -5.1031 0.7698 0.9755
-1.8639 -5.5671 0.7357 0.9766
6.1919 7.3238 1.2018 0.9621
-3.8843 -5.2718 0.8206 0.9739
-3.0800 -5.0704 0.7435 0.9764
-2.5375 -5.1636 0.7210 0.9771
-1.6602 -5.8060 0.7568 0.9760
-3.3960 -5.0672 0.6616 0.9758
-2.7756 -5.0647 0.6264 0.9770
-1.4532 -6.0980 0.6799 0.9751
6.1906 7.3223 1.0400 0.9622
-2.5239 -5.1361 0.6207 0.9772
-2.0640 -5.3591 0.6229 0.9772
-1.6495 -5.7687 0.6508 0.9761
-1.2917 -6.7389 0.7442 0.9728
-3.3729 -5.0327 0.5554 0.9760
-2.7598 -5.0360 0.5265 0.9772
-2.2765 -5.2066 0.5210 0.9774
-1.8430 -5.5048 0.5322 0.9770
-1.4416 -6.0493 0.5701 0.9753
6.1893 7.3207 0.8789 0.9622
-2.5106 -5.1089 0.5219 0.9774
-1.2662 -6.6057 0.6166 0.9733
-2.2647 -5.1796 0.4236 0.9776
-1.4303 -6.0016 0.4624 0.9756
6.1880 7.3192 0.7183 0.9623
-3.7554 -5.0968 0.4744 0.9749
-2.4974 -5.0821 0.4244 0.9775
-1.6286 -5.6957 0.4439 0.9765
-1.2471 -6.5061 0.4964 0.9738
-2.7364 -4.9933 0.3316 0.9774
-2.2584 -5.1650 0.3283 0.9777
-1.8267 -5.4561 0.3351 0.9772
-1.4216 -5.9654 0.3572 0.9757
6.1867 7.3177 0.5581 0.9623
-3.7281 -5.0597 0.3661 0.9751
-3.0158 -4.9647 0.3383 0.9770
-2.4903 -5.0675 0.3289 0.9776
-1.6218 -5.6717 0.3436 0.9766
-1.2339 -6.4373 0.3818 0.9741
-3.3271 -4.9643 0.2485 0.9764
-2.2546 -5.1565 0.2340 0.9777
-1.8235 -5.4465 0.2388 0.9773
6.1855 7.3162 0.3984 0.9624
-3.7178 -5.0458 0.2606 0.9752
-3.0103 -4.9557 0.2411 0.9771
-2.4861 -5.0591 0.2344 0.9777
-2.0318 -5.2755 0.2351 0.9776
-1.2296 -6.4146 0.2716 0.9742
-2.7273 -4.9766 0.1415 0.9775
-2.2509 -5.1480 0.1401 0.9778
-1.8203 -5.4370 0.1430 0.9773
-1.4146 -5.9359 0.1522 0.9759
6.1842 7.3147 0.2389 0.9624
-3.0049 -4.9467 0.1443 0.9771
-2.4820 -5.0507 0.1403 0.9777
-2.0285 -5.2668 0.1408 0.9777
-1.2252 -6.3920 0.1623 0.9743
-3.3130 -4.9433 0.0495 0.9765
-2.7227 -4.9683 0.0471 0.9776
-1.8171 -5.4275 0.0476 0.9774
-1.4111 -5.9213 0.0506 0.9759
-3.6975 -5.0183 0.0518 0.9754
-2.4779 -5.0424 0.0467 0.9778
-2.0251 -5.2582 0.0468 0.9777
-4.2811 -5.2988 -0.0566 0.9731
-3.3132 -4.9436 -0.0495 0.9765
-2.2474 -5.1398 -0.0466 0.9778
-1.8172 -5.4278 -0.0476 0.9774
6.1816 7.3117 -0.0796 0.9624
-3.6977 -5.0186 -0.0518 0.9754
-1.2211 -6.3701 -0.0539 0.9744
-4.3161 -5.3421 -0.1713 0.9729
-2.7274 -4.9769 -0.1415 0.9775
-2.2510 -5.1483 -0.1401 0.9778
-1.8204 -5.4373 -0.1430 0.9773
-3.0050 -4.9469 -0.1443 0.9771
-2.0286 -5.2671 -0.1408 0.9777
-1.2253 -6.3925 -0.1623 0.9743
-3.3272 -4.9646 -0.2485 0.9764
-1.8236 -5.4468 -0.2388 0.9773
6.1791 7.3087 -0.3979 0.9624
-3.0105 -4.9559 -0.2411 0.9771
-2.0319 -5.2758 -0.2351 0.9776
-1.6186 -5.6607 -0.2448 0.9767
-1.2297 -6.4151 -0.2716 0.9742
-1.8268 -5.4564 -0.3351 0.9772
-1.4217 -5.9657 -0.3572 0.9757
6.1778 7.3072 -0.5573 0.9624
-3.7283 -5.0601 -0.3661 0.9751
-3.0160 -4.9650 -0.3383 0.9770
-2.0354 -5.2847 -0.3298 0.9776
-1.2340 -6.4379 -0.3818 0.9741
-3.3507 -4.9996 -0.4510 0.9761
-2.7451 -5.0092 -0.4281 0.9773
-2.2651 -5.1804 -0.4237 0.9776
-3.7562 -5.0979 -0.4745 0.9749
-2.4978 -5.0829 -0.4244 0.9775
-2.0418 -5.3014 -0.4257 0.9775
-1.6289 -5.6967 -0.4440 0.9765
-2.2769 -5.2073 -0.5210 0.9774
-1.4419 -6.0506 -0.5702 0.9753
-3.7895 -5.1431 -0.5857 0.9747
-2.5110 -5.1097 -0.5219 0.9774
-2.0530 -5.3304 -0.5237 0.9773
-1.2668 -6.6088 -0.6169 0.9733
-3.3966 -5.0681 -0.6618 0.9758
-1.8537 -5.5366 -0.6333 0.9768
-1.4535 -6.0992 -0.6801 0.9751
6.1740 7.3027 -1.0372 0.9623
-3.8235 -5.1893 -0.6991 0.9744
-1.2923 -6.7420 -0.7446 0.9728
-1.8642 -5.5680 -0.7358 0.9766
-1.4678 -6.1593 -0.7935 0.9748
-3.8866 -5.2749 -0.8211 0.9739
-2.5378 -5.1644 -0.7211 0.9771
-1.6605 -5.8070 -0.7569 0.9759
-2.8171 -5.1405 -0.8338 0.9766
-2.3190 -5.3038 -0.8233 0.9769
6.1714 7.2996 -1.3596 0.9621
-3.1111 -5.1216 -0.8524 0.9761
-2.5581 -5.2056 -0.8250 0.9768
-2.8476 -5.1962 -0.9435 0.9763
-2.3420 -5.3563 -0.9309 0.9766
6.1701 7.2981 -1.5218 0.9620
-4.1168 -5.5874 -1.1051 0.9723
-3.1479 -5.1821 -0.9655 0.9757
-1.7004 -5.9468 -0.9849 0.9753
-3.5874 -5.3527 -1.1362 0.9742
-2.8789 -5.2534 -1.0563 0.9760
-2.3656 -5.4103 -1.0412 0.9763
-2.6101 -5.3113 -1.0435 0.9762
-2.1378 -5.5506 -1.0488 0.9761
-1.7248 -6.0318 -1.1062 0.9748
-2.3959 -5.4795 -1.1573 0.9759
13.4079 6.0413 -2.8459 0.9418
12.8170 7.2108 -2.8459 0.9418
12.1244 8.3230 -2.8459 0.9418
10.4568 10.3410 -2.8460 0.9418
8.4578 12.0314 -2.8460 0.9418
7.3534 12.7366 -2.8460 0.9418
-0.1638 14.7069 -2.8462 0.9418
-1.4722 14.6341 -2.8462 0.9418
-4.0436 14.1416 -2.8463 0.9418
-5.2863 13.7256 -2.8463 0.9418
-6.4870 13.2008 -2.8464 0.9418
-10.6865 10.1072 -2.8465 0.9418
-11.5437 9.1160 -2.8465 0.9418
-12.3094 8.0525 -2.8465 0.9418
-13.5422 5.7424 -2.8465 0.9418
-3.2521 -5.3536 -1.2122 0.9748
-2.6443 -5.3809 -1.1602 0.9759
13.1255 6.6326 -2.8459 0.9418
11.7417 8.8548 -2.8459 0.9418
8.9853 11.6427 -2.8460 0.9418
6.7788 13.0515 -2.8461 0.9418
5.5903 13.6032 -2.8461 0.9418
-0.8188 14.6851 -2.8462 0.9418
-3.4096 14.3076 -2.8463 0.9418
-5.8925 13.4766 -2.8464 0.9418
-7.0687 12.8988 -2.8464 0.9418
-8.1888 12.2185 -2.8464 0.9418
-9.2439 11.4413 -2.8464 0.9418
-10.2256 10.5732 -2.8465 0.9418
-12.6559 7.4961 -2.8465 0.9418
-13.7846 5.1335 -2.8465 0.9418
-14.2252 0.0001 -2.9989 0.9435
-14.1687 -1.2661 -2.9989 0.9435
-13.9998 -2.5221 -2.9989 0.9435
-13.7197 -3.7582 -2.9989 0.9435
-12.8359 -6.1311 -2.9989 0.9435
-12.2391 -7.2492 -2.9989 0.9435
-11.5453 -8.3097 -2.9989 0.9435
-10.7598 -9.3043 -2.9989 0.9435
-8.9395 -11.0645 -2.9988 0.9435
-7.9191 -11.8161 -2.9988 0.9435
-2.4369 -5.5733 -1.2824 0.9754
0.4752 -14.2155 -2.9986 0.9435
2.9883 -13.9056 -2.9985 0.9435
5.4062 -13.1554 -2.9985 0.9435
7.6530 -11.9881 -2.9984 0.9435
8.6895 -11.2593 -2.9984 0.9435
12.6935 -6.4143 -2.9983 0.9435
13.6296 -4.0620 -2.9983 0.9435
14.1338 -1.5811 -2.9983 0.9435
14.2184 -0.3168 -2.9983 0.9435
13.7970 3.4509 -2.9983 0.9435
11.7652 6.6191 -2.8459 0.9463
11.1295 7.6400 -2.8459 0.9463
10.4054 8.6003 -2.8460 0.9463
6.7500 11.6913 -2.8461 0.9463
4.5702 12.7031 -2.8461 0.9463
3.4215 13.0596 -2.8461 0.9463
1.0517 13.4596 -2.8462 0.9463
-0.1504 13.4999 -2.8462 0.9463
-2.5416 13.2596 -2.8463 0.9463
-3.7118 12.9809 -2.8463 0.9463
-5.9546 12.1174 -2.8464 0.9463
-9.8094 9.2777 -2.8464 0.9463
-12.4307 5.2711 -2.8465 0.9463
-14.0982 1.8961 -2.9989 0.9435
-14.2111 0.6337 -2.9989 0.9435
-14.0982 -1.8960 -2.9989 0.9435
-13.8735 -3.1433 -2.9989 0.9435
-13.5386 -4.3656 -2.9989 0.9435
-13.0963 -5.5533 -2.9989 0.9435
-11.9040 -7.7872 -2.9989 0.9435
-11.1636 -8.8158 -2.9989 0.9435
-3.3254 -5.4743 -1.3503 0.9742
-2.6901 -5.4742 -1.2859 0.9754
-2.2072 -5.7309 -1.2947 0.9752
-0.1585 -14.2226 -2.9986 0.9435
7.1114 -12.3172 -2.9984 0.9435
10.1126 -10.0005 -2.9984 0.9435
10.9625 -9.0607 -2.9983 0.9435
11.7254 -8.0490 -2.9983 0.9435
12.3952 -6.9734 -2.9983 0.9435
13.4351 -4.6651 -2.9983 0.9435
13.7970 -3.4508 -2.9983 0.9435
14.0493 -2.2091 -2.9983 0.9435
13.9370 2.8329 -2.9983 0.9435
12.5424 4.9918 -2.8459 0.9463
10.0120 9.0553 -2.8460 0.9463
9.1663 9.9106 -2.8460 0.9463
8.2479 10.6872 -2.8460 0.9463
7.2641 11.3790 -2.8460 0.9463
6.2225 11.9804 -2.8461 0.9463
3.9998 12.8941 -2.8461 0.9463
1.6503 13.3993 -2.8462 0.9463
0.4511 13.4931 -2.8462 0.9463
-0.7516 13.4799 -2.8462 0.9463
-1.9484 13.3596 -2.8463 0.9463
-3.1298 13.1333 -2.8463 0.9463
-4.2864 12.8027 -2.8463 0.9463
-6.4885 11.8402 -2.8464 0.9463
-7.5167 11.2157 -2.8464 0.9463
-8.4852 10.5023 -2.8464 0.9463
-10.9585 7.8875 -2.8465 0.9463
-11.6171 6.8809 -2.8465 0.9463
-12.1835 5.8196 -2.8465 0.9463
-12.7480 4.7475 -2.8678 0.9459
-13.9998 2.5222 -2.9989 0.9435
-14.1687 1.2662 -2.9989 0.9435
-13.0870 -1.1694 -2.9989 0.9475
-12.6722 -3.4712 -2.9989 0.9475
-11.3048 -6.6958 -2.9989 0.9475
-9.9383 -8.5940 -2.9988 0.9475
-9.1339 -9.4444 -2.9988 0.9475
-8.2570 -10.2198 -2.9988 0.9475
-3.0439 -5.5545 -1.4457 0.9743
-2.4797 -5.6712 -1.4127 0.9749
-2.0533 -6.1328 -1.4761 0.9738
-1.8960 -13.0003 -2.9986 0.9475
-0.7314 -13.1174 -2.9986 0.9475
0.4390 -13.1303 -2.9986 0.9475
1.6059 -13.0390 -2.9986 0.9475
3.8923 -12.5474 -2.9985 0.9475
4.9936 -12.1511 -2.9985 0.9475
6.0552 -11.6583 -2.9985 0.9475
7.0688 -11.0730 -2.9984 0.9475
8.9200 -9.6441 -2.9984 0.9475
9.7429 -8.8119 -2.9984 0.9475
11.1508 -6.9447 -2.9983 0.9475
11.7246 -5.9247 -2.9983 0.9475
12.2053 -4.8576 -2.9983 0.9475
12.5892 -3.7520 -2.9983 0.9475
12.8732 -2.6166 -2.9983 0.9475
13.0549 -1.4604 -2.9983 0.9475
13.1331 -0.2926 -2.9983 0.9475
12.9769 2.0406 -2.9983 0.9475
12.7438 3.1875 -2.9983 0.9475
10.8672 6.1138 -2.8459 0.9501
10.2799 7.0568 -2.8460 0.9501
8.8660 8.7678 -2.8460 0.9501
6.1082 7.2248 -2.1594 0.9619
7.1711 10.2010 -2.8460 0.9501
6.2347 10.7989 -2.8461 0.9501
5.2489 11.3111 -2.8461 0.9501
3.1603 12.0627 -2.8461 0.9501
-0.1389 12.4694 -2.8462 0.9501
-1.2482 12.4076 -2.8462 0.9501
-3.4284 11.9899 -2.8463 0.9501
-4.4820 11.6373 -2.8463 0.9501
-5.5000 11.1923 -2.8463 0.9501
-6.4744 10.6584 -2.8464 0.9501
-7.3974 10.0400 -2.8464 0.9501
-8.2618 9.3418 -2.8464 0.9501
-9.0605 8.5694 -2.8464 0.9501
-11.0027 5.8713 -2.8465 0.9501
-11.4817 4.8687 -2.8465 0.9501
-12.5050 4.0324 -2.9989 0.9475
-12.8143 2.9034 -2.9989 0.9475
-13.0219 1.7513 -2.9989 0.9475
-13.0219 -1.7512 -2.9989 0.9475
-12.5050 -4.0323 -2.9989 0.9475
-10.9952 -7.1927 -2.9989 0.9475
-10.3113 -8.1427 -2.9988 0.9475
-9.5456 -9.0281 -2.9988 0.9475
-7.7935 -10.5774 -2.9988 0.9475
-3.4491 -5.6780 -1.5163 0.9731
-2.7390 -5.5736 -1.4174 0.9748
-2.4733 -12.9030 -2.9987 0.9475
-1.3150 -13.0718 -2.9986 0.9475
1.0235 -13.0977 -2.9986 0.9475
2.1852 -12.9544 -2.9985 0.9475
4.4473 -12.3615 -2.9985 0.9475
5.5299 -11.9165 -2.9985 0.9475
10.1257 -8.3691 -2.9984 0.9475
12.4096 -4.3090 -2.9983 0.9475
13.1070 -0.8774 -2.9983 0.9475
13.1331 0.2927 -2.9983 0.9475
10.5841 6.5919 -2.8460 0.9501
8.4667 9.1541 -2.8460 0.9501
7.6183 9.8714 -2.8460 0.9501
6.7096 10.5104 -2.8461 0.9501
5.7475 11.0660 -2.8461 0.9501
1.5243 12.3764 -2.8462 0.9501
0.4167 12.4631 -2.8462 0.9501
-0.6942 12.4508 -2.8462 0.9501
-1.7997 12.3397 -2.8463 0.9501
-3.9591 11.8254 -2.8463 0.9501
-5.9932 10.9362 -2.8464 0.9501
-6.9428 10.3595 -2.8464 0.9501
-7.8374 9.7005 -2.8464 0.9501
-8.6697 8.9645 -2.8464 0.9501
-12.6723 3.4713 -2.9989 0.9475
-12.9309 2.3297 -2.9989 0.9475
-13.0870 1.1695 -2.9989 0.9475
-12.2006 0.0001 -2.9989 0.9510
-12.1521 -1.0859 -2.9989 0.9510
-12.0072 -2.1632 -2.9989 0.9510
-11.7670 -3.2233 -2.9989 0.9510
-11.4334 -4.2578 -2.9989 0.9510
-11.0091 -5.2585 -2.9989 0.9510
-10.4972 -6.2175 -2.9989 0.9510
-8.4815 -8.7698 -2.9988 0.9510
-6.7921 -10.1345 -2.9988 0.9510
-3.1516 -5.7509 -1.6119 0.9733
-2.1473 -6.4136 -1.6625 0.9725
-2.8281 -11.8673 -2.9987 0.9510
-1.7606 -12.0718 -2.9986 0.9510
0.4076 -12.1925 -2.9986 0.9510
3.6143 -11.6512 -2.9985 0.9510
4.6369 -11.2833 -2.9985 0.9510
7.4530 -9.6571 -2.9984 0.9510
9.7394 -7.3448 -2.9984 0.9510
10.3544 -6.4487 -2.9984 0.9510
10.8872 -5.5015 -2.9983 0.9510
11.6901 -3.4840 -2.9983 0.9510
12.1226 -1.3561 -2.9983 0.9510
12.1952 -0.2717 -2.9983 0.9510
12.1710 0.8148 -2.9983 0.9510
11.8337 2.9598 -2.9983 0.9510
11.5233 4.0014 -2.9983 0.9510
9.5458 6.5528 -2.8460 0.9534
8.2328 8.1416 -2.8460 0.9534
6.0687 7.1781 -2.3104 0.9620
6.6589 9.4724 -2.8461 0.9534
5.7894 10.0276 -2.8461 0.9534
4.8740 10.5032 -2.8461 0.9534
3.9198 10.8954 -2.8461 0.9534
2.9346 11.2011 -2.8461 0.9534
1.9260 11.4180 -2.8462 0.9534
-1.1591 11.5214 -2.8462 0.9534
-2.1799 11.3726 -2.8463 0.9534
-3.1835 11.1335 -2.8463 0.9534
-5.1072 10.3928 -2.8463 0.9534
-6.8691 9.3228 -2.8464 0.9534
-7.6716 8.6745 -2.8464 0.9534
-8.4133 7.9573 -2.8464 0.9534
-9.0882 7.1769 -2.8464 0.9534
-10.2168 5.4519 -2.8465 0.9534
-11.1421 4.7247 -2.9748 0.9514
-11.8989 -2.6959 -2.9989 0.9510
-11.6118 -3.7443 -2.9989 0.9510
-11.2324 -4.7629 -2.9989 0.9510
-10.7638 -5.7437 -2.9989 0.9510
-10.2098 -6.6789 -2.9988 0.9510
-9.5748 -7.5611 -2.9988 0.9510
-8.8638 -8.3833 -2.9988 0.9510
-6.3339 -10.4269 -2.9988 0.9510
-2.8236 -5.7459 -1.5737 0.9740
-3.3540 -11.7296 -2.9987 0.9510
-1.2211 -12.1382 -2.9986 0.9510
-0.1359 -12.1986 -2.9986 0.9510
0.9504 -12.1622 -2.9986 0.9510
2.0291 -12.0292 -2.9986 0.9510
5.1349 -11.0654 -2.9985 0.9510
6.0994 -10.5644 -2.9985 0.9510
7.8758 -9.3154 -2.9984 0.9510
9.4025 -7.7714 -2.9984 0.9510
10.0569 -6.9036 -2.9984 0.9510
11.1215 -5.0110 -2.9983 0.9510
12.1710 -0.8147 -2.9983 0.9510
11.9538 2.4298 -2.9983 0.9510
11.6901 3.4841 -2.9983 0.9510
10.3339 5.2220 -2.8460 0.9534
9.2444 6.9716 -2.8460 0.9534
8.5873 7.7667 -2.8460 0.9534
5.3370 10.2756 -2.8461 0.9534
4.4013 10.7099 -2.8461 0.9534
2.4327 11.3207 -2.8462 0.9534
-0.6447 11.5616 -2.8462 0.9534
-3.6763 10.9807 -2.8463 0.9534
-4.6391 10.6100 -2.8463 0.9534
-7.2776 9.0076 -2.8464 0.9534
-8.0504 8.3241 -2.8464 0.9534
-8.7594 7.5746 -2.8464 0.9534
-9.3989 6.7650 -2.8464 0.9534
-9.9637 5.9016 -2.8464 0.9534
-11.4334 4.2579 -2.9989 0.9510
-12.1522 1.0860 -2.9989 0.9510
-11.3809 0.0001 -2.9989 0.9540
-11.3358 -1.0129 -2.9989 0.9540
-10.9765 -3.0067 -2.9989 0.9540
-10.6653 -3.9718 -2.9989 0.9540
-10.2694 -4.9053 -2.9988 0.9540
-9.7920 -5.7998 -2.9988 0.9540
-7.1521 -8.8523 -2.9988 0.9540
-3.6130 -10.7914 -2.9987 0.9540
-2.6381 -11.0701 -2.9987 0.9540
0.3803 -11.3734 -2.9986 0.9540
1.3910 -11.2944 -2.9986 0.9540
2.3908 -11.1256 -2.9985 0.9540
5.2450 -10.0985 -2.9985 0.9540
8.4393 -7.6329 -2.9984 0.9540
9.6589 -6.0156 -2.9984 0.9540
10.1559 -5.1320 -2.9984 0.9540
10.5724 -4.2077 -2.9984 0.9540
10.9049 -3.2500 -2.9983 0.9540
11.2408 1.7676 -2.9983 0.9540
6.0480 7.1536 -2.4684 0.9620
4.5466 9.7976 -2.8461 0.9563
3.6565 10.1635 -2.8461 0.9563
-1.0812 10.7475 -2.8462 0.9563
-2.9697 10.3856 -2.8463 0.9563
-5.6081 9.2322 -2.8463 0.9563
-7.1562 8.0917 -2.8464 0.9563
-8.4777 6.6948 -2.8464 0.9563
-9.0399 5.9137 -2.8464 0.9563
-9.5304 5.0856 -2.8464 0.9563
-10.4778 4.4430 -2.9989 0.9540
-11.2794 1.5170 -2.9989 0.9540
-11.3696 0.5071 -2.9989 0.9540
-11.3696 -0.5070 -2.9989 0.9540
-11.2794 -1.5169 -2.9989 0.9540
-11.0996 -2.5148 -2.9989 0.9540
-9.5239 -6.2302 -2.9988 0.9540
-8.9316 -7.0532 -2.9988 0.9540
-8.2683 -7.8201 -2.9988 0.9540
-7.5394 -8.5249 -2.9988 0.9540
-3.1287 -10.9416 -2.9987 0.9540
-0.1268 -11.3792 -2.9986 0.9540
4.7900 -10.3221 -2.9985 0.9540
5.6897 -9.8548 -2.9985 0.9540
6.5442 -9.3092 -2.9984 0.9540
8.0910 -8.0013 -2.9984 0.9540
9.3813 -6.4399 -2.9984 0.9540
9.9173 -5.5793 -2.9984 0.9540
10.7493 -3.7325 -2.9983 0.9540
11.0388 -2.7610 -2.9983 0.9540
11.3760 0.2536 -2.9983 0.9540
11.3083 1.2651 -2.9983 0.9540
11.1509 2.2666 -2.9983 0.9540
10.9049 3.2501 -2.9983 0.9540
10.5724 4.2078 -2.9984 0.9540
9.6398 4.8712 -2.8460 0.9563
9.1680 5.7099 -2.8460 0.9563
6.4463 6.9697 -2.5016 0.9615
6.5990 8.5507 -2.8461 0.9563
5.8118 9.1041 -2.8461 0.9563
3.2002 10.3164 -2.8461 0.9563
1.3204 10.7205 -2.8462 0.9563
-2.5041 10.5076 -2.8463 0.9563
-3.4294 10.2431 -2.8463 0.9563
-6.7887 8.4025 -2.8464 0.9563
-7.5096 7.7650 -2.8464 0.9563
-8.7675 6.3105 -2.8464 0.9563
-9.9170 4.7370 -2.8959 0.9556
-10.6653 3.9719 -2.9989 0.9540
-10.9765 3.0068 -2.9989 0.9540
-11.2006 2.0179 -2.9989 0.9540
-10.6163 -0.9486 -2.9989 0.9567
-9.9884 -3.7197 -2.9988 0.9567
-9.1705 -5.4317 -2.9988 0.9567
-6.6982 -8.2904 -2.9988 0.9567
-5.1221 -9.3466 -2.9987 0.9567
-3.3837 -10.1065 -2.9987 0.9567
-2.4707 -10.3675 -2.9987 0.9567
-1.5381 -10.5462 -2.9986 0.9567
-0.5933 -10.6411 -2.9986 0.9567
1.3028 -10.5776 -2.9986 0.9567
2.2390 -10.4196 -2.9985 0.9567
4.0509 -9.8574 -2.9985 0.9567
4.9122 -9.4576 -2.9985 0.9567
6.5112 -8.4367 -2.9984 0.9567
7.2362 -7.8237 -2.9984 0.9567
9.5115 -4.8063 -2.9984 0.9567
9.9015 -3.9406 -2.9984 0.9567
10.2129 -3.0437 -2.9984 0.9567
10.4432 -2.1227 -2.9984 0.9567
10.5907 -1.1847 -2.9984 0.9567
10.6541 -0.2374 -2.9984 0.9567
10.5274 1.6554 -2.9984 0.9567
10.3383 2.5858 -2.9984 0.9567
10.0672 3.4957 -2.9984 0.9567
8.8159 4.9598 -2.8460 0.9588
8.3395 5.7248 -2.8460 0.9588
7.7969 6.4443 -2.8460 0.9588
7.1924 7.1128 -2.8460 0.9588
6.0272 7.1290 -2.6266 0.9620
5.0578 8.7604 -2.8461 0.9588
3.4245 9.5185 -2.8461 0.9588
2.5637 9.7856 -2.8461 0.9588
-1.9044 9.9354 -2.8463 0.9588
-2.7812 9.7265 -2.8463 0.9588
-7.9396 6.2699 -2.8464 0.9588
-8.4662 5.5383 -2.8464 0.9588
-9.8128 4.1610 -2.9988 0.9567
-10.3951 2.3553 -2.9989 0.9567
-10.5635 1.4207 -2.9989 0.9567
-10.6480 -0.4748 -2.9989 0.9567
-10.1442 -3.2711 -2.9988 0.9567
-9.4034 -5.0178 -2.9988 0.9567
-6.3222 -8.5805 -2.9988 0.9567
-4.7006 -9.5654 -2.9987 0.9567
-3.8306 -9.9458 -2.9987 0.9567
-2.9301 -10.2472 -2.9987 0.9567
0.8303 -10.6252 -2.9986 0.9567
2.7010 -10.3095 -2.9985 0.9567
4.4860 -9.6671 -2.9985 0.9567
6.1289 -8.7184 -2.9985 0.9567
6.8805 -8.1383 -2.9984 0.9567
7.5775 -7.4935 -2.9984 0.9567
8.2144 -6.7893 -2.9984 0.9567
8.7860 -6.0312 -2.9984 0.9567
9.2879 -5.2253 -2.9984 0.9567
9.7161 -4.3778 -2.9984 0.9567
10.3383 -2.5858 -2.9984 0.9567
10.6541 0.2375 -2.9984 0.9567
10.5907 1.1848 -2.9984 0.9567
10.4433 2.1227 -2.9984 0.9567
10.2129 3.0438 -2.9984 0.9567
9.9015 3.9407 -2.9984 0.9567
8.0762 6.0906 -2.8460 0.9588
7.5021 6.7853 -2.8460 0.9588
6.4267 6.9485 -2.6630 0.9614
6.1803 8.0080 -2.8461 0.9588
4.6626 8.9771 -2.8461 0.9588
2.9971 9.6617 -2.8461 0.9588
2.1253 9.8901 -2.8462 0.9588
0.3380 10.1104 -2.8462 0.9588
-2.3451 9.8407 -2.8463 0.9588
-3.2117 9.5930 -2.8463 0.9588
-4.8618 8.8717 -2.8463 0.9588
-5.6321 8.4038 -2.8463 0.9588
-6.3578 7.8692 -2.8464 0.9588
-7.0330 7.2721 -2.8464 0.9588
-8.2110 5.9100 -2.8464 0.9588
-8.7045 5.1557 -2.8464 0.9588
-9.9884 3.7198 -2.9988 0.9567
-10.4897 1.8899 -2.9989 0.9567
-10.6163 0.9487 -2.9989 0.9567
-9.9771 -0.8915 -2.9988 0.9590
-9.3870 -3.4957 -2.9988 0.9590
-8.1298 -5.8514 -2.9988 0.9590
-7.5767 -6.5518 -2.9988 0.9590
-6.2949 -7.7913 -2.9988 0.9590
-4.8137 -8.7838 -2.9987 0.9590
-2.3220 -9.7433 -2.9987 0.9590
-1.4455 -9.9113 -2.9986 0.9590
-0.5576 -10.0005 -2.9986 0.9590
1.2243 -9.9408 -2.9986 0.9590
2.9674 -9.5661 -2.9985 0.9590
4.6165 -8.8883 -2.9985 0.9590
5.3892 -8.4420 -2.9985 0.9590
6.1192 -7.9288 -2.9985 0.9590
6.8006 -7.3527 -2.9984 0.9590
8.5014 -5.2947 -2.9984 0.9590
8.9389 -4.5170 -2.9984 0.9590
9.3054 -3.7034 -2.9984 0.9590
9.8146 -1.9949 -2.9984 0.9590
10.0128 -0.2231 -2.9984 0.9590
9.9929 0.6690 -2.9984 0.9590
7.8375 5.3802 -2.8460 0.9611
5.4672 7.7772 -2.8461 0.9611
3.2183 8.9455 -2.8461 0.9611
2.4094 9.1965 -2.8462 0.9611
1.5813 9.3745 -2.8462 0.9611
-0.9516 9.4594 -2.8462 0.9611
-1.7898 9.3372 -2.8463 0.9611
-2.6138 9.1409 -2.8463 0.9611
-5.6396 7.6542 -2.8463 0.9611
-6.9075 6.5331 -2.8464 0.9611
-7.4616 5.8924 -2.8464 0.9611
-7.9564 5.2049 -2.8464 0.9611
-8.8373 4.7157 -2.9988 0.9590
-9.5334 3.0742 -2.9988 0.9590
-10.0069 0.4463 -2.9988 0.9590
-10.0069 -0.4462 -2.9988 0.9590
-9.9275 -1.3351 -2.9988 0.9590
-9.5334 -3.0741 -2.9988 0.9590
-8.8373 -4.7157 -2.9988 0.9590
-7.8611 -6.2078 -2.9988 0.9590
-7.2773 -6.8828 -2.9988 0.9590
-5.9416 -8.0639 -2.9987 0.9590
-5.2002 -8.5607 -2.9987 0.9590
-3.5999 -9.3470 -2.9987 0.9590
-1.0026 -9.9658 -2.9986 0.9590
-0.1116 -10.0154 -2.9986 0.9590
4.2160 -9.0851 -2.9985 0.9590
5.0078 -8.6737 -2.9985 0.9590
5.7599 -8.1936 -2.9985 0.9590
6.4663 -7.6483 -2.9984 0.9590
7.1213 -7.0424 -2.9984 0.9590
8.2571 -5.6681 -2.9984 0.9590
9.4611 -3.2852 -2.9984 0.9590
9.8937 -1.5557 -2.9984 0.9590
9.9929 -0.6689 -2.9984 0.9590
10.0128 0.2232 -2.9984 0.9590
9.9532 1.1135 -2.9984 0.9590
9.3054 3.7035 -2.9984 0.9590
12.6651 6.4000 -4.2483 0.9425
8.0693 5.0256 -2.8460 0.9611
7.5900 5.7239 -2.8460 0.9611
7.0505 6.3768 -2.8460 0.9611
6.4021 6.9219 -2.8228 0.9614
5.8082 7.5259 -2.8461 0.9611
5.1153 8.0131 -2.8461 0.9611
3.6136 8.7932 -2.8461 0.9611
2.8166 9.0800 -2.8461 0.9611
1.9973 9.2947 -2.8462 0.9611
-0.5293 9.4923 -2.8462 0.9611
-5.9750 7.3954 -2.8464 0.9611
-6.6096 6.8343 -2.8464 0.9611
-8.1804 4.8453 -2.8464 0.9611
-9.0386 4.3174 -2.9988 0.9590
-9.3870 3.4958 -2.9988 0.9590
-9.9771 0.8916 -2.9988 0.9590
-9.2930 -1.6742 -2.9988 0.9611
-8.1244 -4.8120 -2.9988 0.9611
-7.6638 -5.5160 -2.9988 0.9611
-7.1424 -6.1762 -2.9988 0.9611
-5.9341 -7.3447 -2.9987 0.9611
-5.2568 -7.8436 -2.9987 0.9611
-3.7827 -8.6513 -2.9987 0.9611
-2.9977 -8.9536 -2.9987 0.9611
-2.1889 -9.1848 -2.9987 0.9611
0.3155 -9.4365 -2.9986 0.9611
3.5888 -8.7329 -2.9985 0.9611
5.0803 -7.9581 -2.9985 0.9612
5.7684 -7.4743 -2.9985 0.9612
7.0022 -6.3331 -2.9984 0.9612
8.4265 -4.2580 -2.9984 0.9612
8.7720 -3.4912 -2.9984 0.9612
9.0479 -2.6966 -2.9984 0.9612
9.2520 -1.8805 -2.9984 0.9612
9.4389 -0.2103 -2.9984 0.9612
9.4201 0.6307 -2.9984 0.9612
9.3266 1.4666 -2.9984 0.9612
7.3882 5.0718 -2.8460 0.9631
6.9075 5.7093 -2.8460 0.9631
5.7859 6.8436 -2.8461 0.9631
5.1538 7.3314 -2.8461 0.9631
4.4809 7.7611 -2.8461 0.9631
3.7723 8.1292 -2.8461 0.9631
3.0338 8.4327 -2.8461 0.9631
2.2713 8.6693 -2.8462 0.9631
1.4906 8.8371 -2.8462 0.9631
-2.4639 8.6170 -2.8463 0.9631
-3.2211 8.3635 -2.8463 0.9631
-3.9527 8.0437 -2.8463 0.9631
-4.6530 7.6600 -2.8463 0.9631
-6.5115 6.1586 -2.8464 0.9631
-8.6933 3.6863 -2.9988 0.9611
-8.9869 2.8979 -2.9988 0.9611
-9.2092 2.0866 -2.9988 0.9611
-9.4333 -0.4206 -2.9988 0.9611
-9.3584 -1.2586 -2.9988 0.9611
-8.6933 -3.6862 -2.9988 0.9611
-7.9019 -5.1692 -2.9988 0.9611
-7.4104 -5.8519 -2.9988 0.9611
-6.2554 -7.0730 -2.9988 0.9611
-5.6010 -7.6017 -2.9987 0.9611
-4.9021 -8.0700 -2.9987 0.9611
-2.5959 -9.0782 -2.9987 0.9611
-0.9451 -9.3945 -2.9986 0.9611
-0.1052 -9.4413 -2.9986 0.9611
3.1963 -8.8841 -2.9985 0.9611
3.9743 -8.5644 -2.9985 0.9611
5.4298 -7.7239 -2.9985 0.9612
6.0957 -7.2100 -2.9985 0.9612
7.2774 -6.0148 -2.9984 0.9612
7.7838 -5.3433 -2.9984 0.9612
8.6078 -3.8784 -2.9984 0.9612
9.4389 0.2104 -2.9984 0.9612
9.3827 1.0496 -2.9984 0.9612
9.2520 1.8806 -2.9984 0.9612
9.0479 2.6966 -2.9984 0.9612
7.1550 5.3959 -2.8460 0.9631
6.6464 6.0113 -2.8460 0.9631
5.4753 7.0946 -2.8461 0.9631
4.8221 7.5538 -2.8461 0.9631
2.6552 8.5595 -2.8461 0.9631
1.0955 8.8948 -2.8462 0.9631
0.2995 8.9571 -2.8462 0.9631
-0.4989 8.9482 -2.8462 0.9631
-1.2934 8.8684 -2.8462 0.9631
-3.5905 8.2117 -2.8463 0.9631
-4.3072 7.8596 -2.8463 0.9631
-4.9896 7.4451 -2.8463 0.9631
-5.6325 6.9715 -2.8463 0.9631
-6.2307 6.4425 -2.8464 0.9631
-6.7794 5.8624 -2.8464 0.9631
-7.2743 5.2358 -2.8464 0.9631
-7.9764 4.7245 -2.9442 0.9618
-9.1071 2.4947 -2.9988 0.9611
-9.2930 1.6742 -2.9988 0.9611
-8.9255 0.0000 -2.9988 0.9630
-8.8901 -0.7944 -2.9988 0.9630
-8.3643 -3.1149 -2.9988 0.9630
-7.2441 -5.2139 -2.9988 0.9630
-5.6091 -6.9425 -2.9987 0.9630
-3.5756 -8.1776 -2.9987 0.9630
-2.0690 -8.6819 -2.9987 0.9630
-1.2880 -8.8315 -2.9986 0.9630
3.3923 -8.2547 -2.9985 0.9630
4.1136 -7.9200 -2.9985 0.9630
4.8021 -7.5224 -2.9985 0.9630
5.4526 -7.0651 -2.9985 0.9630
6.6188 -5.9863 -2.9984 0.9630
7.1253 -5.3734 -2.9984 0.9630
7.5753 -4.7179 -2.9984 0.9630
8.2917 -3.3000 -2.9984 0.9630
8.7454 -1.7775 -2.9984 0.9630
8.9220 -0.1988 -2.9984 0.9630
8.9043 0.5961 -2.9984 0.9630
8.4305 2.9274 -2.9984 0.9630
8.1365 3.6662 -2.9984 0.9630
6.5293 5.3966 -2.8461 0.9649
5.4691 6.4689 -2.8461 0.9649
4.8716 6.9300 -2.8461 0.9649
4.2355 7.3362 -2.8461 0.9649
3.5658 7.6841 -2.8461 0.9649
2.8677 7.9710 -2.8461 0.9649
1.4090 8.3533 -2.8462 0.9649
0.6599 8.4456 -2.8462 0.9649
-0.0944 8.4708 -2.8462 0.9649
-0.8479 8.4289 -2.8462 0.9649
-1.5948 8.3200 -2.8462 0.9649
-2.3290 8.1451 -2.8463 0.9649
-3.0447 7.9055 -2.8463 0.9649
-4.3982 7.2405 -2.8463 0.9649
-5.0252 6.8203 -2.8463 0.9649
-6.6487 5.2504 -2.8464 0.9649
-7.2315 4.7307 -2.9033 0.9642
-7.8745 4.2020 -2.9988 0.9630
-8.7049 1.9723 -2.9988 0.9630
-8.8459 -1.1896 -2.9988 0.9630
-8.7049 -1.9722 -2.9988 0.9630
-8.2172 -3.4844 -2.9988 0.9630
-7.0046 -5.5315 -2.9988 0.9630
-6.4845 -6.1330 -2.9988 0.9630
-5.9128 -6.6857 -2.9987 0.9630
-5.2943 -7.1854 -2.9987 0.9630
-4.6337 -7.6281 -2.9987 0.9630
-3.9363 -8.0102 -2.9987 0.9630
-3.2078 -8.3287 -2.9987 0.9630
-1.6802 -8.7654 -2.9986 0.9630
-0.8934 -8.8801 -2.9986 0.9630
0.6953 -8.8977 -2.9986 0.9630
1.4845 -8.8004 -2.9986 0.9630
3.0213 -8.3977 -2.9985 0.9630
6.3456 -6.2752 -2.9985 0.9630
7.3576 -5.0507 -2.9984 0.9630
7.7779 -4.3758 -2.9984 0.9630
8.1365 -3.6661 -2.9984 0.9630
8.9043 -0.5960 -2.9984 0.9630
8.9220 0.1988 -2.9984 0.9630
8.7455 1.7776 -2.9984 0.9630
7.9651 4.0250 -2.9984 0.9630
10.7332 6.6847 -4.2484 0.9480
5.1755 6.7061 -2.8461 0.9649
4.5581 7.1402 -2.8461 0.9649
3.9045 7.5176 -2.8461 0.9649
1.7797 8.2822 -2.8462 0.9649
0.2831 8.4666 -2.8462 0.9649
-0.4716 8.4582 -2.8462 0.9649
-1.2226 8.3828 -2.8462 0.9649
-1.9639 8.2407 -2.8463 0.9649
-2.6895 8.0332 -2.8463 0.9649
-3.3939 7.7620 -2.8463 0.9649
-4.0713 7.4292 -2.8463 0.9649
-4.7164 7.0374 -2.8463 0.9649
-5.3241 6.5897 -2.8463 0.9649
-6.8760 4.9491 -2.8464 0.9649
-7.6795 4.5486 -2.9988 0.9630
-8.0539 3.8470 -2.9988 0.9630
-8.6084 2.3581 -2.9988 0.9630
-8.4572 0.0000 -2.9988 0.9647
-8.3232 -1.4995 -2.9988 0.9647
-7.6313 -3.6451 -2.9988 0.9647
-7.2765 -4.3099 -2.9988 0.9647
-6.3970 -5.5317 -2.9988 0.9647
-5.3148 -6.5782 -2.9987 0.9647
-4.7082 -7.0251 -2.9987 0.9647
-4.0642 -7.4162 -2.9987 0.9647
-1.9604 -8.2263 -2.9986 0.9647
-0.4708 -8.4435 -2.9986 0.9647
1.0337 -8.3931 -2.9986 0.9647
1.7766 -8.2677 -2.9986 0.9647
3.8977 -7.5045 -2.9985 0.9647
5.1665 -6.6944 -2.9985 0.9647
5.7418 -6.2079 -2.9985 0.9647
6.2716 -5.6722 -2.9985 0.9647
6.7515 -5.0915 -2.9984 0.9647
7.1779 -4.4704 -2.9984 0.9647
7.5472 -3.8138 -2.9984 0.9647
7.8567 -3.1269 -2.9984 0.9647
7.7097 3.4738 -2.9984 0.9647
5.7071 5.6439 -2.8461 0.9665
5.1821 6.1295 -2.8461 0.9665
4.6160 6.5664 -2.8461 0.9665
4.0133 6.9513 -2.8461 0.9665
3.3787 7.2809 -2.8461 0.9665
2.0343 7.7647 -2.8462 0.9665
1.3351 7.9150 -2.8462 0.9665
-0.0894 8.0264 -2.8462 0.9665
-2.2068 7.7177 -2.8463 0.9665
-3.5403 7.2043 -2.8463 0.9665
-4.7615 6.4625 -2.8463 0.9665
-5.8320 5.5159 -2.8463 0.9665
-6.2998 4.9749 -2.8464 0.9665
-7.0773 4.6298 -2.9988 0.9647
-7.7861 3.3016 -2.9988 0.9647
-8.2481 1.8688 -2.9988 0.9647
-8.3817 1.1272 -2.9988 0.9647
-8.4488 -0.3767 -2.9988 0.9647
-7.4613 -3.9814 -2.9988 0.9647
-7.0773 -4.6297 -2.9988 0.9647
-6.6371 -5.2412 -2.9988 0.9647
-6.1442 -5.8112 -2.9988 0.9647
-5.0165 -6.8084 -2.9987 0.9647
-0.8465 -8.4142 -2.9986 0.9647
1.4066 -8.3387 -2.9986 0.9647
2.1432 -8.1804 -2.9985 0.9647
4.2282 -7.3234 -2.9985 0.9647
6.5180 -5.3872 -2.9984 0.9647
6.9716 -4.7857 -2.9984 0.9647
7.3699 -4.1462 -2.9984 0.9647
7.7096 -3.4737 -2.9984 0.9647
7.9882 -2.7738 -2.9984 0.9647
8.2034 -2.0518 -2.9984 0.9647
8.3534 -1.3135 -2.9984 0.9647
8.4372 -0.5648 -2.9984 0.9647
8.4540 0.1884 -2.9984 0.9647
8.4036 0.9401 -2.9984 0.9647
8.2866 1.6844 -2.9984 0.9647
8.1038 2.4153 -2.9984 0.9647
7.8567 3.1270 -2.9984 0.9647
7.5473 3.8139 -2.9984 0.9647
9.5660 7.2140 -4.2484 0.9504
5.4500 5.8925 -2.8461 0.9665
4.9040 6.3543 -2.8461 0.9665
4.3189 6.7656 -2.8461 0.9665
3.0510 7.4242 -2.8461 0.9665
2.3781 7.6663 -2.8462 0.9665
1.6864 7.8477 -2.8462 0.9665
0.9812 7.9666 -2.8462 0.9665
-1.8608 7.8083 -2.8463 0.9665
-2.5484 7.6118 -2.8463 0.9665
-3.8577 7.0394 -2.8463 0.9665
-4.4689 6.6681 -2.8463 0.9665
-5.0447 6.2440 -2.8463 0.9665
-5.5805 5.7702 -2.8463 0.9665
-6.5784 4.7349 -2.8740 0.9662
-7.6313 3.6452 -2.9988 0.9647
-7.9254 2.9515 -2.9988 0.9647
-8.1567 2.2344 -2.9988 0.9647
-8.0308 0.0000 -2.9988 0.9663
-7.9989 -0.7147 -2.9988 0.9663
-7.9036 -1.4239 -2.9988 0.9663
-7.7455 -2.1217 -2.9988 0.9663
-7.5259 -2.8026 -2.9988 0.9663
-7.2465 -3.4613 -2.9988 0.9663
-6.9097 -4.0926 -2.9988 0.9663
-5.0469 -6.2466 -2.9987 0.9663
-3.8593 -7.0424 -2.9987 0.9663
-3.2172 -7.3579 -2.9987 0.9663
-2.5495 -7.6150 -2.9987 0.9663
-1.1589 -7.9462 -2.9986 0.9663
0.9816 -7.9700 -2.9986 0.9663
1.6871 -7.8510 -2.9986 0.9663
2.3791 -7.6696 -2.9985 0.9663
3.7013 -7.1262 -2.9985 0.9663
4.3208 -6.7684 -2.9985 0.9663
4.9061 -6.3569 -2.9985 0.9663
5.4524 -5.8950 -2.9985 0.9663
6.8160 -4.2450 -2.9984 0.9663
7.1668 -3.6215 -2.9984 0.9663
7.4607 -2.9692 -2.9984 0.9663
7.6953 -2.2934 -2.9984 0.9663
7.8689 -1.5994 -2.9984 0.9663
7.9800 -0.8927 -2.9984 0.9663
8.0278 -0.1788 -2.9984 0.9663
8.0119 0.5363 -2.9984 0.9663
7.5855 2.6340 -2.9984 0.9663
7.3210 3.2987 -2.9984 0.9663
6.9984 3.9372 -2.9984 0.9663
9.3799 6.4389 -4.2484 0.9526
5.4194 5.3594 -2.8461 0.9680
4.3833 6.2354 -2.8461 0.9680
3.8110 6.6008 -2.8461 0.9680
2.5803 7.1720 -2.8461 0.9680
1.9317 7.3733 -2.8462 0.9680
1.2678 7.5160 -2.8462 0.9680
-0.0849 7.6218 -2.8462 0.9680
-0.7629 7.5840 -2.8462 0.9680
-1.4349 7.4861 -2.8462 0.9680
-2.0956 7.3287 -2.8463 0.9680
-2.7395 7.1131 -2.8463 0.9680
-3.3618 6.8411 -2.8463 0.9680
-3.9573 6.5147 -2.8463 0.9680
-5.0498 5.7099 -2.8463 0.9680
-5.5380 5.2378 -2.8463 0.9680
-6.0037 4.7411 -2.8566 0.9679
-7.9592 1.0704 -2.9988 0.9663
-8.0229 0.3578 -2.9988 0.9663
-8.0229 -0.3577 -2.9988 0.9663
-7.9592 -1.0704 -2.9988 0.9663
-7.8323 -1.7745 -2.9988 0.9663
-7.6432 -2.4646 -2.9988 0.9663
-7.3935 -3.1351 -2.9988 0.9663
-7.0851 -3.7807 -2.9988 0.9663
-6.7205 -4.3963 -2.9988 0.9663
-5.8345 -5.5182 -2.9987 0.9663
-5.3202 -6.0155 -2.9987 0.9663
-3.5418 -7.2072 -2.9987 0.9663
-0.0895 -8.0298 -2.9986 0.9663
0.6256 -8.0058 -2.9986 0.9663
1.3357 -7.9183 -2.9986 0.9663
2.0351 -7.7680 -2.9986 0.9663
2.7184 -7.5559 -2.9985 0.9663
4.0150 -6.9542 -2.9985 0.9663
4.6180 -6.5692 -2.9985 0.9663
5.7096 -5.6463 -2.9985 0.9663
6.1894 -5.1156 -2.9985 0.9663
6.9984 -3.9372 -2.9984 0.9663
7.3210 -3.2987 -2.9984 0.9663
7.5855 -2.6339 -2.9984 0.9663
7.7898 -1.9483 -2.9984 0.9663
8.0119 -0.5363 -2.9984 0.9663
8.0278 0.1789 -2.9984 0.9663
7.6953 2.2935 -2.9984 0.9663
7.4607 2.9693 -2.9984 0.9663
9.0837 6.8504 -4.2484 0.9526
5.6527 5.1126 -2.8461 0.9680
5.1753 5.5955 -2.8461 0.9680
4.6567 6.0340 -2.8461 0.9680
2.2582 7.2799 -2.8462 0.9680
1.6013 7.4520 -2.8462 0.9680
0.9317 7.5650 -2.8462 0.9680
-0.4243 7.6104 -2.8462 0.9680
-2.4199 7.2280 -2.8463 0.9680
-3.6632 6.6846 -2.8463 0.9680
-4.2436 6.3320 -2.8463 0.9680
-4.7904 5.9292 -2.8463 0.9680
-5.7658 4.9859 -2.8463 0.9680
-6.5180 4.6914 -2.9988 0.9663
-6.9097 4.0926 -2.9988 0.9663
-7.7455 2.1218 -2.9988 0.9663
-7.9990 0.7148 -2.9988 0.9663
-7.6408 0.0000 -2.9988 0.9677
-7.6105 -0.6800 -2.9988 0.9677
-7.5197 -1.3547 -2.9988 0.9677
-7.1604 -2.6665 -2.9988 0.9677
-6.8946 -3.2932 -2.9988 0.9677
-6.5741 -3.8938 -2.9988 0.9677
-6.2014 -4.4635 -2.9988 0.9677
-5.7795 -4.9977 -2.9987 0.9677
-5.3117 -5.4922 -2.9987 0.9677
-3.6719 -6.7004 -2.9987 0.9677
-2.4257 -7.2452 -2.9987 0.9677
-0.4254 -7.6285 -2.9986 0.9677
0.9339 -7.5829 -2.9986 0.9677
2.2636 -7.2971 -2.9985 0.9677
2.9041 -7.0666 -2.9985 0.9677
3.5215 -6.7801 -2.9985 0.9677
4.1110 -6.4397 -2.9985 0.9677
5.1876 -5.6087 -2.9985 0.9677
6.0998 -4.6001 -2.9985 0.9677
6.4850 -4.0389 -2.9984 0.9677
6.8188 -3.4456 -2.9984 0.9677
7.0984 -2.8250 -2.9984 0.9677
7.4868 -1.5217 -2.9984 0.9677
7.5925 -0.8493 -2.9984 0.9677
7.6380 -0.1702 -2.9984 0.9677
7.6228 0.5103 -2.9984 0.9677
7.4116 1.8538 -2.9984 0.9677
6.9655 3.1385 -2.9984 0.9677
6.6585 3.7461 -2.9984 0.9677
5.1562 5.0992 -2.8461 0.9693
4.6819 5.5379 -2.8461 0.9693
4.1705 5.9326 -2.8461 0.9693
3.6259 6.2803 -2.8461 0.9693
3.0526 6.5781 -2.8461 0.9693
2.4550 6.8238 -2.8462 0.9693
1.8379 7.0152 -2.8462 0.9693
-0.7259 7.2156 -2.8462 0.9693
-1.3653 7.1225 -2.8462 0.9693
-1.9938 6.9727 -2.8463 0.9693
-2.6065 6.7677 -2.8463 0.9693
-3.1985 6.5088 -2.8463 0.9693
-3.7652 6.1984 -2.8463 0.9693
-4.3019 5.8387 -2.8463 0.9693
-5.2690 4.9834 -2.8463 0.9693
-5.9684 4.7132 -2.9848 0.9678
-6.3941 4.1829 -2.9988 0.9677
-6.7410 3.5971 -2.9988 0.9677
-7.0345 2.9829 -2.9988 0.9677
-7.2720 2.3450 -2.9988 0.9677
-7.6332 0.3404 -2.9988 0.9677
-7.5726 -1.0184 -2.9988 0.9677
-7.4519 -1.6883 -2.9988 0.9677
-7.2720 -2.3449 -2.9988 0.9677
-6.7410 -3.5971 -2.9988 0.9677
-6.3941 -4.1828 -2.9988 0.9677
-3.9668 -6.5301 -2.9987 0.9677
-2.7460 -7.1299 -2.9987 0.9677
-2.1005 -7.3460 -2.9987 0.9677
-0.7648 -7.6020 -2.9986 0.9677
-0.0851 -7.6398 -2.9986 0.9677
1.2708 -7.5338 -2.9986 0.9677
1.9363 -7.3907 -2.9986 0.9677
2.5864 -7.1890 -2.9985 0.9677
3.2160 -6.9303 -2.9985 0.9677
4.9326 -5.8343 -2.9985 0.9677
5.8889 -4.8672 -2.9985 0.9677
6.2987 -4.3238 -2.9985 0.9677
7.2172 -2.5060 -2.9984 0.9677
7.6380 0.1703 -2.9984 0.9677
7.5925 0.8494 -2.9984 0.9677
7.4868 1.5218 -2.9984 0.9677
6.8188 3.4457 -2.9984 0.9677
6.4850 4.0389 -2.9985 0.9677
8.6426 6.5177 -4.2484 0.9546
8.0282 7.2611 -4.2484 0.9546
4.4306 5.7409 -2.8461 0.9693
1.5236 7.0901 -2.8462 0.9693
0.2423 7.2480 -2.8462 0.9693
-0.4037 7.2408 -2.8462 0.9693
-3.4853 6.3599 -2.8463 0.9693
-4.0375 6.0245 -2.8463 0.9693
-6.2015 4.4635 -2.9988 0.9677
-6.5741 3.8939 -2.9988 0.9677
-6.8946 3.2933 -2.9988 0.9677
-7.5197 1.3548 -2.9988 0.9677
-7.6105 0.6801 -2.9988 0.9677
-7.2825 0.0000 -2.9988 0.9690
-7.2536 -0.6481 -2.9988 0.9690
-6.8246 -2.5414 -2.9988 0.9690
-6.5713 -3.1388 -2.9988 0.9690
-6.2658 -3.7112 -2.9988 0.9690
-5.9106 -4.2541 -2.9987 0.9690
-5.5085 -4.7633 -2.9987 0.9690
-4.5766 -5.6644 -2.9987 0.9690
-2.9174 -6.6722 -2.9987 0.9690
-2.3119 -6.9054 -2.9987 0.9690
-0.4054 -7.2707 -2.9986 0.9690
0.2433 -7.2779 -2.9986 0.9690
0.8901 -7.2273 -2.9986 0.9690
1.5299 -7.1194 -2.9986 0.9690
2.7679 -6.7353 -2.9985 0.9690
3.9182 -6.1377 -2.9985 0.9690
4.9443 -5.3457 -2.9985 0.9690
5.8138 -4.3844 -2.9985 0.9690
6.1809 -3.8495 -2.9985 0.9690
6.4990 -3.2840 -2.9984 0.9690
6.7655 -2.6926 -2.9984 0.9690
7.1357 -1.4503 -2.9984 0.9690
7.2365 -0.8095 -2.9984 0.9690
7.2798 -0.1622 -2.9984 0.9690
7.2654 0.4864 -2.9984 0.9690
7.1932 1.1311 -2.9984 0.9690
7.0640 1.7669 -2.9984 0.9690
6.8787 2.3886 -2.9984 0.9690
6.6389 2.9914 -2.9984 0.9690
6.3463 3.5704 -2.9985 0.9690
6.0033 4.1211 -2.9985 0.9690
7.9525 6.5729 -4.2484 0.9564
3.9749 5.6544 -2.8461 0.9705
2.3398 6.5037 -2.8462 0.9705
1.7517 6.6862 -2.8462 0.9705
0.5385 6.8909 -2.8462 0.9705
-0.6919 6.8773 -2.8462 0.9705
-1.9003 6.6458 -2.8463 0.9705
-2.4843 6.4503 -2.8463 0.9705
-3.0485 6.2036 -2.8463 0.9705
-3.5886 5.9077 -2.8463 0.9705
-4.5792 5.1778 -2.8463 0.9705
-5.0220 4.7497 -2.8463 0.9705
-5.7152 4.5133 -2.9987 0.9690
-6.0942 3.9867 -2.9988 0.9690
-6.4249 3.4285 -2.9988 0.9690
-7.1024 1.6092 -2.9988 0.9690
-7.2175 0.9707 -2.9988 0.9690
-7.2752 0.3245 -2.9988 0.9690
-7.2752 -0.3244 -2.9988 0.9690
-7.1024 -1.6092 -2.9988 0.9690
-6.7046 -2.8429 -2.9988 0.9690
-6.4249 -3.4284 -2.9988 0.9690
-5.2908 -5.0039 -2.9987 0.9690
-4.8244 -5.4550 -2.9987 0.9690
-4.3197 -5.8627 -2.9987 0.9690
-3.7807 -6.2239 -2.9987 0.9690
-3.2117 -6.5356 -2.9987 0.9690
-2.6173 -6.7956 -2.9987 0.9690
-2.0020 -7.0015 -2.9987 0.9690
-1.3709 -7.1518 -2.9986 0.9690
-0.7289 -7.2455 -2.9986 0.9690
-0.0811 -7.2815 -2.9986 0.9690
1.2112 -7.1805 -2.9986 0.9690
3.0652 -6.6053 -2.9985 0.9690
5.1776 -5.1202 -2.9985 0.9690
5.6127 -4.6390 -2.9985 0.9690
6.0033 -4.1210 -2.9985 0.9690
6.3463 -3.5703 -2.9985 0.9690
6.8787 -2.3885 -2.9984 0.9690
7.1357 1.4504 -2.9984 0.9690
6.4990 3.2841 -2.9985 0.9690
6.1809 3.8496 -2.9985 0.9690
4.6931 5.0741 -2.8461 0.9705
3.7191 5.8259 -2.8461 0.9705
3.1858 6.1338 -2.8461 0.9705
1.4521 6.7577 -2.8462 0.9705
0.2310 6.9081 -2.8462 0.9705
-0.3848 6.9013 -2.8462 0.9705
-2.1944 6.5545 -2.8463 0.9705
-2.7691 6.3332 -2.8463 0.9705
-4.3440 5.3767 -2.8463 0.9705
-4.8053 4.9687 -2.8463 0.9705
-5.9106 4.2542 -2.9987 0.9690
-6.5713 3.1389 -2.9988 0.9690
-6.9519 0.0001 -2.9988 0.9702
-6.9243 -0.6187 -2.9988 0.9702
-6.8418 -1.2325 -2.9988 0.9702
-6.7049 -1.8367 -2.9988 0.9702
-5.9814 -3.5427 -2.9987 0.9702
-5.6423 -4.0611 -2.9987 0.9702
-4.8328 -4.9971 -2.9987 0.9702
-4.3689 -5.4074 -2.9987 0.9702
-2.7850 -6.3694 -2.9987 0.9702
-2.2070 -6.5920 -2.9987 0.9702
-1.0033 -6.8788 -2.9986 0.9702
3.7404 -5.8592 -2.9985 0.9702
4.7200 -5.1031 -2.9985 0.9702
5.1554 -4.6628 -2.9985 0.9702
5.5500 -4.1854 -2.9985 0.9702
6.2041 -3.1350 -2.9985 0.9702
6.4585 -2.5704 -2.9984 0.9702
6.6616 -1.9854 -2.9984 0.9702
6.9494 -0.1548 -2.9984 0.9702
6.8668 1.0798 -2.9984 0.9702
6.7435 1.6867 -2.9984 0.9702
6.3376 2.8556 -2.9985 0.9702
7.5916 6.2746 -4.2484 0.9580
1.6722 6.3828 -2.8462 0.9717
1.0975 6.5063 -2.8462 0.9717
0.5140 6.5782 -2.8462 0.9717
-0.6605 6.5652 -2.8462 0.9717
-1.2422 6.4804 -2.8462 0.9717
-1.8140 6.3441 -2.8463 0.9717
-2.3715 6.1575 -2.8463 0.9717
-2.9102 5.9221 -2.8463 0.9717
-3.9141 5.3123 -2.8463 0.9717
-6.4003 2.7140 -2.9988 0.9702
-6.6164 2.1336 -2.9988 0.9702
-6.8899 -0.9265 -2.9988 0.9702
-6.7801 -1.5361 -2.9988 0.9702
-6.6164 -2.1335 -2.9988 0.9702
-6.4003 -2.7139 -2.9988 0.9702
-6.1333 -3.2728 -2.9988 0.9702
-5.8176 -3.8057 -2.9987 0.9702
-5.0507 -4.7769 -2.9987 0.9702
-4.1237 -5.5966 -2.9987 0.9702
-3.0660 -6.2390 -2.9987 0.9702
-1.9112 -6.6837 -2.9986 0.9702
-1.3087 -6.8273 -2.9986 0.9702
0.5416 -6.9304 -2.9986 0.9702
3.4757 -6.0200 -2.9985 0.9702
4.4880 -5.3083 -2.9985 0.9702
4.9426 -4.8878 -2.9985 0.9702
6.0583 -3.4083 -2.9985 0.9702
6.3376 -2.8555 -2.9985 0.9702
6.5666 -2.2801 -2.9984 0.9702
6.9081 0.7728 -2.9984 0.9702
6.8119 1.3846 -2.9984 0.9702
5.5500 4.1855 -2.9985 0.9702
6.6875 7.2305 -4.2484 0.9580
4.0312 5.2234 -2.8461 0.9717
3.5503 5.5615 -2.8461 0.9717
3.0412 5.8554 -2.8461 0.9717
1.9549 6.3019 -2.8462 0.9717
1.3862 6.4510 -2.8462 0.9717
-0.3673 6.5881 -2.8462 0.9717
-3.1711 5.7865 -2.8463 0.9717
-3.6735 5.4814 -2.8463 0.9717
-4.1468 5.1327 -2.8463 0.9717
-5.9814 3.5428 -2.9988 0.9702
-6.7049 1.8367 -2.9988 0.9702
-6.8418 1.2327 -2.9988 0.9702
-6.9243 0.6188 -2.9988 0.9702
-6.6460 0.0000 -2.9988 0.9713
-6.2281 -2.3193 -2.9988 0.9713
-4.1766 -5.1694 -2.9987 0.9713
-3.6999 -5.5206 -2.9987 0.9713
-3.1938 -5.8279 -2.9987 0.9713
-1.5406 -6.4646 -2.9986 0.9713
-0.9591 -6.5760 -2.9986 0.9713
0.2221 -6.6418 -2.9986 0.9713
0.8123 -6.5957 -2.9986 0.9713
3.5758 -5.6013 -2.9985 0.9713
4.0601 -5.2608 -2.9985 0.9713
4.5122 -4.8785 -2.9985 0.9713
4.9285 -4.4575 -2.9985 0.9713
5.3057 -4.0012 -2.9985 0.9713
6.1742 -2.4572 -2.9985 0.9713
6.5121 -1.3236 -2.9984 0.9713
6.6041 -0.7387 -2.9984 0.9713
6.6304 0.4439 -2.9984 0.9713
6.2776 2.1799 -2.9985 0.9713
6.0587 2.7299 -2.9985 0.9713
5.1222 4.2337 -2.9985 0.9713
6.6948 6.6206 -4.2484 0.9595
3.6275 5.1602 -2.8461 0.9727
3.1538 5.4627 -2.8461 0.9727
2.1353 5.9353 -2.8462 0.9727
0.4914 6.2887 -2.8462 0.9727
-0.0703 6.3075 -2.8462 0.9727
-2.7821 5.6614 -2.8463 0.9727
-3.7418 5.0785 -2.8463 0.9727
-5.2157 4.1188 -2.9987 0.9713
-5.5616 3.6383 -2.9987 0.9713
-6.1186 2.5945 -2.9988 0.9713
-6.3252 2.0397 -2.9988 0.9713
-6.4817 1.4686 -2.9988 0.9713
-6.5866 0.8859 -2.9988 0.9713
-6.1186 -2.5945 -2.9988 0.9713
-5.8633 -3.1287 -2.9987 0.9713
-5.2157 -4.1187 -2.9987 0.9713
-4.8284 -4.5666 -2.9987 0.9713
-3.9422 -5.3503 -2.9987 0.9713
-3.4503 -5.6799 -2.9987 0.9713
-2.3885 -6.2016 -2.9987 0.9713
-1.8271 -6.3896 -2.9986 0.9713
-0.6652 -6.6122 -2.9986 0.9713
-0.0740 -6.6451 -2.9986 0.9713
1.1053 -6.5529 -2.9986 0.9713
1.6842 -6.4285 -2.9986 0.9713
3.8217 -5.4364 -2.9985 0.9713
4.2904 -5.0747 -2.9985 0.9713
5.1222 -4.2336 -2.9985 0.9713
5.4787 -3.7608 -2.9985 0.9713
6.5646 -1.0322 -2.9984 0.9713
6.6304 -0.4438 -2.9984 0.9713
6.6436 0.1481 -2.9984 0.9713
6.5121 1.3237 -2.9985 0.9713
6.3684 1.8980 -2.9985 0.9713
5.9310 2.9971 -2.9985 0.9713
5.6408 3.5132 -2.9985 0.9713
5.3057 4.0012 -2.9985 0.9713
6.9831 6.3158 -4.2484 0.9595
6.3932 6.9123 -4.2485 0.9595
3.8538 4.9935 -2.8461 0.9727
2.9074 5.5977 -2.8461 0.9727
1.8688 6.0246 -2.8462 0.9727
0.7711 6.2605 -2.8462 0.9727
0.2108 6.3044 -2.8462 0.9727
-0.3512 6.2981 -2.8462 0.9727
-0.9104 6.2419 -2.8462 0.9727
-3.0315 5.5319 -2.8463 0.9727
-4.5601 4.7153 -2.9598 0.9716
-5.0270 4.3471 -2.9987 0.9713
-5.3940 3.8824 -2.9987 0.9713
-5.7181 3.3869 -2.9987 0.9713
-6.4098 1.7559 -2.9988 0.9713
-6.3617 0.0000 -2.9988 0.9723
-6.3365 -0.5662 -2.9988 0.9723
-6.2609 -1.1279 -2.9988 0.9723
-5.9617 -2.2201 -2.9987 0.9723
-5.4736 -3.2420 -2.9987 0.9723
-5.1633 -3.7163 -2.9987 0.9723
-4.8120 -4.1611 -2.9987 0.9723
-4.4225 -4.5728 -2.9987 0.9723
-3.9980 -4.9483 -2.9987 0.9723
-3.5417 -5.2845 -2.9987 0.9723
-3.0572 -5.5787 -2.9987 0.9723
-2.5485 -5.8286 -2.9987 0.9723
-2.0196 -6.0323 -2.9987 0.9723
-1.4747 -6.1881 -2.9986 0.9723
-0.9181 -6.2948 -2.9986 0.9723
0.7776 -6.3136 -2.9986 0.9723
1.8847 -6.0756 -2.9986 0.9723
3.4229 -5.3618 -2.9985 0.9723
3.8865 -5.0358 -2.9985 0.9723
4.3193 -4.6699 -2.9985 0.9723
4.7177 -4.2669 -2.9985 0.9723
5.3995 -3.3628 -2.9985 0.9723
5.6774 -2.8689 -2.9985 0.9723
6.3216 -0.7072 -2.9985 0.9723
6.2839 0.9881 -2.9985 0.9723
5.7996 2.6132 -2.9985 0.9723
5.5440 3.1190 -2.9985 0.9723
4.9031 4.0526 -2.9985 0.9723
6.4085 6.3375 -4.2485 0.9609
5.8189 6.8827 -4.2485 0.9609
3.0190 5.2290 -2.8461 0.9737
1.5302 5.8409 -2.8462 0.9737
0.4704 6.0197 -2.8462 0.9737
-0.0673 6.0377 -2.8462 0.9737
-0.6044 6.0078 -2.8462 0.9737
-1.1367 5.9302 -2.8462 0.9737
-1.6600 5.8055 -2.8462 0.9737
-2.1702 5.6348 -2.8463 0.9737
-2.6631 5.4193 -2.8463 0.9737
-3.1349 5.1608 -2.8463 0.9737
-3.5818 4.8613 -2.8463 0.9737
-4.6219 4.3714 -2.9987 0.9723
-4.9926 3.9427 -2.9987 0.9723
-5.3237 3.4827 -2.9987 0.9723
-5.8569 2.4836 -2.9987 0.9723
-6.3554 0.2835 -2.9988 0.9723
-6.0547 -1.9524 -2.9987 0.9723
-5.3237 -3.4826 -2.9987 0.9723
-4.2144 -4.7653 -2.9987 0.9723
-3.7736 -5.1215 -2.9987 0.9723
-3.3027 -5.4370 -2.9987 0.9723
-2.8057 -5.7094 -2.9987 0.9723
-1.7489 -6.1163 -2.9986 0.9723
-0.6368 -6.3294 -2.9986 0.9723
-0.0709 -6.3609 -2.9986 0.9723
0.4956 -6.3420 -2.9986 0.9723
1.0581 -6.2727 -2.9986 0.9723
2.6777 -5.7702 -2.9985 0.9723
3.1806 -5.5089 -2.9985 0.9723
4.1069 -4.8577 -2.9985 0.9723
4.5230 -4.4729 -2.9985 0.9723
5.2444 -3.6000 -2.9985 0.9723
6.0091 -2.0865 -2.9985 0.9723
6.3595 0.1417 -2.9985 0.9723
6.3216 0.7072 -2.9985 0.9723
6.0961 1.8169 -2.9985 0.9723
5.3995 3.3629 -2.9985 0.9723
6.6844 6.0457 -4.2484 0.9609
6.1198 6.6166 -4.2485 0.9609
3.2489 5.0893 -2.8461 0.9737
0.2018 6.0347 -2.8462 0.9737
-0.3362 6.0287 -2.8462 0.9737
-1.9170 5.7258 -2.8463 0.9737
-2.4190 5.5325 -2.8463 0.9737
-3.3617 5.0160 -2.8463 0.9737
-5.1633 3.7163 -2.9987 0.9723
-5.7404 2.7420 -2.9987 0.9723
-6.0968 0.0000 -2.9988 0.9732
-6.0726 -0.5426 -2.9988 0.9732
-6.0002 -1.0810 -2.9987 0.9732
-5.8802 -1.6107 -2.9987 0.9732
-5.7135 -2.1277 -2.9987 0.9732
-5.5014 -2.6278 -2.9987 0.9732
-5.2457 -3.1070 -2.9987 0.9732
-4.6117 -3.9878 -2.9987 0.9732
-4.2384 -4.3824 -2.9987 0.9732
-3.8315 -4.7423 -2.9987 0.9732
-2.4424 -5.5860 -2.9987 0.9732
-1.9356 -5.7812 -2.9986 0.9732
-0.8799 -6.0327 -2.9986 0.9732
-0.3394 -6.0870 -2.9986 0.9732
0.2037 -6.0931 -2.9986 0.9732
2.3173 -5.6388 -2.9985 0.9732
2.8100 -5.4101 -2.9985 0.9732
3.2803 -5.1386 -2.9985 0.9732
3.7247 -4.8262 -2.9985 0.9732
4.1394 -4.4755 -2.9985 0.9732
4.5213 -4.0893 -2.9985 0.9732
5.1747 -3.2228 -2.9985 0.9732
5.4410 -2.7494 -2.9985 0.9732
5.6641 -2.2542 -2.9985 0.9732
5.8423 -1.7412 -2.9985 0.9732
6.0584 -0.6777 -2.9985 0.9732
6.0947 -0.1358 -2.9985 0.9732
6.0222 0.9470 -2.9985 0.9732
5.9141 1.4792 -2.9985 0.9732
5.7589 1.9997 -2.9985 0.9732
5.3132 2.9892 -2.9985 0.9732
4.6990 3.8839 -2.9985 0.9732
6.1417 6.0736 -4.2485 0.9622
2.4358 5.2490 -2.8462 0.9745
1.9589 5.4450 -2.8462 0.9745
0.9625 5.7061 -2.8462 0.9745
0.4508 5.7691 -2.8462 0.9745
-0.0645 5.7864 -2.8462 0.9745
-1.0894 5.6833 -2.8462 0.9745
-1.5909 5.5638 -2.8462 0.9745
-2.0798 5.4002 -2.8463 0.9745
-3.0044 4.9459 -2.8463 0.9745
-3.4826 4.7266 -2.8877 0.9742
-4.0390 4.5670 -2.9987 0.9732
-4.4294 4.1894 -2.9987 0.9732
-4.7847 3.7785 -2.9987 0.9732
-5.3789 2.8703 -2.9987 0.9732
-5.6130 2.3802 -2.9987 0.9732
-5.8026 1.8712 -2.9987 0.9732
-5.9461 1.3472 -2.9987 0.9732
-6.0908 0.2716 -2.9988 0.9732
-6.0424 -0.8126 -2.9988 0.9732
-5.9461 -1.3472 -2.9987 0.9732
-5.8026 -1.8711 -2.9987 0.9732
-5.6130 -2.3801 -2.9987 0.9732
-5.1021 -3.3376 -2.9987 0.9732
-4.7847 -3.7784 -2.9987 0.9732
-2.6889 -5.4716 -2.9987 0.9732
-2.1912 -5.6892 -2.9987 0.9732
-1.6761 -5.8616 -2.9986 0.9732
-1.1477 -5.9875 -2.9986 0.9732
-0.0679 -6.0961 -2.9986 0.9732
0.4749 -6.0779 -2.9986 0.9732
2.0638 -5.7364 -2.9986 0.9732
3.9360 -4.6554 -2.9985 0.9732
4.3347 -4.2866 -2.9985 0.9732
5.0260 -3.4502 -2.9985 0.9732
5.3132 -2.9891 -2.9985 0.9732
5.9141 -1.4792 -2.9985 0.9732
6.0222 -0.9469 -2.9985 0.9732
6.0947 0.1359 -2.9985 0.9732
6.0584 0.6778 -2.9985 0.9732
5.9741 1.2143 -2.9985 0.9732
5.8423 1.7412 -2.9985 0.9732
5.4410 2.7495 -2.9985 0.9732
5.1747 3.2229 -2.9985 0.9732
5.8651 6.3412 -4.2485 0.9622
2.6672 5.1353 -2.8461 0.9745
2.1995 5.3523 -2.8462 0.9745
-1.3415 5.6291 -2.8462 0.9745
-1.8372 5.4875 -2.8463 0.9745
-4.2384 4.3825 -2.9987 0.9732
-5.7135 2.1278 -2.9987 0.9732
-5.8802 1.6108 -2.9987 0.9732
-6.0002 1.0810 -2.9988 0.9732
-5.8493 0.0000 -2.9987 0.9740
-5.7566 -1.0371 -2.9987 0.9741
-5.6414 -1.5453 -2.9987 0.9741
-5.4815 -2.0413 -2.9987 0.9741
-5.2780 -2.5211 -2.9987 0.9741
-5.0327 -2.9808 -2.9987 0.9741
-4.0663 -4.2045 -2.9987 0.9741
-2.3433 -5.3591 -2.9987 0.9741
-1.8570 -5.5464 -2.9986 0.9741
-1.3559 -5.6897 -2.9986 0.9741
0.1954 -5.8457 -2.9986 0.9741
1.7329 -5.5863 -2.9986 0.9741
2.6959 -5.1905 -2.9985 0.9741
4.9646 -3.0920 -2.9985 0.9741
5.7315 -1.1650 -2.9985 0.9741
5.8125 -0.6502 -2.9985 0.9741
5.8357 0.3907 -2.9985 0.9741
5.7777 0.9085 -2.9985 0.9741
5.6739 1.4192 -2.9985 0.9741
5.5251 1.9186 -2.9985 0.9741
5.3324 2.4027 -2.9985 0.9741
5.0974 2.8678 -2.9985 0.9741
4.8220 3.3102 -2.9985 0.9741
4.5082 3.7262 -2.9985 0.9741
4.1587 4.1127 -2.9985 0.9741
4.7658 6.7795 -4.2485 0.9634
4.1435 7.1768 -4.2485 0.9634
2.3369 5.0358 -2.8462 0.9754
1.8794 5.2239 -2.8462 0.9754
0.9234 5.4744 -2.8462 0.9754
0.4325 5.5349 -2.8462 0.9754
-0.0618 5.5514 -2.8462 0.9754
-1.0452 5.4526 -2.8462 0.9754
-1.9954 5.1809 -2.8463 0.9754
-2.8826 4.7454 -2.8465 0.9754
-3.4677 4.7064 -2.9970 0.9741
-3.8750 4.3815 -2.9987 0.9741
-4.5905 3.6251 -2.9987 0.9741
-4.8949 3.2021 -2.9987 0.9741
-5.1605 2.7537 -2.9987 0.9741
-5.3851 2.2835 -2.9987 0.9741
-5.5670 1.7952 -2.9987 0.9740
-5.7971 0.7797 -2.9987 0.9740
-5.5670 -1.7951 -2.9987 0.9741
-5.3851 -2.2835 -2.9987 0.9741
-4.8949 -3.2021 -2.9987 0.9741
-4.2496 -4.0192 -2.9987 0.9741
-3.8750 -4.3814 -2.9987 0.9741
-3.4696 -4.7089 -2.9987 0.9741
-2.5797 -5.2495 -2.9987 0.9741
-1.6080 -5.6236 -2.9986 0.9741
-1.1011 -5.7444 -2.9986 0.9741
-0.5855 -5.8196 -2.9986 0.9741
0.4557 -5.8312 -2.9986 0.9741
0.9729 -5.7674 -2.9986 0.9741
2.9244 -5.0652 -2.9985 0.9741
4.1587 -4.1126 -2.9985 0.9741
5.0974 -2.8678 -2.9985 0.9741
5.3324 -2.4027 -2.9985 0.9741
5.5251 -1.9185 -2.9985 0.9741
5.6739 -1.4191 -2.9985 0.9741
5.8473 0.1303 -2.9985 0.9741
5.8125 0.6503 -2.9985 0.9741
5.6051 1.6705 -2.9985 0.9741
5.2201 2.6379 -2.9985 0.9741
4.3378 3.9233 -2.9985 0.9741
5.0631 6.5605 -4.2485 0.9634
4.4591 6.9851 -4.2485 0.9634
2.1102 5.1350 -2.8462 0.9754
1.1664 5.4278 -2.8462 0.9754
-0.8012 5.4937 -2.8462 0.9754
-1.7626 5.2646 -2.8463 0.9754
-3.1641 4.7212 -2.9137 0.9748
-4.7474 3.4170 -2.9987 0.9741
-5.2780 2.5212 -2.9987 0.9741
-5.7566 1.0371 -2.9987 0.9740
-5.8261 0.5206 -2.9987 0.9740
-5.6173 0.0001 -2.9987 0.9749
-5.5283 -0.9959 -2.9987 0.9749
-5.4177 -1.4840 -2.9987 0.9749
-5.2641 -1.9603 -2.9987 0.9749
-4.8331 -2.8626 -2.9987 0.9749
-4.5591 -3.2814 -2.9987 0.9749
-3.9050 -4.0377 -2.9987 0.9749
-2.2503 -5.1466 -2.9987 0.9749
-1.7833 -5.3264 -2.9986 0.9749
-0.8106 -5.5582 -2.9986 0.9749
-0.3127 -5.6083 -2.9986 0.9749
0.1877 -5.6138 -2.9986 0.9749
1.1801 -5.4916 -2.9986 0.9749
2.5890 -4.9846 -2.9985 0.9749
3.0223 -4.7344 -2.9985 0.9749
3.4317 -4.4466 -2.9985 0.9749
4.1657 -3.7677 -2.9985 0.9749
4.7677 -2.9693 -2.9985 0.9749
5.2187 -2.0769 -2.9985 0.9749
5.3828 -1.6042 -2.9985 0.9749
5.5042 -1.1187 -2.9985 0.9749
5.5819 -0.6244 -2.9985 0.9749
5.6042 0.3752 -2.9985 0.9749
5.5486 0.8725 -2.9985 0.9749
4.8953 2.7541 -2.9985 0.9749
3.9938 3.9496 -2.9985 0.9749
5.1381 6.0774 -4.2485 0.9646
4.5768 6.5106 -4.2485 0.9646
3.9792 6.8922 -4.2485 0.9646
0.8868 5.2573 -2.8462 0.9761
0.4153 5.3154 -2.8462 0.9761
-1.0037 5.2363 -2.8462 0.9761
-1.9162 4.9754 -2.8463 0.9761
-2.3515 4.7851 -2.8463 0.9761
-3.3320 4.5223 -2.9987 0.9749
-4.4084 3.4813 -2.9987 0.9749
-4.7008 3.0752 -2.9987 0.9749
-5.1715 2.1930 -2.9987 0.9749
-5.3462 1.7240 -2.9987 0.9749
-5.4784 -1.2412 -2.9987 0.9749
-5.3462 -1.7239 -2.9987 0.9749
-5.1715 -2.1929 -2.9987 0.9749
