ply
format ascii 1.0
element vertex 1585
property float32 x
property float32 y
property float32 z
property float32 I
end_header
-1.9581 -5.0840 -0.3173 0.9784
-1.0983 -5.7299 -0.3398 0.9769
6.6368 7.1756 -0.5693 0.9616
-3.4628 -5.1669 -0.4661 0.9754
-3.0474 -5.0167 -0.4399 0.9767
-2.4510 -4.9876 -0.4165 0.9780
-1.9629 -5.0965 -0.4093 0.9783
-1.5246 -5.3319 -0.4156 0.9780
6.6363 7.1751 -0.7324 0.9616
-2.7452 -5.0093 -0.5237 0.9773
-2.2091 -5.0524 -0.5055 0.9781
-1.3205 -5.5409 -0.5222 0.9774
-0.9006 -6.1751 -0.5721 0.9752
-1.5333 -5.3622 -0.5113 0.9778
-1.1108 -5.7949 -0.5409 0.9766
-3.5430 -5.2865 -0.6903 0.9747
-2.7627 -5.0413 -0.6235 0.9771
-2.2208 -5.0791 -0.6013 0.9779
-1.7601 -5.2573 -0.6013 0.9779
-3.0960 -5.0967 -0.6468 0.9763
-1.9835 -5.1500 -0.5986 0.9780
-1.1185 -5.8349 -0.6444 0.9764
-1.3362 -5.6070 -0.7223 0.9770
-0.9265 -6.3524 -0.8045 0.9745
-3.1211 -5.1380 -0.7534 0.9761
-2.4925 -5.0720 -0.7082 0.9775
-1.9940 -5.1773 -0.6953 0.9779
-1.5510 -5.4241 -0.7070 0.9775
-1.1262 -5.8755 -0.7497 0.9762
6.6348 7.1734 -1.2245 0.9614
-2.8084 -5.1246 -0.8312 0.9767
-2.2480 -5.1414 -0.7981 0.9776
-1.3499 -5.6643 -0.8282 0.9767
-2.5121 -5.1119 -0.8102 0.9773
-2.0074 -5.2121 -0.7944 0.9777
-1.5633 -5.4673 -0.8088 0.9773
-1.1422 -5.9586 -0.8630 0.9758
-2.8427 -5.1872 -0.9419 0.9763
-2.2704 -5.1926 -0.9024 0.9773
-0.9937 -6.8137 -1.0965 0.9725
-3.2159 -5.2941 -0.9864 0.9752
-2.0273 -5.2638 -0.8982 0.9774
-1.5803 -5.5267 -0.9153 0.9770
-1.1612 -6.0576 -0.9822 0.9753
6.6337 7.1723 -1.5557 0.9612
-2.2934 -5.2451 -1.0094 0.9770
-2.5662 -5.2220 -1.0260 0.9766
-2.0477 -5.3167 -1.0046 0.9771
-1.5978 -5.5877 -1.0248 0.9767
-1.1809 -6.1605 -1.1060 0.9748
6.6332 7.1718 -1.7225 0.9611
-2.3184 -5.3022 -1.1199 0.9767
8.4686 12.0467 -2.8496 0.9418
7.3616 12.7507 -2.8492 0.9418
2.4472 14.5080 -2.8472 0.9418
1.1460 14.6656 -2.8467 0.9418
-1.4719 14.6310 -2.8456 0.9418
-4.0412 14.1331 -2.8446 0.9419
-5.2822 13.7149 -2.8441 0.9419
-9.7303 11.0022 -2.8423 0.9419
-11.5239 9.1004 -2.8416 0.9419
-12.2868 8.0377 -2.8413 0.9419
-12.9523 6.9116 -2.8410 0.9419
-2.5991 -5.2890 -1.1404 0.9763
-2.0692 -5.3727 -1.1142 0.9768
6.6327 7.1712 -1.8903 0.9610
8.9975 11.6584 -2.8499 0.9418
7.9229 12.4111 -2.8494 0.9418
6.7857 13.0649 -2.8490 0.9418
5.5950 13.6147 -2.8485 0.9418
4.3603 14.0562 -2.8480 0.9418
1.7983 14.6013 -2.8470 0.9418
-0.8187 14.6834 -2.8459 0.9418
-5.8874 13.4648 -2.8439 0.9419
-7.0613 12.8852 -2.8434 0.9419
-8.1788 12.2037 -2.8429 0.9419
-9.2312 11.4256 -2.8425 0.9419
-11.1077 9.6053 -2.8418 0.9419
-11.9172 8.5775 -2.8414 0.9419
-12.6321 7.4820 -2.8412 0.9419
-13.2467 6.3274 -2.8409 0.9419
-14.1966 0.0000 -2.9929 0.9436
-14.1404 -1.2636 -2.9929 0.9436
-13.6931 -3.7509 -2.9931 0.9436
-11.5265 -8.2962 -2.9940 0.9436
-9.8751 -10.2108 -2.9947 0.9436
-8.9282 -11.0506 -2.9950 0.9436
-1.8701 -5.5855 -1.2418 0.9762
-1.4413 -6.0479 -1.3107 0.9749
-2.0522 -14.0709 -2.9978 0.9435
0.4753 -14.2167 -2.9988 0.9435
2.9895 -13.9118 -2.9998 0.9435
4.2165 -13.5927 -3.0003 0.9435
9.6705 -10.4556 -3.0025 0.9434
12.0932 -7.5316 -3.0035 0.9434
12.7166 -6.4259 -3.0038 0.9434
13.2390 -5.2690 -3.0040 0.9434
13.6562 -4.0700 -3.0041 0.9434
14.2190 0.9519 -3.0044 0.9434
11.7861 6.6308 -2.8510 0.9462
11.1482 7.6528 -2.8507 0.9462
10.4217 8.6138 -2.8504 0.9462
8.7273 10.3227 -2.8497 0.9462
7.7728 11.0570 -2.8494 0.9462
5.6875 12.2563 -2.8485 0.9463
4.5734 12.7119 -2.8481 0.9463
1.0519 13.4618 -2.8467 0.9463
-0.1504 13.4997 -2.8462 0.9463
-7.0023 11.5274 -2.8434 0.9464
-7.9993 10.8569 -2.8430 0.9464
-8.9327 10.1004 -2.8426 0.9464
-10.5796 8.3546 -2.8420 0.9464
-11.2801 7.3791 -2.8417 0.9464
-11.8911 6.3453 -2.8415 0.9464
-14.0702 -1.8922 -2.9930 0.9436
-13.5128 -4.3573 -2.9932 0.9436
-12.5278 -6.6850 -2.9936 0.9436
-8.4277 -11.4381 -2.9952 0.9436
-2.6472 -5.3869 -1.2654 0.9758
-2.1047 -5.4647 -1.2346 0.9763
-2.6768 -13.9643 -2.9976 0.9435
-1.4235 -14.1495 -2.9981 0.9435
-0.1585 -14.2225 -2.9986 0.9435
2.3666 -14.0300 -2.9996 0.9435
3.6077 -13.7656 -3.0001 0.9435
4.8182 -13.3925 -3.0006 0.9435
5.9920 -12.9125 -3.0010 0.9435
7.1186 -12.3298 -3.0015 0.9435
9.1945 -10.8753 -3.0023 0.9434
10.1273 -10.0151 -3.0027 0.9434
12.4172 -6.9858 -3.0036 0.9434
12.9907 -5.8533 -3.0039 0.9434
14.0776 -2.2136 -3.0043 0.9434
14.1624 1.5843 -3.0043 0.9434
13.9648 2.8385 -3.0043 0.9434
13.6562 4.0700 -3.0041 0.9434
12.5661 5.0012 -2.8513 0.9462
10.0271 9.0690 -2.8503 0.9462
8.2582 10.7005 -2.8496 0.9462
7.2720 11.3914 -2.8492 0.9463
6.2283 11.9917 -2.8487 0.9463
4.0022 12.9020 -2.8478 0.9463
2.8375 13.2048 -2.8474 0.9463
1.6507 13.4027 -2.8469 0.9463
-1.9479 13.3558 -2.8455 0.9463
-3.1284 13.1273 -2.8450 0.9463
-4.2836 12.7946 -2.8445 0.9463
-5.4046 12.3606 -2.8441 0.9463
-6.4823 11.8287 -2.8436 0.9464
-7.5083 11.2032 -2.8432 0.9464
-8.4745 10.4890 -2.8428 0.9464
-9.3732 9.6919 -2.8425 0.9464
-11.5971 6.8690 -2.8416 0.9464
-13.6931 3.7510 -2.9931 0.9436
-13.9721 2.5172 -2.9930 0.9436
-14.1404 1.2636 -2.9929 0.9436
-13.1148 0.0001 -2.9934 0.9476
-13.0628 -1.1673 -2.9934 0.9476
-12.6496 -3.4650 -2.9935 0.9476
-9.9244 -8.5820 -2.9946 0.9476
-9.1222 -9.4322 -2.9950 0.9476
-7.3071 -10.9029 -2.9957 0.9476
-3.1060 -5.6678 -1.4751 0.9738
0.4390 -13.1313 -2.9988 0.9475
4.9972 -12.1599 -3.0006 0.9475
7.0760 -11.0843 -3.0015 0.9475
8.0355 -10.4118 -3.0019 0.9475
12.6119 -3.7587 -3.0037 0.9474
13.0011 2.0444 -3.0039 0.9474
12.7671 3.1933 -3.0038 0.9474
11.3877 5.1311 -2.8508 0.9500
10.2959 7.0678 -2.8504 0.9501
8.0603 9.5337 -2.8495 0.9501
3.1618 12.0685 -2.8475 0.9501
-2.3468 12.2432 -2.8453 0.9501
-3.4267 11.9839 -2.8449 0.9501
-4.4790 11.6296 -2.8444 0.9502
-7.3893 10.0289 -2.8433 0.9502
-9.0483 8.5579 -2.8426 0.9502
-9.7731 7.7178 -2.8423 0.9502
-10.4202 6.8166 -2.8420 0.9502
-10.9847 5.8617 -2.8418 0.9502
-11.4621 4.8604 -2.8416 0.9502
-12.7911 2.8982 -2.9935 0.9476
-12.9980 1.7481 -2.9934 0.9476
-13.1018 0.5843 -2.9934 0.9476
-13.1018 -0.5842 -2.9934 0.9476
-12.9980 -1.7480 -2.9934 0.9476
-12.7912 -2.8981 -2.9935 0.9476
-12.4830 -4.0252 -2.9936 0.9476
-11.5729 -6.1754 -2.9940 0.9476
-7.7850 -10.5658 -2.9955 0.9476
-6.8146 -11.2183 -2.9959 0.9476
-1.6814 -5.8802 -1.3959 0.9752
-1.3148 -13.0696 -2.9981 0.9475
1.0236 -13.0997 -2.9990 0.9475
2.1859 -12.9587 -2.9995 0.9475
3.3311 -12.7146 -3.0000 0.9475
6.5748 -11.3878 -3.0013 0.9475
7.5632 -10.7588 -3.0017 0.9475
8.4919 -10.0442 -3.0021 0.9475
10.8472 -7.4462 -3.0030 0.9474
11.4678 -6.4517 -3.0033 0.9474
12.4317 -4.3167 -3.0036 0.9474
13.0011 -2.0443 -3.0039 0.9474
13.1316 -0.8790 -3.0039 0.9474
10.6010 6.6024 -2.8505 0.9501
9.2607 8.3758 -2.8500 0.9501
6.5581 7.0905 -2.2045 0.9611
7.6271 9.8827 -2.8493 0.9501
6.7164 10.5210 -2.8489 0.9501
4.7432 11.5420 -2.8481 0.9501
3.6966 11.9166 -2.8477 0.9501
0.4167 12.4640 -2.8464 0.9501
-0.6942 12.4497 -2.8460 0.9501
-5.9879 10.9265 -2.8438 0.9502
-8.6586 8.9529 -2.8428 0.9502
-10.1067 7.2744 -2.8422 0.9502
-10.7131 6.3454 -2.8419 0.9502
-12.9073 2.3254 -2.9934 0.9476
-13.0628 1.1673 -2.9934 0.9476
-12.1313 -1.0840 -2.9938 0.9511
-10.9919 -5.2504 -2.9942 0.9511
-10.4817 -6.2083 -2.9944 0.9511
-2.4710 -5.6512 -1.5161 0.9749
-1.9543 -5.8371 -1.5130 0.9750
-1.7602 -12.0689 -2.9979 0.9510
-0.6791 -12.1795 -2.9984 0.9510
4.6400 -11.2909 -3.0005 0.9510
5.6273 -10.8345 -3.0009 0.9510
6.5701 -10.2919 -3.0013 0.9509
7.4610 -9.6675 -3.0016 0.9509
9.7530 -7.3550 -3.0026 0.9509
10.9042 -5.5101 -3.0030 0.9509
11.3521 -4.5180 -3.0032 0.9509
11.7097 -3.4898 -3.0033 0.9509
12.2165 -0.2722 -3.0036 0.9509
12.1922 0.8162 -3.0035 0.9509
12.0710 1.8981 -3.0035 0.9509
11.8538 2.9648 -3.0034 0.9509
10.1064 5.6858 -2.8503 0.9534
9.5595 6.5623 -2.8501 0.9534
8.9367 7.3864 -2.8498 0.9534
7.4840 8.8521 -2.8492 0.9534
6.6656 9.4820 -2.8489 0.9534
5.7945 10.0364 -2.8486 0.9534
2.9359 11.2062 -2.8474 0.9534
1.9265 11.4214 -2.8470 0.9534
-4.1593 10.7995 -2.8446 0.9534
-6.0066 9.8883 -2.8438 0.9535
-6.8621 9.3133 -2.8435 0.9535
-9.0759 7.1672 -2.8426 0.9535
-9.6770 6.3304 -2.8423 0.9535
-11.1420 4.7247 -2.9748 0.9514
-11.5927 3.7382 -2.9940 0.9511
-12.1675 0.5426 -2.9937 0.9511
-12.1675 -0.5425 -2.9937 0.9511
-11.5927 -3.7382 -2.9940 0.9511
-11.2146 -4.7554 -2.9941 0.9511
-10.7475 -5.7350 -2.9943 0.9511
-9.5619 -7.5509 -2.9948 0.9511
-7.2295 -9.8119 -2.9957 0.9510
-2.8034 -5.7047 -1.5624 0.9742
-1.7414 -6.0900 -1.5569 0.9742
-1.2209 -12.1362 -2.9981 0.9510
0.9505 -12.1639 -2.9990 0.9510
2.0297 -12.0329 -2.9995 0.9510
3.0931 -11.8061 -2.9999 0.9510
5.1387 -11.0737 -3.0007 0.9510
7.8847 -9.3260 -3.0018 0.9509
10.0714 -6.9136 -3.0027 0.9509
10.6476 -5.9902 -3.0029 0.9509
11.1392 -5.0191 -3.0031 0.9509
11.5423 -4.0079 -3.0033 0.9509
12.0710 -1.8980 -3.0035 0.9509
12.1436 1.3585 -3.0035 0.9509
11.9743 2.4339 -3.0035 0.9509
11.7097 3.4899 -3.0033 0.9509
9.8428 6.1302 -2.8502 0.9534
9.2573 6.9813 -2.8500 0.9534
8.5984 7.7768 -2.8497 0.9534
7.0818 9.1762 -2.8491 0.9534
3.4324 11.0650 -2.8476 0.9534
0.3870 11.5737 -2.8464 0.9534
-0.6446 11.5605 -2.8460 0.9534
-4.6359 10.6027 -2.8444 0.9535
-6.4408 9.6103 -2.8436 0.9535
-7.2697 8.9979 -2.8433 0.9535
-8.7480 7.5648 -2.8427 0.9535
-10.4333 4.9836 -2.8420 0.9535
-12.1313 1.0841 -2.9938 0.9511
-11.3176 -1.0113 -2.9941 0.9541
-11.1829 -2.0147 -2.9941 0.9541
-10.6493 -3.9658 -2.9944 0.9541
-9.7785 -5.7918 -2.9947 0.9541
-9.2249 -6.6396 -2.9949 0.9541
-8.5981 -7.4350 -2.9952 0.9541
-7.1450 -8.8434 -2.9958 0.9541
-5.4650 -9.9724 -2.9964 0.9540
-2.0280 -6.0573 -1.6832 0.9739
-2.6372 -11.0661 -2.9976 0.9540
3.3732 -10.8740 -3.0000 0.9540
5.2490 -10.1062 -3.0007 0.9540
8.4496 -7.6422 -3.0020 0.9540
9.6723 -6.0239 -3.0025 0.9540
10.1707 -5.1395 -3.0027 0.9540
10.9220 -3.2551 -3.0030 0.9540
11.3267 -1.2671 -3.0032 0.9539
11.3719 0.7613 -3.0032 0.9539
11.0563 2.7654 -3.0031 0.9540
8.9166 6.1209 -2.8498 0.9562
7.6887 7.6035 -2.8493 0.9563
6.9807 8.2569 -2.8490 0.9563
6.2175 8.8445 -2.8487 0.9563
4.5497 9.8045 -2.8481 0.9563
3.6586 10.1692 -2.8477 0.9563
1.7971 10.6539 -2.8470 0.9563
0.8416 10.7702 -2.8466 0.9563
-0.1203 10.8008 -2.8462 0.9563
-1.0810 10.7458 -2.8458 0.9563
-2.0329 10.6055 -2.8454 0.9563
-2.9684 10.3811 -2.8450 0.9563
-3.8801 10.0744 -2.8447 0.9563
-4.7607 9.6879 -2.8443 0.9563
-9.0278 5.9057 -2.8426 0.9564
-9.5169 5.0785 -2.8424 0.9564
-10.4623 4.4364 -2.9944 0.9541
-11.3514 0.5062 -2.9941 0.9541
-11.2614 -1.5145 -2.9941 0.9541
-10.8151 -3.4874 -2.9943 0.9541
-10.0265 -5.3503 -2.9946 0.9541
-9.5112 -6.2219 -2.9948 0.9541
-8.9204 -7.0443 -2.9950 0.9541
-7.5314 -8.5159 -2.9956 0.9541
-6.7443 -9.1534 -2.9959 0.9541
-2.2661 -5.8839 -1.6614 0.9743
-2.1418 -11.1733 -2.9978 0.9540
-1.1389 -11.3211 -2.9982 0.9540
-0.1268 -11.3791 -2.9986 0.9540
1.8933 -11.2243 -2.9994 0.9540
2.8852 -11.0127 -2.9998 0.9540
3.8545 -10.7136 -3.0002 0.9540
8.1004 -8.0106 -3.0019 0.9540
8.7820 -7.2585 -3.0022 0.9540
9.3940 -6.4486 -3.0024 0.9540
9.9314 -5.5873 -3.0026 0.9540
10.7659 -3.7383 -3.0030 0.9540
11.0563 -2.7653 -3.0031 0.9540
11.3267 1.2671 -3.0032 0.9539
11.1687 2.2702 -3.0031 0.9539
10.5884 4.2141 -3.0029 0.9540
9.6538 4.8783 -2.8501 0.9562
8.6347 6.5118 -2.8497 0.9562
8.0202 7.2538 -2.8495 0.9563
6.5154 7.0444 -2.5284 0.9611
4.9823 9.5926 -2.8482 0.9563
4.1082 9.9968 -2.8479 0.9563
2.2701 10.5640 -2.8472 0.9563
1.3206 10.7227 -2.8468 0.9563
0.3610 10.7962 -2.8464 0.9563
-1.5585 10.6862 -2.8456 0.9563
-2.5032 10.5037 -2.8452 0.9563
-3.4277 10.2379 -2.8449 0.9563
-6.7818 8.3940 -2.8435 0.9563
-8.7561 6.3023 -2.8427 0.9564
-9.9172 4.7371 -2.8960 0.9556
-10.6493 3.9659 -2.9944 0.9541
-11.1829 2.0147 -2.9941 0.9541
-10.4742 -1.8870 -2.9944 0.9567
-9.6046 -4.5877 -2.9948 0.9567
-9.1587 -5.4247 -2.9950 0.9567
-8.6401 -6.2188 -2.9952 0.9567
-8.0530 -6.9636 -2.9954 0.9567
-6.6919 -8.2827 -2.9959 0.9567
-5.9288 -8.8463 -2.9963 0.9567
-2.4699 -10.3640 -2.9976 0.9567
0.3561 -10.6523 -2.9988 0.9567
1.3030 -10.5797 -2.9992 0.9567
3.1590 -10.1836 -2.9999 0.9567
4.9157 -9.4644 -3.0006 0.9567
7.2437 -7.8318 -3.0016 0.9566
8.5190 -6.4245 -3.0021 0.9566
9.5244 -4.8129 -3.0025 0.9566
9.9155 -3.9462 -3.0026 0.9566
10.2278 -3.0482 -3.0028 0.9566
10.4589 -2.1258 -3.0028 0.9566
10.6068 -1.1865 -3.0029 0.9566
10.6492 0.7129 -3.0029 0.9566
10.3537 2.5896 -3.0028 0.9566
10.0817 3.5008 -3.0027 0.9566
7.8061 6.4519 -2.8494 0.9588
5.0617 8.7671 -2.8483 0.9588
3.4263 9.5235 -2.8476 0.9588
1.6830 9.9776 -2.8469 0.9588
-1.0124 10.0639 -2.8458 0.9588
-2.7801 9.7225 -2.8451 0.9589
-3.6339 9.4354 -2.8448 0.9589
-4.4588 9.0734 -2.8444 0.9589
-5.2481 8.6396 -2.8441 0.9589
-5.9956 8.1373 -2.8438 0.9589
-8.4555 5.5314 -2.8428 0.9589
-10.1297 3.2665 -2.9946 0.9567
-10.5478 1.4186 -2.9944 0.9567
-10.6320 0.4741 -2.9944 0.9567
-10.6320 -0.4740 -2.9944 0.9567
-10.5478 -1.4185 -2.9944 0.9567
-10.3799 -2.3517 -2.9945 0.9567
-9.7992 -4.1552 -2.9947 0.9567
-8.9083 -5.8275 -2.9951 0.9567
-8.3549 -6.5977 -2.9953 0.9567
-7.7351 -7.3158 -2.9955 0.9567
-6.3166 -8.5730 -2.9961 0.9567
-3.8285 -9.9405 -2.9971 0.9567
-2.0059 -10.4644 -2.9978 0.9567
0.8304 -10.6266 -2.9990 0.9567
1.7731 -10.5118 -2.9994 0.9567
6.1343 -8.7261 -3.0011 0.9566
9.3003 -5.2322 -3.0024 0.9566
10.3537 -2.5896 -3.0028 0.9566
10.5433 -1.6578 -3.0029 0.9566
10.6492 -0.7129 -3.0029 0.9566
10.6704 0.2378 -3.0029 0.9566
9.9155 3.9463 -3.0026 0.9566
8.5974 5.3545 -2.8497 0.9588
8.0861 6.0980 -2.8495 0.9588
7.5106 6.7930 -2.8493 0.9588
6.1860 8.0155 -2.8487 0.9588
2.9984 9.6661 -2.8474 0.9588
2.1260 9.8934 -2.8471 0.9588
-0.5631 10.0997 -2.8460 0.9588
-1.4597 10.0082 -2.8457 0.9588
-4.8583 8.8653 -2.8443 0.9589
-5.6275 8.3968 -2.8440 0.9589
-7.6437 6.6098 -2.8432 0.9589
-9.9743 3.7145 -2.9946 0.9567
-10.2650 2.8119 -2.9945 0.9567
-10.6004 0.9473 -2.9944 0.9567
-9.9631 -0.8903 -2.9946 0.9591
-9.8444 -1.7735 -2.9947 0.9591
-9.3746 -3.4911 -2.9949 0.9591
-9.0271 -4.3118 -2.9950 0.9591
-8.6080 -5.0985 -2.9952 0.9591
-8.1205 -5.8448 -2.9954 0.9591
-7.5687 -6.5448 -2.9956 0.9591
-6.9566 -7.1931 -2.9958 0.9591
-5.5721 -8.3141 -2.9964 0.9591
-4.8105 -8.7780 -2.9967 0.9591
-3.1786 -9.4939 -2.9974 0.9591
2.1049 -9.7954 -2.9995 0.9590
5.3934 -8.4486 -3.0008 0.9590
6.8072 -7.3599 -3.0014 0.9590
7.4359 -6.7254 -3.0016 0.9590
8.0056 -6.0373 -3.0019 0.9590
8.5118 -5.3012 -3.0021 0.9590
8.9503 -4.5228 -3.0022 0.9590
9.3178 -3.7084 -3.0024 0.9590
10.0271 -0.2234 -3.0027 0.9590
10.0072 0.6700 -3.0027 0.9590
9.9077 1.5580 -3.0026 0.9590
12.3829 6.9665 -4.2536 0.9424
7.8467 5.3865 -2.8494 0.9610
7.3356 6.0631 -2.8492 0.9610
6.7663 6.6914 -2.8490 0.9610
6.1434 7.2664 -2.8487 0.9610
5.4717 7.7837 -2.8484 0.9611
4.7567 8.2389 -2.8482 0.9611
4.0041 8.6287 -2.8478 0.9611
2.4103 9.1999 -2.8472 0.9611
1.5817 9.3768 -2.8469 0.9611
-0.1059 9.5064 -2.8462 0.9611
-1.7893 9.3348 -2.8455 0.9611
-3.4153 8.8676 -2.8449 0.9611
-4.1905 8.5275 -2.8446 0.9611
-5.6349 7.6478 -2.8440 0.9611
-6.9004 6.5264 -2.8435 0.9611
-9.5206 3.0700 -2.9948 0.9591
-9.9928 0.4456 -2.9946 0.9591
-9.9928 -0.4455 -2.9946 0.9591
-9.9136 -1.3332 -2.9946 0.9591
-9.7558 -2.2104 -2.9947 0.9591
-9.5206 -3.0700 -2.9948 0.9591
-9.2100 -3.9054 -2.9949 0.9591
-7.8524 -6.2009 -2.9955 0.9591
-5.9366 -8.0572 -2.9962 0.9591
-4.4149 -8.9840 -2.9969 0.9591
-2.7527 -9.6266 -2.9975 0.9591
-0.1116 -10.0154 -2.9986 0.9590
2.5393 -9.6924 -2.9997 0.9590
3.3923 -9.4290 -3.0000 0.9590
4.2185 -9.0907 -3.0003 0.9590
5.0114 -8.6800 -3.0007 0.9590
6.4723 -7.6554 -3.0012 0.9590
7.1286 -7.0496 -3.0015 0.9590
7.7284 -6.3877 -3.0017 0.9590
9.1432 -4.1197 -3.0023 0.9590
9.4740 -3.2897 -3.0024 0.9590
10.0072 -0.6698 -3.0027 0.9590
10.0271 0.2235 -3.0027 0.9590
9.6113 2.8645 -3.0025 0.9590
9.3178 3.7085 -3.0024 0.9590
12.6813 6.4081 -4.2537 0.9424
8.0792 5.0318 -2.8495 0.9610
7.0580 6.3836 -2.8491 0.9610
5.8133 7.5326 -2.8486 0.9611
5.1193 8.0193 -2.8483 0.9611
4.3848 8.4422 -2.8480 0.9611
2.8178 9.0839 -2.8474 0.9611
1.9979 9.2976 -2.8470 0.9611
1.1623 9.4374 -2.8467 0.9611
0.3177 9.5022 -2.8464 0.9611
-1.3718 9.4058 -2.8457 0.9611
-3.0170 9.0114 -2.8450 0.9611
-3.8067 8.7062 -2.8447 0.9611
-4.5660 8.3319 -2.8444 0.9611
-5.2889 7.8916 -2.8441 0.9611
-5.9697 7.3889 -2.8438 0.9611
-8.1705 4.8394 -2.8430 0.9611
-9.0271 4.3119 -2.9950 0.9591
-9.9631 0.8904 -2.9946 0.9591
-8.5102 -4.0650 -2.9952 0.9612
-8.1151 -4.8065 -2.9954 0.9612
-7.1352 -6.1700 -2.9958 0.9612
-5.9292 -7.3386 -2.9963 0.9612
-5.2529 -7.8379 -2.9965 0.9612
-3.7807 -8.6468 -2.9971 0.9612
-2.9965 -8.9499 -2.9974 0.9612
-1.3624 -9.3414 -2.9981 0.9612
-0.5256 -9.4267 -2.9984 0.9612
1.9842 -9.2337 -2.9994 0.9611
4.3546 -8.3841 -3.0004 0.9611
5.0841 -7.9640 -3.0007 0.9611
8.7831 -3.4955 -3.0022 0.9611
9.2643 -1.8830 -3.0024 0.9611
9.3953 -1.0510 -3.0024 0.9611
9.4516 -0.2106 -3.0024 0.9611
9.3391 1.4685 -3.0024 0.9611
11.6724 6.5668 -4.2533 0.9453
7.3965 5.0774 -2.8492 0.9630
6.9147 5.7152 -2.8490 0.9631
5.7909 6.8496 -2.8486 0.9631
5.1579 7.3372 -2.8483 0.9631
4.4839 7.7664 -2.8480 0.9631
3.7745 8.1338 -2.8478 0.9631
2.2721 8.6724 -2.8472 0.9631
1.4910 8.8392 -2.8468 0.9631
0.6983 8.9358 -2.8465 0.9631
-2.4630 8.6138 -2.8452 0.9631
-3.9504 8.0389 -2.8446 0.9631
-4.6498 7.6547 -2.8444 0.9631
-5.3122 7.2097 -2.8441 0.9631
-5.9323 6.7078 -2.8439 0.9631
-7.4980 4.9050 -2.8455 0.9631
-8.3209 4.4402 -2.9953 0.9612
-9.1972 2.0839 -2.9949 0.9612
-9.3460 1.2569 -2.9949 0.9612
-9.4207 0.4201 -2.9948 0.9612
-9.4207 -0.4200 -2.9948 0.9612
-9.3460 -1.2569 -2.9949 0.9612
-9.1973 -2.0838 -2.9949 0.9612
-1.7771 -9.2710 -2.9979 0.9612
-0.9450 -9.3934 -2.9983 0.9612
-0.1052 -9.4413 -2.9986 0.9611
0.7356 -9.4142 -2.9989 0.9611
3.1978 -8.8883 -2.9999 0.9611
6.7197 -6.6452 -3.0013 0.9611
8.2382 -4.6347 -3.0020 0.9611
8.6185 -3.8833 -3.0021 0.9611
9.1711 -2.2938 -3.0023 0.9611
9.3391 -1.4685 -3.0024 0.9611
9.4329 -0.6314 -3.0024 0.9611
9.3953 1.0510 -3.0024 0.9611
9.2643 1.8831 -3.0024 0.9611
9.0597 2.7001 -3.0023 0.9611
11.9537 6.0405 -4.2534 0.9453
11.3679 7.0800 -4.2532 0.9453
6.0906 6.5851 -2.8487 0.9631
2.6563 8.5630 -2.8473 0.9631
1.0957 8.8963 -2.8467 0.9631
0.2995 8.9576 -2.8464 0.9631
-0.4989 8.9477 -2.8460 0.9631
-6.2249 6.4366 -2.8437 0.9631
-6.7726 5.8565 -2.8435 0.9631
-7.2664 5.2301 -2.8433 0.9631
-8.5102 4.0650 -2.9952 0.9612
-8.8379 3.2913 -2.9951 0.9612
-9.0954 2.4915 -2.9950 0.9612
-9.3927 0.8394 -2.9949 0.9612
-8.9143 0.0001 -2.9951 0.9631
-8.5979 -2.3552 -2.9952 0.9631
-8.3545 -3.1112 -2.9953 0.9631
-7.6712 -4.5436 -2.9956 0.9631
-6.7449 -5.8325 -2.9959 0.9631
-6.1994 -6.4101 -2.9961 0.9631
-5.6047 -6.9370 -2.9964 0.9631
-3.5738 -8.1735 -2.9972 0.9631
-2.8324 -8.4600 -2.9975 0.9631
2.6452 -8.5273 -2.9997 0.9630
3.3940 -8.2588 -3.0000 0.9630
6.0651 -6.5574 -3.0011 0.9630
7.1326 -5.3789 -3.0015 0.9630
8.5630 -2.5521 -3.0021 0.9630
8.9335 -0.1990 -3.0022 0.9630
8.6683 2.1681 -3.0021 0.9630
8.4407 2.9310 -3.0020 0.9630
6.5358 5.4020 -2.8489 0.9649
6.0286 5.9618 -2.8487 0.9649
5.4736 6.4742 -2.8484 0.9649
4.2382 7.3409 -2.8479 0.9649
2.8690 7.9745 -2.8474 0.9649
2.1476 8.1974 -2.8471 0.9649
1.4093 8.3551 -2.8468 0.9649
0.6600 8.4465 -2.8465 0.9649
-1.5944 8.3181 -2.8456 0.9649
-3.0434 7.9020 -2.8450 0.9649
-3.7342 7.5990 -2.8447 0.9649
-4.3954 7.2358 -2.8445 0.9649
-7.8658 4.1973 -2.9955 0.9631
-8.2077 3.4804 -2.9953 0.9631
-8.4846 2.7360 -2.9952 0.9631
-8.9055 -0.3971 -2.9951 0.9631
-8.8349 -1.1881 -2.9951 0.9631
-8.4846 -2.7359 -2.9952 0.9631
-8.2078 -3.4803 -2.9953 0.9631
-7.8658 -4.1973 -2.9955 0.9631
-7.4614 -4.8809 -2.9956 0.9631
-6.9978 -5.5260 -2.9958 0.9631
-6.4786 -6.1274 -2.9960 0.9631
-5.2904 -7.1801 -2.9965 0.9631
-4.6307 -7.6232 -2.9968 0.9631
-3.9342 -8.0058 -2.9971 0.9631
-3.2063 -8.3250 -2.9973 0.9631
-2.4529 -8.5782 -2.9977 0.9631
-0.0994 -8.9243 -2.9986 0.9630
0.6954 -8.8987 -2.9989 0.9630
5.1363 -7.3064 -3.0007 0.9630
6.3514 -6.2810 -3.0012 0.9630
6.8857 -5.6912 -3.0014 0.9630
8.1460 -3.6704 -3.0019 0.9630
8.4407 -2.9309 -3.0020 0.9630
8.6683 -2.1681 -3.0021 0.9630
8.8271 -1.3879 -3.0022 0.9630
8.9157 -0.5968 -3.0022 0.9630
8.9335 0.1991 -3.0022 0.9630
8.7564 1.7799 -3.0022 0.9630
8.3016 3.3040 -3.0020 0.9630
7.9743 4.0296 -3.0018 0.9630
6.7701 5.1056 -2.8490 0.9649
6.2884 5.6876 -2.8488 0.9649
5.1796 6.7113 -2.8483 0.9649
4.5613 7.1451 -2.8481 0.9649
3.9068 7.5221 -2.8478 0.9649
3.2215 7.8391 -2.8475 0.9649
2.5108 8.0940 -2.8472 0.9649
1.7802 8.2845 -2.8470 0.9649
1.0357 8.4091 -2.8467 0.9649
-1.2224 8.3813 -2.8457 0.9649
-1.9633 8.2384 -2.8454 0.9649
-3.3922 7.7582 -2.8449 0.9649
-4.7131 7.0325 -2.8443 0.9649
-5.8843 6.0844 -2.8439 0.9649
-6.4021 5.5361 -2.8437 0.9649
-7.6712 4.5437 -2.9956 0.9631
-8.7732 1.5806 -2.9951 0.9631
-8.4137 -0.7518 -2.9953 0.9648
-7.9166 -2.9481 -2.9955 0.9648
-6.3913 -5.5267 -2.9961 0.9648
-5.3109 -6.5733 -2.9965 0.9648
-4.7051 -7.0205 -2.9967 0.9648
-4.0619 -7.4121 -2.9970 0.9648
-3.3864 -7.7449 -2.9973 0.9648
-2.6839 -8.0163 -2.9976 0.9648
-1.9599 -8.2242 -2.9978 0.9648
-1.2203 -8.3668 -2.9981 0.9648
0.2826 -8.4523 -2.9988 0.9647
1.0339 -8.3945 -2.9991 0.9647
1.7771 -8.2699 -2.9994 0.9647
2.5064 -8.0797 -2.9996 0.9647
3.9000 -7.5087 -3.0002 0.9647
5.1704 -6.6994 -3.0007 0.9647
6.2772 -5.6774 -3.0012 0.9647
6.7581 -5.0965 -3.0014 0.9647
7.1853 -4.4750 -3.0015 0.9647
8.1133 -2.4180 -3.0019 0.9647
8.2965 -1.6863 -3.0020 0.9647
8.4138 -0.9412 -3.0020 0.9647
8.4474 0.5655 -3.0020 0.9647
8.3634 1.3151 -3.0020 0.9647
7.9974 2.7770 -3.0019 0.9647
9.8877 6.7875 -4.2526 0.9504
6.1926 5.1183 -2.8487 0.9665
5.7120 5.6488 -2.8485 0.9665
4.6193 6.5711 -2.8481 0.9665
3.3804 7.2847 -2.8476 0.9665
2.0349 7.7671 -2.8471 0.9665
0.6254 8.0033 -2.8465 0.9665
-0.0894 8.0264 -2.8462 0.9665
-0.8034 7.9857 -2.8459 0.9665
-1.5108 7.8818 -2.8456 0.9665
-2.2061 7.7153 -2.8454 0.9665
-2.8838 7.4875 -2.8451 0.9665
-3.5384 7.2005 -2.8448 0.9665
-4.1649 6.8564 -2.8446 0.9665
-6.2939 4.9703 -2.8437 0.9665
-7.4535 3.9773 -2.9956 0.9648
-7.7776 3.2980 -2.9955 0.9648
-8.3719 1.1259 -2.9953 0.9648
-8.4388 -0.3762 -2.9952 0.9648
-8.3719 -1.1259 -2.9953 0.9648
-8.2386 -1.8666 -2.9953 0.9648
-8.0399 -2.5925 -2.9954 0.9648
-7.0703 -4.6251 -2.9958 0.9648
-6.1389 -5.8062 -2.9962 0.9648
-5.5982 -6.3300 -2.9964 0.9648
-5.0130 -6.8037 -2.9966 0.9648
-4.3879 -7.2234 -2.9969 0.9648
-3.7279 -7.5860 -2.9971 0.9648
-3.0382 -7.8884 -2.9974 0.9648
-1.5917 -8.3037 -2.9980 0.9648
1.4069 -8.3405 -2.9992 0.9647
2.1439 -8.1829 -2.9995 0.9647
2.8639 -7.9604 -2.9998 0.9647
3.5614 -7.6746 -3.0001 0.9647
4.2308 -7.3279 -3.0003 0.9647
4.8666 -6.9228 -3.0006 0.9647
5.4639 -6.4627 -3.0008 0.9647
6.0179 -5.9512 -3.0011 0.9647
6.9786 -4.7905 -3.0014 0.9647
7.3777 -4.1506 -3.0016 0.9647
7.7182 -3.4776 -3.0017 0.9647
7.9974 -2.7770 -3.0019 0.9647
8.3634 -1.3151 -3.0020 0.9647
8.4642 0.1887 -3.0020 0.9647
8.4138 0.9412 -3.0020 0.9647
8.1133 2.4181 -3.0019 0.9647
5.9582 5.3889 -2.8486 0.9665
4.3218 6.7700 -2.8480 0.9665
3.7018 7.1272 -2.8477 0.9665
3.0524 7.4277 -2.8475 0.9665
2.3790 7.6691 -2.8472 0.9665
1.6868 7.8497 -2.8469 0.9665
0.9813 7.9679 -2.8466 0.9665
0.2682 8.0228 -2.8463 0.9665
-0.4469 8.0140 -2.8461 0.9665
-1.1582 7.9416 -2.8458 0.9665
-2.5475 7.6089 -2.8452 0.9665
-3.2143 7.3513 -2.8449 0.9665
-4.4660 6.6637 -2.8444 0.9665
-5.5759 5.7654 -2.8440 0.9665
-6.5787 4.7351 -2.8741 0.9662
-7.2691 4.3055 -2.9957 0.9648
-7.6231 3.6413 -2.9956 0.9648
-7.9166 2.9482 -2.9955 0.9648
-8.1473 2.2318 -2.9954 0.9648
-8.3135 1.4978 -2.9953 0.9648
-7.9899 -0.7139 -2.9954 0.9663
-7.2392 -3.4578 -2.9957 0.9663
-6.9030 -4.0886 -2.9959 0.9663
-6.5120 -4.6871 -2.9960 0.9663
-6.0693 -5.2483 -2.9962 0.9663
-5.0433 -6.2421 -2.9966 0.9663
-4.4681 -6.6668 -2.9968 0.9663
-3.8573 -7.0386 -2.9971 0.9663
-1.8611 -7.8097 -2.9979 0.9663
-1.1588 -7.9451 -2.9982 0.9663
-0.4470 -8.0174 -2.9985 0.9663
0.9818 -7.9712 -2.9990 0.9663
1.6875 -7.8529 -2.9993 0.9663
2.3800 -7.6723 -2.9996 0.9663
3.0537 -7.4306 -2.9999 0.9663
3.7032 -7.1300 -3.0001 0.9663
6.4171 -4.8393 -3.0012 0.9663
6.8227 -4.2492 -3.0014 0.9663
7.4687 -2.9724 -3.0016 0.9663
7.7038 -2.2959 -3.0017 0.9663
7.8778 -1.6012 -3.0018 0.9663
8.0371 -0.1791 -3.0019 0.9663
8.0211 0.5370 -3.0019 0.9663
7.9414 1.2487 -3.0018 0.9663
7.5938 2.6369 -3.0017 0.9663
7.3287 3.3022 -3.0016 0.9663
7.0054 3.9412 -3.0015 0.9663
5.4239 5.3638 -2.8484 0.9680
4.3863 6.2396 -2.8480 0.9680
3.8132 6.6047 -2.8478 0.9680
0.5939 7.5998 -2.8465 0.9680
-0.0849 7.6217 -2.8462 0.9680
-0.7629 7.5832 -2.8459 0.9680
-1.4347 7.4845 -2.8457 0.9680
-2.0949 7.3264 -2.8454 0.9680
-4.5185 6.1326 -2.8444 0.9680
-5.0460 5.7057 -2.8442 0.9680
-5.5334 5.2335 -2.8440 0.9680
-6.7141 4.3922 -2.9959 0.9663
-7.3859 3.1319 -2.9957 0.9663
-7.8237 1.7727 -2.9955 0.9663
-7.9503 -1.0692 -2.9954 0.9663
-7.6350 -2.4620 -2.9956 0.9663
-7.3859 -3.1318 -2.9957 0.9663
-6.7141 -4.3922 -2.9959 0.9663
-6.2969 -4.9726 -2.9961 0.9663
-4.7604 -6.4609 -2.9967 0.9663
-4.1668 -6.8595 -2.9970 0.9663
-3.5400 -7.2037 -2.9972 0.9663
-0.8037 -7.9892 -2.9983 0.9663
-0.0895 -8.0298 -2.9986 0.9663
0.6257 -8.0066 -2.9989 0.9663
1.3359 -7.9199 -2.9992 0.9663
2.0357 -7.7703 -2.9995 0.9663
2.7195 -7.5589 -2.9997 0.9663
4.6211 -6.5736 -3.0005 0.9663
5.7143 -5.6509 -3.0009 0.9663
6.6265 -4.5488 -3.0013 0.9663
7.0054 -3.9412 -3.0015 0.9663
7.7986 -1.9505 -3.0018 0.9663
8.0371 0.1791 -3.0019 0.9663
7.9892 0.8937 -3.0019 0.9663
7.8778 1.6013 -3.0018 0.9663
7.4687 2.9725 -3.0016 0.9663
7.1742 3.6253 -3.0015 0.9663
5.1794 5.5999 -2.8483 0.9680
2.2590 7.2824 -2.8471 0.9680
0.9319 7.5662 -2.8466 0.9680
-0.4243 7.6100 -2.8461 0.9680
-1.0999 7.5413 -2.8458 0.9680
-1.7666 7.4128 -2.8455 0.9680
-3.0523 6.9809 -2.8450 0.9680
-3.6612 6.6809 -2.8448 0.9680
-4.2410 6.3280 -2.8445 0.9680
-5.2950 5.4750 -2.8441 0.9680
-5.7609 4.9817 -2.8439 0.9680
-7.5179 2.7997 -2.9956 0.9663
-7.7370 2.1194 -2.9955 0.9663
-7.9899 0.7140 -2.9954 0.9663
-7.6326 0.0000 -2.9956 0.9677
-7.6023 -0.6793 -2.9956 0.9677
-7.5118 -1.3533 -2.9956 0.9677
-7.3617 -2.0165 -2.9957 0.9677
-5.7748 -4.9936 -2.9963 0.9677
-4.7986 -5.9392 -2.9967 0.9677
-4.2512 -6.3432 -2.9969 0.9677
-2.4249 -7.2427 -2.9977 0.9677
-1.7708 -7.4305 -2.9979 0.9677
-1.1025 -7.5593 -2.9982 0.9677
-0.4253 -7.6281 -2.9985 0.9677
0.2553 -7.6364 -2.9987 0.9677
0.9341 -7.5840 -2.9990 0.9677
2.2644 -7.2996 -2.9995 0.9677
2.9053 -7.0697 -2.9998 0.9677
4.1134 -6.4436 -3.0003 0.9677
6.1052 -4.6041 -3.0011 0.9677
6.8255 -3.4490 -3.0014 0.9677
7.1056 -2.8279 -3.0015 0.9677
7.3293 -2.1844 -3.0016 0.9677
7.4948 -1.5234 -3.0017 0.9677
7.6008 -0.8503 -3.0017 0.9677
7.6312 0.5109 -3.0017 0.9677
7.5553 1.1881 -3.0017 0.9677
7.4195 1.8558 -3.0016 0.9677
6.9725 3.1417 -3.0014 0.9677
6.6649 3.7496 -3.0013 0.9677
8.9324 6.1318 -4.2522 0.9545
4.6853 5.5418 -2.8481 0.9693
2.4559 6.8263 -2.8472 0.9693
1.2064 7.1523 -2.8467 0.9693
-0.7258 7.2150 -2.8459 0.9693
-1.9932 6.9707 -2.8454 0.9693
-2.6055 6.7651 -2.8452 0.9693
-3.7631 6.1949 -2.8447 0.9693
-4.2992 5.8349 -2.8445 0.9693
-4.8011 5.4288 -2.8443 0.9693
-5.2649 4.9795 -2.8441 0.9693
-5.9687 4.7135 -2.9849 0.9678
-6.3884 4.1791 -2.9961 0.9677
-7.0275 2.9799 -2.9958 0.9677
-7.4441 1.6866 -2.9956 0.9677
-7.6250 -0.3400 -2.9956 0.9677
-7.4441 -1.6866 -2.9956 0.9677
-6.7347 -3.5937 -2.9959 0.9677
-6.3884 -4.1790 -2.9961 0.9677
-5.9914 -4.7313 -2.9962 0.9677
-5.5468 -5.2461 -2.9964 0.9677
-4.5294 -6.1473 -2.9968 0.9677
-3.9646 -6.5265 -2.9970 0.9677
-1.4381 -7.5023 -2.9981 0.9677
-0.7647 -7.6012 -2.9983 0.9677
2.5874 -7.1917 -2.9997 0.9677
3.8222 -6.6202 -3.0002 0.9677
4.9361 -5.8384 -3.0006 0.9677
5.8939 -4.8714 -3.0010 0.9677
6.3044 -4.3277 -3.0012 0.9677
6.6649 -3.7496 -3.0013 0.9677
7.2247 -2.5087 -3.0015 0.9677
7.4195 -1.8557 -3.0016 0.9677
7.5553 -1.1880 -3.0017 0.9677
7.3293 2.1844 -3.0016 0.9677
7.1056 2.8280 -3.0015 0.9677
6.8255 3.4491 -3.0014 0.9677
8.0348 7.2670 -4.2519 0.9545
4.9276 5.3278 -2.8482 0.9693
3.9044 6.1162 -2.8478 0.9693
3.3443 6.4389 -2.8476 0.9693
2.7577 6.7104 -2.8473 0.9693
1.5239 7.0918 -2.8469 0.9693
0.8866 7.1987 -2.8466 0.9693
-0.4037 7.2405 -2.8461 0.9693
-1.0465 7.1752 -2.8458 0.9693
-1.6808 7.0529 -2.8456 0.9693
-3.4835 6.3566 -2.8448 0.9693
-4.0351 6.0209 -2.8446 0.9693
-4.5547 5.6374 -2.8444 0.9693
-6.1959 4.4596 -2.9961 0.9677
-7.1532 2.6639 -2.9958 0.9677
-7.3617 2.0166 -2.9957 0.9677
-7.6023 0.6794 -2.9956 0.9677
-7.2750 0.0001 -2.9957 0.9690
-7.2462 -0.6475 -2.9957 0.9690
-6.8180 -2.5391 -2.9959 0.9690
-6.5652 -3.1359 -2.9960 0.9690
-6.2603 -3.7079 -2.9961 0.9690
-5.0590 -5.2310 -2.9966 0.9690
-4.5737 -5.6608 -2.9968 0.9690
-3.4980 -6.3830 -2.9972 0.9690
-2.9162 -6.6695 -2.9975 0.9690
-1.6878 -7.0821 -2.9980 0.9690
0.2433 -7.2783 -2.9987 0.9690
0.8903 -7.2283 -2.9990 0.9690
2.7690 -6.7380 -2.9998 0.9690
3.3580 -6.4653 -3.0000 0.9690
4.4518 -5.7683 -3.0004 0.9690
4.9479 -5.3495 -3.0006 0.9690
5.4047 -4.8882 -3.0008 0.9690
5.8187 -4.3880 -3.0010 0.9690
6.1864 -3.8529 -3.0011 0.9690
6.5051 -3.2871 -3.0013 0.9690
6.7721 -2.6952 -3.0014 0.9690
6.9853 -2.0818 -3.0014 0.9690
7.2874 -0.1624 -3.0016 0.9690
7.2007 1.1323 -3.0015 0.9690
7.0712 1.7687 -3.0015 0.9690
6.3521 3.5737 -3.0012 0.9690
7.9588 6.5782 -4.2518 0.9563
7.3413 7.2600 -4.2516 0.9563
4.4654 5.2817 -2.8480 0.9705
3.9773 5.6578 -2.8478 0.9705
3.4577 5.9889 -2.8476 0.9705
2.9107 6.2724 -2.8474 0.9705
2.3407 6.5061 -2.8472 0.9705
-1.3010 6.7872 -2.8457 0.9705
-3.0472 6.2008 -2.8450 0.9706
-3.5867 5.9046 -2.8448 0.9706
-5.7106 4.5097 -2.9963 0.9690
-6.0890 3.9833 -2.9962 0.9690
-7.0953 1.6076 -2.9958 0.9690
-7.2102 -0.9696 -2.9957 0.9690
-7.0953 -1.6076 -2.9958 0.9690
-6.4191 -3.4253 -2.9961 0.9690
-4.8211 -5.4513 -2.9967 0.9690
-3.7787 -6.2206 -2.9971 0.9690
-2.0015 -6.9996 -2.9978 0.9690
-1.3707 -7.1506 -2.9981 0.9690
-0.7288 -7.2448 -2.9983 0.9690
1.8460 -7.0461 -2.9994 0.9690
2.4660 -6.8544 -2.9996 0.9690
3.6428 -6.3095 -3.0001 0.9690
5.1814 -5.1240 -3.0007 0.9690
6.0085 -4.1246 -3.0011 0.9690
6.3521 -3.5736 -3.0012 0.9690
6.8855 -2.3909 -3.0014 0.9690
7.0712 -1.7686 -3.0015 0.9690
7.2729 -0.4868 -3.0016 0.9690
7.2874 0.1625 -3.0016 0.9690
6.7721 2.6953 -3.0014 0.9690
6.5051 3.2872 -3.0013 0.9690
6.1864 3.8530 -3.0011 0.9690
7.6577 6.9260 -4.2517 0.9563
4.6964 5.0777 -2.8481 0.9705
4.2255 5.4752 -2.8479 0.9705
3.1874 6.1368 -2.8475 0.9705
2.6283 6.3956 -2.8473 0.9705
2.0485 6.6036 -2.8471 0.9705
1.4525 6.7592 -2.8468 0.9705
0.8450 6.8610 -2.8466 0.9705
0.2310 6.9084 -2.8463 0.9705
-0.3848 6.9009 -2.8461 0.9705
-0.9974 6.8387 -2.8458 0.9705
-1.6020 6.7223 -2.8456 0.9705
-2.1937 6.5524 -2.8454 0.9706
-2.7680 6.3306 -2.8451 0.9706
-3.3202 6.0587 -2.8449 0.9706
-4.3412 5.3732 -2.8445 0.9706
-4.8019 4.9652 -2.8443 0.9706
-7.0168 1.9221 -2.9958 0.9690
-7.1599 1.2899 -2.9958 0.9690
-6.9176 -0.6181 -2.9959 0.9702
-5.2546 -4.5438 -2.9965 0.9702
-4.3662 -5.4041 -2.9969 0.9702
-3.8682 -5.7717 -2.9971 0.9702
-3.3393 -6.0935 -2.9973 0.9702
-2.7839 -6.3670 -2.9975 0.9702
-2.2064 -6.5900 -2.9978 0.9702
-1.0031 -6.8779 -2.9982 0.9702
-0.3870 -6.9405 -2.9985 0.9702
1.4608 -6.7978 -2.9992 0.9702
2.0602 -6.6413 -2.9995 0.9702
2.6433 -6.4321 -2.9997 0.9702
3.7424 -5.8624 -3.0001 0.9702
4.2496 -5.5064 -3.0003 0.9702
5.1593 -4.6662 -3.0007 0.9702
5.5544 -4.1888 -3.0009 0.9701
6.2096 -3.1379 -3.0011 0.9701
6.9426 0.4648 -3.0014 0.9701
6.8736 1.0808 -3.0014 0.9701
6.3434 2.8582 -3.0012 0.9701
7.5974 6.2794 -4.2517 0.9580
7.0079 6.9303 -4.2515 0.9580
4.2626 5.0419 -2.8480 0.9716
3.7967 5.4009 -2.8478 0.9717
3.3007 5.7170 -2.8476 0.9717
2.2344 6.2107 -2.8471 0.9717
1.6726 6.3845 -2.8469 0.9717
1.0977 6.5075 -2.8467 0.9717
-0.0735 6.5979 -2.8462 0.9717
-0.6604 6.5646 -2.8460 0.9717
-1.8136 6.3425 -2.8455 0.9717
-2.3707 6.1554 -2.8453 0.9717
-2.9089 5.9195 -2.8451 0.9717
-3.9118 5.3092 -2.8447 0.9717
-4.3686 4.9397 -2.8445 0.9717
-4.9864 4.7162 -2.9606 0.9705
-6.1280 3.2701 -2.9962 0.9702
-6.6103 2.1316 -2.9960 0.9702
-6.7736 1.5347 -2.9959 0.9702
-6.9383 0.3094 -2.9958 0.9702
-6.9383 -0.3094 -2.9958 0.9702
-6.6103 -2.1315 -2.9960 0.9702
-6.3945 -2.7115 -2.9961 0.9702
-5.8129 -3.8026 -2.9963 0.9702
-3.6073 -5.9384 -2.9972 0.9702
-3.0647 -6.2364 -2.9974 0.9702
-2.4976 -6.4849 -2.9976 0.9702
-0.6958 -6.9160 -2.9984 0.9702
-0.0774 -6.9511 -2.9986 0.9702
1.1564 -6.8559 -2.9991 0.9702
1.7622 -6.7262 -2.9993 0.9702
2.3541 -6.5432 -2.9996 0.9702
4.0000 -5.6901 -3.0002 0.9702
4.4909 -5.3118 -3.0004 0.9702
5.7356 -3.9372 -3.0009 0.9701
6.8736 -1.0808 -3.0014 0.9701
6.9426 -0.4647 -3.0014 0.9701
6.8186 1.3860 -3.0014 0.9701
6.4645 2.5728 -3.0012 0.9701
6.2096 3.1379 -3.0011 0.9701
5.5544 4.1888 -3.0009 0.9701
7.3099 6.6115 -4.2516 0.9580
6.6920 7.2354 -4.2513 0.9580
4.0337 5.2266 -2.8479 0.9716
3.0426 5.8581 -2.8475 0.9717
2.5090 6.1053 -2.8472 0.9717
1.9555 6.3038 -2.8470 0.9717
0.2205 6.5949 -2.8463 0.9717
-2.0942 6.2552 -2.8454 0.9717
-2.6424 6.0435 -2.8452 0.9717
-3.6716 5.4784 -2.8448 0.9717
-4.5899 4.7459 -2.8480 0.9716
-5.6379 4.0579 -2.9964 0.9702
-6.2675 2.9937 -2.9961 0.9702
-6.6986 1.8350 -2.9959 0.9702
-6.9176 0.6182 -2.9959 0.9702
-6.6397 0.0000 -2.9960 0.9713
-6.6134 -0.5910 -2.9960 0.9713
-6.5346 -1.1772 -2.9960 0.9713
-6.4040 -1.7542 -2.9961 0.9713
-6.2226 -2.3173 -2.9961 0.9713
-5.7136 -3.3841 -2.9963 0.9713
-5.3899 -3.8794 -2.9965 0.9713
-4.6172 -4.7741 -2.9968 0.9713
-3.6980 -5.5178 -2.9972 0.9713
-3.1924 -5.8254 -2.9974 0.9713
0.2221 -6.6421 -2.9987 0.9713
0.8124 -6.5965 -2.9990 0.9713
1.3965 -6.4985 -2.9992 0.9713
1.9695 -6.3489 -2.9994 0.9713
2.5269 -6.1489 -2.9997 0.9712
3.5776 -5.6042 -3.0001 0.9712
4.5152 -4.8817 -3.0005 0.9712
5.3098 -4.0042 -3.0008 0.9712
5.9361 -2.9996 -3.0010 0.9712
6.1797 -2.4594 -3.0011 0.9712
6.3743 -1.8997 -3.0012 0.9712
6.5182 -1.3248 -3.0013 0.9712
6.6103 -0.7395 -3.0013 0.9712
6.6499 -0.1481 -3.0013 0.9712
6.6367 0.4443 -3.0013 0.9712
6.5708 1.0332 -3.0013 0.9712
6.4526 1.6140 -3.0012 0.9712
6.0639 2.7323 -3.0011 0.9712
5.1260 4.2368 -3.0007 0.9712
6.6993 6.6251 -4.2513 0.9595
6.0827 7.1946 -4.2511 0.9595
3.6295 5.1631 -2.8477 0.9727
3.1554 5.4653 -2.8475 0.9727
2.1361 5.9373 -2.8471 0.9727
1.5990 6.1034 -2.8469 0.9727
0.4914 6.2892 -2.8464 0.9727
-0.6313 6.2757 -2.8460 0.9727
-2.2664 5.8846 -2.8453 0.9727
-2.7809 5.6591 -2.8451 0.9727
-4.1910 4.7388 -2.8545 0.9726
-4.8251 4.5636 -2.9967 0.9713
-5.2119 4.1158 -2.9965 0.9713
-5.5572 3.6354 -2.9964 0.9713
-5.8585 3.1262 -2.9963 0.9713
-6.1133 2.5923 -2.9962 0.9713
-6.3196 2.0379 -2.9961 0.9713
-6.4758 1.4673 -2.9960 0.9713
-6.5806 0.8850 -2.9960 0.9713
-6.6332 0.2958 -2.9960 0.9713
-6.5806 -0.8849 -2.9960 0.9713
-6.3196 -2.0378 -2.9961 0.9713
-5.8585 -3.1262 -2.9963 0.9713
-5.2119 -4.1157 -2.9965 0.9713
-4.8251 -4.5635 -2.9967 0.9713
-4.4000 -4.9752 -2.9969 0.9713
-2.9298 -5.9620 -2.9975 0.9713
-2.3877 -6.1996 -2.9977 0.9713
-0.6651 -6.6117 -2.9984 0.9713
-0.0740 -6.6451 -2.9986 0.9713
0.5178 -6.6259 -2.9988 0.9713
1.1055 -6.5540 -2.9991 0.9713
2.2504 -6.2551 -2.9995 0.9712
2.7984 -6.0304 -2.9998 0.9712
3.3243 -5.7579 -3.0000 0.9712
3.8239 -5.4395 -3.0002 0.9712
4.7283 -4.6759 -3.0005 0.9712
5.1260 -4.2367 -3.0007 0.9712
5.4830 -3.7638 -3.0008 0.9712
5.7965 -3.2610 -3.0010 0.9712
6.0639 -2.7322 -3.0011 0.9712
6.2832 -2.1817 -3.0012 0.9712
6.4526 -1.6139 -3.0012 0.9712
6.5182 1.3249 -3.0013 0.9712
5.6453 3.5160 -3.0009 0.9712
5.3098 4.0043 -3.0008 0.9712
3.3958 5.3195 -2.8476 0.9727
2.9087 5.6002 -2.8474 0.9727
1.8694 6.0263 -2.8470 0.9727
0.7712 6.2613 -2.8465 0.9727
-2.5262 5.7776 -2.8452 0.9727
-3.0302 5.5294 -2.8450 0.9727
-5.3899 3.8795 -2.9965 0.9713
-5.7136 3.3842 -2.9963 0.9713
-5.9919 2.8621 -2.9962 0.9713
-6.5346 1.1773 -2.9960 0.9713
-5.9567 -2.2183 -2.9962 0.9723
-5.1596 -3.7136 -2.9966 0.9723
-4.4198 -4.5700 -2.9969 0.9723
-3.5399 -5.2819 -2.9972 0.9723
-2.0191 -6.0307 -2.9978 0.9723
-1.4744 -6.1869 -2.9980 0.9723
-0.9180 -6.2940 -2.9983 0.9723
1.3367 -6.2205 -2.9992 0.9723
2.4188 -5.8858 -2.9996 0.9723
2.9333 -5.6476 -2.9998 0.9723
3.4246 -5.3644 -3.0000 0.9722
4.3220 -4.6728 -3.0004 0.9722
4.7210 -4.2698 -3.0005 0.9722
5.0825 -3.8329 -3.0007 0.9722
5.4037 -3.3654 -3.0008 0.9722
5.6820 -2.8712 -3.0009 0.9722
5.9152 -2.3542 -3.0010 0.9722
6.1014 -1.8184 -3.0011 0.9722
6.2392 -1.2681 -3.0011 0.9722
6.3653 -0.1418 -3.0012 0.9722
6.3527 0.4253 -3.0012 0.9722
5.8044 2.6154 -3.0010 0.9722
4.9066 4.0554 -3.0006 0.9722
3.0204 5.2314 -2.8475 0.9736
2.5426 5.4791 -2.8473 0.9736
2.0447 5.6833 -2.8471 0.9736
1.0045 5.9549 -2.8466 0.9736
-1.1365 5.9293 -2.8458 0.9737
-2.1695 5.6330 -2.8454 0.9737
-3.5799 4.8587 -2.8448 0.9737
-4.6189 4.3685 -2.9968 0.9723
-5.3197 3.4801 -2.9965 0.9723
-6.2994 0.8472 -2.9961 0.9723
-6.3497 -0.2831 -2.9961 0.9723
-6.2994 -0.8472 -2.9961 0.9723
-6.0495 -1.9507 -2.9962 0.9723
-5.3198 -3.4800 -2.9965 0.9723
-4.2120 -4.7625 -2.9969 0.9723
-3.3012 -5.4345 -2.9973 0.9723
-2.8046 -5.7071 -2.9975 0.9723
-2.2857 -5.9346 -2.9977 0.9723
-1.7485 -6.1148 -2.9979 0.9723
-1.1974 -6.2467 -2.9982 0.9723
-0.0709 -6.3610 -2.9986 0.9723
0.4956 -6.3425 -2.9988 0.9723
1.0582 -6.2737 -2.9991 0.9723
2.1542 -5.9875 -2.9995 0.9723
2.6787 -5.7725 -2.9997 0.9723
3.1821 -5.5115 -2.9999 0.9722
4.5260 -4.4758 -3.0005 0.9722
4.9066 -4.0554 -3.0006 0.9722
5.8044 -2.6153 -3.0010 0.9722
6.0143 -2.0884 -3.0011 0.9722
6.1765 -1.5448 -3.0011 0.9722
6.3527 -0.4253 -3.0012 0.9722
6.3274 0.7079 -3.0012 0.9722
6.2392 1.2682 -3.0011 0.9722
5.9152 2.3543 -3.0010 0.9722
5.6820 2.8713 -3.0009 0.9722
5.0825 3.8329 -3.0007 0.9722
6.1236 6.6208 -4.2511 0.9609
5.5097 7.1392 -4.2509 0.9609
2.2959 5.5868 -2.8472 0.9736
0.2018 6.0350 -2.8463 0.9737
-0.3361 6.0285 -2.8461 0.9737
-0.8713 5.9742 -2.8459 0.9737
-1.3995 5.8725 -2.8457 0.9737
-2.9006 5.2930 -2.8451 0.9737
-3.8227 4.7315 -2.8673 0.9735
-5.1596 3.7137 -2.9966 0.9723
-5.4694 3.2396 -2.9964 0.9723
-5.9567 2.2183 -2.9962 0.9723
-6.3308 0.5657 -2.9961 0.9723
-6.0916 0.0000 -2.9962 0.9732
-5.9952 -1.0801 -2.9962 0.9732
-5.8753 -1.6094 -2.9963 0.9732
-5.7089 -2.1260 -2.9963 0.9732
-4.2359 -4.3798 -2.9969 0.9732
-1.4130 -5.9294 -2.9981 0.9732
-0.8798 -6.0321 -2.9983 0.9732
-0.3394 -6.0868 -2.9985 0.9732
0.7453 -6.0515 -2.9989 0.9732
1.8067 -5.8243 -2.9994 0.9732
2.8111 -5.4124 -2.9998 0.9732
3.2819 -5.1410 -3.0000 0.9732
3.7267 -4.8288 -3.0001 0.9732
4.5243 -4.0920 -3.0005 0.9732
4.8708 -3.6732 -3.0006 0.9732
5.4453 -2.7516 -3.0008 0.9732
5.8472 -1.7426 -3.0010 0.9732
5.9792 -1.2153 -3.0010 0.9732
6.0880 0.4076 -3.0011 0.9732
6.0275 0.9478 -3.0011 0.9732
5.9191 1.4805 -3.0010 0.9732
5.7637 2.0014 -3.0010 0.9732
5.3172 2.9915 -3.0008 0.9732
4.7022 3.8865 -3.0005 0.9732
2.4367 5.2510 -2.8472 0.9745
1.9595 5.4466 -2.8470 0.9745
0.9626 5.7069 -2.8466 0.9745
0.4508 5.7695 -2.8464 0.9745
-0.0645 5.7864 -2.8462 0.9745
-1.0892 5.6824 -2.8458 0.9745
-2.5513 5.1917 -2.8452 0.9745
-4.4267 4.1868 -2.9969 0.9732
-5.7979 1.8696 -2.9963 0.9732
-6.0373 0.8120 -2.9962 0.9732
-6.0856 0.2714 -2.9962 0.9732
-6.0856 -0.2713 -2.9962 0.9732
-5.7979 -1.8696 -2.9963 0.9732
-5.6086 -2.3782 -2.9964 0.9732
-5.3748 -2.8681 -2.9965 0.9732
-3.1638 -5.2083 -2.9974 0.9732
-1.1476 -5.9866 -2.9982 0.9732
-0.6102 -6.0655 -2.9984 0.9732
4.7022 -3.8864 -3.0005 0.9732
5.3172 -2.9914 -3.0008 0.9732
5.5626 -2.5063 -3.0009 0.9732
5.7637 -2.0014 -3.0010 0.9732
6.0880 -0.4075 -3.0011 0.9732
6.0637 0.6784 -3.0011 0.9732
5.9792 1.2154 -3.0010 0.9732
5.1786 3.2253 -3.0007 0.9732
5.2802 6.8418 -4.2508 0.9622
2.6683 5.1374 -2.8473 0.9745
2.2003 5.3541 -2.8471 0.9745
1.2160 5.6586 -2.8467 0.9745
0.1934 5.7837 -2.8463 0.9745
-0.3221 5.7776 -2.8461 0.9745
-0.8350 5.7255 -2.8459 0.9745
-1.8367 5.4860 -2.8455 0.9745
-2.3175 5.3004 -2.8453 0.9745
-2.7799 5.0727 -2.8451 0.9745
-3.2202 4.8049 -2.8449 0.9745
-4.2359 4.3799 -2.9969 0.9732
-5.2418 3.1048 -2.9965 0.9732
-5.4972 2.6258 -2.9964 0.9732
-5.7089 2.1260 -2.9963 0.9732
-5.8753 1.6095 -2.9963 0.9732
-5.9952 1.0801 -2.9962 0.9732
-5.8445 0.0001 -2.9963 0.9741
-5.8213 -0.5201 -2.9963 0.9741
-5.7519 -1.0362 -2.9963 0.9741
-5.2741 -2.5192 -2.9965 0.9741
-5.0291 -2.9787 -2.9966 0.9741
-4.7442 -3.4146 -2.9967 0.9741
-4.0640 -4.2021 -2.9970 0.9741
-3.6741 -4.5474 -2.9972 0.9741
-2.8099 -5.1274 -2.9975 0.9741
-2.3425 -5.3575 -2.9977 0.9741
-1.3557 -5.6887 -2.9981 0.9741
-0.3256 -5.8397 -2.9985 0.9741
0.1955 -5.8459 -2.9987 0.9741
0.7150 -5.8058 -2.9989 0.9740
1.2290 -5.7194 -2.9991 0.9740
2.6970 -5.1925 -2.9997 0.9740
3.1486 -4.9322 -2.9999 0.9740
4.3405 -3.9257 -3.0004 0.9740
4.6729 -3.5239 -3.0005 0.9740
5.6096 -1.6718 -3.0009 0.9740
5.8522 -0.1304 -3.0010 0.9740
5.6786 1.4203 -3.0009 0.9740
5.5295 1.9201 -3.0009 0.9740
5.1012 2.8699 -3.0007 0.9740
4.8253 3.3125 -3.0006 0.9740
4.7681 6.7828 -4.2506 0.9634
2.3377 5.0377 -2.8472 0.9753
1.8799 5.2254 -2.8470 0.9753
0.4325 5.5353 -2.8464 0.9754
-1.5260 5.3367 -2.8456 0.9754
-1.9948 5.1794 -2.8454 0.9754
-2.4477 4.9810 -2.8453 0.9754
-3.4678 4.7068 -2.9972 0.9741
-3.8729 4.3791 -2.9971 0.9741
-4.5875 3.6227 -2.9968 0.9741
-5.1568 2.7518 -2.9966 0.9741
-5.5626 1.7937 -2.9964 0.9741
-5.8387 0.2604 -2.9963 0.9741
-5.8387 -0.2603 -2.9963 0.9741
-5.7924 -0.7789 -2.9963 0.9741
-5.7001 -1.2914 -2.9963 0.9741
-5.5626 -1.7937 -2.9964 0.9741
-5.3811 -2.2817 -2.9965 0.9741
-5.1568 -2.7517 -2.9966 0.9741
-4.5875 -3.6227 -2.9968 0.9741
-4.2471 -4.0168 -2.9969 0.9741
-3.8729 -4.3791 -2.9971 0.9741
-3.4679 -4.7067 -2.9972 0.9741
-3.0354 -4.9970 -2.9974 0.9741
-2.5788 -5.2476 -2.9976 0.9741
-2.1016 -5.4566 -2.9978 0.9741
-1.6077 -5.6224 -2.9980 0.9741
-1.1010 -5.7436 -2.9982 0.9741
-0.5854 -5.8192 -2.9984 0.9741
2.9257 -5.0674 -2.9998 0.9740
3.7782 -4.4688 -3.0002 0.9740
4.1612 -4.1151 -3.0003 0.9740
4.5112 -3.7286 -3.0005 0.9740
5.8406 -0.3909 -3.0010 0.9740
5.4384 2.1645 -3.0008 0.9740
4.9682 3.0942 -3.0006 0.9740
4.3405 3.9258 -3.0004 0.9740
5.6301 6.0872 -4.2509 0.9634
5.0657 6.5638 -4.2507 0.9634
4.4611 6.9882 -4.2504 0.9634
2.5599 4.9287 -2.8473 0.9753
1.1666 5.4288 -2.8467 0.9753
0.6787 5.5107 -2.8465 0.9754
-0.3091 5.5430 -2.8461 0.9754
-0.8011 5.4931 -2.8459 0.9754
-1.7622 5.2633 -2.8455 0.9754
-2.6671 4.8668 -2.8452 0.9754
-3.1644 4.7216 -2.9140 0.9748
-4.0640 4.2022 -2.9970 0.9741
-5.0291 2.9788 -2.9966 0.9741
-5.4773 2.0398 -2.9964 0.9741
-5.6370 1.5442 -2.9964 0.9741
-5.8213 0.5202 -2.9963 0.9741
-5.5240 -0.9952 -2.9964 0.9749
-5.0651 -2.4194 -2.9966 0.9749
-4.5562 -3.2793 -2.9968 0.9749
-4.2464 -3.6720 -2.9969 0.9749
-3.5284 -4.3671 -2.9972 0.9749
-2.6985 -4.9241 -2.9976 0.9749
-2.2496 -5.1450 -2.9977 0.9749
-1.7829 -5.3252 -2.9979 0.9749
-0.8106 -5.5576 -2.9983 0.9749
-0.3127 -5.6081 -2.9985 0.9749
0.6867 -5.5754 -2.9989 0.9748
2.1357 -5.1969 -2.9995 0.9748
2.5899 -4.9865 -2.9997 0.9748
3.0237 -4.7365 -2.9999 0.9748
3.4334 -4.4488 -3.0000 0.9748
4.1682 -3.7699 -3.0003 0.9748
4.4874 -3.3841 -3.0004 0.9748
5.2226 -2.0785 -3.0007 0.9748
5.6199 -0.1252 -3.0009 0.9748
5.6087 0.3755 -3.0009 0.9748
5.4532 1.3640 -3.0008 0.9748
5.3101 1.8439 -3.0008 0.9748
5.1247 2.3091 -3.0007 0.9748
4.8987 2.7560 -3.0006 0.9748
4.3321 3.5806 -3.0004 0.9748
5.1408 6.0806 -4.2507 0.9645
4.5789 6.5136 -4.2505 0.9645
3.9808 6.8950 -4.2502 0.9645
1.8054 5.0181 -2.8470 0.9761
1.3515 5.1586 -2.8468 0.9761
0.8869 5.2580 -2.8466 0.9761
0.4154 5.3157 -2.8464 0.9761
-0.0594 5.3312 -2.8462 0.9761
-0.5336 5.3045 -2.8460 0.9761
-1.0036 5.2355 -2.8458 0.9761
-1.4655 5.1251 -2.8456 0.9761
-1.9157 4.9740 -2.8455 0.9761
-2.3508 4.7835 -2.8453 0.9761
-2.8643 4.7153 -2.9452 0.9753
-3.3304 4.5202 -2.9973 0.9749
-3.7193 4.2056 -2.9971 0.9749
-4.0787 3.8577 -2.9970 0.9749
-4.4057 3.4791 -2.9969 0.9749
-5.3422 1.7227 -2.9965 0.9749
-5.6073 0.2501 -2.9964 0.9749
-5.6073 -0.2500 -2.9964 0.9749
-5.5628 -0.7481 -2.9964 0.9749
-5.4742 -1.2403 -2.9964 0.9749
-5.1678 -2.1913 -2.9966 0.9749
-4.9524 -2.6426 -2.9966 0.9749
-4.6977 -3.0730 -2.9967 0.9749
-4.0787 -3.8576 -2.9970 0.9749
-2.9151 -4.7988 -2.9975 0.9749
-2.4765 -5.0396 -2.9976 0.9749
-2.0183 -5.2403 -2.9978 0.9749
-1.5439 -5.3995 -2.9980 0.9749
-1.0573 -5.5158 -2.9982 0.9749
-0.0626 -5.6167 -2.9986 0.9749
1.4238 -5.4347 -2.9992 0.9748
2.3652 -5.0968 -2.9996 0.9748
2.8096 -4.8663 -2.9998 0.9748
3.2318 -4.5972 -2.9999 0.9748
3.9961 -3.9518 -3.0002 0.9748
4.6338 -3.1809 -3.0005 0.9748
5.1247 -2.3091 -3.0007 0.9748
5.3101 -1.8438 -3.0008 0.9748
5.4532 -1.3639 -3.0008 0.9748
5.6199 0.1253 -3.0009 0.9748
5.5086 1.1197 -3.0009 0.9748
4.7710 2.9715 -3.0006 0.9748
4.4874 3.3842 -3.0004 0.9748
4.1682 3.7700 -3.0003 0.9748
4.2841 6.7109 -4.2504 0.9645
2.0272 4.9329 -2.8471 0.9761
0.6518 5.2921 -2.8465 0.9761
-0.7694 5.2753 -2.8459 0.9761
-1.6923 5.0546 -2.8456 0.9761
-2.1391 4.8923 -2.8504 0.9761
-3.1259 4.6642 -2.9974 0.9749
-3.5284 4.3672 -2.9972 0.9749
-4.5562 3.2794 -2.9968 0.9749
-4.8298 2.8607 -2.9967 0.9749
-5.0651 2.4194 -2.9966 0.9749
-5.2602 1.9590 -2.9965 0.9749
-5.4136 1.4830 -2.9965 0.9749
-5.5906 0.4996 -2.9964 0.9749
-5.3952 0.0000 -2.9965 0.9756
-5.3098 -0.9566 -2.9965 0.9756
-5.2036 -1.4254 -2.9965 0.9756
-4.8687 -2.3255 -2.9967 0.9756
-4.6425 -2.7497 -2.9968 0.9756
-4.0817 -3.5296 -2.9970 0.9756
-3.7515 -3.8790 -2.9971 0.9756
-3.3915 -4.1977 -2.9973 0.9756
-1.7137 -5.1186 -2.9979 0.9756
-0.3006 -5.3905 -2.9985 0.9756
0.1804 -5.3962 -2.9987 0.9756
0.6600 -5.3590 -2.9989 0.9756
1.1345 -5.2794 -2.9991 0.9756
2.0528 -4.9952 -2.9995 0.9756
2.4894 -4.7929 -2.9996 0.9756
2.9063 -4.5526 -2.9998 0.9756
3.3001 -4.2761 -3.0000 0.9756
3.6678 -3.9656 -3.0001 0.9756
4.8219 -2.4366 -3.0006 0.9756
5.0198 -1.9978 -3.0007 0.9756
5.3695 -0.6006 -3.0008 0.9756
5.4017 -0.1204 -3.0008 0.9756
5.3374 0.8393 -3.0008 0.9756
5.2414 1.3110 -3.0007 0.9756
4.9257 2.2195 -3.0006 0.9756
4.7085 2.6490 -3.0005 0.9756
4.4539 3.0575 -3.0004 0.9756
4.1639 3.4416 -3.0003 0.9756
3.8409 3.7984 -3.0002 0.9756
4.4012 6.2608 -4.2504 0.9656
3.2210 6.9411 -4.2499 0.9656
2.5903 7.1998 -4.2497 0.9656
0.3993 5.1095 -2.8464 0.9768
-0.0571 5.1244 -2.8462 0.9768
-0.9646 5.0324 -2.8458 0.9768
-1.4086 4.9263 -2.8457 0.9768
-1.8414 4.7810 -2.8455 0.9768
-2.3189 4.7190 -2.9202 0.9762
-3.2013 4.3448 -2.9973 0.9756
-4.5155 2.9539 -2.9968 0.9756
-4.7603 2.5402 -2.9967 0.9756
-5.1350 1.6559 -2.9966 0.9756
-5.3898 -0.2403 -2.9965 0.9756
-5.3471 -0.7191 -2.9965 0.9756
-5.1350 -1.6558 -2.9966 0.9756
-4.9674 -2.1063 -2.9966 0.9756
-4.5155 -2.9538 -2.9968 0.9756
-3.5751 -4.0424 -2.9972 0.9756
-3.2013 -4.3447 -2.9973 0.9756
-2.3805 -4.8441 -2.9977 0.9756
-1.0163 -5.3018 -2.9982 0.9756
-0.0601 -5.3987 -2.9986 0.9756
0.4206 -5.3830 -2.9988 0.9756
0.8981 -5.3245 -2.9990 0.9756
1.3686 -5.2238 -2.9992 0.9756
1.8282 -5.0815 -2.9994 0.9756
2.2734 -4.8989 -2.9996 0.9756
2.7005 -4.6774 -2.9997 0.9756
3.1063 -4.4187 -2.9999 0.9756
3.4874 -4.1249 -3.0000 0.9756
3.8409 -3.7983 -3.0002 0.9756
4.1639 -3.4415 -3.0003 0.9756
4.4539 -3.0574 -3.0004 0.9756
5.1039 -1.7722 -3.0007 0.9756
5.2414 -1.3110 -3.0007 0.9756
5.3909 -0.3608 -3.0008 0.9756
5.2947 1.0762 -3.0008 0.9756
5.1778 1.5432 -3.0007 0.9756
5.0198 1.9979 -3.0007 0.9756
4.8219 2.4367 -3.0006 0.9756
4.5858 2.8561 -3.0005 0.9756
4.3132 3.2528 -3.0004 0.9756
4.0064 3.6236 -3.0002 0.9756
4.6758 6.0587 -4.2505 0.9656
4.1178 6.4504 -4.2503 0.9656
2.9086 7.0775 -4.2498 0.9656
1.5186 4.8957 -2.8468 0.9768
1.0768 5.0111 -2.8467 0.9768
0.1712 5.1220 -2.8463 0.9768
-0.2853 5.1166 -2.8461 0.9768
-0.7395 5.0706 -2.8459 0.9768
-1.1878 4.9843 -2.8458 0.9768
-1.6266 4.8585 -2.8456 0.9768
-2.0675 4.7285 -2.8662 0.9767
-2.5800 4.7080 -2.9817 0.9757
-3.7515 3.8791 -2.9971 0.9756
-4.0817 3.5296 -2.9970 0.9756
-4.3795 3.1522 -2.9969 0.9756
-4.6425 2.7498 -2.9968 0.9756
-4.8687 2.3256 -2.9967 0.9756
-5.0562 1.8830 -2.9966 0.9756
-5.2036 1.4255 -2.9965 0.9756
-5.3098 0.9566 -2.9965 0.9756
-5.3738 0.4802 -2.9965 0.9756
-5.1902 0.0000 -2.9965 0.9763
-5.1080 -0.9202 -2.9966 0.9763
-4.6837 -2.2372 -2.9968 0.9763
-4.4661 -2.6452 -2.9968 0.9763
-4.2130 -3.0323 -2.9969 0.9763
-3.2626 -4.0382 -2.9973 0.9763
-2.8904 -4.3127 -2.9975 0.9763
-2.0802 -4.7574 -2.9978 0.9763
-1.2038 -5.0515 -2.9982 0.9763
-0.7495 -5.1389 -2.9983 0.9763
0.1736 -5.1910 -2.9987 0.9763
1.0913 -5.0786 -2.9991 0.9763
1.5391 -4.9616 -2.9993 0.9763
1.9747 -4.8052 -2.9994 0.9763
2.7957 -4.3794 -2.9998 0.9763
3.1746 -4.1134 -2.9999 0.9763
3.5283 -3.8147 -3.0001 0.9763
3.8540 -3.4857 -3.0002 0.9763
4.1491 -3.1290 -3.0003 0.9763
4.4113 -2.7473 -3.0004 0.9763
5.1652 -0.5778 -3.0007 0.9763
5.1961 -0.1158 -3.0007 0.9763
5.1858 0.3472 -3.0007 0.9763
4.2844 2.9411 -3.0004 0.9763
4.0055 3.3107 -3.0002 0.9763
3.6948 3.6539 -3.0001 0.9763
3.3548 3.9681 -3.0000 0.9763
2.9881 4.2507 -2.9998 0.9763
3.0985 6.6771 -4.2499 0.9666
2.4918 6.9260 -4.2496 0.9666
1.8653 7.1199 -4.2494 0.9666
1.2241 7.2572 -4.2491 0.9666
0.3841 4.9151 -2.8464 0.9775
