ply
format ascii 1.0
element vertex 1584
property float32 x
property float32 y
property float32 z
property float32 I
end_header
-2.5275 -5.7805 1.3300 0.9745
-2.1621 -6.4579 1.4357 0.9725
-2.3217 -6.0283 1.3619 0.9739
-2.9664 -5.4130 1.1945 0.9752
-2.0960 -6.2605 1.2776 0.9735
6.0005 7.0974 1.7986 0.9628
-4.1512 -5.6340 1.3543 0.9719
-2.7123 -5.5193 1.1901 0.9753
-2.2757 -5.9086 1.2253 0.9745
-2.4455 -5.5930 1.0764 0.9755
-2.0456 -6.1098 1.1361 0.9742
-3.9871 -5.4113 1.1852 0.9731
-2.6741 -5.4417 1.0691 0.9757
-2.2340 -5.8004 1.0960 0.9751
-2.0133 -6.0134 1.0098 0.9746
-3.1658 -5.2116 0.9710 0.9756
-2.2081 -5.7332 0.9783 0.9754
-1.8508 -6.4725 1.0720 0.9731
-4.4745 -5.5381 1.0127 0.9716
-1.9854 -5.9300 0.8895 0.9751
5.9979 7.0944 1.3214 0.9632
-3.8249 -5.1912 0.9172 0.9743
-3.1311 -5.1545 0.8578 0.9759
-2.6216 -5.3348 0.8455 0.9763
-1.8149 -6.3472 0.9390 0.9737
-3.4039 -5.0790 0.7662 0.9757
-2.3739 -5.4293 0.7426 0.9764
-3.1007 -5.1044 0.7484 0.9762
-2.1601 -5.6086 0.7532 0.9761
-1.7806 -6.2272 0.8116 0.9742
-4.2228 -5.2267 0.7288 0.9733
-1.9495 -5.8227 0.6660 0.9756
-1.6266 -6.8254 0.7611 0.9722
-3.7390 -5.0746 0.6837 0.9750
-2.5857 -5.2617 0.6359 0.9767
-2.1481 -5.5775 0.6483 0.9762
-2.8089 -5.1256 0.5358 0.9768
-1.9374 -5.7867 0.5595 0.9758
-1.5990 -6.7097 0.6324 0.9727
5.9954 7.0914 0.8513 0.9634
-2.5722 -5.2342 0.5347 0.9768
-2.1363 -5.5468 0.5449 0.9764
-1.7488 -6.1160 0.5832 0.9748
-4.1323 -5.1146 0.4928 0.9740
-1.9255 -5.7513 0.4545 0.9760
-1.5724 -6.5982 0.5083 0.9732
5.9946 7.0904 0.6958 0.9634
-3.6864 -5.0032 0.4657 0.9754
-3.0508 -5.0223 0.4404 0.9767
-3.3297 -4.9683 0.3483 0.9763
-2.7849 -5.0818 0.3375 0.9770
-2.3276 -5.3234 0.3384 0.9770
-1.9169 -5.7256 0.3517 0.9761
-1.5512 -6.5092 0.3897 0.9735
5.9937 7.0895 0.5407 0.9635
-3.0403 -5.0049 0.3411 0.9768
-2.5507 -5.1906 0.3368 0.9771
-1.7250 -6.0325 0.3654 0.9752
-3.3235 -4.9590 0.2482 0.9764
-2.7802 -5.0733 0.2405 0.9771
-1.9132 -5.7145 0.2506 0.9762
5.9929 7.0885 0.3860 0.9635
-1.7209 -6.0183 0.2603 0.9753
-3.3174 -4.9498 0.1486 0.9764
-2.7756 -5.0648 0.1440 0.9772
-2.3197 -5.3053 0.1444 0.9771
-1.5411 -6.4669 0.1658 0.9738
5.9921 7.0875 0.2315 0.9635
-3.6498 -4.9536 0.1534 0.9757
-2.5424 -5.1736 0.1438 0.9772
-3.3112 -4.9407 0.0494 0.9765
-2.7710 -5.0564 0.0479 0.9772
-2.3158 -5.2963 0.0480 0.9771
5.9913 7.0865 0.0771 0.9636
-4.8655 -5.5015 0.0610 0.9710
-3.6418 -4.9427 0.0510 0.9757
-3.0249 -4.9796 0.0484 0.9770
-2.1061 -5.4683 0.0487 0.9768
-4.0612 -5.0266 -0.0537 0.9745
-3.3114 -4.9409 -0.0494 0.9765
-2.7711 -5.0566 -0.0479 0.9772
-2.3159 -5.2965 -0.0480 0.9771
-1.9059 -5.6928 -0.0499 0.9763
5.9904 7.0855 -0.0771 0.9636
-2.1062 -5.4685 -0.0487 0.9768
-4.0731 -5.0413 -0.1616 0.9744
-2.7757 -5.0650 -0.1440 0.9772
-2.3198 -5.3055 -0.1444 0.9771
-1.9096 -5.7037 -0.1500 0.9762
5.9896 7.0846 -0.2314 0.9636
-3.0301 -4.9882 -0.1456 0.9769
-1.7169 -6.0045 -0.1557 0.9753
-4.0850 -5.0561 -0.2703 0.9743
-3.3237 -4.9593 -0.2482 0.9764
-2.7804 -5.0735 -0.2406 0.9771
-2.3238 -5.3146 -0.2412 0.9770
-1.9133 -5.7147 -0.2506 0.9762
-1.5463 -6.4884 -0.2773 0.9736
5.9888 7.0836 -0.3857 0.9635
-3.0352 -4.9967 -0.2431 0.9769
-1.7210 -6.0186 -0.2603 0.9753
-4.0970 -5.0709 -0.3797 0.9742
-2.7850 -5.0820 -0.3375 0.9770
-1.5514 -6.5099 -0.3898 0.9735
5.9880 7.0826 -0.5402 0.9635
-2.1171 -5.4969 -0.3431 0.9767
-1.7250 -6.0328 -0.3655 0.9752
-4.1331 -5.1156 -0.4928 0.9740
-3.3441 -4.9897 -0.4501 0.9762
-2.3358 -5.3421 -0.4369 0.9769
-1.9258 -5.7521 -0.4546 0.9760
-1.5730 -6.6005 -0.5085 0.9731
5.9871 7.0816 -0.6949 0.9635
-3.0512 -5.0230 -0.4404 0.9767
-2.5592 -5.2079 -0.4349 0.9770
-1.7360 -6.0711 -0.4732 0.9750
-4.1722 -5.1640 -0.6086 0.9737
-2.3484 -5.3710 -0.5374 0.9767
-1.9377 -5.7875 -0.5595 0.9758
-1.5995 -6.7120 -0.6326 0.9727
5.9863 7.0806 -0.8500 0.9634
-3.0676 -5.0500 -0.5417 0.9765
-2.5725 -5.2349 -0.5347 0.9768
-2.1366 -5.5475 -0.5450 0.9764
-1.7491 -6.1170 -0.5833 0.9748
-4.2241 -5.2282 -0.7290 0.9733
-3.3840 -5.0492 -0.6593 0.9758
-2.8243 -5.1538 -0.6374 0.9766
-2.3612 -5.4003 -0.6393 0.9766
-1.9497 -5.8235 -0.6661 0.9756
5.9855 7.0796 -1.0056 0.9634
-3.7396 -5.0754 -0.6838 0.9750
-3.0842 -5.0773 -0.6444 0.9764
-2.5860 -5.2623 -0.6360 0.9767
-2.1484 -5.5782 -0.6484 0.9762
-1.7625 -6.1637 -0.6954 0.9745
-2.8396 -5.1816 -0.7405 0.9765
-2.3742 -5.4300 -0.7427 0.9764
-1.9629 -5.8630 -0.7748 0.9754
5.9846 7.0787 -1.1616 0.9633
-3.7729 -5.1206 -0.7971 0.9747
-2.1604 -5.6093 -0.7533 0.9761
-1.7813 -6.2297 -0.8120 0.9742
-4.4807 -5.5458 -1.0141 0.9716
-3.4428 -5.1370 -0.8796 0.9753
-2.8650 -5.2280 -0.8479 0.9762
-2.3961 -5.4800 -0.8507 0.9761
-1.9860 -5.9318 -0.8898 0.9750
5.9838 7.0777 -1.3183 0.9632
-2.6222 -5.3360 -0.8457 0.9763
-2.1835 -5.6694 -0.8641 0.9758
-3.4841 -5.1986 -0.9965 0.9750
-2.4208 -5.5364 -0.9622 0.9758
5.9829 7.0767 -1.4756 0.9632
-3.8938 -5.2847 -1.0453 0.9738
-2.2087 -5.7347 -0.9786 0.9754
-1.8515 -6.4750 -1.0724 0.9731
-2.9237 -5.3351 -1.0727 0.9756
5.9821 7.0757 -1.6338 0.9631
-3.2023 -5.2716 -1.0876 0.9753
-2.2345 -5.8019 -1.0963 0.9751
-2.4840 -5.6812 -1.1999 0.9751
12.1229 8.3219 -2.8456 0.9419
11.3342 9.3679 -2.8456 0.9419
10.4555 10.3397 -2.8456 0.9418
5.9812 7.0746 -1.7928 0.9630
8.4568 12.0300 -2.8457 0.9418
7.3526 12.7352 -2.8457 0.9418
4.9783 13.8376 -2.8458 0.9418
3.7270 14.2260 -2.8459 0.9418
1.1457 14.6621 -2.8460 0.9418
-2.7688 14.4448 -2.8462 0.9418
-5.2863 13.7256 -2.8463 0.9418
-6.4871 13.2008 -2.8464 0.9418
-7.6365 12.5713 -2.8465 0.9418
-10.6871 10.1078 -2.8466 0.9418
-11.5445 9.1166 -2.8467 0.9418
-3.2583 -5.3639 -1.2145 0.9748
-2.2766 -5.9111 -1.2258 0.9745
13.6619 5.4373 -2.8455 0.9419
13.1238 6.6317 -2.8455 0.9419
11.7402 8.8537 -2.8456 0.9419
10.9057 9.8636 -2.8456 0.9418
9.9846 10.7952 -2.8456 0.9418
6.7781 13.0502 -2.8458 0.9418
4.3570 14.0457 -2.8459 0.9418
3.0897 14.3781 -2.8459 0.9418
-4.6696 13.9473 -2.8463 0.9418
-5.8925 13.4766 -2.8464 0.9418
-7.0688 12.8989 -2.8464 0.9418
-9.2442 11.4417 -2.8465 0.9418
-11.9392 8.5934 -2.8467 0.9418
-12.6569 7.4967 -2.8467 0.9418
-13.7859 5.1339 -2.8468 0.9418
-14.2267 0.0000 -2.9993 0.9435
-13.7213 -3.7587 -2.9993 0.9435
-13.3323 -4.9650 -2.9993 0.9435
-12.2406 -7.2501 -2.9993 0.9435
-10.7610 -9.3054 -2.9992 0.9435
-9.8900 -10.2261 -2.9992 0.9435
-8.9404 -11.0657 -2.9991 0.9435
-2.1649 -6.4662 -1.4376 0.9725
-2.0529 -14.0757 -2.9988 0.9435
-0.7919 -14.2023 -2.9988 0.9435
1.7387 -14.1171 -2.9987 0.9435
5.4062 -13.1554 -2.9985 0.9435
7.6528 -11.9879 -2.9984 0.9435
8.6892 -11.2590 -2.9983 0.9435
9.6567 -10.4407 -2.9982 0.9435
11.3545 -8.5628 -2.9981 0.9435
12.6925 -6.4138 -2.9981 0.9435
13.2128 -5.2586 -2.9980 0.9435
13.9356 -2.8325 -2.9980 0.9435
14.2168 -0.3168 -2.9979 0.9435
14.0477 2.2089 -2.9979 0.9435
12.3061 5.5449 -2.8456 0.9463
5.9804 7.0736 -1.9528 0.9628
6.7493 11.6902 -2.8458 0.9463
3.4212 13.0586 -2.8459 0.9463
2.2454 13.3115 -2.8460 0.9463
1.0517 13.4588 -2.8460 0.9463
-0.1504 13.4993 -2.8461 0.9463
-1.3513 13.4326 -2.8461 0.9463
-4.8524 12.5991 -2.8463 0.9463
-7.0097 11.5396 -2.8464 0.9463
-8.0091 10.8700 -2.8465 0.9463
-10.5969 8.3683 -2.8466 0.9463
-11.2998 7.3920 -2.8467 0.9463
-12.4317 5.2715 -2.8467 0.9463
-13.5399 4.3660 -2.9992 0.9435
-14.2126 0.6337 -2.9993 0.9435
-14.2127 -0.6337 -2.9993 0.9435
-13.8751 -3.1437 -2.9993 0.9435
-13.0978 -5.5539 -2.9993 0.9435
-11.9054 -7.7881 -2.9992 0.9435
-11.1649 -8.8168 -2.9992 0.9435
-10.3357 -9.7755 -2.9992 0.9435
-9.4245 -10.6565 -2.9991 0.9435
-2.3227 -6.0308 -1.3624 0.9739
-2.6779 -13.9704 -2.9989 0.9435
-0.1583 -14.2232 -2.9987 0.9435
1.1081 -14.1807 -2.9987 0.9435
3.6047 -13.7590 -2.9986 0.9435
5.9869 -12.9013 -2.9984 0.9435
7.1112 -12.3170 -2.9984 0.9435
9.1821 -10.8606 -2.9983 0.9435
10.1121 -10.0001 -2.9982 0.9435
10.9619 -9.0602 -2.9982 0.9435
12.3942 -6.9729 -2.9981 0.9435
13.4339 -4.6647 -2.9980 0.9435
13.7956 -3.4505 -2.9980 0.9435
14.0479 -2.2089 -2.9980 0.9435
14.2168 0.3168 -2.9979 0.9435
14.1321 1.5809 -2.9979 0.9435
12.0469 6.0876 -2.8456 0.9463
11.4574 7.1358 -2.8456 0.9463
10.0108 9.0543 -2.8456 0.9463
9.1653 9.9095 -2.8457 0.9463
8.2471 10.6860 -2.8457 0.9463
5.1311 12.4858 -2.8458 0.9463
3.9995 12.8931 -2.8459 0.9463
0.4511 13.4925 -2.8461 0.9463
-3.1298 13.1330 -2.8462 0.9463
-5.4089 12.3705 -2.8463 0.9463
-6.4886 11.8402 -2.8464 0.9463
-7.5169 11.2159 -2.8465 0.9463
-9.3867 9.7058 -2.8466 0.9463
-10.2135 8.8320 -2.8466 0.9463
-12.1845 5.8201 -2.8467 0.9463
-12.7441 4.7460 -2.8670 0.9459
-13.7210 3.7586 -2.9992 0.9435
-14.1702 1.2663 -2.9993 0.9435
-12.9323 -2.3299 -2.9992 0.9475
-12.3143 -4.5859 -2.9992 0.9475
-11.8572 -5.6637 -2.9992 0.9475
-11.3060 -6.6965 -2.9992 0.9475
-10.6650 -7.6762 -2.9992 0.9475
-9.9394 -8.5949 -2.9992 0.9475
-3.8965 -5.8140 -1.5975 0.9717
-2.5873 -5.9172 -1.4740 0.9739
-3.0459 -12.7810 -2.9989 0.9475
-1.8962 -13.0011 -2.9988 0.9475
0.4390 -13.1309 -2.9987 0.9475
2.7601 -12.8445 -2.9986 0.9475
8.9196 -9.6438 -2.9983 0.9475
11.1500 -6.9443 -2.9981 0.9475
12.8720 -2.6163 -2.9980 0.9475
11.3669 5.1217 -2.8456 0.9501
10.8660 6.1131 -2.8456 0.9501
10.2788 7.0561 -2.8457 0.9501
9.6101 7.9430 -2.8457 0.9501
8.8651 8.7669 -2.8457 0.9501
6.2342 10.7979 -2.8458 0.9501
4.2210 11.7325 -2.8459 0.9501
0.9714 12.4315 -2.8460 0.9501
-1.2482 12.4072 -2.8461 0.9501
-2.3476 12.2471 -2.8462 0.9501
-4.4820 11.6373 -2.8463 0.9501
-7.3976 10.0402 -2.8465 0.9501
-10.4371 6.8277 -2.8466 0.9501
-11.0035 5.8717 -2.8467 0.9501
-11.4826 4.8690 -2.8467 0.9501
-13.0231 1.7515 -2.9992 0.9475
-13.1274 0.5854 -2.9992 0.9475
-13.1275 -0.5854 -2.9992 0.9475
-12.8157 -2.9037 -2.9992 0.9475
-12.0978 -5.1299 -2.9992 0.9475
-11.5931 -6.1863 -2.9992 0.9475
-10.9964 -7.1935 -2.9992 0.9475
-10.3124 -8.1436 -2.9992 0.9475
-9.5466 -9.0291 -2.9991 0.9475
-8.7050 -9.8428 -2.9991 0.9475
-2.3947 -6.2178 -1.5208 0.9730
-0.1464 -13.1375 -2.9987 0.9475
1.0235 -13.0981 -2.9987 0.9475
2.1852 -12.9548 -2.9986 0.9475
5.5298 -11.9166 -2.9985 0.9475
7.5548 -10.7469 -2.9983 0.9475
8.4812 -10.0316 -2.9983 0.9475
10.8297 -7.4342 -2.9982 0.9475
11.9759 -5.3961 -2.9981 0.9475
12.4086 -4.3087 -2.9981 0.9475
12.7427 -3.1871 -2.9980 0.9475
13.1057 -0.8773 -2.9980 0.9475
12.8718 2.6163 -2.9980 0.9475
10.5829 6.5911 -2.8456 0.9501
9.9543 7.5069 -2.8457 0.9501
8.4658 9.1531 -2.8457 0.9501
7.6176 9.8704 -2.8458 0.9501
5.7470 11.0649 -2.8458 0.9501
3.6942 11.9090 -2.8459 0.9501
2.6196 12.1907 -2.8460 0.9501
0.4167 12.4625 -2.8461 0.9501
-0.6942 12.4504 -2.8461 0.9501
-1.7996 12.3394 -2.8462 0.9501
-2.8908 12.1304 -2.8462 0.9501
-3.9591 11.8253 -2.8463 0.9501
-7.8376 9.7008 -2.8465 0.9501
-9.4337 8.1577 -2.8466 0.9501
-10.7309 6.3559 -2.8467 0.9501
-11.4346 -4.2583 -2.9992 0.9510
-11.0101 -5.2591 -2.9992 0.9510
-10.4983 -6.2182 -2.9992 0.9510
-9.9031 -7.1278 -2.9991 0.9510
-9.2293 -7.9809 -2.9991 0.9510
-3.1830 -5.8083 -1.6280 0.9731
-3.8734 -11.5694 -2.9989 0.9510
0.4077 -12.1929 -2.9987 0.9510
1.4912 -12.1080 -2.9986 0.9510
8.2826 -8.9550 -2.9983 0.9510
10.3538 -6.4484 -2.9982 0.9510
10.8865 -5.5012 -2.9981 0.9510
11.3328 -4.5104 -2.9981 0.9510
11.6892 -3.4837 -2.9981 0.9510
12.1940 -0.2717 -2.9980 0.9510
12.1698 0.8147 -2.9980 0.9510
12.0489 1.8946 -2.9980 0.9510
11.5221 4.0009 -2.9980 0.9510
9.5448 6.5521 -2.8457 0.9534
8.2320 8.1408 -2.8457 0.9534
5.9205 7.0028 -2.2540 0.9629
0.9020 11.5436 -2.8461 0.9534
-1.1590 11.5210 -2.8462 0.9534
-2.1799 11.3723 -2.8462 0.9534
-4.1618 10.8061 -2.8463 0.9534
-5.1072 10.3929 -2.8464 0.9534
-6.0121 9.8972 -2.8464 0.9534
-6.8692 9.3230 -2.8464 0.9534
-9.6915 6.3399 -2.8466 0.9534
-10.2174 5.4522 -2.8466 0.9534
-11.1390 4.7234 -2.9739 0.9514
-11.6127 3.7446 -2.9991 0.9510
-12.0928 1.6263 -2.9992 0.9510
-12.1896 -0.5435 -2.9992 0.9510
-12.0929 -1.6263 -2.9992 0.9510
-11.9002 -2.6962 -2.9992 0.9510
-8.8646 -8.3841 -2.9991 0.9510
-8.0831 -9.1397 -2.9991 0.9510
-2.9031 -5.9077 -1.6180 0.9733
-2.5760 -6.6885 -1.7617 0.9709
-3.3542 -11.7304 -2.9989 0.9510
-2.2968 -11.9821 -2.9988 0.9510
3.0917 -11.8010 -2.9986 0.9510
5.1349 -11.0654 -2.9985 0.9510
6.0993 -10.5643 -2.9984 0.9510
7.0153 -9.9793 -2.9984 0.9510
7.8755 -9.3152 -2.9983 0.9510
10.0563 -6.9033 -2.9982 0.9510
11.8327 -2.9596 -2.9981 0.9510
12.0491 -1.8946 -2.9981 0.9510
12.1698 -0.8147 -2.9980 0.9510
11.9526 2.4295 -2.9980 0.9510
9.2435 6.9708 -2.8457 0.9534
8.5864 7.7659 -2.8457 0.9534
5.3366 10.2747 -2.8459 0.9534
4.4009 10.7091 -2.8459 0.9534
2.4325 11.3201 -2.8460 0.9534
1.4154 11.4919 -2.8460 0.9534
0.3869 11.5724 -2.8461 0.9534
-0.6446 11.5611 -2.8461 0.9534
-1.6711 11.4580 -2.8462 0.9534
-3.6763 10.9806 -2.8463 0.9534
-8.0507 8.3244 -2.8465 0.9534
-11.4343 4.2582 -2.9991 0.9510
-12.0083 2.1634 -2.9992 0.9510
-11.2016 -2.0181 -2.9992 0.9540
-10.9776 -3.0071 -2.9992 0.9540
-9.7930 -5.8004 -2.9991 0.9540
-8.6093 -7.4447 -2.9991 0.9540
-6.3363 -9.4544 -2.9990 0.9540
-5.4696 -9.9807 -2.9990 0.9540
-4.5595 -10.4278 -2.9989 0.9540
-3.6132 -10.7921 -2.9989 0.9540
-1.6424 -11.2614 -2.9988 0.9540
2.3908 -11.1259 -2.9986 0.9540
3.3715 -10.8687 -2.9985 0.9540
4.3254 -10.5254 -2.9985 0.9540
6.1229 -9.5913 -2.9984 0.9540
6.9522 -9.0082 -2.9984 0.9540
7.7263 -8.3535 -2.9983 0.9540
8.4390 -7.6326 -2.9983 0.9540
9.6583 -6.0153 -2.9982 0.9540
10.5716 -4.2074 -2.9981 0.9540
11.1500 -2.2663 -2.9981 0.9540
11.3074 -1.2649 -2.9981 0.9540
11.3750 -0.2535 -2.9981 0.9540
11.2397 1.7674 -2.9981 0.9540
8.3244 6.8804 -2.8457 0.9563
7.6791 7.5940 -2.8458 0.9563
5.9033 6.9824 -2.4093 0.9629
5.4001 9.3533 -2.8459 0.9563
4.5462 9.7969 -2.8459 0.9563
2.7373 10.4481 -2.8460 0.9563
1.7965 10.6504 -2.8460 0.9563
-0.1203 10.8005 -2.8461 0.9563
-2.0335 10.6084 -2.8462 0.9563
-2.9696 10.3855 -2.8462 0.9563
-3.8823 10.0801 -2.8463 0.9563
-4.7641 9.6947 -2.8463 0.9563
-6.4077 8.6967 -2.8464 0.9563
-8.4780 6.6951 -2.8465 0.9563
-9.0404 5.9140 -2.8466 0.9563
-9.5310 5.0859 -2.8466 0.9563
-11.1005 2.5150 -2.9991 0.9540
-11.2803 1.5171 -2.9991 0.9540
-11.3706 0.5070 -2.9991 0.9540
-11.1006 -2.5151 -2.9992 0.9540
-10.8327 -3.4931 -2.9991 0.9540
-10.4788 -4.4434 -2.9991 0.9540
-9.5248 -6.2308 -2.9991 0.9540
-8.9324 -7.0538 -2.9991 0.9540
-6.7512 -9.1628 -2.9990 0.9540
-3.0665 -6.2402 -1.8321 0.9716
-1.1391 -11.3233 -2.9988 0.9540
-0.1268 -11.3796 -2.9987 0.9540
0.8866 -11.3455 -2.9987 0.9540
1.8928 -11.2214 -2.9986 0.9540
2.8840 -11.0083 -2.9986 0.9540
3.8523 -10.7077 -2.9985 0.9540
4.7900 -10.3221 -2.9985 0.9540
6.5440 -9.3090 -2.9984 0.9540
7.3465 -8.6895 -2.9983 0.9540
11.0380 -2.7607 -2.9981 0.9540
11.2398 -1.7674 -2.9981 0.9540
11.1498 2.2663 -2.9981 0.9540
9.6389 4.8707 -2.8457 0.9563
8.6227 6.5027 -2.8457 0.9563
8.0097 7.2444 -2.8458 0.9563
5.7101 7.3987 -2.4626 0.9621
4.1053 9.9898 -2.8459 0.9563
2.2691 10.5597 -2.8460 0.9563
0.3609 10.7951 -2.8461 0.9563
-0.6013 10.7845 -2.8461 0.9563
-1.5589 10.6884 -2.8462 0.9563
-2.5040 10.5074 -2.8462 0.9563
-5.1913 9.4729 -2.8464 0.9563
-6.7888 8.4027 -2.8464 0.9563
-9.9145 4.7358 -2.8952 0.9556
-11.3367 1.0130 -2.9991 0.9540
-10.6595 0.0000 -2.9991 0.9567
-10.6172 -0.9488 -2.9991 0.9567
-10.4906 -1.8899 -2.9991 0.9567
-10.2808 -2.8162 -2.9991 0.9567
-9.9893 -3.7200 -2.9991 0.9567
-9.6185 -4.5944 -2.9991 0.9567
-9.1714 -5.4322 -2.9991 0.9567
-7.4102 -7.6621 -2.9990 0.9567
-2.4708 -10.3681 -2.9988 0.9567
-1.5382 -10.5467 -2.9988 0.9567
0.3561 -10.6520 -2.9987 0.9567
2.2391 -10.4197 -2.9986 0.9567
3.1576 -10.1790 -2.9985 0.9567
4.0509 -9.8574 -2.9985 0.9567
4.9121 -9.4576 -2.9985 0.9567
5.7343 -8.9827 -2.9984 0.9567
7.2360 -7.8234 -2.9983 0.9567
8.5082 -6.4163 -2.9983 0.9567
9.9008 -3.9404 -2.9982 0.9567
10.5899 -1.1847 -2.9981 0.9567
10.6532 -0.2374 -2.9981 0.9567
10.6321 0.7117 -2.9981 0.9567
10.5265 1.6552 -2.9981 0.9567
10.3374 2.5856 -2.9981 0.9567
8.8151 4.9593 -2.8457 0.9588
8.3387 5.7243 -2.8458 0.9588
7.7962 6.4438 -2.8458 0.9588
5.8860 6.9620 -2.5650 0.9628
5.0574 8.7598 -2.8459 0.9588
1.6825 9.9745 -2.8460 0.9588
0.7880 10.0848 -2.8461 0.9588
-1.0125 10.0651 -2.8462 0.9588
-1.9044 9.9352 -2.8462 0.9588
-2.7812 9.7264 -2.8462 0.9588
-5.2522 8.6464 -2.8464 0.9588
-6.0010 8.1447 -2.8464 0.9588
-7.3503 6.9519 -2.8465 0.9588
-8.9261 4.7631 -2.8466 0.9588
-9.8134 4.1612 -2.9990 0.9567
-10.3959 2.3554 -2.9991 0.9567
-10.5643 1.4208 -2.9991 0.9567
-10.6489 -0.4749 -2.9991 0.9567
-10.3960 -2.3554 -2.9991 0.9567
-7.0615 -7.9845 -2.9990 0.9567
-6.3227 -8.5812 -2.9990 0.9567
-5.5338 -9.1098 -2.9990 0.9567
-2.9303 -10.2478 -2.9988 0.9567
-2.0065 -10.4678 -2.9988 0.9567
0.8303 -10.6255 -2.9987 0.9567
1.7727 -10.5093 -2.9986 0.9567
6.1288 -8.7183 -2.9984 0.9567
6.8803 -8.1381 -2.9984 0.9567
8.7856 -6.0310 -2.9982 0.9567
10.0665 -3.4954 -2.9982 0.9567
10.3376 -2.5856 -2.9981 0.9567
10.5266 -1.6552 -2.9981 0.9567
10.6532 0.2374 -2.9981 0.9567
10.5898 1.1847 -2.9981 0.9567
10.4423 2.1225 -2.9981 0.9567
8.5854 5.3471 -2.8457 0.9588
7.5015 6.7847 -2.8458 0.9588
6.8679 7.4255 -2.8458 0.9588
5.6884 7.3706 -2.6195 0.9621
1.2365 10.0396 -2.8461 0.9588
-0.5632 10.1001 -2.8461 0.9588
-1.4599 10.0100 -2.8462 0.9588
-2.3451 9.8405 -2.8462 0.9588
-4.0528 9.2691 -2.8463 0.9588
-4.8618 8.8717 -2.8464 0.9588
-7.0332 7.2723 -2.8465 0.9588
-8.7049 5.1560 -2.8466 0.9588
-9.6182 4.5943 -2.9990 0.9567
-9.9891 3.7200 -2.9990 0.9567
-10.4905 1.8900 -2.9991 0.9567
-10.0176 0.0000 -2.9991 0.9590
-9.9779 -0.8916 -2.9991 0.9590
-9.3878 -3.4960 -2.9991 0.9590
-9.0393 -4.3177 -2.9991 0.9590
-7.5773 -6.5523 -2.9990 0.9590
-6.9640 -7.2007 -2.9990 0.9590
-6.2954 -7.7919 -2.9990 0.9590
-5.5768 -8.3212 -2.9989 0.9590
-4.8140 -8.7845 -2.9989 0.9590
-4.0130 -9.1780 -2.9989 0.9590
1.2244 -9.9410 -2.9986 0.9590
4.6164 -8.8882 -2.9985 0.9590
7.9961 -6.0301 -2.9983 0.9590
9.5974 -2.8603 -2.9982 0.9590
9.8139 -1.9947 -2.9982 0.9590
7.8368 5.3797 -2.8458 0.9611
7.3269 6.0559 -2.8458 0.9611
5.8686 6.9414 -2.7213 0.9628
4.0014 8.6229 -2.8459 0.9611
3.2181 8.9449 -2.8460 0.9611
2.4092 9.1960 -2.8460 0.9611
-0.9516 9.4591 -2.8462 0.9611
-1.7898 9.3370 -2.8462 0.9611
-2.6137 9.1408 -2.8462 0.9611
-4.1931 8.5328 -2.8463 0.9611
-7.4619 5.8926 -2.8465 0.9611
-8.8355 4.7148 -2.9982 0.9590
-9.2225 3.9107 -2.9990 0.9590
-9.5340 3.0744 -2.9990 0.9590
-10.0077 0.4463 -2.9991 0.9590
-10.0077 -0.4462 -2.9991 0.9590
-9.9283 -1.3352 -2.9991 0.9590
-9.2227 -3.9107 -2.9991 0.9590
-7.2779 -6.8834 -2.9990 0.9590
-1.8857 -9.8375 -2.9988 0.9590
-0.1116 -10.0157 -2.9987 0.9590
0.7803 -9.9858 -2.9987 0.9590
1.6660 -9.8765 -2.9986 0.9590
2.5384 -9.6889 -2.9986 0.9590
4.2159 -9.0851 -2.9985 0.9590
5.0078 -8.6737 -2.9984 0.9590
5.7598 -8.1934 -2.9984 0.9590
7.1211 -7.0422 -2.9983 0.9590
7.7195 -6.3804 -2.9983 0.9590
8.7283 -4.9105 -2.9982 0.9590
9.1307 -4.1141 -2.9982 0.9590
9.4605 -3.2850 -2.9982 0.9590
9.7153 -2.4300 -2.9982 0.9590
9.8138 1.9948 -2.9981 0.9590
9.5973 2.8603 -2.9981 0.9590
9.3046 3.7032 -2.9981 0.9590
8.0686 5.0252 -2.8458 0.9611
6.4545 6.9785 -2.8458 0.9611
5.1150 8.0125 -2.8459 0.9611
1.9972 9.2942 -2.8460 0.9611
-1.3720 9.4074 -2.8462 0.9611
-3.8088 8.7110 -2.8463 0.9611
-4.5691 8.3376 -2.8463 0.9611
-6.6098 6.8345 -2.8465 0.9611
-7.1919 6.2191 -2.8465 0.9611
-7.7170 5.5544 -2.8465 0.9611
-8.1808 4.8455 -2.8465 0.9611
-9.3876 3.4960 -2.9990 0.9590
-9.6616 2.6466 -2.9990 0.9590
-9.8588 1.7762 -2.9991 0.9590
-9.9778 0.8916 -2.9991 0.9590
-9.2937 -1.6743 -2.9991 0.9611
-8.8496 -3.2956 -2.9991 0.9611
-7.6644 -5.5165 -2.9990 0.9611
-4.5380 -8.2809 -2.9989 0.9611
-2.1890 -9.1853 -2.9988 0.9611
-0.5257 -9.4276 -2.9987 0.9611
1.9837 -9.2311 -2.9986 0.9611
3.5888 -8.7329 -2.9985 0.9611
5.7683 -7.4742 -2.9984 0.9612
6.4106 -6.9311 -2.9984 0.9612
7.0020 -6.3329 -2.9983 0.9612
7.5378 -5.6845 -2.9983 0.9612
8.0137 -4.9910 -2.9983 0.9612
8.4261 -4.2579 -2.9982 0.9612
8.7715 -3.4910 -2.9982 0.9612
9.2514 -1.8804 -2.9982 0.9612
9.3820 -1.0496 -2.9982 0.9612
9.4382 -0.2103 -2.9982 0.9612
9.4194 0.6305 -2.9982 0.9612
9.3259 1.4665 -2.9981 0.9612
8.9181 3.0967 -2.9982 0.9612
8.6071 3.8782 -2.9982 0.9612
11.6577 6.5585 -4.2480 0.9454
5.1535 7.3309 -2.8459 0.9631
4.4806 7.7606 -2.8459 0.9631
1.4906 8.8367 -2.8461 0.9631
-0.0998 8.9613 -2.8461 0.9631
-0.8970 8.9169 -2.8462 0.9631
-1.6872 8.8018 -2.8462 0.9631
-3.9528 8.0436 -2.8463 0.9631
-5.9376 6.7138 -2.8464 0.9631
-6.5117 6.1587 -2.8465 0.9631
-7.5006 4.9067 -2.8465 0.9631
-8.3311 4.4456 -2.9990 0.9611
-8.6938 3.6865 -2.9990 0.9611
-9.2098 2.0867 -2.9990 0.9611
-9.3590 1.2587 -2.9990 0.9611
-9.4339 0.4207 -2.9990 0.9611
-8.6940 -3.6865 -2.9990 0.9611
-7.9025 -5.1696 -2.9990 0.9611
-5.6014 -7.6022 -2.9989 0.9611
-1.7776 -9.2736 -2.9988 0.9611
-0.9451 -9.3949 -2.9987 0.9611
-0.1052 -9.4416 -2.9987 0.9611
2.3929 -9.1335 -2.9986 0.9611
6.7129 -6.6386 -2.9983 0.9612
7.2771 -6.0147 -2.9983 0.9612
7.7835 -5.3430 -2.9983 0.9612
8.6073 -3.8783 -2.9982 0.9612
9.1585 -2.2907 -2.9982 0.9612
9.4194 -0.6305 -2.9982 0.9612
9.4382 0.2103 -2.9982 0.9612
9.3820 1.0496 -2.9981 0.9612
9.2513 1.8804 -2.9981 0.9612
9.0472 2.6963 -2.9982 0.9612
11.9383 6.0327 -4.2480 0.9454
11.3540 7.0713 -4.2480 0.9454
6.6458 6.0108 -2.8458 0.9631
6.0845 6.5785 -2.8459 0.9631
5.4749 7.0941 -2.8459 0.9631
4.8218 7.5533 -2.8459 0.9631
3.4063 8.2887 -2.8460 0.9631
1.0955 8.8944 -2.8461 0.9631
0.2995 8.9567 -2.8461 0.9631
-1.2934 8.8682 -2.8462 0.9631
-2.0776 8.7180 -2.8462 0.9631
-2.8453 8.4986 -2.8463 0.9631
-3.5905 8.2117 -2.8463 0.9631
-4.3072 7.8596 -2.8463 0.9631
-4.9897 7.4452 -2.8464 0.9631
-5.6326 6.9716 -2.8464 0.9631
-6.2309 6.4427 -2.8464 0.9631
-6.7796 5.8626 -2.8465 0.9631
-7.2746 5.2360 -2.8465 0.9631
-8.5209 4.0701 -2.9990 0.9611
-9.1077 2.4949 -2.9990 0.9611
-9.4058 0.8405 -2.9990 0.9611
-8.7848 -1.5827 -2.9990 0.9630
-8.6090 -2.3583 -2.9990 0.9630
-8.3649 -3.1151 -2.9990 0.9630
-8.0545 -3.8473 -2.9990 0.9630
-5.6095 -6.9429 -2.9989 0.9630
-3.5758 -8.1780 -2.9988 0.9630
-2.0691 -8.6823 -2.9988 0.9630
-0.4969 -8.9113 -2.9987 0.9630
0.2982 -8.9201 -2.9987 0.9630
1.8750 -8.7256 -2.9986 0.9630
2.6442 -8.5240 -2.9986 0.9630
4.1135 -7.9200 -2.9985 0.9630
4.8021 -7.5223 -2.9984 0.9630
5.4525 -7.0650 -2.9984 0.9630
6.0596 -6.5516 -2.9984 0.9630
6.6186 -5.9862 -2.9983 0.9630
7.5750 -4.7178 -2.9983 0.9630
7.9647 -4.0247 -2.9983 0.9630
8.2913 -3.2998 -2.9982 0.9630
8.5520 -2.5487 -2.9982 0.9630
8.7449 -1.7775 -2.9982 0.9630
8.8684 -0.9921 -2.9982 0.9630
8.9037 0.5960 -2.9982 0.9630
8.6569 2.1653 -2.9982 0.9630
8.4299 2.9272 -2.9982 0.9630
8.1359 3.6659 -2.9982 0.9630
6.0227 5.9560 -2.8459 0.9649
4.8713 6.9296 -2.8459 0.9649
4.2353 7.3357 -2.8459 0.9649
2.8676 7.9706 -2.8460 0.9649
2.1468 8.1943 -2.8460 0.9649
0.6599 8.4453 -2.8461 0.9649
-0.8479 8.4286 -2.8462 0.9649
-1.5948 8.3199 -2.8462 0.9649
-2.3290 8.1450 -2.8462 0.9649
-3.7363 7.6032 -2.8463 0.9649
-4.3983 7.2406 -2.8463 0.9649
-6.1551 5.8215 -2.8464 0.9649
-8.7054 1.9724 -2.9990 0.9630
-8.9173 0.3976 -2.9990 0.9630
-8.9173 -0.3976 -2.9990 0.9630
-8.7055 -1.9724 -2.9990 0.9630
-8.4954 -2.7394 -2.9990 0.9630
-8.2179 -3.4846 -2.9990 0.9630
-7.8751 -4.2022 -2.9990 0.9630
-5.9133 -6.6862 -2.9989 0.9630
-3.9366 -8.0107 -2.9989 0.9630
2.2619 -8.6334 -2.9986 0.9630
3.0213 -8.3977 -2.9985 0.9630
3.7567 -8.0954 -2.9985 0.9630
5.7618 -6.8150 -2.9984 0.9630
6.3454 -6.2751 -2.9984 0.9630
7.7776 -4.3756 -2.9983 0.9630
8.1361 -3.6659 -2.9983 0.9630
8.6571 -2.1652 -2.9982 0.9630
8.8154 -1.3862 -2.9982 0.9630
8.7448 1.7774 -2.9982 0.9630
10.7324 6.6842 -4.2480 0.9480
6.7627 5.1000 -2.8458 0.9649
6.2820 5.6817 -2.8459 0.9649
5.7514 6.2184 -2.8459 0.9649
5.1751 6.7056 -2.8459 0.9649
4.5578 7.1397 -2.8459 0.9649
3.9043 7.5171 -2.8459 0.9649
3.2198 7.8349 -2.8460 0.9649
2.5097 8.0904 -2.8460 0.9649
0.2831 8.4663 -2.8461 0.9649
-0.4716 8.4580 -2.8461 0.9649
-1.2226 8.3826 -2.8462 0.9649
-3.3939 7.7620 -2.8463 0.9649
-4.0713 7.4292 -2.8463 0.9649
-5.3242 6.5898 -2.8464 0.9649
-5.8896 6.0899 -2.8464 0.9649
-6.4084 5.5415 -2.8465 0.9649
-7.6798 4.5488 -2.9989 0.9630
-8.0543 3.8472 -2.9990 0.9630
-8.6089 2.3582 -2.9990 0.9630
-8.7847 1.5827 -2.9990 0.9630
-8.3238 -1.4996 -2.9990 0.9647
-7.6318 -3.6454 -2.9990 0.9647
-4.0645 -7.4167 -2.9989 0.9647
-3.3882 -7.7489 -2.9988 0.9647
-2.6850 -8.0197 -2.9988 0.9647
-1.9605 -8.2267 -2.9988 0.9647
-1.2205 -8.3685 -2.9987 0.9647
-0.4708 -8.4438 -2.9987 0.9647
0.2826 -8.4521 -2.9987 0.9647
1.7767 -8.2679 -2.9986 0.9647
3.2144 -7.8217 -2.9985 0.9647
5.1664 -6.6943 -2.9984 0.9647
7.5469 -3.8136 -2.9983 0.9647
7.8563 -3.1268 -2.9983 0.9648
8.2861 -1.6842 -2.9982 0.9648
8.4031 -0.9400 -2.9982 0.9648
8.4366 0.5648 -2.9982 0.9648
8.2028 2.0517 -2.9982 0.9648
7.9876 2.7736 -2.9982 0.9648
7.7091 3.4736 -2.9982 0.9648
9.8771 6.7802 -4.2481 0.9504
5.1818 6.1291 -2.8459 0.9665
4.6158 6.5660 -2.8459 0.9665
2.0342 7.7643 -2.8460 0.9665
1.3350 7.9146 -2.8461 0.9665
0.6253 8.0022 -2.8461 0.9665
-0.0894 8.0262 -2.8461 0.9665
-0.8034 7.9864 -2.8462 0.9665
-1.5111 7.8833 -2.8462 0.9665
-2.2068 7.7176 -2.8462 0.9665
-2.8850 7.4907 -2.8463 0.9665
-4.1675 6.8606 -2.8463 0.9665
-4.7616 6.4626 -2.8464 0.9665
-7.0776 4.6300 -2.9989 0.9647
-7.7865 3.3018 -2.9989 0.9647
-8.0495 2.5956 -2.9990 0.9647
-8.3823 -1.1273 -2.9990 0.9647
-7.7866 -3.3018 -2.9990 0.9647
-7.4618 -3.9817 -2.9990 0.9647
-7.0778 -4.6301 -2.9990 0.9647
-6.6376 -5.2416 -2.9990 0.9647
-6.1446 -5.8115 -2.9989 0.9647
-5.0168 -6.8088 -2.9989 0.9647
-4.3908 -7.2283 -2.9989 0.9647
-3.0396 -7.8921 -2.9988 0.9647
-2.3251 -8.1312 -2.9988 0.9647
-0.8465 -8.4145 -2.9987 0.9647
0.6588 -8.4310 -2.9987 0.9647
1.4066 -8.3389 -2.9986 0.9647
5.4595 -6.4575 -2.9984 0.9647
6.5178 -5.3871 -2.9983 0.9647
6.9713 -4.7855 -2.9983 0.9647
7.9878 -2.7736 -2.9983 0.9648
8.3529 -1.3134 -2.9982 0.9648
8.4366 -0.5648 -2.9982 0.9648
8.4534 0.1884 -2.9982 0.9648
8.1033 2.4150 -2.9982 0.9648
7.8562 3.1267 -2.9982 0.9648
10.1693 6.3335 -4.2481 0.9504
9.5653 7.2135 -4.2481 0.9504
5.4497 5.8921 -2.8459 0.9665
4.9036 6.3538 -2.8459 0.9665
3.6995 7.1227 -2.8460 0.9665
3.0508 7.4238 -2.8460 0.9665
2.3780 7.6660 -2.8460 0.9665
1.6863 7.8473 -2.8461 0.9665
0.2682 8.0221 -2.8461 0.9665
-1.1584 7.9428 -2.8462 0.9665
-2.5484 7.6117 -2.8463 0.9665
-3.2158 7.3548 -2.8463 0.9665
-3.8577 7.0394 -2.8463 0.9665
-5.5806 5.7703 -2.8464 0.9665
-8.1571 2.2345 -2.9990 0.9647
-8.0313 0.0000 -2.9990 0.9663
-7.9995 -0.7148 -2.9990 0.9663
-7.9041 -1.4240 -2.9990 0.9663
-7.7460 -2.1219 -2.9990 0.9663
-7.5264 -2.8029 -2.9990 0.9663
-7.2470 -3.4616 -2.9990 0.9663
-6.5184 -4.6916 -2.9990 0.9663
-6.0749 -5.2532 -2.9989 0.9663
-5.5832 -5.7730 -2.9989 0.9663
-4.4711 -6.6713 -2.9989 0.9663
-3.2173 -7.3582 -2.9988 0.9663
-0.4471 -8.0181 -2.9987 0.9663
1.6871 -7.8510 -2.9986 0.9663
2.3792 -7.6696 -2.9986 0.9663
3.0523 -7.4273 -2.9985 0.9663
3.7012 -7.1261 -2.9985 0.9663
4.9060 -6.3568 -2.9984 0.9663
5.9552 -5.3862 -2.9984 0.9663
6.8157 -4.2449 -2.9983 0.9663
7.1665 -3.6214 -2.9983 0.9663
7.4603 -2.9691 -2.9983 0.9663
7.8684 -1.5993 -2.9982 0.9663
8.0113 0.5363 -2.9982 0.9663
7.9318 1.2472 -2.9982 0.9663
7.7893 1.9483 -2.9982 0.9663
7.3205 3.2985 -2.9982 0.9663
5.4190 5.3590 -2.8459 0.9680
4.9206 5.8201 -2.8459 0.9680
3.8108 6.6004 -2.8460 0.9680
3.2082 6.9135 -2.8460 0.9680
1.9316 7.3729 -2.8460 0.9680
1.2677 7.5157 -2.8461 0.9680
-0.7629 7.5838 -2.8462 0.9680
-1.4349 7.4859 -2.8462 0.9680
-2.0955 7.3286 -2.8462 0.9680
-2.7395 7.1130 -2.8463 0.9680
-3.3618 6.8411 -2.8463 0.9680
-3.9574 6.5147 -2.8463 0.9680
-5.0499 5.7100 -2.8464 0.9680
-5.5381 5.2379 -2.8464 0.9680
-6.0030 4.7405 -2.8563 0.9679
-7.0854 3.7809 -2.9989 0.9663
-7.3939 3.1353 -2.9989 0.9663
-7.8327 1.7747 -2.9990 0.9663
-7.9596 1.0705 -2.9990 0.9663
-8.0234 -0.3578 -2.9990 0.9663
-7.9597 -1.0705 -2.9990 0.9663
-7.8328 -1.7747 -2.9990 0.9663
-7.6438 -2.4648 -2.9990 0.9663
-7.3940 -3.1354 -2.9990 0.9663
-5.8348 -5.5185 -2.9989 0.9663
-5.3205 -6.0160 -2.9989 0.9663
-4.1695 -6.8638 -2.9989 0.9663
-1.5118 -7.8871 -2.9987 0.9663
-0.8038 -7.9903 -2.9987 0.9663
-0.0895 -8.0300 -2.9987 0.9663
0.6256 -8.0060 -2.9986 0.9663
2.7184 -7.5560 -2.9985 0.9663
3.3801 -7.2840 -2.9985 0.9663
4.0150 -6.9541 -2.9985 0.9663
5.7094 -5.6461 -2.9984 0.9663
6.1892 -5.1155 -2.9984 0.9663
6.6199 -4.5443 -2.9983 0.9663
7.7894 -1.9483 -2.9983 0.9663
7.9319 -1.2472 -2.9982 0.9663
8.0114 -0.5363 -2.9982 0.9663
8.0273 0.1789 -2.9982 0.9663
7.9795 0.8926 -2.9982 0.9663
7.8684 1.5993 -2.9982 0.9663
7.6948 2.2933 -2.9982 0.9663
7.4602 2.9691 -2.9982 0.9663
7.1663 3.6213 -2.9982 0.9663
9.0831 6.8499 -4.2481 0.9526
5.6524 5.1123 -2.8459 0.9680
5.1750 5.5951 -2.8459 0.9680
4.6565 6.0336 -2.8459 0.9680
4.1010 6.4241 -2.8460 0.9680
2.8971 7.0496 -2.8460 0.9680
1.6013 7.4517 -2.8461 0.9680
0.9317 7.5647 -2.8461 0.9680
0.2547 7.6177 -2.8461 0.9680
-0.4243 7.6102 -2.8462 0.9680
-1.7670 7.4146 -2.8462 0.9680
-2.4199 7.2280 -2.8463 0.9680
-3.6632 6.6845 -2.8463 0.9680
-4.2437 6.3321 -2.8463 0.9680
-4.7905 5.9293 -2.8464 0.9680
-5.2993 5.4794 -2.8464 0.9680
-6.5182 4.6915 -2.9989 0.9663
-7.2469 3.4615 -2.9989 0.9663
-7.9040 1.4240 -2.9990 0.9663
-7.9994 0.7148 -2.9990 0.9663
-7.6412 0.0000 -2.9990 0.9677
-7.6109 -0.6801 -2.9990 0.9677
-6.8950 -3.2935 -2.9990 0.9677
-6.2018 -4.4638 -2.9989 0.9677
-5.7798 -4.9980 -2.9989 0.9677
-5.3120 -5.4926 -2.9989 0.9677
-4.8020 -5.9436 -2.9989 0.9677
-4.2539 -6.3473 -2.9989 0.9677
-3.6721 -6.7007 -2.9988 0.9677
-3.0611 -7.0009 -2.9988 0.9677
-1.7713 -7.4325 -2.9988 0.9677
-1.1027 -7.5606 -2.9987 0.9677
0.2553 -7.6362 -2.9987 0.9677
4.1109 -6.4397 -2.9985 0.9677
4.6677 -6.0482 -2.9984 0.9677
5.6660 -5.1246 -2.9984 0.9677
6.0996 -4.5999 -2.9984 0.9677
6.4848 -4.0387 -2.9983 0.9677
7.4864 -1.5217 -2.9983 0.9677
7.5921 -0.8493 -2.9983 0.9677
7.5467 1.1867 -2.9982 0.9677
7.4111 1.8536 -2.9982 0.9677
6.9650 3.1383 -2.9982 0.9677
8.9238 6.1258 -4.2481 0.9546
5.1559 5.0988 -2.8459 0.9693
4.6817 5.5375 -2.8459 0.9693
3.6257 6.2800 -2.8460 0.9693
3.0524 6.5778 -2.8460 0.9693
2.4549 6.8234 -2.8460 0.9693
1.2062 7.1507 -2.8461 0.9693
-1.3652 7.1224 -2.8462 0.9693
-2.6065 6.7676 -2.8463 0.9693
-3.1985 6.5088 -2.8463 0.9693
-3.7652 6.1984 -2.8463 0.9693
-4.8046 5.4327 -2.8464 0.9693
-5.2691 4.9835 -2.8464 0.9693
-5.9673 4.7123 -2.9842 0.9679
-6.3943 4.1830 -2.9989 0.9677
-7.0348 2.9830 -2.9989 0.9677
-7.2724 2.3451 -2.9989 0.9677
-7.4523 1.6885 -2.9989 0.9677
-7.5730 1.0185 -2.9990 0.9677
-7.6337 -0.3404 -2.9990 0.9677
-7.5731 -1.0185 -2.9990 0.9677
-7.4524 -1.6885 -2.9990 0.9677
-7.0349 -2.9830 -2.9990 0.9677
-6.3945 -4.1831 -2.9989 0.9677
-4.5325 -6.1515 -2.9989 0.9677
-3.3699 -6.8576 -2.9988 0.9677
-2.7462 -7.1303 -2.9988 0.9677
-2.1006 -7.3463 -2.9988 0.9677
-0.7648 -7.6022 -2.9987 0.9677
-0.0851 -7.6400 -2.9987 0.9677
0.5952 -7.6172 -2.9986 0.9677
1.2708 -7.5339 -2.9986 0.9677
1.9363 -7.3908 -2.9986 0.9677
4.9325 -5.8342 -2.9984 0.9677
5.8887 -4.8671 -2.9984 0.9677
6.6582 -3.7458 -2.9983 0.9677
7.5467 -1.1867 -2.9983 0.9677
7.6224 -0.5103 -2.9982 0.9677
7.5920 0.8493 -2.9982 0.9677
7.0979 2.8249 -2.9982 0.9677
6.4846 4.0387 -2.9983 0.9677
4.9237 5.3234 -2.8459 0.9693
4.4303 5.7406 -2.8459 0.9693
3.9019 6.1121 -2.8460 0.9693
2.1485 6.9260 -2.8460 0.9693
1.5235 7.0898 -2.8461 0.9693
0.2423 7.2478 -2.8461 0.9693
-2.3024 6.8769 -2.8462 0.9693
-2.9054 6.6448 -2.8463 0.9693
-3.4853 6.3599 -2.8463 0.9693
-4.0376 6.0245 -2.8463 0.9693
-4.5578 5.6413 -2.8464 0.9693
-5.4900 4.7474 -2.8485 0.9693
-6.2016 4.4637 -2.9989 0.9677
-7.3697 2.0188 -2.9989 0.9677
-7.5201 1.3549 -2.9989 0.9677
-7.6109 0.6801 -2.9990 0.9677
-7.2540 -0.6482 -2.9990 0.9690
-7.1675 -1.2913 -2.9990 0.9690
-7.0241 -1.9241 -2.9990 0.9690
-6.5717 -3.1390 -2.9989 0.9690
-5.5088 -4.7636 -2.9989 0.9690
-2.9175 -6.6726 -2.9988 0.9690
-2.3120 -6.9057 -2.9988 0.9690
-0.4054 -7.2709 -2.9987 0.9690
0.8901 -7.2275 -2.9986 0.9690
2.1575 -6.9550 -2.9986 0.9690
4.4489 -5.7646 -2.9984 0.9690
5.4004 -4.8843 -2.9984 0.9690
5.8136 -4.3842 -2.9984 0.9690
6.9780 -2.0797 -2.9983 0.9690
7.2361 -0.8095 -2.9983 0.9690
7.2649 0.4863 -2.9983 0.9690
7.1928 1.1311 -2.9983 0.9690
7.0636 1.7667 -2.9983 0.9690
6.0030 4.1208 -2.9983 0.9690
7.3354 7.2542 -4.2482 0.9564
3.4557 5.9854 -2.8460 0.9705
2.9093 6.2694 -2.8460 0.9705
2.3397 6.5035 -2.8460 0.9705
-0.0770 6.9114 -2.8461 0.9705
-0.6918 6.8772 -2.8462 0.9705
-3.0485 6.2036 -2.8463 0.9705
-5.0221 4.7498 -2.8464 0.9705
-6.0944 3.9868 -2.9989 0.9690
-6.4251 3.4286 -2.9989 0.9690
-6.7049 2.8431 -2.9989 0.9690
-6.9313 2.2351 -2.9989 0.9690
-7.2756 0.3244 -2.9989 0.9690
-7.2756 -0.3244 -2.9990 0.9690
-7.2179 -0.9707 -2.9990 0.9690
-7.1029 -1.6093 -2.9990 0.9690
-6.7050 -2.8431 -2.9989 0.9690
-6.4253 -3.4286 -2.9989 0.9690
-5.7155 -4.5135 -2.9989 0.9690
-4.3199 -5.8630 -2.9989 0.9690
-3.2119 -6.5360 -2.9988 0.9690
-2.6174 -6.7959 -2.9988 0.9690
-2.0021 -7.0018 -2.9988 0.9690
-0.0811 -7.2817 -2.9987 0.9690
1.8455 -7.0442 -2.9986 0.9690
2.4651 -6.8519 -2.9985 0.9690
3.0652 -6.6053 -2.9985 0.9690
3.6409 -6.3062 -2.9985 0.9690
4.1877 -5.9570 -2.9985 0.9690
5.1774 -5.1201 -2.9984 0.9690
5.6125 -4.6389 -2.9984 0.9690
6.3460 -3.5702 -2.9983 0.9690
7.0637 -1.7667 -2.9983 0.9690
7.1929 -1.1310 -2.9983 0.9690
7.2794 0.1622 -2.9983 0.9690
7.1353 1.4503 -2.9983 0.9690
6.9779 2.0796 -2.9983 0.9690
6.7651 2.6924 -2.9983 0.9690
8.2369 6.2117 -4.2482 0.9564
7.6513 6.9202 -4.2482 0.9564
4.6928 5.0738 -2.8459 0.9705
3.1857 6.1335 -2.8460 0.9705
2.6271 6.3928 -2.8460 0.9705
2.0477 6.6012 -2.8460 0.9705
0.8449 6.8599 -2.8461 0.9705
0.2310 6.9079 -2.8461 0.9705
-0.3848 6.9011 -2.8462 0.9705
-1.6023 6.7237 -2.8462 0.9705
-3.3219 6.0617 -2.8463 0.9705
-3.8482 5.7420 -2.8463 0.9705
-4.8054 4.9688 -2.8464 0.9705
-5.4518 4.7145 -2.9679 0.9693
-5.9108 4.2543 -2.9988 0.9690
-6.8249 2.5416 -2.9989 0.9690
-7.0240 1.9241 -2.9989 0.9690
-7.1674 1.2913 -2.9989 0.9690
-7.2539 0.6482 -2.9989 0.9690
-6.9523 0.0000 -2.9989 0.9702
-6.9247 -0.6188 -2.9989 0.9702
-6.8422 -1.2327 -2.9989 0.9702
-6.7053 -1.8368 -2.9989 0.9702
-6.5152 -2.4263 -2.9989 0.9702
-5.6426 -4.0613 -2.9989 0.9702
-4.8331 -4.9974 -2.9989 0.9702
-4.3691 -5.4077 -2.9989 0.9702
-3.8704 -5.7751 -2.9988 0.9702
-3.3410 -6.0966 -2.9988 0.9702
-1.6116 -6.7625 -2.9987 0.9702
0.2323 -6.9478 -2.9987 0.9702
0.8497 -6.8995 -2.9986 0.9702
1.4605 -6.7964 -2.9986 0.9702
2.0596 -6.6393 -2.9986 0.9702
3.2040 -6.1689 -2.9985 0.9702
3.7404 -5.8592 -2.9985 0.9702
5.1553 -4.6627 -2.9984 0.9702
5.5498 -4.1853 -2.9984 0.9702
5.9002 -3.6747 -2.9984 0.9702
6.2038 -3.1349 -2.9983 0.9702
6.4582 -2.5703 -2.9983 0.9702
6.6613 -1.9853 -2.9983 0.9702
6.9353 0.4643 -2.9983 0.9702
6.7431 1.6866 -2.9983 0.9702
6.0579 3.4082 -2.9983 0.9702
5.7306 3.9338 -2.9983 0.9702
7.5911 6.2742 -4.2482 0.9580
4.2596 5.0383 -2.8460 0.9717
3.7943 5.3975 -2.8460 0.9717
2.2336 6.2083 -2.8460 0.9717
1.0974 6.5061 -2.8461 0.9717
-0.0735 6.5977 -2.8461 0.9717
-0.6604 6.5651 -2.8462 0.9717
-1.2422 6.4803 -2.8462 0.9717
-1.8140 6.3440 -2.8462 0.9717
-2.3715 6.1575 -2.8463 0.9717
-3.9141 5.3123 -2.8463 0.9717
-4.9854 4.7151 -2.9599 0.9705
-5.8178 3.8059 -2.9988 0.9702
-6.1335 3.2729 -2.9989 0.9702
-6.4005 2.7141 -2.9989 0.9702
-6.6167 2.1336 -2.9989 0.9702
-6.8903 0.9267 -2.9989 0.9702
-6.9454 0.3097 -2.9989 0.9702
-6.9454 -0.3097 -2.9989 0.9702
-6.8903 -0.9266 -2.9989 0.9702
-6.7805 -1.5362 -2.9989 0.9702
-6.6168 -2.1337 -2.9989 0.9702
-6.4006 -2.7141 -2.9989 0.9702
-5.8180 -3.8060 -2.9989 0.9702
-5.0509 -4.7771 -2.9989 0.9702
-4.6057 -5.2077 -2.9989 0.9702
-4.1239 -5.5969 -2.9989 0.9702
-0.0774 -6.9513 -2.9987 0.9702
0.5416 -6.9305 -2.9986 0.9702
1.7618 -6.7246 -2.9986 0.9702
2.3533 -6.5410 -2.9986 0.9702
3.4756 -6.0200 -2.9985 0.9702
3.9976 -5.6867 -2.9985 0.9702
5.7307 -3.9339 -2.9984 0.9702
6.0580 -3.4082 -2.9983 0.9702
6.3373 -2.8554 -2.9983 0.9702
6.5663 -2.2801 -2.9983 0.9702
6.7431 -1.6866 -2.9983 0.9702
6.8664 -1.0797 -2.9983 0.9702
6.9353 -0.4643 -2.9983 0.9702
5.9001 3.6746 -2.9983 0.9702
6.6872 7.2301 -4.2482 0.9580
3.5501 5.5612 -2.8460 0.9717
3.0411 5.8552 -2.8460 0.9717
2.5079 6.1026 -2.8460 0.9717
1.9548 6.3017 -2.8461 0.9717
-0.3673 6.5879 -2.8462 0.9717
-1.5296 6.4186 -2.8462 0.9717
-2.0948 6.2570 -2.8462 0.9717
-3.1711 5.7866 -2.8463 0.9717
-3.6736 5.4814 -2.8463 0.9717
-4.1469 5.1327 -2.8464 0.9717
-4.5901 4.7461 -2.8481 0.9716
-5.2586 4.5473 -2.9988 0.9702
-5.6425 4.0612 -2.9988 0.9702
-6.7052 1.8368 -2.9989 0.9702
-6.9247 0.6188 -2.9989 0.9702
-6.6463 0.0000 -2.9989 0.9713
-6.5410 -1.1784 -2.9989 0.9713
-6.4102 -1.7559 -2.9989 0.9713
-5.9972 -2.8646 -2.9989 0.9713
-5.0273 -4.3472 -2.9989 0.9713
-4.1768 -5.1696 -2.9988 0.9713
-3.7001 -5.5209 -2.9988 0.9713
-3.1940 -5.8282 -2.9988 0.9713
-2.1100 -6.3021 -2.9988 0.9713
-0.9591 -6.5763 -2.9987 0.9713
0.8124 -6.5958 -2.9986 0.9713
1.3962 -6.4972 -2.9986 0.9713
1.9689 -6.3471 -2.9986 0.9713
4.0601 -5.2607 -2.9985 0.9713
5.6406 -3.5130 -2.9984 0.9713
6.3682 -1.8979 -2.9983 0.9713
6.6300 0.4438 -2.9983 0.9713
6.4463 1.6123 -2.9983 0.9713
6.2772 2.1797 -2.9983 0.9713
6.0583 2.7298 -2.9983 0.9713
5.7913 3.2582 -2.9983 0.9713
5.1219 4.2334 -2.9983 0.9713
6.6944 6.6202 -4.2482 0.9595
3.1537 5.4624 -2.8460 0.9727
2.1353 5.9351 -2.8460 0.9727
1.5986 6.1016 -2.8461 0.9727
-0.0703 6.3073 -2.8461 0.9727
-0.6314 6.2761 -2.8462 0.9727
-4.8285 4.5668 -2.9988 0.9713
-5.5618 3.6383 -2.9988 0.9713
-5.8636 3.1289 -2.9989 0.9713
-6.1188 2.5946 -2.9989 0.9713
-6.3255 2.0397 -2.9989 0.9713
-6.4820 1.4686 -2.9989 0.9713
-6.5870 0.8859 -2.9989 0.9713
-6.5870 -0.8858 -2.9989 0.9713
-6.4820 -1.4686 -2.9989 0.9713
-6.3256 -2.0397 -2.9989 0.9713
-6.1189 -2.5946 -2.9989 0.9713
-5.8637 -3.1289 -2.9989 0.9713
-3.9423 -5.3506 -2.9988 0.9713
-3.4504 -5.6802 -2.9988 0.9713
-2.9312 -5.9647 -2.9988 0.9713
-2.3886 -6.2019 -2.9988 0.9713
-0.6652 -6.6124 -2.9987 0.9713
-0.0740 -6.6453 -2.9987 0.9713
2.2497 -6.2531 -2.9986 0.9713
3.3227 -5.7550 -2.9985 0.9713
4.7250 -4.6726 -2.9984 0.9713
5.1221 -4.2335 -2.9984 0.9713
5.7914 -3.2582 -2.9984 0.9713
6.4464 -1.6123 -2.9983 0.9713
6.5643 -1.0322 -2.9983 0.9713
6.6301 -0.4438 -2.9983 0.9713
6.6432 0.1481 -2.9983 0.9713
6.1739 2.4572 -2.9983 0.9713
5.6404 3.5129 -2.9983 0.9713
6.3929 6.9119 -4.2482 0.9595
2.9073 5.5974 -2.8460 0.9727
1.8688 6.0243 -2.8461 0.9727
0.7710 6.2603 -2.8461 0.9727
0.2108 6.3042 -2.8461 0.9727
-1.4623 6.1360 -2.8462 0.9727
-3.0315 5.5318 -2.8463 0.9727
-4.5595 4.7145 -2.9593 0.9716
-5.3941 3.8825 -2.9988 0.9713
-6.2283 2.3195 -2.9989 0.9713
-6.5410 1.1784 -2.9989 0.9713
-6.6199 0.5916 -2.9989 0.9713
-6.3620 0.0000 -2.9989 0.9723
-5.9620 -2.2203 -2.9989 0.9723
-5.4739 -3.2422 -2.9989 0.9723
-5.1636 -3.7165 -2.9989 0.9723
-4.8123 -4.1613 -2.9989 0.9723
-3.9981 -4.9486 -2.9988 0.9723
-3.0574 -5.5789 -2.9988 0.9723
-1.4748 -6.1883 -2.9987 0.9723
0.2126 -6.3579 -2.9987 0.9723
0.7776 -6.3137 -2.9986 0.9723
2.9320 -5.6452 -2.9985 0.9723
4.3192 -4.6699 -2.9984 0.9723
5.0787 -3.8300 -2.9984 0.9723
5.3994 -3.3628 -2.9984 0.9723
5.6772 -2.8688 -2.9984 0.9723
6.2333 -1.2670 -2.9983 0.9723
6.3213 -0.7071 -2.9983 0.9723
6.3465 0.4249 -2.9983 0.9723
6.1706 1.5434 -2.9983 0.9723
6.0088 2.0865 -2.9983 0.9723
5.2441 3.5999 -2.9983 0.9723
6.4081 6.3372 -4.2482 0.9609
3.4722 4.9393 -2.8460 0.9737
3.0188 5.2288 -2.8460 0.9737
2.5415 5.4768 -2.8460 0.9737
2.0440 5.6813 -2.8461 0.9737
1.0043 5.9537 -2.8461 0.9737
0.4704 6.0196 -2.8461 0.9737
-0.0673 6.0376 -2.8462 0.9737
-0.6044 6.0077 -2.8462 0.9737
-1.1367 5.9301 -2.8462 0.9737
-1.6600 5.8055 -2.8462 0.9737
-2.6631 5.4193 -2.8463 0.9737
-3.5818 4.8613 -2.8463 0.9737
-4.1678 4.7127 -2.9655 0.9726
-4.6220 4.3714 -2.9988 0.9723
-4.9927 3.9427 -2.9988 0.9723
-5.8571 2.4836 -2.9989 0.9723
-6.0549 1.9525 -2.9989 0.9723
-6.2047 1.4058 -2.9989 0.9723
-6.2048 -1.4058 -2.9989 0.9723
-6.0550 -1.9525 -2.9989 0.9723
-5.8572 -2.4837 -2.9989 0.9723
-5.6129 -2.9951 -2.9989 0.9723
-5.3240 -3.4828 -2.9989 0.9723
-4.6221 -4.3715 -2.9989 0.9723
-3.7737 -5.1217 -2.9988 0.9723
-3.3029 -5.4373 -2.9988 0.9723
-1.7490 -6.1165 -2.9987 0.9723
-1.1976 -6.2478 -2.9987 0.9723
1.0581 -6.2728 -2.9986 0.9723
1.6122 -6.1537 -2.9986 0.9723
2.1535 -5.9857 -2.9986 0.9723
2.6777 -5.7702 -2.9985 0.9723
3.1806 -5.5089 -2.9985 0.9723
3.6583 -5.2039 -2.9985 0.9723
4.1069 -4.8576 -2.9985 0.9723
4.9030 -4.0524 -2.9984 0.9723
5.5438 -3.1189 -2.9984 0.9723
5.7993 -2.6130 -2.9984 0.9723
6.0089 -2.0865 -2.9983 0.9723
6.2836 -0.9880 -2.9983 0.9723
6.3465 -0.4248 -2.9983 0.9723
5.9099 2.3521 -2.9983 0.9723
6.6841 6.0454 -4.2482 0.9609
6.1195 6.6163 -4.2483 0.9609
5.5063 7.1348 -4.2483 0.9609
2.7829 5.3581 -2.8460 0.9737
2.2950 5.5846 -2.8460 0.9737
1.7889 5.7667 -2.8461 0.9737
1.2685 5.9031 -2.8461 0.9737
0.2018 6.0346 -2.8461 0.9737
-0.3362 6.0286 -2.8462 0.9737
-1.9170 5.7257 -2.8462 0.9737
-2.4190 5.5325 -2.8463 0.9737
-3.3617 5.0160 -2.8463 0.9737
-3.8218 4.7304 -2.8666 0.9735
-4.4226 4.5730 -2.9988 0.9723
-4.8121 4.1612 -2.9988 0.9723
-5.4738 3.2421 -2.9988 0.9723
-6.1359 1.6808 -2.9989 0.9723
-6.3368 0.5663 -2.9989 0.9723
-6.0971 0.0000 -2.9989 0.9732
-6.0005 -1.0810 -2.9989 0.9732
-5.8805 -1.6109 -2.9989 0.9732
-5.7138 -2.1279 -2.9989 0.9732
-5.5017 -2.6279 -2.9989 0.9732
-4.9486 -3.5617 -2.9989 0.9732
-4.6119 -3.9880 -2.9989 0.9732
-4.2386 -4.3827 -2.9988 0.9732
-3.8317 -4.7425 -2.9988 0.9732
-2.9301 -5.3467 -2.9988 0.9732
-2.4425 -5.5862 -2.9988 0.9732
-1.9356 -5.7814 -2.9987 0.9732
-0.8799 -6.0329 -2.9987 0.9732
-0.3394 -6.0872 -2.9987 0.9732
0.2037 -6.0932 -2.9987 0.9732
1.2808 -5.9604 -2.9986 0.9732
1.8062 -5.8227 -2.9986 0.9732
2.8100 -5.4102 -2.9985 0.9732
3.2803 -5.1385 -2.9985 0.9732
5.6639 -2.2542 -2.9984 0.9732
5.8421 -1.7411 -2.9983 0.9732
5.9738 -1.2142 -2.9983 0.9732
6.0582 -0.6777 -2.9983 0.9732
6.0944 -0.1358 -2.9983 0.9732
6.0823 0.4072 -2.9983 0.9732
5.7586 1.9996 -2.9983 0.9732
5.5578 2.5043 -2.9983 0.9732
5.0258 3.4500 -2.9983 0.9732
6.1414 6.0734 -4.2483 0.9622
5.5765 6.5959 -4.2483 0.9622
4.9673 7.0660 -4.2483 0.9622
1.4665 5.5975 -2.8461 0.9745
0.4508 5.7690 -2.8461 0.9745
-0.0645 5.7862 -2.8462 0.9745
-0.5792 5.7576 -2.8462 0.9745
-2.5522 5.1936 -2.8463 0.9745
-3.0044 4.9459 -2.8463 0.9745
-4.0390 4.5670 -2.9988 0.9732
-4.4295 4.1895 -2.9988 0.9732
-4.7849 3.7786 -2.9988 0.9732
-5.1022 3.3377 -2.9988 0.9732
-5.3791 2.8704 -2.9988 0.9732
-5.6132 2.3802 -2.9988 0.9732
-5.8028 1.8712 -2.9989 0.9732
-6.0427 0.8127 -2.9989 0.9732
-6.0911 -0.2716 -2.9989 0.9732
-6.0427 -0.8126 -2.9989 0.9732
-5.9464 -1.3473 -2.9989 0.9732
-5.8029 -1.8712 -2.9989 0.9732
-4.4296 -4.1895 -2.9989 0.9732
-3.6166 -4.9085 -2.9988 0.9732
-2.1913 -5.6894 -2.9988 0.9732
-1.6762 -5.8619 -2.9987 0.9732
-1.1478 -5.9877 -2.9987 0.9732
-0.6103 -6.0661 -2.9987 0.9732
1.0140 -6.0116 -2.9986 0.9732
1.5451 -5.8975 -2.9986 0.9732
2.0638 -5.7365 -2.9986 0.9732
2.5662 -5.5300 -2.9985 0.9732
3.0482 -5.2796 -2.9985 0.9732
5.3130 -2.9890 -2.9984 0.9732
5.9138 -1.4791 -2.9983 0.9732
6.0823 -0.4071 -2.9983 0.9732
6.0581 0.6777 -2.9983 0.9732
5.8420 1.7411 -2.9983 0.9732
5.6639 2.2542 -2.9983 0.9732
5.1745 3.2227 -2.9983 0.9732
4.5211 4.0891 -2.9984 0.9732
5.8647 6.3409 -4.2483 0.9622
2.6671 5.1350 -2.8460 0.9745
2.1995 5.3521 -2.8461 0.9745
-1.3415 5.6291 -2.8462 0.9745
-1.8372 5.4874 -2.8462 0.9745
-3.8051 4.7097 -2.9781 0.9734
-4.2385 4.3826 -2.9988 0.9732
-4.9484 3.5617 -2.9988 0.9732
-5.2458 3.1071 -2.9988 0.9732
-5.5016 2.6279 -2.9988 0.9732
-5.8804 1.6108 -2.9989 0.9732
-6.0005 1.0811 -2.9989 0.9732
-6.0729 0.5427 -2.9989 0.9732
-5.8263 -0.5206 -2.9989 0.9740
-5.4818 -2.0414 -2.9989 0.9740
-5.2783 -2.5212 -2.9989 0.9740
-4.4246 -3.8261 -2.9988 0.9740
-4.0665 -4.2047 -2.9988 0.9740
-2.8111 -5.1296 -2.9988 0.9740
-2.3434 -5.3594 -2.9988 0.9740
-1.3560 -5.6898 -2.9987 0.9741
-0.8442 -5.7879 -2.9987 0.9741
0.1954 -5.8458 -2.9986 0.9741
1.7329 -5.5863 -2.9986 0.9741
2.2232 -5.4099 -2.9985 0.9741
3.1471 -4.9299 -2.9985 0.9741
3.9713 -4.2937 -2.9985 0.9741
5.6049 -1.6704 -2.9984 0.9741
5.7313 -1.1649 -2.9983 0.9741
5.8122 -0.6502 -2.9983 0.9741
5.8470 -0.1303 -2.9983 0.9741
5.5248 1.9184 -2.9983 0.9741
5.0972 2.8676 -2.9983 0.9741
4.8217 3.3100 -2.9983 0.9741
1.4070 5.3703 -2.8461 0.9754
0.9234 5.4742 -2.8461 0.9754
-0.0618 5.5513 -2.8462 0.9754
-0.5557 5.5238 -2.8462 0.9754
-2.4486 4.9828 -2.8463 0.9754
-4.2497 4.0193 -2.9988 0.9740
-4.8950 3.2022 -2.9988 0.9740
-5.3853 2.2836 -2.9988 0.9740
-5.5672 1.7952 -2.9989 0.9740
-5.7049 1.2926 -2.9989 0.9740
-5.8437 -0.2605 -2.9989 0.9740
-5.7974 -0.7797 -2.9989 0.9740
-5.1607 -2.7538 -2.9989 0.9740
-4.5907 -3.6252 -2.9989 0.9740
-4.2498 -4.0194 -2.9988 0.9740
-3.4697 -4.7092 -2.9988 0.9740
-3.0368 -4.9993 -2.9988 0.9740
-2.5798 -5.2497 -2.9988 0.9740
-2.1023 -5.4584 -2.9988 0.9740
-1.6081 -5.6238 -2.9987 0.9741
-0.5855 -5.8197 -2.9987 0.9741
-0.0652 -5.8487 -2.9987 0.9741
0.4557 -5.8313 -2.9986 0.9741
1.4823 -5.6580 -2.9986 0.9741
2.4620 -5.3054 -2.9985 0.9741
2.9244 -5.0652 -2.9985 0.9741
3.3636 -4.7848 -2.9985 0.9741
3.7761 -4.4664 -2.9985 0.9741
4.1586 -4.1125 -2.9984 0.9741
4.5081 -3.7260 -2.9984 0.9741
4.8218 -3.3100 -2.9984 0.9741
5.0973 -2.8677 -2.9984 0.9741
5.5249 -1.9185 -2.9984 0.9741
5.6737 -1.4191 -2.9983 0.9741
5.7775 -0.9085 -2.9983 0.9741
5.8470 0.1303 -2.9983 0.9741
5.8122 0.6502 -2.9983 0.9741
5.6048 1.6704 -2.9983 0.9741
4.9644 3.0919 -2.9983 0.9741
4.6695 3.5215 -2.9984 0.9741
4.3376 3.9231 -2.9984 0.9741
5.6266 6.0834 -4.2483 0.9634
2.5588 4.9265 -2.8460 0.9754
2.1102 5.1348 -2.8461 0.9754
1.6448 5.3022 -2.8461 0.9754
-0.3091 5.5431 -2.8462 0.9754
-1.7626 5.2646 -2.8462 0.9754
-5.2782 2.5212 -2.9988 0.9740
-5.4817 2.0414 -2.9988 0.9740
-5.7568 1.0371 -2.9989 0.9740
-5.8263 0.5206 -2.9989 0.9740
-5.6175 0.0000 -2.9989 0.9749
-5.5952 -0.5000 -2.9989 0.9749
-5.5285 -0.9960 -2.9989 0.9749
-5.4179 -1.4841 -2.9989 0.9749
-5.2643 -1.9604 -2.9989 0.9749
-5.0689 -2.4212 -2.9989 0.9749
-4.5593 -3.2816 -2.9989 0.9749
-4.2491 -3.6744 -2.9988 0.9749
-3.9052 -4.0379 -2.9988 0.9749
-3.1273 -4.6663 -2.9988 0.9749
-2.6996 -4.9261 -2.9988 0.9749
-1.7834 -5.3266 -2.9987 0.9749
-1.3022 -5.4642 -2.9987 0.9749
-0.8107 -5.5584 -2.9987 0.9749
-0.3127 -5.6084 -2.9987 0.9749
1.1801 -5.4916 -2.9986 0.9749
3.0223 -4.7344 -2.9985 0.9749
3.8138 -4.1234 -2.9985 0.9749
4.4844 -3.3819 -2.9984 0.9749
4.7676 -2.9693 -2.9984 0.9749
5.0129 -2.5331 -2.9984 0.9749
5.3826 -1.6042 -2.9984 0.9749
5.5817 -0.6244 -2.9983 0.9749
5.6151 -0.1251 -2.9983 0.9749
5.6040 0.3751 -2.9983 0.9749
5.5483 0.8725 -2.9983 0.9749
3.9936 3.9494 -2.9984 0.9749
4.5766 6.5104 -4.2483 0.9646
1.8048 5.0165 -2.8461 0.9761
-0.0594 5.3311 -2.8462 0.9761
-0.5337 5.3047 -2.8462 0.9761
-1.0037 5.2362 -2.8462 0.9761
-1.4658 5.1261 -2.8462 0.9761
-1.9162 4.9754 -2.8462 0.9761
-3.5101 7.1428 -4.2487 0.9646
-3.7213 4.2078 -2.9987 0.9749
-4.4085 3.4813 -2.9988 0.9749
-5.1717 2.1930 -2.9988 0.9749
-5.4786 1.2413 -2.9989 0.9749
-5.5674 0.7487 -2.9989 0.9749
-5.6119 -0.2503 -2.9989 0.9749
-5.5674 -0.7487 -2.9989 0.9749
-5.3464 -1.7240 -2.9989 0.9749
-4.9560 -2.6446 -2.9989 0.9749
-4.7010 -3.0752 -2.9989 0.9749
-4.4086 -3.4814 -2.9988 0.9749
-4.0812 -3.8600 -2.9988 0.9749
-3.3321 -4.5224 -2.9988 0.9749
-2.9164 -4.8010 -2.9988 0.9749
-1.5443 -5.4008 -2.9987 0.9749
1.4235 -5.4336 -2.9986 0.9749
2.3643 -5.0950 -2.9985 0.9749
3.6263 -4.2892 -2.9985 0.9749
3.9937 -3.9494 -2.9985 0.9749
4.3293 -3.5783 -2.9984 0.9749
4.8951 -2.7540 -2.9984 0.9749
5.1208 -2.3073 -2.9984 0.9749
5.3058 -1.8423 -2.9984 0.9749
5.4487 -1.3628 -2.9984 0.9749
5.6151 0.1252 -2.9983 0.9749
5.5817 0.6244 -2.9983 0.9749
5.5040 1.1187 -2.9983 0.9749
5.2184 2.0769 -2.9983 0.9749
5.0129 2.5331 -2.9983 0.9749
4.4843 3.3818 -2.9984 0.9749
4.1655 3.7676 -2.9984 0.9749
3.8137 4.1233 -2.9984 0.9749
4.2821 6.7077 -4.2483 0.9646
2.0265 4.9312 -2.8461 0.9761
1.5795 5.0920 -2.8461 0.9761
1.1201 5.2123 -2.8461 0.9761
0.6517 5.2914 -2.8461 0.9761
-0.2968 5.3232 -2.8462 0.9761
-1.6927 5.0558 -2.8462 0.9761
-3.1884 7.2921 -4.2487 0.9646
-3.1273 4.6662 -2.9987 0.9749
-3.9051 4.0379 -2.9988 0.9749
-4.8332 2.8627 -2.9988 0.9749
-5.0689 2.4212 -2.9988 0.9749
-5.2643 1.9604 -2.9988 0.9749
-5.4179 1.4841 -2.9988 0.9749
-5.5285 0.9960 -2.9989 0.9749
-5.5952 0.5000 -2.9989 0.9749
-5.3995 0.0000 -2.9989 0.9756
-5.2077 -1.4265 -2.9989 0.9756
-4.8722 -2.3272 -2.9989 0.9756
-4.3824 -3.1542 -2.9988 0.9756
-4.0842 -3.5317 -2.9988 0.9756
-3.7536 -3.8812 -2.9988 0.9756
-3.3933 -4.1999 -2.9988 0.9756
-3.0060 -4.4852 -2.9988 0.9756
-2.5948 -4.7349 -2.9988 0.9756
-2.1631 -4.9471 -2.9988 0.9756
-1.2517 -5.2521 -2.9987 0.9756
-0.7792 -5.3427 -2.9987 0.9756
1.5996 -5.1566 -2.9986 0.9756
2.4885 -4.7912 -2.9985 0.9756
2.9050 -4.5506 -2.9985 0.9756
3.6658 -3.9634 -2.9985 0.9756
4.0040 -3.6214 -2.9984 0.9756
4.8184 -2.4348 -2.9984 0.9756
