ply
format ascii 1.0
element vertex 1585
property float32 x
property float32 y
property float32 z
property float32 I
end_header
4.9786 13.8383 -2.8460 0.9418
3.7273 14.2269 -2.8461 0.9418
2.4463 14.5025 -2.8461 0.9418
1.1458 14.6629 -2.8462 0.9418
-1.4722 14.6344 -2.8463 0.9418
-2.7690 14.4456 -2.8464 0.9418
-4.0438 14.1421 -2.8464 0.9418
-6.4874 13.2016 -2.8465 0.9418
-10.6875 10.1082 -2.8467 0.9418
-11.5449 9.1169 -2.8468 0.9418
-12.3107 8.0533 -2.8468 0.9418
-12.9788 6.9257 -2.8468 0.9418
-6.1054 -5.7744 -1.6262 0.9663
-4.8980 -6.6477 -1.5979 0.9669
13.6622 5.4374 -2.8456 0.9419
12.4819 7.7738 -2.8456 0.9418
10.9061 9.8640 -2.8457 0.9418
9.9851 10.7957 -2.8458 0.9418
4.3573 14.0465 -2.8460 0.9418
3.0898 14.3789 -2.8461 0.9418
1.7978 14.5972 -2.8462 0.9418
0.4915 14.6996 -2.8462 0.9418
-0.8188 14.6853 -2.8463 0.9418
-3.4098 14.3081 -2.8464 0.9418
-4.6698 13.9481 -2.8465 0.9418
-5.8929 13.4773 -2.8465 0.9418
-7.0692 12.8996 -2.8466 0.9418
-8.1894 12.2195 -2.8466 0.9418
-9.2446 11.4423 -2.8467 0.9418
-11.1272 9.6221 -2.8468 0.9418
-12.6573 7.4969 -2.8468 0.9418
-13.2744 6.3407 -2.8469 0.9418
-13.7862 5.1341 -2.8469 0.9418
-14.1702 -1.2662 -2.9993 0.9435
-13.7211 -3.7586 -2.9992 0.9435
-13.3320 -4.9649 -2.9992 0.9435
-12.2402 -7.2499 -2.9992 0.9435
-11.5462 -8.3105 -2.9991 0.9435
-10.7606 -9.3050 -2.9991 0.9435
-5.2336 -6.4777 -1.7556 0.9665
-7.9195 -11.8167 -2.9989 0.9435
-6.8362 -12.4745 -2.9989 0.9435
-5.6987 -13.0332 -2.9988 0.9435
-2.0528 -14.0749 -2.9987 0.9435
-0.7919 -14.2015 -2.9986 0.9435
0.4753 -14.2153 -2.9985 0.9435
1.7390 -14.1162 -2.9985 0.9435
2.9882 -13.9052 -2.9984 0.9435
5.4060 -13.1546 -2.9983 0.9435
6.5552 -12.6211 -2.9983 0.9435
7.6524 -11.9873 -2.9982 0.9435
8.6889 -11.2584 -2.9982 0.9435
10.5471 -9.5393 -2.9981 0.9435
11.3541 -8.5626 -2.9980 0.9435
12.0710 -7.5179 -2.9980 0.9435
12.6922 -6.4136 -2.9980 0.9435
13.2125 -5.2585 -2.9980 0.9435
13.9354 -2.8325 -2.9979 0.9435
14.0478 2.2089 -2.9979 0.9435
11.7641 6.6184 -2.8457 0.9463
11.1285 7.6393 -2.8457 0.9463
10.4045 8.5996 -2.8457 0.9463
7.7633 11.0434 -2.8459 0.9463
6.7496 11.6907 -2.8459 0.9463
3.2932 7.0967 -1.6494 0.9685
3.4214 13.0593 -2.8461 0.9463
1.0517 13.4596 -2.8462 0.9463
-1.3514 13.4333 -2.8463 0.9463
-2.5417 13.2600 -2.8464 0.9463
-3.7119 12.9814 -2.8464 0.9463
-4.8527 12.5997 -2.8465 0.9463
-7.0100 11.5401 -2.8466 0.9463
-8.9453 10.1147 -2.8467 0.9463
-14.2126 0.6338 -2.9993 0.9435
-14.2126 -0.6337 -2.9993 0.9435
-14.0998 -1.8962 -2.9993 0.9435
-13.8749 -3.1436 -2.9993 0.9435
-13.0976 -5.5538 -2.9992 0.9435
-11.9051 -7.7879 -2.9991 0.9435
-10.3353 -9.7751 -2.9991 0.9435
-3.9106 -13.6761 -2.9988 0.9435
-2.6778 -13.9696 -2.9987 0.9435
-1.4237 -14.1522 -2.9986 0.9435
3.6044 -13.7582 -2.9984 0.9435
4.8147 -13.3825 -2.9983 0.9435
5.9865 -12.9006 -2.9983 0.9435
10.1117 -9.9996 -2.9981 0.9435
13.4336 -4.6646 -2.9980 0.9435
14.0477 -2.2089 -2.9979 0.9435
14.1886 -0.9498 -2.9979 0.9435
14.2168 0.3169 -2.9979 0.9435
14.1322 1.5809 -2.9979 0.9435
13.9355 2.8325 -2.9980 0.9435
12.5412 4.9913 -2.8456 0.9463
7.2637 11.3784 -2.8459 0.9463
5.1313 12.4864 -2.8460 0.9463
3.9997 12.8938 -2.8460 0.9463
2.8363 13.1989 -2.8461 0.9463
1.6503 13.3992 -2.8462 0.9463
0.4511 13.4932 -2.8462 0.9463
-0.7516 13.4801 -2.8463 0.9463
-5.4092 12.3712 -2.8465 0.9463
-6.4889 11.8408 -2.8465 0.9463
-7.5172 11.2165 -2.8466 0.9463
-9.3871 9.7062 -2.8467 0.9463
-10.2139 8.8323 -2.8467 0.9463
-10.9596 7.8882 -2.8467 0.9463
-11.6183 6.8816 -2.8468 0.9463
-14.1703 1.2663 -2.9993 0.9435
-13.1405 0.0000 -2.9992 0.9475
-13.0883 -1.1696 -2.9992 0.9475
-12.9322 -2.3298 -2.9992 0.9475
-12.6735 -3.4716 -2.9992 0.9475
-11.8570 -5.6636 -2.9992 0.9475
-10.6647 -7.6760 -2.9991 0.9475
-9.9390 -8.5946 -2.9991 0.9475
-9.1345 -9.4450 -2.9990 0.9475
-8.2575 -10.2204 -2.9990 0.9475
-6.3143 -11.5221 -2.9989 0.9475
-3.0457 -12.7803 -2.9987 0.9475
-0.7314 -13.1174 -2.9986 0.9475
0.4390 -13.1301 -2.9985 0.9475
6.0549 -11.6577 -2.9983 0.9475
7.0683 -11.0723 -2.9982 0.9475
8.0257 -10.3991 -2.9982 0.9475
8.9193 -9.6434 -2.9982 0.9475
10.4875 -7.9090 -2.9981 0.9475
11.1497 -6.9441 -2.9981 0.9475
11.7235 -5.9241 -2.9980 0.9475
12.5879 -3.7516 -2.9980 0.9475
12.8718 -2.6163 -2.9980 0.9475
13.0536 -1.4602 -2.9980 0.9475
12.7426 3.1872 -2.9980 0.9475
11.3671 5.1218 -2.8457 0.9501
10.8663 6.1133 -2.8457 0.9501
10.2791 7.0562 -2.8457 0.9501
9.6104 7.9432 -2.8458 0.9501
8.0500 9.5216 -2.8458 0.9501
7.1707 10.2005 -2.8459 0.9501
3.2930 7.0962 -1.7856 0.9684
3.1602 12.0625 -2.8461 0.9501
2.0741 12.2961 -2.8461 0.9501
-0.1389 12.4695 -2.8462 0.9501
-1.2482 12.4078 -2.8463 0.9501
-2.3477 12.2477 -2.8463 0.9501
-3.4285 11.9904 -2.8464 0.9501
-4.4822 11.6378 -2.8464 0.9501
-6.4748 10.6591 -2.8465 0.9501
-7.3980 10.0406 -2.8466 0.9501
-8.2624 9.3424 -2.8466 0.9501
-9.0612 8.5701 -2.8467 0.9501
-11.4828 4.8692 -2.8468 0.9501
-12.5063 4.0328 -2.9992 0.9475
-13.1274 0.5854 -2.9992 0.9475
-12.8156 -2.9036 -2.9992 0.9475
-12.0975 -5.1298 -2.9992 0.9475
-11.5928 -6.1861 -2.9991 0.9475
-8.7046 -9.8425 -2.9990 0.9475
-5.7947 -11.7919 -2.9988 0.9475
-4.7221 -12.2606 -2.9988 0.9475
-3.6120 -12.6321 -2.9987 0.9475
-1.3150 -13.0719 -2.9986 0.9475
-0.1462 -13.1367 -2.9986 0.9475
3.3294 -12.7080 -2.9984 0.9475
4.4471 -12.3610 -2.9984 0.9475
5.5296 -11.9160 -2.9983 0.9475
6.5681 -11.3763 -2.9983 0.9475
8.4809 -10.0312 -2.9982 0.9475
10.1248 -8.3684 -2.9981 0.9475
12.9756 -2.0403 -2.9980 0.9475
13.1057 -0.8773 -2.9980 0.9475
13.0536 1.4603 -2.9980 0.9475
11.1277 5.6231 -2.8457 0.9501
10.5832 6.5913 -2.8457 0.9501
9.9547 7.5072 -2.8458 0.9501
7.6179 9.8708 -2.8459 0.9501
6.7092 10.5098 -2.8459 0.9501
5.7473 11.0655 -2.8460 0.9501
4.7397 11.5333 -2.8460 0.9501
2.6198 12.1914 -2.8461 0.9501
1.5243 12.3764 -2.8462 0.9501
0.4167 12.4632 -2.8462 0.9501
-1.7997 12.3400 -2.8463 0.9501
-2.8910 12.1311 -2.8464 0.9501
-4.9962 11.4267 -2.8465 0.9501
-6.9433 10.3601 -2.8466 0.9501
-9.4340 8.1579 -2.8467 0.9501
-10.7312 6.3561 -2.8467 0.9501
-11.2544 5.3758 -2.8468 0.9501
-12.3142 4.5859 -2.9992 0.9475
-12.6735 3.4717 -2.9992 0.9475
-13.0883 1.1696 -2.9992 0.9475
-12.1533 -1.0860 -2.9992 0.9510
-12.0083 -2.1634 -2.9992 0.9510
-11.4344 -4.2582 -2.9991 0.9510
-11.0099 -5.2590 -2.9991 0.9510
-9.2290 -7.9806 -2.9990 0.9510
-8.4820 -8.7703 -2.9990 0.9510
-6.7924 -10.1349 -2.9989 0.9510
-3.8733 -11.5688 -2.9988 0.9510
-2.8282 -11.8674 -2.9987 0.9510
-1.7606 -12.0719 -2.9987 0.9510
-0.6792 -12.1804 -2.9986 0.9510
1.4912 -12.1074 -2.9985 0.9510
2.5628 -11.9265 -2.9985 0.9510
6.5635 -10.2816 -2.9983 0.9510
7.4525 -9.6565 -2.9982 0.9510
8.2823 -8.9547 -2.9982 0.9510
9.0463 -8.1819 -2.9982 0.9510
9.7386 -7.3442 -2.9981 0.9510
10.3535 -6.4482 -2.9981 0.9510
11.6890 -3.4837 -2.9980 0.9510
11.9526 -2.4295 -2.9980 0.9510
12.1940 -0.2717 -2.9980 0.9510
12.1698 0.8147 -2.9980 0.9510
12.0490 1.8946 -2.9980 0.9510
11.5223 4.0010 -2.9981 0.9510
10.0903 5.6767 -2.8457 0.9534
9.5450 6.5523 -2.8458 0.9534
6.6586 9.4720 -2.8459 0.9534
5.7892 10.0271 -2.8460 0.9534
0.9021 11.5441 -2.8462 0.9534
-0.1290 11.5788 -2.8462 0.9534
-1.1591 11.5216 -2.8463 0.9534
-3.1836 11.1339 -2.8464 0.9534
-4.1620 10.8065 -2.8464 0.9534
-5.1074 10.3933 -2.8465 0.9534
-6.8695 9.3234 -2.8466 0.9534
-7.6721 8.6750 -2.8466 0.9534
-9.0889 7.1774 -2.8467 0.9534
-9.6918 6.3401 -2.8467 0.9534
-11.1146 4.7130 -2.9674 0.9515
-12.1896 0.5436 -2.9992 0.9510
-11.9000 -2.6962 -2.9992 0.9510
-8.8643 -8.3838 -2.9990 0.9510
-8.0828 -9.1394 -2.9990 0.9510
-6.3341 -10.4274 -2.9989 0.9510
-5.3808 -10.9496 -2.9988 0.9510
-2.2967 -11.9815 -2.9987 0.9510
3.0916 -11.8004 -2.9984 0.9510
5.1347 -11.0649 -2.9983 0.9510
7.0150 -9.9789 -2.9982 0.9510
7.8752 -9.3148 -2.9982 0.9510
10.6304 -5.9806 -2.9981 0.9510
11.1205 -5.0106 -2.9981 0.9510
11.5222 -4.0009 -2.9980 0.9510
11.8326 -2.9595 -2.9980 0.9510
12.0490 -1.8946 -2.9980 0.9510
12.1940 0.2718 -2.9980 0.9510
12.1214 1.3560 -2.9980 0.9510
9.8274 6.1206 -2.8458 0.9534
8.5867 7.7662 -2.8458 0.9534
7.0739 9.1659 -2.8459 0.9534
5.3368 10.2752 -2.8460 0.9534
3.4305 11.0589 -2.8461 0.9534
1.4154 11.4924 -2.8462 0.9534
0.3869 11.5729 -2.8462 0.9534
-2.6845 11.2646 -2.8464 0.9534
-5.5654 10.1556 -2.8465 0.9534
-8.0510 8.3247 -2.8466 0.9534
-8.7601 7.5752 -2.8466 0.9534
-10.4505 4.9918 -2.8467 0.9534
-12.0084 2.1635 -2.9992 0.9510
-11.3820 0.0000 -2.9991 0.9540
-11.2016 -2.0180 -2.9991 0.9540
-10.6662 -3.9721 -2.9991 0.9540
-10.2702 -4.9056 -2.9991 0.9540
-9.7927 -5.8003 -2.9991 0.9540
-7.9122 -8.1811 -2.9990 0.9540
-7.1525 -8.8528 -2.9989 0.9540
-5.4694 -9.9804 -2.9988 0.9540
-4.5593 -10.4274 -2.9988 0.9540
-3.6131 -10.7917 -2.9987 0.9540
-1.6424 -11.2609 -2.9987 0.9540
6.1227 -9.5910 -2.9983 0.9540
8.4387 -7.6324 -2.9982 0.9540
9.6581 -6.0151 -2.9981 0.9540
10.5715 -4.2073 -2.9981 0.9540
10.9039 -3.2497 -2.9981 0.9540
11.1499 -2.2663 -2.9981 0.9540
11.3750 -0.2535 -2.9981 0.9540
11.2398 1.7674 -2.9981 0.9540
10.7484 3.7323 -2.9981 0.9540
9.4126 5.2955 -2.8458 0.9563
7.6793 7.5942 -2.8459 0.9563
6.9730 8.2477 -2.8459 0.9563
6.2113 8.8357 -2.8459 0.9563
5.4003 9.3537 -2.8460 0.9563
3.2926 7.0953 -2.0611 0.9682
3.6564 10.1632 -2.8461 0.9563
1.7966 10.6509 -2.8461 0.9563
0.8415 10.7687 -2.8462 0.9563
-0.1203 10.8010 -2.8462 0.9563
-1.0812 10.7476 -2.8463 0.9563
-4.7643 9.6951 -2.8465 0.9563
-6.4080 8.6970 -2.8465 0.9563
-7.8486 7.4232 -2.8466 0.9563
-9.0406 5.9141 -2.8466 0.9563
-9.5312 5.0860 -2.8467 0.9563
-11.1006 2.5151 -2.9991 0.9540
-11.1005 -2.5150 -2.9991 0.9540
-10.8326 -3.4930 -2.9991 0.9540
-10.4786 -4.4433 -2.9991 0.9540
-10.0415 -5.3582 -2.9991 0.9540
-8.9321 -7.0536 -2.9990 0.9540
-8.2688 -7.8206 -2.9990 0.9540
-5.0193 -10.2140 -2.9988 0.9540
-2.1424 -11.1767 -2.9987 0.9540
-0.1268 -11.3791 -2.9986 0.9540
1.8927 -11.2209 -2.9985 0.9540
2.8839 -11.0078 -2.9984 0.9540
4.7898 -10.3217 -2.9983 0.9540
5.6894 -9.8543 -2.9983 0.9540
7.3463 -8.6892 -2.9982 0.9540
8.7703 -7.2489 -2.9982 0.9540
9.3806 -6.4394 -2.9981 0.9540
9.9164 -5.5789 -2.9981 0.9540
10.3736 -4.6741 -2.9981 0.9540
10.7484 -3.7322 -2.9981 0.9540
11.0379 -2.7607 -2.9981 0.9540
11.3524 -0.7599 -2.9981 0.9540
11.3750 0.2535 -2.9981 0.9540
11.3073 1.2649 -2.9981 0.9540
10.9040 3.2498 -2.9981 0.9540
9.6391 4.8709 -2.8458 0.9563
8.6229 6.5028 -2.8458 0.9563
8.0100 7.2446 -2.8458 0.9563
6.5987 8.5502 -2.8459 0.9563
3.2001 10.3161 -2.8461 0.9563
0.3609 10.7956 -2.8462 0.9563
-0.6014 10.7850 -2.8463 0.9563
-4.3277 9.8977 -2.8464 0.9563
-9.2951 5.5055 -2.8467 0.9563
-9.8946 4.7262 -2.8894 0.9557
-10.6662 3.9722 -2.9991 0.9540
-10.9775 3.0071 -2.9991 0.9540
-11.2016 2.0181 -2.9991 0.9540
-11.3368 1.0131 -2.9991 0.9540
-10.6595 0.0000 -2.9991 0.9567
-10.6172 -0.9487 -2.9991 0.9567
-10.4905 -1.8899 -2.9991 0.9567
-9.6183 -4.5943 -2.9990 0.9567
-9.1712 -5.4321 -2.9990 0.9567
-7.4100 -7.6618 -2.9989 0.9567
-6.6985 -8.2908 -2.9989 0.9567
-5.1223 -9.3469 -2.9988 0.9567
-4.2699 -9.7656 -2.9988 0.9567
0.3561 -10.6515 -2.9986 0.9567
1.3027 -10.5774 -2.9985 0.9567
2.2390 -10.4194 -2.9985 0.9567
3.1574 -10.1786 -2.9984 0.9567
4.0508 -9.8570 -2.9984 0.9567
6.5108 -8.4362 -2.9983 0.9567
7.9032 -7.1480 -2.9982 0.9567
8.5080 -6.4162 -2.9982 0.9567
9.5107 -4.8059 -2.9981 0.9567
9.9007 -3.9403 -2.9981 0.9567
10.2120 -3.0435 -2.9981 0.9567
10.6321 0.7118 -2.9981 0.9567
8.3389 5.7244 -2.8458 0.9588
7.7964 6.4439 -2.8459 0.9588
7.1920 7.1124 -2.8459 0.9588
6.5305 7.7244 -2.8459 0.9588
5.8172 8.2751 -2.8460 0.9588
3.4244 9.5183 -2.8461 0.9588
1.6826 9.9750 -2.8462 0.9588
0.7881 10.0852 -2.8462 0.9588
-0.1127 10.1155 -2.8462 0.9588
-1.0126 10.0655 -2.8463 0.9588
-1.9045 9.9356 -2.8463 0.9588
-2.7813 9.7268 -2.8464 0.9588
-4.4619 9.0798 -2.8464 0.9588
-6.7025 7.5786 -2.8465 0.9588
-7.9401 6.2703 -2.8466 0.9588
-8.4668 5.5387 -2.8466 0.9588
-9.8135 4.1613 -2.9991 0.9567
-10.1450 3.2713 -2.9991 0.9567
-10.3960 2.3554 -2.9991 0.9567
-10.6489 0.4749 -2.9991 0.9567
-10.6489 -0.4748 -2.9991 0.9567
-10.5643 -1.4207 -2.9991 0.9567
-10.1450 -3.2713 -2.9991 0.9567
-9.8135 -4.1613 -2.9991 0.9567
-8.9200 -5.8352 -2.9990 0.9567
-7.7440 -7.3242 -2.9990 0.9567
-5.5336 -9.1095 -2.9988 0.9567
-2.0064 -10.4673 -2.9987 0.9567
-1.0668 -10.6042 -2.9986 0.9567
3.6077 -10.0278 -2.9984 0.9567
4.4858 -9.6667 -2.9984 0.9567
8.7854 -6.0308 -2.9982 0.9567
9.2872 -5.2249 -2.9981 0.9567
9.7153 -4.3775 -2.9981 0.9567
10.0663 -3.4954 -2.9981 0.9567
10.5265 -1.6552 -2.9981 0.9567
10.6321 -0.7117 -2.9981 0.9567
10.6532 0.2374 -2.9981 0.9567
10.5898 1.1847 -2.9981 0.9567
10.4424 2.1225 -2.9981 0.9567
8.0757 6.0902 -2.8458 0.9588
7.5017 6.7849 -2.8459 0.9588
5.4428 8.5260 -2.8460 0.9588
4.6624 8.9768 -2.8460 0.9588
3.8450 9.3562 -2.8460 0.9588
2.9970 9.6614 -2.8461 0.9588
2.1252 9.8900 -2.8461 0.9588
-0.5632 10.1005 -2.8463 0.9588
-2.3452 9.8409 -2.8463 0.9588
-4.0530 9.2695 -2.8464 0.9588
-4.8620 8.8721 -2.8465 0.9588
-5.6324 8.4042 -2.8465 0.9588
-7.0334 7.2725 -2.8466 0.9588
-7.6529 6.6177 -2.8466 0.9588
-8.2116 5.9104 -2.8466 0.9588
-9.6184 4.5944 -2.9991 0.9567
-9.9892 3.7201 -2.9991 0.9567
-10.4906 1.8900 -2.9991 0.9567
-10.6172 0.9488 -2.9991 0.9567
-10.0176 0.0000 -2.9991 0.9590
-9.9779 -0.8916 -2.9991 0.9590
-9.6616 -2.6466 -2.9991 0.9590
-9.0392 -4.3176 -2.9990 0.9590
-8.6189 -5.1050 -2.9990 0.9590
-4.0129 -9.1777 -2.9988 0.9590
-3.1800 -9.4982 -2.9987 0.9590
-1.4455 -9.9113 -2.9986 0.9590
-0.5576 -10.0005 -2.9986 0.9590
0.3347 -10.0103 -2.9986 0.9590
1.2243 -9.9406 -2.9985 0.9590
2.1042 -9.7921 -2.9985 0.9590
2.9673 -9.5658 -2.9984 0.9590
3.8069 -9.2636 -2.9984 0.9590
4.6163 -8.8879 -2.9984 0.9590
6.1188 -7.9284 -2.9983 0.9590
6.8002 -7.3522 -2.9983 0.9590
8.5008 -5.2943 -2.9982 0.9590
8.9382 -4.5167 -2.9982 0.9590
9.3047 -3.7032 -2.9982 0.9590
9.5973 -2.8603 -2.9981 0.9590
9.8138 -1.9947 -2.9981 0.9590
10.0120 -0.2231 -2.9981 0.9590
9.8929 1.5556 -2.9981 0.9590
9.7152 2.4300 -2.9981 0.9590
7.8370 5.3798 -2.8458 0.9611
7.3271 6.0560 -2.8459 0.9611
6.7591 6.6842 -2.8459 0.9611
6.1374 7.2593 -2.8459 0.9611
5.4670 7.7769 -2.8460 0.9611
4.7532 8.2327 -2.8460 0.9611
3.2182 8.9452 -2.8461 0.9611
2.4093 9.1963 -2.8461 0.9611
1.5813 9.3744 -2.8462 0.9611
-0.9516 9.4595 -2.8463 0.9611
-1.7898 9.3374 -2.8463 0.9611
-2.6138 9.1412 -2.8464 0.9611
-6.2989 7.1223 -2.8465 0.9611
-7.4620 5.8928 -2.8466 0.9611
-9.9282 1.3353 -2.9991 0.9590
-10.0077 0.4463 -2.9991 0.9590
-9.7699 -2.2136 -2.9991 0.9590
-9.2226 -3.9107 -2.9990 0.9590
-7.8615 -6.2082 -2.9990 0.9590
-6.6361 -7.5036 -2.9989 0.9590
-5.9418 -8.0643 -2.9989 0.9590
-5.2004 -8.5610 -2.9988 0.9590
-2.7537 -9.6304 -2.9987 0.9590
-1.0026 -9.9658 -2.9986 0.9590
1.6659 -9.8762 -2.9985 0.9590
4.2158 -9.0848 -2.9984 0.9590
5.0076 -8.6734 -2.9983 0.9590
5.7596 -8.1932 -2.9983 0.9590
6.4659 -7.6479 -2.9983 0.9590
7.1209 -7.0420 -2.9982 0.9590
7.7193 -6.3802 -2.9982 0.9590
8.7281 -4.9104 -2.9982 0.9590
9.9921 -0.6689 -2.9981 0.9590
9.9524 1.1133 -2.9981 0.9590
9.8138 1.9947 -2.9981 0.9590
9.5974 2.8604 -2.9982 0.9590
9.3048 3.7032 -2.9982 0.9590
12.6643 6.3996 -4.2480 0.9425
7.5896 5.7236 -2.8459 0.9611
7.0501 6.3764 -2.8459 0.9611
6.4546 6.9787 -2.8459 0.9611
5.8080 7.5256 -2.8459 0.9611
5.1152 8.0128 -2.8460 0.9611
3.6135 8.7929 -2.8461 0.9611
2.8166 9.0798 -2.8461 0.9611
1.1621 9.4356 -2.8462 0.9611
-3.0185 9.0157 -2.8464 0.9611
-4.5693 8.3379 -2.8464 0.9611
-5.2933 7.8982 -2.8465 0.9611
-7.1921 6.2193 -2.8466 0.9611
-9.6617 2.6466 -2.9991 0.9590
-9.8589 1.7762 -2.9991 0.9590
-9.4433 0.0000 -2.9991 0.9611
-9.2937 -1.6743 -2.9990 0.9611
-9.1077 -2.4948 -2.9990 0.9611
-8.8495 -3.2956 -2.9990 0.9611
-8.5210 -4.0701 -2.9990 0.9611
-7.6642 -5.5163 -2.9990 0.9611
-7.1427 -6.1765 -2.9989 0.9611
-6.5646 -6.7877 -2.9989 0.9611
-5.9343 -7.3450 -2.9989 0.9611
-5.2570 -7.8439 -2.9988 0.9611
-4.5379 -8.2806 -2.9988 0.9611
-3.7828 -8.6515 -2.9988 0.9611
-2.9977 -8.9538 -2.9987 0.9611
-2.1889 -9.1849 -2.9987 0.9611
1.1541 -9.3709 -2.9985 0.9611
3.5887 -8.7326 -2.9984 0.9612
4.3517 -8.3785 -2.9984 0.9612
7.0018 -6.3327 -2.9983 0.9612
8.0136 -4.9909 -2.9982 0.9612
9.2513 -1.8804 -2.9982 0.9612
9.4382 -0.2103 -2.9982 0.9612
9.4194 0.6306 -2.9982 0.9612
9.3259 1.4664 -2.9982 0.9612
9.1584 2.2907 -2.9982 0.9612
8.9182 3.0968 -2.9982 0.9612
8.6073 3.8783 -2.9982 0.9612
7.3878 5.0715 -2.8459 0.9631
6.9072 5.7090 -2.8459 0.9631
6.3717 6.3011 -2.8459 0.9631
5.1536 7.3312 -2.8460 0.9631
3.2399 6.9818 -2.4444 0.9682
2.2712 8.6692 -2.8461 0.9631
1.4906 8.8371 -2.8462 0.9631
0.6982 8.9348 -2.8462 0.9631
-0.0998 8.9616 -2.8462 0.9631
-1.6872 8.8021 -2.8463 0.9631
-3.9529 8.0439 -2.8464 0.9631
-4.6532 7.6603 -2.8464 0.9631
-6.5119 6.1589 -2.8465 0.9631
-7.0343 5.5549 -2.8466 0.9631
-7.5008 4.9068 -2.8466 0.9631
-8.9876 2.8981 -2.9990 0.9611
-9.4339 -0.4207 -2.9991 0.9611
-9.3590 -1.2587 -2.9990 0.9611
-9.2098 -2.0867 -2.9990 0.9611
-8.9875 -2.8981 -2.9990 0.9611
-8.3312 -4.4456 -2.9990 0.9611
-7.9024 -5.1695 -2.9990 0.9611
-5.6012 -7.6020 -2.9988 0.9611
-4.9023 -8.0703 -2.9988 0.9611
-4.1645 -8.4745 -2.9988 0.9611
-3.3936 -8.8114 -2.9987 0.9611
-0.9451 -9.3945 -2.9986 0.9611
-0.1052 -9.4412 -2.9986 0.9611
2.3928 -9.1332 -2.9985 0.9612
4.7206 -8.1762 -2.9984 0.9612
5.4295 -7.7236 -2.9983 0.9612
6.0953 -7.2096 -2.9983 0.9612
6.7128 -6.6384 -2.9983 0.9612
7.2769 -6.0145 -2.9982 0.9612
8.6072 -3.8782 -2.9982 0.9612
9.1584 -2.2907 -2.9982 0.9612
9.3259 -1.4664 -2.9982 0.9612
9.4194 -0.6305 -2.9982 0.9612
9.4382 0.2103 -2.9982 0.9612
11.9384 6.0327 -4.2481 0.9454
11.3542 7.0714 -4.2481 0.9454
7.1546 5.3956 -2.8459 0.9631
5.4751 7.0942 -2.8460 0.9631
4.1306 7.9528 -2.8460 0.9631
2.6551 8.5594 -2.8461 0.9631
1.0955 8.8947 -2.8462 0.9631
-0.4989 8.9483 -2.8463 0.9631
-4.3073 7.8599 -2.8464 0.9631
-4.9899 7.4454 -2.8465 0.9631
-5.6328 6.9718 -2.8465 0.9631
-6.2310 6.4428 -2.8465 0.9631
-6.7798 5.8628 -2.8465 0.9631
-7.9608 4.7153 -2.9384 0.9619
-9.2937 1.6744 -2.9990 0.9611
-8.9262 0.0000 -2.9990 0.9630
-8.8907 -0.7944 -2.9990 0.9630
-8.7847 -1.5826 -2.9990 0.9630
-8.3648 -3.1151 -2.9990 0.9630
-7.6799 -4.5488 -2.9990 0.9630
-6.2051 -6.4160 -2.9989 0.9630
-5.6093 -6.9428 -2.9989 0.9630
-4.9691 -7.4144 -2.9988 0.9630
-3.5757 -8.1778 -2.9988 0.9630
-2.0690 -8.6820 -2.9987 0.9630
0.2982 -8.9198 -2.9986 0.9630
2.6441 -8.5237 -2.9985 0.9630
3.3922 -8.2545 -2.9984 0.9630
4.8019 -7.5221 -2.9984 0.9630
5.4523 -7.0648 -2.9983 0.9630
7.1249 -5.3731 -2.9983 0.9630
7.9646 -4.0247 -2.9982 0.9630
8.2912 -3.2998 -2.9982 0.9630
8.7448 -1.7774 -2.9982 0.9630
8.8683 -0.9920 -2.9982 0.9630
8.9037 0.5961 -2.9982 0.9630
8.1360 3.6659 -2.9982 0.9630
11.0196 6.1995 -4.2481 0.9480
6.5290 5.3963 -2.8459 0.9649
6.0228 5.9561 -2.8459 0.9649
5.4688 6.4686 -2.8460 0.9649
4.2354 7.3359 -2.8460 0.9649
2.8677 7.9708 -2.8461 0.9649
1.4090 8.3531 -2.8462 0.9649
0.6599 8.4455 -2.8462 0.9649
-0.0944 8.4709 -2.8462 0.9649
-0.8480 8.4289 -2.8463 0.9649
-1.5948 8.3201 -2.8463 0.9649
-2.3291 8.1453 -2.8463 0.9649
-3.0448 7.9057 -2.8464 0.9649
-3.7364 7.6035 -2.8464 0.9649
-4.3984 7.2408 -2.8464 0.9649
-5.0255 6.8206 -2.8465 0.9649
-6.1553 5.8216 -2.8465 0.9649
-6.6490 5.2507 -2.8465 0.9649
-7.2183 4.7220 -2.8980 0.9643
-8.9173 -0.3976 -2.9990 0.9630
-8.8465 -1.1897 -2.9990 0.9630
-8.7055 -1.9724 -2.9990 0.9630
-8.4953 -2.7394 -2.9990 0.9630
-7.8749 -4.2022 -2.9990 0.9630
-7.4696 -4.8864 -2.9989 0.9630
-7.0050 -5.5318 -2.9989 0.9630
-5.2945 -7.1857 -2.9988 0.9630
-3.9364 -8.0104 -2.9988 0.9630
-3.2078 -8.3289 -2.9987 0.9630
-2.4537 -8.5813 -2.9987 0.9630
-1.6802 -8.7655 -2.9987 0.9630
2.2618 -8.6331 -2.9985 0.9630
3.0212 -8.3975 -2.9984 0.9630
3.7565 -8.0952 -2.9984 0.9630
4.4621 -7.7286 -2.9984 0.9630
5.1322 -7.3007 -2.9983 0.9630
6.3452 -6.2749 -2.9983 0.9630
6.8785 -5.6852 -2.9983 0.9630
7.3572 -5.0504 -2.9982 0.9630
8.1360 -3.6658 -2.9982 0.9630
8.4299 -2.9272 -2.9982 0.9630
8.6570 -2.1653 -2.9982 0.9630
8.8153 -1.3861 -2.9982 0.9630
8.9037 -0.5960 -2.9982 0.9630
8.9214 0.1988 -2.9982 0.9630
8.7449 1.7775 -2.9982 0.9630
7.9647 4.0247 -2.9982 0.9630
10.7325 6.6843 -4.2481 0.9480
6.7629 5.1001 -2.8459 0.9649
5.7515 6.2185 -2.8459 0.9649
3.2199 7.8351 -2.8461 0.9649
0.2831 8.4666 -2.8462 0.9649
-0.4716 8.4583 -2.8462 0.9649
-4.7166 7.0377 -2.8464 0.9649
-5.3243 6.5900 -2.8465 0.9649
-5.8898 6.0900 -2.8465 0.9649
-6.4085 5.5417 -2.8465 0.9649
-8.0544 3.8473 -2.9990 0.9630
-8.6090 2.3583 -2.9990 0.9630
-8.8907 0.7945 -2.9990 0.9630
-8.4578 0.0000 -2.9990 0.9647
-8.3237 -1.4996 -2.9990 0.9647
-8.1572 -2.2345 -2.9990 0.9647
-7.9259 -2.9516 -2.9990 0.9647
-7.2769 -4.3101 -2.9989 0.9647
-4.7084 -7.0253 -2.9988 0.9647
-4.0643 -7.4165 -2.9988 0.9647
-3.3881 -7.7487 -2.9987 0.9647
-2.6849 -8.0194 -2.9987 0.9647
0.2826 -8.4518 -2.9986 0.9647
1.7766 -8.2676 -2.9985 0.9647
2.5054 -8.0765 -2.9985 0.9647
4.5500 -7.1275 -2.9984 0.9647
5.7415 -6.2077 -2.9983 0.9647
6.2712 -5.6720 -2.9983 0.9647
6.7511 -5.0912 -2.9983 0.9648
7.5468 -3.8136 -2.9982 0.9648
8.2861 -1.6842 -2.9982 0.9648
8.4031 -0.9400 -2.9982 0.9648
8.4366 0.5648 -2.9982 0.9648
8.2029 2.0517 -2.9982 0.9648
7.7092 3.4736 -2.9982 0.9648
7.3695 4.1460 -2.9983 0.9648
6.1865 5.1133 -2.8459 0.9665
5.1819 6.1292 -2.8460 0.9665
4.0132 6.9510 -2.8460 0.9665
3.2234 6.9462 -2.7153 0.9680
0.6253 8.0024 -2.8462 0.9665
-0.0894 8.0264 -2.8462 0.9665
-0.8035 7.9867 -2.8463 0.9665
-1.5112 7.8836 -2.8463 0.9665
-2.8851 7.4909 -2.8464 0.9665
-3.5404 7.2045 -2.8464 0.9665
-4.1676 6.8608 -2.8464 0.9665
-5.3181 6.0133 -2.8465 0.9665
-5.8323 5.5162 -2.8465 0.9665
-6.3002 4.9752 -2.8465 0.9665
-7.0777 4.6300 -2.9990 0.9647
-7.4618 3.9818 -2.9990 0.9647
-7.7866 3.3018 -2.9990 0.9647
-8.3823 1.1273 -2.9990 0.9647
-8.2487 -1.8689 -2.9990 0.9647
-8.0495 -2.5956 -2.9990 0.9647
-7.7865 -3.3018 -2.9990 0.9647
-7.4617 -3.9817 -2.9989 0.9647
-7.0777 -4.6300 -2.9989 0.9647
-6.6374 -5.2415 -2.9989 0.9647
-6.1445 -5.8114 -2.9989 0.9647
-5.0167 -6.8087 -2.9988 0.9647
-4.3907 -7.2281 -2.9988 0.9647
-3.0395 -7.8919 -2.9987 0.9647
-1.5920 -8.3056 -2.9987 0.9647
-0.8465 -8.4142 -2.9986 0.9647
-0.0942 -8.4560 -2.9986 0.9647
0.6588 -8.4308 -2.9986 0.9647
1.4065 -8.3386 -2.9985 0.9647
2.8627 -7.9569 -2.9984 0.9647
3.5595 -7.6704 -2.9984 0.9647
4.2280 -7.3231 -2.9984 0.9647
5.4593 -6.4573 -2.9983 0.9647
6.0124 -5.9457 -2.9983 0.9647
6.5176 -5.3870 -2.9983 0.9648
6.9712 -4.7854 -2.9983 0.9648
7.9877 -2.7736 -2.9982 0.9648
8.2028 -2.0517 -2.9982 0.9648
8.3529 -1.3134 -2.9982 0.9648
8.4366 -0.5648 -2.9982 0.9648
8.4534 0.1884 -2.9982 0.9648
8.4031 0.9401 -2.9982 0.9648
8.2861 1.6842 -2.9982 0.9648
8.1033 2.4151 -2.9982 0.9648
7.8563 3.1268 -2.9982 0.9648
7.5468 3.8136 -2.9983 0.9648
10.1695 6.3336 -4.2481 0.9504
5.9526 5.3838 -2.8459 0.9665
5.4498 5.8923 -2.8460 0.9665
4.3188 6.7653 -2.8460 0.9665
3.6053 6.9415 -2.7736 0.9673
1.6863 7.8476 -2.8461 0.9665
0.9812 7.9666 -2.8462 0.9665
-0.4469 8.0145 -2.8462 0.9665
-1.1585 7.9430 -2.8463 0.9665
-1.8608 7.8085 -2.8463 0.9665
-3.8578 7.0396 -2.8464 0.9665
-5.0449 6.2442 -2.8465 0.9665
-5.5807 5.7705 -2.8465 0.9665
-6.0723 5.2509 -2.8465 0.9665
-6.5671 4.7267 -2.8690 0.9662
-7.9259 2.9517 -2.9990 0.9647
-8.1572 2.2345 -2.9990 0.9647
-8.3238 1.4996 -2.9990 0.9647
-7.7459 -2.1218 -2.9990 0.9663
-7.5263 -2.8028 -2.9990 0.9663
-7.2469 -3.4615 -2.9989 0.9663
-6.9100 -4.0928 -2.9989 0.9663
-6.5183 -4.6915 -2.9989 0.9663
-6.0748 -5.2530 -2.9989 0.9663
-5.5831 -5.7729 -2.9989 0.9663
-4.4710 -6.6711 -2.9988 0.9663
-3.8594 -7.0426 -2.9988 0.9663
-2.5496 -7.6151 -2.9987 0.9663
-1.1589 -7.9463 -2.9986 0.9663
-0.4471 -8.0178 -2.9986 0.9663
0.2683 -8.0257 -2.9986 0.9663
0.9816 -7.9699 -2.9985 0.9663
2.3791 -7.6694 -2.9985 0.9663
3.0522 -7.4271 -2.9984 0.9663
4.3206 -6.7682 -2.9984 0.9663
5.9551 -5.3861 -2.9983 0.9663
6.8156 -4.2448 -2.9983 0.9663
7.1664 -3.6213 -2.9983 0.9663
8.0273 -0.1789 -2.9982 0.9663
8.0114 0.5363 -2.9982 0.9663
9.3794 6.4386 -4.2482 0.9526
8.7692 7.2479 -4.2482 0.9526
3.8109 6.6006 -2.8460 0.9680
2.5802 7.1719 -2.8461 0.9680
1.9317 7.3732 -2.8461 0.9680
0.5938 7.5990 -2.8462 0.9680
-0.0849 7.6218 -2.8462 0.9680
-0.7630 7.5840 -2.8463 0.9680
-2.0956 7.3288 -2.8463 0.9680
-5.0500 5.7102 -2.8465 0.9680
-5.9970 4.7358 -2.8534 0.9679
-7.3940 3.1354 -2.9990 0.9663
-7.9597 1.0705 -2.9990 0.9663
-8.0233 -0.3578 -2.9990 0.9663
-7.9596 -1.0704 -2.9990 0.9663
-7.6437 -2.4648 -2.9990 0.9663
-7.3939 -3.1353 -2.9989 0.9663
-6.7208 -4.3965 -2.9989 0.9663
-5.3203 -6.0158 -2.9988 0.9663
-4.7637 -6.4654 -2.9988 0.9663
-4.1693 -6.8637 -2.9988 0.9663
-3.5419 -7.2074 -2.9988 0.9663
-2.8863 -7.4940 -2.9987 0.9663
-2.2078 -7.7211 -2.9987 0.9663
-1.5118 -7.8868 -2.9987 0.9663
-0.8038 -7.9900 -2.9986 0.9663
-0.0895 -8.0298 -2.9986 0.9663
1.3356 -7.9182 -2.9985 0.9663
2.7184 -7.5558 -2.9985 0.9663
5.1841 -6.1318 -2.9983 0.9663
5.7093 -5.6460 -2.9983 0.9663
6.1891 -5.1154 -2.9983 0.9663
6.6198 -4.5442 -2.9983 0.9663
6.9979 -3.9370 -2.9983 0.9663
7.7894 -1.9482 -2.9982 0.9663
7.9318 -1.2472 -2.9982 0.9663
8.0113 -0.5363 -2.9982 0.9663
7.9795 0.8927 -2.9982 0.9663
7.8684 1.5993 -2.9982 0.9663
7.6949 2.2933 -2.9982 0.9663
7.4602 2.9692 -2.9983 0.9663
4.6566 6.0337 -2.8460 0.9680
2.8971 7.0498 -2.8461 0.9680
2.2582 7.2798 -2.8461 0.9680
1.6013 7.4519 -2.8461 0.9680
0.9317 7.5649 -2.8462 0.9680
0.2547 7.6179 -2.8462 0.9680
-1.1001 7.5426 -2.8463 0.9680
-2.4200 7.2282 -2.8463 0.9680
-3.0538 6.9842 -2.8464 0.9680
-5.2994 5.4795 -2.8465 0.9680
-6.5183 4.6916 -2.9989 0.9663
-6.9101 4.0929 -2.9989 0.9663
-7.7459 2.1219 -2.9990 0.9663
-7.9041 1.4240 -2.9990 0.9663
-7.9995 0.7148 -2.9990 0.9663
-7.5202 -1.3548 -2.9990 0.9677
-7.1607 -2.6667 -2.9989 0.9677
-6.2017 -4.4637 -2.9989 0.9677
-4.2538 -6.3471 -2.9988 0.9677
-3.0610 -7.0007 -2.9987 0.9677
-2.4257 -7.2453 -2.9987 0.9677
-0.4254 -7.6285 -2.9986 0.9677
0.2553 -7.6360 -2.9986 0.9677
1.6051 -7.4695 -2.9985 0.9677
2.9040 -7.0665 -2.9984 0.9677
3.5214 -6.7799 -2.9984 0.9677
4.1108 -6.4395 -2.9984 0.9677
4.6676 -6.0480 -2.9984 0.9677
5.6659 -5.1245 -2.9983 0.9677
7.0980 -2.8249 -2.9983 0.9677
7.5920 -0.8493 -2.9982 0.9677
7.6375 -0.1702 -2.9982 0.9677
7.5467 1.1867 -2.9982 0.9677
4.6818 5.5376 -2.8460 0.9693
3.0525 6.5780 -2.8461 0.9693
2.4549 6.8236 -2.8461 0.9693
1.8379 7.0151 -2.8461 0.9693
0.5650 7.2300 -2.8462 0.9693
-0.7259 7.2158 -2.8463 0.9693
-3.1986 6.5090 -2.8464 0.9693
-3.7653 6.1985 -2.8464 0.9693
-4.8047 5.4328 -2.8464 0.9693
-6.7414 3.5974 -2.9989 0.9677
-7.0349 2.9830 -2.9989 0.9677
-7.5731 1.0185 -2.9990 0.9677
-7.6337 0.3404 -2.9990 0.9677
-7.6337 -0.3404 -2.9990 0.9677
-7.5730 -1.0184 -2.9990 0.9677
-5.9967 -4.7355 -2.9989 0.9677
-5.0619 -5.7236 -2.9988 0.9677
-4.5324 -6.1514 -2.9988 0.9677
-3.9669 -6.5303 -2.9988 0.9677
-3.3698 -6.8574 -2.9987 0.9677
-2.7461 -7.1301 -2.9987 0.9677
-0.7648 -7.6020 -2.9986 0.9677
-0.0851 -7.6398 -2.9986 0.9677
1.2708 -7.5337 -2.9985 0.9677
2.5863 -7.1888 -2.9985 0.9677
3.8199 -6.6163 -2.9984 0.9677
4.3936 -6.2499 -2.9984 0.9677
4.9324 -5.8341 -2.9984 0.9677
5.8886 -4.8670 -2.9983 0.9677
6.2983 -4.3236 -2.9983 0.9677
7.4111 -1.8536 -2.9982 0.9677
7.5467 -1.1866 -2.9982 0.9677
7.6223 -0.5102 -2.9982 0.9677
7.6375 0.1702 -2.9982 0.9677
7.5921 0.8493 -2.9982 0.9677
7.3212 2.1820 -2.9983 0.9677
6.8184 3.4455 -2.9983 0.9677
8.0279 7.2607 -4.2482 0.9546
4.9238 5.3236 -2.8460 0.9693
4.4305 5.7407 -2.8460 0.9693
2.7564 6.7074 -2.8461 0.9693
0.2423 7.2480 -2.8462 0.9693
-0.4037 7.2409 -2.8462 0.9693
-1.6812 7.0547 -2.8463 0.9693
-2.9055 6.6450 -2.8464 0.9693
-3.4854 6.3601 -2.8464 0.9693
-4.0377 6.0246 -2.8464 0.9693
-5.4861 4.7440 -2.8465 0.9693
-6.2017 4.4637 -2.9989 0.9677
-6.5744 3.8941 -2.9989 0.9677
-7.3697 2.0188 -2.9990 0.9677
-7.5202 1.3548 -2.9990 0.9677
-7.2540 -0.6482 -2.9989 0.9690
-7.1675 -1.2913 -2.9989 0.9690
-7.0241 -1.9241 -2.9989 0.9690
-6.2661 -3.7114 -2.9989 0.9690
-5.9108 -4.2543 -2.9989 0.9690
-5.5087 -4.7635 -2.9989 0.9690
-5.0628 -5.2349 -2.9988 0.9690
-4.5767 -5.6647 -2.9988 0.9690
-4.0543 -6.0495 -2.9988 0.9690
0.8901 -7.2273 -2.9985 0.9690
2.1574 -6.9548 -2.9985 0.9690
3.3563 -6.4620 -2.9984 0.9690
4.9441 -5.3455 -2.9984 0.9690
5.8135 -4.3841 -2.9983 0.9690
6.1806 -3.8493 -2.9983 0.9690
6.4987 -3.2839 -2.9983 0.9690
6.7651 -2.6924 -2.9983 0.9690
6.9779 -2.0796 -2.9983 0.9690
7.1353 -1.4503 -2.9983 0.9690
7.2361 -0.8094 -2.9983 0.9690
7.0636 1.7667 -2.9983 0.9690
6.0031 4.1209 -2.9983 0.9690
7.9522 6.5726 -4.2482 0.9564
4.4622 5.2779 -2.8460 0.9705
3.9748 5.6543 -2.8460 0.9705
2.9093 6.2695 -2.8461 0.9705
2.3398 6.5036 -2.8461 0.9705
0.5385 6.8909 -2.8462 0.9705
-0.0770 6.9116 -2.8462 0.9705
-0.6919 6.8774 -2.8463 0.9705
-1.3013 6.7885 -2.8463 0.9705
-2.4843 6.4504 -2.8463 0.9705
-3.0486 6.2037 -2.8464 0.9705
-3.5887 5.9079 -2.8464 0.9705
-5.0223 4.7499 -2.8465 0.9705
-6.7049 2.8432 -2.9989 0.9690
-6.9314 2.2351 -2.9989 0.9690
-7.2179 0.9707 -2.9989 0.9690
-7.2756 -0.3244 -2.9989 0.9690
-7.2179 -0.9707 -2.9989 0.9690
-7.1028 -1.6093 -2.9989 0.9690
-6.9314 -2.2351 -2.9989 0.9690
-6.4252 -3.4286 -2.9989 0.9690
-5.2910 -5.0042 -2.9988 0.9690
-4.3198 -5.8629 -2.9988 0.9690
-1.3709 -7.1519 -2.9987 0.9690
-0.7289 -7.2455 -2.9986 0.9690
0.5673 -7.2598 -2.9986 0.9690
1.2112 -7.1804 -2.9985 0.9690
3.6408 -6.3060 -2.9984 0.9690
6.0030 -4.1208 -2.9983 0.9690
6.6385 -2.9911 -2.9983 0.9690
6.8783 -2.3884 -2.9983 0.9690
7.1928 -1.1310 -2.9983 0.9690
7.2649 -0.4863 -2.9983 0.9690
7.2361 0.8095 -2.9983 0.9690
6.9779 2.0797 -2.9983 0.9690
7.6515 6.9203 -4.2483 0.9564
4.6929 5.0739 -2.8460 0.9705
0.8449 6.8600 -2.8462 0.9705
-0.3848 6.9013 -2.8462 0.9705
-1.6024 6.7239 -2.8463 0.9705
-2.7692 6.3333 -2.8464 0.9705
-3.8483 5.7421 -2.8464 0.9705
-5.4445 4.7080 -2.9639 0.9693
-5.9109 4.2544 -2.9989 0.9690
-6.8249 2.5416 -2.9989 0.9690
-7.0241 1.9241 -2.9989 0.9690
-7.1675 1.2913 -2.9989 0.9690
-7.2540 0.6482 -2.9989 0.9690
-6.8421 -1.2327 -2.9989 0.9702
-5.9817 -3.5429 -2.9989 0.9702
-5.6426 -4.0612 -2.9989 0.9702
-5.2587 -4.5473 -2.9988 0.9702
-4.8330 -4.9973 -2.9988 0.9702
-2.7850 -6.3695 -2.9987 0.9702
-1.6115 -6.7623 -2.9987 0.9702
0.2323 -6.9476 -2.9986 0.9702
1.4604 -6.7962 -2.9985 0.9702
3.2040 -6.1687 -2.9984 0.9702
5.1552 -4.6625 -2.9983 0.9702
6.2038 -3.1349 -2.9983 0.9702
6.4581 -2.5703 -2.9983 0.9702
6.6613 -1.9852 -2.9983 0.9702
6.9491 -0.1548 -2.9983 0.9702
6.9353 0.4643 -2.9983 0.9702
6.3373 2.8554 -2.9983 0.9702
6.0580 3.4082 -2.9983 0.9702
7.5913 6.2743 -4.2483 0.9580
3.7944 5.3977 -2.8460 0.9717
3.2990 5.7140 -2.8461 0.9717
2.7773 5.9850 -2.8461 0.9717
2.2336 6.2085 -2.8461 0.9717
1.0975 6.5063 -2.8462 0.9717
-0.0735 6.5979 -2.8462 0.9717
-0.6605 6.5652 -2.8463 0.9717
-1.8141 6.3442 -2.8463 0.9717
-2.9102 5.9222 -2.8464 0.9717
-3.4258 5.6397 -2.8464 0.9717
-3.9142 5.3124 -2.8464 0.9717
-4.3716 4.9430 -2.8464 0.9717
-6.1336 3.2730 -2.9989 0.9702
-6.8903 0.9267 -2.9989 0.9702
-6.9454 0.3097 -2.9989 0.9702
-6.8903 -0.9266 -2.9989 0.9702
-6.7804 -1.5362 -2.9989 0.9702
-6.6168 -2.1336 -2.9989 0.9702
-6.4006 -2.7140 -2.9989 0.9702
-6.1336 -3.2729 -2.9989 0.9702
-5.8179 -3.8059 -2.9989 0.9702
-5.4560 -4.3086 -2.9989 0.9702
-4.6056 -5.2076 -2.9988 0.9702
-4.1238 -5.5968 -2.9988 0.9702
-3.0660 -6.2392 -2.9987 0.9702
-2.4985 -6.4873 -2.9987 0.9702
-1.9112 -6.6838 -2.9987 0.9702
-1.3087 -6.8273 -2.9986 0.9702
2.9260 -6.3054 -2.9984 0.9702
3.4756 -6.0198 -2.9984 0.9702
3.9975 -5.6866 -2.9984 0.9702
6.0580 -3.4081 -2.9983 0.9702
6.5662 -2.2800 -2.9983 0.9702
6.7431 -1.6865 -2.9983 0.9702
6.8664 -1.0796 -2.9983 0.9702
6.9353 -0.4642 -2.9983 0.9702
6.9491 0.1549 -2.9983 0.9702
6.9077 0.7728 -2.9983 0.9702
6.8115 1.3845 -2.9983 0.9702
6.6613 1.9853 -2.9983 0.9702
6.4582 2.5703 -2.9983 0.9702
5.9002 3.6747 -2.9983 0.9702
6.6873 7.2303 -4.2483 0.9580
3.5502 5.5613 -2.8461 0.9717
3.0412 5.8553 -2.8461 0.9717
2.5080 6.1028 -2.8461 0.9717
1.9548 6.3018 -2.8461 0.9717
1.3862 6.4509 -2.8462 0.9717
-0.3673 6.5881 -2.8462 0.9717
-0.9523 6.5293 -2.8463 0.9717
-1.5296 6.4187 -2.8463 0.9717
-2.6435 6.0459 -2.8463 0.9717
-3.1712 5.7867 -2.8464 0.9717
-4.1470 5.1328 -2.8464 0.9717
-5.6426 4.0613 -2.9989 0.9702
-5.9817 3.5430 -2.9989 0.9702
-6.2733 2.9966 -2.9989 0.9702
-6.5152 2.4263 -2.9989 0.9702
-6.7053 1.8368 -2.9989 0.9702
-6.8422 1.2327 -2.9989 0.9702
-6.9247 0.6188 -2.9989 0.9702
-6.6463 0.0000 -2.9989 0.9713
-6.6199 -0.5915 -2.9989 0.9713
-6.2284 -2.3194 -2.9989 0.9713
-5.3942 -3.8825 -2.9988 0.9713
-5.0272 -4.3472 -2.9988 0.9713
-3.7000 -5.5208 -2.9988 0.9713
-3.1939 -5.8281 -2.9987 0.9713
-2.6625 -6.0892 -2.9987 0.9713
-2.1099 -6.3019 -2.9987 0.9713
-1.5406 -6.4647 -2.9987 0.9713
-0.3700 -6.6353 -2.9986 0.9713
0.8123 -6.5956 -2.9985 0.9713
1.3961 -6.4971 -2.9985 0.9713
1.9689 -6.3470 -2.9985 0.9713
2.5259 -6.1465 -2.9985 0.9713
3.0630 -5.8972 -2.9984 0.9713
4.5121 -4.8783 -2.9984 0.9713
4.9283 -4.4574 -2.9984 0.9713
5.3055 -4.0011 -2.9983 0.9713
6.1739 -2.4571 -2.9983 0.9713
6.3681 -1.8979 -2.9983 0.9713
6.5117 -1.3236 -2.9983 0.9713
6.6301 0.4438 -2.9983 0.9713
6.4463 1.6124 -2.9983 0.9713
6.0584 2.7298 -2.9983 0.9713
5.4784 3.7608 -2.9984 0.9713
5.1220 4.2335 -2.9984 0.9713
6.6945 6.6203 -4.2483 0.9595
3.1538 5.4625 -2.8461 0.9727
2.6551 5.7216 -2.8461 0.9727
2.1353 5.9352 -2.8461 0.9727
1.5986 6.1018 -2.8461 0.9727
1.0492 6.2199 -2.8462 0.9727
0.4914 6.2887 -2.8462 0.9727
-0.0703 6.3075 -2.8462 0.9727
-0.6314 6.2763 -2.8463 0.9727
-1.1875 6.1952 -2.8463 0.9727
-1.7342 6.0650 -2.8463 0.9727
-2.2672 5.8866 -2.8463 0.9727
-3.2750 5.3915 -2.8464 0.9727
-6.2383 7.0537 -4.2489 0.9595
-5.5618 3.6384 -2.9989 0.9713
-5.8636 3.1290 -2.9989 0.9713
-6.1189 2.5947 -2.9989 0.9713
-6.5870 0.8859 -2.9989 0.9713
-6.5870 -0.8859 -2.9989 0.9713
-6.4820 -1.4686 -2.9989 0.9713
-5.8636 -3.1289 -2.9989 0.9713
-5.5618 -3.6384 -2.9989 0.9713
-5.2159 -4.1189 -2.9988 0.9713
-4.8285 -4.5668 -2.9988 0.9713
-4.4029 -4.9784 -2.9988 0.9713
-2.9311 -5.9646 -2.9987 0.9713
-2.3886 -6.2017 -2.9987 0.9713
-1.8271 -6.3896 -2.9987 0.9713
-1.2511 -6.5269 -2.9986 0.9713
-0.0740 -6.6451 -2.9986 0.9713
2.7972 -6.0278 -2.9985 0.9713
3.8216 -5.4363 -2.9984 0.9713
4.7249 -4.6725 -2.9984 0.9713
5.1220 -4.2334 -2.9983 0.9713
6.0584 -2.7297 -2.9983 0.9713
6.4463 -1.6123 -2.9983 0.9713
6.5642 -1.0321 -2.9983 0.9713
6.5118 1.3236 -2.9983 0.9713
6.1740 2.4572 -2.9983 0.9713
5.9308 2.9970 -2.9983 0.9713
5.3055 4.0011 -2.9984 0.9713
6.3931 6.9121 -4.2483 0.9595
2.3976 5.8342 -2.8461 0.9727
1.8688 6.0245 -2.8461 0.9727
1.3252 6.1670 -2.8462 0.9727
0.7711 6.2605 -2.8462 0.9727
-0.3512 6.2982 -2.8462 0.9727
-0.9104 6.2420 -2.8463 0.9727
-2.0027 5.9818 -2.8463 0.9727
-3.0316 5.5320 -2.8464 0.9727
-3.5120 5.2403 -2.8464 0.9727
-6.5463 6.7689 -4.2489 0.9595
-5.0272 4.3472 -2.9989 0.9713
-5.3942 3.8826 -2.9989 0.9713
-5.7184 3.3871 -2.9989 0.9713
-6.2284 2.3195 -2.9989 0.9713
-6.4101 1.7559 -2.9989 0.9713
-6.5410 1.1785 -2.9989 0.9713
-6.3620 0.0000 -2.9989 0.9723
-6.2612 -1.1280 -2.9989 0.9723
-5.9620 -2.2203 -2.9989 0.9723
-5.4738 -3.2421 -2.9989 0.9723
-5.1635 -3.7164 -2.9988 0.9723
-4.8122 -4.1612 -2.9988 0.9723
-4.4227 -4.5730 -2.9988 0.9723
-3.5417 -5.2846 -2.9988 0.9723
-3.0573 -5.5788 -2.9987 0.9723
-2.0197 -6.0324 -2.9987 0.9723
-0.9181 -6.2948 -2.9986 0.9723
-0.3542 -6.3515 -2.9986 0.9723
0.2126 -6.3578 -2.9986 0.9723
0.7776 -6.3136 -2.9986 0.9723
1.3364 -6.2192 -2.9985 0.9723
2.9320 -5.6450 -2.9985 0.9723
3.4227 -5.3616 -2.9984 0.9723
3.8863 -5.0357 -2.9984 0.9723
4.3191 -4.6697 -2.9984 0.9723
4.7176 -4.2668 -2.9984 0.9723
6.0958 -1.8167 -2.9983 0.9723
6.3465 0.4249 -2.9983 0.9723
6.1707 1.5434 -2.9983 0.9723
6.0088 2.0865 -2.9983 0.9723
5.7993 2.6130 -2.9983 0.9723
5.5437 3.1189 -2.9983 0.9723
5.2442 3.5999 -2.9984 0.9723
4.9030 4.0525 -2.9984 0.9723
6.4083 6.3373 -4.2483 0.9609
5.8188 6.8825 -4.2483 0.9609
3.0189 5.2289 -2.8461 0.9737
2.0440 5.6814 -2.8461 0.9737
1.0043 5.9539 -2.8462 0.9737
0.4704 6.0197 -2.8462 0.9737
-0.6044 6.0079 -2.8462 0.9737
-1.6601 5.8056 -2.8463 0.9737
-2.1702 5.6349 -2.8463 0.9737
-5.3467 7.2567 -4.2489 0.9609
-5.9715 6.7521 -4.2489 0.9609
-4.9928 3.9428 -2.9989 0.9723
-6.0550 1.9525 -2.9989 0.9723
-6.2047 1.4058 -2.9989 0.9723
-6.3052 0.8480 -2.9989 0.9723
-6.3557 0.2834 -2.9989 0.9723
-6.3557 -0.2834 -2.9989 0.9723
-6.3052 -0.8479 -2.9989 0.9723
-5.8571 -2.4836 -2.9989 0.9723
-4.9928 -3.9427 -2.9988 0.9723
-3.3028 -5.4371 -2.9987 0.9723
-1.7489 -6.1164 -2.9987 0.9723
-1.1976 -6.2477 -2.9986 0.9723
-0.0709 -6.3609 -2.9986 0.9723
0.4956 -6.3419 -2.9986 0.9723
1.0581 -6.2726 -2.9985 0.9723
1.6121 -6.1535 -2.9985 0.9723
2.6776 -5.7700 -2.9985 0.9723
4.1068 -4.8576 -2.9984 0.9723
4.9029 -4.0524 -2.9984 0.9723
5.2441 -3.5999 -2.9983 0.9723
5.5437 -3.1188 -2.9983 0.9723
6.0088 -2.0865 -2.9983 0.9723
6.1707 -1.5434 -2.9983 0.9723
6.2835 -0.9880 -2.9983 0.9723
6.3465 -0.4249 -2.9983 0.9723
6.3592 0.1417 -2.9983 0.9723
6.3213 0.7072 -2.9983 0.9723
6.2333 1.2670 -2.9983 0.9723
6.0958 1.8168 -2.9983 0.9723
5.9099 2.3521 -2.9983 0.9723
5.6772 2.8688 -2.9983 0.9723
5.3993 3.3628 -2.9984 0.9723
6.6842 6.0455 -4.2483 0.9609
6.1196 6.6164 -4.2483 0.9609
5.5065 7.1349 -4.2484 0.9609
1.7889 5.7669 -2.8461 0.9737
1.2685 5.9032 -2.8462 0.9737
0.7381 5.9928 -2.8462 0.9737
0.2018 6.0347 -2.8462 0.9737
-1.3998 5.8738 -2.8463 0.9737
-1.9170 5.7259 -2.8463 0.9737
-2.9019 5.2954 -2.8464 0.9737
-3.3618 5.0161 -2.8464 0.9737
-4.8122 4.1613 -2.9988 0.9723
-5.4738 3.2422 -2.9989 0.9723
-5.7407 2.7421 -2.9989 0.9723
-6.3368 0.5663 -2.9989 0.9723
-5.7137 -2.1278 -2.9989 0.9732
-5.5016 -2.6279 -2.9989 0.9732
-5.2459 -3.1071 -2.9988 0.9732
-4.9485 -3.5617 -2.9988 0.9732
-4.2385 -4.3826 -2.9988 0.9732
-3.8316 -4.7424 -2.9988 0.9732
-3.3943 -5.0646 -2.9988 0.9732
-2.4425 -5.5861 -2.9987 0.9732
-1.9356 -5.7812 -2.9987 0.9732
-1.4133 -5.9305 -2.9987 0.9732
-0.8799 -6.0328 -2.9986 0.9732
-0.3394 -6.0871 -2.9986 0.9732
0.2037 -6.0930 -2.9986 0.9732
0.7452 -6.0507 -2.9986 0.9732
1.8062 -5.8226 -2.9985 0.9732
2.3172 -5.6387 -2.9985 0.9732
4.1393 -4.4753 -2.9984 0.9732
4.5212 -4.0891 -2.9984 0.9732
4.8672 -3.6705 -2.9984 0.9732
5.1745 -3.2227 -2.9984 0.9732
5.4408 -2.7494 -2.9983 0.9732
6.0582 -0.6777 -2.9983 0.9732
6.0823 0.4072 -2.9983 0.9732
5.9138 1.4791 -2.9983 0.9732
5.7587 1.9997 -2.9983 0.9732
5.5579 2.5043 -2.9983 0.9732
5.3129 2.9890 -2.9984 0.9732
5.0258 3.4501 -2.9984 0.9732
4.6989 3.8837 -2.9984 0.9732
6.1415 6.0734 -4.2483 0.9622
4.9674 7.0662 -4.2484 0.9622
2.8932 5.0113 -2.8461 0.9745
2.4357 5.2489 -2.8461 0.9745
1.9589 5.4449 -2.8461 0.9745
1.4665 5.5977 -2.8461 0.9745
0.9625 5.7060 -2.8462 0.9745
-0.0645 5.7864 -2.8462 0.9745
-0.5792 5.7577 -2.8462 0.9745
-2.0799 5.4003 -2.8463 0.9745
-2.5523 5.1937 -2.8463 0.9745
-3.0044 4.9460 -2.8464 0.9745
-5.1242 6.9546 -4.2489 0.9622
-5.7229 6.4709 -4.2489 0.9622
-4.4296 4.1895 -2.9988 0.9732
-4.7849 3.7787 -2.9988 0.9732
-5.9464 1.3473 -2.9989 0.9732
-6.0427 0.8127 -2.9989 0.9732
-6.0911 -0.2716 -2.9989 0.9732
-6.0427 -0.8127 -2.9989 0.9732
-5.9464 -1.3472 -2.9989 0.9732
-5.1022 -3.3377 -2.9988 0.9732
-4.7849 -3.7786 -2.9988 0.9732
-4.4296 -4.1894 -2.9988 0.9732
-2.1912 -5.6893 -2.9987 0.9732
-1.6761 -5.8617 -2.9987 0.9732
-1.1477 -5.9876 -2.9986 0.9732
-0.6102 -6.0659 -2.9986 0.9732
-0.0679 -6.0961 -2.9986 0.9732
0.4749 -6.0779 -2.9986 0.9732
1.5450 -5.8973 -2.9985 0.9732
2.0638 -5.7363 -2.9985 0.9732
2.5661 -5.5298 -2.9985 0.9732
3.0481 -5.2795 -2.9984 0.9732
5.7587 -1.9996 -2.9983 0.9732
6.0219 -0.9469 -2.9983 0.9732
6.0823 -0.4071 -2.9983 0.9732
6.0944 0.1358 -2.9983 0.9732
5.4408 2.7494 -2.9984 0.9732
5.1745 3.2228 -2.9984 0.9732
4.8672 3.6705 -2.9984 0.9732
4.5212 4.0892 -2.9984 0.9732
5.8649 6.3410 -4.2483 0.9622
5.2772 6.8378 -4.2484 0.9622
4.6477 7.2805 -4.2484 0.9622
2.6671 5.1351 -2.8461 0.9745
1.2157 5.6575 -2.8462 0.9745
0.7073 5.7433 -2.8462 0.9745
0.1934 5.7835 -2.8462 0.9745
-0.3222 5.7778 -2.8462 0.9745
-1.8372 5.4875 -2.8463 0.9745
-2.3184 5.3023 -2.8463 0.9745
-4.8093 7.1759 -4.2489 0.9622
-4.9485 3.5617 -2.9988 0.9732
-5.2459 3.1072 -2.9989 0.9732
-5.8805 1.6109 -2.9989 0.9732
-5.8495 0.0000 -2.9989 0.9740
-5.8263 -0.5206 -2.9989 0.9740
-5.7568 -1.0371 -2.9989 0.9740
-5.6417 -1.5454 -2.9989 0.9740
-5.4817 -2.0414 -2.9989 0.9740
-4.7476 -3.4171 -2.9988 0.9740
-4.4245 -3.8261 -2.9988 0.9740
-3.2564 -4.8590 -2.9987 0.9740
-2.8110 -5.1295 -2.9987 0.9741
-0.8441 -5.7878 -2.9986 0.9741
1.7329 -5.5862 -2.9985 0.9741
3.1471 -4.9298 -2.9984 0.9741
3.5733 -4.6301 -2.9984 0.9741
4.6696 -3.5215 -2.9984 0.9741
4.9644 -3.0919 -2.9984 0.9741
5.2199 -2.6377 -2.9983 0.9741
5.6048 -1.6704 -2.9983 0.9741
5.8122 -0.6502 -2.9983 0.9741
5.8354 0.3907 -2.9983 0.9741
5.7775 0.9085 -2.9983 0.9741
5.6737 1.4191 -2.9983 0.9741
5.5249 1.9185 -2.9983 0.9741
5.3322 2.4026 -2.9984 0.9741
5.0972 2.8677 -2.9984 0.9741
4.5081 3.7261 -2.9984 0.9741
4.7657 6.7793 -4.2484 0.9634
4.1434 7.1766 -4.2484 0.9634
2.3368 5.0358 -2.8461 0.9754
0.9234 5.4744 -2.8462 0.9754
-0.0618 5.5514 -2.8462 0.9754
-1.5263 5.3380 -2.8463 0.9754
-1.9954 5.1810 -2.8463 0.9754
-2.4486 4.9829 -2.8463 0.9754
-4.3027 7.0832 -4.2488 0.9634
-5.4905 6.2082 -4.2489 0.9634
-4.2497 4.0194 -2.9988 0.9740
-5.3853 2.2836 -2.9989 0.9740
-5.5672 1.7952 -2.9989 0.9740
-5.7049 1.2926 -2.9989 0.9740
-5.7973 0.7797 -2.9989 0.9740
-5.8437 0.2606 -2.9989 0.9740
-5.7973 -0.7796 -2.9989 0.9740
-5.7049 -1.2926 -2.9989 0.9740
-4.8951 -3.2022 -2.9988 0.9740
-4.5906 -3.6252 -2.9988 0.9740
-4.2497 -4.0193 -2.9988 0.9740
-3.8751 -4.3816 -2.9988 0.9740
-3.0368 -4.9992 -2.9987 0.9741
-2.5797 -5.2496 -2.9987 0.9741
-1.1011 -5.7445 -2.9986 0.9741
1.4823 -5.6579 -2.9985 0.9741
1.9800 -5.5034 -2.9985 0.9741
2.4619 -5.3053 -2.9985 0.9741
2.9244 -5.0651 -2.9985 0.9741
3.3635 -4.7847 -2.9984 0.9741
4.5081 -3.7260 -2.9984 0.9741
4.8218 -3.3099 -2.9984 0.9741
5.0972 -2.8676 -2.9984 0.9741
5.3322 -2.4026 -2.9983 0.9741
5.5249 -1.9184 -2.9983 0.9741
5.6737 -1.4191 -2.9983 0.9741
5.8470 0.1303 -2.9983 0.9741
5.7313 1.1649 -2.9983 0.9741
4.9645 3.0919 -2.9984 0.9741
4.3376 3.9232 -2.9984 0.9741
5.0629 6.5603 -4.2484 0.9634
2.1102 5.1349 -2.8461 0.9754
1.6448 5.3024 -2.8461 0.9754
0.6786 5.5101 -2.8462 0.9754
0.1855 5.5487 -2.8462 0.9754
-0.8012 5.4937 -2.8463 0.9754
-1.7626 5.2647 -2.8463 0.9754
-2.2242 5.0870 -2.8463 0.9754
-3.9829 7.2678 -4.2488 0.9634
-5.2085 6.4466 -4.2489 0.9634
-4.4246 3.8261 -2.9988 0.9740
-5.0329 2.9810 -2.9989 0.9740
-5.6417 1.5454 -2.9989 0.9740
-5.8263 0.5207 -2.9989 0.9740
-5.6175 0.0000 -2.9989 0.9749
-5.5952 -0.5000 -2.9989 0.9749
-5.4179 -1.4841 -2.9989 0.9749
-5.2643 -1.9604 -2.9988 0.9749
-5.0689 -2.4212 -2.9988 0.9749
-4.5592 -3.2815 -2.9988 0.9749
-4.2490 -3.6743 -2.9988 0.9749
-3.5302 -4.3694 -2.9988 0.9749
-3.1273 -4.6662 -2.9987 0.9749
-2.6995 -4.9260 -2.9987 0.9749
-2.2504 -5.1467 -2.9987 0.9749
-1.7833 -5.3265 -2.9987 0.9749
0.6866 -5.5748 -2.9986 0.9749
1.1801 -5.4915 -2.9985 0.9749
1.6641 -5.3646 -2.9985 0.9749
2.1350 -5.1952 -2.9985 0.9749
2.5889 -4.9845 -2.9985 0.9749
3.4316 -4.4464 -2.9984 0.9749
4.1656 -3.7676 -2.9984 0.9749
4.7675 -2.9692 -2.9984 0.9749
5.2184 -2.0769 -2.9984 0.9749
5.3826 -1.6041 -2.9983 0.9749
5.5040 -1.1187 -2.9983 0.9749
5.5817 -0.6244 -2.9983 0.9749
5.6151 -0.1251 -2.9983 0.9749
5.5483 0.8725 -2.9983 0.9749
5.3058 1.8424 -2.9984 0.9749
5.1208 2.3073 -2.9984 0.9749
4.3293 3.5783 -2.9984 0.9749
3.9937 3.9494 -2.9984 0.9749
3.9791 6.8920 -4.2484 0.9646
3.3499 7.2188 -4.2485 0.9646
0.8868 5.2573 -2.8462 0.9761
0.4153 5.3154 -2.8462 0.9761
-1.4658 5.1262 -2.8463 0.9761
-1.9163 4.9755 -2.8463 0.9761
-3.5101 7.1430 -4.2488 0.9646
-4.7211 6.4075 -4.2488 0.9646
-3.7214 4.2079 -2.9988 0.9749
-4.0812 3.8600 -2.9988 0.9749
-4.4085 3.4814 -2.9988 0.9749
-4.7009 3.0752 -2.9988 0.9749
-4.9560 2.6446 -2.9988 0.9749
-5.1717 2.1930 -2.9989 0.9749
-5.3465 1.7240 -2.9989 0.9749
-5.6119 -0.2502 -2.9989 0.9749
-5.3464 -1.7240 -2.9989 0.9749
-5.1717 -2.1930 -2.9988 0.9749
-4.9560 -2.6446 -2.9988 0.9749
-4.7009 -3.0752 -2.9988 0.9749
-4.4085 -3.4813 -2.9988 0.9749
-3.7214 -4.2078 -2.9988 0.9749
-3.3321 -4.5223 -2.9987 0.9749
-2.4774 -5.0413 -2.9987 0.9749
-2.0189 -5.2418 -2.9987 0.9749
-1.0575 -5.5166 -2.9986 0.9749
-0.5622 -5.5888 -2.9986 0.9749
-0.0626 -5.6166 -2.9986 0.9749
0.4376 -5.5999 -2.9986 0.9749
0.9343 -5.5387 -2.9985 0.9749
2.8084 -4.8642 -2.9985 0.9749
3.2301 -4.5949 -2.9984 0.9749
3.9936 -3.9494 -2.9984 0.9749
4.3293 -3.5782 -2.9984 0.9749
4.8951 -2.7539 -2.9984 0.9749
5.1207 -2.3073 -2.9984 0.9749
5.3058 -1.8423 -2.9983 0.9749
5.4487 -1.3628 -2.9983 0.9749
5.5483 -0.8724 -2.9983 0.9749
5.5817 0.6244 -2.9983 0.9749
5.3826 1.6042 -2.9984 0.9749
5.2185 2.0769 -2.9984 0.9749
5.0129 2.5332 -2.9984 0.9749
4.7676 2.9693 -2.9984 0.9749
4.1656 3.7676 -2.9984 0.9749
3.8138 4.1234 -2.9984 0.9749
4.2822 6.7078 -4.2484 0.9646
1.5796 5.0921 -2.8461 0.9761
1.1201 5.2125 -2.8462 0.9761
0.6517 5.2916 -2.8462 0.9761
-0.2968 5.3233 -2.8462 0.9761
-0.7695 5.2758 -2.8463 0.9761
-1.2360 5.1864 -2.8463 0.9761
-4.4309 6.6115 -4.2488 0.9646
-3.9052 4.0379 -2.9988 0.9749
-4.2491 3.6743 -2.9988 0.9749
-4.5593 3.2816 -2.9988 0.9749
-4.8333 2.8628 -2.9988 0.9749
-5.0689 2.4212 -2.9989 0.9749
-5.2643 1.9605 -2.9989 0.9749
-5.5285 0.9960 -2.9989 0.9749
-5.5952 0.5000 -2.9989 0.9749
-5.3995 0.0000 -2.9989 0.9756
-5.2076 -1.4265 -2.9988 0.9756
-5.0600 -1.8844 -2.9988 0.9756
-4.8722 -2.3272 -2.9988 0.9756
-4.6457 -2.7516 -2.9988 0.9756
-3.7536 -3.8812 -2.9988 0.9756
-3.3932 -4.1998 -2.9988 0.9756
-2.5948 -4.7348 -2.9987 0.9756
-2.1630 -4.9470 -2.9987 0.9756
-1.7141 -5.1198 -2.9987 0.9756
-1.2516 -5.2520 -2.9986 0.9756
-0.7792 -5.3425 -2.9986 0.9756
-0.3006 -5.3907 -2.9986 0.9756
0.1804 -5.3960 -2.9986 0.9756
0.6600 -5.3585 -2.9986 0.9756
1.5996 -5.1565 -2.9985 0.9756
2.9050 -4.5506 -2.9985 0.9756
3.2985 -4.2739 -2.9984 0.9756
3.6658 -3.9634 -2.9984 0.9756
4.0039 -3.6213 -2.9984 0.9756
4.3104 -3.2506 -2.9984 0.9756
4.5825 -2.8540 -2.9984 0.9756
4.8184 -2.4348 -2.9984 0.9756
5.0159 -1.9963 -2.9984 0.9756
5.3651 -0.6002 -2.9983 0.9756
5.3331 0.8386 -2.9984 0.9756
4.7051 2.6471 -2.9984 0.9756
4.4509 3.0554 -2.9984 0.9756
3.2199 6.9387 -4.2485 0.9656
2.5896 7.1978 -4.2485 0.9656
1.2987 4.9573 -2.8462 0.9768
-0.0571 5.1244 -2.8462 0.9768
-0.5129 5.0990 -2.8462 0.9768
-0.9648 5.0331 -2.8463 0.9768
-1.4089 4.9273 -2.8463 0.9768
-2.7494 7.1388 -4.2488 0.9656
-3.3740 6.8658 -4.2488 0.9656
-3.5770 4.0446 -2.9988 0.9756
-3.9228 3.7102 -2.9988 0.9756
-4.2375 3.3463 -2.9988 0.9756
-4.9710 2.1079 -2.9988 0.9756
-5.2660 1.1932 -2.9989 0.9756
-5.3513 0.7197 -2.9989 0.9756
-5.3941 0.2405 -2.9989 0.9756
-4.7636 -2.5419 -2.9988 0.9756
-4.5185 -2.9558 -2.9988 0.9756
-3.9228 -3.7101 -2.9988 0.9756
-2.3813 -4.8457 -2.9987 0.9756
-1.9405 -5.0384 -2.9987 0.9756
-1.4844 -5.1911 -2.9987 0.9756
-1.0164 -5.3025 -2.9986 0.9756
-0.5404 -5.3719 -2.9986 0.9756
0.8980 -5.3237 -2.9985 0.9756
1.8277 -5.0801 -2.9985 0.9756
2.6994 -4.6755 -2.9985 0.9756
4.4509 -3.0553 -2.9984 0.9756
5.0999 -1.7708 -2.9984 0.9756
5.3331 -0.8386 -2.9983 0.9756
5.3865 -0.3605 -2.9983 0.9756
5.3972 0.1203 -2.9983 0.9756
5.3651 0.6002 -2.9984 0.9756
5.2904 1.0754 -2.9984 0.9756
4.8184 2.4348 -2.9984 0.9756
4.5826 2.8541 -2.9984 0.9756
4.3104 3.2506 -2.9984 0.9756
3.6658 3.9634 -2.9984 0.9756
4.6735 6.0556 -4.2484 0.9656
3.5258 6.7884 -4.2485 0.9656
2.9076 7.0753 -4.2485 0.9656
1.5183 4.8945 -2.8461 0.9768
0.6264 5.0862 -2.8462 0.9768
0.1712 5.1218 -2.8462 0.9768
-0.7396 5.0711 -2.8463 0.9768
-2.4287 7.2541 -4.2487 0.9656
-3.3932 4.1999 -2.9988 0.9756
-4.0842 3.5317 -2.9988 0.9756
-4.3823 3.1542 -2.9988 0.9756
-5.3139 0.9574 -2.9989 0.9756
-5.1942 0.0000 -2.9989 0.9763
-5.1735 -0.4623 -2.9988 0.9763
-4.8676 -1.8127 -2.9988 0.9763
-4.6869 -2.2387 -2.9988 0.9763
-3.6108 -3.7336 -2.9988 0.9763
-2.8916 -4.3146 -2.9987 0.9763
-2.0808 -4.7588 -2.9987 0.9763
-0.7496 -5.1394 -2.9986 0.9763
0.1735 -5.1908 -2.9986 0.9763
0.6349 -5.1547 -2.9986 0.9763
1.5387 -4.9604 -2.9985 0.9763
2.3938 -4.6089 -2.9985 0.9763
2.7945 -4.3775 -2.9985 0.9763
3.1730 -4.1114 -2.9984 0.9763
3.5264 -3.8127 -2.9984 0.9763
3.8517 -3.4837 -2.9984 0.9763
4.1465 -3.1270 -2.9984 0.9763
4.4083 -2.7455 -2.9984 0.9763
4.9770 -1.4833 -2.9984 0.9763
5.1920 -0.1157 -2.9984 0.9763
5.1303 0.8067 -2.9984 0.9763
5.0381 1.2601 -2.9984 0.9763
4.9060 1.7036 -2.9984 0.9763
4.7349 2.1335 -2.9984 0.9763
4.5262 2.5464 -2.9984 0.9763
3.3531 3.9660 -2.9985 0.9763
3.0975 6.6749 -4.2485 0.9666
2.4911 6.9241 -4.2485 0.9666
1.8650 7.1184 -4.2485 0.9666
1.2240 7.2562 -4.2486 0.9666
0.3840 4.9148 -2.8462 0.9775
-0.4934 4.9051 -2.8462 0.9775
-1.3854 7.2274 -4.2487 0.9666
-2.0232 7.0754 -4.2487 0.9666
