ply
format ascii 1.0
element vertex 1585
property float32 x
property float32 y
property float32 z
property float32 I
end_header
3.3219 7.1586 0.5914 0.9688
-6.4633 -5.1040 0.6172 0.9675
-4.5327 -5.6102 0.4201 0.9715
-4.1603 -6.2076 0.4352 0.9705
-4.7697 -5.3932 0.4193 0.9716
-5.0306 -5.2016 0.3009 0.9714
-4.5216 -5.5964 0.2992 0.9716
-4.0882 -7.4600 0.3537 0.9665
3.3213 7.1573 0.3281 0.9689
-4.7583 -5.3803 0.2986 0.9717
-4.3159 -5.8576 0.3025 0.9713
-4.0296 -6.6337 0.3227 0.9694
-5.7410 -4.9644 0.1893 0.9701
-4.1365 -6.1721 0.1853 0.9707
-6.3010 -4.9759 0.2002 0.9684
-5.3420 -5.0524 0.1834 0.9710
-4.7505 -5.3715 0.1788 0.9717
-4.0187 -6.6157 0.1930 0.9695
-5.7280 -4.9532 0.0629 0.9702
-4.1278 -6.1591 0.0616 0.9708
3.3207 7.1560 0.0656 0.9689
-5.3319 -5.0429 0.0610 0.9711
-4.7428 -5.3628 0.0595 0.9718
-5.7286 -4.9537 -0.0629 0.9702
-4.5069 -5.5782 -0.0596 0.9717
-4.1282 -6.1597 -0.0616 0.9708
-4.0248 -7.3444 -0.0696 0.9671
3.3204 7.1553 -0.0656 0.9689
-5.3324 -5.0434 -0.0610 0.9711
-4.3007 -5.8370 -0.0603 0.9714
-5.7416 -4.9649 -0.1893 0.9701
-5.0225 -5.1932 -0.1802 0.9715
-4.5144 -5.5876 -0.1791 0.9717
-4.0570 -7.4032 -0.2105 0.9668
-6.3019 -4.9766 -0.2003 0.9684
-5.3425 -5.0529 -0.1834 0.9710
-4.7509 -5.3720 -0.1788 0.9717
-5.7546 -4.9762 -0.3163 0.9700
-4.5220 -5.5969 -0.2992 0.9716
-4.1457 -6.1858 -0.3096 0.9706
-4.0898 -7.4629 -0.3538 0.9665
-6.3212 -4.9918 -0.3349 0.9683
-5.3526 -5.0624 -0.3063 0.9709
-4.7587 -5.3808 -0.2987 0.9717
-4.3163 -5.8582 -0.3026 0.9713
-4.0302 -6.6346 -0.3228 0.9694
-4.1811 -7.6296 -0.5067 0.9657
-5.3701 -5.0790 -0.4305 0.9708
-4.3293 -5.8757 -0.4251 0.9712
-4.0532 -6.6725 -0.4547 0.9692
-4.5578 -5.6412 -0.5435 0.9713
-4.1895 -6.2511 -0.5639 0.9703
-6.4674 -5.1073 -0.6176 0.9675
-5.4022 -5.1094 -0.5572 0.9706
-4.3541 -5.9094 -0.5501 0.9710
-4.0885 -6.7306 -0.5902 0.9689
-5.8639 -5.0707 -0.7107 0.9693
-5.0995 -5.2728 -0.6725 0.9710
-4.5820 -5.6712 -0.6684 0.9711
3.3189 7.1521 -0.7228 0.9688
-6.5673 -5.1862 -0.7672 0.9669
-4.1245 -6.7899 -0.7283 0.9686
-5.9290 -5.1270 -0.8502 0.9690
-5.1339 -5.3085 -0.8010 0.9707
-4.2582 -6.3537 -0.8296 0.9697
3.3186 7.1514 -0.8551 0.9688
-6.9156 -5.4612 -0.9558 0.9652
-5.4788 -5.1818 -0.8180 0.9701
-4.4116 -5.9875 -0.8067 0.9705
-4.1847 -6.8890 -0.8743 0.9681
-6.0208 -5.2064 -0.9975 0.9684
-5.1854 -5.3617 -0.9347 0.9704
-4.8974 -5.5376 -0.9264 0.9706
-4.4589 -6.0517 -0.9420 0.9702
-4.2780 -7.0425 -1.0326 0.9673
-6.1501 -5.3182 -1.1565 0.9677
-5.2381 -5.4162 -1.0717 0.9700
-4.3694 -6.5196 -1.1163 0.9688
-4.9451 -5.5916 -1.0617 0.9703
-4.5074 -6.1175 -1.0808 0.9698
-4.4755 -7.3677 -1.2262 0.9658
-4.4717 -6.6722 -1.2790 0.9680
-4.5824 -6.2192 -1.2301 0.9692
-5.4078 -5.5916 -1.3716 0.9689
-4.8507 -6.0037 -1.3610 0.9691
-4.6219 -6.8963 -1.4638 0.9668
3.3174 7.1487 -1.3896 0.9685
-5.8483 -5.5313 -1.4194 0.9678
-5.5610 -5.7500 -1.5480 0.9679
12.8343 7.2204 -2.8497 0.9418
12.1399 8.3336 -2.8496 0.9418
11.3492 9.3804 -2.8493 0.9418
10.4684 10.3524 -2.8491 0.9418
4.9814 13.8462 -2.8476 0.9418
3.7289 14.2329 -2.8473 0.9418
2.4469 14.5065 -2.8469 0.9418
-2.7681 14.4412 -2.8455 0.9419
-4.0420 14.1358 -2.8452 0.9419
-5.2835 13.7183 -2.8448 0.9419
-6.4828 13.1921 -2.8445 0.9419
-8.7172 11.8311 -2.8439 0.9419
-10.6747 10.0961 -2.8433 0.9419
-12.2937 8.0422 -2.8429 0.9419
-13.5233 5.7344 -2.8426 0.9419
-5.2160 -5.8979 -1.5237 0.9684
10.9196 9.8762 -2.8492 0.9418
9.9964 10.8079 -2.8490 0.9418
8.9938 11.6537 -2.8487 0.9418
4.3594 14.0535 -2.8474 0.9418
3.0909 14.3840 -2.8471 0.9418
0.4915 14.7005 -2.8464 0.9418
-0.8188 14.6841 -2.8460 0.9418
-4.6674 13.9408 -2.8450 0.9419
-7.0636 12.8895 -2.8443 0.9419
-8.1819 12.2083 -2.8440 0.9419
-11.9237 8.5822 -2.8430 0.9419
-12.6394 7.4863 -2.8428 0.9419
-14.1490 -1.2643 -2.9948 0.9436
-13.9805 -2.5187 -2.9948 0.9436
-13.3132 -4.9579 -2.9950 0.9436
-11.5321 -8.3003 -2.9955 0.9436
-10.7484 -9.2944 -2.9957 0.9436
-5.8301 -6.0283 -1.7680 0.9663
-5.1524 -6.3773 -1.7284 0.9670
-7.9129 -11.8069 -2.9964 0.9436
-5.6953 -13.0254 -2.9970 0.9435
-2.0524 -14.0720 -2.9980 0.9435
0.4753 -14.2161 -2.9987 0.9435
1.7387 -14.1191 -2.9991 0.9435
4.2157 -13.5901 -2.9997 0.9435
5.4091 -13.1623 -3.0001 0.9435
10.5591 -9.5501 -3.0015 0.9435
11.3680 -8.5730 -3.0017 0.9435
14.1537 -1.5833 -3.0025 0.9434
14.2102 0.9513 -3.0025 0.9434
13.8160 3.4557 -3.0024 0.9434
12.3236 5.5528 -2.8496 0.9462
11.7798 6.6272 -2.8495 0.9462
11.1425 7.6489 -2.8493 0.9462
10.4168 8.6097 -2.8491 0.9463
9.6084 9.5020 -2.8489 0.9463
8.7238 10.3186 -2.8486 0.9463
7.7701 11.0531 -2.8484 0.9463
3.3167 7.1474 -1.6611 0.9683
2.2461 13.3157 -2.8469 0.9463
1.0519 13.4613 -2.8465 0.9463
-0.1504 13.4999 -2.8462 0.9463
-1.3512 13.4314 -2.8459 0.9463
-2.5410 13.2563 -2.8456 0.9463
-3.7104 12.9760 -2.8452 0.9463
-4.8501 12.5929 -2.8449 0.9463
-11.2859 7.3829 -2.8432 0.9464
-11.8975 6.3487 -2.8430 0.9464
-13.5207 4.3599 -2.9949 0.9436
-13.8546 3.1391 -2.9949 0.9436
-14.0787 1.8935 -2.9948 0.9436
-14.1912 0.6328 -2.9948 0.9436
-14.1912 -0.6328 -2.9948 0.9436
-13.8546 -3.1390 -2.9948 0.9436
-12.5344 -6.6886 -2.9952 0.9436
-11.1513 -8.8061 -2.9956 0.9436
-5.3963 -6.1017 -1.7173 0.9672
-3.9090 -13.6705 -2.9975 0.9435
-2.6770 -13.9657 -2.9979 0.9435
-1.4235 -14.1502 -2.9982 0.9435
-0.1584 -14.2224 -2.9986 0.9435
1.1082 -14.1817 -2.9989 0.9435
3.6060 -13.7636 -2.9996 0.9435
5.9904 -12.9090 -3.0002 0.9435
7.1164 -12.3259 -3.0005 0.9435
8.1860 -11.6447 -3.0008 0.9435
10.1228 -10.0106 -3.0014 0.9435
12.4104 -6.9820 -3.0020 0.9435
13.8159 -3.4556 -3.0024 0.9434
14.0690 -2.2122 -3.0025 0.9434
14.2102 -0.9512 -3.0025 0.9434
13.9564 2.8368 -3.0024 0.9434
13.6481 4.0676 -3.0024 0.9434
12.5590 4.9984 -2.8497 0.9462
12.0637 6.0961 -2.8495 0.9462
10.7904 8.1374 -2.8492 0.9463
10.0226 9.0649 -2.8490 0.9463
9.1752 9.9202 -2.8488 0.9463
8.2551 10.6965 -2.8485 0.9463
6.2266 11.9884 -2.8480 0.9463
5.1343 12.4937 -2.8477 0.9463
2.8372 13.2032 -2.8470 0.9463
0.4512 13.4940 -2.8464 0.9463
-4.2845 12.7972 -2.8451 0.9463
-5.4059 12.3637 -2.8448 0.9463
-8.4778 10.4931 -2.8439 0.9463
-10.2022 8.8222 -2.8435 0.9464
-10.9462 7.8786 -2.8433 0.9464
-11.6032 6.8726 -2.8431 0.9464
-12.7117 4.7339 -2.8597 0.9461
-13.7012 3.7532 -2.9949 0.9436
-14.1490 1.2644 -2.9948 0.9436
-13.0701 -1.1679 -2.9951 0.9476
-12.9145 -2.3266 -2.9951 0.9476
-12.6564 -3.4669 -2.9952 0.9476
-12.2980 -4.5798 -2.9953 0.9476
-11.8421 -5.6564 -2.9954 0.9476
-10.6527 -7.6673 -2.9957 0.9476
-9.9286 -8.5856 -2.9959 0.9476
-9.1257 -9.4359 -2.9961 0.9476
-8.2503 -10.2115 -2.9964 0.9476
-3.0447 -12.7762 -2.9978 0.9475
-1.8957 -12.9979 -2.9981 0.9475
4.9961 -12.1571 -3.0000 0.9475
9.7523 -8.8204 -3.0013 0.9475
10.4994 -7.9179 -3.0015 0.9475
11.1631 -6.9524 -3.0017 0.9475
11.7383 -5.9316 -3.0018 0.9475
12.2201 -4.8635 -3.0020 0.9475
12.8897 -2.6199 -3.0021 0.9475
13.0719 -1.4623 -3.0022 0.9475
13.1242 0.8786 -3.0022 0.9475
12.9937 2.0432 -3.0022 0.9475
10.8796 6.1208 -2.8492 0.9501
7.1765 10.2087 -2.8482 0.9501
6.2388 10.8060 -2.8480 0.9501
3.1614 12.0668 -2.8471 0.9501
0.9716 12.4335 -2.8465 0.9501
-1.2481 12.4062 -2.8459 0.9501
-4.4800 11.6320 -2.8450 0.9501
-5.4970 11.1860 -2.8448 0.9501
-8.2548 9.3338 -2.8440 0.9502
-9.0521 8.5614 -2.8438 0.9502
-9.7775 7.7212 -2.8436 0.9502
-10.4252 6.8199 -2.8434 0.9502
-11.4681 4.8629 -2.8431 0.9502
-12.7982 2.8997 -2.9951 0.9476
-13.1092 -0.5846 -2.9951 0.9476
-12.7982 -2.8996 -2.9951 0.9476
-12.4896 -4.0274 -2.9952 0.9476
-10.9833 -7.1849 -2.9956 0.9476
-10.3009 -8.1345 -2.9958 0.9476
-9.5366 -9.0197 -2.9960 0.9476
-8.6966 -9.8334 -2.9962 0.9476
-5.7912 -11.7847 -2.9970 0.9476
-4.7198 -12.2546 -2.9973 0.9475
-1.3149 -13.0702 -2.9982 0.9475
5.5329 -11.9231 -3.0001 0.9475
7.5607 -10.7552 -3.0007 0.9475
10.1359 -8.3775 -3.0014 0.9475
12.4249 -4.3144 -3.0020 0.9475
12.7600 -3.1915 -3.0021 0.9475
12.9937 -2.0431 -3.0022 0.9475
13.1503 0.2931 -3.0022 0.9475
12.8897 2.6200 -3.0021 0.9475
12.6051 3.7568 -3.0021 0.9475
10.5959 6.5992 -2.8491 0.9501
9.9659 7.5156 -2.8490 0.9501
9.2568 8.3723 -2.8488 0.9501
7.6245 9.8794 -2.8483 0.9501
6.7143 10.5179 -2.8481 0.9501
5.7510 11.0727 -2.8478 0.9501
4.7422 11.5395 -2.8475 0.9501
2.6206 12.1950 -2.8470 0.9501
1.5246 12.3786 -2.8467 0.9501
-0.6942 12.4501 -2.8461 0.9501
-2.8901 12.1272 -2.8455 0.9501
-3.9576 11.8207 -2.8452 0.9501
-4.9934 11.4204 -2.8449 0.9501
-5.9895 10.9295 -2.8446 0.9502
-7.8311 9.6927 -2.8441 0.9502
-8.6620 8.9565 -2.8439 0.9502
-9.4241 8.1493 -2.8437 0.9502
-10.1114 7.2778 -2.8435 0.9502
-12.2981 4.5799 -2.9953 0.9476
-12.6565 3.4670 -2.9952 0.9476
-12.1860 0.0000 -2.9953 0.9510
-11.9931 -2.1606 -2.9954 0.9510
-9.8925 -7.1202 -2.9959 0.9510
-9.2200 -7.9729 -2.9961 0.9510
-8.4744 -8.7625 -2.9963 0.9510
-4.8851 -11.1726 -2.9973 0.9510
-3.8717 -11.5641 -2.9975 0.9510
-2.8273 -11.8640 -2.9978 0.9510
2.5636 -11.9298 -2.9993 0.9510
3.6157 -11.6554 -2.9996 0.9510
6.5682 -10.2889 -3.0004 0.9510
7.4585 -9.6642 -3.0006 0.9510
9.0552 -8.1899 -3.0011 0.9510
9.7488 -7.3519 -3.0013 0.9509
10.3650 -6.4554 -3.0014 0.9509
10.8990 -5.5075 -3.0016 0.9509
11.3464 -4.5157 -3.0017 0.9509
11.7037 -3.4881 -3.0018 0.9509
11.9680 -2.4326 -3.0019 0.9509
12.1857 0.8158 -3.0020 0.9509
11.8477 2.9634 -3.0019 0.9509
10.1018 5.6832 -2.8490 0.9534
8.2399 8.1487 -2.8485 0.9534
7.4814 8.8491 -2.8483 0.9534
3.3161 7.1460 -1.9364 0.9681
3.9215 10.9000 -2.8473 0.9534
2.9355 11.2047 -2.8471 0.9534
0.9022 11.5454 -2.8465 0.9534
-0.1290 11.5787 -2.8462 0.9534
-2.1795 11.3702 -2.8457 0.9534
-3.1825 11.1300 -2.8454 0.9534
-6.8642 9.3162 -2.8444 0.9535
-7.6656 8.6677 -2.8442 0.9535
-9.6813 6.3332 -2.8436 0.9535
-11.1134 4.7125 -2.9671 0.9515
-11.8851 2.6928 -2.9954 0.9510
-11.2199 -4.7576 -2.9956 0.9510
-9.5658 -7.5540 -2.9960 0.9510
-7.2317 -9.8149 -2.9966 0.9510
-5.3778 -10.9434 -2.9971 0.9510
-4.3828 -11.3796 -2.9974 0.9510
-2.2961 -11.9787 -2.9980 0.9510
-1.2210 -12.1367 -2.9983 0.9510
7.8819 -9.3228 -3.0008 0.9510
8.6810 -8.5849 -3.0010 0.9510
9.4113 -7.7787 -3.0012 0.9510
12.0646 -1.8971 -3.0019 0.9509
12.1857 -0.8157 -3.0020 0.9509
11.9681 2.4326 -3.0019 0.9509
8.5951 7.7738 -2.8486 0.9534
3.4319 11.0633 -2.8472 0.9534
2.4333 11.3237 -2.8469 0.9534
1.4157 11.4943 -2.8466 0.9534
0.3870 11.5736 -2.8464 0.9534
-0.6446 11.5609 -2.8461 0.9534
-5.5619 10.1493 -2.8447 0.9534
-6.4427 9.6132 -2.8445 0.9535
-8.0438 8.3172 -2.8441 0.9535
-9.3898 6.7584 -2.8437 0.9535
-11.9931 2.1607 -2.9954 0.9510
-12.1377 1.0846 -2.9953 0.9510
-11.3682 0.0000 -2.9955 0.9541
-11.3231 -1.0118 -2.9955 0.9541
-11.1883 -2.0156 -2.9956 0.9541
-9.7826 -5.7942 -2.9959 0.9541
-8.6012 -7.4377 -2.9963 0.9541
-7.1471 -8.8460 -2.9967 0.9540
-6.3319 -9.4478 -2.9969 0.9540
-2.6375 -11.0672 -2.9979 0.9540
-0.6335 -11.3615 -2.9984 0.9540
0.3803 -11.3739 -2.9987 0.9540
2.3913 -11.1283 -2.9993 0.9540
3.3726 -10.8723 -2.9995 0.9540
5.2478 -10.1038 -3.0000 0.9540
9.6682 -6.0214 -3.0013 0.9540
11.1633 -2.2690 -3.0017 0.9540
11.3211 -1.2664 -3.0017 0.9540
11.3889 -0.2538 -3.0017 0.9540
11.3663 0.7609 -3.0017 0.9540
11.2534 1.7695 -3.0017 0.9540
11.0510 2.7641 -3.0016 0.9540
9.4226 5.3011 -2.8488 0.9563
8.9130 6.1184 -2.8487 0.9563
7.6860 7.6009 -2.8483 0.9563
6.9785 8.2542 -2.8481 0.9563
6.2157 8.8420 -2.8479 0.9563
5.4036 9.3594 -2.8477 0.9563
3.6580 10.1675 -2.8472 0.9563
-0.1203 10.8009 -2.8462 0.9563
-4.7618 9.6900 -2.8450 0.9563
-6.4034 8.6908 -2.8445 0.9563
-8.4703 6.6889 -2.8439 0.9563
-10.4670 4.4385 -2.9958 0.9541
-11.2669 1.5153 -2.9956 0.9541
-11.3569 0.5064 -2.9955 0.9541
-11.3569 -0.5064 -2.9955 0.9541
-11.0875 -2.5121 -2.9956 0.9541
-10.8201 -3.4890 -2.9957 0.9541
-9.5150 -6.2244 -2.9960 0.9541
-8.9237 -7.0470 -2.9962 0.9541
-7.5338 -8.5186 -2.9966 0.9540
-2.1419 -11.1742 -2.9980 0.9540
0.8866 -11.3462 -2.9988 0.9540
1.8931 -11.2233 -2.9991 0.9540
2.8848 -11.0112 -2.9994 0.9540
3.8538 -10.7117 -2.9997 0.9540
6.5484 -9.3153 -3.0004 0.9540
8.7786 -7.2557 -3.0010 0.9540
9.9270 -5.5848 -3.0013 0.9540
11.0510 -2.7640 -3.0016 0.9540
11.3663 -0.7608 -3.0017 0.9540
11.3211 1.2665 -3.0017 0.9540
11.1633 2.2691 -3.0017 0.9540
10.5836 4.2122 -3.0015 0.9540
9.1769 5.7155 -2.8487 0.9563
8.0172 7.2512 -2.8484 0.9563
7.3396 7.9355 -2.8482 0.9563
5.8155 9.1098 -2.8478 0.9563
4.9812 9.5904 -2.8476 0.9563
1.3206 10.7221 -2.8466 0.9563
0.3610 10.7961 -2.8463 0.9563
-0.6013 10.7844 -2.8461 0.9563
-2.5034 10.5049 -2.8456 0.9563
-3.4282 10.2395 -2.8453 0.9563
-4.3256 9.8929 -2.8451 0.9563
-7.5038 7.7589 -2.8442 0.9563
-9.2855 5.4999 -2.8437 0.9563
-11.1883 2.0157 -2.9956 0.9541
-11.3232 1.0119 -2.9955 0.9541
-10.6474 0.0001 -2.9957 0.9567
-10.4789 -1.8878 -2.9958 0.9567
-10.2695 -2.8131 -2.9958 0.9567
-9.6085 -4.5896 -2.9960 0.9567
-8.6433 -6.2210 -2.9963 0.9567
-8.0557 -6.9660 -2.9964 0.9567
-7.4042 -7.6558 -2.9966 0.9567
1.3029 -10.5790 -2.9990 0.9567
2.2395 -10.4219 -2.9992 0.9567
4.0526 -9.8614 -2.9997 0.9567
4.9146 -9.4622 -2.9999 0.9567
5.7377 -8.9880 -3.0002 0.9567
7.9100 -7.1542 -3.0008 0.9566
9.9112 -3.9446 -3.0013 0.9566
10.6443 0.7126 -3.0015 0.9566
7.8033 6.4496 -2.8484 0.9588
5.0605 8.7651 -2.8476 0.9588
3.2668 7.0397 -2.1835 0.9683
3.4257 9.5220 -2.8472 0.9588
2.5644 9.7883 -2.8469 0.9588
1.6829 9.9769 -2.8467 0.9588
0.7881 10.0862 -2.8465 0.9588
-1.0125 10.0644 -2.8460 0.9588
-1.9041 9.9335 -2.8457 0.9588
-3.6346 9.4370 -2.8453 0.9588
-5.9972 8.1396 -2.8446 0.9589
-6.6975 7.5729 -2.8444 0.9589
-7.3444 6.9463 -2.8442 0.9589
-7.9331 6.2648 -2.8441 0.9589
-8.9172 4.7585 -2.8438 0.9589
-10.1341 3.2679 -2.9959 0.9567
-10.3845 2.3528 -2.9958 0.9567
-10.6369 -0.4743 -2.9957 0.9567
-10.1341 -3.2678 -2.9959 0.9567
-9.8033 -4.1569 -2.9959 0.9567
-9.3947 -5.0132 -2.9961 0.9567
-8.3578 -6.6001 -2.9963 0.9567
-7.7376 -7.3182 -2.9965 0.9567
-6.3183 -8.5753 -2.9969 0.9567
-3.8291 -9.9421 -2.9976 0.9567
-2.9293 -10.2442 -2.9978 0.9567
-2.0060 -10.4652 -2.9981 0.9567
-0.1187 -10.6569 -2.9986 0.9567
3.6091 -10.0317 -2.9996 0.9567
5.3314 -9.2343 -3.0001 0.9567
7.5832 -7.4992 -3.0007 0.9567
8.2211 -6.7949 -3.0009 0.9566
8.7937 -6.0365 -3.0010 0.9566
9.2965 -5.2301 -3.0012 0.9566
10.0773 -3.4992 -3.0014 0.9566
10.5385 -1.6571 -3.0015 0.9566
10.6443 -0.7125 -3.0015 0.9566
10.6019 1.1860 -3.0015 0.9566
10.2233 3.0469 -3.0014 0.9566
9.9113 3.9446 -3.0013 0.9566
8.0831 6.0958 -2.8484 0.9588
6.8735 7.4315 -2.8481 0.9588
2.9980 9.6648 -2.8471 0.9588
2.1258 9.8924 -2.8468 0.9588
1.2367 10.0415 -2.8466 0.9588
0.3380 10.1109 -2.8463 0.9588
-1.4597 10.0089 -2.8459 0.9588
-2.3446 9.8384 -2.8456 0.9588
-4.8594 8.8673 -2.8449 0.9589
-5.6289 8.3989 -2.8447 0.9589
-7.6464 6.6121 -2.8442 0.9589
-9.6086 4.5897 -2.9960 0.9567
-10.2695 2.8131 -2.9958 0.9567
-10.4789 1.8879 -2.9958 0.9567
-9.9673 -0.8906 -2.9959 0.9591
-9.8486 -1.7743 -2.9959 0.9591
-9.6517 -2.6438 -2.9960 0.9591
-9.0305 -4.3135 -2.9962 0.9591
-8.6111 -5.1004 -2.9963 0.9591
-8.1233 -5.8468 -2.9964 0.9591
-6.9587 -7.1952 -2.9967 0.9591
-6.2910 -7.7865 -2.9969 0.9591
-5.5734 -8.3161 -2.9971 0.9591
-4.8114 -8.7797 -2.9973 0.9591
-4.0112 -9.1738 -2.9975 0.9591
-3.1790 -9.4951 -2.9977 0.9591
-2.3214 -9.7411 -2.9980 0.9590
-1.4453 -9.9099 -2.9982 0.9590
-0.5576 -10.0000 -2.9985 0.9590
0.3347 -10.0108 -2.9987 0.9590
2.1047 -9.7944 -2.9992 0.9590
3.8085 -9.2675 -2.9996 0.9590
4.6186 -8.8923 -2.9999 0.9590
5.3921 -8.4466 -3.0001 0.9590
6.1229 -7.9337 -3.0003 0.9590
7.4335 -6.7231 -3.0006 0.9590
8.0028 -6.0351 -3.0008 0.9590
8.9468 -4.5210 -3.0011 0.9590
9.3140 -3.7069 -3.0012 0.9590
9.6073 -2.8632 -3.0012 0.9590
9.9630 -1.1145 -3.0013 0.9590
10.0029 0.6696 -3.0014 0.9590
9.9035 1.5573 -3.0013 0.9590
9.7254 2.4325 -3.0013 0.9590
9.4701 3.2884 -3.0012 0.9590
9.1396 4.1181 -3.0011 0.9590
12.3783 6.9639 -4.2520 0.9424
5.4704 7.7817 -2.8477 0.9611
4.7557 8.2372 -2.8475 0.9611
3.2194 8.9486 -2.8471 0.9611
1.5816 9.3762 -2.8467 0.9611
-0.1059 9.5065 -2.8462 0.9611
-1.7895 9.3355 -2.8458 0.9611
-2.6131 9.1385 -2.8455 0.9611
-4.1913 8.5291 -2.8451 0.9611
-4.9335 8.1217 -2.8449 0.9611
-5.6364 7.6498 -2.8447 0.9611
-6.2945 7.1173 -2.8445 0.9611
-6.9026 6.5284 -2.8444 0.9611
-7.4558 5.8879 -2.8442 0.9611
-9.2136 3.9069 -2.9961 0.9591
-9.5245 3.0713 -2.9960 0.9591
-9.9178 1.3338 -2.9959 0.9591
-9.9971 -0.4458 -2.9959 0.9591
-9.9178 -1.3338 -2.9959 0.9591
-9.7598 -2.2113 -2.9960 0.9591
-9.2136 -3.9069 -2.9961 0.9591
-8.8296 -4.7116 -2.9962 0.9591
-7.8550 -6.2030 -2.9965 0.9591
-5.9381 -8.0593 -2.9970 0.9591
-4.4157 -8.9857 -2.9974 0.9591
-0.1116 -10.0153 -2.9986 0.9590
0.7803 -9.9863 -2.9988 0.9590
2.5390 -9.6913 -2.9993 0.9590
3.3918 -9.4275 -2.9995 0.9590
4.2177 -9.0889 -2.9998 0.9590
5.7632 -8.1982 -3.0002 0.9590
6.4705 -7.6533 -3.0004 0.9590
8.2639 -5.6728 -3.0009 0.9590
9.1395 -4.1180 -3.0011 0.9590
10.0028 -0.6696 -3.0014 0.9590
9.9631 1.1146 -3.0013 0.9590
9.8242 1.9969 -3.0013 0.9590
9.6073 2.8633 -3.0013 0.9590
6.4594 6.9838 -2.8480 0.9611
5.1181 8.0174 -2.8476 0.9611
3.6150 8.7966 -2.8472 0.9611
2.8175 9.0828 -2.8470 0.9611
1.9978 9.2968 -2.8468 0.9611
1.1623 9.4369 -2.8466 0.9611
0.3177 9.5021 -2.8463 0.9611
-0.5293 9.4919 -2.8461 0.9611
-2.2035 9.2462 -2.8456 0.9611
-7.7105 5.5497 -2.8441 0.9611
-8.1735 4.8412 -2.8440 0.9611
-9.0306 4.3136 -2.9962 0.9591
-9.3784 3.4926 -2.9961 0.9591
-9.6518 2.6439 -2.9960 0.9591
-9.9673 0.8907 -2.9959 0.9591
-9.4339 0.0000 -2.9961 0.9612
-9.2845 -1.6727 -2.9961 0.9612
-9.0989 -2.4925 -2.9961 0.9612
-8.1179 -4.8082 -2.9964 0.9612
-7.6580 -5.5119 -2.9965 0.9612
-7.1374 -6.1719 -2.9967 0.9612
-5.9306 -7.3404 -2.9970 0.9612
-5.2541 -7.8396 -2.9972 0.9612
1.1543 -9.3721 -2.9989 0.9611
4.3537 -8.3824 -2.9998 0.9611
6.4149 -6.9357 -3.0004 0.9611
7.5437 -5.6890 -3.0007 0.9611
8.0205 -4.9952 -3.0008 0.9611
9.0561 -2.6990 -3.0011 0.9611
9.2606 -1.8822 -3.0012 0.9611
9.3915 -1.0506 -3.0012 0.9611
9.1675 2.2930 -3.0011 0.9611
8.9268 3.0997 -3.0011 0.9611
8.6153 3.8819 -3.0010 0.9611
11.6683 6.5645 -4.2518 0.9454
6.9126 5.7134 -2.8481 0.9631
6.3763 6.3057 -2.8480 0.9631
5.7894 6.8478 -2.8478 0.9631
5.1567 7.3354 -2.8477 0.9631
4.4830 7.7648 -2.8475 0.9631
3.0348 8.4355 -2.8471 0.9631
-0.0998 8.9615 -2.8462 0.9631
-1.6869 8.8005 -2.8458 0.9631
-3.2201 8.3608 -2.8454 0.9631
-3.9512 8.0404 -2.8452 0.9631
-5.3135 7.2115 -2.8448 0.9631
-6.5072 6.1545 -2.8445 0.9631
-7.4945 4.9028 -2.8442 0.9631
-8.3239 4.4418 -2.9964 0.9612
-8.6859 3.6832 -2.9963 0.9612
-9.3498 1.2574 -2.9961 0.9612
-6.8555 -6.4839 -2.9967 0.9612
-6.2516 -7.0687 -2.9969 0.9612
-5.5979 -7.5975 -2.9971 0.9612
-4.8998 -8.0661 -2.9973 0.9612
-4.1627 -8.4708 -2.9975 0.9612
-3.3925 -8.8083 -2.9977 0.9612
-1.7772 -9.2716 -2.9981 0.9612
-0.1052 -9.4412 -2.9986 0.9611
0.7356 -9.4139 -2.9988 0.9611
1.5707 -9.3117 -2.9990 0.9611
3.1973 -8.8870 -2.9995 0.9611
3.9759 -8.5678 -2.9997 0.9611
4.7230 -8.1804 -2.9999 0.9611
6.0994 -7.2143 -3.0003 0.9611
7.2826 -6.0193 -3.0006 0.9611
7.7898 -5.3474 -3.0007 0.9611
8.2352 -4.6330 -3.0009 0.9611
8.9268 -3.0997 -3.0011 0.9611
9.1674 -2.2929 -3.0011 0.9611
9.4290 -0.6312 -3.0012 0.9611
9.2606 1.8823 -3.0012 0.9611
9.0561 2.6990 -3.0011 0.9611
11.9493 6.0383 -4.2519 0.9454
7.1604 5.3999 -2.8482 0.9631
6.6510 6.0156 -2.8481 0.9631
6.0889 6.5833 -2.8479 0.9631
5.4785 7.0987 -2.8477 0.9631
4.8246 7.5577 -2.8476 0.9631
3.6240 6.9773 -2.4970 0.9675
3.4077 8.2922 -2.8472 0.9631
1.8832 8.7638 -2.8468 0.9631
1.0956 8.8959 -2.8465 0.9631
-0.4989 8.9479 -2.8461 0.9631
-1.2932 8.8673 -2.8459 0.9631
-2.8445 8.4962 -2.8455 0.9631
-3.5892 8.2087 -2.8453 0.9631
-4.3053 7.8562 -2.8451 0.9631
-4.9871 7.4413 -2.8449 0.9631
-5.6293 6.9674 -2.8447 0.9631
-6.2267 6.4384 -2.8445 0.9631
-6.7747 5.8583 -2.8444 0.9631
-7.2689 5.2318 -2.8443 0.9631
-8.5134 4.0665 -2.9963 0.9612
-9.0990 2.4925 -2.9962 0.9612
-9.2846 1.6727 -2.9961 0.9612
-8.9177 0.0000 -2.9962 0.9631
-8.3574 -3.1123 -2.9963 0.9631
-8.0475 -3.8439 -2.9964 0.9631
-7.6737 -4.5451 -2.9965 0.9631
-6.7468 -5.8342 -2.9968 0.9631
-5.6060 -6.9387 -2.9971 0.9631
-4.9665 -7.4105 -2.9973 0.9631
-3.5743 -8.1747 -2.9976 0.9631
-2.8328 -8.4610 -2.9978 0.9630
-0.4969 -8.9107 -2.9985 0.9630
0.2982 -8.9202 -2.9987 0.9630
1.0911 -8.8588 -2.9989 0.9630
1.8754 -8.7272 -2.9991 0.9630
2.6449 -8.5262 -2.9993 0.9630
5.4556 -7.0689 -3.0001 0.9630
6.0634 -6.5557 -3.0003 0.9630
6.6232 -5.9903 -3.0004 0.9630
7.1304 -5.3772 -3.0006 0.9630
7.5810 -4.7214 -3.0007 0.9630
8.2986 -3.3028 -3.0009 0.9630
8.9123 0.5966 -3.0011 0.9630
8.6651 2.1673 -3.0010 0.9630
8.4376 2.9299 -3.0009 0.9630
8.1432 3.6691 -3.0009 0.9630
10.4324 7.1614 -4.2515 0.9480
6.0269 5.9602 -2.8479 0.9649
4.8742 6.9336 -2.8476 0.9649
3.2345 6.9702 -2.5817 0.9681
1.4092 8.3546 -2.8466 0.9649
0.6600 8.4462 -2.8464 0.9649
-0.0944 8.4708 -2.8462 0.9649
-0.8479 8.4282 -2.8460 0.9649
-2.3285 8.1432 -2.8456 0.9649
-3.7349 7.6003 -2.8452 0.9649
-4.3963 7.2372 -2.8450 0.9649
-5.0226 6.8168 -2.8449 0.9649
-6.1510 5.8176 -2.8446 0.9649
-6.6441 5.2468 -2.8444 0.9649
-7.2178 4.7217 -2.8979 0.9643
-7.8684 4.1988 -2.9965 0.9631
-8.2106 3.4817 -2.9964 0.9631
-8.4877 2.7370 -2.9963 0.9631
-8.6975 1.9706 -2.9963 0.9631
-8.9089 0.3973 -2.9962 0.9631
-8.9089 -0.3972 -2.9962 0.9631
-8.6974 -1.9706 -2.9963 0.9631
-8.4877 -2.7369 -2.9963 0.9631
-7.4637 -4.8825 -2.9966 0.9631
-6.9998 -5.5277 -2.9967 0.9631
-4.6316 -7.6246 -2.9973 0.9631
-3.2067 -8.3261 -2.9977 0.9631
-1.6799 -8.7640 -2.9982 0.9630
0.6953 -8.8984 -2.9988 0.9630
3.0222 -8.4003 -2.9994 0.9630
5.1351 -7.3047 -3.0000 0.9630
5.7652 -6.8191 -3.0002 0.9630
6.3496 -6.2792 -3.0003 0.9630
6.8836 -5.6895 -3.0005 0.9630
7.3630 -5.0544 -3.0006 0.9630
7.7840 -4.3791 -3.0007 0.9630
8.1431 -3.6691 -3.0008 0.9630
8.6651 -2.1672 -3.0010 0.9630
8.8237 -1.3875 -3.0010 0.9630
8.9300 0.1991 -3.0011 0.9630
8.2986 3.3028 -3.0009 0.9630
10.7413 6.6897 -4.2516 0.9480
6.2866 5.6860 -2.8480 0.9649
5.7553 6.2226 -2.8478 0.9649
4.5603 7.1436 -2.8475 0.9649
3.2211 7.8380 -2.8471 0.9649
2.5105 8.0930 -2.8469 0.9649
-1.2224 8.3818 -2.8459 0.9649
-2.6888 8.0311 -2.8455 0.9649
-3.3927 7.7594 -2.8453 0.9649
-4.7141 7.0340 -2.8450 0.9649
-5.3212 6.5861 -2.8448 0.9649
-7.6737 4.5452 -2.9965 0.9631
-8.0475 3.8440 -2.9964 0.9631
-8.3575 3.1124 -2.9964 0.9631
-8.6011 2.3561 -2.9963 0.9631
-8.8824 0.7938 -2.9962 0.9631
-8.4502 0.0000 -2.9963 0.9648
-8.3164 -1.4982 -2.9964 0.9648
-8.1502 -2.2325 -2.9964 0.9648
-7.6255 -3.6424 -2.9965 0.9648
-7.2713 -4.3068 -2.9966 0.9648
-6.3930 -5.5282 -2.9969 0.9648
-4.0626 -7.4133 -2.9975 0.9648
-3.3869 -7.7459 -2.9977 0.9648
-2.6842 -8.0172 -2.9979 0.9648
-0.4708 -8.4432 -2.9985 0.9647
1.7770 -8.2692 -2.9991 0.9647
2.5061 -8.0788 -2.9993 0.9647
3.2154 -7.8242 -2.9995 0.9647
3.8993 -7.5074 -2.9997 0.9647
4.5523 -7.1310 -2.9999 0.9647
5.7451 -6.2116 -3.0002 0.9647
6.7561 -5.0950 -3.0005 0.9647
7.1830 -4.4736 -3.0006 0.9647
7.5529 -3.8166 -3.0007 0.9647
7.8629 -3.1293 -3.0008 0.9647
8.1104 -2.4171 -3.0008 0.9647
8.2935 -1.6857 -3.0009 0.9647
8.4107 -0.9409 -3.0009 0.9647
8.4443 0.5653 -3.0009 0.9647
8.2101 2.0535 -3.0009 0.9647
7.9946 2.7760 -3.0008 0.9647
7.7156 3.4765 -3.0007 0.9647
7.3753 4.1493 -3.0006 0.9647
5.7106 5.6473 -2.8478 0.9665
5.1850 6.1328 -2.8477 0.9665
4.6183 6.5696 -2.8475 0.9665
4.0150 6.9542 -2.8473 0.9665
2.7181 7.5550 -2.8470 0.9665
2.0347 7.7664 -2.8468 0.9665
1.3353 7.9162 -2.8466 0.9665
0.6254 8.0031 -2.8464 0.9665
-0.0894 8.0264 -2.8462 0.9665
-0.8034 7.9861 -2.8460 0.9665
-2.2063 7.7160 -2.8456 0.9665
-2.8841 7.4885 -2.8455 0.9665
-3.5390 7.2017 -2.8453 0.9665
-4.1657 6.8577 -2.8451 0.9665
-5.8285 5.5126 -2.8447 0.9665
-8.0427 2.5935 -2.9964 0.9648
-8.3749 1.1263 -2.9963 0.9648
-8.4418 0.3765 -2.9963 0.9648
-8.4418 -0.3764 -2.9963 0.9648
-8.3749 -1.1263 -2.9963 0.9648
-7.7801 -3.2990 -2.9965 0.9648
-6.6328 -5.2378 -2.9968 0.9648
-6.1405 -5.8076 -2.9969 0.9648
-5.5995 -6.3314 -2.9971 0.9648
-5.0140 -6.8051 -2.9972 0.9648
-3.7284 -7.5872 -2.9976 0.9648
-3.0385 -7.8894 -2.9978 0.9648
-2.3244 -8.1290 -2.9980 0.9648
-0.8464 -8.4135 -2.9984 0.9647
-0.0942 -8.4560 -2.9986 0.9647
2.1436 -8.1821 -2.9992 0.9647
2.8636 -7.9594 -2.9994 0.9647
3.5608 -7.6734 -2.9996 0.9647
5.4626 -6.4612 -3.0001 0.9647
6.5222 -5.3908 -3.0004 0.9647
7.3753 -4.1493 -3.0006 0.9647
7.7156 -3.4765 -3.0007 0.9647
8.2101 -2.0534 -3.0009 0.9647
8.4443 -0.5652 -3.0009 0.9647
8.4611 0.1886 -3.0009 0.9647
10.1774 6.3385 -4.2514 0.9504
5.9566 5.3874 -2.8479 0.9665
5.4532 5.8960 -2.8477 0.9665
4.3210 6.7687 -2.8474 0.9665
2.3787 7.6683 -2.8469 0.9665
1.6867 7.8491 -2.8467 0.9665
-1.1583 7.9421 -2.8459 0.9665
-3.8562 7.0367 -2.8452 0.9665
-5.5773 5.7669 -2.8447 0.9665
-6.0681 5.2474 -2.8446 0.9665
-6.5667 4.7265 -2.8689 0.9662
-7.2714 4.3069 -2.9967 0.9648
-7.9193 2.9492 -2.9965 0.9648
-7.7396 -2.1201 -2.9965 0.9663
-7.2414 -3.4589 -2.9966 0.9663
-6.9050 -4.0898 -2.9967 0.9663
-5.5798 -5.7695 -2.9971 0.9663
-5.0444 -6.2435 -2.9972 0.9663
-4.4689 -6.6680 -2.9974 0.9663
-1.1588 -7.9454 -2.9983 0.9663
-0.4471 -8.0175 -2.9985 0.9663
0.9817 -7.9708 -2.9989 0.9663
4.3227 -6.7713 -2.9998 0.9663
5.9589 -5.3896 -3.0002 0.9663
6.8207 -4.2479 -3.0005 0.9663
7.4662 -2.9714 -3.0007 0.9663
7.8751 -1.6007 -3.0008 0.9663
7.9864 -0.8934 -3.0008 0.9663
8.0342 -0.1790 -3.0008 0.9663
8.0183 0.5368 -3.0008 0.9663
7.3264 3.3012 -3.0006 0.9663
7.0033 3.9400 -3.0005 0.9663
9.3860 6.4431 -4.2512 0.9526
3.2065 6.9099 -2.8445 0.9680
2.5810 7.1740 -2.8469 0.9680
1.9321 7.3748 -2.8468 0.9680
1.2680 7.5171 -2.8466 0.9680
-0.0849 7.6218 -2.8462 0.9680
-2.7388 7.1111 -2.8455 0.9680
-3.9558 6.5121 -2.8452 0.9680
-4.5194 6.1338 -2.8450 0.9680
-5.5348 5.2348 -2.8447 0.9680
-6.7161 4.3935 -2.9968 0.9663
-7.6375 2.4628 -2.9966 0.9663
-7.9530 1.0696 -2.9965 0.9663
-8.0165 -0.3575 -2.9964 0.9663
-7.9530 -1.0696 -2.9965 0.9663
-7.3882 -3.1328 -2.9966 0.9663
-7.0802 -3.7781 -2.9967 0.9663
-6.2986 -4.9739 -2.9969 0.9663
-5.8311 -5.5151 -2.9970 0.9663
-5.3174 -6.0124 -2.9972 0.9663
-4.7614 -6.4622 -2.9973 0.9663
-0.8037 -7.9894 -2.9984 0.9663
-0.0895 -8.0298 -2.9986 0.9663
0.6256 -8.0064 -2.9988 0.9663
1.3358 -7.9194 -2.9990 0.9663
2.0355 -7.7696 -2.9992 0.9663
2.7192 -7.5580 -2.9994 0.9663
4.6202 -6.5722 -2.9999 0.9663
5.7128 -5.6495 -3.0002 0.9663
6.1932 -5.1188 -3.0003 0.9663
6.6245 -4.5475 -3.0004 0.9663
7.0032 -3.9399 -3.0005 0.9663
7.3263 -3.3011 -3.0006 0.9663
7.7959 -1.9498 -3.0008 0.9663
7.9864 0.8935 -3.0008 0.9663
7.8751 1.6007 -3.0008 0.9663
7.7013 2.2953 -3.0007 0.9663
7.4663 2.9715 -3.0007 0.9663
6.8207 4.2480 -3.0005 0.9663
9.0896 6.8547 -4.2511 0.9526
5.1781 5.5986 -2.8477 0.9680
4.1030 6.4273 -2.8474 0.9680
3.5145 6.7666 -2.8472 0.9680
2.8981 7.0521 -2.8470 0.9680
0.9318 7.5658 -2.8465 0.9680
0.2547 7.6182 -2.8463 0.9680
-1.0999 7.5417 -2.8459 0.9680
-1.7667 7.4134 -2.8458 0.9680
-2.4194 7.2263 -2.8456 0.9680
-3.0527 6.9818 -2.8454 0.9680
-3.6618 6.6820 -2.8452 0.9680
-4.2418 6.3293 -2.8451 0.9680
-6.5138 4.6884 -2.9969 0.9663
-6.9050 4.0899 -2.9968 0.9663
-7.7396 2.1201 -2.9965 0.9663
-7.8975 1.4229 -2.9965 0.9663
-7.9927 0.7143 -2.9964 0.9663
-7.6351 0.0000 -2.9965 0.9677
-7.5142 -1.3537 -2.9966 0.9677
-6.8899 -3.2910 -2.9967 0.9677
-4.7995 -5.9404 -2.9973 0.9677
-3.6706 -6.6979 -2.9976 0.9677
-1.7709 -7.4310 -2.9981 0.9677
0.2553 -7.6362 -2.9987 0.9677
6.1035 -4.6029 -3.0003 0.9677
7.1034 -2.8271 -3.0006 0.9677
7.4924 -1.5229 -3.0007 0.9677
7.5528 1.1876 -3.0007 0.9677
6.9704 3.1407 -3.0005 0.9677
8.9300 6.1301 -4.2511 0.9545
8.3486 6.9003 -4.2509 0.9545
4.1723 5.9353 -2.8474 0.9693
3.6273 6.2827 -2.8472 0.9693
2.4556 6.8255 -2.8469 0.9693
0.5650 7.2305 -2.8464 0.9693
-2.6058 6.7659 -2.8455 0.9693
-3.1975 6.5067 -2.8454 0.9693
-3.7637 6.1960 -2.8452 0.9693
-4.3000 5.8361 -2.8451 0.9693
-4.8022 5.4299 -2.8449 0.9693
-5.2662 4.9808 -2.8448 0.9693
-6.7366 3.5948 -2.9968 0.9677
-7.0296 2.9808 -2.9967 0.9677
-7.2669 2.3433 -2.9967 0.9677
-7.4465 1.6872 -2.9966 0.9677
-5.0593 -5.7206 -2.9972 0.9677
-4.5302 -6.1485 -2.9974 0.9677
-3.3687 -6.8550 -2.9977 0.9677
-2.7453 -7.1280 -2.9979 0.9677
-2.1001 -7.3445 -2.9980 0.9677
-1.4382 -7.5028 -2.9982 0.9677
-0.7647 -7.6014 -2.9984 0.9677
-0.0851 -7.6398 -2.9986 0.9677
1.2710 -7.5348 -2.9990 0.9677
1.9367 -7.3922 -2.9991 0.9677
2.5871 -7.1909 -2.9993 0.9677
3.2170 -6.9325 -2.9995 0.9677
5.8923 -4.8701 -3.0002 0.9677
6.3026 -4.3265 -3.0003 0.9677
6.9703 -3.1407 -3.0005 0.9677
7.2224 -2.5078 -3.0006 0.9677
7.4170 -1.8551 -3.0006 0.9677
7.5528 -1.1876 -3.0007 0.9677
7.6438 0.1704 -3.0007 0.9677
7.5983 0.8500 -3.0007 0.9677
7.4924 1.5229 -3.0007 0.9677
7.3270 2.1837 -3.0006 0.9677
7.1034 2.8271 -3.0006 0.9677
6.4893 4.0416 -3.0004 0.9677
8.6479 6.5217 -4.2510 0.9545
4.9265 5.3265 -2.8476 0.9693
4.4327 5.7436 -2.8474 0.9693
3.3438 6.4379 -2.8472 0.9693
2.7573 6.7096 -2.8470 0.9693
2.1491 6.9279 -2.8468 0.9693
1.5238 7.0913 -2.8467 0.9693
0.8866 7.1983 -2.8465 0.9693
-0.4037 7.2406 -2.8461 0.9693
-1.0465 7.1755 -2.8460 0.9693
-1.6809 7.0534 -2.8458 0.9693
-2.9045 6.6429 -2.8455 0.9693
-3.4841 6.3576 -2.8453 0.9693
-4.0359 6.0220 -2.8451 0.9693
-4.5556 5.6386 -2.8450 0.9693
-5.0392 5.2105 -2.8449 0.9693
-5.4836 4.7419 -2.8452 0.9693
-6.8900 3.2911 -2.9968 0.9677
-7.1554 2.6647 -2.9967 0.9677
-7.3640 2.0172 -2.9966 0.9677
-7.5142 1.3538 -2.9966 0.9677
-7.6048 0.6796 -2.9966 0.9677
-7.2484 -0.6477 -2.9966 0.9690
-5.9072 -4.2517 -2.9970 0.9690
-5.5055 -4.7607 -2.9971 0.9690
-5.0601 -5.2321 -2.9972 0.9690
-4.5745 -5.6619 -2.9974 0.9690
-3.4985 -6.3840 -2.9977 0.9690
-1.0508 -7.2051 -2.9983 0.9690
-0.4054 -7.2705 -2.9985 0.9690
0.2433 -7.2781 -2.9987 0.9690
2.7687 -6.7371 -2.9994 0.9690
3.3575 -6.4643 -2.9995 0.9690
4.4509 -5.7672 -2.9998 0.9690
5.8172 -4.3869 -3.0002 0.9690
6.1847 -3.8519 -3.0003 0.9690
7.2417 -0.8101 -3.0006 0.9690
7.2851 -0.1623 -3.0006 0.9690
7.1984 1.1319 -3.0006 0.9690
7.0690 1.7681 -3.0006 0.9690
6.0070 4.1236 -3.0003 0.9690
7.9569 6.5766 -4.2508 0.9563
7.3397 7.2584 -4.2506 0.9563
4.4645 5.2807 -2.8475 0.9705
2.9103 6.2716 -2.8470 0.9705
2.3404 6.5054 -2.8469 0.9705
1.7520 6.6875 -2.8467 0.9705
-0.0770 6.9116 -2.8462 0.9705
-1.3011 6.7876 -2.8459 0.9705
-2.4836 6.4487 -2.8456 0.9705
-4.0984 5.5625 -2.8451 0.9706
-4.5771 5.1754 -2.8450 0.9706
-5.7120 4.5108 -2.9971 0.9690
-6.0906 3.9844 -2.9970 0.9690
-6.4209 3.4263 -2.9969 0.9690
-6.7002 2.8412 -2.9968 0.9690
-7.2700 0.3242 -2.9966 0.9690
-7.2700 -0.3242 -2.9966 0.9690
-7.0975 -1.6081 -2.9967 0.9690
-6.4209 -3.4262 -2.9969 0.9690
-6.0906 -3.9843 -2.9970 0.9690
-5.7120 -4.5107 -2.9971 0.9690
-5.2880 -5.0014 -2.9972 0.9690
-4.3179 -5.8602 -2.9974 0.9690
-1.3707 -7.1509 -2.9982 0.9690
1.8458 -7.0455 -2.9991 0.9690
2.4657 -6.8536 -2.9993 0.9690
3.0661 -6.6073 -2.9995 0.9690
3.6422 -6.3085 -2.9996 0.9690
4.1895 -5.9596 -2.9998 0.9690
5.6159 -4.6416 -3.0001 0.9690
6.0069 -4.1235 -3.0003 0.9690
6.3503 -3.5726 -3.0004 0.9690
6.6433 -2.9933 -3.0004 0.9690
6.8835 -2.3902 -3.0005 0.9690
7.0690 -1.7681 -3.0006 0.9690
7.1984 -1.1319 -3.0006 0.9690
7.2706 -0.4867 -3.0006 0.9690
7.2851 0.1624 -3.0006 0.9690
6.7701 2.6945 -3.0005 0.9690
6.5033 3.2863 -3.0004 0.9690
6.1848 3.8519 -3.0003 0.9690
8.2422 6.2157 -4.2509 0.9563
7.6559 6.9244 -4.2507 0.9563
4.2247 5.4742 -2.8474 0.9705
3.7206 5.8282 -2.8473 0.9705
3.1869 6.1359 -2.8471 0.9705
2.0483 6.6030 -2.8468 0.9705
0.2310 6.9083 -2.8463 0.9705
-0.3848 6.9011 -2.8461 0.9705
-0.9974 6.8390 -2.8460 0.9705
-1.6021 6.7227 -2.8458 0.9705
-2.1940 6.5531 -2.8456 0.9705
-3.3207 6.0596 -2.8453 0.9706
-3.8467 5.7397 -2.8452 0.9706
-4.8030 4.9663 -2.8449 0.9706
-6.5670 3.1369 -2.9968 0.9690
-6.9472 0.0000 -2.9967 0.9702
-6.9197 -0.6183 -2.9967 0.9702
-6.8372 -1.2318 -2.9968 0.9702
-6.2692 -2.9945 -2.9969 0.9702
-5.2558 -4.5448 -2.9972 0.9702
-4.8306 -4.9947 -2.9973 0.9702
-4.3670 -5.4051 -2.9974 0.9702
-3.8688 -5.7726 -2.9976 0.9702
-2.7842 -6.3677 -2.9979 0.9702
-2.2065 -6.5906 -2.9980 0.9702
-1.6113 -6.7612 -2.9982 0.9702
-1.0032 -6.8782 -2.9983 0.9702
-0.3870 -6.9405 -2.9985 0.9702
0.2323 -6.9478 -2.9987 0.9702
0.8498 -6.8999 -2.9988 0.9702
2.0600 -6.6407 -2.9992 0.9702
2.6430 -6.4313 -2.9993 0.9702
3.2051 -6.1709 -2.9995 0.9702
4.2488 -5.5053 -2.9998 0.9702
4.7222 -5.1056 -2.9999 0.9702
5.5530 -4.1877 -3.0001 0.9702
5.9039 -3.6770 -3.0002 0.9702
6.4627 -2.5721 -3.0004 0.9702
6.6661 -1.9867 -3.0004 0.9702
6.9543 -0.1549 -3.0005 0.9702
6.9405 0.4646 -3.0005 0.9702
6.8715 1.0805 -3.0005 0.9702
6.7480 1.6878 -3.0005 0.9702
6.3416 2.8574 -3.0004 0.9702
6.0620 3.4104 -3.0003 0.9702
7.0065 6.9288 -4.2506 0.9580
4.2618 5.0409 -2.8474 0.9717
3.7961 5.4000 -2.8473 0.9717
3.3002 5.7161 -2.8471 0.9717
2.7782 5.9869 -2.8470 0.9717
1.0976 6.5071 -2.8465 0.9717
0.5141 6.5786 -2.8464 0.9717
-0.6604 6.5648 -2.8461 0.9717
-1.2420 6.4796 -2.8459 0.9717
-1.8137 6.3430 -2.8457 0.9717
-2.3709 6.1560 -2.8456 0.9717
-4.3694 4.9406 -2.8450 0.9717
-5.8144 3.8036 -2.9971 0.9702
-6.1296 3.2709 -2.9970 0.9702
-6.3963 2.7123 -2.9969 0.9702
-6.6122 2.1322 -2.9968 0.9702
-6.7756 1.5352 -2.9968 0.9702
-6.8853 0.9260 -2.9968 0.9702
-6.9403 0.3095 -2.9967 0.9702
-6.8853 -0.9260 -2.9967 0.9702
-6.6121 -2.1321 -2.9968 0.9702
-6.3963 -2.7122 -2.9969 0.9702
-6.1296 -3.2709 -2.9969 0.9702
-5.4529 -4.3061 -2.9971 0.9702
-5.0482 -4.7745 -2.9972 0.9702
-3.6079 -5.9393 -2.9976 0.9702
-3.0651 -6.2372 -2.9978 0.9702
-2.4979 -6.4856 -2.9979 0.9702
-0.6958 -6.9162 -2.9984 0.9702
1.1564 -6.8555 -2.9989 0.9702
4.9450 -4.8902 -3.0000 0.9702
5.3609 -4.4308 -3.0001 0.9702
6.5709 -2.2816 -3.0004 0.9702
6.8715 -1.0805 -3.0005 0.9702
6.9405 -0.4646 -3.0005 0.9702
6.9543 0.1550 -3.0005 0.9702
6.9129 0.7733 -3.0005 0.9702
6.8165 1.3856 -3.0005 0.9702
6.4627 2.5721 -3.0004 0.9702
7.3083 6.6100 -4.2506 0.9580
0.8066 6.5494 -2.8465 0.9717
0.2205 6.5948 -2.8463 0.9717
-1.5294 6.4177 -2.8458 0.9717
-2.0944 6.2557 -2.8457 0.9717
-2.6428 6.0442 -2.8455 0.9717
-5.6392 4.0589 -2.9971 0.9702
-5.9779 3.5408 -2.9970 0.9702
-6.2692 2.9946 -2.9969 0.9702
-6.7005 1.8355 -2.9968 0.9702
-6.8372 1.2318 -2.9968 0.9702
-6.6153 -0.5911 -2.9968 0.9713
-6.5365 -1.1776 -2.9968 0.9713
-5.9934 -2.8628 -2.9970 0.9713
-5.7149 -3.3849 -2.9971 0.9713
-5.3911 -3.8803 -2.9971 0.9713
-5.0245 -4.3449 -2.9972 0.9713
-3.1928 -5.8262 -2.9977 0.9713
-2.6617 -6.0875 -2.9979 0.9713
-0.9590 -6.5754 -2.9984 0.9713
0.2221 -6.6420 -2.9987 0.9713
0.8124 -6.5962 -2.9988 0.9713
2.5266 -6.1482 -2.9993 0.9713
3.0640 -5.8992 -2.9995 0.9712
3.5771 -5.6033 -2.9996 0.9712
4.0618 -5.2629 -2.9997 0.9712
4.5143 -4.8807 -2.9998 0.9712
4.9310 -4.4597 -3.0000 0.9712
5.3085 -4.0033 -3.0001 0.9712
5.6439 -3.5151 -3.0002 0.9712
6.1781 -2.4588 -3.0003 0.9712
6.5163 -1.3245 -3.0004 0.9712
6.6084 -0.7392 -3.0004 0.9712
6.6480 -0.1481 -3.0004 0.9712
6.5689 1.0329 -3.0004 0.9712
6.4508 1.6135 -3.0004 0.9712
6.0623 2.7316 -3.0003 0.9712
5.4817 3.7630 -3.0001 0.9712
5.1248 4.2359 -3.0000 0.9712
6.6980 6.6237 -4.2505 0.9595
3.1549 5.4645 -2.8471 0.9727
2.6559 5.7234 -2.8470 0.9727
2.1358 5.9367 -2.8468 0.9727
1.0493 6.2207 -2.8465 0.9727
0.4914 6.2891 -2.8464 0.9727
-3.7404 5.0765 -2.8452 0.9727
-5.2130 4.1167 -2.9972 0.9713
-6.4776 1.4677 -2.9969 0.9713
-6.5824 0.8853 -2.9968 0.9713
-6.6350 0.2959 -2.9968 0.9713
-6.5824 -0.8852 -2.9968 0.9713
-6.3213 -2.0383 -2.9969 0.9713
-6.1149 -2.5929 -2.9970 0.9713
-5.8600 -3.1270 -2.9970 0.9713
-5.2130 -4.1166 -2.9972 0.9713
-2.9302 -5.9628 -2.9978 0.9713
-2.3880 -6.2002 -2.9980 0.9713
-1.8267 -6.3884 -2.9981 0.9713
0.5177 -6.6257 -2.9988 0.9713
1.1055 -6.5537 -2.9989 0.9713
1.6845 -6.4296 -2.9991 0.9713
2.2502 -6.2545 -2.9992 0.9713
3.3238 -5.7570 -2.9995 0.9712
4.2923 -5.0769 -2.9998 0.9712
5.4817 -3.7629 -3.0001 0.9712
5.7950 -3.2602 -3.0002 0.9712
6.0623 -2.7315 -3.0003 0.9712
6.2815 -2.1812 -3.0003 0.9712
6.6348 -0.4441 -3.0004 0.9712
6.6084 0.7393 -3.0004 0.9712
6.3725 1.8992 -3.0004 0.9712
6.1781 2.4588 -3.0003 0.9712
6.9865 6.3189 -4.2505 0.9595
3.3953 5.3187 -2.8472 0.9727
2.9083 5.5995 -2.8470 0.9727
2.3982 5.8358 -2.8469 0.9727
1.8692 6.0258 -2.8468 0.9727
1.3254 6.1679 -2.8466 0.9727
-0.3512 6.2979 -2.8461 0.9727
-0.9103 6.2414 -2.8460 0.9727
-2.0023 5.9804 -2.8457 0.9727
-5.0246 4.3449 -2.9973 0.9713
-5.7150 3.3850 -2.9971 0.9713
-5.9934 2.8628 -2.9970 0.9713
-6.4058 1.7547 -2.9969 0.9713
-6.5365 1.1776 -2.9968 0.9713
-6.3325 -0.5659 -2.9969 0.9723
-6.2571 -1.1272 -2.9969 0.9723
-6.1320 -1.6797 -2.9970 0.9723
-5.9582 -2.2189 -2.9970 0.9723
-5.7372 -2.7404 -2.9971 0.9723
-5.1607 -3.7144 -2.9972 0.9723
-4.4206 -4.5709 -2.9974 0.9723
-3.9964 -4.9464 -2.9975 0.9723
-3.0563 -5.5771 -2.9978 0.9723
-2.0193 -6.0312 -2.9981 0.9723
-1.4745 -6.1873 -2.9982 0.9723
0.7777 -6.3141 -2.9988 0.9723
1.3366 -6.2202 -2.9990 0.9723
2.4186 -5.8852 -2.9993 0.9723
3.4240 -5.3636 -2.9996 0.9723
4.3211 -4.6720 -2.9998 0.9723
4.7200 -4.2689 -2.9999 0.9722
6.2375 -1.2678 -3.0003 0.9722
6.2878 0.9887 -3.0003 0.9722
6.1748 1.5445 -3.0003 0.9722
5.8029 2.6147 -3.0002 0.9722
5.5471 3.1207 -3.0001 0.9722
5.2471 3.6020 -3.0001 0.9722
4.9056 4.0546 -3.0000 0.9722
6.4114 6.3403 -4.2504 0.9609
5.8214 6.8856 -4.2502 0.9609
1.5305 5.8419 -2.8467 0.9736
0.4704 6.0201 -2.8464 0.9737
-0.0673 6.0378 -2.8462 0.9737
-1.1366 5.9296 -2.8459 0.9737
-1.6598 5.8046 -2.8458 0.9737
-2.1697 5.6335 -2.8456 0.9737
-3.1339 5.1591 -2.8454 0.9737
-5.3446 7.2538 -4.2472 0.9609
-5.9688 6.7491 -4.2470 0.9609
-6.5456 6.1908 -4.2469 0.9609
-5.3210 3.4808 -2.9972 0.9723
-5.8535 2.4821 -2.9970 0.9723
-6.3011 0.8474 -2.9969 0.9723
-6.3011 -0.8474 -2.9969 0.9723
-6.2007 -1.4048 -2.9969 0.9723
-6.0511 -1.9512 -2.9970 0.9723
-5.8535 -2.4821 -2.9970 0.9723
-5.6095 -2.9933 -2.9971 0.9723
-5.3209 -3.4808 -2.9972 0.9723
-4.6198 -4.3693 -2.9974 0.9723
-2.8049 -5.7078 -2.9979 0.9723
-1.7486 -6.1153 -2.9981 0.9723
-0.0709 -6.3610 -2.9986 0.9723
0.4956 -6.3423 -2.9987 0.9723
1.0582 -6.2734 -2.9989 0.9723
1.6124 -6.1546 -2.9991 0.9723
2.1539 -5.9870 -2.9992 0.9723
3.6596 -5.2059 -2.9996 0.9723
4.1086 -4.8597 -2.9997 0.9723
4.5250 -4.4749 -2.9999 0.9722
4.9055 -4.0545 -3.0000 0.9722
5.8029 -2.6147 -3.0002 0.9722
6.1748 -1.5444 -3.0003 0.9722
6.2878 -0.9887 -3.0003 0.9722
6.3635 0.1418 -3.0004 0.9722
6.2375 1.2678 -3.0003 0.9722
6.0998 1.8180 -3.0003 0.9722
5.9137 2.3536 -3.0002 0.9722
5.6806 2.8706 -3.0002 0.9722
6.1224 6.6195 -4.2503 0.9609
3.2500 5.0911 -2.8471 0.9736
2.2957 5.5862 -2.8469 0.9736
-0.3361 6.0286 -2.8461 0.9737
-1.3996 5.8729 -2.8459 0.9737
-2.9010 5.2937 -2.8454 0.9737
-3.3605 5.0143 -2.8453 0.9737
-5.6623 7.0084 -4.2471 0.9609
-6.2635 6.4763 -4.2469 0.9609
-5.7372 2.7405 -2.9971 0.9723
-6.1320 1.6797 -2.9970 0.9723
-6.0690 -0.5423 -2.9970 0.9732
-5.7103 -2.1265 -2.9971 0.9732
-3.8301 -4.7405 -2.9976 0.9732
-1.9352 -5.7801 -2.9981 0.9732
-0.8798 -6.0322 -2.9984 0.9732
0.7453 -6.0512 -2.9988 0.9732
1.8066 -5.8238 -2.9991 0.9732
2.3178 -5.6402 -2.9992 0.9732
2.8108 -5.4117 -2.9994 0.9732
4.1412 -4.4773 -2.9997 0.9732
5.1774 -3.2245 -3.0000 0.9732
5.8457 -1.7422 -3.0002 0.9732
6.0984 -0.1359 -3.0003 0.9732
6.0863 0.4075 -3.0003 0.9732
6.0259 0.9476 -3.0003 0.9732
5.9176 1.4801 -3.0002 0.9732
5.5612 2.5058 -3.0002 0.9732
5.3160 2.9908 -3.0001 0.9732
5.5790 6.5988 -4.2502 0.9622
2.8942 5.0129 -2.8470 0.9745
1.4668 5.5987 -2.8466 0.9745
-0.0645 5.7864 -2.8462 0.9745
-0.5792 5.7574 -2.8461 0.9745
-1.0893 5.6827 -2.8459 0.9745
-1.5907 5.5629 -2.8458 0.9745
-2.0794 5.3990 -2.8457 0.9745
-3.0034 4.9444 -2.8454 0.9745
-5.3761 2.8688 -2.9972 0.9732
-5.7993 1.8701 -2.9971 0.9732
-5.9427 1.3464 -2.9970 0.9732
-6.0389 0.8122 -2.9970 0.9732
-6.0389 -0.8121 -2.9970 0.9732
-5.9427 -1.3464 -2.9970 0.9732
-5.6099 -2.3788 -2.9971 0.9732
-5.3761 -2.8687 -2.9972 0.9732
-5.0995 -3.3359 -2.9972 0.9732
-2.6882 -5.4702 -2.9979 0.9732
-2.1907 -5.6880 -2.9980 0.9732
-1.1476 -5.9869 -2.9983 0.9732
2.0642 -5.7377 -2.9992 0.9732
2.5668 -5.5314 -2.9993 0.9732
3.0491 -5.2812 -2.9994 0.9732
3.5072 -4.9891 -2.9996 0.9732
4.7012 -3.8856 -2.9999 0.9732
5.0286 -3.4519 -3.0000 0.9732
5.9176 -1.4801 -3.0002 0.9732
6.0259 -0.9475 -3.0003 0.9732
5.8457 1.7422 -3.0002 0.9732
5.6674 2.2556 -3.0002 0.9732
2.6679 5.1368 -2.8470 0.9745
1.7148 5.5279 -2.8467 0.9745
0.7074 5.7438 -2.8464 0.9745
0.1934 5.7837 -2.8463 0.9745
-0.8351 5.7257 -2.8460 0.9745
-1.3413 5.6284 -2.8459 0.9745
-1.8368 5.4864 -2.8457 0.9745
-2.7803 5.0734 -2.8455 0.9745
-4.8075 7.1733 -4.2473 0.9622
-6.0028 6.2068 -4.2470 0.9622
-4.6096 3.9861 -2.9974 0.9732
-5.4985 2.6264 -2.9971 0.9732
-5.7103 2.1266 -2.9971 0.9732
-5.8768 1.6099 -2.9970 0.9732
-6.0690 0.5424 -2.9970 0.9732
-5.8227 -0.5203 -2.9970 0.9741
-5.7534 -1.0365 -2.9971 0.9741
-5.4786 -2.0402 -2.9971 0.9741
-4.4225 -3.8243 -2.9974 0.9741
-3.2553 -4.8573 -2.9977 0.9741
-2.8102 -5.1279 -2.9979 0.9741
-1.8566 -5.5455 -2.9981 0.9741
-1.3558 -5.6889 -2.9982 0.9741
-0.8441 -5.7873 -2.9984 0.9741
-0.3256 -5.8398 -2.9985 0.9741
0.7150 -5.8055 -2.9988 0.9740
1.2290 -5.7191 -2.9990 0.9740
1.7332 -5.5873 -2.9991 0.9740
2.2237 -5.4111 -2.9992 0.9740
2.6966 -5.1919 -2.9994 0.9740
3.1482 -4.9315 -2.9995 0.9740
3.9730 -4.2955 -2.9997 0.9740
4.6719 -3.5232 -2.9999 0.9740
5.2229 -2.6392 -3.0000 0.9740
5.4371 -2.1639 -3.0001 0.9740
5.6082 -1.6714 -3.0002 0.9740
5.7348 -1.1656 -3.0002 0.9740
5.8159 -0.6506 -3.0002 0.9740
5.8507 -0.1304 -3.0002 0.9740
5.8391 0.3909 -3.0002 0.9740
5.7811 0.9090 -3.0002 0.9740
5.5282 1.9197 -3.0001 0.9740
5.3353 2.4040 -3.0001 0.9740
5.1001 2.8693 -3.0000 0.9740
4.8243 3.3117 -3.0000 0.9740
5.3524 6.3308 -4.2501 0.9634
4.1448 7.1789 -4.2498 0.9634
2.3375 5.0371 -2.8469 0.9753
0.4325 5.5352 -2.8464 0.9754
-0.0618 5.5514 -2.8462 0.9754
-4.3013 7.0809 -4.2475 0.9634
-5.4882 6.2056 -4.2471 0.9634
-4.8926 3.2006 -2.9973 0.9741
-5.3823 2.2823 -2.9972 0.9741
-5.5640 1.7942 -2.9971 0.9741
-5.7015 1.2918 -2.9971 0.9741
-5.7938 0.7792 -2.9970 0.9741
-4.8926 -3.2005 -2.9973 0.9741
-4.5884 -3.6234 -2.9974 0.9741
-4.2478 -4.0176 -2.9975 0.9741
-3.8735 -4.3798 -2.9976 0.9741
-3.4684 -4.7073 -2.9977 0.9741
-1.6078 -5.6228 -2.9982 0.9741
-1.1010 -5.7438 -2.9983 0.9741
-0.0652 -5.8486 -2.9986 0.9741
0.9730 -5.7680 -2.9989 0.9740
1.9804 -5.5046 -2.9992 0.9740
2.9253 -5.0667 -2.9994 0.9740
3.3648 -4.7864 -2.9995 0.9740
4.1604 -4.1143 -2.9998 0.9740
4.8243 -3.3117 -2.9999 0.9740
5.1000 -2.8692 -3.0000 0.9740
5.5282 -1.9196 -3.0001 0.9740
5.6772 -1.4199 -3.0002 0.9740
5.7811 -0.9090 -3.0002 0.9740
5.8507 0.1304 -3.0002 0.9740
5.8159 0.6506 -3.0002 0.9740
5.7348 1.1657 -3.0002 0.9740
5.6083 1.6715 -3.0002 0.9740
4.6719 3.5233 -2.9999 0.9740
4.3397 3.9251 -2.9998 0.9740
5.0649 6.5628 -4.2500 0.9634
4.4605 6.9873 -4.2499 0.9634
2.5596 4.9281 -2.8469 0.9753
1.6451 5.3034 -2.8467 0.9753
0.6787 5.5106 -2.8464 0.9754
-0.8012 5.4933 -2.8460 0.9754
-1.7623 5.2637 -2.8458 0.9754
-3.9817 7.2657 -4.2476 0.9634
-5.2065 6.4440 -4.2472 0.9634
-4.0647 4.2029 -2.9975 0.9741
-4.4225 3.8243 -2.9974 0.9741
-4.7452 3.4154 -2.9973 0.9741
-5.4786 2.0403 -2.9971 0.9741
-5.8227 0.5204 -2.9970 0.9741
-5.6142 0.0000 -2.9971 0.9749
-5.5253 -0.9954 -2.9971 0.9749
-5.4148 -1.4832 -2.9971 0.9749
-5.2614 -1.9594 -2.9972 0.9749
-5.0662 -2.4199 -2.9972 0.9749
-4.8308 -2.8613 -2.9973 0.9749
-4.2472 -3.6726 -2.9975 0.9749
-3.5289 -4.3678 -2.9977 0.9749
-3.1263 -4.6647 -2.9978 0.9749
-2.6988 -4.9246 -2.9979 0.9749
-1.3020 -5.4634 -2.9983 0.9749
-0.3127 -5.6081 -2.9985 0.9749
0.1877 -5.6140 -2.9987 0.9749
0.6867 -5.5752 -2.9988 0.9749
1.1802 -5.4923 -2.9989 0.9748
1.6644 -5.3656 -2.9991 0.9748
2.5896 -4.9859 -2.9993 0.9748
3.0233 -4.7358 -2.9994 0.9748
3.4329 -4.4481 -2.9996 0.9748
3.8153 -4.1251 -2.9997 0.9748
4.4865 -3.3835 -2.9998 0.9748
5.0156 -2.5345 -3.0000 0.9748
5.2214 -2.0780 -3.0000 0.9748
5.3857 -1.6051 -3.0001 0.9748
5.5073 -1.1194 -3.0001 0.9748
5.6185 -0.1252 -3.0002 0.9748
5.4519 1.3637 -3.0001 0.9748
5.3088 1.8435 -3.0001 0.9748
4.3313 3.5800 -2.9998 0.9748
3.9954 3.9512 -2.9997 0.9748
5.1400 6.0796 -4.2500 0.9645
3.3508 7.2207 -4.2496 0.9645
1.3514 5.1583 -2.8466 0.9761
0.8869 5.2578 -2.8465 0.9761
-0.0594 5.3313 -2.8462 0.9761
-0.5336 5.3046 -2.8461 0.9761
-1.0036 5.2358 -2.8460 0.9761
-3.5093 7.1411 -4.2477 0.9646
-4.7194 6.4053 -4.2474 0.9646
-3.7199 4.2062 -2.9976 0.9749
-4.0794 3.8583 -2.9975 0.9749
-5.1689 2.1918 -2.9972 0.9749
-5.3434 1.7230 -2.9972 0.9749
-5.5641 0.7483 -2.9971 0.9749
-5.6086 -0.2501 -2.9971 0.9749
-5.5641 -0.7483 -2.9971 0.9749
-5.4755 -1.2405 -2.9971 0.9749
-4.6986 -3.0737 -2.9973 0.9749
-4.0794 -3.8582 -2.9975 0.9749
-3.3309 -4.5207 -2.9977 0.9749
-2.9154 -4.7994 -2.9978 0.9749
-2.0184 -5.2407 -2.9981 0.9749
-1.5440 -5.3998 -2.9982 0.9749
-1.0573 -5.5161 -2.9983 0.9749
-0.5622 -5.5885 -2.9985 0.9749
-0.0626 -5.6166 -2.9986 0.9749
0.9344 -5.5392 -2.9989 0.9749
1.4237 -5.4343 -2.9990 0.9748
3.2313 -4.5966 -2.9995 0.9748
3.6277 -4.2909 -2.9996 0.9748
3.9954 -3.9511 -2.9997 0.9748
4.3313 -3.5799 -2.9998 0.9748
4.6329 -3.1802 -2.9999 0.9748
5.1236 -2.3085 -3.0000 0.9748
5.4519 -1.3636 -3.0001 0.9748
5.6074 -0.3754 -3.0002 0.9748
5.6185 0.1252 -3.0002 0.9748
5.5851 0.6248 -3.0002 0.9748
5.5073 1.1194 -3.0001 0.9748
5.3857 1.6052 -3.0001 0.9748
5.0156 2.5345 -3.0000 0.9748
4.4866 3.3835 -2.9999 0.9748
2.0270 4.9324 -2.8468 0.9761
1.5799 5.0930 -2.8467 0.9761
0.6518 5.2920 -2.8464 0.9761
0.1782 5.3287 -2.8463 0.9761
-0.2968 5.3232 -2.8462 0.9761
-1.2358 5.1858 -2.8459 0.9761
-1.6924 5.0550 -2.8458 0.9761
-3.1877 7.2905 -4.2478 0.9646
-5.0000 6.1886 -4.2473 0.9646
-4.5571 3.2800 -2.9974 0.9749
-4.8308 2.8613 -2.9973 0.9749
-5.2614 1.9594 -2.9972 0.9749
-5.4148 1.4833 -2.9972 0.9749
-5.5919 0.4997 -2.9971 0.9749
-5.3964 0.0000 -2.9972 0.9756
-5.0573 -1.8833 -2.9972 0.9756
-3.7521 -3.8796 -2.9976 0.9756
-2.5941 -4.7336 -2.9979 0.9756
-1.2515 -5.2513 -2.9983 0.9756
-0.7791 -5.3421 -2.9984 0.9756
-0.3006 -5.3905 -2.9985 0.9756
0.6600 -5.3589 -2.9988 0.9756
2.0526 -4.9947 -2.9992 0.9756
2.9059 -4.5520 -2.9994 0.9756
3.2996 -4.2754 -2.9995 0.9756
4.8209 -2.4361 -2.9999 0.9756
5.0187 -1.9973 -3.0000 0.9756
5.1766 -1.5428 -3.0000 0.9756
5.2934 -1.0759 -3.0001 0.9756
5.4004 -0.1203 -3.0001 0.9756
5.3897 0.3608 -3.0001 0.9756
5.3361 0.8391 -3.0001 0.9756
5.2402 1.3107 -3.0001 0.9756
5.1027 1.7719 -3.0000 0.9756
4.7076 2.6484 -2.9999 0.9756
4.4530 3.0569 -2.9998 0.9756
3.8403 3.7978 -2.9997 0.9756
3.4869 4.1244 -2.9996 0.9756
4.4006 6.2599 -4.2498 0.9656
3.8258 6.6265 -4.2497 0.9656
3.2207 6.9404 -4.2495 0.9656
2.5901 7.1993 -4.2494 0.9656
1.2989 4.9580 -2.8466 0.9768
0.3993 5.1094 -2.8463 0.9768
-0.0571 5.1244 -2.8462 0.9768
-0.5129 5.0988 -2.8461 0.9768
-2.7489 7.1374 -4.2479 0.9656
-3.3731 6.8641 -4.2477 0.9656
-3.9705 6.5363 -4.2476 0.9656
-4.5363 6.1568 -4.2474 0.9656
-3.5756 4.0431 -2.9977 0.9756
-4.2356 3.3448 -2.9975 0.9756
-4.5163 2.9545 -2.9974 0.9756
-4.7613 2.5407 -2.9973 0.9756
-5.3483 0.7193 -2.9972 0.9756
-5.3911 0.2404 -2.9972 0.9756
-5.3911 -0.2404 -2.9972 0.9756
-5.2631 -1.1925 -2.9972 0.9756
-5.1361 -1.6562 -2.9972 0.9756
-4.5163 -2.9544 -2.9974 0.9756
-4.2356 -3.3447 -2.9975 0.9756
-3.2017 -4.3453 -2.9977 0.9756
-2.3807 -4.8445 -2.9980 0.9756
-1.4842 -5.1903 -2.9982 0.9756
-1.0163 -5.3020 -2.9983 0.9756
0.4206 -5.3828 -2.9987 0.9756
0.8981 -5.3243 -2.9989 0.9756
1.3685 -5.2234 -2.9990 0.9756
1.8280 -5.0811 -2.9991 0.9756
3.4869 -4.1243 -2.9996 0.9756
3.8403 -3.7977 -2.9997 0.9756
4.1632 -3.4409 -2.9998 0.9756
5.1027 -1.7718 -3.0000 0.9756
5.2402 -1.3106 -3.0001 0.9756
5.3361 -0.8390 -3.0001 0.9756
5.3897 -0.3608 -3.0001 0.9756
4.8209 2.4361 -2.9999 0.9756
4.5848 2.8555 -2.9999 0.9756
4.0057 3.6230 -2.9997 0.9756
3.6672 3.9650 -2.9996 0.9756
4.6751 6.0578 -4.2499 0.9656
4.1173 6.4496 -4.2498 0.9656
2.9083 7.0769 -4.2494 0.9656
1.0768 5.0109 -2.8465 0.9768
0.6265 5.0866 -2.8464 0.9768
-0.2853 5.1166 -2.8462 0.9768
-1.1879 4.9846 -2.8459 0.9768
-3.0640 7.0076 -4.2478 0.9656
-3.3920 4.1984 -2.9977 0.9756
-3.7521 3.8797 -2.9976 0.9756
-4.0824 3.5302 -2.9975 0.9756
-4.3803 3.1528 -2.9974 0.9756
-5.0573 1.8834 -2.9973 0.9756
-5.1913 0.0000 -2.9972 0.9763
-5.1707 -0.4620 -2.9972 0.9763
-5.1091 -0.9204 -2.9972 0.9763
-4.4669 -2.6457 -2.9974 0.9763
-3.6095 -3.7322 -2.9976 0.9763
-2.4955 -4.5536 -2.9979 0.9763
-1.6487 -4.9243 -2.9982 0.9763
-1.2039 -5.0517 -2.9983 0.9763
-0.2891 -5.1855 -2.9985 0.9763
0.1736 -5.1909 -2.9987 0.9763
1.0913 -5.0783 -2.9989 0.9763
1.9745 -4.8047 -2.9992 0.9763
2.7954 -4.3789 -2.9994 0.9763
4.4104 -2.7468 -2.9998 0.9763
4.6375 -2.3434 -2.9999 0.9763
4.8277 -1.9214 -2.9999 0.9763
4.9797 -1.4841 -3.0000 0.9763
5.0921 -1.0350 -3.0000 0.9763
5.1949 -0.1157 -3.0000 0.9763
4.7373 2.1346 -2.9999 0.9763
4.5285 2.5477 -2.9999 0.9763
4.2836 2.9406 -2.9998 0.9763
4.0048 3.3101 -2.9997 0.9763
