ply
format ascii 1.0
element vertex 1590
property float32 x
property float32 y
property float32 z
property float32 I
end_header
0.4614 13.8005 -1.2659 0.9460
-0.7056 12.6545 -1.1619 0.9504
-1.6967 11.6335 -1.0778 0.9539
-2.5518 10.7079 -1.0092 0.9567
-3.9601 9.0571 -0.9062 0.9611
-4.5465 8.2963 -0.8673 0.9627
-5.0750 7.5725 -0.8357 0.9640
-6.3955 6.6129 -0.8434 0.9637
-6.8330 5.9088 -0.8282 0.9644
-7.2397 5.2109 -0.8178 0.9648
-7.6201 4.5134 -0.8119 0.9651
-7.9778 3.8107 -0.8105 0.9651
-8.3159 3.0969 -0.8135 0.9650
-4.1097 0.3673 -0.3783 0.9836
-9.4193 -1.6969 -1.0381 0.9622
-10.3230 -7.4301 -1.3796 0.9501
-9.8109 -8.4838 -1.4068 0.9492
-9.9147 -10.2517 -1.5469 0.9442
5.0628 0.7961 -0.5559 0.9796
5.6270 1.4074 -0.6291 0.9769
1.3965 8.2793 -0.9107 0.9668
1.0239 13.1027 -1.4255 0.9485
-0.1347 12.0891 -1.3113 0.9525
-1.1241 11.1745 -1.2182 0.9558
-1.9812 10.3360 -1.1415 0.9585
-4.5202 7.4413 -0.9444 0.9656
-5.3326 7.2375 -0.9751 0.9645
-5.8065 6.5656 -0.9507 0.9653
-6.2425 5.9042 -0.9320 0.9660
-8.0070 2.5819 -0.9125 0.9667
-3.7330 0.1665 -0.4053 0.9851
-9.3085 -1.2519 -1.0187 0.9629
-9.5268 -2.1585 -1.0595 0.9615
-9.9218 -4.2072 -1.1689 0.9576
-10.2526 -6.7069 -1.3289 0.9519
-9.8669 -9.3320 -1.4731 0.9468
4.8613 -0.3254 -0.5285 0.9806
4.9494 0.5537 -0.5402 0.9802
5.2503 1.0672 -0.5811 0.9787
1.6816 13.6537 -1.4922 0.9462
0.4207 12.5818 -1.3655 0.9506
-1.5674 10.7469 -1.1780 0.9572
-3.0754 9.1857 -1.0507 0.9618
-3.7012 8.4648 -1.0021 0.9635
-4.2611 7.7756 -0.9617 0.9650
-4.9939 7.4514 -0.9730 0.9646
-5.5747 6.8999 -0.9621 0.9649
-6.0289 6.2339 -0.9407 0.9657
-6.4480 5.5758 -0.9246 0.9663
-6.8366 4.9207 -0.9136 0.9667
-7.1987 4.2638 -0.9075 0.9669
-7.8552 2.9253 -0.9092 0.9668
-8.1544 2.2337 -0.9171 0.9666
-3.9949 0.7197 -0.4403 0.9838
-3.7414 0.3343 -0.4074 0.9850
-8.8570 -1.5956 -1.1278 0.9644
-9.0326 -2.4743 -1.1736 0.9629
-9.1892 -3.4221 -1.2288 0.9612
-9.3248 -4.4541 -1.2950 0.9592
-9.4364 -5.5892 -1.3744 0.9568
-9.3557 -8.0902 -1.5500 0.9514
-8.9952 -9.3010 -1.6215 0.9492
-8.9565 -11.0855 -1.7859 0.9442
4.8965 -0.5477 -0.6174 0.9803
4.8218 -0.1074 -0.6044 0.9807
0.9371 11.9928 -1.5075 0.9527
-1.0418 10.3556 -1.3043 0.9589
-1.8445 9.6229 -1.2279 0.9613
-2.5540 8.9318 -1.1642 0.9632
-3.7477 7.6264 -1.0649 0.9663
-4.3466 7.1556 -1.0492 0.9668
-5.9058 5.5858 -1.0187 0.9678
-6.2923 4.9691 -1.0048 0.9682
-6.6506 4.3506 -0.9959 0.9685
-6.9837 3.7266 -0.9920 0.9686
-7.2941 3.0930 -0.9928 0.9686
-7.5837 2.4455 -0.9986 0.9684
-4.3832 0.9931 -0.5632 0.9820
-3.5494 0.4774 -0.4488 0.9857
-9.1133 -2.9387 -1.2000 0.9621
-9.2598 -3.9265 -1.2604 0.9603
-9.4820 -6.2028 -1.4199 0.9554
-9.5490 -7.5408 -1.5248 0.9521
-8.9846 -10.1590 -1.6995 0.9468
5.4147 -1.3543 -0.6995 0.9778
4.8280 0.1076 -0.6052 0.9807
4.9232 0.5507 -0.6208 0.9802
1.5308 12.4291 -1.5693 0.9508
-0.5989 10.7410 -1.3481 0.9576
-1.4560 9.9834 -1.2643 0.9601
-3.4732 7.9434 -1.0864 0.9657
-4.0086 7.3148 -1.0453 0.9669
-6.1028 5.2774 -1.0111 0.9680
-6.8201 4.0396 -0.9933 0.9686
-7.4414 2.7712 -0.9951 0.9685
-3.5366 0.3160 -0.4450 0.9858
-3.3944 0.0000 -0.4828 0.9864
-8.7242 -4.1672 -1.3752 0.9617
-8.8298 -6.3553 -1.5474 0.9570
-8.4711 -8.7590 -1.7332 0.9520
-8.1250 -10.0563 -1.8389 0.9491
5.1088 -1.0384 -0.7415 0.9792
4.8752 -0.5454 -0.6978 0.9804
4.8004 -0.1070 -0.6830 0.9808
5.0058 0.7871 -0.7208 0.9797
3.3175 12.6627 -1.8619 0.9485
1.9926 11.8127 -1.7039 0.9528
0.8621 11.0323 -1.5740 0.9563
-0.1151 10.3279 -1.4691 0.9591
-1.7251 8.9995 -1.3034 0.9637
-4.2860 7.0558 -1.1742 0.9672
-4.7633 6.4648 -1.1422 0.9681
-5.9733 4.7171 -1.0826 0.9697
-6.6338 3.5399 -1.0695 0.9701
-6.9284 2.9379 -1.0704 0.9701
-7.2015 2.3222 -1.0762 0.9699
-4.1432 0.9387 -0.6042 0.9830
-3.3610 0.1499 -0.4785 0.9865
-3.4470 -0.1537 -0.4908 0.9862
-8.4317 -1.9103 -1.2297 0.9657
-8.5669 -2.7624 -1.2803 0.9643
-8.7629 -4.6760 -1.4128 0.9607
-8.8165 -5.7674 -1.4985 0.9583
-8.8331 -6.9754 -1.6009 0.9555
-8.0430 -10.9160 -1.9286 0.9467
4.8181 -0.3225 -0.6869 0.9807
4.8973 0.5478 -0.7009 0.9803
5.1835 1.0536 -0.7524 0.9789
2.6276 12.2280 -1.7790 0.9507
-2.0702 8.6871 -1.2702 0.9646
-2.7030 8.0736 -1.2110 0.9662
-3.7885 6.9131 -1.1213 0.9687
-5.4056 5.5894 -1.1060 0.9691
-6.1480 4.4251 -1.0774 0.9699
-6.4780 3.8370 -1.0709 0.9700
-6.7839 3.2404 -1.0693 0.9701
-7.0675 2.6320 -1.0727 0.9700
-3.6717 0.6615 -0.5307 0.9850
-3.3525 0.2996 -0.4787 0.9865
-7.9067 -1.4244 -1.2793 0.9680
-8.1251 -3.0258 -1.3806 0.9655
-8.1939 -3.9139 -1.4460 0.9639
-8.0872 -8.3621 -1.8524 0.9540
4.9956 0.7855 -0.8053 0.9797
5.5174 1.3800 -0.9056 0.9772
4.7252 13.1340 -2.2226 0.9450
3.0343 11.5819 -1.9065 0.9527
1.8358 10.8832 -1.7575 0.9563
0.7990 10.2255 -1.6332 0.9593
-1.6190 8.4464 -1.3695 0.9658
-2.2544 7.8842 -1.3058 0.9673
-2.8254 7.3361 -1.2518 0.9687
-3.3418 6.8005 -1.2066 0.9698
-4.0616 6.6864 -1.2457 0.9688
-4.5203 6.1351 -1.2135 0.9696
-5.6837 4.4884 -1.1532 0.9711
-6.0125 3.9332 -1.1441 0.9713
-6.3160 3.3704 -1.1400 0.9714
-6.8543 2.2102 -1.1468 0.9713
-7.9705 -1.8059 -1.3014 0.9674
-8.0801 -2.6055 -1.3519 0.9662
-8.2142 -6.4867 -1.6667 0.9585
-8.0137 -9.0612 -1.9262 0.9522
-7.5811 -10.2892 -2.0351 0.9496
4.9419 -0.7771 -0.7966 0.9799
4.7980 -0.3212 -0.7657 0.9807
4.7908 0.1068 -0.7631 0.9808
4.8888 0.5469 -0.7833 0.9803
5.1708 1.0510 -0.8402 0.9789
5.5713 13.5570 -2.3340 0.9424
3.9482 12.7276 -2.1220 0.9475
0.3320 9.9300 -1.5821 0.9606
-1.2737 8.7335 -1.4054 0.9649
-2.5473 7.6085 -1.2776 0.9680
-3.7641 6.8687 -1.2472 0.9688
-4.7351 5.8607 -1.1998 0.9699
-5.1382 5.3129 -1.1769 0.9705
-5.5092 4.7641 -1.1598 0.9709
-6.1672 3.6529 -1.1414 0.9714
-6.7279 2.5055 -1.1432 0.9713
-3.5501 0.6396 -0.5744 0.9855
-3.2817 -0.2932 -0.5810 0.9867
-7.5012 -1.3514 -1.3440 0.9695
-7.6026 -2.0825 -1.3899 0.9685
-7.6772 -2.8590 -1.4445 0.9673
-7.7331 -4.5803 -1.5848 0.9642
-7.7048 -5.5455 -1.6739 0.9622
-7.6302 -6.5981 -1.7787 0.9599
-7.3022 -9.0380 -2.0488 0.9539
5.0738 -1.0313 -0.9129 0.9792
5.5001 1.3757 -0.9997 0.9772
4.3195 12.0063 -2.2499 0.9495
1.7012 10.0855 -1.8035 0.9593
-0.1002 8.9992 -1.5869 0.9641
-0.8521 8.4704 -1.5011 0.9660
-2.1284 7.4434 -1.3651 0.9690
-2.6737 6.9422 -1.3117 0.9702
-3.8585 6.3520 -1.3105 0.9703
-4.2998 5.8358 -1.2782 0.9710
-5.4196 4.2799 -1.2177 0.9723
-5.7352 3.7518 -1.2084 0.9725
-6.5375 2.1081 -1.2112 0.9725
-3.1644 0.1411 -0.5585 0.9872
-3.3507 -0.4506 -0.5961 0.9864
-7.7321 -4.1259 -1.5453 0.9650
-7.5728 -7.1622 -1.8379 0.9585
-6.2525 -12.7233 -2.4997 0.9440
5.3389 -1.3353 -0.9704 0.9779
4.9336 -0.7758 -0.8806 0.9799
4.7924 -0.3208 -0.8469 0.9807
4.7838 0.1066 -0.8437 0.9808
5.1581 1.0484 -0.9281 0.9788
3.6233 11.6802 -2.1564 0.9515
1.0347 8.4015 -1.4926 0.9662
-0.4870 8.7335 -1.5423 0.9651
-1.8342 7.6968 -1.3952 0.9684
-2.9272 6.6949 -1.2884 0.9708
-4.8948 5.0612 -1.2415 0.9718
-5.5806 4.0167 -1.2124 0.9725
-5.8835 3.4848 -1.2057 0.9726
-6.1621 2.9434 -1.2041 0.9726
-3.1015 0.0000 -0.6002 0.9874
-3.1775 -0.2839 -0.6174 0.9871
-3.3117 -0.5966 -0.6512 0.9864
-7.2175 -1.9771 -1.4482 0.9700
-7.2993 -3.4866 -1.5654 0.9676
-7.2896 -4.3176 -1.6395 0.9661
-7.2396 -5.2108 -1.7262 0.9643
-6.4681 -9.6510 -2.2483 0.9538
-6.0268 -10.9975 -2.4268 0.9502
5.0754 -1.0316 -1.0023 0.9791
4.8436 -0.5418 -0.9432 0.9803
4.7726 -0.1063 -0.9238 0.9807
6.9994 12.1233 -2.7090 0.9446
5.3762 11.5854 -2.4716 0.9493
2.7573 10.5246 -2.1054 0.9566
0.6971 8.9209 -1.7316 0.9642
-0.0941 8.4475 -1.6348 0.9662
-1.4396 7.5104 -1.4799 0.9693
-2.0150 7.0470 -1.4184 0.9706
-4.0988 5.5629 -1.3372 0.9722
-5.7595 3.0734 -1.2633 0.9738
-6.2471 2.0144 -1.2702 0.9736
-3.1048 0.4176 -0.6062 0.9873
-3.1273 -0.1394 -0.6058 0.9873
-7.2494 -2.3376 -1.4740 0.9694
-7.2907 -3.0915 -1.5325 0.9683
-7.2991 -3.8949 -1.6010 0.9669
-7.0737 -6.6902 -1.8842 0.9611
-6.8889 -7.7894 -2.0123 0.9585
-5.7100 -11.6194 -2.5054 0.9486
4.9316 -0.7754 -0.9661 0.9799
4.7769 0.1065 -0.9246 0.9807
5.1454 1.0459 -1.0161 0.9788
7.9113 12.3928 -2.8452 0.9419
6.1568 11.8541 -2.5849 0.9470
1.0303 8.3654 -1.6311 0.9662
-0.4579 8.2118 -1.5916 0.9670
-2.2821 6.8164 -1.3911 0.9711
-2.8879 6.6049 -1.3950 0.9711
-4.2980 5.3197 -1.3235 0.9725
-5.3325 3.8381 -1.2714 0.9736
-5.8898 2.8134 -1.2631 0.9738
-4.1641 1.1407 -0.8355 0.9826
-3.3306 0.6000 -0.6549 0.9863
-3.0639 0.2738 -0.5953 0.9875
-3.0211 0.0000 -0.6369 0.9877
-6.8674 -1.8812 -1.5011 0.9713
-6.9086 -2.5728 -1.5542 0.9703
-6.8919 -4.0820 -1.6887 0.9678
-6.8249 -4.9122 -1.7728 0.9662
-5.9937 -8.9432 -2.2697 0.9569
-5.5742 -10.1715 -2.4453 0.9537
-4.9525 -11.3267 -2.6062 0.9507
-4.2908 -12.8158 -2.8492 0.9463
4.8394 -0.5414 -1.0266 0.9803
4.9698 0.7815 -1.0606 0.9796
5.5185 1.3803 -1.1993 0.9770
8.0519 11.4540 -2.9517 0.9444
2.5671 9.7984 -2.1354 0.9594
0.6544 8.3743 -1.7708 0.9662
-0.0886 7.9563 -1.6774 0.9680
-0.7581 7.5352 -1.5966 0.9695
-1.3634 7.1126 -1.5268 0.9708
-2.5232 6.5515 -1.4801 0.9717
-3.5048 5.7696 -1.4232 0.9728
-4.2909 4.8518 -1.3655 0.9739
-4.6369 4.3856 -1.3455 0.9742
-4.9549 3.9129 -1.3310 0.9745
-5.2469 3.4324 -1.3218 0.9747
-5.9797 1.9283 -1.3246 0.9746
-3.5520 0.8048 -0.7678 0.9852
-3.1545 -0.4242 -0.6710 0.9871
-6.8359 -1.5488 -1.4777 0.9718
-6.9097 -3.6871 -1.6511 0.9685
-6.8639 -4.4901 -1.7291 0.9670
-6.1611 -8.3619 -2.1897 0.9584
-5.8026 -9.5523 -2.3562 0.9553
-4.6413 -12.0508 -2.7225 0.9486
5.3581 -1.3401 -1.1644 0.9777
4.7810 -0.3200 -1.0102 0.9806
4.8632 0.5440 -1.0317 0.9802
5.1511 1.0470 -1.1082 0.9787
4.2933 10.4471 -2.3812 0.9549
3.1072 10.0167 -2.2110 0.9580
1.9325 8.9930 -1.9392 0.9631
1.0294 8.3585 -1.7755 0.9662
0.2730 8.1658 -1.7225 0.9672
-0.4319 7.7460 -1.6356 0.9688
-1.0682 7.3241 -1.5604 0.9702
-2.8199 6.4492 -1.4839 0.9716
-3.7140 5.5417 -1.4064 0.9731
-4.1067 5.0829 -1.3776 0.9736
-4.4676 4.6194 -1.3548 0.9741
-4.7993 4.1501 -1.3376 0.9744
-5.1041 3.6737 -1.3258 0.9746
-5.6391 2.6936 -1.3175 0.9748
-4.0001 1.0957 -0.8744 0.9832
-2.9810 0.2664 -0.6310 0.9878
-3.1642 -0.5701 -0.7338 0.9869
-6.5476 -1.7936 -1.5495 0.9725
-6.5760 -2.4489 -1.6016 0.9716
-6.4527 -4.6443 -1.8146 0.9679
-6.1450 -6.3538 -2.0175 0.9644
-5.9007 -7.3034 -2.1430 0.9622
-5.5815 -8.3281 -2.2883 0.9597
5.0787 -1.0323 -1.1829 0.9790
4.8352 -0.5409 -1.1105 0.9802
4.9813 0.7833 -1.1509 0.9795
9.0232 10.6727 -3.1899 0.9443
7.3463 10.4503 -2.9156 0.9489
4.5770 9.8631 -2.4818 0.9564
3.4260 9.5227 -2.3099 0.9593
-1.2944 6.7527 -1.5693 0.9722
-1.8707 6.5423 -1.5531 0.9725
-2.4504 6.3624 -1.5562 0.9724
-2.9193 5.9407 -1.5108 0.9732
-3.3496 5.5143 -1.4726 0.9739
-4.4424 4.2017 -1.3956 0.9752
-5.0305 3.2908 -1.3720 0.9756
-3.4289 0.7769 -0.8025 0.9857
-2.9453 0.1313 -0.6729 0.9880
-2.9994 -0.1337 -0.6853 0.9878
-3.0959 -0.4163 -0.7130 0.9873
-6.5223 -1.4778 -1.5264 0.9729
-6.4982 -4.2509 -1.7723 0.9686
-5.7513 -7.8057 -2.2130 0.9610
-5.3894 -8.8721 -2.3693 0.9583
-4.8637 -9.8972 -2.5170 0.9558
-4.2605 -11.0620 -2.7056 0.9525
-2.6630 -13.8925 -3.2286 0.9436
5.3678 -1.3426 -1.2629 0.9776
4.9275 -0.7748 -1.1385 0.9797
8.1568 10.5691 -3.0472 0.9467
6.5871 10.3186 -2.7941 0.9510
3.9846 9.6958 -2.3926 0.9579
2.8987 9.3444 -2.2331 0.9607
0.9938 8.0691 -1.8556 0.9672
-0.4086 7.3275 -1.6750 0.9703
-1.5684 6.5812 -1.5442 0.9726
-2.1858 6.5286 -1.5714 0.9721
-3.9305 4.8649 -1.4275 0.9747
-4.2789 4.4244 -1.4048 0.9751
-4.5991 3.9770 -1.3878 0.9754
-5.4073 2.5829 -1.3677 0.9757
-5.6298 2.0966 -1.3712 0.9757
-3.8726 1.0608 -0.9165 0.9837
-6.1165 -4.4024 -1.8524 0.9694
-5.7911 -5.9880 -2.0476 0.9663
-5.5411 -6.8583 -2.1672 0.9643
-5.2198 -7.7884 -2.3046 0.9621
-4.8145 -8.7854 -2.4624 0.9596
-4.2373 -9.6910 -2.5998 0.9574
-3.6122 -10.7891 -2.7966 0.9542
-2.8596 -11.9995 -3.0321 0.9505
-1.9414 -13.3112 -3.3065 0.9461
5.0973 -1.0361 -1.2785 0.9788
4.8444 -0.5419 -1.1982 0.9801
4.7732 -0.1064 -1.1735 0.9805
4.9929 0.7851 -1.2423 0.9794
8.2283 9.7325 -3.1326 0.9489
5.4336 9.4114 -2.6712 0.9562
3.2020 8.9001 -2.3249 0.9618
-2.7916 5.6808 -1.5558 0.9743
-3.2066 5.2789 -1.5182 0.9749
-3.9395 4.4545 -1.4617 0.9758
-4.5586 3.5999 -1.4277 0.9764
-5.0772 2.7093 -1.4145 0.9766
-5.3016 2.2481 -1.4154 0.9766
-5.5035 1.7747 -1.4213 0.9765
-3.3132 0.7507 -0.8350 0.9861
-2.8899 0.3887 -0.7167 0.9881
-2.8978 0.1292 -0.7130 0.9881
-2.9494 -0.1315 -0.7257 0.9879
-3.0389 -0.4087 -0.7537 0.9874
-6.2688 -2.6582 -1.6737 0.9723
-6.2370 -3.3281 -1.7377 0.9713
-6.1672 -4.0343 -1.8114 0.9701
-5.8927 -5.5733 -1.9936 0.9671
-4.5376 -9.2337 -2.5289 0.9585
-3.2548 -11.3826 -2.9100 0.9524
-1.4087 -14.0028 -3.4593 0.9437
5.4060 -1.3521 -1.3697 0.9773
4.7773 0.1065 -1.1746 0.9805
4.8805 0.5460 -1.2071 0.9800
5.1836 1.0536 -1.3002 0.9784
9.0354 9.7690 -3.2708 0.9467
0.2436 7.2869 -1.7921 0.9704
-1.5651 6.5673 -1.6594 0.9726
-2.5707 5.8793 -1.5772 0.9739
-3.0035 5.4807 -1.5362 0.9746
-4.4136 3.8167 -1.4342 0.9763
-4.9564 2.9357 -1.4160 0.9766
-5.4053 2.0130 -1.4178 0.9765
-3.8036 1.0419 -0.9694 0.9839
-3.0843 0.5557 -0.7703 0.9872
-2.8807 0.2574 -0.7109 0.9882
-2.8744 0.0000 -0.7574 0.9882
-3.0385 -0.5474 -0.8135 0.9873
-5.9923 -2.2315 -1.6849 0.9739
-5.9689 -2.8511 -1.7430 0.9730
-5.9100 -3.5005 -1.8099 0.9720
-5.6679 -4.9012 -1.9744 0.9695
-5.4734 -5.6594 -2.0746 0.9680
-4.8996 -7.3108 -2.3190 0.9642
-4.5003 -8.2120 -2.4675 0.9620
-3.3446 -9.9897 -2.7759 0.9574
-1.7731 -12.1572 -3.2373 0.9504
4.8585 -0.5435 -1.2882 0.9800
4.7843 -0.1066 -1.2610 0.9804
6.2399 8.8764 -2.8590 0.9561
3.0040 8.3497 -2.3382 0.9640
2.1214 8.0972 -2.2056 0.9660
1.3189 7.8188 -2.0894 0.9677
-2.2386 5.8124 -1.6412 0.9746
-2.6737 5.4408 -1.5974 0.9752
-3.0743 5.0610 -1.5603 0.9758
-3.4432 4.6732 -1.5295 0.9763
-4.3812 3.4598 -1.4710 0.9772
-4.6430 3.0374 -1.4620 0.9773
-4.8814 2.6048 -1.4579 0.9774
-5.9918 -1.9321 -1.6589 0.9743
-5.8659 -3.8373 -1.8470 0.9714
-5.7456 -4.5372 -1.9291 0.9702
-5.3547 -6.0546 -2.1298 0.9671
-5.0691 -6.8798 -2.2518 0.9653
-4.2530 -8.6546 -2.5410 0.9609
-3.6537 -9.4867 -2.6787 0.9588
-3.0046 -10.5078 -2.8798 0.9558
-2.2217 -11.5906 -3.1097 0.9524
-1.2819 -12.7422 -3.3745 0.9484
5.4666 -1.3673 -1.4848 0.9770
4.9587 -0.7797 -1.3227 0.9795
4.7871 0.1067 -1.2617 0.9804
11.5121 8.6817 -3.7993 0.9421
8.2686 8.9399 -3.2088 0.9509
4.5005 8.6650 -2.5728 0.9604
2.5521 8.2271 -2.2697 0.9650
1.7107 7.9609 -2.1456 0.9669
0.2399 7.1756 -1.8918 0.9707
-0.3844 6.8939 -1.8194 0.9718
-2.0071 5.9949 -1.6658 0.9742
-2.4606 5.6276 -1.6184 0.9749
-2.8781 5.2519 -1.5781 0.9755
-3.2626 4.8681 -1.5442 0.9761
-3.6165 4.4762 -1.5163 0.9765
-4.2412 3.6675 -1.4774 0.9771
-4.5151 3.2498 -1.4659 0.9773
-4.7651 2.8224 -1.4593 0.9774
-4.9920 2.3845 -1.4578 0.9774
-3.0018 0.5408 -0.8037 0.9875
-2.8348 0.2533 -0.7499 0.9883
-2.8279 0.0000 -0.7957 0.9883
-2.8819 -0.2575 -0.8141 0.9880
-5.7336 -1.5706 -1.6726 0.9756
-5.7037 -2.7244 -1.7784 0.9741
-5.6377 -3.3392 -1.8436 0.9731
-5.3842 -4.6559 -2.0027 0.9709
-5.1863 -5.3626 -2.0990 0.9695
-4.9323 -6.1047 -2.2082 0.9679
-4.6141 -6.8848 -2.3319 0.9661
-3.6969 -8.4549 -2.5963 0.9624
-1.6307 -11.1807 -3.1791 0.9541
-0.6794 -12.1841 -3.4334 0.9506
5.1573 -1.0483 -1.4807 0.9784
4.8727 -0.5451 -1.3795 0.9798
4.7955 -0.1069 -1.3496 0.9803
9.6969 8.0147 -3.5396 0.9491
8.2796 8.1879 -3.2763 0.9528
6.9825 8.2590 -3.0429 0.9561
4.7162 8.1687 -2.6538 0.9616
3.7291 8.0359 -2.4925 0.9639
1.2492 7.4059 -2.1131 0.9693
0.5580 7.1407 -2.0152 0.9707
-0.0764 6.8555 -1.9290 0.9719
-1.6895 5.9084 -1.7290 0.9748
-2.1446 5.5685 -1.6789 0.9755
-2.5644 5.2184 -1.6359 0.9761
-3.3082 4.4900 -1.5691 0.9771
-3.9388 3.7253 -1.5254 0.9777
-4.4688 2.9233 -1.5024 0.9781
-2.7751 0.3732 -0.7878 0.9884
-2.8062 0.1251 -0.7903 0.9884
-2.8531 -0.1272 -0.8035 0.9882
-2.9298 -0.3940 -0.8317 0.9878
-3.2049 -1.0334 -0.9474 0.9861
-5.7233 -2.4269 -1.7491 0.9745
-5.5904 -3.6571 -1.8796 0.9726
-5.4643 -4.3151 -1.9590 0.9715
-4.7818 -6.4899 -2.2681 0.9671
-4.4281 -7.2896 -2.3997 0.9652
-3.9917 -8.1228 -2.5465 0.9631
-3.4120 -8.8589 -2.6710 0.9613
-1.1746 -11.6757 -3.3016 0.9524
5.5791 -1.3954 -1.6181 0.9764
4.8157 -0.3224 -1.3580 0.9801
4.9018 0.5483 -1.3878 0.9797
5.2566 1.0685 -1.5092 0.9780
10.4525 7.8826 -3.6834 0.9471
4.2114 8.1083 -2.5707 0.9627
3.2682 7.9526 -2.4191 0.9649
2.4064 7.7573 -2.2852 0.9668
1.6181 7.5299 -2.1669 0.9685
0.8961 7.2760 -2.0626 0.9700
0.2341 7.0004 -1.9707 0.9713
-0.9330 6.3971 -1.8189 0.9735
-2.3588 5.3947 -1.6566 0.9758
-3.1334 4.6755 -1.5836 0.9769
-3.4759 4.3022 -1.5561 0.9773
-3.7910 3.9199 -1.5343 0.9776
-4.5865 2.7167 -1.4998 0.9781
-4.8051 2.2953 -1.4983 0.9781
-5.0015 1.8626 -1.5016 0.9781
-3.6502 0.9999 -1.0648 0.9844
-2.7824 0.0000 -0.8330 0.9884
-2.8308 -0.2529 -0.8509 0.9882
-2.9224 -0.5265 -0.8890 0.9877
-5.4588 -2.6074 -1.8111 0.9751
-5.3872 -3.1907 -1.8745 0.9742
-5.2775 -3.7985 -1.9467 0.9732
-5.1253 -4.4321 -2.0286 0.9721
-4.9256 -5.0930 -2.1212 0.9708
-4.6721 -5.7827 -2.2257 0.9694
-4.3578 -6.5023 -2.3434 0.9678
-3.9745 -7.2526 -2.4760 0.9661
-3.4801 -7.9593 -2.6007 0.9644
-2.2648 -9.5035 -2.9248 0.9600
0.4034 -12.0663 -3.6144 0.9508
4.8872 -0.5467 -1.4723 0.9797
4.8104 -0.1072 -1.4405 0.9801
4.8532 0.3249 -1.4562 0.9799
5.0702 0.7973 -1.5366 0.9788
11.6825 6.5725 -4.0130 0.9456
10.2485 7.0352 -3.7215 0.9494
8.9022 7.3579 -3.4576 0.9529
7.6477 7.5630 -3.2200 0.9561
4.4203 7.6562 -2.6467 0.9638
3.5085 7.5606 -2.4953 0.9658
-0.0728 6.5375 -1.9573 0.9731
-0.6298 6.2609 -1.8839 0.9741
-1.6189 5.6616 -1.7629 0.9757
-2.4628 5.0116 -1.6717 0.9770
-3.5004 3.9580 -1.5819 0.9782
-3.7929 3.5873 -1.5629 0.9784
-4.5275 2.4160 -1.5364 0.9788
-4.7273 2.0046 -1.5372 0.9788
-4.9051 1.5817 -1.5430 0.9787
-2.7619 0.1232 -0.8277 0.9885
-2.8066 -0.1251 -0.8411 0.9883
-2.9771 -0.6745 -0.9139 0.9873
-3.1092 -1.0026 -0.9780 0.9865
-5.4275 -2.8962 -1.8418 0.9746
-5.2070 -4.1119 -1.9864 0.9727
-5.0318 -4.7590 -2.0734 0.9715
-4.8060 -5.4341 -2.1718 0.9702
-3.7540 -7.6392 -2.5483 0.9651
-3.1987 -8.3052 -2.6644 0.9635
-1.0835 -10.7698 -3.2406 0.9558
-0.1296 -11.6340 -3.4832 0.9526
2.2487 -13.3311 -4.0474 0.9451
4.9985 -0.7860 -1.5149 0.9791
4.8304 -0.3234 -1.4494 0.9800
8.2634 7.4738 -3.3357 0.9545
5.9369 7.6926 -2.9091 0.9602
3.0802 7.4953 -2.4260 0.9667
0.2230 6.6689 -1.9977 0.9725
-0.3569 6.4014 -1.9194 0.9736
-0.8921 6.1165 -1.8505 0.9745
-1.8425 5.5034 -1.7375 0.9761
-2.6536 4.8423 -1.6531 0.9772
-3.0131 4.4959 -1.6203 0.9777
-3.3446 4.1397 -1.5933 0.9780
-3.6498 3.7738 -1.5717 0.9783
-4.1861 3.0130 -1.5441 0.9787
-4.4194 2.6176 -1.5377 0.9788
-4.6302 2.2117 -1.5362 0.9788
-4.8189 1.7946 -1.5395 0.9788
-3.5598 0.9751 -1.1050 0.9847
-2.7380 0.0000 -0.8695 0.9886
-2.8694 -0.5170 -0.9259 0.9878
-5.0425 -3.6294 -1.9731 0.9743
-4.8880 -4.2268 -2.0522 0.9732
-4.6875 -4.8468 -2.1414 0.9721
-4.4357 -5.4901 -2.2416 0.9708
-3.2890 -7.5222 -2.6073 0.9661
-2.7272 -8.1457 -2.7281 0.9646
-2.1153 -8.8763 -2.8979 0.9624
-0.5776 -10.3582 -3.2947 0.9574
0.3708 -11.0914 -3.5244 0.9545
1.4540 -11.8057 -3.7776 0.9513
2.6792 -12.4682 -4.0501 0.9479
4.8850 0.3270 -1.5549 0.9797
5.1113 0.8037 -1.6432 0.9785
13.2757 4.6098 -4.4631 0.9427
8.2216 6.7954 -3.3875 0.9562
7.1003 7.0217 -3.1714 0.9590
6.0493 7.1552 -2.9757 0.9614
4.1569 7.2000 -2.6403 0.9657
3.3107 7.1344 -2.4978 0.9675
2.5266 7.0227 -2.3703 0.9692
1.8005 6.8723 -2.2562 0.9706
0.5062 6.4788 -2.0638 0.9731
-0.6027 5.9907 -1.9122 0.9750
-1.9764 5.1317 -1.7464 0.9772
-2.3680 4.8187 -1.7051 0.9777
-2.7301 4.4943 -1.6700 0.9782
-3.9157 3.0922 -1.5846 0.9793
-4.1524 2.7165 -1.5759 0.9794
-4.3669 2.3303 -1.5720 0.9794
-2.9791 0.6750 -0.9701 0.9873
-2.6672 0.3587 -0.8547 0.9888
-2.7612 -0.1231 -0.8778 0.9885
-3.1071 -1.0019 -1.0368 0.9864
-4.9707 -3.9253 -2.0115 0.9738
-4.5684 -5.1656 -2.1900 0.9715
-4.2887 -5.8206 -2.2961 0.9701
-3.9478 -6.4990 -2.4149 0.9686
0.8952 -11.4560 -3.6493 0.9529
2.0485 -12.1441 -3.9113 0.9496
4.7913 -13.3177 -4.4949 0.9423
5.0458 -0.7934 -1.6222 0.9788
4.8463 0.1080 -1.5395 0.9799
4.9694 0.5559 -1.5880 0.9792
5.3861 1.0948 -1.7455 0.9772
12.6131 5.0199 -4.3113 0.9446
11.3014 5.7109 -4.0214 0.9482
10.0275 6.2452 -3.7517 0.9516
8.8078 6.6423 -3.5035 0.9548
6.5660 7.0991 -3.0710 0.9602
5.5503 7.1917 -2.8851 0.9626
4.6044 7.2127 -2.7176 0.9647
3.7258 7.1735 -2.5671 0.9666
2.1565 6.9519 -2.3116 0.9699
1.4579 6.7845 -2.2039 0.9713
-0.3412 6.1201 -1.9467 0.9746
-1.3292 5.5775 -1.8209 0.9762
-2.1760 4.9767 -1.7250 0.9775
-3.2217 3.9876 -1.6281 0.9787
-3.5174 3.6370 -1.6069 0.9790
-3.7888 3.2763 -1.5908 0.9792
-4.0369 2.9056 -1.5796 0.9793
-3.4730 0.9513 -1.1436 0.9850
-2.6945 0.0000 -0.9053 0.9887
-2.7374 -0.2446 -0.9234 0.9885
-2.8177 -0.5076 -0.9620 0.9880
-4.6694 -4.0378 -2.0740 0.9743
-4.4693 -4.6211 -2.1599 0.9732
-3.9161 -5.8432 -2.3633 0.9708
-3.5513 -6.4803 -2.4828 0.9693
-3.1131 -7.1198 -2.6108 0.9677
-2.5693 -7.6740 -2.7190 0.9664
-1.9831 -8.3212 -2.8741 0.9645
-1.3095 -8.9786 -3.0486 0.9624
0.3430 -10.2582 -3.4485 0.9576
3.6830 -11.8729 -4.1766 0.9489
5.0287 -12.2367 -4.4449 0.9457
5.3801 -1.0935 -1.8446 0.9771
9.7893 5.5074 -3.7738 0.9537
8.6895 5.9650 -3.5412 0.9565
5.6649 6.7004 -2.9480 0.9637
4.7646 6.7777 -2.7836 0.9656
1.0755 6.3760 -2.1725 0.9731
0.4835 6.1875 -2.0852 0.9742
-0.5775 5.7404 -1.9384 0.9759
-1.0519 5.4877 -1.8773 0.9767
-1.4922 5.2187 -1.8237 0.9774
-1.9007 4.9351 -1.7768 0.9779
-2.6299 4.3294 -1.7019 0.9789
-2.9539 4.0091 -1.6731 0.9792
-3.5275 3.3363 -1.6313 0.9797
-4.0084 2.6222 -1.6093 0.9800
-4.2158 2.2496 -1.6055 0.9800
-4.5660 1.4724 -1.6119 0.9800
-2.6272 0.5952 -0.9051 0.9887
-2.6180 0.3521 -0.8875 0.9889
-2.6762 0.1193 -0.9001 0.9888
-2.7751 -0.3732 -0.9408 0.9883
-5.0793 -1.6378 -1.7931 0.9777
-4.7526 -3.7531 -2.0347 0.9748
-4.5751 -4.3271 -2.1158 0.9738
-3.3439 -6.8046 -2.5473 0.9685
-1.6581 -8.6503 -2.9593 0.9635
-0.9361 -9.3048 -3.1420 0.9613
3.0523 -11.6503 -4.0464 0.9504
4.3423 -12.0696 -4.3096 0.9473
5.1025 -0.8023 -1.7354 0.9784
4.8783 0.1087 -1.6394 0.9796
5.0045 0.5598 -1.6919 0.9790
5.5690 1.1319 -1.9093 0.9763
12.6015 3.7557 -4.4179 0.9460
10.3497 5.2299 -3.8961 0.9522
8.1538 6.1490 -3.4312 0.9578
7.1201 6.4398 -3.2256 0.9603
4.3357 6.7917 -2.7072 0.9666
3.5197 6.7767 -2.5656 0.9683
2.7581 6.7115 -2.4379 0.9698
0.7741 6.2851 -2.1276 0.9736
0.2034 6.0839 -2.0452 0.9746
-1.2762 5.3551 -1.8496 0.9770
-2.0936 4.7883 -1.7558 0.9782
-2.4580 4.4853 -1.7184 0.9786
-3.1064 3.8448 -1.6607 0.9794
-4.1148 2.4372 -1.6068 0.9800
-4.4865 1.6708 -1.6085 0.9800
-2.6265 0.7195 -0.9150 0.9886
-2.7169 0.4895 -0.9275 0.9884
-2.6931 -0.2406 -0.9588 0.9886
-2.8417 -0.7784 -1.0448 0.9876
-4.8244 -2.3044 -1.8958 0.9776
-4.6240 -3.3281 -2.0201 0.9761
-4.4674 -3.8631 -2.0942 0.9752
-3.7242 -5.5569 -2.3720 0.9720
-3.3689 -6.1475 -2.4857 0.9707
-1.2272 -8.4142 -3.0151 0.9646
0.3188 -9.5342 -3.3826 0.9603
1.2368 -10.0421 -3.5877 0.9580
4.5810 -11.1471 -4.2734 0.9501
5.5509 -1.1283 -2.0085 0.9762
5.0200 -0.5616 -1.7911 0.9788
4.9103 -0.1094 -1.7416 0.9794
5.2619 0.8274 -1.8887 0.9776
11.0064 3.8219 -4.1313 0.9518
10.0270 4.5179 -3.8997 0.9544
7.1159 5.8814 -3.2735 0.9616
5.3228 6.2958 -2.9233 0.9656
4.4920 6.3900 -2.7696 0.9674
3.7078 6.4221 -2.6295 0.9690
2.9704 6.4010 -2.5022 0.9705
1.6316 6.2278 -2.2828 0.9730
1.0269 6.0877 -2.1891 0.9741
0.4625 5.9185 -2.1050 0.9751
-0.5541 5.5076 -1.9628 0.9768
-1.8298 4.7511 -1.8053 0.9786
-2.1962 4.4692 -1.7657 0.9791
-2.5358 4.1745 -1.7319 0.9795
-3.4063 3.2217 -1.6625 0.9803
-3.8725 2.5333 -1.6409 0.9806
-4.0732 2.1736 -1.6371 0.9806
-2.5615 0.5804 -0.9313 0.9889
-2.5748 0.3463 -0.9212 0.9890
-2.6733 -0.1192 -0.9489 0.9887
-2.8709 -0.9257 -1.0696 0.9873
-4.8534 -2.0580 -1.8693 0.9779
-4.7874 -2.5546 -1.9241 0.9772
-4.6876 -3.0664 -1.9862 0.9765
-4.1513 -4.6940 -2.2220 0.9738
-3.1679 -6.4465 -2.5470 0.9700
-2.6897 -6.9837 -2.6536 0.9687
-1.5568 -8.1216 -2.9322 0.9655
0.7653 -9.7942 -3.4835 0.9592
2.8029 -10.6984 -3.9215 0.9541
3.9664 -11.0248 -4.1546 0.9515
5.2149 -11.2378 -4.3929 0.9488
7.8867 -11.2190 -4.8627 0.9435
5.1695 -0.8129 -1.8555 0.9780
4.9435 -0.3309 -1.7568 0.9792
5.0692 0.5671 -1.8087 0.9786
10.5192 4.1866 -4.0145 0.9531
5.7552 6.2225 -3.0054 0.9647
4.9016 6.3512 -2.8447 0.9665
4.0940 6.4132 -2.6979 0.9682
2.6189 6.3728 -2.4431 0.9712
0.7398 6.0065 -2.1459 0.9746
-0.3133 5.6184 -1.9953 0.9764
-0.7864 5.3921 -1.9322 0.9771
-1.2267 5.1476 -1.8764 0.9778
-1.6361 4.8869 -1.8274 0.9784
-2.3693 4.3233 -1.7481 0.9793
-2.6960 4.0227 -1.7171 0.9797
-2.9978 3.7105 -1.6914 0.9800
-3.5311 3.0535 -1.6553 0.9804
-3.9755 2.3548 -1.6384 0.9806
-4.1656 1.9898 -1.6369 0.9806
-2.5828 0.7075 -0.9496 0.9887
-2.7171 -0.4895 -1.0309 0.9883
-2.7878 -0.7637 -1.0794 0.9877
-4.4367 -3.1933 -2.0412 0.9769
-3.8400 -4.7528 -2.2816 0.9742
-2.7976 -6.3983 -2.6076 0.9706
-1.1538 -7.9111 -2.9854 0.9664
-0.4695 -8.4203 -3.1491 0.9646
0.2975 -8.8991 -3.3249 0.9627
1.1497 -9.3351 -3.5122 0.9606
2.0871 -9.7126 -3.7096 0.9585
4.2023 -10.2258 -4.1283 0.9539
6.5498 -10.2602 -4.5454 0.9494
7.7560 -10.0497 -4.7403 0.9472
8.9404 -9.6663 -4.9167 0.9453
11.0835 -8.3584 -5.1837 0.9424
13.3796 -3.9875 -5.2133 0.9421
13.4172 -2.7272 -5.1126 0.9432
5.1028 -0.5708 -1.9173 0.9783
4.9737 -0.1108 -1.8577 0.9790
5.3893 0.8474 -2.0372 0.9770
10.1242 3.5155 -4.0019 0.9553
8.3882 4.7191 -3.5939 0.9597
7.5121 5.1568 -3.4024 0.9618
6.6601 5.5048 -3.2265 0.9638
5.0162 5.9333 -2.9012 0.9674
3.5146 6.0875 -2.6248 0.9704
2.8227 6.0829 -2.5040 0.9718
2.1705 6.0330 -2.3942 0.9730
1.5573 5.9441 -2.2945 0.9741
0.9819 5.8213 -2.2044 0.9751
0.4430 5.6691 -2.1233 0.9760
-0.9719 5.0702 -1.9277 0.9782
-1.7633 4.5783 -1.8320 0.9793
-2.1180 4.3101 -1.7933 0.9797
-3.2919 3.1135 -1.6920 0.9808
-4.1119 1.7436 -1.6678 0.9811
-2.5325 0.3406 -0.9542 0.9891
-2.5921 0.1156 -0.9689 0.9890
-2.6307 -0.1173 -0.9833 0.9888
-2.7556 -0.6243 -1.0551 0.9880
-4.6023 -2.4558 -1.9479 0.9780
-4.5007 -2.9442 -2.0083 0.9773
-4.1866 -3.9596 -2.1518 0.9757
-3.9671 -4.4857 -2.2361 0.9748
-1.4661 -7.6485 -2.9080 0.9673
0.7129 -9.1232 -3.4171 0.9617
1.6079 -9.5322 -3.6097 0.9596
2.5868 -9.8738 -3.8114 0.9574
4.7729 -10.2852 -4.2340 0.9527
5.9496 -10.3050 -4.4433 0.9505
8.3533 -9.8803 -4.8313 0.9463
9.5123 -9.4069 -4.9955 0.9445
10.5891 -8.7522 -5.1299 0.9430
5.2931 -0.8323 -2.0008 0.9774
4.9793 0.1110 -1.8598 0.9790
5.1426 0.5753 -1.9323 0.9781
8.8275 4.4608 -3.6932 0.9586
7.9491 4.9508 -3.4969 0.9608
4.6265 5.9947 -2.8276 0.9682
3.1637 6.0912 -2.5630 0.9711
2.4917 6.0632 -2.4478 0.9724
1.2650 5.8867 -2.2483 0.9746
-0.3007 5.3935 -2.0171 0.9772
-0.7559 5.1827 -1.9558 0.9779
-1.1804 4.9533 -1.9014 0.9785
-2.6026 3.8833 -1.7456 0.9802
-2.8955 3.5838 -1.7204 0.9805
-3.4130 2.9514 -1.6849 0.9809
-3.6391 2.6193 -1.6742 0.9810
-4.0278 1.9240 -1.6668 0.9811
-2.6096 0.4701 -0.9901 0.9887
-2.5691 0.0000 -1.0083 0.9890
-2.7221 -0.7457 -1.1077 0.9879
-2.7584 -1.0272 -1.1552 0.9874
-4.3817 -2.5952 -1.9987 0.9784
-3.9101 -4.0431 -2.2075 0.9761
-3.3863 -5.0527 -2.3872 0.9742
-3.0500 -5.5655 -2.4908 0.9731
-0.4413 -7.9148 -3.1112 0.9665
2.8775 -9.2762 -3.8118 0.9591
3.8746 -9.4283 -4.0006 0.9571
4.9217 -9.4759 -4.1907 0.9552
7.0761 -9.1687 -4.5455 0.9515
8.1301 -8.7902 -4.6993 0.9499
10.7988 -6.7256 -4.9930 0.9468
11.8501 -4.7162 -5.0056 0.9467
12.1557 -2.4708 -4.8683 0.9481
5.0427 -0.1124 -1.9796 0.9786
9.3642 3.2516 -3.8904 0.9583
8.6029 3.8763 -3.7033 0.9603
7.0272 4.8239 -3.3453 0.9640
6.2546 5.1696 -3.1847 0.9657
4.7399 5.6064 -2.8813 0.9689
4.0232 5.7232 -2.7456 0.9704
3.3385 5.7825 -2.6206 0.9717
2.6875 5.7914 -2.5058 0.9729
2.0709 5.7561 -2.4008 0.9741
1.4886 5.6821 -2.3053 0.9751
0.9403 5.5744 -2.2187 0.9760
-0.0587 5.2737 -2.0699 0.9776
-0.5118 5.0875 -2.0068 0.9783
-1.3315 4.6566 -1.9008 0.9794
-1.7007 4.4158 -1.8571 0.9799
-2.6593 3.6093 -1.7595 0.9809
-2.9325 3.3158 -1.7373 0.9812
-3.1837 3.0111 -1.7198 0.9813
-3.8108 2.0335 -1.6952 0.9816
-3.9785 1.6871 -1.6960 0.9816
-2.5568 0.5793 -1.0289 0.9888
-2.5490 0.1137 -1.0014 0.9891
-2.5889 -0.1154 -1.0171 0.9889
-2.7236 -0.8783 -1.1231 0.9878
-4.4996 -1.9080 -1.9182 0.9792
-4.3261 -2.8299 -2.0289 0.9780
-4.1885 -3.3076 -2.0946 0.9773
-4.0131 -3.7955 -2.1679 0.9765
-3.2248 -5.3088 -2.4378 0.9737
-1.9288 -6.7453 -2.7535 0.9703
-0.0906 -8.1308 -3.1913 0.9657
0.6667 -8.5320 -3.3588 0.9639
1.4981 -8.8815 -3.5350 0.9620
5.4573 -9.4523 -4.2837 0.9542
6.5378 -9.3002 -4.4617 0.9523
7.6082 -8.9990 -4.6249 0.9506
10.4316 -7.1609 -4.9659 0.9471
11.9989 -4.1665 -4.9850 0.9469
5.0874 -0.3406 -2.0011 0.9783
5.0471 0.1125 -1.9813 0.9785
5.2617 0.5886 -2.0779 0.9775
10.4179 2.1175 -4.1723 0.9553
9.7300 2.8999 -3.9847 0.9573
8.9876 3.5770 -3.7965 0.9593
8.2124 4.1499 -3.6113 0.9612
5.8673 5.3067 -3.1049 0.9666
4.3777 5.6725 -2.8121 0.9697
3.6768 5.7596 -2.6818 0.9711
3.0087 5.7929 -2.5619 0.9723
1.7755 5.7236 -2.3519 0.9746
1.2103 5.6322 -2.2609 0.9755
0.1792 5.3584 -2.1042 0.9772
-0.2890 5.1833 -2.0375 0.9779
-0.7273 4.9867 -1.9779 0.9786
-1.5193 4.5381 -1.8782 0.9796
-2.2070 4.0272 -1.8023 0.9805
-2.5143 3.7517 -1.7725 0.9808
-2.7987 3.4640 -1.7478 0.9810
-3.0608 3.1649 -1.7280 0.9813
-3.5206 2.5340 -1.7024 0.9815
-3.7192 2.2029 -1.6965 0.9816
-3.8972 1.8616 -1.6951 0.9816
-4.0547 1.5100 -1.6981 0.9816
-4.2184 -2.4985 -2.0189 0.9790
-3.7498 -3.8772 -2.2211 0.9769
-3.2366 -4.8294 -2.3940 0.9752
-2.5307 -5.7877 -2.6011 0.9730
-2.0770 -6.2037 -2.6940 0.9721
-1.5768 -6.6167 -2.8009 0.9710
-0.4160 -7.4611 -3.0771 0.9682
0.2620 -7.8355 -3.2283 0.9667
1.0055 -8.1641 -3.3872 0.9650
2.6778 -8.6324 -3.7218 0.9617
6.4940 -8.4145 -4.3768 0.9551
8.3319 -7.5357 -4.6260 0.9526
9.1368 -6.8904 -4.7123 0.9517
9.8318 -6.1233 -4.7695 0.9511
10.7930 -4.2955 -4.7834 0.9510
11.0299 -3.2873 -4.7393 0.9514
11.0986 -2.2559 -4.6636 0.9522
5.3596 -0.5996 -2.2208 0.9769
9.3377 2.3356 -3.9635 0.9592
8.7023 3.0218 -3.7934 0.9609
8.0221 3.6146 -3.6232 0.9627
7.3149 4.1153 -3.4561 0.9643
5.8912 4.8692 -3.1472 0.9675
3.8201 5.4341 -2.7353 0.9717
1.9788 5.5003 -2.4070 0.9750
-0.0565 5.0704 -2.0880 0.9783
-0.4927 4.8972 -2.0267 0.9789
-0.9016 4.7034 -1.9720 0.9795
-1.2842 4.4912 -1.9235 0.9800
-1.6416 4.2624 -1.8809 0.9804
-1.9748 4.0185 -1.8438 0.9808
-2.2845 3.7608 -1.8120 0.9811
-2.5717 3.4904 -1.7853 0.9814
-2.8370 3.2079 -1.7634 0.9816
-3.0810 2.9141 -1.7463 0.9818
-3.3043 2.6094 -1.7337 0.9820
-3.6896 1.9689 -1.7221 0.9821
-3.9941 1.2880 -1.7281 0.9820
-2.5068 0.1118 -1.0333 0.9892
-2.5854 -0.3477 -1.0742 0.9888
-2.6300 -0.5959 -1.1104 0.9884
-4.3383 -1.8396 -1.9404 0.9798
-4.0252 -3.1786 -2.1120 0.9781
-3.8513 -3.6426 -2.1829 0.9773
-3.0794 -5.0693 -2.4424 0.9747
-1.8320 -6.4067 -2.7439 0.9716
-0.7304 -7.2601 -3.0047 0.9689
-0.0853 -7.6533 -3.1517 0.9674
1.4013 -8.3072 -3.4691 0.9642
3.1300 -8.6998 -3.8072 0.9608
4.0660 -8.7619 -3.9776 0.9591
5.0316 -8.7149 -4.1438 0.9574
6.0086 -8.5473 -4.3023 0.9558
8.7469 -7.2295 -4.6728 0.9521
9.5000 -6.5213 -4.7449 0.9514
10.6118 -4.7814 -4.7928 0.9509
10.9326 -3.7962 -4.7655 0.9512
5.1925 -0.3476 -2.1430 0.9777
5.1533 0.1148 -2.1226 0.9779
5.4378 0.6083 -2.2532 0.9766
9.6323 1.9579 -4.0475 0.9584
9.0269 2.6903 -3.8787 0.9601
8.3667 3.3299 -3.7081 0.9618
4.8328 5.2252 -2.9308 0.9697
2.8665 5.5190 -2.5609 0.9735
2.2672 5.5169 -2.4561 0.9745
0.6510 5.2861 -2.1932 0.9772
-0.7004 4.8027 -1.9986 0.9792
-1.0961 4.5995 -1.9470 0.9798
-1.4660 4.3788 -1.9015 0.9802
-1.8112 4.1423 -1.8616 0.9806
-2.1325 3.8914 -1.8272 0.9810
-2.4309 3.6272 -1.7980 0.9813
-2.7070 3.3506 -1.7737 0.9815
-2.9617 3.0624 -1.7543 0.9817
-3.1952 2.7631 -1.7395 0.9819
-3.4082 2.4531 -1.7292 0.9820
-3.6009 2.1328 -1.7233 0.9821
-3.9256 1.4619 -1.7249 0.9820
-3.5071 0.9607 -1.4974 0.9844
-2.5181 0.4537 -1.0536 0.9890
-2.4893 0.0000 -1.0738 0.9892
-2.5688 -0.9566 -1.1824 0.9881
-3.6001 -3.7225 -2.2338 0.9777
-3.3702 -4.1713 -2.3132 0.9769
-3.0978 -4.6223 -2.4002 0.9761
-2.4132 -5.5190 -2.5983 0.9741
-1.9836 -5.9249 -2.6952 0.9731
-0.9745 -6.6813 -2.9125 0.9710
0.2469 -7.3852 -3.1874 0.9683
1.6984 -7.9037 -3.4872 0.9654
4.2220 -8.1288 -3.9512 0.9609
5.1114 -8.0069 -4.0976 0.9595
5.9961 -7.7693 -4.2334 0.9581
6.8537 -7.4101 -4.3540 0.9570
7.6598 -6.9279 -4.4551 0.9560
9.0186 -5.6168 -4.5830 0.9548
9.5267 -4.8141 -4.6043 0.9546
9.8979 -3.9393 -4.5953 0.9547
10.1998 -2.0732 -4.4897 0.9557
5.2830 -0.1177 -2.2794 0.9772
8.6874 2.1729 -3.8628 0.9617
8.1205 2.8198 -3.7080 0.9632
6.8666 3.8631 -3.3985 0.9663
5.5634 4.5983 -3.1134 0.9690
4.9058 4.8515 -2.9762 0.9704
4.2610 5.0399 -2.8468 0.9717
3.6340 5.1695 -2.7257 0.9728
2.4482 5.2757 -2.5088 0.9750
1.8935 5.2632 -2.4127 0.9759
-0.0544 4.8797 -2.1050 0.9790
-0.4746 4.7182 -2.0455 0.9796
-0.8695 4.5359 -1.9922 0.9801
-1.2396 4.3351 -1.9449 0.9805
-1.5858 4.1175 -1.9033 0.9810
-2.4885 3.3775 -1.8097 0.9819
-2.7464 3.1054 -1.7882 0.9821
-2.9835 2.8218 -1.7714 0.9823
-3.2004 2.5274 -1.7591 0.9824
-3.3973 2.2225 -1.7512 0.9825
-3.5744 1.9074 -1.7476 0.9825
-2.4106 0.3242 -1.0492 0.9895
-2.5465 -0.5770 -1.1263 0.9887
-4.0088 -2.6224 -2.0664 0.9793
-3.2395 -4.3967 -2.3558 0.9765
-2.2105 -5.7394 -2.6530 0.9736
-1.2432 -6.4857 -2.8486 0.9716
-0.0805 -7.2233 -3.1160 0.9690
0.5888 -7.5356 -3.2605 0.9676
1.3151 -7.7963 -3.4105 0.9661
2.0943 -7.9937 -3.5645 0.9646
7.2647 -7.1843 -4.4072 0.9565
8.0357 -6.6417 -4.4970 0.9556
8.7179 -5.9845 -4.5613 0.9550
9.2889 -5.2258 -4.5974 0.9546
10.0290 -3.4824 -4.5795 0.9548
5.2900 0.1179 -2.2825 0.9772
8.9482 1.8188 -3.9388 0.9610
8.4107 2.5067 -3.7857 0.9625
7.1902 3.6334 -3.4751 0.9655
6.5392 4.0727 -3.3231 0.9670
4.5814 4.9534 -2.9105 0.9710
2.7354 5.2665 -2.5599 0.9745
2.1675 5.2744 -2.4598 0.9755
1.6263 5.2426 -2.3677 0.9764
0.6254 5.0777 -2.2068 0.9780
0.1656 4.9520 -2.1373 0.9786
-0.2677 4.8017 -2.0745 0.9793
-1.0576 4.4377 -1.9679 0.9803
-1.4156 4.2283 -1.9234 0.9808
-2.0620 3.7627 -1.8508 0.9815
-3.0945 2.6759 -1.7647 0.9823
-3.4883 2.0662 -1.7489 0.9825
-3.8028 1.4162 -1.7504 0.9825
-2.4387 0.2179 -1.0561 0.9894
-2.4282 0.0000 -1.0956 0.9894
-2.4592 -0.4430 -1.1275 0.9891
-3.9200 -2.3218 -2.0557 0.9802
-3.8003 -2.7352 -2.1127 0.9797
-3.6478 -3.1543 -2.1760 0.9791
-3.4600 -3.5776 -2.2457 0.9784
-3.2346 -4.0034 -2.3223 0.9777
-2.9687 -4.4296 -2.4060 0.9769
-2.3046 -5.2708 -2.5957 0.9751
-1.4274 -5.9895 -2.7782 0.9733
-0.9252 -6.3434 -2.8925 0.9723
-0.3724 -6.6791 -3.0184 0.9711
0.2333 -6.9783 -3.1505 0.9698
1.5966 -7.4298 -3.4290 0.9672
5.5648 -7.2105 -4.1097 0.9608
7.0821 -6.4054 -4.3087 0.9590
8.3204 -5.1820 -4.4229 0.9579
9.1298 -3.6336 -4.4338 0.9578
9.3438 -2.7847 -4.3993 0.9581
9.4257 -1.9159 -4.3400 0.9587
5.5926 -0.1246 -2.5241 0.9758
8.9331 0.5980 -4.0398 0.9615
8.5623 1.3464 -3.9109 0.9627
7.0501 3.1767 -3.4892 0.9666
6.4647 3.6370 -3.3470 0.9680
5.8715 4.0306 -3.2135 0.9692
4.0519 4.7926 -2.8318 0.9728
1.3106 5.0025 -2.3334 0.9776
0.3773 4.8281 -2.1851 0.9790
-0.0524 4.7004 -2.1210 0.9796
-0.4577 4.5495 -2.0632 0.9801
-2.1384 3.5204 -1.8585 0.9821
-2.6601 3.0079 -1.8118 0.9825
-2.8907 2.7340 -1.7953 0.9827
-3.1015 2.4493 -1.7832 0.9828
-3.4646 1.8488 -1.7720 0.9829
-3.6170 1.5338 -1.7727 0.9829
-2.4105 0.1075 -1.0887 0.9895
-2.4521 -0.3298 -1.1164 0.9892
-2.4782 -0.7991 -1.1749 0.9886
-3.8641 -2.5277 -2.0835 0.9799
-3.7283 -2.9442 -2.1436 0.9794
-3.5584 -3.3655 -2.2100 0.9787
-3.3522 -3.7903 -2.2832 0.9780
-3.1068 -4.2166 -2.3633 0.9773
-2.8197 -4.6419 -2.4506 0.9764
-2.4880 -5.0630 -2.5454 0.9755
-1.1816 -6.1645 -2.8322 0.9728
-0.6554 -6.5152 -2.9546 0.9717
-0.0761 -6.8338 -3.0837 0.9705
0.5557 -7.1114 -3.2186 0.9692
1.2378 -7.3385 -3.3580 0.9679
1.9661 -7.5044 -3.5004 0.9665
4.3457 -7.5270 -3.9218 0.9626
5.1619 -7.3428 -4.0500 0.9614
6.7223 -6.6478 -4.2659 0.9594
7.4245 -6.1365 -4.3462 0.9586
8.5677 -4.8201 -4.4357 0.9578
8.9738 -4.0434 -4.4412 0.9577
9.4012 -2.3514 -4.3727 0.9584
9.3087 -0.6231 -4.2096 0.9599
8.7584 0.9798 -3.9766 0.9621
7.3322 2.9182 -3.5608 0.9660
6.7605 3.4162 -3.4178 0.9673
6.1645 3.8393 -3.2769 0.9686
5.5731 4.2029 -3.1496 0.9698
4.9598 4.4859 -3.0175 0.9711
3.7554 4.8660 -2.7734 0.9734
1.5593 5.0268 -2.3748 0.9772
1.0680 4.9700 -2.2937 0.9779
0.6013 4.8823 -2.2196 0.9786
0.1594 4.7673 -2.1523 0.9793
-0.2580 4.6277 -2.0913 0.9799
-0.6514 4.4662 -2.0365 0.9804
-1.0211 4.2849 -1.9876 0.9809
-1.3679 4.0858 -1.9442 0.9813
-1.9951 3.6405 -1.8732 0.9819
-2.2765 3.3968 -1.8451 0.9822
-2.5373 3.1405 -1.8218 0.9824
-2.7779 2.8723 -1.8030 0.9826
-2.9986 2.5930 -1.7887 0.9828
-3.3811 2.0027 -1.7732 0.9829
-3.6859 1.3726 -1.7747 0.9829
-3.8088 1.0434 -1.7819 0.9828
-2.4034 -0.8950 -1.2089 0.9887
-3.8724 -1.8497 -2.0229 0.9812
-3.6641 -2.6372 -2.1280 0.9802
-3.5133 -3.0380 -2.1894 0.9797
-3.1076 -3.8463 -2.3309 0.9784
-2.5477 -4.6490 -2.4989 0.9768
-1.8136 -5.4168 -2.6927 0.9751
-1.3614 -5.7126 -2.7682 0.9744
-0.3535 -6.3394 -2.9929 0.9723
0.8416 -6.8331 -3.2453 0.9700
1.5050 -7.0035 -3.3767 0.9688
3.6849 -7.0946 -3.7684 0.9653
4.4402 -6.9554 -3.8897 0.9642
6.5785 -5.9499 -4.1812 0.9615
7.1875 -5.4204 -4.2435 0.9610
7.7143 -4.8045 -4.2839 0.9606
8.1434 -4.1150 -4.3009 0.9605
8.7515 -1.7788 -4.2096 0.9613
8.7193 -0.9754 -4.1357 0.9619
8.5772 -0.1911 -4.0441 0.9628
8.3354 0.5580 -3.9379 0.9637
8.0065 1.2590 -3.8204 0.9648
7.6046 1.9021 -3.6950 0.9659
7.1441 2.4807 -3.5648 0.9671
6.1022 3.4331 -3.3004 0.9695
4.9953 4.1288 -3.0549 0.9717
3.3050 4.7014 -2.7089 0.9749
2.7650 4.7891 -2.6067 0.9758
2.2427 4.8328 -2.5114 0.9767
0.3633 4.6493 -2.1983 0.9796
-0.0505 4.5313 -2.1361 0.9802
-1.1574 4.0476 -1.9844 0.9816
-2.0707 3.4089 -1.8801 0.9825
-2.5780 2.9150 -1.8343 0.9829
-3.0072 2.3748 -1.8062 0.9832
-3.1931 2.0888 -1.7986 0.9833
-3.3599 1.7929 -1.7952 0.9833
-2.3694 -0.1056 -1.1180 0.9896
-2.3945 -0.7721 -1.1859 0.9889
-2.4109 -1.0223 -1.2344 0.9885
-3.7275 -2.4384 -2.0996 0.9805
-3.4253 -3.2396 -2.2224 0.9794
-3.2228 -3.6440 -2.2931 0.9787
-2.9828 -4.0483 -2.3703 0.9780
-2.3814 -4.8460 -2.5452 0.9764
-1.5895 -5.5587 -2.7253 0.9748
-1.1253 -5.8704 -2.8175 0.9739
-0.0722 -6.4791 -3.0543 0.9718
1.8511 -7.0654 -3.4429 0.9682
3.3086 -7.1299 -3.7051 0.9658
5.5501 -6.5647 -4.0522 0.9627
6.2487 -6.1795 -4.1426 0.9619
6.8922 -5.6966 -4.2149 0.9612
7.4622 -5.1225 -4.2665 0.9608
7.9418 -4.4680 -4.2954 0.9605
8.3176 -3.7477 -4.3003 0.9605
8.7241 -2.1820 -4.2390 0.9610
8.7496 -1.3758 -4.1751 0.9616
8.6614 -0.5798 -4.0919 0.9623
8.4680 0.1887 -3.9926 0.9632
8.1809 0.9152 -3.8804 0.9643
7.8138 1.5882 -3.7585 0.9654
6.3738 3.2208 -3.3663 0.9689
4.7098 4.2598 -2.9934 0.9723
4.1412 4.4774 -2.8749 0.9734
2.5015 4.8162 -2.5582 0.9763
1.4968 4.8253 -2.3814 0.9779
0.5787 4.6989 -2.2317 0.9793
0.1536 4.5934 -2.1664 0.9799
-0.2489 4.4635 -2.1072 0.9804
-2.2050 3.2901 -1.8669 0.9826
-2.9071 2.5139 -1.8116 0.9831
-3.1025 2.2331 -1.8019 0.9832
-3.5743 1.3311 -1.7979 0.9833
-3.6930 1.0117 -1.8049 0.9832
-2.3515 0.4237 -1.1263 0.9895
-2.3278 -0.8669 -1.2217 0.9890
-3.6536 -2.1640 -2.0886 0.9812
-3.2048 -3.3137 -2.2674 0.9797
-2.4433 -4.4584 -2.5006 0.9776
-2.1104 -4.8265 -2.5910 0.9768
-1.7349 -5.1817 -2.6877 0.9759
-1.3002 -5.4561 -2.7587 0.9753
-0.8384 -5.7484 -2.8573 0.9744
-0.3361 -6.0280 -2.9695 0.9734
0.2097 -6.2713 -3.0863 0.9724
2.0796 -6.7041 -3.4525 0.9692
2.7621 -6.7213 -3.5742 0.9681
4.1607 -6.5176 -3.8032 0.9661
5.5146 -5.9623 -3.9946 0.9644
6.6966 -5.0501 -4.1254 0.9633
7.5805 -3.8306 -4.1775 0.9628
7.8795 -3.1359 -4.1712 0.9629
8.0730 -2.4060 -4.1433 0.9631
8.1587 -1.6583 -4.0949 0.9636
7.5112 1.1811 -3.7398 0.9667
5.2772 3.6226 -3.1484 0.9719
4.2134 4.1668 -2.9146 0.9739
3.6821 4.3552 -2.8051 0.9749
3.1586 4.4932 -2.7014 0.9758
2.1503 4.6338 -2.5126 0.9775
1.6709 4.6444 -2.4277 0.9782
0.3501 4.4808 -2.2106 0.9802
-0.0487 4.3716 -2.1503 0.9807
-0.7833 4.0864 -2.0465 0.9816
-1.1194 3.9147 -2.0026 0.9820
-2.0062 3.3027 -1.9007 0.9829
-2.4995 2.8263 -1.8558 0.9833
-2.7177 2.5704 -1.8399 0.9835
-3.4031 1.4430 -1.8181 0.9837
-3.5274 1.1375 -1.8230 0.9836
-2.5042 0.5674 -1.2629 0.9886
-2.2893 0.1021 -1.1271 0.9898
-2.3142 -0.5243 -1.1671 0.9895
-3.7018 -1.9753 -2.0637 0.9815
-3.5983 -2.3538 -2.1149 0.9810
-3.4649 -2.7362 -2.1715 0.9805
-3.1011 -3.5065 -2.3024 0.9793
-2.8666 -3.8906 -2.3769 0.9787
-2.2820 -4.6438 -2.5450 0.9772
-1.5232 -5.3270 -2.7251 0.9756
-1.0742 -5.6040 -2.8065 0.9749
-0.5928 -5.8923 -2.9128 0.9739
-0.0686 -6.1547 -3.0274 0.9729
0.4983 -6.3770 -3.1461 0.9719
1.1051 -6.5513 -3.2678 0.9708
3.1098 -6.7013 -3.6337 0.9676
3.8107 -6.6003 -3.7486 0.9666
7.7429 -3.4888 -4.1771 0.9629
7.9896 -2.7743 -4.1599 0.9630
8.0900 -0.5415 -3.9880 0.9645
6.0238 3.0440 -3.3196 0.9704
5.5207 3.4384 -3.1990 0.9714
4.4804 4.0523 -2.9713 0.9734
3.9471 4.2676 -2.8592 0.9744
3.4191 4.4303 -2.7525 0.9754
1.9083 4.6437 -2.4693 0.9779
1.4382 4.6364 -2.3876 0.9786
0.9877 4.5962 -2.3122 0.9793
0.1481 4.4292 -2.1798 0.9804
-0.6075 4.1654 -2.0704 0.9814
-0.9539 4.0028 -2.0239 0.9818
-2.3834 2.9500 -1.8653 0.9832
-2.8197 2.4383 -1.8335 0.9835
-3.1811 1.8842 -1.8185 0.9837
-3.5824 0.9814 -1.8269 0.9836
-2.3061 0.4155 -1.1525 0.9896
-2.2658 0.2025 -1.1189 0.9899
-2.2359 0.0000 -1.1463 0.9900
-2.2416 -0.4039 -1.1677 0.9898
-3.5308 -2.0912 -2.1038 0.9817
-3.2666 -2.8247 -2.2140 0.9808
-3.0882 -3.1931 -2.2774 0.9802
-2.8764 -3.5601 -2.3464 0.9796
-2.6294 -3.9234 -2.4213 0.9790
-2.0230 -4.6268 -2.5889 0.9776
-1.6605 -4.9596 -2.6814 0.9768
-1.2447 -5.2231 -2.7527 0.9762
-0.8000 -5.4849 -2.8417 0.9754
0.1993 -5.9619 -3.0582 0.9735
1.9655 -6.3363 -3.4011 0.9706
2.6056 -6.3402 -3.5142 0.9697
4.5519 -5.8981 -3.8195 0.9671
5.7424 -5.1937 -3.9695 0.9658
7.0830 -3.5792 -4.0685 0.9650
7.3631 -2.9304 -4.0628 0.9650
7.5472 -2.2493 -4.0374 0.9652
7.6222 -0.8526 -3.9320 0.9661
7.5189 -0.1675 -3.8557 0.9668
7.0668 1.1112 -3.6675 0.9684
5.0142 3.4421 -3.1180 0.9730
3.5177 4.1608 -2.7933 0.9758
2.0639 4.4476 -2.5137 0.9782
1.1648 4.4462 -2.3563 0.9796
0.3377 4.3217 -2.2223 0.9807
-0.0470 4.2204 -2.1638 0.9812
-0.4121 4.0964 -2.1107 0.9817
-1.9446 3.2013 -1.9203 0.9833
-2.1939 2.9776 -1.8961 0.9835
-2.4246 2.7415 -1.8763 0.9837
-3.4234 1.1039 -1.8441 0.9840
-2.2425 -0.5081 -1.1788 0.9897
-2.2673 -0.9614 -1.2625 0.9890
-2.3836 -1.2720 -1.3851 0.9879
-3.3439 -2.6406 -2.1844 0.9810
-3.1814 -3.0089 -2.2450 0.9805
-2.7574 -3.7424 -2.3832 0.9793
-2.4922 -4.1027 -2.4610 0.9787
-0.0652 -5.8566 -3.0027 0.9740
1.0475 -6.2101 -3.2287 0.9721
2.2834 -6.3469 -3.4580 0.9701
2.9307 -6.3155 -3.5694 0.9692
6.0101 -4.9675 -3.9974 0.9656
6.4970 -4.4599 -4.0401 0.9652
7.4673 -2.5929 -4.0525 0.9651
7.6024 -1.9015 -4.0176 0.9654
7.6395 -1.2012 -3.9647 0.9658
7.4348 0.1657 -3.8126 0.9671
7.2075 0.8063 -3.7181 0.9679
6.9098 1.4045 -3.6149 0.9688
5.7053 2.8830 -3.2772 0.9717
4.7679 3.5956 -3.0615 0.9735
4.2690 3.8611 -2.9510 0.9745
3.7676 4.0735 -2.8447 0.9754
3.2692 4.2360 -2.7432 0.9762
0.9510 4.4257 -2.3207 0.9799
0.5374 4.3631 -2.2537 0.9804
-1.8130 3.3083 -1.9340 0.9832
-2.7361 2.3660 -1.8545 0.9839
-3.0876 1.8288 -1.8397 0.9840
-3.2358 1.5457 -1.8385 0.9840
-3.3656 1.2534 -1.8412 0.9840
-2.1765 0.0000 -1.1619 0.9902
-2.1811 -0.1949 -1.1690 0.9901
-2.2033 -1.0524 -1.3035 0.9890
-3.2979 -2.3737 -2.1692 0.9817
-2.9779 -3.0791 -2.2867 0.9808
-2.5298 -3.7748 -2.4258 0.9796
-2.2538 -4.1127 -2.5036 0.9790
-1.5911 -4.7524 -2.6754 0.9775
-0.7652 -5.2453 -2.8297 0.9763
2.4635 -5.9946 -3.4598 0.9710
3.6853 -5.7729 -3.6563 0.9694
4.2834 -5.5502 -3.7427 0.9687
5.3912 -4.8761 -3.8806 0.9676
5.8746 -4.4302 -3.9279 0.9672
6.2942 -3.9201 -3.9585 0.9669
6.9029 -2.7473 -3.9662 0.9669
7.1637 -1.4561 -3.9025 0.9674
7.0715 -0.1576 -3.7760 0.9684
6.9039 0.4622 -3.6939 0.9691
6.6657 1.0482 -3.6021 0.9699
6.3661 1.5923 -3.5032 0.9707
6.0151 2.0887 -3.3992 0.9715
5.6228 2.5335 -3.2923 0.9724
5.2003 2.9257 -3.1853 0.9733
4.3086 3.5611 -2.9841 0.9750
3.8375 3.7950 -2.8812 0.9758
3.3649 3.9800 -2.7823 0.9766
2.8957 4.1192 -2.6880 0.9774
2.4340 4.2158 -2.5987 0.9782
0.7152 4.2402 -2.2956 0.9807
0.3259 4.1709 -2.2334 0.9812
-0.0454 4.0769 -2.1766 0.9817
-1.0488 3.6678 -2.0365 0.9829
-1.3462 3.4952 -1.9995 0.9832
-1.6251 3.3070 -1.9670 0.9834
-2.3528 2.6604 -1.8959 0.9840
-2.5594 2.4207 -1.8806 0.9842
-2.9191 1.9097 -1.8622 0.9843
-3.2071 1.3600 -1.8597 0.9843
-2.4373 0.5522 -1.3341 0.9887
-2.1681 0.2916 -1.1679 0.9901
-2.1765 -0.0971 -1.1631 0.9902
-2.1810 -0.2933 -1.1748 0.9901
-2.1912 -0.7066 -1.2291 0.9896
-2.2000 -0.9329 -1.2757 0.9892
-2.2448 -1.1978 -1.3583 0.9885
-3.3594 -2.1976 -2.1431 0.9820
-3.2292 -2.5501 -2.1966 0.9815
-2.8784 -3.2546 -2.3195 0.9805
-2.1022 -4.2779 -2.5446 0.9786
-1.7710 -4.5982 -2.6305 0.9779
-0.9823 -5.1247 -2.7856 0.9766
-0.5395 -5.3625 -2.8772 0.9759
0.4503 -5.7621 -3.0855 0.9741
0.9948 -5.8976 -3.1929 0.9732
1.5670 -5.9812 -3.3008 0.9724
2.1608 -6.0061 -3.4075 0.9715
2.7685 -5.9660 -3.5112 0.9706
3.3808 -5.8557 -3.6097 0.9698
4.5739 -5.4100 -3.7820 0.9684
6.0931 -4.1826 -3.9454 0.9670
6.4768 -3.6438 -3.9672 0.9669
7.1729 -1.1279 -3.8762 0.9676
7.1261 -0.4770 -3.8128 0.9681
6.1964 1.8467 -3.4517 0.9711
5.8235 2.3177 -3.3460 0.9720
5.4142 2.7359 -3.2384 0.9729
4.9991 3.1135 -3.1440 0.9736
0.1380 4.1269 -2.2043 0.9815
-0.2242 4.0214 -2.1501 0.9819
-0.5680 3.8943 -2.1010 0.9823
-0.8931 3.7478 -2.0568 0.9827
-1.1998 3.5835 -2.0174 0.9830
-2.0093 2.9981 -1.9267 0.9838
-2.4583 2.5419 -1.8878 0.9841
-2.6560 2.2968 -1.8745 0.9842
-2.8359 2.0412 -1.8653 0.9843
-2.9979 1.7757 -1.8601 0.9843
-3.1419 1.5008 -1.8588 0.9843
-3.2678 1.2169 -1.8615 0.9843
-3.3752 0.9246 -1.8682 0.9843
-2.1547 0.1925 -1.1549 0.9902
-2.1192 0.0000 -1.1770 0.9904
-2.1202 -0.1895 -1.1823 0.9903
-2.1250 -0.3828 -1.1992 0.9902
-2.1288 -0.5831 -1.2259 0.9900
-2.1317 -0.7938 -1.2634 0.9896
-2.1374 -1.0209 -1.3156 0.9892
-2.2265 -1.3188 -1.4372 0.9882
-3.0454 -2.6334 -2.2361 0.9817
-2.6707 -3.3056 -2.3603 0.9807
-1.1473 -4.8144 -2.7488 0.9776
-0.7324 -5.0216 -2.8185 0.9770
0.1810 -5.4137 -3.0085 0.9755
1.2145 -5.6520 -3.2107 0.9739
1.7666 -5.6949 -3.3116 0.9731
2.3340 -5.6794 -3.4103 0.9723
3.4811 -5.4531 -3.5931 0.9708
4.0408 -5.2359 -3.6733 0.9702
4.5762 -4.9477 -3.7431 0.9696
5.9184 -3.6860 -3.8725 0.9686
6.2421 -3.1542 -3.8843 0.9685
6.4900 -2.5829 -3.8795 0.9685
6.7417 -1.3703 -3.8209 0.9690
5.7041 1.9807 -3.3536 0.9728
5.3408 2.4064 -3.2534 0.9736
4.9526 2.7863 -3.1561 0.9743
4.5488 3.1226 -3.0644 0.9751
3.2224 3.8115 -2.7720 0.9774
2.7770 3.9504 -2.6819 0.9781
1.9066 4.1087 -2.5157 0.9795
1.0812 4.1271 -2.3695 0.9807
0.3147 4.0280 -2.2439 0.9817
-0.3854 3.8310 -2.1385 0.9825
-0.7095 3.7012 -2.0930 0.9829
-1.0159 3.5528 -2.0523 0.9832
-1.5758 3.2067 -1.9844 0.9838
-1.8294 3.0115 -1.9570 0.9840
-2.2840 2.5825 -1.9148 0.9843
-2.4851 2.3505 -1.8998 0.9845
-2.6689 2.1076 -1.8888 0.9846
-2.8352 1.8547 -1.8817 0.9846
-2.9840 1.5923 -1.8785 0.9846
-3.1150 1.3209 -1.8792 0.9846
-2.1264 0.2860 -1.1916 0.9902
-2.1163 0.0944 -1.1766 0.9904
-2.1192 -0.0945 -1.1782 0.9903
-2.1231 -0.4810 -1.2091 0.9901
-2.1317 -0.6874 -1.2440 0.9898
-2.1463 -1.1453 -1.3512 0.9889
-2.0205 -4.1116 -2.5444 0.9793
-1.6999 -4.4137 -2.6269 0.9786
-1.3435 -4.6985 -2.7141 0.9779
-0.0594 -5.3269 -2.9587 0.9759
0.9463 -5.6103 -3.1600 0.9743
2.6209 -5.6479 -3.4582 0.9719
3.1958 -5.5352 -3.5498 0.9712
3.7633 -5.3533 -3.6344 0.9705
6.3759 -2.8728 -3.8840 0.9685
6.5839 -2.2862 -3.8708 0.9686
6.7530 -1.0618 -3.7967 0.9692
6.1712 1.2544 -3.4975 0.9716
5.8713 1.7499 -3.4026 0.9724
5.5269 2.1996 -3.3038 0.9731
4.7612 2.9653 -3.1153 0.9747
4.3326 3.2674 -3.0139 0.9755
2.5563 4.0044 -2.6385 0.9785
1.6954 4.1255 -2.4772 0.9798
1.2825 4.1343 -2.4041 0.9804
0.8837 4.1125 -2.3362 0.9809
0.5004 4.0626 -2.2734 0.9814
0.1333 3.9872 -2.2157 0.9819
-0.2168 3.8885 -2.1630 0.9823
-0.5496 3.7685 -2.1151 0.9827
-0.8649 3.6292 -2.0721 0.9831
-1.4424 3.2990 -1.9997 0.9837
-2.3867 2.4679 -1.9068 0.9844
-2.5792 2.2303 -1.8938 0.9845
-2.7542 1.9824 -1.8847 0.9846
-2.9118 1.7247 -1.8796 0.9846
-3.0517 1.4577 -1.8784 0.9846
-2.1018 0.1878 -1.1720 0.9904
-2.0684 -0.1848 -1.1990 0.9905
-2.0727 -0.3734 -1.2159 0.9903
-2.1172 -1.2540 -1.4207 0.9887
-3.0833 -2.2192 -2.1933 0.9826
-2.0863 -3.8069 -2.5063 0.9801
-1.7925 -4.0996 -2.5833 0.9795
-1.4653 -4.3767 -2.6647 0.9789
-1.1026 -4.6267 -2.7460 0.9783
-0.7019 -4.8122 -2.8077 0.9778
0.6524 -5.2975 -3.0816 0.9756
1.1562 -5.3806 -3.1774 0.9749
2.2153 -5.3906 -3.3649 0.9734
2.7569 -5.3079 -3.4532 0.9728
3.8204 -4.9503 -3.6102 0.9715
4.3221 -4.6730 -3.6751 0.9710
4.7894 -4.3318 -3.7284 0.9706
5.2117 -3.9303 -3.7687 0.9703
5.8832 -2.9729 -3.8057 0.9700
6.2769 -1.8707 -3.7815 0.9702
6.3600 -1.2927 -3.7471 0.9705
6.1664 0.4128 -3.5681 0.9719
5.4187 1.8816 -3.3117 0.9739
5.0811 2.2894 -3.2176 0.9746
4.7330 2.6628 -3.1354 0.9752
4.3417 2.9804 -3.0405 0.9760
3.0891 3.6538 -2.7624 0.9781
2.6658 3.7921 -2.6762 0.9788
-0.3730 3.7076 -2.1514 0.9829
-0.6871 3.5844 -2.1071 0.9833
-0.9844 3.4429 -2.0674 0.9836
-1.5286 3.1106 -2.0010 0.9841
-1.7753 2.9225 -1.9742 0.9843
