ply
format ascii 1.0
element vertex 1588
property float32 x
property float32 y
property float32 z
property float32 I
end_header
3.9040 7.5166 3.3242 0.9643
3.1948 7.7741 3.2987 0.9645
5.8006 6.8610 3.3549 0.9624
3.5584 7.6682 3.1567 0.9645
2.8387 7.8904 3.1312 0.9648
6.2346 6.7408 3.4286 0.9616
3.9207 7.5487 3.1763 0.9643
2.4813 7.9990 3.1273 0.9649
1.7661 8.2187 2.8244 0.9651
7.5667 6.2540 3.1176 0.9596
1.7652 8.2144 2.6683 0.9654
1.7648 8.2126 2.5148 0.9655
8.6053 5.9072 2.9367 0.9576
1.7671 8.2234 2.3665 0.9657
9.2050 5.7329 2.8575 0.9561
1.7694 8.2341 2.2192 0.9658
-7.7423 -10.5079 3.2082 0.9477
1.7723 8.2474 2.0735 0.9658
9.8598 5.5470 2.5821 0.9546
-7.9615 -10.8054 3.0634 0.9464
1.7781 8.2745 1.9317 0.9659
10.4831 5.2974 2.4762 0.9531
11.1778 5.0365 2.3725 0.9513
-7.9959 -10.8521 2.3768 0.9467
-8.0315 -10.9004 2.1560 0.9466
1.4194 8.4149 1.0694 0.9662
1.4152 8.3901 0.7801 0.9664
1.4150 8.3887 0.4955 0.9665
-8.5651 -10.6011 0.5667 0.9469
1.4167 8.3990 0.3542 0.9665
6.3699 0.7126 0.2665 0.9747
-8.5262 -10.5530 0.3383 0.9472
6.9917 -0.1558 0.1744 0.9724
6.2048 0.4154 0.1551 0.9754
6.2094 0.9764 0.1568 0.9752
1.4185 8.4093 0.2127 0.9665
6.1577 0.6888 0.1545 0.9755
-8.5169 -10.5414 0.1126 0.9472
6.4255 -0.1432 0.0534 0.9746
6.0315 0.4038 0.0502 0.9761
6.0325 0.9486 0.0508 0.9759
1.4210 8.4241 0.0710 0.9664
-10.7122 10.1316 0.1225 0.9427
-12.5452 8.2067 0.1246 0.9418
5.9971 0.6709 0.0502 0.9762
6.1675 1.2536 0.0523 0.9751
-10.4178 10.7719 0.1246 0.9418
-13.4264 6.4133 0.1237 0.9422
-14.0195 5.2209 0.1243 0.9419
-8.5127 -10.5363 -0.1126 0.9473
5.9188 0.3962 -0.0493 0.9766
5.9060 0.9287 -0.0497 0.9764
1.4254 8.4507 -0.0712 0.9663
-9.2284 10.4347 -0.1158 0.9458
-9.8036 9.2722 -0.1122 0.9475
-11.5246 7.5391 -0.1145 0.9464
-12.0713 6.4415 -0.1137 0.9467
-13.7033 3.1048 -0.1168 0.9453
6.8110 -0.4559 -0.0567 0.9731
6.0198 0.1342 -0.0500 0.9762
-8.2596 12.3243 -0.1233 0.9424
-8.9242 11.0456 -0.1180 0.9448
-11.2461 8.0945 -0.1152 0.9461
-11.7993 6.9888 -0.1140 0.9466
-12.3416 5.8951 -0.1137 0.9468
-13.4262 3.6778 -0.1157 0.9458
-14.4882 -1.2946 -0.3628 0.9435
6.0804 -0.1355 -0.1517 0.9760
5.8102 0.3889 -0.1452 0.9770
5.7943 0.9111 -0.1463 0.9768
6.0776 1.5201 -0.1562 0.9752
-9.4256 8.9147 -0.3235 0.9494
-10.1268 7.9971 -0.3218 0.9497
-11.1684 5.9596 -0.3157 0.9506
-11.6669 4.9472 -0.3160 0.9506
-12.1596 3.9210 -0.3186 0.9502
-12.6528 2.8667 -0.3235 0.9494
-13.1534 1.7690 -0.3310 0.9483
-13.6687 0.6095 -0.3412 0.9467
-14.2071 -0.6335 -0.3547 0.9447
5.9056 0.1316 -0.1473 0.9766
5.8800 1.1952 -0.1496 0.9763
-8.7661 9.0641 -0.3145 0.9508
-10.9148 6.4649 -0.3164 0.9505
-11.4188 5.4543 -0.3156 0.9506
-12.4057 3.3983 -0.3208 0.9498
-13.4087 1.1982 -0.3357 0.9476
-12.8736 0.0000 -0.5353 0.9498
-13.3406 -1.1921 -0.5569 0.9478
-13.8284 -2.4913 -0.5842 0.9453
-14.3460 -3.9298 -0.6185 0.9422
5.9582 -0.1328 -0.2478 0.9764
5.7138 0.8984 -0.2405 0.9771
5.9519 1.4887 -0.2551 0.9757
1.4394 8.5332 -0.3598 0.9659
-6.6409 10.9324 -0.5319 0.9501
-8.8773 8.3961 -0.5080 0.9523
-9.9109 6.4834 -0.4924 0.9537
-10.3905 5.5446 -0.4897 0.9539
-11.7512 2.6625 -0.5010 0.9529
-12.1962 1.6402 -0.5117 0.9519
-13.1050 -0.5844 -0.5454 0.9488
-14.0828 -3.1907 -0.6004 0.9438
6.2405 -0.4177 -0.2601 0.9753
5.8127 0.1296 -0.2417 0.9770
5.7000 0.6376 -0.2385 0.9773
-4.6770 13.9694 -0.6125 0.9427
-5.5379 12.6655 -0.5748 0.9462
-8.1816 8.4597 -0.4893 0.9540
-9.1472 7.9099 -0.5028 0.9527
-11.0805 4.1264 -0.4916 0.9538
-11.9735 2.1571 -0.5059 0.9525
-12.4199 1.1098 -0.5185 0.9513
-12.3602 -1.1045 -0.7228 0.9515
-12.7661 -2.2999 -0.7555 0.9494
-13.1846 -3.6116 -0.7962 0.9467
-13.6220 -5.0729 -0.8466 0.9434
5.6626 0.3791 -0.3305 0.9775
5.8311 1.4585 -0.3501 0.9762
-4.7033 12.2120 -0.7622 0.9489
-7.3069 8.2621 -0.6424 0.9568
-8.2783 7.8296 -0.6636 0.9554
-8.7851 6.9375 -0.6520 0.9561
-9.2614 6.0585 -0.6446 0.9566
-10.1452 4.3020 -0.6418 0.9568
-10.5624 3.4059 -0.6464 0.9565
-11.7637 0.5246 -0.6858 0.9539
-12.5620 -1.6894 -0.7382 0.9505
6.1181 -0.4095 -0.3571 0.9757
5.7408 0.1279 -0.3344 0.9773
5.6283 0.6296 -0.3299 0.9776
5.6925 1.1571 -0.3383 0.9770
-3.3473 14.0460 -0.8410 0.9438
-7.0373 8.7102 -0.6522 0.9561
-9.4900 5.6209 -0.6424 0.9568
-10.3554 3.8564 -0.6436 0.9567
-11.1688 2.0122 -0.6610 0.9555
-11.5125 -1.0287 -0.8662 0.9547
-12.1954 -3.3406 -0.9476 0.9505
-12.5404 -4.6701 -1.0028 0.9477
6.5022 -0.7274 -0.4903 0.9741
5.8005 -0.1292 -0.4348 0.9770
5.5945 0.3745 -0.4202 0.9778
5.7487 1.4379 -0.4441 0.9765
-1.4827 14.7381 -1.1100 0.9423
-3.5245 12.3258 -0.9607 0.9499
-4.3471 11.2871 -0.9064 0.9526
-5.7221 9.4199 -0.8260 0.9568
-7.1085 8.0377 -0.8041 0.9579
-9.5226 4.0379 -0.7751 0.9594
-9.9098 3.1955 -0.7803 0.9591
-10.2824 2.3297 -0.7901 0.9586
-10.6434 1.4314 -0.8048 0.9578
-10.9954 0.4903 -0.8248 0.9568
-11.3412 -0.5057 -0.8507 0.9555
-11.6833 -1.5712 -0.8834 0.9538
-12.0243 -2.7243 -0.9239 0.9517
-12.7153 -5.3917 -1.0350 0.9461
-12.7785 -6.8188 -1.0854 0.9436
5.6244 1.1432 -0.4301 0.9772
-2.0539 14.0829 -1.0665 0.9445
-3.9491 11.7955 -0.9322 0.9513
-5.4081 9.8686 -0.8433 0.9559
-6.0195 8.9817 -0.8103 0.9576
-6.5726 8.1351 -0.7837 0.9589
-8.0002 6.9181 -0.7926 0.9585
-8.4679 6.0948 -0.7819 0.9590
-8.9071 5.2757 -0.7758 0.9593
-9.7182 3.6191 -0.7771 0.9593
-10.0977 2.7661 -0.7846 0.9589
-10.8203 0.9669 -0.8141 0.9574
-4.4479 0.0000 -0.4078 0.9823
-11.0613 -1.9928 -1.0304 0.9559
-11.3422 -3.1070 -1.0782 0.9539
-11.6158 -4.3258 -1.1364 0.9514
-11.9997 -7.1075 -1.2786 0.9455
5.7298 -0.1277 -0.5254 0.9772
-1.3565 13.4843 -1.2424 0.9470
-2.3766 12.3985 -1.1574 0.9506
-3.2620 11.4078 -1.0878 0.9535
-5.9054 8.0149 -0.9127 0.9608
-7.2912 6.8959 -0.9200 0.9605
-8.5895 4.5835 -0.8926 0.9616
-8.9707 3.8039 -0.8933 0.9616
-9.3318 3.0091 -0.8989 0.9614
-4.2496 0.5715 -0.3931 0.9829
-4.0002 0.1784 -0.3671 0.9840
-11.2028 -2.5382 -1.0531 0.9549
-12.0135 -6.4106 -1.2484 0.9468
5.9304 -0.3970 -0.5449 0.9764
5.5729 1.1327 -0.5214 0.9774
1.0665 8.6594 -0.7999 0.9656
-1.8855 12.9280 -1.1977 0.9489
-4.3962 10.0543 -1.0060 0.9569
-5.0493 9.2138 -0.9632 0.9587
-5.6339 8.4064 -0.9277 0.9602
-7.0464 7.2860 -0.9292 0.9601
-7.5267 6.5086 -0.9122 0.9608
-7.9731 5.7387 -0.9006 0.9613
-8.3904 4.9696 -0.8940 0.9616
-8.7828 4.1952 -0.8923 0.9617
-9.1536 3.4088 -0.8955 0.9615
-4.1097 0.3672 -0.3783 0.9836
-10.1190 -0.9042 -1.1019 0.9599
-10.3662 -1.8675 -1.1425 0.9585
-11.0169 -5.2623 -1.3243 0.9521
-11.1998 -6.6336 -1.4119 0.9490
-10.7343 -7.7260 -1.4345 0.9482
-10.8801 -9.4083 -1.5602 0.9438
5.6831 -0.1266 -0.6166 0.9774
5.4714 0.8604 -0.6008 0.9780
5.6259 1.4071 -0.6290 0.9769
-0.1498 13.4497 -1.4589 0.9473
-1.2499 12.4242 -1.3544 0.9510
-2.2016 11.4856 -1.2685 0.9540
-3.7733 9.7972 -1.1388 0.9586
-4.4314 9.0177 -1.0898 0.9604
-5.0206 8.2650 -1.0489 0.9618
-5.5549 7.5392 -1.0158 0.9630
-6.4003 7.2369 -1.0479 0.9619
-7.7338 5.0592 -1.0024 0.9635
-8.1179 4.3319 -0.9980 0.9637
-8.4778 3.5949 -0.9988 0.9636
-4.7637 1.0793 -0.5298 0.9805
-3.7330 0.1665 -0.4053 0.9851
-10.2444 -1.3777 -1.1212 0.9593
-10.7092 -3.4533 -1.2205 0.9557
-10.9186 -4.6299 -1.2864 0.9534
-11.1108 -5.9289 -1.3660 0.9506
5.8691 -0.3929 -0.6380 0.9766
5.5221 1.1224 -0.6112 0.9776
1.0592 8.5999 -0.9398 0.9657
-0.7207 12.9246 -1.4041 0.9493
-1.7422 11.9453 -1.3094 0.9526
-4.1121 9.4045 -1.1133 0.9595
-4.7335 8.6376 -1.0683 0.9611
-6.1455 7.6064 -1.0607 0.9614
-6.6446 6.8705 -1.0367 0.9623
-7.5316 5.4210 -1.0065 0.9634
-8.3007 3.9649 -0.9978 0.9637
-8.9778 2.4593 -1.0097 0.9632
-3.9948 0.7197 -0.4403 0.9838
-3.7414 0.3343 -0.4074 0.9850
-3.5692 0.0000 -0.4473 0.9857
-3.7700 -0.3369 -0.4743 0.9849
-9.7511 -1.7567 -1.2416 0.9608
-9.9443 -2.7240 -1.2921 0.9593
-10.3899 -6.1540 -1.5133 0.9525
-10.4828 -7.5450 -1.6185 0.9493
-9.9616 -8.6141 -1.6503 0.9483
-9.9850 -10.3244 -1.7999 0.9437
5.4267 0.8533 -0.6884 0.9781
6.3453 2.2033 -0.8417 0.9733
2.4277 14.3925 -1.8291 0.9429
1.0421 13.3358 -1.6763 0.9475
-0.1381 12.3966 -1.5536 0.9513
-1.1585 11.5156 -1.4504 0.9544
-2.0501 10.6952 -1.3647 0.9570
-3.5385 9.1877 -1.2338 0.9611
-5.4620 7.4131 -1.1539 0.9636
-6.5101 6.1573 -1.1229 0.9645
-7.3282 4.7939 -1.0974 0.9653
-7.6940 4.1057 -1.0929 0.9655
-8.0348 3.4071 -1.0937 0.9654
-4.3831 0.9931 -0.5632 0.9820
-3.5494 0.4774 -0.4488 0.9857
-3.5348 0.1576 -0.4434 0.9858
-9.6473 -1.2974 -1.2198 0.9615
-9.8502 -2.2317 -1.2657 0.9601
-9.9925 -7.8910 -1.5956 0.9500
5.8157 -0.3893 -0.7304 0.9768
5.5278 0.1232 -0.6929 0.9780
5.4254 0.6069 -0.6841 0.9782
5.4749 1.1128 -0.7001 0.9777
-0.6662 11.9476 -1.4995 0.9529
-1.6187 11.0987 -1.4056 0.9558
-2.4555 10.3036 -1.3274 0.9582
-4.4540 8.1275 -1.1614 0.9633
-4.9914 7.4477 -1.1235 0.9645
-5.8056 7.1857 -1.1577 0.9634
-6.2849 6.4985 -1.1329 0.9642
-6.7266 5.8167 -1.1144 0.9648
-7.1352 5.1356 -1.1017 0.9652
-7.5144 4.4508 -1.0945 0.9654
-8.1965 3.0524 -1.0961 0.9654
-8.5038 2.3295 -1.1049 0.9651
-3.5366 0.3160 -0.4450 0.9858
-3.3944 0.0000 -0.4828 0.9864
-3.5139 -0.3140 -0.5018 0.9858
-9.2028 -1.6580 -1.3300 0.9629
-9.3637 -2.5650 -1.3809 0.9615
-9.6866 -5.7374 -1.6013 0.9555
-9.1409 -9.4516 -1.8702 0.9483
5.3987 0.8489 -0.7773 0.9782
2.2213 13.1692 -1.8996 0.9475
-0.1281 11.4928 -1.6348 0.9546
-1.0792 10.7280 -1.5336 0.9574
-1.9176 10.0041 -1.4488 0.9597
-3.3294 8.6447 -1.3176 0.9633
-4.4687 7.3566 -1.2243 0.9658
-5.2545 7.1314 -1.2599 0.9648
-5.7353 6.4850 -1.2314 0.9656
-7.3106 3.9011 -1.1786 0.9671
-7.9341 2.5584 -1.1857 0.9669
-4.1432 0.9387 -0.6042 0.9830
-3.3610 0.1499 -0.4785 0.9865
-3.4470 -0.1537 -0.4908 0.9862
-9.4351 -3.0424 -1.4101 0.9607
-9.7120 -6.3533 -1.6507 0.9542
-9.1690 -8.6720 -1.7951 0.9503
5.4862 0.1223 -0.7805 0.9781
5.3924 0.6032 -0.7718 0.9783
1.0554 8.5688 -1.2280 0.9657
-0.6192 11.1049 -1.5820 0.9561
-1.5112 10.3615 -1.4894 0.9586
-2.3009 9.6548 -1.4117 0.9607
-3.0056 8.9772 -1.3465 0.9625
-4.2047 7.6726 -1.2444 0.9653
-5.5001 6.8075 -1.2448 0.9653
-5.9609 6.1635 -1.2196 0.9660
-6.3852 5.5215 -1.2007 0.9665
-7.1395 4.2287 -1.1802 0.9670
-3.6717 0.6615 -0.5306 0.9850
-3.3525 0.2996 -0.4787 0.9865
-3.2915 0.0000 -0.5241 0.9868
-8.7107 -1.5693 -1.4094 0.9648
-8.9518 -3.3337 -1.5211 0.9620
-9.0282 -4.3124 -1.5932 0.9603
-9.0697 -5.3720 -1.6785 0.9582
-9.0706 -6.5286 -1.7796 0.9557
-8.4244 -8.7108 -1.9296 0.9521
-8.2652 -10.2299 -2.0942 0.9481
-8.0121 -11.9548 -2.2916 0.9434
6.0148 -0.6729 -0.9638 0.9758
5.4010 0.3616 -0.8620 0.9783
5.5068 1.3774 -0.9039 0.9773
6.0953 2.1165 -1.0274 0.9742
2.0466 12.1330 -1.9593 0.9514
-1.0099 10.0384 -1.6066 0.9600
-2.5081 8.7712 -1.4527 0.9637
-3.7148 7.5594 -1.3412 0.9665
-5.4502 6.1627 -1.3100 0.9672
-5.8755 5.5570 -1.2878 0.9678
-6.2672 4.9492 -1.2716 0.9682
-6.6285 4.3362 -1.2613 0.9684
-6.9621 3.7151 -1.2566 0.9685
-7.2699 3.0827 -1.2574 0.9685
-3.9744 0.9005 -0.6489 0.9836
-3.3344 -0.1487 -0.5315 0.9866
-3.4817 -0.4682 -0.5594 0.9859
-8.7811 -1.9895 -1.4337 0.9642
-8.9020 -2.8705 -1.4894 0.9628
-9.0536 -4.8311 -1.6341 0.9593
-9.0756 -5.9370 -1.7269 0.9570
-9.0534 -7.1494 -1.8369 0.9543
-8.8014 -8.3243 -1.9291 0.9521
5.7257 -0.3833 -0.9138 0.9770
5.4637 0.1218 -0.8702 0.9781
5.4172 1.1011 -0.8803 0.9779
5.6791 1.6926 -0.9436 0.9763
4.3796 14.1186 -2.3539 0.9419
2.6906 12.5212 -2.0393 0.9494
1.0548 8.5646 -1.3741 0.9657
0.3690 11.0361 -1.7583 0.9563
-3.9808 7.2640 -1.3190 0.9670
-4.7407 7.0736 -1.3559 0.9661
-5.2238 6.4657 -1.3236 0.9669
-6.0753 5.2535 -1.2789 0.9680
-6.4515 4.6435 -1.2657 0.9683
-6.7986 4.0268 -1.2582 0.9685
-4.5041 1.2338 -0.7436 0.9813
-3.5501 0.6396 -0.5744 0.9855
-3.2454 0.2900 -0.5188 0.9869
-3.1939 0.0000 -0.5632 0.9871
-8.3783 -2.2950 -1.5317 0.9653
-8.5110 -4.0653 -1.6631 0.9624
-8.4134 -7.2753 -1.9612 0.9558
-8.2460 -8.5262 -2.0915 0.9530
-7.6136 -9.4234 -2.1362 0.9520
-7.3278 -10.9338 -2.3209 0.9479
5.9882 -0.6699 -1.0625 0.9758
5.4726 1.3688 -0.9947 0.9773
4.7934 13.3234 -2.4967 0.9441
3.3000 12.5961 -2.2960 0.9485
1.8965 11.2437 -2.0106 0.9547
0.8292 10.6121 -1.8769 0.9577
-0.1116 10.0221 -1.7673 0.9601
-0.9486 9.4292 -1.6710 0.9622
-1.6967 8.8518 -1.5892 0.9641
-2.3683 8.2826 -1.5190 0.9656
-4.2143 6.9376 -1.4313 0.9676
-4.7452 6.4403 -1.4105 0.9680
-5.1909 5.8694 -1.3816 0.9687
-6.3243 4.1371 -1.3325 0.9698
-6.6437 3.5452 -1.3278 0.9699
-6.9372 2.9417 -1.3286 0.9699
-3.8238 0.8664 -0.6913 0.9842
-3.1779 0.4274 -0.5654 0.9871
-3.2276 -0.1439 -0.5697 0.9870
-8.4234 -2.7162 -1.5606 0.9647
-8.4903 -3.6001 -1.6261 0.9632
-8.5148 -5.5701 -1.7941 0.9595
-8.4606 -6.6812 -1.9009 0.9572
-7.1427 -11.7585 -2.4259 0.9457
5.7023 -0.3817 -1.0077 0.9771
5.3423 0.5976 -0.9479 0.9784
4.0188 12.9555 -2.3918 0.9464
2.4860 11.5687 -2.0864 0.9531
1.0549 8.5654 -1.5217 0.9656
-0.5422 9.7235 -1.7172 0.9612
-2.0414 8.5662 -1.5527 0.9649
-2.6788 8.0013 -1.4878 0.9663
-3.2552 7.4448 -1.4327 0.9675
-3.7788 6.8954 -1.3864 0.9686
-5.7927 5.0092 -1.3503 0.9694
-6.1543 4.4296 -1.3370 0.9697
-6.4873 3.8425 -1.3295 0.9698
-7.0748 2.6347 -1.3312 0.9698
-3.1015 0.0000 -0.6002 0.9874
-3.3117 -0.5966 -0.6512 0.9864
-8.0186 -2.9861 -1.6559 0.9657
-8.0473 -3.8438 -1.7258 0.9643
-8.0375 -4.7606 -1.8078 0.9627
-7.9836 -5.7462 -1.9035 0.9607
-7.8781 -6.8124 -2.0155 0.9585
-7.3242 -9.0653 -2.2553 0.9536
-6.3308 -11.5522 -2.5492 0.9477
5.9616 -0.6669 -1.1609 0.9759
5.3250 0.8373 -1.0431 0.9783
5.4568 1.3649 -1.0885 0.9773
5.9709 12.8670 -2.7450 0.9438
1.7663 10.4716 -2.0551 0.9577
0.7767 9.9397 -1.9294 0.9602
-0.8937 8.8836 -1.7278 0.9643
-2.2425 7.8427 -1.5785 0.9673
-3.3491 6.8152 -1.4695 0.9695
-4.0560 6.6770 -1.5118 0.9687
-4.5241 6.1402 -1.4759 0.9694
-5.7115 4.5104 -1.4084 0.9708
-6.6319 2.8122 -1.3940 0.9711
-6.8877 2.2210 -1.4005 0.9709
-3.6833 0.8345 -0.7308 0.9847
-3.1048 0.4176 -0.6062 0.9873
-3.0751 0.1371 -0.5957 0.9875
-3.1273 -0.1394 -0.6058 0.9873
-3.2339 -0.4349 -0.6315 0.9868
-7.9131 -1.7929 -1.5701 0.9675
-8.0374 -3.4082 -1.6894 0.9651
-7.9378 -6.2684 -1.9573 0.9596
-6.5543 -10.7898 -2.4431 0.9499
-6.0563 -12.3242 -2.6574 0.9456
5.4189 0.1208 -1.0489 0.9782
5.3175 0.5949 -1.0354 0.9784
1.0563 8.5764 -1.6722 0.9654
-3.0917 7.0710 -1.4934 0.9690
-5.5338 4.7853 -1.4158 0.9706
-6.2016 3.6732 -1.3948 0.9711
-6.7628 2.5185 -1.3965 0.9710
-3.3306 0.6000 -0.6549 0.9863
-7.6009 -4.5020 -1.8624 0.9645
-7.4039 -6.4024 -2.0635 0.9608
-7.2190 -7.4644 -2.1892 0.9584
-6.5949 -9.8403 -2.4973 0.9527
-5.5397 -12.6697 -2.9152 0.9450
5.3409 0.3575 -1.1285 0.9784
4.0844 11.3529 -2.5436 0.9519
0.7292 9.3325 -1.9735 0.9625
-1.5180 7.9193 -1.6999 0.9676
-2.6841 6.9690 -1.5744 0.9699
-3.2644 6.6428 -1.5604 0.9702
-4.3215 5.8651 -1.5359 0.9707
-4.7360 5.3551 -1.5071 0.9712
-5.1169 4.8396 -1.4848 0.9716
-5.7881 3.7864 -1.4581 0.9721
-6.3507 2.6929 -1.4542 0.9722
-6.5942 2.1264 -1.4607 0.9721
-3.5520 0.8048 -0.7678 0.9852
-2.9940 0.1335 -0.6318 0.9878
-7.5371 -1.7077 -1.6292 0.9689
-7.5990 -2.4503 -1.6832 0.9679
-7.6280 -3.2345 -1.7467 0.9667
-7.6201 -4.0662 -1.8209 0.9653
-7.5706 -4.9524 -1.9072 0.9637
-7.4731 -5.9014 -2.0075 0.9618
-6.8024 -9.2322 -2.4176 0.9542
-6.2967 -10.3658 -2.5569 0.9516
-5.1490 -13.3691 -3.0203 0.9431
5.4025 0.1204 -1.1392 0.9782
5.6117 1.6725 -1.2345 0.9763
6.2694 12.0708 -2.8675 0.9459
4.7651 11.5953 -2.6429 0.9500
0.3042 9.0989 -1.9193 0.9635
-0.4811 8.6287 -1.8219 0.9653
-2.4129 7.2070 -1.6023 0.9694
-2.9431 6.7310 -1.5487 0.9704
-4.1006 6.1185 -1.5528 0.9703
-4.5331 5.6107 -1.5207 0.9709
-4.9305 5.0981 -1.4952 0.9714
-5.6310 4.0529 -1.4626 0.9720
-6.2196 2.9709 -1.4531 0.9722
-3.2435 0.5843 -0.6948 0.9866
-2.9710 0.0000 -0.6781 0.9879
-3.0430 -0.2719 -0.6973 0.9875
-3.1642 -0.5700 -0.7338 0.9869
-7.2528 -2.7009 -1.7665 0.9687
-7.1194 -5.1242 -2.0021 0.9647
-6.1650 -9.1988 -2.5275 0.9556
-5.7160 -10.4304 -2.7147 0.9524
5.9429 -0.6648 -1.3649 0.9758
5.3351 0.3572 -1.2204 0.9783
5.3100 0.8350 -1.2269 0.9782
5.9938 2.0813 -1.4482 0.9743
8.1720 11.6249 -3.2433 0.9434
6.5285 11.3076 -2.9802 0.9478
3.8005 10.5637 -2.5624 0.9550
2.6608 10.1562 -2.3963 0.9578
1.5512 9.1965 -2.1287 0.9625
-0.0933 8.3748 -1.9116 0.9662
-0.7998 7.9500 -1.8237 0.9677
-1.4413 7.5191 -1.7474 0.9691
-2.0252 7.0827 -1.6814 0.9702
-3.6993 6.0899 -1.6263 0.9712
-4.9031 4.6373 -1.5403 0.9727
-5.2408 4.1387 -1.5242 0.9730
-5.5504 3.6309 -1.5138 0.9732
-5.8332 3.1127 -1.5091 0.9732
-6.0905 2.5826 -1.5099 0.9732
-6.3230 2.0389 -1.5163 0.9731
-3.4289 0.7769 -0.8025 0.9857
-7.1929 -1.6297 -1.6833 0.9702
-7.2333 -3.8598 -1.8713 0.9669
-7.0570 -5.5728 -2.0524 0.9638
-6.8899 -6.5164 -2.1645 0.9618
-6.3514 -8.6201 -2.4439 0.9570
-5.4483 -11.0868 -2.8195 0.9506
-3.9281 -13.7375 -3.2612 0.9431
5.6585 -0.3788 -1.2944 0.9770
5.3988 0.1203 -1.2325 0.9781
5.3003 0.5929 -1.2173 0.9784
5.3499 1.0874 -1.2460 0.9779
5.5968 1.6681 -1.3330 0.9763
5.7824 11.1331 -2.8634 0.9498
4.4219 10.7600 -2.6552 0.9534
3.2144 10.3622 -2.4763 0.9565
0.2870 8.5841 -1.9603 0.9654
-0.4552 8.1634 -1.8661 0.9670
-1.7400 7.3015 -1.7132 0.9697
-2.8774 6.5807 -1.6393 0.9710
-3.4672 6.3268 -1.6467 0.9708
-3.9217 5.8516 -1.6078 0.9715
-4.7230 4.8836 -1.5507 0.9725
-5.6950 3.3732 -1.5108 0.9732
-5.9650 2.8493 -1.5088 0.9732
-6.2098 2.3126 -1.5124 0.9732
-3.8725 1.0608 -0.9164 0.9837
-2.9882 -0.2670 -0.7374 0.9877
-3.1004 -0.5586 -0.7743 0.9871
-6.8488 -4.0565 -1.9566 0.9677
-5.3211 -9.7098 -2.7216 0.9554
-3.1675 -13.2912 -3.3585 0.9453
5.4981 -0.1225 -1.3518 0.9776
5.3294 0.3568 -1.3129 0.9782
6.0626 2.1052 -1.5775 0.9739
9.1599 10.8345 -3.4873 0.9432
4.7255 10.1832 -2.7594 0.9548
3.5517 9.8722 -2.5789 0.9577
1.4612 8.6625 -2.1593 0.9645
0.6490 8.3050 -2.0476 0.9663
-0.7594 7.5489 -1.8649 0.9692
-1.3714 7.1547 -1.7906 0.9704
-2.5243 6.5541 -1.7263 0.9715
-3.5418 5.8307 -1.6769 0.9723
-3.9626 5.3781 -1.6420 0.9729
-4.3495 4.9180 -1.6138 0.9733
-5.8491 2.4802 -1.5616 0.9742
-6.0713 1.9578 -1.5680 0.9741
-3.3132 0.7507 -0.8350 0.9861
-2.8899 0.3887 -0.7167 0.9881
-2.8978 0.1292 -0.7130 0.9881
-2.9494 -0.1315 -0.7257 0.9879
-3.1571 -0.7153 -0.7957 0.9868
-6.9129 -2.2291 -1.7853 0.9705
-6.8052 -4.4518 -1.9988 0.9671
-6.5050 -6.1523 -2.2008 0.9638
-6.2656 -7.0846 -2.3247 0.9618
-5.9536 -8.0803 -2.4670 0.9595
-5.5564 -9.1471 -2.6307 0.9569
-3.6040 -12.6041 -3.2223 0.9474
-2.6853 -14.0089 -3.5061 0.9429
5.2946 0.5923 -1.3095 0.9783
5.3404 1.0855 -1.3395 0.9778
8.3086 10.7658 -3.3426 0.9455
4.1227 10.0319 -2.6659 0.9563
3.0106 9.7052 -2.4977 0.9590
2.0098 9.3527 -2.3514 0.9614
1.0451 8.4853 -2.1014 0.9654
0.2715 8.1209 -1.9972 0.9671
-1.0724 7.3530 -1.8265 0.9699
-1.6573 6.9543 -1.7572 0.9710
-2.1998 6.5704 -1.7031 0.9719
-2.8405 6.4964 -1.7428 0.9712
-3.7566 5.6053 -1.6586 0.9726
-4.5310 4.6850 -1.6020 0.9735
-4.8716 4.2127 -1.5831 0.9738
-5.1839 3.7311 -1.5699 0.9740
-5.4692 3.2394 -1.5624 0.9742
-5.7287 2.7364 -1.5605 0.9742
-5.9633 2.2208 -1.5641 0.9741
-3.8036 1.0419 -0.9694 0.9839
-2.8807 0.2574 -0.7109 0.9882
-2.8744 0.0000 -0.7574 0.9882
-2.9343 -0.2622 -0.7763 0.9879
-3.0385 -0.5474 -0.8135 0.9873
-6.6116 -2.4622 -1.8591 0.9712
-6.4144 -4.6168 -2.0825 0.9678
-5.4139 -8.0780 -2.5624 0.9606
-3.7117 -11.0861 -3.0806 0.9528
-1.9657 -13.4779 -3.5890 0.9452
5.9690 -0.6677 -1.5826 0.9755
5.3235 0.3564 -1.4059 0.9782
5.3021 0.8337 -1.4143 0.9780
8.4095 9.9468 -3.4321 0.9475
5.6106 9.7178 -2.9568 0.9546
4.4138 9.5116 -2.7630 0.9576
2.3515 8.9755 -2.4449 0.9623
1.4521 8.6089 -2.3005 0.9645
-0.0839 7.5327 -1.9850 0.9693
-2.4742 6.4241 -1.8139 0.9719
-2.9543 6.0118 -1.7650 0.9727
-3.3961 5.5908 -1.7237 0.9733
-3.8028 5.1612 -1.6893 0.9738
-4.1770 4.7230 -1.6614 0.9743
-4.8362 3.8191 -1.6238 0.9748
-5.1245 3.3523 -1.6136 0.9750
-5.3870 2.8746 -1.6089 0.9751
-5.6243 2.3849 -1.6097 0.9750
-3.2212 0.7298 -0.8703 0.9864
-2.8515 0.1272 -0.7521 0.9883
-2.9007 -0.1293 -0.7651 0.9881
-2.9836 -0.4013 -0.7933 0.9876
-3.0953 -0.7013 -0.8363 0.9870
-6.6108 -2.1317 -1.8303 0.9717
-6.1581 -5.8243 -2.2335 0.9655
-5.9138 -6.6868 -2.3522 0.9637
-4.7180 -9.6008 -2.8188 0.9567
-4.0865 -10.6105 -2.9961 0.9541
5.3913 0.1202 -1.4209 0.9779
5.3467 1.0868 -1.4377 0.9777
9.2060 9.9534 -3.5726 0.9455
4.9970 9.6209 -2.8566 0.9561
3.8594 9.3912 -2.6754 0.9589
2.8297 9.1222 -2.5167 0.9613
-1.5846 6.6491 -1.8011 0.9721
-3.6037 5.3770 -1.7056 0.9736
-3.9938 4.9432 -1.6745 0.9741
-4.6820 4.0487 -1.6310 0.9747
-4.9836 3.5870 -1.6180 0.9749
-5.2589 3.1149 -1.6106 0.9750
-5.7338 2.1353 -1.6122 0.9750
-3.0018 0.5408 -0.8037 0.9875
-2.8279 0.0000 -0.7956 0.9883
-6.3283 -2.3567 -1.9000 0.9723
-6.1081 -4.3963 -2.1174 0.9692
-5.9452 -5.1410 -2.2114 0.9679
-5.7280 -5.9227 -2.3182 0.9663
-4.6680 -8.5180 -2.7329 0.9604
-3.4574 -10.3267 -3.0640 0.9558
-0.7535 -13.5131 -3.8079 0.9453
6.0090 -0.6722 -1.7012 0.9752
5.3136 0.8355 -1.5134 0.9779
9.2193 9.1172 -3.6481 0.9475
7.7674 9.1874 -3.3849 0.9512
6.4437 9.1664 -3.1525 0.9545
5.2376 9.0719 -2.9473 0.9574
4.1384 8.9182 -2.7662 0.9600
3.1360 8.7167 -2.6064 0.9622
2.2207 8.4764 -2.4654 0.9642
0.5995 7.6722 -2.1652 0.9685
-0.0804 7.2169 -2.0306 0.9705
-1.2856 6.7070 -1.9214 0.9720
-2.3706 6.1552 -1.8558 0.9730
-2.8338 5.7667 -1.8078 0.9737
-4.0163 4.5413 -1.7057 0.9751
-4.6542 3.6754 -1.6686 0.9757
-4.9328 3.2269 -1.6585 0.9758
-5.1860 2.7674 -1.6539 0.9759
-3.1370 0.7108 -0.9050 0.9867
-2.7751 0.3732 -0.7878 0.9884
-2.8062 0.1251 -0.7903 0.9884
-2.9298 -0.3940 -0.8317 0.9878
-3.0353 -0.6877 -0.8756 0.9872
-6.3162 -2.6783 -1.9303 0.9719
-6.1711 -4.0369 -2.0748 0.9698
-6.0330 -4.7642 -2.1629 0.9686
-5.8438 -5.5270 -2.2631 0.9671
-4.4181 -8.9905 -2.8185 0.9592
-3.8295 -9.9431 -2.9979 0.9567
-3.0881 -10.7998 -3.1604 0.9544
5.6844 -0.3805 -1.6029 0.9766
5.4005 0.1204 -1.5198 0.9778
8.4767 9.1650 -3.5125 0.9494
7.0902 9.1871 -3.2651 0.9529
5.8267 9.1273 -3.0467 0.9560
0.2479 7.4153 -2.0875 0.9696
-0.3938 7.0620 -1.9900 0.9710
-0.9920 6.8019 -1.9340 0.9718
-2.1245 6.3454 -1.8827 0.9726
-3.4615 5.1649 -1.7493 0.9745
-3.8390 4.7516 -1.7187 0.9749
-4.1862 4.3285 -1.6942 0.9753
-4.5050 3.8957 -1.6757 0.9756
-4.7967 3.4525 -1.6628 0.9757
-3.6501 0.9999 -1.0648 0.9844
-2.9229 0.5266 -0.8356 0.9877
-2.7884 0.2492 -0.7877 0.9884
-2.8308 -0.2529 -0.8509 0.9882
-6.0659 -2.2589 -1.9379 0.9733
-6.0256 -2.8782 -1.9992 0.9725
-5.9474 -3.5226 -2.0694 0.9716
-5.8272 -4.1941 -2.1494 0.9705
-5.6602 -4.8946 -2.2403 0.9692
-5.4408 -5.6258 -2.3431 0.9678
-5.1623 -6.3894 -2.4592 0.9663
-3.2361 -9.6657 -3.0516 0.9583
5.5315 -0.1233 -1.6564 0.9772
5.3465 0.3579 -1.6042 0.9779
5.3252 0.8374 -1.6138 0.9777
7.2117 8.5301 -3.3441 0.9544
6.0123 8.5526 -3.1298 0.9573
4.9083 8.5014 -2.9389 0.9598
3.8933 8.3898 -2.7690 0.9621
2.9603 8.2284 -2.6180 0.9641
2.1027 8.0260 -2.4839 0.9660
0.5880 7.5248 -2.2596 0.9690
-0.0804 7.2137 -2.1598 0.9703
-2.2745 5.9057 -1.8946 0.9739
-3.5154 4.7712 -1.7742 0.9756
-3.8661 4.3715 -1.7471 0.9759
-4.1885 3.9615 -1.7260 0.9762
-4.4839 3.5409 -1.7105 0.9764
-4.7534 3.1095 -1.7005 0.9766
-5.2179 2.2126 -1.6968 0.9766
-2.7204 0.3659 -0.8218 0.9886
-2.7619 0.1232 -0.8277 0.9885
-2.8066 -0.1251 -0.8411 0.9883
-2.9771 -0.6745 -0.9139 0.9873
-5.9915 -3.1971 -2.0331 0.9720
-5.8928 -3.8549 -2.1081 0.9710
-5.3094 -6.0034 -2.3994 0.9671
-4.1517 -8.4484 -2.8182 0.9615
-2.1074 -10.9940 -3.3513 0.9543
1.0840 -13.8724 -4.1658 0.9436
5.4172 0.1207 -1.6222 0.9776
5.3162 0.5947 -1.6015 0.9779
5.3695 1.0914 -1.6404 0.9774
5.6853 1.6944 -1.7761 0.9755
10.6608 8.0397 -3.9975 0.9458
9.2019 8.3227 -3.7145 0.9495
7.8491 8.4863 -3.4607 0.9529
6.5996 8.5514 -3.2339 0.9559
5.4487 8.5353 -3.0316 0.9586
4.3901 8.4525 -2.8515 0.9610
2.5225 8.1318 -2.5489 0.9651
0.9435 7.6604 -2.3107 0.9683
0.2468 7.3833 -2.2116 0.9696
-0.3935 7.0578 -2.1162 0.9709
-2.0371 6.0846 -1.9210 0.9736
-3.3289 4.9671 -1.7901 0.9753
-5.3188 1.9808 -1.6992 0.9766
-3.5598 0.9751 -1.1050 0.9847
-2.7412 0.2450 -0.8239 0.9886
-2.7380 0.0000 -0.8695 0.9886
-5.8221 -2.1682 -1.9731 0.9743
-5.6928 -3.3718 -2.1013 0.9726
-5.5685 -4.0080 -2.1789 0.9716
-5.3989 -4.6686 -2.2667 0.9705
-4.5613 -6.8059 -2.6020 0.9662
-4.1492 -7.5712 -2.7419 0.9644
-3.0461 -9.0981 -3.0471 0.9605
-2.3435 -9.8338 -3.2105 0.9585
-0.6406 -11.4891 -3.6544 0.9529
0.4118 -12.3156 -3.9134 0.9496
2.9782 -13.8596 -4.5021 0.9422
6.1640 -0.6895 -1.9698 0.9743
5.5080 1.3777 -1.8031 0.9765
7.9004 7.8130 -3.5287 0.9544
4.6152 7.9938 -2.9314 0.9620
3.6735 7.9161 -2.7715 0.9640
2.8018 7.7878 -2.6285 0.9659
1.2500 7.4108 -2.3868 0.9690
0.5606 7.1745 -2.2854 0.9702
-0.0770 6.9127 -2.1955 0.9714
-0.6669 6.6290 -2.1159 0.9724
-1.2127 6.3265 -2.0458 0.9733
-1.7177 6.0073 -1.9843 0.9741
-3.7255 4.2125 -1.7859 0.9767
-4.0379 3.8190 -1.7651 0.9769
-4.5849 2.9993 -1.7400 0.9773
-4.8212 2.5727 -1.7355 0.9773
-2.6672 0.3587 -0.8547 0.9888
-2.7186 0.1212 -0.8642 0.9886
-2.7612 -0.1231 -0.8778 0.9885
-2.8255 -0.3800 -0.9054 0.9881
-5.8035 -2.4609 -2.0020 0.9739
-5.4897 -4.3351 -2.2215 0.9711
-5.0477 -5.7075 -2.4198 0.9685
-4.3647 -7.1853 -2.6700 0.9653
-3.9134 -7.9634 -2.8179 0.9634
-2.7012 -9.4465 -3.1203 0.9596
-1.9639 -10.2457 -3.3131 0.9572
-0.1327 -11.9025 -3.7803 0.9513
2.2760 -13.4933 -4.3458 0.9442
5.3296 0.5962 -1.7032 0.9777
5.7468 1.7127 -1.9044 0.9751
12.6162 6.3753 -4.4892 0.9424
11.1827 6.9646 -4.1839 0.9462
8.5182 7.7043 -3.6476 0.9529
6.1686 7.9929 -3.2065 0.9585
5.1137 8.0105 -3.0182 0.9609
1.6155 7.5180 -2.4421 0.9682
0.2356 7.0465 -2.2391 0.9708
-0.3777 6.7734 -2.1545 0.9719
-0.9451 6.4800 -2.0797 0.9729
-1.4701 6.1688 -2.0140 0.9737
-1.9559 5.8421 -1.9566 0.9745
-2.4054 5.5013 -1.9068 0.9751
-3.2049 4.7821 -1.8282 0.9761
-4.4576 3.2084 -1.7442 0.9772
-4.7060 2.7874 -1.7371 0.9773
-4.9302 2.3550 -1.7352 0.9773
-3.4730 0.9514 -1.1436 0.9850
-2.7749 0.4999 -0.8954 0.9882
-2.6951 0.2408 -0.8593 0.9887
-2.6945 0.0000 -0.9053 0.9887
-2.7374 -0.2446 -0.9234 0.9885
-2.8971 -0.7936 -1.0092 0.9874
-5.5949 -2.0835 -2.0059 0.9751
-4.6640 -5.7726 -2.4934 0.9692
-3.4503 -7.8909 -2.8936 0.9643
-2.8781 -8.5965 -3.0458 0.9625
-0.5954 -10.6784 -3.5933 0.9559
0.3806 -11.3852 -3.8274 0.9531
2.7237 -12.6751 -4.3558 0.9468
6.4332 -0.7196 -2.1749 0.9731
5.3728 0.8448 -1.8273 0.9773
12.1807 5.4883 -4.4887 0.9452
9.6824 6.6466 -3.9458 0.9517
8.4946 7.0210 -3.7027 0.9546
3.4752 7.4888 -2.7738 0.9658
1.1915 7.0637 -2.4068 0.9702
-0.0737 6.6138 -2.2222 0.9725
-0.6390 6.3523 -2.1450 0.9734
-2.1015 5.4565 -1.9645 0.9756
-2.5195 5.1271 -1.9194 0.9762
-2.9064 4.7846 -1.8809 0.9767
-3.8963 3.6851 -1.8018 0.9776
-4.1737 3.2960 -1.7868 0.9778
-4.6548 2.4839 -1.7727 0.9780
-5.0408 1.6255 -1.7795 0.9779
-2.6272 0.5952 -0.9050 0.9887
-2.6180 0.3521 -0.8875 0.9889
-2.6762 0.1193 -0.9001 0.9888
-2.7168 -0.1211 -0.9137 0.9886
-2.7751 -0.3732 -0.9408 0.9883
-5.2496 -4.1455 -2.2474 0.9722
-4.8082 -5.4367 -2.4385 0.9698
-4.5046 -6.1137 -2.5515 0.9685
-2.5394 -8.8809 -3.1034 0.9618
-1.0379 -10.3171 -3.4839 0.9572
-0.1229 -11.0351 -3.7078 0.9545
3.3935 -12.9528 -4.4988 0.9451
5.8057 -0.3886 -1.9550 0.9757
5.4595 0.1217 -1.8348 0.9772
5.3590 0.5995 -1.8117 0.9775
5.4300 1.1037 -1.8617 0.9769
12.8173 5.1012 -4.6349 0.9435
11.5460 5.8344 -4.3464 0.9469
10.2944 6.4114 -4.0747 0.9501
6.8231 7.3771 -3.3762 0.9585
5.7866 7.4979 -3.1822 0.9608
4.8146 7.5419 -3.0062 0.9629
3.9062 7.5207 -2.8473 0.9649
3.0593 7.4443 -2.7041 0.9666
0.2252 6.7360 -2.2644 0.9720
-0.3616 6.4857 -2.1825 0.9730
-1.8802 5.6159 -1.9898 0.9753
-2.7168 4.9575 -1.8993 0.9764
-3.0887 4.6086 -1.8640 0.9769
-3.7481 3.8755 -1.8114 0.9775
-4.3030 3.0972 -1.7813 0.9779
-4.5436 2.6912 -1.7742 0.9780
-4.9531 1.8446 -1.7758 0.9779
-2.6265 0.7195 -0.9150 0.9886
-2.7169 0.4895 -0.9275 0.9884
-2.7668 -0.4985 -0.9969 0.9881
-2.8417 -0.7784 -1.0448 0.9876
-5.3824 -2.0044 -2.0366 0.9759
-5.3276 -2.5448 -2.0935 0.9753
-4.7166 -4.8769 -2.4057 0.9716
-4.4458 -5.5026 -2.5084 0.9704
-3.7261 -6.7993 -2.7492 0.9676
-2.0691 -8.6824 -3.1649 0.9628
-1.3603 -9.3270 -3.3422 0.9608
-0.5558 -9.9675 -3.5398 0.9585
1.3737 -11.1537 -3.9848 0.9534
2.5071 -11.6669 -4.2314 0.9506
5.0981 -12.4054 -4.7557 0.9447
5.4241 0.3631 -1.9276 0.9772
5.6102 1.4032 -2.0506 0.9758
11.1843 5.0394 -4.3498 0.9493
10.0749 5.6680 -4.0989 0.9521
6.8933 6.8169 -3.4376 0.9597
4.9890 7.0970 -3.0761 0.9639
2.5268 7.0234 -2.6467 0.9688
-1.1180 5.8324 -2.1057 0.9751
-1.5873 5.5512 -2.0473 0.9758
-2.0233 5.2534 -1.9962 0.9764
-3.1493 4.2742 -1.8825 0.9777
-3.4690 3.9224 -1.8567 0.9780
-3.7629 3.5589 -1.8365 0.9783
-4.8702 1.5704 -1.8145 0.9785
-2.5615 0.5804 -0.9313 0.9889
-2.5748 0.3463 -0.9212 0.9890
-2.6733 -0.1192 -0.9489 0.9887
-2.7260 -0.3666 -0.9753 0.9884
-2.8093 -0.6365 -1.0214 0.9878
-2.8709 -0.9257 -1.0696 0.9873
-5.2870 -2.8212 -2.1249 0.9749
-5.0273 -3.9700 -2.2714 0.9732
-4.8323 -4.5703 -2.3584 0.9722
-4.5880 -5.1877 -2.4557 0.9710
-4.2893 -5.8214 -2.5640 0.9698
-3.9302 -6.4701 -2.6843 0.9684
-3.5045 -7.1314 -2.8175 0.9668
-1.7252 -9.0004 -3.2495 0.9619
-0.9708 -9.6499 -3.4390 0.9597
0.8496 -10.8728 -3.8671 0.9548
1.9265 -11.4212 -4.1070 0.9520
3.1154 -11.8914 -4.3588 0.9492
5.5037 0.1227 -1.9520 0.9769
6.0271 1.7963 -2.2300 0.9737
10.6291 5.3711 -4.2228 0.9507
9.5242 5.9317 -3.9786 0.9535
7.3975 6.6906 -3.5368 0.9586
6.3981 6.9175 -3.3412 0.9608
5.4456 7.0561 -3.1604 0.9629
4.5457 7.1207 -2.9955 0.9648
2.9047 7.0682 -2.7096 0.9681
2.1615 6.9679 -2.5869 0.9695
-0.8701 5.9662 -2.1379 0.9747
-1.3570 5.6940 -2.0756 0.9755
-2.2294 5.0988 -1.9732 0.9767
-2.6189 4.7788 -1.9323 0.9771
-3.6191 3.7421 -1.8459 0.9781
-3.9005 3.3729 -1.8284 0.9784
-4.1573 2.9923 -1.8163 0.9785
-4.5998 2.1971 -1.8075 0.9786
-2.6060 0.2329 -0.9277 0.9890
-2.6101 0.0000 -0.9746 0.9889
-2.6498 -0.2368 -0.9934 0.9887
-2.7171 -0.4895 -1.0309 0.9883
-2.7878 -0.7636 -1.0793 0.9877
-5.0322 -2.9806 -2.1840 0.9753
-4.7292 -4.0895 -2.3346 0.9737
-4.2449 -5.2540 -2.5222 0.9716
-2.5772 -7.6976 -3.0312 0.9659
-1.9537 -8.1981 -3.1470 0.9647
-1.2790 -8.7693 -3.3092 0.9629
0.3302 -9.8750 -3.6895 0.9587
3.4558 -11.1403 -4.3555 0.9514
5.9634 -11.4817 -4.8312 0.9463
5.7012 -0.1271 -2.1294 0.9759
5.4683 0.3661 -2.0465 0.9769
5.4529 0.8574 -2.0612 0.9767
9.3459 5.2579 -4.0042 0.9552
8.3645 5.7419 -3.7885 0.9576
6.4734 6.4017 -3.3996 0.9619
4.7153 6.7077 -3.0617 0.9656
3.9008 6.7565 -2.9132 0.9672
3.1313 6.7478 -2.7778 0.9687
1.7260 6.5880 -2.5430 0.9713
1.0878 6.4492 -2.4422 0.9725
0.4906 6.2782 -2.3515 0.9735
-0.0677 6.0789 -2.2701 0.9744
-0.5890 5.8551 -2.1974 0.9752
-1.5283 5.3448 -2.0758 0.9765
-1.9499 5.0627 -2.0258 0.9771
-2.3416 4.7650 -1.9825 0.9776
-3.0412 4.1276 -1.9145 0.9783
-3.3516 3.7897 -1.8891 0.9786
-4.1354 2.7053 -1.8453 0.9791
-2.5436 0.5763 -0.9739 0.9889
-2.5325 0.3406 -0.9542 0.9891
-2.6307 -0.1173 -0.9833 0.9888
-2.7556 -0.6243 -1.0551 0.9880
-2.8043 -0.9043 -1.1002 0.9875
-5.0832 -2.7125 -2.1515 0.9757
-4.8207 -3.8068 -2.2937 0.9741
-4.6264 -4.3756 -2.3778 0.9732
-4.3849 -4.9580 -2.4716 0.9721
-2.8458 -7.3888 -2.9566 0.9668
-2.2706 -7.9407 -3.0840 0.9654
-1.6248 -8.4762 -3.2228 0.9638
2.8769 -10.9809 -4.2388 0.9527
5.3119 -11.4468 -4.7122 0.9475
7.9738 -11.3430 -5.1774 0.9425
6.0123 -0.4025 -2.2501 0.9746
5.5492 0.1237 -2.0726 0.9766
11.7626 3.5056 -4.5832 0.9489
10.8156 4.3045 -4.3468 0.9515
9.8385 4.9716 -4.1162 0.9540
8.8539 5.5142 -3.8949 0.9564
6.9374 6.2745 -3.4929 0.9608
6.0186 6.5073 -3.3099 0.9629
5.1392 6.6590 -3.1409 0.9647
2.7634 6.7244 -2.7147 0.9694
1.4017 6.5229 -2.4913 0.9719
0.7842 6.3674 -2.3956 0.9730
0.2067 6.1818 -2.3096 0.9739
-0.3329 5.9699 -2.2327 0.9748
-0.8364 5.7349 -2.1641 0.9756
-1.3058 5.4795 -2.1034 0.9762
-2.1494 4.9158 -2.0034 0.9774
-2.5267 4.6108 -1.9633 0.9778
-2.8764 4.2919 -1.9293 0.9782
-3.1996 3.9602 -1.9011 0.9785
-3.7704 3.2604 -1.8613 0.9789
-4.2454 2.5146 -1.8425 0.9792
-4.4481 2.1247 -1.8407 0.9792
-3.4441 0.9434 -1.3335 0.9849
-2.5629 0.2290 -0.9608 0.9891
-2.6685 -0.4808 -1.0642 0.9884
-2.7221 -0.7457 -1.1077 0.9879
-4.8405 -2.8670 -2.2080 0.9761
-4.7087 -3.3891 -2.2770 0.9754
-4.3219 -4.4687 -2.4399 0.9736
-4.0592 -5.0241 -2.5350 0.9726
-3.7448 -5.5876 -2.6399 0.9715
-3.3739 -6.1566 -2.7553 0.9703
-2.9417 -6.7278 -2.8818 0.9689
4.3129 -10.4947 -4.4531 0.9524
5.4793 -10.5495 -4.6655 0.9502
7.8866 -10.2189 -5.0661 0.9460
9.0675 -9.8037 -5.2411 0.9442
10.1848 -9.2116 -5.3897 0.9427
13.4439 -1.5039 -5.3092 0.9435
9.5872 4.3198 -4.1270 0.9558
8.7079 4.8990 -3.9213 0.9580
7.8223 5.3697 -3.7238 0.9600
6.9450 5.7401 -3.5362 0.9620
5.2658 6.2284 -3.2010 0.9656
4.4672 6.3547 -3.0486 0.9672
2.2961 6.3821 -2.6619 0.9713
1.6499 6.2975 -2.5550 0.9724
0.4705 6.0213 -2.3704 0.9744
-0.0650 5.8385 -2.2916 0.9752
-0.5664 5.6307 -2.2210 0.9760
-2.2603 4.5996 -2.0114 0.9782
-2.6128 4.3012 -1.9751 0.9786
-3.2405 3.6641 -1.9198 0.9792
-3.5176 3.3269 -1.9002 0.9794
-4.2091 2.2460 -1.8724 0.9797
-4.3940 1.8632 -1.8732 0.9797
-2.5568 0.5793 -1.0289 0.9888
-2.5889 -0.1154 -1.0171 0.9889
-2.7236 -0.8782 -1.1231 0.9878
-4.6281 -3.6548 -2.3145 0.9750
-4.4351 -4.1947 -2.3959 0.9741
-3.5667 -5.8716 -2.6963 0.9709
-3.1658 -6.4422 -2.8172 0.9696
-2.7009 -7.0127 -2.9494 0.9682
-2.1582 -7.5479 -3.0811 0.9668
-1.5350 -8.0078 -3.2000 0.9656
-0.1005 -9.0194 -3.5401 0.9620
2.6683 -10.1847 -4.1321 0.9558
3.7490 -10.4205 -4.3464 0.9535
8.4825 -10.0332 -5.1565 0.9451
13.5418 -2.1293 -5.3801 0.9428
5.5066 0.6160 -2.1747 0.9765
5.6169 1.1417 -2.2495 0.9757
10.8526 3.2344 -4.4445 0.9525
10.0189 3.9874 -4.2321 0.9547
9.1495 4.6234 -4.0233 0.9569
8.2649 5.1475 -3.8214 0.9590
6.5240 5.9006 -3.4524 0.9629
4.8622 6.3001 -3.1233 0.9664
4.0814 6.3935 -2.9770 0.9679
1.9682 6.3448 -2.6072 0.9719
0.1984 5.9332 -2.3299 0.9748
-0.3199 5.7375 -2.2553 0.9756
-1.2578 5.2781 -2.1295 0.9770
-1.6804 5.0192 -2.0773 0.9775
-2.0740 4.7434 -2.0318 0.9780
-2.4399 4.4522 -1.9925 0.9784
-3.0929 3.8282 -1.9315 0.9791
-3.6473 3.1539 -1.8924 0.9795
-2.5633 0.4618 -1.0222 0.9889
-4.7568 -2.2721 -2.1707 0.9775
-4.6605 -2.7604 -2.2305 0.9768
-4.3577 -3.7682 -2.3723 0.9754
-4.1450 -4.2859 -2.4552 0.9745
-3.8869 -4.8109 -2.5468 0.9736
-2.3204 -6.9305 -3.0095 0.9689
-1.7553 -7.3655 -3.1179 0.9678
-1.1400 -7.8166 -3.2528 0.9664
0.2907 -8.6937 -3.5819 0.9631
2.9762 -9.5945 -4.1365 0.9575
6.1512 -9.6357 -4.7074 0.9518
7.2400 -9.3811 -4.8796 0.9500
8.3006 -8.9745 -5.0339 0.9485
11.6131 -5.8684 -5.3579 0.9453
5.6255 0.3766 -2.3217 0.9759
5.6087 0.8819 -2.3379 0.9757
8.9368 4.0268 -4.0363 0.9585
6.5450 5.4096 -3.4965 0.9639
4.9867 5.8983 -3.1805 0.9671
1.5793 6.0282 -2.5660 0.9734
0.9988 5.9211 -2.4726 0.9744
-0.5453 5.4202 -2.2432 0.9767
-0.9976 5.2042 -2.1820 0.9773
-1.4206 4.9682 -2.1278 0.9779
-1.8156 4.7140 -2.0801 0.9784
-2.5255 4.1576 -2.0031 0.9792
-3.1353 3.5451 -1.9488 0.9797
-3.4045 3.2199 -1.9296 0.9799
-3.8743 2.5345 -1.9064 0.9802
-4.0756 2.1748 -1.9022 0.9802
-4.2546 1.8042 -1.9030 0.9802
-4.4114 1.4225 -1.9086 0.9801
-2.6388 0.5979 -1.1141 0.9884
-2.4504 0.3296 -1.0181 0.9894
-2.6464 -0.8534 -1.1450 0.9880
-4.4481 -3.5126 -2.3339 0.9758
-4.2568 -4.0260 -2.4127 0.9750
-4.0219 -4.5476 -2.4999 0.9741
-3.7396 -5.0755 -2.5960 0.9731
-2.0530 -7.1796 -3.0749 0.9682
-1.4547 -7.5888 -3.1818 0.9671
-0.8098 -8.0494 -3.3313 0.9656
0.6943 -8.8854 -3.6700 0.9622
1.5560 -9.2245 -3.8521 0.9603
2.4869 -9.4924 -4.0407 0.9584
4.5256 -9.7528 -4.4273 0.9546
5.6054 -9.7088 -4.6164 0.9527
6.6972 -9.5269 -4.7954 0.9509
7.7757 -9.1971 -4.9593 0.9492
8.8104 -8.7128 -5.1024 0.9478
9.7684 -8.0738 -5.2186 0.9467
11.3228 -6.3703 -5.3498 0.9453
11.8583 -5.3431 -5.3558 0.9453
12.3674 -1.9447 -5.1552 0.9473
12.1745 -0.8150 -5.0245 0.9486
5.7355 0.1278 -2.3624 0.9755
5.7407 1.1668 -2.4122 0.9750
8.5433 4.3171 -3.9416 0.9594
7.7431 4.8225 -3.7563 0.9613
6.9378 5.2321 -3.5782 0.9631
6.1526 5.5647 -3.4161 0.9647
4.6103 5.9738 -3.1073 0.9679
3.8795 6.0772 -2.9689 0.9693
3.1802 6.1229 -2.8411 0.9706
2.5142 6.1179 -2.7237 0.9718
1.8823 6.0681 -2.6162 0.9729
-1.6215 4.8433 -2.1032 0.9781
-2.0028 4.5807 -2.0586 0.9786
-3.5304 3.0529 -1.9219 0.9800
-3.7653 2.7101 -1.9103 0.9801
-4.1679 1.9909 -1.9020 0.9802
-4.3358 1.6147 -1.9052 0.9802
-3.5071 0.9607 -1.4974 0.9844
-2.4793 0.2216 -1.0250 0.9893
-2.4893 0.0000 -1.0738 0.9892
-2.5221 -0.2254 -1.0923 0.9890
-2.5507 -0.6987 -1.1408 0.9885
-4.3593 -3.1376 -2.3168 0.9769
-3.0755 -5.6121 -2.7605 0.9725
-2.6707 -6.1080 -2.8756 0.9714
-1.6721 -7.0164 -3.1113 0.9691
-0.4360 -7.8195 -3.3782 0.9665
2.7801 -8.9622 -4.0477 0.9599
8.5474 -7.7307 -4.9713 0.9510
9.3643 -7.0620 -5.0593 0.9502
10.0668 -6.2697 -5.1157 0.9496
10.6338 -5.3735 -5.1394 0.9494
11.0501 -4.3978 -5.1302 0.9495
11.3020 -3.3684 -5.0871 0.9499
11.3869 -2.3145 -5.0123 0.9506
11.3096 -1.2652 -4.9089 0.9516
9.0477 3.1417 -4.1314 0.9591
8.3617 3.7676 -3.9561 0.9608
7.6435 4.3002 -3.7830 0.9625
5.4514 5.3910 -3.3071 0.9672
4.7324 5.5975 -3.1618 0.9686
4.0342 5.7387 -3.0259 0.9699
2.7153 5.8515 -2.7826 0.9723
0.4343 5.5575 -2.4046 0.9760
-2.1108 4.2954 -2.0645 0.9794
-2.4429 4.0215 -2.0297 0.9797
-3.0353 3.4321 -1.9764 0.9802
-3.5362 2.7926 -1.9437 0.9806
-3.7534 2.4554 -1.9347 0.9807
-3.9487 2.1071 -1.9306 0.9807
-4.2736 1.3781 -1.9369 0.9806
-2.5715 0.5826 -1.1373 0.9886
-2.5277 -0.3399 -1.1001 0.9890
-2.5465 -0.5770 -1.1263 0.9887
-4.4298 -2.8978 -2.2834 0.9772
-4.2794 -3.3793 -2.3521 0.9765
-4.0901 -3.8684 -2.4284 0.9758
-3.8589 -4.3633 -2.5126 0.9749
-2.8801 -5.8608 -2.8169 0.9720
-2.4468 -6.3530 -2.9366 0.9708
-1.3811 -7.2052 -3.1646 0.9685
-0.7663 -7.6170 -3.3023 0.9672
1.4601 -8.6562 -3.7867 0.9625
2.3266 -8.8805 -3.9599 0.9608
3.2456 -9.0212 -4.1356 0.9591
8.9684 -7.4126 -5.0190 0.9506
10.3671 -5.8326 -5.1311 0.9495
10.8620 -4.8942 -5.1391 0.9494
11.3652 -2.8426 -5.0535 0.9502
11.3679 -1.7875 -4.9639 0.9511
11.2141 -0.7507 -4.8481 0.9522
9.3732 2.7935 -4.2189 0.9583
8.0056 4.0454 -3.8691 0.9617
7.2773 4.5324 -3.6981 0.9633
6.5391 4.9314 -3.5329 0.9650
5.8169 5.2611 -3.3832 0.9664
5.0896 5.5029 -3.2333 0.9679
3.6942 5.7869 -2.9615 0.9705
3.0345 5.8425 -2.8399 0.9717
2.4036 5.8488 -2.7276 0.9728
1.2324 5.7350 -2.5303 0.9748
0.6927 5.6244 -2.4444 0.9756
-0.2964 5.3154 -2.2964 0.9771
-0.7472 5.1234 -2.2334 0.9777
-1.1701 4.9099 -2.1772 0.9783
-1.5659 4.6771 -2.1275 0.9787
-2.5998 3.8792 -2.0144 0.9799
-2.8960 3.5844 -1.9877 0.9801
-3.1690 3.2767 -1.9663 0.9803
-3.6476 2.6254 -1.9386 0.9806
-3.8538 2.2826 -1.9321 0.9807
-4.3410 1.1891 -1.9415 0.9806
-2.4719 0.4453 -1.0835 0.9891
-2.4282 0.0000 -1.0956 0.9894
-2.4593 -0.4431 -1.1275 0.9891
-2.4702 -0.6766 -1.1556 0.9888
-2.4890 -0.9269 -1.1984 0.9884
-4.3317 -2.5657 -2.2717 0.9781
-4.2000 -3.0230 -2.3350 0.9775
-4.0321 -3.4867 -2.4053 0.9769
-3.2837 -4.8996 -2.6613 0.9744
-2.1048 -6.2866 -2.9914 0.9713
-1.5965 -6.6991 -3.1074 0.9702
-0.4130 -7.4065 -3.3472 0.9680
0.2589 -7.7418 -3.4952 0.9666
1.7729 -8.2505 -3.8078 0.9636
3.4788 -8.4652 -4.1296 0.9606
7.0715 -7.6456 -4.6992 0.9553
7.8933 -7.1391 -4.8022 0.9544
9.8018 -4.9531 -4.9554 0.9529
10.2723 -0.2289 -4.6362 0.9559
5.9673 0.3995 -2.6986 0.9741
6.0513 0.9515 -2.7640 0.9735
8.4703 2.9412 -4.0458 0.9614
7.8493 3.5367 -3.8846 0.9629
6.5198 4.4756 -3.5683 0.9659
5.8538 4.8383 -3.4267 0.9672
4.4996 5.3222 -3.1447 0.9699
2.5971 5.5967 -2.7839 0.9733
1.4525 5.5440 -2.5860 0.9752
0.9212 5.4615 -2.4991 0.9760
-0.0580 5.2042 -2.3483 0.9774
-1.6955 4.4024 -2.1286 0.9795
-2.0419 4.1551 -2.0890 0.9799
-2.3644 3.8923 -2.0549 0.9802
-2.9403 3.3246 -2.0026 0.9807
-3.1947 3.0215 -1.9841 0.9809
-3.6383 2.3800 -1.9617 0.9811
-3.8278 2.0426 -1.9577 0.9811
-2.5488 0.5775 -1.1792 0.9886
-2.3567 0.3169 -1.0730 0.9896
-2.4105 0.1075 -1.0887 0.9895
-2.4521 -0.3298 -1.1164 0.9892
-2.4671 -0.5589 -1.1414 0.9890
-2.4891 -1.0554 -1.2199 0.9882
-4.2702 -2.7934 -2.3025 0.9779
-4.1208 -3.2541 -2.3692 0.9772
-3.9338 -3.7205 -2.4431 0.9765
-3.1193 -5.1351 -2.7110 0.9740
-2.7532 -5.6026 -2.8167 0.9730
-2.3346 -6.0617 -2.9310 0.9719
-1.3136 -6.8531 -3.1485 0.9698
-0.7267 -7.2234 -3.2758 0.9686
3.9265 -8.4614 -4.2090 0.9599
7.4906 -7.4076 -4.7535 0.9548
8.2765 -6.8407 -4.8450 0.9540
8.9727 -6.1594 -4.9107 0.9534
9.5572 -5.3768 -4.9480 0.9530
10.3251 -3.5853 -4.9317 0.9532
10.4897 -2.6236 -4.8790 0.9537
10.5068 -1.6521 -4.7991 0.9544
10.1307 0.2258 -4.5723 0.9565
9.3023 1.8908 -4.2832 0.9592
8.7631 2.6117 -4.1259 0.9607
8.1650 3.2496 -3.9652 0.9622
6.1801 4.6606 -3.4926 0.9666
4.8339 5.2264 -3.2123 0.9692
4.1694 5.4025 -3.0792 0.9705
2.8998 5.5831 -2.8387 0.9728
1.7284 5.5720 -2.6323 0.9747
0.6661 5.4081 -2.4586 0.9764
0.1765 5.2790 -2.3833 0.9771
-0.7209 4.9428 -2.2539 0.9783
-2.5169 3.7554 -2.0399 0.9804
-2.8047 3.4715 -2.0137 0.9806
-3.5354 2.5447 -1.9655 0.9811
-3.9145 1.8698 -1.9574 0.9811
-2.4063 0.4335 -1.1032 0.9893
-2.3848 0.2131 -1.0804 0.9895
-2.3816 -0.4290 -1.1407 0.9894
-4.1809 -2.4763 -2.2905 0.9787
-3.1505 -4.7009 -2.6675 0.9753
-2.8190 -5.1440 -2.7650 0.9744
-0.9773 -6.7008 -3.1920 0.9705
-0.3920 -7.0298 -3.3188 0.9693
0.9340 -7.5837 -3.6018 0.9668
1.6710 -7.7763 -3.7493 0.9654
2.4502 -7.8986 -3.8982 0.9641
4.0977 -7.8895 -4.1906 0.9614
4.9401 -7.7386 -4.3277 0.9602
5.7728 -7.4800 -4.4539 0.9591
6.5762 -7.1101 -4.5653 0.9581
7.3292 -6.6288 -4.6583 0.9572
9.4386 -3.7564 -4.7885 0.9561
9.5624 -0.2131 -4.5086 0.9586
9.2906 0.6219 -4.3892 0.9597
8.9214 1.4028 -4.2570 0.9609
4.2856 5.0691 -3.1290 0.9711
3.0676 5.3133 -2.8920 0.9732
2.4872 5.3597 -2.7852 0.9742
1.3952 5.3253 -2.5949 0.9759
0.8861 5.2531 -2.5112 0.9767
0.4024 5.1492 -2.4346 0.9774
-0.4889 4.8595 -2.3022 0.9786
-1.9763 4.0217 -2.1122 0.9804
-2.2896 3.7693 -2.0789 0.9807
-2.8496 3.2221 -2.0276 0.9812
-3.3233 2.6244 -1.9961 0.9814
-3.5283 2.3082 -1.9874 0.9815
-3.7124 1.9810 -1.9835 0.9816
-4.0171 1.2954 -1.9896 0.9815
-2.5265 0.5724 -1.2211 0.9886
-2.2973 0.3090 -1.0926 0.9898
-2.3488 0.1047 -1.1083 0.9897
-2.3694 -0.1056 -1.1180 0.9896
-2.4109 -1.0223 -1.2344 0.9885
-4.2339 -2.2592 -2.2621 0.9790
-3.7869 -3.5816 -2.4570 0.9772
-2.9906 -4.9232 -2.7153 0.9748
-2.6353 -5.3628 -2.8166 0.9739
-1.7747 -6.2063 -3.0428 0.9719
-0.6905 -6.8634 -3.2516 0.9700
-0.0801 -7.1862 -3.3876 0.9687
0.5833 -7.4644 -3.5293 0.9674
5.3589 -7.6231 -4.3924 0.9596
6.1795 -7.3091 -4.5117 0.9586
8.3180 -5.7100 -4.7558 0.9564
8.8550 -4.9817 -4.7893 0.9561
9.2756 -4.1794 -4.7956 0.9560
9.7289 -2.4334 -4.7273 0.9566
9.7569 -1.5342 -4.6557 0.9573
9.4396 0.2104 -4.4507 0.9591
8.7052 1.7694 -4.1874 0.9615
7.0930 3.5842 -3.7461 0.9655
6.4804 4.0360 -3.5987 0.9668
5.8659 4.4237 -3.4632 0.9680
4.5993 4.9727 -3.1929 0.9705
2.2052 5.3662 -2.7348 0.9747
1.6591 5.3484 -2.6396 0.9755
1.1375 5.2934 -2.5521 0.9763
-0.2755 4.9413 -2.3328 0.9784
-0.6960 4.7721 -2.2732 0.9789
-1.0917 4.5811 -2.2199 0.9794
-1.8111 4.1421 -2.1310 0.9802
-2.7178 3.3639 -2.0385 0.9811
-2.9761 3.0772 -2.0179 0.9812
-3.4285 2.4677 -1.9912 0.9815
-3.6230 2.1459 -1.9849 0.9816
-3.7965 1.8134 -1.9833 0.9816
-3.9489 1.4706 -1.9863 0.9815
-4.0798 1.1176 -1.9940 0.9815
-2.3515 0.4236 -1.1263 0.9895
-2.2975 0.0000 -1.1300 0.9898
-2.3082 -0.4158 -1.1536 0.9896
-2.3175 -0.6348 -1.1819 0.9893
-4.0381 -2.3917 -2.3084 0.9793
-3.5437 -3.6642 -2.5072 0.9775
-3.3052 -4.0909 -2.5868 0.9768
-2.7036 -4.9334 -2.7670 0.9752
-2.3359 -5.3423 -2.8678 0.9743
-1.9209 -5.7372 -2.9759 0.9734
-1.4568 -6.1129 -3.0909 0.9724
0.2326 -6.9569 -3.4237 0.9694
3.8465 -7.4058 -4.1046 0.9635
6.1394 -6.6378 -4.4472 0.9605
6.8331 -6.1802 -4.5317 0.9598
7.4607 -5.6263 -4.5961 0.9592
8.7831 -3.4956 -4.6496 0.9587
8.9992 -2.6820 -4.6187 0.9590
8.6962 0.5822 -4.2868 0.9619
8.3668 1.3156 -4.1658 0.9629
6.9746 3.1426 -3.7627 0.9665
5.8463 4.0133 -3.4879 0.9689
2.3846 5.1388 -2.7864 0.9751
0.8530 5.0570 -2.5225 0.9774
-0.0539 4.8403 -2.3809 0.9787
-2.2184 3.6521 -2.1017 0.9811
-2.5014 3.3950 -2.0741 0.9814
-3.0039 2.8411 -2.0336 0.9817
-3.7602 1.5945 -2.0089 0.9820
-2.3108 -0.3108 -1.1468 0.9897
-2.3142 -0.5243 -1.1671 0.9895
-2.3375 -0.9912 -1.2488 0.9887
-2.5255 -5.1393 -2.8165 0.9748
-2.1344 -5.5418 -2.9210 0.9739
-1.1987 -6.2535 -3.1318 0.9720
-0.6575 -6.5361 -3.2311 0.9711
-0.0761 -6.8261 -3.3577 0.9700
1.2266 -7.2720 -3.6273 0.9677
1.9403 -7.4060 -3.7656 0.9664
2.6868 -7.4679 -3.9036 0.9652
3.4565 -7.4486 -4.0389 0.9641
6.4934 -6.4214 -4.4918 0.9601
7.1563 -5.9148 -4.5665 0.9595
7.7440 -5.3160 -4.6200 0.9590
8.2400 -4.6357 -4.6502 0.9587
8.9061 -3.0925 -4.6371 0.9588
9.0974 -1.4305 -4.5296 0.9598
9.0166 -0.6036 -4.4448 0.9605
8.8278 0.1967 -4.3431 0.9614
8.1724 1.6611 -4.1018 0.9635
6.1365 3.8219 -3.5558 0.9683
5.5719 4.2020 -3.4325 0.9694
4.3833 4.7392 -3.1751 0.9716
3.2191 5.0426 -2.9425 0.9737
2.6583 5.1181 -2.8366 0.9746
2.1159 5.1488 -2.7380 0.9755
1.5941 5.1390 -2.6465 0.9763
1.0944 5.0927 -2.5620 0.9770
-0.2659 4.7695 -2.3495 0.9789
-0.6724 4.6102 -2.2915 0.9794
-1.0555 4.4293 -2.2396 0.9799
-1.4158 4.2287 -2.1934 0.9803
-2.6349 3.2613 -2.0622 0.9815
-2.8861 2.9842 -2.0420 0.9817
-3.3262 2.3940 -2.0157 0.9819
-3.6837 1.7596 -2.0079 0.9820
-3.8314 1.4268 -2.0109 0.9819
-2.2443 -0.2005 -1.1552 0.9899
-2.2481 -0.6158 -1.1950 0.9896
-2.2593 -0.8414 -1.2360 0.9892
-3.9026 -2.3115 -2.3254 0.9798
-3.6117 -3.1231 -2.4479 0.9788
-3.4150 -3.5310 -2.5184 0.9782
-3.1814 -3.9377 -2.5953 0.9775
-2.9090 -4.3405 -2.6788 0.9768
-2.5956 -4.7363 -2.7689 0.9760
-2.2393 -5.1214 -2.8656 0.9752
-1.8386 -5.4915 -2.9689 0.9743
-0.3550 -6.3663 -3.2689 0.9717
0.2211 -6.6134 -3.3924 0.9707
1.4950 -6.9573 -3.6482 0.9685
2.1830 -7.0372 -3.7774 0.9674
4.3487 -6.8122 -4.1433 0.9643
7.4779 -4.6572 -4.5164 0.9612
8.5056 -1.7288 -4.4497 0.9617
8.3765 -0.1867 -4.2955 0.9630
7.5013 1.8762 -3.9642 0.9658
6.5981 2.9730 -3.7101 0.9680
5.5570 3.8146 -3.4555 0.9702
4.4627 4.4133 -3.2177 0.9722
2.8143 4.8744 -2.8856 0.9750
1.7803 4.9484 -2.6961 0.9766
1.2909 4.9273 -2.6113 0.9774
0.8218 4.8722 -2.5331 0.9780
0.3740 4.7864 -2.4613 0.9787
-1.5372 3.9912 -2.1926 0.9810
-1.8544 3.7735 -2.1555 0.9813
-2.9148 2.7568 -2.0568 0.9821
-3.6499 1.5477 -2.0325 0.9823
-3.7828 1.2198 -2.0376 0.9823
-2.2319 0.0995 -1.1453 0.9900
-2.2377 -0.0998 -1.1483 0.9900
-2.2530 -0.7265 -1.2136 0.9894
-3.8421 -2.5133 -2.3537 0.9796
-3.6969 -2.9193 -2.4150 0.9790
-3.3029 -3.7347 -2.5560 0.9778
-3.0502 -4.1397 -2.6362 0.9772
-2.7575 -4.5394 -2.7230 0.9764
-2.4229 -4.9304 -2.8164 0.9756
-2.0446 -5.3086 -2.9165 0.9748
-1.6211 -5.6693 -3.0230 0.9738
-1.1484 -5.9910 -3.1273 0.9730
-0.6274 -6.2369 -3.2136 0.9722
-0.0724 -6.4953 -3.3301 0.9712
3.9855 -6.9031 -4.0865 0.9648
5.4121 -6.4015 -4.2976 0.9630
6.0789 -6.0115 -4.3830 0.9623
7.2365 -4.9675 -4.4999 0.9613
8.0609 -3.6321 -4.5327 0.9610
8.3208 -2.8893 -4.5157 0.9612
8.4715 -2.1188 -4.4769 0.9615
8.5125 -1.3385 -4.4177 0.9620
8.4471 -0.5654 -4.3403 0.9627
8.2822 0.1846 -4.2471 0.9634
7.6937 1.5638 -4.0250 0.9653
6.8408 2.7226 -3.7746 0.9674
6.3465 3.2070 -3.6455 0.9685
5.8224 3.6263 -3.5166 0.9696
4.1835 4.5231 -3.1587 0.9727
3.6286 4.7018 -3.0448 0.9737
3.0827 4.8289 -2.9371 0.9746
2.5495 4.9087 -2.8357 0.9754
2.0322 4.9452 -2.7410 0.9763
1.5331 4.9423 -2.6529 0.9770
1.0538 4.9038 -2.5714 0.9777
-0.2569 4.6068 -2.3654 0.9795
-1.0212 4.2849 -2.2583 0.9804
-2.0050 3.6587 -2.1389 0.9814
-2.2907 3.4180 -2.1094 0.9817
-2.5557 3.1632 -2.0848 0.9819
-3.0243 2.6152 -2.0498 0.9822
-3.2283 2.3236 -2.0392 0.9823
-3.4122 2.0211 -2.0331 0.9823
-3.5757 1.7080 -2.0316 0.9823
-3.7189 1.3850 -2.0345 0.9823
-2.2585 0.4069 -1.1765 0.9897
-2.2093 0.1974 -1.1372 0.9901
-2.1811 -0.1949 -1.1690 0.9901
-2.1932 -0.8167 -1.2494 0.9894
-2.2033 -1.0524 -1.3035 0.9890
-3.7738 -2.2352 -2.3415 0.9803
-3.6460 -2.6242 -2.3981 0.9798
-3.4864 -3.0148 -2.4606 0.9793
-3.0647 -3.7932 -2.6033 0.9781
-2.7989 -4.1763 -2.6839 0.9775
-1.3319 -5.5888 -3.0671 0.9743
-0.3387 -6.0740 -3.2476 0.9728
0.2105 -6.2971 -3.3636 0.9718
0.7976 -6.4758 -3.4832 0.9708
1.4184 -6.6008 -3.6042 0.9699
4.0974 -6.4185 -4.0651 0.9661
6.5402 -4.9322 -4.3730 0.9635
7.6890 -3.0601 -4.4179 0.9632
7.9800 -1.6220 -4.3472 0.9638
7.9755 -0.8922 -4.2842 0.9643
7.6878 0.5146 -4.1133 0.9657
7.0855 1.7722 -3.8991 0.9674
6.6930 2.3241 -3.7823 0.9684
5.7811 3.2524 -3.5411 0.9704
4.2614 4.2142 -3.1995 0.9732
3.2132 4.5709 -2.9827 0.9750
2.1988 4.7382 -2.7885 0.9766
1.7125 4.7601 -2.7006 0.9773
0.7924 4.6975 -2.5432 0.9786
-0.0503 4.5143 -2.4101 0.9797
-0.8111 4.2316 -2.3001 0.9807
-1.1605 4.0585 -2.2534 0.9810
-1.4892 3.8667 -2.2120 0.9814
-2.0855 3.4332 -2.1444 0.9820
-2.6013 2.9413 -2.0961 0.9824
-3.0377 2.3989 -2.0663 0.9826
-2.1735 0.0969 -1.1615 0.9902
-2.1765 -0.0971 -1.1631 0.9902
-2.1810 -0.2933 -1.1748 0.9901
-2.2000 -0.9329 -1.2757 0.9892
-3.7138 -2.4294 -2.3691 0.9801
-3.5703 -2.8194 -2.4286 0.9796
-3.3942 -3.2101 -2.4940 0.9790
-1.0998 -5.7376 -3.1188 0.9739
0.4995 -6.3927 -3.4231 0.9713
1.7398 -6.6408 -3.6648 0.9694
2.4001 -6.6711 -3.7848 0.9684
3.7582 -6.5093 -4.0125 0.9665
5.0882 -6.0184 -4.2073 0.9649
6.2783 -5.1892 -4.3483 0.9637
