ply
format ascii 1.0
element vertex 1585
property float32 x
property float32 y
property float32 z
property float32 I
end_header
5.0668 0.1129 0.1264 0.9799
5.3211 0.5953 0.1335 0.9788
-10.2937 10.6436 0.3693 0.9425
-12.1171 8.7214 0.3723 0.9420
-13.2519 6.3299 0.3663 0.9429
-13.8382 5.1534 0.3683 0.9426
-14.9925 0.0000 0.1246 0.9418
5.2286 -1.0628 0.0443 0.9789
1.3692 8.1170 0.0684 0.9676
-9.0604 10.2447 0.1137 0.9468
-10.2237 9.6695 0.1170 0.9453
-11.8328 6.3142 0.1115 0.9478
-12.8932 4.1575 0.1126 0.9473
-14.6582 0.6536 0.1220 0.9430
-10.3343 -9.7741 0.1182 0.9447
5.6655 -1.4170 0.0485 0.9769
4.9931 0.1113 0.0415 0.9802
-8.1754 12.1985 0.1221 0.9430
-8.7802 10.8673 0.1161 0.9456
-9.4680 9.7899 0.1132 0.9470
-10.5022 9.0816 0.1154 0.9460
-12.0949 5.7773 0.1114 0.9478
-12.6240 4.7012 0.1120 0.9475
-13.7349 2.4745 0.1160 0.9457
-14.3385 1.2813 0.1197 0.9440
5.1479 -1.0464 -0.0437 0.9792
4.9242 -0.5509 -0.0412 0.9804
4.8937 -0.1091 -0.0407 0.9806
4.9984 0.3346 -0.0416 0.9802
5.3647 0.8435 -0.0451 0.9785
-6.4049 13.0335 -0.1207 0.9436
-7.1025 11.6923 -0.1137 0.9467
-9.8907 7.8106 -0.1047 0.9508
-12.8469 1.7277 -0.1077 0.9495
-13.3797 0.5966 -0.1113 0.9478
-13.9488 -0.6220 -0.1160 0.9457
-10.3485 -9.7876 -0.1184 0.9446
5.4512 -1.3634 -0.0467 0.9778
4.8940 -0.3276 -0.0408 0.9806
4.9215 0.1097 -0.0409 0.9805
-9.0915 9.4005 -0.1087 0.9490
-9.6314 8.3286 -0.1058 0.9503
-10.6392 6.3016 -0.1028 0.9517
-11.1239 5.3135 -0.1025 0.9519
-11.6059 4.3221 -0.1029 0.9517
-12.5906 2.2683 -0.1063 0.9501
-13.1095 1.1715 -0.1094 0.9487
-12.5430 0.0000 -0.3128 0.9511
-13.0362 -1.1649 -0.3264 0.9490
5.0700 -1.0305 -0.1290 0.9795
4.8368 -0.1078 -0.1207 0.9808
5.2670 0.8282 -0.1330 0.9789
1.3692 8.1173 -0.2053 0.9676
-5.8205 11.8443 -0.3291 0.9486
-6.4885 10.6815 -0.3117 0.9512
-7.0761 9.6037 -0.2975 0.9534
-8.6400 8.1716 -0.2966 0.9535
-9.6156 6.2903 -0.2865 0.9551
-10.0731 5.3751 -0.2847 0.9553
-10.5190 4.4604 -0.2849 0.9553
-10.9593 3.5339 -0.2872 0.9550
-11.8466 1.5932 -0.2981 0.9533
-12.3062 0.5488 -0.3072 0.9519
-12.7859 -0.5701 -0.3192 0.9501
-13.2951 -1.7880 -0.3345 0.9477
-13.8453 -3.1369 -0.3540 0.9448
-10.3776 -9.8150 -0.3562 0.9444
4.9354 -0.7761 -0.1246 0.9802
4.8638 0.1084 -0.1213 0.9807
5.7961 1.1781 -0.1475 0.9766
-5.4537 12.4729 -0.3395 0.9470
-6.1645 11.2488 -0.3199 0.9500
-6.7900 10.1314 -0.3041 0.9524
-7.3486 9.0955 -0.2916 0.9543
-10.2971 4.9185 -0.2846 0.9554
-10.7395 3.9995 -0.2858 0.9552
-11.1792 3.0623 -0.2891 0.9547
-11.6221 2.0938 -0.2945 0.9538
-12.0744 1.0790 -0.3023 0.9527
-12.0113 -1.0733 -0.5014 0.9529
-12.4459 -2.2422 -0.5258 0.9506
-12.9067 -3.5355 -0.5564 0.9478
-13.4039 -4.9916 -0.5947 0.9443
-13.1024 -6.2585 -0.6037 0.9435
4.9979 -1.0159 -0.2121 0.9798
4.8940 0.3276 -0.2039 0.9806
-5.3334 10.8532 -0.5028 0.9527
-5.9680 9.8247 -0.4780 0.9550
-6.5323 8.8656 -0.4579 0.9569
-7.5073 8.4886 -0.4712 0.9556
-10.1941 3.2872 -0.4453 0.9580
-10.9902 1.4781 -0.4611 0.9566
-11.3914 0.5080 -0.4741 0.9554
-11.8013 -0.5262 -0.4912 0.9538
-12.2259 -1.6442 -0.5129 0.9518
-12.6725 -2.8712 -0.5403 0.9493
-13.1500 -4.2403 -0.5745 0.9462
-13.6704 -5.7967 -0.6174 0.9423
-10.4245 -9.8594 -0.5966 0.9442
5.2166 -1.3047 -0.2236 0.9787
4.8822 -0.7677 -0.2055 0.9804
4.8221 0.1074 -0.2006 0.9809
5.0063 0.5600 -0.2095 0.9800
5.5770 1.1336 -0.2366 0.9775
-3.3158 13.9137 -0.5947 0.9443
-4.2119 12.5804 -0.5516 0.9483
-4.9842 11.3992 -0.5173 0.9514
-5.6620 10.3318 -0.4899 0.9539
-6.2574 9.3367 -0.4673 0.9560
-7.7676 8.0316 -0.4646 0.9563
-8.7233 6.2787 -0.4469 0.9579
-9.1626 5.4270 -0.4428 0.9583
-10.3938 2.8472 -0.4481 0.9578
-10.7790 0.0000 -0.6278 0.9577
-11.1348 -0.9950 -0.6511 0.9562
-11.4968 -2.0713 -0.6804 0.9543
-11.8697 -3.2514 -0.7168 0.9519
-12.6725 -6.0531 -0.8180 0.9453
-12.3268 -7.3012 -0.8344 0.9442
4.7754 -0.5342 -0.2799 0.9809
4.7550 -0.1060 -0.2770 0.9811
5.1233 0.8056 -0.3021 0.9794
-1.4746 14.6579 -0.8580 0.9427
-2.5457 13.2805 -0.7876 0.9473
-7.4794 7.0740 -0.5996 0.9596
-9.1543 3.8818 -0.5791 0.9609
-9.5278 3.0723 -0.5831 0.9607
-10.2483 1.3783 -0.6023 0.9594
-10.9563 -0.4885 -0.6388 0.9570
-12.3566 -6.5937 -0.8157 0.9454
5.1449 -1.2868 -0.3089 0.9790
4.8409 -0.7612 -0.2854 0.9806
4.9522 0.5540 -0.2902 0.9802
5.4646 1.1107 -0.3248 0.9779
-3.0168 12.6591 -0.7580 0.9492
-5.8017 8.6567 -0.6070 0.9591
-8.1514 5.8670 -0.5849 0.9606
-8.5670 5.0742 -0.5799 0.9609
-9.3426 3.4792 -0.5806 0.9608
-9.7106 2.6600 -0.5864 0.9605
-10.4254 0.9316 -0.6096 0.9589
-10.0690 0.0000 -0.7546 0.9604
-10.3760 -0.9272 -0.7807 0.9591
-10.9854 -3.0092 -0.8536 0.9553
-11.2929 -4.2055 -0.9031 0.9528
-11.6063 -5.5439 -0.9639 0.9497
-11.5332 -8.3010 -1.0649 0.9446
5.5164 -1.6441 -0.4314 0.9772
4.9068 -0.9974 -0.3752 0.9801
4.7360 -0.5298 -0.3571 0.9811
5.0542 0.7947 -0.3834 0.9797
-1.3378 13.2979 -1.0016 0.9478
-3.1757 11.1060 -0.8656 0.9547
-3.9147 10.1644 -0.8163 0.9572
-4.5649 9.2894 -0.7756 0.9593
-5.8631 7.9575 -0.7407 0.9611
-6.5389 7.3936 -0.7397 0.9612
-7.0076 6.6277 -0.7228 0.9620
-7.4424 5.8772 -0.7107 0.9627
-7.8490 5.1346 -0.7029 0.9631
-8.2320 4.3927 -0.6992 0.9633
-8.9423 2.8835 -0.7041 0.9630
-9.9139 0.4421 -0.7437 0.9610
-10.2230 -0.4558 -0.7669 0.9598
-10.8328 -2.4544 -0.8324 0.9564
-11.4487 -4.8546 -0.9319 0.9513
-11.7664 -6.2787 -0.9995 0.9479
-11.7111 -9.2482 -1.1183 0.9419
5.0896 -1.2730 -0.3932 0.9792
4.8002 -0.7548 -0.3641 0.9807
4.8992 0.5481 -0.3694 0.9804
-1.8525 12.7018 -0.9619 0.9498
-2.7668 11.6101 -0.8944 0.9533
-4.2507 9.7215 -0.7951 0.9583
-4.8610 8.8702 -0.7580 0.9602
-7.2288 6.2510 -0.7162 0.9624
-8.7706 3.2662 -0.7014 0.9632
-9.1107 2.4957 -0.7079 0.9628
-9.4387 1.7005 -0.7187 0.9623
-9.7126 -0.8679 -0.8940 0.9616
-10.2219 -2.8001 -0.9716 0.9583
-10.7036 -5.1127 -1.0875 0.9535
-10.9353 -6.4770 -1.1652 0.9502
5.3895 -1.6062 -0.5156 0.9777
4.6972 -0.5255 -0.4333 0.9812
4.7730 0.3195 -0.4386 0.9810
1.1348 14.5225 -1.3354 0.9432
-0.1478 13.2682 -1.2165 0.9481
-1.2239 12.1662 -1.1210 0.9521
-2.1429 11.1790 -1.0435 0.9553
-2.9394 10.2796 -0.9802 0.9580
-3.6389 9.4482 -0.9282 0.9601
-4.2558 8.6602 -0.8846 0.9620
-4.8071 7.9135 -0.8489 0.9635
-5.6527 7.6719 -0.8736 0.9624
-7.0067 5.5332 -0.8185 0.9648
-7.3942 4.8371 -0.8100 0.9651
-7.7574 4.1395 -0.8061 0.9653
-8.4234 2.7162 -0.8114 0.9651
-8.7315 1.9783 -0.8208 0.9647
-4.2496 0.5715 -0.3931 0.9829
-9.5802 -0.4272 -0.8791 0.9622
-10.3448 -3.3357 -0.9965 0.9573
-10.8202 -5.7738 -1.1244 0.9519
-11.0489 -7.2278 -1.2104 0.9483
-10.8125 -10.2263 -1.3644 0.9420
4.7601 -0.7485 -0.4418 0.9808
4.7105 0.1050 -0.4320 0.9813
5.2961 1.0765 -0.4955 0.9785
0.4638 13.8734 -1.2726 0.9458
-0.7082 12.7008 -1.1662 0.9502
-4.5387 8.2821 -0.8658 0.9628
-5.0828 7.5842 -0.8371 0.9640
-6.8026 5.8824 -0.8245 0.9645
-7.2038 5.1849 -0.8137 0.9650
-7.5786 4.4888 -0.8075 0.9652
-8.2635 3.0774 -0.8084 0.9652
-4.9081 0.8842 -0.4572 0.9802
-4.1097 0.3672 -0.3783 0.9836
-9.3482 -1.6841 -1.0303 0.9625
-9.5558 -2.6176 -1.0747 0.9609
-9.7498 -3.6308 -1.1285 0.9590
-9.9289 -4.7427 -1.1935 0.9567
-10.2352 -7.3668 -1.3678 0.9505
4.8268 -0.9811 -0.5343 0.9804
4.6596 -0.1038 -0.5055 0.9814
-0.1353 12.1435 -1.3172 0.9523
-1.9851 10.3561 -1.1437 0.9585
-3.3974 8.8211 -1.0253 0.9627
-4.5130 7.4296 -0.9429 0.9656
-5.7884 6.5451 -0.9477 0.9655
-6.2196 5.8825 -0.9286 0.9661
-6.6181 5.2263 -0.9147 0.9666
-7.3333 3.9132 -0.9016 0.9671
-9.2394 -1.2425 -1.0112 0.9632
-9.6546 -3.1132 -1.1003 0.9600
-10.1661 -6.6503 -1.3177 0.9523
-9.9119 -7.8273 -1.3699 0.9505
-9.7822 -9.2519 -1.4604 0.9473
4.7328 -0.7442 -0.5197 0.9809
4.8362 0.5410 -0.5278 0.9806
0.4229 12.6481 -1.3727 0.9504
-1.5713 10.7739 -1.1810 0.9571
-3.0767 9.1897 -1.0511 0.9618
-3.6994 8.4607 -1.0016 0.9635
-4.2558 7.7658 -0.9605 0.9650
-5.0489 7.5335 -0.9837 0.9642
-5.5590 6.8804 -0.9594 0.9650
-6.0084 6.2127 -0.9375 0.9658
-6.4227 5.5539 -0.9210 0.9664
-6.8064 4.8990 -0.9096 0.9668
-7.4974 3.5812 -0.9012 0.9671
-7.8105 2.9087 -0.9040 0.9670
-8.1050 2.2202 -0.9115 0.9668
-3.9949 0.7197 -0.4403 0.9838
-3.5692 -0.0000 -0.4473 0.9857
-3.7700 -0.3369 -0.4743 0.9849
-8.7966 -1.5848 -1.1201 0.9646
-8.9692 -2.4569 -1.1654 0.9632
-9.2566 -4.4215 -1.2855 0.9595
-9.3665 -5.5478 -1.3642 0.9571
-9.4487 -6.8008 -1.4589 0.9542
-8.9281 -9.2316 -1.6094 0.9495
-8.8888 -11.0017 -1.7725 0.9446
4.8046 -0.9766 -0.6144 0.9804
4.7223 0.3161 -0.5931 0.9811
4.9450 0.7776 -0.6273 0.9800
1.3916 8.2498 -1.0484 0.9668
-0.1247 11.1918 -1.4026 0.9559
-1.0452 10.3896 -1.3085 0.9588
-2.5570 8.9424 -1.1655 0.9632
-3.1847 8.2688 -1.1104 0.9649
-5.0220 6.8159 -1.0610 0.9664
-5.8869 5.5678 -1.0154 0.9679
-6.6231 4.3326 -0.9918 0.9686
-7.2580 3.0777 -0.9879 0.9687
-4.3832 0.9931 -0.5632 0.9820
-3.5494 0.4774 -0.4488 0.9857
-3.6310 -0.1619 -0.4555 0.9855
-8.7037 -1.1705 -1.1005 0.9652
-9.0487 -2.9178 -1.1914 0.9624
-9.4777 -7.4844 -1.5134 0.9525
-8.9169 -10.0825 -1.6867 0.9472
4.9589 -1.2403 -0.6406 0.9796
4.7115 -0.7408 -0.5977 0.9810
4.6384 -0.3105 -0.5826 0.9814
4.6652 0.1040 -0.5848 0.9814
5.1836 1.0536 -0.6629 0.9789
2.9090 13.5374 -1.7352 0.9457
-1.4600 10.0105 -1.2677 0.9600
-3.4728 7.9425 -1.0863 0.9657
-4.0052 7.3085 -1.0444 0.9670
-6.4494 4.6420 -0.9958 0.9685
-6.7904 4.0220 -0.9890 0.9687
-7.4032 2.7570 -0.9900 0.9687
-7.6791 2.1035 -0.9978 0.9684
-3.5366 0.3160 -0.4450 0.9858
-3.5139 -0.3140 -0.5018 0.9858
-8.3046 -1.4961 -1.2002 0.9665
-8.4484 -2.3143 -1.2459 0.9652
-8.5702 -3.1916 -1.3008 0.9637
-8.6672 -4.1400 -1.3662 0.9619
-8.7676 -7.5816 -1.6487 0.9542
-8.0749 -9.9943 -1.8276 0.9494
-7.8803 -11.7583 -2.0133 0.9444
5.2320 -1.5593 -0.7765 0.9782
4.6341 -0.5184 -0.6633 0.9813
4.6973 0.3145 -0.6696 0.9812
4.9137 0.7726 -0.7075 0.9801
3.3490 12.7831 -1.8796 0.9480
-0.1156 10.3754 -1.4758 0.9589
-1.7292 9.0208 -1.3064 0.9636
-2.9962 7.7794 -1.1857 0.9669
-3.5329 7.1893 -1.1394 0.9682
-4.7551 6.4538 -1.1402 0.9681
-5.5869 5.2840 -1.0938 0.9694
-5.9539 4.7017 -1.0791 0.9698
-6.2929 4.1166 -1.0696 0.9701
-6.6068 3.5255 -1.0651 0.9702
-6.8975 2.9248 -1.0656 0.9702
-3.3671 0.4528 -0.4832 0.9864
-3.3610 0.1499 -0.4785 0.9865
-3.6292 -0.4881 -0.5208 0.9853
-8.3792 -1.8984 -1.2220 0.9659
-8.5122 -2.7448 -1.2721 0.9645
-8.6220 -3.6560 -1.3320 0.9629
-8.7055 -4.6454 -1.4035 0.9609
-8.7477 -8.2735 -1.7126 0.9525
-7.9933 -10.8485 -1.9167 0.9470
4.9343 -1.2342 -0.7235 0.9797
4.6174 -0.3091 -0.6582 0.9815
5.1464 1.0460 -0.7470 0.9790
1.4154 11.4922 -1.6470 0.9543
0.3591 10.7408 -1.5286 0.9575
-0.5588 10.0220 -1.4277 0.9603
-2.0742 8.7037 -1.2726 0.9645
-2.7058 8.0817 -1.2122 0.9662
-3.8018 6.9374 -1.1252 0.9685
-4.5236 6.7497 -1.1557 0.9677
-4.9766 6.1596 -1.1263 0.9685
-5.7741 4.9930 -1.0857 0.9696
-6.7549 3.2266 -1.0648 0.9702
-7.0349 2.6198 -1.0677 0.9701
-3.6717 0.6615 -0.5307 0.9850
-3.3916 -0.3031 -0.5422 0.9863
-8.1461 -3.8911 -1.4375 0.9641
-8.1828 -4.8467 -1.5144 0.9622
-8.1828 -5.8896 -1.6054 0.9600
-7.8802 -9.7534 -1.9967 0.9505
5.2011 -1.5501 -0.8642 0.9783
4.7605 -0.9676 -0.7735 0.9805
4.6137 -0.5161 -0.7392 0.9814
4.5932 -0.1024 -0.7316 0.9816
4.6799 0.3133 -0.7469 0.9812
3.0621 11.6878 -1.9239 0.9522
-0.1077 9.6677 -1.5395 0.9616
-2.2582 7.8973 -1.3079 0.9673
-2.8279 7.3424 -1.2529 0.9686
-3.3424 6.8015 -1.2068 0.9698
-4.0585 6.6811 -1.2448 0.9688
-4.5141 6.1266 -1.2118 0.9696
-6.2929 3.3580 -1.1358 0.9715
-3.9744 0.9005 -0.6489 0.9836
-3.2540 0.4376 -0.5228 0.9868
-3.4817 -0.4683 -0.5594 0.9859
-8.1687 -4.3589 -1.4743 0.9632
-8.1878 -5.3562 -1.5580 0.9611
-8.1670 -6.4494 -1.6571 0.9587
-8.0983 -7.6593 -1.7750 0.9559
-7.7690 -10.5441 -2.0855 0.9483
-7.3955 -12.1746 -2.2683 0.9439
4.6692 -0.7342 -0.7526 0.9810
4.6239 0.1030 -0.7365 0.9814
5.1332 1.0434 -0.8341 0.9790
3.9869 12.8526 -2.1428 0.9470
2.4324 11.3196 -1.8436 0.9542
1.3080 10.6202 -1.7039 0.9576
-1.2777 8.7603 -1.4097 0.9648
-1.9495 8.1806 -1.3391 0.9665
-3.7819 6.9011 -1.2531 0.9686
-4.2914 6.4032 -1.2274 0.9693
-5.4947 4.7514 -1.1567 0.9710
-5.8334 4.1986 -1.1445 0.9713
-6.1459 3.6402 -1.1374 0.9715
-3.5501 0.6396 -0.5744 0.9855
-3.2454 0.2900 -0.5188 0.9869
-3.1939 -0.0000 -0.5632 0.9871
-3.2817 -0.2933 -0.5810 0.9867
-7.6374 -2.8442 -1.4370 0.9674
-7.6929 -4.5565 -1.5765 0.9643
-7.5923 -6.5653 -1.7698 0.9601
-7.2699 -8.9980 -2.0397 0.9541
-6.9922 -10.4330 -2.2146 0.9503
-6.4873 -11.8379 -2.3802 0.9466
4.7434 -0.9641 -0.8535 0.9805
4.6030 -0.5149 -0.8167 0.9814
4.5862 -0.1022 -0.8089 0.9815
4.6716 0.3127 -0.8256 0.9812
4.3643 12.1308 -2.2732 0.9490
1.7136 10.1589 -1.8166 0.9590
0.7498 9.5960 -1.6972 0.9617
-0.1008 9.0422 -1.5945 0.9639
-1.5285 7.9741 -1.4316 0.9676
-2.6767 6.9498 -1.3132 0.9702
-3.3052 6.7259 -1.3214 0.9700
-3.8566 6.3488 -1.3098 0.9703
-4.2953 5.8296 -1.2768 0.9710
-5.0665 4.7919 -1.2296 0.9721
-6.0061 3.2049 -1.2004 0.9727
-6.2702 2.6588 -1.2009 0.9727
-3.8238 0.8664 -0.6913 0.9842
-3.1779 0.4274 -0.5654 0.9871
-3.3507 -0.4506 -0.5961 0.9864
-7.5167 -1.7030 -1.3590 0.9692
-7.6039 -2.4519 -1.4088 0.9681
-7.6635 -3.2496 -1.4677 0.9668
-7.6918 -4.1045 -1.5373 0.9652
-7.6844 -5.0269 -1.6191 0.9634
-7.6351 -6.0293 -1.7154 0.9613
-7.5359 -7.1274 -1.8290 0.9587
-7.3765 -8.3407 -1.9633 0.9558
-7.1426 -9.6940 -2.1232 0.9523
-6.7885 -11.1754 -2.3056 0.9483
4.8876 -1.2225 -0.8884 0.9797
4.5877 -0.3071 -0.8107 0.9815
4.6168 0.1029 -0.8143 0.9814
5.1200 1.0407 -0.9213 0.9790
5.1289 12.4804 -2.3792 0.9467
3.6574 11.7903 -2.1767 0.9511
1.0278 8.3452 -1.4826 0.9664
0.3115 9.3173 -1.6438 0.9628
-0.4890 8.7705 -1.5489 0.9650
-1.2012 8.2364 -1.4677 0.9668
-1.8384 7.7144 -1.3984 0.9683
-2.4114 7.2025 -1.3393 0.9696
-2.9295 6.6999 -1.2894 0.9707
-3.6221 6.6095 -1.3290 0.9699
-4.5006 5.5705 -1.2627 0.9713
-5.8654 3.4741 -1.2020 0.9727
-6.1410 2.9333 -1.2000 0.9727
-6.3938 2.3811 -1.2030 0.9727
-4.2904 1.1752 -0.7844 0.9821
-3.1509 0.2816 -0.5578 0.9872
-3.1775 -0.2840 -0.6174 0.9871
-7.2400 -2.6962 -1.4951 0.9690
-7.2653 -3.4703 -1.5581 0.9677
-7.2560 -4.2977 -1.6320 0.9662
-6.9611 -7.1977 -1.9377 0.9600
-6.4469 -9.6194 -2.2409 0.9539
-5.4036 -12.3582 -2.6101 0.9465
5.1754 -1.5424 -1.0451 0.9782
4.7408 -0.9636 -0.9362 0.9805
4.5985 -0.5144 -0.8954 0.9813
4.5791 -0.1020 -0.8864 0.9815
4.6632 0.3122 -0.9044 0.9811
4.8812 0.7675 -0.9562 0.9801
7.0978 12.2937 -2.7471 0.9438
5.4398 11.7226 -2.5009 0.9487
4.0156 11.1617 -2.2955 0.9528
1.5957 9.4599 -1.8565 0.9617
0.7012 8.9740 -1.7419 0.9640
-0.0946 8.4882 -1.6427 0.9660
-0.8055 8.0073 -1.5574 0.9677
-2.5405 6.5962 -1.3679 0.9716
-4.0956 5.5585 -1.3361 0.9723
-4.4832 5.0693 -1.3096 0.9728
-5.4670 3.5764 -1.2642 0.9737
-5.9952 2.5422 -1.2602 0.9738
-3.0751 0.1371 -0.5957 0.9875
-3.1273 -0.1395 -0.6058 0.9873
-7.1458 -1.6190 -1.4179 0.9706
-7.2157 -2.3268 -1.4672 0.9696
-7.0439 -6.6620 -1.8762 0.9613
-6.8619 -7.7589 -2.0044 0.9587
-6.2556 -10.2981 -2.3317 0.9521
-5.6805 -11.5595 -2.4925 0.9489
-5.0878 -13.2101 -2.7394 0.9440
4.8883 -1.2227 -0.9751 0.9797
4.5818 -0.3067 -0.8887 0.9815
4.6097 0.1027 -0.8923 0.9814
4.7418 0.5304 -0.9233 0.9807
5.1069 1.0380 -1.0085 0.9790
6.2363 12.0070 -2.6183 0.9464
4.7016 11.4408 -2.3937 0.9509
2.0869 9.7116 -1.9223 0.9603
1.0229 8.3052 -1.6193 0.9665
0.2919 8.7305 -1.6904 0.9650
-0.4598 8.2471 -1.5984 0.9669
-1.1331 7.7690 -1.5193 0.9685
-2.2860 6.8278 -1.3934 0.9711
-3.8888 5.8025 -1.3517 0.9719
-4.2936 5.3142 -1.3221 0.9725
-4.6650 4.8236 -1.2986 0.9730
-5.0063 4.3291 -1.2808 0.9734
-5.6079 3.3216 -1.2613 0.9738
-5.8719 2.8047 -1.2593 0.9738
-3.3306 0.6000 -0.6549 0.9863
-3.0639 0.2738 -0.5953 0.9875
-3.0211 0.0000 -0.6369 0.9877
-3.0994 -0.2770 -0.6560 0.9874
-6.8637 -4.0653 -1.6818 0.9679
-6.6855 -5.7812 -1.8633 0.9645
-6.5187 -6.7403 -1.9768 0.9624
-5.9777 -8.9193 -2.2636 0.9571
-4.9472 -11.3145 -2.6034 0.9508
5.1838 -1.5449 -1.1403 0.9781
4.5721 -0.1019 -0.9641 0.9815
4.6548 0.3116 -0.9835 0.9811
4.8706 0.7659 -1.0394 0.9800
6.4748 11.2146 -2.7300 0.9484
1.4928 8.8500 -1.8921 0.9640
-0.7610 7.5645 -1.6028 0.9694
-1.3675 7.1340 -1.5314 0.9707
-1.9192 6.7119 -1.4717 0.9719
-3.0600 6.2269 -1.4627 0.9720
-3.5048 5.7697 -1.4232 0.9728
-3.9125 5.3100 -1.3905 0.9734
-4.2866 4.8470 -1.3641 0.9739
-5.2352 3.4247 -1.3189 0.9748
-5.5001 2.9349 -1.3143 0.9748
-5.7418 2.4347 -1.3148 0.9748
-3.5520 0.8048 -0.7678 0.9852
-3.0346 0.4081 -0.6455 0.9876
-2.9940 0.1335 -0.6318 0.9878
-3.1545 -0.4242 -0.6710 0.9871
-6.8077 -1.5424 -1.4716 0.9719
-6.8630 -2.2130 -1.5202 0.9710
-6.8886 -2.9210 -1.5774 0.9699
-6.1431 -8.3374 -2.1833 0.9585
-4.6385 -12.0436 -2.7208 0.9486
-3.8994 -13.6370 -2.9902 0.9437
4.8891 -1.2228 -1.0625 0.9796
4.6460 -0.7306 -0.9915 0.9810
4.7319 0.5293 -1.0038 0.9807
5.7124 10.9984 -2.6128 0.9506
0.2745 8.2096 -1.7317 0.9670
-1.0719 7.3493 -1.5658 0.9701
-3.7130 5.5402 -1.4060 0.9731
-4.4621 4.6138 -1.3531 0.9741
-4.7914 4.1432 -1.3354 0.9744
-4.0001 1.0957 -0.8744 0.9832
-3.2435 0.5844 -0.6948 0.9866
-2.9810 0.2664 -0.6310 0.9878
-2.9710 -0.0000 -0.6781 0.9879
-3.1643 -0.5701 -0.7338 0.9869
-6.5231 -1.7869 -1.5437 0.9726
-6.5481 -3.1277 -1.6563 0.9707
-6.5092 -3.8554 -1.7267 0.9694
-6.3052 -5.4523 -1.9025 0.9664
-5.8852 -7.2842 -2.1374 0.9623
-4.5595 -10.4277 -2.5976 0.9544
-3.9250 -11.7234 -2.8218 0.9505
-3.1351 -13.1552 -3.0867 0.9460
5.1923 -1.5475 -1.2366 0.9780
4.7355 -0.9625 -1.1030 0.9804
4.5896 -0.5134 -1.0541 0.9812
4.5650 -0.1017 -1.0422 0.9814
4.8784 0.7671 -1.1271 0.9799
7.4537 10.6030 -2.9582 0.9482
5.9489 10.3039 -2.7156 0.9524
4.6265 9.9698 -2.5086 0.9559
2.4191 9.2338 -2.1787 0.9616
1.4010 8.3058 -1.9225 0.9660
-0.0841 7.5527 -1.7240 0.9695
-1.8723 6.5478 -1.5544 0.9724
-2.4539 6.3714 -1.5583 0.9724
-3.3504 5.5155 -1.4729 0.9739
-3.7439 5.0813 -1.4406 0.9744
-4.1053 4.6419 -1.4144 0.9749
-4.7418 3.7446 -1.3790 0.9755
-5.5073 2.3353 -1.3653 0.9758
-3.4289 0.7769 -0.8025 0.9857
-2.9453 0.1313 -0.6729 0.9880
-3.0959 -0.4164 -0.7130 0.9873
-6.4981 -1.4722 -1.5207 0.9730
-6.5411 -2.1092 -1.5686 0.9722
-6.4751 -4.2358 -1.7660 0.9688
-6.2231 -5.8857 -1.9550 0.9655
-4.2599 -11.0605 -2.7052 0.9525
-3.5513 -12.4196 -2.9483 0.9484
8.2851 10.7354 -3.0951 0.9459
1.0002 8.1209 -1.8676 0.9670
0.2589 7.7441 -1.7685 0.9687
-0.4104 7.3597 -1.6824 0.9702
-1.5697 6.5869 -1.5455 0.9726
-2.1888 6.5375 -1.5735 0.9721
-3.1407 5.7310 -1.4916 0.9735
-3.5513 5.2990 -1.4560 0.9742
-3.9284 4.8623 -1.4267 0.9747
-4.8844 3.5156 -1.3736 0.9756
-5.1512 3.0511 -1.3665 0.9757
-5.3943 2.5767 -1.3645 0.9758
-5.6147 2.0909 -1.3675 0.9757
-3.8726 1.0608 -0.9165 0.9837
-2.9277 0.2616 -0.6709 0.9880
-2.9882 -0.2670 -0.7374 0.9877
-3.1004 -0.5586 -0.7743 0.9871
-6.2332 -1.7074 -1.5886 0.9737
-6.2509 -2.3279 -1.6395 0.9729
-6.2368 -2.9791 -1.6989 0.9719
-6.1873 -3.6647 -1.7676 0.9708
-6.0980 -4.3890 -1.8467 0.9695
-5.9633 -5.1566 -1.9378 0.9680
-5.5291 -6.8434 -2.1625 0.9644
-5.2110 -7.7753 -2.3007 0.9622
-4.2257 -9.6644 -2.5927 0.9575
-3.6149 -10.7971 -2.7987 0.9542
4.7349 -0.9624 -1.1876 0.9803
4.5895 -0.5134 -1.1351 0.9812
4.6576 0.3118 -1.1474 0.9810
5.4990 9.5245 -2.7033 0.9557
4.3013 9.2691 -2.5117 0.9588
2.2701 8.6650 -2.2017 0.9638
0.5856 7.4943 -1.8477 0.9695
-0.0797 7.1541 -1.7586 0.9710
-1.8526 6.4789 -1.6563 0.9726
-2.7943 5.6863 -1.5573 0.9742
-3.2080 5.2811 -1.5188 0.9749
-3.9375 4.4522 -1.4609 0.9758
-5.0672 2.7040 -1.4117 0.9766
-5.2897 2.2430 -1.4123 0.9766
-2.8899 0.3887 -0.7167 0.9881
-3.0389 -0.4087 -0.7537 0.9874
-6.2458 -2.0140 -1.6131 0.9733
-6.0367 -4.7671 -1.8907 0.9688
-5.6610 -6.4009 -2.1004 0.9654
-5.0214 -8.2664 -2.3774 0.9609
4.8935 -1.2239 -1.2399 0.9794
4.5707 -0.3060 -1.1260 0.9813
4.6019 0.1025 -1.1314 0.9812
4.7418 0.5304 -1.1728 0.9805
5.1386 1.0445 -1.2889 0.9786
7.5783 9.8195 -3.0488 0.9502
6.1515 9.6362 -2.8101 0.9540
2.7376 8.8253 -2.2712 0.9627
-0.3892 6.9805 -1.7185 0.9716
-2.1036 6.2830 -1.6286 0.9731
-3.7665 4.6618 -1.4731 0.9756
-4.6902 3.3758 -1.4204 0.9765
-5.3925 2.0082 -1.4144 0.9766
-3.8036 1.0419 -0.9694 0.9839
-3.0843 0.5557 -0.7703 0.9872
-2.8807 0.2574 -0.7109 0.9882
-2.8744 0.0000 -0.7574 0.9882
-2.9343 -0.2622 -0.7763 0.9879
-5.9745 -2.2249 -1.6799 0.9740
-5.9515 -2.8428 -1.7379 0.9731
-5.4618 -5.6474 -2.0702 0.9680
-5.2112 -6.4500 -2.1850 0.9663
-3.9396 -9.0100 -2.5912 0.9601
-3.3482 -10.0004 -2.7789 0.9573
-1.7796 -12.2015 -3.2491 0.9503
-0.7474 -13.4039 -3.5374 0.9460
5.3032 -1.5805 -1.4581 0.9774
4.6667 0.3124 -1.2324 0.9808
4.9012 0.7707 -1.3073 0.9797
10.8427 8.9617 -3.7066 0.9435
9.1712 9.0696 -3.3987 0.9480
5.1093 8.8496 -2.6926 0.9586
3.0302 8.4226 -2.3586 0.9637
1.3274 7.8692 -2.1028 0.9675
0.5737 7.3423 -1.9406 0.9700
-0.0780 6.9970 -1.8438 0.9715
-1.7699 6.1897 -1.6963 0.9737
-2.2424 5.8223 -1.6440 0.9745
-2.6767 5.4470 -1.5992 0.9752
-3.4437 4.6738 -1.5297 0.9763
-3.7816 4.2759 -1.5041 0.9767
-4.0920 3.8702 -1.4841 0.9770
-4.8731 2.6004 -1.4554 0.9774
-5.2786 1.7021 -1.4614 0.9773
-3.2212 0.7298 -0.8703 0.9864
-3.0953 -0.7013 -0.8363 0.9870
-5.8499 -3.8268 -1.8420 0.9715
-5.5647 -5.2631 -2.0182 0.9688
-5.3443 -6.0428 -2.1257 0.9672
-4.7058 -7.7468 -2.3884 0.9632
-4.2096 -8.5663 -2.5150 0.9613
-3.6560 -9.4926 -2.6804 0.9588
-2.2279 -11.6225 -3.1183 0.9522
4.6524 -0.7315 -1.2410 0.9807
4.5808 -0.3067 -1.2097 0.9812
4.6109 0.1028 -1.2153 0.9811
4.7525 0.5316 -1.2601 0.9804
2.5728 8.2939 -2.2882 0.9647
1.7226 8.0165 -2.1606 0.9667
-0.9746 6.6821 -1.7794 0.9725
-1.5181 6.3702 -1.7255 0.9733
-2.8807 5.2565 -1.5794 0.9755
-4.2374 3.6642 -1.4761 0.9771
-4.7577 2.8180 -1.4571 0.9774
-4.9829 2.3801 -1.4551 0.9774
-3.0018 0.5408 -0.8037 0.9875
-2.8819 -0.2575 -0.8141 0.9880
-2.9786 -0.5366 -0.8515 0.9875
-5.7195 -2.1299 -1.7172 0.9750
-5.6891 -2.7174 -1.7739 0.9741
-5.6239 -3.3310 -1.8391 0.9732
-4.9255 -6.0963 -2.2051 0.9680
-4.6099 -6.8784 -2.3297 0.9662
-4.2209 -7.7021 -2.4711 0.9642
-3.6884 -8.4354 -2.5903 0.9625
-3.1162 -9.3076 -2.7616 0.9600
-1.6365 -11.2203 -3.1903 0.9540
0.4445 -13.2943 -3.7425 0.9462
4.7715 -0.9699 -1.3699 0.9800
4.6149 -0.5163 -1.3065 0.9809
4.6760 0.3130 -1.3186 0.9807
4.9142 0.7727 -1.3996 0.9795
11.4666 7.8714 -3.9132 0.9438
8.4122 8.3190 -3.3287 0.9520
7.0817 8.3763 -3.0861 0.9554
3.7653 8.1142 -2.5168 0.9635
2.8516 7.9263 -2.3700 0.9656
2.0183 7.7037 -2.2406 0.9674
1.2572 7.4532 -2.1266 0.9691
0.5610 7.1796 -2.0262 0.9705
-1.1993 6.2566 -1.7924 0.9739
-1.6936 5.9229 -1.7332 0.9747
-2.1486 5.5788 -1.6820 0.9755
-2.5677 5.2251 -1.6380 0.9761
-2.9538 4.8626 -1.6008 0.9766
-3.3093 4.4914 -1.5697 0.9771
-3.6364 4.1117 -1.5444 0.9774
-3.9369 3.7235 -1.5246 0.9777
-4.2122 3.3264 -1.5101 0.9779
-4.4636 2.9200 -1.5007 0.9781
-4.8977 2.0768 -1.4968 0.9781
-5.0815 1.6386 -1.5022 0.9781
-3.1370 0.7108 -0.9050 0.9867
-2.7751 0.3732 -0.7878 0.9884
-2.8062 0.1251 -0.7903 0.9884
-2.9298 -0.3940 -0.8317 0.9878
-3.0353 -0.6877 -0.8756 0.9872
-5.7084 -2.4206 -1.7445 0.9746
-5.4525 -4.3058 -1.9547 0.9715
-5.2817 -4.9954 -2.0454 0.9702
-4.4252 -7.2849 -2.3982 0.9652
-3.9573 -8.0528 -2.5245 0.9634
-3.4111 -8.8567 -2.6703 0.9613
-2.7935 -9.7696 -2.8589 0.9587
-2.0560 -10.7258 -3.0727 0.9556
-1.1797 -11.7265 -3.3160 0.9522
4.9505 -1.2382 -1.4358 0.9790
5.2325 1.0635 -1.5023 0.9781
9.1252 8.2532 -3.4618 0.9502
7.7314 8.3592 -3.2036 0.9538
6.4618 8.3729 -2.9757 0.9570
5.3065 8.3125 -2.7747 0.9598
4.2551 8.1926 -2.5974 0.9624
2.4254 7.8189 -2.3033 0.9666
0.9014 7.3189 -2.0748 0.9698
-0.3755 6.7346 -1.8978 0.9724
-0.9362 6.4192 -1.8252 0.9734
-1.9258 5.7521 -1.7067 0.9751
-3.1352 4.6781 -1.5845 0.9769
-3.7899 3.9187 -1.5338 0.9776
-4.3408 3.1243 -1.5048 0.9780
-4.7975 2.2916 -1.4959 0.9781
-4.9923 1.8592 -1.4989 0.9781
-3.6502 0.9999 -1.0648 0.9844
-2.9229 0.5266 -0.8356 0.9877
-2.7824 0.0000 -0.8330 0.9884
-2.8308 -0.2530 -0.8509 0.9882
-2.9224 -0.5265 -0.8890 0.9877
-3.0126 -0.8252 -0.9351 0.9870
-5.1166 -4.4245 -2.0251 0.9722
-4.6672 -5.7766 -2.2233 0.9695
-4.3553 -6.4985 -2.3420 0.9679
-3.9744 -7.2523 -2.4758 0.9661
-2.9126 -8.6993 -2.7465 0.9624
-2.2706 -9.5276 -2.9323 0.9599
1.6037 -13.0217 -3.9279 0.9467
4.7903 -0.9737 -1.4634 0.9798
4.6280 -0.5177 -1.3942 0.9807
4.5955 -0.1024 -1.3761 0.9810
4.6884 0.3138 -1.4068 0.9806
11.9259 6.7094 -4.0966 0.9445
7.7636 7.6776 -3.2689 0.9554
6.5727 7.7742 -3.0478 0.9584
5.4758 7.7895 -2.8506 0.9610
4.4676 7.7381 -2.6750 0.9634
3.5417 7.6321 -2.5189 0.9655
2.6915 7.4813 -2.3803 0.9673
1.9108 7.2936 -2.2572 0.9690
1.1935 7.0755 -2.1482 0.9705
0.5339 6.8322 -2.0516 0.9718
-1.1477 5.9873 -1.8251 0.9749
-1.6230 5.6760 -1.7674 0.9757
-3.1839 4.3212 -1.6069 0.9778
-3.7918 3.5863 -1.5625 0.9784
-4.0584 3.2049 -1.5482 0.9786
-4.3016 2.8140 -1.5389 0.9788
-4.5221 2.4131 -1.5345 0.9788
-4.8969 1.5790 -1.5404 0.9787
-3.0564 0.6925 -0.9382 0.9870
-2.7204 0.3659 -0.8218 0.9886
-2.8771 -0.3869 -0.8691 0.9880
-2.9771 -0.6745 -0.9139 0.9873
-5.4690 -2.3190 -1.7784 0.9755
-5.4157 -2.8899 -1.8377 0.9747
-5.3265 -3.4844 -1.9055 0.9738
-5.1975 -4.1044 -1.9827 0.9727
-4.5193 -6.1336 -2.2809 0.9687
-4.1740 -6.8713 -2.4069 0.9670
-2.6050 -9.1101 -2.8367 0.9612
-1.0881 -10.8159 -3.2544 0.9556
0.9834 -12.5847 -3.7791 0.9487
4.9799 -1.2456 -1.5368 0.9788
12.7016 6.4184 -4.2605 0.9423
11.1720 6.9580 -3.9403 0.9465
9.7346 7.3412 -3.6502 0.9504
8.3957 7.5935 -3.3891 0.9538
7.1561 7.7371 -3.1552 0.9569
3.9947 7.6913 -2.5947 0.9645
-1.8467 5.5158 -1.7414 0.9760
-2.6568 4.8481 -1.6551 0.9772
-3.6494 3.7735 -1.5716 0.9783
-4.1829 3.0107 -1.5429 0.9787
-4.4146 2.6148 -1.5361 0.9788
-4.6240 2.2087 -1.5341 0.9788
-4.8113 1.7918 -1.5371 0.9788
-2.8473 0.5130 -0.8662 0.9880
-2.7412 0.2450 -0.8239 0.9886
-2.8694 -0.5170 -0.9259 0.9878
-2.9540 -0.8092 -0.9727 0.9872
-5.2635 -1.9601 -1.7838 0.9767
-5.2218 -2.4942 -1.8378 0.9760
-5.0343 -3.6234 -1.9699 0.9743
-4.6823 -4.8415 -2.1390 0.9721
-2.1211 -8.9004 -2.9058 0.9623
-1.4078 -9.6524 -3.0979 0.9599
-0.5805 -10.4096 -3.3110 0.9572
0.3732 -11.1644 -3.5476 0.9542
1.4655 -11.8989 -3.8075 0.9509
4.0980 -13.2107 -4.3927 0.9436
4.6170 -0.1029 -1.4667 0.9808
4.7200 0.3160 -1.5024 0.9803
5.0105 0.7879 -1.6108 0.9789
12.2082 5.5008 -4.2525 0.9454
8.3531 6.9040 -3.4416 0.9555
7.2027 7.1230 -3.2171 0.9584
4.1999 7.2746 -2.6677 0.9654
2.5471 7.0798 -2.3895 0.9689
1.1354 6.7311 -2.1679 0.9718
-1.0999 5.7379 -1.8554 0.9758
-1.5574 5.4467 -1.7991 0.9765
-2.7331 4.4993 -1.6719 0.9781
-3.0665 4.1619 -1.6418 0.9785
-3.3736 3.8146 -1.6173 0.9789
-3.9141 3.0909 -1.5839 0.9793
-4.1495 2.7144 -1.5747 0.9794
-4.7236 1.5231 -1.5762 0.9794
-2.6672 0.3587 -0.8547 0.9888
-2.7186 0.1212 -0.8643 0.9886
-2.8255 -0.3800 -0.9054 0.9881
-5.1885 -2.7687 -1.8677 0.9756
-5.0952 -3.3331 -1.9336 0.9748
-4.9631 -3.9193 -2.0084 0.9738
-4.7877 -4.5282 -2.0929 0.9727
-4.5642 -5.1607 -2.1880 0.9715
-4.2864 -5.8175 -2.2949 0.9701
-3.0057 -7.8042 -2.6560 0.9655
-1.0091 -10.0307 -3.2017 0.9586
-0.1202 -10.7870 -3.4260 0.9557
4.6197 -0.3093 -1.4704 0.9808
4.6552 0.1037 -1.4788 0.9806
4.8259 0.5399 -1.5422 0.9798
5.4071 1.0990 -1.7523 0.9771
12.8933 5.1314 -4.4071 0.9434
11.5313 5.8270 -4.1032 0.9472
10.2133 6.3609 -3.8212 0.9508
7.7686 7.0263 -3.3266 0.9570
6.6558 7.1962 -3.1131 0.9597
5.6185 7.2801 -2.9205 0.9621
4.6549 7.2919 -2.7474 0.9643
3.7622 7.2436 -2.5922 0.9663
2.1730 7.0050 -2.3293 0.9697
1.4676 6.8299 -2.2186 0.9711
0.2139 6.3964 -2.0325 0.9735
-0.3427 6.1462 -1.9550 0.9745
-0.8573 5.8780 -1.8865 0.9754
-1.7732 5.2961 -1.7737 0.9768
-2.1800 4.9858 -1.7282 0.9774
-2.5560 4.6642 -1.6891 0.9779
-3.2232 3.9894 -1.6288 0.9787
-3.7878 3.2754 -1.5903 0.9792
-4.4609 2.1308 -1.5700 0.9795
-4.6414 1.7285 -1.5729 0.9794
-3.4730 0.9513 -1.1436 0.9850
-2.7749 0.4999 -0.8955 0.9882
-2.6951 0.2408 -0.8593 0.9887
-2.6945 -0.0000 -0.9053 0.9887
-2.7374 -0.2446 -0.9234 0.9885
-2.8971 -0.7936 -1.0092 0.9874
-5.0587 -1.8839 -1.8137 0.9775
-4.9338 -2.9223 -1.9266 0.9761
-4.8188 -3.4683 -1.9948 0.9753
-4.6642 -4.0332 -2.0717 0.9743
-4.4656 -4.6173 -2.1582 0.9733
-4.2180 -5.2207 -2.2550 0.9721
-3.5531 -6.4834 -2.4840 0.9693
-3.0898 -7.0666 -2.5913 0.9680
-1.9888 -8.3451 -2.8823 0.9644
-1.3145 -9.0130 -3.0603 0.9623
-0.5395 -9.6754 -3.2558 0.9599
0.3451 -10.3222 -3.4700 0.9574
1.3478 -10.9431 -3.7045 0.9545
3.7236 -12.0038 -4.2227 0.9483
4.6828 -0.5239 -1.5831 0.9803
4.6481 -0.1036 -1.5621 0.9806
13.4603 3.3666 -4.6617 0.9431
11.1337 5.0166 -4.1029 0.9498
8.8365 6.0659 -3.6011 0.9558
6.7127 6.6383 -3.1719 0.9609
4.8180 6.8538 -2.8148 0.9653
2.4161 6.7157 -2.3979 0.9703
1.7244 6.5820 -2.2861 0.9717
1.0821 6.4154 -2.1859 0.9729
-0.5798 5.7632 -1.9461 0.9759
-1.0554 5.5060 -1.8836 0.9766
-1.4964 5.2331 -1.8287 0.9773
-2.2833 4.6463 -1.7394 0.9784
-3.5278 3.3366 -1.6314 0.9797
-3.7783 2.9837 -1.6175 0.9799
-4.0063 2.6208 -1.6085 0.9800
-4.5604 1.4705 -1.6099 0.9800
-2.6272 0.5952 -0.9050 0.9887
-2.6762 0.1193 -0.9001 0.9888
-2.7751 -0.3732 -0.9408 0.9883
-2.8653 -0.6492 -0.9871 0.9877
-5.0703 -1.6349 -1.7899 0.9778
-5.0397 -2.1370 -1.8392 0.9772
-4.9776 -2.6561 -1.8956 0.9765
-4.3483 -4.9166 -2.2052 0.9727
-4.0742 -5.5296 -2.3077 0.9714
-0.9402 -9.3455 -3.1558 0.9611
0.8310 -10.6350 -3.5841 0.9560
1.8952 -11.2358 -3.8283 0.9531
3.0832 -11.7683 -4.0874 0.9500
4.3942 -12.2141 -4.3612 0.9467
5.1490 -1.2879 -1.7833 0.9779
4.7494 -0.7468 -1.6153 0.9799
4.6509 -0.3113 -1.5661 0.9805
12.8891 3.8414 -4.5188 0.9448
11.7210 4.6649 -4.2385 0.9482
9.3983 5.8533 -3.7200 0.9544
8.2860 6.2488 -3.4869 0.9572
4.3817 6.8639 -2.7360 0.9662
2.7815 6.7683 -2.4586 0.9696
2.0639 6.6533 -2.3405 0.9710
1.3973 6.5025 -2.2346 0.9723
-0.8221 5.6366 -1.9139 0.9762
-1.2801 5.3714 -1.8552 0.9770
-1.7046 5.0912 -1.8039 0.9776
-2.4617 4.4920 -1.7210 0.9786
-2.7980 4.1749 -1.6886 0.9790
-3.1083 3.8472 -1.6618 0.9793
-4.1121 2.4356 -1.6057 0.9800
-4.3075 2.0575 -1.6038 0.9801
-2.7169 0.4895 -0.9275 0.9884
-2.6500 0.2368 -0.8939 0.9888
-2.8417 -0.7784 -1.0448 0.9876
-4.8177 -2.3012 -1.8931 0.9776
-4.6190 -3.3245 -2.0179 0.9761
-4.4636 -3.8598 -2.0924 0.9753
-4.2658 -4.4108 -2.1758 0.9743
-4.0213 -4.9772 -2.2689 0.9732
-3.7250 -5.5581 -2.3725 0.9720
-3.3714 -6.1520 -2.4875 0.9707
-2.9346 -6.7115 -2.5973 0.9694
-1.2320 -8.4473 -3.0270 0.9644
-0.5036 -9.0318 -3.2075 0.9623
1.2460 -10.1172 -3.6145 0.9577
3.4087 -10.9887 -4.0796 0.9523
5.9483 -11.4526 -4.5760 0.9467
7.3207 -11.4677 -4.8242 0.9439
4.7192 -0.5279 -1.6838 0.9800
4.6799 -0.1043 -1.6599 0.9803
5.1711 0.8131 -1.8561 0.9780
12.2141 3.0549 -4.4644 0.9480
10.2183 4.6041 -3.9741 0.9535
8.1922 5.6236 -3.5234 0.9587
7.2190 5.9667 -3.3209 0.9610
5.3867 6.3714 -2.9584 0.9652
4.5408 6.4593 -2.7997 0.9670
1.0331 6.1250 -2.2025 0.9740
0.4650 5.9503 -2.1163 0.9750
-0.0641 5.7507 -2.0393 0.9759
-0.5563 5.5297 -1.9706 0.9767
-1.4393 5.0334 -1.8563 0.9780
-1.8341 4.7621 -1.8095 0.9786
-2.5393 4.1803 -1.7343 0.9795
-2.8527 3.8718 -1.7053 0.9798
-3.1417 3.5524 -1.6815 0.9801
-3.4072 3.2225 -1.6629 0.9803
-3.8712 2.5324 -1.6403 0.9806
-4.2492 1.8018 -1.6366 0.9806
-2.5615 0.5803 -0.9313 0.9889
-2.5748 0.3463 -0.9212 0.9890
-2.8709 -0.9257 -1.0696 0.9873
-4.8463 -2.0550 -1.8665 0.9779
-4.5463 -3.5902 -2.0541 0.9757
-4.3703 -4.1333 -2.1329 0.9748
-4.1497 -4.6922 -2.2211 0.9738
-3.8800 -5.2659 -2.3193 0.9726
-2.1586 -7.5492 -2.7841 0.9672
4.0115 -11.1503 -4.2018 0.9510
8.0203 -11.4091 -4.9451 0.9425
4.7166 0.1051 -1.6729 0.9802
4.9155 0.5499 -1.7539 0.9792
11.7291 3.4956 -4.3398 0.9494
10.7275 4.2694 -4.0940 0.9522
9.7076 4.9055 -3.8567 0.9549
6.7445 6.1000 -3.2246 0.9621
4.9576 6.4237 -2.8772 0.9661
2.6406 6.4256 -2.4633 0.9709
0.1957 5.8534 -2.0767 0.9755
-0.7893 5.4120 -1.9393 0.9771
-1.2305 5.1636 -1.8822 0.9777
-1.6404 4.8995 -1.8321 0.9783
-2.6992 4.0274 -1.7191 0.9796
-3.0002 3.7134 -1.6928 0.9799
-3.2773 3.3887 -1.6716 0.9802
-3.7634 2.7087 -1.6442 0.9805
-3.9737 2.3536 -1.6376 0.9806
-4.1626 1.9883 -1.6357 0.9806
-4.3305 1.6127 -1.6385 0.9806
-2.6624 0.4796 -0.9592 0.9886
-2.6060 0.2329 -0.9277 0.9890
-2.6101 0.0000 -0.9746 0.9889
-2.6498 -0.2368 -0.9934 0.9887
-2.7878 -0.7637 -1.0794 0.9877
-4.0812 -4.2199 -2.1921 0.9752
-3.8401 -4.7529 -2.2817 0.9742
-3.2055 -5.8494 -2.4907 0.9719
1.1581 -9.4033 -3.5378 0.9604
2.1051 -9.7966 -3.7416 0.9581
4.2513 -10.3450 -4.1764 0.9534
5.4274 -10.4496 -4.3969 0.9510
6.6480 -10.4139 -4.6135 0.9486
10.2642 -9.2835 -5.1679 0.9426
5.0230 -1.0210 -1.9140 0.9784
4.7567 -0.5321 -1.7873 0.9798
9.4317 4.2497 -3.8629 0.9568
5.0744 6.0021 -2.9349 0.9670
4.2909 6.1039 -2.7861 0.9686
2.8469 6.1350 -2.5255 0.9715
0.4454 5.6994 -2.1347 0.9759
-0.0615 5.5167 -2.0601 0.9767
-0.5344 5.3120 -1.9936 0.9775
-1.7676 4.5894 -1.8364 0.9792
-2.1222 4.3185 -1.7967 0.9797
-2.7550 3.7391 -1.7343 0.9804
-3.0355 3.4323 -1.7110 0.9806
-3.2933 3.1148 -1.6927 0.9808
-4.2610 1.3740 -1.6718 0.9811
-2.5436 0.5763 -0.9739 0.9889
-2.5920 0.1156 -0.9689 0.9890
-2.7556 -0.6243 -1.0551 0.9880
-2.8043 -0.9043 -1.1002 0.9875
-4.5972 -2.4531 -1.9458 0.9780
-4.4965 -2.9414 -2.0064 0.9773
-4.3601 -3.4431 -2.0745 0.9766
-4.1846 -3.9578 -2.1508 0.9757
-3.7014 -5.0236 -2.3301 0.9737
-3.3848 -5.5721 -2.4345 0.9725
-3.0115 -6.1281 -2.5497 0.9713
-2.5440 -6.6054 -2.6432 0.9702
-2.0395 -7.1325 -2.7701 0.9688
0.7177 -9.1843 -3.4400 0.9614
1.6207 -9.6082 -3.6385 0.9592
2.6112 -9.9668 -3.8473 0.9570
3.6865 -10.2469 -4.0664 0.9546
6.0337 -10.4507 -4.5061 0.9498
8.4997 -10.0535 -4.9160 0.9453
9.6945 -9.5871 -5.0912 0.9434
4.8444 -0.7617 -1.8312 0.9793
4.9975 0.5591 -1.8778 0.9788
11.5688 2.3515 -4.4083 0.9508
9.8788 3.9317 -3.9703 0.9556
7.1837 5.4175 -3.3598 0.9623
6.3206 5.7167 -3.1823 0.9643
5.4808 5.9258 -3.0141 0.9661
3.1923 6.1464 -2.5862 0.9709
2.5119 6.1125 -2.4677 0.9722
1.2731 5.9247 -2.2629 0.9745
0.7120 5.7815 -2.1752 0.9754
0.1876 5.6110 -2.0964 0.9763
-0.3021 5.4169 -2.0259 0.9771
-1.1842 4.9690 -1.9075 0.9784
-1.5802 4.7197 -1.8585 0.9790
-2.2897 4.1782 -1.7791 0.9799
-2.8982 3.5871 -1.7220 0.9805
-3.1672 3.2749 -1.7012 0.9807
-3.4139 2.9522 -1.6853 0.9809
-4.1878 1.5596 -1.6687 0.9811
-3.4442 0.9434 -1.3335 0.9849
-2.6096 0.4701 -0.9902 0.9887
-2.5629 0.2290 -0.9608 0.9891
-2.6073 -0.2330 -1.0273 0.9888
-2.6685 -0.4808 -1.0642 0.9884
-4.4639 -2.1322 -1.9416 0.9790
-4.1041 -3.5490 -2.1295 0.9770
-3.9098 -4.0427 -2.2073 0.9761
-3.3885 -5.0560 -2.3888 0.9742
-2.6596 -6.0826 -2.6055 0.9719
0.2804 -8.3871 -3.2936 0.9646
3.9186 -9.5354 -4.0461 0.9567
4.9845 -9.5970 -4.2443 0.9546
6.0821 -9.5275 -4.4362 0.9526
9.2955 -8.4073 -4.9190 0.9476
12.1134 -4.8211 -5.1169 0.9455
4.8283 -0.5401 -1.9068 0.9793
4.7822 -0.1066 -1.8773 0.9797
10.9512 1.7220 -4.3508 0.9535
8.7498 3.9425 -3.7665 0.9596
7.1311 4.8952 -3.3947 0.9635
5.5526 5.4911 -3.0649 0.9670
4.7931 5.6694 -2.9137 0.9686
4.0645 5.7818 -2.7738 0.9701
0.9459 5.6080 -2.2321 0.9759
0.4271 5.4661 -2.1518 0.9767
-0.0590 5.2985 -2.0796 0.9775
-0.5139 5.1083 -2.0150 0.9782
-1.3355 4.6705 -1.9065 0.9793
-1.7049 4.4268 -1.8618 0.9798
-2.0486 4.1687 -1.8230 0.9802
-3.1855 3.0128 -1.7208 0.9813
-3.6225 2.3697 -1.6989 0.9816
-3.9768 1.6863 -1.6953 0.9816
-4.1232 1.3296 -1.7003 0.9816
-2.5568 0.5793 -1.0289 0.9888
-2.4910 0.3350 -0.9865 0.9893
-2.5889 -0.1154 -1.0171 0.9889
-2.6312 -0.3539 -1.0420 0.9887
-4.4951 -1.9061 -1.9163 0.9792
-4.4251 -2.3613 -1.9685 0.9787
-4.1864 -3.3059 -2.0936 0.9773
-3.7968 -4.2930 -2.2493 0.9757
-3.2277 -5.3134 -2.4400 0.9736
-2.4200 -6.2834 -2.6426 0.9715
-0.7772 -7.7253 -3.0473 0.9672
-0.0911 -8.1754 -3.2088 0.9655
2.4228 -9.2477 -3.7520 0.9598
3.4043 -9.4624 -3.9467 0.9577
6.6353 -9.4389 -4.5282 0.9516
7.7331 -9.1467 -4.7009 0.9498
9.7757 -8.0799 -4.9776 0.9470
10.6447 -7.3072 -5.0674 0.9460
12.4255 -3.1078 -5.0269 0.9464
5.0834 0.5687 -2.0075 0.9783
10.6239 2.1594 -4.2549 0.9545
8.3480 4.2184 -3.6709 0.9606
7.5367 4.6939 -3.4847 0.9626
6.7375 5.0810 -3.3119 0.9644
5.1693 5.5890 -2.9879 0.9678
3.0354 5.8441 -2.5846 0.9721
0.6824 5.5405 -2.1909 0.9763
-0.2903 5.2061 -2.0464 0.9778
-1.1407 4.7864 -1.9312 0.9791
-2.2110 4.0346 -1.8056 0.9804
-2.5180 3.7571 -1.7751 0.9808
-2.8017 3.4677 -1.7497 0.9810
-3.5211 2.5343 -1.7026 0.9815
-3.7188 2.2026 -1.6963 0.9816
-4.0526 1.5092 -1.6972 0.9816
-3.4630 0.9486 -1.4092 0.9847
-2.5206 0.2252 -0.9932 0.9892
-2.5656 -0.2293 -1.0607 0.9889
-2.6211 -0.4722 -1.0967 0.9885
-4.0966 -2.9485 -2.0784 0.9784
-3.2394 -4.8335 -2.3960 0.9751
-1.0327 -7.0807 -2.9466 0.9695
-0.4181 -7.4984 -3.0925 0.9680
1.8272 -8.5032 -3.5814 0.9631
4.6009 -8.8584 -4.1104 0.9577
7.5619 -8.1759 -4.5859 0.9530
8.4780 -7.6674 -4.7070 0.9518
9.3065 -7.0184 -4.7998 0.9508
10.0226 -6.2422 -4.8621 0.9502
10.5995 -5.3562 -4.8903 0.9499
11.2612 -3.3562 -4.8387 0.9504
11.3317 -2.3033 -4.7616 0.9512
4.8492 -0.1081 -1.9973 0.9792
10.0969 1.5877 -4.2088 0.9567
8.8526 3.0740 -3.8589 0.9603
8.1526 3.6734 -3.6821 0.9621
6.6895 4.5921 -3.3412 0.9655
5.9669 4.9318 -3.1877 0.9671
5.2429 5.1848 -3.0363 0.9686
3.8582 5.4884 -2.7625 0.9714
3.2061 5.5532 -2.6405 0.9726
2.5842 5.5689 -2.5280 0.9738
-0.0568 5.0943 -2.0979 0.9782
-0.4947 4.9174 -2.0351 0.9788
-0.9048 4.7202 -1.9791 0.9794
-1.6459 4.2734 -1.8857 0.9804
-1.9790 4.0272 -1.8477 0.9808
-2.2885 3.7674 -1.8151 0.9811
-2.5752 3.4951 -1.7877 0.9814
-2.8399 3.2111 -1.7652 0.9816
-3.0832 2.9161 -1.7475 0.9818
-3.3057 2.6105 -1.7345 0.9819
-3.5076 2.2946 -1.7260 0.9820
-3.9924 1.2874 -1.7273 0.9820
-2.4504 0.3296 -1.0181 0.9894
-2.5068 0.1118 -1.0333 0.9892
-2.5479 -0.1136 -1.0502 0.9890
-2.5854 -0.3477 -1.0742 0.9888
-2.6300 -0.5959 -1.1104 0.9884
-2.6464 -0.8534 -1.1450 0.9880
-4.2633 -2.2750 -1.9898 0.9793
-4.1605 -2.7216 -2.0472 0.9787
-3.8512 -3.6424 -2.1828 0.9773
-3.3840 -4.5928 -2.3492 0.9756
-3.0827 -5.0748 -2.4450 0.9746
-2.7311 -5.5577 -2.5499 0.9736
-2.3086 -5.9940 -2.6449 0.9726
-0.7337 -7.2931 -3.0183 0.9688
2.2579 -8.6183 -3.6686 0.9622
4.1122 -8.8616 -4.0228 0.9586
5.0957 -8.8261 -4.1967 0.9569
8.0286 -7.9397 -4.6496 0.9523
8.9049 -7.3601 -4.7573 0.9513
9.6801 -6.6450 -4.8349 0.9505
10.8288 -4.8792 -4.8909 0.9499
11.1606 -3.8754 -4.8649 0.9502
11.3181 -2.8308 -4.8041 0.9508
5.0337 -0.7915 -2.0982 0.9782
4.8499 -0.3247 -2.0016 0.9792
4.8929 0.1090 -2.0153 0.9791
9.1871 2.7381 -3.9475 0.9594
8.5070 3.3857 -3.7703 0.9612
5.6028 5.0675 -3.1108 0.9678
4.1949 5.4355 -2.8273 0.9707
3.5285 5.5273 -2.7003 0.9720
2.8913 5.5668 -2.5831 0.9732
2.2849 5.5601 -2.4753 0.9743
1.7101 5.5129 -2.3768 0.9753
1.1668 5.4301 -2.2870 0.9763
0.6547 5.3160 -2.2055 0.9771
0.1730 5.1743 -2.1319 0.9779
-0.7031 4.8212 -2.0063 0.9791
-1.0998 4.6147 -1.9535 0.9797
-2.4347 3.6328 -1.8008 0.9813
-2.7103 3.3546 -1.7758 0.9815
-3.7727 1.8020 -1.7216 0.9821
-3.5072 0.9607 -1.4974 0.9844
-2.5389 -0.4574 -1.1128 0.9888
-2.5688 -0.9566 -1.1824 0.9881
-4.0632 -2.4067 -2.0371 0.9796
-3.9439 -2.8387 -2.0961 0.9791
-2.4179 -5.5300 -2.6035 0.9741
-1.9761 -5.9022 -2.6848 0.9733
-0.3952 -7.0866 -3.0616 0.9696
0.2484 -7.4289 -3.2063 0.9681
0.9516 -7.7261 -3.3579 0.9667
2.5246 -8.1386 -3.6757 0.9636
3.3815 -8.2284 -3.8374 0.9620
6.0803 -7.8785 -4.2928 0.9576
6.9581 -7.5230 -4.4203 0.9563
7.7851 -7.0412 -4.5279 0.9553
8.5351 -6.4366 -4.6112 0.9545
9.7067 -4.9050 -4.6913 0.9537
10.0897 -4.0156 -4.6843 0.9538
10.3218 -3.0762 -4.6459 0.9542
5.0348 -0.5632 -2.1854 0.9782
9.3568 1.4713 -4.0857 0.9596
8.8376 2.2104 -3.9296 0.9611
8.2541 2.8661 -3.7690 0.9627
6.2943 4.3208 -3.2932 0.9673
5.6325 4.6554 -3.1521 0.9687
3.0558 5.2929 -2.6363 0.9737
1.9074 5.3018 -2.4305 0.9758
-0.0546 4.9027 -2.1149 0.9789
-1.5900 4.1284 -1.9083 0.9809
-1.9132 3.8932 -1.8712 0.9813
-2.4923 3.3825 -1.8123 0.9819
-2.7495 3.1090 -1.7903 0.9821
-3.7313 1.5822 -1.7482 0.9825
-2.4654 0.1099 -1.0645 0.9893
-2.5277 -0.3400 -1.1001 0.9890
-2.5465 -0.5770 -1.1263 0.9887
-3.7008 -3.5001 -2.1972 0.9781
-3.4919 -3.9483 -2.2736 0.9773
-2.2067 -5.7294 -2.6484 0.9736
-1.7451 -6.1031 -2.7381 0.9727
-1.2479 -6.5103 -2.8594 0.9715
-0.6943 -6.9017 -2.9921 0.9702
-0.0809 -7.2627 -3.1330 0.9689
1.3248 -7.8543 -3.4359 0.9659
2.1122 -8.0620 -3.5950 0.9643
3.8230 -8.2383 -3.9176 0.9612
5.6303 -8.0092 -4.2230 0.9582
6.5239 -7.7166 -4.3588 0.9569
7.3796 -7.2979 -4.4769 0.9558
8.1713 -6.7538 -4.5729 0.9549
10.2250 -3.5505 -4.6690 0.9539
10.3801 -2.5962 -4.6155 0.9545
5.0153 0.1118 -2.1639 0.9784
9.5862 1.0724 -4.1609 0.9589
9.1065 1.8510 -4.0085 0.9603
8.5527 2.5490 -3.8496 0.9619
7.9442 3.1617 -3.6882 0.9634
7.2987 3.6882 -3.5275 0.9650
6.6317 4.1302 -3.3701 0.9665
5.2960 4.7900 -3.0803 0.9694
3.3595 5.2626 -2.6932 0.9732
1.6376 5.2792 -2.3843 0.9762
0.6289 5.1062 -2.2192 0.9778
-0.2689 4.8230 -2.0836 0.9792
-0.6778 4.6475 -2.0259 0.9797
-1.7545 4.0126 -1.8891 0.9811
-2.0662 3.7703 -1.8546 0.9814
-2.6235 3.2472 -1.8007 0.9820
-3.3028 2.3772 -1.7553 0.9824
-3.4890 2.0665 -1.7492 0.9825
-3.8021 1.4159 -1.7501 0.9825
-3.9287 1.0762 -1.7571 0.9824
-2.4387 0.2179 -1.0561 0.9894
-2.4282 0.0000 -1.0956 0.9894
-2.4481 -0.2188 -1.1090 0.9893
-2.4593 -0.4431 -1.1275 0.9891
-2.4890 -0.9269 -1.1984 0.9884
-4.0077 -1.9143 -2.0040 0.9807
-3.8002 -2.7352 -2.1127 0.9797
-3.6485 -3.1550 -2.1764 0.9791
-2.9722 -4.4348 -2.4089 0.9768
-2.3095 -5.2820 -2.6012 0.9750
-1.8873 -5.6370 -2.6823 0.9743
-1.4300 -6.0004 -2.7833 0.9733
-0.9291 -6.3702 -2.9047 0.9721
-0.3743 -6.7126 -3.0335 0.9709
0.8968 -7.2812 -3.3102 0.9683
1.6090 -7.4878 -3.4558 0.9669
2.3662 -7.6281 -3.6037 0.9656
3.1606 -7.6908 -3.7519 0.9642
5.6393 -7.3071 -4.1648 0.9603
6.4396 -6.9625 -4.2793 0.9592
7.8737 -5.9379 -4.4498 0.9576
8.4635 -5.2712 -4.4990 0.9572
8.9426 -4.5189 -4.5210 0.9570
9.2966 -3.7000 -4.5148 0.9570
8.2478 2.0629 -3.8362 0.9634
7.1553 3.2240 -3.5412 0.9661
5.9471 4.0825 -3.2548 0.9688
4.7067 4.6546 -2.9868 0.9714
2.9171 5.0527 -2.6325 0.9747
1.3192 5.0353 -2.3487 0.9774
0.8364 4.9589 -2.2692 0.9782
0.3793 4.8536 -2.1967 0.9789
-0.0526 4.7226 -2.1310 0.9795
-0.4596 4.5685 -2.0718 0.9801
-0.8423 4.3940 -2.0187 0.9806
-1.2012 4.2009 -1.9715 0.9810
-1.5371 3.9911 -1.9298 0.9814
-1.8507 3.7661 -1.8934 0.9818
-2.1426 3.5272 -1.8621 0.9821
-2.6635 3.0117 -1.8141 0.9825
-2.8935 2.7367 -1.7971 0.9827
-3.1037 2.4510 -1.7845 0.9828
-3.2943 2.1550 -1.7762 0.9829
-3.7494 1.2090 -1.7776 0.9829
-2.5489 0.5775 -1.1792 0.9886
-2.3568 0.3169 -1.0730 0.9896
-2.4105 0.1075 -1.0887 0.9895
-2.4395 -0.1088 -1.1018 0.9893
-2.4521 -0.3298 -1.1164 0.9892
-2.4671 -0.5590 -1.1414 0.9890
-3.8637 -2.5275 -2.0832 0.9799
-3.5597 -3.3667 -2.2108 0.9787
-3.3543 -3.7928 -2.2846 0.9780
-3.1099 -4.2208 -2.3656 0.9773
-2.8237 -4.6484 -2.4541 0.9764
-2.4927 -5.0724 -2.5502 0.9755
-2.1106 -5.4800 -2.6497 0.9746
-1.1862 -6.1883 -2.8431 0.9727
-0.6585 -6.5453 -2.9683 0.9715
-0.0766 -6.8710 -3.1005 0.9703
2.7594 -7.6698 -3.6779 0.9649
5.2281 -7.4371 -4.1020 0.9609
6.0441 -7.1490 -4.2241 0.9598
6.8232 -6.7476 -4.3300 0.9588
7.5430 -6.2345 -4.4156 0.9580
8.1814 -5.6162 -4.4777 0.9574
8.7179 -4.9046 -4.5135 0.9571
9.1359 -4.1165 -4.5214 0.9570
9.4236 -3.2722 -4.5012 0.9572
9.5758 -2.3951 -4.4539 0.9576
9.5924 -1.5083 -4.3814 0.9583
5.1071 -0.3419 -2.3096 0.9778
5.1879 0.1156 -2.3415 0.9775
8.4874 1.7251 -3.9080 0.9627
7.9928 2.3821 -3.7632 0.9641
7.4445 2.9628 -3.6154 0.9654
6.2485 3.8916 -3.3215 0.9682
5.6424 4.2552 -3.1888 0.9695
3.7926 4.9142 -2.8009 0.9731
3.2039 5.0189 -2.6867 0.9742
1.5701 5.0616 -2.3912 0.9770
0.1602 4.7911 -2.1630 0.9792
-1.3720 4.0980 -1.9499 0.9812
-1.6967 3.8804 -1.9109 0.9816
-2.2806 3.4028 -1.8484 0.9822
-2.7810 2.8756 -1.8050 0.9826
-3.0011 2.5951 -1.7902 0.9827
-3.2015 2.3043 -1.7798 0.9828
-3.3823 2.0034 -1.7738 0.9829
-3.5438 1.6927 -1.7720 0.9829
-2.4063 0.4335 -1.1032 0.9893
-2.3848 0.2131 -1.0804 0.9895
-2.3773 -0.2125 -1.1251 0.9895
-2.3816 -0.4291 -1.1407 0.9894
-2.3934 -0.6556 -1.1698 0.9891
-2.4034 -0.8950 -1.2089 0.9887
-3.6647 -2.6377 -2.1284 0.9802
-2.8520 -4.2554 -2.4147 0.9776
-2.5522 -4.6571 -2.5033 0.9768
-1.8067 -5.3962 -2.6824 0.9751
-1.3635 -5.7217 -2.7726 0.9743
-0.8837 -6.0594 -2.8865 0.9733
-0.3553 -6.3712 -3.0079 0.9722
0.2222 -6.6474 -3.1352 0.9710
1.5165 -7.0571 -3.4025 0.9686
2.2247 -7.1717 -3.5395 0.9673
2.9641 -7.2127 -3.6758 0.9661
3.7244 -7.1708 -3.8089 0.9649
5.2527 -6.8061 -4.0526 0.9627
6.6757 -6.0378 -4.2429 0.9610
7.2996 -5.5049 -4.3096 0.9604
8.6097 -3.4266 -4.3680 0.9599
8.8189 -2.6283 -4.3377 0.9601
8.4761 0.5674 -4.0044 0.9631
7.7245 1.9320 -3.7533 0.9654
7.2518 2.5181 -3.6186 0.9666
6.1849 3.4796 -3.3451 0.9691
5.0535 4.1769 -3.0905 0.9714
4.4729 4.4233 -2.9653 0.9726
3.8985 4.6111 -2.8463 0.9737
1.7526 4.8715 -2.4404 0.9774
0.3652 4.6739 -2.2099 0.9795
-0.0507 4.5528 -2.1462 0.9801
-0.8135 4.2440 -2.0369 0.9811
-1.4869 3.8607 -1.9501 0.9819
-2.3382 3.1735 -1.8581 0.9827
-2.5816 2.9190 -1.8368 0.9829
-2.8053 2.6532 -1.8201 0.9831
-3.0097 2.3768 -1.8077 0.9832
-3.1950 2.0901 -1.7997 0.9833
-3.5083 1.4876 -1.7963 0.9833
-2.5265 0.5724 -1.2211 0.9886
-2.3488 0.1047 -1.1083 0.9897
-2.3799 -0.3201 -1.1319 0.9894
-2.3945 -0.7721 -1.1859 0.9889
-3.7278 -2.4386 -2.0998 0.9805
-3.4271 -3.2413 -2.2235 0.9794
-2.7074 -4.4569 -2.4581 0.9772
-2.0197 -5.2440 -2.6489 0.9755
-1.1295 -5.8924 -2.8281 0.9738
-0.6257 -6.2193 -2.9464 0.9727
-0.0726 -6.5143 -3.0709 0.9716
0.5290 -6.7693 -3.2006 0.9704
1.8661 -7.1230 -3.4709 0.9680
2.5910 -7.2020 -3.6079 0.9667
3.3424 -7.2026 -3.7429 0.9655
4.1084 -7.1161 -3.8733 0.9643
6.3381 -6.2679 -4.2018 0.9613
6.9970 -5.7831 -4.2790 0.9607
7.5814 -5.2043 -4.3347 0.9602
8.0738 -4.5423 -4.3668 0.9599
8.4598 -3.8118 -4.3739 0.9598
8.8775 -2.2204 -4.3136 0.9603
8.9035 -1.4000 -4.2485 0.9609
8.8122 -0.5899 -4.1632 0.9617
8.3171 0.9304 -3.9450 0.9637
7.4947 2.2337 -3.6864 0.9660
6.9977 2.7850 -3.5502 0.9672
4.7628 4.3077 -3.0271 0.9720
4.1845 4.5243 -2.9050 0.9731
3.6154 4.6846 -2.7893 0.9742
2.5220 4.8557 -2.5792 0.9761
2.0037 4.8758 -2.4849 0.9770
1.5070 4.8583 -2.3977 0.9778
1.0329 4.8068 -2.3175 0.9785
0.5819 4.7251 -2.2441 0.9792
0.1543 4.6164 -2.1773 0.9798
-0.2500 4.4834 -2.1167 0.9803
-0.6313 4.3288 -2.0621 0.9808
-0.9901 4.1546 -2.0132 0.9813
-1.3267 3.9627 -1.9698 0.9817
-1.9358 3.5323 -1.8986 0.9823
-2.2091 3.2962 -1.8704 0.9826
-2.9099 2.5163 -1.8134 0.9831
-3.1047 2.2347 -1.8031 0.9832
-3.6929 1.0116 -1.8049 0.9832
-2.3243 0.2077 -1.1000 0.9897
-2.3094 -0.2064 -1.1404 0.9897
-2.3082 -0.4158 -1.1536 0.9896
-2.3278 -0.8669 -1.2217 0.9890
-3.6542 -2.1644 -2.0890 0.9812
-3.5366 -2.5455 -2.1432 0.9808
-3.3884 -2.9300 -2.2033 0.9802
-2.9918 -3.7030 -2.3415 0.9790
-2.7394 -4.0874 -2.4202 0.9783
-2.4479 -4.4668 -2.5053 0.9776
-2.1154 -4.8379 -2.5971 0.9767
-1.7325 -5.1748 -2.6841 0.9760
-1.3029 -5.4669 -2.7641 0.9753
-0.8420 -5.7732 -2.8696 0.9743
-0.3378 -6.0583 -2.9845 0.9733
0.8022 -6.5136 -3.2280 0.9712
2.0972 -6.7608 -3.4816 0.9689
5.5877 -6.0414 -4.0476 0.9640
7.2943 -4.5429 -4.2267 0.9624
7.7022 -3.8921 -4.2446 0.9623
8.0090 -3.1875 -4.2398 0.9623
8.2742 -0.9256 -4.0951 0.9636
7.2568 1.8150 -3.6792 0.9672
6.8276 2.3708 -3.5549 0.9683
6.3543 2.8631 -3.4280 0.9694
5.8489 3.2906 -3.3008 0.9705
4.8010 3.9682 -3.0636 0.9726
4.2580 4.2108 -2.9454 0.9737
3.7183 4.3981 -2.8327 0.9747
3.1874 4.5341 -2.7260 0.9756
2.6692 4.6233 -2.6257 0.9765
1.6827 4.6773 -2.4449 0.9781
-0.0489 4.3923 -2.1605 0.9806
-0.7863 4.1018 -2.0542 0.9816
-1.4392 3.7367 -1.9695 0.9823
-2.0105 3.3097 -1.9047 0.9829
-2.2666 3.0762 -1.8794 0.9831
-2.5033 2.8305 -1.8585 0.9833
-3.2615 1.7404 -1.8183 0.9837
-2.5042 0.5674 -1.2629 0.9886
-2.2893 0.1021 -1.1271 0.9898
-2.3022 -0.1027 -1.1335 0.9898
-2.3108 -0.3108 -1.1468 0.9897
-2.3173 -0.7472 -1.1976 0.9892
-1.9331 -5.0191 -2.6454 0.9763
-1.5184 -5.3102 -2.7165 0.9757
0.5014 -6.4167 -3.1657 0.9717
1.7611 -6.7223 -3.4180 0.9695
3.1405 -6.7676 -3.6696 0.9673
5.2534 -6.2138 -4.0022 0.9644
6.5176 -5.3870 -4.1590 0.9630
7.0557 -4.8435 -4.2094 0.9626
7.5103 -4.2253 -4.2384 0.9623
7.8688 -3.5455 -4.2450 0.9623
8.1221 -2.8203 -4.2289 0.9624
8.2653 -2.0673 -4.1906 0.9627
8.2981 -1.3048 -4.1316 0.9632
7.4508 1.5145 -3.7397 0.9667
7.0485 2.1007 -3.6175 0.9677
6.5957 2.6250 -3.4916 0.9689
6.1049 3.0850 -3.3643 0.9700
4.5295 4.0967 -3.0039 0.9731
2.4159 4.6515 -2.5780 0.9769
1.9224 4.6780 -2.4876 0.9777
1.4479 4.6678 -2.4038 0.9785
0.9937 4.6244 -2.3264 0.9791
0.1488 4.4514 -2.1907 0.9803
-0.9573 4.0169 -2.0311 0.9818
-1.2837 3.8342 -1.9887 0.9821
-1.5895 3.6353 -1.9515 0.9825
-2.1410 3.1946 -1.8915 0.9830
-3.4686 1.2917 -1.8205 0.9836
-3.5829 0.9815 -1.8272 0.9836
-2.3061 0.4155 -1.1525 0.9896
-2.2359 0.0000 -1.1463 0.9900
-2.2443 -0.2006 -1.1552 0.9899
-2.2481 -0.6158 -1.1950 0.9896
-2.2593 -0.8414 -1.2360 0.9892
-2.2721 -1.0853 -1.2909 0.9887
-3.5319 -2.0919 -2.1045 0.9817
-3.4153 -2.4581 -2.1573 0.9813
-3.0912 -3.1962 -2.2796 0.9802
-2.6337 -3.9297 -2.4253 0.9790
-1.2462 -5.2290 -2.7558 0.9761
-0.8034 -5.5088 -2.8541 0.9753
0.2005 -5.9964 -3.0759 0.9734
1.3566 -6.3133 -3.3105 0.9714
1.9818 -6.3887 -3.4292 0.9704
4.6059 -5.9681 -3.8649 0.9667
