ply
format ascii 1.0
element vertex 1586
property float32 x
property float32 y
property float32 z
property float32 I
end_header
5.9830 1.4965 -0.1538 0.9756
1.4299 8.4774 -0.2144 0.9662
-7.5742 10.2798 -0.3184 0.9502
-9.2121 8.7127 -0.3162 0.9505
-9.7493 7.6990 -0.3098 0.9515
-10.2601 6.7119 -0.3058 0.9521
-10.7520 5.7375 -0.3039 0.9524
-11.2320 4.7628 -0.3042 0.9524
-11.7063 3.7748 -0.3067 0.9520
-12.1812 2.7599 -0.3115 0.9513
-12.6631 1.7030 -0.3186 0.9502
-13.6776 -0.6099 -0.3414 0.9467
-14.2282 -1.9135 -0.3580 0.9442
6.2524 -0.4185 -0.1563 0.9752
5.8229 0.1298 -0.1452 0.9770
5.7132 0.6391 -0.1434 0.9773
5.8058 1.1801 -0.1477 0.9766
-6.5849 12.0160 -0.3417 0.9467
-8.4185 8.7048 -0.3020 0.9527
-9.4845 8.2016 -0.3127 0.9511
-10.0075 7.2030 -0.3075 0.9519
-10.5080 6.2239 -0.3046 0.9523
-11.9433 3.2716 -0.3088 0.9517
-12.4209 2.2377 -0.3147 0.9508
-12.3937 0.0000 -0.5153 0.9516
-12.8434 -1.1477 -0.5361 0.9497
-8.5307 -10.5586 -0.5644 0.9471
5.6730 0.3798 -0.2364 0.9775
5.6503 0.8885 -0.2378 0.9774
5.8593 1.4655 -0.2511 0.9761
-4.0326 14.1029 -0.6099 0.9430
-6.9894 9.4861 -0.4899 0.9539
-9.5415 6.2418 -0.4741 0.9554
-10.4489 4.4308 -0.4719 0.9556
-10.8840 3.5096 -0.4755 0.9552
-11.7416 1.5791 -0.4926 0.9537
-12.6165 -0.5626 -0.5251 0.9507
-13.0751 -1.7584 -0.5485 0.9486
-13.5579 -3.0718 -0.5780 0.9459
-14.0745 -4.5384 -0.6149 0.9425
6.1275 -0.4102 -0.2553 0.9757
5.6406 0.6310 -0.2360 0.9775
5.7118 1.1610 -0.2424 0.9769
6.2166 1.8527 -0.2697 0.9744
-5.3201 12.1673 -0.5521 0.9482
-7.2713 8.9998 -0.4811 0.9547
-8.1529 8.4301 -0.4876 0.9541
-9.3029 6.6958 -0.4766 0.9551
-10.2278 4.8854 -0.4713 0.9556
-10.6675 3.9726 -0.4733 0.9555
-11.8995 -1.0633 -0.6958 0.9533
-12.2903 -2.2142 -0.7273 0.9512
-12.6931 -3.4770 -0.7665 0.9486
-13.1143 -4.8838 -0.8151 0.9455
6.5094 -0.7282 -0.3815 0.9741
5.8081 -0.1294 -0.3384 0.9770
5.6041 0.3752 -0.3271 0.9777
5.5835 0.8780 -0.3292 0.9776
5.7714 1.4435 -0.3465 0.9764
-2.7125 14.1508 -0.8392 0.9439
-4.5183 11.7316 -0.7322 0.9509
-9.7671 4.1416 -0.6179 0.9584
-10.1687 3.2790 -0.6223 0.9581
-10.5597 2.3925 -0.6306 0.9575
-10.9440 1.4718 -0.6431 0.9567
-11.3252 0.5050 -0.6603 0.9556
-11.7070 -0.5220 -0.6825 0.9541
-12.0937 -1.6264 -0.7107 0.9523
-12.9010 -4.1600 -0.7895 0.9471
-13.0071 -6.9408 -0.8587 0.9426
6.0308 -0.4037 -0.3520 0.9761
5.6788 0.1266 -0.3308 0.9775
5.5741 0.6236 -0.3267 0.9778
5.6418 1.1467 -0.3353 0.9772
6.0712 1.8094 -0.3690 0.9749
-3.2156 13.4935 -0.8079 0.9459
-4.1143 12.2886 -0.7548 0.9494
-4.8970 11.1997 -0.7119 0.9522
-6.2043 9.2574 -0.6491 0.9563
-7.7127 7.9748 -0.6462 0.9565
-8.2177 7.1062 -0.6328 0.9574
-9.1362 5.4114 -0.6185 0.9583
-9.9694 3.7127 -0.6196 0.9583
-10.3653 2.8393 -0.6259 0.9579
-11.1348 0.9950 -0.6511 0.9562
-11.4119 -2.0559 -0.8690 0.9546
-12.0730 -4.4960 -0.9654 0.9496
-12.4118 -5.9286 -1.0308 0.9463
-8.5975 -10.6412 -1.0252 0.9466
6.3358 -0.7088 -0.4778 0.9748
5.5329 0.8700 -0.4197 0.9778
-3.3858 11.8410 -0.9229 0.9518
-4.1761 10.8431 -0.8708 0.9545
-5.4952 9.0463 -0.7932 0.9584
-7.9309 6.2629 -0.7573 0.9603
-8.3668 5.4733 -0.7492 0.9607
-9.1676 3.8874 -0.7462 0.9608
-9.5404 3.0764 -0.7512 0.9606
-10.2466 1.3781 -0.7748 0.9594
-10.5856 0.4720 -0.7941 0.9584
-11.5761 -2.6228 -0.8895 0.9535
-12.2413 -5.1908 -0.9964 0.9481
-12.5851 -6.7156 -1.0690 0.9444
-12.2091 -7.9868 -1.0933 0.9432
5.6246 0.1254 -0.4216 0.9777
5.5898 1.1362 -0.4275 0.9774
-2.9490 12.3746 -0.9533 0.9503
-3.7938 11.3315 -0.8955 0.9532
-7.2190 7.4644 -0.7782 0.9592
-7.7020 6.6602 -0.7631 0.9600
-8.1522 5.8677 -0.7527 0.9605
-8.5750 5.0790 -0.7469 0.9608
-9.7214 2.6630 -0.7554 0.9604
-4.4480 0.0000 -0.4078 0.9823
-11.6903 -6.9241 -1.2456 0.9469
-11.2561 -8.1016 -1.2714 0.9458
5.5147 0.3692 -0.5067 0.9780
5.4847 0.8624 -0.5090 0.9779
-1.3032 12.9539 -1.1936 0.9490
-2.2831 11.9108 -1.1118 0.9525
-4.5456 9.2501 -0.9449 0.9594
-5.6712 7.6970 -0.8765 0.9623
-7.0194 6.6389 -0.8858 0.9619
-7.4648 5.8949 -0.8720 0.9625
-7.8800 5.1549 -0.8633 0.9629
-8.2693 4.4126 -0.8593 0.9631
-8.9840 2.8970 -0.8654 0.9628
-9.3150 2.1105 -0.8756 0.9624
-4.2496 0.5715 -0.3931 0.9829
-10.2278 -0.4561 -0.9386 0.9597
-10.5108 -1.4135 -0.9723 0.9583
-11.0520 -3.5638 -1.0646 0.9544
5.8769 -0.3934 -0.5400 0.9766
5.4828 0.6133 -0.5058 0.9781
1.0665 8.6594 -0.7999 0.9656
-1.8113 12.4194 -1.1506 0.9508
-2.7227 11.4250 -1.0767 0.9539
-3.5190 10.5108 -1.0162 0.9565
-6.2164 7.6941 -0.9068 0.9610
-6.7838 7.0144 -0.8946 0.9616
-7.2462 6.2660 -0.8782 0.9623
-7.6759 5.5248 -0.8670 0.9627
-8.8124 3.2818 -0.8621 0.9629
-9.1514 2.5068 -0.8699 0.9626
-4.9080 0.8842 -0.4572 0.9802
-4.1097 0.3672 -0.3783 0.9836
-9.9798 -1.7979 -1.0999 0.9600
-10.2035 -2.7950 -1.1475 0.9583
-10.4128 -3.8777 -1.2052 0.9563
-10.6186 -7.6428 -1.4191 0.9487
1.0951 14.0144 -1.5247 0.9450
-0.1440 12.9209 -1.4016 0.9493
-2.9158 10.1973 -1.1504 0.9582
-3.6249 9.4118 -1.0940 0.9602
-4.8215 7.9372 -1.0073 0.9633
-5.4683 7.4217 -0.9999 0.9636
-6.1617 6.9672 -1.0088 0.9633
-6.6228 6.2638 -0.9888 0.9640
-7.0492 5.5667 -0.9743 0.9645
-7.4455 4.8706 -0.9650 0.9648
-7.8153 4.1704 -0.9608 0.9650
-4.7637 1.0793 -0.5298 0.9805
-3.7330 0.1665 -0.4053 0.9851
-10.3100 -3.3245 -1.1750 0.9574
-10.3785 -8.1958 -1.4344 0.9482
-10.5067 -9.9372 -1.5686 0.9435
5.5375 0.1234 -0.6008 0.9780
5.7999 1.7285 -0.6564 0.9759
1.0592 8.5999 -0.9398 0.9657
-1.6736 11.4754 -1.2579 0.9544
-3.2807 9.7989 -1.1208 0.9593
-4.5458 8.2950 -1.0260 0.9627
-7.2509 5.2189 -0.9690 0.9647
-7.6335 4.5213 -0.9623 0.9649
-7.9913 3.8171 -0.9606 0.9650
-8.3271 3.1011 -0.9638 0.9649
-3.9948 0.7197 -0.4403 0.9838
-3.7414 0.3343 -0.4074 0.9850
-3.5692 0.0000 -0.4473 0.9857
-3.7700 -0.3369 -0.4743 0.9849
-9.3877 -1.6912 -1.1954 0.9623
-9.5736 -2.6225 -1.2439 0.9608
-9.7397 -3.6271 -1.3024 0.9590
-9.8837 -4.7210 -1.3726 0.9568
-9.5640 -8.2703 -1.5845 0.9503
-9.5876 -9.9135 -1.7283 0.9459
5.4377 0.3640 -0.6830 0.9783
5.4139 0.8513 -0.6868 0.9781
5.5635 1.3915 -0.7187 0.9771
-0.1327 11.9093 -1.4925 0.9531
-1.1129 11.0628 -1.3933 0.9562
-1.9695 10.2746 -1.3110 0.9587
-3.3988 8.8249 -1.1851 0.9626
-4.5416 7.4765 -1.0962 0.9653
-5.8247 6.5861 -1.1018 0.9652
-7.4072 3.9526 -1.0521 0.9667
-8.0415 2.5930 -1.0588 0.9665
-4.3831 0.9931 -0.5632 0.9820
-3.5348 0.1576 -0.4434 0.9858
-3.6310 -0.1619 -0.4555 0.9855
-9.2877 -1.2491 -1.1744 0.9629
-9.4830 -2.1486 -1.2185 0.9616
-9.6592 -3.1147 -1.2718 0.9599
-9.8146 -4.1617 -1.3359 0.9579
-9.9466 -5.3076 -1.4128 0.9556
-9.5815 -9.0621 -1.6527 0.9482
-9.5714 -10.8226 -1.8105 0.9434
5.4640 1.1106 -0.6987 0.9778
5.7539 1.7148 -0.7524 0.9761
3.0893 14.3763 -1.8427 0.9424
0.4132 12.3587 -1.5496 0.9514
-1.5550 10.6622 -1.3503 0.9575
-2.3589 9.8984 -1.2752 0.9598
-3.0719 9.1753 -1.2125 0.9617
-3.7072 8.4786 -1.1596 0.9634
-4.2774 7.8052 -1.1154 0.9648
-6.4759 5.5999 -1.0729 0.9661
-6.8692 4.9442 -1.0606 0.9665
-7.2343 4.2849 -1.0537 0.9667
-7.5741 3.6179 -1.0519 0.9667
-3.8076 0.6860 -0.4848 0.9845
-8.8598 -1.5962 -1.2805 0.9643
-9.0147 -2.4694 -1.3294 0.9629
-9.1459 -3.4060 -1.3882 0.9613
-9.3255 -5.5235 -1.5416 0.9572
-9.3648 -6.7403 -1.6411 0.9545
-9.3612 -8.0950 -1.7603 0.9512
-8.6735 -10.7353 -1.9630 0.9458
6.0214 -0.6736 -0.8618 0.9758
5.5748 -0.1242 -0.7931 0.9777
5.4143 0.3625 -0.7718 0.9783
5.3886 0.8473 -0.7759 0.9782
-1.0368 10.3063 -1.4733 0.9590
-1.8422 9.6107 -1.3919 0.9612
-2.5582 8.9465 -1.3235 0.9631
-3.1974 8.3018 -1.2654 0.9647
-3.7717 7.6752 -1.2164 0.9660
-4.2918 7.0654 -1.1759 0.9672
-5.0586 6.8656 -1.2130 0.9661
-5.9470 5.6247 -1.1643 0.9675
-3.6292 -0.4881 -0.5209 0.9853
-8.9401 -2.0255 -1.3038 0.9636
-9.0834 -2.9290 -1.3575 0.9622
-9.2019 -3.9019 -1.4216 0.9604
-9.3500 -6.1164 -1.5892 0.9559
-8.7337 -9.8754 -1.8751 0.9481
-8.5863 -11.6534 -2.0589 0.9432
5.7346 -0.3839 -0.8175 0.9770
5.7085 1.7013 -0.8472 0.9762
2.8150 13.1000 -1.9058 0.9473
0.3813 11.4061 -1.6233 0.9549
-0.5949 10.6684 -1.5198 0.9577
-1.4518 9.9541 -1.4308 0.9602
-3.4919 7.9862 -1.2398 0.9654
-4.7929 7.1515 -1.2245 0.9658
-5.2950 6.5538 -1.1984 0.9665
-5.7387 5.9337 -1.1741 0.9672
-6.1471 5.3157 -1.1559 0.9677
-6.8733 4.0711 -1.1363 0.9682
-7.7746 2.1297 -1.1466 0.9680
-8.3860 -1.5108 -1.3569 0.9661
-8.5152 -2.3326 -1.4059 0.9649
-8.6917 -4.1516 -1.5338 0.9617
-8.7317 -5.1717 -1.6160 0.9597
-8.7325 -6.2852 -1.7133 0.9574
-8.2605 -8.5413 -1.8921 0.9530
-7.6934 -11.4793 -2.2005 0.9456
5.9948 -0.6706 -0.9605 0.9759
5.3910 0.3609 -0.8604 0.9784
5.4945 1.3743 -0.9019 0.9773
1.9658 11.6543 -1.8820 0.9533
0.8550 10.9421 -1.7477 0.9565
-0.9702 9.6438 -1.5434 0.9615
-2.4086 8.4234 -1.3951 0.9651
-3.0176 7.8350 -1.3369 0.9666
-4.8016 6.5168 -1.2890 0.9677
-5.2471 5.9330 -1.2612 0.9684
-5.6565 5.3499 -1.2398 0.9690
-6.0336 4.7647 -1.2242 0.9693
-6.7026 3.5766 -1.2097 0.9697
-3.2600 0.1454 -0.5196 0.9869
-8.4538 -1.9154 -1.3803 0.9655
-8.5701 -2.7635 -1.4339 0.9642
-8.6588 -3.6716 -1.4976 0.9626
-8.7162 -4.6511 -1.5732 0.9608
-8.7374 -5.7157 -1.6626 0.9586
-8.7159 -6.8829 -1.7685 0.9560
-8.6431 -8.1746 -1.8944 0.9530
-8.0211 -9.0696 -1.9280 0.9521
5.4531 0.1215 -0.8686 0.9781
5.3573 0.5993 -0.8584 0.9784
5.4065 1.0989 -0.8785 0.9779
5.6717 1.6904 -0.9424 0.9763
4.2164 13.5923 -2.2661 0.9440
2.5845 12.0272 -1.9589 0.9514
1.0548 8.5646 -1.3741 0.9657
-3.8269 6.9839 -1.2683 0.9683
-5.0291 6.2246 -1.2743 0.9681
-5.4560 5.6415 -1.2497 0.9687
-6.5452 3.8768 -1.2113 0.9697
-7.1384 2.6584 -1.2129 0.9696
-3.1939 0.0000 -0.5632 0.9871
-3.2817 -0.2932 -0.5809 0.9867
-7.9582 -1.4337 -1.4258 0.9677
-8.0660 -2.2095 -1.4746 0.9666
-8.1937 -3.9138 -1.6011 0.9638
-8.2062 -4.8606 -1.6818 0.9620
-8.0998 -7.0041 -1.8881 0.9574
-7.3341 -9.0775 -2.0577 0.9537
-6.6501 -12.1349 -2.4399 0.9453
5.3425 0.8401 -0.9536 0.9783
5.4807 1.3708 -0.9962 0.9773
6.0822 2.1120 -1.1353 0.9742
4.6147 12.8268 -2.4036 0.9461
3.1770 12.1266 -2.2104 0.9504
1.8217 10.8000 -1.9312 0.9565
-0.9112 9.0573 -1.6051 0.9637
-1.6294 8.5004 -1.5261 0.9655
-4.5683 6.2002 -1.3580 0.9692
-4.9974 5.6506 -1.3301 0.9698
-5.3917 5.0994 -1.3085 0.9703
-5.7545 4.5443 -1.2929 0.9707
-6.0885 3.9829 -1.2829 0.9709
-6.3960 3.4130 -1.2783 0.9710
-6.9377 2.2371 -1.2853 0.9708
-3.8238 0.8663 -0.6913 0.9842
-3.1779 0.4274 -0.5654 0.9871
-3.3507 -0.4506 -0.5961 0.9864
-8.0155 -1.8160 -1.4492 0.9672
-8.1095 -2.6150 -1.5024 0.9660
-8.1974 -5.3625 -1.7272 0.9610
-7.1848 -9.7513 -2.1357 0.9520
-6.8586 -11.2908 -2.3294 0.9478
-6.3167 -12.8541 -2.5254 0.9435
5.6879 -0.3808 -1.0052 0.9771
5.3324 0.5965 -0.9461 0.9784
5.6569 1.6859 -1.0408 0.9763
5.4205 13.1899 -2.5145 0.9437
3.8690 12.4725 -2.3026 0.9483
2.3879 11.1123 -2.0041 0.9549
0.3315 9.9140 -1.7491 0.9605
-0.5208 9.3401 -1.6495 0.9627
-1.2801 8.7774 -1.5641 0.9646
-1.9603 8.2259 -1.4911 0.9662
-2.5725 7.6836 -1.4287 0.9676
-5.5768 4.8225 -1.3000 0.9705
-5.9249 4.2645 -1.2872 0.9708
-6.5404 3.1241 -1.2780 0.9710
-6.8111 2.5365 -1.2815 0.9709
-4.2904 1.1753 -0.7844 0.9821
-3.1775 -0.2839 -0.6173 0.9871
-7.6595 -2.0981 -1.5369 0.9682
-7.7473 -3.7006 -1.6615 0.9656
-7.7379 -4.5832 -1.7404 0.9640
-7.5844 -6.5585 -1.9404 0.9600
-6.5945 -9.8397 -2.2922 0.9529
-6.0798 -11.0942 -2.4482 0.9498
-5.7881 -13.2378 -2.7959 0.9428
5.9418 -0.6647 -1.1570 0.9759
5.5127 -0.1228 -1.0671 0.9778
5.4692 1.3679 -1.0910 0.9773
4.2473 11.8055 -2.4279 0.9502
2.9429 11.2330 -2.2471 0.9538
0.7460 9.5468 -1.8531 0.9617
-0.1007 9.0370 -1.7489 0.9638
-1.5390 8.0291 -1.5821 0.9672
-3.2636 6.6413 -1.4320 0.9703
-3.9048 6.4281 -1.4555 0.9698
-4.3555 5.9113 -1.4209 0.9705
-4.7691 5.3925 -1.3931 0.9711
-5.1492 4.8701 -1.3715 0.9715
-5.4986 4.3422 -1.3559 0.9719
-6.3847 2.7074 -1.3421 0.9721
-3.2339 -0.4349 -0.6315 0.9868
-7.6181 -1.7260 -1.5116 0.9687
-7.6935 -2.4808 -1.5643 0.9676
-7.7379 -3.2811 -1.6265 0.9663
-7.7475 -4.1342 -1.6994 0.9649
-7.6419 -6.0348 -1.8844 0.9611
-7.3180 -8.2745 -2.1377 0.9560
-6.9345 -9.4116 -2.2623 0.9535
-6.2993 -10.3701 -2.3480 0.9518
-5.8890 -11.9838 -2.5840 0.9471
5.6658 -0.3793 -1.0989 0.9771
5.4167 0.1207 -1.0485 0.9782
5.3241 0.5956 -1.0367 0.9784
5.6421 1.6815 -1.1393 0.9763
6.5866 12.6815 -2.7654 0.9434
1.0563 8.5764 -1.6722 0.9654
-0.4898 8.7835 -1.7024 0.9648
-2.4385 7.2835 -1.4864 0.9692
-2.9690 6.7903 -1.4342 0.9703
-3.6642 6.6863 -1.4755 0.9694
-4.1350 6.1699 -1.4373 0.9702
-4.5667 5.6523 -1.4062 0.9708
-4.9631 5.1318 -1.3816 0.9713
-5.3276 4.6069 -1.3630 0.9717
-5.9705 3.5363 -1.3428 0.9721
-6.5108 2.4247 -1.3445 0.9721
-4.1640 1.1407 -0.8355 0.9826
-3.0639 0.2738 -0.5953 0.9875
-3.0211 0.0000 -0.6369 0.9877
-7.3339 -2.7312 -1.6499 0.9685
-7.3176 -4.3342 -1.7930 0.9658
-7.2476 -5.2165 -1.8826 0.9642
-7.1279 -6.1637 -1.9866 0.9622
-6.7026 -8.2959 -2.2484 0.9573
-6.3721 -9.5079 -2.4130 0.9543
-5.9404 -10.8399 -2.6059 0.9507
5.9500 -0.6656 -1.2622 0.9758
5.4576 1.3650 -1.1860 0.9773
6.0680 2.1071 -1.3542 0.9741
6.8379 11.8437 -2.8831 0.9456
3.9322 10.9297 -2.4488 0.9536
1.5872 9.4095 -2.0117 0.9617
0.7004 8.9631 -1.8953 0.9639
-0.0948 8.5126 -1.7947 0.9658
-2.0442 7.1489 -1.5675 0.9701
-3.2520 6.6175 -1.5545 0.9703
-3.7258 6.1335 -1.5129 0.9711
-4.1604 5.6465 -1.4786 0.9717
-4.5595 5.1555 -1.4509 0.9723
-4.9262 4.6591 -1.4295 0.9727
-5.2631 4.1562 -1.4138 0.9730
-5.8555 3.1246 -1.3992 0.9732
-6.3485 2.0471 -1.4062 0.9731
-3.5520 0.8048 -0.7678 0.9852
-3.0346 0.4081 -0.6455 0.9876
-2.9940 0.1335 -0.6318 0.9878
-3.1545 -0.4242 -0.6710 0.9871
-7.2561 -1.6440 -1.5685 0.9700
-7.3158 -2.3590 -1.6205 0.9691
-7.3436 -3.1140 -1.6816 0.9679
-7.2884 -4.7678 -1.8361 0.9650
-7.1945 -5.6814 -1.9326 0.9632
-7.0468 -6.6648 -2.0448 0.9611
-6.5488 -8.8881 -2.3275 0.9559
-6.1702 -10.1576 -2.5056 0.9526
-5.6796 -11.5576 -2.7149 0.9487
-4.9595 -12.8769 -2.9091 0.9452
5.6693 -0.3795 -1.1979 0.9770
5.3167 0.5948 -1.1279 0.9784
7.6994 12.0610 -3.0166 0.9432
4.5875 11.1630 -2.5444 0.9519
2.1951 10.2151 -2.2027 0.9582
-1.1423 7.8321 -1.6686 0.9682
-1.7580 7.3770 -1.5987 0.9695
-2.8755 6.5765 -1.5132 0.9711
-3.4940 6.3758 -1.5328 0.9707
-4.7467 4.9080 -1.4394 0.9725
-5.0982 4.4086 -1.4209 0.9728
-5.4211 3.9019 -1.4081 0.9731
-5.7171 3.3863 -1.4008 0.9732
-4.0001 1.0957 -0.8744 0.9832
-2.9810 0.2664 -0.6310 0.9878
-2.9710 0.0000 -0.6781 0.9879
-6.9518 -1.9043 -1.6451 0.9709
-6.9824 -2.6003 -1.7006 0.9699
-6.9792 -3.3337 -1.7653 0.9688
-6.9381 -4.1094 -1.8405 0.9675
-6.8540 -4.9332 -1.9275 0.9659
-6.7206 -5.8115 -2.0279 0.9642
-4.9535 -11.3288 -2.8221 0.9505
-4.1798 -12.4843 -3.0049 0.9474
5.9629 -0.6670 -1.3695 0.9757
5.3200 0.8365 -1.2292 0.9781
5.4533 1.3640 -1.2830 0.9772
6.1363 2.1308 -1.4826 0.9737
4.8920 10.5420 -2.6526 0.9534
2.5616 9.7776 -2.3070 0.9594
0.6597 8.4426 -1.9329 0.9659
-0.7680 7.6343 -1.7513 0.9690
-1.3840 7.2204 -1.6780 0.9703
-1.9448 6.8013 -1.6146 0.9714
-2.5218 6.5476 -1.6015 0.9716
-3.5614 5.8629 -1.5657 0.9722
-5.0455 3.9844 -1.4674 0.9740
-5.3435 3.4955 -1.4574 0.9741
-5.8635 2.4863 -1.4536 0.9742
-6.0873 1.9629 -1.4598 0.9741
-2.9625 0.3984 -0.6823 0.9878
-2.9453 0.1313 -0.6729 0.9880
-2.9994 -0.1337 -0.6853 0.9878
-6.9637 -3.7159 -1.8015 0.9681
-6.4103 -7.2483 -2.2085 0.9611
-6.1146 -8.2988 -2.3528 0.9586
-5.7321 -9.4363 -2.5200 0.9557
-4.5587 -11.8364 -2.8950 0.9493
-3.7804 -13.2209 -3.1385 0.9451
5.6730 -0.3797 -1.2977 0.9769
5.4093 0.1205 -1.2349 0.9780
5.6385 1.6805 -1.3429 0.9761
7.0505 11.0445 -2.9907 0.9477
4.2571 10.3590 -2.5562 0.9551
3.0946 9.9759 -2.3840 0.9581
1.0640 8.6391 -1.9867 0.9649
0.2756 8.2437 -1.8826 0.9667
-0.4371 7.8392 -1.7920 0.9683
-1.6709 7.0114 -1.6451 0.9709
-2.2067 6.5911 -1.5864 0.9719
-2.8612 6.5437 -1.6301 0.9711
-3.3380 6.0910 -1.5853 0.9719
-3.7756 5.6335 -1.5479 0.9726
-5.1978 3.7412 -1.4617 0.9741
-5.4828 3.2475 -1.4544 0.9742
-5.7427 2.7430 -1.4526 0.9742
-5.9783 2.2264 -1.4561 0.9742
-3.8725 1.0608 -0.9164 0.9837
-3.1659 0.5704 -0.7342 0.9869
-2.9277 0.2616 -0.6709 0.9880
-2.9221 0.0000 -0.7182 0.9880
-2.9882 -0.2670 -0.7374 0.9877
-3.1004 -0.5586 -0.7743 0.9871
-6.5935 -3.9054 -1.8836 0.9689
-6.1553 -6.3646 -2.1763 0.9642
-5.5516 -8.2836 -2.4511 0.9598
-3.0483 -12.7913 -3.2321 0.9473
-2.0707 -14.1978 -3.5267 0.9426
5.3220 0.8368 -1.3242 0.9781
6.2067 2.1552 -1.6150 0.9733
5.8117 10.0661 -2.8570 0.9533
2.4041 9.1765 -2.3317 0.9617
1.4437 8.5591 -2.1335 0.9649
0.6232 7.9757 -1.9664 0.9676
-0.7293 7.2491 -1.7908 0.9704
-1.8813 6.5795 -1.6820 0.9722
-2.4898 6.4645 -1.7028 0.9719
-2.9693 6.0423 -1.6548 0.9726
-3.4098 5.6134 -1.6144 0.9733
-3.8149 5.1776 -1.5808 0.9739
-4.1873 4.7347 -1.5536 0.9743
-4.5296 4.2841 -1.5325 0.9746
-4.8437 3.8250 -1.5170 0.9749
-5.1311 3.3566 -1.5071 0.9751
-5.3933 2.8780 -1.5026 0.9751
-5.6311 2.3878 -1.5034 0.9751
-5.8450 1.8848 -1.5095 0.9750
-2.8899 0.3887 -0.7167 0.9881
-3.1571 -0.7153 -0.7957 0.9868
-6.6552 -2.1460 -1.7188 0.9716
-6.6248 -3.5351 -1.8457 0.9695
-6.2625 -5.9230 -2.1187 0.9651
-6.0320 -6.8205 -2.2381 0.9632
-5.7317 -7.7791 -2.3751 0.9610
-5.3493 -8.8062 -2.5326 0.9584
-4.8698 -9.9098 -2.7140 0.9555
5.6766 -0.3800 -1.3984 0.9768
5.4055 0.1205 -1.3290 0.9780
5.3080 0.5938 -1.3129 0.9782
5.6558 1.6856 -1.4506 0.9760
9.6892 10.4759 -3.5075 0.9429
7.9989 10.3645 -3.2180 0.9475
6.4987 10.1800 -2.9686 0.9515
5.1628 9.9401 -2.7532 0.9549
3.9690 9.6580 -2.5666 0.9579
2.8984 9.3435 -2.4046 0.9605
0.2607 7.7987 -1.9180 0.9684
-0.4146 7.4350 -1.8304 0.9698
-1.0298 7.0609 -1.7539 0.9710
-2.7346 6.2542 -1.6778 0.9723
-3.1942 5.8287 -1.6337 0.9730
-3.6166 5.3963 -1.5968 0.9736
-4.6901 4.0556 -1.5241 0.9748
-4.9906 3.5921 -1.5114 0.9750
-5.2653 3.1187 -1.5042 0.9751
-5.5152 2.6344 -1.5023 0.9751
-5.7410 2.1380 -1.5058 0.9751
-3.0843 0.5557 -0.7703 0.9872
-2.8807 0.2574 -0.7109 0.9882
-6.3556 -1.7410 -1.7364 0.9731
-6.3652 -2.3704 -1.7898 0.9723
-6.3409 -3.0288 -1.8517 0.9714
-6.1753 -4.4447 -2.0048 0.9690
-6.0240 -5.2092 -2.0985 0.9676
-5.8187 -6.0165 -2.2055 0.9660
-5.5513 -6.8709 -2.3276 0.9641
-5.2121 -7.7769 -2.4669 0.9620
-4.2686 -9.7625 -2.8076 0.9569
-3.5750 -10.6779 -2.9671 0.9545
6.0147 -0.6728 -1.5948 0.9753
5.3333 0.8386 -1.4226 0.9779
5.4786 1.3703 -1.4881 0.9769
6.6784 9.5002 -3.0599 0.9531
3.2076 8.9158 -2.4967 0.9616
1.4066 8.3391 -2.2284 0.9656
0.5975 7.6463 -2.0210 0.9688
-0.0806 7.2347 -1.9065 0.9705
-0.6956 6.9148 -1.8312 0.9717
-1.8787 6.5702 -1.8006 0.9721
-2.3819 6.1846 -1.7463 0.9730
-3.2695 5.3824 -1.6594 0.9743
-4.9335 3.2273 -1.5534 0.9759
-5.1862 2.7674 -1.5489 0.9760
-5.4147 2.2960 -1.5497 0.9760
-5.6195 1.8121 -1.5558 0.9759
-3.2212 0.7298 -0.8703 0.9864
-2.8316 0.3808 -0.7528 0.9883
-3.0953 -0.7013 -0.8363 0.9870
-6.3644 -2.0522 -1.7621 0.9727
-6.3150 -3.3697 -1.8861 0.9708
-6.2328 -4.0773 -1.9625 0.9697
-6.1060 -4.8218 -2.0501 0.9683
-5.9286 -5.6072 -2.1502 0.9668
-5.6933 -6.4375 -2.2645 0.9651
-5.3913 -7.3172 -2.3949 0.9631
-3.9473 -10.2488 -2.8939 0.9556
-3.2022 -11.1989 -3.0692 0.9530
-1.3678 -13.5962 -3.6007 0.9450
5.4168 0.1207 -1.4277 0.9778
5.3209 0.5952 -1.4108 0.9781
5.3803 1.0936 -1.4467 0.9775
5.6733 1.6908 -1.5599 0.9758
8.8629 9.5824 -3.4394 0.9474
4.8107 9.2623 -2.7502 0.9577
3.7155 9.0411 -2.5757 0.9604
2.7243 8.7821 -2.4229 0.9627
1.8250 8.4930 -2.2890 0.9647
0.2476 7.4068 -1.9528 0.9698
-1.5783 6.6230 -1.7940 0.9722
-2.1360 6.3798 -1.7728 0.9726
-2.6179 5.9872 -1.7218 0.9733
-4.1903 4.3328 -1.5883 0.9754
-4.5074 3.8977 -1.5702 0.9757
-4.7979 3.4533 -1.5577 0.9758
-5.5200 2.0557 -1.5521 0.9759
-3.7365 1.0236 -1.0208 0.9841
-2.8279 0.0000 -0.7956 0.9883
-2.9786 -0.5366 -0.8515 0.9875
-5.9909 -3.5484 -1.9591 0.9715
-5.7236 -4.9494 -2.1290 0.9690
-5.5145 -5.7019 -2.2318 0.9676
-4.9091 -7.3249 -2.4809 0.9640
-4.4940 -8.2005 -2.6310 0.9619
-3.9885 -9.1219 -2.8011 0.9595
-3.3299 -9.9460 -2.9510 0.9574
-1.7396 -11.9273 -3.3913 0.9511
-0.7252 -13.0053 -3.6648 0.9473
6.0735 -0.6794 -1.7195 0.9749
5.5458 -0.1236 -1.5607 0.9772
5.3449 0.8404 -1.5223 0.9778
5.4916 1.3736 -1.5927 0.9768
7.4779 8.8449 -3.2588 0.9530
6.2035 8.8247 -3.0350 0.9562
3.9842 8.5857 -2.6631 0.9614
3.0191 8.3917 -2.5092 0.9636
2.1379 8.1604 -2.3735 0.9656
1.3324 7.8988 -2.2538 0.9673
0.5948 7.6123 -2.1483 0.9688
-0.6944 6.9025 -1.9518 0.9716
-3.5179 4.7746 -1.6686 0.9757
-4.4807 3.5384 -1.6064 0.9766
-4.7490 3.1067 -1.5967 0.9767
-5.2126 2.2103 -1.5930 0.9767
-3.1370 0.7108 -0.9050 0.9867
-2.7751 0.3732 -0.7878 0.9884
-2.8531 -0.1272 -0.8035 0.9882
-2.9298 -0.3940 -0.8317 0.9878
-6.0807 -2.5784 -1.8583 0.9729
-5.9411 -3.8864 -1.9975 0.9709
-5.3881 -6.0924 -2.2883 0.9668
-2.9736 -10.3994 -3.0432 0.9561
-1.2535 -12.4597 -3.5233 0.9493
-0.1510 -13.5543 -3.8138 0.9452
5.7302 -0.3836 -1.6158 0.9764
5.4334 0.1211 -1.5291 0.9777
5.3340 0.5967 -1.5101 0.9779
9.6238 8.7042 -3.6509 0.9475
5.6095 8.7871 -2.9331 0.9576
4.5011 8.6661 -2.7475 0.9602
3.4906 8.4939 -2.5837 0.9626
2.5686 8.2803 -2.4392 0.9646
1.7262 8.0331 -2.3117 0.9664
0.9555 7.7584 -2.1994 0.9680
0.2472 7.3926 -2.0811 0.9697
-0.3927 7.0420 -1.9844 0.9711
-1.5411 6.4669 -1.8705 0.9728
-2.0453 6.1089 -1.8125 0.9736
-2.5098 5.7400 -1.7626 0.9743
-3.6959 4.5744 -1.6546 0.9759
-4.3371 3.7504 -1.6132 0.9765
-4.8739 2.8868 -1.5938 0.9767
-3.6501 0.9999 -1.0648 0.9844
-2.9229 0.5266 -0.8356 0.9877
-2.7824 0.0000 -0.8330 0.9884
-2.8308 -0.2530 -0.8509 0.9882
-2.9224 -0.5265 -0.8890 0.9877
-5.7257 -3.3913 -1.9923 0.9726
-5.2380 -5.4161 -2.2557 0.9690
-4.9698 -6.1512 -2.3675 0.9675
-4.6371 -6.9190 -2.4936 0.9658
-4.2308 -7.7202 -2.6356 0.9639
-3.1225 -9.3265 -2.9445 0.9598
-2.4147 -10.1325 -3.1184 0.9574
-1.6093 -11.0344 -3.3384 0.9545
1.7007 -13.8088 -4.1653 0.9436
5.5688 -0.1241 -1.6676 0.9770
5.3778 0.3600 -1.6136 0.9777
5.3583 0.8426 -1.6239 0.9776
5.5352 1.3845 -1.7082 0.9765
11.0038 7.5537 -3.9958 0.9458
8.1950 8.1042 -3.4505 0.9530
5.7881 8.2337 -3.0132 0.9588
4.7253 8.1846 -2.8293 0.9613
2.0243 7.7268 -2.3913 0.9672
-0.0776 6.9666 -2.0858 0.9713
-0.6710 6.6694 -2.0068 0.9724
-1.7234 6.0270 -1.8767 0.9742
-2.6204 5.3322 -1.7787 0.9755
-3.0178 4.9680 -1.7402 0.9760
-3.7220 4.2086 -1.6820 0.9768
-4.3167 3.4089 -1.6467 0.9773
-4.5762 2.9936 -1.6371 0.9774
-5.0234 2.1301 -1.6335 0.9775
-5.2119 1.6806 -1.6395 0.9774
-2.8771 -0.3869 -0.8691 0.9880
-3.1092 -1.0026 -0.9780 0.9865
-5.7681 -3.0780 -1.9573 0.9731
-5.1115 -5.7797 -2.3099 0.9683
-4.8120 -6.5309 -2.4287 0.9667
-3.9969 -8.1335 -2.7131 0.9629
-3.4606 -8.9852 -2.8826 0.9606
-2.0282 -10.5807 -3.2253 0.9560
1.0433 -13.3511 -4.0092 0.9456
5.4503 0.1215 -1.6321 0.9775
10.2635 7.7400 -3.8485 0.9477
8.8589 8.0124 -3.5761 0.9513
5.2456 8.2172 -2.9186 0.9601
4.2265 8.1374 -2.7452 0.9624
3.2896 8.0048 -2.5909 0.9645
2.4285 7.8287 -2.4539 0.9664
1.6367 7.6167 -2.3323 0.9680
0.2377 7.1081 -2.1292 0.9707
-1.4759 6.1930 -1.9060 0.9738
-1.9612 5.8578 -1.8494 0.9745
-2.4093 5.5103 -1.8005 0.9752
-2.8231 5.1515 -1.7586 0.9758
-3.2048 4.7820 -1.7234 0.9763
-3.5567 4.4022 -1.6943 0.9766
-3.8805 4.0124 -1.6711 0.9770
-4.1777 3.6126 -1.6535 0.9772
-4.9204 2.3503 -1.6325 0.9775
-2.8473 0.5130 -0.8661 0.9880
-2.7827 -0.2487 -0.8872 0.9883
-2.8694 -0.5170 -0.9259 0.9878
-2.9540 -0.8092 -0.9727 0.9872
-5.5608 -2.6562 -1.9571 0.9745
-5.4806 -3.2462 -2.0230 0.9736
-5.3610 -3.8586 -2.0977 0.9727
-5.1976 -4.4945 -2.1823 0.9716
-4.9856 -5.1550 -2.2776 0.9704
-4.7191 -5.8408 -2.3847 0.9690
-4.3913 -6.5522 -2.5050 0.9674
-3.5199 -8.0501 -2.7903 0.9638
-2.2554 -9.4641 -3.0898 0.9600
-1.4962 -10.2588 -3.2925 0.9574
2.8663 -13.3387 -4.3329 0.9443
5.4035 0.3617 -1.7199 0.9775
5.3941 0.8482 -1.7341 0.9773
5.5803 1.3957 -1.8268 0.9761
12.8539 5.7917 -4.4775 0.9425
11.4491 6.4412 -4.1720 0.9464
8.8146 7.2855 -3.6318 0.9531
7.6060 7.5217 -3.3972 0.9561
5.4215 7.7121 -2.9939 0.9612
2.6974 7.4975 -2.5305 0.9671
0.5397 6.9071 -2.2003 0.9713
-0.6420 6.3819 -2.0370 0.9734
-1.6537 5.7834 -1.9103 0.9751
-2.9043 4.7812 -1.7766 0.9768
-3.8874 3.6767 -1.6993 0.9778
-4.1628 3.2874 -1.6846 0.9780
-5.0269 1.6210 -1.6774 0.9781
-2.6672 0.3587 -0.8547 0.9888
-2.7612 -0.1231 -0.8778 0.9885
-2.8255 -0.3800 -0.9054 0.9881
-3.1071 -1.0019 -1.0368 0.9864
-5.5872 -2.3692 -1.9273 0.9749
-5.5254 -2.9484 -1.9890 0.9741
-5.4260 -3.5495 -2.0592 0.9732
-5.0980 -4.8217 -2.2285 0.9710
-4.8596 -5.4948 -2.3296 0.9697
-4.5633 -6.1933 -2.4431 0.9682
-4.2020 -6.9175 -2.5705 0.9666
-3.7675 -7.6666 -2.7129 0.9648
-3.2503 -8.4391 -2.8720 0.9628
-2.6017 -9.0986 -3.0054 0.9611
-1.8901 -9.8605 -3.1886 0.9587
-1.0722 -10.6580 -3.4019 0.9560
-0.1276 -11.4542 -3.6379 0.9531
0.9565 -12.2401 -3.8991 0.9498
2.1905 -12.9862 -4.1825 0.9462
3.5821 -13.6728 -4.4888 0.9424
5.8157 -0.3893 -1.8511 0.9758
5.4770 0.1221 -1.7398 0.9773
5.3784 0.6017 -1.7187 0.9775
5.8566 1.7455 -1.9408 0.9747
7.0307 7.6015 -3.2884 0.9575
5.9387 7.6949 -3.0869 0.9600
2.3017 7.4200 -2.4672 0.9679
1.5553 7.2378 -2.3511 0.9694
0.8651 7.0241 -2.2476 0.9707
0.2268 6.7838 -2.1556 0.9719
-1.4153 5.9389 -1.9389 0.9747
-1.8830 5.6244 -1.8836 0.9754
-3.4264 4.2409 -1.7315 0.9774
-3.7402 3.8674 -1.7086 0.9777
-4.5306 2.6835 -1.6723 0.9781
-4.9392 1.8394 -1.6739 0.9781
-2.7374 -0.2446 -0.9234 0.9885
-2.8177 -0.5076 -0.9619 0.9880
-2.8971 -0.7936 -1.0092 0.9874
-5.3374 -2.5494 -1.9873 0.9753
-5.1308 -3.6929 -2.1239 0.9737
-3.7811 -6.8995 -2.6434 0.9673
-3.3217 -7.5968 -2.7857 0.9656
-2.7769 -8.2942 -2.9387 0.9638
1.4297 -11.6080 -3.9296 0.9518
3.9426 -12.7098 -4.4710 0.9454
5.3882 -13.1114 -4.7627 0.9419
5.6566 -0.1260 -1.9010 0.9764
5.6370 1.4099 -1.9523 0.9758
12.9466 4.4955 -4.6046 0.9438
9.3184 6.3967 -3.7975 0.9534
8.1753 6.7571 -3.5635 0.9562
6.0621 7.1703 -3.1547 0.9612
5.0953 7.2481 -2.9768 0.9633
4.1903 7.2578 -2.8157 0.9653
3.3456 7.2097 -2.6704 0.9670
2.5589 7.1126 -2.5397 0.9686
1.1471 6.8004 -2.3171 0.9713
0.5155 6.5967 -2.2231 0.9725
-0.0709 6.3672 -2.1394 0.9735
-0.6152 6.1155 -2.0651 0.9744
-1.1203 5.8445 -1.9994 0.9752
-2.4256 4.9360 -1.8478 0.9771
-3.1422 4.2646 -1.7797 0.9779
-3.7511 3.5478 -1.7347 0.9784
-4.0181 3.1731 -1.7202 0.9786
-4.6785 1.9838 -1.7074 0.9788
-4.8529 1.5649 -1.7131 0.9787
-2.6272 0.5952 -0.9050 0.9887
-2.6180 0.3521 -0.8875 0.9889
-2.7168 -0.1211 -0.9137 0.9886
-5.3985 -1.7408 -1.9058 0.9763
-5.3000 -2.8281 -2.0183 0.9750
-5.1971 -3.3998 -2.0866 0.9741
-5.0539 -3.9910 -2.1636 0.9732
-3.9831 -6.5571 -2.5777 0.9681
-3.5609 -7.2462 -2.7127 0.9665
-2.4463 -8.5553 -2.9896 0.9631
-0.9989 -9.9293 -3.3529 0.9588
0.8818 -11.2851 -3.8032 0.9534
2.0093 -11.9117 -4.0587 0.9503
5.5205 0.1230 -1.8552 0.9770
5.4162 0.6059 -1.8311 0.9773
5.4925 1.1164 -1.8831 0.9766
12.3355 4.9094 -4.4607 0.9455
11.1119 5.6151 -4.1830 0.9488
9.9074 6.1704 -3.9215 0.9519
8.7406 6.5916 -3.6781 0.9549
6.5688 7.1021 -3.2503 0.9600
5.5709 7.2184 -3.0635 0.9623
4.6351 7.2608 -2.8942 0.9643
2.1863 7.0482 -2.4794 0.9693
1.4809 6.8913 -2.3682 0.9707
-0.3482 6.2439 -2.1011 0.9740
-0.8725 5.9823 -2.0312 0.9748
-1.3590 5.7025 -1.9696 0.9756
-2.6155 4.7726 -1.8285 0.9773
-3.3041 4.0895 -1.7664 0.9781
-4.1427 2.9817 -1.7149 0.9787
-2.6265 0.7195 -0.9150 0.9886
-2.7169 0.4895 -0.9275 0.9884
-2.8417 -0.7784 -1.0448 0.9876
-5.1818 -1.9297 -1.9607 0.9768
-5.1290 -2.4499 -2.0155 0.9762
-5.0419 -2.9863 -2.0779 0.9754
-4.9173 -3.5393 -2.1483 0.9746
-4.7517 -4.1089 -2.2274 0.9737
-4.2801 -5.2975 -2.4149 0.9715
-3.1427 -7.1875 -2.7816 0.9673
-2.6236 -7.8362 -2.9302 0.9655
-1.9931 -8.3635 -3.0486 0.9642
-1.3092 -8.9764 -3.2166 0.9622
1.3218 -10.7323 -3.8343 0.9551
2.4128 -11.2284 -4.0723 0.9524
3.6099 -11.6372 -4.3204 0.9496
6.2880 -12.1067 -4.8374 0.9437
5.4846 0.3671 -1.9491 0.9769
5.7327 1.4339 -2.0954 0.9752
11.8238 4.1057 -4.4381 0.9483
9.6961 5.4550 -3.9449 0.9539
8.6416 5.9321 -3.7167 0.9565
7.6156 6.2945 -3.5034 0.9589
6.6363 6.5628 -3.3095 0.9612
4.8030 6.8324 -2.9614 0.9652
3.9622 6.8628 -2.8099 0.9669
3.1725 6.8365 -2.6724 0.9685
2.4326 6.7616 -2.5480 0.9700
1.7409 6.6451 -2.4358 0.9713
1.0952 6.4929 -2.3348 0.9724
-0.0680 6.1004 -2.1633 0.9744
-1.5282 5.3443 -1.9710 0.9767
-1.9479 5.0576 -1.9218 0.9773
-2.3374 4.7563 -1.8792 0.9778
-3.6226 3.4263 -1.7680 0.9791
-3.8816 3.0653 -1.7538 0.9792
-4.3303 2.3107 -1.7404 0.9794
-4.6887 1.5119 -1.7468 0.9793
-2.5615 0.5804 -0.9313 0.9889
-2.5748 0.3463 -0.9212 0.9890
-2.7260 -0.3666 -0.9753 0.9884
-2.8093 -0.6365 -1.0214 0.9878
-5.1595 -2.1878 -1.9872 0.9765
-4.9845 -3.2607 -2.1120 0.9750
-4.8399 -3.8220 -2.1867 0.9742
-4.6522 -4.4000 -2.2705 0.9732
-4.4170 -4.9944 -2.3642 0.9721
-3.7837 -6.2289 -2.5842 0.9695
-3.3738 -6.8656 -2.7125 0.9681
-2.8929 -7.5113 -2.8541 0.9664
-2.3120 -8.0856 -2.9820 0.9649
-1.6604 -8.6620 -3.1274 0.9633
-0.1102 -9.8919 -3.5078 0.9589
0.8176 -10.4637 -3.7216 0.9564
1.8532 -10.9890 -3.9515 0.9538
4.2465 -11.8032 -4.4479 0.9482
7.0038 -12.1309 -4.9669 0.9423
6.0110 -0.4024 -2.1362 0.9748
5.5652 0.1240 -1.9738 0.9767
5.4549 0.6102 -1.9463 0.9770
11.2963 4.4958 -4.3111 0.9497
8.1243 6.1268 -3.6081 0.9577
7.1247 6.4439 -3.4063 0.9600
6.1596 6.6597 -3.2166 0.9622
5.2426 6.7930 -3.0426 0.9642
3.5610 6.8562 -2.7395 0.9677
2.7964 6.8047 -2.6086 0.9693
2.0809 6.7082 -2.4904 0.9706
0.7888 6.4050 -2.2883 0.9730
0.2076 6.2083 -2.2026 0.9740
-0.8377 5.7438 -2.0582 0.9757
-1.7419 5.2028 -1.9455 0.9770
-2.8683 4.2799 -1.8269 0.9784
-3.7551 3.2471 -1.7603 0.9792
-4.0024 2.8807 -1.7486 0.9793
-4.2267 2.5035 -1.7419 0.9794
-2.5828 0.7075 -0.9496 0.9887
-2.6624 0.4796 -0.9592 0.9886
-2.6101 -0.0000 -0.9746 0.9889
-2.7878 -0.7637 -1.0793 0.9877
-4.9901 -1.8583 -1.9883 0.9775
-4.9342 -2.3568 -2.0419 0.9769
-4.8447 -2.8695 -2.1026 0.9762
-4.7187 -3.3963 -2.1709 0.9755
-4.3437 -4.4913 -2.3331 0.9737
-3.7773 -5.6361 -2.5335 0.9714
-2.4811 -7.4107 -2.9182 0.9672
-0.5011 -8.9874 -3.3612 0.9623
0.3177 -9.5038 -3.5508 0.9602
1.2286 -9.9754 -3.7531 0.9580
2.2318 -10.3858 -3.9667 0.9557
3.3259 -10.7216 -4.1918 0.9532
4.4994 -10.9487 -4.4201 0.9507
5.7393 -11.0501 -4.6496 0.9482
7.0240 -11.0029 -4.8744 0.9458
8.3240 -10.7857 -5.0874 0.9435
5.8224 -0.1297 -2.1747 0.9754
5.5537 0.3718 -2.0785 0.9765
5.5492 0.8726 -2.0976 0.9763
5.8795 1.4706 -2.2631 0.9745
10.8700 3.7745 -4.2967 0.9521
9.9410 4.4792 -4.0715 0.9545
8.9945 5.0603 -3.8537 0.9569
7.1223 5.8867 -3.4504 0.9613
6.2321 6.1631 -3.2729 0.9633
4.5396 6.4577 -2.9475 0.9669
3.7554 6.5046 -2.8046 0.9684
1.6616 6.3424 -2.4482 0.9724
1.0473 6.2088 -2.3512 0.9735
0.4723 6.0441 -2.2638 0.9744
-0.0652 5.8523 -2.1855 0.9753
-0.5671 5.6369 -2.1155 0.9761
-1.0352 5.4005 -2.0533 0.9768
-1.4713 5.1456 -1.9984 0.9774
-2.2543 4.5874 -1.9086 0.9784
-2.9279 3.9738 -1.8431 0.9791
-3.9812 2.6044 -1.7765 0.9799
-2.5436 0.5763 -0.9739 0.9889
-2.5921 0.1156 -0.9689 0.9890
-2.6307 -0.1173 -0.9833 0.9888
-2.8043 -0.9043 -1.1002 0.9875
-4.9661 -2.1058 -2.0142 0.9772
-4.8938 -2.6114 -2.0713 0.9766
-4.4540 -4.2125 -2.2892 0.9742
-3.9389 -5.3458 -2.4795 0.9720
-3.2035 -6.5190 -2.7123 0.9695
-1.5639 -8.1586 -3.1020 0.9652
-0.1031 -9.2504 -3.4544 0.9613
0.7615 -9.7461 -3.6504 0.9591
2.7680 -10.5655 -4.0784 0.9544
7.6742 -10.9167 -4.9829 0.9446
6.2779 -0.4202 -2.3495 0.9735
5.6417 0.1257 -2.1072 0.9762
5.6383 1.1460 -2.1485 0.9757
11.3205 3.3739 -4.4109 0.9508
9.4686 4.7847 -3.9615 0.9557
7.5833 5.7188 -3.5467 0.9603
4.9476 6.4108 -3.0239 0.9660
3.3796 6.5069 -2.7379 0.9692
2.6604 6.4737 -2.6135 0.9706
1.9841 6.3960 -2.5006 0.9718
0.7550 6.1301 -2.3063 0.9740
0.1990 5.9514 -2.2236 0.9749
-0.8052 5.5211 -2.0835 0.9765
-1.2572 5.2752 -2.0250 0.9771
-1.6779 5.0118 -1.9735 0.9777
-2.0693 4.7325 -1.9287 0.9782
-2.4326 4.4389 -1.8901 0.9786
-3.0803 3.8126 -1.8302 0.9793
-3.3669 3.4814 -1.8085 0.9795
-3.6299 3.1389 -1.7919 0.9797
-3.4441 0.9434 -1.3335 0.9849
-2.5629 0.2290 -0.9608 0.9891
-2.6073 -0.2330 -1.0273 0.9888
-2.7221 -0.7457 -1.1077 0.9879
-2.7584 -1.0272 -1.1552 0.9874
-4.7513 -2.2695 -2.0666 0.9776
-4.6600 -2.7601 -2.1257 0.9770
-4.5332 -3.2628 -2.1921 0.9763
-4.3679 -3.7771 -2.2663 0.9755
-4.1608 -4.3022 -2.3490 0.9746
-3.2482 -5.9272 -2.6526 0.9714
-1.1606 -7.9578 -3.1563 0.9660
1.1467 -9.3107 -3.6818 0.9605
2.0751 -9.6569 -3.8766 0.9584
3.0785 -9.9241 -4.0780 0.9563
4.1505 -10.0996 -4.2855 0.9542
5.2734 -10.1531 -4.4902 0.9520
7.5902 -9.8349 -4.8757 0.9480
11.6178 -7.2357 -5.3717 0.9429
12.2887 -6.2098 -5.4038 0.9426
12.7575 -5.0774 -5.3889 0.9427
13.0185 -3.8799 -5.3315 0.9433
13.0784 -2.6583 -5.2378 0.9443
12.9380 -1.4473 -5.1095 0.9456
5.9635 -0.1329 -2.3411 0.9747
5.6393 0.3775 -2.2182 0.9760
5.6269 0.8848 -2.2355 0.9758
10.8258 2.7077 -4.3797 0.9532
9.2268 4.1574 -3.9719 0.9574
8.3806 4.7148 -3.7739 0.9595
7.5282 5.1679 -3.5838 0.9615
5.0695 5.9963 -3.0817 0.9668
4.3007 6.1179 -2.9350 0.9684
2.2105 6.1442 -2.5627 0.9723
1.5883 6.0627 -2.4597 0.9734
1.0029 5.9454 -2.3664 0.9744
0.4530 5.7969 -2.2820 0.9753
-0.5453 5.4208 -2.1382 0.9769
-0.9966 5.1993 -2.0777 0.9775
-1.4179 4.9588 -2.0242 0.9781
-2.1761 4.4282 -1.9364 0.9790
-2.5154 4.1409 -1.9015 0.9794
-2.8296 3.8404 -1.8722 0.9797
-3.1197 3.5275 -1.8482 0.9800
-3.6305 2.8670 -1.8156 0.9803
-4.2302 1.7938 -1.8033 0.9804
-4.7846 -2.0288 -2.0396 0.9779
-4.7100 -2.5133 -2.0952 0.9773
-4.6013 -3.0100 -2.1579 0.9767
-4.0403 -4.5684 -2.3936 0.9741
-3.7631 -5.1072 -2.4898 0.9731
-3.4338 -5.6527 -2.5958 0.9720
-3.0478 -6.2021 -2.7122 0.9707
-1.4788 -7.7146 -3.0829 0.9668
-0.8256 -8.2063 -3.2370 0.9652
-0.0967 -8.6803 -3.4070 0.9634
2.5679 -9.8015 -3.9766 0.9574
4.7066 -10.1425 -4.3884 0.9531
7.0104 -9.9724 -4.7842 0.9490
11.2172 -7.7002 -5.3399 0.9432
13.0743 -3.2701 -5.2893 0.9437
13.0323 -2.0492 -5.1776 0.9449
5.6029 0.6268 -2.2127 0.9761
5.7587 1.1705 -2.3064 0.9751
8.8055 4.4496 -3.8721 0.9585
7.1043 5.3576 -3.4922 0.9625
3.2138 6.1877 -2.7365 0.9705
1.8948 6.1082 -2.5100 0.9729
1.2911 6.0082 -2.4119 0.9739
0.1910 5.7121 -2.2431 0.9757
-0.3080 5.5237 -2.1712 0.9765
-2.3489 4.2862 -1.9183 0.9792
-2.9776 3.6855 -1.8595 0.9798
-3.5113 3.0363 -1.8219 0.9803
-3.7442 2.6949 -1.8105 0.9804
-3.9549 2.3425 -1.8040 0.9804
-4.3111 1.6055 -1.8055 0.9804
-2.5289 0.0000 -1.0413 0.9891
-2.5656 -0.2293 -1.0607 0.9889
-2.6410 -0.7234 -1.1276 0.9882
-4.5795 -2.1874 -2.0898 0.9783
-4.4868 -2.6575 -2.1474 0.9777
-4.3597 -3.1379 -2.2119 0.9770
-4.1953 -3.6278 -2.2838 0.9763
-3.7420 -4.6315 -2.4519 0.9746
-3.0989 -5.6547 -2.6552 0.9725
-2.6962 -6.1663 -2.7713 0.9713
-2.2338 -6.6721 -2.8974 0.9700
-1.6942 -7.1091 -3.0094 0.9689
-1.0972 -7.5228 -3.1305 0.9676
0.2797 -8.3669 -3.4472 0.9644
1.0742 -8.7222 -3.6188 0.9627
1.9374 -9.0159 -3.7973 0.9609
3.8459 -9.3583 -4.1663 0.9572
4.8707 -9.3779 -4.3514 0.9553
6.9679 -9.0285 -4.6962 0.9519
7.9886 -8.6372 -4.8447 0.9504
10.5735 -6.5854 -5.1294 0.9475
11.6034 -4.6181 -5.1426 0.9474
11.8589 -3.5343 -5.0956 0.9479
11.8295 -1.3233 -4.9016 0.9498
5.7631 0.3858 -2.3784 0.9753
8.6008 3.8754 -3.8846 0.9600
7.0643 4.8494 -3.5284 0.9636
5.5439 5.4825 -3.2106 0.9668
4.8008 5.6785 -3.0620 0.9683
2.7370 5.8980 -2.6774 0.9723
2.1122 5.8709 -2.5692 0.9734
0.9615 5.7004 -2.3805 0.9753
-0.0602 5.4043 -2.2255 0.9769
-1.3677 4.7830 -2.0485 0.9787
-2.1021 4.2777 -1.9627 0.9796
-2.7366 3.7141 -1.8997 0.9802
-3.0184 3.4130 -1.8762 0.9805
-3.5146 2.7755 -1.8441 0.9808
-2.6388 0.5979 -1.1141 0.9884
-2.4504 0.3296 -1.0181 0.9894
-2.5479 -0.1136 -1.0502 0.9890
-4.6136 -1.9563 -2.0636 0.9786
-4.4277 -2.8964 -2.1787 0.9774
-3.6002 -4.8863 -2.4993 0.9741
-2.9047 -5.9109 -2.7120 0.9719
-2.4727 -6.4202 -2.8330 0.9707
-1.4012 -7.3097 -3.0648 0.9683
-0.0910 -8.1702 -3.3646 0.9653
2.3933 -9.1353 -3.8887 0.9600
3.3489 -9.3085 -4.0736 0.9581
5.3937 -9.3422 -4.4421 0.9544
6.4455 -9.1689 -4.6151 0.9527
9.4013 -7.7704 -5.0224 0.9486
10.2164 -7.0133 -5.1028 0.9478
11.4077 -5.1401 -5.1523 0.9473
11.7540 -4.0814 -5.1236 0.9476
11.7165 -0.7843 -4.8354 0.9505
5.9749 1.2145 -2.5107 0.9740
8.9726 3.5710 -3.9766 0.9591
8.2221 4.1548 -3.7934 0.9609
7.4520 4.6412 -3.6151 0.9627
5.9233 5.3573 -3.2887 0.9660
5.1695 5.5892 -3.1350 0.9676
1.8122 5.8419 -2.5187 0.9739
0.6943 5.6370 -2.3387 0.9757
0.1835 5.4885 -2.2613 0.9765
-1.1675 4.8989 -2.0738 0.9785
-1.9282 4.4099 -1.9819 0.9794
-2.2698 4.1419 -1.9449 0.9798
-2.5869 3.8600 -1.9134 0.9801
-3.3988 2.9391 -1.8503 0.9808
-3.6250 2.6091 -1.8391 0.9809
-3.5071 0.9607 -1.4974 0.9844
-2.4793 0.2215 -1.0250 0.9893
-2.4893 0.0000 -1.0738 0.9892
-2.5389 -0.4574 -1.1128 0.9888
-4.4175 -2.1100 -2.1117 0.9789
-4.1968 -3.0206 -2.2305 0.9777
-4.0336 -3.4880 -2.3002 0.9770
-3.8316 -3.9618 -2.3774 0.9763
-3.2986 -4.9218 -2.5558 0.9745
-2.9609 -5.4029 -2.6576 0.9735
-2.5711 -5.8803 -2.7684 0.9724
-1.6151 -6.7772 -3.0053 0.9701
-1.0405 -7.1340 -3.1099 0.9691
0.2636 -7.8855 -3.4034 0.9662
1.0096 -8.1970 -3.5626 0.9647
4.5205 -8.7034 -4.2305 0.9582
5.4760 -8.5780 -4.3899 0.9566
6.4290 -8.3303 -4.5390 0.9552
8.2223 -7.4371 -4.7824 0.9529
9.0082 -6.7932 -4.8668 0.9520
10.6343 -4.2324 -4.9371 0.9514
10.8768 -3.2416 -4.8957 0.9518
10.9585 -2.2274 -4.8237 0.9525
10.6663 -0.2377 -4.6021 0.9546
6.0362 0.9492 -2.6357 0.9737
8.7076 3.0236 -3.9761 0.9606
8.0473 3.6260 -3.8074 0.9623
7.3561 4.1385 -3.6408 0.9639
6.6489 4.5642 -3.4788 0.9655
5.9547 4.9217 -3.3324 0.9669
3.8838 5.5248 -2.9131 0.9710
3.2356 5.6042 -2.7914 0.9722
2.6141 5.6333 -2.6789 0.9733
2.0211 5.6176 -2.5753 0.9743
-2.9222 3.3042 -1.9027 0.9810
-3.1741 3.0020 -1.8845 0.9811
-3.6135 2.3639 -1.8626 0.9814
-2.5715 0.5826 -1.1373 0.9886
-2.4106 0.3242 -1.0492 0.9895
-2.5465 -0.5769 -1.1263 0.9887
-2.5665 -0.8276 -1.1632 0.9883
-2.6695 -1.1320 -1.2508 0.9874
-4.2647 -2.7898 -2.1982 0.9780
-4.1199 -3.2534 -2.2644 0.9774
-3.4490 -4.6810 -2.5081 0.9750
-1.8812 -6.5789 -2.9516 0.9706
-0.0859 -7.7109 -3.3264 0.9670
0.6289 -8.0481 -3.4822 0.9654
2.2390 -8.5464 -3.8110 0.9622
6.8969 -8.1571 -4.6078 0.9545
8.6275 -7.1308 -4.8282 0.9524
10.4533 -4.7100 -4.9457 0.9513
10.9376 -2.7357 -4.8634 0.9521
10.9402 -1.7203 -4.7771 0.9529
6.2563 0.1394 -2.6994 0.9731
5.9146 0.6616 -2.5672 0.9744
9.6014 1.9516 -4.2263 0.9582
9.0208 2.6885 -4.0603 0.9598
7.0037 4.3620 -3.5591 0.9647
6.2933 4.7460 -3.4001 0.9662
5.6001 5.0650 -3.2571 0.9676
4.8999 5.2978 -3.1128 0.9691
4.2171 5.4643 -2.9774 0.9704
2.9214 5.6247 -2.7340 0.9728
1.1864 5.5212 -2.4360 0.9757
-0.2853 5.1173 -2.2108 0.9779
-1.1265 4.7269 -2.0961 0.9791
-2.1949 4.0052 -1.9701 0.9803
-2.7880 3.4508 -1.9136 0.9809
-3.5116 2.5275 -1.8663 0.9813
-3.8876 1.8570 -1.8584 0.9814
-4.0440 1.5060 -1.8615 0.9814
-4.1792 1.1448 -1.8691 0.9813
-2.4719 0.4453 -1.0834 0.9891
-2.4702 -0.6767 -1.1556 0.9888
-2.4890 -0.9269 -1.1984 0.9884
-4.1702 -2.4700 -2.1870 0.9790
-3.8818 -3.3567 -2.3156 0.9777
-3.4435 -4.2621 -2.4724 0.9762
-3.1613 -4.7169 -2.5621 0.9754
-2.8330 -5.1695 -2.6598 0.9745
-0.3975 -7.1281 -3.2213 0.9692
0.2491 -7.4508 -3.3638 0.9678
0.9514 -7.7251 -3.5120 0.9664
1.7063 -7.9404 -3.6646 0.9650
3.3479 -8.1467 -3.9742 0.9621
4.2145 -8.1143 -4.1257 0.9607
5.0924 -7.9771 -4.2703 0.9593
8.3123 -6.2686 -4.6976 0.9553
9.4330 -4.7667 -4.7689 0.9547
9.8037 -3.9018 -4.7610 0.9548
9.8862 -0.2203 -4.4619 0.9575
9.1854 1.4443 -4.1955 0.9600
8.7013 2.1763 -4.0471 0.9614
7.5542 3.4038 -3.7386 0.9643
6.9239 3.8954 -3.5847 0.9657
6.2747 4.3073 -3.4341 0.9672
3.7006 5.2642 -2.9035 0.9722
2.5003 5.3880 -2.6802 0.9743
1.3983 5.3373 -2.4896 0.9761
0.4023 5.1478 -2.3298 0.9776
-0.4877 4.8480 -2.1985 0.9788
-0.8940 4.6639 -2.1427 0.9794
-1.9658 4.0002 -2.0111 0.9806
-2.2762 3.7472 -1.9783 0.9809
-2.5644 3.4804 -1.9506 0.9812
-3.0756 2.9089 -1.9101 0.9816
-3.5026 2.2913 -1.8886 0.9818
-3.6851 1.9665 -1.8847 0.9818
-2.5488 0.5775 -1.1792 0.9886
-2.3567 0.3169 -1.0730 0.9896
-2.4105 0.1075 -1.0887 0.9895
-4.2213 -2.2525 -2.1589 0.9792
-3.9672 -3.1328 -2.2809 0.9781
-3.5684 -4.0348 -2.4304 0.9766
-3.3080 -4.4896 -2.5163 0.9758
-3.0031 -4.9437 -2.6100 0.9749
-2.6506 -5.3938 -2.7118 0.9740
-1.2667 -6.6084 -3.0361 0.9709
6.3892 -7.5572 -4.4653 0.9575
7.2088 -7.1289 -4.5746 0.9565
9.1976 -5.1745 -4.7618 0.9547
10.0951 -2.5249 -4.6954 0.9554
10.1118 -1.5900 -4.6187 0.9561
9.9930 -0.6689 -4.5191 0.9570
9.7499 0.2173 -4.4004 0.9581
8.9526 1.8197 -4.1222 0.9607
6.6009 4.1111 -3.5088 0.9665
5.9576 4.4929 -3.3669 0.9678
5.3064 4.7993 -3.2284 0.9691
3.3921 5.3137 -2.8445 0.9727
1.1393 5.3017 -2.4468 0.9765
0.6412 5.2065 -2.3670 0.9772
0.1699 5.0822 -2.2945 0.9779
-0.2750 4.9320 -2.2288 0.9786
-0.6940 4.7586 -2.1699 0.9791
-1.0877 4.5643 -2.1172 0.9796
-2.1238 3.8755 -1.9940 0.9808
-2.4230 3.6154 -1.9638 0.9811
-2.7002 3.3421 -1.9387 0.9813
-3.4037 2.4498 -1.8922 0.9818
-3.5965 2.1302 -1.8861 0.9818
-4.0505 1.1095 -1.8950 0.9817
-2.3816 -0.4291 -1.1407 0.9894
-2.3934 -0.6556 -1.1698 0.9891
-3.7390 -3.2333 -2.3301 0.9784
-3.3086 -4.0951 -2.4817 0.9770
-2.3485 -5.3711 -2.7632 0.9744
-0.9413 -6.4540 -3.0744 0.9716
0.8989 -7.2986 -3.4664 0.9680
3.1401 -7.6411 -3.8941 0.9641
3.9435 -7.5926 -4.0330 0.9629
5.5556 -7.1986 -4.2863 0.9606
6.3288 -6.8426 -4.3935 0.9596
8.2766 -5.1547 -4.5962 0.9578
9.0834 -3.6151 -4.6084 0.9577
9.3924 -1.9091 -4.5179 0.9585
9.3570 -1.0467 -4.4382 0.9592
9.2029 -0.2050 -4.3391 0.9601
8.5860 1.3501 -4.0970 0.9623
8.1523 2.0390 -3.9612 0.9635
5.9355 4.0745 -3.3936 0.9687
5.3448 4.4176 -3.2685 0.9698
4.7322 4.6798 -3.1372 0.9710
3.5315 5.0236 -2.8946 0.9732
2.3945 5.1599 -2.6814 0.9752
1.8573 5.1624 -2.5861 0.9760
1.3431 5.1268 -2.4982 0.9768
0.8531 5.0573 -2.4176 0.9776
0.3874 4.9573 -2.3439 0.9783
-0.0538 4.8301 -2.2769 0.9789
-0.8635 4.5047 -2.1621 0.9799
-2.7434 3.1020 -1.9520 0.9819
-3.1994 2.5266 -1.9217 0.9821
-3.3968 2.2221 -1.9134 0.9822
-3.5740 1.9072 -1.9096 0.9822
-3.7309 1.5821 -1.9102 0.9822
-3.8673 1.2471 -1.9154 0.9822
-2.2973 0.3090 -1.0926 0.9898
-2.3488 0.1047 -1.1083 0.9897
-2.3694 -0.1056 -1.1180 0.9896
-2.3799 -0.3201 -1.1319 0.9894
-2.3894 -0.5414 -1.1548 0.9892
-2.3945 -0.7721 -1.1859 0.9889
-2.4109 -1.0223 -1.2344 0.9885
-3.6457 -3.4481 -2.3654 0.9781
-2.8791 -4.7397 -2.6141 0.9758
-2.5371 -5.1629 -2.7116 0.9749
-2.1477 -5.5763 -2.8167 0.9739
-1.2100 -6.3124 -3.0297 0.9720
0.5613 -7.1838 -3.3966 0.9686
3.5399 -7.6284 -3.9642 0.9635
4.3490 -7.5326 -4.1000 0.9623
5.9470 -7.0341 -4.3419 0.9601
7.3912 -6.1090 -4.5200 0.9585
8.0050 -5.4951 -4.5769 0.9580
8.5218 -4.7943 -4.6091 0.9577
9.2942 -0.6222 -4.3908 0.9596
9.0847 0.2025 -4.2834 0.9606
8.3780 1.7029 -4.0299 0.9629
6.8263 3.4495 -3.6053 0.9667
5.6512 4.2618 -3.3364 0.9692
4.4279 4.7874 -3.0739 0.9716
3.8269 4.9587 -2.9526 0.9727
2.1231 5.1662 -2.6328 0.9756
0.6171 5.0109 -2.3799 0.9779
0.1637 4.8969 -2.3096 0.9786
-0.6700 4.5942 -2.1885 0.9797
-1.0510 4.4103 -2.1371 0.9802
-1.4087 4.2076 -2.0916 0.9806
-1.7436 3.9877 -2.0515 0.9809
-2.3470 3.5020 -1.9872 0.9815
-2.6165 3.2385 -1.9625 0.9818
-3.3007 2.3757 -1.9169 0.9822
-3.4880 2.0659 -1.9109 0.9822
-3.8017 1.4158 -1.9123 0.9822
-3.9278 1.0759 -1.9197 0.9822
-2.3515 0.4236 -1.1263 0.9895
-2.3243 0.2077 -1.1000 0.9897
-2.3082 -0.4158 -1.1536 0.9896
-2.3278 -0.8669 -1.2217 0.9890
-2.3666 -1.1304 -1.2900 0.9884
-3.8876 -2.3026 -2.2224 0.9801
-3.7623 -2.7079 -2.2800 0.9795
-3.6044 -3.1168 -2.3437 0.9790
-3.1820 -3.9384 -2.4904 0.9777
-2.9131 -4.3467 -2.5737 0.9769
-2.2488 -5.1432 -2.7609 0.9753
-1.8493 -5.5234 -2.8649 0.9744
-0.8976 -6.1547 -3.0593 0.9727
-0.3587 -6.4330 -3.1690 0.9717
0.8512 -6.9110 -3.4249 0.9694
1.5195 -7.0712 -3.5574 0.9683
2.2231 -7.1666 -3.6906 0.9671
2.9540 -7.1882 -3.8225 0.9660
3.7019 -7.1274 -3.9503 0.9648
4.4539 -6.9769 -4.0712 0.9638
5.1950 -6.7314 -4.1822 0.9628
6.5760 -5.9477 -4.3611 0.9612
7.1799 -5.4147 -4.4231 0.9607
7.7032 -4.7976 -4.4636 0.9604
8.6608 -2.5812 -4.4450 0.9605
8.7526 -1.7790 -4.3931 0.9610
8.3693 0.5603 -4.1257 0.9633
7.2102 2.5037 -3.7541 0.9665
6.7124 3.0245 -3.6212 0.9677
6.1808 3.4772 -3.4881 0.9689
5.0785 4.1976 -3.2407 0.9711
4.5055 4.4556 -3.1167 0.9721
3.9358 4.6553 -2.9984 0.9732
2.2958 4.9472 -2.6825 0.9760
1.7833 4.9568 -2.5910 0.9768
0.8212 4.8685 -2.4284 0.9782
-0.0519 4.6599 -2.2921 0.9794
-0.4545 4.5178 -2.2333 0.9800
-1.1923 4.1699 -2.1332 0.9809
-1.5282 3.9679 -2.0914 0.9812
-2.6602 3.0079 -1.9750 0.9823
-2.8919 2.7352 -1.9578 0.9824
-3.2957 2.1560 -1.9370 0.9826
-2.3142 -0.5243 -1.1671 0.9895
-2.3375 -0.9912 -1.2488 0.9887
-3.9386 -2.1017 -2.1958 0.9803
-3.8289 -2.5047 -2.2504 0.9798
-3.0526 -4.1430 -2.5312 0.9773
-2.0548 -5.3353 -2.8121 0.9748
-1.6318 -5.7069 -2.9195 0.9739
-0.0732 -6.5695 -3.2314 0.9711
0.5321 -6.8095 -3.3595 0.9700
1.8673 -7.1276 -3.6240 0.9677
2.5857 -7.1872 -3.7569 0.9665
4.8268 -6.8663 -4.1282 0.9633
7.9299 -4.4613 -4.4753 0.9603
8.7213 -2.1813 -4.4217 0.9607
8.6777 -0.5809 -4.2777 0.9620
7.8651 1.5987 -3.9476 0.9649
7.4424 2.2181 -3.8197 0.9660
6.9663 2.7725 -3.6878 0.9671
5.9058 3.6782 -3.4221 0.9695
5.3642 4.0453 -3.3046 0.9705
4.7920 4.3342 -3.1780 0.9716
3.0991 4.8546 -2.8328 0.9747
2.5592 4.9273 -2.7309 0.9756
2.0370 4.9569 -2.6359 0.9764
1.5347 4.9475 -2.5478 0.9772
0.1579 4.7220 -2.3238 0.9792
-1.0162 4.2642 -2.1561 0.9806
-1.6881 3.8607 -2.0725 0.9814
-1.9918 3.6345 -2.0385 0.9817
-2.2746 3.3938 -2.0095 0.9820
-2.5367 3.1397 -1.9853 0.9822
-2.7786 2.8730 -1.9658 0.9823
-3.3843 2.0045 -1.9346 0.9826
-3.5464 1.6940 -1.9331 0.9826
-3.8105 1.0438 -1.9432 0.9825
-2.2658 0.2025 -1.1189 0.9899
-2.2443 -0.2005 -1.1552 0.9899
-2.2416 -0.4038 -1.1677 0.9898
-2.2721 -1.0853 -1.2909 0.9887
-3.2877 -3.3994 -2.4245 0.9790
-2.8005 -4.1787 -2.5789 0.9776
-1.3402 -5.6236 -2.9638 0.9743
-0.8586 -5.8871 -3.0501 0.9736
-0.3417 -6.1282 -3.1466 0.9728
0.8076 -6.5570 -3.3870 0.9707
1.4388 -6.6957 -3.5111 0.9697
3.4849 -6.7096 -3.8761 0.9666
4.1852 -6.5561 -3.9876 0.9656
5.5347 -5.9841 -4.1789 0.9640
6.1527 -5.5648 -4.2531 0.9634
7.8959 -3.1425 -4.3568 0.9625
8.0938 -2.4122 -4.3298 0.9627
8.1735 -0.9143 -4.2164 0.9637
7.8583 0.5261 -4.0377 0.9652
6.8074 2.3638 -3.6944 0.9681
6.3500 2.8612 -3.5707 0.9692
5.8586 3.2960 -3.4463 0.9702
5.3633 3.6817 -3.3351 0.9712
4.8338 3.9953 -3.2151 0.9722
4.2963 4.2488 -3.0977 0.9732
3.7597 4.4470 -2.9854 0.9742
2.7093 4.6928 -2.7780 0.9759
2.2034 4.7482 -2.6836 0.9767
1.7139 4.7640 -2.5956 0.9775
0.7912 4.6906 -2.4387 0.9788
-1.1539 4.0354 -2.1517 0.9813
-2.0703 3.4082 -2.0444 0.9822
-2.3353 3.1695 -2.0184 0.9825
-2.8061 2.6540 -1.9801 0.9828
-3.0122 2.3788 -1.9677 0.9829
-3.1989 2.0926 -1.9597 0.9830
-3.6418 1.1743 -1.9617 0.9829
-2.2446 -0.3019 -1.1611 0.9899
-2.2425 -0.5081 -1.1788 0.9897
-2.2530 -0.7265 -1.2136 0.9894
-3.3867 -3.2031 -2.3898 0.9793
-3.1798 -3.5955 -2.4607 0.9787
-2.9365 -3.9854 -2.5379 0.9780
-2.6547 -4.3703 -2.6215 0.9773
-1.1076 -5.7781 -3.0162 0.9739
0.5053 -6.4671 -3.3256 0.9713
1.1189 -6.6336 -3.4489 0.9702
3.1345 -6.7547 -3.8176 0.9671
4.5318 -6.4466 -4.0399 0.9652
5.2085 -6.1607 -4.1359 0.9644
6.4406 -5.3233 -4.2837 0.9631
8.1531 -2.0392 -4.3086 0.9629
8.1925 -1.2882 -4.2516 0.9634
8.1295 -0.5442 -4.1771 0.9640
7.9708 0.1776 -4.0874 0.9648
7.0198 2.0921 -3.7553 0.9676
6.5836 2.6203 -3.6327 0.9687
5.6036 3.4899 -3.3844 0.9708
4.5654 4.1292 -3.1558 0.9727
4.0275 4.3545 -3.0409 0.9737
2.4545 4.7257 -2.7300 0.9763
1.4760 4.7581 -2.5540 0.9779
0.5730 4.6528 -2.4034 0.9791
-0.2473 4.4350 -2.2772 0.9802
-0.6258 4.2905 -2.2229 0.9807
-1.3195 3.9410 -2.1307 0.9815
-1.6351 3.7396 -2.0924 0.9818
-1.9303 3.5224 -2.0592 0.9821
-2.2053 3.2906 -2.0308 0.9824
-2.4604 3.0453 -2.0071 0.9826
-3.1080 2.2370 -1.9632 0.9829
-3.2850 1.9457 -1.9573 0.9830
-3.6982 1.0130 -1.9658 0.9829
-3.6331 -2.1519 -2.2542 0.9810
-3.5101 -2.5264 -2.3088 0.9806
-3.3565 -2.9025 -2.3688 0.9801
-2.9505 -3.6518 -2.5063 0.9789
-2.6946 -4.0206 -2.5838 0.9783
-2.4012 -4.3817 -2.6673 0.9776
-1.6961 -5.0660 -2.8520 0.9761
-0.3263 -5.8518 -3.1288 0.9738
0.2026 -6.0604 -3.2371 0.9729
1.3651 -6.3526 -3.4687 0.9710
3.2888 -6.3321 -3.8091 0.9682
4.5851 -5.9411 -4.0063 0.9665
5.2004 -5.6226 -4.0886 0.9659
5.7749 -5.2230 -4.1568 0.9653
6.2943 -4.7468 -4.2086 0.9649
7.1171 -3.5964 -4.2570 0.9645
7.6800 -1.5610 -4.1837 0.9651
7.5796 -0.1689 -4.0474 0.9662
6.8191 1.7056 -3.7525 0.9686
6.4414 2.2367 -3.6401 0.9696
6.0194 2.7122 -3.5246 0.9705
5.5637 3.1301 -3.4079 0.9715
5.1058 3.5049 -3.3061 0.9723
4.1026 4.0572 -3.0802 0.9742
2.5993 4.5021 -2.7752 0.9767
2.1168 4.5616 -2.6846 0.9775
0.7628 4.5224 -2.4484 0.9794
0.3475 4.4474 -2.3814 0.9800
-1.1173 3.9072 -2.1694 0.9817
-1.7305 3.5215 -2.0946 0.9824
-2.0077 3.3052 -2.0645 0.9826
-2.5043 2.8316 -2.0180 0.9830
-2.9245 2.3094 -1.9893 0.9832
-3.4120 1.4469 -1.9785 0.9833
-2.1735 0.0969 -1.1615 0.9902
-2.1810 -0.2933 -1.1748 0.9901
-2.1912 -0.7066 -1.2291 0.9896
-2.2448 -1.1978 -1.3583 0.9885
-3.5754 -2.3389 -2.2808 0.9808
-3.2676 -3.0905 -2.4010 0.9798
-3.0648 -3.4655 -2.4697 0.9792
-2.5527 -4.2023 -2.6248 0.9780
-1.4944 -5.2261 -2.9017 0.9757
0.4808 -6.1524 -3.2944 0.9724
1.0626 -6.2994 -3.4104 0.9714
2.9607 -6.3801 -3.7548 0.9686
4.8970 -5.7922 -4.0491 0.9662
