ply
format ascii 1.0
element vertex 1587
property float32 x
property float32 y
property float32 z
property float32 I
end_header
-8.7604 4.6747 -0.5783 0.9610
-9.1469 3.8786 -0.5787 0.9610
-10.2386 1.3770 -0.6017 0.9595
-10.5915 0.4723 -0.6175 0.9584
-11.6683 -2.6437 -0.6968 0.9532
-12.0477 -3.8849 -0.7373 0.9505
-12.4469 -5.2780 -0.7874 0.9473
4.9902 -1.2481 -0.2996 0.9796
4.6754 -0.3130 -0.2729 0.9814
4.7188 0.1052 -0.2749 0.9813
5.4824 1.1143 -0.3258 0.9778
-2.0341 13.9469 -0.8209 0.9451
-4.5877 10.4924 -0.6670 0.9552
-5.2297 9.5431 -0.6338 0.9573
-5.7993 8.6532 -0.6067 0.9591
-7.2355 7.4815 -0.6062 0.9592
-10.4152 0.9307 -0.6090 0.9590
-10.3661 -0.9263 -0.7799 0.9591
-10.6700 -1.9223 -0.8125 0.9574
-11.6724 -6.9136 -1.0166 0.9470
5.2415 -1.5621 -0.4099 0.9783
4.6482 -0.1036 -0.3484 0.9815
4.7494 0.3179 -0.3567 0.9811
-2.3275 12.1425 -0.9265 0.9516
-3.1757 11.1062 -0.8656 0.9547
-4.5639 9.2873 -0.7755 0.9593
-6.5359 7.3903 -0.7393 0.9612
-7.0040 6.6243 -0.7224 0.9621
-7.4382 5.8739 -0.7103 0.9627
-10.2134 -0.4554 -0.7661 0.9598
-10.5182 -1.4146 -0.7953 0.9583
-10.8219 -2.4519 -0.8315 0.9565
-11.7531 -6.2716 -0.9983 0.9480
-11.3484 -7.4238 -1.0162 0.9471
4.7039 -0.7397 -0.3568 0.9811
-1.8529 12.7044 -0.9621 0.9498
-3.5572 10.6246 -0.8396 0.9561
-4.2501 9.7201 -0.7950 0.9583
-4.8597 8.8679 -0.7578 0.9602
-7.6443 5.5021 -0.7058 0.9629
-8.4099 4.0171 -0.6984 0.9633
-9.1034 2.4937 -0.7073 0.9628
-4.4480 0.0000 -0.4078 0.9823
-10.4559 -3.8938 -1.0229 0.9562
-10.4920 -7.5517 -1.1851 0.9494
-10.6940 -9.2475 -1.2961 0.9448
4.7458 -0.9646 -0.4440 0.9807
4.6142 -0.5162 -0.4257 0.9815
4.6162 -0.1029 -0.4233 0.9816
4.7194 0.3159 -0.4336 0.9812
1.3750 8.1518 -0.7579 0.9673
1.1355 14.5320 -1.3363 0.9431
-0.1479 13.2744 -1.2170 0.9481
-2.9395 10.2802 -0.9802 0.9580
-3.6387 9.4477 -0.9282 0.9601
-5.6508 7.6694 -0.8734 0.9625
-6.1390 6.9414 -0.8495 0.9635
-6.5877 6.2306 -0.8313 0.9642
-7.0032 5.5303 -0.8181 0.9648
-8.0942 3.4322 -0.8060 0.9653
-8.4175 2.7143 -0.8108 0.9651
-8.7250 1.9768 -0.8202 0.9647
-4.0002 0.1784 -0.3671 0.9840
-10.5753 -4.4843 -1.0531 0.9549
-10.8094 -5.7680 -1.1232 0.9520
-11.0376 -7.2204 -1.2092 0.9484
-10.8013 -10.2158 -1.3630 0.9420
4.6034 -0.3082 -0.4230 0.9816
4.6460 0.1035 -0.4260 0.9815
-0.7085 12.7057 -1.1666 0.9502
-3.9561 9.0479 -0.9053 0.9611
-5.9003 7.3028 -0.8607 0.9630
-6.3679 6.5843 -0.8398 0.9639
-7.5742 4.4862 -0.8070 0.9653
-7.9258 3.7858 -0.8053 0.9653
-8.2579 3.0753 -0.8079 0.9652
-3.7849 -0.0000 -0.4105 0.9849
-9.3406 -1.6828 -1.0294 0.9625
-9.7414 -3.6277 -1.1275 0.9590
-10.0827 -5.9720 -1.2711 0.9539
-10.2260 -7.3602 -1.3666 0.9506
-9.7189 -8.4042 -1.3936 0.9496
5.0928 -1.5178 -0.5764 0.9788
4.7130 -0.9580 -0.5217 0.9808
4.5930 -0.5138 -0.5013 0.9816
4.5940 -0.1024 -0.4984 0.9817
4.6942 0.3142 -0.5103 0.9812
1.3794 8.1778 -0.8995 0.9672
1.0308 13.1911 -1.4352 0.9482
-2.7355 9.5665 -1.0792 0.9608
-5.7865 6.5429 -0.9474 0.9655
-6.6151 5.2239 -0.9143 0.9667
-6.9846 4.5691 -0.9053 0.9670
-7.3293 3.9110 -0.9011 0.9671
-7.6519 3.2447 -0.9015 0.9671
-7.9550 2.5651 -0.9066 0.9669
-4.7637 1.0793 -0.5298 0.9805
-3.7517 0.5046 -0.4106 0.9849
-3.7330 0.1665 -0.4053 0.9851
-3.9257 -0.1751 -0.4262 0.9843
-9.6464 -3.1106 -1.0994 0.9600
-9.8328 -4.1695 -1.1584 0.9579
-9.9162 -7.8308 -1.3705 0.9504
-9.7728 -9.2430 -1.4590 0.9473
4.8377 -1.2100 -0.5409 0.9801
4.5824 -0.3068 -0.4982 0.9817
4.6235 0.1030 -0.5016 0.9816
4.7953 0.5364 -0.5234 0.9808
1.6948 13.7608 -1.5039 0.9457
-0.6507 11.6696 -1.2677 0.9541
-2.3725 9.9554 -1.1101 0.9597
-4.2551 7.7646 -0.9604 0.9650
-5.5573 6.8783 -0.9591 0.9650
-6.8032 4.8966 -0.9092 0.9668
-7.4932 3.5792 -0.9007 0.9671
-7.8057 2.9069 -0.9035 0.9670
-3.9949 0.7197 -0.4403 0.9838
-3.7414 0.3343 -0.4074 0.9850
-3.5692 0.0000 -0.4473 0.9857
-3.7700 -0.3369 -0.4743 0.9849
-8.7902 -1.5836 -1.1193 0.9646
-8.9625 -2.4551 -1.1645 0.9632
-9.1162 -3.3949 -1.2191 0.9615
-9.3591 -5.5434 -1.3631 0.9571
-8.9203 -9.2235 -1.6080 0.9496
4.5719 -0.1019 -0.5731 0.9817
3.6974 14.1129 -1.8283 0.9429
0.9434 12.0731 -1.5176 0.9524
-0.1247 11.1971 -1.4033 0.9559
-1.0456 10.3931 -1.3090 0.9588
-2.5573 8.9435 -1.1657 0.9632
-3.1847 8.2689 -1.1104 0.9649
-3.7456 7.6221 -1.0643 0.9663
-5.0208 6.8143 -1.0607 0.9665
-5.4712 6.1864 -1.0349 0.9673
-6.6201 4.3307 -0.9913 0.9686
-6.9484 3.7078 -0.9870 0.9687
-8.6975 -1.1697 -1.0997 0.9652
-9.1855 -3.8950 -1.2503 0.9606
-9.0224 -8.5333 -1.5562 0.9512
-8.9089 -10.0734 -1.6852 0.9472
4.5616 -0.3054 -0.5729 0.9817
2.9117 13.5501 -1.7368 0.9457
1.5425 12.5242 -1.5813 0.9504
-0.6015 10.7872 -1.3539 0.9574
-2.8803 8.6030 -1.1369 0.9641
-3.4727 7.9422 -1.0863 0.9657
-4.0047 7.3077 -1.0443 0.9670
-4.7802 7.1326 -1.0760 0.9660
-5.2509 6.4991 -1.0471 0.9669
-6.0795 5.2572 -1.0072 0.9681
-6.4467 4.6400 -0.9954 0.9685
-6.7872 4.0201 -0.9885 0.9687
-3.5366 0.3160 -0.4450 0.9858
-3.5139 -0.3140 -0.5018 0.9858
-8.6612 -4.1371 -1.3653 0.9620
-8.7300 -5.1708 -1.4432 0.9598
-8.7657 -6.3091 -1.5362 0.9573
-8.6664 -8.9610 -1.7731 0.9509
-8.0541 -12.0175 -2.0577 0.9432
5.0233 -1.4971 -0.7456 0.9790
4.6698 -0.9492 -0.6778 0.9809
4.8778 0.7670 -0.7023 0.9802
3.3524 12.7960 -1.8815 0.9480
2.0093 11.9123 -1.7183 0.9524
-0.1156 10.3804 -1.4766 0.9589
-2.3993 8.3908 -1.2413 0.9654
-3.5328 7.1890 -1.1393 0.9682
-4.2808 7.0472 -1.1728 0.9672
-4.7542 6.4525 -1.1400 0.9681
-5.1874 5.8654 -1.1137 0.9689
-5.5852 5.2824 -1.0934 0.9694
-6.8942 2.9234 -1.0651 0.9702
-7.1633 2.3098 -1.0705 0.9700
-4.1432 0.9387 -0.6042 0.9830
-3.3671 0.4528 -0.4832 0.9864
-3.6292 -0.4881 -0.5208 0.9853
-8.5064 -2.7430 -1.2713 0.9645
-8.6994 -4.6421 -1.4025 0.9609
-8.7417 -8.2679 -1.7114 0.9525
4.5974 -0.7229 -0.6620 0.9814
4.5409 -0.3040 -0.6473 0.9818
4.5789 0.1020 -0.6514 0.9817
4.1174 13.2734 -1.9767 0.9454
-0.5591 10.0262 -1.4283 0.9602
-1.3634 9.3485 -1.3438 0.9625
-2.0746 8.7053 -1.2729 0.9645
-2.7060 8.0824 -1.2123 0.9661
-3.2715 7.4821 -1.1615 0.9675
-3.8063 6.9456 -1.1265 0.9685
-4.5229 6.7487 -1.1555 0.9677
-4.9755 6.1583 -1.1261 0.9685
-5.3904 5.5737 -1.1029 0.9692
-6.4501 3.8204 -1.0663 0.9702
-6.7518 3.2251 -1.0643 0.9702
-7.0313 2.6185 -1.0672 0.9701
-7.2903 1.9970 -1.0751 0.9699
-3.6717 0.6615 -0.5306 0.9850
-7.8580 -1.4157 -1.2714 0.9682
-7.9779 -2.1854 -1.3172 0.9671
-8.1777 -4.8437 -1.5135 0.9622
-8.1344 -7.0340 -1.7124 0.9574
-7.8759 -9.7480 -1.9956 0.9505
-7.1137 -12.9809 -2.3571 0.9418
4.9938 -1.4883 -0.8298 0.9791
4.6483 -0.9448 -0.7553 0.9810
4.5303 -0.5068 -0.7259 0.9817
4.5281 -0.1009 -0.7212 0.9818
4.6265 0.3097 -0.7384 0.9814
4.8640 0.7648 -0.7840 0.9803
4.7821 13.2921 -2.2494 0.9444
-0.1078 9.6723 -1.5403 0.9616
-2.8281 7.3430 -1.2530 0.9686
-3.3424 6.8016 -1.2068 0.9698
-4.5135 6.1257 -1.2116 0.9697
-4.9304 5.5749 -1.1851 0.9703
-5.3133 5.0253 -1.1645 0.9708
-5.9907 3.9189 -1.1399 0.9714
-6.2904 3.3567 -1.1353 0.9715
-6.5669 2.7846 -1.1358 0.9715
-3.2540 0.4376 -0.5228 0.9868
-3.2600 0.1453 -0.5196 0.9869
-3.3344 -0.1487 -0.5315 0.9866
-3.4817 -0.4683 -0.5594 0.9859
-7.9209 -1.7946 -1.2933 0.9676
-8.0288 -2.5889 -1.3433 0.9664
-8.1108 -3.4393 -1.4028 0.9649
-8.1636 -4.3562 -1.4734 0.9632
-8.1620 -6.4455 -1.6561 0.9588
-7.7648 -10.5385 -2.0844 0.9484
-7.3583 -12.1134 -2.2569 0.9442
4.7662 -1.1921 -0.7823 0.9803
4.5767 -0.7197 -0.7377 0.9814
4.5203 -0.3026 -0.7214 0.9818
5.1289 1.0425 -0.8334 0.9790
3.9911 12.8660 -2.1450 0.9469
2.4346 11.3295 -1.8453 0.9541
-1.9499 8.1823 -1.3394 0.9665
-2.5509 7.6190 -1.2794 0.9680
-3.7879 6.9120 -1.2551 0.9686
-5.4931 4.7501 -1.1564 0.9710
-5.8315 4.1973 -1.1441 0.9713
-4.5041 1.2338 -0.7436 0.9813
-3.1939 -0.0000 -0.5632 0.9871
-3.2817 -0.2933 -0.5809 0.9867
-7.4595 -1.3439 -1.3365 0.9697
-7.5595 -2.0707 -1.3820 0.9687
-7.6776 -3.6672 -1.5003 0.9660
-7.6887 -4.5540 -1.5757 0.9644
-7.6612 -5.5142 -1.6644 0.9624
-7.2665 -8.9938 -2.0388 0.9541
4.9645 -1.4796 -0.9134 0.9792
4.6314 -0.9414 -0.8333 0.9810
4.5210 -0.1008 -0.7974 0.9818
4.6182 0.3091 -0.8161 0.9814
4.8521 0.7629 -0.8661 0.9802
2.8219 10.7710 -1.9633 0.9558
-0.1008 9.0468 -1.5953 0.9639
-0.8556 8.5051 -1.5072 0.9659
-1.5289 7.9763 -1.4320 0.9676
-3.3095 6.7346 -1.3231 0.9700
-3.8564 6.3485 -1.3097 0.9703
-4.6965 5.3104 -1.2500 0.9716
-6.0040 3.2038 -1.2000 0.9727
-3.8238 0.8663 -0.6913 0.9842
-3.2277 -0.1439 -0.5697 0.9870
-7.5126 -1.7021 -1.3582 0.9692
-7.5997 -2.4506 -1.4080 0.9681
-7.6592 -3.2478 -1.4669 0.9668
-7.6802 -5.0241 -1.6182 0.9634
-7.5320 -7.1237 -1.8280 0.9588
-7.3729 -8.3366 -1.9624 0.9558
-6.7527 -11.1164 -2.2934 0.9485
4.7445 -1.1867 -0.8624 0.9803
4.5529 0.1014 -0.8030 0.9817
4.7103 0.5269 -0.8357 0.9809
5.1351 12.4955 -2.3821 0.9466
3.6610 11.8021 -2.1789 0.9510
-1.8389 7.7162 -1.3987 0.9683
-2.9297 6.7004 -1.2895 0.9707
-4.0804 6.0884 -1.2924 0.9707
-4.5000 5.5697 -1.2626 0.9713
-4.8849 5.0509 -1.2390 0.9719
-5.5640 4.0047 -1.2088 0.9725
-6.1387 2.9322 -1.1996 0.9727
-6.3913 2.3801 -1.2026 0.9727
-3.1510 0.2816 -0.5578 0.9872
-3.1015 -0.0000 -0.6002 0.9874
-3.1775 -0.2840 -0.6173 0.9871
-3.3117 -0.5967 -0.6512 0.9864
-7.2364 -2.6949 -1.4943 0.9690
-6.4446 -9.6161 -2.2401 0.9539
4.6287 -0.9408 -0.9140 0.9809
4.6098 0.3086 -0.8941 0.9814
4.0199 11.1734 -2.2979 0.9528
0.7017 8.9797 -1.7430 0.9640
-0.0946 8.4925 -1.6436 0.9660
-0.8059 8.0105 -1.5580 0.9677
-5.4655 3.5754 -1.2639 0.9737
-5.7410 3.0635 -1.2593 0.9738
-5.9931 2.5413 -1.2597 0.9738
-6.2229 2.0066 -1.2653 0.9737
-3.6833 0.8345 -0.7309 0.9847
-3.0751 0.1371 -0.5957 0.9875
-7.1423 -1.6182 -1.4172 0.9706
-7.2617 -3.8749 -1.5928 0.9670
-7.1622 -5.6559 -1.7661 0.9635
-7.0407 -6.6590 -1.8754 0.9613
-5.0875 -13.2092 -2.7393 0.9440
4.5581 -0.7167 -0.8929 0.9814
4.5054 -0.3016 -0.8738 0.9818
4.7005 0.5258 -0.9153 0.9809
5.0978 1.0361 -1.0067 0.9790
6.2448 12.0235 -2.6219 0.9463
3.3799 10.8959 -2.2077 0.9546
0.2920 8.7354 -1.6914 0.9650
-1.7392 7.2981 -1.4519 0.9699
-2.2864 6.8290 -1.3936 0.9711
-4.2931 5.3136 -1.3219 0.9726
-4.6643 4.8228 -1.2984 0.9730
-5.6062 3.3206 -1.2609 0.9738
-5.8699 2.8038 -1.2589 0.9738
-3.0211 -0.0000 -0.6369 0.9877
-3.0994 -0.2770 -0.6560 0.9874
-6.8358 -1.8725 -1.4942 0.9714
-6.8607 -4.0636 -1.6810 0.9679
-6.7950 -4.8907 -1.7650 0.9664
-6.6829 -5.7789 -1.8626 0.9645
-6.5163 -6.7378 -1.9761 0.9624
-6.2850 -7.7790 -2.1084 0.9599
-4.9468 -11.3137 -2.6032 0.9508
4.6260 -0.9403 -0.9952 0.9809
4.5066 -0.5042 -0.9560 0.9816
4.6014 0.3080 -0.9722 0.9813
6.4839 11.2305 -2.7339 0.9484
3.7206 10.3415 -2.3170 0.9561
2.5900 9.8858 -2.1545 0.9591
1.4939 8.8568 -1.8936 0.9639
-0.0891 7.9990 -1.6864 0.9678
-2.5295 6.5678 -1.4838 0.9716
-3.5048 5.7697 -1.4232 0.9728
-3.9122 5.3097 -1.3904 0.9734
-4.6295 4.3785 -1.3434 0.9743
-4.9447 3.9048 -1.3283 0.9746
-5.2339 3.4238 -1.3185 0.9748
-5.4986 2.9341 -1.3139 0.9748
-5.9589 1.9215 -1.3199 0.9747
-3.0346 0.4081 -0.6455 0.9876
-3.0505 -0.1360 -0.6437 0.9876
-3.1545 -0.4243 -0.6710 0.9871
-6.8047 -1.5418 -1.4709 0.9719
-6.8856 -2.9197 -1.5767 0.9699
-6.8332 -4.4700 -1.7214 0.9672
-6.6070 -6.2488 -1.9172 0.9635
-5.7824 -9.5190 -2.3480 0.9555
-5.2211 -10.6245 -2.4957 0.9528
-3.8999 -13.6387 -2.9905 0.9437
4.7456 -1.1870 -1.0313 0.9802
4.5535 -0.7160 -0.9718 0.9813
4.4996 -0.3012 -0.9507 0.9817
4.5387 0.1011 -0.9571 0.9816
4.6906 0.5247 -0.9950 0.9809
5.0929 1.0352 -1.0956 0.9790
7.3054 11.4438 -2.8623 0.9460
4.3427 10.5675 -2.4086 0.9544
3.1375 10.1142 -2.2325 0.9576
-0.4340 7.7833 -1.6434 0.9686
-2.1942 6.5536 -1.4570 0.9721
-2.8227 6.4556 -1.4854 0.9716
-3.7129 5.5400 -1.4060 0.9731
-4.1032 5.0786 -1.3764 0.9737
-4.4615 4.6131 -1.3529 0.9741
-5.0925 3.6654 -1.3228 0.9747
-3.2435 0.5843 -0.6948 0.9866
-2.9810 0.2664 -0.6310 0.9878
-2.9710 -0.0000 -0.6781 0.9879
-3.0430 -0.2719 -0.6973 0.9875
-6.5206 -1.7862 -1.5431 0.9726
-6.5488 -2.4388 -1.5950 0.9717
-5.1035 -9.3127 -2.4238 0.9574
4.6233 -0.9397 -1.0768 0.9808
4.5007 -0.5035 -1.0337 0.9816
9.1925 10.8730 -3.2498 0.9433
7.4653 10.6195 -2.9628 0.9481
4.6318 9.9813 -2.5115 0.9559
3.4611 9.6202 -2.3335 0.9589
2.4212 9.2415 -2.1805 0.9616
1.4021 8.3120 -1.9240 0.9660
-0.0842 7.5566 -1.7248 0.9695
-2.4542 6.3723 -1.5586 0.9724
-2.9219 5.9458 -1.5121 0.9732
-4.1050 4.6415 -1.4143 0.9749
-4.4366 4.1962 -1.3938 0.9753
-4.7410 3.7439 -1.3788 0.9755
-5.0197 3.2837 -1.3691 0.9757
-5.5058 2.3347 -1.3650 0.9758
-5.7148 1.8428 -1.3705 0.9757
-2.9625 0.3984 -0.6823 0.9878
-2.9994 -0.1338 -0.6853 0.9878
-6.5384 -2.1084 -1.5680 0.9722
-6.5308 -3.4849 -1.6895 0.9701
-6.4726 -4.2342 -1.7654 0.9688
-6.3716 -5.0316 -1.8530 0.9672
-5.3782 -8.8538 -2.3644 0.9584
-4.8353 -9.8394 -2.5023 0.9560
4.7461 -1.1871 -1.1166 0.9801
4.5489 -0.7153 -1.0510 0.9813
5.1192 1.0405 -1.1923 0.9788
8.2990 10.7534 -3.1003 0.9458
6.6861 10.4737 -2.8361 0.9503
5.2734 10.1531 -2.6113 0.9541
4.0287 9.8033 -2.4191 0.9574
2.9261 9.4327 -2.2542 0.9603
1.8468 8.5942 -2.0063 0.9646
0.2591 7.7485 -1.7695 0.9687
-3.5513 5.2989 -1.4559 0.9742
-3.9282 4.8620 -1.4266 0.9747
-4.5921 3.9709 -1.3856 0.9754
-4.8835 3.5149 -1.3733 0.9756
-5.1500 3.0504 -1.3662 0.9757
-5.3929 2.5760 -1.3641 0.9758
-3.8726 1.0608 -0.9164 0.9837
-2.9277 0.2616 -0.6709 0.9880
-2.9882 -0.2670 -0.7374 0.9877
-6.2310 -1.7068 -1.5880 0.9737
-6.2486 -2.3270 -1.6390 0.9729
-6.2346 -2.9780 -1.6983 0.9719
-6.1852 -3.6635 -1.7670 0.9708
-5.9615 -5.1551 -1.9372 0.9681
-5.7749 -5.9712 -2.0418 0.9664
-5.5279 -6.8419 -2.1620 0.9644
-3.6154 -10.7985 -2.7991 0.9542
-1.9485 -13.3601 -3.3187 0.9459
4.6029 0.3081 -1.1339 0.9812
4.8520 0.7629 -1.2073 0.9800
6.8537 9.7495 -2.9293 0.9521
4.3061 9.2794 -2.5145 0.9587
3.2338 8.9885 -2.3480 0.9614
2.2720 8.6720 -2.2035 0.9637
0.5860 7.4989 -1.8488 0.9695
-0.0799 7.1687 -1.7622 0.9709
-0.6849 6.8077 -1.6818 0.9722
-2.3442 6.0865 -1.6032 0.9735
-2.7946 5.6869 -1.5575 0.9742
-4.2579 4.0271 -1.4405 0.9761
-4.8210 3.1537 -1.4160 0.9765
-2.8899 0.3887 -0.7167 0.9881
-2.9494 -0.1315 -0.7257 0.9879
-3.1571 -0.7153 -0.7957 0.9868
-6.2436 -2.0133 -1.6125 0.9733
-6.2458 -2.6485 -1.6675 0.9724
-6.1459 -4.0204 -1.8052 0.9702
-6.0348 -4.7656 -1.8901 0.9688
-5.6595 -6.3993 -2.0998 0.9654
-5.0207 -8.2652 -2.3770 0.9609
-4.4989 -9.1550 -2.5073 0.9589
4.7467 -1.1872 -1.2027 0.9800
4.4928 -0.3008 -1.1068 0.9816
4.6992 0.5257 -1.1623 0.9807
6.1600 9.6494 -2.8139 0.9539
4.8889 9.4128 -2.6071 0.9573
3.7551 9.1376 -2.4283 0.9601
2.7400 8.8330 -2.2732 0.9626
0.9441 7.6654 -1.8984 0.9687
-1.5661 6.5717 -1.6606 0.9726
-2.5742 5.8874 -1.5794 0.9739
-3.4021 5.0763 -1.5021 0.9751
-4.1010 4.2404 -1.4500 0.9760
-4.6895 3.3753 -1.4202 0.9765
-4.9465 2.9298 -1.4131 0.9766
-2.8807 0.2574 -0.7109 0.9882
-3.0385 -0.5474 -0.8135 0.9873
-5.9639 -1.6337 -1.6294 0.9747
-5.9727 -2.2242 -1.6794 0.9740
-5.9497 -2.8419 -1.7374 0.9731
-5.8916 -3.4896 -1.8043 0.9721
-5.4605 -5.6461 -2.0697 0.9680
-4.8927 -7.3004 -2.3157 0.9643
-3.9355 -9.0008 -2.5885 0.9602
-2.6376 -11.0678 -2.9980 0.9540
-0.7479 -13.4120 -3.5396 0.9460
5.0441 -1.5033 -1.3869 0.9785
4.6378 -0.9427 -1.2470 0.9806
4.5103 -0.5046 -1.1959 0.9814
4.5098 -0.1005 -1.1886 0.9815
4.6119 0.3087 -1.2180 0.9811
4.8670 0.7653 -1.2982 0.9798
10.8650 8.9802 -3.7143 0.9434
7.6825 9.0869 -3.1355 0.9520
5.1156 8.8604 -2.6959 0.9586
3.0330 8.4304 -2.3608 0.9636
0.5732 7.3354 -1.9388 0.9700
-0.0779 6.9930 -1.8428 0.9715
-1.2557 6.5505 -1.7575 0.9728
-1.7703 6.1912 -1.6968 0.9737
-2.6771 5.4476 -1.5994 0.9752
-3.0764 5.0645 -1.5614 0.9758
-3.4438 4.6738 -1.5298 0.9763
-4.3760 3.4557 -1.4693 0.9772
-4.6359 3.0326 -1.4597 0.9773
-4.8722 2.5999 -1.4552 0.9774
-3.2212 0.7298 -0.8703 0.9864
-2.8515 0.1271 -0.7521 0.9883
-5.9721 -1.9257 -1.6534 0.9744
-5.9653 -2.5295 -1.7073 0.9736
-5.5634 -5.2618 -2.0178 0.9688
-3.6564 -9.4936 -2.6807 0.9588
-3.0100 -10.5266 -2.8849 0.9557
-2.2286 -11.6266 -3.1194 0.9522
-0.1564 -14.0393 -3.6996 0.9436
4.7731 -1.1939 -1.2965 0.9799
4.7099 0.5269 -1.2488 0.9806
5.1731 1.0515 -1.3910 0.9784
6.9885 9.0553 -3.0140 0.9538
5.7071 8.9401 -2.7948 0.9571
3.5145 8.5521 -2.4363 0.9625
2.5750 8.3010 -2.2901 0.9647
0.9358 7.5982 -2.0173 0.9688
0.2388 7.1430 -1.8832 0.9709
-0.9746 6.6826 -1.7795 0.9725
-1.5185 6.3720 -1.7260 0.9733
-2.0116 6.0083 -1.6695 0.9741
-2.4645 5.6364 -1.6210 0.9749
-2.8809 5.2570 -1.5796 0.9755
-3.2639 4.8701 -1.5448 0.9760
-3.6162 4.4758 -1.5162 0.9765
-4.2370 3.6639 -1.4760 0.9771
-4.5089 3.2453 -1.4638 0.9773
-4.9819 2.3796 -1.4548 0.9774
-5.1844 1.9307 -1.4577 0.9774
-3.7366 1.0235 -1.0208 0.9841
-3.0018 0.5408 -0.8037 0.9875
-2.8347 0.2533 -0.7499 0.9883
-2.9786 -0.5366 -0.8515 0.9875
-5.7168 -1.5660 -1.6677 0.9757
-5.7179 -2.1293 -1.7167 0.9750
-5.3720 -4.6454 -1.9982 0.9709
-5.1763 -5.3522 -2.0949 0.9695
-3.6853 -8.4285 -2.5882 0.9625
-2.4416 -10.2454 -2.9633 0.9572
5.0946 -1.5184 -1.4957 0.9782
4.6555 -0.9463 -1.3366 0.9805
4.5227 -0.5059 -1.2804 0.9813
11.4913 7.8883 -3.9216 0.9437
9.8903 8.1746 -3.6102 0.9481
8.4266 8.3332 -3.3344 0.9519
5.8784 8.3621 -2.8759 0.9584
4.7741 8.2689 -2.6864 0.9611
3.7693 8.1225 -2.5194 0.9635
1.2580 7.4582 -2.1280 0.9691
0.5613 7.1837 -2.0273 0.9705
-1.1997 6.2587 -1.7930 0.9739
-1.6941 5.9245 -1.7337 0.9747
-2.5681 5.2258 -1.6383 0.9761
-2.9540 4.8630 -1.6009 0.9766
-3.3094 4.4916 -1.5697 0.9771
-3.6364 4.1117 -1.5444 0.9774
-3.9367 3.7233 -1.5245 0.9777
-4.2118 3.3260 -1.5100 0.9779
-4.4630 2.9196 -1.5005 0.9781
-4.6911 2.5032 -1.4960 0.9781
-4.8968 2.0764 -1.4965 0.9781
-2.7751 0.3732 -0.7878 0.9884
-2.8062 0.1251 -0.7903 0.9884
-2.9298 -0.3941 -0.8317 0.9878
-3.0353 -0.6877 -0.8756 0.9872
-5.7068 -2.4199 -1.7440 0.9746
-5.6595 -3.0200 -1.8049 0.9737
-5.2807 -4.9944 -2.0450 0.9702
-2.7942 -9.7719 -2.8596 0.9586
-0.1423 -12.7748 -3.5945 0.9483
1.0814 -13.8399 -3.9058 0.9439
4.5705 -0.7187 -1.3017 0.9810
4.5544 0.1015 -1.2817 0.9812
10.6733 8.0491 -3.7612 0.9460
6.4711 8.3848 -2.9800 0.9569
5.3132 8.3229 -2.7782 0.9598
2.4275 7.8255 -2.3052 0.9665
0.9020 7.3235 -2.0761 0.9698
0.2353 7.0392 -1.9816 0.9712
-0.3757 6.7376 -1.8986 0.9723
-0.9366 6.4215 -1.8258 0.9734
-1.4520 6.0929 -1.7623 0.9743
-1.9263 5.7534 -1.7071 0.9751
-2.3629 5.4040 -1.6594 0.9758
-2.7650 5.0455 -1.6188 0.9764
-3.7898 3.9186 -1.5338 0.9776
-4.0773 3.5258 -1.5166 0.9779
-4.9913 1.8588 -1.4986 0.9781
-3.6502 0.9999 -1.0648 0.9844
-2.9229 0.5266 -0.8356 0.9877
-2.7824 -0.0000 -0.8330 0.9884
-2.8308 -0.2530 -0.8509 0.9882
-5.4818 -2.0415 -1.7512 0.9759
-5.4453 -2.6010 -1.8066 0.9751
-5.3746 -3.1834 -1.8701 0.9743
-4.9179 -5.0850 -2.1178 0.9709
-4.6667 -5.7760 -2.2231 0.9695
-4.3550 -6.4981 -2.3419 0.9679
-3.9744 -7.2523 -2.4758 0.9661
0.4063 -12.1534 -3.6405 0.9505
1.6053 -13.0342 -3.9317 0.9466
5.1524 -1.5356 -1.6096 0.9778
4.5353 -0.5074 -1.3663 0.9811
4.9317 0.7754 -1.4946 0.9794
11.9525 6.7243 -4.1058 0.9443
10.4622 7.1819 -3.7991 0.9484
9.0691 7.4958 -3.5225 0.9521
7.7762 7.6900 -3.2742 0.9554
4.4727 7.7469 -2.6781 0.9633
3.5452 7.6398 -2.5215 0.9654
2.6939 7.4879 -2.3824 0.9673
-0.0732 6.5708 -1.9673 0.9729
-1.1481 5.9893 -1.8257 0.9749
-1.6235 5.6775 -1.7679 0.9756
-2.0620 5.3540 -1.7176 0.9763
-2.8400 4.6753 -1.6377 0.9774
-3.7917 3.5861 -1.5624 0.9784
-4.3011 2.8137 -1.5387 0.9788
-4.7196 2.0013 -1.5347 0.9788
-4.8960 1.5788 -1.5401 0.9787
-2.7619 0.1232 -0.8277 0.9885
-2.8771 -0.3869 -0.8691 0.9880
-2.9771 -0.6745 -0.9139 0.9873
-5.4676 -2.3185 -1.7780 0.9755
-5.3254 -3.4837 -1.9051 0.9738
-5.0230 -4.7507 -2.0698 0.9715
-4.5189 -6.1331 -2.2807 0.9687
-2.6057 -9.1125 -2.8374 0.9612
-1.9083 -9.9553 -3.0347 0.9586
-0.1305 -11.7101 -3.5060 0.9523
2.2715 -13.4667 -4.0886 0.9446
4.7431 0.5306 -1.4289 0.9803
11.1956 6.9727 -3.9486 0.9464
8.4101 7.6065 -3.3949 0.9538
6.0210 7.8016 -2.9503 0.9597
3.9990 7.6995 -2.5974 0.9644
3.1105 7.5689 -2.4499 0.9664
2.2948 7.3977 -2.3188 0.9682
0.2242 6.7059 -2.0087 0.9724
-0.3586 6.4313 -1.9284 0.9735
-1.3906 5.8350 -1.7958 0.9753
-1.8472 5.5172 -1.7418 0.9760
-2.2684 5.1880 -1.6952 0.9766
-2.6571 4.8486 -1.6553 0.9772
-3.6494 3.7734 -1.5716 0.9783
-4.1825 3.0104 -1.5428 0.9787
-4.6233 2.2083 -1.5339 0.9788
-4.8105 1.7915 -1.5368 0.9788
-3.5598 0.9751 -1.1050 0.9847
-2.8473 0.5130 -0.8662 0.9880
-2.7412 0.2450 -0.8239 0.9886
-2.7380 -0.0000 -0.8695 0.9886
-2.8694 -0.5170 -0.9259 0.9878
-5.2207 -2.4937 -1.8374 0.9760
-5.0334 -3.6228 -1.9695 0.9743
-4.8804 -4.2202 -2.0490 0.9733
-4.4321 -5.4857 -2.2397 0.9708
-4.1250 -6.1549 -2.3531 0.9694
-3.7531 -6.8486 -2.4802 0.9678
-3.2628 -7.4622 -2.5865 0.9664
-2.7329 -8.1626 -2.7337 0.9645
-2.1218 -8.9034 -2.9068 0.9623
1.4668 -11.9100 -3.8110 0.9509
2.7081 -12.6027 -4.0938 0.9473
5.3537 -1.5956 -1.7741 0.9768
4.6954 -0.9544 -1.5217 0.9801
12.2359 5.5132 -4.2622 0.9452
8.3673 6.9158 -3.4475 0.9555
4.2046 7.2826 -2.6706 0.9653
1.8147 6.9267 -2.2741 0.9704
-0.6053 6.0167 -1.9204 0.9749
-1.1002 5.7398 -1.8561 0.9758
-1.5579 5.4482 -1.7996 0.9765
-1.9810 5.1436 -1.7505 0.9771
-2.3721 4.8271 -1.7081 0.9777
-2.7334 4.4998 -1.6721 0.9781
-3.3737 3.8147 -1.6173 0.9789
-3.6557 3.4575 -1.5980 0.9791
-3.9139 3.0907 -1.5838 0.9793
-4.5533 1.9307 -1.5707 0.9795
-4.7228 1.5229 -1.5759 0.9794
-2.9791 0.6750 -0.9701 0.9873
-2.6672 0.3587 -0.8547 0.9888
-2.7612 -0.1231 -0.8778 0.9885
-5.2456 -2.2243 -1.8095 0.9764
-5.1875 -2.7681 -1.8673 0.9756
-4.7871 -4.5276 -2.0926 0.9727
-4.5637 -5.1602 -2.1878 0.9715
-4.2862 -5.8172 -2.2948 0.9701
-3.9477 -6.4987 -2.4148 0.9686
-1.0096 -10.0359 -3.2033 0.9586
-0.1203 -10.7942 -3.4283 0.9557
0.9023 -11.5469 -3.6783 0.9526
2.0685 -12.2629 -3.9495 0.9491
3.3864 -12.9258 -4.2436 0.9455
4.5982 -0.7230 -1.4782 0.9807
4.5376 -0.3038 -1.4443 0.9811
4.5863 0.1022 -1.4569 0.9809
4.7805 0.5348 -1.5277 0.9800
5.5227 1.1225 -1.7898 0.9766
11.5564 5.8397 -4.1121 0.9471
8.9720 6.7661 -3.5688 0.9539
7.7812 7.0376 -3.3320 0.9569
6.6655 7.2067 -3.1176 0.9596
4.6604 7.3004 -2.7506 0.9643
3.7661 7.2511 -2.5949 0.9663
0.8165 6.6296 -2.1214 0.9724
-0.3429 6.1490 -1.9559 0.9745
-0.8576 5.8802 -1.8872 0.9754
-2.1805 4.9868 -1.7285 0.9774
-3.2234 3.9896 -1.6289 0.9787
-2.6951 0.2408 -0.8593 0.9887
-2.6945 0.0000 -0.9053 0.9887
-2.8177 -0.5076 -0.9619 0.9880
-2.8971 -0.7936 -1.0092 0.9874
-5.0578 -1.8835 -1.8133 0.9775
-5.0118 -2.3939 -1.8661 0.9768
-4.9330 -2.9218 -1.9263 0.9761
-4.8181 -3.4679 -1.9945 0.9753
-3.0833 -7.0516 -2.5858 0.9680
-2.5719 -7.6820 -2.7218 0.9664
1.3490 -10.9535 -3.7080 0.9545
2.4763 -11.5236 -3.9601 0.9515
4.7405 -0.9636 -1.6253 0.9798
4.5849 -0.5129 -1.5501 0.9807
4.6942 0.3142 -1.5807 0.9803
5.0365 0.7920 -1.7130 0.9787
11.1573 5.0272 -4.1116 0.9497
8.8523 6.0767 -3.6075 0.9557
6.7225 6.6481 -3.1766 0.9609
4.8238 6.8619 -2.8181 0.9652
1.7257 6.5869 -2.2878 0.9717
-0.0669 6.0053 -2.0178 0.9750
-0.5800 5.7656 -1.9469 0.9758
-1.0558 5.5079 -1.8842 0.9766
-1.9054 4.9472 -1.7812 0.9779
-2.2837 4.6471 -1.7397 0.9784
-2.6335 4.3354 -1.7043 0.9788
-2.9566 4.0127 -1.6746 0.9792
-3.5278 3.3366 -1.6314 0.9797
-3.7782 2.9836 -1.6175 0.9799
-4.3966 1.8643 -1.6045 0.9801
-4.5598 1.4703 -1.6097 0.9800
-2.6272 0.5952 -0.9050 0.9887
-2.6762 0.1193 -0.9001 0.9888
-2.7751 -0.3732 -0.9408 0.9883
-2.8653 -0.6492 -0.9871 0.9877
-5.0693 -1.6346 -1.7895 0.9778
-4.9767 -2.6556 -1.8952 0.9765
-4.7461 -3.7479 -2.0319 0.9748
-4.5702 -4.3224 -2.1135 0.9738
-4.3479 -4.9163 -2.2051 0.9727
-3.3401 -6.7969 -2.5445 0.9685
-2.8347 -7.3600 -2.6499 0.9673
-0.1115 -10.0083 -3.3628 0.9586
1.8971 -11.2469 -3.8321 0.9530
3.0868 -11.7822 -4.0922 0.9499
4.4003 -12.2310 -4.3672 0.9466
5.8298 -12.5629 -4.6532 0.9432
4.6336 -0.7286 -1.5759 0.9804
4.6161 0.1029 -1.5513 0.9807
12.9208 3.8508 -4.5299 0.9447
10.5704 5.3415 -3.9792 0.9513
5.2759 6.8362 -2.9013 0.9642
2.7840 6.7744 -2.4608 0.9696
2.0655 6.6586 -2.3423 0.9710
1.3983 6.5071 -2.2362 0.9723
0.2045 6.1176 -2.0566 0.9745
-1.7050 5.0925 -1.8043 0.9776
-2.0982 4.7987 -1.7596 0.9781
-2.4621 4.4927 -1.7212 0.9786
-2.7983 4.1754 -1.6888 0.9790
-3.6558 3.1613 -1.6238 0.9798
-4.1118 2.4354 -1.6056 0.9800
-4.3070 2.0573 -1.6037 0.9801
-2.6931 -0.2407 -0.9588 0.9886
-2.7668 -0.4985 -0.9969 0.9881
-2.8417 -0.7785 -1.0448 0.9876
-4.8665 -1.8123 -1.8413 0.9782
-4.8170 -2.3008 -1.8929 0.9776
-4.6184 -3.3242 -2.0177 0.9761
-4.2656 -4.4106 -2.1757 0.9743
-4.0213 -4.9771 -2.2689 0.9732
-2.9254 -6.6905 -2.5892 0.9695
-2.4274 -7.2503 -2.7111 0.9681
-1.8714 -7.8528 -2.8625 0.9663
-1.2326 -8.4512 -3.0284 0.9644
-0.5039 -9.0371 -3.2094 0.9623
0.3210 -9.6000 -3.4059 0.9601
2.2786 -10.6038 -3.8458 0.9550
5.9579 -11.4710 -4.5834 0.9466
4.6041 -0.1026 -1.6329 0.9806
4.7270 0.3164 -1.6799 0.9801
12.2438 3.0624 -4.4752 0.9478
10.2398 4.6138 -3.9825 0.9535
8.2068 5.6337 -3.5297 0.9586
4.5460 6.4668 -2.8029 0.9670
2.9992 6.4631 -2.5265 0.9702
1.6441 6.2756 -2.3004 0.9728
0.4652 5.9536 -2.1175 0.9750
-0.0641 5.7536 -2.0403 0.9759
-0.5565 5.5321 -1.9715 0.9767
-1.8345 4.7632 -1.8099 0.9786
-2.2007 4.4782 -1.7693 0.9790
-2.5397 4.1809 -1.7346 0.9795
-2.8530 3.8721 -1.7054 0.9798
-3.1419 3.5526 -1.6816 0.9801
-3.6502 2.8825 -1.6492 0.9805
-3.8711 2.5323 -1.6402 0.9806
-4.0705 2.1721 -1.6360 0.9806
-4.2488 1.8017 -1.6364 0.9806
-4.4060 1.4208 -1.6415 0.9805
-2.5748 0.3463 -0.9212 0.9890
-2.6347 0.1175 -0.9351 0.9889
-2.7260 -0.3666 -0.9753 0.9884
-2.8709 -0.9258 -1.0696 0.9873
-4.8456 -2.0547 -1.8662 0.9779
-4.7803 -2.5508 -1.9212 0.9773
-4.6814 -3.0624 -1.9836 0.9765
-4.3699 -4.1331 -2.1328 0.9748
-4.1496 -4.6920 -2.2210 0.9738
-3.5559 -5.8538 -2.4286 0.9714
-3.1702 -6.4512 -2.5488 0.9700
-2.6818 -6.9633 -2.6460 0.9688
-0.1039 -9.3220 -3.3057 0.9612
0.7711 -9.8687 -3.5099 0.9589
1.7494 -10.3712 -3.7294 0.9563
6.6399 -11.5008 -4.7089 0.9452
8.0358 -11.4311 -4.9546 0.9424
5.0280 -1.2576 -1.8378 0.9782
4.5993 -0.3079 -1.6345 0.9806
4.6467 0.1035 -1.6481 0.9805
4.8653 0.5443 -1.7359 0.9794
10.7510 4.2788 -4.1030 0.9521
9.7273 4.9154 -3.8645 0.9548
8.7087 5.4238 -3.6379 0.9574
4.1408 6.4864 -2.7287 0.9679
3.3675 6.4836 -2.5906 0.9695
1.9657 6.3368 -2.3526 0.9722
0.7445 6.0446 -2.1595 0.9745
0.1958 5.8565 -2.0778 0.9754
-0.3148 5.6453 -2.0049 0.9763
-0.7896 5.4141 -1.9401 0.9770
-1.2310 5.1653 -1.8828 0.9777
-2.6995 4.0279 -1.7193 0.9796
-3.2775 3.3889 -1.6717 0.9802
-3.5315 3.0538 -1.6555 0.9804
-3.7633 2.7087 -1.6441 0.9805
-3.9735 2.3535 -1.6375 0.9806
-4.1623 1.9881 -1.6356 0.9806
-2.5828 0.7075 -0.9496 0.9887
-2.6624 0.4796 -0.9592 0.9886
-2.6060 0.2329 -0.9277 0.9890
-2.6101 -0.0000 -0.9746 0.9889
-2.6498 -0.2368 -0.9934 0.9887
-4.4325 -3.1903 -2.0393 0.9770
-4.2772 -3.6986 -2.1115 0.9761
-4.0810 -4.2197 -2.1920 0.9752
-3.2059 -5.8500 -2.4909 0.9719
-2.2969 -6.8603 -2.7014 0.9696
-1.1590 -7.9465 -2.9987 0.9663
0.2995 -8.9595 -3.3475 0.9624
1.1591 -9.4113 -3.5408 0.9603
2.1072 -9.8064 -3.7454 0.9581
3.1428 -10.1314 -3.9610 0.9557
5.4356 -10.4655 -4.4036 0.9509
7.9003 -10.2368 -4.8285 0.9463
10.2873 -9.3044 -5.1795 0.9425
4.8484 -0.9855 -1.8475 0.9791
4.6568 -0.5210 -1.7497 0.9802
4.6348 -0.1033 -1.7311 0.9804
4.7827 0.3202 -1.7899 0.9797
11.1932 2.7996 -4.3084 0.9519
10.3413 3.5909 -4.0877 0.9543
9.4505 4.2582 -3.8706 0.9567
8.5442 4.8069 -3.6608 0.9590
5.9044 5.8390 -3.1008 0.9652
5.0807 6.0095 -2.9385 0.9670
4.2957 6.1107 -2.7892 0.9686
2.1890 6.0844 -2.4145 0.9728
1.5691 5.9892 -2.3119 0.9739
-0.0615 5.5195 -2.0612 0.9767
-0.5346 5.3143 -1.9944 0.9775
-1.3862 4.8478 -1.8828 0.9787
-1.7680 4.5905 -1.8369 0.9792
-2.7553 3.7395 -1.7345 0.9804
-3.2935 3.1149 -1.6927 0.9808
-3.9367 2.1007 -1.6662 0.9811
-2.5920 0.1156 -0.9689 0.9890
-4.6646 -1.9780 -1.8919 0.9786
-4.5967 -2.4529 -1.9455 0.9780
-4.4960 -2.9412 -2.0062 0.9773
-4.3597 -3.4428 -2.0744 0.9766
-4.1844 -3.9576 -2.1507 0.9757
-3.9664 -4.4849 -2.2357 0.9748
-3.7015 -5.0237 -2.3301 0.9737
-3.3850 -5.5725 -2.4347 0.9725
-0.0971 -8.7176 -3.2555 0.9635
0.7182 -9.1915 -3.4427 0.9614
1.6222 -9.6170 -3.6418 0.9592
2.6141 -9.9781 -3.8517 0.9569
4.8393 -10.4284 -4.2929 0.9521
4.7200 -0.7422 -1.7842 0.9798
4.6313 -0.3100 -1.7333 0.9804
4.9470 0.5534 -1.8588 0.9790
11.5959 2.3570 -4.4186 0.9507
8.9980 4.5469 -3.7646 0.9579
8.0913 5.0393 -3.5595 0.9601
1.8740 6.0413 -2.3619 0.9734
0.1877 5.6140 -2.0975 0.9763
-0.3022 5.4195 -2.0268 0.9771
-0.7590 5.2042 -1.9639 0.9778
-2.2901 4.1789 -1.7794 0.9799
-2.6063 3.8889 -1.7481 0.9802
-3.1674 3.2751 -1.7013 0.9807
-3.4140 2.9522 -1.6854 0.9809
-3.8427 2.2760 -1.6677 0.9811
-3.4442 0.9435 -1.3335 0.9849
-2.5629 0.2290 -0.9608 0.9891
-2.6073 -0.2330 -1.0273 0.9888
-2.6685 -0.4808 -1.0642 0.9884
-2.7584 -1.0272 -1.1552 0.9874
-4.4635 -2.1320 -1.9414 0.9790
-4.3778 -2.5930 -1.9969 0.9784
-4.2589 -3.0654 -2.0594 0.9777
-4.1040 -3.5488 -2.1294 0.9770
-3.6726 -4.5457 -2.2936 0.9752
-2.6550 -6.0720 -2.6009 0.9719
-0.4438 -7.9590 -3.1285 0.9663
1.9592 -9.1172 -3.6599 0.9607
2.9088 -9.3770 -3.8532 0.9587
3.9237 -9.5479 -4.0514 0.9566
7.1997 -9.3290 -4.6249 0.9506
8.2856 -8.9583 -4.7892 0.9489
9.3150 -8.4249 -4.9293 0.9475
11.0504 -6.8823 -5.1093 0.9456
12.1435 -4.8330 -5.1296 0.9454
12.4029 -3.6965 -5.0794 0.9459
4.9687 -1.0099 -1.9899 0.9784
4.6962 -0.1047 -1.8436 0.9800
10.9758 1.7259 -4.3606 0.9534
9.5539 3.3175 -3.9692 0.9575
7.9569 4.4765 -3.5831 0.9615
7.1427 4.9032 -3.4003 0.9635
6.3471 5.2460 -3.2318 0.9652
4.7989 5.6762 -2.9172 0.9686
4.0689 5.7881 -2.7768 0.9701
0.4274 5.4692 -2.1530 0.9767
-0.5141 5.1105 -2.0159 0.9782
-1.3359 4.6720 -1.9071 0.9793
-1.7054 4.4279 -1.8623 0.9798
-2.3679 3.8980 -1.7900 0.9806
-2.6630 3.6143 -1.7620 0.9809
-3.1857 3.0130 -1.7209 0.9813
-3.6225 2.3697 -1.6989 0.9816
-3.8098 2.0330 -1.6948 0.9816
-3.9766 1.6862 -1.6952 0.9816
-2.4911 0.3350 -0.9865 0.9893
-2.5889 -0.1155 -1.0171 0.9889
-2.6312 -0.3539 -1.0420 0.9887
-2.7055 -0.6130 -1.0887 0.9882
-2.7236 -0.8782 -1.1231 0.9878
-4.4947 -1.9059 -1.9161 0.9792
-4.3227 -2.8278 -2.0273 0.9780
-3.7968 -4.2931 -2.2493 0.9757
-3.5368 -4.8002 -2.3401 0.9747
-2.8658 -5.8317 -2.5502 0.9725
-2.4162 -6.2735 -2.6385 0.9715
0.6716 -8.5945 -3.3834 0.9636
1.5111 -8.9586 -3.5657 0.9617
3.4083 -9.4737 -3.9515 0.9577
5.5395 -9.5948 -4.3482 0.9535
6.6466 -9.4549 -4.5359 0.9516
7.7475 -9.1638 -4.7096 0.9497
8.8096 -8.7121 -4.8627 0.9482
11.9387 -5.3793 -5.1393 0.9453
4.7985 -0.7545 -1.9064 0.9793
4.6891 -0.3139 -1.8445 0.9800
4.7492 0.1058 -1.8644 0.9798
9.9330 2.9604 -4.0679 0.9564
7.5495 4.7019 -3.4906 0.9625
4.4298 5.7398 -2.8456 0.9693
2.3958 5.8300 -2.4738 0.9733
1.7895 5.7690 -2.3706 0.9744
0.1801 5.3881 -2.1159 0.9771
-1.8804 4.3005 -1.8421 0.9800
-2.5184 3.7576 -1.7753 0.9808
-3.0633 3.1674 -1.7293 0.9812
-3.3028 2.8560 -1.7137 0.9814
-3.5211 2.5343 -1.7027 0.9815
-3.7187 2.2026 -1.6963 0.9816
-3.8957 1.8608 -1.6944 0.9816
-4.0523 1.5091 -1.6971 0.9816
-3.4629 0.9486 -1.4092 0.9847
-2.5634 0.4618 -1.0222 0.9889
-2.5207 0.2252 -0.9932 0.9892
-2.5289 -0.0000 -1.0413 0.9891
-2.6410 -0.7234 -1.1276 0.9882
-4.2157 -2.4969 -2.0176 0.9790
-3.9423 -3.4090 -2.1461 0.9777
-3.7503 -3.8777 -2.2214 0.9769
-3.2397 -4.8339 -2.3962 0.9751
-2.5326 -5.7922 -2.6031 0.9730
-1.5827 -6.6414 -2.8114 0.9709
-0.4184 -7.5028 -3.0943 0.9680
0.2637 -7.8878 -3.2498 0.9664
2.7059 -8.7231 -3.7609 0.9613
4.6073 -8.8706 -4.1160 0.9577
6.6022 -8.5547 -4.4498 0.9543
7.5758 -8.1908 -4.5943 0.9529
10.0445 -6.2558 -4.8727 0.9501
11.0417 -4.3945 -4.8936 0.9499
11.2875 -3.3641 -4.8500 0.9503
5.1075 -1.0382 -2.1462 0.9777
4.7923 -0.5361 -1.9857 0.9794
4.7605 -0.1061 -1.9608 0.9796
10.1182 1.5910 -4.2177 0.9567
9.5270 2.3829 -4.0439 0.9584
8.1673 3.6800 -3.6888 0.9620
7.4389 4.1850 -3.5147 0.9638
6.6999 4.5993 -3.3464 0.9655
5.9751 4.9385 -3.1920 0.9670
5.2495 5.1913 -3.0401 0.9686
2.5865 5.5738 -2.5302 0.9738
0.4103 5.2513 -2.1690 0.9775
-0.0568 5.0968 -2.0989 0.9782
-0.9051 4.7220 -1.9798 0.9794
-1.6463 4.2746 -1.8862 0.9804
-2.5756 3.4956 -1.7880 0.9814
-3.0835 2.9163 -1.7476 0.9818
-3.5077 2.2946 -1.7260 0.9820
-3.6893 1.9687 -1.7219 0.9821
-2.4504 0.3295 -1.0181 0.9894
-2.5479 -0.1136 -1.0502 0.9890
-2.6300 -0.5959 -1.1104 0.9884
-2.6464 -0.8534 -1.1450 0.9880
-4.2630 -2.2748 -1.9897 0.9793
-3.8512 -3.6424 -2.1828 0.9773
-3.6391 -4.1148 -2.2620 0.9765
-3.0830 -5.0754 -2.4453 0.9746
-2.3029 -5.9792 -2.6384 0.9727
-1.3160 -6.8653 -2.8785 0.9702
-0.7341 -7.2971 -3.0200 0.9688
-0.0858 -7.7001 -3.1710 0.9672
3.1650 -8.7974 -3.8499 0.9604
6.1046 -8.6833 -4.3708 0.9551
8.0438 -7.9548 -4.6584 0.9522
8.9228 -7.3749 -4.7668 0.9512
9.7007 -6.6592 -4.8452 0.9504
10.3530 -5.8245 -4.8915 0.9499
10.8536 -4.8904 -4.9020 0.9498
4.8888 -0.7687 -2.0379 0.9788
4.7548 -0.3183 -1.9623 0.9796
4.8150 0.1073 -1.9832 0.9794
5.2321 0.5853 -2.1679 0.9775
6.3430 4.7835 -3.2714 0.9662
5.6102 5.0742 -3.1149 0.9678
3.5321 5.5329 -2.7030 0.9720
2.8940 5.5719 -2.5854 0.9732
0.6551 5.3191 -2.2069 0.9771
-0.2794 5.0108 -2.0666 0.9785
-1.1001 4.6163 -1.9541 0.9797
-2.4351 3.6334 -1.8011 0.9813
-2.9645 3.0652 -1.7559 0.9817
-3.1972 2.7647 -1.7405 0.9819
-3.4093 2.4539 -1.7297 0.9820
-3.6010 2.1329 -1.7234 0.9821
-2.5221 -0.2254 -1.0923 0.9890
-2.5389 -0.4574 -1.1128 0.9888
-2.5507 -0.6987 -1.1408 0.9885
-4.1509 -1.9827 -1.9843 0.9802
-3.6014 -3.7238 -2.2346 0.9777
-1.9756 -5.9007 -2.6842 0.9733
-1.5034 -6.3083 -2.7974 0.9721
2.5273 -8.1472 -3.6795 0.9635
3.3855 -8.2381 -3.8419 0.9619
4.2764 -8.2336 -4.0021 0.9604
5.1844 -8.1212 -4.1561 0.9589
6.0899 -7.8910 -4.2996 0.9575
6.9701 -7.5360 -4.4279 0.9563
8.5517 -6.4492 -4.6202 0.9544
9.2017 -5.7309 -4.6761 0.9539
10.1116 -4.0244 -4.6945 0.9537
10.4235 -2.1187 -4.5882 0.9547
4.8853 -0.5465 -2.1205 0.9788
5.0954 0.3411 -2.2028 0.9780
9.3756 1.4742 -4.0939 0.9595
8.2692 2.8714 -3.7759 0.9626
2.4701 5.3231 -2.5313 0.9748
1.9089 5.3060 -2.4324 0.9757
1.3758 5.2515 -2.3417 0.9766
0.8711 5.1641 -2.2591 0.9774
-0.4768 4.7399 -2.0549 0.9795
-1.2439 4.3501 -1.9517 0.9805
-1.5905 4.1296 -1.9089 0.9809
-1.9136 3.8941 -1.8716 0.9813
-2.4926 3.3830 -1.8126 0.9819
-2.7499 3.1093 -1.7905 0.9821
-2.9863 2.8244 -1.7730 0.9823
-3.2024 2.5290 -1.7602 0.9824
-3.3985 2.2232 -1.7518 0.9825
-2.4655 0.1099 -1.0645 0.9893
-2.5077 -0.1118 -1.0828 0.9891
-2.5277 -0.3400 -1.1001 0.9890
-2.5465 -0.5770 -1.1263 0.9887
-2.5665 -0.8276 -1.1632 0.9883
-4.1108 -2.1936 -2.0099 0.9799
-4.0075 -2.6216 -2.0657 0.9794
-3.7008 -3.5002 -2.1973 0.9781
-2.9488 -4.8544 -2.4500 0.9756
-2.2003 -5.7130 -2.6408 0.9737
-1.7442 -6.1000 -2.7367 0.9727
-1.2485 -6.5132 -2.8607 0.9715
-0.6947 -6.9054 -2.9937 0.9702
0.5930 -7.5895 -3.2838 0.9674
2.9515 -8.2038 -3.7608 0.9627
7.3927 -7.3109 -4.4849 0.9557
8.1868 -6.7666 -4.5816 0.9548
8.8909 -6.1033 -4.6519 0.9541
9.9379 -4.4778 -4.7018 0.9536
10.4030 -2.6020 -4.6256 0.9544
4.9253 0.1097 -2.1251 0.9788
9.6058 1.0746 -4.1694 0.9588
9.1243 1.8546 -4.0163 0.9603
8.5687 2.5537 -3.8568 0.9618
7.9583 3.1673 -3.6947 0.9634
7.3108 3.6943 -3.5334 0.9649
6.6420 4.1367 -3.3753 0.9665
5.9789 4.5089 -3.2302 0.9679
5.3028 4.7961 -3.0842 0.9693
3.3629 5.2678 -2.6959 0.9731
2.7611 5.3161 -2.5840 0.9742
2.1860 5.3195 -2.4808 0.9753
0.1665 4.9794 -2.1491 0.9785
-0.6781 4.6494 -2.0268 0.9797
-1.0615 4.4543 -1.9752 0.9803
-1.4202 4.2418 -1.9296 0.9807
-1.7550 4.0137 -1.8896 0.9811
-2.3561 3.5155 -1.8255 0.9817
-2.6239 3.2476 -1.8010 0.9820
-2.8707 2.9682 -1.7812 0.9822
-3.4891 2.0666 -1.7492 0.9825
-3.6554 1.7461 -1.7474 0.9825
-3.8020 1.4159 -1.7500 0.9825
-3.9286 1.0761 -1.7570 0.9824
-2.4282 -0.0000 -1.0956 0.9894
-2.4593 -0.4431 -1.1275 0.9891
-2.4702 -0.6767 -1.1556 0.9888
-4.0075 -1.9142 -2.0039 0.9807
-3.9191 -2.3213 -2.0553 0.9802
-3.8003 -2.7352 -2.1127 0.9797
-3.4619 -3.5796 -2.2469 0.9784
-3.2375 -4.0071 -2.3244 0.9776
-2.9726 -4.4354 -2.4092 0.9768
-2.6644 -4.8619 -2.5016 0.9760
-1.8849 -5.6298 -2.6789 0.9743
-1.4306 -6.0029 -2.7845 0.9733
-0.9295 -6.3734 -2.9062 0.9721
-0.3745 -6.7165 -3.0353 0.9709
0.8974 -7.2869 -3.3128 0.9683
1.6105 -7.4945 -3.4588 0.9669
2.3686 -7.6358 -3.6074 0.9655
3.1642 -7.6996 -3.7561 0.9641
7.2045 -6.5161 -4.3832 0.9583
7.8883 -5.9489 -4.4580 0.9576
8.4799 -5.2813 -4.5077 0.9571
9.3155 -3.7075 -4.5240 0.9570
5.0518 -0.5651 -2.2937 0.9779
4.9818 -0.1110 -2.2484 0.9784
5.4892 0.3674 -2.4824 0.9761
8.7259 1.3721 -3.9857 0.9620
8.2629 2.0667 -3.8432 0.9633
7.7378 2.6868 -3.6959 0.9647
7.1671 3.2293 -3.5470 0.9661
6.5658 3.6939 -3.3993 0.9675
5.3363 4.4106 -3.1238 0.9701
1.8287 5.0831 -2.4375 0.9766
1.3201 5.0388 -2.3503 0.9774
0.3795 4.8564 -2.1979 0.9789
-0.0526 4.7249 -2.1321 0.9795
-0.4598 4.5706 -2.0727 0.9800
-1.2016 4.2023 -1.9721 0.9810
-1.8512 3.7670 -1.8939 0.9817
-2.1430 3.5279 -1.8625 0.9820
-3.1039 2.4511 -1.7846 0.9828
-3.2945 2.1551 -1.7763 0.9829
-3.6172 1.5338 -1.7728 0.9829
-2.5489 0.5775 -1.1792 0.9886
-2.4105 0.1075 -1.0887 0.9895
-2.4521 -0.3298 -1.1164 0.9892
-2.4671 -0.5590 -1.1414 0.9890
-3.9670 -2.1169 -2.0289 0.9805
-3.8637 -2.5275 -2.0832 0.9799
-3.5598 -3.3668 -2.2109 0.9787
-3.3546 -3.7931 -2.2848 0.9780
-2.8241 -4.6491 -2.4544 0.9764
-1.6632 -5.8166 -2.7297 0.9738
0.5596 -7.1618 -3.2414 0.9690
1.2479 -7.3983 -3.3854 0.9676
1.9843 -7.5742 -3.5329 0.9662
2.7623 -7.6781 -3.6819 0.9648
3.5726 -7.6988 -3.8297 0.9634
4.4024 -7.6252 -3.9729 0.9621
5.2357 -7.4479 -4.1079 0.9608
7.5566 -6.2458 -4.4236 0.9579
9.1544 -4.1248 -4.5306 0.9569
9.5957 -2.4000 -4.4631 0.9575
5.4000 -0.8491 -2.4665 0.9763
4.9756 -0.3331 -2.2501 0.9784
8.9287 0.9988 -4.0539 0.9613
8.5032 1.7283 -3.9153 0.9626
8.0070 2.3863 -3.7700 0.9640
6.8694 3.4713 -3.4729 0.9668
5.6499 4.2608 -3.1930 0.9694
3.7966 4.9194 -2.8039 0.9731
2.6382 5.0795 -2.5827 0.9752
2.0925 5.0918 -2.4839 0.9761
-0.2593 4.6504 -2.1016 0.9798
-2.2810 3.4035 -1.8487 0.9822
-3.3824 2.0034 -1.7738 0.9829
-3.6857 1.3726 -1.7746 0.9829
-3.8080 1.0431 -1.7815 0.9828
-2.4063 0.4335 -1.1032 0.9893
-2.3848 0.2131 -1.0803 0.9895
-2.3816 -0.4291 -1.1407 0.9894
-2.3934 -0.6556 -1.1698 0.9891
-2.4034 -0.8950 -1.2089 0.9887
-3.8718 -1.8494 -2.0226 0.9812
-3.6648 -2.6378 -2.1284 0.9802
-3.1110 -3.8505 -2.3334 0.9783
-1.8029 -5.3848 -2.6768 0.9752
-0.8842 -6.0624 -2.8879 0.9733
0.8479 -6.8844 -3.2697 0.9698
1.5178 -7.0633 -3.4055 0.9686
2.9674 -7.2206 -3.6798 0.9661
3.7290 -7.1796 -3.8135 0.9649
5.2603 -6.8160 -4.0585 0.9626
5.9962 -6.4830 -4.1626 0.9617
6.6868 -6.0478 -4.2500 0.9609
7.8544 -4.8918 -4.3618 0.9599
8.2965 -4.1924 -4.3818 0.9597
8.6264 -3.4332 -4.3765 0.9598
8.9231 -1.8137 -4.2921 0.9605
8.4920 0.5685 -4.0119 0.9631
8.1524 1.2819 -3.8901 0.9642
7.7380 1.9354 -3.7599 0.9653
6.7448 3.0391 -3.4872 0.9678
3.9027 4.6161 -2.8494 0.9736
1.2680 4.8398 -2.3584 0.9781
0.8050 4.7725 -2.2814 0.9788
0.3654 4.6765 -2.2111 0.9795
-0.8138 4.2456 -2.0377 0.9811
-1.1615 4.0621 -1.9915 0.9815
-1.7918 3.6463 -1.9151 0.9822
-2.0754 3.4166 -1.8843 0.9825
-3.0100 2.3770 -1.8079 0.9832
-3.3613 1.7937 -1.7959 0.9833
-3.5084 1.4877 -1.7963 0.9833
-3.6363 1.1725 -1.8009 0.9832
-2.5265 0.5724 -1.2211 0.9886
-2.3694 -0.1057 -1.1180 0.9896
-2.3945 -0.7721 -1.1859 0.9889
-2.4109 -1.0223 -1.2344 0.9885
-3.8311 -2.0443 -2.0469 0.9810
-3.7278 -2.4386 -2.0998 0.9805
-3.5939 -2.8381 -2.1586 0.9800
-3.4273 -3.2415 -2.2236 0.9794
-3.2256 -3.6473 -2.2951 0.9787
-2.7078 -4.4577 -2.4585 0.9772
-2.3867 -4.8567 -2.5508 0.9764
-2.0173 -5.2378 -2.6458 0.9755
-1.1300 -5.8951 -2.8294 0.9738
1.1776 -6.9812 -3.3372 0.9692
2.5938 -7.2095 -3.6116 0.9667
4.1137 -7.1252 -3.8782 0.9643
7.5950 -5.2137 -4.3424 0.9601
8.4760 -3.8191 -4.3823 0.9597
8.7466 -3.0372 -4.3644 0.9599
8.8950 -2.2248 -4.3221 0.9603
8.9210 -1.4028 -4.2568 0.9609
5.2471 -0.3513 -2.4789 0.9770
7.9536 1.6166 -3.8258 0.9647
6.4727 3.2708 -3.4185 0.9684
4.7685 4.3129 -3.0308 0.9720
4.1892 4.5293 -2.9082 0.9731
3.6191 4.6894 -2.7922 0.9741
3.0629 4.7980 -2.6832 0.9751
2.0053 4.8797 -2.4868 0.9769
1.0336 4.8099 -2.3190 0.9785
0.1544 4.6188 -2.1784 0.9798
-0.6316 4.3306 -2.0629 0.9808
-2.6962 2.7878 -1.8282 0.9830
-2.9102 2.5165 -1.8135 0.9831
-3.1050 2.2348 -1.8033 0.9832
-3.6929 1.0116 -1.8049 0.9832
-2.2975 0.0000 -1.1300 0.9898
-2.3666 -1.1304 -1.2900 0.9884
-3.6543 -2.1644 -2.0890 0.9812
-3.5368 -2.5456 -2.1433 0.9808
-2.7398 -4.0881 -2.4205 0.9783
-2.4484 -4.4678 -2.5058 0.9775
-1.7280 -5.1613 -2.6771 0.9760
-1.3024 -5.4648 -2.7632 0.9753
-0.8424 -5.7761 -2.8711 0.9743
2.0992 -6.7673 -3.4850 0.9689
3.4998 -6.7384 -3.7347 0.9667
5.5960 -6.0504 -4.0536 0.9639
6.2319 -5.6364 -4.1329 0.9632
7.3070 -4.5509 -4.2340 0.9624
7.7161 -3.8991 -4.2522 0.9622
8.0237 -3.1934 -4.2476 0.9622
8.2229 -2.4507 -4.2203 0.9625
8.3109 -1.6893 -4.1713 0.9629
7.9450 0.5319 -3.9165 0.9651
7.6422 1.2017 -3.8050 0.9661
7.2690 1.8181 -3.6854 0.9672
6.8386 2.3746 -3.5606 0.9682
5.8574 3.2953 -3.3056 0.9705
5.3478 3.6710 -3.1904 0.9715
4.2628 4.2156 -2.9488 0.9736
3.7223 4.4027 -2.8357 0.9746
3.1905 4.5386 -2.7287 0.9756
0.3522 4.5070 -2.2236 0.9800
-0.7866 4.1034 -2.0550 0.9815
-1.1235 3.9290 -2.0100 0.9819
-2.0110 3.3105 -1.9051 0.9829
-2.2670 3.0768 -1.8797 0.9831
-2.5037 2.8310 -1.8588 0.9833
-2.7214 2.5738 -1.8423 0.9834
-3.2617 1.7405 -1.8184 0.9837
-2.2893 0.1021 -1.1271 0.9898
-2.3022 -0.1027 -1.1335 0.9898
-2.3142 -0.5243 -1.1671 0.9895
-2.3173 -0.7472 -1.1976 0.9892
-2.3375 -0.9912 -1.2488 0.9887
-3.5992 -2.3545 -2.1154 0.9810
-3.3024 -3.1233 -2.2357 0.9799
-2.8708 -3.8962 -2.3804 0.9787
-2.5991 -4.2787 -2.4624 0.9779
-2.2874 -4.6548 -2.5510 0.9771
-1.9328 -5.0185 -2.6451 0.9763
-1.5182 -5.3094 -2.7161 0.9757
-1.0777 -5.6222 -2.8156 0.9748
-0.0690 -6.1919 -3.0457 0.9728
0.5018 -6.4213 -3.1680 0.9717
1.1138 -6.6030 -3.2936 0.9706
1.7628 -6.7284 -3.4211 0.9695
3.1440 -6.7753 -3.6738 0.9673
3.8568 -6.6803 -3.7940 0.9662
4.5676 -6.4975 -3.9065 0.9652
5.9204 -5.8548 -4.0954 0.9636
7.5237 -4.2327 -4.2460 0.9622
8.2808 -2.0712 -4.1984 0.9627
8.2395 -0.5516 -4.0617 0.9639
7.8032 0.8729 -3.8620 0.9656
7.0601 2.1041 -3.6235 0.9677
5.5973 3.4861 -3.2434 0.9710
4.5347 4.1014 -3.0074 0.9731
3.9917 4.3158 -2.8915 0.9741
2.9292 4.5886 -2.6776 0.9760
2.4180 4.6555 -2.5803 0.9769
0.5609 4.5539 -2.2568 0.9798
-0.9576 4.0184 -2.0318 0.9818
-1.2841 3.8354 -1.9894 0.9821
-1.8756 3.4225 -1.9196 0.9828
-3.0126 2.1683 -1.8256 0.9836
-3.1833 1.8854 -1.8198 0.9836
-3.3354 1.5932 -1.8181 0.9837
-3.4687 1.2917 -1.8205 0.9836
-2.3061 0.4155 -1.1525 0.9896
-2.2658 0.2025 -1.1189 0.9899
-2.2359 -0.0000 -1.1463 0.9900
-2.2443 -0.2006 -1.1552 0.9899
-2.2593 -0.8414 -1.2360 0.9892
-3.0915 -3.1965 -2.2798 0.9802
-1.6589 -4.9549 -2.6788 0.9768
-1.2459 -5.2280 -2.7553 0.9761
-0.8039 -5.5116 -2.8555 0.9753
-0.3220 -5.7736 -2.9646 0.9743
0.2006 -6.0004 -3.0779 0.9734
2.6322 -6.4050 -3.5501 0.9694
5.2407 -5.6662 -3.9569 0.9659
5.8289 -5.2719 -4.0293 0.9653
6.8240 -4.2500 -4.1215 0.9645
7.2040 -3.6403 -4.1380 0.9644
7.4917 -2.9817 -4.1338 0.9644
7.6809 -2.2892 -4.1090 0.9646
7.7575 -0.8678 -4.0018 0.9655
7.6508 -0.1705 -3.9233 0.9662
7.1852 1.1298 -3.7289 0.9678
6.8471 1.7126 -3.6184 0.9688
6.0185 2.7118 -3.3843 0.9708
5.0792 3.4867 -3.1585 0.9727
4.0642 4.0192 -2.9304 0.9746
3.5552 4.2051 -2.8231 0.9756
3.0525 4.3422 -2.7211 0.9764
2.0813 4.4851 -2.5349 0.9780
1.6184 4.4984 -2.4509 0.9787
1.1731 4.4776 -2.3730 0.9794
0.7466 4.4261 -2.3012 0.9800
0.3397 4.3469 -2.2353 0.9806
-0.0473 4.2426 -2.1752 0.9811
-0.4140 4.1156 -2.1206 0.9816
-0.7607 3.9683 -2.0715 0.9820
-1.0873 3.8024 -2.0275 0.9824
-1.6814 3.4214 -1.9544 0.9830
-1.9494 3.2092 -1.9250 0.9833
-2.6407 2.4976 -1.8634 0.9838
-2.8342 2.2381 -1.8514 0.9839
-3.0094 1.9687 -1.8436 0.9840
-3.1663 1.6896 -1.8399 0.9840
-2.2093 0.2971 -1.1428 0.9900
-2.2377 -0.0998 -1.1483 0.9900
-2.2446 -0.3019 -1.1611 0.9899
-3.4774 -2.2748 -2.1303 0.9815
-2.7618 -3.7484 -2.3870 0.9793
-2.1947 -4.4660 -2.5511 0.9779
-0.0657 -5.8919 -3.0208 0.9739
0.4765 -6.0983 -3.1359 0.9729
1.0556 -6.2584 -3.2538 0.9719
2.9621 -6.3832 -3.6077 0.9689
5.5408 -5.4794 -3.9950 0.9656
6.1031 -5.0443 -4.0592 0.9650
7.0250 -3.9522 -4.1323 0.9644
7.5989 -2.6386 -4.1239 0.9645
7.7156 -0.5165 -3.9644 0.9658
7.5641 0.1686 -3.8789 0.9666
7.0237 1.4276 -3.6745 0.9683
6.2411 2.4839 -3.4437 0.9703
5.7879 2.9248 -3.3246 0.9713
2.8048 4.3936 -2.6723 0.9768
2.3189 4.4646 -2.5792 0.9776
1.8477 4.4962 -2.4921 0.9784
0.9574 4.4555 -2.3364 0.9797
-0.2332 4.1818 -2.1472 0.9813
-0.5899 4.0444 -2.0954 0.9818
-1.2431 3.7130 -2.0074 0.9826
-1.8178 3.3170 -1.9391 0.9831
-2.0763 3.0981 -1.9120 0.9834
-2.9241 2.1046 -1.8470 0.9839
-3.0901 1.8303 -1.8412 0.9840
-3.4776 0.9526 -1.8485 0.9839
-2.2585 0.4069 -1.1765 0.9897
-2.1765 -0.0000 -1.1619 0.9902
-2.1811 -0.1949 -1.1690 0.9901
-2.1932 -0.8168 -1.2494 0.9894
-2.2033 -1.0524 -1.3035 0.9890
-3.3003 -2.3754 -2.1708 0.9817
-3.1561 -2.7292 -2.2274 0.9813
-2.9816 -3.0829 -2.2895 0.9807
-2.7750 -3.4346 -2.3572 0.9802
-2.2592 -4.1225 -2.5095 0.9789
-1.9469 -4.4526 -2.5942 0.9782
-1.1932 -5.0067 -2.7476 0.9769
-0.7681 -5.2662 -2.8411 0.9762
-0.3071 -5.5073 -2.9446 0.9753
0.1910 -5.7135 -3.0518 0.9744
1.2881 -5.9946 -3.2732 0.9726
3.1083 -5.9846 -3.6001 0.9699
4.3382 -5.6212 -3.7906 0.9683
5.4693 -4.9468 -3.9369 0.9671
5.9640 -4.4977 -3.9877 0.9667
6.3940 -3.9822 -4.0213 0.9664
6.7484 -3.4101 -4.0364 0.9663
7.0184 -2.7933 -4.0326 0.9663
7.2860 -1.4809 -3.9691 0.9668
7.2820 -0.8146 -3.9117 0.9673
7.1905 -0.1602 -3.8396 0.9679
7.0181 0.4698 -3.7549 0.9686
6.7731 1.0650 -3.6602 0.9694
6.4654 1.6171 -3.5578 0.9702
6.1055 2.1200 -3.4503 0.9711
5.7036 2.5699 -3.3396 0.9720
5.2699 2.9648 -3.2280 0.9730
4.8324 3.3173 -3.1291 0.9738
2.9238 4.1592 -2.7141 0.9772
1.9993 4.3085 -2.5356 0.9787
1.5567 4.3269 -2.4548 0.9794
1.1297 4.3121 -2.3797 0.9800
0.7198 4.2673 -2.3103 0.9806
0.3278 4.1952 -2.2464 0.9811
-0.0457 4.0984 -2.1880 0.9816
-0.4003 3.9792 -2.1350 0.9820
-0.7360 3.8397 -2.0871 0.9824
-1.0528 3.6817 -2.0442 0.9828
-1.3507 3.5069 -2.0062 0.9831
-1.6299 3.3166 -1.9728 0.9834
-2.1330 2.8949 -1.9196 0.9838
-2.3572 2.6654 -1.8995 0.9840
-2.5635 2.4245 -1.8836 0.9841
-2.7518 2.1731 -1.8719 0.9842
-2.9223 1.9117 -1.8642 0.9843
-2.4373 0.5522 -1.3341 0.9887
-2.1681 0.2916 -1.1679 0.9901
-2.1810 -0.2933 -1.1748 0.9901
-2.1912 -0.7066 -1.2291 0.9896
-2.2000 -0.9329 -1.2757 0.9892
-2.2448 -1.1978 -1.3583 0.9885
-3.3616 -2.1990 -2.1444 0.9820
-2.1077 -4.2890 -2.5512 0.9786
-1.7765 -4.6126 -2.6387 0.9778
-1.3941 -4.8753 -2.7069 0.9773
-0.0626 -5.6151 -2.9978 0.9749
0.4533 -5.8015 -3.1065 0.9740
1.0024 -5.9429 -3.2174 0.9730
1.5804 -6.0325 -3.3291 0.9721
3.4193 -5.9225 -3.6508 0.9695
4.0358 -5.7411 -3.7463 0.9687
4.6345 -5.4817 -3.8321 0.9680
7.2538 -1.8143 -3.9917 0.9667
7.2952 -1.1471 -3.9424 0.9671
7.1139 0.1585 -3.7987 0.9683
6.2913 1.8750 -3.5046 0.9707
5.9091 2.3518 -3.3952 0.9716
4.1205 3.7268 -2.9660 0.9751
3.1611 4.0960 -2.7621 0.9768
2.2260 4.2858 -2.5782 0.9783
1.7761 4.3220 -2.4945 0.9790
0.9226 4.2933 -2.3443 0.9803
0.1387 4.1497 -2.2165 0.9813
-0.2254 4.0414 -2.1609 0.9818
-1.4926 3.4136 -1.9889 0.9832
-1.7625 3.2162 -1.9578 0.9835
-2.0141 3.0051 -1.9312 0.9837
-2.2474 2.7816 -1.9090 0.9839
-2.6599 2.3001 -1.8772 0.9842
-2.8393 2.0436 -1.8675 0.9843
-3.0008 1.7774 -1.8619 0.9843
-3.1443 1.5019 -1.8602 0.9843
-3.2697 1.2177 -1.8626 0.9843
-3.3767 0.9249 -1.8690 0.9843
-2.2057 0.3974 -1.1965 0.9899
-2.1547 0.1925 -1.1549 0.9902
-2.1288 -0.5831 -1.2259 0.9900
-2.1317 -0.7939 -1.2633 0.9896
-2.2265 -1.3188 -1.4372 0.9882
-3.0488 -2.6363 -2.2385 0.9817
-2.8774 -2.9752 -2.2988 0.9812
-2.6753 -3.3112 -2.3643 0.9807
-2.4410 -3.6421 -2.4351 0.9801
-2.1730 -3.9652 -2.5112 0.9795
-1.8702 -4.2771 -2.5927 0.9789
-0.7348 -5.0380 -2.8277 0.9770
-0.2933 -5.2603 -2.9260 0.9762
0.1821 -5.4483 -3.0276 0.9754
1.7822 -5.7454 -3.3410 0.9729
2.9395 -5.6597 -3.5421 0.9712
3.5212 -5.5159 -3.6345 0.9705
4.0909 -5.3007 -3.7188 0.9698
4.6367 -5.0132 -3.7926 0.9692
5.1462 -4.6545 -3.8538 0.9687
6.3402 -3.2039 -3.9454 0.9680
6.7657 -2.0164 -3.9210 0.9682
6.7756 -0.1510 -3.7641 0.9695
6.6215 0.4433 -3.6858 0.9701
6.3995 1.0063 -3.5979 0.9708
5.7870 2.0095 -3.4023 0.9724
3.7095 3.6684 -2.8975 0.9764
1.9223 4.1424 -2.5363 0.9793
1.0888 4.1558 -2.3860 0.9805
0.6944 4.1170 -2.3188 0.9811
0.3166 4.0514 -2.2570 0.9816
-0.3872 3.8493 -2.1487 0.9825
-1.5806 3.2163 -1.9904 0.9837
-2.0701 2.8096 -1.9383 0.9842
-2.8386 1.8569 -1.8839 0.9846
-2.9869 1.5939 -1.8803 0.9846
-2.1264 0.2860 -1.1916 0.9902
-2.1237 -0.2856 -1.1901 0.9902
-2.1317 -0.6874 -1.2440 0.9898
-2.1353 -0.9054 -1.2881 0.9894
-3.2513 -2.1269 -2.1578 0.9824
-3.1234 -2.4665 -2.2104 0.9820
-2.9669 -2.8060 -2.2680 0.9815
-2.3113 -3.8048 -2.4725 0.9798
-2.0260 -4.1228 -2.5513 0.9792
-1.7054 -4.4279 -2.6353 0.9785
-1.3397 -4.6850 -2.7063 0.9780
-0.9432 -4.9205 -2.7826 0.9773
0.9535 -5.6529 -3.1839 0.9741
1.5007 -5.7283 -3.2889 0.9733
2.6476 -5.7056 -3.4934 0.9716
4.3675 -5.1660 -3.7571 0.9695
5.3836 -4.4497 -3.8791 0.9685
5.8162 -3.9926 -3.9181 0.9682
6.4773 -2.9186 -3.9458 0.9680
