ply
format ascii 1.0
element vertex 1588
property float32 x
property float32 y
property float32 z
property float32 I
end_header
-5.9137 7.3195 -0.8627 0.9629
-7.2094 5.1890 -0.8143 0.9649
-7.5818 4.4907 -0.8078 0.9652
-8.5737 2.3486 -0.8150 0.9649
-4.9081 0.8842 -0.4572 0.9802
-4.1097 0.3672 -0.3783 0.9836
-9.1095 -0.8140 -0.9920 0.9639
-9.3266 -1.6803 -1.0279 0.9626
-9.8935 -4.7257 -1.1892 0.9568
-10.1883 -7.3331 -1.3616 0.9507
-9.7652 -10.0971 -1.5236 0.9451
4.4103 -0.4934 -0.4814 0.9823
4.9663 0.7809 -0.5453 0.9800
1.0368 13.2679 -1.4435 0.9479
-3.4089 8.8509 -1.0288 0.9626
-4.5245 7.4484 -0.9453 0.9655
-5.7982 6.5561 -0.9493 0.9654
-6.2278 5.8902 -0.9298 0.9661
-6.9925 4.5743 -0.9063 0.9669
-7.9569 2.5658 -0.9068 0.9669
-4.7637 1.0793 -0.5298 0.9805
-3.9258 -0.1751 -0.4262 0.9843
-9.2197 -1.2399 -1.0090 0.9633
-10.1222 -6.6216 -1.3120 0.9525
-9.7253 -9.1981 -1.4519 0.9476
4.9099 -1.7049 -0.5638 0.9793
4.5314 -1.1334 -0.5066 0.9814
4.4197 -0.2959 -0.4805 0.9823
4.5158 0.1006 -0.4899 0.9820
4.7408 0.5303 -0.5174 0.9810
5.5509 1.1283 -0.6144 0.9775
1.7053 13.8464 -1.5132 0.9454
0.4254 12.7250 -1.3810 0.9501
-3.0880 9.2233 -1.0550 0.9616
-5.0800 7.5798 -0.9897 0.9640
-6.0174 6.2220 -0.9389 0.9658
-7.1669 4.2449 -0.9035 0.9670
-8.1006 2.2190 -0.9110 0.9668
-3.9948 0.7197 -0.4403 0.9838
-8.7780 -1.5814 -1.1177 0.9647
-8.9471 -2.4508 -1.1625 0.9633
-9.4094 -6.7725 -1.4528 0.9543
-9.4529 -8.1742 -1.5661 0.9509
-8.8306 -10.9297 -1.7608 0.9449
4.6289 -1.3796 -0.6053 0.9807
4.3900 -0.4911 -0.5536 0.9823
4.4315 -0.0988 -0.5555 0.9823
4.5733 0.3062 -0.5744 0.9817
4.9274 0.7748 -0.6251 0.9801
0.9484 12.1377 -1.5257 0.9521
-0.1254 11.2516 -1.4101 0.9557
-1.0502 10.4390 -1.3148 0.9586
-3.1950 8.2957 -1.1140 0.9648
-3.7564 7.6440 -1.0673 0.9662
-4.4371 7.3045 -1.0710 0.9661
-5.8946 5.5751 -1.0167 0.9678
-6.2752 4.9555 -1.0020 0.9683
-6.9541 3.7108 -0.9878 0.9687
-7.2580 3.0777 -0.9879 0.9687
-7.5412 2.4317 -0.9929 0.9686
-4.3831 0.9931 -0.5632 0.9820
-3.5348 0.1576 -0.4434 0.9858
-3.6310 -0.1619 -0.4555 0.9855
-8.8648 -2.0085 -1.1391 0.9640
-9.0246 -2.9100 -1.1883 0.9625
-9.2824 -4.9532 -1.3185 0.9585
-9.3745 -6.1325 -1.4038 0.9558
-9.4359 -7.4514 -1.5067 0.9527
-9.1530 -8.6568 -1.5788 0.9505
-8.7209 -11.8361 -1.8424 0.9425
4.8695 -1.6909 -0.6460 0.9794
4.5097 -1.1280 -0.5826 0.9814
4.4918 0.1001 -0.5630 0.9821
5.4415 1.1060 -0.6959 0.9779
2.9301 13.6356 -1.7478 0.9453
1.5536 12.6145 -1.5927 0.9501
0.3906 11.6845 -1.4651 0.9540
-2.2223 9.3250 -1.2013 0.9621
-2.8901 8.6324 -1.1408 0.9640
-7.4021 2.7566 -0.9898 0.9687
-7.6755 2.1025 -0.9973 0.9684
-8.2885 -1.4932 -1.1979 0.9665
-8.5478 -3.1832 -1.2974 0.9638
-8.6414 -4.1276 -1.3621 0.9620
-8.7067 -5.1569 -1.4393 0.9599
-8.4807 -10.4966 -1.9194 0.9469
-8.2318 -12.2827 -2.1031 0.9420
3.3728 12.8739 -1.8929 0.9477
1.3710 8.1276 -1.1724 0.9672
-0.9781 9.7225 -1.3899 0.9613
-3.0056 7.8038 -1.1894 0.9668
-3.5425 7.2089 -1.1425 0.9681
-4.7645 6.4664 -1.1424 0.9681
-5.5941 5.2909 -1.0952 0.9694
-5.9597 4.7063 -1.0801 0.9698
-7.1653 2.3105 -1.0708 0.9700
-4.1432 0.9387 -0.6042 0.9830
-3.3610 0.1499 -0.4785 0.9865
-3.6292 -0.4881 -0.5208 0.9853
-8.3616 -1.8945 -1.2195 0.9660
-8.6779 -4.6306 -1.3990 0.9610
-8.7401 -6.9020 -1.5840 0.9560
-8.7086 -8.2366 -1.7049 0.9527
-8.4569 -11.4778 -2.0278 0.9440
4.8386 -1.6801 -0.7285 0.9795
4.4883 -1.1226 -0.6581 0.9815
4.3746 -0.6879 -0.6299 0.9823
4.3772 -0.2930 -0.6240 0.9824
4.6815 0.5237 -0.6700 0.9811
5.3420 1.0858 -0.7754 0.9782
4.1438 13.3584 -1.9894 0.9451
-2.7148 8.1088 -1.2163 0.9660
-3.2811 7.5040 -1.1649 0.9675
-4.5333 6.7641 -1.1582 0.9676
-5.3998 5.5833 -1.1048 0.9691
-5.7806 4.9987 -1.0870 0.9696
-6.4562 3.8240 -1.0673 0.9701
-6.7563 3.2272 -1.0650 0.9702
-7.0342 2.6196 -1.0676 0.9701
-7.2913 1.9973 -1.0753 0.9699
-3.3525 0.2996 -0.4787 0.9865
-3.2915 0.0000 -0.5241 0.9868
-7.8488 -1.4140 -1.2699 0.9682
-7.9661 -2.1821 -1.3152 0.9671
-8.0587 -3.0011 -1.3693 0.9658
-8.1238 -3.8804 -1.4336 0.9642
-8.1575 -4.8317 -1.5097 0.9623
-8.1545 -5.8693 -1.5999 0.9601
-8.0083 -8.2805 -1.8343 0.9544
-7.8429 -9.7072 -1.9872 0.9507
-7.0709 -12.9028 -2.3429 0.9421
4.5808 -1.3652 -0.7611 0.9808
4.3987 -0.8941 -0.7148 0.9820
4.3497 -0.4866 -0.6969 0.9824
4.3887 -0.0978 -0.6990 0.9824
4.5271 0.3030 -0.7225 0.9818
4.8114 13.3735 -2.2632 0.9441
1.3797 8.1796 -1.3209 0.9670
-0.9151 9.0955 -1.4556 0.9637
-1.6296 8.5012 -1.3783 0.9655
-2.8365 7.3647 -1.2567 0.9685
-3.3513 6.8197 -1.2100 0.9697
-4.0676 6.6962 -1.2476 0.9688
-5.6731 4.4800 -1.1511 0.9711
-6.5705 2.7861 -1.1364 0.9715
-3.9744 0.9005 -0.6489 0.9836
-3.2540 0.4376 -0.5228 0.9868
-3.2600 0.1454 -0.5196 0.9869
-3.3344 -0.1487 -0.5315 0.9866
-3.4817 -0.4682 -0.5594 0.9859
-7.9104 -1.7922 -1.2915 0.9677
-8.0157 -2.5847 -1.3411 0.9665
-8.1372 -6.4259 -1.6510 0.9589
-8.0655 -7.6282 -1.7677 0.9560
-7.9348 -8.9720 -1.9072 0.9526
4.8079 -1.6695 -0.8104 0.9796
4.4669 -1.1172 -0.7332 0.9815
4.3561 -0.2916 -0.6952 0.9825
5.3205 1.0814 -0.8645 0.9782
3.7703 12.1542 -2.0264 0.9498
0.3348 10.0125 -1.5952 0.9602
-0.5242 9.4008 -1.4993 0.9626
-1.9567 8.2106 -1.3440 0.9664
-2.5588 7.6427 -1.2834 0.9679
-4.3003 6.4165 -1.2300 0.9692
-5.1345 5.3090 -1.1761 0.9705
-5.5009 4.7569 -1.1580 0.9710
-6.6997 2.4950 -1.1384 0.9715
-3.2454 0.2900 -0.5188 0.9869
-7.4513 -1.3424 -1.3350 0.9697
-7.5491 -2.0679 -1.3801 0.9687
-7.6204 -2.8379 -1.4338 0.9675
-7.6711 -4.5436 -1.5721 0.9644
-6.4324 -11.7376 -2.3601 0.9471
4.5570 -1.3581 -0.8384 0.9809
4.3383 -0.4853 -0.7697 0.9824
4.5188 0.3025 -0.7986 0.9818
4.8615 0.7644 -0.8677 0.9802
6.0030 12.9362 -2.5146 0.9437
2.8366 10.8271 -1.9735 0.9556
1.7231 10.2154 -1.8267 0.9588
0.7537 9.6456 -1.7060 0.9615
-1.5342 8.0040 -1.4370 0.9674
-2.1394 7.4821 -1.3722 0.9689
-2.6846 6.9703 -1.3170 0.9701
-4.3033 5.8405 -1.2792 0.9710
-4.7047 5.3197 -1.2522 0.9716
-5.4114 4.2734 -1.2158 0.9724
-3.8238 0.8663 -0.6913 0.9842
-3.1779 0.4274 -0.5654 0.9871
-3.1644 0.1411 -0.5585 0.9872
-3.2276 -0.1439 -0.5697 0.9870
-3.3507 -0.4506 -0.5961 0.9864
-7.5033 -1.7000 -1.3566 0.9692
-7.6095 -6.0092 -1.7097 0.9614
-7.5080 -7.1010 -1.8222 0.9589
-7.3463 -8.3066 -1.9553 0.9560
-6.6670 -10.9754 -2.2643 0.9492
4.7775 -1.6589 -0.8917 0.9797
4.3405 -0.6825 -0.7747 0.9823
4.3463 -0.2910 -0.7681 0.9825
4.4394 0.0989 -0.7830 0.9821
5.1653 12.5690 -2.3961 0.9463
3.6808 11.8659 -2.1906 0.9508
2.2601 10.5177 -1.8969 0.9572
1.2217 9.9197 -1.7623 0.9602
-2.9376 6.7184 -1.2929 0.9707
-3.6306 6.6250 -1.3321 0.9698
-4.5084 5.5801 -1.2649 0.9713
-5.5703 4.0093 -1.2101 0.9725
-6.3939 2.3811 -1.2031 0.9727
-3.4371 0.6192 -0.6158 0.9859
-3.1775 -0.2839 -0.6173 0.9871
-7.1714 -1.9644 -1.4389 0.9702
-7.2252 -2.6907 -1.4920 0.9691
-6.7181 -8.3151 -2.0687 0.9574
-6.4194 -9.5783 -2.2314 0.9541
-5.9020 -10.7697 -2.3766 0.9512
-5.3777 -12.2991 -2.5977 0.9468
4.3325 -0.4847 -0.8436 0.9824
4.3747 -0.0975 -0.8468 0.9823
4.8494 0.7625 -0.9500 0.9802
2.6260 10.0235 -2.0052 0.9587
0.7047 9.0182 -1.7505 0.9638
-0.0950 8.5260 -1.6500 0.9659
-2.0257 7.0842 -1.4259 0.9704
-3.2189 6.5502 -1.4124 0.9707
-3.6807 6.0593 -1.3720 0.9715
-4.1031 5.5688 -1.3386 0.9722
-4.4902 5.0771 -1.3116 0.9728
-4.8454 4.5827 -1.2906 0.9732
-5.4709 3.5789 -1.2651 0.9737
-3.6833 0.8345 -0.7308 0.9847
-7.2408 -3.0704 -1.5220 0.9685
-6.8363 -7.7299 -1.9969 0.9588
-6.5799 -8.9303 -2.1466 0.9558
-6.1468 -10.1190 -2.2912 0.9529
-5.6544 -11.5063 -2.4810 0.9491
4.3351 -0.6817 -0.8492 0.9823
4.3395 -0.2905 -0.8417 0.9824
4.4314 0.0987 -0.8578 0.9821
4.6450 0.5196 -0.9045 0.9811
5.2776 1.0727 -1.0422 0.9783
6.2816 12.0942 -2.6373 0.9460
3.3969 10.9506 -2.2188 0.9544
2.0984 9.7652 -1.9329 0.9601
-0.4618 8.2820 -1.6052 0.9668
-1.7447 7.3211 -1.4564 0.9698
-2.2929 6.8485 -1.3976 0.9710
-2.9042 6.6421 -1.4029 0.9709
-4.6716 4.8304 -1.3004 0.9730
-5.3245 3.8323 -1.2695 0.9736
-5.6112 3.3235 -1.2620 0.9738
-5.8737 2.8056 -1.2597 0.9738
-4.1640 1.1406 -0.8355 0.9826
-3.0994 -0.2770 -0.6560 0.9874
-6.8667 -2.5572 -1.5448 0.9705
-6.8470 -4.0555 -1.6777 0.9680
-6.6656 -5.7640 -1.8578 0.9646
-6.4974 -6.7182 -1.9704 0.9625
-6.2647 -7.7539 -2.1015 0.9601
-5.9545 -8.8847 -2.2548 0.9572
-5.4529 -9.9502 -2.3920 0.9547
-4.2717 -12.7587 -2.8365 0.9465
4.5567 -1.3580 -1.0024 0.9808
4.5022 0.3014 -0.9513 0.9817
4.8374 0.7606 -1.0323 0.9802
2.5335 9.6704 -2.1075 0.9600
0.6613 8.4633 -1.7897 0.9659
-0.0894 8.0289 -1.6928 0.9677
-0.7639 7.5937 -1.6090 0.9693
-1.3722 7.1588 -1.5367 0.9706
-1.9228 6.7243 -1.4744 0.9718
-2.5313 6.5723 -1.4848 0.9716
-3.5121 5.7817 -1.4262 0.9727
-3.9195 5.3196 -1.3930 0.9734
-4.2932 4.8544 -1.3662 0.9739
-4.6360 4.3847 -1.3453 0.9743
-5.2390 3.4272 -1.3198 0.9747
-5.5028 2.9364 -1.3149 0.9748
-5.7431 2.4353 -1.3151 0.9748
-5.9608 1.9221 -1.3204 0.9747
-3.5520 0.8048 -0.7678 0.9852
-3.0505 -0.1360 -0.6437 0.9876
-6.7974 -1.5401 -1.4693 0.9719
-6.8747 -2.9151 -1.5742 0.9699
-6.7288 -5.3137 -1.8075 0.9656
-6.5889 -6.2317 -1.9119 0.9636
-6.3898 -7.2251 -2.0334 0.9613
4.3305 -0.6809 -0.9242 0.9822
5.2826 1.0737 -1.1365 0.9782
7.3481 11.5105 -2.8790 0.9457
1.9575 9.1093 -1.9643 0.9626
1.0145 8.2373 -1.7497 0.9666
-1.6542 6.9415 -1.5044 0.9713
-2.1935 6.5517 -1.4566 0.9722
-2.8296 6.4714 -1.4890 0.9715
-3.2947 6.0120 -1.4453 0.9724
-4.4683 4.6202 -1.3550 0.9741
-5.0980 3.6693 -1.3242 0.9746
-5.6258 2.6872 -1.3144 0.9748
-5.8547 2.1803 -1.3171 0.9748
-3.0430 -0.2719 -0.6973 0.9875
-3.1642 -0.5701 -0.7338 0.9869
-6.5133 -1.7842 -1.5414 0.9727
-6.5350 -3.1215 -1.6530 0.9707
-6.4946 -3.8468 -1.7229 0.9695
-6.4142 -4.6166 -1.8038 0.9681
-6.2878 -5.4373 -1.8973 0.9665
-6.1081 -6.3158 -2.0054 0.9646
-4.5419 -10.3876 -2.5876 0.9546
-3.9091 -11.6758 -2.8103 0.9507
4.3208 -0.4834 -0.9923 0.9823
4.3608 -0.0972 -0.9956 0.9823
4.4938 0.3008 -1.0280 0.9817
4.8456 0.7620 -1.1196 0.9801
2.4315 9.2810 -2.1898 0.9614
0.6227 7.9691 -1.8244 0.9677
-0.7235 7.1921 -1.6498 0.9708
-1.3027 6.7963 -1.5794 0.9720
-1.8708 6.5424 -1.5531 0.9725
-2.4603 6.3880 -1.5624 0.9723
-3.3573 5.5268 -1.4759 0.9738
-3.7505 5.0903 -1.4431 0.9744
-4.1115 4.6489 -1.4165 0.9749
-4.7465 3.7483 -1.3804 0.9755
-5.0245 3.2869 -1.3704 0.9757
-5.2783 2.8166 -1.3655 0.9758
-5.7167 1.8434 -1.3709 0.9757
-2.9625 0.3984 -0.6823 0.9878
-2.9453 0.1313 -0.6729 0.9880
-3.0959 -0.4163 -0.7130 0.9873
-6.5304 -2.1058 -1.5661 0.9722
-6.5417 -2.7739 -1.6218 0.9713
-6.4598 -4.2258 -1.7618 0.9688
-6.3572 -5.0202 -1.8488 0.9673
-6.2052 -5.8688 -1.9494 0.9656
-5.9956 -6.7792 -2.0656 0.9635
-5.3333 -8.7798 -2.3447 0.9587
-4.8092 -9.7863 -2.4888 0.9562
-4.2430 -11.0166 -2.6945 0.9527
-2.6574 -13.8636 -3.2219 0.9437
4.7919 -1.6639 -1.1578 0.9794
4.4389 -1.1102 -1.0443 0.9814
4.3259 -0.6802 -0.9995 0.9822
4.3258 -0.2896 -0.9896 0.9824
4.4153 0.0984 -1.0080 0.9820
4.6316 0.5181 -1.0637 0.9811
6.7221 10.5301 -2.8514 0.9500
5.3000 10.2044 -2.6245 0.9539
1.0049 8.1589 -1.8763 0.9668
-1.0202 6.9947 -1.6134 0.9714
-2.1894 6.5393 -1.5740 0.9721
-3.1475 5.7435 -1.4949 0.9735
-3.5581 5.3091 -1.4587 0.9741
-4.2807 4.4262 -1.4054 0.9751
-4.5979 3.9760 -1.3874 0.9754
-3.8725 1.0608 -0.9164 0.9837
-3.1659 0.5704 -0.7342 0.9869
-2.9882 -0.2670 -0.7374 0.9877
-6.2245 -1.7050 -1.5863 0.9738
-6.2252 -2.9735 -1.6958 0.9720
-6.1744 -3.6571 -1.7639 0.9709
-5.9481 -5.1435 -1.9329 0.9681
-5.5125 -6.8228 -2.1560 0.9645
-5.1940 -7.7500 -2.2932 0.9623
-4.2110 -9.6308 -2.5837 0.9576
-2.8541 -11.9764 -3.0262 0.9506
-1.9401 -13.3021 -3.3042 0.9461
4.5565 -1.3580 -1.1687 0.9806
4.3638 -0.8870 -1.0945 0.9818
4.3149 -0.4827 -1.0672 0.9823
10.1494 10.0370 -3.5086 0.9429
5.5327 9.5830 -2.7199 0.9554
2.2811 8.7071 -2.2124 0.9636
1.3259 7.8608 -1.9595 0.9677
0.5881 7.5261 -1.8555 0.9694
-0.0800 7.1821 -1.7655 0.9708
-1.2651 6.6001 -1.6518 0.9727
-1.8578 6.4973 -1.6610 0.9725
-2.8007 5.6992 -1.5609 0.9742
-3.2144 5.2917 -1.5219 0.9748
-3.9434 4.4587 -1.4631 0.9758
-4.2636 4.0325 -1.4425 0.9761
-5.0699 2.7054 -1.4125 0.9766
-5.4901 1.7703 -1.4179 0.9765
-3.3132 0.7507 -0.8350 0.9861
-2.9494 -0.1315 -0.7257 0.9879
-3.0389 -0.4087 -0.7537 0.9874
-6.2372 -2.6448 -1.6652 0.9725
-6.2045 -3.3108 -1.7286 0.9714
-6.1344 -4.0129 -1.8018 0.9703
-6.0220 -4.7555 -1.8861 0.9689
-4.9953 -8.2234 -2.3650 0.9611
-4.4723 -9.1009 -2.4925 0.9591
-3.2468 -11.3547 -2.9028 0.9525
-1.4087 -14.0031 -3.4593 0.9437
4.4178 0.0984 -1.0862 0.9820
5.4179 1.1012 -1.3589 0.9775
9.2569 10.0085 -3.3510 0.9454
7.6304 9.8870 -3.0698 0.9499
6.1907 9.6977 -2.8280 0.9537
3.7718 9.1782 -2.4391 0.9600
2.7515 8.8699 -2.2827 0.9625
1.8019 8.3855 -2.1082 0.9653
-0.9726 6.6684 -1.6564 0.9726
-2.1092 6.2999 -1.6330 0.9730
-4.1069 4.2465 -1.4521 0.9760
-4.6944 3.3788 -1.4217 0.9765
-4.9506 2.9322 -1.4143 0.9766
-2.8744 0.0000 -0.7574 0.9882
-2.9343 -0.2622 -0.7763 0.9879
-5.9581 -1.6321 -1.6278 0.9748
-5.9656 -2.2216 -1.6774 0.9740
-5.9413 -2.8379 -1.7350 0.9731
-5.7836 -4.1627 -1.8777 0.9710
-5.1967 -6.4320 -2.1789 0.9664
-4.8787 -7.2796 -2.3091 0.9644
-3.3371 -9.9674 -2.7697 0.9575
-0.7448 -13.3563 -3.5248 0.9462
4.3721 -0.8887 -1.1756 0.9817
4.3241 -0.4837 -1.1465 0.9822
10.9246 9.0294 -3.7346 0.9431
6.3611 9.0488 -2.9146 0.9553
5.1388 8.9007 -2.7082 0.9584
4.0383 8.7024 -2.5279 0.9611
1.3227 7.8417 -2.0955 0.9676
-0.6779 6.7381 -1.7845 0.9724
-1.2591 6.5684 -1.7623 0.9727
-1.7748 6.2067 -1.7010 0.9737
-2.6827 5.4591 -1.6028 0.9752
-3.0822 5.0741 -1.5644 0.9757
-3.4496 4.6818 -1.5324 0.9762
-4.3809 3.4596 -1.4709 0.9772
-4.6401 3.0354 -1.4610 0.9773
-4.8758 2.6018 -1.4562 0.9774
-5.2792 1.7023 -1.4616 0.9773
-3.2212 0.7298 -0.8703 0.9864
-2.8316 0.3808 -0.7528 0.9883
-2.8515 0.1271 -0.7521 0.9883
-3.0953 -0.7013 -0.8363 0.9870
-5.9656 -1.9237 -1.6516 0.9744
-5.9163 -3.1570 -1.7670 0.9726
-5.5510 -5.2501 -2.0133 0.9689
-5.3300 -6.0267 -2.1200 0.9673
-5.0467 -6.8495 -2.2418 0.9654
-3.6442 -9.4619 -2.6717 0.9589
-2.9992 -10.4889 -2.8746 0.9559
-0.1558 -13.9794 -3.6838 0.9438
4.8428 -1.6816 -1.3508 0.9790
4.4475 -1.1124 -1.2080 0.9812
4.3305 -0.6809 -1.1551 0.9820
4.3296 -0.2898 -1.1434 0.9822
4.4263 0.0986 -1.1666 0.9819
10.0576 9.0965 -3.5733 0.9454
8.4581 9.1449 -3.2823 0.9498
7.0229 9.0998 -3.0288 0.9536
5.7338 8.9819 -2.8079 0.9569
2.5852 8.3338 -2.2992 0.9646
1.7303 8.0522 -2.1702 0.9665
0.9242 7.5037 -1.9922 0.9692
-0.3810 6.8328 -1.8032 0.9721
-1.5225 6.3886 -1.7305 0.9732
-2.4699 5.6489 -1.6245 0.9748
-3.2698 4.8788 -1.5476 0.9760
-3.6220 4.4830 -1.5186 0.9764
-3.9455 4.0796 -1.4955 0.9768
-4.5135 3.2487 -1.4653 0.9773
-5.1867 1.9315 -1.4584 0.9774
-3.0018 0.5408 -0.8037 0.9875
-2.8347 0.2533 -0.7499 0.9883
-2.8819 -0.2575 -0.8141 0.9880
-2.9786 -0.5366 -0.8515 0.9875
-5.7115 -2.1270 -1.7148 0.9750
-5.6800 -2.7131 -1.7710 0.9742
-5.6139 -3.3251 -1.8358 0.9733
-5.3615 -4.6362 -1.9943 0.9710
-5.1649 -5.3404 -2.0903 0.9696
-4.9128 -6.0807 -2.1994 0.9680
-4.5972 -6.8595 -2.3233 0.9663
-4.1750 -7.6183 -2.4442 0.9645
-3.6696 -8.3926 -2.5772 0.9627
-2.4333 -10.2107 -2.9533 0.9573
-0.6806 -12.2059 -3.4395 0.9505
1.7636 -14.3197 -4.0594 0.9418
4.6029 -1.3718 -1.3513 0.9802
4.3841 -0.8911 -1.2587 0.9816
4.5195 0.3025 -1.2744 0.9814
11.5508 7.9292 -3.9419 0.9434
9.9401 8.2157 -3.6283 0.9478
8.4676 8.3738 -3.3506 0.9517
3.7846 8.1556 -2.5297 0.9633
2.8652 7.9641 -2.3813 0.9654
0.5632 7.2069 -2.0339 0.9704
-0.6640 6.5998 -1.8663 0.9728
-1.2028 6.2751 -1.7977 0.9738
-2.1538 5.5923 -1.6861 0.9754
-3.6417 4.1177 -1.5466 0.9774
-4.2164 3.3297 -1.5116 0.9779
-4.8994 2.0775 -1.4973 0.9781
-3.1370 0.7108 -0.9050 0.9867
-2.7751 0.3732 -0.7878 0.9884
-2.8062 0.1251 -0.7903 0.9884
-2.8531 -0.1272 -0.8035 0.9882
-2.9298 -0.3940 -0.8317 0.9878
-3.0353 -0.6877 -0.8756 0.9872
-5.6999 -2.4169 -1.7419 0.9746
-5.5666 -3.6415 -1.8715 0.9727
-5.4411 -4.2968 -1.9507 0.9716
-5.2697 -4.9840 -2.0407 0.9703
-2.7850 -9.7398 -2.8502 0.9588
-1.1762 -11.6917 -3.3061 0.9523
4.8922 -1.6987 -1.4571 0.9787
4.4644 -1.1166 -1.2948 0.9811
4.3379 -0.2904 -1.2232 0.9821
4.6640 0.5217 -1.3204 0.9807
10.7279 8.0903 -3.7804 0.9457
9.1870 8.3092 -3.4852 0.9498
4.2776 8.2360 -2.6111 0.9622
3.3142 8.0646 -2.4532 0.9644
0.9050 7.3479 -2.0830 0.9697
-0.3768 6.7573 -1.9042 0.9723
-1.4557 6.1083 -1.7667 0.9742
-1.9307 5.7668 -1.7110 0.9750
-2.3679 5.4155 -1.6630 0.9757
-3.1409 4.6865 -1.5873 0.9768
-3.7950 3.9240 -1.5359 0.9776
-4.3447 3.1271 -1.5061 0.9780
-4.5836 2.7149 -1.4989 0.9781
-4.7997 2.2926 -1.4966 0.9781
-4.9936 1.8596 -1.4992 0.9781
-2.7884 0.2492 -0.7877 0.9884
-2.8308 -0.2530 -0.8509 0.9882
-5.4761 -2.0393 -1.7494 0.9759
-5.3669 -3.1788 -1.8674 0.9743
-5.2575 -3.7841 -1.9393 0.9733
-4.9077 -5.0745 -2.1135 0.9710
-4.6561 -5.7629 -2.2180 0.9695
-2.9047 -8.6757 -2.7390 0.9625
-2.2642 -9.5011 -2.9241 0.9600
-1.5098 -10.3519 -3.1319 0.9573
0.4049 -12.1107 -3.6277 0.9507
1.5995 -12.9871 -3.9175 0.9468
4.6297 -1.3798 -1.4463 0.9800
4.9487 0.7781 -1.4997 0.9793
10.5120 7.2161 -3.8172 0.9482
5.5060 7.8324 -2.8663 0.9608
2.7038 7.5154 -2.3911 0.9672
0.5358 6.8573 -2.0592 0.9717
-0.0734 6.5900 -1.9730 0.9729
-1.1510 6.0045 -1.8303 0.9748
-1.6273 5.6909 -1.7720 0.9756
-2.0665 5.3655 -1.7213 0.9763
-2.4716 5.0295 -1.6777 0.9769
-3.1892 4.3284 -1.6096 0.9778
-3.5058 3.9640 -1.5843 0.9781
-4.0625 3.2081 -1.5497 0.9786
-3.0564 0.6925 -0.9382 0.9870
-2.8066 -0.1251 -0.8411 0.9883
-2.8771 -0.3869 -0.8691 0.9880
-2.9771 -0.6745 -0.9139 0.9873
-5.4072 -2.8853 -1.8348 0.9747
-5.3171 -3.4783 -1.9022 0.9738
-5.1874 -4.0964 -1.9788 0.9728
-4.5082 -6.1185 -2.2753 0.9688
-4.1631 -6.8533 -2.4006 0.9671
-3.1866 -8.2737 -2.6543 0.9637
-0.1300 -11.6696 -3.4939 0.9524
4.4815 -1.1209 -1.3830 0.9809
4.4437 0.0990 -1.3307 0.9816
11.2493 7.0061 -3.9676 0.9462
9.7991 7.3899 -3.6744 0.9500
8.4488 7.6415 -3.4105 0.9535
6.0469 7.8352 -2.9630 0.9595
4.9875 7.8129 -2.7750 0.9620
2.3030 7.4242 -2.3271 0.9681
0.8601 6.9833 -2.1065 0.9710
-0.8979 6.1564 -1.8626 0.9744
-1.3940 5.8492 -1.8002 0.9752
-2.2731 5.1988 -1.6987 0.9766
-2.6621 4.8578 -1.6584 0.9771
-3.0207 4.5072 -1.6244 0.9776
-3.3508 4.1473 -1.5962 0.9780
-3.6543 3.7785 -1.5737 0.9783
-3.9325 3.4005 -1.5564 0.9785
-4.1866 3.0134 -1.5443 0.9787
-4.8127 1.7923 -1.5375 0.9788
-2.7412 0.2450 -0.8239 0.9886
-2.8694 -0.5169 -0.9259 0.9878
-5.2146 -2.4908 -1.8353 0.9760
-4.6727 -4.8315 -2.1346 0.9722
-4.4227 -5.4740 -2.2350 0.9709
-4.1154 -6.1406 -2.3476 0.9695
-3.7374 -6.8198 -2.4698 0.9679
-3.2482 -7.4289 -2.5750 0.9665
-2.7255 -8.1405 -2.7263 0.9646
-2.1157 -8.8779 -2.8985 0.9624
-1.4042 -9.6278 -3.0900 0.9600
-0.5790 -10.3834 -3.3027 0.9573
0.3724 -11.1384 -3.5394 0.9543
1.4621 -11.8713 -3.7986 0.9510
4.0901 -13.1855 -4.3843 0.9437
4.6575 -1.3881 -1.5434 0.9798
4.4087 -0.8961 -1.4288 0.9813
4.3966 -0.0980 -1.3966 0.9817
4.5591 0.3052 -1.4511 0.9810
12.2900 5.5377 -4.2810 0.9450
7.2444 7.1642 -3.2357 0.9581
5.1544 7.3323 -2.8464 0.9631
4.2207 7.3105 -2.6809 0.9652
3.3567 7.2336 -2.5326 0.9671
2.5582 7.1108 -2.4000 0.9688
1.8207 6.9498 -2.2816 0.9703
0.5108 6.5370 -2.0824 0.9729
-0.6069 6.0325 -1.9255 0.9749
-1.5614 5.4606 -1.8037 0.9764
-2.7382 4.5077 -1.6750 0.9781
-3.0715 4.1687 -1.6445 0.9785
-3.3784 3.8200 -1.6196 0.9788
-4.3652 2.3294 -1.5713 0.9794
-4.5557 1.9318 -1.5715 0.9794
-2.6672 0.3587 -0.8547 0.9888
-3.1071 -1.0019 -1.0368 0.9864
-5.1809 -2.7646 -1.8650 0.9757
-5.0869 -3.3277 -1.9305 0.9748
-4.9541 -3.9122 -2.0048 0.9739
-4.7783 -4.5193 -2.0887 0.9728
-4.5544 -5.1497 -2.1833 0.9716
-4.2766 -5.8042 -2.2897 0.9702
-2.4326 -8.5073 -2.8101 0.9635
-1.7734 -9.2517 -2.9917 0.9612
0.8994 -11.5098 -3.6665 0.9527
5.1348 -1.7830 -1.7262 0.9774
4.3662 -0.6866 -1.4037 0.9816
4.4620 0.0994 -1.4174 0.9814
12.9807 5.1662 -4.4370 0.9431
11.6077 5.8656 -4.1303 0.9469
10.2789 6.4017 -3.8458 0.9504
6.6934 7.2369 -3.1307 0.9595
4.6786 7.3289 -2.7614 0.9642
2.1822 7.0347 -2.3391 0.9696
1.4735 6.8569 -2.2274 0.9710
0.8190 6.6500 -2.1279 0.9723
0.2146 6.4183 -2.0395 0.9734
-0.3438 6.1657 -1.9612 0.9744
-1.3367 5.6090 -1.8312 0.9761
-1.7775 5.3091 -1.7781 0.9768
-2.1848 4.9968 -1.7320 0.9774
-2.9083 4.3394 -1.6590 0.9783
-3.5224 3.6421 -1.6091 0.9790
-3.7920 3.2791 -1.5921 0.9792
-4.0382 2.9065 -1.5801 0.9793
-4.4632 2.1319 -1.5708 0.9795
-4.6428 1.7290 -1.5734 0.9794
-3.4729 0.9513 -1.1436 0.9850
-2.7374 -0.2446 -0.9234 0.9885
-5.0063 -2.3913 -1.8641 0.9769
-4.8111 -3.4628 -1.9916 0.9753
-4.4570 -4.6085 -2.1540 0.9733
-4.2094 -5.2100 -2.2504 0.9721
-3.9075 -5.8303 -2.3581 0.9708
3.7176 -11.9845 -4.2158 0.9484
5.0872 -12.3790 -4.4966 0.9451
4.7205 -1.4069 -1.6549 0.9794
4.5951 0.3076 -1.5473 0.9808
10.0303 5.6429 -3.8667 0.9526
8.8886 6.1017 -3.6224 0.9555
7.7920 6.4403 -3.3965 0.9582
3.9789 6.8916 -2.6737 0.9670
1.7312 6.6080 -2.2951 0.9716
-0.0671 6.0215 -2.0232 0.9749
-1.0583 5.5210 -1.8887 0.9766
-1.5001 5.2461 -1.8332 0.9772
-2.2879 4.6558 -1.7429 0.9783
-2.9612 4.0189 -1.6772 0.9792
-3.5321 3.3406 -1.6334 0.9797
-4.0095 2.6229 -1.6098 0.9800
-4.5615 1.4709 -1.6103 0.9800
-2.6272 0.5952 -0.9050 0.9887
-2.6180 0.3521 -0.8875 0.9889
-2.6762 0.1193 -0.9001 0.9888
-2.7751 -0.3732 -0.9408 0.9883
-2.8653 -0.6492 -0.9871 0.9877
-5.0651 -1.6333 -1.7881 0.9778
-5.0336 -2.1344 -1.8370 0.9772
-4.9708 -2.6525 -1.8930 0.9765
-4.8736 -3.1881 -1.9567 0.9757
-4.7387 -3.7421 -2.0287 0.9748
-4.0656 -5.5178 -2.3028 0.9715
-3.7342 -6.1473 -2.4166 0.9701
-2.2857 -7.9936 -2.7933 0.9655
-0.9380 -9.3241 -3.1486 0.9612
1.8915 -11.2138 -3.8209 0.9531
4.3878 -12.1961 -4.3548 0.9468
4.3927 -0.6907 -1.4940 0.9814
4.4923 0.1001 -1.5097 0.9812
12.9715 3.8659 -4.5476 0.9445
10.6138 5.3634 -3.9955 0.9511
9.4546 5.8883 -3.7423 0.9541
5.2961 6.8624 -2.9124 0.9641
4.4030 6.8972 -2.7492 0.9661
3.5695 6.8725 -2.6019 0.9678
2.0723 6.6804 -2.3500 0.9709
-1.7086 5.1034 -1.8082 0.9775
-2.1023 4.8080 -1.7631 0.9781
-2.4664 4.5007 -1.7243 0.9786
-2.8029 4.1821 -1.6915 0.9790
-3.1131 3.8531 -1.6643 0.9793
-3.3984 3.5139 -1.6424 0.9796
-3.8986 2.8060 -1.6139 0.9799
-4.3097 2.0586 -1.6047 0.9800
-2.6265 0.7195 -0.9150 0.9886
-2.7169 0.4895 -0.9275 0.9884
-2.6500 0.2368 -0.8939 0.9888
-2.6519 0.0000 -0.9403 0.9888
-2.8417 -0.7784 -1.0448 0.9876
-4.7295 -2.8013 -1.9491 0.9769
-4.4563 -3.8535 -2.0890 0.9753
-4.0137 -4.9678 -2.2646 0.9733
-3.7175 -5.5469 -2.3677 0.9721
-2.9092 -6.6536 -2.5749 0.9697
-2.4218 -7.2334 -2.7048 0.9681
-1.8668 -7.8336 -2.8555 0.9664
-1.2295 -8.4297 -3.0207 0.9645
-0.5026 -9.0134 -3.2010 0.9624
0.3201 -9.5744 -3.3968 0.9602
3.4040 -10.9737 -4.0740 0.9524
4.6321 -11.2716 -4.3211 0.9496
4.4539 -0.0993 -1.5797 0.9813
4.6321 0.3101 -1.6462 0.9805
12.2918 3.0744 -4.4928 0.9476
11.3034 3.9250 -4.2428 0.9505
10.2820 4.6329 -3.9989 0.9533
5.4134 6.4030 -2.9731 0.9650
3.7610 6.5142 -2.6672 0.9686
3.0092 6.4848 -2.5349 0.9701
0.4665 5.9701 -2.1234 0.9749
-0.0643 5.7686 -2.0456 0.9758
-0.5579 5.5457 -1.9763 0.9766
-2.5439 4.1879 -1.7374 0.9794
-3.6539 2.8854 -1.6509 0.9804
-3.8744 2.5345 -1.6416 0.9805
-4.0734 2.1736 -1.6371 0.9806
-4.2511 1.8026 -1.6373 0.9806
-4.4077 1.4213 -1.6421 0.9805
-2.5748 0.3463 -0.9212 0.9890
-2.6347 0.1175 -0.9351 0.9889
-3.5484 -5.8414 -2.4235 0.9714
-3.1443 -6.3984 -2.5279 0.9702
-2.6706 -6.9338 -2.6347 0.9690
-2.1542 -7.5336 -2.7784 0.9673
-1.5589 -8.1326 -2.9362 0.9655
-0.1036 -9.2974 -3.2969 0.9613
5.2787 -11.3754 -4.4467 0.9482
8.0203 -11.4090 -4.9450 0.9425
4.5814 -1.1459 -1.6746 0.9802
4.4265 -0.6960 -1.5889 0.9812
4.4097 -0.2952 -1.5671 0.9814
4.8190 0.5391 -1.7194 0.9796
12.7635 2.5943 -4.6183 0.9462
11.8036 3.5179 -4.3673 0.9491
10.7950 4.2963 -4.1198 0.9519
5.8573 6.3329 -3.0588 0.9641
4.9817 6.4550 -2.8912 0.9660
4.1554 6.5093 -2.7383 0.9678
3.3790 6.5057 -2.5994 0.9694
-0.3156 5.6596 -2.0099 0.9762
-0.7915 5.4270 -1.9447 0.9770
-1.2337 5.1767 -1.8870 0.9777
-1.6442 4.9109 -1.8363 0.9783
-2.0249 4.6311 -1.7922 0.9788
-2.7037 4.0343 -1.7220 0.9796
-3.0047 3.7189 -1.6953 0.9799
-3.2816 3.3932 -1.6738 0.9802
-3.7668 2.7112 -1.6457 0.9805
-3.9765 2.3553 -1.6388 0.9806
-4.1649 1.9894 -1.6366 0.9806
-4.3320 1.6133 -1.6391 0.9806
-2.5828 0.7075 -0.9496 0.9887
-2.6060 0.2329 -0.9277 0.9890
-2.6101 0.0000 -0.9746 0.9889
-2.6498 -0.2368 -0.9934 0.9887
-2.7171 -0.4895 -1.0309 0.9883
-2.7878 -0.7637 -1.0793 0.9877
-4.6832 -1.7440 -1.8661 0.9789
-4.6301 -2.2116 -1.9160 0.9783
-4.5454 -2.6922 -1.9727 0.9777
-4.2709 -3.6932 -2.1084 0.9762
-3.8333 -4.7445 -2.2776 0.9743
-0.4710 -8.4467 -3.1590 0.9645
0.2988 -8.9375 -3.3392 0.9625
5.4245 -10.4441 -4.3946 0.9510
9.1126 -9.8524 -5.0114 0.9443
10.2792 -9.2970 -5.1754 0.9425
4.4375 -0.4964 -1.6673 0.9811
4.4836 -0.0999 -1.6746 0.9810
12.0192 1.8899 -4.5432 0.9494
11.2340 2.8098 -4.3241 0.9518
10.3804 3.6045 -4.1032 0.9542
9.4869 4.2746 -3.8855 0.9565
8.5775 4.8256 -3.6750 0.9588
7.6709 5.2658 -3.4743 0.9611
6.7870 5.6096 -3.2880 0.9631
5.9255 5.8599 -3.1119 0.9650
5.0985 6.0305 -2.9488 0.9668
3.5635 6.1722 -2.6613 0.9700
2.8587 6.1603 -2.5359 0.9714
2.1957 6.1031 -2.4220 0.9727
1.5737 6.0069 -2.3188 0.9738
0.9913 5.8770 -2.2255 0.9749
0.4468 5.7179 -2.1416 0.9758
-0.0617 5.5335 -2.0664 0.9766
-3.5327 2.7897 -1.6809 0.9810
-3.7466 2.4509 -1.6718 0.9811
-4.1112 1.7433 -1.6675 0.9811
-4.2623 1.3744 -1.6723 0.9811
-2.5436 0.5763 -0.9739 0.9889
-2.5325 0.3406 -0.9542 0.9891
-2.6307 -0.1173 -0.9833 0.9888
-4.5918 -2.4503 -1.9435 0.9780
-4.4905 -2.9376 -2.0037 0.9773
-4.3537 -3.4380 -2.0715 0.9766
-3.3783 -5.5614 -2.4298 0.9726
-2.9961 -6.0968 -2.5366 0.9714
-2.5331 -6.5772 -2.6319 0.9704
-2.0356 -7.1190 -2.7649 0.9689
-0.0969 -8.6964 -3.2475 0.9635
0.7165 -9.1689 -3.4342 0.9615
1.6182 -9.5935 -3.6329 0.9593
3.6827 -10.2363 -4.0622 0.9546
4.8289 -10.4061 -4.2837 0.9522
6.0317 -10.4472 -4.5046 0.9498
7.2675 -10.3381 -4.7188 0.9475
8.5049 -10.0597 -4.9190 0.9453
10.8269 -8.9487 -5.2451 0.9418
4.6388 -1.1602 -1.7855 0.9798
4.4612 -0.7015 -1.6863 0.9809
4.4401 -0.2972 -1.6617 0.9812
4.5553 0.1015 -1.7014 0.9807
10.8138 3.2229 -4.2135 0.9530
9.0329 4.5646 -3.7792 0.9577
8.1228 5.0590 -3.5733 0.9600
7.2288 5.4515 -3.3808 0.9621
5.5073 5.9545 -3.0287 0.9660
2.5220 6.1370 -2.4776 0.9721
1.8797 6.0596 -2.3691 0.9733
1.2777 5.9459 -2.2709 0.9744
0.1882 5.6286 -2.1030 0.9762
-0.3029 5.4328 -2.0318 0.9770
-0.7608 5.2163 -1.9684 0.9777
-1.1871 4.9815 -1.9122 0.9784
-1.9522 4.4648 -1.8196 0.9794
-2.2940 4.1860 -1.7824 0.9798
-2.9025 3.5924 -1.7246 0.9805
-3.4177 2.9554 -1.6872 0.9809
-3.6423 2.6216 -1.6757 0.9810
-4.1894 1.5601 -1.6693 0.9811
-3.4441 0.9434 -1.3334 0.9849
-2.5691 0.0000 -1.0083 0.9890
-2.7584 -1.0272 -1.1552 0.9874
-4.4594 -2.1301 -1.9396 0.9790
-4.3731 -2.5902 -1.9948 0.9784
-4.2537 -3.0616 -2.0569 0.9777
-4.0983 -3.5439 -2.1264 0.9770
-3.0479 -5.5617 -2.4891 0.9731
-2.6307 -6.0165 -2.5771 0.9722
-2.1738 -6.4927 -2.6872 0.9710
-1.0905 -7.4771 -2.9656 0.9681
-0.4428 -7.9412 -3.1215 0.9664
0.2800 -8.3741 -3.2884 0.9646
1.0794 -8.7639 -3.4656 0.9628
2.9025 -9.3569 -3.8449 0.9588
4.9824 -9.5929 -4.2425 0.9546
8.2771 -8.9492 -4.7843 0.9490
9.3089 -8.4194 -4.9261 0.9475
4.5774 -0.9304 -1.8332 0.9801
11.0111 1.7314 -4.3747 0.9532
9.5876 3.3292 -3.9833 0.9573
8.7981 3.9643 -3.7873 0.9594
7.1690 4.9212 -3.4128 0.9633
6.3688 5.2639 -3.2428 0.9651
5.5787 5.5169 -3.0793 0.9668
4.8149 5.6951 -2.9269 0.9685
4.0822 5.8070 -2.7859 0.9700
-0.0592 5.3141 -2.0858 0.9774
-0.5153 5.1224 -2.0205 0.9781
-0.9413 4.9108 -1.9624 0.9787
-1.3386 4.6814 -1.9110 0.9793
-1.7086 4.4363 -1.8658 0.9798
-2.0525 4.1768 -1.8265 0.9802
-2.9392 3.3234 -1.7412 0.9811
-3.4179 2.6991 -1.7093 0.9815
-3.6255 2.3717 -1.7003 0.9816
-3.9787 1.6871 -1.6961 0.9816
-4.1245 1.3300 -1.7008 0.9816
-4.4909 -1.9043 -1.9144 0.9793
-4.3177 -2.8245 -2.0250 0.9781
-4.1807 -3.3015 -2.0907 0.9774
-3.7907 -4.2862 -2.2457 0.9757
-3.2219 -5.3039 -2.4356 0.9737
-2.8563 -5.8123 -2.5417 0.9726
-2.4077 -6.2515 -2.6292 0.9716
-1.9282 -6.7433 -2.7526 0.9703
-1.3871 -7.2364 -2.8918 0.9688
-0.7759 -7.7124 -3.0422 0.9672
-0.0909 -8.1623 -3.2036 0.9655
1.5077 -8.9386 -3.5577 0.9618
2.4200 -9.2372 -3.7477 0.9598
4.4436 -9.5758 -4.1431 0.9557
7.7383 -9.1529 -4.7040 0.9498
8.8022 -8.7047 -4.8586 0.9482
10.6665 -7.3222 -5.0777 0.9459
12.3145 -4.2760 -5.1162 0.9455
4.7343 -1.1841 -1.9153 0.9792
10.6826 2.1713 -4.2783 0.9542
8.3937 4.2415 -3.6910 0.9604
4.4444 5.7588 -2.8550 0.9692
3.0477 5.8679 -2.5951 0.9720
1.2222 5.6879 -2.2833 0.9753
-0.2911 5.2209 -2.0522 0.9778
-1.5270 4.5607 -1.8876 0.9795
-1.8838 4.3082 -1.8454 0.9800
-2.2151 4.0421 -1.8090 0.9804
-2.5222 3.7633 -1.7780 0.9807
-2.8058 3.4728 -1.7522 0.9810
-3.0670 3.1712 -1.7314 0.9812
-3.3063 2.8590 -1.7155 0.9814
-3.7215 2.2043 -1.6976 0.9816
-4.0542 1.5098 -1.6979 0.9816
-3.4629 0.9486 -1.4091 0.9847
-2.6211 -0.4722 -1.0967 0.9885
-2.6436 -0.9845 -1.1616 0.9879
-4.2988 -2.0534 -1.9617 0.9796
-4.2114 -2.4944 -2.0155 0.9790
-3.9371 -3.4045 -2.1433 0.9777
-3.7449 -3.8721 -2.2182 0.9770
-3.2341 -4.8256 -2.3921 0.9752
-2.9085 -5.3073 -2.4921 0.9742
-2.5118 -5.7446 -2.5817 0.9732
-2.0660 -6.1706 -2.6796 0.9722
-1.0311 -7.0698 -2.9420 0.9696
6.5938 -8.5437 -4.4440 0.9544
7.5679 -8.1826 -4.5896 0.9529
8.4881 -7.6771 -4.7128 0.9517
10.0465 -6.2570 -4.8737 0.9501
10.6300 -5.3716 -4.9044 0.9498
11.0531 -4.3991 -4.8987 0.9498
11.3038 -3.3689 -4.8570 0.9503
4.6640 -0.9480 -1.9598 0.9796
4.8492 0.3246 -2.0013 0.9792
8.8991 3.0901 -3.8791 0.9601
6.7233 4.6153 -3.3581 0.9653
4.5580 5.3913 -2.9071 0.9699
3.2190 5.5755 -2.6511 0.9725
2.5941 5.5903 -2.5377 0.9737
2.0009 5.5615 -2.4338 0.9748
1.4395 5.4946 -2.3389 0.9757
-1.2911 4.5153 -1.9338 0.9799
-1.6494 4.2825 -1.8897 0.9803
-2.5792 3.5005 -1.7905 0.9814
-3.3090 2.6131 -1.7362 0.9819
-3.6918 1.9700 -1.7231 0.9821
-3.8529 1.6338 -1.7233 0.9821
-3.9937 1.2878 -1.7279 0.9820
-2.4504 0.3295 -1.0181 0.9894
-2.5068 0.1118 -1.0333 0.9892
-2.5479 -0.1136 -1.0502 0.9890
-2.5854 -0.3477 -1.0742 0.9888
-2.6300 -0.5959 -1.1104 0.9884
-4.1557 -2.7185 -2.0449 0.9787
-4.0189 -3.1737 -2.1087 0.9781
-3.8459 -3.6374 -2.1798 0.9774
-3.6336 -4.1085 -2.2585 0.9766
-3.3787 -4.5855 -2.3454 0.9757
-3.0776 -5.0663 -2.4410 0.9747
-2.7264 -5.5481 -2.5455 0.9736
-2.2924 -5.9521 -2.6265 0.9728
-0.7326 -7.2821 -3.0138 0.9688
0.6288 -8.0475 -3.3239 0.9657
1.4102 -8.3604 -3.4913 0.9640
4.1103 -8.8576 -4.0210 0.9586
6.0956 -8.6712 -4.3646 0.9552
7.0857 -8.3810 -4.5193 0.9536
8.9179 -7.3708 -4.7642 0.9512
9.7007 -6.6592 -4.8452 0.9504
10.8626 -4.8945 -4.9061 0.9498
11.2005 -3.8892 -4.8823 0.9500
4.8585 -1.2152 -2.0623 0.9786
4.5747 -0.7193 -1.9069 0.9802
9.8630 2.0047 -4.1444 0.9574
9.2353 2.7524 -3.9682 0.9592
6.3636 4.7990 -3.2820 0.9661
4.9094 5.3080 -2.9773 0.9692
2.9027 5.5887 -2.5932 0.9731
2.2935 5.5810 -2.4846 0.9742
1.1708 5.4483 -2.2947 0.9762
0.6568 5.3328 -2.2125 0.9770
-2.4387 3.6387 -1.8037 0.9812
-2.7142 3.3594 -1.7784 0.9815
-2.9680 3.0689 -1.7580 0.9817
-3.2006 2.7676 -1.7423 0.9819
-3.6037 2.1345 -1.7247 0.9820
-3.7749 1.8031 -1.7226 0.9821
-3.9258 1.4620 -1.7250 0.9820
-2.5181 0.4537 -1.0536 0.9890
-2.4793 0.2215 -1.0250 0.9893
-2.5221 -0.2254 -1.0922 0.9890
-2.5389 -0.4574 -1.1128 0.9888
-4.1475 -1.9811 -1.9826 0.9802
-3.3675 -4.1680 -2.3114 0.9769
-2.4031 -5.4959 -2.5874 0.9742
0.2480 -7.4197 -3.2023 0.9682
0.9505 -7.7175 -3.3542 0.9667
1.7103 -7.9592 -3.5117 0.9652
2.5228 -8.1328 -3.6730 0.9636
3.3799 -8.2245 -3.8356 0.9620
6.9646 -7.5301 -4.4245 0.9563
7.7958 -7.0509 -4.5342 0.9552
8.5506 -6.4484 -4.6197 0.9544
9.2039 -5.7323 -4.6772 0.9539
9.7333 -4.9185 -4.7041 0.9536
10.1217 -4.0284 -4.6992 0.9537
10.3588 -3.0872 -4.6626 0.9540
4.6039 -0.5150 -1.9983 0.9800
4.6596 -0.1038 -2.0104 0.9799
5.0332 0.3369 -2.1760 0.9783
8.2952 2.8804 -3.7878 0.9625
7.0012 3.9388 -3.4652 0.9656
6.3273 4.3435 -3.3105 0.9671
5.6574 4.6760 -3.1660 0.9685
4.9836 4.9285 -3.0234 0.9699
4.3241 5.1146 -2.8890 0.9712
3.6842 5.2409 -2.7634 0.9725
2.4772 5.3382 -2.5385 0.9747
1.9142 5.3206 -2.4391 0.9757
-0.0548 4.9165 -2.1209 0.9788
-0.4779 4.7502 -2.0594 0.9794
-1.2463 4.3584 -1.9554 0.9804
-2.7533 3.1132 -1.7927 0.9821
-2.9896 2.8276 -1.7750 0.9822
-3.2055 2.5314 -1.7619 0.9824
-3.4013 2.2250 -1.7532 0.9825
-3.5772 1.9088 -1.7490 0.9825
-3.7332 1.5830 -1.7491 0.9825
-3.8693 1.2477 -1.7537 0.9824
-2.4655 0.1099 -1.0645 0.9893
-2.5076 -0.1118 -1.0828 0.9891
-2.5465 -0.5770 -1.1263 0.9887
-2.6695 -1.1320 -1.2508 0.9874
-4.1071 -2.1916 -2.0081 0.9799
-3.8672 -3.0539 -2.1256 0.9788
-3.4871 -3.9429 -2.2705 0.9773
-0.0808 -7.2534 -3.1290 0.9689
1.3235 -7.8462 -3.4323 0.9659
2.9464 -8.1897 -3.7544 0.9628
3.8217 -8.2355 -3.9163 0.9612
6.5287 -7.7221 -4.3619 0.9569
7.3881 -7.3063 -4.4821 0.9557
9.4853 -5.3363 -4.6946 0.9537
9.9460 -4.4814 -4.7057 0.9536
4.6477 -0.7308 -2.0295 0.9797
4.6096 -0.3086 -1.9929 0.9801
4.7828 0.1066 -2.0636 0.9794
9.6321 1.0775 -4.1808 0.9587
9.1512 1.8600 -4.0281 0.9601
8.5952 2.5617 -3.8687 0.9617
7.3348 3.7064 -3.5449 0.9648
5.9974 4.5229 -3.2402 0.9678
4.0015 5.1848 -2.8251 0.9719
3.3728 5.2835 -2.7039 0.9731
2.7691 5.3314 -2.5915 0.9742
2.1922 5.3344 -2.4877 0.9752
1.1228 5.2253 -2.3054 0.9770
0.1669 4.9912 -2.1542 0.9785
-1.4228 4.2497 -1.9331 0.9807
-2.6273 3.2519 -1.8033 0.9820
-3.1001 2.6807 -1.7679 0.9823
-3.3059 2.3795 -1.7570 0.9824
-3.6577 1.7471 -1.7485 0.9825
-2.4719 0.4453 -1.0835 0.9891
-2.4702 -0.6767 -1.1556 0.9888
-2.4890 -0.9269 -1.1984 0.9884
-4.0044 -1.9127 -2.0024 0.9807
-3.9156 -2.3192 -2.0534 0.9802
-3.7963 -2.7324 -2.1105 0.9797
-3.6444 -3.1514 -2.1739 0.9791
-3.2329 -4.0014 -2.3211 0.9777
-2.9680 -4.4286 -2.4055 0.9769
-2.3014 -5.2634 -2.5920 0.9751
-1.8791 -5.6125 -2.6706 0.9744
3.1594 -7.6881 -3.7505 0.9642
3.9806 -7.6641 -3.8968 0.9628
4.8142 -7.5413 -4.0370 0.9615
5.6426 -7.3114 -4.1672 0.9603
6.4458 -6.9692 -4.2834 0.9592
8.4822 -5.2828 -4.5089 0.9571
9.3247 -3.7111 -4.5284 0.9569
9.5492 -2.8460 -4.4961 0.9572
4.9823 -1.0127 -2.2941 0.9779
4.7856 -0.1066 -2.1599 0.9792
8.7494 1.3758 -3.9964 0.9619
8.2865 2.0726 -3.8542 0.9632
7.7609 2.6949 -3.7070 0.9646
7.1892 3.2393 -3.5580 0.9660
5.9808 4.1056 -3.2733 0.9687
4.1102 4.8616 -2.8725 0.9724
2.3688 5.1047 -2.5393 0.9756
1.8336 5.0966 -2.4440 0.9765
1.3235 5.0518 -2.3564 0.9773
0.8391 4.9743 -2.2762 0.9781
0.3804 4.8678 -2.2031 0.9788
-0.0528 4.7355 -2.1369 0.9794
-0.4608 4.5803 -2.0771 0.9800
-0.8443 4.4045 -2.0235 0.9805
-1.8542 3.7731 -1.8970 0.9817
-2.4170 3.2804 -1.8386 0.9823
-2.8970 2.7399 -1.7992 0.9827
-3.2971 2.1569 -1.7778 0.9829
-3.4679 1.8505 -1.7736 0.9829
-3.6191 1.5346 -1.7738 0.9829
-2.4105 0.1075 -1.0887 0.9895
-2.4521 -0.3298 -1.1164 0.9892
-2.4782 -0.7991 -1.1749 0.9886
-3.9637 -2.1151 -2.0272 0.9805
-3.8599 -2.5250 -2.0812 0.9800
-3.5554 -3.3627 -2.2081 0.9788
-3.1057 -4.2150 -2.3624 0.9773
-2.0894 -5.4249 -2.6231 0.9748
-1.1847 -6.1803 -2.8394 0.9728
-0.0765 -6.8630 -3.0969 0.9703
0.5586 -7.1491 -3.2356 0.9690
1.9810 -7.5615 -3.5270 0.9663
2.7580 -7.6661 -3.6761 0.9649
5.2302 -7.4401 -4.1036 0.9609
6.0487 -7.1544 -4.2273 0.9597
6.8311 -6.7554 -4.3350 0.9587
7.5549 -6.2443 -4.4226 0.9579
8.1977 -5.6274 -4.4866 0.9573
8.7390 -4.9165 -4.5244 0.9570
9.1617 -4.1281 -4.5342 0.9569
9.4539 -3.2828 -4.5156 0.9570
4.7209 -0.3160 -2.1349 0.9795
4.9292 0.1098 -2.2247 0.9786
8.0305 2.3933 -3.7810 0.9639
5.6666 4.2734 -3.2024 0.9693
4.4166 4.7752 -2.9349 0.9719
2.6456 5.0936 -2.5898 0.9751
2.0981 5.1055 -2.4906 0.9761
1.5754 5.0785 -2.3992 0.9769
1.0781 5.0169 -2.3154 0.9777
0.1606 4.8047 -2.1692 0.9791
-0.6556 4.4948 -2.0496 0.9803
-1.0270 4.3095 -1.9990 0.9807
-1.3749 4.1067 -1.9541 0.9812
-1.7000 3.8880 -1.9147 0.9816
-2.0029 3.6548 -1.8805 0.9819
-2.2842 3.4083 -1.8513 0.9822
-2.5446 3.1495 -1.8270 0.9824
-2.7846 2.8792 -1.8073 0.9826
-3.0044 2.5980 -1.7922 0.9827
-3.2045 2.3064 -1.7815 0.9828
-3.3849 2.0049 -1.7751 0.9829
-3.5460 1.6938 -1.7731 0.9829
-2.4063 0.4335 -1.1032 0.9893
-2.3615 0.0000 -1.1132 0.9896
-2.3816 -0.4291 -1.1407 0.9894
-3.8690 -1.8480 -2.0211 0.9812
-3.6612 -2.6351 -2.1263 0.9802
-3.5109 -3.0360 -2.1879 0.9797
-3.1068 -3.8453 -2.3303 0.9784
-2.2042 -5.0412 -2.5935 0.9760
-1.3614 -5.7126 -2.7682 0.9744
0.8465 -6.8732 -3.2643 0.9698
1.5154 -7.0522 -3.4001 0.9686
2.9633 -7.2106 -3.6748 0.9661
3.7244 -7.1708 -3.8089 0.9649
4.4939 -7.0396 -3.9368 0.9637
5.2560 -6.8103 -4.0551 0.9627
5.9927 -6.4792 -4.1602 0.9617
6.6847 -6.0460 -4.2487 0.9609
7.3123 -5.5146 -4.3172 0.9603
8.3018 -4.1951 -4.3845 0.9597
8.8476 -2.6369 -4.3518 0.9600
8.5121 0.5698 -4.0214 0.9630
5.6570 3.8833 -3.2344 0.9701
5.0741 4.1939 -3.1031 0.9713
2.2681 4.8878 -2.5399 0.9765
1.7585 4.8878 -2.4485 0.9773
1.2711 4.8519 -2.3642 0.9781
0.8069 4.7839 -2.2869 0.9788
0.3663 4.6873 -2.2162 0.9794
-0.8154 4.2539 -2.0417 0.9810
-1.4899 3.8684 -1.9540 0.9818
-2.0784 3.4216 -1.8871 0.9825
-2.3418 3.1783 -1.8609 0.9827
-2.8086 2.6563 -1.8222 0.9831
-3.1977 2.0919 -1.8012 0.9832
-2.3488 0.1047 -1.1083 0.9897
-2.3694 -0.1056 -1.1180 0.9896
-2.3799 -0.3201 -1.1319 0.9894
-2.3894 -0.5414 -1.1548 0.9892
-3.8280 -2.0427 -2.0453 0.9810
-3.7244 -2.4363 -2.0978 0.9805
-3.4233 -3.2377 -2.2210 0.9794
-3.2215 -3.6426 -2.2922 0.9787
-2.9825 -4.0479 -2.3701 0.9780
-2.3829 -4.8490 -2.5468 0.9764
-1.5827 -5.5350 -2.7136 0.9749
-1.1282 -5.8856 -2.8248 0.9738
-0.6250 -6.2124 -2.9432 0.9728
-0.0725 -6.5076 -3.0677 0.9716
0.5285 -6.7631 -3.1977 0.9704
1.1757 -6.9700 -3.3319 0.9692
1.8650 -7.1187 -3.4688 0.9680
2.5900 -7.1992 -3.6065 0.9667
3.3419 -7.2017 -3.7424 0.9655
4.1090 -7.1171 -3.8738 0.9643
4.8769 -6.9375 -3.9974 0.9632
5.6287 -6.6576 -4.1095 0.9622
6.3455 -6.2752 -4.2067 0.9613
7.0078 -5.7921 -4.2856 0.9606
8.0926 -4.5529 -4.3769 0.9598
8.4828 -3.8221 -4.3858 0.9597
8.9078 -2.2280 -4.3283 0.9602
5.0009 -0.7863 -2.3863 0.9779
8.6486 0.1927 -4.0778 0.9625
7.9747 1.6209 -3.8359 0.9647
7.5284 2.2437 -3.7030 0.9659
7.0295 2.7977 -3.5663 0.9671
6.4919 3.2805 -3.4286 0.9683
5.9287 3.6924 -3.2923 0.9696
4.2010 4.5421 -2.9164 0.9730
3.6292 4.7025 -2.8000 0.9741
2.0106 4.8925 -2.4933 0.9769
1.0361 4.8217 -2.3247 0.9784
0.5836 4.7390 -2.2507 0.9791
-0.2507 4.4951 -2.1222 0.9803
-0.6329 4.3393 -2.0671 0.9808
-0.9923 4.1640 -2.0178 0.9812
-1.6449 3.7620 -1.9354 0.9820
-1.9391 3.5385 -1.9020 0.9823
-2.4659 3.0521 -1.8495 0.9828
-2.6993 2.7910 -1.8302 0.9830
-2.9131 2.5191 -1.8154 0.9831
-3.2831 1.9446 -1.7986 0.9833
-3.5764 1.3319 -1.7989 0.9833
-3.6941 1.0119 -1.8055 0.9832
-2.3515 0.4236 -1.1263 0.9895
-2.3242 0.2077 -1.1000 0.9897
-2.3094 -0.2064 -1.1404 0.9897
-2.3082 -0.4158 -1.1536 0.9896
-2.3666 -1.1304 -1.2900 0.9884
-3.5335 -2.5432 -2.1413 0.9808
-3.3850 -2.9271 -2.2011 0.9802
-3.2040 -3.3129 -2.2669 0.9797
-2.7361 -4.0825 -2.4172 0.9783
-2.1126 -4.8317 -2.5937 0.9768
-1.7183 -5.1323 -2.6621 0.9762
0.2107 -6.3023 -3.1015 0.9723
1.4319 -6.6636 -3.3524 0.9701
2.0963 -6.7580 -3.4802 0.9690
2.7876 -6.7832 -3.6071 0.9678
3.4959 -6.7309 -3.7305 0.9668
4.9139 -6.3672 -3.9559 0.9648
5.5933 -6.0474 -4.0516 0.9639
6.2304 -5.6350 -4.1319 0.9632
6.8079 -5.1341 -4.1939 0.9627
7.7211 -3.9016 -4.2550 0.9622
8.3045 -0.9290 -4.1101 0.9634
8.1812 -0.1823 -4.0250 0.9642
6.8571 2.3811 -3.5703 0.9682
6.3819 2.8755 -3.4429 0.9693
5.8742 3.3048 -3.3151 0.9704
4.8199 3.9837 -3.0756 0.9725
2.6786 4.6395 -2.6350 0.9764
2.1742 4.6854 -2.5406 0.9772
1.6882 4.6924 -2.4528 0.9780
1.2220 4.6644 -2.3716 0.9787
0.3529 4.5171 -2.2285 0.9800
-0.4294 4.2678 -2.1097 0.9811
-0.7881 4.1112 -2.0589 0.9815
-1.7380 3.5367 -1.9382 0.9826
-2.0139 3.3151 -1.9079 0.9829
-2.2699 3.0808 -1.8822 0.9831
-2.7242 2.5765 -1.8443 0.9834
-3.2639 1.7417 -1.8196 0.9836
-3.4062 1.4444 -1.8197 0.9836
-3.5296 1.1381 -1.8241 0.9836
-2.2513 0.3028 -1.1173 0.9899
-2.2893 0.1021 -1.1271 0.9898
-2.3022 -0.1027 -1.1335 0.9898
-2.3108 -0.3108 -1.1468 0.9897
-2.3142 -0.5243 -1.1671 0.9895
-2.3173 -0.7472 -1.1976 0.9892
-3.5961 -2.3524 -2.1136 0.9810
-3.4632 -2.7348 -2.1705 0.9805
-3.2987 -3.1199 -2.2332 0.9800
-2.8670 -3.8911 -2.3772 0.9787
-2.5955 -4.2727 -2.4589 0.9780
-2.2840 -4.6478 -2.5471 0.9772
-1.9205 -4.9864 -2.6282 0.9765
-1.0761 -5.6136 -2.8114 0.9748
-0.0689 -6.1823 -3.0410 0.9728
0.5010 -6.4115 -3.1631 0.9717
1.1121 -6.5932 -3.2887 0.9706
2.4392 -6.7798 -3.5439 0.9684
3.1403 -6.7672 -3.6694 0.9673
4.5638 -6.4921 -3.9032 0.9652
5.2578 -6.2189 -4.0055 0.9643
5.9182 -5.8526 -4.0939 0.9636
6.5276 -5.3952 -4.1654 0.9630
7.0691 -4.8527 -4.2174 0.9625
8.1461 -2.8286 -4.2414 0.9623
8.2923 -2.0741 -4.2042 0.9626
8.2554 -0.5526 -4.0695 0.9638
8.0833 0.1801 -3.9768 0.9646
7.4824 1.5209 -3.7555 0.9665
7.0789 2.1097 -3.6331 0.9676
6.6243 2.6364 -3.5068 0.9687
4.5471 4.1126 -3.0156 0.9730
4.0026 4.3276 -2.8994 0.9741
3.4643 4.4888 -2.7889 0.9750
1.9288 4.6935 -2.4959 0.9776
-0.2419 4.3385 -2.1372 0.9808
-0.6114 4.1920 -2.0836 0.9813
-0.9594 4.0259 -2.0356 0.9817
-1.2863 3.8420 -1.9928 0.9821
-1.5925 3.6422 -1.9552 0.9824
-2.3907 2.9590 -1.8710 0.9832
-2.6178 2.7068 -1.8521 0.9834
-2.8259 2.4437 -1.8375 0.9835
-3.0151 2.1702 -1.8272 0.9836
-3.4703 1.2923 -1.8214 0.9836
-3.5841 0.9818 -1.8278 0.9836
-2.2658 0.2025 -1.1189 0.9899
-2.2443 -0.2006 -1.1552 0.9899
-2.2416 -0.4038 -1.1677 0.9898
-2.2481 -0.6158 -1.1950 0.9896
-3.5293 -2.0904 -2.1029 0.9817
-3.2659 -2.8242 -2.2135 0.9808
-3.0881 -3.1930 -2.2773 0.9802
-2.8770 -3.5608 -2.3469 0.9796
-2.3476 -4.2837 -2.5043 0.9783
-1.6470 -4.9193 -2.6596 0.9770
-1.2424 -5.2135 -2.7476 0.9762
-0.3215 -5.7653 -2.9603 0.9744
1.3560 -6.3102 -3.3089 0.9714
2.6291 -6.3977 -3.5461 0.9694
4.6092 -5.9723 -3.8676 0.9667
5.2385 -5.6638 -3.9552 0.9659
6.3620 -4.7978 -4.0851 0.9648
7.4987 -2.9844 -4.1376 0.9644
7.6902 -2.2919 -4.1139 0.9646
7.7806 -1.5814 -4.0704 0.9649
7.6658 -0.1708 -3.9310 0.9661
7.2019 1.1325 -3.7376 0.9678
6.8641 1.7168 -3.6274 0.9687
6.4712 2.2471 -3.5119 0.9697
6.0348 2.7191 -3.3934 0.9707
5.5660 3.1314 -3.2741 0.9717
5.0924 3.4957 -3.1666 0.9726
4.5862 3.7906 -3.0504 0.9736
1.6223 4.5093 -2.4568 0.9787
0.7483 4.4361 -2.3064 0.9800
0.3404 4.3563 -2.2401 0.9806
-1.0892 3.8090 -2.0310 0.9823
-1.3964 3.6255 -1.9918 0.9827
-2.2013 2.9877 -1.9025 0.9835
-2.4317 2.7496 -1.8818 0.9836
-2.6435 2.5002 -1.8653 0.9838
-2.8368 2.2402 -1.8531 0.9839
-3.0118 1.9702 -1.8451 0.9840
-3.1684 1.6907 -1.8411 0.9840
-3.4261 1.1048 -1.8455 0.9839
-2.2093 0.2971 -1.1428 0.9900
-2.2319 0.0995 -1.1453 0.9900
-2.2377 -0.0998 -1.1483 0.9900
-2.2673 -0.9614 -1.2625 0.9890
-2.3837 -1.2720 -1.3851 0.9879
-2.9868 -3.3772 -2.3114 0.9799
-2.7584 -3.7437 -2.3840 0.9793
-2.1915 -4.4596 -2.5475 0.9779
-1.8449 -4.7901 -2.6316 0.9772
-0.0656 -5.8834 -3.0164 0.9739
1.6652 -6.3562 -3.3686 0.9709
2.3028 -6.4008 -3.4874 0.9699
3.6234 -6.2760 -3.7153 0.9679
4.2843 -6.0945 -3.8193 0.9671
5.5391 -5.4778 -3.9938 0.9656
6.6037 -4.5332 -4.1065 0.9646
7.7298 -0.5175 -3.9717 0.9658
7.3465 0.8218 -3.7898 0.9673
6.2577 2.4905 -3.4529 0.9702
5.8037 2.9328 -3.3337 0.9712
5.3389 3.3251 -3.2246 0.9721
4.8404 3.6503 -3.1081 0.9731
4.3308 3.9170 -2.9937 0.9741
3.3113 4.2906 -2.7786 0.9759
2.8120 4.4049 -2.6792 0.9768
2.3247 4.4758 -2.5857 0.9776
1.8523 4.5072 -2.4982 0.9783
0.5418 4.3995 -2.2725 0.9803
0.1440 4.3068 -2.2092 0.9808
-0.5910 4.0521 -2.0994 0.9818
-0.9281 3.8946 -2.0525 0.9822
-1.2452 3.7193 -2.0108 0.9825
-1.8204 3.3219 -1.9420 0.9831
-2.0791 3.1022 -1.9146 0.9834
-2.3188 2.8700 -1.8916 0.9836
-2.5399 2.6262 -1.8730 0.9837
-2.7424 2.3715 -1.8587 0.9838
-2.9266 2.1064 -1.8486 0.9839
-3.3687 1.2545 -1.8429 0.9840
-2.2093 0.1974 -1.1372 0.9901
-2.1765 -0.0000 -1.1619 0.9902
-2.1811 -0.1949 -1.1690 0.9901
-2.1789 -0.3926 -1.1819 0.9900
-2.1873 -0.5992 -1.2107 0.9898
-2.2033 -1.0524 -1.3035 0.9890
-2.5316 -3.7774 -2.4276 0.9796
-0.7671 -5.2592 -2.8373 0.9762
-0.3067 -5.4999 -2.9406 0.9753
1.2866 -5.9872 -3.2692 0.9726
1.8763 -6.0486 -3.3808 0.9717
2.4855 -6.0480 -3.4907 0.9708
3.1055 -5.9792 -3.5968 0.9699
4.3358 -5.6180 -3.7884 0.9683
5.4686 -4.9461 -3.9364 0.9671
6.7527 -3.4123 -4.0390 0.9663
7.0248 -2.7958 -4.0362 0.9663
7.2068 -2.1479 -4.0145 0.9665
7.2941 -0.8160 -3.9182 0.9673
7.2040 -0.1605 -3.8468 0.9679
7.0326 0.4708 -3.7627 0.9685
6.4808 1.6210 -3.5663 0.9702
6.1207 2.1254 -3.4589 0.9710
4.8444 3.3255 -3.1369 0.9737
2.9311 4.1696 -2.7209 0.9772
2.4619 4.2642 -2.6285 0.9779
0.3285 4.2041 -2.2512 0.9811
-0.4011 3.9868 -2.1391 0.9820
-0.7373 3.8467 -2.0909 0.9824
-1.3528 3.5125 -2.0094 0.9831
-1.6323 3.3216 -1.9757 0.9834
-1.8932 3.1166 -1.9467 0.9836
-2.1356 2.8985 -1.9220 0.9838
-2.3599 2.6684 -1.9017 0.9840
-3.2110 1.3616 -1.8619 0.9843
-2.4373 0.5522 -1.3341 0.9887
-2.1735 0.0969 -1.1615 0.9902
-2.1765 -0.0971 -1.1631 0.9902
-2.1806 -0.4941 -1.1936 0.9899
-3.3589 -2.1973 -2.1427 0.9820
-2.8792 -3.2556 -2.3202 0.9805
-2.6560 -3.6048 -2.3903 0.9799
-1.7719 -4.6007 -2.6319 0.9779
-1.3889 -4.8574 -2.6970 0.9774
-0.9829 -5.1278 -2.7873 0.9766
-0.5416 -5.3835 -2.8884 0.9758
-0.0625 -5.6076 -2.9938 0.9749
0.4527 -5.7939 -3.1024 0.9740
2.1789 -6.0565 -3.4361 0.9712
4.6323 -5.4791 -3.8303 0.9680
5.2005 -5.1429 -3.9045 0.9674
5.7239 -4.7310 -3.9643 0.9669
6.1893 -4.2487 -4.0077 0.9665
6.5846 -3.7045 -4.0333 0.9663
6.8997 -3.1088 -4.0400 0.9663
7.2632 -1.8166 -3.9968 0.9666
7.3065 -1.1489 -3.9485 0.9670
7.2597 -0.4860 -3.8842 0.9675
6.9190 0.7740 -3.7167 0.9689
5.9242 2.3578 -3.4038 0.9715
4.6089 3.4757 -3.0817 0.9742
4.1309 3.7362 -2.9734 0.9751
3.6491 3.9454 -2.8690 0.9759
3.1690 4.1062 -2.7690 0.9768
2.2314 4.2963 -2.5844 0.9783
1.7804 4.3323 -2.5004 0.9790
0.5227 4.2436 -2.2826 0.9808
0.1390 4.1583 -2.2211 0.9813
-0.2258 4.0494 -2.1651 0.9818
-0.5716 3.9192 -2.1143 0.9822
-0.8983 3.7695 -2.0687 0.9826
-1.7650 3.2208 -1.9606 0.9835
-2.0167 3.0091 -1.9338 0.9837
-2.4652 2.5491 -1.8931 0.9840
-2.8417 2.0453 -1.8691 0.9842
-3.0030 1.7786 -1.8632 0.9843
-3.1462 1.5028 -1.8613 0.9843
-3.2712 1.2182 -1.8635 0.9843
-3.3778 0.9253 -1.8697 0.9842
-2.2057 0.3974 -1.1965 0.9899
-2.1547 0.1926 -1.1549 0.9902
-2.1202 -0.1895 -1.1822 0.9903
-2.1288 -0.5831 -1.2259 0.9900
-2.1317 -0.7938 -1.2633 0.9896
-3.0461 -2.6340 -2.2365 0.9817
-2.6724 -3.3077 -2.3617 0.9807
-1.8677 -4.2716 -2.5893 0.9789
-1.5213 -4.5440 -2.6614 0.9783
-1.1410 -4.7874 -2.7332 0.9777
0.6884 -5.5893 -3.1278 0.9746
1.2229 -5.6907 -3.2327 0.9737
2.9371 -5.6550 -3.5391 0.9713
3.5189 -5.5122 -3.6321 0.9705
4.6353 -5.0116 -3.7915 0.9692
5.6082 -4.2294 -3.9012 0.9684
6.3443 -3.2059 -3.9479 0.9680
6.6002 -2.6268 -3.9454 0.9680
6.8617 -1.3947 -3.8889 0.9685
6.8654 -0.7680 -3.8368 0.9689
6.7879 -0.1513 -3.7709 0.9694
6.4133 1.0084 -3.6057 0.9707
6.1323 1.5338 -3.5108 0.9715
5.4287 2.4460 -3.3070 0.9731
4.6157 3.1685 -3.1094 0.9747
2.8103 3.9977 -2.7140 0.9779
0.3172 4.0597 -2.2616 0.9815
-0.0442 3.9692 -2.2046 0.9820
-0.3880 3.8565 -2.1527 0.9824
-1.3112 3.4044 -2.0262 0.9834
-1.5829 3.2211 -1.9933 0.9837
-2.0727 2.8131 -1.9407 0.9841
-2.6751 2.1125 -1.8931 0.9845
-2.8408 1.8584 -1.8854 0.9846
-3.1192 1.3227 -1.8817 0.9846
-2.4040 0.5446 -1.3690 0.9888
-2.1264 0.2860 -1.1916 0.9902
-2.1192 -0.0945 -1.1782 0.9903
-2.1231 -0.4810 -1.2091 0.9901
-2.1317 -0.6874 -1.2440 0.9898
-2.1353 -0.9054 -1.2881 0.9894
-3.2489 -2.1254 -2.1562 0.9824
-3.1207 -2.4644 -2.2085 0.9820
-2.9641 -2.8034 -2.2659 0.9815
-2.7774 -3.1404 -2.3285 0.9810
-1.3325 -4.6599 -2.6918 0.9781
-0.9411 -4.9097 -2.7765 0.9774
-0.0596 -5.3522 -2.9728 0.9758
1.4991 -5.7220 -3.2852 0.9733
2.0658 -5.7420 -3.3892 0.9725
2.6453 -5.7004 -3.4903 0.9717
4.3658 -5.1639 -3.7556 0.9695
5.8177 -3.9936 -3.9192 0.9682
6.1869 -3.4807 -3.9427 0.9680
6.8282 -1.7079 -3.9092 0.9683
6.7203 0.1498 -3.7334 0.9697
6.5320 0.7307 -3.6505 0.9704
6.2797 1.2764 -3.5590 0.9711
5.9723 1.7799 -3.4612 0.9719
2.1439 4.1277 -2.5833 0.9789
1.2947 4.1737 -2.4270 0.9802
0.5044 4.0959 -2.2920 0.9813
-0.5531 3.7925 -2.1286 0.9826
-0.8699 3.6502 -2.0841 0.9830
-1.1686 3.4904 -2.0443 0.9833
-1.4493 3.3146 -2.0092 0.9836
-1.7120 3.1240 -1.9785 0.9838
-1.9569 2.9199 -1.9522 0.9840
-2.1841 2.7033 -1.9302 0.9842
-2.5857 2.2359 -1.8985 0.9845
-2.9171 1.7278 -1.8830 0.9846
-2.1578 0.3887 -1.2177 0.9900
-2.1018 0.1878 -1.1720 0.9904
-2.0684 -0.1848 -1.1990 0.9905
-2.0727 -0.3734 -1.2160 0.9903
-2.0720 -0.5676 -1.2403 0.9901
-2.0734 -0.7721 -1.2774 0.9898
-2.9442 -2.5459 -2.2472 0.9822
-2.3497 -3.5060 -2.4367 0.9807
-1.7958 -4.1071 -2.5880 0.9795
-1.4646 -4.3744 -2.6634 0.9789
-1.0949 -4.5944 -2.7269 0.9784
0.1737 -5.1963 -3.0018 0.9763
0.6563 -5.3292 -3.1001 0.9755
1.6922 -5.4552 -3.2976 0.9740
2.2345 -5.4374 -3.3940 0.9732
2.7834 -5.3590 -3.4865 0.9725
3.8647 -5.0077 -3.6521 0.9712
4.3764 -4.7317 -3.7212 0.9707
5.2864 -3.9867 -3.8227 0.9699
5.6634 -3.5272 -3.8521 0.9697
5.9761 -3.0199 -3.8658 0.9695
6.2174 -2.4745 -3.8635 0.9696
6.3825 -1.9022 -3.8451 0.9697
6.4691 -1.3149 -3.8113 0.9700
6.4776 -0.7246 -3.7631 0.9703
