ply
format ascii 1.0
element vertex 1587
property float32 x
property float32 y
property float32 z
property float32 I
end_header
9.7731 5.4983 2.9548 0.9547
-7.8039 -10.5915 3.4666 0.9470
1.7694 8.2340 2.2192 0.9658
1.7723 8.2474 2.0735 0.9658
-7.9615 -10.8054 3.0634 0.9464
1.7781 8.2745 1.9317 0.9659
-7.9674 -10.8134 2.8317 0.9466
1.7839 8.3016 1.7901 0.9659
-7.9750 -10.8237 2.6017 0.9467
1.7958 8.3569 1.6541 0.9658
12.8529 4.4630 2.3991 0.9462
1.4244 8.4446 1.2181 0.9660
1.4194 8.4148 1.0694 0.9662
1.4159 8.3942 0.9234 0.9663
6.6738 0.4467 0.6132 0.9735
6.6412 0.7429 0.6127 0.9735
6.3821 1.0035 0.4841 0.9744
6.4806 0.1444 0.4858 0.9743
6.2781 0.7023 0.4734 0.9750
6.1122 0.4092 0.3568 0.9758
6.1287 0.9637 0.3613 0.9754
1.4150 8.3887 0.4955 0.9665
6.2496 0.1393 0.3641 0.9753
6.0770 0.6798 0.3562 0.9758
6.3329 1.2872 0.3764 0.9744
-8.5651 -10.6011 0.5667 0.9469
6.2857 -0.1401 0.2614 0.9751
5.9834 0.4005 0.2493 0.9763
5.9912 0.9421 0.2522 0.9760
-8.5262 -10.5530 0.3383 0.9472
5.8642 0.9221 0.1480 0.9765
-10.5142 9.9443 0.3609 0.9437
-12.9178 6.8932 0.3651 0.9431
-13.4986 5.7239 0.3656 0.9430
6.5274 -0.4370 0.1631 0.9742
5.8340 0.6526 0.1464 0.9768
5.9698 1.2134 0.1519 0.9759
-12.0643 8.6834 0.3707 0.9423
-13.2061 6.3080 0.3650 0.9431
5.7792 0.9087 0.0486 0.9769
6.0728 1.5189 0.0520 0.9753
1.4210 8.4241 0.0710 0.9664
-8.4276 11.4380 0.1181 0.9448
-9.0067 10.1841 0.1130 0.9471
-9.5408 9.0236 0.1091 0.9488
-10.7193 8.4649 0.1135 0.9468
-11.2544 7.3623 0.1118 0.9476
-11.7816 6.2869 0.1110 0.9480
-12.3098 5.2198 0.1111 0.9479
-13.4062 3.0374 0.1143 0.9465
-14.6272 0.6522 0.1217 0.9431
6.3155 -0.4228 0.0526 0.9750
5.7553 0.6438 0.0481 0.9771
5.8683 1.1928 0.0498 0.9763
-8.1132 12.1058 0.1211 0.9434
-8.7261 10.8004 0.1154 0.9460
-10.4457 9.0328 0.1148 0.9463
-10.9884 7.9090 0.1125 0.9473
-12.0450 5.7534 0.1109 0.9480
-12.5771 4.6838 0.1116 0.9477
-13.1240 3.5950 0.1131 0.9470
-13.6959 2.4674 0.1157 0.9459
-8.5128 -10.5363 -0.1126 0.9473
5.7090 0.3822 -0.0476 0.9774
5.6967 0.8958 -0.0479 0.9772
1.4254 8.4506 -0.0712 0.9663
-9.3087 8.8041 -0.1065 0.9500
-10.3388 6.7634 -0.1027 0.9518
-10.8292 5.7787 -0.1020 0.9521
-12.8042 1.7220 -0.1074 0.9496
-13.3409 0.5949 -0.1110 0.9480
-14.5396 -1.9554 -0.1219 0.9430
6.1688 -0.4129 -0.0514 0.9756
5.7843 0.1289 -0.0481 0.9771
5.7702 1.1728 -0.0489 0.9767
6.4623 1.9260 -0.0560 0.9734
-5.9654 13.6433 -0.1238 0.9422
-6.7068 12.2384 -0.1160 0.9457
-10.5853 6.2697 -0.1022 0.9520
-11.0718 5.2886 -0.1020 0.9521
-12.0448 3.2994 -0.1038 0.9513
-12.5462 2.2603 -0.1060 0.9503
-13.0687 1.1678 -0.1090 0.9489
-12.5007 -0.0000 -0.3117 0.9512
-12.9975 -1.1615 -0.3254 0.9491
-13.5298 -2.4375 -0.3428 0.9465
-14.1112 -3.8655 -0.3649 0.9431
6.5788 -0.7359 -0.1651 0.9739
5.6251 0.8845 -0.1420 0.9775
-5.0119 13.0130 -0.3478 0.9457
-7.0236 9.5325 -0.2953 0.9537
-8.5842 8.1189 -0.2947 0.9538
-9.5609 6.2544 -0.2849 0.9553
-10.0193 5.3465 -0.2832 0.9556
-10.4665 4.4382 -0.2835 0.9555
-11.3510 2.5718 -0.2903 0.9545
-11.8001 1.5869 -0.2969 0.9535
-12.2623 0.5468 -0.3061 0.9521
-12.7454 -0.5683 -0.3182 0.9502
-13.8134 -3.1297 -0.3532 0.9449
6.0686 -0.4062 -0.1517 0.9760
5.7111 0.1273 -0.1425 0.9774
-5.4027 12.3563 -0.3363 0.9475
-6.1103 11.1499 -0.3171 0.9504
-8.1504 8.4275 -0.2924 0.9542
-9.3255 6.7121 -0.2865 0.9551
-10.2439 4.8931 -0.2831 0.9556
-10.6878 3.9802 -0.2844 0.9554
-11.1293 3.0486 -0.2878 0.9549
-11.5490 0.0000 -0.4802 0.9548
-12.4056 -2.2350 -0.5241 0.9508
-12.8699 -3.5254 -0.5548 0.9480
5.7664 -0.1285 -0.2398 0.9772
5.5895 0.3742 -0.2329 0.9778
1.4394 8.5332 -0.3598 0.9659
-2.7773 14.4889 -0.6134 0.9426
-5.9186 9.7434 -0.4740 0.9554
-7.9639 7.5322 -0.4558 0.9571
-9.3214 4.9741 -0.4393 0.9586
-9.7368 4.1288 -0.4397 0.9585
-10.5422 2.3885 -0.4494 0.9576
-10.9413 1.4715 -0.4590 0.9568
-12.6339 -2.8624 -0.5386 0.9495
-13.1153 -4.2291 -0.5730 0.9463
6.0606 1.8062 -0.2629 0.9750
-3.2798 13.7628 -0.5883 0.9449
-4.9366 11.2903 -0.5124 0.9519
-5.6109 10.2386 -0.4854 0.9543
-6.2071 9.2617 -0.4636 0.9563
-7.7134 7.9756 -0.4613 0.9566
-9.5307 4.5524 -0.4392 0.9586
-10.3426 2.8331 -0.4459 0.9580
-10.7416 1.9352 -0.4538 0.9572
-11.0885 -0.9909 -0.6484 0.9564
-11.4526 -2.0633 -0.6778 0.9544
-12.2205 -4.5510 -0.7595 0.9491
-12.6372 -6.0363 -0.8157 0.9454
-8.5526 -10.5857 -0.7926 0.9469
6.2540 -0.6996 -0.3665 0.9751
5.5226 0.8684 -0.3256 0.9778
-1.4568 14.4809 -0.8477 0.9434
-2.5170 13.1308 -0.7787 0.9478
-3.4160 11.9465 -0.7237 0.9514
-4.8745 9.9193 -0.6437 0.9567
-6.0162 8.1652 -0.5907 0.9602
-7.4265 7.0240 -0.5954 0.9599
-7.8812 6.2237 -0.5849 0.9606
-8.3085 5.4352 -0.5783 0.9610
-10.9092 -0.4865 -0.6360 0.9572
-11.2695 -1.5156 -0.6623 0.9555
-12.0217 -3.8765 -0.7357 0.9506
-12.4253 -5.2688 -0.7861 0.9474
-12.7738 -6.8163 -0.8433 0.9436
-2.0100 13.7819 -0.8112 0.9457
-3.8177 11.4029 -0.7004 0.9530
-4.5441 10.3925 -0.6606 0.9556
-5.1853 9.4620 -0.6284 0.9577
-5.7532 8.5844 -0.6019 0.9594
-6.2679 7.7579 -0.5809 0.9608
-7.1870 7.4313 -0.6021 0.9594
-7.6577 6.6218 -0.5896 0.9602
-10.0197 1.8051 -0.5930 0.9600
-10.3759 0.9272 -0.6067 0.9591
-10.0198 0.0000 -0.7509 0.9606
-10.6342 -1.9158 -0.8097 0.9576
-11.2501 -4.1896 -0.8996 0.9530
-11.5659 -5.5246 -0.9605 0.9499
-8.5975 -10.6412 -1.0252 0.9466
6.1803 -0.6914 -0.4660 0.9754
5.6469 1.4124 -0.4362 0.9769
-2.3009 12.0036 -0.9159 0.9522
-3.1418 10.9875 -0.8564 0.9552
-5.0957 8.3887 -0.7355 0.9614
-5.6128 7.6178 -0.7091 0.9628
-6.9562 6.5792 -0.7175 0.9623
-7.3904 5.8361 -0.7057 0.9629
-8.5428 3.6225 -0.6954 0.9635
-8.8902 2.8667 -0.7000 0.9632
-9.2245 2.0900 -0.7088 0.9628
-9.5483 1.2841 -0.7220 0.9621
-9.8641 0.4398 -0.7399 0.9612
-10.1743 -0.4537 -0.7632 0.9600
-10.4812 -1.4096 -0.7925 0.9585
-11.0948 -3.5776 -0.8736 0.9543
-11.4070 -4.8370 -0.9285 0.9515
-11.7273 -6.2579 -0.9961 0.9481
-11.6694 -9.2152 -1.1143 0.9421
5.8489 -0.3915 -0.4393 0.9768
5.5650 0.1240 -0.4171 0.9779
-1.8309 12.5538 -0.9507 0.9504
-4.2087 9.6256 -0.7873 0.9587
-4.8168 8.7896 -0.7511 0.9606
-5.3605 7.9984 -0.7216 0.9621
-7.1771 6.2063 -0.7111 0.9627
-7.9906 4.7328 -0.6960 0.9634
-8.7183 3.2467 -0.6972 0.9634
-9.3875 1.6912 -0.7148 0.9625
-9.6636 -0.8635 -0.8895 0.9618
-9.9232 -1.7877 -0.9244 0.9603
-10.6600 -5.0918 -1.0830 0.9537
-10.6611 -9.2190 -1.2921 0.9450
6.1081 -0.6833 -0.5635 0.9756
5.6252 -0.1254 -0.5158 0.9777
5.4670 0.3660 -0.5023 0.9782
5.4471 0.8565 -0.5055 0.9781
-1.2092 12.0202 -1.1075 0.9526
-2.9078 10.1692 -0.9696 0.9584
-3.6017 9.3516 -0.9187 0.9605
-4.7634 7.8416 -0.8411 0.9638
-5.4599 7.4103 -0.8438 0.9637
-6.0930 6.8894 -0.8432 0.9637
-6.5410 6.1864 -0.8254 0.9645
-7.7057 4.1119 -0.8007 0.9655
-8.6801 1.9667 -0.8159 0.9649
-9.5307 -0.4250 -0.8746 0.9624
-10.0501 -2.2771 -0.9447 0.9595
-10.2987 -3.3209 -0.9920 0.9575
-10.5471 -8.3289 -1.2321 0.9474
-10.7582 -10.1751 -1.3575 0.9423
5.7973 -0.3881 -0.5327 0.9769
5.5245 0.1231 -0.5066 0.9780
5.4402 0.6086 -0.5019 0.9783
5.5030 1.1185 -0.5148 0.9777
0.4577 13.6904 -1.2558 0.9465
-3.9179 8.9605 -0.8966 0.9615
-4.4965 8.2051 -0.8578 0.9631
-5.0172 7.4861 -0.8262 0.9644
-7.8791 3.7636 -0.8005 0.9655
-4.9080 0.8842 -0.4572 0.9802
-9.2996 -1.6754 -1.0249 0.9627
-9.8834 -4.7209 -1.1880 0.9569
-10.1925 -7.3361 -1.3621 0.9507
-9.6816 -8.3720 -1.3883 0.9498
6.0393 -0.6756 -0.6591 0.9758
1.0146 12.9843 -1.4126 0.9489
-0.1336 11.9901 -1.3006 0.9529
-1.1142 11.0754 -1.2074 0.9562
-2.7057 9.4623 -1.0675 0.9612
-3.3627 8.7312 -1.0148 0.9631
-3.9463 8.0304 -0.9705 0.9646
-5.7418 6.4923 -0.9401 0.9657
-6.1715 5.8369 -0.9214 0.9664
-6.5688 5.1874 -0.9079 0.9669
-7.2827 3.8862 -0.8954 0.9673
-4.7637 1.0793 -0.5298 0.9805
-3.7517 0.5045 -0.4106 0.9849
-9.1904 -1.2360 -1.0058 0.9634
-9.4055 -2.1310 -1.0460 0.9619
-9.7952 -4.1535 -1.1540 0.9581
-9.9676 -5.3189 -1.2254 0.9556
-10.1226 -6.6219 -1.3120 0.9525
-9.7614 -11.0373 -1.5982 0.9424
5.7602 -0.3856 -0.6262 0.9770
5.5019 0.1226 -0.5969 0.9781
5.4738 1.1126 -0.6059 0.9778
1.0592 8.5999 -0.9398 0.9657
0.4173 12.4830 -1.3547 0.9510
-0.6424 11.5217 -1.2517 0.9546
-3.0442 9.0926 -1.0401 0.9622
-3.6625 8.3765 -0.9916 0.9639
-4.2153 7.6920 -0.9514 0.9653
-4.8053 7.1700 -0.9362 0.9659
-5.5132 6.8238 -0.9515 0.9653
-6.7567 4.8632 -0.9030 0.9671
-7.7596 2.8897 -0.8981 0.9672
-8.0541 2.2062 -0.9058 0.9670
-3.9948 0.7197 -0.4403 0.9838
-3.7414 0.3343 -0.4074 0.9850
-3.5692 -0.0000 -0.4473 0.9857
-8.7479 -1.5760 -1.1139 0.9648
-9.0758 -3.3799 -1.2137 0.9617
-9.2101 -4.3993 -1.2791 0.9597
-9.3738 -8.1058 -1.5530 0.9513
-8.8561 -10.9613 -1.7659 0.9448
5.5761 -0.1243 -0.6990 0.9778
5.4200 0.3628 -0.6807 0.9783
5.5415 1.3860 -0.7158 0.9772
2.1633 12.8251 -1.6299 0.9489
0.9286 11.8835 -1.4937 0.9531
-0.1231 11.0513 -1.3850 0.9564
-1.8276 9.5342 -1.2165 0.9616
-2.5292 8.8453 -1.1529 0.9636
-3.1517 8.1833 -1.0989 0.9653
-3.7088 7.5473 -1.0538 0.9667
-5.8403 5.5237 -1.0074 0.9681
-6.2212 4.9129 -0.9934 0.9685
-6.5742 4.3007 -0.9845 0.9688
-6.9024 3.6832 -0.9804 0.9690
-7.2081 3.0565 -0.9811 0.9689
-7.4934 2.4163 -0.9867 0.9688
-8.6547 -1.1639 -1.0943 0.9654
-9.0009 -2.9024 -1.1851 0.9626
-9.1457 -3.8781 -1.2449 0.9607
-9.2687 -4.9459 -1.3165 0.9585
-9.4338 -7.4498 -1.5064 0.9527
-8.8814 -8.4000 -1.5319 0.9519
5.4794 0.1221 -0.6868 0.9781
5.3897 0.6029 -0.6796 0.9784
5.4449 1.1067 -0.6963 0.9779
-0.5939 10.6511 -1.3368 0.9579
-1.4430 9.8940 -1.2530 0.9605
-2.1889 9.1850 -1.1833 0.9627
-2.8496 8.5113 -1.1248 0.9645
-3.4377 7.8622 -1.0753 0.9660
-4.7394 7.0717 -1.0668 0.9663
-5.2082 6.4463 -1.0385 0.9671
-6.4010 4.6072 -0.9883 0.9687
-6.7412 3.9929 -0.9819 0.9689
-7.0579 3.3713 -0.9802 0.9690
-3.8076 0.6860 -0.4848 0.9845
-3.5366 0.3160 -0.4450 0.9858
-3.3944 0.0000 -0.4828 0.9864
-8.2560 -1.4874 -1.1932 0.9667
-8.7232 -7.5433 -1.6403 0.9545
-8.2655 -8.5465 -1.6911 0.9531
-8.0384 -9.9493 -1.8193 0.9496
-7.8622 -11.7312 -2.0087 0.9445
5.9860 -0.6696 -0.8567 0.9760
5.5538 -0.1238 -0.7901 0.9778
5.3751 0.8452 -0.7739 0.9783
5.5257 1.3821 -0.8102 0.9772
1.9794 11.7350 -1.6927 0.9531
0.8557 10.9512 -1.5624 0.9566
-0.1142 10.2466 -1.4575 0.9594
-0.9622 9.5638 -1.3672 0.9619
-4.2085 6.9281 -1.1530 0.9678
-4.7138 6.3976 -1.1303 0.9684
-5.1452 5.8178 -1.1047 0.9691
-5.9074 4.6650 -1.0706 0.9700
-6.2454 4.0856 -1.0615 0.9703
-6.5585 3.4997 -1.0573 0.9704
-3.3671 0.4528 -0.4832 0.9864
-3.3610 0.1499 -0.4785 0.9865
-3.6292 -0.4881 -0.5209 0.9853
-8.3308 -1.8875 -1.2150 0.9661
-7.6723 -12.6303 -2.1020 0.9420
5.7127 -0.3824 -0.8144 0.9771
5.4569 0.1216 -0.7764 0.9782
5.3646 0.6001 -0.7678 0.9784
0.3538 10.5815 -1.5059 0.9581
-0.5520 9.9000 -1.4103 0.9607
-1.3472 9.2371 -1.3277 0.9630
-2.0508 8.6056 -1.2583 0.9649
-4.9342 6.1071 -1.1167 0.9688
-5.3476 5.5293 -1.0941 0.9694
-6.0796 4.3759 -1.0654 0.9702
-6.4049 3.7936 -1.0588 0.9704
-6.7063 3.2033 -1.0571 0.9704
-7.2448 1.9846 -1.0684 0.9701
-3.3525 0.2996 -0.4787 0.9865
-3.3916 -0.3031 -0.5422 0.9863
-7.8145 -1.4079 -1.2644 0.9684
-7.9349 -2.1736 -1.3101 0.9672
-8.0308 -2.9907 -1.3646 0.9659
-8.0993 -3.8687 -1.4293 0.9643
-8.1365 -4.8193 -1.5058 0.9624
-8.0946 -6.9996 -1.7040 0.9576
5.9595 -0.6667 -0.9549 0.9760
5.3856 0.3605 -0.8595 0.9784
5.3676 0.8440 -0.8652 0.9782
6.1904 2.1495 -1.0435 0.9738
4.7048 13.0772 -2.2130 0.9453
3.2147 12.2705 -2.0199 0.9499
1.8237 10.8117 -1.7459 0.9566
-0.1063 9.5444 -1.5199 0.9621
-0.9001 8.9471 -1.4319 0.9642
-2.7980 7.2648 -1.2397 0.9690
-3.3083 6.7323 -1.1945 0.9701
-4.0213 6.6201 -1.2334 0.9691
-4.8895 5.5286 -1.1753 0.9705
-5.2710 4.9852 -1.1553 0.9710
-6.2458 3.3328 -1.1273 0.9717
-6.7765 2.1851 -1.1338 0.9716
-3.9744 0.9005 -0.6489 0.9836
-3.2540 0.4376 -0.5228 0.9868
-7.8776 -1.7848 -1.2862 0.9678
-7.9860 -2.5751 -1.3361 0.9666
-8.1221 -4.3341 -1.4659 0.9634
-8.0541 -7.6175 -1.7652 0.9561
-7.7553 -8.7691 -1.8641 0.9537
-6.9813 -11.4928 -2.1412 0.9470
-6.4579 -13.1415 -2.3316 0.9424
5.6891 -0.3808 -0.9079 0.9772
5.4170 1.1010 -0.8802 0.9779
5.6993 1.6986 -0.9470 0.9762
2.3976 11.1576 -1.8173 0.9548
1.0548 8.5645 -1.3741 0.9657
-0.5154 9.2432 -1.4741 0.9632
-1.9275 8.0880 -1.3240 0.9669
-2.5230 7.5358 -1.2654 0.9683
-3.0594 6.9969 -1.2160 0.9695
-5.0842 5.2570 -1.1646 0.9708
-5.4502 4.7130 -1.1474 0.9712
-5.7877 4.1657 -1.1355 0.9715
-6.0991 3.6125 -1.1288 0.9717
-6.3867 3.0507 -1.1270 0.9717
-6.6518 2.4772 -1.1303 0.9717
-3.2454 0.2900 -0.5188 0.9869
-3.1939 -0.0000 -0.5632 0.9871
-3.2817 -0.2933 -0.5809 0.9867
-7.2273 -8.9453 -2.0278 0.9544
-5.8430 -13.3633 -2.5717 0.9425
5.3601 0.8428 -0.9568 0.9782
5.8648 12.6384 -2.4567 0.9450
2.9605 11.3001 -2.0598 0.9537
0.7397 9.4669 -1.6744 0.9622
-0.0994 8.9264 -1.5741 0.9644
-1.5107 7.8814 -1.4150 0.9679
-3.2551 6.6239 -1.3014 0.9705
-4.6568 5.2655 -1.2395 0.9719
-5.3623 4.2345 -1.2048 0.9726
-5.6736 3.7115 -1.1954 0.9728
-5.9601 3.1804 -1.1912 0.9729
-3.1779 0.4274 -0.5654 0.9871
-3.1644 0.1411 -0.5585 0.9872
-3.2276 -0.1439 -0.5697 0.9870
-7.4692 -1.6923 -1.3504 0.9694
-7.5568 -2.4367 -1.4000 0.9683
-7.6167 -3.2298 -1.4588 0.9670
-7.5901 -5.9938 -1.7053 0.9615
-7.3333 -8.2918 -1.9518 0.9560
-5.9403 -12.0881 -2.3749 0.9468
5.4389 0.1212 -0.9593 0.9781
5.3491 0.5984 -0.9491 0.9784
5.4076 1.0991 -0.9730 0.9778
5.6844 1.6941 -1.0459 0.9762
5.0510 12.2910 -2.3431 0.9475
3.6053 11.6225 -2.1457 0.9518
1.0549 8.5654 -1.5217 0.9656
-0.4829 8.6608 -1.5295 0.9654
-1.1869 8.1384 -1.4502 0.9671
-2.3852 7.1242 -1.3247 0.9699
-4.4612 5.5217 -1.2517 0.9716
-4.8443 5.0090 -1.2287 0.9721
-5.1967 4.4938 -1.2114 0.9725
-5.8198 3.4471 -1.1927 0.9729
-6.0946 2.9111 -1.1909 0.9729
-6.3469 2.3636 -1.1942 0.9729
-4.2904 1.1753 -0.7844 0.9821
-3.1509 0.2816 -0.5578 0.9872
-3.1015 -0.0000 -0.6002 0.9874
-3.3117 -0.5966 -0.6512 0.9864
-7.2193 -3.4484 -1.5483 0.9679
-7.1622 -5.1550 -1.7077 0.9647
-7.0675 -6.1115 -1.8081 0.9626
-6.7024 -8.2956 -2.0638 0.9575
-5.4550 -12.4759 -2.6350 0.9460
5.9724 -0.6681 -1.1630 0.9758
5.5335 -0.1233 -1.0711 0.9777
5.3741 0.3598 -1.0423 0.9783
5.3526 0.8417 -1.0486 0.9782
5.4961 1.3747 -1.0964 0.9772
6.2470 2.1692 -1.2797 0.9734
6.9817 12.0927 -2.7022 0.9447
0.6919 8.8542 -1.7187 0.9645
-0.0934 8.3800 -1.6218 0.9664
-1.9967 6.9828 -1.4054 0.9708
-2.5209 6.5453 -1.3573 0.9718
-3.1801 6.4713 -1.3953 0.9711
-3.6386 5.9900 -1.3563 0.9718
-4.4441 5.0250 -1.2982 0.9730
-5.1239 4.0463 -1.2635 0.9738
-5.4232 3.5477 -1.2541 0.9739
-6.1790 1.9925 -1.2564 0.9739
-3.6833 0.8345 -0.7308 0.9847
-3.1048 0.4176 -0.6062 0.9873
-3.0751 0.1371 -0.5957 0.9875
-3.1273 -0.1394 -0.6058 0.9873
-3.2339 -0.4349 -0.6315 0.9868
-7.0989 -1.6084 -1.4086 0.9708
-7.1691 -2.3117 -1.4577 0.9698
-7.2105 -3.0575 -1.5156 0.9686
-7.1917 -4.7046 -1.6631 0.9656
-7.0002 -6.6207 -1.8646 0.9615
-6.8192 -7.7106 -1.9920 0.9589
-5.7668 -11.7351 -2.5303 0.9481
5.6911 -0.3810 -1.1038 0.9770
5.4352 0.1211 -1.0521 0.9781
5.6906 1.6960 -1.1491 0.9761
7.8963 12.3693 -2.8399 0.9420
6.1377 11.8172 -2.5769 0.9472
4.6319 11.2710 -2.3581 0.9516
2.1399 9.9584 -1.9711 0.9594
1.0563 8.5764 -1.6722 0.9654
-0.4541 8.1444 -1.5785 0.9673
-1.7190 7.2131 -1.4350 0.9702
-3.4145 6.2306 -1.3749 0.9715
-4.9644 4.2929 -1.2701 0.9736
-5.2767 3.7979 -1.2581 0.9739
-3.0639 0.2738 -0.5953 0.9875
-3.0211 -0.0000 -0.6369 0.9877
-3.0994 -0.2770 -0.6560 0.9874
-3.2303 -0.5820 -0.6920 0.9867
-6.8341 -2.5450 -1.5374 0.9706
-6.7537 -4.8610 -1.7543 0.9666
-6.6421 -5.7437 -1.8512 0.9647
-6.2458 -7.7305 -2.0952 0.9602
-5.5356 -10.1011 -2.4283 0.9540
-5.0151 -11.4699 -2.6391 0.9501
-4.2557 -12.7113 -2.8260 0.9467
5.9852 -0.6696 -1.2697 0.9757
5.5326 -0.1233 -1.1667 0.9776
5.3683 0.3594 -1.1343 0.9782
5.3543 0.8419 -1.1427 0.9781
5.5086 1.3778 -1.1971 0.9771
6.3719 11.0365 -2.6867 0.9492
4.9269 10.6171 -2.4676 0.9533
3.6642 10.1848 -2.2819 0.9567
2.5530 9.7447 -2.1237 0.9597
0.6495 8.3121 -1.7577 0.9665
-0.0879 7.8934 -1.6642 0.9682
-0.7517 7.4726 -1.5833 0.9698
-1.3515 7.0509 -1.5135 0.9711
-4.2487 4.8041 -1.3521 0.9741
-4.9044 3.8730 -1.3175 0.9748
-5.1926 3.3968 -1.3081 0.9750
-3.5520 0.8048 -0.7678 0.9852
-2.9940 0.1335 -0.6318 0.9878
-6.7616 -1.5320 -1.4616 0.9721
-6.8172 -2.1983 -1.5101 0.9711
-6.7917 -4.4429 -1.7110 0.9674
-6.7042 -5.2942 -1.8009 0.9657
-5.2925 -10.7699 -2.5299 0.9521
-4.6255 -12.0098 -2.7132 0.9487
5.3377 0.5971 -1.1323 0.9783
7.1747 11.2389 -2.8110 0.9470
2.0464 9.5229 -2.0534 0.9610
0.2709 8.1031 -1.7092 0.9674
-0.4284 7.6831 -1.6223 0.9690
-1.0591 7.2619 -1.5471 0.9704
-1.6300 6.8398 -1.4823 0.9717
-3.6787 5.4890 -1.3930 0.9733
-4.0667 5.0334 -1.3642 0.9739
-4.4232 4.5735 -1.3413 0.9743
-5.3274 3.1555 -1.3054 0.9750
-5.8092 2.1634 -1.3069 0.9750
-4.0001 1.0957 -0.8744 0.9832
-3.2435 0.5843 -0.6948 0.9866
-2.9810 0.2664 -0.6309 0.9878
-2.9710 -0.0000 -0.6781 0.9879
-3.1642 -0.5701 -0.7338 0.9869
-6.5066 -2.4231 -1.5847 0.9719
-6.5036 -3.1065 -1.6450 0.9709
-6.4652 -3.8294 -1.7151 0.9696
-6.3869 -4.5970 -1.7961 0.9682
-6.2626 -5.4154 -1.8897 0.9666
-6.0850 -6.2918 -1.9978 0.9647
-5.8449 -7.2343 -2.1228 0.9626
-4.6181 -10.5618 -2.6310 0.9538
-3.9004 -11.6500 -2.8041 0.9508
5.5437 -0.1235 -1.2656 0.9775
5.3655 0.8437 -1.2397 0.9780
5.5212 1.3809 -1.2990 0.9769
4.5586 9.8235 -2.4718 0.9565
3.4095 9.4768 -2.2987 0.9595
2.3870 9.1112 -2.1498 0.9621
1.4308 8.4827 -1.9635 0.9653
0.6118 7.8291 -1.7924 0.9683
-0.0831 7.4572 -1.7022 0.9699
-1.2834 6.6957 -1.5561 0.9724
-4.3986 4.1602 -1.3819 0.9755
-4.7016 3.7128 -1.3674 0.9757
-4.9793 3.2573 -1.3581 0.9759
-5.2331 2.7925 -1.3538 0.9760
-5.6724 1.8291 -1.3603 0.9758
-3.4289 0.7769 -0.8025 0.9857
-2.9994 -0.1337 -0.6853 0.9878
-6.4891 -3.4627 -1.6788 0.9703
-6.4314 -4.2072 -1.7541 0.9690
-5.9734 -6.7542 -2.0580 0.9637
-4.8877 -9.9461 -2.5294 0.9555
-2.6440 -13.7933 -3.2056 0.9440
5.4418 0.1213 -1.2424 0.9779
5.3494 0.5984 -1.2286 0.9782
5.7249 1.7062 -1.3635 0.9758
8.1448 10.5535 -3.0427 0.9468
6.5700 10.2918 -2.7869 0.9511
5.1875 9.9877 -2.5688 0.9549
3.9669 9.6529 -2.3820 0.9581
2.8836 9.2960 -2.2215 0.9609
1.9174 8.9230 -2.0831 0.9632
-1.0045 6.8875 -1.5887 0.9718
-2.1814 6.5155 -1.5682 0.9722
-3.5182 5.2495 -1.4424 0.9744
-4.2371 4.3811 -1.3911 0.9753
-4.5534 3.9374 -1.3740 0.9756
-5.1091 3.0261 -1.3553 0.9759
-5.5709 2.0746 -1.3568 0.9759
-3.8725 1.0608 -0.9164 0.9837
-2.9277 0.2616 -0.6709 0.9880
-2.9882 -0.2670 -0.7374 0.9877
-6.1889 -1.6953 -1.5773 0.9739
-6.1441 -3.6392 -1.7553 0.9710
-5.7358 -5.9308 -2.0280 0.9666
-5.1733 -7.7191 -2.2840 0.9624
-4.2753 -9.7779 -2.6231 0.9570
-2.8387 -11.9118 -3.0099 0.9508
-1.9283 -13.2216 -3.2842 0.9465
5.3928 0.3610 -1.3285 0.9780
5.3769 0.8455 -1.3379 0.9778
5.5339 1.3841 -1.4021 0.9768
9.8913 9.7817 -3.4194 0.9443
8.2175 9.7197 -3.1285 0.9489
4.2393 9.1355 -2.4755 0.9594
3.1863 8.8565 -2.3135 0.9620
0.5942 7.6040 -1.8748 0.9691
-1.2785 6.6700 -1.6693 0.9724
-3.5549 4.8247 -1.4731 0.9756
-3.9019 4.4120 -1.4477 0.9760
-4.2209 3.9921 -1.4280 0.9764
-4.5136 3.5643 -1.4136 0.9766
-4.7814 3.1279 -1.4044 0.9767
-5.2473 2.2250 -1.4009 0.9768
-5.4467 1.7563 -1.4067 0.9767
-2.8978 0.1292 -0.7130 0.9881
-2.9494 -0.1315 -0.7257 0.9879
-3.1571 -0.7153 -0.7957 0.9868
-6.2016 -1.9998 -1.6016 0.9735
-6.1051 -3.9938 -1.7932 0.9704
-5.9946 -4.7339 -1.8775 0.9690
-5.3411 -7.2490 -2.2132 0.9636
-3.9659 -10.2973 -2.7123 0.9556
-3.2301 -11.2962 -2.8879 0.9528
-2.4060 -12.5517 -3.1414 0.9487
-1.3998 -13.9146 -3.4375 0.9440
5.4281 1.1033 -1.3615 0.9774
9.0288 9.7619 -3.2684 0.9467
6.0558 9.4862 -2.7663 0.9547
4.8109 9.2627 -2.5655 0.9579
3.6985 8.9997 -2.3916 0.9607
2.7008 8.7067 -2.2407 0.9631
1.8030 8.3904 -2.1094 0.9653
0.9791 7.9497 -1.9688 0.9675
0.2460 7.3576 -1.8095 0.9701
-0.3911 7.0149 -1.7269 0.9715
-0.9861 6.7612 -1.6795 0.9722
-1.5727 6.5993 -1.6675 0.9724
-2.5482 5.8280 -1.5635 0.9741
-3.3701 5.0286 -1.4879 0.9754
-4.3704 3.7792 -1.4202 0.9765
-4.6505 3.3472 -1.4084 0.9767
-4.9065 2.9061 -1.4017 0.9768
-3.8036 1.0419 -0.9694 0.9839
-3.0843 0.5557 -0.7703 0.9872
-2.8744 -0.0000 -0.7574 0.9882
-5.9224 -1.6223 -1.6180 0.9749
-5.9314 -2.2089 -1.6678 0.9742
-5.9088 -2.8224 -1.7255 0.9733
-5.7544 -4.1418 -1.8682 0.9711
-5.6135 -4.8542 -1.9555 0.9698
-5.1729 -6.4026 -2.1689 0.9665
-4.4628 -8.1436 -2.4469 0.9623
-0.7394 -13.2595 -3.4993 0.9465
5.4059 0.3619 -1.4276 0.9778
5.3886 0.8473 -1.4373 0.9777
5.5729 1.3939 -1.5137 0.9765
10.6440 8.7975 -3.6387 0.9445
7.5442 8.9233 -3.0790 0.9528
6.2232 8.8527 -2.8514 0.9562
5.0333 8.7180 -2.6526 0.9592
3.9597 8.5329 -2.4787 0.9618
2.1095 8.0520 -2.1933 0.9662
1.3108 7.7708 -2.0765 0.9679
0.5837 7.4695 -1.9742 0.9695
-1.2416 6.4775 -1.7379 0.9731
-2.6503 5.3932 -1.5834 0.9754
-3.4115 4.6301 -1.5155 0.9765
-4.0557 3.8358 -1.4709 0.9772
-4.5973 3.0074 -1.4476 0.9775
-4.8327 2.5788 -1.4434 0.9776
-5.0456 2.1395 -1.4441 0.9776
-3.2212 0.7298 -0.8703 0.9864
-2.9836 -0.4013 -0.7933 0.9876
-3.0953 -0.7013 -0.8363 0.9870
-5.8080 -3.7994 -1.8288 0.9717
-5.5245 -5.2251 -2.0037 0.9690
-4.2326 -8.6130 -2.5288 0.9611
-3.6931 -9.5888 -2.7076 0.9584
-2.2063 -11.5103 -3.0882 0.9527
5.4494 1.1076 -1.4653 0.9773
11.5264 8.6925 -3.8041 0.9420
8.2588 8.9293 -3.2050 0.9509
5.6129 8.7924 -2.7486 0.9578
3.4623 8.4249 -2.4001 0.9630
2.5386 8.1836 -2.2577 0.9652
1.7007 7.9142 -2.1330 0.9671
0.2445 7.3124 -1.9279 0.9702
-0.9699 6.6503 -1.7709 0.9726
-1.5019 6.3023 -1.7072 0.9736
-1.9904 5.9450 -1.6520 0.9744
-2.4394 5.5792 -1.6045 0.9751
-2.8526 5.2053 -1.5641 0.9757
-3.5829 4.4346 -1.5022 0.9767
-4.4709 3.2179 -1.4515 0.9775
-4.9420 2.3606 -1.4431 0.9776
-5.1438 1.9156 -1.4463 0.9776
-3.7365 1.0235 -1.0208 0.9841
-3.0018 0.5408 -0.8037 0.9875
-2.8347 0.2533 -0.7499 0.9883
-2.9786 -0.5366 -0.8515 0.9875
-5.6759 -1.5548 -1.6558 0.9758
-5.6772 -2.1142 -1.7045 0.9751
-5.6472 -2.6974 -1.7608 0.9743
-5.4796 -3.9440 -1.8995 0.9723
-5.3335 -4.6121 -1.9839 0.9711
-5.1386 -5.3133 -2.0797 0.9698
-4.5745 -6.8257 -2.3119 0.9664
-3.7167 -8.5002 -2.6102 0.9622
-3.1177 -9.3122 -2.7630 0.9600
-2.4177 -10.1452 -2.9343 0.9576
-1.6199 -11.1071 -3.1581 0.9544
-0.6751 -12.1064 -3.4115 0.9509
0.4393 -13.1398 -3.6990 0.9468
5.4233 0.8528 -1.5446 0.9774
5.6166 1.4048 -1.6289 0.9762
11.2532 7.7249 -3.8404 0.9449
5.7808 8.2233 -2.8281 0.9591
2.8133 7.8198 -2.3382 0.9661
1.9922 7.6043 -2.2117 0.9679
1.2416 7.3605 -2.1002 0.9695
-0.0758 6.8073 -1.9154 0.9721
-1.1863 6.1888 -1.7730 0.9742
-1.6758 5.8607 -1.7150 0.9750
-2.1267 5.5219 -1.6649 0.9757
-2.5422 5.1733 -1.6218 0.9763
-2.9253 4.8156 -1.5853 0.9769
-3.2782 4.4492 -1.5549 0.9773
-3.9016 3.6901 -1.5110 0.9779
-4.4253 2.8949 -1.4878 0.9783
-4.6524 2.4826 -1.4837 0.9783
-5.0404 1.6253 -1.4900 0.9782
-2.7751 0.3732 -0.7878 0.9884
-2.8062 0.1251 -0.7903 0.9884
-2.8531 -0.1272 -0.8035 0.9882
-2.9298 -0.3940 -0.8317 0.9878
-3.0353 -0.6877 -0.8756 0.9872
-3.2049 -1.0334 -0.9474 0.9861
-5.6663 -2.4027 -1.7317 0.9747
-5.6195 -2.9986 -1.7921 0.9739
-5.4123 -4.2740 -1.9403 0.9718
-5.0209 -5.6772 -2.1324 0.9690
-4.7399 -6.4331 -2.2482 0.9673
-3.4454 -8.9459 -2.6972 0.9609
-2.0359 -10.6213 -3.0428 0.9561
-1.1672 -11.6023 -3.2808 0.9527
5.8173 -0.3894 -1.6404 0.9761
5.4042 0.6045 -1.5300 0.9777
5.4863 1.1151 -1.5752 0.9770
5.9015 1.7588 -1.7326 0.9747
7.6046 8.2220 -3.1511 0.9545
6.3607 8.2418 -2.9292 0.9577
4.1943 8.0755 -2.5603 0.9629
3.2527 7.9150 -2.4076 0.9651
0.8904 7.2296 -2.0495 0.9702
-1.9059 5.6925 -1.6890 0.9754
-2.7377 4.9956 -1.6028 0.9766
-3.1053 4.6335 -1.5694 0.9771
-3.4440 4.2627 -1.5419 0.9775
-3.7555 3.8832 -1.5199 0.9778
-4.5417 2.6901 -1.4852 0.9783
-4.7576 2.2726 -1.4835 0.9783
-4.9516 1.8440 -1.4866 0.9783
-2.9229 0.5266 -0.8356 0.9877
-2.7824 0.0000 -0.8330 0.9884
-2.8308 -0.2530 -0.8509 0.9882
-2.9224 -0.5265 -0.8890 0.9877
-3.0126 -0.8252 -0.9351 0.9870
-5.4056 -2.5821 -1.7935 0.9753
-5.3354 -3.1602 -1.8565 0.9744
-5.2276 -3.7626 -1.9283 0.9735
-5.0779 -4.3910 -2.0098 0.9724
-4.6311 -5.7320 -2.2062 0.9697
-4.3210 -6.4474 -2.3236 0.9681
-3.9425 -7.1941 -2.4560 0.9663
-2.9286 -8.7472 -2.7616 0.9622
-1.4987 -10.2757 -3.1089 0.9576
0.4013 -12.0018 -3.5951 0.9511
1.5838 -12.8596 -3.8790 0.9473
5.6689 -0.1263 -1.6976 0.9766
5.6629 1.4164 -1.7476 0.9759
10.2539 7.0389 -3.7235 0.9494
7.6365 7.5519 -3.2153 0.9561
6.4697 7.6524 -3.0000 0.9590
1.8864 7.2002 -2.2283 0.9694
1.1787 6.9881 -2.1216 0.9708
-0.0723 6.4917 -1.9436 0.9733
-2.4417 4.9688 -1.6575 0.9771
-4.0225 3.1766 -1.5345 0.9788
-4.2643 2.7896 -1.5255 0.9789
-4.6810 1.9849 -1.5222 0.9790
-3.0564 0.6925 -0.9382 0.9870
-2.8771 -0.3869 -0.8691 0.9880
-2.9771 -0.6745 -0.9139 0.9873
-3.1092 -1.0026 -0.9780 0.9865
-5.4278 -2.3016 -1.7650 0.9757
-4.9857 -4.7154 -2.0545 0.9718
-4.4841 -6.0859 -2.2631 0.9689
-2.5897 -9.0567 -2.8201 0.9614
-1.8887 -9.8532 -3.0036 0.9590
-1.0767 -10.7025 -3.2203 0.9561
0.9716 -12.4334 -3.7337 0.9493
2.2399 -13.2788 -4.0316 0.9453
5.5402 0.1235 -1.6590 0.9771
12.4573 6.2950 -4.1786 0.9434
10.9668 6.8302 -3.8680 0.9475
9.5640 7.2125 -3.5862 0.9512
8.2552 7.4663 -3.3323 0.9546
5.9206 7.6716 -2.9012 0.9603
3.0654 7.4592 -2.4144 0.9669
2.2630 7.2952 -2.2867 0.9686
0.2215 6.6236 -1.9841 0.9727
-2.6307 4.8003 -1.6388 0.9774
-2.9864 4.4560 -1.6059 0.9779
-3.3143 4.1022 -1.5789 0.9782
-3.6160 3.7390 -1.5572 0.9785
-3.8930 3.3664 -1.5408 0.9787
-4.3767 2.5924 -1.5229 0.9790
-4.5850 2.1901 -1.5212 0.9790
-2.8473 0.5129 -0.8661 0.9880
-2.7412 0.2449 -0.8239 0.9886
-2.7827 -0.2487 -0.8872 0.9883
-2.8694 -0.5170 -0.9259 0.9878
-5.1818 -2.4751 -1.8237 0.9762
-4.6458 -4.8038 -2.1223 0.9723
-3.7223 -6.7922 -2.4598 0.9680
-2.7536 -8.2245 -2.7545 0.9643
0.3688 -11.0322 -3.5056 0.9547
2.6693 -12.4219 -4.0351 0.9481
4.0398 -13.0231 -4.3304 0.9444
5.7230 -0.1275 -1.8180 0.9763
5.5040 0.3684 -1.7519 0.9771
5.4967 0.8643 -1.7671 0.9769
5.7546 1.4393 -1.8839 0.9754
13.3059 4.6203 -4.4732 0.9426
10.6644 5.9997 -3.8860 0.9499
9.4061 6.4569 -3.6233 0.9532
6.0337 7.1367 -2.9680 0.9615
4.1404 7.1713 -2.6298 0.9658
3.2955 7.1017 -2.4864 0.9677
1.1214 6.6483 -2.1412 0.9721
-0.5983 5.9470 -1.8982 0.9752
-1.5410 5.3892 -1.7801 0.9768
-1.9602 5.0896 -1.7321 0.9774
-3.6224 3.4261 -1.5835 0.9793
-4.1131 2.6907 -1.5609 0.9796
-4.3251 2.3080 -1.5569 0.9796
-4.5154 1.9147 -1.5576 0.9796
-2.9791 0.6750 -0.9701 0.9873
-2.6672 0.3587 -0.8547 0.9888
-2.7612 -0.1231 -0.8778 0.9885
-2.9205 -0.6617 -0.9510 0.9875
-5.2064 -2.2077 -1.7960 0.9765
-4.5283 -5.1203 -2.1708 0.9717
-3.5107 -7.1441 -2.5280 0.9671
-3.0288 -7.8640 -2.6763 0.9653
-2.4290 -8.4946 -2.8059 0.9636
-0.9985 -9.9252 -3.1680 0.9590
0.8903 -11.3937 -3.6295 0.9532
2.0399 -12.0936 -3.8950 0.9498
5.9851 -0.4007 -1.9050 0.9751
5.5801 1.1342 -1.8084 0.9764
12.6369 5.0293 -4.3194 0.9445
10.0282 6.2456 -3.7520 0.9516
2.8969 7.0493 -2.4204 0.9685
2.1448 6.9143 -2.2991 0.9701
0.8061 6.5454 -2.0944 0.9727
0.2113 6.3215 -2.0087 0.9738
-0.3388 6.0765 -1.9328 0.9748
-1.7547 5.2410 -1.7553 0.9771
-3.4853 3.6038 -1.5922 0.9792
-4.2219 2.5006 -1.5583 0.9796
-4.4230 2.1127 -1.5567 0.9796
-4.6026 1.7140 -1.5598 0.9796
-3.4730 0.9513 -1.1436 0.9850
-2.7749 0.4999 -0.8954 0.9882
-2.6945 0.0000 -0.9053 0.9887
-2.8971 -0.7936 -1.0092 0.9874
-5.0192 -1.8692 -1.7995 0.9777
-4.9736 -2.3757 -1.8519 0.9770
-4.8953 -2.8995 -1.9116 0.9763
-4.6274 -4.0015 -2.0554 0.9745
-4.4301 -4.5806 -2.1410 0.9735
-3.8839 -5.7953 -2.3439 0.9710
-3.0953 -7.0791 -2.5959 0.9679
-1.3009 -8.9199 -3.0286 0.9627
0.3411 -10.2028 -3.4299 0.9578
3.6716 -11.8362 -4.1637 0.9491
5.5641 0.3725 -1.8736 0.9767
5.5680 0.8755 -1.8937 0.9765
5.8749 1.4694 -2.0346 0.9748
10.9167 4.9188 -4.0229 0.9507
8.6776 5.9569 -3.5364 0.9566
7.6132 6.2925 -3.3185 0.9592
5.6489 6.6816 -2.9397 0.9638
3.9047 6.7632 -2.6238 0.9676
3.1176 6.7183 -2.4884 0.9692
1.7026 6.4988 -2.2572 0.9720
1.0689 6.3369 -2.1592 0.9732
0.4803 6.1471 -2.0716 0.9743
-0.5733 5.6987 -1.9243 0.9761
-1.4805 5.1777 -1.8093 0.9775
-2.2603 4.5996 -1.7219 0.9786
-2.6074 4.2923 -1.6874 0.9790
-2.9280 3.9739 -1.6584 0.9794
-3.2236 3.6450 -1.6349 0.9797
-3.7443 2.9568 -1.6030 0.9801
-3.9709 2.5977 -1.5943 0.9802
-4.1759 2.2283 -1.5903 0.9802
-4.3596 1.8486 -1.5910 0.9802
-2.6180 0.3521 -0.8875 0.9889
-2.6762 0.1193 -0.9001 0.9888
-2.7168 -0.1212 -0.9137 0.9886
-2.8653 -0.6492 -0.9871 0.9877
-5.0306 -1.6222 -1.7759 0.9779
-5.0004 -2.1203 -1.8248 0.9773
-4.9387 -2.6354 -1.8808 0.9767
-4.8429 -3.1681 -1.9444 0.9759
-4.7095 -3.7190 -2.0162 0.9750
-4.5345 -4.2887 -2.0970 0.9740
-4.3135 -4.8773 -2.1876 0.9729
-2.8535 -7.4089 -2.6675 0.9671
-2.2911 -8.0124 -2.7999 0.9654
-1.6469 -8.5915 -2.9391 0.9638
-0.9302 -9.2465 -3.1224 0.9615
0.8211 -10.5085 -3.5414 0.9565
1.8707 -11.0903 -3.7788 0.9536
4.3308 -12.0378 -4.2983 0.9474
5.7307 -12.3493 -4.5741 0.9442
6.1483 -0.4116 -2.0703 0.9743
5.5406 0.6198 -1.8732 0.9767
5.6579 1.1500 -1.9398 0.9759
12.6202 3.7612 -4.4245 0.9459
8.1396 6.1383 -3.4252 0.9579
7.1080 6.4288 -3.2201 0.9604
6.1211 6.6181 -3.0288 0.9627
5.1912 6.7265 -2.8547 0.9648
1.3799 6.4216 -2.2068 0.9727
0.7692 6.2452 -2.1141 0.9738
0.2020 6.0429 -2.0315 0.9748
-2.0764 4.7489 -1.7414 0.9784
-2.4372 4.4474 -1.7039 0.9788
-2.7709 4.1345 -1.6722 0.9792
-3.0789 3.8108 -1.6460 0.9795
-3.3625 3.4768 -1.6250 0.9798
-4.0761 2.4143 -1.5917 0.9802
-4.2704 2.0398 -1.5901 0.9802
-2.6265 0.7195 -0.9150 0.9886
-2.7169 0.4895 -0.9275 0.9884
-2.6931 -0.2407 -0.9588 0.9886
-2.7668 -0.4985 -0.9969 0.9881
-2.8417 -0.7784 -1.0448 0.9876
-4.8286 -1.7982 -1.8270 0.9784
-4.6983 -2.7828 -1.9362 0.9771
-4.2313 -4.3752 -2.1582 0.9745
-3.6940 -5.5119 -2.3528 0.9722
-3.3428 -6.0997 -2.4664 0.9709
-2.9285 -6.6977 -2.5920 0.9695
1.2308 -9.9937 -3.5704 0.9582
3.3618 -10.8373 -4.0234 0.9530
5.8558 -11.2745 -4.5049 0.9475
7.1998 -11.2784 -4.7446 0.9448
8.5701 -11.1046 -4.9738 0.9422
5.9350 -0.1323 -2.1050 0.9751
9.0294 5.0799 -3.6736 0.9570
8.0474 5.5242 -3.4611 0.9594
7.0920 5.8617 -3.2625 0.9617
2.2668 6.3008 -2.3744 0.9720
0.4595 5.8799 -2.0913 0.9753
-0.0633 5.6847 -2.0158 0.9762
-0.5501 5.4679 -1.9486 0.9769
-2.1780 4.4322 -1.7511 0.9793
-2.5143 4.1391 -1.7172 0.9797
-2.8252 3.8344 -1.6888 0.9800
-3.8368 2.5099 -1.6257 0.9807
-4.0352 2.1532 -1.6218 0.9808
-2.5615 0.5804 -0.9313 0.9889
-2.6346 0.1175 -0.9351 0.9889
-2.7260 -0.3666 -0.9753 0.9884
-2.8709 -0.9258 -1.0696 0.9873
-4.7431 -2.5310 -1.9063 0.9774
-4.6448 -3.0385 -1.9681 0.9767
-4.3351 -4.1001 -2.1158 0.9750
-3.5259 -5.8044 -2.4081 0.9716
-3.1439 -6.3977 -2.5276 0.9702
-2.6958 -6.9994 -2.6596 0.9687
-1.5474 -8.0727 -2.9146 0.9657
-0.1026 -9.2118 -3.2666 0.9617
1.7256 -10.2300 -3.6787 0.9569
3.9546 -10.9919 -4.1422 0.9516
6.5224 -11.2971 -4.6255 0.9461
5.7554 1.1698 -2.0825 0.9754
11.4940 3.4256 -4.2528 0.9504
10.5196 4.1867 -4.0147 0.9531
9.5261 4.8137 -3.7846 0.9557
8.5359 5.3162 -3.5657 0.9582
6.6391 6.0047 -3.1742 0.9627
5.7398 6.2058 -2.9974 0.9648
4.8853 6.3301 -2.8353 0.9666
2.6058 6.3409 -2.4309 0.9713
1.9391 6.2510 -2.3207 0.9726
0.7351 5.9684 -2.1323 0.9748
-0.3111 5.5788 -1.9812 0.9766
-0.7806 5.3524 -1.9179 0.9773
-1.2173 5.1082 -1.8620 0.9780
-1.6232 4.8482 -1.8129 0.9785
-2.0000 4.5742 -1.7702 0.9790
-2.3494 4.2871 -1.7335 0.9795
-2.6729 3.9882 -1.7024 0.9798
-2.9716 3.6780 -1.6766 0.9801
-3.2467 3.3571 -1.6560 0.9804
-3.4991 3.0258 -1.6403 0.9806
-3.9386 2.3328 -1.6232 0.9808
-4.1265 1.9711 -1.6215 0.9808
-2.5828 0.7075 -0.9496 0.9887
-2.6060 0.2329 -0.9277 0.9890
-2.6101 -0.0000 -0.9746 0.9889
-2.6498 -0.2368 -0.9934 0.9887
-2.7171 -0.4895 -1.0309 0.9883
-4.6500 -1.7317 -1.8528 0.9790
-4.5979 -2.1962 -1.9027 0.9785
-4.5145 -2.6739 -1.9593 0.9778
-4.2426 -3.6687 -2.0944 0.9763
-3.8082 -4.7134 -2.2627 0.9745
-3.5199 -5.2520 -2.3609 0.9734
-3.1779 -5.7990 -2.4692 0.9722
-2.7771 -6.3515 -2.5885 0.9708
-2.3120 -6.9056 -2.7193 0.9694
-1.7580 -7.3769 -2.8318 0.9681
-1.1463 -7.8593 -2.9658 0.9667
-0.4667 -8.3695 -3.1301 0.9648
1.1440 -9.2891 -3.4949 0.9608
2.0782 -9.6710 -3.6937 0.9586
3.0951 -9.9776 -3.9009 0.9564
5.3448 -10.2906 -4.3300 0.9517
6.5412 -10.2466 -4.5393 0.9494
7.7518 -10.0443 -4.7377 0.9473
8.9424 -9.6684 -4.9178 0.9453
10.0730 -9.1105 -5.0716 0.9437
11.1006 -8.3714 -5.1917 0.9424
13.4175 -3.9989 -5.2280 0.9420
13.2755 -1.4851 -4.9881 0.9446
6.1341 -0.1367 -2.2911 0.9741
5.7443 0.3845 -2.1498 0.9757
5.7644 0.9064 -2.1790 0.9754
9.2574 4.1712 -3.7915 0.9576
8.3761 4.7123 -3.5887 0.9598
5.8074 5.7431 -3.0498 0.9657
5.0002 5.9143 -2.8920 0.9675
4.2302 6.0175 -2.7467 0.9691
2.8091 6.0535 -2.4920 0.9719
1.5484 5.9101 -2.2814 0.9743
-0.0608 5.4535 -2.0365 0.9770
-2.4267 3.9948 -1.7454 0.9802
-2.7283 3.7029 -1.7175 0.9806
-3.0067 3.3998 -1.6948 0.9808
-3.2627 3.0858 -1.6769 0.9810
-3.4969 2.7615 -1.6638 0.9812
-3.9021 2.0822 -1.6515 0.9813
-4.0736 1.7274 -1.6522 0.9813
-2.5436 0.5763 -0.9739 0.9889
-2.5920 0.1156 -0.9689 0.9890
-2.6781 -0.3602 -1.0090 0.9885
-2.7556 -0.6244 -1.0551 0.9880
-4.6277 -1.9623 -1.8770 0.9788
-4.5602 -2.4334 -1.9301 0.9782
-4.4602 -2.9177 -1.9902 0.9775
-4.3247 -3.4152 -2.0577 0.9767
-4.1504 -3.9254 -2.1332 0.9759
-3.9337 -4.4479 -2.2173 0.9750
-2.9852 -6.0747 -2.5275 0.9715
-0.8166 -8.1173 -3.0464 0.9658
-0.0960 -8.6143 -3.2169 0.9639
0.7092 -9.0759 -3.3994 0.9619
1.6005 -9.4882 -3.5930 0.9597
3.6338 -10.1002 -4.0082 0.9552
10.6024 -8.7631 -5.1363 0.9430
11.5625 -7.9372 -5.2369 0.9419
13.4636 -3.3675 -5.1823 0.9425
13.1123 -0.8778 -4.9072 0.9454
5.7169 0.6395 -2.1481 0.9757
5.9351 1.2063 -2.2615 0.9745
9.6933 3.8579 -3.8957 0.9564
8.8176 4.4557 -3.6891 0.9587
5.3994 5.8378 -2.9693 0.9666
4.6104 5.9739 -2.8178 0.9683
3.1493 6.0634 -2.5513 0.9712
2.4791 6.0325 -2.4354 0.9725
-0.2986 5.3557 -2.0030 0.9774
-0.7504 5.1448 -1.9415 0.9780
-1.1715 4.9157 -1.8870 0.9787
-2.2668 4.1363 -1.7613 0.9801
-2.5805 3.8503 -1.7308 0.9804
-2.8704 3.5527 -1.7055 0.9807
-3.1375 3.2441 -1.6852 0.9809
-3.6060 2.5954 -1.6590 0.9812
-2.6096 0.4701 -0.9901 0.9887
-2.5629 0.2290 -0.9608 0.9891
-2.5691 0.0000 -1.0083 0.9890
-2.6073 -0.2330 -1.0273 0.9888
-2.6685 -0.4808 -1.0642 0.9884
-4.4275 -2.1148 -1.9257 0.9791
-4.3424 -2.5720 -1.9808 0.9785
-4.0703 -3.5197 -2.1119 0.9771
-3.3595 -5.0127 -2.3683 0.9744
-2.6390 -6.0356 -2.5853 0.9721
-2.1915 -6.5457 -2.7092 0.9708
-1.6696 -7.0059 -2.8266 0.9695
-1.0811 -7.4124 -2.9399 0.9683
1.9323 -8.9923 -3.6098 0.9612
2.8666 -9.2411 -3.7973 0.9593
7.0685 -9.1589 -4.5406 0.9515
9.1283 -8.2561 -4.8306 0.9485
10.0373 -7.5695 -4.9340 0.9474
11.4355 -5.7786 -5.0286 0.9464
12.1226 -3.6129 -4.9646 0.9471
12.0476 -1.3477 -4.7578 0.9492
5.9007 0.3950 -2.3210 0.9749
5.9445 0.9347 -2.3617 0.9745
10.0814 2.5215 -4.0785 0.9563
8.5924 3.8716 -3.6988 0.9603
7.8044 4.3907 -3.5144 0.9623
5.4701 5.4095 -3.0193 0.9675
4.7240 5.5876 -2.8717 0.9690
4.0076 5.7009 -2.7350 0.9705
2.0598 5.7254 -2.3881 0.9742
1.4801 5.6495 -2.2921 0.9752
0.9345 5.5402 -2.2051 0.9761
0.4221 5.4018 -2.1265 0.9770
-0.0583 5.2378 -2.0558 0.9777
-0.9287 4.8449 -1.9361 0.9790
-2.0278 4.1263 -1.8045 0.9804
-2.3439 3.8587 -1.7719 0.9808
-2.6368 3.5786 -1.7446 0.9811
-3.1557 2.9846 -1.7047 0.9815
-3.3831 2.6716 -1.6918 0.9816
-3.5897 2.3483 -1.6835 0.9817
-4.0875 1.3181 -1.6856 0.9817
-2.5568 0.5793 -1.0289 0.9888
-2.6312 -0.3539 -1.0420 0.9887
-4.3889 -2.3420 -1.9524 0.9789
-4.2877 -2.8048 -2.0109 0.9782
-4.1519 -3.2787 -2.0763 0.9775
-3.5066 -4.7592 -2.3201 0.9749
-3.1998 -5.2675 -2.4189 0.9739
-2.4230 -6.2912 -2.6459 0.9714
-0.0901 -8.0835 -3.1727 0.9659
0.6632 -8.4870 -3.3410 0.9641
3.3575 -9.3324 -3.8925 0.9583
8.6369 -8.5413 -4.7673 0.9491
10.4462 -7.1709 -4.9728 0.9470
11.6760 -5.2610 -5.0262 0.9465
11.9177 -0.7975 -4.6877 0.9500
5.8611 0.6556 -2.3146 0.9750
10.4198 2.1179 -4.1731 0.9553
7.4073 4.6133 -3.4249 0.9632
6.6158 4.9892 -3.2521 0.9650
5.8528 5.2935 -3.0972 0.9667
5.0936 5.5071 -2.9441 0.9683
2.9948 5.7659 -2.5500 0.9725
2.3627 5.7494 -2.4396 0.9736
1.7657 5.6919 -2.3389 0.9747
1.2031 5.5987 -2.2475 0.9757
0.6742 5.4744 -2.1648 0.9766
-0.7220 4.9505 -1.9635 0.9787
-1.1284 4.7350 -1.9104 0.9793
-1.5075 4.5028 -1.8636 0.9798
-1.8606 4.2554 -1.8228 0.9802
-2.1888 3.9941 -1.7875 0.9806
-2.4932 3.7201 -1.7576 0.9809
-2.7747 3.4343 -1.7328 0.9812
-3.4890 2.5112 -1.6871 0.9817
-3.6854 2.1829 -1.6811 0.9818
-3.8615 1.8445 -1.6795 0.9818
-2.5207 0.2252 -0.9932 0.9892
-4.1810 -2.4764 -2.0010 0.9792
-4.0625 -2.9240 -2.0611 0.9786
-3.7185 -3.8449 -2.2026 0.9771
-2.5124 -5.7460 -2.5824 0.9732
-2.0816 -6.2174 -2.6999 0.9720
0.2605 -7.7916 -3.2102 0.9668
1.0004 -8.1225 -3.3700 0.9652
1.8042 -8.3959 -3.5362 0.9635
2.6671 -8.5980 -3.7069 0.9618
6.4849 -8.4028 -4.3707 0.9551
8.3317 -7.5356 -4.6259 0.9526
9.1421 -6.8944 -4.7150 0.9517
11.0428 -3.2911 -4.7449 0.9514
11.1109 -2.2584 -4.6688 0.9521
11.0156 -1.2323 -4.5643 0.9532
10.7707 -0.2400 -4.4363 0.9545
9.9068 1.5578 -4.1295 0.9575
9.3324 2.3342 -3.9613 0.9592
8.0095 3.6089 -3.6175 0.9627
7.2996 4.1067 -3.4488 0.9644
5.8770 4.8574 -3.1396 0.9676
4.4736 5.2914 -2.8533 0.9705
3.1630 5.4785 -2.6049 0.9730
1.4168 5.4079 -2.3020 0.9761
-0.0561 5.0360 -2.0739 0.9784
-0.4892 4.8625 -2.0124 0.9791
-0.8949 4.6688 -1.9575 0.9796
-2.2657 3.7298 -1.7970 0.9813
-2.8127 3.1804 -1.7483 0.9818
-3.0542 2.8886 -1.7311 0.9820
-3.2751 2.5863 -1.7184 0.9821
-3.8169 1.6185 -1.7072 0.9822
-2.6388 0.5979 -1.1141 0.9884
-2.4504 0.3295 -1.0181 0.9894
-2.5068 0.1118 -1.0333 0.9892
-4.1260 -2.6991 -2.0302 0.9789
-3.3549 -4.5533 -2.3289 0.9758
-3.0557 -5.0303 -2.4236 0.9749
-2.3042 -5.9827 -2.6400 0.9726
-1.8442 -6.4495 -2.7622 0.9714
0.6223 -7.9634 -3.2892 0.9660
3.1185 -8.6679 -3.7932 0.9609
5.9980 -8.5322 -4.2947 0.9559
6.9654 -8.2387 -4.4425 0.9544
7.8925 -7.8051 -4.5708 0.9531
10.1372 -5.7031 -4.7896 0.9509
10.6226 -4.7863 -4.7977 0.9508
10.9451 -3.8006 -4.7710 0.9511
11.0979 -2.7758 -4.7107 0.9517
10.9109 -0.7304 -4.5030 0.9538
10.5974 0.2362 -4.3649 0.9552
6.1502 0.6880 -2.5483 0.9736
8.3556 3.3254 -3.7032 0.9618
7.6568 3.8691 -3.5326 0.9636
5.5196 4.9922 -3.0646 0.9683
4.8172 5.2083 -2.9214 0.9698
4.1360 5.3592 -2.7876 0.9711
3.4804 5.4519 -2.6634 0.9724
2.8530 5.4930 -2.5488 0.9736
2.2555 5.4884 -2.4434 0.9747
0.1710 5.1144 -2.1072 0.9781
-1.0879 4.5650 -1.9324 0.9799
-1.4547 4.3449 -1.8868 0.9804
-1.7968 4.1093 -1.8468 0.9808
-2.4106 3.5969 -1.7830 0.9814
-2.6840 3.3221 -1.7587 0.9817
-3.5685 2.1136 -1.7078 0.9822
-3.7391 1.7860 -1.7063 0.9822
-2.4793 0.2215 -1.0250 0.9893
-2.5389 -0.4574 -1.1128 0.9888
-2.5507 -0.6987 -1.1408 0.9885
-2.5688 -0.9566 -1.1824 0.9881
-4.0292 -2.3865 -2.0200 0.9798
-3.7587 -3.2503 -2.1435 0.9786
-3.5704 -3.6918 -2.2154 0.9779
-3.0738 -4.5864 -2.3816 0.9762
-2.7591 -5.0347 -2.4765 0.9753
-1.9809 -5.9166 -2.6914 0.9732
-1.5109 -6.3400 -2.8114 0.9720
0.9401 -7.6334 -3.3176 0.9671
1.6905 -7.8670 -3.4709 0.9656
3.3350 -8.1152 -3.7846 0.9625
4.2094 -8.1045 -3.9393 0.9610
5.0991 -7.9877 -4.0878 0.9596
6.8449 -7.4006 -4.3484 0.9570
8.3865 -6.3246 -4.5310 0.9553
9.0187 -5.6169 -4.5831 0.9548
9.5294 -4.8154 -4.6056 0.9546
9.9024 -3.9411 -4.5974 0.9546
10.2043 -2.0742 -4.4917 0.9557
10.1360 -1.1339 -4.3995 0.9565
9.9329 -0.2213 -4.2857 0.9576
9.6101 0.6433 -4.1546 0.9589
8.6788 2.1707 -3.8590 0.9618
8.1089 2.8157 -3.7027 0.9633
7.4940 3.3767 -3.5456 0.9648
6.1918 4.2504 -3.2396 0.9678
5.5489 4.5863 -3.1053 0.9691
3.6191 5.1483 -2.7146 0.9730
3.0151 5.2223 -2.6012 0.9741
1.8833 5.2348 -2.3997 0.9761
0.3896 4.9856 -2.1572 0.9785
-0.0540 4.8467 -2.0908 0.9791
-0.8631 4.5028 -1.9777 0.9802
-1.5735 4.0854 -1.8885 0.9811
-1.8936 3.8534 -1.8521 0.9815
-2.1915 3.6078 -1.8208 0.9818
-2.7230 3.0789 -1.7730 0.9823
-3.8339 1.2363 -1.7376 0.9826
-2.5715 0.5826 -1.1373 0.9886
-2.4106 0.3242 -1.0492 0.9895
-2.5076 -0.1118 -1.0828 0.9891
-2.5277 -0.3399 -1.1001 0.9890
-2.5465 -0.5770 -1.1263 0.9887
-2.6695 -1.1320 -1.2508 0.9874
-4.0766 -2.1753 -1.9931 0.9801
-3.4619 -3.9144 -2.2541 0.9775
-3.2139 -4.3619 -2.3371 0.9767
-2.9223 -4.8108 -2.4280 0.9758
-2.5838 -5.2578 -2.5271 0.9748
-1.2444 -6.4918 -2.8513 0.9716
-0.6868 -6.8267 -2.9596 0.9706
0.5856 -7.4947 -3.2428 0.9678
1.3086 -7.7580 -3.3937 0.9663
2.0851 -7.9588 -3.5489 0.9648
2.9085 -8.0843 -3.7060 0.9633
3.7692 -8.1224 -3.8625 0.9617
6.4198 -7.5934 -4.2892 0.9576
8.0313 -6.6380 -4.4945 0.9556
8.7166 -5.9836 -4.5606 0.9550
9.2904 -5.2267 -4.5982 0.9546
10.0341 -3.4842 -4.5818 0.9548
10.1849 -2.5474 -4.5287 0.9553
10.1878 -1.6019 -4.4486 0.9561
10.0504 -0.6728 -4.3450 0.9571
9.7853 0.2181 -4.2220 0.9583
9.4093 1.0526 -4.0841 0.9596
7.8060 3.1067 -3.6241 0.9641
5.2184 4.7198 -3.0351 0.9698
3.3141 5.1915 -2.6568 0.9735
1.6172 5.2133 -2.3545 0.9765
1.1056 5.1449 -2.2699 0.9773
0.6214 5.0457 -2.1929 0.9781
-1.0497 4.4047 -1.9532 0.9805
-2.0453 3.7322 -1.8358 0.9816
-2.5980 3.2156 -1.7832 0.9822
-2.8429 2.9396 -1.7640 0.9823
-3.2723 2.3553 -1.7391 0.9826
-3.6227 1.7304 -1.7318 0.9827
-2.4387 0.2179 -1.0561 0.9894
-2.4282 -0.0000 -1.0956 0.9894
-2.4481 -0.2188 -1.1090 0.9893
-2.4702 -0.6767 -1.1556 0.9888
-3.9738 -1.8981 -1.9871 0.9809
-3.8860 -2.3017 -2.0379 0.9804
-3.7679 -2.7120 -2.0947 0.9798
-3.6173 -3.1280 -2.1578 0.9792
-3.2089 -3.9717 -2.3039 0.9778
-2.9458 -4.3955 -2.3875 0.9770
-2.6399 -4.8172 -2.4786 0.9762
-2.2882 -5.2333 -2.5772 0.9752
-1.8882 -5.6397 -2.6836 0.9742
-1.4374 -6.0313 -2.7976 0.9732
-0.3701 -6.6380 -2.9998 0.9712
0.8860 -7.1940 -3.2706 0.9687
3.1176 -7.5863 -3.7008 0.9646
4.7419 -7.4281 -3.9764 0.9621
7.0735 -6.3976 -4.3035 0.9590
7.7402 -5.8372 -4.3743 0.9583
8.3163 -5.1795 -4.4207 0.9579
9.4249 -1.9157 -4.3396 0.9587
9.3764 -1.0489 -4.2572 0.9594
9.2064 -0.2052 -4.1551 0.9604
8.9271 0.5976 -4.0371 0.9615
8.5539 1.3450 -3.9071 0.9627
6.4478 3.6275 -3.3382 0.9681
5.2515 4.3404 -3.0742 0.9705
4.6395 4.5881 -2.9442 0.9718
4.0367 4.7746 -2.8211 0.9729
2.3299 5.0208 -2.4975 0.9760
1.3030 4.9735 -2.3199 0.9777
0.8265 4.8996 -2.2420 0.9784
-0.8331 4.3460 -1.9967 0.9808
-1.1884 4.1560 -1.9504 0.9812
-1.5211 3.9494 -1.9096 0.9816
-2.1211 3.4918 -1.8435 0.9822
-2.3896 3.2432 -1.8177 0.9825
-2.6377 2.9825 -1.7966 0.9827
-3.0746 2.4280 -1.7677 0.9830
-3.2639 2.1352 -1.7599 0.9830
-3.4340 1.8324 -1.7563 0.9831
-3.7161 1.1983 -1.7618 0.9830
-2.3567 0.3169 -1.0730 0.9896
-2.4105 0.1075 -1.0887 0.9895
-2.4521 -0.3298 -1.1164 0.9892
-2.4671 -0.5590 -1.1414 0.9890
-2.4891 -1.0555 -1.2199 0.9882
-3.8309 -2.5060 -2.0656 0.9801
-3.3252 -3.7598 -2.2648 0.9782
-2.7984 -4.6068 -2.4321 0.9766
-2.4699 -5.0262 -2.5269 0.9757
-0.6521 -6.4822 -2.9396 0.9718
0.5526 -7.0724 -3.2009 0.9693
1.2317 -7.3017 -3.3412 0.9680
1.9572 -7.4706 -3.4846 0.9667
2.7227 -7.5679 -3.6290 0.9653
3.5187 -7.5826 -3.7718 0.9640
4.3329 -7.5048 -3.9101 0.9627
6.7126 -6.6383 -4.2598 0.9594
7.4169 -6.1302 -4.3418 0.9587
8.5646 -4.8184 -4.4341 0.9578
8.9724 -4.0427 -4.4405 0.9577
9.3059 -0.6229 -4.2084 0.9599
8.7512 0.9790 -3.9733 0.9621
7.8538 2.3407 -3.6978 0.9647
6.7443 3.4080 -3.4096 0.9674
4.9447 4.4722 -3.0083 0.9712
3.7404 4.8466 -2.7624 0.9735
3.1610 4.9516 -2.6507 0.9746
2.6014 5.0087 -2.5466 0.9755
2.0642 5.0228 -2.4503 0.9765
1.0616 4.9404 -2.2801 0.9781
-1.9791 3.6113 -1.8581 0.9821
-2.2579 3.3690 -1.8300 0.9824
-2.5162 3.1143 -1.8066 0.9826
-2.9727 2.5706 -1.7733 0.9829
-3.5117 1.6774 -1.7560 0.9831
-2.3848 0.2131 -1.0803 0.9895
-2.3816 -0.4291 -1.1407 0.9894
-2.4034 -0.8950 -1.2089 0.9887
-3.8388 -1.8336 -2.0053 0.9814
-3.7507 -2.2216 -2.0549 0.9809
-2.8264 -4.2173 -2.3931 0.9778
-2.5290 -4.6147 -2.4805 0.9770
-0.8793 -6.0291 -2.8721 0.9734
-0.3513 -6.3003 -2.9744 0.9725
0.2197 -6.5707 -3.0990 0.9713
0.8371 -6.7968 -3.2280 0.9702
1.4976 -6.9694 -3.3602 0.9690
2.9242 -7.1157 -3.6264 0.9666
3.6723 -7.0704 -3.7555 0.9654
4.4271 -6.9349 -3.8782 0.9643
5.1733 -6.7032 -3.9913 0.9632
6.5680 -5.9404 -4.1745 0.9616
7.7070 -4.8000 -4.2799 0.9606
8.4584 -3.3664 -4.2913 0.9605
8.6624 -2.5817 -4.2607 0.9608
8.7466 -1.7779 -4.2073 0.9613
8.7136 -0.9748 -4.1330 0.9620
8.3265 0.5574 -3.9337 0.9638
7.9957 1.2573 -3.8153 0.9648
7.1294 2.4756 -3.5575 0.9672
5.5410 3.8037 -3.1681 0.9707
3.8447 4.5475 -2.8070 0.9740
3.2908 4.6812 -2.6973 0.9750
2.7520 4.7666 -2.5945 0.9760
2.2313 4.8083 -2.4986 0.9768
0.7949 4.7126 -2.2528 0.9791
0.3610 4.6194 -2.1841 0.9797
-0.0501 4.5008 -2.1217 0.9803
-1.1487 4.0173 -1.9696 0.9817
-1.4713 3.8203 -1.9297 0.9821
-2.3151 3.1421 -1.8397 0.9829
-2.5565 2.8906 -1.8190 0.9831
-2.7785 2.6278 -1.8027 0.9832
-3.3304 1.7772 -1.7794 0.9834
-2.5265 0.5724 -1.2211 0.9886
-2.2973 0.3089 -1.0926 0.9898
-2.3694 -0.1057 -1.1180 0.9896
-2.3894 -0.5414 -1.1548 0.9892
-3.7983 -2.0269 -2.0294 0.9811
-3.6958 -2.4177 -2.0817 0.9807
-3.5628 -2.8135 -2.1399 0.9801
-3.3973 -3.2131 -2.2042 0.9795
-3.1970 -3.6149 -2.2748 0.9789
-2.6829 -4.4167 -2.4359 0.9774
-2.3642 -4.8110 -2.5268 0.9766
-2.0013 -5.1962 -2.6248 0.9757
-1.1334 -5.9129 -2.8379 0.9737
-0.6202 -6.1653 -2.9208 0.9730
-0.0718 -6.4405 -3.0361 0.9719
0.5227 -6.6898 -3.1630 0.9708
3.2965 -7.1039 -3.6916 0.9660
4.8023 -6.8314 -3.9362 0.9637
6.8825 -5.6885 -4.2089 0.9613
7.4541 -5.1170 -4.2619 0.9608
8.3122 -3.7453 -4.2976 0.9605
8.5753 -2.9777 -4.2790 0.9607
8.7445 -1.3750 -4.1726 0.9616
8.4601 0.1885 -3.9889 0.9633
7.3670 2.1956 -3.6236 0.9666
6.8808 2.7385 -3.4909 0.9678
5.8079 3.6172 -3.2253 0.9702
5.2660 3.9713 -3.1090 0.9713
3.5661 4.6207 -2.7513 0.9745
3.0193 4.7297 -2.6450 0.9755
2.4892 4.7926 -2.5457 0.9764
1.4884 4.7981 -2.3680 0.9780
0.1525 4.5631 -2.1522 0.9800
-0.2472 4.4329 -2.0928 0.9806
-0.6244 4.2810 -2.0393 0.9811
-0.9794 4.1097 -1.9915 0.9815
-1.3127 3.9208 -1.9490 0.9819
-1.6247 3.7159 -1.9117 0.9822
-1.9161 3.4964 -1.8794 0.9825
-2.4382 3.0178 -1.8288 0.9830
-3.0757 2.2138 -1.7863 0.9834
-3.2502 1.9251 -1.7807 0.9834
-3.6601 1.0026 -1.7888 0.9834
-2.3515 0.4236 -1.1263 0.9895
-2.3243 0.2077 -1.1000 0.9897
-2.3094 -0.2064 -1.1404 0.9897
-2.3082 -0.4158 -1.1536 0.9896
-2.3175 -0.6348 -1.1819 0.9893
-2.3278 -0.8669 -1.2217 0.9890
-2.3666 -1.1304 -1.2900 0.9884
-3.6226 -2.1457 -2.0709 0.9814
-3.5059 -2.5234 -2.1246 0.9809
-2.9651 -3.6700 -2.3206 0.9792
-2.7146 -4.0504 -2.3983 0.9785
-2.4254 -4.4258 -2.4823 0.9778
-2.0955 -4.7927 -2.5728 0.9770
-1.7232 -5.1470 -2.6697 0.9761
-1.3069 -5.4840 -2.7728 0.9752
-0.8409 -5.7658 -2.8659 0.9744
1.4150 -6.5850 -3.3128 0.9704
2.0702 -6.6739 -3.4369 0.9693
6.1235 -5.5383 -4.0610 0.9639
7.1732 -4.4675 -4.1565 0.9630
7.8716 -3.1328 -4.1670 0.9629
8.0653 -2.4037 -4.1394 0.9632
8.1508 -1.6567 -4.0910 0.9636
8.1298 -0.9095 -4.0236 0.9642
7.7938 0.5217 -3.8420 0.9658
6.7144 2.3315 -3.4959 0.9688
6.2509 2.8165 -3.3722 0.9699
5.7558 3.2381 -3.2483 0.9710
5.2630 3.6129 -3.1398 0.9719
4.7324 3.9115 -3.0198 0.9730
3.1448 4.4736 -2.6896 0.9759
2.6344 4.5629 -2.5915 0.9768
2.1393 4.6100 -2.4997 0.9776
1.6618 4.6189 -2.4144 0.9784
0.7653 4.5367 -2.2629 0.9797
0.3479 4.4521 -2.1965 0.9803
-1.4241 3.6975 -1.9488 0.9825
-1.9902 3.2763 -1.8855 0.9831
-2.2440 3.0457 -1.8607 0.9833
-2.4789 2.8029 -1.8404 0.9835
-2.6949 2.5488 -1.8244 0.9836
-2.8922 2.2840 -1.8126 0.9837
-3.0711 2.0090 -1.8050 0.9838
-3.2315 1.7244 -1.8015 0.9838
-3.3733 1.4304 -1.8022 0.9838
-3.4963 1.1274 -1.8069 0.9838
-2.5042 0.5673 -1.2629 0.9886
-2.3022 -0.1027 -1.1335 0.9898
-2.3108 -0.3108 -1.1468 0.9897
-2.3142 -0.5243 -1.1671 0.9895
-2.3375 -0.9912 -1.2488 0.9887
-3.6701 -1.9584 -2.0461 0.9816
-3.5680 -2.3341 -2.0971 0.9812
-3.2731 -3.0957 -2.2159 0.9801
-2.8446 -3.8607 -2.3587 0.9789
-1.9148 -4.9717 -2.6204 0.9765
-1.5206 -5.3180 -2.7205 0.9756
-1.0819 -5.6443 -2.8267 0.9747
-0.5908 -5.8728 -2.9032 0.9740
-0.0682 -6.1178 -3.0092 0.9731
1.0994 -6.5174 -3.2509 0.9710
2.4079 -6.6930 -3.4986 0.9688
3.7978 -6.5780 -3.7359 0.9667
4.4948 -6.3940 -3.8442 0.9658
5.1739 -6.1198 -3.9416 0.9649
5.8190 -5.7545 -4.0253 0.9642
6.4131 -5.3005 -4.0923 0.9636
7.3844 -4.1544 -4.1674 0.9629
7.9819 -2.7716 -4.1559 0.9630
8.0810 -0.5410 -3.9836 0.9645
7.6556 0.8564 -3.7889 0.9662
7.3244 1.4887 -3.6762 0.9672
6.9307 2.0656 -3.5571 0.9683
6.0066 3.0353 -3.3101 0.9704
4.9986 3.7696 -3.0793 0.9725
3.4049 4.4118 -2.7411 0.9755
2.3848 4.5915 -2.5448 0.9772
0.9817 4.5687 -2.2984 0.9794
0.5539 4.4977 -2.2289 0.9800
0.1471 4.4002 -2.1655 0.9806
-1.2701 3.7936 -1.9677 0.9823
-2.1195 3.1625 -1.8725 0.9832
-2.5892 2.6772 -1.8319 0.9835
-2.7959 2.4177 -1.8180 0.9837
-3.1536 1.8679 -1.8028 0.9838
-2.2658 0.2025 -1.1189 0.9899
-2.2359 0.0000 -1.1463 0.9900
-2.2481 -0.6158 -1.1950 0.9896
-2.2721 -1.0853 -1.2909 0.9887
-3.5011 -2.0737 -2.0861 0.9819
-2.8541 -3.5325 -2.3283 0.9798
-2.6097 -3.8939 -2.4031 0.9791
-2.0089 -4.5945 -2.5708 0.9777
-1.2488 -5.2404 -2.7618 0.9761
1.3399 -6.2354 -3.2697 0.9717
3.2453 -6.2483 -3.6096 0.9688
4.5385 -5.8806 -3.8083 0.9672
5.1541 -5.5726 -3.8915 0.9665
5.7296 -5.1821 -3.9606 0.9659
6.2501 -4.7134 -4.0133 0.9654
6.7017 -4.1739 -4.0476 0.9651
7.6115 -0.8515 -3.9265 0.9662
7.3180 0.4899 -3.7601 0.9676
5.9134 2.6644 -3.3252 0.9713
