ply
format ascii 1.0
element vertex 1589
property float32 x
property float32 y
property float32 z
property float32 I
end_header
-5.4286 8.1000 -0.7307 0.9616
-6.8068 7.0381 -0.7337 0.9615
-7.2621 6.2798 -0.7195 0.9622
-8.0853 4.7889 -0.7042 0.9630
-8.8216 3.2852 -0.7054 0.9629
-9.4988 1.7113 -0.7233 0.9620
-9.8221 0.8777 -0.7390 0.9612
-10.0408 -1.8089 -0.9353 0.9598
-10.6339 -7.6538 -1.2012 0.9487
5.4699 0.3662 -0.5026 0.9782
5.4500 0.8570 -0.5058 0.9781
1.1333 14.5034 -1.3337 0.9432
-3.6470 9.4693 -0.9303 0.9601
-5.4654 7.4178 -0.8447 0.9637
-7.0385 5.5582 -0.8222 0.9646
-7.4300 4.8605 -0.8140 0.9650
-7.7970 4.1606 -0.8102 0.9651
-8.1431 3.4530 -0.8109 0.9651
-4.0002 0.1784 -0.3671 0.9840
-9.6437 -0.4300 -0.8850 0.9620
-9.9105 -1.3328 -0.9167 0.9606
-10.1692 -2.3040 -0.9559 0.9590
-10.4211 -3.3602 -1.0037 0.9570
-10.9052 -5.8192 -1.1332 0.9516
5.5312 0.1233 -0.5072 0.9780
5.4431 0.6089 -0.5021 0.9782
5.5061 1.1192 -0.5151 0.9777
5.8226 1.7353 -0.5570 0.9759
1.0665 8.6594 -0.7999 0.9656
-1.7019 11.6693 -1.0811 0.9537
-5.0809 7.5812 -0.8367 0.9640
-5.9242 7.3324 -0.8642 0.9628
-6.8323 5.9081 -0.8281 0.9644
-7.2375 5.2092 -0.8175 0.9648
-7.6163 4.5112 -0.8115 0.9651
-7.9725 3.8081 -0.8100 0.9651
-4.9080 0.8842 -0.4572 0.9802
-4.1097 0.3672 -0.3783 0.9836
-9.1855 -0.8208 -1.0003 0.9636
-10.1665 -6.0217 -1.2816 0.9536
-9.8054 -8.4791 -1.4061 0.9492
-9.9124 -10.2494 -1.5466 0.9442
6.0557 -0.6774 -0.6609 0.9758
5.6020 -0.1248 -0.6078 0.9777
5.4244 0.8529 -0.5956 0.9781
5.5799 1.3956 -0.6239 0.9771
6.3650 2.2102 -0.7308 0.9733
2.4139 14.3109 -1.5742 0.9433
1.0274 13.1482 -1.4305 0.9483
-1.9873 10.3674 -1.1450 0.9584
-3.4055 8.8421 -1.0277 0.9626
-4.5277 7.4537 -0.9459 0.9655
-5.3370 7.2435 -0.9759 0.9644
-6.2446 5.9061 -0.9323 0.9660
-6.6467 5.2488 -0.9186 0.9665
-7.0203 4.5925 -0.9099 0.9668
-8.0027 2.5805 -0.9120 0.9667
-9.2993 -1.2506 -1.0177 0.9630
-9.5170 -2.1562 -1.0584 0.9615
-9.9113 -4.2027 -1.1677 0.9576
-9.9888 -7.8881 -1.3806 0.9501
5.4770 1.1132 -0.6062 0.9778
1.0592 8.5998 -0.9398 0.9657
-0.6505 11.6666 -1.2674 0.9541
-3.7091 8.4829 -1.0042 0.9634
-4.2689 7.7897 -0.9635 0.9649
-5.5785 6.9046 -0.9628 0.9649
-6.0316 6.2366 -0.9411 0.9657
-6.4494 5.5771 -0.9248 0.9663
-7.1975 4.2631 -0.9074 0.9669
-7.5349 3.5991 -0.9057 0.9670
-7.8515 2.9240 -0.9088 0.9669
-8.1495 2.2324 -0.9165 0.9666
-3.9949 0.7197 -0.4403 0.9838
-9.0268 -2.4727 -1.1729 0.9630
-9.1834 -3.4199 -1.2280 0.9613
-9.3192 -4.4514 -1.2942 0.9592
-9.4314 -5.5862 -1.3737 0.9568
-9.3782 -8.1097 -1.5537 0.9512
5.5796 -0.1243 -0.6994 0.9778
5.4229 0.3630 -0.6811 0.9783
6.2427 2.1677 -0.8281 0.9737
-0.1247 11.1902 -1.4024 0.9559
-1.0457 10.3949 -1.3092 0.9588
-1.8505 9.6542 -1.2318 0.9611
-2.5611 8.9566 -1.1674 0.9631
-4.2655 7.0220 -1.0296 0.9674
-5.0380 6.8377 -1.0643 0.9663
-5.9095 5.5892 -1.0193 0.9677
-6.6522 4.3516 -0.9961 0.9685
-6.9841 3.7269 -0.9920 0.9686
-3.5348 0.1576 -0.4434 0.9858
-3.6310 -0.1619 -0.4555 0.9855
-9.1076 -2.9368 -1.1992 0.9622
-9.2541 -3.9240 -1.2596 0.9603
-9.4773 -6.1998 -1.4192 0.9554
-9.5455 -7.5380 -1.5242 0.9522
-8.9932 -10.1687 -1.7012 0.9467
-8.8165 -11.9658 -1.8626 0.9418
5.7399 -0.3842 -0.7209 0.9771
5.4824 0.1222 -0.6872 0.9781
5.4480 1.1073 -0.6967 0.9778
5.7305 1.7079 -0.7493 0.9762
1.0559 8.5730 -1.0825 0.9658
-1.4611 10.0185 -1.2688 0.9600
-2.8858 8.6195 -1.1391 0.9640
-3.4814 7.9621 -1.0890 0.9656
-4.0168 7.3297 -1.0474 0.9669
-4.7891 7.1458 -1.0780 0.9659
-6.4769 4.6618 -1.0000 0.9683
-7.4403 2.7708 -0.9949 0.9685
-3.8076 0.6860 -0.4848 0.9845
-3.3944 0.0000 -0.4828 0.9864
-3.5139 -0.3140 -0.5018 0.9858
-8.4999 -2.3283 -1.2535 0.9650
-8.7225 -4.1664 -1.3749 0.9617
-8.8266 -7.6326 -1.6598 0.9539
-8.1413 -10.0766 -1.8426 0.9490
5.9917 -0.6703 -0.8576 0.9759
6.2103 2.1564 -0.9351 0.9738
-0.9742 9.6843 -1.3844 0.9614
-1.7310 9.0304 -1.3078 0.9635
-6.3194 4.1340 -1.0741 0.9700
-6.9298 2.9385 -1.0706 0.9700
-7.2021 2.3224 -1.0763 0.9699
-4.1432 0.9387 -0.6042 0.9830
-3.3671 0.4528 -0.4832 0.9864
-8.6764 -3.6791 -1.3405 0.9626
-8.8160 -5.7671 -1.4984 0.9583
-8.7968 -8.3199 -1.7222 0.9523
-8.0644 -10.9450 -1.9337 0.9466
4.3655 14.0729 -2.0958 0.9422
2.6445 12.3063 -1.7904 0.9504
1.0554 8.5688 -1.2280 0.9657
-2.0769 8.7151 -1.2743 0.9645
-2.7108 8.0968 -1.2145 0.9661
-3.7920 6.9197 -1.1224 0.9686
-4.5367 6.7692 -1.1591 0.9676
-4.9927 6.1795 -1.1300 0.9684
-5.4109 5.5949 -1.1071 0.9690
-6.4808 3.8386 -1.0714 0.9700
-7.0686 2.6324 -1.0729 0.9700
-3.6717 0.6615 -0.5306 0.9850
-3.2915 0.0000 -0.5241 0.9868
-7.9071 -1.4245 -1.2794 0.9680
-8.1952 -3.9145 -1.4462 0.9639
-8.2330 -4.8764 -1.5237 0.9620
-8.1905 -7.0826 -1.7242 0.9571
-8.0937 -8.3688 -1.8539 0.9539
-6.8502 -12.5000 -2.2698 0.9439
5.5349 -0.1233 -0.8816 0.9778
5.3648 0.8436 -0.8648 0.9782
5.5105 1.3783 -0.9045 0.9773
6.1780 2.1453 -1.0414 0.9739
4.7605 13.2321 -2.2393 0.9446
1.8467 10.9482 -1.7680 0.9560
0.8032 10.2792 -1.6418 0.9591
-0.9115 9.0608 -1.4501 0.9638
-3.3548 6.8268 -1.2112 0.9697
-4.0690 6.6986 -1.2480 0.9688
-4.5274 6.1446 -1.2154 0.9696
-4.9474 5.5941 -1.1892 0.9702
-6.5993 2.7983 -1.1414 0.9714
-6.8568 2.2110 -1.1472 0.9712
-3.9744 0.9005 -0.6489 0.9836
-3.2540 0.4376 -0.5228 0.9868
-3.2600 0.1454 -0.5196 0.9869
-3.4817 -0.4682 -0.5594 0.9859
-8.0807 -2.6057 -1.3520 0.9662
-8.1643 -3.4620 -1.4121 0.9647
-8.2184 -4.3854 -1.4833 0.9630
-8.1495 -7.7077 -1.7862 0.9556
-7.0702 -11.6391 -2.1685 0.9463
5.4396 0.1212 -0.8664 0.9782
5.3537 0.5989 -0.8578 0.9784
5.6948 1.6972 -0.9462 0.9762
3.9756 12.8161 -2.1367 0.9471
2.4279 11.2985 -1.8402 0.9543
1.0548 8.5646 -1.3741 0.9657
0.3335 9.9761 -1.5894 0.9604
-0.5220 9.3606 -1.4929 0.9627
-1.2785 8.7661 -1.4107 0.9648
-1.9520 8.1910 -1.3408 0.9665
-2.5551 7.6316 -1.2815 0.9679
-3.6997 6.7510 -1.2258 0.9693
-4.3033 6.4210 -1.2308 0.9692
-5.5148 4.7689 -1.1610 0.9709
-6.1714 3.6554 -1.1422 0.9714
-3.5501 0.6396 -0.5744 0.9855
-3.2454 0.2900 -0.5188 0.9869
-3.1939 0.0000 -0.5632 0.9871
-7.5037 -1.3518 -1.3444 0.9695
-7.6053 -2.0833 -1.3904 0.9685
-7.7258 -3.6903 -1.5097 0.9658
-7.7376 -4.5830 -1.5857 0.9641
-7.6372 -6.6041 -1.7803 0.9598
-7.3129 -9.0512 -2.0518 0.9538
5.5311 -0.1233 -0.9755 0.9778
5.3573 0.8424 -0.9562 0.9782
5.4990 1.3754 -0.9995 0.9772
2.9956 11.4340 -2.0842 0.9531
1.7114 10.1457 -1.8142 0.9591
-0.1007 9.0397 -1.5940 0.9639
-0.8556 8.5049 -1.5072 0.9659
-1.5300 7.9817 -1.4330 0.9675
-4.3074 5.8461 -1.2804 0.9709
-4.7120 5.3279 -1.2541 0.9715
-5.0837 4.8082 -1.2338 0.9720
-5.7408 3.7555 -1.2096 0.9725
-6.0307 3.2181 -1.2053 0.9726
-6.2972 2.6703 -1.2061 0.9726
-6.5414 2.1093 -1.2119 0.9725
-3.3507 -0.4506 -0.5961 0.9864
-7.6800 -6.0649 -1.7255 0.9610
-7.4202 -8.3901 -1.9750 0.9555
-6.9317 -9.4078 -2.0605 0.9536
-6.4390 -10.5999 -2.1869 0.9509
-6.0061 -12.2219 -2.4012 0.9462
5.6834 -0.3804 -1.0044 0.9771
5.4359 0.1212 -0.9587 0.9782
5.6800 1.6928 -1.0451 0.9762
1.0549 8.5654 -1.5217 0.9656
-1.2021 8.2419 -1.4686 0.9667
-2.9355 6.7136 -1.2920 0.9707
-4.0917 6.1053 -1.2959 0.9706
-4.5140 5.5871 -1.2665 0.9712
-4.9017 5.0684 -1.2433 0.9718
-5.5866 4.0210 -1.2137 0.9724
-6.1668 2.9456 -1.2051 0.9726
-6.4221 2.3916 -1.2084 0.9725
-4.2904 1.1753 -0.7844 0.9821
-3.1509 0.2816 -0.5578 0.9872
-3.1775 -0.2839 -0.6174 0.9871
-7.3048 -3.4892 -1.5666 0.9676
-7.2960 -4.3214 -1.6410 0.9660
-7.1512 -6.1839 -1.8295 0.9622
-6.9999 -7.2379 -1.9485 0.9598
-6.7818 -8.3939 -2.0883 0.9570
-5.5067 -12.5940 -2.6600 0.9455
5.9667 -0.6675 -1.1619 0.9758
5.5301 -0.1232 -1.0704 0.9777
6.2073 2.1554 -1.2716 0.9736
7.0644 12.2360 -2.7342 0.9441
5.4201 11.6800 -2.4918 0.9489
4.0047 11.1313 -2.2893 0.9529
2.7748 10.5915 -2.1188 0.9564
1.5942 9.4508 -1.8547 0.9617
-0.8059 8.0104 -1.5580 0.9677
-3.6818 6.0610 -1.3724 0.9715
-4.1067 5.5737 -1.3398 0.9722
-5.4874 3.5897 -1.2690 0.9736
-6.2522 2.0161 -1.2713 0.9736
-3.0751 0.1371 -0.5957 0.9875
-7.2541 -2.3391 -1.4750 0.9694
-7.3051 -3.8981 -1.6023 0.9668
-7.2769 -4.7603 -1.6828 0.9652
-6.9000 -7.8020 -2.0156 0.9585
-6.6432 -9.0162 -2.1673 0.9554
5.4322 0.1211 -1.0515 0.9781
5.3388 0.5972 -1.0396 0.9784
5.3952 1.0966 -1.0654 0.9778
5.6766 1.6918 -1.1463 0.9762
6.2104 11.9572 -2.6074 0.9466
3.3689 10.8603 -2.2004 0.9547
2.1484 9.9978 -1.9789 0.9592
1.0563 8.5764 -1.6722 0.9654
0.2917 8.7260 -1.6896 0.9651
-3.4549 6.3045 -1.3912 0.9711
-4.3059 5.3295 -1.3259 0.9725
-5.3392 3.8429 -1.2730 0.9736
-5.8957 2.8161 -1.2644 0.9737
-3.3306 0.6000 -0.6549 0.9863
-3.0211 0.0000 -0.6369 0.9877
-3.0994 -0.2770 -0.6560 0.9874
-6.9251 -3.3078 -1.6179 0.9691
-6.7208 -5.8117 -1.8732 0.9643
-6.5530 -6.7757 -1.9872 0.9622
-6.0082 -8.9648 -2.2752 0.9568
-5.6012 -10.2208 -2.4571 0.9535
5.5292 -0.1232 -1.1660 0.9776
5.4976 1.3751 -1.1947 0.9771
6.2759 2.1792 -1.4006 0.9732
8.1338 11.5705 -2.9817 0.9438
3.7076 10.3055 -2.3089 0.9562
2.5832 9.8602 -2.1489 0.9592
0.6578 8.4177 -1.7800 0.9661
-0.7613 7.5677 -1.6035 0.9694
-1.3688 7.1407 -1.5328 0.9707
-1.9195 6.7129 -1.4719 0.9719
-3.9228 5.3240 -1.3942 0.9733
-4.6448 4.3931 -1.3478 0.9742
-4.9625 3.9189 -1.3331 0.9745
-5.5211 2.9462 -1.3193 0.9747
-5.7648 2.4445 -1.3201 0.9747
-3.5520 0.8048 -0.7678 0.9852
-3.0346 0.4081 -0.6455 0.9876
-2.9940 0.1335 -0.6318 0.9878
-3.0505 -0.1360 -0.6437 0.9876
-6.8417 -1.5501 -1.4789 0.9717
-6.8979 -2.2243 -1.5280 0.9708
-6.9171 -3.6911 -1.6529 0.9685
-6.6444 -6.2842 -1.9280 0.9633
-6.4453 -7.2878 -2.0511 0.9610
-5.8179 -9.5775 -2.3625 0.9552
-4.6794 -12.1496 -2.7448 0.9482
5.4285 0.1210 -1.1447 0.9780
7.2597 11.3721 -2.8443 0.9463
4.3255 10.5255 -2.3991 0.9545
3.1280 10.0836 -2.2257 0.9578
0.2744 8.2061 -1.7310 0.9670
-1.6507 6.9268 -1.5012 0.9713
-2.1900 6.5413 -1.4543 0.9722
-4.1149 5.0931 -1.3804 0.9736
-5.3906 3.1929 -1.3208 0.9747
-5.6458 2.6968 -1.3191 0.9747
-5.8781 2.1890 -1.3224 0.9747
-3.2435 0.5843 -0.6948 0.9866
-2.9810 0.2664 -0.6310 0.9878
-2.9710 0.0000 -0.6781 0.9879
-6.4626 -4.6514 -1.8174 0.9679
-5.9142 -7.3200 -2.1479 0.9621
-4.6728 -10.6869 -2.6622 0.9533
-3.9459 -11.7857 -2.8368 0.9503
5.9943 -0.6706 -1.3767 0.9756
5.3566 0.8423 -1.2376 0.9780
9.1224 10.7900 -3.2250 0.9437
7.4181 10.5524 -2.9441 0.9485
2.4153 9.2192 -2.1752 0.9617
0.6195 7.9285 -1.8151 0.9679
-0.0841 7.5521 -1.7238 0.9695
-0.7212 7.1686 -1.6444 0.9709
-1.8764 6.5621 -1.5578 0.9724
-2.4579 6.3818 -1.5609 0.9723
-3.3580 5.5280 -1.4763 0.9738
-4.4507 4.2095 -1.3982 0.9752
-4.7573 3.7568 -1.3836 0.9754
-5.7396 1.8508 -1.3765 0.9756
-2.9625 0.3984 -0.6823 0.9878
-6.5730 -2.1195 -1.5763 0.9721
-6.5660 -3.5037 -1.6987 0.9699
-6.5076 -4.2571 -1.7749 0.9686
-6.0442 -6.8343 -2.0824 0.9633
-5.4047 -8.8974 -2.3761 0.9582
-4.9456 -10.0640 -2.5594 0.9550
-4.3134 -11.1996 -2.7393 0.9520
-2.6756 -13.9583 -3.2439 0.9434
5.4325 0.1211 -1.2402 0.9780
5.4073 1.0991 -1.2594 0.9776
8.2413 10.6786 -3.0788 0.9462
5.2489 10.1060 -2.5992 0.9544
1.9402 9.0288 -2.1078 0.9628
0.9993 8.1140 -1.8660 0.9670
0.2588 7.7413 -1.7679 0.9687
-0.4105 7.3611 -1.6827 0.9702
-2.1865 6.5308 -1.5719 0.9721
-3.5599 5.3118 -1.4595 0.9741
-4.6073 3.9841 -1.3902 0.9753
-4.9009 3.5275 -1.3782 0.9755
-5.4147 2.5864 -1.3696 0.9757
-5.6369 2.0992 -1.3729 0.9756
-3.8725 1.0608 -0.9164 0.9837
-3.1659 0.5704 -0.7342 0.9869
-2.9277 0.2616 -0.6709 0.9880
-6.2804 -2.3388 -1.6473 0.9728
-6.1272 -4.4101 -1.8556 0.9694
-5.9918 -5.1813 -1.9471 0.9679
-5.8038 -6.0011 -2.0521 0.9662
-5.2346 -7.8105 -2.3111 0.9620
-2.8727 -12.0543 -3.0459 0.9502
-1.9514 -13.3800 -3.3236 0.9458
6.0508 -0.6769 -1.4966 0.9752
5.5553 -0.1238 -1.3658 0.9774
10.0085 9.8976 -3.4599 0.9437
6.8140 9.6930 -2.9123 0.9524
3.2241 8.9614 -2.3409 0.9615
2.2668 8.6524 -2.1985 0.9638
1.4039 8.3228 -2.0746 0.9658
0.5947 7.6111 -1.8765 0.9690
-0.0800 7.1791 -1.7647 0.9709
-0.6924 6.8824 -1.7002 0.9719
-1.2795 6.6752 -1.6706 0.9724
-1.8549 6.4871 -1.6584 0.9726
-3.5970 4.8819 -1.4905 0.9753
-3.9482 4.4643 -1.4649 0.9758
-5.0853 2.7136 -1.4168 0.9765
-3.3132 0.7507 -0.8350 0.9861
-2.9494 -0.1315 -0.7257 0.9879
-3.0389 -0.4087 -0.7537 0.9874
-3.1571 -0.7153 -0.7957 0.9868
-6.2464 -3.3332 -1.7403 0.9713
-6.1774 -4.0411 -1.8144 0.9701
-5.9048 -5.5848 -1.9977 0.9671
-5.6875 -6.4310 -2.1102 0.9653
-5.4044 -7.3348 -2.2394 0.9632
-5.0438 -8.3032 -2.3880 0.9608
-4.5917 -9.3438 -2.5590 0.9580
5.7298 -0.3836 -1.4115 0.9766
5.3535 0.5989 -1.3241 0.9781
5.7351 1.7092 -1.4710 0.9757
9.1358 9.8776 -3.3072 0.9461
6.1275 9.5986 -2.7991 0.9542
1.8244 8.4899 -2.1344 0.9649
0.2463 7.3661 -1.8116 0.9701
-0.3916 7.0223 -1.7288 0.9714
-0.9869 6.7666 -1.6808 0.9722
-3.0118 5.4958 -1.5404 0.9745
-3.7763 4.6740 -1.4770 0.9756
-4.1130 4.2528 -1.4542 0.9759
-4.9646 2.9406 -1.4183 0.9765
-3.8036 1.0419 -0.9694 0.9839
-3.0843 0.5557 -0.7703 0.9872
-2.8807 0.2574 -0.7109 0.9882
-2.8744 0.0000 -0.7574 0.9882
-6.0017 -2.2350 -1.6875 0.9739
-5.9788 -2.8558 -1.7459 0.9730
-5.8226 -4.1908 -1.8903 0.9708
-5.6800 -4.9117 -1.9787 0.9694
-5.4864 -5.6729 -2.0795 0.9679
-5.2342 -6.4785 -2.1946 0.9661
-4.9144 -7.3328 -2.3260 0.9641
-4.5157 -8.2401 -2.4759 0.9619
-4.0248 -9.2050 -2.6472 0.9593
-3.3731 -10.0748 -2.7995 0.9570
-2.6435 -11.0927 -3.0048 0.9539
-1.7822 -12.2199 -3.2540 0.9502
6.1089 -0.6834 -1.6197 0.9749
5.3795 0.8459 -1.4349 0.9777
5.5527 1.3888 -1.5082 0.9766
10.7701 8.9017 -3.6818 0.9438
9.1190 9.0180 -3.3794 0.9483
7.6336 9.0291 -3.1155 0.9523
6.2970 8.9576 -2.8852 0.9557
4.0066 8.6340 -2.5081 0.9614
3.0244 8.4066 -2.3541 0.9637
2.1345 8.1474 -2.2193 0.9658
0.5906 7.5580 -1.9976 0.9691
-0.0799 7.1687 -1.8891 0.9708
-0.6919 6.8781 -1.8215 0.9718
-1.2564 6.5543 -1.7585 0.9728
-2.6817 5.4571 -1.6022 0.9752
-3.4520 4.6850 -1.5334 0.9762
-4.1037 3.8813 -1.4884 0.9769
-4.3900 3.4668 -1.4740 0.9771
-4.8900 2.6094 -1.4605 0.9773
-5.1054 2.1649 -1.4612 0.9773
-5.2986 1.7086 -1.4670 0.9772
-2.8515 0.1272 -0.7521 0.9883
-2.9007 -0.1293 -0.7651 0.9881
-2.9836 -0.4013 -0.7933 0.9876
-3.0953 -0.7013 -0.8363 0.9870
-5.9944 -2.5418 -1.7157 0.9734
-5.9543 -3.1773 -1.7784 0.9725
-5.8768 -3.8444 -1.8504 0.9714
-5.5900 -5.2870 -2.0274 0.9687
-5.3682 -6.0699 -2.1352 0.9670
-4.2827 -8.7151 -2.5587 0.9606
-0.1564 -14.0386 -3.6994 0.9436
5.7634 -0.3858 -1.5221 0.9764
5.4652 0.1218 -1.4405 0.9776
5.4320 1.1041 -1.4606 0.9773
5.7935 1.7267 -1.5929 0.9753
6.9477 9.0025 -2.9964 0.9540
3.5033 8.5248 -2.4286 0.9626
2.5686 8.2806 -2.2845 0.9648
0.9499 7.7127 -2.0477 0.9684
0.2461 7.3616 -1.9409 0.9700
-1.5197 6.3770 -1.7274 0.9732
-2.0140 6.0154 -1.6715 0.9741
-2.8864 5.2670 -1.5826 0.9755
-4.2500 3.6751 -1.4805 0.9770
-4.5239 3.2561 -1.4687 0.9772
-4.7737 2.8275 -1.4620 0.9773
-3.0018 0.5408 -0.8037 0.9875
-2.8348 0.2533 -0.7499 0.9883
-2.8279 0.0000 -0.7956 0.9883
-2.8819 -0.2575 -0.8141 0.9880
-5.5446 -3.9907 -1.9220 0.9720
-5.1995 -5.3763 -2.1043 0.9694
-4.6287 -6.9066 -2.3393 0.9660
-4.2374 -7.7322 -2.4808 0.9640
-2.4466 -10.2665 -2.9695 0.9571
-0.6831 -12.2516 -3.4524 0.9503
5.6007 -0.1248 -1.5762 0.9770
5.4133 0.3624 -1.5265 0.9777
5.4072 0.8502 -1.5400 0.9775
8.3687 8.2760 -3.3115 0.9523
7.0508 8.3398 -3.0727 0.9556
5.8493 8.3207 -2.8617 0.9586
3.7567 8.0954 -2.5110 0.9636
2.8466 7.9124 -2.3659 0.9657
2.0158 7.6944 -2.2379 0.9675
1.2563 7.4478 -2.1251 0.9691
-0.6622 6.5821 -1.8612 0.9729
-1.2004 6.2621 -1.7940 0.9739
-1.6957 5.9301 -1.7353 0.9747
-3.3170 4.5019 -1.5733 0.9770
-3.9479 3.7339 -1.5289 0.9777
-4.2248 3.3363 -1.5146 0.9779
-4.4777 2.9292 -1.5055 0.9780
-4.7076 2.5121 -1.5013 0.9781
-4.9149 2.0841 -1.5020 0.9781
-2.8062 0.1251 -0.7903 0.9884
-2.8531 -0.1272 -0.8035 0.9882
-3.2049 -1.0334 -0.9474 0.9861
-5.6860 -3.0341 -1.8133 0.9736
-4.0105 -8.1611 -2.5584 0.9629
-2.8068 -9.8159 -2.8725 0.9585
-1.1812 -11.7412 -3.3201 0.9521
-0.1423 -12.7736 -3.5942 0.9483
5.7977 -0.3881 -1.6349 0.9761
5.3882 0.6028 -1.5255 0.9777
5.8642 1.7477 -1.7216 0.9749
10.5824 7.9805 -3.7292 0.9464
9.0741 8.2071 -3.4424 0.9504
6.4361 8.3395 -2.9639 0.9572
5.2891 8.2853 -2.7656 0.9600
4.2440 8.1712 -2.5906 0.9625
2.4218 7.8074 -2.2999 0.9666
0.9010 7.3153 -2.0738 0.9698
0.2352 7.0350 -1.9804 0.9712
-0.9369 6.4237 -1.8265 0.9734
-1.4531 6.0976 -1.7636 0.9743
-1.9285 5.7600 -1.7090 0.9751
-4.0894 3.5362 -1.5211 0.9778
-4.3542 3.1340 -1.5094 0.9780
-4.5955 2.7219 -1.5028 0.9781
-4.8140 2.2995 -1.5010 0.9781
-2.7884 0.2492 -0.7877 0.9884
-2.7824 0.0000 -0.8330 0.9884
-2.9224 -0.5265 -0.8890 0.9877
-3.0126 -0.8252 -0.9351 0.9870
-5.5063 -2.0505 -1.7591 0.9758
-5.4697 -2.6127 -1.8147 0.9750
-5.3987 -3.1976 -1.8785 0.9741
-5.2896 -3.8072 -1.9511 0.9732
-5.1380 -4.4430 -2.0336 0.9720
-4.9389 -5.1067 -2.1269 0.9708
-4.3722 -6.5238 -2.3512 0.9677
-3.5271 -8.0666 -2.6357 0.9639
-2.9600 -8.8410 -2.7912 0.9618
-0.6282 -11.2658 -3.3780 0.9540
6.4645 -0.7231 -1.9474 0.9732
5.6410 1.4109 -1.7408 0.9760
11.8404 6.6613 -4.0673 0.9449
10.3754 7.1223 -3.7676 0.9488
7.7270 7.6414 -3.2534 0.9556
5.4576 7.7635 -2.8411 0.9612
4.4555 7.7171 -2.6678 0.9635
1.9087 7.2855 -2.2547 0.9690
1.1927 7.0709 -2.1468 0.9705
0.5337 6.8306 -2.0512 0.9718
-0.0732 6.5687 -1.9667 0.9729
-0.6326 6.2885 -1.8921 0.9740
-1.1487 5.9925 -1.8267 0.9748
-3.1911 4.3310 -1.6106 0.9778
-3.5095 3.9682 -1.5859 0.9781
-4.3148 2.8226 -1.5436 0.9787
-4.5367 2.4209 -1.5395 0.9788
-4.9143 1.5846 -1.5458 0.9787
-3.0564 0.6925 -0.9382 0.9870
-2.7619 0.1232 -0.8277 0.9885
-2.8066 -0.1252 -0.8411 0.9883
-2.9771 -0.6745 -0.9139 0.9873
-3.1092 -1.0026 -0.9780 0.9865
-5.4921 -2.3288 -1.7859 0.9754
-5.3491 -3.4992 -1.9136 0.9737
-5.2194 -4.1217 -1.9911 0.9726
-5.0448 -4.7713 -2.0788 0.9714
-4.8196 -5.4496 -2.1780 0.9701
-4.1899 -6.8976 -2.4161 0.9669
-3.2629 -8.4720 -2.7180 0.9628
-1.9113 -9.9711 -3.0395 0.9585
-1.0895 -10.8305 -3.2588 0.9556
-0.1304 -11.7033 -3.5040 0.9523
0.9832 -12.5820 -3.7783 0.9487
2.2666 -13.4376 -4.0798 0.9447
5.8664 -0.3927 -1.7602 0.9757
5.5231 0.1231 -1.6539 0.9772
5.5065 1.1192 -1.6823 0.9768
11.0968 6.9112 -3.9138 0.9469
9.6773 7.2980 -3.6287 0.9507
8.3530 7.5548 -3.3718 0.9541
7.1249 7.7034 -3.1415 0.9571
5.9908 7.7625 -2.9355 0.9599
4.9461 7.7479 -2.7519 0.9623
3.9851 7.6727 -2.5884 0.9645
2.2898 7.3816 -2.3138 0.9682
-0.8958 6.1423 -1.8583 0.9744
-1.8492 5.5233 -1.7438 0.9760
-2.6618 4.8572 -1.6582 0.9771
-3.6589 3.7833 -1.5757 0.9783
-4.1954 3.0197 -1.5475 0.9786
-4.6394 2.2161 -1.5392 0.9788
-2.8473 0.5130 -0.8662 0.9880
-5.1676 -3.0607 -1.9074 0.9751
-5.0548 -3.6382 -1.9779 0.9742
-4.7009 -4.8606 -2.1475 0.9720
-2.7847 -8.3175 -2.7856 0.9639
-2.1280 -8.9294 -2.9153 0.9622
-1.4100 -9.6677 -3.1028 0.9598
-0.5810 -10.4196 -3.3143 0.9571
0.3732 -11.1643 -3.5476 0.9542
1.4646 -11.8921 -3.8053 0.9510
2.7012 -12.5704 -4.0833 0.9475
4.0881 -13.1789 -4.3822 0.9437
5.7034 -0.1271 -1.8118 0.9763
5.4789 0.8615 -1.7614 0.9770
5.7202 1.4307 -1.8726 0.9756
13.4650 4.6756 -4.5268 0.9419
12.1146 5.4586 -4.2199 0.9458
10.7920 6.0715 -3.9325 0.9494
9.5186 6.5342 -3.6667 0.9527
8.3080 6.8668 -3.4231 0.9558
6.1052 7.2213 -3.0031 0.9611
5.1118 7.2717 -2.8229 0.9634
4.1894 7.2563 -2.6610 0.9654
2.5433 7.0693 -2.3860 0.9690
1.8115 6.9144 -2.2700 0.9704
1.1347 6.7271 -2.1666 0.9718
-0.0699 6.2749 -1.9929 0.9740
-0.6054 6.0175 -1.9207 0.9749
-1.1008 5.7428 -1.8570 0.9758
-1.5593 5.4531 -1.8012 0.9765
-3.0733 4.1711 -1.6454 0.9785
-3.9251 3.0996 -1.5884 0.9792
-4.3764 2.3353 -1.5754 0.9794
-4.7399 1.5284 -1.5816 0.9793
-2.9791 0.6750 -0.9701 0.9873
-2.7186 0.1212 -0.8643 0.9886
-2.8255 -0.3800 -0.9054 0.9881
-5.2681 -2.2339 -1.8173 0.9763
-5.2098 -2.7800 -1.8754 0.9755
-4.9832 -3.9352 -2.0166 0.9737
-4.8069 -4.5463 -2.1012 0.9726
-4.5820 -5.1809 -2.1966 0.9714
-4.3027 -5.8396 -2.3036 0.9700
-3.9621 -6.5224 -2.4237 0.9685
-3.5523 -7.2287 -2.5580 0.9668
-3.0646 -7.9571 -2.7080 0.9648
-2.4560 -8.5893 -2.8372 0.9632
-1.0104 -10.0439 -3.2059 0.9585
0.9011 -11.5319 -3.6735 0.9526
2.0643 -12.2382 -3.9416 0.9492
3.3758 -12.8853 -4.2303 0.9456
4.8377 -13.4469 -4.5385 0.9418
5.9524 -0.3985 -1.8946 0.9753
5.4622 0.6110 -1.7455 0.9772
5.5515 1.1284 -1.7991 0.9765
6.3364 1.8884 -2.0998 0.9726
11.4483 5.7851 -4.0736 0.9476
8.9049 6.7155 -3.5421 0.9543
7.7288 6.9903 -3.3095 0.9572
6.6292 7.1674 -3.1006 0.9599
3.7538 7.2273 -2.5864 0.9664
2.1703 6.9962 -2.3263 0.9697
1.4665 6.8244 -2.2168 0.9711
0.8157 6.6230 -2.1192 0.9724
0.2138 6.3964 -2.0325 0.9735
-0.3428 6.1485 -1.9557 0.9745
-2.5608 4.6728 -1.6922 0.9779
-4.0463 2.9124 -1.5833 0.9793
-4.6571 1.7344 -1.5782 0.9794
-3.4730 0.9513 -1.1436 0.9850
-2.6951 0.2408 -0.8593 0.9887
-2.7374 -0.2446 -0.9234 0.9885
-5.0326 -2.4038 -1.8738 0.9767
-4.9533 -2.9338 -1.9342 0.9760
-4.4825 -4.6349 -2.1664 0.9732
-3.9300 -5.8639 -2.3717 0.9707
-3.5651 -6.5055 -2.4924 0.9692
-3.1319 -7.1629 -2.6266 0.9675
-2.6226 -7.8333 -2.7754 0.9657
-1.9976 -8.3821 -2.8951 0.9643
0.3452 -10.3250 -3.4709 0.9573
1.3465 -10.9332 -3.7011 0.9546
3.7155 -11.9777 -4.2135 0.9485
5.0778 -12.3562 -4.4883 0.9452
6.5442 -12.5999 -4.7703 0.9418
5.7651 -0.1285 -1.9374 0.9760
12.2006 4.2365 -4.3393 0.9470
11.0473 4.9777 -4.0711 0.9502
8.7814 6.0281 -3.5787 0.9560
7.7042 6.3678 -3.3582 0.9587
4.8043 6.8342 -2.8067 0.9654
3.9510 6.8433 -2.6549 0.9672
3.1546 6.7979 -2.5179 0.9689
1.7228 6.5758 -2.2839 0.9717
1.0816 6.4120 -2.1848 0.9729
0.4860 6.2199 -2.0962 0.9740
-0.5801 5.7663 -1.9471 0.9758
-1.9076 4.9531 -1.7833 0.9779
-2.2871 4.6541 -1.7423 0.9784
-2.6382 4.3432 -1.7073 0.9788
-2.9627 4.0210 -1.6781 0.9791
-3.5368 3.3451 -1.6356 0.9797
-3.7886 2.9918 -1.6220 0.9798
-4.4113 1.8705 -1.6098 0.9800
-2.6180 0.3521 -0.8875 0.9889
-2.7751 -0.3732 -0.9408 0.9883
-2.8653 -0.6492 -0.9871 0.9877
-5.0902 -1.6414 -1.7969 0.9777
-4.9973 -2.6666 -1.9031 0.9764
-4.7653 -3.7631 -2.0401 0.9747
-4.3646 -4.9351 -2.2135 0.9726
-3.7556 -6.1826 -2.4305 0.9699
-3.3575 -6.8324 -2.5578 0.9684
-0.9413 -9.3571 -3.1597 0.9611
-0.1115 -10.0079 -3.3627 0.9586
0.8310 -10.6343 -3.5838 0.9560
1.8933 -11.2245 -3.8245 0.9531
3.0778 -11.7479 -4.0803 0.9500
5.7992 -12.4970 -4.6288 0.9435
5.6288 1.1441 -1.9299 0.9761
11.6247 4.6265 -4.2037 0.9486
9.3365 5.8149 -3.6956 0.9546
7.1922 6.5050 -3.2582 0.9599
6.1936 6.6965 -3.0647 0.9622
5.2527 6.8062 -2.8886 0.9644
3.5458 6.8269 -2.5846 0.9681
1.3963 6.4978 -2.2330 0.9723
0.7783 6.3193 -2.1392 0.9735
-0.3283 5.8874 -1.9811 0.9754
-1.2814 5.3768 -1.8571 0.9769
-2.8037 4.1834 -1.6920 0.9790
-3.4023 3.5180 -1.6443 0.9796
-3.6656 3.1698 -1.6282 0.9798
-4.3210 2.0640 -1.6089 0.9800
-4.4962 1.6744 -1.6120 0.9800
-2.6265 0.7195 -0.9150 0.9886
-2.6519 0.0000 -0.9403 0.9888
-2.6931 -0.2407 -0.9588 0.9886
-2.7668 -0.4985 -0.9969 0.9881
-2.8417 -0.7784 -1.0448 0.9876
-4.2815 -4.4270 -2.1838 0.9742
-4.0357 -4.9950 -2.2770 0.9731
-3.3824 -6.1720 -2.4956 0.9706
-1.8807 -7.8916 -2.8766 0.9662
-1.2337 -8.4592 -3.0312 0.9644
-0.5041 -9.0401 -3.2105 0.9623
1.2456 -10.1134 -3.6132 0.9577
2.2726 -10.5756 -3.8356 0.9551
4.6238 -11.2515 -4.3134 0.9497
5.9259 -11.4093 -4.5587 0.9469
5.6172 0.3760 -1.9962 0.9764
5.6148 0.8829 -2.0154 0.9762
6.0317 1.5086 -2.2046 0.9740
10.1436 4.5705 -3.9450 0.9539
9.1374 5.1406 -3.7176 0.9565
7.1768 5.9318 -3.3015 0.9613
5.3696 6.3512 -2.9491 0.9653
2.2937 6.3755 -2.4025 0.9717
0.4649 5.9496 -2.1161 0.9750
-0.0641 5.7521 -2.0397 0.9759
-0.5566 5.5328 -1.9717 0.9767
-1.0148 5.2943 -1.9115 0.9774
-1.8366 4.7687 -1.8120 0.9785
-3.4157 3.2306 -1.6671 0.9802
-3.6599 2.8902 -1.6536 0.9804
-4.0830 2.1788 -1.6410 0.9806
-4.4209 1.4256 -1.6471 0.9805
-2.5748 0.3463 -0.9212 0.9890
-2.6347 0.1175 -0.9351 0.9889
-2.8709 -0.9257 -1.0696 0.9873
-4.8649 -2.0629 -1.8737 0.9778
-4.6999 -3.0745 -1.9914 0.9764
-4.1648 -4.7091 -2.2291 0.9737
-3.1812 -6.4734 -2.5576 0.9699
6.6004 -11.4322 -4.6808 0.9455
7.9783 -11.3493 -4.9192 0.9428
5.7093 1.1605 -2.0658 0.9756
11.6315 3.4666 -4.3036 0.9498
10.6455 4.2368 -4.0627 0.9525
9.6401 4.8713 -3.8299 0.9552
8.6380 5.3798 -3.6084 0.9577
6.7177 6.0758 -3.2118 0.9623
4.9432 6.4051 -2.8689 0.9662
4.1263 6.4637 -2.7191 0.9680
3.3577 6.4646 -2.5830 0.9696
2.6367 6.4161 -2.4597 0.9710
1.3318 6.1977 -2.2478 0.9735
0.1957 5.8537 -2.0768 0.9754
-0.3147 5.6450 -2.0047 0.9763
-2.0237 4.6283 -1.7912 0.9788
-2.7045 4.0354 -1.7225 0.9796
-3.0068 3.7216 -1.6965 0.9799
-3.7738 2.7162 -1.6487 0.9805
-4.1754 1.9944 -1.6408 0.9806
-2.5828 0.7075 -0.9496 0.9887
-2.6624 0.4797 -0.9592 0.9886
-2.6060 0.2329 -0.9277 0.9890
-2.6498 -0.2368 -0.9934 0.9887
-2.7171 -0.4895 -1.0309 0.9883
-2.7878 -0.7637 -1.0794 0.9877
-4.7051 -1.7522 -1.8748 0.9788
-4.6524 -2.2222 -1.9252 0.9782
-4.5680 -2.7056 -1.9825 0.9776
-4.4492 -3.2023 -2.0470 0.9769
-4.0956 -4.2348 -2.1999 0.9752
-3.8533 -4.7692 -2.2895 0.9742
-3.5616 -5.3142 -2.3888 0.9731
-3.2156 -5.8677 -2.4985 0.9718
-2.3394 -6.9875 -2.7515 0.9690
-1.1600 -7.9533 -3.0013 0.9663
-0.4723 -8.4696 -3.1675 0.9644
0.2994 -8.9562 -3.3462 0.9625
3.1324 -10.0979 -3.9479 0.9559
4.2403 -10.3181 -4.1655 0.9535
5.4087 -10.4137 -4.3818 0.9511
13.6151 -2.7674 -5.1880 0.9424
13.4345 -1.5029 -5.0479 0.9439
6.0392 -0.1346 -2.2557 0.9745
5.7014 0.3817 -2.1337 0.9759
5.7193 0.8993 -2.1619 0.9756
11.0796 2.7712 -4.2647 0.9524
10.2436 3.5570 -4.0491 0.9548
9.3682 4.2211 -3.8369 0.9571
8.4763 4.7687 -3.6317 0.9593
6.7167 5.5515 -3.2539 0.9635
4.2803 6.0888 -2.7792 0.9687
2.8424 6.1253 -2.5215 0.9716
1.5667 5.9801 -2.3084 0.9739
0.9875 5.8542 -2.2169 0.9750
0.4453 5.6989 -2.1345 0.9759
-0.0615 5.5181 -2.0606 0.9767
-0.5347 5.3149 -1.9947 0.9775
-0.9761 5.0920 -1.9360 0.9781
-2.4554 4.0422 -1.7660 0.9800
-2.7607 3.7468 -1.7379 0.9803
-3.3013 3.1224 -1.6968 0.9808
-4.2746 1.3784 -1.6771 0.9810
-2.5436 0.5763 -0.9739 0.9889
-2.5920 0.1156 -0.9689 0.9890
-2.6781 -0.3602 -1.0090 0.9885
-4.6143 -2.4622 -1.9530 0.9779
-4.5131 -2.9523 -2.0138 0.9772
-4.3759 -3.4556 -2.0821 0.9765
-3.7139 -5.0405 -2.3379 0.9736
-3.0206 -6.1467 -2.5574 0.9712
-2.0756 -7.2588 -2.8192 0.9683
0.7177 -9.1845 -3.4400 0.9614
3.6777 -10.2225 -4.0567 0.9547
4.8178 -10.3821 -4.2739 0.9523
7.2321 -10.2879 -4.6958 0.9477
8.4519 -9.9969 -4.8883 0.9456
9.6317 -9.5250 -5.0582 0.9438
13.5508 -2.1308 -5.1222 0.9431
13.2693 -0.8883 -4.9660 0.9448
5.6727 0.6346 -2.1315 0.9759
9.8093 3.9040 -3.9423 0.9559
7.1464 5.3893 -3.3423 0.9625
6.2974 5.6956 -3.1706 0.9644
5.4634 5.9070 -3.0045 0.9662
4.6650 6.0447 -2.8512 0.9679
3.9056 6.1180 -2.7103 0.9695
1.8707 6.0307 -2.3578 0.9734
1.2724 5.9211 -2.2615 0.9745
0.1876 5.6115 -2.0966 0.9763
-0.3022 5.4191 -2.0267 0.9771
-0.7592 5.2058 -1.9645 0.9778
-2.2936 4.1854 -1.7822 0.9798
-2.6110 3.8960 -1.7513 0.9802
-3.1746 3.2825 -1.7052 0.9807
-3.4225 2.9596 -1.6896 0.9809
-4.2008 1.5644 -1.6739 0.9810
-3.4442 0.9434 -1.3335 0.9849
-2.5629 0.2290 -0.9608 0.9891
-2.6073 -0.2330 -1.0273 0.9888
-4.2743 -3.0765 -2.0669 0.9776
-3.9231 -4.0565 -2.2148 0.9760
-3.6847 -4.5606 -2.3011 0.9751
-3.0627 -5.5886 -2.5011 0.9730
-2.6703 -6.1071 -2.6160 0.9718
-1.6875 -7.0811 -2.8569 0.9692
-1.0938 -7.4993 -2.9744 0.9680
0.2805 -8.3899 -3.2946 0.9646
1.0807 -8.7742 -3.4697 0.9627
3.9087 -9.5113 -4.0358 0.9568
6.0582 -9.4901 -4.4188 0.9528
8.2241 -8.8918 -4.7536 0.9493
9.2375 -8.3548 -4.8883 0.9479
10.9485 -6.8188 -5.0622 0.9461
11.5740 -5.8486 -5.0895 0.9458
12.0142 -4.7816 -5.0750 0.9460
12.2677 -3.6562 -5.0240 0.9465
12.3241 -2.5050 -4.9358 0.9474
5.8527 0.3918 -2.3021 0.9751
5.8645 0.9222 -2.3299 0.9748
9.4701 3.2884 -3.9344 0.9578
8.6952 3.9179 -3.7430 0.9598
7.8977 4.4432 -3.5565 0.9618
7.0945 4.8701 -3.3773 0.9637
6.3149 5.2194 -3.2154 0.9654
5.5349 5.4736 -3.0551 0.9671
4.7800 5.6538 -2.9057 0.9687
4.0551 5.7684 -2.7674 0.9702
2.7061 5.8314 -2.5231 0.9728
2.0843 5.7933 -2.4164 0.9739
-0.0590 5.2999 -2.0802 0.9775
-0.5142 5.1112 -2.0161 0.9782
-0.9397 4.9024 -1.9591 0.9788
-2.9416 3.3260 -1.7426 0.9811
-3.4232 2.7033 -1.7119 0.9814
-2.4910 0.3350 -0.9865 0.9893
-2.6312 -0.3539 -1.0420 0.9887
-2.7055 -0.6130 -1.0887 0.9882
-4.5113 -1.9129 -1.9232 0.9792
-4.4410 -2.3698 -1.9756 0.9786
-4.0259 -3.8077 -2.1748 0.9765
-3.5481 -4.8155 -2.3476 0.9746
-1.9670 -6.8789 -2.8080 0.9697
-0.7780 -7.7335 -3.0505 0.9672
-0.0911 -8.1802 -3.2107 0.9655
0.6711 -8.5885 -3.3810 0.9637
4.4334 -9.5537 -4.1336 0.9558
5.5115 -9.5462 -4.3262 0.9537
6.6066 -9.3980 -4.5086 0.9518
7.6935 -9.1000 -4.6768 0.9501
8.7402 -8.6434 -4.8244 0.9486
10.5711 -7.2567 -5.0323 0.9464
12.1657 -4.2244 -5.0544 0.9462
12.3203 -3.0815 -4.9843 0.9469
5.8157 0.6506 -2.2967 0.9752
8.2981 4.1932 -3.6490 0.9608
7.4959 4.6685 -3.4658 0.9628
6.6950 5.0489 -3.2910 0.9646
5.9221 5.3563 -3.1339 0.9663
5.1539 5.5724 -2.9790 0.9679
4.4136 5.7188 -2.8352 0.9694
3.7049 5.8037 -2.7023 0.9708
3.0303 5.8343 -2.5802 0.9721
2.3907 5.8175 -2.4685 0.9733
0.6822 5.5393 -2.1904 0.9763
0.1801 5.3858 -2.1150 0.9771
-0.2904 5.2082 -2.0472 0.9778
-1.1418 4.7911 -1.9330 0.9791
-1.8827 4.3058 -1.8444 0.9800
-2.8076 3.4750 -1.7533 0.9810
-3.0700 3.1744 -1.7332 0.9812
-3.3108 2.8629 -1.7178 0.9814
-3.5303 2.5410 -1.7071 0.9815
-3.7291 2.2088 -1.7010 0.9815
-3.9072 1.8663 -1.6994 0.9816
-2.5634 0.4618 -1.0222 0.9889
-2.5656 -0.2292 -1.0607 0.9889
-2.6211 -0.4722 -1.0967 0.9885
-2.6436 -0.9845 -1.1616 0.9879
-4.3179 -2.0625 -1.9705 0.9795
-4.2305 -2.5057 -2.0247 0.9790
-4.1107 -2.9587 -2.0856 0.9783
-3.9556 -3.4206 -2.1534 0.9776
-3.7626 -3.8905 -2.2287 0.9769
-3.5283 -4.3670 -2.3119 0.9760
-2.9219 -5.3317 -2.5036 0.9740
-1.0353 -7.0985 -2.9540 0.9694
-0.4184 -7.5043 -3.0949 0.9680
0.2636 -7.8848 -3.2486 0.9664
2.6991 -8.7010 -3.7513 0.9614
3.6241 -8.8186 -3.9260 0.9596
5.5748 -8.7328 -4.2663 0.9562
6.5635 -8.5046 -4.4237 0.9546
9.2529 -6.9780 -4.7722 0.9511
10.5241 -5.3180 -4.8555 0.9503
10.9342 -4.3517 -4.8460 0.9504
11.1750 -3.3305 -4.8017 0.9508
11.2440 -2.2854 -4.7247 0.9516
10.8995 -0.2429 -4.4893 0.9539
6.1078 0.4089 -2.5207 0.9739
6.4336 1.0116 -2.6818 0.9722
9.4440 2.3621 -4.0087 0.9588
7.3869 4.1558 -3.4901 0.9640
5.9466 4.9150 -3.1768 0.9672
3.2005 5.5434 -2.6358 0.9727
1.9916 5.5356 -2.4225 0.9749
1.4336 5.4720 -2.3293 0.9758
0.9066 5.3749 -2.2445 0.9767
0.4101 5.2483 -2.1677 0.9775
-0.0568 5.0957 -2.0984 0.9782
-0.4950 4.9201 -2.0362 0.9788
-0.9056 4.7241 -1.9807 0.9794
-1.9821 4.0334 -1.8506 0.9807
-3.3139 2.6170 -1.7388 0.9819
-3.5169 2.3007 -1.7305 0.9820
-3.8621 1.6377 -1.7274 0.9820
-2.6388 0.5979 -1.1141 0.9884
-2.4504 0.3296 -1.0181 0.9894
-2.5479 -0.1136 -1.0502 0.9890
-2.5854 -0.3477 -1.0742 0.9888
-4.3501 -1.8446 -1.9457 0.9798
-3.6508 -4.1281 -2.2693 0.9764
-2.7388 -5.5733 -2.5571 0.9735
-2.3315 -6.0536 -2.6712 0.9723
-1.8660 -6.5259 -2.7950 0.9711
-0.7344 -7.3005 -3.0214 0.9688
-0.0858 -7.6995 -3.1707 0.9672
0.6297 -8.0587 -3.3285 0.9656
1.4112 -8.3661 -3.4937 0.9640
4.1022 -8.8399 -4.0130 0.9587
5.0796 -8.7982 -4.1834 0.9570
6.0708 -8.6358 -4.3468 0.9554
7.0497 -8.3385 -4.4963 0.9539
7.9881 -7.8996 -4.6261 0.9526
8.8555 -7.3192 -4.7308 0.9515
10.2586 -5.7714 -4.8469 0.9504
11.0762 -3.8460 -4.8281 0.9505
11.2308 -2.8090 -4.7671 0.9512
11.0414 -0.7391 -4.5568 0.9533
10.7242 0.2390 -4.4171 0.9547
6.0601 0.6779 -2.5110 0.9740
9.7443 1.9806 -4.0946 0.9579
9.1274 2.7203 -3.9219 0.9596
5.5850 5.0513 -3.1009 0.9679
4.8743 5.2700 -2.9560 0.9694
4.1850 5.4227 -2.8206 0.9708
3.5216 5.5165 -2.6950 0.9721
0.6546 5.3150 -2.2052 0.9771
0.1730 5.1750 -2.1322 0.9779
-0.2794 5.0106 -2.0665 0.9785
-2.7158 3.3615 -1.7795 0.9815
-2.9708 3.0718 -1.7597 0.9817
-3.7834 1.8072 -1.7265 0.9820
-2.4793 0.2215 -1.0250 0.9893
-2.5221 -0.2254 -1.0923 0.9890
-2.5389 -0.4574 -1.1128 0.9888
-2.5507 -0.6987 -1.1408 0.9885
-2.5688 -0.9566 -1.1824 0.9881
-4.1652 -1.9895 -1.9911 0.9801
-4.0769 -2.4147 -2.0439 0.9796
-3.1102 -4.6407 -2.4098 0.9760
-2.0044 -5.9867 -2.7233 0.9729
-1.5280 -6.4117 -2.8432 0.9717
-0.9820 -6.7327 -2.9349 0.9708
-0.3954 -7.0919 -3.0639 0.9695
3.3749 -8.2123 -3.8299 0.9621
5.1602 -8.0833 -4.1367 0.9591
6.9269 -7.4892 -4.4005 0.9565
7.7455 -7.0054 -4.5049 0.9555
9.1267 -5.6842 -4.6380 0.9542
9.6435 -4.8731 -4.6607 0.9540
10.0210 -3.9883 -4.6524 0.9541
10.2495 -3.0547 -4.6134 0.9545
10.0517 -0.2240 -4.3369 0.9571
9.2954 1.4616 -4.0589 0.9598
8.7826 2.1967 -3.9051 0.9613
8.2059 2.8494 -3.7470 0.9629
7.5837 3.4171 -3.5880 0.9644
6.2658 4.3013 -3.2784 0.9674
4.9485 4.8936 -3.0020 0.9701
4.2958 5.0811 -2.8701 0.9714
3.6620 5.2093 -2.7467 0.9726
3.0508 5.2842 -2.6320 0.9738
2.4648 5.3116 -2.5259 0.9748
1.9056 5.2968 -2.4282 0.9758
0.3942 5.0447 -2.1827 0.9782
-0.4769 4.7405 -2.0551 0.9795
-1.5921 4.1338 -1.9108 0.9809
-1.9161 3.8991 -1.8740 0.9813
-2.4970 3.3890 -1.8158 0.9818
-2.7553 3.1155 -1.7940 0.9820
-2.9928 2.8306 -1.7769 0.9822
-3.2100 2.5349 -1.7643 0.9823
-3.7418 1.5867 -1.7532 0.9825
-2.4655 0.1099 -1.0645 0.9893
-2.5277 -0.3399 -1.1001 0.9890
-2.5665 -0.8276 -1.1632 0.9883
-2.6695 -1.1320 -1.2508 0.9874
-4.1249 -2.2011 -2.0168 0.9798
-4.0211 -2.6305 -2.0727 0.9793
-3.8846 -3.0676 -2.1351 0.9787
-3.7127 -3.5115 -2.2044 0.9780
-3.5029 -3.9608 -2.2808 0.9772
-3.2520 -4.4136 -2.3648 0.9764
-2.6144 -5.3201 -2.5570 0.9745
-1.7738 -6.2032 -2.7831 0.9723
-1.2577 -6.5615 -2.8819 0.9713
-0.0810 -7.2666 -3.1347 0.9688
0.5926 -7.5844 -3.2815 0.9674
1.3243 -7.8508 -3.4343 0.9659
4.7092 -8.1565 -4.0627 0.9598
5.6103 -7.9808 -4.2081 0.9584
7.3442 -7.2628 -4.4555 0.9560
8.8210 -6.0553 -4.6153 0.9545
9.4017 -5.2893 -4.6532 0.9541
9.8504 -4.4384 -4.6605 0.9540
10.1542 -3.5259 -4.6367 0.9543
10.3068 -2.5779 -4.5829 0.9548
9.0482 1.8391 -3.9828 0.9606
7.2607 3.6690 -3.5091 0.9652
6.6002 4.1106 -3.3540 0.9667
5.2803 4.7757 -3.0711 0.9695
3.9763 5.1522 -2.8073 0.9720
2.7546 5.3035 -2.5779 0.9743
2.1818 5.3092 -2.4760 0.9753
1.6363 5.2751 -2.3824 0.9762
0.1664 4.9775 -2.1483 0.9785
-0.6783 4.6507 -2.0274 0.9797
-1.4214 4.2456 -1.9313 0.9807
-1.7570 4.0183 -1.8918 0.9811
-2.0696 3.7765 -1.8576 0.9814
-3.3111 2.3832 -1.7597 0.9824
-3.4983 2.0720 -1.7538 0.9824
-2.4719 0.4453 -1.0835 0.9891
-2.4282 0.0000 -1.0956 0.9894
-2.4593 -0.4431 -1.1275 0.9891
-3.6601 -3.1650 -2.1834 0.9790
-3.4724 -3.5905 -2.2538 0.9783
-2.9807 -4.4475 -2.4158 0.9768
-2.3154 -5.2953 -2.6078 0.9750
-1.4544 -6.1028 -2.8308 0.9728
-0.3746 -6.7174 -3.0357 0.9709
0.2347 -7.0214 -3.1700 0.9696
0.8966 -7.2800 -3.3097 0.9683
1.6080 -7.4828 -3.4535 0.9670
4.7987 -7.5170 -4.0240 0.9616
6.4129 -6.9336 -4.2616 0.9594
7.1582 -6.4742 -4.3550 0.9585
8.4159 -5.2415 -4.4737 0.9574
9.2383 -3.6767 -4.4865 0.9573
9.5376 -1.9386 -4.3915 0.9582
9.4886 -1.0614 -4.3081 0.9590
9.0339 0.6048 -4.0854 0.9610
7.1189 3.2077 -3.5232 0.9663
5.3137 4.3919 -3.1106 0.9702
3.4893 4.9635 -2.7376 0.9737
2.9126 5.0449 -2.6285 0.9748
2.3575 5.0803 -2.5271 0.9757
1.3185 5.0325 -2.3474 0.9774
-0.4599 4.5711 -2.0730 0.9800
-0.8429 4.3976 -2.0204 0.9805
-1.2025 4.2053 -1.9735 0.9810
-2.6690 3.0179 -1.8179 0.9825
-2.8999 2.7428 -1.8010 0.9826
-3.3026 2.1605 -1.7807 0.9828
-3.7602 1.2125 -1.7827 0.9828
-2.5488 0.5775 -1.1792 0.9886
-2.4395 -0.1088 -1.1018 0.9893
-2.4521 -0.3298 -1.1164 0.9892
-2.4671 -0.5590 -1.1414 0.9890
-2.4782 -0.7991 -1.1749 0.9886
-2.4891 -1.0554 -1.2199 0.9882
-3.8763 -2.5357 -2.0900 0.9799
-3.3646 -3.8044 -2.2916 0.9780
-3.1191 -4.2332 -2.3726 0.9772
-2.8316 -4.6613 -2.4609 0.9764
-1.6890 -5.9069 -2.7721 0.9734
-0.0766 -6.8745 -3.1021 0.9703
0.5592 -7.1570 -3.2392 0.9690
1.2464 -7.3891 -3.3812 0.9677
1.9806 -7.5599 -3.5263 0.9663
2.7553 -7.6584 -3.6724 0.9649
4.3848 -7.5946 -3.9569 0.9622
8.1371 -5.5858 -4.4534 0.9576
8.6672 -4.8761 -4.4872 0.9573
9.5291 -1.4984 -4.3525 0.9586
9.1881 0.2048 -4.1469 0.9605
8.4368 1.7148 -3.8847 0.9629
7.9477 2.3687 -3.7420 0.9643
7.4053 2.9472 -3.5963 0.9656
6.8249 3.4488 -3.4504 0.9670
6.2205 3.8742 -3.3067 0.9684
4.3879 4.7442 -2.9159 0.9720
3.7848 4.9041 -2.7952 0.9732
2.6323 5.0680 -2.5768 0.9753
2.0886 5.0823 -2.4793 0.9762
1.5690 5.0579 -2.3895 0.9770
1.0742 4.9989 -2.3071 0.9778
-0.2593 4.6503 -2.1016 0.9798
-0.6544 4.4868 -2.0459 0.9803
-2.2847 3.4090 -1.8517 0.9822
-2.5460 3.1512 -1.8280 0.9824
-2.7870 2.8817 -1.8089 0.9826
-3.0080 2.6011 -1.7943 0.9827
-3.5534 1.6973 -1.7769 0.9829
-3.6961 1.3765 -1.7797 0.9828
-2.4063 0.4335 -1.1032 0.9893
-2.3848 0.2131 -1.0804 0.9895
-2.3773 -0.2124 -1.1251 0.9895
-2.3816 -0.4291 -1.1407 0.9894
-2.4034 -0.8950 -1.2089 0.9887
-3.3407 -3.4543 -2.2652 0.9790
-3.1197 -3.8612 -2.3399 0.9783
-2.5589 -4.6694 -2.5099 0.9767
-2.2144 -5.0643 -2.6054 0.9759
-1.3858 -5.8149 -2.8178 0.9739
0.2223 -6.6493 -3.1361 0.9710
1.5156 -7.0528 -3.4004 0.9686
2.2222 -7.1637 -3.5355 0.9674
4.4801 -7.0179 -3.9247 0.9639
5.9638 -6.4479 -4.1401 0.9619
6.6466 -6.0115 -4.2244 0.9611
7.2645 -5.4784 -4.2889 0.9606
8.5596 -3.4067 -4.3426 0.9601
8.7660 -2.6125 -4.3117 0.9604
8.8513 -1.7991 -4.2576 0.9608
8.8178 -0.9864 -4.1825 0.9615
8.6726 -0.1933 -4.0891 0.9624
7.6826 1.9216 -3.7329 0.9656
7.2147 2.5052 -3.6000 0.9668
6.1577 3.4643 -3.3304 0.9692
5.6012 3.8450 -3.2025 0.9704
3.8903 4.6014 -2.8403 0.9737
2.7846 4.8231 -2.6252 0.9757
2.2577 4.8653 -2.5283 0.9766
1.7512 4.8675 -2.4384 0.9774
1.2664 4.8340 -2.3555 0.9781
0.8043 4.7684 -2.2795 0.9788
0.3652 4.6742 -2.2100 0.9795
-0.8142 4.2475 -2.0386 0.9811
-1.1623 4.0650 -1.9929 0.9815
-1.4888 3.8655 -1.9526 0.9818
-2.3425 3.1793 -1.8615 0.9827
-2.5867 2.9249 -1.8405 0.9829
-2.8114 2.6590 -1.8241 0.9830
-3.0167 2.3823 -1.8119 0.9831
-3.3699 1.7983 -1.8005 0.9833
-2.5265 0.5724 -1.2211 0.9886
-2.2973 0.3090 -1.0926 0.9898
-2.3488 0.1047 -1.1083 0.9897
-2.3799 -0.3201 -1.1319 0.9894
-2.4109 -1.0223 -1.2344 0.9885
-3.8433 -2.0509 -2.0535 0.9809
-3.7396 -2.4463 -2.1064 0.9804
-3.4375 -3.2512 -2.2303 0.9793
-3.2349 -3.6577 -2.3017 0.9786
-2.9948 -4.0645 -2.3798 0.9779
-2.7147 -4.4690 -2.4648 0.9771
-2.0250 -5.2578 -2.6559 0.9754
-1.6109 -5.6337 -2.7621 0.9744
-0.6275 -6.2373 -2.9550 0.9727
-0.0726 -6.5175 -3.0724 0.9716
0.5290 -6.7698 -3.2009 0.9704
1.8645 -7.1168 -3.4679 0.9680
3.3360 -7.1888 -3.7357 0.9656
6.3121 -6.2422 -4.1846 0.9615
8.6779 -3.0133 -4.3302 0.9602
8.8237 -2.2070 -4.2874 0.9606
6.9631 2.7713 -3.5326 0.9674
6.4330 3.2508 -3.3975 0.9686
5.8774 3.6605 -3.2638 0.9698
5.3284 4.0184 -3.1459 0.9709
4.1750 4.5140 -2.8984 0.9732
3.0551 4.7857 -2.6764 0.9752
1.0325 4.8050 -2.3167 0.9785
0.1544 4.6172 -2.1777 0.9798
-0.2501 4.4854 -2.1176 0.9803
-0.6318 4.3318 -2.0635 0.9808
-0.9910 4.1584 -2.0151 0.9813
-1.6440 3.7599 -1.9344 0.9820
-1.9388 3.5378 -1.9016 0.9823
-3.2888 1.9479 -1.8018 0.9832
-3.4463 1.6461 -1.8003 0.9833
-2.3082 -0.4158 -1.1536 0.9896
-2.3175 -0.6348 -1.1819 0.9893
-2.3666 -1.1304 -1.2900 0.9884
-3.6656 -2.1711 -2.0954 0.9812
-3.5474 -2.5533 -2.1498 0.9807
-2.4541 -4.4782 -2.5117 0.9775
-1.7436 -5.2079 -2.7013 0.9758
-1.3224 -5.5489 -2.8057 0.9749
-0.8500 -5.8276 -2.8967 0.9741
-0.3383 -6.0671 -2.9887 0.9733
1.4319 -6.6637 -3.3524 0.9701
2.0950 -6.7537 -3.4780 0.9690
2.7838 -6.7740 -3.6022 0.9679
3.4886 -6.7167 -3.7227 0.9668
4.1972 -6.5748 -3.8366 0.9658
6.7659 -5.1024 -4.1681 0.9629
7.6625 -3.8720 -4.2227 0.9625
7.9657 -3.1703 -4.2169 0.9625
8.1618 -2.4325 -4.1889 0.9627
8.2483 -1.6765 -4.1399 0.9632
8.2271 -0.9203 -4.0718 0.9638
6.3257 2.8502 -3.4126 0.9695
5.8246 3.2769 -3.2871 0.9706
4.7885 3.9578 -3.0556 0.9727
0.3520 4.5048 -2.2225 0.9801
-0.0490 4.3938 -2.1612 0.9806
-0.4285 4.2598 -2.1058 0.9811
-0.7869 4.1051 -2.0559 0.9815
-1.4409 3.7413 -1.9719 0.9823
-1.7373 3.5354 -1.9375 0.9826
-2.5082 2.8361 -1.8622 0.9833
-2.7268 2.5790 -1.8460 0.9834
-2.9265 2.3110 -1.8341 0.9835
-3.1075 2.0328 -1.8264 0.9836
-3.2698 1.7448 -1.8229 0.9836
-3.4133 1.4474 -1.8235 0.9836
-3.5378 1.1408 -1.8283 0.9836
-2.5041 0.5674 -1.2629 0.9886
-2.2513 0.3028 -1.1173 0.9899
-2.2893 0.1021 -1.1271 0.9898
-2.3022 -0.1026 -1.1335 0.9898
-2.3108 -0.3108 -1.1468 0.9897
-2.3173 -0.7472 -1.1976 0.9892
-3.7136 -1.9817 -2.0704 0.9814
-3.6102 -2.3617 -2.1219 0.9810
-3.4769 -2.7457 -2.1791 0.9804
-3.3119 -3.1323 -2.2421 0.9799
-1.5386 -5.3810 -2.7527 0.9754
-1.0947 -5.7111 -2.8602 0.9744
-0.0690 -6.1909 -3.0452 0.9728
0.5014 -6.4172 -3.1659 0.9717
1.1125 -6.5953 -3.2898 0.9706
1.7597 -6.7169 -3.4152 0.9695
3.1349 -6.7555 -3.6631 0.9673
4.5486 -6.4704 -3.8902 0.9654
5.2359 -6.1930 -3.9888 0.9645
5.8887 -5.8234 -4.0735 0.9638
6.4899 -5.3640 -4.1413 0.9632
7.0229 -4.8209 -4.1898 0.9627
7.8272 -3.5268 -4.2226 0.9625
8.2188 -2.0556 -4.1670 0.9629
6.0785 3.0716 -3.3497 0.9701
5.0578 3.8143 -3.1158 0.9722
4.5183 4.0866 -2.9965 0.9732
2.4130 4.6459 -2.5749 0.9769
1.4471 4.6649 -2.4023 0.9785
0.9934 4.6229 -2.3257 0.9791
-0.2414 4.3295 -2.1328 0.9809
-0.6103 4.1849 -2.0801 0.9813
-1.2852 3.8385 -1.9910 0.9821
-2.1446 3.2000 -1.8947 0.9830
-2.3918 2.9604 -1.8719 0.9832
-2.6199 2.7089 -1.8536 0.9833
-2.8290 2.4463 -1.8395 0.9835
-3.0193 2.1732 -1.8297 0.9836
-3.1910 1.8900 -1.8241 0.9836
-3.3439 1.5972 -1.8227 0.9836
-3.4779 1.2952 -1.8254 0.9836
-3.5929 0.9842 -1.8323 0.9835
-2.3061 0.4155 -1.1525 0.9896
-2.2359 0.0000 -1.1463 0.9900
-2.2721 -1.0853 -1.2909 0.9887
-3.5426 -2.0983 -2.1108 0.9817
-3.4254 -2.4655 -2.1637 0.9812
-3.2785 -2.8350 -2.2220 0.9807
-2.8879 -3.5744 -2.3559 0.9796
-2.6406 -3.9400 -2.4316 0.9789
-2.3561 -4.2993 -2.5134 0.9782
-1.2636 -5.3024 -2.7945 0.9758
-0.8139 -5.5806 -2.8913 0.9750
-0.3226 -5.7845 -2.9702 0.9743
0.2005 -5.9980 -3.0767 0.9734
3.2841 -6.3230 -3.6528 0.9685
5.2158 -5.6392 -3.9381 0.9661
5.7981 -5.2441 -4.0080 0.9655
6.3249 -4.7698 -4.0613 0.9650
6.7819 -4.2238 -4.0961 0.9647
7.7025 -0.8616 -3.9735 0.9658
7.4055 0.4957 -3.8051 0.9672
5.5211 3.1061 -3.2477 0.9719
4.0510 4.0061 -2.9208 0.9747
3.5449 4.1930 -2.8149 0.9756
2.5546 4.4247 -2.6194 0.9773
2.0776 4.4771 -2.5303 0.9781
0.7460 4.4227 -2.2994 0.9800
0.3395 4.3449 -2.2343 0.9806
-0.7610 3.9699 -2.0723 0.9820
-1.3953 3.6229 -1.9904 0.9827
-2.4332 2.7512 -1.8829 0.9836
-2.6458 2.5024 -1.8670 0.9838
-3.0162 1.9731 -1.8478 0.9839
-3.1739 1.6937 -1.8443 0.9840
-3.3132 1.4049 -1.8450 0.9840
-2.4709 0.5598 -1.2989 0.9887
-2.2093 0.2971 -1.1428 0.9900
-2.2319 0.0995 -1.1453 0.9900
-2.2377 -0.0998 -1.1483 0.9900
-2.2446 -0.3019 -1.1611 0.9899
-2.2425 -0.5081 -1.1788 0.9897
-3.4876 -2.2815 -2.1366 0.9814
-3.1933 -3.0202 -2.2533 0.9804
-2.7688 -3.7578 -2.3930 0.9792
-2.5031 -4.1207 -2.4718 0.9786
-2.1994 -4.4756 -2.5566 0.9778
-1.8560 -4.8189 -2.6474 0.9771
-0.5705 -5.6713 -2.9222 0.9747
-0.0656 -5.8909 -3.0203 0.9739
1.0545 -6.2514 -3.2502 0.9719
3.6147 -6.2608 -3.7063 0.9680
4.2707 -6.0752 -3.8071 0.9672
4.9084 -5.8057 -3.8976 0.9664
6.5629 -4.5052 -4.0811 0.9649
6.9804 -3.9271 -4.1061 0.9646
7.3109 -3.2941 -4.1110 0.9646
7.5466 -2.6205 -4.0955 0.9647
7.6833 -1.9217 -4.0603 0.9650
7.7204 -1.2140 -4.0067 0.9655
7.6611 -0.5128 -3.9364 0.9661
6.2043 2.4693 -3.4234 0.9704
5.7560 2.9086 -3.3063 0.9714
4.3046 3.8933 -2.9756 0.9742
3.2939 4.2680 -2.7639 0.9761
2.3143 4.4558 -2.5741 0.9777
1.8447 4.4889 -2.4881 0.9784
1.3917 4.4863 -2.4081 0.9791
0.9565 4.4514 -2.3342 0.9797
0.1436 4.2964 -2.2038 0.9809
-0.2332 4.1817 -2.1472 0.9813
-0.5900 4.0455 -2.0959 0.9818
-1.5417 3.5260 -1.9729 0.9829
-1.8201 3.3212 -1.9416 0.9831
-2.0794 3.1026 -1.9148 0.9834
-2.3199 2.8713 -1.8925 0.9835
-2.7453 2.3740 -1.8607 0.9838
-2.9305 2.1093 -1.8511 0.9839
-3.2459 1.5504 -1.8441 0.9840
-2.2585 0.4069 -1.1765 0.9897
-2.1765 0.0000 -1.1619 0.9902
-2.1811 -0.1949 -1.1690 0.9901
-2.1873 -0.5992 -1.2107 0.9898
-2.2033 -1.0524 -1.3035 0.9890
-3.4257 -2.0290 -2.1255 0.9821
-3.3096 -2.3821 -2.1769 0.9817
-2.5407 -3.7910 -2.4363 0.9795
-0.3079 -5.5220 -2.9525 0.9752
0.1909 -5.7112 -3.0506 0.9744
0.7234 -5.8732 -3.1591 0.9735
1.8750 -6.0444 -3.3785 0.9717
2.4822 -6.0400 -3.4861 0.9708
3.0993 -5.9672 -3.5896 0.9700
4.3210 -5.5988 -3.7755 0.9684
5.4421 -4.9221 -3.9173 0.9673
6.9736 -2.7754 -4.0068 0.9665
7.1512 -2.1313 -3.9835 0.9667
7.2375 -1.4711 -3.9427 0.9671
7.2334 -0.8092 -3.8856 0.9675
7.1429 -0.1592 -3.8142 0.9681
6.9725 0.4668 -3.7305 0.9688
6.7304 1.0583 -3.6371 0.9696
6.0702 2.1078 -3.4303 0.9713
5.2432 2.9498 -3.2116 0.9731
4.3448 3.5911 -3.0092 0.9748
3.8683 3.8254 -2.9043 0.9756
3.3906 4.0105 -2.8036 0.9765
1.9959 4.3011 -2.5313 0.9787
1.5545 4.3209 -2.4514 0.9794
-0.0457 4.0978 -2.1877 0.9816
-0.4004 3.9797 -2.1353 0.9820
-1.0534 3.6840 -2.0455 0.9828
-1.8931 3.1164 -1.9466 0.9836
-2.1362 2.8993 -1.9225 0.9838
-2.9287 1.9159 -1.8683 0.9843
-3.2172 1.3642 -1.8655 0.9843
-3.3341 1.0751 -1.8701 0.9842
-2.1681 0.2916 -1.1679 0.9901
-2.1735 0.0969 -1.1615 0.9902
-2.1765 -0.0971 -1.1631 0.9902
-2.1912 -0.7066 -1.2291 0.9896
-2.2000 -0.9329 -1.2757 0.9892
-3.2409 -2.5593 -2.2046 0.9814
-2.8898 -3.2675 -2.3287 0.9804
-2.6656 -3.6178 -2.3990 0.9798
-2.1121 -4.2979 -2.5565 0.9785
-1.7798 -4.6211 -2.6436 0.9778
-1.4090 -4.9276 -2.7360 0.9770
-0.5462 -5.4295 -2.9132 0.9756
-0.0626 -5.6183 -2.9995 0.9748
1.5779 -6.0229 -3.3238 0.9722
2.1768 -6.0504 -3.4326 0.9713
4.6148 -5.4584 -3.8158 0.9681
5.1771 -5.1197 -3.8870 0.9675
5.6942 -4.7064 -3.9437 0.9671
6.8512 -3.0870 -4.0116 0.9665
7.2057 -1.8023 -3.9652 0.9669
7.2465 -1.1395 -3.9160 0.9673
7.1986 -0.4819 -3.8515 0.9678
7.0672 0.1575 -3.7737 0.9685
6.5854 1.3386 -3.5875 0.9700
5.4613 2.7597 -3.2665 0.9726
4.5808 3.4545 -3.0629 0.9743
4.1070 3.7146 -2.9563 0.9752
2.6826 4.2023 -2.6615 0.9776
2.2218 4.2778 -2.5733 0.9784
1.3395 4.3182 -2.4136 0.9797
0.9217 4.2895 -2.3422 0.9803
-0.2253 4.0414 -2.1608 0.9818
-0.8972 3.7648 -2.0661 0.9826
-1.2050 3.5990 -2.0261 0.9829
-1.4941 3.4170 -1.9909 0.9832
-1.7647 3.2201 -1.9602 0.9835
-2.6651 2.3047 -1.8809 0.9842
-2.8453 2.0480 -1.8715 0.9842
-3.1519 1.5055 -1.8647 0.9843
-3.2779 1.2207 -1.8673 0.9843
-3.3855 0.9274 -1.8739 0.9842
-2.2057 0.3974 -1.1965 0.9899
-2.1202 -0.1895 -1.1823 0.9903
-2.1250 -0.3828 -1.1992 0.9902
-2.1288 -0.5831 -1.2259 0.9900
-3.1996 -2.3029 -2.1895 0.9821
-3.0568 -2.6433 -2.2445 0.9817
-2.6818 -3.3193 -2.3700 0.9807
-2.1775 -3.9735 -2.5165 0.9795
-1.1581 -4.8594 -2.7745 0.9774
-0.2944 -5.2792 -2.9366 0.9761
0.1821 -5.4461 -3.0265 0.9754
2.3514 -5.7217 -3.4357 0.9721
4.0755 -5.2807 -3.7048 0.9699
4.6169 -4.9918 -3.7764 0.9694
5.1220 -4.6326 -3.8357 0.9689
5.9757 -3.7217 -3.9099 0.9683
6.5546 -2.6086 -3.9181 0.9682
6.7332 -0.1500 -3.7405 0.9697
6.0830 1.5215 -3.4826 0.9717
5.7552 1.9984 -3.3836 0.9725
5.3871 2.4273 -3.2817 0.9733
4.1475 3.4280 -2.9885 0.9757
3.6985 3.6575 -2.8889 0.9765
3.2467 3.8403 -2.7930 0.9773
2.7971 3.9789 -2.7013 0.9780
0.3164 4.0497 -2.2560 0.9816
-0.0441 3.9608 -2.2000 0.9820
-0.7128 3.7185 -2.1028 0.9828
-1.0204 3.5687 -2.0615 0.9832
-1.5823 3.2198 -1.9925 0.9837
-1.8366 3.0234 -1.9647 0.9839
-2.0732 2.8138 -1.9412 0.9841
-2.4940 2.3588 -1.9065 0.9844
-2.6781 2.1149 -1.8953 0.9845
-2.8447 1.8609 -1.8880 0.9846
-3.2383 1.0442 -1.8898 0.9846
-2.4040 0.5447 -1.3690 0.9888
-2.1163 0.0944 -1.1766 0.9904
-2.1192 -0.0945 -1.1782 0.9903
-2.1237 -0.2856 -1.1901 0.9902
-2.1231 -0.4810 -1.2091 0.9901
-2.1317 -0.6874 -1.2440 0.9898
-2.1353 -0.9054 -1.2881 0.9894
-2.1463 -1.1453 -1.3512 0.9889
-3.2603 -2.1328 -2.1638 0.9823
-2.3163 -3.8131 -2.4779 0.9798
-2.0300 -4.1310 -2.5564 0.9792
-1.3506 -4.7234 -2.7285 0.9778
-0.9564 -4.9894 -2.8215 0.9770
-0.0598 -5.3673 -2.9812 0.9757
0.4317 -5.5242 -3.0775 0.9750
0.9525 -5.6469 -3.1806 0.9741
1.4985 -5.7196 -3.2838 0.9733
2.6410 -5.6912 -3.4846 0.9717
3.7949 -5.3983 -3.6649 0.9703
5.7853 -3.9713 -3.8973 0.9684
6.1488 -3.4592 -3.9184 0.9682
6.4390 -2.9013 -3.9225 0.9682
6.8204 -1.0724 -3.8346 0.9689
6.7818 -0.4540 -3.7750 0.9694
6.4789 0.7248 -3.6208 0.9706
5.1907 2.6230 -3.2301 0.9737
4.8032 2.9914 -3.1427 0.9744
3.9237 3.5488 -2.9383 0.9761
3.4727 3.7546 -2.8405 0.9769
3.0214 3.9149 -2.7466 0.9776
2.5743 4.0326 -2.6571 0.9783
0.5031 4.0850 -2.2860 0.9813
0.1340 4.0081 -2.2274 0.9818
-0.5522 3.7865 -2.1253 0.9826
-1.1676 3.4874 -2.0425 0.9833
-1.9571 2.9202 -1.9524 0.9840
-2.1850 2.7044 -1.9310 0.9842
-2.9215 1.7304 -1.8858 0.9846
-3.0616 1.4624 -1.8844 0.9846
-3.1840 1.1857 -1.8870 0.9846
-3.2881 0.9007 -1.8935 0.9845
-2.1018 0.1878 -1.1720 0.9904
-2.0638 0.0000 -1.1916 0.9905
-2.0684 -0.1848 -1.1990 0.9905
-2.0720 -0.5676 -1.2403 0.9901
-2.0734 -0.7721 -1.2774 0.9898
-2.1172 -1.2540 -1.4207 0.9887
-3.0947 -2.2274 -2.2014 0.9825
-2.5869 -3.2018 -2.3765 0.9812
-2.3575 -3.5175 -2.4448 0.9806
-2.0959 -3.8245 -2.5179 0.9801
-1.8013 -4.1196 -2.5959 0.9794
-1.4729 -4.3992 -2.6785 0.9788
0.6566 -5.3308 -3.1010 0.9755
1.1639 -5.4164 -3.1985 0.9747
3.8525 -4.9918 -3.6405 0.9713
4.8324 -4.3707 -3.7619 0.9704
5.2598 -3.9666 -3.8035 0.9700
6.4220 -1.3053 -3.7835 0.9702
6.3614 -0.1417 -3.6737 0.9710
6.2246 0.4167 -3.6018 0.9716
6.0246 0.9474 -3.5211 0.9722
5.4663 1.8981 -3.3408 0.9736
4.7696 2.6833 -3.1596 0.9750
3.1122 3.6812 -2.7831 0.9780
2.2620 3.9179 -2.6119 0.9793
1.8468 3.9797 -2.5330 0.9799
1.0490 4.0039 -2.3897 0.9811
