ply
format ascii 1.0
element vertex 1588
property float32 x
property float32 y
property float32 z
property float32 I
end_header
-8.4270 2.7174 -0.8117 0.9651
-4.2496 0.5715 -0.3931 0.9829
-4.0002 0.1784 -0.3671 0.9840
-10.5802 -8.3551 -1.2359 0.9473
-10.7909 -10.2060 -1.3617 0.9421
4.3960 -1.9807 -0.4420 0.9808
4.1081 -1.4265 -0.3987 0.9827
4.0427 -1.0112 -0.3820 0.9834
4.1826 -0.2800 -0.3843 0.9833
4.4040 0.0981 -0.4039 0.9825
4.9424 0.5529 -0.4559 0.9802
0.4646 13.8972 -1.2748 0.9457
-0.7093 12.7211 -1.1680 0.9501
-2.5582 10.7346 -1.0117 0.9566
-3.3042 9.8693 -0.9542 0.9591
-5.3643 8.0041 -0.8833 0.9620
-5.9079 7.3123 -0.8618 0.9629
-6.8079 5.8870 -0.8251 0.9645
-7.5835 4.4918 -0.8080 0.9652
-7.9353 3.7903 -0.8062 0.9653
-9.1274 -0.8156 -0.9940 0.9638
-9.8019 -10.1351 -1.5293 0.9449
4.1757 -1.6619 -0.4875 0.9821
4.0451 -1.2056 -0.4578 0.9832
4.2430 -0.0946 -0.4603 0.9831
4.5656 0.3056 -0.4963 0.9818
-0.1355 12.1615 -1.3192 0.9522
-1.1293 11.2251 -1.2237 0.9556
-1.9877 10.3698 -1.1452 0.9584
-2.7386 9.5775 -1.0805 0.9607
-3.9885 8.1163 -0.9809 0.9643
-5.3241 7.2260 -0.9736 0.9645
-5.7933 6.5506 -0.9485 0.9654
-6.6227 5.2299 -0.9153 0.9666
-6.9925 4.5743 -0.9063 0.9669
-7.3374 3.9153 -0.9021 0.9671
-7.6601 3.2482 -0.9025 0.9671
-7.9632 2.5678 -0.9075 0.9669
-4.7637 1.0793 -0.5298 0.9805
-3.7517 0.5046 -0.4106 0.9849
-3.7330 0.1664 -0.4053 0.9851
-9.2390 -1.2425 -1.0111 0.9632
-9.6521 -3.1124 -1.1000 0.9600
-10.0073 -5.3401 -1.2303 0.9554
-10.1592 -6.6459 -1.3168 0.9523
-9.7621 -9.2329 -1.4574 0.9474
4.3469 -1.9586 -0.5171 0.9810
4.0843 -1.4182 -0.4690 0.9828
4.0236 -1.0064 -0.4499 0.9835
1.6964 13.7734 -1.5052 0.9457
-0.6514 11.6819 -1.2691 0.9540
-1.5735 10.7886 -1.1826 0.9571
-2.3752 9.9667 -1.1113 0.9596
-3.0804 9.2007 -1.0524 0.9617
-4.2592 7.7721 -0.9613 0.9650
-5.0733 7.5699 -0.9884 0.9640
-5.5639 6.8865 -0.9603 0.9650
-6.4274 5.5580 -0.9217 0.9664
-6.8109 4.9022 -0.9102 0.9668
-7.1679 4.2455 -0.9036 0.9670
-7.5013 3.5831 -0.9017 0.9671
-7.8140 2.9099 -0.9044 0.9670
-3.7414 0.3343 -0.4074 0.9850
-3.5692 -0.0000 -0.4473 0.9857
-3.7700 -0.3369 -0.4743 0.9849
-8.7959 -1.5847 -1.1200 0.9646
-9.1205 -3.3965 -1.2196 0.9615
-9.4889 -8.2054 -1.5721 0.9507
4.1537 -1.6532 -0.5602 0.9821
4.0257 -1.1998 -0.5264 0.9832
4.0740 -0.4558 -0.5137 0.9836
4.2203 -0.0941 -0.5290 0.9831
4.5317 0.3034 -0.5692 0.9819
3.6996 14.1214 -1.8294 0.9428
1.3290 7.8790 -1.0013 0.9683
-1.8508 9.6554 -1.2320 0.9611
-2.5599 8.9526 -1.1669 0.9632
-3.7490 7.6290 -1.0652 0.9663
-5.8912 5.5719 -1.0162 0.9678
-6.2733 4.9539 -1.0017 0.9683
-6.9555 3.7115 -0.9880 0.9687
-7.2613 3.0790 -0.9884 0.9687
-7.5464 2.4334 -0.9936 0.9685
-4.3832 0.9931 -0.5632 0.9820
-3.5348 0.1576 -0.4434 0.9858
-8.8840 -2.0129 -1.1415 0.9639
-9.0465 -2.9171 -1.1911 0.9624
-9.1893 -3.8966 -1.2508 0.9606
-9.3102 -4.9681 -1.3224 0.9584
-9.4702 -7.4785 -1.5122 0.9525
-9.4972 -8.9824 -1.6381 0.9487
4.0636 -1.4111 -0.5391 0.9828
4.0045 -1.0016 -0.5173 0.9835
4.3505 0.0969 -0.5453 0.9826
2.9137 13.5591 -1.7380 0.9456
1.5460 12.5528 -1.5849 0.9503
0.3890 11.6344 -1.4588 0.9542
-1.4618 10.0229 -1.2693 0.9600
-2.2161 9.2991 -1.1980 0.9622
-3.4758 7.9495 -1.0873 0.9656
-4.0085 7.3147 -1.0453 0.9669
-4.7854 7.1403 -1.0772 0.9659
-5.2567 6.5062 -1.0482 0.9668
-5.6885 5.8818 -1.0254 0.9676
-6.4534 4.6449 -0.9964 0.9685
-6.7942 4.0242 -0.9896 0.9687
-7.6817 2.1042 -0.9981 0.9684
-3.8076 0.6860 -0.4848 0.9845
-3.3944 -0.0000 -0.4828 0.9864
-8.4469 -2.3139 -1.2457 0.9652
-8.6638 -4.1383 -1.3657 0.9620
-8.7660 -6.3094 -1.5362 0.9573
-8.7054 -9.0014 -1.7811 0.9507
-8.5879 -10.6294 -1.9437 0.9463
-8.1987 -12.2334 -2.0947 0.9422
4.0542 -0.4535 -0.5803 0.9837
4.4981 0.3011 -0.6412 0.9820
3.3540 12.8022 -1.8824 0.9479
0.8700 11.1336 -1.5884 0.9559
-0.9749 9.6903 -1.3853 0.9614
-1.7311 9.0309 -1.3079 0.9635
-2.9989 7.7864 -1.1868 0.9669
-3.5358 7.1951 -1.1403 0.9681
-4.2851 7.0542 -1.1740 0.9672
-4.7590 6.4590 -1.1411 0.9681
-5.1925 5.8713 -1.1149 0.9688
-5.5907 5.2877 -1.0945 0.9694
-5.9576 4.7046 -1.0797 0.9698
-6.2964 4.1189 -1.0702 0.9701
-6.9005 2.9261 -1.0661 0.9702
-4.1432 0.9387 -0.6042 0.9830
-3.6292 -0.4881 -0.5209 0.9853
-8.5102 -2.7442 -1.2718 0.9645
-8.6190 -3.6548 -1.3316 0.9629
-8.7015 -4.6433 -1.4028 0.9609
-8.7687 -6.9246 -1.5892 0.9559
4.2945 -1.9350 -0.6700 0.9811
4.1171 -0.2756 -0.5869 0.9835
4.1191 13.2789 -1.9775 0.9454
2.6539 12.3501 -1.7967 0.9502
1.4198 11.5281 -1.6521 0.9542
-0.5595 10.0338 -1.4294 0.9602
-1.3646 9.3563 -1.3449 0.9625
-2.7084 8.0894 -1.2134 0.9661
-3.2743 7.4885 -1.1625 0.9675
-5.3958 5.5792 -1.1040 0.9691
-5.7778 4.9963 -1.0865 0.9696
-6.1303 4.4123 -1.0743 0.9699
-6.4563 3.8240 -1.0673 0.9701
-6.7580 3.2280 -1.0653 0.9702
-7.0376 2.6208 -1.0682 0.9701
-3.6717 0.6615 -0.5307 0.9850
-3.2915 0.0000 -0.5241 0.9868
-3.3916 -0.3031 -0.5422 0.9863
-7.9813 -2.1863 -1.3177 0.9670
-8.0759 -3.0075 -1.3723 0.9657
-8.1430 -3.8896 -1.4370 0.9641
-8.1787 -4.8443 -1.5136 0.9622
-8.1330 -7.0329 -1.7121 0.9574
-7.8715 -9.7427 -1.9945 0.9505
-7.1030 -12.9613 -2.3535 0.9419
4.7747 -2.4128 -0.8519 0.9786
4.1103 -1.6359 -0.7044 0.9822
3.9731 -0.8075 -0.6456 0.9837
4.0345 -0.4513 -0.6465 0.9837
4.1775 -0.0931 -0.6654 0.9832
4.4769 0.2997 -0.7145 0.9820
3.0662 11.7037 -1.9265 0.9522
1.3307 7.8891 -1.2740 0.9681
0.8048 10.2992 -1.6450 0.9590
-0.1078 9.6779 -1.5412 0.9616
-2.8304 7.3489 -1.2540 0.9686
-3.3641 6.8457 -1.2146 0.9696
-4.9349 5.5800 -1.1862 0.9703
-5.3181 5.0299 -1.1656 0.9708
-5.6708 4.4782 -1.1506 0.9712
-5.9959 3.9224 -1.1409 0.9714
-6.2958 3.3596 -1.1363 0.9715
-6.5724 2.7869 -1.1368 0.9715
-6.8270 2.2014 -1.1422 0.9714
-3.9744 0.9005 -0.6489 0.9836
-3.2540 0.4376 -0.5228 0.9868
-3.2600 0.1454 -0.5196 0.9869
-7.9246 -1.7955 -1.2939 0.9676
-8.0319 -2.5899 -1.3438 0.9664
-8.1651 -4.3570 -1.4737 0.9632
-8.1832 -5.3532 -1.5571 0.9612
-8.1614 -6.4450 -1.6559 0.9588
-8.0915 -7.6529 -1.7735 0.9559
-7.9626 -9.0034 -1.9139 0.9525
-7.6692 -10.4087 -2.0588 0.9490
4.3036 0.0959 -0.6855 0.9827
4.7678 0.5334 -0.7639 0.9808
3.7494 12.0870 -2.0152 0.9500
2.4356 11.3346 -1.8461 0.9541
1.3097 10.6336 -1.7060 0.9575
0.3342 9.9948 -1.5924 0.9603
-2.5529 7.6252 -1.2804 0.9680
-3.0939 7.0760 -1.2297 0.9692
-3.8178 6.9666 -1.2650 0.9683
-5.1305 5.3050 -1.1752 0.9706
-6.1489 3.6420 -1.1380 0.9715
-6.7024 2.4960 -1.1389 0.9714
-4.5041 1.2338 -0.7436 0.9813
-3.2454 0.2900 -0.5188 0.9869
-3.1939 0.0000 -0.5632 0.9871
-7.4628 -1.3445 -1.3371 0.9697
-7.5623 -2.0715 -1.3826 0.9687
-7.6790 -3.6680 -1.5006 0.9660
-7.5868 -6.5606 -1.7686 0.9601
-7.2624 -8.9888 -2.0376 0.9541
-6.4582 -11.7847 -2.3695 0.9469
4.7091 -2.3796 -0.9303 0.9788
4.0894 -1.6275 -0.7761 0.9823
4.0253 -0.4503 -0.7142 0.9837
4.1700 -0.0929 -0.7355 0.9832
5.9665 12.8574 -2.4993 0.9441
4.3699 12.1465 -2.2761 0.9489
2.8227 10.7743 -1.9639 0.9558
-0.8564 8.5123 -1.5085 0.9658
-1.5302 7.9828 -1.4332 0.9675
-2.1344 7.4644 -1.3689 0.9690
-3.3485 6.8140 -1.3387 0.9696
-3.8596 6.3538 -1.3108 0.9703
-5.4091 4.2715 -1.2153 0.9724
-6.0087 3.2063 -1.2009 0.9727
-6.5141 2.1005 -1.2069 0.9726
-3.1779 0.4274 -0.5654 0.9871
-3.2277 -0.1439 -0.5697 0.9870
-3.3507 -0.4506 -0.5961 0.9864
-7.5157 -1.7028 -1.3588 0.9692
-7.6803 -5.0242 -1.6183 0.9634
-7.6301 -6.0254 -1.7143 0.9613
-7.0883 -9.6203 -2.1071 0.9526
-6.6644 -10.9710 -2.2634 0.9492
-6.2194 -12.6561 -2.4865 0.9443
4.2428 -1.9117 -0.8206 0.9813
4.0048 -1.3906 -0.7475 0.9829
3.9527 -0.9886 -0.7184 0.9836
3.9831 -0.6263 -0.7110 0.9838
4.0877 -0.2737 -0.7224 0.9835
4.7552 0.5319 -0.8437 0.9808
3.4391 11.0867 -2.0468 0.9539
2.2497 10.4692 -1.8881 0.9574
-0.4897 8.7820 -1.5509 0.9649
-1.2027 8.2460 -1.4694 0.9667
-2.4136 7.2090 -1.3405 0.9696
-3.6250 6.6148 -1.3300 0.9698
-5.5685 4.0080 -1.2098 0.9725
-5.8681 3.4757 -1.2026 0.9727
-3.1509 0.2816 -0.5578 0.9872
-3.1775 -0.2839 -0.6173 0.9871
-3.3117 -0.5967 -0.6512 0.9864
-7.1830 -1.9676 -1.4412 0.9701
-7.2527 -4.2958 -1.6312 0.9662
-7.1067 -6.1454 -1.8182 0.9624
-6.9555 -7.1919 -1.9362 0.9601
-6.7380 -8.3397 -2.0748 0.9573
-6.3378 -9.4566 -2.2030 0.9547
3.9669 -1.1823 -0.8010 0.9833
3.9553 -0.8039 -0.7811 0.9837
4.0189 -0.4496 -0.7826 0.9837
4.1624 -0.0928 -0.8057 0.9832
4.4566 0.2983 -0.8644 0.9820
2.6139 9.9773 -1.9959 0.9588
1.3361 7.9209 -1.5545 0.9678
-0.8065 8.0166 -1.5592 0.9677
-1.4452 7.5398 -1.4857 0.9692
-2.0210 7.0680 -1.4226 0.9705
-4.0984 5.5623 -1.3370 0.9722
-5.1692 4.0821 -1.2746 0.9735
-5.4696 3.5780 -1.2648 0.9737
-5.7452 3.0657 -1.2602 0.9738
-5.9973 2.5431 -1.2606 0.9738
-6.2270 2.0079 -1.2661 0.9737
-3.6833 0.8345 -0.7309 0.9847
-7.1449 -1.6188 -1.4177 0.9706
-7.2545 -3.0762 -1.5249 0.9684
-7.2332 -4.7317 -1.6726 0.9654
-7.0386 -6.6571 -1.8748 0.9613
-6.8558 -7.7520 -2.0027 0.9587
-5.6755 -11.5493 -2.4903 0.9489
3.9471 -0.9872 -0.7874 0.9836
3.9767 -0.6253 -0.7790 0.9837
4.0804 -0.2732 -0.7914 0.9835
4.7425 0.5305 -0.9235 0.9807
2.0892 9.7226 -1.9244 0.9603
-0.4604 8.2572 -1.6004 0.9669
-1.7405 7.3033 -1.4529 0.9699
-2.2880 6.8338 -1.3946 0.9711
-2.9135 6.6634 -1.4074 0.9708
-3.4497 6.2949 -1.3891 0.9712
-3.8916 5.8066 -1.3527 0.9719
-4.2964 5.3177 -1.3230 0.9725
-4.6679 4.8265 -1.2994 0.9730
-5.0091 4.3315 -1.2815 0.9734
-5.6104 3.3230 -1.2619 0.9738
-5.8741 2.8058 -1.2598 0.9738
-6.1149 2.2772 -1.2627 0.9738
-3.3306 0.6000 -0.6549 0.9863
-3.0994 -0.2770 -0.6560 0.9874
-6.8377 -1.8731 -1.4946 0.9714
-6.8780 -2.5614 -1.5473 0.9704
-6.8870 -3.2896 -1.6090 0.9693
-6.8607 -4.0636 -1.6810 0.9679
-6.7942 -4.8902 -1.7648 0.9664
-6.6812 -5.7775 -1.8621 0.9645
-5.8876 -8.7849 -2.2295 0.9577
-4.9431 -11.3052 -2.6012 0.9508
-4.2887 -12.8096 -2.8479 0.9463
4.0822 -1.6247 -0.9263 0.9822
3.9621 -1.1808 -0.8716 0.9832
3.9497 -0.8028 -0.8497 0.9837
4.0124 -0.4488 -0.8512 0.9836
4.1548 -0.0926 -0.8761 0.9832
3.7208 10.3423 -2.3172 0.9561
2.4328 9.2859 -2.0237 0.9615
0.6591 8.4349 -1.7837 0.9660
-0.7618 7.5727 -1.6045 0.9694
-1.3688 7.1410 -1.5329 0.9707
-2.5304 6.5701 -1.4843 0.9716
-3.0623 6.2316 -1.4638 0.9720
-3.5072 5.7737 -1.4242 0.9728
-4.6328 4.3817 -1.3443 0.9743
-4.9482 3.9076 -1.3292 0.9746
-5.5023 2.9361 -1.3148 0.9748
-5.9626 1.9227 -1.3208 0.9747
-2.9940 0.1335 -0.6318 0.9878
-3.0505 -0.1361 -0.6438 0.9876
-6.8068 -1.5422 -1.4714 0.9719
-6.8616 -2.2126 -1.5199 0.9710
-6.8866 -2.9202 -1.5770 0.9699
-6.8785 -3.6705 -1.6437 0.9686
-6.7440 -5.3257 -1.8116 0.9655
-6.4064 -7.2438 -2.0387 0.9612
-6.1332 -8.3241 -2.1798 0.9586
-5.6754 -9.3430 -2.3046 0.9563
-4.6348 -12.0340 -2.7187 0.9486
4.2392 -1.9101 -0.9802 0.9812
3.9980 -1.3882 -0.8922 0.9828
3.9415 -0.9858 -0.8565 0.9835
3.9704 -0.6243 -0.8473 0.9837
4.2775 0.0953 -0.9020 0.9827
4.7298 0.5291 -1.0034 0.9807
7.3026 11.4394 -2.8612 0.9460
5.7188 11.0107 -2.6157 0.9505
4.3427 10.5674 -2.4086 0.9544
3.1379 10.1156 -2.2328 0.9576
1.0652 8.6492 -1.8372 0.9650
0.2748 8.2200 -1.7339 0.9669
-0.4343 7.7887 -1.6446 0.9686
-1.0730 7.3569 -1.5674 0.9701
-2.8246 6.4599 -1.4864 0.9716
-3.2897 6.0029 -1.4431 0.9724
-4.1061 5.0821 -1.3774 0.9736
-4.7939 4.1454 -1.3361 0.9744
-5.0960 3.6679 -1.3237 0.9747
-5.3729 3.1824 -1.3165 0.9748
-5.6259 2.6872 -1.3144 0.9748
-4.0001 1.0957 -0.8744 0.9832
-3.2435 0.5843 -0.6948 0.9866
-2.9710 -0.0000 -0.6781 0.9879
-3.0430 -0.2719 -0.6973 0.9875
-3.1642 -0.5701 -0.7338 0.9869
-6.5221 -1.7866 -1.5435 0.9726
-6.5499 -2.4392 -1.5953 0.9717
-6.5459 -3.1267 -1.6558 0.9707
-6.5065 -3.8538 -1.7260 0.9694
-6.3013 -5.4489 -1.9014 0.9664
-5.5032 -8.2113 -2.2562 0.9603
-4.5561 -10.4201 -2.5957 0.9544
3.9574 -1.1794 -0.9425 0.9832
3.9440 -0.8017 -0.9186 0.9836
4.1472 -0.0924 -0.9468 0.9831
4.4362 0.2970 -1.0148 0.9819
9.1854 10.8645 -3.2472 0.9433
7.4614 10.6140 -2.9613 0.9482
5.9551 10.3146 -2.7184 0.9523
4.6312 9.9800 -2.5112 0.9559
2.2783 8.6961 -2.0518 0.9638
-0.0842 7.5613 -1.7259 0.9695
-1.2996 6.7799 -1.5756 0.9721
-1.8599 6.5044 -1.5441 0.9726
-2.4557 6.3761 -1.5595 0.9724
-3.7462 5.0844 -1.4415 0.9744
-4.1076 4.6446 -1.4152 0.9749
-4.4395 4.1989 -1.3947 0.9752
-4.7440 3.7463 -1.3797 0.9755
-5.0229 3.2858 -1.3700 0.9757
-5.2776 2.8162 -1.3653 0.9758
-5.5091 2.3360 -1.3658 0.9757
-3.4289 0.7769 -0.8025 0.9857
-2.9453 0.1313 -0.6729 0.9880
-3.0959 -0.4164 -0.7130 0.9873
-6.5309 -3.4850 -1.6896 0.9701
-6.4721 -4.2338 -1.7652 0.9688
-6.2189 -5.8818 -1.9537 0.9655
-6.0097 -6.7953 -2.0705 0.9635
-5.2846 -8.6997 -2.3233 0.9591
-4.8238 -9.8161 -2.4964 0.9561
-3.5502 -12.4157 -2.9474 0.9484
-2.6671 -13.9140 -3.2336 0.9435
4.2380 -1.9096 -1.0610 0.9811
3.9945 -1.3871 -0.9651 0.9828
3.9640 -0.6233 -0.9159 0.9837
4.0658 -0.2722 -0.9301 0.9834
4.7346 0.5296 -1.0874 0.9806
8.2937 10.7464 -3.0983 0.9458
6.6834 10.4694 -2.8350 0.9503
5.2723 10.1510 -2.6108 0.9542
2.9263 9.4336 -2.2544 0.9603
0.2592 7.7533 -1.7706 0.9687
-1.5687 6.5826 -1.5445 0.9726
-3.9308 4.8652 -1.4276 0.9747
-4.2771 4.4225 -1.4043 0.9751
-4.5951 3.9735 -1.3865 0.9754
-4.8866 3.5171 -1.3742 0.9756
-5.1532 3.0522 -1.3670 0.9757
-5.3962 2.5775 -1.3649 0.9758
-5.6163 2.0915 -1.3679 0.9757
-3.8725 1.0608 -0.9164 0.9837
-3.1659 0.5703 -0.7342 0.9869
-2.9882 -0.2671 -0.7374 0.9877
-3.1004 -0.5586 -0.7743 0.9871
-6.0949 -4.3869 -1.8458 0.9695
-5.9598 -5.1536 -1.9367 0.9681
-5.5247 -6.8380 -2.1608 0.9644
-5.1703 -7.7147 -2.2827 0.9625
-4.7179 -8.6090 -2.4130 0.9604
-3.6123 -10.7895 -2.7967 0.9542
-2.8641 -12.0182 -3.0368 0.9504
-1.9464 -13.3457 -3.3151 0.9460
3.9384 -0.8005 -0.9879 0.9836
3.9994 -0.4474 -0.9892 0.9836
4.1442 -0.0924 -1.0189 0.9831
4.4500 0.2979 -1.0963 0.9818
10.0811 9.9694 -3.4850 0.9433
8.3666 9.8961 -3.1853 0.9480
5.5042 9.5335 -2.7058 0.9557
4.3054 9.2779 -2.5141 0.9587
3.2337 8.9883 -2.3480 0.9614
-4.8238 3.1555 -1.4168 0.9765
-5.0690 2.7049 -1.4123 0.9766
-5.4911 1.7706 -1.4182 0.9765
-3.3132 0.7507 -0.8350 0.9861
-2.8899 0.3886 -0.7167 0.9881
-2.9494 -0.1315 -0.7257 0.9879
-3.0389 -0.4087 -0.7537 0.9874
-3.1571 -0.7153 -0.7957 0.9868
-6.2463 -2.6487 -1.6677 0.9724
-6.2145 -3.3162 -1.7314 0.9714
-5.8731 -5.5547 -1.9870 0.9673
-5.6567 -6.3962 -2.0988 0.9654
-5.3750 -7.2950 -2.2273 0.9634
-4.9409 -8.1338 -2.3393 0.9616
-4.4836 -9.1238 -2.4988 0.9590
-2.4285 -12.6696 -3.1709 0.9483
-1.4134 -14.0496 -3.4708 0.9435
4.2369 -1.9090 -1.1423 0.9810
4.2714 0.0952 -1.0502 0.9826
4.7603 0.5325 -1.1774 0.9805
9.1973 9.9440 -3.3294 0.9457
7.5854 9.8287 -3.0517 0.9501
2.7402 8.8334 -2.2733 0.9626
1.7168 7.9896 -2.0087 0.9669
0.9444 7.6684 -1.8991 0.9687
0.2452 7.3336 -1.8036 0.9702
-0.3896 6.9871 -1.7201 0.9716
-0.9673 6.6325 -1.6475 0.9728
-1.5495 6.5021 -1.6430 0.9728
-2.1051 6.2875 -1.6298 0.9731
-3.0075 5.4880 -1.5382 0.9746
-3.4042 5.0793 -1.5030 0.9751
-4.1035 4.2430 -1.4509 0.9760
-4.6923 3.3773 -1.4210 0.9765
-5.1830 2.4757 -1.4118 0.9766
-3.8036 1.0419 -0.9694 0.9839
-3.0843 0.5556 -0.7703 0.9872
-2.8744 -0.0000 -0.7574 0.9882
-2.9343 -0.2622 -0.7763 0.9879
-3.0385 -0.5474 -0.8135 0.9873
-5.9649 -1.6340 -1.6297 0.9747
-5.9497 -2.8419 -1.7374 0.9731
-5.8911 -3.4893 -1.8042 0.9721
-5.7933 -4.1697 -1.8808 0.9709
-4.4147 -8.0559 -2.4206 0.9627
-3.3460 -9.9942 -2.7771 0.9573
-1.7788 -12.1960 -3.2476 0.9503
3.9538 -1.1784 -1.0871 0.9831
4.0043 -0.4479 -1.0617 0.9835
4.1522 -0.0925 -1.0944 0.9830
10.8509 8.9686 -3.7094 0.9434
7.6767 9.0801 -3.1331 0.9520
4.0202 8.6634 -2.5166 0.9613
3.0328 8.4299 -2.3607 0.9636
2.1392 8.1652 -2.2242 0.9657
1.2693 7.5250 -2.0109 0.9689
0.5553 7.1060 -1.8781 0.9709
-0.0759 6.8096 -1.7944 0.9722
-0.6675 6.6348 -1.7571 0.9728
-1.2501 6.5217 -1.7497 0.9729
-1.7711 6.1940 -1.6975 0.9737
-2.2439 5.8262 -1.6451 0.9745
-2.6784 5.4504 -1.6002 0.9752
-3.4456 4.6764 -1.5306 0.9763
-3.7836 4.2782 -1.5049 0.9767
-4.6384 3.0343 -1.4605 0.9773
-5.2799 1.7025 -1.4618 0.9773
-3.2212 0.7298 -0.8703 0.9864
-2.9836 -0.4013 -0.7933 0.9876
-3.0953 -0.7013 -0.8363 0.9870
-5.9728 -1.9260 -1.6536 0.9744
-5.9656 -2.5296 -1.7074 0.9736
-5.9251 -3.1617 -1.7696 0.9726
-5.8474 -3.8252 -1.8412 0.9715
-5.5613 -5.2599 -2.0170 0.9688
-5.0572 -6.8637 -2.2465 0.9653
-4.1860 -8.5182 -2.5009 0.9615
-2.2268 -11.6172 -3.1169 0.9522
-1.2864 -12.7875 -3.3865 0.9482
-0.1562 -14.0209 -3.6947 0.9436
3.9304 -0.9831 -1.0676 0.9834
3.9599 -0.6227 -1.0563 0.9836
6.9841 9.0496 -3.0121 0.9538
5.7047 8.9362 -2.7936 0.9571
4.5529 8.7659 -2.6028 0.9600
0.8952 7.2686 -1.9297 0.9702
0.2325 6.9550 -1.8337 0.9716
-0.3742 6.7115 -1.7712 0.9726
-0.9580 6.5684 -1.7491 0.9729
-1.5192 6.3748 -1.7268 0.9733
-2.4657 5.6393 -1.6218 0.9749
-3.2657 4.8727 -1.5457 0.9760
-3.6182 4.4782 -1.5170 0.9765
-3.9421 4.0761 -1.4942 0.9768
-4.7595 2.8190 -1.4576 0.9774
-5.1869 1.9316 -1.4585 0.9774
-3.7365 1.0235 -1.0208 0.9841
-3.0018 0.5408 -0.8037 0.9875
-2.8279 -0.0000 -0.7956 0.9883
-5.7175 -1.5662 -1.6679 0.9757
-5.7182 -2.1295 -1.7168 0.9750
-5.6874 -2.7166 -1.7734 0.9741
-5.6218 -3.3298 -1.8384 0.9732
-5.1740 -5.3498 -2.0940 0.9695
-4.9219 -6.0919 -2.2035 0.9680
-4.5999 -6.8635 -2.3247 0.9662
-4.1502 -7.5732 -2.4298 0.9648
-3.1145 -9.3025 -2.7601 0.9601
-2.4394 -10.2363 -2.9607 0.9572
-1.6355 -11.2141 -3.1885 0.9540
-0.6824 -12.2381 -3.4486 0.9503
0.4443 -13.2873 -3.7405 0.9463
4.0962 -1.6303 -1.2404 0.9818
3.9644 -1.1815 -1.1639 0.9830
4.0118 -0.4488 -1.1358 0.9834
4.1603 -0.0927 -1.1708 0.9829
4.4788 0.2998 -1.2630 0.9815
8.4184 8.3251 -3.3311 0.9520
5.8752 8.3576 -2.8743 0.9584
2.8540 7.9327 -2.3720 0.9656
2.0199 7.7099 -2.2425 0.9674
-0.6623 6.5834 -1.8616 0.9729
-1.2001 6.2610 -1.7936 0.9739
-2.1500 5.5824 -1.6831 0.9754
-2.9555 4.8654 -1.6017 0.9766
-3.3111 4.4938 -1.5705 0.9771
-3.9387 3.7252 -1.5253 0.9777
-4.4652 2.9210 -1.5012 0.9781
-2.8062 0.1251 -0.7903 0.9884
-2.9298 -0.3940 -0.8317 0.9878
-3.0353 -0.6877 -0.8756 0.9872
-5.7069 -2.4200 -1.7441 0.9746
-5.5749 -3.6469 -1.8743 0.9727
-5.4498 -4.3036 -1.9538 0.9716
-4.7725 -6.4774 -2.2637 0.9671
-4.3664 -7.1881 -2.3663 0.9657
-3.4093 -8.8519 -2.6689 0.9614
-2.0549 -10.7200 -3.0710 0.9557
-1.1795 -11.7249 -3.3155 0.9522
-0.1422 -12.7593 -3.5901 0.9484
1.0799 -13.8202 -3.9002 0.9440
4.2911 -1.9335 -1.3242 0.9806
4.0098 -1.3924 -1.1943 0.9825
3.9388 -0.9852 -1.1423 0.9833
3.9674 -0.6238 -1.1300 0.9835
4.8133 0.5385 -1.3627 0.9801
10.6585 8.0380 -3.7560 0.9460
9.1316 8.2591 -3.4642 0.9501
6.4669 8.3794 -2.9781 0.9570
5.3108 8.3192 -2.7769 0.9598
4.2586 8.1993 -2.5995 0.9623
3.3006 8.0316 -2.4431 0.9646
1.6305 7.5877 -2.1836 0.9683
0.2310 6.9098 -1.9452 0.9717
-1.4526 6.0953 -1.7630 0.9743
-2.7663 5.0479 -1.6196 0.9764
-3.1369 4.6806 -1.5853 0.9769
-3.4781 4.3049 -1.5571 0.9773
-3.7917 3.9206 -1.5346 0.9776
-4.0794 3.5276 -1.5174 0.9778
-4.5822 2.7140 -1.4984 0.9781
-3.6501 0.9999 -1.0648 0.9844
-2.9229 0.5266 -0.8356 0.9877
-2.7884 0.2492 -0.7877 0.9884
-2.7824 -0.0000 -0.8330 0.9884
-2.8308 -0.2530 -0.8509 0.9882
-2.9224 -0.5265 -0.8890 0.9877
-3.0126 -0.8253 -0.9351 0.9870
-5.4820 -2.0415 -1.7513 0.9759
-5.3739 -3.1830 -1.8699 0.9743
-5.2650 -3.7895 -1.9421 0.9733
-5.1139 -4.4222 -2.0240 0.9722
-4.9156 -5.0827 -2.1169 0.9709
-3.9135 -7.1412 -2.4379 0.9666
-3.4525 -7.8961 -2.5800 0.9647
-2.9111 -8.6950 -2.7451 0.9624
-2.2693 -9.5226 -2.9307 0.9600
2.9798 -13.8671 -4.2463 0.9425
4.1195 -1.6396 -1.3274 0.9817
3.9752 -1.1847 -1.2418 0.9828
4.0195 -0.4497 -1.2109 0.9833
4.4936 0.3008 -1.3483 0.9814
11.9313 6.7125 -4.0985 0.9444
10.4469 7.1714 -3.7936 0.9485
7.7688 7.6828 -3.2711 0.9554
6.5773 7.7797 -3.0499 0.9584
4.4710 7.7439 -2.6770 0.9634
2.6936 7.4870 -2.3821 0.9673
1.1944 7.0808 -2.1498 0.9705
-0.0732 6.5723 -1.9677 0.9729
-0.6327 6.2895 -1.8925 0.9740
-1.6241 5.6796 -1.7685 0.9756
-2.0629 5.3561 -1.7183 0.9763
-2.8412 4.6773 -1.6384 0.9774
-3.5024 3.9602 -1.5828 0.9782
-3.7935 3.5878 -1.5632 0.9784
-4.0600 3.2062 -1.5488 0.9786
-4.7216 2.0021 -1.5354 0.9788
-4.8979 1.5794 -1.5407 0.9787
-2.7204 0.3658 -0.8218 0.9886
-2.7619 0.1231 -0.8277 0.9885
-2.9771 -0.6745 -0.9139 0.9873
-5.4676 -2.3185 -1.7780 0.9755
-5.3244 -3.4831 -1.9048 0.9738
-5.0210 -4.7489 -2.0690 0.9716
-3.1935 -8.2918 -2.6601 0.9636
-2.6036 -9.1054 -2.8352 0.9612
-1.9065 -9.9462 -3.0319 0.9586
3.9749 -0.6250 -1.2046 0.9833
4.0824 -0.2733 -1.2249 0.9831
4.3013 0.0958 -1.2880 0.9822
9.7403 7.3455 -3.6523 0.9503
3.9978 7.6971 -2.5966 0.9644
-1.3910 5.8370 -1.7964 0.9753
-1.8479 5.5193 -1.7425 0.9760
-2.2694 5.1902 -1.6959 0.9766
-2.6583 4.8507 -1.6560 0.9772
-3.0169 4.5015 -1.6223 0.9776
-3.9297 3.3982 -1.5553 0.9785
-4.6253 2.2093 -1.5346 0.9788
-4.8125 1.7922 -1.5374 0.9788
-2.7380 -0.0000 -0.8695 0.9886
-2.7827 -0.2487 -0.8872 0.9883
-2.8694 -0.5170 -0.9259 0.9878
-2.9540 -0.8092 -0.9727 0.9872
-5.2203 -2.4935 -1.8373 0.9760
-4.8787 -4.2188 -2.0483 0.9733
-4.6796 -4.8387 -2.1378 0.9721
-3.6999 -6.7514 -2.4450 0.9682
-3.2510 -7.4352 -2.5771 0.9665
-2.7310 -8.1570 -2.7319 0.9645
0.3732 -11.1628 -3.5471 0.9542
2.7041 -12.5839 -4.0877 0.9474
4.0966 -13.2062 -4.3912 0.9436
4.1439 -1.6492 -1.4164 0.9815
3.9652 -0.8060 -1.2850 0.9832
4.5359 0.3036 -1.4438 0.9811
9.5810 6.5770 -3.6907 0.9524
6.1318 7.2527 -3.0162 0.9609
5.1311 7.2992 -2.8336 0.9632
4.2029 7.2796 -2.6696 0.9653
1.8146 6.9264 -2.2739 0.9704
1.1362 6.7358 -2.1694 0.9717
0.5094 6.5183 -2.0764 0.9729
-0.0699 6.2780 -1.9939 0.9740
-1.1005 5.7415 -1.8566 0.9758
-1.9817 5.1455 -1.7511 0.9771
-2.3731 4.8290 -1.7088 0.9777
-2.7345 4.5016 -1.6727 0.9781
-3.3751 3.8163 -1.6180 0.9788
-4.3639 2.3286 -1.5709 0.9795
-4.5550 1.9315 -1.5713 0.9794
-2.9791 0.6749 -0.9701 0.9873
-2.6672 0.3587 -0.8547 0.9888
-5.2454 -2.2242 -1.8094 0.9764
-5.0933 -3.3319 -1.9329 0.9748
-4.9608 -3.9175 -2.0075 0.9738
-4.7852 -4.5258 -2.0917 0.9727
-4.5613 -5.1576 -2.1866 0.9715
-3.0017 -7.7937 -2.6524 0.9656
-2.4376 -8.5247 -2.8158 0.9635
2.0656 -12.2458 -3.9440 0.9492
3.3810 -12.9054 -4.2369 0.9455
4.3851 -1.9758 -1.5275 0.9800
4.0403 -1.4029 -1.3583 0.9822
3.9825 -0.6262 -1.2803 0.9832
4.0904 -0.2738 -1.3020 0.9829
4.3186 0.0962 -1.3719 0.9820
10.2179 6.3638 -3.8230 0.9507
8.9606 6.7575 -3.5643 0.9540
7.7732 7.0304 -3.3286 0.9570
3.7649 7.2487 -2.5941 0.9663
2.9384 7.1503 -2.4551 0.9681
0.8166 6.6302 -2.1215 0.9724
-0.8578 5.8818 -1.8877 0.9754
-1.3340 5.5975 -1.8275 0.9761
-1.7742 5.2993 -1.7748 0.9768
-2.1813 4.9887 -1.7292 0.9774
-3.2248 3.9913 -1.6296 0.9787
-3.7893 3.2768 -1.5910 0.9792
-4.0360 2.9049 -1.5793 0.9793
-4.2601 2.5232 -1.5725 0.9794
-4.4621 2.1314 -1.5705 0.9795
-2.7749 0.4999 -0.8954 0.9882
-2.6945 -0.0000 -0.9053 0.9887
-2.7374 -0.2446 -0.9234 0.9885
-2.8177 -0.5077 -0.9619 0.9880
-5.0577 -1.8835 -1.8133 0.9775
-4.8169 -3.4670 -1.9940 0.9753
-4.4631 -4.6148 -2.1570 0.9733
-4.2154 -5.2174 -2.2536 0.9721
-3.9132 -5.8389 -2.3616 0.9708
-1.9879 -8.3416 -2.8811 0.9645
-0.5393 -9.6716 -3.2545 0.9599
1.3475 -10.9412 -3.7038 0.9545
2.4729 -11.5078 -3.9547 0.9515
3.7226 -12.0006 -4.2215 0.9484
3.9972 -1.1913 -1.4014 0.9826
4.2025 -0.0937 -1.4123 0.9824
4.5843 0.3069 -1.5437 0.9808
12.3096 4.2743 -4.3780 0.9465
8.8405 6.0687 -3.6027 0.9558
5.7389 6.7880 -2.9865 0.9632
1.0829 6.4197 -2.1874 0.9729
0.4864 6.2250 -2.0978 0.9740
-1.9060 4.9488 -1.7818 0.9779
-2.6345 4.3369 -1.7049 0.9788
-3.5292 3.3379 -1.6321 0.9797
-4.0076 2.6216 -1.6090 0.9800
-4.5613 1.4708 -1.6102 0.9800
-2.6272 0.5952 -0.9050 0.9887
-2.6180 0.3521 -0.8875 0.9889
-2.7168 -0.1212 -0.9137 0.9886
-5.0385 -2.1365 -1.8387 0.9772
-4.9760 -2.6553 -1.8950 0.9765
-4.5683 -4.3207 -2.1126 0.9738
-4.3456 -4.9137 -2.2039 0.9727
-3.2931 -6.7012 -2.5086 0.9690
-2.8299 -7.3476 -2.6454 0.9673
-2.2900 -8.0085 -2.7986 0.9655
-0.9398 -9.3414 -3.1544 0.9612
-0.1114 -9.9977 -3.3593 0.9587
0.8309 -10.6334 -3.5835 0.9560
1.8947 -11.2323 -3.8272 0.9531
3.0823 -11.7650 -4.0862 0.9500
5.8193 -12.5402 -4.6448 0.9433
3.9917 -0.6277 -1.3576 0.9831
4.3531 0.0970 -1.4629 0.9818
12.8911 3.8420 -4.5195 0.9448
10.5523 5.3323 -3.9723 0.9513
9.4021 5.8557 -3.7215 0.9543
8.2900 6.2518 -3.4885 0.9571
6.2203 6.7253 -3.0779 0.9621
5.2725 6.8318 -2.8994 0.9642
2.0653 6.6578 -2.3421 0.9710
0.7791 6.3256 -2.1413 0.9735
0.2046 6.1184 -2.0568 0.9745
-0.3284 5.8888 -1.9816 0.9754
-0.8226 5.6401 -1.9150 0.9762
-1.2808 5.3746 -1.8563 0.9770
-1.7055 5.0941 -1.8049 0.9776
-2.4629 4.4943 -1.7219 0.9786
-3.1097 3.8489 -1.6625 0.9793
-3.3953 3.5108 -1.6409 0.9796
-3.6573 3.1625 -1.6245 0.9798
-4.1133 2.4363 -1.6062 0.9800
-4.4824 1.6693 -1.6070 0.9800
-2.6519 0.0000 -0.9403 0.9888
-2.7668 -0.4985 -0.9969 0.9881
-2.8417 -0.7784 -1.0448 0.9876
-4.7343 -2.8041 -1.9511 0.9769
-4.6171 -3.3232 -2.0171 0.9761
-4.4615 -3.8580 -2.0914 0.9753
-4.0189 -4.9742 -2.2675 0.9732
-3.7225 -5.5543 -2.3709 0.9720
-2.9062 -6.6466 -2.5722 0.9697
-1.8700 -7.8470 -2.8603 0.9663
-0.5034 -9.0282 -3.2062 0.9624
0.3206 -9.5897 -3.4023 0.9601
1.2456 -10.1137 -3.6133 0.9577
2.2757 -10.5905 -3.8409 0.9551
4.0660 -0.4549 -1.4507 0.9828
4.2318 -0.0943 -1.5009 0.9822
13.1473 2.0673 -4.7191 0.9451
12.2269 3.0581 -4.4690 0.9479
11.2418 3.9036 -4.2197 0.9507
9.2055 5.1789 -3.7453 0.9562
7.2225 5.9695 -3.3225 0.9610
4.5435 6.4632 -2.8014 0.9670
3.7464 6.4889 -2.6568 0.9687
2.9983 6.4612 -2.5257 0.9702
0.4652 5.9540 -2.1176 0.9750
-0.5566 5.5330 -1.9718 0.9767
-1.0145 5.2930 -1.9110 0.9774
-1.8350 4.7646 -1.8104 0.9786
-2.5405 4.1823 -1.7351 0.9794
-2.8540 3.8735 -1.7060 0.9798
-3.4085 3.2237 -1.6636 0.9803
-3.6514 2.8835 -1.6498 0.9804
-3.8724 2.5332 -1.6408 0.9806
-4.0719 2.1728 -1.6365 0.9806
-4.2502 1.8022 -1.6369 0.9806
-4.4073 1.4212 -1.6420 0.9805
-2.6733 -0.1192 -0.9489 0.9887
-2.8093 -0.6365 -1.0214 0.9878
-2.8709 -0.9258 -1.0696 0.9873
-4.7796 -2.5504 -1.9210 0.9773
-4.5444 -3.5886 -2.0532 0.9757
-4.3681 -4.1313 -2.1319 0.9748
-3.8775 -5.2625 -2.3178 0.9726
-3.1247 -6.3585 -2.5121 0.9704
-2.6750 -6.9456 -2.6392 0.9689
-2.1578 -7.5465 -2.7831 0.9672
-1.5615 -8.1465 -2.9412 0.9654
-0.1037 -9.3127 -3.3023 0.9612
1.7474 -10.3596 -3.7252 0.9564
4.0108 -11.1481 -4.2010 0.9510
6.6280 -11.4801 -4.7004 0.9453
8.0203 -11.4090 -4.9450 0.9425
4.0996 -1.4235 -1.5388 0.9818
3.9965 -0.9996 -1.4607 0.9827
4.0173 -0.6317 -1.4420 0.9829
4.3886 0.0978 -1.5565 0.9815
11.7400 3.4989 -4.3438 0.9493
5.8309 6.3043 -3.0450 0.9642
4.9605 6.4275 -2.8789 0.9661
4.1388 6.4833 -2.7274 0.9679
2.6423 6.4297 -2.4649 0.9709
1.9654 6.3359 -2.3522 0.9722
0.1958 5.8570 -2.0780 0.9754
-0.3148 5.6462 -2.0052 0.9763
-0.7898 5.4152 -1.9405 0.9770
-2.7004 4.0293 -1.7199 0.9796
-3.2786 3.3901 -1.6723 0.9802
-3.9748 2.3543 -1.6381 0.9806
-4.1636 1.9888 -1.6362 0.9806
-4.3314 1.6130 -1.6389 0.9806
-2.7878 -0.7637 -1.0794 0.9877
-4.6868 -1.7454 -1.8675 0.9789
-4.4312 -3.1894 -2.0387 0.9770
-4.2755 -3.6972 -2.1107 0.9762
-3.5475 -5.2933 -2.3794 0.9732
-2.7574 -6.3063 -2.5701 0.9710
-2.2954 -6.8561 -2.6998 0.9696
-1.7642 -7.4028 -2.8417 0.9680
1.1578 -9.4006 -3.5368 0.9604
7.8860 -10.2182 -4.8197 0.9464
9.1060 -9.8453 -5.0077 0.9443
11.9631 1.8811 -4.5220 0.9496
8.5389 4.8039 -3.6585 0.9590
5.8993 5.8339 -3.0981 0.9652
3.5502 6.1491 -2.6514 0.9701
2.8487 6.1387 -2.5270 0.9715
1.5689 5.9885 -2.3116 0.9739
0.4456 5.7028 -2.1360 0.9759
-1.7685 4.5917 -1.8374 0.9792
-2.1232 4.3206 -1.7976 0.9797
-3.2945 3.1159 -1.6933 0.9808
-3.7446 2.4496 -1.6709 0.9811
-3.9378 2.1013 -1.6667 0.9811
-2.5436 0.5763 -0.9739 0.9889
-2.6307 -0.1173 -0.9833 0.9888
-4.6642 -1.9778 -1.8918 0.9786
-4.5959 -2.4525 -1.9452 0.9780
-4.3582 -3.4417 -2.0737 0.9766
-4.1826 -3.9559 -2.1497 0.9757
-3.9643 -4.4825 -2.2345 0.9748
-3.6991 -5.0205 -2.3286 0.9737
-3.3814 -5.5665 -2.4320 0.9726
-0.8252 -8.2025 -3.0783 0.9654
-0.0970 -8.7090 -3.2522 0.9635
0.7175 -9.1816 -3.4389 0.9614
1.6202 -9.6054 -3.6374 0.9593
2.6104 -9.9655 -3.8467 0.9570
4.8319 -10.4125 -4.2864 0.9522
6.0335 -10.4503 -4.5059 0.9498
9.6966 -9.5892 -5.0923 0.9434
10.8114 -8.9358 -5.2375 0.9419
4.1411 -1.4379 -1.6369 0.9815
12.3188 1.3781 -4.6287 0.9484
10.7631 3.2077 -4.1938 0.9532
9.8909 3.9365 -3.9751 0.9556
8.9918 4.5438 -3.7620 0.9579
8.0868 5.0365 -3.5575 0.9601
7.1945 5.4257 -3.3648 0.9623
6.3235 5.7193 -3.1838 0.9642
5.4836 5.9288 -3.0157 0.9661
4.6802 6.0643 -2.8605 0.9678
3.1942 6.1500 -2.5877 0.9708
2.5134 6.1161 -2.4692 0.9722
1.8737 6.0403 -2.3616 0.9734
1.2739 5.9283 -2.2642 0.9744
0.1877 5.6143 -2.0976 0.9763
-3.1684 3.2761 -1.7019 0.9807
-3.6401 2.6200 -1.6747 0.9810
-3.8438 2.2767 -1.6682 0.9811
-4.1886 1.5598 -1.6690 0.9811
-2.6096 0.4701 -0.9901 0.9887
-2.5629 0.2290 -0.9608 0.9891
-2.5691 -0.0000 -1.0083 0.9890
-2.6073 -0.2330 -1.0273 0.9888
-2.7221 -0.7457 -1.1077 0.9879
-2.7584 -1.0272 -1.1552 0.9874
-4.3768 -2.5924 -1.9965 0.9784
-4.2576 -3.0645 -2.0588 0.9777
-4.1024 -3.5475 -2.1285 0.9770
-3.6705 -4.5430 -2.2922 0.9752
-3.3864 -5.0528 -2.3873 0.9742
-3.0333 -5.5351 -2.4772 0.9732
-2.6222 -5.9971 -2.5688 0.9723
-1.6686 -7.0016 -2.8248 0.9695
0.2803 -8.3846 -3.2925 0.9646
1.0806 -8.7742 -3.4696 0.9627
6.0815 -9.5266 -4.4358 0.9526
7.1874 -9.3129 -4.6170 0.9507
9.2949 -8.4068 -4.9187 0.9476
10.2239 -7.7102 -5.0257 0.9465
11.0202 -6.8634 -5.0953 0.9457
11.6624 -5.8933 -5.1283 0.9454
4.0937 -1.2201 -1.6765 0.9818
4.0558 -0.8244 -1.6244 0.9824
4.1202 -0.4609 -1.6272 0.9823
4.9216 0.3295 -1.9359 0.9790
10.9632 1.7239 -4.3556 0.9534
8.7600 3.9471 -3.7709 0.9596
7.1449 4.9047 -3.4013 0.9634
6.3406 5.2407 -3.2285 0.9653
5.5551 5.4936 -3.0663 0.9670
4.7955 5.6721 -2.9151 0.9686
4.0666 5.7848 -2.7752 0.9701
3.3714 5.8395 -2.6464 0.9714
0.9465 5.6112 -2.2333 0.9758
-0.9394 4.9009 -1.9585 0.9788
-1.3362 4.6729 -1.9075 0.9793
-2.0495 4.1706 -1.8238 0.9802
-2.9362 3.3200 -1.7395 0.9811
-3.9776 1.6866 -1.6956 0.9816
-2.5568 0.5793 -1.0289 0.9888
-2.4910 0.3350 -0.9865 0.9893
-2.5490 0.1137 -1.0014 0.9891
-4.4941 -1.9057 -1.9158 0.9792
-4.4238 -2.3606 -1.9679 0.9787
-4.1847 -3.3046 -2.0927 0.9773
-3.7947 -4.2908 -2.2481 0.9757
-0.0911 -8.1729 -3.2078 0.9655
2.4222 -9.2457 -3.7511 0.9598
3.4036 -9.4605 -3.9460 0.9577
5.5298 -9.5780 -4.3406 0.9536
6.6353 -9.4388 -4.5282 0.9516
7.7337 -9.1475 -4.7013 0.9498
9.7738 -8.0783 -4.9766 0.9470
10.6408 -7.3044 -5.0655 0.9460
11.3630 -6.3928 -5.1170 0.9455
11.9154 -5.3688 -5.1292 0.9454
4.1840 -1.4528 -1.7383 0.9811
4.0598 -1.0154 -1.6424 0.9822
11.2670 1.2604 -4.4495 0.9525
10.6358 2.1618 -4.2596 0.9544
9.9238 2.9576 -4.0641 0.9565
9.1568 3.6443 -3.8680 0.9585
8.3577 4.2233 -3.6752 0.9606
7.5455 4.6994 -3.4888 0.9625
5.9450 5.3769 -3.1460 0.9661
5.1717 5.5916 -2.9893 0.9678
3.0371 5.8474 -2.5860 0.9721
2.3952 5.8283 -2.4731 0.9733
0.6828 5.5436 -2.1922 0.9763
-0.2905 5.2089 -2.0475 0.9778
-0.7305 5.0083 -1.9864 0.9785
-1.1413 4.7889 -1.9322 0.9791
-1.5243 4.5528 -1.8843 0.9796
-1.8808 4.3015 -1.8425 0.9800
-2.8028 3.4690 -1.7504 0.9810
-3.0641 3.1683 -1.7299 0.9812
-3.5221 2.5351 -1.7032 0.9815
-2.5634 0.4618 -1.0222 0.9889
-2.5207 0.2252 -0.9932 0.9892
-2.5656 -0.2293 -1.0607 0.9889
-2.6211 -0.4722 -1.0967 0.9885
-2.6410 -0.7235 -1.1276 0.9882
-4.3018 -2.0548 -1.9631 0.9796
-4.2146 -2.4963 -2.0171 0.9790
-4.0951 -2.9475 -2.0777 0.9784
-3.9407 -3.4076 -2.1452 0.9777
-3.2374 -4.8305 -2.3945 0.9752
-2.9022 -5.2958 -2.4867 0.9742
-2.0687 -6.1788 -2.6831 0.9722
-1.0324 -7.0788 -2.9458 0.9695
0.2635 -7.8802 -3.2467 0.9665
1.0123 -8.2193 -3.4101 0.9648
1.8269 -8.5015 -3.5807 0.9631
2.7025 -8.7122 -3.7562 0.9613
3.6312 -8.8360 -3.9338 0.9595
4.6005 -8.8575 -4.1100 0.9577
6.5890 -8.5377 -4.4409 0.9544
8.4754 -7.6656 -4.7057 0.9518
9.3079 -7.0194 -4.8005 0.9508
10.6042 -5.3586 -4.8925 0.9499
4.6632 -1.8559 -2.0667 0.9785
4.1470 -1.2359 -1.7819 0.9815
4.0918 -0.8317 -1.7194 0.9821
4.1628 -0.4657 -1.7248 0.9820
4.3810 -0.0976 -1.8044 0.9812
10.6072 0.7101 -4.3776 0.9551
10.1074 1.5893 -4.2132 0.9567
7.4346 4.1826 -3.5127 0.9638
5.9691 4.9336 -3.1889 0.9671
5.2451 5.1870 -3.0376 0.9686
3.8601 5.4910 -2.7639 0.9714
1.4353 5.4787 -2.3321 0.9758
0.9074 5.3796 -2.2465 0.9767
-0.4950 4.9199 -2.0362 0.9788
-1.2888 4.5071 -1.9303 0.9799
-1.9799 4.0290 -1.8486 0.9808
-2.8410 3.2123 -1.7659 0.9816
-3.0843 2.9171 -1.7481 0.9818
-3.9930 1.2875 -1.7276 0.9820
-2.6388 0.5979 -1.1141 0.9884
-2.4504 0.3295 -1.0181 0.9894
-2.5068 0.1118 -1.0333 0.9892
-2.5479 -0.1136 -1.0502 0.9890
-4.1591 -2.7207 -2.0465 0.9787
-4.0224 -3.1765 -2.1106 0.9781
-3.8495 -3.6408 -2.1818 0.9773
-3.3821 -4.5902 -2.3478 0.9756
-2.6985 -5.4913 -2.5195 0.9739
-0.7335 -7.2912 -3.0175 0.9688
-0.0857 -7.6931 -3.1681 0.9673
1.4116 -8.3684 -3.4946 0.9640
2.2575 -8.6167 -3.6680 0.9622
7.0792 -8.3733 -4.5151 0.9537
8.0256 -7.9367 -4.6479 0.9523
8.9041 -7.3594 -4.7568 0.9513
9.6830 -6.6470 -4.8364 0.9505
4.2648 -1.4809 -1.8590 0.9807
4.1070 -0.6458 -1.7119 0.9822
4.2494 -0.2845 -1.7537 0.9817
9.8224 1.9965 -4.1274 0.9576
9.1971 2.7410 -3.9518 0.9593
8.5164 3.3895 -3.7744 0.9611
7.0662 4.4009 -3.4279 0.9646
5.6051 5.0695 -3.1121 0.9678
4.8900 5.2870 -2.9655 0.9693
4.1969 5.4381 -2.8286 0.9707
2.8928 5.5697 -2.5844 0.9732
0.1731 5.1771 -2.1330 0.9778
-1.4709 4.3932 -1.9077 0.9802
-1.8163 4.1540 -1.8669 0.9806
-2.1376 3.9006 -1.8316 0.9809
-2.7113 3.3558 -1.7765 0.9815
-2.9653 3.0660 -1.7564 0.9817
-3.4102 2.4545 -1.7302 0.9820
-3.9249 1.4616 -1.7246 0.9820
-2.5221 -0.2254 -1.0923 0.9890
-2.5389 -0.4574 -1.1128 0.9888
-2.5688 -0.9566 -1.1824 0.9881
-4.1501 -1.9823 -1.9839 0.9802
-4.0620 -2.4059 -2.0365 0.9796
-3.9425 -2.8377 -2.0953 0.9791
-3.7892 -3.2767 -2.1609 0.9784
-3.5996 -3.7219 -2.2335 0.9777
-3.3705 -4.1718 -2.3135 0.9769
-2.3861 -5.4574 -2.5694 0.9744
-1.9694 -5.8823 -2.6758 0.9733
0.2483 -7.4272 -3.2056 0.9681
0.9514 -7.7245 -3.3572 0.9667
2.5243 -8.1375 -3.6752 0.9636
5.1768 -8.1093 -4.1500 0.9590
6.9589 -7.5239 -4.4208 0.9563
7.7865 -7.0425 -4.5288 0.9553
9.1861 -5.7212 -4.6682 0.9540
9.7110 -4.9072 -4.6934 0.9537
4.2206 -0.4722 -1.8319 0.9817
9.3661 1.4728 -4.0898 0.9595
8.2628 2.8691 -3.7730 0.9626
6.3115 4.3326 -3.3023 0.9672
4.3080 5.0955 -2.8783 0.9714
3.6711 5.2222 -2.7535 0.9726
2.4693 5.3211 -2.5304 0.9748
1.3756 5.2506 -2.3413 0.9766
-0.4769 4.7401 -2.0550 0.9795
-1.2441 4.3507 -1.9519 0.9805
-1.5908 4.1303 -1.9092 0.9809
-1.9140 3.8949 -1.8720 0.9813
-2.2146 3.6457 -1.8400 0.9816
-2.4932 3.3838 -1.8130 0.9819
-2.7505 3.1100 -1.7909 0.9821
-3.5755 1.9080 -1.7482 0.9825
-3.7319 1.5825 -1.7486 0.9825
-3.8685 1.2474 -1.7533 0.9824
-2.4655 0.1099 -1.0645 0.9893
-2.5076 -0.1118 -1.0828 0.9891
-2.5277 -0.3400 -1.1001 0.9890
-2.5465 -0.5770 -1.1263 0.9887
-2.5665 -0.8276 -1.1632 0.9883
-2.6695 -1.1320 -1.2508 0.9874
-4.1098 -2.1931 -2.0094 0.9799
-4.0064 -2.6208 -2.0651 0.9794
-3.8703 -3.0563 -2.1273 0.9787
-3.6991 -3.4986 -2.1963 0.9781
-3.2403 -4.3979 -2.3564 0.9765
-1.7429 -6.0953 -2.7346 0.9728
-0.6941 -6.9001 -2.9914 0.9702
2.1118 -8.0609 -3.5945 0.9644
2.9478 -8.1937 -3.7562 0.9628
3.8226 -8.2376 -3.9173 0.9612
4.7227 -8.1799 -4.0743 0.9597
5.6303 -8.0093 -4.2231 0.9582
6.5244 -7.7172 -4.3591 0.9569
7.3807 -7.2989 -4.4776 0.9558
8.1732 -6.7553 -4.5739 0.9549
8.8760 -6.0930 -4.6440 0.9542
9.4653 -5.3251 -4.6847 0.9538
9.9214 -4.4704 -4.6940 0.9537
4.1670 -1.0422 -1.8528 0.9815
4.3123 -0.2887 -1.8643 0.9813
4.7476 0.1058 -2.0484 0.9795
9.5955 1.0734 -4.1649 0.9588
9.1157 1.8529 -4.0125 0.9603
8.5616 2.5516 -3.8536 0.9618
7.3064 3.6921 -3.5312 0.9650
6.6388 4.1347 -3.3737 0.9665
5.9727 4.5042 -3.2268 0.9679
5.2980 4.7918 -3.0814 0.9694
2.7600 5.3139 -2.5829 0.9743
2.1854 5.3178 -2.4800 0.9753
1.6385 5.2819 -2.3855 0.9762
1.1198 5.2109 -2.2991 0.9770
-0.6782 4.6498 -2.0269 0.9797
-1.4204 4.2425 -1.9299 0.9807
-2.8713 2.9689 -1.7816 0.9822
-3.0976 2.6786 -1.7665 0.9823
-3.3037 2.3779 -1.7558 0.9824
-3.4899 2.0671 -1.7496 0.9825
-3.6562 1.7464 -1.7478 0.9825
-3.8027 1.4162 -1.7504 0.9825
-2.4593 -0.4431 -1.1275 0.9891
-2.4890 -0.9269 -1.1984 0.9884
-3.4602 -3.5778 -2.2458 0.9784
-2.6613 -4.8563 -2.4987 0.9760
-2.2812 -5.2171 -2.5693 0.9753
-1.4297 -5.9992 -2.7828 0.9733
2.3660 -7.6272 -3.6033 0.9656
3.9808 -7.6645 -3.8970 0.9628
4.8131 -7.5397 -4.0361 0.9615
7.1934 -6.5061 -4.3764 0.9583
9.3014 -3.7019 -4.5171 0.9570
4.3160 -1.2863 -2.0321 0.9804
4.2109 -0.8559 -1.9389 0.9813
8.7176 1.3708 -3.9818 0.9620
6.5623 3.6919 -3.3975 0.9675
4.7084 4.6563 -2.9879 0.9714
0.3795 4.8560 -2.1978 0.9789
-0.0526 4.7249 -2.1321 0.9795
-0.8426 4.3960 -2.0197 0.9805
-1.5378 3.9928 -1.9306 0.9814
-2.4142 3.2766 -1.8364 0.9823
-2.6644 3.0127 -1.8147 0.9825
-3.1046 2.4516 -1.7850 0.9828
-3.2951 2.1556 -1.7767 0.9829
-3.4662 1.8496 -1.7728 0.9829
-3.6178 1.5341 -1.7731 0.9829
-2.5489 0.5775 -1.1792 0.9886
-2.3567 0.3169 -1.0730 0.9896
-3.3527 -3.7910 -2.2835 0.9780
-3.1082 -4.2185 -2.3644 0.9773
-2.8220 -4.6456 -2.4526 0.9764
-2.0834 -5.4095 -2.6156 0.9749
0.5591 -7.1552 -3.2384 0.9690
1.2467 -7.3908 -3.3820 0.9676
2.7591 -7.6692 -3.6776 0.9649
3.5682 -7.6892 -3.8249 0.9635
4.3965 -7.6150 -3.9676 0.9621
6.0447 -7.1497 -4.2245 0.9597
6.8244 -6.7488 -4.3307 0.9588
7.5449 -6.2360 -4.4167 0.9580
8.1840 -5.6180 -4.4791 0.9574
8.7214 -4.9066 -4.5153 0.9570
4.2357 -1.0594 -1.9701 0.9810
4.2229 -0.6640 -1.9289 0.9814
8.4956 1.7268 -3.9117 0.9627
8.0007 2.3845 -3.7670 0.9640
5.0190 4.5394 -3.0535 0.9707
3.7942 4.9163 -2.8021 0.9731
2.0918 5.0901 -2.4831 0.9761
1.5709 5.0640 -2.3924 0.9770
1.0752 5.0034 -2.3092 0.9778
0.6050 4.9121 -2.2332 0.9785
-1.0251 4.3016 -1.9953 0.9808
-1.3726 4.0997 -1.9508 0.9812
-2.0001 3.6498 -1.8779 0.9819
-2.2814 3.4041 -1.8491 0.9822
-2.5419 3.1461 -1.8250 0.9824
-2.7819 2.8765 -1.8056 0.9826
-3.2023 2.3048 -1.7803 0.9828
-3.3831 2.0038 -1.7742 0.9829
-3.6863 1.3728 -1.7749 0.9829
-2.3848 0.2131 -1.0804 0.9895
-2.3615 -0.0000 -1.1132 0.9896
-2.3773 -0.2125 -1.1251 0.9895
-2.3816 -0.4291 -1.1407 0.9894
-2.3934 -0.6556 -1.1698 0.9891
-3.8709 -1.8490 -2.0221 0.9812
-3.7821 -2.2401 -2.0720 0.9807
-3.6635 -2.6368 -2.1277 0.9802
-3.3293 -3.4424 -2.2574 0.9790
-3.1091 -3.8482 -2.3320 0.9784
-2.1834 -4.9936 -2.5690 0.9762
-1.3627 -5.7183 -2.7710 0.9743
-0.3552 -6.3701 -3.0074 0.9722
1.5163 -7.0562 -3.4021 0.9686
2.9639 -7.2122 -3.6756 0.9661
4.4927 -7.0378 -3.9358 0.9638
5.9877 -6.4739 -4.1568 0.9618
6.6771 -6.0391 -4.2438 0.9610
7.3017 -5.5065 -4.3109 0.9604
8.2846 -4.1863 -4.3754 0.9598
8.6144 -3.4285 -4.3704 0.9598
4.5034 -1.3422 -2.2151 0.9794
4.8062 -0.1071 -2.2661 0.9790
8.4835 0.5679 -4.0079 0.9631
8.1451 1.2807 -3.8866 0.9642
7.7318 1.9338 -3.7569 0.9654
7.2589 2.5205 -3.6221 0.9666
6.7408 3.0372 -3.4851 0.9678
5.6351 3.8683 -3.2219 0.9702
5.0551 4.1781 -3.0914 0.9714
3.9000 4.6129 -2.8474 0.9736
0.3654 4.6761 -2.2109 0.9795
-0.8139 4.2459 -2.0378 0.9811
-1.1616 4.0625 -1.9917 0.9815
-1.4875 3.8622 -1.9509 0.9819
-3.6367 1.1727 -1.8012 0.9832
-2.5265 0.5724 -1.2211 0.9886
-2.3488 0.1047 -1.1083 0.9897
-2.3694 -0.1057 -1.1180 0.9896
-3.8301 -2.0438 -2.0464 0.9810
-3.2238 -3.6453 -2.2939 0.9787
-0.6256 -6.2182 -2.9459 0.9727
-0.0726 -6.5132 -3.0704 0.9716
1.1764 -6.9744 -3.3340 0.9692
1.8659 -7.1221 -3.4705 0.9680
3.3423 -7.2025 -3.7428 0.9655
4.1085 -7.1162 -3.8733 0.9643
4.8750 -6.9348 -3.9958 0.9632
5.6249 -6.6531 -4.1067 0.9622
8.7347 -3.0330 -4.3585 0.9599
4.3172 -0.6788 -2.0600 0.9809
4.5156 -0.3023 -2.1333 0.9802
8.6201 0.1921 -4.0643 0.9626
8.3246 0.9312 -3.9485 0.9636
7.9468 1.6153 -3.8225 0.9648
7.5019 2.2358 -3.6899 0.9660
7.0046 2.7878 -3.5537 0.9672
6.4691 3.2689 -3.4166 0.9685
5.9223 3.6885 -3.2888 0.9696
5.3457 4.0313 -3.1560 0.9708
4.7644 4.3091 -3.0281 0.9720
3.6168 4.6864 -2.7905 0.9742
1.5077 4.8605 -2.3988 0.9777
1.0334 4.8090 -2.3186 0.9785
0.5822 4.7273 -2.2452 0.9792
0.1544 4.6185 -2.1783 0.9798
-0.9905 4.1564 -2.0141 0.9813
-1.3273 3.9644 -1.9707 0.9817
-2.2099 3.2974 -1.8711 0.9826
-2.4632 3.0487 -1.8475 0.9828
-2.9107 2.5170 -1.8139 0.9831
-3.1055 2.2352 -1.8036 0.9832
-3.6933 1.0117 -1.8051 0.9832
-2.3515 0.4236 -1.1263 0.9895
-2.3243 0.2077 -1.1000 0.9897
-2.3094 -0.2064 -1.1404 0.9897
-2.3278 -0.8669 -1.2217 0.9890
-3.5355 -2.5447 -2.1425 0.9808
-3.3871 -2.9289 -2.2024 0.9802
-2.9904 -3.7013 -2.3404 0.9790
-2.4465 -4.4643 -2.5039 0.9776
-0.3378 -6.0575 -2.9840 0.9733
0.2109 -6.3069 -3.1038 0.9723
0.8021 -6.5128 -3.2276 0.9712
2.0971 -6.7603 -3.4814 0.9689
2.7880 -6.7842 -3.6076 0.9678
3.4957 -6.7305 -3.7303 0.9668
4.9112 -6.3636 -3.9537 0.9648
5.5886 -6.0424 -4.0483 0.9640
6.2234 -5.6287 -4.1273 0.9633
6.7982 -5.1268 -4.1880 0.9628
7.2971 -4.5447 -4.2283 0.9624
7.7058 -3.8939 -4.2466 0.9622
8.0133 -3.1892 -4.2421 0.9623
8.1561 -0.1818 -4.0126 0.9643
7.9374 0.5313 -3.9128 0.9652
7.6356 1.2006 -3.8018 0.9661
6.8340 2.3730 -3.5582 0.9683
6.3603 2.8658 -3.4312 0.9694
4.2594 4.2122 -2.9464 0.9737
3.1886 4.5359 -2.7271 0.9756
2.6703 4.6251 -2.6268 0.9765
2.1679 4.6716 -2.5331 0.9773
1.6835 4.6793 -2.4459 0.9781
1.2188 4.6521 -2.3654 0.9788
0.7748 4.5934 -2.2912 0.9794
-0.0490 4.3943 -2.1615 0.9806
-0.7866 4.1036 -2.0551 0.9815
-1.7355 3.5316 -1.9354 0.9826
-2.2673 3.0772 -1.8800 0.9831
-2.5041 2.8314 -1.8591 0.9833
-2.7218 2.5742 -1.8426 0.9834
-2.9206 2.3064 -1.8304 0.9835
-3.1007 2.0284 -1.8225 0.9836
-3.4048 1.4437 -1.8190 0.9836
-3.5286 1.1378 -1.8235 0.9836
-2.2513 0.3028 -1.1173 0.9899
-2.2893 0.1021 -1.1271 0.9898
-2.3022 -0.1027 -1.1335 0.9898
-2.3142 -0.5243 -1.1671 0.9895
-2.3375 -0.9912 -1.2488 0.9887
-3.7012 -1.9750 -2.0634 0.9815
-3.3008 -3.1219 -2.2346 0.9800
-3.1027 -3.5083 -2.3036 0.9793
-2.8689 -3.8937 -2.3788 0.9787
-1.9088 -4.9562 -2.6123 0.9766
-1.5135 -5.2931 -2.7078 0.9758
-1.0770 -5.6187 -2.8139 0.9748
-0.0689 -6.1871 -3.0433 0.9728
0.5013 -6.4158 -3.1653 0.9717
1.1128 -6.5969 -3.2906 0.9706
3.8522 -6.6722 -3.7894 0.9662
6.5193 -5.3884 -4.1601 0.9630
7.0581 -4.8451 -4.2108 0.9626
7.5135 -4.2270 -4.2402 0.9623
8.1267 -2.8219 -4.2313 0.9624
4.5157 -1.1295 -2.2895 0.9795
4.4440 -0.6988 -2.2126 0.9801
6.6019 2.6275 -3.4949 0.9688
5.6084 3.4929 -3.2498 0.9710
2.9277 4.5861 -2.6762 0.9760
2.4169 4.6535 -2.5791 0.9769
-0.2414 4.3294 -2.1328 0.9809
-0.6102 4.1838 -2.0796 0.9813
-1.2842 3.8357 -1.9896 0.9821
-1.5901 3.6367 -1.9522 0.9825
-1.8758 3.4229 -1.9198 0.9828
-2.3881 2.9558 -1.8690 0.9832
-2.8235 2.4416 -1.8360 0.9835
-3.5832 0.9815 -1.8274 0.9836
-2.2658 0.2025 -1.1189 0.9899
-2.2481 -0.6158 -1.1950 0.9896
-2.2593 -0.8414 -1.2360 0.9892
-3.5310 -2.0914 -2.1039 0.9817
-3.4142 -2.4574 -2.1566 0.9813
-3.0899 -3.1949 -2.2786 0.9802
-2.8787 -3.5630 -2.3483 0.9796
-2.3490 -4.2863 -2.5058 0.9783
-1.2435 -5.2179 -2.7500 0.9762
-0.3217 -5.7696 -2.9625 0.9744
1.9817 -6.3884 -3.4291 0.9704
2.6294 -6.3982 -3.5464 0.9694
3.9538 -6.1936 -3.7671 0.9675
4.6065 -5.9689 -3.8654 0.9667
5.2342 -5.6591 -3.9519 0.9659
6.3533 -4.7912 -4.0795 0.9649
6.8153 -4.2446 -4.1162 0.9646
7.1949 -3.6358 -4.1328 0.9644
7.7603 -1.5774 -4.0598 0.9650
7.4500 0.4987 -3.8279 0.9670
6.8421 1.7113 -3.6158 0.9688
5.0740 3.4831 -3.1552 0.9727
4.0610 4.0160 -2.9280 0.9747
3.5528 4.2022 -2.8211 0.9756
3.0507 4.3397 -2.7195 0.9764
2.0805 4.4833 -2.5339 0.9780
1.6179 4.4969 -2.4501 0.9787
1.1728 4.4765 -2.3724 0.9794
0.7464 4.4253 -2.3008 0.9800
0.3396 4.3463 -2.2350 0.9806
-0.0473 4.2422 -2.1750 0.9811
-0.4140 4.1155 -2.1206 0.9816
-0.7607 3.9683 -2.0715 0.9820
-2.1988 2.9842 -1.9003 0.9835
-2.4292 2.7467 -1.8799 0.9837
-2.6411 2.4979 -1.8637 0.9838
-3.0098 1.9689 -1.8439 0.9840
-3.3051 1.4015 -1.8405 0.9840
-3.4250 1.1044 -1.8449 0.9840
-2.4709 0.5598 -1.2989 0.9887
-2.2093 0.2971 -1.1428 0.9900
-2.2319 0.0995 -1.1453 0.9900
-2.2446 -0.3019 -1.1611 0.9899
-2.3836 -1.2720 -1.3851 0.9879
-3.4762 -2.2740 -2.1296 0.9815
-2.9886 -3.3792 -2.3127 0.9799
-2.7600 -3.7460 -2.3854 0.9793
-2.4954 -4.1080 -2.4641 0.9786
-2.1903 -4.4571 -2.5460 0.9779
-0.0656 -5.8875 -3.0185 0.9739
0.4761 -6.0933 -3.1334 0.9729
1.6658 -6.3584 -3.3697 0.9709
2.3032 -6.4020 -3.4880 0.9699
3.6226 -6.2746 -3.7144 0.9680
7.0160 -3.9472 -4.1271 0.9645
7.3507 -3.3121 -4.1334 0.9644
7.7287 -1.9331 -4.0843 0.9648
4.7276 -0.7434 -2.4535 0.9787
7.7077 -0.5160 -3.9603 0.9659
7.5570 0.1684 -3.8752 0.9666
6.6522 1.9826 -3.5586 0.9693
6.2374 2.4824 -3.4417 0.9703
5.3216 3.3143 -3.2141 0.9722
4.3158 3.9034 -2.9833 0.9742
3.3007 4.2768 -2.7696 0.9760
2.8033 4.3913 -2.6709 0.9769
1.3930 4.4907 -2.4105 0.9791
0.9572 4.4546 -2.3359 0.9797
0.1437 4.2972 -2.2043 0.9809
-0.2332 4.1815 -2.1471 0.9814
-0.5899 4.0444 -2.0954 0.9818
-0.9265 3.8876 -2.0489 0.9822
-1.5403 3.5227 -1.9711 0.9829
-1.8180 3.3173 -1.9393 0.9831
-2.3163 2.8669 -1.8896 0.9836
-2.5374 2.6237 -1.8712 0.9837
-2.7401 2.3695 -1.8572 0.9838
-2.9245 2.1049 -1.8473 0.9839
-3.0905 1.8305 -1.8415 0.9840
-2.2093 0.1974 -1.1372 0.9901
-2.1789 -0.3926 -1.1819 0.9900
-2.1873 -0.5992 -1.2107 0.9898
-2.1932 -0.8168 -1.2494 0.9894
-2.2033 -1.0524 -1.3035 0.9890
-3.4147 -2.0226 -2.1187 0.9822
-2.9800 -3.0813 -2.2884 0.9808
-2.5330 -3.7795 -2.4289 0.9796
-2.2574 -4.1193 -2.5076 0.9789
-1.5756 -4.7061 -2.6494 0.9777
-0.7676 -5.2630 -2.8393 0.9762
-0.3069 -5.5035 -2.9426 0.9753
1.2870 -5.9893 -3.2703 0.9726
1.8767 -6.0498 -3.3815 0.9717
3.7249 -5.8349 -3.6955 0.9691
5.4627 -4.9408 -3.9321 0.9672
5.9567 -4.4922 -3.9829 0.9667
7.0102 -2.7900 -4.0279 0.9664
7.1903 -2.1429 -4.0053 0.9666
7.2782 -1.4793 -3.9648 0.9669
7.2747 -0.8138 -3.9078 0.9674
7.0120 0.4694 -3.7517 0.9686
6.4609 1.6160 -3.5553 0.9703
5.7005 2.5685 -3.3378 0.9720
3.8773 3.8343 -2.9111 0.9756
2.9221 4.1568 -2.7125 0.9772
2.4547 4.2516 -2.6208 0.9780
1.9985 4.3067 -2.5346 0.9787
1.1294 4.3110 -2.3791 0.9800
0.3278 4.1946 -2.2461 0.9811
-0.7360 3.8396 -2.0871 0.9824
-1.8907 3.1126 -1.9442 0.9836
-2.9226 1.9119 -1.8644 0.9843
-3.3257 1.0724 -1.8654 0.9843
-2.1681 0.2916 -1.1679 0.9901
-2.1765 -0.0971 -1.1631 0.9902
-2.1806 -0.4941 -1.1936 0.9899
-2.1912 -0.7066 -1.2291 0.9896
-2.2000 -0.9329 -1.2757 0.9892
-2.2448 -1.1979 -1.3583 0.9885
-3.3604 -2.1983 -2.1437 0.9820
-3.0712 -2.9048 -2.2567 0.9810
-2.8807 -3.2573 -2.3214 0.9805
-2.6575 -3.6068 -2.3916 0.9799
-2.1057 -4.2850 -2.5488 0.9786
-1.3869 -4.8501 -2.6930 0.9774
-0.0625 -5.6111 -2.9956 0.9749
1.0016 -5.9379 -3.2147 0.9731
1.5790 -6.0269 -3.3260 0.9721
2.1792 -6.0572 -3.4365 0.9712
2.7946 -6.0221 -3.5441 0.9703
4.0313 -5.7346 -3.7421 0.9687
4.6290 -5.4752 -3.8276 0.9680
5.7170 -4.7253 -3.9595 0.9669
6.8862 -3.1028 -4.0321 0.9663
7.1117 -2.4695 -4.0189 0.9664
7.2398 -0.4846 -3.8736 0.9676
7.1075 0.1584 -3.7952 0.9683
6.8983 0.7717 -3.7056 0.9690
6.2871 1.8737 -3.5022 0.9707
4.1171 3.7237 -2.9635 0.9751
3.1591 4.0934 -2.7603 0.9768
2.6872 4.2094 -2.6660 0.9776
1.7755 4.3204 -2.4936 0.9790
0.9224 4.2923 -2.3437 0.9803
0.1387 4.1493 -2.2163 0.9814
-0.5705 3.9117 -2.1103 0.9822
-0.8967 3.7629 -2.0650 0.9826
-1.4927 3.4138 -1.9890 0.9832
-2.0142 3.0054 -1.9314 0.9837
-2.2476 2.7818 -1.9092 0.9839
-2.4629 2.5466 -1.8913 0.9841
-2.8396 2.0438 -1.8677 0.9843
-3.1446 1.5021 -1.8604 0.9843
-2.2057 0.3974 -1.1965 0.9899
-2.1547 0.1925 -1.1549 0.9902
-2.1202 -0.1895 -1.1823 0.9903
-2.1317 -0.7939 -1.2633 0.9896
-2.1374 -1.0210 -1.3156 0.9892
-3.1896 -2.2957 -2.1826 0.9822
-2.6737 -3.3092 -2.3629 0.9807
-2.4393 -3.6396 -2.4334 0.9802
-2.1713 -3.9621 -2.5093 0.9795
-1.1402 -4.7846 -2.7318 0.9777
-0.2931 -5.2568 -2.9241 0.9762
0.6887 -5.5916 -3.1290 0.9746
1.2232 -5.6924 -3.2337 0.9737
2.3544 -5.7292 -3.4402 0.9721
2.9366 -5.6539 -3.5384 0.9713
4.0864 -5.2949 -3.7147 0.9699
4.6314 -5.0075 -3.7883 0.9693
6.3330 -3.2002 -3.9409 0.9681
6.8478 -0.7661 -3.8270 0.9690
6.7695 -0.1509 -3.7607 0.9695
6.3947 1.0055 -3.5952 0.9708
5.4123 2.4387 -3.2970 0.9732
5.0276 2.8285 -3.2039 0.9740
2.8019 3.9857 -2.7059 0.9780
2.3569 4.0824 -2.6181 0.9787
1.4980 4.1638 -2.4577 0.9800
1.0885 4.1547 -2.3854 0.9805
0.6943 4.1161 -2.3183 0.9811
0.3165 4.0507 -2.2566 0.9816
-0.7125 3.7169 -2.1019 0.9828
-1.8343 3.0197 -1.9623 0.9840
-2.0703 2.8098 -1.9384 0.9842
-2.2887 2.5879 -1.9188 0.9843
-2.6730 2.1108 -1.8916 0.9845
-2.9872 1.5940 -1.8805 0.9846
-3.1178 1.3220 -1.8808 0.9846
-2.1163 0.0944 -1.1766 0.9904
-2.1192 -0.0945 -1.1782 0.9903
-2.1237 -0.2856 -1.1901 0.9902
-2.1317 -0.6874 -1.2440 0.9898
-2.1353 -0.9054 -1.2881 0.9894
-2.1463 -1.1453 -1.3512 0.9889
-3.2502 -2.1262 -2.1571 0.9824
-3.1220 -2.4655 -2.2094 0.9820
-2.7787 -3.1419 -2.3296 0.9810
-2.5606 -3.4753 -2.3975 0.9804
-1.6874 -4.3812 -2.6075 0.9787
-1.3297 -4.6504 -2.6863 0.9781
-0.9418 -4.9130 -2.7783 0.9774
-0.5181 -5.1498 -2.8746 0.9766
-0.0597 -5.3552 -2.9744 0.9758
0.4316 -5.5234 -3.0770 0.9750
0.9527 -5.6482 -3.1813 0.9741
2.0659 -5.7424 -3.3894 0.9725
2.6450 -5.6999 -3.4899 0.9717
3.8042 -5.4115 -3.6739 0.9702
4.3627 -5.1602 -3.7529 0.9696
5.8094 -3.9880 -3.9136 0.9683
6.1766 -3.4749 -3.9361 0.9681
6.6833 -2.3207 -3.9293 0.9681
6.7018 0.1493 -3.7231 0.9698
5.9545 1.7746 -3.4508 0.9720
5.2144 2.6350 -3.2448 0.9736
4.8162 2.9996 -3.1512 0.9744
3.9327 3.5569 -2.9451 0.9760
1.7081 4.1565 -2.4958 0.9796
1.2914 4.1631 -2.4209 0.9803
