ply
format ascii 1.0
element vertex 1589
property float32 x
property float32 y
property float32 z
property float32 I
end_header
-11.0321 -6.5343 -1.1755 0.9498
-10.5729 -7.6099 -1.1943 0.9490
-10.7986 -9.3379 -1.3088 0.9443
4.3713 -1.3028 -0.4182 0.9818
4.2675 -0.8674 -0.3992 0.9827
4.2802 -0.4788 -0.3948 0.9828
4.3802 -0.0976 -0.4017 0.9826
5.2044 0.8184 -0.4830 0.9791
1.1292 14.4503 -1.3288 0.9434
-0.1473 13.2238 -1.2124 0.9483
-2.1411 11.1699 -1.0427 0.9553
-2.9399 10.2816 -0.9804 0.9580
-3.6428 9.4583 -0.9292 0.9601
-6.1658 6.9717 -0.8532 0.9633
-6.6203 6.2615 -0.8354 0.9641
-4.2496 0.5715 -0.3931 0.9829
-4.0002 0.1784 -0.3671 0.9840
-10.1802 -2.3065 -0.9570 0.9589
-11.0068 -7.2003 -1.2058 0.9485
-10.6864 -8.4389 -1.2483 0.9468
4.4929 -1.5601 -0.4360 0.9811
4.2674 -0.6710 -0.3960 0.9828
4.3177 -0.2890 -0.3967 0.9828
4.4614 0.0994 -0.4091 0.9822
-1.6982 11.6441 -1.0788 0.9538
-2.5539 10.7165 -1.0100 0.9567
-3.3021 9.8628 -0.9535 0.9591
-3.9617 9.0607 -0.9066 0.9611
-4.5479 8.2988 -0.8676 0.9627
-5.2612 7.8502 -0.8664 0.9628
-6.3975 6.6150 -0.8437 0.9637
-7.2411 5.2118 -0.8179 0.9648
-7.6211 4.5140 -0.8120 0.9650
-7.9783 3.8110 -0.8106 0.9651
-8.6366 2.3658 -0.8210 0.9647
-4.9081 0.8842 -0.4572 0.9802
-3.7849 0.0000 -0.4105 0.9849
-9.1918 -0.8214 -1.0010 0.9636
-9.4161 -1.6964 -1.0378 0.9622
-9.6270 -2.6371 -1.0827 0.9606
-10.3154 -7.4246 -1.3786 0.9501
-9.7992 -8.4736 -1.4052 0.9492
4.6923 -1.8675 -0.5478 0.9799
4.2478 -0.8634 -0.4702 0.9827
4.3573 -0.0971 -0.4727 0.9826
4.5724 0.3061 -0.4971 0.9817
1.3446 7.9711 -0.8768 0.9680
-1.9828 10.3444 -1.1424 0.9585
-3.3991 8.8257 -1.0258 0.9627
-3.9900 8.1194 -0.9813 0.9643
-4.5285 7.4551 -0.9461 0.9655
-5.3348 7.2404 -0.9755 0.9645
-6.2442 5.9058 -0.9322 0.9660
-6.6473 5.2493 -0.9187 0.9665
-8.0069 2.5819 -0.9125 0.9667
-4.7637 1.0793 -0.5298 0.9805
-3.7517 0.5046 -0.4106 0.9849
-3.9257 -0.1751 -0.4262 0.9843
-9.3056 -1.2515 -1.0184 0.9629
-9.5233 -2.1577 -1.0591 0.9615
-9.9166 -4.2050 -1.1683 0.9576
-10.0901 -5.3843 -1.2405 0.9550
-9.8513 -9.3173 -1.4707 0.9469
4.4593 -1.5484 -0.5120 0.9812
4.2863 -1.0721 -0.4792 0.9824
4.2970 -0.2876 -0.4671 0.9828
4.4377 0.0989 -0.4815 0.9823
4.7705 0.5337 -0.5207 0.9809
0.4211 12.5947 -1.3669 0.9506
-0.6486 11.6319 -1.2636 0.9542
-3.0775 9.1920 -1.0514 0.9617
-3.7027 8.4683 -1.0025 0.9635
-5.5767 6.9024 -0.9625 0.9649
-6.8379 4.9216 -0.9138 0.9667
-7.1996 4.2644 -0.9076 0.9669
-7.5379 3.6005 -0.9061 0.9669
-3.9949 0.7197 -0.4403 0.9838
-3.5692 0.0000 -0.4473 0.9857
-8.8542 -1.5951 -1.1274 0.9644
-9.3200 -4.4518 -1.2943 0.9592
-9.5615 -8.2681 -1.5841 0.9503
-9.0676 -9.3758 -1.6345 0.9488
-8.9339 -11.0576 -1.7815 0.9443
4.6609 -1.8550 -0.6286 0.9800
4.2394 -0.4742 -0.5346 0.9830
4.3346 -0.0966 -0.5433 0.9827
5.0768 0.7983 -0.6440 0.9795
1.3455 7.9770 -1.0138 0.9679
0.9381 12.0051 -1.5090 0.9526
-0.1242 11.1510 -1.3975 0.9560
-4.4914 7.3939 -1.0841 0.9657
-5.0345 6.8328 -1.0636 0.9664
-6.6517 4.3513 -0.9961 0.9685
-7.2945 3.0931 -0.9929 0.9686
-4.3832 0.9931 -0.5632 0.9820
-3.6310 -0.1619 -0.4555 0.9855
-8.9440 -2.0264 -1.1492 0.9637
-9.1096 -2.9375 -1.1995 0.9621
-9.4760 -6.1989 -1.4190 0.9554
-9.5422 -7.5354 -1.5237 0.9522
-9.3120 -8.8072 -1.6062 0.9496
4.4354 -1.5401 -0.5884 0.9813
4.2284 -0.6649 -0.5364 0.9829
4.2764 -0.2863 -0.5371 0.9829
4.4141 0.0984 -0.5533 0.9824
4.7345 0.5296 -0.5970 0.9810
1.5349 12.4624 -1.5735 0.9506
0.3868 11.5686 -1.4505 0.9544
-0.5994 10.7502 -1.3493 0.9575
-1.4572 9.9913 -1.2653 0.9601
-2.8796 8.6008 -1.1366 0.9641
-4.7917 7.1497 -1.0786 0.9659
-5.7026 5.8965 -1.0280 0.9675
-6.1043 5.2787 -1.0113 0.9680
-6.4760 4.6612 -0.9999 0.9683
-6.8210 4.0401 -0.9935 0.9685
-8.3536 -1.5050 -1.2073 0.9663
-8.4992 -2.3282 -1.2534 0.9650
-8.6223 -3.2109 -1.3087 0.9635
-8.7201 -4.1652 -1.3745 0.9617
-8.7892 -5.2058 -1.4530 0.9596
4.6297 -1.8426 -0.7087 0.9801
4.2086 -0.8554 -0.6109 0.9828
4.3120 -0.0961 -0.6135 0.9827
5.0324 0.7913 -0.7246 0.9796
-0.1152 10.3366 -1.4703 0.9591
-0.9712 9.6535 -1.3800 0.9616
-1.7263 9.0059 -1.3043 0.9636
-2.3969 8.3826 -1.2401 0.9654
-3.5349 7.1934 -1.1400 0.9681
-5.9746 4.7181 -1.0828 0.9697
-6.3172 4.1326 -1.0737 0.9700
-6.9288 2.9381 -1.0705 0.9701
-7.2015 2.3222 -1.0762 0.9699
-3.4470 -0.1537 -0.4908 0.9862
-8.6745 -3.6783 -1.3402 0.9626
-8.7981 -8.3212 -1.7225 0.9523
-8.7125 -9.8514 -1.8706 0.9483
4.3907 0.0979 -0.6247 0.9824
4.7000 0.5258 -0.6727 0.9811
-1.3601 9.3257 -1.3405 0.9626
-2.7045 8.0780 -1.2117 0.9662
-3.2723 7.4839 -1.1618 0.9675
-4.5319 6.7621 -1.1578 0.9676
-4.9883 6.1741 -1.1290 0.9684
-5.4072 5.5910 -1.1063 0.9691
-6.1492 4.4260 -1.0776 0.9699
-6.7845 3.2407 -1.0694 0.9701
-7.3302 2.0080 -1.0810 0.9698
-3.2915 0.0000 -0.5241 0.9868
-7.9046 -1.4241 -1.2790 0.9680
-8.0259 -2.1985 -1.3251 0.9669
-8.1222 -3.0247 -1.3801 0.9655
-8.1905 -3.9122 -1.4454 0.9639
-8.2260 -5.9207 -1.6139 0.9598
-8.1807 -7.0741 -1.7222 0.9571
-8.0815 -8.3562 -1.8511 0.9540
4.1892 -0.8515 -0.6807 0.9828
4.2001 -0.4698 -0.6730 0.9830
5.0184 0.7891 -0.8089 0.9796
4.7310 13.1500 -2.2253 0.9450
0.7998 10.2349 -1.6347 0.9593
-0.1073 9.6301 -1.5335 0.9617
-1.6203 8.4528 -1.3705 0.9657
-4.5220 6.1373 -1.2139 0.9696
-4.9424 5.5885 -1.1880 0.9702
-5.6849 4.4894 -1.1535 0.9711
-6.0134 3.9338 -1.1442 0.9713
-3.9744 0.9005 -0.6489 0.9836
-3.3344 -0.1487 -0.5315 0.9866
-3.4817 -0.4682 -0.5594 0.9859
-8.0773 -2.6046 -1.3514 0.9662
-8.2129 -4.3825 -1.4823 0.9630
-8.2094 -6.4829 -1.6657 0.9585
-7.8018 -10.5886 -2.0943 0.9481
4.3880 -1.5237 -0.7397 0.9814
4.2270 -1.0573 -0.6938 0.9825
4.6892 0.5246 -0.7514 0.9811
5.5784 13.5744 -2.3369 0.9423
3.7111 11.9634 -1.9946 0.9505
2.4150 11.2388 -1.8305 0.9545
0.3323 9.9398 -1.5836 0.9605
-0.5201 9.3276 -1.4876 0.9629
-3.0912 7.0698 -1.2287 0.9692
-3.8181 6.9671 -1.2651 0.9683
-4.2977 6.4127 -1.2292 0.9692
-5.8525 4.2124 -1.1482 0.9712
-6.4595 3.0854 -1.1399 0.9714
-3.5501 0.6396 -0.5744 0.9855
-3.1939 0.0000 -0.5632 0.9871
-3.2817 -0.2932 -0.5809 0.9867
-7.4994 -1.3511 -1.3436 0.9695
-7.6746 -2.8580 -1.4440 0.9673
-7.7191 -3.6871 -1.5084 0.9659
-7.7296 -4.5782 -1.5841 0.9642
-7.7009 -5.5427 -1.6730 0.9622
-7.4953 -7.7501 -1.9011 0.9572
4.5756 -1.8210 -0.8683 0.9802
4.1802 -0.8497 -0.7521 0.9828
4.1937 -0.4691 -0.7441 0.9830
5.8922 12.6975 -2.4682 0.9447
-0.1004 9.0086 -1.5885 0.9641
-1.5254 7.9581 -1.4288 0.9676
-2.1296 7.4479 -1.3659 0.9690
-2.6751 6.9457 -1.3124 0.9702
-3.3346 6.7856 -1.3331 0.9698
-3.8601 6.3546 -1.3110 0.9703
-4.3014 5.8379 -1.2786 0.9710
-5.0783 4.8030 -1.2325 0.9720
-5.4208 4.2807 -1.2179 0.9723
-6.5377 2.1081 -1.2112 0.9725
-3.8238 0.8663 -0.6913 0.9842
-3.1644 0.1411 -0.5585 0.9872
-3.2276 -0.1439 -0.5697 0.9870
-3.3507 -0.4506 -0.5961 0.9864
-7.5531 -1.7113 -1.3656 0.9690
-7.7008 -3.2654 -1.4749 0.9666
-7.7289 -4.1242 -1.5447 0.9650
-7.7205 -5.0505 -1.6267 0.9632
-7.4055 -8.3736 -1.9711 0.9556
-7.1675 -9.7278 -2.1306 0.9521
-6.2398 -12.6975 -2.4946 0.9442
4.1829 -0.6577 -0.7466 0.9829
4.2325 -0.2833 -0.7480 0.9829
4.3696 0.0974 -0.7707 0.9824
4.6784 0.5233 -0.8301 0.9811
3.4054 10.9781 -2.0267 0.9544
2.2313 10.3835 -1.8727 0.9578
1.2084 9.8119 -1.7432 0.9606
-1.1984 8.2167 -1.4641 0.9668
-1.8354 7.7019 -1.3961 0.9684
-2.4092 7.1958 -1.3380 0.9696
-2.9287 6.6982 -1.2890 0.9707
-4.8961 5.0626 -1.2418 0.9718
-5.2531 4.5425 -1.2245 0.9722
-5.5817 4.0175 -1.2126 0.9725
-6.4182 2.3902 -1.2076 0.9726
-4.2904 1.1753 -0.7844 0.9821
-3.4372 0.6192 -0.6158 0.9859
-7.2156 -1.9766 -1.4478 0.9700
-7.2866 -4.3158 -1.6389 0.9661
-6.9856 -7.2231 -1.9446 0.9599
-6.7654 -8.3736 -2.0833 0.9571
-5.9352 -10.8304 -2.3900 0.9509
4.5819 -1.8235 -0.9543 0.9801
4.2709 -1.2729 -0.8624 0.9820
4.1750 -0.8486 -0.8245 0.9828
4.2813 -0.0954 -0.8287 0.9827
5.3824 11.5988 -2.4745 0.9492
3.9803 11.0635 -2.2753 0.9532
-0.0942 8.4557 -1.6364 0.9661
-1.4406 7.5157 -1.4809 0.9693
-2.0162 7.0512 -1.4192 0.9706
-4.4903 5.0773 -1.3117 0.9728
-4.8489 4.5861 -1.2916 0.9732
-6.0150 2.5506 -1.2643 0.9737
-3.6833 0.8345 -0.7308 0.9847
-3.0751 0.1371 -0.5957 0.9875
-3.1273 -0.1395 -0.6058 0.9873
-3.2339 -0.4349 -0.6315 0.9868
-7.2883 -3.0905 -1.5320 0.9683
-7.2669 -4.7538 -1.6804 0.9652
-7.1939 -5.6809 -1.7739 0.9633
-7.0698 -6.6866 -1.8831 0.9611
-5.6902 -11.5791 -2.4967 0.9488
-5.0937 -13.2256 -2.7426 0.9439
4.1774 -0.6569 -0.8183 0.9829
4.3619 0.0972 -0.8443 0.9824
7.9216 12.4091 -2.8490 0.9418
6.1642 11.8683 -2.5880 0.9470
2.0726 9.6452 -1.9091 0.9606
1.1293 9.1695 -1.7879 0.9631
-1.7356 7.2830 -1.4489 0.9700
-2.2834 6.8201 -1.3918 0.9711
-2.9079 6.6506 -1.4046 0.9709
-3.4484 6.2925 -1.3886 0.9712
-4.2994 5.3214 -1.3239 0.9725
-4.6734 4.8323 -1.3009 0.9730
-5.6240 3.3311 -1.2649 0.9737
-5.8904 2.8137 -1.2633 0.9738
-6.1339 2.2843 -1.2666 0.9737
-4.1641 1.1407 -0.8355 0.9826
-3.0211 0.0000 -0.6369 0.9877
-6.9066 -2.5721 -1.5537 0.9703
-6.9158 -3.3034 -1.6158 0.9692
-6.8893 -4.0805 -1.6880 0.9678
-5.4710 -9.9833 -2.4000 0.9545
-4.9511 -11.3235 -2.6054 0.9507
-4.2916 -12.8184 -2.8498 0.9462
4.1706 -0.8477 -0.8972 0.9828
8.0621 11.4685 -2.9554 0.9443
6.3975 11.0808 -2.6974 0.9490
4.9512 10.6696 -2.4797 0.9531
2.4123 9.2078 -2.0067 0.9618
1.3694 8.1182 -1.7357 0.9669
-1.3643 7.1175 -1.5278 0.9708
-2.5301 6.5692 -1.4841 0.9716
-3.5061 5.7719 -1.4237 0.9728
-4.9560 3.9137 -1.3313 0.9745
-5.5149 2.9429 -1.3178 0.9748
-3.0346 0.4081 -0.6455 0.9876
-2.9940 0.1335 -0.6318 0.9878
-6.8344 -1.5484 -1.4773 0.9718
-6.8900 -2.2217 -1.5262 0.9708
-6.9154 -2.9324 -1.5836 0.9698
-6.9073 -3.6858 -1.6505 0.9685
-6.8611 -4.4883 -1.7285 0.9670
-6.7712 -5.3471 -1.8189 0.9653
-6.4296 -7.2701 -2.0461 0.9611
-6.1573 -8.3568 -2.1884 0.9585
-5.7077 -9.3961 -2.3177 0.9561
-5.2269 -10.6364 -2.4985 0.9527
-4.6403 -12.0481 -2.7219 0.9486
4.2075 -1.0524 -0.9143 0.9824
4.2195 -0.2825 -0.8915 0.9829
4.3542 0.0971 -0.9182 0.9824
7.1997 11.2782 -2.8208 0.9468
5.6496 10.8775 -2.5841 0.9511
4.2977 10.4579 -2.3836 0.9548
3.1102 10.0262 -2.2131 0.9580
1.9346 9.0030 -1.9413 0.9631
0.2733 8.1738 -1.7242 0.9671
-3.2877 5.9993 -1.4422 0.9724
-4.1080 5.0846 -1.3781 0.9736
-4.4688 4.6207 -1.3552 0.9741
-4.8004 4.1511 -1.3379 0.9744
-5.1050 3.6744 -1.3260 0.9746
-3.0430 -0.2719 -0.6973 0.9875
-3.1642 -0.5701 -0.7338 0.9869
-6.5462 -1.7931 -1.5492 0.9725
-6.5306 -3.8680 -1.7324 0.9693
-5.5746 -8.3178 -2.2854 0.9598
-4.5611 -10.4315 -2.5986 0.9544
-3.9231 -11.7176 -2.8204 0.9506
4.5946 -1.8286 -1.1287 0.9799
4.2663 -0.0951 -0.9740 0.9826
7.3549 10.4625 -2.9190 0.9489
5.8813 10.1868 -2.6847 0.9529
4.5816 9.8731 -2.4843 0.9563
3.4292 9.5316 -2.3120 0.9593
2.3797 9.0831 -2.1431 0.9622
1.3928 8.2572 -1.9113 0.9662
-0.7186 7.1427 -1.6385 0.9710
-1.2952 6.7569 -1.5703 0.9722
-1.8642 6.5197 -1.5477 0.9726
-2.9206 5.9432 -1.5114 0.9732
-3.3509 5.5163 -1.4732 0.9739
-3.7462 5.0844 -1.4415 0.9744
-4.1096 4.6468 -1.4159 0.9749
-4.4436 4.2027 -1.3960 0.9752
-5.0313 3.2914 -1.3723 0.9756
-5.2882 2.8219 -1.3681 0.9757
-5.5218 2.3415 -1.3689 0.9757
-5.7329 1.8486 -1.3748 0.9756
-2.9625 0.3984 -0.6823 0.9878
-3.0959 -0.4164 -0.7130 0.9873
-6.5640 -2.1166 -1.5742 0.9721
-6.5766 -2.7887 -1.6304 0.9711
-6.5553 -3.4980 -1.6959 0.9700
-6.4958 -4.2493 -1.7717 0.9687
-6.2398 -5.9016 -1.9603 0.9654
-6.0284 -6.8163 -2.0769 0.9634
-5.7481 -7.8014 -2.2117 0.9610
-4.8308 -9.8303 -2.5000 0.9561
-3.5487 -12.4104 -2.9461 0.9484
4.3720 -1.5181 -1.0563 0.9812
4.1664 -0.6551 -0.9626 0.9828
4.2130 -0.2820 -0.9637 0.9828
4.6648 0.5218 -1.0713 0.9809
8.1667 10.5819 -3.0509 0.9466
6.5945 10.3302 -2.7973 0.9510
5.2115 10.0340 -2.5807 0.9547
2.9013 9.3528 -2.2351 0.9606
1.8123 8.4338 -1.9689 0.9652
0.9948 8.0776 -1.8576 0.9672
0.2578 7.7100 -1.7607 0.9688
-1.5641 6.5631 -1.5399 0.9727
-2.6912 6.1549 -1.5332 0.9728
-3.1403 5.7304 -1.4914 0.9735
-4.2801 4.4256 -1.4052 0.9751
-4.6002 3.9780 -1.3881 0.9754
-5.4079 2.5831 -1.3679 0.9757
-2.9277 0.2616 -0.6709 0.9880
-3.1004 -0.5585 -0.7743 0.9871
-6.2528 -1.7128 -1.5936 0.9736
-6.2703 -2.3351 -1.6446 0.9728
-6.2556 -2.9880 -1.7040 0.9718
-6.2051 -3.6753 -1.7727 0.9707
-6.1143 -4.4008 -1.8517 0.9694
-5.5384 -6.8549 -2.1662 0.9644
-4.7333 -8.6372 -2.4209 0.9602
-4.2257 -9.6645 -2.5927 0.9575
-3.6118 -10.7879 -2.7963 0.9542
-2.8601 -12.0013 -3.0325 0.9505
-1.9418 -13.3137 -3.3071 0.9461
4.6070 -1.8335 -1.2188 0.9798
4.2620 -1.2702 -1.0931 0.9818
4.1722 -0.4667 -1.0319 0.9829
9.9045 9.7948 -3.4239 0.9442
8.2379 9.7438 -3.1363 0.9488
5.4392 9.4210 -2.6739 0.9562
1.3117 7.7762 -1.9384 0.9680
0.5827 7.4574 -1.8386 0.9697
-0.6823 6.7820 -1.6754 0.9723
-1.8494 6.4679 -1.6535 0.9727
-2.7928 5.6831 -1.5565 0.9743
-3.9406 4.4558 -1.4621 0.9758
-5.3021 2.2483 -1.4156 0.9766
-5.5038 1.7747 -1.4214 0.9765
-2.8978 0.1292 -0.7130 0.9881
-6.2351 -3.3271 -1.7371 0.9713
-6.0522 -4.7793 -1.8955 0.9687
-5.8902 -5.5709 -1.9928 0.9672
-4.4881 -9.1330 -2.5013 0.9589
-3.9345 -10.2158 -2.6908 0.9559
-1.4090 -14.0060 -3.4601 0.9437
4.3719 -1.5181 -1.1376 0.9811
4.1628 -0.6546 -1.0358 0.9828
3.7188 9.0491 -2.4047 0.9605
2.7174 8.7600 -2.2544 0.9629
1.7445 8.1183 -2.0410 0.9664
0.9383 7.6183 -1.8867 0.9689
-1.5550 6.5251 -1.6488 0.9727
-2.1006 6.2742 -1.6263 0.9731
-3.0047 5.4828 -1.5368 0.9746
-3.4027 5.0772 -1.5023 0.9751
-4.1054 4.2450 -1.4515 0.9760
-4.4146 3.8175 -1.4346 0.9762
-4.6981 3.3815 -1.4228 0.9764
-5.4057 2.0131 -1.4179 0.9765
-2.8744 0.0000 -0.7574 0.9882
-3.0385 -0.5474 -0.8135 0.9873
-5.9826 -1.6388 -1.6345 0.9747
-5.9674 -2.8503 -1.7426 0.9730
-5.8094 -4.1813 -1.8860 0.9708
-5.6658 -4.8994 -1.9737 0.9695
-2.6314 -11.0418 -2.9910 0.9541
-1.7741 -12.1641 -3.2391 0.9504
4.6550 -1.8527 -1.3202 0.9795
4.2774 -1.2748 -1.1761 0.9817
4.1735 -0.8483 -1.1222 0.9825
4.1803 -0.4676 -1.1084 0.9828
5.0746 0.7979 -1.3536 0.9790
9.0282 8.9282 -3.3457 0.9488
6.2462 8.8854 -2.8619 0.9561
3.9803 8.5774 -2.4916 0.9616
3.0065 8.3567 -2.3402 0.9639
0.5588 7.1518 -1.8902 0.9708
-0.6720 6.6801 -1.7691 0.9726
-1.7666 6.1783 -1.6932 0.9738
-2.6748 5.4430 -1.5980 0.9752
-3.7838 4.2785 -1.5050 0.9767
-4.3821 3.4605 -1.4713 0.9772
-4.6438 3.0379 -1.4622 0.9773
-4.8821 2.6052 -1.4581 0.9774
-5.2906 1.7060 -1.4648 0.9773
-3.2212 0.7298 -0.8703 0.9864
-2.8316 0.3808 -0.7528 0.9883
-2.8515 0.1271 -0.7521 0.9883
-2.9007 -0.1293 -0.7651 0.9881
-2.9836 -0.4013 -0.7933 0.9876
-3.0953 -0.7013 -0.8363 0.9870
-5.9906 -1.9317 -1.6586 0.9743
-5.9425 -3.1710 -1.7748 0.9725
-5.5752 -5.2730 -2.0221 0.9688
-5.3524 -6.0520 -2.1289 0.9671
-5.0667 -6.8765 -2.2507 0.9653
-4.6789 -7.7024 -2.3747 0.9634
-3.6534 -9.4859 -2.6785 0.9588
-3.0045 -10.5075 -2.8797 0.9558
-0.1555 -13.9543 -3.6772 0.9439
4.3973 -1.5269 -1.2265 0.9809
4.2096 -1.0529 -1.1434 0.9822
4.2218 -0.2826 -1.1149 0.9826
4.3639 0.0972 -1.1502 0.9821
4.6953 0.5253 -1.2449 0.9806
11.5263 8.6924 -3.8040 0.9420
8.2778 8.9499 -3.2123 0.9508
5.6359 8.8285 -2.7599 0.9576
4.5046 8.6730 -2.5752 0.9604
2.5541 8.2338 -2.2716 0.9650
0.2337 6.9903 -1.8430 0.9715
-0.3773 6.7662 -1.7857 0.9724
-0.9635 6.6061 -1.7591 0.9728
-2.0081 5.9978 -1.6666 0.9742
-2.4617 5.6300 -1.6191 0.9749
-4.5160 3.2504 -1.4661 0.9772
-4.9926 2.3848 -1.4579 0.9774
-5.1968 1.9353 -1.4612 0.9773
-3.0018 0.5408 -0.8037 0.9875
-2.8348 0.2533 -0.7499 0.9883
-2.8279 0.0000 -0.7956 0.9883
-2.8819 -0.2575 -0.8141 0.9880
-2.9786 -0.5366 -0.8515 0.9875
-5.6362 -3.3383 -1.8431 0.9731
-5.1843 -5.3605 -2.0982 0.9695
-4.9302 -6.1022 -2.2072 0.9679
-1.6310 -11.1829 -3.1797 0.9541
1.7553 -14.2517 -4.0401 0.9421
4.1850 -0.8507 -1.2016 0.9824
4.2872 -0.0955 -1.2065 0.9823
4.5071 0.3017 -1.2709 0.9814
11.2531 7.7249 -3.8403 0.9449
9.7078 8.0237 -3.5435 0.9490
8.2885 8.1967 -3.2797 0.9527
5.8032 8.2552 -2.8391 0.9589
4.7204 8.1761 -2.6562 0.9615
3.7322 8.0428 -2.4947 0.9638
2.8298 7.8657 -2.3519 0.9659
2.0050 7.6530 -2.2259 0.9677
1.2501 7.4112 -2.1146 0.9693
-0.0764 6.8582 -1.9297 0.9719
-0.6597 6.5573 -1.8542 0.9730
-1.6903 5.9113 -1.7298 0.9748
-2.1456 5.5710 -1.6796 0.9755
-3.6378 4.1133 -1.5450 0.9774
-3.9398 3.7262 -1.5257 0.9777
-4.2166 3.3299 -1.5117 0.9779
-4.6993 2.5076 -1.4986 0.9781
-4.9066 2.0806 -1.4995 0.9781
-5.0917 1.6419 -1.5052 0.9780
-2.7751 0.3732 -0.7878 0.9884
-2.8062 0.1251 -0.7903 0.9884
-2.9298 -0.3940 -0.8317 0.9878
-5.5888 -3.6560 -1.8790 0.9726
-5.4625 -4.3137 -1.9584 0.9715
-5.2899 -5.0031 -2.0486 0.9702
-5.0648 -5.7268 -2.1510 0.9687
-4.7797 -6.4871 -2.2671 0.9671
-4.4146 -7.2674 -2.3924 0.9653
-2.7885 -9.7518 -2.8537 0.9587
-1.1754 -11.6835 -3.3038 0.9524
1.0731 -13.7322 -3.8754 0.9444
4.2214 -1.0558 -1.2243 0.9821
4.2302 -0.2832 -1.1928 0.9825
4.7109 0.5270 -1.3337 0.9805
10.4645 7.8916 -3.6876 0.9470
8.9827 8.1243 -3.4077 0.9509
6.3829 8.2705 -2.9394 0.9575
5.2494 8.2231 -2.7449 0.9603
2.4082 7.7634 -2.2869 0.9668
0.8967 7.2810 -2.0640 0.9700
0.2336 6.9855 -1.9665 0.9714
-0.3742 6.7104 -1.8909 0.9725
-0.9335 6.4006 -1.8199 0.9735
-1.4483 6.0774 -1.7578 0.9744
-2.3598 5.3969 -1.6572 0.9758
-2.7629 5.0416 -1.6175 0.9764
-3.1345 4.6771 -1.5841 0.9769
-3.7920 3.9209 -1.5347 0.9776
-4.3460 3.1281 -1.5066 0.9780
-4.5872 2.7171 -1.5000 0.9781
-4.8057 2.2955 -1.4984 0.9781
-5.0019 1.8627 -1.5017 0.9781
-3.6501 0.9999 -1.0648 0.9844
-2.9229 0.5266 -0.8356 0.9877
-2.7884 0.2492 -0.7877 0.9884
-2.7824 0.0000 -0.8330 0.9884
-2.8308 -0.2530 -0.8509 0.9882
-2.9224 -0.5265 -0.8890 0.9877
-3.0126 -0.8252 -0.9351 0.9870
-5.4949 -2.0463 -1.7554 0.9758
-5.4576 -2.6068 -1.8107 0.9751
-5.3859 -3.1901 -1.8740 0.9742
-5.2760 -3.7974 -1.9461 0.9732
-5.1237 -4.4306 -2.0279 0.9721
-4.6703 -5.7805 -2.2248 0.9694
-3.9265 -7.1650 -2.4460 0.9665
-3.4513 -7.8932 -2.5791 0.9647
-2.9080 -8.6856 -2.7422 0.9625
-2.2650 -9.5043 -2.9251 0.9600
0.4036 -12.0721 -3.6162 0.9508
2.9535 -13.7446 -4.2088 0.9430
4.7581 -1.8937 -1.5331 0.9788
4.1969 -0.4695 -1.2643 0.9825
4.5230 0.3028 -1.3571 0.9813
10.2596 7.0428 -3.7256 0.9494
7.6553 7.5705 -3.2233 0.9560
6.4910 7.6776 -3.0099 0.9589
5.4155 7.7036 -2.8192 0.9614
1.8984 7.2462 -2.2426 0.9692
0.5313 6.7996 -2.0419 0.9719
-1.1446 5.9713 -1.8202 0.9749
-1.6196 5.6642 -1.7637 0.9757
-2.4637 5.0136 -1.6724 0.9769
-2.8380 4.6720 -1.6365 0.9774
-3.1833 4.3204 -1.6066 0.9778
-3.5014 3.9590 -1.5823 0.9782
-4.0618 3.2076 -1.5495 0.9786
-4.3063 2.8171 -1.5406 0.9787
-4.7278 2.0048 -1.5374 0.9788
-4.9054 1.5818 -1.5431 0.9787
-3.0564 0.6925 -0.9382 0.9870
-2.7204 0.3658 -0.8218 0.9886
-2.9771 -0.6745 -0.9139 0.9873
-5.4803 -2.3238 -1.7821 0.9755
-5.4262 -2.8955 -1.8413 0.9746
-5.3360 -3.4906 -1.9089 0.9737
-5.2055 -4.1107 -1.9857 0.9727
-4.8042 -5.4321 -2.1710 0.9702
-3.1913 -8.2859 -2.6583 0.9636
-2.5998 -9.0919 -2.8310 0.9613
-1.0837 -10.7727 -3.2414 0.9558
-0.1297 -11.6410 -3.4853 0.9526
4.4495 -1.5450 -1.4101 0.9805
4.2333 -1.0588 -1.3064 0.9819
4.2386 -0.2837 -1.2718 0.9824
4.7530 0.5317 -1.4318 0.9802
12.4435 6.2880 -4.1740 0.9434
8.2718 7.4814 -3.3391 0.9545
4.9096 7.6908 -2.7316 0.9626
3.9583 7.6210 -2.5710 0.9648
2.2769 7.3400 -2.3008 0.9684
0.8524 6.9208 -2.0876 0.9713
0.2231 6.6730 -1.9989 0.9725
-0.8925 6.1197 -1.8515 0.9745
-1.8434 5.5059 -1.7383 0.9760
-3.6507 3.7748 -1.5721 0.9783
-2.7412 0.2449 -0.8239 0.9886
-2.7380 0.0000 -0.8695 0.9886
-2.7827 -0.2487 -0.8873 0.9883
-2.8694 -0.5170 -0.9259 0.9878
-2.9540 -0.8092 -0.9727 0.9872
-5.2733 -1.9638 -1.7871 0.9767
-5.2309 -2.4986 -1.8410 0.9760
-5.0412 -3.6284 -1.9726 0.9743
-4.4342 -5.4882 -2.2408 0.9708
-4.1248 -6.1545 -2.3530 0.9694
-3.7179 -6.7843 -2.4569 0.9681
-3.2489 -7.4305 -2.5755 0.9665
-1.4028 -9.6181 -3.0869 0.9600
-0.5778 -10.3615 -3.2958 0.9574
0.3712 -11.1007 -3.5274 0.9545
4.0545 -13.0704 -4.3461 0.9442
4.9734 -1.9794 -1.7000 0.9778
4.3278 -1.2898 -1.4342 0.9812
4.2085 -0.8554 -1.3639 0.9821
4.2053 -0.4704 -1.3439 0.9824
4.3125 -0.0961 -1.3699 0.9821
13.2899 4.6148 -4.4679 0.9427
10.6695 6.0026 -3.8879 0.9499
6.0548 7.1616 -2.9783 0.9614
5.0731 7.2167 -2.8015 0.9637
4.1603 7.2059 -2.6425 0.9657
3.3133 7.1400 -2.4998 0.9675
2.5284 7.0279 -2.3720 0.9691
1.8017 6.8771 -2.2578 0.9706
1.1291 6.6937 -2.1558 0.9719
-0.0696 6.2484 -1.9845 0.9741
-0.6030 5.9939 -1.9132 0.9750
-1.9773 5.1339 -1.7472 0.9772
-2.3689 4.8206 -1.7058 0.9777
-2.7310 4.4959 -1.6706 0.9782
-3.0654 4.1604 -1.6412 0.9785
-3.3736 3.8146 -1.6172 0.9789
-3.6569 3.4587 -1.5985 0.9791
-3.9165 3.0929 -1.5849 0.9793
-4.1532 2.7169 -1.5761 0.9794
-4.5600 1.9336 -1.5730 0.9794
-2.9791 0.6750 -0.9701 0.9873
-2.6672 0.3587 -0.8547 0.9888
-2.7186 0.1212 -0.8643 0.9886
-2.7612 -0.1231 -0.8778 0.9885
-2.8255 -0.3800 -0.9054 0.9881
-2.9205 -0.6617 -0.9510 0.9875
-3.1071 -1.0019 -1.0368 0.9864
-5.2561 -2.2288 -1.8131 0.9763
-5.1028 -3.3381 -1.9365 0.9747
-4.9693 -3.9242 -2.0109 0.9738
-4.7923 -4.5325 -2.0948 0.9727
-2.9988 -7.7862 -2.6498 0.9656
-2.4334 -8.5102 -2.8110 0.9635
-1.7725 -9.2469 -2.9901 0.9613
0.8957 -11.4623 -3.6513 0.9529
2.0498 -12.1522 -3.9139 0.9496
4.4809 -1.5559 -1.5064 0.9803
4.2455 -1.0619 -1.3898 0.9818
4.2001 -0.6604 -1.3503 0.9823
4.2494 -0.2845 -1.3526 0.9823
4.8039 0.5374 -1.5352 0.9799
12.6265 5.0253 -4.3159 0.9446
11.3132 5.7169 -4.0256 0.9482
6.5720 7.1056 -3.0739 0.9602
5.5552 7.1981 -2.8876 0.9626
4.6083 7.2188 -2.7199 0.9647
3.7288 7.1792 -2.5692 0.9666
0.2129 6.3683 -2.0236 0.9736
-1.7697 5.2859 -1.7703 0.9769
-2.9015 4.3294 -1.6552 0.9784
-3.2227 3.9888 -1.6285 0.9787
-3.7896 3.2771 -1.5911 0.9792
-4.0377 2.9062 -1.5799 0.9793
-4.2631 2.5251 -1.5736 0.9794
-4.6481 1.7310 -1.5752 0.9794
-2.6951 0.2408 -0.8593 0.9887
-2.6945 0.0000 -0.9053 0.9887
-2.8177 -0.5076 -0.9619 0.9880
-5.0668 -1.8869 -1.8166 0.9774
-5.0201 -2.3979 -1.8692 0.9768
-4.9403 -2.9261 -1.9292 0.9761
-4.2186 -5.2214 -2.2553 0.9721
-3.0672 -7.0149 -2.5723 0.9682
-1.9834 -8.3225 -2.8745 0.9645
-1.3098 -8.9804 -3.0492 0.9624
0.3431 -10.2626 -3.4500 0.9576
2.4527 -11.4137 -3.9224 0.9519
3.6862 -11.8831 -4.1802 0.9489
5.0338 -12.2490 -4.4494 0.9457
6.4820 -12.4802 -4.7250 0.9424
4.2353 -0.8609 -1.4521 0.9819
4.2311 -0.4733 -1.4304 0.9822
4.3419 -0.0968 -1.4591 0.9818
4.5966 0.3077 -1.5478 0.9807
13.1730 3.2948 -4.5622 0.9443
8.6997 5.9721 -3.5454 0.9564
7.6389 6.3138 -3.3297 0.9590
5.6697 6.7062 -2.9505 0.9636
4.7685 6.7833 -2.7858 0.9656
3.1346 6.7549 -2.5020 0.9691
2.3987 6.6673 -2.3806 0.9705
1.7135 6.5404 -2.2716 0.9719
1.0762 6.3800 -2.1739 0.9731
-0.0666 5.9779 -2.0086 0.9751
-1.4929 5.2210 -1.8245 0.9773
-2.2802 4.6401 -1.7370 0.9784
-3.2536 3.6789 -1.6501 0.9795
-4.0091 2.6226 -1.6096 0.9800
-4.2163 2.2499 -1.6057 0.9800
-4.5663 1.4725 -1.6120 0.9800
-2.6272 0.5952 -0.9050 0.9887
-2.6180 0.3521 -0.8875 0.9889
-2.6762 0.1193 -0.9001 0.9888
-2.7168 -0.1212 -0.9137 0.9886
-5.0786 -1.6376 -1.7928 0.9777
-5.0474 -2.1403 -1.8420 0.9771
-4.9845 -2.6598 -1.8982 0.9764
-4.7514 -3.7521 -2.0341 0.9748
-3.2991 -6.7133 -2.5132 0.9689
-2.2856 -7.9933 -2.7933 0.9655
-0.1108 -9.9499 -3.3432 0.9589
0.8257 -10.5676 -3.5613 0.9563
1.8806 -11.1490 -3.7988 0.9534
4.5432 -1.5776 -1.6159 0.9799
4.2736 -1.0689 -1.4801 0.9816
4.2769 -0.2863 -1.4402 0.9821
4.8678 0.5446 -1.6457 0.9795
13.7102 2.7867 -4.7006 0.9427
12.6217 3.7617 -4.4250 0.9459
10.3620 5.2362 -3.9007 0.9522
9.2459 5.7584 -3.6597 0.9551
8.1637 6.1566 -3.4354 0.9578
7.1266 6.4456 -3.2285 0.9603
6.1415 6.6402 -3.0389 0.9626
5.2120 6.7534 -2.8662 0.9646
4.3392 6.7972 -2.7094 0.9665
3.5224 6.7819 -2.5676 0.9683
2.7601 6.7164 -2.4397 0.9698
2.0499 6.6083 -2.3246 0.9712
0.7746 6.2889 -2.1289 0.9736
0.2035 6.0874 -2.0464 0.9746
-0.3269 5.8631 -1.9729 0.9755
-1.7011 5.0808 -1.8002 0.9776
-2.0945 4.7902 -1.7565 0.9782
-2.4589 4.4869 -1.7190 0.9786
-2.7960 4.1720 -1.6874 0.9790
-3.1073 3.8459 -1.6612 0.9794
-3.8973 2.8051 -1.6133 0.9799
-4.1154 2.4376 -1.6070 0.9800
-4.3119 2.0596 -1.6055 0.9800
-2.6265 0.7195 -0.9150 0.9886
-2.6519 0.0000 -0.9403 0.9888
-2.7668 -0.4984 -0.9969 0.9881
-2.8417 -0.7784 -1.0448 0.9876
-4.8738 -1.8150 -1.8441 0.9782
-4.8236 -2.3040 -1.8955 0.9776
-4.7409 -2.8080 -1.9538 0.9769
-4.0209 -4.9767 -2.2687 0.9732
-3.3601 -6.1313 -2.4792 0.9708
-2.9062 -6.6466 -2.5723 0.9697
-2.4217 -7.2333 -2.7048 0.9681
2.2575 -10.5056 -3.8102 0.9554
3.3760 -10.8833 -4.0405 0.9528
4.5854 -11.1580 -4.2775 0.9501
7.2147 -11.3017 -4.7544 0.9447
4.2684 -0.8676 -1.5444 0.9817
4.2600 -0.4766 -1.5200 0.9820
12.8603 2.0222 -4.6161 0.9462
11.9769 2.9956 -4.3777 0.9490
11.0284 3.8295 -4.1395 0.9517
10.0460 4.5265 -3.9071 0.9543
7.1220 5.8865 -3.2763 0.9615
6.2038 6.1351 -3.0938 0.9636
3.7106 6.4270 -2.6315 0.9690
2.2803 6.3384 -2.3885 0.9718
1.6326 6.2318 -2.2843 0.9730
0.4628 5.9219 -2.1062 0.9751
-0.5544 5.5104 -1.9638 0.9768
-1.0110 5.2744 -1.9043 0.9775
-2.1970 4.4708 -1.7663 0.9791
-3.4071 3.2225 -1.6629 0.9803
-3.8732 2.5338 -1.6411 0.9805
-4.0738 2.1738 -1.6373 0.9806
-2.5748 0.3463 -0.9212 0.9890
-2.6346 0.1175 -0.9351 0.9889
-2.6733 -0.1192 -0.9489 0.9887
-2.7260 -0.3666 -0.9753 0.9884
-2.8093 -0.6365 -1.0214 0.9878
-2.8709 -0.9258 -1.0696 0.9873
-4.8526 -2.0576 -1.8690 0.9779
-4.6865 -3.0658 -1.9858 0.9765
-4.5497 -3.5928 -2.0556 0.9757
-3.5529 -5.8488 -2.4266 0.9714
-3.1285 -6.3663 -2.5152 0.9703
-2.6713 -6.9359 -2.6355 0.9689
-2.1534 -7.5308 -2.7774 0.9673
-1.5571 -8.1232 -2.9328 0.9655
-0.8758 -8.7055 -3.1024 0.9635
2.8050 -10.7067 -3.9246 0.9541
6.5383 -11.3247 -4.6368 0.9460
7.8974 -11.2341 -4.8693 0.9434
4.6272 -1.6067 -1.7368 0.9794
12.4289 2.5263 -4.4972 0.9476
10.5397 4.1947 -4.0223 0.9530
8.5628 5.3329 -3.5769 0.9581
6.6581 6.0219 -3.1832 0.9626
5.7600 6.2276 -3.0079 0.9646
2.6208 6.3773 -2.4448 0.9712
1.3249 6.1655 -2.2361 0.9736
0.7402 6.0101 -2.1472 0.9746
0.1948 5.8275 -2.0675 0.9756
-0.3134 5.6214 -1.9963 0.9764
-2.6968 4.0239 -1.7176 0.9797
-2.9987 3.7115 -1.6919 0.9800
-3.2768 3.3882 -1.6713 0.9802
-4.1661 1.9900 -1.6371 0.9806
-2.5828 0.7075 -0.9496 0.9887
-2.6624 0.4796 -0.9592 0.9886
-2.6060 0.2329 -0.9277 0.9890
-2.6498 -0.2368 -0.9934 0.9887
-2.7171 -0.4895 -1.0309 0.9883
-2.7878 -0.7637 -1.0794 0.9877
-4.6930 -1.7476 -1.8700 0.9788
-4.6398 -2.2162 -1.9200 0.9783
-4.5549 -2.6979 -1.9768 0.9776
-4.4357 -3.1926 -2.0408 0.9769
-4.2790 -3.7002 -2.1124 0.9761
-4.0814 -4.2201 -2.1923 0.9752
-2.7591 -6.3103 -2.5717 0.9710
3.1098 -10.0251 -3.9195 0.9562
4.2063 -10.2355 -4.1322 0.9538
10.0802 -9.1170 -5.0752 0.9436
11.1031 -8.3733 -5.1928 0.9424
4.4649 -1.3307 -1.7397 0.9803
4.3023 -0.8745 -1.6394 0.9814
4.2896 -0.4799 -1.6118 0.9817
4.4028 -0.0981 -1.6445 0.9814
8.4026 4.7272 -3.6001 0.9597
7.5243 5.1651 -3.4079 0.9618
6.6656 5.5093 -3.2292 0.9637
5.0202 5.9379 -2.9035 0.9673
4.2494 6.0448 -2.7591 0.9689
0.9825 5.8248 -2.2058 0.9751
0.4432 5.6722 -2.1245 0.9760
-0.0612 5.4940 -2.0516 0.9768
-0.9723 5.0725 -1.9286 0.9782
-1.7640 4.5801 -1.8327 0.9793
-2.1188 4.3116 -1.7939 0.9797
-3.7447 2.4497 -1.6709 0.9811
-3.9390 2.1019 -1.6672 0.9811
-4.1124 1.7438 -1.6679 0.9811
-4.2649 1.3753 -1.6733 0.9810
-2.5436 0.5763 -0.9739 0.9889
-2.5325 0.3406 -0.9542 0.9891
-2.5920 0.1156 -0.9689 0.9890
-4.6702 -1.9803 -1.8942 0.9786
-4.3623 -3.4448 -2.0756 0.9765
-3.6995 -5.0210 -2.3289 0.9737
-2.5307 -6.5709 -2.6293 0.9704
-1.4664 -7.6503 -2.9087 0.9673
-0.8220 -8.1711 -3.0666 0.9655
-0.0966 -8.6674 -3.2367 0.9637
1.6088 -9.5378 -3.6118 0.9595
2.5891 -9.8808 -3.8143 0.9573
5.9564 -10.3168 -4.4484 0.9504
7.1626 -10.1888 -4.6507 0.9482
8.3652 -9.8944 -4.8382 0.9462
10.6072 -8.7671 -5.1387 0.9429
4.7494 -1.6492 -1.8773 0.9788
4.5164 0.1007 -1.6869 0.9809
5.2822 0.5909 -1.9847 0.9776
11.3526 2.3075 -4.3259 0.9517
5.4193 5.8593 -2.9803 0.9665
4.6301 5.9994 -2.8298 0.9682
3.1659 6.0955 -2.5648 0.9711
1.8603 5.9970 -2.3446 0.9735
1.2657 5.8903 -2.2497 0.9746
0.7084 5.7519 -2.1641 0.9756
-0.3009 5.3962 -2.0181 0.9772
-1.5766 4.7091 -1.8543 0.9790
-3.8445 2.2771 -1.6685 0.9811
-2.6096 0.4701 -0.9901 0.9887
-2.5629 0.2290 -0.9608 0.9891
-2.5691 0.0000 -1.0083 0.9890
-2.6072 -0.2330 -1.0273 0.9888
-2.7584 -1.0272 -1.1552 0.9874
-4.3809 -2.5948 -1.9984 0.9784
-4.1048 -3.5495 -2.1298 0.9770
-3.9092 -4.0421 -2.2069 0.9761
-3.6707 -4.5432 -2.2923 0.9752
-3.3854 -5.0513 -2.3865 0.9742
-1.6640 -6.9825 -2.8172 0.9696
0.2789 -8.3404 -3.2752 0.9648
1.0738 -8.7186 -3.4477 0.9630
2.8796 -9.2830 -3.8146 0.9591
3.8781 -9.4369 -4.0043 0.9571
4.9263 -9.4848 -4.1947 0.9551
7.0848 -9.1800 -4.5511 0.9514
9.1377 -8.2644 -4.8355 0.9484
10.8094 -6.7322 -4.9979 0.9467
11.4298 -5.7757 -5.0261 0.9465
4.5602 -1.3591 -1.8675 0.9798
4.3435 -0.8828 -1.7395 0.9811
4.3280 -0.4842 -1.7092 0.9815
7.0381 4.8314 -3.3505 0.9640
6.2595 5.1737 -3.1872 0.9657
5.4895 5.4287 -3.0301 0.9674
4.7434 5.6106 -2.8835 0.9689
3.3409 5.7865 -2.6224 0.9717
2.6893 5.7953 -2.5074 0.9729
2.0722 5.7597 -2.4024 0.9740
0.9408 5.5776 -2.2200 0.9760
0.4251 5.4400 -2.1415 0.9768
-0.0588 5.2765 -2.0710 0.9776
-0.5121 5.0900 -2.0078 0.9783
-2.3644 3.8923 -1.7874 0.9806
-3.1844 3.0118 -1.7202 0.9813
-3.4142 2.6962 -1.7074 0.9815
-3.6231 2.3702 -1.6992 0.9816
-3.8113 2.0338 -1.6955 0.9816
-4.1261 1.3305 -1.7015 0.9815
-2.4910 0.3350 -0.9865 0.9893
-2.5889 -0.1154 -1.0171 0.9889
-2.7236 -0.8783 -1.1231 0.9878
-4.4282 -2.3629 -1.9699 0.9787
-4.1876 -3.3069 -2.0942 0.9773
-4.0121 -3.7947 -2.1674 0.9765
-3.7955 -4.2917 -2.2486 0.9757
-3.5341 -4.7965 -2.3383 0.9747
-3.2239 -5.3072 -2.4371 0.9737
-2.8406 -5.7805 -2.5278 0.9727
-2.4027 -6.2384 -2.6237 0.9717
-0.0906 -8.1338 -3.1925 0.9657
4.3973 -9.4759 -4.1000 0.9561
5.4626 -9.4615 -4.2878 0.9541
7.6181 -9.0106 -4.6309 0.9506
8.6492 -8.5530 -4.7740 0.9491
11.6741 -5.2600 -5.0253 0.9465
12.0210 -4.1741 -4.9942 0.9468
4.4101 -1.1030 -1.7841 0.9807
4.3191 -0.6791 -1.7159 0.9814
4.3779 -0.2931 -1.7220 0.9813
10.4375 2.1215 -4.1802 0.9553
6.6513 5.0161 -3.2696 0.9648
5.8719 5.3109 -3.1073 0.9666
5.1131 5.5283 -2.9554 0.9682
4.3810 5.6766 -2.8142 0.9697
3.6794 5.7637 -2.6837 0.9710
1.7766 5.7272 -2.3534 0.9746
1.2110 5.6355 -2.2623 0.9755
0.6789 5.5123 -2.1797 0.9764
0.1792 5.3612 -2.1053 0.9772
-1.8763 4.2913 -1.8382 0.9801
-2.2077 4.0286 -1.8029 0.9805
-3.0615 3.1656 -1.7284 0.9813
-3.5213 2.5345 -1.7027 0.9815
-3.7198 2.2033 -1.6968 0.9816
-3.8977 1.8618 -1.6953 0.9816
-4.0552 1.5102 -1.6983 0.9816
-3.4629 0.9486 -1.4092 0.9847
-2.5206 0.2253 -0.9932 0.9892
-2.5289 0.0000 -1.0413 0.9891
-2.5655 -0.2293 -1.0607 0.9889
-2.6436 -0.9845 -1.1616 0.9879
-4.2177 -2.4981 -2.0185 0.9790
-4.0975 -2.9492 -2.0789 0.9784
-3.7490 -3.8764 -2.2206 0.9769
-2.9088 -5.3079 -2.4924 0.9742
-2.5005 -5.7187 -2.5701 0.9734
-1.5772 -6.6183 -2.8016 0.9710
-1.0288 -7.0537 -2.9353 0.9696
-0.4162 -7.4637 -3.0782 0.9682
0.2621 -7.8388 -3.2297 0.9666
2.6797 -8.6386 -3.7244 0.9616
3.5962 -8.7508 -3.8958 0.9599
6.5000 -8.4223 -4.3809 0.9550
8.3409 -7.5439 -4.6310 0.9525
4.6838 -1.3959 -2.0125 0.9791
4.3886 -0.4909 -1.8184 0.9811
4.5252 -0.1009 -1.8639 0.9806
5.0052 0.3351 -2.0657 0.9785
8.7172 3.0270 -3.7998 0.9609
8.0353 3.6205 -3.6291 0.9626
7.3264 4.1218 -3.4615 0.9643
5.1852 5.1278 -3.0029 0.9689
4.4925 5.3138 -2.8653 0.9703
3.8227 5.4379 -2.7372 0.9717
3.1794 5.5069 -2.6184 0.9729
2.5647 5.5269 -2.5090 0.9740
1.9800 5.5037 -2.4085 0.9750
1.4258 5.4424 -2.3167 0.9760
-0.0565 5.0730 -2.0891 0.9783
-0.4929 4.8995 -2.0277 0.9789
-1.6423 4.2640 -1.8816 0.9804
-1.9755 4.0200 -1.8444 0.9808
-2.2853 3.7621 -1.8125 0.9811
-2.5724 3.4914 -1.7858 0.9814
-2.8377 3.2087 -1.7639 0.9816
-3.0818 2.9147 -1.7467 0.9818
-3.3049 2.6099 -1.7341 0.9819
-3.6901 1.9691 -1.7223 0.9821
-3.8524 1.6336 -1.7231 0.9821
-2.6388 0.5979 -1.1141 0.9884
-2.4504 0.3296 -1.0181 0.9894
-2.5068 0.1118 -1.0333 0.9892
-2.5854 -0.3477 -1.0742 0.9888
-2.6300 -0.5959 -1.1104 0.9884
-4.3378 -1.8394 -1.9402 0.9798
-4.1618 -2.7225 -2.0479 0.9787
-3.8505 -3.6418 -2.1824 0.9773
-3.6371 -4.1126 -2.2607 0.9765
-3.3810 -4.5887 -2.3471 0.9756
-3.0786 -5.0680 -2.4418 0.9747
-2.7152 -5.5253 -2.5351 0.9737
-1.8282 -6.3935 -2.7382 0.9716
-1.3109 -6.8386 -2.8673 0.9703
-0.7306 -7.2624 -3.0056 0.9689
1.4020 -8.3118 -3.4710 0.9642
2.2397 -8.5490 -3.6391 0.9625
4.0695 -8.7695 -3.9810 0.9590
7.9028 -7.8153 -4.5768 0.9531
8.7578 -7.2386 -4.6787 0.9520
10.1455 -5.7077 -4.7935 0.9509
10.6295 -4.7894 -4.8008 0.9508
10.1801 1.1388 -4.2181 0.9567
9.6495 1.9614 -4.0547 0.9583
8.3807 3.3354 -3.7143 0.9617
7.6832 3.8825 -3.5448 0.9634
6.9667 4.3389 -3.3796 0.9651
4.1545 5.3832 -2.8001 0.9710
3.4976 5.4789 -2.6766 0.9723
2.8684 5.5226 -2.5625 0.9734
2.2686 5.5204 -2.4576 0.9745
1.1602 5.3990 -2.2739 0.9764
0.6514 5.2890 -2.1943 0.9772
-0.7008 4.8049 -1.9995 0.9792
-1.0966 4.6014 -1.9478 0.9797
-1.8118 4.1438 -1.8623 0.9806
-2.4316 3.6283 -1.7985 0.9813
-2.7078 3.3515 -1.7742 0.9815
-2.9624 3.0631 -1.7547 0.9817
-3.1959 2.7637 -1.7398 0.9819
-3.6014 2.1331 -1.7236 0.9821
-3.7738 1.8026 -1.7222 0.9821
-3.9260 1.4621 -1.7251 0.9820
-3.5071 0.9607 -1.4974 0.9844
-2.5181 0.4537 -1.0536 0.9890
-2.5221 -0.2254 -1.0923 0.9890
-2.5507 -0.6987 -1.1408 0.9885
-2.5688 -0.9566 -1.1824 0.9881
-4.0642 -2.4072 -2.0375 0.9796
-3.9440 -2.8387 -2.0961 0.9791
-3.5994 -3.7217 -2.2334 0.9777
-3.0971 -4.6211 -2.3996 0.9761
-2.7792 -5.0714 -2.4945 0.9751
-1.9648 -5.8687 -2.6696 0.9734
-0.9747 -6.6834 -2.9134 0.9710
-0.3933 -7.0538 -3.0475 0.9697
0.9455 -7.6770 -3.3366 0.9669
4.2258 -8.1361 -3.9547 0.9608
6.8619 -7.4190 -4.3592 0.9569
9.9139 -3.9456 -4.6027 0.9546
4.4517 -0.4980 -1.9322 0.9807
4.6026 -0.1026 -1.9859 0.9801
9.2067 1.4477 -4.0202 0.9602
8.7019 2.1765 -3.8693 0.9617
7.5201 3.3884 -3.5579 0.9647
6.8770 3.8690 -3.4037 0.9662
6.2311 4.2774 -3.2602 0.9676
5.5674 4.6016 -3.1157 0.9690
3.6364 5.1729 -2.7276 0.9728
1.8946 5.2663 -2.4142 0.9759
1.3666 5.2163 -2.3260 0.9768
0.8658 5.1331 -2.2455 0.9776
-0.0544 4.8821 -2.1061 0.9790
-0.8698 4.5379 -1.9931 0.9801
-1.2401 4.3368 -1.9457 0.9805
-1.5864 4.1190 -1.9040 0.9810
-2.9842 2.8225 -1.7718 0.9823
-3.2011 2.5279 -1.7594 0.9824
-3.3979 2.2228 -1.7515 0.9825
-3.7321 1.5826 -1.7486 0.9825
-3.8693 1.2477 -1.7537 0.9824
-2.5715 0.5826 -1.1373 0.9886
-2.4654 0.1099 -1.0645 0.9893
-2.5076 -0.1118 -1.0828 0.9891
-2.6695 -1.1320 -1.2508 0.9874
-4.1122 -2.1943 -2.0106 0.9799
-3.8714 -3.0572 -2.1279 0.9787
-3.6994 -3.4988 -2.1964 0.9781
-3.4895 -3.9456 -2.2721 0.9773
-2.9440 -4.8465 -2.4461 0.9756
-2.5975 -5.2857 -2.5405 0.9747
-2.1816 -5.6644 -2.6184 0.9739
-1.7383 -6.0793 -2.7274 0.9728
-0.6914 -6.8725 -2.9795 0.9704
0.5891 -7.5391 -3.2620 0.9676
2.9220 -8.1218 -3.7233 0.9631
3.7848 -8.1561 -3.8785 0.9616
6.4372 -7.6139 -4.3008 0.9575
10.0455 -3.4881 -4.5870 0.9547
4.5850 -1.1468 -2.0387 0.9796
4.4430 -0.6986 -1.9401 0.9806
4.5008 -0.3013 -1.9458 0.9805
4.8060 0.1071 -2.0736 0.9793
9.4293 1.0548 -4.0928 0.9595
8.9634 1.8219 -3.9455 0.9609
8.4246 2.5109 -3.7920 0.9624
5.8991 4.4487 -3.1871 0.9683
5.2372 4.7368 -3.0460 0.9697
4.5846 4.9569 -2.9125 0.9710
3.3307 5.2175 -2.6701 0.9734
2.1688 5.2776 -2.4613 0.9755
1.1128 5.1786 -2.2848 0.9772
0.6257 5.0804 -2.2080 0.9779
0.1656 4.9545 -2.1383 0.9786
-0.2679 4.8040 -2.0754 0.9793
-0.6755 4.6316 -2.0190 0.9798
-1.0580 4.4396 -1.9687 0.9803
-1.4162 4.2299 -1.9241 0.9808
-1.7508 4.0042 -1.8851 0.9811
-2.0627 3.7639 -1.8514 0.9815
-2.6208 3.2438 -1.7988 0.9820
-2.8682 2.9657 -1.7797 0.9822
-3.8032 1.4163 -1.7506 0.9825
-3.9304 1.0767 -1.7579 0.9824
-2.4890 -0.9269 -1.1984 0.9884
-4.0085 -1.9147 -2.0044 0.9807
-3.9194 -2.3215 -2.0554 0.9802
-3.7997 -2.7348 -2.1124 0.9797
-1.8735 -5.5960 -2.6628 0.9744
-0.9255 -6.3454 -2.8935 0.9723
0.2334 -6.9814 -3.1519 0.9698
0.8911 -7.2357 -3.2895 0.9685
1.5975 -7.4342 -3.4310 0.9672
2.3471 -7.5661 -3.5745 0.9658
3.1318 -7.6208 -3.7177 0.9645
3.9406 -7.5871 -3.8576 0.9632
4.7593 -7.4554 -3.9910 0.9619
8.3322 -5.1894 -4.4292 0.9578
9.3589 -2.7893 -4.4065 0.9580
4.6049 -0.9360 -2.1203 0.9796
8.9480 0.5990 -4.0465 0.9614
8.5764 1.3486 -3.9174 0.9626
7.6166 2.6448 -3.6380 0.9652
6.4742 3.6423 -3.3518 0.9679
5.8835 4.0388 -3.2200 0.9692
5.2699 4.3557 -3.0849 0.9704
2.3431 5.0493 -2.5117 0.9759
1.3113 5.0053 -2.3347 0.9775
0.3775 4.8305 -2.1862 0.9790
-0.0524 4.7026 -2.1220 0.9796
-1.1978 4.1891 -1.9660 0.9811
-1.5335 3.9816 -1.9252 0.9815
-1.8470 3.7586 -1.8896 0.9818
-2.1391 3.5214 -1.8591 0.9821
-2.4102 3.2712 -1.8334 0.9823
-2.8914 2.7347 -1.7957 0.9827
-3.2934 2.1545 -1.7757 0.9829
-3.6174 1.5339 -1.7729 0.9829
-3.7502 1.2093 -1.7779 0.9829
-2.4671 -0.5589 -1.1414 0.9890
-2.4781 -0.7991 -1.1749 0.9886
-3.9677 -2.1172 -2.0292 0.9805
-3.5578 -3.3649 -2.2096 0.9787
-2.8191 -4.6408 -2.4501 0.9765
-2.4861 -5.0591 -2.5435 0.9756
-1.6558 -5.7906 -2.7175 0.9739
-1.1820 -6.1663 -2.8330 0.9728
-0.6557 -6.5175 -2.9557 0.9717
-0.0762 -6.8366 -3.0850 0.9704
1.2386 -7.3425 -3.3599 0.9679
6.7304 -6.6559 -4.2711 0.9593
4.8018 -1.2010 -2.2334 0.9785
5.0762 0.1131 -2.2910 0.9780
8.3604 1.6993 -3.8495 0.9633
6.7705 3.4213 -3.4229 0.9673
6.1733 3.8448 -3.2816 0.9686
5.5770 4.2058 -3.1518 0.9698
4.9632 4.4890 -3.0196 0.9711
3.7578 4.8692 -2.7753 0.9734
1.0686 4.9727 -2.2950 0.9779
0.6016 4.8849 -2.2208 0.9786
-1.0216 4.2867 -1.9884 0.9808
-1.6930 3.8719 -1.9068 0.9816
-1.9957 3.6417 -1.8738 0.9819
-2.2772 3.3979 -1.8456 0.9822
-2.5380 3.1414 -1.8222 0.9824
-2.7786 2.8730 -1.8034 0.9826
-3.2002 2.3034 -1.7791 0.9828
-3.5437 1.6927 -1.7720 0.9829
-3.6863 1.3728 -1.7749 0.9829
-3.8091 1.0434 -1.7820 0.9828
-2.4063 0.4335 -1.1032 0.9893
-2.3615 0.0000 -1.1132 0.9896
-2.3816 -0.4291 -1.1407 0.9894
-3.3279 -3.4410 -2.2565 0.9791
-2.8475 -4.2488 -2.4110 0.9776
-2.1923 -5.0140 -2.5795 0.9761
-1.7907 -5.3484 -2.6587 0.9754
-0.3536 -6.3419 -2.9941 0.9723
0.2211 -6.6117 -3.1184 0.9712
0.8420 -6.8367 -3.2470 0.9700
2.2071 -7.1150 -3.5115 0.9676
2.9379 -7.1490 -3.6433 0.9664
5.1915 -6.7268 -4.0053 0.9631
5.9117 -6.3917 -4.1040 0.9622
6.5865 -5.9571 -4.1862 0.9615
8.1550 -4.1209 -4.3070 0.9604
8.6804 -2.5870 -4.2696 0.9607
4.7931 -0.9742 -2.3056 0.9786
8.3487 0.5589 -3.9442 0.9637
7.1548 2.4845 -3.5702 0.9671
6.1108 3.4379 -3.3051 0.9695
5.5681 3.8223 -3.1836 0.9706
4.4277 4.3787 -2.9353 0.9728
-0.8108 4.2300 -2.0302 0.9811
-1.1578 4.0491 -1.9852 0.9815
-1.7876 3.6377 -1.9106 0.9822
-2.0714 3.4099 -1.8807 0.9825
-2.3349 3.1690 -1.8554 0.9827
-2.5786 2.9157 -1.8348 0.9829
-3.0078 2.3752 -1.8066 0.9832
-3.3604 1.7932 -1.7954 0.9833
-3.5081 1.4875 -1.7961 0.9833
-2.5265 0.5724 -1.2211 0.9886
-2.2973 0.3090 -1.0926 0.9898
-2.3488 0.1047 -1.1083 0.9897
-2.3894 -0.5414 -1.1548 0.9892
-2.3945 -0.7721 -1.1859 0.9889
-2.4109 -1.0223 -1.2344 0.9885
-3.8310 -2.0442 -2.0468 0.9810
-1.5796 -5.5242 -2.7084 0.9749
-1.1254 -5.8712 -2.8179 0.9739
-0.0722 -6.4818 -3.0556 0.9717
0.5259 -6.7304 -3.1822 0.9706
1.8522 -7.0699 -3.4450 0.9682
4.0663 -7.0431 -3.8336 0.9647
4.8202 -6.8567 -3.9508 0.9636
5.5561 -6.5718 -4.0566 0.9627
6.2560 -6.1867 -4.1474 0.9618
6.9008 -5.7037 -4.2202 0.9612
7.9529 -4.4742 -4.3013 0.9605
8.7377 -2.1854 -4.2456 0.9610
4.6877 -0.7371 -2.2368 0.9792
4.7519 -0.3181 -2.2449 0.9792
7.8259 1.5907 -3.7644 0.9653
7.3920 2.2031 -3.6359 0.9665
6.9065 2.7487 -3.5039 0.9677
5.8386 3.6364 -3.2423 0.9700
5.2841 3.9849 -3.1197 0.9712
4.7129 4.2626 -2.9954 0.9723
4.1439 4.4804 -2.8767 0.9734
3.5830 4.6426 -2.7643 0.9744
3.0348 4.7539 -2.6586 0.9754
1.9900 4.8423 -2.4678 0.9771
1.4976 4.8280 -2.3828 0.9779
1.0271 4.7798 -2.3045 0.9786
0.5790 4.7013 -2.2328 0.9793
0.1536 4.5956 -2.1674 0.9799
-0.2490 4.4655 -2.1082 0.9804
-1.6380 3.7463 -1.9273 0.9821
-2.6932 2.7847 -1.8261 0.9830
-2.9077 2.5144 -1.8120 0.9831
-3.1031 2.2335 -1.8022 0.9832
-3.2794 1.9424 -1.7966 0.9833
-3.6933 1.0117 -1.8051 0.9832
-2.3094 -0.2063 -1.1404 0.9897
-2.3175 -0.6348 -1.1819 0.9893
-2.3666 -1.1304 -1.2900 0.9884
-3.6532 -2.1638 -2.0884 0.9813
-3.5350 -2.5443 -2.1422 0.9808
-2.9879 -3.6982 -2.3385 0.9790
-2.4428 -4.4575 -2.5001 0.9776
-2.1048 -4.8137 -2.5841 0.9769
-0.3362 -6.0304 -2.9707 0.9734
0.7973 -6.4741 -3.2084 0.9713
1.4229 -6.6217 -3.3313 0.9703
2.7642 -6.7263 -3.5768 0.9681
3.4627 -6.6668 -3.6950 0.9671
4.1645 -6.5235 -3.8067 0.9661
6.7049 -5.0564 -4.1305 0.9633
7.1923 -4.4794 -4.1675 0.9629
7.8908 -3.1405 -4.1772 0.9628
8.1710 -1.6608 -4.1011 0.9635
5.0229 -0.5619 -2.4860 0.9777
8.0299 -0.1789 -3.9505 0.9648
6.2765 2.8281 -3.3860 0.9698
5.7812 3.2525 -3.2626 0.9709
5.2806 3.6250 -3.1504 0.9719
4.7503 3.9263 -3.0312 0.9729
3.1605 4.4959 -2.7031 0.9758
1.6718 4.6470 -2.4290 0.9782
1.2111 4.6227 -2.3504 0.9789
-0.7836 4.0881 -2.0473 0.9816
-1.1198 3.9162 -2.0034 0.9820
-1.7311 3.5226 -1.9305 0.9827
-2.0068 3.3037 -1.9012 0.9829
-2.5002 2.8270 -1.8562 0.9833
-2.9177 2.3041 -1.8286 0.9836
-3.2603 1.7398 -1.8176 0.9837
-3.4035 1.4432 -1.8183 0.9837
-2.3022 -0.1027 -1.1335 0.9898
-2.3142 -0.5243 -1.1671 0.9895
-2.3173 -0.7472 -1.1976 0.9892
-2.3375 -0.9912 -1.2488 0.9887
-3.4644 -2.7358 -2.1712 0.9805
-3.2993 -3.1205 -2.2336 0.9800
-3.1006 -3.5059 -2.3020 0.9794
-2.2816 -4.6428 -2.5444 0.9772
-1.5091 -5.2777 -2.6999 0.9758
-0.0686 -6.1573 -3.0287 0.9729
0.4986 -6.3801 -3.1477 0.9719
1.1057 -6.5550 -3.2696 0.9708
2.4200 -6.7266 -3.5161 0.9686
3.8140 -6.6060 -3.7519 0.9666
5.1925 -6.1416 -3.9557 0.9648
5.8380 -5.7733 -4.0384 0.9641
6.9589 -4.7770 -4.1516 0.9631
8.0013 -2.7783 -4.1660 0.9629
8.1415 -2.0363 -4.1278 0.9633
7.6791 0.8591 -3.8006 0.9661
6.9558 2.0731 -3.5699 0.9682
6.0322 3.0482 -3.3242 0.9703
5.5419 3.4515 -3.2113 0.9713
4.4833 4.0549 -2.9732 0.9734
3.9496 4.2703 -2.8610 0.9744
3.4212 4.4330 -2.7542 0.9753
2.3980 4.6170 -2.5589 0.9771
0.1482 4.4313 -2.1808 0.9804
-0.9543 4.0044 -2.0247 0.9818
-1.2802 3.8238 -1.9833 0.9822
-1.5858 3.6268 -1.9469 0.9825
-1.8714 3.4149 -1.9153 0.9828
-2.1374 3.1892 -1.8883 0.9830
-2.3840 2.9508 -1.8658 0.9832
-2.8203 2.4388 -1.8339 0.9835
-3.1817 1.8845 -1.8188 0.9837
-3.3343 1.5927 -1.8175 0.9837
-3.4680 1.2915 -1.8202 0.9836
-2.3061 0.4155 -1.1525 0.9896
-2.2593 -0.8414 -1.2360 0.9892
-2.2721 -1.0853 -1.2909 0.9887
-3.2662 -2.8243 -2.2137 0.9808
-2.6290 -3.9226 -2.4209 0.9790
-2.0204 -4.6207 -2.5855 0.9776
-1.6413 -4.9023 -2.6504 0.9770
-1.2394 -5.2008 -2.7410 0.9763
1.9668 -6.3405 -3.4034 0.9706
2.6075 -6.3449 -3.5168 0.9696
3.9141 -6.1313 -3.7292 0.9678
4.5563 -5.9038 -3.8233 0.9670
5.1729 -5.5928 -3.9057 0.9663
6.2697 -4.7282 -4.0259 0.9653
6.7216 -4.1862 -4.0596 0.9650
7.3732 -2.9345 -4.0684 0.9650
7.6442 -1.5537 -3.9991 0.9655
7.6334 -0.8539 -3.9378 0.9661
7.5300 -0.1678 -3.8614 0.9667
7.3415 0.4915 -3.7722 0.9675
6.7477 1.6877 -3.5659 0.9692
5.4807 3.0835 -3.2240 0.9721
5.0173 3.4442 -3.1200 0.9730
4.0207 3.9762 -2.8990 0.9749
3.5198 4.1633 -2.7950 0.9758
2.5383 4.3966 -2.6027 0.9774
2.0650 4.4500 -2.5151 0.9782
1.1654 4.4485 -2.3576 0.9795
0.3379 4.3237 -2.2234 0.9807
-0.0470 4.2223 -2.1647 0.9812
-0.4123 4.0981 -2.1115 0.9817
-1.0836 3.7897 -2.0207 0.9824
-1.6771 3.4128 -1.9495 0.9831
-1.9452 3.2023 -1.9208 0.9833
-2.1945 2.9784 -1.8966 0.9835
-2.4252 2.7422 -1.8768 0.9837
-2.8314 2.2360 -1.8496 0.9839
-3.0071 1.9672 -1.8422 0.9840
-3.4238 1.1041 -1.8443 0.9840
-2.4709 0.5598 -1.2989 0.9887
-2.2377 -0.0998 -1.1483 0.9900
-2.2672 -0.9614 -1.2625 0.9890
-3.3435 -2.6403 -2.1841 0.9810
-2.7569 -3.7417 -2.3827 0.9793
-2.4918 -4.1020 -2.4605 0.9787
-1.4441 -5.0503 -2.6929 0.9767
0.4735 -6.0596 -3.1161 0.9730
1.0481 -6.2135 -3.2305 0.9721
1.6540 -6.3133 -3.3459 0.9711
2.2850 -6.3513 -3.4605 0.9701
2.9330 -6.3204 -3.5722 0.9692
3.5878 -6.2142 -3.6787 0.9683
4.8687 -5.7587 -3.8661 0.9667
6.5051 -4.4654 -4.0451 0.9652
6.9178 -3.8918 -4.0693 0.9650
7.6134 -1.9042 -4.0234 0.9653
7.5928 -0.5083 -3.9013 0.9664
6.5621 1.9557 -3.5104 0.9697
6.1562 2.4501 -3.3969 0.9707
5.7130 2.8870 -3.2816 0.9716
5.2605 3.2763 -3.1772 0.9725
4.7708 3.5979 -3.0634 0.9735
4.2717 3.8635 -2.9528 0.9744
0.5376 4.3651 -2.2548 0.9804
-0.5875 4.0281 -2.0869 0.9819
-1.2393 3.7015 -2.0011 0.9826
-2.3122 2.8618 -1.8862 0.9836
-2.5336 2.6197 -1.8684 0.9838
-2.7367 2.3665 -1.8548 0.9839
-3.0881 1.8291 -1.8400 0.9840
-3.2363 1.5459 -1.8387 0.9840
-3.3660 1.2535 -1.8414 0.9840
-2.2585 0.4069 -1.1765 0.9897
-2.2093 0.1974 -1.1372 0.9901
-2.1789 -0.3925 -1.1819 0.9900
-2.1932 -0.8168 -1.2494 0.9894
-3.4137 -2.0219 -2.1180 0.9822
-3.2976 -2.3734 -2.1689 0.9817
-2.7702 -3.4287 -2.3532 0.9802
-1.9410 -4.4391 -2.5864 0.9783
-1.5738 -4.7008 -2.6464 0.9778
-1.1861 -4.9770 -2.7314 0.9771
-0.3055 -5.4787 -2.9293 0.9754
0.7191 -5.8391 -3.1407 0.9737
2.4653 -5.9989 -3.4624 0.9710
3.0772 -5.9247 -3.5640 0.9702
3.6885 -5.7779 -3.6595 0.9694
4.2875 -5.5555 -3.7463 0.9687
6.3020 -3.9249 -3.9634 0.9669
7.0880 -2.1124 -3.9483 0.9670
7.1737 -1.4581 -3.9080 0.9674
6.6751 1.0496 -3.6072 0.9698
6.3749 1.5945 -3.5080 0.9706
5.6303 2.5369 -3.2967 0.9724
5.2105 2.9314 -3.1916 0.9733
4.3112 3.5633 -2.9858 0.9750
3.8398 3.7972 -2.8829 0.9758
2.8973 4.1215 -2.6895 0.9774
2.4353 4.2181 -2.6001 0.9782
1.5457 4.2963 -2.4374 0.9795
1.1224 4.2843 -2.3643 0.9801
0.7156 4.2422 -2.2967 0.9807
0.3261 4.1729 -2.2344 0.9812
-0.0454 4.0787 -2.1775 0.9817
-0.3986 3.9621 -2.1258 0.9821
-1.3466 3.4964 -2.0002 0.9832
-1.6256 3.3080 -1.9676 0.9834
-1.8863 3.1053 -1.9396 0.9837
-2.1289 2.8893 -1.9159 0.9839
-2.7488 2.1707 -1.8698 0.9842
-2.9196 1.9100 -1.8625 0.9843
-2.4373 0.5522 -1.3341 0.9887
-2.1681 0.2916 -1.1679 0.9901
-2.1735 0.0969 -1.1615 0.9902
-2.1765 -0.0971 -1.1631 0.9902
-2.1810 -0.2933 -1.1748 0.9901
-2.1912 -0.7066 -1.2291 0.9896
-2.2448 -1.1978 -1.3583 0.9885
-3.0690 -2.9026 -2.2550 0.9810
-2.8780 -3.2541 -2.3191 0.9805
-2.3959 -3.9442 -2.4636 0.9793
-2.1019 -4.2771 -2.5441 0.9786
-1.3841 -4.8406 -2.6877 0.9774
-0.9801 -5.1131 -2.7793 0.9767
-0.5397 -5.3646 -2.8783 0.9758
-0.0622 -5.5840 -2.9812 0.9750
0.9954 -5.9009 -3.1947 0.9732
1.5680 -5.9849 -3.3029 0.9723
2.1623 -6.0102 -3.4099 0.9715
2.7707 -5.9706 -3.5138 0.9706
3.9903 -5.6763 -3.7041 0.9690
4.5785 -5.4154 -3.7857 0.9684
5.1349 -5.0780 -3.8553 0.9678
5.6465 -4.6670 -3.9107 0.9673
6.1004 -4.1877 -3.9501 0.9670
6.4850 -3.6484 -3.9722 0.9668
6.7909 -3.0598 -3.9763 0.9668
7.0112 -2.4345 -3.9621 0.9669
7.1421 -1.7863 -3.9302 0.9672
7.1363 -0.4777 -3.8182 0.9681
6.8027 0.7610 -3.6542 0.9694
6.5321 1.3277 -3.5584 0.9702
6.2049 1.8493 -3.4564 0.9711
5.8313 2.3208 -3.3505 0.9719
5.4213 2.7395 -3.2426 0.9728
4.5445 3.4272 -3.0386 0.9745
2.6652 4.1750 -2.6442 0.9778
0.9169 4.2668 -2.3298 0.9804
0.1380 4.1287 -2.2053 0.9814
-0.2243 4.0231 -2.1510 0.9819
-0.5682 3.8959 -2.1018 0.9823
-1.4884 3.4041 -1.9833 0.9833
-2.0098 2.9989 -1.9272 0.9838
-2.6566 2.2973 -1.8749 0.9842
-2.8365 2.0416 -1.8656 0.9843
-2.9984 1.7760 -1.8604 0.9843
-3.3755 0.9247 -1.8683 0.9843
-2.2057 0.3974 -1.1965 0.9899
-2.1547 0.1925 -1.1549 0.9902
-2.1202 -0.1895 -1.1823 0.9903
-2.1250 -0.3828 -1.1992 0.9902
-2.1317 -0.7938 -1.2633 0.9896
-2.2265 -1.3188 -1.4372 0.9882
-2.8731 -2.9707 -2.2953 0.9813
-2.6704 -3.3051 -2.3599 0.9807
-2.1672 -3.9547 -2.5046 0.9796
-1.8643 -4.2638 -2.5846 0.9789
-1.5114 -4.5142 -2.6440 0.9785
-1.1363 -4.7683 -2.7225 0.9778
1.7678 -5.6987 -3.3138 0.9731
2.3356 -5.6835 -3.4127 0.9723
4.0446 -5.2407 -3.6767 0.9702
6.2499 -3.1582 -3.8892 0.9685
6.6660 -1.9867 -3.8632 0.9687
6.7533 -0.7555 -3.7742 0.9694
6.0355 1.5096 -3.4554 0.9719
5.7116 1.9833 -3.3580 0.9727
5.3477 2.4096 -3.2576 0.9735
4.9700 2.7961 -3.1671 0.9742
4.5514 3.1244 -3.0661 0.9751
3.6715 3.6309 -2.8679 0.9767
3.2242 3.8136 -2.7736 0.9774
1.4880 4.1361 -2.4413 0.9801
1.0818 4.1291 -2.3707 0.9807
0.6904 4.0928 -2.3052 0.9812
0.3149 4.0298 -2.2449 0.9817
-0.7097 3.7026 -2.0938 0.9829
-1.0163 3.5541 -2.0530 0.9832
-1.5763 3.2077 -1.9850 0.9838
-1.8299 3.0124 -1.9576 0.9840
-2.8357 1.8551 -1.8820 0.9846
-3.2285 1.0411 -1.8840 0.9846
-2.1264 0.2860 -1.1916 0.9902
-2.1163 0.0944 -1.1766 0.9904
-2.1237 -0.2856 -1.1901 0.9902
-2.1317 -0.6874 -1.2440 0.9898
-3.1199 -2.4638 -2.2079 0.9820
-2.5570 -3.4704 -2.3942 0.9805
-2.3056 -3.7956 -2.4665 0.9799
-1.6946 -4.3998 -2.6186 0.9787
-1.3278 -4.6437 -2.6825 0.9781
-0.9383 -4.8950 -2.7681 0.9775
-0.5159 -5.1280 -2.8624 0.9767
0.9469 -5.6135 -3.1617 0.9743
2.0503 -5.6987 -3.3637 0.9727
2.6229 -5.6522 -3.4608 0.9719
3.7667 -5.3581 -3.6376 0.9705
5.3134 -4.3916 -3.8286 0.9690
5.7371 -3.9383 -3.8649 0.9687
6.5925 -2.2891 -3.8759 0.9686
6.7188 -1.6804 -3.8466 0.9688
6.7622 -1.0633 -3.8019 0.9692
6.7247 -0.4502 -3.7432 0.9696
6.4263 0.7189 -3.5914 0.9708
6.1796 1.2561 -3.5023 0.9716
4.7640 2.9671 -3.1171 0.9746
3.8944 3.5223 -2.9164 0.9763
3.4479 3.7279 -2.8202 0.9770
3.0009 3.8884 -2.7279 0.9778
2.1219 4.0854 -2.5568 0.9792
0.5006 4.0645 -2.2744 0.9814
0.1334 3.9889 -2.2167 0.9819
-0.2169 3.8901 -2.1639 0.9823
-0.8652 3.6306 -2.0728 0.9831
-1.4429 3.3001 -2.0004 0.9837
-1.7053 3.1118 -1.9708 0.9839
-1.9501 2.9097 -1.9454 0.9841
-2.3873 2.4684 -1.9072 0.9844
-2.5797 2.2308 -1.8942 0.9845
-2.7548 1.9828 -1.8851 0.9846
