ply
format ascii 1.0
element vertex 1587
property float32 x
property float32 y
property float32 z
property float32 I
end_header
5.3523 0.8416 -0.3156 0.9785
1.3456 7.9775 -0.4712 0.9681
-3.4542 12.0801 -0.7318 0.9509
-4.2429 11.0165 -0.6876 0.9538
-4.9357 10.0438 -0.6518 0.9562
-5.5459 9.1299 -0.6222 0.9581
-7.0346 7.9542 -0.6185 0.9583
-7.5332 7.1248 -0.6039 0.9593
-7.9976 6.3156 -0.5935 0.9600
-9.2455 3.9204 -0.5849 0.9606
-10.0019 2.2661 -0.5973 0.9597
-10.3688 1.3945 -0.6094 0.9589
-12.6531 -5.3654 -0.8005 0.9464
-12.2951 -6.5609 -0.8117 0.9457
4.6680 -1.6209 -0.2878 0.9804
4.4147 -1.1042 -0.2650 0.9819
4.3548 -0.6848 -0.2568 0.9825
4.3934 -0.2941 -0.2565 0.9825
4.5317 0.1010 -0.2640 0.9820
-2.0296 13.9161 -0.8191 0.9452
-3.0159 12.6554 -0.7577 0.9492
-3.8620 11.5352 -0.7085 0.9524
-5.2493 9.5787 -0.6362 0.9572
-5.8274 8.6951 -0.6096 0.9589
-7.7692 6.7183 -0.5982 0.9597
-8.2191 5.9157 -0.5898 0.9602
-8.6440 5.1199 -0.5851 0.9605
-9.0491 4.3224 -0.5841 0.9606
-9.4385 3.5149 -0.5866 0.9604
-10.1860 1.8351 -0.6028 0.9594
-10.5510 0.9429 -0.6170 0.9584
-10.1833 -0.0000 -0.7631 0.9600
-10.4988 -0.9382 -0.7899 0.9586
-11.7658 -5.6201 -0.9772 0.9490
-11.6060 -6.8742 -1.0109 0.9473
4.9515 -1.9707 -0.3994 0.9789
4.3220 -0.4835 -0.3259 0.9827
4.4141 -0.0984 -0.3309 0.9824
-0.1620 14.5383 -1.0896 0.9433
-1.3333 13.2530 -0.9982 0.9480
-3.1753 11.1049 -0.8655 0.9547
-3.9195 10.1767 -0.8172 0.9572
-8.3007 4.4294 -0.7051 0.9630
-8.6722 3.6773 -0.7059 0.9629
-9.0274 2.9110 -0.7108 0.9627
-9.3693 2.1228 -0.7199 0.9622
-10.6557 -1.4330 -0.8057 0.9578
-11.6033 -4.9202 -0.9445 0.9507
-11.9309 -6.3665 -1.0134 0.9472
-11.5247 -7.5391 -1.0320 0.9463
4.3573 -0.2917 -0.3273 0.9826
4.4952 0.1002 -0.3370 0.9821
4.8280 0.5401 -0.3641 0.9807
-1.8479 12.6705 -0.9596 0.9499
-4.2582 9.7387 -0.7965 0.9583
-5.4272 8.0980 -0.7306 0.9617
-6.3219 7.8247 -0.7538 0.9605
-6.8180 7.0498 -0.7350 0.9614
-7.2771 6.2928 -0.7210 0.9621
-7.7054 5.5460 -0.7115 0.9626
-8.1078 4.8023 -0.7062 0.9629
-8.4887 4.0547 -0.7050 0.9630
-9.1999 2.5201 -0.7148 0.9625
-9.5362 1.7180 -0.7261 0.9619
-9.8632 0.8814 -0.7421 0.9611
-4.4480 -0.0000 -0.4078 0.9823
4.2998 -0.4810 -0.3967 0.9828
4.3911 -0.0979 -0.4027 0.9825
1.1259 14.4082 -1.3249 0.9436
-0.1470 13.1941 -1.2097 0.9484
-1.2194 12.1216 -1.1169 0.9522
-3.6412 9.4542 -0.9288 0.9601
-4.2625 8.6739 -0.8860 0.9619
-5.6751 7.7024 -0.8771 0.9623
-6.1708 6.9775 -0.8540 0.9633
-7.0504 5.5677 -0.8236 0.9646
-7.4451 4.8704 -0.8156 0.9649
-8.1646 3.4621 -0.8130 0.9650
-8.4956 2.7395 -0.8183 0.9648
-8.8107 1.9963 -0.8282 0.9644
-4.2496 0.5715 -0.3931 0.9829
-4.0002 0.1784 -0.3671 0.9840
-9.9497 -1.3381 -0.9204 0.9605
-10.2110 -2.3135 -0.9598 0.9588
-10.4649 -3.3745 -1.0080 0.9568
-10.9534 -5.8449 -1.1382 0.9514
-11.0110 -7.2031 -1.2063 0.9485
4.3437 -1.0865 -0.4105 0.9822
4.4714 0.0996 -0.4100 0.9822
0.4608 13.7808 -1.2641 0.9461
-2.5513 10.7058 -1.0090 0.9568
-3.9607 9.0585 -0.9064 0.9611
-4.5482 8.2994 -0.8676 0.9627
-6.8427 5.9171 -0.8293 0.9643
-7.2511 5.2190 -0.8190 0.9648
-7.6331 4.5211 -0.8133 0.9650
-8.3322 3.1029 -0.8151 0.9649
-8.6550 2.3709 -0.8227 0.9646
-4.9081 0.8842 -0.4572 0.9802
-4.1097 0.3672 -0.3783 0.9836
-9.2148 -0.8234 -1.0035 0.9635
-10.2025 -6.0430 -1.2862 0.9534
4.3987 -1.3109 -0.4978 0.9817
4.2810 -0.8701 -0.4738 0.9826
5.0858 0.7997 -0.5584 0.9795
1.0221 13.0798 -1.4231 0.9486
-0.1345 12.0743 -1.3097 0.9526
-1.1233 11.1655 -1.2172 0.9559
-1.9804 10.3314 -1.1410 0.9586
-2.7324 9.5557 -1.0780 0.9608
-4.5227 7.4454 -0.9449 0.9656
-5.3371 7.2436 -0.9759 0.9644
-6.2499 5.9111 -0.9331 0.9660
-6.6546 5.2552 -0.9197 0.9665
-7.0310 4.5995 -0.9113 0.9668
-7.7119 3.2701 -0.9086 0.9669
-8.0216 2.5866 -0.9142 0.9667
-4.7637 1.0793 -0.5298 0.9805
-9.3296 -1.2547 -1.0211 0.9628
-9.7549 -3.1456 -1.1117 0.9596
-9.9462 -4.2175 -1.1718 0.9575
-10.1215 -5.4010 -1.2444 0.9549
-9.9947 -7.8927 -1.3814 0.9501
-9.8857 -9.3498 -1.4759 0.9467
4.3158 -0.2889 -0.4692 0.9827
0.4200 12.5633 -1.3635 0.9507
-3.0754 9.1857 -1.0507 0.9618
-4.2623 7.7778 -0.9620 0.9649
-5.0833 7.5849 -0.9904 0.9639
-5.5798 6.9063 -0.9630 0.9649
-6.4560 5.5828 -0.9258 0.9662
-8.1697 2.2379 -0.9188 0.9665
-3.9949 0.7197 -0.4403 0.9838
-3.7414 0.3343 -0.4074 0.9850
-3.7700 -0.3369 -0.4743 0.9849
-9.2092 -3.4295 -1.2315 0.9612
-9.4575 -5.6017 -1.3775 0.9567
-9.5901 -8.2929 -1.5888 0.9502
-9.0291 -9.3360 -1.6276 0.9490
4.7707 -1.8987 -0.6435 0.9795
4.3775 -1.3046 -0.5724 0.9818
4.2616 -0.8662 -0.5450 0.9826
4.2590 -0.4765 -0.5371 0.9829
4.5448 0.3042 -0.5708 0.9818
5.0322 0.7912 -0.6384 0.9797
0.9356 11.9721 -1.5049 0.9527
-1.0409 10.3466 -1.3031 0.9589
-2.5533 8.9297 -1.1639 0.9633
-3.7481 7.6272 -1.0650 0.9663
-5.0361 6.8350 -1.0639 0.9664
-5.4923 6.2102 -1.0389 0.9671
-6.2998 4.9749 -1.0059 0.9682
-6.6593 4.3563 -0.9972 0.9684
-6.9937 3.7319 -0.9934 0.9685
-7.3053 3.0977 -0.9944 0.9685
-7.5962 2.4495 -1.0002 0.9683
-4.3832 0.9931 -0.5632 0.9820
-3.5348 0.1576 -0.4434 0.9858
-8.9659 -2.0314 -1.1521 0.9636
-9.2801 -3.9351 -1.2632 0.9602
-9.4047 -5.0185 -1.3359 0.9579
-9.5032 -6.2167 -1.4231 0.9553
-9.2793 -8.7763 -1.6006 0.9498
-8.9922 -10.1676 -1.7010 0.9468
4.2556 -0.6692 -0.5399 0.9828
4.7199 0.5280 -0.5952 0.9810
1.5303 12.4251 -1.5688 0.9508
0.3859 11.5406 -1.4470 0.9545
-0.5983 10.7295 -1.3467 0.9576
-1.4550 9.9764 -1.2634 0.9602
-2.2089 9.2692 -1.1941 0.9623
-4.0094 7.3162 -1.0455 0.9669
-5.2691 6.5216 -1.0507 0.9668
-6.1096 5.2832 -1.0122 0.9680
-6.8295 4.0451 -0.9947 0.9685
-7.1522 3.4163 -0.9933 0.9686
-7.7344 2.1187 -1.0050 0.9682
-3.5366 0.3160 -0.4450 0.9858
-3.3944 0.0000 -0.4828 0.9864
-8.5184 -2.3334 -1.2563 0.9649
-8.8472 -6.3678 -1.5505 0.9569
-8.8422 -7.6461 -1.6627 0.9539
-8.7866 -9.0853 -1.7977 0.9502
4.7388 -1.8860 -0.7254 0.9796
4.3564 -1.2983 -0.6466 0.9818
4.2423 -0.8623 -0.6158 0.9827
4.2388 -0.4742 -0.6067 0.9829
4.3231 -0.0963 -0.6151 0.9827
4.5172 0.3024 -0.6440 0.9819
3.3086 12.6287 -1.8569 0.9486
-0.1150 10.3142 -1.4672 0.9592
-1.7240 8.9941 -1.3026 0.9637
-2.9939 7.7735 -1.1848 0.9669
-4.2878 7.0587 -1.1747 0.9672
-5.9795 4.7220 -1.0837 0.9697
-7.2122 2.3257 -1.0779 0.9698
-4.1432 0.9387 -0.6043 0.9830
-3.4470 -0.1537 -0.4908 0.9862
-8.4478 -1.9140 -1.2320 0.9656
-8.7803 -4.6853 -1.4155 0.9606
-8.7358 -9.8777 -1.8756 0.9481
-8.5500 -11.6041 -2.0502 0.9434
4.2362 -0.6661 -0.6099 0.9828
4.6887 0.5245 -0.6711 0.9811
4.0576 13.0803 -1.9480 0.9462
0.3567 10.6685 -1.5183 0.9578
-0.5560 9.9710 -1.4204 0.9605
-1.3581 9.3117 -1.3385 0.9627
-2.0693 8.6830 -1.2696 0.9646
-3.2706 7.4801 -1.1612 0.9676
-3.8570 7.0382 -1.1416 0.9681
-4.5323 6.7627 -1.1579 0.9676
-6.1549 4.4300 -1.0786 0.9698
-6.4860 3.8417 -1.0722 0.9700
-6.7930 3.2448 -1.0708 0.9700
-7.0777 2.6358 -1.0743 0.9699
-7.3416 2.0111 -1.0827 0.9697
-3.6717 0.6615 -0.5306 0.9850
-3.3525 0.2996 -0.4787 0.9865
-3.3915 -0.3031 -0.5422 0.9863
-8.2453 -4.8837 -1.5260 0.9619
-8.1997 -7.0905 -1.7262 0.9570
-7.9336 -9.8196 -2.0102 0.9502
-7.5652 -11.2881 -2.1638 0.9464
4.7072 -1.8734 -0.8067 0.9797
4.3354 -1.2921 -0.7204 0.9818
4.2231 -0.8584 -0.6862 0.9827
4.9795 0.7830 -0.8027 0.9798
4.7107 13.0935 -2.2158 0.9452
3.0265 11.5519 -1.9016 0.9528
-0.9070 9.0161 -1.4429 0.9640
-2.2535 7.8809 -1.3052 0.9673
-4.0629 6.6884 -1.2461 0.9688
-4.9441 5.5904 -1.1884 0.9702
-5.3317 5.0427 -1.1686 0.9707
-6.0187 3.9373 -1.1453 0.9713
-6.3233 3.3742 -1.1413 0.9714
-3.9744 0.9005 -0.6489 0.9836
-3.2600 0.1454 -0.5196 0.9869
-3.3343 -0.1487 -0.5315 0.9866
-8.2501 -5.3970 -1.5698 0.9609
-8.2284 -6.4979 -1.6695 0.9584
-8.1575 -7.7153 -1.7879 0.9555
-7.8197 -10.6130 -2.0992 0.9480
4.2170 -0.6631 -0.6797 0.9829
4.6780 0.5233 -0.7496 0.9811
5.5523 13.5107 -2.3260 0.9426
3.6961 11.9152 -1.9865 0.9507
2.4069 11.2008 -1.8243 0.9547
1.2969 10.5301 -1.6894 0.9579
-0.5191 9.3099 -1.4848 0.9629
-1.2728 8.7273 -1.4044 0.9649
-2.5465 7.6061 -1.2772 0.9680
-3.8172 6.9655 -1.2648 0.9683
-4.7378 5.8640 -1.2005 0.9699
-5.1419 5.3167 -1.1778 0.9705
-6.1740 3.6569 -1.1426 0.9714
-4.5041 1.2338 -0.7436 0.9813
-3.1939 -0.0000 -0.5632 0.9871
-7.5127 -1.3535 -1.3460 0.9695
-7.6144 -2.0858 -1.3921 0.9684
-7.7343 -3.6943 -1.5113 0.9658
-7.7451 -4.5875 -1.5873 0.9641
-7.6415 -6.6078 -1.7813 0.9598
-6.9572 -10.3809 -2.2035 0.9505
4.6862 -1.8651 -0.8893 0.9797
4.3246 -1.2889 -0.7957 0.9818
4.2166 -0.8571 -0.7587 0.9827
4.4985 0.3011 -0.7950 0.9819
4.3068 11.9710 -2.2433 0.9496
2.7875 10.6399 -1.9394 0.9563
1.3593 8.0583 -1.4410 0.9674
0.7444 9.5257 -1.6848 0.9619
-1.5233 7.9471 -1.4268 0.9677
-2.1273 7.4399 -1.3644 0.9691
-3.3320 6.7805 -1.3321 0.9698
-3.8594 6.3534 -1.3108 0.9703
-5.4240 4.2833 -1.2187 0.9723
-5.7405 3.7553 -1.2096 0.9725
-6.2999 2.6714 -1.2066 0.9726
-3.1779 0.4274 -0.5654 0.9871
-3.1644 0.1411 -0.5585 0.9872
-3.2276 -0.1439 -0.5697 0.9870
-7.6554 -2.4685 -1.4183 0.9679
-7.7158 -3.2718 -1.4778 0.9665
-7.4205 -8.3905 -1.9751 0.9555
-7.1817 -9.7471 -2.1348 0.9520
-6.7170 -11.0578 -2.2813 0.9488
-6.2502 -12.7187 -2.4988 0.9441
4.2551 -1.0643 -0.7734 0.9823
4.2530 -0.2847 -0.7516 0.9828
4.6673 0.5221 -0.8281 0.9811
6.7424 12.9814 -2.5793 0.9423
5.0548 12.3000 -2.3448 0.9474
2.2240 10.3497 -1.8666 0.9579
0.3095 9.2562 -1.6330 0.9631
-0.4865 8.7250 -1.5408 0.9651
-1.1965 8.2038 -1.4619 0.9669
-1.8332 7.6925 -1.3944 0.9684
-2.9268 6.6939 -1.2882 0.9708
-4.0853 6.0957 -1.2939 0.9706
-4.8978 5.0643 -1.2423 0.9718
-5.2558 4.5449 -1.2252 0.9722
-5.8893 3.4882 -1.2069 0.9726
-6.4254 2.3929 -1.2090 0.9725
-4.2904 1.1753 -0.7844 0.9821
-3.1509 0.2816 -0.5578 0.9872
-3.1775 -0.2839 -0.6174 0.9871
-7.2277 -1.9798 -1.4502 0.9699
-7.3096 -3.4915 -1.5676 0.9675
-7.2494 -5.2178 -1.7285 0.9643
-7.1518 -6.1844 -1.8297 0.9622
-6.9981 -7.2360 -1.9480 0.9598
-6.4428 -9.6132 -2.2395 0.9539
-5.9439 -10.8462 -2.3934 0.9509
4.2123 -0.8562 -0.8318 0.9826
4.2943 -0.0957 -0.8312 0.9827
4.4896 0.3005 -0.8708 0.9818
4.9520 0.7787 -0.9701 0.9798
6.9713 12.0746 -2.6981 0.9448
5.3581 11.5463 -2.4633 0.9495
2.5824 9.8571 -1.9719 0.9593
1.3677 8.1081 -1.5912 0.9671
0.6961 8.9085 -1.7292 0.9642
-1.4386 7.5051 -1.4788 0.9693
-2.0140 7.0434 -1.4176 0.9706
-3.2097 6.5316 -1.4084 0.9708
-3.6742 6.0486 -1.3695 0.9716
-5.1813 4.0916 -1.2776 0.9735
-5.7648 3.0762 -1.2645 0.9737
-6.0206 2.5530 -1.2655 0.9737
-3.6833 0.8345 -0.7309 0.9847
-3.1048 0.4175 -0.6062 0.9873
-3.1273 -0.1395 -0.6058 0.9873
-3.2339 -0.4349 -0.6315 0.9868
-7.3010 -3.0959 -1.5347 0.9682
-7.3094 -3.9004 -1.6033 0.9668
-7.2070 -5.6913 -1.7771 0.9633
-6.1789 -10.1719 -2.3032 0.9527
-5.6980 -11.5951 -2.5002 0.9487
4.4427 -1.5427 -0.9101 0.9810
4.2507 -1.0632 -0.8479 0.9823
4.2062 -0.6614 -0.8240 0.9828
4.2466 -0.2843 -0.8236 0.9828
0.2900 8.6730 -1.6793 0.9653
-1.7335 7.2739 -1.4470 0.9700
-2.9070 6.6485 -1.4042 0.9709
-3.8917 5.8068 -1.3527 0.9719
-5.8956 2.8161 -1.2644 0.9737
-3.3306 0.6000 -0.6549 0.9863
-3.0211 0.0000 -0.6369 0.9877
-3.2303 -0.5820 -0.6920 0.9867
-6.9174 -2.5761 -1.5562 0.9703
-6.9268 -3.3086 -1.6183 0.9691
-6.9004 -4.0871 -1.6908 0.9677
-6.8330 -4.9181 -1.7749 0.9662
-6.3128 -7.8134 -2.1177 0.9598
-4.2950 -12.8284 -2.8520 0.9462
4.3190 -1.2872 -0.9501 0.9817
4.2081 -0.8553 -0.9053 0.9826
4.2025 -0.4701 -0.8915 0.9829
3.6715 10.2052 -2.2865 0.9566
2.4103 9.2000 -2.0050 0.9619
1.4797 8.7726 -1.8756 0.9643
-0.0885 7.9471 -1.6755 0.9680
-3.5050 5.7700 -1.4233 0.9728
-4.2925 4.8536 -1.3660 0.9739
-4.6393 4.3878 -1.3462 0.9742
-5.2507 3.4348 -1.3228 0.9747
-5.7635 2.4439 -1.3198 0.9747
-5.9856 1.9301 -1.3259 0.9746
-3.0346 0.4081 -0.6455 0.9876
-3.1545 -0.4243 -0.6710 0.9871
-6.8445 -1.5508 -1.4795 0.9717
-6.9005 -2.2251 -1.5285 0.9708
-6.9263 -2.9370 -1.5861 0.9697
-6.9183 -3.6917 -1.6532 0.9685
-6.8722 -4.4956 -1.7312 0.9670
-6.7821 -5.3557 -1.8219 0.9653
-6.6409 -6.2809 -1.9270 0.9633
-5.2328 -10.6484 -2.5013 0.9527
-4.6445 -12.0591 -2.7243 0.9485
4.4428 -1.5427 -0.9915 0.9810
4.2401 -0.2839 -0.8959 0.9828
4.3665 0.0973 -0.9208 0.9823
4.6460 0.5197 -0.9856 0.9811
8.9359 11.5786 -3.0834 0.9420
4.2806 10.4162 -2.3741 0.9550
0.2727 8.1553 -1.7203 0.9672
-0.4315 7.7379 -1.6338 0.9688
-2.8193 6.4480 -1.4836 0.9716
-5.1075 3.6762 -1.3267 0.9746
-5.3877 3.1912 -1.3201 0.9747
-5.8773 2.1888 -1.3222 0.9747
-4.0001 1.0957 -0.8744 0.9832
-3.2435 0.5843 -0.6948 0.9866
-2.9710 -0.0000 -0.6781 0.9879
-3.1642 -0.5701 -0.7338 0.9869
-6.5551 -1.7956 -1.5513 0.9725
-6.5835 -2.4517 -1.6035 0.9716
-6.5798 -3.1429 -1.6643 0.9705
-6.4594 -4.6492 -1.8165 0.9679
-5.9052 -7.3090 -2.1447 0.9622
-4.5648 -10.4401 -2.6007 0.9543
4.7070 -1.8733 -1.1563 0.9794
4.2037 -0.8545 -0.9791 0.9826
4.1970 -0.4695 -0.9639 0.9828
4.2795 -0.0954 -0.9770 0.9826
4.9777 0.7827 -1.1501 0.9795
3.4169 9.4976 -2.3038 0.9594
2.3949 9.1413 -2.1569 0.9620
0.6154 7.8760 -1.8031 0.9681
-0.7173 7.1302 -1.6356 0.9710
-1.8652 6.5231 -1.5485 0.9725
-2.4496 6.3603 -1.5556 0.9724
-2.9189 5.9397 -1.5106 0.9732
-3.3496 5.5143 -1.4726 0.9739
-3.7455 5.0835 -1.4412 0.9744
-4.1096 4.6468 -1.4159 0.9749
-4.4443 4.2034 -1.3962 0.9752
-4.7518 3.7524 -1.3820 0.9755
-5.5258 2.3432 -1.3699 0.9757
-3.4289 0.7769 -0.8025 0.9857
-2.9625 0.3984 -0.6823 0.9878
-2.9453 0.1313 -0.6729 0.9880
-3.0959 -0.4164 -0.7130 0.9873
-6.5297 -1.4794 -1.5281 0.9729
-6.5859 -2.7927 -1.6328 0.9711
-6.5052 -4.2555 -1.7742 0.9686
-6.4020 -5.0556 -1.8619 0.9671
-5.7553 -7.8112 -2.2145 0.9610
-5.3243 -8.7650 -2.3407 0.9588
-3.5501 -12.4154 -2.9473 0.9484
-2.6634 -13.8949 -3.2292 0.9436
4.3608 0.0972 -0.9956 0.9823
9.8987 10.7023 -3.3274 0.9419
6.5615 10.2785 -2.7833 0.9512
5.1887 9.9900 -2.5694 0.9549
3.9732 9.6681 -2.3858 0.9580
2.8916 9.3217 -2.2276 0.9607
1.8069 8.4087 -1.9630 0.9653
0.9923 8.0565 -1.8527 0.9672
-1.0121 6.9394 -1.6006 0.9716
-1.5620 6.5547 -1.5380 0.9727
-3.1388 5.7277 -1.4907 0.9736
-4.8958 3.5238 -1.3768 0.9756
-5.1655 3.0596 -1.3703 0.9757
-5.6346 2.0983 -1.3723 0.9756
-3.1659 0.5704 -0.7342 0.9869
-2.9882 -0.2670 -0.7374 0.9877
-3.1004 -0.5586 -0.7743 0.9871
-6.2605 -1.7149 -1.5955 0.9736
-6.2131 -3.6800 -1.7750 0.9707
-6.1221 -4.4064 -1.8541 0.9694
-5.9852 -5.1756 -1.9449 0.9679
-4.2284 -9.6707 -2.5943 0.9575
-3.6132 -10.7921 -2.7974 0.9542
-2.8602 -12.0021 -3.0327 0.9504
-1.9412 -13.3101 -3.3062 0.9461
4.1977 -0.4696 -1.0382 0.9828
5.0052 0.7870 -1.2454 0.9793
9.8406 9.7316 -3.4018 0.9446
8.1908 9.6882 -3.1184 0.9491
2.2479 8.5801 -2.1801 0.9641
1.3081 7.7551 -1.9331 0.9681
-0.6811 6.7704 -1.6726 0.9724
-1.8474 6.4608 -1.6517 0.9727
-3.9404 4.4555 -1.4620 0.9758
-4.5606 3.6015 -1.4284 0.9763
-4.8325 3.1613 -1.4194 0.9765
-5.5078 1.7761 -1.4225 0.9764
-3.3132 0.7507 -0.8350 0.9861
-2.9494 -0.1315 -0.7257 0.9879
-3.0389 -0.4087 -0.7537 0.9874
-3.1571 -0.7153 -0.7957 0.9868
-6.2752 -2.6609 -1.6754 0.9723
-6.2431 -3.3314 -1.7394 0.9713
-6.1730 -4.0382 -1.8131 0.9701
-5.8974 -5.5777 -1.9952 0.9671
-5.6783 -6.4205 -2.1068 0.9653
-5.3931 -7.3196 -2.2348 0.9632
-4.9870 -8.2097 -2.3611 0.9612
-3.9366 -10.2211 -2.6922 0.9559
-3.2555 -11.3852 -2.9106 0.9524
-2.4241 -12.6462 -3.1650 0.9483
4.4469 -1.5442 -1.1571 0.9808
4.2392 -1.0603 -1.0741 0.9822
4.2363 -0.2836 -1.0436 0.9827
4.3696 0.0974 -1.0743 0.9822
10.7422 9.7157 -3.5602 0.9421
8.9913 9.7213 -3.2549 0.9469
7.4359 9.6350 -2.9916 0.9511
4.8136 9.2678 -2.5670 0.9579
2.7086 8.7318 -2.2472 0.9630
1.7538 8.1614 -2.0518 0.9662
0.9370 7.6078 -1.8841 0.9689
-0.9663 6.6254 -1.6457 0.9728
-1.5562 6.5300 -1.6500 0.9727
-3.0030 5.4799 -1.5360 0.9746
-4.1055 4.2450 -1.4516 0.9760
-4.4154 3.8181 -1.4348 0.9762
-5.4094 2.0145 -1.4188 0.9765
-3.8036 1.0419 -0.9694 0.9839
-3.0843 0.5557 -0.7703 0.9872
-2.8807 0.2574 -0.7109 0.9882
-2.8744 0.0000 -0.7574 0.9882
-2.9343 -0.2622 -0.7763 0.9879
-5.9892 -1.6406 -1.6363 0.9746
-5.9150 -3.5034 -1.8115 0.9720
-5.6720 -4.9047 -1.9759 0.9695
-4.9014 -7.3134 -2.3198 0.9642
-4.4357 -8.0941 -2.4321 0.9625
-3.3452 -9.9916 -2.7764 0.9574
-2.6313 -11.0413 -2.9909 0.9541
-1.7734 -12.1593 -3.2379 0.9504
4.7774 -1.9013 -1.3549 0.9790
4.3320 -1.2911 -1.1911 0.9815
4.2940 -0.0957 -1.1318 0.9824
4.5017 0.3013 -1.1889 0.9815
5.0333 0.7914 -1.3426 0.9791
10.5789 8.7437 -3.6164 0.9448
5.0344 8.7199 -2.6531 0.9592
1.2977 7.6930 -2.0557 0.9682
0.5603 7.1696 -1.8950 0.9707
-0.0766 6.8766 -1.8121 0.9720
-1.2504 6.5234 -1.7502 0.9729
-1.7646 6.1714 -1.6913 0.9738
-2.6729 5.4393 -1.5970 0.9752
-3.0739 5.0604 -1.5602 0.9758
-3.7833 4.2779 -1.5048 0.9767
-4.0960 3.8740 -1.4856 0.9769
-4.3829 3.4611 -1.4716 0.9772
-4.8842 2.6063 -1.4587 0.9774
-5.1003 2.1627 -1.4598 0.9773
-3.2212 0.7298 -0.8703 0.9864
-2.8316 0.3808 -0.7528 0.9883
-2.9007 -0.1294 -0.7651 0.9881
-3.0953 -0.7013 -0.8363 0.9870
-5.9973 -1.9339 -1.6604 0.9743
-5.9902 -2.5401 -1.7145 0.9734
-5.9493 -3.1746 -1.7769 0.9725
-5.7500 -4.5407 -1.9306 0.9701
-5.3578 -6.0581 -2.1310 0.9671
-4.6906 -7.7217 -2.3807 0.9633
-4.1909 -8.5283 -2.5039 0.9615
-3.6548 -9.4894 -2.6795 0.9588
-2.2215 -11.5896 -3.1095 0.9524
-1.2815 -12.7381 -3.3734 0.9484
4.4731 -1.5532 -1.2477 0.9806
4.6871 0.5243 -1.2428 0.9807
11.4443 8.6306 -3.7770 0.9424
9.7560 8.8237 -3.4662 0.9470
6.8538 8.8807 -2.9559 0.9547
5.6105 8.7886 -2.7475 0.9578
4.4866 8.6382 -2.5649 0.9605
1.7073 7.9452 -2.1413 0.9669
0.9101 7.3897 -1.9619 0.9697
0.2342 7.0054 -1.8470 0.9714
-0.9646 6.6139 -1.7612 0.9727
-2.4597 5.6256 -1.6179 0.9749
-3.6168 4.4766 -1.5165 0.9765
-3.9429 4.0770 -1.4945 0.9768
-4.2425 3.6687 -1.4779 0.9771
-4.7676 2.8239 -1.4601 0.9773
-3.7366 1.0235 -1.0209 0.9841
-3.0018 0.5408 -0.8037 0.9875
-2.8279 0.0000 -0.7956 0.9883
-2.8819 -0.2575 -0.8141 0.9880
-2.9786 -0.5366 -0.8515 0.9875
-5.7383 -1.5719 -1.6740 0.9756
-5.7081 -2.7265 -1.7798 0.9741
-5.6419 -3.3417 -1.8449 0.9731
-5.5366 -3.9850 -1.9193 0.9721
-5.3875 -4.6588 -2.0040 0.9708
-5.1890 -5.3654 -2.1001 0.9695
-4.9343 -6.1072 -2.2091 0.9679
-4.6153 -6.8866 -2.3325 0.9661
-4.1663 -7.6025 -2.4392 0.9646
-3.1123 -9.2959 -2.7582 0.9601
-1.6302 -11.1774 -3.1781 0.9541
-0.6790 -12.1776 -3.4316 0.9506
0.4412 -13.1958 -3.7148 0.9466
1.7519 -14.2244 -4.0323 0.9422
4.8845 -1.9440 -1.4791 0.9784
4.2254 -0.8588 -1.2131 0.9822
4.5126 0.3021 -1.2725 0.9814
5.1034 0.8025 -1.4535 0.9788
11.1748 7.6711 -3.8136 0.9452
9.6467 7.9732 -3.5212 0.9493
1.9993 7.6311 -2.2195 0.9678
1.2470 7.3926 -2.1093 0.9693
0.5571 7.1297 -2.0121 0.9707
-0.0763 6.8467 -1.9265 0.9719
-1.1946 6.2320 -1.7853 0.9740
-1.6883 5.9046 -1.7279 0.9748
-2.9509 4.8579 -1.5992 0.9767
-3.9396 3.7260 -1.5257 0.9777
-4.2170 3.3302 -1.5118 0.9779
-3.1370 0.7107 -0.9050 0.9867
-2.7751 0.3732 -0.7878 0.9884
-2.8531 -0.1272 -0.8035 0.9882
-3.0353 -0.6877 -0.8756 0.9872
-3.2049 -1.0334 -0.9474 0.9861
-5.0691 -5.7317 -2.1529 0.9687
-4.4209 -7.2778 -2.3958 0.9652
-3.9290 -7.9952 -2.5064 0.9637
4.4998 -1.5625 -1.3402 0.9804
4.2632 -1.0663 -1.2364 0.9819
4.2126 -0.6624 -1.1998 0.9824
4.3875 0.0978 -1.2348 0.9819
4.7027 0.5261 -1.3314 0.9805
8.9290 8.0758 -3.3873 0.9512
7.5835 8.1992 -3.1423 0.9547
6.3521 8.2306 -2.9252 0.9577
5.2268 8.1876 -2.7330 0.9604
2.4009 7.7398 -2.2800 0.9669
0.2337 6.9905 -1.9679 0.9714
-0.3735 6.6986 -1.8876 0.9725
-0.9321 6.3910 -1.8172 0.9735
-1.4465 6.0698 -1.7556 0.9744
-2.3578 5.3925 -1.6559 0.9758
-4.0814 3.5293 -1.5181 0.9778
-4.5886 2.7178 -1.5005 0.9781
-4.8077 2.2964 -1.4991 0.9781
-2.7884 0.2492 -0.7877 0.9884
-2.7824 0.0000 -0.8330 0.9884
-2.9224 -0.5265 -0.8890 0.9877
-5.4998 -2.0481 -1.7570 0.9758
-5.4625 -2.6092 -1.8124 0.9750
-5.3907 -3.1929 -1.8757 0.9742
-4.9276 -5.0951 -2.1220 0.9708
-4.6735 -5.7845 -2.2263 0.9694
-4.3585 -6.5034 -2.3438 0.9678
-3.9322 -7.1753 -2.4496 0.9664
-3.4520 -7.8948 -2.5796 0.9647
-2.9079 -8.6856 -2.7422 0.9625
-2.2644 -9.5017 -2.9243 0.9600
1.5887 -12.8997 -3.8911 0.9472
4.2259 -0.4728 -1.2730 0.9824
4.3114 -0.0961 -1.2911 0.9822
4.5314 0.3033 -1.3596 0.9812
5.2900 0.8318 -1.6032 0.9779
11.6125 6.5331 -3.9890 0.9459
1.8931 7.2260 -2.2363 0.9693
1.1839 7.0186 -2.1309 0.9707
0.5302 6.7849 -2.0375 0.9720
-2.0565 5.3395 -1.7130 0.9764
-2.4619 5.0098 -1.6711 0.9770
-3.1820 4.3186 -1.6060 0.9779
-3.5005 3.9581 -1.5819 0.9782
-3.7934 3.5878 -1.5632 0.9784
-4.7296 2.0055 -1.5380 0.9788
-4.9078 1.5826 -1.5438 0.9787
-3.0564 0.6925 -0.9382 0.9870
-2.7204 0.3659 -0.8218 0.9886
-2.7619 0.1231 -0.8277 0.9885
-2.8771 -0.3869 -0.8691 0.9880
-2.9771 -0.6745 -0.9139 0.9873
-3.1092 -1.0026 -0.9780 0.9865
-5.4853 -2.3260 -1.7837 0.9754
-5.2099 -4.1142 -1.9874 0.9727
-4.8077 -5.4361 -2.1726 0.9702
-3.6971 -7.5234 -2.5096 0.9656
-3.1916 -8.2868 -2.6586 0.9636
-1.0829 -10.7645 -3.2389 0.9558
-0.1295 -11.6275 -3.4813 0.9526
2.2453 -13.3109 -4.0413 0.9452
4.2221 -0.6639 -1.2796 0.9823
4.3966 0.0980 -1.3166 0.9818
4.7476 0.5311 -1.4302 0.9803
10.8926 6.7839 -3.8418 0.9478
8.2252 7.4393 -3.3203 0.9547
5.9150 7.6643 -2.8984 0.9604
3.9435 7.5926 -2.5614 0.9649
3.0724 7.4762 -2.4199 0.9668
1.5313 7.1259 -2.1820 0.9700
0.8504 6.9048 -2.0828 0.9714
0.2227 6.6595 -1.9948 0.9726
-0.3565 6.3938 -1.9171 0.9736
-1.8414 5.5001 -1.7364 0.9761
-2.2632 5.1760 -1.6912 0.9767
-3.3445 4.1396 -1.5933 0.9780
-4.1873 3.0139 -1.5446 0.9787
-4.4210 2.6186 -1.5383 0.9788
-4.8214 1.7955 -1.5403 0.9787
-3.5598 0.9751 -1.1050 0.9847
-2.8473 0.5130 -0.8662 0.9880
-2.7380 0.0000 -0.8695 0.9886
-2.7827 -0.2487 -0.8873 0.9883
-5.2351 -2.5006 -1.8425 0.9759
-4.1266 -6.1574 -2.3540 0.9694
-3.7248 -6.7969 -2.4615 0.9680
-3.2492 -7.4312 -2.5758 0.9665
-2.7271 -8.1454 -2.7280 0.9646
-1.4019 -9.6118 -3.0848 0.9601
0.3706 -11.0848 -3.5223 0.9545
1.4522 -11.7907 -3.7728 0.9514
4.2495 -0.8637 -1.3772 0.9820
9.3621 6.4267 -3.6064 0.9535
3.3020 7.1156 -2.4913 0.9676
2.5207 7.0064 -2.3647 0.9692
-0.0695 6.2367 -1.9808 0.9742
-1.5522 5.4284 -1.7931 0.9766
-1.9753 5.1289 -1.7455 0.9772
-3.6564 3.4582 -1.5983 0.9791
-4.1536 2.7172 -1.5763 0.9794
-4.7326 1.5261 -1.5792 0.9793
-2.9791 0.6749 -0.9701 0.9873
-2.6672 0.3587 -0.8547 0.9888
-2.7186 0.1212 -0.8643 0.9886
-2.7612 -0.1231 -0.8778 0.9885
-2.8255 -0.3800 -0.9054 0.9881
-2.9205 -0.6617 -0.9510 0.9875
-3.1071 -1.0019 -1.0368 0.9864
-5.2603 -2.2305 -1.8146 0.9763
-5.2013 -2.7755 -1.8723 0.9756
-5.1068 -3.3407 -1.9380 0.9747
-4.9730 -3.9271 -2.0124 0.9738
-4.2893 -5.8215 -2.2965 0.9701
-3.4887 -7.0993 -2.5121 0.9673
-2.9988 -7.7862 -2.6498 0.9656
-1.7716 -9.2423 -2.9886 0.9613
-0.1194 -10.7178 -3.4040 0.9560
2.0455 -12.1263 -3.9055 0.9497
3.3404 -12.7502 -4.1859 0.9462
4.7799 -13.2861 -4.4842 0.9425
4.5667 -1.5857 -1.5353 0.9799
4.2890 -1.0728 -1.4041 0.9816
4.4242 0.0986 -1.4054 0.9816
11.2352 5.6774 -3.9978 0.9485
9.9739 6.2118 -3.7316 0.9519
7.6188 6.8908 -3.2624 0.9578
6.5401 7.0711 -3.0589 0.9604
4.5899 7.1899 -2.7090 0.9648
0.8100 6.5764 -2.1043 0.9726
-2.5517 4.6563 -1.6863 0.9780
-2.9000 4.3271 -1.6543 0.9784
-3.5175 3.6371 -1.6069 0.9790
-3.7893 3.2767 -1.5910 0.9792
-4.2638 2.5254 -1.5738 0.9794
-4.6497 1.7316 -1.5758 0.9794
-3.4730 0.9513 -1.1436 0.9850
-2.7749 0.4999 -0.8954 0.9882
-2.6951 0.2408 -0.8593 0.9887
-2.7374 -0.2446 -0.9234 0.9885
-2.8971 -0.7936 -1.0092 0.9874
-5.0703 -1.8882 -1.8178 0.9774
-4.8273 -3.4745 -1.9983 0.9752
-4.6710 -4.0392 -2.0747 0.9743
-4.4703 -4.6223 -2.1605 0.9732
-4.2205 -5.2238 -2.2564 0.9721
-3.9161 -5.8432 -2.3633 0.9708
-3.0687 -7.0183 -2.5736 0.9682
-1.9825 -8.3188 -2.8732 0.9646
-0.5364 -9.6206 -3.2374 0.9602
3.6756 -11.8488 -4.1681 0.9490
5.0163 -12.2063 -4.4339 0.9458
6.4553 -12.4287 -4.7055 0.9426
4.2803 -0.8700 -1.4675 0.9817
4.6051 0.3083 -1.5507 0.9807
11.9746 4.1580 -4.2589 0.9479
10.8546 4.8908 -4.0001 0.9510
9.7396 5.4794 -3.7546 0.9539
8.6496 5.9377 -3.5250 0.9567
5.6445 6.6764 -2.9374 0.9638
3.9094 6.7714 -2.6270 0.9675
2.3915 6.6473 -2.3735 0.9706
1.0736 6.3648 -2.1687 0.9731
0.4828 6.1781 -2.0821 0.9742
-2.2783 4.6363 -1.7356 0.9784
-2.6291 4.3280 -1.7014 0.9789
-2.9533 4.0083 -1.6728 0.9792
-3.2525 3.6777 -1.6495 0.9795
-3.5276 3.3364 -1.6313 0.9797
-4.0092 2.6227 -1.6097 0.9800
-4.4031 1.8671 -1.6069 0.9800
-4.5679 1.4729 -1.6125 0.9800
-5.0821 -1.6388 -1.7941 0.9777
-4.9880 -2.6617 -1.8996 0.9764
-4.7544 -3.7545 -2.0354 0.9748
-4.3519 -4.9208 -2.2071 0.9727
-4.0755 -5.5313 -2.3084 0.9714
-3.7414 -6.1592 -2.4213 0.9700
-3.3003 -6.7159 -2.5142 0.9689
-2.2849 -7.9908 -2.7924 0.9655
-0.1107 -9.9377 -3.3391 0.9589
0.8244 -10.5499 -3.5554 0.9563
1.8767 -11.1256 -3.7908 0.9535
4.3325 -12.0425 -4.2999 0.9474
4.2596 -0.6698 -1.4487 0.9820
4.3033 -0.2881 -1.4491 0.9820
4.4550 0.0993 -1.4972 0.9814
4.8507 0.5426 -1.6399 0.9796
11.4155 4.5433 -4.1280 0.9495
9.1905 5.7239 -3.6377 0.9553
8.1185 6.1225 -3.4164 0.9580
4.3224 6.7710 -2.6989 0.9667
2.7514 6.6952 -2.4320 0.9699
1.3855 6.4477 -2.2158 0.9726
0.7728 6.2748 -2.1241 0.9737
0.2031 6.0753 -2.0423 0.9747
-1.2751 5.3506 -1.8481 0.9771
-2.7944 4.1696 -1.6864 0.9790
-3.8972 2.8050 -1.6133 0.9799
-4.3127 2.0600 -1.6058 0.9800
-2.7169 0.4895 -0.9275 0.9884
-2.6518 -0.0000 -0.9403 0.9888
-2.6931 -0.2407 -0.9588 0.9886
-2.7668 -0.4985 -0.9969 0.9881
-4.8768 -1.8161 -1.8453 0.9782
-4.8265 -2.3054 -1.8966 0.9776
-4.7437 -2.8097 -1.9550 0.9769
-4.6255 -3.3292 -2.0208 0.9761
-4.4686 -3.8641 -2.0947 0.9752
-4.2690 -4.4141 -2.1774 0.9743
-4.0224 -4.9786 -2.2695 0.9732
-3.3628 -6.1364 -2.4812 0.9707
-2.4210 -7.2312 -2.7040 0.9682
-1.2265 -8.4096 -3.0135 0.9646
-0.5007 -8.9801 -3.1892 0.9625
0.3184 -9.5247 -3.3792 0.9604
1.2352 -10.0289 -3.5830 0.9580
3.3666 -10.8530 -4.0292 0.9529
4.5702 -11.1209 -4.2633 0.9503
5.8494 -11.2622 -4.4999 0.9476
7.1822 -11.2508 -4.7330 0.9449
4.4869 -1.3372 -1.6602 0.9803
4.3139 -0.8769 -1.5609 0.9815
4.2947 -0.4804 -1.5323 0.9818
4.3907 -0.0979 -1.5573 0.9815
4.6435 0.3108 -1.6502 0.9804
12.7629 2.0069 -4.5812 0.9466
10.9532 3.8034 -4.1113 0.9520
9.9817 4.4975 -3.8821 0.9546
8.0303 5.5125 -3.4538 0.9595
6.1749 6.1065 -3.0794 0.9638
5.3043 6.2740 -2.9132 0.9657
4.4779 6.3699 -2.7610 0.9675
2.2737 6.3198 -2.3815 0.9719
1.0251 6.0771 -2.1853 0.9742
-0.0637 5.7165 -2.0271 0.9760
-0.5534 5.5015 -1.9606 0.9768
-1.4341 5.0152 -1.8496 0.9781
-1.8287 4.7481 -1.8042 0.9786
-2.1951 4.4670 -1.7648 0.9791
-2.5349 4.1730 -1.7313 0.9795
-3.1394 3.5498 -1.6803 0.9801
-3.6506 2.8829 -1.6494 0.9805
-3.8731 2.5337 -1.6411 0.9805
-4.0741 2.1740 -1.6374 0.9806
-4.4125 1.4229 -1.6440 0.9805
-2.5615 0.5804 -0.9313 0.9889
-2.5748 0.3463 -0.9212 0.9890
-2.6346 0.1175 -0.9351 0.9889
-2.6733 -0.1192 -0.9489 0.9887
-2.7260 -0.3666 -0.9753 0.9884
-2.8093 -0.6365 -1.0214 0.9878
-2.8709 -0.9258 -1.0696 0.9873
-4.8556 -2.0589 -1.8701 0.9779
-4.7894 -2.5557 -1.9249 0.9772
-4.6893 -3.0676 -1.9869 0.9765
-4.5521 -3.5947 -2.0567 0.9757
-4.3743 -4.1372 -2.1349 0.9748
-4.1518 -4.6946 -2.2222 0.9738
-3.8800 -5.2659 -2.3193 0.9726
-3.1313 -6.3721 -2.5175 0.9703
-2.6708 -6.9346 -2.6350 0.9690
-2.1525 -7.5278 -2.7762 0.9673
-0.8750 -8.6974 -3.0995 0.9636
0.7644 -9.7828 -3.4794 0.9592
2.7979 -10.6796 -3.9147 0.9542
3.9579 -11.0012 -4.1456 0.9516
6.5109 -11.2771 -4.6173 0.9462
4.7622 -1.6536 -1.7875 0.9788
4.3707 -1.0932 -1.5975 0.9811
8.5134 5.3022 -3.5563 0.9583
7.5550 5.6975 -3.3553 0.9606
6.6257 5.9926 -3.1678 0.9628
4.8855 6.3303 -2.8354 0.9666
4.0819 6.3942 -2.6899 0.9683
3.3244 6.4006 -2.5574 0.9699
1.9456 6.2722 -2.3286 0.9725
1.3216 6.1502 -2.2305 0.9737
0.7386 5.9966 -2.1424 0.9747
0.1945 5.8160 -2.0634 0.9756
-0.3129 5.6115 -1.9929 0.9764
-0.7856 5.3865 -1.9302 0.9772
-1.2257 5.1431 -1.8748 0.9778
-2.3683 4.3216 -1.7474 0.9793
-2.9973 3.7098 -1.6911 0.9800
-3.2757 3.3871 -1.6708 0.9802
-3.5312 3.0536 -1.6553 0.9804
-3.7646 2.7096 -1.6447 0.9805
-4.3359 1.6147 -1.6406 0.9806
-2.5828 0.7075 -0.9496 0.9887
-2.6060 0.2329 -0.9277 0.9890
-2.6498 -0.2368 -0.9934 0.9887
-2.7878 -0.7637 -1.0794 0.9877
-4.6954 -1.7486 -1.8710 0.9788
-4.6422 -2.2174 -1.9211 0.9783
-4.5572 -2.6993 -1.9778 0.9776
-4.0829 -4.2216 -2.1930 0.9752
-2.7595 -6.3111 -2.5720 0.9710
-0.4691 -8.4135 -3.1466 0.9647
2.0837 -9.6969 -3.7036 0.9585
3.1013 -9.9978 -3.9088 0.9563
4.1929 -10.2029 -4.1190 0.9540
6.5300 -10.2290 -4.5316 0.9495
11.8965 -7.4092 -5.2334 0.9419
4.5496 -1.3559 -1.7727 0.9799
4.3485 -0.8839 -1.6570 0.9812
4.3247 -0.4838 -1.6250 0.9816
4.7225 0.3161 -1.7674 0.9800
11.6372 1.8298 -4.3989 0.9509
10.0782 3.4996 -3.9837 0.9555
8.3549 4.7004 -3.5796 0.9599
6.6334 5.4827 -3.2135 0.9639
5.8010 5.7367 -3.0465 0.9658
4.9995 5.9134 -2.8915 0.9675
3.5050 6.0708 -2.6176 0.9705
2.8158 6.0678 -2.4979 0.9718
2.1657 6.0197 -2.3889 0.9731
0.9802 5.8112 -2.2006 0.9752
0.4423 5.6604 -2.1201 0.9760
-0.0611 5.4838 -2.0478 0.9769
-0.9709 5.0654 -1.9259 0.9782
-1.3806 4.8283 -1.8752 0.9788
-2.7512 3.7340 -1.7319 0.9804
-3.2917 3.1133 -1.6918 0.9808
-3.5288 2.7867 -1.6790 0.9810
-3.9391 2.1020 -1.6672 0.9811
-4.1129 1.7440 -1.6682 0.9811
-4.2657 1.3755 -1.6736 0.9810
-2.5436 0.5763 -0.9739 0.9889
-2.5325 0.3406 -0.9542 0.9891
-2.5920 0.1156 -0.9689 0.9890
-2.6781 -0.3602 -1.0090 0.9885
-2.8043 -0.9043 -1.1002 0.9875
-4.6726 -1.9814 -1.8952 0.9786
-4.5020 -2.9451 -2.0089 0.9773
-3.3818 -5.5671 -2.4323 0.9726
-2.9803 -6.0647 -2.5233 0.9716
-2.5301 -6.5691 -2.6286 0.9704
-0.8212 -8.1631 -3.0636 0.9656
-0.0964 -8.6562 -3.2325 0.9637
1.6056 -9.5184 -3.6045 0.9596
5.9327 -10.2758 -4.4307 0.9506
8.3227 -9.8442 -4.8136 0.9464
9.4737 -9.3688 -4.9753 0.9447
10.5422 -8.7134 -5.1071 0.9433
5.0463 -1.7523 -1.9947 0.9774
4.4143 -1.1041 -1.6991 0.9808
4.3192 -0.6792 -1.6326 0.9815
4.3610 -0.2919 -1.6321 0.9815
4.5304 0.1010 -1.6921 0.9808
11.2743 2.2916 -4.2960 0.9521
10.4912 3.1267 -4.0878 0.9543
8.7912 4.4424 -3.6780 0.9588
7.9187 4.9318 -3.4835 0.9610
7.0592 5.3236 -3.3015 0.9630
4.6118 5.9756 -2.8186 0.9683
3.8643 6.0533 -2.6817 0.9698
3.1555 6.0754 -2.5564 0.9712
1.8552 5.9806 -2.3382 0.9736
1.2626 5.8758 -2.2442 0.9747
0.7069 5.7393 -2.1593 0.9756
0.1864 5.5751 -2.0830 0.9765
-1.9428 4.4433 -1.8108 0.9795
-2.8948 3.5830 -1.7200 0.9805
-3.1650 3.2726 -1.7000 0.9807
-3.8444 2.2771 -1.6685 0.9811
-4.0286 1.9243 -1.6671 0.9811
-4.1919 1.5611 -1.6703 0.9811
-3.4442 0.9434 -1.3335 0.9849
-2.6096 0.4702 -0.9901 0.9887
-2.5629 0.2290 -0.9608 0.9891
-2.6073 -0.2330 -1.0273 0.9888
-2.6685 -0.4808 -1.0642 0.9884
-2.7221 -0.7457 -1.1077 0.9879
-4.4694 -2.1348 -1.9440 0.9789
-4.2627 -3.0680 -2.0612 0.9777
-4.1062 -3.5508 -2.1305 0.9769
-3.9103 -4.0432 -2.2075 0.9761
-3.3856 -5.0517 -2.3867 0.9742
-2.6244 -6.0022 -2.5710 0.9722
-2.1715 -6.4859 -2.6844 0.9710
-1.0873 -7.4549 -2.9568 0.9681
2.8721 -9.2586 -3.8046 0.9592
3.8661 -9.4076 -3.9918 0.9572
4.9087 -9.4509 -4.1797 0.9553
8.0998 -8.7574 -4.6818 0.9500
9.0873 -8.2189 -4.8088 0.9487
9.9792 -7.5257 -4.9054 0.9477
10.7413 -6.6897 -4.9664 0.9471
11.7900 -4.6924 -4.9803 0.9469
4.6615 -1.3893 -1.9090 0.9793
4.3966 -0.8937 -1.7608 0.9809
4.3687 -0.4887 -1.7253 0.9813
4.8281 0.3232 -1.8991 0.9794
10.6832 1.6799 -4.2444 0.9546
10.0368 2.5104 -4.0605 0.9565
8.5682 3.8606 -3.6884 0.9604
7.0025 4.8070 -3.3335 0.9642
5.4658 5.4053 -3.0170 0.9675
4.7245 5.5882 -2.8720 0.9690
3.3296 5.7670 -2.6135 0.9718
1.4858 5.6711 -2.3009 0.9751
0.9387 5.5648 -2.2149 0.9760
0.4242 5.4288 -2.1371 0.9769
-0.0587 5.2668 -2.0672 0.9776
-0.5112 5.0817 -2.0045 0.9783
-0.9347 4.8763 -1.9487 0.9789
-2.3626 3.8894 -1.7860 0.9806
-3.1833 3.0108 -1.7196 0.9813
-3.8112 2.0338 -1.6954 0.9816
-4.1267 1.3307 -1.7017 0.9815
-2.5568 0.5793 -1.0289 0.9888
-2.5490 0.1137 -1.0014 0.9891
-4.5010 -1.9086 -1.9188 0.9792
-4.3271 -2.8306 -2.0294 0.9780
-4.1892 -3.3081 -2.0950 0.9773
-4.0134 -3.7958 -2.1680 0.9765
-3.7964 -4.2927 -2.2491 0.9757
-3.5346 -4.7972 -2.3386 0.9747
-3.2239 -5.3073 -2.4372 0.9737
-2.8441 -5.7876 -2.5309 0.9727
-1.3837 -7.2189 -2.8848 0.9689
-0.7731 -7.6851 -3.0314 0.9674
1.4960 -8.8688 -3.5299 0.9621
3.3622 -9.3454 -3.8980 0.9582
5.4418 -9.4254 -4.2715 0.9543
7.5814 -8.9674 -4.6087 0.9508
8.6032 -8.5079 -4.7487 0.9493
10.3785 -7.1244 -4.9406 0.9473
11.5952 -5.2246 -4.9914 0.9468
11.9374 -4.1451 -4.9595 0.9471
4.4803 -1.1206 -1.8126 0.9804
4.3607 -0.6857 -1.7325 0.9812
4.6063 0.1027 -1.8083 0.9804
10.3698 2.1078 -4.1531 0.9555
8.9502 3.5621 -3.7807 0.9595
8.1804 4.1337 -3.5972 0.9614
7.3957 4.6061 -3.4195 0.9633
6.6194 4.9919 -3.2538 0.9650
4.3642 5.6548 -2.8034 0.9698
1.7718 5.7119 -2.3471 0.9746
0.1789 5.3508 -2.1012 0.9773
-2.5134 3.7503 -1.7719 0.9808
-3.0603 3.1644 -1.7277 0.9813
-3.3010 2.8545 -1.7128 0.9814
-3.7195 2.2031 -1.6967 0.9816
-3.8978 1.8618 -1.6953 0.9816
-4.0556 1.5103 -1.6985 0.9816
-2.5634 0.4618 -1.0222 0.9889
-2.5207 0.2252 -0.9932 0.9892
-2.6210 -0.4722 -1.0967 0.9885
-2.6410 -0.7234 -1.1276 0.9882
-2.6436 -0.9845 -1.1616 0.9879
-4.2191 -2.4990 -2.0193 0.9790
-4.0987 -2.9501 -2.0795 0.9784
-3.7497 -3.8771 -2.2210 0.9769
-3.5150 -4.3506 -2.3031 0.9761
-3.2358 -4.8282 -2.3934 0.9752
-2.5004 -5.7186 -2.5701 0.9734
-1.0278 -7.0471 -2.9326 0.9697
0.2617 -7.8272 -3.2249 0.9667
1.0042 -8.1533 -3.3828 0.9651
1.8096 -8.4211 -3.5468 0.9634
4.5349 -8.7312 -4.0514 0.9583
5.5041 -8.6219 -4.2121 0.9567
6.4719 -8.3858 -4.3619 0.9552
7.4126 -8.0142 -4.4953 0.9539
9.7891 -6.0967 -4.7488 0.9513
10.7422 -4.2753 -4.7609 0.9512
4.4662 -0.9078 -1.8767 0.9805
4.5493 -0.1014 -1.8738 0.9805
4.9944 0.3343 -2.0612 0.9786
9.2980 2.3256 -3.9467 0.9594
7.2886 4.1005 -3.4437 0.9645
6.5808 4.5175 -3.2869 0.9661
5.1636 5.1064 -2.9904 0.9691
4.4752 5.2933 -2.8543 0.9705
3.1689 5.4887 -2.6098 0.9730
2.5570 5.5102 -2.5014 0.9741
1.9746 5.4885 -2.4019 0.9751
1.4223 5.4288 -2.3109 0.9760
0.9000 5.3355 -2.2281 0.9769
-0.9007 4.6987 -1.9701 0.9795
-1.2831 4.4874 -1.9219 0.9800
-1.6405 4.2594 -1.8795 0.9804
-2.2835 3.7591 -1.8111 0.9812
-2.8363 3.2071 -1.7630 0.9817
-3.6898 1.9690 -1.7222 0.9821
-3.8525 1.6336 -1.7231 0.9821
-3.9948 1.2882 -1.7284 0.9820
-2.4504 0.3295 -1.0181 0.9894
-2.5479 -0.1136 -1.0502 0.9890
-2.5854 -0.3477 -1.0742 0.9888
-2.6300 -0.5959 -1.1104 0.9884
-4.3395 -1.8401 -1.9409 0.9798
-4.2670 -2.2769 -1.9916 0.9793
-4.1632 -2.7234 -2.0485 0.9787
-3.3812 -4.5890 -2.3472 0.9756
-2.7183 -5.5316 -2.5380 0.9737
-2.2876 -5.9396 -2.6209 0.9728
-1.8271 -6.3897 -2.7366 0.9717
-1.3098 -6.8331 -2.8650 0.9704
-0.0852 -7.6461 -3.1487 0.9675
0.6249 -7.9968 -3.3030 0.9659
4.0566 -8.7417 -3.9684 0.9592
7.8637 -7.7766 -4.5541 0.9533
9.4598 -6.4938 -4.7249 0.9516
10.5626 -4.7593 -4.7706 0.9511
10.8805 -3.7781 -4.7428 0.9514
4.5676 -1.1425 -1.9388 0.9798
4.4227 -0.6954 -1.8435 0.9808
4.6858 0.1044 -1.9300 0.9799
10.1157 1.1316 -4.1914 0.9569
9.5904 1.9493 -4.0299 0.9585
8.9894 2.6791 -3.8625 0.9602
7.6424 3.8619 -3.5260 0.9636
6.9318 4.3172 -3.3627 0.9653
5.5147 4.9877 -3.0619 0.9683
4.8169 5.2080 -2.9212 0.9698
2.8593 5.5052 -2.5545 0.9735
2.2621 5.5044 -2.4505 0.9746
1.6947 5.4631 -2.3553 0.9756
0.6500 5.2776 -2.1896 0.9773
0.1719 5.1412 -2.1182 0.9780
-0.2777 4.9803 -2.0540 0.9787
-0.6997 4.7975 -1.9964 0.9792
-1.0951 4.5952 -1.9452 0.9798
-1.4649 4.3753 -1.9000 0.9802
-2.4299 3.6257 -1.7973 0.9813
-3.1949 2.7627 -1.7392 0.9819
-3.5072 0.9607 -1.4974 0.9844
-2.4893 0.0000 -1.0738 0.9892
-2.5389 -0.4574 -1.1128 0.9888
-3.9450 -2.8394 -2.0966 0.9790
-3.7907 -3.2779 -2.1617 0.9784
-3.3695 -4.1705 -2.3128 0.9769
-2.7786 -5.0704 -2.4941 0.9751
-2.3893 -5.4645 -2.5727 0.9744
-1.9637 -5.8654 -2.6681 0.9734
-0.9738 -6.6769 -2.9106 0.9710
-0.3928 -7.0452 -3.0437 0.9697
0.2467 -7.3773 -3.1841 0.9684
0.9438 -7.6632 -3.3305 0.9669
2.4973 -8.0506 -3.6359 0.9639
3.3400 -8.1274 -3.7903 0.9624
4.2119 -8.1094 -3.9418 0.9610
5.9781 -7.7461 -4.2207 0.9583
9.4861 -4.7935 -4.5846 0.9548
9.8543 -3.9219 -4.5750 0.9548
4.4941 -0.5028 -1.9507 0.9805
8.6523 2.1641 -3.8472 0.9619
8.0892 2.8089 -3.6937 0.9634
7.4808 3.3707 -3.5394 0.9649
6.2025 4.2578 -3.2452 0.9678
4.2479 5.0245 -2.8381 0.9717
3.6238 5.1549 -2.7181 0.9729
3.0211 5.2327 -2.6064 0.9740
2.4425 5.2634 -2.5029 0.9750
1.8895 5.2521 -2.4077 0.9760
1.3632 5.2034 -2.3203 0.9768
0.3915 5.0104 -2.1679 0.9783
-0.8686 4.5313 -1.9902 0.9801
-1.5847 4.1144 -1.9019 0.9810
-1.9077 3.8821 -1.8658 0.9813
-2.4876 3.3762 -1.8090 0.9819
-2.7456 3.1045 -1.7877 0.9821
-3.3972 2.2223 -1.7511 0.9825
-3.5745 1.9074 -1.7477 0.9825
-3.7319 1.5825 -1.7485 0.9825
-3.8695 1.2477 -1.7538 0.9824
-2.4106 0.3242 -1.0492 0.9895
-2.5665 -0.8276 -1.1632 0.9883
-2.6695 -1.1320 -1.2508 0.9874
-4.0092 -2.6227 -2.0666 0.9793
-3.4898 -3.9460 -2.2723 0.9773
-2.5984 -5.2877 -2.5414 0.9747
-2.1812 -5.6634 -2.6179 0.9739
-1.2425 -6.4820 -2.8469 0.9717
-0.6906 -6.8650 -2.9762 0.9704
0.5881 -7.5267 -3.2566 0.9676
2.0908 -7.9805 -3.5586 0.9647
2.9142 -8.1000 -3.7133 0.9632
4.6542 -8.0613 -4.0153 0.9603
6.4095 -7.5812 -4.2823 0.9577
7.2397 -7.1595 -4.3921 0.9566
8.6834 -5.9608 -4.5432 0.9552
9.2501 -5.2040 -4.5782 0.9548
9.6879 -4.3652 -4.5836 0.9548
4.4935 -0.7066 -1.9621 0.9804
4.5340 -0.3035 -1.9602 0.9804
4.8294 0.1076 -2.0837 0.9792
7.7897 3.1002 -3.6165 0.9641
7.1647 3.6205 -3.4627 0.9656
6.5174 4.0591 -3.3120 0.9671
5.2154 4.7170 -3.0333 0.9698
4.5668 4.9376 -2.9012 0.9711
3.9334 5.0966 -2.7771 0.9723
3.3196 5.2001 -2.6612 0.9735
2.1627 5.2627 -2.4543 0.9755
1.6230 5.2321 -2.3630 0.9764
0.1653 4.9449 -2.1342 0.9787
-1.0566 4.4336 -1.9660 0.9803
-2.8668 2.9643 -1.7788 0.9822
-3.0940 2.6755 -1.7644 0.9823
-3.3011 2.3760 -1.7544 0.9824
-3.8032 1.4163 -1.7506 0.9825
-2.4719 0.4453 -1.0835 0.9891
-2.4387 0.2179 -1.0561 0.9894
-2.4592 -0.4431 -1.1275 0.9891
-2.4890 -0.9270 -1.1984 0.9884
-4.0094 -1.9151 -2.0049 0.9807
-3.9202 -2.3220 -2.0559 0.9802
-3.8003 -2.7353 -2.1128 0.9797
-2.9676 -4.4280 -2.4052 0.9769
-0.3721 -6.6733 -3.0158 0.9711
0.8896 -7.2227 -3.2836 0.9686
2.3413 -7.5476 -3.5657 0.9659
5.5489 -7.1899 -4.0980 0.9609
6.3278 -6.8415 -4.2050 0.9599
7.0581 -6.3837 -4.2941 0.9591
7.7184 -5.8207 -4.3620 0.9585
8.2885 -5.1621 -4.4059 0.9581
8.7508 -4.4220 -4.4240 0.9579
9.0920 -3.6185 -4.4154 0.9580
9.3046 -2.7731 -4.3809 0.9583
4.6975 -0.9548 -2.1629 0.9792
4.7728 -0.1064 -2.1541 0.9793
8.5282 1.3410 -3.8954 0.9628
7.5768 2.6309 -3.6190 0.9654
7.0255 3.1656 -3.4770 0.9667
6.4434 3.6250 -3.3359 0.9681
5.8574 4.0209 -3.2058 0.9693
5.2479 4.3375 -3.0721 0.9706
4.6397 4.5883 -2.9443 0.9718
-0.4571 4.5441 -2.0607 0.9802
-0.8383 4.3734 -2.0093 0.9806
-1.1963 4.1837 -1.9634 0.9811
-1.5317 3.9771 -1.9230 0.9815
-2.4085 3.2688 -1.8321 0.9823
-2.8900 2.7334 -1.7949 0.9827
-3.1010 2.4489 -1.7829 0.9828
-3.2925 2.1539 -1.7753 0.9829
-2.3567 0.3169 -1.0730 0.9896
-2.4395 -0.1088 -1.1018 0.9893
-2.4521 -0.3298 -1.1164 0.9892
-2.4671 -0.5590 -1.1414 0.9890
-3.7282 -2.9441 -2.1435 0.9794
-3.3515 -3.7896 -2.2827 0.9780
-3.1059 -4.2154 -2.3626 0.9773
-2.8185 -4.6399 -2.4496 0.9765
-2.4866 -5.0601 -2.5440 0.9756
-2.0829 -5.4080 -2.6149 0.9749
-0.6549 -6.5102 -2.9523 0.9717
1.2361 -7.3282 -3.3533 0.9679
2.7285 -7.5839 -3.6367 0.9652
3.5235 -7.5929 -3.7770 0.9639
4.3352 -7.5087 -3.9122 0.9627
5.1478 -7.3229 -4.0390 0.9615
6.7004 -6.6261 -4.2520 0.9595
8.5340 -4.8012 -4.4183 0.9579
9.2147 -3.1997 -4.4014 0.9581
5.0008 -1.2508 -2.3260 0.9776
4.6131 -0.7254 -2.1071 0.9797
5.1189 0.1141 -2.3103 0.9778
8.7230 0.9758 -3.9605 0.9622
7.3058 2.9077 -3.5480 0.9661
5.5530 4.1877 -3.1382 0.9699
3.7446 4.8521 -2.7655 0.9735
1.5563 5.0169 -2.3701 0.9772
1.0661 4.9611 -2.2896 0.9780
0.6004 4.8745 -2.2161 0.9787
-0.6506 4.4612 -2.0343 0.9804
-2.7771 2.8715 -1.8025 0.9826
-2.9980 2.5925 -1.7884 0.9828
-3.3810 2.0026 -1.7731 0.9829
-2.4063 0.4335 -1.1032 0.9893
-2.3816 -0.4291 -1.1407 0.9894
-3.7832 -2.2408 -2.0727 0.9807
-3.6640 -2.6371 -2.1280 0.9802
-3.5129 -3.0377 -2.1891 0.9797
-1.7899 -5.3465 -2.6578 0.9754
-0.3532 -6.3339 -2.9903 0.9723
0.2207 -6.6017 -3.1136 0.9712
2.2018 -7.0979 -3.5031 0.9677
2.9299 -7.1295 -3.6334 0.9665
4.4292 -6.9382 -3.8801 0.9643
5.1719 -6.7014 -3.9903 0.9633
7.6862 -4.7870 -4.2683 0.9607
8.1125 -4.0995 -4.2846 0.9606
8.6326 -2.5728 -4.2461 0.9609
5.0291 -1.0222 -2.4191 0.9776
4.7446 -0.5308 -2.2505 0.9791
8.3029 0.5558 -3.9225 0.9639
7.9761 1.2542 -3.8059 0.9649
7.5767 1.8951 -3.6815 0.9661
7.1189 2.4720 -3.5522 0.9672
6.6167 2.9813 -3.4209 0.9684
6.0828 3.4221 -3.2899 0.9696
4.4109 4.3621 -2.9242 0.9729
2.7582 4.7773 -2.6003 0.9759
1.7366 4.8269 -2.4181 0.9776
1.2566 4.7963 -2.3372 0.9783
0.7985 4.7336 -2.2628 0.9790
-0.0504 4.5252 -2.1332 0.9802
-0.4411 4.3850 -2.0774 0.9807
-1.1563 4.0439 -1.9826 0.9816
-1.7858 3.6341 -1.9087 0.9823
-2.0696 3.4070 -1.8791 0.9825
-2.3332 3.1666 -1.8541 0.9828
-2.8014 2.6496 -1.8176 0.9831
-3.0066 2.3743 -1.8059 0.9832
-3.1927 2.0886 -1.7984 0.9833
-3.3597 1.7928 -1.7950 0.9833
-3.5076 1.4873 -1.7959 0.9833
-2.2973 0.3089 -1.0926 0.9898
-2.3694 -0.1057 -1.1180 0.9896
-3.4248 -3.2391 -2.2220 0.9794
-3.2220 -3.6431 -2.2925 0.9787
-1.5784 -5.5202 -2.7064 0.9749
-0.6223 -6.1857 -2.9305 0.9729
-0.0721 -6.4729 -3.0514 0.9718
0.5251 -6.7193 -3.1770 0.9706
1.8481 -7.0540 -3.4373 0.9683
3.3017 -7.1150 -3.6974 0.9659
4.8028 -6.8321 -3.9366 0.9637
5.5342 -6.5459 -4.0406 0.9628
6.2293 -6.1603 -4.1297 0.9620
6.8692 -5.6775 -4.2008 0.9614
7.9123 -4.4514 -4.2794 0.9606
8.2857 -3.7333 -4.2838 0.9606
8.6892 -2.1733 -4.2221 0.9612
4.8243 -0.3230 -2.2792 0.9788
8.1495 0.9117 -3.8654 0.9644
7.7846 1.5823 -3.7445 0.9655
6.8726 2.7352 -3.4867 0.9678
6.3530 3.2103 -3.3553 0.9690
3.5707 4.6266 -2.7548 0.9745
3.0251 4.7388 -2.6501 0.9754
2.4955 4.8048 -2.5521 0.9763
1.4939 4.8158 -2.3768 0.9779
0.5778 4.6914 -2.2281 0.9793
-0.2486 4.4578 -2.1046 0.9805
-0.6281 4.3069 -2.0516 0.9809
-0.9857 4.1361 -2.0043 0.9814
-2.2039 3.2884 -1.8660 0.9826
-2.4576 3.0418 -1.8433 0.9829
-2.6917 2.7832 -1.8251 0.9830
-2.9064 2.5133 -1.8112 0.9832
-3.6932 1.0117 -1.8050 0.9832
-2.3094 -0.2064 -1.1404 0.9897
-2.3175 -0.6348 -1.1819 0.9893
-2.3278 -0.8669 -1.2217 0.9890
-3.6535 -2.1640 -2.0886 0.9812
-3.5351 -2.5444 -2.1423 0.9808
-3.2041 -3.3130 -2.2669 0.9797
-2.9875 -3.6976 -2.3381 0.9790
-2.7341 -4.0795 -2.4155 0.9783
-1.7127 -5.1155 -2.6533 0.9762
-1.2956 -5.4365 -2.7488 0.9754
-0.8378 -5.7443 -2.8552 0.9745
0.7959 -6.4625 -3.2027 0.9714
1.4200 -6.6081 -3.3244 0.9703
2.0761 -6.6928 -3.4466 0.9692
4.8381 -6.2688 -3.8948 0.9653
5.4988 -5.9452 -3.9832 0.9645
6.1165 -5.5320 -4.0564 0.9639
7.8503 -3.1244 -4.1558 0.9630
8.0425 -2.3969 -4.1277 0.9633
8.1276 -1.6520 -4.0793 0.9637
8.1074 -0.9069 -4.0125 0.9643
7.9873 -0.1780 -3.9295 0.9650
7.4840 1.1768 -3.7262 0.9668
7.1236 1.7817 -3.6117 0.9678
5.7556 3.2381 -3.2482 0.9710
4.7317 3.9109 -3.0193 0.9730
4.2005 4.1540 -2.9057 0.9740
3.6717 4.3428 -2.7971 0.9750
0.3496 4.4741 -2.2073 0.9802
-0.4260 4.2343 -2.0932 0.9812
-0.7825 4.0821 -2.0443 0.9816
-1.4338 3.7229 -1.9622 0.9824
-1.7293 3.5190 -1.9285 0.9827
-2.0050 3.3008 -1.8995 0.9829
-2.2614 3.0692 -1.8751 0.9831
-2.7168 2.5696 -1.8393 0.9835
-2.9164 2.3031 -1.8278 0.9836
-3.2595 1.7393 -1.8172 0.9837
-3.5274 1.1375 -1.8229 0.9836
-2.2893 0.1021 -1.1271 0.9898
-2.3142 -0.5243 -1.1671 0.9895
-2.3173 -0.7472 -1.1976 0.9892
-3.7017 -1.9753 -2.0637 0.9815
-3.5980 -2.3537 -2.1147 0.9810
-3.1002 -3.5054 -2.3017 0.9794
-2.8655 -3.8891 -2.3760 0.9787
-2.5930 -4.2686 -2.4565 0.9780
-2.2806 -4.6409 -2.5434 0.9772
-1.9087 -4.9560 -2.6122 0.9766
-0.5923 -5.8876 -2.9104 0.9740
-0.0685 -6.1487 -3.0245 0.9730
2.4140 -6.7097 -3.5073 0.9687
3.8020 -6.5852 -3.7400 0.9667
4.4967 -6.3966 -3.8458 0.9657
5.1728 -6.1184 -3.9407 0.9649
6.4040 -5.2930 -4.0864 0.9636
6.9265 -4.7549 -4.1323 0.9632
7.3674 -4.1448 -4.1578 0.9630
7.7146 -3.4760 -4.1619 0.9630
8.1304 -1.2784 -4.0481 0.9640
8.0593 -0.5395 -3.9729 0.9646
7.6392 0.8546 -3.7808 0.9663
7.3115 1.4861 -3.6697 0.9673
6.9216 2.0629 -3.5524 0.9683
6.0048 3.0344 -3.3092 0.9705
5.5184 3.4369 -3.1976 0.9714
4.9962 3.7678 -3.0779 0.9725
3.9355 4.2550 -2.8507 0.9745
3.4098 4.4182 -2.7450 0.9754
2.3910 4.6035 -2.5515 0.9771
1.9043 4.6338 -2.4641 0.9779
1.4355 4.6274 -2.3830 0.9786
0.1479 4.4229 -2.1766 0.9805
-1.2786 3.8190 -1.9809 0.9822
-1.5841 3.6228 -1.9448 0.9825
-1.8696 3.4116 -1.9135 0.9828
-2.1356 3.1865 -1.8868 0.9830
-2.6101 2.6988 -1.8466 0.9834
-2.8189 2.4377 -1.8330 0.9835
-3.1807 1.8839 -1.8183 0.9837
-3.4675 1.2913 -1.8199 0.9836
-2.2658 0.2025 -1.1189 0.9899
-2.2481 -0.6158 -1.1950 0.9896
-2.2593 -0.8414 -1.2360 0.9892
-3.5305 -2.0911 -2.1036 0.9817
-1.6405 -4.8998 -2.6490 0.9770
-1.2383 -5.1961 -2.7385 0.9763
-0.7994 -5.4808 -2.8396 0.9754
0.1991 -5.9556 -3.0550 0.9736
0.7552 -6.1320 -3.1674 0.9726
1.9623 -6.3258 -3.3955 0.9707
4.5403 -5.8831 -3.8098 0.9671
5.1532 -5.5716 -3.8908 0.9665
7.6054 -1.5458 -3.9788 0.9657
7.5944 -0.8496 -3.9177 0.9662
7.4917 -0.1670 -3.8417 0.9669
7.3046 0.4890 -3.7532 0.9676
7.0422 1.1074 -3.6547 0.9685
6.7153 1.6796 -3.5488 0.9694
6.3349 2.1997 -3.4379 0.9703
5.4573 3.0702 -3.2101 0.9722
4.9972 3.4304 -3.1074 0.9731
4.5047 3.7233 -2.9962 0.9741
3.5079 4.1492 -2.7855 0.9759
2.0594 4.4378 -2.5082 0.9782
1.6027 4.4548 -2.4272 0.9789
0.7406 4.3905 -2.2827 0.9802
0.3372 4.3152 -2.2190 0.9807
-0.0469 4.2147 -2.1609 0.9812
-0.7567 3.9474 -2.0606 0.9821
-1.0822 3.7847 -2.0181 0.9825
-1.3884 3.6048 -1.9804 0.9828
-1.9434 3.1993 -1.9191 0.9833
-2.1928 2.9760 -1.8951 0.9835
-2.4235 2.7404 -1.8755 0.9837
-2.4709 0.5598 -1.2989 0.9887
-2.2318 0.0995 -1.1453 0.9900
-2.2376 -0.0998 -1.1483 0.9900
-2.2425 -0.5081 -1.1788 0.9897
-2.2530 -0.7265 -1.2136 0.9894
-2.2673 -0.9614 -1.2625 0.9890
-2.3836 -1.2719 -1.3851 0.9879
-3.4754 -2.2735 -2.1291 0.9815
-3.3433 -2.6402 -2.1840 0.9810
-3.1807 -3.0083 -2.2444 0.9805
-2.7562 -3.7408 -2.3821 0.9793
-1.8326 -4.7581 -2.6140 0.9773
-1.4434 -5.0479 -2.6916 0.9767
-1.0239 -5.3418 -2.7884 0.9758
-0.5646 -5.6126 -2.8919 0.9750
-0.0652 -5.8508 -2.9997 0.9740
0.4727 -6.0496 -3.1109 0.9731
1.0461 -6.2017 -3.2244 0.9721
1.6504 -6.2995 -3.3386 0.9712
2.2794 -6.3357 -3.4519 0.9702
2.9249 -6.3029 -3.5623 0.9692
5.4453 -5.3850 -3.9262 0.9662
5.9918 -4.9523 -3.9852 0.9657
6.4761 -4.4456 -4.0271 0.9653
6.8855 -3.8737 -4.0503 0.9651
7.2096 -3.2485 -4.0540 0.9651
7.4407 -2.5837 -4.0381 0.9652
7.5749 -1.8946 -4.0031 0.9655
7.6117 -1.1969 -3.9502 0.9660
7.5541 -0.5057 -3.8814 0.9665
6.5311 1.9465 -3.4938 0.9698
6.1281 2.4389 -3.3813 0.9708
5.6880 2.8743 -3.2672 0.9718
5.2389 3.2628 -3.1641 0.9726
4.7521 3.5838 -3.0514 0.9736
4.2558 3.8492 -2.9419 0.9745
3.7567 4.0617 -2.8365 0.9754
1.8291 4.4508 -2.4669 0.9786
1.3805 4.4504 -2.3889 0.9793
0.9494 4.4179 -2.3166 0.9799
0.1427 4.2679 -2.1892 0.9810
-0.2317 4.1557 -2.1338 0.9815
-1.2377 3.6968 -1.9986 0.9826
-1.5342 3.5090 -1.9634 0.9829
-2.3104 2.8597 -1.8848 0.9836
-2.5320 2.6181 -1.8673 0.9838
-2.7353 2.3653 -1.8539 0.9839
-2.9203 2.1019 -1.8446 0.9840
-3.0870 1.8285 -1.8394 0.9840
-3.2354 1.5454 -1.8382 0.9840
-3.4764 0.9523 -1.8479 0.9839
-2.2585 0.4069 -1.1765 0.9897
-2.2093 0.1974 -1.1372 0.9901
-2.1765 -0.0000 -1.1619 0.9902
-2.1873 -0.5992 -1.2107 0.9898
-2.1932 -0.8167 -1.2494 0.9894
-2.9769 -3.0781 -2.2860 0.9808
-2.7695 -3.4279 -2.3526 0.9802
-1.9398 -4.4365 -2.5849 0.9783
-1.5730 -4.6981 -2.6449 0.9778
-0.3051 -5.4715 -2.9255 0.9755
0.7179 -5.8287 -3.1351 0.9737
1.8586 -5.9916 -3.3489 0.9720
2.4590 -5.9836 -3.4535 0.9711
3.0685 -5.9079 -3.5539 0.9703
3.6770 -5.7599 -3.6480 0.9695
5.8569 -4.4169 -3.9161 0.9673
6.6180 -3.3442 -3.9584 0.9669
7.1388 -1.4510 -3.8889 0.9675
7.1352 -0.7982 -3.8329 0.9680
7.0470 -0.1570 -3.7629 0.9685
5.9962 2.0821 -3.3885 0.9716
5.6059 2.5259 -3.2824 0.9725
4.7565 3.2651 -3.0799 0.9742
4.2952 3.5501 -2.9748 0.9750
2.4282 4.2058 -2.5926 0.9782
-0.3979 3.9556 -2.1223 0.9821
-0.7321 3.8193 -2.0760 0.9825
-1.0478 3.6643 -2.0345 0.9829
-1.3450 3.4922 -1.9978 0.9832
-1.8846 3.1023 -1.9378 0.9837
-2.7473 2.1696 -1.8688 0.9843
-2.9184 1.9091 -1.8617 0.9843
-3.2067 1.3598 -1.8594 0.9843
-2.4373 0.5522 -1.3341 0.9887
-2.1681 0.2916 -1.1679 0.9901
-2.1735 0.0969 -1.1615 0.9902
-2.1810 -0.2933 -1.1748 0.9901
-2.1806 -0.4941 -1.1936 0.9899
-2.1912 -0.7066 -1.2291 0.9896
-3.3589 -2.1973 -2.1427 0.9820
-3.2285 -2.5495 -2.1961 0.9815
-2.8773 -3.2534 -2.3186 0.9805
-2.3949 -3.9426 -2.4626 0.9793
-2.1008 -4.2749 -2.5428 0.9786
-1.3833 -4.8378 -2.6861 0.9774
-0.5390 -5.3581 -2.8748 0.9759
-0.0621 -5.5761 -2.9769 0.9750
0.4497 -5.7555 -3.0819 0.9742
1.5646 -5.9721 -3.2957 0.9724
2.1571 -5.9957 -3.4016 0.9715
2.7632 -5.9545 -3.5044 0.9707
3.3736 -5.8432 -3.6019 0.9699
6.0743 -4.1698 -3.9332 0.9671
7.1014 -0.4754 -3.7995 0.9682
6.9730 0.1554 -3.7234 0.9689
6.5014 1.3215 -3.5417 0.9704
5.8056 2.3106 -3.3357 0.9721
5.3983 2.7279 -3.2289 0.9729
4.9821 3.1029 -3.1333 0.9737
4.0613 3.6732 -2.9233 0.9755
3.5909 3.8824 -2.8232 0.9763
3.1213 4.0445 -2.7273 0.9771
1.7584 4.2788 -2.4696 0.9792
0.5175 4.2021 -2.2602 0.9810
-0.2239 4.0162 -2.1473 0.9819
-2.0081 2.9963 -1.9255 0.9838
-2.2417 2.7745 -1.9042 0.9840
