ply
format ascii 1.0
element vertex 1584
property float32 x
property float32 y
property float32 z
property float32 I
end_header
-9.9801 3.7166 -0.4428 0.9583
-10.7743 1.9411 -0.4552 0.9571
-11.1707 0.9982 -0.4663 0.9561
-10.7607 0.0000 -0.6267 0.9578
-1.7220 -2.5693 -0.1801 0.9877
-1.0140 -2.3192 -0.1474 0.9899
-0.7691 -2.2973 -0.1411 0.9903
-0.5527 -2.3193 -0.1389 0.9905
-0.1350 -2.4203 -0.1412 0.9903
0.3330 -2.7042 -0.1587 0.9891
0.6582 -3.0628 -0.1825 0.9875
-1.4776 14.6875 -0.8598 0.9426
-2.5498 13.3021 -0.7889 0.9472
-4.2294 10.9814 -0.6854 0.9539
-5.2296 10.6420 -0.6906 0.9536
-7.4758 7.0705 -0.5993 0.9596
-7.9295 6.2619 -0.5885 0.9603
-9.1445 3.8776 -0.5785 0.9610
-9.5163 3.0686 -0.5824 0.9607
-9.8780 2.2381 -0.5899 0.9602
-11.2931 -1.5187 -0.6637 0.9554
-11.8411 -3.8182 -0.7246 0.9514
-12.2217 -5.1824 -0.7732 0.9482
-1.4849 -2.4445 -0.1666 0.9886
-0.8888 -2.3078 -0.1440 0.9901
-0.6601 -2.3084 -0.1398 0.9904
-0.2403 -2.3884 -0.1398 0.9904
0.2027 -2.5937 -0.1515 0.9896
0.4776 -2.8317 -0.1673 0.9886
1.1812 5.4966 -0.3274 0.9777
-4.8773 11.1547 -0.7091 0.9524
-6.7287 8.3282 -0.6236 0.9580
-7.2366 7.4826 -0.6063 0.9591
-8.1455 5.8628 -0.5845 0.9606
-8.5596 5.0699 -0.5794 0.9609
-8.9536 4.2768 -0.5779 0.9610
-9.3319 3.4752 -0.5800 0.9609
-10.4092 0.9301 -0.6087 0.9590
-10.3589 -0.9257 -0.7794 0.9591
-10.8248 -2.9652 -0.8411 0.9560
-11.0944 -4.1316 -0.8872 0.9536
-11.3921 -5.4415 -0.9461 0.9506
-11.6980 -6.9287 -1.0189 0.9469
-12.0227 -8.6534 -1.1101 0.9423
-1.3053 -2.3819 -0.2035 0.9892
-1.0140 -2.3190 -0.1897 0.9899
-0.7695 -2.2985 -0.1816 0.9903
-0.5530 -2.3205 -0.1788 0.9905
-0.3442 -2.3598 -0.1787 0.9905
-1.3402 13.3224 -1.0034 0.9477
-3.9094 10.1507 -0.8152 0.9573
-7.0048 6.6251 -0.7225 0.9621
-8.2252 4.3891 -0.6987 0.9633
-9.2648 2.0991 -0.7119 0.9626
-9.5862 1.2892 -0.7249 0.9619
-9.8995 0.4414 -0.7426 0.9610
-10.2068 -0.4551 -0.7656 0.9598
-10.5104 -1.4135 -0.7947 0.9584
-10.7908 -2.4449 -0.8292 0.9566
-11.2425 -4.7672 -0.9151 0.9522
-11.8562 -7.7559 -1.0617 0.9448
-1.1481 -2.3363 -0.1951 0.9896
-0.8887 -2.3076 -0.1853 0.9901
-0.6604 -2.3096 -0.1800 0.9904
-0.4468 -2.3312 -0.1779 0.9905
0.2029 -2.5959 -0.1951 0.9896
0.4775 -2.8305 -0.2151 0.9886
-3.5552 10.6189 -0.8392 0.9561
-5.1707 9.4354 -0.8063 0.9578
-6.2887 7.7836 -0.7499 0.9607
-8.4084 4.0163 -0.6983 0.9633
-8.7617 3.2629 -0.7006 0.9632
-9.7437 0.8707 -0.7331 0.9615
-9.6981 -0.8666 -0.8926 0.9616
-10.0861 -2.7629 -0.9587 0.9589
-10.2929 -3.8331 -1.0069 0.9568
-10.5186 -5.0243 -1.0687 0.9543
-10.9507 -7.8818 -1.2369 0.9472
-11.1651 -9.6548 -1.3532 0.9424
-1.7392 -2.5951 -0.2864 0.9875
-1.3075 -2.3859 -0.2494 0.9891
-1.0139 -2.3189 -0.2320 0.9899
-0.7700 -2.2998 -0.2223 0.9903
-0.5533 -2.3217 -0.2188 0.9905
-0.3446 -2.3626 -0.2189 0.9905
-0.1353 -2.4260 -0.2228 0.9903
0.6576 -3.0600 -0.2869 0.9875
1.4526 5.5447 -0.5255 0.9772
-0.1481 13.2955 -1.2190 0.9480
-2.1458 11.1946 -1.0450 0.9552
-2.9396 10.2804 -0.9803 0.9580
-3.6339 9.4351 -0.9269 0.9602
-4.5271 9.2124 -0.9410 0.9596
-5.1180 8.4253 -0.9038 0.9612
-5.6526 7.6717 -0.8736 0.9624
-6.1403 6.9429 -0.8497 0.9635
-6.5886 6.2315 -0.8314 0.9642
-8.0926 3.4315 -0.8058 0.9653
-4.2496 0.5715 -0.3931 0.9829
-9.5664 -0.4266 -0.8779 0.9623
-10.1774 -3.2818 -0.9804 0.9580
-0.6608 -2.3108 -0.2203 0.9904
-0.4471 -2.3324 -0.2177 0.9905
0.4791 -2.8400 -0.2640 0.9885
1.1766 5.4754 -0.5134 0.9778
0.4649 13.9047 -1.2755 0.9456
-0.7095 12.7246 -1.1684 0.9501
-1.7032 11.6782 -1.0820 0.9537
-3.2977 9.8498 -0.9523 0.9591
-5.3917 8.0449 -0.8879 0.9618
-5.9018 7.3047 -0.8609 0.9630
-6.7999 5.8801 -0.8241 0.9645
-7.1999 5.1822 -0.8133 0.9650
-4.1097 0.3672 -0.3783 0.9836
-9.1149 -0.8145 -0.9926 0.9638
-9.7674 -4.6655 -1.1741 0.9574
-9.9208 -5.8761 -1.2507 0.9547
-10.1669 -8.7916 -1.4579 0.9474
-1.7481 -2.6083 -0.3406 0.9874
-1.3128 -2.3955 -0.2963 0.9891
-0.7704 -2.3010 -0.2632 0.9903
-0.3450 -2.3653 -0.2593 0.9904
0.0850 -2.5434 -0.2760 0.9898
0.6623 -3.0819 -0.3419 0.9874
2.4285 14.3973 -1.5837 0.9429
-1.1294 11.2272 -1.2239 0.9556
-1.9877 10.3696 -1.1452 0.9584
-4.2410 8.6303 -1.0430 0.9620
-5.3195 7.2196 -0.9727 0.9646
-6.2180 5.8810 -0.9283 0.9662
-6.6155 5.2242 -0.9143 0.9667
-6.9845 4.5691 -0.9053 0.9670
-7.3286 3.9107 -0.9010 0.9671
-7.6506 3.2442 -0.9014 0.9671
-7.9531 2.5645 -0.9064 0.9669
-4.7637 1.0793 -0.5298 0.9805
-3.7330 0.1664 -0.4053 0.9851
-3.9257 -0.1751 -0.4262 0.9843
-9.2264 -1.2408 -1.0098 0.9632
-9.5068 -3.0655 -1.0834 0.9606
-9.6844 -4.1065 -1.1410 0.9586
-9.9903 -6.5354 -1.2949 0.9531
-10.1141 -7.9870 -1.3979 0.9495
-10.2197 -9.6657 -1.5257 0.9450
-1.4990 -2.4677 -0.3132 0.9885
-0.4474 -2.3342 -0.2578 0.9905
0.4821 -2.8579 -0.3144 0.9884
1.1743 5.4648 -0.6063 0.9778
-0.6516 11.6852 -1.2694 0.9540
-1.5736 10.7894 -1.1827 0.9571
-3.7173 8.5017 -1.0064 0.9634
-4.5310 8.2680 -1.0226 0.9628
-5.0691 7.5635 -0.9876 0.9640
-6.4205 5.5521 -0.9207 0.9664
-7.1594 4.2406 -0.9026 0.9671
-7.4922 3.5787 -0.9006 0.9671
-7.8042 2.9063 -0.9033 0.9670
-3.7414 0.3343 -0.4074 0.9850
-3.5692 -0.0000 -0.4473 0.9857
-8.7850 -1.5827 -1.1186 0.9647
-9.1142 -4.3535 -1.2658 0.9601
-9.2924 -6.6883 -1.4348 0.9549
-9.3353 -8.0725 -1.5466 0.9515
-9.2929 -11.5019 -1.8530 0.9421
-1.3181 -2.4052 -0.3437 0.9890
-0.7708 -2.3022 -0.3042 0.9903
-0.3454 -2.3681 -0.2999 0.9904
3.7085 14.1551 -1.8337 0.9427
2.2032 13.0614 -1.6599 0.9480
0.9447 12.0895 -1.5196 0.9523
-3.9881 8.1156 -1.1332 0.9642
-5.0224 6.8165 -1.0610 0.9664
-5.8858 5.5667 -1.0152 0.9679
-6.2671 4.9491 -1.0007 0.9683
-6.6201 4.3307 -0.9913 0.9686
-7.2531 3.0756 -0.9873 0.9687
-4.3832 0.9931 -0.5632 0.9820
-3.6310 -0.1619 -0.4555 0.9855
-8.6927 -1.1690 -1.0991 0.9653
-8.9181 -2.8757 -1.1742 0.9629
-9.0538 -3.8392 -1.2324 0.9611
-9.1688 -4.8926 -1.3023 0.9590
-9.3420 -8.8356 -1.6114 0.9495
-0.6614 -2.3133 -0.3015 0.9903
-0.2414 -2.3996 -0.3022 0.9903
-0.0277 -2.4882 -0.3118 0.9900
0.2049 -2.6227 -0.3297 0.9895
0.4852 -2.8761 -0.3655 0.9883
1.1737 5.4619 -0.7001 0.9777
0.3892 11.6400 -1.4595 0.9541
-2.2146 9.2929 -1.1972 0.9622
-2.8787 8.5984 -1.1363 0.9641
-3.4712 7.9388 -1.0858 0.9657
-4.2657 7.7840 -1.1123 0.9649
-4.7819 7.1351 -1.0764 0.9660
-5.2523 6.5009 -1.0473 0.9669
-5.6834 5.8766 -1.0245 0.9676
-6.7870 4.0200 -0.9885 0.9687
-7.6727 2.1018 -0.9969 0.9684
-3.8077 0.6860 -0.4848 0.9845
-3.5366 0.3160 -0.4450 0.9858
-3.5138 -0.3140 -0.5018 0.9858
-8.3765 -2.2946 -1.2353 0.9655
-8.4492 -3.1465 -1.2824 0.9642
-8.6351 -6.2151 -1.5133 0.9579
-8.6267 -7.4598 -1.6222 0.9550
-0.7733 -2.3097 -0.3464 0.9902
-0.5542 -2.3254 -0.3400 0.9904
-0.3458 -2.3708 -0.3408 0.9904
0.3377 -2.7416 -0.3929 0.9889
0.6814 -3.1708 -0.4613 0.9870
4.9718 13.8194 -2.0890 0.9424
3.3624 12.8340 -1.8871 0.9478
2.0154 11.9482 -1.7235 0.9522
-0.1158 10.3914 -1.4781 0.9589
-2.3993 8.3908 -1.2413 0.9654
-2.9958 7.7784 -1.1856 0.9669
-3.7628 7.6571 -1.2135 0.9661
-4.7558 6.4545 -1.1404 0.9681
-5.1886 5.8668 -1.1140 0.9689
-6.8934 2.9231 -1.0650 0.9702
-3.3671 0.4528 -0.4832 0.9864
-3.4470 -0.1537 -0.4908 0.9862
-8.3688 -1.8961 -1.2205 0.9659
-8.5762 -4.5764 -1.3827 0.9615
-8.6241 -5.6416 -1.4658 0.9592
-8.6362 -6.8199 -1.5652 0.9565
-8.5220 -9.6360 -1.8297 0.9494
-1.5132 -2.4911 -0.4146 0.9883
-0.6622 -2.3160 -0.3426 0.9903
-0.4485 -2.3397 -0.3388 0.9904
-0.0278 -2.4934 -0.3547 0.9900
0.4883 -2.8946 -0.4175 0.9882
4.1296 13.3126 -1.9825 0.9452
1.1739 5.4629 -0.7948 0.9777
0.3597 10.7586 -1.5311 0.9574
-0.5596 10.0362 -1.4297 0.9602
-1.3647 9.3571 -1.3450 0.9625
-2.0749 8.7066 -1.2731 0.9645
-3.2726 7.4847 -1.1619 0.9675
-4.5245 6.7510 -1.1560 0.9677
-4.9769 6.1600 -1.1264 0.9685
-5.7729 4.9920 -1.0855 0.9696
-6.1247 4.4083 -1.0733 0.9700
-7.2887 1.9966 -1.0749 0.9699
-3.6717 0.6615 -0.5307 0.9850
-3.3916 -0.3031 -0.5422 0.9863
-7.9692 -2.9678 -1.3541 0.9661
-8.0327 -3.8369 -1.4175 0.9646
-8.0159 -6.9316 -1.6875 0.9580
-7.9182 -8.1874 -1.8137 0.9549
-7.7563 -9.6001 -1.9653 0.9512
-1.0259 -2.3464 -0.4078 0.9897
-0.3462 -2.3737 -0.3820 0.9903
0.6914 -3.2175 -0.5240 0.9868
6.2083 13.3786 -2.3486 0.9420
4.5043 12.5199 -2.1187 0.9475
3.0741 11.7338 -1.9315 0.9521
0.8067 10.3241 -1.6490 0.9589
-2.2595 7.9019 -1.3087 0.9673
-3.5606 7.2457 -1.2856 0.9678
-4.9316 5.5762 -1.1854 0.9703
-5.3142 5.0261 -1.1647 0.9708
-5.6663 4.4747 -1.1497 0.9712
-5.9909 3.9191 -1.1400 0.9714
-6.2902 3.3566 -1.1353 0.9715
-6.5663 2.7844 -1.1357 0.9715
-6.8205 2.1993 -1.1411 0.9714
-3.2540 0.4376 -0.5228 0.9868
-3.3343 -0.1487 -0.5315 0.9866
-3.4817 -0.4683 -0.5594 0.9859
-7.9371 -2.5594 -1.3280 0.9668
-8.0046 -3.3942 -1.3845 0.9654
-8.0686 -5.2782 -1.5353 0.9617
-8.0448 -6.3529 -1.6323 0.9593
-7.6504 -10.3833 -2.0537 0.9491
-1.5204 -2.5030 -0.4663 0.9882
-0.6649 -2.3255 -0.3851 0.9903
-0.0278 -2.4985 -0.3979 0.9899
0.2064 -2.6411 -0.4218 0.9893
0.3343 9.9980 -1.5929 0.9603
-0.5225 9.3705 -1.4944 0.9627
-1.2792 8.7710 -1.4114 0.9647
-1.9511 8.1872 -1.3402 0.9665
-3.1792 7.2711 -1.2637 0.9684
-4.2923 6.4047 -1.2277 0.9693
-4.7277 5.8516 -1.1979 0.9700
-5.1269 5.3012 -1.1743 0.9706
-6.1436 3.6388 -1.1370 0.9715
-6.4311 3.0719 -1.1349 0.9715
-6.6960 2.4937 -1.1378 0.9715
-4.5041 1.2338 -0.7436 0.9813
-3.5501 0.6396 -0.5744 0.9855
-3.1939 -0.0000 -0.5632 0.9871
-7.4561 -1.3433 -1.3359 0.9697
-7.5331 -2.0635 -1.3772 0.9688
-7.5796 -3.6205 -1.4811 0.9665
-7.5877 -4.4942 -1.5550 0.9648
-1.8379 -2.7424 -0.5821 0.9867
-1.0300 -2.3557 -0.4533 0.9896
-0.7797 -2.3290 -0.4331 0.9901
5.6194 12.1096 -2.3539 0.9472
1.7200 10.1970 -1.8234 0.9589
-0.1009 9.0575 -1.5972 0.9639
-0.8567 8.5163 -1.5092 0.9658
-1.5307 7.9856 -1.4337 0.9675
-2.1343 7.4640 -1.3689 0.9690
-3.3782 6.8744 -1.3506 0.9694
-4.2961 5.8308 -1.2771 0.9710
-5.4052 4.2685 -1.2144 0.9724
-5.7171 3.7399 -1.2046 0.9726
-3.8238 0.8663 -0.6913 0.9842
-3.1779 0.4274 -0.5654 0.9871
-3.1644 0.1411 -0.5585 0.9872
-3.3507 -0.4506 -0.5961 0.9864
-7.5090 -1.7013 -1.3576 0.9692
-7.5629 -3.2070 -1.4485 0.9672
-7.5880 -4.0491 -1.5165 0.9657
-7.5779 -4.9572 -1.5967 0.9639
-7.2676 -8.2176 -1.9344 0.9564
-1.1684 -2.3776 -0.4671 0.9893
-0.2424 -2.4100 -0.4271 0.9902
6.4718 12.4604 -2.4758 0.9446
1.1743 5.4649 -0.9856 0.9776
1.2198 9.9039 -1.7595 0.9603
0.3120 9.3345 -1.6468 0.9628
-0.4898 8.7848 -1.5514 0.9649
-1.2034 8.2514 -1.4703 0.9667
-1.8405 7.7233 -1.4000 0.9683
-2.4131 7.2075 -1.3402 0.9696
-3.6235 6.6121 -1.3295 0.9698
-4.8859 5.0520 -1.2392 0.9719
-5.2393 4.5306 -1.2213 0.9723
-5.5644 4.0050 -1.2089 0.9725
-6.1384 2.9321 -1.1995 0.9727
-4.2904 1.1753 -0.7844 0.9821
-3.4372 0.6192 -0.6158 0.9859
-3.1510 0.2816 -0.5578 0.9872
-3.3117 -0.5966 -0.6512 0.9864
-7.1501 -2.6627 -1.4765 0.9694
-6.8644 -7.0977 -1.9108 0.9606
-6.6496 -8.2304 -2.0476 0.9578
-1.3401 -2.4454 -0.5396 0.9887
-0.7830 -2.3388 -0.4773 0.9900
-0.3491 -2.3936 -0.4681 0.9902
-0.1371 -2.4583 -0.4765 0.9900
0.7126 -3.3159 -0.6563 0.9863
5.1300 11.0549 -2.3584 0.9516
3.7863 10.5242 -2.1644 0.9555
2.6210 10.0044 -2.0014 0.9587
-0.8074 8.0256 -1.5609 0.9677
-2.5422 6.6008 -1.3688 0.9716
-3.2126 6.5375 -1.4096 0.9708
-3.6742 6.0485 -1.3695 0.9716
-5.1658 4.0794 -1.2738 0.9735
-5.7409 3.0635 -1.2593 0.9738
-5.9928 2.5411 -1.2597 0.9738
-3.1273 -0.1395 -0.6058 0.9873
-3.2339 -0.4349 -0.6315 0.9868
-7.1392 -1.6175 -1.4166 0.9706
-7.1714 -3.8268 -1.5730 0.9674
-7.1411 -4.6715 -1.6514 0.9658
-6.9468 -6.5702 -1.8504 0.9618
-6.7657 -7.6502 -1.9764 0.9592
-6.5138 -8.8406 -2.1251 0.9562
-1.5460 -2.5450 -0.5763 0.9879
-0.6705 -2.3448 -0.4720 0.9901
-0.4535 -2.3659 -0.4662 0.9902
-0.0280 -2.5138 -0.4865 0.9898
0.2079 -2.6599 -0.5163 0.9892
7.5771 11.8692 -2.7250 0.9442
5.8816 11.3241 -2.4694 0.9493
4.4335 10.7882 -2.2571 0.9536
1.1748 5.4669 -1.0821 0.9775
1.1386 9.2447 -1.8025 0.9628
0.2926 8.7506 -1.6943 0.9650
-1.1354 7.7848 -1.5224 0.9685
-1.7412 7.3063 -1.4535 0.9699
-2.2881 6.8341 -1.3947 0.9711
-3.4486 6.2929 -1.3887 0.9712
-4.6653 4.8238 -1.2986 0.9730
-5.0060 4.3289 -1.2807 0.9734
-5.3190 3.8284 -1.2682 0.9737
-5.6065 3.3207 -1.2610 0.9738
-5.8697 2.8037 -1.2588 0.9738
-3.3306 0.6000 -0.6549 0.9863
-3.0211 0.0000 -0.6369 0.9877
-3.0994 -0.2770 -0.6560 0.9874
-3.2303 -0.5820 -0.6920 0.9867
-6.8048 -3.2504 -1.5898 0.9696
-6.7775 -4.0143 -1.6607 0.9683
-6.7108 -4.8302 -1.7431 0.9668
-6.5984 -5.7059 -1.8391 0.9650
-6.2030 -7.6775 -2.0809 0.9605
-1.3512 -2.4656 -0.5927 0.9886
-1.0383 -2.3747 -0.5464 0.9895
-0.7864 -2.3488 -0.5222 0.9899
-0.3508 -2.4053 -0.5124 0.9901
-0.1379 -2.4734 -0.5223 0.9899
0.0866 -2.5888 -0.5461 0.9895
4.7166 10.1639 -2.3622 0.9552
1.4979 8.8804 -1.8986 0.9639
0.6602 8.4484 -1.7865 0.9660
-0.0893 8.0168 -1.6902 0.9678
-1.9193 6.7123 -1.4718 0.9719
-2.4825 6.4457 -1.4562 0.9722
-3.0616 6.2302 -1.4635 0.9720
-3.5061 5.7719 -1.4237 0.9728
-4.2872 4.8476 -1.3643 0.9739
-5.2343 3.4242 -1.3186 0.9748
-5.4987 2.9342 -1.3139 0.9748
-5.9584 1.9213 -1.3198 0.9747
-3.5520 0.8048 -0.7678 0.9852
-2.9940 0.1335 -0.6318 0.9878
-3.1545 -0.4242 -0.6710 0.9871
-6.8020 -1.5411 -1.4703 0.9719
-6.7973 -2.1918 -1.5057 0.9712
-6.7958 -3.6263 -1.6239 0.9690
-6.7495 -4.4153 -1.7003 0.9676
-6.6608 -5.2600 -1.7893 0.9659
-6.5227 -6.1691 -1.8927 0.9640
-6.0609 -8.2259 -2.1541 0.9591
-1.5683 -2.5819 -0.6369 0.9877
-0.9072 -2.3555 -0.5321 0.9897
-0.2448 -2.4337 -0.5157 0.9901
-0.0282 -2.5296 -0.5333 0.9897
0.2096 -2.6822 -0.5672 0.9891
5.3871 10.3722 -2.4640 0.9533
4.0903 9.9532 -2.2686 0.9570
1.0671 8.6644 -1.8404 0.9649
-0.4350 7.8012 -1.6472 0.9686
-1.0742 7.3651 -1.5691 0.9700
-2.1746 6.4953 -1.4440 0.9724
-2.8240 6.4588 -1.4861 0.9716
-3.2888 6.0012 -1.4427 0.9724
-4.4624 4.6141 -1.3533 0.9741
-4.7913 4.1432 -1.3354 0.9744
-5.0930 3.6657 -1.3229 0.9747
-5.3695 3.1803 -1.3156 0.9748
-5.6221 2.6854 -1.3135 0.9749
-5.8518 2.1793 -1.3164 0.9748
-4.0001 1.0957 -0.8744 0.9832
-3.2435 0.5843 -0.6948 0.9866
-2.9810 0.2664 -0.6310 0.9878
-3.0430 -0.2719 -0.6973 0.9875
-6.5180 -1.7855 -1.5425 0.9727
-6.4777 -2.4123 -1.5777 0.9720
-6.3513 -4.5714 -1.7861 0.9684
-6.0493 -6.2549 -1.9861 0.9649
-5.8104 -7.1915 -2.1102 0.9628
-1.3661 -2.4928 -0.6488 0.9884
-0.3525 -2.4172 -0.5575 0.9900
0.0871 -2.6058 -0.5951 0.9894
7.0302 10.0007 -2.7902 0.9511
3.2601 9.0616 -2.1980 0.9613
0.6220 7.9603 -1.8224 0.9678
-1.8263 6.3871 -1.5162 0.9731
-3.3518 5.5178 -1.4735 0.9739
-4.4375 4.1970 -1.3941 0.9753
-4.7416 3.7444 -1.3790 0.9755
-5.5057 2.3346 -1.3649 0.9758
-2.9625 0.3984 -0.6823 0.9878
-2.9994 -0.1337 -0.6853 0.9878
-3.0959 -0.4164 -0.7130 0.9873
-6.4774 -2.7467 -1.6058 0.9715
-6.4553 -3.4447 -1.6700 0.9704
-6.3963 -4.1842 -1.7445 0.9691
-6.1450 -5.8119 -1.9305 0.9659
-1.5916 -2.6201 -0.6997 0.9875
-1.1869 -2.4153 -0.6142 0.9890
-0.9108 -2.3649 -0.5784 0.9897
-0.6762 -2.3648 -0.5614 0.9900
2.7562 8.8852 -2.1233 0.9626
1.0037 8.1496 -1.8741 0.9669
-0.4116 7.3812 -1.6873 0.9701
-1.0188 6.9857 -1.6113 0.9715
-1.5698 6.5872 -1.5456 0.9726
-2.0715 6.1872 -1.4892 0.9736
-2.6945 6.1625 -1.5351 0.9728
-3.5526 5.3008 -1.4565 0.9742
-4.2753 4.4206 -1.4036 0.9751
-5.3929 2.5760 -1.3641 0.9758
-3.8726 1.0608 -0.9165 0.9837
-2.9221 -0.0000 -0.7183 0.9880
-2.9882 -0.2670 -0.7374 0.9877
-3.1004 -0.5586 -0.7743 0.9871
-6.2287 -1.7063 -1.5874 0.9737
-6.1858 -2.3036 -1.6225 0.9732
-6.1657 -2.9451 -1.6795 0.9722
-6.1154 -3.6221 -1.7471 0.9711
-6.0259 -4.3372 -1.8249 0.9699
-5.1477 -7.6807 -2.2727 0.9626
-1.0509 -2.4034 -0.6448 0.9893
-0.7932 -2.3692 -0.6141 0.9898
-0.5674 -2.3810 -0.6016 0.9900
-0.1397 -2.5047 -0.6166 0.9897
0.0878 -2.6258 -0.6458 0.9892
0.3523 -2.8604 -0.7084 0.9882
7.8777 9.3178 -2.9991 0.9510
6.4473 9.1714 -2.7556 0.9549
5.1788 8.9699 -2.5459 0.9582
3.0462 8.4669 -2.2118 0.9636
1.3246 7.8530 -1.9575 0.9677
-0.0800 7.1775 -1.7643 0.9709
-1.2380 6.4585 -1.6164 0.9733
-1.7413 6.0898 -1.5569 0.9742
-2.7958 5.6894 -1.5582 0.9742
-3.2094 5.2834 -1.5195 0.9749
-3.5893 4.8714 -1.4873 0.9754
-4.2588 4.0279 -1.4408 0.9761
-4.5526 3.5952 -1.4259 0.9764
-5.0663 2.7035 -1.4115 0.9766
-5.2883 2.2424 -1.4119 0.9766
-2.8899 0.3887 -0.7167 0.9881
-2.9494 -0.1315 -0.7257 0.9879
-3.1571 -0.7153 -0.7957 0.9868
-6.1775 -2.6195 -1.6493 0.9727
-0.4603 -2.4011 -0.6009 0.9900
-0.0285 -2.5623 -0.6299 0.9895
0.2134 -2.7313 -0.6734 0.9888
0.5196 -3.0803 -0.7678 0.9872
8.6616 9.3649 -3.1355 0.9488
7.1407 9.2525 -2.8728 0.9530
4.6047 8.8656 -2.4556 0.9597
0.9471 7.6894 -1.9043 0.9686
-0.3903 7.0005 -1.7234 0.9715
-0.9685 6.6408 -1.6496 0.9727
-2.5755 5.8903 -1.5802 0.9739
-3.4033 5.0781 -1.5026 0.9751
-3.7675 4.6630 -1.4735 0.9756
-4.6901 3.3757 -1.4204 0.9765
-4.9468 2.9300 -1.4132 0.9766
-5.3909 2.0076 -1.4140 0.9766
-3.0843 0.5557 -0.7703 0.9872
-3.0385 -0.5474 -0.8135 0.9873
-5.9620 -1.6332 -1.6289 0.9748
-5.9167 -2.2034 -1.6637 0.9742
-5.7300 -4.1242 -1.8603 0.9712
-5.5891 -4.8331 -1.9470 0.9699
-5.1506 -6.3750 -2.1596 0.9667
-4.8365 -7.2166 -2.2891 0.9647
-1.3974 -2.5499 -0.7662 0.9880
-1.0610 -2.4267 -0.6979 0.9891
-0.7975 -2.3822 -0.6620 0.9897
-0.5699 -2.3913 -0.6477 0.9899
-0.3561 -2.4417 -0.6502 0.9898
-0.1406 -2.5208 -0.6653 0.9896
10.8862 8.9977 -3.7215 0.9433
7.2272 8.5483 -2.9496 0.9548
5.9548 8.4709 -2.7284 0.9581
4.8112 8.3332 -2.5355 0.9610
0.9560 5.6676 -1.5145 0.9765
-0.0759 6.8145 -1.7957 0.9722
-0.6530 6.4914 -1.7191 0.9734
-1.1804 6.1582 -1.6522 0.9744
-3.0776 5.0664 -1.5620 0.9758
-3.4448 4.6754 -1.5303 0.9763
-3.7826 4.2769 -1.5045 0.9767
-4.0925 3.8707 -1.4843 0.9770
-4.3767 3.4563 -1.4695 0.9772
-4.6363 3.0329 -1.4599 0.9773
-5.2771 1.7017 -1.4610 0.9773
-2.8515 0.1271 -0.7521 0.9883
-2.9836 -0.4013 -0.7933 0.9876
-5.9021 -2.5027 -1.6892 0.9738
-5.8612 -3.1276 -1.7506 0.9729
-5.7838 -3.7836 -1.8212 0.9718
-5.0025 -6.7894 -2.2222 0.9657
-1.2126 -2.4675 -0.7245 0.9887
-0.9226 -2.3956 -0.6764 0.9894
0.2154 -2.7568 -0.7286 0.9886
0.5354 -3.1740 -0.8481 0.9868
9.4130 8.5135 -3.3443 0.9489
7.9167 8.5594 -3.0722 0.9529
4.2829 8.2460 -2.4484 0.9623
-1.4271 5.9884 -1.6221 0.9749
-2.0127 6.0115 -1.6705 0.9741
-3.2650 4.8718 -1.5454 0.9760
-4.2378 3.6645 -1.4762 0.9771
-4.5095 3.2457 -1.4640 0.9773
-4.9820 2.3797 -1.4548 0.9774
-5.1843 1.9307 -1.4577 0.9774
-3.0018 0.5408 -0.8037 0.9875
-2.8279 -0.0000 -0.7956 0.9883
-2.8819 -0.2575 -0.8141 0.9880
-2.9786 -0.5366 -0.8515 0.9875
-5.7151 -1.5655 -1.6672 0.9757
-5.6283 -2.6884 -1.7549 0.9744
-5.5629 -3.2949 -1.8191 0.9735
-5.3136 -4.5949 -1.9765 0.9712
-5.1195 -5.2935 -2.0719 0.9699
-4.8705 -6.0283 -2.1805 0.9683
-4.5587 -6.8020 -2.3038 0.9665
-1.0715 -2.4505 -0.7525 0.9889
-0.5725 -2.4021 -0.6948 0.9898
-0.3579 -2.4543 -0.6978 0.9897
-0.1415 -2.5373 -0.7150 0.9895
0.0894 -2.6735 -0.7526 0.9889
9.9082 8.1893 -3.6167 0.9480
6.6714 7.8910 -2.9073 0.9580
4.4896 7.7763 -2.5264 0.9634
3.5444 7.6379 -2.3691 0.9656
-4.2125 3.3266 -1.5102 0.9779
-4.4635 2.9199 -1.5007 0.9781
-4.6914 2.5034 -1.4961 0.9781
-4.8969 2.0765 -1.4965 0.9781
-5.0803 1.6382 -1.5018 0.9781
-2.8531 -0.1272 -0.8035 0.9882
-3.0353 -0.6877 -0.8756 0.9872
-3.2049 -1.0334 -0.9474 0.9861
-5.6001 -2.9883 -1.7859 0.9740
-4.7230 -6.4101 -2.2402 0.9675
-1.6967 -2.7932 -0.9195 0.9865
-0.9314 -2.4184 -0.7292 0.9893
-0.6871 -2.4031 -0.7032 0.9897
-0.0289 -2.5964 -0.7306 0.9893
0.5527 -3.2764 -0.9348 0.9863
10.6933 8.0642 -3.7683 0.9459
9.1576 8.2826 -3.4741 0.9500
4.9969 7.8275 -2.6128 0.9621
2.2823 7.3574 -2.1674 0.9685
0.2215 6.6255 -1.8652 0.9728
-0.3534 6.3382 -1.7860 0.9740
-1.3673 5.7375 -1.6595 0.9758
-1.9273 5.7565 -1.7080 0.9751
-2.7661 5.0476 -1.6194 0.9764
-3.4773 4.3040 -1.5568 0.9773
-3.7906 3.9195 -1.5341 0.9776
-4.5803 2.7129 -1.4978 0.9781
-4.7969 2.2913 -1.4957 0.9782
-4.9913 1.8588 -1.4986 0.9781
-3.6502 0.9999 -1.0648 0.9844
-2.9229 0.5266 -0.8356 0.9877
-2.7884 0.2492 -0.7877 0.9884
-2.7825 -0.0000 -0.8330 0.9884
-2.8308 -0.2530 -0.8509 0.9882
-2.9224 -0.5265 -0.8890 0.9877
-5.4367 -2.0247 -1.7369 0.9761
-5.3902 -2.5746 -1.7884 0.9754
-5.0618 -4.3771 -2.0034 0.9724
-4.8657 -5.0311 -2.0954 0.9712
-4.6171 -5.7146 -2.1995 0.9698
-4.3088 -6.4291 -2.3170 0.9682
-1.4373 -2.6228 -0.8954 0.9876
-0.3602 -2.4696 -0.7472 0.9896
0.0902 -2.6983 -0.8083 0.9888
0.3684 -2.9914 -0.9023 0.9875
7.7885 7.7022 -3.2793 0.9553
5.1564 7.3351 -2.6843 0.9633
4.2060 7.2850 -2.5184 0.9655
1.7978 6.8621 -2.1237 0.9708
-0.5947 5.9114 -1.7787 0.9755
-1.6243 5.6807 -1.7689 0.9756
-2.0631 5.3566 -1.7185 0.9763
-2.4678 5.0218 -1.6751 0.9769
-3.1851 4.3228 -1.6075 0.9778
-3.5017 3.9594 -1.5824 0.9782
-3.7925 3.5870 -1.5628 0.9784
-4.0588 3.2052 -1.5483 0.9786
-4.5218 2.4129 -1.5344 0.9788
-3.0564 0.6925 -0.9382 0.9870
-2.7204 0.3658 -0.8218 0.9886
-2.8066 -0.1251 -0.8411 0.9883
-2.8771 -0.3869 -0.8691 0.9880
-5.4128 -2.2952 -1.7602 0.9758
-5.3592 -2.8597 -1.8186 0.9750
-4.9699 -4.7005 -2.0480 0.9718
-1.8272 -3.0081 -1.0537 0.9854
-0.9405 -2.4420 -0.7834 0.9891
-0.4688 -2.4455 -0.7454 0.9897
-0.2512 -2.4972 -0.7514 0.9896
11.2163 6.9856 -3.9559 0.9463
9.7702 7.3680 -3.6635 0.9502
8.4238 7.6189 -3.4004 0.9537
6.8469 7.4028 -3.0189 0.9588
5.6628 7.3375 -2.7748 0.9620
4.6711 7.3171 -2.5989 0.9644
3.7604 7.2400 -2.4424 0.9665
2.1575 6.9550 -2.1801 0.9701
0.2110 6.3093 -1.8900 0.9740
-1.8481 5.5201 -1.7428 0.9760
-2.6582 4.8506 -1.6559 0.9772
-3.3467 4.1423 -1.5943 0.9780
-3.6502 3.7743 -1.5720 0.9783
-3.9287 3.3973 -1.5549 0.9785
-4.1831 3.0108 -1.5430 0.9787
-4.8105 1.7915 -1.5368 0.9788
-2.7380 -0.0000 -0.8695 0.9886
-2.8694 -0.5170 -0.9259 0.9878
-2.9540 -0.8092 -0.9727 0.9872
-5.1693 -2.4692 -1.8194 0.9762
-5.0940 -3.0172 -1.8803 0.9755
-4.9824 -3.5861 -1.9496 0.9746
-4.6337 -4.7912 -2.1168 0.9724
-4.0827 -6.0918 -2.3290 0.9697
-1.0933 -2.5005 -0.8667 0.9886
-0.8208 -2.4518 -0.8211 0.9892
-0.5833 -2.4479 -0.7992 0.9895
-0.1439 -2.5810 -0.8210 0.9892
0.0914 -2.7332 -0.8685 0.9886
0.3780 -3.0696 -0.9822 0.9871
2.7408 -12.7545 -4.1431 0.9467
12.2586 5.5235 -4.2701 0.9451
10.9074 6.1364 -3.9746 0.9488
9.6104 6.5972 -3.7020 0.9523
5.9520 7.0401 -2.9278 0.9620
3.9536 6.8479 -2.5112 0.9674
3.1446 6.7764 -2.3725 0.9691
1.7078 6.5186 -2.1401 0.9721
-0.0658 5.9023 -1.8746 0.9755
-0.5689 5.6550 -1.8050 0.9764
-1.0696 5.5801 -1.8044 0.9764
-1.9820 5.1461 -1.7514 0.9771
-3.9146 3.0913 -1.5841 0.9793
-4.3624 2.3279 -1.5704 0.9795
-4.7228 1.5229 -1.5759 0.9794
-2.9791 0.6750 -0.9701 0.9873
-2.7186 0.1212 -0.8643 0.9886
-4.7381 -4.4812 -2.0711 0.9730
-4.2421 -5.7575 -2.2712 0.9704
-3.9073 -6.4324 -2.3902 0.9689
-0.9498 -2.4662 -0.8393 0.9890
-0.0294 -2.6396 -0.8383 0.9890
2.0924 -12.4047 -3.9952 0.9486
3.4289 -13.0880 -4.2968 0.9448
12.9485 5.1534 -4.4259 0.9432
11.5773 5.8503 -4.1195 0.9470
7.7931 7.0485 -3.3371 0.9569
6.6752 7.2171 -3.1221 0.9596
5.2908 6.8554 -2.7502 0.9643
4.3824 6.8650 -2.5866 0.9664
2.7633 6.7241 -2.3087 0.9700
1.2139 5.6490 -1.8352 0.9760
-0.3223 5.7808 -1.8387 0.9760
-0.8060 5.5261 -1.7736 0.9768
-2.1815 4.9891 -1.7293 0.9774
-2.5574 4.6667 -1.6900 0.9779
-2.9045 4.3337 -1.6568 0.9783
-3.2244 3.9908 -1.6294 0.9787
-3.5186 3.6382 -1.6074 0.9790
-2.7749 0.4999 -0.8955 0.9882
-2.6945 0.0000 -0.9053 0.9887
-4.9637 -2.3710 -1.8482 0.9771
-4.7707 -3.4337 -1.9749 0.9755
-4.6174 -3.9928 -2.0509 0.9746
-4.4207 -4.5710 -2.1365 0.9735
-4.1758 -5.1684 -2.2325 0.9724
-1.5300 -2.7919 -1.0696 0.9867
-1.1064 -2.5303 -0.9279 0.9884
-0.8291 -2.4764 -0.8774 0.9890
-0.5895 -2.4735 -0.8543 0.9893
-0.3678 -2.5220 -0.8563 0.9893
0.0930 -2.7809 -0.9349 0.9883
5.1681 -12.5759 -4.5681 0.9442
13.5217 3.3820 -4.6830 0.9429
12.3580 4.2912 -4.3953 0.9463
10.0056 5.6291 -3.8572 0.9527
7.7721 6.4238 -3.3878 0.9583
6.7320 6.6574 -3.1810 0.9608
4.5576 6.4833 -2.6626 0.9671
3.7276 6.4565 -2.5048 0.9690
2.9742 6.4092 -2.3740 0.9706
-0.0629 5.6453 -1.8968 0.9765
-0.5451 5.4185 -1.8297 0.9773
-1.0564 5.5113 -1.8854 0.9766
-1.4976 5.2374 -1.8302 0.9773
-1.9063 4.9496 -1.7820 0.9779
-2.9576 4.0140 -1.6752 0.9792
-3.2552 3.6807 -1.6509 0.9795
-3.5286 3.3373 -1.6318 0.9797
-4.0066 2.6210 -1.6086 0.9800
-4.5598 1.4704 -1.6097 0.9800
-2.6180 0.3521 -0.8875 0.9889
-2.6762 0.1193 -0.9001 0.9888
-2.7751 -0.3732 -0.9408 0.9883
-4.0336 -5.4744 -2.2847 0.9717
4.4560 -12.3856 -4.4224 0.9460
5.9085 -12.7325 -4.7161 0.9425
12.9442 3.8578 -4.5381 0.9446
11.7675 4.6834 -4.2553 0.9480
10.5883 5.3505 -3.9859 0.9512
9.4310 5.8737 -3.7329 0.9542
7.2449 6.5526 -3.2821 0.9596
6.2338 6.7400 -3.0846 0.9620
5.1967 6.7337 -2.8578 0.9647
4.1248 6.4614 -2.5756 0.9682
2.6174 6.3690 -2.3135 0.9714
1.9418 6.2597 -2.2020 0.9727
1.3154 6.1214 -2.1036 0.9739
0.7327 5.9492 -2.0139 0.9750
0.1923 5.7520 -1.9337 0.9760
-0.7981 5.4721 -1.8580 0.9769
-1.2812 5.3762 -1.8569 0.9769
-2.0991 4.8008 -1.7604 0.9781
-2.4630 4.4945 -1.7219 0.9786
-2.7993 4.1768 -1.6894 0.9790
-3.3949 3.5103 -1.6407 0.9796
-3.6566 3.1620 -1.6242 0.9798
-3.8954 2.8038 -1.6126 0.9800
-4.4810 1.6687 -1.6065 0.9800
-2.6265 0.7195 -0.9150 0.9886
-2.7169 0.4895 -0.9275 0.9884
-2.6500 0.2368 -0.8939 0.9888
-2.7668 -0.4985 -0.9969 0.9881
-4.8374 -1.8014 -1.8304 0.9783
-4.6903 -2.7781 -1.9329 0.9771
-4.4201 -3.8222 -2.0720 0.9755
-1.6491 -3.0092 -1.2167 0.9855
-0.8376 -2.5017 -0.9355 0.9889
-0.5959 -2.5004 -0.9114 0.9892
-0.3718 -2.5495 -0.9136 0.9891
-0.1477 -2.6486 -0.9406 0.9888
0.0946 -2.8309 -1.0043 0.9881
2.3034 -10.7193 -3.8877 0.9545
3.4521 -11.1286 -4.1315 0.9518
4.7004 -11.4379 -4.3848 0.9489
14.0350 0.9395 -4.9878 0.9420
13.2058 2.0765 -4.7401 0.9448
10.2606 4.6232 -3.9905 0.9534
9.2337 5.1948 -3.7567 0.9560
5.4004 6.3876 -2.9660 0.9651
0.4374 5.5971 -1.9907 0.9765
-1.0149 5.2949 -1.9117 0.9774
-1.4404 5.0376 -1.8578 0.9780
-1.8354 4.7655 -1.8108 0.9786
-2.5406 4.1824 -1.7352 0.9794
-2.8539 3.8734 -1.7060 0.9798
-3.1428 3.5536 -1.6821 0.9801
-3.4081 3.2233 -1.6633 0.9803
-3.6508 2.8830 -1.6495 0.9805
-3.8716 2.5327 -1.6405 0.9806
-4.0709 2.1723 -1.6362 0.9806
-4.2491 1.8018 -1.6365 0.9806
-4.4061 1.4208 -1.6416 0.9805
-2.5615 0.5804 -0.9313 0.9889
-2.6347 0.1175 -0.9351 0.9889
-2.6733 -0.1192 -0.9489 0.9887
-2.8093 -0.6365 -1.0214 0.9878
-2.8709 -0.9257 -1.0696 0.9873
-4.8046 -2.0373 -1.8505 0.9781
-4.7352 -2.5268 -1.9031 0.9775
-4.6367 -3.0332 -1.9647 0.9768
-4.5021 -3.5553 -2.0341 0.9759
-4.3277 -4.0931 -2.1122 0.9750
-1.3186 -2.6833 -1.0601 0.9874
-0.9717 -2.5231 -0.9587 0.9886
-0.7145 -2.4986 -0.9215 0.9890
2.8648 -10.9348 -4.0082 0.9532
4.0645 -11.2974 -4.2573 0.9503
13.6356 1.5254 -4.8652 0.9434
11.7851 3.5123 -4.3605 0.9491
10.7739 4.2879 -4.1117 0.9520
8.7251 5.4341 -3.6447 0.9573
6.7638 6.1175 -3.2338 0.9620
5.8432 6.3176 -3.0514 0.9641
4.9698 6.4395 -2.8843 0.9661
3.1661 6.0958 -2.4356 0.9713
1.8486 5.9594 -2.2125 0.9739
-1.6416 4.9033 -1.8335 0.9783
-2.3744 4.3327 -1.7519 0.9792
-3.0013 3.7148 -1.6934 0.9799
-3.5322 3.0544 -1.6558 0.9804
-3.7639 2.7091 -1.6444 0.9805
-3.9739 2.3538 -1.6377 0.9806
-4.1626 1.9883 -1.6357 0.9806
-2.6101 0.0000 -0.9746 0.9889
-2.6498 -0.2368 -0.9934 0.9887
-2.7171 -0.4895 -1.0309 0.9883
-2.7878 -0.7637 -1.0794 0.9877
-4.5922 -2.1935 -1.9003 0.9785
-4.2370 -3.6638 -2.0916 0.9764
-4.0426 -4.1800 -2.1714 0.9755
-3.8041 -4.7083 -2.2603 0.9745
-0.3760 -2.5780 -0.9728 0.9889
1.1711 -9.5086 -3.5774 0.9599
2.1304 -9.9144 -3.7867 0.9576
6.7440 -10.5643 -4.6801 0.9479
8.0045 -10.3718 -4.8922 0.9456
10.4064 -9.4120 -5.2395 0.9418
13.6758 -1.5299 -5.1385 0.9429
13.2800 -0.2959 -4.9601 0.9449
12.7170 0.8513 -4.7593 0.9470
9.4749 4.2692 -3.8806 0.9566
8.5651 4.8186 -3.6697 0.9589
3.4900 6.0449 -2.6064 0.9706
0.9293 5.5092 -2.0863 0.9764
0.4188 5.3598 -2.0075 0.9773
-0.0588 5.2816 -1.9723 0.9777
-2.4522 4.0369 -1.7637 0.9800
-2.7562 3.7408 -1.7351 0.9804
-3.0366 3.4335 -1.7116 0.9806
-3.5298 2.7875 -1.6795 0.9810
-3.7440 2.4492 -1.6706 0.9811
-4.2608 1.3739 -1.6717 0.9811
-2.5436 0.5763 -0.9739 0.9889
-2.5920 0.1156 -0.9689 0.9890
-2.6307 -0.1173 -0.9833 0.9888
-2.6781 -0.3602 -1.0090 0.9885
-2.8043 -0.9043 -1.1002 0.9875
-4.6275 -1.9622 -1.8769 0.9788
-4.5543 -2.4303 -1.9276 0.9782
-4.4542 -2.9138 -1.9875 0.9775
-3.9291 -4.4427 -2.2147 0.9750
-3.6669 -4.9767 -2.3083 0.9740
-1.3526 -2.7524 -1.1452 0.9870
-0.9915 -2.5743 -1.0301 0.9883
-0.4893 -2.5526 -0.9705 0.9890
-0.0308 -2.7662 -1.0330 0.9883
0.2413 -3.0882 -1.1567 0.9869
1.6395 -9.7197 -3.6807 0.9588
2.6435 -10.0903 -3.8950 0.9564
4.8966 -10.5519 -4.3438 0.9515
6.1186 -10.5977 -4.5695 0.9491
7.3741 -10.4898 -4.7880 0.9467
8.6272 -10.2043 -4.9897 0.9445
9.8328 -9.7239 -5.1639 0.9427
13.5009 -0.9038 -5.0526 0.9439
13.0172 0.2901 -4.8620 0.9459
12.3836 1.3853 -4.6530 0.9482
10.8059 3.2205 -4.2105 0.9530
8.1108 5.0515 -3.5680 0.9600
7.2126 5.4393 -3.3733 0.9622
5.4948 5.9409 -3.0218 0.9660
4.6887 6.0754 -2.8656 0.9678
3.9229 6.1451 -2.7223 0.9694
2.3635 5.7512 -2.3219 0.9738
1.7619 5.6799 -2.2206 0.9749
0.1764 5.2764 -1.9714 0.9777
-0.7595 5.2074 -1.9651 0.9778
-1.1852 4.9735 -1.9092 0.9784
-2.2910 4.1806 -1.7801 0.9799
-2.6072 3.8903 -1.7487 0.9802
-4.0258 1.9230 -1.6660 0.9811
-4.1876 1.5595 -1.6686 0.9811
-3.4442 0.9435 -1.3335 0.9849
-2.6685 -0.4808 -1.0642 0.9884
-2.7221 -0.7457 -1.1077 0.9879
-4.2201 -3.0374 -2.0407 0.9779
-4.0664 -3.5163 -2.1099 0.9772
-3.8739 -4.0056 -2.1870 0.9763
-3.6391 -4.5041 -2.2726 0.9754
-1.1781 -2.6945 -1.1542 0.9874
0.0984 -2.9419 -1.1553 0.9874
1.9799 -9.2139 -3.6987 0.9603
2.9414 -9.4822 -3.8964 0.9582
5.0498 -9.7226 -4.2998 0.9540
6.1649 -9.6570 -4.4966 0.9520
10.3568 -7.8105 -5.0910 0.9458
11.1601 -6.9507 -5.1601 0.9451
12.2500 -4.8754 -5.1745 0.9449
12.5001 -3.7254 -5.1192 0.9455
12.5478 -2.5504 -5.0253 0.9465
12.4025 -1.3874 -4.8980 0.9478
11.0211 1.7330 -4.3786 0.9532
10.3362 2.5853 -4.1816 0.9552
9.5854 3.3284 -3.9824 0.9573
8.7931 3.9620 -3.7852 0.9594
7.1630 4.9171 -3.4099 0.9634
4.0734 5.7945 -2.7799 0.9700
3.3764 5.8482 -2.6503 0.9714
2.6476 5.7055 -2.4686 0.9733
1.4098 5.3811 -2.1832 0.9764
0.8897 5.2745 -2.0993 0.9773
0.4087 5.2309 -2.0592 0.9777
-0.0587 5.2699 -2.0684 0.9776
-0.5144 5.1137 -2.0171 0.9782
-0.9398 4.9029 -1.9593 0.9788
-1.7062 4.4300 -1.8632 0.9798
-2.6639 3.6155 -1.7625 0.9809
-3.1864 3.0137 -1.7213 0.9813
-3.8102 2.0332 -1.6950 0.9816
-3.9769 1.6864 -1.6953 0.9816
-4.1231 1.3296 -1.7002 0.9816
-2.5568 0.5793 -1.0289 0.9888
-2.4910 0.3350 -0.9865 0.9893
-2.5490 0.1137 -1.0014 0.9891
-2.5889 -0.1154 -1.0171 0.9889
-2.6312 -0.3539 -1.0420 0.9887
-2.7055 -0.6130 -1.0887 0.9882
-2.7236 -0.8782 -1.1231 0.9878
-4.3848 -2.3398 -1.9506 0.9789
-4.2834 -2.8021 -2.0089 0.9782
-4.1479 -3.2755 -2.0743 0.9775
-3.1989 -5.2661 -2.4182 0.9739
-0.7353 -2.5713 -1.0496 0.9886
-0.4949 -2.5818 -1.0317 0.9888
-0.0314 -2.8168 -1.1056 0.9880
3.4477 -9.5829 -3.9970 0.9572
4.5038 -9.7055 -4.1993 0.9551
5.6045 -9.7072 -4.3992 0.9530
7.8451 -9.2792 -4.7690 0.9491
11.5019 -6.4709 -5.1795 0.9449
12.0491 -5.4291 -5.1868 0.9448
12.5489 -3.1387 -5.0768 0.9459
12.4983 -1.9652 -4.9655 0.9471
12.2630 -0.8209 -4.8236 0.9486
11.8647 0.2644 -4.6577 0.9503
10.6885 2.1725 -4.2807 0.9542
8.3880 4.2387 -3.6885 0.9604
6.7572 5.0959 -3.3216 0.9643
5.9580 5.3888 -3.1529 0.9661
5.1819 5.6027 -2.9952 0.9677
3.0413 5.8555 -2.5896 0.9720
2.2856 5.5616 -2.3599 0.9745
1.6822 5.4229 -2.2284 0.9759
-0.7308 5.0106 -1.9873 0.9785
-1.5247 4.5541 -1.8849 0.9796
-1.8812 4.3024 -1.8429 0.9800
-2.5192 3.7589 -1.7760 0.9807
-3.0641 3.1682 -1.7298 0.9812
-3.3035 2.8566 -1.7140 0.9814
-3.4630 0.9486 -1.4092 0.9847
-2.5206 0.2252 -0.9932 0.9892
-2.5289 0.0000 -1.0413 0.9891
-2.5656 -0.2293 -1.0607 0.9889
-2.6211 -0.4722 -1.0967 0.9885
-2.6410 -0.7235 -1.1276 0.9882
-2.6436 -0.9845 -1.1616 0.9879
-4.2649 -2.0372 -1.9463 0.9798
-4.1784 -2.4748 -1.9997 0.9792
-3.9070 -3.3785 -2.1269 0.9779
-3.2111 -4.7912 -2.3751 0.9754
-1.2258 -2.8035 -1.2599 0.9869
-0.3875 -2.6571 -1.1057 0.9885
2.7353 -8.8177 -3.8016 0.9608
6.6840 -8.6607 -4.5049 0.9538
10.7271 -5.4207 -4.9492 0.9493
9.5659 2.3926 -4.0604 0.9582
8.1957 3.6928 -3.7016 0.9619
6.7216 4.6141 -3.3572 0.9653
5.9824 4.9446 -3.1960 0.9670
4.5487 5.3801 -2.9011 0.9700
3.8664 5.5000 -2.7684 0.9713
3.2125 5.5642 -2.6457 0.9726
2.5889 5.5790 -2.5327 0.9737
0.8818 5.2278 -2.1831 0.9773
0.4079 5.2204 -2.1562 0.9776
-0.0568 5.1002 -2.1003 0.9782
-0.4952 4.9225 -2.0372 0.9788
-0.9056 4.7246 -1.9809 0.9794
-1.6471 4.2766 -1.8871 0.9804
-2.2898 3.7695 -1.8161 0.9811
-2.5765 3.4968 -1.7885 0.9814
-2.8410 3.2124 -1.7659 0.9816
-3.0842 2.9170 -1.7481 0.9818
-3.3065 2.6111 -1.7349 0.9819
-3.5082 2.2950 -1.7263 0.9820
-3.8512 1.6330 -1.7225 0.9821
-2.5479 -0.1136 -1.0502 0.9890
-2.5854 -0.3477 -1.0742 0.9888
-2.6464 -0.8534 -1.1450 0.9880
-4.1233 -2.6973 -2.0289 0.9789
-3.9879 -3.1492 -2.0924 0.9783
-3.3542 -4.5524 -2.3285 0.9758
-3.0560 -5.0308 -2.4239 0.9749
-2.7081 -5.5107 -2.5284 0.9738
-1.0342 -2.6853 -1.1849 0.9876
-0.7500 -2.6228 -1.1233 0.9883
-0.0322 -2.8942 -1.1919 0.9876
0.6361 -8.1401 -3.3622 0.9653
1.4273 -8.4615 -3.5335 0.9636
6.1791 -8.7899 -4.4244 0.9546
8.1418 -8.0516 -4.7152 0.9517
10.4587 -5.8839 -4.9414 0.9494
10.9548 -4.9360 -4.9478 0.9494
11.4313 -2.8592 -4.8522 0.9503
11.2206 -0.7511 -4.6308 0.9525
8.5535 3.4042 -3.7908 0.9610
6.3510 4.7895 -3.2755 0.9662
5.6170 5.0803 -3.1187 0.9678
3.5357 5.5387 -2.7058 0.9720
1.6597 5.3504 -2.3068 0.9761
1.1283 5.2508 -2.2115 0.9770
0.6426 5.2179 -2.1649 0.9775
0.1732 5.1807 -2.1345 0.9778
-0.2796 5.0141 -2.0679 0.9785
-1.4713 4.3946 -1.9083 0.9802
-2.1379 3.9012 -1.8319 0.9809
-2.4359 3.6346 -1.8017 0.9813
-2.9653 3.0660 -1.7564 0.9817
-3.1979 2.7653 -1.7409 0.9819
-3.4099 2.4543 -1.7300 0.9820
-3.6015 2.1332 -1.7237 0.9821
-2.4893 -0.0000 -1.0738 0.9892
-2.5221 -0.2254 -1.0923 0.9890
-2.5389 -0.4574 -1.1128 0.9888
-2.5507 -0.6987 -1.1408 0.9885
-2.5688 -0.9566 -1.1824 0.9881
-3.9095 -2.8139 -2.0778 0.9792
-3.5699 -3.6912 -2.2151 0.9779
-3.0746 -4.5877 -2.3823 0.9762
-0.9036 -2.6988 -1.2277 0.9877
0.1125 -3.3639 -1.4518 0.9854
0.9613 -7.8054 -3.3923 0.9663
2.5539 -8.2330 -3.7183 0.9631
3.4228 -8.3289 -3.8843 0.9615
6.1651 -7.9884 -4.3527 0.9570
7.0585 -7.6316 -4.4841 0.9557
8.6491 -6.5226 -4.6729 0.9539
9.8226 -4.9636 -4.7473 0.9532
10.4295 -3.1083 -4.6944 0.9537
10.4227 -1.1660 -4.5239 0.9553
10.2053 -0.2274 -4.4032 0.9565
9.8651 0.6604 -4.2649 0.9578
8.8939 2.2245 -3.9546 0.9608
8.3031 2.8831 -3.7914 0.9624
7.6676 3.4548 -3.6277 0.9640
7.0039 3.9403 -3.4665 0.9656
6.3264 4.3428 -3.3100 0.9671
5.6466 4.6670 -3.1600 0.9686
4.9740 4.9189 -3.0175 0.9700
3.6770 5.2306 -2.7580 0.9725
3.0617 5.3031 -2.6414 0.9737
1.9106 5.3106 -2.4345 0.9757
0.8718 5.1681 -2.2608 0.9774
-0.0547 4.9084 -2.1174 0.9788
-0.4771 4.7427 -2.0561 0.9794
-1.2445 4.3523 -1.9527 0.9805
-2.2149 3.6463 -1.8403 0.9816
-2.9870 2.8251 -1.7735 0.9822
-3.5752 1.9078 -1.7480 0.9825
-3.7315 1.5823 -1.7484 0.9825
-3.8680 1.2473 -1.7531 0.9825
-2.5715 0.5826 -1.1374 0.9886
-2.4654 0.1099 -1.0645 0.9893
-2.5076 -0.1118 -1.0828 0.9891
-2.5465 -0.5770 -1.1263 0.9887
-2.6695 -1.1320 -1.2508 0.9874
-3.9727 -2.5988 -2.0477 0.9795
-3.4616 -3.9141 -2.2539 0.9775
-3.2144 -4.3626 -2.3375 0.9767
-2.5859 -5.2621 -2.5291 0.9748
-0.5161 -2.6927 -1.1826 0.9881
-0.2799 -2.7820 -1.2061 0.9879
-0.0334 -2.9957 -1.2923 0.9870
3.8709 -8.3415 -3.9667 0.9607
5.7074 -8.1188 -4.2809 0.9577
8.9888 -6.1704 -4.7030 0.9536
10.0313 -4.5199 -4.7460 0.9532
10.3355 -3.5889 -4.7194 0.9535
10.4846 -2.6224 -4.6619 0.9540
10.0494 0.2239 -4.3360 0.9572
9.6549 1.0801 -4.1907 0.9586
9.1667 1.8632 -4.0350 0.9601
7.3383 3.7082 -3.5466 0.9648
5.9861 4.5143 -3.2341 0.9679
5.3089 4.8016 -3.0877 0.9693
3.9936 5.1747 -2.8196 0.9719
3.3663 5.2732 -2.6986 0.9731
2.1880 5.3242 -2.4830 0.9752
0.6297 5.1130 -2.2222 0.9778
-1.4209 4.2439 -1.9305 0.9807
-1.7557 4.0154 -1.8904 0.9811
-2.3569 3.5167 -1.8261 0.9817
-3.0976 2.6786 -1.7664 0.9823
-3.4896 2.0669 -1.7495 0.9825
-3.8023 1.4160 -1.7502 0.9825
-3.9287 1.0762 -1.7571 0.9824
-2.4719 0.4453 -1.0835 0.9891
-2.4890 -0.9270 -1.1984 0.9884
-3.9768 -1.8995 -1.9886 0.9808
-3.8859 -2.3016 -2.0379 0.9804
-3.7678 -2.7119 -2.0947 0.9798
-3.6174 -3.1281 -2.1579 0.9792
-3.4323 -3.5490 -2.2278 0.9786
-3.2100 -3.9730 -2.3047 0.9778
-2.9476 -4.3981 -2.3890 0.9770
-2.2913 -5.2404 -2.5807 0.9752
-0.9411 -2.8110 -1.3376 0.9871
-0.6521 -2.7365 -1.2693 0.9877
-0.4076 -2.7946 -1.2743 0.9877
-0.1654 -2.9658 -1.3403 0.9870
0.9057 -7.3540 -3.3433 0.9680
1.6261 -7.5674 -3.4925 0.9666
6.5288 -7.0589 -4.3386 0.9587
8.5695 -5.3371 -4.5553 0.9567
9.0485 -4.5724 -4.5745 0.9565
9.6160 -2.8659 -4.5275 0.9569
9.4551 -0.2107 -4.2673 0.9593
9.1611 0.6133 -4.1429 0.9605
7.1971 3.2428 -3.5619 0.9660
5.9703 4.0983 -3.2675 0.9687
4.7175 4.6652 -2.9937 0.9713
4.1025 4.8525 -2.8671 0.9725
3.5029 4.9829 -2.7483 0.9736
2.3645 5.0953 -2.5346 0.9757
1.3212 5.0428 -2.3522 0.9774
-0.4601 4.5733 -2.0740 0.9800
-1.5383 3.9941 -1.9312 0.9814
-1.8519 3.7686 -1.8947 0.9817
-2.1438 3.5292 -1.8632 0.9820
-3.6176 1.5340 -1.7730 0.9829
-3.7496 1.2091 -1.7777 0.9829
-2.5489 0.5775 -1.1792 0.9886
-2.4105 0.1075 -1.0887 0.9895
-2.4395 -0.1088 -1.1018 0.9893
-2.4521 -0.3298 -1.1164 0.9892
-3.9335 -2.0990 -2.0118 0.9806
-3.8308 -2.5060 -2.0655 0.9801
-3.3260 -3.7607 -2.2653 0.9782
-3.0840 -4.1856 -2.3459 0.9774
-2.8005 -4.6103 -2.4340 0.9766
-0.7860 -2.7488 -1.2900 0.9875
-0.5277 -2.7530 -1.2648 0.9878
0.5646 -7.2258 -3.2704 0.9687
1.2597 -7.4683 -3.4175 0.9673
2.7913 -7.7586 -3.7205 0.9645
3.6117 -7.7830 -3.8715 0.9630
4.4523 -7.7117 -4.0180 0.9617
5.2971 -7.5352 -4.1561 0.9604
6.9189 -6.8423 -4.3907 0.9582
8.2865 -5.6883 -4.5352 0.9569
9.2409 -4.1638 -4.5734 0.9565
9.5254 -3.3076 -4.5498 0.9567
9.6721 -2.4191 -4.4986 0.9572
9.6817 -1.5224 -4.4222 0.9579
9.3211 0.2077 -4.2069 0.9599
8.9770 1.0042 -4.0758 0.9611
8.5454 1.7369 -3.9347 0.9625
6.2826 3.9128 -3.3396 0.9680
5.6565 4.2657 -3.1967 0.9694
5.0291 4.5485 -3.0596 0.9707
4.4083 4.7663 -2.9295 0.9719
3.8005 4.9244 -2.8068 0.9731
2.6406 5.0842 -2.5850 0.9752
-1.6979 3.8831 -1.9123 0.9816
-2.2818 3.4047 -1.8494 0.9822
-2.7821 2.8767 -1.8057 0.9826
-3.0020 2.5959 -1.7908 0.9827
-3.2022 2.3048 -1.7803 0.9828
-3.5442 1.6929 -1.7723 0.9829
-2.3848 0.2131 -1.0804 0.9895
-2.3615 -0.0000 -1.1132 0.9896
-2.3934 -0.6556 -1.1698 0.9891
-2.4034 -0.8950 -1.2089 0.9887
-3.8439 -1.8360 -2.0079 0.9813
-3.4854 -3.0139 -2.1720 0.9798
-3.0851 -3.8185 -2.3140 0.9785
-2.8289 -4.2211 -2.3953 0.9778
-0.9858 -2.9443 -1.4636 0.9864
-0.6794 -2.8511 -1.3816 0.9871
0.2243 -6.7084 -3.1640 0.9708
3.7693 -7.2572 -3.8548 0.9645
5.3208 -6.8943 -4.1051 0.9622
6.7660 -6.1195 -4.3003 0.9605
7.3944 -5.5764 -4.3656 0.9599
7.9372 -4.9433 -4.4077 0.9595
8.7052 -3.4646 -4.4165 0.9594
8.9105 -2.6556 -4.3828 0.9597
8.9520 -1.0014 -4.2461 0.9609
8.7985 -0.1960 -4.1484 0.9618
8.5422 0.5718 -4.0356 0.9628
7.7771 1.9452 -3.7789 0.9652
6.7751 3.0527 -3.5028 0.9677
6.2208 3.4998 -3.3646 0.9689
5.6475 3.8768 -3.2290 0.9702
5.0654 4.1866 -3.0977 0.9714
3.9066 4.6208 -2.8522 0.9736
3.3423 4.7544 -2.7395 0.9746
2.2641 4.8791 -2.5354 0.9765
1.2690 4.8436 -2.3602 0.9781
0.8056 4.7760 -2.2831 0.9788
0.3657 4.6797 -2.2126 0.9795
-1.1621 4.0642 -1.9925 0.9815
-1.4880 3.8636 -1.9516 0.9819
-1.7925 3.6477 -1.9158 0.9822
-3.1957 2.0906 -1.8001 0.9833
-3.3618 1.7939 -1.7962 0.9833
-2.3694 -0.1057 -1.1180 0.9896
-2.3799 -0.3201 -1.1319 0.9894
-2.3894 -0.5414 -1.1548 0.9892
-2.3945 -0.7721 -1.1859 0.9889
-2.4109 -1.0223 -1.2344 0.9885
-3.7993 -2.0274 -2.0299 0.9811
-3.5638 -2.8143 -2.1405 0.9801
-2.6858 -4.4214 -2.4385 0.9774
-2.3676 -4.8179 -2.5305 0.9765
-2.0051 -5.2061 -2.6297 0.9756
-0.8219 -2.8743 -1.4092 0.9869
-0.5455 -2.8457 -1.3658 0.9873
-0.2990 -2.9725 -1.4082 0.9869
0.5340 -6.8335 -3.2310 0.9701
2.6202 -7.2829 -3.6484 0.9664
4.1590 -7.2036 -3.9209 0.9639
5.6982 -6.7399 -4.1603 0.9617
6.4238 -6.3526 -4.2586 0.9608
7.0898 -5.8599 -4.3357 0.9601
8.1713 -4.5971 -4.4195 0.9594
8.5566 -3.8554 -4.4239 0.9593
7.5441 2.2484 -3.7107 0.9658
6.5010 3.2851 -3.4335 0.9683
5.9359 3.6969 -3.2963 0.9695
5.3570 4.0399 -3.1627 0.9708
4.1935 4.5340 -2.9112 0.9731
3.6227 4.6940 -2.7950 0.9741
3.0658 4.8025 -2.6857 0.9751
2.5264 4.8642 -2.5837 0.9761
1.0344 4.8136 -2.3208 0.9785
0.1545 4.6218 -2.1798 0.9798
-0.2503 4.4883 -2.1190 0.9803
-1.9369 3.5345 -1.8998 0.9823
-2.4635 3.0491 -1.8478 0.9828
-3.1055 2.2352 -1.8036 0.9832
-3.2812 1.9434 -1.7976 0.9833
-3.4377 1.6421 -1.7958 0.9833
-3.6931 1.0116 -1.8050 0.9832
-2.3082 -0.4158 -1.1536 0.9896
-2.3175 -0.6348 -1.1819 0.9893
-2.3278 -0.8669 -1.2217 0.9890
-2.3666 -1.1304 -1.2900 0.9884
-3.3608 -2.9062 -2.1853 0.9804
-3.1815 -3.2896 -2.2509 0.9798
-2.9679 -3.6734 -2.3228 0.9792
-2.7178 -4.0552 -2.4011 0.9785
-2.4291 -4.4325 -2.4861 0.9777
-1.7274 -5.1594 -2.6761 0.9760
-0.7134 -2.9934 -1.5135 0.9864
-0.4469 -3.0642 -1.5231 0.9863
0.2128 -6.3646 -3.1322 0.9720
1.4472 -6.7350 -3.3882 0.9698
2.1196 -6.8328 -3.5187 0.9686
2.8193 -6.8604 -3.6481 0.9675
4.2591 -6.6718 -3.8932 0.9653
5.6598 -6.1193 -4.0998 0.9635
6.3040 -5.7016 -4.1807 0.9628
8.2187 -0.1831 -4.0434 0.9640
7.6856 1.2085 -3.8266 0.9659
6.3942 2.8811 -3.4495 0.9692
5.8842 3.3104 -3.3207 0.9704
5.3536 3.6751 -3.1939 0.9715
3.7259 4.4070 -2.8385 0.9746
2.1705 4.6774 -2.5362 0.9773
1.6854 4.6845 -2.4487 0.9781
1.2200 4.6567 -2.3677 0.9788
0.7755 4.5975 -2.2932 0.9794
-0.7870 4.1056 -2.0561 0.9815
-1.4402 3.7395 -1.9710 0.9823
-1.7360 3.5326 -1.9360 0.9826
-2.0117 3.3117 -1.9059 0.9829
-2.2677 3.0778 -1.8804 0.9831
-2.5044 2.8318 -1.8594 0.9833
-2.9208 2.3065 -1.8305 0.9835
-3.1008 2.0284 -1.8225 0.9836
-3.2622 1.7408 -1.8187 0.9837
-3.4048 1.4438 -1.8190 0.9836
-2.2893 0.1021 -1.1271 0.9898
-2.3022 -0.1027 -1.1335 0.9898
-2.3173 -0.7472 -1.1976 0.9892
-3.5698 -2.3353 -2.0981 0.9812
-3.2753 -3.0978 -2.2174 0.9801
-3.0791 -3.4816 -2.2861 0.9795
-2.8476 -3.8647 -2.3611 0.9788
-2.2696 -4.6184 -2.5311 0.9773
-1.9189 -4.9824 -2.6261 0.9765
-0.9063 -3.1697 -1.6215 0.9854
-0.5766 -3.0079 -1.5064 0.9864
-0.3249 -3.2293 -1.5964 0.9856
-0.0696 -6.2421 -3.0704 0.9726
0.5061 -6.4763 -3.1951 0.9715
1.1238 -6.6625 -3.3233 0.9703
1.7795 -6.7921 -3.4535 0.9692
2.4665 -6.8559 -3.5837 0.9680
3.8981 -6.7516 -3.8346 0.9658
4.6179 -6.5690 -3.9495 0.9648
5.3204 -6.2930 -4.0532 0.9639
6.6030 -5.4575 -4.2134 0.9625
7.6002 -4.2758 -4.2892 0.9619
7.9580 -3.5857 -4.2931 0.9618
8.2088 -2.8504 -4.2740 0.9620
8.3482 -2.0880 -4.2326 0.9624
8.2964 -0.5554 -4.0898 0.9636
7.8492 0.8781 -3.8847 0.9654
7.0964 2.1150 -3.6421 0.9675
6.6381 2.6419 -3.5141 0.9687
5.0836 3.8337 -3.1317 0.9720
4.5395 4.1057 -3.0105 0.9731
2.9319 4.5928 -2.6800 0.9760
2.4201 4.6596 -2.5825 0.9769
1.9255 4.6855 -2.4916 0.9777
0.9951 4.6308 -2.3297 0.9791
0.5613 4.5571 -2.2584 0.9797
0.1490 4.4567 -2.1932 0.9803
-0.2416 4.3322 -2.1341 0.9808
-0.6105 4.1861 -2.0807 0.9813
-0.9581 4.0205 -2.0329 0.9817
-1.2847 3.8372 -1.9903 0.9821
-1.8763 3.4239 -1.9203 0.9827
-2.1421 3.1963 -1.8925 0.9830
-2.6156 2.7045 -1.8506 0.9834
-2.8238 2.4418 -1.8361 0.9835
-3.5831 0.9815 -1.8273 0.9836
-2.2359 0.0000 -1.1463 0.9900
-2.2443 -0.2006 -1.1552 0.9899
-2.2593 -0.8414 -1.2360 0.9892
-3.3880 -2.4385 -2.1401 0.9814
-3.2429 -2.8042 -2.1979 0.9809
-1.6538 -4.9395 -2.6705 0.9769
-1.2529 -5.2572 -2.7707 0.9760
-0.8097 -5.5522 -2.8766 0.9751
0.7683 -6.2379 -3.2221 0.9721
1.3701 -6.3757 -3.3433 0.9711
4.6620 -6.0407 -3.9119 0.9663
5.8942 -5.3310 -4.0744 0.9649
7.2746 -3.6760 -4.1786 0.9640
7.8306 -1.5916 -4.0966 0.9647
7.2275 1.1365 -3.7508 0.9676
6.8850 1.7221 -3.6384 0.9686
6.4881 2.2529 -3.5211 0.9696
5.5774 3.1378 -3.2808 0.9716
4.0682 4.0232 -2.9333 0.9746
3.0553 4.3462 -2.7236 0.9764
2.0830 4.4888 -2.5370 0.9780
1.6196 4.5019 -2.4528 0.9787
1.1740 4.4809 -2.3748 0.9794
0.7471 4.4292 -2.3028 0.9800
0.3399 4.3497 -2.2368 0.9806
-0.0473 4.2452 -2.1765 0.9811
-0.7611 3.9704 -2.0726 0.9820
-1.0878 3.8042 -2.0285 0.9824
-1.6820 3.4229 -1.9552 0.9830
-2.4296 2.7472 -1.8802 0.9837
-2.6414 2.4982 -1.8639 0.9838
-3.0100 1.9690 -1.8440 0.9840
-3.1668 1.6899 -1.8402 0.9840
-3.4250 1.1044 -1.8449 0.9840
-2.2093 0.2971 -1.1428 0.9900
-2.2319 0.0995 -1.1453 0.9900
-2.2425 -0.5081 -1.1788 0.9897
-2.2530 -0.7265 -1.2136 0.9894
-2.2672 -0.9614 -1.2625 0.9890
-2.3836 -1.2719 -1.3851 0.9879
-3.4495 -2.2565 -2.1132 0.9816
-3.3192 -2.6212 -2.1683 0.9812
-3.1588 -2.9876 -2.2290 0.9806
-2.9663 -3.3541 -2.2955 0.9801
-2.7400 -3.7187 -2.3681 0.9795
-2.4778 -4.0789 -2.4467 0.9788
-1.0366 -5.4079 -2.8229 0.9756
-0.0662 -5.9389 -3.0449 0.9737
3.6644 -6.3469 -3.7572 0.9676
4.3333 -6.1641 -3.8629 0.9667
5.6025 -5.5404 -4.0395 0.9652
7.0960 -3.9921 -4.1741 0.9641
7.4296 -3.3476 -4.1777 0.9640
7.6661 -2.6619 -4.1604 0.9642
7.6137 0.1697 -3.9043 0.9663
7.3746 0.8250 -3.8043 0.9672
7.0638 1.4358 -3.6954 0.9681
6.6926 1.9946 -3.5802 0.9691
6.2730 2.4966 -3.4613 0.9701
5.8163 2.9391 -3.3409 0.9711
5.3331 3.3215 -3.2210 0.9722
4.8329 3.6447 -3.1033 0.9732
2.8073 4.3976 -2.6747 0.9768
1.8492 4.4998 -2.4941 0.9784
1.3945 4.4955 -2.4130 0.9791
0.1438 4.3004 -2.2059 0.9808
-1.5408 3.5239 -1.9717 0.9829
-1.8185 3.3183 -1.9399 0.9831
-2.0770 3.0992 -1.9127 0.9834
-2.7404 2.3697 -1.8574 0.9838
-3.0906 1.8306 -1.8416 0.9840
-3.3674 1.2541 -1.8422 0.9840
-3.4778 0.9527 -1.8487 0.9839
-2.2585 0.4069 -1.1765 0.9897
-2.2093 0.1974 -1.1372 0.9901
-2.1765 -0.0000 -1.1619 0.9902
-2.1811 -0.1949 -1.1690 0.9901
-2.1789 -0.3925 -1.1819 0.9900
-2.1873 -0.5992 -1.2107 0.9898
-3.3889 -2.0073 -2.1027 0.9823
-3.2743 -2.3567 -2.1536 0.9819
-2.9581 -3.0587 -2.2716 0.9809
-2.2421 -4.0913 -2.4906 0.9791
-1.9325 -4.4197 -2.5751 0.9784
-1.1989 -5.0310 -2.7610 0.9768
-0.7736 -5.3045 -2.8618 0.9760
0.1926 -5.7595 -3.0764 0.9742
0.7301 -5.9279 -3.1885 0.9733
1.2995 -6.0476 -3.3022 0.9723
1.8958 -6.1114 -3.4159 0.9714
2.5119 -6.1123 -3.5278 0.9705
3.1392 -6.0440 -3.6358 0.9696
5.5286 -5.0004 -3.9795 0.9668
6.0291 -4.5468 -4.0313 0.9663
6.4602 -4.0235 -4.0629 0.9661
7.0827 -2.8188 -4.0695 0.9660
7.2601 -2.1637 -4.0442 0.9662
7.2405 -0.1613 -3.8662 0.9677
6.8143 1.0715 -3.6825 0.9692
6.1387 2.1316 -3.4690 0.9710
5.7334 2.5833 -3.3571 0.9719
5.2965 2.9797 -3.2442 0.9728
3.8840 3.8410 -2.9161 0.9755
3.4031 4.0252 -2.8139 0.9764
2.9264 4.1629 -2.7165 0.9772
1.5579 4.3302 -2.4567 0.9793
1.1305 4.3153 -2.3814 0.9800
-0.0457 4.1009 -2.1894 0.9816
-0.4005 3.9814 -2.1362 0.9820
-0.7364 3.8417 -2.0882 0.9824
-1.0533 3.6835 -2.0452 0.9828
-1.8913 3.1134 -1.9447 0.9836
-2.7524 2.1736 -1.8723 0.9842
-2.9228 1.9120 -1.8645 0.9843
-3.0753 1.6410 -1.8608 0.9843
-3.2097 1.3610 -1.8611 0.9843
-3.3258 1.0724 -1.8655 0.9843
-2.4373 0.5522 -1.3341 0.9887
-2.1681 0.2916 -1.1679 0.9901
-2.1765 -0.0971 -1.1631 0.9902
-2.1810 -0.2933 -1.1748 0.9901
-2.1912 -0.7066 -1.2291 0.9896
-2.2000 -0.9329 -1.2757 0.9892
-3.2064 -2.5321 -2.1811 0.9816
-3.0485 -2.8833 -2.2400 0.9812
-2.8598 -3.2336 -2.3045 0.9806
-0.5463 -5.4310 -2.9139 0.9756
-0.0630 -5.6592 -3.0213 0.9747
0.4571 -5.8493 -3.1321 0.9737
1.0111 -5.9943 -3.2452 0.9728
1.5947 -6.0869 -3.3591 0.9719
2.8247 -6.0871 -3.5824 0.9700
6.2537 -4.2929 -4.0494 0.9662
7.1830 -2.4942 -4.0592 0.9661
7.3138 -1.8293 -4.0247 0.9664
7.3516 -1.1559 -3.9728 0.9668
7.2990 -0.4886 -3.9052 0.9674
7.1617 0.1596 -3.8242 0.9680
6.6656 1.3548 -3.6311 0.9696
6.3264 1.8855 -3.5241 0.9705
5.9406 2.3643 -3.4133 0.9714
5.0692 3.1571 -3.1881 0.9733
4.6020 3.4705 -3.0771 0.9742
3.6434 3.9392 -2.8645 0.9760
3.1640 4.0997 -2.7646 0.9768
1.7776 4.3254 -2.4965 0.9790
0.1388 4.1524 -2.2179 0.9813
-0.2255 4.0438 -2.1621 0.9818
-1.2046 3.5979 -2.0255 0.9829
-1.4932 3.4151 -1.9897 0.9832
-1.7632 3.2174 -1.9586 0.9835
-2.2480 2.7824 -1.9096 0.9839
-2.6605 2.3007 -1.8777 0.9842
-3.0013 1.7777 -1.8622 0.9843
-3.1448 1.5021 -1.8605 0.9843
-3.2700 1.2178 -1.8628 0.9843
-2.2057 0.3974 -1.1965 0.9899
-2.1317 -0.7938 -1.2633 0.9896
-2.1374 -1.0210 -1.3156 0.9892
-2.2265 -1.3188 -1.4372 0.9882
-3.1661 -2.2788 -2.1666 0.9823
-2.4225 -3.6147 -2.4167 0.9803
-2.1569 -3.9358 -2.4926 0.9797
-1.8566 -4.2462 -2.5739 0.9790
-1.5208 -4.5423 -2.6604 0.9783
-0.7400 -5.0742 -2.8480 0.9768
1.7983 -5.7972 -3.3711 0.9726
2.3787 -5.7883 -3.4757 0.9718
2.9680 -5.7144 -3.5763 0.9710
5.2003 -4.7034 -3.8943 0.9684
6.4019 -3.2350 -3.9838 0.9677
6.6548 -2.6485 -3.9780 0.9678
6.8240 -2.0338 -3.9547 0.9679
6.9075 -1.4040 -3.9148 0.9683
6.9062 -0.7726 -3.8596 0.9687
6.8236 -0.1520 -3.7907 0.9693
6.4396 1.0126 -3.6205 0.9706
6.1545 1.5394 -3.5235 0.9714
5.8197 2.0208 -3.4215 0.9722
5.4445 2.4532 -3.3166 0.9730
5.0382 2.8345 -3.2106 0.9739
4.6092 3.1641 -3.1050 0.9747
3.2582 3.8539 -2.8029 0.9772
1.9238 4.1457 -2.5384 0.9793
-0.3874 3.8514 -2.1499 0.9824
-1.0203 3.5681 -2.0611 0.9832
-1.3097 3.4006 -2.0239 0.9835
-1.5812 3.2176 -1.9912 0.9837
-2.0708 2.8105 -1.9389 0.9842
-2.2892 2.5884 -1.9191 0.9843
-2.4900 2.3550 -1.9035 0.9844
-2.6733 2.1111 -1.8919 0.9845
-2.9874 1.5942 -1.8807 0.9846
