ply
format ascii 1.0
element vertex 1589
property float32 x
property float32 y
property float32 z
property float32 I
end_header
-9.2965 -4.9607 -1.3205 0.9584
-9.2350 -6.0412 -1.3829 0.9565
-9.2801 -10.4931 -1.7554 0.9451
0.5481 -3.2492 -0.4129 0.9868
0.6810 -2.5993 -0.3367 0.9892
0.8321 -2.3127 -0.3080 0.9901
0.9788 -2.1092 -0.2914 0.9907
1.4638 -1.7314 -0.2841 0.9909
1.6625 -1.6441 -0.2930 0.9906
1.8972 -1.5681 -0.3084 0.9901
2.2185 -1.5229 -0.3372 0.9892
2.9084 -1.6363 -0.4182 0.9866
1.4096 6.5595 -0.8408 0.9733
-0.6028 10.8115 -1.3570 0.9573
-4.2702 7.7921 -1.1135 0.9648
-4.7867 7.1423 -1.0775 0.9659
-5.6887 5.8821 -1.0255 0.9676
-6.4524 4.6441 -0.9963 0.9685
-7.1085 3.3955 -0.9872 0.9687
-7.4030 2.7569 -0.9900 0.9687
-3.8076 0.6860 -0.4848 0.9845
-3.5138 -0.3140 -0.5018 0.9858
-8.2965 -1.4947 -1.1991 0.9665
-8.6541 -4.1337 -1.3641 0.9620
-8.6259 -5.1092 -1.4260 0.9603
-8.5374 -8.8277 -1.7468 0.9516
-8.4164 -10.4172 -1.9049 0.9473
0.7537 -2.4295 -0.3618 0.9898
1.0555 -2.0321 -0.3257 0.9908
1.7643 -1.5957 -0.3384 0.9904
2.0365 -1.5358 -0.3628 0.9897
4.9765 13.8324 -2.0909 0.9423
3.3656 12.8465 -1.8889 0.9478
2.0174 11.9599 -1.7252 0.9522
-0.1159 10.4018 -1.4796 0.9588
-1.7328 9.0399 -1.3092 0.9635
-4.7601 6.4605 -1.1414 0.9681
-5.1932 5.8721 -1.1150 0.9688
-6.2953 4.1182 -1.0700 0.9701
-6.8980 2.9250 -1.0657 0.9702
-7.1664 2.3109 -1.0710 0.9700
-4.1432 0.9387 -0.6043 0.9830
-3.4470 -0.1537 -0.4908 0.9862
-8.5017 -2.7414 -1.2706 0.9646
-8.6914 -4.6379 -1.4012 0.9610
-8.6079 -5.6310 -1.4631 0.9593
-8.6106 -6.7997 -1.5606 0.9566
-8.3309 -11.3068 -1.9977 0.9448
0.5444 -3.2272 -0.4655 0.9869
1.1317 -1.9601 -0.3219 0.9909
4.1336 13.3253 -1.9844 0.9452
1.4045 6.5361 -0.9509 0.9734
0.3601 10.7694 -1.5327 0.9574
-0.5602 10.0462 -1.4312 0.9602
-3.2747 7.4896 -1.1627 0.9675
-5.3962 5.5796 -1.1041 0.9691
-5.7777 4.9961 -1.0864 0.9696
-6.1295 4.4118 -1.0742 0.9699
-6.4548 3.8232 -1.0671 0.9701
-3.6717 0.6615 -0.5306 0.9850
-3.3525 0.2996 -0.4788 0.9865
-3.2915 0.0000 -0.5241 0.9868
-8.0956 -4.7951 -1.4983 0.9626
-7.8887 -8.1568 -1.8069 0.9551
0.7518 -2.4235 -0.4040 0.9898
0.9038 -2.1992 -0.3786 0.9904
1.2044 -1.8867 -0.3564 0.9910
1.3714 -1.7770 -0.3574 0.9909
3.0768 11.7442 -1.9332 0.9520
1.8581 11.0156 -1.7789 0.9558
-0.9130 9.0761 -1.4525 0.9637
-2.2619 7.9104 -1.3101 0.9672
-2.8315 7.3519 -1.2545 0.9686
-4.0633 6.6891 -1.2463 0.9688
-4.5187 6.1329 -1.2130 0.9696
-4.9357 5.5808 -1.1863 0.9703
-5.3184 5.0301 -1.1657 0.9708
-6.8243 2.2006 -1.1418 0.9714
-3.2540 0.4376 -0.5228 0.9868
-3.2600 0.1454 -0.5196 0.9869
-3.4817 -0.4683 -0.5594 0.9859
-8.0246 -2.5876 -1.3426 0.9664
-8.1052 -3.4369 -1.4019 0.9650
-8.1565 -4.3524 -1.4722 0.9632
-8.0586 -5.2717 -1.5334 0.9617
-8.0212 -6.3343 -1.6275 0.9594
-7.8143 -8.8358 -1.8783 0.9533
-7.3176 -12.0464 -2.2444 0.9445
0.5407 -3.2054 -0.5176 0.9869
0.6774 -2.5857 -0.4256 0.9892
0.9758 -2.1028 -0.3691 0.9907
1.1300 -1.9572 -0.3599 0.9909
1.8822 -1.5557 -0.3888 0.9902
2.8198 -1.5864 -0.5152 0.9870
5.3218 12.9497 -2.2294 0.9449
3.7626 12.1293 -2.0222 0.9499
0.3346 10.0073 -1.5944 0.9603
-0.5230 9.3793 -1.4958 0.9627
-1.9532 8.1962 -1.3417 0.9664
-2.5543 7.6291 -1.2811 0.9679
-3.0952 7.0790 -1.2303 0.9692
-3.8194 6.9697 -1.2655 0.9683
-4.7317 5.8565 -1.1989 0.9700
-5.1311 5.3055 -1.1753 0.9705
-5.8361 4.2006 -1.1450 0.9713
-6.1478 3.6414 -1.1378 0.9715
-6.4352 3.0739 -1.1356 0.9715
-6.7000 2.4951 -1.1385 0.9715
-4.5041 1.2338 -0.7436 0.9813
-3.5500 0.6396 -0.5744 0.9855
-3.2454 0.2900 -0.5188 0.9869
-3.1939 0.0000 -0.5632 0.9871
-3.2817 -0.2933 -0.5810 0.9867
-7.6288 -2.8410 -1.4354 0.9675
-7.6298 -4.5191 -1.5636 0.9646
-7.1320 -8.8274 -2.0010 0.9550
0.5995 -2.7896 -0.5031 0.9885
0.7499 -2.4174 -0.4463 0.9898
1.2026 -1.8839 -0.3941 0.9910
1.3698 -1.7749 -0.3953 0.9909
1.5475 -1.6731 -0.4019 0.9908
1.7583 -1.5903 -0.4180 0.9904
2.4251 -1.5104 -0.5038 0.9885
1.7215 10.2059 -1.8250 0.9588
0.7521 9.6250 -1.7023 0.9615
-0.8575 8.5239 -1.5106 0.9658
-1.5320 7.9923 -1.4349 0.9675
-2.1361 7.4705 -1.3700 0.9689
-2.6804 6.9595 -1.3150 0.9702
-3.8610 6.3562 -1.3113 0.9702
-4.2996 5.8354 -1.2781 0.9710
-5.0700 4.7952 -1.2305 0.9721
-6.0076 3.2058 -1.2007 0.9727
-3.1644 0.1411 -0.5585 0.9872
-3.3507 -0.4506 -0.5961 0.9864
-7.5100 -1.7015 -1.3578 0.9692
-7.5960 -2.4494 -1.4073 0.9681
-7.6543 -3.2457 -1.4660 0.9668
-7.6813 -4.0989 -1.5352 0.9653
-7.5722 -4.9535 -1.5955 0.9639
-7.5048 -5.9265 -1.6862 0.9619
-7.4018 -7.0006 -1.7964 0.9595
-7.0047 -9.5069 -2.0822 0.9532
-6.6834 -11.0024 -2.2699 0.9491
-6.2413 -12.7007 -2.4953 0.9441
0.8272 -2.2992 -0.4308 0.9901
0.9743 -2.0996 -0.4081 0.9906
1.1283 -1.9542 -0.3979 0.9909
1.4548 -1.7207 -0.3973 0.9909
1.8815 -1.5551 -0.4304 0.9901
2.8111 -1.5815 -0.5687 0.9870
1.4008 6.5187 -1.1757 0.9733
0.3124 9.3429 -1.6483 0.9627
-0.4903 8.7927 -1.5528 0.9649
-1.2044 8.2579 -1.4715 0.9667
-2.4152 7.2137 -1.3414 0.9696
-3.0283 6.9259 -1.3329 0.9698
-3.6266 6.6177 -1.3306 0.9698
-4.0852 6.0955 -1.2939 0.9706
-4.5048 5.5756 -1.2639 0.9713
-4.8895 5.0558 -1.2402 0.9718
-5.2431 4.5339 -1.2222 0.9722
-4.2904 1.1753 -0.7844 0.9821
-3.4371 0.6192 -0.6158 0.9859
-7.0914 -5.1041 -1.6908 0.9650
-6.3268 -9.4402 -2.1992 0.9548
-5.9357 -10.8310 -2.3901 0.9509
0.5972 -2.7793 -0.5501 0.9885
0.9003 -2.1908 -0.4584 0.9904
1.5462 -1.6717 -0.4407 0.9908
2.0262 -1.5280 -0.4911 0.9897
5.1270 11.0483 -2.3570 0.9516
3.7835 10.5163 -2.1628 0.9555
2.6233 10.0127 -2.0030 0.9587
-0.0948 8.5144 -1.6478 0.9659
-0.8079 8.0306 -1.5619 0.9677
-2.0228 7.0744 -1.4239 0.9705
-2.5500 6.6209 -1.3730 0.9715
-3.6770 6.0532 -1.3706 0.9716
-5.1692 4.0821 -1.2746 0.9735
-5.4692 3.5778 -1.2647 0.9737
-5.7443 3.0653 -1.2600 0.9738
-3.1048 0.4175 -0.6062 0.9873
-3.0751 0.1371 -0.5957 0.9875
-3.1273 -0.1395 -0.6058 0.9873
-3.2339 -0.4349 -0.6315 0.9868
-7.2087 -2.3245 -1.4658 0.9696
-7.2486 -3.0737 -1.5236 0.9684
-7.2560 -3.8719 -1.5916 0.9670
-7.1385 -4.6698 -1.6508 0.9658
-7.0484 -5.5660 -1.7380 0.9641
-6.9241 -6.5487 -1.8443 0.9619
-6.1435 -10.1136 -2.2900 0.9529
-5.6959 -11.5907 -2.4992 0.9487
-5.1045 -13.2535 -2.7484 0.9438
0.5334 -3.1623 -0.6206 0.9870
0.6739 -2.5721 -0.5145 0.9892
0.8255 -2.2946 -0.4719 0.9901
1.6494 -1.6311 -0.4489 0.9906
2.8361 -1.5955 -0.6297 0.9868
1.1395 9.2525 -1.8041 0.9627
-1.7423 7.3112 -1.4545 0.9698
-2.2897 6.8390 -1.3957 0.9710
-3.8929 5.8087 -1.3532 0.9719
-4.2974 5.3190 -1.3233 0.9725
-4.6685 4.8272 -1.2996 0.9730
-5.3224 3.8309 -1.2690 0.9736
-5.8730 2.8053 -1.2595 0.9738
-3.3306 0.6000 -0.6549 0.9863
-3.0639 0.2738 -0.5953 0.9875
-3.0211 0.0000 -0.6369 0.9877
-3.2303 -0.5820 -0.6920 0.9867
-6.8332 -1.8718 -1.4937 0.9715
-6.5784 -5.6886 -1.8335 0.9651
-6.4105 -6.6284 -1.9440 0.9630
-6.1791 -7.6480 -2.0728 0.9606
1.0491 -2.0198 -0.4798 0.9907
1.1991 -1.8783 -0.4698 0.9909
1.5448 -1.6703 -0.4796 0.9907
2.0254 -1.5274 -0.5348 0.9897
2.4276 -1.5120 -0.6029 0.9884
3.5012 9.7318 -2.1804 0.9586
2.4371 9.3021 -2.0273 0.9615
1.4993 8.8884 -1.9003 0.9638
-0.0894 8.0224 -1.6914 0.9677
-1.3706 7.1504 -1.5349 0.9707
-3.5086 5.7760 -1.4248 0.9728
-3.9162 5.3151 -1.3918 0.9734
-5.2373 3.4261 -1.3194 0.9747
-5.5016 2.9357 -1.3147 0.9748
-5.9610 1.9222 -1.3204 0.9747
-3.0346 0.4081 -0.6455 0.9876
-2.9940 0.1335 -0.6318 0.9878
-3.0505 -0.1360 -0.6438 0.9876
-6.8025 -1.5412 -1.4705 0.9719
-6.8816 -2.9180 -1.5758 0.9699
-6.8731 -3.6676 -1.6424 0.9687
-6.7492 -4.4151 -1.7003 0.9676
-6.6418 -5.2450 -1.7842 0.9660
-6.5017 -6.1493 -1.8866 0.9641
-6.3034 -7.1275 -2.0059 0.9619
-6.0358 -8.1918 -2.1452 0.9593
-5.2322 -10.6472 -2.5010 0.9527
-3.9137 -13.6872 -3.0012 0.9435
0.5391 -3.1960 -0.6833 0.9868
0.6721 -2.5653 -0.5591 0.9892
1.2824 -1.8242 -0.4701 0.9909
1.4513 -1.7167 -0.4739 0.9909
1.8800 -1.5539 -0.5142 0.9901
2.1966 -1.5079 -0.5617 0.9892
1.3989 6.5099 -1.4037 0.9731
1.0681 8.6720 -1.8420 0.9649
-2.1761 6.4996 -1.4450 0.9724
-2.8261 6.4636 -1.4872 0.9716
-3.7168 5.5459 -1.4075 0.9731
-4.1071 5.0835 -1.3778 0.9736
-4.4654 4.6172 -1.3541 0.9741
-4.7943 4.1458 -1.3362 0.9744
-5.3724 3.1821 -1.3164 0.9748
-5.8546 2.1803 -1.3171 0.9748
-4.0001 1.0957 -0.8744 0.9832
-2.9810 0.2664 -0.6310 0.9878
-2.9710 0.0000 -0.6781 0.9879
-6.5181 -1.7855 -1.5425 0.9727
-6.5456 -2.4376 -1.5942 0.9717
-6.4910 -3.8446 -1.7219 0.9695
-6.3343 -4.5592 -1.7813 0.9685
-5.7885 -7.1645 -2.1023 0.9629
-4.5700 -10.4519 -2.6037 0.9543
-3.1475 -13.2077 -3.0990 0.9458
0.8969 -2.1823 -0.5385 0.9904
1.0475 -2.0167 -0.5187 0.9907
1.3649 -1.7685 -0.5099 0.9909
1.5435 -1.6688 -0.5188 0.9907
1.7536 -1.5861 -0.5397 0.9903
2.0245 -1.5267 -0.5788 0.9897
9.2119 10.8959 -3.2566 0.9431
5.6057 9.7093 -2.5589 0.9550
4.3584 9.3921 -2.3633 0.9584
0.6224 7.9644 -1.8234 0.9678
-1.8272 6.3901 -1.5170 0.9731
-2.4572 6.3801 -1.5605 0.9723
-2.9252 5.9526 -1.5138 0.9732
-3.3540 5.5214 -1.4745 0.9738
-3.7474 5.0860 -1.4419 0.9744
-4.4401 4.1995 -1.3949 0.9752
-5.2771 2.8160 -1.3652 0.9758
-5.7168 1.8434 -1.3710 0.9757
-3.4289 0.7769 -0.8025 0.9857
-2.9625 0.3984 -0.6823 0.9878
-3.0959 -0.4164 -0.7130 0.9873
-6.5476 -2.7765 -1.6233 0.9712
-6.5262 -3.4825 -1.6884 0.9701
-6.3978 -4.1852 -1.7449 0.9691
-6.2772 -4.9570 -1.8256 0.9677
-6.1255 -5.7934 -1.9244 0.9660
-5.9170 -6.6905 -2.0386 0.9640
-4.8370 -9.8431 -2.5032 0.9560
-2.6806 -13.9844 -3.2500 0.9433
0.5450 -3.2311 -0.7479 0.9866
0.8223 -2.2855 -0.5544 0.9901
0.9698 -2.0898 -0.5258 0.9906
1.1232 -1.9454 -0.5127 0.9908
1.2808 -1.8220 -0.5083 0.9909
1.4496 -1.7146 -0.5125 0.9908
1.8793 -1.5532 -0.5565 0.9900
2.9314 -1.6492 -0.7677 0.9863
8.3163 10.7758 -3.1068 0.9457
6.2921 9.8564 -2.6690 0.9532
2.7531 8.8750 -2.1209 0.9626
1.4005 6.5172 -1.5215 0.9730
0.2599 7.7720 -1.7749 0.9686
-0.4116 7.3820 -1.6875 0.9701
-1.5704 6.5898 -1.5462 0.9726
-2.6964 6.1668 -1.5362 0.9728
-3.1442 5.7375 -1.4933 0.9735
-3.9318 4.8665 -1.4280 0.9747
-4.5955 3.9740 -1.3867 0.9754
-4.8867 3.5172 -1.3742 0.9756
-5.1529 3.0521 -1.3670 0.9757
-5.3955 2.5772 -1.3648 0.9758
-3.1659 0.5704 -0.7342 0.9869
-2.9277 0.2616 -0.6709 0.9880
-2.9221 0.0000 -0.7183 0.9880
-3.1004 -0.5586 -0.7743 0.9871
-6.2309 -2.9762 -1.6973 0.9720
-6.0138 -4.3284 -1.8213 0.9699
-5.1265 -7.6492 -2.2634 0.9628
-4.7294 -8.6301 -2.4189 0.9603
-4.2356 -9.6870 -2.5987 0.9574
-3.6265 -10.8318 -2.8077 0.9540
-2.8775 -12.0747 -3.0511 0.9502
-1.9566 -13.4158 -3.3325 0.9457
0.6002 -2.7932 -0.7022 0.9883
0.8951 -2.1781 -0.5788 0.9903
1.0459 -2.0136 -0.5577 0.9907
1.1956 -1.8729 -0.5462 0.9909
1.7521 -1.5846 -0.5807 0.9903
10.1112 9.9991 -3.4954 0.9431
6.8667 9.7679 -2.9348 0.9520
5.1806 8.9730 -2.5468 0.9582
2.1373 8.1580 -2.0729 0.9659
1.3247 7.8533 -1.9576 0.9677
-0.0799 7.1768 -1.7642 0.9709
-1.2383 6.4600 -1.6168 0.9733
-1.7854 6.2439 -1.5963 0.9736
-2.7976 5.6931 -1.5592 0.9742
-3.5914 4.8743 -1.4882 0.9754
-3.9406 4.4557 -1.4621 0.9758
-4.2611 4.0302 -1.4416 0.9761
-5.2906 2.2434 -1.4125 0.9766
-5.4900 1.7703 -1.4179 0.9765
-3.3132 0.7507 -0.8350 0.9861
-2.8899 0.3887 -0.7167 0.9881
-2.9494 -0.1315 -0.7257 0.9879
-6.2410 -2.0125 -1.6118 0.9734
-6.2104 -3.3140 -1.7303 0.9714
-6.0796 -3.9771 -1.7858 0.9705
-5.7880 -5.4742 -1.9582 0.9677
-5.5728 -6.3013 -2.0677 0.9659
-3.9463 -10.2465 -2.6989 0.9558
-2.4404 -12.7315 -3.1864 0.9480
-1.4214 -14.1288 -3.4904 0.9432
0.5511 -3.2672 -0.8144 0.9864
0.9683 -2.0865 -0.5654 0.9906
1.1215 -1.9424 -0.5513 0.9908
1.2793 -1.8198 -0.5468 0.9909
2.9821 -1.6777 -0.8410 0.9860
9.2233 9.9721 -3.3388 0.9456
4.5998 8.8562 -2.4530 0.9597
3.5329 8.5968 -2.2846 0.9624
0.9471 7.6894 -1.9043 0.9686
0.2458 7.3506 -1.8078 0.9702
-1.4958 6.2769 -1.5861 0.9738
-2.5771 5.8941 -1.5812 0.9739
-3.0089 5.4906 -1.5390 0.9745
-3.4054 5.0813 -1.5035 0.9751
-4.1043 4.2438 -1.4512 0.9760
-4.4113 3.8146 -1.4335 0.9763
-3.8036 1.0419 -0.9694 0.9839
-2.9343 -0.2622 -0.7763 0.9879
-3.0385 -0.5474 -0.8135 0.9873
-5.9619 -1.6331 -1.6288 0.9748
-5.9700 -2.2232 -1.6786 0.9740
-5.8864 -3.4865 -1.8027 0.9721
-5.7212 -4.1179 -1.8574 0.9713
-5.5727 -4.8189 -1.9413 0.9700
-5.1319 -6.3519 -2.1518 0.9668
-4.4256 -8.0758 -2.4266 0.9626
-3.9445 -9.0214 -2.5944 0.9601
-3.3577 -10.0291 -2.7868 0.9572
-2.6475 -11.1092 -3.0093 0.9539
-1.7878 -12.2579 -3.2641 0.9500
0.6029 -2.8058 -0.7562 0.9882
0.7466 -2.4066 -0.6640 0.9896
0.8951 -2.1781 -0.6205 0.9903
1.0442 -2.0105 -0.5970 0.9907
1.1942 -1.8707 -0.5848 0.9909
1.3616 -1.7643 -0.5872 0.9908
1.5409 -1.6659 -0.5980 0.9907
2.0228 -1.5255 -0.6676 0.9896
2.4315 -1.5143 -0.7548 0.9882
9.2041 9.1021 -3.4109 0.9479
6.3419 9.0214 -2.9057 0.9554
3.7827 8.1515 -2.3679 0.9635
2.8531 7.9304 -2.2208 0.9657
2.0121 7.6801 -2.0920 0.9677
1.2508 7.4150 -1.9815 0.9694
-1.1807 6.1597 -1.6526 0.9744
-2.2453 5.8298 -1.6462 0.9745
-3.4468 4.6780 -1.5311 0.9763
-4.0947 3.8727 -1.4851 0.9770
-4.3789 3.4580 -1.4702 0.9772
-5.0880 2.1574 -1.4562 0.9774
-5.2790 1.7022 -1.4616 0.9773
-3.2212 0.7298 -0.8703 0.9864
-2.8316 0.3808 -0.7529 0.9883
-2.9007 -0.1293 -0.7651 0.9881
-2.9836 -0.4013 -0.7933 0.9876
-3.0953 -0.7013 -0.8363 0.9870
-5.9623 -2.5282 -1.7065 0.9736
-5.2640 -5.9521 -2.0938 0.9677
-2.2383 -11.6769 -3.1329 0.9520
-1.2934 -12.8567 -3.4049 0.9480
-0.1572 -14.1075 -3.7176 0.9433
0.5574 -3.3045 -0.8830 0.9862
0.6750 -2.5763 -0.7018 0.9890
1.2777 -1.8176 -0.5854 0.9909
1.6436 -1.6254 -0.6091 0.9905
2.1998 -1.5101 -0.7031 0.9890
3.0350 -1.7074 -0.9176 0.9857
10.0214 9.0638 -3.5605 0.9456
7.0008 9.0712 -3.0193 0.9537
1.4037 6.5324 -1.7606 0.9727
0.2330 6.9697 -1.8375 0.9716
-2.0139 6.0152 -1.6715 0.9741
-2.4671 5.6425 -1.6227 0.9748
-3.2669 4.8746 -1.5463 0.9760
-3.6192 4.4796 -1.5175 0.9765
-4.2399 3.6664 -1.4770 0.9771
-4.5117 3.2473 -1.4648 0.9773
-4.7594 2.8190 -1.4576 0.9774
-4.9841 2.3807 -1.4554 0.9774
-3.7365 1.0236 -1.0209 0.9841
-2.8347 0.2533 -0.7499 0.9883
-2.8279 0.0000 -0.7956 0.9883
-2.8819 -0.2575 -0.8141 0.9880
-5.7154 -2.1284 -1.7160 0.9750
-5.6187 -3.3280 -1.8374 0.9732
-5.2981 -4.5814 -1.9707 0.9713
-5.1030 -5.2765 -2.0653 0.9700
-4.5408 -6.7754 -2.2948 0.9667
-4.1564 -7.5845 -2.4334 0.9647
-3.1250 -9.3341 -2.7695 0.9599
-1.6440 -11.2724 -3.2051 0.9538
0.6057 -2.8187 -0.8112 0.9881
0.7486 -2.4132 -0.7109 0.9896
0.8971 -2.1829 -0.6640 0.9902
1.0449 -2.0119 -0.6378 0.9906
1.1928 -1.8684 -0.6237 0.9908
1.3599 -1.7621 -0.6263 0.9908
1.5395 -1.6645 -0.6379 0.9906
1.7489 -1.5818 -0.6635 0.9902
2.0220 -1.5248 -0.7125 0.9895
2.4328 -1.5151 -0.8064 0.9882
11.5089 7.9004 -3.9276 0.9436
8.4402 8.3466 -3.3398 0.9519
4.7817 8.2821 -2.6907 0.9610
1.1841 7.0196 -2.0029 0.9709
0.5283 6.7604 -1.9079 0.9722
-0.6226 6.1887 -1.7500 0.9745
-1.1648 6.0768 -1.7409 0.9746
-2.9567 4.8675 -1.6024 0.9766
-4.2145 3.3281 -1.5109 0.9779
-4.6933 2.5044 -1.4967 0.9781
-4.8986 2.0772 -1.4971 0.9781
-3.1370 0.7107 -0.9050 0.9867
-2.8062 0.1251 -0.7903 0.9884
-2.9298 -0.3940 -0.8317 0.9878
-3.0353 -0.6877 -0.8756 0.9872
-5.6561 -3.0182 -1.8038 0.9737
-5.5307 -3.6180 -1.8595 0.9729
-5.3773 -4.2464 -1.9278 0.9719
-4.9854 -5.6371 -2.1173 0.9692
-4.7054 -6.3862 -2.2319 0.9676
-4.3583 -7.1747 -2.3619 0.9657
-3.4199 -8.8796 -2.6772 0.9612
-0.1430 -12.8347 -3.6114 0.9481
0.6770 -2.5838 -0.7515 0.9890
1.1190 -1.9382 -0.6297 0.9907
1.6422 -1.6240 -0.6498 0.9904
1.8770 -1.5513 -0.6851 0.9899
2.2009 -1.5108 -0.7511 0.9890
10.6900 8.0617 -3.7671 0.9459
6.4816 8.3984 -2.9848 0.9569
5.3217 8.3363 -2.7827 0.9597
2.2832 7.3605 -2.1683 0.9685
0.2215 6.6234 -1.8646 0.9728
-0.3533 6.3372 -1.7858 0.9740
-0.8826 6.0518 -1.7207 0.9749
-1.4537 6.1001 -1.7644 0.9743
-1.9284 5.7597 -1.7090 0.9751
-2.7677 5.0504 -1.6203 0.9764
-3.1382 4.6825 -1.5860 0.9768
-3.4792 4.3062 -1.5576 0.9773
-4.0800 3.5281 -1.5176 0.9778
-4.5822 2.7141 -1.4984 0.9781
-4.7988 2.2922 -1.4963 0.9781
-4.9931 1.8594 -1.4991 0.9781
-3.6501 0.9999 -1.0648 0.9844
-2.7884 0.2492 -0.7877 0.9884
-2.7824 0.0000 -0.8330 0.9884
-3.0126 -0.8253 -0.9351 0.9870
-4.6009 -5.6946 -2.1918 0.9699
-4.2922 -6.4045 -2.3082 0.9683
-2.9207 -8.7238 -2.7542 0.9623
-2.2781 -9.5593 -2.9420 0.9598
1.6138 -13.1034 -3.9525 0.9464
0.6085 -2.8317 -0.8671 0.9880
0.7507 -2.4200 -0.7585 0.9895
1.1952 -1.8723 -0.6650 0.9908
1.3605 -1.7629 -0.6667 0.9907
1.5392 -1.6642 -0.6787 0.9906
2.4604 -1.5323 -0.8678 0.9880
11.9680 6.7331 -4.1111 0.9443
10.4767 7.1919 -3.8044 0.9483
9.0823 7.5067 -3.5276 0.9520
5.4911 7.8113 -2.8585 0.9609
2.5337 7.0425 -2.2407 0.9692
1.7990 6.8667 -2.1251 0.9708
-0.0688 6.1791 -1.8500 0.9745
-0.6039 6.0035 -1.8064 0.9751
-1.1494 5.9962 -1.8278 0.9748
-2.4691 5.0244 -1.6760 0.9769
-2.8425 4.6794 -1.6391 0.9774
-3.1867 4.3250 -1.6083 0.9778
-3.7943 3.5886 -1.5635 0.9784
-4.0606 3.2066 -1.5490 0.9786
-4.3034 2.8152 -1.5395 0.9788
-4.5234 2.4139 -1.5350 0.9788
-4.8974 1.5792 -1.5405 0.9787
-3.0564 0.6925 -0.9382 0.9870
-2.7203 0.3658 -0.8218 0.9886
-2.7619 0.1232 -0.8277 0.9885
-2.8771 -0.3869 -0.8691 0.9880
-2.9771 -0.6745 -0.9139 0.9873
-5.4650 -2.3174 -1.7771 0.9755
-5.2913 -3.4614 -1.8930 0.9739
-5.1278 -4.0494 -1.9561 0.9731
-4.9548 -4.6862 -2.0417 0.9719
-4.7325 -5.3512 -2.1387 0.9706
-4.1131 -6.7711 -2.3718 0.9675
-3.2033 -8.3172 -2.6683 0.9635
-2.6129 -9.1380 -2.8454 0.9611
-1.9144 -9.9873 -3.0445 0.9584
-1.0928 -10.8632 -3.2686 0.9554
-0.1311 -11.7632 -3.5219 0.9521
0.9892 -12.6590 -3.8014 0.9484
2.2842 -13.5419 -4.1114 0.9443
0.6789 -2.5914 -0.8020 0.9889
1.1214 -1.9423 -0.6714 0.9907
1.4440 -1.7080 -0.6696 0.9907
1.6415 -1.6233 -0.6912 0.9904
2.2092 -1.5165 -0.8022 0.9889
12.7472 6.4415 -4.2758 0.9421
11.2107 6.9821 -3.9540 0.9463
7.1778 7.7605 -3.1648 0.9568
4.9745 7.7924 -2.7677 0.9621
2.9635 7.2112 -2.3341 0.9680
2.1586 6.9585 -2.1812 0.9700
0.2109 6.3071 -1.8893 0.9740
-0.3372 6.0475 -1.8133 0.9750
-0.8796 6.0308 -1.8246 0.9749
-1.8491 5.5230 -1.7437 0.9760
-2.2707 5.1932 -1.6969 0.9766
-3.0181 4.5034 -1.6230 0.9776
-3.6520 3.7761 -1.5727 0.9783
-3.9304 3.3988 -1.5556 0.9785
-4.4162 2.6157 -1.5367 0.9788
-4.6252 2.2093 -1.5345 0.9788
-4.8121 1.7921 -1.5373 0.9788
-3.5598 0.9751 -1.1050 0.9847
-2.7412 0.2450 -0.8239 0.9886
-2.7380 0.0000 -0.8695 0.9886
-2.8694 -0.5170 -0.9260 0.9878
-5.2603 -1.9589 -1.7827 0.9767
-5.1423 -3.0458 -1.8981 0.9752
-4.6191 -4.7761 -2.1102 0.9725
-3.6997 -6.7512 -2.4449 0.9682
-2.7399 -8.1835 -2.7407 0.9644
-2.1280 -8.9295 -2.9153 0.9622
-1.4131 -9.6890 -3.1096 0.9597
-0.5829 -10.4546 -3.3254 0.9570
0.3752 -11.2217 -3.5658 0.9540
1.4744 -11.9708 -3.8305 0.9506
0.9011 -2.1926 -0.7529 0.9901
1.0494 -2.0205 -0.7231 0.9905
1.1981 -1.8768 -0.7071 0.9907
1.3638 -1.7671 -0.7089 0.9907
1.5439 -1.6693 -0.7221 0.9905
1.7535 -1.5860 -0.7509 0.9901
2.0333 -1.5334 -0.8088 0.9894
12.2490 5.5192 -4.2667 0.9452
10.9011 6.1328 -3.9723 0.9489
6.1449 7.2682 -3.0227 0.9608
5.1412 7.3135 -2.8391 0.9632
4.2105 7.2928 -2.6744 0.9653
3.3491 7.2171 -2.5268 0.9672
1.7066 6.5139 -2.1385 0.9721
1.0684 6.3341 -2.0400 0.9734
0.4789 6.1287 -1.9523 0.9745
-0.6027 5.9911 -1.9123 0.9750
-1.5595 5.4539 -1.8015 0.9765
-1.9829 5.1487 -1.7522 0.9771
-2.3743 4.8316 -1.7097 0.9777
-3.6581 3.4598 -1.5991 0.9791
-4.3640 2.3287 -1.5709 0.9795
-4.7241 1.5233 -1.5764 0.9794
-2.9790 0.6750 -0.9701 0.9873
-2.7186 0.1212 -0.8643 0.9886
-2.7612 -0.1231 -0.8778 0.9885
-2.8255 -0.3800 -0.9054 0.9881
-2.9205 -0.6617 -0.9510 0.9875
-5.2432 -2.2233 -1.8087 0.9764
-4.7238 -4.4677 -2.0649 0.9731
-4.5019 -5.0904 -2.1582 0.9719
-3.4896 -7.1011 -2.5128 0.9673
-1.7842 -9.3080 -3.0099 0.9610
-1.0132 -10.0716 -3.2147 0.9584
-0.1207 -10.8378 -3.4421 0.9555
0.6810 -2.5991 -0.8533 0.9888
0.8281 -2.3017 -0.7769 0.9898
1.1238 -1.9464 -0.7138 0.9906
1.6466 -1.6283 -0.7354 0.9903
1.8860 -1.5588 -0.7771 0.9898
12.9368 5.1487 -4.4220 0.9432
8.9837 6.7749 -3.5735 0.9539
6.6748 7.2168 -3.1220 0.9596
3.7714 7.2613 -2.5986 0.9662
2.9431 7.1616 -2.4590 0.9680
2.0452 6.5930 -2.1923 0.9714
-0.3331 5.9741 -1.9002 0.9752
-1.7754 5.3029 -1.7760 0.9768
-2.5586 4.6689 -1.6908 0.9779
-3.7900 3.2774 -1.5913 0.9792
-4.0365 2.9053 -1.5795 0.9793
-4.4621 2.1314 -1.5705 0.9795
-3.4730 0.9513 -1.1436 0.9850
-2.7749 0.4999 -0.8954 0.9882
-2.6945 0.0000 -0.9053 0.9887
-2.7374 -0.2446 -0.9234 0.9885
-2.8177 -0.5076 -0.9620 0.9880
-2.8971 -0.7936 -1.0092 0.9874
-5.0559 -1.8828 -1.8126 0.9775
-5.0094 -2.3928 -1.8652 0.9768
-4.7693 -3.4328 -1.9743 0.9755
-4.4069 -4.5567 -2.1298 0.9736
-4.1616 -5.1509 -2.2249 0.9724
-3.8628 -5.7638 -2.3312 0.9711
1.3546 -10.9983 -3.7231 0.9543
0.7550 -2.4337 -0.8561 0.9893
0.9031 -2.1976 -0.7983 0.9900
1.0517 -2.0249 -0.7666 0.9904
1.5487 -1.6744 -0.7663 0.9904
1.7591 -1.5910 -0.7969 0.9900
11.1681 5.0321 -4.1156 0.9496
7.7701 6.4222 -3.3869 0.9584
5.7506 6.8018 -2.9926 0.9631
4.8302 6.8710 -2.8219 0.9652
3.9697 6.8757 -2.6675 0.9671
3.1676 6.8259 -2.5283 0.9687
1.0324 6.1202 -2.0853 0.9741
0.4693 6.0053 -2.0238 0.9749
-0.0664 5.9627 -2.0035 0.9752
-0.5806 5.7719 -1.9491 0.9758
-1.0569 5.5138 -1.8862 0.9766
-1.4983 5.2398 -1.8310 0.9773
-1.9071 4.9519 -1.7829 0.9779
-2.2857 4.6512 -1.7412 0.9784
-2.6357 4.3390 -1.7057 0.9788
-2.9588 4.0158 -1.6759 0.9792
-3.7802 2.9853 -1.6184 0.9799
-4.2138 2.2486 -1.6047 0.9800
-4.3981 1.8650 -1.6051 0.9800
-4.5610 1.4707 -1.6101 0.9800
-2.6762 0.1193 -0.9001 0.9888
-2.7168 -0.1212 -0.9137 0.9886
-2.7751 -0.3732 -0.9408 0.9883
-2.8653 -0.6492 -0.9871 0.9877
-5.0676 -1.6341 -1.7890 0.9778
-5.0366 -2.1357 -1.8381 0.9772
-4.9740 -2.6542 -1.8942 0.9765
-4.8639 -3.1818 -1.9528 0.9758
-4.6877 -3.7019 -2.0069 0.9751
-4.0193 -5.4550 -2.2766 0.9718
-0.1119 -10.0466 -3.3757 0.9585
1.9055 -11.2970 -3.8492 0.9528
1.1262 -1.9506 -0.7568 0.9905
1.6517 -1.6334 -0.7805 0.9902
1.8945 -1.5659 -0.8258 0.9897
2.2425 -1.5394 -0.9139 0.9886
12.9304 3.8537 -4.5332 0.9447
11.7575 4.6794 -4.2517 0.9480
8.3101 6.2670 -3.4970 0.9570
7.2436 6.5514 -3.2815 0.9596
6.2334 6.7395 -3.0844 0.9620
2.7876 6.7833 -2.4640 0.9695
2.0262 6.5317 -2.2977 0.9716
1.3356 6.2153 -2.1359 0.9735
0.1998 5.9762 -2.0090 0.9751
-0.3287 5.8945 -1.9835 0.9754
-1.7066 5.0975 -1.8061 0.9776
-2.1001 4.8031 -1.7613 0.9781
-2.8005 4.1787 -1.6901 0.9790
-3.1108 3.8503 -1.6631 0.9793
-3.3963 3.5117 -1.6414 0.9796
-4.3086 2.0581 -1.6043 0.9801
-2.7169 0.4895 -0.9275 0.9884
-2.6500 0.2368 -0.8939 0.9888
-2.7668 -0.4985 -0.9969 0.9881
-2.8417 -0.7784 -1.0448 0.9876
-4.8147 -2.2998 -1.8920 0.9776
-4.2113 -4.3544 -2.1480 0.9746
-3.9690 -4.9125 -2.2394 0.9736
-2.9146 -6.6659 -2.5797 0.9696
-1.8767 -7.8751 -2.8706 0.9662
-1.2365 -8.4780 -3.0380 0.9643
-0.5057 -9.0692 -3.2208 0.9622
1.2525 -10.1691 -3.6331 0.9574
0.9052 -2.2027 -0.8444 0.9899
1.2039 -1.8859 -0.7934 0.9905
1.5535 -1.6796 -0.8113 0.9903
1.7652 -1.5966 -0.8440 0.9899
14.0134 0.9381 -4.9801 0.9421
12.2622 3.0670 -4.4819 0.9478
9.2287 5.1920 -3.7547 0.9561
8.2191 5.6421 -3.5350 0.9586
7.2386 5.9829 -3.3299 0.9609
6.2969 6.2272 -3.1402 0.9631
4.5517 6.4749 -2.8064 0.9670
3.7527 6.4998 -2.6613 0.9686
2.3014 6.3968 -2.4105 0.9716
1.6461 6.2832 -2.3031 0.9728
0.4658 5.9604 -2.1199 0.9749
-0.0642 5.7599 -2.0425 0.9758
-2.2025 4.4820 -1.7708 0.9790
-2.5417 4.1842 -1.7359 0.9794
-3.1440 3.5550 -1.6828 0.9801
-3.4094 3.2246 -1.6640 0.9803
-3.6521 2.8841 -1.6501 0.9804
-3.8729 2.5335 -1.6410 0.9806
-4.0722 2.1730 -1.6367 0.9806
-4.2502 1.8023 -1.6370 0.9806
-4.4072 1.4211 -1.6420 0.9805
-2.5615 0.5804 -0.9313 0.9889
-2.5748 0.3463 -0.9212 0.9890
-2.6346 0.1175 -0.9351 0.9889
-2.6733 -0.1192 -0.9489 0.9887
-2.8093 -0.6365 -1.0214 0.9878
-2.8709 -0.9257 -1.0696 0.9873
-4.8435 -2.0538 -1.8655 0.9779
-3.8291 -5.1970 -2.2890 0.9730
-3.5086 -5.7760 -2.3963 0.9717
-0.1042 -9.3570 -3.3181 0.9611
0.7743 -9.9089 -3.5243 0.9587
1.4546 -1.7205 -0.7989 0.9905
1.9032 -1.5730 -0.8755 0.9896
2.2599 -1.5513 -0.9719 0.9884
13.6161 1.5232 -4.8582 0.9435
12.7354 2.5886 -4.6081 0.9463
10.7652 4.2844 -4.1084 0.9520
9.7402 4.9220 -3.8696 0.9547
8.7210 5.4315 -3.6430 0.9573
6.7625 6.1163 -3.2331 0.9620
5.8427 6.3171 -3.0511 0.9641
4.9698 6.4396 -2.8843 0.9661
4.1460 6.4946 -2.7321 0.9678
3.3717 6.4917 -2.5938 0.9694
2.6463 6.4392 -2.4686 0.9709
1.9681 6.3445 -2.3554 0.9722
0.7446 6.0452 -2.1597 0.9745
0.1960 5.8631 -2.0801 0.9754
-0.7904 5.4198 -1.9421 0.9770
-1.2321 5.1704 -1.8847 0.9777
-1.6423 4.9054 -1.8343 0.9783
-2.0228 4.6264 -1.7904 0.9788
-2.3754 4.3346 -1.7527 0.9792
-2.7015 4.0310 -1.7206 0.9796
-3.2795 3.3911 -1.6728 0.9802
-3.5335 3.0556 -1.6564 0.9804
-3.7653 2.7100 -1.6450 0.9805
-4.3313 1.6130 -1.6389 0.9806
-2.6624 0.4796 -0.9592 0.9886
-2.6060 0.2329 -0.9277 0.9890
-2.6498 -0.2368 -0.9934 0.9887
-4.0302 -4.1672 -2.1648 0.9756
-3.1641 -5.7737 -2.4585 0.9723
-1.7704 -7.4291 -2.8518 0.9679
-1.1626 -7.9712 -3.0080 0.9662
0.6415 -2.9850 -1.1401 0.9870
0.9073 -2.2078 -0.8913 0.9899
1.0564 -2.0339 -0.8558 0.9903
1.3739 -1.7802 -0.8397 0.9904
1.5584 -1.6849 -0.8570 0.9902
12.0069 1.8880 -4.5386 0.9494
11.2171 2.8056 -4.3176 0.9518
9.4684 4.2663 -3.8779 0.9566
8.5605 4.8161 -3.6677 0.9589
5.9111 5.8456 -3.1043 0.9651
5.0866 6.0165 -2.9419 0.9669
4.3008 6.1180 -2.7925 0.9686
3.5560 6.1591 -2.6557 0.9701
2.8529 6.1479 -2.5308 0.9715
2.1916 6.0915 -2.4174 0.9727
0.9897 5.8671 -2.2218 0.9749
0.4461 5.7089 -2.1383 0.9758
-0.0615 5.5253 -2.0633 0.9767
-0.9766 5.0946 -1.9370 0.9781
-2.1243 4.3229 -1.7986 0.9796
-2.4531 4.0385 -1.7644 0.9800
-2.7572 3.7423 -1.7357 0.9803
-3.0377 3.4348 -1.7122 0.9806
-3.2954 3.1167 -1.6937 0.9808
-3.9382 2.1015 -1.6668 0.9811
-4.2617 1.3742 -1.6721 0.9811
-2.5325 0.3406 -0.9542 0.9891
-2.5920 0.1156 -0.9689 0.9890
-2.6307 -0.1173 -0.9833 0.9888
-2.6781 -0.3602 -1.0090 0.9885
-2.7556 -0.6244 -1.0551 0.9880
-2.8043 -0.9043 -1.1002 0.9875
-4.6627 -1.9772 -1.8912 0.9786
-4.4889 -2.9365 -2.0030 0.9774
-4.3119 -3.4051 -2.0516 0.9768
-4.1328 -3.9088 -2.1242 0.9760
-3.6542 -4.9596 -2.3004 0.9740
-2.0457 -7.1543 -2.7786 0.9687
-0.8286 -8.2365 -3.0911 0.9653
0.7211 -9.2282 -3.4564 0.9612
1.6292 -9.6585 -3.6576 0.9590
1.1312 -1.9592 -0.8448 0.9904
1.2902 -1.8353 -0.8377 0.9905
1.6623 -1.6439 -0.8730 0.9901
1.9121 -1.5804 -0.9263 0.9895
13.7745 -2.1659 -5.2067 0.9422
13.4775 -0.9022 -5.0439 0.9440
12.3672 1.3835 -4.6468 0.9483
10.7957 3.2175 -4.2065 0.9530
9.0150 4.5555 -3.7717 0.9578
8.1071 5.0491 -3.5664 0.9600
6.3366 5.7311 -3.1904 0.9642
3.1992 6.1596 -2.5918 0.9708
2.5171 6.1250 -2.4727 0.9721
0.7133 5.7914 -2.1789 0.9754
-1.1857 4.9755 -1.9099 0.9784
-2.2919 4.1823 -1.7808 0.9798
-2.6082 3.8918 -1.7494 0.9802
-2.9004 3.5899 -1.7233 0.9805
-3.1694 3.2771 -1.7024 0.9807
-3.4159 2.9538 -1.6863 0.9809
-3.8443 2.2770 -1.6684 0.9811
-4.0268 1.9235 -1.6664 0.9811
-2.6096 0.4701 -0.9901 0.9887
-2.6073 -0.2330 -1.0273 0.9888
-2.7584 -1.0272 -1.1552 0.9874
-4.4616 -2.1311 -1.9405 0.9790
-4.3755 -2.5917 -1.9959 0.9784
-4.2264 -3.0420 -2.0437 0.9779
-4.0549 -3.5064 -2.1039 0.9772
-3.8621 -3.9934 -2.1804 0.9764
-3.0150 -5.5017 -2.4622 0.9734
-2.6291 -6.0130 -2.5757 0.9722
-1.0962 -7.5165 -2.9812 0.9679
0.7700 -2.4823 -1.0200 0.9889
1.0588 -2.0386 -0.9016 0.9902
1.2100 -1.8953 -0.8825 0.9904
1.5634 -1.6903 -0.9037 0.9902
2.7932 -1.7396 -1.2915 0.9860
11.7680 -5.9466 -5.1748 0.9449
12.4751 -3.7180 -5.1089 0.9456
12.5246 -2.5457 -5.0160 0.9466
11.0083 1.7310 -4.3735 0.9532
10.3261 2.5827 -4.1775 0.9553
9.5776 3.3257 -3.9791 0.9574
7.9759 4.4871 -3.5917 0.9614
5.5658 5.5041 -3.0721 0.9669
3.3767 5.8487 -2.6505 0.9714
2.7156 5.8519 -2.5319 0.9727
2.0906 5.8108 -2.4237 0.9738
1.5015 5.7311 -2.3252 0.9749
0.4278 5.4749 -2.1553 0.9767
-0.0591 5.3065 -2.0828 0.9775
-0.9401 4.9047 -1.9600 0.9788
-1.3371 4.6761 -1.9088 0.9793
-2.3696 3.9009 -1.7913 0.9806
-2.6648 3.6167 -1.7632 0.9809
-2.9372 3.3212 -1.7401 0.9811
-3.4163 2.6978 -1.7085 0.9815
-3.6241 2.3708 -1.6997 0.9816
-3.9778 1.6867 -1.6957 0.9816
-4.1239 1.3298 -1.7006 0.9816
-2.4910 0.3350 -0.9865 0.9893
-2.7236 -0.8783 -1.1231 0.9878
-4.4929 -1.9051 -1.9153 0.9792
-4.3184 -2.8249 -2.0253 0.9781
-4.1425 -3.2713 -2.0717 0.9776
-3.7501 -4.2403 -2.2217 0.9760
-3.4927 -4.7403 -2.3109 0.9750
-3.1871 -5.2468 -2.4094 0.9740
-2.4142 -6.2684 -2.6363 0.9715
-1.9375 -6.7757 -2.7659 0.9702
0.6742 -8.6280 -3.3966 0.9635
1.5175 -8.9963 -3.5807 0.9616
0.8393 -2.3329 -0.9731 0.9894
0.9819 -2.1159 -0.9155 0.9900
1.1337 -1.9636 -0.8899 0.9903
1.2935 -1.8400 -0.8827 0.9904
1.4628 -1.7302 -0.8892 0.9903
1.9211 -1.5878 -0.9782 0.9893
2.2959 -1.5761 -1.0930 0.9881
11.4651 -6.4501 -5.1629 0.9450
12.0229 -5.4172 -5.1755 0.9449
12.4762 -1.9618 -4.9567 0.9472
12.2433 -0.8196 -4.8159 0.9486
11.8478 0.2640 -4.6511 0.9504
7.5677 4.7132 -3.4990 0.9624
6.7550 5.0942 -3.3205 0.9643
5.9568 5.3876 -3.1522 0.9661
4.4347 5.7462 -2.8487 0.9693
3.0417 5.8562 -2.5899 0.9720
2.3985 5.8365 -2.4766 0.9732
1.7916 5.7754 -2.3732 0.9744
0.1804 5.3937 -2.1181 0.9771
-0.7310 5.0125 -1.9881 0.9785
-1.1421 4.7925 -1.9336 0.9791
-2.5201 3.7603 -1.7766 0.9807
-3.3045 2.8576 -1.7146 0.9814
-3.5228 2.5356 -1.7035 0.9815
-3.7202 2.2035 -1.6970 0.9816
-4.0534 1.5095 -1.6976 0.9816
-2.5633 0.4618 -1.0222 0.9889
-2.5655 -0.2293 -1.0607 0.9889
-2.6211 -0.4722 -1.0967 0.9885
-2.6410 -0.7234 -1.1276 0.9882
-4.2135 -2.4957 -2.0166 0.9790
-3.8960 -3.3690 -2.1210 0.9780
-3.1999 -4.7746 -2.3668 0.9754
-0.4197 -7.5277 -3.1046 0.9679
0.2647 -7.9161 -3.2616 0.9663
1.8368 -8.5475 -3.6000 0.9629
1.0613 -2.0433 -0.9481 0.9901
1.2131 -1.9002 -0.9283 0.9903
1.5685 -1.6959 -0.9512 0.9901
2.0914 -1.5772 -1.0786 0.9887
11.1178 -4.4248 -4.9274 0.9496
11.3573 -3.3848 -4.8800 0.9500
11.3156 -1.2658 -4.6886 0.9519
11.0556 -0.2463 -4.5536 0.9533
10.1529 1.5965 -4.2321 0.9565
7.4597 4.1967 -3.5245 0.9637
6.7190 4.6123 -3.3559 0.9654
5.9808 4.9432 -3.1951 0.9670
5.2548 5.1966 -3.0432 0.9685
3.8664 5.5000 -2.7684 0.9713
3.2127 5.5645 -2.6458 0.9726
2.5893 5.5797 -2.5330 0.9737
1.9973 5.5516 -2.4295 0.9748
1.4371 5.4853 -2.3350 0.9758
0.9085 5.3857 -2.2490 0.9767
-0.0568 5.1018 -2.1010 0.9782
-0.4954 4.9241 -2.0379 0.9788
-0.9059 4.7262 -1.9816 0.9794
-1.2897 4.5103 -1.9317 0.9799
-1.6477 4.2781 -1.8878 0.9804
-2.2906 3.7708 -1.8168 0.9811
-2.5773 3.4979 -1.7891 0.9814
-2.8419 3.2134 -1.7665 0.9816
-3.6906 1.9694 -1.7226 0.9821
-3.9931 1.2876 -1.7276 0.9820
-2.6388 0.5979 -1.1141 0.9884
-2.5068 0.1118 -1.0333 0.9892
-2.5479 -0.1136 -1.0502 0.9890
-2.5854 -0.3477 -1.0742 0.9888
-2.6299 -0.5959 -1.1104 0.9884
-4.1579 -2.7200 -2.0460 0.9787
-3.8056 -3.5993 -2.1570 0.9776
-3.3429 -4.5371 -2.3207 0.9759
-3.0450 -5.0127 -2.4151 0.9749
-2.6976 -5.4894 -2.5186 0.9739
-2.2969 -5.9637 -2.6316 0.9727
-1.3198 -6.8855 -2.8870 0.9701
1.4189 -8.4120 -3.5129 0.9638
0.7120 -2.7176 -1.1568 0.9879
0.8465 -2.3528 -1.0297 0.9892
1.1363 -1.9681 -0.9358 0.9902
1.2968 -1.8447 -0.9285 0.9903
1.6733 -1.6548 -0.9691 0.9899
1.9304 -1.5955 -1.0313 0.9892
2.3222 -1.5941 -1.1598 0.9879
11.2597 -3.9098 -4.9081 0.9497
11.2038 -0.7500 -4.6238 0.9526
10.8735 0.2423 -4.4786 0.9540
9.8645 2.0050 -4.1451 0.9574
9.2331 2.7518 -3.9673 0.9592
7.0898 4.4155 -3.4393 0.9645
5.6157 5.0791 -3.1180 0.9678
3.5359 5.5388 -2.7059 0.9720
2.8971 5.5779 -2.5882 0.9732
2.2893 5.5707 -2.4801 0.9743
1.7132 5.5229 -2.3811 0.9753
0.1733 5.1822 -2.1351 0.9778
-0.2796 5.0156 -2.0686 0.9785
-1.1011 4.6204 -1.9559 0.9797
-2.4367 3.6359 -1.8023 0.9812
-2.9662 3.0670 -1.7570 0.9817
-3.6025 2.1337 -1.7241 0.9821
-3.7738 1.8026 -1.7222 0.9821
-3.5071 0.9607 -1.4974 0.9844
-2.5181 0.4537 -1.0536 0.9890
-2.4793 0.2215 -1.0250 0.9893
-2.5507 -0.6987 -1.1408 0.9885
-3.9240 -2.8243 -2.0855 0.9792
-3.7479 -3.2410 -2.1373 0.9786
-3.0641 -4.5719 -2.3741 0.9763
-2.7507 -5.0193 -2.4689 0.9754
-1.9757 -5.9011 -2.6843 0.9733
-0.9820 -6.7331 -2.9351 0.9708
0.2494 -7.4604 -3.2199 0.9680
1.7206 -8.0072 -3.5328 0.9650
0.7870 -2.5371 -1.1458 0.9885
1.2170 -1.9064 -0.9756 0.9902
1.3845 -1.7939 -0.9775 0.9902
1.5737 -1.7015 -0.9998 0.9900
9.7905 -4.9474 -4.7318 0.9533
10.4115 -3.1029 -4.6863 0.9538
10.1917 -0.2271 -4.3973 0.9566
9.8534 0.6596 -4.2599 0.9579
9.4114 1.4799 -4.1096 0.9593
8.2968 2.8810 -3.7885 0.9625
7.0004 3.9384 -3.4648 0.9656
6.3239 4.3411 -3.3088 0.9671
4.9731 4.9180 -3.0170 0.9700
4.3152 5.1041 -2.8831 0.9713
3.6769 5.2305 -2.7579 0.9725
3.0619 5.3033 -2.6415 0.9737
2.4727 5.3285 -2.5339 0.9747
1.9109 5.3114 -2.4349 0.9757
1.3773 5.2568 -2.3441 0.9766
0.8720 5.1693 -2.2613 0.9774
0.3948 5.0525 -2.1861 0.9782
-0.8737 4.5581 -2.0020 0.9800
-2.9879 2.8259 -1.7740 0.9822
-3.2039 2.5302 -1.7610 0.9824
-3.8687 1.2475 -1.7534 0.9824
-2.5715 0.5826 -1.1373 0.9886
-2.4106 0.3242 -1.0492 0.9895
-2.4654 0.1099 -1.0645 0.9893
-2.5277 -0.3399 -1.1001 0.9890
-2.5465 -0.5770 -1.1263 0.9887
-2.6695 -1.1320 -1.2508 0.9874
-4.1089 -2.1926 -2.0090 0.9799
-3.8350 -3.0285 -2.1079 0.9789
-3.4509 -3.9020 -2.2470 0.9776
-1.7487 -6.1155 -2.7437 0.9727
-1.2521 -6.5324 -2.8691 0.9714
0.8539 -2.3734 -1.0880 0.9891
1.1417 -1.9774 -0.9849 0.9901
1.3002 -1.8495 -0.9752 0.9902
1.6790 -1.6604 -1.0186 0.9898
2.3818 -1.6350 -1.2462 0.9875
9.5422 -5.3683 -4.7228 0.9534
10.3159 -0.6906 -4.4598 0.9560
9.1578 1.8614 -4.0311 0.9601
6.6632 4.1499 -3.3861 0.9664
5.3077 4.8005 -3.0870 0.9693
4.6420 5.0189 -2.9490 0.9707
3.3663 5.2732 -2.6986 0.9731
2.1883 5.3249 -2.4833 0.9752
1.6405 5.2885 -2.3885 0.9762
0.6299 5.1143 -2.2228 0.9778
0.1667 4.9842 -2.1512 0.9785
-1.4213 4.2453 -1.9311 0.9807
-1.7563 4.0167 -1.8910 0.9811
-2.0681 3.7739 -1.8563 0.9814
-2.3576 3.5179 -1.8267 0.9817
-2.6255 3.2496 -1.8021 0.9820
-3.0984 2.6793 -1.7669 0.9823
-3.3044 2.3784 -1.7562 0.9824
-3.6566 1.7466 -1.7480 0.9825
-3.8030 1.4162 -1.7505 0.9825
-3.9293 1.0764 -1.7574 0.9824
-2.4719 0.4453 -1.0835 0.9891
-2.4282 0.0000 -1.0956 0.9894
-2.4481 -0.2188 -1.1090 0.9893
-2.4592 -0.4431 -1.1275 0.9891
-2.4701 -0.6767 -1.1556 0.9888
-2.4890 -0.9269 -1.1984 0.9884
-4.0060 -1.9135 -2.0032 0.9807
-3.7859 -2.7249 -2.1048 0.9797
-3.4221 -3.5385 -2.2212 0.9786
-3.1998 -3.9604 -2.2974 0.9779
-2.9376 -4.3832 -2.3809 0.9771
-1.8839 -5.6271 -2.6776 0.9743
-0.9323 -6.3928 -2.9150 0.9720
-0.3757 -6.7385 -3.0452 0.9708
0.2357 -7.0488 -3.1823 0.9695
0.9009 -7.3144 -3.3253 0.9682
1.3934 -1.8055 -1.0291 0.9900
1.5850 -1.7137 -1.0533 0.9898
2.1608 -1.6295 -1.2211 0.9882
9.3751 -3.7312 -4.5529 0.9567
9.5979 -2.8604 -4.5190 0.9570
9.4431 -0.2104 -4.2620 0.9594
9.1507 0.6126 -4.1382 0.9606
7.1927 3.2409 -3.5597 0.9660
4.7166 4.6643 -2.9931 0.9713
2.9227 5.0623 -2.6375 0.9747
1.8305 5.0880 -2.4399 0.9766
0.3799 4.8609 -2.2000 0.9788
-0.4602 4.5746 -2.0745 0.9800
-1.5387 3.9953 -1.9318 0.9814
-1.8525 3.7697 -1.8952 0.9817
-2.1444 3.5303 -1.8638 0.9820
-2.6654 3.0138 -1.8154 0.9825
-2.8953 2.7384 -1.7982 0.9827
-3.6182 1.5342 -1.7733 0.9829
-3.7501 1.2093 -1.7779 0.9829
-2.5488 0.5775 -1.1792 0.9886
-2.4105 0.1075 -1.0887 0.9895
-2.4395 -0.1088 -1.1018 0.9893
-2.4521 -0.3298 -1.1164 0.9892
-2.4671 -0.5590 -1.1414 0.9890
-2.4781 -0.7991 -1.1749 0.9886
-2.4891 -1.0555 -1.2199 0.9882
-3.9653 -2.1159 -2.0280 0.9805
-3.8617 -2.5262 -2.0822 0.9800
-3.3157 -3.7492 -2.2584 0.9783
-3.0738 -4.1719 -2.3382 0.9775
-2.7907 -4.5941 -2.4254 0.9767
-2.4635 -5.0131 -2.5204 0.9758
-1.1902 -6.2093 -2.8527 0.9726
-0.6609 -6.5695 -2.9792 0.9714
0.5617 -7.1878 -3.2532 0.9689
0.8615 -2.3946 -1.1483 0.9889
1.0013 -2.1578 -1.0734 0.9896
1.1503 -1.9924 -1.0381 0.9900
2.4707 -1.6960 -1.3522 0.9869
9.2124 -4.1509 -4.5593 0.9566
9.6569 -2.4154 -4.4916 0.9573
9.6677 -1.5201 -4.4158 0.9580
9.3100 0.2075 -4.2019 0.9600
8.9674 1.0032 -4.0715 0.9612
8.5375 1.7353 -3.9310 0.9625
7.4842 2.9786 -3.6346 0.9653
6.8937 3.4836 -3.4851 0.9667
6.2798 3.9111 -3.3382 0.9681
5.6546 4.2643 -3.1956 0.9694
2.6408 5.0844 -2.5852 0.9752
1.0764 5.0091 -2.3118 0.9778
0.6056 4.9172 -2.2355 0.9785
0.1604 4.7981 -2.1662 0.9792
-1.3735 4.1024 -1.9521 0.9812
-2.2825 3.4057 -1.8499 0.9822
-2.7828 2.8775 -1.8062 0.9826
-3.0028 2.5966 -1.7912 0.9827
-3.2030 2.3054 -1.7807 0.9828
-3.5449 1.6933 -1.7726 0.9829
-2.4063 0.4335 -1.1032 0.9893
-2.3773 -0.2124 -1.1251 0.9895
-2.3934 -0.6556 -1.1698 0.9891
-3.6554 -2.6310 -2.1230 0.9803
-3.4791 -3.0085 -2.1681 0.9799
-3.0754 -3.8065 -2.3067 0.9786
-2.8194 -4.2069 -2.3872 0.9779
-2.1837 -4.9942 -2.5694 0.9762
-1.3674 -5.7379 -2.7805 0.9743
-0.8868 -6.0808 -2.8967 0.9732
1.5239 -7.0914 -3.4190 0.9684
1.5996 -1.7294 -1.1104 0.9896
8.6796 -3.4544 -4.4035 0.9595
8.9778 -1.8248 -4.3184 0.9603
8.5330 0.5712 -4.0312 0.9629
7.7706 1.9436 -3.7757 0.9652
6.7711 3.0509 -3.5007 0.9677
5.6454 3.8753 -3.2278 0.9702
5.0639 4.1854 -3.0968 0.9714
3.3421 4.7542 -2.7393 0.9746
2.7938 4.8390 -2.6339 0.9756
2.2643 4.8794 -2.5356 0.9765
0.8058 4.7769 -2.2835 0.9788
-0.4441 4.4144 -2.0913 0.9806
-0.8145 4.2491 -2.0394 0.9810
-1.1624 4.0653 -1.9931 0.9815
-1.4884 3.8647 -1.9522 0.9819
-1.7930 3.6488 -1.9164 0.9822
-2.0767 3.4188 -1.8856 0.9825
-2.5833 2.9211 -1.8381 0.9829
-3.1964 2.0910 -1.8005 0.9833
-2.5265 0.5724 -1.2211 0.9886
-2.2973 0.3089 -1.0926 0.9898
-2.3488 0.1047 -1.1083 0.9897
-2.3799 -0.3201 -1.1319 0.9894
-2.3945 -0.7721 -1.1859 0.9889
-3.8295 -2.0435 -2.0460 0.9810
-3.7259 -2.4374 -2.0988 0.9805
-2.9523 -4.0069 -2.3461 0.9782
-1.5893 -5.5582 -2.7250 0.9748
-0.6279 -6.2422 -2.9573 0.9726
0.5312 -6.7986 -3.2145 0.9703
0.7835 -2.9904 -1.4572 0.9864
1.0094 -2.1751 -1.1303 0.9895
1.3200 -1.8778 -1.0820 0.9899
1.7078 -1.6889 -1.1322 0.9894
2.5680 -1.7628 -1.4682 0.9863
8.1376 -4.5781 -4.4013 0.9596
8.5281 -3.8426 -4.4092 0.9595
8.9497 -2.2385 -4.3486 0.9600
8.9744 -1.4111 -4.2823 0.9606
8.8777 -0.5943 -4.1941 0.9614
8.3712 0.9365 -3.9706 0.9634
7.9881 1.6237 -3.8424 0.9646
7.0368 2.8006 -3.5700 0.9671
6.4976 3.2834 -3.4316 0.9683
5.9333 3.6953 -3.2949 0.9696
4.7725 4.3164 -3.0333 0.9719
4.1929 4.5333 -2.9107 0.9731
3.6224 4.6936 -2.7947 0.9741
3.0658 4.8025 -2.6857 0.9751
2.5265 4.8645 -2.5838 0.9761
1.5095 4.8663 -2.4017 0.9777
1.0346 4.8144 -2.3212 0.9785
0.5828 4.7322 -2.2475 0.9791
-0.2503 4.4894 -2.1195 0.9803
-0.6321 4.3342 -2.0646 0.9808
-0.9912 4.1594 -2.0155 0.9813
-1.6434 3.7585 -1.9336 0.9820
-1.9375 3.5354 -1.9004 0.9823
-2.6976 2.7893 -1.8291 0.9830
-3.2818 1.9438 -1.7980 0.9833
-3.5756 1.3316 -1.7985 0.9833
-3.6935 1.0118 -1.8052 0.9832
-2.3515 0.4236 -1.1263 0.9895
-2.3242 0.2077 -1.1000 0.9897
-2.2975 -0.0000 -1.1300 0.9898
-2.3082 -0.4158 -1.1536 0.9896
-2.3278 -0.8669 -1.2217 0.9890
-3.6527 -2.1635 -2.0881 0.9813
-3.3557 -2.9018 -2.1821 0.9804
-3.1721 -3.2800 -2.2443 0.9799
-2.9586 -3.6619 -2.3155 0.9792
-2.7088 -4.0418 -2.3931 0.9785
-2.4205 -4.4169 -2.4773 0.9778
-2.0917 -4.7839 -2.5681 0.9770
-1.7205 -5.1389 -2.6655 0.9761
0.8058 -6.5425 -3.2423 0.9710
1.4396 -6.6994 -3.3703 0.9699
0.9492 -2.3098 -1.2283 0.9889
1.0941 -2.1064 -1.1675 0.9895
1.4159 -1.8346 -1.1398 0.9897
1.6146 -1.7457 -1.1696 0.9895
7.3494 -4.5772 -4.2586 0.9621
8.2717 -2.4652 -4.2453 0.9623
8.3600 -1.6992 -4.1960 0.9627
8.3378 -0.9327 -4.1266 0.9633
7.3017 1.8263 -3.7020 0.9670
6.8680 2.3848 -3.5759 0.9681
5.3516 3.6737 -3.1927 0.9715
4.8105 3.9760 -3.0696 0.9726
4.2663 4.2190 -2.9511 0.9736
3.1933 4.5425 -2.7311 0.9756
2.1706 4.6776 -2.5364 0.9773
0.7756 4.5983 -2.2936 0.9794
0.3525 4.5109 -2.2255 0.9800
-0.0490 4.3982 -2.1634 0.9806
-0.4288 4.2627 -2.1072 0.9811
-0.7871 4.1067 -2.0566 0.9815
-1.4406 3.7405 -1.9715 0.9823
-2.0122 3.3126 -1.9063 0.9829
-2.2683 3.0786 -1.8808 0.9831
-2.7226 2.5751 -1.8432 0.9834
-3.4053 1.4440 -1.8193 0.9836
-3.5289 1.1379 -1.8237 0.9836
-2.2513 0.3028 -1.1173 0.9899
-2.2893 0.1021 -1.1271 0.9898
-2.3022 -0.1027 -1.1335 0.9898
-2.3108 -0.3108 -1.1468 0.9897
-2.3142 -0.5243 -1.1671 0.9895
-2.3375 -0.9912 -1.2488 0.9887
-3.4396 -2.7162 -2.1557 0.9807
-3.2660 -3.0889 -2.2111 0.9802
-2.5696 -4.2301 -2.4344 0.9782
-2.2613 -4.6016 -2.5219 0.9774
-1.9115 -4.9632 -2.6160 0.9766
-0.0692 -6.2125 -3.0558 0.9727
0.5036 -6.4440 -3.1792 0.9716
1.7699 -6.7555 -3.4349 0.9693
0.8794 -2.4444 -1.2777 0.9885
1.0176 -2.1930 -1.1891 0.9893
1.3307 -1.8930 -1.1381 0.9897
1.5096 -1.7856 -1.1501 0.9896
2.0173 -1.6673 -1.2873 0.9884
7.1083 -4.8796 -4.2407 0.9623
7.9298 -3.5730 -4.2779 0.9620
8.1855 -2.8423 -4.2619 0.9621
7.8416 0.8772 -3.8810 0.9654
7.4980 1.5241 -3.7634 0.9665
6.6340 2.6403 -3.5119 0.9687
6.1392 3.1023 -3.3832 0.9698
5.0819 3.8324 -3.1307 0.9720
4.5383 4.1047 -3.0098 0.9731
3.4580 4.4806 -2.7838 0.9751
2.9318 4.5926 -2.6799 0.9760
2.4202 4.6596 -2.5826 0.9769
0.9953 4.6315 -2.3300 0.9791
-0.6106 4.1871 -2.0812 0.9813
-0.9584 4.0215 -2.0334 0.9817
-1.8768 3.4248 -1.9208 0.9827
-2.1427 3.1971 -1.8930 0.9830
-3.0137 2.1692 -1.8264 0.9836
-3.1844 1.8861 -1.8204 0.9836
-2.3061 0.4155 -1.1525 0.9896
-2.2658 0.2025 -1.1189 0.9899
-2.2416 -0.4039 -1.1677 0.9898
-2.2481 -0.6158 -1.1950 0.9896
-3.5305 -2.0911 -2.1037 0.9817
-3.2389 -2.8008 -2.1952 0.9809
-3.0577 -3.1617 -2.2549 0.9804
-2.8486 -3.5258 -2.3238 0.9798
-2.6049 -3.8867 -2.3987 0.9792
-2.3245 -4.2417 -2.4797 0.9785
-1.6473 -4.9203 -2.6601 0.9769
-1.2477 -5.2356 -2.7593 0.9761
0.7645 -6.2070 -3.2062 0.9723
1.3631 -6.3430 -3.3261 0.9713
1.1031 -2.1238 -1.2269 0.9893
1.2565 -1.9683 -1.1972 0.9896
1.4276 -1.8498 -1.1979 0.9896
1.8866 -1.7064 -1.3041 0.9886
7.2449 -3.6610 -4.1615 0.9642
7.7250 -2.3023 -4.1325 0.9644
7.8134 -1.5881 -4.0876 0.9648
7.4964 0.5018 -3.8518 0.9668
7.2211 1.1355 -3.7475 0.9677
6.4838 2.2514 -3.5187 0.9696
5.5748 3.1363 -3.2793 0.9717
3.0550 4.3458 -2.7234 0.9764
2.0831 4.4890 -2.5371 0.9780
1.1741 4.4815 -2.3751 0.9794
-0.0473 4.2460 -2.1769 0.9811
-0.4143 4.1189 -2.1223 0.9816
-0.7612 3.9713 -2.0730 0.9820
-1.3950 3.6221 -1.9899 0.9827
-1.6824 3.4237 -1.9557 0.9830
-1.9506 3.2111 -1.9262 0.9833
-2.1997 2.9855 -1.9012 0.9835
-2.4301 2.7478 -1.8806 0.9836
-2.8354 2.2391 -1.8522 0.9839
-3.3056 1.4017 -1.8408 0.9840
-2.2376 -0.0998 -1.1483 0.9900
-2.2446 -0.3019 -1.1611 0.9899
-3.3230 -2.6242 -2.1708 0.9811
-3.1499 -2.9791 -2.2227 0.9807
-2.9574 -3.3440 -2.2886 0.9801
-2.7312 -3.7068 -2.3605 0.9795
-1.4527 -5.0804 -2.7090 0.9765
-0.5698 -5.6641 -2.9185 0.9747
-0.0658 -5.9113 -3.0308 0.9738
1.0596 -6.2818 -3.2660 0.9718
1.6740 -6.3896 -3.3863 0.9707
1.3418 -1.9087 -1.1961 0.9896
1.7423 -1.7230 -1.2562 0.9890
2.0532 -1.6970 -1.3656 0.9881
7.4019 -3.3351 -4.1621 0.9642
7.7819 -1.9464 -4.1124 0.9646
7.8196 -1.2296 -4.0581 0.9650
7.7587 -0.5194 -3.9865 0.9657
6.6878 1.9932 -3.5776 0.9691
6.2691 2.4950 -3.4592 0.9701
4.8313 3.6434 -3.1022 0.9732
3.8122 4.1217 -2.8783 0.9751
3.3055 4.2831 -2.7737 0.9760
1.8493 4.5001 -2.4943 0.9784
1.3947 4.4959 -2.4133 0.9791
0.9583 4.4593 -2.3384 0.9797
0.5411 4.3935 -2.2694 0.9803
0.1438 4.3012 -2.2063 0.9808
-0.2333 4.1852 -2.1489 0.9813
-0.9271 3.8904 -2.0504 0.9822
-2.5383 2.6246 -1.8719 0.9837
-2.9252 2.1054 -1.8477 0.9839
-3.3678 1.2542 -1.8424 0.9840
-2.2093 0.1974 -1.1372 0.9901
-2.1811 -0.1949 -1.1690 0.9901
-2.1873 -0.5992 -1.2107 0.9898
-2.2033 -1.0524 -1.3035 0.9890
-3.4144 -2.0223 -2.1185 0.9822
-3.2978 -2.3736 -2.1691 0.9817
-3.1281 -2.7049 -2.2077 0.9814
-2.2344 -4.0772 -2.4820 0.9791
-1.9254 -4.4036 -2.5657 0.9784
-1.5790 -4.7162 -2.6551 0.9777
-1.1941 -5.0106 -2.7498 0.9769
1.6463 -1.7800 -1.2944 0.9891
1.9114 -1.7287 -1.3758 0.9884
5.9957 -4.5216 -4.0089 0.9665
6.4287 -4.0038 -4.0431 0.9662
6.7855 -3.4288 -4.0586 0.9661
7.3262 -1.4891 -3.9910 0.9667
7.3218 -0.8191 -3.9331 0.9671
7.2291 -0.1611 -3.8602 0.9677
7.0549 0.4723 -3.7746 0.9684
6.8077 1.0705 -3.6789 0.9692
6.4975 1.6251 -3.5755 0.9701
5.2940 2.9784 -3.2427 0.9728
3.8832 3.8402 -2.9155 0.9755
3.4026 4.0246 -2.8135 0.9764
2.9262 4.1625 -2.7163 0.9772
2.4579 4.2572 -2.6242 0.9780
1.5580 4.3305 -2.4569 0.9793
-0.0457 4.1016 -2.1898 0.9816
-0.7365 3.8425 -2.0886 0.9824
-1.0535 3.6843 -2.0456 0.9828
-1.6308 3.3187 -1.9741 0.9834
-1.8917 3.1141 -1.9451 0.9836
-2.3584 2.6667 -1.9005 0.9840
-2.9233 1.9124 -1.8649 0.9843
-3.3261 1.0725 -1.8657 0.9843
-2.4373 0.5522 -1.3341 0.9887
-2.1735 0.0969 -1.1615 0.9902
-2.1765 -0.0971 -1.1631 0.9902
-2.1806 -0.4941 -1.1936 0.9899
-2.2000 -0.9329 -1.2757 0.9892
-2.2448 -1.1979 -1.3583 0.9885
-3.2133 -2.5375 -2.1858 0.9816
-2.6302 -3.5697 -2.3671 0.9801
-2.0845 -4.2419 -2.5232 0.9788
-1.3914 -4.8660 -2.7018 0.9773
-0.0627 -5.6335 -3.0076 0.9748
1.7643 -1.7448 -1.3246 0.9888
2.1110 -1.7448 -1.4620 0.9877
6.2211 -4.2705 -4.0283 0.9664
6.9325 -3.1236 -4.0592 0.9661
7.1594 -2.4860 -4.0458 0.9662
7.2939 -1.8243 -4.0138 0.9665
7.3353 -1.1534 -3.9640 0.9669
6.6598 1.3537 -3.6280 0.9697
5.5155 2.7871 -3.2990 0.9724
4.6005 3.4694 -3.0760 0.9742
4.1235 3.7295 -2.9681 0.9751
3.6427 3.9384 -2.8639 0.9760
3.1636 4.0992 -2.7642 0.9768
1.7776 4.3256 -2.4966 0.9790
0.9234 4.2968 -2.3462 0.9803
0.1389 4.1531 -2.2183 0.9813
-0.5709 3.9148 -2.1120 0.9822
-1.2048 3.5987 -2.0260 0.9829
-1.4935 3.4158 -1.9902 0.9832
-2.0152 3.0069 -1.9324 0.9837
-2.2485 2.7830 -1.9100 0.9839
-2.8404 2.0444 -1.8682 0.9843
-3.0017 1.7779 -1.8625 0.9843
-3.1452 1.5023 -1.8607 0.9843
-3.2704 1.2179 -1.8630 0.9843
-2.2057 0.3974 -1.1965 0.9899
-2.1547 0.1925 -1.1549 0.9902
-2.1192 0.0000 -1.1770 0.9904
-2.1250 -0.3828 -1.1992 0.9902
-2.1288 -0.5831 -1.2259 0.9900
-2.1374 -1.0209 -1.3156 0.9892
-3.0228 -2.6139 -2.2195 0.9819
-2.8470 -2.9438 -2.2745 0.9814
-2.4147 -3.6030 -2.4089 0.9804
-1.5150 -4.5251 -2.6503 0.9784
-1.1441 -4.8007 -2.7410 0.9777
-0.2942 -5.2769 -2.9353 0.9761
0.1828 -5.4666 -3.0378 0.9753
1.2289 -5.7185 -3.2486 0.9736
1.0030 -2.4407 -1.4656 0.9880
1.2827 -2.0093 -1.3240 0.9892
5.6363 -4.2506 -3.9208 0.9682
6.3741 -3.2209 -3.9664 0.9679
6.6297 -2.6386 -3.9630 0.9679
6.8021 -2.0272 -3.9421 0.9680
6.8110 -0.1518 -3.7837 0.9693
6.6554 0.4455 -3.7046 0.9699
6.1479 1.5377 -3.5197 0.9714
5.0359 2.8332 -3.2092 0.9739
4.6075 3.1628 -3.1039 0.9748
4.1640 3.4416 -3.0003 0.9756
3.7121 3.6710 -2.8996 0.9764
3.2577 3.8532 -2.8024 0.9772
2.8057 3.9911 -2.7096 0.9779
1.4998 4.1686 -2.4605 0.9799
-0.0442 3.9644 -2.2019 0.9820
-0.3875 3.8521 -2.1502 0.9824
-0.7130 3.7197 -2.1035 0.9828
-1.0205 3.5689 -2.0616 0.9832
-1.3100 3.4013 -2.0243 0.9835
-2.0712 2.8111 -1.9393 0.9842
-2.4904 2.3554 -1.9038 0.9844
-3.2308 1.0418 -1.8854 0.9846
-2.4040 0.5447 -1.3690 0.9888
-2.1264 0.2860 -1.1916 0.9902
-2.1192 -0.0945 -1.1782 0.9903
-2.1317 -0.6874 -1.2440 0.9898
-3.2499 -2.1260 -2.1569 0.9824
-2.7507 -3.1103 -2.3061 0.9812
-2.5348 -3.4402 -2.3733 0.9806
-2.2863 -3.7638 -2.4459 0.9801
-0.9450 -4.9301 -2.7880 0.9773
-0.5200 -5.1689 -2.8853 0.9765
-0.0599 -5.3764 -2.9862 0.9757
0.4334 -5.5467 -3.0900 0.9749
0.9513 -2.6442 -1.5607 0.9872
1.7972 -1.7773 -1.4038 0.9885
2.2009 -1.8191 -1.5859 0.9870
5.8465 -4.0134 -3.9386 0.9681
6.5121 -2.9342 -3.9669 0.9678
6.7266 -2.3357 -3.9547 0.9679
6.9003 -1.0850 -3.8795 0.9685
5.9886 1.7848 -3.4706 0.9718
5.6332 2.2420 -3.3674 0.9726
4.3871 3.3085 -3.0518 0.9752
3.4849 3.7678 -2.8505 0.9768
2.1406 4.1213 -2.5793 0.9790
1.2929 4.1677 -2.4235 0.9802
0.5038 4.0905 -2.2890 0.9813
0.1342 4.0124 -2.2297 0.9818
-0.8690 3.6465 -2.0819 0.9830
-1.1675 3.4871 -2.0424 0.9833
-1.7106 3.1215 -1.9769 0.9838
-1.9554 2.9177 -1.9508 0.9841
-2.3922 2.4735 -1.9112 0.9844
-3.0553 1.4594 -1.8805 0.9846
-3.1768 1.1831 -1.8828 0.9846
-2.1018 0.1878 -1.1720 0.9904
-2.0638 -0.0000 -1.1916 0.9905
-2.0684 -0.1848 -1.1990 0.9905
-2.0740 -0.9907 -1.3270 0.9894
-2.1172 -1.2540 -1.4207 0.9887
-3.0851 -2.2205 -2.1946 0.9826
-2.5537 -3.1607 -2.3461 0.9814
-2.0694 -3.7763 -2.4862 0.9803
-1.4550 -4.3458 -2.6459 0.9791
-1.0972 -4.6042 -2.7327 0.9784
-0.7058 -4.8393 -2.8236 0.9777
0.1745 -5.2196 -3.0153 0.9762
0.6594 -5.3539 -3.1144 0.9754
1.1697 -5.4432 -3.2144 0.9746
1.7005 -5.4818 -3.3137 0.9738
1.0255 -2.4954 -1.5576 0.9876
1.1558 -2.2253 -1.4478 0.9885
1.3064 -2.0464 -1.4017 0.9888
1.4798 -1.9174 -1.3983 0.9889
6.0033 -3.0336 -3.8834 0.9694
6.2444 -2.4852 -3.8802 0.9694
6.4087 -1.9100 -3.8609 0.9696
6.4941 -1.3200 -3.8260 0.9699
6.5009 -0.7272 -3.7767 0.9702
6.0886 0.9574 -3.5584 0.9719
5.8284 1.4578 -3.4687 0.9726
5.1760 2.3322 -3.2777 0.9741
4.7976 2.6991 -3.1781 0.9749
4.3963 3.0179 -3.0787 0.9757
3.5527 3.5133 -2.8847 0.9772
3.1223 3.6931 -2.7921 0.9779
2.2680 3.9282 -2.6188 0.9793
1.8511 3.9890 -2.5389 0.9799
1.4447 4.0157 -2.4639 0.9805
1.0508 4.0109 -2.3938 0.9810
0.6709 3.9774 -2.3288 0.9815
0.3061 3.9175 -2.2687 0.9820
-0.3750 3.7280 -2.1632 0.9828
-0.6905 3.6024 -2.1177 0.9832
-1.5342 3.1221 -2.0084 0.9841
-1.7811 2.9321 -1.9807 0.9843
-2.0109 2.7292 -1.9572 0.9845
-2.4192 2.2880 -1.9225 0.9847
-2.5977 2.0514 -1.9110 0.9848
-3.0301 1.2849 -1.9002 0.9849
-3.1392 1.0123 -1.9043 0.9849
-2.0782 0.2795 -1.2107 0.9904
-2.0660 -0.0921 -1.1940 0.9905
-2.0719 -0.2787 -1.2070 0.9904
-2.0729 -0.8790 -1.2999 0.9897
-2.0714 -1.1053 -1.3555 0.9892
-2.8393 -2.6853 -2.2563 0.9821
-2.6554 -3.0025 -2.3142 0.9817
-1.9283 -3.9240 -2.5243 0.9800
