ply
format ascii 1.0
element vertex 1584
property float32 x
property float32 y
property float32 z
property float32 I
end_header
0.7908 -2.5493 0.3345 0.9893
1.4842 5.6650 0.7339 0.9767
-1.0011 -2.5993 0.3491 0.9888
-0.6922 -2.4208 0.3155 0.9899
-0.4477 -2.3357 0.2980 0.9905
-0.0255 -2.2867 0.2866 0.9908
0.3992 -2.3668 0.3008 0.9904
0.6456 -2.4644 0.3193 0.9898
-0.5637 -2.3654 0.2637 0.9903
0.0763 -2.2833 0.2478 0.9909
0.2849 -2.3131 0.2528 0.9907
0.7848 -2.5299 0.2873 0.9894
1.1754 -2.8601 0.3354 0.9876
1.4750 5.6299 0.6313 0.9769
-0.9937 -2.5801 0.2999 0.9889
-0.6887 -2.4086 0.2717 0.9900
-0.4456 -2.3246 0.2567 0.9905
-0.2304 -2.2905 0.2497 0.9908
-0.0253 -2.2751 0.2468 0.9909
0.6409 -2.4464 0.2743 0.9899
-1.1983 -2.7406 0.2742 0.9881
-0.5609 -2.3539 0.2218 0.9903
-0.3347 -2.2953 0.2127 0.9907
-0.1265 -2.2692 0.2084 0.9909
0.2830 -2.2980 0.2123 0.9907
0.5102 -2.3742 0.2226 0.9903
0.7788 -2.5108 0.2410 0.9895
1.1593 -2.8211 0.2796 0.9878
-0.6853 -2.3965 0.2285 0.9900
-0.4435 -2.3136 0.2160 0.9906
0.6363 -2.4288 0.2302 0.9900
-0.8197 -2.4483 0.1935 0.9897
-0.3335 -2.2869 0.1732 0.9908
-0.1261 -2.2610 0.1697 0.9910
0.0759 -2.2693 0.1702 0.9909
0.5067 -2.3581 0.1807 0.9904
1.1438 -2.7832 0.2255 0.9880
-0.9793 -2.5427 0.2042 0.9891
-0.0252 -2.2616 0.1695 0.9910
0.1779 -2.2772 0.1712 0.9909
0.3917 -2.3222 0.1765 0.9906
0.9358 -2.6012 0.2072 0.9890
-1.1704 -2.6768 0.1702 0.9884
-0.8141 -2.4317 0.1494 0.9898
-0.3323 -2.2785 0.1341 0.9908
0.0756 -2.2626 0.1319 0.9910
0.2815 -2.2857 0.1341 0.9908
0.7673 -2.4737 0.1508 0.9897
-0.9722 -2.5244 0.1576 0.9892
-0.6785 -2.3729 0.1437 0.9902
-0.4393 -2.2921 0.1359 0.9907
-0.0251 -2.2549 0.1313 0.9910
0.1774 -2.2705 0.1326 0.9909
0.6273 -2.3945 0.1442 0.9901
0.9276 -2.5783 0.1596 0.9891
-0.8086 -2.4153 0.1059 0.9899
-0.5529 -2.3203 0.0992 0.9905
0.2808 -2.2799 0.0955 0.9908
1.1202 -2.7259 0.1225 0.9883
1.4623 5.5815 0.2399 0.9772
-0.4377 -2.2833 0.0967 0.9907
-0.2271 -2.2574 0.0943 0.9910
-0.0250 -2.2483 0.0935 0.9910
0.1769 -2.2637 0.0944 0.9910
0.3897 -2.3104 0.0974 0.9907
0.6256 -2.3881 0.1026 0.9902
-1.1460 -2.6209 0.0713 0.9886
-0.5503 -2.3093 0.0592 0.9905
-0.3299 -2.2620 0.0570 0.9909
0.5020 -2.3360 0.0596 0.9905
0.7603 -2.4511 0.0640 0.9898
1.4619 5.5801 0.1439 0.9772
-13.1521 7.0182 0.3718 0.9421
-13.7481 5.8297 0.3724 0.9420
-1.4470 -2.9446 0.0818 0.9870
-0.9585 -2.4888 0.0665 0.9894
-0.6719 -2.3499 0.0609 0.9903
0.3887 -2.3045 0.0583 0.9907
0.6243 -2.3828 0.0614 0.9902
0.9130 -2.5376 0.0673 0.9893
-12.8593 7.6166 0.3727 0.9420
-13.4479 6.4235 0.3717 0.9421
0.2794 -2.2686 0.0190 0.9909
0.5007 -2.3300 0.0198 0.9905
-9.7355 11.0081 0.1221 0.9429
-11.4426 7.4854 0.1136 0.9468
-12.5233 5.3103 0.1131 0.9470
-13.0750 4.2162 0.1142 0.9465
-14.2517 1.9166 0.1195 0.9441
-1.4348 -2.9197 0.0270 0.9871
-0.6689 -2.3393 0.0202 0.9903
-0.4345 -2.2666 0.0192 0.9908
-0.0249 -2.2352 0.0186 0.9911
0.1759 -2.2504 0.0188 0.9910
0.3877 -2.2987 0.0194 0.9907
0.9112 -2.5328 0.0224 0.9893
-9.4232 11.6632 0.1246 0.9418
-10.0371 10.3783 0.1200 0.9439
-10.6154 9.1795 0.1166 0.9454
-13.9448 2.5123 0.1178 0.9449
-14.5698 1.3019 0.1216 0.9432
-13.8640 -0.0000 -0.1152 0.9461
-1.1384 -2.6036 -0.0236 0.9887
-0.7986 -2.3852 -0.0209 0.9900
-0.5466 -2.2935 -0.0196 0.9906
-0.3275 -2.2457 -0.0189 0.9910
-0.1238 -2.2212 -0.0185 0.9911
0.4994 -2.3240 -0.0198 0.9905
0.7568 -2.4398 -0.0212 0.9898
1.0986 -2.6732 -0.0240 0.9885
1.4631 5.5845 -0.0480 0.9772
-9.4501 8.9379 -0.1081 0.9493
-11.0037 5.8718 -0.1037 0.9513
-11.4991 4.8760 -0.1038 0.9513
-11.9960 3.8682 -0.1048 0.9508
-13.0253 1.7517 -0.1092 0.9488
-0.6683 -2.3373 -0.0202 0.9903
-0.2247 -2.2333 -0.0187 0.9911
-0.0248 -2.2287 -0.0185 0.9911
0.9095 -2.5279 -0.0223 0.9893
1.4413 -3.1060 -0.0285 0.9864
-7.9402 11.8476 -0.1185 0.9445
-10.7543 6.3697 -0.1039 0.9512
-11.7469 4.3746 -0.1042 0.9511
-12.2474 3.3549 -0.1055 0.9505
-12.7100 0.0000 -0.3170 0.9504
-13.2186 -1.1812 -0.3310 0.9483
-14.2581 -3.9057 -0.3687 0.9426
-0.5461 -2.2916 -0.0587 0.9906
0.2780 -2.2574 -0.0567 0.9909
1.0963 -2.6678 -0.0719 0.9885
1.4637 5.5868 -0.1441 0.9772
-5.0698 13.1634 -0.3518 0.9451
-6.2126 12.6423 -0.3513 0.9452
-7.5762 10.2825 -0.3185 0.9502
-8.1642 9.2313 -0.3073 0.9519
-10.1727 5.4283 -0.2875 0.9549
-11.0812 3.5733 -0.2904 0.9545
-11.5337 2.6132 -0.2949 0.9538
-11.9930 1.6129 -0.3018 0.9527
-13.4859 -1.8137 -0.3393 0.9470
-14.0544 -3.1843 -0.3594 0.9440
-0.6677 -2.3353 -0.0606 0.9903
-0.4331 -2.2596 -0.0574 0.9908
-0.0248 -2.2222 -0.0554 0.9911
0.1748 -2.2373 -0.0560 0.9911
0.3858 -2.2871 -0.0578 0.9908
0.6201 -2.3671 -0.0610 0.9903
-7.2619 10.8355 -0.3253 0.9491
-8.4410 8.7279 -0.3028 0.9526
-8.9672 7.7542 -0.2956 0.9537
-10.4022 4.9687 -0.2875 0.9549
-11.3070 3.0973 -0.2924 0.9542
-11.7620 2.1190 -0.2980 0.9533
-12.2273 1.0926 -0.3061 0.9521
-13.0358 -3.5709 -0.5620 0.9473
-1.1309 -2.5864 -0.1174 0.9888
-0.5457 -2.2897 -0.0979 0.9906
-0.3271 -2.2429 -0.0942 0.9910
-0.1235 -2.2144 -0.0922 0.9912
0.2773 -2.2519 -0.0943 0.9910
0.4968 -2.3120 -0.0983 0.9906
1.0941 -2.6623 -0.1197 0.9885
-3.7863 13.2416 -0.5726 0.9464
-4.6152 11.9832 -0.5339 0.9499
-5.6875 11.5737 -0.5362 0.9497
-6.9909 9.4882 -0.4900 0.9539
-7.5539 8.5414 -0.4741 0.9554
-8.0739 7.6364 -0.4621 0.9565
-8.5598 6.7596 -0.4535 0.9573
-11.1116 1.4944 -0.4662 0.9561
-11.9447 -0.5326 -0.4971 0.9533
-0.9512 -2.4699 -0.1100 0.9895
-0.6672 -2.3333 -0.1009 0.9903
-0.2240 -2.2271 -0.0931 0.9911
0.1743 -2.2307 -0.0930 0.9911
0.3848 -2.2814 -0.0962 0.9908
0.6188 -2.3619 -0.1015 0.9903
0.9060 -2.5183 -0.1113 0.9893
1.4135 -3.0461 -0.1396 0.9866
-4.2162 12.5933 -0.5522 0.9482
-4.9879 11.4076 -0.5177 0.9514
-6.0402 11.0220 -0.5226 0.9509
-7.2785 9.0087 -0.4815 0.9547
-8.7924 6.3284 -0.4504 0.9576
-9.2407 5.4733 -0.4466 0.9579
-9.6714 4.6196 -0.4456 0.9580
-10.5001 2.8763 -0.4527 0.9574
-10.9075 1.9651 -0.4608 0.9566
-11.3167 1.0113 -0.4724 0.9555
-10.8936 -0.0000 -0.6345 0.9573
-11.2585 -1.0061 -0.6583 0.9557
-11.9927 -3.2852 -0.7242 0.9514
-12.1995 -4.5432 -0.7582 0.9492
-1.1272 -2.5779 -0.1639 0.9888
-0.7960 -2.3776 -0.1460 0.9900
-0.5452 -2.2878 -0.1370 0.9906
-0.1235 -2.2151 -0.1292 0.9912
0.4955 -2.3061 -0.1374 0.9906
1.4674 5.6011 -0.3372 0.9771
-2.5445 13.2747 -0.7872 0.9473
-3.4537 12.0785 -0.7317 0.9509
-5.2436 10.6705 -0.6925 0.9535
-5.8983 9.7100 -0.6617 0.9555
-6.4890 8.8069 -0.6371 0.9571
-7.0279 7.9466 -0.6179 0.9584
-7.5250 7.1171 -0.6033 0.9593
-8.4232 5.5102 -0.5862 0.9605
-8.8361 4.7151 -0.5833 0.9607
-9.6129 3.0998 -0.5883 0.9603
-9.9846 2.2622 -0.5963 0.9598
-10.3499 1.3919 -0.6082 0.9590
-10.7123 0.4777 -0.6245 0.9579
-11.8198 -2.6780 -0.7059 0.9526
-12.0379 -3.8817 -0.7367 0.9506
-12.8191 -6.8405 -0.8463 0.9434
-1.3878 -2.8241 -0.1833 0.9875
-0.9496 -2.4655 -0.1539 0.9895
-0.4329 -2.2585 -0.1339 0.9908
-0.2240 -2.2266 -0.1303 0.9911
-0.0247 -2.2192 -0.1293 0.9911
0.1741 -2.2273 -0.1301 0.9911
0.3838 -2.2756 -0.1344 0.9908
0.6174 -2.3567 -0.1419 0.9903
0.9043 -2.5135 -0.1556 0.9894
-3.0175 12.6623 -0.7581 0.9492
-4.5884 10.4941 -0.6671 0.9551
-5.5799 10.1820 -0.6762 0.9545
-7.2812 7.5287 -0.6100 0.9589
-7.7603 6.7106 -0.5975 0.9597
-9.0357 4.3160 -0.5832 0.9607
-9.4236 3.5094 -0.5857 0.9605
-9.7998 2.6844 -0.5918 0.9601
-10.1678 1.8319 -0.6017 0.9594
-10.7914 -1.9442 -0.8217 0.9570
-11.0986 -3.0403 -0.8624 0.9549
-11.5401 -5.5122 -0.9584 0.9500
-11.8552 -7.0219 -1.0326 0.9462
-0.5447 -2.2859 -0.1761 0.9906
-0.1236 -2.2158 -0.1663 0.9911
0.2769 -2.2482 -0.1697 0.9910
0.4943 -2.3002 -0.1763 0.9906
1.0896 -2.6514 -0.2148 0.9886
-2.3250 12.1292 -0.9255 0.9517
-3.9120 10.1574 -0.8157 0.9573
-4.8633 9.8966 -0.8264 0.9567
-6.5696 7.4284 -0.7431 0.9610
-9.0142 2.9067 -0.7098 0.9627
-9.3548 2.1195 -0.7188 0.9623
-9.6848 1.3025 -0.7323 0.9616
-10.3228 -0.4603 -0.7744 0.9594
-11.1161 -3.5845 -0.8753 0.9542
-11.3860 -4.8281 -0.9268 0.9516
-11.6964 -6.2414 -0.9935 0.9482
-0.4328 -2.2580 -0.1723 0.9908
-0.0247 -2.2199 -0.1664 0.9911
0.1741 -2.2281 -0.1675 0.9911
0.3835 -2.2737 -0.1728 0.9908
-0.7745 13.8892 -1.0425 0.9457
-4.2476 9.7147 -0.7946 0.9584
-6.3171 7.8187 -0.7533 0.9605
-6.8120 7.0435 -0.7343 0.9615
-7.2698 6.2864 -0.7202 0.9622
-7.6967 5.5398 -0.7107 0.9627
-8.0978 4.7964 -0.7053 0.9630
-8.4774 4.0493 -0.7040 0.9630
-4.4480 -0.0000 -0.4078 0.9823
-10.3203 -2.8270 -0.9810 0.9579
-10.4073 -3.8757 -1.0181 0.9564
-10.8639 -6.4347 -1.1576 0.9505
-11.0824 -7.9766 -1.2518 0.9466
-0.7946 -2.3734 -0.2295 0.9900
-0.5443 -2.2841 -0.2153 0.9906
-0.1236 -2.2166 -0.2035 0.9911
0.4948 -2.3025 -0.2159 0.9906
1.0874 -2.6460 -0.2623 0.9886
1.4738 5.6255 -0.5331 0.9769
-0.1472 13.2102 -1.2112 0.9483
-1.2205 12.1327 -1.1179 0.9522
-2.1399 11.1635 -1.0421 0.9554
-2.9362 10.2688 -0.9791 0.9580
-3.6342 9.4361 -0.9270 0.9602
-6.6218 6.2628 -0.8356 0.9641
-7.0437 5.5624 -0.8228 0.9646
-7.4373 4.8653 -0.8148 0.9649
-8.1545 3.4578 -0.8120 0.9650
-9.9328 -1.3358 -0.9188 0.9605
-10.5240 -4.4626 -1.0480 0.9551
-1.3873 -2.8231 -0.2884 0.9874
-0.6655 -2.3273 -0.2219 0.9903
-0.4327 -2.2575 -0.2107 0.9908
-0.0247 -2.2206 -0.2036 0.9911
0.1742 -2.2288 -0.2050 0.9911
0.6161 -2.3515 -0.2229 0.9903
0.4614 13.8001 -1.2659 0.9460
-1.6971 11.6363 -1.0781 0.9539
-3.2961 9.8449 -0.9518 0.9592
-3.9533 9.0414 -0.9047 0.9611
-4.8398 8.8316 -0.9233 0.9604
-6.8366 5.9119 -0.8286 0.9643
-8.6432 2.3676 -0.8216 0.9646
-4.9080 0.8842 -0.4572 0.9802
-4.1097 0.3672 -0.3783 0.9836
-3.7849 0.0000 -0.4105 0.9849
-9.2010 -0.8222 -1.0020 0.9635
-9.4264 -1.6982 -1.0389 0.9622
-10.0232 -5.9367 -1.2636 0.9542
-0.3268 -2.2408 -0.2456 0.9909
-0.1236 -2.2173 -0.2409 0.9911
0.0744 -2.2254 -0.2415 0.9911
0.2774 -2.2526 -0.2462 0.9909
0.7499 -2.4174 -0.2745 0.9899
1.0852 -2.6406 -0.3097 0.9886
1.4770 5.6378 -0.6321 0.9768
-1.1242 11.1753 -1.2183 0.9558
-1.9816 10.3379 -1.1417 0.9585
-3.3926 8.8087 -1.0239 0.9627
-4.2452 8.6387 -1.0440 0.9620
-4.8159 7.9281 -1.0062 0.9634
-6.6491 5.2507 -0.9190 0.9665
-7.7033 3.2665 -0.9076 0.9669
-8.0120 2.5835 -0.9131 0.9667
-4.7637 1.0793 -0.5298 0.9805
-3.7517 0.5045 -0.4106 0.9849
-3.7330 0.1664 -0.4053 0.9851
-3.9257 -0.1751 -0.4262 0.9843
-9.6450 -3.1101 -1.0992 0.9600
-9.9470 -5.3079 -1.2229 0.9557
-10.3277 -9.7679 -1.5419 0.9444
-0.6649 -2.3253 -0.2623 0.9903
-0.0247 -2.2214 -0.2410 0.9911
0.3843 -2.2783 -0.2506 0.9907
0.9019 -2.5069 -0.2890 0.9893
1.6812 13.6502 -1.4918 0.9462
0.4206 12.5798 -1.3652 0.9506
-0.6480 11.6211 -1.2624 0.9542
-2.3685 9.9387 -1.1082 0.9597
-3.0715 9.1740 -1.0494 0.9618
-3.6964 8.4538 -1.0008 0.9636
-6.4510 5.5784 -0.9250 0.9663
-6.8401 4.9232 -0.9141 0.9667
-7.8600 2.9271 -0.9097 0.9668
-8.1596 2.2352 -0.9177 0.9665
-3.9948 0.7197 -0.4403 0.9838
-3.7414 0.3343 -0.4074 0.9850
-3.7700 -0.3369 -0.4743 0.9849
-8.8629 -1.5967 -1.1286 0.9643
-9.4204 -8.1462 -1.5607 0.9510
-1.1292 -2.5825 -0.3532 0.9887
-0.7939 -2.3711 -0.3134 0.9900
-0.5434 -2.2803 -0.2938 0.9906
-0.3267 -2.2403 -0.2837 0.9909
0.7515 -2.4225 -0.3178 0.9898
1.4846 5.6667 -0.7341 0.9767
2.1798 12.9225 -1.6423 0.9485
-4.5366 7.4683 -1.0950 0.9654
-5.4894 6.2070 -1.0384 0.9671
-6.9873 3.7285 -0.9925 0.9686
-7.5881 2.4469 -0.9991 0.9684
-4.3831 0.9931 -0.5632 0.9820
-3.5494 0.4773 -0.4488 0.9857
-3.6310 -0.1619 -0.4555 0.9855
-9.4033 -7.4257 -1.5015 0.9528
-9.4269 -8.9160 -1.6260 0.9490
-1.4170 -2.8834 -0.4026 0.9871
-0.6643 -2.3233 -0.3028 0.9903
-0.0247 -2.2221 -0.2785 0.9911
0.3847 -2.2806 -0.2898 0.9907
1.4373 -3.0973 -0.4279 0.9863
1.2356 5.7500 -0.7370 0.9766
1.5326 12.4435 -1.5712 0.9507
0.3863 11.5543 -1.4487 0.9545
-2.2090 9.2692 -1.1941 0.9623
-3.4700 7.9362 -1.0854 0.9657
-4.2700 7.7918 -1.1135 0.9648
-4.7910 7.1487 -1.0784 0.9659
-5.7031 5.8969 -1.0280 0.9675
-7.1453 3.4131 -0.9923 0.9686
-7.7258 2.1163 -1.0038 0.9682
-3.8076 0.6860 -0.4848 0.9845
-3.3944 0.0000 -0.4828 0.9864
-3.5139 -0.3140 -0.5018 0.9858
-8.5073 -2.3304 -1.2546 0.9650
-8.5283 -3.1760 -1.2944 0.9639
-8.6086 -4.1120 -1.3570 0.9622
-8.7042 -6.2649 -1.5254 0.9576
-8.6371 -8.9307 -1.7671 0.9510
-8.5237 -10.5499 -1.9292 0.9467
-0.7966 -2.3794 -0.3569 0.9899
-0.5429 -2.2783 -0.3331 0.9906
-0.1237 -2.2188 -0.3161 0.9911
0.2780 -2.2571 -0.3235 0.9909
0.7531 -2.4277 -0.3615 0.9898
1.0975 -2.6706 -0.4107 0.9884
4.8944 13.6043 -2.0564 0.9433
-0.9702 9.6444 -1.3787 0.9616
-1.7249 8.9986 -1.3032 0.9637
-2.3938 8.3719 -1.2385 0.9654
-4.2870 7.0573 -1.1745 0.9672
-4.7646 6.4665 -1.1425 0.9681
-5.2021 5.8821 -1.1169 0.9688
-5.9757 4.7189 -1.0830 0.9697
-6.3189 4.1337 -1.0740 0.9700
-6.6369 3.5416 -1.0700 0.9701
-7.2053 2.3234 -1.0768 0.9699
-4.1432 0.9387 -0.6042 0.9830
-3.3671 0.4528 -0.4832 0.9864
-3.4470 -0.1537 -0.4908 0.9862
-3.6292 -0.4881 -0.5209 0.9853
-8.4369 -1.9115 -1.2305 0.9657
-8.5280 -2.7499 -1.2745 0.9644
-8.6932 -5.6868 -1.4776 0.9589
-8.6729 -8.2027 -1.6979 0.9529
-8.5871 -9.7096 -1.8437 0.9490
-8.4343 -11.4471 -2.0224 0.9442
-1.4323 -2.9148 -0.4619 0.9870
-0.4324 -2.2559 -0.3267 0.9908
-0.2237 -2.2241 -0.3179 0.9910
-0.0248 -2.2228 -0.3162 0.9911
0.3851 -2.2829 -0.3293 0.9907
0.6198 -2.3659 -0.3479 0.9902
4.0715 13.1253 -1.9547 0.9460
1.4076 11.4289 -1.6379 0.9545
-0.5564 9.9796 -1.4217 0.9604
-1.3590 9.3179 -1.3394 0.9627
-2.0690 8.6819 -1.2695 0.9646
-2.7011 8.0679 -1.2101 0.9662
-4.0313 7.3562 -1.1931 0.9667
-5.7937 5.0101 -1.0895 0.9695
-6.4809 3.8387 -1.0714 0.9700
-7.3342 2.0091 -1.0816 0.9697
-3.6716 0.6615 -0.5306 0.9850
-3.2915 -0.0000 -0.5241 0.9868
-3.3916 -0.3031 -0.5422 0.9863
-8.0329 -2.2004 -1.3262 0.9668
-8.1224 -4.8109 -1.5032 0.9625
-8.1185 -5.8434 -1.5928 0.9603
-8.0708 -6.9791 -1.6990 0.9577
-7.5620 -11.2833 -2.1629 0.9465
-1.1406 -2.6086 -0.4534 0.9885
-0.5443 -2.2839 -0.3739 0.9905
-0.3266 -2.2392 -0.3603 0.9909
-0.1237 -2.2195 -0.3540 0.9910
0.2783 -2.2594 -0.3625 0.9908
0.7547 -2.4329 -0.4056 0.9897
1.1069 -2.6935 -0.4637 0.9883
6.0981 13.1412 -2.3069 0.9430
4.4379 12.3355 -2.0875 0.9483
1.8379 10.8956 -1.7595 0.9562
-1.6190 8.4462 -1.3694 0.9658
-2.2537 7.8817 -1.3053 0.9673
-3.5599 7.2442 -1.2853 0.9678
-4.5214 6.1364 -1.2137 0.9696
-4.9422 5.5883 -1.1879 0.9702
-6.3186 3.3717 -1.1404 0.9714
-6.5991 2.7983 -1.1414 0.9714
-3.9744 0.9005 -0.6489 0.9836
-8.0609 -3.4181 -1.3942 0.9652
-8.1255 -5.3154 -1.5461 0.9614
-8.1007 -6.3970 -1.6436 0.9591
-7.8967 -8.9289 -1.8981 0.9529
-7.3986 -12.1797 -2.2692 0.9439
-0.9553 -2.4804 -0.4232 0.9893
-0.6674 -2.3339 -0.3865 0.9902
-0.4326 -2.2569 -0.3659 0.9907
-0.0248 -2.2236 -0.3541 0.9910
0.1746 -2.2345 -0.3569 0.9910
0.6211 -2.3708 -0.3903 0.9901
1.2285 5.7169 -0.9311 0.9766
0.3319 9.9255 -1.5814 0.9606
-0.5195 9.3171 -1.4859 0.9629
-1.9450 8.1617 -1.3360 0.9666
-3.1729 7.2566 -1.2611 0.9684
-3.8169 6.9650 -1.2647 0.9683
-4.7363 5.8622 -1.2001 0.9699
-5.1397 5.3144 -1.1773 0.9705
-5.8536 4.2131 -1.1484 0.9712
-3.5500 0.6396 -0.5744 0.9855
-3.2454 0.2900 -0.5188 0.9869
-3.1939 -0.0000 -0.5632 0.9871
-7.6064 -2.0836 -1.3906 0.9685
-7.6271 -3.6431 -1.4904 0.9663
-7.6350 -4.5222 -1.5647 0.9646
-6.9221 -10.3285 -2.1924 0.9508
-0.8022 -2.3961 -0.4456 0.9898
-0.5461 -2.2914 -0.4154 0.9905
-0.1238 -2.2203 -0.3921 0.9910
0.0745 -2.2284 -0.3931 0.9910
0.2786 -2.2617 -0.4018 0.9908
0.7563 -2.4382 -0.4501 0.9897
1.1165 -2.7169 -0.5179 0.9881
4.0575 11.2781 -2.1134 0.9525
0.7454 9.5396 -1.6872 0.9619
-0.1002 8.9989 -1.5868 0.9641
-0.8524 8.4729 -1.5015 0.9660
-1.5247 7.9543 -1.4281 0.9676
-2.6732 6.9408 -1.3115 0.9702
-3.8591 6.3529 -1.3107 0.9703
-4.7059 5.3210 -1.2525 0.9716
-5.0784 4.8031 -1.2325 0.9720
-5.4213 4.2812 -1.2181 0.9723
-5.7372 3.7531 -1.2088 0.9725
-6.0280 3.2166 -1.2048 0.9726
-6.2953 2.6694 -1.2057 0.9726
-3.8238 0.8663 -0.6913 0.9842
-3.1779 0.4274 -0.5654 0.9871
-3.1644 0.1411 -0.5585 0.9872
-7.6352 -2.4621 -1.4146 0.9679
-7.6103 -3.2271 -1.4576 0.9670
-7.4696 -7.0647 -1.8129 0.9591
-0.6696 -2.3419 -0.4295 0.9902
-0.2237 -2.2234 -0.3940 0.9910
0.1748 -2.2367 -0.3956 0.9909
0.9165 -2.5475 -0.4774 0.9891
4.7626 11.5891 -2.2093 0.9504
3.4041 10.9739 -2.0259 0.9544
1.2090 9.8163 -1.7440 0.9606
-0.4870 8.7343 -1.5425 0.9651
-1.8344 7.6974 -1.3953 0.9684
-2.4075 7.1909 -1.3371 0.9697
-5.2534 4.5428 -1.2246 0.9722
-5.5825 4.0181 -1.2128 0.9724
-5.8856 3.4861 -1.2062 0.9726
-6.1645 2.9445 -1.2046 0.9726
-3.4371 0.6192 -0.6158 0.9859
-3.1510 0.2815 -0.5578 0.9872
-3.1015 -0.0000 -0.6002 0.9874
-3.1775 -0.2839 -0.6173 0.9871
-7.2208 -1.9780 -1.4488 0.9700
-7.2124 -3.4451 -1.5468 0.9680
-7.2004 -4.2648 -1.6195 0.9665
-7.1486 -5.1453 -1.7045 0.9648
-6.8973 -7.1318 -1.9200 0.9604
-6.6786 -8.2662 -2.0565 0.9576
-6.3799 -9.5195 -2.2176 0.9544
-5.9858 -10.9227 -2.4103 0.9505
-0.8051 -2.4047 -0.4907 0.9897
-0.5479 -2.2991 -0.4574 0.9904
0.2788 -2.2640 -0.4414 0.9907
0.4991 -2.3225 -0.4597 0.9904
0.7580 -2.4435 -0.4951 0.9896
8.3509 11.8794 -2.8101 0.9426
6.5702 11.3801 -2.5429 0.9479
5.0488 10.8799 -2.3211 0.9523
3.7354 10.3828 -2.1353 0.9560
2.5913 9.8908 -1.9786 0.9592
1.5864 9.4049 -1.8457 0.9619
0.6974 8.9254 -1.7325 0.9642
-0.0942 8.4520 -1.6357 0.9661
-0.8032 7.9841 -1.5529 0.9678
-1.4402 7.5137 -1.4805 0.9693
-2.5371 6.5873 -1.3660 0.9716
-3.6741 6.0484 -1.3695 0.9716
-4.0994 5.5638 -1.3374 0.9722
-4.4899 5.0768 -1.3116 0.9728
-5.4827 3.5866 -1.2679 0.9737
-5.7615 3.0744 -1.2637 0.9737
-6.0167 2.5513 -1.2647 0.9737
-6.2495 2.0152 -1.2707 0.9736
-3.6833 0.8345 -0.7308 0.9847
-3.0751 0.1371 -0.5957 0.9875
-7.2052 -3.0553 -1.5145 0.9686
-6.7968 -7.6853 -1.9854 0.9591
-6.5403 -8.8766 -2.1337 0.9561
-6.1947 -10.1978 -2.3090 0.9525
-5.7435 -11.6877 -2.5201 0.9483
-0.4356 -2.2726 -0.4478 0.9906
7.4245 11.6302 -2.6701 0.9453
1.1287 9.1644 -1.7869 0.9631
0.2905 8.6879 -1.6822 0.9652
-1.1301 7.7483 -1.5153 0.9686
-2.9620 6.7742 -1.4308 0.9703
-3.4472 6.2904 -1.3881 0.9712
-4.6732 4.8320 -1.3008 0.9730
-5.0175 4.3388 -1.2836 0.9733
-5.8919 2.8144 -1.2636 0.9737
-6.1359 2.2850 -1.2671 0.9737
-4.1640 1.1406 -0.8355 0.9826
-3.0994 -0.2770 -0.6560 0.9874
-3.2303 -0.5820 -0.6920 0.9867
-6.8523 -2.5518 -1.5415 0.9706
-6.7421 -4.8527 -1.7513 0.9666
-6.4586 -6.6782 -1.9586 0.9627
-6.2253 -7.7052 -2.0883 0.9603
-5.9154 -8.8264 -2.2400 0.9575
-5.5116 -10.0575 -2.4178 0.9542
-1.1609 -2.6550 -0.6109 0.9882
0.2791 -2.2664 -0.4814 0.9907
0.5001 -2.3273 -0.5018 0.9903
0.7596 -2.4489 -0.5405 0.9896
9.3549 11.0650 -3.0547 0.9425
7.5562 10.7488 -2.7699 0.9477
5.9998 10.3919 -2.5297 0.9521
2.4127 9.2094 -2.0070 0.9618
0.6550 8.3825 -1.7726 0.9662
-0.0887 7.9650 -1.6793 0.9680
-1.3641 7.1166 -1.5276 0.9708
-1.9131 6.6904 -1.4670 0.9720
-2.5109 6.5193 -1.4728 0.9718
-3.0583 6.2235 -1.4619 0.9721
-3.9150 5.3135 -1.3914 0.9734
-4.6379 4.3865 -1.3458 0.9742
-4.9562 3.9138 -1.3314 0.9745
-5.2483 3.4333 -1.3222 0.9747
-5.5160 2.9434 -1.3181 0.9748
-3.5520 0.8048 -0.7678 0.9852
-3.0505 -0.1360 -0.6437 0.9876
-6.8387 -1.5495 -1.4783 0.9717
-6.8289 -3.6440 -1.6318 0.9689
-6.6911 -5.2839 -1.7974 0.9657
-6.5504 -6.1954 -1.9008 0.9638
-6.0809 -8.2531 -2.1612 0.9590
-0.9665 -2.5095 -0.5669 0.9891
-0.4371 -2.2806 -0.4895 0.9906
-0.0249 -2.2345 -0.4711 0.9909
0.3867 -2.2924 -0.4901 0.9905
0.9241 -2.5686 -0.5755 0.9889
8.4179 10.9073 -2.9046 0.9452
5.2997 10.2037 -2.4240 0.9541
4.0333 9.8145 -2.2370 0.9576
2.9200 9.4131 -2.0778 0.9605
-1.0690 7.3296 -1.5616 0.9702
-3.2865 5.9972 -1.4417 0.9724
-4.1073 5.0837 -1.3778 0.9736
-4.4685 4.6204 -1.3551 0.9741
-4.8004 4.1511 -1.3379 0.9744
-5.3851 3.1896 -1.3195 0.9747
-5.8738 2.1874 -1.3214 0.9747
-4.0001 1.0957 -0.8744 0.9832
-2.9710 0.0000 -0.6781 0.9879
-3.1642 -0.5701 -0.7338 0.9869
-6.5500 -1.7942 -1.5501 0.9725
-6.5309 -2.4321 -1.5907 0.9718
-6.4987 -3.1042 -1.6438 0.9709
-6.4579 -3.8250 -1.7131 0.9697
-6.3769 -4.5898 -1.7933 0.9683
-6.2500 -5.4046 -1.8859 0.9667
-6.0699 -6.2762 -1.9928 0.9648
-5.8274 -7.2126 -2.1164 0.9627
-5.1074 -9.3199 -2.4257 0.9573
-1.1815 -2.7021 -0.6731 0.9880
-0.5516 -2.3146 -0.5431 0.9903
-0.3306 -2.2671 -0.5229 0.9906
0.7617 -2.4554 -0.5868 0.9895
1.1487 -2.7951 -0.6897 0.9877
10.2577 10.1441 -3.2928 0.9425
8.4589 10.0053 -2.9904 0.9477
6.8884 9.7989 -2.7339 0.9520
4.2993 9.2649 -2.3312 0.9590
0.6172 7.8988 -1.8083 0.9680
-0.7187 7.1444 -1.6389 0.9710
-1.2952 6.7568 -1.5703 0.9722
-2.9194 5.9408 -1.5108 0.9732
-3.7454 5.0833 -1.4411 0.9744
-4.4433 4.2024 -1.3959 0.9752
-4.7503 3.7513 -1.3815 0.9755
-5.5230 2.3420 -1.3692 0.9757
-3.4289 0.7769 -0.8025 0.9857
-2.9453 0.1313 -0.6729 0.9880
-2.9994 -0.1337 -0.6853 0.9878
-6.5247 -1.4783 -1.5270 0.9729
-6.4227 -4.2015 -1.7518 0.9690
-6.3196 -4.9906 -1.8379 0.9675
-5.9571 -6.7358 -2.0524 0.9638
-5.6792 -7.7080 -2.1853 0.9615
-4.8670 -9.9039 -2.5187 0.9557
-0.9704 -2.5195 -0.6162 0.9890
-0.6766 -2.3664 -0.5617 0.9900
-0.2260 -2.2463 -0.5153 0.9908
-0.0250 -2.2433 -0.5120 0.9908
0.1762 -2.2544 -0.5161 0.9908
0.3881 -2.3007 -0.5325 0.9905
0.6270 -2.3932 -0.5647 0.9899
9.3272 10.0845 -3.1353 0.9452
6.1771 9.6763 -2.6202 0.9540
4.8896 9.4143 -2.4213 0.9574
3.7438 9.1100 -2.2480 0.9604
2.7243 8.7824 -2.0987 0.9630
1.2251 5.7011 -1.3309 0.9764
0.9953 8.0809 -1.8584 0.9671
-0.4091 7.3363 -1.6771 0.9703
-1.0138 6.9512 -1.6033 0.9716
-2.0794 6.2110 -1.4949 0.9735
-3.1392 5.7283 -1.4909 0.9736
-4.2797 4.4252 -1.4051 0.9751
-5.1633 3.0583 -1.3697 0.9757
-3.8725 1.0608 -0.9164 0.9837
-2.9277 0.2616 -0.6709 0.9880
-2.9221 -0.0000 -0.7182 0.9880
-2.9882 -0.2670 -0.7374 0.9877
-3.1004 -0.5586 -0.7743 0.9871
-6.2562 -1.7138 -1.5944 0.9736
-6.1891 -2.9563 -1.6859 0.9721
-6.0469 -4.3523 -1.8313 0.9698
-0.8139 -2.4311 -0.6302 0.9895
-0.1256 -2.2518 -0.5543 0.9908
0.0753 -2.2529 -0.5541 0.9908
0.2818 -2.2884 -0.5667 0.9905
0.7697 -2.4813 -0.6386 0.9894
1.1736 -2.8558 -0.7589 0.9874
5.0961 8.8268 -2.5053 0.9589
3.0039 8.3496 -2.1811 0.9641
2.1156 8.0743 -2.0517 0.9662
0.5833 7.4642 -1.8403 0.9696
-0.6824 6.7835 -1.6758 0.9723
-1.2324 6.4292 -1.6091 0.9734
-1.7352 6.0685 -1.5514 0.9743
-2.3400 6.0757 -1.6003 0.9735
-2.7916 5.6807 -1.5558 0.9743
-3.2067 5.2791 -1.5182 0.9749
-3.5887 4.8706 -1.4871 0.9754
-4.5594 3.6006 -1.4280 0.9764
-4.8309 3.1602 -1.4189 0.9765
-5.0784 2.7100 -1.4149 0.9766
-5.5051 1.7752 -1.4218 0.9765
-3.3132 0.7506 -0.8350 0.9861
-2.8899 0.3886 -0.7167 0.9881
-2.9494 -0.1315 -0.7257 0.9879
-3.0389 -0.4087 -0.7537 0.9874
-6.2688 -2.0214 -1.6190 0.9732
-6.1681 -3.2914 -1.7185 0.9716
-5.9848 -4.7262 -1.8745 0.9691
-5.8237 -5.5080 -1.9703 0.9675
-5.6069 -6.3398 -2.0803 0.9657
-5.3251 -7.2273 -2.2066 0.9637
-4.9674 -8.1775 -2.3518 0.9614
-4.5201 -9.1982 -2.5192 0.9587
-0.2268 -2.2541 -0.5569 0.9907
0.1770 -2.2655 -0.5586 0.9907
0.3900 -2.3123 -0.5764 0.9904
0.9386 -2.6089 -0.6815 0.9886
8.4702 9.1579 -3.0662 0.9499
7.0020 9.0727 -2.8170 0.9539
5.6955 8.9218 -2.6017 0.9573
3.4853 8.4810 -2.2538 0.9629
2.5473 8.2116 -2.1133 0.9652
0.2440 7.2983 -1.7949 0.9704
-0.3879 6.9575 -1.7128 0.9717
-1.4893 6.2493 -1.5791 0.9739
-3.0035 5.4808 -1.5362 0.9746
-4.1049 4.2445 -1.4514 0.9760
-5.1936 2.4808 -1.4147 0.9766
-3.0843 0.5557 -0.7703 0.9872
-2.8745 -0.0000 -0.7574 0.9882
-3.0385 -0.5474 -0.8135 0.9873
-5.9705 -2.2234 -1.6788 0.9740
-5.9054 -2.8208 -1.7245 0.9733
-5.8458 -3.4625 -1.7903 0.9723
-5.6041 -4.8460 -1.9522 0.9698
-4.8424 -7.2254 -2.2919 0.9647
-4.4475 -8.1156 -2.4385 0.9624
-1.2254 -2.8026 -0.8060 0.9874
-0.8207 -2.4512 -0.6811 0.9894
-0.5554 -2.3306 -0.6313 0.9901
0.0756 -2.2620 -0.5964 0.9907
0.7779 -2.5079 -0.6919 0.9892
7.0857 8.3810 -2.8919 0.9556
5.8516 8.3240 -2.6811 0.9588
3.7304 8.0388 -2.3352 0.9640
0.5524 7.0687 -1.8683 0.9711
-0.6493 6.4547 -1.7094 0.9735
-1.7097 5.9793 -1.6387 0.9746
-2.6736 5.4406 -1.5974 0.9752
-3.0744 5.0611 -1.5604 0.9758
-4.3819 3.4604 -1.4713 0.9772
-4.8825 2.6054 -1.4582 0.9774
-5.0982 2.1619 -1.4592 0.9774
-3.2212 0.7298 -0.8703 0.9864
-2.9007 -0.1294 -0.7651 0.9881
-2.9836 -0.4013 -0.7933 0.9876
-5.9936 -1.9327 -1.6594 0.9743
-5.8802 -3.1378 -1.7562 0.9728
-5.6814 -4.4866 -1.9076 0.9705
-5.2931 -5.9850 -2.1053 0.9675
-5.0101 -6.7998 -2.2256 0.9657
-4.6553 -7.6637 -2.3628 0.9636
-4.2171 -8.5817 -2.5196 0.9612
-0.9928 -2.5777 -0.7278 0.9886
-0.6815 -2.3833 -0.6532 0.9898
-0.4419 -2.3053 -0.6185 0.9903
-0.2276 -2.2621 -0.5991 0.9906
-0.0252 -2.2613 -0.5959 0.9907
0.1779 -2.2768 -0.6018 0.9906
11.4912 8.6659 -3.7924 0.9422
7.7588 8.3887 -3.0109 0.9538
5.2804 8.2717 -2.5858 0.9602
0.8883 7.2124 -1.9148 0.9704
0.2314 6.9206 -1.8246 0.9718
-0.3687 6.6133 -1.7453 0.9730
-0.9179 6.2934 -1.6759 0.9740
-1.4212 5.9637 -1.6154 0.9750
-2.4605 5.6273 -1.6183 0.9749
-2.8781 5.2519 -1.5781 0.9755
-4.2418 3.6680 -1.4777 0.9771
-4.9932 2.3851 -1.4581 0.9774
-5.1977 1.9356 -1.4615 0.9773
-3.7365 1.0235 -1.0208 0.9841
-3.0018 0.5408 -0.8037 0.9875
-2.8347 0.2533 -0.7499 0.9883
-2.8279 -0.0000 -0.7956 0.9883
-2.8819 -0.2575 -0.8141 0.9880
-5.7224 -2.1310 -1.7180 0.9749
-5.3253 -4.6050 -1.9808 0.9712
-4.8770 -6.0363 -2.1834 0.9683
-4.5621 -6.8071 -2.3055 0.9665
-1.2490 -2.8565 -0.8772 0.9871
-0.3342 -2.2915 -0.6515 0.9904
0.0759 -2.2713 -0.6394 0.9906
1.3092 -3.1858 -0.9691 0.9858
11.2198 7.7020 -3.8290 0.9450
8.2680 8.1764 -3.2717 0.9528
5.4371 7.7345 -2.6600 0.9615
4.4236 7.6618 -2.4892 0.9639
3.4981 7.5382 -2.3382 0.9661
2.6528 7.3735 -2.2048 0.9680
-1.1222 5.8546 -1.6772 0.9755
-2.9514 4.8587 -1.5995 0.9767
-3.3084 4.4901 -1.5692 0.9771
-3.6370 4.1125 -1.5447 0.9774
-4.2163 3.3296 -1.5116 0.9779
-4.4695 2.9238 -1.5027 0.9781
-4.9071 2.0808 -1.4996 0.9781
-5.0925 1.6421 -1.5055 0.9780
-2.8531 -0.1272 -0.8035 0.9882
-2.9298 -0.3940 -0.8317 0.9878
-3.2049 -1.0335 -0.9474 0.9861
-5.5307 -3.6180 -1.8595 0.9729
-5.4050 -4.2683 -1.9377 0.9718
-4.7280 -6.4169 -2.2426 0.9674
-4.3780 -7.2071 -2.3726 0.9656
-1.0050 -2.6093 -0.7867 0.9884
-0.6873 -2.4037 -0.7034 0.9897
-0.4435 -2.3138 -0.6628 0.9903
0.1788 -2.2883 -0.6458 0.9905
12.0365 7.4964 -3.9896 0.9428
10.4348 7.8693 -3.6772 0.9471
8.9594 8.1033 -3.3989 0.9510
7.6065 8.2241 -3.1519 0.9545
5.9797 7.7481 -2.7537 0.9601
4.9188 7.7052 -2.5720 0.9627
1.2276 5.7129 -1.6441 0.9760
-1.9215 5.7391 -1.7028 0.9752
-3.1335 4.6756 -1.5836 0.9769
-3.7914 3.9202 -1.5344 0.9776
-4.0809 3.5288 -1.5179 0.9778
-4.5874 2.7171 -1.5001 0.9781
-4.8061 2.2957 -1.4986 0.9781
-2.7884 0.2492 -0.7877 0.9884
-2.7824 -0.0000 -0.8330 0.9884
-2.9224 -0.5265 -0.8890 0.9877
-5.4035 -2.5810 -1.7927 0.9753
-5.3315 -3.1579 -1.8551 0.9745
-5.0707 -4.3848 -2.0069 0.9724
-4.8725 -5.0381 -2.0983 0.9712
-4.6213 -5.7198 -2.2015 0.9698
-4.3102 -6.4312 -2.3178 0.9682
-3.9310 -7.1731 -2.4488 0.9664
-0.8372 -2.5006 -0.7895 0.9890
-0.5624 -2.3600 -0.7263 0.9899
-0.3354 -2.2999 -0.6958 0.9903
0.2862 -2.3238 -0.7009 0.9903
0.5161 -2.4019 -0.7355 0.9898
0.7953 -2.5638 -0.8036 0.9889
10.2313 7.0234 -3.7153 0.9495
8.8888 7.3468 -3.4525 0.9530
7.6375 7.5529 -3.2158 0.9561
4.1462 7.1813 -2.4825 0.9660
3.2913 7.0926 -2.3408 0.9679
1.7820 6.8018 -2.1051 0.9711
0.4988 6.3830 -1.9168 0.9736
-1.0962 5.7188 -1.7433 0.9760
-2.0573 5.3417 -1.7137 0.9764
-3.1823 4.3191 -1.6061 0.9778
-3.5006 3.9582 -1.5819 0.9782
-4.3062 2.8170 -1.5405 0.9787
-4.7282 2.0049 -1.5375 0.9788
-4.9062 1.5820 -1.5433 0.9787
-3.1092 -1.0026 -0.9780 0.9865
-5.4377 -2.3058 -1.7682 0.9756
-5.3719 -2.8665 -1.8229 0.9749
-5.2817 -3.4552 -1.8895 0.9740
-4.9778 -4.7080 -2.0512 0.9718
-4.7539 -5.3753 -2.1483 0.9705
-4.4737 -6.0718 -2.2579 0.9690
-4.1296 -6.7983 -2.3814 0.9673
-3.7129 -7.5555 -2.5204 0.9655
-1.0176 -2.6421 -0.8476 0.9882
-0.2293 -2.2795 -0.6859 0.9905
-0.0254 -2.2800 -0.6826 0.9905
0.1797 -2.3000 -0.6907 0.9904
0.3962 -2.3487 -0.7131 0.9901
12.4049 6.2685 -4.1610 0.9436
10.9356 6.8108 -3.8569 0.9476
9.5488 7.2011 -3.5805 0.9513
8.2517 7.4632 -3.3309 0.9546
7.0461 7.6182 -3.1067 0.9576
4.6008 7.2070 -2.5598 0.9649
2.8897 7.0316 -2.2760 0.9688
1.2305 5.7264 -1.7535 0.9758
0.2094 6.2635 -1.8762 0.9742
-0.3351 6.0103 -1.8022 0.9752
-0.8373 5.7409 -1.7369 0.9761
-2.2640 5.1779 -1.6919 0.9767
-2.6535 4.8420 -1.6530 0.9772
-3.3448 4.1399 -1.5934 0.9780
-3.6500 3.7741 -1.5719 0.9783
-3.9303 3.3987 -1.5556 0.9785
-4.1867 3.0134 -1.5443 0.9787
-4.4201 2.6180 -1.5380 0.9788
-4.6310 2.2121 -1.5365 0.9788
-4.8199 1.7950 -1.5398 0.9788
-2.7412 0.2449 -0.8239 0.9886
-2.8694 -0.5170 -0.9260 0.9878
-2.9540 -0.8092 -0.9727 0.9872
-5.2718 -1.9633 -1.7866 0.9767
-5.1037 -3.0229 -1.8839 0.9754
-4.8372 -4.1829 -2.0309 0.9735
-4.6383 -4.7960 -2.1189 0.9724
-3.7122 -6.7740 -2.4532 0.9681
-0.1277 -2.2892 -0.7281 0.9904
0.0766 -2.2903 -0.7278 0.9904
11.9309 5.3758 -4.1559 0.9466
10.6399 5.9859 -3.8771 0.9501
8.2099 6.7857 -3.3827 0.9563
6.0425 7.1471 -2.9723 0.9615
3.1058 6.6929 -2.3432 0.9695
0.4754 6.0836 -1.9380 0.9747
-0.0653 5.8625 -1.8620 0.9757
-0.5656 5.6227 -1.7947 0.9766
-1.9762 5.1311 -1.7462 0.9772
-2.3678 4.8184 -1.7050 0.9777
-2.7300 4.4942 -1.6700 0.9782
-3.0645 4.1591 -1.6407 0.9786
-3.3728 3.8137 -1.6169 0.9789
-3.6563 3.4581 -1.5983 0.9791
-4.1530 2.7168 -1.5761 0.9794
-4.3676 2.3306 -1.5722 0.9794
-4.5603 1.9337 -1.5731 0.9794
-2.6672 0.3587 -0.8547 0.9888
-2.9205 -0.6617 -0.9510 0.9875
-5.1462 -2.7461 -1.8525 0.9758
-4.9193 -3.8847 -1.9907 0.9740
-4.7437 -4.4866 -2.0736 0.9730
-4.5202 -5.1111 -2.1670 0.9718
-1.0307 -2.6761 -0.9107 0.9880
-0.4497 -2.3463 -0.7587 0.9900
-0.0255 -2.2896 -0.7272 0.9904
0.3984 -2.3619 -0.7607 0.9900
1.0001 -2.7799 -0.9382 0.9877
12.5877 5.0098 -4.3026 0.9447
11.2807 5.7004 -4.0140 0.9483
10.0108 6.2348 -3.7455 0.9517
8.7946 6.6323 -3.4982 0.9548
7.6420 6.9118 -3.2724 0.9577
6.5581 7.0905 -3.0674 0.9603
2.7311 6.6458 -2.2819 0.9703
2.0248 6.5274 -2.1704 0.9717
0.7619 6.1859 -1.9794 0.9742
0.1998 5.9757 -1.8988 0.9752
-0.8193 5.6177 -1.8030 0.9765
-1.7687 5.2829 -1.7693 0.9769
-2.1758 4.9762 -1.7248 0.9775
-2.9006 4.3279 -1.6546 0.9784
-3.5176 3.6372 -1.6069 0.9790
-3.7891 3.2766 -1.5909 0.9792
-4.4666 2.1335 -1.5721 0.9794
-4.6485 1.7311 -1.5753 0.9794
-2.7749 0.4999 -0.8954 0.9882
-2.6951 0.2408 -0.8593 0.9887
-2.7374 -0.2446 -0.9234 0.9885
-2.8177 -0.5077 -0.9619 0.9880
-4.9765 -2.3771 -1.8530 0.9770
-4.8925 -2.8978 -1.9105 0.9763
-4.1765 -5.1693 -2.2328 0.9723
-3.0865 -7.0591 -2.5885 0.9680
-0.5732 -2.4054 -0.8308 0.9896
-0.1285 -2.3050 -0.7756 0.9903
0.0769 -2.3009 -0.7735 0.9903
0.5237 -2.4372 -0.8375 0.9895
0.8137 -2.6233 -0.9228 0.9885
5.0836 -12.3703 -4.4935 0.9451
12.0256 4.1758 -4.2770 0.9477
10.8975 4.9102 -4.0159 0.9508
8.6785 5.9575 -3.5367 0.9566
7.6216 6.2995 -3.3222 0.9591
3.7255 6.4527 -2.5034 0.9690
2.9385 6.3322 -2.3454 0.9710
1.0097 5.9858 -2.0395 0.9747
0.4539 5.8083 -1.9574 0.9757
-0.0625 5.6072 -1.8840 0.9766
-0.5567 5.5341 -1.8687 0.9768
-1.0517 5.4864 -1.8769 0.9767
-1.9005 4.9345 -1.7766 0.9779
-3.7795 2.9846 -1.6180 0.9799
-4.4022 1.8667 -1.6066 0.9800
-4.5667 1.4726 -1.6121 0.9800
-2.7168 -0.1212 -0.9137 0.9886
-2.7751 -0.3732 -0.9408 0.9883
-2.8653 -0.6492 -0.9871 0.9877
-5.0802 -1.6381 -1.7934 0.9777
-4.9366 -2.6343 -1.8800 0.9767
-4.3064 -4.8693 -2.1840 0.9729
-4.0332 -5.4739 -2.2844 0.9717
-3.3094 -6.7345 -2.5211 0.9688
-1.0544 -2.7378 -0.9857 0.9877
-0.7079 -2.4757 -0.8651 0.9892
-0.4538 -2.3678 -0.8100 0.9899
0.4013 -2.3788 -0.8105 0.9899
0.6551 -2.5004 -0.8684 0.9892
13.6670 2.7779 -4.6857 0.9428
12.5837 3.7503 -4.4117 0.9461
10.3342 5.2221 -3.8902 0.9523
9.2226 5.7439 -3.6504 0.9552
8.1445 6.1421 -3.4273 0.9579
7.1110 6.4316 -3.2214 0.9603
4.2884 6.7177 -2.6777 0.9669
1.2365 5.7540 -1.9774 0.9755
0.7267 5.9002 -1.9973 0.9752
0.1909 5.7104 -1.9197 0.9762
-0.3067 5.4998 -1.8507 0.9770
-0.8168 5.6008 -1.9017 0.9764
-1.2759 5.3540 -1.8492 0.9770
-1.7001 5.0778 -1.7991 0.9777
-2.0934 4.7878 -1.7557 0.9782
-2.7950 4.1705 -1.6868 0.9790
-3.1064 3.8449 -1.6607 0.9794
-3.3932 3.5085 -1.6399 0.9796
-3.6564 3.1618 -1.6241 0.9798
-3.8969 2.8048 -1.6132 0.9799
-4.1153 2.4375 -1.6070 0.9800
-2.7668 -0.4985 -0.9969 0.9881
-2.8417 -0.7785 -1.0448 0.9876
-4.8752 -1.8156 -1.8447 0.9782
-4.7840 -2.2851 -1.8799 0.9778
-3.9817 -4.9282 -2.2466 0.9735
-3.6867 -5.5010 -2.3481 0.9723
-3.3351 -6.0858 -2.4607 0.9710
0.2913 -2.3655 -0.8451 0.9899
0.5285 -2.4596 -0.8920 0.9894
0.8290 -2.6725 -0.9922 0.9882
4.6276 -11.2607 -4.3169 0.9496
5.9279 -11.4132 -4.5603 0.9469
7.2843 -11.4107 -4.8002 0.9442
13.6192 0.9117 -4.8400 0.9437
12.8323 2.0178 -4.6061 0.9464
11.9472 2.9882 -4.3668 0.9491
10.9995 3.8195 -4.1287 0.9518
10.0198 4.5147 -3.8969 0.9544
9.0327 5.0817 -3.6749 0.9570
8.0570 5.5308 -3.4653 0.9594
7.1067 5.8738 -3.2693 0.9616
5.3172 6.2892 -2.9203 0.9657
4.4878 6.3839 -2.7670 0.9674
3.7047 6.4167 -2.6273 0.9690
2.7925 6.0179 -2.3524 0.9722
2.1382 5.9431 -2.2396 0.9736
0.4340 5.5541 -1.9754 0.9766
-0.0606 5.4367 -1.9279 0.9772
-0.5539 5.5060 -1.9622 0.9768
-1.0103 5.2706 -1.9029 0.9775
-1.4349 5.0182 -1.8507 0.9781
-2.1960 4.4687 -1.7655 0.9791
-2.8499 3.8679 -1.7036 0.9798
-3.1398 3.5503 -1.6806 0.9801
-3.8729 2.5335 -1.6410 0.9806
-2.5748 0.3463 -0.9212 0.9890
-2.7260 -0.3666 -0.9753 0.9884
-2.8093 -0.6365 -1.0214 0.9878
-4.8277 -2.0471 -1.8594 0.9780
-4.6418 -3.0365 -1.9668 0.9767
-4.5058 -3.5582 -2.0358 0.9759
-4.1097 -4.6469 -2.1997 0.9740
-3.8409 -5.2130 -2.2960 0.9729
-3.1362 -6.3820 -2.5214 0.9703
-1.1033 -2.8646 -1.0885 0.9871
-0.7152 -2.5011 -0.9224 0.9890
-0.4581 -2.3898 -0.8628 0.9897
0.1831 -2.3431 -0.8334 0.9901
0.4047 -2.3994 -0.8628 0.9897
0.6635 -2.5325 -0.9283 0.9890
6.6009 -11.4330 -4.6811 0.9455
7.9740 -11.3431 -4.9165 0.9429
13.9635 0.3112 -4.9525 0.9424
13.2404 1.4812 -4.7242 0.9450
8.5425 5.3203 -3.5685 0.9582
7.5780 5.7148 -3.3655 0.9605
6.6442 6.0093 -3.1766 0.9627
5.7489 6.2156 -3.0021 0.9647
3.2272 6.2136 -2.4827 0.9707
2.4570 5.9789 -2.2920 0.9729
1.8296 5.8982 -2.1897 0.9741
0.1828 5.4658 -1.9392 0.9771
-0.3051 5.4714 -1.9431 0.9770
-0.7862 5.3906 -1.9316 0.9771
-2.0162 4.6112 -1.7845 0.9789
-2.3691 4.3230 -1.7480 0.9793
-2.9978 3.7105 -1.6914 0.9800
-3.2760 3.3874 -1.6709 0.9802
-3.5313 3.0537 -1.6554 0.9804
-3.7645 2.7095 -1.6446 0.9805
-3.9759 2.3550 -1.6385 0.9806
-4.3351 1.6144 -1.6403 0.9806
-2.5828 0.7075 -0.9496 0.9887
-2.6101 -0.0000 -0.9746 0.9889
-2.6498 -0.2368 -0.9934 0.9887
-2.7171 -0.4895 -1.0309 0.9883
-4.5125 -2.6728 -1.9584 0.9779
-4.0425 -4.1799 -2.1714 0.9755
-3.8023 -4.7061 -2.2592 0.9745
-2.7704 -6.3361 -2.5823 0.9709
0.5363 -2.4958 -0.9532 0.9892
0.8490 -2.7368 -1.0700 0.9878
5.4093 -10.4147 -4.3822 0.9511
9.0338 -9.7672 -4.9680 0.9448
13.4656 -2.7370 -5.1310 0.9430
12.9028 -0.2875 -4.8192 0.9464
12.3674 0.8279 -4.6285 0.9485
11.7049 1.8405 -4.4244 0.9507
10.9475 2.7381 -4.2138 0.9530
9.2648 4.1745 -3.7946 0.9575
8.3881 4.7190 -3.5939 0.9597
5.0112 5.9272 -2.8983 0.9674
4.2423 6.0348 -2.7545 0.9690
3.5118 6.0826 -2.6227 0.9705
2.7847 6.0009 -2.4703 0.9721
0.9214 5.4626 -2.0686 0.9766
0.4214 5.3929 -2.0199 0.9772
-0.5321 5.2890 -1.9849 0.9776
-1.7631 4.5776 -1.8317 0.9793
-2.1178 4.3096 -1.7931 0.9797
-2.7518 3.7348 -1.7323 0.9804
-3.2920 3.1136 -1.6920 0.9808
-3.5289 2.7868 -1.6791 0.9810
-3.7444 2.4495 -1.6708 0.9811
-3.9388 2.1018 -1.6671 0.9811
-2.5325 0.3406 -0.9542 0.9891
-2.5921 0.1156 -0.9689 0.9890
-2.6307 -0.1173 -0.9833 0.9888
-2.6781 -0.3602 -1.0090 0.9885
-2.7556 -0.6244 -1.0551 0.9880
-2.8043 -0.9043 -1.1002 0.9875
-4.5589 -2.4327 -1.9295 0.9782
-4.1458 -3.9210 -2.1308 0.9759
-3.6642 -4.9731 -2.3067 0.9740
-3.3493 -5.5137 -2.4090 0.9728
-1.1589 -3.0091 -1.2041 0.9863
-0.7237 -2.5309 -0.9829 0.9888
-0.4625 -2.4126 -0.9173 0.9896
-0.2369 -2.3547 -0.8837 0.9899
0.1851 -2.3691 -0.8873 0.9899
3.6812 -10.2320 -4.0605 0.9546
4.8194 -10.3855 -4.2753 0.9523
6.0094 -10.4086 -4.4879 0.9500
9.6089 -9.5025 -5.0463 0.9439
13.4810 -3.3718 -5.1890 0.9424
13.1125 -0.8778 -4.9073 0.9454
11.3361 2.3041 -4.3196 0.9518
9.6984 3.8599 -3.8978 0.9564
8.8273 4.4606 -3.6931 0.9586
6.2303 5.6350 -3.1369 0.9648
4.6221 5.9890 -2.8249 0.9682
0.6655 5.4032 -2.0329 0.9770
0.1807 5.4031 -2.0187 0.9772
-0.3006 5.3917 -2.0164 0.9772
-0.7557 5.1813 -1.9552 0.9779
-1.5757 4.7063 -1.8533 0.9790
-1.9437 4.4453 -1.8117 0.9795
-2.2855 4.1706 -1.7758 0.9799
-3.1654 3.2730 -1.7002 0.9807
-3.4132 2.9515 -1.6849 0.9809
-3.8442 2.2770 -1.6684 0.9811
-4.1913 1.5609 -1.6701 0.9811
-3.4440 0.9434 -1.3334 0.9849
-2.5629 0.2290 -0.9608 0.9891
-2.6073 -0.2330 -1.0273 0.9888
-2.6685 -0.4808 -1.0642 0.9884
-2.7221 -0.7457 -1.1077 0.9879
-4.4344 -2.1182 -1.9287 0.9791
-4.3408 -2.5711 -1.9801 0.9786
-3.6364 -4.5008 -2.2709 0.9754
-3.0208 -5.5123 -2.4670 0.9734
-0.9215 -2.7523 -1.1391 0.9876
-0.3504 -2.4022 -0.9528 0.9896
-0.1323 -2.3722 -0.9325 0.9898
0.8854 -2.8544 -1.1729 0.9872
3.9129 -9.5215 -4.0401 0.9567
4.9691 -9.5672 -4.2311 0.9547
8.2098 -8.8763 -4.7453 0.9494
9.2122 -8.3319 -4.8750 0.9480
10.8818 -6.7772 -5.0314 0.9464
11.4924 -5.8074 -5.0536 0.9462
12.1609 -3.6243 -4.9803 0.9469
11.3145 0.7575 -4.4506 0.9524
10.7487 1.6901 -4.2704 0.9543
9.3712 3.2540 -3.8933 0.9583
8.6081 3.8786 -3.7055 0.9602
7.8228 4.4010 -3.5227 0.9622
6.2472 5.1634 -3.1809 0.9658
5.4794 5.4186 -3.0244 0.9674
4.7352 5.6009 -2.8785 0.9690
3.3359 5.7779 -2.6185 0.9717
2.0368 5.6615 -2.3614 0.9745
1.4369 5.4848 -2.2253 0.9759
0.4206 5.3832 -2.1192 0.9771
-0.0587 5.2718 -2.0692 0.9776
-0.5117 5.0860 -2.0062 0.9783
-1.3312 4.6556 -1.9004 0.9794
-1.7004 4.4150 -1.8568 0.9799
-2.0441 4.1596 -1.8190 0.9803
-2.6592 3.6091 -1.7594 0.9809
-2.9324 3.3157 -1.7372 0.9812
-3.1837 3.0112 -1.7199 0.9813
-3.8110 2.0336 -1.6954 0.9816
-3.9789 1.6872 -1.6962 0.9816
-4.1262 1.3305 -1.7015 0.9815
-2.4910 0.3350 -0.9865 0.9893
-2.6312 -0.3539 -1.0420 0.9887
-2.7236 -0.8783 -1.1231 0.9878
-4.2855 -2.8034 -2.0099 0.9782
-4.1488 -3.2762 -2.0748 0.9775
-3.9747 -3.7593 -2.1472 0.9768
-3.5011 -4.7518 -2.3165 0.9750
-3.1939 -5.2579 -2.4145 0.9739
-2.4173 -6.2763 -2.6397 0.9715
-0.4670 -2.4361 -0.9735 0.9894
-0.0264 -2.3674 -0.9292 0.9899
0.4165 -2.4692 -0.9828 0.9893
3.4019 -9.4558 -3.9440 0.9577
5.5096 -9.5428 -4.3247 0.9538
11.2085 -6.3058 -5.0474 0.9462
12.0660 -4.1898 -5.0129 0.9466
12.2074 -3.0533 -4.9386 0.9474
12.1592 -1.9119 -4.8308 0.9485
11.5551 0.2575 -4.5362 0.9515
9.7384 2.9024 -3.9882 0.9573
8.2171 4.1523 -3.6134 0.9612
3.0065 5.7885 -2.5600 0.9724
2.3733 5.7750 -2.4504 0.9735
1.7236 5.5563 -2.2832 0.9753
1.1679 5.4349 -2.1817 0.9764
0.6633 5.3854 -2.1296 0.9770
0.1791 5.3563 -2.1034 0.9772
-0.2889 5.1816 -2.0368 0.9779
-1.5191 4.5373 -1.8779 0.9796
-1.8754 4.2891 -1.8372 0.9801
-2.5142 3.7514 -1.7724 0.9808
-3.5208 2.5341 -1.7025 0.9815
-3.7194 2.2030 -1.6966 0.9816
-3.8975 1.8617 -1.6952 0.9816
-2.5289 -0.0000 -1.0413 0.9891
-2.6211 -0.4722 -1.0967 0.9885
-2.6436 -0.9845 -1.1616 0.9879
-4.2751 -2.0420 -1.9509 0.9797
-4.1797 -2.4756 -2.0004 0.9792
-3.9062 -3.3778 -2.1265 0.9779
-3.4824 -4.3102 -2.2818 0.9763
-2.5072 -5.7341 -2.5771 0.9733
-0.9494 -2.8357 -1.2314 0.9871
-0.6042 -2.5355 -1.0733 0.9888
-0.3537 -2.4256 -1.0094 0.9895
0.0803 -2.4012 -0.9893 0.9897
0.3015 -2.4481 -1.0157 0.9894
0.5529 -2.5731 -1.0837 0.9887
0.9257 -2.9844 -1.2867 0.9866
4.5906 -8.8386 -4.1012 0.9578
5.5750 -8.7331 -4.2664 0.9562
6.5586 -8.4982 -4.4204 0.9546
7.5155 -8.1257 -4.5577 0.9532
8.4168 -7.6125 -4.6732 0.9521
9.2236 -6.9558 -4.7570 0.9513
10.8624 -4.3231 -4.8142 0.9507
11.1500 -2.2663 -4.6852 0.9520
11.0476 -1.2359 -4.5776 0.9530
10.7967 -0.2406 -4.4470 0.9544
10.4161 0.6973 -4.2988 0.9558
9.3524 2.3392 -3.9698 0.9592
8.0313 3.6188 -3.6274 0.9626
7.3229 4.1198 -3.4599 0.9643
6.6032 4.5329 -3.2981 0.9659
5.1760 5.1186 -2.9976 0.9690
4.4850 5.3049 -2.8605 0.9704
3.1748 5.4988 -2.6146 0.9729
2.5613 5.5194 -2.5056 0.9740
1.9776 5.4968 -2.4055 0.9750
1.4242 5.4362 -2.3141 0.9760
0.9011 5.3420 -2.2308 0.9768
-0.0565 5.0686 -2.0873 0.9783
-0.4925 4.8957 -2.0261 0.9789
-1.9745 4.0180 -1.8435 0.9808
-3.0810 2.9140 -1.7463 0.9818
-3.6898 1.9689 -1.7222 0.9821
-2.6464 -0.8534 -1.1450 0.9880
-4.3324 -1.8371 -1.9378 0.9798
-3.9877 -3.1490 -2.0923 0.9783
-3.8153 -3.6085 -2.1624 0.9775
-3.6038 -4.0749 -2.2400 0.9767
-3.0505 -5.0218 -2.4195 0.9749
-2.7015 -5.4973 -2.5223 0.9739
-2.2991 -5.9696 -2.6342 0.9727
-0.7562 -2.6446 -1.1326 0.9882
-0.4731 -2.4680 -1.0348 0.9892
-0.2417 -2.4021 -0.9941 0.9896
-0.0266 -2.3912 -0.9847 0.9897
0.7089 -2.7058 -1.1518 0.9880
3.1591 -8.7810 -3.8427 0.9604
4.1052 -8.8464 -4.0159 0.9587
5.0815 -8.8013 -4.1849 0.9570
6.0685 -8.6325 -4.3451 0.9554
7.0421 -8.3295 -4.4915 0.9539
7.9749 -7.8866 -4.6185 0.9526
10.2098 -5.7439 -4.8239 0.9506
10.9396 -0.7323 -4.5148 0.9537
10.6213 0.2367 -4.3748 0.9551
10.1838 1.1392 -4.2196 0.9566
9.0397 2.6941 -3.8842 0.9600
8.3768 3.3339 -3.7126 0.9617
7.6793 3.8805 -3.5430 0.9635
4.8279 5.2199 -2.9279 0.9697
3.4923 5.4706 -2.6726 0.9723
2.8643 5.5149 -2.5589 0.9735
2.2657 5.5132 -2.4544 0.9745
1.1589 5.3931 -2.2714 0.9764
0.1721 5.1465 -2.1204 0.9780
-1.0958 4.5983 -1.9465 0.9798
-1.8109 4.1416 -1.8613 0.9806
-2.1323 3.8909 -1.8270 0.9810
-2.7069 3.3504 -1.7736 0.9815
-3.1953 2.7630 -1.7395 0.9819
-3.4083 2.4532 -1.7292 0.9820
-3.6010 2.1329 -1.7234 0.9821
-3.7736 1.8025 -1.7220 0.9821
-3.9259 1.4620 -1.7251 0.9820
-3.5070 0.9607 -1.4973 0.9844
-2.4793 0.2215 -1.0250 0.9893
-2.4893 -0.0000 -1.0738 0.9892
-2.5221 -0.2254 -1.0923 0.9890
-2.5389 -0.4574 -1.1128 0.9888
-2.5687 -0.9567 -1.1824 0.9881
-3.9088 -2.8134 -2.0774 0.9792
-3.7559 -3.2479 -2.1419 0.9786
-2.7544 -5.0262 -2.4723 0.9753
-2.3913 -5.4690 -2.5748 0.9743
-1.9766 -5.9039 -2.6856 0.9732
-0.1350 -2.4208 -1.0459 0.9895
0.0812 -2.4295 -1.0486 0.9895
0.5637 -2.6235 -1.1575 0.9884
2.5240 -8.1367 -3.6748 0.9636
3.3777 -8.2191 -3.8331 0.9620
6.0551 -7.8459 -4.2751 0.9577
8.4691 -6.3869 -4.5756 0.9548
9.9641 -3.9656 -4.6260 0.9544
10.1819 -3.0345 -4.5829 0.9548
9.2132 1.4487 -4.0230 0.9602
6.2191 4.2692 -3.2539 0.9677
4.9009 4.8466 -2.9732 0.9704
4.2570 5.0352 -2.8442 0.9717
3.6310 5.1651 -2.7234 0.9729
3.0266 5.2422 -2.6111 0.9740
2.4465 5.2721 -2.5071 0.9750
1.3651 5.2104 -2.3234 0.9768
-0.0543 4.8779 -2.1042 0.9790
-0.4745 4.7167 -2.0448 0.9796
-1.5855 4.1167 -1.9029 0.9810
-2.2093 3.6371 -1.8356 0.9816
-2.4883 3.3772 -1.8095 0.9819
-2.9835 2.8217 -1.7714 0.9823
-3.2004 2.5274 -1.7591 0.9824
-3.8693 1.2477 -1.7537 0.9824
-2.4654 0.1099 -1.0645 0.9893
-2.5076 -0.1118 -1.0828 0.9891
-2.5277 -0.3400 -1.1001 0.9890
-2.6695 -1.1320 -1.2508 0.9874
-3.9725 -2.5987 -2.0477 0.9795
-2.9177 -4.8032 -2.4242 0.9758
-0.4824 -2.5168 -1.1054 0.9889
-0.2443 -2.4283 -1.0527 0.9894
-0.0269 -2.4158 -1.0421 0.9895
0.1917 -2.4527 -1.0612 0.9893
0.7259 -2.7708 -1.2355 0.9876
3.8168 -8.2251 -3.9114 0.9613
4.7106 -8.1591 -4.0639 0.9598
7.3375 -7.2562 -4.4514 0.9560
8.7966 -6.0386 -4.6025 0.9546
9.3639 -5.2680 -4.6345 0.9543
9.7996 -4.4155 -4.6364 0.9543
10.2347 -2.5599 -4.5508 0.9551
10.2304 -1.6086 -4.4672 0.9559
8.9681 1.8228 -3.9476 0.9609
7.8323 3.1172 -3.6363 0.9639
5.8880 4.4404 -3.1811 0.9684
4.5770 4.9486 -2.9077 0.9711
2.7334 5.2627 -2.5580 0.9745
2.1661 5.2709 -2.4581 0.9755
1.1116 5.1730 -2.2823 0.9772
-0.2676 4.8001 -2.0737 0.9793
-1.7499 4.0021 -1.8842 0.9812
-2.0617 3.7622 -1.8506 0.9815
-2.8674 2.9649 -1.7792 0.9822
-3.4884 2.0662 -1.7489 0.9825
-3.6557 1.7462 -1.7476 0.9825
-3.9304 1.0767 -1.7579 0.9824
-2.4387 0.2179 -1.0561 0.9894
-2.4481 -0.2188 -1.1090 0.9893
-3.6149 -3.1259 -2.1564 0.9792
-3.2053 -3.9672 -2.3013 0.9779
-2.6357 -4.8096 -2.4747 0.9762
-2.2841 -5.2240 -2.5726 0.9753
-0.6319 -2.6515 -1.2299 0.9881
-0.3665 -2.5133 -1.1460 0.9889
-0.1372 -2.4602 -1.1118 0.9892
0.0822 -2.4594 -1.1103 0.9893
0.3104 -2.5205 -1.1459 0.9889
3.9732 -7.6498 -3.8895 0.9629
5.6177 -7.2790 -4.1488 0.9605
7.1506 -6.4673 -4.3504 0.9586
8.3923 -5.2267 -4.4611 0.9575
9.2457 -0.2060 -4.1729 0.9602
8.5867 1.3502 -3.9221 0.9626
8.1342 2.0345 -3.7834 0.9639
7.6217 2.6465 -3.6404 0.9652
7.0646 3.1832 -3.4963 0.9666
6.4774 3.6442 -3.3535 0.9679
4.6501 4.5986 -2.9509 0.9717
4.0482 4.7882 -2.8292 0.9729
2.8897 5.0052 -2.6078 0.9750
2.3401 5.0428 -2.5084 0.9759
1.8131 5.0395 -2.4166 0.9768
1.3099 4.9997 -2.3321 0.9776
0.8311 4.9274 -2.2547 0.9783
0.3771 4.8259 -2.1842 0.9790
-1.1971 4.1865 -1.9647 0.9811
-1.5326 3.9794 -1.9241 0.9815
-2.1382 3.5199 -1.8583 0.9821
-3.1015 2.4492 -1.7832 0.9828
-3.2928 2.1541 -1.7755 0.9829
-2.3567 0.3169 -1.0730 0.9896
-2.4395 -0.1088 -1.1018 0.9893
-2.4782 -0.7991 -1.1749 0.9886
-2.4891 -1.0555 -1.2199 0.9882
-3.9370 -2.1009 -2.0136 0.9806
-3.8296 -2.5052 -2.0649 0.9801
-3.6948 -2.9177 -2.1243 0.9796
-3.5263 -3.3352 -2.1901 0.9789
-3.3218 -3.7561 -2.2625 0.9782
-2.7943 -4.6001 -2.4286 0.9767
-2.4658 -5.0178 -2.5227 0.9758
-2.0905 -5.4278 -2.6245 0.9748
-0.8155 -2.8519 -1.3384 0.9871
-0.4923 -2.5683 -1.1800 0.9886
-0.2491 -2.4765 -1.1231 0.9891
-0.0272 -2.4463 -1.1039 0.9893
0.4363 -2.5866 -1.1836 0.9886
0.7844 -2.9941 -1.3966 0.9865
2.7576 -7.6649 -3.6756 0.9649
3.5630 -7.6780 -3.8193 0.9635
4.3860 -7.5967 -3.9580 0.9622
6.0180 -7.1180 -4.2058 0.9599
7.4962 -6.1957 -4.3882 0.9582
8.6379 -4.8596 -4.4721 0.9574
9.0396 -4.0730 -4.4737 0.9574
9.3134 -3.2339 -4.4485 0.9577
9.4637 -1.4881 -4.3227 0.9588
9.3476 -0.6257 -4.2272 0.9597
9.1168 0.2032 -4.1147 0.9608
8.3690 1.7011 -3.8535 0.9632
6.1765 3.8468 -3.2833 0.9686
5.5669 4.1982 -3.1461 0.9699
4.9547 4.4813 -3.0144 0.9711
3.7521 4.8618 -2.7710 0.9734
3.1725 4.9696 -2.6603 0.9745
2.6122 5.0294 -2.5572 0.9754
2.0737 5.0460 -2.4616 0.9763
1.5584 5.0239 -2.3734 0.9772
1.0674 4.9674 -2.2925 0.9780
-0.2579 4.6261 -2.0906 0.9799
-1.0209 4.2838 -1.9871 0.9809
-1.3676 4.0850 -1.9438 0.9813
-1.9948 3.6400 -1.8729 0.9819
-2.5371 3.1403 -1.8216 0.9824
-2.7777 2.8722 -1.8029 0.9826
-3.3812 2.0027 -1.7732 0.9829
-2.3773 -0.2125 -1.1251 0.9895
-2.3816 -0.4291 -1.1407 0.9894
-2.3934 -0.6557 -1.1698 0.9891
-3.8540 -1.8409 -2.0133 0.9813
-3.7501 -2.2212 -2.0545 0.9809
-3.6319 -2.6140 -2.1093 0.9804
-3.2989 -3.4111 -2.2369 0.9792
-3.0800 -3.8121 -2.3102 0.9786
-2.8229 -4.2120 -2.3901 0.9778
-2.5253 -4.6080 -2.4769 0.9770
-2.1848 -4.9967 -2.5707 0.9762
-0.6566 -2.7552 -1.3351 0.9876
-0.1400 -2.5103 -1.1851 0.9889
0.0841 -2.5153 -1.1863 0.9889
0.3189 -2.5896 -1.2299 0.9885
0.6075 -2.8269 -1.3629 0.9873
2.2240 -7.1696 -3.5384 0.9673
3.7176 -7.1576 -3.8019 0.9650
4.4804 -7.0185 -3.9250 0.9638
5.2338 -6.7816 -4.0380 0.9628
5.9600 -6.4439 -4.1375 0.9619
7.2545 -5.4709 -4.2830 0.9606
7.7813 -4.8463 -4.3212 0.9603
8.7213 -2.5992 -4.2897 0.9606
8.7613 -0.9801 -4.1556 0.9618
8.6132 -0.1919 -4.0611 0.9626
8.0323 1.2630 -3.8328 0.9647
7.6265 1.9075 -3.7057 0.9658
4.4206 4.3716 -2.9306 0.9729
3.8562 4.5611 -2.8154 0.9739
1.7391 4.8339 -2.4216 0.9775
0.3632 4.6473 -2.1973 0.9796
-0.0504 4.5296 -2.1353 0.9802
-0.8103 4.2271 -2.0288 0.9811
-1.7867 3.6359 -1.9096 0.9822
-2.3340 3.1678 -1.8547 0.9828
-2.5778 2.9148 -1.8342 0.9829
-3.3599 1.7929 -1.7952 0.9833
-3.5077 1.4874 -1.7960 0.9833
-2.5265 0.5724 -1.2211 0.9886
-2.2973 0.3089 -1.0926 0.9898
-2.3488 0.1047 -1.1083 0.9897
-2.3694 -0.1057 -1.1180 0.9896
-2.3894 -0.5414 -1.1548 0.9892
-2.3945 -0.7721 -1.1859 0.9889
-3.1941 -3.6116 -2.2727 0.9789
-2.9563 -4.0124 -2.3493 0.9782
-2.6793 -4.4107 -2.4326 0.9774
-1.9978 -5.1871 -2.6202 0.9757
-1.5890 -5.5570 -2.7244 0.9748
-0.5028 -2.6228 -1.2588 0.9883
-0.2543 -2.5275 -1.1974 0.9888
-0.0278 -2.4967 -1.1770 0.9890
0.4494 -2.6644 -1.2737 0.9881
1.8662 -7.1233 -3.4711 0.9680
2.5894 -7.1973 -3.6055 0.9667
3.3376 -7.1924 -3.7376 0.9655
8.7754 -2.1948 -4.2639 0.9608
8.2091 0.9183 -3.8937 0.9641
7.8375 1.5930 -3.7700 0.9653
6.9136 2.7516 -3.5075 0.9676
6.3889 3.2285 -3.3743 0.9688
5.8391 3.6366 -3.2426 0.9700
4.7051 4.2555 -2.9904 0.9723
4.1374 4.4733 -2.8722 0.9734
3.5777 4.6357 -2.7602 0.9744
1.4960 4.8225 -2.3801 0.9779
1.0260 4.7748 -2.3021 0.9786
-0.2488 4.4619 -2.1065 0.9804
-1.6372 3.7443 -1.9263 0.9821
-2.2047 3.2897 -1.8667 0.9826
-2.6923 2.7839 -1.8255 0.9830
-2.9070 2.5138 -1.8116 0.9831
-3.1025 2.2330 -1.8019 0.9832
-3.2789 1.9421 -1.7964 0.9833
-3.6931 1.0117 -1.8050 0.9832
-2.3515 0.4236 -1.1263 0.9895
-2.2975 -0.0000 -1.1300 0.9898
-2.3175 -0.6348 -1.1819 0.9893
-2.3278 -0.8669 -1.2217 0.9890
-2.3666 -1.1304 -1.2900 0.9884
-3.6222 -2.1454 -2.0707 0.9814
-3.5048 -2.5226 -2.1239 0.9809
-3.1768 -3.2848 -2.2476 0.9798
-2.9623 -3.6665 -2.3185 0.9792
-2.4221 -4.4198 -2.4790 0.9778
-0.6947 -2.9152 -1.4740 0.9867
-0.1429 -2.5634 -1.2628 0.9886
1.4332 -6.6696 -3.3554 0.9700
2.0965 -6.7585 -3.4805 0.9689
3.4896 -6.7186 -3.7237 0.9668
4.1972 -6.5749 -3.8367 0.9658
5.5643 -6.0160 -4.0306 0.9641
6.7570 -5.0957 -4.1626 0.9630
7.9360 -3.1584 -4.2011 0.9626
8.1249 -2.4215 -4.1699 0.9629
8.2053 -1.6678 -4.1183 0.9634
8.1796 -0.9150 -4.0483 0.9640
8.0535 -0.1794 -3.9621 0.9647
7.5379 1.1853 -3.7531 0.9666
5.2715 3.6187 -3.1449 0.9719
4.7425 3.9197 -3.0262 0.9729
3.6789 4.3515 -2.8027 0.9749
