ply
format ascii 1.0
element vertex 1584
property float32 x
property float32 y
property float32 z
property float32 I
end_header
1.2469 -2.1596 -0.1037 0.9901
1.3851 -1.9703 -0.1001 0.9904
1.7071 -1.6882 -0.0998 0.9904
2.1397 -1.4688 -0.1079 0.9897
-4.9964 11.4272 -0.5186 0.9513
-6.6856 9.9757 -0.4993 0.9531
-7.8083 8.0738 -0.4670 0.9560
-8.3070 7.1833 -0.4566 0.9570
-9.2202 5.4611 -0.4456 0.9580
-10.0617 3.7470 -0.4464 0.9579
-10.4683 2.8675 -0.4513 0.9575
-11.2762 1.0076 -0.4707 0.9557
-10.8560 -0.0001 -0.6323 0.9574
-11.2167 -1.0023 -0.6559 0.9559
-11.9621 -3.2768 -0.7224 0.9515
-12.7764 -6.1028 -0.8247 0.9448
1.0440 -2.5405 -0.1600 0.9891
1.1701 -2.2528 -0.1479 0.9899
1.4546 -1.8847 -0.1387 0.9905
1.7906 -1.6195 -0.1406 0.9904
1.7308 6.6066 -0.3978 0.9730
-1.4748 14.6599 -0.8581 0.9427
-2.5484 13.2947 -0.7884 0.9472
-4.2433 11.0176 -0.6876 0.9538
-5.8967 9.7073 -0.6615 0.9555
-6.4849 8.8013 -0.6367 0.9571
-7.5155 7.1081 -0.6025 0.9594
-8.4078 5.5001 -0.5852 0.9605
-9.5880 3.0917 -0.5868 0.9604
-9.9563 2.2558 -0.5946 0.9599
-10.3180 1.3876 -0.6064 0.9591
-11.3992 -1.5330 -0.6699 0.9550
-12.1571 -3.9202 -0.7440 0.9501
0.9906 -2.7534 -0.1704 0.9883
1.2400 -2.1478 -0.1444 0.9901
1.3784 -1.9608 -0.1396 0.9904
1.5298 -1.8094 -0.1380 0.9906
-2.0350 13.9531 -0.8213 0.9451
-4.5956 10.5104 -0.6681 0.9551
-5.2387 9.5595 -0.6349 0.9573
-8.6153 5.1028 -0.5832 0.9607
-9.0157 4.3064 -0.5819 0.9608
-11.0614 -3.0300 -0.8595 0.9550
-11.3727 -4.2352 -0.9094 0.9525
-11.9074 -7.0528 -1.0371 0.9460
-12.0998 -8.7089 -1.1172 0.9420
1.0368 -2.5228 -0.2044 0.9891
1.1636 -2.2402 -0.1892 0.9899
1.3000 -2.0363 -0.1810 0.9904
1.4476 -1.8758 -0.1776 0.9905
1.6023 -1.7324 -0.1768 0.9906
1.7824 -1.6121 -0.1801 0.9904
1.9963 -1.5055 -0.1874 0.9900
2.7065 -1.3676 -0.2272 0.9879
1.7482 6.6727 -0.5169 0.9727
-0.1627 14.5987 -1.0941 0.9431
-2.3286 12.1481 -0.9269 0.9516
-3.1800 11.1211 -0.8668 0.9547
-3.9191 10.1757 -0.8172 0.9572
-5.4875 9.0337 -0.7921 0.9585
-6.0506 8.2119 -0.7644 0.9599
-6.5645 7.4225 -0.7426 0.9610
-7.0376 6.6561 -0.7259 0.9619
-7.4767 5.9043 -0.7139 0.9625
-7.8876 5.1598 -0.7063 0.9629
-8.2747 4.4156 -0.7029 0.9631
-8.6422 3.6646 -0.7035 0.9630
-8.9932 2.9000 -0.7081 0.9628
-9.3309 2.1141 -0.7170 0.9624
-10.5989 -1.4254 -0.8014 0.9580
-10.9070 -2.4712 -0.8381 0.9561
-11.2165 -3.6168 -0.8832 0.9538
-11.5303 -4.8892 -0.9385 0.9510
1.0998 -2.3700 -0.1958 0.9896
1.2333 -2.1361 -0.1848 0.9902
2.1189 -1.4545 -0.1926 0.9897
3.2770 -1.4766 -0.2694 0.9857
-2.7696 11.6217 -0.8953 0.9532
-3.5628 10.6414 -0.8410 0.9560
-5.0337 9.1854 -0.7849 0.9589
-6.8056 7.0369 -0.7336 0.9615
-8.4607 4.0413 -0.7027 0.9631
-8.8196 3.2844 -0.7053 0.9630
-9.8182 0.8774 -0.7387 0.9612
-4.4480 -0.0000 -0.4078 0.9823
-9.7702 -0.8731 -0.8993 0.9614
-10.2851 -2.8174 -0.9776 0.9581
-10.5315 -3.9220 -1.0303 0.9559
-10.7714 -5.1450 -1.0944 0.9532
-10.9414 -6.4806 -1.1658 0.9502
0.9283 -2.9926 -0.2873 0.9875
1.0295 -2.5052 -0.2483 0.9892
1.1571 -2.2278 -0.2301 0.9900
1.4407 -1.8668 -0.2162 0.9906
1.9869 -1.4984 -0.2281 0.9901
2.6881 -1.3583 -0.2761 0.9880
1.1316 14.4821 -1.3317 0.9433
-1.2232 12.1587 -1.1203 0.9521
-2.9421 10.2892 -0.9811 0.9579
-3.6402 9.4517 -0.9285 0.9601
-5.6699 7.6953 -0.8763 0.9623
-6.1626 6.9681 -0.8528 0.9633
-6.6158 6.2571 -0.8348 0.9641
-7.7937 4.1588 -0.8099 0.9651
-8.1393 3.4514 -0.8105 0.9651
-8.4667 2.7302 -0.8156 0.9649
-4.2496 0.5715 -0.3931 0.9829
-9.6363 -0.4297 -0.8843 0.9620
-10.1593 -2.3018 -0.9550 0.9590
-10.8890 -5.8105 -1.1315 0.9516
1.2266 -2.1245 -0.2249 0.9902
1.3652 -1.9420 -0.2176 0.9905
2.1086 -1.4475 -0.2345 0.9898
3.1527 -1.4205 -0.3170 0.9862
-0.7074 12.6870 -1.1649 0.9502
-1.7003 11.6580 -1.0801 0.9538
-3.9584 9.0531 -0.9058 0.9611
-5.4067 8.0673 -0.8903 0.9617
-6.3937 6.6110 -0.8432 0.9637
-6.8295 5.9057 -0.8277 0.9644
-7.2345 5.2071 -0.8172 0.9648
-4.1097 0.3672 -0.3783 0.9836
-3.7849 -0.0000 -0.4105 0.9849
-9.3991 -1.6933 -1.0359 0.9623
-9.6086 -2.6321 -1.0806 0.9607
-9.9846 -4.7692 -1.2002 0.9565
-10.1180 -5.9929 -1.2755 0.9538
0.9185 -2.9609 -0.3363 0.9876
1.2862 -2.0148 -0.2593 0.9904
1.4339 -1.8579 -0.2546 0.9906
1.7660 -1.5973 -0.2583 0.9905
1.9775 -1.4913 -0.2686 0.9901
2.2464 -1.3991 -0.2871 0.9894
2.6699 -1.3492 -0.3245 0.9880
1.0271 13.1435 -1.4300 0.9483
-0.1350 12.1211 -1.3148 0.9524
-1.1267 11.1992 -1.2209 0.9557
-3.9876 8.1145 -0.9807 0.9643
-4.8164 7.9289 -1.0063 0.9634
-5.8060 6.5650 -0.9506 0.9654
-6.6425 5.2455 -0.9180 0.9665
-7.0158 4.5895 -0.9093 0.9668
-7.6905 3.2611 -0.9061 0.9669
-7.9971 2.5787 -0.9114 0.9668
-3.7517 0.5046 -0.4106 0.9849
-3.7330 0.1665 -0.4053 0.9851
-9.2893 -1.2493 -1.0166 0.9630
-9.7082 -3.1305 -1.1064 0.9598
-10.0686 -5.3727 -1.2379 0.9551
-10.0675 -6.5859 -1.3049 0.9527
0.9646 -2.6812 -0.3091 0.9886
1.2200 -2.1130 -0.2646 0.9902
1.5082 -1.7838 -0.2534 0.9906
1.6762 -1.6576 -0.2557 0.9906
2.4224 -1.3628 -0.3015 0.9889
1.4323 6.6655 -0.7395 0.9729
0.4219 12.6180 -1.3694 0.9505
-1.5706 10.7685 -1.1804 0.9572
-2.3727 9.9564 -1.1102 0.9597
-3.0769 9.1901 -1.0512 0.9618
-3.7007 8.4638 -1.0020 0.9635
-6.8325 4.9177 -0.9131 0.9667
-7.1929 4.2604 -0.9068 0.9669
-7.5299 3.5967 -0.9051 0.9670
-7.8461 2.9219 -0.9081 0.9669
-8.1436 2.2308 -0.9158 0.9666
-3.7414 0.3343 -0.4074 0.9850
-3.5692 0.0000 -0.4473 0.9857
-3.7700 -0.3369 -0.4743 0.9849
-9.1686 -3.4144 -1.2261 0.9613
-9.3026 -4.4435 -1.2919 0.9593
-9.3277 -6.7137 -1.4402 0.9547
-9.3658 -8.0989 -1.5516 0.9513
0.9145 -2.9481 -0.3868 0.9876
1.0203 -2.4827 -0.3364 0.9892
1.1468 -2.2079 -0.3118 0.9900
1.2799 -2.0050 -0.2981 0.9905
1.5808 -1.7091 -0.2917 0.9907
1.7579 -1.5900 -0.2970 0.9905
2.6519 -1.3400 -0.3723 0.9881
3.6768 14.0342 -1.8181 0.9432
2.1885 12.9742 -1.6488 0.9483
-0.1244 11.1685 -1.3997 0.9560
-1.0440 10.3774 -1.3070 0.9588
-1.8478 9.6398 -1.2300 0.9612
-2.5563 8.9401 -1.1652 0.9632
-3.1848 8.2692 -1.1105 0.9649
-5.0336 6.8316 -1.0634 0.9664
-5.4874 6.2047 -1.0380 0.9672
-5.9046 5.5845 -1.0185 0.9678
-6.6466 4.3480 -0.9953 0.9685
-6.9783 3.7237 -0.9912 0.9686
-7.2872 3.0900 -0.9919 0.9686
-4.3832 0.9931 -0.5632 0.9820
-3.6310 -0.1619 -0.4555 0.9855
-8.7461 -1.1762 -1.1059 0.9650
-8.9290 -2.0231 -1.1473 0.9638
-9.0936 -2.9323 -1.1974 0.9622
-9.2384 -3.9174 -1.2575 0.9604
-9.3515 -7.3848 -1.4932 0.9531
-9.3693 -8.8614 -1.6161 0.9493
-9.3398 -10.5606 -1.7667 0.9448
1.0819 -2.3315 -0.3221 0.9897
1.3522 -1.9235 -0.2946 0.9906
1.6686 -1.6501 -0.2941 0.9906
1.8541 -1.5324 -0.3014 0.9904
2.0882 -1.4334 -0.3174 0.9898
2.4090 -1.3553 -0.3464 0.9889
3.0850 -1.3901 -0.4240 0.9865
1.5381 12.4886 -1.5769 0.9505
0.3875 11.5886 -1.4530 0.9543
-2.2133 9.2875 -1.1965 0.9622
-3.4738 7.9448 -1.0866 0.9656
-4.2715 7.7945 -1.1138 0.9648
-4.7912 7.1490 -1.0785 0.9659
-5.7003 5.8940 -1.0275 0.9675
-6.4715 4.6579 -0.9992 0.9684
-6.8154 4.0368 -0.9927 0.9686
-7.4337 2.7683 -0.9941 0.9685
-7.7121 2.1126 -1.0021 0.9683
-3.8076 0.6860 -0.4848 0.9845
-3.5366 0.3160 -0.4450 0.9858
-3.3944 -0.0000 -0.4828 0.9864
-8.3413 -1.5027 -1.2055 0.9663
-8.6083 -3.2058 -1.3066 0.9636
-8.7055 -4.1583 -1.3722 0.9618
-8.6613 -6.2340 -1.5179 0.9578
-8.6488 -7.4789 -1.6263 0.9549
-8.5866 -8.8784 -1.7568 0.9513
-8.2624 -12.3286 -2.1110 0.9418
0.9106 -2.9354 -0.4372 0.9877
1.0179 -2.4770 -0.3809 0.9892
1.4235 -1.8445 -0.3314 0.9906
1.7499 -1.5827 -0.3356 0.9905
0.8660 11.0830 -1.5812 0.9561
-0.1153 10.3516 -1.4725 0.9590
-0.9723 9.6651 -1.3817 0.9615
-6.6294 3.5376 -1.0688 0.9701
-6.9226 2.9355 -1.0695 0.9701
-4.1432 0.9387 -0.6042 0.9830
-3.3671 0.4528 -0.4832 0.9864
-3.3609 0.1499 -0.4785 0.9865
-8.4164 -1.9069 -1.2275 0.9657
-8.5501 -2.7570 -1.2778 0.9644
-8.7436 -4.6657 -1.4096 0.9607
-8.6827 -5.6799 -1.4758 0.9589
-8.6606 -6.8392 -1.5696 0.9564
-8.6246 -8.1571 -1.6885 0.9532
-8.5334 -9.6488 -1.8321 0.9493
1.2127 -2.1005 -0.3450 0.9902
1.3498 -1.9200 -0.3338 0.9906
1.4963 -1.7698 -0.3296 0.9907
1.6615 -1.6431 -0.3324 0.9906
1.8456 -1.5254 -0.3406 0.9904
1.4125 11.4690 -1.6436 0.9544
0.3581 10.7111 -1.5244 0.9576
-0.5578 10.0033 -1.4250 0.9603
-1.3616 9.3359 -1.3419 0.9626
-2.0730 8.6985 -1.2719 0.9645
-3.2722 7.4837 -1.1617 0.9675
-4.0330 7.3594 -1.1936 0.9667
-4.5317 6.7618 -1.1578 0.9676
-5.7902 5.0070 -1.0888 0.9695
-6.1455 4.4233 -1.0770 0.9699
-6.7788 3.2379 -1.0685 0.9701
-7.0611 2.6296 -1.0717 0.9700
-7.3226 2.0059 -1.0799 0.9698
-3.6717 0.6615 -0.5306 0.9850
-3.3915 -0.3031 -0.5422 0.9863
-8.0147 -2.1955 -1.3232 0.9669
-8.1103 -3.0203 -1.3781 0.9656
-8.2140 -4.8652 -1.5202 0.9621
-8.0865 -5.8203 -1.5865 0.9604
-7.7594 -9.6039 -1.9660 0.9512
-7.5130 -11.2101 -2.1489 0.9468
0.9067 -2.9228 -0.4873 0.9877
1.0156 -2.4713 -0.4255 0.9892
1.4214 -1.8417 -0.3705 0.9906
1.7472 -1.5803 -0.3751 0.9905
2.2141 -1.3789 -0.4153 0.9895
2.6163 -1.3221 -0.4668 0.9882
6.1350 13.2206 -2.3208 0.9427
4.4610 12.3996 -2.0984 0.9480
1.8447 10.9362 -1.7660 0.9561
-0.1074 9.6431 -1.5356 0.9617
-2.2572 7.8940 -1.3074 0.9673
-3.5622 7.2489 -1.2861 0.9678
-4.0638 6.6899 -1.2464 0.9688
-4.5218 6.1370 -1.2139 0.9696
-5.6823 4.4873 -1.1529 0.9711
-6.5913 2.7950 -1.1400 0.9714
-3.9744 0.9005 -0.6489 0.9836
-3.2600 0.1453 -0.5196 0.9869
-8.1479 -3.4550 -1.4093 0.9648
-8.0621 -6.3666 -1.6358 0.9592
-7.9868 -7.5538 -1.7505 0.9565
1.0772 -2.3213 -0.4075 0.9897
1.2105 -2.0967 -0.3855 0.9902
1.8421 -1.5225 -0.3805 0.9904
2.0714 -1.4219 -0.4001 0.9899
1.4289 6.6494 -1.0830 0.9728
1.3055 10.5996 -1.7006 0.9577
0.3328 9.9539 -1.5859 0.9605
-0.5208 9.3392 -1.4895 0.9628
-1.2762 8.7500 -1.4081 0.9648
-1.9484 8.1759 -1.3383 0.9665
-3.0920 7.0716 -1.2290 0.9692
-4.2979 6.4129 -1.2293 0.9692
-5.5084 4.7633 -1.1596 0.9709
-5.8494 4.2102 -1.1476 0.9712
-6.1642 3.6510 -1.1408 0.9714
-3.5500 0.6396 -0.5744 0.9855
-3.1939 -0.0000 -0.5632 0.9871
-7.4903 -1.3494 -1.3420 0.9696
-7.5908 -2.0793 -1.3878 0.9685
-7.7188 -4.5719 -1.5819 0.9642
-7.1610 -8.8633 -2.0092 0.9548
-6.5003 -11.8616 -2.3850 0.9465
0.9027 -2.9101 -0.5373 0.9877
1.1405 -2.1958 -0.4363 0.9900
1.5713 -1.6988 -0.4080 0.9906
2.2128 -1.3782 -0.4597 0.9895
7.2986 12.6415 -2.5739 0.9424
5.5511 11.9622 -2.3253 0.9478
1.7095 10.1346 -1.8122 0.9591
-1.5274 7.9681 -1.4306 0.9676
-5.4187 4.2791 -1.2175 0.9723
-6.2888 2.6667 -1.2044 0.9726
-6.5324 2.1064 -1.2102 0.9725
-3.1779 0.4274 -0.5654 0.9871
-3.1644 0.1411 -0.5585 0.9872
-3.2276 -0.1439 -0.5697 0.9870
-3.3507 -0.4506 -0.5961 0.9864
-7.6312 -2.4607 -1.4138 0.9680
-7.7182 -4.1186 -1.5426 0.9651
-7.5384 -5.9530 -1.6937 0.9617
-7.0322 -9.5442 -2.0904 0.9530
-6.7066 -11.0405 -2.2778 0.9489
-6.2602 -12.7390 -2.5028 0.9440
0.9534 -2.6500 -0.4966 0.9886
1.0748 -2.3162 -0.4502 0.9897
1.2084 -2.0929 -0.4261 0.9902
1.4919 -1.7646 -0.4074 0.9907
3.0175 -1.3596 -0.5836 0.9866
4.7819 11.6361 -2.2183 0.9502
1.4282 6.6464 -1.1987 0.9728
1.2131 9.8494 -1.7498 0.9605
-0.4882 8.7552 -1.5462 0.9650
-1.2002 8.2294 -1.4664 0.9668
-3.6252 6.6152 -1.3301 0.9698
-4.0859 6.0966 -1.2941 0.9706
-4.8952 5.0616 -1.2416 0.9718
-6.4133 2.3884 -1.2067 0.9726
-4.2904 1.1753 -0.7844 0.9821
-3.1775 -0.2839 -0.6173 0.9871
-3.3117 -0.5967 -0.6512 0.9864
-7.2630 -2.7048 -1.4998 0.9689
-7.2878 -3.4810 -1.5629 0.9676
-6.3465 -9.4696 -2.2060 0.9546
1.1384 -2.1918 -0.4780 0.9900
1.2710 -1.9910 -0.4571 0.9904
1.5693 -1.6967 -0.4473 0.9906
1.9500 -1.4706 -0.4726 0.9901
2.2116 -1.3774 -0.5042 0.9894
6.6045 11.4393 -2.5562 0.9476
5.0697 10.9250 -2.3307 0.9521
2.5975 9.9145 -1.9834 0.9591
0.6996 8.9530 -1.7378 0.9641
-0.8047 7.9987 -1.5557 0.9678
-2.5483 6.6167 -1.3721 0.9715
-3.2124 6.5371 -1.4095 0.9708
-4.1004 5.5652 -1.3377 0.9722
-5.1771 4.0883 -1.2766 0.9735
-5.4795 3.5845 -1.2671 0.9737
-5.7571 3.0721 -1.2628 0.9738
-6.0112 2.5490 -1.2635 0.9737
-3.6833 0.8345 -0.7309 0.9847
-3.1048 0.4175 -0.6062 0.9873
-3.2339 -0.4349 -0.6315 0.9868
-7.1689 -1.6242 -1.4225 0.9705
-7.2388 -2.3342 -1.4719 0.9695
-7.2873 -3.8886 -1.5984 0.9669
-7.2056 -4.7136 -1.6663 0.9655
-7.0760 -5.5879 -1.7448 0.9639
-6.9503 -6.5735 -1.8513 0.9618
-6.7649 -7.6491 -1.9761 0.9593
-6.5070 -8.8314 -2.1228 0.9563
-6.1614 -10.1430 -2.2966 0.9528
0.9506 -2.6422 -0.5434 0.9886
2.3811 -1.3396 -0.5287 0.9889
3.0268 -1.3638 -0.6424 0.9866
4.3848 10.6698 -2.2323 0.9541
1.1325 9.1950 -1.7928 0.9630
-0.4593 8.2372 -1.5965 0.9669
-2.9646 6.7803 -1.4320 0.9703
-3.4493 6.2942 -1.3890 0.9712
-3.8928 5.8085 -1.3531 0.9719
-4.2994 5.3214 -1.3239 0.9725
-4.6728 4.8316 -1.3007 0.9730
-5.0160 4.3375 -1.2833 0.9733
-5.3315 3.8374 -1.2712 0.9736
-5.8870 2.8120 -1.2625 0.9738
-4.1640 1.1407 -0.8355 0.9826
-3.3306 0.6000 -0.6549 0.9863
-3.0994 -0.2770 -0.6560 0.9874
-6.8815 -4.0759 -1.6861 0.9678
-6.4309 -6.6495 -1.9502 0.9629
-5.8867 -8.7835 -2.2291 0.9577
-5.4837 -10.0064 -2.4056 0.9544
0.8963 -2.8895 -0.6378 0.9877
1.5674 -1.6946 -0.4866 0.9906
1.7407 -1.5743 -0.4948 0.9905
2.6179 -1.3229 -0.6184 0.9881
8.0943 11.5143 -2.9672 0.9441
6.0276 10.4401 -2.5415 0.9519
4.6628 10.0481 -2.3353 0.9557
3.4692 9.6428 -2.1604 0.9590
1.4862 8.8107 -1.8837 0.9641
-0.0889 7.9832 -1.6831 0.9679
-0.7601 7.5555 -1.6009 0.9694
-1.3662 7.1275 -1.5300 0.9708
-3.0608 6.2285 -1.4631 0.9720
-3.9163 5.3152 -1.3919 0.9734
-4.6374 4.3861 -1.3457 0.9742
-4.9547 3.9127 -1.3310 0.9745
-5.5124 2.9415 -1.3172 0.9748
-5.7556 2.4405 -1.3180 0.9748
-5.9761 1.9270 -1.3238 0.9747
-2.9940 0.1335 -0.6318 0.9878
-3.0505 -0.1360 -0.6438 0.9876
-6.8827 -2.2194 -1.5246 0.9709
-6.9079 -2.9292 -1.5818 0.9698
-6.8184 -4.4604 -1.7177 0.9672
-6.6646 -5.2630 -1.7903 0.9659
-6.3228 -7.1493 -2.0121 0.9617
-6.0525 -8.2145 -2.1511 0.9591
-5.2415 -10.6661 -2.5055 0.9526
-3.9149 -13.6911 -3.0020 0.9435
1.0701 -2.3059 -0.5359 0.9897
1.2040 -2.0854 -0.5077 0.9902
1.4875 -1.7594 -0.4857 0.9906
1.6533 -1.6350 -0.4902 0.9905
1.8368 -1.5181 -0.5024 0.9903
2.0651 -1.4176 -0.5281 0.9898
3.0362 -1.3680 -0.7021 0.9865
4.0466 9.8467 -2.2443 0.9574
-1.6475 6.9134 -1.4983 0.9714
-2.1715 6.4858 -1.4419 0.9724
-2.8225 6.4553 -1.4853 0.9716
-3.2887 6.0012 -1.4427 0.9724
-4.1082 5.0848 -1.3781 0.9736
-4.4684 4.6203 -1.3551 0.9741
-5.1034 3.6732 -1.3256 0.9746
-5.6368 2.6925 -1.3170 0.9748
-5.8686 2.1855 -1.3202 0.9747
-4.0001 1.0957 -0.8744 0.9832
-2.9810 0.2664 -0.6310 0.9878
-2.9710 -0.0000 -0.6781 0.9879
-3.0430 -0.2719 -0.6973 0.9875
-3.1642 -0.5701 -0.7338 0.9869
-6.5679 -2.4459 -1.5997 0.9717
-6.3696 -4.5845 -1.7912 0.9683
-5.8027 -7.1821 -2.1074 0.9628
-5.4867 -8.1867 -2.2494 0.9604
-5.0834 -9.2760 -2.4143 0.9575
-4.5748 -10.4629 -2.6064 0.9542
0.8991 -2.8983 -0.6926 0.9876
1.1342 -2.1837 -0.5616 0.9900
1.4129 -1.8308 -0.5278 0.9906
1.7385 -1.5723 -0.5350 0.9904
1.9462 -1.4677 -0.5564 0.9900
2.2090 -1.3758 -0.5940 0.9894
7.3824 10.5016 -2.9299 0.9487
5.5889 9.6803 -2.5513 0.9552
3.2278 8.9719 -2.1763 0.9616
1.3976 8.2856 -1.9178 0.9661
0.6187 7.9183 -1.8128 0.9679
-0.0840 7.5408 -1.7212 0.9695
-0.7199 7.1562 -1.6416 0.9709
-2.9219 5.9458 -1.5121 0.9732
-3.3519 5.5180 -1.4736 0.9739
-3.7468 5.0852 -1.4417 0.9744
-4.1097 4.6469 -1.4159 0.9749
-5.0298 3.2904 -1.3718 0.9756
-5.5192 2.3403 -1.3683 0.9757
-5.7296 1.8476 -1.3741 0.9756
-2.9994 -0.1338 -0.6853 0.9878
-3.0959 -0.4164 -0.7130 0.9873
-6.5578 -2.1146 -1.5727 0.9721
-6.5487 -3.4945 -1.6942 0.9700
-6.4684 -4.2314 -1.7642 0.9688
-6.2960 -4.9719 -1.8311 0.9676
-6.1428 -5.8099 -1.9298 0.9659
-5.9324 -6.7079 -2.0439 0.9639
-5.6547 -7.6746 -2.1758 0.9616
-4.8436 -9.8565 -2.5066 0.9559
-2.6775 -13.9682 -3.2462 0.9433
1.6513 -1.6330 -0.5301 0.9905
2.0630 -1.4162 -0.5711 0.9898
2.3783 -1.3380 -0.6228 0.9889
8.1993 10.6241 -3.0631 0.9464
3.7549 9.1370 -2.2547 0.9603
2.7305 8.8021 -2.1035 0.9629
0.9980 8.1034 -1.8635 0.9671
-0.4098 7.3492 -1.6800 0.9703
-1.5658 6.5704 -1.5417 0.9727
-2.6925 6.1580 -1.5340 0.9728
-3.1415 5.7325 -1.4920 0.9735
-4.2800 4.4254 -1.4052 0.9751
-4.8927 3.5215 -1.3759 0.9756
-5.1609 3.0568 -1.3691 0.9757
-5.4055 2.5820 -1.3673 0.9757
-3.1659 0.5703 -0.7342 0.9869
-2.9277 0.2616 -0.6709 0.9880
-2.9882 -0.2670 -0.7374 0.9877
-3.1004 -0.5586 -0.7743 0.9871
-6.2475 -1.7114 -1.5922 0.9737
-6.2648 -2.3331 -1.6432 0.9728
-6.2500 -2.9854 -1.7025 0.9719
-6.1995 -3.6720 -1.7711 0.9708
-6.0427 -4.3492 -1.8300 0.9698
-5.8892 -5.0926 -1.9137 0.9684
-5.1351 -7.6621 -2.2672 0.9627
-4.7352 -8.6405 -2.4218 0.9602
-2.8748 -12.0631 -3.0482 0.9502
0.9061 -2.9209 -0.7517 0.9875
1.0059 -2.4477 -0.6505 0.9892
1.1321 -2.1796 -0.6037 0.9899
1.2642 -1.9804 -0.5775 0.9904
2.6196 -1.3238 -0.7214 0.9880
9.9490 9.8388 -3.4393 0.9440
3.0164 8.3841 -2.1901 0.9640
1.3159 7.8011 -1.9446 0.9679
-1.2341 6.4384 -1.6114 0.9734
-2.7941 5.6858 -1.5572 0.9742
-3.2089 5.2825 -1.5192 0.9749
-4.2631 4.0321 -1.4423 0.9761
-4.8294 3.1593 -1.4185 0.9765
-5.2998 2.2473 -1.4150 0.9766
-3.3132 0.7507 -0.8350 0.9861
-2.8978 0.1292 -0.7130 0.9881
-6.2600 -2.0186 -1.6167 0.9733
-6.2295 -3.3241 -1.7356 0.9713
-5.9644 -4.7100 -1.8681 0.9692
-5.5850 -6.3150 -2.0722 0.9659
-4.5000 -9.1572 -2.5079 0.9588
-3.2707 -11.4383 -2.9242 0.9522
-1.4176 -14.0916 -3.4812 0.9433
0.9488 -2.6371 -0.6889 0.9885
1.1996 -2.0778 -0.5897 0.9902
1.3376 -1.9028 -0.5717 0.9905
1.4830 -1.7541 -0.5646 0.9906
2.0609 -1.4147 -0.6144 0.9898
3.0554 -1.3767 -0.8237 0.9863
9.0845 9.8221 -3.2886 0.9464
3.5006 8.5183 -2.2637 0.9628
1.4366 6.6855 -1.6808 0.9722
0.9412 7.6419 -1.8926 0.9688
-1.4915 6.2584 -1.5814 0.9738
-4.6972 3.3808 -1.4225 0.9764
-5.1908 2.4794 -1.4140 0.9766
-3.0843 0.5557 -0.7703 0.9872
-2.8807 0.2574 -0.7109 0.9882
-2.8744 -0.0000 -0.7574 0.9882
-2.9343 -0.2622 -0.7763 0.9879
-5.9626 -2.8481 -1.7412 0.9730
-5.7462 -4.1359 -1.8656 0.9711
-5.3913 -5.5745 -2.0435 0.9684
-4.8235 -7.1971 -2.2830 0.9648
-4.4295 -8.0827 -2.4286 0.9626
-3.9457 -9.0240 -2.5952 0.9601
-3.3565 -10.0253 -2.7858 0.9572
-2.6443 -11.0961 -3.0057 0.9539
-0.7487 -13.4272 -3.5436 0.9459
1.0086 -2.4542 -0.6992 0.9891
1.2619 -1.9768 -0.6180 0.9903
1.5615 -1.6883 -0.6060 0.9905
1.9423 -1.4648 -0.6410 0.9900
2.2065 -1.3742 -0.6849 0.9893
2.6204 -1.3242 -0.7736 0.9879
10.7006 8.8443 -3.6581 0.9442
9.0661 8.9657 -3.3598 0.9486
5.0710 8.7832 -2.6724 0.9589
3.7783 8.1420 -2.3652 0.9636
1.9988 7.6296 -2.0782 0.9679
1.2426 7.3666 -1.9685 0.9696
-0.0755 6.7804 -1.7867 0.9723
-0.6504 6.4648 -1.7121 0.9735
-1.1799 6.1554 -1.6515 0.9744
-1.7680 6.1832 -1.6946 0.9737
-2.2410 5.8186 -1.6430 0.9745
-2.6761 5.4457 -1.5988 0.9752
-3.0765 5.0647 -1.5615 0.9758
-3.4451 4.6758 -1.5304 0.9763
-3.7842 4.2789 -1.5052 0.9766
-4.3817 3.4602 -1.4712 0.9772
-4.6429 3.0373 -1.4619 0.9773
-4.8807 2.6044 -1.4577 0.9774
-5.0956 2.1608 -1.4584 0.9774
-5.2883 1.7052 -1.4641 0.9773
-3.2212 0.7298 -0.8703 0.9864
-2.9836 -0.4013 -0.7933 0.9876
-3.0953 -0.7013 -0.8363 0.9870
-5.9786 -2.5351 -1.7112 0.9735
-5.9377 -3.1684 -1.7734 0.9725
-5.8531 -3.8289 -1.8430 0.9715
-4.9909 -6.7737 -2.2170 0.9658
-2.2344 -11.6569 -3.1275 0.9521
-1.2898 -12.8207 -3.3953 0.9481
-0.1565 -14.0495 -3.7023 0.9435
1.1974 -2.0740 -0.6310 0.9901
1.3356 -1.8999 -0.6119 0.9904
1.4808 -1.7515 -0.6043 0.9906
1.6471 -1.6288 -0.6104 0.9905
1.8314 -1.5137 -0.6261 0.9902
2.0588 -1.4133 -0.6580 0.9897
2.3754 -1.3364 -0.7182 0.9888
3.0840 -1.3896 -0.8913 0.9861
8.3106 8.9854 -3.2251 0.9506
5.6537 8.8564 -2.7686 0.9575
4.5173 8.6973 -2.5824 0.9603
3.2770 7.9740 -2.2716 0.9650
0.2318 6.9332 -1.8279 0.9717
-0.3694 6.6242 -1.7482 0.9729
-0.9192 6.3027 -1.6783 0.9740
-2.0095 6.0020 -1.6678 0.9742
-2.8804 5.2562 -1.5793 0.9755
-3.2646 4.8712 -1.5452 0.9760
-3.9434 4.0774 -1.4947 0.9768
-4.2419 3.6681 -1.4777 0.9771
-4.5153 3.2499 -1.4659 0.9773
-4.7647 2.8221 -1.4592 0.9774
-4.9910 2.3840 -1.4575 0.9774
-3.7365 1.0235 -1.0208 0.9841
-3.0018 0.5408 -0.8037 0.9875
-2.8347 0.2533 -0.7499 0.9883
-5.7293 -2.1336 -1.7201 0.9749
-5.4788 -3.9434 -1.8993 0.9723
-5.3078 -4.5898 -1.9743 0.9713
-5.1112 -5.2850 -2.0686 0.9699
-4.8596 -6.0148 -2.1756 0.9684
-4.1586 -7.5885 -2.4347 0.9647
-3.1230 -9.3279 -2.7676 0.9599
-2.4456 -10.2622 -2.9682 0.9571
-1.6402 -11.2460 -3.1976 0.9539
-0.6838 -12.2628 -3.4556 0.9502
1.0113 -2.4608 -0.7485 0.9890
1.5595 -1.6861 -0.6462 0.9905
1.9403 -1.4633 -0.6838 0.9900
11.3076 7.7623 -3.8589 0.9446
9.7503 8.0588 -3.5590 0.9488
8.3212 8.2290 -3.2927 0.9525
5.8217 8.2815 -2.8482 0.9588
2.6630 7.4021 -2.2133 0.9678
1.1765 6.9745 -1.9900 0.9710
0.5253 6.7225 -1.8972 0.9724
-0.0719 6.4510 -1.8151 0.9735
-0.6201 6.1639 -1.7430 0.9746
-1.1758 6.1340 -1.7572 0.9744
-2.1470 5.5746 -1.6807 0.9755
-2.5667 5.2232 -1.6374 0.9761
-2.9536 4.8624 -1.6007 0.9766
-4.2164 3.3297 -1.5116 0.9779
-4.4689 2.9234 -1.5025 0.9781
-4.9051 2.0799 -1.4990 0.9781
-5.0897 1.6412 -1.5046 0.9780
-3.1370 0.7108 -0.9050 0.9867
-2.7751 0.3732 -0.7878 0.9884
-2.8531 -0.1272 -0.8035 0.9882
-3.0353 -0.6877 -0.8756 0.9872
-3.2049 -1.0334 -0.9474 0.9861
-5.2159 -4.9332 -2.0199 0.9706
-4.9928 -5.6454 -2.1204 0.9692
-4.7108 -6.3936 -2.2344 0.9675
-4.3616 -7.1802 -2.3637 0.9657
-3.9349 -8.0072 -2.5102 0.9636
-3.4188 -8.8767 -2.6764 0.9612
-0.1424 -12.7815 -3.5964 0.9483
1.0700 -2.3057 -0.7152 0.9895
1.1998 -2.0781 -0.6751 0.9901
1.3348 -1.8988 -0.6530 0.9904
2.0566 -1.4118 -0.7019 0.9897
2.3739 -1.3355 -0.7664 0.9887
12.1353 7.5580 -4.0224 0.9423
10.5127 7.9280 -3.7046 0.9468
9.0200 8.1581 -3.4219 0.9507
2.2664 7.3063 -2.1523 0.9687
1.4470 6.7340 -1.9379 0.9718
-0.3518 6.3090 -1.7778 0.9741
-0.8912 6.1103 -1.7374 0.9747
-1.4496 6.0828 -1.7593 0.9744
-1.9240 5.7466 -1.7051 0.9751
-2.7641 5.0439 -1.6182 0.9764
-3.4777 4.3044 -1.5569 0.9773
-4.0812 3.5292 -1.5181 0.9778
-4.3456 3.1278 -1.5064 0.9780
-4.5864 2.7165 -1.4998 0.9781
-4.8044 2.2949 -1.4980 0.9781
-5.0002 1.8621 -1.5012 0.9781
-3.6501 0.9999 -1.0648 0.9844
-2.9229 0.5266 -0.8356 0.9877
-2.7884 0.2492 -0.7877 0.9884
-2.8308 -0.2530 -0.8509 0.9882
-2.9224 -0.5265 -0.8890 0.9877
-3.0126 -0.8252 -0.9351 0.9870
-5.4541 -2.6052 -1.8096 0.9751
-5.2333 -3.7667 -1.9304 0.9734
-5.0548 -4.3711 -2.0006 0.9725
-4.8565 -5.0216 -2.0914 0.9713
-4.2951 -6.4088 -2.3097 0.9683
-3.9169 -7.1474 -2.4400 0.9665
-2.2743 -9.5435 -2.9371 0.9599
-0.6286 -11.2726 -3.3800 0.9540
2.9789 -13.8625 -4.2449 0.9425
1.0140 -2.4674 -0.7986 0.9889
1.4094 -1.8262 -0.6906 0.9904
1.5609 -1.6876 -0.6882 0.9904
1.7320 -1.5665 -0.6991 0.9903
1.9415 -1.4642 -0.7280 0.9899
2.2109 -1.3770 -0.7798 0.9892
2.6464 -1.3373 -0.8877 0.9877
11.7533 6.6123 -4.0373 0.9452
10.3059 7.0746 -3.7424 0.9491
8.9481 7.3958 -3.4755 0.9527
5.4320 7.7271 -2.8277 0.9613
1.1165 6.6189 -2.0095 0.9724
0.4997 6.3948 -1.9203 0.9736
-1.6210 5.6689 -1.7652 0.9757
-2.8391 4.6739 -1.6372 0.9774
-3.7941 3.5884 -1.5634 0.9784
-4.3059 2.8168 -1.5404 0.9787
-4.5274 2.4158 -1.5363 0.9788
-4.7266 2.0042 -1.5370 0.9788
-4.9038 1.5813 -1.5426 0.9787
-2.7619 0.1232 -0.8277 0.9885
-2.8066 -0.1252 -0.8411 0.9883
-2.8771 -0.3869 -0.8691 0.9880
-2.9771 -0.6745 -0.9139 0.9873
-3.1092 -1.0026 -0.9780 0.9865
-5.4228 -2.8937 -1.8402 0.9747
-5.3326 -3.4884 -1.9077 0.9737
-5.1441 -4.0623 -1.9624 0.9730
-4.9619 -4.6929 -2.0446 0.9719
-4.7381 -5.3574 -2.1412 0.9706
-3.2014 -8.3124 -2.6668 0.9635
-2.6096 -9.1264 -2.8418 0.9611
-1.0896 -10.8311 -3.2590 0.9556
2.2683 -13.4476 -4.0828 0.9446
0.9601 -2.6685 -0.8490 0.9882
1.3376 -1.9027 -0.6963 0.9903
1.4803 -1.7509 -0.6864 0.9905
1.8304 -1.5129 -0.7109 0.9901
2.3831 -1.3407 -0.8186 0.9886
9.6154 7.2513 -3.6055 0.9510
5.9615 7.7245 -2.9212 0.9601
2.1423 6.9061 -2.1647 0.9703
1.4444 6.7216 -2.0582 0.9717
0.2098 6.2745 -1.8795 0.9741
-1.3881 5.8246 -1.7926 0.9753
-1.8448 5.5100 -1.7396 0.9760
-2.2665 5.1835 -1.6937 0.9767
-2.6559 4.8463 -1.6545 0.9772
-3.0152 4.4990 -1.6214 0.9776
-3.3464 4.1419 -1.5941 0.9780
-4.4194 2.6176 -1.5378 0.9788
-4.8179 1.7942 -1.5392 0.9788
-2.8473 0.5130 -0.8662 0.9880
-2.7827 -0.2487 -0.8873 0.9883
-2.8694 -0.5170 -0.9259 0.9878
-5.2279 -2.4972 -1.8400 0.9760
-4.8227 -4.1703 -2.0248 0.9736
-4.6239 -4.7810 -2.1123 0.9725
-3.2586 -7.4527 -2.5832 0.9664
-2.7368 -8.1743 -2.7377 0.9645
-2.1241 -8.9130 -2.9099 0.9623
0.3734 -11.1697 -3.5493 0.9542
1.4654 -11.8985 -3.8073 0.9509
2.7030 -12.5786 -4.0860 0.9474
0.9360 -3.0172 -1.0033 0.9868
1.0168 -2.4742 -0.8495 0.9888
1.1391 -2.1931 -0.7848 0.9897
1.4124 -1.8300 -0.7341 0.9903
1.5646 -1.6916 -0.7318 0.9904
2.2213 -1.3835 -0.8311 0.9891
2.6689 -1.3487 -0.9497 0.9875
10.7187 6.0302 -3.9058 0.9497
9.4595 6.4936 -3.6439 0.9530
8.2616 6.8283 -3.4039 0.9560
7.1322 7.0532 -3.1856 0.9588
6.0743 7.1848 -2.9879 0.9613
5.0880 7.2378 -2.8097 0.9636
4.1713 7.2249 -2.6495 0.9656
2.5338 7.0429 -2.3771 0.9691
0.4790 6.1298 -1.9527 0.9745
-0.0676 6.0675 -1.9270 0.9749
-1.0979 5.7276 -1.8521 0.9758
-1.9786 5.1374 -1.7484 0.9772
-2.7322 4.4978 -1.6713 0.9782
-3.0664 4.1617 -1.6417 0.9785
-3.9166 3.0930 -1.5849 0.9793
-4.1530 2.7167 -1.5760 0.9794
-4.7294 1.5250 -1.5782 0.9794
-2.6672 0.3587 -0.8547 0.9888
-5.2532 -2.2275 -1.8121 0.9763
-4.5059 -5.0949 -2.1601 0.9719
-1.7802 -9.2871 -3.0031 0.9611
0.9017 -11.5392 -3.6758 0.9526
0.9640 -2.6793 -0.9043 0.9881
1.0755 -2.3177 -0.8115 0.9893
1.2049 -2.0869 -0.7653 0.9899
1.3404 -1.9067 -0.7402 0.9903
1.4834 -1.7545 -0.7297 0.9904
1.6496 -1.6314 -0.7368 0.9903
2.0651 -1.4176 -0.7955 0.9895
12.6918 5.0513 -4.3382 0.9443
11.3674 5.7442 -4.0449 0.9480
10.0821 6.2792 -3.7721 0.9514
7.6880 6.9534 -3.2921 0.9574
4.6211 7.2389 -2.7274 0.9646
3.7382 7.1972 -2.5756 0.9665
2.9199 7.1052 -2.4396 0.9683
2.0967 6.7591 -2.2475 0.9707
1.3737 6.3926 -2.0765 0.9729
0.2036 6.0892 -1.9349 0.9748
-1.3310 5.5852 -1.8235 0.9762
-2.5548 4.6619 -1.6883 0.9779
-3.7899 3.2773 -1.5912 0.9792
-4.0377 2.9060 -1.5799 0.9793
-4.2627 2.5248 -1.5734 0.9794
-4.4657 2.1331 -1.5717 0.9794
-4.6469 1.7306 -1.5748 0.9794
-3.4729 0.9513 -1.1436 0.9850
-2.7374 -0.2446 -0.9234 0.9885
-2.8177 -0.5077 -0.9619 0.9880
-2.8971 -0.7936 -1.0092 0.9874
-5.0643 -1.8860 -1.8157 0.9775
-4.8014 -3.4558 -1.9876 0.9753
-4.6087 -3.9853 -2.0471 0.9746
-4.4103 -4.5602 -2.1315 0.9736
-3.8634 -5.7646 -2.3316 0.9711
-3.0765 -7.0360 -2.5801 0.9681
-2.5752 -7.6916 -2.7252 0.9664
-1.9912 -8.3552 -2.8858 0.9644
-1.3157 -9.0213 -3.0631 0.9623
-0.5398 -9.6808 -3.2576 0.9599
1.3468 -10.9353 -3.7018 0.9546
2.4710 -11.4989 -3.9516 0.9516
0.9628 -3.1039 -1.0919 0.9864
1.2704 -1.9901 -0.7933 0.9901
1.4153 -1.8339 -0.7783 0.9903
1.9538 -1.4734 -0.8222 0.9897
2.2319 -1.3901 -0.8834 0.9890
2.6920 -1.3604 -1.0134 0.9874
13.2425 3.3122 -4.5863 0.9440
9.8430 5.5376 -3.7945 0.9535
5.6872 6.7269 -2.9596 0.9635
4.7819 6.8024 -2.7937 0.9655
3.9339 6.8137 -2.6434 0.9673
3.1419 6.7705 -2.5078 0.9690
1.0563 6.2622 -2.1337 0.9736
-1.4942 5.2254 -1.8260 0.9773
-1.9029 4.9407 -1.7788 0.9779
-2.6320 4.3329 -1.7033 0.9788
-2.9558 4.0117 -1.6742 0.9792
-3.5289 3.3376 -1.6319 0.9797
-3.7802 2.9852 -1.6183 0.9799
-4.0091 2.6225 -1.6096 0.9800
-4.2160 2.2497 -1.6055 0.9800
-4.5653 1.4721 -1.6116 0.9800
-2.6272 0.5952 -0.9050 0.9887
-2.6762 0.1193 -0.9001 0.9888
-2.7751 -0.3732 -0.9408 0.9883
-2.8653 -0.6492 -0.9871 0.9877
-5.0761 -1.6368 -1.7919 0.9777
-5.0449 -2.1392 -1.8411 0.9771
-4.9821 -2.6585 -1.8973 0.9765
-4.8846 -3.1954 -1.9611 0.9757
-4.7016 -3.7128 -2.0128 0.9750
-4.5152 -4.2705 -2.0881 0.9741
-4.2933 -4.8545 -2.1774 0.9730
-4.0206 -5.4568 -2.2773 0.9718
-3.6913 -6.0767 -2.3888 0.9704
-3.2987 -6.7127 -2.5129 0.9689
-2.2940 -8.0227 -2.8035 0.9654
-0.9409 -9.3525 -3.1581 0.9611
0.8306 -10.6320 -3.5830 0.9560
0.9679 -2.6904 -0.9606 0.9880
1.2075 -2.0915 -0.8114 0.9899
1.4865 -1.7582 -0.7735 0.9903
12.6864 3.7810 -4.4477 0.9457
6.1614 6.6616 -3.0487 0.9624
5.2274 6.7733 -2.8746 0.9645
4.3508 6.8154 -2.7167 0.9665
2.7662 6.7312 -2.4451 0.9698
0.7611 6.1797 -2.0919 0.9741
-0.8204 5.6250 -1.9099 0.9763
-1.7024 5.0848 -1.8016 0.9776
-2.7972 4.1737 -1.6881 0.9790
-3.1082 3.8471 -1.6617 0.9793
-4.1152 2.4375 -1.6070 0.9800
-2.7169 0.4895 -0.9275 0.9884
-2.6500 0.2368 -0.8939 0.9888
-2.6518 -0.0000 -0.9403 0.9888
-2.8417 -0.7784 -1.0448 0.9876
-4.8717 -1.8142 -1.8433 0.9782
-4.8215 -2.3030 -1.8947 0.9776
-4.6081 -3.3167 -2.0132 0.9762
-4.4129 -3.8160 -2.0687 0.9755
-3.3249 -6.0672 -2.4532 0.9711
-2.9118 -6.6596 -2.5773 0.9696
-2.4300 -7.2582 -2.7141 0.9680
1.2452 -10.1105 -3.6121 0.9577
2.2719 -10.5724 -3.8344 0.9551
1.4183 -1.8378 -0.8231 0.9902
2.2428 -1.3968 -0.9369 0.9888
2.7375 -1.3833 -1.0876 0.9871
12.9368 2.0342 -4.6436 0.9459
11.0809 3.8477 -4.1593 0.9514
8.1062 5.5646 -3.4864 0.9591
7.1470 5.9072 -3.2878 0.9614
-0.5550 5.5167 -1.9660 0.9767
-1.4370 5.0256 -1.8534 0.9781
-2.1983 4.4735 -1.7674 0.9791
-2.5379 4.1779 -1.7333 0.9795
-2.8518 3.8707 -1.7048 0.9798
-3.1415 3.5522 -1.6815 0.9801
-3.4077 3.2231 -1.6632 0.9803
-4.0736 2.1737 -1.6372 0.9806
-2.5615 0.5804 -0.9313 0.9889
-2.6347 0.1175 -0.9351 0.9889
-4.8505 -2.0568 -1.8682 0.9779
-4.7844 -2.5531 -1.9229 0.9772
-4.5045 -3.5571 -2.0352 0.9759
-4.3177 -4.0836 -2.1073 0.9751
-4.0978 -4.6335 -2.1933 0.9741
-3.5077 -5.7744 -2.3957 0.9717
-3.1266 -6.3623 -2.5137 0.9704
-2.6800 -6.9583 -2.6440 0.9688
-2.1613 -7.5584 -2.7875 0.9672
-0.1038 -9.3177 -3.3041 0.9612
0.7703 -9.8573 -3.5059 0.9589
1.7458 -10.3496 -3.7217 0.9564
2.8237 -10.7780 -3.9507 0.9538
1.3461 -1.9149 -0.8300 0.9901
1.4896 -1.7619 -0.8181 0.9903
1.6576 -1.6393 -0.8266 0.9902
2.4359 -1.3704 -0.9910 0.9882
14.0829 0.3139 -4.9948 0.9420
13.3503 1.4935 -4.7634 0.9446
11.5663 3.4472 -4.2795 0.9501
10.5876 4.2138 -4.0406 0.9528
7.6227 5.7485 -3.3853 0.9603
6.6805 6.0421 -3.1940 0.9625
5.7779 6.2470 -3.0173 0.9645
4.9195 6.3744 -2.8551 0.9664
3.3436 6.4376 -2.5722 0.9697
2.6264 6.3909 -2.4500 0.9711
1.9548 6.3018 -2.3396 0.9724
0.7414 6.0194 -2.1505 0.9746
0.1951 5.8355 -2.0703 0.9755
-0.3138 5.6282 -1.9988 0.9764
-0.7876 5.4005 -1.9352 0.9771
-2.6980 4.0257 -1.7184 0.9796
-3.2775 3.3890 -1.6717 0.9802
-3.5325 3.0546 -1.6559 0.9804
-2.6624 0.4796 -0.9592 0.9886
-2.6101 -0.0000 -0.9746 0.9889
-2.7170 -0.4895 -1.0309 0.9883
-2.7878 -0.7637 -1.0793 0.9877
-4.6912 -1.7470 -1.8693 0.9789
-4.6381 -2.2154 -1.9193 0.9783
-4.4268 -3.1862 -2.0367 0.9770
-4.2311 -3.6587 -2.0887 0.9764
-4.0315 -4.1685 -2.1655 0.9755
-3.7916 -4.6929 -2.2529 0.9746
-2.7623 -6.3175 -2.5747 0.9710
-2.2990 -6.8667 -2.7040 0.9696
-1.7664 -7.4122 -2.8453 0.9680
3.1312 -10.0940 -3.9464 0.9559
1.2759 -1.9987 -0.8855 0.9899
1.4214 -1.8417 -0.8687 0.9901
1.7490 -1.5819 -0.8806 0.9900
13.3857 -1.4974 -5.0295 0.9441
13.0058 -0.2898 -4.8577 0.9460
12.4641 0.8344 -4.6647 0.9481
10.1957 3.5403 -4.0302 0.9550
5.0346 5.9549 -2.9118 0.9673
4.2606 6.0607 -2.7664 0.9689
3.5257 6.1066 -2.6330 0.9703
2.1763 6.0490 -2.4005 0.9729
1.5611 5.9586 -2.3001 0.9740
0.4439 5.6805 -2.1276 0.9760
-1.3835 4.8384 -1.8791 0.9787
-1.7652 4.5836 -1.8341 0.9792
-3.2934 3.1149 -1.6927 0.9808
-3.5300 2.7875 -1.6796 0.9810
-3.7450 2.4499 -1.6711 0.9811
-4.1121 1.7437 -1.6678 0.9811
-4.2643 1.3751 -1.6731 0.9811
-2.5325 0.3406 -0.9542 0.9891
-2.5920 0.1156 -0.9689 0.9890
-2.6781 -0.3602 -1.0090 0.9885
-2.8043 -0.9043 -1.1002 0.9875
-4.5998 -2.4545 -1.9469 0.9780
-3.9174 -4.4294 -2.2080 0.9751
-3.6539 -4.9590 -2.3001 0.9740
-3.3396 -5.4977 -2.4020 0.9729
-2.9698 -6.0432 -2.5144 0.9717
-2.0417 -7.1403 -2.7731 0.9688
-1.4724 -7.6815 -2.9206 0.9672
-0.8258 -8.2087 -3.0807 0.9654
-0.0971 -8.7124 -3.2535 0.9635
0.7174 -9.1805 -3.4386 0.9614
2.6067 -9.9496 -3.8407 0.9570
0.9923 -2.7581 -1.0945 0.9876
1.0842 -2.3365 -0.9618 0.9891
1.2129 -2.1008 -0.9058 0.9897
1.3491 -1.9191 -0.8759 0.9900
1.6617 -1.6433 -0.8727 0.9901
2.0925 -1.4364 -0.9477 0.9892
2.4561 -1.3818 -1.0523 0.9880
13.2179 -0.8848 -4.9468 0.9450
10.6178 3.1645 -4.1371 0.9538
8.8837 4.4892 -3.7168 0.9584
7.9970 4.9806 -3.5180 0.9606
7.1195 5.3691 -3.3297 0.9626
6.2629 5.6645 -3.1533 0.9646
4.6428 6.0158 -2.8376 0.9681
2.4986 6.0800 -2.4546 0.9723
-0.3013 5.4027 -2.0206 0.9772
-0.7571 5.1907 -1.9588 0.9779
-1.1821 4.9601 -1.9040 0.9785
-2.8973 3.5861 -1.7215 0.9805
-3.1670 3.2747 -1.7011 0.9807
-3.4144 2.9525 -1.6855 0.9809
-3.6401 2.6200 -1.6747 0.9810
-3.8446 2.2772 -1.6685 0.9811
-4.0281 1.9241 -1.6669 0.9811
-4.1908 1.5607 -1.6699 0.9811
-3.4441 0.9434 -1.3334 0.9849
-2.5691 0.0000 -1.0083 0.9890
-2.6072 -0.2330 -1.0273 0.9888
-2.7584 -1.0272 -1.1552 0.9874
-4.4660 -2.1332 -1.9425 0.9790
-4.3796 -2.5940 -1.9977 0.9784
-4.0614 -3.5120 -2.1073 0.9772
-3.6266 -4.4887 -2.2648 0.9755
-3.3446 -4.9905 -2.3578 0.9745
-2.6257 -6.0052 -2.5723 0.9722
-2.1799 -6.5111 -2.6948 0.9709
-1.6704 -7.0093 -2.8280 0.9695
-0.4436 -7.9551 -3.1270 0.9663
2.8998 -9.3482 -3.8414 0.9588
1.0403 -2.5314 -1.0741 0.9883
1.9732 -1.4880 -0.9699 0.9894
2.8939 -1.4624 -1.2725 0.9862
12.2503 -3.6510 -5.0169 0.9466
12.1584 -1.3601 -4.8016 0.9488
10.8250 1.7022 -4.3007 0.9540
9.4327 3.2754 -3.9189 0.9580
8.6618 3.9028 -3.7287 0.9600
7.8690 4.4270 -3.5435 0.9619
6.2797 5.1903 -3.1974 0.9656
4.7566 5.6261 -2.8915 0.9688
3.3487 5.8001 -2.6285 0.9716
2.6950 5.8077 -2.5128 0.9729
2.0762 5.7710 -2.4071 0.9740
0.4257 5.4478 -2.1446 0.9768
-0.0589 5.2832 -2.0736 0.9776
-0.5126 5.0958 -2.0101 0.9782
-0.9370 4.8882 -1.9534 0.9788
-1.3332 4.6626 -1.9033 0.9794
-1.7027 4.4207 -1.8593 0.9798
-2.3656 3.8944 -1.7883 0.9806
-2.6613 3.6120 -1.7608 0.9809
-3.1852 3.0126 -1.7207 0.9813
-3.4148 2.6967 -1.7077 0.9815
-3.8114 2.0338 -1.6955 0.9816
-2.4910 0.3350 -0.9865 0.9893
-2.5490 0.1136 -1.0014 0.9891
-2.6312 -0.3539 -1.0420 0.9887
-2.7055 -0.6130 -1.0887 0.9882
-4.4975 -1.9071 -1.9173 0.9792
-4.3240 -2.8286 -2.0279 0.9780
-3.4916 -4.7388 -2.3102 0.9750
-3.1851 -5.2433 -2.4078 0.9740
-0.0911 -8.1748 -3.2086 0.9655
0.6708 -8.5838 -3.3792 0.9637
1.5082 -8.9415 -3.5589 0.9618
2.4189 -9.2327 -3.7459 0.9598
1.2156 -2.1055 -0.9542 0.9896
1.3520 -1.9233 -0.9227 0.9899
1.6659 -1.6474 -0.9195 0.9900
2.1025 -1.4433 -1.0009 0.9891
2.4768 -1.3934 -1.1154 0.9879
11.8046 -5.3189 -5.0815 0.9459
12.2980 -3.0759 -4.9753 0.9470
12.0241 -0.8049 -4.7297 0.9495
11.6403 0.2594 -4.5696 0.9512
11.1242 1.2444 -4.3932 0.9530
8.2671 4.1775 -3.6353 0.9610
6.6735 5.0328 -3.2805 0.9647
5.8901 5.3273 -3.1170 0.9664
5.1279 5.5442 -2.9639 0.9681
-0.2895 5.1922 -2.0409 0.9779
-0.7284 4.9944 -1.9809 0.9785
-1.5213 4.5435 -1.8805 0.9796
-2.2090 4.0309 -1.8040 0.9804
-2.5164 3.7546 -1.7739 0.9808
-2.8006 3.4663 -1.7490 0.9810
-3.7200 2.2034 -1.6969 0.9816
-3.8977 1.8618 -1.6953 0.9816
-4.0549 1.5101 -1.6982 0.9816
-2.5633 0.4618 -1.0222 0.9889
-2.5206 0.2252 -0.9932 0.9892
-2.5655 -0.2292 -1.0607 0.9889
-4.3043 -2.0560 -1.9642 0.9796
-4.2166 -2.4975 -2.0180 0.9790
-3.9027 -3.3748 -2.1246 0.9779
-3.7052 -3.8312 -2.1947 0.9772
-3.4734 -4.2991 -2.2759 0.9764
-2.8748 -5.2458 -2.4632 0.9745
0.2634 -7.8793 -3.2464 0.9665
1.0118 -8.2149 -3.4083 0.9648
1.2823 -2.0087 -0.9813 0.9897
1.4277 -1.8499 -0.9622 0.9899
1.7580 -1.5900 -0.9761 0.9898
2.2781 -1.4188 -1.1051 0.9885
10.9262 -4.3485 -4.8424 0.9504
11.1665 -3.3280 -4.7980 0.9508
11.1249 -1.2445 -4.6096 0.9527
10.8719 -0.2423 -4.4780 0.9540
10.4875 0.7021 -4.3282 0.9555
9.9936 1.5714 -4.1657 0.9572
9.4129 2.3543 -3.9955 0.9589
8.7679 3.0446 -3.8219 0.9606
7.3642 4.1430 -3.4794 0.9641
6.6383 4.5569 -3.3156 0.9658
5.2002 5.1426 -3.0116 0.9689
4.5046 5.3281 -2.8730 0.9703
3.8322 5.4514 -2.7439 0.9716
2.5701 5.5385 -2.5142 0.9739
0.9035 5.3561 -2.2367 0.9768
0.4087 5.2308 -2.1605 0.9776
-1.2859 4.4970 -1.9260 0.9800
-2.2865 3.7641 -1.8136 0.9811
-2.5736 3.4930 -1.7866 0.9814
-3.3056 2.6104 -1.7344 0.9819
-3.5081 2.2949 -1.7262 0.9820
-3.6904 1.9693 -1.7224 0.9821
-3.9943 1.2880 -1.7282 0.9820
-2.4504 0.3295 -1.0181 0.9894
-2.5068 0.1118 -1.0333 0.9892
-2.5479 -0.1136 -1.0502 0.9890
-2.5854 -0.3477 -1.0742 0.9888
-2.6464 -0.8534 -1.1450 0.9880
-4.3367 -1.8389 -1.9397 0.9798
-3.8058 -3.5995 -2.1571 0.9776
-3.5946 -4.0645 -2.2343 0.9768
0.6293 -8.0535 -3.3264 0.9657
1.0224 -2.8418 -1.2436 0.9870
1.3551 -1.9276 -0.9703 0.9899
1.4994 -1.7735 -0.9563 0.9900
1.8658 -1.5421 -0.9967 0.9896
2.5182 -1.4167 -1.1898 0.9876
10.7418 -4.8400 -4.8516 0.9503
11.1961 -1.7605 -4.6670 0.9522
11.0161 -0.7374 -4.5464 0.9534
10.6948 0.2383 -4.4050 0.9548
8.4278 3.3542 -3.7352 0.9615
3.5059 5.4919 -2.6830 0.9722
1.1621 5.4079 -2.2777 0.9764
-0.2785 4.9950 -2.0600 0.9786
-0.7015 4.8100 -2.0016 0.9792
-1.0976 4.6058 -1.9497 0.9797
-1.8131 4.1467 -1.8636 0.9806
-2.1345 3.8950 -1.8289 0.9810
-2.4328 3.6301 -1.7994 0.9813
-2.9633 3.0641 -1.7553 0.9817
-3.6018 2.1334 -1.7238 0.9821
-2.5181 0.4537 -1.0536 0.9890
-2.4793 0.2215 -1.0250 0.9893
-2.5389 -0.4574 -1.1128 0.9888
-2.5688 -0.9566 -1.1824 0.9881
-4.1518 -1.9832 -1.9847 0.9802
-3.9433 -2.8382 -2.0958 0.9791
-3.7540 -3.2462 -2.1407 0.9786
-3.5584 -3.6793 -2.2079 0.9779
-3.3308 -4.1226 -2.2862 0.9772
-3.0616 -4.5682 -2.3722 0.9763
-2.7475 -5.0135 -2.4660 0.9754
-1.5037 -6.3097 -2.7980 0.9721
-0.9788 -6.7114 -2.9256 0.9709
-0.3951 -7.0863 -3.0615 0.9696
0.2483 -7.4258 -3.2050 0.9682
0.9507 -7.7195 -3.3550 0.9667
2.5200 -8.1236 -3.6689 0.9636
1.0632 -2.5872 -1.2066 0.9879
1.2922 -2.0242 -1.0359 0.9896
1.4341 -1.8582 -1.0125 0.9898
1.7629 -1.5944 -1.0253 0.9897
1.9907 -1.5012 -1.0755 0.9892
10.0139 -3.9855 -4.6491 0.9541
10.2424 -3.0525 -4.6102 0.9545
10.3177 -2.0972 -4.5416 0.9552
9.7025 0.6495 -4.1946 0.9585
8.1833 2.8416 -3.7367 0.9630
6.9144 3.8900 -3.4222 0.9660
5.5841 4.6153 -3.1250 0.9689
3.0376 5.2613 -2.6206 0.9739
0.8672 5.1411 -2.2490 0.9775
-0.4754 4.7258 -2.0488 0.9795
-0.8707 4.5425 -1.9951 0.9801
-1.2412 4.3407 -1.9474 0.9805
-1.5876 4.1222 -1.9054 0.9809
-2.4904 3.3801 -1.8110 0.9819
-2.7481 3.1074 -1.7894 0.9821
-3.2018 2.5285 -1.7598 0.9824
-3.3985 2.2232 -1.7518 0.9825
-3.7322 1.5826 -1.7487 0.9825
-2.5715 0.5826 -1.1373 0.9886
-2.5076 -0.1118 -1.0828 0.9891
-2.5277 -0.3400 -1.1001 0.9890
-2.6695 -1.1320 -1.2508 0.9874
-3.6574 -3.4591 -2.1715 0.9783
-3.4496 -3.9005 -2.2461 0.9776
-3.2016 -4.3453 -2.3282 0.9768
-2.9103 -4.7910 -2.4181 0.9759
-2.5725 -5.2350 -2.5161 0.9749
-2.1850 -5.6732 -2.6224 0.9739
-1.7446 -6.1013 -2.7373 0.9727
-1.2485 -6.5134 -2.8608 0.9715
1.0523 -2.9250 -1.3409 0.9865
1.1150 -2.4027 -1.1426 0.9885
1.6747 -1.6561 -1.0160 0.9898
9.8434 -4.4353 -4.6572 0.9541
10.2997 -2.5761 -4.5797 0.9548
10.1533 -0.6797 -4.3895 0.9566
9.4985 1.0626 -4.1228 0.9592
8.4777 2.5266 -3.8159 0.9622
7.8777 3.1353 -3.6574 0.9637
5.9173 4.4624 -3.1969 0.9682
4.5970 4.9703 -2.9204 0.9709
3.3385 5.2297 -2.6763 0.9733
2.1731 5.2880 -2.4661 0.9754
1.6302 5.2551 -2.3734 0.9763
0.6266 5.0879 -2.2113 0.9779
-1.4173 4.2334 -1.9258 0.9807
-1.7521 4.0071 -1.8865 0.9811
-2.8692 2.9667 -1.7803 0.9822
-3.0960 2.6772 -1.7655 0.9823
-3.3026 2.3771 -1.7552 0.9824
-3.8033 1.4163 -1.7506 0.9825
-3.9302 1.0766 -1.7578 0.9824
-2.4387 0.2179 -1.0561 0.9894
-2.4281 -0.0000 -1.0956 0.9894
-2.4593 -0.4431 -1.1275 0.9891
-3.9188 -2.3211 -2.0551 0.9802
-3.7992 -2.7345 -2.1121 0.9797
-3.6141 -3.1252 -2.1559 0.9793
-3.4208 -3.5370 -2.2202 0.9786
-3.1976 -3.9578 -2.2958 0.9779
-2.6293 -4.7979 -2.4687 0.9763
-2.2786 -5.2112 -2.5663 0.9753
-0.9293 -6.3718 -2.9055 0.9721
-0.3743 -6.7120 -3.0333 0.9709
2.3620 -7.6142 -3.5972 0.9656
1.0789 -2.6254 -1.2808 0.9876
1.3024 -2.0402 -1.0921 0.9894
1.6009 -1.7309 -1.0639 0.9897
9.2320 -3.6742 -4.4834 0.9573
9.4488 -2.8160 -4.4488 0.9577
9.3032 -0.2073 -4.1988 0.9600
9.0177 0.6037 -4.0781 0.9611
8.6385 1.3583 -3.9457 0.9624
8.1819 2.0465 -3.8055 0.9637
5.2851 4.3682 -3.0938 0.9704
3.4733 4.9409 -2.7251 0.9738
2.9000 5.0230 -2.6171 0.9749
1.8186 5.0549 -2.4240 0.9767
1.3135 5.0138 -2.3386 0.9775
0.8333 4.9400 -2.2605 0.9783
0.3780 4.8373 -2.1893 0.9789
-1.8483 3.7612 -1.8909 0.9818
-2.1403 3.5235 -1.8602 0.9821
-3.2940 2.1549 -1.7761 0.9829
-3.6177 1.5341 -1.7731 0.9829
-2.5488 0.5775 -1.1792 0.9886
-2.4105 0.1075 -1.0887 0.9895
-2.4782 -0.7991 -1.1749 0.9886
-2.4891 -1.0555 -1.2199 0.9882
-3.9670 -2.1169 -2.0289 0.9805
-3.8630 -2.5270 -2.0829 0.9799
-3.5196 -3.3288 -2.1859 0.9790
-3.3140 -3.7472 -2.2572 0.9783
-3.0713 -4.1684 -2.3363 0.9775
-2.4598 -5.0055 -2.5165 0.9758
-2.0854 -5.4146 -2.6181 0.9749
-1.6617 -5.8115 -2.7273 0.9738
-0.0765 -6.8691 -3.0997 0.9703
0.5588 -7.1518 -3.2368 0.9690
1.2455 -7.3840 -3.3788 0.9677
1.9794 -7.5550 -3.5240 0.9663
2.7536 -7.6540 -3.6703 0.9649
1.2421 -2.1514 -1.1209 0.9892
1.6877 -1.6690 -1.0710 0.9896
2.1602 -1.4829 -1.1823 0.9886
9.0736 -4.0884 -4.4906 0.9573
9.3572 -3.2492 -4.4694 0.9575
9.5065 -2.3777 -4.4216 0.9579
9.5219 -1.4973 -4.3493 0.9586
9.1732 0.2044 -4.1401 0.9605
8.8388 0.9888 -4.0131 0.9617
7.9299 2.3634 -3.7336 0.9643
7.3886 2.9406 -3.5882 0.9657
4.3662 4.7207 -2.9014 0.9722
3.7670 4.8811 -2.7820 0.9733
2.6212 5.0467 -2.5659 0.9754
1.5630 5.0386 -2.3804 0.9771
1.0703 4.9807 -2.2987 0.9779
-1.0225 4.2908 -1.9903 0.9808
-1.3696 4.0908 -1.9466 0.9812
-1.6942 3.8748 -1.9082 0.9816
-1.9970 3.6440 -1.8750 0.9819
-2.2785 3.3997 -1.8466 0.9822
-2.5392 3.1428 -1.8231 0.9824
-2.7796 2.8741 -1.8041 0.9826
-3.3822 2.0033 -1.7737 0.9829
-3.6864 1.3728 -1.7750 0.9829
-2.3848 0.2131 -1.0804 0.9895
-2.3615 -0.0000 -1.1132 0.9896
-2.3773 -0.2124 -1.1251 0.9895
-2.3934 -0.6556 -1.1698 0.9891
-3.8715 -1.8493 -2.0224 0.9812
-3.7823 -2.2402 -2.0721 0.9807
-3.6633 -2.6367 -2.1275 0.9802
-2.5194 -4.5973 -2.4711 0.9771
-2.1797 -4.9850 -2.5646 0.9762
0.2221 -6.6440 -3.1336 0.9710
1.5145 -7.0478 -3.3980 0.9686
1.1101 -2.7012 -1.3766 0.9872
1.3129 -2.0566 -1.1501 0.9893
1.6136 -1.7446 -1.1202 0.9895
2.0291 -1.5302 -1.1979 0.9888
2.3851 -1.4854 -1.3245 0.9877
8.7598 -2.6107 -4.3086 0.9604
8.4149 0.5633 -3.9755 0.9634
8.0785 1.2703 -3.8548 0.9645
6.6899 3.0143 -3.4588 0.9681
6.1470 3.4583 -3.3246 0.9693
5.0126 4.1430 -3.0654 0.9717
4.4394 4.3902 -2.9431 0.9728
3.8716 4.5794 -2.8267 0.9738
3.3146 4.7151 -2.7168 0.9748
2.2484 4.8452 -2.5178 0.9767
-0.0506 4.5391 -2.1398 0.9801
-0.8116 4.2343 -2.0323 0.9811
-1.1588 4.0528 -1.9870 0.9815
-1.4844 3.8543 -1.9469 0.9819
-1.7889 3.6402 -1.9119 0.9822
-2.0726 3.4120 -1.8818 0.9825
-2.3694 -0.1057 -1.1180 0.9896
-2.3799 -0.3201 -1.1319 0.9894
-2.4109 -1.0223 -1.2344 0.9885
-3.8305 -2.0440 -2.0466 0.9810
-3.7266 -2.4378 -2.0991 0.9805
-3.3901 -3.2063 -2.1995 0.9796
-3.1868 -3.6034 -2.2675 0.9790
-2.6730 -4.4004 -2.4270 0.9775
-1.9931 -5.1750 -2.6141 0.9758
-1.5853 -5.5442 -2.7181 0.9748
-0.6257 -6.2194 -2.9465 0.9727
-0.0725 -6.5122 -3.0699 0.9716
0.5286 -6.7647 -3.1984 0.9704
1.8633 -7.1120 -3.4655 0.9680
1.1381 -2.4525 -1.2745 0.9881
1.7011 -1.6823 -1.1277 0.9895
1.9089 -1.5778 -1.1674 0.9891
2.1882 -1.5021 -1.2511 0.9883
2.7511 -1.5478 -1.4880 0.9861
8.4062 -3.7877 -4.3462 0.9600
8.8173 -2.2053 -4.2843 0.9606
8.8421 -1.3903 -4.2191 0.9612
8.7512 -0.5858 -4.1343 0.9620
8.2567 0.9237 -3.9163 0.9639
7.4418 2.2179 -3.6604 0.9662
3.5915 4.6536 -2.7709 0.9743
1.9938 4.8515 -2.4725 0.9771
1.0288 4.7874 -2.3082 0.9786
0.5799 4.7081 -2.2361 0.9792
0.1538 4.6017 -2.1703 0.9798
-0.6298 4.3182 -2.0570 0.9809
-1.3243 3.9556 -1.9663 0.9817
-1.9333 3.5278 -1.8963 0.9824
-2.2069 3.2929 -1.8685 0.9826
-3.1039 2.2340 -1.8027 0.9832
-3.2800 1.9428 -1.7970 0.9833
-3.4371 1.6417 -1.7955 0.9833
-3.5750 1.3313 -1.7982 0.9833
-2.3243 0.2077 -1.1000 0.9897
-2.3094 -0.2064 -1.1404 0.9897
-3.5348 -2.5442 -2.1421 0.9808
-3.3587 -2.9044 -2.1840 0.9804
-3.1699 -3.2777 -2.2427 0.9799
-2.7054 -4.0368 -2.3902 0.9786
-1.7164 -5.1267 -2.6592 0.9762
0.2108 -6.3044 -3.1026 0.9723
0.8015 -6.5078 -3.2251 0.9712
2.0936 -6.7490 -3.4756 0.9690
1.1509 -2.8006 -1.4892 0.9866
1.1993 -2.3091 -1.2798 0.9885
1.3238 -2.0736 -1.2100 0.9891
1.8123 -1.6392 -1.2019 0.9892
2.4355 -1.5169 -1.4113 0.9873
7.6574 -3.8695 -4.2199 0.9625
7.9601 -3.1680 -4.2139 0.9625
8.2201 -0.9195 -4.0683 0.9638
7.8794 0.5275 -3.8842 0.9654
7.2102 1.8034 -3.6556 0.9674
4.7632 3.9369 -3.0395 0.9728
4.2269 4.1800 -2.9239 0.9738
3.1676 4.5060 -2.7091 0.9757
2.6541 4.5970 -2.6108 0.9766
1.2131 4.6303 -2.3543 0.9789
0.7715 4.5739 -2.2815 0.9795
0.3508 4.4892 -2.2148 0.9801
-0.4272 4.2460 -2.0990 0.9812
-0.7844 4.0923 -2.0494 0.9816
-1.1208 3.9198 -2.0052 0.9820
-2.5013 2.8283 -1.8571 0.9833
-2.7193 2.5719 -1.8410 0.9835
-3.0991 2.0273 -1.8215 0.9836
-3.2609 1.7401 -1.8180 0.9837
-3.4040 1.4434 -1.8186 0.9837
-2.2513 0.3028 -1.1173 0.9899
-2.2893 0.1021 -1.1271 0.9898
-2.3375 -0.9912 -1.2488 0.9887
-3.7011 -1.9750 -2.0634 0.9815
-3.2677 -3.0906 -2.2122 0.9802
-3.0673 -3.4682 -2.2773 0.9796
-2.8353 -3.8481 -2.3510 0.9789
-1.5145 -5.2966 -2.7096 0.9757
-0.0689 -6.1858 -3.0427 0.9728
0.5011 -6.4121 -3.1634 0.9717
1.1117 -6.5904 -3.2873 0.9706
1.1595 -2.4987 -1.3549 0.9878
1.2630 -2.1876 -1.2424 0.9888
1.5399 -1.8214 -1.1731 0.9894
2.2174 -1.5222 -1.3229 0.9881
7.4679 -4.2014 -4.2145 0.9625
8.0716 -2.8027 -4.2026 0.9626
8.2441 -1.2963 -4.1047 0.9635
7.7390 0.8657 -3.8302 0.9659
7.0039 2.0874 -3.5946 0.9679
6.0699 3.0673 -3.3450 0.9701
5.5582 3.4617 -3.2207 0.9712
5.0304 3.7936 -3.0989 0.9723
2.9091 4.5571 -2.6592 0.9762
2.4028 4.6263 -2.5641 0.9770
1.9130 4.6549 -2.4753 0.9778
1.4415 4.6469 -2.3930 0.9785
0.5585 4.5349 -2.2474 0.9798
0.1484 4.4372 -2.1836 0.9804
-0.6084 4.1716 -2.0735 0.9814
-1.8726 3.4172 -1.9166 0.9828
-2.6127 2.7015 -1.8485 0.9834
-2.8213 2.4397 -1.8345 0.9835
-3.0112 2.1673 -1.8248 0.9836
-3.4684 1.2916 -1.8204 0.9836
-3.5829 0.9815 -1.8272 0.9836
-2.3061 0.4154 -1.1525 0.9896
-2.2658 0.2025 -1.1189 0.9899
-2.2359 0.0000 -1.1463 0.9900
-2.2443 -0.2006 -1.1552 0.9899
-2.2416 -0.4039 -1.1677 0.9898
-2.2593 -0.8414 -1.2360 0.9892
-3.4131 -2.4566 -2.1559 0.9813
-3.2430 -2.8043 -2.1980 0.9809
-3.0552 -3.1590 -2.2530 0.9804
-2.6013 -3.8814 -2.3955 0.9792
-0.3217 -5.7690 -2.9622 0.9744
0.2004 -5.9930 -3.0742 0.9734
0.7604 -6.1743 -3.1893 0.9724
1.2218 -2.3524 -1.3589 0.9882
1.4784 -1.9155 -1.2405 0.9892
1.6401 -1.7733 -1.2383 0.9892
1.8300 -1.6551 -1.2650 0.9890
2.5230 -1.5714 -1.5238 0.9867
7.1520 -3.6141 -4.1082 0.9646
7.4354 -2.9592 -4.1027 0.9647
7.6215 -2.2714 -4.0771 0.9649
7.5900 -0.1692 -3.8922 0.9664
7.3982 0.4953 -3.8013 0.9672
7.1299 1.1211 -3.7002 0.9681
6.7959 1.6998 -3.5914 0.9690
6.4084 2.2253 -3.4778 0.9700
5.9777 2.6934 -3.3613 0.9710
5.0312 3.4538 -3.1286 0.9729
4.0307 3.9861 -2.9062 0.9748
2.5436 4.4056 -2.6080 0.9774
1.1673 4.4557 -2.3614 0.9795
-0.4127 4.1027 -2.1140 0.9816
-1.0846 3.7932 -2.0226 0.9824
-1.6783 3.4153 -1.9509 0.9830
-2.4263 2.7435 -1.8776 0.9837
-2.6385 2.4955 -1.8619 0.9838
-2.8323 2.2367 -1.8502 0.9839
-3.1651 1.6890 -1.8392 0.9840
-3.3040 1.4010 -1.8398 0.9840
-3.4242 1.1042 -1.8445 0.9840
-2.2093 0.2971 -1.1428 0.9900
-2.2377 -0.0998 -1.1483 0.9900
-2.2446 -0.3019 -1.1611 0.9899
-2.2425 -0.5081 -1.1788 0.9897
-2.2673 -0.9614 -1.2625 0.9890
-2.3836 -1.2720 -1.3851 0.9879
-3.4753 -2.2734 -2.1291 0.9815
-3.3394 -2.6371 -2.1814 0.9811
-3.1520 -2.9812 -2.2242 0.9807
-2.9546 -3.3408 -2.2865 0.9802
-1.8275 -4.7450 -2.6068 0.9774
-1.0290 -5.3679 -2.8021 0.9757
-0.5677 -5.6431 -2.9076 0.9748
1.0537 -6.2465 -3.2476 0.9719
2.2989 -6.3899 -3.4814 0.9699
1.1877 -2.5594 -1.4465 0.9874
1.2752 -2.2087 -1.3075 0.9886
1.5526 -1.8364 -1.2329 0.9892
2.2479 -1.5431 -1.3979 0.9878
6.9755 -3.9244 -4.1032 0.9647
7.3056 -3.2917 -4.1080 0.9646
7.5409 -2.6184 -4.0924 0.9648
7.6542 -0.5124 -3.9329 0.9661
7.2729 0.8136 -3.7519 0.9676
6.9704 1.4168 -3.6466 0.9685
6.6079 1.9694 -3.5349 0.9695
5.2755 3.2856 -3.1862 0.9725
4.7837 3.6076 -3.0717 0.9734
2.7858 4.3640 -2.6543 0.9770
1.8373 4.4708 -2.4780 0.9785
1.3863 4.4690 -2.3988 0.9792
-0.5881 4.0325 -2.0892 0.9818
-0.9241 3.8775 -2.0435 0.9822
-1.2403 3.7046 -2.0029 0.9826
-2.0734 3.0938 -1.9093 0.9834
-2.5347 2.6209 -1.8692 0.9837
-2.7377 2.3674 -1.8555 0.9839
-3.0888 1.8295 -1.8405 0.9840
-3.3664 1.2537 -1.8417 0.9840
-2.2585 0.4069 -1.1765 0.9897
-2.2093 0.1974 -1.1372 0.9901
-2.1765 -0.0000 -1.1619 0.9902
-2.1789 -0.3925 -1.1819 0.9900
-2.1873 -0.5992 -1.2107 0.9898
-2.1932 -0.8167 -1.2494 0.9894
-2.2033 -1.0524 -1.3035 0.9890
-3.4137 -2.0219 -2.1180 0.9822
-3.2977 -2.3735 -2.1690 0.9817
-3.1333 -2.7094 -2.2113 0.9814
-2.9470 -3.0472 -2.2630 0.9810
-2.7416 -3.3933 -2.3288 0.9804
-2.5033 -3.7352 -2.4004 0.9798
-2.2304 -4.0699 -2.4775 0.9792
-1.9213 -4.3941 -2.5602 0.9785
-0.7677 -5.2636 -2.8397 0.9762
-0.3068 -5.5025 -2.9421 0.9753
0.1908 -5.7064 -3.0480 0.9744
1.2854 -5.9819 -3.2663 0.9726
2.1114 -1.5923 -1.4117 0.9881
2.7736 -1.7274 -1.7444 0.9853
6.7021 -3.3867 -4.0087 0.9665
6.9682 -2.7733 -4.0037 0.9666
7.1454 -2.1295 -3.9803 0.9668
7.2269 -0.8084 -3.8821 0.9676
7.1361 -0.1590 -3.8105 0.9682
6.9655 0.4663 -3.7268 0.9688
6.4191 1.6056 -3.5324 0.9704
4.7880 3.2868 -3.1003 0.9740
3.3746 3.9914 -2.7903 0.9766
1.5484 4.3037 -2.4417 0.9795
0.7166 4.2485 -2.3001 0.9807
0.3265 4.1785 -2.2375 0.9812
-0.3990 3.9665 -2.1282 0.9821
-0.7339 3.8289 -2.0812 0.9825
