ply
format ascii 1.0
element vertex 1586
property float32 x
property float32 y
property float32 z
property float32 I
end_header
-6.5590 7.4164 -0.7420 0.9611
-7.0319 6.6507 -0.7253 0.9619
-8.2686 4.4123 -0.7023 0.9631
-8.6359 3.6620 -0.7030 0.9631
-8.9870 2.8979 -0.7076 0.9628
-9.3248 2.1127 -0.7165 0.9624
-9.9708 0.4446 -0.7480 0.9608
-10.2839 -0.4586 -0.7714 0.9595
-10.5936 -1.4247 -0.8010 0.9580
-11.2122 -3.6155 -0.8828 0.9538
-11.9510 -7.8180 -1.0702 0.9443
0.1703 -2.1797 -0.1638 0.9913
0.5404 -2.0625 -0.1598 0.9915
-1.8515 12.6946 -0.9614 0.9498
-2.7675 11.6129 -0.8946 0.9532
-4.2470 9.7131 -0.7944 0.9584
-5.1798 9.4520 -0.8077 0.9577
-5.7709 8.6108 -0.7768 0.9593
-6.3078 7.8073 -0.7522 0.9605
-7.2552 6.2738 -0.7188 0.9623
-7.6794 5.5273 -0.7091 0.9628
-8.4545 4.0384 -0.7021 0.9631
-8.8133 3.2821 -0.7048 0.9630
-9.1574 2.5085 -0.7115 0.9626
-9.8122 0.8768 -0.7383 0.9613
-4.4480 0.0000 -0.4078 0.9823
-10.2814 -2.8163 -0.9773 0.9581
-10.5082 -3.9133 -1.0280 0.9560
-10.5904 -5.0586 -1.0760 0.9540
-10.8118 -6.4038 -1.1520 0.9508
-11.0258 -7.9359 -1.2454 0.9469
-0.7287 -3.0577 -0.2882 0.9875
0.0743 -2.2212 -0.2037 0.9911
0.2630 -2.1356 -0.1973 0.9914
0.4474 -2.0818 -0.1952 0.9915
0.6322 -2.0379 -0.1956 0.9915
1.0597 -2.0404 -0.2108 0.9908
1.1310 14.4731 -1.3309 0.9434
-0.1475 13.2384 -1.2137 0.9482
-2.1419 11.1738 -1.0430 0.9553
-2.9385 10.2764 -0.9799 0.9580
-6.1579 6.9628 -0.8522 0.9634
-6.6109 6.2525 -0.8342 0.9641
-7.4216 4.8550 -0.8131 0.9650
-7.7883 4.1560 -0.8093 0.9652
-8.1340 3.4491 -0.8100 0.9651
-4.2496 0.5715 -0.3931 0.9829
-4.0002 0.1784 -0.3671 0.9840
-9.6316 -0.4295 -0.8839 0.9620
-9.8976 -1.3311 -0.9156 0.9607
-10.4057 -3.3554 -1.0023 0.9570
-10.7020 -5.7108 -1.1121 0.9524
-0.0253 -2.2714 -0.2082 0.9909
0.1702 -2.1777 -0.2003 0.9913
-1.6991 11.6502 -1.0794 0.9538
-2.5544 10.7187 -1.0102 0.9567
-3.2978 9.8500 -0.9523 0.9591
-3.9531 9.0410 -0.9046 0.9611
-4.8368 8.8261 -0.9227 0.9604
-5.4025 8.0611 -0.8896 0.9618
-6.8245 5.9014 -0.8271 0.9644
-7.2293 5.2034 -0.8166 0.9649
-7.6078 4.5061 -0.8106 0.9651
-7.9636 3.8039 -0.8091 0.9652
-8.2998 3.0909 -0.8120 0.9651
-8.6190 2.3610 -0.8193 0.9647
-4.9080 0.8842 -0.4572 0.9802
-4.1097 0.3672 -0.3783 0.9836
-9.3956 -1.6927 -1.0355 0.9623
-9.6056 -2.6312 -1.0803 0.9607
-9.7938 -3.6472 -1.1336 0.9588
-9.8255 -4.6932 -1.1811 0.9571
-9.9800 -5.9111 -1.2581 0.9544
-10.3133 -10.6638 -1.6091 0.9421
-0.3705 -2.5402 -0.2784 0.9897
-0.1306 -2.3427 -0.2545 0.9906
0.0742 -2.2190 -0.2408 0.9911
0.2628 -2.1336 -0.2332 0.9914
0.8331 -2.0272 -0.2377 0.9912
1.0563 -2.0338 -0.2486 0.9908
2.4105 14.2907 -1.5720 0.9434
-0.1350 12.1142 -1.3141 0.9524
-1.1260 11.1925 -1.2201 0.9557
-1.9836 10.3485 -1.1429 0.9585
-3.3938 8.8118 -1.0242 0.9627
-5.8020 6.5604 -0.9499 0.9654
-6.6381 5.2420 -0.9174 0.9665
-7.3596 3.9272 -0.9048 0.9670
-7.6858 3.2591 -0.9055 0.9670
-7.9924 2.5772 -0.9109 0.9668
-3.7517 0.5046 -0.4106 0.9849
-3.7330 0.1665 -0.4053 0.9851
-3.9258 -0.1751 -0.4262 0.9843
-9.2856 -1.2488 -1.0162 0.9630
-9.7713 -4.1434 -1.1512 0.9582
-10.2740 -9.7171 -1.5339 0.9447
-0.5162 -2.6931 -0.2974 0.9890
0.3547 -2.1029 -0.2313 0.9915
0.7308 -2.0313 -0.2342 0.9914
0.9388 -2.0229 -0.2419 0.9911
1.5160 -2.1565 -0.2859 0.9894
0.4216 12.6110 -1.3686 0.9505
-1.5696 10.7620 -1.1797 0.9572
-2.3710 9.9491 -1.1094 0.9597
-3.0732 9.1793 -1.0500 0.9618
-3.6965 8.4542 -1.0008 0.9636
-4.5356 8.2764 -1.0237 0.9627
-5.0773 7.5759 -0.9892 0.9640
-6.0236 6.2283 -0.9398 0.9657
-6.4410 5.5697 -0.9236 0.9663
-3.9948 0.7197 -0.4403 0.9838
-8.8369 -1.5921 -1.1252 0.9644
-9.0112 -2.4684 -1.1709 0.9630
-9.1666 -3.4137 -1.2258 0.9613
-9.2646 -5.4874 -1.3494 0.9575
-9.3396 -6.7222 -1.4420 0.9547
-9.3315 -11.5498 -1.8607 0.9419
0.0741 -2.2169 -0.2780 0.9911
0.4470 -2.0800 -0.2666 0.9915
1.0562 -2.0336 -0.2872 0.9908
1.3262 -2.0775 -0.3089 0.9901
1.5537 5.9304 -0.7683 0.9756
2.1875 12.9685 -1.6481 0.9484
0.9394 12.0220 -1.5111 0.9526
-1.0434 10.3717 -1.3063 0.9588
-1.8468 9.6344 -1.2293 0.9612
-3.1817 8.2611 -1.1094 0.9649
-3.9897 8.1188 -1.1336 0.9642
-5.0303 6.8272 -1.0627 0.9664
-6.6427 4.3454 -0.9947 0.9685
-7.2831 3.0883 -0.9914 0.9686
-3.5494 0.4773 -0.4488 0.9857
-3.5348 0.1576 -0.4434 0.9858
-3.6310 -0.1619 -0.4555 0.9855
-8.7431 -1.1758 -1.1055 0.9651
-8.9263 -2.0224 -1.1470 0.9638
-9.0914 -2.9316 -1.1971 0.9622
-9.1314 -3.8720 -1.2429 0.9608
-9.2162 -4.9179 -1.3091 0.9588
-9.3866 -8.8778 -1.6191 0.9492
-9.3671 -10.5915 -1.7719 0.9446
-0.2433 -2.4189 -0.3047 0.9902
-0.0252 -2.2645 -0.2838 0.9909
0.1699 -2.1737 -0.2732 0.9912
1.1858 -2.0539 -0.2972 0.9905
1.5107 -2.1490 -0.3292 0.9895
2.8972 13.4824 -1.7281 0.9459
1.5374 12.4829 -1.5761 0.9506
-2.8767 8.5921 -1.1355 0.9641
-4.7881 7.1444 -1.0778 0.9659
-5.2620 6.5129 -1.0493 0.9668
-6.0971 5.2724 -1.0101 0.9680
-7.7082 2.1115 -1.0015 0.9683
-3.8076 0.6859 -0.4848 0.9845
-3.5139 -0.3140 -0.5018 0.9858
-8.3389 -1.5023 -1.2052 0.9663
-8.4840 -2.3240 -1.2512 0.9651
-8.6425 -5.1190 -1.4287 0.9602
-8.4895 -10.5076 -1.9214 0.9469
-0.1302 -2.3353 -0.3327 0.9906
0.0740 -2.2148 -0.3152 0.9911
0.2623 -2.1297 -0.3052 0.9914
0.4468 -2.0791 -0.3025 0.9914
1.3291 -2.0820 -0.3513 0.9901
1.7488 -2.2659 -0.4071 0.9885
4.9200 13.6753 -2.0672 0.9430
0.8657 11.0782 -1.5805 0.9561
-0.9718 9.6604 -1.3810 0.9615
-1.7271 9.0100 -1.3049 0.9636
-2.9937 7.7731 -1.1848 0.9669
-3.7633 7.6580 -1.2137 0.9661
-4.2856 7.0551 -1.1741 0.9672
-5.9680 4.7129 -1.0816 0.9697
-4.1432 0.9387 -0.6042 0.9830
-3.3671 0.4528 -0.4832 0.9864
-3.3610 0.1499 -0.4785 0.9865
-3.6292 -0.4881 -0.5209 0.9853
-8.5483 -2.7565 -1.2775 0.9644
-8.5759 -3.6365 -1.3249 0.9631
-8.6146 -4.5969 -1.3889 0.9613
-8.6620 -5.6664 -1.4723 0.9590
-8.6730 -6.8490 -1.5719 0.9563
-8.6397 -8.1714 -1.6915 0.9531
-0.2429 -2.4150 -0.3452 0.9902
-0.0252 -2.2611 -0.3216 0.9909
0.3544 -2.1011 -0.3031 0.9914
0.5390 -2.0572 -0.3025 0.9914
1.1868 -2.0557 -0.3376 0.9905
4.0907 13.1873 -1.9639 0.9457
-0.5575 9.9986 -1.4244 0.9603
-1.3609 9.3312 -1.3413 0.9626
-2.0712 8.6914 -1.2709 0.9645
-2.7030 8.0734 -1.2110 0.9662
-4.0306 7.3550 -1.1929 0.9667
-4.9845 6.1693 -1.1281 0.9685
-5.7869 5.0042 -1.0882 0.9696
-7.3191 2.0049 -1.0794 0.9698
-3.3525 0.2996 -0.4787 0.9865
-8.0130 -2.1950 -1.3230 0.9669
-8.1090 -3.0199 -1.3779 0.9656
-8.0735 -3.8564 -1.4247 0.9644
-8.0437 -6.9557 -1.6933 0.9578
-7.9429 -8.2129 -1.8194 0.9548
-7.7776 -9.6264 -1.9707 0.9511
-0.1300 -2.3316 -0.3719 0.9906
0.0740 -2.2127 -0.3525 0.9911
0.6316 -2.0359 -0.3394 0.9914
1.0580 -2.0371 -0.3655 0.9907
1.3320 -2.0865 -0.3942 0.9900
1.7586 -2.2786 -0.4583 0.9884
-0.1074 9.6389 -1.5350 0.9617
-0.9092 9.0376 -1.4464 0.9639
-1.6211 8.4573 -1.3712 0.9657
-2.2558 7.8889 -1.3066 0.9673
-2.8258 7.3371 -1.2520 0.9687
-3.5603 7.2449 -1.2854 0.9678
-4.0616 6.6863 -1.2457 0.9688
-4.5194 6.1337 -1.2132 0.9696
-4.9388 5.5844 -1.1871 0.9703
-5.3243 5.0357 -1.1670 0.9708
-6.3093 3.3667 -1.1388 0.9714
-6.5882 2.7937 -1.1395 0.9714
-3.9744 0.9005 -0.6489 0.9836
-3.2540 0.4376 -0.5228 0.9868
-3.3344 -0.1487 -0.5315 0.9866
-7.9555 -1.8025 -1.2989 0.9675
-8.0643 -2.6004 -1.3492 0.9663
-8.0836 -3.4277 -1.3981 0.9651
-8.0844 -4.3140 -1.4592 0.9636
-8.0990 -5.2981 -1.5411 0.9616
-8.0737 -6.3757 -1.6382 0.9592
-8.0006 -7.5669 -1.7535 0.9564
-7.8694 -8.8981 -1.8915 0.9530
-0.5155 -2.6891 -0.4360 0.9890
-0.0252 -2.2576 -0.3595 0.9909
0.1695 -2.1695 -0.3465 0.9912
0.5387 -2.0563 -0.3385 0.9914
0.7310 -2.0319 -0.3439 0.9913
0.9390 -2.0235 -0.3552 0.9910
1.1879 -2.0575 -0.3783 0.9904
5.2598 12.7990 -2.2035 0.9455
1.3085 6.0893 -0.9918 0.9751
1.3050 10.5956 -1.7000 0.9577
0.3327 9.9497 -1.5852 0.9605
-0.5205 9.3350 -1.4888 0.9628
-3.1345 7.1689 -1.2459 0.9688
-4.2956 6.4094 -1.2286 0.9692
-5.8464 4.2080 -1.1470 0.9712
-6.4516 3.0817 -1.1385 0.9715
-6.7194 2.5023 -1.1418 0.9714
-4.5041 1.2338 -0.7436 0.9813
-3.2454 0.2900 -0.5188 0.9869
-3.2817 -0.2933 -0.5810 0.9867
-7.4886 -1.3491 -1.3417 0.9696
-7.5894 -2.0790 -1.3875 0.9685
-7.6636 -2.8540 -1.4420 0.9673
-7.6175 -3.6386 -1.4885 0.9663
-7.6126 -4.5090 -1.5601 0.9647
-7.5814 -5.4568 -1.6471 0.9628
-7.5049 -6.4897 -1.7495 0.9605
-7.3739 -7.6245 -1.8703 0.9578
-6.9005 -10.2962 -2.1855 0.9509
-6.5217 -11.9006 -2.3928 0.9464
-0.7471 -3.1352 -0.5683 0.9870
-0.3693 -2.5322 -0.4512 0.9897
-0.1298 -2.3279 -0.4111 0.9906
0.0739 -2.2105 -0.3900 0.9911
0.4464 -2.0773 -0.3746 0.9914
0.6316 -2.0361 -0.3759 0.9914
0.8334 -2.0280 -0.3866 0.9911
1.7685 -2.2916 -0.5104 0.9883
5.5567 11.9744 -2.3277 0.9478
1.7088 10.1308 -1.8116 0.9591
-1.5267 7.9648 -1.4300 0.9676
-2.1303 7.4501 -1.3663 0.9690
-2.6748 6.9451 -1.3123 0.9702
-3.8588 6.3524 -1.3106 0.9703
-4.2993 5.8350 -1.2780 0.9710
-5.0745 4.7994 -1.2316 0.9720
-5.4161 4.2770 -1.2169 0.9724
-5.7306 3.7488 -1.2075 0.9726
-6.0200 3.2124 -1.2032 0.9727
-7.5422 -1.7088 -1.3636 0.9691
-7.0495 -9.5676 -2.0955 0.9529
-6.7278 -11.0754 -2.2850 0.9487
-6.2823 -12.7841 -2.5117 0.9438
-0.0251 -2.2552 -0.3977 0.9909
0.3541 -2.0992 -0.3754 0.9914
1.5177 -2.1589 -0.4653 0.9893
3.4188 11.0213 -2.0347 0.9542
1.3020 6.0588 -1.0927 0.9751
0.3106 9.2899 -1.6390 0.9629
-0.4880 8.7514 -1.5455 0.9650
-1.1998 8.2265 -1.4659 0.9668
-1.8364 7.7061 -1.3968 0.9683
-2.4094 7.1965 -1.3382 0.9696
-3.1001 7.0902 -1.3645 0.9691
-4.5056 5.5766 -1.2641 0.9713
-4.8928 5.0591 -1.2410 0.9718
-5.2488 4.5388 -1.2236 0.9722
-5.8784 3.4817 -1.2047 0.9726
-6.4106 2.3873 -1.2062 0.9726
-3.4371 0.6192 -0.6158 0.9859
-3.3117 -0.5966 -0.6512 0.9864
-7.2076 -3.4428 -1.5458 0.9680
-7.1811 -4.2534 -1.6151 0.9666
-7.1291 -5.1312 -1.6998 0.9648
-7.0310 -6.0800 -1.7988 0.9628
-6.6602 -8.2434 -2.0509 0.9577
-6.3627 -9.4939 -2.2117 0.9545
-5.9704 -10.8947 -2.4041 0.9506
-5.4504 -12.4654 -2.6328 0.9461
0.2616 -2.1237 -0.4141 0.9913
0.6317 -2.0363 -0.4126 0.9914
0.8335 -2.0282 -0.4243 0.9911
1.0598 -2.0406 -0.4450 0.9907
8.4062 11.9579 -2.8286 0.9422
3.7524 10.4301 -2.1451 0.9558
2.6012 9.9289 -1.9863 0.9590
1.5915 9.4353 -1.8517 0.9618
0.6993 8.9494 -1.7372 0.9641
-0.0944 8.4707 -1.6393 0.9661
-0.8046 7.9977 -1.5555 0.9678
-1.4422 7.5237 -1.4825 0.9693
-2.5482 6.6164 -1.3721 0.9715
-3.6742 6.0486 -1.3696 0.9716
-4.0985 5.5626 -1.3371 0.9722
-4.8458 4.5831 -1.2907 0.9732
-5.7547 3.0708 -1.2623 0.9738
-6.0088 2.5480 -1.2630 0.9738
-3.6833 0.8345 -0.7309 0.9847
-3.1273 -0.1395 -0.6058 0.9873
-3.2339 -0.4349 -0.6315 0.9868
-7.2520 -3.0751 -1.5243 0.9684
-7.1919 -3.8377 -1.5775 0.9673
-7.0863 -5.5960 -1.7474 0.9639
-6.9621 -6.5848 -1.8545 0.9617
-6.7782 -7.6642 -1.9800 0.9592
-5.7285 -11.6572 -2.5135 0.9485
-0.0251 -2.2534 -0.4361 0.9909
0.1692 -2.1654 -0.4203 0.9912
0.5382 -2.0545 -0.4110 0.9914
1.1900 -2.0611 -0.4606 0.9904
7.4745 11.7085 -2.6881 0.9450
4.3904 10.6834 -2.2352 0.9540
0.2912 8.7092 -1.6863 0.9651
-1.1318 7.7599 -1.5176 0.9686
-1.7370 7.2887 -1.4500 0.9699
-2.2841 6.8224 -1.3923 0.9711
-2.9633 6.7772 -1.4314 0.9703
-3.8910 5.8058 -1.3525 0.9719
-4.2974 5.3190 -1.3233 0.9725
-4.6706 4.8294 -1.3001 0.9730
-5.3292 3.8357 -1.2706 0.9736
-5.8846 2.8108 -1.2620 0.9738
-4.1640 1.1407 -0.8355 0.9826
-3.2303 -0.5820 -0.6920 0.9867
-6.8577 -1.8785 -1.4990 0.9714
-6.8372 -3.2658 -1.5974 0.9695
-6.7935 -4.0238 -1.6646 0.9682
-6.7253 -4.8406 -1.7469 0.9667
-6.4426 -6.6616 -1.9538 0.9628
-5.9013 -8.8054 -2.2347 0.9576
-4.3264 -12.9223 -2.8729 0.9458
-0.7708 -3.2344 -0.7010 0.9865
-0.3719 -2.5496 -0.5432 0.9895
-0.1304 -2.3382 -0.4937 0.9905
0.0739 -2.2102 -0.4662 0.9910
0.2613 -2.1217 -0.4507 0.9913
1.0608 -2.0423 -0.4852 0.9906
9.4296 11.1535 -3.0791 0.9420
6.0280 10.4408 -2.5416 0.9519
4.6689 10.0612 -2.3384 0.9557
1.4887 8.8259 -1.8870 0.9641
0.6568 8.4050 -1.7773 0.9661
-1.3660 7.1262 -1.5297 0.9708
-1.9150 6.6973 -1.4685 0.9719
-2.5278 6.5633 -1.4828 0.9717
-3.5055 5.7709 -1.4235 0.9728
-5.2437 3.4303 -1.3210 0.9747
-5.5103 2.9404 -1.3167 0.9748
-5.7534 2.4397 -1.3175 0.9748
-3.5520 0.8048 -0.7678 0.9852
-3.0346 0.4081 -0.6455 0.9876
-3.0505 -0.1360 -0.6438 0.9876
-3.1545 -0.4243 -0.6710 0.9871
-6.8940 -2.9233 -1.5786 0.9699
-6.0662 -8.2331 -2.1560 0.9591
-5.7131 -9.4051 -2.3199 0.9560
-3.9313 -13.7485 -3.0146 0.9432
-0.2440 -2.4258 -0.5140 0.9901
0.1690 -2.1633 -0.4575 0.9912
0.3538 -2.0973 -0.4484 0.9913
0.7312 -2.0325 -0.4554 0.9912
0.9393 -2.0241 -0.4704 0.9909
1.1911 -2.0630 -0.5022 0.9903
8.4802 10.9881 -2.9262 0.9448
5.3218 10.2464 -2.4341 0.9539
1.2950 6.0265 -1.2995 0.9751
1.0611 8.6157 -1.8301 0.9651
-0.4332 7.7697 -1.6406 0.9687
-1.0706 7.3407 -1.5639 0.9701
-1.6471 6.9118 -1.4979 0.9714
-2.8214 6.4526 -1.4847 0.9716
-3.2874 5.9987 -1.4421 0.9724
-3.7144 5.5423 -1.4066 0.9731
-4.1064 5.0826 -1.3775 0.9736
-4.4666 4.6184 -1.3545 0.9741
-5.1014 3.6717 -1.3251 0.9746
-5.3800 3.1866 -1.3182 0.9748
-5.8665 2.1847 -1.3198 0.9747
-4.0001 1.0957 -0.8744 0.9832
-3.2435 0.5843 -0.6948 0.9866
-3.0430 -0.2719 -0.6973 0.9875
-3.1642 -0.5701 -0.7338 0.9869
-6.5676 -2.4458 -1.5996 0.9717
-6.3624 -4.5794 -1.7892 0.9683
-6.2358 -5.3923 -1.8816 0.9667
-5.8147 -7.1969 -2.1118 0.9628
-5.4996 -8.2060 -2.2547 0.9603
-4.5890 -10.4953 -2.6145 0.9541
-0.3732 -2.5585 -0.5901 0.9894
-0.1308 -2.3449 -0.5360 0.9904
0.2614 -2.1227 -0.4882 0.9913
0.6318 -2.0367 -0.4867 0.9913
0.8336 -2.0286 -0.5006 0.9910
1.3439 -2.1052 -0.5701 0.9898
6.9330 9.8623 -2.7515 0.9517
5.5408 9.5969 -2.5293 0.9556
3.2276 8.9712 -2.1761 0.9616
0.6189 7.9200 -1.8132 0.9679
-0.7199 7.1564 -1.6416 0.9709
-1.8220 6.3719 -1.5126 0.9732
-2.4521 6.3668 -1.5572 0.9724
-2.9207 5.9435 -1.5115 0.9732
-3.3506 5.5158 -1.4730 0.9739
-4.7475 3.7490 -1.3807 0.9755
-5.0280 3.2892 -1.3713 0.9757
-5.2843 2.8197 -1.3671 0.9757
-5.5173 2.3395 -1.3678 0.9757
-5.7278 1.8470 -1.3736 0.9756
-3.4289 0.7769 -0.8025 0.9857
-2.9625 0.3984 -0.6823 0.9878
-2.9453 0.1313 -0.6729 0.9880
-3.0959 -0.4164 -0.7130 0.9873
-6.5141 -1.4759 -1.5245 0.9730
-6.5572 -2.1144 -1.5725 0.9721
-6.3052 -4.9792 -1.8338 0.9676
-6.1532 -5.8196 -1.9331 0.9658
-5.9439 -6.7208 -2.0478 0.9639
-5.6671 -7.6914 -2.1806 0.9616
-4.8578 -9.8852 -2.5139 0.9558
-3.5792 -12.5173 -2.9715 0.9480
-0.0252 -2.2663 -0.5173 0.9907
0.1695 -2.1686 -0.4965 0.9911
1.5285 -2.1744 -0.6066 0.9892
6.2144 9.7347 -2.6360 0.9537
4.9085 9.4505 -2.4306 0.9572
0.9982 8.1046 -1.8638 0.9671
-0.4098 7.3499 -1.6802 0.9702
-3.1402 5.7302 -1.4914 0.9735
-4.5977 3.9758 -1.3873 0.9754
-4.8908 3.5202 -1.3754 0.9756
-5.4036 2.5811 -1.3668 0.9757
-5.6253 2.0949 -1.3701 0.9757
-2.9277 0.2616 -0.6709 0.9880
-2.9882 -0.2670 -0.7374 0.9877
-6.2470 -1.7112 -1.5921 0.9737
-5.8985 -5.1007 -1.9168 0.9684
-4.7477 -8.6635 -2.4283 0.9601
-3.6380 -10.8661 -2.8166 0.9539
-0.3745 -2.5675 -0.6378 0.9894
-0.1311 -2.3517 -0.5789 0.9903
0.4464 -2.0775 -0.5223 0.9913
0.8337 -2.0288 -0.5391 0.9910
1.0626 -2.0459 -0.5667 0.9905
1.3470 -2.1100 -0.6153 0.9897
1.8103 -2.3456 -0.7283 0.9879
9.9536 9.8434 -3.4409 0.9440
7.8948 9.3380 -3.0057 0.9509
6.3687 9.0596 -2.7220 0.9554
5.1235 8.8741 -2.5187 0.9587
4.0119 8.6454 -2.3427 0.9615
0.5846 7.4818 -1.8446 0.9696
-0.6836 6.7949 -1.6786 0.9723
-1.7469 6.1092 -1.5618 0.9742
-2.3419 6.0805 -1.6016 0.9735
-2.7931 5.6838 -1.5566 0.9743
-3.5889 4.8710 -1.4872 0.9754
-3.9395 4.4545 -1.4617 0.9758
-4.5572 3.5988 -1.4273 0.9764
-4.8278 3.1582 -1.4180 0.9765
-5.0745 2.7078 -1.4138 0.9766
-5.4994 1.7733 -1.4203 0.9765
-3.3132 0.7507 -0.8350 0.9861
-2.8899 0.3886 -0.7167 0.9881
-2.8978 0.1292 -0.7130 0.9881
-2.9494 -0.1315 -0.7257 0.9879
-6.2596 -2.0185 -1.6166 0.9733
-6.1587 -3.2863 -1.7158 0.9717
-5.5956 -6.3271 -2.0761 0.9658
-4.9584 -8.1626 -2.3475 0.9614
-4.5127 -9.1830 -2.5150 0.9587
-3.2820 -11.4778 -2.9343 0.9520
-0.5266 -2.7474 -0.6876 0.9885
0.1699 -2.1747 -0.5362 0.9911
0.3546 -2.1025 -0.5241 0.9913
0.7314 -2.0329 -0.5310 0.9911
0.9404 -2.0265 -0.5491 0.9908
1.1932 -2.0667 -0.5866 0.9902
9.0880 9.8259 -3.2899 0.9464
3.5006 8.5182 -2.2637 0.9628
2.5570 8.2429 -2.1213 0.9651
0.9417 7.6459 -1.8936 0.9688
-0.3887 6.9704 -1.7160 0.9717
-0.9651 6.6174 -1.6438 0.9728
-1.4911 6.2570 -1.5811 0.9739
-2.0974 6.2647 -1.6239 0.9732
-2.5723 5.8829 -1.5782 0.9739
-3.4023 5.0766 -1.5022 0.9751
-3.7679 4.6636 -1.4737 0.9756
-4.1040 4.2435 -1.4511 0.9760
-4.4127 3.8158 -1.4339 0.9763
-4.6956 3.3797 -1.4220 0.9765
-4.9541 2.9343 -1.4153 0.9766
-5.1892 2.4787 -1.4135 0.9766
-3.8036 1.0419 -0.9694 0.9839
-2.8807 0.2574 -0.7109 0.9882
-2.8745 -0.0000 -0.7574 0.9882
-3.0385 -0.5474 -0.8135 0.9873
-5.9776 -1.6374 -1.6331 0.9747
-5.9862 -2.2293 -1.6832 0.9739
-5.9175 -2.8265 -1.7280 0.9732
-5.8346 -3.4559 -1.7869 0.9723
-5.7361 -4.1286 -1.8623 0.9712
-5.5935 -4.8369 -1.9485 0.9699
-5.1508 -6.3752 -2.1596 0.9667
-3.9571 -9.0500 -2.6027 0.9600
-2.6530 -11.1324 -3.0155 0.9538
-0.3758 -2.5766 -0.6861 0.9893
0.0745 -2.2291 -0.5877 0.9908
0.2629 -2.1346 -0.5667 0.9911
0.6338 -2.0433 -0.5637 0.9912
0.8348 -2.0314 -0.5787 0.9910
1.0636 -2.0477 -0.6080 0.9905
1.3501 -2.1149 -0.6612 0.9897
10.7071 8.8497 -3.6603 0.9442
7.5961 8.9847 -3.1002 0.9525
5.8857 8.3725 -2.6967 0.9585
4.7619 8.2479 -2.5095 0.9614
2.8294 7.8645 -2.2023 0.9660
1.9973 7.6237 -2.0766 0.9679
-0.6505 6.4656 -1.7123 0.9735
-1.1766 6.1382 -1.6468 0.9745
-2.2403 5.8168 -1.6425 0.9745
-3.4440 4.6742 -1.5299 0.9763
-4.0945 3.8726 -1.4850 0.9770
-4.6415 3.0363 -1.4615 0.9773
-4.8793 2.6036 -1.4573 0.9774
-5.0942 2.1601 -1.4580 0.9774
-5.2869 1.7048 -1.4637 0.9773
-3.2212 0.7298 -0.8703 0.9864
-2.8316 0.3808 -0.7529 0.9883
-2.8515 0.1271 -0.7521 0.9883
-2.9836 -0.4013 -0.7933 0.9876
-5.9857 -1.9301 -1.6572 0.9743
-5.8747 -3.1348 -1.7546 0.9728
-5.0015 -6.7881 -2.2218 0.9657
-4.6479 -7.6515 -2.3590 0.9636
-4.2111 -8.5693 -2.5159 0.9613
-3.6765 -9.5459 -2.6955 0.9586
-3.0267 -10.5850 -2.9009 0.9555
0.1704 -2.1808 -0.5764 0.9910
0.3558 -2.1091 -0.5636 0.9912
0.5395 -2.0592 -0.5609 0.9912
8.3138 8.9888 -3.2263 0.9506
6.6439 8.6087 -2.8654 0.9560
4.2418 8.1668 -2.4249 0.9626
3.2770 7.9740 -2.2717 0.9650
1.2919 6.0118 -1.6203 0.9749
0.8905 7.2305 -1.9196 0.9703
-0.9193 6.3031 -1.6785 0.9740
-2.0089 6.0002 -1.6673 0.9742
-2.4623 5.6314 -1.6195 0.9749
-2.8795 5.2544 -1.5788 0.9755
-3.6170 4.4769 -1.5166 0.9765
-3.9421 4.0761 -1.4942 0.9768
-4.2405 3.6669 -1.4772 0.9771
-4.9895 2.3833 -1.4570 0.9774
-5.1933 1.9340 -1.4602 0.9773
-3.7365 1.0235 -1.0208 0.9841
-3.0018 0.5408 -0.8037 0.9875
-2.8279 -0.0000 -0.7957 0.9883
-2.8819 -0.2575 -0.8141 0.9880
-2.9786 -0.5366 -0.8515 0.9875
-5.5683 -3.2981 -1.8209 0.9735
-5.4637 -3.9325 -1.8940 0.9724
-5.3162 -4.5971 -1.9774 0.9712
-4.8693 -6.0268 -2.1800 0.9683
-4.1689 -7.6073 -2.4407 0.9646
-3.1327 -9.3567 -2.7762 0.9598
0.4492 -2.0906 -0.6016 0.9912
0.6363 -2.0513 -0.6043 0.9911
1.0695 -2.0591 -0.6528 0.9904
3.5135 7.5713 -2.3484 0.9659
1.8884 7.2080 -2.0965 0.9695
1.1772 6.9787 -1.9912 0.9710
-0.0719 6.4529 -1.8157 0.9735
-0.6201 6.1643 -1.7431 0.9746
-1.1272 5.8806 -1.6847 0.9754
-1.6912 5.9144 -1.7308 0.9748
-2.1464 5.5730 -1.6803 0.9755
-3.9388 3.7252 -1.5253 0.9777
-4.6969 2.5063 -1.4979 0.9781
-3.1370 0.7107 -0.9050 0.9867
-2.7751 0.3732 -0.7878 0.9884
-2.8062 0.1251 -0.7903 0.9884
-2.8531 -0.1272 -0.8035 0.9882
-2.9298 -0.3940 -0.8317 0.9878
-3.0353 -0.6877 -0.8756 0.9872
-5.7180 -2.4247 -1.7475 0.9745
-5.3956 -4.2609 -1.9344 0.9718
-5.2246 -4.9415 -2.0233 0.9706
-4.7207 -6.4070 -2.2391 0.9675
-3.9451 -8.0281 -2.5167 0.9635
-0.2470 -2.4554 -0.6943 0.9898
0.1709 -2.1870 -0.6172 0.9909
0.3569 -2.1158 -0.6037 0.9911
1.2007 -2.0797 -0.6756 0.9901
12.1455 7.5643 -4.0258 0.9423
10.5196 7.9332 -3.7071 0.9467
7.6559 8.2775 -3.1723 0.9542
6.4061 8.3006 -2.9500 0.9574
4.9446 7.7456 -2.5855 0.9625
3.9688 7.6412 -2.4226 0.9649
3.0785 7.4912 -2.2787 0.9669
2.2659 7.3045 -2.1518 0.9687
1.2928 6.0161 -1.7313 0.9748
0.8442 6.8548 -1.9432 0.9717
-1.9234 5.7450 -1.7046 0.9751
-2.3605 5.3985 -1.6577 0.9758
-3.4766 4.3030 -1.5565 0.9773
-3.7912 3.9201 -1.5344 0.9776
-4.3443 3.1269 -1.5060 0.9780
-4.9989 1.8616 -1.5008 0.9781
-3.6501 0.9998 -1.0648 0.9844
-2.9229 0.5266 -0.8356 0.9877
-2.7884 0.2492 -0.7877 0.9884
-2.7824 0.0000 -0.8330 0.9884
-2.8308 -0.2529 -0.8509 0.9882
-2.9224 -0.5265 -0.8890 0.9877
-3.0126 -0.8253 -0.9351 0.9870
-5.4288 -2.5931 -1.8012 0.9752
-5.2137 -3.7526 -1.9232 0.9735
-5.0628 -4.3780 -2.0038 0.9724
-4.6147 -5.7116 -2.1983 0.9698
-4.3045 -6.4227 -2.3147 0.9682
-3.4707 -7.9378 -2.5936 0.9645
-2.9268 -8.7419 -2.7599 0.9622
0.0750 -2.2421 -0.6716 0.9907
0.8416 -2.0478 -0.6628 0.9908
1.3733 -2.1513 -0.7641 0.9894
11.7636 6.6181 -4.0409 0.9452
10.3132 7.0796 -3.7450 0.9491
8.9531 7.3999 -3.4774 0.9527
6.5150 7.7060 -3.0210 0.9587
4.1659 7.2157 -2.4944 0.9658
3.3053 7.1227 -2.3508 0.9677
2.5138 6.9873 -2.2231 0.9695
1.7874 6.8224 -2.1114 0.9710
-1.1226 5.8565 -1.7853 0.9754
-1.6206 5.6674 -1.7647 0.9757
-2.0593 5.3468 -1.7153 0.9764
-2.4644 5.0149 -1.6728 0.9769
-3.1833 4.3204 -1.6066 0.9778
-4.0606 3.2066 -1.5490 0.9786
-4.5262 2.4152 -1.5359 0.9788
-4.9028 1.5809 -1.5422 0.9787
-2.8066 -0.1252 -0.8411 0.9883
-2.8771 -0.3869 -0.8691 0.9880
-5.4770 -2.3224 -1.7810 0.9755
-5.3720 -2.8666 -1.8229 0.9749
-5.2733 -3.4496 -1.8865 0.9740
-5.1438 -4.0620 -1.9622 0.9730
-4.7469 -5.3674 -2.1452 0.9705
-4.1245 -6.7898 -2.3784 0.9674
-3.7089 -7.5473 -2.5176 0.9655
-3.2105 -8.3360 -2.6743 0.9634
-2.6178 -9.1550 -2.8507 0.9610
-0.0256 -2.2932 -0.6866 0.9905
0.1714 -2.1933 -0.6586 0.9909
0.7388 -2.0535 -0.6534 0.9909
0.9519 -2.0512 -0.6770 0.9906
1.5778 -2.2444 -0.8213 0.9886
11.0276 6.8680 -3.8894 0.9472
9.6215 7.2559 -3.6078 0.9509
8.3083 7.5145 -3.3538 0.9543
7.0896 7.6652 -3.1259 0.9573
5.9631 7.7266 -2.9220 0.9601
4.8144 7.5416 -2.6786 0.9633
2.9013 7.0598 -2.2851 0.9686
-1.3877 5.8232 -1.7922 0.9753
-1.8443 5.5086 -1.7391 0.9760
-2.2659 5.1822 -1.6933 0.9767
-2.6551 4.8450 -1.6540 0.9772
-3.0143 4.4977 -1.6210 0.9776
-3.9298 3.3983 -1.5554 0.9785
-4.4183 2.6170 -1.5374 0.9788
-4.8168 1.7938 -1.5388 0.9788
-3.5598 0.9751 -1.1050 0.9847
-2.8473 0.5130 -0.8662 0.9880
-2.7380 0.0000 -0.8695 0.9886
-2.8694 -0.5170 -0.9260 0.9878
-2.9540 -0.8092 -0.9727 0.9872
-5.2114 -2.4893 -1.8342 0.9761
-4.9835 -3.5869 -1.9500 0.9746
-4.8303 -4.1769 -2.0280 0.9736
-4.6320 -4.7894 -2.1160 0.9724
-4.3832 -5.4251 -2.2150 0.9712
-3.7084 -6.7670 -2.4507 0.9681
-3.2672 -7.4722 -2.5900 0.9664
-2.7447 -8.1979 -2.7456 0.9644
-0.1327 -2.3798 -0.7570 0.9900
0.0752 -2.2488 -0.7146 0.9906
0.2655 -2.1554 -0.6897 0.9909
0.8450 -2.0562 -0.7060 0.9907
1.0816 -2.0825 -0.7452 0.9902
13.3768 4.6449 -4.4971 0.9423
12.0380 5.4241 -4.1933 0.9461
7.1352 7.0562 -3.1870 0.9588
5.0891 7.2394 -2.8104 0.9635
4.1203 7.1365 -2.6171 0.9660
3.1187 6.7206 -2.3530 0.9694
2.3792 6.6130 -2.2320 0.9709
0.4765 6.0976 -1.9424 0.9747
-0.5753 5.7185 -1.8253 0.9762
-1.0977 5.7264 -1.8517 0.9758
-1.9782 5.1362 -1.7480 0.9772
-2.3696 4.8221 -1.7063 0.9777
-3.0657 4.1606 -1.6413 0.9785
-3.9156 3.0922 -1.5845 0.9793
-4.3659 2.3297 -1.5716 0.9794
-4.7285 1.5247 -1.5778 0.9794
-2.8255 -0.3800 -0.9054 0.9881
-2.9205 -0.6617 -0.9510 0.9875
-3.1071 -1.0019 -1.0368 0.9864
-5.2534 -2.2276 -1.8122 0.9763
-5.1483 -2.7472 -1.8533 0.9758
-5.0446 -3.3001 -1.9145 0.9750
-4.9122 -3.8791 -1.9878 0.9741
-4.2380 -5.7518 -2.2690 0.9705
-3.0167 -7.8326 -2.6656 0.9654
-2.4499 -8.5677 -2.8300 0.9633
-0.5662 -2.9536 -0.9551 0.9875
-0.2499 -2.4844 -0.7930 0.9896
-0.0256 -2.3002 -0.7305 0.9904
0.5447 -2.0790 -0.6826 0.9910
0.7418 -2.0619 -0.6959 0.9908
0.9571 -2.0626 -0.7221 0.9905
1.2148 -2.1041 -0.7716 0.9899
10.0896 6.2839 -3.7750 0.9513
8.8577 6.6799 -3.5233 0.9545
6.5967 7.1323 -3.0854 0.9600
3.5304 6.7973 -2.4325 0.9684
2.7418 6.6717 -2.2908 0.9702
2.0312 6.5481 -2.1773 0.9716
1.2946 6.0247 -1.9570 0.9745
0.7637 6.2011 -1.9842 0.9741
-0.8424 5.7760 -1.8538 0.9758
-1.3307 5.5840 -1.8231 0.9762
-1.7707 5.2887 -1.7713 0.9769
-2.1777 4.9806 -1.7264 0.9774
-2.5541 4.6608 -1.6879 0.9779
-3.2227 3.9888 -1.6286 0.9787
-4.0366 2.9054 -1.5795 0.9793
-4.4647 2.1326 -1.5714 0.9794
-2.6951 0.2408 -0.8593 0.9887
-2.6945 -0.0000 -0.9053 0.9887
-2.7374 -0.2446 -0.9234 0.9885
-2.8971 -0.7936 -1.0092 0.9874
-5.0645 -1.8860 -1.8157 0.9775
-5.0087 -2.3924 -1.8649 0.9768
-4.8867 -2.8944 -1.9082 0.9763
-4.6160 -3.9916 -2.0503 0.9746
-4.4180 -4.5682 -2.1352 0.9735
-4.1717 -5.1634 -2.2303 0.9724
-3.0843 -7.0540 -2.5867 0.9680
-1.9973 -8.3808 -2.8947 0.9643
-0.1339 -2.4008 -0.8079 0.9899
0.0754 -2.2556 -0.7583 0.9905
0.2663 -2.1626 -0.7321 0.9908
0.4536 -2.1111 -0.7255 0.9909
0.6440 -2.0761 -0.7303 0.9909
0.8486 -2.0648 -0.7500 0.9906
13.2593 3.3164 -4.5921 0.9440
9.8507 5.5419 -3.7975 0.9534
8.7402 5.9998 -3.5619 0.9563
7.6712 6.3404 -3.3438 0.9589
6.6525 6.5787 -3.1435 0.9613
5.6891 6.7291 -2.9606 0.9635
3.9345 6.8148 -2.6439 0.9673
-0.5738 5.7037 -1.9260 0.9761
-1.4938 5.2244 -1.8257 0.9773
-2.9551 4.0108 -1.6738 0.9792
-3.2536 3.6790 -1.6501 0.9795
-3.5280 3.3368 -1.6316 0.9797
-3.7793 2.9845 -1.6180 0.9799
-4.0081 2.6220 -1.6092 0.9800
-4.4005 1.8660 -1.6059 0.9800
-4.5645 1.4718 -1.6113 0.9800
-2.6272 0.5952 -0.9051 0.9887
-2.6180 0.3521 -0.8875 0.9889
-2.6762 0.1193 -0.9001 0.9888
-2.8653 -0.6492 -0.9871 0.9877
-5.0761 -1.6368 -1.7920 0.9777
-4.9404 -2.6362 -1.8814 0.9766
-4.6985 -3.7103 -2.0115 0.9751
-4.5227 -4.2776 -2.0915 0.9741
-4.0288 -5.4679 -2.2819 0.9717
-3.6995 -6.0902 -2.3941 0.9704
-2.3007 -8.0462 -2.8117 0.9653
-0.5788 -3.0196 -1.0330 0.9871
-0.2524 -2.5087 -0.8471 0.9894
-0.0257 -2.3078 -0.7754 0.9903
1.6318 -2.3212 -0.9533 0.9881
13.8033 2.8056 -4.7325 0.9423
12.7014 3.7854 -4.4529 0.9456
11.5621 4.6016 -4.1810 0.9488
9.2910 5.7865 -3.6775 0.9549
8.1998 6.1838 -3.4506 0.9576
6.1637 6.6641 -3.0499 0.9624
4.3517 6.8168 -2.7172 0.9664
3.5266 6.7899 -2.5706 0.9682
1.9288 6.2180 -2.1873 0.9729
1.3068 6.0812 -2.0898 0.9741
0.1913 5.7230 -1.9239 0.9761
-0.3158 5.6637 -1.9059 0.9763
-1.2777 5.3615 -1.8518 0.9770
-1.7021 5.0837 -1.8012 0.9776
-2.0953 4.7922 -1.7573 0.9782
-2.4596 4.4882 -1.7196 0.9786
-2.7965 4.1727 -1.6877 0.9790
-3.3938 3.5092 -1.6402 0.9796
-3.8965 2.8045 -1.6130 0.9799
-4.3105 2.0589 -1.6050 0.9800
-2.6265 0.7195 -0.9150 0.9886
-2.7169 0.4895 -0.9275 0.9884
-2.8417 -0.7784 -1.0448 0.9876
-4.4179 -3.8203 -2.0710 0.9755
-4.2209 -4.3643 -2.1529 0.9746
-3.9776 -4.9232 -2.2443 0.9735
-3.6833 -5.4959 -2.3460 0.9723
-2.9191 -6.6762 -2.5837 0.9695
-2.4367 -7.2780 -2.7215 0.9680
-0.3966 -2.7193 -0.9744 0.9884
0.4552 -2.1181 -0.7682 0.9908
0.6467 -2.0846 -0.7739 0.9908
1.4116 -2.2113 -0.9303 0.9889
12.0545 3.0150 -4.4060 0.9486
8.1113 5.5681 -3.4886 0.9591
2.9795 6.4207 -2.5099 0.9704
1.5358 5.8621 -2.1488 0.9746
0.9663 5.7287 -2.0600 0.9756
-0.0627 5.6246 -1.9945 0.9764
-1.4368 5.0247 -1.8531 0.9781
-2.1978 4.4726 -1.7671 0.9791
-2.5374 4.1770 -1.7330 0.9795
-2.8513 3.8697 -1.7044 0.9798
-3.1408 3.5514 -1.6811 0.9801
-3.4070 3.2224 -1.6628 0.9803
-3.8725 2.5333 -1.6408 0.9806
-4.0728 2.1733 -1.6369 0.9806
-4.2519 1.8029 -1.6376 0.9806
-4.4098 1.4220 -1.6429 0.9805
-2.5615 0.5804 -0.9313 0.9889
-2.6347 0.1175 -0.9351 0.9889
-2.6733 -0.1192 -0.9489 0.9887
-2.7260 -0.3666 -0.9753 0.9884
-2.8093 -0.6365 -1.0214 0.9878
-2.8709 -0.9258 -1.0696 0.9873
-4.7464 -2.5328 -1.9076 0.9774
-4.3248 -4.0904 -2.1108 0.9751
-4.1053 -4.6419 -2.1973 0.9740
-3.5154 -5.7871 -2.4009 0.9717
-3.1340 -6.3776 -2.5197 0.9703
-2.6870 -6.9765 -2.6509 0.9688
-2.1674 -7.5799 -2.7955 0.9671
-1.5684 -8.1821 -2.9541 0.9653
-0.2549 -2.5337 -0.9029 0.9893
-0.0259 -2.3275 -0.8254 0.9902
0.1729 -2.2129 -0.7871 0.9906
0.3616 -2.1437 -0.7709 0.9908
1.2357 -2.1403 -0.8763 0.9896
13.3692 1.4956 -4.7701 0.9445
12.5143 2.5437 -4.5281 0.9472
11.5791 3.4509 -4.2843 0.9500
9.5982 4.8502 -3.8132 0.9554
8.6024 5.3577 -3.5935 0.9579
7.6270 5.7518 -3.3873 0.9603
6.6836 6.0449 -3.1954 0.9625
5.7800 6.2493 -3.0184 0.9645
3.3441 6.4385 -2.5726 0.9697
1.2461 5.7990 -2.1032 0.9751
0.6961 5.6515 -2.0191 0.9761
0.1877 5.6137 -1.9917 0.9764
-0.7875 5.3996 -1.9349 0.9771
-2.3709 4.3263 -1.7493 0.9793
-2.6974 4.0248 -1.7180 0.9796
-3.2768 3.3882 -1.6714 0.9802
-3.9753 2.3546 -1.6383 0.9806
-4.3335 1.6138 -1.6397 0.9806
-2.6624 0.4796 -0.9592 0.9886
-2.6101 0.0000 -0.9746 0.9889
-2.7878 -0.7637 -1.0794 0.9877
-4.6915 -1.7471 -1.8694 0.9789
-4.3891 -3.1591 -2.0193 0.9772
-3.7988 -4.7018 -2.2572 0.9745
-3.5106 -5.2382 -2.3546 0.9734
-3.1691 -5.7828 -2.4624 0.9722
-2.3051 -6.8850 -2.7112 0.9695
-0.4019 -2.7559 -1.0400 0.9882
-0.1364 -2.4471 -0.9152 0.9896
0.0764 -2.2859 -0.8541 0.9903
0.2683 -2.1787 -0.8197 0.9907
0.8558 -2.0825 -0.8407 0.9904
1.1009 -2.1196 -0.8919 0.9899
7.8756 -10.2047 -4.8134 0.9464
9.0852 -9.8228 -4.9963 0.9445
13.0256 -0.2903 -4.8651 0.9459
12.4814 0.8355 -4.6711 0.9480
11.8083 1.8568 -4.4635 0.9502
11.0394 2.7612 -4.2492 0.9526
8.4462 4.7518 -3.6188 0.9595
7.5609 5.1903 -3.4245 0.9616
6.6914 5.5306 -3.2416 0.9636
5.8475 5.7828 -3.0709 0.9655
3.5263 6.1077 -2.6335 0.9703
2.8312 6.1011 -2.5116 0.9717
2.1640 6.0151 -2.3870 0.9731
1.5119 5.7709 -2.2276 0.9748
-0.9731 5.0769 -1.9303 0.9782
-1.3833 4.8376 -1.8788 0.9787
-1.7650 4.5827 -1.8338 0.9793
-2.1197 4.3135 -1.7947 0.9797
-3.0344 3.4310 -1.7104 0.9806
-3.5293 2.7870 -1.6792 0.9810
-3.9383 2.1015 -1.6669 0.9811
-4.2636 1.3749 -1.6728 0.9811
-2.5920 0.1156 -0.9689 0.9890
-2.6307 -0.1173 -0.9833 0.9888
-4.6688 -1.9797 -1.8936 0.9786
-4.5679 -2.4375 -1.9333 0.9781
-4.1415 -3.9170 -2.1286 0.9760
-3.9244 -4.4374 -2.2120 0.9750
-3.6611 -4.9688 -2.3047 0.9740
-0.2575 -2.5595 -0.9606 0.9891
-0.0262 -2.3478 -0.8767 0.9900
0.7511 -2.0879 -0.8285 0.9906
0.9737 -2.0982 -0.8637 0.9902
1.2469 -2.1597 -0.9312 0.9894
1.6973 -2.4144 -1.1020 0.9875
8.4855 -10.0366 -4.9077 0.9454
9.6696 -9.5625 -5.0781 0.9436
10.7701 -8.9017 -5.2176 0.9421
13.6137 -3.4050 -5.2401 0.9418
13.5285 -2.1273 -5.1138 0.9432
12.7717 0.2846 -4.7703 0.9469
12.1588 1.3602 -4.5686 0.9491
10.6288 3.1677 -4.1414 0.9537
8.0023 4.9839 -3.5203 0.9605
7.1235 5.3721 -3.3316 0.9626
3.8890 6.0919 -2.6988 0.9696
2.4988 6.0805 -2.4548 0.9723
1.2248 5.6997 -2.1769 0.9754
0.1870 5.5933 -2.0898 0.9764
-1.5776 4.7120 -1.8555 0.9790
-2.2874 4.1739 -1.7773 0.9799
-2.6041 3.8855 -1.7466 0.9802
-3.1664 3.2740 -1.7008 0.9807
-3.6394 2.6195 -1.6744 0.9810
-4.0274 1.9237 -1.6666 0.9811
-4.1901 1.5604 -1.6696 0.9811
-2.6096 0.4701 -0.9901 0.9887
-2.5629 0.2290 -0.9608 0.9891
-2.5691 0.0000 -1.0083 0.9890
-2.6685 -0.4807 -1.0642 0.9884
-2.7221 -0.7457 -1.1077 0.9879
-4.3417 -2.5716 -1.9805 0.9785
-4.0627 -3.5131 -2.1080 0.9772
-3.6334 -4.4971 -2.2691 0.9755
-2.1856 -6.5281 -2.7019 0.9709
-0.4136 -2.8358 -1.1247 0.9878
0.0771 -2.3057 -0.9054 0.9901
0.4589 -2.1358 -0.8574 0.9907
1.1076 -2.1325 -0.9431 0.9897
1.4449 -2.2634 -1.0539 0.9885
10.1913 -7.6857 -5.0097 0.9466
10.9724 -6.8337 -5.0732 0.9460
12.2712 -3.6573 -5.0255 0.9465
12.3175 -2.5037 -4.9331 0.9474
12.1770 -1.3622 -4.8089 0.9487
11.8672 -0.2645 -4.6587 0.9503
11.4119 0.7639 -4.4889 0.9520
9.4414 3.2784 -3.9225 0.9580
7.8745 4.4301 -3.5460 0.9619
6.2828 5.1929 -3.1990 0.9656
5.5082 5.4471 -3.0404 0.9673
3.3493 5.8012 -2.6290 0.9716
2.6954 5.8084 -2.5131 0.9729
2.0764 5.7714 -2.4073 0.9740
1.4922 5.6958 -2.3109 0.9750
0.9423 5.5864 -2.2235 0.9759
0.4257 5.4476 -2.1445 0.9768
-0.0589 5.2828 -2.0735 0.9776
-0.9369 4.8876 -1.9532 0.9788
-1.3330 4.6619 -1.9030 0.9794
-1.7024 4.4201 -1.8590 0.9799
-2.0460 4.1636 -1.8207 0.9803
-2.9337 3.3172 -1.7380 0.9812
-3.6228 2.3700 -1.6991 0.9816
-3.8108 2.0335 -1.6953 0.9816
-3.9783 1.6869 -1.6959 0.9816
-2.5568 0.5793 -1.0289 0.9888
-2.4910 0.3350 -0.9865 0.9893
-2.5490 0.1137 -1.0014 0.9891
-2.5889 -0.1155 -1.0171 0.9889
-2.7055 -0.6130 -1.0887 0.9882
-2.7236 -0.8782 -1.1231 0.9878
-4.4979 -1.9073 -1.9174 0.9792
-4.2811 -2.8006 -2.0078 0.9783
-4.1447 -3.2730 -2.0727 0.9776
-3.4985 -4.7481 -2.3147 0.9750
-1.9387 -6.7799 -2.7675 0.9702
-1.3945 -7.2749 -2.9072 0.9687
-0.0264 -2.3687 -0.9297 0.9899
0.5523 -2.1080 -0.8552 0.9907
0.7544 -2.0969 -0.8746 0.9905
0.9794 -2.1106 -0.9132 0.9901
1.2584 -2.1796 -0.9878 0.9892
6.6297 -9.4309 -4.5244 0.9517
9.7443 -8.0539 -4.9616 0.9471
11.3039 -6.3595 -5.0904 0.9458
11.8345 -5.3324 -5.0944 0.9457
12.1749 -4.2276 -5.0582 0.9461
10.5147 2.1372 -4.2111 0.9549
9.8134 2.9247 -4.0189 0.9570
8.2732 4.1807 -3.6380 0.9610
5.8928 5.3297 -3.1184 0.9664
5.1297 5.5462 -2.9650 0.9681
4.3939 5.6933 -2.8225 0.9696
1.7800 5.7381 -2.3579 0.9745
1.2131 5.6451 -2.2661 0.9755
0.1795 5.3682 -2.1080 0.9772
-1.1384 4.7769 -1.9273 0.9791
-1.5210 4.5429 -1.8802 0.9796
-1.8773 4.2936 -1.8391 0.9801
-2.5159 3.7540 -1.7736 0.9808
-3.0619 3.1660 -1.7286 0.9813
-3.5211 2.5344 -1.7027 0.9815
-3.7194 2.2030 -1.6966 0.9816
-3.8971 1.8615 -1.6950 0.9816
-3.4629 0.9486 -1.4091 0.9847
-2.5633 0.4618 -1.0222 0.9889
-2.5207 0.2253 -0.9932 0.9892
-2.5656 -0.2293 -1.0607 0.9889
-2.6211 -0.4722 -1.0967 0.9885
-2.6410 -0.7235 -1.1276 0.9882
-4.3048 -2.0562 -1.9645 0.9796
-4.1821 -2.4771 -2.0015 0.9792
-4.0565 -2.9197 -2.0581 0.9786
-3.9028 -3.3749 -2.1246 0.9779
-3.7116 -3.8378 -2.1985 0.9772
-3.2043 -4.7812 -2.3700 0.9754
-2.8811 -5.2573 -2.4686 0.9744
-2.0765 -6.2023 -2.6933 0.9721
-1.5876 -6.6619 -2.8201 0.9708
-0.4388 -3.0088 -1.2521 0.9869
-0.1392 -2.4965 -1.0296 0.9892
0.0778 -2.3262 -0.9584 0.9900
0.2730 -2.2167 -0.9197 0.9904
0.4629 -2.1543 -0.9073 0.9905
0.6577 -2.1201 -0.9140 0.9904
1.4943 -2.3407 -1.1435 0.9881
8.4623 -7.6537 -4.6984 0.9518
10.5519 -5.3321 -4.8683 0.9501
11.1843 -3.3333 -4.8057 0.9508
11.1408 -1.2463 -4.6162 0.9527
10.8864 -0.2426 -4.4839 0.9540
10.5003 0.7029 -4.3335 0.9555
9.4223 2.3567 -3.9994 0.9589
8.7757 3.0472 -3.8253 0.9606
7.3691 4.1458 -3.4817 0.9641
5.2023 5.1446 -3.0128 0.9688
3.1873 5.5205 -2.6249 0.9728
0.4087 5.2306 -2.1604 0.9776
-0.4934 4.9046 -2.0298 0.9789
-0.9028 4.7097 -1.9747 0.9795
-1.2857 4.4964 -1.9257 0.9800
-1.6433 4.2667 -1.8827 0.9804
-1.9765 4.0220 -1.8453 0.9808
-2.8383 3.2093 -1.7642 0.9816
-3.3051 2.6100 -1.7342 0.9819
-3.5076 2.2945 -1.7260 0.9820
-3.8519 1.6334 -1.7229 0.9821
-3.9938 1.2878 -1.7280 0.9820
-2.5479 -0.1136 -1.0502 0.9890
-2.5854 -0.3477 -1.0742 0.9888
-2.6464 -0.8534 -1.1450 0.9880
-4.3370 -1.8391 -1.9398 0.9798
-4.2444 -2.2649 -1.9810 0.9794
-4.1203 -2.6954 -2.0274 0.9789
-3.9841 -3.1462 -2.0905 0.9783
-3.8121 -3.6054 -2.1606 0.9776
-3.3478 -4.5437 -2.3240 0.9759
-2.7004 -5.4952 -2.5213 0.9739
-2.2986 -5.9683 -2.6336 0.9727
-1.3199 -6.8857 -2.8870 0.9701
-0.2652 -2.6361 -1.0910 0.9886
0.3685 -2.1848 -0.9124 0.9905
0.7602 -2.1131 -0.9247 0.9903
0.9892 -2.1316 -0.9677 0.9899
6.0934 -8.6679 -4.3630 0.9552
7.0746 -8.3679 -4.5122 0.9537
8.8871 -7.3455 -4.7478 0.9513
9.6579 -6.6298 -4.8238 0.9506
10.2908 -5.7895 -4.8622 0.9502
11.0900 -3.8509 -4.8341 0.9505
11.0313 -0.7385 -4.5527 0.9533
10.7085 0.2387 -4.4106 0.9547
10.2647 1.1483 -4.2532 0.9563
8.4348 3.3570 -3.7383 0.9615
7.7294 3.9058 -3.5661 0.9632
5.5576 5.0266 -3.0857 0.9681
4.1664 5.3986 -2.8081 0.9709
2.8751 5.5356 -2.5686 0.9734
2.2734 5.5320 -2.4628 0.9745
-0.2785 4.9946 -2.0599 0.9786
-1.0975 4.6052 -1.9494 0.9797
-1.4676 4.3835 -1.9035 0.9802
-1.8128 4.1461 -1.8634 0.9806
-2.1342 3.8944 -1.8286 0.9810
-2.4325 3.6295 -1.7992 0.9813
-2.7084 3.3523 -1.7747 0.9815
-2.9629 3.0636 -1.7550 0.9817
-3.1962 2.7638 -1.7400 0.9819
-3.4089 2.4536 -1.7295 0.9820
-3.7734 1.8024 -1.7220 0.9821
-3.5070 0.9607 -1.4973 0.9844
-2.4793 0.2215 -1.0250 0.9893
-2.4893 0.0000 -1.0738 0.9892
-2.5221 -0.2254 -1.0923 0.9890
-2.5389 -0.4574 -1.1128 0.9888
-2.5688 -0.9566 -1.1824 0.9881
-3.9056 -2.8110 -2.0757 0.9793
-3.7530 -3.2454 -2.1402 0.9786
-3.0677 -4.5774 -2.3769 0.9763
-2.7534 -5.0243 -2.4714 0.9754
-2.3908 -5.4678 -2.5742 0.9743
-0.9817 -6.7308 -2.9341 0.9708
0.2755 -2.2366 -0.9720 0.9902
0.4670 -2.1733 -0.9589 0.9904
0.6642 -2.1413 -0.9671 0.9903
0.8779 -2.1363 -0.9963 0.9900
1.1350 -2.1853 -1.0622 0.9893
1.5494 -2.4272 -1.2421 0.9875
6.9540 -7.5186 -4.4177 0.9564
7.7760 -7.0330 -4.5227 0.9554
8.5204 -6.4256 -4.6033 0.9546
9.1621 -5.7062 -4.6560 0.9541
10.2626 -3.0586 -4.6193 0.9544
10.2561 -1.1473 -4.4516 0.9560
8.7671 2.1928 -3.8982 0.9614
5.5867 4.6175 -3.1265 0.9689
4.9250 4.8704 -2.9878 0.9703
2.4551 5.2906 -2.5159 0.9749
1.3690 5.2255 -2.3301 0.9767
0.8672 5.1412 -2.2490 0.9775
0.3929 5.0277 -2.1753 0.9783
-0.0545 4.8881 -2.1086 0.9789
-0.8707 4.5421 -1.9949 0.9801
-1.5874 4.1217 -1.9052 0.9809
-1.9106 3.8879 -1.8686 0.9813
-2.2112 3.6402 -1.8372 0.9816
-2.7477 3.1069 -1.7891 0.9821
-2.9847 2.8229 -1.7721 0.9823
-3.5748 1.9076 -1.7478 0.9825
-3.8689 1.2475 -1.7535 0.9824
-2.5715 0.5826 -1.1373 0.9886
-2.4106 0.3242 -1.0492 0.9895
-2.4655 0.1099 -1.0646 0.9893
-2.5277 -0.3399 -1.1001 0.9890
-2.5465 -0.5770 -1.1263 0.9887
-2.5665 -0.8276 -1.1632 0.9883
-2.6695 -1.1320 -1.2508 0.9874
-3.9690 -2.5965 -2.0461 0.9796
-3.8336 -3.0274 -2.1071 0.9789
-3.2078 -4.3537 -2.3327 0.9767
-2.9164 -4.8011 -2.4231 0.9758
-2.5783 -5.2467 -2.5217 0.9749
-2.1903 -5.6870 -2.6288 0.9738
-1.7492 -6.1172 -2.7444 0.9727
-1.2520 -6.5316 -2.8687 0.9714
-0.2734 -2.7175 -1.1781 0.9882
-0.0269 -2.4146 -1.0416 0.9895
1.0021 -2.1593 -1.0269 0.9897
1.3074 -2.2646 -1.1280 0.9887
6.5219 -7.7141 -4.3574 0.9569
7.3731 -7.2914 -4.4730 0.9558
8.8556 -6.0791 -4.6334 0.9543
9.4337 -5.3073 -4.6691 0.9539
10.3162 -2.5803 -4.5871 0.9547
10.3120 -1.6215 -4.5028 0.9555
9.8930 0.2204 -4.2685 0.9578
9.0332 1.8361 -3.9762 0.9606
8.4853 2.5289 -3.8193 0.9622
7.8840 3.1378 -3.6603 0.9637
4.5987 4.9720 -2.9214 0.9709
3.9587 5.1295 -2.7949 0.9722
1.6303 5.2555 -2.3736 0.9763
0.1659 4.9609 -2.1411 0.9786
-0.2682 4.8095 -2.0778 0.9792
-1.7519 4.0066 -1.8863 0.9811
-2.3533 3.5114 -1.8234 0.9818
-2.8688 2.9663 -1.7800 0.9822
-3.0955 2.6768 -1.7653 0.9823
-3.3021 2.3768 -1.7550 0.9824
-3.4888 2.0665 -1.7491 0.9825
-3.6558 1.7462 -1.7476 0.9825
-3.8028 1.4162 -1.7504 0.9825
-3.9299 1.0765 -1.7576 0.9824
-2.4719 0.4453 -1.0835 0.9891
-2.4387 0.2179 -1.0561 0.9894
-2.4282 0.0000 -1.0956 0.9894
-2.4481 -0.2188 -1.1090 0.9893
-2.4702 -0.6767 -1.1556 0.9888
-2.4890 -0.9269 -1.1984 0.9884
-3.6124 -3.1237 -2.1549 0.9793
-3.2036 -3.9651 -2.3001 0.9779
-0.1441 -2.5849 -1.1681 0.9887
0.0792 -2.3690 -1.0695 0.9897
0.2780 -2.2571 -1.0261 0.9901
0.8893 -2.1640 -1.0557 0.9898
1.6401 -2.5692 -1.3753 0.9867
5.6397 -7.3076 -4.1651 0.9603
6.4367 -6.9593 -4.2774 0.9593
7.8621 -5.9291 -4.4432 0.9577
8.4469 -5.2608 -4.4902 0.9573
8.9176 -4.5063 -4.5083 0.9571
9.4709 -2.8226 -4.4592 0.9576
9.0276 0.6043 -4.0825 0.9611
8.6471 1.3597 -3.9497 0.9623
7.6711 2.6637 -3.6640 0.9650
6.5152 3.6654 -3.3731 0.9677
5.9047 4.0534 -3.2317 0.9691
5.2876 4.3703 -3.0953 0.9703
4.6724 4.6206 -2.9650 0.9716
4.0661 4.8094 -2.8417 0.9727
3.4742 4.9421 -2.7259 0.9738
1.8188 5.0554 -2.4242 0.9767
0.8333 4.9402 -2.2606 0.9783
0.3780 4.8372 -2.1893 0.9789
-0.0525 4.7084 -2.1246 0.9795
-1.1988 4.1925 -1.9675 0.9810
-1.5345 3.9843 -1.9265 0.9814
-1.8481 3.7607 -1.8907 0.9818
-2.4111 3.2723 -1.8340 0.9823
-2.6615 3.0095 -1.8128 0.9825
-2.8919 2.7352 -1.7961 0.9827
-2.5488 0.5775 -1.1792 0.9886
-2.3568 0.3170 -1.0730 0.9896
-3.8285 -2.5045 -2.0643 0.9801
-3.6921 -2.9156 -2.1228 0.9796
-3.3199 -3.7538 -2.2612 0.9782
-3.0772 -4.1765 -2.3408 0.9775
-2.7933 -4.5984 -2.4277 0.9767
-1.1899 -6.2077 -2.8520 0.9726
-0.2822 -2.8054 -1.2722 0.9877
-0.0272 -2.4430 -1.1024 0.9893
0.1803 -2.3069 -1.0441 0.9899
0.3752 -2.2244 -1.0179 0.9901
0.5687 -2.1708 -1.0125 0.9902
0.7759 -2.1567 -1.0342 0.9900
5.2298 -7.4395 -4.1033 0.9609
6.0429 -7.1476 -4.2233 0.9598
7.5338 -6.2269 -4.4102 0.9580
8.6987 -4.8938 -4.5035 0.9571
9.5255 -2.3825 -4.4305 0.9578
9.5350 -1.4993 -4.3552 0.9585
8.8481 0.9898 -4.0173 0.9617
8.4268 1.7128 -3.8801 0.9630
7.3942 2.9428 -3.5909 0.9657
6.8146 3.4436 -3.4452 0.9670
6.2114 3.8685 -3.3018 0.9684
5.5964 4.2204 -3.1628 0.9697
4.3678 4.7224 -2.9025 0.9722
2.0805 5.0626 -2.4697 0.9763
1.5631 5.0391 -2.3806 0.9771
1.0703 4.9810 -2.2988 0.9779
0.1597 4.7759 -2.1562 0.9792
-0.2585 4.6352 -2.0947 0.9798
-0.6523 4.4726 -2.0395 0.9804
-1.3695 4.0904 -1.9464 0.9812
-1.6940 3.8744 -1.9080 0.9816
-1.9967 3.6436 -1.8747 0.9819
-2.2782 3.3992 -1.8464 0.9822
-2.7792 2.8737 -1.8039 0.9826
-2.9997 2.5939 -1.7894 0.9827
-3.2005 2.3036 -1.7793 0.9828
-3.3818 2.0030 -1.7735 0.9829
-3.5437 1.6927 -1.7720 0.9829
-3.6861 1.3727 -1.7748 0.9829
-2.4063 0.4335 -1.1032 0.9893
-2.3934 -0.6556 -1.1698 0.9891
-3.6294 -2.6123 -2.1079 0.9804
-3.4800 -3.0093 -2.1687 0.9799
-3.2971 -3.4092 -2.2356 0.9792
-2.5247 -4.6070 -2.4763 0.9770
-2.1846 -4.9964 -2.5705 0.9762
-1.7994 -5.3746 -2.6717 0.9752
-0.8864 -6.0772 -2.8950 0.9732
-0.1475 -2.6460 -1.2492 0.9883
0.2806 -2.2783 -1.0821 0.9899
0.4756 -2.2134 -1.0671 0.9900
1.1791 -2.2701 -1.2058 0.9888
5.2535 -6.8071 -4.0532 0.9627
8.2633 -4.1756 -4.3642 0.9599
8.7831 -2.6177 -4.3201 0.9603
8.8237 -0.9871 -4.1852 0.9615
8.6738 -0.1933 -4.0897 0.9624
8.4237 0.5639 -3.9796 0.9634
7.6759 1.9199 -3.7297 0.9656
7.2073 2.5026 -3.5963 0.9668
6.6946 3.0164 -3.4612 0.9681
6.1508 3.4604 -3.3267 0.9693
5.0150 4.1450 -3.0669 0.9716
3.8729 4.5808 -2.8276 0.9738
3.3155 4.7164 -2.7176 0.9748
2.2488 4.8460 -2.5182 0.9767
1.7445 4.8490 -2.4291 0.9775
1.2618 4.8162 -2.3469 0.9782
0.8015 4.7515 -2.2714 0.9789
-0.0506 4.5390 -2.1397 0.9801
-0.4423 4.3969 -2.0831 0.9806
-0.8116 4.2340 -2.0322 0.9811
-2.0724 3.4116 -1.8816 0.9825
-2.3358 3.1702 -1.8562 0.9827
-2.5794 2.9166 -1.8353 0.9829
-2.8035 2.6515 -1.8189 0.9831
-3.0083 2.3756 -1.8069 0.9832
-3.1940 2.0894 -1.7991 0.9833
-2.5265 0.5724 -1.2211 0.9886
-2.3799 -0.3201 -1.1319 0.9894
-3.5588 -2.8103 -2.1375 0.9801
-2.9551 -4.0107 -2.3483 0.9782
-2.6785 -4.4094 -2.4319 0.9774
-2.3602 -4.8028 -2.5225 0.9766
-1.9978 -5.1872 -2.6202 0.9757
-1.5893 -5.5581 -2.7249 0.9748
-0.2962 -2.9441 -1.3948 0.9870
-0.0278 -2.4974 -1.1773 0.9890
0.5746 -2.1934 -1.0688 0.9900
1.0294 -2.2184 -1.1528 0.9892
1.3653 -2.3648 -1.2872 0.9880
5.6237 -6.6517 -4.1059 0.9622
6.9897 -5.7771 -4.2745 0.9607
8.4376 -3.8018 -4.3624 0.9599
8.6980 -3.0203 -4.3402 0.9601
8.8379 -2.2105 -4.2943 0.9605
8.2650 0.9246 -3.9202 0.9639
6.9556 2.7683 -3.5288 0.9674
5.8710 3.6565 -3.2603 0.9699
4.7277 4.2760 -3.0048 0.9722
4.1559 4.4933 -2.8851 0.9733
3.0423 4.7656 -2.6651 0.9753
1.5004 4.8368 -2.3871 0.9779
1.0288 4.7877 -2.3083 0.9786
-0.6298 4.3179 -2.0569 0.9809
-1.3242 3.9552 -1.9661 0.9817
-1.6391 3.7487 -1.9286 0.9821
-1.9331 3.5274 -1.8961 0.9824
-2.6939 2.7855 -1.8266 0.9830
-3.1035 2.2338 -1.8025 0.9832
-3.2797 1.9425 -1.7968 0.9833
-3.4367 1.6416 -1.7953 0.9833
-3.6932 1.0117 -1.8050 0.9832
-2.3243 0.2077 -1.1000 0.9897
-2.3094 -0.2064 -1.1404 0.9897
-2.3175 -0.6348 -1.1819 0.9893
-2.3278 -0.8669 -1.2217 0.9890
-3.1753 -3.2833 -2.2466 0.9798
-2.9612 -3.6651 -2.3176 0.9792
-2.7107 -4.0447 -2.3949 0.9785
-2.0923 -4.7853 -2.5688 0.9770
-1.7206 -5.1390 -2.6655 0.9761
-1.3049 -5.4755 -2.7686 0.9752
-0.8444 -5.7895 -2.8777 0.9743
-0.1512 -2.7112 -1.3356 0.9880
0.2835 -2.3020 -1.1408 0.9897
0.4802 -2.2344 -1.1241 0.9899
0.6854 -2.2097 -1.1379 0.9897
0.9136 -2.2230 -1.1821 0.9893
1.2033 -2.3168 -1.2840 0.9884
4.2107 -6.5960 -3.8490 0.9657
4.9118 -6.3644 -3.9542 0.9648
6.7888 -5.1197 -4.1822 0.9628
7.2833 -4.5361 -4.2203 0.9625
7.6875 -3.8847 -4.2365 0.9623
8.1797 -2.4378 -4.1981 0.9627
8.2351 -0.9212 -4.0758 0.9637
8.1076 -0.1807 -3.9888 0.9645
7.5864 1.1929 -3.7772 0.9663
7.2163 1.8049 -3.6587 0.9674
5.8202 3.2744 -3.2846 0.9707
5.2986 3.6373 -3.1611 0.9718
3.6945 4.3699 -2.8145 0.9748
3.1685 4.5072 -2.7099 0.9757
2.6546 4.5980 -2.6114 0.9766
1.2132 4.6307 -2.3545 0.9789
-0.7844 4.0921 -2.0493 0.9816
-1.1207 3.9195 -2.0051 0.9820
-1.4366 3.7299 -1.9659 0.9823
-1.7321 3.5248 -1.9317 0.9826
-2.0078 3.3054 -1.9022 0.9829
-2.7191 2.5717 -1.8408 0.9835
-3.0988 2.0271 -1.8213 0.9836
-3.2606 1.7399 -1.8178 0.9837
-3.4037 1.4433 -1.8184 0.9837
-3.5278 1.1376 -1.8232 0.9836
-2.3022 -0.1027 -1.1335 0.9898
-2.3142 -0.5243 -1.1671 0.9895
-3.0727 -3.4743 -2.2813 0.9795
-2.8406 -3.8553 -2.3554 0.9789
-2.5712 -4.2328 -2.4359 0.9782
-1.5183 -5.3097 -2.7163 0.9757
-0.5972 -5.9361 -2.9344 0.9738
0.1848 -2.3654 -1.1670 0.9895
0.5808 -2.2169 -1.1272 0.9898
0.7928 -2.2035 -1.1518 0.9896
1.4490 -2.5098 -1.4254 0.9872
4.5635 -6.4917 -3.9030 0.9652
5.9087 -5.8432 -4.0873 0.9636
6.5119 -5.3823 -4.1553 0.9630
7.0466 -4.8372 -4.2039 0.9626
7.8522 -3.5380 -4.2361 0.9623
8.0979 -2.8119 -4.2163 0.9625
8.0086 0.1785 -3.9400 0.9649
7.7464 0.8666 -3.8339 0.9659
7.4091 1.5060 -3.7187 0.9669
6.5603 2.6109 -3.4729 0.9690
6.0738 3.0692 -3.3472 0.9701
5.5614 3.4637 -3.2225 0.9712
1.9132 4.6556 -2.4757 0.9778
0.5585 4.5351 -2.2474 0.9798
0.1484 4.4372 -2.1837 0.9804
-0.2406 4.3152 -2.1257 0.9809
-0.6084 4.1714 -2.0734 0.9814
-1.5868 3.6292 -1.9482 0.9825
-1.8725 3.4168 -1.9164 0.9828
-2.3849 2.9519 -1.8666 0.9832
-2.6124 2.7012 -1.8483 0.9834
-2.8210 2.4394 -1.8343 0.9835
-3.5827 0.9814 -1.8271 0.9836
-2.2658 0.2025 -1.1189 0.9899
-2.2359 -0.0000 -1.1463 0.9900
-2.2443 -0.2006 -1.1552 0.9899
-2.2416 -0.4039 -1.1677 0.9898
-2.2593 -0.8414 -1.2360 0.9892
-2.8507 -3.5284 -2.3255 0.9798
-2.3254 -4.2433 -2.4807 0.9785
-2.0062 -4.5882 -2.5673 0.9777
-1.2472 -5.2333 -2.7581 0.9761
0.0835 -2.4981 -1.2814 0.9888
0.2890 -2.3468 -1.2122 0.9894
0.6931 -2.2342 -1.1993 0.9895
0.9274 -2.2567 -1.2508 0.9891
3.9562 -6.1972 -3.7693 0.9675
5.2325 -5.6573 -3.9507 0.9660
7.7122 -0.8627 -3.9785 0.9657
7.6031 -0.1694 -3.8989 0.9664
7.4085 0.4959 -3.8066 0.9672
6.8023 1.7014 -3.5947 0.9690
6.4131 2.2269 -3.4804 0.9699
5.9817 2.6952 -3.3635 0.9709
5.5186 3.1047 -3.2463 0.9719
5.0339 3.4555 -3.1303 0.9729
4.5359 3.7491 -3.0169 0.9739
2.0694 4.4593 -2.5203 0.9781
1.6099 4.4747 -2.4380 0.9789
1.1675 4.4561 -2.3616 0.9795
0.7433 4.4068 -2.2912 0.9801
0.3383 4.3298 -2.2265 0.9807
-0.0471 4.2276 -2.1675 0.9812
-0.4127 4.1026 -2.1139 0.9816
-1.0846 3.7930 -2.0225 0.9824
-1.6782 3.4150 -1.9508 0.9830
-2.4261 2.7432 -1.8775 0.9837
-2.6383 2.4953 -1.8617 0.9838
-2.8321 2.2365 -1.8501 0.9839
-3.0076 1.9675 -1.8426 0.9840
-2.2093 0.2971 -1.1428 0.9900
-2.2377 -0.0998 -1.1483 0.9900
-2.2530 -0.7265 -1.2136 0.9894
-3.4489 -2.2562 -2.1129 0.9816
-2.4706 -4.0671 -2.4396 0.9788
-1.8317 -4.7559 -2.6128 0.9774
-1.4523 -5.0790 -2.7082 0.9765
-0.5692 -5.6585 -2.9156 0.9748
0.1885 -2.4127 -1.2407 0.9892
0.3885 -2.3029 -1.1973 0.9896
0.8021 -2.2295 -1.2147 0.9894
3.6255 -6.2796 -3.7174 0.9679
4.2840 -6.0940 -3.8189 0.9671
4.9240 -5.8241 -3.9099 0.9663
5.5307 -5.4694 -3.9877 0.9656
6.0889 -5.0326 -4.0498 0.9651
6.5837 -4.5195 -4.0941 0.9647
7.3328 -3.3040 -4.1233 0.9645
7.6994 -1.9257 -4.0688 0.9650
7.6689 -0.5134 -3.9404 0.9660
7.2820 0.8146 -3.7565 0.9676
6.9775 1.4182 -3.6503 0.9685
6.6137 1.9711 -3.5380 0.9695
4.7860 3.6093 -3.0732 0.9734
4.2844 3.8750 -2.9616 0.9744
3.7804 4.0873 -2.8543 0.9753
2.7865 4.3650 -2.6549 0.9770
1.8376 4.4714 -2.4784 0.9785
0.5384 4.3716 -2.2581 0.9804
0.1431 4.2817 -2.1963 0.9809
-0.2324 4.1678 -2.1400 0.9814
-0.5881 4.0323 -2.0891 0.9818
-1.2402 3.7044 -2.0028 0.9826
-1.5370 3.5153 -1.9669 0.9829
-2.5345 2.6206 -1.8691 0.9837
-2.9222 2.1032 -1.8458 0.9839
-3.0886 1.8294 -1.8403 0.9840
-3.2366 1.5460 -1.8389 0.9840
-3.4770 0.9525 -1.8482 0.9839
-2.2093 0.1974 -1.1372 0.9901
-2.1789 -0.3925 -1.1819 0.9900
-2.1932 -0.8168 -1.2494 0.9894
-3.3996 -2.0136 -2.1093 0.9822
-3.2691 -2.3529 -2.1502 0.9819
-3.1252 -2.7025 -2.2056 0.9814
-2.2349 -4.0783 -2.4826 0.9791
-1.9255 -4.4037 -2.5658 0.9784
-1.5786 -4.7151 -2.6544 0.9777
-0.7697 -5.2773 -2.8471 0.9761
-0.3077 -5.5177 -2.9502 0.9753
0.2949 -2.3942 -1.2878 0.9891
0.7079 -2.2821 -1.2756 0.9892
0.9532 -2.3196 -1.3388 0.9887
4.3338 -5.6155 -3.7867 0.9683
4.9156 -5.3146 -3.8647 0.9677
5.9496 -4.4868 -3.9781 0.9668
6.3758 -3.9709 -4.0098 0.9665
6.7263 -3.3990 -4.0232 0.9664
7.1697 -2.1368 -3.9939 0.9666
6.9773 0.4671 -3.7331 0.9688
6.7330 1.0587 -3.6385 0.9696
6.4272 1.6076 -3.5368 0.9704
4.7904 3.2884 -3.1019 0.9740
3.3757 3.9927 -2.7912 0.9766
2.9044 4.1315 -2.6960 0.9774
0.7167 4.2488 -2.3002 0.9807
0.3265 4.1787 -2.2376 0.9812
-0.0455 4.0839 -2.1803 0.9817
-1.0501 3.6724 -2.0391 0.9828
-1.3476 3.4991 -2.0017 0.9831
-2.3543 2.6621 -1.8972 0.9840
-2.5609 2.4221 -1.8817 0.9841
-3.0732 1.6399 -1.8595 0.9843
-2.1681 0.2916 -1.1679 0.9901
-2.1765 -0.0971 -1.1631 0.9902
-2.1810 -0.2933 -1.1748 0.9901
-2.1912 -0.7066 -1.2291 0.9896
-3.3348 -2.1815 -2.1274 0.9821
-2.3760 -3.9114 -2.4431 0.9795
-2.0848 -4.2425 -2.5235 0.9788
-0.9864 -5.1459 -2.7971 0.9765
-0.5434 -5.4015 -2.8981 0.9757
-0.0305 -2.7357 -1.4606 0.9877
0.1924 -2.4628 -1.3187 0.9889
0.3962 -2.3489 -1.2716 0.9893
0.8228 -2.2870 -1.2975 0.9890
3.4182 -5.9205 -3.6496 0.9695
