ply
format ascii 1.0
element vertex 1588
property float32 x
property float32 y
property float32 z
property float32 I
end_header
6.6330 -2.6399 2.8019 0.9698
0.0964 -2.8821 1.0768 0.9878
0.3405 -2.7644 1.0401 0.9882
6.6964 -2.6651 2.6913 0.9697
-0.0346 -3.1042 1.1592 0.9868
0.4670 -2.7686 1.0484 0.9881
0.7674 -2.9290 1.1306 0.9872
-0.1719 -3.0835 1.0951 0.9870
0.3294 -2.6746 0.9555 0.9886
0.5759 -2.6802 0.9721 0.9884
0.8965 -2.8899 1.0729 0.9872
2.0035 5.5688 2.0985 0.9752
0.2122 -2.7158 0.9659 0.9885
0.7156 -2.7314 1.0012 0.9881
6.8763 -3.0983 2.6743 0.9685
-0.1605 -2.8780 0.9685 0.9879
0.0894 -2.6735 0.8988 0.9888
0.6931 -2.6457 0.9189 0.9885
1.0502 -2.9192 1.0423 0.9870
-0.1537 -2.7568 0.8769 0.9885
0.0869 -2.5999 0.8261 0.9891
0.3113 -2.5279 0.8089 0.9894
7.1793 -3.6279 2.5546 0.9668
2.0154 5.6018 1.8907 0.9753
-0.2972 -2.9545 0.9430 0.9876
-0.0296 -2.6557 0.8435 0.9889
0.1996 -2.5548 0.8138 0.9893
0.4261 -2.5263 0.8137 0.9893
0.9800 -2.7241 0.9194 0.9879
-0.1502 -2.6930 0.8075 0.9888
0.5309 -2.4705 0.7565 0.9895
1.1454 -2.7871 0.9021 0.9875
0.6552 -2.5008 0.7740 0.9893
0.9487 -2.6370 0.8390 0.9884
-0.1468 -2.6331 0.7420 0.9891
0.0839 -2.5091 0.7064 0.9896
0.3018 -2.4503 0.6946 0.9898
0.5230 -2.4338 0.7004 0.9897
0.7690 -2.4792 0.7303 0.9893
1.0988 -2.6737 0.8133 0.9881
-0.2751 -2.7343 0.7732 0.9886
-0.0285 -2.5541 0.7187 0.9894
0.1928 -2.4669 0.6962 0.9898
0.9196 -2.5561 0.7643 0.9888
7.5345 -4.2388 2.4323 0.9647
1.7590 5.6705 1.6704 0.9756
-0.4129 -2.8308 0.7538 0.9882
0.2973 -2.4137 0.6408 0.9900
0.5154 -2.3986 0.6464 0.9899
1.0615 -2.5831 0.7359 0.9885
-0.6157 -3.2119 0.8618 0.9866
0.1896 -2.4258 0.6412 0.9900
0.6338 -2.4192 0.6590 0.9897
-0.1406 -2.5223 0.6209 0.9896
-0.5728 -2.9884 0.7479 0.9875
0.1867 -2.3889 0.5890 0.9902
1.2440 -2.6807 0.7264 0.9879
-0.1383 -2.4794 0.5668 0.9899
0.5011 -2.3319 0.5444 0.9903
0.7355 -2.3711 0.5666 0.9899
-0.2581 -2.5651 0.5884 0.9895
-0.0271 -2.4333 0.5554 0.9901
0.3939 -2.3354 0.5406 0.9903
-0.7512 -3.1521 0.6831 0.9868
0.0792 -2.3679 0.4995 0.9904
0.2859 -2.3215 0.4931 0.9905
0.4943 -2.3003 0.4960 0.9904
1.0005 -2.4346 0.5549 0.9893
1.4292 -2.7517 0.6537 0.9874
-0.2548 -2.5330 0.5367 0.9896
0.3892 -2.3073 0.4933 0.9905
0.6073 -2.3182 0.5052 0.9903
0.8543 -2.3746 0.5320 0.9897
1.1731 -2.5280 0.5875 0.9887
-0.7148 -2.9993 0.5967 0.9875
-0.3778 -2.5905 0.5066 0.9894
-0.1355 -2.4299 0.4710 0.9901
0.0784 -2.3457 0.4542 0.9905
0.2836 -2.3026 0.4490 0.9906
0.4903 -2.2815 0.4516 0.9905
0.7151 -2.3054 0.4671 0.9902
0.9851 -2.3971 0.5015 0.9895
0.1810 -2.3171 0.4498 0.9906
0.3860 -2.2885 0.4491 0.9906
0.8417 -2.3395 0.4811 0.9899
1.1511 -2.4805 0.5292 0.9889
-0.6902 -2.8963 0.5250 0.9880
-0.3731 -2.5581 0.4558 0.9896
0.0777 -2.3241 0.4100 0.9906
0.2813 -2.2841 0.4058 0.9907
0.4866 -2.2643 0.4084 0.9906
0.7083 -2.2834 0.4216 0.9903
0.9702 -2.3609 0.4501 0.9897
-0.5145 -2.6840 0.4819 0.9890
0.1796 -2.2984 0.4065 0.9907
0.3829 -2.2701 0.4059 0.9907
0.5956 -2.2735 0.4144 0.9905
0.8295 -2.3056 0.4321 0.9901
1.1300 -2.4351 0.4734 0.9892
1.7551 5.6580 1.0445 0.9762
-0.6715 -2.8179 0.4613 0.9883
-0.3685 -2.5267 0.4066 0.9897
0.0770 -2.3030 0.3669 0.9907
0.4829 -2.2474 0.3660 0.9907
0.7029 -2.2659 0.3778 0.9904
0.9566 -2.3278 0.4008 0.9899
1.3085 -2.5193 0.4520 0.9886
-0.2457 -2.4427 0.3909 0.9901
-0.0261 -2.3426 0.3730 0.9906
0.1782 -2.2802 0.3642 0.9908
0.3799 -2.2521 0.3637 0.9908
0.5911 -2.2563 0.3714 0.9906
1.7561 5.6611 0.9438 0.9763
-0.3641 -2.4962 0.3588 0.9899
0.0763 -2.2824 0.3248 0.9908
0.2769 -2.2482 0.3222 0.9909
0.4794 -2.2309 0.3246 0.9908
-0.4967 -2.5912 0.3753 0.9894
-0.0259 -2.3213 0.3302 0.9907
0.3769 -2.2345 0.3223 0.9909
1.7599 5.6735 0.8449 0.9763
-0.6471 -2.7153 0.3498 0.9888
-0.3597 -2.4665 0.3124 0.9900
-0.1305 -2.3403 0.2937 0.9906
0.0756 -2.2622 0.2836 0.9909
0.2748 -2.2309 0.2817 0.9910
0.4759 -2.2147 0.2839 0.9909
0.6923 -2.2318 0.2928 0.9906
0.9415 -2.2910 0.3104 0.9901
1.2605 -2.4269 0.3427 0.9890
-0.8672 -3.0328 0.3953 0.9874
-0.2401 -2.3867 0.3006 0.9904
-0.0256 -2.3004 0.2883 0.9908
0.1754 -2.2448 0.2822 0.9910
1.0828 -2.3334 0.3224 0.9897
1.7642 5.6872 0.7462 0.9763
-0.6384 -2.6788 0.2987 0.9890
-0.3567 -2.4460 0.2681 0.9901
0.4725 -2.1988 0.2439 0.9910
1.2489 -2.4045 0.2939 0.9892
-0.8394 -2.9354 0.3312 0.9878
-0.4854 -2.5322 0.2797 0.9897
-0.0254 -2.2810 0.2474 0.9909
0.3711 -2.2003 0.2420 0.9911
0.5782 -2.2068 0.2474 0.9909
1.7684 5.7009 0.6474 0.9763
-0.6323 -2.6531 0.2500 0.9891
-0.3545 -2.4307 0.2252 0.9902
0.2707 -2.1977 0.2030 0.9911
0.6822 -2.1991 0.2111 0.9908
1.2375 -2.3826 0.2461 0.9893
0.7983 -2.2188 0.2162 0.9906
1.0652 -2.2954 0.2320 0.9899
-0.6263 -2.6279 0.2025 0.9892
0.0743 -2.2236 0.1667 0.9911
0.2697 -2.1896 0.1653 0.9912
1.5229 5.8127 0.4503 0.9762
-0.4791 -2.4993 0.1907 0.9898
0.1724 -2.2064 0.1659 0.9912
0.3665 -2.1728 0.1651 0.9912
0.5699 -2.1753 0.1685 0.9910
0.7924 -2.2025 0.1754 0.9907
1.0568 -2.2773 0.1881 0.9900
1.4350 -2.4854 0.2151 0.9886
1.7842 5.7518 0.4513 0.9761
-0.3501 -2.4007 0.1413 0.9903
-0.1277 -2.2903 0.1336 0.9909
0.0741 -2.2153 0.1291 0.9912
0.4647 -2.1624 0.1288 0.9912
0.9130 -2.2216 0.1399 0.9904
-0.7962 -2.7844 0.1687 0.9885
-0.4760 -2.4833 0.1473 0.9899
0.1718 -2.1983 0.1284 0.9912
0.3651 -2.1648 0.1279 0.9912
0.5673 -2.1653 0.1304 0.9911
0.7866 -2.1864 0.1353 0.9907
1.0485 -2.2595 0.1451 0.9901
1.7952 5.7873 0.3529 0.9760
-0.6147 -2.5792 0.1102 0.9894
0.2677 -2.1735 0.0911 0.9913
0.6704 -2.1613 0.0941 0.9910
0.9062 -2.2050 0.0991 0.9905
1.7397 -2.7252 0.1344 0.9871
-0.2336 -2.3215 0.0970 0.9907
0.1711 -2.1902 0.0913 0.9912
0.3638 -2.1569 0.0909 0.9913
0.7826 -2.1753 0.0961 0.9908
1.4013 -2.4272 0.1165 0.9888
-1.0976 -3.2784 0.0862 0.9863
-0.3459 -2.3715 0.0598 0.9905
0.0735 -2.1989 0.0549 0.9912
0.2667 -2.1655 0.0544 0.9913
0.4617 -2.1487 0.0548 0.9912
1.1942 -2.2992 0.0646 0.9897
1.6988 -2.6611 0.0787 0.9874
1.5132 5.7759 0.1489 0.9764
-12.3960 8.1092 0.3694 0.9425
-13.5354 5.7395 0.3666 0.9429
-0.0248 -2.2297 0.0556 0.9911
0.1705 -2.1822 0.0546 0.9913
0.3625 -2.1490 0.0543 0.9913
1.0330 -2.2262 0.0612 0.9902
1.3852 -2.3992 0.0691 0.9890
-13.8303 5.1505 0.3681 0.9427
-1.0149 -3.0313 0.0266 0.9873
-0.6035 -2.5324 0.0216 0.9896
-0.3438 -2.3573 0.0198 0.9905
0.2657 -2.1577 0.0181 0.9913
0.6661 -2.1473 0.0187 0.9910
1.5112 5.7682 0.0496 0.9764
-10.7737 8.5079 0.1141 0.9466
-11.3055 7.3958 0.1123 0.9474
-12.8862 4.1553 0.1125 0.9473
-14.0205 1.8856 0.1176 0.9450
-14.6450 0.6531 0.1218 0.9430
-0.2314 -2.3000 0.0192 0.9908
0.1699 -2.1742 0.0181 0.9913
0.3612 -2.1412 0.0180 0.9914
0.5618 -2.1446 0.0184 0.9912
0.7781 -2.1628 0.0191 0.9908
1.0299 -2.2193 0.0203 0.9903
1.3694 -2.3718 0.0228 0.9891
-11.0413 7.9470 0.1131 0.9470
-11.5677 6.8516 0.1117 0.9476
-13.1593 3.6047 0.1134 0.9469
-14.2374 -1.2722 -0.1188 0.9444
-1.0060 -3.0047 -0.0263 0.9874
-0.5987 -2.5122 -0.0215 0.9897
-0.1254 -2.2488 -0.0187 0.9910
0.0730 -2.1829 -0.0182 0.9913
0.2648 -2.1498 -0.0180 0.9914
0.4588 -2.1352 -0.0182 0.9913
0.6640 -2.1404 -0.0186 0.9911
1.1825 -2.2768 -0.0213 0.9898
1.5111 5.7677 -0.0496 0.9764
-7.5492 12.4277 -0.1209 0.9435
-9.3656 8.8580 -0.1071 0.9497
-9.8898 7.8100 -0.1047 0.9508
-11.3605 4.8173 -0.1026 0.9518
-11.8424 3.8187 -0.1034 0.9514
-12.3323 2.7941 -0.1051 0.9507
-14.5530 -1.9572 -0.1220 0.9430
0.3599 -2.1334 -0.0180 0.9914
0.5601 -2.1378 -0.0184 0.9912
0.7758 -2.1565 -0.0190 0.9909
1.0267 -2.2125 -0.0203 0.9903
1.3592 -2.3542 -0.0226 0.9892
-7.1911 13.1222 -0.1244 0.9419
-7.8876 11.7691 -0.1178 0.9449
-8.5154 10.5397 -0.1126 0.9472
-9.0922 9.4012 -0.1087 0.9490
-10.1430 7.3005 -0.1039 0.9512
-11.1203 5.3117 -0.1024 0.9519
-12.0858 3.3107 -0.1041 0.9511
-13.0999 1.1706 -0.1093 0.9487
-12.5335 0.0000 -0.3126 0.9511
-13.0250 -1.1639 -0.3261 0.9490
-14.1246 -3.8691 -0.3652 0.9431
-0.9999 -2.9864 -0.0785 0.9875
-0.5970 -2.5052 -0.0642 0.9897
-0.1248 -2.2387 -0.0559 0.9911
0.0727 -2.1749 -0.0543 0.9913
0.2638 -2.1421 -0.0538 0.9914
0.8947 -2.1772 -0.0587 0.9906
1.6115 -2.5244 -0.0747 0.9881
1.5119 5.7708 -0.1488 0.9764
-7.5303 10.2202 -0.3166 0.9505
-8.1073 9.1671 -0.3052 0.9522
-8.6403 8.1720 -0.2966 0.9535
-9.6142 6.2894 -0.2865 0.9551
-10.0707 5.3739 -0.2847 0.9554
-10.5155 4.4590 -0.2848 0.9553
-11.3941 2.5816 -0.2914 0.9543
-11.8395 1.5923 -0.2979 0.9533
-13.2829 -1.7864 -0.3342 0.9478
-0.7638 -2.6713 -0.0693 0.9889
0.1687 -2.1585 -0.0540 0.9914
0.5583 -2.1310 -0.0549 0.9912
-5.4474 12.4584 -0.3391 0.9470
-7.2213 10.7750 -0.3235 0.9494
-7.8250 9.6851 -0.3105 0.9514
-8.3786 8.6634 -0.3006 0.9529
-8.8937 7.6907 -0.2932 0.9540
-10.2942 4.9171 -0.2845 0.9554
-11.5871 0.0000 -0.4818 0.9547
-12.4351 -2.2403 -0.5254 0.9507
-12.8940 -3.5320 -0.5559 0.9479
-0.9938 -2.9684 -0.1302 0.9875
-0.1245 -2.2325 -0.0930 0.9911
0.2629 -2.1344 -0.0894 0.9914
0.4560 -2.1219 -0.0902 0.9913
0.6597 -2.1267 -0.0926 0.9911
0.8921 -2.1707 -0.0976 0.9906
1.1758 -2.2638 -0.1061 0.9898
1.6067 -2.5169 -0.1242 0.9881
1.5127 5.7740 -0.2482 0.9764
-2.8130 14.6753 -0.6213 0.9419
-4.6091 11.9673 -0.5332 0.9500
-5.6695 11.5372 -0.5345 0.9498
-6.3468 10.4483 -0.5083 0.9522
-7.5084 8.4899 -0.4712 0.9556
-8.0188 7.5842 -0.4589 0.9568
-8.4950 6.7085 -0.4501 0.9576
-8.9445 5.8512 -0.4444 0.9581
-9.3733 5.0018 -0.4418 0.9584
-9.7870 4.1501 -0.4420 0.9583
-10.5879 2.3989 -0.4514 0.9575
-10.9843 1.4773 -0.4608 0.9566
-12.2159 -1.6429 -0.5125 0.9519
-13.1008 -4.2244 -0.5723 0.9464
-13.3947 -5.6798 -0.6049 0.9434
-0.4621 -2.4105 -0.1021 0.9902
-0.2290 -2.2760 -0.0951 0.9909
0.1681 -2.1507 -0.0897 0.9914
0.5565 -2.1243 -0.0913 0.9912
1.0205 -2.1990 -0.1008 0.9903
-3.3204 13.9329 -0.5955 0.9443
-4.9775 11.3838 -0.5166 0.9515
-6.0179 10.9813 -0.5207 0.9511
-6.6585 9.9351 -0.4973 0.9532
-7.2377 8.9582 -0.4789 0.9549
-7.7684 8.0325 -0.4646 0.9562
-8.2607 7.1433 -0.4541 0.9572
-9.1611 5.4262 -0.4427 0.9583
-10.3896 2.8460 -0.4479 0.9578
-10.7860 1.9432 -0.4557 0.9571
-11.1835 0.9994 -0.4669 0.9560
-10.7725 0.0000 -0.6274 0.9578
-11.1271 -0.9943 -0.6507 0.9562
-11.4878 -2.0696 -0.6799 0.9543
-11.8593 -3.2486 -0.7162 0.9519
-0.5946 -2.4951 -0.1494 0.9898
0.2619 -2.1267 -0.1248 0.9915
0.4545 -2.1153 -0.1260 0.9914
0.6576 -2.1199 -0.1293 0.9911
1.1725 -2.2574 -0.1482 0.9899
1.5135 5.7771 -0.3479 0.9764
-3.4557 12.0855 -0.7321 0.9509
-4.2318 10.9876 -0.6858 0.9539
-5.2307 10.6443 -0.6908 0.9536
-7.4800 7.0746 -0.5997 0.9596
-8.3613 5.4697 -0.5819 0.9608
-8.7656 4.6775 -0.5787 0.9610
-9.1521 3.8808 -0.5790 0.9610
-9.5248 3.0714 -0.5829 0.9607
-9.8874 2.2402 -0.5905 0.9602
-11.3064 -1.5205 -0.6644 0.9553
-11.6719 -2.6445 -0.6970 0.9532
-12.2280 -5.1851 -0.7736 0.9482
-12.6334 -6.7413 -0.8340 0.9442
-0.7593 -2.6553 -0.1609 0.9890
-0.4613 -2.4065 -0.1427 0.9902
0.1675 -2.1441 -0.1253 0.9914
0.3564 -2.1130 -0.1248 0.9915
0.5548 -2.1176 -0.1275 0.9913
0.7692 -2.1380 -0.1323 0.9909
1.3481 -2.3349 -0.1570 0.9893
-2.0366 13.9642 -0.8219 0.9450
-3.0205 12.6747 -0.7589 0.9491
-6.1764 9.2158 -0.6462 0.9565
-7.2404 7.4865 -0.6066 0.9591
-7.7111 6.6681 -0.5937 0.9600
-8.1510 5.8668 -0.5849 0.9606
-8.5659 5.0736 -0.5799 0.9609
-9.3399 3.4782 -0.5805 0.9609
-9.7071 2.6591 -0.5862 0.9605
-10.0660 1.8135 -0.5957 0.9598
-10.4200 0.9312 -0.6093 0.9589
-10.6732 -1.9228 -0.8127 0.9574
-10.9767 -3.0068 -0.8529 0.9554
-11.7006 -6.9302 -1.0191 0.9469
-12.0187 -8.6506 -1.1097 0.9423
-0.9819 -2.9329 -0.2318 0.9877
-0.3386 -2.3215 -0.1758 0.9906
0.0723 -2.1627 -0.1622 0.9914
0.6555 -2.1131 -0.1658 0.9912
0.8868 -2.1580 -0.1748 0.9907
1.5972 -2.5020 -0.2224 0.9882
1.5151 5.7830 -0.4480 0.9763
-0.1631 14.6408 -1.0972 0.9430
-2.3299 12.1552 -0.9275 0.9516
-3.9110 10.1548 -0.8155 0.9573
-4.8543 9.8782 -0.8248 0.9568
-6.0310 8.1854 -0.7619 0.9600
-7.0082 6.6284 -0.7229 0.9620
-8.5935 3.6440 -0.6995 0.9633
-9.2727 2.1009 -0.7125 0.9626
-10.5215 -1.4150 -0.7956 0.9583
-11.1279 -3.5883 -0.8762 0.9542
-11.2465 -4.7689 -0.9155 0.9522
-0.7570 -2.6474 -0.2063 0.9890
0.1675 -2.1433 -0.1611 0.9914
0.7670 -2.1319 -0.1698 0.9910
-1.8549 12.7179 -0.9632 0.9498
-2.7699 11.6230 -0.8954 0.9532
-3.5565 10.6229 -0.8395 0.9561
-4.2436 9.7054 -0.7938 0.9584
-5.1718 9.4373 -0.8065 0.9578
-6.2911 7.7866 -0.7502 0.9606
-6.7787 7.0092 -0.7307 0.9616
-7.6487 5.5053 -0.7062 0.9629
-8.7685 3.2654 -0.7012 0.9632
-9.1077 2.4949 -0.7077 0.9628
-9.7528 0.8715 -0.7338 0.9615
-4.4480 0.0000 -0.4078 0.9823
-9.7071 -0.8674 -0.8935 0.9616
-10.3364 -3.8493 -1.0112 0.9567
-10.5206 -5.0253 -1.0689 0.9542
-10.7387 -6.3605 -1.1442 0.9511
-10.9498 -7.8811 -1.2368 0.9473
-11.1610 -9.6513 -1.3527 0.9425
-0.9761 -2.9154 -0.2819 0.9877
-0.5925 -2.4863 -0.2343 0.9898
0.8842 -2.1516 -0.2133 0.9907
1.1658 -2.2446 -0.2319 0.9899
1.5925 -2.4946 -0.2713 0.9882
1.1366 14.5453 -1.3375 0.9431
-1.2254 12.1810 -1.1224 0.9520
-3.6348 9.4376 -0.9272 0.9602
-4.5276 9.2134 -0.9411 0.9596
-5.1190 8.4270 -0.9039 0.9612
-5.6542 7.6739 -0.8739 0.9624
-7.0069 5.5333 -0.8185 0.9648
-7.3939 4.8369 -0.8100 0.9651
-7.7565 4.1390 -0.8060 0.9653
-8.4213 2.7155 -0.8112 0.9651
-4.0002 0.1784 -0.3671 0.9840
-9.8370 -1.3229 -0.9099 0.9609
-10.0906 -2.2862 -0.9485 0.9593
-10.3370 -3.3332 -0.9957 0.9573
-10.6305 -5.6726 -1.1047 0.9528
-10.8450 -7.0945 -1.1881 0.9493
-0.7547 -2.6395 -0.2517 0.9890
-0.4597 -2.3984 -0.2239 0.9902
-0.0243 -2.1850 -0.2003 0.9913
1.3408 -2.3224 -0.2458 0.9893
0.4645 13.8938 -1.2745 0.9457
-4.8310 8.8155 -0.9216 0.9604
-5.9037 7.3071 -0.8612 0.9630
-6.8031 5.8828 -0.8245 0.9645
-7.2037 5.1850 -0.8137 0.9650
-8.2617 3.0767 -0.8082 0.9652
-4.9080 0.8842 -0.4572 0.9802
-4.1097 0.3673 -0.3783 0.9836
-9.5497 -2.6159 -1.0740 0.9609
-9.9206 -5.8760 -1.2506 0.9547
-10.0534 -7.2360 -1.3435 0.9514
-10.1636 -8.7887 -1.4574 0.9474
-0.9707 -2.8994 -0.3316 0.9878
0.0723 -2.1611 -0.2345 0.9913
0.2614 -2.1225 -0.2320 0.9914
0.4531 -2.1084 -0.2339 0.9914
0.8820 -2.1463 -0.2517 0.9907
1.1625 -2.2383 -0.2736 0.9899
2.4258 14.3814 -1.5819 0.9430
-0.1355 12.1584 -1.3189 0.9523
-1.1289 11.2217 -1.2233 0.9556
-4.2413 8.6309 -1.0431 0.9620
-4.8073 7.9139 -1.0044 0.9634
-5.7895 6.5464 -0.9479 0.9654
-6.2203 5.8832 -0.9287 0.9661
-6.6184 5.2265 -0.9147 0.9666
-6.9880 4.5713 -0.9057 0.9670
-7.6553 3.2461 -0.9019 0.9671
-7.9582 2.5662 -0.9070 0.9669
-4.7637 1.0793 -0.5298 0.9805
-9.2343 -1.2419 -1.0106 0.9632
-9.8466 -5.2543 -1.2106 0.9561
-10.1115 -7.9849 -1.3975 0.9495
-0.4590 -2.3944 -0.2644 0.9902
-0.2281 -2.2675 -0.2472 0.9909
0.1674 -2.1417 -0.2330 0.9914
0.5522 -2.1076 -0.2363 0.9913
1.0081 -2.1724 -0.2598 0.9904
1.3372 -2.3161 -0.2901 0.9893
1.6960 13.7709 -1.5050 0.9457
-0.6512 11.6785 -1.2687 0.9540
-1.5729 10.7850 -1.1822 0.9571
-3.0747 9.1838 -1.0505 0.9618
-4.5315 8.2689 -1.0227 0.9628
-5.0700 7.5650 -0.9878 0.9640
-5.5603 6.8820 -0.9597 0.9650
-7.1632 4.2428 -0.9030 0.9671
-3.9948 0.7197 -0.4403 0.9838
-3.5692 0.0000 -0.4473 0.9857
-8.7920 -1.5839 -1.1195 0.9646
-9.1139 -4.3534 -1.2657 0.9601
-9.2903 -6.6868 -1.4344 0.9549
-9.3334 -9.6506 -1.6824 0.9473
-9.2845 -11.4916 -1.8514 0.9422
-0.5904 -2.4776 -0.3192 0.9898
-0.3370 -2.3105 -0.2926 0.9906
0.2613 -2.1218 -0.2679 0.9914
0.4532 -2.1088 -0.2703 0.9913
0.6536 -2.1071 -0.2765 0.9911
0.8828 -2.1483 -0.2911 0.9907
1.1607 -2.2348 -0.3156 0.9899
1.5831 -2.4798 -0.3687 0.9882
2.2009 13.0478 -1.6582 0.9481
0.9439 12.0796 -1.5184 0.9523
-0.1248 11.2037 -1.4041 0.9558
-1.0462 10.3997 -1.3098 0.9587
-4.5305 7.4582 -1.0936 0.9654
-5.0233 6.8178 -1.0612 0.9664
-5.4738 6.1894 -1.0355 0.9672
-6.2695 4.9510 -1.0011 0.9683
-6.9514 3.7094 -0.9874 0.9687
-7.2570 3.0773 -0.9878 0.9687
-7.5421 2.4320 -0.9931 0.9686
-4.3832 0.9931 -0.5632 0.9820
-3.5494 0.4773 -0.4488 0.9857
-3.6310 -0.1619 -0.4555 0.9855
-9.0430 -2.9160 -1.1907 0.9624
-9.0649 -3.8438 -1.2339 0.9611
-9.3154 -7.3562 -1.4875 0.9533
-0.4582 -2.3903 -0.3050 0.9902
0.3558 -2.1097 -0.2681 0.9914
0.5523 -2.1080 -0.2731 0.9913
0.7649 -2.1260 -0.2831 0.9909
1.3336 -2.3099 -0.3343 0.9893
2.9171 13.5750 -1.7400 0.9456
1.5458 12.5506 -1.5847 0.9503
0.3889 11.6315 -1.4584 0.9542
-0.6019 10.7938 -1.3547 0.9574
-1.4613 10.0197 -1.2689 0.9600
-2.8787 8.5983 -1.1363 0.9641
-4.2660 7.7845 -1.1124 0.9648
-5.2535 6.5024 -1.0476 0.9669
-6.4496 4.6422 -0.9958 0.9685
-6.7902 4.0219 -0.9890 0.9687
-3.8077 0.6860 -0.4848 0.9845
-8.3006 -1.4954 -1.1997 0.9665
-8.4439 -2.3130 -1.2453 0.9652
-8.5219 -3.1736 -1.2934 0.9639
-8.6024 -5.0952 -1.4221 0.9604
-8.6324 -6.2132 -1.5128 0.9579
-8.6228 -7.4564 -1.6214 0.9550
-8.5655 -8.8567 -1.7525 0.9514
-8.2551 -12.3175 -2.1091 0.9419
-0.1238 -2.2203 -0.3163 0.9911
0.4532 -2.1092 -0.3069 0.9913
0.6538 -2.1075 -0.3139 0.9911
0.8837 -2.1503 -0.3307 0.9907
1.1633 -2.2398 -0.3590 0.9899
1.5828 -2.4794 -0.4184 0.9882
2.0134 11.9363 -1.7218 0.9523
-0.1157 10.3848 -1.4772 0.9589
-2.3990 8.3898 -1.2411 0.9654
-4.2828 7.0505 -1.1734 0.9672
-5.1897 5.8681 -1.1142 0.9688
-5.5876 5.2848 -1.0939 0.9694
-6.2930 4.1167 -1.0696 0.9701
-4.1432 0.9387 -0.6042 0.9830
-3.3671 0.4528 -0.4832 0.9864
-3.6292 -0.4881 -0.5209 0.9853
-8.5074 -2.7433 -1.2714 0.9645
-8.5118 -3.6093 -1.3150 0.9633
-8.5748 -4.5756 -1.3824 0.9615
-8.6219 -5.6402 -1.4654 0.9592
-8.6330 -6.8174 -1.5646 0.9565
-8.6008 -8.1346 -1.6838 0.9533
-8.5150 -9.6280 -1.8282 0.9494
-8.3657 -11.3540 -2.0060 0.9446
-0.0243 -2.1792 -0.3100 0.9912
0.1672 -2.1402 -0.3053 0.9914
0.7656 -2.1280 -0.3217 0.9909
1.3382 -2.3178 -0.3807 0.9892
1.2800 5.9567 -0.8666 0.9757
1.4194 11.5250 -1.6516 0.9542
0.3594 10.7510 -1.5300 0.9575
-1.3641 9.3532 -1.3444 0.9625
-2.0745 8.7052 -1.2729 0.9645
-2.7055 8.0809 -1.2121 0.9662
-3.2711 7.4811 -1.1613 0.9675
-4.0290 7.3521 -1.1925 0.9667
-4.5250 6.7518 -1.1561 0.9677
-5.7747 4.9936 -1.0859 0.9696
-6.1270 4.4099 -1.0737 0.9700
-6.4527 3.8220 -1.0667 0.9702
-7.2927 1.9977 -1.0755 0.9699
-3.2915 0.0000 -0.5241 0.9868
-3.3916 -0.3031 -0.5422 0.9863
-7.8593 -1.4159 -1.2716 0.9682
-7.9788 -2.1856 -1.3173 0.9670
-8.0631 -4.7758 -1.4923 0.9628
-8.0589 -5.8005 -1.5811 0.9606
-8.0118 -6.9280 -1.6866 0.9580
-7.9127 -8.1816 -1.8124 0.9549
-0.5914 -2.4815 -0.4062 0.9897
-0.3363 -2.3060 -0.3711 0.9906
-0.1237 -2.2182 -0.3538 0.9910
0.0722 -2.1587 -0.3439 0.9913
0.2611 -2.1202 -0.3402 0.9914
0.8845 -2.1523 -0.3705 0.9906
1.5964 -2.5007 -0.4724 0.9881
6.1979 13.3562 -2.3446 0.9421
1.5423 5.8869 -0.9690 0.9757
0.8061 10.3161 -1.6477 0.9590
-0.9118 9.0632 -1.4505 0.9638
-2.8282 7.3431 -1.2530 0.9686
-3.5605 7.2454 -1.2855 0.9678
-4.0598 6.6834 -1.2452 0.9688
-4.9325 5.5772 -1.1856 0.9703
-5.3155 5.0273 -1.1650 0.9708
-5.6680 4.4760 -1.1500 0.9712
-5.9929 3.9204 -1.1403 0.9714
-6.8238 2.2004 -1.1417 0.9714
-3.9744 0.9005 -0.6489 0.9836
-3.2540 0.4376 -0.5228 0.9868
-3.2600 0.1454 -0.5196 0.9869
-3.3344 -0.1487 -0.5315 0.9866
-8.0197 -3.4006 -1.3871 0.9653
-8.0513 -4.2963 -1.4532 0.9637
-8.0659 -5.2765 -1.5348 0.9617
-8.0413 -6.3501 -1.6316 0.9593
-0.7558 -2.6434 -0.4378 0.9889
-0.0243 -2.1784 -0.3469 0.9912
0.1672 -2.1394 -0.3417 0.9913
0.3560 -2.1104 -0.3408 0.9914
5.3092 12.9193 -2.2242 0.9450
1.2729 5.9238 -0.9648 0.9758
-0.5224 9.3653 -1.4936 0.9627
-1.2787 8.7673 -1.4108 0.9647
-1.9506 8.1851 -1.3399 0.9665
-2.5511 7.6197 -1.2795 0.9680
-3.8160 6.9634 -1.2644 0.9683
-4.2927 6.4052 -1.2278 0.9693
-4.7284 5.8525 -1.1981 0.9700
-5.1280 5.3023 -1.1746 0.9706
-5.4953 4.7520 -1.1569 0.9710
-6.1458 3.6402 -1.1374 0.9715
-6.4337 3.0732 -1.1354 0.9715
-4.5041 1.2338 -0.7436 0.9813
-3.2817 -0.2932 -0.5809 0.9867
-7.4605 -1.3440 -1.3367 0.9697
-7.5602 -2.0709 -1.3822 0.9687
-7.6213 -2.8382 -1.4340 0.9675
-7.5850 -4.4926 -1.5544 0.9648
-7.5544 -5.4373 -1.6412 0.9629
-7.4790 -6.4673 -1.7434 0.9606
-7.3498 -7.5996 -1.8642 0.9580
-6.8819 -10.2685 -2.1796 0.9510
-6.5073 -11.8743 -2.3875 0.9465
-0.9977 -2.9802 -0.5542 0.9873
-0.5933 -2.4896 -0.4513 0.9897
0.0721 -2.1579 -0.3807 0.9913
0.2610 -2.1194 -0.3765 0.9914
0.4534 -2.1100 -0.3805 0.9913
0.6547 -2.1107 -0.3897 0.9911
0.8854 -2.1544 -0.4107 0.9906
1.1685 -2.2498 -0.4470 0.9898
1.6173 -2.5335 -0.5300 0.9879
5.6107 12.0907 -2.3503 0.9473
2.8271 10.7909 -1.9669 0.9557
1.7185 10.1877 -1.8217 0.9589
-0.8563 8.5122 -1.5085 0.9658
-1.5301 7.9825 -1.4331 0.9675
-3.3780 6.8740 -1.3505 0.9694
-3.8579 6.3510 -1.3103 0.9703
-4.6983 5.3125 -1.2505 0.9716
-5.0673 4.7927 -1.2298 0.9721
-6.0060 3.2049 -1.2004 0.9727
-6.2697 2.6586 -1.2008 0.9727
-6.5113 2.0996 -1.2063 0.9726
-3.8238 0.8663 -0.6913 0.9842
-3.2276 -0.1439 -0.5697 0.9870
-3.3507 -0.4506 -0.5961 0.9864
-7.5135 -1.7023 -1.3584 0.9692
-7.6003 -2.4508 -1.4081 0.9681
-7.5749 -4.9552 -1.5961 0.9639
-7.5228 -5.9407 -1.6902 0.9618
-7.2617 -8.2109 -1.9328 0.9565
-7.0293 -9.5402 -2.0895 0.9530
-6.2702 -12.7594 -2.5068 0.9439
-0.7589 -2.6540 -0.4867 0.9889
-0.4586 -2.3924 -0.4295 0.9902
-0.2273 -2.2589 -0.4003 0.9908
-0.0243 -2.1776 -0.3840 0.9912
0.3561 -2.1108 -0.3775 0.9913
1.0150 -2.1873 -0.4252 0.9903
3.4442 11.1032 -2.0498 0.9539
1.2698 5.9089 -1.0657 0.9758
-1.2029 8.2477 -1.4697 0.9667
-2.4125 7.2057 -1.3399 0.9696
-3.1024 7.0954 -1.3655 0.9690
-3.6235 6.6120 -1.3295 0.9698
-4.0821 6.0909 -1.2929 0.9707
-4.5017 5.5719 -1.2631 0.9713
-4.8867 5.0528 -1.2395 0.9719
-5.2405 4.5317 -1.2216 0.9723
-5.5660 4.0062 -1.2092 0.9725
-6.3931 2.3809 -1.2029 0.9727
-4.2904 1.1753 -0.7844 0.9821
-3.4372 0.6192 -0.6158 0.9859
-3.1775 -0.2839 -0.6174 0.9871
-7.1812 -1.9671 -1.4409 0.9701
-7.1581 -4.2397 -1.6100 0.9667
-7.1069 -5.1153 -1.6945 0.9650
-6.8592 -7.0923 -1.9094 0.9606
-5.4444 -12.4517 -2.6299 0.9461
-1.0049 -3.0013 -0.6125 0.9872
-0.3377 -2.3153 -0.4528 0.9905
-0.1236 -2.2158 -0.4295 0.9910
0.0721 -2.1571 -0.4177 0.9912
0.4535 -2.1104 -0.4177 0.9912
1.1712 -2.2549 -0.4917 0.9897
1.6389 -2.5673 -0.5894 0.9877
6.6833 11.5758 -2.5867 0.9470
1.6003 9.4871 -1.8618 0.9616
0.7025 8.9900 -1.7450 0.9639
-0.8070 8.0219 -1.5602 0.9677
-2.5429 6.6026 -1.3692 0.9716
-3.2123 6.5369 -1.4095 0.9708
-4.0967 5.5601 -1.3365 0.9723
-5.7428 3.0645 -1.2597 0.9738
-5.9949 2.5421 -1.2601 0.9738
-3.1273 -0.1394 -0.6058 0.9873
-7.1430 -1.6184 -1.4173 0.9706
-7.1819 -3.0454 -1.5096 0.9687
-6.9420 -6.5657 -1.8491 0.9618
-6.7601 -7.6437 -1.9747 0.9593
-6.5072 -8.8316 -2.1229 0.9563
-5.7204 -11.6407 -2.5100 0.9485
-5.1290 -13.3171 -2.7616 0.9435
-0.7620 -2.6649 -0.5364 0.9888
-0.2278 -2.2641 -0.4404 0.9908
-0.0242 -2.1768 -0.4213 0.9912
0.1670 -2.1378 -0.4150 0.9913
0.3561 -2.1112 -0.4143 0.9913
0.5527 -2.1096 -0.4220 0.9912
1.0172 -2.1920 -0.4676 0.9902
1.3575 -2.3512 -0.5254 0.9890
-1.1348 7.7806 -1.5216 0.9685
-1.7405 7.3034 -1.4529 0.9699
-3.4484 6.2926 -1.3886 0.9712
-4.2946 5.3155 -1.3224 0.9725
-5.0069 4.3297 -1.2810 0.9734
-5.6080 3.3217 -1.2613 0.9738
-5.8717 2.8047 -1.2592 0.9738
-6.1125 2.2763 -1.2622 0.9738
-4.1641 1.1407 -0.8355 0.9826
-3.3306 0.6000 -0.6549 0.9863
-3.0639 0.2738 -0.5953 0.9875
-3.0994 -0.2770 -0.6560 0.9874
-3.2303 -0.5820 -0.6920 0.9867
-6.8363 -1.8726 -1.4943 0.9714
-6.8053 -3.2506 -1.5900 0.9696
-6.7070 -4.8274 -1.7422 0.9668
-5.8911 -8.7900 -2.2308 0.9577
-4.9833 -11.3971 -2.6224 0.9504
-0.1239 -2.2222 -0.4692 0.9909
0.0721 -2.1570 -0.4550 0.9912
0.8871 -2.1586 -0.4920 0.9905
1.6613 -2.6024 -0.6509 0.9875
7.6923 10.9424 -2.8199 0.9468
4.7100 10.1497 -2.3589 0.9553
3.5004 9.7297 -2.1799 0.9586
0.6597 8.4427 -1.7853 0.9660
-0.7624 7.5785 -1.6058 0.9693
-3.9136 5.3115 -1.3909 0.9734
-4.2876 4.8480 -1.3644 0.9739
-5.7415 2.4346 -1.3148 0.9748
-3.5520 0.8048 -0.7678 0.9852
-2.9940 0.1335 -0.6318 0.9878
-6.8603 -2.2121 -1.5196 0.9710
-6.7929 -3.6248 -1.6232 0.9690
-6.7460 -4.4130 -1.6995 0.9676
-6.5180 -6.1646 -1.8914 0.9640
-6.3210 -7.1472 -2.0115 0.9617
-6.0545 -8.2172 -2.1518 0.9591
-5.7044 -9.3908 -2.3164 0.9561
-4.6751 -12.1386 -2.7423 0.9482
-0.7651 -2.6758 -0.5867 0.9887
-0.0243 -2.1807 -0.4598 0.9911
0.1670 -2.1370 -0.4519 0.9913
0.5528 -2.1100 -0.4598 0.9911
1.0194 -2.1968 -0.5106 0.9901
1.3641 -2.3627 -0.5752 0.9889
8.5897 11.1301 -2.9640 0.9441
5.3791 10.3566 -2.4603 0.9534
4.0854 9.9411 -2.2659 0.9570
2.9521 9.5168 -2.1006 0.9601
1.2662 5.8925 -1.2706 0.9757
1.0663 8.6580 -1.8391 0.9650
0.2751 8.2274 -1.7355 0.9669
-1.0735 7.3608 -1.5682 0.9700
-2.1739 6.4932 -1.4436 0.9724
-3.2885 6.0008 -1.4426 0.9724
-3.7142 5.5420 -1.4065 0.9731
-4.1045 5.0803 -1.3769 0.9737
-4.7920 4.1438 -1.3356 0.9744
-4.0001 1.0957 -0.8744 0.9832
-2.9810 0.2664 -0.6310 0.9878
-2.9710 -0.0000 -0.6781 0.9879
-3.0430 -0.2719 -0.6973 0.9875
-6.5209 -1.7862 -1.5432 0.9726
-6.5489 -2.4388 -1.5950 0.9717
-6.4739 -3.0923 -1.6375 0.9710
-6.2221 -5.3804 -1.8775 0.9668
-6.0442 -6.2496 -1.9844 0.9650
-5.4922 -8.1949 -2.2517 0.9603
-5.0927 -9.2930 -2.4187 0.9575
-4.5874 -10.4916 -2.6135 0.9541
-3.9571 -11.8193 -2.8449 0.9501
-0.5993 -2.5146 -0.5900 0.9895
-0.3398 -2.3297 -0.5374 0.9904
-0.1243 -2.2288 -0.5095 0.9909
0.0723 -2.1639 -0.4942 0.9912
0.4537 -2.1112 -0.4929 0.9912
0.6565 -2.1165 -0.5058 0.9909
8.6323 10.2103 -3.0517 0.9466
7.0109 9.9732 -2.7825 0.9512
2.2786 8.6973 -2.0521 0.9638
0.6216 7.9550 -1.8212 0.9678
-3.7450 5.0827 -1.4410 0.9744
-4.4379 4.1974 -1.3942 0.9752
-5.2757 2.8152 -1.3649 0.9758
-5.7161 1.8432 -1.3708 0.9757
-3.4289 0.7769 -0.8025 0.9857
-2.9453 0.1313 -0.6729 0.9880
-2.9994 -0.1337 -0.6853 0.9878
-3.0959 -0.4163 -0.7130 0.9873
-6.5020 -2.7571 -1.6120 0.9714
-6.2908 -4.9678 -1.8296 0.9676
-6.1403 -5.8074 -1.9290 0.9659
-5.9328 -6.7083 -2.0440 0.9639
-5.6583 -7.6795 -2.1772 0.9616
-0.7683 -2.6870 -0.6379 0.9886
-0.4630 -2.4152 -0.5613 0.9900
-0.2292 -2.2778 -0.5225 0.9907
-0.0244 -2.1877 -0.4994 0.9911
0.5529 -2.1104 -0.4979 0.9911
1.0217 -2.2016 -0.5540 0.9901
1.3708 -2.3744 -0.6258 0.9888
9.5324 10.3064 -3.2043 0.9440
7.7936 10.0985 -2.9115 0.9490
4.9529 9.5362 -2.4526 0.9569
1.0030 8.1438 -1.8728 0.9669
0.2596 7.7648 -1.7733 0.9686
-0.4112 7.3755 -1.6860 0.9701
-1.0182 6.9813 -1.6103 0.9715
-3.1418 5.7331 -1.4921 0.9735
-3.5524 5.3006 -1.4564 0.9742
-3.9294 4.8635 -1.4271 0.9747
-5.1514 3.0512 -1.3665 0.9757
-5.6144 2.0908 -1.3674 0.9757
-2.9277 0.2616 -0.6709 0.9880
-3.1004 -0.5586 -0.7743 0.9871
-6.1707 -2.9475 -1.6809 0.9722
-6.1119 -3.6201 -1.7461 0.9712
-6.0220 -4.3344 -1.8237 0.9699
-5.8875 -5.0911 -1.9132 0.9684
-5.7017 -5.8955 -2.0160 0.9668
-5.4565 -6.7536 -2.1341 0.9649
-4.7450 -8.6585 -2.4269 0.9601
-3.6399 -10.8717 -2.8181 0.9539
-0.6013 -2.5232 -0.6376 0.9894
-0.3408 -2.3370 -0.5805 0.9903
-0.1246 -2.2355 -0.5503 0.9908
0.2617 -2.1248 -0.5262 0.9912
0.4544 -2.1147 -0.5317 0.9911
0.8888 -2.1628 -0.5748 0.9904
1.1793 -2.2705 -0.6289 0.9895
1.7083 -2.6761 -0.7804 0.9870
6.4364 9.1560 -2.7510 0.9549
4.0444 8.7155 -2.3617 0.9612
3.0374 8.4427 -2.2054 0.9637
1.3237 7.8478 -1.9562 0.9677
-0.0799 7.1711 -1.7628 0.9709
-1.2373 6.4548 -1.6155 0.9733
-1.7407 6.0878 -1.5563 0.9743
-2.3449 6.0884 -1.6037 0.9735
-3.5892 4.8712 -1.4873 0.9754
-4.2591 4.0282 -1.4409 0.9761
-4.5532 3.5956 -1.4261 0.9764
-5.0674 2.7041 -1.4118 0.9766
-3.3132 0.7507 -0.8350 0.9861
-2.8978 0.1292 -0.7130 0.9881
-2.9494 -0.1315 -0.7257 0.9879
-3.0390 -0.4087 -0.7537 0.9874
-3.1571 -0.7153 -0.7957 0.9868
-6.2437 -2.0133 -1.6125 0.9733
-6.1419 -3.2774 -1.7112 0.9717
-6.0722 -3.9722 -1.7835 0.9706
-5.8015 -5.4870 -1.9628 0.9676
-4.9544 -8.1560 -2.3456 0.9615
-0.2299 -2.2848 -0.5644 0.9906
0.1678 -2.1476 -0.5295 0.9912
0.5532 -2.1114 -0.5365 0.9910
0.7699 -2.1400 -0.5590 0.9907
1.0239 -2.2065 -0.5979 0.9900
8.7485 9.4588 -3.1670 0.9483
7.1279 9.2359 -2.8676 0.9531
4.5917 8.8406 -2.4486 0.9598
3.5270 8.5826 -2.2808 0.9625
2.5737 8.2969 -2.1352 0.9649
0.9463 7.6839 -1.9030 0.9686
0.2456 7.3450 -1.8064 0.9702
-0.9679 6.6365 -1.6485 0.9728
-1.4946 6.2715 -1.5847 0.9738
-3.7675 4.6631 -1.4735 0.9756
-4.6908 3.3762 -1.4206 0.9765
-4.9477 2.9306 -1.4135 0.9766
-5.3923 2.0081 -1.4144 0.9766
-2.8807 0.2574 -0.7109 0.9882
-2.8744 0.0000 -0.7574 0.9882
-5.9641 -1.6337 -1.6294 0.9747
-5.9726 -2.2242 -1.6794 0.9740
-5.7261 -4.1213 -1.8590 0.9712
-5.3936 -5.5769 -2.0443 0.9684
-5.1453 -6.3684 -2.1573 0.9667
-4.8309 -7.2081 -2.2865 0.9647
-4.4394 -8.1008 -2.4341 0.9625
-3.3702 -10.0662 -2.7971 0.9570
-0.6034 -2.5319 -0.6858 0.9893
-0.3419 -2.3445 -0.6243 0.9902
0.0728 -2.1781 -0.5742 0.9910
0.8914 -2.1692 -0.6180 0.9903
10.8616 8.9774 -3.7131 0.9434
4.8044 8.3214 -2.5319 0.9610
2.8488 7.9183 -2.2174 0.9658
2.0092 7.6691 -2.0890 0.9677
0.5562 7.1174 -1.8812 0.9709
-0.0758 6.8084 -1.7941 0.9722
-0.6525 6.4865 -1.7178 0.9734
-1.1797 6.1544 -1.6512 0.9744
-3.4447 4.6752 -1.5302 0.9763
-4.8734 2.6005 -1.4555 0.9774
-5.2784 1.7021 -1.4614 0.9773
-2.8515 0.1272 -0.7521 0.9883
-2.9007 -0.1293 -0.7651 0.9881
-2.9836 -0.4013 -0.7933 0.9876
-3.0953 -0.7013 -0.8363 0.9870
-5.9721 -1.9258 -1.6534 0.9744
-5.6612 -4.4706 -1.9008 0.9706
-5.2771 -5.9669 -2.0990 0.9676
-4.9970 -6.7819 -2.2197 0.9658
-4.6455 -7.6476 -2.3578 0.9637
-3.6785 -9.5510 -2.6969 0.9585
-0.4660 -2.4310 -0.6522 0.9898
-0.2306 -2.2919 -0.6070 0.9905
0.5553 -2.1197 -0.5774 0.9910
1.0283 -2.2158 -0.6437 0.9899
1.3903 -2.4080 -0.7327 0.9886
10.0012 9.0456 -3.5533 0.9457
8.4135 9.0966 -3.2650 0.9500
6.5628 8.5036 -2.8304 0.9565
4.2772 8.2351 -2.4452 0.9623
3.3009 8.0324 -2.2883 0.9647
0.8949 7.2661 -1.9291 0.9702
0.2329 6.9647 -1.8362 0.9716
-0.3708 6.6489 -1.7547 0.9728
-2.0121 6.0099 -1.6700 0.9741
-2.4651 5.6380 -1.6214 0.9749
-2.8817 5.2584 -1.5800 0.9755
-3.2648 4.8714 -1.5452 0.9760
-3.6171 4.4770 -1.5166 0.9765
-4.2381 3.6648 -1.4764 0.9771
-4.5100 3.2462 -1.4642 0.9773
-3.7366 1.0236 -1.0209 0.9841
-3.0018 0.5408 -0.8037 0.9875
-2.8347 0.2533 -0.7499 0.9883
-2.9786 -0.5366 -0.8515 0.9875
-5.7178 -2.1293 -1.7167 0.9750
-5.6358 -2.6920 -1.7573 0.9744
-5.5594 -3.2928 -1.8179 0.9735
-5.3093 -4.5911 -1.9748 0.9713
-4.8654 -6.0219 -2.1782 0.9683
-4.1688 -7.6070 -2.4406 0.9646
-0.1254 -2.2491 -0.6338 0.9907
0.0731 -2.1853 -0.6152 0.9910
0.2634 -2.1387 -0.6063 0.9911
0.4580 -2.1314 -0.6134 0.9910
0.8963 -2.1811 -0.6635 0.9902
1.1942 -2.2993 -0.7290 0.9893
11.4865 7.8850 -3.9200 0.9438
9.8873 8.1721 -3.6091 0.9481
8.4248 8.3315 -3.3337 0.9520
5.5204 7.8528 -2.7007 0.9609
0.5279 6.7560 -1.9066 0.9722
-0.0722 6.4779 -1.8227 0.9734
-1.6944 5.9259 -1.7341 0.9747
-2.5687 5.2272 -1.6387 0.9761
-2.9548 4.8642 -1.6013 0.9766
-3.6373 4.1127 -1.5448 0.9774
-3.9376 3.7242 -1.5249 0.9777
-4.2128 3.3269 -1.5103 0.9779
-4.8978 2.0768 -1.4968 0.9781
-5.0813 1.6385 -1.5022 0.9781
-2.8062 0.1251 -0.7903 0.9884
-2.8531 -0.1272 -0.8035 0.9882
-2.9298 -0.3940 -0.8317 0.9878
-5.6904 -2.4129 -1.7390 0.9746
-5.5967 -2.9865 -1.7848 0.9740
-5.3881 -4.2549 -1.9317 0.9719
-5.2184 -4.9355 -2.0209 0.9706
-3.4315 -8.9096 -2.6863 0.9611
-0.7955 -2.7819 -0.8141 0.9880
-0.0246 -2.2096 -0.6217 0.9909
0.5576 -2.1282 -0.6190 0.9909
1.4102 -2.4425 -0.7935 0.9883
4.9897 7.8163 -2.6091 0.9622
4.0008 7.7029 -2.4421 0.9646
2.2800 7.3501 -2.1652 0.9685
0.2213 6.6190 -1.8633 0.9729
-0.3531 6.3329 -1.7846 0.9740
-0.8799 6.0329 -1.7153 0.9750
-2.3635 5.4054 -1.6599 0.9758
-3.1362 4.6796 -1.5849 0.9769
-4.7977 2.2917 -1.4959 0.9781
-4.9923 1.8592 -1.4988 0.9781
-2.7884 0.2492 -0.7877 0.9884
-2.9224 -0.5265 -0.8890 0.9877
-3.0126 -0.8252 -0.9351 0.9870
-5.3984 -2.5786 -1.7911 0.9753
-5.2073 -3.7480 -1.9208 0.9736
-3.9271 -7.1661 -2.4464 0.9665
-2.9305 -8.7530 -2.7634 0.9622
-0.6160 -2.5847 -0.7955 0.9890
0.2644 -2.1470 -0.6476 0.9910
0.4598 -2.1400 -0.6553 0.9909
0.6669 -2.1500 -0.6739 0.9906
0.9013 -2.1932 -0.7099 0.9901
11.9463 6.7209 -4.1036 0.9444
5.3595 7.6241 -2.7900 0.9618
2.5302 7.0328 -2.2376 0.9693
0.5022 6.4265 -1.9298 0.9734
-2.0625 5.3552 -1.7180 0.9763
-2.4673 5.0208 -1.6748 0.9769
-2.8407 4.6764 -1.6381 0.9774
-3.1848 4.3224 -1.6074 0.9778
-3.5016 3.9593 -1.5824 0.9782
-3.7925 3.5870 -1.5628 0.9784
-4.3020 2.8143 -1.5390 0.9788
-4.7205 2.0017 -1.5350 0.9788
-4.8968 1.5790 -1.5403 0.9787
-3.0564 0.6925 -0.9382 0.9870
-2.7204 0.3659 -0.8218 0.9886
-2.7619 0.1232 -0.8277 0.9885
-2.9771 -0.6745 -0.9139 0.9873
-3.1092 -1.0026 -0.9780 0.9865
-5.4588 -2.3147 -1.7751 0.9755
-5.3556 -2.8579 -1.8175 0.9750
-5.2664 -3.4451 -1.8841 0.9741
-5.1379 -4.0573 -1.9600 0.9730
-4.7436 -5.3636 -2.1437 0.9705
-4.1244 -6.7897 -2.3784 0.9674
-3.7105 -7.5506 -2.5187 0.9655
-3.2137 -8.3441 -2.6769 0.9634
-0.8093 -2.8303 -0.8813 0.9878
-0.4712 -2.4583 -0.7494 0.9896
-0.0247 -2.2171 -0.6638 0.9908
0.5598 -2.1368 -0.6613 0.9908
0.7810 -2.1709 -0.6907 0.9904
11.1905 6.9695 -3.9468 0.9464
6.0204 7.8009 -2.9501 0.9597
3.7557 7.2311 -2.4394 0.9665
2.9214 7.1087 -2.3009 0.9684
0.2107 6.3032 -1.8881 0.9740
-0.3369 6.0430 -1.8120 0.9750
-0.8412 5.7679 -1.7450 0.9760
-1.3909 5.8363 -1.7962 0.9753
-2.6577 4.8498 -1.6557 0.9772
-3.6502 3.7743 -1.5719 0.9783
-4.6241 2.2088 -1.5342 0.9788
-4.8114 1.7918 -1.5371 0.9788
-2.7412 0.2450 -0.8239 0.9886
-2.7380 0.0000 -0.8695 0.9886
-2.8694 -0.5170 -0.9259 0.9878
-2.9540 -0.8092 -0.9727 0.9872
-5.2622 -1.9597 -1.7833 0.9767
-5.1780 -2.4733 -1.8224 0.9762
-5.0904 -3.0150 -1.8789 0.9755
-4.9785 -3.5833 -1.9481 0.9746
-4.3818 -5.4234 -2.2143 0.9712
-4.0778 -6.0844 -2.3261 0.9697
-3.7100 -6.7698 -2.4517 0.9681
-2.7486 -8.2096 -2.7495 0.9643
-0.3466 -2.3763 -0.7627 0.9900
0.2655 -2.1556 -0.6898 0.9909
0.9073 -2.2079 -0.7581 0.9900
9.5906 6.5836 -3.6944 0.9524
8.3649 6.9138 -3.4465 0.9555
7.2123 7.1324 -3.2214 0.9583
5.1336 7.3026 -2.8349 0.9632
3.9705 6.8772 -2.5219 0.9672
2.3943 6.6552 -2.2462 0.9708
1.7055 6.5101 -2.1373 0.9722
0.4786 6.1248 -1.9511 0.9745
-0.5698 5.6636 -1.8077 0.9764
-1.1005 5.7410 -1.8564 0.9758
-1.9814 5.1447 -1.7509 0.9771
-2.3726 4.8282 -1.7085 0.9777
-2.7340 4.5008 -1.6724 0.9781
-3.0674 4.1631 -1.6423 0.9785
-3.6565 3.4583 -1.5983 0.9791
-4.1499 2.7148 -1.5749 0.9794
-4.5540 1.9311 -1.5709 0.9795
-4.7235 1.5231 -1.5762 0.9794
-2.9791 0.6750 -0.9701 0.9873
-2.7612 -0.1231 -0.8778 0.9885
-2.8255 -0.3800 -0.9054 0.9881
-3.1071 -1.0019 -1.0368 0.9864
-5.2405 -2.2221 -1.8077 0.9764
-5.1350 -2.7401 -1.8485 0.9759
-4.9077 -3.8756 -1.9860 0.9741
-3.0201 -7.8415 -2.6687 0.9653
-0.4761 -2.4837 -0.8031 0.9894
-0.2328 -2.3138 -0.7385 0.9903
-0.0248 -2.2247 -0.7066 0.9907
0.3630 -2.1520 -0.6931 0.9909
1.0533 -2.2698 -0.7947 0.9896
12.9152 5.1402 -4.4146 0.9433
11.5500 5.8365 -4.1098 0.9471
10.2290 6.3707 -3.8271 0.9507
7.7792 7.0359 -3.3312 0.9569
6.6644 7.2055 -3.1171 0.9596
4.6066 7.2161 -2.7189 0.9647
3.5450 6.8253 -2.4425 0.9682
2.7603 6.7168 -2.3063 0.9700
1.2713 5.9160 -1.9217 0.9749
0.7674 6.2307 -1.9937 0.9740
0.2011 6.0134 -1.9108 0.9751
-0.3220 5.7759 -1.8372 0.9760
-0.8337 5.7161 -1.8346 0.9760
-1.7740 5.2986 -1.7746 0.9768
-2.1809 4.9879 -1.7289 0.9774
-2.5570 4.6658 -1.6897 0.9779
-3.5185 3.6381 -1.6073 0.9790
-3.7885 3.2761 -1.5906 0.9792
-4.0351 2.9043 -1.5789 0.9794
-2.6951 0.2409 -0.8593 0.9887
-2.6945 0.0000 -0.9053 0.9887
-2.7374 -0.2446 -0.9234 0.9885
-5.0576 -1.8835 -1.8133 0.9775
-4.8813 -2.8912 -1.9061 0.9763
-4.7668 -3.4309 -1.9733 0.9755
-4.6132 -3.9892 -2.0491 0.9746
-4.1712 -5.1627 -2.2300 0.9724
-3.5136 -6.4114 -2.4564 0.9696
-3.0876 -7.0614 -2.5894 0.9680
-0.3497 -2.3979 -0.8142 0.9898
0.2666 -2.1644 -0.7327 0.9908
0.9146 -2.2255 -0.8084 0.9899
1.2374 -2.3825 -0.9020 0.9887
13.4858 3.3731 -4.6706 0.9430
12.3275 4.2806 -4.3844 0.9464
11.1508 5.0244 -4.1092 0.9497
8.8489 6.0745 -3.6062 0.9557
7.7583 6.4124 -3.3817 0.9584
6.7211 6.6467 -3.1759 0.9609
4.8234 6.8613 -2.8179 0.9652
3.9643 6.8664 -2.6639 0.9671
2.9709 6.4022 -2.3713 0.9707
1.0174 6.0316 -2.0551 0.9745
0.4569 5.8474 -1.9706 0.9756
-2.2841 4.6480 -1.7400 0.9784
-2.6341 4.3363 -1.7046 0.9788
-3.2550 3.6804 -1.6508 0.9795
-3.7788 2.9842 -1.6178 0.9799
-4.0068 2.6211 -1.6087 0.9800
-4.2128 2.2480 -1.6043 0.9801
-4.5604 1.4706 -1.6099 0.9800
-2.6272 0.5952 -0.9051 0.9887
-2.8653 -0.6492 -0.9871 0.9877
-5.0368 -2.1358 -1.8381 0.9772
-4.8287 -3.1588 -1.9387 0.9759
-4.0289 -5.4680 -2.2820 0.9717
-3.7009 -6.0925 -2.3951 0.9704
-3.3094 -6.7345 -2.5211 0.9688
-2.8469 -7.3918 -2.6614 0.9671
-0.8823 -3.0855 -1.0782 0.9865
-0.2346 -2.3322 -0.7875 0.9902
0.1706 -2.1837 -0.7359 0.9908
0.5645 -2.1546 -0.7483 0.9906
0.7897 -2.1950 -0.7837 0.9902
1.0621 -2.2888 -0.8478 0.9894
8.2974 6.2573 -3.4916 0.9571
7.2326 6.5415 -3.2765 0.9597
6.2242 6.7296 -3.0798 0.9621
4.3865 6.8713 -2.7389 0.9662
1.2747 5.9318 -2.0385 0.9747
-0.3121 5.5981 -1.8838 0.9766
-0.8225 5.6398 -1.9149 0.9762
-2.0986 4.7996 -1.7600 0.9781
-2.4625 4.4935 -1.7216 0.9786
-3.1092 3.8482 -1.6622 0.9793
-3.3947 3.5101 -1.6406 0.9796
-3.6565 3.1620 -1.6241 0.9798
-4.3077 2.0576 -1.6040 0.9801
-2.6265 0.7195 -0.9150 0.9886
-2.6519 0.0000 -0.9403 0.9888
-2.7668 -0.4984 -0.9969 0.9881
-4.8663 -1.8122 -1.8413 0.9782
-4.6867 -2.7759 -1.9315 0.9771
-4.4160 -3.8187 -2.0701 0.9755
-4.2200 -4.3634 -2.1524 0.9746
-3.9779 -4.9235 -2.2444 0.9735
-0.6431 -2.6984 -0.9836 0.9883
0.0741 -2.2154 -0.7860 0.9906
0.2677 -2.1734 -0.7765 0.9907
10.2385 4.6133 -3.9819 0.9535
9.2153 5.1845 -3.7492 0.9561
8.2071 5.6339 -3.5298 0.9586
5.3928 6.3786 -2.9618 0.9652
2.1587 6.0004 -2.2611 0.9733
0.9710 5.7567 -2.0701 0.9755
-0.0619 5.5561 -1.9702 0.9767
-0.5566 5.5329 -1.9718 0.9767
-1.8348 4.7641 -1.8102 0.9786
-2.5402 4.1817 -1.7349 0.9794
-2.8536 3.8729 -1.7058 0.9798
-3.6508 2.8830 -1.6495 0.9805
-4.2494 1.8019 -1.6367 0.9806
-4.4066 1.4210 -1.6417 0.9805
-2.5615 0.5804 -0.9313 0.9889
-2.6347 0.1175 -0.9351 0.9889
-2.7260 -0.3666 -0.9753 0.9884
-4.7373 -2.5279 -1.9040 0.9775
-4.1050 -4.6416 -2.1972 0.9740
-3.8381 -5.2090 -2.2943 0.9729
-3.1371 -6.3838 -2.5222 0.9703
-2.6909 -6.9867 -2.6548 0.9687
-2.1717 -7.5951 -2.8010 0.9670
-0.0250 -2.2451 -0.7961 0.9905
0.3660 -2.1698 -0.7803 0.9907
1.0712 -2.3083 -0.9023 0.9893
1.5659 -2.7123 -1.1105 0.9868
13.5993 1.5213 -4.8522 0.9436
11.7570 3.5040 -4.3501 0.9493
9.7261 4.9148 -3.8640 0.9548
6.7528 6.1076 -3.2285 0.9621
5.8345 6.3083 -3.0469 0.9642
4.9630 6.4308 -2.8804 0.9661
3.3674 6.4835 -2.5905 0.9695
2.4980 6.0788 -2.3304 0.9725
1.2526 5.8293 -2.1142 0.9750
0.6992 5.6774 -2.0283 0.9760
-1.2312 5.1662 -1.8831 0.9777
-3.2781 3.3895 -1.6720 0.9802
-4.3306 1.6128 -1.6386 0.9806
-2.6624 0.4796 -0.9592 0.9886
-2.6060 0.2329 -0.9277 0.9890
-2.6498 -0.2368 -0.9934 0.9887
-2.7171 -0.4895 -1.0309 0.9883
-4.6868 -1.7454 -1.8675 0.9789
-4.3873 -3.1577 -2.0185 0.9772
-4.0384 -4.1757 -2.1692 0.9755
-3.5125 -5.2411 -2.3559 0.9734
-3.1720 -5.7881 -2.4646 0.9722
-0.3566 -2.4453 -0.9228 0.9895
-0.1289 -2.3115 -0.8645 0.9902
0.6817 -2.1977 -0.8592 0.9902
0.9296 -2.2622 -0.9133 0.9896
1.2753 -2.4555 -1.0332 0.9883
9.2091 -9.9568 -5.0645 0.9437
13.6394 -1.5258 -5.1249 0.9431
5.9032 5.8378 -3.1001 0.9652
5.0799 6.0086 -2.9381 0.9670
2.8495 6.1406 -2.5278 0.9715
2.1187 5.8890 -2.3370 0.9736
1.4855 5.6701 -2.1887 0.9753
0.4318 5.5266 -2.0700 0.9766
-2.4517 4.0361 -1.7634 0.9800
-2.7558 3.7402 -1.7348 0.9804
-3.0363 3.4332 -1.7114 0.9806
-3.2940 3.1155 -1.6930 0.9808
-3.5297 2.7874 -1.6795 0.9810
-3.9372 2.1010 -1.6664 0.9811
-4.2612 1.3741 -1.6718 0.9811
-2.5325 0.3406 -0.9542 0.9891
-2.5920 0.1156 -0.9689 0.9890
-2.7556 -0.6243 -1.0551 0.9880
-2.8043 -0.9043 -1.1002 0.9875
-4.5575 -2.4319 -1.9290 0.9782
-4.4505 -2.9113 -1.9859 0.9775
-4.3149 -3.4074 -2.0531 0.9768
-4.1409 -3.9164 -2.1283 0.9760
-3.9248 -4.4379 -2.2123 0.9750
-3.6625 -4.9708 -2.3056 0.9740
-3.3493 -5.5136 -2.4089 0.9728
-2.5495 -6.6195 -2.6488 0.9702
-2.0517 -7.1752 -2.7867 0.9686
-0.4916 -2.5649 -0.9752 0.9889
0.3676 -2.1790 -0.8252 0.9906
0.7988 -2.2202 -0.8811 0.9900
6.0967 -10.5598 -4.5532 0.9493
7.3460 -10.4498 -4.7698 0.9469
8.5960 -10.1674 -4.9716 0.9447
9.8073 -9.6986 -5.1504 0.9428
13.7640 -2.1643 -5.2028 0.9422
12.9838 0.2894 -4.8495 0.9461
10.7818 3.2133 -4.2010 0.9531
8.0960 5.0422 -3.5615 0.9601
7.2004 5.4301 -3.3676 0.9622
5.4869 5.9325 -3.0175 0.9661
4.6826 6.0675 -2.8619 0.9678
3.9182 6.1378 -2.7191 0.9694
3.1953 6.1521 -2.5886 0.9708
2.4963 6.0745 -2.4523 0.9723
1.2046 5.6059 -2.1411 0.9758
0.6822 5.5390 -2.0839 0.9765
-0.7591 5.2050 -1.9642 0.9778
-1.1848 4.9715 -1.9084 0.9784
-1.9489 4.4574 -1.8166 0.9794
-2.2905 4.1796 -1.7797 0.9799
-2.8989 3.5881 -1.7225 0.9805
-3.6395 2.6196 -1.6744 0.9810
-3.8432 2.2763 -1.6679 0.9811
-4.1880 1.5596 -1.6687 0.9811
-3.4442 0.9435 -1.3335 0.9849
-2.5629 0.2290 -0.9608 0.9891
-2.5691 0.0000 -1.0083 0.9890
-2.7584 -1.0272 -1.1552 0.9874
-4.4479 -2.1245 -1.9346 0.9790
-3.6349 -4.4989 -2.2700 0.9755
-3.3538 -5.0042 -2.3643 0.9744
-0.6848 -2.8734 -1.1593 0.9874
-0.3604 -2.4714 -0.9802 0.9893
-0.1301 -2.3325 -0.9168 0.9900
0.4706 -2.1898 -0.8790 0.9904
0.6863 -2.2125 -0.9092 0.9901
0.9399 -2.2871 -0.9705 0.9894
1.3133 -2.5284 -1.1182 0.9878
6.1432 -9.6231 -4.4808 0.9521
8.3581 -9.0366 -4.8310 0.9485
9.3971 -8.4992 -4.9728 0.9470
11.1350 -6.9349 -5.1484 0.9452
11.7712 -5.9482 -5.1762 0.9449
12.2202 -4.8635 -5.1620 0.9451
12.3719 -1.3840 -4.8859 0.9479
11.5855 0.7756 -4.5571 0.9513
9.5658 3.3216 -3.9742 0.9574
8.7762 3.9544 -3.7779 0.9595
7.9656 4.4814 -3.5871 0.9615
5.5587 5.4971 -3.0682 0.9670
3.3727 5.8417 -2.6474 0.9714
2.7125 5.8452 -2.5290 0.9727
1.4838 5.6635 -2.2978 0.9752
0.9371 5.5553 -2.2111 0.9761
0.4274 5.4697 -2.1532 0.9767
-0.5142 5.1112 -2.0161 0.9782
-0.9394 4.9008 -1.9584 0.9788
-1.3361 4.6727 -1.9074 0.9793
-1.7057 4.4287 -1.8626 0.9798
-2.3682 3.8987 -1.7903 0.9806
-2.6635 3.6149 -1.7622 0.9809
-3.1862 3.0135 -1.7212 0.9813
-3.4151 2.6969 -1.7078 0.9815
-4.1233 1.3296 -1.7003 0.9816
-2.4910 0.3350 -0.9865 0.9893
-2.5889 -0.1154 -1.0171 0.9889
-2.7236 -0.8782 -1.1231 0.9878
-4.3888 -2.3419 -1.9523 0.9789
-3.7578 -4.2490 -2.2262 0.9759
-3.1947 -5.2591 -2.4150 0.9739
-2.4207 -6.2851 -2.6433 0.9715
-0.4978 -2.5969 -1.0378 0.9887
-0.2411 -2.3970 -0.9455 0.9897
0.1736 -2.2223 -0.8748 0.9905
0.8043 -2.2355 -0.9324 0.9898
7.8148 -9.2434 -4.7506 0.9493
9.8826 -8.1682 -5.0320 0.9464
10.7536 -7.3819 -5.1192 0.9455
12.0201 -5.4160 -5.1743 0.9449
12.5177 -3.1309 -5.0642 0.9461
12.4673 -1.9604 -4.9532 0.9472
12.2329 -0.8189 -4.8118 0.9487
11.8364 0.2638 -4.6466 0.9504
11.3042 1.2646 -4.4642 0.9523
9.1749 3.6515 -3.8756 0.9585
8.3724 4.2308 -3.6816 0.9605
6.7463 5.0877 -3.3162 0.9643
5.1748 5.5950 -2.9911 0.9678
2.3958 5.8300 -2.4738 0.9733
1.2031 5.5988 -2.2475 0.9757
0.6811 5.5298 -2.1867 0.9763
-0.2905 5.2091 -2.0476 0.9778
-0.7304 5.0083 -1.9864 0.9785
-1.8806 4.3012 -1.8424 0.9800
-2.2118 4.0360 -1.8063 0.9804
-2.5187 3.7582 -1.7756 0.9807
-2.8024 3.4686 -1.7501 0.9810
-3.3033 2.8565 -1.7139 0.9814
-3.7192 2.2029 -1.6965 0.9816
-3.8962 1.8611 -1.6946 0.9816
-2.5207 0.2253 -0.9932 0.9892
-2.6211 -0.4722 -1.0967 0.9885
-4.0562 -2.9195 -2.0579 0.9786
-3.7127 -3.8389 -2.1991 0.9772
-3.2070 -4.7852 -2.3721 0.9754
-2.8845 -5.2635 -2.4716 0.9744
-2.0808 -6.2150 -2.6988 0.9720
-0.3644 -2.4984 -1.0397 0.9891
0.2739 -2.2242 -0.9228 0.9904
0.6946 -2.2394 -0.9655 0.9899
5.6523 -8.8542 -4.3256 0.9556
6.6597 -8.6292 -4.4885 0.9539
7.6429 -8.2634 -4.6350 0.9525
9.4132 -7.0988 -4.8549 0.9503
10.1300 -6.3090 -4.9142 0.9497
10.7036 -5.4088 -4.9383 0.9494
11.1147 -4.4235 -4.9260 0.9496
11.3521 -3.3833 -4.8778 0.9500
11.4141 -2.3200 -4.7962 0.9509
10.6503 0.7130 -4.3954 0.9549
9.5464 2.3877 -4.0521 0.9583
7.4506 4.1917 -3.5202 0.9637
6.7107 4.6067 -3.3518 0.9654
5.9734 4.9372 -3.1912 0.9670
4.5428 5.3733 -2.8974 0.9700
3.8619 5.4936 -2.7652 0.9714
3.2090 5.5582 -2.6428 0.9726
2.5864 5.5736 -2.5302 0.9738
1.4356 5.4797 -2.3326 0.9758
0.9076 5.3804 -2.2468 0.9767
-0.0568 5.0973 -2.0991 0.9782
-0.4950 4.9200 -2.0362 0.9788
-0.9052 4.7226 -1.9801 0.9794
-1.2887 4.5070 -1.9303 0.9799
-1.6466 4.2752 -1.8865 0.9804
-2.2893 3.7687 -1.8157 0.9811
-2.5760 3.4962 -1.7882 0.9814
-3.3063 2.6110 -1.7348 0.9819
-3.5081 2.2949 -1.7262 0.9820
-3.8512 1.6331 -1.7225 0.9821
-2.5479 -0.1136 -1.0502 0.9890
-2.5854 -0.3477 -1.0742 0.9888
-2.6300 -0.5959 -1.1104 0.9884
-2.6464 -0.8534 -1.1450 0.9880
-4.3343 -1.8379 -1.9386 0.9798
-4.2301 -2.2572 -1.9743 0.9795
-3.8128 -3.6061 -2.1610 0.9776
-3.6026 -4.0735 -2.2393 0.9768
-3.3502 -4.5468 -2.3256 0.9759
-3.0520 -5.0242 -2.4207 0.9749
-2.3028 -5.9791 -2.6384 0.9727
-0.5102 -2.6618 -1.1160 0.9883
-0.2435 -2.4199 -1.0015 0.9895
-0.0257 -2.3060 -0.9496 0.9901
1.1195 -2.4124 -1.0951 0.9886
5.1480 -8.9166 -4.2397 0.9564
6.1573 -8.7589 -4.4088 0.9547
7.1562 -8.4643 -4.5642 0.9532
9.7880 -6.7191 -4.8888 0.9499
11.2554 -3.9083 -4.9062 0.9498
11.3811 -1.7896 -4.7441 0.9514
10.4088 1.1644 -4.3129 0.9557
9.8539 2.0029 -4.1406 0.9574
9.2226 2.7487 -3.9628 0.9592
7.8178 3.9505 -3.6069 0.9628
7.0811 4.4101 -3.4351 0.9646
6.3411 4.7821 -3.2704 0.9662
5.6089 5.0729 -3.1142 0.9678
4.8928 5.2900 -2.9672 0.9693
3.5318 5.5324 -2.7028 0.9720
2.8939 5.5717 -2.5853 0.9732
1.7114 5.5172 -2.3787 0.9753
-0.2794 5.0114 -2.0668 0.9785
-0.7035 4.8237 -2.0073 0.9791
-1.1003 4.6169 -1.9544 0.9797
-1.8162 4.1537 -1.8668 0.9806
-2.1374 3.9003 -1.8314 0.9809
-2.9649 3.0657 -1.7562 0.9817
-3.4098 2.4542 -1.7299 0.9820
-3.5072 0.9607 -1.4974 0.9844
-2.4793 0.2216 -1.0250 0.9893
-2.4893 0.0000 -1.0738 0.9892
-4.0269 -2.3851 -2.0189 0.9798
-3.7539 -3.2461 -2.1407 0.9786
-3.5660 -3.6872 -2.2127 0.9779
-3.3393 -4.1331 -2.2920 0.9771
-3.0707 -4.5818 -2.3792 0.9763
-1.9808 -5.9162 -2.6913 0.9732
-1.5117 -6.3433 -2.8129 0.9720
-0.1325 -2.3765 -1.0267 0.9897
0.7033 -2.2672 -1.0240 0.9897
4.3120 -8.3022 -4.0355 0.9601
5.2290 -8.1911 -4.1919 0.9585
6.1438 -7.9607 -4.3376 0.9571
7.0330 -7.6040 -4.4679 0.9559
9.2808 -5.7802 -4.7163 0.9535
9.8023 -4.9533 -4.7375 0.9533
10.4070 -3.1016 -4.6843 0.9538
10.4001 -1.1634 -4.5142 0.9554
10.1835 -0.2269 -4.3938 0.9566
9.4022 1.4784 -4.1056 0.9594
8.8766 2.2202 -3.9470 0.9609
6.3165 4.3361 -3.3049 0.9672
3.0585 5.2975 -2.6386 0.9737
1.9089 5.3059 -2.4324 0.9757
1.3758 5.2517 -2.3418 0.9766
0.3944 5.0479 -2.1841 0.9782
-0.0546 4.9056 -2.1162 0.9789
-0.4769 4.7404 -2.0551 0.9795
-0.8731 4.5547 -2.0004 0.9800
-2.2144 3.6454 -1.8399 0.9816
-2.7502 3.1098 -1.7907 0.9821
-2.9867 2.8248 -1.7733 0.9823
-3.2028 2.5292 -1.7604 0.9824
-3.3989 2.2235 -1.7520 0.9825
-3.8681 1.2473 -1.7531 0.9825
-2.5715 0.5826 -1.1373 0.9886
-2.4106 0.3242 -1.0492 0.9895
-2.4655 0.1099 -1.0645 0.9893
-2.5277 -0.3399 -1.1001 0.9890
-2.5665 -0.8276 -1.1632 0.9883
-2.6695 -1.1320 -1.2508 0.9874
-3.9691 -2.5965 -2.0459 0.9796
-3.8342 -3.0278 -2.1074 0.9789
-3.6646 -3.4660 -2.1758 0.9783
-3.4577 -3.9097 -2.2514 0.9775
-3.2105 -4.3572 -2.3346 0.9767
-2.5822 -5.2546 -2.5255 0.9748
-2.1945 -5.6978 -2.6338 0.9738
-0.5235 -2.7309 -1.1994 0.9880
-0.2458 -2.4437 -1.0594 0.9894
-0.0259 -2.3276 -1.0041 0.9899
0.5881 -2.2446 -1.0009 0.9899
4.7695 -8.2610 -4.1147 0.9593
5.6880 -8.0913 -4.2664 0.9578
7.4600 -7.3774 -4.5257 0.9553
8.2623 -6.8290 -4.6238 0.9544
8.9714 -6.1585 -4.6940 0.9537
9.5586 -5.3776 -4.7309 0.9533
10.0102 -4.5104 -4.7361 0.9533
10.3133 -3.5812 -4.7093 0.9536
10.4619 -2.6167 -4.6518 0.9541
10.0282 0.2235 -4.3268 0.9572
9.1486 1.8596 -4.0270 0.9601
4.6367 5.0131 -2.9456 0.9707
2.1860 5.3194 -2.4807 0.9753
1.6389 5.2832 -2.3861 0.9762
1.1200 5.2119 -2.2995 0.9770
0.6293 5.1096 -2.2207 0.9778
-0.2691 4.8257 -2.0848 0.9792
-0.6782 4.6499 -2.0270 0.9797
-1.0616 4.4548 -1.9754 0.9802
-1.4203 4.2424 -1.9298 0.9807
-1.7552 4.0142 -1.8898 0.9811
-2.0669 3.7717 -1.8552 0.9814
-2.8710 2.9686 -1.7814 0.9822
-3.0973 2.6783 -1.7663 0.9823
-3.4895 2.0668 -1.7494 0.9825
-2.4481 -0.2188 -1.1090 0.9893
-2.4701 -0.6766 -1.1556 0.9888
-3.6137 -3.1249 -2.1557 0.9793
-2.6387 -4.8150 -2.4775 0.9762
-2.2879 -5.2326 -2.5769 0.9752
-1.4384 -6.0357 -2.7997 0.9731
-0.3820 -2.6192 -1.1943 0.9885
0.0774 -2.3159 -1.0456 0.9899
0.7123 -2.2962 -1.0848 0.9895
0.9906 -2.4106 -1.1760 0.9886
4.0183 -7.7365 -3.9336 0.9625
5.6961 -7.3807 -4.2067 0.9599
6.5063 -7.0346 -4.3236 0.9588
7.2681 -6.5737 -4.4219 0.9579
8.5535 -5.3271 -4.5468 0.9567
9.0309 -4.5635 -4.5656 0.9566
9.5965 -2.8600 -4.5183 0.9570
9.6739 -1.9663 -4.4543 0.9576
9.6173 -1.0758 -4.3666 0.9584
9.4360 -0.2103 -4.2587 0.9594
9.1430 0.6121 -4.1347 0.9606
8.2869 2.0727 -3.8544 0.9632
7.7584 2.6940 -3.7057 0.9646
7.1850 3.2374 -3.5559 0.9660
5.9613 4.0922 -3.2626 0.9688
4.7113 4.6591 -2.9898 0.9713
4.0975 4.8466 -2.8637 0.9725
2.3622 5.0905 -2.5322 0.9757
1.8287 5.0830 -2.4375 0.9766
-0.0526 4.7253 -2.1323 0.9795
-0.4599 4.5710 -2.0729 0.9800
-0.8426 4.3961 -2.0197 0.9805
-1.2017 4.2027 -1.9723 0.9810
-1.8514 3.7675 -1.8941 0.9817
-2.1433 3.5284 -1.8628 0.9820
-3.1043 2.4514 -1.7848 0.9828
-3.2948 2.1554 -1.7765 0.9829
-3.4659 1.8495 -1.7726 0.9829
-3.7496 1.2091 -1.7777 0.9829
-2.5489 0.5775 -1.1792 0.9886
-2.3567 0.3170 -1.0730 0.9896
-2.4395 -0.1088 -1.1018 0.9893
-2.4521 -0.3298 -1.1164 0.9892
-2.4671 -0.5590 -1.1414 0.9890
