ply
format ascii 1.0
element vertex 1585
property float32 x
property float32 y
property float32 z
property float32 I
end_header
1.4262 -3.0735 -0.0845 0.9865
1.4504 -2.5122 -0.0723 0.9885
1.5513 -2.2067 -0.0673 0.9893
1.8139 -1.7938 -0.0636 0.9898
2.4116 -1.3568 -0.0690 0.9890
2.7752 -1.2504 -0.0759 0.9879
-4.6497 13.8879 -0.3652 0.9431
-6.1636 11.2472 -0.3198 0.9500
-7.8304 9.6918 -0.3107 0.9514
-8.3830 8.6680 -0.3007 0.9529
-9.8451 5.8313 -0.2854 0.9552
-10.2936 4.9169 -0.2845 0.9554
-11.6101 2.0917 -0.2942 0.9539
-12.0590 1.0776 -0.3019 0.9527
-11.9919 -1.0715 -0.5006 0.9529
-12.4224 -2.2379 -0.5248 0.9507
-12.8785 -3.5278 -0.5552 0.9479
1.4084 -2.7117 -0.1271 0.9878
1.4913 -2.3361 -0.1152 0.9890
1.6031 -2.0772 -0.1091 0.9896
2.0535 -1.5486 -0.1069 0.9898
2.2585 -1.4066 -0.1106 0.9894
2.5333 -1.2801 -0.1180 0.9887
1.7750 6.7750 -0.2912 0.9724
-2.8173 14.6977 -0.6222 0.9418
-3.7914 13.2592 -0.5734 0.9463
-8.0223 7.5875 -0.4591 0.9568
-10.1881 3.2853 -0.4451 0.9580
-10.5842 2.3981 -0.4512 0.9575
-10.9790 1.4766 -0.4606 0.9566
-11.3771 0.5074 -0.4735 0.9554
-12.6467 -2.8653 -0.5392 0.9494
-13.6337 -5.7811 -0.6157 0.9424
1.4083 -3.0348 -0.1391 0.9867
1.5418 -2.1933 -0.1115 0.9893
1.6667 -1.9714 -0.1073 0.9897
1.8051 -1.7851 -0.1056 0.9899
2.3913 -1.3453 -0.1141 0.9891
2.7411 -1.2351 -0.1250 0.9880
-3.3251 13.9526 -0.5964 0.9442
-4.9908 11.4144 -0.5180 0.9513
-8.2638 7.1460 -0.4542 0.9572
-9.5815 4.5767 -0.4415 0.9584
-10.3866 2.8452 -0.4478 0.9578
-10.7815 1.9424 -0.4555 0.9571
-11.1773 0.9988 -0.4666 0.9561
-10.7657 0.0000 -0.6270 0.9578
-11.1185 -0.9935 -0.6502 0.9563
-11.4773 -2.0677 -0.6792 0.9543
-12.2317 -4.5551 -0.7602 0.9490
1.5946 -2.0662 -0.1520 0.9896
1.7201 -1.8597 -0.1475 0.9899
2.0437 -1.5412 -0.1491 0.9898
2.2471 -1.3995 -0.1542 0.9894
2.9793 -1.1857 -0.1868 0.9872
-1.4793 14.7049 -0.8608 0.9425
-3.4608 12.1031 -0.7332 0.9508
-4.2423 11.0150 -0.6875 0.9538
-5.8829 9.6846 -0.6600 0.9556
-6.4651 8.7745 -0.6348 0.9573
-7.9370 6.2678 -0.5890 0.9603
-8.3627 5.4707 -0.5820 0.9608
-8.7661 4.6778 -0.5787 0.9610
-9.5230 3.0708 -0.5828 0.9607
-9.8843 2.2395 -0.5903 0.9602
-10.2390 1.3770 -0.6017 0.9595
-11.2969 -1.5193 -0.6639 0.9554
-11.6602 -2.6418 -0.6963 0.9532
-12.0367 -3.8813 -0.7366 0.9506
-12.4325 -5.2718 -0.7865 0.9473
1.4278 -2.4730 -0.1663 0.9886
1.5325 -2.1800 -0.1552 0.9894
1.7964 -1.7765 -0.1471 0.9899
1.9488 -1.6107 -0.1473 0.9899
2.3789 -1.3383 -0.1590 0.9891
2.7159 -1.2237 -0.1735 0.9881
1.4707 6.8439 -0.4077 0.9723
-2.0398 13.9860 -0.8232 0.9449
-3.0245 12.6916 -0.7599 0.9491
-3.8659 11.5468 -0.7092 0.9524
-6.1812 9.2230 -0.6467 0.9565
-6.7360 8.3373 -0.6243 0.9580
-7.2440 7.4903 -0.6069 0.9591
-7.7140 6.6705 -0.5940 0.9600
-8.1530 5.8681 -0.5851 0.9606
-8.5669 5.0742 -0.5799 0.9609
-8.9607 4.2802 -0.5784 0.9610
-9.7047 2.6584 -0.5861 0.9605
-10.3624 -0.9260 -0.7796 0.9591
-10.6643 -1.9212 -0.8120 0.9575
-11.2702 -4.1970 -0.9012 0.9529
-11.5798 -5.5311 -0.9617 0.9498
-11.8985 -7.0474 -1.0363 0.9460
-11.9935 -8.6323 -1.1074 0.9424
1.3853 -2.6671 -0.2252 0.9880
1.4727 -2.3069 -0.2051 0.9891
1.7118 -1.8507 -0.1889 0.9899
2.0340 -1.5339 -0.1909 0.9898
-2.3331 12.1718 -0.9288 0.9515
-4.5653 9.2902 -0.7757 0.9593
-6.0351 8.1910 -0.7624 0.9600
-6.5436 7.3990 -0.7402 0.9612
-7.0112 6.6312 -0.7232 0.9620
-8.5931 3.6438 -0.6995 0.9633
-8.9384 2.8823 -0.7038 0.9630
-9.2702 2.1004 -0.7123 0.9626
-9.5912 1.2899 -0.7252 0.9619
-9.9039 0.4417 -0.7429 0.9610
-10.5135 -1.4139 -0.7950 0.9583
-10.8150 -2.4503 -0.8310 0.9565
-11.1176 -3.5849 -0.8754 0.9542
-11.4241 -4.8442 -0.9299 0.9514
-11.7377 -6.2634 -0.9970 0.9480
1.3737 -2.9603 -0.2446 0.9870
1.4185 -2.4569 -0.2126 0.9887
1.5232 -2.1668 -0.1985 0.9894
1.6494 -1.9509 -0.1914 0.9898
1.9396 -1.6031 -0.1886 0.9900
-2.7734 11.6378 -0.8966 0.9531
-4.2522 9.7252 -0.7954 0.9583
-7.2319 6.2537 -0.7165 0.9624
-7.6506 5.5066 -0.7064 0.9629
-8.0434 4.7642 -0.7006 0.9632
-8.7676 3.2651 -0.7011 0.9632
-9.4319 1.6993 -0.7182 0.9623
-9.7485 0.8712 -0.7335 0.9615
-11.1097 -9.6069 -1.3465 0.9427
1.5778 -2.0444 -0.2368 0.9897
1.7035 -1.8418 -0.2300 0.9900
1.8544 -1.6772 -0.2292 0.9900
2.0243 -1.5266 -0.2324 0.9899
2.2247 -1.3855 -0.2403 0.9895
2.4924 -1.2595 -0.2560 0.9888
2.9308 -1.1664 -0.2892 0.9874
1.1388 14.5739 -1.3402 0.9430
-2.9455 10.3010 -0.9822 0.9579
-3.6417 9.4554 -0.9289 0.9601
-4.2571 8.6629 -0.8849 0.9620
-5.1230 8.4337 -0.9046 0.9611
-5.6579 7.6790 -0.8744 0.9624
-6.5942 6.2367 -0.8321 0.9642
-7.0091 5.5350 -0.8188 0.9648
-7.7572 4.1394 -0.8061 0.9653
-8.0978 3.4338 -0.8064 0.9653
-8.4202 2.7152 -0.8111 0.9651
-8.7266 1.9772 -0.8203 0.9647
-9.5696 -0.4267 -0.8782 0.9623
-10.3271 -3.3300 -0.9948 0.9574
-10.5650 -4.4799 -1.0521 0.9550
1.3570 -2.9242 -0.2955 0.9871
1.4093 -2.4410 -0.2584 0.9887
1.5141 -2.1538 -0.2414 0.9895
1.6408 -1.9408 -0.2330 0.9898
1.9305 -1.5956 -0.2296 0.9900
0.4654 13.9193 -1.2768 0.9456
-0.7102 12.7376 -1.1696 0.9500
-2.5603 10.7435 -1.0125 0.9566
-3.3052 9.8720 -0.9544 0.9590
-5.9072 7.3115 -0.8617 0.9629
-6.8055 5.8850 -0.8248 0.9645
-7.9299 3.7879 -0.8057 0.9653
-8.2611 3.0765 -0.8082 0.9652
-8.5753 2.3490 -0.8151 0.9649
-4.9081 0.8842 -0.4572 0.9802
-4.1097 0.3673 -0.3783 0.9836
-3.7849 0.0000 -0.4105 0.9849
-9.1173 -0.8147 -0.9929 0.9638
-10.0705 -5.9647 -1.2695 0.9540
-10.0500 -7.2336 -1.3431 0.9514
-10.1992 -10.5459 -1.5913 0.9427
1.4545 -2.2784 -0.2932 0.9892
1.5695 -2.0336 -0.2786 0.9897
2.0147 -1.5194 -0.2737 0.9899
2.9080 -1.1573 -0.3395 0.9875
2.4309 14.4116 -1.5853 0.9429
1.0334 13.2247 -1.4388 0.9480
-0.1357 12.1781 -1.3210 0.9522
-1.1305 11.2377 -1.2251 0.9556
-1.9895 10.3791 -1.1463 0.9584
-3.4000 8.8278 -1.0261 0.9627
-4.8109 7.9199 -1.0051 0.9634
-5.3241 7.2259 -0.9735 0.9645
-6.9894 4.5722 -0.9059 0.9670
-7.3333 3.9132 -0.9016 0.9671
-7.6552 3.2461 -0.9019 0.9671
-7.9574 2.5660 -0.9069 0.9669
-4.7637 1.0793 -0.5298 0.9805
-3.7330 0.1665 -0.4053 0.9851
-3.9257 -0.1750 -0.4262 0.9843
-9.2285 -1.2411 -1.0100 0.9632
-9.4408 -2.1390 -1.0500 0.9618
-9.8239 -4.1657 -1.1574 0.9580
-9.9926 -5.3322 -1.2285 0.9555
-10.1054 -6.6106 -1.3098 0.9526
-10.1665 -9.6153 -1.5178 0.9453
1.3406 -2.8890 -0.3455 0.9873
1.6323 -1.9307 -0.2742 0.9899
1.7706 -1.7510 -0.2701 0.9900
2.1104 -1.4487 -0.2776 0.9898
3.3958 -1.1792 -0.3899 0.9856
1.4604 6.7960 -0.7540 0.9724
1.6994 13.7980 -1.5079 0.9456
-3.7017 8.4660 -1.0022 0.9635
-5.5635 6.8860 -0.9602 0.9650
-7.1643 4.2435 -0.9032 0.9671
-7.4969 3.5810 -0.9012 0.9671
-8.1018 2.2193 -0.9111 0.9668
-3.9949 0.7197 -0.4403 0.9838
-3.7700 -0.3369 -0.4743 0.9849
-9.1094 -3.3923 -1.2181 0.9616
-9.3486 -5.5372 -1.3616 0.9571
-9.2991 -8.0411 -1.5406 0.9516
-9.2933 -9.6091 -1.6752 0.9475
-9.2383 -11.4343 -1.8421 0.9425
1.4455 -2.2643 -0.3366 0.9892
1.5612 -2.0229 -0.3202 0.9898
1.6872 -1.8242 -0.3114 0.9900
2.0052 -1.5121 -0.3147 0.9899
2.4660 -1.2461 -0.3462 0.9889
2.8855 -1.1484 -0.3892 0.9876
3.7119 14.1682 -1.8354 0.9427
2.2052 13.0734 -1.6614 0.9480
-1.0476 10.4139 -1.3116 0.9587
-3.1876 8.2765 -1.1114 0.9649
-3.7488 7.6286 -1.0652 0.9663
-4.5338 7.4637 -1.0944 0.9654
-5.0265 6.8220 -1.0619 0.9664
-5.8901 5.5708 -1.0160 0.9678
-6.2714 4.9525 -1.0014 0.9683
-6.6244 4.3335 -0.9920 0.9686
-6.9521 3.7098 -0.9875 0.9687
-7.2572 3.0773 -0.9878 0.9687
-7.5415 2.4318 -0.9930 0.9686
-4.3832 0.9931 -0.5632 0.9820
-3.5348 0.1576 -0.4434 0.9858
-3.6310 -0.1619 -0.4555 0.9855
-9.2979 -4.9615 -1.3207 0.9584
-9.3737 -6.1320 -1.4037 0.9558
-9.3021 -8.7978 -1.6045 0.9497
-9.2716 -10.4834 -1.7538 0.9451
1.6238 -1.9207 -0.3152 0.9899
1.9125 -1.5807 -0.3109 0.9900
2.1002 -1.4417 -0.3192 0.9898
2.3302 -1.3109 -0.3351 0.9893
2.6507 -1.1943 -0.3643 0.9883
3.3481 -1.1626 -0.4441 0.9858
1.4598 6.7935 -0.8708 0.9724
1.5486 12.5737 -1.5876 0.9502
-0.6027 10.8094 -1.3567 0.9573
-2.2178 9.3064 -1.1989 0.9622
-3.4755 7.9488 -1.0872 0.9656
-4.7858 7.1410 -1.0773 0.9659
-5.2565 6.5061 -1.0482 0.9668
-6.4512 4.6433 -0.9961 0.9685
-6.7912 4.0225 -0.9891 0.9687
-7.1073 3.3949 -0.9871 0.9687
-7.4018 2.7565 -0.9898 0.9687
-7.6764 2.1028 -0.9974 0.9684
-3.5366 0.3160 -0.4450 0.9858
-3.3944 0.0000 -0.4828 0.9864
-3.5139 -0.3140 -0.5018 0.9858
-8.4382 -2.3114 -1.2444 0.9653
-8.5583 -3.1871 -1.2990 0.9638
-8.7209 -5.1654 -1.4417 0.9599
-8.5326 -8.8226 -1.7458 0.9516
-8.4098 -10.4088 -1.9034 0.9474
1.3477 -2.5948 -0.4159 0.9883
1.4396 -2.2552 -0.3806 0.9892
1.5537 -2.0132 -0.3617 0.9898
1.8279 -1.6532 -0.3506 0.9901
2.4529 -1.2395 -0.3909 0.9890
4.9760 13.8312 -2.0907 0.9423
3.3652 12.8450 -1.8887 0.9478
-2.9994 7.7878 -1.1870 0.9668
-4.2859 7.0555 -1.1742 0.9672
-5.9561 4.7035 -1.0795 0.9698
-6.8970 2.9246 -1.0656 0.9702
-7.1654 2.3105 -1.0708 0.9700
-4.1432 0.9387 -0.6042 0.9830
-3.3671 0.4528 -0.4832 0.9864
-3.3610 0.1499 -0.4785 0.9865
-3.4470 -0.1537 -0.4908 0.9862
-3.6292 -0.4881 -0.5208 0.9853
-8.5012 -2.7412 -1.2705 0.9646
-8.6093 -3.6506 -1.3301 0.9629
-8.7350 -5.7142 -1.4847 0.9587
-8.5704 -8.1058 -1.6779 0.9535
-8.3241 -11.2976 -1.9960 0.9449
1.4900 -2.1196 -0.3685 0.9896
1.9035 -1.5733 -0.3513 0.9901
2.6347 -1.1871 -0.4110 0.9884
3.3015 -1.1464 -0.4971 0.9860
4.1331 13.3240 -1.9842 0.9452
-2.0777 8.7182 -1.2748 0.9644
-2.7091 8.0917 -1.2137 0.9661
-3.2745 7.4891 -1.1626 0.9675
-4.0321 7.3577 -1.1934 0.9667
-5.7767 4.9953 -1.0863 0.9696
-6.1285 4.4111 -1.0740 0.9700
-6.7549 3.2266 -1.0648 0.9702
-3.6717 0.6615 -0.5307 0.9850
-3.2915 0.0000 -0.5241 0.9868
-7.8551 -1.4151 -1.2710 0.9682
-8.1345 -3.8855 -1.4355 0.9641
-8.1698 -4.8389 -1.5120 0.9623
-7.9865 -6.9062 -1.6813 0.9581
-7.8843 -8.1523 -1.8059 0.9551
1.3443 -2.5882 -0.4644 0.9883
1.4367 -2.2505 -0.4252 0.9892
1.5510 -2.0096 -0.4042 0.9898
1.6753 -1.8113 -0.3929 0.9901
1.9874 -1.4987 -0.3964 0.9900
2.1806 -1.3581 -0.4091 0.9896
2.4399 -1.2329 -0.4353 0.9890
2.8413 -1.1308 -0.4870 0.9877
6.2074 13.3765 -2.3482 0.9420
4.5078 12.5295 -2.1203 0.9475
3.0766 11.7435 -1.9331 0.9520
0.8074 10.3325 -1.6503 0.9589
-1.6266 8.4858 -1.3758 0.9656
-2.2617 7.9097 -1.3100 0.9672
-4.0626 6.6881 -1.2461 0.9688
-4.5180 6.1320 -1.2128 0.9696
-5.6697 4.4774 -1.1504 0.9712
-5.9942 3.9213 -1.1406 0.9714
-6.2935 3.3584 -1.1359 0.9715
-6.5694 2.7857 -1.1363 0.9715
-6.8234 2.2003 -1.1416 0.9714
-3.4817 -0.4682 -0.5594 0.9859
-8.0241 -2.5874 -1.3425 0.9664
-8.1049 -3.4367 -1.4018 0.9650
-8.0222 -6.3350 -1.6277 0.9594
-7.8098 -8.8306 -1.8772 0.9534
-7.6049 -10.3214 -2.0415 0.9494
-7.3112 -12.0359 -2.2424 0.9446
1.3172 -2.8384 -0.4983 0.9874
1.4874 -2.1158 -0.4118 0.9896
1.6123 -1.9071 -0.3977 0.9899
1.8966 -1.5676 -0.3918 0.9901
2.6189 -1.1800 -0.4574 0.9884
3.2560 -1.1306 -0.5488 0.9861
3.7624 12.1289 -2.0221 0.9499
1.3139 10.6683 -1.7116 0.9574
0.3346 10.0061 -1.5942 0.9603
-2.5540 7.6285 -1.2810 0.9679
-3.0947 7.0779 -1.2301 0.9692
-3.8189 6.9686 -1.2653 0.9683
-4.2955 6.4093 -1.2286 0.9692
-5.1303 5.3047 -1.1751 0.9706
-5.4973 4.7537 -1.1573 0.9710
-5.8353 4.2000 -1.1448 0.9713
-6.6991 2.4948 -1.1383 0.9715
-3.1939 0.0000 -0.5632 0.9871
-3.2817 -0.2932 -0.5809 0.9867
-7.5559 -2.0697 -1.3814 0.9687
-7.6285 -2.8408 -1.4353 0.9675
-7.6817 -4.5498 -1.5743 0.9644
-7.1277 -8.8220 -1.9998 0.9550
-6.8498 -10.2206 -2.1695 0.9513
-6.4734 -11.8124 -2.3751 0.9468
1.3408 -2.5815 -0.5129 0.9883
1.5482 -2.0061 -0.4468 0.9898
1.8190 -1.6452 -0.4325 0.9901
2.1777 -1.3563 -0.4524 0.9896
2.8319 -1.1271 -0.5374 0.9877
2.8325 10.8116 -1.9707 0.9556
-0.1010 9.0647 -1.5985 0.9638
-2.1358 7.4696 -1.3699 0.9689
-3.3806 6.8793 -1.3515 0.9693
-3.8605 6.3553 -1.3111 0.9702
-4.7006 5.3151 -1.2511 0.9716
-5.7201 3.7419 -1.2052 0.9726
-6.0068 3.2054 -1.2005 0.9727
-6.5111 2.0996 -1.2063 0.9726
-3.1644 0.1411 -0.5585 0.9872
-3.2277 -0.1439 -0.5697 0.9870
-3.3507 -0.4506 -0.5961 0.9864
-7.5095 -1.7014 -1.3577 0.9692
-7.6540 -3.2455 -1.4659 0.9668
-7.5108 -5.9312 -1.6875 0.9619
-6.2356 -12.6890 -2.4930 0.9442
1.3808 -2.3916 -0.4869 0.9888
1.4847 -2.1120 -0.4552 0.9896
1.6095 -1.9037 -0.4396 0.9899
1.7460 -1.7267 -0.4330 0.9901
1.8940 -1.5654 -0.4333 0.9901
2.0776 -1.4262 -0.4443 0.9898
2.3022 -1.2952 -0.4658 0.9893
2.6121 -1.1769 -0.5052 0.9884
6.4699 12.4569 -2.4751 0.9446
4.8342 11.7633 -2.2425 0.9497
3.4510 11.1252 -2.0539 0.9538
-0.4902 8.7919 -1.5526 0.9649
-2.4149 7.2130 -1.3412 0.9696
-2.9984 6.8575 -1.3197 0.9701
-3.6261 6.6167 -1.3304 0.9698
-4.0846 6.0947 -1.2937 0.9706
-5.2423 4.5333 -1.2220 0.9722
-5.8665 3.4747 -1.2022 0.9727
-6.3933 2.3809 -1.2029 0.9727
-4.2904 1.1753 -0.7844 0.9821
-3.4372 0.6192 -0.6158 0.9859
-3.1015 0.0000 -0.6002 0.9874
-3.3117 -0.5966 -0.6512 0.9864
-7.1774 -1.9661 -1.4401 0.9701
-7.1420 -5.1405 -1.7029 0.9648
-6.9895 -6.0440 -1.7882 0.9631
-6.8368 -7.0691 -1.9031 0.9607
-6.3224 -9.4336 -2.1976 0.9548
-5.9292 -10.8195 -2.3876 0.9510
-5.4148 -12.3839 -2.6156 0.9464
1.3374 -2.5749 -0.5615 0.9882
1.4307 -2.2411 -0.5145 0.9892
1.5454 -2.0025 -0.4895 0.9897
1.6701 -1.8057 -0.4760 0.9900
1.8162 -1.6426 -0.4739 0.9901
1.9820 -1.4947 -0.4804 0.9899
2.1752 -1.3547 -0.4959 0.9896
2.8321 -1.1271 -0.5899 0.9877
6.6920 11.5909 -2.5900 0.9469
3.7833 10.5160 -2.1627 0.9555
0.7035 9.0040 -1.7477 0.9639
-0.8077 8.0286 -1.5615 0.9677
-2.0226 7.0735 -1.4237 0.9705
-5.1686 4.0816 -1.2745 0.9735
-5.4685 3.5774 -1.2646 0.9737
-6.2245 2.0072 -1.2656 0.9737
-3.6833 0.8346 -0.7309 0.9847
-3.1048 0.4176 -0.6062 0.9873
-3.0751 0.1371 -0.5957 0.9875
-3.1273 -0.1394 -0.6058 0.9873
-7.2084 -2.3244 -1.4657 0.9696
-7.2484 -3.0735 -1.5236 0.9684
-6.9205 -6.5453 -1.8433 0.9619
-6.7368 -7.6174 -1.9679 0.9594
-6.4816 -8.7968 -2.1145 0.9565
-6.1391 -10.1062 -2.2883 0.9530
-5.0996 -13.2406 -2.7458 0.9438
1.3778 -2.3864 -0.5333 0.9888
1.6067 -1.9004 -0.4816 0.9899
1.7433 -1.7240 -0.4745 0.9901
1.8915 -1.5634 -0.4749 0.9901
2.0747 -1.4242 -0.4870 0.9898
2.2995 -1.2937 -0.5106 0.9893
3.2440 -1.1264 -0.6646 0.9861
5.8786 11.3183 -2.4681 0.9494
3.1808 10.2541 -2.0776 0.9572
1.4632 6.8090 -1.3477 0.9720
0.2928 8.7578 -1.6957 0.9649
-1.7421 7.3100 -1.4542 0.9698
-2.2894 6.8381 -1.3955 0.9710
-2.9676 6.7871 -1.4335 0.9703
-4.2968 5.3183 -1.3231 0.9725
-5.0087 4.3312 -1.2814 0.9734
-5.3217 3.8304 -1.2689 0.9736
-6.1126 2.2764 -1.2623 0.9738
-4.1641 1.1407 -0.8355 0.9826
-3.0639 0.2738 -0.5953 0.9875
-3.0994 -0.2769 -0.6560 0.9874
-6.8552 -4.0603 -1.6797 0.9680
-6.7523 -4.8600 -1.7539 0.9666
-6.5752 -5.6858 -1.8326 0.9651
-5.8678 -8.7554 -2.2220 0.9578
-4.9581 -11.3394 -2.6091 0.9507
-4.3022 -12.8499 -2.8568 0.9461
1.3754 -3.3469 -0.7628 0.9853
1.3339 -2.5682 -0.6101 0.9882
1.6675 -1.8029 -0.5177 0.9900
1.9793 -1.4926 -0.5226 0.9899
2.8322 -1.1272 -0.6426 0.9876
4.7129 10.1560 -2.3604 0.9553
3.5011 9.7315 -2.1803 0.9586
2.4369 9.3017 -2.0272 0.9615
-1.9200 6.7149 -1.4724 0.9719
-3.9157 5.3145 -1.3917 0.9734
-4.6328 4.3817 -1.3443 0.9743
-4.9478 3.9073 -1.3291 0.9746
-5.2367 3.4257 -1.3192 0.9747
-5.7420 2.4348 -1.3149 0.9748
-3.5520 0.8048 -0.7678 0.9852
-3.0346 0.4081 -0.6455 0.9876
-2.9940 0.1335 -0.6318 0.9878
-3.0505 -0.1360 -0.6438 0.9876
-6.8022 -1.5411 -1.4704 0.9719
-6.8731 -3.6676 -1.6424 0.9687
-6.8273 -4.4662 -1.7199 0.9672
-6.6535 -5.2542 -1.7873 0.9659
-6.4984 -6.1461 -1.8857 0.9641
-6.3000 -7.1234 -2.0048 0.9619
-5.6806 -9.3516 -2.3067 0.9563
-5.2272 -10.6370 -2.4986 0.9527
-3.9098 -13.6734 -2.9982 0.9435
1.3041 -2.8102 -0.6531 0.9874
1.3748 -2.3812 -0.5797 0.9888
1.4793 -2.1043 -0.5423 0.9895
1.6038 -1.8970 -0.5237 0.9899
1.7406 -1.7213 -0.5161 0.9900
2.2968 -1.2921 -0.5556 0.9893
5.3834 10.3649 -2.4623 0.9534
4.0868 9.9447 -2.2667 0.9570
2.9522 9.5171 -2.1007 0.9601
1.4652 6.8187 -1.4703 0.9719
1.0680 8.6715 -1.8419 0.9649
0.2754 8.2378 -1.7376 0.9669
-0.4350 7.8019 -1.6473 0.9686
-2.8258 6.4628 -1.4870 0.9716
-3.7164 5.5453 -1.4073 0.9731
-4.1066 5.0829 -1.3776 0.9736
-4.4648 4.6167 -1.3540 0.9741
-5.0954 3.6675 -1.3235 0.9747
-5.3718 3.1818 -1.3162 0.9748
-5.6244 2.6865 -1.3140 0.9748
-5.8540 2.1801 -1.3169 0.9748
-3.1643 -0.5700 -0.7338 0.9869
-6.5413 -3.1245 -1.6546 0.9707
-6.5018 -3.8510 -1.7248 0.9695
-6.4007 -4.6069 -1.8000 0.9682
-6.2048 -5.3655 -1.8723 0.9669
-6.0258 -6.2306 -1.9784 0.9651
-5.7852 -7.1604 -2.1011 0.9629
-5.4718 -8.1645 -2.2433 0.9605
-4.5665 -10.4439 -2.6017 0.9543
-3.1444 -13.1944 -3.0959 0.9459
1.3304 -2.5616 -0.6588 0.9882
1.4247 -2.2317 -0.6043 0.9892
1.8105 -1.6375 -0.5572 0.9900
1.9765 -1.4906 -0.5650 0.9899
3.2565 9.0516 -2.1956 0.9613
2.2778 8.6945 -2.0514 0.9638
1.4066 8.3387 -1.9301 0.9659
0.6221 7.9615 -1.8227 0.9678
-0.0844 7.5754 -1.7291 0.9694
-1.8270 6.3895 -1.5168 0.9731
-2.4570 6.3794 -1.5603 0.9723
-2.9249 5.9520 -1.5137 0.9732
-4.7438 3.7462 -1.3796 0.9755
-5.7162 1.8433 -1.3708 0.9757
-3.4289 0.7769 -0.8025 0.9857
-2.9453 0.1313 -0.6729 0.9880
-3.0959 -0.4163 -0.7130 0.9873
-6.4933 -1.4711 -1.5196 0.9731
-6.5355 -2.1074 -1.5673 0.9722
-6.5263 -3.4825 -1.6884 0.9701
-6.4674 -4.2307 -1.7639 0.9688
-6.1224 -5.7904 -1.9234 0.9660
-5.9138 -6.6868 -2.0375 0.9640
-5.6384 -7.6525 -2.1695 0.9618
-5.2835 -8.6978 -2.3228 0.9591
-3.5622 -12.4577 -2.9573 0.9482
1.2998 -2.8009 -0.7048 0.9874
1.3718 -2.3760 -0.6262 0.9888
1.7379 -1.7186 -0.5579 0.9900
1.8864 -1.5591 -0.5586 0.9900
2.2941 -1.2906 -0.6008 0.9893
8.3170 10.7767 -3.1070 0.9457
6.7000 10.4954 -2.8420 0.9502
4.9624 9.5543 -2.4573 0.9568
3.7908 9.2243 -2.2762 0.9599
1.0039 8.1514 -1.8745 0.9669
0.2598 7.7694 -1.7743 0.9686
-0.4115 7.3801 -1.6871 0.9701
-1.5701 6.5886 -1.5459 0.9726
-2.1496 6.4206 -1.5454 0.9726
-2.6961 6.1661 -1.5360 0.9728
-3.1439 5.7369 -1.4931 0.9735
-3.9314 4.8660 -1.4278 0.9747
-4.2774 4.4229 -1.4044 0.9751
-4.5950 3.9735 -1.3865 0.9754
-5.1524 3.0518 -1.3668 0.9757
-5.6147 2.0910 -1.3675 0.9757
-3.8726 1.0608 -0.9164 0.9837
-3.1659 0.5704 -0.7342 0.9869
-2.9221 0.0000 -0.7182 0.9880
-6.2286 -1.7062 -1.5874 0.9737
-6.1808 -3.6608 -1.7657 0.9708
-5.8727 -5.0783 -1.9083 0.9685
-5.4388 -6.7316 -2.1272 0.9650
-5.1234 -7.6446 -2.2620 0.9628
-4.2324 -9.6798 -2.5968 0.9574
-3.6233 -10.8222 -2.8052 0.9541
1.5371 -1.9917 -0.6184 0.9897
1.6623 -1.7972 -0.6017 0.9900
1.8077 -1.6350 -0.5991 0.9900
2.8325 -1.1273 -0.7493 0.9875
10.1126 10.0006 -3.4959 0.9431
8.3900 9.9237 -3.1942 0.9479
5.5163 9.5546 -2.7118 0.9556
4.0514 8.7306 -2.3658 0.9611
2.1372 8.1579 -2.0729 0.9659
1.3242 7.8503 -1.9568 0.9677
0.5876 7.5191 -1.8538 0.9694
-0.0799 7.1747 -1.7637 0.9709
-0.6861 6.8205 -1.6849 0.9722
-1.2380 6.4587 -1.6165 0.9733
-1.8049 6.3122 -1.6137 0.9733
-3.9402 4.4552 -1.4619 0.9758
-4.2607 4.0298 -1.4415 0.9761
-4.5546 3.5967 -1.4265 0.9764
-3.3132 0.7507 -0.8350 0.9861
-2.8899 0.3887 -0.7167 0.9881
-3.1571 -0.7153 -0.7957 0.9868
-6.2409 -2.0124 -1.6118 0.9734
-6.1411 -4.0173 -1.8038 0.9702
-5.7851 -5.4714 -1.9572 0.9677
-5.2905 -7.1802 -2.1922 0.9639
-3.2693 -11.4334 -2.9230 0.9522
-2.4380 -12.7188 -3.1832 0.9481
-1.4199 -14.1135 -3.4866 0.9432
1.4738 -2.0965 -0.6299 0.9895
1.7352 -1.7159 -0.5998 0.9900
1.8838 -1.5570 -0.6007 0.9900
2.6035 -1.1731 -0.7019 0.9883
3.2755 -1.1374 -0.8523 0.9858
7.6054 9.8546 -3.0597 0.9500
6.1718 9.6680 -2.8193 0.9539
2.5777 8.3097 -2.1385 0.9648
-0.3902 6.9987 -1.7229 0.9715
-2.1063 6.2912 -1.6307 0.9730
-3.4051 5.0808 -1.5034 0.9751
-4.9487 2.9312 -1.4137 0.9766
-3.0843 0.5557 -0.7703 0.9872
-2.8807 0.2574 -0.7109 0.9882
-2.8744 0.0000 -0.7574 0.9882
-2.9343 -0.2622 -0.7763 0.9879
-5.9618 -1.6331 -1.6288 0.9748
-5.9463 -2.8403 -1.7364 0.9731
-5.8877 -3.4872 -1.8031 0.9721
-4.4228 -8.0706 -2.4250 0.9626
-3.9417 -9.0148 -2.5926 0.9601
-3.3552 -10.0213 -2.7847 0.9572
1.3309 -2.5625 -0.7609 0.9881
1.4186 -2.2223 -0.6947 0.9892
1.5343 -1.9880 -0.6617 0.9897
1.6596 -1.7943 -0.6440 0.9899
1.8049 -1.6324 -0.6412 0.9900
2.1652 -1.3485 -0.6721 0.9895
10.8860 8.9976 -3.7214 0.9433
7.6968 9.1039 -3.1413 0.9519
4.0241 8.6717 -2.5190 0.9612
2.8531 7.9304 -2.2208 0.9657
2.0131 7.6842 -2.0931 0.9677
0.5564 7.1201 -1.8819 0.9709
-0.0759 6.8115 -1.7949 0.9722
-0.6529 6.4899 -1.7187 0.9734
-1.1886 6.2011 -1.6637 0.9742
-1.7723 6.1980 -1.6986 0.9737
-3.4465 4.6776 -1.5310 0.9763
-4.0943 3.8724 -1.4849 0.9770
-4.8742 2.6010 -1.4558 0.9774
-5.2786 1.7022 -1.4614 0.9773
-3.2212 0.7299 -0.8703 0.9864
-2.8316 0.3808 -0.7529 0.9883
-2.9007 -0.1293 -0.7651 0.9881
-3.0953 -0.7013 -0.8363 0.9870
-5.9696 -1.9249 -1.6528 0.9744
-5.9623 -2.5282 -1.7065 0.9736
-5.9216 -3.1598 -1.7686 0.9726
-4.9806 -6.7597 -2.2125 0.9659
-4.6290 -7.6202 -2.3494 0.9638
-4.1944 -8.5352 -2.5059 0.9614
-3.6628 -9.5101 -2.6854 0.9587
-2.2362 -11.6657 -3.1299 0.9521
-1.2921 -12.8436 -3.4014 0.9480
-0.1570 -14.0919 -3.7135 0.9434
1.3102 -2.8234 -0.8202 0.9872
1.3682 -2.3698 -0.7210 0.9887
1.4711 -2.0926 -0.6740 0.9895
1.5953 -1.8869 -0.6511 0.9898
1.8812 -1.5548 -0.6431 0.9900
2.0631 -1.4162 -0.6594 0.9897
2.6014 -1.1721 -0.7518 0.9883
3.2863 -1.1411 -0.9167 0.9857
10.0230 9.0653 -3.5611 0.9456
0.8952 7.2685 -1.9297 0.9702
-0.3709 6.6521 -1.7556 0.9728
-2.0137 6.0147 -1.6713 0.9741
-2.4669 5.6420 -1.6226 0.9748
-2.8835 5.2618 -1.5810 0.9755
-3.2666 4.8742 -1.5461 0.9760
-3.6189 4.4792 -1.5173 0.9765
-3.9426 4.0766 -1.4944 0.9768
-4.7590 2.8188 -1.4575 0.9774
-4.9837 2.3805 -1.4553 0.9774
-3.7366 1.0236 -1.0209 0.9841
-3.0018 0.5408 -0.8037 0.9875
-2.8348 0.2533 -0.7499 0.9883
-2.8279 0.0000 -0.7956 0.9883
-5.7148 -1.5654 -1.6671 0.9757
-5.7154 -2.1284 -1.7159 0.9750
-5.3023 -4.5850 -1.9723 0.9713
-2.4472 -10.2688 -2.9701 0.9571
0.4465 -13.3562 -3.7600 0.9460
1.3354 -2.5711 -0.8152 0.9880
1.5324 -1.9856 -0.7057 0.9896
11.5116 7.9023 -3.9285 0.9436
8.4414 8.3479 -3.3402 0.9519
7.1047 8.4035 -3.0961 0.9553
5.8883 8.3763 -2.8808 0.9583
4.7819 8.2825 -2.6908 0.9610
2.6847 7.4622 -2.2313 0.9676
1.9002 7.2531 -2.1096 0.9693
1.1836 7.0172 -2.0022 0.9709
-1.1861 6.1878 -1.7727 0.9742
-1.6958 5.9307 -1.7355 0.9747
-2.1512 5.5854 -1.6840 0.9754
-2.9565 4.8671 -1.6022 0.9766
-3.6389 4.1146 -1.5454 0.9774
-3.9391 3.7256 -1.5255 0.9777
-2.7752 0.3732 -0.7878 0.9884
-2.8062 0.1252 -0.7903 0.9884
-2.8531 -0.1272 -0.8035 0.9882
-3.2049 -1.0334 -0.9474 0.9861
-5.5719 -3.6449 -1.8733 0.9727
-5.3984 -4.2631 -1.9354 0.9718
-5.2044 -4.9222 -2.0155 0.9707
-4.9828 -5.6341 -2.1162 0.9692
-4.3556 -7.1703 -2.3605 0.9657
-2.8000 -9.7923 -2.8656 0.9586
-1.1846 -11.7747 -3.3296 0.9520
-0.1429 -12.8213 -3.6076 0.9481
1.0859 -13.8968 -3.9219 0.9437
1.3182 -2.8406 -0.8811 0.9871
1.7297 -1.7105 -0.6844 0.9899
1.8786 -1.5527 -0.6857 0.9899
2.0602 -1.4142 -0.7031 0.9897
2.5992 -1.1711 -0.8021 0.9882
10.6922 8.0634 -3.7679 0.9459
9.1578 8.2828 -3.4741 0.9500
6.4821 8.3992 -2.9851 0.9569
4.2667 8.2150 -2.6045 0.9623
3.2821 7.9866 -2.4294 0.9648
1.4983 6.9725 -2.0065 0.9708
0.2214 6.6215 -1.8640 0.9728
-0.3533 6.3356 -1.7853 0.9740
-3.1379 4.6821 -1.5858 0.9769
-3.4789 4.3059 -1.5575 0.9773
-3.7922 3.9212 -1.5348 0.9776
-4.0797 3.5279 -1.5175 0.9778
-4.5818 2.7139 -1.4983 0.9781
-3.6502 0.9999 -1.0648 0.9844
-2.7884 0.2492 -0.7877 0.9884
-2.9224 -0.5265 -0.8890 0.9877
-5.3713 -3.1814 -1.8690 0.9743
-5.0533 -4.3697 -2.0000 0.9725
-4.5984 -5.6915 -2.1906 0.9699
-4.2898 -6.4008 -2.3068 0.9683
-2.9186 -8.7175 -2.7522 0.9623
-0.6303 -11.3039 -3.3894 0.9538
0.4078 -12.1990 -3.6542 0.9503
1.6121 -13.0890 -3.9482 0.9464
1.3400 -2.5799 -0.8704 0.9879
1.4248 -2.2318 -0.7927 0.9890
1.5355 -1.9896 -0.7524 0.9896
1.9663 -1.4829 -0.7373 0.9898
2.8586 -1.1377 -0.9211 0.9872
10.4790 7.1935 -3.8053 0.9483
9.0839 7.5080 -3.5282 0.9520
7.7888 7.7026 -3.2795 0.9553
5.4915 7.8119 -2.8587 0.9609
2.6700 7.4213 -2.3612 0.9676
1.1232 6.6589 -2.0217 0.9722
0.5023 6.4285 -1.9304 0.9734
-0.0688 6.1793 -1.8501 0.9745
-1.1493 5.9958 -1.8277 0.9748
-1.6251 5.6834 -1.7697 0.9756
-2.8423 4.6791 -1.6390 0.9774
-3.1864 4.3246 -1.6082 0.9778
-3.7940 3.5883 -1.5634 0.9784
-4.0603 3.2064 -1.5489 0.9786
-4.5232 2.4137 -1.5349 0.9788
-4.7210 2.0019 -1.5352 0.9788
-4.8971 1.5791 -1.5404 0.9787
-3.0564 0.6925 -0.9382 0.9870
-2.8067 -0.1251 -0.8411 0.9883
-2.8771 -0.3869 -0.8691 0.9880
-5.4651 -2.3174 -1.7772 0.9755
-5.4114 -2.8876 -1.8363 0.9747
-5.3219 -3.4814 -1.9039 0.9738
-5.1537 -4.0698 -1.9660 0.9730
-4.9524 -4.6839 -2.0407 0.9719
-4.7301 -5.3483 -2.1375 0.9706
-4.1107 -6.7671 -2.3704 0.9675
-3.2011 -8.3115 -2.6665 0.9635
-1.9129 -9.9794 -3.0420 0.9585
-1.0921 -10.8557 -3.2664 0.9555
0.9881 -12.6456 -3.7974 0.9484
1.3748 -2.3812 -0.8232 0.9886
1.4741 -2.0970 -0.7674 0.9894
1.5946 -1.8861 -0.7394 0.9897
1.7295 -1.7103 -0.7282 0.9899
1.8770 -1.5514 -0.7290 0.9899
2.2858 -1.2859 -0.7852 0.9891
2.6072 -1.1748 -0.8561 0.9881
11.2135 6.9839 -3.9549 0.9463
8.4238 7.6189 -3.4004 0.9537
6.0306 7.8141 -2.9551 0.9596
4.9748 7.7929 -2.7679 0.9621
4.0051 7.7113 -2.6014 0.9644
2.1703 6.9964 -2.1930 0.9699
0.2108 6.3058 -1.8889 0.9740
-0.3430 6.1520 -1.8446 0.9746
-0.8965 6.1472 -1.8598 0.9744
-3.3481 4.1440 -1.5949 0.9780
-3.6517 3.7758 -1.5726 0.9783
-3.9301 3.3985 -1.5555 0.9785
-4.6249 2.2092 -1.5344 0.9788
-4.8118 1.7920 -1.5372 0.9788
-2.8473 0.5130 -0.8662 0.9880
-2.7412 0.2450 -0.8239 0.9886
-2.7380 0.0000 -0.8695 0.9886
-2.8694 -0.5169 -0.9259 0.9878
-2.9540 -0.8092 -0.9727 0.9872
-4.8242 -4.1716 -2.0254 0.9736
-4.6168 -4.7737 -2.1091 0.9725
-3.2583 -7.4518 -2.5829 0.9664
-0.5825 -10.4459 -3.3226 0.9570
0.3749 -11.2146 -3.5636 0.9540
1.4728 -11.9584 -3.8265 0.9507
2.7204 -12.6596 -4.1123 0.9471
4.1240 -13.2946 -4.4206 0.9433
1.6612 -1.7960 -0.7770 0.9898
1.8043 -1.6319 -0.7726 0.9898
2.1682 -1.3504 -0.8112 0.9893
2.8844 -1.1479 -0.9859 0.9871
10.9038 6.1344 -3.9733 0.9488
8.3800 6.9263 -3.4527 0.9554
7.2248 7.1448 -3.2270 0.9583
6.1455 7.2689 -3.0230 0.9608
5.1416 7.3141 -2.8393 0.9632
4.2107 7.2932 -2.6745 0.9653
3.3492 7.2174 -2.5269 0.9672
1.7618 6.7250 -2.2078 0.9712
1.0809 6.4082 -2.0639 0.9731
-0.6059 6.0234 -1.9226 0.9749
-1.9828 5.1483 -1.7521 0.9771
-2.3742 4.8313 -1.7096 0.9777
-3.3759 3.8172 -1.6183 0.9788
-3.6578 3.4596 -1.5989 0.9791
-3.9159 3.0924 -1.5846 0.9793
-4.3638 2.3285 -1.5708 0.9795
-4.5546 1.9314 -1.5711 0.9795
-2.7613 -0.1231 -0.8778 0.9885
-2.8255 -0.3800 -0.9054 0.9881
-5.2433 -2.2233 -1.8087 0.9764
-5.0911 -3.3304 -1.9321 0.9748
-4.9303 -3.8934 -1.9951 0.9740
-4.7215 -4.4655 -2.0639 0.9731
-4.2245 -5.7335 -2.2618 0.9706
-3.0089 -7.8123 -2.6587 0.9655
0.9058 -11.5915 -3.6925 0.9524
3.4025 -12.9872 -4.2638 0.9452
1.4771 -2.1012 -0.8157 0.9893
1.5977 -1.8898 -0.7859 0.9897
1.7329 -1.7137 -0.7740 0.9898
2.0629 -1.4161 -0.7947 0.9896
2.2931 -1.2901 -0.8356 0.9890
12.9412 5.1505 -4.4234 0.9432
10.2486 6.3829 -3.8344 0.9506
8.9854 6.7763 -3.5741 0.9539
5.6343 7.3005 -2.9287 0.9620
3.7715 7.2615 -2.5986 0.9662
2.9431 7.1618 -2.4590 0.9680
2.1688 6.9914 -2.3247 0.9697
0.7772 6.3106 -2.0193 0.9737
0.2069 6.1897 -1.9669 0.9743
-0.3425 6.1421 -1.9536 0.9745
-1.3349 5.6014 -1.8287 0.9761
-2.9056 4.3355 -1.6575 0.9783
-4.2601 2.5233 -1.5724 0.9794
-4.4619 2.1313 -1.5704 0.9795
-4.6419 1.7287 -1.5731 0.9794
-3.4730 0.9514 -1.1436 0.9850
-2.7749 0.4999 -0.8954 0.9882
-2.6951 0.2408 -0.8593 0.9887
-2.6945 0.0000 -0.9053 0.9887
-2.8177 -0.5076 -0.9619 0.9880
-2.8971 -0.7936 -1.0092 0.9874
-5.0095 -2.3928 -1.8653 0.9768
-4.9303 -2.9202 -1.9252 0.9761
-4.8151 -3.4656 -1.9932 0.9753
-4.4047 -4.5544 -2.1288 0.9736
-3.8607 -5.7605 -2.3299 0.9712
-3.5022 -6.3906 -2.4484 0.9697
-3.0768 -7.0368 -2.5804 0.9681
-2.5769 -7.6966 -2.7270 0.9663
-1.3184 -9.0396 -3.0693 0.9622
3.7462 -12.0766 -4.2483 0.9480
1.4315 -2.2424 -0.8939 0.9888
1.5416 -1.9975 -0.8477 0.9894
1.6645 -1.7996 -0.8236 0.9897
1.8079 -1.6351 -0.8190 0.9898
1.9755 -1.4898 -0.8313 0.9896
13.5110 3.3794 -4.6793 0.9429
12.3504 4.2886 -4.3926 0.9463
10.0025 5.6273 -3.8560 0.9527
8.8645 6.0851 -3.6125 0.9556
7.7714 6.4233 -3.3875 0.9583
5.7512 6.8026 -2.9929 0.9631
4.8305 6.8716 -2.8221 0.9652
3.9699 6.8761 -2.6676 0.9671
3.1676 6.8262 -2.5284 0.9687
1.7279 6.5953 -2.2907 0.9716
1.0800 6.4027 -2.1816 0.9730
0.4870 6.2317 -2.1001 0.9740
-0.0670 6.0120 -2.0200 0.9749
-1.0569 5.5135 -1.8861 0.9766
-1.4982 5.2396 -1.8309 0.9773
-2.2855 4.6510 -1.7411 0.9784
-2.6355 4.3387 -1.7056 0.9788
-2.9587 4.0156 -1.6758 0.9792
-3.7800 2.9851 -1.6183 0.9799
-4.0077 2.6218 -1.6091 0.9800
-4.2136 2.2485 -1.6046 0.9800
-4.5608 1.4707 -1.6100 0.9800
-2.6272 0.5953 -0.9051 0.9887
-2.6180 0.3521 -0.8875 0.9889
-4.8774 -3.1906 -1.9582 0.9757
-4.2884 -4.8489 -2.1749 0.9731
-3.6893 -6.0734 -2.3875 0.9705
-2.8367 -7.3653 -2.6518 0.9672
-2.2962 -8.0304 -2.8062 0.9654
-1.6682 -8.7027 -2.9772 0.9633
-0.9432 -9.3754 -3.1659 0.9610
0.8347 -10.6817 -3.5998 0.9558
1.9045 -11.2910 -3.8472 0.9528
3.1009 -11.8359 -4.1109 0.9497
4.4224 -12.2922 -4.3891 0.9464
1.4801 -2.1055 -0.8647 0.9892
1.6009 -1.8936 -0.8331 0.9896
2.6336 -1.1866 -0.9705 0.9879
12.9352 3.8551 -4.5349 0.9446
11.7612 4.6809 -4.2530 0.9480
9.4286 5.8722 -3.7320 0.9542
8.3117 6.2681 -3.4977 0.9570
7.2446 6.5524 -3.2820 0.9596
5.2833 6.8458 -2.9054 0.9642
4.3928 6.8812 -2.7429 0.9661
2.7877 6.7835 -2.4641 0.9695
2.0682 6.6672 -2.3454 0.9710
1.4000 6.5152 -2.2389 0.9723
0.2048 6.1246 -2.0589 0.9745
-0.3287 5.8942 -1.9834 0.9754
-0.8233 5.6447 -1.9166 0.9762
-2.1000 4.8028 -1.7611 0.9781
-2.4640 4.4962 -1.7226 0.9786
-3.6578 3.1630 -1.6247 0.9798
-4.1134 2.4364 -1.6062 0.9800
-4.3084 2.0580 -1.6042 0.9801
-2.6265 0.7195 -0.9150 0.9886
-2.6519 0.0000 -0.9403 0.9888
-2.6931 -0.2406 -0.9588 0.9886
-2.7668 -0.4985 -0.9969 0.9881
-2.8417 -0.7784 -1.0448 0.9876
-4.8647 -1.8116 -1.8407 0.9782
-4.8148 -2.2998 -1.8920 0.9776
-4.7327 -2.8032 -1.9504 0.9769
-4.4167 -3.8192 -2.0704 0.9755
-4.2092 -4.3522 -2.1469 0.9746
-2.9128 -6.6617 -2.5781 0.9696
-1.8754 -7.8696 -2.8686 0.9662
-0.5053 -9.0621 -3.2183 0.9622
1.2514 -10.1605 -3.6300 0.9575
3.4267 -11.0471 -4.1013 0.9521
4.6658 -11.3536 -4.3525 0.9492
1.3542 -2.6073 -1.0418 0.9876
1.6679 -1.8033 -0.8710 0.9896
1.9802 -1.4933 -0.8794 0.9895
14.0198 0.9385 -4.9824 0.9421
13.1938 2.0747 -4.7358 0.9449
12.2666 3.0681 -4.4836 0.9478
11.2766 3.9157 -4.2327 0.9506
10.2560 4.6212 -3.9888 0.9534
9.2308 5.1932 -3.7556 0.9560
5.4008 6.3881 -2.9662 0.9651
3.7529 6.5002 -2.6614 0.9686
2.3014 6.3969 -2.4106 0.9716
1.6461 6.2833 -2.3031 0.9728
0.4658 5.9604 -2.1199 0.9749
-0.5571 5.5377 -1.9735 0.9767
-1.0154 5.2969 -1.9124 0.9774
-1.4410 5.0395 -1.8585 0.9780
-1.8362 4.7673 -1.8115 0.9786
-2.2024 4.4818 -1.7707 0.9790
-2.5415 4.1840 -1.7358 0.9794
-3.1438 3.5548 -1.6827 0.9801
-3.4092 3.2244 -1.6639 0.9803
-3.6519 2.8839 -1.6500 0.9804
-3.8727 2.5334 -1.6409 0.9806
-4.0720 2.1729 -1.6366 0.9806
-2.5615 0.5804 -0.9313 0.9889
-2.6347 0.1175 -0.9351 0.9889
-2.8709 -0.9257 -1.0696 0.9873
-4.8436 -2.0538 -1.8655 0.9779
-4.5310 -3.5781 -2.0472 0.9758
-4.3153 -4.0814 -2.1061 0.9751
-4.0941 -4.6292 -2.1913 0.9741
-3.1269 -6.3629 -2.5139 0.9704
-1.5663 -8.1714 -2.9502 0.9653
-0.8822 -8.7690 -3.1251 0.9633
-0.1042 -9.3496 -3.3154 0.9611
0.7736 -9.9007 -3.5214 0.9587
4.0347 -11.2146 -4.2261 0.9507
1.3696 -2.9513 -1.1537 0.9863
1.4832 -2.1099 -0.9145 0.9891
1.6041 -1.8973 -0.8810 0.9895
1.7399 -1.7206 -0.8676 0.9897
1.8901 -1.5622 -0.8695 0.9896
2.0728 -1.4229 -0.8915 0.9894
2.3080 -1.2985 -0.9390 0.9888
10.7683 4.2857 -4.1096 0.9520
7.7259 5.8264 -3.4312 0.9598
6.7634 6.1172 -3.2336 0.9620
5.8434 6.3178 -3.0515 0.9641
3.3719 6.4920 -2.5939 0.9694
1.9681 6.3446 -2.3555 0.9722
0.7453 6.0516 -2.1620 0.9745
0.1960 5.8629 -2.0801 0.9754
-0.3152 5.6512 -2.0070 0.9763
-0.7904 5.4195 -1.9420 0.9770
-1.2321 5.1702 -1.8846 0.9777
-2.0228 4.6261 -1.7903 0.9788
-2.3753 4.3343 -1.7525 0.9792
-3.2794 3.3908 -1.6726 0.9802
-3.5333 3.0554 -1.6563 0.9804
-4.1637 1.9888 -1.6361 0.9806
-4.3311 1.6129 -1.6388 0.9806
-2.5828 0.7075 -0.9496 0.9887
-2.6060 0.2329 -0.9277 0.9890
-2.6101 0.0000 -0.9746 0.9889
-4.6855 -1.7448 -1.8670 0.9789
-4.6326 -2.2128 -1.9171 0.9783
-4.5484 -2.6940 -1.9740 0.9777
-4.4300 -3.1885 -2.0381 0.9770
-4.2356 -3.6626 -2.0909 0.9764
-3.7895 -4.6902 -2.2516 0.9746
-3.5024 -5.2259 -2.3491 0.9735
-3.1622 -5.7703 -2.4570 0.9723
-2.3013 -6.8737 -2.7067 0.9695
-1.1617 -7.9654 -3.0059 0.9662
-0.4734 -8.4900 -3.1752 0.9643
4.2718 -10.3950 -4.1966 0.9531
1.4385 -2.2534 -0.9983 0.9886
1.9850 -1.4969 -0.9284 0.9894
13.2645 -0.2956 -4.9543 0.9449
12.7042 0.8505 -4.7545 0.9471
12.0114 1.8887 -4.5403 0.9494
10.3647 3.5990 -4.0970 0.9542
9.4708 4.2674 -3.8789 0.9566
8.5624 4.8172 -3.6686 0.9589
5.9118 5.8464 -3.1047 0.9651
4.3011 6.1185 -2.7927 0.9686
3.5561 6.1595 -2.6558 0.9701
2.1916 6.0917 -2.4174 0.9727
1.5709 5.9962 -2.3146 0.9739
0.9896 5.8671 -2.2218 0.9749
-0.0615 5.5253 -2.0633 0.9767
-0.5352 5.3195 -1.9964 0.9774
-1.3874 4.8521 -1.8844 0.9787
-2.1242 4.3227 -1.7985 0.9796
-3.0376 3.4346 -1.7121 0.9806
-3.2952 3.1166 -1.6936 0.9808
-3.7450 2.4498 -1.6710 0.9811
-3.9380 2.1014 -1.6667 0.9811
-4.1101 1.7429 -1.6671 0.9811
-2.5436 0.5763 -0.9739 0.9889
-2.5325 0.3406 -0.9542 0.9891
-2.8043 -0.9042 -1.1002 0.9875
-4.6628 -1.9772 -1.8912 0.9786
-4.4936 -2.9395 -2.0051 0.9773
-4.1351 -3.9109 -2.1253 0.9760
-3.6523 -4.9569 -2.2991 0.9741
-2.9706 -6.0450 -2.5151 0.9717
-2.0444 -7.1495 -2.7767 0.9687
-1.4753 -7.6963 -2.9262 0.9671
-0.0974 -8.7426 -3.2648 0.9634
1.6074 -1.9012 -0.9297 0.9894
1.8946 -1.5659 -0.9178 0.9896
2.6612 -1.1991 -1.0899 0.9876
13.0031 0.2898 -4.8567 0.9460
10.7992 3.2185 -4.2078 0.9530
6.3375 5.7319 -3.1908 0.9642
5.4949 5.9410 -3.0218 0.9660
4.6891 6.0759 -2.8659 0.9678
2.5172 6.1252 -2.4728 0.9721
1.8763 6.0485 -2.3647 0.9733
0.1879 5.6200 -2.0997 0.9763
-0.3025 5.4250 -2.0289 0.9771
-0.7598 5.2092 -1.9657 0.9778
-1.1857 4.9753 -1.9098 0.9784
-1.9502 4.4602 -1.8177 0.9794
-2.6081 3.8916 -1.7493 0.9802
-2.9002 3.5897 -1.7232 0.9805
-4.0267 1.9234 -1.6663 0.9811
-2.6096 0.4702 -0.9901 0.9887
-2.5629 0.2290 -0.9608 0.9891
-2.6685 -0.4807 -1.0642 0.9884
-2.7221 -0.7457 -1.1077 0.9879
-4.4617 -2.1311 -1.9406 0.9790
-4.3757 -2.5917 -1.9960 0.9784
-4.2566 -3.0637 -2.0583 0.9777
-3.0133 -5.4985 -2.4608 0.9734
-2.1825 -6.5187 -2.6980 0.9709
-1.0955 -7.5113 -2.9791 0.9679
-0.4450 -7.9798 -3.1367 0.9662
0.2814 -8.4177 -3.3056 0.9645
1.0853 -8.8123 -3.4847 0.9626
2.9199 -9.4129 -3.8680 0.9585
1.3848 -2.6663 -1.1792 0.9872
1.4440 -2.2620 -1.0533 0.9885
1.5512 -2.0099 -0.9964 0.9891
1.8190 -1.6452 -0.9626 0.9895
2.1962 -1.3678 -1.0154 0.9889
2.4790 -1.2527 -1.0901 0.9881
3.0459 -1.2122 -1.2866 0.9860
12.3873 -1.3857 -4.8920 0.9478
12.0695 -0.2689 -4.7381 0.9494
11.0123 1.7316 -4.3751 0.9532
10.3294 2.5836 -4.1789 0.9553
8.7895 3.9604 -3.7836 0.9594
7.9776 4.4881 -3.5924 0.9614
6.3545 5.2521 -3.2355 0.9652
5.5665 5.5048 -3.0725 0.9669
4.0738 5.7951 -2.7801 0.9700
3.3769 5.8490 -2.6507 0.9714
2.7157 5.8522 -2.5320 0.9727
2.0906 5.8110 -2.4237 0.9738
0.9476 5.6177 -2.2359 0.9758
0.4278 5.4749 -2.1553 0.9767
-0.0591 5.3064 -2.0827 0.9775
-1.3371 4.6759 -1.9087 0.9793
-2.0506 4.1727 -1.8247 0.9802
-2.6647 3.6166 -1.7631 0.9809
-2.9371 3.3210 -1.7400 0.9811
-3.4161 2.6977 -1.7084 0.9815
-3.6239 2.3707 -1.6996 0.9816
-3.8110 2.0337 -1.6954 0.9816
-3.9776 1.6867 -1.6957 0.9816
-4.1237 1.3298 -1.7005 0.9816
-2.5568 0.5793 -1.0289 0.9888
-2.5889 -0.1154 -1.0171 0.9889
-2.7236 -0.8782 -1.1231 0.9878
-4.3205 -2.8263 -2.0263 0.9781
-4.1798 -3.3007 -2.0903 0.9774
-3.7482 -4.2382 -2.2205 0.9760
-3.4908 -4.7377 -2.3097 0.9750
-2.8276 -5.7539 -2.5162 0.9728
-2.4128 -6.2645 -2.6347 0.9716
-1.3933 -7.2685 -2.9046 0.9687
-0.7795 -7.7487 -3.0565 0.9671
0.6737 -8.6213 -3.3939 0.9635
1.5163 -8.9891 -3.5778 0.9616
3.4219 -9.5114 -3.9672 0.9575
1.4840 -3.1979 -1.3836 0.9850
1.7470 -1.7277 -0.9643 0.9895
2.3235 -1.3072 -1.0463 0.9886
12.5311 -3.1342 -5.0696 0.9460
12.4822 -1.9627 -4.9591 0.9472
12.2488 -0.8199 -4.8181 0.9486
10.6807 2.1710 -4.2776 0.9542
9.9615 2.9689 -4.0795 0.9563
9.1888 3.6571 -3.8814 0.9584
8.3850 4.2372 -3.6872 0.9604
7.5692 4.7141 -3.4997 0.9624
6.7562 5.0951 -3.3211 0.9643
5.1819 5.6027 -2.9952 0.9677
4.4351 5.7468 -2.8490 0.9693
1.7916 5.7755 -2.3733 0.9744
1.2202 5.6783 -2.2794 0.9754
0.6835 5.5497 -2.1945 0.9763
-0.2907 5.2136 -2.0493 0.9778
-0.7310 5.0123 -1.9880 0.9785
-1.1421 4.7923 -1.9335 0.9791
-2.8037 3.4702 -1.7509 0.9810
-3.3044 2.8574 -1.7145 0.9814
-3.5226 2.5354 -1.7034 0.9815
-3.7201 2.2034 -1.6969 0.9816
-3.8969 1.8614 -1.6949 0.9816
-4.0533 1.5095 -1.6975 0.9816
-3.4630 0.9486 -1.4092 0.9847
-2.5634 0.4618 -1.0222 0.9889
-2.5207 0.2253 -0.9932 0.9892
-2.5656 -0.2293 -1.0607 0.9889
-2.6211 -0.4722 -1.0967 0.9885
-2.6410 -0.7234 -1.1276 0.9882
-2.6436 -0.9845 -1.1616 0.9879
-4.2137 -2.4958 -2.0167 0.9790
-4.0942 -2.9468 -2.0772 0.9784
-3.1982 -4.7720 -2.3655 0.9755
-2.0740 -6.1946 -2.6900 0.9721
-1.5862 -6.6559 -2.8175 0.9708
-1.0357 -7.1010 -2.9550 0.9694
1.0166 -8.2541 -3.4246 0.9647
1.8353 -8.5407 -3.5972 0.9629
2.7160 -8.7557 -3.7749 0.9611
3.6507 -8.8836 -3.9549 0.9593
1.4024 -2.7001 -1.2529 0.9869
3.2359 -1.2878 -1.4341 0.9850
11.4262 -2.3225 -4.8013 0.9508
11.0600 -0.2465 -4.5554 0.9533
9.5598 2.3911 -4.0578 0.9583
8.1924 3.6914 -3.7001 0.9619
4.5487 5.3803 -2.9012 0.9700
2.5894 5.5800 -2.5331 0.9737
1.9974 5.5518 -2.4295 0.9748
0.4108 5.2566 -2.1712 0.9774
-0.4953 4.9240 -2.0379 0.9788
-0.9059 4.7261 -1.9815 0.9794
-2.5772 3.4978 -1.7891 0.9814
-3.0850 2.9178 -1.7485 0.9818
-3.8518 1.6334 -1.7228 0.9821
-2.6388 0.5979 -1.1141 0.9884
-2.4504 0.3296 -1.0181 0.9894
-2.5854 -0.3477 -1.0742 0.9888
-2.6300 -0.5959 -1.1104 0.9884
-4.3332 -1.8374 -1.9381 0.9798
-4.2612 -2.2738 -1.9889 0.9793
-4.0203 -3.1747 -2.1094 0.9781
-3.8103 -3.6037 -2.1596 0.9776
-3.3412 -4.5346 -2.3194 0.9759
-3.0433 -5.0099 -2.4138 0.9750
-1.8377 -6.4268 -2.7525 0.9715
-0.7359 -7.3152 -3.0275 0.9687
-0.0860 -7.7210 -3.1796 0.9671
0.6320 -8.0885 -3.3409 0.9655
1.4178 -8.4054 -3.5101 0.9638
2.2683 -8.6581 -3.6856 0.9620
4.1347 -8.9099 -4.0447 0.9584
1.4163 -2.4532 -1.1664 0.9878
1.4976 -2.1304 -1.0723 0.9888
1.6140 -1.9091 -1.0294 0.9892
2.0883 -1.4335 -1.0430 0.9891
11.4144 -2.8549 -4.8450 0.9504
11.3938 -1.7915 -4.7494 0.9513
10.8777 0.2424 -4.4804 0.9540
10.4229 1.1660 -4.3187 0.9556
9.8676 2.0057 -4.1464 0.9574
7.0911 4.4164 -3.4400 0.9645
6.3499 4.7887 -3.2750 0.9662
5.6165 5.0799 -3.1184 0.9678
4.8993 5.2970 -2.9711 0.9693
4.2044 5.4478 -2.8337 0.9707
3.5361 5.5392 -2.7061 0.9720
2.8973 5.5782 -2.5883 0.9732
1.1689 5.4395 -2.2910 0.9762
0.6558 5.3246 -2.2091 0.9771
0.1733 5.1822 -2.1351 0.9778
-0.7041 4.8275 -2.0089 0.9791
-1.1011 4.6203 -1.9558 0.9797
-1.4718 4.3960 -1.9089 0.9801
-3.1987 2.7661 -1.7413 0.9819
-3.4107 2.4549 -1.7304 0.9820
-3.6023 2.1337 -1.7240 0.9821
-3.9249 1.4617 -1.7246 0.9820
-3.5071 0.9607 -1.4974 0.9844
-2.5181 0.4537 -1.0536 0.9890
-2.4793 0.2216 -1.0250 0.9893
-2.4893 0.0000 -1.0738 0.9892
-2.5389 -0.4574 -1.1128 0.9888
-4.0613 -2.4055 -2.0361 0.9796
-3.3308 -4.1225 -2.2862 0.9772
-3.0624 -4.5694 -2.3728 0.9763
-2.7491 -5.0165 -2.4675 0.9754
-1.5067 -6.3221 -2.8035 0.9721
-0.9813 -6.7285 -2.9331 0.9708
-0.3964 -7.1091 -3.0713 0.9695
0.2493 -7.4550 -3.2176 0.9680
0.9552 -7.7560 -3.3709 0.9665
1.7193 -8.0010 -3.5301 0.9650
2.5365 -8.1768 -3.6930 0.9634
1.4248 -2.7432 -1.3334 0.9866
2.0009 -1.5090 -1.0810 0.9891
2.2165 -1.3804 -1.1264 0.9887
2.5279 -1.2774 -1.2217 0.9877
10.4052 -3.1011 -4.6835 0.9538
10.4851 -2.1312 -4.6153 0.9545
10.4115 -1.1647 -4.5191 0.9554
10.1956 -0.2272 -4.3990 0.9565
9.8569 0.6599 -4.2614 0.9579
9.4144 1.4804 -4.1109 0.9593
7.6645 3.4535 -3.6263 0.9640
7.0018 3.9392 -3.4655 0.9656
6.3250 4.3419 -3.3093 0.9671
2.4728 5.3288 -2.5340 0.9747
1.9109 5.3116 -2.4349 0.9757
0.8719 5.1693 -2.2613 0.9774
0.3948 5.0524 -2.1860 0.9782
-0.4773 4.7441 -2.0567 0.9794
-1.5917 4.1328 -1.9103 0.9809
-1.9150 3.8969 -1.8729 0.9813
-2.4941 3.3851 -1.8137 0.9818
-3.2038 2.5300 -1.7609 0.9824
-3.5759 1.9082 -1.7483 0.9825
-3.7322 1.5826 -1.7486 0.9825
-3.8685 1.2475 -1.7533 0.9824
-2.5715 0.5826 -1.1373 0.9886
-2.4655 0.1100 -1.0645 0.9893
-2.5077 -0.1118 -1.0828 0.9891
-2.5277 -0.3399 -1.1001 0.9890
-2.5465 -0.5769 -1.1263 0.9887
-2.5665 -0.8276 -1.1632 0.9883
-4.1091 -2.1927 -2.0091 0.9799
-4.0056 -2.6203 -2.0647 0.9794
-3.8696 -3.0558 -2.1269 0.9787
-3.6633 -3.4647 -2.1750 0.9783
-3.2020 -4.3458 -2.3285 0.9768
-2.5746 -5.2391 -2.5181 0.9749
-2.1877 -5.6802 -2.6256 0.9738
-1.7476 -6.1116 -2.7420 0.9727
-1.2513 -6.5280 -2.8672 0.9715
-0.6964 -6.9225 -3.0012 0.9701
0.5948 -7.6118 -3.2934 0.9673
2.9626 -8.2347 -3.7750 0.9626
3.8431 -8.2818 -3.9383 0.9610
1.4335 -2.4829 -1.2367 0.9876
1.5105 -2.1487 -1.1330 0.9886
1.7568 -1.7373 -1.0658 0.9893
2.0957 -1.4386 -1.0965 0.9890
2.7743 -1.2500 -1.3126 0.9868
10.3070 -3.5790 -4.7064 0.9536
10.4678 -1.6460 -4.5708 0.9549
10.3200 -0.6908 -4.4616 0.9559
10.0404 0.2238 -4.3321 0.9572
9.6474 1.0793 -4.1874 0.9586
6.6644 4.1506 -3.3867 0.9664
5.9851 4.5136 -3.2336 0.9679
5.3084 4.8012 -3.0874 0.9693
4.6425 5.0195 -2.9493 0.9707
3.9937 5.1748 -2.8197 0.9719
3.3665 5.2736 -2.6988 0.9731
2.1884 5.3251 -2.4834 0.9752
1.1210 5.2170 -2.3018 0.9770
0.1666 4.9842 -2.1511 0.9785
-0.2693 4.8296 -2.0865 0.9791
-0.6787 4.6535 -2.0285 0.9797
-1.7562 4.0166 -1.8910 0.9811
-2.0680 3.7737 -1.8562 0.9814
-2.3575 3.5177 -1.8266 0.9817
-2.6254 3.2495 -1.8020 0.9820
-2.8721 2.9698 -1.7821 0.9822
-3.3043 2.3783 -1.7561 0.9824
-3.4903 2.0674 -1.7498 0.9825
-3.6565 1.7466 -1.7479 0.9825
-3.9292 1.0763 -1.7573 0.9824
-2.4481 -0.2188 -1.1090 0.9893
-2.4890 -0.9269 -1.1984 0.9884
-4.0061 -1.9135 -2.0032 0.9807
-3.9175 -2.3203 -2.0544 0.9802
-3.7984 -2.7339 -2.1117 0.9797
-3.4225 -3.5388 -2.2214 0.9786
-2.2812 -5.2171 -2.5693 0.9753
-1.8828 -5.6237 -2.6759 0.9743
-1.4337 -6.0161 -2.7906 0.9732
-0.9318 -6.3885 -2.9131 0.9721
1.6158 -7.5190 -3.4702 0.9668
1.4697 -2.8297 -1.4388 0.9861
1.4831 -2.3233 -1.2437 0.9880
1.5792 -2.0462 -1.1663 0.9887
1.8408 -1.6649 -1.1200 0.9892
2.0165 -1.5207 -1.1396 0.9890
9.3674 -3.7281 -4.5492 0.9567
9.6749 -1.9665 -4.4547 0.9576
9.6245 -1.0766 -4.3698 0.9584
8.7650 1.3783 -4.0035 0.9618
7.7683 2.6975 -3.7105 0.9646
7.1943 3.2416 -3.5605 0.9660
6.5902 3.7076 -3.4119 0.9674
5.9690 4.0975 -3.2668 0.9687
5.3416 4.4150 -3.1269 0.9700
4.1025 4.8524 -2.8671 0.9725
2.9229 5.0626 -2.6377 0.9747
2.3648 5.0960 -2.5349 0.9756
1.3214 5.0439 -2.3527 0.9774
0.8378 4.9669 -2.2728 0.9781
0.3798 4.8609 -2.2000 0.9788
-0.0527 4.7292 -2.1340 0.9795
-2.1444 3.5302 -1.8637 0.9820
-2.4152 3.2779 -1.8372 0.9823
-2.8952 2.7383 -1.7981 0.9827
-3.1052 2.4522 -1.7853 0.9828
-3.2957 2.1560 -1.7770 0.9829
-3.4666 1.8499 -1.7730 0.9829
-3.6181 1.5342 -1.7733 0.9829
-3.7500 1.2093 -1.7779 0.9829
-2.4105 0.1075 -1.0887 0.9895
-2.4395 -0.1088 -1.1018 0.9893
-2.4521 -0.3298 -1.1164 0.9892
-2.4782 -0.7991 -1.1749 0.9886
-2.4891 -1.0554 -1.2199 0.9882
-3.9655 -2.1160 -2.0281 0.9805
-3.3141 -3.7473 -2.2572 0.9783
-3.0722 -4.1696 -2.3370 0.9775
-2.4621 -5.0102 -2.5189 0.9758
-2.0882 -5.4218 -2.6216 0.9748
-1.1895 -6.2053 -2.8509 0.9727
-0.6605 -6.5650 -2.9772 0.9715
-0.0768 -6.8937 -3.1108 0.9702
1.5238 -2.1676 -1.1956 0.9884
1.6360 -1.9350 -1.1434 0.9889
1.9240 -1.5902 -1.1263 0.9891
2.1122 -1.4499 -1.1560 0.9888
2.8392 -1.2793 -1.4051 0.9864
9.5512 -0.6393 -4.3193 0.9589
9.3132 0.2076 -4.2033 0.9599
8.9703 1.0035 -4.0728 0.9612
8.5399 1.7358 -3.9322 0.9625
8.0395 2.3960 -3.7852 0.9639
7.4860 2.9794 -3.6355 0.9653
6.8951 3.4843 -3.4859 0.9667
6.2810 3.9119 -3.3388 0.9680
5.0285 4.5481 -3.0593 0.9707
3.2104 5.0290 -2.6921 0.9742
2.6409 5.0848 -2.5853 0.9752
2.0946 5.0970 -2.4865 0.9761
1.5728 5.0704 -2.3954 0.9770
1.0764 5.0092 -2.3118 0.9778
0.6056 4.9173 -2.2355 0.9785
-0.2595 4.6546 -2.1035 0.9798
-1.6983 3.8842 -1.9128 0.9816
-2.0011 3.6516 -1.8788 0.9819
-2.2824 3.4056 -1.8498 0.9822
-2.5428 3.1473 -1.8257 0.9824
-2.7827 2.8774 -1.8061 0.9826
-3.0027 2.5965 -1.7912 0.9827
-3.3836 2.0041 -1.7744 0.9829
-3.6865 1.3729 -1.7750 0.9829
-2.3848 0.2131 -1.0804 0.9895
-2.3615 0.0000 -1.1132 0.9896
-2.4034 -0.8950 -1.2089 0.9887
-3.8705 -1.8487 -2.0219 0.9812
-3.6631 -2.6365 -2.1274 0.9802
-3.5034 -3.0295 -2.1832 0.9797
-3.2950 -3.4070 -2.2342 0.9793
-3.0739 -3.8045 -2.3056 0.9786
-2.8179 -4.2046 -2.3859 0.9779
-2.5216 -4.6013 -2.4733 0.9771
-2.1824 -4.9913 -2.5679 0.9762
-1.7981 -5.3706 -2.6697 0.9753
-1.3666 -5.7344 -2.7787 0.9743
-0.8863 -6.0768 -2.8948 0.9732
-0.3564 -6.3913 -3.0174 0.9721
0.2230 -6.6702 -3.1460 0.9709
0.8504 -6.9050 -3.2794 0.9697
1.5227 -7.0860 -3.4165 0.9685
2.2346 -7.2035 -3.5552 0.9672
1.6045 -3.0892 -1.6409 0.9847
1.5915 -2.0621 -1.2279 0.9885
1.7104 -1.8492 -1.1874 0.9889
1.8543 -1.6771 -1.1785 0.9890
2.0325 -1.5328 -1.2000 0.9888
8.6727 -3.4517 -4.4000 0.9596
8.8840 -2.6477 -4.3697 0.9598
8.9712 -1.8234 -4.3153 0.9603
8.9368 -0.9997 -4.2389 0.9610
8.5356 0.5714 -4.0325 0.9629
7.7727 1.9441 -3.7767 0.9652
6.7725 3.0516 -3.5015 0.9677
6.2190 3.4988 -3.3636 0.9689
5.6463 3.8760 -3.2283 0.9702
3.9065 4.6207 -2.8522 0.9736
3.3424 4.7546 -2.7396 0.9746
1.7556 4.8800 -2.4446 0.9773
1.2692 4.8445 -2.3606 0.9781
-1.1624 4.0652 -1.9930 0.9815
-1.7930 3.6487 -1.9163 0.9822
-2.0767 3.4187 -1.8855 0.9825
-2.3400 3.1759 -1.8595 0.9827
-2.5833 2.9210 -1.8381 0.9829
-2.8069 2.6548 -1.8211 0.9831
-3.0112 2.3779 -1.8086 0.9832
-2.5265 0.5724 -1.2211 0.9886
-2.2973 0.3090 -1.0926 0.9898
-2.3488 0.1048 -1.1083 0.9897
-2.3945 -0.7721 -1.1859 0.9889
-2.4109 -1.0223 -1.2344 0.9885
-3.7262 -2.4375 -2.0989 0.9805
-3.5921 -2.8366 -2.1575 0.9800
-2.6750 -4.4036 -2.4287 0.9775
-1.9960 -5.1826 -2.6179 0.9757
-1.5884 -5.5547 -2.7233 0.9748
-0.6275 -6.2380 -2.9553 0.9727
0.5309 -6.7937 -3.2122 0.9703
1.8741 -7.1534 -3.4857 0.9678
2.6030 -7.2353 -3.6246 0.9666
3.3590 -7.2386 -3.7616 0.9653
1.4721 -2.5498 -1.3879 0.9871
1.5375 -2.1872 -1.2603 0.9882
1.6484 -1.9497 -1.2035 0.9888
1.9391 -1.6027 -1.1858 0.9889
2.3987 -1.3495 -1.2974 0.9879
8.7938 -3.0535 -4.3880 0.9597
8.9431 -2.2368 -4.3454 0.9601
8.9689 -1.4103 -4.2797 0.9606
8.6740 0.1933 -4.0897 0.9624
7.9904 1.6241 -3.8435 0.9646
7.0384 2.8013 -3.5708 0.9671
6.4989 3.2840 -3.4323 0.9683
5.9344 3.6960 -3.2955 0.9696
5.3560 4.0392 -3.1622 0.9708
4.1933 4.5338 -2.9111 0.9731
2.0073 4.8846 -2.4893 0.9769
1.0346 4.8145 -2.3212 0.9785
0.5828 4.7322 -2.2475 0.9791
0.1546 4.6229 -2.1803 0.9798
-0.2503 4.4894 -2.1195 0.9803
-0.6321 4.3341 -2.0646 0.9808
-1.3281 3.9669 -1.9719 0.9817
-1.9374 3.5354 -1.9003 0.9823
-2.2108 3.2988 -1.8719 0.9826
-2.6975 2.7893 -1.8291 0.9830
-3.1062 2.2357 -1.8040 0.9832
-2.3515 0.4237 -1.1263 0.9895
-2.3094 -0.2064 -1.1404 0.9897
-2.3082 -0.4158 -1.1536 0.9896
-2.3175 -0.6348 -1.1819 0.9893
-2.3278 -0.8669 -1.2217 0.9890
-2.3666 -1.1304 -1.2900 0.9884
-3.6529 -2.1636 -2.0882 0.9813
-3.1748 -3.2827 -2.2462 0.9798
-2.7074 -4.0396 -2.3919 0.9786
-2.0905 -4.7811 -2.5666 0.9770
-1.7195 -5.1359 -2.6639 0.9761
0.2116 -6.3293 -3.1149 0.9722
0.8052 -6.5379 -3.2400 0.9711
2.1063 -6.7902 -3.4968 0.9688
1.6041 -2.0785 -1.2914 0.9884
1.7232 -1.8631 -1.2483 0.9888
2.6367 -1.3324 -1.4530 0.9869
8.2656 -2.4634 -4.2422 0.9623
8.3540 -1.6980 -4.1930 0.9627
8.3321 -0.9321 -4.1238 0.9633
7.6791 1.2075 -3.8234 0.9659
7.3029 1.8266 -3.7026 0.9670
6.3918 2.8801 -3.4483 0.9692
4.8112 3.9766 -3.0701 0.9726
4.2668 4.2195 -2.9515 0.9736
3.7258 4.4069 -2.8384 0.9746
3.1935 4.5429 -2.7313 0.9756
1.6856 4.6852 -2.4490 0.9780
1.2202 4.6575 -2.3681 0.9788
0.7756 4.5984 -2.2937 0.9794
0.3525 4.5110 -2.2255 0.9800
-0.0490 4.3983 -2.1634 0.9806
-0.4288 4.2627 -2.1072 0.9811
-0.7872 4.1066 -2.0566 0.9815
-1.1243 3.9320 -2.0114 0.9819
-1.7364 3.5335 -1.9365 0.9826
-2.0122 3.3125 -1.9063 0.9829
-2.2682 3.0785 -1.8808 0.9831
-2.9213 2.3070 -1.8309 0.9835
-2.5042 0.5674 -1.2629 0.9886
-2.2513 0.3028 -1.1173 0.9899
-2.3022 -0.1026 -1.1335 0.9898
-2.3142 -0.5243 -1.1671 0.9895
-2.3375 -0.9912 -1.2488 0.9887
-3.4650 -2.7362 -2.1716 0.9805
-3.2745 -3.0970 -2.2169 0.9801
-3.0683 -3.4693 -2.2780 0.9796
-2.8369 -3.8503 -2.3523 0.9789
-2.2601 -4.5990 -2.5204 0.9774
-1.5176 -5.3073 -2.7151 0.9757
-1.0802 -5.6350 -2.8221 0.9747
-0.5974 -5.9376 -2.9352 0.9737
-0.0692 -6.2083 -3.0538 0.9727
0.5032 -6.4395 -3.1770 0.9716
1.7686 -6.7505 -3.4323 0.9694
2.4509 -6.8125 -3.5610 0.9682
1.5518 -2.2074 -1.3272 0.9880
1.6612 -1.9649 -1.2656 0.9886
1.9547 -1.6156 -1.2473 0.9888
8.3238 -2.0819 -4.2202 0.9625
8.3566 -1.3140 -4.1607 0.9630
8.2816 -0.5544 -4.0824 0.9637
7.4990 1.5243 -3.7638 0.9665
7.0924 2.1138 -3.6401 0.9675
5.6194 3.4999 -3.2561 0.9709
3.9955 4.3199 -2.8942 0.9741
2.9320 4.5930 -2.6801 0.9760
2.4203 4.6600 -2.5827 0.9769
1.9258 4.6862 -2.4919 0.9777
0.9953 4.6317 -2.3301 0.9791
0.5614 4.5580 -2.2588 0.9797
-0.2416 4.3332 -2.1346 0.9808
-0.6107 4.1871 -2.0812 0.9813
-1.2850 3.8382 -1.9908 0.9821
-2.6161 2.7051 -1.8509 0.9834
