ply
format ascii 1.0
element vertex 1584
property float32 x
property float32 y
property float32 z
property float32 I
end_header
-13.4340 3.0437 0.1145 0.9464
-14.0130 1.8846 0.1175 0.9450
-14.6341 0.6526 0.1218 0.9431
-0.0311 -2.7906 0.0232 0.9889
0.5597 -2.1364 0.0184 0.9912
0.7368 -2.0479 0.0181 0.9913
0.9149 -1.9716 0.0181 0.9913
1.1082 -1.9194 0.0184 0.9912
1.3275 -1.8884 0.0192 0.9908
1.5969 -1.8888 0.0206 0.9902
-9.3497 11.5723 0.1237 0.9422
-9.9473 10.2855 0.1189 0.9444
-10.5089 9.0874 0.1155 0.9459
-14.3174 1.2794 0.1195 0.9441
-13.6370 0.0000 -0.1133 0.9469
0.2875 -2.3347 -0.0195 0.9906
1.7575 -1.9002 -0.0215 0.9897
2.4091 -2.1789 -0.0270 0.9871
-8.2183 11.1540 -0.1151 0.9461
-9.8955 7.8144 -0.1048 0.9508
-10.3958 6.8006 -0.1032 0.9515
-11.3612 4.8175 -0.1026 0.9518
-12.3287 2.7933 -0.1051 0.9507
-13.3603 0.5958 -0.1111 0.9479
-13.9241 -0.6209 -0.1158 0.9458
-14.5371 -1.9550 -0.1219 0.9430
-0.0308 -2.7608 -0.0229 0.9890
0.5573 -2.1270 -0.0183 0.9912
0.7336 -2.0390 -0.0180 0.9914
1.3224 -1.8811 -0.0191 0.9908
1.5856 -1.8754 -0.0204 0.9902
1.9866 -1.9646 -0.0232 0.9889
-8.5243 10.5507 -0.1127 0.9472
-10.6401 6.3021 -0.1028 0.9517
-11.1219 5.3125 -0.1024 0.9519
-11.6006 4.3201 -0.1029 0.9517
-12.0834 3.3100 -0.1041 0.9511
-12.5250 0.0000 -0.3124 0.9511
-13.0136 -1.1629 -0.3258 0.9491
-13.5363 -2.4387 -0.3430 0.9465
-0.1702 -3.0524 -0.0762 0.9878
1.0026 -1.9304 -0.0542 0.9913
1.4396 -1.8653 -0.0588 0.9906
1.7473 -1.8892 -0.0642 0.9898
2.3476 -2.1233 -0.0789 0.9874
-5.8212 11.8458 -0.3292 0.9486
-7.5384 10.2312 -0.3169 0.9504
-8.1145 9.1752 -0.3055 0.9522
-8.6465 8.1777 -0.2968 0.9535
-9.1448 7.2216 -0.2906 0.9544
-9.6179 6.2918 -0.2866 0.9551
-10.0730 5.3751 -0.2847 0.9553
-10.9538 3.5321 -0.2870 0.9550
-11.3913 2.5810 -0.2913 0.9543
-12.7657 -0.5692 -0.3187 0.9502
-13.2700 -1.7846 -0.3339 0.9478
-0.0304 -2.7316 -0.0681 0.9891
0.3794 -2.2493 -0.0569 0.9909
0.7304 -2.0302 -0.0538 0.9914
1.3173 -1.8738 -0.0571 0.9909
1.5792 -1.8679 -0.0610 0.9903
-4.6522 13.8956 -0.3654 0.9431
-7.8327 9.6946 -0.3108 0.9514
-8.3853 8.6704 -0.3008 0.9529
-8.8993 7.6956 -0.2934 0.9540
-9.8473 5.8326 -0.2854 0.9552
-11.1722 3.0604 -0.2889 0.9547
-11.6118 2.0920 -0.2942 0.9539
-11.5800 0.0000 -0.4815 0.9547
-12.4230 -2.2381 -0.5249 0.9507
0.0846 -2.5306 -0.1053 0.9899
0.4660 -2.1687 -0.0922 0.9912
0.8131 -1.9786 -0.0889 0.9915
1.1968 -1.8748 -0.0925 0.9911
2.2892 -2.0705 -0.1283 0.9877
1.6011 6.1114 -0.2627 0.9750
-2.8188 14.7057 -0.6226 0.9418
-4.6194 11.9939 -0.5344 0.9498
-5.3323 10.8509 -0.5027 0.9527
-6.3544 10.4608 -0.5089 0.9522
-6.9619 9.4488 -0.4880 0.9541
-7.5148 8.4971 -0.4716 0.9556
-8.4995 6.7121 -0.4503 0.9576
-8.9479 5.8535 -0.4446 0.9581
-10.5857 2.3984 -0.4513 0.9575
-11.3782 0.5074 -0.4736 0.9554
-11.7846 -0.5255 -0.4905 0.9539
-13.1192 -4.2304 -0.5731 0.9463
0.1883 -2.4103 -0.1005 0.9904
0.5524 -2.1084 -0.0906 0.9913
0.7272 -2.0214 -0.0893 0.9914
0.9043 -1.9486 -0.0893 0.9914
1.0950 -1.8966 -0.0911 0.9913
1.3122 -1.8666 -0.0949 0.9909
1.5729 -1.8604 -0.1013 0.9903
1.9495 -1.9279 -0.1140 0.9891
-3.3268 13.9598 -0.5967 0.9442
-4.9878 11.4075 -0.5177 0.9514
-6.0257 10.9955 -0.5213 0.9510
-8.2657 7.1477 -0.4544 0.9572
-9.1640 5.4278 -0.4428 0.9583
-9.5833 4.5776 -0.4416 0.9584
-9.9898 3.7203 -0.4432 0.9582
-11.1192 -0.9936 -0.6502 0.9563
-11.4777 -2.0678 -0.6793 0.9543
0.4636 -2.1576 -0.1285 0.9912
0.6377 -2.0557 -0.1254 0.9914
0.8096 -1.9701 -0.1241 0.9915
0.9948 -1.9153 -0.1257 0.9914
1.1923 -1.8677 -0.1291 0.9912
2.2636 -2.0473 -0.1778 0.9878
-1.4801 14.7123 -0.8612 0.9425
-2.5539 13.3235 -0.7901 0.9471
-3.4623 12.1084 -0.7335 0.9508
-4.2403 11.0096 -0.6872 0.9538
-6.9969 7.9116 -0.6151 0.9586
-7.4849 7.0792 -0.6000 0.9596
-7.9386 6.2691 -0.5892 0.9603
-8.7676 4.6786 -0.5788 0.9610
-9.1530 3.8812 -0.5790 0.9609
-9.8856 2.2398 -0.5904 0.9602
-10.2401 1.3772 -0.6018 0.9594
-10.9424 -0.4879 -0.6380 0.9571
-11.6605 -2.6419 -0.6964 0.9532
-12.0367 -3.8813 -0.7366 0.9506
-12.4023 -5.2590 -0.7846 0.9475
-12.6057 -6.7266 -0.8322 0.9444
0.1871 -2.3938 -0.1398 0.9904
0.3754 -2.2257 -0.1315 0.9910
0.7241 -2.0127 -0.1246 0.9915
1.0907 -1.8891 -0.1271 0.9913
1.3071 -1.8594 -0.1324 0.9909
1.5666 -1.8530 -0.1413 0.9903
1.9404 -1.9189 -0.1589 0.9891
-5.5700 10.1640 -0.6751 0.9546
-6.1828 9.2255 -0.6468 0.9565
-6.7377 8.3393 -0.6244 0.9580
-8.1546 5.8694 -0.5852 0.9605
-8.5685 5.0752 -0.5800 0.9609
-8.9623 4.2809 -0.5785 0.9610
-9.3402 3.4783 -0.5805 0.9609
-9.7061 2.6588 -0.5861 0.9605
-10.0635 1.8130 -0.5956 0.9599
-10.4158 0.9308 -0.6091 0.9590
-10.0586 0.0000 -0.7538 0.9605
-10.3629 -0.9260 -0.7797 0.9591
-10.9661 -3.0039 -0.8521 0.9554
-11.2700 -4.1970 -0.9012 0.9529
-11.4118 -5.4510 -0.9478 0.9505
-11.9866 -8.6274 -1.1068 0.9425
0.0839 -2.5095 -0.1882 0.9900
0.2820 -2.2893 -0.1729 0.9908
0.6349 -2.0468 -0.1606 0.9914
0.8062 -1.9617 -0.1589 0.9915
1.4226 -1.8433 -0.1745 0.9907
1.7254 -1.8655 -0.1904 0.9899
-1.3423 13.3427 -1.0049 0.9476
-3.1839 11.1350 -0.8679 0.9546
-5.4785 9.0189 -0.7908 0.9586
-7.4462 5.8802 -0.7110 0.9627
-8.2328 4.3932 -0.6993 0.9633
-8.9396 2.8827 -0.7039 0.9630
-9.5922 1.2900 -0.7253 0.9619
-10.5140 -1.4140 -0.7950 0.9583
-11.1176 -3.5849 -0.8754 0.9542
-11.8289 -7.7381 -1.0593 0.9449
-0.0298 -2.6762 -0.2006 0.9893
0.3737 -2.2154 -0.1684 0.9910
0.5476 -2.0900 -0.1619 0.9914
1.0864 -1.8817 -0.1628 0.9913
1.3021 -1.8523 -0.1697 0.9910
1.9313 -1.9099 -0.2036 0.9892
-0.7797 13.9846 -1.0496 0.9454
-2.7745 11.6424 -0.8969 0.9531
-3.5634 10.6434 -0.8411 0.9560
-5.7643 8.6010 -0.7759 0.9593
-6.2964 7.7931 -0.7508 0.9606
-8.7689 3.2656 -0.7012 0.9632
-9.1069 2.4946 -0.7076 0.9628
-9.7494 0.8712 -0.7335 0.9615
-4.4480 0.0000 -0.4078 0.9823
-10.2056 -2.7956 -0.9701 0.9584
-11.1229 -9.6183 -1.3481 0.9426
-0.1632 -2.9272 -0.2688 0.9883
0.0837 -2.5037 -0.2297 0.9900
0.2815 -2.2857 -0.2111 0.9908
0.8027 -1.9533 -0.1936 0.9916
1.1834 -1.8538 -0.2016 0.9912
1.7182 -1.8577 -0.2320 0.9899
2.2344 -2.0209 -0.2762 0.9880
1.6122 6.1538 -0.5832 0.9748
1.1393 14.5801 -1.3407 0.9429
-0.1483 13.3146 -1.2207 0.9479
-1.2277 12.2039 -1.1245 0.9519
-2.1487 11.2096 -1.0464 0.9552
-2.9457 10.3018 -0.9823 0.9579
-5.1242 8.4356 -0.9049 0.9611
-6.1470 6.9506 -0.8507 0.9634
-6.5955 6.2379 -0.8323 0.9642
-7.0103 5.5360 -0.8189 0.9648
-7.3966 4.8387 -0.8103 0.9651
-8.0989 3.4343 -0.8065 0.9653
-8.7276 1.9774 -0.8204 0.9647
-4.2496 0.5715 -0.3931 0.9829
-10.8210 -7.0788 -1.1855 0.9494
-11.0239 -8.7055 -1.2878 0.9451
0.1861 -2.3820 -0.2190 0.9904
0.3731 -2.2120 -0.2057 0.9910
0.5460 -2.0840 -0.1975 0.9914
0.8938 -1.9260 -0.1947 0.9915
1.0821 -1.8742 -0.1984 0.9913
1.9223 -1.9011 -0.2479 0.9892
-1.7055 11.6941 -1.0834 0.9536
-2.5612 10.7473 -1.0129 0.9566
-5.3981 8.0545 -0.8889 0.9618
-5.9085 7.3130 -0.8619 0.9629
-7.2068 5.1871 -0.8140 0.9650
-8.5762 2.3493 -0.8152 0.9649
-4.9081 0.8842 -0.4572 0.9802
-9.1177 -0.8148 -0.9929 0.9638
-9.5419 -2.6138 -1.0731 0.9610
-9.9015 -5.8646 -1.2482 0.9548
-10.0311 -7.2199 -1.3406 0.9515
-10.1368 -8.7656 -1.4536 0.9475
-10.2190 -10.5663 -1.5944 0.9426
0.0835 -2.4979 -0.2711 0.9900
0.2811 -2.2821 -0.2494 0.9908
0.4596 -2.1386 -0.2373 0.9912
0.6317 -2.0363 -0.2313 0.9915
0.9832 -1.8930 -0.2314 0.9915
1.1790 -1.8468 -0.2377 0.9912
1.4114 -1.8288 -0.2506 0.9907
2.2201 -2.0079 -0.3247 0.9880
1.6168 6.1712 -0.6920 0.9747
2.4319 14.4172 -1.5859 0.9429
1.0338 13.2296 -1.4393 0.9480
-0.1357 12.1823 -1.3215 0.9522
-1.1309 11.2414 -1.2255 0.9556
-2.7400 9.5823 -1.0810 0.9607
-5.3252 7.2274 -0.9737 0.9645
-5.7937 6.5510 -0.9486 0.9654
-6.6215 5.2290 -0.9152 0.9666
-6.9905 4.5730 -0.9061 0.9669
-7.3344 3.9138 -0.9017 0.9671
-4.7638 1.0793 -0.5298 0.9805
-3.7517 0.5046 -0.4106 0.9849
-9.2288 -1.2411 -1.0100 0.9632
-9.4409 -2.1390 -1.0500 0.9618
-9.6394 -3.1083 -1.0986 0.9601
-9.8236 -4.1655 -1.1574 0.9580
-10.1795 -9.6277 -1.5197 0.9452
-0.0296 -2.6576 -0.2883 0.9894
0.5454 -2.0818 -0.2334 0.9914
0.8904 -1.9187 -0.2294 0.9915
1.0778 -1.8668 -0.2338 0.9914
1.2921 -1.8381 -0.2437 0.9910
1.9134 -1.8922 -0.2919 0.9892
1.7001 13.8032 -1.5085 0.9456
-0.6524 11.7003 -1.2711 0.9539
-1.5756 10.8029 -1.1842 0.9570
-2.3778 9.9778 -1.1126 0.9596
-3.7012 8.4650 -1.0021 0.9635
-4.5362 8.2775 -1.0238 0.9627
-5.0746 7.5719 -0.9887 0.9640
-6.0133 6.2177 -0.9382 0.9658
-6.8093 4.9010 -0.9100 0.9668
-7.1653 4.2441 -0.9033 0.9670
-7.4979 3.5815 -0.9013 0.9671
-8.1026 2.2196 -0.9112 0.9668
-3.7414 0.3343 -0.4074 0.9850
-3.7700 -0.3369 -0.4743 0.9849
-8.7866 -1.5830 -1.1188 0.9646
-8.9573 -2.4536 -1.1638 0.9633
-9.1521 -4.3716 -1.2710 0.9599
-9.3089 -8.0497 -1.5422 0.9516
-9.2541 -11.4540 -1.8453 0.9424
-0.1611 -2.8899 -0.3627 0.9884
0.2806 -2.2785 -0.2877 0.9908
0.6310 -2.0342 -0.2669 0.9915
0.9815 -1.8898 -0.2669 0.9915
1.7039 -1.8422 -0.3145 0.9899
1.6280 6.2141 -0.8050 0.9744
0.9459 12.1043 -1.5215 0.9522
-0.1250 11.2243 -1.4067 0.9558
-2.5605 8.9546 -1.1671 0.9632
-5.4776 6.1937 -1.0362 0.9672
-6.2724 4.9533 -1.0016 0.9683
-6.6253 4.3341 -0.9921 0.9686
-6.9530 3.7103 -0.9876 0.9687
-7.2580 3.0777 -0.9879 0.9687
-4.3832 0.9931 -0.5632 0.9820
-3.5494 0.4774 -0.4488 0.9857
-3.5348 0.1576 -0.4434 0.9858
-9.0357 -2.9137 -1.1897 0.9625
-9.1776 -3.8916 -1.2492 0.9606
-9.2389 -6.0438 -1.3835 0.9565
-9.2946 -7.3399 -1.4842 0.9534
-9.3131 -8.8083 -1.6064 0.9496
-9.2907 -10.5051 -1.7574 0.9450
0.3720 -2.2052 -0.2802 0.9910
0.5448 -2.0796 -0.2694 0.9914
0.8898 -1.9175 -0.2649 0.9915
1.5419 -1.8237 -0.2993 0.9904
1.9046 -1.8835 -0.3357 0.9893
1.3506 6.2851 -0.8056 0.9744
-1.4636 10.0354 -1.2709 0.9599
-2.2181 9.3076 -1.1991 0.9622
-2.8830 8.6111 -1.1380 0.9641
-6.0855 5.2624 -1.0082 0.9681
-6.4522 4.6440 -0.9962 0.9685
-7.1082 3.3953 -0.9872 0.9687
-7.6771 2.1030 -0.9975 0.9684
-3.5366 0.3160 -0.4450 0.9858
-3.3944 0.0000 -0.4828 0.9864
-8.4381 -2.3114 -1.2444 0.9653
-8.5876 -5.0865 -1.4197 0.9605
-8.6155 -6.2010 -1.5098 0.9580
-8.5434 -8.8338 -1.7480 0.9516
-8.4266 -10.4297 -1.9072 0.9473
-8.2269 -12.2754 -2.1019 0.9420
-0.1602 -2.8732 -0.4093 0.9884
0.2802 -2.2749 -0.3260 0.9908
0.4582 -2.1321 -0.3102 0.9912
0.6304 -2.0321 -0.3026 0.9914
0.9810 -1.8887 -0.3027 0.9914
1.4023 -1.8170 -0.3265 0.9908
1.6967 -1.8345 -0.3554 0.9900
2.1917 -1.9823 -0.4203 0.9881
0.8714 11.1519 -1.5910 0.9558
-0.1159 10.4029 -1.4798 0.9588
-1.7329 9.0406 -1.3093 0.9635
-2.4024 8.4018 -1.2429 0.9653
-2.9994 7.7879 -1.1870 0.9668
-4.2866 7.0568 -1.1744 0.9672
-5.1932 5.8720 -1.1150 0.9688
-5.5908 5.2877 -1.0945 0.9694
-5.9570 4.7042 -1.0796 0.9698
-6.2952 4.1181 -1.0700 0.9701
-7.1660 2.3108 -1.0710 0.9700
-4.1432 0.9387 -0.6043 0.9830
-3.3610 0.1499 -0.4785 0.9865
-3.4470 -0.1537 -0.4908 0.9862
-3.6292 -0.4881 -0.5208 0.9853
-8.6090 -3.6505 -1.3301 0.9629
-8.5737 -4.5750 -1.3822 0.9615
-8.6150 -6.8032 -1.5614 0.9566
-8.4916 -9.6016 -1.8232 0.9495
0.1849 -2.3662 -0.3376 0.9905
0.5443 -2.0775 -0.3055 0.9914
0.7150 -1.9874 -0.3004 0.9915
1.0741 -1.8605 -0.3056 0.9914
1.2856 -1.8288 -0.3180 0.9910
1.5362 -1.8170 -0.3384 0.9904
4.1343 13.3278 -1.9848 0.9452
1.3447 6.2578 -0.9104 0.9745
1.4223 11.5483 -1.6550 0.9541
-0.5602 10.0472 -1.4313 0.9602
-1.3661 9.3671 -1.3464 0.9625
-2.0777 8.7184 -1.2748 0.9644
-4.0329 7.3591 -1.1936 0.9667
-6.1294 4.4117 -1.0742 0.9699
-6.4546 3.8231 -1.0670 0.9701
-6.7557 3.2269 -1.0649 0.9702
-7.8552 -1.4152 -1.2710 0.9682
-7.9738 -2.1842 -1.3165 0.9671
-8.0925 -3.8655 -1.4281 0.9643
-7.8937 -8.1620 -1.8081 0.9551
-7.4870 -11.1714 -2.1415 0.9470
-0.1596 -2.8623 -0.4565 0.9885
0.0829 -2.4805 -0.3952 0.9900
0.2797 -2.2713 -0.3644 0.9908
0.4575 -2.1289 -0.3467 0.9912
0.6297 -2.0300 -0.3384 0.9914
0.7983 -1.9425 -0.3344 0.9915
0.9804 -1.8875 -0.3387 0.9914
1.6960 -1.8336 -0.3977 0.9899
2.1800 -1.9717 -0.4681 0.9882
4.5089 12.5327 -2.1209 0.9475
3.0773 11.7459 -1.9335 0.9520
1.8583 11.0171 -1.7791 0.9558
0.8076 10.3348 -1.6507 0.9589
-0.1080 9.6903 -1.5431 0.9615
-0.9131 9.0768 -1.4527 0.9637
-1.6268 8.4872 -1.3761 0.9656
-3.5640 7.2525 -1.2868 0.9678
-4.5188 6.1330 -1.2130 0.9696
-5.9950 3.9218 -1.1407 0.9714
-3.9745 0.9005 -0.6489 0.9836
-3.3344 -0.1487 -0.5315 0.9866
-7.9174 -1.7938 -1.2927 0.9677
-8.1046 -3.4366 -1.4018 0.9650
-7.9516 -7.5206 -1.7428 0.9566
-7.8201 -8.8424 -1.8797 0.9533
-7.6191 -10.3406 -2.0453 0.9493
-7.3254 -12.0591 -2.2468 0.9445
0.3708 -2.1984 -0.3550 0.9910
1.5373 -1.8183 -0.3792 0.9904
1.8927 -1.8718 -0.4239 0.9893
5.3228 12.9522 -2.2298 0.9449
3.7632 12.1313 -2.0225 0.9499
1.3408 6.2398 -1.0163 0.9745
-1.2805 8.7798 -1.4128 0.9647
-3.0953 7.0792 -1.2303 0.9692
-3.8195 6.9698 -1.2656 0.9683
-5.4980 4.7544 -1.1574 0.9710
-4.5041 1.2338 -0.7436 0.9813
-3.2454 0.2900 -0.5188 0.9869
-3.1939 0.0000 -0.5632 0.9871
-7.4569 -1.3434 -1.3360 0.9697
-7.6283 -2.8408 -1.4353 0.9675
-7.6470 -3.6527 -1.4943 0.9662
-7.5411 -5.4278 -1.6383 0.9630
-7.1375 -8.8342 -2.0026 0.9549
-6.8618 -10.2375 -2.1730 0.9512
-0.1599 -2.8671 -0.5063 0.9884
0.0827 -2.4747 -0.4366 0.9900
0.4568 -2.1257 -0.3834 0.9912
0.6290 -2.0279 -0.3744 0.9914
0.9798 -1.8864 -0.3748 0.9914
1.4021 -1.8167 -0.4046 0.9907
1.6973 -1.8351 -0.4407 0.9899
2.1965 -1.9867 -0.5222 0.9880
5.6246 12.1206 -2.3561 0.9472
4.1191 11.4492 -2.1455 0.9518
2.8329 10.8131 -1.9710 0.9556
0.7522 9.6259 -1.7025 0.9615
-0.8576 8.5245 -1.5107 0.9658
-1.5321 7.9930 -1.4350 0.9675
-4.2996 5.8355 -1.2781 0.9710
-4.7013 5.3158 -1.2513 0.9716
-5.4090 4.2714 -1.2153 0.9724
-5.7207 3.7424 -1.2054 0.9726
-6.0074 3.2057 -1.2007 0.9727
-6.2707 2.6590 -1.2010 0.9727
-6.5116 2.0997 -1.2064 0.9726
-3.8238 0.8663 -0.6913 0.9842
-3.1644 0.1411 -0.5585 0.9872
-7.5623 -4.9470 -1.5934 0.9640
-7.4062 -7.0047 -1.7975 0.9594
-6.2486 -12.7155 -2.4982 0.9441
0.3702 -2.1950 -0.3925 0.9910
0.7135 -1.9833 -0.3717 0.9915
0.8882 -1.9141 -0.3721 0.9915
1.0728 -1.8582 -0.3783 0.9913
1.2853 -1.8284 -0.3941 0.9910
3.4517 11.1271 -2.0542 0.9538
-0.4903 8.7933 -1.5529 0.9649
-1.2045 8.2589 -1.4717 0.9667
-1.8422 7.7304 -1.4012 0.9682
-2.4153 7.2141 -1.3414 0.9696
-3.0499 6.9753 -1.3424 0.9696
-4.0852 6.0956 -1.2939 0.9706
-4.5048 5.5756 -1.2639 0.9713
-4.8896 5.0558 -1.2402 0.9718
-5.2430 4.5339 -1.2222 0.9722
-5.5681 4.0077 -1.2097 0.9725
-5.8671 3.4751 -1.2024 0.9727
-6.3939 2.3811 -1.2031 0.9727
-4.2904 1.1753 -0.7844 0.9821
-3.4372 0.6192 -0.6158 0.9859
-3.1775 -0.2840 -0.6173 0.9871
-7.2320 -2.6932 -1.4934 0.9690
-7.2432 -3.4598 -1.5534 0.9678
-7.1474 -4.2334 -1.6076 0.9667
-7.0950 -5.1067 -1.6917 0.9650
-6.9969 -6.0504 -1.7901 0.9630
-6.8448 -7.0775 -1.9054 0.9607
-6.6277 -8.2032 -2.0409 0.9579
-6.3322 -9.4483 -2.2011 0.9547
-5.4262 -12.4100 -2.6211 0.9463
-0.1607 -2.8827 -0.5587 0.9883
0.6284 -2.0257 -0.4104 0.9914
1.4019 -1.8165 -0.4440 0.9907
1.6986 -1.8365 -0.4841 0.9899
2.2134 -2.0019 -0.5775 0.9879
6.6932 11.5930 -2.5905 0.9469
2.6235 10.0136 -2.0032 0.9587
0.7037 9.0049 -1.7479 0.9639
-0.0948 8.5149 -1.6479 0.9659
-2.0230 7.0750 -1.4240 0.9705
-2.5454 6.6090 -1.3705 0.9716
-3.6771 6.0533 -1.3706 0.9716
-4.0996 5.5640 -1.3374 0.9722
-4.4869 5.0735 -1.3107 0.9728
-4.8425 4.5801 -1.2899 0.9732
-5.7442 3.0652 -1.2600 0.9738
-5.9958 2.5424 -1.2603 0.9738
-6.2250 2.0073 -1.2657 0.9737
-3.1048 0.4175 -0.6062 0.9873
-3.0751 0.1371 -0.5957 0.9875
-7.1395 -1.6176 -1.4166 0.9706
-7.2083 -2.3244 -1.4657 0.9696
-7.2482 -3.0735 -1.5235 0.9684
-7.1265 -4.6619 -1.6480 0.9659
-6.9282 -6.5526 -1.8454 0.9619
-6.7452 -7.6269 -1.9703 0.9594
-6.4909 -8.8095 -2.1176 0.9564
0.1837 -2.3504 -0.4562 0.9904
0.3697 -2.1915 -0.4301 0.9910
0.5425 -2.0709 -0.4143 0.9913
0.7128 -1.9813 -0.4075 0.9915
0.8877 -1.9129 -0.4081 0.9914
1.0722 -1.8570 -0.4150 0.9913
1.2852 -1.8282 -0.4325 0.9909
1.9021 -1.8810 -0.5177 0.9892
7.5761 11.8677 -2.7247 0.9443
4.4371 10.7971 -2.2590 0.9536
0.2928 8.7588 -1.6959 0.9649
-1.7425 7.3119 -1.4546 0.9698
-3.4514 6.2979 -1.3898 0.9712
-3.8929 5.8087 -1.3532 0.9719
-4.6685 4.8272 -1.2996 0.9730
-5.6096 3.3226 -1.2617 0.9738
-4.1641 1.1407 -0.8355 0.9826
-3.3306 0.6001 -0.6549 0.9863
-3.0211 0.0000 -0.6369 0.9877
-3.0994 -0.2770 -0.6560 0.9874
-3.2303 -0.5820 -0.6920 0.9867
-6.7654 -4.0071 -1.6577 0.9684
-6.6963 -4.8197 -1.7394 0.9668
-6.5822 -5.6918 -1.8345 0.9651
-6.1835 -7.6534 -2.0743 0.9606
-5.8765 -8.7684 -2.2253 0.9578
-4.3119 -12.8788 -2.8632 0.9460
0.0828 -2.4751 -0.5221 0.9899
0.2784 -2.2604 -0.4801 0.9907
0.4554 -2.1192 -0.4570 0.9912
0.7969 -1.9390 -0.4420 0.9915
0.9786 -1.8841 -0.4476 0.9914
1.1741 -1.8392 -0.4600 0.9911
1.4018 -1.8163 -0.4837 0.9907
1.6999 -1.8379 -0.5278 0.9898
2.2307 -2.0176 -0.6341 0.9878
4.7137 10.1577 -2.3608 0.9553
0.6608 8.4560 -1.7881 0.9659
-0.0894 8.0240 -1.6917 0.9677
-0.7633 7.5874 -1.6077 0.9693
-1.3708 7.1515 -1.5351 0.9707
-3.5087 5.7762 -1.4248 0.9728
-5.2372 3.4261 -1.3194 0.9747
-3.0346 0.4081 -0.6455 0.9876
-2.9940 0.1335 -0.6318 0.9878
-3.0505 -0.1360 -0.6437 0.9876
-6.8022 -1.5412 -1.4704 0.9719
-6.8565 -2.2109 -1.5188 0.9710
-6.8812 -2.9179 -1.5757 0.9699
-6.6454 -5.2478 -1.7851 0.9660
-6.0403 -8.1980 -2.1468 0.9592
-5.6897 -9.3665 -2.3104 0.9562
-5.2380 -10.6591 -2.5038 0.9526
-3.9191 -13.7058 -3.0053 0.9434
0.3691 -2.1881 -0.4678 0.9910
0.5420 -2.0687 -0.4508 0.9913
0.7120 -1.9792 -0.4434 0.9914
0.8871 -1.9117 -0.4443 0.9914
1.0715 -1.8559 -0.4518 0.9913
1.5407 -1.8223 -0.5031 0.9903
1.9069 -1.8857 -0.5654 0.9891
8.6119 11.1587 -2.9716 0.9440
1.3368 6.2211 -1.3415 0.9743
1.0681 8.6723 -1.8421 0.9649
0.2755 8.2399 -1.7381 0.9669
-0.4352 7.8059 -1.6482 0.9685
-1.0748 7.3693 -1.5700 0.9700
-2.1762 6.5000 -1.4451 0.9724
-2.8262 6.4638 -1.4873 0.9716
-3.2912 6.0058 -1.4438 0.9724
-3.7169 5.5460 -1.4075 0.9731
-4.1072 5.0835 -1.3778 0.9736
-4.4654 4.6172 -1.3541 0.9741
-4.7943 4.1458 -1.3362 0.9744
-5.0960 3.6679 -1.3237 0.9747
-5.6248 2.6868 -1.3142 0.9748
-5.8544 2.1802 -1.3170 0.9748
-2.9710 0.0000 -0.6781 0.9879
-3.0430 -0.2719 -0.6973 0.9875
-3.1642 -0.5701 -0.7338 0.9869
-6.5178 -1.7854 -1.5425 0.9727
-6.0328 -6.2378 -1.9807 0.9650
-5.7926 -7.1696 -2.1038 0.9629
-3.9447 -11.7821 -2.8359 0.9503
0.2786 -2.2620 -0.5202 0.9907
1.4016 -1.8162 -0.5236 0.9906
4.3591 9.3936 -2.3636 0.9584
2.2782 8.6958 -2.0518 0.9638
1.4046 8.3269 -1.9274 0.9659
-0.7230 7.1868 -1.6486 0.9708
-1.3016 6.7901 -1.5780 0.9720
-1.8273 6.3905 -1.5171 0.9731
-2.4573 6.3803 -1.5605 0.9723
-3.3541 5.5216 -1.4746 0.9738
-3.7474 5.0861 -1.4419 0.9744
-4.1086 4.6457 -1.4155 0.9749
-4.7443 3.7466 -1.3798 0.9755
-5.0228 3.2858 -1.3699 0.9757
-5.2770 2.8159 -1.3652 0.9758
-5.5081 2.3356 -1.3655 0.9758
-5.7166 1.8434 -1.3709 0.9757
-3.4289 0.7769 -0.8025 0.9857
-2.9625 0.3984 -0.6823 0.9878
-2.9453 0.1313 -0.6729 0.9880
-2.9994 -0.1337 -0.6853 0.9878
-6.4932 -1.4712 -1.5196 0.9731
-6.5473 -2.7763 -1.6232 0.9712
-6.4662 -3.4504 -1.6728 0.9704
-6.3833 -4.1758 -1.7410 0.9692
-5.9210 -6.6950 -2.0400 0.9640
-5.6460 -7.6627 -2.1724 0.9617
-5.2915 -8.7111 -2.3263 0.9590
-4.8417 -9.8526 -2.5056 0.9560
-0.0295 -2.6459 -0.6039 0.9892
0.3685 -2.1847 -0.5057 0.9910
0.7113 -1.9771 -0.4796 0.9914
1.0708 -1.8547 -0.4888 0.9913
7.8120 10.1223 -2.9184 0.9489
6.2933 9.8583 -2.6695 0.9531
4.9631 9.5557 -2.4577 0.9568
2.7534 8.8761 -2.1212 0.9626
1.3376 6.2249 -1.4532 0.9742
0.2599 7.7745 -1.7755 0.9686
-3.5550 5.3044 -1.4574 0.9741
-4.8867 3.5172 -1.3742 0.9756
-5.3954 2.5772 -1.3647 0.9758
-3.8726 1.0608 -0.9164 0.9837
-3.1659 0.5704 -0.7342 0.9869
-2.9277 0.2616 -0.6709 0.9880
-2.9221 0.0000 -0.7182 0.9880
-2.9882 -0.2670 -0.7374 0.9877
-3.1004 -0.5585 -0.7743 0.9871
-6.2285 -1.7062 -1.5874 0.9737
-6.2306 -2.9761 -1.6972 0.9720
-5.8778 -5.0827 -1.9100 0.9685
-4.7336 -8.6378 -2.4211 0.9602
-4.2397 -9.6965 -2.6013 0.9573
-2.8813 -12.0905 -3.0551 0.9501
-1.9595 -13.4353 -3.3373 0.9456
-0.1645 -2.9495 -0.7261 0.9879
0.0832 -2.4892 -0.6122 0.9898
0.2793 -2.2676 -0.5616 0.9906
0.4547 -2.1161 -0.5320 0.9911
0.6264 -2.0192 -0.5197 0.9913
0.7959 -1.9366 -0.5147 0.9914
0.9773 -1.8817 -0.5212 0.9913
1.7026 -1.8408 -0.6163 0.9897
2.2665 -2.0499 -0.7512 0.9875
10.1136 10.0015 -3.4962 0.9431
6.4501 9.1754 -2.7568 0.9549
5.1814 8.9745 -2.5472 0.9582
3.0427 8.4574 -2.2093 0.9637
2.1376 8.1590 -2.0732 0.9659
1.3253 7.8567 -1.9584 0.9677
-0.0800 7.1788 -1.7647 0.9709
-0.6865 6.8236 -1.6857 0.9721
-1.7623 6.1633 -1.5757 0.9739
-2.3470 6.0939 -1.6051 0.9735
-3.2115 5.2868 -1.5205 0.9748
-3.9406 4.4557 -1.4621 0.9758
-4.8238 3.1556 -1.4169 0.9765
-5.2905 2.2433 -1.4125 0.9766
-3.3132 0.7507 -0.8350 0.9861
-2.8978 0.1292 -0.7130 0.9881
-3.0389 -0.4087 -0.7537 0.9874
-3.1571 -0.7153 -0.7957 0.9868
-6.1612 -3.2877 -1.7165 0.9716
-5.7915 -5.4775 -1.9594 0.9677
-5.2975 -7.1897 -2.1951 0.9639
-3.9505 -10.2571 -2.7017 0.9557
-3.2756 -11.4567 -2.9290 0.9521
-1.4235 -14.1504 -3.4957 0.9431
-0.0296 -2.6561 -0.6529 0.9891
0.1844 -2.3602 -0.5819 0.9903
0.3694 -2.1897 -0.5458 0.9909
0.5408 -2.0642 -0.5245 0.9912
0.7105 -1.9750 -0.5159 0.9914
0.8860 -1.9094 -0.5174 0.9914
1.0702 -1.8536 -0.5261 0.9912
1.5430 -1.8251 -0.5874 0.9902
5.7971 9.0809 -2.6481 0.9566
4.6006 8.8577 -2.4534 0.9597
2.5781 8.3109 -2.1388 0.9648
0.9474 7.6924 -1.9051 0.9686
0.2458 7.3530 -1.8084 0.9702
-0.3904 7.0023 -1.7238 0.9715
-0.9689 6.6432 -1.6502 0.9727
-1.4960 6.2775 -1.5862 0.9738
-2.1066 6.2921 -1.6310 0.9730
-2.5772 5.8943 -1.5813 0.9738
-3.4055 5.0814 -1.5036 0.9751
-3.7697 4.6659 -1.4744 0.9756
-2.8807 0.2574 -0.7109 0.9882
-2.9343 -0.2622 -0.7763 0.9879
-3.0385 -0.5474 -0.8135 0.9873
-5.9697 -2.2231 -1.6786 0.9740
-5.7179 -4.1155 -1.8563 0.9713
-4.4294 -8.0826 -2.4286 0.9626
-1.7902 -12.2748 -3.2686 0.9500
0.0835 -2.4963 -0.6581 0.9897
0.2800 -2.2733 -0.6035 0.9906
0.7954 -1.9354 -0.5514 0.9914
1.4014 -1.8158 -0.6044 0.9906
1.7039 -1.8422 -0.6612 0.9897
2.2850 -2.0667 -0.8118 0.9873
10.8866 8.9980 -3.7216 0.9433
9.2061 9.1041 -3.4116 0.9479
7.6976 9.1047 -3.1416 0.9519
1.2513 7.4180 -1.9823 0.9694
0.5568 7.1248 -1.8831 0.9709
-0.6532 6.4929 -1.7195 0.9734
-1.7563 6.1422 -1.6833 0.9739
-3.4469 4.6781 -1.5312 0.9762
-4.3789 3.4580 -1.4702 0.9772
-4.6386 3.0343 -1.4605 0.9773
-5.2789 1.7023 -1.4615 0.9773
-3.2212 0.7298 -0.8703 0.9864
-2.8515 0.1272 -0.7521 0.9883
-2.9007 -0.1293 -0.7651 0.9881
-2.9836 -0.4013 -0.7933 0.9876
-3.0953 -0.7013 -0.8363 0.9870
-5.9695 -1.9249 -1.6527 0.9744
-5.9620 -2.5281 -1.7064 0.9736
-5.8832 -3.1393 -1.7571 0.9728
-5.7722 -3.7760 -1.8175 0.9719
-5.2675 -5.9561 -2.0952 0.9676
-4.9871 -6.7686 -2.2154 0.9658
-4.6355 -7.6311 -2.3527 0.9637
-4.2010 -8.5488 -2.5099 0.9614
-3.6692 -9.5267 -2.6900 0.9586
-3.0221 -10.5691 -2.8966 0.9555
-0.0297 -2.6665 -0.7027 0.9890
0.3703 -2.1951 -0.5866 0.9908
0.5420 -2.0689 -0.5636 0.9912
0.8855 -1.9082 -0.5543 0.9913
1.9215 -1.9002 -0.7121 0.9889
8.4315 9.1160 -3.2720 0.9499
7.0021 9.0729 -3.0199 0.9537
5.3820 8.4307 -2.6355 0.9595
4.2850 8.2500 -2.4496 0.9623
3.3066 8.0461 -2.2922 0.9647
2.4225 7.8094 -2.1545 0.9667
-0.3711 6.6555 -1.7565 0.9728
-0.9229 6.3277 -1.6850 0.9739
-2.0140 6.0155 -1.6716 0.9741
-3.6193 4.4797 -1.5175 0.9765
-4.2399 3.6664 -1.4770 0.9771
-4.5117 3.2473 -1.4647 0.9773
-4.7594 2.8190 -1.4576 0.9774
-4.9840 2.3807 -1.4554 0.9774
-5.1861 1.9313 -1.4582 0.9774
-3.7366 1.0236 -1.0209 0.9841
-2.8348 0.2533 -0.7499 0.9883
-2.8279 0.0000 -0.7956 0.9883
-2.8819 -0.2575 -0.8141 0.9880
-5.7147 -1.5654 -1.6671 0.9757
-5.7152 -2.1283 -1.7159 0.9750
-5.6842 -2.7151 -1.7724 0.9742
-5.3012 -4.5841 -1.9718 0.9713
-5.1062 -5.2798 -2.0666 0.9699
-4.8565 -6.0110 -2.1743 0.9684
-4.5443 -6.7805 -2.2966 0.9667
-4.1599 -7.5908 -2.4354 0.9647
-3.6923 -8.4445 -2.5931 0.9624
-3.1283 -9.3436 -2.7723 0.9599
-2.4519 -10.2885 -2.9758 0.9570
-1.6457 -11.2840 -3.2084 0.9537
0.2807 -2.2791 -0.6461 0.9905
1.4012 -1.8156 -0.6453 0.9905
1.7053 -1.8437 -0.7066 0.9896
2.3252 -2.1030 -0.8821 0.9871
11.5118 7.9024 -3.9286 0.9436
9.9083 8.1894 -3.6167 0.9480
8.4419 8.3484 -3.3405 0.9519
5.8889 8.3771 -2.8810 0.9583
4.5366 7.8577 -2.5528 0.9630
3.5460 7.6414 -2.3702 0.9656
0.5285 6.7627 -1.9085 0.9722
-0.0722 6.4841 -1.8245 0.9734
-0.6227 6.1902 -1.7504 0.9745
-1.1435 5.9658 -1.7091 0.9751
-2.1514 5.5861 -1.6842 0.9754
-3.3123 4.4955 -1.5711 0.9771
-4.4655 2.9212 -1.5013 0.9781
-4.6933 2.5044 -1.4967 0.9781
-4.8986 2.0772 -1.4970 0.9781
-3.1370 0.7107 -0.9050 0.9867
-2.7751 0.3732 -0.7878 0.9884
-2.8062 0.1251 -0.7903 0.9884
-3.2049 -1.0335 -0.9474 0.9861
-5.6285 -3.0034 -1.7950 0.9738
-5.3803 -4.2488 -1.9289 0.9719
-5.2101 -4.9277 -2.0177 0.9706
-3.4233 -8.8883 -2.6798 0.9612
-2.0660 -10.7779 -3.0876 0.9554
-1.1872 -11.8003 -3.3369 0.9519
-0.0298 -2.6771 -0.7533 0.9889
0.3712 -2.2005 -0.6279 0.9908
0.8863 -1.9100 -0.5924 0.9913
1.2846 -1.8274 -0.6285 0.9908
1.9268 -1.9055 -0.7624 0.9888
10.6926 8.0636 -3.7680 0.9459
9.1584 8.2832 -3.4743 0.9500
7.7580 8.3878 -3.2146 0.9536
6.4827 8.3999 -2.9853 0.9569
5.3226 8.3377 -2.7831 0.9597
3.1055 7.5568 -2.2987 0.9666
2.2835 7.3613 -2.1685 0.9685
0.8492 6.8951 -1.9546 0.9715
0.2215 6.6255 -1.8652 0.9728
-1.4373 6.0310 -1.7444 0.9746
-1.9284 5.7600 -1.7090 0.9751
-2.7677 5.0505 -1.6204 0.9764
-3.1383 4.6826 -1.5860 0.9768
-3.7926 3.9215 -1.5349 0.9776
-4.0801 3.5282 -1.5176 0.9778
-4.3429 3.1259 -1.5055 0.9780
-4.5822 2.7141 -1.4984 0.9781
-4.9930 1.8594 -1.4991 0.9781
-3.6502 0.9999 -1.0648 0.9844
-2.7824 0.0000 -0.8330 0.9884
-3.0126 -0.8252 -0.9351 0.9870
-5.4793 -2.0405 -1.7505 0.9759
-5.0501 -4.3670 -1.9988 0.9725
-4.6041 -5.6986 -2.1933 0.9699
-3.9192 -7.1516 -2.4415 0.9665
-2.2806 -9.5696 -2.9452 0.9598
0.4580 -2.1314 -0.6527 0.9909
0.6300 -2.0310 -0.6366 0.9912
0.7994 -1.9452 -0.6296 0.9913
1.1775 -1.8446 -0.6552 0.9909
1.4052 -1.8208 -0.6886 0.9904
10.4792 7.1936 -3.8053 0.9483
9.0842 7.5083 -3.5283 0.9520
7.7893 7.7030 -3.2797 0.9553
5.4920 7.8125 -2.8590 0.9609
4.4801 7.7597 -2.6825 0.9633
3.3349 7.1865 -2.3719 0.9675
2.5340 7.0433 -2.2409 0.9692
1.7998 6.8696 -2.1260 0.9708
1.1240 6.6636 -2.0231 0.9722
-1.1405 5.9502 -1.8138 0.9750
-1.6253 5.6840 -1.7699 0.9756
-2.4691 5.0246 -1.6761 0.9769
-3.5034 3.9614 -1.5832 0.9782
-3.7943 3.5886 -1.5635 0.9784
-4.0606 3.2066 -1.5490 0.9786
-4.8973 1.5792 -1.5405 0.9787
-2.8067 -0.1252 -0.8411 0.9883
-2.8771 -0.3869 -0.8691 0.9880
-3.1092 -1.0026 -0.9780 0.9865
-5.4648 -2.3173 -1.7771 0.9755
-5.3928 -2.8777 -1.8300 0.9748
-5.2597 -3.4407 -1.8817 0.9741
-4.9578 -4.6891 -2.0430 0.9719
-4.4577 -6.0501 -2.2498 0.9691
-4.1164 -6.7764 -2.3737 0.9674
-3.7027 -7.5347 -2.5134 0.9656
-2.6156 -9.1474 -2.8483 0.9611
-1.9166 -9.9986 -3.0479 0.9584
-1.0939 -10.8739 -3.2719 0.9554
0.1860 -2.3798 -0.7147 0.9901
0.3721 -2.2060 -0.6698 0.9907
1.0719 -1.8566 -0.6418 0.9911
1.9482 -1.9266 -0.8203 0.9886
11.2135 6.9838 -3.9549 0.9463
9.7693 7.3674 -3.6632 0.9502
8.4242 7.6192 -3.4006 0.9537
3.8400 7.3933 -2.4942 0.9658
2.1595 6.9616 -2.1821 0.9700
1.3452 6.2602 -1.9170 0.9736
0.2109 6.3091 -1.8899 0.9740
-0.3372 6.0484 -1.8136 0.9750
-0.8605 5.9002 -1.7851 0.9754
-2.2708 5.1934 -1.6969 0.9766
-2.6597 4.8533 -1.6568 0.9772
-3.9304 3.3988 -1.5556 0.9785
-4.1848 3.0121 -1.5437 0.9787
-4.4162 2.6157 -1.5366 0.9788
-3.5598 0.9751 -1.1050 0.9847
-2.7412 0.2449 -0.8239 0.9886
-2.7380 -0.0000 -0.8695 0.9886
-2.7827 -0.2487 -0.8872 0.9883
-2.8694 -0.5170 -0.9259 0.9878
-2.9540 -0.8092 -0.9727 0.9872
-5.0959 -3.0183 -1.8810 0.9754
-4.9721 -3.5787 -1.9455 0.9746
-4.8195 -4.1675 -2.0235 0.9736
-4.0704 -6.0735 -2.3220 0.9698
-3.7027 -6.7567 -2.4469 0.9682
-3.2632 -7.4632 -2.5869 0.9664
-2.7425 -8.1914 -2.7434 0.9644
-1.4147 -9.7000 -3.1132 0.9597
-0.5837 -10.4674 -3.3294 0.9570
0.0842 -2.5185 -0.8003 0.9895
0.4591 -2.1367 -0.6941 0.9909
0.8018 -1.9512 -0.6699 0.9912
0.9828 -1.8922 -0.6771 0.9911
1.4137 -1.8317 -0.7348 0.9903
12.2521 5.5205 -4.2678 0.9452
7.2251 7.1451 -3.2271 0.9583
4.2111 7.2938 -2.6748 0.9653
2.3978 6.6647 -2.2494 0.9707
-0.5877 5.8421 -1.8647 0.9757
-2.7358 4.5038 -1.6735 0.9781
-3.9162 3.0926 -1.5848 0.9793
-4.1512 2.7156 -1.5754 0.9794
-4.5548 1.9314 -1.5712 0.9795
-2.6672 0.3587 -0.8547 0.9888
-2.7612 -0.1231 -0.8778 0.9885
-3.1071 -1.0019 -1.0368 0.9864
-5.2430 -2.2232 -1.8086 0.9764
-5.1740 -2.7609 -1.8625 0.9757
-4.9010 -3.8703 -1.9833 0.9741
-4.7267 -4.4704 -2.0662 0.9731
-4.5049 -5.0938 -2.1596 0.9719
-3.0136 -7.8247 -2.6629 0.9654
-1.7861 -9.3181 -3.0132 0.9610
-0.0303 -2.7227 -0.8647 0.9886
0.1865 -2.3866 -0.7603 0.9900
0.3731 -2.2116 -0.7123 0.9906
0.5463 -2.0852 -0.6846 0.9910
0.7154 -1.9886 -0.6712 0.9912
0.8918 -1.9217 -0.6728 0.9911
1.0759 -1.8636 -0.6834 0.9910
1.2938 -1.8404 -0.7145 0.9906
1.9702 -1.9484 -0.8800 0.9884
12.9403 5.1501 -4.4231 0.9432
10.2485 6.3828 -3.8344 0.9506
6.6760 7.2180 -3.1225 0.9596
5.6347 7.3010 -2.9289 0.9620
2.7644 6.7267 -2.3097 0.9699
1.3494 6.2795 -2.0398 0.9734
0.7681 6.2365 -1.9956 0.9740
0.2012 6.0188 -1.9125 0.9750
-0.3241 5.8133 -1.8491 0.9759
-0.8584 5.8856 -1.8889 0.9753
-2.1826 4.9917 -1.7302 0.9774
-2.9059 4.3359 -1.6577 0.9783
-3.2258 3.9928 -1.6302 0.9787
-3.5202 3.6399 -1.6081 0.9790
-3.7901 3.2774 -1.5913 0.9792
-4.2604 2.5234 -1.5726 0.9794
-4.4621 2.1314 -1.5705 0.9795
-4.6421 1.7288 -1.5732 0.9794
-3.4730 0.9514 -1.1436 0.9850
-2.7749 0.4999 -0.8954 0.9882
-2.6951 0.2408 -0.8593 0.9887
-2.6945 -0.0000 -0.9053 0.9887
-2.8177 -0.5076 -0.9619 0.9880
-5.0557 -1.8828 -1.8126 0.9775
-4.7608 -3.4266 -1.9708 0.9756
-4.4097 -4.5596 -2.1312 0.9736
-3.8657 -5.7680 -2.3329 0.9711
-1.3208 -9.0564 -3.0750 0.9621
-0.5424 -9.7280 -3.2735 0.9597
0.2829 -2.2970 -0.7776 0.9903
0.4603 -2.1420 -0.7361 0.9908
0.6333 -2.0417 -0.7182 0.9910
0.8043 -1.9572 -0.7109 0.9911
1.7460 -1.8877 -0.8639 0.9892
13.5093 3.3789 -4.6787 0.9429
10.0023 5.6272 -3.8559 0.9527
8.8645 6.0851 -3.6125 0.9556
7.7716 6.4234 -3.3876 0.9583
6.7324 6.6578 -3.1812 0.9608
5.7515 6.8029 -2.9931 0.9631
4.8309 6.8721 -2.8223 0.9652
-0.0645 5.7856 -1.9440 0.9759
-1.4984 5.2400 -1.8311 0.9773
-2.2859 4.6513 -1.7413 0.9784
-2.9589 4.0159 -1.6760 0.9792
-3.2566 3.6823 -1.6516 0.9795
-3.7803 2.9853 -1.6184 0.9799
-4.2138 2.2486 -1.6047 0.9800
-4.3981 1.8650 -1.6050 0.9800
-2.6762 0.1193 -0.9001 0.9888
-2.7168 -0.1212 -0.9137 0.9886
-5.0675 -1.6340 -1.7889 0.9778
-4.9676 -2.6508 -1.8918 0.9765
-4.2934 -4.8547 -2.1774 0.9730
-3.6943 -6.0816 -2.3908 0.9704
-3.3031 -6.7216 -2.5163 0.9689
-2.8411 -7.3767 -2.6559 0.9672
-1.6712 -8.7185 -2.9826 0.9632
0.1870 -2.3935 -0.8066 0.9899
0.3740 -2.2173 -0.7555 0.9906
0.5478 -2.0908 -0.7262 0.9909
0.7173 -1.9938 -0.7119 0.9911
0.8946 -1.9277 -0.7140 0.9911
1.0803 -1.8711 -0.7259 0.9909
1.5721 -1.8595 -0.8181 0.9898
1.9931 -1.9710 -0.9418 0.9882
11.7604 4.6805 -4.2527 0.9480
9.4285 5.8721 -3.7320 0.9542
6.2345 6.7407 -3.0849 0.9620
4.3931 6.8818 -2.7431 0.9661
1.9426 6.2622 -2.2029 0.9727
0.1935 5.7869 -1.9454 0.9759
-0.3233 5.7987 -1.9513 0.9758
-2.4642 4.4967 -1.7228 0.9786
-2.8006 4.1788 -1.6902 0.9790
-3.1109 3.8504 -1.6631 0.9793
-3.6580 3.1633 -1.6248 0.9798
-3.8969 2.8049 -1.6132 0.9799
-4.4822 1.6692 -1.6070 0.9800
-2.6931 -0.2407 -0.9588 0.9886
-4.8646 -1.8116 -1.8406 0.9782
-4.8146 -2.2997 -1.8919 0.9776
-4.5647 -3.2855 -1.9942 0.9764
-3.9717 -4.9159 -2.2409 0.9735
-3.3291 -6.0749 -2.4563 0.9710
-2.9171 -6.6716 -2.5819 0.9696
-1.8786 -7.8829 -2.8735 0.9662
-1.2378 -8.4870 -3.0412 0.9643
-0.5063 -9.0796 -3.2245 0.9621
0.0857 -2.5639 -0.9096 0.9892
0.2837 -2.3032 -0.8228 0.9902
0.4615 -2.1475 -0.7788 0.9907
1.1923 -1.8677 -0.7857 0.9906
1.4311 -1.8544 -0.8306 0.9901
14.0171 0.9383 -4.9814 0.9421
13.1918 2.0743 -4.7351 0.9449
12.2652 3.0677 -4.4830 0.9478
11.2757 3.9154 -4.2324 0.9506
10.2555 4.6209 -3.9886 0.9534
8.2207 5.6431 -3.5356 0.9586
7.2399 5.9839 -3.3305 0.9609
6.2980 6.2282 -3.1408 0.9631
5.4010 6.3884 -2.9663 0.9651
4.5523 6.4758 -2.8068 0.9670
1.5813 6.0357 -2.2124 0.9739
-0.0642 5.7603 -2.0427 0.9758
-0.5571 5.5383 -1.9737 0.9767
-1.0154 5.2974 -1.9126 0.9774
-1.4411 5.0400 -1.8587 0.9780
-2.2026 4.4822 -1.7709 0.9790
-2.5417 4.1844 -1.7360 0.9794
-2.8552 3.8751 -1.7067 0.9798
-3.1440 3.5551 -1.6828 0.9801
-3.4094 3.2246 -1.6640 0.9803
-3.6522 2.8841 -1.6501 0.9804
-3.8729 2.5336 -1.6410 0.9806
-4.0722 2.1730 -1.6367 0.9806
-4.2502 1.8022 -1.6370 0.9806
-2.6347 0.1175 -0.9351 0.9889
-2.6733 -0.1192 -0.9489 0.9887
-2.7260 -0.3666 -0.9753 0.9884
-2.8093 -0.6365 -1.0214 0.9878
-4.8434 -2.0538 -1.8654 0.9779
-4.6322 -3.0302 -1.9628 0.9768
-4.4924 -3.5476 -2.0297 0.9760
-4.0989 -4.6347 -2.1939 0.9741
-3.8319 -5.2006 -2.2906 0.9730
-2.6856 -6.9730 -2.6496 0.9688
-2.1673 -7.5793 -2.7952 0.9671
-0.8838 -8.7854 -3.1309 0.9632
0.1883 -2.4099 -0.8571 0.9898
0.3750 -2.2231 -0.7994 0.9905
0.5492 -2.0964 -0.7684 0.9908
0.8974 -1.9338 -0.7559 0.9910
1.0848 -1.8789 -0.7693 0.9908
1.5823 -1.8715 -0.8690 0.9897
2.0338 -2.0113 -1.0143 0.9879
11.7761 3.5096 -4.3572 0.9492
10.7677 4.2854 -4.1093 0.9520
9.7423 4.9230 -3.8705 0.9547
8.7228 5.4326 -3.6438 0.9573
6.7637 6.1173 -3.2337 0.9620
4.9706 6.4405 -2.8847 0.9661
3.3721 6.4925 -2.5941 0.9694
0.1931 5.7758 -2.0492 0.9758
-0.3151 5.6518 -2.0072 0.9763
-0.7905 5.4201 -1.9422 0.9770
-1.2322 5.1706 -1.8848 0.9777
-2.0229 4.6266 -1.7905 0.9788
-2.3755 4.3347 -1.7527 0.9792
-3.0026 3.7164 -1.6941 0.9799
-3.2796 3.3911 -1.6728 0.9802
-3.5336 3.0556 -1.6564 0.9804
-3.7652 2.7101 -1.6450 0.9805
-4.3313 1.6130 -1.6389 0.9806
-2.5828 0.7075 -0.9496 0.9887
-2.6624 0.4797 -0.9592 0.9886
-2.6060 0.2329 -0.9277 0.9890
-2.6101 0.0000 -0.9746 0.9889
-2.7171 -0.4895 -1.0309 0.9883
-2.7878 -0.7637 -1.0793 0.9877
-4.6324 -2.2127 -1.9170 0.9783
-4.0328 -4.1698 -2.1661 0.9755
-3.5069 -5.2326 -2.3522 0.9735
-3.1665 -5.7782 -2.4604 0.9723
-2.7677 -6.3300 -2.5798 0.9709
-1.7722 -7.4363 -2.8546 0.9679
-1.1638 -7.9794 -3.0111 0.9662
0.6368 -2.0528 -0.8026 0.9909
0.8094 -1.9697 -0.7952 0.9909
10.3643 -9.3739 -5.2183 0.9421
13.6543 -1.5275 -5.1305 0.9430
12.7019 0.8503 -4.7536 0.9471
12.0097 1.8885 -4.5397 0.9494
11.2197 2.8062 -4.3186 0.9518
9.4704 4.2671 -3.8787 0.9566
8.5622 4.8170 -3.6685 0.9589
7.6579 5.2568 -3.4684 0.9611
6.7711 5.5965 -3.2803 0.9632
5.9120 5.8466 -3.1048 0.9651
2.8533 6.1486 -2.5311 0.9715
2.1918 6.0922 -2.4176 0.9727
1.5711 5.9967 -2.3148 0.9739
0.4461 5.7093 -2.1384 0.9758
-0.0616 5.5257 -2.0635 0.9767
-0.5352 5.3200 -1.9966 0.9774
-2.4533 4.0386 -1.7645 0.9800
-2.7573 3.7423 -1.7358 0.9803
-3.0378 3.4349 -1.7123 0.9806
-3.5310 2.7885 -1.6801 0.9810
-3.9382 2.1015 -1.6668 0.9811
-2.6307 -0.1173 -0.9833 0.9888
-2.7556 -0.6243 -1.0551 0.9880
-4.5936 -2.4512 -1.9442 0.9780
-3.9191 -4.4315 -2.2091 0.9751
-3.6568 -4.9630 -2.3020 0.9740
-2.5447 -6.6071 -2.6438 0.9702
-1.4778 -7.7095 -2.9312 0.9670
0.1902 -2.4343 -0.9118 0.9896
0.3760 -2.2290 -0.8441 0.9904
0.5508 -2.1022 -0.8115 0.9908
0.7212 -2.0046 -0.7955 0.9909
1.3106 -1.8644 -0.8510 0.9903
1.5928 -1.8839 -0.9212 0.9895
13.7780 -2.1665 -5.2081 0.9422
13.0005 0.2897 -4.8557 0.9460
12.3702 1.3838 -4.6480 0.9482
9.9203 3.9482 -3.9869 0.9554
7.2116 5.4385 -3.3728 0.9622
3.1996 6.1603 -2.5921 0.9708
2.5174 6.1256 -2.4730 0.9721
1.8764 6.0490 -2.3649 0.9733
0.7133 5.7919 -2.1791 0.9754
-0.3025 5.4254 -2.0291 0.9771
-0.7598 5.2097 -1.9659 0.9778
-1.5821 4.7255 -1.8608 0.9789
-1.9503 4.4606 -1.8179 0.9794
-2.2920 4.1824 -1.7809 0.9798
-3.6407 2.6205 -1.6750 0.9810
-3.8443 2.2770 -1.6684 0.9811
-4.1887 1.5599 -1.6690 0.9811
-2.5629 0.2290 -0.9608 0.9891
-2.5691 0.0000 -1.0083 0.9890
-2.6685 -0.4808 -1.0642 0.9884
-2.7583 -1.0272 -1.1552 0.9874
-4.4615 -2.1311 -1.9405 0.9790
-4.2114 -3.0312 -2.0365 0.9779
-4.0573 -3.5085 -2.1052 0.9772
-3.3486 -4.9965 -2.3606 0.9745
0.0876 -2.6201 -1.0289 0.9888
0.6385 -2.0585 -0.8459 0.9908
1.2026 -1.8838 -0.8772 0.9904
1.8048 -1.9513 -1.0432 0.9886
9.3798 -8.4836 -4.9637 0.9471
11.1369 -6.9361 -5.1493 0.9452
11.7753 -5.9503 -5.1780 0.9449
12.4780 -3.7188 -5.1101 0.9456
11.5999 0.7765 -4.5628 0.9513
10.3283 2.5833 -4.1784 0.9553
7.9774 4.4880 -3.5924 0.9614
7.1615 4.9161 -3.4092 0.9634
6.3546 5.2522 -3.2356 0.9652
5.5666 5.5050 -3.0726 0.9669
2.7159 5.8526 -2.5322 0.9727
1.5016 5.7316 -2.3254 0.9749
0.4279 5.4753 -2.1555 0.9767
-0.5146 5.1159 -2.0180 0.9781
-1.3372 4.6764 -1.9089 0.9793
-2.9373 3.3212 -1.7401 0.9811
-3.1876 3.0148 -1.7219 0.9813
-3.4163 2.6979 -1.7085 0.9815
-3.8112 2.0337 -1.6954 0.9816
-3.9778 1.6867 -1.6957 0.9816
-4.1239 1.3298 -1.7006 0.9816
-2.4911 0.3350 -0.9865 0.9893
-2.7055 -0.6130 -1.0887 0.9882
-4.4928 -1.9051 -1.9153 0.9792
-4.4225 -2.3599 -1.9673 0.9787
-4.2817 -2.8009 -2.0081 0.9783
-3.9660 -3.7510 -2.1424 0.9768
-3.7526 -4.2431 -2.2231 0.9760
-3.1895 -5.2507 -2.4112 0.9739
-2.8315 -5.7619 -2.5197 0.9728
-1.3956 -7.2806 -2.9095 0.9686
-0.0323 -2.9005 -1.1384 0.9876
1.0940 -1.8948 -0.8587 0.9906
1.3165 -1.8727 -0.8984 0.9902
1.6035 -1.8966 -0.9747 0.9894
9.8659 -8.1544 -5.0235 0.9465
10.7489 -7.3787 -5.1169 0.9455
12.0255 -5.4184 -5.1766 0.9449
12.3777 -4.2980 -5.1424 0.9453
12.4791 -1.9623 -4.9579 0.9472
12.2462 -0.8198 -4.8170 0.9486
11.8505 0.2641 -4.6521 0.9503
11.3188 1.2662 -4.4700 0.9522
7.5690 4.7140 -3.4997 0.9624
5.1821 5.6029 -2.9953 0.9677
4.4353 5.7470 -2.8491 0.9693
3.0420 5.8569 -2.5902 0.9720
2.3988 5.8371 -2.4768 0.9732
1.7917 5.7760 -2.3735 0.9743
1.2203 5.6788 -2.2796 0.9753
-1.1422 4.7928 -1.9337 0.9791
-1.5253 4.5560 -1.8857 0.9796
-1.8820 4.3042 -1.8437 0.9800
-2.8039 3.4704 -1.7510 0.9810
-3.0651 3.1693 -1.7304 0.9812
-3.5228 2.5356 -1.7035 0.9815
-3.7202 2.2035 -1.6970 0.9816
-3.8971 1.8615 -1.6950 0.9816
-3.4630 0.9486 -1.4092 0.9847
-2.5634 0.4618 -1.0222 0.9889
-2.5207 0.2252 -0.9932 0.9892
-2.6211 -0.4722 -1.0967 0.9885
-2.6410 -0.7234 -1.1276 0.9882
-4.1961 -2.4854 -2.0082 0.9791
-4.0516 -2.9162 -2.0556 0.9786
-3.8984 -3.3710 -2.1222 0.9780
-3.7078 -3.8339 -2.1963 0.9772
-3.2022 -4.7780 -2.3685 0.9754
-2.8799 -5.2552 -2.4676 0.9744
-2.0771 -6.2040 -2.6941 0.9721
-0.4202 -7.5357 -3.1079 0.9679
0.0886 -2.6497 -1.0917 0.9886
0.6411 -2.0667 -0.8910 0.9907
0.8148 -1.9826 -0.8827 0.9908
1.2079 -1.8922 -0.9244 0.9903
1.4590 -1.8904 -0.9833 0.9897
11.1203 -4.4258 -4.9285 0.9495
11.3597 -3.3856 -4.8810 0.9500
11.4234 -2.3219 -4.8001 0.9508
11.3181 -1.2661 -4.6897 0.9519
11.0580 -0.2464 -4.5546 0.9533
10.6627 0.7138 -4.4005 0.9548
10.1550 1.5968 -4.2330 0.9565
9.5589 2.3909 -4.0574 0.9583
7.4611 4.1975 -3.5252 0.9636
6.7201 4.6131 -3.3565 0.9654
5.2556 5.1973 -3.0436 0.9685
3.2131 5.5652 -2.6462 0.9726
1.9975 5.5521 -2.4297 0.9748
1.4372 5.4859 -2.3352 0.9758
0.4108 5.2571 -2.1714 0.9774
-2.5774 3.4980 -1.7892 0.9814
-3.6907 1.9694 -1.7226 0.9821
-3.9931 1.2876 -1.7276 0.9820
-2.4504 0.3296 -1.0181 0.9894
-2.5068 0.1118 -1.0333 0.9892
-2.5854 -0.3477 -1.0742 0.9888
-2.6300 -0.5959 -1.1104 0.9884
-4.3330 -1.8373 -1.9380 0.9798
-4.1226 -2.6969 -2.0286 0.9789
-3.8080 -3.6015 -2.1583 0.9776
-3.0472 -5.0164 -2.4169 0.9749
-2.6997 -5.4938 -2.5206 0.9739
-2.2988 -5.9688 -2.6338 0.9727
-1.3211 -6.8922 -2.8898 0.9701
-0.7372 -7.3279 -3.0327 0.9686
0.3822 -2.2661 -0.9463 0.9901
0.7252 -2.0156 -0.8821 0.9908
1.3225 -1.8812 -0.9469 0.9901
8.9906 -7.4309 -4.8030 0.9508
9.7796 -6.7133 -4.8846 0.9500
10.9350 -4.9271 -4.9388 0.9494
11.2620 -3.9106 -4.9091 0.9497
11.4133 -2.8546 -4.8446 0.9504
11.2063 -0.7502 -4.6249 0.9526
10.8759 0.2424 -4.4796 0.9540
9.8665 2.0055 -4.1459 0.9574
9.2349 2.7523 -3.9681 0.9592
8.5490 3.4024 -3.7889 0.9610
7.0910 4.4163 -3.4399 0.9645
6.3499 4.7887 -3.2750 0.9662
5.6166 5.0799 -3.1185 0.9678
4.8994 5.2972 -2.9712 0.9693
1.7134 5.5235 -2.3814 0.9753
0.6559 5.3250 -2.2093 0.9771
0.1733 5.1826 -2.1353 0.9778
-0.2797 5.0160 -2.0687 0.9785
-0.7041 4.8279 -2.0091 0.9791
-1.1011 4.6207 -1.9560 0.9797
-1.8174 4.1566 -1.8681 0.9806
-2.4368 3.6360 -1.8024 0.9812
-3.4109 2.4550 -1.7305 0.9820
-3.6025 2.1337 -1.7241 0.9821
-3.9250 1.4617 -1.7247 0.9820
-3.5072 0.9607 -1.4974 0.9844
-2.5181 0.4537 -1.0536 0.9890
-2.4893 0.0000 -1.0738 0.9892
-2.5507 -0.6987 -1.1408 0.9885
-2.5688 -0.9566 -1.1824 0.9881
-4.1491 -1.9819 -1.9835 0.9802
-4.0492 -2.3983 -2.0300 0.9797
-3.9031 -2.8093 -2.0744 0.9793
-3.7494 -3.2423 -2.1382 0.9786
-3.3348 -4.1275 -2.2889 0.9771
-3.0663 -4.5752 -2.3758 0.9763
-2.7528 -5.0232 -2.4708 0.9754
-2.3909 -5.4682 -2.5744 0.9743
-1.9774 -5.9062 -2.6867 0.9732
-1.5090 -6.3321 -2.8079 0.9720
0.0903 -2.7014 -1.1659 0.9883
0.2932 -2.3808 -1.0347 0.9896
0.8197 -1.9946 -0.9302 0.9906
1.2141 -1.9018 -0.9733 0.9902
7.8577 -7.1069 -4.5702 0.9549
9.2744 -5.7761 -4.7130 0.9535
9.8055 -4.9550 -4.7390 0.9533
10.1859 -4.0539 -4.7289 0.9534
10.4136 -3.1036 -4.6872 0.9538
10.4864 -2.1315 -4.6159 0.9545
10.1938 -0.2272 -4.3983 0.9566
7.6642 3.4533 -3.6261 0.9640
7.0016 3.9390 -3.4654 0.9656
5.6459 4.6664 -3.1596 0.9686
4.9738 4.9187 -3.0174 0.9700
4.3158 5.1048 -2.8835 0.9713
3.6774 5.2311 -2.7582 0.9725
3.0622 5.3039 -2.6418 0.9737
0.8720 5.1697 -2.2615 0.9774
-0.0547 4.9101 -2.1181 0.9788
-0.4773 4.7445 -2.0569 0.9794
-1.5918 4.1330 -1.9105 0.9809
-2.2157 3.6476 -1.8409 0.9816
-3.2040 2.5302 -1.7610 0.9824
-3.8687 1.2475 -1.7534 0.9824
-2.5715 0.5826 -1.1373 0.9886
-2.5077 -0.1118 -1.0828 0.9891
-2.5465 -0.5770 -1.1263 0.9887
-2.6695 -1.1320 -1.2508 0.9874
-4.1089 -2.1926 -2.0090 0.9799
-3.9727 -2.5988 -2.0479 0.9795
-3.8298 -3.0243 -2.1050 0.9790
-3.6601 -3.4617 -2.1731 0.9783
-3.4531 -3.9045 -2.2484 0.9775
-2.5781 -5.2463 -2.5215 0.9749
-1.7502 -6.1210 -2.7462 0.9726
0.1964 -2.5128 -1.0872 0.9891
0.3856 -2.2859 -1.0000 0.9900
0.5604 -2.1392 -0.9539 0.9904
1.1039 -1.9121 -0.9524 0.9904
7.4470 -7.3646 -4.5178 0.9554
8.2490 -6.8180 -4.6164 0.9544
10.0144 -4.5123 -4.7380 0.9533
10.3180 -0.6907 -4.4607 0.9560
8.5998 2.5630 -3.8708 0.9617
7.9858 3.1783 -3.7075 0.9633
7.3355 3.7068 -3.5453 0.9648
6.6643 4.1505 -3.3866 0.9664
2.7643 5.3221 -2.5869 0.9742
2.1885 5.3254 -2.4836 0.9752
1.6407 5.2890 -2.3887 0.9762
-0.2693 4.8300 -2.0867 0.9791
-0.6787 4.6538 -2.0287 0.9797
-1.0625 4.4583 -1.9770 0.9802
-1.4214 4.2455 -1.9312 0.9807
-1.7563 4.0169 -1.8911 0.9811
-2.0682 3.7740 -1.8564 0.9814
-2.6255 3.2497 -1.8021 0.9820
-2.8723 2.9700 -1.7822 0.9822
-3.3045 2.3784 -1.7562 0.9824
-3.9293 1.0764 -1.7574 0.9824
-2.4719 0.4453 -1.0835 0.9891
-2.4282 0.0000 -1.0956 0.9894
-2.4890 -0.9269 -1.1984 0.9884
-3.9103 -2.3160 -2.0506 0.9803
-3.7630 -2.7085 -2.0920 0.9799
-3.4243 -3.5407 -2.2226 0.9786
-1.4359 -6.0254 -2.7949 0.9732
-0.3761 -6.7453 -3.0483 0.9708
0.0940 -2.8105 -1.2689 0.9877
0.2960 -2.4029 -1.0924 0.9894
0.4764 -2.2169 -1.0231 0.9901
1.0117 -1.9478 -0.9903 0.9904
1.4959 -1.9383 -1.1048 0.9893
1.9604 -2.1196 -1.3027 0.9874
7.9470 -5.9931 -4.4912 0.9573
9.0299 -4.5630 -4.5651 0.9566
9.3858 -3.7355 -4.5581 0.9566
9.6809 -1.9677 -4.4575 0.9576
9.1525 0.6127 -4.1390 0.9605
8.7640 1.3781 -4.0030 0.9618
8.2966 2.0751 -3.8589 0.9632
5.9689 4.0974 -3.2668 0.9687
3.5032 4.9834 -2.7486 0.9736
2.9231 5.0629 -2.6378 0.9747
1.8307 5.0886 -2.4401 0.9765
0.8379 4.9672 -2.2729 0.9781
-0.0527 4.7296 -2.1342 0.9795
-0.4602 4.5749 -2.0747 0.9800
-1.5388 3.9955 -1.9319 0.9814
-2.1445 3.5304 -1.8638 0.9820
-2.4153 3.2781 -1.8373 0.9823
-2.8954 2.7384 -1.7982 0.9827
-3.2958 2.1561 -1.7771 0.9829
-3.6182 1.5343 -1.7733 0.9829
-3.7501 1.2093 -1.7779 0.9829
-2.5489 0.5775 -1.1792 0.9886
-2.3568 0.3169 -1.0730 0.9896
-2.4671 -0.5590 -1.1414 0.9890
-2.4782 -0.7991 -1.1749 0.9886
-2.4891 -1.0555 -1.2199 0.9882
-3.9653 -2.1159 -2.0280 0.9805
-3.8316 -2.5065 -2.0660 0.9801
-3.6891 -2.9132 -2.1210 0.9796
-3.0760 -4.1747 -2.3398 0.9775
-2.7927 -4.5975 -2.4272 0.9767
-2.4654 -5.0170 -2.5223 0.9758
-1.1913 -6.2151 -2.8554 0.9726
-0.6615 -6.5760 -2.9822 0.9714
-0.0769 -6.9058 -3.1162 0.9701
0.1986 -2.5409 -1.1500 0.9889
0.7362 -2.0462 -0.9812 0.9905
1.1155 -1.9322 -1.0067 0.9903
1.6723 -1.9780 -1.1687 0.9887
6.8834 -6.8071 -4.3682 0.9584
7.6121 -6.2916 -4.4561 0.9576
8.2587 -5.6692 -4.5200 0.9570
8.8022 -4.9521 -4.5571 0.9566
9.2257 -4.1569 -4.5659 0.9566
9.6587 -2.4158 -4.4924 0.9572
9.6695 -1.5204 -4.4167 0.9580
9.5501 -0.6393 -4.3188 0.9589
8.9692 1.0034 -4.0723 0.9612
7.4855 2.9792 -3.6353 0.9653
6.8949 3.4841 -3.4857 0.9667
6.2809 3.9117 -3.3387 0.9681
3.8007 4.9247 -2.8069 0.9731
3.2105 5.0292 -2.6922 0.9742
2.6411 5.0850 -2.5855 0.9752
1.0765 5.0095 -2.3120 0.9778
0.6057 4.9176 -2.2357 0.9785
0.1604 4.7984 -2.1663 0.9792
-0.6548 4.4896 -2.0472 0.9803
-1.0259 4.3049 -1.9968 0.9808
-2.0012 3.6518 -1.8790 0.9819
-2.2825 3.4058 -1.8500 0.9822
-2.5429 3.1475 -1.8258 0.9824
-3.0028 2.5967 -1.7913 0.9827
-3.2031 2.3054 -1.7807 0.9828
-3.5449 1.6933 -1.7726 0.9829
-3.6867 1.3729 -1.7751 0.9829
-2.3848 0.2131 -1.0803 0.9895
-2.3615 -0.0000 -1.1132 0.9896
-2.3934 -0.6556 -1.1698 0.9891
-3.8703 -1.8487 -2.0218 0.9812
-3.7770 -2.2371 -2.0693 0.9808
-3.4778 -3.0074 -2.1673 0.9799
-2.8215 -4.2099 -2.3889 0.9778
-2.5249 -4.6074 -2.4766 0.9770
-1.3686 -5.7431 -2.7830 0.9742
-0.8877 -6.0865 -2.8994 0.9732
-0.3570 -6.4020 -3.0225 0.9720
0.2988 -2.4257 -1.1521 0.9893
0.4806 -2.2367 -1.0784 0.9899
0.6571 -2.1183 -1.0454 0.9902
0.8343 -2.0301 -1.0346 0.9903
1.0208 -1.9654 -1.0439 0.9903
1.2407 -1.9434 -1.0868 0.9899
1.5189 -1.9682 -1.1719 0.9891
6.7337 -6.0903 -4.2798 0.9606
7.9124 -4.9279 -4.3939 0.9596
8.8985 -2.6520 -4.3769 0.9598
8.9419 -1.0003 -4.2413 0.9610
8.5346 0.5713 -4.0320 0.9629
6.2188 3.4987 -3.3635 0.9689
4.4825 4.4328 -2.9716 0.9725
2.2645 4.8799 -2.5359 0.9765
0.8058 4.7773 -2.2837 0.9788
0.3658 4.6811 -2.2133 0.9795
-1.1625 4.0655 -1.9932 0.9815
-1.7931 3.6489 -1.9165 0.9822
-2.3401 3.1760 -1.8596 0.9827
-2.5834 2.9211 -1.8382 0.9829
-2.8071 2.6549 -1.8213 0.9831
-3.1964 2.0911 -1.8005 0.9833
-3.3625 1.7943 -1.7965 0.9833
-3.6370 1.1728 -1.8013 0.9832
-2.5265 0.5724 -1.2211 0.9886
-2.2973 0.3089 -1.0926 0.9898
-2.3488 0.1047 -1.1083 0.9897
-2.3694 -0.1057 -1.1180 0.9896
-2.3799 -0.3201 -1.1319 0.9894
-2.4109 -1.0223 -1.2344 0.9885
-3.8294 -2.0435 -2.0460 0.9810
-3.6998 -2.4203 -2.0840 0.9806
-3.3910 -3.2072 -2.2001 0.9796
-2.9544 -4.0097 -2.3477 0.9782
-2.6784 -4.4092 -2.4318 0.9774
-2.3607 -4.8038 -2.5231 0.9766
-1.9989 -5.1899 -2.6216 0.9757
-0.6286 -6.2482 -2.9601 0.9726
-0.0729 -6.5470 -3.0863 0.9715
0.2036 -2.6059 -1.2321 0.9885
0.3926 -2.3275 -1.1127 0.9896
0.5699 -2.1755 -1.0601 0.9901
0.7423 -2.0634 -1.0337 0.9903
7.0589 -5.8343 -4.3168 0.9603
8.5399 -3.8479 -4.4153 0.9594
8.9550 -2.2398 -4.3512 0.9600
8.9760 -1.4114 -4.2831 0.9606
7.9896 1.6240 -3.8431 0.9646
5.9343 3.6959 -3.2954 0.9696
5.3560 4.0391 -3.1621 0.9708
4.1934 4.5338 -2.9111 0.9731
3.6228 4.6942 -2.7951 0.9741
3.0661 4.8030 -2.6860 0.9751
2.0074 4.8848 -2.4894 0.9769
1.5097 4.8668 -2.4019 0.9777
1.0347 4.8148 -2.3214 0.9785
-0.2503 4.4897 -2.1196 0.9803
-0.6321 4.3344 -2.0648 0.9808
-0.9913 4.1596 -2.0157 0.9813
-1.9375 3.5356 -1.9004 0.9823
-2.2110 3.2991 -1.8720 0.9826
-2.6977 2.7894 -1.8292 0.9830
-3.1063 2.2358 -1.8041 0.9832
-3.2819 1.9438 -1.7980 0.9833
-3.5756 1.3316 -1.7985 0.9833
-2.3515 0.4237 -1.1263 0.9895
-2.3242 0.2077 -1.1000 0.9897
-2.2975 0.0000 -1.1300 0.9898
-2.3094 -0.2064 -1.1404 0.9897
-2.3278 -0.8669 -1.2217 0.9890
-2.3666 -1.1304 -1.2900 0.9884
-3.6502 -2.1621 -2.0867 0.9813
-3.5053 -2.5230 -2.1243 0.9809
-2.7107 -4.0446 -2.3948 0.9785
-2.4223 -4.4202 -2.4791 0.9778
-2.0934 -4.7876 -2.5701 0.9770
-1.3065 -5.4821 -2.7719 0.9752
-0.8457 -5.7989 -2.8824 0.9742
0.2120 -6.3402 -3.1202 0.9721
0.3046 -2.4730 -1.2256 0.9890
0.6628 -2.1365 -1.1003 0.9901
1.0307 -1.9844 -1.0998 0.9901
1.5431 -1.9994 -1.2422 0.9888
6.2745 -5.6749 -4.1612 0.9630
7.3593 -4.5834 -4.2643 0.9621
8.3402 -0.9330 -4.1278 0.9633
8.2108 -0.1829 -4.0395 0.9641
7.9868 0.5347 -3.9371 0.9649
7.6799 1.2076 -3.8238 0.9659
6.8691 2.3852 -3.5765 0.9681
5.8823 3.3093 -3.3197 0.9704
4.8112 3.9765 -3.0701 0.9726
4.2668 4.2196 -2.9515 0.9736
2.1709 4.6781 -2.5366 0.9773
0.7757 4.5986 -2.2938 0.9794
0.3525 4.5113 -2.2256 0.9800
-0.4289 4.2630 -2.1073 0.9811
-1.1244 3.9322 -2.0116 0.9819
-1.7365 3.5337 -1.9366 0.9826
-2.0123 3.3127 -1.9064 0.9829
-2.2684 3.0787 -1.8809 0.9831
-2.7227 2.5752 -1.8433 0.9834
-3.1015 2.0289 -1.8229 0.9836
-3.2628 1.7411 -1.8190 0.9836
-3.4053 1.4440 -1.8193 0.9836
-3.5289 1.1379 -1.8237 0.9836
-2.2893 0.1021 -1.1271 0.9898
-2.3173 -0.7472 -1.1976 0.9892
-2.3375 -0.9912 -1.2488 0.9887
-3.7006 -1.9747 -2.0631 0.9815
-3.5752 -2.3388 -2.1013 0.9811
-3.2680 -3.0908 -2.2124 0.9801
-3.0718 -3.4733 -2.2806 0.9795
-2.8403 -3.8549 -2.3551 0.9789
-1.9131 -4.9672 -2.6181 0.9766
-1.5198 -5.3151 -2.7190 0.9757
-1.0818 -5.6437 -2.8264 0.9747
0.2091 -2.6758 -1.3201 0.9881
0.7492 -2.0823 -1.0885 0.9902
1.1400 -1.9746 -1.1215 0.9899
1.3863 -1.9720 -1.1856 0.9893
1.7585 -2.0800 -1.3397 0.9879
8.1961 -2.8460 -4.2674 0.9621
8.3379 -2.0854 -4.2274 0.9624
8.2879 -0.5548 -4.0856 0.9636
