ply
format ascii 1.0
element vertex 1589
property float32 x
property float32 y
property float32 z
property float32 I
end_header
-3.4766 7.9513 -1.0875 0.9656
-4.2715 7.7946 -1.1139 0.9648
-4.7890 7.1458 -1.0780 0.9659
-5.2607 6.5113 -1.0490 0.9668
-6.4588 4.6487 -0.9972 0.9684
-6.7998 4.0276 -0.9904 0.9686
-3.8076 0.6860 -0.4848 0.9845
-3.5366 0.3160 -0.4450 0.9858
-3.3944 -0.0000 -0.4828 0.9864
-3.5138 -0.3140 -0.5018 0.9858
-8.6678 -4.1402 -1.3663 0.9619
-8.5425 -8.8329 -1.7478 0.9516
1.8127 -1.9598 -0.3797 0.9893
1.9321 -1.7475 -0.3705 0.9895
2.0735 -1.5637 -0.3694 0.9896
2.4360 -1.2310 -0.3882 0.9890
4.9626 13.7938 -2.0851 0.9425
0.8701 11.1347 -1.5886 0.9559
-0.1158 10.3905 -1.4780 0.9589
-3.5763 7.2775 -1.1533 0.9678
-5.5948 5.2916 -1.0953 0.9694
-7.1749 2.3136 -1.0723 0.9700
-4.1432 0.9387 -0.6042 0.9830
-3.4470 -0.1537 -0.4908 0.9862
-3.6292 -0.4881 -0.5209 0.9853
-8.3831 -1.8994 -1.2226 0.9659
-8.6233 -3.6566 -1.3323 0.9629
-8.6442 -6.8263 -1.5667 0.9565
-8.5808 -8.1157 -1.6799 0.9534
-8.4887 -9.5983 -1.8226 0.9495
-8.3301 -11.3057 -1.9975 0.9448
1.6638 -2.8819 -0.4733 0.9866
1.8732 -1.8524 -0.3747 0.9894
2.1485 -1.4749 -0.3707 0.9895
2.3341 -1.3132 -0.3809 0.9892
2.5692 -1.1576 -0.4008 0.9887
4.1232 13.2919 -1.9795 0.9453
1.4855 6.9129 -1.0057 0.9718
0.3596 10.7560 -1.5307 0.9575
-1.3651 9.3602 -1.3454 0.9625
-2.0772 8.7163 -1.2745 0.9644
-2.7091 8.0918 -1.2137 0.9661
-3.2752 7.4906 -1.1628 0.9675
-4.5305 6.7600 -1.1575 0.9677
-4.9840 6.1688 -1.1280 0.9685
-6.4611 3.8270 -1.0681 0.9701
-3.3525 0.2996 -0.4787 0.9865
-3.3916 -0.3031 -0.5422 0.9863
-7.9854 -2.1874 -1.3184 0.9670
-8.1813 -4.8458 -1.5141 0.9622
-7.9951 -6.9136 -1.6831 0.9581
-7.8918 -8.1600 -1.8076 0.9551
-7.7233 -9.5592 -1.9569 0.9514
-7.4753 -11.1539 -2.1381 0.9471
1.6504 -2.5853 -0.4884 0.9877
1.8077 -1.9545 -0.4239 0.9893
2.0649 -1.5572 -0.4118 0.9896
2.7000 -1.0746 -0.4627 0.9883
3.1730 -0.9457 -0.5272 0.9867
3.0704 11.7196 -1.9292 0.9521
0.8064 10.3194 -1.6482 0.9589
-0.1078 9.6791 -1.5413 0.9616
-0.9123 9.0688 -1.4514 0.9638
-1.6259 8.4821 -1.3753 0.9656
-2.2612 7.9081 -1.3097 0.9672
-3.5454 7.2148 -1.2801 0.9680
-4.9381 5.5837 -1.1869 0.9703
-5.3217 5.0333 -1.1664 0.9708
-6.0001 3.9251 -1.1417 0.9714
-6.3002 3.3619 -1.1371 0.9715
-6.5769 2.7888 -1.1375 0.9715
-3.2540 0.4376 -0.5228 0.9868
-3.4817 -0.4682 -0.5594 0.9859
-8.1166 -3.4417 -1.4039 0.9649
-8.1680 -4.3586 -1.4742 0.9632
-8.1855 -5.3547 -1.5575 0.9612
-7.8166 -8.8384 -1.8788 0.9533
-7.6100 -10.3283 -2.0429 0.9494
-7.3142 -12.0409 -2.2434 0.9445
1.6744 -2.3818 -0.4636 0.9883
1.8672 -1.8465 -0.4182 0.9894
2.1389 -1.4683 -0.4131 0.9895
2.8977 -1.0062 -0.4884 0.9877
3.7536 12.1003 -2.0174 0.9500
0.3342 9.9951 -1.5925 0.9603
-2.5538 7.6278 -1.2809 0.9679
-3.0950 7.0784 -1.2302 0.9692
-5.5018 4.7576 -1.1582 0.9710
-6.7070 2.4977 -1.1396 0.9714
-3.2454 0.2900 -0.5188 0.9869
-7.6816 -3.6692 -1.5011 0.9660
-7.6599 -5.5132 -1.6641 0.9624
-7.4670 -6.4569 -1.7406 0.9607
-6.8525 -10.2246 -2.1703 0.9512
-6.4741 -11.8137 -2.3754 0.9468
1.6466 -2.5793 -0.5396 0.9876
1.7101 -2.2158 -0.4935 0.9887
1.8046 -1.9511 -0.4686 0.9893
2.0616 -1.5548 -0.4553 0.9896
2.2217 -1.3837 -0.4615 0.9894
5.6002 12.0681 -2.3459 0.9474
4.1025 11.4031 -2.1368 0.9520
2.8241 10.7796 -1.9649 0.9557
1.7186 10.1889 -1.8220 0.9589
0.7511 9.6121 -1.7000 0.9616
-0.1009 9.0560 -1.5969 0.9639
-2.1352 7.4675 -1.3695 0.9689
-4.3008 5.8372 -1.2785 0.9710
-5.0727 4.7978 -1.2312 0.9720
-5.4125 4.2742 -1.2161 0.9724
-5.7251 3.7452 -1.2063 0.9726
-6.0125 3.2084 -1.2017 0.9727
-3.1779 0.4274 -0.5654 0.9871
-3.1644 0.1411 -0.5585 0.9872
-7.6055 -2.4525 -1.4091 0.9681
-7.6639 -3.2497 -1.4678 0.9668
-7.6910 -4.1040 -1.5371 0.9652
-7.5395 -5.9538 -1.6940 0.9617
-7.2403 -8.1868 -1.9271 0.9566
-7.0034 -9.5051 -2.0818 0.9532
-6.6767 -10.9914 -2.2676 0.9491
2.1355 -1.4660 -0.4567 0.9895
2.3187 -1.3045 -0.4691 0.9893
2.5500 -1.1490 -0.4932 0.9887
2.8901 -1.0036 -0.5395 0.9877
6.4483 12.4153 -2.4668 0.9448
4.8209 11.7310 -2.2363 0.9498
3.4382 11.0838 -2.0462 0.9540
1.2190 9.8977 -1.7584 0.9603
-1.8411 7.7258 -1.4004 0.9683
-2.9889 6.8358 -1.3155 0.9702
-3.6269 6.6183 -1.3307 0.9698
-4.5064 5.5776 -1.2644 0.9713
-4.8919 5.0582 -1.2408 0.9718
-5.5720 4.0105 -1.2105 0.9725
-5.8718 3.4779 -1.2033 0.9727
-6.1473 2.9363 -1.2013 0.9727
-4.2904 1.1753 -0.7844 0.9821
-3.4372 0.6192 -0.6158 0.9859
-3.1509 0.2816 -0.5578 0.9872
-3.1775 -0.2839 -0.6174 0.9871
-3.3117 -0.5966 -0.6512 0.9864
-7.1858 -1.9684 -1.4418 0.9701
-7.2407 -2.6964 -1.4952 0.9690
-7.2039 -5.1850 -1.7176 0.9645
-5.9284 -10.8180 -2.3872 0.9510
-5.4130 -12.3797 -2.6147 0.9464
1.6428 -2.5734 -0.5908 0.9876
1.8014 -1.9477 -0.5134 0.9892
1.9186 -1.7353 -0.5006 0.9895
2.0584 -1.5523 -0.4989 0.9896
2.4155 -1.2206 -0.5237 0.9890
3.1620 -0.9424 -0.6385 0.9866
6.6994 11.6037 -2.5929 0.9469
5.1121 11.0163 -2.3502 0.9517
1.5973 9.4696 -1.8584 0.9616
-0.0948 8.5055 -1.6461 0.9659
-0.8070 8.0220 -1.5602 0.9677
-1.4460 7.5437 -1.4864 0.9692
-2.0219 7.0710 -1.4232 0.9705
-3.2150 6.5423 -1.4107 0.9707
-3.6773 6.0538 -1.3707 0.9716
-4.4885 5.0753 -1.3111 0.9728
-4.8448 4.5822 -1.2905 0.9732
-5.1721 4.0844 -1.2753 0.9735
-5.4727 3.5801 -1.2655 0.9737
-6.2306 2.0091 -1.2669 0.9737
-3.6833 0.8345 -0.7308 0.9847
-3.1048 0.4176 -0.6062 0.9873
-3.0751 0.1371 -0.5957 0.9875
-3.1273 -0.1395 -0.6058 0.9873
-3.2339 -0.4349 -0.6315 0.9868
-7.2169 -2.3271 -1.4674 0.9696
-7.2345 -4.7325 -1.6729 0.9654
-6.4840 -8.8001 -2.1153 0.9564
-6.1398 -10.1075 -2.2886 0.9530
-5.6898 -11.5785 -2.4966 0.9488
-5.0969 -13.2339 -2.7444 0.9439
1.7518 -2.0720 -0.5251 0.9890
4.4187 10.7523 -2.2496 0.9537
1.4923 6.9444 -1.3745 0.9715
0.2924 8.7481 -1.6938 0.9650
-0.4608 8.2635 -1.6016 0.9668
-2.2888 6.8364 -1.3951 0.9711
-3.4514 6.2979 -1.3898 0.9712
-3.8935 5.8096 -1.3534 0.9719
-4.2986 5.3205 -1.3237 0.9725
-4.6704 4.8292 -1.3001 0.9730
-5.0119 4.3340 -1.2822 0.9734
-5.6136 3.3250 -1.2626 0.9738
-5.8775 2.8075 -1.2605 0.9738
-6.1185 2.2786 -1.2635 0.9738
-4.1641 1.1407 -0.8355 0.9826
-3.3306 0.6001 -0.6549 0.9863
-3.0211 0.0000 -0.6369 0.9877
-3.0994 -0.2770 -0.6560 0.9874
-3.2303 -0.5820 -0.6920 0.9867
-6.8402 -1.8737 -1.4952 0.9714
-6.7949 -4.8906 -1.7650 0.9664
-6.4102 -6.6280 -1.9439 0.9630
-6.1775 -7.6460 -2.0723 0.9606
-5.8686 -8.7566 -2.2223 0.9578
-5.4674 -9.9768 -2.3984 0.9546
-4.2988 -12.8398 -2.8546 0.9462
1.7033 -2.2071 -0.5877 0.9887
1.7983 -1.9443 -0.5583 0.9892
1.9153 -1.7323 -0.5444 0.9895
2.0552 -1.5499 -0.5427 0.9895
3.1614 -0.9422 -0.6954 0.9866
6.4774 11.2191 -2.7311 0.9484
4.6998 10.1279 -2.3538 0.9554
2.4322 9.2837 -2.0232 0.9615
1.4937 8.8554 -1.8932 0.9640
-0.0892 8.0108 -1.6889 0.9678
-0.7623 7.5775 -1.6055 0.9693
-3.0635 6.2341 -1.4644 0.9720
-3.5088 5.7762 -1.4248 0.9728
-3.9168 5.3160 -1.3921 0.9734
-4.2913 4.8522 -1.3656 0.9739
-4.9508 3.9096 -1.3299 0.9745
-5.5052 2.9377 -1.3155 0.9748
-5.7467 2.4368 -1.3159 0.9748
-3.0346 0.4081 -0.6455 0.9876
-2.9940 0.1335 -0.6318 0.9878
-3.0505 -0.1360 -0.6438 0.9876
-6.8094 -1.5428 -1.4719 0.9719
-6.8638 -2.2133 -1.5204 0.9709
-6.8338 -4.4704 -1.7216 0.9672
-6.0335 -8.1888 -2.1444 0.9593
-5.6806 -9.3516 -2.3067 0.9563
-3.9059 -13.6598 -2.9952 0.9436
1.6633 -2.3661 -0.6097 0.9882
1.7484 -2.0680 -0.5709 0.9890
2.3120 -1.3007 -0.5592 0.9892
2.5434 -1.1460 -0.5881 0.9887
2.8843 -1.0015 -0.6437 0.9876
5.3672 10.3337 -2.4548 0.9535
2.9459 9.4968 -2.0962 0.9602
0.2751 8.2271 -1.7354 0.9669
-1.6511 6.9283 -1.5015 0.9713
-2.1752 6.4970 -1.4444 0.9724
-2.8256 6.4624 -1.4869 0.9716
-3.2910 6.0054 -1.4437 0.9724
-3.7172 5.5465 -1.4076 0.9731
-4.1080 5.0846 -1.3781 0.9736
-4.4669 4.6187 -1.3546 0.9741
-5.6288 2.6887 -1.3151 0.9748
-5.8590 2.1820 -1.3181 0.9748
-3.2435 0.5844 -0.6948 0.9866
-3.1642 -0.5701 -0.7338 0.9869
-6.5472 -3.1273 -1.6561 0.9707
-6.5074 -3.8543 -1.7263 0.9694
-6.2216 -5.3800 -1.8773 0.9668
-6.0279 -6.2328 -1.9791 0.9651
-5.4719 -8.1646 -2.2433 0.9605
-3.9328 -11.7466 -2.8274 0.9504
1.6999 -2.2027 -0.6351 0.9886
1.7951 -1.9409 -0.6034 0.9892
1.9121 -1.7294 -0.5884 0.9895
2.2122 -1.3777 -0.5948 0.9894
2.4083 -1.2170 -0.6159 0.9890
2.6828 -1.0677 -0.6590 0.9882
3.1607 -0.9420 -0.7528 0.9866
3.2491 9.0311 -2.1906 0.9614
1.4041 8.3241 -1.9268 0.9660
0.6212 7.9500 -1.8201 0.9678
-0.0843 7.5667 -1.7271 0.9694
-0.7220 7.1770 -1.6464 0.9708
-1.3002 6.7832 -1.5764 0.9721
-2.9247 5.9517 -1.5136 0.9732
-3.7478 5.0866 -1.4421 0.9744
-4.1095 4.6467 -1.4158 0.9749
-4.7463 3.7481 -1.3804 0.9755
-5.2802 2.8176 -1.3660 0.9757
-5.5117 2.3372 -1.3664 0.9757
-5.7207 1.8448 -1.3719 0.9756
-3.4289 0.7769 -0.8025 0.9857
-2.9453 0.1313 -0.6729 0.9880
-3.0959 -0.4163 -0.7130 0.9873
-6.4994 -1.4726 -1.5210 0.9730
-6.5416 -2.1094 -1.5688 0.9722
-6.4727 -4.2342 -1.7654 0.9688
-6.1250 -5.7929 -1.9242 0.9660
-5.6391 -7.6534 -2.1698 0.9617
-5.2830 -8.6971 -2.3226 0.9591
-4.8318 -9.8323 -2.5005 0.9560
-4.2665 -11.0777 -2.7095 0.9525
-3.5585 -12.4446 -2.9543 0.9483
-2.6738 -13.9490 -3.2417 0.9434
1.6409 -2.8422 -0.7491 0.9866
1.6596 -2.3608 -0.6587 0.9882
1.7451 -2.0641 -0.6169 0.9890
2.5401 -1.1445 -0.6359 0.9886
2.8813 -1.0005 -0.6962 0.9876
6.6779 10.4608 -2.8326 0.9504
5.2690 10.1446 -2.6091 0.9542
3.7814 9.2017 -2.2706 0.9600
2.7473 8.8563 -2.1164 0.9627
1.0023 8.1384 -1.8716 0.9669
0.2594 7.7593 -1.7720 0.9686
-1.5693 6.5848 -1.5450 0.9726
-2.1553 6.4374 -1.5494 0.9725
-2.6958 6.1654 -1.5358 0.9728
-3.1440 5.7371 -1.4932 0.9735
-3.5551 5.3046 -1.4575 0.9741
-3.9325 4.8673 -1.4282 0.9747
-4.8889 3.5188 -1.3748 0.9756
-5.1557 3.0537 -1.3677 0.9757
-3.8725 1.0608 -0.9164 0.9837
-2.9277 0.2616 -0.6709 0.9880
-2.9221 0.0000 -0.7182 0.9880
-2.9882 -0.2670 -0.7374 0.9877
-6.2508 -2.3278 -1.6395 0.9729
-6.1854 -3.6636 -1.7670 0.9708
-5.4393 -6.7323 -2.1274 0.9650
-5.1230 -7.6440 -2.2618 0.9628
-2.8711 -12.0477 -3.0442 0.9503
-1.9513 -13.3789 -3.3233 0.9458
1.6313 -2.5554 -0.7452 0.9876
1.9088 -1.7264 -0.6326 0.9895
2.0487 -1.5450 -0.6307 0.9895
2.4047 -1.2152 -0.6623 0.9890
3.1601 -0.9418 -0.8105 0.9865
5.5002 9.5267 -2.7039 0.9557
3.0356 8.4376 -2.2041 0.9637
0.5867 7.5082 -1.8511 0.9695
-0.0798 7.1663 -1.7616 0.9709
-1.2372 6.4542 -1.6153 0.9733
-2.3461 6.0916 -1.6045 0.9735
-2.7971 5.6919 -1.5589 0.9742
-3.2112 5.2863 -1.5203 0.9748
-4.2622 4.0312 -1.4420 0.9761
-2.9494 -0.1315 -0.7257 0.9879
-3.0389 -0.4087 -0.7537 0.9874
-6.2461 -2.0141 -1.6131 0.9733
-6.2153 -3.3166 -1.7316 0.9714
-5.2906 -7.1804 -2.1923 0.9639
-4.4906 -9.1380 -2.5027 0.9589
-3.9405 -10.2312 -2.6949 0.9558
-3.2657 -11.4210 -2.9198 0.9522
-2.4344 -12.6999 -3.1785 0.9481
-1.4170 -14.0857 -3.4797 0.9434
1.6559 -2.3556 -0.7078 0.9882
1.7417 -2.0600 -0.6631 0.9889
1.9755 -1.6328 -0.6300 0.9895
2.1221 -1.4567 -0.6327 0.9895
2.3052 -1.2969 -0.6501 0.9892
2.5368 -1.1430 -0.6839 0.9886
2.8784 -0.9995 -0.7489 0.9875
9.1855 9.9313 -3.3252 0.9458
7.5776 9.8186 -3.0486 0.9502
6.1524 9.6375 -2.8104 0.9540
2.5724 8.2928 -2.1342 0.9649
1.5166 7.0575 -1.7743 0.9707
-0.3898 6.9914 -1.7211 0.9716
-1.5001 6.2948 -1.5906 0.9737
-2.5764 5.8925 -1.5808 0.9739
-3.4054 5.0813 -1.5035 0.9751
-3.7701 4.6663 -1.4746 0.9756
-4.1051 4.2447 -1.4515 0.9760
-4.6943 3.3788 -1.4217 0.9765
-5.3963 2.0096 -1.4154 0.9766
-3.8036 1.0419 -0.9694 0.9839
-2.8807 0.2574 -0.7109 0.9882
-5.9663 -1.6343 -1.6300 0.9747
-5.9505 -2.8423 -1.7376 0.9731
-5.8915 -3.4895 -1.8043 0.9721
-5.7932 -4.1697 -1.8808 0.9709
-5.5876 -4.8318 -1.9465 0.9699
-5.3789 -5.5617 -2.0388 0.9685
-5.1291 -6.3484 -2.1506 0.9668
-3.3520 -10.0120 -2.7821 0.9573
-2.6418 -11.0855 -3.0028 0.9540
1.6931 -2.1938 -0.7302 0.9886
1.7887 -1.9340 -0.6942 0.9892
1.9054 -1.7234 -0.6770 0.9894
2.0454 -1.5425 -0.6750 0.9895
2.2057 -1.3737 -0.6847 0.9893
2.4011 -1.2133 -0.7089 0.9889
2.6755 -1.0648 -0.7588 0.9882
3.1595 -0.9416 -0.8687 0.9865
9.1663 9.0647 -3.3969 0.9481
7.6683 9.0701 -3.1296 0.9521
5.1102 8.8511 -2.6931 0.9586
4.0180 8.6587 -2.5152 0.9613
2.0091 7.6687 -2.0889 0.9677
0.5556 7.1098 -1.8791 0.9709
-2.6792 5.4520 -1.6007 0.9752
-3.0790 5.0688 -1.5627 0.9758
-4.3801 3.4590 -1.4706 0.9772
-4.8767 2.6023 -1.4565 0.9774
-5.0905 2.1586 -1.4570 0.9774
-3.2212 0.7298 -0.8703 0.9864
-2.8316 0.3808 -0.7529 0.9883
-2.8515 0.1272 -0.7521 0.9883
-2.9007 -0.1293 -0.7651 0.9881
-2.9836 -0.4013 -0.7933 0.9876
-5.9741 -1.9264 -1.6540 0.9744
-5.9665 -2.5300 -1.7077 0.9735
-5.2617 -5.9494 -2.0928 0.9677
-4.9802 -6.7591 -2.2123 0.9659
-4.6277 -7.6182 -2.3487 0.9638
-4.1923 -8.5310 -2.5047 0.9614
-3.0131 -10.5375 -2.8879 0.9557
-0.1566 -14.0574 -3.7043 0.9435
1.6497 -2.8574 -0.8694 0.9864
1.7383 -2.0560 -0.7094 0.9889
1.9724 -1.6302 -0.6743 0.9895
2.1187 -1.4544 -0.6771 0.9894
2.3018 -1.2950 -0.6959 0.9891
2.8754 -0.9984 -0.8020 0.9875
9.9776 9.0242 -3.5449 0.9459
8.3973 9.0790 -3.2587 0.9501
3.4440 8.3806 -2.3875 0.9632
1.6196 7.5371 -2.0313 0.9686
0.8938 7.2570 -1.9267 0.9702
-0.3705 6.6450 -1.7537 0.9728
-0.9218 6.3202 -1.6830 0.9739
-1.4954 6.2749 -1.6997 0.9737
-2.0130 6.0125 -1.6707 0.9741
-2.8833 5.2613 -1.5809 0.9755
-3.9435 4.0776 -1.4947 0.9768
-4.2410 3.6673 -1.4774 0.9771
-4.5131 3.2484 -1.4652 0.9773
-4.7614 2.8202 -1.4582 0.9774
-4.9864 2.3819 -1.4561 0.9774
-3.0018 0.5408 -0.8037 0.9875
-2.8348 0.2533 -0.7499 0.9883
-2.8279 0.0000 -0.7956 0.9883
-5.7190 -2.1298 -1.7170 0.9750
-5.6879 -2.7168 -1.7735 0.9741
-5.6220 -3.3299 -1.8384 0.9732
-5.3146 -4.5957 -1.9768 0.9712
-4.1520 -7.5763 -2.4308 0.9647
-1.6400 -11.2448 -3.1973 0.9539
-0.6840 -12.2675 -3.4569 0.9502
1.6391 -2.5676 -0.8571 0.9874
1.6955 -2.1969 -0.7808 0.9885
1.7864 -1.9314 -0.7402 0.9891
2.0421 -1.5400 -0.7196 0.9894
2.3975 -1.2115 -0.7558 0.9889
2.6718 -1.0633 -0.8091 0.9881
11.4528 7.8619 -3.9085 0.9439
8.4075 8.3144 -3.3269 0.9521
5.8701 8.3503 -2.8718 0.9585
4.7690 8.2601 -2.6836 0.9611
1.8965 7.2388 -2.1054 0.9694
-0.0721 6.4727 -1.8212 0.9735
-0.6264 6.2270 -1.7608 0.9743
-1.1949 6.2337 -1.7858 0.9740
-2.1505 5.5835 -1.6834 0.9754
-2.5699 5.2296 -1.6394 0.9761
-4.4668 2.9221 -1.5018 0.9781
-5.0844 1.6395 -1.5031 0.9780
-2.8531 -0.1272 -0.8035 0.9882
-2.9298 -0.3940 -0.8317 0.9878
-3.2049 -1.0334 -0.9474 0.9861
-4.9827 -5.6340 -2.1162 0.9692
-3.9290 -7.9953 -2.5065 0.9637
-3.4146 -8.8658 -2.6731 0.9613
-2.7969 -9.7813 -2.8623 0.9586
-1.1823 -11.7522 -3.3233 0.9521
-0.1425 -12.7909 -3.5990 0.9482
1.6589 -2.8732 -0.9335 0.9863
1.6591 -2.3601 -0.8117 0.9881
1.8446 -1.8242 -0.7299 0.9893
1.9692 -1.6276 -0.7188 0.9894
2.2983 -1.2930 -0.7420 0.9891
2.5300 -1.1400 -0.7808 0.9885
2.8753 -0.9984 -0.8564 0.9874
10.6407 8.0246 -3.7497 0.9461
7.7282 8.3557 -3.2023 0.9538
3.2990 8.0277 -2.4419 0.9646
-0.3529 6.3292 -1.7835 0.9740
-1.9274 5.7569 -1.7081 0.9751
-2.3645 5.4077 -1.6606 0.9758
-2.7670 5.0493 -1.6200 0.9764
-3.1378 4.6821 -1.5858 0.9769
-4.3441 3.1267 -1.5059 0.9780
-4.8007 2.2931 -1.4969 0.9781
-2.9229 0.5266 -0.8356 0.9877
-2.7824 0.0000 -0.8330 0.9884
-2.9224 -0.5265 -0.8890 0.9877
-3.0126 -0.8252 -0.9351 0.9870
-5.4826 -2.0417 -1.7515 0.9759
-5.4454 -2.6010 -1.8067 0.9751
-5.3739 -3.1830 -1.8699 0.9743
-5.2646 -3.7892 -1.9419 0.9733
-4.2884 -6.3987 -2.3061 0.9683
-3.9115 -7.1376 -2.4367 0.9666
-2.9157 -8.7087 -2.7495 0.9624
-2.2734 -9.5395 -2.9359 0.9599
1.6071 -13.0491 -3.9361 0.9466
2.9878 -13.9042 -4.2577 0.9423
1.6993 -2.2019 -0.8327 0.9885
1.7898 -1.9351 -0.7892 0.9891
1.9034 -1.7215 -0.7684 0.9893
2.2022 -1.3716 -0.7767 0.9892
2.3995 -1.2125 -0.8049 0.9888
2.6788 -1.0662 -0.8632 0.9880
11.9076 6.6992 -4.0904 0.9445
10.4291 7.1592 -3.7871 0.9486
9.0451 7.4760 -3.5131 0.9522
5.4752 7.7886 -2.8502 0.9610
4.4678 7.7386 -2.6752 0.9634
2.6924 7.4838 -2.3811 0.9673
1.8068 6.8964 -2.1343 0.9707
1.1214 6.6481 -2.0184 0.9722
0.5017 6.4199 -1.9278 0.9735
-0.0696 6.2449 -1.8697 0.9743
-1.1485 5.9918 -1.8265 0.9748
-2.4683 5.0228 -1.6755 0.9769
-3.1863 4.3246 -1.6082 0.9778
-3.5034 3.9614 -1.5832 0.9782
-3.7946 3.5890 -1.5637 0.9784
-4.5249 2.4146 -1.5355 0.9788
-3.0564 0.6925 -0.9382 0.9870
-2.7204 0.3659 -0.8218 0.9886
-2.7619 0.1232 -0.8277 0.9885
-2.8066 -0.1251 -0.8411 0.9883
-2.9771 -0.6745 -0.9139 0.9873
-3.1091 -1.0026 -0.9780 0.9865
-5.4681 -2.3186 -1.7781 0.9755
-5.3243 -3.4829 -1.9047 0.9738
-5.1923 -4.1003 -1.9807 0.9728
-4.9594 -4.6906 -2.0436 0.9719
-4.7296 -5.3479 -2.1374 0.9706
-3.1984 -8.3044 -2.6642 0.9635
-2.6080 -9.1206 -2.8400 0.9612
-1.9101 -9.9647 -3.0376 0.9585
2.2740 -13.4814 -4.0931 0.9445
1.6682 -2.8894 -0.9988 0.9862
1.9697 -1.6280 -0.7650 0.9894
2.1145 -1.4516 -0.7679 0.9893
2.2985 -1.2931 -0.7895 0.9890
2.8902 -1.0036 -0.9159 0.9873
12.6796 6.4073 -4.2532 0.9424
11.1570 6.9487 -3.9350 0.9466
8.3899 7.5882 -3.3867 0.9539
7.1530 7.7337 -3.1538 0.9570
4.9609 7.7712 -2.7602 0.9622
3.9953 7.6924 -2.5950 0.9645
2.2369 7.2112 -2.2604 0.9690
1.4512 6.7535 -2.0680 0.9716
-0.3470 6.2226 -1.8658 0.9743
-1.8481 5.5202 -1.7428 0.9760
-2.6589 4.8519 -1.6564 0.9772
-3.0177 4.5027 -1.6228 0.9776
-3.6522 3.7763 -1.5728 0.9783
-4.6268 2.2100 -1.5351 0.9788
-3.5598 0.9751 -1.1050 0.9847
-2.8473 0.5130 -0.8662 0.9880
-2.7412 0.2450 -0.8239 0.9886
-2.7380 0.0000 -0.8695 0.9886
-5.2629 -1.9599 -1.7835 0.9767
-5.2205 -2.4936 -1.8374 0.9760
-5.1446 -3.0471 -1.8989 0.9752
-5.0317 -3.6216 -1.9689 0.9743
-4.3681 -5.4064 -2.2074 0.9713
-4.0635 -6.0631 -2.3180 0.9698
-3.2557 -7.4460 -2.5809 0.9665
-2.1236 -8.9110 -2.9093 0.9623
-0.5813 -10.4249 -3.3159 0.9571
4.1074 -13.2411 -4.4029 0.9435
1.6499 -2.5846 -0.9738 0.9872
1.7032 -2.2070 -0.8853 0.9884
1.7933 -1.9389 -0.8388 0.9890
1.9071 -1.7248 -0.8166 0.9893
2.0459 -1.5429 -0.8138 0.9893
2.2073 -1.3747 -0.8258 0.9891
3.2403 -0.9657 -1.0738 0.9859
12.1858 5.4907 -4.2447 0.9455
10.8497 6.1040 -3.9536 0.9491
8.3461 6.8983 -3.4388 0.9556
6.1257 7.2455 -3.0132 0.9610
5.1268 7.2931 -2.8312 0.9633
4.2000 7.2747 -2.6677 0.9654
1.8059 6.8929 -2.2630 0.9705
1.1016 6.5306 -2.1033 0.9726
0.4951 6.3355 -2.0182 0.9737
-0.0695 6.2364 -1.9807 0.9742
-1.1006 5.7418 -1.8567 0.9758
-2.3735 4.8299 -1.7091 0.9777
-3.3760 3.8173 -1.6184 0.9788
-3.6582 3.4600 -1.5991 0.9791
-4.1521 2.7162 -1.5757 0.9794
-4.3651 2.3293 -1.5713 0.9794
-4.5564 1.9320 -1.5717 0.9794
-2.9791 0.6750 -0.9701 0.9873
-2.6672 0.3587 -0.8547 0.9888
-2.7612 -0.1231 -0.8778 0.9885
-2.9205 -0.6617 -0.9510 0.9875
-5.2457 -2.2244 -1.8095 0.9764
-4.9602 -3.9170 -2.0072 0.9738
-4.4989 -5.0869 -2.1567 0.9719
-3.8879 -6.4003 -2.3783 0.9691
-3.4851 -7.0919 -2.5095 0.9674
-3.0062 -7.8053 -2.6563 0.9655
-2.4414 -8.5381 -2.8203 0.9634
0.9033 -11.5603 -3.6826 0.9525
2.0708 -12.2762 -3.9538 0.9491
1.7457 -2.0648 -0.8587 0.9887
2.1187 -1.4544 -0.8161 0.9893
12.8671 5.1210 -4.3981 0.9435
7.7632 7.0214 -3.3243 0.9570
6.6528 7.1929 -3.1116 0.9597
2.9370 7.1468 -2.4539 0.9681
2.1737 7.0074 -2.3300 0.9697
1.4357 6.6811 -2.1702 0.9717
0.7905 6.4185 -2.0538 0.9732
0.2098 6.2761 -1.9943 0.9740
-0.8578 5.8819 -1.8878 0.9754
-1.7744 5.3000 -1.7750 0.9768
-2.1816 4.9895 -1.7294 0.9774
-3.2256 3.9923 -1.6300 0.9787
-3.5202 3.6399 -1.6081 0.9790
-3.7904 3.2777 -1.5914 0.9792
-4.0372 2.9058 -1.5797 0.9793
-4.4635 2.1321 -1.5709 0.9795
-2.7749 0.4999 -0.8954 0.9882
-2.7374 -0.2446 -0.9234 0.9885
-2.8177 -0.5076 -0.9619 0.9880
-4.9319 -2.9212 -1.9259 0.9761
-4.8163 -3.4666 -1.9938 0.9753
-4.6350 -4.0080 -2.0588 0.9745
-4.1582 -5.1466 -2.2230 0.9725
-3.8589 -5.7579 -2.3289 0.9712
-2.5741 -7.6885 -2.7241 0.9664
-1.9911 -8.3548 -2.8857 0.9644
-1.3162 -9.0248 -3.0642 0.9622
2.4789 -11.5357 -3.9643 0.9514
1.7072 -2.2121 -0.9388 0.9883
2.7031 -1.0758 -0.9775 0.9878
3.2733 -0.9756 -1.1476 0.9857
12.2819 4.2648 -4.3682 0.9466
11.1144 5.0079 -4.0958 0.9499
7.7416 6.3986 -3.3745 0.9585
6.7088 6.6345 -3.1701 0.9610
5.7333 6.7814 -2.9836 0.9632
4.8171 6.8525 -2.8143 0.9653
3.9601 6.8591 -2.6610 0.9671
3.1607 6.8112 -2.5228 0.9688
1.0826 6.4181 -2.1868 0.9729
0.4864 6.2239 -2.0975 0.9740
-0.0669 6.0056 -2.0179 0.9750
-0.5801 5.7666 -1.9472 0.9758
-1.0560 5.5095 -1.8848 0.9766
-2.2848 4.6495 -1.7405 0.9784
-2.6350 4.3378 -1.7052 0.9788
-2.9583 4.0151 -1.6756 0.9792
-3.5300 3.3387 -1.6325 0.9797
-4.0086 2.6223 -1.6094 0.9800
-4.2147 2.2491 -1.6051 0.9800
-4.5625 1.4712 -1.6106 0.9800
-2.6180 0.3521 -0.8875 0.9889
-2.6762 0.1193 -0.9001 0.9888
-2.7168 -0.1211 -0.9137 0.9886
-2.7751 -0.3732 -0.9408 0.9883
-5.0698 -1.6348 -1.7897 0.9778
-5.0386 -2.1366 -1.8388 0.9772
-4.7439 -3.7462 -2.0309 0.9748
-4.2874 -4.8478 -2.1744 0.9731
-4.0156 -5.4500 -2.2745 0.9718
-3.6873 -6.0702 -2.3863 0.9705
-2.8340 -7.3584 -2.6493 0.9673
-2.2935 -8.0208 -2.8029 0.9654
-1.6657 -8.6898 -2.9728 0.9634
-0.9415 -9.3585 -3.1602 0.9611
3.0899 -11.7940 -4.0963 0.9499
4.4044 -12.2422 -4.3713 0.9466
1.6887 -2.9249 -1.1347 0.9858
2.9207 -1.0142 -1.0388 0.9870
11.6986 4.6560 -4.2304 0.9483
10.5326 5.3224 -3.9649 0.9514
8.2781 6.2429 -3.4835 0.9572
7.2182 6.5285 -3.2700 0.9598
6.2137 6.7182 -3.0746 0.9621
4.3813 6.8632 -2.7357 0.9662
2.0645 6.6552 -2.3411 0.9710
0.2046 6.1175 -2.0565 0.9745
-0.8226 5.6401 -1.9150 0.9762
-3.1104 3.8498 -1.6629 0.9793
-3.6582 3.1634 -1.6249 0.9798
-3.8974 2.8052 -1.6134 0.9799
-2.6265 0.7195 -0.9150 0.9886
-2.7169 0.4895 -0.9275 0.9884
-2.6500 0.2368 -0.8939 0.9888
-4.8163 -2.3005 -1.8926 0.9776
-4.7340 -2.8039 -1.9510 0.9769
-4.6166 -3.3228 -2.0169 0.9761
-3.6720 -5.4791 -2.3388 0.9724
-1.8729 -7.8591 -2.8648 0.9663
-1.2335 -8.4578 -3.0308 0.9644
-0.5043 -9.0445 -3.2120 0.9623
0.3212 -9.6076 -3.4086 0.9600
1.2480 -10.1332 -3.6202 0.9576
3.4152 -11.0093 -4.0873 0.9523
4.6476 -11.3093 -4.3355 0.9494
5.9626 -11.4801 -4.5870 0.9466
1.6611 -2.6021 -1.0946 0.9870
1.9144 -1.7315 -0.9153 0.9891
2.2177 -1.3812 -0.9264 0.9890
2.4224 -1.2241 -0.9624 0.9885
2.7168 -1.0812 -1.0368 0.9877
3.3360 -0.9942 -1.2343 0.9853
13.1156 2.0624 -4.7077 0.9452
12.1984 3.0511 -4.4586 0.9480
11.2182 3.8954 -4.2108 0.9509
10.2069 4.5990 -3.9697 0.9536
8.1875 5.6204 -3.5214 0.9587
6.2768 6.2073 -3.1302 0.9632
5.3846 6.3689 -2.9573 0.9652
4.5398 6.4579 -2.7991 0.9671
2.9966 6.4576 -2.5243 0.9702
1.0335 6.1273 -2.2033 0.9740
0.4652 5.9529 -2.1172 0.9750
-0.0641 5.7536 -2.0403 0.9759
-2.2016 4.4802 -1.7700 0.9790
-2.8545 3.8742 -1.7063 0.9798
-3.1436 3.5546 -1.6826 0.9801
-3.6522 2.8842 -1.6502 0.9804
-3.8733 2.5338 -1.6412 0.9805
-4.2511 1.8027 -1.6373 0.9806
-2.5748 0.3463 -0.9212 0.9890
-2.6347 0.1175 -0.9351 0.9889
-2.6733 -0.1192 -0.9489 0.9887
-2.7260 -0.3666 -0.9753 0.9884
-2.8709 -0.9257 -1.0696 0.9873
-4.8452 -2.0545 -1.8661 0.9779
-4.6799 -3.0614 -1.9829 0.9765
-4.3223 -4.0880 -2.1096 0.9751
-2.1611 -7.5578 -2.7873 0.9672
-1.5641 -8.1594 -2.9459 0.9654
-0.8804 -8.7533 -3.1195 0.9634
-0.1039 -9.3298 -3.3084 0.9612
0.7717 -9.8761 -3.5126 0.9588
1.7504 -10.3774 -3.7317 0.9563
4.0200 -11.1735 -4.2106 0.9509
1.7549 -3.0395 -1.2445 0.9852
1.7537 -2.0743 -0.9631 0.9885
1.8582 -1.8376 -0.9266 0.9890
1.9814 -1.6376 -0.9115 0.9891
13.5389 1.5146 -4.8307 0.9438
12.6671 2.5747 -4.5834 0.9466
11.7140 3.4912 -4.3342 0.9494
7.6961 5.8040 -3.4180 0.9599
6.7398 6.0958 -3.2223 0.9622
5.8249 6.2979 -3.0419 0.9642
4.1357 6.4785 -2.7253 0.9679
1.3331 6.2039 -2.2500 0.9734
0.1958 5.8561 -2.0776 0.9754
-0.7898 5.4150 -1.9404 0.9770
-1.6414 4.9024 -1.8332 0.9783
-2.0219 4.6242 -1.7896 0.9788
-3.7655 2.7102 -1.6451 0.9805
-4.1646 1.9893 -1.6365 0.9806
-2.5828 0.7075 -0.9496 0.9887
-2.6624 0.4796 -0.9592 0.9886
-2.6060 0.2329 -0.9277 0.9890
-2.7171 -0.4895 -1.0309 0.9883
-2.7878 -0.7637 -1.0794 0.9877
-4.4306 -3.1889 -2.0384 0.9770
-3.7879 -4.6883 -2.2507 0.9746
-2.2988 -6.8660 -2.7037 0.9696
-1.7668 -7.4140 -2.8460 0.9680
-0.4725 -8.4736 -3.1691 0.9644
1.1599 -9.4181 -3.5434 0.9603
2.1086 -9.8125 -3.7478 0.9581
4.2564 -10.3574 -4.1814 0.9533
1.6847 -2.6391 -1.1692 0.9867
1.7154 -2.2226 -1.0484 0.9881
2.0582 -1.5521 -0.9626 0.9891
2.2231 -1.3845 -0.9779 0.9889
13.7647 -2.7978 -5.2450 0.9418
13.1843 -0.2938 -4.9244 0.9452
12.6305 0.8455 -4.7269 0.9474
11.1626 2.7920 -4.2966 0.9521
10.3143 3.5815 -4.0770 0.9545
9.4280 4.2481 -3.8614 0.9568
8.5266 4.7970 -3.6532 0.9591
7.6285 5.2367 -3.4551 0.9613
5.8929 5.8276 -3.0948 0.9652
5.0724 5.9996 -2.9337 0.9670
3.5478 6.1450 -2.6496 0.9702
0.9882 5.8586 -2.2186 0.9750
0.4455 5.7016 -2.1355 0.9759
-0.9757 5.0904 -1.9354 0.9781
-1.3865 4.8490 -1.8832 0.9787
-1.7686 4.5920 -1.8375 0.9792
-2.1234 4.3210 -1.7978 0.9797
-2.4524 4.0370 -1.7638 0.9800
-2.7567 3.7413 -1.7353 0.9804
-3.7454 2.4501 -1.6712 0.9811
-3.9386 2.1018 -1.6670 0.9811
-4.1110 1.7433 -1.6674 0.9811
-2.5436 0.5763 -0.9739 0.9889
-2.8043 -0.9043 -1.1002 0.9875
-4.4944 -2.9401 -2.0054 0.9773
-4.3575 -3.4410 -2.0733 0.9766
-4.1409 -3.9164 -2.1283 0.9760
-3.6505 -4.9545 -2.2980 0.9741
-2.5383 -6.5905 -2.6372 0.9703
-1.4731 -7.6849 -2.9219 0.9671
0.7188 -9.1984 -3.4453 0.9614
1.6233 -9.6235 -3.6443 0.9592
2.6153 -9.9827 -3.8535 0.9569
13.6949 -2.1534 -5.1766 0.9425
13.4012 -0.8971 -5.0154 0.9443
12.3021 1.3762 -4.6224 0.9485
7.1850 5.4185 -3.3604 0.9623
6.3162 5.7127 -3.1801 0.9643
3.1922 6.1462 -2.5861 0.9709
1.8730 6.0379 -2.3606 0.9734
-0.3022 5.4195 -2.0268 0.9771
-0.7590 5.2049 -1.9641 0.9778
-1.1848 4.9718 -1.9085 0.9784
-1.5811 4.7223 -1.8596 0.9790
-2.2910 4.1806 -1.7801 0.9799
-3.1690 3.2767 -1.7022 0.9807
-3.6408 2.6206 -1.6751 0.9810
-3.8446 2.2772 -1.6685 0.9811
-4.0274 1.9238 -1.6666 0.9811
-4.1894 1.5602 -1.6693 0.9811
-2.5629 0.2290 -0.9608 0.9891
-2.5691 0.0000 -1.0083 0.9890
-2.6685 -0.4807 -1.0642 0.9884
-2.7221 -0.7457 -1.1077 0.9879
-4.4626 -2.1316 -1.9410 0.9790
-4.3764 -2.5921 -1.9963 0.9784
-4.0954 -3.5414 -2.1249 0.9770
-3.8636 -3.9949 -2.1812 0.9764
-3.3424 -4.9871 -2.3562 0.9745
-3.0110 -5.4944 -2.4590 0.9734
-1.6710 -7.0119 -2.8291 0.9695
-1.0937 -7.4991 -2.9743 0.9680
-0.4441 -7.9647 -3.1308 0.9663
2.9104 -9.3821 -3.8553 0.9587
4.9897 -9.6069 -4.2487 0.9545
1.7137 -2.6844 -1.2499 0.9864
1.7235 -2.2332 -1.1071 0.9880
1.9221 -1.7384 -1.0171 0.9889
2.2285 -1.3879 -1.0304 0.9888
2.4384 -1.2322 -1.0722 0.9883
2.7452 -1.0926 -1.1596 0.9874
12.0017 -0.2674 -4.7115 0.9497
11.5390 0.7725 -4.5389 0.9515
10.9553 1.7227 -4.3525 0.9535
8.7518 3.9434 -3.7674 0.9596
7.9458 4.4703 -3.5781 0.9616
3.3692 5.8356 -2.6446 0.9715
2.7101 5.8401 -2.5268 0.9727
2.0868 5.8003 -2.4193 0.9739
0.4273 5.4679 -2.1525 0.9767
-0.0591 5.3006 -2.0805 0.9775
-0.9394 4.9006 -1.9584 0.9788
-1.7058 4.4292 -1.8628 0.9798
-2.0496 4.1710 -1.8239 0.9802
-2.3687 3.8995 -1.7907 0.9806
-2.6641 3.6158 -1.7627 0.9809
-2.9366 3.3206 -1.7397 0.9811
-3.6241 2.3709 -1.6997 0.9816
-3.8115 2.0339 -1.6956 0.9816
-2.5568 0.5793 -1.0289 0.9888
-2.4910 0.3350 -0.9865 0.9893
-2.6312 -0.3539 -1.0420 0.9887
-2.7236 -0.8782 -1.1231 0.9878
-4.4940 -1.9056 -1.9158 0.9792
-4.4235 -2.3604 -1.9678 0.9787
-4.3210 -2.8266 -2.0265 0.9781
-3.4890 -4.7353 -2.3085 0.9750
-2.4103 -6.2580 -2.6320 0.9716
-1.9338 -6.7629 -2.7606 0.9702
-1.3912 -7.2577 -2.9003 0.9687
-0.0912 -8.1866 -3.2132 0.9654
0.6721 -8.6009 -3.3859 0.9636
3.4101 -9.4785 -3.9535 0.9576
4.4517 -9.5932 -4.1507 0.9556
5.5360 -9.5886 -4.3454 0.9535
1.7045 -2.4247 -1.1632 0.9873
2.1358 -1.4662 -1.0168 0.9889
2.5766 -1.1610 -1.1092 0.9879
12.4551 -3.1152 -5.0388 0.9463
12.4094 -1.9513 -4.9302 0.9475
12.1789 -0.8153 -4.7906 0.9489
11.7873 0.2627 -4.6273 0.9506
11.2606 1.2597 -4.4470 0.9525
10.6270 2.1600 -4.2561 0.9545
9.9142 2.9548 -4.0602 0.9565
9.1479 3.6408 -3.8642 0.9586
7.5401 4.6961 -3.4863 0.9625
5.9383 5.3709 -3.1425 0.9662
4.4232 5.7313 -2.8414 0.9694
3.7120 5.8147 -2.7075 0.9708
1.7885 5.7655 -2.3692 0.9744
-0.7304 5.0080 -1.9863 0.9785
-1.5243 4.5529 -1.8844 0.9796
-1.8809 4.3018 -1.8426 0.9800
-2.8031 3.4696 -1.7506 0.9810
-3.0646 3.1688 -1.7301 0.9812
-3.7204 2.2037 -1.6971 0.9816
-3.8975 1.8617 -1.6952 0.9816
-4.0540 1.5098 -1.6978 0.9816
-3.4629 0.9486 -1.4092 0.9847
-2.5656 -0.2293 -1.0607 0.9889
-2.6410 -0.7234 -1.1276 0.9882
-2.6436 -0.9845 -1.1616 0.9879
-4.3015 -2.0547 -1.9630 0.9796
-4.0943 -2.9469 -2.0773 0.9784
-3.9365 -3.4040 -2.1430 0.9777
-3.1961 -4.7689 -2.3640 0.9755
-2.8738 -5.2440 -2.4624 0.9745
-2.5002 -5.7182 -2.5699 0.9734
-0.4186 -7.5082 -3.0965 0.9680
1.0141 -8.2337 -3.4161 0.9647
1.8301 -8.5168 -3.5871 0.9630
2.7075 -8.7281 -3.7630 0.9612
3.6379 -8.8524 -3.9411 0.9594
4.6091 -8.8741 -4.1177 0.9577
1.7440 -2.7319 -1.3346 0.9861
1.8156 -1.9630 -1.1011 0.9885
1.9260 -1.7419 -1.0693 0.9888
2.4474 -1.2367 -1.1291 0.9882
2.7804 -1.1066 -1.2323 0.9871
11.2872 -3.3640 -4.8499 0.9503
11.3591 -2.3088 -4.7731 0.9511
11.2595 -1.2596 -4.6654 0.9522
9.5156 2.3800 -4.0390 0.9585
8.8592 3.0763 -3.8617 0.9602
7.4328 4.1816 -3.5118 0.9638
6.6964 4.5968 -3.3446 0.9655
5.2397 5.1817 -3.0345 0.9686
3.8571 5.4868 -2.7617 0.9714
1.4348 5.4766 -2.3312 0.9758
0.9071 5.3780 -2.2458 0.9767
-0.9052 4.7223 -1.9799 0.9794
-1.9800 4.0292 -1.8486 0.9808
-2.2896 3.7693 -1.8160 0.9811
-2.5765 3.4969 -1.7886 0.9814
-3.6908 1.9695 -1.7226 0.9821
-3.9936 1.2878 -1.7279 0.9820
-2.6388 0.5979 -1.1141 0.9884
-2.4504 0.3296 -1.0181 0.9894
-2.5068 0.1118 -1.0333 0.9892
-2.5854 -0.3477 -1.0742 0.9888
-4.2617 -2.2741 -1.9891 0.9793
-4.0216 -3.1758 -2.1101 0.9781
-3.8187 -3.6117 -2.1644 0.9775
-3.5919 -4.0614 -2.2326 0.9768
-3.3393 -4.5321 -2.3181 0.9759
-2.6937 -5.4814 -2.5150 0.9739
-0.0858 -7.7055 -3.1732 0.9672
0.6306 -8.0698 -3.3331 0.9656
2.2616 -8.6323 -3.6746 0.9621
5.1048 -8.8417 -4.2041 0.9568
1.7233 -2.4514 -1.2339 0.9871
1.8706 -1.8499 -1.0833 0.9887
1.9936 -1.6478 -1.0650 0.9889
2.3322 -1.3121 -1.1019 0.9885
11.3449 -2.8375 -4.8155 0.9507
11.3311 -1.7817 -4.7233 0.9516
10.8214 0.2412 -4.4572 0.9543
10.3710 1.1602 -4.2972 0.9559
9.8207 1.9962 -4.1267 0.9576
9.1942 2.7402 -3.9506 0.9593
8.5133 3.3883 -3.7731 0.9611
5.5989 5.0640 -3.1087 0.9679
4.1934 5.4336 -2.8263 0.9707
3.5277 5.5262 -2.6997 0.9720
2.2850 5.5603 -2.4754 0.9743
1.7103 5.5136 -2.3771 0.9753
1.1671 5.4312 -2.2875 0.9763
0.6549 5.3174 -2.2061 0.9771
-0.2794 5.0104 -2.0664 0.9785
-0.7034 4.8232 -2.0071 0.9791
-1.1002 4.6168 -1.9543 0.9797
-1.4708 4.3932 -1.9077 0.9802
-1.8163 4.1541 -1.8669 0.9806
-2.4359 3.6346 -1.8017 0.9813
-3.1985 2.7659 -1.7412 0.9819
-3.4107 2.4549 -1.7304 0.9820
-3.7741 1.8027 -1.7223 0.9821
-3.9255 1.4619 -1.7249 0.9820
-2.5181 0.4537 -1.0536 0.9890
-2.5221 -0.2254 -1.0923 0.9890
-2.5389 -0.4574 -1.1128 0.9888
-4.0614 -2.4056 -2.0362 0.9796
-3.7875 -3.2752 -2.1599 0.9784
-2.7469 -5.0124 -2.4655 0.9754
-2.3852 -5.4551 -2.5682 0.9744
-1.9721 -5.8905 -2.6795 0.9733
-1.5046 -6.3134 -2.7996 0.9721
0.2487 -7.4391 -3.2107 0.9681
0.9530 -7.7373 -3.3628 0.9666
1.7146 -7.9792 -3.5205 0.9651
2.5288 -8.1520 -3.6817 0.9635
4.2782 -8.2371 -4.0038 0.9604
1.7758 -2.7818 -1.4236 0.9857
1.8287 -1.9772 -1.1618 0.9883
1.9381 -1.7529 -1.1272 0.9887
2.4709 -1.2486 -1.1942 0.9880
10.3457 -3.0833 -4.6567 0.9541
10.4253 -2.1190 -4.5890 0.9547
9.3710 1.4736 -4.0919 0.9595
7.6345 3.4400 -3.6121 0.9642
6.3035 4.3271 -3.2981 0.9672
3.6683 5.2182 -2.7514 0.9726
1.3751 5.2485 -2.3404 0.9766
0.3943 5.0460 -2.1833 0.9782
-0.4768 4.7395 -2.0547 0.9795
-1.9140 3.8950 -1.8720 0.9813
-2.7507 3.1103 -1.7911 0.9821
-2.9873 2.8254 -1.7737 0.9822
-3.3997 2.2240 -1.7524 0.9825
-3.5760 1.9082 -1.7484 0.9825
-2.5715 0.5826 -1.1373 0.9886
-2.4106 0.3242 -1.0492 0.9895
-2.4655 0.1100 -1.0645 0.9893
-2.5076 -0.1118 -1.0828 0.9891
-2.6695 -1.1320 -1.2508 0.9874
-4.1094 -2.1928 -2.0092 0.9799
-4.0057 -2.6204 -2.0647 0.9794
-2.1853 -5.6740 -2.6228 0.9739
2.9531 -8.2083 -3.7629 0.9627
1.7897 -2.1169 -1.1957 0.9880
2.3481 -1.3210 -1.1621 0.9883
10.4047 -2.6024 -4.6264 0.9544
10.4085 -1.6367 -4.5450 0.9551
9.9914 0.2227 -4.3109 0.9574
9.6020 1.0742 -4.1677 0.9588
9.1193 1.8536 -4.0141 0.9603
5.2923 4.7866 -3.0781 0.9694
1.6378 5.2797 -2.3845 0.9762
1.1194 5.2091 -2.2983 0.9771
0.1665 4.9782 -2.1486 0.9785
-0.2690 4.8246 -2.0843 0.9792
-0.6781 4.6493 -2.0267 0.9797
-2.3567 3.5165 -1.8260 0.9817
-2.6247 3.2487 -1.8015 0.9820
-2.8716 2.9693 -1.7818 0.9822
-3.0980 2.6790 -1.7667 0.9823
-3.3041 2.3782 -1.7560 0.9824
-3.6567 1.7467 -1.7480 0.9825
-3.8032 1.4164 -1.7506 0.9825
-3.9297 1.0765 -1.7576 0.9824
-2.4387 0.2179 -1.0561 0.9894
-2.4282 0.0000 -1.0956 0.9894
-2.4481 -0.2188 -1.1090 0.9893
-2.4702 -0.6767 -1.1556 0.9888
-2.4890 -0.9269 -1.1984 0.9884
-4.0063 -1.9136 -2.0033 0.9807
-3.9175 -2.3203 -2.0544 0.9802
-3.7981 -2.7337 -2.1115 0.9797
-3.4262 -3.5426 -2.2238 0.9786
-2.9339 -4.3777 -2.3779 0.9771
-2.6291 -4.7974 -2.4684 0.9763
-2.2789 -5.2118 -2.5667 0.9753
-1.8806 -5.6170 -2.6728 0.9743
-0.3748 -6.7214 -3.0375 0.9709
0.8981 -7.2917 -3.3150 0.9683
3.9878 -7.6779 -3.9038 0.9627
1.8423 -1.9919 -1.2243 0.9882
2.0919 -1.5776 -1.1822 0.9886
2.8611 -1.1387 -1.3895 0.9866
9.5385 -2.8428 -4.4910 0.9573
9.5735 -1.0709 -4.3467 0.9586
9.1121 0.6100 -4.1207 0.9607
8.7265 1.3722 -3.9859 0.9620
8.2626 2.0667 -3.8431 0.9633
7.7374 2.6867 -3.6957 0.9647
5.3253 4.4015 -3.1174 0.9701
4.7038 4.6517 -2.9850 0.9714
3.4947 4.9713 -2.7419 0.9737
2.9166 5.0517 -2.6320 0.9747
2.3601 5.0860 -2.5299 0.9757
1.3193 5.0358 -2.3489 0.9774
0.3793 4.8547 -2.1972 0.9789
-0.0526 4.7239 -2.1316 0.9795
-0.4597 4.5700 -2.0725 0.9800
-0.8425 4.3955 -2.0194 0.9806
-1.5378 3.9927 -1.9306 0.9814
-2.1435 3.5287 -1.8629 0.9820
-2.6646 3.0129 -1.8149 0.9825
-3.1049 2.4519 -1.7851 0.9828
-3.2955 2.1558 -1.7769 0.9829
-3.6182 1.5343 -1.7733 0.9829
-2.5489 0.5775 -1.1792 0.9886
-2.4521 -0.3298 -1.1164 0.9892
-2.4671 -0.5590 -1.1414 0.9890
-2.4891 -1.0554 -1.2199 0.9882
-3.7263 -2.9427 -2.1425 0.9794
-3.5396 -3.3477 -2.1983 0.9788
-3.3138 -3.7470 -2.2570 0.9783
-3.0703 -4.1670 -2.3355 0.9775
-2.0859 -5.4159 -2.6187 0.9749
-0.6593 -6.5537 -2.9721 0.9715
-0.0766 -6.8802 -3.1047 0.9703
1.9855 -7.5787 -3.5351 0.9662
2.7640 -7.6825 -3.6840 0.9648
3.5744 -7.7026 -3.8316 0.9634
4.4042 -7.6284 -3.9746 0.9621
1.7630 -2.5079 -1.3832 0.9866
1.8048 -2.1348 -1.2614 0.9878
2.1671 -1.4876 -1.1861 0.9885
2.6448 -1.1917 -1.3089 0.9874
3.2298 -1.1215 -1.5427 0.9851
9.5977 -2.4005 -4.4641 0.9575
9.5011 -0.6360 -4.2967 0.9591
9.2686 0.2066 -4.1832 0.9601
8.9302 0.9990 -4.0546 0.9613
7.4570 2.9679 -3.6214 0.9654
6.2596 3.8985 -3.3274 0.9682
4.3962 4.7532 -2.9214 0.9720
0.6048 4.9107 -2.2325 0.9785
-1.3725 4.0996 -1.9507 0.9812
-1.6974 3.8820 -1.9117 0.9816
-2.5420 3.1463 -1.8251 0.9824
-3.2026 2.3051 -1.7805 0.9828
-3.5449 1.6933 -1.7726 0.9829
-3.6867 1.3730 -1.7751 0.9829
-3.8089 1.0434 -1.7819 0.9828
-2.4063 0.4335 -1.1032 0.9893
-2.3848 0.2131 -1.0804 0.9895
-2.3615 0.0000 -1.1132 0.9896
-2.3934 -0.6556 -1.1698 0.9891
-2.4034 -0.8950 -1.2089 0.9887
-3.7814 -2.2397 -2.0717 0.9808
-3.2979 -3.4100 -2.2362 0.9792
-3.0720 -3.8022 -2.3041 0.9786
-2.8158 -4.2015 -2.3842 0.9779
-2.1802 -4.9862 -2.5652 0.9762
-1.3647 -5.7263 -2.7749 0.9743
-0.3557 -6.3797 -3.0119 0.9721
0.2226 -6.6565 -3.1395 0.9710
0.8485 -6.8889 -3.2718 0.9698
1.5188 -7.0677 -3.4076 0.9685
2.2281 -7.1829 -3.5450 0.9673
2.9689 -7.2245 -3.6818 0.9660
3.7308 -7.1830 -3.8154 0.9648
4.5004 -7.0498 -3.9425 0.9637
1.7874 -2.3159 -1.3790 0.9871
1.8563 -2.0070 -1.2886 0.9880
1.9664 -1.7785 -1.2498 0.9883
2.1071 -1.5891 -1.2440 0.9884
2.2832 -1.4220 -1.2679 0.9882
2.9041 -1.1558 -1.4734 0.9863
8.9254 -1.8141 -4.2933 0.9605
8.1553 1.2824 -3.8914 0.9642
7.2670 2.5234 -3.6261 0.9666
6.1979 3.4869 -3.3521 0.9690
3.8966 4.6090 -2.8450 0.9737
3.3346 4.7435 -2.7332 0.9747
2.7880 4.8290 -2.6284 0.9756
2.2600 4.8702 -2.5308 0.9765
1.2672 4.8368 -2.3569 0.9781
0.8046 4.7702 -2.2803 0.9788
-0.0507 4.5539 -2.1467 0.9801
-1.4875 3.8621 -1.9509 0.9819
-3.0107 2.3776 -1.8083 0.9832
-3.1960 2.0907 -1.8002 0.9833
-3.3622 1.7941 -1.7964 0.9833
-3.5092 1.4881 -1.7967 0.9833
-3.6370 1.1728 -1.8013 0.9832
-2.5265 0.5724 -1.2211 0.9886
-2.2973 0.3090 -1.0926 0.9898
-2.3488 0.1047 -1.1083 0.9897
-2.3694 -0.1057 -1.1180 0.9896
-2.4109 -1.0223 -1.2344 0.9885
-3.8295 -2.0435 -2.0461 0.9810
-3.7259 -2.4373 -2.0987 0.9805
-3.4126 -3.2275 -2.2141 0.9794
-3.1884 -3.6051 -2.2686 0.9789
-2.9488 -4.0021 -2.3433 0.9783
-2.6728 -4.4001 -2.4268 0.9775
-2.3553 -4.7928 -2.5173 0.9767
-1.5863 -5.5475 -2.7198 0.9748
-1.1309 -5.8998 -2.8317 0.9738
-0.6265 -6.2273 -2.9502 0.9727
-0.0727 -6.5230 -3.0750 0.9716
1.1783 -6.9856 -3.3394 0.9692
3.3480 -7.2147 -3.7492 0.9654
1.7948 -2.5531 -1.4711 0.9863
1.9118 -1.8906 -1.2674 0.9882
2.0334 -1.6806 -1.2435 0.9884
8.7489 -3.0379 -4.3656 0.9599
8.9234 -1.4031 -4.2580 0.9608
8.8319 -0.5912 -4.1725 0.9616
8.6318 0.1924 -4.0698 0.9625
7.5105 2.2384 -3.6942 0.9659
7.0122 2.7908 -3.5576 0.9672
6.4761 3.2725 -3.4203 0.9684
5.9149 3.6838 -3.2846 0.9697
5.3396 4.0268 -3.1524 0.9709
3.0592 4.7921 -2.6799 0.9752
1.5071 4.8583 -2.3977 0.9778
-0.9904 4.1560 -2.0139 0.9813
-2.4633 3.0489 -1.8476 0.9828
-2.6968 2.7886 -1.8286 0.9830
-3.1058 2.2354 -1.8038 0.9832
-3.4381 1.6423 -1.7960 0.9833
-3.5755 1.3316 -1.7985 0.9833
-2.3094 -0.2064 -1.1404 0.9897
-2.3082 -0.4158 -1.1536 0.9896
-3.6525 -2.1634 -2.0880 0.9813
-3.3861 -2.9280 -2.2018 0.9802
-3.1778 -3.2858 -2.2483 0.9798
-2.9552 -3.6576 -2.3129 0.9793
-2.7052 -4.0365 -2.3900 0.9786
-2.0883 -4.7761 -2.5639 0.9770
-1.7174 -5.1296 -2.6607 0.9762
-1.3027 -5.4662 -2.7639 0.9753
1.4349 -6.6775 -3.3593 0.9700
2.1005 -6.7712 -3.4870 0.9689
2.7926 -6.7954 -3.6136 0.9678
3.5016 -6.7418 -3.7366 0.9667
4.2153 -6.6032 -3.8532 0.9657
2.3020 -1.4337 -1.3339 0.9880
2.5465 -1.2868 -1.4033 0.9874
8.2253 -2.4514 -4.2215 0.9625
8.3134 -1.6898 -4.1726 0.9629
8.2922 -0.9276 -4.1040 0.9635
8.1673 -0.1820 -4.0181 0.9642
7.9478 0.5321 -3.9179 0.9651
7.6451 1.2022 -3.8065 0.9661
7.2720 1.8189 -3.6869 0.9671
6.8416 2.3757 -3.5622 0.9682
6.3696 2.8700 -3.4362 0.9693
5.8631 3.2986 -3.3089 0.9705
4.7973 3.9651 -3.0612 0.9726
4.2553 4.2082 -2.9436 0.9737
3.7166 4.3960 -2.8314 0.9747
2.1666 4.6689 -2.5316 0.9773
1.6827 4.6770 -2.4447 0.9781
-0.4284 4.2584 -2.1051 0.9811
-0.7865 4.1030 -2.0548 0.9815
-1.4396 3.7379 -1.9701 0.9823
-1.7354 3.5315 -1.9354 0.9826
-2.2674 3.0773 -1.8800 0.9831
-2.5042 2.8315 -1.8592 0.9833
-3.1009 2.0286 -1.8226 0.9836
-3.4050 1.4439 -1.8191 0.9836
-2.3108 -0.3108 -1.1468 0.9897
-2.3142 -0.5243 -1.1671 0.9895
-2.3173 -0.7472 -1.1976 0.9892
-2.3375 -0.9912 -1.2488 0.9887
-3.7006 -1.9746 -2.0631 0.9815
-3.4643 -2.7357 -2.1712 0.9805
-2.5660 -4.2243 -2.4310 0.9782
-2.2578 -4.5945 -2.5180 0.9774
-1.9082 -4.9546 -2.6115 0.9766
-1.0785 -5.6266 -2.8178 0.9748
-0.5963 -5.9275 -2.9302 0.9738
-0.0690 -6.1963 -3.0479 0.9728
1.1145 -6.6073 -3.2957 0.9706
1.7639 -6.7325 -3.4232 0.9695
2.4438 -6.7926 -3.5506 0.9683
3.8587 -6.6835 -3.7959 0.9662
1.8367 -2.1725 -1.3992 0.9874
2.0485 -1.6931 -1.3072 0.9882
2.2020 -1.5116 -1.3137 0.9882
2.7117 -1.2218 -1.4629 0.9868
8.2833 -2.0718 -4.1997 0.9627
8.2422 -0.5517 -4.0630 0.9638
7.8061 0.8733 -3.8634 0.9656
6.6091 2.6304 -3.4987 0.9688
3.9852 4.3088 -2.8868 0.9742
3.4501 4.4704 -2.7774 0.9751
2.9256 4.5829 -2.6743 0.9761
1.4479 4.6677 -2.4037 0.9785
0.9938 4.6247 -2.3266 0.9791
-0.6101 4.1832 -2.0793 0.9813
-0.9576 4.0182 -2.0317 0.9818
-1.2841 3.8354 -1.9894 0.9821
-1.5901 3.6366 -1.9521 0.9825
-1.8758 3.4229 -1.9198 0.9828
-3.5835 0.9816 -1.8275 0.9836
-2.3061 0.4155 -1.1525 0.9896
-2.2658 0.2025 -1.1189 0.9899
-2.2359 0.0000 -1.1463 0.9900
-2.2481 -0.6158 -1.1950 0.9896
-2.2593 -0.8414 -1.2360 0.9892
-3.5302 -2.0909 -2.1035 0.9817
-3.2667 -2.8248 -2.2141 0.9808
-3.0657 -3.1699 -2.2608 0.9804
-2.8453 -3.5216 -2.3211 0.9799
-2.3210 -4.2354 -2.4760 0.9785
-1.2452 -5.2250 -2.7537 0.9761
-0.3222 -5.7779 -2.9668 0.9743
0.7622 -6.1888 -3.1968 0.9724
1.9849 -6.3985 -3.4345 0.9703
2.1389 -1.6130 -1.3734 0.9880
2.3214 -1.4458 -1.4020 0.9878
3.1811 -1.2660 -1.7553 0.9847
7.6835 -2.2899 -4.1103 0.9646
7.7717 -1.5796 -4.0658 0.9650
7.7602 -0.8681 -4.0032 0.9655
7.1881 1.1303 -3.7304 0.9678
6.4574 2.2423 -3.5044 0.9697
6.0260 2.7152 -3.3885 0.9707
5.0682 3.4792 -3.1516 0.9727
4.0572 4.0123 -2.9253 0.9747
2.5572 4.4292 -2.6220 0.9773
1.1723 4.4746 -2.3714 0.9794
0.3395 4.3450 -2.2343 0.9806
-0.0473 4.2412 -2.1745 0.9811
-0.7605 3.9677 -2.0712 0.9820
-1.3940 3.6196 -1.9885 0.9827
-1.6814 3.4216 -1.9545 0.9830
-2.4292 2.7468 -1.8799 0.9837
-2.6411 2.4980 -1.8637 0.9838
-2.8347 2.2386 -1.8518 0.9839
-3.3053 1.4016 -1.8406 0.9840
-3.4251 1.1045 -1.8450 0.9840
-2.4709 0.5598 -1.2989 0.9887
-2.2093 0.2971 -1.1428 0.9900
-2.2425 -0.5081 -1.1788 0.9897
-2.3837 -1.2719 -1.3851 0.9879
-3.3439 -2.6406 -2.1844 0.9810
-1.8285 -4.7475 -2.6082 0.9774
-1.4499 -5.0707 -2.7038 0.9766
-0.5685 -5.6509 -2.9117 0.9748
-0.0657 -5.8961 -3.0230 0.9738
0.4769 -6.1025 -3.1381 0.9729
2.3070 -6.4122 -3.4937 0.9698
2.9637 -6.3867 -3.6096 0.9688
3.6286 -6.2850 -3.7206 0.9679
1.9415 -1.9200 -1.3998 0.9878
2.0641 -1.7060 -1.3728 0.9880
2.2203 -1.5241 -1.3807 0.9880
2.7853 -1.2550 -1.5662 0.9864
7.6014 -2.6395 -4.1253 0.9645
7.7402 -1.9359 -4.0904 0.9648
7.7782 -1.2230 -4.0366 0.9652
7.3329 0.8203 -3.7828 0.9674
6.6598 1.9848 -3.5627 0.9692
6.2450 2.4854 -3.4458 0.9702
5.3153 3.3104 -3.2103 0.9722
4.3116 3.8996 -2.9804 0.9742
3.8030 4.1119 -2.8714 0.9751
2.8013 4.3883 -2.6690 0.9769
1.8461 4.4922 -2.4899 0.9784
1.3924 4.4887 -2.4094 0.9791
0.9568 4.4528 -2.3349 0.9797
0.5404 4.3877 -2.2664 0.9803
-0.5897 4.0437 -2.0950 0.9818
-0.9263 3.8871 -2.0486 0.9822
-1.2431 3.7129 -2.0073 0.9826
-1.5402 3.5225 -1.9709 0.9829
-1.8179 3.3172 -1.9393 0.9831
-2.3163 2.8670 -1.8896 0.9836
-2.7402 2.3696 -1.8572 0.9838
-2.9246 2.1050 -1.8473 0.9839
-3.2384 1.5469 -1.8399 0.9840
-3.3676 1.2541 -1.8423 0.9840
-2.2585 0.4069 -1.1765 0.9897
-2.1765 0.0000 -1.1619 0.9902
-2.1873 -0.5992 -1.2107 0.9898
-2.1932 -0.8167 -1.2494 0.9894
-3.4140 -2.0221 -2.1182 0.9822
-3.2982 -2.3739 -2.1694 0.9817
-3.1537 -2.7271 -2.2257 0.9813
0.1912 -5.7175 -3.0540 0.9744
1.8796 -6.0593 -3.3868 0.9716
2.4895 -6.0578 -3.4964 0.9707
1.9179 -2.4851 -1.6758 0.9859
1.9298 -2.0865 -1.5172 0.9872
2.3534 -1.4657 -1.4801 0.9875
2.6373 -1.3327 -1.5774 0.9867
7.2847 -0.8149 -3.9132 0.9673
7.1933 -0.1603 -3.8411 0.9679
6.7760 1.0655 -3.6618 0.9694
6.1084 2.1211 -3.4519 0.9711
5.7126 2.5740 -3.3449 0.9720
4.3515 3.5966 -3.0138 0.9747
3.8737 3.8308 -2.9084 0.9756
3.3949 4.0155 -2.8071 0.9764
2.4531 4.2488 -2.6191 0.9780
1.9974 4.3042 -2.5331 0.9787
1.5554 4.3233 -2.4528 0.9794
1.1289 4.3092 -2.3780 0.9800
0.7194 4.2649 -2.3089 0.9806
0.3277 4.1933 -2.2454 0.9811
-1.0526 3.6813 -2.0440 0.9828
-1.3506 3.5067 -2.0061 0.9831
-2.3575 2.6656 -1.8997 0.9840
-2.7522 2.1734 -1.8721 0.9842
-3.0752 1.6410 -1.8608 0.9843
-3.3258 1.0724 -1.8655 0.9843
-2.4373 0.5522 -1.3341 0.9887
-2.1681 0.2916 -1.1679 0.9901
-2.1735 0.0969 -1.1615 0.9902
-2.1765 -0.0970 -1.1631 0.9902
-2.1810 -0.2933 -1.1748 0.9901
-2.1806 -0.4941 -1.1936 0.9899
-2.1912 -0.7066 -1.2291 0.9896
-2.2448 -1.1978 -1.3583 0.9885
-3.3596 -2.1977 -2.1432 0.9820
-2.8531 -3.2260 -2.2991 0.9807
0.4537 -5.8055 -3.1087 0.9739
1.5814 -6.0362 -3.3312 0.9721
2.1826 -6.0667 -3.4419 0.9712
3.4211 -5.9256 -3.6527 0.9695
4.0378 -5.7439 -3.7482 0.9687
2.2472 -1.5426 -1.4551 0.9877
2.4750 -1.3924 -1.5160 0.9872
2.8751 -1.2955 -1.6835 0.9858
7.1224 -2.4731 -4.0250 0.9664
7.2979 -1.1475 -3.9438 0.9671
6.9069 0.7727 -3.7102 0.9690
6.2943 1.8759 -3.5062 0.9707
5.4990 2.7788 -3.2891 0.9724
4.1131 3.7201 -2.9606 0.9752
3.6341 3.9292 -2.8572 0.9760
2.6853 4.2064 -2.6641 0.9776
1.7746 4.3181 -2.4922 0.9791
1.3401 4.3202 -2.4147 0.9797
0.5213 4.2323 -2.2765 0.9809
0.1387 4.1481 -2.2157 0.9814
-0.5704 3.9110 -2.1099 0.9822
-1.2040 3.5960 -2.0244 0.9830
-1.4925 3.4135 -1.9889 0.9832
-1.7626 3.2163 -1.9579 0.9835
-2.2476 2.7819 -1.9092 0.9839
-2.6602 2.3004 -1.8775 0.9842
-2.8397 2.0439 -1.8678 0.9843
-3.0012 1.7776 -1.8621 0.9843
-3.3769 0.9250 -1.8692 0.9842
-2.2057 0.3974 -1.1965 0.9899
-2.1192 0.0000 -1.1770 0.9904
-2.1317 -0.7938 -1.2634 0.9896
-2.1374 -1.0209 -1.3156 0.9892
-2.2265 -1.3188 -1.4372 0.9882
-3.1887 -2.2951 -2.1820 0.9822
-3.0464 -2.6343 -2.2368 0.9817
-2.8602 -2.9574 -2.2850 0.9814
-2.4114 -3.5980 -2.4056 0.9804
-2.1462 -3.9164 -2.4804 0.9798
-1.5122 -4.5168 -2.6455 0.9784
-1.1418 -4.7910 -2.7354 0.9777
-0.7354 -5.0419 -2.8299 0.9770
-0.2935 -5.2641 -2.9282 0.9762
0.1823 -5.4522 -3.0298 0.9753
1.2251 -5.7009 -3.2386 0.9737
2.0567 -2.6649 -1.8696 0.9847
1.9682 -2.1280 -1.6099 0.9868
2.0574 -1.8608 -1.5407 0.9874
2.1983 -1.6578 -1.5292 0.9875
2.3964 -1.4924 -1.5679 0.9872
2.6995 -1.3641 -1.6798 0.9863
6.7784 -0.1510 -3.7656 0.9695
6.4024 1.0068 -3.5996 0.9708
5.4254 2.4446 -3.3050 0.9731
4.5951 3.1544 -3.0955 0.9748
4.1534 3.4329 -2.9927 0.9756
2.3554 4.0797 -2.6164 0.9787
1.9204 4.1384 -2.5338 0.9793
1.4973 4.1617 -2.4564 0.9800
-0.0441 3.9599 -2.1994 0.9820
-0.3871 3.8482 -2.1480 0.9825
-0.7123 3.7163 -2.1016 0.9828
-1.0196 3.5659 -2.0599 0.9832
-1.3090 3.3988 -2.0228 0.9835
-1.5805 3.2162 -1.9903 0.9837
-2.2887 2.5878 -1.9187 0.9843
-2.4896 2.3546 -1.9032 0.9844
-2.6730 2.1109 -1.8916 0.9845
-2.9872 1.5941 -1.8805 0.9846
-3.1178 1.3221 -1.8809 0.9846
-3.2304 1.0417 -1.8851 0.9846
-2.4040 0.5447 -1.3690 0.9888
-2.1264 0.2860 -1.1916 0.9902
-2.1192 -0.0945 -1.1782 0.9903
-2.1317 -0.6874 -1.2440 0.9898
-2.1463 -1.1453 -1.3512 0.9889
-3.2494 -2.1256 -2.1565 0.9824
-2.7530 -3.1129 -2.3081 0.9812
-2.5314 -3.4357 -2.3702 0.9807
-2.0009 -4.0717 -2.5197 0.9795
-1.6840 -4.3724 -2.6023 0.9788
-0.9430 -4.9197 -2.7821 0.9773
0.4322 -5.5315 -3.0815 0.9749
0.9541 -5.6566 -3.1861 0.9741
2.0692 -5.7513 -3.3947 0.9724
3.8103 -5.4201 -3.6797 0.9701
1.9467 -2.3025 -1.6746 0.9863
2.0071 -1.9848 -1.5677 0.9872
2.1227 -1.7544 -1.5295 0.9875
2.2875 -1.5703 -1.5410 0.9874
3.0466 -1.3727 -1.8559 0.9848
6.7104 0.1496 -3.7278 0.9698
6.5214 0.7296 -3.6445 0.9704
6.2686 1.2742 -3.5528 0.9712
5.9612 1.7766 -3.4547 0.9719
5.2269 2.6413 -3.2526 0.9736
4.8107 2.9962 -3.1477 0.9744
4.3757 3.2999 -3.0438 0.9752
3.9290 3.5536 -2.9423 0.9761
3.4769 3.7592 -2.8439 0.9768
3.0246 3.9191 -2.7495 0.9776
2.5766 4.0363 -2.6595 0.9783
2.1365 4.1136 -2.5745 0.9790
1.7072 4.1542 -2.4945 0.9797
0.8890 4.1372 -2.3502 0.9808
-2.3913 2.4726 -1.9104 0.9844
-2.9153 1.7267 -1.8818 0.9846
-3.1764 1.1829 -1.8825 0.9846
-3.2799 0.8985 -1.8887 0.9846
-2.1578 0.3887 -1.2177 0.9900
-2.0684 -0.1848 -1.1990 0.9905
-2.0727 -0.3734 -1.2160 0.9903
-2.0734 -0.7721 -1.2774 0.9898
-2.0740 -0.9907 -1.3270 0.9894
-2.1172 -1.2540 -1.4207 0.9887
-3.0844 -2.2200 -2.1941 0.9826
-2.7655 -2.8595 -2.2967 0.9818
-2.5530 -3.1600 -2.3455 0.9814
-2.0663 -3.7704 -2.4823 0.9803
-1.7759 -4.0616 -2.5593 0.9797
-1.4523 -4.3377 -2.6410 0.9791
-0.7042 -4.8287 -2.8173 0.9777
0.1741 -5.2061 -3.0074 0.9762
1.1661 -5.4267 -3.2046 0.9747
1.6950 -5.4640 -3.3029 0.9739
2.2378 -5.4453 -3.3990 0.9732
2.7871 -5.3661 -3.4911 0.9725
3.3339 -5.2225 -3.5772 0.9718
3.8684 -5.0123 -3.6555 0.9712
2.0091 -2.1722 -1.7083 0.9864
2.0937 -1.8936 -1.6298 0.9870
2.2361 -1.6863 -1.6170 0.9871
6.2145 -2.4733 -3.8617 0.9696
6.0619 0.9532 -3.5429 0.9721
5.8038 1.4517 -3.4541 0.9727
5.4979 1.9091 -3.3601 0.9735
4.7844 2.6917 -3.1694 0.9750
4.3847 3.0100 -3.0706 0.9757
3.9693 3.2808 -2.9731 0.9765
3.5444 3.5051 -2.8780 0.9772
3.1155 3.6850 -2.7860 0.9780
2.6872 3.8227 -2.6978 0.9786
2.2636 3.9208 -2.6138 0.9793
1.8478 3.9820 -2.5345 0.9799
0.6700 3.9719 -2.3256 0.9816
0.3057 3.9126 -2.2658 0.9820
-0.9881 3.4556 -2.0751 0.9835
-1.7801 2.9304 -1.9796 0.9843
-2.0098 2.7278 -1.9562 0.9845
-2.2226 2.5131 -1.9370 0.9846
-2.4182 2.2872 -1.9217 0.9847
-2.5969 2.0507 -1.9104 0.9848
-3.0295 1.2847 -1.8998 0.9849
-2.0782 0.2795 -1.2106 0.9904
-2.0611 0.0919 -1.1911 0.9905
-2.0743 -0.6689 -1.2583 0.9900
-2.0729 -0.8790 -1.2999 0.9897
-3.1443 -2.0568 -2.1693 0.9828
-3.0178 -2.3831 -2.2201 0.9824
-2.4412 -3.3132 -2.3760 0.9812
-2.1992 -3.6204 -2.4457 0.9806
-1.9252 -3.9177 -2.5202 0.9800
-1.6183 -4.2017 -2.5996 0.9794
-1.2779 -4.4689 -2.6836 0.9788
-0.9038 -4.7150 -2.7718 0.9781
1.4284 -5.4520 -3.2540 0.9743
1.9651 -5.4620 -3.3514 0.9735
2.5122 -5.4135 -3.4457 0.9728
3.0614 -5.3025 -3.5350 0.9721
2.3301 -1.5995 -1.6317 0.9870
2.5888 -1.4564 -1.7150 0.9864
6.1039 -2.7503 -3.8653 0.9696
6.4304 -1.6083 -3.8269 0.9698
5.6563 1.6858 -3.4076 0.9731
4.5870 2.8568 -3.1199 0.9753
3.3301 3.6005 -2.8315 0.9776
2.9010 3.7590 -2.7414 0.9783
1.2442 4.0108 -2.4244 0.9808
0.8578 3.9919 -2.3573 0.9813
-0.2107 3.7794 -2.1854 0.9827
-0.5344 3.6640 -2.1378 0.9830
-0.8411 3.5295 -2.0948 0.9834
-1.1308 3.3776 -2.0564 0.9837
-1.6588 3.0269 -1.9928 0.9842
-1.8971 2.8307 -1.9674 0.9844
-2.1183 2.6219 -1.9461 0.9846
-2.5097 2.1702 -1.9156 0.9848
-2.6798 1.9288 -1.9062 0.9849
-2.9682 1.4179 -1.8992 0.9849
-3.0863 1.1494 -1.9014 0.9849
-3.1866 0.8729 -1.9076 0.9849
-2.1344 0.3845 -1.2521 0.9900
