ply
format ascii 1.0
element vertex 1587
property float32 x
property float32 y
property float32 z
property float32 I
end_header
-6.6635 9.9427 -0.4977 0.9532
-8.2635 7.1457 -0.4542 0.9572
-11.1775 0.9988 -0.4666 0.9561
-10.7659 0.0000 -0.6270 0.9578
-11.1189 -0.9936 -0.6502 0.9563
-11.8471 -3.2452 -0.7154 0.9520
-12.6410 -6.0381 -0.8159 0.9454
1.3039 -2.5105 -0.1648 0.9887
1.5430 -1.9993 -0.1471 0.9899
1.6826 -1.8192 -0.1443 0.9901
2.2475 -1.3997 -0.1542 0.9894
2.5555 -1.2914 -0.1668 0.9886
3.1526 -1.2547 -0.1976 0.9865
-2.5524 13.3161 -0.7897 0.9471
-3.4605 12.1022 -0.7331 0.9508
-6.9950 7.9094 -0.6150 0.9586
-7.4830 7.0774 -0.5999 0.9596
-7.9367 6.2676 -0.5890 0.9603
-8.3626 5.4706 -0.5820 0.9608
-8.7660 4.6777 -0.5787 0.9610
-9.1514 3.8806 -0.5789 0.9610
-10.2391 1.3770 -0.6017 0.9594
-10.5904 0.4723 -0.6174 0.9584
-10.9419 -0.4879 -0.6379 0.9571
-11.6608 -2.6420 -0.6964 0.9532
-12.4333 -5.2721 -0.7866 0.9473
1.2685 -2.7336 -0.1755 0.9880
1.6064 -1.9001 -0.1449 0.9901
1.9265 -1.5923 -0.1456 0.9900
2.3812 -1.3397 -0.1591 0.9891
2.7664 -1.2465 -0.1767 0.9879
1.4623 6.8051 -0.4054 0.9725
-2.0396 13.9846 -0.8231 0.9449
-3.0243 12.6905 -0.7598 0.9491
-4.5918 10.5018 -0.6676 0.9551
-6.1808 9.2225 -0.6466 0.9565
-6.7357 8.3369 -0.6242 0.9580
-8.9607 4.2802 -0.5784 0.9610
-10.0624 1.8129 -0.5955 0.9599
-10.3627 -0.9260 -0.7797 0.9591
-10.6647 -1.9213 -0.8121 0.9575
-10.9665 -3.0041 -0.8521 0.9554
-11.5805 -5.5315 -0.9618 0.9498
-11.9776 -8.6210 -1.1059 0.9425
1.2952 -2.4937 -0.2106 0.9888
1.4053 -2.2013 -0.1957 0.9896
1.5349 -1.9888 -0.1883 0.9900
1.6745 -1.8104 -0.1848 0.9902
2.0119 -1.5173 -0.1888 0.9899
2.2362 -1.3927 -0.1974 0.9895
2.5407 -1.2839 -0.2133 0.9886
-0.1634 14.6660 -1.0991 0.9429
-1.3416 13.3356 -1.0044 0.9477
-2.3329 12.1708 -0.9287 0.9515
-3.1825 11.1299 -0.8675 0.9546
-3.9190 10.1756 -0.8172 0.9572
-4.5648 9.2893 -0.7756 0.9593
-6.5433 7.3987 -0.7402 0.9612
-7.0109 6.6309 -0.7232 0.9620
-7.4446 5.8789 -0.7109 0.9627
-7.8498 5.1351 -0.7029 0.9631
-8.2313 4.3924 -0.6992 0.9633
-8.5930 3.6438 -0.6995 0.9633
-9.5913 1.2899 -0.7252 0.9619
-9.9041 0.4416 -0.7429 0.9610
-10.2109 -0.4553 -0.7660 0.9598
-11.7385 -6.2638 -0.9971 0.9480
-11.8807 -7.7720 -1.0639 0.9446
1.3523 -2.3423 -0.2027 0.9892
1.4705 -2.0918 -0.1916 0.9898
1.5987 -1.8909 -0.1856 0.9901
1.7497 -1.7304 -0.1844 0.9902
2.1111 -1.4492 -0.1919 0.9898
2.3689 -1.3327 -0.2037 0.9892
2.7463 -1.2375 -0.2257 0.9880
1.4579 6.7846 -0.5200 0.9725
-0.7793 13.9769 -1.0490 0.9454
-1.8574 12.7355 -0.9645 0.9497
-2.7732 11.6369 -0.8965 0.9531
-4.2518 9.7241 -0.7953 0.9583
-6.2947 7.7911 -0.7506 0.9606
-6.7818 7.0123 -0.7311 0.9616
-7.2316 6.2535 -0.7165 0.9624
-7.6504 5.5065 -0.7064 0.9629
-9.1058 2.4943 -0.7075 0.9628
-9.4320 1.6993 -0.7182 0.9623
-4.4479 -0.0000 -0.4078 0.9823
-10.2060 -2.7957 -0.9701 0.9584
-10.4474 -3.8906 -1.0220 0.9562
-11.1116 -9.6086 -1.3467 0.9427
1.2274 -2.9866 -0.2960 0.9871
1.2866 -2.4772 -0.2559 0.9889
1.3966 -2.1878 -0.2380 0.9896
1.6664 -1.8017 -0.2250 0.9902
2.2250 -1.3857 -0.2403 0.9895
3.0587 -1.2173 -0.3018 0.9869
-2.9452 10.3003 -0.9821 0.9579
-3.6413 9.4545 -0.9288 0.9601
-6.1456 6.9489 -0.8505 0.9634
-6.5940 6.2366 -0.8321 0.9642
-7.3952 4.8377 -0.8102 0.9651
-7.7570 4.1393 -0.8061 0.9653
-8.0977 3.4338 -0.8064 0.9653
-9.5699 -0.4267 -0.8782 0.9623
-9.8305 -1.3221 -0.9093 0.9609
-10.7971 -5.7615 -1.1220 0.9520
-10.8865 -7.1216 -1.1926 0.9491
1.2468 -2.6868 -0.2715 0.9882
1.5910 -1.8818 -0.2259 0.9902
1.7414 -1.7221 -0.2245 0.9902
1.9084 -1.5773 -0.2270 0.9901
2.3566 -1.3258 -0.2479 0.9892
2.7278 -1.2291 -0.2743 0.9881
1.4535 6.7641 -0.6343 0.9726
-1.7047 11.6888 -1.0829 0.9537
-3.3048 9.8709 -0.9543 0.9590
-3.9580 9.0521 -0.9057 0.9611
-4.7601 8.6861 -0.9081 0.9610
-5.3966 8.0523 -0.8887 0.9618
-5.9069 7.3111 -0.8617 0.9629
-6.8053 5.8848 -0.8248 0.9645
-7.5790 4.4891 -0.8076 0.9652
-8.2611 3.0765 -0.8082 0.9652
-8.5753 2.3490 -0.8151 0.9649
-4.9080 0.8842 -0.4572 0.9802
-4.1097 0.3672 -0.3783 0.9836
-3.7849 -0.0000 -0.4105 0.9849
-9.3366 -1.6821 -1.0290 0.9625
-9.5423 -2.6139 -1.0732 0.9610
-9.7341 -3.6250 -1.1267 0.9591
-10.0711 -5.9651 -1.2696 0.9540
-10.0390 -7.2256 -1.3416 0.9515
-10.2013 -10.5481 -1.5917 0.9427
1.2112 -2.9473 -0.3456 0.9873
1.2781 -2.4608 -0.3008 0.9889
1.6585 -1.7931 -0.2649 0.9902
1.8082 -1.6354 -0.2644 0.9902
2.2138 -1.3788 -0.2829 0.9896
2.5115 -1.2691 -0.3052 0.9887
3.0346 -1.2077 -0.3543 0.9869
-0.1356 12.1769 -1.3209 0.9522
-1.1304 11.2367 -1.2250 0.9556
-1.9893 10.3784 -1.1462 0.9584
-3.9867 8.1128 -0.9805 0.9643
-4.8107 7.9196 -1.0051 0.9634
-6.2227 5.8854 -0.9290 0.9661
-6.9892 4.5721 -0.9059 0.9670
-3.7517 0.5046 -0.4106 0.9849
-3.9257 -0.1751 -0.4262 0.9843
-9.2287 -1.2411 -1.0100 0.9632
-10.0494 -6.5740 -1.3025 0.9528
-10.1683 -9.6171 -1.5181 0.9452
1.4549 -2.0696 -0.2744 0.9899
1.5833 -1.8728 -0.2660 0.9902
2.3445 -1.3190 -0.2918 0.9892
1.6992 13.7964 -1.5078 0.9456
-0.6521 11.6952 -1.2705 0.9540
-1.5749 10.7986 -1.1837 0.9570
-2.3769 9.9740 -1.1121 0.9596
-3.7014 8.4653 -1.0021 0.9635
-4.5349 8.2753 -1.0235 0.9627
-5.5632 6.8857 -0.9602 0.9650
-6.8081 4.9002 -0.9098 0.9668
-7.1642 4.2434 -0.9032 0.9671
-7.4968 3.5809 -0.9012 0.9671
-8.1018 2.2193 -0.9111 0.9668
-3.7414 0.3343 -0.4074 0.9850
-3.7700 -0.3369 -0.4743 0.9849
-8.7867 -1.5830 -1.1188 0.9646
-9.2839 -6.6821 -1.4334 0.9549
-9.3005 -8.0424 -1.5408 0.9516
-9.2405 -11.4371 -1.8426 0.9424
1.2700 -2.4452 -0.3453 0.9890
2.2028 -1.3719 -0.3252 0.9896
2.4970 -1.2618 -0.3506 0.9888
3.0107 -1.1982 -0.4061 0.9870
3.7114 14.1664 -1.8352 0.9427
2.2050 13.0719 -1.6613 0.9480
-2.5604 8.9545 -1.1671 0.9632
-5.0262 6.8217 -1.0619 0.9664
-4.3832 0.9931 -0.5632 0.9820
-3.5348 0.1576 -0.4434 0.9858
-3.6310 -0.1619 -0.4555 0.9855
-8.6946 -1.1693 -1.0994 0.9653
-8.8744 -2.0107 -1.1403 0.9640
-9.1783 -3.8919 -1.2493 0.9606
-9.2984 -4.9617 -1.3208 0.9584
-9.2868 -7.3337 -1.4829 0.9534
-9.3037 -8.7994 -1.6048 0.9497
-9.2735 -10.4857 -1.7542 0.9451
1.2275 -2.6452 -0.3654 0.9883
1.3267 -2.2978 -0.3325 0.9894
1.5757 -1.8637 -0.3058 0.9902
2.3324 -1.3122 -0.3354 0.9893
1.5485 12.5724 -1.5874 0.9502
-1.4631 10.0318 -1.2704 0.9600
-2.2176 9.3057 -1.1988 0.9622
-4.7856 7.1407 -1.0772 0.9659
-5.6875 5.8808 -1.0252 0.9676
-6.0843 5.2613 -1.0080 0.9681
-7.4017 2.7564 -0.9898 0.9687
-7.6764 2.1028 -0.9974 0.9684
-3.8076 0.6860 -0.4848 0.9845
-3.5366 0.3160 -0.4450 0.9858
-3.5139 -0.3140 -0.5018 0.9858
-8.5587 -3.1873 -1.2990 0.9638
-8.6314 -6.2125 -1.5126 0.9579
-8.5341 -8.8242 -1.7461 0.9516
1.1961 -2.9106 -0.4476 0.9874
1.2672 -2.4398 -0.3910 0.9890
1.3764 -2.1562 -0.3638 0.9897
1.5040 -1.9488 -0.3501 0.9901
1.9740 -1.4887 -0.3517 0.9901
2.9871 -1.1889 -0.4573 0.9871
4.9754 13.8293 -2.0905 0.9423
2.0169 11.9571 -1.7247 0.9522
-0.1158 10.3992 -1.4792 0.9589
-0.9757 9.6991 -1.3865 0.9614
-2.4022 8.4010 -1.2428 0.9653
-2.9992 7.7872 -1.1869 0.9668
-3.6304 7.3876 -1.1708 0.9673
-4.2857 7.0552 -1.1741 0.9672
-4.7591 6.4592 -1.1412 0.9681
-6.2942 4.1175 -1.0698 0.9701
-6.6071 3.5257 -1.0652 0.9702
-6.8969 2.9246 -1.0655 0.9702
-3.3671 0.4528 -0.4832 0.9864
-3.3610 0.1499 -0.4785 0.9865
-3.4470 -0.1537 -0.4908 0.9862
-3.6292 -0.4881 -0.5209 0.9853
-8.5015 -2.7413 -1.2705 0.9646
-8.6916 -4.6380 -1.4013 0.9610
-8.7098 -5.6977 -1.4804 0.9588
-8.5718 -8.1071 -1.6782 0.9535
-8.3261 -11.3003 -1.9965 0.9449
1.3229 -2.2913 -0.3763 0.9894
1.4415 -2.0505 -0.3565 0.9899
1.5682 -1.8549 -0.3455 0.9902
1.8818 -1.5553 -0.3472 0.9902
2.0703 -1.4212 -0.3572 0.9899
4.1327 13.3223 -1.9840 0.9452
1.4218 11.5439 -1.6544 0.9541
0.3600 10.7667 -1.5323 0.9574
-0.5600 10.0438 -1.4308 0.9602
-1.3657 9.3641 -1.3460 0.9625
-2.7089 8.0911 -1.2136 0.9661
-4.0319 7.3573 -1.1933 0.9667
-4.5278 6.7560 -1.1568 0.9677
-4.9803 6.1643 -1.1272 0.9685
-5.3951 5.5785 -1.1038 0.9691
-6.7548 3.2265 -1.0648 0.9702
-7.2919 1.9975 -1.0754 0.9699
-3.6717 0.6615 -0.5306 0.9850
-3.2915 -0.0000 -0.5241 0.9868
-3.3915 -0.3031 -0.5422 0.9863
-7.8553 -1.4152 -1.2710 0.9682
-8.0682 -3.0046 -1.3709 0.9657
-8.1702 -4.8392 -1.5121 0.9623
-7.9877 -6.9072 -1.6815 0.9581
-7.7188 -9.5537 -1.9558 0.9515
1.1918 -2.9000 -0.4993 0.9874
1.3739 -2.1522 -0.4066 0.9897
1.6392 -1.7722 -0.3844 0.9903
2.9638 -1.1796 -0.5080 0.9872
6.2066 13.3747 -2.3479 0.9420
4.5075 12.5287 -2.1202 0.9475
1.8578 11.0135 -1.7785 0.9558
0.8073 10.3315 -1.6502 0.9589
-0.9129 9.0742 -1.4522 0.9637
-1.6265 8.4852 -1.3758 0.9656
-2.2615 7.9091 -1.3099 0.9672
-3.5632 7.2508 -1.2865 0.9678
-4.9347 5.5798 -1.1861 0.9703
-5.3174 5.0292 -1.1655 0.9708
-5.6696 4.4772 -1.1504 0.9712
-5.9941 3.9212 -1.1406 0.9714
-6.2934 3.3583 -1.1359 0.9715
-6.5694 2.7857 -1.1362 0.9715
-6.8234 2.2003 -1.1416 0.9714
-3.2600 0.1454 -0.5196 0.9869
-3.4817 -0.4683 -0.5594 0.9859
-8.1577 -5.3365 -1.5523 0.9613
-7.9439 -7.5133 -1.7411 0.9567
-7.8112 -8.8322 -1.8775 0.9534
-7.3131 -12.0390 -2.2430 0.9445
1.5658 -1.8520 -0.3862 0.9902
2.6621 -1.1995 -0.4649 0.9882
5.3206 12.9469 -2.2289 0.9449
3.7620 12.1273 -2.0219 0.9499
0.3345 10.0053 -1.5941 0.9603
-1.2801 8.7773 -1.4125 0.9647
-2.5538 7.6279 -1.2809 0.9679
-3.0946 7.0775 -1.2300 0.9692
-4.2953 6.4091 -1.2285 0.9692
-4.7308 5.8554 -1.1987 0.9700
-5.1301 5.3045 -1.1751 0.9706
-5.8351 4.1999 -1.1448 0.9713
-6.1468 3.6408 -1.1376 0.9715
-6.4342 3.0734 -1.1354 0.9715
-6.6991 2.4948 -1.1383 0.9715
-4.5041 1.2338 -0.7436 0.9813
-3.5500 0.6396 -0.5744 0.9855
-3.2454 0.2900 -0.5188 0.9869
-3.1939 0.0000 -0.5632 0.9871
-7.4570 -1.3434 -1.3360 0.9697
-7.6287 -2.8410 -1.4354 0.9675
-7.6721 -3.6646 -1.4992 0.9661
-7.5600 -5.4413 -1.6424 0.9629
-7.4573 -6.4486 -1.7384 0.9607
-7.3259 -7.5750 -1.8581 0.9581
-7.1289 -8.8236 -2.0002 0.9550
-6.4750 -11.8154 -2.3757 0.9467
1.1875 -2.8895 -0.5508 0.9874
1.2616 -2.4290 -0.4826 0.9889
1.3714 -2.1483 -0.4494 0.9897
1.4987 -1.9420 -0.4325 0.9901
1.7838 -1.6133 -0.4241 0.9903
1.9634 -1.4807 -0.4336 0.9901
2.1780 -1.3564 -0.4524 0.9896
2.4633 -1.2448 -0.4866 0.9889
4.1123 11.4303 -2.1419 0.9519
2.8322 10.8103 -1.9705 0.9556
-0.8574 8.5224 -1.5103 0.9658
-2.6799 6.9584 -1.3148 0.9702
-3.3804 6.8790 -1.3515 0.9693
-4.2988 5.8344 -1.2778 0.9710
-4.7004 5.3149 -1.2511 0.9716
-5.4082 4.2708 -1.2151 0.9724
-6.0067 3.2053 -1.2005 0.9727
-6.5111 2.0996 -1.2063 0.9726
-3.8237 0.8663 -0.6913 0.9842
-7.6815 -4.0990 -1.5352 0.9653
-7.5022 -5.9244 -1.6856 0.9619
-7.3990 -6.9979 -1.7957 0.9595
-6.6781 -10.9937 -2.2681 0.9491
1.5634 -1.8492 -0.4270 0.9902
1.7094 -1.6904 -0.4239 0.9903
1.8726 -1.5478 -0.4284 0.9902
2.6547 -1.1962 -0.5134 0.9882
4.8336 11.7619 -2.2422 0.9497
3.4506 11.1235 -2.0536 0.9538
1.4513 6.7539 -1.2181 0.9723
1.2207 9.9112 -1.7608 0.9603
-1.2041 8.2559 -1.4711 0.9667
-3.0009 6.8634 -1.3208 0.9700
-4.0844 6.0944 -1.2936 0.9706
-4.5039 5.5746 -1.2637 0.9713
-4.8887 5.0549 -1.2400 0.9718
-5.5673 4.0071 -1.2095 0.9725
-5.8664 3.4747 -1.2022 0.9727
-6.1412 2.9334 -1.2000 0.9727
-3.4371 0.6192 -0.6158 0.9859
-3.1509 0.2816 -0.5578 0.9872
-3.3117 -0.5966 -0.6512 0.9864
-7.1776 -1.9661 -1.4402 0.9701
-7.2325 -2.6934 -1.4935 0.9690
-7.2466 -4.2922 -1.6299 0.9663
-6.8378 -7.0702 -1.9034 0.9607
-6.3236 -9.4355 -2.1981 0.9548
-5.9310 -10.8226 -2.3882 0.9510
-5.4162 -12.3872 -2.6163 0.9464
1.1831 -2.8790 -0.6023 0.9874
1.2588 -2.4236 -0.5285 0.9889
1.4961 -1.9385 -0.4739 0.9901
1.7814 -1.6112 -0.4648 0.9903
2.1755 -1.3550 -0.4960 0.9896
1.6029 9.5023 -1.8648 0.9615
-0.0948 8.5132 -1.6476 0.9659
-0.8076 8.0282 -1.5614 0.9677
-1.4467 7.5476 -1.4872 0.9692
-2.0224 7.0731 -1.4236 0.9705
-4.4862 5.0727 -1.3105 0.9728
-5.1684 4.0815 -1.2744 0.9735
-5.4684 3.5773 -1.2646 0.9737
-6.2244 2.0071 -1.2656 0.9737
-3.1048 0.4175 -0.6062 0.9873
-3.0751 0.1371 -0.5957 0.9875
-3.1273 -0.1395 -0.6058 0.9873
-3.2339 -0.4349 -0.6315 0.9868
-7.1397 -1.6176 -1.4167 0.9706
-7.2086 -2.3245 -1.4657 0.9696
-7.0514 -5.5684 -1.7387 0.9641
-6.9215 -6.5463 -1.8436 0.9619
-6.4828 -8.7984 -2.1149 0.9565
-5.6923 -11.5835 -2.4976 0.9488
-5.1010 -13.2444 -2.7466 0.9438
1.2143 -2.6167 -0.5582 0.9883
1.3144 -2.2766 -0.5087 0.9893
1.8701 -1.5457 -0.4695 0.9902
3.1805 10.2530 -2.0774 0.9572
1.4533 6.7632 -1.3387 0.9722
-1.1357 7.7871 -1.5229 0.9684
-1.7419 7.3096 -1.4542 0.9698
-2.2893 6.8378 -1.3954 0.9710
-4.2967 5.3181 -1.3231 0.9725
-4.6678 4.8265 -1.2993 0.9730
-5.3216 3.8303 -1.2688 0.9736
-5.6090 3.3222 -1.2615 0.9738
-6.1126 2.2764 -1.2623 0.9738
-4.1641 1.1406 -0.8355 0.9826
-3.0639 0.2738 -0.5953 0.9875
-3.0211 -0.0000 -0.6369 0.9877
-3.0994 -0.2770 -0.6560 0.9874
-3.2303 -0.5820 -0.6920 0.9867
-6.8731 -2.5596 -1.5462 0.9705
-6.8819 -3.2872 -1.6078 0.9693
-6.8555 -4.0605 -1.6798 0.9680
-6.4081 -6.6259 -1.9433 0.9630
1.1788 -2.8684 -0.6538 0.9874
1.9581 -1.4767 -0.5170 0.9900
2.4597 -1.2429 -0.5810 0.9888
6.1022 10.5693 -2.5729 0.9513
4.7124 10.1549 -2.3601 0.9553
0.6607 8.4547 -1.7879 0.9659
-0.0893 8.0196 -1.6908 0.9677
-0.7629 7.5837 -1.6069 0.9693
-1.3703 7.1487 -1.5345 0.9707
-1.9200 6.7146 -1.4723 0.9719
-2.5332 6.5773 -1.4859 0.9716
-3.0633 6.2337 -1.4643 0.9720
-3.5081 5.7751 -1.4245 0.9728
-3.9156 5.3143 -1.3916 0.9734
-4.9477 3.9072 -1.3291 0.9746
-5.2366 3.4257 -1.3192 0.9747
-5.5009 2.9354 -1.3145 0.9748
-5.7419 2.4348 -1.3148 0.9748
-5.9604 1.9220 -1.3203 0.9747
-3.5520 0.8048 -0.7678 0.9852
-3.0346 0.4081 -0.6455 0.9876
-2.9940 0.1335 -0.6318 0.9878
-3.0505 -0.1360 -0.6438 0.9876
-3.1545 -0.4242 -0.6710 0.9871
-6.8023 -1.5412 -1.4704 0.9719
-6.8568 -2.2110 -1.5189 0.9710
-6.8816 -2.9181 -1.5758 0.9699
-6.6484 -5.2502 -1.7860 0.9660
-6.3010 -7.1246 -2.0051 0.9619
-5.2284 -10.6394 -2.4992 0.9527
-3.9110 -13.6775 -2.9990 0.9435
1.2110 -2.6096 -0.6065 0.9883
1.5585 -1.8435 -0.5089 0.9902
1.8676 -1.5436 -0.5108 0.9901
2.0541 -1.4101 -0.5253 0.9899
2.2990 -1.2934 -0.5561 0.9893
2.6506 -1.1943 -0.6129 0.9882
5.3828 10.3637 -2.4620 0.9534
4.0864 9.9437 -2.2664 0.9570
2.9520 9.5162 -2.1005 0.9601
-1.0743 7.3661 -1.5693 0.9700
-1.6519 6.9315 -1.5022 0.9713
-2.1757 6.4986 -1.4448 0.9724
-2.8257 6.4625 -1.4870 0.9716
-3.7162 5.5450 -1.4073 0.9731
-4.1065 5.0827 -1.3776 0.9736
-5.3718 3.1817 -1.3162 0.9748
-5.6243 2.6865 -1.3140 0.9748
-5.8539 2.1800 -1.3169 0.9748
-4.0001 1.0957 -0.8744 0.9832
-2.9810 0.2664 -0.6310 0.9878
-3.0430 -0.2719 -0.6973 0.9875
-3.1642 -0.5701 -0.7338 0.9869
-6.5020 -3.8512 -1.7248 0.9695
-6.3763 -4.5894 -1.7931 0.9683
-6.2056 -5.3662 -1.8725 0.9669
-5.7861 -7.1615 -2.1014 0.9629
-5.4728 -8.1659 -2.2437 0.9605
-3.1453 -13.1983 -3.0968 0.9459
1.4907 -1.9316 -0.5569 0.9900
1.6291 -1.7613 -0.5476 0.9902
2.9535 -1.1754 -0.7255 0.9870
7.4803 10.6409 -2.9688 0.9480
4.3580 9.3913 -2.3630 0.9584
3.2562 9.0508 -2.1954 0.9613
2.2777 8.6937 -2.0512 0.9638
1.4065 8.3384 -1.9301 0.9659
0.6221 7.9612 -1.8226 0.9678
-0.0844 7.5751 -1.7291 0.9694
-0.7226 7.1832 -1.6478 0.9708
-1.8269 6.3892 -1.5167 0.9731
-3.3535 5.5206 -1.4743 0.9738
-3.7468 5.0853 -1.4417 0.9744
-4.4395 4.1989 -1.3947 0.9752
-5.2765 2.8157 -1.3651 0.9758
-5.7162 1.8432 -1.3708 0.9757
-3.4289 0.7769 -0.8025 0.9857
-2.9453 0.1313 -0.6729 0.9880
-3.0959 -0.4164 -0.7130 0.9873
-6.4934 -1.4712 -1.5196 0.9731
-6.4676 -4.2309 -1.7640 0.9688
-6.2862 -4.9642 -1.8282 0.9677
-6.1232 -5.7913 -1.9237 0.9660
-5.9147 -6.6879 -2.0378 0.9640
-5.6393 -7.6538 -2.1699 0.9617
-5.2845 -8.6994 -2.3232 0.9591
-4.8345 -9.8379 -2.5019 0.9560
-3.5632 -12.4612 -2.9582 0.9482
-2.6786 -13.9740 -3.2475 0.9433
1.3087 -2.2668 -0.5974 0.9893
1.4285 -2.0321 -0.5669 0.9899
1.5561 -1.8406 -0.5501 0.9902
2.6486 -1.1934 -0.6630 0.9882
3.7904 9.2235 -2.2760 0.9599
1.4586 6.7878 -1.5846 0.9719
1.0039 8.1511 -1.8745 0.9669
-0.4115 7.3797 -1.6870 0.9701
-1.0188 6.9857 -1.6113 0.9715
-1.5700 6.5883 -1.5458 0.9726
-2.6959 6.1659 -1.5360 0.9728
-3.1438 5.7367 -1.4931 0.9735
-3.5544 5.3036 -1.4572 0.9741
-4.2773 4.4227 -1.4043 0.9751
-4.5949 3.9734 -1.3865 0.9754
-5.3949 2.5770 -1.3646 0.9758
-5.6147 2.0909 -1.3675 0.9757
-3.8725 1.0608 -0.9164 0.9837
-2.9882 -0.2670 -0.7374 0.9877
-3.1004 -0.5586 -0.7743 0.9871
-6.2311 -2.9763 -1.6973 0.9720
-6.1810 -3.6610 -1.7658 0.9708
-5.6856 -5.8789 -2.0103 0.9669
-5.4396 -6.7327 -2.1275 0.9650
-4.7271 -8.6259 -2.4178 0.9603
-3.6242 -10.8251 -2.8060 0.9541
1.1810 -2.8737 -0.7637 0.9873
1.2503 -2.4073 -0.6668 0.9889
1.7743 -1.6048 -0.5880 0.9902
2.9539 -1.1756 -0.7815 0.9870
10.1115 9.9995 -3.4955 0.9431
6.8664 9.7676 -2.9347 0.9520
5.5158 9.5537 -2.7116 0.9556
4.0511 8.7298 -2.3656 0.9611
3.0421 8.4555 -2.2088 0.9637
1.3242 7.8500 -1.9568 0.9677
-0.6861 6.8203 -1.6849 0.9722
-1.2380 6.4585 -1.6164 0.9733
-3.2109 5.2859 -1.5202 0.9748
-3.5909 4.8737 -1.4880 0.9754
-4.2606 4.0297 -1.4415 0.9761
-4.5545 3.5966 -1.4265 0.9764
-4.8232 3.1553 -1.4167 0.9765
-5.0682 2.7045 -1.4120 0.9766
-5.4896 1.7702 -1.4177 0.9765
-2.9494 -0.1315 -0.7257 0.9879
-3.1571 -0.7153 -0.7957 0.9868
-6.1413 -4.0175 -1.8038 0.9702
-5.9589 -4.7057 -1.8663 0.9692
-3.9442 -10.2409 -2.6975 0.9558
-1.4203 -14.1180 -3.4877 0.9432
1.3059 -2.2619 -0.6420 0.9893
1.4259 -2.0284 -0.6094 0.9898
1.8626 -1.5395 -0.5940 0.9901
2.0496 -1.4070 -0.6111 0.9898
2.2936 -1.2904 -0.6469 0.9892
7.6046 9.8535 -3.0594 0.9500
3.5326 8.5961 -2.2844 0.9624
2.5775 8.3089 -2.1383 0.9648
1.4641 6.8133 -1.7129 0.9717
0.9467 7.6863 -1.9036 0.9686
-0.3902 6.9984 -1.7229 0.9715
-2.1062 6.2909 -1.6307 0.9730
-2.5768 5.8933 -1.5810 0.9739
-3.0085 5.4898 -1.5387 0.9745
-3.4050 5.0806 -1.5033 0.9751
-4.1037 4.2433 -1.4510 0.9760
-4.4108 3.8141 -1.4333 0.9763
-4.6919 3.3771 -1.4209 0.9765
-5.1819 2.4752 -1.4116 0.9766
-3.8036 1.0419 -0.9694 0.9839
-2.8807 0.2574 -0.7109 0.9882
-2.8744 0.0000 -0.7574 0.9882
-5.9619 -1.6331 -1.6288 0.9748
-5.9700 -2.2233 -1.6786 0.9740
-5.3788 -5.5616 -2.0387 0.9685
-5.1299 -6.3494 -2.1509 0.9668
-3.9425 -9.0167 -2.5931 0.9601
-0.7507 -13.4632 -3.5531 0.9457
1.1887 -2.8924 -0.8240 0.9871
1.6240 -1.7558 -0.6302 0.9902
1.7719 -1.6026 -0.6295 0.9902
2.1657 -1.3488 -0.6723 0.9895
2.4541 -1.2401 -0.7245 0.9887
9.2044 9.1024 -3.4110 0.9479
7.6961 9.1029 -3.1410 0.9519
6.3417 9.0212 -2.9057 0.9554
2.8529 7.9297 -2.2206 0.9657
2.0131 7.6839 -2.0930 0.9677
1.2503 7.4121 -1.9807 0.9694
0.5564 7.1198 -1.8818 0.9709
-0.0759 6.8112 -1.7949 0.9722
-0.6528 6.4896 -1.7186 0.9734
-1.7722 6.1977 -1.6985 0.9737
-2.2450 5.8291 -1.6459 0.9745
-2.6795 5.4526 -1.6009 0.9752
-3.7841 4.2787 -1.5051 0.9766
-4.0942 3.8723 -1.4849 0.9770
-5.0875 2.1573 -1.4561 0.9774
-5.2786 1.7021 -1.4614 0.9773
-3.2212 0.7298 -0.8703 0.9864
-2.8515 0.1271 -0.7521 0.9883
-2.9007 -0.1293 -0.7651 0.9881
-2.9836 -0.4013 -0.7933 0.9876
-5.9218 -3.1600 -1.7687 0.9726
-5.6615 -4.4709 -1.9009 0.9706
-5.4814 -5.1842 -1.9880 0.9693
-4.9814 -6.7608 -2.2128 0.9659
-4.6297 -7.6215 -2.3498 0.9638
-3.6635 -9.5121 -2.6859 0.9587
-3.0171 -10.5515 -2.8918 0.9556
-0.1570 -14.0964 -3.7146 0.9434
1.2102 -2.6079 -0.7576 0.9882
1.3038 -2.2583 -0.6871 0.9893
1.4233 -2.0246 -0.6521 0.9898
1.6961 -1.6773 -0.6286 0.9902
2.2910 -1.2889 -0.6926 0.9892
2.6446 -1.1916 -0.7643 0.9881
7.0008 9.0711 -3.0193 0.9537
1.4697 6.8392 -1.8433 0.9715
0.8952 7.2683 -1.9297 0.9702
-0.3709 6.6519 -1.7555 0.9728
-1.4834 6.2247 -1.6861 0.9739
-2.0136 6.0144 -1.6712 0.9741
-2.8834 5.2616 -1.5810 0.9755
-3.2665 4.8740 -1.5460 0.9760
-4.9836 2.3805 -1.4553 0.9774
-5.1858 1.9312 -1.4581 0.9774
-2.8347 0.2533 -0.7499 0.9883
-2.8279 0.0000 -0.7956 0.9883
-2.8819 -0.2575 -0.8141 0.9880
-2.9786 -0.5366 -0.8515 0.9875
-5.5043 -3.9617 -1.9081 0.9722
-5.2982 -4.5816 -1.9707 0.9713
-4.1545 -7.5811 -2.4323 0.9647
-3.6870 -8.4324 -2.5894 0.9625
-1.6432 -11.2665 -3.2034 0.9538
-0.6857 -12.2972 -3.4653 0.9501
0.4467 -13.3604 -3.7611 0.9460
1.1965 -2.9115 -0.8856 0.9870
1.3598 -2.1300 -0.7110 0.9896
1.6214 -1.7530 -0.6718 0.9901
1.7695 -1.6004 -0.6713 0.9901
1.9473 -1.4686 -0.6862 0.9899
2.4523 -1.2392 -0.7730 0.9886
2.9605 -1.1783 -0.8965 0.9868
11.5104 7.9014 -3.9281 0.9436
5.8878 8.3755 -2.8805 0.9584
4.7815 8.2818 -2.6906 0.9610
3.7750 8.1348 -2.5232 0.9634
2.6845 7.4616 -2.2311 0.9676
1.9002 7.2529 -2.1095 0.9693
1.1837 7.0170 -2.0022 0.9709
-0.0722 6.4803 -1.8234 0.9734
-0.6225 6.1879 -1.7498 0.9745
-1.6957 5.9304 -1.7354 0.9747
-2.1511 5.5851 -1.6839 0.9754
-2.5703 5.2304 -1.6397 0.9761
-2.9564 4.8669 -1.6022 0.9766
-3.9390 3.7255 -1.5254 0.9777
-4.2140 3.3278 -1.5108 0.9779
-4.4650 2.9209 -1.5012 0.9781
-4.6929 2.5042 -1.4966 0.9781
-5.0815 1.6386 -1.5022 0.9781
-3.1370 0.7107 -0.9050 0.9867
-2.8531 -0.1272 -0.8035 0.9882
-5.7041 -2.4188 -1.7432 0.9746
-5.6564 -3.0183 -1.8039 0.9737
-5.2050 -4.9229 -2.0157 0.9707
-4.9834 -5.6349 -2.1165 0.9692
-4.7034 -6.3836 -2.2309 0.9676
-0.1429 -12.8251 -3.6086 0.9481
1.2144 -2.6171 -0.8117 0.9881
1.3069 -2.2636 -0.7354 0.9892
1.4224 -2.0233 -0.6959 0.9898
1.5487 -1.8319 -0.6749 0.9901
1.8575 -1.5353 -0.6780 0.9900
2.2883 -1.2873 -0.7387 0.9891
2.6449 -1.1918 -0.8162 0.9880
10.6911 8.0625 -3.7675 0.9459
9.1569 8.2820 -3.4738 0.9500
3.2338 7.8689 -2.3936 0.9653
2.2833 7.3607 -2.1683 0.9685
0.8486 6.8902 -1.9532 0.9716
0.2214 6.6213 -1.8640 0.9728
-1.4535 6.0993 -1.7641 0.9743
-1.9281 5.7590 -1.7087 0.9751
-2.7673 5.0498 -1.6201 0.9764
-3.1378 4.6820 -1.5858 0.9769
-3.4787 4.3057 -1.5574 0.9773
-3.7921 3.9211 -1.5347 0.9776
-4.0796 3.5278 -1.5175 0.9778
-4.3425 3.1255 -1.5053 0.9780
-4.9927 1.8593 -1.4990 0.9781
-2.9229 0.5266 -0.8356 0.9877
-2.7884 0.2492 -0.7877 0.9884
-2.9224 -0.5265 -0.8890 0.9877
-5.4796 -2.0406 -1.7506 0.9759
-5.4426 -2.5997 -1.8058 0.9751
-5.2563 -3.7832 -1.9388 0.9733
-5.0499 -4.3668 -1.9987 0.9725
-4.5991 -5.6924 -2.1909 0.9699
-3.4608 -7.9150 -2.5862 0.9646
-2.9192 -8.7193 -2.7528 0.9623
-1.5190 -10.4154 -3.1512 0.9570
-0.6305 -11.3067 -3.3903 0.9538
0.4080 -12.2026 -3.6552 0.9503
1.3625 -2.1344 -0.7581 0.9895
1.6216 -1.7533 -0.7150 0.9901
1.9450 -1.4668 -0.7293 0.9899
2.4572 -1.2417 -0.8242 0.9886
11.9701 6.7343 -4.1118 0.9443
10.4780 7.1928 -3.8049 0.9483
9.0830 7.5073 -3.5279 0.9520
7.7881 7.7019 -3.2792 0.9553
6.5922 7.7972 -3.0568 0.9583
3.5503 7.6507 -2.5251 0.9654
2.6379 7.3321 -2.3328 0.9680
1.7984 6.8643 -2.1244 0.9708
1.1232 6.6587 -2.0216 0.9722
-0.6170 6.1327 -1.8453 0.9746
-1.1492 5.9955 -1.8276 0.9748
-2.0639 5.3588 -1.7192 0.9763
-3.7938 3.5882 -1.5633 0.9784
-4.0602 3.2063 -1.5489 0.9786
-4.8970 1.5791 -1.5404 0.9787
-3.0564 0.6925 -0.9382 0.9870
-2.7204 0.3658 -0.8218 0.9886
-2.8771 -0.3869 -0.8691 0.9880
-5.4652 -2.3174 -1.7772 0.9755
-4.7307 -5.3491 -2.1378 0.9706
-4.1113 -6.7682 -2.3708 0.9675
-3.2017 -8.3131 -2.6670 0.9635
2.2824 -13.5310 -4.1081 0.9443
1.2188 -2.6264 -0.8668 0.9880
1.3100 -2.2690 -0.7844 0.9891
1.6926 -1.6738 -0.7126 0.9901
2.2883 -1.2874 -0.7860 0.9891
2.6620 -1.1995 -0.8741 0.9879
12.7498 6.4428 -4.2767 0.9421
11.2124 6.9831 -3.9546 0.9463
9.7681 7.3665 -3.6627 0.9502
7.1780 7.7608 -3.1648 0.9568
6.0301 7.8134 -2.9548 0.9596
4.0048 7.7106 -2.6012 0.9644
3.1148 7.5795 -2.4533 0.9664
2.1581 6.9571 -2.1807 0.9700
0.2108 6.3054 -1.8888 0.9740
-0.3417 6.1291 -1.8378 0.9747
-0.8959 6.1430 -1.8585 0.9744
-1.3919 5.8409 -1.7976 0.9752
-2.2704 5.1926 -1.6967 0.9766
-2.6593 4.8526 -1.6566 0.9772
-3.3480 4.1439 -1.5949 0.9780
-3.6516 3.7757 -1.5725 0.9783
-4.1845 3.0118 -1.5435 0.9787
-4.4158 2.6155 -1.5365 0.9788
-4.6248 2.2091 -1.5344 0.9788
-3.5598 0.9751 -1.1050 0.9847
-2.7412 0.2450 -0.8239 0.9886
-2.8694 -0.5170 -0.9260 0.9878
-5.2604 -1.9590 -1.7827 0.9767
-5.2183 -2.4926 -1.8366 0.9760
-4.6173 -4.7743 -2.1093 0.9725
-4.3697 -5.4084 -2.2082 0.9712
-2.1269 -8.9247 -2.9137 0.9622
0.3750 -11.2172 -3.5644 0.9540
1.4732 -11.9619 -3.8276 0.9507
4.1254 -13.2989 -4.4221 0.9432
1.2605 -2.4270 -0.8685 0.9886
1.4884 -1.9286 -0.7737 0.9898
1.6248 -1.7568 -0.7600 0.9900
1.7722 -1.6029 -0.7589 0.9900
1.9496 -1.4702 -0.7755 0.9898
12.2516 5.5203 -4.2677 0.9452
10.9028 6.1338 -3.9729 0.9489
9.6078 6.5953 -3.7010 0.9523
8.3792 6.9256 -3.4524 0.9554
4.2104 7.2927 -2.6743 0.9653
1.7482 6.6730 -2.1908 0.9715
1.0746 6.3708 -2.0518 0.9732
0.4852 6.2084 -1.9777 0.9742
-0.0683 6.1330 -1.9479 0.9746
-1.1013 5.7455 -1.8579 0.9757
-1.5593 5.4533 -1.8013 0.9765
-2.3741 4.8311 -1.7095 0.9777
-3.6577 3.4595 -1.5989 0.9791
-4.3636 2.3285 -1.5708 0.9795
-4.5545 1.9313 -1.5711 0.9795
-2.7612 -0.1231 -0.8778 0.9885
-2.8254 -0.3800 -0.9054 0.9881
-3.1071 -1.0019 -1.0368 0.9864
-5.1849 -2.7667 -1.8664 0.9756
-4.9171 -3.8830 -1.9898 0.9740
-4.7220 -4.4661 -2.0641 0.9731
-3.8903 -6.4043 -2.3798 0.9690
-3.0094 -7.8138 -2.6592 0.9655
-1.0126 -10.0658 -3.2129 0.9584
-0.1205 -10.8339 -3.4409 0.9555
0.9060 -11.5947 -3.6935 0.9524
2.0780 -12.3191 -3.9676 0.9489
3.4036 -12.9913 -4.2651 0.9452
1.3132 -2.2745 -0.8341 0.9890
1.4281 -2.0314 -0.7886 0.9896
1.8598 -1.5372 -0.7663 0.9899
2.0496 -1.4070 -0.7895 0.9896
2.2957 -1.2916 -0.8366 0.9890
12.9400 5.1500 -4.4230 0.9432
10.2476 6.3823 -3.8341 0.9506
8.9846 6.7756 -3.5738 0.9539
6.6751 7.2170 -3.1221 0.9596
5.6338 7.2999 -2.9285 0.9620
4.6669 7.3106 -2.7545 0.9643
2.9430 7.1613 -2.4589 0.9680
2.1488 6.9270 -2.3033 0.9700
1.3959 6.4960 -2.1101 0.9725
0.7730 6.2763 -2.0083 0.9738
-0.3412 6.1189 -1.9463 0.9746
-0.8585 5.8863 -1.8892 0.9753
-1.7752 5.3023 -1.7758 0.9768
-2.1823 4.9910 -1.7300 0.9774
-2.5584 4.6685 -1.6907 0.9779
-2.9055 4.3354 -1.6575 0.9783
-3.2255 3.9923 -1.6300 0.9787
-3.5198 3.6395 -1.6079 0.9790
-3.7897 3.2771 -1.5911 0.9792
-4.0361 2.9051 -1.5793 0.9793
-4.4618 2.1312 -1.5704 0.9795
-3.4729 0.9513 -1.1436 0.9850
-2.7749 0.4999 -0.8954 0.9882
-2.6951 0.2408 -0.8593 0.9887
-2.6945 0.0000 -0.9053 0.9887
-2.7374 -0.2446 -0.9234 0.9885
-2.8971 -0.7936 -1.0092 0.9874
-5.0560 -1.8829 -1.8127 0.9775
-5.0096 -2.3929 -1.8653 0.9768
-4.8152 -3.4658 -1.9933 0.9753
-4.6102 -3.9866 -2.0477 0.9746
-4.1600 -5.1489 -2.2240 0.9725
-3.8612 -5.7613 -2.3302 0.9712
-3.5027 -6.3916 -2.4488 0.9697
-0.5415 -9.7110 -3.2678 0.9598
0.3465 -10.3649 -3.4844 0.9572
1.3545 -10.9951 -3.7221 0.9543
2.4876 -11.5766 -3.9783 0.9513
1.2638 -2.4332 -0.9212 0.9885
1.6281 -1.7603 -0.8056 0.9899
2.1759 -1.3552 -0.8613 0.9892
2.4813 -1.2539 -0.9341 0.9883
10.0016 5.6268 -3.8557 0.9527
8.8637 6.0846 -3.6122 0.9556
6.7315 6.6570 -3.1808 0.9608
4.8302 6.8710 -2.8219 0.9652
3.9696 6.8756 -2.6674 0.9671
3.1675 6.8257 -2.5282 0.9687
-0.0670 6.0117 -2.0199 0.9749
-0.5806 5.7714 -1.9489 0.9758
-1.0568 5.5132 -1.8861 0.9766
-1.4981 5.2393 -1.8309 0.9773
-2.2854 4.6508 -1.7410 0.9784
-2.6354 4.3386 -1.7055 0.9788
-2.9585 4.0154 -1.6758 0.9792
-3.2563 3.6819 -1.6514 0.9795
-4.0077 2.6217 -1.6090 0.9800
-4.3979 1.8648 -1.6049 0.9800
-2.6271 0.5952 -0.9051 0.9887
-2.6180 0.3521 -0.8875 0.9889
-2.7168 -0.1212 -0.9137 0.9886
-4.8775 -3.1907 -1.9583 0.9757
-4.5096 -4.2651 -2.0854 0.9741
-4.2889 -4.8496 -2.1752 0.9731
-3.6899 -6.0743 -2.3879 0.9705
-2.2967 -8.0319 -2.8067 0.9654
-0.9434 -9.3774 -3.1666 0.9610
0.8340 -10.6840 -3.6004 0.9558
1.2277 -2.6456 -0.9799 0.9878
1.5564 -1.8409 -0.8099 0.9899
1.8642 -1.5408 -0.8126 0.9898
2.0560 -1.4113 -0.8379 0.9895
2.7080 -1.2202 -0.9979 0.9875
11.7602 4.6805 -4.2527 0.9480
10.5833 5.3480 -3.9840 0.9512
9.4278 5.8717 -3.7317 0.9542
8.3110 6.2676 -3.4974 0.9570
7.2441 6.5519 -3.2817 0.9596
5.2829 6.8453 -2.9052 0.9642
3.5614 6.8569 -2.5960 0.9679
2.7875 6.7830 -2.4639 0.9695
2.0681 6.6668 -2.3452 0.9710
0.7722 6.2699 -2.1225 0.9737
-2.0999 4.8026 -1.7611 0.9781
-2.4639 4.4961 -1.7225 0.9786
-2.8003 4.1783 -1.6899 0.9790
-3.3960 3.5114 -1.6412 0.9796
-4.1133 2.4364 -1.6062 0.9800
-2.6265 0.7195 -0.9150 0.9886
-2.7169 0.4895 -0.9275 0.9884
-2.8417 -0.7785 -1.0448 0.9876
-4.8149 -2.2999 -1.8921 0.9776
-4.7328 -2.8033 -1.9505 0.9769
-4.6157 -3.3222 -2.0165 0.9762
-4.4147 -3.8175 -2.0695 0.9755
-4.2097 -4.3528 -2.1472 0.9746
-0.5054 -9.0641 -3.2190 0.9622
1.2517 -10.1629 -3.6309 0.9575
2.2858 -10.6420 -3.8594 0.9549
1.2670 -2.4395 -0.9747 0.9884
1.3711 -2.1478 -0.9035 0.9892
1.7805 -1.6104 -0.8513 0.9899
1.9589 -1.4773 -0.8700 0.9896
2.1830 -1.3596 -0.9119 0.9891
13.1928 2.0745 -4.7355 0.9449
9.2301 5.1928 -3.7553 0.9560
8.2200 5.6427 -3.5354 0.9586
5.4004 6.3876 -2.9659 0.9651
4.5517 6.4749 -2.8064 0.9670
3.7526 6.4997 -2.6612 0.9686
3.0029 6.4710 -2.5295 0.9702
2.3013 6.3965 -2.4104 0.9716
1.6461 6.2829 -2.3030 0.9728
1.0350 6.1358 -2.2064 0.9739
0.4657 5.9600 -2.1198 0.9749
-0.0642 5.7595 -2.0423 0.9759
-1.4409 5.0393 -1.8585 0.9780
-2.2023 4.4816 -1.7706 0.9790
-3.1437 3.5547 -1.6826 0.9801
-3.4091 3.2243 -1.6638 0.9803
-3.6518 2.8838 -1.6500 0.9804
-3.8726 2.5334 -1.6409 0.9806
-4.0718 2.1729 -1.6365 0.9806
-2.5615 0.5804 -0.9313 0.9889
-2.6346 0.1175 -0.9351 0.9889
-2.6733 -0.1192 -0.9489 0.9887
-2.8093 -0.6365 -1.0214 0.9878
-2.8709 -0.9257 -1.0696 0.9873
-4.5178 -3.5677 -2.0412 0.9759
-4.0946 -4.6298 -2.1916 0.9741
-2.6820 -6.9636 -2.6460 0.9688
-2.1641 -7.5684 -2.7912 0.9671
-1.5666 -8.1730 -2.9508 0.9653
-0.1042 -9.3517 -3.3162 0.9611
0.7738 -9.9030 -3.5222 0.9587
4.0354 -11.2168 -4.2269 0.9507
1.2324 -2.6558 -1.0381 0.9877
1.3197 -2.2858 -0.9359 0.9889
1.5596 -1.8447 -0.8565 0.9898
1.8687 -1.5445 -0.8596 0.9898
2.0624 -1.4158 -0.8870 0.9894
2.7320 -1.2310 -1.0625 0.9874
13.6211 1.5237 -4.8600 0.9435
12.7394 2.5894 -4.6096 0.9463
11.7764 3.5097 -4.3572 0.9492
8.7222 5.4322 -3.6435 0.9573
7.7252 5.8259 -3.4309 0.9598
6.7629 6.1167 -3.2334 0.9620
5.8430 6.3173 -3.0513 0.9641
4.1460 6.4945 -2.7321 0.9678
2.6462 6.4390 -2.4685 0.9709
1.9680 6.3442 -2.3553 0.9722
0.1960 5.8626 -2.0800 0.9754
-0.3151 5.6509 -2.0069 0.9763
-1.2320 5.1699 -1.8845 0.9777
-2.3752 4.3342 -1.7525 0.9792
-2.7013 4.0306 -1.7205 0.9796
-3.0023 3.7160 -1.6939 0.9799
-3.5332 3.0553 -1.6563 0.9804
-3.9749 2.3544 -1.6381 0.9806
-4.3311 1.6129 -1.6388 0.9806
-2.6498 -0.2368 -0.9934 0.9887
-2.7171 -0.4895 -1.0309 0.9883
-4.5484 -2.6941 -1.9740 0.9777
-4.4300 -3.1885 -2.0382 0.9770
-4.0287 -4.1656 -2.1639 0.9756
-3.7899 -4.6909 -2.2519 0.9746
-2.3017 -6.8748 -2.7072 0.9695
0.3005 -8.9888 -3.3584 0.9623
1.1633 -9.4449 -3.5535 0.9602
1.3422 -3.2660 -1.3185 0.9850
1.3740 -2.1524 -0.9535 0.9892
1.9637 -1.4809 -0.9184 0.9896
13.6570 -1.5278 -5.1315 0.9430
12.0106 1.8886 -4.5400 0.9494
10.3640 3.5988 -4.0967 0.9542
8.5618 4.8168 -3.6683 0.9589
6.7705 5.5960 -3.2800 0.9632
5.0868 6.0167 -2.9420 0.9669
4.3009 6.1180 -2.7925 0.9686
3.5559 6.1590 -2.6556 0.9701
2.1915 6.0913 -2.4173 0.9727
0.9896 5.8668 -2.2217 0.9749
-1.3873 4.8519 -1.8844 0.9787
-2.4530 4.0381 -1.7643 0.9800
-3.7449 2.4498 -1.6710 0.9811
-3.9379 2.1014 -1.6667 0.9811
-2.5436 0.5763 -0.9739 0.9889
-2.5325 0.3406 -0.9542 0.9891
-2.6781 -0.3602 -1.0090 0.9885
-4.6629 -1.9772 -1.8913 0.9786
-4.3394 -3.4268 -2.0647 0.9767
-3.3397 -5.4980 -2.4021 0.9729
-2.5413 -6.5983 -2.6403 0.9703
-0.8281 -8.2321 -3.0895 0.9653
1.6282 -9.6528 -3.6554 0.9591
2.6244 -10.0171 -3.8668 0.9567
3.7043 -10.2963 -4.0860 0.9544
1.2481 -2.6896 -1.1072 0.9874
1.5628 -1.8485 -0.9039 0.9897
1.7063 -1.6874 -0.8961 0.9898
2.0691 -1.4203 -0.9371 0.9893
2.3258 -1.3084 -0.9965 0.9887
2.7567 -1.2421 -1.1291 0.9872
13.7810 -2.1670 -5.2092 0.9422
12.3714 1.3840 -4.6484 0.9482
9.9202 3.9481 -3.9869 0.9554
9.0165 4.5563 -3.7723 0.9578
5.4945 5.9406 -3.0216 0.9660
4.6888 6.0754 -2.8657 0.9678
3.9232 6.1455 -2.7225 0.9693
3.1992 6.1595 -2.5917 0.9708
-0.3025 5.4247 -2.0288 0.9771
-0.7597 5.2090 -1.9657 0.9778
-1.5819 4.7248 -1.8606 0.9790
-1.9501 4.4600 -1.8176 0.9794
-2.2917 4.1819 -1.7807 0.9798
-2.6080 3.8915 -1.7493 0.9802
-2.9002 3.5896 -1.7232 0.9805
-3.4156 2.9537 -1.6862 0.9809
-3.8440 2.2768 -1.6683 0.9811
-4.1884 1.5598 -1.6689 0.9811
-2.6096 0.4702 -0.9901 0.9887
-2.5629 0.2290 -0.9608 0.9891
-2.5691 -0.0000 -1.0083 0.9890
-2.6685 -0.4808 -1.0642 0.9884
-4.3758 -2.5918 -1.9960 0.9784
-4.2567 -3.0637 -2.0584 0.9777
-3.3448 -4.9908 -2.3580 0.9745
-3.0137 -5.4994 -2.4612 0.9734
-2.6280 -6.0103 -2.5745 0.9722
-2.1828 -6.5198 -2.6985 0.9709
-1.0957 -7.5127 -2.9797 0.9679
-0.4450 -7.9814 -3.1374 0.9662
0.2815 -8.4195 -3.3063 0.9644
1.9666 -9.1516 -3.6737 0.9606
1.5006 -1.9444 -0.9639 0.9895
1.6382 -1.7712 -0.9469 0.9897
1.7891 -1.6181 -0.9468 0.9897
2.5196 -1.2732 -1.1080 0.9879
12.3868 -1.3856 -4.8918 0.9479
10.3287 2.5834 -4.1786 0.9553
8.7889 3.9601 -3.7834 0.9594
7.9770 4.4878 -3.5922 0.9614
7.1610 4.9157 -3.4090 0.9634
6.3541 5.2517 -3.2353 0.9652
4.0735 5.7947 -2.7799 0.9700
3.3767 5.8487 -2.6505 0.9714
2.7155 5.8518 -2.5319 0.9727
0.9475 5.6173 -2.2358 0.9758
-0.5146 5.1152 -2.0177 0.9782
-1.3370 4.6758 -1.9086 0.9793
-1.7067 4.4313 -1.8637 0.9798
-3.1872 3.0145 -1.7218 0.9813
-3.4160 2.6977 -1.7083 0.9815
-3.9776 1.6867 -1.6956 0.9816
-4.1237 1.3297 -1.7005 0.9816
-2.5568 0.5793 -1.0289 0.9888
-2.6312 -0.3539 -1.0420 0.9887
-2.7236 -0.8782 -1.1231 0.9878
-4.1726 -3.2951 -2.0867 0.9774
-3.9651 -3.7501 -2.1419 0.9768
-3.4913 -4.7384 -2.3100 0.9750
-3.1858 -5.2446 -2.4084 0.9740
-2.8280 -5.7548 -2.5166 0.9728
-1.9365 -6.7725 -2.7645 0.9702
-1.3935 -7.2698 -2.9051 0.9687
-0.7797 -7.7503 -3.0571 0.9671
-0.0914 -8.2051 -3.2205 0.9654
1.5166 -8.9911 -3.5786 0.9616
2.4348 -9.2937 -3.7706 0.9596
3.4228 -9.5137 -3.9682 0.9575
1.2644 -2.7247 -1.1789 0.9872
2.3373 -1.3149 -1.0525 0.9885
12.3790 -4.2985 -5.1430 0.9452
12.2482 -0.8199 -4.8178 0.9486
11.8520 0.2641 -4.6527 0.9503
11.3198 1.2663 -4.4704 0.9522
10.6800 2.1708 -4.2773 0.9542
9.9609 2.9687 -4.0793 0.9563
8.3845 4.2369 -3.6869 0.9604
7.5686 4.7138 -3.4995 0.9624
5.9572 5.3879 -3.1524 0.9661
5.1816 5.6023 -2.9950 0.9677
3.7207 5.8284 -2.7139 0.9707
3.0416 5.8562 -2.5899 0.9720
2.3985 5.8364 -2.4765 0.9732
0.6835 5.5494 -2.1944 0.9763
0.1803 5.3934 -2.1179 0.9771
-0.7310 5.0121 -1.9879 0.9785
-1.5252 4.5554 -1.8854 0.9796
-1.8817 4.3037 -1.8435 0.9800
-2.2129 4.0382 -1.8072 0.9804
-2.8036 3.4701 -1.7509 0.9810
-3.0648 3.1691 -1.7303 0.9812
-3.7200 2.2034 -1.6969 0.9816
-3.8969 1.8614 -1.6949 0.9816
-4.0532 1.5094 -1.6975 0.9816
-2.5633 0.4618 -1.0222 0.9889
-2.5289 0.0000 -1.0413 0.9891
-2.6210 -0.4722 -1.0967 0.9885
-4.2138 -2.4958 -2.0167 0.9790
-4.0943 -2.9469 -2.0773 0.9784
-3.9060 -3.3777 -2.1264 0.9779
-3.7041 -3.8300 -2.1940 0.9772
-3.4732 -4.2988 -2.2758 0.9764
-2.8765 -5.2489 -2.4647 0.9744
-2.0743 -6.1957 -2.6905 0.9721
-1.5865 -6.6570 -2.8180 0.9708
1.8357 -8.5426 -3.5980 0.9629
3.6516 -8.8856 -3.9558 0.9593
1.2985 -2.5001 -1.1601 0.9879
1.5038 -1.9485 -1.0135 0.9894
1.6417 -1.7750 -0.9956 0.9896
1.7935 -1.6221 -0.9958 0.9896
2.2050 -1.3733 -1.0697 0.9888
2.5392 -1.2831 -1.1715 0.9878
11.1102 -4.4218 -4.9240 0.9496
11.4258 -2.3224 -4.8011 0.9508
9.5592 2.3909 -4.0576 0.9583
8.1919 3.6911 -3.6999 0.9619
7.4608 4.1973 -3.5250 0.9636
5.9813 4.9437 -3.1954 0.9670
3.8665 5.5001 -2.7685 0.9713
3.2127 5.5645 -2.6458 0.9726
1.9973 5.5514 -2.4294 0.9748
1.4371 5.4851 -2.3349 0.9758
-0.0568 5.1015 -2.1008 0.9782
-1.2896 4.5100 -1.9315 0.9799
-1.6475 4.2778 -1.8876 0.9804
-2.2904 3.7705 -1.8166 0.9811
-3.0849 2.9177 -1.7485 0.9818
-3.6905 1.9693 -1.7225 0.9821
-3.8518 1.6333 -1.7228 0.9821
-2.6388 0.5979 -1.1141 0.9884
-2.5068 0.1118 -1.0333 0.9892
-2.5479 -0.1136 -1.0502 0.9890
-2.5854 -0.3477 -1.0742 0.9888
-2.6300 -0.5959 -1.1104 0.9884
-2.6464 -0.8534 -1.1450 0.9880
-4.3332 -1.8374 -1.9381 0.9798
-4.0152 -3.1708 -2.1068 0.9781
-3.3416 -4.5352 -2.3197 0.9759
-2.2958 -5.9610 -2.6304 0.9727
-1.8380 -6.4279 -2.7530 0.9715
-1.3192 -6.8822 -2.8855 0.9701
-0.0860 -7.7226 -3.1802 0.9671
0.6322 -8.0902 -3.3415 0.9655
2.2688 -8.6600 -3.6864 0.9620
3.1780 -8.8335 -3.8657 0.9602
1.2814 -2.7612 -1.2535 0.9869
1.5695 -1.8564 -1.0010 0.9895
1.7135 -1.6945 -0.9923 0.9896
2.3490 -1.3215 -1.1098 0.9884
2.8475 -1.2830 -1.2861 0.9866
11.2566 -3.9087 -4.9067 0.9498
11.4158 -2.8553 -4.8456 0.9504
11.2080 -0.7503 -4.6256 0.9526
10.8771 0.2424 -4.4801 0.9540
7.0907 4.4161 -3.4398 0.9645
6.3495 4.7884 -3.2748 0.9662
5.6161 5.0795 -3.1182 0.9678
4.8990 5.2967 -2.9709 0.9693
4.2041 5.4474 -2.8335 0.9707
3.5359 5.5389 -2.7059 0.9720
2.8971 5.5779 -2.5882 0.9732
2.2893 5.5706 -2.4800 0.9743
0.6558 5.3243 -2.2090 0.9771
0.1733 5.1820 -2.1350 0.9778
-0.2796 5.0153 -2.0684 0.9785
-1.1010 4.6201 -1.9557 0.9797
-1.4717 4.3958 -1.9089 0.9801
-1.8172 4.1561 -1.8678 0.9806
-3.1986 2.7660 -1.7413 0.9819
-3.7736 1.8025 -1.7221 0.9821
-3.9249 1.4616 -1.7246 0.9820
-2.4793 0.2215 -1.0250 0.9893
-2.4892 -0.0000 -1.0738 0.9892
-2.5221 -0.2254 -1.0923 0.9890
-2.5389 -0.4574 -1.1128 0.9888
-2.5687 -0.9566 -1.1824 0.9881
-4.1494 -1.9820 -1.9836 0.9802
-3.9419 -2.8372 -2.0950 0.9791
-3.7600 -3.2513 -2.1442 0.9786
-3.3312 -4.1231 -2.2865 0.9772
-2.7495 -5.0172 -2.4679 0.9754
-1.9748 -5.8983 -2.6831 0.9733
-1.5069 -6.3232 -2.8040 0.9721
-0.9815 -6.7297 -2.9336 0.9708
-0.3965 -7.1104 -3.0719 0.9695
0.2493 -7.4564 -3.2182 0.9680
1.3151 -2.5320 -1.2307 0.9876
1.3967 -2.1879 -1.1197 0.9888
1.6469 -1.7806 -1.0463 0.9895
1.9786 -1.4921 -1.0690 0.9893
2.5739 -1.3006 -1.2440 0.9875
10.4071 -3.1016 -4.6843 0.9538
10.4111 -1.1647 -4.5189 0.9554
10.1951 -0.2272 -4.3988 0.9565
9.8564 0.6598 -4.2611 0.9579
9.4139 1.4803 -4.1107 0.9593
8.2985 2.8816 -3.7893 0.9625
7.6641 3.4533 -3.6260 0.9640
7.0014 3.9389 -3.4652 0.9656
4.9734 4.9183 -3.0171 0.9700
4.3154 5.1043 -2.8832 0.9713
3.6770 5.2306 -2.7580 0.9725
3.0619 5.3033 -2.6415 0.9737
2.4726 5.3285 -2.5339 0.9747
1.9108 5.3113 -2.4348 0.9757
-0.0547 4.9095 -2.1179 0.9788
-0.4772 4.7439 -2.0566 0.9794
-1.2448 4.3534 -1.9531 0.9805
-1.5916 4.1326 -1.9103 0.9809
-1.9149 3.8968 -1.8729 0.9813
-2.7513 3.1109 -1.7914 0.9821
-2.9877 2.8258 -1.7739 0.9822
-3.8685 1.2475 -1.7533 0.9824
-2.4654 0.1099 -1.0645 0.9893
-2.5465 -0.5770 -1.1263 0.9887
-4.0057 -2.6204 -2.0648 0.9794
-3.8658 -3.0528 -2.1248 0.9788
-3.2024 -4.3463 -2.3288 0.9768
-2.1880 -5.6810 -2.6260 0.9738
-1.7479 -6.1127 -2.7424 0.9727
-1.2515 -6.5292 -2.8677 0.9715
-0.6965 -6.9238 -3.0017 0.9701
0.5949 -7.6133 -3.2941 0.9673
2.1222 -8.1001 -3.6120 0.9642
2.9633 -8.2365 -3.7758 0.9626
1.3537 -2.3446 -1.1678 0.9883
1.4556 -2.0707 -1.0918 0.9890
1.7173 -1.6983 -1.0418 0.9895
2.0917 -1.4359 -1.0944 0.9890
2.3756 -1.3365 -1.1758 0.9882
10.3089 -3.5796 -4.7073 0.9536
10.3195 -0.6908 -4.4614 0.9559
9.6469 1.0792 -4.1872 0.9586
9.1601 1.8619 -4.0321 0.9601
8.6000 2.5631 -3.8709 0.9617
7.9858 3.1783 -3.7075 0.9633
7.3353 3.7067 -3.5452 0.9648
5.3081 4.8009 -3.0873 0.9693
4.6422 5.0191 -2.9491 0.9707
3.3663 5.2733 -2.6986 0.9731
1.6405 5.2884 -2.3884 0.9762
0.6299 5.1140 -2.2226 0.9778
0.1666 4.9839 -2.1510 0.9785
-0.2693 4.8294 -2.0864 0.9791
-1.0623 4.4578 -1.9768 0.9802
-1.4212 4.2450 -1.9310 0.9807
-2.0680 3.7736 -1.8562 0.9814
-2.8720 2.9697 -1.7821 0.9822
-3.0982 2.6792 -1.7668 0.9823
-3.3042 2.3782 -1.7561 0.9824
-3.4902 2.0673 -1.7498 0.9825
-3.8028 1.4162 -1.7504 0.9825
-2.4719 0.4453 -1.0835 0.9891
-2.4387 0.2179 -1.0561 0.9894
-2.4701 -0.6767 -1.1556 0.9888
-4.0062 -1.9136 -2.0033 0.9807
-3.9176 -2.3204 -2.0545 0.9802
-3.7985 -2.7340 -2.1117 0.9797
-3.6228 -3.1328 -2.1611 0.9792
-2.6317 -4.8022 -2.4709 0.9763
0.9004 -7.3104 -3.3235 0.9682
1.6161 -7.5205 -3.4709 0.9668
1.4093 -2.2077 -1.1818 0.9886
1.5246 -1.9755 -1.1259 0.9891
1.8111 -1.6381 -1.1019 0.9893
2.2398 -1.3949 -1.1906 0.9885
2.6271 -1.3275 -1.3281 0.9872
9.5919 -2.8587 -4.5161 0.9570
9.1533 0.6127 -4.1394 0.9605
8.7645 1.3782 -4.0033 0.9618
8.2969 2.0752 -3.8590 0.9632
7.7679 2.6973 -3.7103 0.9646
6.5898 3.7074 -3.4117 0.9674
3.5029 4.9829 -2.7483 0.9736
2.9227 5.0623 -2.6376 0.9747
1.3214 5.0436 -2.3526 0.9774
0.8378 4.9666 -2.2727 0.9781
-0.0527 4.7290 -2.1339 0.9795
-0.4602 4.5743 -2.0744 0.9800
-0.8432 4.3991 -2.0211 0.9805
-1.2025 4.2054 -1.9736 0.9810
-1.5386 3.9950 -1.9317 0.9814
-2.1443 3.5301 -1.8637 0.9820
-2.4151 3.2778 -1.8371 0.9823
-2.6652 3.0136 -1.8153 0.9825
-2.8951 2.7382 -1.7981 0.9827
-3.1052 2.4522 -1.7853 0.9828
-3.2956 2.1559 -1.7770 0.9829
-3.6181 1.5342 -1.7732 0.9829
-3.7500 1.2092 -1.7779 0.9829
-2.5488 0.5775 -1.1792 0.9886
-2.3567 0.3170 -1.0730 0.9896
-2.4395 -0.1088 -1.1018 0.9893
-2.4521 -0.3298 -1.1164 0.9892
-2.4891 -1.0555 -1.2199 0.9882
-3.8620 -2.5264 -2.0823 0.9800
-2.7895 -4.5922 -2.4244 0.9767
-2.4625 -5.0109 -2.5193 0.9758
-2.0885 -5.4227 -2.6220 0.9748
-1.6650 -5.8229 -2.7327 0.9738
-1.1896 -6.2063 -2.8514 0.9726
-0.6606 -6.5662 -2.9777 0.9715
-0.0768 -6.8950 -3.1114 0.9702
1.9915 -7.6015 -3.5457 0.9661
2.7731 -7.7080 -3.6962 0.9647
1.4669 -2.0867 -1.1509 0.9889
1.5877 -1.8779 -1.1096 0.9893
1.9012 -1.5714 -1.1129 0.9892
2.4071 -1.3542 -1.2462 0.9880
9.5514 -0.6394 -4.3194 0.9589
8.9699 1.0034 -4.0726 0.9612
8.5395 1.7357 -3.9319 0.9625
7.4856 2.9792 -3.6353 0.9653
6.2806 3.9116 -3.3386 0.9681
5.6551 4.2647 -3.1960 0.9694
5.0283 4.5478 -3.0592 0.9707
4.4079 4.7658 -2.9292 0.9719
3.2102 5.0287 -2.6919 0.9742
2.6408 5.0845 -2.5852 0.9752
0.6056 4.9171 -2.2354 0.9785
-1.0258 4.3044 -1.9966 0.9808
-1.6983 3.8841 -1.9128 0.9816
-2.2823 3.4055 -1.8498 0.9822
-2.5427 3.1472 -1.8256 0.9824
-2.7827 2.8773 -1.8061 0.9826
-3.0026 2.5965 -1.7911 0.9827
-3.2028 2.3053 -1.7806 0.9828
-3.5448 1.6932 -1.7726 0.9829
-3.6865 1.3729 -1.7750 0.9829
-2.4063 0.4335 -1.1032 0.9893
-2.3615 -0.0000 -1.1132 0.9896
-2.3773 -0.2124 -1.1251 0.9895
-2.3816 -0.4291 -1.1407 0.9894
-2.3934 -0.6556 -1.1698 0.9891
-2.4034 -0.8950 -1.2089 0.9887
-3.6632 -2.6366 -2.1275 0.9802
-2.8183 -4.2052 -2.3862 0.9779
-2.5220 -4.6020 -2.4737 0.9771
0.2231 -6.6715 -3.1465 0.9709
1.5230 -7.0874 -3.4171 0.9685
2.2350 -7.2050 -3.5559 0.9672
1.5363 -1.9907 -1.1853 0.9889
1.6710 -1.8066 -1.1600 0.9892
1.8253 -1.6509 -1.1601 0.9892
2.0099 -1.5157 -1.1866 0.9889
8.6742 -3.4523 -4.4008 0.9596
8.8854 -2.6481 -4.3704 0.9598
8.9725 -1.8237 -4.3159 0.9603
8.9381 -0.9999 -4.2395 0.9610
8.5353 0.5714 -4.0323 0.9629
8.1910 1.2880 -3.9085 0.9640
7.2945 2.5329 -3.6398 0.9664
6.2187 3.4986 -3.3634 0.9689
5.6460 3.8758 -3.2281 0.9702
3.3422 4.7543 -2.7394 0.9746
2.7938 4.8391 -2.6339 0.9756
2.2643 4.8794 -2.5356 0.9765
-0.4441 4.4141 -2.0912 0.9806
-0.8144 4.2489 -2.0393 0.9811
-1.1624 4.0651 -1.9930 0.9815
-2.3399 3.1758 -1.8594 0.9827
-2.8068 2.6547 -1.8211 0.9831
-3.0111 2.3779 -1.8086 0.9832
-3.1963 2.0909 -1.8004 0.9833
-3.5092 1.4881 -1.7967 0.9833
-2.2973 0.3089 -1.0926 0.9898
-2.3799 -0.3201 -1.1319 0.9894
-2.4109 -1.0223 -1.2344 0.9885
-3.7262 -2.4376 -2.0989 0.9805
-2.9512 -4.0053 -2.3452 0.9782
-2.6753 -4.4042 -2.4291 0.9775
-2.3579 -4.7981 -2.5201 0.9766
-0.6276 -6.2391 -2.9558 0.9727
2.6035 -7.2368 -3.6253 0.9666
3.3597 -7.2400 -3.7623 0.9653
1.3797 -2.3897 -1.3007 0.9879
1.4785 -2.1031 -1.2118 0.9887
1.5994 -1.8918 -1.1678 0.9891
2.4399 -1.3727 -1.3196 0.9877
8.5228 -3.8402 -4.4064 0.9595
8.9701 -1.4105 -4.2803 0.9606
8.8773 -0.5942 -4.1939 0.9614
8.3734 0.9367 -3.9716 0.9634
7.9900 1.6240 -3.8433 0.9646
7.0380 2.8011 -3.5706 0.9671
6.4985 3.2838 -3.4321 0.9683
5.9341 3.6958 -3.2953 0.9696
5.3557 4.0389 -3.1620 0.9708
4.7728 4.3168 -3.0335 0.9719
3.6225 4.6938 -2.7948 0.9741
2.5266 4.8645 -2.5838 0.9761
2.0072 4.8843 -2.4892 0.9769
1.5095 4.8662 -2.4016 0.9777
1.0345 4.8143 -2.3211 0.9785
-0.6321 4.3339 -2.0645 0.9808
-0.9912 4.1592 -2.0154 0.9813
-2.2108 3.2988 -1.8719 0.9826
-2.6975 2.7892 -1.8290 0.9830
-2.9114 2.5176 -1.8143 0.9831
-3.4381 1.6423 -1.7961 0.9833
-3.5755 1.3315 -1.7985 0.9833
-3.6934 1.0117 -1.8051 0.9832
-2.3515 0.4236 -1.1263 0.9895
-2.2975 0.0000 -1.1300 0.9898
-2.3278 -0.8669 -1.2217 0.9890
-2.3666 -1.1304 -1.2900 0.9884
-3.5352 -2.5445 -2.1424 0.9808
-2.9575 -3.6605 -2.3146 0.9792
-2.7077 -4.0402 -2.3922 0.9786
-2.4195 -4.4150 -2.4763 0.9778
-2.0908 -4.7818 -2.5670 0.9770
-1.3047 -5.4748 -2.7682 0.9752
-0.3389 -6.0784 -2.9943 0.9732
0.8054 -6.5391 -3.2406 0.9711
1.4388 -6.6957 -3.3685 0.9699
2.1068 -6.7915 -3.4975 0.9688
1.5485 -2.0065 -1.2466 0.9888
2.0290 -1.5301 -1.2499 0.9887
8.0665 -3.2104 -4.2702 0.9620
8.3332 -0.9322 -4.1243 0.9633
7.6798 1.2076 -3.8237 0.9659
6.3915 2.8799 -3.4481 0.9692
5.8822 3.3092 -3.3196 0.9704
5.3521 3.6740 -3.1930 0.9715
4.8109 3.9763 -3.0699 0.9726
3.7256 4.4067 -2.8382 0.9746
3.1934 4.5427 -2.7312 0.9756
2.6740 4.6316 -2.6305 0.9764
-0.4288 4.2625 -2.1071 0.9811
-0.7871 4.1064 -2.0565 0.9815
-1.1242 3.9318 -2.0114 0.9819
-1.4405 3.7403 -1.9714 0.9823
-1.7363 3.5334 -1.9364 0.9826
-2.0121 3.3124 -1.9062 0.9829
-3.1013 2.0288 -1.8228 0.9836
-3.2626 1.7410 -1.8189 0.9837
-3.5288 1.1379 -1.8237 0.9836
-2.5042 0.5674 -1.2629 0.9886
-2.2513 0.3028 -1.1173 0.9899
-2.3022 -0.1027 -1.1335 0.9898
-2.3108 -0.3108 -1.1468 0.9897
-2.3375 -0.9912 -1.2488 0.9887
-3.7009 -1.9748 -2.0632 0.9815
-3.5978 -2.3535 -2.1146 0.9810
-3.2719 -3.0946 -2.2151 0.9801
-2.8372 -3.8508 -2.3526 0.9789
-2.5685 -4.2284 -2.4334 0.9782
-2.2603 -4.5997 -2.5208 0.9774
-0.0692 -6.2094 -3.0543 0.9727
1.7689 -6.7518 -3.4330 0.9694
1.3975 -2.4205 -1.3747 0.9876
1.4904 -2.1202 -1.2747 0.9885
1.7553 -1.7358 -1.2142 0.9891
1.9318 -1.5966 -1.2327 0.9889
2.1528 -1.4779 -1.2844 0.9884
8.3250 -2.0822 -4.2208 0.9625
8.2826 -0.5545 -4.0829 0.9637
8.1073 0.1807 -3.9886 0.9645
7.4996 1.5244 -3.7642 0.9665
6.6350 2.6407 -3.5124 0.9687
5.6191 3.4996 -3.2560 0.9709
5.0824 3.8328 -3.1309 0.9720
4.5387 4.1050 -3.0100 0.9731
3.9953 4.3196 -2.8941 0.9741
2.9319 4.5927 -2.6800 0.9760
1.9257 4.6859 -2.4918 0.9777
1.4503 4.6752 -2.4076 0.9784
0.9952 4.6314 -2.3300 0.9791
-0.2416 4.3330 -2.1345 0.9808
-0.9583 4.0213 -2.0333 0.9817
-1.2850 3.8380 -1.9907 0.9821
-2.1426 3.1970 -1.8929 0.9830
-2.6161 2.7050 -1.8509 0.9834
-2.8242 2.4422 -1.8365 0.9835
-3.1843 1.8861 -1.8203 0.9836
-3.4693 1.2920 -1.8209 0.9836
-3.5834 0.9816 -1.8275 0.9836
-2.3061 0.4155 -1.1525 0.9896
-2.2658 0.2024 -1.1189 0.9899
-2.2416 -0.4038 -1.1677 0.9898
-2.2481 -0.6158 -1.1950 0.9896
-2.2593 -0.8414 -1.2360 0.9892
-2.2721 -1.0853 -1.2909 0.9887
-3.4140 -2.4573 -2.1565 0.9813
-3.2590 -2.8182 -2.2088 0.9808
-2.8475 -3.5244 -2.3229 0.9798
-2.6038 -3.8852 -2.3978 0.9792
-2.0050 -4.5855 -2.5658 0.9778
-1.6466 -4.9181 -2.6589 0.9770
-1.2471 -5.2332 -2.7580 0.9761
0.7641 -6.2038 -3.2045 0.9723
1.3623 -6.3396 -3.3243 0.9713
2.6420 -6.4289 -3.5634 0.9692
1.4573 -2.8058 -1.6209 0.9859
1.4575 -2.2831 -1.3886 0.9879
1.5610 -2.0227 -1.3099 0.9886
7.2406 -3.6588 -4.1591 0.9642
7.7206 -2.3010 -4.1301 0.9644
7.7970 -0.8722 -4.0222 0.9653
7.6891 -0.1713 -3.9429 0.9660
5.5755 3.1367 -3.2797 0.9717
5.0832 3.4894 -3.1609 0.9727
3.5583 4.2087 -2.8255 0.9755
2.0831 4.4890 -2.5371 0.9780
1.6198 4.5022 -2.4530 0.9787
1.1741 4.4814 -2.3750 0.9794
0.7472 4.4298 -2.3031 0.9800
-0.7612 3.9711 -2.0729 0.9820
-1.0880 3.8050 -2.0289 0.9824
-1.6824 3.4235 -1.9556 0.9830
-1.9505 3.2110 -1.9261 0.9833
-2.1996 2.9854 -1.9011 0.9835
-2.4300 2.7477 -1.8805 0.9836
-3.1671 1.6901 -1.8404 0.9840
-3.3055 1.4017 -1.8407 0.9840
-2.2376 -0.0998 -1.1483 0.9900
-2.2446 -0.3019 -1.1611 0.9899
-2.2530 -0.7265 -1.2136 0.9894
-2.2672 -0.9614 -1.2625 0.9890
-2.3837 -1.2720 -1.3851 0.9879
-3.4760 -2.2739 -2.1295 0.9815
-3.3447 -2.6412 -2.1849 0.9810
-2.7301 -3.7054 -2.3596 0.9795
-2.1691 -4.4141 -2.5215 0.9781
-1.4521 -5.0781 -2.7078 0.9765
-1.0317 -5.3826 -2.8097 0.9757
-0.5695 -5.6614 -2.9171 0.9747
2.3140 -6.4318 -3.5043 0.9697
1.5028 -2.1377 -1.3396 0.9883
1.6240 -1.9209 -1.2896 0.9888
1.7688 -1.7492 -1.2753 0.9889
1.9478 -1.6099 -1.2955 0.9887
2.5151 -1.4150 -1.4795 0.9871
7.6381 -2.6522 -4.1452 0.9643
7.7775 -1.9453 -4.1101 0.9646
7.8153 -1.2289 -4.0559 0.9651
7.6016 0.1694 -3.8981 0.9664
7.0567 1.4343 -3.6917 0.9681
6.6870 1.9929 -3.5772 0.9691
6.2701 2.4955 -3.4597 0.9701
5.8141 2.9380 -3.3397 0.9711
5.3315 3.3205 -3.2200 0.9722
4.8317 3.6438 -3.1025 0.9732
4.3231 3.9100 -2.9883 0.9741
3.3056 4.2832 -2.7738 0.9760
2.8072 4.3975 -2.6746 0.9768
2.3209 4.4685 -2.5814 0.9776
1.8493 4.5001 -2.4943 0.9784
0.9582 4.4593 -2.3383 0.9797
0.5411 4.3934 -2.2694 0.9803
0.1438 4.3011 -2.2063 0.9808
-0.2333 4.1850 -2.1488 0.9813
-0.5903 4.0474 -2.0969 0.9818
-1.5411 3.5246 -1.9721 0.9829
-2.0774 3.0997 -1.9130 0.9834
-2.3171 2.8680 -1.8902 0.9836
-2.5382 2.6246 -1.8718 0.9837
-2.7408 2.3701 -1.8577 0.9838
-3.4781 0.9528 -1.8488 0.9839
-2.2585 0.4069 -1.1765 0.9897
-2.2093 0.1974 -1.1372 0.9901
-2.1932 -0.8168 -1.2494 0.9894
-3.4146 -2.0225 -2.1186 0.9822
-3.1497 -2.7237 -2.2229 0.9813
-2.9524 -3.0528 -2.2672 0.9809
-2.7438 -3.3961 -2.3308 0.9804
-2.5060 -3.7392 -2.4030 0.9798
-2.2334 -4.0755 -2.4810 0.9791
-1.9246 -4.4017 -2.5646 0.9785
-1.5783 -4.7141 -2.6539 0.9777
1.2924 -6.0142 -3.2839 0.9725
1.8850 -6.0766 -3.3964 0.9716
3.1204 -6.0078 -3.6140 0.9698
1.4892 -2.3328 -1.4775 0.9875
2.3663 -1.4738 -1.4882 0.9874
7.2343 -2.1560 -4.0298 0.9664
7.3222 -1.4883 -3.9888 0.9667
7.3179 -0.8186 -3.9310 0.9672
