ply
format ascii 1.0
element vertex 1582
property float32 x
property float32 y
property float32 z
property float32 I
end_header
-0.4399 -2.2948 0.1361 0.9907
-0.2284 -2.2707 0.1329 0.9909
0.1799 -2.3022 0.1345 0.9908
0.9824 -2.7307 0.1690 0.9884
-1.1132 -2.5460 0.1155 0.9889
0.2867 -2.3276 0.0975 0.9907
0.7905 -2.5484 0.1109 0.9894
1.2372 -3.0106 0.1353 0.9871
1.4530 5.5460 0.2384 0.9773
-1.3432 -2.7334 0.1266 0.9879
-0.9434 -2.4495 0.1091 0.9895
-0.6693 -2.3408 0.1012 0.9903
-0.4383 -2.2864 0.0968 0.9907
-0.2276 -2.2626 0.0946 0.9909
-0.0253 -2.2731 0.0945 0.9909
0.3981 -2.3600 0.0995 0.9905
0.6468 -2.4689 0.1061 0.9898
0.9738 -2.7068 0.1196 0.9885
-1.1063 -2.5303 0.0689 0.9890
-0.7937 -2.3707 0.0623 0.9900
-0.5459 -2.2909 0.0587 0.9906
-0.3305 -2.2662 0.0571 0.9909
0.0761 -2.2753 0.0568 0.9909
0.2860 -2.3219 0.0583 0.9907
0.5150 -2.3965 0.0611 0.9902
0.7869 -2.5368 0.0662 0.9894
1.2211 -2.9713 0.0801 0.9872
1.4529 5.5455 0.1430 0.9773
-12.4741 8.1602 0.3717 0.9421
-13.0471 6.9622 0.3688 0.9425
-13.6312 5.7802 0.3692 0.9425
-1.3330 -2.7126 0.0754 0.9880
-0.9369 -2.4325 0.0650 0.9896
-0.6661 -2.3296 0.0604 0.9904
-0.2268 -2.2546 0.0565 0.9910
0.1790 -2.2911 0.0573 0.9908
0.3971 -2.3540 0.0595 0.9905
0.6454 -2.4635 0.0635 0.9899
-12.7599 7.5577 0.3698 0.9424
-13.3371 6.3706 0.3686 0.9426
-1.1043 -2.5256 0.0229 0.9890
-0.7911 -2.3629 0.0207 0.9901
-0.3293 -2.2581 0.0190 0.9909
0.0759 -2.2687 0.0189 0.9910
0.2853 -2.3163 0.0194 0.9907
0.7856 -2.5324 0.0220 0.9894
1.2054 -2.9331 0.0264 0.9874
-9.6863 10.9525 0.1215 0.9432
-10.2724 9.7155 0.1175 0.9450
-11.8983 6.3492 0.1121 0.9475
-12.4297 5.2707 0.1122 0.9474
-12.9711 4.1827 0.1133 0.9469
-13.5322 3.0660 0.1153 0.9460
-14.7592 0.6583 0.1228 0.9426
-1.3282 -2.7027 0.0250 0.9880
-0.6629 -2.3184 0.0200 0.9904
-0.0252 -2.2600 0.0188 0.9910
0.6440 -2.4582 0.0211 0.9899
-9.3781 11.6074 0.1240 0.9421
-10.5536 9.1261 0.1160 0.9457
-11.6335 6.8906 0.1124 0.9474
-12.6986 4.7290 0.1126 0.9472
-13.7440 0.0000 -0.1142 0.9465
-1.1023 -2.5210 -0.0229 0.9891
-0.7904 -2.3608 -0.0207 0.9901
-0.1252 -2.2449 -0.0187 0.9910
0.5129 -2.3866 -0.0203 0.9903
1.1935 -2.9043 -0.0261 0.9875
-7.5711 12.4638 -0.1212 0.9433
-8.2364 11.1786 -0.1154 0.9460
-8.8424 9.9984 -0.1109 0.9480
-9.9344 7.8451 -0.1052 0.9506
-10.9357 5.8355 -0.1030 0.9516
-12.9220 1.7379 -0.1084 0.9492
-14.0376 -0.6259 -0.1168 0.9453
-14.6651 -1.9723 -0.1230 0.9425
-0.6623 -2.3162 -0.0200 0.9904
0.9587 -2.6649 -0.0235 0.9887
-7.9123 11.8060 -0.1181 0.9447
-8.5458 10.5772 -0.1130 0.9471
-9.6728 8.3644 -0.1063 0.9501
-10.1904 7.3346 -0.1044 0.9510
-10.6901 6.3318 -0.1033 0.9515
-11.6668 4.3448 -0.1035 0.9514
-12.1585 3.3306 -0.1048 0.9508
-12.6626 2.2813 -0.1069 0.9498
-12.6123 0.0000 -0.3145 0.9508
-1.1003 -2.5164 -0.0685 0.9891
-0.5427 -2.2772 -0.0584 0.9907
1.1921 -2.9008 -0.0782 0.9875
1.4544 5.5515 -0.1431 0.9773
-6.2000 12.6166 -0.3506 0.9453
-7.5518 10.2494 -0.3175 0.9503
-8.1337 9.1969 -0.3062 0.9521
-8.6716 8.2016 -0.2977 0.9534
-9.1760 7.2463 -0.2916 0.9543
-9.6554 6.3163 -0.2877 0.9549
-10.1170 5.3986 -0.2860 0.9552
-10.5671 4.4809 -0.2862 0.9551
-11.4568 2.5958 -0.2930 0.9541
-12.8580 -0.5733 -0.3210 0.9498
-13.3732 -1.7985 -0.3365 0.9474
-13.9300 -3.1561 -0.3562 0.9445
-1.3186 -2.6833 -0.0746 0.9881
-0.6617 -2.3143 -0.0600 0.9904
-0.4335 -2.2616 -0.0574 0.9908
-0.2245 -2.2317 -0.0559 0.9911
0.1778 -2.2747 -0.0569 0.9909
0.3941 -2.3365 -0.0591 0.9906
0.9570 -2.6600 -0.0705 0.9888
-5.5885 12.7813 -0.3479 0.9457
-6.5670 11.9833 -0.3408 0.9468
-7.8489 9.7148 -0.3115 0.9513
-9.8880 5.8567 -0.2866 0.9551
-11.2339 3.0773 -0.2905 0.9545
-11.6520 0.0000 -0.4845 0.9544
-12.0728 -1.0788 -0.5040 0.9526
-13.2348 -4.9287 -0.5872 0.9450
-1.0983 -2.5118 -0.1140 0.9891
-0.5426 -2.2767 -0.0973 0.9907
-0.3276 -2.2460 -0.0944 0.9910
1.4553 5.5549 -0.2388 0.9773
-4.6115 11.9736 -0.5335 0.9499
-5.6784 11.5552 -0.5353 0.9498
-6.9718 9.4623 -0.4887 0.9540
-8.0442 7.6082 -0.4604 0.9566
-8.5248 6.7319 -0.4517 0.9574
-8.9785 5.8735 -0.4461 0.9580
-9.4118 5.0223 -0.4436 0.9582
-9.8299 4.1683 -0.4440 0.9582
-10.2378 3.3013 -0.4473 0.9578
-10.6401 2.4107 -0.4536 0.9573
-11.0414 1.4850 -0.4632 0.9564
-11.8606 -0.5289 -0.4936 0.9536
-12.7409 -2.8867 -0.5432 0.9490
-1.3139 -2.6736 -0.1239 0.9881
-0.6612 -2.3124 -0.1000 0.9904
-0.0250 -2.2417 -0.0932 0.9911
0.1773 -2.2692 -0.0946 0.9909
0.6399 -2.4424 -0.1050 0.9899
0.9552 -2.6551 -0.1173 0.9888
-4.2144 12.5878 -0.5519 0.9482
-6.6734 9.9574 -0.4984 0.9531
-9.1974 5.4476 -0.4445 0.9581
-9.6224 4.5962 -0.4434 0.9582
-10.0348 3.7370 -0.4452 0.9580
-10.4393 2.8596 -0.4501 0.9576
-10.8266 0.0000 -0.6306 0.9575
-11.8778 -3.2537 -0.7173 0.9519
-12.1108 -4.5101 -0.7527 0.9495
-12.5090 -5.9750 -0.8074 0.9460
-1.0963 -2.5072 -0.1594 0.9891
-0.7884 -2.3548 -0.1446 0.9901
-0.1248 -2.2375 -0.1305 0.9911
0.0752 -2.2476 -0.1310 0.9910
0.2825 -2.2938 -0.1346 0.9908
0.7802 -2.5151 -0.1534 0.9895
1.1893 -2.8940 -0.1822 0.9875
1.4584 5.5667 -0.3352 0.9772
-2.5475 13.2902 -0.7882 0.9472
-4.2330 10.9909 -0.6860 0.9539
-5.2372 10.6574 -0.6916 0.9535
-5.8877 9.6925 -0.6605 0.9556
-6.4740 8.7866 -0.6357 0.9572
-7.5008 7.0943 -0.6013 0.9595
-7.9591 6.2852 -0.5907 0.9602
-8.3896 5.4882 -0.5839 0.9606
-8.7977 4.6946 -0.5808 0.9608
-9.1880 3.8961 -0.5813 0.9608
-9.9312 2.2501 -0.5931 0.9600
-10.2912 1.3841 -0.6048 0.9592
-11.0056 -0.4908 -0.6416 0.9568
-11.7376 -2.6594 -0.7010 0.9529
-12.3067 -5.2184 -0.7786 0.9478
-12.7190 -6.7871 -0.8397 0.9439
-1.3091 -2.6640 -0.1729 0.9882
-0.6606 -2.3104 -0.1400 0.9904
-0.4333 -2.2607 -0.1341 0.9908
-0.0250 -2.2425 -0.1306 0.9911
0.1770 -2.2652 -0.1323 0.9909
-3.8576 11.5220 -0.7077 0.9525
-6.7470 8.3509 -0.6253 0.9579
-7.7338 6.6877 -0.5955 0.9599
-9.7489 2.6705 -0.5887 0.9603
-10.1118 1.8218 -0.5984 0.9597
-10.1091 0.0000 -0.7576 0.9603
-10.4186 -0.9310 -0.7839 0.9589
-10.7258 -1.9323 -0.8167 0.9572
-11.0113 -3.0163 -0.8556 0.9552
-11.1610 -4.1564 -0.8925 0.9534
-11.4627 -5.4753 -0.9520 0.9503
-12.0991 -8.7084 -1.1171 0.9420
-1.0942 -2.5026 -0.2047 0.9891
-0.7877 -2.3527 -0.1859 0.9901
-0.5423 -2.2758 -0.1753 0.9907
-0.3274 -2.2451 -0.1700 0.9909
-0.1248 -2.2383 -0.1680 0.9910
0.0752 -2.2484 -0.1686 0.9910
0.2825 -2.2937 -0.1732 0.9908
0.5086 -2.3669 -0.1814 0.9903
0.7789 -2.5108 -0.1970 0.9895
1.1879 -2.8906 -0.2342 0.9875
-0.1627 14.6063 -1.0947 0.9431
-5.4803 9.0218 -0.7911 0.9585
-7.0253 6.6445 -0.7247 0.9620
-7.4629 5.8934 -0.7126 0.9626
-7.8722 5.1498 -0.7050 0.9630
-8.6238 3.6568 -0.7020 0.9631
-8.9734 2.8936 -0.7066 0.9629
-9.6353 1.2958 -0.7286 0.9618
-10.5723 -1.4218 -0.7994 0.9581
-10.8792 -2.4649 -0.8360 0.9562
-11.0388 -3.5595 -0.8692 0.9545
-11.6163 -6.1986 -0.9867 0.9486
-1.3045 -2.6545 -0.2217 0.9882
-0.9263 -2.4052 -0.1932 0.9897
-0.6601 -2.3085 -0.1799 0.9904
-0.2247 -2.2333 -0.1682 0.9910
0.3915 -2.3209 -0.1764 0.9906
0.6371 -2.4319 -0.1884 0.9900
0.9517 -2.6454 -0.2107 0.9888
-0.7766 13.9280 -1.0454 0.9456
-1.8528 12.7036 -0.9621 0.9498
-2.7686 11.6174 -0.8950 0.9532
-3.5559 10.6210 -0.8394 0.9561
-5.1779 9.4484 -0.8074 0.9577
-5.7677 8.6061 -0.7764 0.9593
-6.7942 7.0252 -0.7324 0.9616
-8.0677 4.7785 -0.7027 0.9631
-8.4430 4.0329 -0.7012 0.9632
-8.8004 3.2773 -0.7037 0.9630
-9.7949 0.8753 -0.7370 0.9613
-9.7484 -0.8711 -0.8973 0.9614
-10.2535 -2.8087 -0.9747 0.9582
-10.3475 -3.8534 -1.0123 0.9566
-11.0123 -7.9262 -1.2439 0.9470
-1.0923 -2.4981 -0.2500 0.9891
-0.5422 -2.2753 -0.2144 0.9906
-0.3274 -2.2446 -0.2080 0.9909
-0.1249 -2.2391 -0.2056 0.9910
0.0752 -2.2492 -0.2063 0.9910
0.5091 -2.3690 -0.2221 0.9903
0.7775 -2.5065 -0.2406 0.9895
1.1865 -2.8871 -0.2862 0.9875
1.1328 14.4968 -1.3331 0.9433
-1.2234 12.1614 -1.1205 0.9521
-2.9384 10.2764 -0.9799 0.9580
-4.5309 9.2200 -0.9418 0.9596
-5.1247 8.4365 -0.9050 0.9611
-5.6626 7.6854 -0.8752 0.9624
-6.1537 6.9582 -0.8516 0.9634
-6.6055 6.2475 -0.8335 0.9641
-7.0239 5.5467 -0.8205 0.9647
-7.4138 4.8499 -0.8122 0.9650
-7.7793 4.1512 -0.8084 0.9652
-8.4498 2.7247 -0.8139 0.9650
-8.7601 1.9848 -0.8235 0.9646
-4.2496 0.5715 -0.3931 0.9829
-10.1361 -2.2965 -0.9528 0.9591
-10.2594 -3.3082 -0.9882 0.9576
-10.4625 -4.4365 -1.0419 0.9554
-10.9052 -7.1339 -1.1947 0.9490
-11.1176 -8.7794 -1.2987 0.9447
-0.9247 -2.4010 -0.2359 0.9897
-0.6596 -2.3066 -0.2199 0.9904
-0.4331 -2.2597 -0.2109 0.9908
-0.0250 -2.2442 -0.2058 0.9910
0.3919 -2.3234 -0.2160 0.9906
0.6363 -2.4290 -0.2302 0.9900
0.9500 -2.6405 -0.2573 0.9888
-1.7004 11.6587 -1.0801 0.9538
-4.8355 8.8236 -0.9224 0.9604
-5.4000 8.0575 -0.8892 0.9618
-5.9135 7.3193 -0.8627 0.9629
-6.8185 5.8963 -0.8264 0.9644
-7.2221 5.1982 -0.8158 0.9649
-8.6068 2.3577 -0.8181 0.9648
-4.9081 0.8842 -0.4572 0.9802
-4.1097 0.3672 -0.3783 0.9836
-9.1576 -0.8183 -0.9973 0.9637
-9.3800 -1.6899 -1.0338 0.9624
-9.6425 -3.5909 -1.1161 0.9594
-9.8142 -4.6878 -1.1797 0.9572
-10.2164 -8.8345 -1.4650 0.9471
-10.3062 -10.6565 -1.6080 0.9421
-0.1249 -2.2399 -0.2433 0.9910
0.2831 -2.2985 -0.2512 0.9907
1.1851 -2.8837 -0.3382 0.9875
1.0281 13.1571 -1.4315 0.9483
-0.1351 12.1288 -1.3157 0.9524
-1.1270 11.2025 -1.2212 0.9557
-2.7333 9.5591 -1.0784 0.9608
-5.7987 6.5567 -0.9494 0.9654
-6.2320 5.8942 -0.9304 0.9661
-6.6326 5.2377 -0.9167 0.9666
-3.7517 0.5046 -0.4106 0.9849
-3.7330 0.1665 -0.4053 0.9851
-9.5805 -3.0893 -1.0919 0.9603
-9.8938 -5.2795 -1.2164 0.9559
-10.0390 -6.5672 -1.3012 0.9529
-10.1634 -8.0259 -1.4047 0.9492
-10.2689 -9.7120 -1.5330 0.9447
-1.3128 -2.6715 -0.3229 0.9881
-0.6590 -2.3046 -0.2600 0.9904
-0.4331 -2.2592 -0.2495 0.9908
-0.0250 -2.2450 -0.2435 0.9910
0.1776 -2.2722 -0.2472 0.9909
0.3923 -2.3258 -0.2558 0.9906
1.2343 5.7442 -0.6373 0.9766
0.4222 12.6285 -1.3705 0.9504
-1.5708 10.7701 -1.1806 0.9572
-2.3715 9.9513 -1.1096 0.9597
-3.0733 9.1796 -1.0500 0.9618
-3.6966 8.4543 -1.0008 0.9636
-4.5347 8.2748 -1.0235 0.9627
-6.8220 4.9102 -0.9117 0.9667
-7.5171 3.5906 -0.9036 0.9670
-7.8322 2.9168 -0.9065 0.9669
-8.1286 2.2267 -0.9142 0.9667
-3.9949 0.7197 -0.4403 0.9838
-3.5692 0.0000 -0.4473 0.9857
-3.7700 -0.3369 -0.4743 0.9849
-9.1527 -4.3719 -1.2711 0.9599
-9.2562 -5.4825 -1.3482 0.9576
-9.3743 -8.1062 -1.5531 0.9513
-0.7857 -2.3466 -0.3101 0.9901
-0.5420 -2.2743 -0.2930 0.9906
-0.3272 -2.2437 -0.2841 0.9909
-0.1249 -2.2407 -0.2812 0.9910
0.0753 -2.2509 -0.2822 0.9910
0.2834 -2.3009 -0.2905 0.9907
0.7823 -2.5220 -0.3309 0.9894
2.1917 12.9935 -1.6513 0.9483
0.9409 12.0404 -1.5135 0.9525
-1.0443 10.3811 -1.3075 0.9588
-1.8479 9.6406 -1.2301 0.9612
-2.5544 8.9333 -1.1644 0.9632
-4.5337 7.4634 -1.0943 0.9654
-6.6371 4.3418 -0.9939 0.9685
-7.5629 2.4387 -0.9958 0.9685
-4.3832 0.9931 -0.5632 0.9820
-3.5494 0.4774 -0.4488 0.9857
-3.5348 0.1576 -0.4434 0.9858
-8.9126 -2.0193 -1.1452 0.9638
-8.9916 -2.8994 -1.1839 0.9626
-9.0918 -3.8552 -1.2376 0.9610
-9.3573 -7.3894 -1.4942 0.9531
-9.3635 -10.5874 -1.7712 0.9446
-1.3199 -2.6859 -0.3750 0.9880
-0.6584 -2.3027 -0.3001 0.9904
-0.2249 -2.2357 -0.2816 0.9910
-0.0250 -2.2458 -0.2815 0.9910
0.1777 -2.2745 -0.2859 0.9908
0.9533 -2.6498 -0.3529 0.9887
0.3878 11.5985 -1.4543 0.9543
-2.2120 9.2823 -1.1958 0.9623
-2.8771 8.5935 -1.1357 0.9641
-3.4709 7.9382 -1.0857 0.9657
-5.2598 6.5101 -1.0488 0.9668
-5.6936 5.8871 -1.0263 0.9675
-6.0931 5.2689 -1.0095 0.9680
-6.4626 4.6515 -0.9978 0.9684
-6.8054 4.0309 -0.9912 0.9686
-7.6993 2.1091 -1.0004 0.9683
-3.5366 0.3160 -0.4450 0.9858
-3.3944 0.0000 -0.4828 0.9864
-8.4721 -2.3207 -1.2494 0.9651
-8.4882 -3.1610 -1.2883 0.9641
-8.5725 -4.0947 -1.3513 0.9623
-8.6363 -5.1152 -1.4277 0.9603
-8.6576 -7.4865 -1.6280 0.9548
-8.4886 -10.5065 -1.9212 0.9469
-0.5419 -2.2738 -0.3325 0.9906
-0.1250 -2.2416 -0.3193 0.9910
0.0753 -2.2517 -0.3205 0.9909
0.5122 -2.3835 -0.3468 0.9902
0.7854 -2.5319 -0.3771 0.9893
1.2017 -2.9241 -0.4497 0.9873
4.9336 13.7132 -2.0729 0.9428
1.4840 5.6644 -0.8329 0.9766
-1.7281 9.0153 -1.3056 0.9636
-2.3968 8.3822 -1.2400 0.9654
-2.9943 7.7745 -1.1850 0.9669
-3.7633 7.6582 -1.2137 0.9661
-4.7604 6.4610 -1.1415 0.9681
-5.5956 5.2923 -1.0955 0.9694
-5.9642 4.7099 -1.0810 0.9698
-6.3049 4.1245 -1.0716 0.9700
-6.6204 3.5328 -1.0673 0.9701
-4.1432 0.9387 -0.6042 0.9830
-3.3671 0.4528 -0.4832 0.9864
-3.4470 -0.1537 -0.4908 0.9862
-8.4715 -2.7317 -1.2661 0.9647
-8.5297 -3.6169 -1.3178 0.9633
-8.6081 -4.5934 -1.3878 0.9613
-8.6561 -5.6625 -1.4713 0.9591
-8.5507 -9.6684 -1.8359 0.9492
-8.4002 -11.4009 -2.0143 0.9444
-0.9287 -2.4113 -0.3675 0.9896
-0.2250 -2.2365 -0.3197 0.9910
-0.0250 -2.2466 -0.3196 0.9910
0.1779 -2.2769 -0.3248 0.9908
0.9573 -2.6609 -0.4022 0.9886
4.1010 13.2203 -1.9688 0.9456
-0.5581 10.0090 -1.4259 0.9603
-4.0304 7.3546 -1.1929 0.9667
-4.5281 6.7564 -1.1569 0.9677
-4.9827 6.1672 -1.1277 0.9685
-6.1379 4.4178 -1.0757 0.9699
-6.4657 3.8297 -1.0689 0.9701
-6.7693 3.2335 -1.0671 0.9701
-7.0508 2.6258 -1.0702 0.9701
-8.0028 -2.1922 -1.3213 0.9669
-8.0917 -4.7927 -1.4976 0.9626
-7.9412 -8.2112 -1.8190 0.9548
-7.7772 -9.6259 -1.9706 0.9511
-7.5371 -11.2462 -2.1558 0.9466
-1.1071 -2.5319 -0.4400 0.9889
-0.7911 -2.3630 -0.3968 0.9900
-0.3271 -2.2427 -0.3609 0.9909
-0.1250 -2.2424 -0.3576 0.9909
0.0753 -2.2535 -0.3590 0.9909
0.5132 -2.3885 -0.3890 0.9902
1.2231 -2.9762 -0.5124 0.9871
4.4715 12.4289 -2.1033 0.9479
1.8473 10.9518 -1.7686 0.9560
0.8036 10.2833 -1.6425 0.9591
-1.6221 8.4627 -1.3721 0.9657
-3.5605 7.2455 -1.2855 0.9678
-4.0613 6.6858 -1.2457 0.9688
-4.5184 6.1324 -1.2129 0.9696
-4.9372 5.5826 -1.1867 0.9703
-6.3046 3.3643 -1.1379 0.9715
-6.8391 2.2053 -1.1443 0.9713
-3.9744 0.9005 -0.6489 0.9836
-3.2540 0.4376 -0.5228 0.9868
-8.0309 -3.4053 -1.3890 0.9653
-8.0796 -4.3114 -1.4583 0.9636
-8.0702 -6.3729 -1.6374 0.9592
-1.3344 -2.7154 -0.4818 0.9878
-0.6609 -2.3113 -0.3828 0.9903
0.1781 -2.2793 -0.3640 0.9908
0.9613 -2.6720 -0.4522 0.9886
1.2203 5.6786 -0.9249 0.9767
1.3071 10.6127 -1.7027 0.9576
-1.2766 8.7528 -1.4085 0.9648
-2.5491 7.6139 -1.2786 0.9680
-3.1798 7.2725 -1.2639 0.9684
-4.7322 5.8572 -1.1991 0.9700
-5.1336 5.3081 -1.1759 0.9705
-6.7136 2.5002 -1.1408 0.9714
-4.5041 1.2338 -0.7436 0.9813
-3.5501 0.6396 -0.5744 0.9855
-3.2454 0.2900 -0.5188 0.9869
-3.1939 0.0000 -0.5632 0.9871
-3.2817 -0.2933 -0.5810 0.9867
-7.5807 -2.0766 -1.3859 0.9686
-7.5788 -5.4549 -1.6465 0.9628
-7.5030 -6.4881 -1.7490 0.9605
-7.3730 -7.6237 -1.8701 0.9578
-7.1779 -8.8842 -2.0139 0.9547
-6.5259 -11.9083 -2.3944 0.9463
-0.7939 -2.3713 -0.4409 0.9899
-0.5450 -2.2868 -0.4145 0.9905
-0.3276 -2.2460 -0.4002 0.9908
-0.1251 -2.2432 -0.3962 0.9909
0.0754 -2.2558 -0.3980 0.9909
0.2843 -2.3083 -0.4101 0.9906
0.7916 -2.5520 -0.4711 0.9892
5.5730 12.0095 -2.3345 0.9476
4.0867 11.3593 -2.1286 0.9521
-0.1006 9.0291 -1.5922 0.9640
-1.5278 7.9706 -1.4310 0.9676
-2.1314 7.4540 -1.3670 0.9690
-3.8587 6.3524 -1.3106 0.9703
-4.2988 5.8342 -1.2778 0.9710
-4.7020 5.3167 -1.2515 0.9716
-5.0726 4.7976 -1.2311 0.9720
-5.4135 4.2750 -1.2163 0.9724
-5.7273 3.7467 -1.2068 0.9726
-6.5245 2.1039 -1.2088 0.9725
-3.1779 0.4274 -0.5654 0.9871
-3.1644 0.1411 -0.5585 0.9872
-3.2276 -0.1439 -0.5697 0.9870
-3.3507 -0.4506 -0.5961 0.9864
-7.5337 -1.7069 -1.3621 0.9691
-7.5849 -3.2163 -1.4527 0.9671
-7.6099 -4.0607 -1.5209 0.9656
-7.5471 -5.9599 -1.6957 0.9617
-7.4455 -7.0419 -1.8070 0.9592
-7.2846 -8.2368 -1.9389 0.9563
-7.0508 -9.5693 -2.0959 0.9529
-6.7312 -11.0811 -2.2862 0.9487
-0.2252 -2.2381 -0.3966 0.9909
-0.0250 -2.2483 -0.3965 0.9909
0.1783 -2.2816 -0.4035 0.9907
0.6432 -2.4550 -0.4475 0.9897
4.8000 11.6802 -2.2267 0.9500
3.4266 11.0463 -2.0393 0.9541
1.2145 9.8610 -1.7519 0.9604
0.3110 9.3018 -1.6411 0.9629
-1.2008 8.2335 -1.4671 0.9668
-2.4104 7.1997 -1.3388 0.9696
-3.1198 7.1352 -1.3731 0.9689
-4.0835 6.0931 -1.2933 0.9706
-4.5046 5.5755 -1.2639 0.9713
-5.2466 4.5369 -1.2230 0.9722
-4.2904 1.1753 -0.7844 0.9821
-3.4372 0.6192 -0.6158 0.9859
-3.1509 0.2816 -0.5578 0.9872
-3.3117 -0.5966 -0.6512 0.9864
-7.1988 -1.9719 -1.4444 0.9700
-7.1835 -2.6751 -1.4834 0.9693
-7.1276 -5.1301 -1.6994 0.9649
-6.6616 -8.2451 -2.0513 0.9577
-6.3653 -9.4976 -2.2126 0.9545
-5.9739 -10.9009 -2.4055 0.9506
-1.1161 -2.5526 -0.5391 0.9887
-0.7967 -2.3797 -0.4856 0.9898
-0.5469 -2.2949 -0.4566 0.9904
-0.1253 -2.2475 -0.4356 0.9909
0.0755 -2.2582 -0.4372 0.9908
0.2846 -2.3107 -0.4506 0.9906
0.5154 -2.3985 -0.4748 0.9901
0.7948 -2.5622 -0.5192 0.9891
8.4444 12.0123 -2.8415 0.9419
3.7612 10.4544 -2.1501 0.9557
2.6064 9.9485 -1.9902 0.9590
1.5942 9.4510 -1.8548 0.9617
0.7003 8.9618 -1.7396 0.9640
-0.0945 8.4803 -1.6412 0.9660
-1.4433 7.5297 -1.4837 0.9692
-2.0185 7.0592 -1.4208 0.9705
-2.5398 6.5946 -1.3675 0.9716
-3.2115 6.5353 -1.4092 0.9708
-3.6744 6.0489 -1.3696 0.9716
-4.4871 5.0736 -1.3107 0.9728
-5.7513 3.0690 -1.2615 0.9738
-6.0048 2.5463 -1.2622 0.9738
-6.2359 2.0108 -1.2680 0.9737
-3.0751 0.1371 -0.5957 0.9875
-3.1273 -0.1395 -0.6058 0.9873
-3.2339 -0.4349 -0.6315 0.9868
-7.2182 -2.3275 -1.4677 0.9696
-7.1895 -3.8364 -1.5770 0.9673
-7.1585 -4.6829 -1.6554 0.9657
-6.7788 -7.6649 -1.9802 0.9592
-6.5245 -8.8551 -2.1285 0.9562
-6.1814 -10.1760 -2.3041 0.9526
-0.9393 -2.4389 -0.5058 0.9894
-0.6654 -2.3271 -0.4684 0.9902
-0.2260 -2.2463 -0.4369 0.9908
0.1785 -2.2841 -0.4434 0.9907
0.6446 -2.4604 -0.4922 0.9897
0.9732 -2.7050 -0.5563 0.9884
5.8315 11.2277 -2.4484 0.9498
4.4015 10.7104 -2.2408 0.9539
3.1642 10.2004 -2.0668 0.9574
0.2916 8.7201 -1.6884 0.9651
-0.4596 8.2421 -1.5975 0.9669
-1.7382 7.2938 -1.4510 0.9699
-2.9640 6.7789 -1.4318 0.9703
-4.6695 4.8282 -1.2998 0.9730
-5.0119 4.3340 -1.2822 0.9734
-5.8810 2.8091 -1.2612 0.9738
-4.1641 1.1407 -0.8355 0.9826
-3.0639 0.2738 -0.5953 0.9875
-3.0994 -0.2770 -0.6560 0.9874
-6.8289 -2.5431 -1.5363 0.9707
-6.7922 -4.0230 -1.6643 0.9682
-6.7246 -4.8401 -1.7467 0.9667
-6.6110 -5.7167 -1.8426 0.9649
-6.2119 -7.6886 -2.0838 0.9604
-5.9042 -8.8097 -2.2358 0.9576
-5.5032 -10.0420 -2.4141 0.9543
-0.7996 -2.3883 -0.5310 0.9898
-0.3298 -2.2615 -0.4818 0.9907
-0.1258 -2.2563 -0.4764 0.9908
0.0757 -2.2653 -0.4778 0.9908
0.7980 -2.5726 -0.5679 0.9890
9.4686 11.1995 -3.0918 0.9418
7.6347 10.8605 -2.7987 0.9472
6.0536 10.4851 -2.5524 0.9517
2.4264 9.2614 -2.0184 0.9616
1.4911 8.8399 -1.8900 0.9640
0.6577 8.4162 -1.7797 0.9661
-0.7609 7.5634 -1.6026 0.9694
-1.3671 7.1323 -1.5310 0.9707
-1.9163 6.7017 -1.4695 0.9719
-2.5086 6.5135 -1.4715 0.9719
-3.0601 6.2272 -1.4628 0.9720
-3.5058 5.7714 -1.4236 0.9728
-4.9510 3.9098 -1.3300 0.9745
-5.2415 3.4288 -1.3204 0.9747
-5.5074 2.9389 -1.3160 0.9748
-5.7501 2.4383 -1.3167 0.9748
-5.9702 1.9251 -1.3224 0.9747
-3.0346 0.4081 -0.6455 0.9876
-2.9940 0.1335 -0.6318 0.9878
-3.0505 -0.1360 -0.6437 0.9876
-6.8201 -1.5452 -1.4743 0.9718
-6.8205 -2.8921 -1.5618 0.9702
-6.3364 -7.1646 -2.0164 0.9617
-6.0686 -8.2363 -2.1568 0.9590
-5.7165 -9.4108 -2.3213 0.9560
-1.3794 -2.8071 -0.6594 0.9873
-0.6677 -2.3352 -0.5120 0.9901
-0.4374 -2.2819 -0.4898 0.9905
-0.2269 -2.2551 -0.4778 0.9908
-0.0252 -2.2578 -0.4760 0.9908
0.1788 -2.2882 -0.4839 0.9907
0.3957 -2.3457 -0.5015 0.9903
0.6460 -2.4658 -0.5374 0.9896
5.3438 10.2886 -2.4442 0.9537
4.0621 9.8847 -2.2530 0.9573
1.2168 5.6624 -1.2210 0.9766
1.0627 8.6282 -1.8327 0.9651
-0.4338 7.7792 -1.6426 0.9687
-1.0716 7.3478 -1.5654 0.9701
-1.6484 6.9169 -1.4991 0.9714
-2.1717 6.4866 -1.4421 0.9724
-2.8221 6.4545 -1.4851 0.9716
-3.2879 5.9996 -1.4423 0.9724
-3.7145 5.5425 -1.4066 0.9731
-4.1060 5.0821 -1.3774 0.9736
-4.4657 4.6175 -1.3542 0.9741
-4.7960 4.1473 -1.3367 0.9744
-5.3774 3.1851 -1.3176 0.9748
-5.6316 2.6900 -1.3157 0.9748
-3.2435 0.5844 -0.6948 0.9866
-2.9810 0.2664 -0.6310 0.9878
-2.9710 0.0000 -0.6781 0.9879
-3.1642 -0.5701 -0.7338 0.9869
-6.4427 -3.8160 -1.7091 0.9697
-6.3624 -4.5794 -1.7892 0.9683
-6.0576 -6.2635 -1.9888 0.9649
-5.8168 -7.1996 -2.1126 0.9627
-5.1014 -9.3088 -2.4228 0.9574
-0.8025 -2.3969 -0.5769 0.9897
-0.5509 -2.3116 -0.5424 0.9903
-0.1263 -2.2653 -0.5179 0.9907
0.0761 -2.2763 -0.5198 0.9907
0.2862 -2.3236 -0.5344 0.9904
0.5185 -2.4130 -0.5633 0.9899
0.8020 -2.5852 -0.6178 0.9890
10.3910 10.2758 -3.3355 0.9418
5.5615 9.6325 -2.5387 0.9554
4.3314 9.3340 -2.3486 0.9587
3.2400 9.0057 -2.1845 0.9615
1.4000 8.2996 -1.9211 0.9661
0.6197 7.9302 -1.8155 0.9679
-0.7207 7.1644 -1.6435 0.9709
-1.8233 6.3764 -1.5137 0.9732
-2.4531 6.3693 -1.5578 0.9724
-3.3510 5.5166 -1.4732 0.9739
-3.7454 5.0833 -1.4411 0.9744
-4.1077 4.6447 -1.4152 0.9749
-4.7461 3.7480 -1.3803 0.9755
-5.2819 2.8185 -1.3665 0.9757
-5.5144 2.3383 -1.3671 0.9757
-5.7245 1.8459 -1.3728 0.9756
-3.4289 0.7769 -0.8025 0.9857
-2.9994 -0.1337 -0.6853 0.9878
-3.0959 -0.4163 -0.7130 0.9873
-6.4079 -4.1918 -1.7477 0.9691
-6.3055 -4.9794 -1.8338 0.9676
-5.3141 -8.7482 -2.3363 0.9589
-1.4067 -2.8626 -0.7280 0.9870
-0.9467 -2.4581 -0.6012 0.9893
-0.6701 -2.3433 -0.5563 0.9901
-0.4390 -2.2900 -0.5322 0.9905
0.1797 -2.2995 -0.5264 0.9906
0.9912 -2.7550 -0.6683 0.9881
9.4402 10.2067 -3.1733 0.9446
4.9286 9.4894 -2.4406 0.9571
1.2172 5.6645 -1.3224 0.9765
0.9996 8.1160 -1.8664 0.9670
0.2588 7.7427 -1.7682 0.9687
-1.0163 6.9687 -1.6074 0.9715
-1.5668 6.5746 -1.5426 0.9727
-3.1409 5.7314 -1.4917 0.9735
-3.5524 5.3005 -1.4564 0.9742
-3.9304 4.8647 -1.4274 0.9747
-4.2777 4.4231 -1.4044 0.9751
-5.6222 2.0938 -1.3693 0.9757
-3.1659 0.5704 -0.7342 0.9869
-2.9221 0.0000 -0.7183 0.9880
-2.9882 -0.2670 -0.7374 0.9877
-3.1004 -0.5585 -0.7743 0.9871
-6.1760 -2.9500 -1.6824 0.9722
-6.0348 -4.3436 -1.8276 0.9698
-5.4665 -6.7659 -2.1381 0.9648
-5.1501 -7.6846 -2.2738 0.9626
-4.7518 -8.6709 -2.4304 0.9601
-1.1461 -2.6213 -0.7032 0.9883
-0.8054 -2.4057 -0.6236 0.9896
-0.5529 -2.3201 -0.5863 0.9902
0.5221 -2.4297 -0.6108 0.9898
0.8106 -2.6131 -0.6725 0.9888
9.3842 9.2802 -3.2440 0.9471
5.1377 8.8988 -2.5257 0.9586
4.0217 8.6664 -2.3484 0.9614
2.1294 8.1275 -2.0652 0.9660
-0.0797 7.1536 -1.7585 0.9710
-1.2352 6.4442 -1.6128 0.9733
-1.7384 6.0796 -1.5542 0.9743
-2.7939 5.6854 -1.5571 0.9742
-3.5891 4.8713 -1.4873 0.9754
-4.8263 3.1572 -1.4176 0.9765
-5.2958 2.2456 -1.4139 0.9766
-3.3132 0.7507 -0.8350 0.9861
-2.8899 0.3887 -0.7167 0.9881
-2.8978 0.1292 -0.7130 0.9881
-3.0389 -0.4087 -0.7537 0.9874
-3.1571 -0.7153 -0.7957 0.9868
-6.2548 -2.0169 -1.6154 0.9733
-6.0852 -3.9807 -1.7874 0.9705
-5.8132 -5.4981 -1.9668 0.9676
-4.9621 -8.1687 -2.3493 0.9614
-0.6724 -2.3516 -0.6012 0.9900
-0.4405 -2.2983 -0.5752 0.9904
-0.0254 -2.2758 -0.5594 0.9907
0.1806 -2.3109 -0.5698 0.9905
10.6184 9.6038 -3.5192 0.9427
8.5659 9.2614 -3.1009 0.9494
7.0716 9.1629 -2.8450 0.9534
4.5640 8.7873 -2.4339 0.9600
2.5670 8.2751 -2.1296 0.9649
0.2449 7.3254 -1.8016 0.9703
-0.3892 6.9792 -1.7182 0.9716
-0.9661 6.6243 -1.6455 0.9728
-1.4924 6.2623 -1.5824 0.9738
-2.0655 6.1694 -1.5992 0.9736
-3.7679 4.6636 -1.4737 0.9756
-4.4118 3.8151 -1.4336 0.9763
-4.6944 3.3787 -1.4216 0.9765
-4.9523 2.9333 -1.4148 0.9766
-2.8807 0.2574 -0.7109 0.9882
-2.9343 -0.2622 -0.7763 0.9879
-5.9736 -1.6363 -1.6320 0.9747
-5.8352 -3.4561 -1.7870 0.9723
-5.5950 -4.8382 -1.9491 0.9699
-5.4030 -5.5867 -2.0479 0.9684
-5.1536 -6.3786 -2.1608 0.9666
-4.8377 -7.2184 -2.2897 0.9647
-4.4447 -8.1106 -2.4370 0.9625
-0.5550 -2.3287 -0.6308 0.9901
-0.3334 -2.2857 -0.6087 0.9905
-0.1273 -2.2837 -0.6027 0.9906
0.2891 -2.3473 -0.6232 0.9903
0.5258 -2.4467 -0.6594 0.9897
0.8195 -2.6419 -0.7289 0.9886
8.9049 8.8063 -3.3000 0.9495
7.1566 8.4648 -2.9208 0.9552
4.7746 8.2698 -2.5162 0.9613
3.7560 8.0941 -2.3512 0.9638
2.8352 7.8807 -2.2069 0.9659
2.0009 7.6374 -2.0804 0.9679
1.2457 7.3852 -1.9735 0.9695
0.5546 7.0969 -1.8757 0.9710
-0.0757 6.7917 -1.7897 0.9723
-1.1777 6.1441 -1.6484 0.9745
-2.2413 5.8195 -1.6432 0.9745
-2.6761 5.4457 -1.5988 0.9752
-3.0761 5.0640 -1.5613 0.9758
-4.0941 3.8722 -1.4849 0.9770
-4.6403 3.0356 -1.4611 0.9773
-2.8515 0.1272 -0.7521 0.9883
-2.9007 -0.1293 -0.7651 0.9881
-3.0953 -0.7013 -0.8363 0.9870
-5.9816 -1.9288 -1.6561 0.9743
-5.9178 -2.5093 -1.6937 0.9738
-5.8694 -3.1320 -1.7530 0.9729
-5.7913 -3.7884 -1.8235 0.9718
-5.2860 -5.9769 -2.1025 0.9675
-5.0046 -6.7923 -2.2231 0.9657
-4.6516 -7.6576 -2.3609 0.9636
-4.2154 -8.5780 -2.5185 0.9612
-0.2296 -2.2826 -0.6045 0.9906
0.1815 -2.3226 -0.6139 0.9904
0.4029 -2.3887 -0.6383 0.9900
0.6596 -2.5177 -0.6858 0.9893
1.0316 -2.8673 -0.8029 0.9875
9.9068 8.9601 -3.5198 0.9462
6.5135 8.4398 -2.8092 0.9569
5.3244 8.3405 -2.6074 0.9599
2.4079 7.7624 -2.1415 0.9669
1.2181 5.6688 -1.5278 0.9763
0.8921 7.2434 -1.9231 0.9703
0.2322 6.9462 -1.8313 0.9717
-0.3699 6.6339 -1.7508 0.9729
-2.0099 6.0033 -1.6682 0.9742
-4.2399 3.6664 -1.4770 0.9771
-4.5129 3.2482 -1.4651 0.9773
-4.7618 2.8205 -1.4583 0.9774
-4.9877 2.3825 -1.4565 0.9774
-5.1911 1.9332 -1.4596 0.9773
-2.8819 -0.2575 -0.8141 0.9880
-5.7250 -1.5682 -1.6701 0.9756
-5.7031 -2.1238 -1.7123 0.9750
-5.4650 -3.9335 -1.8945 0.9724
-5.1226 -5.2968 -2.0732 0.9698
-4.8722 -6.0304 -2.1813 0.9683
-4.5588 -6.8022 -2.3039 0.9665
-4.1729 -7.6145 -2.4430 0.9646
-0.5571 -2.3375 -0.6761 0.9901
-0.3346 -2.2940 -0.6523 0.9904
-0.1279 -2.2931 -0.6462 0.9905
9.7946 8.0954 -3.5752 0.9486
8.3543 8.2618 -3.3058 0.9523
5.4832 7.7999 -2.6825 0.9612
4.4568 7.7194 -2.5079 0.9636
3.5214 7.5885 -2.3537 0.9658
2.6684 7.4169 -2.2177 0.9678
1.8895 7.2122 -2.0977 0.9695
-0.0720 6.4620 -1.8182 0.9735
-0.6209 6.1717 -1.7452 0.9746
-1.6922 5.9181 -1.7318 0.9747
-2.5669 5.2235 -1.6375 0.9761
-3.3096 4.4918 -1.5698 0.9771
-4.4666 2.9220 -1.5017 0.9781
-3.0353 -0.6877 -0.8756 0.9872
-3.2049 -1.0334 -0.9474 0.9861
-5.6067 -2.9918 -1.7880 0.9739
-5.3972 -4.2621 -1.9349 0.9718
-5.2268 -4.9434 -2.0241 0.9705
-4.3756 -7.2031 -2.3713 0.9656
-3.9493 -8.0366 -2.5194 0.9635
-0.9771 -2.5369 -0.7649 0.9888
-0.6796 -2.3768 -0.6955 0.9898
-0.4438 -2.3152 -0.6633 0.9903
-0.0256 -2.2946 -0.6456 0.9905
0.1824 -2.3345 -0.6588 0.9903
12.2020 7.5995 -4.0445 0.9420
10.5636 7.9664 -3.7226 0.9465
4.9581 7.7667 -2.5925 0.9624
3.0851 7.5073 -2.2836 0.9668
2.2701 7.3183 -2.1558 0.9687
1.2202 5.6785 -1.6341 0.9762
0.8458 6.8669 -1.9466 0.9717
-1.3863 5.8172 -1.6825 0.9755
-2.3614 5.4007 -1.6584 0.9758
-4.0796 3.5278 -1.5175 0.9778
-4.3435 3.1263 -1.5057 0.9780
-4.5840 2.7151 -1.4990 0.9781
-4.8016 2.2936 -1.4972 0.9781
-2.9229 0.5266 -0.8356 0.9877
-2.7824 0.0000 -0.8330 0.9884
-3.0126 -0.8252 -0.9351 0.9870
-5.4750 -2.0389 -1.7491 0.9759
-5.0649 -4.3798 -2.0046 0.9724
-4.6177 -5.7154 -2.1998 0.9698
-4.3080 -6.4280 -2.3166 0.9682
-3.9303 -7.1719 -2.4484 0.9664
-0.5616 -2.3564 -0.7252 0.9899
-0.1284 -2.3027 -0.6905 0.9904
0.2921 -2.3720 -0.7155 0.9901
0.5334 -2.4821 -0.7600 0.9895
7.7130 7.6275 -3.2475 0.9557
5.1155 7.2770 -2.6630 0.9635
1.1192 6.6352 -2.0145 0.9723
0.5008 6.4081 -1.9243 0.9735
-0.5930 5.8945 -1.7736 0.9756
-2.4653 5.0168 -1.6735 0.9769
-3.5013 3.9590 -1.5823 0.9782
-3.7930 3.5874 -1.5630 0.9784
-4.5251 2.4147 -1.5356 0.9788
-3.0564 0.6925 -0.9382 0.9870
-2.7619 0.1232 -0.8277 0.9885
-2.8066 -0.1251 -0.8411 0.9883
-2.8771 -0.3869 -0.8691 0.9880
-2.9771 -0.6745 -0.9139 0.9873
-3.1092 -1.0026 -0.9780 0.9865
-5.4281 -2.3017 -1.7651 0.9757
-4.9725 -4.7029 -2.0490 0.9718
-3.7130 -7.5557 -2.5204 0.9655
-0.9892 -2.5683 -0.8240 0.9886
-0.4457 -2.3254 -0.7089 0.9902
-0.2316 -2.3017 -0.6926 0.9904
-0.0257 -2.3042 -0.6899 0.9904
0.1834 -2.3466 -0.7047 0.9902
1.1057 -3.0734 -0.9779 0.9865
9.6592 7.2843 -3.6219 0.9507
7.1121 7.6895 -3.1358 0.9572
5.6295 7.2944 -2.7585 0.9623
4.6361 7.2623 -2.5794 0.9647
2.1462 6.9187 -2.1687 0.9702
1.2230 5.6917 -1.7429 0.9760
0.8036 6.5246 -1.9681 0.9729
0.2102 6.2865 -1.8831 0.9741
-0.8395 5.7562 -1.7415 0.9760
-1.8453 5.5117 -1.7401 0.9760
-2.2669 5.1845 -1.6940 0.9767
-3.0150 4.4987 -1.6213 0.9776
-3.3459 4.1412 -1.5939 0.9780
-3.6503 3.7744 -1.5720 0.9783
-4.1850 3.0122 -1.5437 0.9787
-4.8153 1.7933 -1.5383 0.9788
-3.5598 0.9751 -1.1050 0.9847
-2.8473 0.5130 -0.8662 0.9880
-5.2609 -1.9592 -1.7829 0.9767
-4.9854 -3.5883 -1.9508 0.9746
-4.8326 -4.1789 -2.0290 0.9735
-4.6347 -4.7922 -2.1173 0.9724
-4.3863 -5.4290 -2.2166 0.9711
-4.0813 -6.0897 -2.3282 0.9697
-3.7123 -6.7741 -2.4532 0.9681
-1.2471 -2.8522 -0.9886 0.9870
-0.3379 -2.3165 -0.7435 0.9902
-0.1289 -2.3125 -0.7356 0.9903
0.0780 -2.3344 -0.7418 0.9902
0.2937 -2.3847 -0.7631 0.9900
0.5373 -2.5004 -0.8122 0.9893
0.8523 -2.7475 -0.9136 0.9880
13.4436 4.6682 -4.5196 0.9420
12.0935 5.4491 -4.2126 0.9459
10.7729 6.0607 -3.9256 0.9494
4.8740 6.9334 -2.6916 0.9651
3.9266 6.8011 -2.4940 0.9676
2.3837 6.6257 -2.2362 0.9709
1.6992 6.4859 -2.1293 0.9723
1.0644 6.3100 -2.0323 0.9735
-1.0893 5.6830 -1.8377 0.9760
-1.5560 5.4416 -1.7974 0.9765
-2.3705 4.8241 -1.7071 0.9777
-2.7323 4.4980 -1.6714 0.9782
-3.0662 4.1615 -1.6416 0.9785
-4.1514 2.7158 -1.5755 0.9794
-4.7271 1.5243 -1.5774 0.9794
-2.9791 0.6750 -0.9701 0.9873
-2.6672 0.3587 -0.8547 0.9888
-2.7186 0.1212 -0.8643 0.9886
-2.7613 -0.1231 -0.8778 0.9885
-2.8255 -0.3800 -0.9054 0.9881
-2.9205 -0.6617 -0.9510 0.9875
-3.1071 -1.0019 -1.0368 0.9864
-5.2092 -2.2089 -1.7970 0.9765
-5.1400 -2.7428 -1.8503 0.9758
-5.0464 -3.3012 -1.9151 0.9750
-4.5172 -5.1076 -2.1655 0.9718
-4.2413 -5.7564 -2.2708 0.9704
-3.9053 -6.4290 -2.3889 0.9689
-3.5014 -7.1250 -2.5213 0.9672
-1.0017 -2.6008 -0.8851 0.9884
-0.2325 -2.3115 -0.7378 0.9903
0.1843 -2.3590 -0.7515 0.9901
0.6812 -2.6000 -0.8536 0.9888
11.4280 5.7749 -4.0664 0.9477
8.8903 6.7045 -3.5363 0.9543
7.7175 6.9801 -3.3047 0.9573
6.6167 7.1539 -3.0948 0.9599
2.7473 6.6852 -2.2954 0.9701
0.7651 6.2118 -1.9877 0.9741
-1.3317 5.5881 -1.8244 0.9762
-2.1788 4.9829 -1.7272 0.9774
-2.5551 4.6624 -1.6885 0.9779
-2.9027 4.3310 -1.6558 0.9784
-3.5182 3.6378 -1.6072 0.9790
-3.7889 3.2764 -1.5908 0.9792
-4.0363 2.9051 -1.5794 0.9793
-4.2610 2.5238 -1.5728 0.9794
-4.4637 2.1321 -1.5710 0.9795
-4.6447 1.7297 -1.5741 0.9794
-2.6951 0.2408 -0.8593 0.9887
-2.6945 0.0000 -0.9053 0.9887
-2.7374 -0.2446 -0.9234 0.9885
-2.8177 -0.5076 -0.9619 0.9880
-5.0589 -1.8839 -1.8137 0.9775
-4.8876 -2.8949 -1.9086 0.9763
-4.4209 -4.5711 -2.1366 0.9735
-3.8752 -5.7821 -2.3386 0.9711
-0.8444 -2.5220 -0.8936 0.9888
-0.3410 -2.3377 -0.7938 0.9901
0.5413 -2.5192 -0.8657 0.9892
0.8718 -2.8105 -0.9887 0.9877
5.1227 -12.4654 -4.5280 0.9447
11.0360 4.9726 -4.0669 0.9502
8.7721 6.0217 -3.5749 0.9561
7.6968 6.3616 -3.3549 0.9587
4.7950 6.8210 -2.8013 0.9654
3.7029 6.4136 -2.4882 0.9692
2.9565 6.3710 -2.3598 0.9708
2.2612 6.2852 -2.2442 0.9722
1.6154 6.1661 -2.1416 0.9735
0.9908 5.8741 -2.0015 0.9752
-0.0627 5.6262 -1.8904 0.9765
-0.5546 5.5132 -1.8617 0.9769
-1.4948 5.2279 -1.8269 0.9773
-1.9035 4.9423 -1.7794 0.9779
-3.7792 2.9845 -1.6179 0.9799
-4.2145 2.2489 -1.6050 0.9800
-2.6180 0.3521 -0.8875 0.9889
-2.6762 0.1193 -0.9001 0.9888
-2.7168 -0.1212 -0.9137 0.9886
-2.7751 -0.3732 -0.9408 0.9883
-5.0057 -2.1226 -1.8268 0.9773
-4.9315 -2.6315 -1.8781 0.9767
-4.8348 -3.1628 -1.9411 0.9759
-4.5254 -4.2801 -2.0928 0.9741
-4.3042 -4.8669 -2.1829 0.9730
-3.3107 -6.7370 -2.5220 0.9688
-0.2346 -2.3326 -0.7877 0.9902
-0.0259 -2.3248 -0.7812 0.9902
0.1853 -2.3716 -0.7992 0.9900
0.4145 -2.4571 -0.8372 0.9895
0.6888 -2.6293 -0.9132 0.9886
12.7622 3.8036 -4.4743 0.9454
11.6138 4.6222 -4.1997 0.9486
10.4605 5.2859 -3.9378 0.9517
8.2285 6.2054 -3.4626 0.9574
7.1779 6.4921 -3.2517 0.9600
4.2357 6.6351 -2.6448 0.9673
3.3231 6.3982 -2.4223 0.9700
2.6026 6.3331 -2.3005 0.9715
1.2288 5.7187 -1.9652 0.9756
0.7297 5.9247 -2.0056 0.9751
-1.7030 5.0868 -1.8023 0.9776
-2.0964 4.7946 -1.7581 0.9782
-2.4606 4.4900 -1.7202 0.9786
-3.1080 3.8469 -1.6616 0.9793
-3.6566 3.1620 -1.6242 0.9798
-3.8963 2.8044 -1.6129 0.9799
-4.1138 2.4366 -1.6064 0.9800
-4.3097 2.0586 -1.6047 0.9800
-4.4842 1.6700 -1.6077 0.9800
-2.6265 0.7195 -0.9150 0.9886
-2.7169 0.4895 -0.9275 0.9884
-2.6500 0.2368 -0.8939 0.9888
-2.6519 0.0000 -0.9403 0.9888
-2.7668 -0.4985 -0.9969 0.9881
-4.8697 -1.8135 -1.8426 0.9782
-4.4205 -3.8225 -2.0722 0.9755
-4.2238 -4.3673 -2.1544 0.9745
-3.6869 -5.5012 -2.3482 0.9723
-0.8534 -2.5489 -0.9531 0.9887
-0.3442 -2.3602 -0.8457 0.9899
-0.1311 -2.3504 -0.8347 0.9901
0.0792 -2.3697 -0.8407 0.9900
0.5472 -2.5463 -0.9235 0.9890
4.6613 -11.3427 -4.3484 0.9493
13.8244 0.9255 -4.9129 0.9429
13.0170 2.0468 -4.6723 0.9456
12.1099 3.0289 -4.4263 0.9484
9.1328 5.1380 -3.7157 0.9565
7.1735 5.9291 -3.3000 0.9613
5.3589 6.3386 -2.9432 0.9654
3.6810 6.3756 -2.6104 0.9692
0.9679 5.7383 -2.0635 0.9756
0.4357 5.5756 -1.9830 0.9765
-0.5530 5.4977 -1.9592 0.9768
-1.8326 4.7582 -1.8080 0.9786
-2.1988 4.4746 -1.7679 0.9791
-3.1414 3.5521 -1.6814 0.9801
-3.8723 2.5332 -1.6408 0.9806
-4.0724 2.1731 -1.6367 0.9806
-4.2512 1.8027 -1.6373 0.9806
-4.4089 1.4217 -1.6426 0.9805
-2.5615 0.5804 -0.9313 0.9889
-2.6733 -0.1192 -0.9489 0.9887
-2.7260 -0.3666 -0.9753 0.9884
-2.8709 -0.9257 -1.0696 0.9873
-4.7372 -2.5279 -1.9040 0.9775
-4.6382 -3.0342 -1.9653 0.9768
-4.3276 -4.0930 -2.1121 0.9750
-3.8406 -5.2125 -2.2958 0.9729
-3.1378 -6.3853 -2.5228 0.9703
-1.0468 -2.7179 -1.0327 0.9877
-0.7070 -2.4725 -0.9119 0.9891
-0.0262 -2.3487 -0.8329 0.9901
0.1869 -2.3922 -0.8508 0.9899
0.4187 -2.4821 -0.8926 0.9894
5.3105 -11.4438 -4.4734 0.9479
6.6604 -11.5362 -4.7234 0.9450
8.0556 -11.4592 -4.9668 0.9423
13.4357 1.5030 -4.7938 0.9442
12.5734 2.5557 -4.5495 0.9470
11.6308 3.4664 -4.3034 0.9498
9.6355 4.8691 -3.8281 0.9552
7.6523 5.7709 -3.3985 0.9601
5.7961 6.2667 -3.0268 0.9644
4.9334 6.3924 -2.8632 0.9663
3.1958 6.1530 -2.4585 0.9710
2.4710 6.0128 -2.3051 0.9728
0.1834 5.4854 -1.9461 0.9770
-0.3038 5.4493 -1.9352 0.9771
-2.0192 4.6181 -1.7872 0.9788
-2.3718 4.3281 -1.7500 0.9793
-2.6983 4.0261 -1.7185 0.9796
-3.7643 2.7094 -1.6446 0.9805
-3.9750 2.3544 -1.6382 0.9806
-4.3327 1.6135 -1.6394 0.9806
-2.6060 0.2329 -0.9277 0.9890
-2.6101 0.0000 -0.9746 0.9889
-2.6497 -0.2368 -0.9934 0.9887
-2.7878 -0.7636 -1.0794 0.9877
-4.5095 -2.6710 -1.9571 0.9779
-4.2367 -3.6635 -2.0915 0.9764
-3.1727 -5.7895 -2.4652 0.9722
-2.7727 -6.3415 -2.5844 0.9709
-0.3476 -2.3833 -0.8994 0.9898
0.0801 -2.3959 -0.8952 0.9898
0.3026 -2.4572 -0.9245 0.9895
0.5583 -2.5984 -0.9924 0.9887
4.2720 -10.3954 -4.1968 0.9531
6.6763 -10.4583 -4.6331 0.9484
9.1347 -9.8763 -5.0235 0.9442
10.2807 -9.2983 -5.1762 0.9425
13.0889 -0.2917 -4.8888 0.9456
11.0869 2.7730 -4.2675 0.9524
7.5858 5.2074 -3.4358 0.9615
6.7118 5.5475 -3.2515 0.9635
5.8640 5.7990 -3.0795 0.9654
3.5338 6.1207 -2.6391 0.9703
2.7605 5.9488 -2.4489 0.9724
2.0472 5.6903 -2.2582 0.9745
-0.0602 5.4016 -2.0171 0.9772
-3.7443 2.4494 -1.6707 0.9811
-4.1109 1.7432 -1.6674 0.9811
-4.2629 1.3746 -1.6725 0.9811
-2.5921 0.1156 -0.9689 0.9890
-2.6307 -0.1173 -0.9833 0.9888
-2.6781 -0.3601 -1.0090 0.9885
-4.3189 -3.4106 -2.0549 0.9768
-4.1443 -3.9197 -2.1301 0.9759
-3.9276 -4.4410 -2.2138 0.9750
-3.3504 -5.5155 -2.4098 0.9728
-0.7144 -2.4984 -0.9703 0.9890
-0.2392 -2.3777 -0.8923 0.9898
0.4247 -2.5180 -0.9535 0.9892
3.7050 -10.2981 -4.0867 0.9543
4.8553 -10.4629 -4.3071 0.9519
7.2961 -10.3788 -4.7374 0.9473
8.5302 -10.0895 -4.9336 0.9451
13.5961 -2.1379 -5.1393 0.9429
13.3040 -0.8906 -4.9790 0.9447
8.9234 4.5092 -3.7334 0.9582
8.0298 5.0010 -3.5324 0.9604
2.3712 5.7700 -2.3294 0.9737
1.7531 5.6514 -2.2095 0.9751
1.1923 5.5486 -2.1192 0.9761
-0.7576 5.1946 -1.9603 0.9778
-1.5786 4.7151 -1.8567 0.9790
-2.2884 4.1757 -1.7781 0.9799
-2.8975 3.5863 -1.7216 0.9805
-3.1669 3.2746 -1.7011 0.9807
-3.4141 2.9523 -1.6854 0.9809
-3.6395 2.6196 -1.6745 0.9810
-4.0271 1.9236 -1.6665 0.9811
-4.1895 1.5602 -1.6694 0.9811
-3.4441 0.9434 -1.3334 0.9849
-2.6096 0.4701 -0.9901 0.9887
-2.5629 0.2290 -0.9608 0.9891
-2.6685 -0.4808 -1.0642 0.9884
-4.4306 -2.1163 -1.9271 0.9791
-4.2198 -3.0373 -2.0406 0.9779
-4.0655 -3.5155 -2.1094 0.9772
-3.3549 -5.0059 -2.3651 0.9744
-3.0227 -5.5158 -2.4685 0.9733
-0.8914 -2.6625 -1.1020 0.9880
-0.5889 -2.4712 -0.9970 0.9891
-0.3511 -2.4072 -0.9547 0.9896
-0.1336 -2.3966 -0.9420 0.9897
0.0810 -2.4230 -0.9515 0.9896
2.9218 -9.4188 -3.8704 0.9585
3.9390 -9.5849 -4.0671 0.9564
5.0068 -9.6398 -4.2632 0.9544
6.1063 -9.5653 -4.4539 0.9524
7.2126 -9.3455 -4.6332 0.9505
8.2956 -8.9690 -4.7949 0.9489
10.2324 -7.7166 -5.0299 0.9464
11.0187 -6.8625 -5.0946 0.9457
12.0837 -4.8092 -5.1043 0.9456
12.2331 -1.3684 -4.8311 0.9485
11.9209 -0.2656 -4.6798 0.9501
10.8836 1.7114 -4.3240 0.9538
10.2133 2.5546 -4.1319 0.9558
9.4776 3.2910 -3.9376 0.9578
7.9011 4.4451 -3.5580 0.9618
6.3012 5.2080 -3.2084 0.9655
4.7699 5.6419 -2.8996 0.9688
2.0227 5.6222 -2.3450 0.9747
1.4284 5.4523 -2.2121 0.9761
0.9066 5.3746 -2.1392 0.9769
-0.0589 5.2886 -2.0757 0.9775
-0.5131 5.1001 -2.0118 0.9782
-0.9376 4.8917 -1.9548 0.9788
-1.3340 4.6652 -1.9043 0.9794
-1.7034 4.4227 -1.8601 0.9798
-2.0471 4.1657 -1.8216 0.9803
-2.6617 3.6124 -1.7611 0.9809
-2.9344 3.3180 -1.7384 0.9811
-3.1852 3.0125 -1.7206 0.9813
-3.8107 2.0335 -1.6952 0.9816
-3.9780 1.6868 -1.6958 0.9816
-4.1247 1.3301 -1.7009 0.9815
-2.5568 0.5793 -1.0289 0.9888
-2.4911 0.3350 -0.9865 0.9893
-2.5490 0.1137 -1.0014 0.9891
-2.7055 -0.6130 -1.0887 0.9882
-2.7236 -0.8782 -1.1231 0.9878
-4.4792 -1.8993 -1.9095 0.9793
-4.3854 -2.3401 -1.9509 0.9789
-4.1473 -3.2751 -2.0740 0.9775
-3.7600 -4.2515 -2.2275 0.9759
-3.1954 -5.2603 -2.4156 0.9739
-0.4670 -2.4360 -0.9735 0.9894
5.5540 -9.6198 -4.3596 0.9534
6.6604 -9.4745 -4.5453 0.9515
8.8169 -8.7192 -4.8667 0.9481
12.2307 -4.2470 -5.0814 0.9459
12.0969 -0.8098 -4.7583 0.9492
9.0928 3.6189 -3.8409 0.9588
8.3022 4.1953 -3.6508 0.9608
7.4989 4.6704 -3.4672 0.9628
6.6975 5.0508 -3.2922 0.9646
2.3691 5.7649 -2.4462 0.9736
1.7126 5.5208 -2.2686 0.9755
0.6600 5.3590 -2.1191 0.9771
0.1795 5.3682 -2.1080 0.9772
-0.2898 5.1970 -2.0428 0.9779
-0.7289 4.9983 -1.9824 0.9785
-1.8784 4.2959 -1.8402 0.9801
-2.2096 4.0321 -1.8045 0.9804
-2.5168 3.7553 -1.7742 0.9808
-2.8008 3.4666 -1.7491 0.9810
-3.3025 2.8558 -1.7135 0.9814
-3.7194 2.2030 -1.6966 0.9816
-2.5634 0.4618 -1.0222 0.9889
-2.5207 0.2253 -0.9932 0.9892
-2.5289 0.0000 -1.0413 0.9891
-2.6410 -0.7234 -1.1276 0.9882
-4.1781 -2.4747 -1.9996 0.9792
-4.0591 -2.9216 -2.0594 0.9786
-3.7147 -3.8409 -2.2003 0.9772
-0.1350 -2.4208 -0.9984 0.9896
0.3115 -2.5295 -1.0495 0.9890
0.5829 -2.7128 -1.1426 0.9881
2.7175 -8.7604 -3.7769 0.9611
3.6506 -8.8832 -3.9548 0.9593
4.6240 -8.9027 -4.1310 0.9575
5.6204 -8.8041 -4.3011 0.9558
6.6176 -8.5747 -4.4601 0.9542
7.5894 -8.2056 -4.6026 0.9528
8.5046 -7.6919 -4.7219 0.9516
10.9991 -4.3775 -4.8747 0.9501
11.2324 -3.3476 -4.8263 0.9506
11.2934 -2.2954 -4.7455 0.9514
11.1888 -1.2516 -4.6361 0.9525
10.9325 -0.2436 -4.5029 0.9538
10.5437 0.7058 -4.3514 0.9553
9.4583 2.3657 -4.0147 0.9587
8.8076 3.0583 -3.8392 0.9605
8.1131 3.6556 -3.6643 0.9622
6.6623 4.5734 -3.3276 0.9656
5.9334 4.9041 -3.1698 0.9672
4.5169 5.3426 -2.8809 0.9702
3.1937 5.5317 -2.6302 0.9727
0.9047 5.3634 -2.2398 0.9767
0.4092 5.2370 -2.1631 0.9775
-0.9035 4.7136 -1.9763 0.9795
-1.2866 4.4997 -1.9271 0.9800
-2.2871 3.7651 -1.8140 0.9811
-2.5741 3.4936 -1.7869 0.9814
-2.8390 3.2102 -1.7647 0.9816
-3.6899 1.9690 -1.7222 0.9821
-3.8518 1.6333 -1.7228 0.9821
-3.9935 1.2877 -1.7278 0.9820
-2.6388 0.5979 -1.1141 0.9884
-2.4504 0.3296 -1.0181 0.9894
-2.5479 -0.1136 -1.0502 0.9890
-2.6464 -0.8533 -1.1450 0.9880
-4.3249 -1.8339 -1.9344 0.9799
-4.2254 -2.2547 -1.9722 0.9795
-4.1228 -2.6970 -2.0287 0.9789
-3.9869 -3.1484 -2.0919 0.9783
-3.6042 -4.0753 -2.2403 0.9767
-3.3512 -4.5482 -2.3264 0.9759
-3.0523 -5.0248 -2.4210 0.9749
-2.7039 -5.5023 -2.5245 0.9738
-0.2440 -2.4258 -1.0039 0.9895
-0.0271 -2.4285 -1.0001 0.9895
0.1934 -2.4753 -1.0224 0.9893
0.4376 -2.5945 -1.0834 0.9887
6.1204 -8.7064 -4.3823 0.9550
8.0567 -7.9674 -4.6659 0.9522
8.9281 -7.3793 -4.7697 0.9511
9.6950 -6.6552 -4.8423 0.9504
10.3323 -5.8128 -4.8817 0.9500
11.1374 -3.8673 -4.8548 0.9503
11.2842 -2.8224 -4.7898 0.9509
11.2611 -1.7707 -4.6941 0.9519
9.7609 1.9840 -4.1015 0.9578
9.1397 2.7239 -3.9271 0.9596
7.7552 3.9189 -3.5780 0.9631
7.0281 4.3772 -3.4094 0.9648
6.2970 4.7488 -3.2477 0.9665
4.8637 5.2586 -2.9496 0.9695
4.1761 5.4111 -2.8146 0.9709
2.8807 5.5463 -2.5736 0.9733
2.2774 5.5418 -2.4672 0.9744
0.6532 5.3037 -2.2004 0.9771
0.1727 5.1639 -2.1276 0.9779
-0.7021 4.8139 -2.0032 0.9792
-1.8139 4.1485 -1.8644 0.9806
-2.1352 3.8962 -1.8295 0.9810
-2.7093 3.3533 -1.7752 0.9815
-2.9635 3.0642 -1.7554 0.9817
-3.1967 2.7643 -1.7402 0.9819
-3.9251 1.4618 -1.7247 0.9820
-2.5181 0.4537 -1.0536 0.9890
-2.5221 -0.2254 -1.0923 0.9890
-2.5389 -0.4574 -1.1128 0.9888
-2.5507 -0.6987 -1.1408 0.9885
-2.5688 -0.9566 -1.1824 0.9881
-4.1225 -1.9692 -1.9708 0.9803
-3.9082 -2.8130 -2.0771 0.9792
-3.5675 -3.6888 -2.2136 0.9779
-3.3403 -4.1343 -2.2927 0.9771
-3.0711 -4.5824 -2.3795 0.9763
-0.6126 -2.5705 -1.1399 0.9886
-0.3602 -2.4700 -1.0767 0.9892
-0.1364 -2.4459 -1.0567 0.9894
0.3163 -2.5680 -1.1161 0.9888
2.5378 -8.1810 -3.6948 0.9634
3.3986 -8.2700 -3.8568 0.9618
4.2916 -8.2628 -4.0163 0.9603
5.2009 -8.1471 -4.1694 0.9588
7.8143 -7.0676 -4.5450 0.9551
8.5577 -6.4537 -4.6235 0.9544
9.1960 -5.7273 -4.6732 0.9539
9.7092 -4.9063 -4.6925 0.9537
10.0817 -4.0124 -4.6806 0.9538
10.3041 -3.0709 -4.6379 0.9542
9.7516 0.6528 -4.2158 0.9583
9.3164 1.4650 -4.0681 0.9597
8.2186 2.8538 -3.7528 0.9628
7.5937 3.4216 -3.5928 0.9644
6.2726 4.3059 -3.2819 0.9674
5.6019 4.6301 -3.1350 0.9688
3.6541 5.1980 -2.7408 0.9727
-0.0545 4.8934 -2.1109 0.9789
-0.4758 4.7299 -2.0506 0.9795
-1.2420 4.3434 -1.9487 0.9805
-2.4910 3.3808 -1.8114 0.9819
-2.7485 3.1078 -1.7896 0.9821
-3.3983 2.2231 -1.7517 0.9825
-3.7317 1.5824 -1.7485 0.9825
-2.4106 0.3242 -1.0492 0.9895
-2.4654 0.1099 -1.0645 0.9893
-2.5076 -0.1118 -1.0828 0.9891
-2.5465 -0.5770 -1.1263 0.9887
-2.5665 -0.8276 -1.1632 0.9883
-2.9198 -4.8066 -2.4259 0.9758
-2.1935 -5.6954 -2.6327 0.9738
-0.7624 -2.6663 -1.1962 0.9880
-0.4819 -2.5140 -1.1042 0.9889
-0.2468 -2.4530 -1.0635 0.9893
-0.0274 -2.4571 -1.0600 0.9894
2.1233 -8.1045 -3.6140 0.9642
2.9633 -8.2367 -3.7759 0.9626
4.7454 -8.2192 -4.0939 0.9595
5.6557 -8.0453 -4.2421 0.9581
8.1982 -6.7760 -4.5879 0.9547
8.8912 -6.1035 -4.6520 0.9541
9.4693 -5.3274 -4.6867 0.9538
10.2119 -3.5459 -4.6630 0.9540
10.3538 -1.6281 -4.5211 0.9554
10.2073 -0.6833 -4.4129 0.9564
8.5154 2.5379 -3.8329 0.9620
7.2697 3.6735 -3.5135 0.9651
5.9370 4.4773 -3.2076 0.9681
3.3462 5.2417 -2.6825 0.9733
2.1771 5.2978 -2.4707 0.9754
1.6329 5.2638 -2.3773 0.9763
-0.6768 4.6404 -2.0228 0.9798
-1.7529 4.0090 -1.8874 0.9811
-2.6224 3.2458 -1.7999 0.9820
-3.3026 2.3771 -1.7552 0.9824
-3.4891 2.0666 -1.7492 0.9825
-3.9296 1.0765 -1.7575 0.9824
-2.4387 0.2179 -1.0561 0.9894
-2.4282 0.0000 -1.0956 0.9894
-2.4593 -0.4431 -1.1275 0.9891
-2.4890 -0.9269 -1.1984 0.9884
-3.9822 -1.9021 -1.9912 0.9808
-3.8847 -2.3009 -2.0373 0.9804
-3.4297 -3.5462 -2.2260 0.9786
-2.9439 -4.3926 -2.3860 0.9771
-2.6383 -4.8142 -2.4771 0.9762
-2.2870 -5.2306 -2.5759 0.9753
-0.6255 -2.6248 -1.2175 0.9882
-0.1387 -2.4866 -1.1238 0.9891
0.3221 -2.6152 -1.1890 0.9885
0.6311 -2.9367 -1.3553 0.9869
2.3782 -7.6667 -3.6220 0.9654
3.1762 -7.7288 -3.7704 0.9640
3.9999 -7.7012 -3.9157 0.9626
4.8349 -7.5737 -4.0544 0.9613
7.2186 -6.5289 -4.3918 0.9582
7.8976 -5.9559 -4.4633 0.9575
8.4796 -5.2811 -4.5075 0.9571
9.5070 -2.8334 -4.4762 0.9574
9.5278 -1.0658 -4.3259 0.9588
9.0610 0.6066 -4.0976 0.9609
8.6782 1.3646 -3.9639 0.9622
8.2177 2.0554 -3.8222 0.9635
7.6965 2.6725 -3.6762 0.9649
5.9213 4.0648 -3.2407 0.9690
4.6838 4.6319 -2.9723 0.9715
2.9063 5.0338 -2.6227 0.9748
2.3524 5.0692 -2.5216 0.9758
1.3156 5.0215 -2.3423 0.9775
0.3785 4.8431 -2.1919 0.9789
-0.0525 4.7135 -2.1269 0.9795
-0.8410 4.3876 -2.0158 0.9806
-2.6624 3.0104 -1.8134 0.9825
-3.6174 1.5339 -1.7729 0.9829
-2.5489 0.5775 -1.1792 0.9886
-2.3567 0.3169 -1.0730 0.9896
-2.4521 -0.3298 -1.1164 0.9892
-2.4671 -0.5589 -1.1414 0.9890
-2.4891 -1.0555 -1.2199 0.9882
-3.9353 -2.0999 -2.0127 0.9806
-3.8294 -2.5050 -2.0648 0.9801
-3.5270 -3.3358 -2.1905 0.9789
-2.4685 -5.0233 -2.5255 0.9757
-0.7875 -2.7540 -1.2925 0.9875
-0.4918 -2.5654 -1.1786 0.9886
-0.2517 -2.5019 -1.1346 0.9890
-0.0278 -2.4960 -1.1263 0.9891
3.5856 -7.7269 -3.8436 0.9633
6.8496 -6.7737 -4.3467 0.9586
7.5698 -6.2566 -4.4313 0.9578
8.2015 -5.6300 -4.4887 0.9573
8.7297 -4.9113 -4.5196 0.9570
9.1389 -4.1178 -4.5229 0.9570
9.5620 -2.3916 -4.4474 0.9577
9.5715 -1.5050 -4.3719 0.9584
9.4532 -0.6328 -4.2750 0.9593
9.2180 0.2054 -4.1604 0.9603
8.4566 1.7189 -3.8938 0.9628
6.2295 3.8797 -3.3114 0.9683
4.9919 4.5149 -3.0370 0.9709
3.1914 4.9992 -2.6762 0.9743
1.5656 5.0469 -2.3843 0.9771
1.0719 4.9880 -2.3020 0.9779
0.1599 4.7813 -2.1586 0.9792
-2.2791 3.4007 -1.8472 0.9822
-2.5397 3.1435 -1.8235 0.9824
-3.0003 2.5945 -1.7898 0.9827
-3.2010 2.3040 -1.7796 0.9828
-3.3821 2.0033 -1.7737 0.9829
-3.5438 1.6928 -1.7721 0.9829
-3.6861 1.3727 -1.7748 0.9829
-3.8086 1.0433 -1.7818 0.9828
-2.3816 -0.4291 -1.1407 0.9894
-2.3934 -0.6556 -1.1698 0.9891
-3.7501 -2.2212 -2.0545 0.9809
-3.4829 -3.0118 -2.1705 0.9798
-2.1877 -5.0035 -2.5741 0.9761
-1.8023 -5.3831 -2.6759 0.9752
-0.6433 -2.6992 -1.3080 0.9878
1.5240 -7.0921 -3.4194 0.9684
2.2356 -7.2067 -3.5568 0.9672
2.9783 -7.2473 -3.6934 0.9659
4.5125 -7.0688 -3.9531 0.9636
6.0105 -6.4984 -4.1726 0.9616
6.7002 -6.0599 -4.2585 0.9608
8.8148 -2.6271 -4.3357 0.9601
8.7050 -0.1940 -4.1043 0.9622
8.4533 0.5659 -3.9936 0.9632
8.1140 1.2759 -3.8717 0.9643
7.2302 2.5106 -3.6078 0.9667
6.7149 3.0256 -3.4717 0.9680
6.1685 3.4704 -3.3363 0.9692
4.4517 4.4024 -2.9512 0.9727
3.3223 4.7261 -2.7232 0.9748
2.7784 4.8124 -2.6194 0.9757
2.2527 4.8545 -2.5227 0.9766
1.7473 4.8568 -2.4330 0.9774
1.2637 4.8233 -2.3503 0.9782
0.3645 4.6638 -2.2051 0.9795
-0.4428 4.4012 -2.0851 0.9806
-0.8123 4.2377 -2.0339 0.9811
-1.1596 4.0556 -1.9883 0.9815
-1.4853 3.8565 -1.9480 0.9819
-1.7897 3.6420 -1.9128 0.9822
-2.5803 2.9176 -1.8360 0.9829
-3.0089 2.3761 -1.8073 0.9832
-3.3609 1.7935 -1.7957 0.9833
-3.6364 1.1726 -1.8010 0.9832
-2.5265 0.5724 -1.2211 0.9886
-2.2973 0.3090 -1.0926 0.9898
-2.3799 -0.3201 -1.1319 0.9894
-2.3945 -0.7721 -1.1859 0.9889
-2.4109 -1.0223 -1.2344 0.9885
-3.6949 -2.4171 -2.0813 0.9807
-3.3959 -3.2118 -2.2033 0.9795
-2.9583 -4.0151 -2.3509 0.9782
-2.3634 -4.8093 -2.5259 0.9766
-0.8340 -2.9166 -1.4299 0.9867
-0.5022 -2.6197 -1.2574 0.9883
2.6036 -7.2369 -3.6254 0.9666
3.3582 -7.2367 -3.7606 0.9653
4.1271 -7.1484 -3.8909 0.9642
5.6471 -6.6795 -4.1230 0.9621
6.3623 -6.2918 -4.2179 0.9612
7.0216 -5.8035 -4.2940 0.9605
8.0884 -4.5505 -4.3747 0.9598
8.4671 -3.8151 -4.3776 0.9598
8.8699 -2.2185 -4.3099 0.9604
8.8897 -1.3978 -4.2419 0.9610
8.7937 -0.5886 -4.1544 0.9618
7.4721 2.2269 -3.6753 0.9661
6.9772 2.7769 -3.5398 0.9673
6.4448 3.2567 -3.4038 0.9686
5.8874 3.6667 -3.2694 0.9698
5.3159 4.0089 -3.1385 0.9710
2.5131 4.8387 -2.5701 0.9762
1.9974 4.8604 -2.4770 0.9770
1.0302 4.7944 -2.3115 0.9785
0.5806 4.7142 -2.2389 0.9792
0.1540 4.6069 -2.1728 0.9798
-0.6303 4.3219 -2.0588 0.9809
-0.9887 4.1489 -2.0104 0.9813
-1.3251 3.9580 -1.9675 0.9817
-2.2076 3.2940 -1.8692 0.9826
-2.4610 3.0461 -1.8459 0.9828
-3.4370 1.6418 -1.7955 0.9833
-3.5748 1.3313 -1.7981 0.9833
-2.3515 0.4236 -1.1263 0.9895
-2.3082 -0.4158 -1.1536 0.9896
-2.3666 -1.1304 -1.2900 0.9884
-3.5055 -2.5231 -2.1244 0.9809
-3.3581 -2.9038 -2.1836 0.9804
-3.1784 -3.2864 -2.2487 0.9798
-2.9643 -3.6690 -2.3200 0.9792
-2.4249 -4.4249 -2.4818 0.9778
-0.6789 -2.8486 -1.4403 0.9870
0.3438 -2.7914 -1.3833 0.9875
1.4397 -6.6996 -3.3704 0.9699
2.8011 -6.8160 -3.6245 0.9677
4.9310 -6.3892 -3.9696 0.9647
6.2445 -5.6479 -4.1413 0.9632
6.8190 -5.1424 -4.2008 0.9626
7.7155 -3.8988 -4.2519 0.9622
8.2078 -2.4462 -4.2125 0.9625
8.1354 -0.1813 -4.0024 0.9644
7.9142 0.5298 -3.9013 0.9653
7.6113 1.1968 -3.7896 0.9662
7.2392 1.8107 -3.6703 0.9673
6.8110 2.3651 -3.5463 0.9684
6.3395 2.8564 -3.4200 0.9695
5.8364 3.2835 -3.2938 0.9706
4.7772 3.9485 -3.0484 0.9728
2.1598 4.6542 -2.5237 0.9774
1.6777 4.6632 -2.4376 0.9782
0.7726 4.5802 -2.2846 0.9795
-0.0488 4.3838 -2.1563 0.9806
-0.7850 4.0956 -2.0511 0.9816
-1.1216 3.9225 -2.0066 0.9820
-1.7331 3.5269 -1.9328 0.9826
-2.5019 2.8290 -1.8576 0.9833
-2.7199 2.5725 -1.8413 0.9835
-2.9189 2.3051 -1.8294 0.9836
-3.2610 1.7402 -1.8180 0.9837
-3.4040 1.4434 -1.8186 0.9837
-3.5280 1.1377 -1.8233 0.9836
-2.2513 0.3028 -1.1173 0.9899
-2.2893 0.1021 -1.1271 0.9898
-2.3022 -0.1026 -1.1335 0.9898
-2.3142 -0.5243 -1.1671 0.9895
-2.3173 -0.7472 -1.1976 0.9892
-2.3375 -0.9912 -1.2488 0.9887
-3.6749 -1.9610 -2.0488 0.9816
-3.4357 -2.7131 -2.1532 0.9807
-3.2724 -3.0950 -2.2154 0.9801
-3.0758 -3.4778 -2.2836 0.9795
-1.9147 -4.9714 -2.6203 0.9765
-1.5208 -5.3186 -2.7208 0.9756
0.5075 -3.0087 -1.5008 0.9865
1.7696 -6.7544 -3.4343 0.9694
