ply
format ascii 1.0
element vertex 1586
property float32 x
property float32 y
property float32 z
property float32 I
end_header
-5.3954 9.8454 -0.6539 0.9560
-6.7425 8.3454 -0.6249 0.9579
-7.2517 7.4981 -0.6075 0.9591
-7.7227 6.6781 -0.5946 0.9599
-10.0772 1.8155 -0.5964 0.9598
-10.0721 0.0000 -0.7548 0.9604
-10.9826 -3.0084 -0.8533 0.9554
-11.2874 -4.2035 -0.9026 0.9528
-11.5978 -5.5398 -0.9632 0.9498
-11.7288 -6.9470 -1.0216 0.9468
-11.9988 -8.6362 -1.1079 0.9424
0.8037 -2.5908 -0.2033 0.9892
0.9480 -2.3067 -0.1869 0.9900
1.0927 -2.1039 -0.1777 0.9905
1.2477 -1.9545 -0.1738 0.9907
1.5835 -1.7121 -0.1748 0.9907
1.7904 -1.6193 -0.1809 0.9904
2.0430 -1.5407 -0.1918 0.9898
-0.1634 14.6643 -1.0990 0.9429
-1.3417 13.3370 -1.0045 0.9477
-2.3336 12.1741 -0.9289 0.9515
-4.5667 9.2930 -0.7760 0.9593
-5.4811 9.0232 -0.7912 0.9585
-6.0400 8.1976 -0.7631 0.9600
-6.5495 7.4056 -0.7409 0.9611
-7.0180 6.6376 -0.7239 0.9620
-7.4525 5.8852 -0.7116 0.9626
-8.2410 4.3976 -0.7000 0.9632
-8.6036 3.6483 -0.7003 0.9632
-8.9497 2.8859 -0.7047 0.9630
-9.6043 1.2917 -0.7262 0.9619
-9.9178 0.4423 -0.7440 0.9610
-10.8312 -2.4540 -0.8323 0.9564
-11.4417 -4.8517 -0.9313 0.9514
-11.7394 -6.2643 -0.9972 0.9480
-11.8415 -7.7463 -1.0604 0.9448
0.8749 -2.4319 -0.1937 0.9897
1.1704 -2.0271 -0.1754 0.9907
1.3237 -1.8830 -0.1725 0.9908
1.6800 -1.6614 -0.1771 0.9906
1.9059 -1.5752 -0.1853 0.9901
2.7086 -1.5238 -0.2329 0.9876
-0.7794 13.9769 -1.0490 0.9454
-5.1799 9.4520 -0.8077 0.9577
-6.7884 7.0192 -0.7318 0.9616
-8.4246 4.0241 -0.6997 0.9632
-8.7785 3.2692 -0.7020 0.9631
-9.1176 2.4976 -0.7084 0.9628
-9.7619 0.8723 -0.7345 0.9614
-10.2194 -2.7994 -0.9714 0.9583
-10.4611 -3.8957 -1.0234 0.9562
-10.6961 -5.1091 -1.0867 0.9535
-10.7676 -6.3776 -1.1473 0.9510
-10.9323 -7.8685 -1.2349 0.9473
0.6712 -3.1236 -0.2929 0.9872
0.7977 -2.5714 -0.2468 0.9892
1.0867 -2.0923 -0.2162 0.9906
1.2417 -1.9451 -0.2116 0.9908
1.5764 -1.7044 -0.2128 0.9907
1.7823 -1.6120 -0.2203 0.9904
1.7052 6.5087 -0.6168 0.9733
1.1382 14.5660 -1.3394 0.9430
-0.1482 13.3054 -1.2199 0.9480
-1.2272 12.1983 -1.1239 0.9519
-2.9462 10.3036 -0.9825 0.9579
-5.1262 8.4388 -0.9052 0.9611
-5.6619 7.6844 -0.8751 0.9624
-6.1507 6.9547 -0.8512 0.9634
-7.0156 5.5402 -0.8195 0.9647
-7.7653 4.1437 -0.8069 0.9653
-8.4298 2.7183 -0.8120 0.9650
-8.7370 1.9795 -0.8213 0.9647
-4.2496 0.5715 -0.3931 0.9829
-4.0002 0.1784 -0.3671 0.9840
-9.5820 -0.4272 -0.8793 0.9622
-10.3411 -3.3345 -0.9961 0.9573
-10.5794 -4.4860 -1.0535 0.9549
-10.8302 -7.0848 -1.1865 0.9493
-11.0321 -8.7119 -1.2887 0.9451
1.0165 -2.1904 -0.2214 0.9903
1.1647 -2.0173 -0.2136 0.9907
1.3174 -1.8741 -0.2100 0.9908
2.1931 -1.5055 -0.2439 0.9894
0.4652 13.9136 -1.2763 0.9456
-0.7101 12.7353 -1.1694 0.9501
-1.7049 11.6899 -1.0830 0.9537
-2.5608 10.7455 -1.0127 0.9566
-3.9591 9.0547 -0.9060 0.9611
-6.3798 6.5967 -0.8413 0.9638
-7.2125 5.1912 -0.8147 0.9649
-8.2704 3.0800 -0.8091 0.9652
-8.5853 2.3518 -0.8161 0.9649
-4.9080 0.8842 -0.4572 0.9802
-9.1280 -0.8157 -0.9940 0.9638
-9.3475 -1.6840 -1.0302 0.9625
-9.7454 -3.6292 -1.1280 0.9590
-10.1418 -8.7699 -1.4543 0.9475
-10.2194 -10.5668 -1.5945 0.9426
0.9371 -2.2804 -0.2674 0.9901
2.0231 -1.5257 -0.2748 0.9899
1.7212 6.5697 -0.7366 0.9730
2.4288 14.3992 -1.5839 0.9429
1.0328 13.2171 -1.4380 0.9481
-1.9896 10.3794 -1.1463 0.9584
-2.7403 9.5834 -1.0811 0.9607
-5.7966 6.5544 -0.9491 0.9654
-6.2277 5.8902 -0.9298 0.9661
-6.6259 5.2325 -0.9158 0.9666
-6.9956 4.5763 -0.9067 0.9669
-7.6629 3.2493 -0.9028 0.9671
-7.9657 2.5686 -0.9078 0.9669
-4.7637 1.0793 -0.5298 0.9805
-3.7517 0.5046 -0.4106 0.9849
-3.7330 0.1665 -0.4053 0.9851
-9.4522 -2.1416 -1.0512 0.9618
-9.6512 -3.1121 -1.0999 0.9600
-10.1833 -9.6313 -1.5203 0.9452
0.7239 -2.7630 -0.3098 0.9886
0.8637 -2.4008 -0.2767 0.9898
1.0108 -2.1781 -0.2605 0.9904
1.1591 -2.0076 -0.2514 0.9907
2.1819 -1.4978 -0.2871 0.9894
2.6638 -1.4986 -0.3315 0.9878
1.4212 6.6139 -0.7338 0.9731
-1.5750 10.7988 -1.1837 0.9570
-2.3773 9.9757 -1.1123 0.9596
-3.0803 9.2002 -1.0524 0.9617
-4.5374 8.2797 -1.0241 0.9627
-5.0765 7.5746 -0.9890 0.9640
-7.1709 4.2473 -0.9040 0.9670
-7.5042 3.5845 -0.9020 0.9671
-8.1104 2.2217 -0.9121 0.9667
-3.7414 0.3343 -0.4074 0.9850
-3.5692 0.0000 -0.4473 0.9857
-3.7700 -0.3369 -0.4743 0.9849
-8.9670 -2.4563 -1.1651 0.9632
-9.1193 -3.3960 -1.2195 0.9615
-9.2508 -4.4187 -1.2847 0.9595
-9.2619 -5.4858 -1.3490 0.9575
-9.2754 -6.6760 -1.4321 0.9550
-9.3073 -9.6236 -1.6777 0.9475
-9.2532 -11.4527 -1.8451 0.9424
0.6635 -3.0878 -0.3958 0.9873
0.7920 -2.5530 -0.3350 0.9893
1.0772 -2.0740 -0.2929 0.9906
1.5622 -1.6891 -0.2883 0.9908
2.2033 13.0620 -1.6600 0.9480
0.9449 12.0931 -1.5201 0.9523
-0.1250 11.2166 -1.4057 0.9558
-1.0474 10.4118 -1.3113 0.9587
-1.8523 9.6634 -1.2330 0.9611
-2.5605 8.9547 -1.1671 0.9632
-3.1878 8.2770 -1.1115 0.9649
-4.5358 7.4671 -1.0949 0.9654
-5.0292 6.8257 -1.0625 0.9664
-5.4801 6.1964 -1.0366 0.9672
-5.8941 5.5746 -1.0167 0.9678
-6.2761 4.9562 -1.0022 0.9683
-6.6297 4.3370 -0.9928 0.9686
-7.5486 2.4341 -0.9939 0.9685
-3.5348 0.1576 -0.4434 0.9858
-8.8837 -2.0128 -1.1415 0.9639
-9.1878 -3.8960 -1.2506 0.9606
-9.2535 -6.0533 -1.3857 0.9564
-9.3155 -8.8105 -1.6068 0.9496
-9.2873 -10.5013 -1.7568 0.9451
0.7214 -2.7536 -0.3567 0.9886
1.1543 -1.9993 -0.2893 0.9907
1.3049 -1.8563 -0.2843 0.9909
1.4746 -1.7442 -0.2862 0.9908
1.6578 -1.6394 -0.2922 0.9906
1.8796 -1.5535 -0.3056 0.9902
-0.6026 10.8062 -1.3563 0.9573
-1.4630 10.0314 -1.2704 0.9600
-2.2179 9.3066 -1.1989 0.9622
-4.2711 7.7938 -1.1137 0.9648
-4.7882 7.1446 -1.0778 0.9659
-6.0889 5.2653 -1.0088 0.9681
-6.7969 4.0258 -0.9900 0.9687
-7.4086 2.7590 -0.9907 0.9686
-7.6837 2.1048 -0.9984 0.9684
-3.8076 0.6860 -0.4848 0.9845
-3.3944 0.0000 -0.4828 0.9864
-3.5139 -0.3140 -0.5018 0.9858
-8.3039 -1.4960 -1.2001 0.9665
-8.5666 -3.1902 -1.3002 0.9637
-8.6620 -4.1375 -1.3654 0.9620
-8.6184 -6.2031 -1.5104 0.9580
-8.5438 -8.8342 -1.7481 0.9516
-8.2233 -12.2699 -2.1009 0.9421
0.6597 -3.0701 -0.4466 0.9874
0.7900 -2.5467 -0.3793 0.9893
0.9336 -2.2717 -0.3493 0.9901
1.0756 -2.0708 -0.3319 0.9906
1.2279 -1.9234 -0.3246 0.9908
1.3840 -1.7933 -0.3222 0.9909
2.0035 -1.5109 -0.3569 0.9899
2.3536 -1.4658 -0.3944 0.9889
4.9685 13.8103 -2.0876 0.9424
3.3613 12.8301 -1.8865 0.9478
-0.1158 10.3956 -1.4787 0.9589
-1.7323 9.0375 -1.3089 0.9635
-2.4022 8.4011 -1.2428 0.9653
-3.7412 7.6131 -1.2065 0.9663
-4.2875 7.0582 -1.1746 0.9672
-5.1951 5.8742 -1.1154 0.9688
-5.5933 5.2901 -1.0950 0.9694
-6.9026 2.9270 -1.0664 0.9702
-4.1432 0.9387 -0.6042 0.9830
-3.3671 0.4529 -0.4832 0.9864
-3.3610 0.1499 -0.4785 0.9865
-3.6292 -0.4881 -0.5209 0.9853
-8.3778 -1.8981 -1.2218 0.9659
-8.6236 -5.6413 -1.4657 0.9592
-8.3361 -11.3139 -1.9989 0.9448
0.8596 -2.3894 -0.3612 0.9898
1.0060 -2.1680 -0.3399 0.9904
1.1526 -1.9963 -0.3279 0.9907
1.4692 -1.7378 -0.3237 0.9908
1.6505 -1.6322 -0.3302 0.9907
1.8709 -1.5463 -0.3452 0.9902
4.1277 13.3063 -1.9816 0.9453
1.4114 6.5682 -0.9556 0.9732
0.3598 10.7620 -1.5316 0.9574
-2.0774 8.7171 -1.2746 0.9644
-2.7091 8.0916 -1.2137 0.9661
-3.2749 7.4899 -1.1627 0.9675
-4.0335 7.3602 -1.1938 0.9667
-4.5299 6.7591 -1.1573 0.9677
-4.9830 6.1676 -1.1278 0.9685
-5.3984 5.5819 -1.1045 0.9691
-5.7804 4.9985 -1.0869 0.9696
-6.1328 4.4142 -1.0748 0.9699
-6.4586 3.8254 -1.0677 0.9701
-7.0396 2.6216 -1.0685 0.9701
-7.2983 1.9992 -1.0763 0.9699
-3.6716 0.6615 -0.5306 0.9850
-3.3525 0.2996 -0.4787 0.9865
-3.2915 0.0000 -0.5241 0.9868
-3.3915 -0.3031 -0.5422 0.9863
-7.9808 -2.1861 -1.3176 0.9670
-8.0749 -3.0071 -1.3721 0.9657
-8.1414 -3.8888 -1.4367 0.9641
-7.9959 -6.9143 -1.6833 0.9581
-7.7268 -9.5635 -1.9578 0.9514
-7.4830 -11.1654 -2.1403 0.9470
0.7880 -2.5403 -0.4235 0.9893
1.0739 -2.0677 -0.3710 0.9906
1.2261 -1.9206 -0.3628 0.9908
1.3824 -1.7912 -0.3603 0.9909
1.5535 -1.6796 -0.3643 0.9908
6.2018 13.3646 -2.3461 0.9421
4.5013 12.5115 -2.1173 0.9476
3.0730 11.7298 -1.9308 0.9521
0.8069 10.3256 -1.6492 0.9589
-2.2615 7.9090 -1.3099 0.9672
-4.5198 6.1344 -1.2133 0.9696
-5.3205 5.0321 -1.1661 0.9708
-6.5743 2.7878 -1.1371 0.9715
-6.8287 2.2020 -1.1425 0.9714
-3.9744 0.9005 -0.6489 0.9836
-3.2600 0.1454 -0.5196 0.9869
-8.0311 -2.5897 -1.3437 0.9664
-8.1118 -3.4397 -1.4030 0.9649
-8.0711 -5.2799 -1.5358 0.9617
-8.0268 -6.3387 -1.6286 0.9594
-7.9520 -7.5209 -1.7429 0.9566
-7.8190 -8.8410 -1.8794 0.9533
0.7165 -2.7350 -0.4502 0.9886
0.8576 -2.3837 -0.4034 0.9898
1.0042 -2.1639 -0.3799 0.9904
1.1509 -1.9933 -0.3665 0.9907
1.2999 -1.8491 -0.3599 0.9909
1.8651 -1.5416 -0.3853 0.9902
2.1494 -1.4755 -0.4151 0.9895
2.5987 -1.4620 -0.4748 0.9880
1.3129 10.6600 -1.7103 0.9574
0.3344 10.0004 -1.5933 0.9603
-0.5227 9.3745 -1.4951 0.9627
-1.9528 8.1942 -1.3414 0.9665
-2.5540 7.6283 -1.2810 0.9679
-3.0952 7.0788 -1.2302 0.9692
-4.2970 6.4116 -1.2290 0.9692
-5.1329 5.3074 -1.1757 0.9705
-5.5004 4.7564 -1.1579 0.9710
-6.1511 3.6433 -1.1384 0.9715
-6.4389 3.0756 -1.1363 0.9715
-6.7042 2.4967 -1.1392 0.9714
-4.5041 1.2338 -0.7436 0.9813
-3.5500 0.6396 -0.5744 0.9855
-3.2454 0.2900 -0.5188 0.9869
-3.1939 0.0000 -0.5632 0.9871
-3.2817 -0.2932 -0.5810 0.9867
-7.5618 -2.0714 -1.3825 0.9687
-7.6344 -2.8430 -1.4365 0.9675
-7.6775 -3.6672 -1.5003 0.9660
-7.5420 -5.4284 -1.6385 0.9630
-7.3326 -7.5818 -1.8598 0.9581
-6.8573 -10.2317 -2.1718 0.9512
-6.4806 -11.8255 -2.3777 0.9467
0.6522 -3.0350 -0.5474 0.9875
0.7860 -2.5339 -0.4678 0.9893
0.9300 -2.2629 -0.4314 0.9901
1.0723 -2.0645 -0.4102 0.9906
1.3807 -1.7891 -0.3985 0.9909
5.6075 12.0838 -2.3489 0.9473
4.1124 11.4307 -2.1420 0.9519
2.8293 10.7992 -1.9685 0.9557
1.7198 10.1960 -1.8232 0.9589
-0.1009 9.0601 -1.5976 0.9639
-0.8571 8.5200 -1.5099 0.9658
-2.1357 7.4689 -1.3697 0.9689
-3.3812 6.8805 -1.3518 0.9693
-4.3004 5.8366 -1.2783 0.9710
-5.0717 4.7968 -1.2309 0.9720
-5.4112 4.2732 -1.2158 0.9724
-5.7234 3.7441 -1.2059 0.9726
-3.1779 0.4274 -0.5654 0.9871
-3.1644 0.1411 -0.5585 0.9872
-3.2276 -0.1439 -0.5697 0.9870
-7.6015 -2.4511 -1.4083 0.9681
-7.6869 -4.1018 -1.5363 0.9652
-7.5093 -5.9300 -1.6872 0.9619
-7.4058 -7.0044 -1.7974 0.9594
-7.2430 -8.1897 -1.9278 0.9566
-7.0076 -9.5107 -2.0831 0.9531
-6.6852 -11.0054 -2.2705 0.9490
-6.2424 -12.7028 -2.4957 0.9441
1.0023 -2.1598 -0.4199 0.9904
1.8634 -1.5402 -0.4263 0.9902
2.5964 -1.4607 -0.5253 0.9880
6.4575 12.4330 -2.4703 0.9447
4.8325 11.7593 -2.2417 0.9497
3.4468 11.1114 -2.0513 0.9538
1.4091 6.5575 -1.1827 0.9731
0.3122 9.3365 -1.6472 0.9628
-1.2039 8.2546 -1.4709 0.9667
-2.4148 7.2127 -1.3412 0.9696
-4.0858 6.0965 -1.2941 0.9706
-5.2450 4.5355 -1.2227 0.9722
-6.1453 2.9354 -1.2008 0.9727
-6.3977 2.3826 -1.2038 0.9727
-4.2904 1.1752 -0.7844 0.9821
-3.4371 0.6192 -0.6158 0.9859
-3.1509 0.2816 -0.5578 0.9872
-3.1015 0.0000 -0.6002 0.9874
-7.1825 -1.9675 -1.4411 0.9701
-7.2614 -3.4685 -1.5573 0.9677
-7.0952 -5.1068 -1.6917 0.9650
-6.9964 -6.0499 -1.7899 0.9630
-6.6254 -8.2003 -2.0401 0.9580
-5.9363 -10.8324 -2.3904 0.9509
0.7840 -2.5275 -0.5121 0.9893
0.9282 -2.2586 -0.4725 0.9901
1.0706 -2.0614 -0.4495 0.9906
1.2224 -1.9148 -0.4396 0.9908
1.3791 -1.7869 -0.4368 0.9908
1.5497 -1.6755 -0.4417 0.9907
1.7511 -1.5838 -0.4569 0.9904
1.9941 -1.5038 -0.4833 0.9899
2.6202 10.0012 -2.0007 0.9588
0.7031 8.9973 -1.7464 0.9639
-3.2151 6.5427 -1.4107 0.9707
-3.6773 6.0536 -1.3707 0.9716
-4.1002 5.5648 -1.3376 0.9722
-5.1710 4.0835 -1.2751 0.9735
-5.7469 3.0666 -1.2605 0.9738
-5.9989 2.5438 -1.2609 0.9738
-3.1048 0.4176 -0.6062 0.9873
-3.2339 -0.4349 -0.6315 0.9868
-7.1446 -1.6187 -1.4176 0.9706
-7.2534 -3.0757 -1.5246 0.9684
-7.2608 -3.8744 -1.5926 0.9670
-7.1470 -4.6753 -1.6527 0.9658
-6.1449 -10.1158 -2.2905 0.9529
-5.6964 -11.5917 -2.4994 0.9487
-5.1041 -13.2525 -2.7482 0.9438
0.8535 -2.3722 -0.4879 0.9898
1.1474 -1.9873 -0.4441 0.9907
1.4640 -1.7316 -0.4388 0.9908
1.6451 -1.6268 -0.4477 0.9906
2.6037 -1.4648 -0.5781 0.9879
7.5580 11.8395 -2.7182 0.9444
5.8679 11.2977 -2.4636 0.9495
-0.4610 8.2681 -1.6025 0.9668
-1.7418 7.3090 -1.4540 0.9699
-3.4514 6.2980 -1.3898 0.9712
-4.6697 4.8285 -1.2999 0.9730
-5.3244 3.8323 -1.2695 0.9736
-5.8757 2.8066 -1.2601 0.9738
-6.1164 2.2778 -1.2630 0.9738
-4.1640 1.1406 -0.8355 0.9826
-3.0211 0.0000 -0.6369 0.9877
-6.5812 -5.6909 -1.8342 0.9651
-5.8727 -8.7627 -2.2239 0.9578
-4.9622 -11.3489 -2.6113 0.9506
0.6489 -3.0196 -0.6511 0.9875
0.7820 -2.5211 -0.5565 0.9893
0.9264 -2.2542 -0.5138 0.9901
1.3774 -1.7848 -0.4753 0.9908
1.5479 -1.6735 -0.4806 0.9907
1.9932 -1.5031 -0.5263 0.9898
3.4965 9.7187 -2.1774 0.9587
-0.0893 8.0171 -1.6903 0.9678
-1.3701 7.1477 -1.5343 0.9707
-2.5338 6.5788 -1.4863 0.9716
-4.9499 3.9089 -1.3297 0.9745
-5.2391 3.4273 -1.3199 0.9747
-3.5520 0.8048 -0.7678 0.9852
-3.0505 -0.1360 -0.6437 0.9876
-6.8609 -2.2123 -1.5198 0.9710
-6.8856 -2.9197 -1.5767 0.9699
-6.8771 -3.6697 -1.6433 0.9686
-6.7564 -4.4198 -1.7021 0.9675
-6.6447 -5.2472 -1.7850 0.9660
-6.0372 -8.1938 -2.1457 0.9592
-5.6854 -9.3595 -2.3087 0.9562
-4.6536 -12.0828 -2.7297 0.9484
-3.9125 -13.6827 -3.0002 0.9435
0.8514 -2.3665 -0.5302 0.9898
1.1456 -1.9843 -0.4830 0.9907
1.6436 -1.6254 -0.4873 0.9906
1.8600 -1.5373 -0.5087 0.9902
2.6111 -1.4690 -0.6316 0.9878
5.3740 10.3468 -2.4580 0.9535
2.9487 9.5056 -2.0982 0.9601
1.4081 6.5529 -1.4130 0.9730
1.0671 8.6647 -1.8405 0.9649
0.2753 8.2340 -1.7369 0.9669
-1.0741 7.3647 -1.5691 0.9700
-2.1756 6.4983 -1.4447 0.9724
-3.2912 6.0056 -1.4438 0.9724
-3.7171 5.5464 -1.4076 0.9731
-4.1078 5.0843 -1.3780 0.9736
-4.4663 4.6182 -1.3544 0.9741
-5.0977 3.6691 -1.3241 0.9747
-5.8572 2.1813 -1.3177 0.9748
-4.0001 1.0957 -0.8744 0.9832
-3.2435 0.5844 -0.6948 0.9866
-2.9810 0.2664 -0.6310 0.9878
-2.9710 0.0000 -0.6781 0.9879
-3.1642 -0.5700 -0.7338 0.9869
-6.3426 -4.5651 -1.7836 0.9684
-6.0307 -6.2356 -1.9800 0.9650
-5.7897 -7.1660 -2.1027 0.9629
-4.5695 -10.4508 -2.6034 0.9543
-3.9387 -11.7643 -2.8316 0.9504
0.7800 -2.5146 -0.6009 0.9893
0.9246 -2.2498 -0.5552 0.9901
1.2187 -1.9091 -0.5170 0.9908
1.3758 -1.7826 -0.5140 0.9908
9.1901 10.8701 -3.2489 0.9433
7.4654 10.6197 -2.9629 0.9481
5.5956 9.6920 -2.5543 0.9551
3.2523 9.0399 -2.1928 0.9613
2.2754 8.6851 -2.0492 0.9638
1.4057 8.3339 -1.9290 0.9659
-0.7225 7.1814 -1.6474 0.9708
-1.3008 6.7862 -1.5771 0.9720
-2.4569 6.3791 -1.5602 0.9723
-3.3540 5.5215 -1.4745 0.9738
-3.7477 5.0864 -1.4420 0.9744
-4.7456 3.7475 -1.3801 0.9755
-5.0244 3.2868 -1.3704 0.9757
-5.2790 2.8170 -1.3657 0.9757
-5.7192 1.8442 -1.3715 0.9756
-6.5391 -2.1086 -1.5682 0.9722
-6.2795 -4.9588 -1.8263 0.9677
-5.9186 -6.6922 -2.0391 0.9640
-5.2874 -8.7042 -2.3245 0.9591
-4.8369 -9.8427 -2.5031 0.9560
-3.5643 -12.4651 -2.9591 0.9482
0.8493 -2.3607 -0.5726 0.9898
1.1439 -1.9813 -0.5222 0.9907
1.4604 -1.7274 -0.5163 0.9908
1.6421 -1.6239 -0.5271 0.9906
1.8583 -1.5359 -0.5503 0.9902
8.2981 10.7521 -3.1000 0.9458
6.4151 10.0492 -2.7212 0.9523
4.9541 9.5384 -2.4532 0.9569
3.7854 9.2113 -2.2730 0.9600
1.4098 6.5607 -1.5316 0.9728
1.0034 8.1473 -1.8736 0.9669
-1.0186 6.9843 -1.6110 0.9715
-2.6961 6.1661 -1.5360 0.9728
-3.1442 5.7374 -1.4933 0.9735
-3.9323 4.8671 -1.4281 0.9747
-4.2787 4.4241 -1.4048 0.9751
-4.8881 3.5182 -1.3746 0.9756
-5.1546 3.0531 -1.3674 0.9757
-3.1659 0.5704 -0.7342 0.9869
-2.9277 0.2616 -0.6709 0.9880
-2.9882 -0.2670 -0.7374 0.9877
-3.1004 -0.5585 -0.7743 0.9871
-6.2317 -1.7070 -1.5882 0.9737
-6.2486 -2.3270 -1.6390 0.9729
-6.2337 -2.9776 -1.6981 0.9719
-6.1834 -3.6624 -1.7665 0.9708
-5.8761 -5.0812 -1.9095 0.9685
-5.6891 -5.8825 -2.0115 0.9669
-5.1268 -7.6498 -2.2636 0.9628
-3.6254 -10.8284 -2.8068 0.9541
-2.8761 -12.0687 -3.0495 0.9502
0.7816 -2.5198 -0.6485 0.9892
0.9227 -2.2454 -0.5967 0.9901
1.3741 -1.7805 -0.5528 0.9908
1.5441 -1.6694 -0.5590 0.9907
1.9914 -1.5018 -0.6131 0.9898
2.3430 -1.4592 -0.6785 0.9887
10.0853 9.9736 -3.4864 0.9432
6.8534 9.7491 -2.9292 0.9521
4.0454 8.7176 -2.3622 0.9612
3.0385 8.4455 -2.2062 0.9637
1.3234 7.8457 -1.9557 0.9678
0.5873 7.5155 -1.8529 0.9694
-0.6859 6.8184 -1.6844 0.9722
-1.7885 6.2548 -1.5990 0.9736
-2.3465 6.0926 -1.6048 0.9735
-3.9410 4.4562 -1.4622 0.9758
-4.2618 4.0308 -1.4419 0.9761
-4.5560 3.5979 -1.4269 0.9764
-4.8251 3.1565 -1.4172 0.9765
-5.2924 2.2442 -1.4130 0.9766
-3.3132 0.7507 -0.8350 0.9861
-2.9494 -0.1315 -0.7257 0.9879
-3.0389 -0.4087 -0.7537 0.9874
-6.2440 -2.0134 -1.6126 0.9733
-6.2454 -2.6483 -1.6674 0.9724
-6.2132 -3.3155 -1.7310 0.9714
-5.9500 -4.6986 -1.8635 0.9693
-5.2942 -7.1853 -2.1938 0.9639
-4.9392 -8.1309 -2.3384 0.9616
-4.4953 -9.1477 -2.5053 0.9589
-3.9455 -10.2441 -2.6983 0.9558
-3.2710 -11.4393 -2.9245 0.9522
-2.4390 -12.7238 -3.1845 0.9480
-1.4202 -14.1169 -3.4874 0.9432
0.8483 -2.3578 -0.6159 0.9897
1.2902 -1.8353 -0.5514 0.9908
1.6407 -1.6225 -0.5672 0.9905
2.6262 -1.4775 -0.7407 0.9877
7.5890 9.8334 -3.0531 0.9501
6.1604 9.6502 -2.8141 0.9539
3.5281 8.5850 -2.2814 0.9625
2.5747 8.3000 -2.1360 0.9648
0.9462 7.6825 -1.9026 0.9686
-0.9682 6.6387 -1.6490 0.9727
-2.1060 6.2904 -1.6305 0.9730
-2.5768 5.8933 -1.5810 0.9739
-4.4122 3.8154 -1.4338 0.9763
-4.9506 2.9323 -1.4143 0.9766
-3.0843 0.5557 -0.7703 0.9872
-2.8744 -0.0000 -0.7574 0.9882
-2.9343 -0.2622 -0.7763 0.9879
-5.9644 -1.6338 -1.6295 0.9747
-5.9487 -2.8414 -1.7371 0.9731
-5.7264 -4.1216 -1.8591 0.9712
-5.5739 -4.8199 -1.9417 0.9700
-5.3817 -5.5647 -2.0399 0.9685
-5.1325 -6.3525 -2.1520 0.9668
-4.8173 -7.1879 -2.2800 0.9648
-2.6461 -11.1036 -3.0077 0.9539
-1.7865 -12.2490 -3.2618 0.9501
0.7838 -2.5268 -0.6971 0.9891
0.9237 -2.2476 -0.6403 0.9900
1.0640 -2.0486 -0.6083 0.9905
1.2150 -1.9032 -0.5950 0.9907
1.5421 -1.6673 -0.5985 0.9906
1.9905 -1.5011 -0.6569 0.9897
2.3441 -1.4599 -0.7277 0.9886
7.6799 9.0838 -3.1344 0.9520
3.7773 8.1399 -2.3645 0.9636
2.0099 7.6719 -2.0898 0.9677
1.2496 7.4079 -1.9795 0.9694
0.5561 7.1166 -1.8809 0.9709
-0.0759 6.8088 -1.7942 0.9722
-1.7719 6.1968 -1.6983 0.9737
-2.6795 5.4526 -1.6009 0.9752
-3.0792 5.0691 -1.5628 0.9758
-3.7849 4.2796 -1.5054 0.9766
-4.0952 3.8733 -1.4853 0.9770
-4.6396 3.0351 -1.4609 0.9773
-5.2808 1.7029 -1.4620 0.9773
-3.2212 0.7298 -0.8703 0.9864
-2.8316 0.3808 -0.7529 0.9883
-2.8515 0.1271 -0.7521 0.9883
-5.9239 -3.1611 -1.7693 0.9726
-5.8083 -3.7996 -1.8289 0.9717
-5.4845 -5.1871 -1.9891 0.9693
-4.9838 -6.7640 -2.2139 0.9658
-4.6317 -7.6247 -2.3508 0.9638
-3.0175 -10.5530 -2.8922 0.9556
-2.2369 -11.6696 -3.1309 0.9520
-1.2923 -12.8459 -3.4020 0.9480
-0.1570 -14.0920 -3.7135 0.9434
0.9937 -2.1413 -0.6220 0.9903
1.4568 -1.7231 -0.5946 0.9907
1.6392 -1.6210 -0.6075 0.9905
2.1434 -1.4713 -0.6851 0.9893
9.9958 9.0407 -3.5514 0.9458
8.4108 9.0937 -3.2640 0.9501
5.7072 8.9403 -2.7948 0.9571
4.3621 8.3986 -2.4937 0.9616
3.3017 8.0343 -2.2888 0.9647
0.2328 6.9645 -1.8362 0.9716
-0.3708 6.6497 -1.7549 0.9728
-0.9222 6.3232 -1.6838 0.9739
-1.4680 6.1601 -1.6686 0.9741
-2.4667 5.6416 -1.6224 0.9749
-2.8835 5.2618 -1.5810 0.9755
-3.2669 4.8746 -1.5462 0.9760
-3.6194 4.4798 -1.5176 0.9765
-3.9434 4.0775 -1.4947 0.9768
-4.5126 3.2480 -1.4650 0.9773
-4.7606 2.8197 -1.4580 0.9774
-5.1879 1.9320 -1.4587 0.9774
-3.7365 1.0235 -1.0208 0.9841
-3.0018 0.5408 -0.8037 0.9875
-2.9786 -0.5366 -0.8515 0.9875
-5.7175 -2.1292 -1.7166 0.9750
-5.6864 -2.7161 -1.7731 0.9742
-5.2991 -4.5822 -1.9710 0.9713
-5.1036 -5.2771 -2.0655 0.9700
-4.5407 -6.7752 -2.2948 0.9667
-4.1559 -7.5835 -2.4331 0.9647
-3.1239 -9.3305 -2.7684 0.9599
-2.4478 -10.2715 -2.9709 0.9571
-0.6856 -12.2945 -3.4645 0.9501
0.4465 -13.3546 -3.7595 0.9460
0.6744 -3.1382 -0.9031 0.9868
0.7860 -2.5338 -0.7464 0.9890
1.0654 -2.0513 -0.6503 0.9904
1.2135 -1.9009 -0.6345 0.9907
1.3707 -1.7761 -0.6312 0.9907
1.5402 -1.6653 -0.6382 0.9906
1.7431 -1.5765 -0.6613 0.9903
1.9896 -1.5004 -0.7011 0.9897
11.4761 7.8779 -3.9164 0.9438
9.8808 8.1668 -3.6067 0.9481
7.0898 8.3859 -3.0897 0.9554
3.6207 7.8025 -2.4201 0.9649
1.8988 7.2478 -2.1080 0.9693
1.1829 7.0129 -2.0010 0.9709
0.5278 6.7548 -1.9063 0.9722
-0.0722 6.4778 -1.8227 0.9734
-1.1679 6.0929 -1.7455 0.9746
-3.3122 4.4954 -1.5710 0.9771
-3.9399 3.7263 -1.5258 0.9777
-4.2151 3.3287 -1.5111 0.9779
-4.6944 2.5050 -1.4971 0.9781
-4.9000 2.0777 -1.4975 0.9781
-3.1370 0.7108 -0.9050 0.9867
-2.7751 0.3732 -0.7878 0.9884
-2.8062 0.1251 -0.7903 0.9884
-3.0353 -0.6877 -0.8756 0.9872
-3.2049 -1.0334 -0.9474 0.9861
-5.7061 -2.4196 -1.7438 0.9746
-5.6581 -3.0192 -1.8044 0.9737
-5.5471 -3.6287 -1.8650 0.9728
-5.2077 -4.9254 -2.0168 0.9707
-4.9858 -5.6376 -2.1175 0.9692
-4.7055 -6.3863 -2.2319 0.9676
-4.3580 -7.1741 -2.3617 0.9657
-2.0626 -10.7605 -3.0827 0.9555
-1.1847 -11.7764 -3.3301 0.9520
-0.1428 -12.8209 -3.6075 0.9481
1.0857 -13.8937 -3.9210 0.9437
0.7189 -2.7439 -0.7981 0.9883
0.8527 -2.3703 -0.7087 0.9896
1.1403 -1.9751 -0.6417 0.9906
1.4550 -1.7210 -0.6341 0.9907
1.6377 -1.6195 -0.6480 0.9905
1.8530 -1.5315 -0.6764 0.9901
2.1424 -1.4706 -0.7311 0.9893
10.6612 8.0400 -3.7570 0.9460
9.1345 8.2616 -3.4653 0.9501
6.4694 8.3827 -2.9792 0.9570
1.4169 6.5939 -1.8976 0.9724
0.8481 6.8865 -1.9522 0.9716
0.2213 6.6185 -1.8632 0.9729
-1.4532 6.0979 -1.7637 0.9743
-3.1380 4.6823 -1.5859 0.9769
-4.3437 3.1264 -1.5057 0.9780
-4.5832 2.7147 -1.4987 0.9781
-4.8000 2.2928 -1.4967 0.9781
-4.9945 1.8600 -1.4995 0.9781
-3.6501 0.9999 -1.0648 0.9844
-2.7884 0.2492 -0.7877 0.9884
-2.8308 -0.2529 -0.8509 0.9882
-5.4813 -2.0412 -1.7511 0.9759
-5.4441 -2.6004 -1.8062 0.9751
-5.3727 -3.1823 -1.8695 0.9743
-5.0478 -4.3650 -1.9979 0.9725
-4.8506 -5.0154 -2.0889 0.9713
-4.6010 -5.6947 -2.1918 0.9699
-3.4615 -7.9166 -2.5867 0.9646
-2.9196 -8.7203 -2.7531 0.9623
-2.2768 -9.5540 -2.9404 0.9598
0.4078 -12.1973 -3.6537 0.9503
0.7882 -2.5410 -0.7965 0.9890
0.9278 -2.2576 -0.7307 0.9899
1.0677 -2.0556 -0.6935 0.9904
1.2160 -1.9049 -0.6766 0.9906
1.5396 -1.6646 -0.6788 0.9906
1.7425 -1.5759 -0.7034 0.9902
1.9911 -1.5016 -0.7466 0.9896
11.9327 6.7132 -4.0990 0.9444
10.4489 7.1728 -3.7943 0.9485
5.4819 7.7981 -2.8537 0.9610
4.4727 7.7470 -2.6781 0.9633
2.5307 7.0341 -2.2380 0.9693
1.1225 6.6547 -2.0204 0.9722
-0.6061 6.0249 -1.8128 0.9750
-1.1489 5.9937 -1.8271 0.9748
-2.8422 4.6790 -1.6390 0.9774
-3.1865 4.3248 -1.6083 0.9778
-3.5035 3.9614 -1.5832 0.9782
-4.0611 3.2070 -1.5492 0.9786
-4.3041 2.8156 -1.5398 0.9788
-4.5244 2.4143 -1.5353 0.9788
-4.7225 2.0025 -1.5357 0.9788
-2.7203 0.3659 -0.8218 0.9886
-2.7619 0.1232 -0.8277 0.9885
-2.8066 -0.1252 -0.8411 0.9883
-2.8771 -0.3869 -0.8691 0.9880
-2.9771 -0.6745 -0.9139 0.9873
-5.4668 -2.3181 -1.7777 0.9755
-4.7327 -5.3514 -2.1388 0.9706
-4.1127 -6.7703 -2.3716 0.9675
-3.6987 -7.5266 -2.5107 0.9656
-2.6117 -9.1336 -2.8440 0.9611
-1.9132 -9.9810 -3.0425 0.9585
-1.0920 -10.8545 -3.2660 0.9555
-0.1309 -11.7511 -3.5183 0.9521
0.9879 -12.6426 -3.7965 0.9484
2.2806 -13.5205 -4.1050 0.9444
1.2890 -1.8336 -0.6710 0.9907
1.4553 -1.7213 -0.6748 0.9906
2.1457 -1.4729 -0.7792 0.9892
2.6864 -1.5113 -0.9228 0.9872
12.7076 6.4215 -4.2625 0.9423
11.1793 6.9625 -3.9429 0.9465
8.4035 7.6005 -3.3922 0.9538
7.1633 7.7449 -3.1584 0.9569
6.0193 7.7995 -2.9495 0.9597
4.9666 7.7801 -2.7633 0.9622
3.9994 7.7002 -2.5977 0.9644
3.0020 7.3049 -2.3644 0.9676
2.1561 6.9504 -2.1786 0.9701
1.4219 6.6172 -2.0263 0.9721
0.8058 6.5428 -1.9736 0.9729
0.2107 6.3024 -1.8879 0.9740
-0.8823 6.0497 -1.8303 0.9748
-1.3916 5.8394 -1.7971 0.9752
-2.6592 4.8525 -1.6566 0.9772
-3.0179 4.5031 -1.6229 0.9776
-3.6521 3.7763 -1.5728 0.9783
-4.1855 3.0125 -1.5439 0.9787
-4.4171 2.6162 -1.5369 0.9788
-4.6262 2.2097 -1.5349 0.9788
-2.7380 0.0000 -0.8695 0.9886
-2.9540 -0.8092 -0.9727 0.9872
-5.1436 -3.0466 -1.8986 0.9752
-4.9827 -3.5863 -1.9497 0.9746
-4.6193 -4.7762 -2.1102 0.9725
-3.6990 -6.7498 -2.4444 0.9682
2.7189 -12.6526 -4.1100 0.9471
0.9299 -2.2627 -0.7769 0.9898
2.3756 -1.4795 -0.8888 0.9883
10.8710 6.1159 -3.9613 0.9490
8.3596 6.9095 -3.4443 0.9555
6.1337 7.2550 -3.0172 0.9609
5.1329 7.3016 -2.8345 0.9632
3.3448 7.2079 -2.5236 0.9672
2.4773 6.8857 -2.3240 0.9698
1.0690 6.3373 -2.0410 0.9734
-0.0668 5.9989 -1.9053 0.9751
-0.6049 6.0128 -1.9192 0.9750
-1.5590 5.4521 -1.8009 0.9765
-2.3739 4.8307 -1.7094 0.9777
-2.7354 4.5031 -1.6733 0.9781
-3.0689 4.1652 -1.6431 0.9785
-3.3761 3.8174 -1.6185 0.9788
-3.6582 3.4599 -1.5991 0.9791
-3.9165 3.0928 -1.5849 0.9793
-4.3647 2.3291 -1.5712 0.9795
-4.5558 1.9318 -1.5715 0.9794
-2.9791 0.6750 -0.9701 0.9873
-2.7186 0.1212 -0.8643 0.9886
-2.9205 -0.6617 -0.9510 0.9875
-3.1071 -1.0019 -1.0368 0.9864
-5.0828 -3.3250 -1.9289 0.9748
-4.9014 -3.8705 -1.9834 0.9741
-4.5019 -5.0904 -2.1582 0.9719
-4.2266 -5.7364 -2.2629 0.9705
-3.4887 -7.0993 -2.5122 0.9673
-3.0098 -7.8147 -2.6595 0.9655
-2.4449 -8.5502 -2.8242 0.9634
-1.7831 -9.3019 -3.0079 0.9610
-1.0124 -10.0634 -3.2121 0.9584
0.9053 -11.5860 -3.6908 0.9524
2.0764 -12.3100 -3.9647 0.9490
0.8574 -2.3831 -0.8043 0.9894
1.0002 -2.1553 -0.7546 0.9901
1.1452 -1.9835 -0.7274 0.9904
1.2920 -1.8379 -0.7135 0.9906
1.6423 -1.6241 -0.7335 0.9904
1.8583 -1.5359 -0.7656 0.9899
2.1558 -1.4799 -0.8304 0.9891
11.5360 5.8294 -4.1048 0.9472
10.2192 6.3646 -3.8234 0.9507
6.6620 7.2029 -3.1159 0.9597
5.6241 7.2873 -2.9234 0.9621
4.6598 7.2995 -2.7503 0.9643
-0.3345 5.9980 -1.9078 0.9751
-0.8582 5.8841 -1.8885 0.9754
-1.7749 5.3012 -1.7754 0.9768
-2.5582 4.6682 -1.6906 0.9779
-2.9056 4.3354 -1.6575 0.9783
-3.5202 3.6399 -1.6081 0.9790
-3.7903 3.2776 -1.5914 0.9792
-4.2610 2.5238 -1.5728 0.9794
-4.4630 2.1318 -1.5708 0.9795
-3.4729 0.9513 -1.1436 0.9850
-2.7749 0.4999 -0.8954 0.9882
-2.6945 0.0000 -0.9053 0.9887
-2.7374 -0.2446 -0.9234 0.9885
-2.8177 -0.5076 -0.9619 0.9880
-2.8971 -0.7936 -1.0092 0.9874
-5.0106 -2.3933 -1.8656 0.9768
-4.7734 -3.4356 -1.9760 0.9755
-4.4069 -4.5567 -2.1298 0.9736
-3.8623 -5.7629 -2.3309 0.9712
-3.5034 -6.3929 -2.4493 0.9697
-0.5413 -9.7078 -3.2667 0.9598
0.3464 -10.3597 -3.4826 0.9572
0.7928 -2.5557 -0.8991 0.9888
0.9320 -2.2679 -0.8238 0.9897
1.0723 -2.0646 -0.7816 0.9902
1.2212 -1.9129 -0.7625 0.9905
1.3784 -1.7860 -0.7580 0.9905
1.7534 -1.5858 -0.7943 0.9901
2.0093 -1.5153 -0.8456 0.9894
12.3085 4.2740 -4.3776 0.9465
11.1366 5.0179 -4.1040 0.9498
5.7405 6.7900 -2.9873 0.9632
3.9641 6.8661 -2.6638 0.9671
2.4186 6.7227 -2.4004 0.9703
1.6756 6.3958 -2.2214 0.9725
1.0387 6.1582 -2.0983 0.9740
-0.0667 5.9889 -2.0123 0.9750
-1.9066 4.9505 -1.7824 0.9779
-2.2852 4.6503 -1.7409 0.9784
-2.6353 4.3383 -1.7054 0.9788
-2.9586 4.0154 -1.6758 0.9792
-3.5301 3.3388 -1.6325 0.9797
-4.0084 2.6222 -1.6093 0.9800
-4.3988 1.8653 -1.6053 0.9800
-2.7168 -0.1211 -0.9137 0.9886
-2.8653 -0.6492 -0.9871 0.9877
-5.0689 -1.6345 -1.7894 0.9778
-5.0378 -2.1362 -1.8385 0.9772
-4.6911 -3.7045 -2.0083 0.9751
-4.0189 -5.4545 -2.2763 0.9718
-2.8374 -7.3672 -2.6525 0.9672
-2.2966 -8.0318 -2.8067 0.9654
1.9029 -11.2814 -3.8439 0.9529
0.8598 -2.3897 -0.8533 0.9893
1.1476 -1.9877 -0.7712 0.9904
1.2951 -1.8423 -0.7566 0.9905
1.4623 -1.7296 -0.7610 0.9905
1.6473 -1.6291 -0.7784 0.9903
1.8652 -1.5416 -0.8130 0.9898
2.1662 -1.4870 -0.8828 0.9890
2.7779 -1.5628 -1.0709 0.9866
12.8893 3.8415 -4.5188 0.9448
9.4032 5.8564 -3.7219 0.9543
7.2288 6.5381 -3.2748 0.9597
6.2219 6.7271 -3.0787 0.9621
4.3860 6.8706 -2.7386 0.9662
2.7843 6.7753 -2.4611 0.9696
2.0442 6.5900 -2.3182 0.9713
0.7496 6.0866 -2.0604 0.9745
-1.2813 5.3765 -1.8570 0.9769
-1.7061 5.0959 -1.8055 0.9776
-2.0996 4.8019 -1.7608 0.9781
-2.4637 4.4957 -1.7224 0.9786
-3.1106 3.8501 -1.6630 0.9793
-3.3963 3.5116 -1.6414 0.9796
-3.8972 2.8051 -1.6133 0.9799
-4.3093 2.0584 -1.6045 0.9800
-4.4830 1.6695 -1.6073 0.9800
-2.6265 0.7195 -0.9150 0.9886
-2.7169 0.4895 -0.9275 0.9884
-2.6500 0.2368 -0.8939 0.9888
-2.6519 0.0000 -0.9403 0.9888
-2.7668 -0.4985 -0.9969 0.9881
-2.8417 -0.7784 -1.0448 0.9876
-4.8156 -2.3002 -1.8923 0.9776
-4.7334 -2.8036 -1.9507 0.9769
-4.5805 -3.2968 -2.0011 0.9763
-4.2111 -4.3542 -2.1479 0.9746
-3.3256 -6.0685 -2.4537 0.9711
-2.9136 -6.6635 -2.5788 0.9696
-2.4326 -7.2657 -2.7169 0.9680
-0.5052 -9.0610 -3.2179 0.9622
1.2508 -10.1561 -3.6284 0.9575
2.2844 -10.6305 -3.8555 0.9549
0.7955 -2.5644 -0.9521 0.9887
1.0747 -2.0691 -0.8268 0.9902
1.2238 -1.9170 -0.8065 0.9904
1.3818 -1.7904 -0.8019 0.9904
1.5509 -1.6768 -0.8099 0.9904
1.7590 -1.5909 -0.8410 0.9900
2.0187 -1.5224 -0.8965 0.9893
13.9653 0.9349 -4.9630 0.9423
13.1455 2.0671 -4.7185 0.9451
8.2006 5.6294 -3.5270 0.9587
7.2237 5.9706 -3.3231 0.9610
5.3911 6.3766 -2.9609 0.9652
3.7475 6.4910 -2.6577 0.9687
2.2989 6.3899 -2.4079 0.9716
-0.0641 5.7563 -2.0412 0.9759
-0.5568 5.5350 -1.9725 0.9767
-1.0149 5.2947 -1.9116 0.9774
-1.8357 4.7662 -1.8110 0.9786
-2.2021 4.4810 -1.7704 0.9790
-2.5413 4.1835 -1.7357 0.9794
-2.8548 3.8746 -1.7065 0.9798
-3.6523 2.8842 -1.6501 0.9804
-3.8732 2.5337 -1.6411 0.9805
-4.0726 2.1732 -1.6368 0.9806
-4.2508 1.8025 -1.6372 0.9806
-2.5748 0.3463 -0.9212 0.9890
-2.7260 -0.3666 -0.9753 0.9884
-2.8093 -0.6365 -1.0214 0.9878
-2.8709 -0.9257 -1.0696 0.9873
-4.7787 -2.5499 -1.9206 0.9773
-4.3148 -4.0809 -2.1059 0.9751
-4.0959 -4.6313 -2.1923 0.9741
-3.5079 -5.7747 -2.3958 0.9717
-1.5664 -8.1719 -2.9504 0.9653
0.8622 -2.3964 -0.9031 0.9892
1.1501 -1.9921 -0.8156 0.9903
1.2983 -1.8468 -0.8005 0.9905
1.4658 -1.7338 -0.8051 0.9904
12.6952 2.5804 -4.5936 0.9465
9.7154 4.9094 -3.8598 0.9549
8.7006 5.4188 -3.6345 0.9574
7.7079 5.8129 -3.4232 0.9599
6.7492 6.1043 -3.2268 0.9621
4.9618 6.4293 -2.8797 0.9661
4.1400 6.4852 -2.7282 0.9679
2.6432 6.4319 -2.4657 0.9709
1.9661 6.3381 -2.3530 0.9722
-0.7900 5.4171 -1.9411 0.9770
-1.6418 4.9038 -1.8337 0.9783
-2.0223 4.6252 -1.7899 0.9788
-2.3750 4.3337 -1.7523 0.9792
-2.7012 4.0304 -1.7204 0.9796
-3.0023 3.7160 -1.6940 0.9799
-3.2794 3.3910 -1.6727 0.9802
-3.7655 2.7102 -1.6450 0.9805
-3.9755 2.3547 -1.6384 0.9806
-4.3320 1.6133 -1.6391 0.9806
-2.5828 0.7075 -0.9496 0.9887
-2.6060 0.2329 -0.9277 0.9890
-2.6101 0.0000 -0.9746 0.9889
-2.6498 -0.2368 -0.9934 0.9887
-2.7171 -0.4895 -1.0309 0.9883
-2.7878 -0.7637 -1.0794 0.9877
-4.6862 -1.7451 -1.8673 0.9789
-4.5488 -2.6942 -1.9742 0.9777
-4.2249 -3.6534 -2.0857 0.9764
-4.0299 -4.1669 -2.1646 0.9756
-3.7909 -4.6921 -2.2525 0.9746
-3.1632 -5.7720 -2.4578 0.9723
-2.7644 -6.3223 -2.5766 0.9710
-2.3017 -6.8748 -2.7072 0.9695
-1.1617 -7.9652 -3.0058 0.9662
1.1625 -9.4387 -3.5511 0.9602
1.2265 -1.9213 -0.8511 0.9903
2.4336 -1.5157 -1.0706 0.9878
13.6045 -1.5219 -5.1118 0.9432
11.9705 1.8823 -4.5248 0.9496
9.4446 4.2556 -3.8682 0.9567
7.6400 5.2446 -3.4604 0.9612
6.7567 5.5846 -3.2733 0.9633
5.9005 5.8351 -3.0987 0.9652
4.2944 6.1090 -2.7884 0.9686
1.5694 5.9905 -2.3124 0.9739
0.9888 5.8622 -2.2199 0.9749
0.4458 5.7047 -2.1367 0.9759
-0.0615 5.5219 -2.0620 0.9767
-0.5349 5.3167 -1.9954 0.9774
-0.9761 5.0922 -1.9361 0.9781
-1.7690 4.5931 -1.8379 0.9792
-2.1238 4.3219 -1.7981 0.9796
-2.7569 3.7418 -1.7355 0.9804
-3.0375 3.4346 -1.7121 0.9806
-3.5310 2.7885 -1.6801 0.9810
-4.1108 1.7431 -1.6673 0.9811
-4.2623 1.3744 -1.6723 0.9811
-2.5436 0.5763 -0.9739 0.9889
-2.5325 0.3406 -0.9542 0.9891
-2.7556 -0.6244 -1.0551 0.9880
-2.8043 -0.9042 -1.1002 0.9875
-4.5951 -2.4520 -1.9449 0.9780
-4.4939 -2.9398 -2.0052 0.9773
-4.3141 -3.4068 -2.0526 0.9768
-4.1326 -3.9086 -2.1241 0.9760
-3.9162 -4.4281 -2.2074 0.9751
-3.6536 -4.9587 -2.3000 0.9740
-3.3404 -5.4989 -2.4025 0.9729
-2.5414 -6.5985 -2.6404 0.9703
-2.0446 -7.1504 -2.7771 0.9687
-1.4753 -7.6965 -2.9263 0.9671
-0.8279 -8.2298 -3.0886 0.9653
1.6270 -9.6456 -3.6526 0.9591
0.7538 -2.8773 -1.1107 0.9874
0.8654 -2.4055 -0.9546 0.9891
1.0070 -2.1699 -0.8933 0.9898
13.7273 -2.1585 -5.1889 0.9424
11.5879 2.3554 -4.4155 0.9508
8.9933 4.5445 -3.7626 0.9579
8.0890 5.0379 -3.5584 0.9601
6.3247 5.7204 -3.1844 0.9642
4.6814 6.0659 -2.8612 0.9678
3.1952 6.1518 -2.5885 0.9708
2.5142 6.1181 -2.4699 0.9722
1.8743 6.0423 -2.3623 0.9733
0.7127 5.7869 -2.1772 0.9754
0.1878 5.6163 -2.0983 0.9763
-1.1852 4.9734 -1.9091 0.9784
-1.9498 4.4591 -1.8173 0.9794
-2.2914 4.1813 -1.7804 0.9798
-3.4159 2.9538 -1.6863 0.9809
-3.6408 2.6205 -1.6751 0.9810
-3.8445 2.2771 -1.6685 0.9811
-3.4440 0.9434 -1.3334 0.9849
-2.6096 0.4702 -0.9901 0.9887
-2.5629 0.2290 -0.9608 0.9891
-2.6073 -0.2330 -1.0273 0.9888
-2.6685 -0.4808 -1.0642 0.9884
-2.7584 -1.0272 -1.1552 0.9874
-4.2349 -3.0481 -2.0478 0.9778
-4.0547 -3.5062 -2.1038 0.9772
-3.8617 -3.9929 -2.1801 0.9764
-3.6266 -4.4886 -2.2648 0.9755
-2.1828 -6.5196 -2.6984 0.9709
-1.6734 -7.0219 -2.8331 0.9695
-0.4449 -7.9786 -3.1363 0.9662
0.2814 -8.4154 -3.3046 0.9645
1.0849 -8.8086 -3.4833 0.9626
1.9650 -9.1442 -3.6708 0.9606
0.8125 -2.6194 -1.0764 0.9883
0.9408 -2.2892 -0.9713 0.9894
1.0796 -2.0785 -0.9192 0.9900
1.5600 -1.6866 -0.9017 0.9902
1.7705 -1.6013 -0.9369 0.9898
12.4353 -3.7061 -5.0926 0.9458
12.0273 -0.2680 -4.7215 0.9496
11.5629 0.7741 -4.5483 0.9514
10.9771 1.7261 -4.3611 0.9534
10.2982 2.5758 -4.1663 0.9554
9.5533 3.3173 -3.9690 0.9575
8.7664 3.9500 -3.7737 0.9595
7.9582 4.4772 -3.5837 0.9615
6.3415 5.2414 -3.2289 0.9653
4.0676 5.7863 -2.7759 0.9701
2.7124 5.8451 -2.5290 0.9727
2.0884 5.8047 -2.4211 0.9738
1.5000 5.7257 -2.3230 0.9749
0.4275 5.4709 -2.1537 0.9767
-0.5144 5.1128 -2.0167 0.9782
-2.0501 4.1718 -1.8243 0.9802
-2.6645 3.6163 -1.7629 0.9809
-2.9369 3.3208 -1.7399 0.9811
-3.8114 2.0338 -1.6955 0.9816
-4.1243 1.3299 -1.7008 0.9816
-2.6312 -0.3539 -1.0420 0.9887
-2.7055 -0.6130 -1.0887 0.9882
-4.4935 -1.9054 -1.9156 0.9792
-4.4231 -2.3602 -1.9676 0.9787
-3.9632 -3.7484 -2.1410 0.9768
-3.4920 -4.7393 -2.3104 0.9750
-2.4132 -6.2656 -2.6351 0.9716
-0.7795 -7.7480 -3.0562 0.9671
0.7666 -2.9261 -1.1872 0.9871
1.0093 -2.1750 -0.9411 0.9897
1.3048 -1.8560 -0.8904 0.9903
1.4732 -1.7425 -0.8955 0.9902
1.8908 -1.5628 -0.9628 0.9895
11.4277 -6.4291 -5.1461 0.9452
12.3356 -4.2834 -5.1249 0.9454
12.4366 -1.9555 -4.9410 0.9473
9.9324 2.9602 -4.0676 0.9564
8.3639 4.2265 -3.6779 0.9605
6.7417 5.0842 -3.3140 0.9644
4.4280 5.7376 -2.8444 0.9693
3.7156 5.8205 -2.7101 0.9708
3.0379 5.8490 -2.5867 0.9721
1.7898 5.7697 -2.3709 0.9744
1.2191 5.6733 -2.2774 0.9754
-0.2906 5.2106 -2.0482 0.9778
-1.1417 4.7904 -1.9328 0.9791
-1.5248 4.5542 -1.8849 0.9796
-2.5197 3.7597 -1.7763 0.9807
-2.8035 3.4699 -1.7508 0.9810
-3.0648 3.1690 -1.7302 0.9812
-3.3044 2.8575 -1.7145 0.9814
-3.5228 2.5356 -1.7035 0.9815
-3.7204 2.2036 -1.6970 0.9816
-4.0538 1.5097 -1.6977 0.9816
-2.5634 0.4618 -1.0222 0.9889
-2.5289 0.0000 -1.0413 0.9891
-2.5656 -0.2293 -1.0607 0.9889
-2.6211 -0.4722 -1.0967 0.9885
-2.6410 -0.7234 -1.1276 0.9882
-2.6436 -0.9845 -1.1616 0.9879
-4.2138 -2.4958 -2.0167 0.9790
-4.0787 -2.9357 -2.0694 0.9785
-3.4740 -4.2997 -2.2762 0.9764
-3.1991 -4.7733 -2.3662 0.9754
-2.0742 -6.1953 -2.6903 0.9721
-1.5862 -6.6561 -2.8176 0.9708
0.2644 -7.9080 -3.2582 0.9664
1.0162 -8.2507 -3.4231 0.9647
1.8342 -8.5359 -3.5952 0.9629
0.8215 -2.6483 -1.1418 0.9881
0.9486 -2.3082 -1.0276 0.9893
1.0831 -2.0853 -0.9676 0.9899
1.3922 -1.8039 -0.9383 0.9902
2.0481 -1.5446 -1.0563 0.9890
2.5261 -1.5732 -1.2254 0.9872
11.0828 -4.4108 -4.9119 0.9497
11.3235 -3.3747 -4.8655 0.9502
11.2824 -1.2621 -4.6749 0.9521
11.0238 -0.2456 -4.5405 0.9534
8.8743 3.0815 -3.8683 0.9602
8.1719 3.6821 -3.6909 0.9620
7.4439 4.1879 -3.5171 0.9637
5.9699 4.9343 -3.1893 0.9671
2.5863 5.5733 -2.5301 0.9738
1.9952 5.5459 -2.4270 0.9748
1.4358 5.4803 -2.3328 0.9758
0.9077 5.3812 -2.2472 0.9767
0.4104 5.2528 -2.1696 0.9775
-0.0568 5.0985 -2.0996 0.9782
-0.9055 4.7240 -1.9807 0.9794
-1.2892 4.5085 -1.9309 0.9799
-2.2901 3.7700 -1.8164 0.9811
-2.8416 3.2131 -1.7663 0.9816
-3.0849 2.9177 -1.7485 0.9818
-3.6908 1.9695 -1.7226 0.9821
-3.8522 1.6335 -1.7230 0.9821
-3.9934 1.2877 -1.7278 0.9820
-2.6388 0.5979 -1.1141 0.9884
-2.4504 0.3296 -1.0181 0.9894
-2.5479 -0.1136 -1.0502 0.9890
-2.5854 -0.3477 -1.0742 0.9888
-2.6300 -0.5959 -1.1104 0.9884
-2.6464 -0.8533 -1.1450 0.9880
-3.5947 -4.0646 -2.2344 0.9768
-3.3422 -4.5361 -2.3201 0.9759
-3.0441 -5.0112 -2.4144 0.9750
-1.3190 -6.8808 -2.8850 0.9701
-0.0860 -7.7194 -3.1789 0.9672
0.7852 -2.9972 -1.2758 0.9867
1.0160 -2.1894 -0.9939 0.9896
1.1579 -2.0055 -0.9536 0.9900
1.3081 -1.8607 -0.9366 0.9902
1.4769 -1.7469 -0.9420 0.9902
10.3904 -5.8455 -4.9092 0.9497
11.2264 -3.8982 -4.8936 0.9499
10.8427 0.2417 -4.4659 0.9542
9.8387 1.9998 -4.1342 0.9575
9.2102 2.7450 -3.9574 0.9593
8.5274 3.3938 -3.7793 0.9611
7.8101 3.9466 -3.6033 0.9629
4.8908 5.2879 -2.9660 0.9693
4.1978 5.4393 -2.8292 0.9707
3.5311 5.5315 -2.7023 0.9720
1.1678 5.4347 -2.2890 0.9762
0.6553 5.3205 -2.2074 0.9771
-1.1006 4.6184 -1.9550 0.9797
-2.1382 3.9017 -1.8320 0.9809
-3.1987 2.7660 -1.7413 0.9819
-3.4108 2.4549 -1.7305 0.9820
-3.7740 1.8027 -1.7222 0.9821
-3.9253 1.4618 -1.7248 0.9820
-3.5070 0.9607 -1.4973 0.9844
-2.5181 0.4537 -1.0536 0.9890
-2.4793 0.2216 -1.0250 0.9893
-2.5389 -0.4574 -1.1128 0.9888
-2.5507 -0.6987 -1.1408 0.9885
-2.5688 -0.9566 -1.1824 0.9881
-4.0613 -2.4054 -2.0361 0.9796
-3.9318 -2.8299 -2.0896 0.9791
-3.7497 -3.2424 -2.1383 0.9786
-3.5586 -3.6796 -2.2081 0.9779
-3.0632 -4.5706 -2.3734 0.9763
-2.3879 -5.4613 -2.5712 0.9744
-1.9747 -5.8979 -2.6829 0.9733
-1.5067 -6.3222 -2.8035 0.9721
0.2492 -7.4528 -3.2166 0.9680
0.9549 -7.7528 -3.3695 0.9665
1.7184 -7.9966 -3.5281 0.9650
0.8313 -2.6799 -1.2103 0.9879
0.9566 -2.3278 -1.0856 0.9891
1.2372 -1.9380 -0.9918 0.9900
1.7825 -1.6121 -1.0367 0.9896
2.6267 -1.6360 -1.3349 0.9866
9.7622 -4.9331 -4.7181 0.9535
10.1641 -0.2265 -4.3855 0.9567
9.8275 0.6579 -4.2487 0.9580
9.3876 1.4762 -4.0992 0.9594
8.8644 2.2171 -3.9415 0.9610
8.2778 2.8744 -3.7798 0.9625
7.6462 3.4452 -3.6176 0.9641
6.9862 3.9304 -3.4577 0.9657
6.3119 4.3329 -3.3025 0.9672
5.6351 4.6576 -3.1535 0.9687
4.9650 4.9100 -3.0121 0.9700
3.6719 5.2233 -2.7541 0.9726
3.0580 5.2967 -2.6382 0.9737
2.4699 5.3225 -2.5310 0.9748
1.9089 5.3060 -2.4324 0.9757
1.3759 5.2521 -2.3419 0.9766
0.8712 5.1650 -2.2594 0.9774
0.3945 5.0488 -2.1845 0.9782
-0.0547 4.9066 -2.1166 0.9789
-0.4770 4.7415 -2.0556 0.9795
-2.9876 2.8257 -1.7738 0.9822
-3.3998 2.2241 -1.7525 0.9825
-3.5760 1.9083 -1.7484 0.9825
-3.7324 1.5827 -1.7488 0.9825
-2.5077 -0.1118 -1.0828 0.9891
-2.5465 -0.5770 -1.1263 0.9887
-2.6695 -1.1320 -1.2508 0.9874
-4.1092 -2.1927 -2.0091 0.9799
-3.8361 -3.0293 -2.1085 0.9789
-3.4502 -3.9012 -2.2465 0.9776
-2.9123 -4.7942 -2.4197 0.9759
-2.5751 -5.2401 -2.5185 0.9749
-2.1879 -5.6808 -2.6259 0.9738
-1.2513 -6.5278 -2.8671 0.9715
-0.6963 -6.9217 -3.0008 0.9701
-0.0812 -7.2853 -3.1428 0.9688
0.5946 -7.6092 -3.2923 0.9673
2.1204 -8.0933 -3.6089 0.9642
1.1651 -2.0180 -1.0051 0.9899
1.3120 -1.8663 -0.9841 0.9901
2.2717 -1.5594 -1.1886 0.9881
9.9739 -4.4940 -4.7189 0.9535
10.2850 -3.5713 -4.6964 0.9537
10.4379 -2.6107 -4.6412 0.9542
10.0100 0.2231 -4.3190 0.9573
9.1352 1.8568 -4.0211 0.9602
8.5778 2.5565 -3.8609 0.9618
7.9665 3.1706 -3.6986 0.9633
7.3188 3.6984 -3.5372 0.9649
6.6501 4.1417 -3.3794 0.9664
5.9732 4.5046 -3.2271 0.9679
4.6348 5.0111 -2.9444 0.9707
3.9876 5.1670 -2.8154 0.9720
2.7606 5.3152 -2.5836 0.9742
0.1665 4.9808 -2.1497 0.9785
-0.2691 4.8268 -2.0853 0.9792
-0.6783 4.6511 -2.0275 0.9797
-1.0619 4.4561 -1.9760 0.9802
-1.7557 4.0154 -1.8904 0.9811
-2.0676 3.7729 -1.8558 0.9814
-2.3571 3.5171 -1.8263 0.9817
-2.6251 3.2491 -1.8018 0.9820
-2.8719 2.9695 -1.7820 0.9822
-3.0982 2.6791 -1.7668 0.9823
-3.4904 2.0674 -1.7499 0.9825
-3.6567 1.7467 -1.7480 0.9825
-2.4719 0.4453 -1.0835 0.9891
-2.4282 0.0000 -1.0956 0.9894
-2.4593 -0.4430 -1.1275 0.9891
-2.4702 -0.6766 -1.1556 0.9888
-4.0061 -1.9135 -2.0033 0.9807
-3.9174 -2.3203 -2.0544 0.9802
-3.6109 -3.1224 -2.1540 0.9793
-3.4215 -3.5378 -2.2207 0.9786
-2.9367 -4.3818 -2.3801 0.9771
-2.6318 -4.8024 -2.4710 0.9763
-1.8829 -5.6240 -2.6761 0.9743
-0.9317 -6.3879 -2.9128 0.9721
0.2354 -7.0417 -3.1791 0.9696
0.8998 -7.3060 -3.3215 0.9682
1.6149 -7.5151 -3.4683 0.9668
0.8471 -2.7309 -1.2901 0.9875
0.9649 -2.3480 -1.1455 0.9889
1.0996 -2.1172 -1.0765 0.9896
1.2464 -1.9525 -1.0452 0.9899
8.5093 -5.2996 -4.5233 0.9570
8.9921 -4.5439 -4.5460 0.9568
9.3490 -3.7208 -4.5402 0.9568
9.5709 -2.8524 -4.5063 0.9571
9.5986 -1.0737 -4.3581 0.9585
9.4190 -0.2099 -4.2511 0.9595
8.7412 1.3745 -3.9927 0.9619
7.1778 3.2342 -3.5523 0.9660
6.5760 3.6996 -3.4046 0.9674
5.9570 4.0893 -3.2603 0.9688
4.7091 4.6570 -2.9884 0.9714
2.9191 5.0561 -2.6343 0.9747
2.3620 5.0901 -2.5320 0.9757
1.8287 5.0829 -2.4374 0.9766
1.3202 5.0392 -2.3505 0.9774
0.3796 4.8574 -2.1984 0.9788
-0.0527 4.7262 -2.1327 0.9795
-0.4600 4.5720 -2.0734 0.9800
-0.8429 4.3972 -2.0202 0.9805
-1.2021 4.2039 -1.9729 0.9810
-1.8519 3.7686 -1.8947 0.9817
-2.6650 3.0133 -1.8151 0.9825
-2.8950 2.7380 -1.7980 0.9827
-3.4667 1.8499 -1.7730 0.9829
-3.6183 1.5343 -1.7733 0.9829
-2.4671 -0.5589 -1.1414 0.9890
-2.4782 -0.7991 -1.1749 0.9886
-3.9654 -2.1160 -2.0281 0.9805
-3.8617 -2.5262 -2.0822 0.9800
-3.6967 -2.9193 -2.1255 0.9795
-3.3151 -3.7484 -2.2579 0.9783
-3.0730 -4.1707 -2.3376 0.9775
-2.7898 -4.5925 -2.4246 0.9767
-2.4625 -5.0110 -2.5193 0.9758
0.5610 -7.1801 -3.2497 0.9689
1.2513 -7.4181 -3.3945 0.9675
0.9024 -2.5084 -1.2028 0.9884
1.1739 -2.0333 -1.0594 0.9897
1.3221 -1.8806 -1.0373 0.9900
1.4905 -1.7629 -1.0417 0.9899
2.3156 -1.5896 -1.2673 0.9878
9.4771 -3.2908 -4.5267 0.9569
9.6423 -1.5162 -4.4042 0.9581
8.9455 1.0007 -4.0615 0.9613
8.0193 2.3900 -3.7757 0.9639
5.0196 4.5400 -3.0539 0.9707
4.4010 4.7583 -2.9246 0.9720
3.7949 4.9172 -2.8026 0.9731
3.2060 5.0222 -2.6885 0.9742
2.0923 5.0914 -2.4837 0.9761
1.0755 5.0048 -2.3098 0.9778
0.6052 4.9135 -2.2338 0.9785
0.1603 4.7948 -2.1647 0.9792
-0.2594 4.6518 -2.1022 0.9798
-0.6544 4.4870 -2.0460 0.9803
-1.0254 4.3027 -1.9958 0.9808
-1.3730 4.1008 -1.9513 0.9812
-1.6978 3.8830 -1.9122 0.9816
-2.0006 3.6507 -1.8784 0.9819
-2.2820 3.4049 -1.8495 0.9822
-2.7825 2.8771 -1.8060 0.9826
-3.2028 2.3053 -1.7806 0.9828
-3.3836 2.0041 -1.7744 0.9829
-3.5449 1.6933 -1.7726 0.9829
-3.6867 1.3729 -1.7751 0.9829
-3.8088 1.0434 -1.7819 0.9828
-2.4063 0.4335 -1.1032 0.9893
-2.3615 0.0000 -1.1132 0.9896
-2.4034 -0.8950 -1.2089 0.9887
-3.7814 -2.2397 -2.0717 0.9808
-3.4801 -3.0093 -2.1687 0.9799
-3.0746 -3.8055 -2.3061 0.9786
-2.5221 -4.6021 -2.4737 0.9771
-2.1827 -4.9919 -2.5682 0.9762
-1.3665 -5.7342 -2.7787 0.9743
0.2229 -6.6683 -3.1450 0.9709
1.5219 -7.0824 -3.4147 0.9685
0.8824 -2.8445 -1.4039 0.9869
0.9735 -2.3690 -1.2073 0.9887
1.1083 -2.1338 -1.1334 0.9894
1.2559 -1.9674 -1.1003 0.9897
1.4169 -1.8360 -1.0932 0.9898
1.5959 -1.7255 -1.1079 0.9897
2.1184 -1.5975 -1.2507 0.9883
8.8671 -2.6426 -4.3614 0.9599
8.5127 0.5699 -4.0217 0.9630
7.2778 2.5271 -3.6315 0.9665
6.7575 3.0448 -3.4938 0.9678
6.2061 3.4915 -3.3566 0.9690
5.0555 4.1785 -3.0917 0.9714
3.9006 4.6137 -2.8478 0.9736
2.2618 4.8741 -2.5328 0.9765
1.7538 4.8749 -2.4421 0.9774
0.3655 4.6774 -2.2115 0.9795
-0.0508 4.5561 -2.1477 0.9801
-0.8141 4.2470 -2.0384 0.9811
-1.1619 4.0635 -1.9922 0.9815
-1.4879 3.8632 -1.9514 0.9819
-2.0762 3.4179 -1.8851 0.9825
-2.3395 3.1753 -1.8591 0.9827
-3.0110 2.3778 -1.8085 0.9832
-3.3623 1.7942 -1.7964 0.9833
-3.5093 1.4881 -1.7968 0.9833
-2.5265 0.5724 -1.2211 0.9886
-2.3488 0.1047 -1.1083 0.9897
-2.3694 -0.1056 -1.1180 0.9896
-2.3945 -0.7721 -1.1859 0.9889
-2.4109 -1.0223 -1.2344 0.9885
-3.8295 -2.0434 -2.0460 0.9810
-3.7259 -2.4373 -2.0987 0.9805
-3.1883 -3.6050 -2.2686 0.9789
-2.6755 -4.4044 -2.4292 0.9775
-2.3579 -4.7981 -2.5201 0.9766
-1.9962 -5.1830 -2.6181 0.9757
-1.5884 -5.5548 -2.7234 0.9748
-0.6275 -6.2371 -2.9549 0.9727
-0.0728 -6.5342 -3.0803 0.9715
1.8730 -7.1492 -3.4837 0.9678
0.9125 -2.5364 -1.2707 0.9882
1.1830 -2.0490 -1.1153 0.9896
1.3325 -1.8955 -1.0922 0.9898
1.7028 -1.6839 -1.1289 0.9895
1.9574 -1.6178 -1.1970 0.9888
8.5058 -3.8325 -4.3977 0.9596
8.9259 -2.2325 -4.3371 0.9601
8.6516 0.1928 -4.0792 0.9625
8.3517 0.9343 -3.9613 0.9635
7.0224 2.7949 -3.5627 0.9671
5.9225 3.6886 -3.2889 0.9696
5.3460 4.0317 -3.1563 0.9708
4.7649 4.3096 -3.0284 0.9720
4.1866 4.5266 -2.9064 0.9731
3.0619 4.7964 -2.6823 0.9752
2.5236 4.8589 -2.5809 0.9761
2.0051 4.8792 -2.4866 0.9769
1.5081 4.8617 -2.3994 0.9777
1.0337 4.8103 -2.3192 0.9785
0.5824 4.7286 -2.2458 0.9792
0.1544 4.6197 -2.1788 0.9798
-0.2502 4.4867 -2.1182 0.9803
-1.9369 3.5344 -1.8998 0.9823
-2.2104 3.2981 -1.8715 0.9826
-3.6936 1.0118 -1.8052 0.9832
-2.3515 0.4237 -1.1263 0.9895
-2.3242 0.2077 -1.1000 0.9897
-2.2975 0.0000 -1.1300 0.9898
-2.3094 -0.2063 -1.1404 0.9897
-2.3082 -0.4158 -1.1536 0.9896
-2.3175 -0.6348 -1.1819 0.9893
-2.3278 -0.8669 -1.2217 0.9890
-3.6526 -2.1634 -2.0880 0.9813
-3.5331 -2.5430 -2.1411 0.9808
-3.3565 -2.9024 -2.1825 0.9804
-2.9578 -3.6609 -2.3149 0.9792
-2.7079 -4.0404 -2.3923 0.9786
-2.4195 -4.4150 -2.4763 0.9778
-1.7196 -5.1360 -2.6640 0.9761
-0.8443 -5.7892 -2.8776 0.9743
1.4378 -6.6910 -3.3662 0.9700
0.9286 -2.9935 -1.5416 0.9861
1.2658 -1.9828 -1.1570 0.9896
1.6108 -1.7415 -1.1668 0.9895
1.8325 -1.6574 -1.2153 0.9890
7.3318 -4.5662 -4.2484 0.9622
8.0511 -3.2042 -4.2621 0.9621
8.2508 -2.4590 -4.2346 0.9623
8.3388 -1.6949 -4.1853 0.9628
8.3169 -0.9304 -4.1162 0.9634
7.2862 1.8224 -3.6942 0.9671
6.8541 2.3800 -3.5687 0.9682
6.3782 2.8739 -3.4409 0.9693
5.3424 3.6674 -3.1872 0.9715
2.6708 4.6261 -2.6273 0.9765
1.6838 4.6804 -2.4465 0.9781
1.2191 4.6532 -2.3659 0.9788
0.7750 4.5946 -2.2918 0.9794
-0.4286 4.2603 -2.1060 0.9811
-1.1238 3.9302 -2.0106 0.9819
-1.7359 3.5324 -1.9359 0.9826
-2.0117 3.3117 -1.9058 0.9829
-2.5045 2.8319 -1.8595 0.9833
-2.7222 2.5747 -1.8429 0.9834
-3.1012 2.0287 -1.8227 0.9836
-3.2625 1.7410 -1.8189 0.9837
-2.5041 0.5674 -1.2629 0.9886
-2.2893 0.1021 -1.1271 0.9898
-2.3022 -0.1027 -1.1335 0.9898
-2.3108 -0.3108 -1.1468 0.9897
-2.3142 -0.5243 -1.1671 0.9895
-2.3173 -0.7472 -1.1976 0.9892
-3.7006 -1.9747 -2.0631 0.9815
-3.5974 -2.3533 -2.1143 0.9810
-3.4435 -2.7193 -2.1582 0.9806
-2.8375 -3.8511 -2.3528 0.9789
-2.2603 -4.5996 -2.5207 0.9774
-1.9105 -4.9606 -2.6146 0.9766
1.1167 -6.6202 -3.3022 0.9705
1.7675 -6.7467 -3.4304 0.9694
0.9350 -2.5988 -1.3585 0.9878
1.0510 -2.2649 -1.2281 0.9889
1.1924 -2.0653 -1.1730 0.9894
1.3433 -1.9108 -1.1488 0.9896
1.7190 -1.6999 -1.1891 0.9893
1.9822 -1.6383 -1.2649 0.9886
2.4239 -1.6639 -1.4461 0.9870
7.5492 -4.2471 -4.2604 0.9621
7.9100 -3.5641 -4.2673 0.9621
8.1648 -2.8351 -4.2511 0.9622
8.3087 -2.0781 -4.2126 0.9625
8.0899 0.1803 -3.9800 0.9646
7.8241 0.8753 -3.8723 0.9655
7.0764 2.1090 -3.6319 0.9676
6.6208 2.6350 -3.5049 0.9687
6.1277 3.0965 -3.3769 0.9699
5.0735 3.8261 -3.1255 0.9721
4.5313 4.0983 -3.0051 0.9731
3.9893 4.3132 -2.8897 0.9742
3.4534 4.4747 -2.7801 0.9751
2.4174 4.6544 -2.5796 0.9769
1.9237 4.6811 -2.4892 0.9777
1.4489 4.6709 -2.4054 0.9784
0.9944 4.6276 -2.3280 0.9791
0.1489 4.4545 -2.1922 0.9803
-2.1422 3.1963 -1.8925 0.9830
-2.3886 2.9564 -1.8694 0.9832
-2.8240 2.4420 -1.8363 0.9835
-3.0135 2.1690 -1.8262 0.9836
-3.1842 1.8860 -1.8203 0.9836
-3.4694 1.2920 -1.8209 0.9836
-3.5835 0.9816 -1.8275 0.9836
-2.2658 0.2025 -1.1189 0.9899
-2.2416 -0.4038 -1.1677 0.9898
-2.2481 -0.6158 -1.1950 0.9896
-3.5303 -2.0910 -2.1036 0.9817
-3.2394 -2.8012 -2.1956 0.9809
-2.3235 -4.2399 -2.4787 0.9785
-1.2469 -5.2321 -2.7575 0.9761
-0.8057 -5.5240 -2.8619 0.9752
-0.3227 -5.7871 -2.9715 0.9743
0.7636 -6.2002 -3.2027 0.9723
1.4402 -1.8662 -1.2085 0.9895
2.1995 -1.6587 -1.4123 0.9877
6.8465 -4.2640 -4.1351 0.9644
7.2279 -3.6524 -4.1517 0.9643
7.5166 -2.9915 -4.1475 0.9643
7.7063 -2.2967 -4.1225 0.9645
7.7945 -1.5843 -4.0777 0.9649
7.7824 -0.8705 -4.0147 0.9654
7.4797 0.5008 -3.8432 0.9669
7.2059 1.1331 -3.7396 0.9677
6.8656 1.7172 -3.6282 0.9687
6.4711 2.2471 -3.5119 0.9697
6.0339 2.7188 -3.3929 0.9707
5.5649 3.1308 -3.2735 0.9717
5.0742 3.4833 -3.1553 0.9727
4.5705 3.7776 -3.0399 0.9737
4.0614 4.0164 -2.9284 0.9747
3.5532 4.2028 -2.8215 0.9756
3.0512 4.3404 -2.7200 0.9764
2.5593 4.4329 -2.6242 0.9773
2.0808 4.4842 -2.5344 0.9780
0.3397 4.3473 -2.2355 0.9806
-0.0473 4.2433 -2.1755 0.9811
-0.7608 3.9692 -2.0720 0.9820
-1.0875 3.8034 -2.0280 0.9824
-1.3945 3.6207 -1.9891 0.9827
-1.9500 3.2102 -1.9256 0.9833
-2.4296 2.7472 -1.8802 0.9836
-2.6415 2.4983 -1.8640 0.9838
-3.1670 1.6900 -1.8403 0.9840
-3.4252 1.1045 -1.8451 0.9840
-2.4709 0.5598 -1.2989 0.9887
-2.2093 0.2971 -1.1428 0.9900
-2.2446 -0.3019 -1.1611 0.9899
-2.2425 -0.5081 -1.1788 0.9897
-2.2673 -0.9614 -1.2625 0.9890
-3.4755 -2.2735 -2.1292 0.9815
-3.3281 -2.6281 -2.1741 0.9811
-2.4684 -4.0635 -2.4375 0.9789
-2.1691 -4.4139 -2.5214 0.9781
-1.4518 -5.0773 -2.7073 0.9765
-0.5694 -5.6596 -2.9161 0.9748
0.9600 -2.6684 -1.4538 0.9873
1.3544 -1.9266 -1.2074 0.9895
1.5271 -1.8062 -1.2126 0.9894
1.7357 -1.7165 -1.2515 0.9891
2.0081 -1.6597 -1.3356 0.9884
7.0482 -3.9653 -4.1460 0.9643
