ply
format ascii 1.0
element vertex 1587
property float32 x
property float32 y
property float32 z
property float32 I
end_header
0.4879 -2.2703 0.4095 0.9906
0.8892 -2.1636 0.4125 0.9905
1.1283 -2.1724 0.4316 0.9901
1.4342 -2.2466 0.4700 0.9892
-0.0296 -2.6586 0.4688 0.9893
0.5838 -2.2285 0.4062 0.9907
1.0014 -2.1580 0.4195 0.9904
1.2635 -2.1884 0.4456 0.9898
-0.1545 -2.7705 0.4419 0.9888
0.8818 -2.1457 0.3694 0.9906
1.1136 -2.1440 0.3847 0.9903
1.4092 -2.2075 0.4170 0.9894
0.1889 -2.4174 0.3861 0.9902
0.3867 -2.2924 0.3702 0.9906
1.6041 -2.2818 0.4441 0.9888
1.8149 5.8505 0.9755 0.9755
-0.1521 -2.7274 0.3885 0.9890
0.0826 -2.4697 0.3515 0.9901
0.2855 -2.3179 0.3322 0.9906
0.8746 -2.1282 0.3273 0.9907
1.1043 -2.1262 0.3408 0.9904
1.3853 -2.1700 0.3662 0.9897
1.8414 -2.3860 0.4287 0.9879
-0.3018 -3.0004 0.4289 0.9879
-0.0287 -2.5803 0.3670 0.9896
0.1869 -2.3914 0.3412 0.9904
0.5736 -2.1894 0.3219 0.9909
0.7723 -2.1468 0.3245 0.9908
0.9847 -2.1219 0.3327 0.9906
1.2304 -2.1311 0.3500 0.9901
1.5679 -2.2303 0.3878 0.9890
1.8185 5.8622 0.8730 0.9755
-0.1498 -2.6859 0.3371 0.9892
0.0817 -2.4427 0.3063 0.9902
0.2826 -2.2946 0.2897 0.9907
0.4751 -2.2108 0.2834 0.9909
0.8675 -2.1110 0.2860 0.9908
1.0953 -2.1088 0.2978 0.9905
1.3688 -2.1443 0.3188 0.9898
1.7968 -2.3282 0.3685 0.9882
-0.0283 -2.5431 0.3187 0.9898
0.7662 -2.1296 0.2836 0.9909
0.9768 -2.1049 0.2908 0.9907
1.2201 -2.1132 0.3058 0.9902
-0.1475 -2.6457 0.2874 0.9894
0.0808 -2.4164 0.2622 0.9903
0.4710 -2.1918 0.2432 0.9910
0.6611 -2.1313 0.2420 0.9911
1.0864 -2.0918 0.2557 0.9906
-0.2873 -2.8555 0.3113 0.9885
-0.0279 -2.5071 0.2720 0.9900
0.3766 -2.2325 0.2456 0.9909
0.5638 -2.1520 0.2413 0.9911
1.5216 -2.1646 0.2870 0.9894
1.8281 5.8931 0.6693 0.9755
0.0800 -2.3922 0.2194 0.9904
0.2777 -2.2546 0.2083 0.9909
0.8538 -2.0776 0.2059 0.9910
1.0778 -2.0750 0.2144 0.9907
1.3444 -2.1060 0.2291 0.9900
1.7218 -2.2310 0.2584 0.9887
-0.2805 -2.7886 0.2569 0.9888
0.7542 -2.0963 0.2042 0.9911
0.9615 -2.0720 0.2094 0.9909
1.2000 -2.0785 0.2200 0.9904
1.8338 5.9116 0.5674 0.9754
-0.4526 -3.1030 0.2350 0.9875
0.2762 -2.2429 0.1693 0.9910
0.4636 -2.1574 0.1654 0.9912
0.6509 -2.0985 0.1647 0.9912
0.8472 -2.0615 0.1670 0.9911
1.3326 -2.0875 0.1856 0.9901
1.7021 -2.2054 0.2088 0.9889
1.5738 6.0071 0.4654 0.9754
-0.0274 -2.4575 0.1842 0.9902
0.1801 -2.3043 0.1732 0.9908
0.5546 -2.1169 0.1640 0.9913
0.9541 -2.0560 0.1699 0.9909
1.1903 -2.0616 0.1784 0.9905
1.4935 -2.1245 0.1946 0.9896
2.0381 -2.4107 0.2366 0.9874
1.8464 5.9523 0.4670 0.9753
-0.4394 -3.0126 0.1773 0.9879
0.0791 -2.3649 0.1378 0.9906
0.2750 -2.2327 0.1310 0.9910
0.6474 -2.0872 0.1273 0.9913
0.8406 -2.0455 0.1288 0.9912
1.3210 -2.0692 0.1430 0.9902
1.5667 5.9801 0.3601 0.9755
-0.2735 -2.7185 0.1591 0.9891
-0.1421 -2.5476 0.1061 0.9898
0.2737 -2.2227 0.0931 0.9911
0.4595 -2.1384 0.0909 0.9913
0.6450 -2.0792 0.0905 0.9913
0.8366 -2.0358 0.0915 0.9912
1.0527 -2.0267 0.0950 0.9909
1.3096 -2.0514 0.1012 0.9903
1.6640 -2.1562 0.1132 0.9892
1.5650 5.9734 0.2568 0.9756
0.1781 -2.2789 0.0950 0.9909
0.7403 -2.0576 0.0909 0.9913
1.4665 -2.0861 0.1060 0.9898
-0.4264 -2.9234 0.0737 0.9882
-0.1409 -2.5278 0.0631 0.9899
0.6425 -2.0713 0.0541 0.9914
0.8334 -2.0279 0.0547 0.9913
1.0476 -2.0170 0.0567 0.9909
1.6457 -2.1324 0.0672 0.9893
1.5632 5.9668 0.1538 0.9756
-14.1589 4.5657 0.3710 0.9422
-0.2684 -2.6679 0.0669 0.9893
-0.0269 -2.4146 0.0602 0.9904
0.3661 -2.1704 0.0549 0.9912
0.5483 -2.0928 0.0539 0.9914
0.9373 -2.0198 0.0555 0.9911
1.1628 -2.0141 0.0580 0.9907
1.9159 -2.2661 0.0740 0.9882
-12.1413 8.7388 0.3731 0.9419
-13.2728 6.3399 0.3668 0.9428
-14.9985 0.0000 0.1247 0.9418
-0.4208 -2.8851 0.0242 0.9884
0.0777 -2.3253 0.0193 0.9907
0.2713 -2.2029 0.0184 0.9912
0.4555 -2.1198 0.0180 0.9914
0.6401 -2.0635 0.0180 0.9914
0.8302 -2.0202 0.0182 0.9913
1.6277 -2.1091 0.0221 0.9894
1.5615 5.9602 0.0512 0.9757
-10.7955 8.5252 0.1143 0.9465
-11.8508 6.3238 0.1116 0.9477
-12.3746 5.2473 0.1117 0.9477
-12.9078 4.1623 0.1127 0.9472
-13.4599 3.0496 0.1147 0.9463
-14.6657 0.6540 0.1220 0.9430
0.3645 -2.1608 0.0182 0.9913
0.5462 -2.0849 0.0179 0.9914
0.7346 -2.0420 0.0180 0.9914
0.9340 -2.0127 0.0184 0.9912
1.8830 -2.2273 0.0242 0.9884
-10.5234 9.0999 0.1156 0.9459
-11.5896 6.8646 0.1120 0.9475
-12.6395 4.7070 0.1121 0.9475
-13.1809 3.6106 0.1136 0.9468
-13.7463 2.4765 0.1161 0.9457
-13.6637 0.0000 -0.1136 0.9468
-0.1388 -2.4890 -0.0207 0.9901
0.0773 -2.3124 -0.0192 0.9908
0.6377 -2.0557 -0.0179 0.9914
0.8271 -2.0125 -0.0181 0.9913
1.0401 -2.0027 -0.0188 0.9910
1.2861 -2.0147 -0.0199 0.9905
-7.5657 12.4549 -0.1211 0.9434
-10.4098 6.8098 -0.1034 0.9515
-10.8974 5.8151 -0.1027 0.9518
-12.8554 1.7289 -0.1078 0.9494
-14.5681 -1.9592 -0.1222 0.9429
-0.2640 -2.6246 -0.0219 0.9895
-0.0266 -2.3870 -0.0198 0.9905
0.1752 -2.2420 -0.0187 0.9910
0.3629 -2.1514 -0.0181 0.9913
1.8514 -2.1898 -0.0238 0.9886
-7.9044 11.7942 -0.1180 0.9448
-8.5328 10.5611 -0.1128 0.9471
-10.1611 7.3135 -0.1040 0.9512
-10.6549 6.3109 -0.1029 0.9517
-11.1383 5.3203 -0.1026 0.9518
-11.6188 4.3269 -0.1030 0.9516
-12.6001 2.2700 -0.1064 0.9501
-14.1348 -3.8719 -0.3655 0.9430
0.0769 -2.2996 -0.0574 0.9908
0.2689 -2.1834 -0.0549 0.9912
0.4516 -2.1015 -0.0536 0.9914
1.2816 -2.0077 -0.0594 0.9905
-5.0723 13.1701 -0.3520 0.9451
-6.9097 11.3749 -0.3319 0.9481
-7.5444 10.2393 -0.3172 0.9504
-9.1549 7.2296 -0.2909 0.9544
-10.5306 4.4654 -0.2853 0.9553
-10.9696 3.5372 -0.2874 0.9549
-11.4087 2.5849 -0.2917 0.9543
-11.8537 1.5942 -0.2983 0.9533
-12.3112 0.5490 -0.3073 0.9519
-13.2949 -1.7880 -0.3345 0.9477
-13.8417 -3.1361 -0.3539 0.9448
-0.0264 -2.3734 -0.0592 0.9905
0.7291 -2.0266 -0.0537 0.9914
0.9275 -1.9987 -0.0549 0.9912
1.1502 -1.9922 -0.0574 0.9908
1.4286 -2.0322 -0.0619 0.9901
1.8285 -2.1628 -0.0706 0.9887
-5.4607 12.4889 -0.3399 0.9469
-6.5657 11.9809 -0.3407 0.9468
-7.8394 9.7029 -0.3111 0.9513
-8.3933 8.6787 -0.3011 0.9528
-8.9087 7.7037 -0.2937 0.9540
-9.3948 6.7620 -0.2887 0.9547
-9.8595 5.8398 -0.2858 0.9552
-10.7505 4.0035 -0.2861 0.9551
-11.1888 3.0649 -0.2893 0.9546
-11.6300 2.0953 -0.2947 0.9538
-12.0804 1.0795 -0.3025 0.9526
-11.5980 0.0000 -0.4822 0.9546
-12.0123 -1.0734 -0.5015 0.9529
-12.9019 -3.5342 -0.5562 0.9479
-13.3711 -4.9795 -0.5933 0.9445
-0.4082 -2.7988 -0.1176 0.9887
0.0765 -2.2870 -0.0951 0.9909
0.2677 -2.1738 -0.0911 0.9913
0.4496 -2.0925 -0.0890 0.9915
0.8208 -1.9973 -0.0898 0.9914
1.0328 -1.9885 -0.0932 0.9911
1.2772 -2.0007 -0.0987 0.9905
1.5982 -2.0709 -0.1088 0.9896
-2.8186 14.7045 -0.6225 0.9418
-3.7937 13.2673 -0.5738 0.9463
-4.6193 11.9938 -0.5344 0.9498
-6.3579 10.4667 -0.5092 0.9522
-7.5207 8.5038 -0.4720 0.9556
-8.5078 6.7186 -0.4508 0.9575
-8.9574 5.8596 -0.4451 0.9581
-9.3862 5.0086 -0.4424 0.9583
-9.7998 4.1555 -0.4426 0.9583
-10.9962 1.4788 -0.4613 0.9566
-11.8034 -0.5263 -0.4913 0.9538
-12.6693 -2.8705 -0.5401 0.9493
-0.2607 -2.5919 -0.1083 0.9896
0.1733 -2.2181 -0.0925 0.9911
0.3597 -2.1327 -0.0899 0.9914
0.9243 -1.9918 -0.0913 0.9912
1.4234 -2.0248 -0.1029 0.9901
1.8212 -2.1542 -0.1173 0.9888
-4.2231 12.6138 -0.5531 0.9481
-6.0287 11.0010 -0.5216 0.9510
-7.2497 8.9731 -0.4797 0.9549
-7.7808 8.0453 -0.4654 0.9562
-8.2734 7.1543 -0.4548 0.9572
-8.7355 6.2875 -0.4475 0.9578
-9.1740 5.4338 -0.4433 0.9582
-11.1951 1.0004 -0.4673 0.9560
-10.7816 0.0000 -0.6280 0.9577
-11.1354 -0.9951 -0.6512 0.9562
-12.8442 -7.6076 -0.8695 0.9419
-0.4065 -2.7871 -0.1640 0.9888
0.0762 -2.2791 -0.1328 0.9909
0.2666 -2.1643 -0.1270 0.9913
0.6306 -2.0327 -0.1240 0.9915
1.2727 -1.9937 -0.1378 0.9906
1.5923 -2.0632 -0.1518 0.9896
2.3511 -2.5420 -0.2017 0.9862
1.5639 5.9694 -0.3594 0.9756
-4.2400 11.0091 -0.6871 0.9538
-5.1153 10.4095 -0.6755 0.9546
-5.8872 9.6917 -0.6605 0.9556
-6.4705 8.7818 -0.6353 0.9572
-7.4907 7.0847 -0.6005 0.9595
-8.3722 5.4769 -0.5827 0.9607
-9.1629 3.8854 -0.5797 0.9609
-9.5355 3.0748 -0.5835 0.9607
-9.8978 2.2425 -0.5911 0.9602
-10.6056 0.4729 -0.6183 0.9584
-11.3143 -1.5216 -0.6649 0.9553
-11.6788 -2.6460 -0.6974 0.9532
-0.2601 -2.5854 -0.1513 0.9896
-0.0262 -2.3554 -0.1372 0.9906
0.1725 -2.2075 -0.1290 0.9912
0.5381 -2.0539 -0.1237 0.9915
0.7236 -2.0114 -0.1245 0.9915
0.9211 -1.9849 -0.1274 0.9913
1.1419 -1.9779 -0.1330 0.9909
1.4182 -2.0174 -0.1436 0.9902
1.8139 -2.1455 -0.1636 0.9888
-2.0403 13.9892 -0.8234 0.9449
-3.0257 12.6967 -0.7602 0.9490
-4.5904 10.4986 -0.6674 0.9551
-6.7419 8.3446 -0.6248 0.9579
-7.7219 6.6774 -0.5946 0.9599
-8.5769 5.0801 -0.5806 0.9608
-9.3507 3.4822 -0.5812 0.9608
-9.7177 2.6620 -0.5868 0.9604
-10.0762 1.8153 -0.5963 0.9598
-10.3766 -0.9273 -0.7807 0.9591
-11.2866 -4.2032 -0.9026 0.9528
-0.4048 -2.7754 -0.2102 0.9888
0.0761 -2.2756 -0.1706 0.9909
0.2661 -2.1602 -0.1631 0.9913
0.4458 -2.0746 -0.1590 0.9915
0.6282 -2.0252 -0.1589 0.9915
1.5864 -2.0556 -0.1946 0.9896
2.3308 -2.5200 -0.2572 0.9863
-0.1634 14.6650 -1.0991 0.9429
-2.3336 12.1743 -0.9289 0.9515
-3.1832 11.1326 -0.8677 0.9546
-3.9178 10.1723 -0.8169 0.9572
-5.4806 9.0224 -0.7911 0.9585
-7.0174 6.6370 -0.7238 0.9620
-8.2403 4.3972 -0.6999 0.9632
-8.9489 2.8857 -0.7046 0.9630
-9.2816 2.1029 -0.7132 0.9625
-9.9169 0.4422 -0.7439 0.9610
-10.5281 -1.4159 -0.7961 0.9583
-10.8303 -2.4538 -0.8322 0.9564
-11.2886 -4.7868 -0.9189 0.9520
-11.5438 -6.1600 -0.9806 0.9489
-11.8510 -7.7526 -1.0613 0.9448
-0.6255 -3.2630 -0.2490 0.9868
-0.0262 -2.3516 -0.1762 0.9906
0.3570 -2.1167 -0.1609 0.9914
0.5361 -2.0462 -0.1585 0.9916
0.7209 -2.0039 -0.1596 0.9915
0.9179 -1.9781 -0.1634 0.9913
1.4131 -2.0102 -0.1841 0.9902
1.8067 -2.1370 -0.2097 0.9888
-1.8578 12.7381 -0.9647 0.9497
-4.2508 9.7219 -0.7952 0.9583
-5.7669 8.6048 -0.7763 0.9593
-6.7878 7.0185 -0.7317 0.9616
-7.6581 5.5120 -0.7071 0.9629
-8.0518 4.7691 -0.7013 0.9632
-8.7777 3.2689 -0.7019 0.9631
-9.4437 1.7014 -0.7191 0.9622
-4.4479 -0.0000 -0.4078 0.9823
-9.7129 -0.8679 -0.8940 0.9616
-10.2186 -2.7992 -0.9713 0.9583
-10.5217 -5.0258 -1.0690 0.9542
-10.9421 -7.8756 -1.2360 0.9473
-0.4031 -2.7638 -0.2561 0.9888
-0.1359 -2.4375 -0.2238 0.9902
0.0760 -2.2721 -0.2084 0.9909
0.2658 -2.1581 -0.1993 0.9913
0.4453 -2.0722 -0.1943 0.9915
0.6262 -2.0186 -0.1938 0.9915
1.0219 -1.9675 -0.2033 0.9911
1.5806 -2.0480 -0.2372 0.9897
2.3107 -2.4983 -0.3120 0.9864
1.1382 14.5667 -1.3395 0.9430
-0.1482 13.3058 -1.2199 0.9480
-1.2272 12.1985 -1.1240 0.9519
-2.1481 11.2067 -1.0461 0.9552
-2.9449 10.2990 -0.9820 0.9579
-4.5338 9.2260 -0.9424 0.9595
-5.1258 8.4382 -0.9051 0.9611
-6.5994 6.2416 -0.8328 0.9642
-7.0150 5.5397 -0.8195 0.9647
-7.7647 4.1434 -0.8069 0.9653
-8.1061 3.4373 -0.8072 0.9653
-4.2496 0.5715 -0.3931 0.9829
-4.0002 0.1784 -0.3671 0.9840
-10.3404 -3.3343 -0.9960 0.9573
-10.6272 -5.6708 -1.1043 0.9528
-10.8390 -7.0906 -1.1874 0.9493
-0.2588 -2.5723 -0.2370 0.9897
-0.0262 -2.3478 -0.2153 0.9906
0.1721 -2.2029 -0.2026 0.9912
0.3567 -2.1146 -0.1966 0.9914
0.5350 -2.0422 -0.1935 0.9916
0.7182 -1.9964 -0.1945 0.9915
1.4080 -2.0029 -0.2245 0.9902
0.4652 13.9142 -1.2763 0.9456
-1.7049 11.6901 -1.0831 0.9537
-2.5608 10.7455 -1.0127 0.9566
-3.3037 9.8677 -0.9540 0.9591
-3.9573 9.0506 -0.9056 0.9611
-5.4000 8.0574 -0.8892 0.9618
-6.3793 6.5962 -0.8413 0.9638
-6.8110 5.8897 -0.8255 0.9645
-8.5846 2.3516 -0.8160 0.9649
-4.9080 0.8842 -0.4572 0.9802
-4.1097 0.3672 -0.3783 0.9836
-3.7849 -0.0000 -0.4105 0.9849
-9.7448 -3.6290 -1.1279 0.9590
-9.7759 -4.6696 -1.1751 0.9573
-9.9160 -5.8733 -1.2501 0.9547
0.2655 -2.1560 -0.2356 0.9913
0.4449 -2.0703 -0.2297 0.9915
1.0183 -1.9606 -0.2396 0.9912
1.5747 -2.0404 -0.2796 0.9897
1.5733 6.0053 -0.6734 0.9753
2.4290 14.3999 -1.5840 0.9429
-1.1304 11.2362 -1.2249 0.9556
-4.2466 8.6417 -1.0444 0.9620
-5.7962 6.5539 -0.9490 0.9654
-6.2273 5.8897 -0.9297 0.9661
-7.3397 3.9166 -0.9024 0.9671
-7.6623 3.2491 -0.9027 0.9671
-3.7330 0.1665 -0.4053 0.9851
-3.9258 -0.1751 -0.4262 0.9843
-9.2388 -1.2425 -1.0111 0.9632
-9.7478 -4.1334 -1.1484 0.9583
-9.8431 -5.2524 -1.2101 0.9561
-10.1029 -7.9781 -1.3963 0.9495
-0.6128 -3.1969 -0.3531 0.9870
0.7173 -1.9939 -0.2298 0.9915
0.4240 12.6809 -1.3762 0.9502
-3.0790 9.1967 -1.0520 0.9617
-4.5371 8.2792 -1.0240 0.9627
-5.5667 6.8901 -0.9608 0.9650
-6.0161 6.2207 -0.9387 0.9658
-6.8136 4.9042 -0.9106 0.9668
-7.5036 3.5842 -0.9020 0.9671
-8.1098 2.2215 -0.9120 0.9667
-3.9949 0.7197 -0.4403 0.9838
-3.7414 0.3343 -0.4074 0.9850
-3.5692 0.0000 -0.4473 0.9857
-8.9665 -2.4562 -1.1650 0.9632
-9.1188 -3.3959 -1.2194 0.9615
-9.1258 -4.3590 -1.2674 0.9600
-9.3223 -8.0612 -1.5444 0.9515
-9.3198 -9.6367 -1.6800 0.9474
-9.2689 -11.4722 -1.8482 0.9423
0.0757 -2.2650 -0.2840 0.9909
0.2653 -2.1538 -0.2720 0.9913
0.6256 -2.0166 -0.2646 0.9915
1.0170 -1.9581 -0.2765 0.9911
1.2552 -1.9662 -0.2923 0.9906
2.2715 -2.4559 -0.4192 0.9866
1.5775 6.0212 -0.7800 0.9752
2.2034 13.0625 -1.6601 0.9480
-2.5597 8.9520 -1.1668 0.9632
-3.1869 8.2747 -1.1112 0.9649
-3.9928 8.1252 -1.1345 0.9642
-4.5356 7.4666 -1.0948 0.9654
-5.4797 6.1960 -1.0366 0.9672
-6.6293 4.3367 -0.9927 0.9686
-6.9576 3.7127 -0.9883 0.9687
-7.2632 3.0799 -0.9886 0.9687
-7.5481 2.4339 -0.9939 0.9685
-4.3832 0.9931 -0.5632 0.9820
-3.5494 0.4774 -0.4488 0.9857
-3.5348 0.1576 -0.4434 0.9858
-3.6310 -0.1619 -0.4555 0.9855
-8.7032 -1.1704 -1.1005 0.9652
-9.0451 -2.9167 -1.1910 0.9624
-9.1288 -3.8709 -1.2426 0.9608
-9.1646 -4.8904 -1.3017 0.9590
-9.2515 -6.0520 -1.3854 0.9564
-9.3269 -8.8213 -1.6088 0.9496
-0.2575 -2.5592 -0.3223 0.9897
0.5345 -2.0403 -0.2643 0.9915
0.7170 -1.9929 -0.2654 0.9915
0.9117 -1.9646 -0.2714 0.9913
1.5475 12.5649 -1.5865 0.9502
0.3893 11.6450 -1.4601 0.9541
-0.6025 10.8063 -1.3563 0.9573
-1.4630 10.0313 -1.2704 0.9600
-2.2173 9.3042 -1.1986 0.9622
-3.4751 7.9478 -1.0870 0.9656
-4.2709 7.7934 -1.1137 0.9648
-4.7879 7.1441 -1.0777 0.9659
-6.4558 4.6466 -0.9968 0.9684
-7.1131 3.3976 -0.9879 0.9687
-7.6832 2.1047 -0.9983 0.9684
-3.8077 0.6860 -0.4848 0.9845
-3.5366 0.3160 -0.4450 0.9858
-3.3944 0.0000 -0.4828 0.9864
-8.5662 -3.1901 -1.3002 0.9637
-8.5541 -4.0859 -1.3484 0.9624
-8.6146 -7.4494 -1.6199 0.9550
-8.5548 -8.8457 -1.7503 0.9515
-0.3980 -2.7292 -0.3923 0.9889
0.0756 -2.2615 -0.3218 0.9909
0.8099 -1.9708 -0.3031 0.9914
1.5648 -2.0275 -0.3643 0.9897
2.0154 11.9482 -1.7235 0.9522
-3.7667 7.6651 -1.2148 0.9661
-5.1948 5.8739 -1.1153 0.9688
-5.9597 4.7064 -1.0801 0.9698
-6.2985 4.1203 -1.0705 0.9700
-6.6119 3.5282 -1.0660 0.9702
-6.9022 2.9268 -1.0664 0.9702
-7.1710 2.3124 -1.0717 0.9700
-3.3610 0.1499 -0.4785 0.9865
-3.6292 -0.4881 -0.5208 0.9853
-8.5090 -2.7438 -1.2717 0.9645
-8.5816 -3.6389 -1.3258 0.9630
-8.6166 -5.6367 -1.4645 0.9593
-8.5912 -8.1255 -1.6820 0.9533
-0.0260 -2.3365 -0.3324 0.9906
0.3556 -2.1085 -0.3041 0.9914
0.5343 -2.0393 -0.2998 0.9915
0.9117 -1.9646 -0.3081 0.9913
1.7781 -2.1032 -0.3917 0.9889
1.3223 6.1532 -0.8952 0.9749
1.4209 11.5366 -1.6533 0.9541
-1.3656 9.3630 -1.3459 0.9625
-2.0769 8.7152 -1.2743 0.9644
-4.0333 7.3598 -1.1937 0.9667
-6.1324 4.4139 -1.0747 0.9699
-3.6717 0.6615 -0.5307 0.9850
-3.3525 0.2996 -0.4787 0.9865
-3.2915 0.0000 -0.5241 0.9868
-7.8616 -1.4163 -1.2720 0.9682
-7.9805 -2.1861 -1.3176 0.9670
-8.0746 -3.0070 -1.3720 0.9657
-8.0473 -3.8438 -1.4201 0.9645
-8.0531 -5.7963 -1.5800 0.9606
-7.9031 -8.1717 -1.8102 0.9550
-7.7381 -9.5775 -1.9606 0.9514
-7.4965 -11.1855 -2.1442 0.9469
-0.3981 -2.7297 -0.4393 0.9889
-0.1346 -2.4142 -0.3850 0.9903
0.2647 -2.1496 -0.3449 0.9913
0.6249 -2.0146 -0.3359 0.9915
1.0171 -1.9583 -0.3514 0.9911
2.2537 -2.4367 -0.5285 0.9866
6.2021 13.3652 -2.3462 0.9421
0.8069 10.3256 -1.6492 0.9589
-0.9126 9.0719 -1.4519 0.9637
-2.2613 7.9082 -1.3097 0.9672
-3.5640 7.2525 -1.2868 0.9678
-5.9978 3.9236 -1.1413 0.9714
-6.2975 3.3605 -1.1366 0.9715
-6.5739 2.7876 -1.1370 0.9715
-6.8283 2.2019 -1.1424 0.9714
-3.2540 0.4376 -0.5228 0.9868
-3.3344 -0.1487 -0.5315 0.9866
-3.4817 -0.4682 -0.5594 0.9859
-7.9240 -1.7953 -1.2938 0.9676
-8.0308 -2.5896 -1.3436 0.9664
-8.0940 -3.4321 -1.3999 0.9650
-8.0609 -5.2732 -1.5338 0.9617
-7.8296 -8.8531 -1.8820 0.9533
-7.6292 -10.3544 -2.0480 0.9492
-7.3346 -12.0744 -2.2496 0.9444
-0.6181 -3.2245 -0.5228 0.9868
-0.2562 -2.5462 -0.4075 0.9897
-0.0260 -2.3327 -0.3715 0.9906
0.1714 -2.1940 -0.3504 0.9911
0.3553 -2.1064 -0.3402 0.9914
0.5340 -2.0382 -0.3355 0.9915
0.9117 -1.9647 -0.3449 0.9913
1.1268 -1.9516 -0.3588 0.9909
1.3974 -1.9878 -0.3869 0.9902
1.7802 -2.1056 -0.4391 0.9889
5.3131 12.9286 -2.2258 0.9450
3.7575 12.1131 -2.0195 0.9499
1.3129 10.6601 -1.7103 0.9574
0.3344 10.0004 -1.5933 0.9603
-1.9526 8.1934 -1.3412 0.9665
-3.8197 6.9701 -1.2656 0.9683
-5.1326 5.3071 -1.1756 0.9705
-5.8386 4.2024 -1.1455 0.9713
-6.1507 3.6431 -1.1383 0.9715
-6.7038 2.4965 -1.1391 0.9714
-4.5041 1.2338 -0.7436 0.9813
-3.5501 0.6396 -0.5744 0.9855
-3.1939 -0.0000 -0.5632 0.9871
-3.2817 -0.2932 -0.5810 0.9867
-7.4624 -1.3444 -1.3370 0.9697
-7.5615 -2.0713 -1.3824 0.9687
-7.6341 -2.8430 -1.4364 0.9675
-7.5947 -3.6277 -1.4841 0.9664
-7.5809 -4.4901 -1.5536 0.9648
-7.5490 -5.4334 -1.6400 0.9629
-7.3413 -7.5908 -1.8620 0.9580
-6.4933 -11.8487 -2.3824 0.9466
0.0754 -2.2544 -0.3977 0.9909
0.4431 -2.0623 -0.3719 0.9915
0.8100 -1.9710 -0.3757 0.9914
1.0171 -1.9583 -0.3891 0.9911
1.2578 -1.9703 -0.4122 0.9906
1.5720 -2.0370 -0.4537 0.9896
2.8292 10.7989 -1.9684 0.9557
0.7515 9.6173 -1.7010 0.9616
-0.8571 8.5197 -1.5098 0.9658
-2.1356 7.4686 -1.3697 0.9689
-3.3810 6.8802 -1.3517 0.9693
-4.3002 5.8363 -1.2783 0.9710
-4.7023 5.3170 -1.2516 0.9716
-5.7231 3.7439 -1.2059 0.9726
-3.2276 -0.1439 -0.5697 0.9870
-7.5151 -1.7027 -1.3587 0.9692
-7.5166 -5.9358 -1.6888 0.9618
-7.4140 -7.0121 -1.7994 0.9594
-7.0181 -9.5251 -2.0862 0.9531
-6.2554 -12.7293 -2.5009 0.9440
-0.2564 -2.5484 -0.4516 0.9897
-0.0259 -2.3290 -0.4107 0.9906
0.3550 -2.1043 -0.3763 0.9914
0.5337 -2.0372 -0.3713 0.9915
0.9117 -1.9648 -0.3819 0.9912
1.3986 -1.9895 -0.4288 0.9902
1.7871 -2.1138 -0.4881 0.9888
6.4641 12.4456 -2.4728 0.9446
4.8327 11.7597 -2.2418 0.9497
1.2198 9.9037 -1.7595 0.9603
-0.4900 8.7878 -1.5519 0.9649
-1.8416 7.7276 -1.4007 0.9682
-2.4147 7.2122 -1.3411 0.9696
-3.0755 7.0339 -1.3536 0.9693
-3.6267 6.6179 -1.3307 0.9698
-4.0857 6.0962 -1.2940 0.9706
-4.5056 5.5766 -1.2641 0.9713
-4.8908 5.0571 -1.2405 0.9718
-5.2447 4.5353 -1.2226 0.9722
-5.8697 3.4767 -1.2029 0.9727
-6.1449 2.9352 -1.2008 0.9727
-4.2904 1.1753 -0.7844 0.9821
-3.4372 0.6192 -0.6158 0.9859
-3.1775 -0.2839 -0.6174 0.9871
-3.3117 -0.5966 -0.6512 0.9864
-7.2370 -2.6951 -1.4945 0.9690
-7.1541 -4.2374 -1.6091 0.9667
-7.1017 -5.1115 -1.6933 0.9650
-7.0036 -6.0562 -1.7918 0.9630
-6.3383 -9.4574 -2.2032 0.9547
-5.9481 -10.8537 -2.3951 0.9508
-5.4313 -12.4216 -2.6235 0.9463
-0.1345 -2.4129 -0.4677 0.9902
0.0752 -2.2508 -0.4358 0.9909
0.4427 -2.0602 -0.4078 0.9915
0.6243 -2.0126 -0.4078 0.9915
0.8100 -1.9711 -0.4124 0.9914
5.1252 11.0445 -2.3562 0.9516
3.7839 10.5175 -2.1630 0.9555
2.6200 10.0006 -2.0006 0.9588
-0.8076 8.0279 -1.5614 0.9677
-2.5462 6.6112 -1.3710 0.9715
-3.6771 6.0534 -1.3706 0.9716
-4.1000 5.5646 -1.3376 0.9722
-4.4877 5.0744 -1.3109 0.9728
-5.1707 4.0833 -1.2750 0.9735
-5.7466 3.0665 -1.2605 0.9738
-5.9986 2.5437 -1.2609 0.9738
-6.2281 2.0083 -1.2664 0.9737
-3.6833 0.8345 -0.7309 0.9847
-3.1273 -0.1395 -0.6058 0.9873
-3.2339 -0.4349 -0.6315 0.9868
-7.2496 -3.0741 -1.5239 0.9684
-7.1332 -4.6663 -1.6495 0.9659
-7.0589 -5.5743 -1.7406 0.9640
-6.7516 -7.6342 -1.9722 0.9593
-6.4972 -8.8180 -2.1196 0.9564
-6.1549 -10.1324 -2.2942 0.9528
-5.1156 -13.2822 -2.7544 0.9437
0.1711 -2.1896 -0.4250 0.9911
0.3546 -2.1022 -0.4126 0.9914
0.5334 -2.0362 -0.4073 0.9915
0.9118 -1.9649 -0.4192 0.9912
1.1282 -1.9541 -0.4366 0.9908
1.3998 -1.9912 -0.4710 0.9901
7.5586 11.8403 -2.7184 0.9444
1.3097 6.0949 -1.2064 0.9749
-0.4610 8.2676 -1.6024 0.9668
-1.7419 7.3092 -1.4541 0.9699
-2.2893 6.8377 -1.3954 0.9710
-3.4513 6.2978 -1.3897 0.9712
-3.8932 5.8091 -1.3533 0.9719
-4.2980 5.3198 -1.3235 0.9725
-4.6695 4.8283 -1.2998 0.9730
-5.0107 4.3329 -1.2819 0.9734
-5.3242 3.8321 -1.2694 0.9736
-5.6118 3.3239 -1.2622 0.9738
-5.8754 2.8065 -1.2601 0.9738
-6.1161 2.2777 -1.2630 0.9738
-3.0639 0.2738 -0.5953 0.9875
-3.0211 0.0000 -0.6369 0.9877
-6.8770 -2.5610 -1.5471 0.9704
-6.1888 -7.6600 -2.0761 0.9605
-5.8816 -8.7759 -2.2272 0.9577
-5.4817 -10.0029 -2.4047 0.9544
-4.9723 -11.3718 -2.6166 0.9505
-4.3151 -12.8885 -2.8654 0.9460
-0.4038 -2.7683 -0.5898 0.9886
-0.1349 -2.4200 -0.5110 0.9901
0.0753 -2.2512 -0.4749 0.9908
0.2640 -2.1431 -0.4552 0.9912
0.6240 -2.0116 -0.4440 0.9914
0.8100 -1.9711 -0.4493 0.9913
1.0172 -1.9585 -0.4653 0.9910
1.2599 -1.9736 -0.4936 0.9905
7.6933 10.9439 -2.8202 0.9468
2.4386 9.3082 -2.0286 0.9614
0.6602 8.4484 -1.7865 0.9660
-0.7629 7.5835 -1.6068 0.9693
-1.9199 6.7145 -1.4723 0.9719
-2.5242 6.5539 -1.4806 0.9717
-3.0636 6.2343 -1.4644 0.9720
-3.9165 5.3155 -1.3919 0.9734
-4.6343 4.3831 -1.3448 0.9743
-4.9497 3.9087 -1.3296 0.9745
-5.2389 3.4272 -1.3198 0.9747
-5.5035 2.9368 -1.3151 0.9748
-3.5520 0.8048 -0.7678 0.9852
-3.0346 0.4081 -0.6455 0.9876
-3.1546 -0.4242 -0.6710 0.9871
-6.8063 -1.5421 -1.4713 0.9719
-6.8607 -2.2123 -1.5197 0.9710
-6.7946 -3.6257 -1.6236 0.9690
-6.7416 -4.4101 -1.6983 0.9676
-5.2423 -10.6677 -2.5058 0.9526
-4.6636 -12.1087 -2.7355 0.9483
0.1709 -2.1873 -0.4625 0.9911
0.5332 -2.0352 -0.4435 0.9914
0.7152 -1.9879 -0.4454 0.9914
1.4010 -1.9930 -0.5136 0.9901
8.5902 11.1306 -2.9641 0.9441
6.8627 10.7503 -2.6888 0.9492
5.3743 10.3473 -2.4581 0.9535
4.0869 9.9449 -2.2667 0.9570
1.3082 6.0878 -1.3127 0.9749
1.0671 8.6637 -1.8403 0.9649
-1.6518 6.9313 -1.5022 0.9713
-2.1756 6.4981 -1.4447 0.9724
-2.8258 6.4629 -1.4870 0.9716
-3.2911 6.0054 -1.4437 0.9724
-4.1076 5.0841 -1.3779 0.9736
-5.0974 3.6689 -1.3241 0.9747
-5.3742 3.1832 -1.3168 0.9748
-5.6270 2.6878 -1.3147 0.9748
-4.0001 1.0958 -0.8744 0.9832
-3.2435 0.5843 -0.6948 0.9866
-2.9810 0.2664 -0.6310 0.9878
-3.1642 -0.5701 -0.7338 0.9869
-6.5214 -1.7864 -1.5433 0.9726
-6.5489 -2.4388 -1.5950 0.9717
-6.4965 -3.1031 -1.6433 0.9709
-6.4236 -3.8047 -1.7040 0.9698
-6.0375 -6.2428 -1.9822 0.9650
-5.7971 -7.1751 -2.1054 0.9629
-5.4837 -8.1822 -2.2481 0.9604
-5.0834 -9.2761 -2.4143 0.9575
-4.5777 -10.4695 -2.6080 0.9542
-3.9472 -11.7896 -2.8377 0.9503
-3.1536 -13.2330 -3.1049 0.9457
0.0755 -2.2571 -0.5155 0.9908
0.6237 -2.0106 -0.4805 0.9914
0.8101 -1.9712 -0.4864 0.9913
1.0173 -1.9586 -0.5037 0.9910
1.2610 -1.9753 -0.5349 0.9904
1.5833 -2.0515 -0.5915 0.9894
7.0115 9.9740 -2.7827 0.9512
5.5960 9.6926 -2.5545 0.9551
4.3519 9.3782 -2.3597 0.9585
3.2524 9.0402 -2.1928 0.9613
2.2771 8.6920 -2.0508 0.9638
0.6220 7.9603 -1.8224 0.9678
-0.0844 7.5751 -1.7291 0.9694
-0.7226 7.1830 -1.6478 0.9708
-1.3010 6.7873 -1.5773 0.9720
-1.8267 6.3884 -1.5166 0.9731
-2.9249 5.9521 -1.5137 0.9732
-3.7476 5.0862 -1.4420 0.9744
-5.0242 3.2867 -1.3703 0.9757
-3.4289 0.7769 -0.8025 0.9857
-2.9453 0.1313 -0.6729 0.9880
-2.9994 -0.1337 -0.6853 0.9878
-3.0959 -0.4164 -0.7130 0.9873
-6.4968 -1.4720 -1.5204 0.9730
-6.5509 -2.7778 -1.6241 0.9712
-6.4567 -3.4454 -1.6703 0.9704
-6.2856 -4.9637 -1.8280 0.9677
-6.1341 -5.8016 -1.9271 0.9660
-5.2955 -8.7176 -2.3281 0.9590
-4.8451 -9.8595 -2.5074 0.9559
-4.2810 -11.1153 -2.7186 0.9523
-3.5724 -12.4934 -2.9658 0.9481
-2.6858 -14.0115 -3.2562 0.9431
-0.2589 -2.5733 -0.5903 0.9894
-0.0261 -2.3387 -0.5338 0.9905
0.1713 -2.1917 -0.5018 0.9910
0.3539 -2.0981 -0.4856 0.9913
0.5329 -2.0341 -0.4799 0.9914
1.1300 -1.9572 -0.5158 0.9908
6.2804 9.8381 -2.6640 0.9532
-1.0188 6.9855 -1.6113 0.9715
-2.6960 6.1660 -1.5360 0.9728
-3.1441 5.7372 -1.4932 0.9735
-3.9321 4.8669 -1.4281 0.9747
-4.2785 4.4240 -1.4047 0.9751
-4.5964 3.9747 -1.3869 0.9754
-4.8879 3.5181 -1.3746 0.9756
-5.6173 2.0919 -1.3681 0.9757
-3.1659 0.5704 -0.7342 0.9869
-2.9278 0.2616 -0.6709 0.9880
-2.9221 0.0000 -0.7182 0.9880
-2.9882 -0.2670 -0.7374 0.9877
-6.2316 -1.7070 -1.5882 0.9737
-6.1987 -2.9609 -1.6885 0.9721
-6.1082 -3.6179 -1.7450 0.9712
-6.0175 -4.3311 -1.8224 0.9699
-5.8821 -5.0865 -1.9114 0.9685
-4.7367 -8.6433 -2.4226 0.9602
-4.2422 -9.7022 -2.6028 0.9573
-3.6319 -10.8480 -2.8119 0.9540
-0.1358 -2.4350 -0.5995 0.9900
0.0757 -2.2632 -0.5566 0.9907
0.2647 -2.1488 -0.5322 0.9911
0.6234 -2.0095 -0.5172 0.9914
2.1350 8.1494 -2.0707 0.9659
1.3242 7.8501 -1.9568 0.9677
0.5875 7.5189 -1.8538 0.9694
-1.7517 6.1260 -1.5661 0.9741
-2.7973 5.6924 -1.5590 0.9742
-3.2112 5.2864 -1.5204 0.9748
-4.2617 4.0307 -1.4418 0.9761
-4.5559 3.5977 -1.4269 0.9764
-4.8249 3.1563 -1.4172 0.9765
-5.0701 2.7055 -1.4126 0.9766
-3.3132 0.7507 -0.8350 0.9861
-3.0389 -0.4087 -0.7537 0.9874
-6.2438 -2.0134 -1.6126 0.9733
-6.1481 -3.2807 -1.7129 0.9717
-6.0681 -3.9695 -1.7823 0.9706
-5.9558 -4.7032 -1.8654 0.9692
-5.7957 -5.4815 -1.9608 0.9677
-5.5805 -6.3100 -2.0705 0.9659
-5.3011 -7.1947 -2.1967 0.9639
-3.9526 -10.2627 -2.7032 0.9557
-2.4448 -12.7543 -3.1921 0.9479
-0.2597 -2.5818 -0.6378 0.9894
-0.0261 -2.3451 -0.5765 0.9904
0.3545 -2.1017 -0.5239 0.9913
0.5326 -2.0331 -0.5166 0.9914
0.7144 -1.9859 -0.5188 0.9913
0.9119 -1.9651 -0.5325 0.9911
7.1276 9.2355 -2.8675 0.9531
4.5928 8.8427 -2.4492 0.9598
1.3070 6.0825 -1.5292 0.9747
-1.4954 6.2751 -1.5856 0.9738
-2.5767 5.8931 -1.5809 0.9739
-3.0087 5.4901 -1.5388 0.9745
-4.1047 4.2443 -1.4513 0.9760
-4.6934 3.3781 -1.4214 0.9765
-5.1840 2.4762 -1.4121 0.9766
-3.0843 0.5557 -0.7703 0.9872
-2.8744 -0.0000 -0.7574 0.9882
-2.9343 -0.2622 -0.7763 0.9879
-5.9643 -1.6338 -1.6295 0.9747
-5.8202 -3.4473 -1.7824 0.9724
-5.3878 -5.5709 -2.0421 0.9685
-3.9503 -9.0346 -2.5983 0.9600
-3.3628 -10.0440 -2.7910 0.9571
-2.6508 -11.1234 -3.0131 0.9538
0.0759 -2.2693 -0.5983 0.9907
0.4437 -2.0649 -0.5565 0.9913
0.6242 -2.0122 -0.5551 0.9913
0.8101 -1.9713 -0.5616 0.9912
1.0173 -1.9587 -0.5816 0.9909
1.5910 -2.0615 -0.6862 0.9893
9.1831 9.0813 -3.4031 0.9480
3.7775 8.1402 -2.3646 0.9636
2.0100 7.6721 -2.0898 0.9677
1.2502 7.4118 -1.9806 0.9694
-0.6528 6.4895 -1.7186 0.9734
-1.1803 6.1575 -1.6520 0.9744
-2.2448 5.8285 -1.6458 0.9745
-3.7847 4.2795 -1.5054 0.9766
-4.0951 3.8731 -1.4852 0.9770
-4.3795 3.4585 -1.4705 0.9772
-5.0893 2.1581 -1.4566 0.9774
-2.8316 0.3808 -0.7529 0.9883
-2.8515 0.1271 -0.7521 0.9883
-2.9007 -0.1293 -0.7651 0.9881
-2.9836 -0.4013 -0.7933 0.9876
-5.7761 -3.7785 -1.8187 0.9719
-5.6565 -4.4669 -1.8992 0.9706
-5.2710 -5.9599 -2.0965 0.9676
-4.9902 -6.7728 -2.2167 0.9658
-4.2033 -8.5534 -2.5113 0.9613
-3.6709 -9.5313 -2.6913 0.9586
-3.0233 -10.5732 -2.8977 0.9555
-2.2414 -11.6931 -3.1372 0.9519
-0.0262 -2.3517 -0.6197 0.9903
0.1722 -2.2038 -0.5825 0.9909
0.3555 -2.1074 -0.5631 0.9912
0.9119 -1.9651 -0.5709 0.9911
1.4048 -1.9983 -0.6437 0.9899
9.9971 9.0418 -3.5518 0.9458
3.3019 8.0346 -2.2889 0.9647
2.4195 7.7997 -2.1518 0.9668
0.2329 6.9672 -1.8369 0.9716
-0.9224 6.3246 -1.6842 0.9739
-2.4667 5.6415 -1.6224 0.9749
-3.2668 4.8744 -1.5462 0.9760
-3.9432 4.0773 -1.4946 0.9768
-3.7366 1.0236 -1.0209 0.9841
-2.8348 0.2533 -0.7499 0.9883
-2.8279 0.0000 -0.7957 0.9883
-2.8819 -0.2575 -0.8141 0.9880
-5.7170 -1.5660 -1.6678 0.9757
-5.7174 -2.1292 -1.7166 0.9750
-5.6721 -2.7093 -1.7686 0.9742
-5.5558 -3.2907 -1.8168 0.9735
-5.1093 -5.2830 -2.0678 0.9699
-4.8594 -6.0145 -2.1755 0.9684
-4.1620 -7.5946 -2.4366 0.9647
-3.6939 -8.4482 -2.5943 0.9624
-3.1294 -9.3471 -2.7733 0.9599
-2.4525 -10.2913 -2.9766 0.9570
-0.1366 -2.4505 -0.6905 0.9899
0.4451 -2.0713 -0.5961 0.9912
0.8130 -1.9783 -0.6018 0.9912
1.2663 -1.9836 -0.6621 0.9903
2.6815 7.4534 -2.2286 0.9676
1.9000 7.2520 -2.1093 0.9693
0.5281 6.7578 -1.9071 0.9722
-0.0722 6.4801 -1.8233 0.9734
-0.6224 6.1869 -1.7495 0.9745
-1.1326 5.9086 -1.6927 0.9753
-2.1508 5.5845 -1.6837 0.9754
-2.9564 4.8670 -1.6022 0.9766
-3.6393 4.1150 -1.5456 0.9774
-3.9397 3.7262 -1.5257 0.9777
-4.2150 3.3285 -1.5111 0.9779
-4.6943 2.5049 -1.4970 0.9781
-5.0833 1.6392 -1.5027 0.9781
-2.8062 0.1251 -0.7903 0.9884
-5.5087 -3.6036 -1.8521 0.9730
-5.3836 -4.2514 -1.9301 0.9719
-5.2133 -4.9307 -2.0189 0.9706
-4.3640 -7.1842 -2.3650 0.9657
-3.9390 -8.0158 -2.5129 0.9636
-0.0263 -2.3584 -0.6636 0.9902
0.1727 -2.2100 -0.6237 0.9908
1.1349 -1.9657 -0.6386 0.9906
1.8709 -2.2129 -0.8153 0.9880
9.1355 8.2626 -3.4657 0.9501
7.7408 8.3692 -3.2075 0.9537
6.4700 8.3834 -2.9795 0.9570
4.0013 7.7039 -2.4425 0.9646
1.3090 6.0918 -1.7531 0.9744
0.8486 6.8898 -1.9531 0.9716
0.2214 6.6211 -1.8639 0.9728
-2.3648 5.4085 -1.6608 0.9758
-2.7673 5.0497 -1.6201 0.9764
-3.1380 4.6822 -1.5859 0.9769
-3.4791 4.3062 -1.5576 0.9773
-3.7927 3.9217 -1.5350 0.9776
-4.0805 3.5285 -1.5178 0.9778
-4.3435 3.1263 -1.5057 0.9780
-4.5831 2.7145 -1.4987 0.9781
-3.6502 0.9999 -1.0648 0.9844
-2.7884 0.2492 -0.7877 0.9884
-2.7824 0.0000 -0.8330 0.9884
-2.8308 -0.2530 -0.8509 0.9882
-2.9224 -0.5265 -0.8890 0.9877
-5.4361 -2.5966 -1.8036 0.9752
-5.3138 -3.1473 -1.8489 0.9745
-5.2033 -3.7451 -1.9193 0.9736
-0.4245 -2.9107 -0.8806 0.9878
-0.1371 -2.4584 -0.7371 0.9898
0.0763 -2.2818 -0.6835 0.9905
0.2669 -2.1667 -0.6536 0.9909
0.6281 -2.0248 -0.6347 0.9912
0.8162 -1.9861 -0.6429 0.9911
1.0236 -1.9708 -0.6649 0.9908
1.6154 -2.0931 -0.7915 0.9890
11.9346 6.7143 -4.0996 0.9444
10.4503 7.1737 -3.7948 0.9485
9.0616 7.4896 -3.5196 0.9521
7.7720 7.6858 -3.2724 0.9554
5.4823 7.7987 -2.8539 0.9610
2.5308 7.0344 -2.2381 0.9693
1.7981 6.8631 -2.1240 0.9708
0.5023 6.4280 -1.9303 0.9734
-0.5944 5.9090 -1.7780 0.9755
-1.1287 5.8881 -1.7949 0.9753
-1.6247 5.6818 -1.7692 0.9756
-2.4686 5.0235 -1.6757 0.9769
-2.8422 4.6789 -1.6389 0.9774
-3.5033 3.9613 -1.5832 0.9782
-4.3040 2.8155 -1.5397 0.9788
-4.7223 2.0024 -1.5356 0.9788
-3.0564 0.6925 -0.9382 0.9870
-2.8067 -0.1252 -0.8411 0.9883
-2.8771 -0.3869 -0.8691 0.9880
-3.1092 -1.0026 -0.9780 0.9865
-5.4667 -2.3181 -1.7777 0.9755
-5.2627 -3.4427 -1.8827 0.9741
-5.1336 -4.0540 -1.9583 0.9731
-4.9606 -4.6917 -2.0441 0.9719
-4.7382 -5.3576 -2.1412 0.9706
-4.1183 -6.7796 -2.3748 0.9674
-3.2075 -8.3281 -2.6718 0.9634
-0.2633 -2.6172 -0.7875 0.9891
0.1732 -2.2163 -0.6655 0.9908
0.5374 -2.0512 -0.6348 0.9912
1.1413 -1.9767 -0.6833 0.9905
1.4212 -2.0216 -0.7398 0.9897
11.1810 6.9636 -3.9435 0.9465
8.4044 7.6014 -3.3926 0.9538
6.0198 7.8000 -2.9497 0.9597
4.9669 7.7806 -2.7635 0.9622
2.9219 7.1101 -2.3013 0.9684
2.1559 6.9501 -2.1785 0.9701
0.2108 6.3049 -1.8886 0.9740
-1.8485 5.5213 -1.7432 0.9760
-2.2702 5.1921 -1.6965 0.9766
-2.6592 4.8524 -1.6565 0.9772
-3.0178 4.5029 -1.6229 0.9776
-3.6521 3.7762 -1.5727 0.9783
-4.1854 3.0125 -1.5438 0.9787
-4.8132 1.7924 -1.5376 0.9788
-3.5598 0.9751 -1.1050 0.9847
-2.8473 0.5130 -0.8662 0.9880
-2.7827 -0.2487 -0.8873 0.9883
-2.8694 -0.5170 -0.9260 0.9878
-4.9747 -3.5806 -1.9466 0.9746
-4.8220 -4.1697 -2.0245 0.9736
-4.6244 -4.7815 -2.1125 0.9725
-4.3765 -5.4169 -2.2116 0.9712
-0.4329 -2.9679 -0.9525 0.9875
0.0765 -2.2881 -0.7271 0.9904
0.2676 -2.1728 -0.6953 0.9909
0.4479 -2.0845 -0.6771 0.9911
0.6301 -2.0312 -0.6754 0.9911
1.0279 -1.9790 -0.7082 0.9907
1.2812 -2.0070 -0.7562 0.9901
1.6313 -2.1137 -0.8480 0.9889
12.2141 5.5034 -4.2546 0.9453
10.8726 6.1169 -3.9619 0.9490
9.5838 6.5789 -3.6918 0.9524
7.2098 7.1300 -3.2203 0.9583
5.1332 7.3021 -2.8347 0.9632
1.0680 6.3313 -2.0391 0.9734
-1.1010 5.7437 -1.8573 0.9758
-1.9824 5.1473 -1.7517 0.9771
-4.1516 2.7159 -1.5756 0.9794
-4.5557 1.9318 -1.5715 0.9794
-2.7186 0.1212 -0.8643 0.9886
-2.8255 -0.3800 -0.9054 0.9881
-2.9205 -0.6617 -0.9510 0.9875
-3.1071 -1.0019 -1.0368 0.9864
-5.2446 -2.2239 -1.8092 0.9764
-4.7291 -4.4727 -2.0672 0.9731
-4.5071 -5.0962 -2.1606 0.9719
-4.2319 -5.7435 -2.2657 0.9705
-1.7864 -9.3193 -3.0136 0.9610
-0.0264 -2.3720 -0.7533 0.9901
0.1737 -2.2227 -0.7080 0.9907
0.3584 -2.1248 -0.6843 0.9910
0.5391 -2.0577 -0.6755 0.9911
0.7213 -2.0049 -0.6767 0.9911
0.9218 -1.9865 -0.6955 0.9909
1.4343 -2.0403 -0.7920 0.9896
12.8983 5.1334 -4.4088 0.9434
11.5379 5.8304 -4.1055 0.9472
10.2207 6.3655 -3.8240 0.9507
8.9635 6.7597 -3.5654 0.9540
7.7759 7.0329 -3.3297 0.9570
5.6245 7.2879 -2.9236 0.9621
4.6601 7.2999 -2.7505 0.9643
2.7607 6.7179 -2.3066 0.9700
2.0438 6.5884 -2.1907 0.9715
0.7675 6.2317 -1.9940 0.9740
0.2011 6.0147 -1.9113 0.9751
-1.7748 5.3012 -1.7754 0.9768
-3.2256 3.9925 -1.6301 0.9787
-3.5201 3.6398 -1.6081 0.9790
-3.7902 3.2775 -1.5913 0.9792
-4.6430 1.7291 -1.5735 0.9794
-2.7749 0.4999 -0.8954 0.9882
-2.6951 0.2408 -0.8593 0.9887
-2.8177 -0.5076 -0.9619 0.9880
-2.8971 -0.7936 -1.0092 0.9874
-5.0571 -1.8833 -1.8131 0.9775
-4.8834 -2.8924 -1.9069 0.9763
-4.6090 -3.9856 -2.0472 0.9746
-3.8672 -5.7703 -2.3339 0.9711
-3.5083 -6.4018 -2.4527 0.9697
-3.0823 -7.0495 -2.5850 0.9681
-2.5816 -7.7108 -2.7320 0.9663
-1.9975 -8.3817 -2.8950 0.9643
0.4494 -2.0912 -0.7187 0.9910
0.6321 -2.0378 -0.7168 0.9910
1.6477 -2.1351 -0.9061 0.9887
13.4639 3.3675 -4.6630 0.9431
12.3107 4.2747 -4.3784 0.9465
11.1384 5.0187 -4.1047 0.9498
9.9756 5.6122 -3.8456 0.9528
7.7543 6.4091 -3.3800 0.9584
5.7410 6.7905 -2.9876 0.9632
4.8229 6.8607 -2.8176 0.9652
3.9644 6.8665 -2.6639 0.9671
2.2715 6.3136 -2.2544 0.9721
1.6214 6.1888 -2.1495 0.9734
1.0175 6.0321 -2.0553 0.9745
0.4570 5.8483 -1.9709 0.9756
-0.0634 5.6887 -1.9114 0.9763
-1.0564 5.5113 -1.8854 0.9766
-1.4977 5.2379 -1.8304 0.9773
-2.2852 4.6502 -1.7408 0.9784
-2.6353 4.3383 -1.7054 0.9788
-2.9585 4.0154 -1.6757 0.9792
-3.2564 3.6821 -1.6515 0.9795
-3.7804 2.9854 -1.6184 0.9799
-4.0083 2.6221 -1.6093 0.9800
-4.2143 2.2488 -1.6049 0.9800
-2.6272 0.5953 -0.9051 0.9887
-2.6180 0.3521 -0.8875 0.9889
-2.6762 0.1193 -0.9001 0.9888
-2.7751 -0.3732 -0.9408 0.9883
-5.0377 -2.1362 -1.8385 0.9772
-4.9398 -2.6359 -1.8812 0.9767
-4.8253 -3.1565 -1.9373 0.9760
-4.0238 -5.4612 -2.2791 0.9718
-3.6957 -6.0839 -2.3917 0.9704
-2.3005 -8.0453 -2.8114 0.9653
-0.2696 -2.6803 -0.9051 0.9887
-0.0265 -2.3831 -0.8007 0.9900
0.1742 -2.2291 -0.7512 0.9906
0.5408 -2.0644 -0.7170 0.9910
1.1545 -1.9996 -0.7758 0.9903
2.1014 -2.4855 -1.0936 0.9864
11.7250 4.6664 -4.2399 0.9481
7.2295 6.5387 -3.2751 0.9597
5.2745 6.8343 -2.9005 0.9642
1.3138 6.1142 -2.1011 0.9740
0.7320 5.9433 -2.0119 0.9750
-0.3184 5.7109 -1.9218 0.9762
-1.2813 5.3765 -1.8570 0.9769
-2.0996 4.8018 -1.7608 0.9781
-3.3961 3.5117 -1.6414 0.9796
-3.6581 3.1633 -1.6248 0.9798
-3.8971 2.8050 -1.6133 0.9799
-4.1140 2.4368 -1.6065 0.9800
-4.3092 2.0583 -1.6045 0.9801
-4.4829 1.6695 -1.6072 0.9800
-2.6500 0.2368 -0.8939 0.9888
-2.6519 0.0000 -0.9403 0.9888
-2.6931 -0.2407 -0.9588 0.9886
-2.7668 -0.4985 -0.9969 0.9881
-2.8417 -0.7784 -1.0448 0.9876
-4.8657 -1.8120 -1.8411 0.9782
-4.2157 -4.3590 -2.1502 0.9746
-3.3301 -6.0767 -2.4571 0.9710
-2.9178 -6.6733 -2.5826 0.9696
0.2692 -2.1854 -0.7808 0.9907
0.4508 -2.0981 -0.7609 0.9909
0.8262 -2.0105 -0.7707 0.9908
1.0366 -1.9958 -0.7974 0.9905
1.6694 -2.1631 -0.9689 0.9885
10.2276 4.6083 -3.9777 0.9535
9.2074 5.1800 -3.7460 0.9562
8.2016 5.6301 -3.5274 0.9587
6.2858 6.2162 -3.1347 0.9632
5.3915 6.3771 -2.9611 0.9652
4.5451 6.4655 -2.8024 0.9670
3.7478 6.4913 -2.6578 0.9687
2.9994 6.4636 -2.5267 0.9702
1.5445 5.8953 -2.1609 0.9745
0.9712 5.7580 -2.0705 0.9755
-0.0633 5.6768 -2.0130 0.9762
-2.2020 4.4810 -1.7704 0.9790
-3.6522 2.8841 -1.6501 0.9804
-3.8731 2.5337 -1.6411 0.9805
-4.2507 1.8025 -1.6372 0.9806
-4.4078 1.4213 -1.6422 0.9805
-2.8093 -0.6365 -1.0214 0.9878
-2.8709 -0.9257 -1.0696 0.9873
-4.8445 -2.0543 -1.8659 0.9779
-4.7499 -2.5346 -1.9090 0.9774
-4.1005 -4.6365 -2.1948 0.9741
-3.8333 -5.2026 -2.2914 0.9729
-2.6862 -6.9746 -2.6502 0.9688
-1.5692 -8.1862 -2.9556 0.9652
-0.2730 -2.7135 -0.9670 0.9885
-0.0268 -2.4050 -0.8528 0.9898
0.3604 -2.1369 -0.7684 0.9908
12.6977 2.5809 -4.5945 0.9465
11.7405 3.4991 -4.3440 0.9493
9.7168 4.9101 -3.8603 0.9548
8.7017 5.4195 -3.6350 0.9574
7.7088 5.8135 -3.4236 0.9599
6.7499 6.1049 -3.2271 0.9621
5.8328 6.3064 -3.0460 0.9642
4.9622 6.4297 -2.8799 0.9661
3.3675 6.4836 -2.5906 0.9695
2.6213 6.3786 -2.4453 0.9712
1.8565 5.9846 -2.2218 0.9738
0.1896 5.6708 -2.0119 0.9762
-0.7900 5.4171 -1.9411 0.9770
-1.2316 5.1683 -1.8839 0.9777
-1.6418 4.9037 -1.8337 0.9783
-2.0223 4.6252 -1.7899 0.9788
-2.3750 4.3337 -1.7523 0.9792
-2.7011 4.0304 -1.7204 0.9796
-3.0023 3.7159 -1.6939 0.9799
-3.5335 3.0556 -1.6564 0.9804
-4.1642 1.9891 -1.6364 0.9806
-4.3319 1.6132 -1.6391 0.9806
-2.6624 0.4796 -0.9592 0.9886
-2.6060 0.2329 -0.9277 0.9890
-2.6498 -0.2368 -0.9934 0.9887
-2.7171 -0.4895 -1.0309 0.9883
-4.6862 -1.7451 -1.8673 0.9789
-4.6333 -2.2131 -1.9173 0.9783
-4.2292 -3.6571 -2.0878 0.9764
-3.7954 -4.6975 -2.2551 0.9745
-2.3052 -6.8854 -2.7114 0.9695
0.0778 -2.3277 -0.8697 0.9901
0.4524 -2.1051 -0.8040 0.9908
0.6363 -2.0512 -0.8019 0.9909
0.8297 -2.0189 -0.8151 0.9907
1.0412 -2.0048 -0.8435 0.9904
1.3050 -2.0442 -0.9056 0.9897
1.7015 -2.2048 -1.0400 0.9882
9.1726 -9.9174 -5.0444 0.9440
10.3428 -9.3546 -5.2075 0.9422
13.6078 -1.5223 -5.1130 0.9432
12.6611 0.8476 -4.7384 0.9473
11.9728 1.8827 -4.5257 0.9496
9.4461 4.2562 -3.8688 0.9567
8.5418 4.8055 -3.6597 0.9590
5.9010 5.8356 -3.0990 0.9652
4.2947 6.1094 -2.7886 0.9686
3.5514 6.1512 -2.6523 0.9701
2.8497 6.1408 -2.5279 0.9715
2.1893 6.0853 -2.4149 0.9728
1.5363 5.8638 -2.2635 0.9744
0.4429 5.6682 -2.1230 0.9760
-0.5349 5.3168 -1.9954 0.9774
-0.9761 5.0923 -1.9361 0.9781
-1.7690 4.5931 -1.8379 0.9792
-2.7569 3.7417 -1.7355 0.9804
-3.0374 3.4345 -1.7121 0.9806
-3.9384 2.1016 -1.6669 0.9811
-4.1107 1.7431 -1.6673 0.9811
-4.2622 1.3744 -1.6722 0.9811
-2.5436 0.5763 -0.9739 0.9889
-2.5921 0.1156 -0.9689 0.9890
-2.6307 -0.1173 -0.9833 0.9888
-2.6781 -0.3602 -1.0090 0.9885
-2.7556 -0.6243 -1.0551 0.9880
-2.8043 -0.9043 -1.1002 0.9875
-4.5737 -2.4406 -1.9358 0.9781
-4.4473 -2.9092 -1.9844 0.9776
-4.3113 -3.4046 -2.0513 0.9768
-3.9206 -4.4331 -2.2099 0.9750
-3.3447 -5.5061 -2.4056 0.9729
-2.5452 -6.6084 -2.6443 0.9702
-2.0479 -7.1618 -2.7815 0.9687
-1.4778 -7.7097 -2.9313 0.9670
-0.0270 -2.4275 -0.9065 0.9897
0.1759 -2.2504 -0.8429 0.9904
0.5444 -2.0780 -0.8021 0.9909
0.7290 -2.0263 -0.8041 0.9908
0.9335 -2.0117 -0.8281 0.9906
1.1683 -2.0236 -0.8725 0.9901
1.4760 -2.0996 -0.9584 0.9891
9.7680 -9.6598 -5.1298 0.9430
13.7306 -2.1591 -5.1902 0.9424
13.4355 -0.8994 -5.0282 0.9441
12.3313 1.3795 -4.6334 0.9484
9.8939 3.9377 -3.9764 0.9556
7.1963 5.4270 -3.3656 0.9622
6.3253 5.7209 -3.1847 0.9642
4.6817 6.0663 -2.8614 0.9678
3.9179 6.1373 -2.7189 0.9694
3.1953 6.1521 -2.5886 0.9708
2.5143 6.1183 -2.4700 0.9722
1.2425 5.7820 -2.2083 0.9751
0.7008 5.6901 -2.1408 0.9758
-0.7594 5.2068 -1.9649 0.9778
-2.2914 4.1813 -1.7804 0.9798
-2.9000 3.5895 -1.7231 0.9805
-3.1691 3.2768 -1.7022 0.9807
-3.4158 2.9538 -1.6863 0.9809
-3.6408 2.6205 -1.6750 0.9810
-3.8445 2.2771 -1.6685 0.9811
-4.0272 1.9236 -1.6665 0.9811
-4.1891 1.5600 -1.6692 0.9811
-3.4442 0.9435 -1.3335 0.9849
-2.5691 0.0000 -1.0083 0.9890
-2.6073 -0.2330 -1.0273 0.9888
-2.6685 -0.4807 -1.0642 0.9884
-2.7221 -0.7457 -1.1077 0.9879
-2.7584 -1.0272 -1.1552 0.9874
-4.4621 -2.1314 -1.9408 0.9790
-4.0588 -3.5098 -2.1059 0.9772
-3.8659 -3.9973 -2.1825 0.9764
-3.3496 -4.9979 -2.3613 0.9745
-0.1443 -2.5880 -1.0173 0.9889
0.6384 -2.0581 -0.8457 0.9908
1.0474 -2.0166 -0.8919 0.9903
8.3274 -9.0035 -4.8133 0.9487
9.3619 -8.4673 -4.9542 0.9472
10.3023 -7.7693 -5.0642 0.9461
12.4382 -3.7070 -5.0938 0.9458
10.3000 2.5762 -4.1670 0.9554
7.9592 4.4778 -3.5842 0.9615
7.1463 4.9057 -3.4020 0.9634
6.3421 5.2419 -3.2293 0.9653
5.5566 5.4951 -3.0671 0.9670
4.7969 5.6738 -2.9160 0.9686
4.0679 5.7866 -2.7761 0.9701
2.0884 5.8049 -2.4212 0.9738
0.9468 5.6131 -2.2341 0.9758
0.4275 5.4710 -2.1538 0.9767
-1.3366 4.6743 -1.9080 0.9793
-1.7063 4.4303 -1.8632 0.9798
-2.0501 4.1718 -1.8243 0.9802
-2.3691 3.9001 -1.7909 0.9806
-2.6644 3.6162 -1.7629 0.9809
-2.9369 3.3208 -1.7399 0.9811
-3.4162 2.6978 -1.7084 0.9815
-3.9781 1.6869 -1.6958 0.9816
-2.5568 0.5793 -1.0289 0.9888
-2.4911 0.3350 -0.9865 0.9893
-2.5889 -0.1154 -1.0171 0.9889
-2.6312 -0.3539 -1.0420 0.9887
-2.7055 -0.6130 -1.0887 0.9882
-4.4935 -1.9054 -1.9156 0.9792
-4.4082 -2.3523 -1.9610 0.9788
-4.2766 -2.7976 -2.0057 0.9783
-4.1405 -3.2697 -2.0707 0.9776
-3.9674 -3.7523 -2.1432 0.9768
-3.7538 -4.2445 -2.2239 0.9759
-3.4962 -4.7450 -2.3132 0.9750
-3.1904 -5.2521 -2.4118 0.9739
-2.8321 -5.7631 -2.5202 0.9728
-1.9394 -6.7825 -2.7686 0.9701
-1.3956 -7.2806 -2.9095 0.9686
-0.2842 -2.8247 -1.1142 0.9879
-0.0273 -2.4507 -0.9619 0.9895
0.5462 -2.0850 -0.8459 0.9908
0.7321 -2.0348 -0.8487 0.9908
0.9375 -2.0204 -0.8742 0.9905
1.1755 -2.0360 -0.9227 0.9899
1.4908 -2.1207 -1.0174 0.9889
7.7864 -9.2098 -4.7333 0.9495
9.8460 -8.1379 -5.0134 0.9466
11.4438 -6.4382 -5.1534 0.9451
12.3385 -4.2844 -5.1261 0.9454
12.4876 -3.1233 -5.0520 0.9462
12.4394 -1.9560 -4.9421 0.9473
12.2079 -0.8172 -4.8020 0.9488
11.8144 0.2633 -4.6380 0.9505
11.2855 1.2625 -4.4569 0.9524
10.6494 2.1646 -4.2651 0.9544
9.9341 2.9607 -4.0683 0.9564
9.1651 3.6476 -3.8714 0.9585
8.3650 4.2270 -3.6784 0.9605
7.5524 4.7037 -3.4920 0.9625
6.7425 5.0847 -3.3144 0.9644
5.9466 5.3783 -3.1468 0.9661
5.1732 5.5932 -2.9901 0.9678
4.4283 5.7379 -2.8446 0.9693
0.6830 5.5455 -2.1929 0.9763
-0.2905 5.2106 -2.0482 0.9778
-1.1416 4.7905 -1.9328 0.9791
-2.8034 3.4699 -1.7508 0.9810
-3.0648 3.1690 -1.7302 0.9812
-3.8973 1.8616 -1.6951 0.9816
-4.0537 1.5096 -1.6977 0.9816
-2.5634 0.4618 -1.0222 0.9889
-2.5207 0.2253 -0.9932 0.9892
-2.5289 0.0000 -1.0413 0.9891
-2.5656 -0.2292 -1.0607 0.9889
-4.0530 -2.9172 -2.0563 0.9786
-3.8997 -3.3721 -2.1229 0.9779
-3.4779 -4.3047 -2.2788 0.9763
-3.2030 -4.7792 -2.3691 0.9754
-2.8805 -5.2562 -2.4681 0.9744
-2.5066 -5.7327 -2.5764 0.9733
-2.0773 -6.2045 -2.6943 0.9721
-1.5887 -6.6666 -2.8221 0.9708
-1.0373 -7.1125 -2.9598 0.9694
0.2745 -2.2291 -0.9248 0.9903
0.4577 -2.1301 -0.8972 0.9906
0.6416 -2.0682 -0.8917 0.9907
0.8369 -2.0363 -0.9066 0.9905
1.3240 -2.0741 -1.0132 0.9894
1.8251 -2.3648 -1.2301 0.9872
8.5415 -7.7253 -4.7424 0.9514
10.1041 -6.2929 -4.9017 0.9498
11.0878 -4.4129 -4.9141 0.9497
11.3894 -2.3150 -4.7859 0.9510
11.2847 -1.2624 -4.6758 0.9521
11.0260 -0.2457 -4.5414 0.9534
10.6327 0.7118 -4.3881 0.9549
8.8756 3.0819 -3.8689 0.9602
8.1730 3.6826 -3.6913 0.9620
7.4448 4.1884 -3.5175 0.9637
6.7065 4.6037 -3.3497 0.9654
5.9705 4.9347 -3.1896 0.9670
4.5416 5.3718 -2.8966 0.9700
3.8612 5.4927 -2.7647 0.9714
2.5864 5.5736 -2.5302 0.9738
1.4358 5.4804 -2.3329 0.9758
0.9077 5.3814 -2.2472 0.9767
0.4105 5.2529 -2.1696 0.9775
-0.4951 4.9214 -2.0368 0.9788
-1.2892 4.5084 -1.9309 0.9799
-1.6471 4.2766 -1.8871 0.9804
-1.9804 4.0301 -1.8490 0.9808
-2.5769 3.4973 -1.7888 0.9814
-3.0849 2.9177 -1.7485 0.9818
-3.5091 2.2956 -1.7267 0.9820
-3.6907 1.9694 -1.7226 0.9821
-3.8521 1.6335 -1.7230 0.9821
-3.9933 1.2877 -1.7278 0.9820
-2.4504 0.3296 -1.0181 0.9894
-2.5068 0.1118 -1.0333 0.9892
-2.5854 -0.3477 -1.0742 0.9888
-2.6300 -0.5959 -1.1104 0.9884
-2.6464 -0.8534 -1.1450 0.9880
-4.2522 -2.2690 -1.9847 0.9794
-4.1185 -2.6942 -2.0266 0.9789
-3.8092 -3.6027 -2.1590 0.9776
-3.5987 -4.0691 -2.2369 0.9768
-2.7002 -5.4948 -2.5211 0.9739
-2.2991 -5.9695 -2.6341 0.9727
-1.3211 -6.8920 -2.8897 0.9701
-0.2992 -2.9745 -1.2310 0.9872
-0.0276 -2.4747 -1.0191 0.9894
0.3664 -2.1724 -0.9072 0.9905
9.7601 -6.7000 -4.8749 0.9501
10.4097 -5.8564 -4.9183 0.9496
11.3574 -1.7859 -4.7342 0.9515
10.8448 0.2417 -4.4668 0.9542
10.3926 1.1626 -4.3062 0.9558
7.8111 3.9471 -3.6038 0.9628
7.0761 4.4070 -3.4327 0.9646
6.3375 4.7794 -3.2686 0.9662
5.6064 5.0707 -3.1128 0.9678
2.8937 5.5714 -2.5852 0.9732
2.2869 5.5649 -2.4775 0.9743
1.7116 5.5177 -2.3789 0.9753
0.6553 5.3206 -2.2075 0.9771
0.1732 5.1788 -2.1337 0.9778
-0.2795 5.0127 -2.0673 0.9785
-0.7037 4.8251 -2.0079 0.9791
-1.8168 4.1551 -1.8674 0.9806
-2.4362 3.6351 -1.8020 0.9812
-2.7119 3.3566 -1.7769 0.9815
-2.9658 3.0667 -1.7568 0.9817
-3.4107 2.4549 -1.7305 0.9820
-3.9253 1.4618 -1.7248 0.9820
-3.5072 0.9607 -1.4974 0.9844
-2.4793 0.2215 -1.0250 0.9893
-2.4893 -0.0000 -1.0738 0.9892
-2.5389 -0.4574 -1.1128 0.9888
-2.5688 -0.9566 -1.1824 0.9881
-4.1495 -1.9821 -1.9836 0.9802
-4.0310 -2.3875 -2.0209 0.9798
-3.9028 -2.8090 -2.0742 0.9793
-3.3356 -4.1285 -2.2895 0.9771
-1.9775 -5.9065 -2.6868 0.9732
-0.9828 -6.7391 -2.9377 0.9708
-0.1498 -2.6867 -1.1607 0.9883
0.2769 -2.2484 -0.9772 0.9902
0.6472 -2.0862 -0.9422 0.9905
0.8449 -2.0560 -0.9588 0.9904
7.0100 -7.5791 -4.4533 0.9560
9.7795 -4.9418 -4.7265 0.9534
10.1580 -4.0428 -4.7160 0.9535
10.4572 -2.1255 -4.6030 0.9546
10.1660 -0.2265 -4.3863 0.9567
8.2789 2.8748 -3.7804 0.9625
6.9870 3.9308 -3.4581 0.9657
6.3126 4.3334 -3.3028 0.9672
4.9654 4.9104 -3.0123 0.9700
4.3091 5.0968 -2.8790 0.9713
2.4700 5.3227 -2.5312 0.9748
1.3760 5.2522 -2.3420 0.9766
0.8713 5.1651 -2.2595 0.9774
0.3945 5.0489 -2.1845 0.9782
-0.0546 4.9067 -2.1167 0.9789
-0.4770 4.7415 -2.0556 0.9795
-1.2444 4.3519 -1.9525 0.9805
-2.2151 3.6466 -1.8404 0.9816
-2.4937 3.3846 -1.8134 0.9819
-3.2037 2.5299 -1.7609 0.9824
-3.7323 1.5826 -1.7487 0.9825
-3.8688 1.2475 -1.7535 0.9824
-2.5715 0.5826 -1.1373 0.9886
-2.4106 0.3242 -1.0492 0.9895
-2.4655 0.1099 -1.0645 0.9893
-2.5077 -0.1118 -1.0828 0.9891
-2.6695 -1.1320 -1.2508 0.9874
-4.1039 -2.1899 -2.0065 0.9799
-3.9694 -2.5966 -2.0460 0.9795
-3.6612 -3.4627 -2.1737 0.9783
-3.4541 -3.9056 -2.2490 0.9775
-3.2067 -4.3522 -2.3319 0.9767
-2.9159 -4.8003 -2.4227 0.9758
0.7427 -2.0643 -0.9463 0.9905
0.9505 -2.0483 -0.9741 0.9902
1.1991 -2.0768 -1.0344 0.9896
9.5360 -5.3649 -4.7197 0.9535
10.2906 -3.5733 -4.6989 0.9537
10.2897 -0.6888 -4.4485 0.9561
10.0117 0.2231 -4.3197 0.9573
9.6209 1.0762 -4.1759 0.9587
9.1366 1.8571 -4.0217 0.9602
7.9676 3.1710 -3.6991 0.9633
5.2992 4.7928 -3.0821 0.9694
4.6351 5.0114 -2.9446 0.9707
3.3621 5.2666 -2.6953 0.9731
2.7608 5.3155 -2.5837 0.9742
1.6390 5.2836 -2.3862 0.9762
0.6294 5.1105 -2.2211 0.9778
0.1665 4.9808 -2.1497 0.9785
-0.2691 4.8268 -2.0853 0.9792
-1.7557 4.0154 -1.8904 0.9811
-3.0982 2.6791 -1.7668 0.9823
-3.3043 2.3782 -1.7561 0.9824
-3.4904 2.0673 -1.7499 0.9825
-2.4387 0.2179 -1.0561 0.9894
-2.4481 -0.2188 -1.1090 0.9893
-2.4593 -0.4431 -1.1275 0.9891
-2.4702 -0.6767 -1.1556 0.9888
-3.8916 -2.3050 -2.0409 0.9803
-3.6105 -3.1221 -2.1538 0.9793
-2.9402 -4.3871 -2.3830 0.9771
-2.2846 -5.2249 -2.5731 0.9753
-1.8857 -5.6321 -2.6800 0.9743
-1.4359 -6.0252 -2.7948 0.9732
-0.9332 -6.3982 -2.9175 0.9720
0.4659 -2.1681 -1.0006 0.9903
1.3785 -2.1594 -1.1560 0.9888
5.6788 -7.3582 -4.1939 0.9600
6.4862 -7.0128 -4.3102 0.9589
7.9336 -5.9830 -4.4836 0.9573
8.5290 -5.3119 -4.5338 0.9569
9.3616 -3.7258 -4.5464 0.9567
9.6555 -1.9626 -4.4458 0.9577
9.4206 -0.2099 -4.2518 0.9595
8.7426 1.3747 -3.9933 0.9619
6.5768 3.7000 -3.4049 0.9674
5.3323 4.4072 -3.1215 0.9701
0.8371 4.9629 -2.2710 0.9782
0.3796 4.8574 -2.1984 0.9788
-0.0526 4.7262 -2.1327 0.9795
-0.8428 4.3972 -2.0202 0.9805
-1.8519 3.7686 -1.8947 0.9817
-2.1439 3.5294 -1.8633 0.9820
-2.4147 3.2774 -1.8368 0.9823
-2.6649 3.0133 -1.8151 0.9825
-2.8949 2.7380 -1.7979 0.9827
-3.1051 2.4521 -1.7853 0.9828
-3.2956 2.1559 -1.7770 0.9829
-3.6182 1.5343 -1.7733 0.9829
-2.5489 0.5775 -1.1792 0.9886
-2.4395 -0.1088 -1.1018 0.9893
-2.4521 -0.3298 -1.1164 0.9892
-2.4891 -1.0554 -1.2199 0.9882
-3.5223 -3.3314 -2.1876 0.9789
-3.3187 -3.7525 -2.2604 0.9783
-3.0766 -4.1756 -2.3403 0.9775
-2.7932 -4.5983 -2.4276 0.9767
-2.0913 -5.4300 -2.6255 0.9748
-1.1913 -6.2146 -2.8552 0.9726
-0.6614 -6.5750 -2.9817 0.9714
-0.0283 -2.5412 -1.1467 0.9889
0.5596 -2.1359 -0.9963 0.9904
0.7502 -2.0854 -1.0000 0.9903
0.9605 -2.0698 -1.0296 0.9900
1.6004 -2.2766 -1.2557 0.9879
6.8732 -6.7971 -4.3617 0.9585
8.2442 -5.6593 -4.5121 0.9571
8.7858 -4.9428 -4.5486 0.9567
9.2029 -4.1466 -4.5546 0.9567
9.4865 -3.2941 -4.5312 0.9569
9.6334 -2.4095 -4.4806 0.9574
9.2880 0.2070 -4.1920 0.9601
8.9469 1.0009 -4.0622 0.9613
7.4692 2.9727 -3.6273 0.9653
6.8806 3.4769 -3.4785 0.9667
6.2686 3.9041 -3.3322 0.9681
5.6451 4.2572 -3.1903 0.9694
4.4013 4.7587 -2.9248 0.9720
3.2062 5.0224 -2.6886 0.9742
2.6379 5.0787 -2.5823 0.9752
0.6052 4.9136 -2.2338 0.9785
-1.0254 4.3027 -1.9958 0.9808
-1.3730 4.1008 -1.9513 0.9812
-2.2819 3.4049 -1.8495 0.9822
-2.5424 3.1468 -1.8254 0.9824
-3.0025 2.5963 -1.7910 0.9827
-3.2028 2.3052 -1.7806 0.9828
-3.5449 1.6933 -1.7726 0.9829
-3.6867 1.3729 -1.7751 0.9829
-2.4063 0.4335 -1.1032 0.9893
-2.3848 0.2131 -1.0804 0.9895
-2.3615 0.0000 -1.1132 0.9896
-2.3816 -0.4291 -1.1407 0.9894
-2.4034 -0.8950 -1.2089 0.9887
-3.7596 -2.2268 -2.0598 0.9809
-3.4787 -3.0081 -2.1678 0.9799
-2.8219 -4.2106 -2.3893 0.9778
-2.1856 -4.9986 -2.5716 0.9762
-0.1595 -2.8610 -1.3507 0.9874
0.0821 -2.4572 -1.1589 0.9892
0.4702 -2.1880 -1.0549 0.9902
0.8627 -2.0993 -1.0698 0.9900
