ply
format ascii 1.0
element vertex 1583
property float32 x
property float32 y
property float32 z
property float32 I
end_header
-2.5150 -2.6006 0.6379 0.9854
-2.0819 -2.5768 0.5841 0.9866
1.6608 4.6162 0.8650 0.9803
-2.2751 -2.5726 0.6056 0.9861
-1.9106 -2.5931 0.5679 0.9870
-1.3805 -2.8093 0.5519 0.9874
-1.7584 -2.6237 0.5029 0.9873
-1.0291 -3.0739 0.5162 0.9870
-0.6053 -4.1507 0.6679 0.9832
-2.2630 -2.5589 0.5440 0.9863
-1.9035 -2.5835 0.5110 0.9871
1.4527 4.6829 0.7807 0.9803
-2.4871 -2.5717 0.5089 0.9856
-1.7542 -2.6175 0.4482 0.9874
-1.4887 -2.7166 0.4406 0.9876
-1.0241 -3.0590 0.4588 0.9871
-2.8138 -2.6613 0.5509 0.9845
-1.3672 -2.7821 0.4409 0.9876
-0.9151 -3.2003 0.4734 0.9866
-0.6888 -3.5936 0.5204 0.9853
1.4486 4.6698 0.6954 0.9804
-2.0600 -2.5497 0.4108 0.9869
-1.4864 -2.7123 0.3876 0.9876
-1.2457 -2.8491 0.3897 0.9875
-0.7969 -3.3439 0.4308 0.9862
-0.5748 -3.9412 0.4991 0.9841
-2.2398 -2.5326 0.4237 0.9865
-1.3650 -2.7777 0.3878 0.9876
-2.4600 -2.5436 0.3838 0.9859
-2.0529 -2.5409 0.3543 0.9869
-1.7459 -2.6051 0.3402 0.9875
-1.0159 -3.0343 0.3471 0.9872
-0.7930 -3.3276 0.3710 0.9863
-0.5711 -3.9156 0.4292 0.9842
-2.2318 -2.5236 0.3654 0.9865
-1.8876 -2.5619 0.3452 0.9873
-1.6081 -2.6474 0.3360 0.9876
-1.3628 -2.7733 0.3352 0.9876
-0.9066 -3.1705 0.3577 0.9868
1.4474 4.6658 0.5299 0.9805
-1.4816 -2.7037 0.2826 0.9877
-1.2433 -2.8436 0.2845 0.9876
-0.7891 -3.3114 0.3121 0.9864
-0.5674 -3.8903 0.3604 0.9843
-2.7419 -2.5933 0.3460 0.9850
-1.8831 -2.5558 0.2910 0.9873
-1.6044 -2.6413 0.2833 0.9877
-1.1308 -2.9360 0.2884 0.9874
-0.9049 -3.1646 0.3017 0.9869
-0.6782 -3.5381 0.3303 0.9856
1.4469 4.6642 0.4477 0.9806
-1.7378 -2.5931 0.2339 0.9876
-1.4793 -2.6995 0.2307 0.9877
-0.7889 -3.3104 0.2550 0.9864
-2.7378 -2.5894 0.2824 0.9850
-2.2205 -2.5107 0.2512 0.9866
-1.8787 -2.5498 0.2373 0.9874
-1.6007 -2.6352 0.2311 0.9877
-0.9045 -3.1633 0.2466 0.9869
-1.7344 -2.5879 0.1814 0.9876
-1.0142 -3.0292 0.1861 0.9873
-2.7337 -2.5856 0.2192 0.9850
-1.8780 -2.5489 0.1844 0.9874
-1.1286 -2.9303 0.1829 0.9875
-0.6748 -3.5206 0.2088 0.9857
-2.4438 -2.5269 0.1462 0.9860
-1.7362 -2.5906 0.1297 0.9876
-1.2397 -2.8354 0.1287 0.9877
-0.5605 -3.8435 0.1615 0.9846
-2.7297 -2.5818 0.1562 0.9851
-1.5983 -2.6312 0.1280 0.9878
-1.3543 -2.7559 0.1277 0.9878
-1.1275 -2.9274 0.1304 0.9875
-3.4172 -2.9550 0.1127 0.9821
-1.4775 -2.6961 0.0767 0.9878
-1.0134 -3.0269 0.0796 0.9873
-0.7897 -3.3136 0.0850 0.9865
-12.5112 8.1845 0.3728 0.9419
-13.0894 6.9847 0.3700 0.9424
-13.6792 5.8005 0.3705 0.9423
-2.7257 -2.5780 0.0936 0.9851
-1.8821 -2.5544 0.0791 0.9874
-1.3546 -2.7565 0.0766 0.9878
-1.1264 -2.9246 0.0782 0.9875
-0.9034 -3.1596 0.0819 0.9869
-0.6753 -3.5231 0.0895 0.9857
-12.7996 7.5812 0.3710 0.9422
-13.3821 6.3921 0.3698 0.9424
-2.4427 -2.5258 0.0292 0.9860
-1.7400 -2.5962 0.0260 0.9876
-1.4799 -2.7006 0.0256 0.9878
-10.8543 8.5716 0.1149 0.9462
-11.9320 6.3671 0.1124 0.9473
-13.0144 4.1966 0.1136 0.9468
-14.1786 1.9068 0.1189 0.9444
-14.8209 0.6609 0.1233 0.9424
-2.7217 -2.5742 0.0311 0.9851
-1.8842 -2.5572 0.0264 0.9874
-0.9031 -3.1583 0.0273 0.9869
-0.6755 -3.5243 0.0298 0.9857
1.4511 4.6778 0.0407 0.9806
-9.3935 11.6266 0.1242 0.9420
-10.0031 10.3431 0.1196 0.9441
-10.5769 9.1462 0.1162 0.9456
-11.6650 6.9092 0.1127 0.9472
-13.2945 3.6417 0.1146 0.9464
-14.4933 1.2951 0.1209 0.9435
-13.7964 0.0000 -0.1147 0.9463
-14.2388 -1.2724 -0.1188 0.9444
-1.4824 -2.7050 -0.0256 0.9877
-1.2444 -2.8460 -0.0258 0.9877
-0.5633 -3.8621 -0.0324 0.9845
-9.9545 7.8610 -0.1054 0.9505
-10.4656 6.8463 -0.1039 0.9512
-11.4542 4.8570 -0.1034 0.9515
-12.9662 1.7438 -0.1087 0.9490
-13.5108 0.6025 -0.1124 0.9473
-2.7330 -2.5849 -0.0313 0.9851
-2.2263 -2.5173 -0.0279 0.9866
-1.8862 -2.5600 -0.0264 0.9874
-0.6758 -3.5255 -0.0298 0.9857
1.4530 4.6841 -0.0408 0.9806
-10.2123 7.3504 -0.1046 0.9509
-11.2089 5.3540 -0.1032 0.9515
-11.6998 4.3571 -0.1038 0.9513
-12.1957 3.3408 -0.1051 0.9507
-12.7044 2.2888 -0.1073 0.9497
-12.6550 -0.0000 -0.3156 0.9506
-14.0398 -3.8459 -0.3630 0.9434
-2.0454 -2.5317 -0.0812 0.9871
-1.7437 -2.6018 -0.0781 0.9875
-1.2473 -2.8527 -0.0776 0.9876
-1.0194 -3.0449 -0.0801 0.9872
-0.5641 -3.8683 -0.0975 0.9845
1.2654 4.8298 -0.1245 0.9802
-6.2024 12.6216 -0.3507 0.9453
-6.9179 11.3886 -0.3323 0.9481
-9.6746 6.3288 -0.2883 0.9548
-11.0406 3.5601 -0.2893 0.9546
-11.9446 1.6064 -0.3006 0.9529
-12.9031 -0.5754 -0.3221 0.9496
-13.2177 -1.7776 -0.3326 0.9480
-13.7491 -3.1151 -0.3516 0.9452
-2.2300 -2.5215 -0.0839 0.9866
-1.3613 -2.7701 -0.0770 0.9877
-1.1323 -2.9401 -0.0786 0.9875
-0.9069 -3.1718 -0.0823 0.9869
-0.6764 -3.5289 -0.0896 0.9857
1.4550 4.6904 -0.1225 0.9805
-5.8101 13.2880 -0.3617 0.9436
-8.4193 8.7054 -0.3020 0.9527
-8.9422 7.7326 -0.2948 0.9538
-9.4360 6.7917 -0.2899 0.9545
-9.9087 5.8690 -0.2872 0.9550
-10.3669 4.9519 -0.2865 0.9551
-10.8169 4.0283 -0.2879 0.9549
-12.1768 1.0881 -0.3049 0.9523
-12.0840 -1.0798 -0.5044 0.9526
-13.3051 -4.9549 -0.5903 0.9447
-2.0516 -2.5393 -0.1357 0.9870
-1.2503 -2.8595 -0.1298 0.9876
-1.0229 -3.0551 -0.1340 0.9872
-0.5693 -3.9034 -0.1640 0.9843
1.2591 4.8059 -0.2066 0.9803
-3.7769 13.2089 -0.5712 0.9465
-6.9776 9.4701 -0.4891 0.9540
-8.0548 7.6182 -0.4610 0.9566
-8.5379 6.7423 -0.4523 0.9574
-9.8510 4.1772 -0.4449 0.9581
-10.2617 3.3090 -0.4483 0.9578
-10.6670 2.4168 -0.4548 0.9572
-11.0715 1.4890 -0.4645 0.9563
-11.4799 0.5119 -0.4778 0.9550
-12.1666 -1.6363 -0.5104 0.9520
-13.5682 -5.7534 -0.6128 0.9427
-2.7689 -2.6189 -0.1585 0.9849
-2.2407 -2.5336 -0.1406 0.9866
-1.8904 -2.5656 -0.1325 0.9873
-1.6116 -2.6531 -0.1291 0.9876
-1.3635 -2.7747 -0.1285 0.9877
-1.1351 -2.9472 -0.1313 0.9874
1.4587 4.7024 -0.2047 0.9805
-3.3128 13.9011 -0.5942 0.9444
-4.4817 13.3861 -0.5870 0.9451
-5.3065 12.1364 -0.5508 0.9484
-6.6780 9.9643 -0.4988 0.9531
-7.8011 8.0663 -0.4666 0.9561
-8.3001 7.1774 -0.4563 0.9570
-8.7690 6.3115 -0.4492 0.9577
-9.2144 5.4577 -0.4453 0.9580
-10.0573 3.7454 -0.4462 0.9579
-10.4648 2.8666 -0.4512 0.9575
-11.2749 1.0075 -0.4707 0.9557
-10.8559 -0.0000 -0.6323 0.9574
-11.2137 -1.0021 -0.6557 0.9559
-11.4187 -2.0572 -0.6758 0.9546
-11.7862 -3.2286 -0.7118 0.9522
-12.1696 -4.5320 -0.7564 0.9493
-12.5765 -6.0073 -0.8118 0.9457
-2.0612 -2.5512 -0.1910 0.9869
-1.7501 -2.6113 -0.1831 0.9875
-1.0263 -3.0655 -0.1883 0.9871
-0.8013 -3.3625 -0.2013 0.9862
1.2556 4.7926 -0.2886 0.9803
-1.4729 14.6412 -0.8571 0.9427
-4.5052 11.6975 -0.7301 0.9510
-5.2378 10.6587 -0.6917 0.9535
-6.4783 8.7925 -0.6361 0.9572
-8.8129 4.7027 -0.5818 0.9608
-9.2056 3.9035 -0.5824 0.9607
-9.5846 3.0906 -0.5865 0.9605
-10.3164 1.3874 -0.6063 0.9592
-11.2675 -1.5154 -0.6622 0.9555
-11.9755 -3.8616 -0.7329 0.9508
-12.3693 -5.2451 -0.7825 0.9476
-12.7923 -6.8262 -0.8445 0.9436
-2.7873 -2.6362 -0.2235 0.9847
-2.2515 -2.5459 -0.1980 0.9865
-1.8994 -2.5779 -0.1865 0.9873
-1.6143 -2.6575 -0.1811 0.9876
-0.6861 -3.5795 -0.2123 0.9855
-2.0322 13.9344 -0.8202 0.9451
-3.0128 12.6423 -0.7570 0.9493
-5.5729 10.1693 -0.6754 0.9546
-7.2668 7.5138 -0.6088 0.9590
-8.1892 5.8943 -0.5877 0.9604
-9.7702 2.6763 -0.5900 0.9602
-10.4964 0.9380 -0.6138 0.9587
-10.4456 -0.9334 -0.7859 0.9588
-11.2109 -4.1750 -0.8965 0.9531
-11.8371 -7.0112 -1.0310 0.9463
-2.0709 -2.5632 -0.2469 0.9869
-1.7583 -2.6236 -0.2367 0.9874
-0.5891 -4.0394 -0.3059 0.9838
1.2521 4.7794 -0.3703 0.9804
-0.1624 14.5796 -1.0927 0.9432
-2.3238 12.1235 -0.9251 0.9517
-4.1626 10.8080 -0.8680 0.9546
-4.8590 9.8878 -0.8256 0.9568
-8.9902 2.8990 -0.7079 0.9628
-9.3286 2.1136 -0.7168 0.9624
-9.9761 0.4448 -0.7484 0.9607
-10.7582 -2.4375 -0.8266 0.9567
-11.0592 -3.5661 -0.8708 0.9545
-11.3639 -4.8188 -0.9250 0.9517
-11.6763 -6.2307 -0.9918 0.9483
-12.0019 -7.8513 -1.0748 0.9441
-2.8059 -2.6538 -0.2894 0.9846
-2.2625 -2.5583 -0.2559 0.9864
1.4696 4.7376 -0.3717 0.9803
-0.7754 13.9062 -1.0437 0.9457
-1.8503 12.6872 -0.9608 0.9499
-2.7622 11.5907 -0.8929 0.9533
-4.5210 10.3398 -0.8457 0.9557
-6.3074 7.8068 -0.7521 0.9605
-6.8001 7.0313 -0.7330 0.9615
-7.2557 6.2743 -0.7188 0.9623
-8.4567 4.0395 -0.7023 0.9631
-9.1609 2.5094 -0.7118 0.9626
-9.8171 0.8773 -0.7386 0.9612
-9.7712 -0.8731 -0.8994 0.9614
-9.9072 -1.7848 -0.9229 0.9604
-10.6235 -5.0745 -1.0793 0.9538
-11.2979 -9.7697 -1.3693 0.9418
-2.5062 -2.5915 -0.3305 0.9856
-1.5016 -2.7401 -0.2865 0.9875
-1.2607 -2.8833 -0.2885 0.9874
1.2491 4.7675 -0.4518 0.9804
-0.1474 13.2306 -1.2130 0.9482
-1.2217 12.1449 -1.1190 0.9522
-2.1390 11.1595 -1.0417 0.9554
-3.8678 10.0426 -0.9866 0.9577
-5.1256 8.4380 -0.9051 0.9611
-5.6649 7.6886 -0.8755 0.9624
-6.6110 6.2527 -0.8342 0.9641
-7.0311 5.5524 -0.8214 0.9647
-7.7899 4.1568 -0.8095 0.9652
-8.1361 3.4500 -0.8102 0.9651
-8.4640 2.7293 -0.8153 0.9649
-8.7762 1.9884 -0.8250 0.9645
-10.2713 -3.3121 -0.9894 0.9576
-10.5077 -4.4557 -1.0464 0.9552
-11.1878 -8.8349 -1.3069 0.9443
-2.2737 -2.5709 -0.3146 0.9863
-1.9178 -2.6029 -0.2964 0.9871
-1.6301 -2.6836 -0.2879 0.9875
-1.1433 -2.9685 -0.2916 0.9873
-0.9197 -3.2164 -0.3067 0.9867
-0.6976 -3.6397 -0.3398 0.9852
1.4752 4.7555 -0.4565 0.9802
-0.7065 12.6720 -1.1635 0.9503
-1.6980 11.6425 -1.0787 0.9538
-3.2924 9.8341 -0.9508 0.9592
-5.4016 8.0598 -0.8895 0.9618
-5.9166 7.3231 -0.8631 0.9629
-6.8249 5.9017 -0.8272 0.9644
-7.6091 4.5069 -0.8108 0.9651
-7.9654 3.8047 -0.8093 0.9652
-8.6219 2.3618 -0.8196 0.9647
-9.2962 -1.6748 -1.0246 0.9627
-9.4892 -2.5994 -1.0672 0.9612
-9.6797 -3.6048 -1.1204 0.9593
-9.8552 -4.7075 -1.1847 0.9570
-10.0141 -5.9314 -1.2624 0.9543
-10.1545 -7.3088 -1.3571 0.9509
-2.5290 -2.6150 -0.3946 0.9855
-2.0907 -2.5877 -0.3608 0.9867
-1.5094 -2.7544 -0.3407 0.9874
-0.6116 -4.1933 -0.4597 0.9831
2.4085 14.2784 -1.5706 0.9434
1.0258 13.1269 -1.4282 0.9484
-0.1348 12.1070 -1.3133 0.9525
-1.9811 10.3351 -1.1414 0.9585
-2.7286 9.5426 -1.0765 0.9609
-4.2428 8.6338 -1.0435 0.9620
-4.8120 7.9217 -1.0053 0.9634
-5.3290 7.2326 -0.9744 0.9645
-5.8016 6.5600 -0.9499 0.9654
-7.3609 3.9279 -0.9050 0.9670
-7.6875 3.2599 -0.9057 0.9670
-4.7637 1.0793 -0.5298 0.9805
-3.7330 0.1664 -0.4053 0.9851
-3.9257 -0.1751 -0.4262 0.9843
-9.2533 -1.2445 -1.0127 0.9631
-9.3887 -2.1272 -1.0442 0.9620
-9.5862 -3.0912 -1.0925 0.9603
-9.7694 -4.1426 -1.1510 0.9582
-9.9369 -5.3025 -1.2217 0.9557
-10.2165 -8.0679 -1.4120 0.9490
-2.8963 -2.7394 -0.4324 0.9841
-2.2849 -2.5836 -0.3741 0.9862
-1.9271 -2.6156 -0.3524 0.9870
-1.6387 -2.6977 -0.3424 0.9874
-0.9232 -3.2287 -0.3642 0.9866
-0.7036 -3.6707 -0.4054 0.9851
0.4214 12.6028 -1.3677 0.9505
-0.6488 11.6361 -1.2641 0.9542
-1.5684 10.7543 -1.1788 0.9572
-2.3668 9.9318 -1.1074 0.9598
-3.9355 9.0008 -1.0655 0.9612
-5.0765 7.5747 -0.9891 0.9640
-5.5704 6.8946 -0.9614 0.9650
-6.0234 6.2282 -0.9398 0.9657
-7.1894 4.2583 -0.9063 0.9669
-7.8435 2.9209 -0.9078 0.9669
-3.7700 -0.3369 -0.4743 0.9849
-8.7531 -1.5770 -1.1146 0.9648
-9.0579 -3.3733 -1.2113 0.9618
-9.2951 -5.5055 -1.3538 0.9574
-9.3743 -6.7472 -1.4474 0.9545
-1.2761 -2.9185 -0.3992 0.9872
1.2482 4.7641 -0.6172 0.9803
0.9388 12.0134 -1.5101 0.9526
-0.1242 11.1561 -1.3981 0.9560
-2.5503 8.9190 -1.1625 0.9633
-3.3858 8.7912 -1.1806 0.9627
-5.0296 6.8263 -1.0626 0.9664
-5.4835 6.2003 -1.0373 0.9672
-5.9008 5.5810 -1.0178 0.9678
-6.2862 4.9642 -1.0038 0.9682
-6.9753 3.7221 -0.9908 0.9686
-7.2846 3.0889 -0.9916 0.9686
-4.3832 0.9931 -0.5632 0.9820
-3.5347 0.1576 -0.4434 0.9858
-3.6310 -0.1619 -0.4555 0.9855
-8.8242 -1.9993 -1.1339 0.9642
-8.9848 -2.8973 -1.1830 0.9627
-9.1259 -3.8697 -1.2422 0.9608
-9.2449 -4.9333 -1.3132 0.9586
-9.4023 -7.4249 -1.5014 0.9529
-2.3038 -2.6050 -0.4358 0.9861
-1.3932 -2.8352 -0.3959 0.9873
-1.1577 -3.0059 -0.4037 0.9871
-0.9316 -3.2582 -0.4247 0.9864
2.8946 13.4700 -1.7266 0.9460
1.5363 12.4732 -1.5749 0.9506
-0.5996 10.7539 -1.3497 0.9575
-2.2080 9.2654 -1.1936 0.9623
-5.2614 6.5122 -1.0492 0.9668
-6.4681 4.6554 -0.9987 0.9684
-6.8123 4.0349 -0.9922 0.9686
-7.1327 3.4070 -0.9906 0.9686
-7.4314 2.7675 -0.9938 0.9685
-3.8076 0.6859 -0.4848 0.9845
-3.5366 0.3160 -0.4450 0.9858
-3.5138 -0.3140 -0.5018 0.9858
-8.3898 -2.2982 -1.2373 0.9655
-8.6701 -5.1353 -1.4333 0.9601
-8.7034 -6.2643 -1.5252 0.9576
-2.5941 -2.6823 -0.5308 0.9850
-2.1196 -2.6236 -0.4797 0.9865
-1.2840 -2.9366 -0.4559 0.9871
-1.0550 -3.1511 -0.4727 0.9867
-0.8304 -3.4845 -0.5095 0.9856
1.2477 4.7624 -0.7003 0.9803
0.8651 11.0704 -1.5794 0.9561
-4.2847 7.0536 -1.1739 0.9672
-5.1973 5.8767 -1.1159 0.9688
-5.5983 5.2948 -1.0960 0.9693
-6.3100 4.1279 -1.0725 0.9700
-6.6268 3.5361 -1.0684 0.9701
-4.1432 0.9387 -0.6042 0.9830
-8.5597 -3.6296 -1.3224 0.9631
-8.6407 -4.6108 -1.3931 0.9612
-8.6912 -5.6856 -1.4772 0.9589
-8.7055 -6.8747 -1.5778 0.9562
-2.3285 -2.6329 -0.4999 0.9859
-0.9413 -3.2920 -0.4870 0.9863
4.0865 13.1734 -1.9618 0.9458
2.6377 12.2745 -1.7857 0.9505
1.4109 11.4555 -1.6417 0.9544
-0.5572 9.9930 -1.4236 0.9604
-1.3598 9.3236 -1.3402 0.9626
-2.0686 8.6805 -1.2693 0.9646
-3.4814 7.9622 -1.2360 0.9655
-4.0296 7.3532 -1.1926 0.9667
-4.5282 6.7566 -1.1569 0.9677
-4.9838 6.1686 -1.1280 0.9685
-6.1424 4.4210 -1.0765 0.9699
-6.4714 3.8330 -1.0698 0.9701
-6.7763 3.2368 -1.0681 0.9701
-7.0590 2.6288 -1.0714 0.9700
-3.6716 0.6615 -0.5307 0.9850
-3.2915 -0.0000 -0.5241 0.9868
-7.8368 -1.4118 -1.2680 0.9683
-7.9274 -2.1716 -1.3089 0.9673
-8.0208 -2.9870 -1.3629 0.9659
-8.0743 -6.9822 -1.6998 0.9577
-2.1418 -2.6509 -0.5427 0.9863
-1.5335 -2.7984 -0.5081 0.9872
6.1268 13.2028 -2.3177 0.9428
-0.1073 9.6330 -1.5340 0.9617
-0.9087 9.0328 -1.4456 0.9639
-2.8690 7.4493 -1.2711 0.9682
-4.0607 6.6848 -1.2455 0.9688
-4.5186 6.1327 -1.2130 0.9696
-4.9383 5.5838 -1.1870 0.9703
-5.6794 4.4850 -1.1524 0.9711
-6.5892 2.7941 -1.1397 0.9714
-6.8466 2.2077 -1.1455 0.9713
-3.9744 0.9005 -0.6489 0.9836
-3.2540 0.4376 -0.5228 0.9868
-3.2599 0.1453 -0.5196 0.9869
-3.4817 -0.4683 -0.5594 0.9859
-7.8722 -1.7836 -1.2853 0.9678
-8.0574 -3.4167 -1.3936 0.9652
-8.1029 -6.3988 -1.6441 0.9590
-2.3539 -2.6616 -0.5658 0.9857
-1.6650 -2.7410 -0.5107 0.9871
-1.4105 -2.8703 -0.5093 0.9871
-1.1754 -3.0521 -0.5208 0.9868
-0.7370 -3.8448 -0.6234 0.9843
5.2537 12.7839 -2.2009 0.9456
3.7219 11.9981 -2.0003 0.9504
2.4217 11.2696 -1.8355 0.9544
1.3040 10.5876 -1.6987 0.9577
0.3325 9.9433 -1.5842 0.9605
-1.9452 8.1626 -1.3362 0.9666
-2.5461 7.6048 -1.2770 0.9680
-3.2903 7.5251 -1.3078 0.9673
-4.2947 6.4082 -1.2284 0.9692
-4.7329 5.8581 -1.1992 0.9700
-5.5053 4.7607 -1.1590 0.9710
-5.8466 4.2081 -1.1471 0.9712
-6.1616 3.6495 -1.1403 0.9714
-6.4524 3.0820 -1.1387 0.9715
-6.7206 2.5028 -1.1420 0.9714
-4.5041 1.2338 -0.7436 0.9813
-7.4544 -1.3430 -1.3356 0.9697
-7.5833 -2.8241 -1.4269 0.9677
-7.6260 -3.6427 -1.4902 0.9663
-1.5437 -2.8170 -0.5664 0.9870
-1.3002 -2.9736 -0.5723 0.9869
5.5500 11.9599 -2.3248 0.9479
1.2468 4.7591 -0.8675 0.9802
0.7470 9.5587 -1.6906 0.9618
-0.1004 9.0131 -1.5894 0.9641
-1.5255 7.9584 -1.4288 0.9676
-2.7485 7.1364 -1.3485 0.9694
-3.8579 6.3510 -1.3103 0.9703
-4.2985 5.8341 -1.2778 0.9710
-5.0742 4.7992 -1.2315 0.9720
-5.7308 3.7489 -1.2075 0.9726
-6.2868 2.6659 -1.2041 0.9726
-6.5309 2.1059 -1.2100 0.9725
-3.8238 0.8663 -0.6913 0.9842
-3.2276 -0.1439 -0.5697 0.9870
-7.5507 -2.4348 -1.3989 0.9683
-7.5757 -5.9825 -1.7021 0.9616
-1.9855 -2.6947 -0.5902 0.9865
-1.1846 -3.0758 -0.5812 0.9867
4.7818 11.6356 -2.2182 0.9502
3.4155 11.0105 -2.0327 0.9543
1.2117 9.8382 -1.7479 0.9605
-0.4876 8.7463 -1.5446 0.9650
-3.1182 7.1315 -1.3724 0.9689
-4.0831 6.0924 -1.2932 0.9707
-4.5050 5.5759 -1.2640 0.9713
-4.8923 5.0587 -1.2409 0.9718
-5.2486 4.5387 -1.2235 0.9722
-5.5766 4.0139 -1.2115 0.9725
-5.8787 3.4820 -1.2048 0.9726
-4.2904 1.1752 -0.7844 0.9821
-3.4371 0.6192 -0.6158 0.9859
-3.1014 -0.0000 -0.6002 0.9874
-3.1775 -0.2840 -0.6174 0.9871
-7.1346 -1.9544 -1.4315 0.9703
-7.1889 -2.6772 -1.4845 0.9692
-2.7552 -2.8488 -0.7669 0.9840
-1.5593 -2.8455 -0.6279 0.9869
-1.3112 -2.9987 -0.6334 0.9868
-0.8658 -3.6333 -0.7228 0.9849
8.3997 11.9487 -2.8265 0.9422
3.7486 10.4192 -2.1428 0.9559
1.5903 9.4276 -1.8502 0.9618
-0.0943 8.4651 -1.6383 0.9661
-0.8041 7.9931 -1.5546 0.9678
-2.0162 7.0513 -1.4192 0.9706
-3.2100 6.5323 -1.4085 0.9708
-4.4874 5.0740 -1.3108 0.9728
-4.8454 4.5828 -1.2906 0.9732
-5.7551 3.0710 -1.2624 0.9738
-6.0095 2.5482 -1.2632 0.9738
-6.2414 2.0126 -1.2691 0.9736
-3.0751 0.1371 -0.5957 0.9875
-3.1273 -0.1395 -0.6058 0.9873
-7.1071 -1.6103 -1.4102 0.9707
-7.1653 -2.3106 -1.4569 0.9698
-7.2048 -3.0552 -1.5144 0.9686
-7.2121 -3.8485 -1.5819 0.9672
-7.1825 -4.6986 -1.6609 0.9656
-1.6973 -2.7942 -0.6327 0.9868
-0.9719 -3.3989 -0.6841 0.9857
3.1544 10.1686 -2.0603 0.9576
2.0786 9.6728 -1.9146 0.9605
1.1312 9.1844 -1.7908 0.9630
0.2910 8.7031 -1.6852 0.9651
-2.2830 6.8190 -1.3916 0.9711
-3.4469 6.2898 -1.3880 0.9712
-3.8902 5.8046 -1.3522 0.9719
-4.2968 5.3182 -1.3231 0.9725
-5.0135 4.3354 -1.2826 0.9734
-5.8851 2.8111 -1.2621 0.9738
-3.2303 -0.5820 -0.6920 0.9867
-6.6337 -5.7364 -1.8489 0.9648
-2.8656 -2.9630 -0.8690 0.9833
-2.2141 -2.7404 -0.7427 0.9857
9.4206 11.1428 -3.0762 0.9421
7.5976 10.8076 -2.7851 0.9474
3.4708 9.6470 -2.1614 0.9590
0.6563 8.3984 -1.7759 0.9661
-0.0888 7.9771 -1.6818 0.9679
-0.7598 7.5527 -1.6003 0.9694
-1.3654 7.1234 -1.5291 0.9708
-1.9143 6.6948 -1.4680 0.9719
-2.5714 6.6766 -1.5083 0.9712
-3.0586 6.2241 -1.4620 0.9720
-3.5047 5.7696 -1.4232 0.9728
-4.2897 4.8505 -1.3651 0.9739
-5.5105 2.9405 -1.3168 0.9748
-5.7539 2.4399 -1.3176 0.9748
-3.0505 -0.1361 -0.6438 0.9876
-6.7738 -1.5348 -1.4643 0.9720
-6.8152 -2.1976 -1.5096 0.9712
-6.8396 -2.9003 -1.5662 0.9701
-6.8310 -3.6452 -1.6323 0.9688
-6.5576 -6.2021 -1.9029 0.9638
-1.7149 -2.8231 -0.6964 0.9866
-1.2109 -3.1441 -0.7103 0.9863
8.4742 10.9802 -2.9241 0.9449
6.7841 10.6270 -2.6580 0.9498
5.3223 10.2472 -2.4343 0.9539
4.0480 9.8500 -2.2451 0.9574
2.9290 9.4419 -2.0841 0.9604
1.9398 9.0272 -1.9466 0.9630
1.0603 8.6085 -1.8286 0.9652
0.2738 8.1878 -1.7271 0.9671
-0.4330 7.7661 -1.6398 0.9687
-1.0702 7.3379 -1.5634 0.9701
-1.6465 6.9090 -1.4974 0.9714
-2.8204 6.4506 -1.4842 0.9716
-4.4661 4.6179 -1.3544 0.9741
-4.7972 4.1483 -1.3370 0.9744
-5.1013 3.6717 -1.3251 0.9746
-5.6351 2.6917 -1.3166 0.9748
-4.0001 1.0957 -0.8744 0.9832
-3.2435 0.5843 -0.6948 0.9866
-2.9709 -0.0000 -0.6781 0.9879
-3.0430 -0.2719 -0.6973 0.9875
-3.1642 -0.5701 -0.7338 0.9869
-6.5054 -2.4227 -1.5844 0.9719
-6.0782 -6.2849 -1.9956 0.9648
-2.2590 -2.7960 -0.8204 0.9854
-1.3415 -3.0682 -0.7643 0.9864
8.5161 10.0729 -3.0106 0.9473
6.9310 9.8595 -2.7508 0.9518
5.5412 9.5975 -2.5295 0.9555
4.3158 9.3002 -2.3401 0.9588
0.6184 7.9133 -1.8117 0.9680
-0.7198 7.1552 -1.6414 0.9709
-2.4513 6.3646 -1.5567 0.9724
-3.3498 5.5145 -1.4727 0.9739
-4.1075 4.6445 -1.4152 0.9749
-4.4410 4.2003 -1.3952 0.9752
-4.7472 3.7489 -1.3807 0.9755
-5.0279 3.2891 -1.3713 0.9757
-5.2844 2.8198 -1.3671 0.9757
-5.5177 2.3397 -1.3679 0.9757
-2.9625 0.3984 -0.6823 0.9878
-2.9453 0.1313 -0.6729 0.9880
-2.9994 -0.1338 -0.6853 0.9878
-3.0959 -0.4164 -0.7130 0.9873
-6.4698 -1.4659 -1.5141 0.9731
-6.4956 -2.0946 -1.5578 0.9724
-2.0524 -2.7856 -0.7897 0.9859
-1.7329 -2.8528 -0.7618 0.9864
-1.0066 -3.5203 -0.8357 0.9851
-2.7062 -14.1178 -3.2810 0.9427
2.7324 8.8081 -2.1049 0.9629
1.8177 8.4587 -1.9747 0.9651
-0.4097 7.3491 -1.6800 0.9703
-1.5651 6.5677 -1.5410 0.9727
-2.6907 6.1537 -1.5329 0.9728
-3.1394 5.7287 -1.4910 0.9736
-3.9299 4.8641 -1.4273 0.9747
-5.4039 2.5812 -1.3669 0.9757
-5.6258 2.0951 -1.3702 0.9757
-3.8725 1.0608 -0.9164 0.9837
-2.9277 0.2616 -0.6709 0.9880
-2.9221 0.0000 -0.7183 0.9880
-2.9882 -0.2670 -0.7374 0.9877
-3.1004 -0.5586 -0.7743 0.9871
-6.1921 -2.9578 -1.6868 0.9721
-5.7313 -5.9261 -2.0264 0.9666
-2.3061 -2.8543 -0.9020 0.9850
-1.6100 -2.9378 -0.8234 0.9863
-1.3593 -3.1088 -0.8340 0.9861
-1.1337 -3.3863 -0.8778 0.9854
-1.9712 -13.5154 -3.3572 0.9453
9.3384 9.2349 -3.2282 0.9473
7.7649 9.1843 -2.9562 0.9517
4.0139 8.6497 -2.3439 0.9615
3.0185 8.3901 -2.1917 0.9639
1.2539 4.7862 -1.2162 0.9798
1.3156 7.7993 -1.9441 0.9679
0.5844 7.4783 -1.8438 0.9696
-0.6835 6.7946 -1.6785 0.9723
-1.2339 6.4373 -1.6111 0.9734
-1.7366 6.0734 -1.5527 0.9743
-3.2069 5.2793 -1.5183 0.9749
-4.2612 4.0302 -1.4417 0.9761
-5.4999 1.7735 -1.4204 0.9765
-3.3132 0.7506 -0.8350 0.9861
-2.9494 -0.1315 -0.7257 0.9879
-3.0389 -0.4087 -0.7537 0.9874
-3.1571 -0.7153 -0.7957 0.9868
-6.2024 -2.0001 -1.6019 0.9735
-6.1025 -3.9921 -1.7924 0.9704
-5.9911 -4.7311 -1.8764 0.9690
-2.0907 -2.8375 -0.8663 0.9856
-1.7518 -2.8839 -0.8294 0.9862
-1.0291 -3.5991 -0.9201 0.9847
-1.4323 -14.2379 -3.5173 0.9428
8.5280 9.2203 -3.0871 0.9496
7.0459 9.1296 -2.8347 0.9536
5.7286 8.9736 -2.6168 0.9571
4.5539 8.7676 -2.4284 0.9601
0.9411 7.6405 -1.8922 0.9688
0.2446 7.3129 -1.7985 0.9703
-0.9650 6.6168 -1.6436 0.9728
-1.4909 6.2561 -1.5808 0.9739
-3.0039 5.4815 -1.5364 0.9746
-3.7673 4.6628 -1.4735 0.9756
-4.4123 3.8155 -1.4338 0.9763
-4.9540 2.9343 -1.4153 0.9766
-5.1894 2.4787 -1.4136 0.9766
-5.4020 2.0117 -1.4169 0.9765
-3.0843 0.5556 -0.7703 0.9872
-2.8807 0.2574 -0.7109 0.9882
-2.8744 -0.0000 -0.7574 0.9882
-2.9343 -0.2622 -0.7763 0.9879
-5.9328 -2.2094 -1.6682 0.9742
-5.9091 -2.8225 -1.7256 0.9733
-5.7529 -4.1407 -1.8677 0.9711
-5.4194 -5.6036 -2.0541 0.9683
-1.9412 -2.8966 -0.9188 0.9857
-1.3786 -3.1530 -0.9067 0.9859
-1.7991 -12.3358 -3.2849 0.9497
-0.7557 -13.5536 -3.5769 0.9454
11.7374 8.0572 -3.7514 0.9428
5.8863 8.3733 -2.6970 0.9585
4.7637 8.2509 -2.5105 0.9614
3.7497 8.0802 -2.3472 0.9638
2.8319 7.8714 -2.2043 0.9660
1.2560 4.7938 -1.3058 0.9797
0.5537 7.0857 -1.8728 0.9710
-0.0755 6.7832 -1.7875 0.9723
-0.6504 6.4659 -1.7124 0.9735
-2.2395 5.8148 -1.6419 0.9746
-2.6744 5.4423 -1.5979 0.9752
-3.0747 5.0617 -1.5606 0.9758
-3.4433 4.6733 -1.5296 0.9763
-4.0941 3.8722 -1.4849 0.9770
-4.3799 3.4588 -1.4706 0.9772
-4.8793 2.6036 -1.4573 0.9774
-5.0944 2.1602 -1.4581 0.9774
-5.2873 1.7049 -1.4638 0.9773
-2.8514 0.1271 -0.7521 0.9883
-3.0953 -0.7013 -0.8363 0.9870
-5.9250 -2.5125 -1.6958 0.9737
-5.8069 -3.7987 -1.8284 0.9717
-5.5220 -5.2227 -2.0028 0.9690
-2.1307 -2.8919 -0.9465 0.9853
-1.7841 -2.9371 -0.9055 0.9859
-1.5037 -3.0601 -0.8984 0.9860
-1.2632 -3.2799 -0.9261 0.9856
-1.0590 -3.7037 -1.0150 0.9842
-0.1580 -14.1877 -3.7387 0.9430
10.8657 8.1942 -3.5860 0.9453
9.2508 8.3667 -3.2867 0.9497
7.8036 8.4371 -3.0283 0.9536
4.2439 8.1709 -2.4261 0.9626
2.4057 7.7551 -2.1395 0.9670
1.0562 4.9149 -1.3246 0.9794
0.8903 7.2293 -1.9193 0.9703
0.2320 6.9372 -1.8290 0.9717
-0.3694 6.6260 -1.7487 0.9729
-0.9192 6.3031 -1.6785 0.9740
-2.8787 5.2530 -1.5784 0.9755
-3.2628 4.8685 -1.5443 0.9760
-4.2401 3.6666 -1.4771 0.9771
-4.5136 3.2487 -1.4654 0.9773
-4.7632 2.8212 -1.4587 0.9774
-4.9896 2.3833 -1.4571 0.9774
-5.1936 1.9341 -1.4603 0.9773
-3.7365 1.0235 -1.0209 0.9841
-2.8279 0.0000 -0.7956 0.9883
-2.9786 -0.5366 -0.8515 0.9875
-5.6882 -1.5582 -1.6594 0.9758
-5.6795 -2.1151 -1.7052 0.9751
-5.6486 -2.6981 -1.7613 0.9743
-5.4794 -3.9439 -1.8995 0.9723
-1.9785 -2.9521 -0.9999 0.9853
-1.4097 -3.2241 -0.9901 0.9855
-1.1886 -3.5501 -1.0533 0.9846
-2.4660 -10.3479 -2.9930 0.9568
-0.6897 -12.3698 -3.4857 0.9498
10.6081 7.2820 -3.6202 0.9479
7.8059 7.7194 -3.0888 0.9554
6.5800 7.7828 -2.8675 0.9585
4.4477 7.7035 -2.5027 0.9637
3.5161 7.5769 -2.3502 0.9659
2.6657 7.4093 -2.2155 0.9678
-0.0719 6.4543 -1.8161 0.9735
-2.1456 5.5711 -1.6797 0.9755
-2.5652 5.2201 -1.6365 0.9761
-3.6366 4.1120 -1.5445 0.9774
-4.2148 3.3284 -1.5110 0.9779
-2.8531 -0.1272 -0.8035 0.9882
-2.9298 -0.3941 -0.8317 0.9878
-3.2049 -1.0334 -0.9474 0.9861
-5.6204 -2.9991 -1.7924 0.9739
-5.4117 -4.2736 -1.9402 0.9718
-2.1732 -2.9496 -1.0308 0.9849
-1.1252 -3.9351 -1.1515 0.9831
-2.0775 -10.8383 -3.1050 0.9552
1.0917 -13.9710 -3.9428 0.9434
11.3848 7.0905 -3.7736 0.9458
9.8621 7.4373 -3.4753 0.9500
8.4616 7.6530 -3.2100 0.9537
7.1791 7.7619 -2.9747 0.9570
4.9465 7.7485 -2.5864 0.9625
3.0812 7.4977 -2.2807 0.9669
2.2684 7.3125 -2.1542 0.9687
0.2205 6.5934 -1.8561 0.9730
-0.3519 6.3113 -1.7785 0.9741
-1.3601 5.7074 -1.6508 0.9759
-1.9227 5.7429 -1.7040 0.9751
-2.3597 5.3968 -1.6572 0.9758
-2.7625 5.0410 -1.6173 0.9764
-3.1338 4.6761 -1.5838 0.9769
-4.8032 2.2943 -1.4977 0.9781
-4.9991 1.8617 -1.5009 0.9781
-3.6501 0.9999 -1.0648 0.9844
-2.9228 0.5266 -0.8356 0.9877
-2.7884 0.2492 -0.7877 0.9884
-2.7824 -0.0000 -0.8330 0.9884
-2.8308 -0.2530 -0.8509 0.9882
-5.2285 -3.7632 -1.9286 0.9735
-4.8809 -5.0469 -2.1019 0.9711
-4.6307 -5.7315 -2.2060 0.9697
-2.0259 -3.0228 -1.0894 0.9849
-1.4444 -3.3035 -1.0794 0.9851
-0.6338 -11.3677 -3.4085 0.9536
0.4099 -12.2595 -3.6723 0.9501
3.0087 -14.0014 -4.2874 0.9420
11.7449 6.6075 -4.0344 0.9453
9.6690 6.6374 -3.5111 0.9522
7.2086 7.1287 -3.0352 0.9586
6.1100 7.2269 -2.8332 0.9613
3.3084 7.1293 -2.3530 0.9677
-1.0751 5.6089 -1.7098 0.9764
-1.6163 5.6526 -1.7601 0.9758
-3.1826 4.3196 -1.6063 0.9778
-4.5261 2.4152 -1.5359 0.9788
-4.7255 2.0038 -1.5367 0.9788
-3.0564 0.6925 -0.9382 0.9870
-2.7203 0.3658 -0.8218 0.9886
-2.7619 0.1232 -0.8277 0.9885
-2.9771 -0.6745 -0.9139 0.9873
-3.1091 -1.0026 -0.9780 0.9865
-4.9858 -4.7155 -2.0545 0.9718
-2.2553 -3.0610 -1.1383 0.9843
-1.5664 -3.1875 -1.0633 0.9853
-2.6297 -9.1967 -2.8637 0.9608
-1.9262 -10.0492 -3.0633 0.9582
-0.1316 -11.8134 -3.5369 0.9519
2.2904 -13.5782 -4.1225 0.9441
12.4992 6.3161 -4.1926 0.9432
10.3584 6.4513 -3.6534 0.9503
7.7907 7.0462 -3.1448 0.9571
6.6485 7.1882 -2.9314 0.9599
3.7231 7.1680 -2.4182 0.9668
2.9043 7.0671 -2.2874 0.9686
1.0498 4.8853 -1.4960 0.9794
0.8026 6.5165 -1.9657 0.9730
0.2100 6.2791 -1.8809 0.9741
-0.3358 6.0227 -1.8059 0.9751
-2.2651 5.1805 -1.6927 0.9767
-3.0136 4.4967 -1.6206 0.9777
-3.3448 4.1400 -1.5934 0.9780
-4.4181 2.6169 -1.5373 0.9788
-4.6285 2.2109 -1.5357 0.9788
-3.5598 0.9751 -1.1050 0.9847
-2.8473 0.5130 -0.8662 0.9880
-2.7380 0.0000 -0.8695 0.9886
-2.7827 -0.2487 -0.8873 0.9883
-2.9540 -0.8092 -0.9727 0.9872
-5.1094 -3.0263 -1.8860 0.9754
-4.8446 -4.1893 -2.0341 0.9735
-4.6467 -4.8047 -2.1228 0.9723
-2.1026 -3.1373 -1.1994 0.9843
-1.4812 -3.3877 -1.1742 0.9846
-2.1405 -8.9816 -2.9323 0.9620
0.3767 -11.2663 -3.5800 0.9538
2.7279 -12.6948 -4.1237 0.9470
4.1310 -13.3172 -4.4281 0.9432
12.0191 5.4155 -4.1867 0.9462
10.7117 6.0263 -3.9033 0.9497
8.9256 6.1270 -3.4382 0.9556
7.7512 6.4065 -3.1937 0.9587
4.7735 6.7903 -2.6360 0.9658
3.1159 6.7145 -2.3509 0.9694
1.0631 6.3021 -2.0297 0.9735
0.4767 6.1003 -1.9433 0.9746
-0.5667 5.6330 -1.7980 0.9765
-1.0302 5.3744 -1.7379 0.9773
-3.6560 3.4578 -1.5981 0.9791
-4.1517 2.7159 -1.5756 0.9794
-2.6672 0.3587 -0.8547 0.9888
-2.7612 -0.1231 -0.8778 0.9885
-2.8254 -0.3800 -0.9054 0.9881
-2.9205 -0.6617 -0.9510 0.9875
-3.1071 -1.0019 -1.0368 0.9864
-5.2098 -2.2092 -1.7972 0.9765
-5.1515 -2.7490 -1.8544 0.9758
-1.9120 -3.1476 -1.1696 0.9847
-1.6016 -3.2592 -1.1533 0.9849
-1.3758 -3.5722 -1.2157 0.9841
-2.4607 -8.6055 -2.8425 0.9631
-0.1213 -10.8888 -3.4583 0.9553
0.9094 -11.6382 -3.7074 0.9522
12.6850 5.0485 -4.3359 0.9443
7.2130 6.5238 -3.0887 0.9600
4.3355 6.7913 -2.5588 0.9668
2.7395 6.6660 -2.2888 0.9702
0.2003 5.9907 -1.9036 0.9752
-1.7700 5.2868 -1.7706 0.9769
-2.1770 4.9790 -1.7258 0.9775
-2.5534 4.6595 -1.6874 0.9779
-3.2221 3.9880 -1.6283 0.9787
-4.0363 2.9052 -1.5794 0.9793
-4.4646 2.1326 -1.5714 0.9794
-4.6461 1.7302 -1.5745 0.9794
-2.7748 0.4999 -0.8954 0.9882
-2.6951 0.2408 -0.8593 0.9887
-2.6944 -0.0000 -0.9053 0.9887
-2.7374 -0.2446 -0.9234 0.9885
-2.8177 -0.5077 -0.9619 0.9880
-2.8971 -0.7936 -1.0092 0.9874
-4.8984 -2.9013 -1.9128 0.9763
-4.7836 -3.4430 -1.9802 0.9754
-4.4318 -4.5824 -2.1418 0.9735
-1.8187 -3.3187 -1.2715 0.9842
-1.5589 -3.5653 -1.3074 0.9837
2.4929 -11.6007 -3.9866 0.9512
5.1287 -12.4800 -4.5333 0.9447
10.9727 4.9441 -4.0436 0.9505
9.8371 5.5342 -3.7922 0.9535
7.1939 5.9458 -3.1357 0.9614
5.3360 6.3114 -2.7768 0.9657
2.2552 6.2685 -2.2382 0.9723
1.0129 6.0048 -2.0460 0.9746
0.4552 5.8242 -1.9628 0.9756
-0.0626 5.6203 -1.8884 0.9766
-1.0062 5.2493 -1.7958 0.9777
-2.6307 4.3308 -1.7025 0.9788
-2.9545 4.0099 -1.6735 0.9792
-4.4004 1.8660 -1.6059 0.9800
-4.5646 1.4719 -1.6114 0.9800
-2.6271 0.5952 -0.9051 0.9887
-2.6180 0.3521 -0.8875 0.9889
-2.6762 0.1193 -0.9001 0.9888
-2.7751 -0.3732 -0.9408 0.9883
-5.0406 -1.6254 -1.7795 0.9779
-4.9421 -2.6372 -1.8821 0.9766
-4.7117 -3.7208 -2.0172 0.9750
-4.5363 -4.2905 -2.0979 0.9740
-1.6762 -3.4110 -1.2769 0.9841
-1.5203 -3.9475 -1.4213 0.9823
-1.6782 -8.7552 -2.9952 0.9631
-0.1124 -10.0907 -3.3905 0.9583
0.8384 -10.7285 -3.6156 0.9556
1.9103 -11.3248 -3.8587 0.9527
3.1066 -11.8578 -4.1184 0.9496
5.8570 -12.6215 -4.6749 0.9430
13.7808 2.8010 -4.7248 0.9424
11.5448 4.5947 -4.1748 0.9489
10.4026 5.2566 -3.9160 0.9520
9.2785 5.7787 -3.6726 0.9549
4.9045 6.3549 -2.6971 0.9667
4.0820 6.3944 -2.5488 0.9685
3.3129 6.3784 -2.4148 0.9701
2.5954 6.3153 -2.2940 0.9716
1.9271 6.2124 -2.1854 0.9729
-0.3072 5.5107 -1.8544 0.9770
-0.7698 5.2781 -1.7921 0.9777
-1.2771 5.3593 -1.8511 0.9770
-1.7014 5.0818 -1.8006 0.9776
-2.0947 4.7907 -1.7567 0.9782
-3.3933 3.5086 -1.6399 0.9796
-3.8962 2.8042 -1.6128 0.9799
-4.1141 2.4368 -1.6065 0.9800
-4.4852 1.6703 -1.6081 0.9800
-2.7169 0.4895 -0.9275 0.9884
-2.6518 0.0000 -0.9403 0.9888
-2.8417 -0.7784 -1.0448 0.9876
-4.7020 -2.7850 -1.9378 0.9771
-4.2337 -4.3777 -2.1594 0.9745
-3.6960 -5.5148 -2.3540 0.9722
-2.9303 -6.7019 -2.5936 0.9694
-1.2423 -8.5182 -3.0524 0.9641
-0.5079 -9.1082 -3.2347 0.9620
2.2930 -10.6708 -3.8701 0.9547
3.4320 -11.0637 -4.1075 0.9520
7.3431 -11.5028 -4.8390 0.9437
12.9343 2.0338 -4.6427 0.9459
12.0366 3.0105 -4.3995 0.9487
9.0868 5.1121 -3.6970 0.9567
8.1014 5.5612 -3.4843 0.9592
6.8547 5.6655 -3.1533 0.9630
5.0132 5.9296 -2.7533 0.9676
4.2295 6.0165 -2.6078 0.9693
3.4902 6.0451 -2.4751 0.9708
2.1440 5.9592 -2.2456 0.9735
-0.0599 5.3833 -1.9090 0.9774
-1.0015 5.2250 -1.8864 0.9777
-1.4362 5.0228 -1.8524 0.9781
-3.1402 3.5508 -1.6808 0.9801
-3.4066 3.2219 -1.6626 0.9803
-3.8722 2.5331 -1.6407 0.9806
-4.0726 2.1732 -1.6368 0.9806
-4.2518 1.8029 -1.6376 0.9806
-4.4099 1.4220 -1.6430 0.9805
-2.5615 0.5803 -0.9313 0.9889
-2.6346 0.1175 -0.9351 0.9889
-4.8124 -2.0406 -1.8535 0.9781
-4.6482 -3.0407 -1.9695 0.9767
-4.3376 -4.1025 -2.1170 0.9750
-4.1182 -4.6565 -2.2042 0.9740
-3.8500 -5.2253 -2.3014 0.9728
-1.8295 -3.7230 -1.4709 0.9825
-0.8868 -8.8155 -3.1416 0.9631
-0.1047 -9.3948 -3.3315 0.9609
0.7770 -9.9429 -3.5364 0.9586
2.8500 -10.8784 -3.9875 0.9534
5.3153 -11.4541 -4.4774 0.9478
8.0359 -11.4312 -4.9547 0.9424
14.0830 0.3138 -4.9949 0.9420
12.4954 2.5398 -4.5213 0.9473
9.5854 4.8437 -3.8081 0.9554
7.6179 5.7449 -3.3832 0.9603
5.4213 5.8614 -2.8311 0.9667
4.6158 5.9809 -2.6789 0.9684
3.8543 6.0375 -2.5399 0.9701
3.1372 6.0402 -2.4134 0.9715
1.0454 4.8647 -1.7643 0.9791
-0.2945 5.2824 -1.8760 0.9778
-0.7432 5.0959 -1.8261 0.9784
-1.2277 5.1516 -1.8779 0.9778
-1.6372 4.8902 -1.8286 0.9784
-2.0175 4.6142 -1.7857 0.9789
-2.9984 3.7112 -1.6918 0.9800
-3.2762 3.3877 -1.6711 0.9802
-4.1648 1.9894 -1.6366 0.9806
-4.3335 1.6138 -1.6397 0.9806
-2.5828 0.7075 -0.9496 0.9887
-2.6623 0.4796 -0.9592 0.9886
-2.6060 0.2329 -0.9277 0.9890
-2.7878 -0.7637 -1.0794 0.9877
-4.6026 -2.1985 -1.9046 0.9785
-4.5186 -2.6764 -1.9611 0.9778
-4.2459 -3.6716 -2.0960 0.9763
-4.0505 -4.1883 -2.1757 0.9754
-3.1803 -5.8033 -2.4711 0.9721
-2.3141 -6.9120 -2.7218 0.9694
-1.1677 -8.0065 -3.0214 0.9660
0.3018 -9.0251 -3.3720 0.9622
2.1211 -9.8709 -3.7700 0.9578
4.2766 -10.4064 -4.2012 0.9531
5.4553 -10.5032 -4.4195 0.9507
9.0953 -9.8337 -5.0018 0.9444
13.5790 -2.7601 -5.1742 0.9426
13.3886 -1.4978 -5.0306 0.9441
12.4634 0.8343 -4.6644 0.9481
11.7916 1.8541 -4.4572 0.9503
10.1919 3.5390 -4.0287 0.9550
5.4847 5.4240 -2.8804 0.9676
3.3081 5.7298 -2.4706 0.9721
2.0420 5.6758 -2.2524 0.9746
1.4663 5.5966 -2.1604 0.9756
0.4168 5.3332 -1.9976 0.9774
-0.5009 4.9797 -1.8689 0.9789
-0.9727 5.0747 -1.9295 0.9782
-1.7643 4.5812 -1.8331 0.9793
-2.1191 4.3122 -1.7942 0.9797
-3.0338 3.4304 -1.7100 0.9806
-3.5288 2.7867 -1.6790 0.9810
-3.9380 2.1014 -1.6668 0.9811
-4.1112 1.7433 -1.6675 0.9811
-2.5325 0.3406 -0.9542 0.9891
-2.5920 0.1156 -0.9689 0.9890
-2.6307 -0.1173 -0.9833 0.9888
-2.6781 -0.3602 -1.0090 0.9885
-2.7556 -0.6244 -1.0551 0.9880
-4.1535 -3.9284 -2.1348 0.9759
-3.6730 -4.9851 -2.3122 0.9739
-2.5551 -6.6344 -2.6547 0.9701
-2.0556 -7.1889 -2.7920 0.9686
0.7234 -9.2575 -3.4674 0.9611
2.6304 -10.0401 -3.8756 0.9567
3.7095 -10.3106 -4.0917 0.9543
6.0590 -10.4945 -4.5250 0.9496
7.2827 -10.3597 -4.7286 0.9474
9.6739 -9.5668 -5.0804 0.9436
13.2198 -0.8850 -4.9475 0.9450
12.7533 0.2842 -4.7634 0.9470
12.1415 1.3582 -4.5620 0.9492
11.4178 2.3207 -4.3507 0.9515
10.6144 3.1634 -4.1358 0.9538
7.1154 5.3660 -3.3278 0.9627
6.0709 5.4908 -3.0566 0.9657
5.1003 5.5143 -2.8048 0.9684
3.6482 5.7148 -2.5317 0.9715
2.9775 5.7325 -2.4121 0.9728
2.3445 5.7048 -2.3031 0.9740
1.0450 4.8627 -1.8573 0.9790
0.6663 5.4094 -2.0352 0.9770
-0.2827 5.0699 -1.8961 0.9786
-1.1814 4.9573 -1.9030 0.9785
-1.5770 4.7103 -1.8549 0.9790
-1.9450 4.4484 -1.8129 0.9795
-2.2867 4.1728 -1.7768 0.9799
-2.8962 3.5846 -1.7208 0.9805
-3.4132 2.9516 -1.6850 0.9809
-3.6390 2.6192 -1.6742 0.9810
-4.0272 1.9236 -1.6666 0.9811
-4.1900 1.5604 -1.6696 0.9811
-2.7583 -1.0272 -1.1552 0.9874
-4.4326 -2.1173 -1.9279 0.9791
-4.2284 -3.0434 -2.0447 0.9779
-3.6447 -4.5112 -2.2761 0.9754
-3.3625 -5.0172 -2.3704 0.9744
-2.1939 -6.5529 -2.7121 0.9707
-1.6818 -7.0571 -2.8473 0.9693
-1.1008 -7.5475 -2.9935 0.9678
-0.4469 -8.0156 -3.1508 0.9661
0.2826 -8.4514 -3.3188 0.9643
1.0891 -8.8425 -3.4967 0.9624
1.9715 -9.1746 -3.6830 0.9605
3.9431 -9.5949 -4.0713 0.9564
6.1025 -9.5595 -4.4511 0.9524
7.1976 -9.3262 -4.6235 0.9506
10.1824 -7.6789 -5.0053 0.9467
11.5793 -5.8513 -5.0918 0.9458
12.0148 -4.7818 -5.0752 0.9459
12.2560 -3.6527 -5.0192 0.9465
12.1608 -1.3604 -4.8025 0.9488
10.8233 1.7019 -4.3000 0.9540
8.6583 3.9012 -3.7271 0.9600
7.0669 4.8511 -3.3642 0.9638
6.2761 5.1873 -3.1956 0.9656
5.4008 5.3409 -2.9811 0.9679
4.4634 5.2792 -2.7132 0.9707
3.1422 5.4424 -2.4664 0.9734
2.5289 5.4495 -2.3578 0.9745
1.9497 5.4191 -2.2603 0.9756
1.4012 5.3483 -2.1699 0.9765
0.3996 5.1137 -2.0131 0.9782
-0.0552 4.9577 -1.9459 0.9789
-0.4981 4.9513 -1.9531 0.9788
-2.3646 3.8926 -1.7875 0.9806
-2.6602 3.6105 -1.7601 0.9809
-2.9331 3.3166 -1.7377 0.9812
-3.6225 2.3697 -1.6989 0.9816
-4.1251 1.3302 -1.7011 0.9815
-2.4910 0.3350 -0.9865 0.9893
-2.6312 -0.3539 -1.0420 0.9887
-2.7054 -0.6130 -1.0887 0.9882
-4.3937 -2.3446 -1.9546 0.9788
-4.1558 -3.2819 -2.0783 0.9775
-3.7682 -4.2608 -2.2324 0.9759
-3.2026 -5.2722 -2.4211 0.9738
-2.4255 -6.2978 -2.6487 0.9714
-0.7831 -7.7849 -3.0708 0.9669
-0.0918 -8.2383 -3.2335 0.9652
0.6762 -8.6534 -3.4066 0.9634
1.5210 -9.0169 -3.5889 0.9615
2.4400 -9.3135 -3.7786 0.9595
5.5546 -9.6208 -4.3600 0.9534
6.6514 -9.4618 -4.5392 0.9515
7.7370 -9.1514 -4.7032 0.9498
10.5902 -7.2698 -5.0414 0.9463
12.1600 -4.2224 -5.0520 0.9462
12.3028 -3.0771 -4.9772 0.9470
12.2535 -1.9268 -4.8682 0.9481
11.1231 1.2443 -4.3927 0.9530
10.5009 2.1344 -4.2056 0.9550
9.8008 2.9209 -4.0137 0.9570
6.6699 5.0300 -3.2787 0.9647
5.8867 5.3242 -3.1152 0.9665
3.4609 5.4214 -2.5244 0.9727
1.0445 4.8608 -1.9513 0.9789
0.6383 5.1827 -2.0494 0.9778
0.1685 5.0385 -1.9786 0.9786
-1.1379 4.7750 -1.9265 0.9791
-1.5204 4.5413 -1.8796 0.9796
-2.2080 4.0291 -1.8032 0.9805
-3.0613 3.1654 -1.7283 0.9813
-3.3016 2.8550 -1.7131 0.9814
-3.5207 2.5341 -1.7025 0.9815
-3.4629 0.9486 -1.4092 0.9847
-2.5633 0.4618 -1.0222 0.9889
-2.5289 -0.0000 -1.0413 0.9891
-2.5655 -0.2293 -1.0607 0.9889
-2.6210 -0.4722 -1.0967 0.9885
-4.0670 -2.9273 -2.0634 0.9786
-3.7224 -3.8489 -2.2049 0.9771
-3.4905 -4.3203 -2.2871 0.9763
-2.8908 -5.2751 -2.4770 0.9743
-2.0842 -6.2253 -2.7033 0.9720
-1.5937 -6.6876 -2.8310 0.9707
-1.0403 -7.1331 -2.9684 0.9693
-0.4212 -7.5538 -3.1153 0.9678
0.2655 -7.9401 -3.2714 0.9662
1.0199 -8.2807 -3.4356 0.9646
2.7210 -8.7717 -3.7818 0.9611
7.5662 -8.1805 -4.5885 0.9529
9.2834 -7.0010 -4.7879 0.9509
11.1270 -1.2448 -4.6105 0.9527
10.8727 -0.2423 -4.4783 0.9540
8.0760 3.6388 -3.6475 0.9624
7.3609 4.1412 -3.4778 0.9641
6.6351 4.5547 -3.3140 0.9658
4.3160 5.1050 -2.7527 0.9715
2.9902 5.1792 -2.4626 0.9745
2.4117 5.1970 -2.3592 0.9755
1.8625 5.1768 -2.2655 0.9765
1.3409 5.1182 -2.1787 0.9774
0.8481 5.0276 -2.0995 0.9782
0.3836 4.9089 -2.0276 0.9789
-0.0533 4.7846 -1.9703 0.9795
-0.9024 4.7077 -1.9738 0.9795
-1.2852 4.4947 -1.9250 0.9800
-1.9758 4.0207 -1.8448 0.9808
-2.2855 3.7625 -1.8128 0.9811
-2.5726 3.4916 -1.7859 0.9814
-3.0816 2.9146 -1.7466 0.9818
-3.5072 2.2943 -1.7258 0.9820
-3.9937 1.2878 -1.7279 0.9820
-2.4504 0.3295 -1.0181 0.9894
-2.5068 0.1118 -1.0333 0.9892
-2.5479 -0.1136 -1.0502 0.9890
-2.5854 -0.3477 -1.0742 0.9888
-2.6299 -0.5959 -1.1104 0.9884
-2.6464 -0.8534 -1.1450 0.9880
-4.3048 -1.8254 -1.9254 0.9800
-4.2332 -2.2589 -1.9758 0.9795
-3.9948 -3.1546 -2.0960 0.9782
-3.8228 -3.6156 -2.1667 0.9775
-3.6118 -4.0839 -2.2450 0.9767
-3.3583 -4.5580 -2.3313 0.9758
-3.0589 -5.0357 -2.4262 0.9748
-1.8466 -6.4581 -2.7659 0.9714
-0.0863 -7.7519 -3.1923 0.9670
1.4220 -8.4299 -3.5203 0.9637
2.2733 -8.6773 -3.6937 0.9619
3.1818 -8.8441 -3.8703 0.9602
4.1369 -8.9148 -4.0469 0.9584
6.1145 -8.6979 -4.3781 0.9550
7.0917 -8.3881 -4.5231 0.9536
8.8887 -7.3467 -4.7486 0.9513
11.2222 -2.8069 -4.7635 0.9512
10.6950 0.2383 -4.4051 0.9548
10.2518 1.1468 -4.2478 0.9564
9.0946 2.7105 -3.9078 0.9598
8.4248 3.3530 -3.7338 0.9615
3.9086 5.0644 -2.6343 0.9727
3.2898 5.1534 -2.5176 0.9739
2.6975 5.1935 -2.4098 0.9750
1.5981 5.1518 -2.2211 0.9769
1.0447 4.8617 -2.0477 0.9787
0.6124 4.9716 -2.0627 0.9786
0.1619 4.8404 -1.9943 0.9793
-0.2704 4.8501 -2.0003 0.9792
-0.7011 4.8074 -2.0006 0.9792
-1.0970 4.6034 -1.9487 0.9797
-1.4670 4.3819 -1.9029 0.9802
-1.8122 4.1448 -1.8628 0.9806
-2.1336 3.8933 -1.8281 0.9810
-2.7079 3.3516 -1.7743 0.9815
-3.1957 2.7634 -1.7397 0.9819
-3.4085 2.4533 -1.7293 0.9820
-3.6009 2.1328 -1.7234 0.9821
-3.7732 1.8023 -1.7219 0.9821
-3.9252 1.4618 -1.7248 0.9820
-2.5181 0.4536 -1.0536 0.9890
-2.4893 -0.0000 -1.0738 0.9892
-2.5221 -0.2254 -1.0923 0.9890
-2.5389 -0.4574 -1.1128 0.9888
-2.5507 -0.6987 -1.1408 0.9885
-4.0344 -2.3896 -2.0226 0.9798
-3.7631 -3.2541 -2.1460 0.9786
-3.3470 -4.1427 -2.2973 0.9771
-2.7625 -5.0409 -2.4796 0.9753
-2.3990 -5.4867 -2.5831 0.9743
-0.9855 -6.7570 -2.9455 0.9707
-0.3979 -7.1369 -3.0833 0.9693
1.7235 -8.0203 -3.5386 0.9649
2.5408 -8.1909 -3.6993 0.9633
3.4019 -8.2780 -3.8605 0.9618
4.2945 -8.2684 -4.0190 0.9602
7.7843 -7.0405 -4.5275 0.9553
8.5208 -6.4258 -4.6035 0.9546
9.1538 -5.7011 -4.6517 0.9541
10.0314 -3.9924 -4.6572 0.9541
10.2514 -3.0553 -4.6142 0.9545
10.3206 -2.0978 -4.5429 0.9552
10.2441 -1.1460 -4.4464 0.9561
10.0328 -0.2236 -4.3288 0.9572
9.2703 1.4577 -4.0480 0.9599
8.1809 2.8407 -3.7356 0.9630
7.5604 3.4066 -3.5770 0.9645
6.9116 3.8883 -3.4208 0.9660
4.9204 4.8659 -2.9850 0.9703
4.2726 5.0537 -2.8546 0.9716
2.3035 4.9639 -2.3605 0.9764
1.7817 4.9523 -2.2703 0.9773
1.2849 4.9043 -2.1869 0.9782
-0.0530 4.7655 -2.0558 0.9795
-0.4751 4.7232 -2.0477 0.9795
-0.8702 4.5402 -1.9941 0.9801
-1.2406 4.3386 -1.9465 0.9805
-1.5869 4.1203 -1.9046 0.9809
-1.9100 3.8867 -1.8681 0.9813
-2.7472 3.1063 -1.7888 0.9821
-2.9842 2.8224 -1.7718 0.9823
-3.2009 2.5277 -1.7594 0.9824
-3.3976 2.2226 -1.7513 0.9825
-3.5745 1.9074 -1.7477 0.9825
-2.5715 0.5826 -1.1373 0.9886
-2.4106 0.3242 -1.0492 0.9895
-2.5076 -0.1118 -1.0828 0.9891
-2.5465 -0.5770 -1.1263 0.9887
-2.5665 -0.8276 -1.1632 0.9883
-4.0820 -2.1782 -1.9958 0.9800
-3.9790 -2.6030 -2.0510 0.9795
-3.8437 -3.0354 -2.1127 0.9789
-3.6736 -3.4744 -2.1811 0.9782
-3.4659 -3.9189 -2.2567 0.9775
-2.5870 -5.2645 -2.5303 0.9748
-2.1980 -5.7071 -2.6381 0.9737
-1.2568 -6.5566 -2.8797 0.9713
-0.0815 -7.3142 -3.1552 0.9686
0.5968 -7.6368 -3.3042 0.9672
1.3339 -7.9079 -3.4593 0.9657
2.9666 -8.2457 -3.7800 0.9625
3.8451 -8.2860 -3.9403 0.9610
4.7479 -8.2235 -4.0960 0.9595
5.6519 -8.0400 -4.2393 0.9581
6.5389 -7.7342 -4.3687 0.9568
7.3847 -7.3029 -4.4800 0.9558
9.4248 -5.3023 -4.6647 0.9540
9.8652 -4.4450 -4.6674 0.9540
10.1603 -3.5280 -4.6394 0.9542
10.3047 -2.5774 -4.5819 0.9548
10.3000 -1.6196 -4.4976 0.9556
9.8813 0.2202 -4.2634 0.9579
9.4977 1.0624 -4.1224 0.9592
9.0226 1.8339 -3.9715 0.9607
8.4755 2.5260 -3.8149 0.9622
7.8752 3.1342 -3.6562 0.9637
7.2387 3.6578 -3.4985 0.9653
5.9144 4.4603 -3.1954 0.9682
2.0397 4.9632 -2.3146 0.9769
1.5301 4.9325 -2.2277 0.9778
1.0462 4.8683 -2.1479 0.9785
0.5880 4.7744 -2.0751 0.9793
-0.2680 4.8072 -2.0768 0.9792
-1.0585 4.4416 -1.9696 0.9803
-1.4167 4.2314 -1.9248 0.9807
-2.8682 2.9657 -1.7797 0.9822
-3.4885 2.0663 -1.7490 0.9825
-3.9298 1.0765 -1.7576 0.9824
-2.4387 0.2179 -1.0561 0.9894
-2.4281 0.0000 -1.0956 0.9894
-2.4481 -0.2188 -1.1090 0.9893
-2.4890 -0.9269 -1.1984 0.9884
-3.8915 -2.3050 -2.0408 0.9803
-3.7730 -2.7156 -2.0976 0.9798
-3.6220 -3.1321 -2.1606 0.9792
-3.2130 -3.9768 -2.3069 0.9778
-1.8911 -5.6485 -2.6878 0.9742
-0.9354 -6.4140 -2.9247 0.9720
0.9027 -7.3296 -3.3322 0.9681
1.6194 -7.5361 -3.4780 0.9667
2.3809 -7.6753 -3.6260 0.9653
3.1790 -7.7357 -3.7737 0.9640
4.0024 -7.7060 -3.9181 0.9626
7.8654 -5.9316 -4.4450 0.9577
8.4429 -5.2583 -4.4880 0.9573
9.4611 -2.8197 -4.4546 0.9576
9.5364 -1.9383 -4.3909 0.9582
9.4810 -1.0606 -4.3047 0.9590
9.3038 -0.2074 -4.1990 0.9600
9.0175 0.6036 -4.0779 0.9611
8.6374 1.3582 -3.9452 0.9624
8.1803 2.0460 -3.8048 0.9637
7.1007 3.1994 -3.5141 0.9664
6.5086 3.6616 -3.3696 0.9678
4.6682 4.6164 -2.9624 0.9716
2.7485 4.7604 -2.4803 0.9762
2.2032 4.7478 -2.3617 0.9773
1.7066 4.7436 -2.2747 0.9781
1.2341 4.7106 -2.1972 0.9789
0.7820 4.6358 -2.1213 0.9796
-0.4581 4.5544 -2.0654 0.9801
-0.8399 4.3820 -2.0132 0.9806
-2.1395 3.5221 -1.8595 0.9821
-2.4105 3.2716 -1.8336 0.9823
-2.6610 3.0089 -1.8124 0.9825
-2.8914 2.7347 -1.7958 0.9827
-3.1021 2.4497 -1.7835 0.9828
-3.4649 1.8489 -1.7721 0.9829
-3.6171 1.5338 -1.7728 0.9829
-2.3567 0.3169 -1.0730 0.9896
-2.4105 0.1075 -1.0887 0.9895
-2.4395 -0.1088 -1.1018 0.9893
-2.4670 -0.5590 -1.1414 0.9890
-3.8361 -2.5095 -2.0684 0.9801
-3.0865 -4.1891 -2.3479 0.9774
-2.8021 -4.6129 -2.4354 0.9766
-1.6720 -5.8472 -2.7441 0.9737
-0.0771 -6.9178 -3.1216 0.9701
1.9950 -7.6149 -3.5519 0.9660
3.5884 -7.7328 -3.8465 0.9633
4.4192 -7.6542 -3.9880 0.9620
5.2491 -7.4670 -4.1184 0.9607
6.0596 -7.1674 -4.2350 0.9596
6.8308 -6.7551 -4.3347 0.9587
7.5404 -6.2323 -4.4141 0.9580
8.1670 -5.6063 -4.4698 0.9575
9.0966 -4.0987 -4.5019 0.9572
9.3731 -3.2547 -4.4770 0.9574
9.5154 -2.3800 -4.4258 0.9579
9.4069 -0.6297 -4.2540 0.9595
9.1733 0.2044 -4.1402 0.9605
8.8381 0.9887 -4.0128 0.9617
8.4174 1.7109 -3.8757 0.9630
7.3863 2.9397 -3.5871 0.9657
6.8075 3.4400 -3.4416 0.9671
6.2052 3.8646 -3.2985 0.9684
4.9747 4.4993 -3.0266 0.9710
3.7650 4.8784 -2.7805 0.9733
3.0842 4.8312 -2.5863 0.9752
1.9555 4.7584 -2.3213 0.9777
0.1570 4.6951 -2.1197 0.9796
-1.0220 4.2887 -1.9893 0.9808
-1.9962 3.6425 -1.8742 0.9819
-2.7787 2.8732 -1.8035 0.9826
-2.4063 0.4335 -1.1032 0.9893
-2.3848 0.2131 -1.0804 0.9895
-2.3773 -0.2125 -1.1251 0.9895
-2.3816 -0.4291 -1.1407 0.9894
-3.8448 -1.8366 -2.0085 0.9813
-3.6385 -2.6188 -2.1132 0.9804
-3.4892 -3.0172 -2.1744 0.9798
-3.3062 -3.4187 -2.2418 0.9792
-2.8304 -4.2234 -2.3965 0.9778
-2.5327 -4.6216 -2.4842 0.9770
-2.1918 -5.0129 -2.5790 0.9761
-1.8056 -5.3931 -2.6809 0.9752
0.2237 -6.6908 -3.1556 0.9708
0.8527 -6.9231 -3.2880 0.9696
1.5259 -7.1009 -3.4236 0.9684
2.2379 -7.2144 -3.5605 0.9671
2.9808 -7.2534 -3.6965 0.9659
5.9996 -6.4867 -4.1650 0.9617
6.6809 -6.0425 -4.2462 0.9609
7.2957 -5.5019 -4.3073 0.9604
8.2561 -4.1720 -4.3604 0.9599
8.7745 -2.6151 -4.3158 0.9603
8.6646 -0.1931 -4.0853 0.9624
8.4146 0.5633 -3.9753 0.9634
8.0776 1.2701 -3.8544 0.9645
7.1998 2.5000 -3.5926 0.9669
6.6878 3.0134 -3.4577 0.9681
5.5823 3.8320 -3.1917 0.9705
4.4373 4.3881 -2.9416 0.9728
3.8697 4.5770 -2.8253 0.9738
2.7440 4.7527 -2.5869 0.9760
-0.4421 4.3950 -2.0821 0.9807
-1.4838 3.8526 -1.9461 0.9819
-2.0718 3.4107 -1.8811 0.9825
-2.5789 2.9160 -1.8350 0.9829
-3.0078 2.3753 -1.8066 0.9832
-3.1936 2.0892 -1.7989 0.9833
-3.3602 1.7931 -1.7954 0.9833
-3.5078 1.4875 -1.7960 0.9833
-3.6361 1.1725 -1.8009 0.9832
-2.5265 0.5724 -1.2211 0.9886
-2.3694 -0.1057 -1.1180 0.9896
-2.3799 -0.3201 -1.1319 0.9894
-2.3893 -0.5414 -1.1548 0.9892
-2.4109 -1.0223 -1.2344 0.9885
-3.2015 -3.6200 -2.2780 0.9789
-2.9639 -4.0226 -2.3553 0.9781
-2.6868 -4.4231 -2.4395 0.9774
-2.3678 -4.8184 -2.5307 0.9765
-1.1370 -5.9316 -2.8469 0.9736
0.5324 -6.8131 -3.2213 0.9702
1.1841 -7.0194 -3.3555 0.9690
1.8775 -7.1663 -3.4920 0.9678
2.6061 -7.2438 -3.6288 0.9665
5.6400 -6.6711 -4.1178 0.9621
8.6896 -3.0174 -4.3360 0.9601
8.8483 -1.3913 -4.2221 0.9612
8.7528 -0.5859 -4.1351 0.9620
7.4401 2.2174 -3.6595 0.9663
6.4194 3.2438 -3.3903 0.9687
5.8653 3.6529 -3.2571 0.9699
4.1524 4.4895 -2.8827 0.9733
3.5897 4.6512 -2.7695 0.9744
2.4346 4.6874 -2.4898 0.9769
1.8845 4.5855 -2.3369 0.9783
0.9794 4.5578 -2.1975 0.9796
0.5670 4.6033 -2.1863 0.9797
0.1538 4.5993 -2.1692 0.9799
-0.2491 4.4686 -2.1097 0.9804
-1.9325 3.5265 -1.8955 0.9824
-2.6933 2.7850 -1.8263 0.9830
-3.1031 2.2335 -1.8022 0.9832
-3.2793 1.9423 -1.7966 0.9833
-3.4364 1.6415 -1.7952 0.9833
-2.3515 0.4236 -1.1263 0.9895
-2.3242 0.2077 -1.1000 0.9897
-3.3638 -2.9089 -2.1873 0.9804
-3.1839 -3.2922 -2.2527 0.9798
-2.9696 -3.6756 -2.3242 0.9792
-2.7188 -4.0568 -2.4020 0.9785
-2.0991 -4.8008 -2.5771 0.9769
-1.3094 -5.4946 -2.7783 0.9751
-0.8474 -5.8104 -2.8881 0.9742
-0.3399 -6.0971 -3.0035 0.9731
1.4413 -6.7075 -3.3744 0.9699
2.8033 -6.8213 -3.6274 0.9677
3.5135 -6.7646 -3.7492 0.9666
4.2275 -6.6223 -3.8643 0.9656
4.9287 -6.3862 -3.9677 0.9647
6.2291 -5.6339 -4.1311 0.9633
7.2851 -4.5372 -4.2213 0.9625
8.1720 -2.4355 -4.1941 0.9627
7.8796 0.5275 -3.8843 0.9654
6.7835 2.3555 -3.5319 0.9685
5.2937 3.6339 -3.1582 0.9718
4.2250 4.1781 -2.9226 0.9739
1.6377 4.5519 -2.3794 0.9787
1.1892 4.5390 -2.3079 0.9793
-0.0487 4.3769 -2.1530 0.9807
-0.4269 4.2440 -2.0980 0.9812
-0.7840 4.0904 -2.0485 0.9816
-1.1203 3.9180 -2.0043 0.9820
-2.2635 3.0721 -1.8769 0.9831
-3.0983 2.0269 -1.8211 0.9836
-3.2603 1.7397 -1.8176 0.9837
-3.4034 1.4432 -1.8183 0.9837
-2.2513 0.3028 -1.1173 0.9899
-2.2893 0.1021 -1.1271 0.9898
-2.3022 -0.1027 -1.1335 0.9898
-2.3108 -0.3108 -1.1468 0.9897
-2.3142 -0.5243 -1.1671 0.9895
-2.3173 -0.7472 -1.1976 0.9892
-3.6762 -1.9617 -2.0495 0.9816
-3.5736 -2.3377 -2.1004 0.9811
-3.4415 -2.7178 -2.1569 0.9806
-3.2781 -3.1004 -2.2193 0.9801
-3.0812 -3.4840 -2.2877 0.9795
-2.8489 -3.8666 -2.3623 0.9788
-2.5790 -4.2457 -2.4433 0.9781
-2.2694 -4.6182 -2.5309 0.9773
-1.9181 -4.9804 -2.6250 0.9765
-1.5234 -5.3279 -2.7256 0.9756
-1.0841 -5.6557 -2.8324 0.9747
-0.5994 -5.9578 -2.9452 0.9737
1.1197 -6.6378 -3.3109 0.9704
3.1571 -6.8033 -3.6889 0.9671
3.8709 -6.7045 -3.8078 0.9661
4.5810 -6.5166 -3.9179 0.9651
5.9218 -5.8561 -4.0963 0.9636
6.5211 -5.3898 -4.1612 0.9630
7.0509 -4.8402 -4.2065 0.9626
7.8458 -3.5351 -4.2326 0.9624
8.2262 -2.0575 -4.1707 0.9629
8.0004 0.1783 -3.9360 0.9650
7.4016 1.5044 -3.7149 0.9669
7.0024 2.0869 -3.5939 0.9680
6.5538 2.6083 -3.4694 0.9690
5.0284 3.7921 -3.0977 0.9723
2.4016 4.6239 -2.5628 0.9770
1.8813 4.5778 -2.4343 0.9782
1.4083 4.5398 -2.3379 0.9790
0.9774 4.5480 -2.2881 0.9795
0.5583 4.5326 -2.2462 0.9798
0.1483 4.4350 -2.1826 0.9804
-0.2405 4.3132 -2.1248 0.9809
-0.6081 4.1697 -2.0726 0.9814
-0.9547 4.0064 -2.0258 0.9818
-1.2807 3.8254 -1.9842 0.9822
-1.8719 3.4158 -1.9158 0.9828
-2.6119 2.7007 -1.8479 0.9834
-3.0104 2.1668 -1.8244 0.9836
-3.5825 0.9814 -1.8270 0.9836
-2.2416 -0.4039 -1.1677 0.9898
-2.2480 -0.6158 -1.1950 0.9896
-2.2721 -1.0853 -1.2909 0.9887
-3.5070 -2.0772 -2.0897 0.9818
-3.3909 -2.4407 -2.1419 0.9814
-2.8587 -3.5383 -2.3321 0.9798
-2.3325 -4.2563 -2.4883 0.9784
-2.0125 -4.6028 -2.5754 0.9777
-1.2514 -5.2512 -2.7675 0.9760
-0.8084 -5.5432 -2.8719 0.9751
-0.3237 -5.8060 -2.9812 0.9742
0.2018 -6.0330 -3.0947 0.9732
0.7657 -6.2168 -3.2113 0.9722
1.3645 -6.3498 -3.3297 0.9712
1.9928 -6.4241 -3.4483 0.9702
3.3065 -6.3662 -3.6777 0.9683
3.9714 -6.2211 -3.7838 0.9674
5.2469 -5.6729 -3.9616 0.9659
6.3531 -4.7911 -4.0794 0.9649
7.1780 -3.6272 -4.1231 0.9645
7.4572 -2.9679 -4.1147 0.9646
7.6389 -2.2767 -4.0864 0.9648
7.5957 -0.1693 -3.8951 0.9664
6.7957 1.6997 -3.5912 0.9690
6.4070 2.2247 -3.4770 0.9700
5.5136 3.1019 -3.2433 0.9720
5.0294 3.4525 -3.1275 0.9730
4.5321 3.7458 -3.0143 0.9739
4.0290 3.9844 -2.9050 0.9749
2.5424 4.4034 -2.6067 0.9774
2.0680 4.4563 -2.5186 0.9782
