ply
format ascii 1.0
element vertex 1588
property float32 x
property float32 y
property float32 z
property float32 I
end_header
-6.9913 4.5735 -0.9062 0.9669
-7.6592 3.2478 -0.9024 0.9671
-7.9625 2.5676 -0.9075 0.9669
-4.7637 1.0793 -0.5298 0.9805
-3.9258 -0.1751 -0.4262 0.9843
-9.2397 -1.2426 -1.0112 0.9632
-9.4534 -2.1418 -1.0514 0.9618
-9.6536 -3.1129 -1.1002 0.9600
-9.8395 -4.1723 -1.1592 0.9579
-10.2936 -8.1287 -1.4227 0.9486
3.5437 -2.4327 -0.4662 0.9829
3.3067 -1.4899 -0.3934 0.9855
3.3508 -1.1635 -0.3847 0.9858
3.4490 -0.8627 -0.3856 0.9858
4.5839 0.1021 -0.4973 0.9817
1.6953 13.7648 -1.5043 0.9457
-1.5728 10.7836 -1.1820 0.9571
-3.7007 8.4638 -1.0019 0.9635
-4.2570 7.7681 -0.9608 0.9650
-5.0717 7.5676 -0.9881 0.9640
-5.5623 6.8846 -0.9600 0.9650
-6.4260 5.5568 -0.9215 0.9664
-8.1074 2.2209 -0.9118 0.9667
-3.5692 0.0000 -0.4473 0.9857
-8.7966 -1.5848 -1.1201 0.9646
-8.9686 -2.4568 -1.1653 0.9632
-9.1219 -3.3970 -1.2198 0.9615
-9.3636 -5.5461 -1.3638 0.9571
-9.4924 -8.2083 -1.5726 0.9507
3.3790 -2.1045 -0.4989 0.9841
3.2968 -1.6660 -0.4629 0.9852
3.3104 -1.3175 -0.4465 0.9857
3.3831 -1.0083 -0.4424 0.9859
3.7193 -0.4161 -0.4690 0.9850
4.0807 -0.0910 -0.5115 0.9837
3.7014 14.1281 -1.8302 0.9428
-0.1248 11.2010 -1.4037 0.9558
-2.5589 8.9491 -1.1664 0.9632
-3.1861 8.2725 -1.1109 0.9649
-5.0250 6.8199 -1.0616 0.9664
-6.2720 4.9530 -1.0015 0.9683
-6.6259 4.3344 -0.9922 0.9686
-6.9545 3.7111 -0.9878 0.9687
-7.2604 3.0787 -0.9883 0.9687
-3.5494 0.4773 -0.4488 0.9857
-3.5348 0.1576 -0.4434 0.9858
-8.7040 -1.1706 -1.1006 0.9652
-8.8849 -2.0130 -1.1416 0.9639
-9.3123 -4.9692 -1.3227 0.9583
-9.4733 -7.4810 -1.5127 0.9525
-9.3142 -10.5317 -1.7619 0.9449
3.5171 -2.4143 -0.5346 0.9829
3.2903 -1.4825 -0.4522 0.9856
3.3344 -1.1579 -0.4423 0.9859
3.8692 -0.2590 -0.4860 0.9845
4.5126 0.1006 -0.5656 0.9820
2.9157 13.5686 -1.7392 0.9456
1.5452 12.5457 -1.5841 0.9503
-0.6017 10.7916 -1.3545 0.9574
-2.8815 8.6066 -1.1374 0.9641
-3.4742 7.9457 -1.0867 0.9656
-4.7840 7.1383 -1.0769 0.9660
-7.4056 2.7579 -0.9903 0.9686
-7.6811 2.1041 -0.9980 0.9684
-8.4479 -2.3141 -1.2459 0.9652
-8.5690 -3.1911 -1.3006 0.9637
-8.6654 -4.1391 -1.3659 0.9619
-8.7633 -7.5779 -1.6479 0.9543
-8.4121 -10.4117 -1.9039 0.9474
-8.2072 -12.2460 -2.0968 0.9422
3.3586 -2.0918 -0.5628 0.9841
3.2942 -1.3111 -0.5043 0.9858
3.3666 -1.0034 -0.4997 0.9859
3.4939 -0.7102 -0.5071 0.9857
3.6977 -0.4137 -0.5292 0.9851
4.0514 -0.0903 -0.5764 0.9838
3.3521 12.7948 -1.8813 0.9480
-0.1157 10.3829 -1.4769 0.9589
-2.9976 7.7831 -1.1863 0.9669
-4.2838 7.0521 -1.1736 0.9672
-4.7577 6.4573 -1.1408 0.9681
-5.5895 5.2865 -1.0943 0.9694
-6.6091 3.5267 -1.0655 0.9702
-6.8997 2.9257 -1.0660 0.9702
-7.1690 2.3117 -1.0714 0.9700
-4.1432 0.9387 -0.6042 0.9830
-3.3671 0.4528 -0.4832 0.9864
-3.3610 0.1499 -0.4785 0.9865
-8.3788 -1.8984 -1.2220 0.9659
-8.5113 -2.7445 -1.2720 0.9645
-8.7714 -6.9267 -1.5897 0.9558
-8.7430 -8.2691 -1.7117 0.9525
-8.3210 -11.2933 -1.9952 0.9449
3.2936 -1.8529 -0.5375 0.9848
3.2740 -1.4752 -0.5108 0.9856
3.5757 -0.5623 -0.5148 0.9855
2.6524 12.3432 -1.7957 0.9503
1.4189 11.5211 -1.6511 0.9542
0.3594 10.7486 -1.5297 0.9575
-2.0756 8.7097 -1.2735 0.9645
-3.9949 7.2898 -1.1824 0.9670
-4.5262 6.7536 -1.1564 0.9677
-4.9792 6.1629 -1.1269 0.9685
-5.3946 5.5780 -1.1037 0.9691
-6.1292 4.4116 -1.0741 0.9699
-6.4553 3.8235 -1.0671 0.9701
-7.0369 2.6206 -1.0681 0.9701
-7.2960 1.9986 -1.0760 0.9699
-3.3525 0.2996 -0.4787 0.9865
-3.2915 0.0000 -0.5241 0.9868
-7.8626 -1.4165 -1.2722 0.9682
-8.1445 -3.8903 -1.4372 0.9641
-8.1798 -5.8875 -1.6048 0.9600
-7.4679 -11.1428 -2.1360 0.9471
3.3384 -2.0792 -0.6263 0.9842
3.2781 -1.3047 -0.5618 0.9858
3.3502 -0.9985 -0.5567 0.9859
3.6763 -0.4113 -0.5890 0.9851
4.0262 -0.0897 -0.6413 0.9838
4.4896 12.4792 -2.1118 0.9477
3.0646 11.6974 -1.9255 0.9522
1.2873 7.6315 -1.2324 0.9691
0.8060 10.3144 -1.6474 0.9590
-0.1078 9.6733 -1.5404 0.9616
-0.9117 9.0626 -1.4504 0.9638
-1.6245 8.4751 -1.3741 0.9657
-2.2596 7.9022 -1.3088 0.9673
-2.8293 7.3461 -1.2535 0.9686
-3.4082 6.9354 -1.2305 0.9692
-4.0607 6.6848 -1.2455 0.9688
-5.9950 3.9218 -1.1407 0.9714
-6.2950 3.3591 -1.1362 0.9715
-3.2600 0.1453 -0.5196 0.9869
-3.3344 -0.1487 -0.5315 0.9866
-7.9253 -1.7956 -1.2940 0.9676
-8.1144 -3.4408 -1.4035 0.9649
-8.1667 -4.3579 -1.4740 0.9632
-8.1851 -5.3544 -1.5575 0.9612
-7.6048 -10.3212 -2.0415 0.9494
-7.3049 -12.0254 -2.2405 0.9446
1.3115 10.6485 -1.7084 0.9575
0.3339 9.9895 -1.5916 0.9603
-1.9509 8.1864 -1.3401 0.9665
-2.5520 7.6223 -1.2800 0.9680
-3.0927 7.0733 -1.2293 0.9692
-3.8167 6.9646 -1.2646 0.9683
-4.2937 6.4066 -1.2281 0.9692
-5.1295 5.3038 -1.1749 0.9706
-6.1481 3.6415 -1.1378 0.9715
-6.4362 3.0743 -1.1358 0.9715
-6.7017 2.4958 -1.1388 0.9714
-3.5500 0.6396 -0.5744 0.9855
-3.2454 0.2900 -0.5188 0.9869
-3.1939 -0.0000 -0.5632 0.9871
-3.2817 -0.2933 -0.5810 0.9867
-7.4634 -1.3446 -1.3372 0.9697
-7.5631 -2.0717 -1.3827 0.9687
-7.6364 -2.8438 -1.4368 0.9674
-7.6803 -3.6686 -1.5008 0.9660
-7.6908 -4.5553 -1.5761 0.9643
-7.5890 -6.5624 -1.7691 0.9601
-7.4605 -7.7141 -1.8923 0.9573
-6.8479 -10.2177 -2.1689 0.9513
-6.4656 -11.7981 -2.3722 0.9468
3.3219 -2.0689 -0.6901 0.9842
3.2661 -1.2999 -0.6198 0.9858
3.6683 -0.4104 -0.6509 0.9851
5.9631 12.8503 -2.4979 0.9441
4.1018 11.4011 -2.1365 0.9520
0.7492 9.5885 -1.6959 0.9617
-2.1337 7.4620 -1.3685 0.9690
-2.6780 6.9534 -1.3139 0.9702
-3.3784 6.8749 -1.3507 0.9694
-4.2974 5.8325 -1.2774 0.9710
-4.6994 5.3137 -1.2508 0.9716
-5.0687 4.7939 -1.2302 0.9721
-5.4082 4.2708 -1.2151 0.9724
-5.7206 3.7423 -1.2054 0.9726
-6.0080 3.2060 -1.2008 0.9727
-6.2719 2.6595 -1.2012 0.9727
-3.1644 0.1411 -0.5585 0.9872
-3.2276 -0.1439 -0.5697 0.9870
-7.5163 -1.7030 -1.3589 0.9692
-7.6622 -3.2491 -1.4675 0.9668
-7.6900 -4.1035 -1.5369 0.9652
-7.3086 -8.2640 -1.9453 0.9562
-6.6710 -10.9819 -2.2657 0.9491
3.4433 -2.3637 -0.7364 0.9832
3.2615 -1.8349 -0.6598 0.9849
3.2905 -1.1426 -0.6142 0.9860
3.3882 -0.8475 -0.6158 0.9859
3.5484 -0.5580 -0.6334 0.9855
3.8101 -0.2551 -0.6733 0.9846
4.3833 0.0977 -0.7731 0.9823
4.8809 11.8771 -2.2642 0.9492
3.4374 11.0811 -2.0457 0.9540
1.2162 9.8745 -1.7543 0.9604
-1.8397 7.7199 -1.3993 0.9683
-2.4128 7.2066 -1.3400 0.9696
-2.9444 6.7340 -1.2959 0.9706
-3.6240 6.6130 -1.3297 0.9698
-5.5677 4.0074 -1.2096 0.9725
-6.1428 2.9342 -1.2004 0.9727
-3.4372 0.6192 -0.6158 0.9859
-3.1015 0.0000 -0.6002 0.9874
-3.1775 -0.2839 -0.6173 0.9871
-3.3117 -0.5966 -0.6512 0.9864
-7.1836 -1.9678 -1.4414 0.9701
-7.2390 -2.6958 -1.4949 0.9690
-7.2639 -3.4696 -1.5578 0.9677
-7.1086 -6.1471 -1.8186 0.9624
-6.9576 -7.1941 -1.9368 0.9600
-6.6373 -8.2151 -2.0438 0.9579
3.3178 -2.0664 -0.7564 0.9842
3.2444 -1.6395 -0.7035 0.9853
3.3339 -0.9936 -0.6732 0.9859
3.4602 -0.7033 -0.6833 0.9857
3.7738 10.4896 -2.1573 0.9556
2.6127 9.9728 -1.9950 0.9589
1.2872 7.6312 -1.4976 0.9690
-0.0947 8.4978 -1.6446 0.9660
-2.0204 7.0659 -1.4222 0.9705
-2.5456 6.6096 -1.3706 0.9716
-3.2127 6.5376 -1.4096 0.9708
-4.8412 4.5788 -1.2895 0.9732
-5.7445 3.0654 -1.2600 0.9738
-3.1048 0.4175 -0.6062 0.9873
-3.0751 0.1371 -0.5957 0.9875
-3.1273 -0.1395 -0.6058 0.9873
-7.2347 -4.7327 -1.6730 0.9654
-6.8242 -7.7162 -1.9934 0.9589
-6.1358 -10.1008 -2.2871 0.9530
-5.6822 -11.5629 -2.4932 0.9489
-5.0924 -13.2220 -2.7419 0.9439
3.4407 -2.3619 -0.8076 0.9831
3.2401 -1.4599 -0.6877 0.9856
3.2851 -1.1407 -0.6730 0.9859
3.3827 -0.8461 -0.6748 0.9859
3.5421 -0.5570 -0.6939 0.9855
3.8025 -0.2546 -0.7375 0.9846
4.3737 0.0975 -0.8466 0.9823
6.2407 12.0156 -2.6202 0.9463
4.7050 11.4489 -2.3954 0.9508
-0.4603 8.2556 -1.6001 0.9669
-1.1340 7.7756 -1.5206 0.9685
-4.6670 4.8256 -1.2991 0.9730
-5.3218 3.8304 -1.2689 0.9736
-5.6097 3.3226 -1.2617 0.9738
-5.8735 2.8055 -1.2596 0.9738
-6.1144 2.2770 -1.2626 0.9738
-4.1640 1.1406 -0.8355 0.9826
-3.0994 -0.2770 -0.6560 0.9874
-3.2303 -0.5820 -0.6920 0.9867
-6.7957 -4.8912 -1.7652 0.9664
-5.4639 -9.9703 -2.3969 0.9546
-4.9492 -11.3190 -2.6044 0.9508
3.2561 -1.2959 -0.7388 0.9858
3.4541 -0.7021 -0.7431 0.9857
4.0011 -0.0892 -0.8437 0.9838
6.4790 11.2219 -2.7318 0.9484
5.0050 10.7854 -2.5067 0.9526
3.6443 10.1296 -2.2695 0.9569
1.2877 7.6341 -1.6321 0.9688
-0.7617 7.5712 -1.6042 0.9694
-1.3685 7.1393 -1.5325 0.9707
-1.9180 6.7075 -1.4707 0.9719
-2.5345 6.5807 -1.4867 0.9716
-3.0615 6.2300 -1.4634 0.9720
-3.5064 5.7723 -1.4238 0.9728
-3.9142 5.3123 -1.3911 0.9734
-4.6320 4.3809 -1.3441 0.9743
-4.9475 3.9070 -1.3290 0.9746
-5.2368 3.4258 -1.3193 0.9747
-5.5017 2.9358 -1.3147 0.9748
-5.7432 2.4353 -1.3151 0.9748
-5.9622 1.9226 -1.3207 0.9747
-3.0346 0.4081 -0.6455 0.9876
-2.9940 0.1335 -0.6318 0.9878
-3.0505 -0.1361 -0.6438 0.9876
-3.1545 -0.4243 -0.6710 0.9871
-6.8073 -1.5423 -1.4715 0.9719
-6.8623 -2.2128 -1.5201 0.9710
-6.8876 -2.9206 -1.5772 0.9699
-6.8796 -3.6711 -1.6439 0.9686
-6.3940 -7.2298 -2.0347 0.9613
-6.0299 -8.1838 -2.1431 0.9593
-4.6429 -12.0550 -2.7234 0.9486
3.4380 -2.3601 -0.8791 0.9831
3.2519 -1.8295 -0.7866 0.9849
3.2797 -1.1388 -0.7319 0.9859
3.5358 -0.5560 -0.7546 0.9855
4.3641 0.0972 -0.9203 0.9823
5.7161 11.0055 -2.6145 0.9506
4.3408 10.5626 -2.4075 0.9544
1.9485 9.0676 -1.9553 0.9628
0.2748 8.2189 -1.7337 0.9669
-0.4342 7.7873 -1.6443 0.9686
-1.0727 7.3552 -1.5670 0.9701
-1.6499 6.9234 -1.5005 0.9713
-2.1839 6.5230 -1.4502 0.9723
-2.8238 6.4582 -1.4860 0.9716
-3.2889 6.0014 -1.4427 0.9724
-3.7147 5.5427 -1.4067 0.9731
-4.4638 4.6156 -1.3537 0.9741
-5.0953 3.6674 -1.3235 0.9747
-5.3722 3.1820 -1.3163 0.9748
-5.8554 2.1806 -1.3173 0.9748
-4.0001 1.0957 -0.8744 0.9832
-3.2435 0.5843 -0.6948 0.9866
-2.9710 0.0000 -0.6781 0.9879
-3.1643 -0.5701 -0.7338 0.9869
-6.5226 -1.7867 -1.5436 0.9726
-6.5506 -2.4395 -1.5954 0.9717
-6.5468 -3.1271 -1.6560 0.9707
-6.5076 -3.8545 -1.7263 0.9694
-6.4282 -4.6268 -1.8077 0.9680
-6.3028 -5.4502 -1.9018 0.9664
-5.8080 -7.1887 -2.1094 0.9628
-5.4687 -8.1599 -2.2420 0.9605
-5.0674 -9.2469 -2.4067 0.9577
-4.5611 -10.4315 -2.5986 0.9544
3.2510 -1.2939 -0.7986 0.9857
3.3229 -0.9904 -0.7914 0.9859
3.6476 -0.4081 -0.8377 0.9851
3.9926 -0.0890 -0.9115 0.9837
9.1810 10.8594 -3.2457 0.9433
4.6292 9.9757 -2.5101 0.9559
2.2732 8.6768 -2.0473 0.9639
1.2890 7.6415 -1.7688 0.9687
-0.0842 7.5601 -1.7257 0.9695
-0.7215 7.1714 -1.6451 0.9709
-1.2993 6.7784 -1.5753 0.9721
-1.8502 6.4707 -1.5361 0.9728
-2.4551 6.3744 -1.5591 0.9724
-2.9230 5.9481 -1.5127 0.9732
-3.7455 5.0833 -1.4412 0.9744
-4.1069 4.6437 -1.4149 0.9749
-4.4388 4.1982 -1.3945 0.9752
-4.7433 3.7458 -1.3795 0.9755
-3.4289 0.7769 -0.8025 0.9857
-2.9453 0.1313 -0.6729 0.9880
-2.9994 -0.1337 -0.6853 0.9878
-3.0959 -0.4164 -0.7130 0.9873
-6.5404 -2.1090 -1.5685 0.9722
-6.5319 -3.4855 -1.6898 0.9701
-6.4733 -4.2346 -1.7655 0.9688
-6.2205 -5.8833 -1.9542 0.9655
-6.0064 -6.7915 -2.0694 0.9635
-5.6403 -7.6551 -2.1703 0.9617
-4.2619 -11.0658 -2.7066 0.9525
-3.5555 -12.4343 -2.9518 0.9483
-2.6716 -13.9376 -3.2391 0.9434
3.2479 -1.8273 -0.8506 0.9848
3.2300 -1.4554 -0.8086 0.9856
3.2743 -1.1370 -0.7911 0.9859
3.3715 -0.8433 -0.7932 0.9858
3.7873 -0.2535 -0.8664 0.9845
5.2700 10.1465 -2.6096 0.9542
4.0268 9.7988 -2.4180 0.9575
2.7552 8.8820 -2.1225 0.9626
1.8262 8.4987 -1.9840 0.9650
1.0014 8.1305 -1.8698 0.9669
-1.5683 6.5807 -1.5441 0.9726
-3.1421 5.7335 -1.4923 0.9735
-3.9300 4.8642 -1.4273 0.9747
-4.2764 4.4217 -1.4040 0.9751
-4.5944 3.9729 -1.3863 0.9754
-4.8859 3.5167 -1.3740 0.9756
-5.3956 2.5773 -1.3648 0.9758
-3.8725 1.0608 -0.9164 0.9837
-3.1659 0.5704 -0.7342 0.9869
-6.0961 -4.3877 -1.8462 0.9695
-4.7222 -8.6169 -2.4152 0.9603
-3.6169 -10.8032 -2.8003 0.9542
-1.9497 -13.3683 -3.3207 0.9459
3.2304 -1.6324 -0.8897 0.9852
3.4419 -0.6996 -0.8633 0.9856
2.1331 8.1420 -2.0688 0.9659
1.2918 7.6585 -1.9091 0.9685
-3.2093 5.2833 -1.5195 0.9749
-3.5895 4.8718 -1.4874 0.9754
-4.5540 3.5963 -1.4263 0.9764
-4.8232 3.1552 -1.4167 0.9765
-5.0685 2.7046 -1.4121 0.9766
-5.2908 2.2435 -1.4126 0.9766
-5.4908 1.7705 -1.4181 0.9765
-3.3132 0.7507 -0.8350 0.9861
-2.9494 -0.1315 -0.7257 0.9879
-3.0389 -0.4087 -0.7537 0.9874
-6.2452 -2.0138 -1.6129 0.9733
-6.1463 -4.0207 -1.8053 0.9702
-5.8745 -5.5561 -1.9875 0.9672
-5.6583 -6.3979 -2.0994 0.9654
-5.2962 -7.1880 -2.1946 0.9639
-4.9322 -8.1195 -2.3351 0.9616
-3.9379 -10.2245 -2.6931 0.9559
-3.2616 -11.4065 -2.9161 0.9523
-2.4324 -12.6897 -3.1759 0.9482
-1.4159 -14.0748 -3.4770 0.9434
3.4327 -2.3564 -1.0234 0.9830
3.2440 -1.8251 -0.9149 0.9848
3.2249 -1.4530 -0.8694 0.9855
3.2688 -1.1351 -0.8505 0.9858
3.3659 -0.8419 -0.8528 0.9858
3.5232 -0.5540 -0.8766 0.9854
9.1932 9.9396 -3.3279 0.9458
7.5821 9.8245 -3.0504 0.9502
2.7391 8.8301 -2.2725 0.9626
-0.9670 6.6306 -1.6470 0.9728
-1.5368 6.4488 -1.6295 0.9731
-2.1045 6.2859 -1.6294 0.9731
-3.7679 4.6636 -1.4737 0.9756
-4.4101 3.8136 -1.4331 0.9763
-4.6916 3.3769 -1.4208 0.9765
-4.9488 2.9312 -1.4138 0.9766
-5.1825 2.4755 -1.4117 0.9766
-5.3936 2.0086 -1.4147 0.9766
-3.8036 1.0419 -0.9694 0.9839
-3.0843 0.5556 -0.7703 0.9872
-2.8807 0.2574 -0.7109 0.9882
-2.9343 -0.2622 -0.7763 0.9879
-3.0385 -0.5474 -0.8135 0.9873
-5.9654 -1.6341 -1.6298 0.9747
-5.9738 -2.2246 -1.6797 0.9740
-5.8921 -3.4899 -1.8044 0.9721
-5.7943 -4.1705 -1.8812 0.9709
-5.6522 -4.8876 -1.9690 0.9696
-5.4595 -5.6450 -2.0693 0.9680
-5.1705 -6.3996 -2.1679 0.9665
-4.8107 -7.1781 -2.2769 0.9649
-3.3499 -10.0057 -2.7803 0.9573
-1.7816 -12.2154 -3.2528 0.9502
3.3118 -0.9871 -0.9106 0.9858
10.8465 8.9649 -3.7079 0.9435
2.0881 7.9701 -2.1710 0.9665
1.2472 7.3939 -1.9758 0.9695
0.5551 7.1043 -1.8777 0.9710
-1.2363 6.4499 -1.7305 0.9732
-2.6778 5.4493 -1.5999 0.9752
-3.0774 5.0661 -1.5619 0.9758
-4.3778 3.4571 -1.4699 0.9772
-4.6378 3.0339 -1.4603 0.9773
-5.0881 2.1575 -1.4562 0.9774
-3.2212 0.7298 -0.8703 0.9864
-2.8316 0.3808 -0.7528 0.9883
-2.9836 -0.4013 -0.7933 0.9876
-5.9734 -1.9262 -1.6538 0.9744
-5.8484 -3.8258 -1.8415 0.9715
-5.7292 -4.5243 -1.9236 0.9703
-5.3419 -6.0401 -2.1247 0.9672
-4.9888 -6.7708 -2.2161 0.9658
-4.6250 -7.6139 -2.3474 0.9638
-3.6577 -9.4969 -2.6816 0.9588
-2.2310 -11.6390 -3.1227 0.9522
3.2401 -1.8228 -0.9796 0.9847
3.5194 -0.5534 -0.9388 0.9854
3.7872 -0.2535 -1.0002 0.9844
4.4408 0.0989 -1.1704 0.9818
5.7024 8.9327 -2.7925 0.9571
4.5512 8.7626 -2.6018 0.9600
3.5128 8.5479 -2.4351 0.9625
1.6186 7.5323 -2.0301 0.9686
0.8931 7.2512 -1.9251 0.9702
-0.9452 6.4805 -1.7257 0.9733
-1.5188 6.3731 -1.7263 0.9733
-2.0120 6.0097 -1.6699 0.9741
-2.4652 5.6380 -1.6214 0.9749
-3.2650 4.8718 -1.5453 0.9760
-3.9415 4.0754 -1.4939 0.9768
-4.9840 2.3806 -1.4554 0.9774
-5.1866 1.9315 -1.4583 0.9774
-3.7365 1.0235 -1.0208 0.9841
-3.0018 0.5408 -0.8037 0.9875
-2.8819 -0.2575 -0.8141 0.9880
-5.7188 -2.1297 -1.7170 0.9750
-5.6227 -3.3303 -1.8386 0.9732
-5.1752 -5.3511 -2.0945 0.9695
-4.9010 -6.0660 -2.1941 0.9681
-4.5344 -6.7658 -2.2916 0.9667
-4.1496 -7.5721 -2.4294 0.9648
-3.6818 -8.4205 -2.5857 0.9625
-3.1178 -9.3125 -2.7631 0.9600
-1.6385 -11.2345 -3.1943 0.9539
-0.6835 -12.2584 -3.4543 0.9503
0.4451 -13.3117 -3.7474 0.9462
3.2434 -1.2908 -0.9822 0.9856
3.4423 -0.6997 -0.9883 0.9855
3.6492 -0.4082 -1.0331 0.9849
4.0172 -0.0896 -1.1306 0.9834
8.4153 8.3220 -3.3299 0.9520
7.0846 8.3797 -3.0874 0.9554
4.7706 8.2629 -2.6845 0.9611
3.7671 8.1179 -2.5180 0.9635
2.8530 7.9300 -2.3712 0.9656
2.0193 7.7074 -2.2417 0.9674
1.2163 7.2107 -2.0574 0.9701
-0.0739 6.6387 -1.8680 0.9728
-0.6559 6.5196 -1.8436 0.9731
-1.1998 6.2594 -1.7932 0.9739
-3.3105 4.4930 -1.5702 0.9771
-3.6376 4.1131 -1.5449 0.9774
-3.9381 3.7246 -1.5251 0.9777
-4.4647 2.9207 -1.5011 0.9781
-4.6929 2.5042 -1.4966 0.9781
-4.8986 2.0772 -1.4971 0.9781
-2.7751 0.3732 -0.7878 0.9884
-2.8531 -0.1272 -0.8035 0.9882
-3.2049 -1.0335 -0.9474 0.9861
-5.7075 -2.4202 -1.7442 0.9746
-5.5758 -3.6475 -1.8746 0.9727
-4.3517 -7.1638 -2.3583 0.9658
-3.9269 -7.9909 -2.5051 0.9637
-3.4128 -8.8610 -2.6716 0.9613
-2.0576 -10.7345 -3.0752 0.9556
-1.1814 -11.7434 -3.3208 0.9521
-0.1424 -12.7816 -3.5964 0.9483
1.0820 -13.8468 -3.9078 0.9439
3.4628 -2.3771 -1.1817 0.9827
3.2226 -1.4520 -0.9945 0.9854
3.7995 -0.2544 -1.0714 0.9843
10.6546 8.0350 -3.7546 0.9461
6.4645 8.3764 -2.9770 0.9570
5.3088 8.3161 -2.7759 0.9598
3.2995 8.0288 -2.4423 0.9646
2.4266 7.8226 -2.3044 0.9665
0.8624 7.0019 -1.9849 0.9711
0.2250 6.7285 -1.8942 0.9724
-0.9366 6.4221 -1.8260 0.9734
-1.4522 6.0938 -1.7625 0.9743
-1.9266 5.7545 -1.7074 0.9751
-2.3634 5.4053 -1.6598 0.9758
-2.7658 5.0469 -1.6192 0.9764
-3.4775 4.3041 -1.5568 0.9773
-4.0788 3.5271 -1.5172 0.9778
-4.7986 2.2921 -1.4962 0.9781
-4.9932 1.8595 -1.4991 0.9781
-3.6501 0.9998 -1.0648 0.9844
-2.9229 0.5266 -0.8356 0.9877
-2.7884 0.2492 -0.7877 0.9884
-2.7825 -0.0000 -0.8330 0.9884
-2.8308 -0.2530 -0.8509 0.9882
-3.0126 -0.8252 -0.9351 0.9870
-5.4456 -2.6011 -1.8068 0.9751
-5.3746 -3.1834 -1.8701 0.9743
-5.1149 -4.4230 -2.0244 0.9722
-3.9093 -7.1336 -2.4353 0.9666
-3.4558 -7.9035 -2.5824 0.9646
-2.2720 -9.5338 -2.9342 0.9599
-0.6289 -11.2732 -3.3801 0.9540
3.3291 -2.0734 -1.1742 0.9838
3.2501 -1.2935 -1.0472 0.9855
3.6577 -0.4092 -1.1019 0.9847
4.0392 -0.0900 -1.2096 0.9833
10.4435 7.1690 -3.7923 0.9485
7.7662 7.6801 -3.2699 0.9554
6.5751 7.7771 -3.0489 0.9584
5.4780 7.7926 -2.8517 0.9610
4.4694 7.7413 -2.6761 0.9634
2.6927 7.4846 -2.3813 0.9673
1.1940 7.0787 -2.1491 0.9705
0.5341 6.8352 -2.0526 0.9718
-0.0732 6.5705 -1.9672 0.9729
-0.6326 6.2879 -1.8920 0.9740
-1.1482 5.9898 -1.8259 0.9749
-2.8407 4.6764 -1.6381 0.9774
-3.1849 4.3226 -1.6074 0.9778
-3.5018 3.9596 -1.5825 0.9782
-4.5230 2.4136 -1.5348 0.9788
-2.7204 0.3658 -0.8218 0.9886
-2.7619 0.1231 -0.8277 0.9885
-3.1092 -1.0026 -0.9780 0.9865
-5.4681 -2.3187 -1.7781 0.9755
-5.3252 -3.4836 -1.9051 0.9738
-4.7980 -5.4252 -2.1682 0.9702
-4.1066 -6.7604 -2.3681 0.9675
-3.6928 -7.5146 -2.5067 0.9656
-1.0892 -10.8269 -3.2577 0.9556
0.9847 -12.6017 -3.7842 0.9486
3.4910 -2.3965 -1.2677 0.9825
3.2629 -1.8357 -1.1208 0.9845
3.2293 -1.4551 -1.0604 0.9853
3.5330 -0.5555 -1.0707 0.9852
4.5543 0.1015 -1.3638 0.9812
12.7029 6.4191 -4.2610 0.9423
11.1740 6.9592 -3.9410 0.9465
8.3983 7.5958 -3.3901 0.9538
7.1586 7.7398 -3.1563 0.9569
3.1089 7.5650 -2.4486 0.9664
1.5453 7.1912 -2.2021 0.9698
0.8572 6.9598 -2.0994 0.9711
-0.8956 6.1406 -1.8578 0.9744
-2.2689 5.1891 -1.6955 0.9766
-3.0164 4.5007 -1.6220 0.9776
-3.6505 3.7746 -1.5721 0.9783
-3.9292 3.3977 -1.5551 0.9785
-4.6249 2.2091 -1.5344 0.9788
-4.8122 1.7921 -1.5373 0.9788
-3.5598 0.9751 -1.1050 0.9847
-2.7380 -0.0000 -0.8695 0.9886
-2.7827 -0.2487 -0.8873 0.9883
-2.9540 -0.8092 -0.9727 0.9872
-5.2629 -1.9599 -1.7835 0.9767
-5.2209 -2.4938 -1.8375 0.9760
-5.0329 -3.6225 -1.9693 0.9743
-3.2540 -7.4420 -2.5795 0.9665
-2.7338 -8.1652 -2.7346 0.9645
-2.1224 -8.9061 -2.9076 0.9623
-1.4089 -9.6601 -3.1004 0.9599
-0.5810 -10.4195 -3.3142 0.9571
2.7093 -12.6080 -4.0955 0.9473
3.3425 -2.0818 -1.2506 0.9836
3.2485 -1.6416 -1.1559 0.9848
3.2569 -1.2962 -1.1133 0.9854
3.3271 -0.9916 -1.1026 0.9855
3.4556 -0.7024 -1.1199 0.9853
3.6664 -0.4102 -1.1716 0.9846
12.2086 5.5009 -4.2527 0.9454
10.8669 6.1136 -3.9598 0.9490
8.3551 6.9057 -3.4425 0.9555
7.2049 7.1251 -3.2181 0.9584
6.1298 7.2504 -3.0153 0.9609
5.1295 7.2968 -2.8327 0.9633
4.2016 7.2774 -2.6687 0.9653
0.5092 6.5165 -2.0759 0.9729
-0.0699 6.2763 -1.9934 0.9740
-0.6053 6.0167 -1.9204 0.9749
-1.5581 5.4488 -1.7998 0.9765
-1.9813 5.1444 -1.7508 0.9771
-3.0675 4.1632 -1.6423 0.9785
-3.3746 3.8157 -1.6177 0.9788
-3.9151 3.0917 -1.5843 0.9793
-4.1504 2.7151 -1.5751 0.9794
-4.3635 2.3284 -1.5707 0.9795
-4.5547 1.9313 -1.5712 0.9795
-2.9790 0.6750 -0.9701 0.9873
-2.6672 0.3587 -0.8547 0.9888
-2.7186 0.1212 -0.8643 0.9886
-2.7612 -0.1231 -0.8778 0.9885
-2.9205 -0.6617 -0.9510 0.9875
-5.0940 -3.3323 -1.9332 0.9748
-4.7861 -4.5266 -2.0921 0.9727
-4.5623 -5.1587 -2.1871 0.9715
-4.2398 -5.7543 -2.2700 0.9704
-3.8857 -6.3967 -2.3769 0.9691
-3.4832 -7.0880 -2.5082 0.9674
-3.0046 -7.8012 -2.6549 0.9655
-2.4402 -8.5337 -2.8188 0.9634
-1.0100 -10.0398 -3.2046 0.9585
-0.1204 -10.8018 -3.4307 0.9557
0.9027 -11.5525 -3.6801 0.9525
3.3878 -12.9310 -4.2453 0.9454
3.5377 -2.4285 -1.3628 0.9822
3.2755 -1.8428 -1.1936 0.9844
3.5400 -0.5566 -1.1380 0.9851
12.8932 5.1314 -4.4070 0.9434
10.2149 6.3619 -3.8218 0.9507
7.7707 7.0282 -3.3275 0.9570
6.6579 7.1985 -3.1140 0.9597
5.6204 7.2826 -2.9215 0.9621
3.7637 7.2464 -2.5932 0.9663
2.1739 7.0079 -2.3302 0.9697
0.2139 6.3991 -2.0334 0.9735
-0.8576 5.8803 -1.8873 0.9754
-1.3337 5.5962 -1.8270 0.9761
-1.7738 5.2982 -1.7744 0.9768
-2.1808 4.9876 -1.7288 0.9774
-2.5569 4.6657 -1.6897 0.9779
-2.9041 4.3333 -1.6567 0.9783
-3.2242 3.9907 -1.6293 0.9787
-3.5187 3.6383 -1.6075 0.9790
-4.2597 2.5230 -1.5723 0.9794
-4.6421 1.7288 -1.5732 0.9794
-3.4729 0.9513 -1.1436 0.9850
-2.8177 -0.5077 -0.9619 0.9880
-2.8971 -0.7936 -1.0092 0.9874
-5.0119 -2.3940 -1.8661 0.9768
-4.4640 -4.6157 -2.1574 0.9733
-3.8644 -5.7662 -2.3322 0.9711
-3.4980 -6.3831 -2.4455 0.9698
-0.5400 -9.6846 -3.2589 0.9599
1.3499 -10.9600 -3.7102 0.9545
2.4773 -11.5285 -3.9618 0.9515
5.1031 -12.4177 -4.5107 0.9449
3.3334 -0.9935 -1.1686 0.9854
3.6752 -0.4112 -1.2425 0.9845
13.4613 3.3669 -4.6621 0.9431
6.7145 6.6401 -3.1728 0.9609
5.7372 6.7860 -2.9856 0.9632
4.8196 6.8560 -2.8157 0.9653
3.1616 6.8130 -2.5235 0.9688
2.4170 6.7182 -2.3988 0.9703
1.0826 6.4180 -2.1868 0.9729
0.4863 6.2233 -2.0973 0.9740
-0.0669 6.0046 -2.0176 0.9750
-0.5800 5.7653 -1.9468 0.9758
-1.0558 5.5081 -1.8843 0.9766
-1.9056 4.9478 -1.7814 0.9779
-3.5287 3.3374 -1.6319 0.9797
-3.7792 2.9844 -1.6179 0.9799
-4.0072 2.6213 -1.6088 0.9800
-4.2133 2.2483 -1.6045 0.9800
-4.3978 1.8648 -1.6049 0.9800
-4.5610 1.4708 -1.6101 0.9800
-2.6272 0.5952 -0.9051 0.9887
-2.6180 0.3521 -0.8875 0.9889
-2.6762 0.1193 -0.9001 0.9888
-2.7168 -0.1212 -0.9137 0.9886
-2.7751 -0.3732 -0.9408 0.9883
-5.0698 -1.6348 -1.7897 0.9778
-5.0390 -2.1367 -1.8389 0.9772
-4.9766 -2.6556 -1.8952 0.9765
-3.6853 -6.0668 -2.3849 0.9705
-3.2941 -6.7033 -2.5095 0.9690
-2.8325 -7.3545 -2.6479 0.9673
-0.9410 -9.3535 -3.1585 0.9611
0.8323 -10.6517 -3.5897 0.9559
3.0880 -11.7869 -4.0938 0.9499
4.4019 -12.2353 -4.3688 0.9466
5.8316 -12.5667 -4.6546 0.9432
3.6031 -2.4734 -1.4684 0.9817
3.2883 -1.8500 -1.2677 0.9842
3.2441 -1.4617 -1.1955 0.9851
3.3834 -0.8462 -1.1718 0.9854
3.5470 -0.5578 -1.2064 0.9850
12.8886 3.8412 -4.5186 0.9448
10.5497 5.3310 -3.9713 0.9513
9.3996 5.8541 -3.7205 0.9543
8.2876 6.2500 -3.4875 0.9571
7.2250 6.5347 -3.2731 0.9597
6.2184 6.7233 -3.0770 0.9621
5.2709 6.8297 -2.8986 0.9643
3.5545 6.8436 -2.5910 0.9680
2.7825 6.7709 -2.4595 0.9696
1.3978 6.5051 -2.2355 0.9723
0.7789 6.3239 -2.1408 0.9735
0.2045 6.1168 -2.0563 0.9745
-0.8224 5.6388 -1.9146 0.9762
-1.2805 5.3734 -1.8559 0.9770
-2.4625 4.4934 -1.7215 0.9786
-3.1092 3.8484 -1.6623 0.9793
-3.3949 3.5103 -1.6407 0.9796
-4.1129 2.4361 -1.6061 0.9800
-4.4821 1.6692 -1.6069 0.9800
-2.6265 0.7195 -0.9150 0.9886
-2.7169 0.4895 -0.9275 0.9884
-2.6500 0.2368 -0.8939 0.9888
-2.6519 -0.0000 -0.9403 0.9888
-2.6931 -0.2407 -0.9588 0.9886
-2.7668 -0.4985 -0.9969 0.9881
-2.8417 -0.7785 -1.0448 0.9876
-4.8169 -2.3008 -1.8928 0.9776
-4.4623 -3.8586 -2.0918 0.9753
-4.2644 -4.4093 -2.1751 0.9743
-3.6790 -5.4895 -2.3432 0.9723
-3.3205 -6.0590 -2.4499 0.9711
-2.9087 -6.6524 -2.5745 0.9697
-2.4282 -7.2526 -2.7120 0.9681
-1.8720 -7.8551 -2.8633 0.9663
-1.2329 -8.4535 -3.0292 0.9644
-0.5041 -9.0398 -3.2104 0.9623
0.3211 -9.6030 -3.4070 0.9600
1.2475 -10.1288 -3.6187 0.9576
3.4142 -11.0063 -4.0861 0.9523
3.4005 -2.1179 -1.4205 0.9831
3.2708 -1.3018 -1.2483 0.9852
3.3397 -0.9954 -1.2357 0.9853
3.4692 -0.7052 -1.2553 0.9851
3.6946 -0.4133 -1.3182 0.9843
12.2249 3.0577 -4.4683 0.9479
11.2396 3.9028 -4.2189 0.9508
9.2033 5.1777 -3.7444 0.9562
8.1975 5.6273 -3.5257 0.9587
7.2205 5.9679 -3.3216 0.9610
5.3882 6.3732 -2.9593 0.9652
4.5422 6.4613 -2.8006 0.9670
3.7453 6.4871 -2.6561 0.9687
1.6435 6.2733 -2.2995 0.9729
1.0335 6.1273 -2.2033 0.9740
0.4651 5.9525 -2.1171 0.9750
-0.0641 5.7529 -2.0400 0.9759
-1.0144 5.2917 -1.9105 0.9774
-1.4398 5.0351 -1.8569 0.9780
-2.2009 4.4788 -1.7695 0.9790
-2.5401 4.1815 -1.7348 0.9794
-2.8536 3.8729 -1.7058 0.9798
-3.1425 3.5533 -1.6820 0.9801
-3.4081 3.2234 -1.6633 0.9803
-3.6510 2.8832 -1.6496 0.9804
-4.0715 2.1726 -1.6364 0.9806
-4.2499 1.8021 -1.6368 0.9806
-4.4071 1.4211 -1.6419 0.9805
-2.6347 0.1175 -0.9351 0.9889
-2.6733 -0.1192 -0.9489 0.9887
-4.8457 -2.0547 -1.8663 0.9779
-4.7801 -2.5507 -1.9212 0.9773
-4.5451 -3.5892 -2.0535 0.9757
-4.3689 -4.1320 -2.1323 0.9748
-3.8551 -5.2322 -2.3045 0.9728
-3.5026 -5.7661 -2.3922 0.9718
-3.1228 -6.3546 -2.5106 0.9704
-1.5633 -8.1554 -2.9444 0.9654
-0.8801 -8.7487 -3.1178 0.9634
1.7503 -10.3768 -3.7314 0.9563
2.8344 -10.8189 -3.9657 0.9536
4.0182 -11.1689 -4.2088 0.9509
3.2913 -1.1429 -1.2354 0.9853
3.5567 -0.5593 -1.2767 0.9848
3.8773 -0.2596 -1.3779 0.9836
13.5738 1.5185 -4.8431 0.9437
12.6963 2.5806 -4.5940 0.9465
8.6975 5.4169 -3.6332 0.9574
6.7460 6.1014 -3.2253 0.9621
5.8293 6.3026 -3.0441 0.9642
4.9591 6.4257 -2.8781 0.9661
4.1376 6.4814 -2.7266 0.9679
1.9649 6.3341 -2.3516 0.9722
-2.0213 4.6228 -1.7890 0.9788
-3.0010 3.7144 -1.6932 0.9799
-3.2782 3.3896 -1.6720 0.9802
-3.5323 3.0545 -1.6559 0.9804
-3.7642 2.7093 -1.6445 0.9805
-3.9744 2.3540 -1.6379 0.9806
-4.1633 1.9887 -1.6360 0.9806
-4.3311 1.6129 -1.6388 0.9806
-2.5828 0.7075 -0.9496 0.9887
-2.6060 0.2329 -0.9277 0.9890
-2.6101 -0.0000 -0.9746 0.9889
-2.7878 -0.7637 -1.0794 0.9877
-4.5502 -2.6951 -1.9748 0.9777
-4.2762 -3.6978 -2.1110 0.9762
-4.0798 -4.2185 -2.1914 0.9753
-3.8386 -4.7511 -2.2808 0.9743
-3.5086 -5.2351 -2.3533 0.9735
-2.7597 -6.3117 -2.5723 0.9710
-1.1593 -7.9487 -2.9995 0.9663
-0.4722 -8.4693 -3.1675 0.9644
0.2996 -8.9622 -3.3485 0.9624
2.1077 -9.8086 -3.7462 0.9581
3.1433 -10.1336 -3.9618 0.9557
5.4373 -10.4686 -4.4049 0.9509
6.6610 -10.4343 -4.6225 0.9485
9.1248 -9.8656 -5.0181 0.9442
10.2883 -9.3053 -5.1800 0.9425
3.3542 -0.9997 -1.3069 0.9852
3.4903 -0.7095 -1.3300 0.9849
3.7243 -0.4166 -1.3994 0.9841
12.6612 0.8476 -4.7384 0.9473
11.1853 2.7977 -4.3054 0.9520
10.3329 3.5880 -4.0844 0.9544
7.6374 5.2428 -3.4592 0.9612
6.7539 5.5822 -3.2719 0.9633
5.0757 6.0036 -2.9357 0.9670
3.5492 6.1475 -2.6506 0.9701
2.8479 6.1370 -2.5264 0.9715
0.9882 5.8588 -2.2186 0.9750
0.4455 5.7014 -2.1355 0.9759
-0.9756 5.0895 -1.9351 0.9781
-1.3862 4.8479 -1.8828 0.9787
-2.1228 4.3198 -1.7973 0.9797
-2.4516 4.0359 -1.7633 0.9800
-2.7558 3.7402 -1.7348 0.9804
-3.2941 3.1156 -1.6931 0.9808
-4.2616 1.3742 -1.6720 0.9811
-2.5920 0.1156 -0.9689 0.9890
-2.6781 -0.3602 -1.0090 0.9885
-2.8043 -0.9043 -1.1002 0.9875
-4.5964 -2.4527 -1.9454 0.9780
-4.4955 -2.9408 -2.0059 0.9773
-4.3589 -3.4422 -2.0740 0.9766
-3.9651 -4.4833 -2.2349 0.9748
-3.6863 -5.0031 -2.3205 0.9738
-3.3377 -5.4946 -2.4006 0.9729
-2.9666 -6.0369 -2.5117 0.9717
-2.0408 -7.1371 -2.7719 0.9688
-1.4724 -7.6811 -2.9204 0.9672
-0.8261 -8.2118 -3.0819 0.9654
-0.0972 -8.7200 -3.2564 0.9634
2.6150 -9.9812 -3.8529 0.9569
6.0451 -10.4704 -4.5146 0.9497
8.5180 -10.0752 -4.9266 0.9452
9.7167 -9.6091 -5.1029 0.9433
3.3391 -1.8786 -1.4307 0.9838
3.4062 -0.8520 -1.3111 0.9851
3.9184 -0.2623 -1.4665 0.9834
12.9554 0.2887 -4.8389 0.9462
10.7654 3.2085 -4.1947 0.9532
7.1928 5.4243 -3.3640 0.9623
6.3219 5.7178 -3.1830 0.9643
5.4822 5.9273 -3.0149 0.9661
4.6790 6.0627 -2.8597 0.9678
3.9155 6.1336 -2.7172 0.9694
2.5128 6.1145 -2.4685 0.9722
1.8732 6.0388 -2.3609 0.9734
0.1877 5.6130 -2.0971 0.9763
-0.3021 5.4189 -2.0266 0.9771
-1.1846 4.9707 -1.9081 0.9784
-2.6067 3.8895 -1.7484 0.9802
-2.8989 3.5880 -1.7225 0.9805
-3.1680 3.2757 -1.7016 0.9807
-3.8435 2.2765 -1.6680 0.9811
-2.5629 0.2290 -0.9608 0.9891
-2.6685 -0.4808 -1.0642 0.9884
-2.7221 -0.7457 -1.1077 0.9879
-4.3773 -2.5927 -1.9967 0.9784
-4.2582 -3.0648 -2.0591 0.9777
-3.3526 -5.0024 -2.3634 0.9745
-3.0094 -5.4914 -2.4576 0.9735
-2.6237 -6.0006 -2.5703 0.9723
-1.6702 -7.0084 -2.8276 0.9695
1.0821 -8.7861 -3.4743 0.9627
1.9596 -9.1194 -3.6608 0.9607
2.9093 -9.3787 -3.8539 0.9587
4.9908 -9.6091 -4.2496 0.9545
7.1978 -9.3264 -4.6237 0.9506
8.2819 -8.9538 -4.7869 0.9489
3.3086 -1.3168 -1.3976 0.9848
3.5144 -0.7144 -1.4075 0.9847
3.7549 -0.4201 -1.4829 0.9839
4.4117 -0.0983 -1.7319 0.9812
10.9750 1.7258 -4.3603 0.9534
9.5526 3.3170 -3.9687 0.9575
7.1432 4.9036 -3.4005 0.9635
4.0656 5.7833 -2.7745 0.9701
3.3706 5.8380 -2.6457 0.9714
2.7109 5.8419 -2.5276 0.9727
2.0872 5.8015 -2.4198 0.9739
0.9463 5.6099 -2.2328 0.9758
-0.9392 4.8999 -1.9581 0.9788
-1.7054 4.4282 -1.8624 0.9798
-2.0492 4.1699 -1.8235 0.9802
-2.3681 3.8985 -1.7902 0.9806
-2.9358 3.3196 -1.7393 0.9811
-3.1862 3.0135 -1.7212 0.9813
-4.1237 1.3297 -1.7005 0.9816
-2.5490 0.1137 -1.0014 0.9891
-2.6312 -0.3539 -1.0420 0.9887
-2.7055 -0.6130 -1.0887 0.9882
-2.7236 -0.8783 -1.1231 0.9878
-4.4945 -1.9058 -1.9160 0.9792
-4.4243 -2.3609 -1.9682 0.9787
-4.1853 -3.3051 -2.0930 0.9773
-4.0109 -3.7934 -2.1667 0.9766
-3.1858 -5.2445 -2.4083 0.9740
-2.4090 -6.2548 -2.6306 0.9716
0.6718 -8.5969 -3.3843 0.9636
1.5115 -8.9609 -3.5666 0.9617
4.4518 -9.5935 -4.1508 0.9556
5.5379 -9.5923 -4.3470 0.9535
6.6450 -9.4527 -4.5349 0.9516
9.7847 -8.0872 -4.9821 0.9469
10.6561 -7.3150 -5.0728 0.9460
3.3758 -1.8992 -1.5202 0.9835
3.2986 -1.4863 -1.4199 0.9846
3.6130 -0.5681 -1.4354 0.9844
3.9609 -0.2652 -1.5580 0.9831
11.8040 0.2631 -4.6339 0.9505
10.6466 2.1640 -4.2639 0.9544
9.9322 2.9601 -4.0676 0.9564
9.1626 3.6466 -3.8704 0.9585
8.3621 4.2256 -3.6771 0.9605
7.5494 4.7018 -3.4906 0.9625
6.7394 5.0824 -3.3128 0.9644
5.9435 5.3756 -3.1452 0.9661
5.1704 5.5902 -2.9886 0.9678
3.7137 5.8174 -2.7087 0.9708
3.0363 5.8459 -2.5853 0.9721
1.7888 5.7665 -2.3696 0.9744
1.2184 5.6701 -2.2761 0.9754
0.6826 5.5423 -2.1916 0.9763
0.1801 5.3871 -2.1154 0.9771
-0.7303 5.0073 -1.9860 0.9785
-1.1411 4.7880 -1.9318 0.9791
-1.5240 4.5520 -1.8840 0.9796
-2.5186 3.7581 -1.7755 0.9807
-2.8024 3.4686 -1.7501 0.9810
-3.3033 2.8565 -1.7140 0.9814
-3.5218 2.5348 -1.7030 0.9815
-3.7194 2.2030 -1.6966 0.9816
-4.0531 1.5094 -1.6974 0.9816
-3.4629 0.9486 -1.4092 0.9847
-2.5634 0.4618 -1.0222 0.9889
-2.5207 0.2252 -0.9932 0.9892
-2.6211 -0.4722 -1.0967 0.9885
-4.3022 -2.0550 -1.9633 0.9796
-3.7490 -3.8765 -2.2206 0.9769
-3.2102 -4.7900 -2.3744 0.9754
-2.4989 -5.7151 -2.5685 0.9734
-2.0705 -6.1843 -2.6855 0.9722
-1.5832 -6.6434 -2.8122 0.9709
-0.4185 -7.5047 -3.0951 0.9680
0.2638 -7.8896 -3.2506 0.9664
1.0136 -8.2300 -3.4146 0.9648
1.8294 -8.5133 -3.5856 0.9630
2.7065 -8.7248 -3.7616 0.9613
4.6077 -8.8715 -4.1165 0.9577
6.5991 -8.5507 -4.4477 0.9544
3.5828 -2.2314 -1.7381 0.9819
3.5392 -0.7194 -1.4872 0.9845
10.6192 0.7109 -4.3826 0.9550
10.1178 1.5910 -4.2175 0.9567
8.1675 3.6801 -3.6889 0.9620
3.2070 5.5547 -2.6412 0.9726
2.5850 5.5705 -2.5288 0.9738
1.4350 5.4773 -2.3316 0.9758
0.9072 5.3784 -2.2460 0.9767
-0.0568 5.0959 -2.0985 0.9782
-0.4948 4.9189 -2.0357 0.9788
-0.9051 4.7217 -1.9797 0.9794
-1.2885 4.5063 -1.9300 0.9799
-2.2891 3.7684 -1.8156 0.9811
-2.8406 3.2119 -1.7656 0.9816
-3.3063 2.6110 -1.7348 0.9819
-3.5083 2.2950 -1.7263 0.9820
-3.8515 1.6331 -1.7226 0.9821
-3.9928 1.2875 -1.7275 0.9820
-2.4504 0.3295 -1.0181 0.9894
-2.5479 -0.1136 -1.0502 0.9890
-2.5854 -0.3477 -1.0742 0.9888
-2.6464 -0.8534 -1.1450 0.9880
-4.3344 -1.8379 -1.9387 0.9798
-4.2626 -2.2746 -1.9895 0.9793
-4.1596 -2.7211 -2.0468 0.9787
-3.8501 -3.6413 -2.1821 0.9773
-2.6922 -5.4784 -2.5136 0.9739
-1.3164 -6.8673 -2.8793 0.9702
-0.7343 -7.2990 -3.0208 0.9688
-0.0858 -7.7020 -3.1717 0.9672
0.6303 -8.0660 -3.3316 0.9656
1.4135 -8.3797 -3.4993 0.9639
3.1656 -8.7990 -3.8506 0.9604
4.1181 -8.8742 -4.0285 0.9586
5.1034 -8.8394 -4.2030 0.9568
7.0901 -8.3862 -4.5220 0.9536
8.0392 -7.9502 -4.6558 0.9523
8.9192 -7.3719 -4.7649 0.9512
3.3517 -1.1639 -1.4610 0.9848
4.0162 -0.2689 -1.6575 0.9827
9.8320 1.9985 -4.1314 0.9575
7.8056 3.9444 -3.6013 0.9629
5.6038 5.0683 -3.1114 0.9678
4.8888 5.2857 -2.9648 0.9693
2.8921 5.5684 -2.5838 0.9732
1.1672 5.4318 -2.2878 0.9763
0.6549 5.3176 -2.2062 0.9771
-0.2794 5.0101 -2.0663 0.9785
-0.7034 4.8227 -2.0069 0.9791
-1.1001 4.6161 -1.9541 0.9797
-1.8160 4.1533 -1.8666 0.9806
-2.4353 3.6337 -1.8012 0.9813
-2.9649 3.0657 -1.7562 0.9817
-3.1977 2.7652 -1.7408 0.9819
-3.4098 2.4543 -1.7300 0.9820
-3.5071 0.9607 -1.4974 0.9844
-2.4793 0.2215 -1.0250 0.9893
-2.4893 -0.0000 -1.0738 0.9892
-2.5221 -0.2254 -1.0923 0.9890
-4.1505 -1.9825 -1.9841 0.9802
-3.3712 -4.1725 -2.3139 0.9769
-3.0794 -4.5948 -2.3860 0.9762
-2.3839 -5.4522 -2.5668 0.9744
-0.9793 -6.7144 -2.9270 0.9709
-0.3955 -7.0925 -3.0642 0.9695
0.2486 -7.4358 -3.2093 0.9681
1.7139 -7.9758 -3.5190 0.9651
3.3860 -8.2394 -3.8426 0.9619
5.1848 -8.1218 -4.1564 0.9589
6.0901 -7.8912 -4.2998 0.9575
7.7990 -7.0538 -4.5360 0.9552
8.5509 -6.4485 -4.6198 0.9544
9.2005 -5.7301 -4.6755 0.9539
3.3749 -1.7054 -1.6311 0.9837
3.4220 -1.0199 -1.5403 0.9846
3.8394 -0.4295 -1.6665 0.9833
10.1439 -0.2260 -4.3767 0.9568
9.3754 1.4742 -4.0938 0.9595
3.6702 5.2210 -2.7529 0.9726
3.0566 5.2942 -2.6370 0.9737
1.9080 5.3033 -2.4312 0.9757
0.8708 5.1624 -2.2583 0.9775
-0.4768 4.7392 -2.0546 0.9795
-1.5905 4.1296 -1.9089 0.9809
-2.4929 3.3833 -1.8128 0.9819
-2.7501 3.1096 -1.7907 0.9821
-2.9867 2.8248 -1.7733 0.9823
-3.3990 2.2235 -1.7520 0.9825
-3.5752 1.9078 -1.7480 0.9825
-3.7317 1.5824 -1.7484 0.9825
-2.5715 0.5826 -1.1373 0.9886
-2.4106 0.3242 -1.0492 0.9895
-2.5077 -0.1118 -1.0828 0.9891
-2.5277 -0.3399 -1.1001 0.9890
-2.5465 -0.5770 -1.1263 0.9887
-2.5665 -0.8276 -1.1632 0.9883
-4.1102 -2.1933 -2.0096 0.9799
-3.8708 -3.0567 -2.1275 0.9787
-3.6997 -3.4991 -2.1966 0.9781
-3.4907 -3.9470 -2.2729 0.9773
-3.2410 -4.3986 -2.3568 0.9765
-2.9145 -4.7979 -2.4215 0.9758
-2.5709 -5.2315 -2.5144 0.9749
-2.1841 -5.6710 -2.6214 0.9739
-1.7445 -6.1007 -2.7371 0.9727
-1.2488 -6.5151 -2.8615 0.9715
-0.0810 -7.2691 -3.1358 0.9688
0.5932 -7.5912 -3.2845 0.9674
1.3262 -7.8627 -3.4395 0.9659
3.8283 -8.2497 -3.9231 0.9612
4.7299 -8.1924 -4.0805 0.9596
5.6391 -8.0218 -4.2297 0.9582
8.8899 -6.1026 -4.6513 0.9541
3.6745 -0.5778 -1.6045 0.9839
4.1378 -0.2770 -1.7889 0.9821
9.9922 0.2227 -4.3113 0.9574
9.6055 1.0746 -4.1692 0.9588
8.5688 2.5538 -3.8569 0.9618
7.3112 3.6946 -3.5336 0.9649
6.6485 4.1407 -3.3786 0.9665
5.2968 4.7907 -3.0807 0.9694
3.9859 5.1647 -2.8142 0.9720
1.1195 5.2098 -2.2986 0.9771
0.1664 4.9783 -2.1486 0.9785
-0.2690 4.8244 -2.0843 0.9792
-2.6241 3.2479 -1.8011 0.9820
-3.4896 2.0669 -1.7495 0.9825
-3.8025 1.4161 -1.7503 0.9825
-3.9290 1.0763 -1.7573 0.9824
-2.4719 0.4453 -1.0835 0.9891
-2.4387 0.2179 -1.0561 0.9894
-2.4282 0.0000 -1.0956 0.9894
-2.4702 -0.6767 -1.1556 0.9888
-2.4890 -0.9269 -1.1984 0.9884
-4.0071 -1.9140 -2.0037 0.9807
-3.9185 -2.3209 -2.0550 0.9802
-3.7994 -2.7346 -2.1122 0.9797
-3.4607 -3.5783 -2.2462 0.9784
-3.2361 -4.0053 -2.3234 0.9777
-2.9578 -4.4133 -2.3972 0.9770
-2.6300 -4.7990 -2.4693 0.9763
-2.2776 -5.2091 -2.5653 0.9754
-1.4310 -6.0047 -2.7853 0.9733
-0.9298 -6.3751 -2.9070 0.9721
0.2349 -7.0258 -3.1719 0.9696
0.8977 -7.2885 -3.3135 0.9683
1.6108 -7.4959 -3.4595 0.9669
2.3691 -7.6373 -3.6081 0.9655
3.1647 -7.7009 -3.7568 0.9641
3.9865 -7.6755 -3.9026 0.9628
5.6482 -7.3186 -4.1713 0.9602
7.8878 -5.9485 -4.4577 0.9576
3.4537 -1.0293 -1.6261 0.9843
3.6097 -0.7337 -1.6621 0.9840
3.9263 -0.4392 -1.7827 0.9828
9.3962 -0.2094 -4.2408 0.9596
8.7259 1.3721 -3.9856 0.9620
7.7381 2.6870 -3.6961 0.9647
5.9556 4.0883 -3.2595 0.9688
5.3302 4.4055 -3.1202 0.9701
4.7074 4.6553 -2.9873 0.9714
4.0945 4.8430 -2.8616 0.9726
-0.0526 4.7239 -2.1316 0.9795
-0.4597 4.5698 -2.0724 0.9800
-1.2015 4.2020 -1.9720 0.9810
-1.5375 3.9921 -1.9303 0.9814
-1.8512 3.7670 -1.8939 0.9817
-2.4139 3.2762 -1.8362 0.9823
-2.6641 3.0123 -1.8145 0.9825
-2.8941 2.7373 -1.7974 0.9827
-3.2949 2.1554 -1.7765 0.9829
-3.4659 1.8496 -1.7726 0.9829
-2.4105 0.1075 -1.0887 0.9895
-2.4671 -0.5590 -1.1414 0.9890
-3.9665 -2.1166 -2.0286 0.9805
-3.8629 -2.5270 -2.0828 0.9799
-3.7277 -2.9437 -2.1432 0.9794
-3.1088 -4.2193 -2.3648 0.9773
-2.7929 -4.5977 -2.4273 0.9767
-1.1871 -6.1929 -2.8452 0.9727
-0.6590 -6.5506 -2.9707 0.9715
0.5597 -7.1634 -3.2421 0.9690
1.2482 -7.3998 -3.3861 0.9676
1.9847 -7.5756 -3.5336 0.9662
2.7629 -7.6796 -3.6826 0.9648
3.5732 -7.7000 -3.8302 0.9634
4.4029 -7.6261 -3.9733 0.9621
5.2361 -7.4485 -4.1082 0.9608
7.5563 -6.2454 -4.4234 0.9579
3.5115 -0.8783 -1.6332 0.9842
8.5033 1.7284 -3.9153 0.9626
8.0073 2.3864 -3.7701 0.9640
7.4575 2.9680 -3.6217 0.9654
6.2666 3.9029 -3.3311 0.9681
5.6430 4.2556 -3.1891 0.9695
4.3994 4.7566 -2.9235 0.9720
2.6365 5.0762 -2.5810 0.9752
1.0749 5.0024 -2.3087 0.9778
0.6048 4.9111 -2.2327 0.9785
0.1602 4.7925 -2.1637 0.9792
-1.6971 3.8814 -1.9114 0.9816
-2.2811 3.4037 -1.8488 0.9822
-2.5416 3.1457 -1.8248 0.9824
-2.7816 2.8762 -1.8054 0.9826
-3.0016 2.5957 -1.7905 0.9827
-3.2020 2.3047 -1.7801 0.9828
-3.3828 2.0037 -1.7740 0.9829
-2.3615 0.0000 -1.1132 0.9896
-2.3934 -0.6556 -1.1698 0.9891
-2.4034 -0.8950 -1.2089 0.9887
-3.5138 -3.0385 -2.1897 0.9797
-3.1096 -3.8488 -2.3324 0.9784
-2.5216 -4.6013 -2.4733 0.9771
-1.7950 -5.3613 -2.6651 0.9753
-1.3640 -5.7234 -2.7734 0.9743
-0.3556 -6.3766 -3.0105 0.9722
0.2224 -6.6534 -3.1380 0.9710
0.8481 -6.8859 -3.2704 0.9698
2.2272 -7.1800 -3.5436 0.9673
2.9678 -7.2218 -3.6804 0.9661
4.4991 -7.0477 -3.9413 0.9637
5.9963 -6.4832 -4.1628 0.9617
7.3121 -5.5144 -4.3170 0.9603
7.8539 -4.8915 -4.3615 0.9599
3.6649 -0.7449 -1.7629 0.9836
4.0187 -0.4496 -1.9061 0.9823
8.7420 -0.1948 -4.1218 0.9621
8.1525 1.2820 -3.8901 0.9642
7.7383 1.9355 -3.7600 0.9653
7.2643 2.5225 -3.6248 0.9666
6.7453 3.0393 -3.4874 0.9678
6.1980 3.4870 -3.3522 0.9690
5.6341 3.8676 -3.2213 0.9702
5.0541 4.1773 -3.0908 0.9714
2.7893 4.8312 -2.6296 0.9756
2.2608 4.8719 -2.5317 0.9765
1.7530 4.8727 -2.4410 0.9774
0.8047 4.7708 -2.2806 0.9788
0.3653 4.6752 -2.2105 0.9795
-0.0507 4.5540 -2.1468 0.9801
-0.4437 4.4099 -2.0892 0.9806
-0.8137 4.2451 -2.0375 0.9811
-2.3388 3.1741 -1.8585 0.9827
-2.8058 2.6537 -1.8204 0.9831
-3.0102 2.3771 -1.8080 0.9832
-3.3616 1.7938 -1.7961 0.9833
-3.5087 1.4878 -1.7965 0.9833
-3.6366 1.1726 -1.8011 0.9832
-2.5265 0.5724 -1.2211 0.9886
-2.3694 -0.1057 -1.1180 0.9896
-2.3799 -0.3201 -1.1319 0.9894
-2.3894 -0.5414 -1.1548 0.9892
-2.3945 -0.7721 -1.1859 0.9889
-2.3540 -4.7902 -2.5159 0.9767
-0.6262 -6.2243 -2.9488 0.9727
1.1778 -6.9826 -3.3379 0.9692
1.8682 -7.1309 -3.4748 0.9679
2.5942 -7.2107 -3.6122 0.9667
3.3468 -7.2122 -3.7479 0.9655
4.1142 -7.1260 -3.8787 0.9643
4.8819 -6.9446 -4.0015 0.9632
5.6329 -6.6627 -4.1126 0.9622
6.3484 -6.2781 -4.2087 0.9613
3.4588 -1.5585 -1.7883 0.9834
3.4587 -1.2010 -1.7259 0.9839
3.5642 -0.8915 -1.7318 0.9839
8.8292 -0.5910 -4.1712 0.9616
8.3326 0.9321 -3.9523 0.9636
7.9538 1.6167 -3.8259 0.9647
7.0096 2.7897 -3.5562 0.9672
5.3447 4.0306 -3.1554 0.9708
4.7634 4.3083 -3.0275 0.9720
4.1852 4.5250 -2.9054 0.9731
3.6161 4.6855 -2.7899 0.9742
3.0607 4.7945 -2.6812 0.9752
2.5226 4.8568 -2.5798 0.9761
2.0042 4.8771 -2.4855 0.9770
1.0332 4.8081 -2.3181 0.9785
0.5821 4.7264 -2.2447 0.9792
0.1544 4.6176 -2.1778 0.9798
-0.6315 4.3299 -2.0626 0.9808
-0.9904 4.1557 -2.0137 0.9813
-1.3271 3.9637 -1.9703 0.9817
-1.6422 3.7557 -1.9322 0.9820
-1.9362 3.5331 -1.8991 0.9823
-3.4376 1.6420 -1.7958 0.9833
-3.6932 1.0117 -1.8050 0.9832
-2.2975 -0.0000 -1.1300 0.9898
-2.3082 -0.4159 -1.1536 0.9896
-2.3278 -0.8669 -1.2217 0.9890
-2.3666 -1.1304 -1.2900 0.9884
-3.6536 -2.1640 -2.0886 0.9812
-3.5359 -2.5449 -2.1428 0.9808
-3.3875 -2.9293 -2.2027 0.9802
-3.2065 -3.3155 -2.2686 0.9796
-2.7346 -4.0804 -2.4160 0.9783
-2.0872 -4.7735 -2.5625 0.9770
-1.7165 -5.1269 -2.6593 0.9762
-0.3381 -6.0634 -2.9870 0.9733
0.2111 -6.3135 -3.1071 0.9722
0.8030 -6.5201 -3.2312 0.9711
4.9179 -6.3723 -3.9591 0.9648
6.2319 -5.6364 -4.1329 0.9632
6.8077 -5.1339 -4.1938 0.9627
3.4960 -1.3914 -1.8507 0.9834
8.1647 -0.1819 -4.0168 0.9643
7.6425 1.2017 -3.8052 0.9661
6.8390 2.3748 -3.5608 0.9682
5.8698 3.3023 -3.3126 0.9704
5.3412 3.6666 -3.1865 0.9715
4.8015 3.9686 -3.0639 0.9726
4.2586 4.2114 -2.9458 0.9737
3.1880 4.5350 -2.7266 0.9756
2.1674 4.6706 -2.5326 0.9773
1.6831 4.6783 -2.4454 0.9781
1.2186 4.6512 -2.3649 0.9788
-0.4284 4.2584 -2.1051 0.9811
-0.7864 4.1028 -2.0547 0.9816
-1.4395 3.7376 -1.9700 0.9823
-1.7352 3.5311 -1.9352 0.9826
-2.0110 3.3105 -1.9051 0.9829
-2.5038 2.8310 -1.8589 0.9833
-3.1005 2.0282 -1.8223 0.9836
-3.5284 1.1378 -1.8234 0.9836
-2.2513 0.3028 -1.1173 0.9899
-2.2893 0.1021 -1.1271 0.9898
-2.3142 -0.5244 -1.1671 0.9895
-2.3173 -0.7472 -1.1976 0.9892
-2.3375 -0.9912 -1.2488 0.9887
-3.7015 -1.9751 -2.0636 0.9815
-3.4656 -2.7368 -2.1720 0.9805
0.5019 -6.4227 -3.1687 0.9717
3.1445 -6.7762 -3.6743 0.9672
4.5680 -6.4981 -3.9069 0.9652
5.2614 -6.2232 -4.0082 0.9643
6.5283 -5.3958 -4.1658 0.9629
7.5237 -4.2328 -4.2460 0.9622
3.5124 -1.2196 -1.8288 0.9836
3.8887 -0.6115 -1.9362 0.9826
7.8035 0.8729 -3.8621 0.9656
7.4639 1.5171 -3.7462 0.9666
7.0605 2.1042 -3.6237 0.9677
6.6065 2.6293 -3.4973 0.9688
6.1145 3.0898 -3.3696 0.9699
5.6075 3.4924 -3.2492 0.9710
4.5300 4.0972 -3.0042 0.9731
3.4521 4.4730 -2.7791 0.9751
2.9271 4.5852 -2.6756 0.9760
2.4164 4.6525 -2.5786 0.9769
0.9940 4.6256 -2.3270 0.9791
-0.6101 4.1831 -2.0792 0.9813
-1.2840 3.8351 -1.9892 0.9821
-1.8756 3.4225 -1.9196 0.9828
-2.3878 2.9554 -1.8688 0.9832
-3.0127 2.1685 -1.8258 0.9836
-2.3061 0.4155 -1.1525 0.9896
-2.2416 -0.4038 -1.1677 0.9898
-3.5313 -2.0916 -2.1041 0.9817
-3.4145 -2.4576 -2.1568 0.9813
-2.8791 -3.5635 -2.3487 0.9796
-2.6314 -3.9263 -2.4232 0.9790
-2.3251 -4.2427 -2.4803 0.9785
-1.6435 -4.9087 -2.6539 0.9770
-0.3220 -5.7751 -2.9653 0.9743
3.2946 -6.3432 -3.6645 0.9684
3.9590 -6.2016 -3.7720 0.9675
5.8292 -5.2722 -4.0295 0.9653
7.2041 -3.6404 -4.1381 0.9644
3.6258 -1.0806 -1.9396 0.9831
3.8270 -0.7779 -2.0021 0.9826
7.6510 -0.1705 -3.9234 0.9662
7.4570 0.4992 -3.8316 0.9670
7.1855 1.1299 -3.7290 0.9678
6.8475 1.7127 -3.6187 0.9688
6.4548 2.2414 -3.5030 0.9698
6.0191 2.7121 -3.3846 0.9708
5.5641 3.1303 -3.2730 0.9717
5.0732 3.4826 -3.1547 0.9727
4.0602 4.0153 -2.9275 0.9747
3.5521 4.2014 -2.8206 0.9756
2.0801 4.4824 -2.5334 0.9780
1.6175 4.4961 -2.4496 0.9788
0.7463 4.4245 -2.3003 0.9800
0.3396 4.3455 -2.2346 0.9806
-0.0473 4.2415 -2.1746 0.9811
-0.4139 4.1148 -2.1202 0.9816
-0.7606 3.9677 -2.0711 0.9820
-1.0871 3.8020 -2.0273 0.9824
-1.3940 3.6193 -1.9884 0.9827
-1.6813 3.4213 -1.9543 0.9830
-1.9494 3.2091 -1.9250 0.9833
-2.1985 2.9838 -1.9001 0.9835
-2.6408 2.4977 -1.8635 0.9838
-3.0095 1.9688 -1.8437 0.9840
-3.3050 1.4014 -1.8404 0.9840
-3.4249 1.1044 -1.8448 0.9840
-2.4709 0.5598 -1.2989 0.9887
-2.2093 0.2971 -1.1428 0.9900
-2.2319 0.0995 -1.1453 0.9900
-2.2377 -0.0998 -1.1483 0.9900
-2.2446 -0.3019 -1.1611 0.9899
-2.2425 -0.5081 -1.1788 0.9897
-2.2530 -0.7265 -1.2136 0.9894
-3.3452 -2.6416 -2.1852 0.9810
-3.1833 -3.0107 -2.2463 0.9805
-2.7605 -3.7465 -2.3858 0.9793
-2.4796 -4.0820 -2.4486 0.9788
-2.1668 -4.4092 -2.5187 0.9782
-1.8275 -4.7450 -2.6068 0.9774
-1.4492 -5.0681 -2.7024 0.9766
-1.0295 -5.3709 -2.8036 0.9757
-0.5682 -5.6481 -2.9102 0.9748
-0.0657 -5.8933 -3.0215 0.9739
0.4766 -6.0997 -3.1367 0.9729
1.0559 -6.2597 -3.2545 0.9719
2.9626 -6.3842 -3.6082 0.9689
4.2880 -6.0997 -3.8225 0.9670
4.9309 -5.8323 -3.9155 0.9663
5.5412 -5.4798 -3.9953 0.9656
6.1034 -5.0446 -4.0595 0.9650
3.5841 -1.2445 -1.9451 0.9831
4.0550 -0.6376 -2.1044 0.9817
7.7158 -0.5165 -3.9645 0.9658
7.5644 0.1686 -3.8790 0.9666
7.3303 0.8200 -3.7815 0.9674
7.0241 1.4277 -3.6747 0.9683
6.6573 1.9841 -3.5613 0.9693
5.7886 2.9251 -3.3250 0.9713
5.3208 3.3138 -3.2136 0.9722
3.3001 4.2760 -2.7691 0.9760
2.8027 4.3904 -2.6704 0.9769
1.8467 4.4937 -2.4907 0.9784
0.5405 4.3883 -2.2667 0.9803
0.1436 4.2965 -2.2039 0.9809
-0.2331 4.1808 -2.1467 0.9814
-0.5898 4.0437 -2.0950 0.9818
-1.2430 3.7127 -2.0072 0.9826
-1.8177 3.3169 -1.9391 0.9831
-2.0763 3.0980 -1.9120 0.9834
-2.3161 2.8665 -1.8893 0.9836
-2.7399 2.3693 -1.8570 0.9839
-3.0903 1.8304 -1.8413 0.9840
-2.2093 0.1974 -1.1372 0.9901
-2.1765 0.0000 -1.1619 0.9902
-2.2033 -1.0524 -1.3035 0.9890
-3.4150 -2.0227 -2.1189 0.9822
-3.1551 -2.7283 -2.2267 0.9813
-2.9804 -3.0817 -2.2887 0.9807
-2.2356 -4.0795 -2.4834 0.9791
-1.5753 -4.7051 -2.6488 0.9778
-1.1911 -4.9980 -2.7429 0.9770
-0.3072 -5.5087 -2.9454 0.9753
0.1911 -5.7149 -3.0525 0.9744
0.7241 -5.8795 -3.1625 0.9735
1.2884 -5.9958 -3.2739 0.9726
1.8788 -6.0567 -3.3853 0.9717
2.4885 -6.0553 -3.4949 0.9708
3.1088 -5.9855 -3.6006 0.9699
3.7295 -5.8421 -3.7001 0.9691
4.3387 -5.6218 -3.7910 0.9683
4.9233 -5.3231 -3.8708 0.9677
5.9643 -4.4979 -3.9880 0.9667
6.3943 -3.9824 -4.0215 0.9664
3.9760 -0.8082 -2.1659 0.9818
7.1908 -0.1602 -3.8397 0.9679
6.4659 1.6172 -3.5581 0.9702
5.7042 2.5702 -3.3400 0.9720
4.8268 3.3134 -3.1254 0.9738
3.3971 4.0181 -2.8089 0.9764
0.7195 4.2657 -2.3094 0.9806
0.3277 4.1939 -2.2457 0.9811
-0.4002 3.9783 -2.1345 0.9820
-0.7359 3.8390 -2.0867 0.9824
-1.0526 3.6812 -2.0439 0.9828
-1.6297 3.3164 -1.9727 0.9834
-2.1329 2.8948 -1.9196 0.9838
-2.7519 2.1732 -1.8719 0.9842
-2.9224 1.9117 -1.8642 0.9843
-3.2094 1.3609 -1.8610 0.9843
-2.4373 0.5522 -1.3341 0.9887
-2.1681 0.2916 -1.1679 0.9901
-2.1735 0.0969 -1.1615 0.9902
-2.1810 -0.2933 -1.1748 0.9901
-2.1912 -0.7066 -1.2291 0.9896
-2.2448 -1.1979 -1.3583 0.9885
-3.3607 -2.1985 -2.1439 0.9820
-3.2309 -2.5514 -2.1978 0.9815
-3.0716 -2.9051 -2.2570 0.9810
-2.3892 -3.9331 -2.4567 0.9793
-2.0824 -4.2376 -2.5207 0.9788
-1.7530 -4.5515 -2.6038 0.9781
-0.9845 -5.1361 -2.7918 0.9766
-0.0626 -5.6165 -2.9985 0.9749
4.0363 -5.7417 -3.7468 0.9687
3.7000 -1.2848 -2.0909 0.9824
7.2955 -1.1472 -3.9425 0.9671
7.2472 -0.4851 -3.8775 0.9676
6.2918 1.8752 -3.5048 0.9707
5.9097 2.3520 -3.3955 0.9716
5.4920 2.7753 -3.2849 0.9725
3.1585 4.0926 -2.7598 0.9768
2.6867 4.2086 -2.6655 0.9776
2.2246 4.2831 -2.5765 0.9784
1.7751 4.3196 -2.4931 0.9790
0.5214 4.2330 -2.2768 0.9808
0.1387 4.1485 -2.2159 0.9814
-1.2039 3.5958 -2.0244 0.9830
-2.2473 2.7816 -1.9090 0.9839
-2.8394 2.0437 -1.8676 0.9843
-3.1444 1.5020 -1.8603 0.9843
-3.3767 0.9250 -1.8690 0.9843
-2.2057 0.3974 -1.1965 0.9899
-2.1547 0.1925 -1.1549 0.9902
-2.1192 -0.0000 -1.1770 0.9904
-2.1202 -0.1895 -1.1823 0.9903
-2.1250 -0.3828 -1.1992 0.9902
-2.1317 -0.7938 -1.2633 0.9896
-2.2265 -1.3188 -1.4372 0.9882
-3.0477 -2.6354 -2.2378 0.9817
-2.4396 -3.6402 -2.4338 0.9801
-1.8459 -4.2216 -2.5590 0.9791
-1.1412 -4.7886 -2.7340 0.9777
-0.2934 -5.2616 -2.9268 0.9762
0.1822 -5.4496 -3.0284 0.9754
0.6894 -5.5973 -3.1322 0.9745
1.2245 -5.6984 -3.2371 0.9737
2.3571 -5.7357 -3.4441 0.9720
2.9400 -5.6605 -3.5426 0.9712
4.0914 -5.3013 -3.7192 0.9698
4.6371 -5.0136 -3.7930 0.9692
5.1467 -4.6549 -3.8542 0.9687
5.6078 -4.2290 -3.9009 0.9684
6.3406 -3.2040 -3.9456 0.9680
6.5946 -2.6246 -3.9420 0.9680
6.8525 -1.3928 -3.8837 0.9685
6.8548 -0.7668 -3.8308 0.9689
6.7760 -0.1510 -3.7643 0.9695
6.6219 0.4433 -3.6860 0.9701
6.4000 1.0064 -3.5982 0.9708
6.1188 1.5304 -3.5030 0.9716
3.7060 3.6649 -2.8948 0.9764
2.3565 4.0817 -2.6176 0.9787
1.4977 4.1631 -2.4572 0.9800
0.3165 4.0500 -2.2562 0.9816
-0.0441 3.9603 -2.1996 0.9820
-0.7124 3.7163 -2.1016 0.9828
-2.2885 2.5876 -1.9185 0.9843
-2.8387 1.8570 -1.8840 0.9846
-2.9870 1.5939 -1.8804 0.9846
-3.1176 1.3220 -1.8807 0.9846
-2.4040 0.5446 -1.3690 0.9888
-2.1264 0.2860 -1.1916 0.9902
-2.1192 -0.0945 -1.1782 0.9903
-2.1237 -0.2856 -1.1901 0.9902
-3.1224 -2.4657 -2.2097 0.9820
-2.9657 -2.8050 -2.2672 0.9815
-0.5185 -5.1544 -2.8772 0.9766
-0.0597 -5.3603 -2.9773 0.9758
1.5011 -5.7295 -3.2895 0.9733
2.6481 -5.7065 -3.4940 0.9716
3.2317 -5.5974 -3.5897 0.9709
4.3680 -5.1665 -3.7576 0.9695
4.8972 -4.8430 -3.8253 0.9690
5.3840 -4.4500 -3.8794 0.9685
6.1841 -3.4791 -3.9408 0.9681
6.4777 -2.9187 -3.9460 0.9680
3.9228 -1.3621 -2.3063 0.9812
4.0912 -1.0233 -2.3423 0.9809
6.8640 -1.0793 -3.8591 0.9687
6.8252 -0.4569 -3.7992 0.9692
6.7080 0.1495 -3.7265 0.9698
4.8155 2.9991 -3.1508 0.9744
4.3796 3.3028 -3.0465 0.9752
3.9321 3.5564 -2.9446 0.9760
3.4793 3.7618 -2.8459 0.9768
2.1375 4.1154 -2.5756 0.9790
1.7078 4.1557 -2.4954 0.9797
0.8892 4.1382 -2.3508 0.9808
0.5032 4.0859 -2.2864 0.9813
-0.2179 3.9070 -2.1733 0.9823
-0.8682 3.6433 -2.0801 0.9830
-1.1666 3.4843 -2.0407 0.9833
-1.7095 3.1194 -1.9756 0.9839
-1.9543 2.9160 -1.9496 0.9841
-2.3911 2.4724 -1.9103 0.9844
-2.5832 2.2338 -1.8967 0.9845
-2.9150 1.7266 -1.8817 0.9846
-3.1762 1.1829 -1.8824 0.9846
-3.2798 0.8984 -1.8887 0.9846
-2.1578 0.3887 -1.2177 0.9900
-2.1018 0.1878 -1.1720 0.9904
