ply
format ascii 1.0
element vertex 1581
property float32 x
property float32 y
property float32 z
property float32 I
end_header
1.4598 4.7059 0.2870 0.9805
-1.7175 -2.5626 0.1283 0.9877
-1.2121 -2.7720 0.1258 0.9880
-0.5278 -3.6189 0.1521 0.9855
-2.7796 -2.6289 0.1591 0.9848
-2.2158 -2.5054 0.1391 0.9867
-1.1017 -2.8604 0.1274 0.9878
1.4618 4.7125 0.2052 0.9804
-2.4532 -2.5365 0.0880 0.9860
-1.7192 -2.5652 0.0770 0.9877
-1.4534 -2.6521 0.0754 0.9880
-0.7623 -3.1987 0.0820 0.9869
-2.7752 -2.6248 0.0953 0.9848
-2.2153 -2.5049 0.0834 0.9867
-1.8627 -2.5281 0.0783 0.9875
-1.3318 -2.7101 0.0753 0.9880
-0.6478 -3.3793 0.0858 0.9863
-0.4150 -4.1248 0.1034 0.9835
1.4639 4.7192 0.1232 0.9804
-12.8936 7.6369 0.3737 0.9418
-13.4924 6.4448 0.3729 0.9419
-2.4525 -2.5358 0.0293 0.9860
-1.7209 -2.5678 0.0257 0.9877
-1.4557 -2.6563 0.0252 0.9880
-1.2140 -2.7766 0.0252 0.9880
-0.9861 -2.9454 0.0258 0.9877
-0.7619 -3.1970 0.0273 0.9869
-0.5293 -3.6291 0.0305 0.9854
1.2920 4.9315 0.0424 0.9798
-9.7364 11.0092 0.1222 0.9429
-10.3376 9.7773 0.1183 0.9447
-10.9100 8.6156 0.1155 0.9459
-11.4651 7.5001 0.1139 0.9467
-13.1238 4.2319 0.1146 0.9463
-13.7067 3.1055 0.1168 0.9453
-1.8647 -2.5307 0.0261 0.9875
-1.5817 -2.6038 0.0253 0.9879
-0.8758 -3.0628 0.0265 0.9873
-0.4169 -4.1439 0.0346 0.9835
-9.4208 11.6603 0.1246 0.9418
-10.0414 10.3828 0.1200 0.9439
-10.6266 9.1892 0.1168 0.9454
-11.1891 8.0534 0.1146 0.9463
-12.2868 5.8689 0.1132 0.9470
-12.8412 4.7821 0.1139 0.9467
-13.4119 3.6739 0.1156 0.9459
-14.6475 1.3089 0.1222 0.9429
-14.4437 -1.2907 -0.1205 0.9436
-2.4518 -2.5351 -0.0293 0.9860
-0.9884 -2.9523 -0.0259 0.9876
-0.7615 -3.1955 -0.0273 0.9869
-0.5300 -3.6342 -0.0305 0.9854
1.2759 4.8699 -0.0418 0.9801
-7.5847 12.4862 -0.1214 0.9432
-8.8802 10.0411 -0.1114 0.9478
-9.4551 8.9426 -0.1082 0.9493
-10.5196 6.8817 -0.1045 0.9510
-11.0278 5.8846 -0.1039 0.9512
-12.0352 3.8809 -0.1051 0.9507
-13.0826 1.7594 -0.1097 0.9486
-13.6434 0.6084 -0.1135 0.9468
-14.6446 -1.9695 -0.1228 0.9426
-2.7840 -2.6331 -0.0318 0.9848
-2.2174 -2.5073 -0.0278 0.9867
-1.3360 -2.7186 -0.0252 0.9880
-0.4188 -4.1630 -0.0348 0.9834
-7.9317 11.8350 -0.1184 0.9446
-9.7299 8.4139 -0.1069 0.9498
-11.2793 5.3877 -0.1039 0.9512
-11.7821 4.3877 -0.1045 0.9510
-12.2907 3.3668 -0.1059 0.9503
-12.8133 2.3085 -0.1082 0.9493
-12.7700 0.0000 -0.3185 0.9502
-13.2453 -1.1836 -0.3316 0.9482
-14.2004 -3.8899 -0.3672 0.9428
-2.4642 -2.5480 -0.0884 0.9859
-1.7245 -2.5731 -0.0772 0.9877
-1.4603 -2.6647 -0.0758 0.9879
-1.2196 -2.7892 -0.0759 0.9879
-0.9907 -2.9592 -0.0778 0.9876
-0.5308 -3.6393 -0.0917 0.9854
-5.3808 13.9710 -0.3734 0.9419
-9.2269 7.2865 -0.2932 0.9540
-9.7181 6.3573 -0.2896 0.9546
-10.1918 5.4386 -0.2881 0.9548
-10.6548 4.5181 -0.2886 0.9547
-11.1131 3.5836 -0.2912 0.9544
-12.0397 1.6192 -0.3030 0.9526
-13.0255 -0.5808 -0.3252 0.9492
-2.8025 -2.6506 -0.0962 0.9847
-2.2210 -2.5113 -0.0836 0.9867
-1.8685 -2.5360 -0.0786 0.9875
-1.3381 -2.7230 -0.0757 0.9879
-0.8798 -3.0769 -0.0798 0.9873
-5.8037 13.2734 -0.3613 0.9437
-7.2536 10.8232 -0.3249 0.9492
-7.8723 9.7437 -0.3124 0.9511
-8.4415 8.7284 -0.3028 0.9526
-8.9726 7.7590 -0.2958 0.9536
-11.7819 0.0000 -0.4899 0.9539
-12.4766 -2.2477 -0.5271 0.9505
-12.9449 -3.5459 -0.5581 0.9477
-1.7262 -2.5757 -0.1289 0.9877
-1.2224 -2.7956 -0.1269 0.9879
-0.9931 -2.9661 -0.1301 0.9876
-0.5340 -3.6614 -0.1538 0.9853
-2.7944 14.5784 -0.6172 0.9423
-5.6752 11.5487 -0.5350 0.9498
-7.5513 8.5383 -0.4740 0.9554
-8.5655 6.7642 -0.4538 0.9572
-9.9022 4.1989 -0.4472 0.9579
-10.3216 3.3283 -0.4509 0.9575
-10.7360 2.4324 -0.4577 0.9569
-11.9981 -0.5350 -0.4994 0.9531
-12.2837 -1.6520 -0.5153 0.9516
-12.7067 -2.8790 -0.5417 0.9492
-13.1923 -4.2540 -0.5763 0.9460
-2.2317 -2.5234 -0.1401 0.9866
-1.8705 -2.5387 -0.1311 0.9875
-1.3402 -2.7273 -0.1264 0.9879
-1.1091 -2.8797 -0.1283 0.9877
-0.8828 -3.0873 -0.1335 0.9872
-0.4361 -4.3351 -0.1812 0.9827
-3.3001 13.8477 -0.5919 0.9446
-5.2995 12.1203 -0.5500 0.9484
-6.0292 11.0020 -0.5216 0.9510
-6.6819 9.9701 -0.4990 0.9531
-7.2739 9.0031 -0.4813 0.9547
-7.8180 8.0838 -0.4676 0.9560
-8.8004 6.3342 -0.4508 0.9575
-9.2534 5.4809 -0.4472 0.9579
-9.6892 4.6282 -0.4465 0.9579
-10.1128 3.7661 -0.4487 0.9577
-11.3587 1.0150 -0.4742 0.9554
-11.3063 -1.0103 -0.6611 0.9555
-12.2873 -4.5758 -0.7637 0.9488
-12.7080 -6.0701 -0.8203 0.9451
-2.4901 -2.5748 -0.2086 0.9858
-2.0512 -2.5388 -0.1901 0.9870
-1.7305 -2.5821 -0.1810 0.9876
-1.2251 -2.8020 -0.1781 0.9878
-0.9961 -2.9752 -0.1827 0.9875
-0.5386 -3.6929 -0.2174 0.9852
-2.5316 13.2071 -0.7832 0.9475
-4.4961 11.6739 -0.7286 0.9511
-5.2324 10.6477 -0.6910 0.9536
-5.8893 9.6952 -0.6607 0.9556
-7.0247 7.9430 -0.6176 0.9584
-8.8483 4.7217 -0.5841 0.9606
-10.0112 2.2683 -0.5979 0.9597
-11.1198 -0.4958 -0.6483 0.9564
-11.3639 -1.5283 -0.6678 0.9551
-11.7011 -2.6511 -0.6988 0.9531
-12.0871 -3.8976 -0.7397 0.9504
-12.9313 -6.9004 -0.8537 0.9430
-2.8402 -2.6863 -0.2277 0.9845
-1.8793 -2.5506 -0.1845 0.9874
-1.1117 -2.8864 -0.1802 0.9877
-0.8858 -3.0976 -0.1876 0.9872
-0.6558 -3.4214 -0.2029 0.9861
-3.0012 12.5937 -0.7540 0.9494
-4.0918 12.2215 -0.7507 0.9497
-4.8754 11.1503 -0.7088 0.9524
-5.5697 10.1634 -0.6750 0.9546
-6.1931 9.2407 -0.6479 0.9564
-7.7624 6.7124 -0.5977 0.9597
-8.2146 5.9125 -0.5895 0.9603
-9.0501 4.3229 -0.5842 0.9606
-9.4427 3.5165 -0.5869 0.9604
-9.8238 2.6911 -0.5933 0.9600
-10.1972 1.8371 -0.6035 0.9593
-10.1998 0.0000 -0.7644 0.9599
-10.5195 -0.9400 -0.7915 0.9585
-10.6873 -1.9254 -0.8138 0.9574
-10.9958 -3.0120 -0.8544 0.9553
-11.6252 -5.5529 -0.9655 0.9496
-2.5033 -2.5884 -0.2699 0.9857
-1.7386 -2.5942 -0.2340 0.9876
-1.2280 -2.8084 -0.2297 0.9878
-0.9994 -2.9850 -0.2359 0.9875
1.2598 4.8087 -0.3725 0.9803
-1.3279 13.2001 -0.9942 0.9482
-3.1591 11.0483 -0.8611 0.9550
-4.1537 10.7849 -0.8661 0.9547
-5.4797 9.0209 -0.7910 0.9585
-7.4894 5.9143 -0.7152 0.9624
-7.9063 5.1721 -0.7080 0.9628
-8.2999 4.4290 -0.7050 0.9630
-8.6740 3.6781 -0.7060 0.9629
-9.0320 2.9125 -0.7112 0.9626
-9.7117 1.3061 -0.7343 0.9615
-10.3600 -0.4619 -0.7771 0.9593
-10.8413 -2.4563 -0.8330 0.9564
-11.4653 -4.8617 -0.9333 0.9513
-11.7881 -6.2903 -1.0013 0.9478
-1.1143 -2.8931 -0.2323 0.9876
-0.7702 13.8138 -1.0368 0.9460
-1.8409 12.6226 -0.9559 0.9501
-2.7516 11.5461 -0.8895 0.9535
-3.5404 10.5747 -0.8357 0.9563
-5.1746 9.4424 -0.8069 0.9577
-6.3121 7.8126 -0.7527 0.9605
-6.8099 7.0413 -0.7341 0.9615
-7.2708 6.2873 -0.7203 0.9622
-9.2060 2.5218 -0.7153 0.9624
-4.4480 0.0000 -0.4078 0.9823
-9.9798 -1.7979 -0.9297 0.9601
-2.0705 -2.5627 -0.3020 0.9869
-1.2321 -2.8178 -0.2819 0.9877
1.2595 4.8074 -0.4556 0.9802
-0.1464 13.1364 -1.2044 0.9486
-1.2148 12.0755 -1.1126 0.9524
-2.9231 10.2229 -0.9748 0.9582
-3.8591 10.0200 -0.9844 0.9578
-4.5242 9.2065 -0.9404 0.9596
-5.1226 8.4329 -0.9046 0.9611
-5.6656 7.6895 -0.8756 0.9624
-6.6204 6.2616 -0.8354 0.9641
-8.1658 3.4626 -0.8131 0.9650
-4.2496 0.5715 -0.3931 0.9829
-10.5913 -4.4911 -1.0547 0.9548
-10.8289 -5.7784 -1.1253 0.9519
-2.9095 -2.7518 -0.3671 0.9840
-2.2643 -2.5603 -0.3133 0.9864
-1.8973 -2.5750 -0.2932 0.9872
-1.6035 -2.6397 -0.2832 0.9877
-1.1169 -2.8999 -0.2849 0.9876
1.5079 4.8608 -0.4665 0.9798
0.4586 13.7162 -1.2582 0.9464
-1.6895 11.5844 -1.0733 0.9541
-2.5398 10.6573 -1.0044 0.9569
-4.8310 8.8154 -0.9216 0.9604
-5.4004 8.0580 -0.8893 0.9618
-6.3959 6.6134 -0.8435 0.9637
-7.6309 4.5198 -0.8131 0.9650
-4.1098 0.3673 -0.3783 0.9836
-3.7849 0.0000 -0.4105 0.9849
-9.2297 -0.8248 -1.0051 0.9634
-9.3568 -1.6857 -1.0312 0.9625
-9.5507 -2.6162 -1.0741 0.9609
-9.9276 -4.7420 -1.1934 0.9567
-10.0922 -5.9776 -1.2723 0.9539
-2.5405 -2.6269 -0.3964 0.9854
-2.0804 -2.5749 -0.3591 0.9868
-1.0077 -3.0098 -0.3443 0.9873
-0.7812 -3.2780 -0.3655 0.9865
2.3842 14.1347 -1.5548 0.9440
1.0172 13.0177 -1.4163 0.9488
-0.1339 12.0241 -1.3043 0.9528
-1.1191 11.1248 -1.2128 0.9560
-2.7194 9.5103 -1.0729 0.9610
-3.6028 9.3545 -1.0873 0.9605
-4.2363 8.6206 -1.0418 0.9621
-5.3285 7.2319 -0.9743 0.9645
-5.8048 6.5636 -0.9504 0.9654
-6.2435 5.9051 -0.9321 0.9660
-6.6497 5.2513 -0.9191 0.9665
-7.0278 4.5974 -0.9109 0.9668
-7.3811 3.9387 -0.9075 0.9669
-7.7125 3.2704 -0.9087 0.9669
-3.7330 0.1665 -0.4053 0.9851
-3.9258 -0.1750 -0.4262 0.9843
-9.6503 -3.1118 -1.0998 0.9600
-10.3036 -8.1366 -1.4240 0.9485
-3.0148 -2.8513 -0.4501 0.9834
-2.2755 -2.5730 -0.3726 0.9863
-1.9065 -2.5875 -0.3486 0.9872
-1.6118 -2.6533 -0.3367 0.9876
-1.1229 -2.9155 -0.3389 0.9875
-0.8949 -3.1295 -0.3531 0.9870
-0.6448 11.5642 -1.2563 0.9545
-1.5607 10.7015 -1.1730 0.9574
-5.0743 7.5714 -0.9886 0.9640
-5.5717 6.8962 -0.9616 0.9650
-6.4504 5.5779 -0.9250 0.9663
-7.2074 4.2690 -0.9086 0.9669
-7.5494 3.6061 -0.9075 0.9669
-7.8708 2.9312 -0.9110 0.9668
-3.9949 0.7197 -0.4403 0.9838
-3.5692 0.0000 -0.4473 0.9857
-3.7700 -0.3369 -0.4743 0.9849
-8.8044 -1.5862 -1.1211 0.9646
-9.4431 -6.7967 -1.4580 0.9542
-1.4916 -2.7218 -0.3889 0.9876
-1.2469 -2.8517 -0.3900 0.9875
-1.0153 -3.0325 -0.4008 0.9872
1.2588 4.8047 -0.6224 0.9802
-0.1235 11.0824 -1.3889 0.9563
-1.0372 10.3102 -1.2986 0.9591
-1.8363 9.5800 -1.2224 0.9614
-2.5416 8.8885 -1.1585 0.9634
-3.3777 8.7699 -1.1777 0.9628
-4.5293 7.4563 -1.0933 0.9654
-5.0281 6.8242 -1.0623 0.9664
-5.9060 5.5859 -1.0187 0.9678
-6.2951 4.9712 -1.0052 0.9682
-6.6561 4.3543 -0.9967 0.9684
-6.9921 3.7312 -0.9932 0.9686
-7.3056 3.0978 -0.9944 0.9685
-7.5984 2.4502 -1.0005 0.9683
-3.5494 0.4774 -0.4488 0.9857
-3.5348 0.1576 -0.4434 0.9858
-9.1843 -3.8945 -1.2501 0.9606
-9.4731 -7.4808 -1.5127 0.9525
-3.1283 -2.9587 -0.5396 0.9828
-1.9158 -2.6001 -0.4047 0.9871
-1.6202 -2.6672 -0.3911 0.9875
-1.3642 -2.7761 -0.3876 0.9876
0.3842 11.4913 -1.4408 0.9547
-2.1995 9.2296 -1.1890 0.9625
-3.6875 8.4336 -1.1535 0.9636
-4.7843 7.1387 -1.0769 0.9659
-5.6998 5.8936 -1.0275 0.9675
-6.1042 5.2786 -1.0113 0.9680
-6.4789 4.6632 -1.0003 0.9683
-6.8271 4.0437 -0.9944 0.9685
-7.1515 3.4160 -0.9932 0.9686
-7.4545 2.7761 -0.9968 0.9684
-3.8077 0.6860 -0.4848 0.9845
-3.5366 0.3161 -0.4450 0.9858
-3.3945 0.0000 -0.4828 0.9864
-3.5138 -0.3140 -0.5018 0.9858
-8.3135 -1.4977 -1.2015 0.9664
-8.4341 -2.3103 -1.2438 0.9653
-8.5568 -3.1866 -1.2987 0.9638
-8.7603 -6.3052 -1.5352 0.9573
-2.6065 -2.6951 -0.5333 0.9850
-1.4994 -2.7360 -0.4438 0.9875
-1.2545 -2.8690 -0.4454 0.9874
-0.7963 -3.3412 -0.4886 0.9862
1.2584 4.8033 -0.7063 0.9801
1.9819 11.7494 -1.6948 0.9530
-0.1144 10.2743 -1.4615 0.9593
-2.3850 8.3408 -1.2339 0.9656
-2.9984 7.7852 -1.1866 0.9669
-3.7556 7.6424 -1.2112 0.9662
-4.2800 7.0459 -1.1726 0.9672
-4.7588 6.4587 -1.1411 0.9681
-5.6019 5.2983 -1.0967 0.9693
-5.9751 4.7185 -1.0829 0.9697
-6.3204 4.1347 -1.0743 0.9699
-6.6407 3.5436 -1.0706 0.9700
-6.9380 2.9420 -1.0719 0.9700
-3.3671 0.4528 -0.4832 0.9864
-3.3610 0.1499 -0.4785 0.9865
-3.4470 -0.1537 -0.4908 0.9862
-3.6292 -0.4881 -0.5208 0.9853
-8.3643 -1.8951 -1.2199 0.9659
-8.6091 -3.6505 -1.3301 0.9629
-8.7468 -5.7218 -1.4867 0.9587
-8.7375 -8.2638 -1.7106 0.9526
-2.3205 -2.6238 -0.4982 0.9859
-1.1367 -2.9513 -0.4498 0.9873
-0.9088 -3.1783 -0.4702 0.9867
-0.6816 -3.5556 -0.5149 0.9855
4.0394 13.0216 -1.9392 0.9464
0.3552 10.6244 -1.5120 0.9580
-0.5539 9.9345 -1.4152 0.9606
-1.3533 9.2790 -1.3338 0.9628
-2.0606 8.6468 -1.2643 0.9647
-4.0239 7.3427 -1.1909 0.9667
-4.9829 6.1675 -1.1278 0.9685
-5.7921 5.0087 -1.0892 0.9695
-7.0785 2.6361 -1.0744 0.9699
-7.3442 2.0118 -1.0831 0.9697
-3.6717 0.6615 -0.5306 0.9850
-3.3525 0.2996 -0.4787 0.9865
-8.1299 -3.8833 -1.4347 0.9642
-8.1670 -5.8782 -1.6023 0.9601
-8.1233 -7.0245 -1.7101 0.9574
-1.7832 -2.6607 -0.5100 0.9871
-0.8048 -3.3771 -0.5528 0.9860
-0.5993 -4.1092 -0.6612 0.9833
4.4029 12.2380 -2.0710 0.9487
1.2581 4.8020 -0.7905 0.9801
1.8267 10.8293 -1.7488 0.9565
0.7959 10.1857 -1.6269 0.9595
-0.1067 9.5730 -1.5245 0.9620
-1.6124 8.4117 -1.3638 0.9659
-2.2458 7.8543 -1.3008 0.9675
-3.5526 7.2294 -1.2827 0.9679
-4.0557 6.6766 -1.2439 0.9689
-6.0156 3.9353 -1.1447 0.9713
-6.3213 3.3733 -1.1410 0.9714
-6.8648 2.2136 -1.1486 0.9712
-3.9744 0.9005 -0.6489 0.9836
-3.2600 0.1454 -0.5196 0.9869
-3.3344 -0.1487 -0.5315 0.9866
-3.4817 -0.4682 -0.5594 0.9859
-7.9125 -1.7927 -1.2919 0.9677
-8.0993 -3.4344 -1.4009 0.9650
-8.1512 -6.4369 -1.6539 0.9588
-8.0826 -7.6445 -1.7715 0.9559
-1.6374 -2.6954 -0.5022 0.9873
-0.9160 -3.2035 -0.5306 0.9866
-0.6929 -3.6147 -0.5861 0.9852
3.6815 11.8679 -1.9786 0.9509
2.3992 11.1648 -1.8184 0.9548
-0.5172 9.2764 -1.4794 0.9631
-1.9377 8.1310 -1.3310 0.9667
-3.2830 7.5085 -1.3049 0.9674
-4.7312 5.8560 -1.1988 0.9700
-5.1361 5.3107 -1.1764 0.9705
-5.5091 4.7639 -1.1598 0.9709
-5.8534 4.2131 -1.1484 0.9712
-6.7371 2.5089 -1.1448 0.9713
-4.5041 1.2338 -0.7436 0.9813
-7.4964 -1.3505 -1.3431 0.9695
-7.5438 -2.0664 -1.3792 0.9687
-7.6180 -2.8370 -1.4334 0.9675
-7.6628 -3.6602 -1.4974 0.9661
-2.7166 -2.8090 -0.6890 0.9843
-2.1536 -2.6655 -0.6042 0.9862
-1.2700 -2.9046 -0.5590 0.9872
-1.0390 -3.1032 -0.5770 0.9868
-0.8136 -3.4140 -0.6188 0.9858
7.1872 12.4487 -2.5346 0.9433
5.4793 11.8075 -2.2952 0.9485
4.0275 11.1945 -2.0977 0.9528
-0.0998 8.9583 -1.5797 0.9643
-0.8490 8.4393 -1.4956 0.9661
-1.5189 7.9243 -1.4227 0.9678
-2.7100 7.0365 -1.3296 0.9698
-3.8527 6.3424 -1.3085 0.9703
-4.2952 5.8295 -1.2768 0.9710
-5.0754 4.8004 -1.2318 0.9720
-5.7374 3.7533 -1.2089 0.9725
-6.2993 2.6711 -1.2065 0.9726
-6.5463 2.1109 -1.2128 0.9724
-3.2276 -0.1439 -0.5697 0.9870
-3.3507 -0.4506 -0.5961 0.9864
-7.5058 -1.7006 -1.3570 0.9692
-7.6729 -4.0944 -1.5335 0.9653
-1.9632 -2.6644 -0.5836 0.9866
-1.6513 -2.7183 -0.5608 0.9872
-1.1509 -2.9882 -0.5646 0.9871
-0.7047 -3.6762 -0.6600 0.9849
6.2973 12.1244 -2.4090 0.9460
4.7250 11.4977 -2.1919 0.9508
3.3804 10.8974 -2.0118 0.9547
1.2024 9.7628 -1.7344 0.9608
0.3083 9.2227 -1.6271 0.9632
-1.1931 8.1809 -1.4578 0.9670
-3.1111 7.1152 -1.3693 0.9690
-3.6165 6.5993 -1.3269 0.9699
-4.5026 5.5730 -1.2633 0.9713
-4.8923 5.0587 -1.2409 0.9718
-5.2512 4.5409 -1.2241 0.9722
-6.1675 2.9460 -1.2052 0.9726
-6.4255 2.3929 -1.2090 0.9725
-3.1509 0.2816 -0.5578 0.9872
-3.3117 -0.5966 -0.6512 0.9864
-7.2187 -2.6883 -1.4907 0.9691
-7.2442 -3.4602 -1.5536 0.9678
-7.2349 -4.2852 -1.6272 0.9663
-7.1858 -5.1720 -1.7133 0.9646
-7.0900 -6.1309 -1.8139 0.9625
-2.8236 -2.9196 -0.7860 0.9836
-1.8183 -2.7130 -0.6320 0.9868
-1.2796 -2.9264 -0.6181 0.9871
-1.0472 -3.1278 -0.6383 0.9867
-0.8226 -3.4520 -0.6867 0.9856
1.5776 9.3526 -1.8355 0.9621
0.6940 8.8812 -1.7239 0.9644
-0.0937 8.4148 -1.6285 0.9663
-2.0091 7.0263 -1.4142 0.9707
-2.6504 6.8817 -1.4271 0.9704
-3.2035 6.5190 -1.4056 0.9708
-3.6680 6.0384 -1.3672 0.9716
-4.0941 5.5566 -1.3356 0.9723
-4.8458 4.5831 -1.2907 0.9732
-5.1774 4.0885 -1.2766 0.9735
-5.7628 3.0752 -1.2641 0.9737
-6.0199 2.5527 -1.2654 0.9737
-3.0751 0.1371 -0.5957 0.9875
-3.1273 -0.1395 -0.6058 0.9873
-3.2339 -0.4349 -0.6315 0.9868
-7.1364 -1.6168 -1.4159 0.9706
-7.2442 -3.8656 -1.5890 0.9671
-7.2157 -4.7202 -1.6686 0.9655
-7.0220 -6.6414 -1.8704 0.9614
-1.4001 -2.8492 -0.6143 0.9871
-0.7169 -3.7401 -0.7370 0.9846
7.3549 11.5213 -2.6452 0.9458
0.2891 8.6474 -1.6744 0.9654
-0.4563 8.1834 -1.5861 0.9672
-1.7292 7.2562 -1.4435 0.9701
-3.4408 6.2788 -1.3855 0.9713
-4.6694 4.8282 -1.2998 0.9730
-5.3331 3.8385 -1.2716 0.9736
-5.6256 3.3321 -1.2653 0.9737
-3.3306 0.6000 -0.6549 0.9863
-6.8409 -4.0518 -1.6762 0.9680
-2.2022 -2.7256 -0.7387 0.9858
-1.8365 -2.7403 -0.6954 0.9866
-1.5471 -2.8232 -0.6787 0.9869
-1.2940 -2.9594 -0.6809 0.9869
-1.0594 -3.1642 -0.7035 0.9865
5.9500 10.3056 -2.5087 0.9525
1.4760 8.7504 -1.8708 0.9644
0.6519 8.3420 -1.7640 0.9664
-0.0883 7.9307 -1.6720 0.9681
-0.7560 7.5147 -1.5922 0.9696
-1.3596 7.0930 -1.5226 0.9709
-3.4992 5.7605 -1.4209 0.9728
-3.9098 5.3065 -1.3896 0.9734
-4.6347 4.3835 -1.3449 0.9743
-4.9541 3.9123 -1.3308 0.9745
-5.9859 1.9302 -1.3259 0.9746
-3.1546 -0.4242 -0.6710 0.9871
-6.8584 -3.6598 -1.6389 0.9687
-6.8133 -4.4570 -1.7164 0.9673
-6.5860 -6.2290 -1.9111 0.9636
-2.4726 -2.7958 -0.7868 0.9849
-1.6850 -2.7739 -0.6842 0.9868
-1.4158 -2.8811 -0.6768 0.9870
-1.1728 -3.0451 -0.6879 0.9867
-0.7366 -3.8427 -0.8249 0.9841
8.3427 10.8099 -2.8787 0.9457
6.6913 10.4817 -2.6216 0.9504
4.0049 9.7453 -2.2212 0.9578
2.9015 9.3535 -2.0646 0.9608
1.0526 8.5466 -1.8154 0.9654
-1.6400 6.8820 -1.4915 0.9715
-2.1627 6.4597 -1.4361 0.9725
-3.2805 5.9861 -1.4391 0.9725
-4.1025 5.0778 -1.3762 0.9737
-4.4646 4.6164 -1.3539 0.9741
-4.7977 4.1488 -1.3372 0.9744
-5.8770 2.1886 -1.3221 0.9747
-4.0001 1.0957 -0.8744 0.9832
-2.9810 0.2664 -0.6310 0.9878
-2.9710 0.0000 -0.6781 0.9879
-3.1643 -0.5700 -0.7338 0.9869
-6.5013 -1.7809 -1.5386 0.9727
-6.5241 -3.1163 -1.6502 0.9708
-6.4852 -3.8412 -1.7204 0.9695
-6.4061 -4.6108 -1.8015 0.9681
-6.1017 -6.3092 -2.0033 0.9646
-2.2470 -2.7811 -0.8161 0.9854
-1.8553 -2.7683 -0.7606 0.9864
-1.5632 -2.8524 -0.7424 0.9867
-1.0742 -3.2084 -0.7723 0.9862
8.3856 9.9185 -2.9645 0.9481
6.8366 9.7251 -2.7133 0.9524
4.2692 9.2000 -2.3149 0.9592
3.1988 8.8913 -2.1567 0.9620
1.3862 8.2176 -1.9021 0.9664
-0.7162 7.1196 -1.6332 0.9711
-2.4445 6.3470 -1.5524 0.9725
-2.9135 5.9288 -1.5078 0.9733
-3.3442 5.5054 -1.4702 0.9739
-3.7403 5.0764 -1.4392 0.9745
-4.1047 4.6413 -1.4142 0.9749
-5.0308 3.2910 -1.3721 0.9756
-5.2894 2.8225 -1.3684 0.9757
-5.5248 2.3428 -1.3697 0.9757
-2.9625 0.3984 -0.6823 0.9878
-2.9453 0.1313 -0.6729 0.9880
-6.4949 -1.4715 -1.5200 0.9730
-6.5300 -2.7689 -1.6189 0.9713
-6.5094 -3.4735 -1.6840 0.9702
-6.4510 -4.2200 -1.7595 0.9689
-6.3496 -5.0142 -1.8467 0.9673
-6.1985 -5.8624 -1.9473 0.9656
-2.0273 -2.7515 -0.7801 0.9861
-1.4320 -2.9140 -0.7411 0.9868
-0.9627 -3.3669 -0.7993 0.9857
-0.7833 -4.0867 -0.9497 0.9831
4.8535 9.3446 -2.4034 0.9577
2.7077 8.7289 -2.0860 0.9632
0.9903 8.0408 -1.8491 0.9673
-0.4076 7.3097 -1.6710 0.9704
-1.5590 6.5420 -1.5350 0.9728
-2.0599 6.1527 -1.4809 0.9737
-3.1334 5.7178 -1.4881 0.9736
-3.5464 5.2916 -1.4539 0.9742
-3.9263 4.8596 -1.4260 0.9747
-5.4099 2.5841 -1.3684 0.9757
-5.6340 2.0982 -1.3722 0.9756
-3.1659 0.5704 -0.7342 0.9869
-2.9882 -0.2670 -0.7374 0.9877
-6.2143 -1.7022 -1.5837 0.9738
-6.2261 -2.3186 -1.6330 0.9730
-6.1624 -3.6500 -1.7605 0.9709
-5.9380 -5.1348 -1.9296 0.9682
-1.8812 -2.8069 -0.8305 0.9862
-1.5796 -2.8825 -0.8079 0.9866
-1.3241 -3.0283 -0.8124 0.9865
9.1894 9.0876 -3.1767 0.9482
7.6537 9.0528 -2.9139 0.9523
6.2863 8.9424 -2.6868 0.9560
5.0657 8.7740 -2.4903 0.9591
3.9726 8.5608 -2.3198 0.9619
1.3061 7.7428 -1.9301 0.9682
-1.2287 6.4100 -1.6042 0.9735
-1.7303 6.0514 -1.5471 0.9744
-2.3345 6.0614 -1.5966 0.9736
-2.7860 5.6693 -1.5527 0.9743
-3.2013 5.2702 -1.5157 0.9749
-3.5837 4.8639 -1.4850 0.9754
-4.2596 4.0287 -1.4411 0.9761
-4.5570 3.5987 -1.4273 0.9764
-4.8296 3.1594 -1.4186 0.9765
-3.3132 0.7507 -0.8350 0.9861
-2.8978 0.1292 -0.7130 0.9881
-3.0389 -0.4087 -0.7537 0.9874
-3.1571 -0.7153 -0.7957 0.9868
-6.2232 -2.6388 -1.6615 0.9725
-1.7207 -2.8327 -0.8147 0.9864
-1.2054 -3.1297 -0.8244 0.9863
-0.9810 -3.4306 -0.8770 0.9854
-2.4627 -12.8476 -3.2154 0.9475
-1.4341 -14.2551 -3.5216 0.9427
10.0280 9.0698 -3.3235 0.9458
8.3990 9.0809 -3.0404 0.9503
6.9504 9.0059 -2.7962 0.9542
5.6589 8.8645 -2.5850 0.9576
4.5043 8.6723 -2.4020 0.9605
0.9346 7.5885 -1.8793 0.9690
0.2431 7.2692 -1.7878 0.9705
-0.3866 6.9335 -1.7069 0.9718
-0.9606 6.5865 -1.6361 0.9730
-1.4850 6.2316 -1.5746 0.9740
-2.5650 5.8662 -1.5737 0.9740
-3.3965 5.0679 -1.4996 0.9752
-3.7634 4.6580 -1.4719 0.9756
-4.1010 4.2405 -1.4500 0.9760
-4.4115 3.8148 -1.4335 0.9763
-4.6964 3.3803 -1.4223 0.9764
-5.1942 2.4811 -1.4149 0.9766
-3.8036 1.0419 -0.9694 0.9839
-3.0385 -0.5474 -0.8135 0.9873
-5.9487 -1.6295 -1.6252 0.9748
-5.9261 -2.8306 -1.7305 0.9732
-5.6284 -4.8671 -1.9607 0.9697
-5.4358 -5.6206 -2.0604 0.9682
-2.3434 -2.9005 -0.9826 0.9847
-0.9070 -3.8060 -1.0310 0.9839
-0.7559 -13.5563 -3.5777 0.9454
11.5241 7.9109 -3.6832 0.9438
9.8719 8.1594 -3.3748 0.9484
8.3771 8.2843 -3.1044 0.9524
5.8148 8.2717 -2.6642 0.9590
3.7127 8.0007 -2.3241 0.9642
1.2719 4.8549 -1.3225 0.9795
-0.0751 6.7453 -1.7775 0.9725
-0.6473 6.4343 -1.7040 0.9736
-1.1716 6.1119 -1.6398 0.9746
-1.6529 5.7806 -1.5842 0.9754
-2.6682 5.4297 -1.5941 0.9753
-4.0920 3.8702 -1.4841 0.9770
-4.3794 3.4584 -1.4704 0.9772
-4.6425 3.0370 -1.4618 0.9773
-4.8821 2.6052 -1.4581 0.9774
-2.8316 0.3808 -0.7529 0.9883
-2.9007 -0.1293 -0.7651 0.9881
-2.9836 -0.4013 -0.7933 0.9876
-3.0953 -0.7013 -0.8363 0.9870
-5.9485 -1.9181 -1.6469 0.9745
-5.9418 -2.5195 -1.7006 0.9737
-5.7053 -4.5054 -1.9156 0.9704
-5.5389 -5.2387 -2.0089 0.9690
-5.3183 -6.0134 -2.1153 0.9673
-2.1045 -2.8563 -0.9349 0.9854
-1.7501 -2.8811 -0.8883 0.9862
-1.4658 -2.9828 -0.8757 0.9863
-1.0000 -3.4974 -0.9585 0.9851
9.1057 8.2356 -3.2351 0.9505
7.6924 8.3170 -2.9852 0.9542
6.4095 8.3050 -2.7643 0.9575
5.2494 8.2230 -2.5706 0.9604
4.1998 8.0861 -2.4009 0.9630
3.2488 7.9056 -2.2522 0.9653
-0.3675 6.5913 -1.7395 0.9731
-2.0019 5.9793 -1.6615 0.9743
-2.8728 5.2422 -1.5751 0.9756
-3.6123 4.4710 -1.5146 0.9765
-3.9388 4.0727 -1.4929 0.9768
-4.2388 3.6655 -1.4766 0.9771
-4.5139 3.2490 -1.4655 0.9773
-4.9934 2.3852 -1.4582 0.9774
-3.7366 1.0235 -1.0209 0.9841
-2.8347 0.2533 -0.7499 0.9883
-2.8279 0.0000 -0.7956 0.9883
-2.8819 -0.2575 -0.8141 0.9880
-2.9786 -0.5366 -0.8515 0.9875
-5.7027 -1.5621 -1.6636 0.9757
-5.4943 -3.9545 -1.9046 0.9723
-5.1511 -5.3262 -2.0848 0.9697
-2.4536 -3.0369 -1.0985 0.9839
-1.9526 -2.9135 -0.9868 0.9855
-1.6299 -2.9742 -0.9542 0.9860
-2.4689 -10.3601 -2.9965 0.9567
-0.6896 -12.3681 -3.4852 0.9498
0.4486 -13.4180 -3.7774 0.9457
10.4297 7.1596 -3.5593 0.9488
7.6964 7.6112 -3.0455 0.9560
5.4054 7.6892 -2.6445 0.9617
4.4012 7.6230 -2.4766 0.9641
3.4828 7.5052 -2.3279 0.9662
2.6429 7.3460 -2.1965 0.9681
1.1693 6.9322 -1.9780 0.9712
-0.0715 6.4187 -1.8060 0.9737
-0.6172 6.1351 -1.7349 0.9747
-1.1191 5.8380 -1.6724 0.9756
-2.1395 5.5551 -1.6749 0.9756
-2.5591 5.2077 -1.6326 0.9762
-3.3037 4.4838 -1.5670 0.9771
-3.9358 3.7225 -1.5242 0.9777
-2.7751 0.3732 -0.7878 0.9884
-2.8531 -0.1272 -0.8035 0.9882
-3.0353 -0.6877 -0.8756 0.9872
-3.2049 -1.0334 -0.9474 0.9861
-5.6352 -3.0070 -1.7971 0.9738
-5.0327 -5.6905 -2.1374 0.9689
-1.7831 -2.9354 -0.9663 0.9858
-1.4939 -3.0400 -0.9530 0.9860
-1.2447 -3.2318 -0.9744 0.9857
-2.0794 -10.8481 -3.1077 0.9551
-0.1436 -12.8903 -3.6270 0.9478
1.0900 -13.9492 -3.9367 0.9435
11.1849 6.9660 -3.7074 0.9467
9.7035 7.3177 -3.4195 0.9508
7.0830 7.6580 -2.9349 0.9576
5.9346 7.6897 -2.7329 0.9604
4.8916 7.6627 -2.5578 0.9629
3.0535 7.4303 -2.2602 0.9672
2.2500 7.2533 -2.1367 0.9689
0.8392 6.8129 -1.9313 0.9719
0.2192 6.5547 -1.8452 0.9731
-0.8733 5.9881 -1.7026 0.9752
-1.3548 5.6851 -1.6443 0.9760
-1.9167 5.7249 -1.6986 0.9752
-2.7567 5.0303 -1.6139 0.9764
-3.1287 4.6683 -1.5811 0.9769
-4.0778 3.5262 -1.5168 0.9778
-4.3437 3.1264 -1.5058 0.9780
-4.5862 2.7164 -1.4997 0.9781
-2.7884 0.2492 -0.7877 0.9884
-2.7825 0.0000 -0.8330 0.9884
-2.9224 -0.5265 -0.8890 0.9877
-3.0126 -0.8252 -0.9351 0.9870
-5.4205 -2.5891 -1.7984 0.9752
-5.3497 -3.1686 -1.8614 0.9744
-4.6413 -5.7445 -2.2110 0.9696
-1.6611 -3.0311 -1.0348 0.9857
-1.5295 -10.4870 -3.1728 0.9567
0.4093 -12.2439 -3.6676 0.9501
1.6152 -13.1147 -3.9559 0.9463
2.9983 -13.9528 -4.2726 0.9422
13.0314 5.8717 -4.2791 0.9421
11.5480 6.4968 -3.9668 0.9462
7.1130 7.0342 -2.9949 0.9591
4.1197 7.1356 -2.4667 0.9662
3.2719 7.0508 -2.3271 0.9681
2.4908 6.9233 -2.2028 0.9697
1.1101 6.5815 -1.9982 0.9725
-0.0682 6.1196 -1.8322 0.9748
-0.5895 5.8600 -1.7632 0.9757
-1.0706 5.5853 -1.7026 0.9765
-1.6144 5.6459 -1.7580 0.9758
-2.0526 5.3294 -1.7098 0.9764
-3.4965 3.9536 -1.5801 0.9782
-3.7897 3.5843 -1.5617 0.9785
-4.0587 3.2052 -1.5483 0.9786
-4.5274 2.4159 -1.5363 0.9788
-3.0564 0.6925 -0.9382 0.9870
-2.7204 0.3659 -0.8218 0.9886
-2.8067 -0.1251 -0.8411 0.9883
-2.8771 -0.3869 -0.8691 0.9880
-2.9771 -0.6745 -0.9139 0.9873
-5.4428 -2.3079 -1.7699 0.9756
-5.1713 -4.0837 -1.9727 0.9729
-4.7739 -5.3979 -2.1574 0.9704
-1.5248 -3.1029 -1.0351 0.9857
-1.2755 -3.3116 -1.0624 0.9853
-1.9274 -10.0548 -3.0650 0.9582
-1.0989 -10.9234 -3.2868 0.9552
-0.1315 -11.8035 -3.5340 0.9519
0.9910 -12.6818 -3.8083 0.9483
2.2838 -13.5395 -4.1107 0.9443
12.2814 6.2061 -4.1196 0.9442
6.5641 7.0971 -2.8942 0.9604
3.6872 7.0990 -2.3949 0.9672
2.8734 6.9919 -2.2631 0.9689
0.2087 6.2429 -1.8700 0.9743
-0.3341 5.9919 -1.7966 0.9753
-0.8349 5.7244 -1.7319 0.9761
-2.2591 5.1668 -1.6882 0.9767
-2.6486 4.8331 -1.6500 0.9773
-3.0084 4.4889 -1.6178 0.9777
-3.6462 3.7702 -1.5702 0.9783
-4.1844 3.0118 -1.5435 0.9787
-4.4186 2.6172 -1.5375 0.9788
-3.5598 0.9751 -1.1050 0.9847
-2.7412 0.2450 -0.8239 0.9886
-2.7827 -0.2486 -0.8872 0.9883
-2.9540 -0.8092 -0.9727 0.9872
-5.0081 -3.6045 -1.9596 0.9744
-4.4067 -5.4542 -2.2269 0.9710
-2.1415 -8.9862 -2.9338 0.9620
-1.4209 -9.7422 -3.1267 0.9595
-0.5855 -10.5007 -3.3400 0.9568
2.7184 -12.6504 -4.1093 0.9471
13.1162 4.5545 -4.4095 0.9434
11.8179 5.3249 -4.1166 0.9471
10.5443 5.9321 -3.8423 0.9505
9.2230 6.3312 -3.5528 0.9541
6.6072 6.5340 -2.9511 0.9618
3.8754 6.7123 -2.4615 0.9680
2.3580 6.5543 -2.2121 0.9712
0.4738 6.0635 -1.9316 0.9748
-2.3631 4.8088 -1.7016 0.9778
-3.0600 4.1531 -1.6383 0.9786
-3.3688 3.8092 -1.6149 0.9789
-3.6529 3.4549 -1.5968 0.9791
-3.9133 3.0904 -1.5836 0.9793
-4.1509 2.7155 -1.5753 0.9794
-4.3664 2.3300 -1.5718 0.9794
-4.5600 1.9336 -1.5730 0.9794
-2.7186 0.1212 -0.8643 0.9886
-2.7613 -0.1231 -0.8778 0.9885
-2.8254 -0.3800 -0.9054 0.9881
-2.9205 -0.6617 -0.9510 0.9875
-3.1071 -1.0019 -1.0368 0.9864
-5.2204 -2.2136 -1.8008 0.9765
-5.1623 -2.7547 -1.8583 0.9757
-5.0690 -3.3159 -1.9237 0.9749
-4.7617 -4.5035 -2.0815 0.9729
-2.3453 -3.1831 -1.2557 0.9835
-1.8680 -3.0750 -1.1427 0.9850
-1.3084 -3.3971 -1.1561 0.9848
-2.4625 -8.6120 -2.8447 0.9631
-1.7948 -9.3633 -3.0278 0.9608
-0.1212 -10.8772 -3.4547 0.9554
3.3962 -12.9633 -4.2559 0.9453
12.4655 4.9612 -4.2609 0.9452
8.1879 6.1748 -3.2569 0.9579
7.1185 6.4383 -3.0482 0.9605
5.1698 6.6987 -2.6873 0.9651
2.7162 6.6096 -2.2694 0.9705
-0.3193 5.7275 -1.8218 0.9762
-0.7993 5.4806 -1.7590 0.9770
-1.7644 5.2700 -1.7650 0.9769
-2.1712 4.9656 -1.7211 0.9775
-2.8959 4.3211 -1.6520 0.9784
-3.2175 3.9824 -1.6260 0.9787
-3.5138 3.6333 -1.6052 0.9790
-4.0350 2.9042 -1.5788 0.9794
-4.4659 2.1332 -1.5718 0.9794
-4.6487 1.7312 -1.5754 0.9794
-2.6945 0.0000 -0.9053 0.9887
-2.7374 -0.2446 -0.9234 0.9885
-2.8177 -0.5076 -0.9619 0.9880
-2.8971 -0.7936 -1.0092 0.9874
-5.0325 -1.8741 -1.8043 0.9776
-4.9076 -2.9067 -1.9164 0.9762
-4.7927 -3.4495 -1.9840 0.9754
-4.1926 -5.1892 -2.2414 0.9722
-1.7610 -3.2135 -1.2312 0.9847
-1.4795 -3.3836 -1.2408 0.9845
-2.5949 -7.7507 -2.7462 0.9661
-1.3257 -9.0900 -3.0864 0.9620
-0.5438 -9.7528 -3.2819 0.9596
1.3554 -11.0054 -3.7256 0.9543
2.4841 -11.5599 -3.9726 0.9513
3.7336 -12.0362 -4.2340 0.9482
13.0074 3.2534 -4.5049 0.9450
9.6929 5.4532 -3.7366 0.9542
6.1642 6.0959 -2.9127 0.9641
4.4406 6.3169 -2.5943 0.9679
3.6562 6.3327 -2.4568 0.9696
2.9224 6.2976 -2.3326 0.9711
1.6016 6.1133 -2.1233 0.9737
0.4524 5.7897 -1.9512 0.9758
-1.4882 5.2045 -1.8187 0.9774
-2.2746 4.6287 -1.7328 0.9785
-2.6252 4.3217 -1.6989 0.9789
-3.2488 3.6735 -1.6477 0.9795
-4.2149 2.2492 -1.6052 0.9800
-4.5671 1.4727 -1.6123 0.9800
-2.6180 0.3521 -0.8875 0.9889
-2.6762 0.1193 -0.9001 0.9888
-2.7751 -0.3732 -0.9408 0.9883
-2.8653 -0.6492 -0.9871 0.9877
-5.0502 -1.6284 -1.7828 0.9779
-4.9513 -2.6421 -1.8856 0.9766
-4.8548 -3.1759 -1.9492 0.9758
-4.7206 -3.7278 -2.0210 0.9749
-4.0491 -5.4954 -2.2934 0.9716
-1.6092 -3.2746 -1.2259 0.9847
-1.3707 -3.5589 -1.2814 0.9840
-2.3117 -8.0846 -2.8251 0.9651
-0.9480 -9.4230 -3.1819 0.9608
-0.1123 -10.0780 -3.3862 0.9584
0.8366 -10.7064 -3.6081 0.9557
1.9045 -11.2908 -3.8471 0.9528
3.0939 -11.8095 -4.1017 0.9498
13.5351 2.7511 -4.6405 0.9434
10.2451 5.1771 -3.8567 0.9527
9.1470 5.6968 -3.6205 0.9555
6.6266 5.9934 -3.0020 0.9630
4.0420 6.3317 -2.5238 0.9688
2.5740 6.2634 -2.2752 0.9718
1.9127 6.1658 -2.1690 0.9731
1.0551 4.9099 -1.6873 0.9790
-0.3057 5.4830 -1.8450 0.9771
-0.7664 5.2548 -1.7842 0.9778
-2.0890 4.7776 -1.7519 0.9782
-3.6532 3.1591 -1.6227 0.9798
-3.8944 2.8030 -1.6121 0.9800
-4.1135 2.4365 -1.6063 0.9800
-4.4871 1.6710 -1.6087 0.9800
-2.6932 -0.2406 -0.9588 0.9886
-2.7668 -0.4985 -0.9969 0.9881
-4.7097 -2.7896 -1.9410 0.9770
-4.4377 -3.8374 -2.0803 0.9754
-4.2403 -4.3844 -2.1628 0.9744
-3.7007 -5.5218 -2.3570 0.9722
-1.8450 -3.3666 -1.3613 0.9838
-1.5597 -3.5672 -1.3805 0.9836
-1.2417 -8.5140 -3.0509 0.9641
-0.5073 -9.0982 -3.2311 0.9621
0.3228 -9.6562 -3.4259 0.9598
3.4163 -11.0130 -4.0886 0.9522
12.7166 1.9996 -4.5646 0.9468
11.8417 2.9618 -4.3282 0.9495
8.9612 5.0415 -3.6459 0.9573
4.9597 5.8664 -2.7239 0.9679
4.1877 5.9571 -2.5820 0.9696
3.4584 5.9901 -2.4526 0.9711
2.7719 5.9733 -2.3350 0.9724
0.4327 5.5369 -1.9693 0.9767
-0.0597 5.3550 -1.8989 0.9775
-1.0058 5.2474 -1.8945 0.9776
-2.1916 4.4598 -1.7620 0.9791
-2.5313 4.1670 -1.7288 0.9795
-2.8457 3.8622 -1.7010 0.9798
-3.1359 3.5459 -1.6785 0.9801
-3.6477 2.8806 -1.6481 0.9805
-3.8706 2.5320 -1.6400 0.9806
-4.0721 2.1730 -1.6366 0.9806
-4.4116 1.4226 -1.6436 0.9805
-2.5615 0.5803 -0.9313 0.9889
-2.5748 0.3463 -0.9212 0.9890
-2.6347 0.1175 -0.9351 0.9889
-2.7260 -0.3666 -0.9753 0.9884
-4.6559 -3.0457 -1.9728 0.9767
-4.5203 -3.5697 -2.0424 0.9759
-4.3446 -4.1090 -2.1204 0.9749
-4.1244 -4.6635 -2.2075 0.9739
-3.8552 -5.2324 -2.3046 0.9728
-2.0847 -3.4320 -1.4239 0.9831
-2.1769 -7.6131 -2.8077 0.9670
-1.5748 -8.2158 -2.9663 0.9651
-0.8862 -8.8086 -3.1392 0.9631
0.7752 -9.9211 -3.5286 0.9586
2.8385 -10.8343 -3.9714 0.9536
4.0171 -11.1658 -4.2077 0.9509
6.6064 -11.4427 -4.6851 0.9455
13.8361 0.3084 -4.9073 0.9430
13.1203 1.4677 -4.6813 0.9455
12.2890 2.4979 -4.4466 0.9482
10.4235 4.1485 -3.9780 0.9535
8.4764 5.2792 -3.5409 0.9585
5.3613 5.7965 -2.7997 0.9670
4.5685 5.9195 -2.6514 0.9688
3.8177 5.9803 -2.5158 0.9703
2.4445 5.9484 -2.2804 0.9731
1.8230 5.8766 -2.1817 0.9742
0.6920 5.6189 -2.0074 0.9763
-0.2931 5.2561 -1.8666 0.9779
-0.7466 5.1191 -1.8344 0.9783
-1.2232 5.1327 -1.8709 0.9779
-1.6320 4.8744 -1.8227 0.9784
-2.0120 4.6014 -1.7808 0.9789
-2.3647 4.3150 -1.7447 0.9793
-2.6915 4.0161 -1.7143 0.9797
-3.7618 2.7077 -1.6435 0.9805
-3.9740 2.3539 -1.6378 0.9806
-4.1649 1.9894 -1.6366 0.9806
-4.3347 1.6143 -1.6401 0.9806
-2.6101 0.0000 -0.9746 0.9889
-2.7171 -0.4895 -1.0309 0.9883
-2.7878 -0.7636 -1.0794 0.9877
-4.6091 -2.2015 -1.9073 0.9784
-4.5251 -2.6802 -1.9639 0.9778
-4.4071 -3.1720 -2.0276 0.9771
-4.2518 -3.6767 -2.0990 0.9763
-4.0559 -4.1938 -2.1786 0.9754
-3.8155 -4.7224 -2.2670 0.9744
-2.3146 -6.9134 -2.7224 0.9694
-1.7784 -7.4626 -2.8647 0.9678
-1.1669 -8.0010 -3.0193 0.9661
-0.4750 -8.5196 -3.1863 0.9642
1.1641 -9.4517 -3.5560 0.9602
2.1136 -9.8358 -3.7566 0.9580
3.1459 -10.1415 -3.9650 0.9557
4.2527 -10.3483 -4.1777 0.9534
6.6179 -10.3668 -4.5926 0.9488
7.8236 -10.1373 -4.7816 0.9468
9.0020 -9.7329 -4.9505 0.9450
13.1686 -1.4731 -4.9480 0.9450
12.7942 -0.2851 -4.7787 0.9468
10.8571 2.7156 -4.1791 0.9533
9.1927 4.1421 -3.7650 0.9579
6.6066 5.4605 -3.2005 0.9641
5.5378 5.4764 -2.9082 0.9673
3.9596 5.6325 -2.5709 0.9710
1.4561 5.5577 -2.1453 0.9758
0.9183 5.4443 -2.0617 0.9767
-0.0572 5.1362 -1.9180 0.9783
-0.5027 4.9974 -1.8755 0.9788
-1.3780 4.8191 -1.8716 0.9788
-1.7591 4.5674 -1.8276 0.9793
-2.1136 4.3011 -1.7895 0.9797
-2.7477 3.7293 -1.7297 0.9804
-3.0294 3.4254 -1.7075 0.9807
-3.2886 3.1103 -1.6902 0.9809
-3.5260 2.7845 -1.6777 0.9810
-3.7420 2.4479 -1.6697 0.9811
-4.1113 1.7434 -1.6675 0.9811
-4.2648 1.3752 -1.6733 0.9810
-2.5325 0.3406 -0.9542 0.9891
-2.5921 0.1156 -0.9689 0.9890
-2.6781 -0.3602 -1.0090 0.9885
-2.8043 -0.9043 -1.1002 0.9875
-4.6391 -1.9671 -1.8816 0.9787
-4.4706 -2.9245 -1.9948 0.9774
-4.3343 -3.4228 -2.0623 0.9767
-4.1592 -3.9337 -2.1377 0.9759
-3.6771 -4.9906 -2.3148 0.9739
-2.5562 -6.6369 -2.6557 0.9701
-1.4824 -7.7337 -2.9404 0.9669
-0.0977 -8.7683 -3.2744 0.9633
1.6282 -9.6523 -3.6552 0.9591
7.2219 -10.2732 -4.6892 0.9478
9.5686 -9.4626 -5.0251 0.9442
10.6306 -8.7864 -5.1500 0.9428
11.5630 -7.9375 -5.2372 0.9419
13.0029 -0.8704 -4.8663 0.9459
12.5462 0.2796 -4.6860 0.9478
11.9484 1.3366 -4.4895 0.9500
11.2417 2.2850 -4.2836 0.9522
10.4568 3.1165 -4.0744 0.9545
9.6215 3.8293 -3.8669 0.9567
7.8910 4.9146 -3.4713 0.9611
7.0302 5.3018 -3.2880 0.9631
5.0459 5.4557 -2.7750 0.9688
3.6147 5.6624 -2.5085 0.9717
2.9522 5.6840 -2.3917 0.9730
2.3261 5.6603 -2.2851 0.9742
1.0544 4.9068 -1.8741 0.9788
0.1746 5.2222 -1.9511 0.9779
-0.2813 5.0450 -1.8868 0.9787
-1.1770 4.9391 -1.8959 0.9786
-1.5719 4.6952 -1.8489 0.9791
-1.9396 4.4360 -1.8078 0.9795
-2.2813 4.1629 -1.7726 0.9799
-3.1617 3.2693 -1.6983 0.9808
-3.4100 2.9488 -1.6834 0.9809
-3.6367 2.6175 -1.6731 0.9811
-4.1907 1.5606 -1.6698 0.9811
-2.6096 0.4701 -0.9901 0.9887
-2.5629 0.2290 -0.9608 0.9891
-2.5691 0.0000 -1.0083 0.9890
-2.6073 -0.2330 -1.0273 0.9888
-2.7221 -0.7457 -1.1077 0.9879
-4.4380 -2.1198 -1.9303 0.9791
-4.3524 -2.5779 -1.9853 0.9785
-4.2336 -3.0471 -2.0472 0.9778
-0.4463 -8.0043 -3.1463 0.9661
1.0860 -8.8181 -3.4870 0.9625
2.9126 -9.3892 -3.8582 0.9586
3.9216 -9.5427 -4.0492 0.9566
7.1363 -9.2467 -4.5842 0.9510
8.1857 -8.8503 -4.7314 0.9495
10.0618 -7.5880 -4.9460 0.9473
11.4213 -5.7714 -5.0224 0.9465
12.0743 -3.5985 -4.9448 0.9473
11.6707 -0.2601 -4.5816 0.9511
11.2252 0.7515 -4.4154 0.9528
8.5446 3.8501 -3.6782 0.9605
7.7672 4.3698 -3.4977 0.9624
6.2065 5.1298 -3.1602 0.9660
2.5088 5.4063 -2.3391 0.9747
1.9352 5.3789 -2.2435 0.9757
1.3916 5.3118 -2.1551 0.9767
0.8792 5.2124 -2.0746 0.9775
-1.3279 4.6440 -1.8957 0.9795
-2.6552 3.6037 -1.7568 0.9809
-3.1803 3.0079 -1.7180 0.9814
-3.4107 2.6934 -1.7057 0.9815
-3.6203 2.3683 -1.6979 0.9816
-2.4910 0.3350 -0.9865 0.9893
-2.5889 -0.1154 -1.0171 0.9889
-2.6312 -0.3539 -1.0420 0.9887
-2.7055 -0.6130 -1.0887 0.9882
-2.7236 -0.8782 -1.1231 0.9878
-4.4692 -1.8951 -1.9052 0.9794
-4.3992 -2.3475 -1.9570 0.9788
-4.2973 -2.8112 -2.0154 0.9782
-4.1609 -3.2858 -2.0808 0.9775
-3.7722 -4.2653 -2.2347 0.9758
-3.5129 -4.7676 -2.3242 0.9749
-2.8442 -5.7876 -2.5309 0.9727
-2.4260 -6.2989 -2.6491 0.9714
-1.3993 -7.2999 -2.9172 0.9686
-0.0916 -8.2241 -3.2279 0.9653
0.6746 -8.6327 -3.3984 0.9635
3.4102 -9.4788 -3.9536 0.9576
5.5167 -9.5551 -4.3303 0.9537
6.5986 -9.3866 -4.5032 0.9519
9.6314 -7.9606 -4.9041 0.9477
10.4595 -7.1801 -4.9792 0.9469
11.1424 -6.2686 -5.0176 0.9465
11.9826 -4.1608 -4.9783 0.9470
12.1182 -3.0310 -4.9026 0.9477
12.0669 -1.8974 -4.7941 0.9489
11.8421 -0.7927 -4.6581 0.9503
11.4641 0.2555 -4.5004 0.9519
10.9575 1.2258 -4.3273 0.9537
9.6636 2.8801 -3.9576 0.9576
8.1576 4.1222 -3.5872 0.9615
7.3753 4.5934 -3.4101 0.9634
2.8081 5.4065 -2.3910 0.9742
1.6595 5.3497 -2.1983 0.9762
0.6345 5.1518 -2.0372 0.9779
-0.7250 4.9710 -1.9716 0.9786
-1.1337 4.7574 -1.9194 0.9792
-1.5155 4.5266 -1.8735 0.9797
-2.2026 4.0193 -1.7988 0.9805
-2.5101 3.7454 -1.7695 0.9808
-2.7947 3.4590 -1.7453 0.9811
-3.0572 3.1611 -1.7259 0.9813
-3.2981 2.8521 -1.7113 0.9814
-3.7173 2.2018 -1.6956 0.9816
-2.5634 0.4618 -1.0222 0.9889
-2.5207 0.2253 -0.9932 0.9892
-2.5289 0.0000 -1.0413 0.9891
-2.6436 -0.9845 -1.1616 0.9879
-4.2772 -2.0430 -1.9519 0.9797
-3.7258 -3.8524 -2.2069 0.9771
-3.4933 -4.3237 -2.2889 0.9762
-3.2166 -4.7995 -2.3791 0.9753
-2.8919 -5.2772 -2.4780 0.9743
-2.5157 -5.7534 -2.5857 0.9732
-2.0838 -6.2241 -2.7028 0.9720
-1.5928 -6.6838 -2.8293 0.9707
-1.0393 -7.1258 -2.9653 0.9693
-0.4205 -7.5421 -3.1105 0.9679
1.8334 -8.5320 -3.5935 0.9630
3.6350 -8.8451 -3.9378 0.9595
4.5983 -8.8533 -4.1080 0.9578
5.5789 -8.7392 -4.2694 0.9561
8.3824 -7.5814 -4.6541 0.9523
10.7943 -4.2961 -4.7840 0.9510
11.0166 -3.2833 -4.7336 0.9515
11.0722 -2.2505 -4.6525 0.9523
10.9679 -1.2269 -4.5445 0.9534
10.7173 -0.2388 -4.4143 0.9547
10.3388 0.6921 -4.2669 0.9562
8.6511 3.0040 -3.7710 0.9612
7.9751 3.5934 -3.6019 0.9629
5.8476 4.8332 -3.1240 0.9677
5.1451 5.0882 -2.9797 0.9692
4.4023 5.2070 -2.8078 0.9709
3.5638 5.0695 -2.5517 0.9735
2.9652 5.1359 -2.4421 0.9747
0.8428 4.9968 -2.0866 0.9783
0.3815 4.8814 -2.0162 0.9790
-0.0536 4.8122 -1.9817 0.9794
-0.4910 4.8811 -2.0201 0.9790
-0.8989 4.6894 -1.9661 0.9796
-1.6377 4.2522 -1.8764 0.9805
-1.9706 4.0101 -1.8399 0.9809
-2.2803 3.7539 -1.8086 0.9812
-2.8332 3.2036 -1.7610 0.9817
-3.6879 1.9679 -1.7213 0.9821
-3.9938 1.2879 -1.7280 0.9820
-2.6388 0.5979 -1.1141 0.9884
-2.5479 -0.1136 -1.0502 0.9890
-2.6300 -0.5958 -1.1104 0.9884
-2.6464 -0.8533 -1.1450 0.9880
-4.3092 -1.8273 -1.9274 0.9800
-4.1350 -2.7050 -2.0347 0.9789
-3.6148 -4.0873 -2.2469 0.9767
-3.0605 -5.0382 -2.4274 0.9748
-2.7105 -5.5157 -2.5307 0.9738
-0.0862 -7.7377 -3.1864 0.9671
0.6327 -8.0967 -3.3443 0.9655
1.4174 -8.4029 -3.5091 0.9638
3.1664 -8.8011 -3.8515 0.9603
4.1129 -8.8631 -4.0235 0.9586
5.0887 -8.8139 -4.1909 0.9569
6.0680 -8.6319 -4.3448 0.9554
7.0305 -8.3157 -4.4840 0.9540
8.7940 -7.2685 -4.6980 0.9518
10.6207 -4.7855 -4.7969 0.9509
11.0650 -2.7675 -4.6967 0.9519
11.0393 -1.7358 -4.6016 0.9528
10.8598 -0.7270 -4.4819 0.9540
10.1082 1.1308 -4.1883 0.9570
8.9740 2.6745 -3.8560 0.9603
8.3173 3.3102 -3.6862 0.9620
7.6264 3.8538 -3.5186 0.9637
3.2613 5.1088 -2.4958 0.9741
2.6757 5.1517 -2.3904 0.9752
2.1178 5.1535 -2.2943 0.9762
0.6087 4.9424 -2.0505 0.9787
-1.0930 4.5865 -1.9415 0.9798
-1.4623 4.3677 -1.8966 0.9803
-2.1283 3.8837 -1.8236 0.9810
-2.7031 3.3457 -1.7711 0.9816
-3.1921 2.7603 -1.7377 0.9819
-3.4056 2.4512 -1.7278 0.9820
-3.5988 2.1316 -1.7224 0.9821
-3.7719 1.8017 -1.7213 0.9821
-3.9249 1.4617 -1.7246 0.9820
-3.5071 0.9607 -1.4974 0.9844
-2.5181 0.4537 -1.0536 0.9890
-2.4793 0.2216 -1.0250 0.9893
-2.5389 -0.4574 -1.1128 0.9888
-2.5507 -0.6987 -1.1408 0.9885
-4.1256 -1.9706 -1.9722 0.9803
-4.0380 -2.3917 -2.0244 0.9798
-3.7662 -3.2567 -2.1478 0.9785
-3.0787 -4.5938 -2.3854 0.9762
-2.7631 -5.0420 -2.4801 0.9753
-2.3989 -5.4865 -2.5830 0.9743
-1.9830 -5.9228 -2.6943 0.9732
-1.5123 -6.3458 -2.8140 0.9720
-0.9844 -6.7491 -2.9421 0.9707
-0.3973 -7.1250 -3.0782 0.9694
1.7173 -7.9915 -3.5259 0.9650
3.3841 -8.2348 -3.8404 0.9620
4.2683 -8.2179 -3.9945 0.9605
5.1652 -8.0911 -4.1407 0.9590
6.0515 -7.8412 -4.2725 0.9578
6.9077 -7.4686 -4.3883 0.9567
7.7092 -6.9726 -4.4838 0.9557
9.9053 -3.9422 -4.5987 0.9546
10.1180 -3.0155 -4.5542 0.9550
10.1833 -2.0698 -4.4824 0.9557
10.1062 -1.1305 -4.3866 0.9567
9.8976 -0.2206 -4.2705 0.9578
9.5725 0.6408 -4.1384 0.9591
8.6447 2.1622 -3.8438 0.9619
6.8327 3.8440 -3.3817 0.9664
6.1802 4.2425 -3.2335 0.9679
5.5239 4.5656 -3.0913 0.9693
4.2337 5.0077 -2.8286 0.9718
3.5167 5.0025 -2.6377 0.9737
2.8273 4.8969 -2.4391 0.9757
2.2860 4.9263 -2.3426 0.9766
1.2764 4.8721 -2.1725 0.9783
0.3678 4.7068 -2.0365 0.9796
-0.0534 4.7985 -2.0700 0.9793
-0.8669 4.5225 -1.9863 0.9801
-1.5820 4.1076 -1.8987 0.9810
-2.7426 3.1011 -1.7858 0.9821
-3.1975 2.5250 -1.7575 0.9824
-3.8684 1.2474 -1.7533 0.9824
-2.5715 0.5826 -1.1373 0.9886
-2.5277 -0.3399 -1.1001 0.9890
-2.5465 -0.5770 -1.1263 0.9887
-2.6695 -1.1320 -1.2508 0.9874
-3.9825 -2.6052 -2.0528 0.9795
-3.8469 -3.0379 -2.1144 0.9789
-3.6764 -3.4771 -2.1828 0.9782
-3.4682 -3.9215 -2.2582 0.9775
-2.9268 -4.8182 -2.4318 0.9757
-2.5873 -5.2650 -2.5305 0.9748
-2.1976 -5.7060 -2.6376 0.9737
-1.7547 -6.1364 -2.7531 0.9726
-1.2556 -6.5504 -2.8770 0.9714
-0.6983 -6.9410 -3.0092 0.9701
0.5952 -7.6173 -3.2958 0.9673
1.3296 -7.8824 -3.4482 0.9658
3.8234 -8.2392 -3.9181 0.9612
4.7167 -8.1696 -4.0692 0.9597
5.6107 -7.9813 -4.2083 0.9584
6.4849 -7.6704 -4.3327 0.9572
7.3169 -7.2358 -4.4389 0.9562
8.0817 -6.6797 -4.5227 0.9554
10.1689 -2.5434 -4.5215 0.9554
9.7486 0.2173 -4.2062 0.9584
8.3686 2.4941 -3.7668 0.9627
7.1541 3.6151 -3.4576 0.9657
5.8519 4.4131 -3.1616 0.9686
5.1972 4.7006 -3.0228 0.9699
4.5514 4.9209 -2.8914 0.9712
3.9205 5.0800 -2.7680 0.9724
3.1399 4.9185 -2.5171 0.9749
2.5537 4.9168 -2.3899 0.9762
1.5196 4.8987 -2.2124 0.9779
-0.2668 4.7853 -2.0674 0.9793
-0.6731 4.6152 -2.0118 0.9799
-1.4120 4.2176 -1.9185 0.9808
-2.0579 3.7552 -1.8471 0.9815
-2.3477 3.5030 -1.8190 0.9818
-2.6161 3.2381 -1.7957 0.9820
-2.8639 2.9613 -1.7770 0.9822
-3.0913 2.6732 -1.7629 0.9824
-3.2986 2.3742 -1.7531 0.9825
-3.4862 2.0649 -1.7478 0.9825
-3.6539 1.7454 -1.7467 0.9825
-3.8019 1.4158 -1.7500 0.9825
-3.9298 1.0765 -1.7576 0.9824
-2.4481 -0.2187 -1.1090 0.9893
-2.4593 -0.4430 -1.1275 0.9891
-2.4702 -0.6766 -1.1556 0.9888
-2.4890 -0.9269 -1.1984 0.9884
-3.8943 -2.3066 -2.0423 0.9803
-3.7756 -2.7175 -2.0990 0.9798
-3.6243 -3.1341 -2.1620 0.9792
-1.4385 -6.0363 -2.8000 0.9731
-0.3762 -6.7465 -3.0489 0.9708
2.3706 -7.6421 -3.6103 0.9655
3.1627 -7.6961 -3.7544 0.9641
3.9786 -7.6603 -3.8949 0.9628
4.8037 -7.5248 -4.0282 0.9616
5.6156 -7.2763 -4.1473 0.9605
7.1285 -6.4474 -4.3370 0.9587
7.7868 -5.8723 -4.4006 0.9581
8.8082 -4.4509 -4.4530 0.9576
9.1414 -3.6382 -4.4395 0.9577
9.3448 -2.7850 -4.3998 0.9581
8.9031 0.5960 -4.0262 0.9616
8.5295 1.3412 -3.8960 0.9628
7.5719 2.6293 -3.6167 0.9654
6.4372 3.6215 -3.3327 0.9681
5.2301 4.3228 -3.0617 0.9707
4.6244 4.5731 -2.9346 0.9719
2.1869 4.7126 -2.3442 0.9775
1.6948 4.7108 -2.2590 0.9783
0.3664 4.6886 -2.1220 0.9796
-0.0522 4.6838 -2.1135 0.9797
-0.4562 4.5348 -2.0565 0.9802
-1.5293 3.9706 -1.9199 0.9815
-2.4056 3.2649 -1.8299 0.9824
-2.6564 3.0037 -1.8093 0.9826
-2.8873 2.7308 -1.7932 0.9827
-3.6156 1.5332 -1.7720 0.9829
-3.7489 1.2089 -1.7774 0.9829
-2.5489 0.5775 -1.1792 0.9886
-2.4522 -0.3298 -1.1164 0.9892
-2.4671 -0.5589 -1.1414 0.9890
-2.4891 -1.0554 -1.2199 0.9882
-3.7042 -2.9252 -2.1297 0.9795
-3.5357 -3.3441 -2.1959 0.9789
-3.0876 -4.1905 -2.3487 0.9774
-2.8026 -4.6137 -2.4358 0.9766
-2.4732 -5.0328 -2.5303 0.9757
-2.0968 -5.4442 -2.6324 0.9747
-1.6708 -5.8432 -2.7422 0.9737
-1.1930 -6.2241 -2.8595 0.9726
-0.0769 -6.9036 -3.1152 0.9702
0.5615 -7.1857 -3.2522 0.9689
2.7629 -7.6797 -3.6827 0.9648
3.5686 -7.6901 -3.8253 0.9635
4.3910 -7.6055 -3.9626 0.9622
5.2121 -7.4143 -4.0894 0.9610
6.0117 -7.1106 -4.2014 0.9600
6.7708 -6.6958 -4.2967 0.9591
7.4680 -6.1725 -4.3717 0.9584
8.0823 -5.5482 -4.4235 0.9579
9.2596 -3.2153 -4.4228 0.9579
9.3969 -2.3503 -4.3707 0.9584
9.2867 -0.6217 -4.1997 0.9600
9.0564 0.2018 -4.0874 0.9610
8.3134 1.6898 -3.8278 0.9635
7.3003 2.9054 -3.5453 0.9661
6.7312 3.4015 -3.4030 0.9674
6.1387 3.8233 -3.2632 0.9688
5.5340 4.1734 -3.1275 0.9700
4.9266 4.4559 -2.9973 0.9713
4.3242 4.6753 -2.8735 0.9724
3.1347 4.9104 -2.6286 0.9748
2.4737 4.7627 -2.4216 0.9767
1.4570 4.6969 -2.2189 0.9787
0.9982 4.6453 -2.1439 0.9794
0.5731 4.6534 -2.1156 0.9796
-0.6493 4.4524 -2.0302 0.9804
-1.0183 4.2729 -1.9820 0.9809
-1.3645 4.0755 -1.9393 0.9813
-1.6885 3.8619 -1.9018 0.9817
-1.9911 3.6333 -1.8694 0.9820
-2.2726 3.3909 -1.8419 0.9822
-2.9953 2.5902 -1.7868 0.9828
-3.1968 2.3009 -1.7772 0.9829
-3.3789 2.0013 -1.7720 0.9829
-3.8082 1.0432 -1.7816 0.9828
-2.3615 0.0000 -1.1132 0.9896
-2.3773 -0.2124 -1.1251 0.9895
-2.3934 -0.6556 -1.1698 0.9891
-2.4034 -0.8950 -1.2089 0.9887
-3.8470 -1.8375 -2.0096 0.9813
-3.7585 -2.2261 -2.0591 0.9809
-3.4908 -3.0186 -2.1754 0.9798
-3.3075 -3.4200 -2.2427 0.9792
-3.0883 -3.8224 -2.3164 0.9785
-2.5324 -4.6211 -2.4839 0.9770
-2.1911 -5.0111 -2.5780 0.9761
-1.8044 -5.3895 -2.6791 0.9752
-0.3569 -6.4013 -3.0221 0.9720
2.9658 -7.2169 -3.6780 0.9661
3.7222 -7.1666 -3.8066 0.9649
4.4842 -7.0243 -3.9283 0.9638
5.2330 -6.7805 -4.0374 0.9628
5.9515 -6.4347 -4.1316 0.9620
6.6221 -5.9893 -4.2089 0.9613
7.2261 -5.4494 -4.2662 0.9608
7.7460 -4.8242 -4.3015 0.9604
8.7077 -0.9741 -4.1302 0.9620
8.3130 0.5565 -3.9273 0.9638
7.5782 1.8955 -3.6822 0.9660
7.1180 2.4716 -3.5518 0.9672
6.6143 2.9803 -3.4197 0.9684
5.5260 3.7934 -3.1595 0.9708
3.8364 4.5378 -2.8010 0.9741
2.1767 4.6908 -2.4376 0.9774
1.6596 4.6128 -2.3108 0.9786
1.2037 4.5944 -2.2388 0.9792
0.7789 4.6176 -2.2074 0.9795
0.3619 4.6318 -2.1899 0.9797
-0.8081 4.2160 -2.0235 0.9812
-1.4792 3.8406 -1.9400 0.9820
-1.7832 3.6287 -1.9059 0.9823
-2.0668 3.4025 -1.8765 0.9825
-2.3304 3.1628 -1.8519 0.9828
-2.5743 2.9108 -1.8317 0.9830
-3.0042 2.3724 -1.8044 0.9832
-3.1905 2.0871 -1.7971 0.9833
-3.6350 1.1722 -1.8004 0.9833
-2.5265 0.5724 -1.2211 0.9886
-2.3488 0.1047 -1.1083 0.9897
-2.3799 -0.3201 -1.1319 0.9894
-2.3894 -0.5414 -1.1548 0.9892
-2.3945 -0.7721 -1.1859 0.9889
-2.4109 -1.0223 -1.2344 0.9885
-3.8063 -2.0311 -2.0337 0.9811
-3.7033 -2.4226 -2.0860 0.9806
-3.4036 -3.2190 -2.2083 0.9795
-2.9645 -4.0234 -2.3557 0.9781
1.1801 -6.9964 -3.3445 0.9691
1.8701 -7.1380 -3.4783 0.9679
3.3425 -7.2028 -3.7430 0.9655
4.1034 -7.1074 -3.8685 0.9644
4.8616 -6.9157 -3.9848 0.9633
5.5971 -6.6202 -4.0864 0.9624
6.2940 -6.2243 -4.1726 0.9616
6.9336 -5.7307 -4.2402 0.9610
7.9697 -4.4836 -4.3104 0.9604
8.3367 -3.7563 -4.3102 0.9604
8.7246 -2.1821 -4.2392 0.9610
8.7418 -1.3745 -4.1713 0.9616
8.6465 -0.5788 -4.0849 0.9624
8.4476 0.1883 -3.9830 0.9633
7.7877 1.5830 -3.7460 0.9655
6.8708 2.7346 -3.4858 0.9678
6.3502 3.2089 -3.3538 0.9690
4.1157 4.4498 -2.8572 0.9736
3.5598 4.6125 -2.7464 0.9746
1.9079 4.6426 -2.3660 0.9780
1.4262 4.5976 -2.2691 0.9789
0.9888 4.6014 -2.2185 0.9794
0.1530 4.5767 -2.1585 0.9800
-0.2480 4.4486 -2.1002 0.9805
-0.6269 4.2985 -2.0477 0.9810
-1.3194 3.9408 -1.9589 0.9818
-2.4548 3.0383 -1.8412 0.9829
-2.9038 2.5111 -1.8096 0.9832
-3.0997 2.2310 -1.8002 0.9833
-2.3515 0.4237 -1.1263 0.9895
-2.3243 0.2077 -1.1000 0.9897
-2.2975 0.0000 -1.1300 0.9898
-2.3278 -0.8669 -1.2217 0.9890
-2.3666 -1.1304 -1.2900 0.9884
-3.6300 -2.1500 -2.0751 0.9814
-3.3650 -2.9098 -2.1881 0.9804
-3.1847 -3.2929 -2.2532 0.9798
-2.9700 -3.6760 -2.3244 0.9792
-2.7187 -4.0565 -2.4019 0.9785
-2.0981 -4.7983 -2.5758 0.9769
-0.8461 -5.8015 -2.8837 0.9742
-0.3393 -6.0850 -2.9976 0.9732
0.8048 -6.5341 -3.2381 0.9711
1.4361 -6.6832 -3.3622 0.9700
2.1003 -6.7706 -3.4867 0.9689
3.4935 -6.7262 -3.7280 0.9668
4.2004 -6.5798 -3.8395 0.9658
4.8942 -6.3416 -3.9400 0.9649
6.1764 -5.5862 -4.0961 0.9636
6.7336 -5.0780 -4.1482 0.9631
7.2140 -4.4929 -4.1801 0.9628
7.6046 -3.8428 -4.1908 0.9627
7.8956 -3.1424 -4.1798 0.9628
8.0811 -2.4084 -4.1475 0.9631
8.1319 -0.9097 -4.0247 0.9642
7.4921 1.1781 -3.7303 0.9668
7.1282 1.7829 -3.6140 0.9678
6.2480 2.8152 -3.3707 0.9699
5.2420 3.5985 -3.1273 0.9721
4.7169 3.8986 -3.0099 0.9731
3.6606 4.3299 -2.7888 0.9750
2.1397 4.6109 -2.5002 0.9776
0.3488 4.4641 -2.2024 0.9802
-0.0485 4.3565 -2.1429 0.9808
-0.7810 4.0746 -2.0406 0.9817
-1.4316 3.7170 -1.9591 0.9824
-2.0024 3.2964 -1.8970 0.9830
-2.2587 3.0655 -1.8729 0.9832
-2.4959 2.8222 -1.8531 0.9833
-3.0951 2.0248 -1.8191 0.9836
-3.2576 1.7383 -1.8161 0.9837
-3.4014 1.4423 -1.8172 0.9837
-2.5042 0.5674 -1.2629 0.9886
-2.2893 0.1021 -1.1271 0.9898
-2.3022 -0.1027 -1.1335 0.9898
-2.3108 -0.3108 -1.1468 0.9897
-3.5750 -2.3387 -2.1012 0.9811
-3.4428 -2.7187 -2.1577 0.9806
-3.2790 -3.1013 -2.2199 0.9801
-2.8490 -3.8667 -2.3624 0.9788
-2.2686 -4.6164 -2.5300 0.9773
-1.0827 -5.6482 -2.8287 0.9747
-0.5983 -5.9474 -2.9400 0.9737
-0.0692 -6.2135 -3.0563 0.9727
1.1159 -6.6158 -3.3000 0.9705
2.4423 -6.7884 -3.5484 0.9684
3.1403 -6.7671 -3.6694 0.9673
4.5505 -6.4731 -3.8918 0.9653
6.9843 -4.7944 -4.1668 0.9629
7.4212 -4.1751 -4.1882 0.9628
7.7630 -3.4978 -4.1880 0.9628
8.0017 -2.7785 -4.1662 0.9629
8.1334 -2.0343 -4.1237 0.9633
8.0806 -0.5409 -3.9834 0.9645
7.6495 0.8557 -3.7859 0.9663
6.4833 2.5803 -3.4321 0.9694
4.9804 3.7559 -3.0681 0.9726
4.4523 4.0269 -2.9527 0.9736
3.9235 4.2420 -2.8421 0.9746
3.3997 4.4051 -2.7369 0.9755
2.8855 4.5200 -2.6376 0.9764
2.3844 4.5908 -2.5444 0.9772
0.9835 4.5770 -2.3026 0.9793
-0.2394 4.2939 -2.1153 0.9810
-0.6056 4.1527 -2.0641 0.9815
-1.5817 3.6174 -1.9418 0.9826
-1.8670 3.4069 -1.9108 0.9828
-2.3796 2.9454 -1.8624 0.9833
-2.8165 2.4355 -1.8314 0.9835
-3.0069 2.1643 -1.8222 0.9836
-3.3318 1.5915 -1.8161 0.9837
-3.4662 1.2908 -1.8192 0.9836
-2.3061 0.4155 -1.1525 0.9896
-2.2658 0.2025 -1.1189 0.9899
-2.2481 -0.6158 -1.1950 0.9896
-2.2721 -1.0853 -1.2909 0.9887
-3.5080 -2.0778 -2.0902 0.9818
-3.3918 -2.4412 -2.1424 0.9814
-3.0689 -3.1732 -2.2631 0.9804
-2.8587 -3.5382 -2.3320 0.9798
-1.2499 -5.2445 -2.7640 0.9761
-0.8071 -5.5341 -2.8672 0.9752
0.7633 -6.1978 -3.2015 0.9723
2.6303 -6.4005 -3.5476 0.9694
3.2882 -6.3308 -3.6573 0.9684
3.9466 -6.1822 -3.7602 0.9676
4.5920 -5.9500 -3.8532 0.9668
5.2077 -5.6304 -3.9320 0.9661
5.7810 -5.2286 -3.9961 0.9656
6.2973 -4.7490 -4.0436 0.9652
6.7432 -4.1997 -4.0727 0.9649
7.3804 -2.9373 -4.0724 0.9649
7.5575 -2.2524 -4.0429 0.9652
7.6367 -1.5522 -3.9952 0.9656
7.6197 -0.8524 -3.9308 0.9661
