ply
format ascii 1.0
element vertex 1590
property float32 x
property float32 y
property float32 z
property float32 I
end_header
5.6060 0.1249 3.1143 0.9747
2.5932 4.9929 3.1247 0.9746
2.3001 5.5969 3.3608 0.9727
-11.5865 0.0000 6.1854 0.9488
5.7522 -0.1282 3.0716 0.9742
2.0599 5.7256 3.2484 0.9728
2.2432 5.4585 3.1504 0.9736
2.0478 5.6919 3.1012 0.9732
2.2733 5.5317 3.0661 0.9735
6.0417 -0.6759 2.9902 0.9733
-12.7642 -0.5692 6.2844 0.9446
6.3686 -1.2945 2.9324 0.9719
2.0396 5.6692 2.4809 0.9743
6.6319 -1.6587 2.8150 0.9709
6.8079 -2.0290 2.7880 0.9699
2.0412 5.6736 2.3664 0.9744
2.0428 5.6779 2.2533 0.9746
0.5040 -2.9879 1.1315 0.9871
0.7432 -2.8368 1.0951 0.9876
1.0467 -2.9093 1.1545 0.9869
7.0606 -2.4517 2.7909 0.9686
0.3551 -2.8829 1.0299 0.9877
1.1658 -2.8370 1.0876 0.9871
0.4678 -2.7732 0.9972 0.9881
0.6996 -2.6704 0.9788 0.9884
0.9729 -2.7042 1.0190 0.9879
7.1170 -2.4713 2.6714 0.9685
0.3409 -2.7680 0.9370 0.9883
0.5643 -2.6260 0.9024 0.9887
1.0806 -2.6294 0.9551 0.9881
7.3258 -2.9156 2.6491 0.9673
0.2269 -2.9037 0.9786 0.9878
1.3120 -2.8272 1.0472 0.9869
0.3280 -2.6631 0.8522 0.9888
0.5469 -2.5450 0.8267 0.9891
2.0593 5.7240 1.9319 0.9748
0.4365 -2.5876 0.8334 0.9890
0.3188 -2.5885 0.7808 0.9892
1.0151 -2.4702 0.7995 0.9889
2.0694 5.7520 1.8301 0.9748
0.2094 -2.6797 0.8047 0.9888
0.4265 -2.5283 0.7676 0.9894
0.6409 -2.4462 0.7571 0.9895
0.8774 -2.4388 0.7760 0.9892
7.6674 -3.4548 2.5177 0.9655
1.8132 5.8451 1.8322 0.9748
0.0911 -2.7247 0.7670 0.9887
0.3123 -2.5360 0.7189 0.9894
1.3171 -2.5358 0.8040 0.9882
0.8580 -2.3849 0.7131 0.9895
1.8040 5.8156 1.7132 0.9750
-0.1734 -3.1096 0.8207 0.9872
0.5160 -2.4013 0.6472 0.9899
0.9687 -2.3573 0.6715 0.9895
0.2009 -2.5706 0.6794 0.9894
0.4122 -2.4438 0.6530 0.9898
0.6212 -2.3712 0.6459 0.9899
0.8447 -2.3479 0.6575 0.9897
1.1038 -2.3787 0.6910 0.9892
1.4949 -2.5892 0.7878 0.9877
0.0872 -2.6079 0.6414 0.9893
0.3014 -2.4474 0.6061 0.9899
0.5077 -2.3627 0.5940 0.9901
1.2350 -2.3777 0.6586 0.9890
-0.0305 -2.7411 0.6738 0.9888
0.4055 -2.4041 0.5993 0.9900
0.8319 -2.3123 0.6040 0.9899
1.0863 -2.3409 0.6343 0.9894
1.4318 -2.4799 0.7039 0.9883
1.7978 5.7957 1.4915 0.9753
-0.1584 -2.8415 0.6496 0.9884
0.0855 -2.5564 0.5838 0.9896
0.7102 -2.2896 0.5472 0.9902
1.6647 -2.6077 0.7061 0.9874
0.1931 -2.4718 0.5659 0.9899
0.3991 -2.3660 0.5477 0.9902
0.6031 -2.3018 0.5431 0.9903
1.0695 -2.3046 0.5799 0.9896
1.3878 -2.4037 0.6335 0.9887
-0.1540 -2.7624 0.5833 0.9888
0.0842 -2.5170 0.5309 0.9898
-0.3080 -3.0619 0.6488 0.9875
-0.0291 -2.6070 0.5496 0.9894
0.1904 -2.4365 0.5152 0.9901
0.8077 -2.2450 0.5030 0.9903
1.0533 -2.2697 0.5275 0.9898
1.3629 -2.3607 0.5747 0.9889
1.7939 5.7831 1.2765 0.9756
-0.1514 -2.7157 0.5263 0.9890
0.0832 -2.4881 0.4818 0.9899
0.2903 -2.3567 0.4595 0.9904
0.6923 -2.2316 0.4522 0.9905
0.9122 -2.2197 0.4644 0.9903
-0.2948 -2.9302 0.5699 0.9881
-0.0287 -2.5726 0.4979 0.9896
0.3903 -2.3138 0.4541 0.9905
0.5892 -2.2491 0.4499 0.9906
0.7966 -2.2143 0.4554 0.9905
1.0376 -2.2360 0.4770 0.9900
1.3391 -2.3195 0.5183 0.9891
1.7952 5.7871 1.1726 0.9756
0.0823 -2.4601 0.4340 0.9901
0.6866 -2.2132 0.4086 0.9906
1.5079 -2.3620 0.4941 0.9887
-0.2871 -2.8542 0.5058 0.9884
-0.0283 -2.5427 0.4484 0.9897
0.1862 -2.3830 0.4215 0.9903
1.7964 5.7912 1.0691 0.9757
0.0813 -2.4329 0.3876 0.9902
0.8949 -2.1775 0.3749 0.9905
-0.2806 -2.7892 0.4464 0.9887
0.3833 -2.2723 0.3669 0.9907
0.5797 -2.2127 0.3642 0.9908
1.0133 -2.1836 0.3833 0.9903
-0.1445 -2.5918 0.3692 0.9896
0.2825 -2.2934 0.3287 0.9907
0.6755 -2.1777 0.3243 0.9908
0.1825 -2.3359 0.3333 0.9906
0.3799 -2.2523 0.3249 0.9908
0.7773 -2.1604 0.3266 0.9908
1.2757 -2.2096 0.3629 0.9897
1.6923 -2.4073 0.4185 0.9882
-0.4306 -2.9523 0.3739 0.9880
-0.1424 -2.5533 0.3205 0.9897
0.2800 -2.2732 0.2870 0.9908
0.6702 -2.1605 0.2835 0.9909
0.8808 -2.1434 0.2904 0.9907
-0.2717 -2.7012 0.3402 0.9891
-0.0274 -2.4578 0.3080 0.9901
0.3766 -2.2327 0.2837 0.9909
1.2645 -2.1902 0.3169 0.9899
1.6541 -2.3530 0.3604 0.9885
1.8028 5.8118 0.7625 0.9758
-0.4195 -2.8763 0.3153 0.9884
0.0788 -2.3554 0.2556 0.9906
0.2775 -2.2535 0.2463 0.9909
0.4681 -2.1782 0.2416 0.9911
0.8740 -2.1268 0.2494 0.9908
1.1099 -2.1370 0.2612 0.9904
1.4116 -2.2112 0.2845 0.9895
2.0632 -2.6733 0.3663 0.9865
-0.0271 -2.4310 0.2637 0.9903
1.6187 -2.3026 0.3053 0.9887
1.8074 5.8266 0.6617 0.9758
-0.4110 -2.8181 0.2611 0.9886
0.2754 -2.2360 0.2065 0.9910
0.6598 -2.1270 0.2042 0.9911
1.1010 -2.1199 0.2190 0.9905
1.3989 -2.1913 0.2383 0.9896
1.9205 -2.4885 0.2882 0.9875
-0.2647 -2.6312 0.2424 0.9894
-0.0269 -2.4133 0.2213 0.9904
0.1781 -2.2789 0.2096 0.9909
0.5618 -2.1442 0.2032 0.9911
1.2427 -2.1525 0.2279 0.9901
1.6010 -2.2774 0.2552 0.9889
-0.4056 -2.7807 0.2106 0.9888
-0.1382 -2.4793 0.1861 0.9901
0.0777 -2.3245 0.1743 0.9907
0.2741 -2.2259 0.1681 0.9910
0.4621 -2.1502 0.1648 0.9912
0.8608 -2.0946 0.1697 0.9910
1.0923 -2.1031 0.1776 0.9905
1.3865 -2.1719 0.1931 0.9897
1.8648 -2.4162 0.2287 0.9878
-0.6167 -3.2170 0.2455 0.9869
0.7532 -2.0936 0.1667 0.9911
0.9739 -2.0987 0.1734 0.9908
-0.4003 -2.7444 0.1615 0.9889
-0.1374 -2.4645 0.1438 0.9902
0.4603 -2.1421 0.1276 0.9913
0.6519 -2.1014 0.1281 0.9912
0.8544 -2.0789 0.1309 0.9910
1.3743 -2.1528 0.1488 0.9898
1.8345 -2.3770 0.1749 0.9880
1.5604 5.9559 0.3586 0.9756
-0.0266 -2.3855 0.1389 0.9905
0.3669 -2.1749 0.1285 0.9912
0.5559 -2.1218 0.1277 0.9913
0.7487 -2.0810 0.1288 0.9912
1.2218 -2.1162 0.1423 0.9903
1.5668 -2.2288 0.1587 0.9891
1.8296 5.8979 0.3597 0.9756
-0.3961 -2.7156 0.1141 0.9891
0.8511 -2.0709 0.0931 0.9911
1.5536 5.9301 0.2549 0.9758
0.1757 -2.2482 0.0938 0.9910
0.3653 -2.1654 0.0913 0.9912
0.7458 -2.0731 0.0916 0.9912
0.9605 -2.0699 0.0949 0.9909
1.2117 -2.0986 0.1008 0.9903
1.5503 -2.2053 0.1121 0.9893
-0.3927 -2.6925 0.0679 0.9892
0.0764 -2.2861 0.0570 0.9909
0.2705 -2.1965 0.0552 0.9912
0.6470 -2.0856 0.0545 0.9913
1.0707 -2.0614 0.0579 0.9907
1.5519 5.9235 0.1527 0.9758
-0.2562 -2.5468 0.0638 0.9898
-0.0263 -2.3584 0.0588 0.9906
0.1749 -2.2381 0.0560 0.9911
0.3637 -2.1560 0.0545 0.9913
0.5517 -2.1059 0.0543 0.9913
0.7430 -2.0652 0.0547 0.9913
0.9572 -2.0626 0.0567 0.9909
1.5341 -2.1823 0.0665 0.9894
-13.4350 6.4174 0.3713 0.9422
-0.3894 -2.6698 0.0224 0.9893
0.0760 -2.2736 0.0189 0.9909
0.4552 -2.1181 0.0180 0.9914
0.6446 -2.0778 0.0181 0.9913
0.8452 -2.0568 0.0185 0.9911
1.7496 -2.2670 0.0238 0.9886
-10.3230 9.7635 0.1181 0.9447
-11.4338 7.4797 0.1136 0.9468
-12.5125 5.3057 0.1130 0.9471
-13.0631 4.2123 0.1141 0.9466
-14.2369 1.9148 0.1194 0.9442
-14.8850 0.6637 0.1238 0.9421
-0.5609 -2.9259 0.0248 0.9882
-0.2542 -2.5266 0.0211 0.9899
0.1741 -2.2282 0.0186 0.9911
0.3621 -2.1466 0.0181 0.9913
1.1984 -2.0757 0.0199 0.9905
-9.4177 11.6565 0.1246 0.9418
-10.0307 10.3717 0.1199 0.9439
-12.2417 5.8474 0.1128 0.9472
-13.3454 3.6557 0.1150 0.9462
-13.9308 2.5098 0.1176 0.9450
-14.5544 1.3006 0.1214 0.9432
-13.8504 0.0000 -0.1151 0.9461
-14.4618 -1.2923 -0.1207 0.9436
-0.1342 -2.4074 -0.0200 0.9904
0.0756 -2.2613 -0.0188 0.9910
0.8424 -2.0498 -0.0184 0.9912
1.0631 -2.0468 -0.0192 0.9908
1.3373 -2.0949 -0.0207 0.9901
1.7250 -2.2352 -0.0235 0.9888
1.5484 5.9103 -0.0508 0.9759
-6.4316 13.0879 -0.1212 0.9433
-7.5925 12.4990 -0.1215 0.9432
-10.9958 5.8676 -0.1036 0.9514
-11.9863 3.8651 -0.1047 0.9509
-12.4912 2.8302 -0.1065 0.9501
-13.0134 1.7501 -0.1091 0.9488
-14.1495 -0.6309 -0.1177 0.9449
-14.7894 -1.9890 -0.1240 0.9421
-0.5531 -2.8856 -0.0244 0.9883
-0.2522 -2.5068 -0.0209 0.9900
-0.0260 -2.3320 -0.0194 0.9907
0.9505 -2.0483 -0.0188 0.9910
1.1943 -2.0687 -0.0199 0.9905
-9.7162 8.4020 -0.1068 0.9499
-10.7467 6.3653 -0.1038 0.9513
-12.7496 2.2970 -0.1077 0.9495
-13.2839 1.1871 -0.1108 0.9480
-12.6988 0.0000 -0.3167 0.9505
-13.7505 -2.4773 -0.3484 0.9456
-14.3449 -3.9294 -0.3709 0.9422
-0.1334 -2.3936 -0.0598 0.9905
0.2670 -2.1679 -0.0545 0.9913
0.4518 -2.1025 -0.0536 0.9914
0.6398 -2.0624 -0.0539 0.9914
0.8395 -2.0428 -0.0551 0.9912
1.5475 5.9066 -0.1523 0.9759
-8.1605 9.2272 -0.3072 0.9519
-10.1662 5.4249 -0.2874 0.9549
-10.6223 4.5043 -0.2877 0.9549
-11.0732 3.5707 -0.2902 0.9545
-11.5248 2.6112 -0.2947 0.9538
-11.9833 1.6116 -0.3015 0.9528
-12.4553 0.5554 -0.3109 0.9513
-14.0403 -3.1811 -0.3590 0.9440
-0.5486 -2.8620 -0.0727 0.9884
-0.2502 -2.4872 -0.0623 0.9900
-0.0258 -2.3190 -0.0578 0.9908
0.1726 -2.2086 -0.0552 0.9912
0.5456 -2.0825 -0.0537 0.9914
0.7355 -2.0443 -0.0542 0.9913
0.9472 -2.0413 -0.0561 0.9910
1.1903 -2.0617 -0.0594 0.9905
1.5038 -2.1392 -0.0652 0.9896
2.2226 -2.6289 -0.0859 0.9863
-4.6498 13.8883 -0.3652 0.9431
-5.4642 12.4970 -0.3401 0.9469
-6.5805 12.0079 -0.3415 0.9467
-7.2592 10.8315 -0.3252 0.9492
-7.8731 9.7446 -0.3124 0.9511
-8.4370 8.7238 -0.3027 0.9526
-9.4590 6.8082 -0.2906 0.9544
-9.9344 5.8841 -0.2879 0.9549
-10.3953 4.9654 -0.2873 0.9550
-11.2986 3.0950 -0.2922 0.9542
-11.7528 2.1174 -0.2978 0.9533
-12.2171 1.0917 -0.3059 0.9521
-11.7233 0.0000 -0.4875 0.9542
-12.1507 -1.0858 -0.5072 0.9523
-12.5972 -2.2695 -0.5322 0.9500
-0.3826 -2.6236 -0.1102 0.9894
-0.1330 -2.3859 -0.0994 0.9905
0.2658 -2.1585 -0.0904 0.9913
0.8367 -2.0359 -0.0915 0.9912
1.7083 -2.2135 -0.1163 0.9889
-2.8093 14.6557 -0.6205 0.9420
-3.7872 13.2446 -0.5728 0.9463
-5.6862 11.5712 -0.5361 0.9497
-6.3718 10.4895 -0.5103 0.9521
-6.9886 9.4850 -0.4899 0.9539
-7.5510 8.5381 -0.4739 0.9554
-9.0143 5.8969 -0.4479 0.9578
-9.4525 5.0440 -0.4455 0.9580
-10.6965 2.4236 -0.4560 0.9570
-11.1036 1.4933 -0.4658 0.9561
-13.3214 -4.2956 -0.5820 0.9455
-13.6081 -5.7703 -0.6146 0.9425
-0.2496 -2.4809 -0.1037 0.9901
-0.0257 -2.3084 -0.0960 0.9908
0.1718 -2.1989 -0.0917 0.9912
0.3574 -2.1191 -0.0894 0.9914
1.4986 -2.1317 -0.1083 0.9896
2.1206 -2.5083 -0.1366 0.9869
-3.3186 13.9255 -0.5952 0.9443
-4.9889 11.4099 -0.5178 0.9514
-7.2758 9.0054 -0.4814 0.9547
-9.2356 5.4703 -0.4463 0.9579
-9.6657 4.6169 -0.4454 0.9580
-11.2503 -1.0053 -0.6579 0.9558
-11.6211 -2.0936 -0.6878 0.9538
-12.3489 -4.5988 -0.7675 0.9486
-12.5864 -6.0120 -0.8124 0.9456
-0.3817 -2.6169 -0.1540 0.9895
-0.1328 -2.3821 -0.1390 0.9905
0.0748 -2.2372 -0.1304 0.9911
0.4485 -2.0870 -0.1243 0.9915
0.6351 -2.0472 -0.1248 0.9914
0.8338 -2.0291 -0.1278 0.9912
1.0519 -2.0253 -0.1329 0.9909
1.3234 -2.0731 -0.1432 0.9902
1.7019 -2.2052 -0.1622 0.9889
-2.5446 13.2750 -0.7873 0.9473
-4.2364 10.9996 -0.6865 0.9539
-5.8970 9.7078 -0.6616 0.9555
-7.0256 7.9439 -0.6177 0.9584
-7.5221 7.1144 -0.6030 0.9594
-7.9845 6.3053 -0.5926 0.9601
-8.4192 5.5076 -0.5860 0.9605
-8.8317 4.7127 -0.5830 0.9607
-9.2263 3.9123 -0.5837 0.9606
-9.6073 3.0980 -0.5879 0.9604
-10.3432 1.3910 -0.6078 0.9590
-11.0675 -0.4935 -0.6453 0.9566
-11.8106 -2.6759 -0.7053 0.9526
-12.4093 -5.2620 -0.7851 0.9474
-12.7992 -6.8298 -0.8450 0.9435
-0.2490 -2.4750 -0.1449 0.9901
-0.0257 -2.3049 -0.1342 0.9908
0.1713 -2.1927 -0.1281 0.9912
0.3559 -2.1101 -0.1246 0.9915
0.5416 -2.0672 -0.1245 0.9915
0.7306 -2.0308 -0.1257 0.9914
0.9407 -2.0272 -0.1302 0.9911
1.4933 -2.1243 -0.1512 0.9896
2.1072 -2.4924 -0.1901 0.9870
-2.0315 13.9288 -0.8198 0.9452
-3.0175 12.6620 -0.7581 0.9492
-4.5891 10.4957 -0.6672 0.9551
-5.5788 10.1800 -0.6761 0.9546
-6.1992 9.2498 -0.6485 0.9564
-6.7621 8.3696 -0.6267 0.9578
-7.2785 7.5260 -0.6098 0.9589
-7.7571 6.7079 -0.5973 0.9597
-8.6279 5.1104 -0.5841 0.9606
-9.0309 4.3137 -0.5829 0.9607
-9.7939 2.6829 -0.5914 0.9601
-10.1614 1.8307 -0.6014 0.9595
-10.5243 0.9404 -0.6154 0.9585
-10.1589 0.0000 -0.7613 0.9601
-10.4726 -0.9358 -0.7879 0.9587
-10.7840 -1.9428 -0.8212 0.9570
-11.0957 -3.0394 -0.8621 0.9549
-11.3856 -4.2400 -0.9105 0.9524
-0.3807 -2.6102 -0.1977 0.9895
-0.1326 -2.3784 -0.1785 0.9905
0.0747 -2.2350 -0.1676 0.9911
0.4472 -2.0812 -0.1595 0.9915
1.0482 -2.0182 -0.1704 0.9909
1.3188 -2.0659 -0.1837 0.9902
1.5506 5.9187 -0.4585 0.9758
-1.3347 13.2678 -0.9993 0.9479
-3.1756 11.1060 -0.8656 0.9547
-3.9131 10.1603 -0.8159 0.9573
-4.8627 9.8954 -0.8263 0.9567
-5.4872 9.0332 -0.7921 0.9585
-9.0094 2.9052 -0.7094 0.9627
-9.3496 2.1184 -0.7184 0.9623
-9.6791 1.3017 -0.7319 0.9616
-10.0005 0.4460 -0.7502 0.9606
-10.9396 -2.4786 -0.8406 0.9560
-0.5414 -2.8244 -0.2155 0.9885
0.1712 -2.1906 -0.1647 0.9912
0.7282 -2.0240 -0.1612 0.9914
0.9375 -2.0203 -0.1669 0.9911
1.1784 -2.0411 -0.1766 0.9906
1.4881 -2.1169 -0.1939 0.9897
-3.5565 10.6229 -0.8395 0.9561
-4.2481 9.7157 -0.7946 0.9584
-6.3154 7.8167 -0.7531 0.9605
-7.2672 6.2842 -0.7200 0.9622
-9.1810 2.5150 -0.7134 0.9625
-9.5155 1.7143 -0.7246 0.9620
-4.4480 -0.0000 -0.4078 0.9823
-9.7939 -0.8752 -0.9015 0.9613
-10.3137 -2.8252 -0.9804 0.9580
-10.5526 -3.9298 -1.0323 0.9558
-10.6252 -5.0752 -1.0795 0.9538
-10.8485 -6.4256 -1.1559 0.9506
-11.0644 -7.9637 -1.2498 0.9467
-11.2799 -9.7541 -1.3671 0.9419
-0.3797 -2.6035 -0.2412 0.9895
-0.1324 -2.3746 -0.2180 0.9905
0.0746 -2.2329 -0.2048 0.9911
0.6314 -2.0353 -0.1954 0.9915
1.0448 -2.0116 -0.2078 0.9909
1.3142 -2.0587 -0.2239 0.9902
1.5517 5.9227 -0.5613 0.9757
-1.2208 12.1348 -1.1181 0.9522
-2.9373 10.2723 -0.9795 0.9580
-4.5333 9.2250 -0.9423 0.9596
-6.1649 6.9707 -0.8531 0.9633
-7.0414 5.5605 -0.8226 0.9646
-7.4345 4.8635 -0.8145 0.9649
-7.8033 4.1640 -0.8109 0.9651
-8.1509 3.4563 -0.8117 0.9651
-8.4804 2.7346 -0.8169 0.9648
-8.7940 1.9925 -0.8266 0.9644
-4.2496 0.5715 -0.3931 0.9829
-4.0002 0.1784 -0.3671 0.9840
-9.6588 -0.4307 -0.8864 0.9619
-10.1866 -2.3079 -0.9575 0.9589
-10.4391 -3.3661 -1.0056 0.9569
-11.1704 -8.8212 -1.3049 0.9444
-0.5390 -2.8120 -0.2625 0.9886
-0.0256 -2.2978 -0.2107 0.9908
0.1710 -2.1886 -0.2013 0.9912
0.9343 -2.0133 -0.2035 0.9911
-0.7059 12.6589 -1.1623 0.9503
-1.6973 11.6379 -1.0782 0.9539
-3.2970 9.8478 -0.9521 0.9591
-5.4066 8.0672 -0.8903 0.9617
-6.3968 6.6143 -0.8436 0.9637
-7.2413 5.2120 -0.8179 0.9648
-7.6217 4.5144 -0.8121 0.9650
-7.9795 3.8115 -0.8107 0.9651
-8.3178 3.0976 -0.8137 0.9650
-4.9081 0.8842 -0.4572 0.9802
-4.1097 0.3672 -0.3783 0.9836
-3.7849 0.0000 -0.4105 0.9849
-9.1961 -0.8218 -1.0014 0.9635
-9.4212 -1.6973 -1.0383 0.9622
-9.6327 -2.6387 -1.0833 0.9606
-10.0098 -5.9288 -1.2619 0.9543
-10.2575 -8.8700 -1.4709 0.9469
-0.3788 -2.5968 -0.2846 0.9895
0.6311 -2.0344 -0.2310 0.9915
0.8274 -2.0135 -0.2361 0.9913
1.0414 -2.0051 -0.2451 0.9910
1.3097 -2.0516 -0.2640 0.9903
1.0240 13.1044 -1.4257 0.9485
-1.1244 11.1775 -1.2185 0.9558
-3.3932 8.8103 -1.0240 0.9627
-6.6471 5.2492 -0.9187 0.9665
-7.0221 4.5937 -0.9102 0.9668
-4.7637 1.0793 -0.5298 0.9805
-3.7517 0.5046 -0.4106 0.9849
-3.7330 0.1665 -0.4053 0.9851
-9.5286 -2.1589 -1.0597 0.9615
-9.8029 -4.1568 -1.1549 0.9581
-10.0804 -6.5942 -1.3066 0.9527
-10.2044 -8.0583 -1.4103 0.9490
-10.3063 -9.7476 -1.5387 0.9445
-0.2472 -2.4571 -0.2679 0.9901
0.3546 -2.1020 -0.2312 0.9915
0.7261 -2.0181 -0.2326 0.9914
0.9321 -2.0086 -0.2402 0.9911
1.4777 -2.1021 -0.2787 0.9897
1.6820 13.6568 -1.4925 0.9461
-3.0722 9.1762 -1.0496 0.9618
-3.6965 8.4541 -1.0008 0.9636
-5.5757 6.9011 -0.9623 0.9649
-9.1906 -3.4226 -1.2290 0.9612
-9.1888 -4.3891 -1.2761 0.9598
-9.2892 -5.5020 -1.3529 0.9574
-9.4061 -8.1337 -1.5583 0.9511
-0.1320 -2.3671 -0.2971 0.9905
0.2638 -2.1417 -0.2704 0.9913
0.6308 -2.0335 -0.2668 0.9915
1.0420 -2.0062 -0.2833 0.9909
1.5594 5.9522 -0.7711 0.9755
2.1809 12.9295 -1.6432 0.9485
0.9372 11.9934 -1.5075 0.9527
-0.1241 11.1422 -1.3964 0.9561
-1.0420 10.3575 -1.3045 0.9589
-3.9901 8.1196 -1.1337 0.9642
-4.5362 7.4676 -1.0949 0.9654
-5.0333 6.8313 -1.0633 0.9664
-5.4884 6.2058 -1.0382 0.9672
-5.9069 5.5867 -1.0189 0.9678
-6.2935 4.9699 -1.0049 0.9682
-6.6518 4.3514 -0.9961 0.9685
-6.9850 3.7273 -0.9922 0.9686
-3.5494 0.4774 -0.4488 0.9857
-3.5348 0.1576 -0.4434 0.9858
-9.1148 -2.9391 -1.2002 0.9621
-9.1654 -3.8864 -1.2476 0.9607
-9.3308 -6.1039 -1.3973 0.9560
-9.3901 -7.4153 -1.4994 0.9529
-0.5343 -2.7875 -0.3557 0.9886
-0.2466 -2.4512 -0.3087 0.9901
-0.0255 -2.2908 -0.2871 0.9908
0.3544 -2.1008 -0.2670 0.9914
0.5386 -2.0559 -0.2663 0.9915
0.7261 -2.0183 -0.2688 0.9914
0.9322 -2.0088 -0.2775 0.9911
1.1694 -2.0254 -0.2931 0.9906
1.5333 12.4494 -1.5719 0.9507
0.3865 11.5585 -1.4493 0.9544
-0.5990 10.7425 -1.3483 0.9576
-1.4563 9.9855 -1.2646 0.9601
-2.8754 8.5884 -1.1350 0.9641
-3.4781 7.9545 -1.0880 0.9656
-4.2697 7.7913 -1.1134 0.9648
-7.7228 2.1155 -1.0034 0.9682
-3.5366 0.3160 -0.4450 0.9858
-8.3573 -1.5056 -1.2079 0.9663
-8.6628 -5.1310 -1.4321 0.9601
-8.6829 -7.5084 -1.6327 0.9547
-8.5088 -10.5314 -1.9258 0.9468
-0.1318 -2.3634 -0.3367 0.9905
0.2635 -2.1397 -0.3066 0.9913
0.4464 -2.0774 -0.3022 0.9915
0.6305 -2.0326 -0.3027 0.9914
0.8276 -2.0137 -0.3097 0.9912
1.3072 -2.0477 -0.3456 0.9902
1.6742 -2.1693 -0.3898 0.9890
4.8985 13.6155 -2.0581 0.9432
1.5635 5.9677 -0.8775 0.9754
-1.7253 9.0008 -1.3035 0.9636
-2.3943 8.3736 -1.2388 0.9654
-4.2866 7.0568 -1.1744 0.9672
-4.7640 6.4658 -1.1423 0.9681
-5.2013 5.8812 -1.1167 0.9688
-5.6034 5.2996 -1.0970 0.9693
-5.9743 4.7179 -1.0828 0.9697
-6.9296 2.9384 -1.0706 0.9700
-3.3610 0.1499 -0.4785 0.9865
-3.4470 -0.1537 -0.4908 0.9862
-3.6292 -0.4881 -0.5209 0.9853
-8.4331 -1.9107 -1.2299 0.9657
-8.6054 -3.6490 -1.3295 0.9629
-8.6825 -5.6798 -1.4757 0.9589
-8.6600 -8.1906 -1.6954 0.9530
-8.5721 -9.6926 -1.8405 0.9491
-8.4190 -11.4263 -2.0188 0.9443
-0.2460 -2.4453 -0.3496 0.9901
0.3542 -2.0999 -0.3029 0.9914
0.5384 -2.0550 -0.3022 0.9915
1.1703 -2.0271 -0.3329 0.9906
1.4740 -2.0968 -0.3646 0.9897
2.0421 -2.4154 -0.4499 0.9873
4.0745 13.1351 -1.9561 0.9460
1.4083 11.4344 -1.6387 0.9545
0.3572 10.6840 -1.5205 0.9577
-1.3593 9.3199 -1.3396 0.9627
-2.7016 8.0692 -1.2103 0.9662
-3.2691 7.4767 -1.1607 0.9676
-4.0311 7.3559 -1.1931 0.9667
-4.5307 6.7603 -1.1575 0.9677
-4.9873 6.1729 -1.1288 0.9684
-5.4065 5.5903 -1.1062 0.9691
-5.7925 5.0090 -1.0892 0.9695
-6.7851 3.2410 -1.0695 0.9701
-7.0687 2.6324 -1.0729 0.9700
-7.3316 2.0084 -1.0812 0.9698
-3.2915 -0.0000 -0.5241 0.9868
-3.3915 -0.3031 -0.5422 0.9863
-8.0295 -2.1995 -1.3257 0.9668
-8.0933 -3.8659 -1.4282 0.9643
-8.0603 -6.9700 -1.6968 0.9578
-7.9590 -8.2295 -1.8230 0.9547
-7.7927 -9.6451 -1.9745 0.9510
-0.3767 -2.5831 -0.4157 0.9895
0.4462 -2.0765 -0.3382 0.9914
1.0437 -2.0095 -0.3606 0.9909
1.3084 -2.0496 -0.3872 0.9902
1.6806 -2.1776 -0.4380 0.9889
6.1040 13.1539 -2.3091 0.9430
1.5694 5.9901 -0.9860 0.9752
0.8005 10.2448 -1.6363 0.9592
-2.2541 7.8830 -1.3056 0.9673
-2.8245 7.3337 -1.2514 0.9687
-3.5599 7.2442 -1.2853 0.9678
-4.0621 6.6872 -1.2459 0.9688
-4.5209 6.1359 -1.2136 0.9696
-5.6846 4.4891 -1.1534 0.9711
-3.9744 0.9005 -0.6489 0.9836
-3.2540 0.4376 -0.5228 0.9868
-8.1134 -3.4404 -1.4033 0.9649
-8.0905 -6.3890 -1.6416 0.9591
-7.6837 -10.4284 -2.0627 0.9489
-0.5363 -2.7980 -0.4537 0.9885
-0.0254 -2.2838 -0.3637 0.9908
0.7262 -2.0186 -0.3416 0.9913
1.1713 -2.0288 -0.3730 0.9906
1.4773 -2.1015 -0.4091 0.9896
2.0772 -2.4569 -0.5123 0.9871
5.2360 12.7410 -2.1935 0.9457
3.7116 11.9650 -1.9948 0.9505
1.3129 6.1097 -0.9951 0.9750
1.3017 10.5686 -1.6956 0.9578
0.3320 9.9292 -1.5820 0.9606
-1.9454 8.1634 -1.3363 0.9666
-3.8168 6.9648 -1.2647 0.9683
-4.2967 6.4110 -1.2289 0.9692
-4.7358 5.8615 -1.1999 0.9699
-6.4599 3.0856 -1.1400 0.9714
-6.7290 2.5059 -1.1434 0.9713
-4.5041 1.2338 -0.7436 0.9813
-3.2817 -0.2933 -0.5809 0.9867
-7.5022 -1.3516 -1.3441 0.9695
-7.6035 -2.0828 -1.3901 0.9685
-7.5954 -5.4668 -1.6501 0.9627
-7.5184 -6.5014 -1.7526 0.9604
-7.1891 -8.8981 -2.0171 0.9546
-6.9111 -10.3120 -2.1889 0.9508
-6.5303 -11.9163 -2.3960 0.9463
-0.3780 -2.5920 -0.4619 0.9894
-0.1314 -2.3559 -0.4160 0.9905
0.4460 -2.0756 -0.3743 0.9914
1.0446 -2.0112 -0.3996 0.9908
1.3095 -2.0514 -0.4291 0.9902
1.6898 -2.1896 -0.4877 0.9888
7.2644 12.5821 -2.5618 0.9427
5.5307 11.9184 -2.3168 0.9480
4.0605 11.2867 -2.1150 0.9524
1.7042 10.1030 -1.8066 0.9592
-0.1003 9.0021 -1.5874 0.9641
-0.8526 8.4753 -1.5020 0.9660
-1.5250 7.9558 -1.4284 0.9676
-2.6734 6.9414 -1.3116 0.9702
-3.8589 6.3527 -1.3106 0.9703
-4.3004 5.8366 -1.2783 0.9710
-5.4204 4.2805 -1.2178 0.9723
-5.7360 3.7523 -1.2086 0.9725
-6.5385 2.1084 -1.2114 0.9725
-3.8238 0.8663 -0.6913 0.9842
-3.1779 0.4274 -0.5654 0.9871
-3.1644 0.1411 -0.5585 0.9872
-3.2276 -0.1439 -0.5697 0.9870
-3.3507 -0.4506 -0.5961 0.9864
-7.5560 -1.7119 -1.3661 0.9690
-7.6443 -2.4650 -1.4162 0.9679
-7.6724 -3.2534 -1.4695 0.9667
-7.6275 -4.0701 -1.5244 0.9655
-7.5631 -5.9725 -1.6993 0.9616
-7.2970 -8.2508 -1.9422 0.9562
-7.0607 -9.5829 -2.0988 0.9528
-6.7374 -11.0912 -2.2882 0.9487
-6.2899 -12.7996 -2.5147 0.9437
-0.5391 -2.8126 -0.5050 0.9884
0.1702 -2.1782 -0.3852 0.9912
0.3539 -2.0980 -0.3752 0.9914
0.7263 -2.0187 -0.3783 0.9913
0.9324 -2.0093 -0.3906 0.9910
1.1723 -2.0305 -0.4134 0.9905
4.7666 11.5988 -2.2111 0.9503
1.3065 6.0798 -1.0965 0.9751
0.3100 9.2709 -1.6356 0.9630
-0.4872 8.7370 -1.5430 0.9651
-1.1982 8.2159 -1.4640 0.9668
-1.8347 7.6986 -1.3955 0.9684
-2.4078 7.1917 -1.3373 0.9697
-3.6232 6.6115 -1.3294 0.9698
-4.5072 5.5786 -1.2646 0.9713
-5.5814 4.0173 -1.2126 0.9725
-5.8844 3.4853 -1.2059 0.9726
-6.1630 2.9438 -1.2043 0.9726
-6.4188 2.3904 -1.2077 0.9726
-4.2904 1.1753 -0.7844 0.9821
-3.1015 0.0000 -0.6002 0.9874
-3.1775 -0.2839 -0.6174 0.9871
-7.1929 -4.2604 -1.6178 0.9665
-7.1407 -5.1395 -1.7026 0.9648
-7.0421 -6.0896 -1.8016 0.9628
-6.8887 -7.1229 -1.9176 0.9604
-6.6695 -8.2550 -2.0537 0.9577
-5.4549 -12.4756 -2.6349 0.9460
-0.1317 -2.3614 -0.4577 0.9904
0.0742 -2.2200 -0.4298 0.9910
0.2628 -2.1336 -0.4160 0.9913
0.4458 -2.0746 -0.4106 0.9914
0.8278 -2.0142 -0.4214 0.9912
1.0454 -2.0128 -0.4389 0.9908
1.3107 -2.0532 -0.4714 0.9901
1.6992 -2.2018 -0.5382 0.9887
6.5768 11.3913 -2.5455 0.9478
3.7383 10.3908 -2.1370 0.9560
2.5930 9.8972 -1.9799 0.9592
1.5873 9.4101 -1.8467 0.9619
-0.0942 8.4551 -1.6363 0.9661
-0.8033 7.9857 -1.5532 0.9678
-2.0155 7.0488 -1.4187 0.9706
-3.2102 6.5325 -1.4085 0.9708
-3.6741 6.0484 -1.3695 0.9716
-4.0992 5.5635 -1.3373 0.9722
-3.6833 0.8345 -0.7309 0.9847
-3.0751 0.1371 -0.5957 0.9875
-7.1795 -1.6267 -1.4246 0.9705
-7.2501 -2.3379 -1.4742 0.9694
-7.2746 -3.0847 -1.5291 0.9683
-7.1721 -4.6918 -1.6585 0.9657
-7.0977 -5.6050 -1.7502 0.9638
-6.9729 -6.5949 -1.8573 0.9617
-6.5313 -8.8642 -2.1307 0.9561
-0.5420 -2.8273 -0.5571 0.9883
-0.2465 -2.4507 -0.4766 0.9900
-0.0254 -2.2788 -0.4410 0.9908
0.1700 -2.1761 -0.4224 0.9911
0.3537 -2.0970 -0.4115 0.9914
0.5377 -2.0522 -0.4105 0.9914
0.7263 -2.0189 -0.4152 0.9913
0.9325 -2.0094 -0.4287 0.9910
1.4841 -2.1112 -0.4994 0.9895
1.3011 6.0549 -1.1985 0.9751
1.1293 9.1689 -1.7878 0.9631
-0.4583 8.2202 -1.5932 0.9670
-1.1302 7.7496 -1.5156 0.9686
-1.7352 7.2813 -1.4485 0.9700
-2.2825 6.8174 -1.3913 0.9711
-3.8912 5.8062 -1.3526 0.9719
-4.2985 5.3203 -1.3236 0.9725
-4.6727 4.8315 -1.3007 0.9730
-5.0168 4.3382 -1.2835 0.9733
-5.8906 2.8138 -1.2633 0.9738
-3.0211 0.0000 -0.6369 0.9877
-3.0994 -0.2770 -0.6560 0.9874
-3.2303 -0.5820 -0.6920 0.9867
-6.8681 -1.8814 -1.5013 0.9713
-6.9093 -2.5730 -1.5543 0.9703
-6.8490 -3.2715 -1.6002 0.9694
-6.8034 -4.0296 -1.6670 0.9682
-6.7349 -4.8475 -1.7494 0.9666
-6.6201 -5.7246 -1.8451 0.9649
-6.2175 -7.6955 -2.0857 0.9604
-5.9074 -8.8145 -2.2370 0.9576
-4.9900 -11.4123 -2.6259 0.9504
-4.3276 -12.9259 -2.8737 0.9458
0.0743 -2.2229 -0.4689 0.9909
0.6294 -2.0289 -0.4478 0.9914
0.8278 -2.0144 -0.4591 0.9911
1.3119 -2.0550 -0.5140 0.9901
1.7088 -2.2141 -0.5896 0.9886
4.6494 10.0192 -2.3286 0.9559
3.4618 9.6222 -2.1558 0.9591
2.4143 9.2152 -2.0083 0.9618
0.6552 8.3862 -1.7734 0.9662
-0.0888 7.9681 -1.6799 0.9679
-0.7589 7.5437 -1.5984 0.9695
-1.3643 7.1176 -1.5278 0.9708
-3.0585 6.2238 -1.4620 0.9720
-3.5051 5.7702 -1.4233 0.9728
-5.2475 3.4328 -1.3220 0.9747
-5.5149 2.9429 -1.3178 0.9748
-5.9804 1.9285 -1.3247 0.9746
-3.5520 0.8048 -0.7678 0.9852
-3.0346 0.4081 -0.6455 0.9876
-2.9940 0.1335 -0.6318 0.9878
-6.8366 -1.5490 -1.4778 0.9718
-6.9089 -2.9296 -1.5821 0.9698
-6.7746 -4.4317 -1.7067 0.9674
-6.6838 -5.2781 -1.7955 0.9658
-6.3430 -7.1721 -2.0185 0.9616
-5.2625 -10.7088 -2.5155 0.9524
-4.6788 -12.1481 -2.7444 0.9482
-0.5448 -2.8423 -0.6101 0.9882
-0.2473 -2.4580 -0.5208 0.9900
-0.0254 -2.2851 -0.4818 0.9907
0.1699 -2.1745 -0.4598 0.9911
0.5374 -2.0513 -0.4470 0.9914
0.7264 -2.0191 -0.4524 0.9913
1.1743 -2.0340 -0.4952 0.9904
1.4875 -2.1161 -0.5453 0.9895
5.2976 10.1997 -2.4230 0.9541
4.0366 9.8225 -2.2388 0.9575
1.0586 8.5948 -1.8256 0.9652
-0.4325 7.7566 -1.6378 0.9687
-1.0691 7.3307 -1.5618 0.9702
-1.6454 6.9044 -1.4963 0.9714
-2.8201 6.4497 -1.4840 0.9716
-3.7144 5.5423 -1.4065 0.9731
-4.4681 4.6200 -1.3550 0.9741
-5.3842 3.1891 -1.3193 0.9747
-5.8725 2.1870 -1.3211 0.9747
-3.2435 0.5843 -0.6948 0.9866
-2.9810 0.2664 -0.6310 0.9878
-2.9710 -0.0000 -0.6781 0.9879
-3.0430 -0.2719 -0.6973 0.9875
-6.5112 -3.1101 -1.6469 0.9708
-6.4516 -3.8213 -1.7115 0.9697
-6.3704 -4.5851 -1.7915 0.9683
-6.0630 -6.2690 -1.9906 0.9649
-5.1007 -9.3075 -2.4225 0.9574
-3.1580 -13.2513 -3.1092 0.9456
-0.3820 -2.6192 -0.6041 0.9892
-0.1324 -2.3749 -0.5429 0.9903
0.2628 -2.1338 -0.4907 0.9912
0.4454 -2.0727 -0.4839 0.9913
0.6291 -2.0279 -0.4846 0.9913
1.3131 -2.0569 -0.5570 0.9900
8.4694 10.0176 -2.9941 0.9476
6.8958 9.8094 -2.7368 0.9520
4.2966 9.2590 -2.3298 0.9590
2.2578 8.6181 -2.0334 0.9641
0.6175 7.9027 -1.8092 0.9680
-0.0839 7.5282 -1.7184 0.9696
-0.7188 7.1454 -1.6391 0.9710
-1.2953 6.7576 -1.5705 0.9722
-2.4506 6.3629 -1.5563 0.9724
-2.9196 5.9412 -1.5109 0.9732
-5.0311 3.2912 -1.3722 0.9756
-3.4289 0.7769 -0.8025 0.9857
-2.9994 -0.1337 -0.6853 0.9878
-3.0959 -0.4163 -0.7130 0.9873
-6.5662 -2.1173 -1.5747 0.9721
-6.5752 -2.7881 -1.6301 0.9711
-6.4793 -3.4574 -1.6762 0.9703
-6.1603 -5.8264 -1.9353 0.9658
-5.6724 -7.6986 -2.1826 0.9615
-5.3149 -8.7489 -2.3364 0.9589
-4.8604 -9.8905 -2.5153 0.9558
-3.5789 -12.5163 -2.9713 0.9480
-0.5478 -2.8576 -0.6641 0.9881
-0.2480 -2.4654 -0.5656 0.9899
-0.0255 -2.2915 -0.5230 0.9906
0.5372 -2.0503 -0.4838 0.9913
0.7265 -2.0192 -0.4898 0.9912
0.9326 -2.0098 -0.5057 0.9910
1.1754 -2.0358 -0.5365 0.9904
9.6569 10.4409 -3.2461 0.9433
7.6564 9.9206 -2.8602 0.9499
4.8871 9.4094 -2.4200 0.9574
3.7406 9.1021 -2.2461 0.9604
2.7213 8.7725 -2.0964 0.9630
1.2980 6.0406 -1.4102 0.9750
0.9959 8.0854 -1.8594 0.9671
0.2580 7.7171 -1.7624 0.9688
-0.4091 7.3374 -1.6773 0.9703
-1.0139 6.9521 -1.6036 0.9716
-1.5638 6.5622 -1.5397 0.9727
-3.5518 5.2997 -1.4561 0.9742
-4.5996 3.9775 -1.3879 0.9754
-4.8935 3.5221 -1.3761 0.9756
-5.1625 3.0578 -1.3695 0.9757
-5.6304 2.0968 -1.3713 0.9757
-3.8725 1.0608 -0.9164 0.9837
-3.1659 0.5704 -0.7342 0.9869
-2.9277 0.2616 -0.6709 0.9880
-2.9221 0.0000 -0.7183 0.9880
-6.2546 -1.7133 -1.5940 0.9736
-6.2723 -2.3358 -1.6452 0.9728
-6.1321 -3.6320 -1.7518 0.9711
-6.0409 -4.3480 -1.8295 0.9698
-5.9046 -5.1059 -1.9187 0.9684
-5.7165 -5.9109 -2.0212 0.9667
-5.1504 -7.6849 -2.2739 0.9626
-4.7500 -8.6677 -2.4295 0.9601
-2.8851 -12.1063 -3.0591 0.9500
0.0747 -2.2355 -0.5498 0.9908
0.6288 -2.0270 -0.5216 0.9913
0.8280 -2.0147 -0.5354 0.9911
1.3149 -2.0597 -0.6006 0.9900
1.7285 -2.2396 -0.6954 0.9884
9.8894 9.7798 -3.4187 0.9443
8.0007 9.4632 -3.0460 0.9502
5.1007 8.8346 -2.5075 0.9589
3.9963 8.6118 -2.3336 0.9616
2.1149 8.0726 -2.0512 0.9662
-0.0794 7.1303 -1.7527 0.9711
-1.2325 6.4299 -1.6092 0.9734
-2.3403 6.0765 -1.6005 0.9735
-2.7918 5.6812 -1.5559 0.9743
-3.2069 5.2793 -1.5183 0.9749
-3.9399 4.4549 -1.4618 0.9758
-4.2627 4.0317 -1.4422 0.9761
-5.0778 2.7095 -1.4147 0.9766
-5.3021 2.2483 -1.4156 0.9766
-3.3132 0.7507 -0.8350 0.9861
-2.8899 0.3887 -0.7167 0.9881
-3.0389 -0.4087 -0.7537 0.9874
-3.1571 -0.7153 -0.7957 0.9868
-6.2673 -2.0210 -1.6186 0.9732
-6.1678 -3.2912 -1.7184 0.9716
-6.0918 -3.9850 -1.7893 0.9705
-5.8175 -5.5022 -1.9682 0.9676
-5.3189 -7.2189 -2.2040 0.9637
-4.5144 -9.1864 -2.5159 0.9587
-0.5507 -2.8731 -0.7191 0.9880
-0.0256 -2.2979 -0.5649 0.9906
0.5374 -2.0513 -0.5212 0.9913
0.7265 -2.0194 -0.5275 0.9912
0.9327 -2.0099 -0.5446 0.9909
1.4945 -2.1260 -0.6388 0.9894
10.7990 9.7671 -3.5790 0.9418
9.0330 9.7664 -3.2699 0.9467
7.0096 9.0826 -2.8200 0.9538
5.7009 8.9304 -2.6042 0.9573
4.5332 8.7280 -2.4174 0.9603
1.2965 6.0334 -1.5169 0.9749
0.9394 7.6276 -1.8890 0.9688
0.2440 7.2994 -1.7952 0.9704
-0.3880 6.9585 -1.7131 0.9717
-0.9638 6.6081 -1.6415 0.9729
-2.0991 6.2698 -1.6252 0.9731
-2.5708 5.8797 -1.5773 0.9739
-3.0037 5.4811 -1.5363 0.9746
-3.7679 4.6637 -1.4737 0.9756
-4.1047 4.2443 -1.4513 0.9760
-4.4141 3.8170 -1.4344 0.9762
-5.1928 2.4804 -1.4145 0.9766
-5.4059 2.0132 -1.4179 0.9765
-3.8036 1.0419 -0.9694 0.9839
-3.0843 0.5556 -0.7703 0.9872
-2.8744 -0.0000 -0.7574 0.9882
-2.9343 -0.2622 -0.7763 0.9879
-5.9842 -1.6392 -1.6349 0.9747
-5.9286 -2.8318 -1.7313 0.9732
-3.9575 -9.0510 -2.6029 0.9600
-3.3667 -10.0557 -2.7942 0.9571
-2.6517 -11.1268 -3.0140 0.9538
-0.1332 -2.3889 -0.6304 0.9902
0.0750 -2.2419 -0.5911 0.9908
0.2642 -2.1455 -0.5696 0.9911
0.4476 -2.0830 -0.5614 0.9912
0.6305 -2.0327 -0.5608 0.9912
10.6343 8.7895 -3.6354 0.9445
9.0154 8.9156 -3.3410 0.9489
7.5554 8.9366 -3.0836 0.9527
5.8573 8.3321 -2.6837 0.9587
3.7332 8.0448 -2.3369 0.9640
1.9915 7.6017 -2.0706 0.9680
1.2402 7.3523 -1.9647 0.9696
0.5524 7.0697 -1.8685 0.9711
-0.6494 6.4555 -1.7096 0.9735
-1.7417 6.0910 -1.6693 0.9741
-2.2387 5.8126 -1.6413 0.9746
-2.6738 5.4412 -1.5975 0.9752
-3.4435 4.6736 -1.5297 0.9763
-4.0953 3.8733 -1.4853 0.9770
-4.3816 3.4602 -1.4711 0.9772
-5.0975 2.1616 -1.4590 0.9774
-3.2212 0.7298 -0.8703 0.9864
-2.8515 0.1271 -0.7521 0.9883
-2.9836 -0.4013 -0.7933 0.9876
-3.0953 -0.7013 -0.8363 0.9870
-5.9852 -2.5379 -1.7130 0.9735
-5.8824 -3.1389 -1.7569 0.9728
-5.5085 -5.2099 -1.9979 0.9691
-5.0045 -6.7922 -2.2231 0.9657
-4.6500 -7.6549 -2.3600 0.9636
-4.2120 -8.5712 -2.5165 0.9613
-3.0257 -10.5815 -2.9000 0.9555
-0.2497 -2.4820 -0.6573 0.9897
-0.0257 -2.3044 -0.6072 0.9905
0.1713 -2.1927 -0.5795 0.9909
0.5391 -2.0577 -0.5605 0.9912
1.4981 -2.1312 -0.6864 0.9893
2.3958 7.7235 -2.1308 0.9671
1.2965 6.0332 -1.6261 0.9748
0.8884 7.2135 -1.9151 0.9704
-0.9180 6.2941 -1.6760 0.9740
-2.0072 5.9952 -1.6659 0.9742
-2.8783 5.2523 -1.5782 0.9755
-3.2628 4.8685 -1.5443 0.9760
-3.6168 4.4766 -1.5165 0.9765
-4.2416 3.6678 -1.4776 0.9771
-4.5156 3.2501 -1.4660 0.9772
-4.7656 2.8227 -1.4595 0.9773
-5.1969 1.9354 -1.4613 0.9773
-3.7365 1.0235 -1.0208 0.9841
-2.8279 0.0000 -0.7956 0.9883
-2.8819 -0.2575 -0.8141 0.9880
-5.3202 -4.6005 -1.9789 0.9712
-5.1236 -5.2978 -2.0736 0.9698
-4.1697 -7.6089 -2.4412 0.9646
-0.3873 -2.6553 -0.7550 0.9889
-0.1336 -2.3960 -0.6752 0.9901
0.4490 -2.0896 -0.6013 0.9912
1.0550 -2.0312 -0.6440 0.9905
1.3285 -2.0810 -0.6946 0.9898
1.7733 -2.2976 -0.8166 0.9880
9.6939 8.0122 -3.5385 0.9491
8.2775 8.1858 -3.2754 0.9528
6.9810 8.2572 -3.0422 0.9561
5.6955 8.1020 -2.7864 0.9597
1.8830 7.1874 -2.0905 0.9696
1.1742 6.9612 -1.9863 0.9711
-0.0717 6.4409 -1.8123 0.9736
-0.6192 6.1546 -1.7404 0.9746
-2.5645 5.2187 -1.6360 0.9761
-3.3084 4.4903 -1.5693 0.9771
-3.6371 4.1125 -1.5447 0.9774
-3.9391 3.7256 -1.5255 0.9777
-4.4691 2.9237 -1.5026 0.9781
-4.6991 2.5075 -1.4986 0.9781
-4.9065 2.0806 -1.4995 0.9781
-3.1370 0.7108 -0.9050 0.9867
-2.7751 0.3732 -0.7878 0.9884
-2.8062 0.1251 -0.7903 0.9884
-2.9298 -0.3940 -0.8317 0.9878
-3.0353 -0.6877 -0.8756 0.9872
-5.6198 -2.9988 -1.7922 0.9739
-5.3999 -4.2642 -1.9359 0.9718
-4.7229 -6.4100 -2.2402 0.9675
-0.2505 -2.4905 -0.7043 0.9897
0.1718 -2.1990 -0.6206 0.9909
0.3568 -2.1153 -0.6036 0.9911
0.5408 -2.0642 -0.6004 0.9912
0.7312 -2.0323 -0.6077 0.9911
0.9372 -2.0197 -0.6264 0.9908
1.1839 -2.0506 -0.6662 0.9902
1.5119 -2.1506 -0.7396 0.9891
7.6147 8.2330 -3.1553 0.9545
4.9231 7.7119 -2.5742 0.9627
3.9534 7.6116 -2.4132 0.9650
3.0680 7.4656 -2.2709 0.9670
0.8423 6.8388 -1.9387 0.9718
0.2199 6.5781 -1.8518 0.9730
-0.3513 6.2996 -1.7752 0.9741
-0.8760 6.0062 -1.7078 0.9751
-2.3589 5.3950 -1.6567 0.9758
-3.4762 4.3025 -1.5563 0.9773
-4.0807 3.5287 -1.5179 0.9778
-4.3456 3.1277 -1.5064 0.9780
-4.5869 2.7169 -1.5000 0.9781
-5.0019 1.8628 -1.5017 0.9781
-2.9229 0.5266 -0.8356 0.9877
-2.7884 0.2492 -0.7877 0.9884
-2.7824 0.0000 -0.8330 0.9884
-2.9224 -0.5265 -0.8890 0.9877
-5.4962 -2.0468 -1.7558 0.9758
-5.3270 -3.1552 -1.8535 0.9745
-5.2174 -3.7552 -1.9245 0.9735
-4.8677 -5.0332 -2.0963 0.9712
-4.6166 -5.7140 -2.1992 0.9698
-4.3056 -6.4245 -2.3154 0.9682
-3.4703 -7.9367 -2.5933 0.9645
-2.9257 -8.7385 -2.7589 0.9623
-2.2802 -9.5682 -2.9448 0.9598
-0.3921 -2.6882 -0.8133 0.9887
-0.1340 -2.4032 -0.7206 0.9900
0.0754 -2.2551 -0.6755 0.9906
0.2658 -2.1577 -0.6508 0.9910
0.4505 -2.0963 -0.6419 0.9911
1.0608 -2.0424 -0.6890 0.9904
11.6779 6.5699 -4.0114 0.9456
10.2450 7.0328 -3.7203 0.9494
4.1610 7.2070 -2.4914 0.9658
1.1144 6.6065 -2.0058 0.9724
-0.5913 5.8782 -1.7687 0.9756
-1.6189 5.6618 -1.7629 0.9757
-2.8371 4.6706 -1.6360 0.9774
-3.5007 3.9583 -1.5820 0.9782
-4.3059 2.8168 -1.5404 0.9787
-4.5279 2.4162 -1.5365 0.9788
-4.9055 1.5818 -1.5431 0.9787
-2.8066 -0.1252 -0.8411 0.9883
-3.1092 -1.0026 -0.9780 0.9865
-4.9731 -4.7035 -2.0493 0.9718
-3.7088 -7.5472 -2.5176 0.9655
-3.2098 -8.3339 -2.6737 0.9634
-0.2516 -2.5014 -0.7527 0.9896
-0.0258 -2.3177 -0.6939 0.9904
0.3580 -2.1221 -0.6443 0.9911
0.7341 -2.0404 -0.6492 0.9910
0.9411 -2.0279 -0.6693 0.9907
1.5259 -2.1707 -0.7944 0.9890
12.4242 6.2783 -4.1675 0.9435
8.2612 7.4718 -3.3348 0.9546
3.7127 7.1482 -2.4114 0.9669
1.2984 6.0422 -1.8502 0.9745
0.8003 6.4982 -1.9601 0.9730
0.2095 6.2644 -1.8765 0.9742
-0.8462 5.8018 -1.7553 0.9758
-1.3862 5.8167 -1.7902 0.9753
-3.0133 4.4962 -1.6204 0.9777
-3.3448 4.1400 -1.5934 0.9780
-3.6500 3.7741 -1.5719 0.9783
-3.9302 3.3986 -1.5555 0.9785
-4.6306 2.2119 -1.5363 0.9788
-4.8194 1.7948 -1.5396 0.9788
-3.5598 0.9751 -1.1050 0.9847
-2.7412 0.2450 -0.8239 0.9886
-2.7380 0.0000 -0.8695 0.9886
-2.7827 -0.2487 -0.8873 0.9883
-2.8694 -0.5170 -0.9259 0.9878
-5.0995 -3.0204 -1.8823 0.9754
-4.9864 -3.5890 -1.9512 0.9745
-4.8328 -4.1791 -2.0291 0.9735
-4.3845 -5.4268 -2.2157 0.9711
-3.7084 -6.7670 -2.4506 0.9681
-3.2664 -7.4705 -2.5894 0.9664
-2.7433 -8.1940 -2.7443 0.9644
-2.1292 -8.9345 -2.9169 0.9622
0.0756 -2.2618 -0.7187 0.9905
0.2665 -2.1639 -0.6924 0.9909
0.4519 -2.1031 -0.6831 0.9910
0.8394 -2.0424 -0.7013 0.9908
1.3520 -2.1179 -0.7980 0.9895
13.2695 4.6077 -4.4610 0.9428
11.9489 5.3839 -4.1622 0.9465
10.6546 5.9942 -3.8825 0.9500
6.0481 7.1538 -2.9751 0.9614
5.0680 7.2092 -2.7987 0.9637
4.1506 7.1891 -2.6364 0.9658
2.3719 6.5928 -2.2251 0.9710
1.0598 6.2830 -2.0236 0.9736
-0.0653 5.8632 -1.8622 0.9757
-0.5764 5.7299 -1.8289 0.9761
-1.9765 5.1319 -1.7465 0.9772
-2.7302 4.4946 -1.6701 0.9782
-3.0646 4.1593 -1.6408 0.9786
-3.3729 3.8138 -1.6169 0.9789
-3.6563 3.4581 -1.5983 0.9791
-3.9160 3.0925 -1.5847 0.9793
-4.1528 2.7166 -1.5760 0.9794
-2.9791 0.6750 -0.9701 0.9873
-2.6672 0.3587 -0.8547 0.9888
-2.7612 -0.1231 -0.8778 0.9885
-2.9205 -0.6617 -0.9510 0.9875
-3.0156 -7.8299 -2.6647 0.9654
-1.7844 -9.3092 -3.0103 0.9610
-0.2546 -2.5307 -0.8078 0.9894
-0.0259 -2.3245 -0.7383 0.9903
0.3591 -2.1290 -0.6857 0.9910
0.5443 -2.0775 -0.6821 0.9910
1.1977 -2.0745 -0.7607 0.9900
12.6075 5.0177 -4.3094 0.9446
10.0240 6.2430 -3.7504 0.9516
8.8052 6.6403 -3.5024 0.9548
4.6037 7.2116 -2.7172 0.9647
3.5519 6.8386 -2.4473 0.9682
0.7620 6.1869 -1.9797 0.9742
-0.3204 5.7459 -1.8276 0.9761
-0.8439 5.7862 -1.8570 0.9758
-1.3292 5.5777 -1.8210 0.9762
-2.1761 4.9769 -1.7251 0.9775
-3.7890 3.2766 -1.5909 0.9792
-4.0372 2.9058 -1.5797 0.9793
-2.7749 0.4999 -0.8954 0.9882
-2.6945 0.0000 -0.9053 0.9887
-2.7374 -0.2446 -0.9234 0.9885
-2.8177 -0.5076 -0.9619 0.9880
-5.0678 -1.8873 -1.8169 0.9774
-4.8909 -2.8969 -1.9099 0.9763
-4.6179 -3.9933 -2.0512 0.9746
-3.5111 -6.4070 -2.4547 0.9696
-1.9956 -8.3739 -2.8923 0.9643
-0.4022 -2.7574 -0.9363 0.9883
0.0759 -2.2686 -0.7626 0.9905
0.4534 -2.1100 -0.7251 0.9909
0.8428 -2.0509 -0.7450 0.9907
1.0729 -2.0658 -0.7821 0.9902
12.0439 4.1821 -4.2835 0.9476
8.6889 5.9646 -3.5409 0.9565
7.6299 6.3063 -3.3258 0.9591
4.7638 6.7766 -2.7831 0.9656
3.0301 6.5297 -2.4186 0.9701
2.2538 6.2644 -2.2368 0.9723
1.0098 5.9868 -2.0399 0.9747
-0.0629 5.6496 -1.8983 0.9764
-1.4923 5.2188 -1.8237 0.9774
-1.9008 4.9353 -1.7769 0.9779
-3.2529 3.6782 -1.6497 0.9795
-3.5277 3.3365 -1.6314 0.9797
-3.7794 2.9846 -1.6180 0.9799
-4.4019 1.8666 -1.6064 0.9800
-4.5664 1.4724 -1.6120 0.9800
-2.6180 0.3521 -0.8875 0.9889
-2.6762 0.1193 -0.9001 0.9888
-2.7751 -0.3732 -0.9408 0.9883
-2.8653 -0.6492 -0.9871 0.9877
-5.0795 -1.6379 -1.7932 0.9777
-4.9441 -2.6382 -1.8828 0.9766
-4.8354 -3.1631 -1.9414 0.9759
-4.7006 -3.7120 -2.0124 0.9750
-4.5244 -4.2792 -2.0923 0.9741
-4.3024 -4.8648 -2.1820 0.9730
-3.6994 -6.0901 -2.3941 0.9704
-2.2992 -8.0406 -2.8098 0.9653
-1.6691 -8.7077 -2.9789 0.9633
-0.0260 -2.3352 -0.7846 0.9902
0.1734 -2.2184 -0.7476 0.9907
0.5461 -2.0843 -0.7239 0.9909
0.7400 -2.0570 -0.7345 0.9908
0.9497 -2.0465 -0.7580 0.9905
1.2048 -2.0868 -0.8096 0.9899
1.5572 -2.2151 -0.9097 0.9886
13.6899 2.7826 -4.6936 0.9428
12.6035 3.7562 -4.4186 0.9460
9.2341 5.7511 -3.6550 0.9551
8.1538 6.1490 -3.4312 0.9578
6.1349 6.6330 -3.0356 0.9626
5.2067 6.7466 -2.8633 0.9647
1.9233 6.2001 -2.1810 0.9730
1.3034 6.0656 -2.0844 0.9742
0.7268 5.9012 -1.9977 0.9752
-0.3165 5.6754 -1.9098 0.9763
-0.8191 5.6163 -1.9069 0.9763
-1.7004 5.0788 -1.7995 0.9777
-2.0938 4.7885 -1.7559 0.9782
-3.1066 3.8450 -1.6608 0.9794
-3.8968 2.8047 -1.6131 0.9799
-4.3117 2.0595 -1.6054 0.9800
-4.4868 1.6709 -1.6086 0.9800
-2.7169 0.4895 -0.9275 0.9884
-2.6519 0.0000 -0.9403 0.9888
-2.6931 -0.2407 -0.9588 0.9886
-2.8417 -0.7784 -1.0448 0.9876
-4.8747 -1.8153 -1.8445 0.9782
-4.6963 -2.7816 -1.9354 0.9771
-4.4193 -3.8215 -2.0716 0.9755
-4.2218 -4.3653 -2.1534 0.9746
-3.9781 -4.9237 -2.2445 0.9735
-3.6833 -5.4958 -2.3459 0.9723
-2.4352 -7.2735 -2.7198 0.9680
0.0763 -2.2818 -0.8096 0.9904
0.4549 -2.1170 -0.7678 0.9909
0.8464 -2.0596 -0.7896 0.9906
1.0792 -2.0779 -0.8302 0.9901
11.0151 3.8249 -4.1346 0.9517
9.0438 5.0879 -3.6794 0.9569
7.1141 5.8800 -3.2727 0.9616
5.3218 6.2946 -2.9228 0.9656
4.4913 6.3890 -2.7692 0.9674
3.7073 6.4213 -2.6291 0.9690
2.9700 6.4003 -2.5019 0.9705
1.5317 5.8466 -2.1431 0.9747
0.9640 5.7152 -2.0552 0.9757
-0.0628 5.6376 -1.9991 0.9764
-0.5541 5.5076 -1.9628 0.9768
-1.0106 5.2720 -1.9034 0.9775
-1.4352 5.0193 -1.8511 0.9781
-2.5359 4.1747 -1.7320 0.9795
-3.1400 3.5504 -1.6806 0.9801
-3.4065 3.2219 -1.6626 0.9803
-3.6506 2.8829 -1.6494 0.9805
-3.8728 2.5335 -1.6410 0.9806
-4.0735 2.1737 -1.6372 0.9806
-4.2530 1.8034 -1.6380 0.9806
-4.4113 1.4225 -1.6435 0.9805
-2.5615 0.5804 -0.9313 0.9889
-2.5748 0.3463 -0.9212 0.9890
-2.6346 0.1175 -0.9351 0.9889
-2.8709 -0.9257 -1.0696 0.9873
-4.8535 -2.0581 -1.8693 0.9779
-4.7517 -2.5355 -1.9097 0.9774
-4.5021 -3.5552 -2.0341 0.9759
-4.3260 -4.0915 -2.1114 0.9750
-4.1060 -4.6427 -2.1977 0.9740
-3.5150 -5.7865 -2.4007 0.9717
-2.6856 -6.9730 -2.6496 0.9688
-2.1658 -7.5742 -2.7934 0.9671
-1.5667 -8.1736 -2.9510 0.9653
-0.0262 -2.3566 -0.8357 0.9900
0.5479 -2.0912 -0.7666 0.9909
1.2121 -2.0995 -0.8596 0.9898
1.5841 -2.2534 -0.9767 0.9884
13.2622 1.4836 -4.7319 0.9449
12.4190 2.5243 -4.4937 0.9476
11.4960 3.4262 -4.2535 0.9504
10.5265 4.1895 -4.0173 0.9531
9.5380 4.8198 -3.7893 0.9557
8.5525 5.3265 -3.5727 0.9581
7.5862 5.7211 -3.3691 0.9605
6.6508 6.0153 -3.1798 0.9627
4.9008 6.3501 -2.8442 0.9665
4.0935 6.4123 -2.6975 0.9682
1.8335 5.9106 -2.1943 0.9741
1.2430 5.7846 -2.0979 0.9752
0.6963 5.6535 -2.0198 0.9761
0.1882 5.6276 -1.9966 0.9764
-0.3133 5.6184 -1.9953 0.9764
-0.7864 5.3921 -1.9322 0.9771
-2.0166 4.6119 -1.7848 0.9789
-2.3693 4.3236 -1.7482 0.9793
-2.6961 4.0229 -1.7172 0.9797
-2.9980 3.7107 -1.6915 0.9800
-3.2761 3.3875 -1.6710 0.9802
-2.5828 0.7075 -0.9496 0.9887
-2.6624 0.4796 -0.9592 0.9886
-2.7171 -0.4895 -1.0309 0.9883
-2.7878 -0.7637 -1.0793 0.9877
-4.3904 -3.1600 -2.0199 0.9772
-3.7989 -4.7020 -2.2572 0.9745
-3.5102 -5.2376 -2.3544 0.9734
-3.1682 -5.7812 -2.4617 0.9722
-2.7678 -6.3301 -2.5798 0.9709
-2.3035 -6.8803 -2.7093 0.9695
-1.7699 -7.4266 -2.8508 0.9679
-0.1384 -2.4828 -0.9286 0.9894
0.8500 -2.0684 -0.8350 0.9905
1.0856 -2.0902 -0.8795 0.9900
10.1652 -9.1939 -5.1180 0.9432
11.1910 -8.4395 -5.2339 0.9419
13.4639 -4.0127 -5.2461 0.9418
13.3005 -1.4879 -4.9975 0.9445
12.3867 0.8292 -4.6357 0.9484
11.7224 1.8433 -4.4310 0.9506
10.9630 2.7421 -4.2198 0.9529
9.2764 4.1798 -3.7993 0.9575
6.6586 5.5034 -3.2257 0.9638
5.0154 5.9322 -2.9007 0.9674
2.8224 6.0822 -2.5038 0.9718
0.9561 5.6684 -2.1465 0.9758
-0.0612 5.4910 -2.0505 0.9768
-0.5322 5.2906 -1.9855 0.9776
-1.3818 4.8323 -1.8767 0.9788
-1.7633 4.5785 -1.8321 0.9793
-2.1181 4.3102 -1.7933 0.9797
-3.2921 3.1137 -1.6921 0.9808
-3.5289 2.7868 -1.6791 0.9810
-3.7443 2.4495 -1.6708 0.9811
-2.5436 0.5763 -0.9739 0.9889
-2.5325 0.3406 -0.9542 0.9891
-2.6307 -0.1173 -0.9833 0.9888
-2.6781 -0.3602 -1.0090 0.9885
-2.7556 -0.6243 -1.0551 0.9880
-2.8043 -0.9043 -1.1002 0.9875
-4.6710 -1.9807 -1.8945 0.9786
-4.4541 -2.9137 -1.9875 0.9775
-4.3175 -3.4095 -2.0543 0.9768
-3.9248 -4.4378 -2.2122 0.9750
-3.6609 -4.9686 -2.3046 0.9740
-3.3462 -5.5086 -2.4067 0.9729
-2.9756 -6.0552 -2.5194 0.9716
-2.5440 -6.6053 -2.6431 0.9702
-1.4753 -7.6963 -2.9262 0.9671
-0.2641 -2.6249 -0.9851 0.9888
-0.0265 -2.3786 -0.8883 0.9899
0.3627 -2.1505 -0.8144 0.9907
0.7462 -2.0743 -0.8231 0.9906
0.9606 -2.0700 -0.8521 0.9903
8.4362 -9.9784 -4.8792 0.9457
9.6081 -9.5016 -5.0458 0.9439
13.5036 -3.3775 -5.1977 0.9423
13.4196 -2.1101 -5.0726 0.9436
12.0684 1.3501 -4.5346 0.9495
11.3526 2.3075 -4.3259 0.9517
10.5573 3.1464 -4.1135 0.9541
7.9582 4.9564 -3.5009 0.9608
4.6257 5.9938 -2.8272 0.9682
3.8750 6.0700 -2.6891 0.9697
3.1633 6.0905 -2.5627 0.9711
2.4914 6.0626 -2.4475 0.9724
1.8283 5.8939 -2.3043 0.9740
1.2287 5.7179 -2.1839 0.9753
0.1867 5.5829 -2.0859 0.9764
-0.3007 5.3934 -2.0171 0.9772
-0.7558 5.1828 -1.9558 0.9779
-1.5760 4.7072 -1.8536 0.9790
-1.9440 4.4461 -1.8120 0.9795
-2.2858 4.1711 -1.7761 0.9799
-2.6027 3.8835 -1.7457 0.9802
-3.6393 2.6194 -1.6743 0.9810
-4.0280 1.9240 -1.6669 0.9811
-4.1911 1.5608 -1.6700 0.9811
-3.4441 0.9434 -1.3334 0.9849
-2.6096 0.4701 -0.9901 0.9887
-2.5629 0.2290 -0.9608 0.9891
-2.5691 -0.0000 -1.0083 0.9890
-2.6073 -0.2330 -1.0273 0.9888
-2.6685 -0.4808 -1.0642 0.9884
-2.7221 -0.7457 -1.1077 0.9879
-2.7583 -1.0272 -1.1552 0.9874
-4.3438 -2.5729 -1.9814 0.9785
-4.0633 -3.5137 -2.1083 0.9772
-3.0181 -5.5073 -2.4648 0.9734
-2.6307 -6.0165 -2.5772 0.9722
-2.1840 -6.5232 -2.6999 0.9709
-1.6735 -7.0222 -2.8332 0.9695
-0.1398 -2.5076 -0.9857 0.9893
0.0776 -2.3212 -0.9115 0.9901
0.4589 -2.1357 -0.8573 0.9907
0.6481 -2.0891 -0.8585 0.9906
1.0922 -2.1029 -0.9300 0.9899
1.4069 -2.2038 -1.0262 0.9888
7.1409 -9.2528 -4.5872 0.9510
9.2119 -8.3316 -4.8748 0.9480
10.8973 -6.7869 -5.0385 0.9463
11.5095 -5.8160 -5.0611 0.9461
12.2253 -2.4849 -4.8962 0.9478
12.0865 -1.3521 -4.7732 0.9491
11.7807 -0.2625 -4.6247 0.9506
11.3310 0.7585 -4.4570 0.9524
10.1059 2.5277 -4.0884 0.9562
7.0388 4.8319 -3.3508 0.9640
5.4842 5.4234 -3.0271 0.9674
4.7391 5.6054 -2.8808 0.9690
3.3381 5.7818 -2.6202 0.9717
2.6872 5.7908 -2.5055 0.9729
1.4885 5.6817 -2.3052 0.9751
0.9402 5.5741 -2.2186 0.9760
-0.5118 5.0875 -2.0068 0.9783
-0.9356 4.8811 -1.9506 0.9789
-1.3315 4.6566 -1.9008 0.9794
-1.7007 4.4159 -1.8572 0.9799
-2.3637 3.8912 -1.7868 0.9806
-2.9326 3.3160 -1.7374 0.9812
-3.1838 3.0113 -1.7199 0.9813
-3.6227 2.3699 -1.6990 0.9816
-3.8110 2.0336 -1.6953 0.9816
-3.9788 1.6871 -1.6961 0.9816
-4.1260 1.3305 -1.7014 0.9815
-2.5568 0.5793 -1.0289 0.9888
-2.5490 0.1137 -1.0014 0.9891
-2.6312 -0.3539 -1.0420 0.9887
-2.7054 -0.6130 -1.0887 0.9882
-2.7236 -0.8782 -1.1231 0.9878
-4.4997 -1.9080 -1.9182 0.9792
-3.9715 -3.7561 -2.1454 0.9768
-3.7569 -4.2479 -2.2257 0.9759
-3.1910 -5.2531 -2.4123 0.9739
-1.9370 -6.7740 -2.7652 0.9702
-0.0268 -2.4013 -0.9425 0.9897
0.1767 -2.2610 -0.8901 0.9903
0.3654 -2.1664 -0.8623 0.9906
0.7495 -2.0831 -0.8689 0.9905
0.9662 -2.0821 -0.9009 0.9902
8.7185 -8.6219 -4.8124 0.9487
9.6819 -8.0023 -4.9298 0.9475
11.2249 -6.3150 -5.0548 0.9462
12.0846 -4.1962 -5.0207 0.9465
12.2263 -3.0580 -4.9463 0.9473
12.1780 -1.9149 -4.8382 0.9484
11.9531 -0.8001 -4.7017 0.9498
11.0604 1.2373 -4.3680 0.9533
10.4445 2.1229 -4.1830 0.9552
9.7511 2.9061 -3.9934 0.9572
9.0046 3.5838 -3.8036 0.9592
8.2266 4.1571 -3.6175 0.9612
5.1083 5.5230 -2.9526 0.9682
3.0084 5.7922 -2.5616 0.9723
2.3746 5.7784 -2.4519 0.9735
1.7754 5.7232 -2.3518 0.9746
1.2102 5.6319 -2.2608 0.9756
0.6785 5.5089 -2.1784 0.9764
0.1791 5.3583 -2.1041 0.9772
-0.7273 4.9867 -1.9778 0.9786
-1.1370 4.7710 -1.9249 0.9791
-1.5194 4.5382 -1.8783 0.9796
-2.2070 4.0274 -1.8024 0.9805
-2.5144 3.7518 -1.7726 0.9808
-3.5208 2.5341 -1.7025 0.9815
-4.0550 1.5101 -1.6982 0.9816
-3.4629 0.9486 -1.4092 0.9847
-2.5634 0.4618 -1.0222 0.9889
-2.6210 -0.4722 -1.0967 0.9885
-4.3061 -2.0568 -1.9651 0.9796
-3.9031 -3.3751 -2.1248 0.9779
-3.7115 -3.8377 -2.1985 0.9772
-3.2035 -4.7799 -2.3694 0.9754
-2.8799 -5.2551 -2.4676 0.9744
-2.0749 -6.1974 -2.6912 0.9721
-1.5860 -6.6550 -2.8172 0.9708
-1.0348 -7.0954 -2.9527 0.9695
-0.1413 -2.5333 -1.0448 0.9891
0.0783 -2.3418 -0.9649 0.9899
0.4629 -2.1541 -0.9073 0.9905
1.1038 -2.1253 -0.9861 0.9897
1.4351 -2.2481 -1.0983 0.9885
6.5549 -8.4934 -4.4179 0.9546
8.4132 -7.6093 -4.6712 0.9521
9.2295 -6.9603 -4.7601 0.9512
9.9282 -6.1833 -4.8163 0.9507
10.4817 -5.2966 -4.8359 0.9505
10.8778 -4.3293 -4.8210 0.9506
11.1661 -2.2696 -4.6920 0.9519
10.8119 -0.2409 -4.4533 0.9543
10.4304 0.6983 -4.3046 0.9558
9.3642 2.3421 -3.9748 0.9591
8.0404 3.6229 -3.6315 0.9626
7.3306 4.1242 -3.4635 0.9643
4.4885 5.3091 -2.8628 0.9704
3.1768 5.5025 -2.6163 0.9729
1.9787 5.4998 -2.4068 0.9750
1.4249 5.4389 -2.3152 0.9760
0.9015 5.3444 -2.2318 0.9768
0.4079 5.2204 -2.1562 0.9776
-0.4926 4.8971 -2.0267 0.9789
-1.2842 4.4912 -1.9235 0.9800
-1.9748 4.0187 -1.8438 0.9808
-2.2846 3.7610 -1.8120 0.9811
-2.8371 3.2080 -1.7635 0.9816
-3.0812 2.9142 -1.7464 0.9818
-3.3044 2.6095 -1.7338 0.9820
-2.4504 0.3295 -1.0181 0.9894
-2.5479 -0.1136 -1.0502 0.9890
-2.5854 -0.3477 -1.0742 0.9888
-2.6464 -0.8534 -1.1450 0.9880
-4.3384 -1.8396 -1.9405 0.9798
-4.2492 -2.2674 -1.9833 0.9794
-3.9846 -3.1466 -2.0907 0.9783
-3.8122 -3.6055 -2.1607 0.9776
-3.6008 -4.0715 -2.2382 0.9768
-3.0479 -5.0174 -2.4174 0.9749
-2.6991 -5.4924 -2.5200 0.9739
-0.2743 -2.7263 -1.1283 0.9882
0.1782 -2.2806 -0.9420 0.9902
0.3686 -2.1853 -0.9126 0.9905
0.9754 -2.1019 -0.9542 0.9900
1.2492 -2.1637 -1.0288 0.9893
7.9712 -7.8829 -4.6164 0.9527
9.5965 -6.5876 -4.7931 0.9509
10.2237 -5.7518 -4.8304 0.9505
11.1343 -1.7508 -4.6412 0.9524
10.9552 -0.7333 -4.5212 0.9536
10.6361 0.2371 -4.3808 0.9550
10.1975 1.1408 -4.2253 0.9566
9.6615 1.9638 -4.0598 0.9582
3.4947 5.4744 -2.6744 0.9723
2.8662 5.5183 -2.5606 0.9735
1.6980 5.4738 -2.3599 0.9755
1.1594 5.3955 -2.2725 0.9764
0.6510 5.2858 -2.1930 0.9772
0.1721 5.1484 -2.1212 0.9780
-0.7004 4.8027 -1.9986 0.9792
-1.4660 4.3788 -1.9015 0.9802
-1.8112 4.1424 -1.8617 0.9806
-2.7072 3.3507 -1.7738 0.9815
-2.9618 3.0625 -1.7543 0.9817
-3.1954 2.7632 -1.7395 0.9819
-3.6010 2.1329 -1.7234 0.9821
-3.7735 1.8025 -1.7220 0.9821
-3.9258 1.4620 -1.7250 0.9820
-2.5181 0.4537 -1.0536 0.9890
-2.4893 -0.0000 -1.0738 0.9892
-2.5221 -0.2254 -1.0923 0.9890
-2.5507 -0.6987 -1.1408 0.9885
-2.5688 -0.9566 -1.1824 0.9881
-4.1533 -1.9838 -1.9854 0.9801
-4.0328 -2.3886 -2.0219 0.9798
-3.9059 -2.8112 -2.0759 0.9793
-3.7530 -3.2454 -2.1402 0.9786
-3.3364 -4.1295 -2.2900 0.9771
-2.3892 -5.4643 -2.5725 0.9744
-1.5061 -6.3200 -2.8025 0.9721
0.4670 -2.1732 -0.9588 0.9904
0.6601 -2.1280 -0.9611 0.9903
0.8688 -2.1141 -0.9859 0.9901
1.1186 -2.1537 -1.0468 0.9895
1.4693 -2.3016 -1.1778 0.9882
6.0517 -7.8413 -4.2726 0.9578
7.7335 -6.9945 -4.4979 0.9556
8.4708 -6.3881 -4.5765 0.9548
9.6116 -4.8569 -4.6453 0.9542
9.9774 -3.9709 -4.6322 0.9543
10.1956 -3.0386 -4.5891 0.9547
10.2645 -2.0864 -4.5182 0.9554
10.1890 -1.1398 -4.4225 0.9563
9.2247 1.4505 -4.0280 0.9601
8.1444 2.8281 -3.7189 0.9631
6.8843 3.8730 -3.4073 0.9662
6.2250 4.2733 -3.2570 0.9676
4.9049 4.8506 -2.9756 0.9704
4.2602 5.0391 -2.8463 0.9717
3.6335 5.1687 -2.7253 0.9729
3.0285 5.2456 -2.6127 0.9740
1.8933 5.2627 -2.4125 0.9759
0.3921 5.0179 -2.1711 0.9783
-0.4746 4.7181 -2.0455 0.9796
-0.8695 4.5359 -1.9922 0.9801
-1.2396 4.3351 -1.9449 0.9805
-1.9089 3.8846 -1.8670 0.9813
-2.2096 3.6376 -1.8359 0.9816
-3.2006 2.5275 -1.7592 0.9824
-3.7318 1.5825 -1.7485 0.9825
-2.4106 0.3242 -1.0492 0.9895
-2.4654 0.1099 -1.0645 0.9893
-2.5665 -0.8276 -1.1632 0.9883
-4.1016 -2.1887 -2.0054 0.9800
-2.9152 -4.7991 -2.4222 0.9758
