ply
format ascii 1.0
element vertex 1588
property float32 x
property float32 y
property float32 z
property float32 I
end_header
-10.0703 -5.9646 -1.2695 0.9540
-10.2120 -7.3501 -1.3647 0.9506
3.1772 -1.2645 -0.3709 0.9863
3.2774 -0.9768 -0.3709 0.9863
3.4373 -0.6987 -0.3805 0.9860
1.0326 13.2143 -1.4377 0.9481
-3.3990 8.8253 -1.0258 0.9627
-3.9859 8.1111 -0.9803 0.9643
-5.3203 7.2208 -0.9728 0.9646
-6.6161 5.2247 -0.9144 0.9666
-7.6508 3.2442 -0.9014 0.9671
-7.9531 2.5646 -0.9064 0.9669
-3.7330 0.1665 -0.4053 0.9851
-9.2254 -1.2407 -1.0096 0.9632
-9.4382 -2.1384 -1.0497 0.9618
-9.8225 -4.1650 -1.1572 0.9580
-9.9920 -5.3319 -1.2284 0.9555
-10.1438 -6.6357 -1.3148 0.9524
-10.3789 -9.8163 -1.5495 0.9441
3.1512 -1.4199 -0.3749 0.9862
3.2274 -1.1207 -0.3706 0.9863
3.3550 -0.8391 -0.3751 0.9862
3.5532 -0.5587 -0.3901 0.9856
3.8867 -0.2602 -0.4225 0.9844
1.6981 13.7873 -1.5068 0.9456
-1.5738 10.7907 -1.1828 0.9571
-3.0793 9.1973 -1.0520 0.9617
-3.7006 8.4636 -1.0019 0.9635
-4.2562 7.7666 -0.9606 0.9650
-5.0699 7.5648 -0.9878 0.9640
-5.5595 6.8811 -0.9595 0.9650
-6.0080 6.2123 -0.9374 0.9658
-6.4212 5.5527 -0.9208 0.9664
-6.8038 4.8971 -0.9093 0.9668
-7.1598 4.2407 -0.9026 0.9671
-7.8043 2.9064 -0.9033 0.9670
-8.0975 2.2182 -0.9107 0.9668
-3.7414 0.3343 -0.4074 0.9850
-3.5692 0.0000 -0.4473 0.9857
-8.7841 -1.5825 -1.1185 0.9647
-8.9554 -2.4531 -1.1636 0.9633
-9.3487 -5.5372 -1.3616 0.9571
-9.4768 -8.1949 -1.5700 0.9507
-9.2247 -11.4174 -1.8394 0.9425
3.1240 -1.9456 -0.4612 0.9853
3.2613 -0.9720 -0.4265 0.9864
3.6616 -0.4096 -0.4617 0.9853
-1.0469 10.4065 -1.3107 0.9587
-2.5598 8.9521 -1.1668 0.9632
-3.7472 7.6252 -1.0647 0.9663
-6.2676 4.9495 -1.0008 0.9683
-6.6205 4.3310 -0.9914 0.9686
-7.2533 3.0757 -0.9873 0.9687
-7.5377 2.4306 -0.9925 0.9686
-4.3832 0.9931 -0.5632 0.9820
-3.5494 0.4774 -0.4488 0.9857
-3.5348 0.1576 -0.4434 0.9858
-9.0341 -2.9131 -1.1895 0.9625
-9.1768 -3.8913 -1.2491 0.9606
-9.2976 -4.9613 -1.3206 0.9584
-9.4578 -7.4687 -1.5102 0.9526
-9.2786 -10.4915 -1.7552 0.9451
3.1140 -1.7519 -0.4477 0.9857
3.3379 -0.8348 -0.4312 0.9862
1.5476 12.5655 -1.5866 0.9502
-0.6023 10.8018 -1.3557 0.9573
-2.2162 9.2997 -1.1980 0.9622
-3.4744 7.9461 -1.0868 0.9656
-5.6841 5.8773 -1.0246 0.9676
-6.4474 4.6406 -0.9955 0.9685
-7.1035 3.3931 -0.9865 0.9688
-7.3980 2.7551 -0.9893 0.9687
-7.6727 2.1018 -0.9969 0.9684
-3.3944 0.0000 -0.4828 0.9864
-3.5139 -0.3140 -0.5018 0.9858
-8.4366 -2.3110 -1.2442 0.9653
-8.7211 -5.1655 -1.4417 0.9599
-8.7559 -6.3020 -1.5344 0.9573
-8.7508 -7.5670 -1.6455 0.9543
-8.6376 -8.9312 -1.7673 0.9510
-8.4015 -10.3987 -1.9015 0.9474
-8.1978 -12.2319 -2.0944 0.9422
3.2842 -2.4767 -0.5851 0.9835
3.1068 -1.9349 -0.5206 0.9853
3.1461 -1.2521 -0.4816 0.9864
3.4017 -0.6914 -0.4937 0.9861
3.6401 -0.4072 -0.5210 0.9853
4.1205 -0.0918 -0.5862 0.9835
4.9687 13.8108 -2.0877 0.9424
3.3592 12.8220 -1.8853 0.9479
1.2800 7.5884 -1.0946 0.9694
0.8707 11.1428 -1.5897 0.9558
-0.1158 10.3941 -1.4785 0.9589
-0.9752 9.6939 -1.3858 0.9614
-1.7314 9.0327 -1.3082 0.9635
-4.2832 7.0512 -1.1735 0.9672
-5.1892 5.8676 -1.1141 0.9688
-5.5867 5.2838 -1.0937 0.9694
-5.9528 4.7009 -1.0789 0.9698
-6.8936 2.9232 -1.0650 0.9702
-7.1620 2.3095 -1.0704 0.9701
-3.3610 0.1499 -0.4785 0.9865
-3.4470 -0.1537 -0.4908 0.9862
-3.6292 -0.4881 -0.5209 0.9853
-8.3678 -1.8959 -1.2204 0.9659
-8.6086 -3.6503 -1.3300 0.9629
-8.7430 -5.7194 -1.4860 0.9587
-8.7588 -6.9167 -1.5874 0.9559
-8.4946 -9.6050 -1.8238 0.9495
-8.3108 -11.2795 -1.9928 0.9450
3.1633 -2.1715 -0.5457 0.9846
3.1201 -1.4058 -0.4868 0.9863
3.3208 -0.8306 -0.4869 0.9863
3.5128 -0.5524 -0.5058 0.9857
4.1264 13.3021 -1.9810 0.9453
1.4212 11.5393 -1.6537 0.9541
-1.3650 9.3590 -1.3453 0.9625
-2.0766 8.7140 -1.2742 0.9645
-2.7080 8.0884 -1.2132 0.9661
-6.4504 3.8206 -1.0663 0.9702
-6.7515 3.2249 -1.0642 0.9702
-7.0304 2.6182 -1.0671 0.9701
-7.2887 1.9966 -1.0749 0.9699
-3.6716 0.6615 -0.5306 0.9850
-7.8535 -1.4148 -1.2707 0.9682
-8.1343 -3.8854 -1.4354 0.9641
-8.1702 -4.8392 -1.5121 0.9623
-8.1695 -5.8800 -1.6028 0.9601
-8.1253 -7.0262 -1.7105 0.9574
-8.0040 -8.2761 -1.8333 0.9544
-7.7103 -9.5431 -1.9536 0.9515
-7.1082 -12.9707 -2.3552 0.9419
3.2580 -2.4570 -0.6498 0.9836
3.1307 -1.2460 -0.5366 0.9864
3.2294 -0.9625 -0.5366 0.9864
4.0854 -0.0910 -0.6507 0.9836
3.0708 11.7213 -1.9294 0.9521
0.8070 10.3281 -1.6496 0.9589
-0.9125 9.0702 -1.4516 0.9637
-2.2606 7.9057 -1.3093 0.9672
-2.8300 7.3481 -1.2538 0.9686
-4.0603 6.6843 -1.2454 0.9688
-4.9322 5.5769 -1.1855 0.9703
-5.3147 5.0267 -1.1649 0.9708
-5.6668 4.4750 -1.1498 0.9712
-6.2905 3.3568 -1.1354 0.9715
-6.5665 2.7844 -1.1357 0.9715
-3.9744 0.9005 -0.6489 0.9836
-3.2600 0.1454 -0.5196 0.9869
-3.3344 -0.1487 -0.5315 0.9866
-8.1043 -3.4365 -1.4017 0.9650
-7.8291 -8.8525 -1.8818 0.9533
-7.2984 -12.0148 -2.2385 0.9447
3.1434 -2.1579 -0.6071 0.9847
3.0808 -1.7332 -0.5629 0.9858
3.1802 -1.1043 -0.5361 0.9865
3.3038 -0.8263 -0.5423 0.9863
3.4928 -0.5492 -0.5630 0.9858
3.8061 -0.2548 -0.6074 0.9847
5.3140 12.9308 -2.2261 0.9449
3.7558 12.1075 -2.0186 0.9500
2.4389 11.3497 -1.8485 0.9541
1.3134 10.6640 -1.7109 0.9574
-0.5227 9.3735 -1.4949 0.9627
-1.9520 8.1908 -1.3408 0.9665
-2.5529 7.6249 -1.2804 0.9680
-3.0933 7.0746 -1.2295 0.9692
-3.8167 6.9646 -1.2646 0.9683
-4.2930 6.4057 -1.2279 0.9692
-4.7284 5.8524 -1.1981 0.9700
-5.8323 4.1979 -1.1443 0.9713
-6.1439 3.6391 -1.1371 0.9715
-6.4313 3.0720 -1.1349 0.9715
-3.5501 0.6396 -0.5744 0.9855
-3.1939 0.0000 -0.5632 0.9871
-7.4555 -1.3431 -1.3358 0.9697
-7.6279 -2.8406 -1.4352 0.9675
-7.5806 -6.5551 -1.7671 0.9601
-7.4421 -7.6951 -1.8876 0.9575
-6.8424 -10.2096 -2.1671 0.9513
3.2381 -2.4420 -0.7151 0.9837
3.1191 -1.2413 -0.5919 0.9865
3.2187 -0.9593 -0.5922 0.9865
3.3741 -0.6858 -0.6071 0.9861
4.0769 -0.0908 -0.7190 0.9836
5.9794 12.8854 -2.5048 0.9439
2.8269 10.7901 -1.9668 0.9557
1.2762 7.5660 -1.3529 0.9693
0.7502 9.6013 -1.6981 0.9616
-0.1010 9.0614 -1.5979 0.9639
-1.5307 7.9858 -1.4337 0.9675
-2.1347 7.4656 -1.3691 0.9690
-3.8585 6.3520 -1.3105 0.9703
-5.4057 4.2688 -1.2145 0.9724
-6.2675 2.6577 -1.2004 0.9727
-6.5086 2.0987 -1.2058 0.9726
-3.8237 0.8664 -0.6913 0.9842
-7.5083 -1.7011 -1.3575 0.9692
-7.6537 -3.2454 -1.4659 0.9668
-7.2570 -8.2056 -1.9315 0.9565
-6.9932 -9.4913 -2.0788 0.9532
-6.2261 -12.6698 -2.4892 0.9443
3.1279 -2.1472 -0.6690 0.9847
3.1689 -1.1004 -0.5915 0.9865
3.2932 -0.8237 -0.5986 0.9863
4.8328 11.7599 -2.2418 0.9497
2.2526 10.4830 -1.8906 0.9574
1.2179 9.8891 -1.7569 0.9603
0.3122 9.3390 -1.6476 0.9628
-1.2033 8.2502 -1.4701 0.9667
-2.9476 6.7414 -1.2973 0.9706
-3.6242 6.6133 -1.3297 0.9698
-4.5018 5.5719 -1.2631 0.9713
-4.8864 5.0525 -1.2394 0.9719
-5.2398 4.5311 -1.2214 0.9723
-6.1386 2.9322 -1.1995 0.9727
-3.4371 0.6192 -0.6158 0.9859
-3.1509 0.2816 -0.5578 0.9872
-3.1015 0.0000 -0.6002 0.9874
-3.1775 -0.2839 -0.6174 0.9871
-7.1766 -1.9658 -1.4400 0.9701
-7.2318 -2.6931 -1.4934 0.9690
-7.1017 -6.1411 -1.8169 0.9625
-6.9512 -7.1874 -1.9350 0.9601
-6.6192 -8.1927 -2.0382 0.9580
-6.3160 -9.4241 -2.1954 0.9548
3.2351 -2.4397 -0.7841 0.9836
3.0714 -1.9129 -0.7002 0.9854
3.0641 -1.5484 -0.6644 0.9861
3.2134 -0.9577 -0.6489 0.9864
3.3682 -0.6846 -0.6651 0.9861
4.0683 -0.0906 -0.7875 0.9836
5.4578 11.7613 -2.5091 0.9485
2.6177 9.9917 -1.9988 0.9588
1.2766 7.5683 -1.4853 0.9692
-1.4459 7.5431 -1.4863 0.9692
-2.5466 6.6122 -1.3712 0.9715
-3.2132 6.5386 -1.4099 0.9708
-3.6747 6.0494 -1.3697 0.9716
-4.0970 5.5606 -1.3366 0.9723
-5.1663 4.0798 -1.2739 0.9735
-5.4662 3.5758 -1.2640 0.9737
-5.7413 3.0637 -1.2593 0.9738
-5.9929 2.5412 -1.2597 0.9738
-6.2223 2.0064 -1.2652 0.9737
-3.2339 -0.4349 -0.6315 0.9868
-7.2078 -2.3242 -1.4656 0.9696
-7.2482 -3.0735 -1.5236 0.9684
-7.0339 -6.6526 -1.8736 0.9613
-6.4755 -8.7886 -2.1126 0.9565
-5.6799 -11.5581 -2.4922 0.9489
3.0630 -1.7232 -0.6801 0.9858
3.2875 -0.8222 -0.6558 0.9863
3.4767 -0.5467 -0.6811 0.9858
3.7907 -0.2537 -0.7352 0.9846
6.2583 12.0494 -2.6275 0.9462
4.6669 11.3562 -2.3760 0.9512
3.1799 10.2510 -2.0770 0.9572
-1.1350 7.7819 -1.5218 0.9685
-3.8905 5.8051 -1.3523 0.9719
-5.0064 4.3293 -1.2808 0.9734
-5.3194 3.8287 -1.2683 0.9737
-5.8700 2.8039 -1.2589 0.9738
-6.1103 2.2755 -1.2618 0.9738
-4.1640 1.1406 -0.8355 0.9826
-3.3306 0.6000 -0.6549 0.9863
-3.0639 0.2738 -0.5953 0.9875
-3.0211 0.0000 -0.6369 0.9877
-3.0994 -0.2770 -0.6560 0.9874
-6.8727 -2.5594 -1.5461 0.9705
-6.7897 -4.8869 -1.7636 0.9664
-6.6772 -5.7740 -1.8610 0.9646
-6.1810 -7.6503 -2.0735 0.9606
-5.8621 -8.7469 -2.2198 0.9579
-5.4618 -9.9664 -2.3959 0.9546
-4.9482 -11.3167 -2.6039 0.9508
-4.2952 -12.8290 -2.8522 0.9462
3.0592 -1.5459 -0.7226 0.9861
3.2080 -0.9561 -0.7057 0.9864
3.5964 -0.4023 -0.7629 0.9853
4.0598 -0.0905 -0.8561 0.9835
0.6599 8.4456 -1.7859 0.9660
-0.0893 8.0124 -1.6893 0.9678
-1.3695 7.1444 -1.5336 0.9707
-1.9190 6.7112 -1.4716 0.9719
-3.9140 5.3121 -1.3910 0.9734
-5.4989 2.9344 -1.3140 0.9748
-5.9584 1.9214 -1.3198 0.9747
-3.5520 0.8048 -0.7678 0.9852
-3.0346 0.4081 -0.6455 0.9876
-2.9940 0.1335 -0.6318 0.9878
-6.8014 -1.5410 -1.4702 0.9719
-6.8814 -2.9179 -1.5758 0.9699
-6.8734 -3.6678 -1.6425 0.9687
-6.8281 -4.4667 -1.7201 0.9672
-6.7397 -5.3222 -1.8105 0.9655
-6.6011 -6.2433 -1.9155 0.9635
-5.6747 -9.3418 -2.3043 0.9563
-3.9032 -13.6501 -2.9931 0.9436
3.1194 -2.1414 -0.7977 0.9847
3.0585 -1.7206 -0.7398 0.9858
3.0828 -1.3890 -0.7128 0.9863
3.2817 -0.8208 -0.7132 0.9863
3.7831 -0.2532 -0.7993 0.9846
5.7313 11.0348 -2.6214 0.9504
-0.4347 7.7953 -1.6459 0.9686
-1.0736 7.3612 -1.5683 0.9700
-1.6510 6.9278 -1.5014 0.9713
-2.1833 6.5213 -1.4498 0.9723
-3.7147 5.5428 -1.4067 0.9731
-5.0934 3.6660 -1.3230 0.9747
-5.3698 3.1805 -1.3157 0.9748
-4.0001 1.0958 -0.8744 0.9832
-3.0430 -0.2719 -0.6973 0.9875
-3.1643 -0.5701 -0.7338 0.9869
-6.5453 -2.4375 -1.5942 0.9718
-6.5416 -3.1246 -1.6547 0.9707
-6.5024 -3.8514 -1.7249 0.9695
-6.1195 -6.3275 -2.0091 0.9645
-5.4665 -8.1566 -2.2411 0.9605
-5.0660 -9.2444 -2.4060 0.9577
-3.9295 -11.7367 -2.8250 0.9505
3.2290 -2.4351 -0.9231 0.9835
3.0619 -1.9070 -0.8233 0.9853
3.0543 -1.5434 -0.7811 0.9861
3.5896 -0.4015 -0.8244 0.9853
4.0512 -0.0903 -0.9249 0.9835
9.2143 10.8988 -3.2575 0.9431
5.9686 10.3380 -2.7246 0.9522
4.6401 9.9992 -2.5160 0.9558
2.2773 8.6924 -2.0509 0.9638
1.2775 7.5733 -1.7530 0.9690
-0.0843 7.5687 -1.7276 0.9694
-0.7221 7.1781 -1.6466 0.9708
-1.3003 6.7834 -1.5764 0.9721
-2.9237 5.9495 -1.5130 0.9732
-3.3522 5.5186 -1.4737 0.9739
-4.4379 4.1973 -1.3942 0.9752
-5.0205 3.2843 -1.3693 0.9757
-5.5058 2.3347 -1.3650 0.9758
-5.7145 1.8427 -1.3704 0.9757
-3.4289 0.7769 -0.8025 0.9857
-2.9453 0.1313 -0.6729 0.9880
-2.9994 -0.1337 -0.6853 0.9878
-3.0959 -0.4163 -0.7130 0.9873
-6.5267 -3.4827 -1.6885 0.9701
-6.4682 -4.2313 -1.7641 0.9688
-6.2160 -5.8790 -1.9528 0.9655
-5.6332 -7.6453 -2.1675 0.9618
-4.2619 -11.0658 -2.7066 0.9525
-3.5563 -12.4372 -2.9525 0.9483
-2.6730 -13.9448 -3.2407 0.9434
3.1152 -2.1384 -0.8624 0.9846
3.0538 -1.7180 -0.7998 0.9857
3.0779 -1.3868 -0.7705 0.9862
3.1531 -1.0949 -0.7618 0.9864
3.2760 -0.8194 -0.7708 0.9862
3.7755 -0.2527 -0.8637 0.9846
6.6999 10.4953 -2.8420 0.9502
1.8294 8.5133 -1.9875 0.9649
-2.6950 6.1636 -1.5354 0.9728
-3.1426 5.7345 -1.4925 0.9735
-3.5530 5.3015 -1.4566 0.9742
-3.9298 4.8640 -1.4272 0.9747
-4.2757 4.4211 -1.4038 0.9751
-4.5933 3.9720 -1.3860 0.9754
-5.1506 3.0507 -1.3663 0.9757
-2.9277 0.2616 -0.6709 0.9880
-3.1004 -0.5585 -0.7743 0.9871
-6.2456 -2.3259 -1.6382 0.9729
-6.2312 -2.9763 -1.6974 0.9720
-6.0920 -4.3847 -1.8449 0.9696
-5.4500 -6.7455 -2.1316 0.9649
-4.7214 -8.6154 -2.4148 0.9603
-3.6176 -10.8052 -2.8008 0.9541
-2.8701 -12.0432 -3.0431 0.9503
-1.9511 -13.3780 -3.3231 0.9458
3.0571 -1.9040 -0.8852 0.9853
3.0983 -1.2331 -0.8197 0.9864
3.1973 -0.9529 -0.8200 0.9864
10.1157 10.0037 -3.4969 0.9431
8.3914 9.9254 -3.1947 0.9479
5.5162 9.5543 -2.7117 0.9556
4.3134 9.2951 -2.5187 0.9587
1.2802 7.5896 -1.8919 0.9688
-0.6857 6.8156 -1.6837 0.9722
-1.2376 6.4567 -1.6159 0.9733
-2.7963 5.6903 -1.5584 0.9742
-3.5897 4.8720 -1.4875 0.9754
-3.9387 4.4536 -1.4614 0.9758
-5.0666 2.7036 -1.4116 0.9766
-5.4880 1.7697 -1.4174 0.9765
-3.3132 0.7507 -0.8350 0.9861
-2.8978 0.1292 -0.7130 0.9881
-3.1571 -0.7153 -0.7957 0.9868
-6.2407 -2.0123 -1.6117 0.9734
-6.2425 -2.6470 -1.6667 0.9725
-6.1420 -4.0179 -1.8040 0.9702
-5.8709 -5.5526 -1.9862 0.9673
-5.2855 -7.1736 -2.1902 0.9640
-4.9310 -8.1175 -2.3346 0.9616
-4.4875 -9.1318 -2.5010 0.9590
-3.9382 -10.2254 -2.6934 0.9559
-3.2630 -11.4113 -2.9173 0.9523
-2.4338 -12.6970 -3.1777 0.9481
3.1478 -1.0930 -0.8191 0.9864
3.2702 -0.8179 -0.8286 0.9862
3.7679 -0.2522 -0.9282 0.9846
9.2266 9.9757 -3.3400 0.9456
7.6062 9.8557 -3.0601 0.9500
6.1718 9.6681 -2.8193 0.9539
3.7612 9.1524 -2.4322 0.9601
2.6888 8.6679 -2.2307 0.9633
0.9457 7.6788 -1.9017 0.9686
-0.3899 6.9933 -1.7216 0.9716
-2.5759 5.8912 -1.5804 0.9739
-3.0075 5.4879 -1.5382 0.9746
-3.4038 5.0788 -1.5028 0.9751
-4.4093 3.8129 -1.4328 0.9763
-4.6904 3.3759 -1.4205 0.9765
-5.1804 2.4745 -1.4111 0.9766
-5.3910 2.0077 -1.4140 0.9766
-3.0843 0.5557 -0.7703 0.9872
-2.8807 0.2574 -0.7109 0.9882
-2.8744 0.0000 -0.7574 0.9882
-2.9343 -0.2622 -0.7763 0.9879
-5.9616 -1.6330 -1.6287 0.9748
-5.9699 -2.2232 -1.6786 0.9740
-5.9467 -2.8405 -1.7365 0.9731
-5.8884 -3.4876 -1.8033 0.9721
-5.4567 -5.6422 -2.0683 0.9681
-4.8097 -7.1765 -2.2764 0.9649
-3.9372 -9.0046 -2.5896 0.9602
-0.7491 -13.4341 -3.5454 0.9459
3.0523 -1.9010 -0.9475 0.9852
3.0443 -1.5383 -0.8988 0.9860
3.1919 -0.9512 -0.8776 0.9863
3.3442 -0.6797 -0.8992 0.9860
3.5806 -0.4006 -0.9494 0.9852
4.0695 -0.0907 -1.0726 0.9833
10.8909 9.0016 -3.7231 0.9432
6.3428 9.0228 -2.9062 0.9554
5.1245 8.8759 -2.7006 0.9585
3.0375 8.4429 -2.3643 0.9636
2.0595 7.8610 -2.1413 0.9669
1.2491 7.4051 -1.9788 0.9694
0.5559 7.1137 -1.8802 0.9709
-0.0758 6.8061 -1.7935 0.9722
-0.6549 6.5104 -1.7241 0.9733
-1.2334 6.4343 -1.7263 0.9733
-1.7717 6.1959 -1.6980 0.9737
-2.2443 5.8273 -1.6454 0.9745
-3.0780 5.0671 -1.5622 0.9758
-3.4453 4.6760 -1.5304 0.9763
-4.0929 3.8711 -1.4844 0.9770
-4.6366 3.0332 -1.4599 0.9773
-4.8727 2.6002 -1.4553 0.9774
-5.0861 2.1567 -1.4557 0.9774
-5.2772 1.7017 -1.4611 0.9773
-3.2212 0.7298 -0.8703 0.9864
-2.8316 0.3808 -0.7528 0.9883
-2.9836 -0.4013 -0.7933 0.9876
-3.0953 -0.7013 -0.8363 0.9870
-5.9695 -1.9249 -1.6527 0.9744
-5.9625 -2.5283 -1.7065 0.9736
-5.7258 -4.5216 -1.9225 0.9703
-5.5596 -5.2582 -2.0164 0.9688
-4.6243 -7.6127 -2.3470 0.9638
-4.1899 -8.5261 -2.5032 0.9615
-1.2898 -12.8206 -3.3953 0.9481
-0.1567 -14.0648 -3.7063 0.9435
3.0679 -1.3823 -0.8867 0.9862
3.1425 -1.0912 -0.8766 0.9863
10.0267 9.0687 -3.5624 0.9456
0.2328 6.9617 -1.8354 0.9716
-0.3707 6.6477 -1.7544 0.9728
-0.9426 6.4628 -1.7210 0.9733
-2.0130 6.0126 -1.6707 0.9741
-2.4660 5.6400 -1.6220 0.9749
-2.8825 5.2599 -1.5804 0.9755
-3.2655 4.8724 -1.5455 0.9760
-4.2381 3.6649 -1.4764 0.9771
-4.5098 3.2460 -1.4641 0.9773
-4.9822 2.3798 -1.4549 0.9774
-5.1844 1.9307 -1.4577 0.9774
-2.8279 0.0000 -0.7957 0.9883
-2.8819 -0.2575 -0.8141 0.9880
-2.9786 -0.5366 -0.8515 0.9875
-5.6196 -3.3285 -1.8376 0.9732
-5.3688 -4.6426 -1.9970 0.9709
-5.1729 -5.3487 -2.0936 0.9696
-4.8687 -6.0260 -2.1797 0.9683
-4.5338 -6.7649 -2.2913 0.9667
-3.6823 -8.4216 -2.5861 0.9625
-3.1188 -9.3154 -2.7639 0.9600
-0.6843 -12.2718 -3.4581 0.9502
0.4457 -13.3307 -3.7528 0.9461
3.0444 -1.5384 -0.9597 0.9859
3.1921 -0.9513 -0.9371 0.9863
4.0926 -0.0912 -1.1518 0.9831
9.9121 8.1926 -3.6181 0.9480
7.1060 8.4051 -3.0967 0.9553
5.8889 8.3771 -2.8810 0.9583
4.7820 8.2827 -2.6909 0.9610
2.8582 7.9447 -2.3755 0.9655
-0.0736 6.6065 -1.8589 0.9729
-1.2007 6.2638 -1.7945 0.9738
-1.6953 5.9288 -1.7350 0.9747
-2.1505 5.5836 -1.6835 0.9754
-2.9555 4.8655 -1.6017 0.9766
-3.3109 4.4936 -1.5704 0.9771
-3.6377 4.1132 -1.5449 0.9774
-3.9379 3.7244 -1.5250 0.9777
-4.6916 2.5035 -1.4962 0.9781
-4.8970 2.0766 -1.4966 0.9781
-2.7751 0.3732 -0.7878 0.9884
-2.8062 0.1252 -0.7903 0.9884
-2.8531 -0.1272 -0.8035 0.9882
-2.9298 -0.3940 -0.8317 0.9878
-3.0353 -0.6877 -0.8756 0.9872
-5.7043 -2.4188 -1.7433 0.9746
-5.6568 -3.0185 -1.8040 0.9737
-5.5728 -3.6455 -1.8736 0.9727
-5.2774 -4.9913 -2.0437 0.9703
-5.0507 -5.7109 -2.1450 0.9688
-4.3513 -7.1632 -2.3581 0.9658
-3.4135 -8.8629 -2.6722 0.9613
-2.7964 -9.7794 -2.8618 0.9586
-2.0590 -10.7414 -3.0772 0.9556
-1.1825 -11.7544 -3.3239 0.9521
1.0838 -13.8693 -3.9141 0.9438
3.1185 -2.1407 -1.0642 0.9844
3.2662 -0.8169 -0.9473 0.9861
9.1612 8.2858 -3.4754 0.9500
7.7593 8.3892 -3.2152 0.9536
5.3223 8.3372 -2.7830 0.9597
4.2666 8.2148 -2.6044 0.9623
3.3060 8.0446 -2.4471 0.9645
0.2237 6.6913 -1.8837 0.9726
-1.4532 6.0977 -1.7637 0.9743
-1.9276 5.7574 -1.7083 0.9751
-2.3643 5.4074 -1.6605 0.9758
-4.0784 3.5268 -1.5170 0.9778
-4.3412 3.1246 -1.5049 0.9780
-4.5806 2.7131 -1.4979 0.9781
-4.7971 2.2914 -1.4958 0.9782
-4.9915 1.8588 -1.4986 0.9781
-2.9229 0.5266 -0.8356 0.9877
-2.8308 -0.2529 -0.8509 0.9882
-3.0126 -0.8252 -0.9351 0.9870
-5.4797 -2.0406 -1.7506 0.9759
-5.4430 -2.5998 -1.8058 0.9751
-4.9149 -5.0820 -2.1166 0.9709
-3.9096 -7.1340 -2.4355 0.9666
-3.4564 -7.9050 -2.5829 0.9646
0.4071 -12.1766 -3.6475 0.9504
1.6089 -13.0635 -3.9405 0.9465
3.0507 -1.5416 -1.0233 0.9858
3.0976 -1.2328 -0.9981 0.9862
4.1161 -0.0917 -1.2326 0.9830
9.0877 7.5112 -3.5297 0.9520
6.5940 7.7995 -3.0577 0.9583
5.4921 7.8127 -2.8591 0.9609
4.4797 7.7591 -2.6823 0.9633
1.9147 7.3084 -2.2618 0.9689
1.1957 7.0885 -2.1521 0.9704
0.5312 6.7978 -2.0413 0.9719
-1.1490 5.9942 -1.8272 0.9748
-2.0634 5.3575 -1.7188 0.9763
-2.4681 5.0225 -1.6754 0.9769
-2.8414 4.6776 -1.6385 0.9774
-3.5020 3.9598 -1.5826 0.9782
-4.5220 2.4130 -1.5345 0.9788
-4.8960 1.5788 -1.5401 0.9787
-3.0564 0.6925 -0.9382 0.9870
-2.7204 0.3659 -0.8217 0.9886
-2.8067 -0.1251 -0.8411 0.9883
-2.8771 -0.3869 -0.8691 0.9880
-3.1092 -1.0026 -0.9780 0.9865
-5.4654 -2.3175 -1.7772 0.9755
-5.4120 -2.8879 -1.8365 0.9747
-5.0201 -4.7480 -2.0686 0.9716
-3.1976 -8.3023 -2.6635 0.9635
2.2770 -13.4993 -4.0985 0.9444
3.1310 -2.1493 -1.1370 0.9843
3.0552 -1.7188 -1.0495 0.9855
3.0738 -1.3850 -1.0093 0.9860
3.1476 -1.0930 -0.9975 0.9862
3.2724 -0.8185 -1.0099 0.9860
3.4674 -0.5452 -1.0508 0.9855
3.7993 -0.2543 -1.1400 0.9842
12.7613 6.4486 -4.2806 0.9420
9.7738 7.3708 -3.6649 0.9502
8.4268 7.6216 -3.4016 0.9537
4.0051 7.7112 -2.6014 0.9644
3.1148 7.5796 -2.4533 0.9664
1.5476 7.2019 -2.2053 0.9697
0.8558 6.9488 -2.0960 0.9712
0.2235 6.6849 -2.0024 0.9725
-1.8484 5.5210 -1.7430 0.9760
-2.6586 4.8513 -1.6562 0.9772
-3.0170 4.5016 -1.6224 0.9776
-3.3471 4.1427 -1.5945 0.9780
-3.9290 3.3975 -1.5550 0.9785
-4.1834 3.0110 -1.5431 0.9787
-2.7380 0.0000 -0.8695 0.9886
-2.7827 -0.2486 -0.8873 0.9883
-5.2605 -1.9590 -1.7827 0.9767
-5.1432 -3.0463 -1.8984 0.9752
-4.8779 -4.2180 -2.0480 0.9733
-4.6792 -4.8383 -2.1376 0.9721
-4.4021 -5.4485 -2.2246 0.9710
-4.0612 -6.0596 -2.3167 0.9698
-3.2548 -7.4438 -2.5802 0.9665
-1.4101 -9.6681 -3.1029 0.9598
1.4701 -11.9360 -3.8193 0.9508
2.7150 -12.6344 -4.1041 0.9472
4.1154 -13.2667 -4.4114 0.9434
3.3081 -2.4947 -1.3159 0.9828
3.0571 -1.5448 -1.0878 0.9857
3.1033 -1.2351 -1.0607 0.9861
3.2038 -0.9548 -1.0617 0.9861
4.1430 -0.0923 -1.3161 0.9828
9.6138 6.5995 -3.7033 0.9522
1.8169 6.9351 -2.2768 0.9704
1.1374 6.7431 -2.1717 0.9717
-1.1011 5.7444 -1.8575 0.9758
-1.9823 5.1469 -1.7516 0.9771
-2.3735 4.8299 -1.7091 0.9777
-2.7348 4.5021 -1.6729 0.9781
-3.0680 4.1640 -1.6426 0.9785
-3.6568 3.4586 -1.5985 0.9791
-4.1499 2.7147 -1.5749 0.9794
-4.3627 2.3280 -1.5704 0.9795
-2.7186 0.1212 -0.8642 0.9886
-2.7612 -0.1231 -0.8778 0.9885
-5.2436 -2.2235 -1.8088 0.9764
-5.0920 -3.3310 -1.9324 0.9748
-4.7846 -4.5252 -2.0915 0.9727
-4.2308 -5.7421 -2.2651 0.9705
-3.8859 -6.3970 -2.3771 0.9691
-3.4838 -7.0892 -2.5086 0.9674
-1.7805 -9.2884 -3.0036 0.9611
-1.0110 -10.0493 -3.2076 0.9585
0.9041 -11.5704 -3.6858 0.9525
3.3956 -12.9607 -4.2551 0.9453
3.1437 -2.1581 -1.2110 0.9841
3.0801 -1.3878 -1.0729 0.9859
3.2787 -0.8201 -1.0733 0.9859
3.8123 -0.2552 -1.2134 0.9841
11.5815 5.8524 -4.1210 0.9470
10.2548 6.3867 -3.8367 0.9506
8.9897 6.7795 -3.5758 0.9538
7.7957 7.0508 -3.3382 0.9568
5.6352 7.3017 -2.9292 0.9620
3.7716 7.2616 -2.5987 0.9662
2.1775 7.0195 -2.3341 0.9696
1.4704 6.8428 -2.2227 0.9711
0.8174 6.6368 -2.1237 0.9723
0.2142 6.4062 -2.0356 0.9735
-0.8583 5.8851 -1.8888 0.9753
-1.3345 5.5999 -1.8283 0.9761
-1.7748 5.3011 -1.7754 0.9768
-2.5577 4.6673 -1.6902 0.9779
-2.9048 4.3343 -1.6570 0.9783
-3.2247 3.9912 -1.6296 0.9787
-4.0352 2.9044 -1.5789 0.9794
-4.2590 2.5227 -1.5721 0.9794
-4.4608 2.1307 -1.5700 0.9795
-2.6945 0.0000 -0.9053 0.9887
-2.7374 -0.2446 -0.9234 0.9885
-5.0100 -2.3930 -1.8654 0.9768
-4.9310 -2.9206 -1.9255 0.9761
-4.8160 -3.4663 -1.9936 0.9753
-4.4629 -4.6146 -2.1569 0.9733
-3.0736 -7.0294 -2.5776 0.9681
-1.9913 -8.3559 -2.8860 0.9644
-0.5406 -9.6951 -3.2624 0.9599
0.3459 -10.3471 -3.4784 0.9573
2.4823 -11.5517 -3.9698 0.9514
3.0935 -1.9267 -1.2245 0.9847
3.0636 -1.5481 -1.1533 0.9856
3.2098 -0.9566 -1.1253 0.9860
3.6215 -0.4051 -1.2243 0.9847
13.5260 3.3831 -4.6845 0.9429
11.1802 5.0376 -4.1201 0.9496
10.0090 5.6310 -3.8585 0.9527
8.8691 6.0883 -3.6144 0.9556
6.7341 6.6595 -3.1820 0.9608
3.9701 6.8765 -2.6678 0.9670
3.1676 6.8262 -2.5284 0.9687
2.4212 6.7298 -2.4030 0.9703
1.0840 6.4267 -2.1897 0.9729
0.4869 6.2307 -2.0998 0.9740
-0.0670 6.0108 -2.0196 0.9750
-1.0566 5.5121 -1.8857 0.9766
-2.6348 4.3376 -1.7051 0.9788
-3.5289 3.3376 -1.6320 0.9797
-4.2127 2.2480 -1.6043 0.9801
-4.5600 1.4704 -1.6097 0.9800
-2.6180 0.3521 -0.8875 0.9889
-2.7168 -0.1211 -0.9137 0.9886
-2.7751 -0.3732 -0.9408 0.9883
-5.0678 -1.6341 -1.7890 0.9778
-4.9748 -2.6546 -1.8945 0.9765
-4.7439 -3.7462 -2.0309 0.9748
-4.5679 -4.3203 -2.1125 0.9738
-4.0247 -5.4624 -2.2796 0.9718
-3.6857 -6.0675 -2.3852 0.9705
-2.8336 -7.3572 -2.6489 0.9673
-2.2936 -8.0211 -2.8029 0.9654
-1.6661 -8.6916 -2.9734 0.9633
-0.9419 -9.3625 -3.1615 0.9611
0.8336 -10.6681 -3.5952 0.9559
1.9014 -11.2725 -3.8409 0.9529
3.0948 -11.8128 -4.1028 0.9498
5.8492 -12.6047 -4.6687 0.9430
3.1567 -2.1670 -1.2865 0.9840
3.0718 -1.7282 -1.1842 0.9852
3.0866 -1.3907 -1.1374 0.9858
3.1593 -1.0970 -1.1236 0.9860
3.8255 -0.2561 -1.2882 0.9840
12.9485 3.8591 -4.5396 0.9446
11.7714 4.6850 -4.2567 0.9479
9.4341 5.8756 -3.7342 0.9542
6.2357 6.7420 -3.0855 0.9620
5.2842 6.8470 -2.9059 0.9642
2.7876 6.7833 -2.4640 0.9695
2.0680 6.6667 -2.3452 0.9710
0.2047 6.1235 -2.0585 0.9745
-0.3286 5.8930 -1.9830 0.9754
-1.2814 5.3771 -1.8572 0.9769
-2.0994 4.8015 -1.7607 0.9781
-3.1098 3.8490 -1.6625 0.9793
-3.6569 3.1622 -1.6243 0.9798
-4.1124 2.4358 -1.6059 0.9800
-4.3075 2.0576 -1.6039 0.9801
-4.4811 1.6688 -1.6066 0.9800
-2.6500 0.2368 -0.8939 0.9888
-2.6519 0.0000 -0.9403 0.9888
-2.7668 -0.4985 -0.9969 0.9881
-2.8417 -0.7784 -1.0448 0.9876
-2.9097 -6.6547 -2.5754 0.9696
-1.2340 -8.4608 -3.0318 0.9644
-0.5046 -9.0497 -3.2139 0.9623
0.3215 -9.6158 -3.4116 0.9600
1.2495 -10.1451 -3.6245 0.9575
2.2840 -10.6288 -3.8549 0.9549
4.6575 -11.3334 -4.3448 0.9493
5.9778 -11.5093 -4.5987 0.9464
3.4830 -2.6267 -1.5469 0.9817
3.1059 -1.9344 -1.2974 0.9846
3.2158 -0.9584 -1.1899 0.9859
10.2637 4.6246 -3.9918 0.9533
9.2366 5.1964 -3.7579 0.9560
6.2997 6.2299 -3.1416 0.9631
3.7532 6.5007 -2.6616 0.9686
3.0031 6.4716 -2.5297 0.9702
1.6460 6.2828 -2.3030 0.9728
0.4657 5.9595 -2.1196 0.9749
-0.0642 5.7588 -2.0421 0.9759
-0.5570 5.5366 -1.9731 0.9767
-1.8357 4.7662 -1.8110 0.9786
-2.2019 4.4807 -1.7703 0.9790
-2.5409 4.1830 -1.7354 0.9794
-2.8542 3.8738 -1.7062 0.9798
-3.4084 3.2237 -1.6635 0.9803
-3.6511 2.8832 -1.6496 0.9804
-4.0711 2.1724 -1.6362 0.9806
-4.4062 1.4208 -1.6416 0.9805
-2.5615 0.5804 -0.9313 0.9889
-2.7260 -0.3666 -0.9753 0.9884
-2.8093 -0.6365 -1.0214 0.9878
-2.8709 -0.9257 -1.0696 0.9873
-4.8441 -2.0540 -1.8657 0.9779
-4.7786 -2.5499 -1.9206 0.9773
-4.6796 -3.0612 -1.9828 0.9765
-4.5439 -3.5883 -2.0530 0.9757
-3.5032 -5.7670 -2.3926 0.9718
-3.1237 -6.3564 -2.5113 0.9704
-0.8810 -8.7572 -3.1209 0.9633
-0.1040 -9.3364 -3.3108 0.9611
0.7725 -9.8861 -3.5162 0.9588
4.0281 -11.1965 -4.2192 0.9508
6.6633 -11.5412 -4.7254 0.9450
8.0669 -11.4754 -4.9738 0.9422
3.1653 -1.0991 -1.1881 0.9859
3.8664 -0.2588 -1.3741 0.9837
12.7546 2.5925 -4.6151 0.9463
9.7493 4.9266 -3.8733 0.9547
7.7293 5.8290 -3.4327 0.9597
4.9711 6.4413 -2.8851 0.9661
3.3720 6.4923 -2.5941 0.9694
1.9680 6.3443 -2.3553 0.9722
1.3351 6.2130 -2.2533 0.9734
0.7452 6.0508 -2.1617 0.9745
0.1960 5.8620 -2.0797 0.9754
-0.3151 5.6502 -2.0066 0.9763
-1.2319 5.1690 -1.8842 0.9777
-1.6419 4.9040 -1.8338 0.9783
-2.0223 4.6251 -1.7899 0.9788
-2.3747 4.3333 -1.7521 0.9792
-3.2786 3.3900 -1.6723 0.9802
-3.5325 3.0547 -1.6559 0.9804
-2.5828 0.7075 -0.9496 0.9887
-2.6624 0.4797 -0.9592 0.9886
-2.6101 0.0000 -0.9746 0.9889
-2.7171 -0.4895 -1.0309 0.9883
-2.7878 -0.7637 -1.0794 0.9877
-4.5491 -2.6944 -1.9743 0.9777
-4.0793 -4.2179 -2.1911 0.9753
-3.5049 -5.2296 -2.3508 0.9735
-3.1591 -5.7646 -2.4546 0.9723
-2.7608 -6.3141 -2.5733 0.9710
-2.2988 -6.8661 -2.7037 0.9696
-0.4728 -8.4785 -3.1709 0.9644
0.3000 -8.9741 -3.3529 0.9624
1.1613 -9.4288 -3.5474 0.9602
2.1117 -9.8269 -3.7533 0.9580
3.1501 -10.1556 -3.9704 0.9556
5.4529 -10.4988 -4.4176 0.9507
7.9305 -10.2758 -4.8470 0.9461
9.1611 -9.9049 -5.0380 0.9440
3.1355 -1.9528 -1.3794 0.9844
3.1224 -1.2427 -1.2549 0.9858
13.2790 -0.2959 -4.9597 0.9449
12.7201 0.8515 -4.7605 0.9470
12.0248 1.8908 -4.5454 0.9494
11.2319 2.8093 -4.3233 0.9518
8.5676 4.8201 -3.6708 0.9589
5.0883 6.0185 -2.9429 0.9669
4.3018 6.1194 -2.7931 0.9686
3.5564 6.1600 -2.6560 0.9701
2.1916 6.0916 -2.4174 0.9727
0.4460 5.7081 -2.1379 0.9758
-0.0615 5.5244 -2.0630 0.9767
-0.9763 5.0934 -1.9366 0.9781
-1.7691 4.5934 -1.8380 0.9792
-2.1238 4.3217 -1.7981 0.9796
-3.2945 3.1159 -1.6933 0.9808
-3.5301 2.7877 -1.6796 0.9810
-3.7442 2.4494 -1.6707 0.9811
-3.9373 2.1010 -1.6664 0.9811
-4.1095 1.7426 -1.6668 0.9811
-4.2609 1.3740 -1.6717 0.9811
-2.5436 0.5763 -0.9739 0.9889
-2.5325 0.3406 -0.9542 0.9891
-2.6781 -0.3602 -1.0090 0.9885
-2.8043 -0.9043 -1.1002 0.9875
-4.6633 -1.9774 -1.8914 0.9786
-4.5952 -2.4521 -1.9449 0.9780
-4.4944 -2.9401 -2.0055 0.9773
-4.3580 -3.4415 -2.0736 0.9766
-3.9647 -4.4829 -2.2347 0.9748
-2.5381 -6.5901 -2.6370 0.9703
-1.4735 -7.6871 -2.9227 0.9671
-0.0973 -8.7305 -3.2603 0.9634
7.3063 -10.3934 -4.7440 0.9472
8.5504 -10.1135 -4.9453 0.9450
3.2363 -2.2216 -1.4658 0.9834
3.1011 -1.3973 -1.2701 0.9856
3.3027 -0.8261 -1.2713 0.9856
3.5178 -0.5531 -1.3297 0.9849
10.8090 3.2214 -4.2116 0.9530
9.9287 3.9515 -3.9903 0.9554
8.1131 5.0529 -3.5691 0.9600
7.2147 5.4409 -3.3743 0.9622
5.4963 5.9426 -3.0226 0.9660
4.6900 6.0770 -2.8664 0.9678
3.9239 6.1467 -2.7230 0.9693
2.5172 6.1252 -2.4728 0.9721
1.8762 6.0482 -2.3646 0.9733
0.7132 5.7907 -2.1786 0.9754
-0.7596 5.2082 -1.9654 0.9778
-1.1854 4.9743 -1.9095 0.9784
-1.5817 4.7240 -1.8602 0.9790
-2.6075 3.8907 -1.7489 0.9802
-3.4150 2.9531 -1.6858 0.9809
-3.6398 2.6198 -1.6746 0.9810
-4.0260 1.9231 -1.6660 0.9811
-3.4440 0.9434 -1.3334 0.9849
-2.5629 0.2290 -0.9608 0.9891
-2.5691 0.0000 -1.0083 0.9890
-2.6072 -0.2329 -1.0273 0.9888
-2.7584 -1.0272 -1.1552 0.9874
-4.4622 -2.1314 -1.9408 0.9790
-4.3765 -2.5922 -1.9963 0.9784
-4.2575 -3.0643 -2.0587 0.9777
-3.9082 -4.0410 -2.2064 0.9761
-3.3483 -4.9959 -2.3604 0.9745
-3.0103 -5.4931 -2.4584 0.9734
-2.1801 -6.5116 -2.6950 0.9709
-1.6714 -7.0134 -2.8297 0.9695
-1.0942 -7.5022 -2.9755 0.9679
-0.4444 -7.9697 -3.1327 0.9663
1.0838 -8.7998 -3.4798 0.9626
1.9632 -9.1359 -3.6674 0.9606
2.9154 -9.3985 -3.8620 0.9586
5.0042 -9.6349 -4.2610 0.9544
6.1087 -9.5693 -4.4557 0.9524
7.2215 -9.3572 -4.6389 0.9505
9.3422 -8.4496 -4.9438 0.9473
3.1706 -1.9747 -1.4660 0.9841
3.4136 -0.6938 -1.3671 0.9851
3.7179 -0.4159 -1.4683 0.9841
12.0733 -0.2690 -4.7396 0.9494
10.3389 2.5860 -4.1827 0.9552
9.5880 3.3293 -3.9834 0.9573
6.3569 5.2541 -3.2368 0.9652
5.5682 5.5065 -3.0735 0.9669
4.0744 5.7960 -2.7806 0.9700
3.3772 5.8496 -2.6509 0.9714
2.7158 5.8524 -2.5322 0.9727
1.5014 5.7309 -2.3251 0.9749
0.9475 5.6172 -2.2357 0.9758
0.4278 5.4743 -2.1550 0.9767
-0.9400 4.9037 -1.9596 0.9788
-1.3368 4.6752 -1.9084 0.9793
-2.9365 3.3204 -1.7396 0.9811
-3.1867 3.0140 -1.7215 0.9813
-3.6233 2.3702 -1.6993 0.9816
-3.8104 2.0333 -1.6951 0.9816
-4.1232 1.3296 -1.7003 0.9816
-2.5568 0.5793 -1.0289 0.9888
-2.4911 0.3350 -0.9865 0.9893
-2.5490 0.1137 -1.0014 0.9891
-2.5889 -0.1154 -1.0171 0.9889
-2.6312 -0.3539 -1.0420 0.9887
-2.7055 -0.6129 -1.0887 0.9882
-2.7236 -0.8782 -1.1231 0.9878
-4.0105 -3.7930 -2.1665 0.9766
-3.7953 -4.2913 -2.2484 0.9757
-1.3916 -7.2599 -2.9012 0.9687
0.6727 -8.6092 -3.3892 0.9636
3.4166 -9.4966 -3.9610 0.9576
6.6658 -9.4825 -4.5491 0.9514
3.2931 -2.2606 -1.5677 0.9830
3.1227 -1.4071 -1.3443 0.9854
3.1926 -1.1086 -1.3264 0.9856
3.3253 -0.8317 -1.3453 0.9854
3.5462 -0.5576 -1.4089 0.9847
3.9927 -0.2673 -1.5705 0.9830
11.3306 1.2675 -4.4747 0.9522
10.6913 2.1731 -4.2818 0.9542
9.1956 3.6598 -3.8843 0.9584
8.3903 4.2398 -3.6895 0.9604
4.4359 5.7478 -2.8495 0.9693
3.7214 5.8296 -2.7144 0.9707
2.3987 5.8369 -2.4767 0.9732
1.2201 5.6780 -2.2793 0.9754
0.6834 5.5492 -2.1943 0.9763
0.1803 5.3930 -2.1178 0.9771
-0.2907 5.2128 -2.0490 0.9778
-1.1419 4.7915 -1.9332 0.9791
-1.5249 4.5547 -1.8851 0.9796
-2.2126 4.0375 -1.8069 0.9804
-2.5195 3.7594 -1.7761 0.9807
-2.8031 3.4695 -1.7505 0.9810
-3.3037 2.8569 -1.7142 0.9814
-3.7194 2.2030 -1.6966 0.9816
-3.4629 0.9486 -1.4091 0.9847
-2.5634 0.4618 -1.0222 0.9889
-2.5207 0.2253 -0.9932 0.9892
-2.5289 0.0000 -1.0413 0.9891
-2.5656 -0.2292 -1.0607 0.9889
-3.7489 -3.8763 -2.2206 0.9769
-3.5159 -4.3517 -2.3037 0.9761
-2.8732 -5.2429 -2.4619 0.9745
-2.0718 -6.1879 -2.6871 0.9722
-1.0344 -7.0926 -2.9515 0.9695
-0.4189 -7.5129 -3.0985 0.9680
1.0152 -8.2426 -3.4198 0.9647
2.7120 -8.7426 -3.7693 0.9612
3.6451 -8.8699 -3.9489 0.9594
5.6187 -8.8016 -4.2999 0.9558
6.6201 -8.5780 -4.4619 0.9542
9.3607 -7.0592 -4.8278 0.9505
3.2069 -1.9973 -1.5557 0.9838
3.1661 -1.2601 -1.4032 0.9854
3.4392 -0.6990 -1.4452 0.9849
3.7581 -0.4204 -1.5572 0.9838
11.0562 -0.2464 -4.5539 0.9533
10.6651 0.7139 -4.4015 0.9548
10.1598 1.5976 -4.2350 0.9565
6.7233 4.6153 -3.3581 0.9653
5.9839 4.9459 -3.1968 0.9670
5.2570 5.1988 -3.0445 0.9685
4.5498 5.3815 -2.9018 0.9700
3.2132 5.5655 -2.6463 0.9726
2.5895 5.5803 -2.5332 0.9737
1.4371 5.4853 -2.3350 0.9758
0.4107 5.2562 -2.1710 0.9775
-0.4953 4.9234 -2.0376 0.9788
-1.2894 4.5094 -1.9313 0.9799
-1.9805 4.0303 -1.8491 0.9808
-2.8413 3.2127 -1.7661 0.9816
-3.8513 1.6331 -1.7226 0.9821
-2.6388 0.5979 -1.1141 0.9884
-2.4504 0.3296 -1.0181 0.9894
-2.5068 0.1118 -1.0333 0.9892
-2.6300 -0.5959 -1.1104 0.9884
-4.3336 -1.8376 -1.9383 0.9798
-4.0226 -3.1766 -2.1106 0.9781
-3.3651 -4.5671 -2.3360 0.9758
-3.0418 -5.0074 -2.4125 0.9750
-2.6933 -5.4806 -2.5146 0.9739
-2.2930 -5.9537 -2.6272 0.9728
-1.8357 -6.4197 -2.7495 0.9715
-1.3174 -6.8729 -2.8817 0.9702
-0.0859 -7.7112 -3.1755 0.9672
4.1282 -8.8960 -4.0384 0.9585
6.1207 -8.7068 -4.3825 0.9550
8.0682 -7.9789 -4.6726 0.9521
3.3528 -2.3016 -1.6746 0.9826
3.2139 -1.1160 -1.4009 0.9854
3.3485 -0.8375 -1.4213 0.9852
3.5754 -0.5622 -1.4904 0.9845
10.4252 1.1662 -4.3197 0.9556
9.8720 2.0066 -4.1482 0.9574
8.5542 3.4045 -3.7912 0.9610
7.8325 3.9580 -3.6137 0.9627
5.6184 5.0816 -3.1195 0.9678
3.5366 5.5400 -2.7065 0.9720
2.2895 5.5712 -2.4802 0.9743
0.6557 5.3242 -2.2090 0.9771
0.1732 5.1817 -2.1349 0.9778
-0.7040 4.8268 -2.0086 0.9791
-1.1009 4.6195 -1.9555 0.9797
-1.4715 4.3952 -1.9086 0.9801
-1.8170 4.1555 -1.8676 0.9806
-2.7117 3.3563 -1.7768 0.9815
-2.9655 3.0663 -1.7565 0.9817
-3.1982 2.7656 -1.7410 0.9819
-3.4101 2.4545 -1.7301 0.9820
-3.5070 0.9607 -1.4973 0.9844
-2.5181 0.4537 -1.0536 0.9890
-2.4793 0.2216 -1.0250 0.9893
-2.5688 -0.9566 -1.1824 0.9881
-4.1499 -1.9822 -1.9838 0.9802
-4.0620 -2.4059 -2.0365 0.9796
-3.9427 -2.8378 -2.0954 0.9791
-3.0682 -4.5781 -2.3773 0.9763
-1.9723 -5.8911 -2.6798 0.9733
-1.5050 -6.3150 -2.8003 0.9721
-0.3959 -7.1003 -3.0675 0.9695
0.2489 -7.4453 -3.2134 0.9681
0.9540 -7.7455 -3.3663 0.9666
2.5328 -8.1649 -3.6876 0.9634
3.3936 -8.2578 -3.8511 0.9619
5.1991 -8.1443 -4.1679 0.9588
7.8265 -7.0787 -4.5520 0.9551
8.5829 -6.4727 -4.6371 0.9542
3.2447 -2.0208 -1.6489 0.9835
3.1600 -1.5968 -1.5272 0.9847
3.1889 -1.2692 -1.4805 0.9852
3.4673 -0.7047 -1.5262 0.9847
3.8179 -0.4271 -1.6572 0.9834
9.4123 1.4800 -4.1099 0.9593
8.8880 2.2230 -3.9520 0.9609
7.6645 3.4535 -3.6262 0.9640
6.3279 4.3439 -3.3108 0.9671
4.9752 4.9201 -3.0182 0.9700
3.6778 5.2318 -2.7586 0.9725
2.4730 5.3291 -2.5342 0.9747
1.9110 5.3117 -2.4350 0.9757
0.3948 5.0521 -2.1859 0.9782
-1.2447 4.3530 -1.9529 0.9805
-2.2152 3.6467 -1.8405 0.9816
-2.4937 3.3845 -1.8134 0.9819
-2.9873 2.8254 -1.7736 0.9822
-3.7317 1.5824 -1.7484 0.9825
-2.4654 0.1099 -1.0645 0.9893
-2.5465 -0.5770 -1.1263 0.9887
-2.5665 -0.8276 -1.1632 0.9883
-2.6695 -1.1320 -1.2508 0.9874
-3.6996 -3.4990 -2.1966 0.9781
-3.2307 -4.3846 -2.3493 0.9766
-2.5720 -5.2338 -2.5155 0.9749
-1.7457 -6.1049 -2.7389 0.9727
-0.6956 -6.9142 -2.9975 0.9702
1.3284 -7.8754 -3.4451 0.9658
3.8373 -8.2692 -3.9323 0.9611
5.6555 -8.0450 -4.2420 0.9581
7.4177 -7.3355 -4.5000 0.9556
3.5543 -2.4398 -1.8596 0.9814
3.1679 -1.4274 -1.4988 0.9850
3.3723 -0.8435 -1.4995 0.9850
3.6055 -0.5669 -1.5744 0.9842
4.3509 -0.2912 -1.8810 0.9812
9.1594 1.8618 -4.0318 0.9601
8.6004 2.5632 -3.8711 0.9617
7.9863 3.1785 -3.7078 0.9632
7.3354 3.7068 -3.5452 0.9648
6.6677 4.1527 -3.3884 0.9664
5.3102 4.8028 -3.0885 0.9693
3.9945 5.1759 -2.8202 0.9719
3.3670 5.2744 -2.6992 0.9731
1.6406 5.2887 -2.3885 0.9762
1.1210 5.2169 -2.3017 0.9770
-0.6786 4.6529 -2.0283 0.9797
-1.0622 4.4573 -1.9765 0.9802
-1.7559 4.0159 -1.8906 0.9811
-2.0677 3.7731 -1.8559 0.9814
-2.3572 3.5171 -1.8263 0.9817
-3.3038 2.3779 -1.7559 0.9824
-3.8024 1.4161 -1.7502 0.9825
-3.9288 1.0762 -1.7572 0.9824
-2.4481 -0.2188 -1.1090 0.9893
-2.4593 -0.4430 -1.1275 0.9891
-2.4890 -0.9269 -1.1984 0.9884
-4.0067 -1.9138 -2.0035 0.9807
-3.9182 -2.3207 -2.0548 0.9802
-3.7993 -2.7345 -2.1122 0.9797
-3.6476 -3.1542 -2.1759 0.9791
-3.4609 -3.5785 -2.2463 0.9784
-2.9445 -4.3934 -2.3864 0.9771
-2.2788 -5.2118 -2.5666 0.9753
-1.8808 -5.6176 -2.6731 0.9743
-1.4321 -6.0094 -2.7875 0.9733
-0.9307 -6.3811 -2.9097 0.9721
-0.3750 -6.7256 -3.0394 0.9709
0.2352 -7.0348 -3.1760 0.9696
1.6135 -7.5086 -3.4654 0.9669
3.9961 -7.6939 -3.9120 0.9627
4.8330 -7.5707 -4.0528 0.9614
5.6645 -7.3397 -4.1834 0.9601
6.4704 -6.9958 -4.2998 0.9590
7.2284 -6.5377 -4.3977 0.9581
7.9157 -5.9696 -4.4735 0.9574
3.2123 -1.2785 -1.5600 0.9849
3.5062 -0.7127 -1.6144 0.9844
3.9068 -0.4370 -1.7738 0.9829
8.7585 1.3772 -4.0006 0.9618
7.7647 2.6962 -3.7088 0.9646
5.9716 4.0993 -3.2683 0.9687
5.3436 4.4166 -3.1281 0.9700
4.7185 4.6663 -2.9943 0.9713
1.3214 5.0438 -2.3527 0.9774
0.3798 4.8606 -2.1999 0.9788
-0.0527 4.7288 -2.1338 0.9795
-0.4602 4.5740 -2.0743 0.9800
-0.8432 4.3987 -2.0209 0.9805
-1.2024 4.2050 -1.9734 0.9810
-1.5385 3.9946 -1.9315 0.9814
-1.8521 3.7691 -1.8949 0.9817
-2.1441 3.5296 -1.8634 0.9820
-2.4148 3.2774 -1.8369 0.9823
-2.8948 2.7379 -1.7978 0.9827
-3.4662 1.8496 -1.7727 0.9829
-3.7497 1.2091 -1.7777 0.9829
-2.5488 0.5775 -1.1792 0.9886
-2.3567 0.3170 -1.0730 0.9896
-2.4105 0.1075 -1.0887 0.9895
-2.4671 -0.5589 -1.1414 0.9890
-2.4782 -0.7991 -1.1749 0.9886
-2.4891 -1.0554 -1.2199 0.9882
-3.9661 -2.1164 -2.0284 0.9805
-3.3535 -3.7919 -2.2841 0.9780
-1.6629 -5.8156 -2.7293 0.9738
-0.0767 -6.8852 -3.1069 0.9702
0.5605 -7.1733 -3.2466 0.9689
1.9883 -7.5893 -3.5400 0.9662
2.7685 -7.6953 -3.6901 0.9647
3.5813 -7.7176 -3.8390 0.9634
5.2506 -7.4691 -4.1196 0.9607
6.8568 -6.7809 -4.3513 0.9586
8.2260 -5.6468 -4.5021 0.9572
3.2193 -1.8111 -1.6667 0.9839
3.1915 -1.4380 -1.5795 0.9848
3.3974 -0.8497 -1.5802 0.9847
3.6621 -0.5758 -1.6727 0.9839
9.5363 -0.6383 -4.3126 0.9589
9.3021 0.2073 -4.1983 0.9600
8.5345 1.7347 -3.9297 0.9625
8.0355 2.3949 -3.7833 0.9639
6.8917 3.4825 -3.4841 0.9667
5.6578 4.2668 -3.1975 0.9694
3.2108 5.0297 -2.6925 0.9742
2.6412 5.0853 -2.5856 0.9752
2.0947 5.0972 -2.4866 0.9761
0.6056 4.9171 -2.2354 0.9785
0.1604 4.7977 -2.1660 0.9792
-0.6547 4.4888 -2.0468 0.9803
-1.3733 4.1018 -1.9517 0.9812
-1.6981 3.8836 -1.9125 0.9816
-2.0008 3.6510 -1.8785 0.9819
-3.8083 1.0432 -1.7816 0.9828
-2.3615 0.0000 -1.1132 0.9896
-3.8711 -1.8490 -2.0222 0.9812
-3.7823 -2.2403 -2.0722 0.9807
-3.5139 -3.0385 -2.1898 0.9797
-3.3301 -3.4432 -2.2579 0.9790
-2.8294 -4.2217 -2.3956 0.9778
-2.5191 -4.5968 -2.4709 0.9771
-0.8853 -6.0698 -2.8914 0.9732
-0.3560 -6.3836 -3.0138 0.9721
0.2227 -6.6619 -3.1420 0.9710
0.8493 -6.8959 -3.2752 0.9697
1.5206 -7.0764 -3.4118 0.9685
2.9741 -7.2370 -3.6882 0.9660
3.7378 -7.1975 -3.8229 0.9648
4.5105 -7.0656 -3.9514 0.9636
5.2752 -6.8353 -4.0700 0.9625
3.4525 -2.1502 -1.9173 0.9822
3.2461 -1.6403 -1.7144 0.9840
3.2537 -1.2949 -1.6507 0.9846
3.3544 -0.9997 -1.6499 0.9846
3.5673 -0.7251 -1.7159 0.9840
8.5233 0.5706 -4.0267 0.9629
7.2883 2.5308 -3.6367 0.9665
6.2223 3.5006 -3.3653 0.9689
5.0665 4.1876 -3.0984 0.9714
4.4838 4.4341 -2.9725 0.9725
3.3430 4.7555 -2.7401 0.9746
1.7557 4.8802 -2.4447 0.9773
0.8057 4.7769 -2.2835 0.9788
-0.0508 4.5587 -2.1490 0.9800
-0.8144 4.2486 -2.0391 0.9811
-1.1623 4.0647 -1.9928 0.9815
-1.7927 3.6482 -1.9161 0.9822
-2.0764 3.4183 -1.8852 0.9825
-2.5829 2.9205 -1.8378 0.9829
-3.0108 2.3776 -1.8084 0.9832
-3.3620 1.7940 -1.7963 0.9833
-3.6367 1.1726 -1.8011 0.9832
-2.2973 0.3090 -1.0926 0.9898
-2.3694 -0.1056 -1.1180 0.9896
-2.3894 -0.5414 -1.1548 0.9892
-2.3945 -0.7721 -1.1859 0.9889
-2.4109 -1.0223 -1.2344 0.9885
-3.8303 -2.0439 -2.0465 0.9810
-3.5930 -2.8373 -2.1581 0.9800
-3.4263 -3.2406 -2.2230 0.9794
-2.6777 -4.4081 -2.4312 0.9775
-2.3552 -4.7926 -2.5172 0.9767
-1.9940 -5.1772 -2.6152 0.9758
-1.1313 -5.9019 -2.8327 0.9738
-0.6268 -6.2307 -2.9518 0.9727
-0.0727 -6.5277 -3.0772 0.9715
1.1797 -6.9935 -3.3432 0.9691
2.5993 -7.2250 -3.6194 0.9666
3.3542 -7.2281 -3.7562 0.9654
4.1243 -7.1434 -3.8882 0.9642
4.8949 -6.9631 -4.0121 0.9631
5.6492 -6.6819 -4.1245 0.9620
6.3681 -6.2975 -4.2217 0.9612
7.0318 -5.8119 -4.3003 0.9605
7.6205 -5.2315 -4.3572 0.9599
3.2947 -1.8535 -1.7819 0.9834
3.2362 -1.4581 -1.6731 0.9844
3.2983 -1.1453 -1.6458 0.9847
8.6612 0.1930 -4.0837 0.9624
8.3628 0.9355 -3.9666 0.9635
7.9817 1.6224 -3.8393 0.9646
7.0322 2.7987 -3.5677 0.9671
6.4930 3.2811 -3.4292 0.9683
5.9372 3.6978 -3.2971 0.9695
4.7747 4.3185 -3.0347 0.9719
3.6235 4.6951 -2.7956 0.9741
3.0665 4.8036 -2.6863 0.9751
2.5270 4.8653 -2.5843 0.9760
2.0074 4.8849 -2.4894 0.9769
0.5828 4.7321 -2.2474 0.9791
0.1545 4.6226 -2.1802 0.9798
-0.2503 4.4890 -2.1193 0.9803
-1.3280 3.9664 -1.9717 0.9817
-2.2106 3.2984 -1.8716 0.9826
-2.6972 2.7888 -1.8288 0.9830
-2.9111 2.5173 -1.8141 0.9831
-3.4378 1.6422 -1.7959 0.9833
-3.6932 1.0117 -1.8050 0.9832
-2.3515 0.4237 -1.1263 0.9895
-2.3082 -0.4158 -1.1536 0.9896
-3.5360 -2.5450 -2.1428 0.9808
-3.3878 -2.9295 -2.2029 0.9802
-2.9914 -3.7025 -2.3412 0.9790
-2.0884 -4.7763 -2.5640 0.9770
-1.7177 -5.1304 -2.6611 0.9762
-0.8435 -5.7832 -2.8746 0.9743
-0.3385 -6.0701 -2.9903 0.9733
0.2113 -6.3215 -3.1110 0.9722
0.8042 -6.5295 -3.2358 0.9711
1.4366 -6.6856 -3.3634 0.9700
2.7972 -6.8066 -3.6195 0.9677
4.9310 -6.3893 -3.9697 0.9647
6.2510 -5.6537 -4.1456 0.9631
6.8296 -5.1504 -4.2073 0.9626
7.3317 -4.5662 -4.2484 0.9622
3.4045 -1.0146 -1.7473 0.9843
3.6316 -0.7381 -1.8227 0.9836
8.1939 -0.1826 -4.0312 0.9641
7.6686 1.2058 -3.8182 0.9660
7.2934 1.8242 -3.6978 0.9670
6.8607 2.3823 -3.5721 0.9681
6.3838 2.8764 -3.4439 0.9693
5.8855 3.3111 -3.3215 0.9703
5.3547 3.6759 -3.1946 0.9715
4.8129 3.9780 -3.0712 0.9725
4.2681 4.2208 -2.9524 0.9736
2.1710 4.6783 -2.5367 0.9773
-0.0490 4.3980 -2.1633 0.9806
-0.7871 4.1062 -2.0564 0.9815
-1.4404 3.7400 -1.9712 0.9823
-1.7362 3.5331 -1.9362 0.9826
-2.2680 3.0780 -1.8805 0.9831
-2.7223 2.5747 -1.8429 0.9834
-2.9210 2.3067 -1.8307 0.9835
-3.2623 1.7408 -1.8187 0.9837
-3.4050 1.4438 -1.8190 0.9836
-2.5041 0.5674 -1.2629 0.9886
-2.2513 0.3028 -1.1173 0.9899
-2.3022 -0.1026 -1.1335 0.9898
-2.3142 -0.5243 -1.1671 0.9895
-2.3375 -0.9912 -1.2488 0.9887
-3.4658 -2.7369 -2.1721 0.9805
-3.3016 -3.1226 -2.2351 0.9799
-3.1036 -3.5093 -2.3043 0.9793
-2.8697 -3.8947 -2.3795 0.9787
-2.5718 -4.2336 -2.4364 0.9782
-1.9085 -4.9551 -2.6117 0.9766
-0.5966 -5.9306 -2.9318 0.9738
0.5026 -6.4315 -3.1730 0.9717
2.4475 -6.8030 -3.5560 0.9683
3.1513 -6.7907 -3.6822 0.9672
4.5798 -6.5148 -3.9169 0.9651
5.2759 -6.2404 -4.0193 0.9642
5.9381 -5.8723 -4.1077 0.9635
6.5489 -5.4128 -4.1789 0.9628
7.0912 -4.8678 -4.2305 0.9624
3.3750 -1.8987 -1.9047 0.9829
3.8247 -0.6014 -1.9043 0.9829
8.2693 -0.5535 -4.0764 0.9637
7.4890 1.5222 -3.7588 0.9665
6.6270 2.6375 -3.5082 0.9687
6.1326 3.0989 -3.3796 0.9698
5.0847 3.8346 -3.1324 0.9720
3.9966 4.3211 -2.8950 0.9741
2.4206 4.6605 -2.5830 0.9769
0.1490 4.4574 -2.1936 0.9803
-0.6106 4.1867 -2.0810 0.9813
-1.2849 3.8377 -1.9906 0.9821
-2.1424 3.1966 -1.8927 0.9830
-2.3887 2.9565 -1.8695 0.9832
-2.6158 2.7047 -1.8507 0.9834
-3.0133 2.1689 -1.8261 0.9836
-3.1840 1.8859 -1.8202 0.9836
-3.5832 0.9816 -1.8273 0.9836
-2.2416 -0.4038 -1.1677 0.9898
-2.2593 -0.8414 -1.2360 0.9892
-2.2721 -1.0853 -1.2909 0.9887
-3.5314 -2.0916 -2.1042 0.9817
-3.0908 -3.1958 -2.2793 0.9802
-2.8797 -3.5643 -2.3492 0.9796
-2.3237 -4.2402 -2.4788 0.9785
-1.6446 -4.9122 -2.6557 0.9770
-1.2456 -5.2266 -2.7546 0.9761
-0.8048 -5.5184 -2.8591 0.9752
-0.3224 -5.7815 -2.9686 0.9743
1.3602 -6.3301 -3.3193 0.9713
2.6378 -6.4187 -3.5577 0.9693
3.3018 -6.3571 -3.6725 0.9683
3.9684 -6.2163 -3.7810 0.9674
5.2556 -5.6823 -3.9681 0.9658
6.8462 -4.2638 -4.1349 0.9644
3.4584 -1.0307 -1.8501 0.9839
7.6773 -0.1711 -3.9369 0.9661
7.2091 1.1336 -3.7413 0.9677
6.0367 2.7200 -3.3945 0.9707
5.5785 3.1385 -3.2815 0.9716
5.0856 3.4911 -3.1625 0.9727
4.5799 3.7854 -3.0462 0.9736
4.0691 4.0240 -2.9339 0.9746
2.5629 4.4390 -2.6278 0.9772
2.0834 4.4897 -2.5375 0.9780
1.1742 4.4818 -2.3752 0.9794
-0.0473 4.2458 -2.1768 0.9811
-0.7612 3.9710 -2.0728 0.9820
-1.0879 3.8047 -2.0287 0.9824
-1.3949 3.6217 -1.9897 0.9827
-2.1994 2.9851 -1.9009 0.9835
-2.4298 2.7474 -1.8803 0.9836
-2.6416 2.4984 -1.8640 0.9838
-2.8350 2.2388 -1.8520 0.9839
-3.1669 1.6899 -1.8403 0.9840
-3.3053 1.4016 -1.8406 0.9840
-2.4709 0.5598 -1.2989 0.9887
-2.2093 0.2971 -1.1428 0.9900
-2.2319 0.0995 -1.1453 0.9900
-2.2425 -0.5081 -1.1788 0.9897
-2.3837 -1.2720 -1.3852 0.9879
-3.4767 -2.2743 -2.1299 0.9815
-3.3455 -2.6419 -2.1854 0.9810
-3.1837 -3.0111 -2.2465 0.9805
-2.9895 -3.3803 -2.3135 0.9799
-2.7612 -3.7474 -2.3864 0.9793
-2.1667 -4.4091 -2.5186 0.9782
-1.8287 -4.7481 -2.6085 0.9774
-1.0304 -5.3757 -2.8062 0.9757
-0.5688 -5.6539 -2.9132 0.9748
-0.0657 -5.9003 -3.0251 0.9738
0.4773 -6.1079 -3.1409 0.9728
1.0575 -6.2692 -3.2595 0.9718
1.6706 -6.3765 -3.3794 0.9708
2.9688 -6.3975 -3.6157 0.9688
4.2986 -6.1149 -3.8320 0.9670
4.9441 -5.8479 -3.9259 0.9662
5.5570 -5.4954 -4.0067 0.9655
6.1218 -5.0598 -4.0717 0.9649
6.6234 -4.5467 -4.1187 0.9645
3.5597 -2.0027 -2.0939 0.9818
3.3405 -1.5052 -1.8784 0.9837
3.3981 -1.1799 -1.8441 0.9840
3.5588 -0.8901 -1.8807 0.9836
7.7425 -0.5183 -3.9782 0.9657
7.5901 0.1692 -3.8922 0.9664
7.3547 0.8228 -3.7941 0.9673
7.0468 1.4324 -3.6866 0.9682
6.2603 2.4916 -3.4543 0.9702
2.3213 4.4693 -2.5819 0.9776
0.9583 4.4595 -2.3385 0.9797
-0.9271 3.8901 -2.0501 0.9822
-1.8187 3.3187 -1.9401 0.9831
-2.7406 2.3699 -1.8575 0.9838
-2.9248 2.1052 -1.8475 0.9839
-3.2384 1.5469 -1.8399 0.9840
-3.3676 1.2541 -1.8423 0.9840
-2.2093 0.1974 -1.1372 0.9901
-2.1765 0.0000 -1.1619 0.9902
-2.1932 -0.8168 -1.2494 0.9894
-2.2033 -1.0524 -1.3035 0.9890
-2.2346 -4.0775 -2.4822 0.9791
-1.9224 -4.3966 -2.5617 0.9785
-0.7690 -5.2728 -2.8446 0.9761
0.1913 -5.7220 -3.0564 0.9744
0.7252 -5.8879 -3.1670 0.9735
2.4933 -6.0671 -3.5017 0.9707
4.3495 -5.6358 -3.8004 0.9682
5.4852 -4.9611 -3.9483 0.9670
5.9820 -4.5113 -3.9998 0.9666
6.4141 -3.9947 -4.0339 0.9663
3.5395 -1.7886 -2.1171 0.9822
3.8815 -0.7890 -2.1145 0.9822
7.3065 -0.8173 -3.9249 0.9672
7.2146 -0.1607 -3.8524 0.9678
7.0412 0.4714 -3.7673 0.9685
6.7949 1.0685 -3.6720 0.9693
6.4857 1.6222 -3.5690 0.9701
5.7203 2.5775 -3.3494 0.9720
4.8383 3.3213 -3.1329 0.9737
4.3650 3.6078 -3.0231 0.9746
3.4038 4.0261 -2.8145 0.9764
2.9270 4.1637 -2.7170 0.9772
2.0013 4.3128 -2.5382 0.9787
0.7204 4.2710 -2.3122 0.9806
-1.0534 3.6839 -2.0455 0.9828
-1.6307 3.3184 -1.9738 0.9834
-1.8915 3.1138 -1.9449 0.9836
-2.1339 2.8961 -1.9204 0.9838
-2.3581 2.6664 -1.9002 0.9840
-2.5643 2.4254 -1.8842 0.9841
-2.7526 2.1737 -1.8724 0.9842
-2.9230 1.9121 -1.8646 0.9843
-3.2098 1.3611 -1.8612 0.9843
-3.3259 1.0725 -1.8655 0.9843
-2.1681 0.2916 -1.1679 0.9901
-2.1765 -0.0970 -1.1631 0.9902
-2.1912 -0.7066 -1.2291 0.9896
-2.2448 -1.1978 -1.3583 0.9885
-3.3610 -2.1986 -2.1440 0.9820
-3.2313 -2.5517 -2.1980 0.9815
-3.0721 -2.9056 -2.2574 0.9810
-2.6586 -3.6082 -2.3926 0.9799
-2.3799 -3.9179 -2.4472 0.9794
-2.0813 -4.2353 -2.5192 0.9788
-0.9854 -5.1407 -2.7943 0.9765
-0.5430 -5.3978 -2.8961 0.9757
1.0042 -5.9531 -3.2229 0.9730
2.1857 -6.0754 -3.4469 0.9711
2.8036 -6.0416 -3.5556 0.9703
3.4274 -5.9364 -3.6594 0.9694
4.6469 -5.4963 -3.8423 0.9679
5.7409 -4.7450 -3.9761 0.9668
6.6022 -3.7144 -4.0441 0.9662
7.1375 0.1591 -3.8113 0.9681
6.9266 0.7749 -3.7208 0.9689
6.6476 1.3512 -3.6213 0.9697
6.3108 1.8808 -3.5154 0.9706
5.9268 2.3588 -3.4054 0.9715
5.5085 2.7836 -3.2948 0.9724
4.6029 3.4712 -3.0777 0.9742
4.1254 3.7312 -2.9695 0.9751
0.9234 4.2971 -2.3463 0.9803
0.1389 4.1530 -2.2183 0.9813
-0.5709 3.9146 -2.1118 0.9822
-1.7634 3.2178 -1.9588 0.9835
-2.0149 3.0065 -1.9321 0.9837
-2.4635 2.5472 -1.8917 0.9841
-3.0015 1.7778 -1.8623 0.9843
-3.3770 0.9251 -1.8692 0.9842
-2.2057 0.3974 -1.1965 0.9899
-2.1547 0.1926 -1.1549 0.9902
-2.1202 -0.1895 -1.1823 0.9903
-2.1288 -0.5831 -1.2259 0.9900
-1.8471 -4.2243 -2.5606 0.9791
-1.1422 -4.7927 -2.7364 0.9777
0.1824 -5.4564 -3.0322 0.9753
1.2264 -5.7073 -3.2422 0.9736
2.9461 -5.6723 -3.5500 0.9712
4.6491 -5.0265 -3.8028 0.9692
5.1607 -4.6676 -3.8647 0.9687
6.0269 -3.7536 -3.9434 0.9680
6.3600 -3.2139 -3.9577 0.9679
3.5667 -1.4195 -2.1320 0.9826
6.8767 -0.7693 -3.8431 0.9688
6.7975 -0.1515 -3.7762 0.9694
6.6426 0.4447 -3.6975 0.9700
5.4307 2.4470 -3.3082 0.9731
4.6101 3.1646 -3.1056 0.9747
4.1660 3.4433 -3.0018 0.9756
3.7137 3.6725 -2.9008 0.9764
3.2589 3.8546 -2.8034 0.9772
2.3605 4.0886 -2.6221 0.9786
1.9242 4.1465 -2.5388 0.9793
1.4999 4.1691 -2.4608 0.9799
1.0897 4.1595 -2.3881 0.9805
0.6950 4.1204 -2.3208 0.9811
0.3168 4.0546 -2.2587 0.9816
-0.0442 3.9644 -2.2019 0.9820
-0.7130 3.7195 -2.1034 0.9828
-1.3099 3.4010 -2.0241 0.9835
-1.5814 3.2180 -1.9914 0.9837
-1.8351 3.0210 -1.9631 0.9840
-2.0710 2.8108 -1.9391 0.9842
-2.2894 2.5887 -1.9193 0.9843
-2.4902 2.3552 -1.9036 0.9844
-2.6735 2.1113 -1.8920 0.9845
-2.9876 1.5943 -1.8807 0.9846
-3.1181 1.3222 -1.8810 0.9846
-3.2307 1.0418 -1.8853 0.9846
-2.4040 0.5447 -1.3690 0.9888
-2.1264 0.2860 -1.1916 0.9902
-2.1192 -0.0945 -1.1782 0.9903
-2.1237 -0.2856 -1.1901 0.9902
-2.1317 -0.6874 -1.2440 0.9898
-2.1353 -0.9054 -1.2881 0.9894
-2.2935 -3.7756 -2.4535 0.9800
-1.6843 -4.3731 -2.6027 0.9788
-1.3319 -4.6578 -2.6906 0.9781
0.4326 -5.5362 -3.0842 0.9749
0.9552 -5.6625 -3.1893 0.9741
1.5035 -5.7389 -3.2949 0.9732
2.0720 -5.7593 -3.3994 0.9724
2.6533 -5.7178 -3.5009 0.9716
3.2387 -5.6095 -3.5975 0.9708
4.3789 -5.1794 -3.7669 0.9694
5.8335 -4.0045 -3.9298 0.9681
3.6247 -1.6332 -2.2081 0.9820
3.8799 -0.9704 -2.2213 0.9819
6.8860 -1.0828 -3.8715 0.9686
6.8470 -0.4583 -3.8113 0.9691
6.7291 0.1500 -3.7382 0.9697
6.5391 0.7315 -3.6544 0.9703
5.9762 1.7811 -3.4634 0.9719
5.6219 2.2375 -3.3606 0.9727
4.8270 3.0063 -3.1583 0.9743
4.3895 3.3103 -3.0534 0.9752
3.4862 3.7693 -2.8516 0.9768
3.0321 3.9288 -2.7563 0.9775
2.1410 4.1221 -2.5798 0.9790
0.5038 4.0907 -2.2891 0.9813
-0.2181 3.9108 -2.1754 0.9822
-0.5525 3.7881 -2.1262 0.9826
-1.1674 3.4868 -2.0422 0.9833
-1.4478 3.3113 -2.0072 0.9836
-1.9552 2.9174 -1.9506 0.9841
-2.5840 2.2345 -1.8973 0.9845
-2.9157 1.7270 -1.8821 0.9846
-2.1018 0.1878 -1.1720 0.9904
-2.0684 -0.1848 -1.1990 0.9905
-2.0734 -0.7721 -1.2774 0.9898
-2.0740 -0.9907 -1.3270 0.9894
-2.1172 -1.2540 -1.4207 0.9887
-2.9462 -2.5477 -2.2488 0.9822
-2.7781 -2.8725 -2.3072 0.9817
-2.3506 -3.5073 -2.4377 0.9807
-1.7761 -4.0621 -2.5597 0.9797
-1.4526 -4.3387 -2.6416 0.9791
-1.0954 -4.5965 -2.7281 0.9784
