ply
format ascii 1.0
element vertex 1590
property float32 x
property float32 y
property float32 z
property float32 I
end_header
-9.3375 -10.5580 -1.7663 0.9448
-0.8785 -3.0725 -0.4005 0.9872
-0.4844 -2.5271 -0.3225 0.9897
-0.2353 -2.3393 -0.2946 0.9906
0.3545 -2.1017 -0.2671 0.9914
0.5418 -2.0679 -0.2679 0.9914
0.7421 -2.0625 -0.2747 0.9912
0.9653 -2.0801 -0.2874 0.9908
2.9091 13.5377 -1.7352 0.9457
0.3882 11.6116 -1.4559 0.9542
-0.6010 10.7797 -1.3530 0.9574
-2.2131 9.2865 -1.1963 0.9622
-2.8777 8.5954 -1.1359 0.9641
-3.4706 7.9375 -1.0856 0.9657
-4.2668 7.7859 -1.1126 0.9648
-4.7844 7.1389 -1.0769 0.9659
-5.2565 6.5060 -1.0482 0.9668
-7.1160 3.3991 -0.9883 0.9687
-7.4124 2.7604 -0.9912 0.9686
-3.3944 -0.0000 -0.4828 0.9864
-3.5139 -0.3140 -0.5018 0.9858
-8.4594 -2.3172 -1.2476 0.9652
-8.5731 -3.1927 -1.3012 0.9637
-8.6177 -5.1042 -1.4246 0.9603
-8.6477 -6.2242 -1.5155 0.9579
-0.1265 -2.2687 -0.3232 0.9909
0.6407 -2.0655 -0.3076 0.9913
0.8473 -2.0617 -0.3171 0.9910
1.5455 5.8991 -0.8674 0.9757
2.0086 11.9080 -1.7177 0.9524
0.8681 11.1093 -1.5850 0.9560
-0.1155 10.3693 -1.4750 0.9590
-1.7290 9.0202 -1.3064 0.9636
-2.9947 7.7756 -1.1852 0.9669
-4.7582 6.4579 -1.1410 0.9681
-5.1925 5.8713 -1.1149 0.9688
-5.9593 4.7060 -1.0801 0.9698
-6.6137 3.5292 -1.0663 0.9702
-6.9051 2.9281 -1.0668 0.9702
-7.1752 2.3137 -1.0723 0.9700
-4.1432 0.9387 -0.6042 0.9830
-3.3671 0.4528 -0.4832 0.9864
-8.3900 -1.9009 -1.2236 0.9658
-8.6371 -5.6502 -1.4680 0.9592
-0.4831 -2.5203 -0.3650 0.9897
-0.2350 -2.3355 -0.3339 0.9906
-0.0248 -2.2245 -0.3164 0.9911
0.1674 -2.1426 -0.3057 0.9914
0.3544 -2.1009 -0.3030 0.9914
1.4164 11.5004 -1.6481 0.9543
0.3589 10.7328 -1.5274 0.9575
-1.3628 9.3439 -1.3431 0.9626
-2.0731 8.6993 -1.2720 0.9645
-2.7043 8.0775 -1.2116 0.9662
-3.2704 7.4796 -1.1611 0.9676
-4.0294 7.3527 -1.1926 0.9667
-5.7791 4.9974 -1.0867 0.9696
-7.0427 2.6228 -1.0689 0.9701
-3.3525 0.2996 -0.4787 0.9865
-3.2915 0.0000 -0.5241 0.9868
-7.9920 -2.1892 -1.3195 0.9670
-8.0869 -3.0116 -1.3741 0.9657
-8.0442 -3.8423 -1.4195 0.9645
-8.0714 -5.8095 -1.5836 0.9605
-7.7603 -9.6050 -1.9663 0.9512
-7.5200 -11.2206 -2.1509 0.9468
0.2612 -2.1207 -0.3403 0.9914
0.4468 -2.0793 -0.3387 0.9914
0.8480 -2.0635 -0.3553 0.9910
1.0935 -2.1054 -0.3778 0.9904
6.1728 13.3020 -2.3351 0.9423
4.4829 12.4603 -2.1086 0.9478
-0.1076 9.6600 -1.5383 0.9616
-0.9107 9.0527 -1.4488 0.9638
-3.5602 7.2448 -1.2854 0.9678
-4.0603 6.6842 -1.2453 0.9688
-4.9346 5.5797 -1.1861 0.9703
-5.3186 5.0303 -1.1657 0.9708
-6.2988 3.3612 -1.1369 0.9715
-6.5763 2.7886 -1.1374 0.9715
-6.8318 2.2030 -1.1430 0.9713
-3.9744 0.9005 -0.6489 0.9836
-7.9349 -1.7978 -1.2956 0.9676
-8.0430 -2.5935 -1.3457 0.9664
-8.0409 -3.4096 -1.3907 0.9652
-7.3584 -12.1137 -2.2569 0.9442
-0.2346 -2.3318 -0.3732 0.9906
-0.0248 -2.2223 -0.3539 0.9910
0.1674 -2.1417 -0.3421 0.9913
0.5419 -2.0685 -0.3405 0.9914
5.2896 12.8715 -2.2159 0.9452
3.7430 12.0663 -2.0117 0.9501
1.2938 6.0209 -0.9806 0.9754
1.3090 10.6284 -1.7052 0.9576
0.3335 9.9743 -1.5892 0.9604
-1.2774 8.7584 -1.4094 0.9648
-2.5498 7.6159 -1.2789 0.9680
-3.1369 7.1742 -1.2468 0.9688
-3.8160 6.9635 -1.2644 0.9683
-4.2936 6.4065 -1.2281 0.9692
-5.4990 4.7552 -1.1576 0.9710
-5.8384 4.2022 -1.1455 0.9713
-3.5500 0.6396 -0.5744 0.9855
-3.2817 -0.2932 -0.5810 0.9867
-7.5715 -2.0740 -1.3842 0.9686
-7.5647 -5.4447 -1.6434 0.9629
-7.4888 -6.4758 -1.7457 0.9606
-7.1639 -8.8668 -2.0100 0.9548
-6.8890 -10.2791 -2.1819 0.9510
-0.6452 -2.7076 -0.4908 0.9888
-0.3525 -2.4174 -0.4308 0.9901
0.0728 -2.1778 -0.3842 0.9912
0.8488 -2.0653 -0.3937 0.9910
1.0946 -2.1074 -0.4187 0.9904
4.0967 11.3869 -2.1338 0.9520
1.7146 10.1649 -1.8177 0.9590
-2.6763 6.9490 -1.3130 0.9702
-3.3774 6.8730 -1.3503 0.9694
-4.2973 5.8324 -1.2774 0.9710
-4.7000 5.3144 -1.2510 0.9716
-5.0698 4.7951 -1.2305 0.9721
-5.7231 3.7439 -1.2059 0.9726
-6.5182 2.1019 -1.2076 0.9726
-3.8238 0.8663 -0.6913 0.9842
-3.1779 0.4274 -0.5654 0.9871
-3.2276 -0.1439 -0.5697 0.9870
-3.3507 -0.4506 -0.5961 0.9864
-7.6118 -2.4545 -1.4102 0.9680
-7.5962 -4.0534 -1.5182 0.9656
-6.7176 -11.0587 -2.2815 0.9488
-0.9325 -3.2613 -0.5981 0.9863
-0.4854 -2.5322 -0.4546 0.9896
-0.0247 -2.2202 -0.3915 0.9910
0.1673 -2.1408 -0.3786 0.9913
0.5420 -2.0687 -0.3771 0.9914
0.9679 -2.0857 -0.4054 0.9907
1.2414 -2.1501 -0.4378 0.9900
1.6567 -2.3566 -0.5079 0.9884
6.4340 12.3876 -2.4613 0.9449
3.4342 11.0707 -2.0438 0.9540
1.2163 9.8756 -1.7545 0.9604
0.3114 9.3128 -1.6430 0.9629
-1.8384 7.7145 -1.3984 0.9683
-3.1008 7.0919 -1.3648 0.9691
-4.0825 6.0916 -1.2930 0.9707
-6.1463 2.9359 -1.2011 0.9727
-6.3997 2.3833 -1.2042 0.9726
-4.2904 1.1753 -0.7844 0.9821
-3.1509 0.2816 -0.5578 0.9872
-7.1872 -3.4331 -1.5415 0.9681
-7.1668 -4.2449 -1.6119 0.9666
-6.8664 -7.0999 -1.9114 0.9606
-6.6498 -8.2305 -2.0477 0.9578
-5.9640 -10.8829 -2.4016 0.9507
-0.3536 -2.4247 -0.4742 0.9901
-0.1263 -2.2658 -0.4391 0.9908
0.0728 -2.1757 -0.4213 0.9912
1.4188 -2.2226 -0.5103 0.9893
5.1041 10.9991 -2.3465 0.9518
3.7701 10.4790 -2.1551 0.9556
2.6116 9.9681 -1.9941 0.9589
0.7012 8.9738 -1.7419 0.9640
-0.8060 8.0120 -1.5583 0.9677
-1.4441 7.5339 -1.4845 0.9692
-2.0193 7.0620 -1.4214 0.9705
-2.5461 6.6108 -1.3709 0.9716
-3.2116 6.5355 -1.4092 0.9708
-4.0972 5.5608 -1.3367 0.9723
-4.4855 5.0718 -1.3102 0.9728
-5.4709 3.5789 -1.2651 0.9737
-6.0001 2.5442 -1.2612 0.9738
-3.6833 0.8345 -0.7309 0.9847
-3.1048 0.4176 -0.6062 0.9873
-3.0751 0.1371 -0.5957 0.9875
-3.1273 -0.1394 -0.6058 0.9873
-3.2339 -0.4349 -0.6315 0.9868
-7.1525 -1.6205 -1.4192 0.9706
-7.2224 -2.3289 -1.4685 0.9696
-7.2109 -3.0577 -1.5157 0.9686
-7.1463 -4.6749 -1.6526 0.9658
-6.7670 -7.6515 -1.9767 0.9592
-6.5130 -8.8395 -2.1248 0.9563
-6.1708 -10.1585 -2.3001 0.9527
-5.7235 -11.6469 -2.5113 0.9485
-0.2350 -2.3358 -0.4543 0.9905
5.8494 11.2621 -2.4559 0.9496
1.2844 5.9772 -1.1831 0.9754
-1.1335 7.7721 -1.5200 0.9685
-1.7390 7.2973 -1.4517 0.9699
-3.8903 5.8046 -1.3522 0.9719
-4.2955 5.3166 -1.3227 0.9725
-5.3235 3.8317 -1.2693 0.9736
-3.3306 0.6000 -0.6549 0.9863
-3.0639 0.2738 -0.5953 0.9875
-3.2303 -0.5820 -0.6920 0.9867
-6.8446 -1.8749 -1.4961 0.9714
-6.8853 -2.5641 -1.5490 0.9704
-6.8202 -3.2577 -1.5934 0.9696
-6.7816 -4.0167 -1.6617 0.9683
-6.6004 -5.7076 -1.8396 0.9650
-4.9848 -11.4005 -2.6232 0.9504
-0.6502 -2.7286 -0.5914 0.9886
-0.3547 -2.4321 -0.5182 0.9900
0.0728 -2.1756 -0.4589 0.9911
0.2609 -2.1181 -0.4499 0.9913
0.4463 -2.0767 -0.4478 0.9914
0.6411 -2.0666 -0.4562 0.9912
0.8502 -2.0689 -0.4716 0.9909
1.4222 -2.2279 -0.5572 0.9893
4.6939 10.1152 -2.3509 0.9554
3.4901 9.7006 -2.1734 0.9587
2.4312 9.2796 -2.0223 0.9615
-0.7614 7.5690 -1.6037 0.9694
-1.3679 7.1363 -1.5319 0.9707
-3.0604 6.2278 -1.4629 0.9720
-4.6325 4.3815 -1.3443 0.9743
-5.2385 3.4269 -1.3197 0.9747
-5.5039 2.9370 -1.3152 0.9748
-5.7460 2.4365 -1.3158 0.9748
-3.0346 0.4081 -0.6455 0.9876
-2.9940 0.1335 -0.6318 0.9878
-3.0505 -0.1360 -0.6438 0.9876
-6.3263 -7.1533 -2.0132 0.9617
-6.0589 -8.2232 -2.1534 0.9591
-4.6757 -12.1401 -2.7426 0.9482
-3.9324 -13.7525 -3.0155 0.9432
-0.0248 -2.2228 -0.4686 0.9910
0.3538 -2.0974 -0.4484 0.9913
0.5421 -2.0693 -0.4510 0.9913
0.9696 -2.0894 -0.4856 0.9906
1.6749 -2.3826 -0.6140 0.9882
8.5467 11.0742 -2.9491 0.9444
4.0722 9.9090 -2.2585 0.9572
2.9442 9.4910 -2.0949 0.9602
1.2828 5.9695 -1.2872 0.9753
1.0643 8.6411 -1.8355 0.9650
0.2746 8.2140 -1.7326 0.9670
-1.0723 7.3526 -1.5665 0.9701
-1.6492 6.9203 -1.4998 0.9713
-2.1725 6.4890 -1.4427 0.9724
-3.2879 5.9997 -1.4423 0.9724
-4.1051 5.0810 -1.3771 0.9737
-4.4641 4.6159 -1.3538 0.9741
-4.7939 4.1455 -1.3361 0.9744
-5.3742 3.1831 -1.3168 0.9748
-6.3530 -4.5726 -1.7866 0.9684
-6.2272 -5.3849 -1.8790 0.9668
-6.0487 -6.2544 -1.9859 0.9649
-5.8084 -7.1892 -2.1095 0.9628
-5.4950 -8.1991 -2.2528 0.9603
-5.0944 -9.2962 -2.4195 0.9574
-3.9565 -11.8175 -2.8444 0.9502
-0.6528 -2.7393 -0.6427 0.9885
-0.3558 -2.4396 -0.5627 0.9899
0.0729 -2.1817 -0.4982 0.9911
0.8510 -2.0708 -0.5110 0.9909
5.5735 9.6536 -2.5442 0.9553
4.3361 9.3441 -2.3512 0.9586
3.2417 9.0106 -2.1856 0.9615
0.6205 7.9411 -1.8180 0.9678
-0.0842 7.5595 -1.7255 0.9695
-1.8240 6.3791 -1.5143 0.9731
-2.9219 5.9459 -1.5121 0.9732
-3.7449 5.0827 -1.4410 0.9744
-4.1068 4.6436 -1.4149 0.9749
-4.4391 4.1985 -1.3946 0.9752
-4.7441 3.7465 -1.3797 0.9755
-5.0236 3.2863 -1.3702 0.9757
-3.4289 0.7769 -0.8025 0.9857
-2.9453 0.1313 -0.6729 0.9880
-2.9994 -0.1337 -0.6853 0.9878
-3.0959 -0.4164 -0.7130 0.9873
-6.5352 -2.7712 -1.6202 0.9713
-5.9370 -6.7130 -2.0455 0.9639
-5.6616 -7.6840 -2.1785 0.9616
-5.3067 -8.7361 -2.3330 0.9589
-4.8558 -9.8812 -2.5129 0.9558
-4.2906 -11.1404 -2.7248 0.9522
-3.5809 -12.5233 -2.9729 0.9480
-0.4906 -2.5597 -0.5949 0.9894
-0.2364 -2.3495 -0.5390 0.9904
-0.0248 -2.2292 -0.5088 0.9909
0.3536 -2.0965 -0.4853 0.9913
0.7427 -2.0642 -0.5007 0.9910
0.9705 -2.0913 -0.5262 0.9906
1.2497 -2.1646 -0.5705 0.9898
9.4811 10.2508 -3.1870 0.9443
7.7571 10.0511 -2.8979 0.9492
4.9354 9.5024 -2.4439 0.9570
3.7725 9.1799 -2.2653 0.9601
2.7462 8.8530 -2.1156 0.9627
1.0011 8.1282 -1.8692 0.9670
0.2592 7.7523 -1.7704 0.9687
-1.5676 6.5780 -1.5434 0.9726
-2.1025 6.2798 -1.5115 0.9732
-3.5521 5.3002 -1.4563 0.9742
-3.9297 4.8639 -1.4272 0.9747
-4.2765 4.4219 -1.4040 0.9751
-5.1542 3.0529 -1.3673 0.9757
-2.9277 0.2616 -0.6709 0.9880
-2.9221 0.0000 -0.7183 0.9880
-2.9882 -0.2670 -0.7374 0.9877
-3.1004 -0.5586 -0.7743 0.9871
-6.1811 -2.9525 -1.6837 0.9722
-6.1169 -3.6230 -1.7475 0.9711
-5.8916 -5.0947 -1.9145 0.9684
-5.7052 -5.8992 -2.0172 0.9668
-5.1436 -7.6748 -2.2709 0.9627
-4.7462 -8.6604 -2.4274 0.9601
-4.2508 -9.7219 -2.6081 0.9572
-0.3569 -2.4472 -0.6079 0.9899
-0.1274 -2.2858 -0.5627 0.9906
0.2618 -2.1256 -0.5264 0.9912
0.8518 -2.0726 -0.5508 0.9908
1.0987 -2.1153 -0.5859 0.9902
1.4291 -2.2386 -0.6528 0.9891
10.0363 9.9251 -3.4695 0.9435
7.8256 9.2562 -2.9793 0.9513
5.1524 8.9242 -2.5329 0.9584
3.0291 8.4194 -2.1993 0.9638
1.3209 7.8310 -1.9521 0.9678
0.5863 7.5023 -1.8497 0.9695
-0.0798 7.1600 -1.7600 0.9709
-0.6848 6.8078 -1.6818 0.9722
-1.2360 6.4480 -1.6138 0.9733
-2.7944 5.6865 -1.5574 0.9742
-3.9386 4.4535 -1.4614 0.9758
-4.2599 4.0290 -1.4412 0.9761
-4.5546 3.5968 -1.4265 0.9764
-4.8242 3.1559 -1.4170 0.9765
-5.0700 2.7054 -1.4125 0.9766
-5.2928 2.2444 -1.4131 0.9766
-5.4932 1.7713 -1.4187 0.9765
-3.3132 0.7507 -0.8350 0.9861
-2.8899 0.3887 -0.7167 0.9881
-2.8978 0.1292 -0.7130 0.9881
-2.9494 -0.1315 -0.7257 0.9879
-6.2499 -2.0153 -1.6141 0.9733
-6.2397 -2.6458 -1.6659 0.9725
-6.1469 -3.2801 -1.7126 0.9717
-5.8053 -5.4906 -1.9641 0.9676
-5.3109 -7.2079 -2.2007 0.9638
-4.9559 -8.1585 -2.3464 0.9614
-4.5117 -9.1811 -2.5145 0.9587
-3.2839 -11.4845 -2.9360 0.9520
-0.2371 -2.3566 -0.5822 0.9903
-0.0249 -2.2357 -0.5496 0.9908
0.3545 -2.1015 -0.5239 0.9913
0.5424 -2.0702 -0.5260 0.9912
0.7428 -2.0645 -0.5393 0.9910
0.9714 -2.0933 -0.5672 0.9905
1.2526 -2.1695 -0.6158 0.9897
9.1583 9.9019 -3.3153 0.9460
7.0965 9.1951 -2.8550 0.9533
5.7628 9.0272 -2.6325 0.9568
4.5762 8.8107 -2.4403 0.9599
3.5166 8.5572 -2.2740 0.9626
2.5671 8.2755 -2.1297 0.9649
0.9445 7.6686 -1.8992 0.9687
0.2452 7.3326 -1.8034 0.9702
-0.3894 6.9850 -1.7196 0.9716
-0.9667 6.6288 -1.6466 0.9728
-1.4931 6.2656 -1.5832 0.9738
-2.0919 6.2483 -1.6196 0.9732
-2.5738 5.8865 -1.5792 0.9739
-4.1027 4.2422 -1.4506 0.9760
-4.4105 3.8139 -1.4332 0.9763
-5.1842 2.4763 -1.4122 0.9766
-5.3957 2.0094 -1.4153 0.9766
-3.0843 0.5557 -0.7703 0.9872
-2.8744 0.0000 -0.7574 0.9882
-2.9343 -0.2622 -0.7763 0.9879
-5.7298 -4.1240 -1.8602 0.9712
-5.3963 -5.5797 -2.0454 0.9684
-4.4398 -8.1017 -2.4343 0.9625
-3.9576 -9.0512 -2.6030 0.9600
-3.3690 -10.0628 -2.7962 0.9571
-0.6680 -2.8029 -0.7592 0.9882
-0.1278 -2.2927 -0.6051 0.9905
0.2626 -2.1324 -0.5661 0.9912
0.4479 -2.0843 -0.5618 0.9912
9.1407 9.0394 -3.3874 0.9482
5.9219 8.4241 -2.7133 0.9583
4.7877 8.2925 -2.5231 0.9612
3.7651 8.1135 -2.3569 0.9637
2.8411 7.8971 -2.2114 0.9659
1.2473 7.3945 -1.9760 0.9695
0.5552 7.1045 -1.8777 0.9710
-1.1784 6.1478 -1.6494 0.9744
-1.7349 6.0675 -1.6629 0.9742
-2.2421 5.8215 -1.6438 0.9745
-3.7825 4.2770 -1.5045 0.9767
-4.0933 3.8714 -1.4846 0.9770
-4.8755 2.6017 -1.4562 0.9774
-5.0897 2.1582 -1.4567 0.9774
-5.2816 1.7031 -1.4623 0.9773
-3.2212 0.7298 -0.8703 0.9864
-2.8316 0.3808 -0.7529 0.9883
-2.8515 0.1271 -0.7521 0.9883
-2.9836 -0.4013 -0.7933 0.9876
-5.9634 -2.5287 -1.7068 0.9736
-5.8628 -3.1285 -1.7511 0.9729
-5.7839 -3.7837 -1.8212 0.9718
-5.6647 -4.4734 -1.9020 0.9706
-4.9986 -6.7842 -2.2205 0.9657
-4.6464 -7.6490 -2.3582 0.9637
-4.2109 -8.5690 -2.5158 0.9613
-3.6777 -9.5490 -2.6963 0.9586
0.1686 -2.1571 -0.5701 0.9911
0.3556 -2.1082 -0.5634 0.9912
0.5445 -2.0782 -0.5661 0.9912
0.9729 -2.0965 -0.6090 0.9905
1.2557 -2.1750 -0.6618 0.9897
1.7231 -2.4511 -0.7895 0.9877
6.5353 8.4681 -2.8186 0.9567
5.3400 8.3650 -2.6150 0.9598
0.8932 7.2518 -1.9253 0.9702
-0.3702 6.6394 -1.7522 0.9729
-0.9209 6.3141 -1.6814 0.9740
-1.4251 5.9802 -1.6199 0.9749
-2.0108 6.0059 -1.6689 0.9741
-2.4639 5.6352 -1.6206 0.9749
-2.8807 5.2567 -1.5795 0.9755
-3.6169 4.4768 -1.5165 0.9765
-3.9412 4.0753 -1.4939 0.9768
-4.5114 3.2471 -1.4647 0.9773
-4.9854 2.3813 -1.4558 0.9774
-5.1884 1.9322 -1.4589 0.9774
-2.8347 0.2533 -0.7499 0.9883
-2.8819 -0.2575 -0.8141 0.9880
-5.7214 -1.5672 -1.6690 0.9757
-5.7223 -2.1310 -1.7180 0.9749
-5.6451 -2.6964 -1.7602 0.9743
-5.5626 -3.2947 -1.8190 0.9735
-5.4586 -3.9288 -1.8923 0.9724
-5.1168 -5.2907 -2.0708 0.9699
-4.8668 -6.0237 -2.1789 0.9683
-4.5540 -6.7950 -2.3015 0.9666
-4.1688 -7.6070 -2.4406 0.9646
-3.1347 -9.3628 -2.7780 0.9598
-0.6832 -2.8670 -0.8292 0.9878
-0.1282 -2.2997 -0.6480 0.9905
0.0736 -2.2006 -0.6195 0.9909
0.2635 -2.1393 -0.6064 0.9911
0.4494 -2.0913 -0.6018 0.9912
9.8360 8.1296 -3.5903 0.9484
8.3857 8.2928 -3.3182 0.9522
7.0622 8.3532 -3.0776 0.9556
4.4686 7.7399 -2.5145 0.9635
1.8929 7.2250 -2.1014 0.9694
-0.0720 6.4678 -1.8199 0.9735
-1.6931 5.9212 -1.7327 0.9747
-2.1482 5.5779 -1.6817 0.9755
-2.9539 4.8628 -1.6008 0.9766
-3.3097 4.4920 -1.5698 0.9771
-3.9379 3.7245 -1.5250 0.9777
-4.2136 3.3274 -1.5106 0.9779
-4.4653 2.9211 -1.5013 0.9781
-4.6938 2.5047 -1.4969 0.9781
-3.1370 0.7108 -0.9050 0.9867
-2.7751 0.3732 -0.7878 0.9884
-2.8062 0.1251 -0.7903 0.9884
-2.9298 -0.3940 -0.8317 0.9878
-3.0353 -0.6877 -0.8756 0.9872
-5.6037 -2.9902 -1.7871 0.9740
-5.5156 -3.6082 -1.8544 0.9730
-5.3908 -4.2571 -1.9327 0.9719
-5.2207 -4.9377 -2.0218 0.9706
-4.7188 -6.4044 -2.2382 0.9675
-4.3711 -7.1957 -2.3688 0.9656
-3.4304 -8.9070 -2.6855 0.9611
-2.8108 -9.8301 -2.8766 0.9584
-0.4982 -2.5988 -0.7445 0.9891
-0.2385 -2.3709 -0.6704 0.9901
-0.0250 -2.2489 -0.6328 0.9907
0.1691 -2.1641 -0.6107 0.9910
0.3568 -2.1149 -0.6035 0.9911
0.7472 -2.0769 -0.6210 0.9909
1.2664 -2.1934 -0.7126 0.9895
10.6109 8.0021 -3.7392 0.9463
7.7087 8.3345 -3.1942 0.9539
6.4452 8.3513 -2.9681 0.9571
0.8467 6.8749 -1.9489 0.9716
-0.3526 6.3238 -1.7820 0.9740
-0.8788 6.0256 -1.7133 0.9750
-1.4141 5.9340 -1.7163 0.9750
-1.9254 5.7508 -1.7063 0.9751
-2.7646 5.0449 -1.6186 0.9764
-4.3424 3.1254 -1.5053 0.9780
-4.5824 2.7142 -1.4985 0.9781
-4.7997 2.2926 -1.4966 0.9781
-2.9229 0.5266 -0.8356 0.9877
-2.9224 -0.5265 -0.8890 0.9877
-5.4855 -2.0428 -1.7524 0.9759
-5.4102 -2.5842 -1.7950 0.9753
-5.2097 -3.7497 -1.9217 0.9736
-5.0594 -4.3750 -2.0025 0.9725
-4.8625 -5.0278 -2.0940 0.9712
-4.3038 -6.4218 -2.3144 0.9682
-3.4721 -7.9410 -2.5947 0.9645
-2.9290 -8.7487 -2.7621 0.9622
-0.6994 -2.9347 -0.9032 0.9875
0.0738 -2.2071 -0.6611 0.9908
0.2643 -2.1463 -0.6474 0.9910
0.8628 -2.0994 -0.6795 0.9906
1.1151 -2.1470 -0.7243 0.9899
1.4800 -2.3183 -0.8234 0.9886
6.5554 7.7537 -3.0397 0.9585
5.4632 7.7715 -2.8440 0.9611
4.1869 7.2520 -2.5070 0.9656
3.3201 7.1546 -2.3613 0.9676
2.5238 7.0149 -2.2319 0.9694
-1.1183 5.8344 -1.7785 0.9755
-1.6225 5.6742 -1.7668 0.9757
-3.1841 4.3215 -1.6070 0.9778
-3.5013 3.9589 -1.5822 0.9782
-4.0595 3.2058 -1.5486 0.9786
-4.3029 2.8149 -1.5394 0.9788
-4.8990 1.5798 -1.5410 0.9787
-2.7203 0.3659 -0.8218 0.9886
-2.7619 0.1232 -0.8277 0.9885
-2.9771 -0.6745 -0.9139 0.9873
-5.1400 -4.0590 -1.9608 0.9730
-4.9671 -4.6979 -2.0468 0.9719
-4.4664 -6.0618 -2.2542 0.9691
-4.1244 -6.7896 -2.3783 0.9674
-0.5046 -2.6326 -0.8025 0.9889
0.5488 -2.0946 -0.6483 0.9910
0.9837 -2.1198 -0.6996 0.9903
1.2773 -2.2123 -0.7648 0.9894
11.1269 6.9299 -3.9244 0.9467
7.1360 7.7154 -3.1463 0.9571
5.9980 7.7718 -2.9391 0.9598
4.7248 7.4014 -2.6288 0.9640
3.7443 7.2091 -2.4320 0.9666
1.2825 5.9683 -1.8276 0.9748
0.8045 6.5321 -1.9703 0.9729
0.2104 6.2927 -1.8850 0.9741
-0.3364 6.0343 -1.8094 0.9751
-0.8422 5.7746 -1.7471 0.9759
-1.3896 5.8310 -1.7946 0.9753
-1.8462 5.5144 -1.7410 0.9760
-2.2677 5.1864 -1.6946 0.9766
-2.6566 4.8478 -1.6550 0.9772
-3.0154 4.4993 -1.6215 0.9776
-3.3460 4.1414 -1.5939 0.9780
-3.6501 3.7742 -1.5719 0.9783
-4.1841 3.0116 -1.5434 0.9787
-3.5598 0.9751 -1.1050 0.9847
-2.8473 0.5130 -0.8662 0.9880
-2.7412 0.2450 -0.8239 0.9886
-2.7380 0.0000 -0.8695 0.9886
-2.9540 -0.8092 -0.9727 0.9872
-5.2654 -1.9608 -1.7844 0.9767
-5.0925 -3.0163 -1.8797 0.9755
-4.3822 -5.4239 -2.2145 0.9712
-2.7470 -8.2050 -2.7480 0.9643
-0.7164 -3.0064 -0.9815 0.9871
-0.1290 -2.3140 -0.7360 0.9903
0.2652 -2.1534 -0.6890 0.9909
0.4530 -2.1079 -0.6847 0.9910
0.6509 -2.0984 -0.6978 0.9908
1.1244 -2.1649 -0.7747 0.9898
1.5032 -2.3547 -0.8872 0.9883
10.8223 6.0886 -3.9436 0.9492
8.3263 6.8819 -3.4306 0.9557
0.4778 6.1139 -1.9476 0.9746
-1.5569 5.4448 -1.7985 0.9765
-1.9801 5.1412 -1.7497 0.9771
-2.7329 4.4991 -1.6718 0.9781
-3.0666 4.1620 -1.6418 0.9785
-3.3739 3.8150 -1.6174 0.9789
-3.6563 3.4582 -1.5983 0.9791
-4.1506 2.7152 -1.5752 0.9794
-2.9790 0.6750 -0.9701 0.9873
-2.7186 0.1212 -0.8643 0.9886
-2.7612 -0.1231 -0.8778 0.9885
-4.9093 -3.8768 -1.9867 0.9741
-4.7349 -4.4782 -2.0698 0.9730
-4.5128 -5.1027 -2.1634 0.9718
-4.2374 -5.7511 -2.2687 0.9705
-3.4987 -7.1196 -2.5193 0.9673
-3.0187 -7.8380 -2.6675 0.9654
-2.4524 -8.5768 -2.8331 0.9633
-0.5113 -2.6675 -0.8626 0.9887
-0.2405 -2.3904 -0.7630 0.9900
-0.0252 -2.2626 -0.7186 0.9905
0.1702 -2.1785 -0.6940 0.9909
0.7534 -2.0939 -0.7067 0.9907
0.9893 -2.1318 -0.7464 0.9902
1.2885 -2.2318 -0.8184 0.9892
11.4829 5.8026 -4.0860 0.9474
10.1747 6.3369 -3.8068 0.9509
6.6380 7.1769 -3.1047 0.9598
5.6051 7.2627 -2.9136 0.9622
4.6452 7.2766 -2.7417 0.9644
3.5265 6.7897 -2.4298 0.9684
2.0388 6.5724 -2.1854 0.9715
1.2839 5.9748 -1.9408 0.9747
0.2007 6.0034 -1.9077 0.9751
-0.3216 5.7679 -1.8346 0.9760
-0.8387 5.7504 -1.8455 0.9759
-1.3325 5.5917 -1.8256 0.9762
-4.4624 2.1315 -1.5706 0.9795
-4.6431 1.7291 -1.5735 0.9794
-3.4729 0.9513 -1.1436 0.9850
-2.7749 0.4999 -0.8954 0.9882
-2.6951 0.2408 -0.8593 0.9887
-2.6944 0.0000 -0.9053 0.9887
-2.8971 -0.7936 -1.0092 0.9874
-5.0603 -1.8845 -1.8142 0.9775
-4.7681 -3.4319 -1.9738 0.9755
-4.6142 -3.9900 -2.0495 0.9746
-4.4168 -4.5670 -2.1346 0.9735
-3.5127 -6.4099 -2.4558 0.9696
-3.0863 -7.0585 -2.5883 0.9680
-0.1297 -2.3269 -0.7830 0.9902
0.0743 -2.2204 -0.7464 0.9907
0.2661 -2.1606 -0.7314 0.9909
1.5275 -2.3928 -0.9538 0.9881
12.2524 4.2545 -4.3577 0.9467
7.7243 6.3843 -3.3669 0.9586
5.7215 6.7674 -2.9774 0.9633
3.9526 6.8462 -2.6560 0.9672
2.2658 6.2978 -2.2487 0.9722
1.6177 6.1748 -2.1446 0.9734
1.0154 6.0196 -2.0510 0.9746
-0.0627 5.6323 -1.8925 0.9765
-1.0549 5.5033 -1.8827 0.9766
-1.9043 4.9447 -1.7803 0.9779
-2.2828 4.6455 -1.7391 0.9784
-2.6329 4.3344 -1.7039 0.9788
-3.2544 3.6797 -1.6505 0.9795
-3.5282 3.3370 -1.6316 0.9797
-3.7789 2.9842 -1.6178 0.9799
-4.0072 2.6214 -1.6088 0.9800
-4.3984 1.8651 -1.6052 0.9800
-2.6762 0.1194 -0.9001 0.9888
-2.7168 -0.1211 -0.9137 0.9886
-5.0719 -1.6355 -1.7905 0.9778
-4.9348 -2.6333 -1.8793 0.9767
-4.8302 -3.1597 -1.9393 0.9759
-4.6963 -3.7086 -2.0105 0.9751
-4.5212 -4.2761 -2.0908 0.9741
-4.3004 -4.8625 -2.1810 0.9730
-3.3083 -6.7323 -2.5203 0.9688
-2.8454 -7.3880 -2.6600 0.9671
-0.5183 -2.7038 -0.9250 0.9885
-0.2428 -2.4134 -0.8150 0.9898
-0.0253 -2.2696 -0.7626 0.9905
0.3603 -2.1359 -0.7278 0.9909
0.5532 -2.1117 -0.7334 0.9908
0.7566 -2.1029 -0.7509 0.9906
1.3001 -2.2517 -0.8736 0.9891
10.5075 5.3097 -3.9555 0.9515
7.2024 6.5142 -3.2628 0.9598
4.3728 6.8499 -2.7304 0.9663
3.4775 6.6953 -2.5348 0.9687
1.9359 6.2407 -2.1953 0.9728
0.7306 5.9315 -2.0079 0.9751
-0.8216 5.6335 -1.9128 0.9763
-1.2795 5.3690 -1.8544 0.9770
-1.7039 5.0896 -1.8033 0.9776
-2.4613 4.4914 -1.7208 0.9786
-2.7979 4.1747 -1.6885 0.9790
-3.3942 3.5096 -1.6404 0.9796
-3.6564 3.1619 -1.6241 0.9798
-3.8958 2.8041 -1.6127 0.9799
-4.3087 2.0581 -1.6043 0.9801
-2.6265 0.7195 -0.9150 0.9886
-2.7169 0.4895 -0.9275 0.9884
-2.6519 0.0000 -0.9403 0.9888
-2.6931 -0.2407 -0.9588 0.9886
-2.7668 -0.4985 -0.9969 0.9881
-2.8417 -0.7784 -1.0448 0.9876
-4.5712 -3.2902 -1.9971 0.9764
-4.4166 -3.8192 -2.0704 0.9755
-3.6841 -5.4971 -2.3465 0.9723
-3.3340 -6.0838 -2.4599 0.9710
-1.8809 -7.8926 -2.8770 0.9662
-0.3721 -2.5517 -0.9144 0.9891
-0.1309 -2.3472 -0.8336 0.9901
0.4567 -2.1252 -0.7708 0.9908
0.8773 -2.1347 -0.8184 0.9903
1.5528 -2.4324 -1.0233 0.9878
13.9030 0.9307 -4.9409 0.9426
13.0872 2.0579 -4.6976 0.9453
12.1714 3.0443 -4.4488 0.9481
11.1932 3.8867 -4.2014 0.9510
9.1699 5.1589 -3.7308 0.9563
7.1980 5.9493 -3.3113 0.9611
3.7371 6.4729 -2.6502 0.9688
2.9748 6.4105 -2.5059 0.9705
-0.5559 5.5261 -1.9694 0.9767
-1.4387 5.0313 -1.8555 0.9780
-1.8335 4.7606 -1.8089 0.9786
-2.5390 4.1798 -1.7341 0.9795
-3.1417 3.5524 -1.6816 0.9801
-3.6507 2.8829 -1.6494 0.9805
-3.8719 2.5329 -1.6406 0.9806
-2.6733 -0.1192 -0.9489 0.9887
-2.7260 -0.3666 -0.9753 0.9884
-2.8093 -0.6365 -1.0214 0.9878
-2.8709 -0.9257 -1.0696 0.9873
-4.8474 -2.0555 -1.8670 0.9779
-4.6341 -3.0315 -1.9635 0.9768
-4.4989 -3.5527 -2.0327 0.9760
-4.1050 -4.6416 -2.1972 0.9740
-3.5165 -5.7890 -2.4017 0.9717
-3.1359 -6.3813 -2.5212 0.9703
-2.6893 -6.9826 -2.6532 0.9687
-0.5255 -2.7415 -0.9898 0.9882
-0.2452 -2.4372 -0.8685 0.9897
-0.0254 -2.2853 -0.8104 0.9903
0.5555 -2.1204 -0.7772 0.9907
0.7608 -2.1146 -0.7968 0.9905
1.0007 -2.1566 -0.8430 0.9900
12.6394 2.5691 -4.5734 0.9467
9.6764 4.8897 -3.8443 0.9550
7.6797 5.7916 -3.4107 0.9600
6.7258 6.0832 -3.2156 0.9622
5.8133 6.2852 -3.0358 0.9643
3.3583 6.4658 -2.5835 0.9696
2.5328 6.1631 -2.3627 0.9721
1.2501 5.8172 -2.1098 0.9751
0.1866 5.5813 -1.9802 0.9766
-0.7888 5.4089 -1.9382 0.9771
-2.0201 4.6201 -1.7880 0.9788
-2.3727 4.3296 -1.7506 0.9793
-2.6989 4.0271 -1.7190 0.9796
-3.9744 2.3541 -1.6379 0.9806
-4.1636 1.9888 -1.6361 0.9806
-4.3317 1.6132 -1.6390 0.9806
-2.6623 0.4796 -0.9592 0.9886
-2.6101 0.0000 -0.9746 0.9889
-2.6498 -0.2368 -0.9934 0.9887
-2.7878 -0.7637 -1.0794 0.9877
-4.6280 -2.2106 -1.9152 0.9783
-4.5074 -2.6697 -1.9561 0.9779
-4.2332 -3.6606 -2.0898 0.9764
-4.0383 -4.1756 -2.1691 0.9755
-3.7993 -4.7024 -2.2574 0.9745
-3.5117 -5.2398 -2.3554 0.9734
-2.7713 -6.3381 -2.5831 0.9709
-0.3761 -2.5787 -0.9731 0.9889
0.0751 -2.2462 -0.8392 0.9904
0.2679 -2.1754 -0.8185 0.9907
0.8824 -2.1471 -0.8668 0.9901
1.1538 -2.2215 -0.9348 0.9894
1.6011 -2.5080 -1.1111 0.9874
7.9354 -10.2821 -4.8499 0.9461
9.1610 -9.9048 -5.0380 0.9440
13.7442 -2.7936 -5.2372 0.9419
13.1605 -0.2932 -4.9155 0.9453
12.6062 0.8439 -4.7178 0.9475
11.9212 1.8746 -4.5062 0.9498
11.1396 2.7862 -4.2878 0.9522
9.4083 4.2392 -3.8533 0.9569
8.5090 4.7871 -3.6456 0.9592
6.7337 5.5656 -3.2621 0.9634
5.8815 5.8163 -3.0888 0.9653
4.2822 6.0914 -2.7804 0.9687
3.5417 6.1344 -2.6450 0.9702
2.1445 5.9606 -2.3654 0.9733
1.5006 5.7275 -2.2109 0.9750
0.4354 5.5719 -2.0869 0.9764
-0.5340 5.3085 -1.9922 0.9775
-0.9746 5.0850 -1.9334 0.9781
-2.1216 4.3174 -1.7963 0.9797
-2.4505 4.0341 -1.7625 0.9800
-2.7548 3.7388 -1.7342 0.9804
-3.0355 3.4323 -1.7110 0.9806
-3.5294 2.7872 -1.6793 0.9810
-3.7440 2.4492 -1.6706 0.9811
-3.9376 2.1011 -1.6666 0.9811
-4.1102 1.7429 -1.6671 0.9811
-2.5436 0.5763 -0.9739 0.9889
-2.6307 -0.1173 -0.9833 0.9888
-2.8043 -0.9043 -1.1002 0.9875
-4.6661 -1.9786 -1.8925 0.9786
-4.5612 -2.4339 -1.9305 0.9782
-3.9246 -4.4376 -2.2121 0.9750
-3.6619 -4.9699 -2.3052 0.9740
-3.3483 -5.5120 -2.4082 0.9728
-2.9787 -6.0615 -2.5220 0.9716
-2.5478 -6.6154 -2.6471 0.9702
-2.0500 -7.1692 -2.7844 0.9687
-0.2476 -2.4617 -0.9239 0.9895
0.7650 -2.1264 -0.8439 0.9904
12.9018 0.2875 -4.8189 0.9464
11.5404 2.3457 -4.3974 0.9510
9.8537 3.9217 -3.9602 0.9557
8.0596 5.0196 -3.5455 0.9603
5.4677 5.9116 -3.0069 0.9662
3.9068 6.1199 -2.7112 0.9695
3.1869 6.1358 -2.5818 0.9709
2.5081 6.1032 -2.4639 0.9722
1.8065 5.8235 -2.2768 0.9743
1.2161 5.6590 -2.1614 0.9756
0.6880 5.5863 -2.1018 0.9763
0.1863 5.5702 -2.0811 0.9765
-0.3018 5.4130 -2.0244 0.9771
-1.5795 4.7179 -1.8578 0.9790
-2.2892 4.1773 -1.7787 0.9799
-3.4142 2.9524 -1.6854 0.9809
-3.6394 2.6195 -1.6744 0.9810
-4.1887 1.5599 -1.6691 0.9811
-3.4441 0.9434 -1.3334 0.9849
-2.6096 0.4702 -0.9901 0.9887
-2.7221 -0.7457 -1.1077 0.9879
-2.7584 -1.0272 -1.1552 0.9874
-4.4597 -2.1302 -1.9397 0.9790
-3.3528 -5.0028 -2.3636 0.9745
-3.0211 -5.5127 -2.4672 0.9733
-2.6344 -6.0250 -2.5808 0.9721
-1.6776 -7.0397 -2.8403 0.9694
-0.3802 -2.6067 -1.0339 0.9887
-0.1332 -2.3897 -0.9394 0.9898
0.0758 -2.2657 -0.8897 0.9903
0.4611 -2.1456 -0.8613 0.9906
1.1656 -2.2441 -0.9925 0.9892
6.1184 -9.5843 -4.4627 0.9523
7.2293 -9.3673 -4.6439 0.9504
9.3473 -8.4541 -4.9465 0.9473
10.2802 -7.7527 -5.0534 0.9462
11.7026 -5.9136 -5.1460 0.9452
12.4400 -2.5285 -4.9822 0.9469
11.9815 -0.2670 -4.7036 0.9498
10.9349 1.7194 -4.3443 0.9535
10.2590 2.5660 -4.1504 0.9556
8.7345 3.9356 -3.7600 0.9597
6.3210 5.2244 -3.2185 0.9654
5.5390 5.4777 -3.0574 0.9671
4.7825 5.6568 -2.9072 0.9687
4.0564 5.7703 -2.7682 0.9701
3.3636 5.8259 -2.6402 0.9715
1.4969 5.7135 -2.3181 0.9749
0.9450 5.6019 -2.2296 0.9759
-0.5135 5.1049 -2.0136 0.9782
-0.9384 4.8955 -1.9563 0.9788
-1.3349 4.6684 -1.9056 0.9794
-2.3670 3.8966 -1.7894 0.9806
-2.6624 3.6134 -1.7615 0.9809
-2.9349 3.3186 -1.7387 0.9811
-3.1855 3.0129 -1.7208 0.9813
-3.4147 2.6966 -1.7076 0.9815
-3.6229 2.3700 -1.6991 0.9816
-3.8104 2.0333 -1.6951 0.9816
-4.1240 1.3298 -1.7006 0.9816
-2.5568 0.5793 -1.0289 0.9888
-2.4910 0.3350 -0.9865 0.9893
-2.5889 -0.1154 -1.0171 0.9889
-2.6312 -0.3539 -1.0420 0.9887
-4.4957 -1.9063 -1.9165 0.9792
-4.3925 -2.3439 -1.9540 0.9788
-3.9710 -3.7557 -2.1452 0.9768
-3.7574 -4.2485 -2.2260 0.9759
-3.4996 -4.7496 -2.3155 0.9750
-2.8349 -5.7688 -2.5227 0.9728
-1.9412 -6.7889 -2.7713 0.9701
-0.2502 -2.4870 -0.9810 0.9893
-0.0259 -2.3256 -0.9128 0.9901
0.1739 -2.2252 -0.8760 0.9905
0.3650 -2.1640 -0.8613 0.9906
0.7694 -2.1386 -0.8920 0.9903
1.0128 -2.1825 -0.9443 0.9897
6.6747 -9.4949 -4.5551 0.9514
9.8294 -8.1242 -5.0049 0.9467
10.6951 -7.3418 -5.0914 0.9458
11.4097 -6.4190 -5.1380 0.9453
11.9490 -5.3839 -5.1437 0.9452
12.2951 -4.2693 -5.1081 0.9456
12.4411 -3.1117 -5.0332 0.9464
12.3912 -1.9484 -4.9229 0.9475
12.1592 -0.8139 -4.7828 0.9490
10.6067 2.1559 -4.2480 0.9546
9.8949 2.9490 -4.0523 0.9566
9.1299 3.6336 -3.8566 0.9587
8.3339 4.2113 -3.6647 0.9607
7.5255 4.6869 -3.4795 0.9626
5.9272 5.3608 -3.1366 0.9662
3.0303 5.8342 -2.5802 0.9721
2.3902 5.8163 -2.4680 0.9733
-0.2900 5.2022 -2.0449 0.9779
-0.7296 5.0026 -1.9841 0.9785
-1.5229 4.5487 -1.8826 0.9796
-1.8793 4.2981 -1.8411 0.9800
-2.5175 3.7565 -1.7748 0.9808
-2.8014 3.4674 -1.7495 0.9810
-3.0629 3.1671 -1.7292 0.9812
-3.7192 2.2029 -1.6965 0.9816
-4.0533 1.5095 -1.6975 0.9816
-2.5633 0.4618 -1.0222 0.9889
-2.5206 0.2252 -0.9932 0.9892
-2.6210 -0.4722 -1.0967 0.9885
-2.6436 -0.9845 -1.1616 0.9879
-4.0562 -2.9195 -2.0579 0.9786
-3.7122 -3.8384 -2.1988 0.9772
-2.8831 -5.2610 -2.4704 0.9744
-2.5088 -5.7379 -2.5787 0.9733
-2.0791 -6.2100 -2.6967 0.9721
-0.3897 -2.6722 -1.1120 0.9884
0.2726 -2.2132 -0.9183 0.9904
1.1870 -2.2855 -1.0605 0.9889
7.6076 -8.2253 -4.6136 0.9527
9.3651 -7.0625 -4.8300 0.9505
10.0773 -6.2762 -4.8886 0.9499
10.6455 -5.3794 -4.9115 0.9497
11.0526 -4.3988 -4.8985 0.9498
10.9845 -0.2447 -4.5243 0.9536
10.5923 0.7091 -4.3715 0.9551
9.4983 2.3757 -4.0317 0.9585
8.8429 3.0706 -3.8546 0.9603
6.6841 4.5884 -3.3385 0.9655
5.9514 4.9190 -3.1794 0.9672
5.2304 5.1725 -3.0291 0.9687
3.8507 5.4777 -2.7572 0.9715
3.2005 5.5435 -2.6358 0.9727
2.5802 5.5601 -2.5241 0.9738
1.9908 5.5336 -2.4216 0.9749
0.4098 5.2434 -2.1657 0.9775
-0.0567 5.0901 -2.0961 0.9782
-0.9042 4.7175 -1.9779 0.9794
-1.2875 4.5028 -1.9285 0.9799
-1.6452 4.2718 -1.8850 0.9804
-2.2880 3.7666 -1.8147 0.9811
-2.5748 3.4946 -1.7874 0.9814
-3.0831 2.9160 -1.7475 0.9818
-3.3057 2.6105 -1.7345 0.9819
-3.5078 2.2947 -1.7261 0.9820
-3.6897 1.9689 -1.7221 0.9821
-3.8514 1.6332 -1.7226 0.9821
-3.9930 1.2876 -1.7276 0.9820
-2.6388 0.5979 -1.1141 0.9884
-2.4504 0.3295 -1.0181 0.9894
-2.5479 -0.1136 -1.0502 0.9890
-2.5854 -0.3477 -1.0742 0.9888
-2.6464 -0.8534 -1.1450 0.9880
-4.3354 -1.8383 -1.9391 0.9798
-4.1198 -2.6950 -2.0272 0.9789
-3.9840 -3.1461 -2.0904 0.9783
-3.3492 -4.5455 -2.3250 0.9759
-2.7027 -5.4997 -2.5234 0.9738
-1.8422 -6.4427 -2.7593 0.9714
-1.3221 -6.8977 -2.8920 0.9701
-0.2528 -2.5132 -1.0401 0.9891
0.1754 -2.2449 -0.9272 0.9903
0.3682 -2.1829 -0.9116 0.9905
1.0258 -2.2104 -1.0034 0.9895
6.1325 -8.7236 -4.3910 0.9549
8.0772 -7.9876 -4.6777 0.9520
8.9598 -7.4054 -4.7865 0.9510
9.7384 -6.6850 -4.8640 0.9502
10.3806 -5.8400 -4.9046 0.9498
10.8701 -4.8978 -4.9095 0.9497
11.3398 -2.8362 -4.8133 0.9507
11.1319 -0.7452 -4.5942 0.9529
9.1773 2.7351 -3.9433 0.9594
7.0520 4.3920 -3.4210 0.9647
3.5220 5.5171 -2.6953 0.9721
2.8865 5.5576 -2.5788 0.9733
2.2816 5.5519 -2.4717 0.9744
1.7079 5.5057 -2.3737 0.9754
1.1655 5.4238 -2.2844 0.9763
0.6541 5.3106 -2.2033 0.9771
-0.7027 4.8181 -2.0050 0.9792
-2.1361 3.8979 -1.8303 0.9810
-2.4342 3.6321 -1.8005 0.9813
-2.7099 3.3542 -1.7756 0.9815
-3.1970 2.7646 -1.7404 0.9819
-3.4094 2.4539 -1.7297 0.9820
-3.6013 2.1331 -1.7236 0.9821
-3.9247 1.4616 -1.7246 0.9820
-2.5181 0.4537 -1.0536 0.9890
-2.4793 0.2215 -1.0250 0.9893
-2.5221 -0.2254 -1.0923 0.9890
-2.5507 -0.6987 -1.1408 0.9885
-4.0296 -2.3867 -2.0202 0.9798
-3.9056 -2.8111 -2.0757 0.9793
-3.5653 -3.6865 -2.2122 0.9779
-3.3384 -4.1319 -2.2914 0.9771
-2.7555 -5.0282 -2.4733 0.9753
-1.9791 -5.9113 -2.6890 0.9732
-1.5101 -6.3368 -2.8100 0.9720
-0.4028 -2.7617 -1.2039 0.9879
-0.1358 -2.4351 -1.0520 0.9894
0.2751 -2.2332 -0.9706 0.9902
0.6746 -2.1748 -0.9822 0.9901
0.9088 -2.2114 -1.0313 0.9896
1.2096 -2.3290 -1.1320 0.9886
5.2098 -8.1610 -4.1765 0.9587
9.2355 -5.7519 -4.6933 0.9537
9.7525 -4.9281 -4.7134 0.9535
10.1276 -4.0307 -4.7019 0.9536
10.4222 -2.1184 -4.5876 0.9547
10.3447 -1.1572 -4.4901 0.9557
10.1300 -0.2257 -4.3707 0.9568
8.8343 2.2096 -3.9281 0.9611
6.9639 3.9178 -3.4467 0.9658
6.2924 4.3195 -3.2923 0.9673
4.9508 4.8960 -3.0035 0.9701
4.2971 5.0826 -2.8710 0.9714
3.6624 5.2098 -2.7470 0.9726
3.0506 5.2838 -2.6318 0.9738
2.4642 5.3102 -2.5252 0.9748
1.9048 5.2945 -2.4271 0.9758
1.3732 5.2414 -2.3372 0.9767
-0.0546 4.8987 -2.1132 0.9789
-0.4763 4.7344 -2.0525 0.9795
-0.8721 4.5497 -1.9983 0.9800
-1.2428 4.3465 -1.9500 0.9805
-1.9125 3.8920 -1.8706 0.9813
-2.4918 3.3819 -1.8120 0.9819
-2.7492 3.1086 -1.7901 0.9821
-2.9858 2.8240 -1.7728 0.9823
-3.2022 2.5287 -1.7600 0.9824
-3.7316 1.5823 -1.7484 0.9825
-2.5715 0.5826 -1.1373 0.9886
-2.4106 0.3242 -1.0492 0.9895
-2.4654 0.1099 -1.0645 0.9893
-2.5076 -0.1118 -1.0828 0.9891
-2.5276 -0.3399 -1.1001 0.9890
-2.5465 -0.5770 -1.1263 0.9887
-2.6695 -1.1320 -1.2508 0.9874
-4.0880 -2.1814 -1.9988 0.9800
-3.8338 -3.0276 -2.1073 0.9789
-3.2094 -4.3558 -2.3338 0.9767
-2.1928 -5.6935 -2.6318 0.9738
-1.7517 -6.1260 -2.7484 0.9726
-0.2574 -2.5584 -1.1092 0.9889
-0.0264 -2.3684 -1.0217 0.9897
0.3715 -2.2024 -0.9635 0.9903
0.7871 -2.1879 -1.0030 0.9899
1.4457 -2.5040 -1.2472 0.9875
5.6661 -8.0601 -4.2499 0.9580
8.9275 -6.1284 -4.6710 0.9539
9.5108 -5.3507 -4.7073 0.9536
9.9585 -4.4871 -4.7116 0.9535
10.2588 -3.5622 -4.6844 0.9538
10.4014 -1.6355 -4.5419 0.9552
9.9761 0.2223 -4.3043 0.9575
9.5864 1.0724 -4.1609 0.9588
8.5488 2.5478 -3.8479 0.9619
7.9400 3.1601 -3.6863 0.9635
4.6219 4.9971 -2.9362 0.9708
3.3535 5.2531 -2.6883 0.9732
2.7541 5.3026 -2.5774 0.9743
2.1811 5.3073 -2.4751 0.9753
1.6355 5.2723 -2.3812 0.9762
1.1179 5.2022 -2.2952 0.9771
0.6283 5.1010 -2.2170 0.9779
-0.2687 4.8193 -2.0821 0.9792
-0.6774 4.6445 -2.0246 0.9798
-2.0656 3.7693 -1.8540 0.9815
-2.6231 3.2467 -1.8004 0.9820
-2.8701 2.9677 -1.7809 0.9822
-3.8025 1.4161 -1.7503 0.9825
-3.9292 1.0763 -1.7573 0.9824
-2.4481 -0.2188 -1.1090 0.9893
-2.4592 -0.4431 -1.1275 0.9891
-2.4701 -0.6767 -1.1556 0.9888
-4.0076 -1.9143 -2.0040 0.9807
-3.7638 -2.7090 -2.0925 0.9799
-3.4277 -3.5442 -2.2248 0.9786
-2.9425 -4.3905 -2.3849 0.9771
-2.2863 -5.2289 -2.5751 0.9753
-1.8870 -5.6363 -2.6819 0.9743
-0.4169 -2.8588 -1.3036 0.9874
-0.1378 -2.4720 -1.1172 0.9892
0.0778 -2.3276 -1.0509 0.9898
0.6816 -2.1973 -1.0381 0.9900
4.8428 -7.5860 -4.0610 0.9613
5.6742 -7.3522 -4.1905 0.9601
8.5131 -5.3020 -4.5254 0.9569
9.5483 -2.8457 -4.4956 0.9572
9.3891 -0.2092 -4.2375 0.9596
9.0984 0.6091 -4.1146 0.9608
8.7128 1.3700 -3.9797 0.9620
8.2492 2.0633 -3.8368 0.9634
7.1552 3.2240 -3.5411 0.9661
1.8248 5.0722 -2.4323 0.9766
1.3176 5.0292 -2.3458 0.9774
0.8356 4.9536 -2.2667 0.9782
-0.0526 4.7187 -2.1293 0.9795
-0.4592 4.5652 -2.0703 0.9801
-0.8417 4.3912 -2.0175 0.9806
-1.2006 4.1987 -1.9704 0.9810
-1.5364 3.9894 -1.9290 0.9814
-2.1420 3.5262 -1.8616 0.9821
-3.1035 2.4509 -1.7844 0.9828
-3.2943 2.1550 -1.7762 0.9829
-3.4656 1.8493 -1.7724 0.9829
-3.7496 1.2091 -1.7777 0.9829
-2.5488 0.5775 -1.1792 0.9886
-2.3567 0.3169 -1.0730 0.9896
-2.4521 -0.3298 -1.1164 0.9892
-2.4671 -0.5590 -1.1414 0.9890
-2.4781 -0.7991 -1.1749 0.9886
-2.4891 -1.0554 -1.2199 0.9882
-3.5249 -3.3338 -2.1892 0.9789
-3.0790 -4.1788 -2.3421 0.9775
-2.7954 -4.6018 -2.4295 0.9766
-2.4676 -5.0214 -2.5246 0.9757
-2.0929 -5.4340 -2.6275 0.9748
-0.2635 -2.6196 -1.1880 0.9885
0.3749 -2.2225 -1.0170 0.9902
0.5773 -2.2033 -1.0277 0.9901
0.7973 -2.2160 -1.0626 0.9897
6.8650 -6.7889 -4.3565 0.9585
7.5887 -6.2722 -4.4423 0.9577
8.2299 -5.6495 -4.5042 0.9571
8.7658 -4.9315 -4.5383 0.9568
9.1778 -4.1353 -4.5421 0.9568
9.6036 -2.4020 -4.4668 0.9575
9.4937 -0.6355 -4.2933 0.9591
9.2567 0.2063 -4.1778 0.9602
7.9934 2.3823 -3.7635 0.9641
6.8584 3.4658 -3.4673 0.9668
6.2491 3.8920 -3.3218 0.9682
5.6281 4.2444 -3.1807 0.9695
5.0055 4.5272 -3.0453 0.9708
4.3892 4.7455 -2.9167 0.9720
2.6317 5.0668 -2.5762 0.9753
2.0878 5.0803 -2.4783 0.9762
1.5681 5.0550 -2.3881 0.9770
1.0734 4.9952 -2.3054 0.9778
0.6041 4.9047 -2.2298 0.9785
0.1601 4.7869 -2.1611 0.9792
-1.0240 4.2972 -1.9932 0.9808
-1.3713 4.0960 -1.9490 0.9812
-1.9987 3.6472 -1.8766 0.9819
-2.2800 3.4021 -1.8479 0.9822
-2.7807 2.8752 -1.8048 0.9826
-3.0009 2.5950 -1.7901 0.9827
-3.3823 2.0034 -1.7738 0.9829
-3.5439 1.6928 -1.7721 0.9829
-3.6860 1.3727 -1.7748 0.9829
-3.8084 1.0432 -1.7817 0.9828
-2.4063 0.4335 -1.1032 0.9893
-2.3848 0.2131 -1.0804 0.9895
-2.3615 0.0000 -1.1132 0.9896
-2.3816 -0.4291 -1.1407 0.9894
-3.8717 -1.8493 -2.0225 0.9812
-3.0802 -3.8125 -2.3104 0.9786
-2.8239 -4.2136 -2.3910 0.9778
-2.5270 -4.6112 -2.4786 0.9770
-2.1871 -5.0021 -2.5734 0.9761
-1.8019 -5.3821 -2.6754 0.9752
-0.8881 -6.0892 -2.9007 0.9732
-0.1408 -2.5260 -1.1925 0.9889
0.0786 -2.3497 -1.1082 0.9897
0.4799 -2.2333 -1.0768 0.9899
5.2842 -6.8470 -4.0769 0.9625
6.0226 -6.5116 -4.1810 0.9615
8.6481 -3.4419 -4.3875 0.9597
8.8511 -2.6379 -4.3535 0.9600
8.9314 -1.8154 -4.2961 0.9605
8.1449 1.2807 -3.8865 0.9642
7.7295 1.9333 -3.7557 0.9654
7.2555 2.5194 -3.6204 0.9666
6.7372 3.0356 -3.4832 0.9679
6.1879 3.4812 -3.3467 0.9691
3.8907 4.6019 -2.8406 0.9737
2.7840 4.8221 -2.6246 0.9757
1.7502 4.8649 -2.4371 0.9774
0.8037 4.7643 -2.2775 0.9789
0.3649 4.6695 -2.2078 0.9795
-0.0507 4.5489 -2.1444 0.9801
-2.0743 3.4148 -1.8834 0.9825
-2.8049 2.6529 -1.8199 0.9831
-3.0094 2.3766 -1.8076 0.9832
-3.1948 2.0900 -1.7996 0.9833
-3.3612 1.7936 -1.7958 0.9833
-2.2973 0.3090 -1.0926 0.9898
-2.3488 0.1047 -1.1083 0.9897
-2.3694 -0.1056 -1.1180 0.9896
-2.3799 -0.3201 -1.1319 0.9894
-2.3893 -0.5414 -1.1548 0.9892
-3.8188 -2.0378 -2.0404 0.9810
-3.5596 -2.8110 -2.1380 0.9801
-2.9570 -4.0133 -2.3498 0.9782
-2.6807 -4.4130 -2.4339 0.9774
-2.0003 -5.1937 -2.6235 0.9757
-1.5917 -5.5665 -2.7291 0.9747
-0.2701 -2.6847 -1.2719 0.9881
0.3784 -2.2434 -1.0724 0.9900
0.5833 -2.2265 -1.0850 0.9899
0.8078 -2.2452 -1.1248 0.9895
1.0841 -2.3361 -1.2140 0.9887
4.1331 -7.1587 -3.8965 0.9641
8.8295 -0.5910 -4.1713 0.9616
8.6253 0.1922 -4.0667 0.9626
8.3259 0.9314 -3.9491 0.9636
7.4989 2.2349 -3.6885 0.9660
7.0010 2.7864 -3.5519 0.9672
5.9053 3.6779 -3.2793 0.9697
5.3310 4.0203 -3.1474 0.9709
4.7520 4.2979 -3.0202 0.9721
3.6084 4.6756 -2.7840 0.9742
3.0547 4.7851 -2.6760 0.9752
2.5180 4.8480 -2.5751 0.9761
2.0009 4.8688 -2.4813 0.9770
0.5814 4.7203 -2.2418 0.9792
0.1542 4.6122 -2.1753 0.9798
-0.6309 4.3258 -2.0607 0.9809
-0.9895 4.1521 -2.0120 0.9813
-1.3260 3.9607 -1.9689 0.9817
-1.6411 3.7533 -1.9309 0.9820
-2.9096 2.5160 -1.8132 0.9831
-3.1045 2.2345 -1.8031 0.9832
-3.4372 1.6418 -1.7956 0.9833
-3.5748 1.3313 -1.7981 0.9833
-3.6931 1.0117 -1.8050 0.9832
-2.3515 0.4237 -1.1263 0.9895
-2.2975 0.0000 -1.1300 0.9898
-2.3094 -0.2064 -1.1404 0.9897
-2.3666 -1.1304 -1.2900 0.9884
-3.5036 -2.5217 -2.1232 0.9809
-2.7128 -4.0478 -2.3967 0.9785
-2.0948 -4.7910 -2.5719 0.9770
-1.7230 -5.1463 -2.6694 0.9761
-1.3071 -5.4849 -2.7733 0.9752
-0.8461 -5.8011 -2.8835 0.9742
-0.1443 -2.5872 -1.2745 0.9885
0.0801 -2.3958 -1.1790 0.9894
0.4851 -2.2573 -1.1356 0.9898
0.9464 -2.3028 -1.2246 0.9890
1.3529 -2.6048 -1.4437 0.9870
4.2326 -6.6303 -3.8690 0.9655
4.9394 -6.4002 -3.9764 0.9646
5.6203 -6.0766 -4.0712 0.9638
6.2579 -5.6599 -4.1501 0.9631
7.3349 -4.5682 -4.2502 0.9622
8.2959 -0.9280 -4.1058 0.9635
8.1667 -0.1820 -4.0178 0.9642
7.2647 1.8170 -3.6832 0.9672
6.3598 2.8656 -3.4309 0.9694
5.8541 3.2934 -3.3037 0.9705
5.3277 3.6572 -3.1784 0.9716
3.7111 4.3895 -2.8272 0.9747
2.6649 4.6156 -2.6214 0.9765
1.6805 4.6709 -2.4416 0.9781
1.2168 4.6443 -2.3614 0.9788
0.7736 4.5864 -2.2877 0.9795
0.3517 4.5002 -2.2202 0.9801
-0.0489 4.3886 -2.1587 0.9806
-0.7857 4.0991 -2.0529 0.9816
-1.4384 3.7349 -1.9686 0.9823
-1.7341 3.5289 -1.9339 0.9826
-2.2659 3.0754 -1.8789 0.9831
-2.7206 2.5731 -1.8418 0.9834
-2.9195 2.3056 -1.8298 0.9836
-3.0998 2.0278 -1.8219 0.9836
-3.2614 1.7403 -1.8182 0.9837
-3.4042 1.4435 -1.8187 0.9837
-3.5281 1.1377 -1.8233 0.9836
-2.5041 0.5674 -1.2629 0.9886
-2.2513 0.3028 -1.1173 0.9899
-2.2893 0.1021 -1.1271 0.9898
-2.3022 -0.1027 -1.1335 0.9898
-2.3142 -0.5243 -1.1671 0.9895
-2.3173 -0.7472 -1.1976 0.9892
-3.6944 -1.9713 -2.0596 0.9815
-3.5679 -2.3340 -2.0971 0.9812
-3.4338 -2.7117 -2.1521 0.9807
-3.0743 -3.4762 -2.2825 0.9795
-1.9143 -4.9704 -2.6198 0.9765
-1.5206 -5.3180 -2.7205 0.9756
-1.0823 -5.6462 -2.8277 0.9747
-0.2782 -2.7658 -1.3673 0.9877
-0.0276 -2.4816 -1.2207 0.9890
0.1829 -2.3399 -1.1544 0.9896
0.3821 -2.2651 -1.1298 0.9898
5.2842 -6.2501 -4.0256 0.9642
7.0955 -4.8707 -4.2331 0.9624
7.5515 -4.2484 -4.2617 0.9621
8.3224 -1.3086 -4.1437 0.9631
8.2436 -0.5518 -4.0637 0.9638
7.8010 0.8727 -3.8609 0.9656
6.6015 2.6273 -3.4947 0.9688
6.1101 3.0876 -3.3672 0.9699
4.5194 4.0876 -2.9972 0.9732
3.9792 4.3023 -2.8824 0.9742
3.4451 4.4639 -2.7734 0.9752
2.4122 4.6442 -2.5740 0.9769
0.9926 4.6191 -2.3238 0.9792
0.5600 4.5466 -2.2532 0.9798
0.1487 4.4474 -2.1887 0.9804
-1.8744 3.4205 -1.9184 0.9828
-2.3867 2.9542 -1.8680 0.9832
-2.6140 2.7029 -1.8495 0.9834
-3.0120 2.1679 -1.8253 0.9836
-3.4685 1.2917 -1.8205 0.9836
-3.5829 0.9815 -1.8272 0.9836
-2.2658 0.2025 -1.1189 0.9899
-2.2359 0.0000 -1.1463 0.9900
-2.2443 -0.2006 -1.1552 0.9899
-2.2416 -0.4039 -1.1677 0.9898
-2.2481 -0.6158 -1.1950 0.9896
-2.2721 -1.0853 -1.2909 0.9887
-2.8527 -3.5308 -2.3271 0.9798
-2.3278 -4.2477 -2.4832 0.9785
-0.8072 -5.5349 -2.8676 0.9752
-0.1479 -2.6527 -1.3621 0.9881
0.2883 -2.3408 -1.2091 0.9895
0.4921 -2.2900 -1.2008 0.9895
0.9733 -2.3685 -1.3128 0.9886
3.3090 -6.3708 -3.6804 0.9682
3.9760 -6.2283 -3.7882 0.9673
4.6322 -6.0021 -3.8869 0.9665
5.2629 -5.6901 -3.9736 0.9658
5.8527 -5.2935 -4.0457 0.9651
6.3863 -4.8162 -4.1007 0.9647
7.5153 -2.9910 -4.1468 0.9643
7.6995 -2.2946 -4.1189 0.9645
7.7827 -1.5819 -4.0715 0.9649
7.4592 0.4994 -3.8326 0.9670
7.1854 1.1299 -3.7290 0.9678
6.8462 1.7124 -3.6179 0.9688
6.0171 2.7112 -3.3835 0.9708
5.5498 3.1223 -3.2645 0.9718
5.0607 3.4740 -3.1469 0.9728
4.5587 3.7679 -3.0321 0.9738
2.5538 4.4232 -2.6184 0.9773
1.1709 4.4692 -2.3685 0.9794
0.7453 4.4186 -2.2973 0.9801
0.3392 4.3402 -2.2319 0.9806
-0.7598 3.9641 -2.0693 0.9820
-1.3929 3.6167 -1.9869 0.9827
-1.9483 3.2073 -1.9239 0.9833
-3.0088 1.9683 -1.8433 0.9840
-3.3045 1.4013 -1.8401 0.9840
-2.4709 0.5598 -1.2989 0.9887
-2.2318 0.0995 -1.1453 0.9900
-2.2425 -0.5081 -1.1788 0.9897
-2.7351 -3.7121 -2.3639 0.9795
-2.4729 -4.0709 -2.4419 0.9788
-2.1731 -4.4222 -2.5261 0.9781
-1.4546 -5.0872 -2.7126 0.9765
-1.0335 -5.3918 -2.8146 0.9756
0.1865 -2.3862 -1.2271 0.9893
0.3884 -2.3023 -1.1970 0.9896
0.5973 -2.2800 -1.2083 0.9895
1.1494 -2.4768 -1.3998 0.9878
3.6430 -6.3098 -3.7353 0.9678
4.3064 -6.1259 -3.8389 0.9669
4.9517 -5.8568 -3.9319 0.9661
6.6275 -4.5495 -4.1212 0.9645
7.0503 -3.9664 -4.1472 0.9643
7.7868 -1.2244 -4.0411 0.9652
7.5679 0.1687 -3.8808 0.9665
7.3312 0.8201 -3.7819 0.9674
6.2396 2.4833 -3.4429 0.9703
5.7868 2.9242 -3.3239 0.9713
5.3074 3.3055 -3.2055 0.9723
4.8108 3.6280 -3.0891 0.9733
3.7976 4.1059 -2.8673 0.9752
3.2934 4.2674 -2.7635 0.9761
2.3133 4.4539 -2.5730 0.9777
1.3907 4.4831 -2.4064 0.9791
0.9557 4.4476 -2.3322 0.9798
0.5398 4.3827 -2.2639 0.9803
0.1435 4.2915 -2.2013 0.9809
-0.5892 4.0398 -2.0930 0.9818
-0.9255 3.8837 -2.0468 0.9822
-1.5390 3.5198 -1.9694 0.9829
-1.8166 3.3149 -1.9379 0.9832
-2.3150 2.8653 -1.8885 0.9836
-2.5362 2.6224 -1.8703 0.9837
-2.7390 2.3685 -1.8564 0.9839
-3.3668 1.2538 -1.8419 0.9840
-2.2585 0.4069 -1.1765 0.9897
-2.1765 0.0000 -1.1619 0.9902
-2.1811 -0.1949 -1.1690 0.9901
-2.1789 -0.3925 -1.1819 0.9900
-2.2033 -1.0524 -1.3035 0.9890
-3.3952 -2.0110 -2.1066 0.9823
-3.2700 -2.3536 -2.1508 0.9819
-2.2374 -4.0827 -2.4853 0.9791
-1.9280 -4.4094 -2.5691 0.9784
-1.5810 -4.7222 -2.6585 0.9777
0.0835 -2.4970 -1.3338 0.9887
0.5028 -2.3398 -1.2776 0.9892
1.0119 -2.4623 -1.4211 0.9880
3.1219 -6.0107 -3.6158 0.9698
3.7451 -5.8665 -3.7156 0.9689
5.4911 -4.9664 -3.9525 0.9670
6.7715 -3.4217 -4.0502 0.9662
7.0408 -2.8021 -4.0454 0.9662
7.2179 -2.1511 -4.0207 0.9664
7.3012 -1.4840 -3.9774 0.9668
7.0232 0.4702 -3.7577 0.9686
6.7762 1.0655 -3.6619 0.9694
6.4672 1.6176 -3.5588 0.9702
6.1065 2.1204 -3.4508 0.9711
3.3902 4.0099 -2.8032 0.9765
2.9160 4.1481 -2.7068 0.9773
2.4498 4.2432 -2.6156 0.9780
1.9948 4.2988 -2.5299 0.9787
1.1276 4.3041 -2.3752 0.9800
0.7186 4.2601 -2.3063 0.9806
0.3273 4.1888 -2.2430 0.9811
-0.0456 4.0928 -2.1850 0.9816
-0.7352 3.8355 -2.0848 0.9824
-1.3495 3.5040 -2.0045 0.9831
-2.1318 2.8934 -1.9186 0.9838
-2.3562 2.6642 -1.8987 0.9840
-3.2088 1.3607 -1.8607 0.9843
-2.4373 0.5522 -1.3341 0.9887
-2.1681 0.2916 -1.1679 0.9901
-2.1806 -0.4941 -1.1936 0.9899
-2.1912 -0.7066 -1.2291 0.9896
-2.2000 -0.9329 -1.2757 0.9892
-3.3348 -2.1815 -2.1273 0.9821
-3.2020 -2.5286 -2.1781 0.9817
-2.8551 -3.2283 -2.3007 0.9806
-2.3783 -3.9153 -2.4456 0.9794
-0.5446 -5.4132 -2.9044 0.9756
0.6104 -2.3298 -1.2857 0.9891
1.2401 -2.6723 -1.5727 0.9867
4.0531 -5.7655 -3.7623 0.9685
5.2228 -5.1649 -3.9213 0.9672
5.7463 -4.7494 -3.9798 0.9668
6.6045 -3.7155 -4.0454 0.9662
7.1416 -2.4798 -4.0358 0.9663
7.2711 -1.8186 -4.0012 0.9666
7.3084 -1.1492 -3.9495 0.9670
7.2564 -0.4857 -3.8824 0.9676
6.9081 0.7728 -3.7108 0.9690
5.9100 2.3521 -3.3957 0.9716
5.4911 2.7748 -3.2844 0.9725
5.0454 3.1423 -3.1731 0.9734
4.1073 3.7148 -2.9564 0.9752
3.6290 3.9237 -2.8532 0.9761
3.1523 4.0846 -2.7544 0.9769
1.7723 4.3127 -2.4891 0.9791
1.3385 4.3150 -2.4118 0.9797
0.9210 4.2857 -2.3401 0.9803
0.5207 4.2277 -2.2740 0.9809
0.1386 4.1437 -2.2133 0.9814
-0.2250 4.0363 -2.1581 0.9818
-0.5699 3.9074 -2.1080 0.9823
-0.8958 3.7591 -2.0629 0.9826
-1.2030 3.5931 -2.0228 0.9830
-1.4914 3.4110 -1.9874 0.9833
-1.7613 3.2141 -1.9565 0.9835
-2.4616 2.5453 -1.8903 0.9841
-2.8385 2.0431 -1.8670 0.9843
-3.0002 1.7770 -1.8615 0.9843
-3.2693 1.2175 -1.8624 0.9843
-3.3763 0.9249 -1.8689 0.9843
-2.2057 0.3974 -1.1965 0.9899
-2.1192 0.0000 -1.1770 0.9904
-2.1250 -0.3828 -1.1992 0.9902
-2.1316 -0.7938 -1.2634 0.9896
-2.1374 -1.0209 -1.3156 0.9892
-2.2265 -1.3188 -1.4373 0.9882
-2.6501 -3.2801 -2.3420 0.9809
-2.1522 -3.9273 -2.4873 0.9797
-1.5168 -4.5305 -2.6535 0.9784
0.7486 -2.4132 -1.4033 0.9885
1.0544 -2.5657 -1.5406 0.9874
2.9521 -5.6837 -3.5571 0.9711
3.5360 -5.5391 -3.6498 0.9704
4.1077 -5.3225 -3.7341 0.9697
4.6553 -5.0332 -3.8078 0.9691
6.0300 -3.7555 -3.9454 0.9680
6.6150 -2.6327 -3.9542 0.9679
6.8686 -1.3961 -3.8928 0.9684
6.8673 -0.7682 -3.8379 0.9689
6.4048 1.0071 -3.6009 0.9708
6.1222 1.5313 -3.5050 0.9715
5.7901 2.0106 -3.4042 0.9723
5.4180 2.4412 -3.3005 0.9732
5.0147 2.8212 -3.1956 0.9740
4.5887 3.1500 -3.0912 0.9749
4.1477 3.4281 -2.9886 0.9757
3.6982 3.6572 -2.8887 0.9765
2.7962 3.9776 -2.7004 0.9780
1.9180 4.1332 -2.5307 0.9794
1.4955 4.1567 -2.4535 0.9800
1.0867 4.1481 -2.3816 0.9806
-0.7117 3.7130 -2.0997 0.9829
-1.0188 3.5630 -2.0582 0.9832
-1.5794 3.2140 -1.9889 0.9837
-2.6718 2.1100 -1.8908 0.9845
-2.9863 1.5936 -1.8799 0.9846
-3.2298 1.0415 -1.8848 0.9846
-2.1231 -0.4810 -1.2091 0.9901
-2.1317 -0.6874 -1.2440 0.9898
-2.1353 -0.9054 -1.2881 0.9894
-2.1463 -1.1453 -1.3512 0.9889
-3.2263 -2.1106 -2.1413 0.9825
-2.2893 -3.7686 -2.4490 0.9800
-1.6890 -4.3854 -2.6101 0.9787
-1.3356 -4.6710 -2.6982 0.9780
-0.0304 -2.7273 -1.5148 0.9876
0.4057 -2.4052 -1.3547 0.9889
0.6246 -2.3839 -1.3687 0.9888
3.8242 -5.4399 -3.6931 0.9700
4.3853 -5.1869 -3.7724 0.9694
4.9161 -4.8616 -3.8400 0.9689
5.4041 -4.4665 -3.8939 0.9684
6.4984 -2.9280 -3.9586 0.9679
6.8379 -1.7102 -3.9147 0.9683
6.8783 -1.0815 -3.8671 0.9686
6.5247 0.7299 -3.6464 0.9704
5.9618 1.7768 -3.4551 0.9719
5.6085 2.2321 -3.3526 0.9728
4.8040 2.9920 -3.1433 0.9744
3.9236 3.5487 -2.9382 0.9761
3.0206 3.9139 -2.7458 0.9776
2.5733 4.0310 -2.6561 0.9784
2.1339 4.1084 -2.5712 0.9790
0.8880 4.1326 -2.3476 0.9808
0.5026 4.0808 -2.2836 0.9814
0.1339 4.0034 -2.2247 0.9818
-0.8675 3.6402 -2.0783 0.9830
-1.1656 3.4816 -2.0391 0.9833
-1.4459 3.3069 -2.0045 0.9836
-1.7084 3.1175 -1.9744 0.9839
-1.9532 2.9144 -1.9485 0.9841
-2.1804 2.6988 -1.9269 0.9843
-2.3901 2.4713 -1.9095 0.9844
-2.7570 1.9844 -1.8866 0.9846
-2.9143 1.7262 -1.8812 0.9846
-3.0539 1.4587 -1.8797 0.9846
-2.0638 0.0000 -1.1916 0.9905
-2.0684 -0.1848 -1.1990 0.9905
-2.0727 -0.3734 -1.2160 0.9903
-2.0734 -0.7721 -1.2774 0.9898
-2.1172 -1.2540 -1.4207 0.9887
-2.9197 -2.5248 -2.2286 0.9823
-2.7529 -2.8465 -2.2863 0.9819
-2.5568 -3.1646 -2.3489 0.9814
-0.2816 -5.0508 -2.9206 0.9769
0.3085 -2.5047 -1.4570 0.9884
2.2458 -5.4648 -3.4112 0.9731
2.7971 -5.3852 -3.5035 0.9724
3.8819 -5.0299 -3.6683 0.9711
4.3946 -4.7513 -3.7366 0.9705
5.3047 -4.0004 -3.8359 0.9698
5.6807 -3.5380 -3.8639 0.9696
5.9919 -3.0278 -3.8760 0.9695
6.2311 -2.4799 -3.8720 0.9695
5.4999 1.9098 -3.3613 0.9735
5.1542 2.3224 -3.2639 0.9742
3.9640 3.2763 -2.9691 0.9765
3.5397 3.5005 -2.8742 0.9773
3.1114 3.6802 -2.7823 0.9780
2.6838 3.8178 -2.6943 0.9787
1.8456 3.9771 -2.5314 0.9800
0.3054 3.9086 -2.2635 0.9821
-0.0426 3.8256 -2.2088 0.9825
-0.3743 3.7207 -2.1590 0.9829
-0.6893 3.5959 -2.1139 0.9832
-0.9873 3.4528 -2.0734 0.9835
-1.7789 2.9285 -1.9783 0.9843
-2.2214 2.5118 -1.9359 0.9846
-2.5957 2.0499 -1.9096 0.9848
-3.0287 1.2843 -1.8993 0.9849
-2.0782 0.2795 -1.2106 0.9904
-2.0611 0.0919 -1.1911 0.9905
-2.0719 -0.2786 -1.2070 0.9904
-2.4474 -3.3216 -2.3821 0.9811
-1.6230 -4.2141 -2.6072 0.9794
-0.0573 -5.1418 -2.9688 0.9765
0.2021 -2.5858 -1.4975 0.9881
0.4153 -2.4618 -1.4414 0.9885
0.6424 -2.4520 -1.4634 0.9884
0.9327 -2.5925 -1.5907 0.9874
2.5212 -5.4329 -3.4580 0.9727
3.6161 -5.1439 -3.6302 0.9714
5.0950 -4.2110 -3.8163 0.9699
6.4456 -1.6121 -3.8360 0.9698
6.4553 -0.4321 -3.7353 0.9706
6.3488 0.1415 -3.6664 0.9711
5.9429 1.2079 -3.5013 0.9724
5.6587 1.6865 -3.4090 0.9731
4.9694 2.5112 -3.2146 0.9746
4.5808 2.8530 -3.1157 0.9754
4.1730 3.1470 -3.0176 0.9761
3.7527 3.3941 -2.9213 0.9769
2.4715 3.8716 -2.6519 0.9790
2.0521 3.9509 -2.5704 0.9796
1.6417 3.9949 -2.4936 0.9802
0.8569 3.9874 -2.3547 0.9813
0.4854 3.9413 -2.2927 0.9818
0.1294 3.8700 -2.2356 0.9823
-0.2105 3.7758 -2.1833 0.9827
