ply
format ascii 1.0
element vertex 1587
property float32 x
property float32 y
property float32 z
property float32 I
end_header
-2.9456 10.3013 -0.9822 0.9579
-3.6405 9.4525 -0.9286 0.9601
-4.2562 8.6611 -0.8847 0.9620
-5.1230 8.4336 -0.9046 0.9611
-5.6578 7.6788 -0.8744 0.9624
-7.0087 5.5347 -0.8187 0.9648
-8.0971 3.4335 -0.8063 0.9653
-4.2496 0.5715 -0.3931 0.9829
-4.0002 0.1784 -0.3671 0.9840
-9.5685 -0.4267 -0.8781 0.9623
-9.8288 -1.3218 -0.9092 0.9609
-10.3256 -3.3295 -0.9946 0.9574
-10.6668 -5.6920 -1.1084 0.9526
-10.8162 -7.0756 -1.1849 0.9494
-11.0183 -8.7011 -1.2871 0.9452
0.4502 -2.6690 -0.2481 0.9892
0.7810 -2.1709 -0.2115 0.9908
1.4724 -1.7416 -0.2091 0.9909
1.9825 -1.6386 -0.2358 0.9897
0.4655 13.9220 -1.2770 0.9456
-0.7104 12.7396 -1.1697 0.9500
-3.3041 9.8689 -0.9541 0.9591
-3.9571 9.0502 -0.9055 0.9611
-4.8351 8.8230 -0.9224 0.9604
-5.3968 8.0526 -0.8887 0.9618
-6.3743 6.5910 -0.8406 0.9638
-6.8051 5.8846 -0.8248 0.9645
-3.7849 0.0000 -0.4105 0.9849
-9.3352 -1.6818 -1.0289 0.9626
-9.5407 -2.6134 -1.0730 0.9610
-9.7323 -3.6243 -1.1264 0.9591
-9.9090 -4.7331 -1.1911 0.9568
-10.1315 -8.7611 -1.4528 0.9475
-10.2126 -10.5597 -1.5934 0.9426
0.3589 -2.9138 -0.3184 0.9883
0.5341 -2.4856 -0.2758 0.9898
0.7000 -2.2566 -0.2563 0.9905
1.0158 -1.9557 -0.2390 0.9912
1.1862 -1.8582 -0.2391 0.9912
1.5709 -1.6984 -0.2509 0.9907
1.0336 13.2272 -1.4391 0.9480
-1.1307 11.2391 -1.2252 0.9556
-1.9897 10.3802 -1.1464 0.9584
-3.3992 8.8258 -1.0258 0.9627
-4.8109 7.9199 -1.0051 0.9634
-7.3329 3.9129 -0.9015 0.9671
-7.9568 2.5657 -0.9068 0.9669
-4.7637 1.0793 -0.5298 0.9805
-9.8226 -4.1651 -1.1572 0.9580
-9.8969 -5.2811 -1.2168 0.9559
-10.0825 -7.9620 -1.3935 0.9496
-10.1739 -9.6224 -1.5189 0.9452
0.6193 -2.3638 -0.2651 0.9902
0.9380 -2.0213 -0.2417 0.9911
1.1010 -1.9070 -0.2388 0.9912
1.9728 -1.6306 -0.2776 0.9898
2.4610 -1.6894 -0.3238 0.9881
-0.6523 11.6980 -1.2708 0.9540
-1.5752 10.8007 -1.1839 0.9570
-3.0794 9.1978 -1.0521 0.9617
-4.5352 8.2758 -1.0236 0.9627
-5.0735 7.5702 -0.9885 0.9640
-5.5634 6.8859 -0.9602 0.9650
-6.4252 5.5561 -0.9213 0.9664
-7.4964 3.5807 -0.9011 0.9671
-7.8080 2.9078 -0.9037 0.9670
-8.1011 2.2191 -0.9111 0.9668
-3.9949 0.7197 -0.4403 0.9838
-3.5692 0.0000 -0.4473 0.9857
-8.9563 -2.4533 -1.1637 0.9633
-9.2397 -4.4134 -1.2832 0.9596
-9.2670 -6.6699 -1.4308 0.9550
-9.3008 -9.6169 -1.6766 0.9475
0.3573 -2.9013 -0.3663 0.9883
1.3593 -1.7613 -0.2788 0.9911
1.5641 -1.6911 -0.2887 0.9908
2.1670 -1.6342 -0.3401 0.9891
2.2056 13.0760 -1.6618 0.9479
-0.1250 11.2225 -1.4065 0.9558
-3.9000 7.9362 -1.1081 0.9650
-5.4766 6.1924 -1.0360 0.9672
-4.3832 0.9931 -0.5632 0.9820
-3.5494 0.4773 -0.4488 0.9857
-3.6310 -0.1619 -0.4555 0.9855
-9.2340 -4.9274 -1.3116 0.9587
-9.2351 -6.0413 -1.3829 0.9565
-9.2905 -7.3366 -1.4835 0.9534
-9.2834 -10.4969 -1.7561 0.9451
0.4476 -2.6538 -0.3373 0.9892
0.9362 -2.0174 -0.2787 0.9911
1.4600 -1.7268 -0.2834 0.9909
1.9635 -1.6229 -0.3192 0.9898
1.3931 6.4831 -0.8310 0.9736
1.5489 12.5760 -1.5879 0.9502
0.3896 11.6523 -1.4610 0.9541
-0.6028 10.8108 -1.3569 0.9573
-1.4634 10.0336 -1.2707 0.9599
-3.4750 7.9475 -1.0870 0.9656
-4.2694 7.7908 -1.1133 0.9648
-5.6875 5.8809 -1.0252 0.9676
-6.0843 5.2613 -1.0080 0.9681
-7.4013 2.7562 -0.9897 0.9687
-3.5138 -0.3140 -0.5018 0.9858
-8.2950 -1.4944 -1.1988 0.9665
-8.5574 -3.1868 -1.2988 0.9638
-8.6528 -4.1331 -1.3639 0.9620
-8.6036 -5.0959 -1.4223 0.9604
-8.2215 -12.2673 -2.1005 0.9421
0.3558 -2.8889 -0.4140 0.9883
0.6973 -2.2478 -0.3347 0.9905
0.8567 -2.0846 -0.3206 0.9909
1.0121 -1.9486 -0.3123 0.9912
1.1797 -1.8480 -0.3118 0.9912
1.3557 -1.7566 -0.3156 0.9911
1.8087 -1.6359 -0.3469 0.9902
2.0175 11.9605 -1.7252 0.9522
0.8713 11.1505 -1.5908 0.9558
-0.1159 10.4015 -1.4796 0.9588
-2.9991 7.7871 -1.1869 0.9668
-3.7659 7.6634 -1.2145 0.9661
-4.2859 7.0556 -1.1742 0.9672
-7.1649 2.3104 -1.0708 0.9700
-4.1432 0.9387 -0.6042 0.9830
-3.3671 0.4528 -0.4832 0.9864
-3.3610 0.1499 -0.4785 0.9865
-3.4470 -0.1537 -0.4908 0.9862
-3.6292 -0.4881 -0.5208 0.9853
-8.3688 -1.8961 -1.2205 0.9659
-8.5002 -2.7410 -1.2703 0.9646
-8.6084 -3.6502 -1.3299 0.9629
-8.6521 -4.6169 -1.3949 0.9612
-8.6025 -5.6275 -1.4621 0.9593
0.4464 -2.6462 -0.3817 0.9892
0.6168 -2.3543 -0.3462 0.9902
0.9348 -2.0145 -0.3159 0.9911
1.0960 -1.8982 -0.3118 0.9912
2.4282 -1.6669 -0.4189 0.9882
1.3878 6.4585 -0.9396 0.9737
-1.3659 9.3657 -1.3462 0.9625
-2.7089 8.0910 -1.2136 0.9661
-3.2742 7.4884 -1.1625 0.9675
-4.5280 6.7563 -1.1568 0.9677
-5.3951 5.5786 -1.1038 0.9691
-5.7765 4.9952 -1.0862 0.9696
-6.1283 4.4109 -1.0740 0.9700
-6.7545 3.2264 -1.0647 0.9702
-7.0333 2.6193 -1.0675 0.9701
-7.2914 1.9973 -1.0753 0.9699
-3.3525 0.2996 -0.4787 0.9865
-3.2915 0.0000 -0.5241 0.9868
-7.8544 -1.4150 -1.2708 0.9682
-8.0671 -3.0042 -1.3708 0.9657
-8.1337 -3.8851 -1.4353 0.9641
-8.0679 -4.7786 -1.4931 0.9627
-8.0407 -5.7873 -1.5775 0.9607
-7.9915 -6.9105 -1.6823 0.9581
-7.8901 -8.1582 -1.8072 0.9551
-7.4824 -11.1644 -2.1401 0.9470
0.5298 -2.4656 -0.4016 0.9898
0.6959 -2.2433 -0.3740 0.9905
0.8554 -2.0815 -0.3583 0.9909
1.1784 -1.8459 -0.3487 0.9912
1.3547 -1.7553 -0.3531 0.9911
1.5558 -1.6821 -0.3649 0.9908
1.8041 -1.6317 -0.3873 0.9902
2.1445 -1.6172 -0.4277 0.9892
0.8075 10.3337 -1.6505 0.9589
-0.9130 9.0757 -1.4525 0.9637
-2.2617 7.9096 -1.3100 0.9672
-3.5634 7.2514 -1.2866 0.9678
-4.9348 5.5799 -1.1862 0.9703
-5.6696 4.4772 -1.1504 0.9712
-5.9940 3.9211 -1.1405 0.9714
-6.8230 2.2002 -1.1416 0.9714
-3.9744 0.9005 -0.6489 0.9836
-3.2540 0.4376 -0.5228 0.9868
-3.3344 -0.1487 -0.5315 0.9866
-3.4817 -0.4682 -0.5594 0.9859
-7.9167 -1.7937 -1.2926 0.9677
-8.0233 -2.5871 -1.3424 0.9664
-8.0220 -6.3349 -1.6277 0.9594
-7.8161 -8.8378 -1.8787 0.9533
-7.3206 -12.0514 -2.2453 0.9445
0.4451 -2.6386 -0.4261 0.9892
0.9334 -2.0114 -0.3531 0.9911
1.2622 -1.7955 -0.3495 0.9911
1.9472 -1.6094 -0.4023 0.9898
3.7630 12.1308 -2.0225 0.9499
1.3141 10.6697 -1.7118 0.9574
-0.5230 9.3790 -1.4958 0.9627
-1.9531 8.1954 -1.3415 0.9665
-2.5539 7.6283 -1.2810 0.9679
-3.0949 7.0781 -1.2301 0.9692
-3.8189 6.9687 -1.2654 0.9683
-4.7309 5.8556 -1.1987 0.9700
-5.1302 5.3046 -1.1751 0.9706
-5.4971 4.7536 -1.1572 0.9710
-5.8351 4.1999 -1.1448 0.9713
-6.4340 3.0733 -1.1354 0.9715
-3.5501 0.6396 -0.5744 0.9855
-3.2817 -0.2933 -0.5809 0.9867
-7.5552 -2.0696 -1.3813 0.9687
-7.6710 -3.6641 -1.4990 0.9661
-7.5924 -4.4969 -1.5559 0.9648
-7.5381 -5.4256 -1.6377 0.9630
-7.4610 -6.4518 -1.7392 0.9607
-7.3302 -7.5793 -1.8592 0.9581
-6.8571 -10.2315 -2.1718 0.9512
-6.4820 -11.8281 -2.3783 0.9467
0.5284 -2.4589 -0.4435 0.9898
0.6945 -2.2389 -0.4133 0.9905
0.8541 -2.0783 -0.3962 0.9909
1.0098 -1.9442 -0.3863 0.9911
1.3536 -1.7540 -0.3907 0.9910
1.5546 -1.6808 -0.4037 0.9907
2.1457 -1.6182 -0.4739 0.9891
2.8329 10.8129 -1.9710 0.9556
-0.8575 8.5236 -1.5105 0.9658
-1.5319 7.9919 -1.4348 0.9675
-2.1360 7.4699 -1.3699 0.9689
-2.6801 6.9588 -1.3149 0.9702
-4.7006 5.3150 -1.2511 0.9716
-5.0692 4.7945 -1.2303 0.9721
-5.4082 4.2708 -1.2151 0.9724
-6.2698 2.6586 -1.2008 0.9727
-3.2276 -0.1439 -0.5697 0.9870
-7.5089 -1.7013 -1.3576 0.9692
-7.5950 -2.4490 -1.4071 0.9681
-7.6698 -4.0927 -1.5329 0.9653
-7.5057 -5.9272 -1.6864 0.9619
-7.4030 -7.0017 -1.7967 0.9595
-7.2410 -8.1875 -1.9273 0.9566
-6.2445 -12.7071 -2.4965 0.9441
0.6143 -2.3446 -0.4274 0.9902
0.7736 -2.1504 -0.4030 0.9908
1.0935 -1.8940 -0.3856 0.9912
1.6705 -1.6520 -0.4143 0.9905
2.4127 -1.6562 -0.5160 0.9882
6.4781 12.4713 -2.4779 0.9445
3.4517 11.1271 -2.0542 0.9538
1.3821 6.4319 -1.1600 0.9736
1.2209 9.9129 -1.7611 0.9602
0.3124 9.3429 -1.6483 0.9627
-0.4903 8.7925 -1.5528 0.9649
-1.2044 8.2577 -1.4715 0.9667
-2.4150 7.2131 -1.3413 0.9696
-3.0361 6.9437 -1.3363 0.9697
-4.0846 6.0947 -1.2937 0.9706
-4.5041 5.5748 -1.2637 0.9713
-4.8888 5.0550 -1.2400 0.9718
-5.8663 3.4746 -1.2022 0.9727
-4.2904 1.1753 -0.7844 0.9821
-3.4372 0.6192 -0.6158 0.9859
-3.1509 0.2816 -0.5578 0.9872
-3.1015 0.0000 -0.6002 0.9874
-3.1775 -0.2839 -0.6173 0.9871
-7.1768 -1.9659 -1.4400 0.9701
-7.2317 -2.6931 -1.4933 0.9690
-7.2559 -3.4658 -1.5561 0.9678
-7.0922 -5.1046 -1.6910 0.9650
-6.8418 -7.0744 -1.9045 0.9607
-6.6246 -8.1994 -2.0399 0.9580
-5.9384 -10.8362 -2.3912 0.9509
0.8528 -2.0752 -0.4342 0.9909
1.0086 -1.9420 -0.4235 0.9911
1.1757 -1.8417 -0.4228 0.9911
1.3526 -1.7526 -0.4284 0.9910
6.6938 11.5939 -2.5907 0.9469
3.7894 10.5331 -2.1662 0.9554
1.6031 9.5041 -1.8652 0.9615
-0.0949 8.5144 -1.6478 0.9659
-1.4470 7.5492 -1.4875 0.9692
-2.5490 6.6184 -1.3725 0.9715
-3.2148 6.5420 -1.4106 0.9707
-4.0990 5.5633 -1.3373 0.9722
-5.4684 3.5772 -1.2645 0.9737
-5.7434 3.0648 -1.2598 0.9738
-6.2242 2.0071 -1.2656 0.9737
-3.6833 0.8345 -0.7309 0.9847
-3.1048 0.4175 -0.6062 0.9873
-3.0751 0.1371 -0.5957 0.9875
-3.2339 -0.4349 -0.6315 0.9868
-7.1389 -1.6174 -1.4165 0.9706
-7.2079 -2.3242 -1.4656 0.9696
-7.2478 -3.0733 -1.5235 0.9684
-7.0493 -5.5667 -1.7382 0.9641
-6.4876 -8.8050 -2.1165 0.9564
-5.6987 -11.5965 -2.5005 0.9487
-5.1075 -13.2614 -2.7501 0.9437
0.7725 -2.1471 -0.4416 0.9907
1.2593 -1.7914 -0.4238 0.9911
1.6700 -1.6515 -0.4545 0.9905
2.4193 -1.6608 -0.5679 0.9881
7.5769 11.8690 -2.7250 0.9442
5.8800 11.3211 -2.4687 0.9494
4.4313 10.7830 -2.2560 0.9536
3.1865 10.2723 -2.0813 0.9571
1.3810 6.4269 -1.2721 0.9736
0.2928 8.7584 -1.6958 0.9649
-0.4613 8.2724 -1.6033 0.9668
-1.1360 7.7891 -1.5233 0.9684
-2.2896 6.8386 -1.3956 0.9710
-3.4509 6.2971 -1.3896 0.9712
-3.8924 5.8079 -1.3530 0.9719
-5.3216 3.8303 -1.2688 0.9736
-6.1123 2.2763 -1.2622 0.9738
-4.1641 1.1407 -0.8355 0.9826
-3.0639 0.2738 -0.5953 0.9875
-3.0211 0.0000 -0.6369 0.9877
-6.8325 -1.8716 -1.4935 0.9715
-6.8724 -2.5593 -1.5460 0.9705
-6.5795 -5.6895 -1.8338 0.9651
-6.4119 -6.6298 -1.9444 0.9630
-5.8736 -8.7640 -2.2242 0.9578
-5.4744 -9.9894 -2.4015 0.9545
-4.9652 -11.3556 -2.6128 0.9506
-4.3091 -12.8705 -2.8614 0.9460
0.3526 -2.8628 -0.6081 0.9883
0.6917 -2.2300 -0.4922 0.9905
1.1744 -1.8396 -0.4601 0.9911
1.3515 -1.7512 -0.4664 0.9910
1.5521 -1.6781 -0.4819 0.9907
1.8025 -1.6303 -0.5124 0.9901
2.1483 -1.6201 -0.5673 0.9891
6.1044 10.5731 -2.5738 0.9513
4.7139 10.1582 -2.3609 0.9553
3.5018 9.7334 -2.1807 0.9586
1.4994 8.8886 -1.9004 0.9638
0.6608 8.4560 -1.7881 0.9659
-0.0894 8.0231 -1.6915 0.9677
-1.3706 7.1504 -1.5349 0.9707
-1.9203 6.7157 -1.4725 0.9719
-3.0636 6.2342 -1.4644 0.9720
-4.2896 4.8503 -1.3651 0.9739
-4.6327 4.3816 -1.3443 0.9743
-4.9477 3.9072 -1.3291 0.9746
-5.2366 3.4256 -1.3192 0.9747
-5.7418 2.4347 -1.3148 0.9748
-5.9602 1.9219 -1.3202 0.9747
-3.5520 0.8048 -0.7678 0.9852
-3.0346 0.4081 -0.6455 0.9876
-3.0505 -0.1360 -0.6437 0.9876
-3.1545 -0.4242 -0.6710 0.9871
-6.8809 -2.9177 -1.5757 0.9699
-6.8726 -3.6673 -1.6423 0.9687
-6.7396 -4.4088 -1.6978 0.9676
-6.6427 -5.2457 -1.7844 0.9660
-6.5029 -6.1504 -1.8870 0.9641
-6.3050 -7.1291 -2.0064 0.9618
-6.0375 -8.1942 -2.1458 0.9592
-5.6868 -9.3617 -2.3092 0.9562
-5.2349 -10.6526 -2.5023 0.9526
-3.9165 -13.6967 -3.0033 0.9434
0.4413 -2.6165 -0.5594 0.9892
0.6117 -2.3350 -0.5089 0.9902
1.0910 -1.8897 -0.4600 0.9911
1.4502 -1.7153 -0.4735 0.9909
2.4260 -1.6654 -0.6204 0.9880
8.8617 11.4824 -3.0578 0.9424
5.3846 10.3672 -2.4628 0.9534
4.0876 9.9467 -2.2671 0.9570
1.3800 6.4219 -1.3848 0.9735
-3.2908 6.0050 -1.4436 0.9724
-3.7165 5.5453 -1.4073 0.9731
-4.7936 4.1452 -1.3360 0.9744
-5.0953 3.6674 -1.3235 0.9747
-5.3717 3.1817 -1.3162 0.9748
-4.0001 1.0957 -0.8744 0.9832
-3.2435 0.5844 -0.6948 0.9866
-3.1643 -0.5701 -0.7338 0.9869
-6.5175 -1.7853 -1.5424 0.9727
-6.5409 -3.1243 -1.6545 0.9707
-6.4509 -3.8209 -1.7113 0.9697
-5.7901 -7.1664 -2.1028 0.9629
-5.4770 -8.1722 -2.2454 0.9604
-5.0772 -9.2647 -2.4113 0.9576
-3.9422 -11.7747 -2.8341 0.9503
0.5255 -2.4454 -0.5709 0.9898
0.6903 -2.2255 -0.5318 0.9905
1.5509 -1.6768 -0.5213 0.9907
2.1496 -1.6211 -0.6145 0.9890
7.1990 10.2408 -2.8571 0.9499
5.6072 9.7119 -2.5596 0.9550
3.2571 9.0532 -2.1960 0.9613
2.2782 8.6958 -2.0517 0.9638
0.6224 7.9655 -1.8236 0.9678
-0.0844 7.5784 -1.7298 0.9694
-0.7229 7.1856 -1.6483 0.9708
-2.4571 6.3797 -1.5604 0.9723
-2.9250 5.9522 -1.5137 0.9732
-3.3537 5.5210 -1.4744 0.9738
-3.7470 5.0855 -1.4418 0.9744
-4.4396 4.1990 -1.3947 0.9752
-4.7438 3.7461 -1.3796 0.9755
-3.4289 0.7769 -0.8025 0.9857
-6.5471 -2.7762 -1.6231 0.9712
-6.3898 -4.1800 -1.7428 0.9692
-6.2781 -4.9578 -1.8259 0.9677
-6.1267 -5.7946 -1.9247 0.9660
-4.2760 -11.1025 -2.7155 0.9524
-2.6827 -13.9952 -3.2525 0.9432
0.7700 -2.1404 -0.5192 0.9907
0.9278 -1.9994 -0.5031 0.9910
1.0897 -1.8875 -0.4975 0.9911
1.2564 -1.7873 -0.4987 0.9911
1.4490 -1.7139 -0.5123 0.9908
1.6690 -1.6505 -0.5358 0.9904
1.9510 -1.6125 -0.5777 0.9897
6.2940 9.8594 -2.6698 0.9531
2.7534 8.8763 -2.1212 0.9626
1.3804 6.4238 -1.4997 0.9734
1.0045 8.1560 -1.8756 0.9668
-0.4116 7.3825 -1.6876 0.9701
-1.5704 6.5897 -1.5462 0.9726
-2.1310 6.3650 -1.5320 0.9728
-2.6962 6.1664 -1.5361 0.9728
-3.9314 4.8660 -1.4278 0.9747
-5.3948 2.5769 -1.3646 0.9758
-5.6145 2.0909 -1.3674 0.9757
-3.1659 0.5704 -0.7342 0.9869
-2.9277 0.2616 -0.6709 0.9880
-3.1004 -0.5586 -0.7743 0.9871
-6.2305 -2.9760 -1.6972 0.9720
-6.1437 -3.6389 -1.7552 0.9710
-5.1282 -7.6518 -2.2641 0.9628
-4.7313 -8.6336 -2.4199 0.9603
-4.2376 -9.6916 -2.6000 0.9574
-3.6286 -10.8380 -2.8093 0.9540
-2.8795 -12.0830 -3.0532 0.9501
0.6892 -2.2219 -0.5718 0.9905
0.8489 -2.0656 -0.5489 0.9908
1.0052 -1.9353 -0.5360 0.9911
1.5496 -1.6754 -0.5610 0.9906
1.8014 -1.6292 -0.5970 0.9900
8.3923 9.9265 -3.1951 0.9479
6.8688 9.7710 -2.9358 0.9520
4.0522 8.7323 -2.3662 0.9611
3.0428 8.4577 -2.2093 0.9637
2.1376 8.1591 -2.0732 0.9659
0.5878 7.5227 -1.8547 0.9694
-0.0800 7.1775 -1.7643 0.9709
-0.6863 6.8225 -1.6854 0.9722
-1.2383 6.4602 -1.6168 0.9733
-1.7785 6.2199 -1.5901 0.9737
-2.3468 6.0934 -1.6050 0.9735
-3.2111 5.2863 -1.5203 0.9748
-4.2607 4.0297 -1.4415 0.9761
-2.8899 0.3887 -0.7167 0.9881
-2.8978 0.1292 -0.7130 0.9881
-3.0390 -0.4087 -0.7537 0.9874
-6.2405 -2.0123 -1.6117 0.9734
-6.2101 -3.3138 -1.7302 0.9714
-6.0721 -3.9721 -1.7835 0.9706
-5.9491 -4.6980 -1.8633 0.9693
-4.9408 -8.1337 -2.3392 0.9616
-4.4977 -9.1526 -2.5067 0.9589
-3.2743 -11.4509 -2.9274 0.9521
-2.4422 -12.7410 -3.1887 0.9480
-1.4226 -14.1409 -3.4934 0.9431
0.4441 -2.6326 -0.6562 0.9891
0.9264 -1.9963 -0.5409 0.9910
1.0885 -1.8853 -0.5351 0.9911
1.2550 -1.7852 -0.5364 0.9911
1.4479 -1.7126 -0.5512 0.9908
1.6685 -1.6500 -0.5768 0.9904
1.9521 -1.6135 -0.6225 0.9896
2.4397 -1.6748 -0.7274 0.9879
7.6074 9.8572 -3.0605 0.9500
5.9347 9.2965 -2.7110 0.9556
3.5335 8.5984 -2.2850 0.9624
2.5781 8.3110 -2.1389 0.9648
0.9472 7.6907 -1.9046 0.9686
-2.5770 5.8937 -1.5811 0.9739
-4.1039 4.2434 -1.4510 0.9760
-4.6920 3.3771 -1.4209 0.9765
-4.9486 2.9311 -1.4137 0.9766
-3.8036 1.0419 -0.9694 0.9839
-3.0843 0.5556 -0.7703 0.9872
-2.9343 -0.2622 -0.7763 0.9879
-3.0385 -0.5474 -0.8135 0.9873
-5.9460 -2.8401 -1.7363 0.9731
-5.5738 -4.8198 -1.9416 0.9700
-5.3821 -5.5650 -2.0400 0.9685
-4.8188 -7.1901 -2.2807 0.9648
-3.9464 -9.0256 -2.5956 0.9601
-2.6491 -11.1160 -3.0111 0.9538
-0.7519 -13.4851 -3.5589 0.9457
0.3581 -2.9075 -0.7719 0.9880
1.1703 -1.8332 -0.5731 0.9910
1.5483 -1.6741 -0.6009 0.9906
1.8008 -1.6287 -0.6398 0.9900
2.1522 -1.6231 -0.7103 0.9889
4.9372 8.5514 -2.6019 0.9600
2.8536 7.9317 -2.2211 0.9657
2.0124 7.6811 -2.0923 0.9677
0.5566 7.1235 -1.8828 0.9709
-0.6531 6.4919 -1.7192 0.9734
-1.7724 6.1984 -1.6987 0.9737
-3.7842 4.2789 -1.5052 0.9766
-4.0943 3.8724 -1.4849 0.9770
-4.6380 3.0341 -1.4604 0.9773
-5.2784 1.7021 -1.4614 0.9773
-2.8515 0.1271 -0.7521 0.9883
-2.9007 -0.1293 -0.7651 0.9881
-2.9836 -0.4013 -0.7933 0.9876
-5.9213 -3.1597 -1.7685 0.9726
-5.2654 -5.9537 -2.0943 0.9677
-4.9850 -6.7656 -2.2144 0.9658
-4.6335 -7.6277 -2.3517 0.9638
-4.1990 -8.5447 -2.5087 0.9614
-3.0206 -10.5636 -2.8951 0.9556
-2.2399 -11.6851 -3.1351 0.9520
0.4455 -2.6409 -0.7057 0.9890
0.6125 -2.3378 -0.6368 0.9901
0.7693 -2.1384 -0.5988 0.9906
0.9250 -1.9932 -0.5790 0.9910
1.0872 -1.8831 -0.5730 0.9910
1.4467 -1.7112 -0.5905 0.9908
1.6680 -1.6496 -0.6181 0.9903
2.4467 -1.6796 -0.7820 0.9878
10.0262 9.0681 -3.5622 0.9456
7.0032 9.0742 -3.0203 0.9537
4.2952 8.2697 -2.4555 0.9622
1.3834 6.4377 -1.7351 0.9731
0.2330 6.9706 -1.8378 0.9716
-0.3711 6.6544 -1.7562 0.9728
-2.4670 5.6423 -1.6226 0.9748
-2.8836 5.2619 -1.5811 0.9755
-3.2667 4.8743 -1.5461 0.9760
-3.6189 4.4792 -1.5174 0.9765
-4.2395 3.6661 -1.4769 0.9771
-5.7146 -1.5654 -1.6671 0.9757
-5.4461 -3.9198 -1.8879 0.9725
-5.1042 -5.2777 -2.0658 0.9700
-4.8546 -6.0086 -2.1734 0.9684
-3.6905 -8.4404 -2.5919 0.9624
-3.1267 -9.3390 -2.7709 0.9599
-2.4506 -10.2832 -2.9743 0.9570
-1.6451 -11.2798 -3.2072 0.9537
-0.6868 -12.3164 -3.4707 0.9500
0.3600 -2.9229 -0.8286 0.9878
0.5296 -2.4644 -0.7092 0.9896
0.6924 -2.2321 -0.6575 0.9903
1.3473 -1.7457 -0.6204 0.9909
11.5155 7.9049 -3.9299 0.9436
8.4437 8.3502 -3.3412 0.9519
7.1065 8.4056 -3.0969 0.9553
4.7829 8.2842 -2.6914 0.9610
3.5462 7.6420 -2.3703 0.9656
2.6851 7.4634 -2.2316 0.9676
1.9014 7.2576 -2.1109 0.9693
0.5283 6.7614 -1.9082 0.9722
-0.0722 6.4830 -1.8241 0.9734
-1.6959 5.9311 -1.7356 0.9747
-3.6389 4.1146 -1.5455 0.9774
-3.9391 3.7256 -1.5255 0.9777
-4.6929 2.5042 -1.4966 0.9781
-5.0814 1.6386 -1.5022 0.9781
-3.1370 0.7107 -0.9050 0.9867
-2.8062 0.1251 -0.7903 0.9884
-2.9298 -0.3940 -0.8317 0.9878
-5.2081 -4.9258 -2.0169 0.9707
-4.7069 -6.3882 -2.2325 0.9676
-4.3599 -7.1773 -2.3628 0.9657
-3.9354 -8.0083 -2.5106 0.9636
-3.4216 -8.8840 -2.6786 0.9612
-2.0651 -10.7736 -3.0864 0.9554
-0.1431 -12.8461 -3.6145 0.9480
0.4469 -2.6493 -0.7559 0.9889
0.6139 -2.3434 -0.6816 0.9900
0.7710 -2.1431 -0.6408 0.9906
1.0861 -1.8812 -0.6112 0.9910
9.1605 8.2852 -3.4752 0.9500
7.7594 8.3894 -3.2152 0.9536
6.4836 8.4011 -2.9858 0.9569
5.3232 8.3386 -2.7834 0.9597
2.2836 7.3616 -2.1686 0.9685
0.2215 6.6243 -1.8648 0.9728
-1.4532 6.0978 -1.7637 0.9743
-1.9283 5.7596 -1.7089 0.9751
-2.3652 5.4094 -1.6611 0.9758
-2.7675 5.0501 -1.6202 0.9764
-3.1380 4.6822 -1.5859 0.9769
-3.4789 4.3059 -1.5575 0.9773
-3.7923 3.9212 -1.5348 0.9776
-4.0797 3.5279 -1.5175 0.9778
-4.5818 2.7138 -1.4983 0.9781
-2.9229 0.5266 -0.8356 0.9877
-2.8308 -0.2530 -0.8509 0.9882
-2.9224 -0.5265 -0.8890 0.9877
-5.4423 -2.5995 -1.8056 0.9751
-5.2009 -3.7434 -1.9184 0.9736
-4.8514 -5.0163 -2.0892 0.9713
-4.2937 -6.4066 -2.3089 0.9683
-3.4640 -7.9223 -2.5886 0.9645
-2.9223 -8.7284 -2.7557 0.9623
-1.5210 -10.4284 -3.1551 0.9570
0.5312 -2.4719 -0.7569 0.9895
0.6940 -2.2373 -0.7013 0.9903
0.8517 -2.0725 -0.6708 0.9907
1.0065 -1.9378 -0.6537 0.9909
1.1708 -1.8340 -0.6514 0.9910
1.5470 -1.6726 -0.6821 0.9905
1.8019 -1.6297 -0.7274 0.9899
2.1636 -1.6316 -0.8113 0.9887
11.9754 6.7373 -4.1136 0.9442
10.4824 7.1957 -3.8065 0.9483
9.0864 7.5102 -3.5292 0.9520
7.7909 7.7046 -3.2803 0.9553
4.4805 7.7604 -2.6827 0.9633
3.4542 7.4436 -2.4567 0.9663
2.5341 7.0437 -2.2410 0.9692
-1.6252 5.6837 -1.7698 0.9756
-3.1865 4.3247 -1.6082 0.9778
-4.3030 2.8149 -1.5394 0.9788
-4.5231 2.4136 -1.5349 0.9788
-4.7210 2.0019 -1.5352 0.9788
-4.8970 1.5791 -1.5404 0.9787
-3.0564 0.6925 -0.9382 0.9870
-2.7204 0.3659 -0.8218 0.9886
-2.8067 -0.1251 -0.8411 0.9883
-2.8771 -0.3869 -0.8691 0.9880
-2.9771 -0.6745 -0.9139 0.9873
-5.4112 -2.8875 -1.8362 0.9747
-5.2713 -3.4483 -1.8858 0.9740
-5.1288 -4.0502 -1.9565 0.9731
-4.7338 -5.3526 -2.1392 0.9706
-4.1146 -6.7736 -2.3727 0.9674
-3.7010 -7.5314 -2.5123 0.9656
-3.2049 -8.3212 -2.6696 0.9635
-1.0936 -10.8701 -3.2707 0.9554
-0.1313 -11.7719 -3.5245 0.9520
0.9901 -12.6710 -3.8050 0.9483
1.6686 -1.6501 -0.7026 0.9902
2.4888 -1.7084 -0.9038 0.9875
12.7557 6.4457 -4.2787 0.9421
11.2172 6.9861 -3.9563 0.9463
8.4261 7.6210 -3.4013 0.9537
7.1804 7.7634 -3.1659 0.9568
6.0320 7.8159 -2.9557 0.9596
2.1591 6.9604 -2.1817 0.9700
0.8067 6.5497 -1.9757 0.9728
0.2109 6.3080 -1.8895 0.9740
-0.3372 6.0478 -1.8134 0.9750
-2.2706 5.1931 -1.6968 0.9766
-3.6517 3.7759 -1.5726 0.9783
-4.1845 3.0119 -1.5435 0.9787
-4.4159 2.6156 -1.5365 0.9788
-3.5598 0.9751 -1.1050 0.9847
-2.7412 0.2450 -0.8239 0.9886
-2.7380 0.0000 -0.8695 0.9886
-2.8694 -0.5170 -0.9260 0.9878
-5.2601 -1.9589 -1.7826 0.9767
-5.2180 -2.4924 -1.8365 0.9760
-4.8177 -4.1660 -2.0227 0.9736
-4.6203 -4.7773 -2.1107 0.9725
-3.2618 -7.4599 -2.5857 0.9664
-2.7412 -8.1876 -2.7421 0.9644
0.3673 -2.9826 -0.9544 0.9875
0.5328 -2.4794 -0.8054 0.9894
0.8536 -2.0771 -0.7132 0.9906
1.0089 -1.9425 -0.6952 0.9909
1.1736 -1.8385 -0.6927 0.9909
1.3523 -1.7523 -0.7029 0.9908
1.5518 -1.6778 -0.7258 0.9905
9.6115 6.5979 -3.7024 0.9522
4.2115 7.2946 -2.6750 0.9653
1.7069 6.5153 -2.1390 0.9721
1.0686 6.3354 -2.0404 0.9734
0.4789 6.1293 -1.9525 0.9745
-0.0660 5.9223 -1.8809 0.9754
-0.5980 5.9442 -1.8973 0.9752
-1.1014 5.7462 -1.8581 0.9757
-1.5595 5.4539 -1.8015 0.9765
-2.3742 4.8315 -1.7097 0.9777
-2.7356 4.5035 -1.6734 0.9781
-3.3759 3.8172 -1.6184 0.9788
-3.6579 3.4596 -1.5989 0.9791
-3.9159 3.0924 -1.5846 0.9793
-4.1509 2.7154 -1.5753 0.9794
-4.5545 1.9313 -1.5711 0.9795
-2.9791 0.6750 -0.9701 0.9873
-2.6672 0.3587 -0.8547 0.9888
-2.7186 0.1212 -0.8643 0.9886
-2.8255 -0.3800 -0.9054 0.9881
-5.2431 -2.2232 -1.8086 0.9764
-5.0470 -3.3016 -1.9153 0.9750
-4.8993 -3.8689 -1.9826 0.9741
-4.7249 -4.4687 -2.0654 0.9731
-4.5031 -5.0917 -2.1587 0.9719
-3.8934 -6.4094 -2.3817 0.9690
-3.4910 -7.1040 -2.5138 0.9673
-3.0123 -7.8212 -2.6618 0.9654
-2.4474 -8.5590 -2.8272 0.9633
-1.7853 -9.3136 -3.0117 0.9610
-0.1209 -10.8450 -3.4444 0.9555
0.6169 -2.3549 -0.7731 0.9898
0.9300 -2.0042 -0.7017 0.9908
1.0914 -1.8903 -0.6932 0.9909
1.2570 -1.7882 -0.6942 0.9909
1.4504 -1.7156 -0.7135 0.9906
1.9738 -1.6314 -0.8132 0.9893
12.9458 5.1523 -4.4250 0.9432
11.5766 5.8499 -4.1193 0.9470
10.2517 6.3848 -3.8356 0.9506
5.6355 7.3021 -2.9293 0.9620
3.7722 7.2628 -2.5991 0.9662
2.8838 7.0175 -2.4095 0.9687
2.0455 6.5941 -2.1926 0.9714
1.3815 6.4289 -2.0883 0.9728
0.7680 6.2354 -1.9952 0.9740
0.2012 6.0183 -1.9124 0.9750
-0.8586 5.8870 -1.8894 0.9753
-1.3350 5.6018 -1.8289 0.9761
-1.7754 5.3028 -1.7760 0.9768
-2.1825 4.9914 -1.7301 0.9774
-2.5586 4.6688 -1.6908 0.9779
-2.9057 4.3356 -1.6576 0.9783
-3.7898 3.2772 -1.5912 0.9792
-4.0363 2.9051 -1.5793 0.9793
-3.4729 0.9513 -1.1436 0.9850
-2.7749 0.4999 -0.8954 0.9882
-2.7374 -0.2446 -0.9234 0.9885
-2.8177 -0.5076 -0.9619 0.9880
-2.8971 -0.7936 -1.0092 0.9874
-4.9284 -2.9191 -1.9245 0.9761
-4.7651 -3.4297 -1.9726 0.9755
-4.6052 -3.9822 -2.0455 0.9746
-4.1628 -5.1524 -2.2255 0.9724
-3.8642 -5.7657 -2.3320 0.9711
-3.0801 -7.0444 -2.5832 0.9681
-1.9963 -8.3767 -2.8932 0.9643
-1.3202 -9.0522 -3.0736 0.9621
0.3470 -10.3792 -3.4892 0.9571
0.3749 -3.0440 -1.0304 0.9871
0.5344 -2.4871 -0.8547 0.9893
0.8555 -2.0819 -0.7562 0.9905
1.1765 -1.8430 -0.7346 0.9908
1.5571 -1.6835 -0.7705 0.9904
2.1968 -1.6567 -0.9244 0.9885
13.5159 3.3806 -4.6810 0.9429
12.3547 4.2900 -4.3941 0.9463
10.0055 5.6290 -3.8571 0.9527
7.7734 6.4249 -3.3883 0.9583
6.7337 6.6591 -3.1818 0.9608
5.7524 6.8040 -2.9935 0.9631
4.8315 6.8729 -2.8226 0.9652
3.9706 6.8773 -2.6681 0.9670
3.1682 6.8273 -2.5288 0.9687
2.3952 6.6575 -2.3771 0.9706
1.6360 6.2444 -2.1688 0.9731
0.4640 5.9387 -2.0014 0.9752
-0.0658 5.9061 -1.9845 0.9754
-0.5807 5.7721 -1.9491 0.9758
-1.0569 5.5139 -1.8863 0.9766
-1.4983 5.2398 -1.8310 0.9773
-2.2856 4.6511 -1.7412 0.9784
-2.6357 4.3388 -1.7056 0.9788
-2.9588 4.0156 -1.6758 0.9792
-3.2564 3.6821 -1.6515 0.9795
-4.3978 1.8649 -1.6049 0.9800
-4.5607 1.4707 -1.6100 0.9800
-2.6762 0.1193 -0.9001 0.9888
-2.7168 -0.1212 -0.9137 0.9886
-2.7751 -0.3732 -0.9408 0.9883
-2.8653 -0.6492 -0.9871 0.9877
-5.0675 -1.6340 -1.7889 0.9778
-5.0365 -2.1356 -1.8380 0.9772
-4.9740 -2.6542 -1.8942 0.9765
-4.6873 -3.7015 -2.0067 0.9751
-4.5123 -4.2677 -2.0867 0.9741
-4.2918 -4.8528 -2.1766 0.9730
-4.0206 -5.4567 -2.2773 0.9718
-3.6928 -6.0791 -2.3898 0.9704
-3.3017 -6.7187 -2.5152 0.9689
-2.2989 -8.0401 -2.8096 0.9653
-1.6704 -8.7144 -2.9812 0.9633
-0.1120 -10.0541 -3.3782 0.9585
0.8359 -10.6970 -3.6049 0.9557
0.4522 -2.6806 -0.9133 0.9886
0.6185 -2.3607 -0.8199 0.9898
0.7763 -2.1578 -0.7705 0.9904
0.9321 -2.0086 -0.7440 0.9907
1.0941 -1.8950 -0.7352 0.9908
1.2608 -1.7936 -0.7366 0.9908
1.4549 -1.7209 -0.7571 0.9905
1.6831 -1.6645 -0.7953 0.9901
1.9877 -1.6429 -0.8664 0.9892
11.7652 4.6824 -4.2544 0.9480
9.4313 5.8739 -3.7331 0.9542
8.3139 6.2698 -3.4986 0.9570
7.2464 6.5540 -3.2828 0.9596
6.2356 6.7418 -3.0854 0.9620
2.7881 6.7845 -2.4644 0.9695
1.3181 6.1340 -2.1080 0.9739
0.7367 5.9813 -2.0248 0.9749
-0.3287 5.8947 -1.9836 0.9754
-0.8233 5.6451 -1.9167 0.9762
-1.2818 5.3787 -1.8577 0.9769
-2.8005 4.1785 -1.6900 0.9790
-3.3961 3.5116 -1.6413 0.9796
-3.8967 2.8046 -1.6131 0.9799
-4.3084 2.0579 -1.6042 0.9801
-2.6265 0.7195 -0.9150 0.9886
-2.6931 -0.2407 -0.9588 0.9886
-2.7668 -0.4985 -0.9969 0.9881
-2.8417 -0.7784 -1.0448 0.9876
-4.7326 -2.8031 -1.9504 0.9769
-4.5702 -3.2894 -1.9967 0.9764
-4.2124 -4.3555 -2.1485 0.9746
-3.9702 -4.9139 -2.2401 0.9735
-3.3278 -6.0723 -2.4553 0.9710
-2.9159 -6.6688 -2.5808 0.9696
-0.5060 -9.0753 -3.2230 0.9622
0.3939 -3.1981 -1.1426 0.9864
0.5367 -2.4973 -0.9057 0.9892
1.5638 -1.6907 -0.8166 0.9903
14.0250 0.9389 -4.9842 0.9421
13.1985 2.0754 -4.7375 0.9449
5.4019 6.3894 -2.9668 0.9651
1.0177 6.0331 -2.1694 0.9744
0.4634 5.9304 -2.1092 0.9751
-1.8362 4.7676 -1.8116 0.9786
-2.2025 4.4820 -1.7708 0.9790
-2.5416 4.1841 -1.7359 0.9794
-2.8551 3.8748 -1.7066 0.9798
-3.1439 3.5548 -1.6827 0.9801
-3.4092 3.2244 -1.6639 0.9803
-3.6519 2.8839 -1.6500 0.9804
-4.2500 1.8022 -1.6369 0.9806
-4.4069 1.4211 -1.6419 0.9805
-2.5615 0.5804 -0.9313 0.9889
-2.5748 0.3463 -0.9212 0.9890
-2.6347 0.1175 -0.9351 0.9889
-2.6733 -0.1192 -0.9489 0.9887
-2.7260 -0.3666 -0.9753 0.9884
-2.8093 -0.6365 -1.0214 0.9878
-2.8709 -0.9258 -1.0696 0.9873
-4.7778 -2.5495 -1.9203 0.9773
-4.6489 -3.0411 -1.9698 0.9767
-4.4908 -3.5463 -2.0290 0.9760
-4.0973 -4.6329 -2.1930 0.9741
-3.8304 -5.1986 -2.2897 0.9730
-3.5099 -5.7780 -2.3972 0.9717
-3.1300 -6.3694 -2.5165 0.9703
-2.6845 -6.9700 -2.6484 0.9688
-0.1043 -9.3637 -3.3204 0.9610
0.7782 -2.1629 -0.8151 0.9903
0.9342 -2.0132 -0.7870 0.9906
1.2647 -1.7991 -0.7798 0.9907
1.4595 -1.7264 -0.8016 0.9905
1.6906 -1.6719 -0.8431 0.9900
2.0019 -1.6547 -0.9209 0.9890
13.6270 1.5244 -4.8621 0.9435
8.7253 5.4341 -3.6448 0.9573
7.7278 5.8278 -3.4320 0.9598
6.7650 6.1186 -3.2344 0.9620
4.1470 6.4962 -2.7328 0.9678
3.3724 6.4930 -2.5944 0.9694
2.6467 6.4404 -2.4690 0.9709
0.1961 5.8635 -2.0803 0.9754
-0.3151 5.6517 -2.0071 0.9763
-0.7905 5.4199 -1.9421 0.9770
-1.6423 4.9054 -1.8343 0.9783
-2.0228 4.6264 -1.7904 0.9788
-2.7015 4.0309 -1.7206 0.9796
-3.0025 3.7161 -1.6940 0.9799
-4.3311 1.6129 -1.6388 0.9806
-2.5828 0.7075 -0.9496 0.9887
-2.6624 0.4797 -0.9592 0.9886
-2.6101 -0.0000 -0.9746 0.9889
-2.7171 -0.4895 -1.0309 0.9883
-2.7878 -0.7637 -1.0793 0.9877
-4.6853 -1.7448 -1.8669 0.9789
-4.6325 -2.2127 -1.9170 0.9783
-4.5482 -2.6939 -1.9739 0.9777
-4.3886 -3.1587 -2.0191 0.9772
-4.0313 -4.1683 -2.1653 0.9755
-0.4741 -8.5020 -3.1797 0.9643
1.1648 -9.4579 -3.5584 0.9601
0.5428 -2.5258 -0.9647 0.9890
1.0165 -1.9572 -0.8235 0.9906
1.1825 -1.8523 -0.8206 0.9907
1.3650 -1.7687 -0.8343 0.9905
1.8351 -1.6597 -0.9239 0.9895
13.6625 -1.5284 -5.1336 0.9430
12.0154 1.8894 -4.5418 0.9494
11.2245 2.8075 -4.3205 0.9518
10.3679 3.6001 -4.0982 0.9542
6.7726 5.5977 -3.2810 0.9632
5.9131 5.8476 -3.1054 0.9651
2.8535 6.1491 -2.5313 0.9715
2.1919 6.0925 -2.4178 0.9727
1.5711 5.9970 -2.3149 0.9739
0.9898 5.8677 -2.2220 0.9749
0.4461 5.7094 -2.1384 0.9758
-0.9765 5.0948 -1.9371 0.9781
-1.7696 4.5946 -1.8385 0.9792
-2.4532 4.0384 -1.7644 0.9800
-3.0376 3.4347 -1.7122 0.9806
-3.5308 2.7883 -1.6800 0.9810
-3.7449 2.4499 -1.6710 0.9811
-3.9380 2.1014 -1.6667 0.9811
-4.1101 1.7429 -1.6671 0.9811
-2.6307 -0.1173 -0.9833 0.9888
-2.6781 -0.3602 -1.0090 0.9885
-2.7557 -0.6243 -1.0551 0.9880
-4.4713 -2.9250 -1.9951 0.9774
-4.1339 -3.9098 -2.1247 0.9760
-2.9736 -6.0511 -2.5176 0.9716
-2.5436 -6.6043 -2.6427 0.9702
-2.0467 -7.1579 -2.7800 0.9687
-1.4771 -7.7061 -2.9299 0.9671
-0.8291 -8.2416 -3.0931 0.9653
-0.0975 -8.7554 -3.2696 0.9633
0.6226 -2.3765 -0.9174 0.9896
0.7800 -2.1680 -0.8604 0.9902
0.9364 -2.0178 -0.8306 0.9905
1.0996 -1.9046 -0.8212 0.9907
1.2687 -1.8047 -0.8238 0.9906
1.6982 -1.6794 -0.8919 0.9899
2.0166 -1.6668 -0.9769 0.9889
13.7866 -2.1678 -5.2113 0.9422
13.4888 -0.9030 -5.0481 0.9439
13.0076 0.2899 -4.8584 0.9460
12.3763 1.3845 -4.6503 0.9482
11.6301 2.3639 -4.4316 0.9506
9.0197 4.5579 -3.7736 0.9578
4.6900 6.0770 -2.8664 0.9678
3.9241 6.1471 -2.7232 0.9693
2.5175 6.1261 -2.4732 0.9721
1.8765 6.0493 -2.3650 0.9733
1.2756 5.9363 -2.2673 0.9744
0.7133 5.7920 -2.1791 0.9754
0.1879 5.6205 -2.0999 0.9763
-1.1857 4.9756 -1.9100 0.9784
-1.9503 4.4604 -1.8178 0.9794
-2.2919 4.1822 -1.7808 0.9798
-2.6082 3.8917 -1.7494 0.9802
-3.8441 2.2769 -1.6683 0.9811
-3.4441 0.9434 -1.3334 0.9849
-2.6073 -0.2330 -1.0273 0.9888
-2.7584 -1.0272 -1.1552 0.9874
-4.4616 -2.1311 -1.9406 0.9790
-4.2187 -3.0364 -2.0400 0.9779
-3.8631 -3.9944 -2.1809 0.9764
-3.3473 -4.9945 -2.3597 0.9745
-3.0162 -5.5038 -2.4632 0.9734
-2.6303 -6.0156 -2.5768 0.9722
-2.1849 -6.5259 -2.7010 0.9709
-1.6753 -7.0299 -2.8363 0.9694
-1.0969 -7.5209 -2.9830 0.9679
0.2819 -8.4301 -3.3104 0.9644
0.5491 -2.5553 -1.0258 0.9888
1.0191 -1.9622 -0.8678 0.9905
1.3694 -1.7744 -0.8797 0.9904
1.5776 -1.7057 -0.9119 0.9901
1.8438 -1.6676 -0.9757 0.9894
11.1329 -6.9336 -5.1474 0.9452
12.5349 -2.5478 -5.0202 0.9465
12.3914 -1.3862 -4.8936 0.9478
12.0734 -0.2690 -4.7396 0.9494
11.0157 1.7321 -4.3765 0.9532
10.3324 2.5843 -4.1801 0.9553
9.5831 3.3276 -3.9814 0.9573
7.1632 4.9173 -3.4100 0.9634
6.3559 5.2533 -3.2363 0.9652
5.5676 5.5060 -3.0732 0.9669
4.8056 5.6841 -2.9212 0.9685
3.3775 5.8500 -2.6511 0.9714
2.7161 5.8530 -2.5324 0.9727
2.0909 5.8118 -2.4241 0.9738
0.9477 5.6183 -2.2362 0.9758
0.4279 5.4754 -2.1555 0.9767
-0.0591 5.3069 -2.0829 0.9775
-0.9402 4.9049 -1.9601 0.9788
-2.3696 3.9009 -1.7913 0.9806
-3.1874 3.0146 -1.7218 0.9813
-3.4162 2.6977 -1.7084 0.9815
-3.6239 2.3707 -1.6996 0.9816
-3.9777 1.6867 -1.6957 0.9816
-2.5568 0.5793 -1.0289 0.9888
-2.6312 -0.3539 -1.0420 0.9887
-4.4929 -1.9051 -1.9153 0.9792
-4.3048 -2.8160 -2.0189 0.9781
-4.1385 -3.2682 -2.0696 0.9776
-3.4938 -4.7418 -2.3116 0.9750
-3.1883 -5.2487 -2.4102 0.9740
-2.4153 -6.2712 -2.6375 0.9715
-0.7806 -7.7590 -3.0606 0.9670
-0.0915 -8.2150 -3.2244 0.9653
0.4694 -2.7828 -1.1076 0.9879
0.6282 -2.3977 -0.9728 0.9894
0.9385 -2.0225 -0.8751 0.9905
1.1024 -1.9095 -0.8653 0.9906
1.4690 -1.7375 -0.8930 0.9903
1.7060 -1.6871 -0.9417 0.9897
2.0316 -1.6792 -1.0345 0.9887
10.7450 -7.3760 -5.1151 0.9455
11.4803 -6.4587 -5.1698 0.9450
12.0332 -5.4219 -5.1799 0.9449
12.5352 -3.1353 -5.0713 0.9460
12.2528 -0.8202 -4.8196 0.9486
11.8565 0.2642 -4.6545 0.9503
10.6840 2.1716 -4.2789 0.9542
9.9644 2.9697 -4.0807 0.9563
9.1913 3.6581 -3.8825 0.9584
8.3872 4.2383 -3.6882 0.9604
7.5710 4.7153 -3.5006 0.9624
6.7577 5.0963 -3.3219 0.9643
5.9589 5.3895 -3.1533 0.9661
5.1830 5.6038 -2.9958 0.9677
4.4359 5.7478 -2.8495 0.9693
3.7216 5.8298 -2.7145 0.9707
1.2203 5.6790 -2.2797 0.9753
0.6836 5.5503 -2.1948 0.9763
0.1804 5.3942 -2.1182 0.9771
-1.1421 4.7927 -1.9336 0.9791
-1.8819 4.3040 -1.8436 0.9800
-2.2131 4.0385 -1.8074 0.9804
-3.4629 0.9486 -1.4092 0.9847
-2.5634 0.4618 -1.0222 0.9889
-2.5289 0.0000 -1.0413 0.9891
-2.5656 -0.2293 -1.0607 0.9889
-2.6211 -0.4722 -1.0967 0.9885
-2.6410 -0.7235 -1.1276 0.9882
-4.2136 -2.4957 -2.0166 0.9790
-4.0594 -2.9218 -2.0595 0.9786
-3.7065 -3.8325 -2.1955 0.9772
-2.8788 -5.2531 -2.4667 0.9744
-2.5052 -5.7295 -2.5750 0.9733
-2.0762 -6.2014 -2.6930 0.9721
-1.5880 -6.6637 -2.8208 0.9708
-1.0370 -7.1100 -2.9587 0.9694
1.0181 -8.2666 -3.4298 0.9646
0.7107 -2.2910 -0.9877 0.9897
1.0218 -1.9674 -0.9129 0.9905
1.1886 -1.8619 -0.9096 0.9905
1.3739 -1.7802 -0.9260 0.9903
1.5848 -1.7134 -0.9611 0.9900
2.3505 -1.7726 -1.2123 0.9873
10.1232 -6.3048 -4.9109 0.9497
10.7086 -5.4113 -4.9406 0.9494
10.6675 0.7141 -4.4025 0.9548
9.5625 2.3918 -4.0590 0.9583
8.9005 3.0906 -3.8797 0.9601
7.4631 4.1987 -3.5261 0.9636
6.7217 4.6142 -3.3573 0.9653
3.8674 5.5014 -2.7691 0.9713
3.2134 5.5658 -2.6464 0.9726
2.5898 5.5808 -2.5334 0.9737
1.9976 5.5525 -2.4299 0.9748
0.4108 5.2572 -2.1714 0.9774
-0.0568 5.1022 -2.1011 0.9782
-0.4954 4.9244 -2.0380 0.9788
-1.2897 4.5104 -1.9317 0.9799
-1.6477 4.2782 -1.8878 0.9804
-1.9810 4.0312 -1.8496 0.9808
-2.2906 3.7708 -1.8168 0.9811
-2.8419 3.2134 -1.7664 0.9816
-3.0851 2.9179 -1.7486 0.9818
-3.3073 2.6118 -1.7353 0.9819
-3.5091 2.2955 -1.7267 0.9820
-3.9929 1.2876 -1.7276 0.9820
-2.6388 0.5979 -1.1141 0.9884
-2.5479 -0.1136 -1.0502 0.9890
-2.5854 -0.3477 -1.0742 0.9888
-2.6300 -0.5959 -1.1104 0.9884
-3.9806 -3.1435 -2.0887 0.9783
-3.5963 -4.0664 -2.2354 0.9768
-2.6987 -5.4916 -2.5196 0.9739
-1.8398 -6.4341 -2.7556 0.9715
-1.3206 -6.8893 -2.8885 0.9701
-0.7369 -7.3247 -3.0314 0.9687
-0.0862 -7.7318 -3.1840 0.9671
0.6330 -8.1004 -3.3458 0.9655
0.9408 -2.0273 -0.9203 0.9904
1.2768 -1.8163 -0.9142 0.9904
1.7140 -1.6951 -0.9926 0.9896
2.0471 -1.6920 -1.0936 0.9886
10.4351 -5.8707 -4.9303 0.9495
10.9413 -4.9299 -4.9417 0.9494
11.2686 -3.9129 -4.9120 0.9497
11.4197 -2.8563 -4.8473 0.9504
11.3973 -1.7921 -4.7508 0.9513
11.2120 -0.7505 -4.6272 0.9526
7.8309 3.9571 -3.6130 0.9628
5.6177 5.0809 -3.1190 0.9678
4.9002 5.2981 -2.9717 0.9693
4.2051 5.4488 -2.8342 0.9707
2.8977 5.5791 -2.5887 0.9732
2.2897 5.5717 -2.4805 0.9743
1.7135 5.5238 -2.3815 0.9753
1.1690 5.4401 -2.2913 0.9762
-0.2797 5.0160 -2.0687 0.9785
-0.7041 4.8278 -2.0090 0.9791
-1.1011 4.6206 -1.9559 0.9797
-1.4719 4.3962 -1.9090 0.9801
-2.9661 3.0670 -1.7569 0.9817
-3.4108 2.4549 -1.7304 0.9820
-3.6023 2.1337 -1.7240 0.9821
-3.7737 1.8026 -1.7221 0.9821
-3.9249 1.4617 -1.7246 0.9820
-3.5071 0.9607 -1.4974 0.9844
-2.4893 -0.0000 -1.0738 0.9892
-2.5221 -0.2254 -1.0922 0.9890
-4.1493 -1.9819 -1.9835 0.9802
-3.7481 -3.2411 -2.1374 0.9786
-3.5602 -3.6812 -2.2090 0.9779
-3.3335 -4.1260 -2.2881 0.9772
-2.7517 -5.0212 -2.4699 0.9754
-1.9766 -5.9038 -2.6856 0.9732
-1.5084 -6.3295 -2.8067 0.9721
-0.9825 -6.7368 -2.9367 0.9708
0.9567 -7.7675 -3.3759 0.9665
0.7170 -2.3114 -1.0439 0.9895
0.8716 -2.1208 -0.9891 0.9901
1.1918 -1.8669 -0.9554 0.9904
1.5921 -1.7213 -1.0114 0.9898
2.4783 -1.8690 -1.3390 0.9866
9.2709 -5.7739 -4.7112 0.9535
10.1903 -4.0557 -4.7310 0.9533
10.4191 -3.1052 -4.6897 0.9537
10.4918 -2.1326 -4.6183 0.9544
10.1985 -0.2272 -4.4003 0.9565
8.8909 2.2238 -3.9533 0.9609
8.3011 2.8825 -3.7905 0.9624
6.3264 4.3429 -3.3101 0.9671
4.9746 4.9195 -3.0179 0.9700
3.6778 5.2318 -2.7586 0.9725
2.4732 5.3295 -2.5344 0.9747
1.9112 5.3122 -2.4353 0.9757
1.3774 5.2576 -2.3444 0.9766
0.3948 5.0529 -2.1863 0.9782
-0.0547 4.9102 -2.1182 0.9788
-1.2450 4.3539 -1.9533 0.9805
-1.5918 4.1329 -1.9104 0.9809
-2.7514 3.1111 -1.7915 0.9821
-2.9878 2.8259 -1.7740 0.9822
-3.8685 1.2475 -1.7533 0.9824
-2.5715 0.5826 -1.1373 0.9886
-2.4106 0.3242 -1.0492 0.9895
-2.4654 0.1099 -1.0645 0.9893
-2.5076 -0.1118 -1.0828 0.9891
-2.5465 -0.5770 -1.1263 0.9887
-2.5665 -0.8276 -1.1632 0.9883
-2.6695 -1.1320 -1.2508 0.9874
-3.9998 -2.6165 -2.0617 0.9794
-3.6588 -3.4605 -2.1723 0.9783
-3.4519 -3.9031 -2.2476 0.9776
-3.2047 -4.3495 -2.3305 0.9767
-2.9142 -4.7975 -2.4213 0.9758
-2.5771 -5.2442 -2.5205 0.9749
-2.1900 -5.6860 -2.6284 0.9738
-1.7495 -6.1185 -2.7450 0.9727
0.5956 -7.6227 -3.2981 0.9672
0.4962 -2.9414 -1.2867 0.9871
0.7934 -2.2054 -1.0110 0.9898
0.9468 -2.0403 -0.9702 0.9902
1.1088 -1.9205 -0.9566 0.9904
1.7227 -1.7037 -1.0451 0.9895
8.9569 -6.1486 -4.6864 0.9538
10.0148 -4.5124 -4.7382 0.9533
10.3247 -3.5851 -4.7145 0.9535
10.4747 -2.6199 -4.6575 0.9541
10.4714 -1.6466 -4.5724 0.9549
10.0433 0.2238 -4.3333 0.9572
9.6501 1.0795 -4.1886 0.9586
8.6027 2.5639 -3.8722 0.9616
7.3375 3.7078 -3.5463 0.9648
6.6659 4.1516 -3.3875 0.9664
5.9864 4.5146 -3.2343 0.9679
4.6434 5.0204 -2.9498 0.9706
3.9944 5.1757 -2.8202 0.9719
3.3671 5.2745 -2.6992 0.9731
2.7645 5.3226 -2.5872 0.9742
2.1887 5.3258 -2.4838 0.9752
1.6408 5.2893 -2.3888 0.9762
1.1212 5.2176 -2.3020 0.9770
-0.2693 4.8300 -2.0867 0.9791
-0.6787 4.6538 -2.0287 0.9797
-1.0625 4.4583 -1.9770 0.9802
-2.0682 3.7739 -1.8563 0.9814
-2.3576 3.5178 -1.8267 0.9817
-2.8722 2.9698 -1.7822 0.9822
-3.0984 2.6793 -1.7669 0.9823
-3.3043 2.3783 -1.7562 0.9824
-3.4903 2.0673 -1.7499 0.9825
-3.9292 1.0763 -1.7573 0.9824
-2.4387 0.2179 -1.0561 0.9894
-2.4593 -0.4431 -1.1275 0.9891
-2.4702 -0.6766 -1.1556 0.9888
-3.4231 -3.5394 -2.2218 0.9786
-3.2008 -3.9616 -2.2981 0.9779
-2.6338 -4.8060 -2.4728 0.9762
-0.3759 -6.7425 -3.0470 0.9708
0.2358 -7.0533 -3.1844 0.9695
0.9015 -7.3195 -3.3276 0.9682
0.5696 -2.6508 -1.2234 0.9882
0.8785 -2.1377 -1.0428 0.9899
1.0346 -1.9920 -1.0128 0.9902
1.2002 -1.8801 -1.0065 0.9903
1.3882 -1.7988 -1.0253 0.9901
1.6080 -1.7386 -1.0686 0.9897
7.9439 -5.9908 -4.4895 0.9573
8.5413 -5.3196 -4.5403 0.9568
9.3853 -3.7353 -4.5579 0.9566
9.6071 -2.8632 -4.5233 0.9570
9.6856 -1.9687 -4.4597 0.9576
9.4491 -0.2106 -4.2647 0.9594
9.1562 0.6129 -4.1407 0.9605
8.2995 2.0759 -3.8602 0.9632
7.7703 2.6982 -3.7114 0.9645
6.5916 3.7084 -3.4126 0.9674
5.3427 4.4159 -3.1276 0.9700
2.9233 5.0634 -2.6381 0.9747
0.3799 4.8614 -2.2002 0.9788
-0.4602 4.5749 -2.0747 0.9800
-0.8433 4.3996 -2.0213 0.9805
-1.5388 3.9954 -1.9319 0.9814
-1.8525 3.7698 -1.8953 0.9817
-2.4153 3.2780 -1.8372 0.9823
-2.8953 2.7383 -1.7981 0.9827
-3.1053 2.4522 -1.7854 0.9828
-3.2957 2.1560 -1.7770 0.9829
-3.6181 1.5342 -1.7733 0.9829
-2.3567 0.3169 -1.0730 0.9896
-2.4395 -0.1088 -1.1018 0.9893
-2.4671 -0.5590 -1.1414 0.9890
-3.6925 -2.9159 -2.1230 0.9796
-3.5202 -3.3293 -2.1862 0.9790
-3.3167 -3.7503 -2.2590 0.9783
-3.0748 -4.1732 -2.3389 0.9775
-2.0903 -5.4274 -2.6243 0.9748
-0.6613 -6.5732 -2.9809 0.9714
-0.0769 -6.9029 -3.1149 0.9702
0.6459 -2.4653 -1.1499 0.9889
0.7999 -2.2233 -1.0662 0.9897
1.2903 -1.8354 -1.0123 0.9902
1.7428 -1.7235 -1.1060 0.9893
2.1183 -1.7508 -1.2400 0.9880
8.7990 -4.9503 -4.5555 0.9567
9.5140 -3.3036 -4.5443 0.9568
8.5422 1.7363 -3.9332 0.9625
6.8967 3.4851 -3.4867 0.9667
6.2824 3.9127 -3.3395 0.9680
5.0295 4.5489 -3.0599 0.9707
3.8012 4.9254 -2.8073 0.9731
2.0949 5.0977 -2.4868 0.9761
1.0765 5.0098 -2.3121 0.9778
0.6057 4.9178 -2.2358 0.9785
-0.2596 4.6550 -2.1036 0.9797
-0.6548 4.4896 -2.0472 0.9803
-1.0259 4.3049 -1.9968 0.9808
-2.2825 3.4057 -1.8499 0.9822
-2.5429 3.1473 -1.8257 0.9824
-2.7828 2.8774 -1.8062 0.9826
-3.0027 2.5966 -1.7912 0.9827
-3.3836 2.0041 -1.7745 0.9829
-3.5448 1.6932 -1.7726 0.9829
-3.6866 1.3729 -1.7750 0.9829
-3.8086 1.0433 -1.7818 0.9828
-2.4063 0.4335 -1.1032 0.9893
-2.3848 0.2131 -1.0804 0.9895
-2.3615 0.0000 -1.1132 0.9896
-2.3773 -0.2124 -1.1251 0.9895
-2.3934 -0.6556 -1.1698 0.9891
-2.4034 -0.8950 -1.2089 0.9887
-3.4766 -3.0063 -2.1666 0.9799
-3.0764 -3.8077 -2.3075 0.9786
-2.1846 -4.9963 -2.5704 0.9762
-1.8000 -5.3763 -2.6725 0.9752
0.2233 -6.6791 -3.1502 0.9709
0.8516 -6.9147 -3.2840 0.9697
0.7303 -2.3544 -1.1620 0.9892
0.8856 -2.1550 -1.0983 0.9897
1.0430 -2.0080 -1.0666 0.9900
1.2098 -1.8951 -1.0598 0.9901
8.8998 -2.6524 -4.3775 0.9598
8.9848 -1.8262 -4.3218 0.9603
8.9458 -1.0007 -4.2432 0.9610
8.7932 -0.1959 -4.1459 0.9619
8.5379 0.5716 -4.0336 0.9629
7.7746 1.9446 -3.7776 0.9652
7.2966 2.5337 -3.6409 0.9664
6.2204 3.4995 -3.3643 0.9689
4.4832 4.4336 -2.9721 0.9725
2.2647 4.8803 -2.5361 0.9765
1.2693 4.8451 -2.3609 0.9781
0.8059 4.7775 -2.2838 0.9788
0.3658 4.6812 -2.2133 0.9795
-0.0508 4.5594 -2.1493 0.9800
-0.4441 4.4147 -2.0915 0.9806
-2.0768 3.4189 -1.8856 0.9825
-2.3401 3.1760 -1.8595 0.9827
-3.0113 2.3780 -1.8087 0.9832
-3.3624 1.7942 -1.7965 0.9833
-3.5093 1.4881 -1.7968 0.9833
-3.6369 1.1728 -1.8013 0.9832
-2.5265 0.5724 -1.2211 0.9886
-2.2973 0.3090 -1.0926 0.9898
-2.3694 -0.1057 -1.1180 0.9896
-2.3799 -0.3201 -1.1319 0.9894
-2.3945 -0.7721 -1.1859 0.9889
-3.8296 -2.0435 -2.0461 0.9810
-3.7247 -2.4366 -2.0980 0.9805
-3.5606 -2.8118 -2.1386 0.9801
-3.3898 -3.2060 -2.1993 0.9796
-3.1900 -3.6069 -2.2697 0.9789
-2.9533 -4.0082 -2.3469 0.9782
-0.6283 -6.2457 -2.9589 0.9726
1.7637 -1.7441 -1.1692 0.9891
2.1862 -1.8069 -1.3369 0.9875
7.6476 -5.2498 -4.3725 0.9598
8.5370 -3.8466 -4.4138 0.9594
8.8097 -3.0590 -4.3959 0.9596
8.9587 -2.2407 -4.3530 0.9600
8.9801 -1.4120 -4.2850 0.9606
8.8831 -0.5946 -4.1967 0.9614
8.3759 0.9370 -3.9728 0.9634
7.9923 1.6245 -3.8444 0.9646
7.0400 2.8019 -3.5717 0.9670
6.5003 3.2848 -3.4331 0.9683
4.1941 4.5346 -2.9116 0.9731
3.6233 4.6949 -2.7955 0.9741
2.0076 4.8852 -2.4896 0.9769
1.5098 4.8670 -2.4021 0.9777
0.5829 4.7327 -2.2477 0.9791
0.1546 4.6234 -2.1805 0.9798
-0.2503 4.4897 -2.1196 0.9803
-1.3282 3.9671 -1.9720 0.9817
-1.6434 3.7587 -1.9337 0.9820
-2.2109 3.2990 -1.8720 0.9826
-3.4382 1.6423 -1.7961 0.9833
-2.3515 0.4236 -1.1263 0.9895
-2.3242 0.2077 -1.1000 0.9897
-2.3094 -0.2064 -1.1404 0.9897
-2.3175 -0.6348 -1.1819 0.9893
-2.3278 -0.8669 -1.2217 0.9890
-2.3666 -1.1304 -1.2900 0.9884
-3.6529 -2.1636 -2.0882 0.9813
-3.1731 -3.2809 -2.2450 0.9799
-2.9596 -3.6630 -2.3163 0.9792
-2.7097 -4.0432 -2.3940 0.9785
-0.8454 -5.7966 -2.8813 0.9742
0.7374 -2.3770 -1.2241 0.9890
0.8930 -2.1730 -1.1555 0.9896
1.4138 -1.8319 -1.1382 0.9897
1.6460 -1.7796 -1.1923 0.9893
1.9741 -1.7855 -1.3092 0.9882
6.8528 -5.1680 -4.2216 0.9625
7.7692 -3.9260 -4.2815 0.9619
8.0793 -3.2155 -4.2770 0.9620
8.3679 -1.7008 -4.1999 0.9627
7.9898 0.5349 -3.9386 0.9649
7.6826 1.2080 -3.8251 0.9659
7.3052 1.8272 -3.7038 0.9670
6.8711 2.3859 -3.5775 0.9681
5.3535 3.6750 -3.1938 0.9715
4.2675 4.2202 -2.9520 0.9736
3.1941 4.5436 -2.7317 0.9755
2.1711 4.6785 -2.5368 0.9773
0.7757 4.5988 -2.2939 0.9794
-0.4289 4.2630 -2.1074 0.9811
-0.7872 4.1069 -2.0568 0.9815
-1.1244 3.9322 -2.0116 0.9819
-1.4407 3.7406 -1.9716 0.9823
-2.0123 3.3126 -1.9064 0.9829
-2.2683 3.0786 -1.8809 0.9831
-2.5050 2.8325 -1.8598 0.9833
-2.7227 2.5751 -1.8432 0.9834
-2.9214 2.3070 -1.8309 0.9835
-2.5042 0.5674 -1.2629 0.9886
-2.2513 0.3028 -1.1173 0.9899
-2.3022 -0.1026 -1.1335 0.9898
-2.3108 -0.3108 -1.1468 0.9897
-2.3173 -0.7472 -1.1976 0.9892
-3.5977 -2.3535 -2.1146 0.9810
-3.0707 -3.4721 -2.2798 0.9796
-2.5705 -4.2316 -2.4353 0.9782
-1.9124 -4.9653 -2.6171 0.9766
-0.5981 -5.9447 -2.9387 0.9737
1.1188 -6.6326 -3.3083 0.9705
0.8134 -2.2609 -1.1818 0.9893
0.9696 -2.0896 -1.1330 0.9898
1.3137 -1.8688 -1.1236 0.9899
1.7854 -1.7656 -1.2350 0.9889
8.3701 -1.3161 -4.1675 0.9629
8.1130 0.1808 -3.9914 0.9645
7.8458 0.8777 -3.8830 0.9654
7.5018 1.5248 -3.7653 0.9665
7.0945 2.1144 -3.6411 0.9675
6.6369 2.6414 -3.5134 0.9687
5.6206 3.5005 -3.2568 0.9709
5.0836 3.8338 -3.1317 0.9720
4.5397 4.1060 -3.0107 0.9731
2.9325 4.5937 -2.6805 0.9760
1.9260 4.6867 -2.4922 0.9777
1.4505 4.6760 -2.4080 0.9784
0.5614 4.5585 -2.2590 0.9797
0.1490 4.4580 -2.1939 0.9803
-0.2416 4.3335 -2.1348 0.9808
-0.6107 4.1874 -2.0814 0.9813
-1.8769 3.4248 -1.9209 0.9827
-2.1427 3.1972 -1.8930 0.9830
-2.6162 2.7052 -1.8510 0.9834
-2.8244 2.4424 -1.8365 0.9835
-3.0137 2.1692 -1.8264 0.9836
-3.1844 1.8861 -1.8204 0.9836
-3.3363 1.5937 -1.8186 0.9837
-3.4694 1.2921 -1.8209 0.9836
-3.5835 0.9816 -1.8275 0.9836
-2.2658 0.2025 -1.1189 0.9899
-2.2359 0.0000 -1.1463 0.9900
-2.2416 -0.4038 -1.1677 0.9898
-2.2481 -0.6158 -1.1950 0.9896
-2.2721 -1.0853 -1.2909 0.9887
-3.2368 -2.7989 -2.1938 0.9809
-3.0586 -3.1626 -2.2556 0.9804
-2.8495 -3.5269 -2.3246 0.9798
-2.3254 -4.2433 -2.4806 0.9785
-1.2483 -5.2381 -2.7606 0.9761
-0.3232 -5.7954 -2.9757 0.9742
0.2014 -6.0245 -3.0903 0.9733
0.7650 -6.2110 -3.2083 0.9723
1.3640 -6.3473 -3.3284 0.9712
0.7519 -2.4239 -1.3011 0.9887
1.0604 -2.0416 -1.1794 0.9897
6.4024 -4.8283 -4.1111 0.9646
6.8687 -4.2779 -4.1485 0.9643
7.2518 -3.6645 -4.1655 0.9641
7.5418 -3.0015 -4.1614 0.9642
7.7322 -2.3044 -4.1364 0.9644
7.8080 -0.8734 -4.0279 0.9653
7.5003 0.5021 -3.8538 0.9668
7.2247 1.1361 -3.7494 0.9677
6.4867 2.2524 -3.5203 0.9696
4.5791 3.7848 -3.0456 0.9736
3.5590 4.2096 -2.8261 0.9755
3.0557 4.3469 -2.7240 0.9764
2.5628 4.4390 -2.6278 0.9772
2.0835 4.4898 -2.5375 0.9780
1.6200 4.5030 -2.4534 0.9787
0.7473 4.4305 -2.3034 0.9800
-0.0473 4.2464 -2.1771 0.9811
-0.7613 3.9716 -2.0732 0.9820
-1.0881 3.8054 -2.0291 0.9824
-1.3951 3.6223 -1.9900 0.9827
-1.9507 3.2112 -1.9262 0.9833
-2.1998 2.9856 -1.9012 0.9835
-2.4301 2.7478 -1.8806 0.9836
-2.6420 2.4987 -1.8643 0.9838
-3.0105 1.9694 -1.8443 0.9840
-3.1673 1.6901 -1.8405 0.9840
-2.4709 0.5598 -1.2989 0.9887
-2.2093 0.2971 -1.1428 0.9900
-2.2319 0.0995 -1.1453 0.9900
-2.2377 -0.0998 -1.1483 0.9900
-2.2446 -0.3019 -1.1611 0.9899
-2.2425 -0.5081 -1.1788 0.9897
-2.2530 -0.7265 -1.2136 0.9894
-2.2673 -0.9614 -1.2625 0.9890
-2.3837 -1.2720 -1.3851 0.9879
-3.4759 -2.2738 -2.1294 0.9815
-2.9583 -3.3450 -2.2893 0.9801
-2.7321 -3.7080 -2.3613 0.9795
-2.4702 -4.0666 -2.4393 0.9788
-1.8324 -4.7578 -2.6138 0.9773
-1.4534 -5.0828 -2.7102 0.9765
-1.0327 -5.3878 -2.8124 0.9756
-0.5701 -5.6672 -2.9201 0.9747
0.4785 -6.1235 -3.1489 0.9728
1.1452 -1.9835 -1.1742 0.9898
1.3261 -1.8864 -1.1821 0.9897
1.5344 -1.8149 -1.2184 0.9894
6.6452 -4.5617 -4.1323 0.9644
7.0713 -3.9783 -4.1596 0.9642
7.6497 -2.6562 -4.1515 0.9643
7.7891 -1.9482 -4.1162 0.9646
7.3715 0.8246 -3.8027 0.9672
6.2718 2.4961 -3.4607 0.9701
5.8156 2.9388 -3.3405 0.9711
3.8133 4.1229 -2.8792 0.9751
2.8078 4.3983 -2.6752 0.9768
2.3213 4.4693 -2.5819 0.9776
1.8497 4.5009 -2.4947 0.9784
0.9584 4.4599 -2.3387 0.9797
0.5412 4.3940 -2.2697 0.9803
0.1438 4.3017 -2.2066 0.9808
-0.9272 3.8907 -2.0505 0.9822
-1.2441 3.7158 -2.0089 0.9825
-1.5412 3.5249 -1.9723 0.9829
-2.0776 3.0999 -1.9131 0.9834
-2.5384 2.6247 -1.8719 0.9837
-2.7410 2.3702 -1.8577 0.9838
-3.4782 0.9528 -1.8488 0.9839
-2.2585 0.4069 -1.1765 0.9897
-2.1873 -0.5992 -1.2107 0.9898
-2.2033 -1.0524 -1.3035 0.9890
-3.2906 -2.3684 -2.1644 0.9818
-2.9504 -3.0507 -2.2656 0.9809
-2.2352 -4.0787 -2.4829 0.9791
-1.9262 -4.4054 -2.5668 0.9784
-1.1947 -5.0130 -2.7511 0.9769
0.7270 -5.9030 -3.1751 0.9734
0.7687 -2.4780 -1.3851 0.9883
0.9125 -2.2204 -1.2815 0.9892
1.2405 -1.9432 -1.2307 0.9896
1.4413 -1.8675 -1.2593 0.9894
1.6871 -1.8241 -1.3264 0.9888
2.0945 -1.8944 -1.5077 0.9873
6.0012 -4.5257 -4.0126 0.9665
6.7917 -3.4320 -4.0623 0.9661
7.0637 -2.8113 -4.0586 0.9661
7.3326 -1.4904 -3.9945 0.9666
7.0604 0.4727 -3.7776 0.9684
6.8118 1.0711 -3.6811 0.9692
6.1373 2.1311 -3.4683 0.9710
3.8843 3.8413 -2.9163 0.9755
2.9268 4.1635 -2.7169 0.9772
2.0014 4.3129 -2.5382 0.9787
1.5582 4.3312 -2.4573 0.9793
1.1308 4.3164 -2.3820 0.9800
0.7205 4.2714 -2.3125 0.9806
0.3281 4.1991 -2.2485 0.9811
-0.4006 3.9825 -2.1368 0.9820
-0.7366 3.8428 -2.0888 0.9824
-1.0535 3.6845 -2.0458 0.9828
-1.6309 3.3189 -1.9741 0.9834
-2.3584 2.6667 -1.9005 0.9840
-2.5647 2.4257 -1.8845 0.9841
-2.7529 2.1740 -1.8726 0.9842
-2.9233 1.9124 -1.8649 0.9843
-3.0757 1.6413 -1.8611 0.9843
-3.2101 1.3612 -1.8614 0.9843
-2.4373 0.5522 -1.3341 0.9887
-3.0408 -2.8759 -2.2343 0.9812
-2.8521 -3.2249 -2.2983 0.9807
-2.3760 -3.9114 -2.4431 0.9795
-2.0853 -4.2435 -2.5241 0.9788
-0.5443 -5.4103 -2.9028 0.9756
0.4552 -5.8252 -3.1192 0.9739
0.7041 -2.6874 -1.4831 0.9875
0.8364 -2.3249 -1.3190 0.9889
1.1551 -2.0006 -1.2332 0.9896
1.3389 -1.9046 -1.2428 0.9895
1.8423 -1.8219 -1.3832 0.9883
5.7592 -4.7601 -3.9888 0.9667
6.9388 -3.1264 -4.0629 0.9661
7.1658 -2.4882 -4.0495 0.9662
7.3004 -1.8259 -4.0173 0.9665
6.6633 1.3544 -3.6299 0.9696
6.3248 1.8850 -3.5232 0.9705
5.9395 2.3638 -3.4126 0.9714
5.5176 2.7882 -3.3002 0.9724
5.0688 3.1569 -3.1879 0.9733
4.6020 3.4705 -3.0770 0.9742
3.6437 3.9395 -2.8647 0.9760
2.6914 4.2160 -2.6702 0.9776
2.2283 4.2902 -2.5808 0.9783
1.7779 4.3264 -2.4970 0.9790
0.9235 4.2975 -2.3465 0.9803
0.1389 4.1535 -2.2185 0.9813
-0.5710 3.9151 -2.1121 0.9822
-0.8974 3.7658 -2.0666 0.9826
-1.2049 3.5989 -2.0261 0.9829
-1.4936 3.4160 -1.9903 0.9832
-2.4638 2.5476 -1.8920 0.9841
-2.8404 2.0444 -1.8682 0.9843
-3.0018 1.7780 -1.8625 0.9843
-3.1452 1.5023 -1.8607 0.9843
-2.2057 0.3974 -1.1965 0.9899
-2.1547 0.1925 -1.1549 0.9902
-2.1192 0.0000 -1.1770 0.9904
-2.1250 -0.3828 -1.1992 0.9902
-2.1317 -0.7938 -1.2633 0.9896
-2.2265 -1.3188 -1.4372 0.9882
-3.1848 -2.2922 -2.1793 0.9822
-2.4155 -3.6042 -2.4097 0.9803
-1.8507 -4.2326 -2.5657 0.9791
-1.1446 -4.8029 -2.7423 0.9777
-0.7373 -5.0556 -2.8376 0.9769
-0.2944 -5.2798 -2.9369 0.9761
0.1829 -5.4697 -3.0396 0.9753
0.6921 -5.6194 -3.1446 0.9744
0.9298 -2.2626 -1.3586 0.9889
1.0845 -2.0880 -1.3068 0.9893
