ply
format ascii 1.0
element vertex 1584
property float32 x
property float32 y
property float32 z
property float32 I
end_header
-3.9606 -3.1276 1.5108 0.9791
-4.7365 -2.2624 1.4769 0.9784
-4.2911 -2.5416 1.4032 0.9795
-3.9789 -4.1142 1.6103 0.9765
-4.4823 -2.3918 1.4294 0.9791
-4.1365 -2.7060 1.3907 0.9797
0.4898 3.9766 1.1273 0.9835
-4.6804 -2.2357 1.3668 0.9788
-4.2542 -2.5197 1.3028 0.9798
-3.8342 -3.3156 1.3357 0.9793
-3.8748 -4.0065 1.4687 0.9772
-4.4405 -2.3695 1.3262 0.9794
-3.8979 -3.0781 1.3087 0.9797
-3.8085 -3.6020 1.3813 0.9785
-4.6405 -2.2166 1.2641 0.9790
-4.2343 -2.5080 1.2096 0.9799
-3.8176 -3.9474 1.3498 0.9776
-4.9705 -2.1076 1.3270 0.9780
-5.5128 -2.0530 1.3427 0.9762
-4.6105 -2.2023 1.1662 0.9793
-3.9460 -2.8401 1.1097 0.9803
-3.7757 -3.9041 1.2396 0.9780
-4.0688 -2.6617 1.1097 0.9802
0.4906 3.9833 0.9160 0.9837
-5.3825 -2.0045 1.2109 0.9768
-3.9313 -2.8296 1.0212 0.9804
-3.7351 -3.8620 1.1327 0.9783
-4.8802 -2.0694 1.1175 0.9786
-4.0537 -2.6518 1.0212 0.9804
-3.8416 -3.0337 1.0320 0.9802
-4.0072 -4.5310 1.2752 0.9756
-4.5751 -2.1854 0.9812 0.9796
-3.7584 -3.2500 0.9615 0.9800
-4.8649 -2.0629 1.0226 0.9787
-3.8736 -4.3799 1.1315 0.9765
-5.2815 -1.9668 0.9937 0.9774
-4.5673 -2.1816 0.8925 0.9797
-4.1798 -2.4757 0.8566 0.9805
-3.9133 -2.8166 0.8502 0.9806
-3.7476 -3.2407 0.8736 0.9801
-3.7044 -3.8303 0.9396 0.9786
0.3246 4.1546 0.7348 0.9832
-4.0387 -2.6420 0.8510 0.9806
-3.8184 -3.0154 0.8579 0.9804
-4.5596 -2.1779 0.8046 0.9797
-3.9150 -2.8178 0.7681 0.9807
-3.7442 -3.2378 0.7882 0.9802
-3.8200 -3.0167 0.7751 0.9805
-3.6916 -3.4915 0.8091 0.9796
-3.8202 -4.3196 0.9182 0.9769
0.4933 4.0052 0.6426 0.9838
-3.9166 -2.8190 0.6864 0.9807
-3.7479 -3.2409 0.7048 0.9802
-3.6845 -3.8097 0.7538 0.9788
0.3195 4.0881 0.5833 0.9836
-4.3427 -2.3173 0.7001 0.9803
0.4944 4.0140 0.5752 0.9838
-4.1733 -2.4718 0.6078 0.9806
-3.7515 -3.2441 0.6215 0.9802
0.3189 4.0816 0.5131 0.9836
-4.3490 -2.3207 0.6177 0.9803
-4.0370 -2.6409 0.6045 0.9807
-3.7956 -4.2917 0.7180 0.9772
0.4954 4.0228 0.5079 0.9838
-4.5732 -2.1844 0.5497 0.9798
0.3184 4.0752 0.4434 0.9837
-3.8116 -4.3098 0.6241 0.9771
-4.1952 -2.4848 0.4470 0.9806
-3.7634 -3.2544 0.4561 0.9802
-4.8561 -2.0592 0.4836 0.9790
-4.0593 -2.6555 0.4447 0.9807
-3.8371 -3.0302 0.4482 0.9806
-3.7137 -3.5124 0.4686 0.9797
-3.8276 -4.3280 0.5297 0.9771
0.4976 4.0405 0.3732 0.9838
-5.3141 -1.9790 0.4250 0.9775
-3.9529 -2.8451 0.3650 0.9807
-3.7805 -3.2691 0.3745 0.9802
0.3174 4.0624 0.3054 0.9838
-3.8513 -3.0413 0.3678 0.9805
-3.7324 -3.5300 0.3850 0.9796
0.4995 4.0558 0.3062 0.9837
-5.3602 -1.9962 0.3331 0.9773
-4.6225 -2.2080 0.2984 0.9797
-4.2208 -2.5000 0.2857 0.9805
-3.7976 -3.2840 0.2924 0.9801
0.3171 4.0587 0.2371 0.9838
-4.9109 -2.0824 0.3107 0.9789
-4.4029 -2.3495 0.2907 0.9802
-4.0844 -2.6719 0.2843 0.9806
0.3173 4.0609 0.1694 0.9838
-4.9455 -2.0971 0.2234 0.9787
-3.9759 -4.4957 0.2495 0.9763
0.5043 4.0943 0.1715 0.9836
-5.4953 -2.0465 0.1462 0.9768
-4.2765 -2.5330 0.1240 0.9803
-3.8168 -3.9465 0.1369 0.9783
0.3175 4.0631 0.1016 0.9838
-12.9570 6.9140 0.3662 0.9429
-4.9804 -2.1119 0.1349 0.9786
-4.4591 -2.3794 0.1260 0.9800
-12.1061 8.7135 0.3720 0.9421
-14.7657 -0.0000 0.1227 0.9426
-5.6622 -2.1086 0.0502 0.9761
-4.7172 -2.2532 0.0434 0.9793
-4.0408 -2.9084 0.0414 0.9803
-3.8580 -3.9891 0.0461 0.9780
-9.6312 10.8902 0.1208 0.9435
-10.7652 8.5012 0.1140 0.9466
-11.2996 7.3918 0.1122 0.9474
-11.8256 6.3104 0.1114 0.9478
-12.3525 5.2379 0.1115 0.9477
-12.8891 4.1562 0.1126 0.9473
-13.4451 3.0462 0.1146 0.9463
-14.0312 1.8870 0.1177 0.9449
-14.4394 0.6438 0.1201 0.9438
-5.0430 -2.1384 0.0455 0.9783
-3.9413 -3.1125 0.0417 0.9801
-3.8342 -3.6263 0.0439 0.9791
0.5117 4.1551 0.0348 0.9834
-9.9264 10.2639 0.1187 0.9445
-10.4919 9.0727 0.1153 0.9460
-11.0340 7.9418 0.1130 0.9471
-13.1640 3.6060 0.1134 0.9469
-13.7336 2.4742 0.1160 0.9457
-14.0486 -1.2554 -0.1172 0.9451
-14.6848 -2.6456 -0.1240 0.9421
-4.7726 -2.2797 -0.0440 0.9791
-4.3351 -2.5677 -0.0419 0.9800
-4.0704 -2.9297 -0.0417 0.9801
-8.1963 11.1241 -0.1148 0.9462
-8.7982 9.9483 -0.1104 0.9483
-9.3563 8.8491 -0.1070 0.9498
-10.3863 6.7944 -0.1032 0.9516
-11.3599 4.8170 -0.1026 0.9518
-12.3374 2.7953 -0.1051 0.9507
-12.8467 1.7277 -0.1077 0.9495
-13.1963 0.5884 -0.1098 0.9485
-13.7530 -0.6133 -0.1144 0.9464
-14.3584 -1.9310 -0.1204 0.9437
-3.9744 -3.1385 -0.0421 0.9799
-3.8746 -3.6645 -0.0443 0.9789
-7.8743 11.7493 -0.1176 0.9450
-8.5036 10.5250 -0.1125 0.9473
-9.0819 9.3906 -0.1086 0.9491
-10.6325 6.2976 -0.1027 0.9518
-11.1184 5.3108 -0.1024 0.9519
-11.6016 4.3205 -0.1029 0.9517
-12.0894 3.3116 -0.1042 0.9511
-12.3822 -0.0000 -0.3088 0.9517
-13.3830 -2.4110 -0.3391 0.9470
-13.9473 -3.8206 -0.3606 0.9438
-4.0054 -4.1415 -0.1437 0.9772
-6.8845 11.3334 -0.3307 0.9483
-7.5194 10.2055 -0.3161 0.9505
-8.6321 8.1642 -0.2963 0.9536
-9.1332 7.2124 -0.2902 0.9545
-9.6093 6.2862 -0.2864 0.9551
-10.0677 5.3723 -0.2846 0.9554
-10.9562 3.5329 -0.2871 0.9550
-12.1574 0.5421 -0.3035 0.9525
-12.6203 -0.5628 -0.3150 0.9507
-13.1193 -1.7644 -0.3301 0.9484
-13.6582 -3.0945 -0.3493 0.9455
-14.2535 -4.5962 -0.3735 0.9418
-5.1840 -2.1982 -0.1404 0.9777
-4.5791 -2.4435 -0.1294 0.9794
-4.0080 -3.1651 -0.1274 0.9798
-6.5405 11.9349 -0.3394 0.9470
-7.2100 10.7582 -0.3230 0.9495
-8.3697 8.6542 -0.3002 0.9530
-9.3739 6.7470 -0.2880 0.9548
-10.7358 3.9981 -0.2857 0.9552
-11.1768 3.0617 -0.2890 0.9547
-11.4566 0.0000 -0.4764 0.9552
-12.2923 -2.2146 -0.5193 0.9512
-13.2336 -4.9282 -0.5872 0.9450
-4.8876 -2.3346 -0.2252 0.9785
-4.4321 -2.6251 -0.2142 0.9796
-3.9940 -3.4537 -0.2195 0.9791
-4.1013 -4.2406 -0.2453 0.9767
-4.0127 14.0331 -0.6069 0.9432
-5.6589 11.5156 -0.5335 0.9499
-6.3366 10.4315 -0.5075 0.9523
-7.5000 8.4803 -0.4707 0.9557
-8.4891 6.7038 -0.4498 0.9576
-8.9400 5.8483 -0.4442 0.9581
-9.3705 5.0003 -0.4416 0.9584
-9.7861 4.1496 -0.4420 0.9583
-10.1914 3.2863 -0.4452 0.9580
-11.2778 0.5029 -0.4694 0.9558
-11.6593 -0.5199 -0.4853 0.9544
-12.5147 -2.8354 -0.5335 0.9499
-5.3083 -2.2509 -0.2397 0.9772
-4.6305 -2.4709 -0.2182 0.9792
-4.0574 -3.2041 -0.2150 0.9795
-6.0075 10.9622 -0.5198 0.9512
-6.6486 9.9205 -0.4966 0.9533
-8.2541 7.1376 -0.4537 0.9573
-8.7175 6.2745 -0.4466 0.9579
-9.9897 3.7202 -0.4432 0.9582
-11.1905 1.0000 -0.4671 0.9560
-10.6587 0.0000 -0.6208 0.9582
-11.7317 -3.2136 -0.7085 0.9524
-12.1150 -4.5116 -0.7530 0.9495
-1.4715 14.6273 -0.8562 0.9428
-2.5374 13.2375 -0.7850 0.9474
-5.2216 10.6256 -0.6896 0.9537
-6.9838 7.8967 -0.6140 0.9586
-7.4735 7.0684 -0.5991 0.9596
-7.9292 6.2616 -0.5885 0.9603
-8.3572 5.4670 -0.5817 0.9608
-9.1510 3.8804 -0.5789 0.9610
-9.8900 2.2408 -0.5906 0.9602
-10.2481 1.3782 -0.6023 0.9594
-10.5206 0.4691 -0.6134 0.9587
-10.8332 -0.4831 -0.6316 0.9575
-11.1857 -1.5043 -0.6574 0.9558
-11.5466 -2.6161 -0.6896 0.9537
-5.4850 -2.3258 -0.3470 0.9764
-4.6935 -2.5046 -0.3099 0.9789
-4.0687 -3.8481 -0.3262 0.9778
-2.0283 13.9069 -0.8186 0.9452
-4.0930 12.2253 -0.7509 0.9497
-5.5542 10.1351 -0.6731 0.9547
-6.1678 9.2029 -0.6453 0.9566
-6.7238 8.3221 -0.6231 0.9580
-7.2334 7.4792 -0.6060 0.9592
-8.1462 5.8633 -0.5846 0.9606
-8.5625 5.0716 -0.5796 0.9609
-9.3397 3.4781 -0.5805 0.9609
-10.4257 0.9316 -0.6097 0.9589
-9.9695 0.0000 -0.7471 0.9608
-10.2659 -0.9174 -0.7724 0.9595
-10.8664 -2.9766 -0.8443 0.9558
-4.1268 -3.5686 -0.4089 0.9784
0.3194 4.0874 -0.3072 0.9837
-3.3698 11.7850 -0.9186 0.9520
-4.8462 9.8618 -0.8235 0.9569
-8.2283 4.3908 -0.6989 0.9633
-9.5988 1.2909 -0.7258 0.9619
-9.8867 0.4408 -0.7416 0.9611
-10.1152 -0.4511 -0.7588 0.9602
-10.4161 -1.4009 -0.7876 0.9587
-10.7161 -2.4280 -0.8234 0.9569
-11.0175 -3.5526 -0.8675 0.9546
-11.3233 -4.8015 -0.9217 0.9519
-4.7795 -2.5504 -0.4060 0.9785
-4.1595 -3.9340 -0.4290 0.9773
-1.8481 12.6716 -0.9597 0.9499
-2.7575 11.5711 -0.8914 0.9534
-5.7510 8.5811 -0.7741 0.9594
-6.2840 7.7778 -0.7493 0.9607
-6.7724 7.0026 -0.7300 0.9617
-8.0392 4.7616 -0.7002 0.9632
-8.4126 4.0183 -0.6987 0.9633
-8.7681 3.2653 -0.7012 0.9632
-9.1089 2.4952 -0.7078 0.9628
-4.4480 -0.0000 -0.4078 0.9823
-9.6155 -0.8593 -0.8850 0.9620
-9.8706 -1.7783 -0.9195 0.9605
-10.1183 -2.7717 -0.9618 0.9587
-10.3593 -3.8578 -1.0134 0.9566
-4.6383 -2.7473 -0.4942 0.9786
-4.2132 -3.6433 -0.5106 0.9779
0.3201 4.0964 -0.3767 0.9836
-0.1476 13.2528 -1.2151 0.9482
-2.1373 11.1500 -1.0408 0.9554
-2.9320 10.2541 -0.9777 0.9581
-3.8613 10.0256 -0.9849 0.9578
-5.6476 7.6649 -0.8728 0.9625
-6.1364 6.9386 -0.8492 0.9635
-6.5861 6.2291 -0.8311 0.9642
-7.0025 5.5298 -0.8180 0.9648
-7.7541 4.1377 -0.8058 0.9653
-8.4214 2.7155 -0.8112 0.9651
-8.7303 1.9780 -0.8207 0.9647
-4.0002 0.1784 -0.3671 0.9840
-9.4849 -0.4229 -0.8704 0.9626
-9.7440 -1.3104 -0.9014 0.9613
-9.9953 -2.2646 -0.9396 0.9597
-10.4776 -4.4429 -1.0433 0.9553
-4.8688 -2.5981 -0.5059 0.9781
-4.4642 -2.9203 -0.4891 0.9788
0.1401 4.1902 -0.3844 0.9833
-2.5469 10.6871 -1.0072 0.9568
-6.7981 5.8785 -0.8239 0.9645
-7.5751 4.4867 -0.8071 0.9653
-4.9080 0.8842 -0.4572 0.9802
-4.1097 0.3672 -0.3783 0.9836
-3.7849 -0.0000 -0.4105 0.9849
-9.0410 -0.8079 -0.9846 0.9641
-9.4646 -2.5926 -1.0644 0.9613
-9.6566 -3.5962 -1.1177 0.9594
-9.8343 -4.6975 -1.1821 0.9571
-4.7385 -2.8066 -0.5974 0.9781
-4.4246 -3.1846 -0.5913 0.9783
0.3208 4.1055 -0.4467 0.9836
-0.1351 12.1291 -1.3157 0.9524
-1.1261 11.1937 -1.2203 0.9557
-1.9805 10.3319 -1.1411 0.9586
-2.7266 9.5354 -1.0757 0.9609
-4.8010 7.9036 -1.0031 0.9635
-5.3147 7.2132 -0.9718 0.9646
-5.7840 6.5401 -0.9470 0.9655
-6.9847 4.5692 -0.9053 0.9670
-7.3303 3.9116 -0.9012 0.9671
-4.7637 1.0793 -0.5298 0.9805
-3.7330 0.1665 -0.4053 0.9851
-3.9258 -0.1751 -0.4262 0.9843
-9.3636 -2.1215 -1.0414 0.9621
-9.5623 -3.0835 -1.0898 0.9604
-9.7473 -4.1332 -1.1484 0.9583
-5.0139 -2.6755 -0.6164 0.9774
-4.5500 -2.9765 -0.5897 0.9784
-10.3139 -9.7548 -1.5398 0.9445
1.6913 13.7320 -1.5007 0.9459
0.1396 4.1736 -0.4529 0.9833
-0.6497 11.6519 -1.2658 0.9541
-2.3656 9.9265 -1.1068 0.9598
-3.0661 9.1580 -1.0475 0.9619
-3.9292 8.9865 -1.0638 0.9613
-4.5251 8.2574 -1.0213 0.9628
-5.0639 7.5558 -0.9866 0.9641
-5.5545 6.8749 -0.9587 0.9651
-7.1604 4.2411 -0.9027 0.9671
-7.4948 3.5800 -0.9009 0.9671
-3.9948 0.7197 -0.4403 0.9838
-3.7414 0.3343 -0.4074 0.9850
-3.5692 0.0000 -0.4473 0.9857
-3.7700 -0.3369 -0.4743 0.9849
-9.1738 -4.3819 -1.2740 0.9598
-4.8843 -2.8930 -0.7114 0.9774
-4.5491 -3.2742 -0.7024 0.9777
0.3215 4.1146 -0.5172 0.9835
-0.1245 11.1780 -1.4009 0.9559
-1.8446 9.6232 -1.2279 0.9613
-2.5496 8.9164 -1.1622 0.9633
-3.1765 8.2475 -1.1076 0.9650
-3.9825 8.1043 -1.1316 0.9643
-5.0179 6.8104 -1.0601 0.9665
-5.4688 6.1837 -1.0345 0.9673
-5.8832 5.5643 -1.0148 0.9679
-6.2657 4.9479 -1.0005 0.9683
-7.5419 2.4320 -0.9930 0.9686
-4.3832 0.9931 -0.5632 0.9820
-3.5348 0.1576 -0.4434 0.9858
-3.6310 -0.1619 -0.4555 0.9855
-8.9671 -2.8915 -1.1807 0.9627
-9.1101 -3.8630 -1.2400 0.9609
-4.6831 -3.0635 -0.7013 0.9777
-9.4143 -10.6449 -1.7808 0.9443
2.9084 13.5348 -1.7348 0.9457
1.5416 12.5171 -1.5804 0.9504
-0.6005 10.7701 -1.3518 0.9574
-3.6903 8.4400 -1.1544 0.9635
-4.2603 7.7741 -1.1109 0.9649
-5.2483 6.4959 -1.0465 0.9669
-6.4461 4.6396 -0.9953 0.9685
-7.1051 3.3939 -0.9868 0.9688
-7.4013 2.7563 -0.9897 0.9687
-3.3945 0.0000 -0.4828 0.9864
-3.5139 -0.3140 -0.5018 0.9858
-8.4973 -3.1644 -1.2897 0.9640
-8.5941 -4.1051 -1.3547 0.9623
-5.1315 -3.0394 -0.8483 0.9762
-8.6982 -7.5218 -1.6357 0.9546
4.9483 13.7540 -2.0791 0.9427
2.0081 11.9046 -1.7172 0.9524
-1.7258 9.0031 -1.3039 0.9636
-3.7576 7.6465 -1.2118 0.9662
-4.2777 7.0421 -1.1720 0.9673
-6.6043 3.5242 -1.0648 0.9702
-6.8956 2.9240 -1.0653 0.9702
-7.1655 2.3106 -1.0709 0.9700
-4.1432 0.9387 -0.6042 0.9830
-3.3610 0.1499 -0.4785 0.9865
-3.6292 -0.4881 -0.5209 0.9853
-8.4396 -2.7214 -1.2613 0.9648
0.1391 4.1601 -0.5920 0.9833
-0.5581 10.0096 -1.4259 0.9603
-1.3609 9.3310 -1.3412 0.9626
-2.0693 8.6833 -1.2697 0.9646
-2.7000 8.0644 -1.2096 0.9662
-3.4779 7.9543 -1.2348 0.9655
-4.9730 6.1551 -1.1255 0.9685
-5.7708 4.9902 -1.0851 0.9696
-6.1237 4.4076 -1.0732 0.9700
-6.4502 3.8205 -1.0663 0.9702
-6.7527 3.2255 -1.0644 0.9702
-7.0331 2.6192 -1.0675 0.9701
-7.2929 1.9978 -1.0755 0.9699
-3.6717 0.6615 -0.5306 0.9850
-3.3916 -0.3031 -0.5422 0.9863
-7.7987 -1.4050 -1.2618 0.9684
-8.0811 -3.8600 -1.4261 0.9644
-8.1185 -4.8086 -1.5025 0.9625
-8.1201 -5.8444 -1.5931 0.9603
-8.0788 -6.9860 -1.7007 0.9577
-7.9859 -8.2574 -1.8292 0.9545
-7.5892 -11.3239 -2.1707 0.9463
4.4844 12.4645 -2.1093 0.9478
3.0621 11.6879 -1.9240 0.9522
0.3233 4.1372 -0.6608 0.9833
-0.1075 9.6539 -1.5374 0.9617
-0.9100 9.0456 -1.4477 0.9638
-2.2548 7.8854 -1.3060 0.9673
-2.8238 7.3318 -1.2511 0.9687
-4.0551 6.6757 -1.2438 0.9689
-4.5108 6.1222 -1.2109 0.9697
-5.6646 4.4733 -1.1494 0.9712
-5.9902 3.9186 -1.1398 0.9714
-3.9744 0.9005 -0.6489 0.9836
-3.2600 0.1454 -0.5196 0.9869
-3.3344 -0.1487 -0.5315 0.9866
-8.1053 -6.4007 -1.6446 0.9590
3.7437 12.0684 -2.0121 0.9501
1.3086 10.6248 -1.7046 0.9576
0.1389 4.1534 -0.6617 0.9833
-0.5211 9.3464 -1.4906 0.9628
-1.2759 8.7484 -1.4078 0.9648
-1.9466 8.1683 -1.3371 0.9666
-2.5468 7.6068 -1.2774 0.9680
-3.2878 7.5195 -1.3068 0.9673
-3.8113 6.9548 -1.2628 0.9684
-4.2881 6.3983 -1.2265 0.9693
-4.7240 5.8470 -1.1970 0.9700
-5.1239 5.2981 -1.1736 0.9706
-6.1435 3.6388 -1.1370 0.9715
-6.4321 3.0724 -1.1351 0.9715
-4.5041 1.2338 -0.7436 0.9813
-3.1939 -0.0000 -0.5632 0.9871
-3.2817 -0.2933 -0.5810 0.9867
-7.5787 -2.8223 -1.4260 0.9677
-7.6357 -4.5226 -1.5648 0.9646
-7.5392 -6.5194 -1.7575 0.9603
-6.5776 -12.0027 -2.4134 0.9459
5.5932 12.0529 -2.3429 0.9475
4.0981 11.3909 -2.1345 0.9520
1.7143 10.1631 -1.8174 0.9590
0.3249 4.1575 -0.7353 0.9832
-0.1007 9.0334 -1.5929 0.9640
-0.8547 8.4960 -1.5056 0.9659
-1.5274 7.9683 -1.4306 0.9676
-2.6742 6.9433 -1.3120 0.9702
-3.3737 6.8653 -1.3488 0.9694
-3.8536 6.3439 -1.3088 0.9703
-4.6944 5.3080 -1.2495 0.9716
-5.4035 4.2671 -1.2140 0.9724
-5.7162 3.7394 -1.2044 0.9726
-6.0040 3.2038 -1.2000 0.9727
-6.5108 2.0995 -1.2062 0.9726
-3.8238 0.8664 -0.6913 0.9842
-3.3507 -0.4507 -0.5961 0.9864
-7.5453 -2.4330 -1.3979 0.9683
-7.6340 -4.0737 -1.5257 0.9655
-7.6279 -4.9900 -1.6072 0.9637
-7.4844 -7.0787 -1.8165 0.9590
-7.3288 -8.2868 -1.9506 0.9561
-6.3417 -12.9049 -2.5354 0.9433
6.4397 12.3985 -2.4635 0.9448
3.4348 11.0728 -2.0442 0.9540
0.1386 4.1466 -0.7316 0.9833
-2.4092 7.1958 -1.3380 0.9696
-3.6191 6.6041 -1.3279 0.9699
-4.4976 5.5668 -1.2619 0.9714
-4.8829 5.0489 -1.2385 0.9719
-5.2371 4.5287 -1.2208 0.9723
-5.5631 4.0041 -1.2086 0.9725
-6.3924 2.3806 -1.2028 0.9727
-3.1510 0.2815 -0.5578 0.9872
-3.1775 -0.2839 -0.6173 0.9871
-3.3117 -0.5967 -0.6512 0.9864
-7.1870 -2.6765 -1.4841 0.9692
-7.1575 -5.1517 -1.7066 0.9647
-6.9174 -7.1526 -1.9256 0.9603
-6.7049 -8.2987 -2.0646 0.9575
-6.0215 -10.9878 -2.4247 0.9502
-5.5048 -12.5897 -2.6591 0.9456
6.6618 11.5387 -2.5784 0.9472
3.7713 10.4826 -2.1559 0.9556
1.5965 9.4649 -1.8575 0.9616
-0.8055 8.0067 -1.5573 0.9677
-1.4435 7.5308 -1.4839 0.9692
-2.5387 6.5916 -1.3669 0.9716
-3.2084 6.5289 -1.4078 0.9708
-3.6701 6.0419 -1.3680 0.9716
-4.0928 5.5548 -1.3352 0.9723
-4.4805 5.0662 -1.3088 0.9728
-5.1640 4.0780 -1.2734 0.9735
-5.4648 3.5749 -1.2637 0.9737
-5.7409 3.0634 -1.2592 0.9738
-5.9936 2.5415 -1.2598 0.9738
-3.6833 0.8345 -0.7308 0.9847
-3.2339 -0.4349 -0.6315 0.9868
-7.0927 -1.6070 -1.4074 0.9708
-7.1625 -2.3096 -1.4564 0.9698
-7.2039 -3.0547 -1.5142 0.9686
-6.9984 -6.6191 -1.8641 0.9615
-6.8201 -7.7117 -1.9922 0.9589
-6.5699 -8.9166 -2.1433 0.9559
-6.2310 -10.2576 -2.3226 0.9523
-5.7807 -11.7635 -2.5365 0.9480
7.5377 11.8075 -2.7109 0.9445
5.8542 11.2714 -2.4579 0.9496
4.4150 10.7432 -2.2477 0.9538
-0.4597 8.2448 -1.5980 0.9669
-1.1331 7.7693 -1.5194 0.9685
-2.2849 6.8246 -1.3927 0.9711
-2.7811 6.3606 -1.3434 0.9721
-3.4444 6.2853 -1.3870 0.9712
-4.6623 4.8208 -1.2979 0.9730
-5.0038 4.3269 -1.2802 0.9734
-5.3176 3.8274 -1.2679 0.9737
-5.6059 3.3204 -1.2608 0.9738
-3.0639 0.2738 -0.5953 0.9875
-3.0211 0.0000 -0.6369 0.9877
-3.0994 -0.2770 -0.6560 0.9874
-6.7904 -1.8601 -1.4843 0.9716
-6.8315 -2.5441 -1.5369 0.9706
-6.8418 -3.2681 -1.5985 0.9695
-6.8175 -4.0380 -1.6705 0.9681
-6.7535 -4.8609 -1.7542 0.9666
-6.4800 -6.7003 -1.9651 0.9626
7.6741 10.9166 -2.8132 0.9469
6.0785 10.5282 -2.5629 0.9515
4.6969 10.1216 -2.3524 0.9554
3.4912 9.7039 -2.1741 0.9587
1.4933 8.8529 -1.8927 0.9640
0.3281 4.1992 -0.8880 0.9829
-0.7614 7.5682 -1.6036 0.9694
-1.3678 7.1360 -1.5318 0.9707
-1.9168 6.7034 -1.4698 0.9719
-2.4155 6.2717 -1.4169 0.9729
-3.5023 5.7656 -1.4222 0.9728
-4.6278 4.3770 -1.3429 0.9743
-4.9435 3.9039 -1.3280 0.9746
-3.0346 0.4081 -0.6455 0.9876
-3.0505 -0.1360 -0.6437 0.9876
-3.1545 -0.4242 -0.6710 0.9871
-6.7592 -1.5314 -1.4611 0.9721
-6.8146 -2.1974 -1.5095 0.9712
-6.8408 -2.9007 -1.5665 0.9701
-6.8343 -3.6469 -1.6331 0.9688
-6.7908 -4.4423 -1.7107 0.9674
-6.7048 -5.2947 -1.8011 0.9657
-6.5691 -6.2131 -1.9062 0.9637
-6.3749 -7.2083 -2.0287 0.9614
-4.7254 -12.2694 -2.7718 0.9477
-3.9797 -13.9177 -3.0517 0.9425
8.5672 11.1008 -2.9562 0.9443
6.8468 10.7253 -2.6826 0.9493
4.0741 9.9138 -2.2596 0.9571
1.0640 8.6388 -1.8350 0.9650
0.1387 4.1500 -0.8754 0.9832
-0.4339 7.7820 -1.6431 0.9686
-1.0724 7.3529 -1.5665 0.9701
-2.6643 6.0934 -1.4020 0.9732
-3.7105 5.5365 -1.4051 0.9731
-4.1010 5.0759 -1.3757 0.9737
-4.7891 4.1413 -1.3348 0.9745
-5.0915 3.6646 -1.3225 0.9747
-5.3688 3.1799 -1.3155 0.9748
-3.1642 -0.5701 -0.7338 0.9869
-6.4788 -1.7747 -1.5332 0.9728
-6.5075 -2.4234 -1.5849 0.9719
-6.5049 -3.1071 -1.6454 0.9709
-6.4674 -3.8307 -1.7156 0.9696
-6.3902 -4.5994 -1.7970 0.9682
-6.2676 -5.4198 -1.8912 0.9666
-6.0921 -6.2992 -2.0001 0.9647
-5.5430 -8.2708 -2.2725 0.9600
-5.1431 -9.3851 -2.4427 0.9570
-4.6364 -10.6036 -2.6414 0.9536
-3.1988 -13.4227 -3.1494 0.9450
8.6110 10.1851 -3.0442 0.9467
6.9969 9.9532 -2.7769 0.9513
3.2482 9.0285 -2.1900 0.9614
2.2731 8.6762 -2.0471 0.9639
0.3313 4.2401 -0.9707 0.9827
-0.0842 7.5577 -1.7251 0.9695
-0.7216 7.1727 -1.6454 0.9709
-1.2992 6.7778 -1.5751 0.9721
-2.3028 5.9792 -1.4624 0.9741
-2.9195 5.9410 -1.5109 0.9732
-4.7397 3.7429 -1.3785 0.9755
-5.0189 3.2833 -1.3689 0.9757
-5.2740 2.8143 -1.3644 0.9758
-5.5059 2.3347 -1.3650 0.9758
-5.7155 1.8430 -1.3707 0.9757
-3.4289 0.7769 -0.8025 0.9857
-2.9453 0.1313 -0.6729 0.9880
-2.9994 -0.1337 -0.6853 0.9878
-3.0959 -0.4163 -0.7130 0.9873
-6.4968 -2.0950 -1.5580 0.9724
-6.5103 -2.7606 -1.6140 0.9714
-6.4908 -3.4636 -1.6792 0.9703
-6.1870 -5.8516 -1.9437 0.9657
-5.9817 -6.7636 -2.0609 0.9636
-5.3552 -8.8159 -2.3543 0.9586
-4.3356 -11.2570 -2.7533 0.9517
-3.6211 -12.6639 -3.0063 0.9474
-2.7262 -14.2223 -3.3052 0.9423
9.5065 10.2783 -3.1956 0.9442
7.7762 10.0759 -2.9050 0.9491
6.2682 9.8190 -2.6588 0.9533
0.1388 4.1524 -0.9483 0.9831
-0.4107 7.3658 -1.6838 0.9702
-1.0174 6.9759 -1.6090 0.9715
-2.0690 6.1798 -1.4874 0.9736
-2.6019 5.9508 -1.4824 0.9737
-3.1384 5.7269 -1.4905 0.9736
-3.5491 5.2955 -1.4550 0.9742
-4.8824 3.5142 -1.3730 0.9756
-5.1494 3.0500 -1.3660 0.9757
-5.3928 2.5759 -1.3641 0.9758
-5.6135 2.0905 -1.3672 0.9757
-3.8725 1.0608 -0.9164 0.9837
-3.1659 0.5704 -0.7342 0.9869
-6.1924 -1.6963 -1.5782 0.9739
-6.2106 -2.3128 -1.6290 0.9731
-6.0617 -4.3629 -1.8358 0.9697
-5.7455 -5.9408 -2.0314 0.9665
-5.5016 -6.8094 -2.1518 0.9646
-5.1875 -7.7403 -2.2903 0.9623
-4.7902 -8.7411 -2.4500 0.9598
-4.2940 -9.8207 -2.6346 0.9568
-1.9887 -13.6353 -3.3870 0.9448
9.4516 9.3468 -3.2673 0.9467
6.4255 9.1403 -2.7463 0.9550
1.3206 7.8292 -1.9516 0.9678
0.5862 7.5015 -1.8495 0.9695
-0.6854 6.8129 -1.6831 0.9722
-1.2366 6.4512 -1.6146 0.9733
-1.7395 6.0836 -1.5553 0.9743
-2.7923 5.6823 -1.5562 0.9743
-3.2059 5.2777 -1.5178 0.9749
-3.9354 4.4498 -1.4601 0.9758
-4.8201 3.1532 -1.4158 0.9766
-5.2884 2.2425 -1.4119 0.9766
-5.4888 1.7699 -1.4176 0.9765
-2.8900 0.3887 -0.7167 0.9881
-2.9494 -0.1315 -0.7257 0.9879
-3.1571 -0.7153 -0.7957 0.9868
-6.2052 -2.0009 -1.6026 0.9735
-6.2081 -2.6325 -1.6575 0.9726
-6.0016 -4.7394 -1.8797 0.9690
-5.6317 -6.3678 -2.0895 0.9656
-5.3541 -7.2666 -2.2186 0.9635
-4.0028 -10.3930 -2.7375 0.9552
-2.4788 -12.9317 -3.2365 0.9472
8.6240 9.3242 -3.1219 0.9490
7.1144 9.2183 -2.8622 0.9532
5.7764 9.0485 -2.6387 0.9567
4.5863 8.8302 -2.4458 0.9598
0.1389 4.1548 -1.0218 0.9830
-0.9673 6.6328 -1.6476 0.9728
-1.4937 6.2680 -1.5838 0.9738
-2.5575 5.8491 -1.5691 0.9740
-3.4000 5.0731 -1.5011 0.9752
-4.0992 4.2386 -1.4494 0.9760
-4.9458 2.9294 -1.4129 0.9766
-3.8036 1.0419 -0.9694 0.9839
-3.0843 0.5557 -0.7703 0.9872
-2.8744 0.0000 -0.7574 0.9882
-3.0385 -0.5474 -0.8135 0.9873
-5.9283 -1.6239 -1.6197 0.9749
-5.7630 -4.1480 -1.8710 0.9711
-3.9967 -9.1407 -2.6288 0.9596
-3.4052 -10.1707 -2.8262 0.9566
-2.6858 -11.2703 -3.0529 0.9532
-1.8149 -12.4439 -3.3137 0.9493
-0.7635 -13.6929 -3.6137 0.9448
11.9166 8.1803 -3.8087 0.9420
10.1747 8.4096 -3.4782 0.9469
8.6083 8.5129 -3.1901 0.9512
7.2012 8.5176 -2.9390 0.9549
5.9367 8.4450 -2.7201 0.9582
0.5554 7.1075 -1.8785 0.9709
-0.0758 6.8035 -1.7928 0.9722
-1.6617 5.8114 -1.5927 0.9753
-2.1043 5.4638 -1.5428 0.9761
-2.6749 5.4432 -1.5981 0.9752
-3.4417 4.6711 -1.5289 0.9763
-4.0901 3.8684 -1.4834 0.9770
-4.3748 3.4547 -1.4689 0.9772
-4.6350 3.0320 -1.4594 0.9773
-4.8717 2.5996 -1.4550 0.9774
-2.8316 0.3808 -0.7529 0.9883
-2.8515 0.1272 -0.7521 0.9883
-2.9007 -0.1293 -0.7651 0.9881
-2.9836 -0.4013 -0.7933 0.9876
-5.9366 -1.9143 -1.6436 0.9745
-5.8160 -3.8046 -1.8313 0.9717
-5.5354 -5.2353 -2.0076 0.9690
-5.3179 -6.0131 -2.1152 0.9673
-4.6869 -7.7157 -2.3788 0.9633
-4.2509 -8.6503 -2.5397 0.9609
-3.7156 -9.6473 -2.7241 0.9581
-2.2710 -11.8477 -3.1787 0.9513
5.3529 8.3851 -2.6213 0.9597
4.2730 8.2270 -2.4428 0.9624
0.8934 7.2541 -1.9259 0.9702
0.1390 4.1572 -1.0960 0.9829
-1.8877 5.6383 -1.5667 0.9757
-2.4624 5.6316 -1.6196 0.9749
-2.8787 5.2530 -1.5784 0.9755
-3.6142 4.4734 -1.5154 0.9765
-4.2356 3.6626 -1.4755 0.9771
-4.9816 2.3795 -1.4547 0.9774
-3.7365 1.0235 -1.0208 0.9841
-3.0018 0.5408 -0.8037 0.9875
-2.8279 0.0000 -0.7956 0.9883
-2.8819 -0.2575 -0.8141 0.9880
-2.9786 -0.5366 -0.8515 0.9875
-5.6837 -1.5569 -1.6581 0.9758
-5.5920 -3.3122 -1.8286 0.9734
-5.4901 -3.9515 -1.9032 0.9723
-5.1519 -5.3270 -2.0851 0.9697
-4.2058 -7.6746 -2.4623 0.9643
-3.7358 -8.5439 -2.6236 0.9620
-3.1673 -9.4603 -2.8069 0.9594
12.3856 6.9680 -3.9984 0.9427
10.7604 7.3866 -3.6722 0.9472
5.5135 7.8431 -2.6974 0.9609
4.4793 7.7584 -2.5206 0.9635
3.5377 7.6235 -2.3646 0.9657
2.6796 7.4482 -2.2271 0.9676
1.8969 7.2403 -2.1059 0.9694
1.1818 7.0060 -1.9990 0.9709
-1.5900 5.5605 -1.6272 0.9763
-2.5660 5.2217 -1.6370 0.9761
-2.9520 4.8596 -1.5998 0.9766
-3.3075 4.4889 -1.5688 0.9771
-4.4621 2.9189 -1.5002 0.9781
-5.0806 1.6383 -1.5020 0.9781
-2.7751 0.3732 -0.7878 0.9884
-2.8062 0.1251 -0.7903 0.9884
-2.9298 -0.3940 -0.8317 0.9878
-3.2049 -1.0334 -0.9474 0.9861
-5.6746 -2.4063 -1.7342 0.9747
-5.0350 -5.6931 -2.1384 0.9689
-4.7557 -6.4544 -2.2557 0.9672
-4.4083 -7.2570 -2.3890 0.9653
-3.9822 -8.1035 -2.5404 0.9632
-3.4648 -8.9962 -2.7124 0.9607
-1.2031 -11.9591 -3.3817 0.9513
-0.1452 -13.0348 -3.6676 0.9473
1.1040 -14.1277 -3.9870 0.9428
11.5567 7.1976 -3.8306 0.9450
9.9967 7.5389 -3.5228 0.9493
8.5659 7.7474 -3.2496 0.9531
7.2592 7.8485 -3.0079 0.9565
6.0683 7.8629 -2.7945 0.9596
4.9843 7.8077 -2.6062 0.9622
3.9975 7.6965 -2.4401 0.9646
1.5313 7.1262 -2.0508 0.9702
0.8474 6.8805 -1.9505 0.9716
-0.3531 6.3320 -1.7843 0.9740
-0.8797 6.0317 -1.7150 0.9750
-1.8075 5.3986 -1.6018 0.9766
-2.7629 5.0418 -1.6176 0.9764
-3.7881 3.9169 -1.5331 0.9776
-4.0759 3.5246 -1.5161 0.9779
-4.3392 3.1232 -1.5042 0.9780
-4.7963 2.2910 -1.4955 0.9782
-4.9914 1.8588 -1.4986 0.9781
-2.7884 0.2492 -0.7877 0.9884
-2.8308 -0.2530 -0.8509 0.9882
-3.0126 -0.8253 -0.9351 0.9870
-5.4159 -2.5870 -1.7969 0.9753
-5.2396 -3.7712 -1.9327 0.9734
-5.0910 -4.4023 -2.0150 0.9723
-4.8955 -5.0619 -2.1082 0.9710
-4.3383 -6.4731 -2.3329 0.9680
-3.9608 -7.2276 -2.4674 0.9662
-3.5048 -8.0157 -2.6191 0.9641
-2.9587 -8.8373 -2.7900 0.9618
-0.6400 -11.4774 -3.4414 0.9531
0.4143 -12.3915 -3.7118 0.9495
12.6643 5.7062 -4.1585 0.9437
11.1921 6.2966 -3.8446 0.9478
9.8005 6.7277 -3.5589 0.9516
7.2899 7.2091 -3.0694 0.9581
4.1971 7.2696 -2.5131 0.9656
3.3278 7.1712 -2.3668 0.9675
2.5295 7.0307 -2.2369 0.9693
0.5020 6.4241 -1.9291 0.9735
-0.0688 6.1755 -1.8489 0.9745
-0.5942 5.9065 -1.7772 0.9755
-1.0779 5.6235 -1.7142 0.9764
-1.5235 5.3282 -1.6591 0.9771
-2.4647 5.0156 -1.6731 0.9769
-3.7902 3.5847 -1.5618 0.9785
-4.0569 3.2037 -1.5476 0.9786
-4.8961 1.5788 -1.5401 0.9787
-2.7203 0.3659 -0.8218 0.9886
-2.8067 -0.1251 -0.8411 0.9883
-2.8771 -0.3869 -0.8691 0.9880
-3.1092 -1.0026 -0.9780 0.9865
-5.4378 -2.3058 -1.7683 0.9756
-5.3856 -2.8739 -1.8275 0.9748
-4.9995 -4.7285 -2.0601 0.9717
-4.5007 -6.1083 -2.2715 0.9688
-4.1587 -6.8462 -2.3981 0.9671
-2.6479 -9.2602 -2.8834 0.9606
-1.1089 -11.0228 -3.3167 0.9548
-0.1330 -11.9352 -3.5734 0.9514
2.3160 -13.7301 -4.1686 0.9435
11.9190 6.0229 -3.9980 0.9458
10.4855 6.5304 -3.6982 0.9497
9.1381 6.8914 -3.4265 0.9533
7.8827 7.1295 -3.1820 0.9566
6.7200 7.2657 -2.9629 0.9595
5.6474 7.3176 -2.7673 0.9621
3.7532 7.2263 -2.4378 0.9666
2.1550 6.9470 -2.1776 0.9701
1.4520 6.7569 -2.0690 0.9716
0.1393 4.1671 -1.2482 0.9827
-0.3369 6.0430 -1.8119 0.9750
-0.8410 5.7667 -1.7447 0.9760
-1.3053 5.4773 -1.6857 0.9768
-1.7331 5.1765 -1.6343 0.9775
-2.2665 5.1837 -1.6938 0.9767
-2.6551 4.8451 -1.6540 0.9772
-3.0136 4.4966 -1.6206 0.9777
-3.9265 3.3954 -1.5541 0.9786
-4.1814 3.0096 -1.5424 0.9787
-4.4133 2.6140 -1.5356 0.9788
-4.6228 2.2082 -1.5338 0.9788
-2.8473 0.5130 -0.8662 0.9880
-2.7380 0.0000 -0.8695 0.9886
-2.8694 -0.5169 -0.9260 0.9878
-2.9540 -0.8092 -0.9727 0.9872
-5.1934 -2.4807 -1.8279 0.9761
-5.1194 -3.0322 -1.8896 0.9753
-5.0088 -3.6051 -1.9599 0.9744
-4.8576 -4.2006 -2.0395 0.9734
-4.6612 -4.8197 -2.1294 0.9723
-4.1097 -6.1321 -2.3444 0.9695
-3.7408 -6.8261 -2.4720 0.9679
-2.7742 -8.2861 -2.7751 0.9640
-1.4328 -9.8236 -3.1528 0.9592
-0.5914 -10.6071 -3.3739 0.9564
10.1996 5.7382 -3.7167 0.9521
6.7643 6.6894 -3.0213 0.9609
5.7557 6.8078 -2.8312 0.9633
4.8170 6.8523 -2.6601 0.9655
3.9462 6.8350 -2.5065 0.9674
2.3940 6.6542 -2.2459 0.9708
0.4787 6.1254 -1.9513 0.9745
-0.5685 5.6510 -1.8037 0.9764
-1.0329 5.3885 -1.7425 0.9772
-1.9719 5.1200 -1.7424 0.9772
-2.3703 4.8234 -1.7068 0.9777
-2.7315 4.4968 -1.6709 0.9782
-3.0649 4.1597 -1.6409 0.9785
-4.3614 2.3273 -1.5700 0.9795
-4.5529 1.9306 -1.5706 0.9795
-4.7228 1.5229 -1.5759 0.9794
-2.7612 -0.1231 -0.8778 0.9885
-2.9205 -0.6617 -0.9510 0.9875
-5.2178 -2.2125 -1.7999 0.9765
-5.1608 -2.7538 -1.8577 0.9757
-5.0689 -3.3159 -1.9237 0.9749
-4.9386 -3.9000 -1.9985 0.9739
-4.7654 -4.5071 -2.0831 0.9728
-4.5444 -5.1384 -2.1785 0.9716
-4.2694 -5.7945 -2.2858 0.9702
-3.9338 -6.4759 -2.4064 0.9687
-2.4776 -8.6645 -2.8620 0.9629
3.4480 -13.1611 -4.3208 0.9445
13.3932 3.9916 -4.4383 0.9430
9.5879 5.9714 -3.5872 0.9537
7.2951 6.5980 -3.1239 0.9596
5.2777 6.8385 -2.7434 0.9644
4.3733 6.8507 -2.5812 0.9665
3.5352 6.8064 -2.4358 0.9683
2.7596 6.7150 -2.3056 0.9700
0.7673 6.2298 -1.9935 0.9740
-0.3221 5.7765 -1.8374 0.9760
-0.8053 5.5215 -1.7721 0.9769
-1.2516 5.2521 -1.7147 0.9776
-2.1786 4.9826 -1.7271 0.9774
-2.5544 4.6614 -1.6881 0.9779
-4.0332 2.9029 -1.5782 0.9794
-4.2575 2.5217 -1.5715 0.9794
-4.4599 2.1303 -1.5697 0.9795
-4.6405 1.7282 -1.5726 0.9794
-3.4729 0.9513 -1.1436 0.9850
-2.6945 -0.0000 -0.9053 0.9887
-2.8178 -0.5077 -0.9619 0.9880
-2.8971 -0.7936 -1.0092 0.9874
-4.7953 -3.4515 -1.9851 0.9754
-4.2012 -5.1999 -2.2460 0.9722
-3.9019 -5.8221 -2.3548 0.9709
-3.5419 -6.4631 -2.4762 0.9694
-3.1139 -7.1216 -2.6115 0.9677
-2.6097 -7.7948 -2.7618 0.9659
-2.0206 -8.4786 -2.9284 0.9639
-1.3370 -9.1672 -3.1126 0.9617
3.7920 -12.2241 -4.3002 0.9474
13.0095 3.2539 -4.5056 0.9450
11.5488 4.0102 -4.1075 0.9497
10.4464 4.7069 -3.8496 0.9528
9.3538 5.2624 -3.6059 0.9557
8.2968 5.6948 -3.3810 0.9584
7.2766 6.0142 -3.1718 0.9609
5.3880 6.3729 -2.8039 0.9654
4.5267 6.4394 -2.6446 0.9673
3.7214 6.4456 -2.5006 0.9691
2.2710 6.3124 -2.2539 0.9721
1.6211 6.1879 -2.1492 0.9734
1.0175 6.0325 -2.0554 0.9745
0.4571 5.8493 -1.9713 0.9755
-0.0477 4.2810 -1.4384 0.9821
-0.5447 5.4141 -1.8282 0.9773
-2.2818 4.6435 -1.7383 0.9784
-2.6317 4.3324 -1.7031 0.9788
-4.2114 2.2473 -1.6038 0.9801
-4.5597 1.4703 -1.6097 0.9800
-2.6271 0.5952 -0.9051 0.9887
-2.6762 0.1193 -0.9001 0.9888
-2.7168 -0.1212 -0.9137 0.9886
-5.0128 -2.1256 -1.8294 0.9773
-4.9518 -2.6424 -1.8858 0.9766
-4.3301 -4.8961 -2.1960 0.9728
-3.3369 -6.7904 -2.5420 0.9686
-2.8718 -7.4565 -2.6847 0.9668
-2.3263 -8.1357 -2.8430 0.9649
-1.6912 -8.8227 -3.0182 0.9628
-0.9568 -9.5107 -3.2116 0.9605
-0.1135 -10.1897 -3.4238 0.9579
0.8471 -10.8402 -3.6532 0.9552
9.8975 5.0015 -3.7259 0.9543
8.8175 5.4916 -3.4901 0.9571
7.7804 5.8675 -3.2741 0.9597
5.8396 6.3137 -2.8895 0.9644
4.9504 6.4143 -2.7223 0.9664
4.1172 6.4494 -2.5708 0.9682
3.3392 6.4290 -2.4340 0.9699
0.7322 5.9449 -2.0125 0.9750
-0.3084 5.5301 -1.8609 0.9769
-0.7721 5.2941 -1.7975 0.9777
-2.4602 4.4894 -1.7200 0.9786
-2.7965 4.1727 -1.6877 0.9790
-3.3925 3.5078 -1.6396 0.9796
-3.8937 2.8025 -1.6119 0.9800
-4.1109 2.4349 -1.6053 0.9800
-4.3065 2.0570 -1.6035 0.9801
-4.4806 1.6686 -1.6064 0.9800
-2.6931 -0.2407 -0.9588 0.9886
-4.8419 -1.8031 -1.8321 0.9783
-4.5972 -3.3089 -2.0084 0.9762
-4.4436 -3.8425 -2.0831 0.9754
-4.2480 -4.3924 -2.1667 0.9744
-4.0058 -4.9581 -2.2602 0.9733
-3.3612 -6.1334 -2.4800 0.9708
-2.4621 -7.3538 -2.7498 0.9676
-1.2524 -8.5869 -3.0770 0.9638
-0.5125 -9.1906 -3.2639 0.9617
0.3267 -9.7712 -3.4667 0.9594
1.2692 -10.3053 -3.6817 0.9569
7.4362 -11.6486 -4.9003 0.9430
12.2185 3.0561 -4.4660 0.9480
10.5480 3.6626 -3.9592 0.9537
8.6346 4.8577 -3.5130 0.9588
7.6902 5.2790 -3.3075 0.9612
6.7732 5.5982 -3.1158 0.9634
4.2667 6.0693 -2.6307 0.9690
2.1590 6.0009 -2.2614 0.9733
1.5427 5.8878 -2.1582 0.9745
0.9715 5.7594 -2.0710 0.9755
-0.5225 5.1940 -1.8510 0.9781
-0.9520 4.9665 -1.7931 0.9788
-1.3507 4.7239 -1.7421 0.9794
-1.8329 4.7591 -1.8084 0.9786
-2.1990 4.4748 -1.7679 0.9791
-2.5380 4.1781 -1.7334 0.9795
-3.6489 2.8815 -1.6486 0.9805
-3.8700 2.5317 -1.6398 0.9806
-4.0698 2.1717 -1.6357 0.9806
-4.4059 1.4207 -1.6415 0.9805
-2.5748 0.3463 -0.9212 0.9890
-2.6347 0.1175 -0.9351 0.9889
-2.6733 -0.1192 -0.9489 0.9887
-2.7260 -0.3666 -0.9753 0.9884
-4.8214 -2.0444 -1.8569 0.9780
-4.7571 -2.5384 -1.9119 0.9774
-4.6595 -3.0481 -1.9743 0.9766
-4.5254 -3.5737 -2.0447 0.9758
-4.3513 -4.1155 -2.1237 0.9749
-3.5442 -5.8346 -2.4206 0.9714
-2.1911 -7.6627 -2.8260 0.9667
-1.5872 -8.2801 -2.9895 0.9649
-0.8944 -8.8908 -3.1685 0.9628
-0.1057 -9.4847 -3.3634 0.9605
0.7849 -10.0442 -3.5724 0.9581
2.8800 -10.9930 -4.0295 0.9529
4.0810 -11.3434 -4.2746 0.9501
5.3725 -11.5774 -4.5257 0.9473
6.7358 -11.6668 -4.7769 0.9444
11.2420 3.3505 -4.1595 0.9514
8.1597 5.0819 -3.4086 0.9600
5.4748 5.9193 -2.8590 0.9664
3.8868 6.0886 -2.5613 0.9698
3.1618 6.0875 -2.4323 0.9713
1.2505 5.8193 -2.1106 0.9751
0.6995 5.6796 -2.0291 0.9760
0.1404 4.1981 -1.4894 0.9823
-0.2956 5.3013 -1.8827 0.9777
-0.7412 5.0823 -1.8212 0.9784
-1.1550 4.8468 -1.7667 0.9791
-1.5958 4.7663 -1.7823 0.9789
-2.0194 4.6186 -1.7874 0.9788
-2.3717 4.3279 -1.7499 0.9793
-2.6978 4.0253 -1.7182 0.9796
-3.2760 3.3873 -1.6709 0.9802
-3.5301 3.0527 -1.6549 0.9804
-3.7622 2.7079 -1.6436 0.9805
-3.9725 2.3529 -1.6372 0.9806
-4.1617 1.9879 -1.6354 0.9806
-2.6060 0.2329 -0.9277 0.9890
-2.6101 0.0000 -0.9746 0.9889
-2.6498 -0.2368 -0.9934 0.9887
-4.5295 -2.6828 -1.9658 0.9778
-4.0647 -4.2029 -2.1833 0.9753
-3.5380 -5.2791 -2.3730 0.9732
-2.7951 -6.3924 -2.6052 0.9707
-2.3288 -6.9557 -2.7390 0.9692
-1.7914 -7.5171 -2.8856 0.9675
-1.1770 -8.0700 -3.0453 0.9658
-0.4799 -8.6059 -3.2185 0.9639
0.3047 -9.1139 -3.4051 0.9618
1.1789 -9.5722 -3.6014 0.9597
3.1927 -10.2925 -4.0240 0.9550
4.3210 -10.5145 -4.2448 0.9526
5.5133 -10.6149 -4.4665 0.9502
6.7483 -10.5711 -4.6831 0.9479
7.9974 -10.3625 -4.8878 0.9456
10.3867 -9.3942 -5.2295 0.9420
13.6187 -1.5235 -5.1171 0.9432
13.2228 -0.2947 -4.9388 0.9451
12.6614 0.8476 -4.7385 0.9473
11.1800 2.7963 -4.3033 0.9520
9.8086 3.4059 -3.8772 0.9566
8.8611 3.9926 -3.6292 0.9594
8.0113 4.5071 -3.4324 0.9615
6.3359 5.2368 -3.0694 0.9655
5.5325 5.4712 -2.9055 0.9673
4.7612 5.6316 -2.7537 0.9690
4.0260 5.7271 -2.6141 0.9706
0.9287 5.5057 -2.0849 0.9764
0.4186 5.3564 -2.0063 0.9773
-0.0474 4.2564 -1.5895 0.9820
-0.5018 4.9887 -1.8722 0.9788
-0.9155 4.7761 -1.8159 0.9794
-2.4496 4.0327 -1.7619 0.9801
-3.0342 3.4308 -1.7103 0.9806
-3.7424 2.4482 -1.6699 0.9811
-4.1085 1.7422 -1.6664 0.9811
-4.2604 1.3738 -1.6715 0.9811
-2.5436 0.5763 -0.9739 0.9889
-2.5325 0.3406 -0.9542 0.9891
-2.5921 0.1156 -0.9689 0.9890
-2.6781 -0.3602 -1.0090 0.9885
-2.7557 -0.6244 -1.0551 0.9880
-4.5750 -2.4413 -1.9364 0.9781
-4.4755 -2.9277 -1.9970 0.9774
-4.1671 -3.9412 -2.1418 0.9758
-3.9511 -4.4676 -2.2271 0.9749
-3.6884 -5.0059 -2.3218 0.9738
-3.3742 -5.5547 -2.4269 0.9726
-3.0034 -6.1117 -2.5429 0.9713
-0.8391 -8.3407 -3.1302 0.9648
1.6497 -9.7803 -3.7037 0.9585
3.7478 -10.4172 -4.1340 0.9538
4.9103 -10.5813 -4.3559 0.9514
6.1271 -10.6124 -4.5758 0.9490
8.6161 -10.1911 -4.9833 0.9446
9.8162 -9.7075 -5.1552 0.9428
13.7445 -2.1612 -5.1954 0.9423
13.4435 -0.9000 -5.0312 0.9441
8.4367 4.2632 -3.5297 0.9604
5.1425 5.5600 -2.8281 0.9682
3.6728 5.7532 -2.5488 0.9713
2.3570 5.7354 -2.3154 0.9739
1.1947 5.5595 -2.1233 0.9760
0.6693 5.4343 -2.0446 0.9769
-1.5792 4.7168 -1.8574 0.9790
-1.9470 4.4530 -1.8148 0.9795
-2.2885 4.1759 -1.7781 0.9799
-2.6047 3.8865 -1.7470 0.9802
-2.8969 3.5855 -1.7212 0.9805
-3.8417 2.2755 -1.6673 0.9811
-4.0248 1.9225 -1.6656 0.9811
-4.1871 1.5593 -1.6684 0.9811
-3.4441 0.9434 -1.3334 0.9849
-2.5629 0.2290 -0.9608 0.9891
-2.6072 -0.2330 -1.0273 0.9888
-2.7221 -0.7457 -1.1077 0.9879
-4.2404 -3.0521 -2.0505 0.9778
-4.0870 -3.5342 -2.1206 0.9770
-1.6936 -7.1066 -2.8673 0.9691
-1.1094 -7.6064 -3.0169 0.9675
-0.4508 -8.0851 -3.1781 0.9658
0.2853 -8.5324 -3.3506 0.9640
1.0997 -8.9292 -3.5309 0.9621
1.9911 -9.2657 -3.7195 0.9601
2.9550 -9.5259 -3.9144 0.9580
5.0612 -9.7446 -4.3095 0.9539
8.3746 -9.0545 -4.8406 0.9484
9.4033 -8.5048 -4.9761 0.9470
11.7651 -5.9451 -5.1735 0.9449
12.4567 -3.7125 -5.1014 0.9457
12.3544 -1.3821 -4.8790 0.9480
12.0343 -0.2682 -4.7243 0.9496
11.5655 0.7742 -4.5493 0.9514
9.5470 3.3151 -3.9664 0.9575
6.7021 4.6008 -3.1905 0.9657
5.9472 4.9155 -3.0282 0.9674
5.2101 5.1524 -2.8758 0.9690
1.9579 5.4421 -2.2699 0.9755
1.4064 5.3680 -2.1779 0.9764
0.8890 5.2706 -2.0978 0.9773
0.4013 5.1360 -2.0219 0.9781
-0.4826 4.7967 -1.8921 0.9795
-1.2943 4.5266 -1.8478 0.9800
-2.0475 4.1664 -1.8220 0.9802
-2.3663 3.8954 -1.7888 0.9806
-2.6614 3.6122 -1.7609 0.9809
-3.1843 3.0117 -1.7202 0.9813
-3.4133 2.6955 -1.7070 0.9815
-3.6215 2.3691 -1.6984 0.9816
-3.8089 2.0325 -1.6944 0.9816
-4.1226 1.3294 -1.7000 0.9816
-2.5568 0.5793 -1.0289 0.9888
-2.6312 -0.3539 -1.0420 0.9887
-2.7055 -0.6130 -1.0887 0.9882
-4.4043 -2.3502 -1.9593 0.9788
-4.3035 -2.8152 -2.0183 0.9781
-4.1684 -3.2918 -2.0846 0.9774
-3.9958 -3.7793 -2.1586 0.9766
-3.5246 -4.7836 -2.3320 0.9748
-3.2179 -5.2974 -2.4326 0.9737
-2.8579 -5.8158 -2.5432 0.9725
-1.9591 -6.8516 -2.7968 0.9698
-1.4105 -7.3586 -2.9406 0.9683
-0.7896 -7.8490 -3.0960 0.9667
2.4644 -9.4064 -3.8163 0.9591
4.5168 -9.7335 -4.2114 0.9549
5.6134 -9.7227 -4.4062 0.9529
7.8353 -9.2676 -4.7630 0.9492
8.8988 -8.8003 -4.9119 0.9476
11.4707 -6.4533 -5.1654 0.9450
12.3591 -4.2916 -5.1347 0.9453
12.2146 -0.8177 -4.8046 0.9488
11.8168 0.2633 -4.6389 0.9505
11.2840 1.2623 -4.4563 0.9524
10.6449 2.1637 -4.2632 0.9544
8.6666 3.4492 -3.6609 0.9607
7.8469 3.9652 -3.4505 0.9629
7.0835 4.4116 -3.2752 0.9648
4.1518 5.3796 -2.6670 0.9712
3.4837 5.4571 -2.5410 0.9726
2.8482 5.4837 -2.4252 0.9738
1.6780 5.4093 -2.2228 0.9760
1.1430 5.3189 -2.1352 0.9769
0.1411 4.2205 -1.6574 0.9820
-0.6854 4.6994 -1.8639 0.9798
-1.8788 4.2971 -1.8406 0.9800
-2.2099 4.0325 -1.8047 0.9804
-2.5168 3.7553 -1.7742 0.9808
-3.7178 2.2020 -1.6959 0.9816
-3.8951 1.8605 -1.6941 0.9816
-4.0519 1.5090 -1.6969 0.9816
-3.4629 0.9486 -1.4091 0.9847
-2.5633 0.4618 -1.0222 0.9889
-2.5207 0.2252 -0.9932 0.9892
-2.5289 -0.0000 -1.0413 0.9891
-2.5656 -0.2292 -1.0607 0.9889
-2.6436 -0.9845 -1.1616 0.9879
-4.2830 -2.0458 -1.9545 0.9797
-4.1971 -2.4859 -2.0087 0.9791
-4.0791 -2.9359 -2.0695 0.9785
-3.9264 -3.3953 -2.1375 0.9778
-3.7360 -3.8630 -2.2130 0.9770
-2.9055 -5.3018 -2.4895 0.9742
-1.6048 -6.7342 -2.8507 0.9705
-1.0484 -7.1881 -2.9912 0.9691
0.2680 -8.0144 -3.3020 0.9659
1.8579 -8.6458 -3.6414 0.9625
4.6730 -8.9971 -4.1748 0.9571
7.6599 -8.2818 -4.6453 0.9524
9.4126 -7.0984 -4.8546 0.9503
10.1271 -6.3072 -4.9128 0.9497
11.3414 -3.3801 -4.8732 0.9501
11.4010 -2.3174 -4.7907 0.9509
11.2924 -1.2632 -4.6790 0.9520
11.0298 -0.2458 -4.5430 0.9534
7.7318 3.4838 -3.4921 0.9640
4.9197 4.8652 -2.8492 0.9705
4.2585 5.0369 -2.7161 0.9719
3.6204 5.1500 -2.5922 0.9731
3.0085 5.2109 -2.4777 0.9743
0.8522 5.0521 -2.1097 0.9781
0.3853 4.9305 -2.0365 0.9788
-0.0472 4.2405 -1.7463 0.9818
-0.4644 4.6167 -1.9107 0.9801
-0.8513 4.4411 -1.8621 0.9806
-1.2869 4.5007 -1.9276 0.9800
-1.6450 4.2710 -1.8847 0.9804
-1.9780 4.0251 -1.8468 0.9808
-2.2874 3.7656 -1.8143 0.9811
-2.8388 3.2098 -1.7645 0.9816
-3.5067 2.2940 -1.7255 0.9820
-3.8502 1.6326 -1.7221 0.9821
-2.6388 0.5979 -1.1141 0.9884
-2.4504 0.3296 -1.0181 0.9894
-2.5854 -0.3477 -1.0742 0.9888
-2.6464 -0.8533 -1.1450 0.9880
-4.3146 -1.8296 -1.9298 0.9799
-4.2439 -2.2646 -1.9808 0.9794
-3.6258 -4.0997 -2.2537 0.9766
-3.3728 -4.5777 -2.3414 0.9757
-3.0737 -5.0599 -2.4379 0.9747
-2.7243 -5.5438 -2.5436 0.9736
-2.3207 -6.0256 -2.6589 0.9725
-1.8589 -6.5008 -2.7842 0.9712
-0.7451 -7.4066 -3.0653 0.9683
0.6403 -8.1943 -3.3845 0.9651
1.4357 -8.5112 -3.5543 0.9633
2.2955 -8.7618 -3.7297 0.9616
3.2131 -8.9309 -3.9083 0.9598
5.1740 -8.9616 -4.2611 0.9562
6.1818 -8.7937 -4.4263 0.9546
7.1763 -8.4883 -4.5771 0.9531
9.7863 -6.7179 -4.8879 0.9499
10.4319 -5.8689 -4.9288 0.9495
10.9236 -4.9219 -4.9336 0.9495
11.1792 -0.7483 -4.6137 0.9527
10.3914 1.1625 -4.3057 0.9558
8.5212 3.3914 -3.7766 0.9611
6.6373 4.1337 -3.2198 0.9667
5.9438 4.4824 -3.0655 0.9683
4.5865 4.9589 -2.7815 0.9712
3.3110 5.1866 -2.5338 0.9737
1.0950 5.0956 -2.1462 0.9777
0.6151 4.9946 -2.0722 0.9785
-0.6600 4.5255 -1.8833 0.9804
-1.0411 4.3688 -1.8494 0.9808
-1.8145 4.1498 -1.8650 0.9806
-2.4335 3.6311 -1.8000 0.9813
-2.7091 3.3531 -1.7751 0.9815
-3.7719 1.8017 -1.7213 0.9821
-3.9235 1.4611 -1.7240 0.9821
-2.5181 0.4537 -1.0536 0.9890
-2.4893 0.0000 -1.0738 0.9892
-2.5507 -0.6987 -1.1408 0.9885
-4.1324 -1.9739 -1.9755 0.9802
-4.0456 -2.3962 -2.0282 0.9797
-1.9961 -5.9621 -2.7121 0.9730
0.2524 -7.5497 -3.2584 0.9676
0.9672 -7.8528 -3.4130 0.9661
3.4346 -8.3576 -3.8977 0.9614
7.0499 -7.6223 -4.4787 0.9558
9.2782 -5.7785 -4.7149 0.9535
10.3976 -3.0988 -4.6801 0.9538
10.3872 -1.1620 -4.5085 0.9555
10.1693 -0.2266 -4.3877 0.9567
9.8296 0.6580 -4.2496 0.9580
8.8616 2.2164 -3.9403 0.9610
8.2732 2.8728 -3.7777 0.9626
7.6404 3.4426 -3.6148 0.9642
6.5548 3.6876 -3.2442 0.9678
5.9212 4.0647 -3.0981 0.9692
5.2856 4.3687 -2.9580 0.9706
4.6566 4.6050 -2.8250 0.9719
4.0408 4.7795 -2.6998 0.9731
1.7900 4.9753 -2.2808 0.9772
-0.0472 4.2383 -1.8284 0.9817
-0.4474 4.4474 -1.9281 0.9807
-0.8190 4.2727 -1.8766 0.9812
-1.2427 4.3462 -1.9499 0.9805
-1.9122 3.8912 -1.8702 0.9813
-2.2126 3.6425 -1.8384 0.9816
-2.7484 3.1077 -1.7896 0.9821
-3.5739 1.9071 -1.7474 0.9825
-3.7306 1.5819 -1.7479 0.9825
-2.4655 0.1099 -1.0645 0.9893
-2.5077 -0.1118 -1.0828 0.9891
-2.5665 -0.8276 -1.1632 0.9883
-4.0928 -2.1840 -2.0011 0.9800
-3.9906 -2.6105 -2.0570 0.9794
-3.8561 -3.0452 -2.1195 0.9788
-3.2318 -4.3862 -2.3502 0.9765
-2.2111 -5.7411 -2.6538 0.9736
-1.7671 -6.1801 -2.7727 0.9724
-1.2659 -6.6041 -2.9006 0.9711
-0.0822 -7.3781 -3.1828 0.9684
1.3466 -7.9828 -3.4921 0.9653
2.1464 -8.1927 -3.6533 0.9638
2.9951 -8.3249 -3.8163 0.9622
3.8822 -8.3658 -3.9783 0.9606
4.7935 -8.3026 -4.1354 0.9591
5.7110 -8.1240 -4.2836 0.9577
7.4738 -7.3910 -4.5341 0.9552
10.0043 -4.5077 -4.7332 0.9533
10.3051 -3.5783 -4.7055 0.9536
10.4452 -1.6424 -4.5610 0.9550
9.1333 1.8565 -4.0203 0.9602
7.9613 3.1685 -3.6961 0.9634
6.9498 3.5119 -3.3589 0.9666
6.2389 3.8856 -3.1705 0.9685
4.3467 4.6996 -2.7614 0.9725
2.5887 4.9840 -2.4226 0.9758
2.0497 4.9877 -2.3261 0.9768
1.5368 4.9541 -2.2375 0.9777
0.1427 4.2688 -1.8424 0.9816
-0.2525 4.5281 -1.9563 0.9804
-0.6362 4.3620 -1.9015 0.9810
-1.0360 4.3474 -1.9278 0.9807
-1.4189 4.2382 -1.9279 0.9807
-2.0652 3.7685 -1.8537 0.9815
-3.0956 2.6769 -1.7653 0.9823
-3.3018 2.3765 -1.7548 0.9824
-3.4881 2.0661 -1.7488 0.9825
-3.6547 1.7457 -1.7471 0.9825
-3.8015 1.4157 -1.7498 0.9825
-3.9283 1.0761 -1.7569 0.9824
-2.4719 0.4453 -1.0835 0.9891
-2.4481 -0.2188 -1.1090 0.9893
-2.4593 -0.4431 -1.1275 0.9891
-3.9027 -2.3116 -2.0467 0.9803
-3.6347 -3.1430 -2.1682 0.9791
-3.4494 -3.5667 -2.2389 0.9785
-3.2266 -3.9936 -2.3166 0.9777
-2.9635 -4.4218 -2.4018 0.9769
-2.6571 -4.8486 -2.4948 0.9760
-2.3046 -5.2706 -2.5956 0.9751
-1.9029 -5.6838 -2.7046 0.9740
-1.4496 -6.0830 -2.8216 0.9729
-0.3799 -6.8141 -3.0794 0.9705
2.4033 -7.7475 -3.6601 0.9650
4.8820 -7.6475 -4.0939 0.9610
5.7164 -7.4070 -4.2218 0.9598
6.5230 -7.0526 -4.3347 0.9587
7.2792 -6.5836 -4.4286 0.9578
9.3751 -3.7312 -4.5529 0.9567
9.5883 -2.8576 -4.5144 0.9570
9.6060 -1.0746 -4.3614 0.9585
9.4235 -0.2100 -4.2531 0.9595
9.1298 0.6112 -4.1288 0.9606
8.7408 1.3744 -3.9924 0.9619
8.2736 2.0694 -3.8482 0.9633
7.7454 2.6895 -3.6996 0.9647
6.2836 3.5350 -3.2531 0.9689
5.5887 3.8364 -3.0587 0.9707
4.4170 4.3680 -2.8030 0.9731
2.7375 4.7415 -2.4704 0.9763
2.2150 4.7732 -2.3744 0.9772
1.2380 4.7254 -2.2041 0.9788
0.3562 4.5580 -2.0629 0.9801
-0.0473 4.2412 -1.9138 0.9816
-0.4314 4.2880 -1.9446 0.9813
-0.8099 4.2251 -1.9412 0.9813
-1.2005 4.1985 -1.9704 0.9810
-1.5363 3.9889 -1.9288 0.9814
-1.8498 3.7643 -1.8925 0.9818
-2.1416 3.5256 -1.8613 0.9821
-2.4123 3.2741 -1.8350 0.9823
-2.6625 3.0105 -1.8134 0.9825
-2.8925 2.7358 -1.7964 0.9827
-3.4647 1.8488 -1.7720 0.9829
-3.7488 1.2088 -1.7773 0.9829
-2.5488 0.5775 -1.1792 0.9886
-2.3567 0.3170 -1.0730 0.9896
-2.4395 -0.1088 -1.1018 0.9893
-2.4671 -0.5590 -1.1414 0.9890
-2.4891 -1.0555 -1.2199 0.9882
-3.7140 -2.9329 -2.1354 0.9794
-3.1003 -4.2077 -2.3583 0.9773
-2.4868 -5.0604 -2.5442 0.9756
0.5682 -7.2709 -3.2908 0.9685
1.2668 -7.5098 -3.4364 0.9671
2.0137 -7.6862 -3.5852 0.9657
2.8021 -7.7887 -3.7349 0.9643
3.6222 -7.8057 -3.8828 0.9629
4.4608 -7.7263 -4.0256 0.9616
5.3014 -7.5413 -4.1594 0.9604
6.1246 -7.2442 -4.2804 0.9592
6.9088 -6.8323 -4.3843 0.9583
7.6313 -6.3074 -4.4673 0.9575
9.2173 -4.1531 -4.5617 0.9566
9.6432 -2.4119 -4.4852 0.9573
9.2896 0.2070 -4.1927 0.9600
8.9462 1.0008 -4.0618 0.9613
8.0160 2.3890 -3.7742 0.9640
7.4637 2.9705 -3.6246 0.9654
6.8744 3.4738 -3.4754 0.9668
4.7084 4.2585 -2.8646 0.9725
4.1278 4.4629 -2.7430 0.9737
3.5591 4.6116 -2.6285 0.9748
3.0066 4.7098 -2.5212 0.9758
2.4736 4.7625 -2.4215 0.9767
1.4735 4.7500 -2.2440 0.9784
0.5679 4.6111 -2.0963 0.9798
-1.0240 4.2971 -1.9932 0.9808
-1.3712 4.0957 -1.9489 0.9812
-1.6958 3.8784 -1.9100 0.9816
-1.9984 3.6466 -1.8763 0.9819
-3.2005 2.3036 -1.7793 0.9828
-3.3815 2.0029 -1.7733 0.9829
-3.5430 1.6924 -1.7717 0.9829
-3.6851 1.3724 -1.7744 0.9829
-3.8076 1.0430 -1.7814 0.9828
-2.4063 0.4335 -1.1032 0.9893
-2.3615 -0.0000 -1.1132 0.9896
-2.3816 -0.4291 -1.1407 0.9894
-3.3192 -3.4321 -2.2506 0.9791
-2.2043 -5.0414 -2.5936 0.9760
-1.8169 -5.4267 -2.6976 0.9750
-1.3814 -5.7965 -2.8089 0.9740
-0.8962 -6.1450 -2.9273 0.9729
0.2257 -6.7497 -3.1834 0.9706
1.5399 -7.1662 -3.4551 0.9681
2.2586 -7.2810 -3.5934 0.9669
3.0084 -7.3205 -3.7307 0.9656
3.7786 -7.2750 -3.8642 0.9644
4.5555 -7.1361 -3.9908 0.9633
6.0630 -6.5552 -4.2090 0.9613
6.7555 -6.1100 -4.2936 0.9605
7.3810 -5.5662 -4.3577 0.9599
7.9207 -4.9331 -4.3986 0.9596
8.3588 -4.2239 -4.4146 0.9594
8.6831 -3.4558 -4.4052 0.9595
8.9656 -1.8223 -4.3126 0.9603
8.7706 -0.1955 -4.1353 0.9619
8.5145 0.5700 -4.0225 0.9630
6.7531 3.0428 -3.4915 0.9678
5.2873 3.6295 -3.0230 0.9720
3.6586 4.3274 -2.6711 0.9753
2.6170 4.5328 -2.4672 0.9771
2.1212 4.5710 -2.3753 0.9780
1.6448 4.5717 -2.2902 0.9787
1.1892 4.5389 -2.2118 0.9795
0.7555 4.4790 -2.1411 0.9801
0.3429 4.3885 -2.0749 0.9807
-0.8064 4.2069 -2.0192 0.9812
-1.4861 3.8587 -1.9491 0.9819
-1.7905 3.6435 -1.9137 0.9822
-2.3373 3.1722 -1.8573 0.9827
-2.5806 2.9179 -1.8362 0.9829
-3.1941 2.0895 -1.7992 0.9833
-3.5077 1.4874 -1.7960 0.9833
-3.6357 1.1724 -1.8007 0.9832
-2.5265 0.5724 -1.2211 0.9886
-2.2973 0.3090 -1.0926 0.9898
-2.3488 0.1047 -1.1083 0.9897
-2.3694 -0.1057 -1.1180 0.9896
-2.3800 -0.3201 -1.1319 0.9894
-2.3894 -0.5413 -1.1548 0.9892
-3.8151 -2.0358 -2.0384 0.9811
-3.7128 -2.4288 -2.0914 0.9806
-3.5801 -2.8272 -2.1503 0.9800
-2.3807 -4.8445 -2.5444 0.9764
-2.0165 -5.2356 -2.6447 0.9755
-1.1451 -5.9739 -2.8672 0.9735
-0.0737 -6.6125 -3.1172 0.9712
1.1949 -7.0837 -3.3862 0.9687
1.8948 -7.2324 -3.5242 0.9675
2.6302 -7.3108 -3.6624 0.9662
3.3917 -7.3090 -3.7982 0.9650
4.1672 -7.2177 -3.9286 0.9638
7.0778 -5.8499 -4.3284 0.9602
8.1534 -4.5870 -4.4098 0.9595
8.5358 -3.8460 -4.4131 0.9594
8.8000 -3.0557 -4.3911 0.9596
8.9412 -2.2363 -4.3445 0.9601
8.8612 -0.5932 -4.1863 0.9615
8.3523 0.9343 -3.9616 0.9635
7.5193 2.2410 -3.6985 0.9659
7.0184 2.7932 -3.5607 0.9671
5.7070 3.5543 -3.1692 0.9707
5.0155 3.7823 -2.9611 0.9726
3.9270 4.2458 -2.7262 0.9747
2.8717 4.4984 -2.5157 0.9767
2.3668 4.5568 -2.4204 0.9775
1.8804 4.5758 -2.3319 0.9784
0.9701 4.5142 -2.1765 0.9798
0.1449 4.3340 -2.0441 0.9810
-0.2346 4.2081 -1.9867 0.9815
-0.6013 4.1234 -1.9642 0.9817
-0.9895 4.1522 -2.0121 0.9813
-2.2082 3.2948 -1.8696 0.9826
-2.9090 2.5155 -1.8128 0.9831
-3.2797 1.9426 -1.7968 0.9833
-3.4365 1.6415 -1.7952 0.9833
-3.5741 1.3310 -1.7978 0.9833
-3.6925 1.0115 -1.8047 0.9832
-2.3095 -0.2064 -1.1404 0.9897
-2.3082 -0.4158 -1.1536 0.9896
-2.3175 -0.6348 -1.1819 0.9893
-2.3278 -0.8669 -1.2217 0.9890
-2.3666 -1.1304 -1.2900 0.9884
-3.6397 -2.1558 -2.0806 0.9813
-3.5231 -2.5358 -2.1351 0.9808
-2.4420 -4.4560 -2.4993 0.9776
-2.1111 -4.8281 -2.5918 0.9768
-1.7371 -5.1883 -2.6911 0.9759
-1.3183 -5.5319 -2.7971 0.9750
-0.8537 -5.8532 -2.9094 0.9740
-0.3427 -6.1458 -3.0275 0.9729
0.2141 -6.4025 -3.1509 0.9718
2.8288 -6.8834 -3.6604 0.9674
5.6577 -6.1170 -4.0983 0.9635
6.8713 -5.1819 -4.2330 0.9624
7.3690 -4.5895 -4.2700 0.9620
7.7747 -3.9287 -4.2845 0.9619
8.2708 -2.4650 -4.2449 0.9623
8.3526 -1.6977 -4.1922 0.9627
7.2844 1.8220 -3.6933 0.9671
6.8511 2.3790 -3.5671 0.9682
6.3743 2.8721 -3.4388 0.9693
5.8662 3.3003 -3.3106 0.9704
5.2013 3.5705 -3.1030 0.9723
4.5058 3.7242 -2.8752 0.9743
3.4896 4.1275 -2.6585 0.9762
2.9913 4.2552 -2.5583 0.9771
0.7272 4.3109 -2.1503 0.9807
0.3305 4.2287 -2.0863 0.9813
-0.0459 4.1226 -2.0278 0.9818
-0.7858 4.0995 -2.0531 0.9816
-1.4384 3.7348 -1.9685 0.9823
-2.2656 3.0750 -1.8786 0.9831
-2.5024 2.8295 -1.8579 0.9833
-3.2608 1.7400 -1.8179 0.9837
-2.2513 0.3028 -1.1173 0.9899
-2.2893 0.1021 -1.1271 0.9898
-2.3022 -0.1026 -1.1335 0.9898
-2.3108 -0.3108 -1.1468 0.9897
-2.3142 -0.5243 -1.1671 0.9895
-2.3173 -0.7472 -1.1976 0.9892
-2.3375 -0.9912 -1.2488 0.9887
-3.5851 -2.3453 -2.1071 0.9811
-3.2906 -3.1122 -2.2277 0.9800
-3.0941 -3.4986 -2.2972 0.9794
-2.5919 -4.2668 -2.4555 0.9780
-1.9296 -5.0099 -2.6406 0.9764
-1.5334 -5.3625 -2.7433 0.9754
-0.6040 -6.0035 -2.9678 0.9735
1.1298 -6.6977 -3.3408 0.9702
1.7876 -6.8231 -3.4692 0.9690
3.1858 -6.8652 -3.7225 0.9668
3.9060 -6.7654 -3.8424 0.9658
5.9832 -5.9169 -4.1389 0.9632
7.1309 -4.8951 -4.2542 0.9622
8.3521 -1.3133 -4.1585 0.9630
7.4808 1.5206 -3.7547 0.9665
7.0740 2.1083 -3.6306 0.9676
6.1234 3.0943 -3.3745 0.9699
5.6038 3.4901 -3.2471 0.9710
4.2509 3.8447 -2.8192 0.9748
3.7421 4.0459 -2.7107 0.9757
3.2392 4.1971 -2.6077 0.9766
2.7465 4.3023 -2.5105 0.9775
2.2673 4.3653 -2.4194 0.9783
0.9331 4.3422 -2.1845 0.9804
0.5263 4.2730 -2.1176 0.9810
0.1397 4.1785 -2.0564 0.9815
-0.2265 4.0617 -2.0008 0.9820
-0.5991 4.1075 -2.0417 0.9817
-0.9568 4.0148 -2.0300 0.9818
-1.5887 3.6335 -1.9505 0.9825
-2.1401 3.1932 -1.8907 0.9830
-2.6136 2.7024 -1.8492 0.9834
-2.8219 2.4402 -1.8349 0.9835
-3.0115 2.1675 -1.8250 0.9836
-3.1824 1.8849 -1.8192 0.9836
-3.3346 1.5928 -1.8176 0.9837
-3.4680 1.2915 -1.8202 0.9836
-2.2658 0.2025 -1.1189 0.9899
-3.4026 -2.4491 -2.1493 0.9813
-3.2575 -2.8169 -2.2078 0.9808
