ply
format ascii 1.0
element vertex 1581
property float32 x
property float32 y
property float32 z
property float32 I
end_header
-2.8878 -2.4972 0.0952 0.9848
-1.4579 -3.3344 0.0908 0.9855
-1.2738 -3.8048 0.1001 0.9841
-12.3830 8.1006 0.3690 0.9425
-12.9435 6.9069 0.3659 0.9430
-2.0385 -2.7667 0.0857 0.9863
-1.5664 -3.1876 0.0886 0.9859
1.3688 4.4125 0.1152 0.9817
-13.8068 5.1417 0.3674 0.9428
-14.4141 3.9484 0.3727 0.9420
-2.4876 -2.5722 0.0297 0.9858
-2.1769 -2.6944 0.0288 0.9862
-1.4624 -3.3447 0.0303 0.9855
-1.2760 -3.8112 0.0334 0.9841
-10.2196 9.6657 0.1169 0.9453
-11.2955 7.3892 0.1122 0.9474
-12.3360 5.2309 0.1114 0.9478
-12.8656 4.1486 0.1123 0.9474
-13.4137 3.0391 0.1143 0.9465
-14.6101 0.6515 0.1216 0.9432
-3.1987 -2.5260 0.0339 0.9838
-2.6745 -2.5295 0.0306 0.9854
-2.3244 -2.6283 0.0292 0.9861
-2.0424 -2.7720 0.0286 0.9863
-1.7964 -2.9573 0.0288 0.9863
-1.3640 -3.5416 0.0315 0.9849
-1.2221 -4.2741 0.0369 0.9824
-9.3394 11.5596 0.1235 0.9423
-9.9358 10.2735 0.1188 0.9444
-10.4961 9.0764 0.1153 0.9460
-11.5561 6.8447 0.1116 0.9477
-12.5991 4.6919 0.1117 0.9476
-13.1367 3.5985 0.1132 0.9470
-2.1811 -2.6996 -0.0288 0.9862
1.1929 4.5533 -0.0391 0.9813
-8.2107 11.1437 -0.1151 0.9461
-8.8089 9.9604 -0.1105 0.9482
-9.8847 7.8059 -0.1047 0.9509
-10.8688 5.7997 -0.1024 0.9519
-11.3470 4.8116 -0.1024 0.9519
-11.8257 3.8133 -0.1033 0.9515
-12.3122 2.7896 -0.1049 0.9508
-12.8143 1.7233 -0.1075 0.9496
-14.2713 -1.9193 -0.1197 0.9440
-2.6839 -2.5384 -0.0307 0.9853
-1.3709 -3.5595 -0.0317 0.9849
1.3718 4.4223 -0.0385 0.9816
-7.1960 13.1311 -0.1245 0.9419
-7.8904 11.7734 -0.1178 0.9449
-8.5162 10.5406 -0.1126 0.9472
-9.6272 8.3250 -0.1058 0.9504
-10.1365 7.2958 -0.1038 0.9513
-10.6276 6.2948 -0.1027 0.9518
-11.1083 5.3060 -0.1023 0.9519
-12.5608 2.2629 -0.1061 0.9502
-12.5087 -0.0000 -0.3119 0.9512
-13.3028 -2.3966 -0.3371 0.9474
-13.8520 -3.7945 -0.3582 0.9442
-2.5040 -2.5891 -0.0898 0.9857
-2.1853 -2.7048 -0.0867 0.9862
-1.9234 -2.8699 -0.0862 0.9863
-1.6896 -3.0832 -0.0877 0.9860
-1.2910 -3.8562 -0.1014 0.9839
-7.5323 10.2230 -0.3167 0.9505
-8.1075 9.1673 -0.3052 0.9522
-8.6386 8.1703 -0.2965 0.9535
-9.1360 7.2146 -0.2903 0.9545
-9.6081 6.2854 -0.2863 0.9551
-10.0622 5.3694 -0.2844 0.9554
-11.3776 2.5778 -0.2909 0.9544
-11.8199 1.5896 -0.2974 0.9534
-12.2745 0.5473 -0.3064 0.9520
-12.6498 -0.5641 -0.3158 0.9506
-13.0458 -1.7545 -0.3283 0.9487
-13.5709 -3.0748 -0.3470 0.9458
-14.1483 -4.5623 -0.3707 0.9423
-3.2375 -2.5566 -0.1029 0.9836
-2.6978 -2.5516 -0.0926 0.9853
-2.3343 -2.6395 -0.0879 0.9860
-1.8057 -2.9726 -0.0867 0.9862
-1.2540 -4.3856 -0.1138 0.9819
1.3749 4.4322 -0.1157 0.9816
-6.5572 11.9653 -0.3403 0.9469
-9.3747 6.7475 -0.2881 0.9548
-9.8370 5.8265 -0.2851 0.9553
-10.2845 4.9125 -0.2842 0.9554
-10.7233 3.9934 -0.2854 0.9552
-11.1591 3.0568 -0.2885 0.9548
-12.0452 1.0764 -0.3016 0.9528
-11.8253 -1.0567 -0.4937 0.9536
-12.2241 -2.2023 -0.5165 0.9515
-12.6644 -3.4692 -0.5460 0.9488
-13.1385 -4.8929 -0.5829 0.9454
-2.1960 -2.7181 -0.1453 0.9861
-1.6955 -3.0939 -0.1467 0.9860
-2.8149 14.6851 -0.6217 0.9419
-5.6743 11.5469 -0.5350 0.9498
-6.9571 9.4422 -0.4877 0.9541
-9.3666 4.9982 -0.4414 0.9584
-10.1791 3.2824 -0.4447 0.9581
-10.9681 1.4751 -0.4602 0.9567
-11.3652 0.5068 -0.4730 0.9555
-11.7373 -0.5234 -0.4885 0.9541
-12.4407 -2.8187 -0.5304 0.9502
-12.8966 -4.1586 -0.5634 0.9472
-13.3933 -5.6793 -0.6049 0.9434
-2.7119 -2.5649 -0.1552 0.9852
-2.0564 -2.7910 -0.1441 0.9862
-1.3849 -3.5959 -0.1602 0.9847
1.3795 4.4469 -0.1936 0.9815
-3.3193 13.9284 -0.5954 0.9443
-5.3044 12.1315 -0.5505 0.9484
-7.7682 8.0323 -0.4646 0.9563
-9.1554 5.4228 -0.4424 0.9583
-9.9796 3.7165 -0.4428 0.9583
-10.7711 1.9405 -0.4551 0.9571
-10.9835 -0.9815 -0.6423 0.9568
-11.3060 -2.0369 -0.6691 0.9550
-12.0354 -4.4820 -0.7480 0.9498
-12.8626 -7.6185 -0.8707 0.9419
-2.9570 -2.5570 -0.2277 0.9845
-2.5301 -2.6162 -0.2120 0.9855
-1.3113 -3.9166 -0.2406 0.9836
1.1809 4.5075 -0.2714 0.9815
-1.4807 14.7192 -0.8616 0.9424
-2.5506 13.3066 -0.7891 0.9472
-6.4628 8.7714 -0.6346 0.9573
-6.9922 7.9063 -0.6147 0.9586
-7.9325 6.2642 -0.5887 0.9603
-8.3576 5.4673 -0.5817 0.9608
-9.1448 3.8777 -0.5785 0.9610
-9.5155 3.0684 -0.5823 0.9607
-9.8761 2.2376 -0.5898 0.9602
-10.5803 0.4718 -0.6168 0.9585
-10.9263 -0.4872 -0.6370 0.9571
-12.2291 -5.1856 -0.7737 0.9482
-2.7262 -2.5784 -0.2186 0.9851
-2.3582 -2.6665 -0.2073 0.9858
-1.8170 -2.9912 -0.2038 0.9861
-1.5943 -3.2444 -0.2105 0.9856
-1.3920 -3.6144 -0.2256 0.9846
1.3840 4.4617 -0.2721 0.9815
-2.0399 13.9869 -0.8233 0.9449
-4.1071 12.2673 -0.7535 0.9495
-4.8828 11.1673 -0.7099 0.9523
-6.1792 9.2201 -0.6465 0.9565
-7.7099 6.6670 -0.5937 0.9600
-8.9544 4.2772 -0.5780 0.9610
-10.0536 1.8113 -0.5950 0.9599
-10.2530 -0.9162 -0.7714 0.9595
-11.1014 -4.1342 -0.8878 0.9536
-11.4006 -5.4456 -0.9468 0.9506
-2.9793 -2.5764 -0.2952 0.9843
-2.5435 -2.6300 -0.2742 0.9854
-1.9506 -2.9106 -0.2626 0.9860
-1.7128 -3.1256 -0.2671 0.9858
-1.3217 -3.9476 -0.3120 0.9834
1.1794 4.5016 -0.3487 0.9815
-1.3429 13.3486 -1.0054 0.9476
-4.1664 10.8178 -0.8687 0.9546
-4.8583 9.8864 -0.8255 0.9568
-7.8456 5.1324 -0.7026 0.9631
-8.5875 3.6414 -0.6990 0.9633
-8.9320 2.8802 -0.7033 0.9631
-9.5835 1.2889 -0.7247 0.9620
-9.8955 0.4412 -0.7423 0.9610
-10.2015 -0.4549 -0.7653 0.9599
-10.6609 -2.4154 -0.8192 0.9571
-11.8689 -7.7643 -1.0629 0.9447
-2.3704 -2.6803 -0.2681 0.9858
-1.8283 -3.0097 -0.2639 0.9860
-2.7693 11.6205 -0.8952 0.9532
-5.1754 9.4440 -0.8070 0.9577
-5.7614 8.5967 -0.7755 0.9593
-7.6466 5.5037 -0.7060 0.9629
-8.4092 4.0167 -0.6984 0.9633
-8.7616 3.2629 -0.7006 0.9632
-9.7404 0.8704 -0.7329 0.9615
-4.4480 0.0000 -0.4078 0.9823
-10.0664 -2.7575 -0.9569 0.9589
-10.7481 -6.3661 -1.1452 0.9511
-3.0187 -2.6104 -0.3659 0.9841
-2.5570 -2.6439 -0.3372 0.9853
-2.2325 -2.7632 -0.3257 0.9858
-1.7256 -3.1489 -0.3292 0.9857
-1.5133 -3.4611 -0.3463 0.9849
-1.3435 -4.0130 -0.3880 0.9831
-1.2282 12.2089 -1.1249 0.9519
-2.9395 10.2801 -0.9802 0.9580
-3.8723 10.0544 -0.9878 0.9576
-4.5314 9.2211 -0.9419 0.9596
-5.1221 8.4322 -0.9045 0.9611
-6.1438 6.9470 -0.8502 0.9634
-7.3917 4.8355 -0.8098 0.9651
-8.0930 3.4317 -0.8059 0.9653
-8.4148 2.7134 -0.8106 0.9651
-8.7207 1.9758 -0.8198 0.9647
-9.5619 -0.4264 -0.8775 0.9623
-9.7059 -1.3054 -0.8979 0.9614
-9.9469 -2.2537 -0.9350 0.9599
-10.4145 -4.4161 -1.0371 0.9556
-10.6382 -5.6767 -1.1055 0.9527
-3.4137 -2.6958 -0.3988 0.9827
-2.3827 -2.6942 -0.3297 0.9857
-1.8397 -3.0285 -0.3249 0.9859
-1.4165 -3.6779 -0.3613 0.9843
0.4659 13.9350 -1.2782 0.9455
-0.7108 12.7491 -1.1706 0.9500
-3.5126 10.4916 -1.0143 0.9565
-4.8345 8.8218 -0.9222 0.9604
-5.9055 7.3094 -0.8615 0.9630
-6.3723 6.5889 -0.8403 0.9639
-7.2022 5.1838 -0.8135 0.9650
-7.5752 4.4868 -0.8072 0.9653
-7.9254 3.7856 -0.8052 0.9653
-8.5696 2.3474 -0.8146 0.9649
-3.7849 -0.0000 -0.4105 0.9849
-9.2192 -1.6609 -1.0161 0.9630
-9.4189 -2.5801 -1.0593 0.9615
-9.6048 -3.5769 -1.1117 0.9596
-10.0669 -7.2458 -1.3454 0.9513
-3.0593 -2.6455 -0.4387 0.9839
-1.9751 -2.9470 -0.3848 0.9858
-1.7387 -3.1727 -0.3924 0.9855
-1.5283 -3.4955 -0.4138 0.9848
1.1779 4.4958 -0.5041 0.9815
2.4343 14.4315 -1.5874 0.9428
1.0346 13.2397 -1.4404 0.9480
-1.1313 11.2457 -1.2259 0.9555
-4.2448 8.6380 -1.0440 0.9620
-4.8103 7.9189 -1.0050 0.9634
-5.3230 7.2244 -0.9733 0.9645
-5.7910 6.5480 -0.9481 0.9654
-7.3298 3.9113 -0.9011 0.9671
-7.6511 3.2444 -0.9014 0.9671
-7.9528 2.5644 -0.9064 0.9669
-3.7517 0.5045 -0.4106 0.9849
-9.3207 -2.1118 -1.0366 0.9623
-9.5136 -3.0678 -1.0842 0.9606
-10.0011 -6.5424 -1.2963 0.9531
-3.4823 -2.7500 -0.4813 0.9823
-2.7923 -2.6410 -0.4169 0.9847
-2.3951 -2.7083 -0.3922 0.9856
-1.4366 -3.7300 -0.4336 0.9840
1.4117 4.5507 -0.5168 0.9810
1.7015 13.8153 -1.5098 0.9455
-0.6527 11.7059 -1.2717 0.9539
-1.5750 10.7993 -1.1838 0.9570
-2.3740 9.9616 -1.1108 0.9596
-3.2746 9.7806 -1.1188 0.9594
-3.9392 9.0093 -1.0665 0.9612
-4.5347 8.2749 -1.0235 0.9627
-5.5621 6.8844 -0.9600 0.9650
-6.0103 6.2147 -0.9378 0.9658
-6.4232 5.5543 -0.9211 0.9664
-7.1609 4.2415 -0.9028 0.9671
-7.8043 2.9064 -0.9033 0.9670
-3.7700 -0.3369 -0.4743 0.9849
-8.6816 -1.5641 -1.1055 0.9651
-8.8477 -2.4237 -1.1496 0.9637
-9.1226 -4.3575 -1.2669 0.9601
-9.2266 -5.4649 -1.3438 0.9577
-9.3033 -6.6961 -1.4364 0.9548
-1.7519 -3.1969 -0.4568 0.9854
-1.4116 -4.2164 -0.5572 0.9822
1.1771 4.4930 -0.5820 0.9815
0.9465 12.1129 -1.5226 0.9522
-0.1251 11.2303 -1.4074 0.9557
-1.0483 10.4205 -1.3125 0.9587
-2.5571 8.9428 -1.1656 0.9632
-5.4754 6.1912 -1.0357 0.9672
-6.6218 4.3318 -0.9916 0.9686
-6.9491 3.7082 -0.9871 0.9687
-7.2537 3.0758 -0.9873 0.9687
-7.5375 2.4305 -0.9925 0.9686
-4.3831 0.9931 -0.5632 0.9820
-3.5494 0.4773 -0.4488 0.9857
-3.5348 0.1576 -0.4434 0.9858
-3.6310 -0.1619 -0.4555 0.9855
-8.7668 -1.9863 -1.1265 0.9644
-9.1777 -4.8974 -1.3036 0.9589
-9.2686 -6.0632 -1.3880 0.9563
-2.8237 -2.6706 -0.4871 0.9845
-2.4191 -2.7354 -0.4576 0.9854
-2.1137 -2.8687 -0.4465 0.9857
-1.6399 -3.3371 -0.4660 0.9851
-1.4573 -3.7838 -0.5081 0.9838
2.9272 13.6219 -1.7460 0.9454
1.5504 12.5879 -1.5894 0.9502
-1.4631 10.0323 -1.2705 0.9600
-2.2150 9.2948 -1.1974 0.9622
-2.8796 8.6010 -1.1366 0.9641
-3.6994 8.4607 -1.1572 0.9635
-4.2691 7.7902 -1.1132 0.9648
-4.7852 7.1401 -1.0771 0.9659
-5.2554 6.5048 -1.0480 0.9669
-6.7884 4.0208 -0.9887 0.9687
-7.1041 3.3933 -0.9866 0.9688
-7.6722 2.1016 -0.9969 0.9684
-3.8076 0.6860 -0.4848 0.9845
-3.5366 0.3160 -0.4450 0.9858
-3.5139 -0.3140 -0.5018 0.9858
-8.2013 -1.4775 -1.1853 0.9669
-8.3398 -2.2845 -1.2299 0.9657
-8.5489 -4.0835 -1.3476 0.9624
-8.6134 -5.1018 -1.4239 0.9604
-3.1550 -2.7283 -0.5933 0.9833
-2.6330 -2.7225 -0.5387 0.9848
-2.2849 -2.8280 -0.5171 0.9854
-2.0036 -2.9896 -0.5119 0.9856
-1.5595 -3.5668 -0.5537 0.9844
-1.4879 -4.4440 -0.6666 0.9812
4.9841 13.8534 -2.0941 0.9423
1.1764 4.4901 -0.6602 0.9814
0.8720 11.1593 -1.5921 0.9558
-0.1159 10.4081 -1.4805 0.9588
-1.7314 9.0327 -1.3082 0.9635
-2.4000 8.3935 -1.2417 0.9653
-3.1919 8.2877 -1.2632 0.9648
-3.7659 7.6633 -1.2145 0.9661
-4.2856 7.0551 -1.1741 0.9672
-5.1913 5.8699 -1.1146 0.9688
-5.5885 5.2856 -1.0941 0.9694
-5.9543 4.7021 -1.0792 0.9698
-6.2921 4.1162 -1.0695 0.9701
-6.6046 3.5244 -1.0648 0.9702
-7.1620 2.3094 -1.0704 0.9701
-4.1432 0.9387 -0.6042 0.9830
-3.3671 0.4528 -0.4832 0.9864
-3.3609 0.1499 -0.4785 0.9865
-3.4470 -0.1537 -0.4908 0.9862
-8.2732 -1.8745 -1.2066 0.9663
-8.5059 -3.6068 -1.3141 0.9634
-8.5849 -4.5811 -1.3841 0.9614
-8.6471 -6.8286 -1.5672 0.9565
-2.8559 -2.7011 -0.5591 0.9842
-2.4438 -2.7633 -0.5247 0.9852
-1.8750 -3.0868 -0.5137 0.9855
-1.6560 -3.3700 -0.5341 0.9849
2.6659 12.4061 -1.8049 0.9500
1.4234 11.5569 -1.6562 0.9540
0.3604 10.7769 -1.5337 0.9574
-0.5604 10.0516 -1.4319 0.9601
-1.3657 9.3644 -1.3460 0.9625
-2.0755 8.7094 -1.2735 0.9645
-2.7067 8.0844 -1.2126 0.9661
-3.4862 7.9732 -1.2378 0.9655
-4.0320 7.3575 -1.1933 0.9667
-4.9797 6.1635 -1.1271 0.9685
-5.3941 5.5774 -1.1036 0.9691
-6.4514 3.8212 -1.0665 0.9702
-6.7521 3.2252 -1.0643 0.9702
-7.0306 2.6182 -1.0671 0.9701
-7.2883 1.9965 -1.0749 0.9699
-7.7736 -1.4005 -1.2578 0.9685
-8.0408 -3.8408 -1.4190 0.9646
-3.2399 -2.8017 -0.6821 0.9828
-2.3087 -2.8575 -0.5850 0.9852
-2.0259 -3.0229 -0.5795 0.9854
-1.7846 -3.2566 -0.5913 0.9851
-1.5769 -3.6066 -0.6268 0.9842
6.2237 13.4117 -2.3544 0.9419
4.5144 12.5478 -2.1235 0.9474
1.8598 11.0258 -1.7805 0.9557
-1.6257 8.4813 -1.3751 0.9656
-3.0139 7.8254 -1.3353 0.9666
-4.5176 6.1313 -1.2127 0.9696
-4.9341 5.5791 -1.1860 0.9703
-6.2913 3.3572 -1.1355 0.9715
-6.5669 2.7846 -1.1358 0.9715
-6.8205 2.1993 -1.1412 0.9714
-3.9744 0.9005 -0.6489 0.9836
-3.2540 0.4376 -0.5228 0.9868
-3.4817 -0.4683 -0.5594 0.9859
-8.0122 -3.3975 -1.3858 0.9654
-8.0779 -5.2844 -1.5371 0.9617
-2.8950 -2.7382 -0.6345 0.9840
-1.8975 -3.1237 -0.5820 0.9853
-1.6757 -3.4100 -0.6050 0.9847
-1.5023 -3.9007 -0.6656 0.9832
2.4465 11.3851 -1.8543 0.9539
1.3152 10.6782 -1.7132 0.9574
0.3348 10.0138 -1.5955 0.9602
-0.5232 9.3839 -1.4966 0.9626
-1.2801 8.7773 -1.4125 0.9647
-2.5527 7.6245 -1.2803 0.9680
-3.2954 7.5369 -1.3099 0.9672
-4.7304 5.8549 -1.1986 0.9700
-5.8336 4.1988 -1.1445 0.9713
-4.5041 1.2338 -0.7436 0.9813
-7.4753 -2.0477 -1.3667 0.9690
-7.5458 -2.8101 -1.4198 0.9678
-2.6972 -2.7889 -0.6841 0.9844
-2.3331 -2.8878 -0.6546 0.9850
-2.0489 -3.0572 -0.6489 0.9852
1.1780 4.4964 -0.8196 0.9813
1.7230 10.2144 -1.8265 0.9588
0.7526 9.6314 -1.7035 0.9615
-0.8578 8.5266 -1.5111 0.9658
-2.1355 7.4685 -1.3697 0.9689
-2.8538 7.4098 -1.4001 0.9683
-3.8605 6.3552 -1.3111 0.9702
-4.7000 5.3144 -1.2510 0.9716
-5.7185 3.7409 -1.2049 0.9726
-6.5086 2.0988 -1.2058 0.9726
-3.8237 0.8663 -0.6913 0.9842
-3.3507 -0.4507 -0.5961 0.9864
-7.4302 -1.6835 -1.3434 0.9695
-7.5140 -2.4229 -1.3921 0.9684
-7.5704 -3.2101 -1.4499 0.9672
-7.5869 -4.9631 -1.5986 0.9638
-2.9560 -2.7958 -0.7174 0.9836
-2.4951 -2.8214 -0.6641 0.9848
-1.7035 -3.4665 -0.6811 0.9844
4.8471 11.7945 -2.2485 0.9495
3.4551 11.1383 -2.0563 0.9537
2.2596 10.5152 -1.8964 0.9573
0.3126 9.3484 -1.6493 0.9627
-1.8416 7.7281 -1.4008 0.9682
-2.4145 7.2117 -1.3410 0.9696
-3.1236 7.1439 -1.3748 0.9688
-5.5661 4.0062 -1.2092 0.9725
-6.1392 2.9325 -1.1997 0.9727
-6.3909 2.3800 -1.2025 0.9727
-3.4371 0.6192 -0.6158 0.9859
-3.1509 0.2815 -0.5578 0.9872
-7.1802 -3.4297 -1.5399 0.9681
-7.1694 -4.2464 -1.6125 0.9666
-7.1196 -5.1244 -1.6975 0.9649
-7.0242 -6.0741 -1.7970 0.9629
-2.7480 -2.8414 -0.7650 0.9840
-1.6480 -3.7691 -0.7961 0.9834
6.7098 11.6216 -2.5969 0.9468
3.7935 10.5440 -2.1685 0.9554
1.6042 9.5104 -1.8664 0.9615
0.7041 9.0095 -1.7488 0.9639
-0.8082 8.0340 -1.5626 0.9676
-1.4473 7.5508 -1.4878 0.9692
-2.0229 7.0747 -1.4239 0.9705
-2.7091 7.0341 -1.4587 0.9698
-3.2150 6.5423 -1.4107 0.9707
-4.0988 5.5630 -1.3372 0.9722
-5.1676 4.0808 -1.2742 0.9735
-5.4672 3.5765 -1.2643 0.9737
-5.7420 3.0640 -1.2595 0.9738
-5.9934 2.5414 -1.2598 0.9738
-3.0750 0.1371 -0.5957 0.9875
-3.2339 -0.4349 -0.6315 0.9868
-7.0671 -1.6012 -1.4023 0.9709
-7.1341 -2.3005 -1.4506 0.9699
-7.0780 -5.5895 -1.7453 0.9639
-3.0200 -2.8563 -0.8044 0.9832
-2.2059 -2.9940 -0.7197 0.9850
-1.7323 -3.5253 -0.7601 0.9841
7.5948 11.8970 -2.7314 0.9441
5.8942 11.3484 -2.4747 0.9492
4.4422 10.8095 -2.2616 0.9535
3.1894 10.2815 -2.0832 0.9571
1.1404 9.2587 -1.8053 0.9627
-1.1363 7.7914 -1.5237 0.9684
-1.7425 7.3119 -1.4546 0.9698
-2.2896 6.8388 -1.3956 0.9710
-4.6673 4.8260 -1.2992 0.9730
-5.3206 3.8296 -1.2686 0.9736
-5.8706 2.8042 -1.2590 0.9738
-4.1640 1.1406 -0.8355 0.9826
-3.0639 0.2738 -0.5953 0.9875
-3.2303 -0.5820 -0.6920 0.9867
-6.7657 -1.8533 -1.4789 0.9717
-6.8044 -2.5340 -1.5307 0.9708
-6.7195 -4.8364 -1.7454 0.9667
-2.0973 -3.1295 -0.7942 0.9847
-1.8578 -3.3900 -0.8150 0.9843
-4.3418 -12.9683 -2.8831 0.9456
7.7307 10.9971 -2.8339 0.9465
0.6611 8.4596 -1.7889 0.9659
-0.0894 8.0263 -1.6922 0.9677
-1.3713 7.1538 -1.5356 0.9707
-1.9209 6.7178 -1.4730 0.9718
-2.5775 6.6926 -1.5120 0.9711
-3.0638 6.2346 -1.4645 0.9720
-3.5083 5.7755 -1.4246 0.9728
-3.9156 5.3144 -1.3916 0.9734
-4.6321 4.3811 -1.3442 0.9743
-4.9470 3.9066 -1.3289 0.9746
-5.4997 2.9347 -1.3142 0.9748
-5.7404 2.4341 -1.3145 0.9748
-5.9586 1.9214 -1.3199 0.9747
-3.0346 0.4081 -0.6455 0.9876
-3.0505 -0.1361 -0.6438 0.9876
-3.1545 -0.4243 -0.6710 0.9871
-6.8124 -2.8887 -1.5600 0.9702
-6.8035 -3.6305 -1.6258 0.9690
-6.7578 -4.4208 -1.7024 0.9675
-6.6697 -5.2671 -1.7917 0.9659
-2.5807 -2.9181 -0.8213 0.9842
8.6335 11.1867 -2.9791 0.9439
6.8949 10.8005 -2.7014 0.9490
5.3978 10.3925 -2.4688 0.9533
4.0978 9.9713 -2.2727 0.9569
2.9602 9.5426 -2.1063 0.9600
1.9577 9.1102 -1.9645 0.9626
-0.4355 7.8101 -1.6491 0.9685
-1.0752 7.3726 -1.5707 0.9700
-1.6528 6.9356 -1.5031 0.9713
-2.1833 6.5212 -1.4498 0.9723
-3.2910 6.0053 -1.4437 0.9724
-5.3706 3.1810 -1.3159 0.9748
-5.6229 2.6858 -1.3137 0.9748
-5.8522 2.1794 -1.3166 0.9748
-3.2435 0.5844 -0.6948 0.9866
-2.9810 0.2664 -0.6310 0.9878
-3.0430 -0.2719 -0.6973 0.9875
-3.1642 -0.5701 -0.7338 0.9869
-6.4826 -2.4141 -1.5789 0.9720
-6.4780 -3.0943 -1.6386 0.9710
-2.1380 -3.1901 -0.8765 0.9844
-1.8983 -3.4640 -0.9016 0.9839
-1.7700 -4.0483 -1.0085 0.9820
-3.9692 -11.8555 -2.8536 0.9500
-3.1741 -13.3189 -3.1251 0.9454
8.6755 10.2614 -3.0670 0.9464
5.6209 9.7356 -2.5659 0.9549
3.2653 9.0759 -2.2015 0.9612
0.6228 7.9699 -1.8246 0.9677
-0.7235 7.1926 -1.6500 0.9708
-2.4574 6.3806 -1.5606 0.9723
-2.9252 5.9527 -1.5139 0.9732
-3.7470 5.0855 -1.4418 0.9744
-4.1079 4.6449 -1.4153 0.9749
-4.4393 4.1986 -1.3946 0.9752
-5.0215 3.2849 -1.3696 0.9757
-5.2754 2.8151 -1.3648 0.9758
-5.7146 1.8427 -1.3705 0.9757
-2.9993 -0.1338 -0.6853 0.9878
-3.0959 -0.4164 -0.7130 0.9873
-6.4364 -1.4583 -1.5063 0.9733
-6.4844 -2.7496 -1.6076 0.9715
-6.4629 -3.4487 -1.6720 0.9704
-6.4043 -4.1895 -1.7467 0.9691
-6.3035 -4.9779 -1.8333 0.9676
-2.2826 -3.0980 -0.8783 0.9843
-4.3047 -11.1769 -2.7337 0.9520
-3.5939 -12.5686 -2.9837 0.9478
-2.7055 -14.1145 -3.2802 0.9427
7.8319 10.1481 -2.9258 0.9488
2.7604 8.8987 -2.1265 0.9625
0.2601 7.7783 -1.7764 0.9686
-1.0200 6.9935 -1.6131 0.9714
-2.0732 6.1923 -1.4905 0.9736
-2.6965 6.1671 -1.5363 0.9728
-3.9313 4.8658 -1.4278 0.9747
-4.2772 4.4225 -1.4043 0.9751
-4.5945 3.9730 -1.3864 0.9754
-5.6133 2.0904 -1.3672 0.9757
-3.1659 0.5703 -0.7342 0.9869
-2.9277 0.2616 -0.6709 0.9880
-2.9221 -0.0000 -0.7183 0.9880
-6.1878 -2.3043 -1.6230 0.9732
-6.0339 -4.3429 -1.8274 0.9698
-5.9003 -5.1022 -1.9173 0.9684
-2.9922 -3.0940 -1.0580 0.9824
-3.6542 -10.9146 -2.8292 0.9537
9.5229 9.4174 -3.2920 0.9463
6.4667 9.1989 -2.7639 0.9547
4.0624 8.7541 -2.3722 0.9610
3.0506 8.4790 -2.2149 0.9636
1.3263 7.8624 -1.9599 0.9677
-0.6871 6.8304 -1.6874 0.9721
-5.0673 2.7040 -1.4118 0.9766
-5.4883 1.7697 -1.4174 0.9765
-2.8899 0.3887 -0.7167 0.9881
-2.9494 -0.1315 -0.7257 0.9879
-3.0389 -0.4087 -0.7537 0.9874
-3.1571 -0.7153 -0.7957 0.9868
-6.1844 -2.6224 -1.6511 0.9727
-5.8148 -5.4996 -1.9673 0.9676
-2.0587 -3.3891 -0.9747 0.9838
-1.8758 -3.8171 -1.0454 0.9826
-3.9763 -10.3243 -2.7194 0.9555
-2.4608 -12.8377 -3.2130 0.9476
-1.4346 -14.2605 -3.5229 0.9427
7.1619 9.2799 -2.8813 0.9529
5.8119 9.1042 -2.6549 0.9565
4.6124 8.8803 -2.4596 0.9596
0.9967 4.6381 -1.1661 0.9806
0.9481 7.6981 -1.9065 0.9686
0.2461 7.3605 -1.8102 0.9701
-3.0089 5.4906 -1.5390 0.9745
-3.4053 5.0810 -1.5035 0.9751
-3.7693 4.6653 -1.4743 0.9756
-4.1037 4.2432 -1.4509 0.9760
-4.9479 2.9306 -1.4135 0.9766
-5.3914 2.0078 -1.4141 0.9766
-3.0843 0.5556 -0.7703 0.9872
-2.8807 0.2574 -0.7109 0.9882
-2.8744 0.0000 -0.7574 0.9882
-2.9343 -0.2622 -0.7763 0.9879
-5.9090 -1.6187 -1.6144 0.9750
-5.9165 -2.2033 -1.6636 0.9742
-2.5737 -3.1855 -1.0791 0.9832
-3.3835 -10.1060 -2.8082 0.9569
-2.6682 -11.1962 -3.0328 0.9535
-0.7581 -13.5965 -3.5882 0.9452
10.2513 8.4729 -3.5044 0.9465
2.8609 7.9519 -2.2268 0.9656
1.2528 7.4270 -1.9847 0.9693
0.5575 7.1346 -1.8857 0.9708
-0.0760 6.8251 -1.7985 0.9722
-0.6539 6.5002 -1.7214 0.9733
-1.6649 5.8227 -1.5958 0.9753
-2.6800 5.4536 -1.6012 0.9752
-3.4466 4.6778 -1.5311 0.9763
-3.7842 4.2789 -1.5052 0.9766
-4.0941 3.8722 -1.4849 0.9770
-4.6375 3.0337 -1.4602 0.9773
-5.0866 2.1569 -1.4558 0.9774
-5.2775 1.7018 -1.4611 0.9773
-3.2212 0.7298 -0.8703 0.9864
-2.8514 0.1271 -0.7521 0.9883
-2.9007 -0.1294 -0.7651 0.9881
-5.9164 -1.9078 -1.6380 0.9746
-5.9087 -2.5055 -1.6912 0.9738
-5.6732 -4.4801 -1.9048 0.9705
-1.9957 -4.0612 -1.1924 0.9815
-3.6923 -9.5870 -2.7070 0.9584
-3.0430 -10.6423 -2.9166 0.9552
-1.3046 -12.9684 -3.4344 0.9475
11.1087 8.3775 -3.6662 0.9441
9.4386 8.5367 -3.3534 0.9487
6.5932 8.5430 -2.8435 0.9563
5.3841 8.4339 -2.6366 0.9595
2.4288 7.8296 -2.1601 0.9667
0.9931 4.6213 -1.2455 0.9806
0.2335 6.9825 -1.8409 0.9715
-0.3715 6.6640 -1.7587 0.9728
-1.4287 5.9949 -1.6239 0.9748
-1.9857 5.9311 -1.6481 0.9745
-2.4673 5.6430 -1.6229 0.9748
-2.8839 5.2624 -1.5812 0.9755
-3.6189 4.4792 -1.5174 0.9765
-4.5108 3.2467 -1.4645 0.9773
-4.7583 2.8184 -1.4573 0.9774
-4.9828 2.3801 -1.4551 0.9774
-5.1848 1.9308 -1.4579 0.9774
-3.0017 0.5408 -0.8037 0.9875
-2.8347 0.2533 -0.7499 0.9883
-2.8819 -0.2575 -0.8141 0.9880
-2.9786 -0.5366 -0.8515 0.9875
-5.6671 -1.5524 -1.6532 0.9759
-5.6659 -2.1100 -1.7011 0.9752
-5.6350 -2.6916 -1.7570 0.9744
-5.3213 -4.6015 -1.9793 0.9712
-3.1482 -9.4032 -2.7900 0.9596
-2.4689 -10.3600 -2.9965 0.9567
-1.6573 -11.3637 -3.2311 0.9534
-0.6920 -12.4112 -3.4974 0.9497
0.4512 -13.4961 -3.7993 0.9454
12.4792 7.0206 -4.0286 0.9422
10.8343 7.4373 -3.6974 0.9469
7.9495 7.8614 -3.1456 0.9546
5.5452 7.8881 -2.7129 0.9607
3.5553 7.6615 -2.3764 0.9655
2.6921 7.4828 -2.2374 0.9675
1.1925 4.5518 -1.3239 0.9806
-0.0723 6.4940 -1.8273 0.9734
-0.6235 6.1977 -1.7526 0.9744
-2.1516 5.5866 -1.6844 0.9754
-4.4646 2.9206 -1.5011 0.9781
-4.6923 2.5039 -1.4964 0.9781
-4.8975 2.0767 -1.4967 0.9781
-5.0806 1.6383 -1.5019 0.9781
-2.7751 0.3732 -0.7878 0.9884
-2.8062 0.1251 -0.7903 0.9884
-3.2048 -1.0335 -0.9474 0.9861
-5.6545 -2.3977 -1.7281 0.9748
-5.5235 -3.6133 -1.8571 0.9729
-5.3998 -4.2642 -1.9359 0.9718
-2.4777 -3.3628 -1.1752 0.9828
-3.9595 -8.0575 -2.5260 0.9634
-3.4443 -8.9428 -2.6963 0.9610
-2.0809 -10.8561 -3.1100 0.9551
-1.1953 -11.8823 -3.3600 0.9516
-0.1442 -12.9496 -3.6437 0.9476
1.0978 -14.0489 -3.9648 0.9431
11.6400 7.2494 -3.8582 0.9446
5.0119 7.8509 -2.6206 0.9620
4.0182 7.7363 -2.4527 0.9644
0.9895 4.6046 -1.3251 0.9806
-1.3658 5.7312 -1.6577 0.9758
-1.9287 5.7607 -1.7093 0.9751
-2.3655 5.4102 -1.6613 0.9758
-2.7678 5.0506 -1.6204 0.9764
-3.4790 4.3060 -1.5575 0.9773
-4.5813 2.7135 -1.4981 0.9781
-4.9918 1.8590 -1.4987 0.9781
-3.6501 0.9999 -1.0648 0.9844
-2.9228 0.5266 -0.8356 0.9877
-2.9224 -0.5265 -0.8890 0.9877
-5.2184 -3.7560 -1.9249 0.9735
-3.9400 -7.1896 -2.4544 0.9663
-3.4856 -7.9717 -2.6047 0.9643
-0.6361 -11.4075 -3.4205 0.9534
1.6292 -13.2281 -3.9901 0.9459
11.2676 6.3390 -3.8705 0.9474
8.5466 7.0638 -3.3195 0.9548
7.3268 7.2456 -3.0849 0.9579
6.2085 7.3434 -2.8789 0.9606
3.3437 7.2056 -2.3781 0.9674
2.5408 7.0622 -2.2470 0.9691
1.1969 4.5683 -1.4138 0.9805
1.1263 6.6777 -2.0274 0.9721
-2.4693 5.0249 -1.6762 0.9769
-2.8426 4.6796 -1.6392 0.9774
-3.1866 4.3250 -1.6083 0.9778
-3.7939 3.5883 -1.5634 0.9784
-4.0601 3.2062 -1.5488 0.9786
-4.5226 2.4133 -1.5347 0.9788
-4.7204 2.0016 -1.5350 0.9788
-3.0564 0.6925 -0.9382 0.9870
-5.2772 -3.4522 -1.8879 0.9740
-5.1492 -4.0663 -1.9643 0.9730
-4.9774 -4.7076 -2.0510 0.9718
-2.6503 -3.5971 -1.3376 0.9815
-4.1373 -6.8110 -2.3858 0.9673
-3.7232 -7.5765 -2.5273 0.9654
-3.2256 -8.3752 -2.6869 0.9632
-2.6325 -9.2065 -2.8667 0.9608
-1.9299 -10.0683 -3.0691 0.9581
-0.1321 -11.8621 -3.5515 0.9517
0.9983 -12.7746 -3.8361 0.9479
2.3069 -13.6761 -4.1522 0.9437
12.0028 6.0652 -4.0261 0.9454
10.5533 6.5726 -3.7221 0.9494
9.1920 6.9320 -3.4467 0.9531
7.9249 7.1675 -3.1990 0.9564
6.7603 7.3092 -2.9807 0.9593
5.6791 7.3586 -2.7828 0.9619
3.7718 7.2620 -2.4499 0.9664
2.9337 7.1387 -2.3106 0.9683
2.1643 6.9771 -2.1870 0.9700
-0.3377 6.0572 -1.8162 0.9750
-1.8494 5.5241 -1.7440 0.9760
-2.2710 5.1939 -1.6971 0.9766
-3.3483 4.1442 -1.5950 0.9780
-3.9300 3.3984 -1.5555 0.9785
-4.1843 3.0117 -1.5434 0.9787
-4.4155 2.6153 -1.5364 0.9788
-4.8110 1.7917 -1.5370 0.9788
-3.5597 0.9751 -1.1050 0.9847
-2.8473 0.5130 -0.8661 0.9880
-2.7826 -0.2487 -0.8873 0.9883
-2.8694 -0.5170 -0.9259 0.9878
-2.9540 -0.8092 -0.9727 0.9872
-5.1756 -2.4722 -1.8216 0.9762
-4.8376 -4.1832 -2.0311 0.9735
-4.0899 -6.1027 -2.3331 0.9696
-3.7220 -6.7919 -2.4597 0.9680
-3.2816 -7.5054 -2.6015 0.9662
-2.1442 -8.9973 -2.9374 0.9619
-1.4246 -9.7679 -3.1349 0.9594
-0.5880 -10.5460 -3.3544 0.9566
0.3785 -11.3209 -3.5974 0.9536
1.4875 -12.0772 -3.8645 0.9502
9.0409 6.2062 -3.4826 0.9550
6.7957 6.7204 -3.0353 0.9607
5.7797 6.8362 -2.8430 0.9631
3.9657 6.8686 -2.5188 0.9673
3.1544 6.7974 -2.3799 0.9690
2.4045 6.6832 -2.2557 0.9706
1.2045 4.5976 -1.5095 0.9803
1.0715 6.3518 -2.0457 0.9733
0.4800 6.1428 -1.9568 0.9745
-0.0658 5.9120 -1.8777 0.9755
-0.5697 5.6631 -1.8076 0.9764
-1.0348 5.3988 -1.7458 0.9772
-2.3746 4.8322 -1.7099 0.9777
-3.6578 3.4596 -1.5990 0.9791
-3.9158 3.0923 -1.5846 0.9793
-4.1507 2.7153 -1.5752 0.9794
-2.6672 0.3587 -0.8547 0.9888
-2.7186 0.1212 -0.8643 0.9886
-2.7612 -0.1232 -0.8778 0.9885
-2.9205 -0.6617 -0.9510 0.9875
-5.2005 -2.2052 -1.7940 0.9766
-5.1425 -2.7441 -1.8511 0.9758
-4.9187 -3.8843 -1.9905 0.9740
-4.7452 -4.4880 -2.0743 0.9730
-3.9145 -6.4442 -2.3946 0.9689
-3.0313 -7.8707 -2.6786 0.9652
-2.4640 -8.6172 -2.8464 0.9631
-1.7982 -9.3811 -3.0335 0.9607
-1.0217 -10.1565 -3.2418 0.9581
-0.1218 -10.9347 -3.4729 0.9551
0.9145 -11.7025 -3.7279 0.9519
3.4400 -13.1305 -4.3108 0.9446
11.2075 5.6634 -3.9880 0.9487
9.6438 6.0062 -3.6082 0.9534
7.3307 6.6302 -3.1391 0.9594
6.2787 6.7884 -2.9367 0.9619
3.5521 6.8389 -2.4474 0.9682
2.7721 6.7452 -2.3160 0.9699
2.0512 6.6123 -2.1987 0.9714
0.9867 4.5918 -1.4916 0.9805
0.2016 6.0299 -1.9161 0.9750
-0.8069 5.5327 -1.7757 0.9768
-1.2599 5.2869 -1.7261 0.9774
-1.7757 5.3039 -1.7764 0.9768
-2.1828 4.9923 -1.7304 0.9774
-2.9059 4.3360 -1.6577 0.9783
-3.2258 3.9927 -1.6302 0.9787
-3.5200 3.6396 -1.6080 0.9790
-3.7897 3.2771 -1.5912 0.9792
-4.0360 2.9050 -1.5793 0.9793
-4.2597 2.5231 -1.5723 0.9794
-4.4614 2.1310 -1.5702 0.9795
-4.6413 1.7284 -1.5729 0.9794
-3.4729 0.9513 -1.1436 0.9850
-2.6944 -0.0000 -0.9053 0.9887
-5.0159 -1.8680 -1.7984 0.9777
-4.8913 -2.8972 -1.9101 0.9763
-4.6241 -3.9987 -2.0539 0.9745
-4.4275 -4.5781 -2.1398 0.9735
-3.8840 -5.7954 -2.3440 0.9710
-3.5250 -6.4323 -2.4644 0.9695
-3.0984 -7.0864 -2.5985 0.9679
-1.3298 -9.1182 -3.0960 0.9619
3.7860 -12.2047 -4.2933 0.9475
5.1811 -12.6075 -4.5796 0.9441
12.3776 4.2979 -4.4022 0.9462
11.1942 5.0438 -4.1252 0.9495
9.6559 5.4323 -3.7224 0.9543
8.3398 5.7249 -3.3987 0.9582
7.3104 6.0422 -3.1865 0.9608
6.3318 6.2617 -2.9919 0.9631
5.4085 6.3972 -2.8146 0.9653
4.5422 6.4613 -2.6536 0.9672
2.9779 6.4171 -2.3769 0.9706
1.2187 4.6517 -1.6156 0.9799
1.0208 6.0515 -2.0619 0.9744
0.4583 5.8644 -1.9763 0.9755
-0.5457 5.4254 -1.8320 0.9773
-0.9929 5.1801 -1.7721 0.9780
-1.4986 5.2411 -1.8315 0.9773
-1.9075 4.9528 -1.7832 0.9779
-2.9590 4.0160 -1.6760 0.9792
-3.2565 3.6823 -1.6516 0.9795
-3.7800 2.9850 -1.6183 0.9799
-4.2133 2.2483 -1.6045 0.9800
-4.3975 1.8647 -1.6048 0.9800
-2.6271 0.5952 -0.9051 0.9887
-2.6180 0.3521 -0.8875 0.9889
-2.7168 -0.1212 -0.9137 0.9886
-2.7751 -0.3732 -0.9408 0.9883
-4.9968 -2.1188 -1.8235 0.9774
-4.9348 -2.6333 -1.8793 0.9767
-4.3115 -4.8751 -2.1866 0.9729
-4.0405 -5.4838 -2.2886 0.9717
-2.8574 -7.4191 -2.6712 0.9670
-2.3143 -8.0936 -2.8283 0.9651
-1.6822 -8.7760 -3.0023 0.9630
-0.1129 -10.1344 -3.4052 0.9581
0.8430 -10.7877 -3.6355 0.9554
4.4697 -12.4238 -4.4361 0.9458
12.9646 3.8639 -4.5452 0.9445
11.7862 4.6908 -4.2620 0.9479
8.8713 5.5250 -3.5114 0.9569
2.6205 6.3766 -2.3163 0.9713
1.9440 6.2668 -2.2045 0.9727
0.9860 4.5886 -1.5769 0.9804
-0.7736 5.3044 -1.8011 0.9776
-1.2517 5.2527 -1.8142 0.9775
-1.7070 5.0986 -1.8065 0.9776
-2.8007 4.1789 -1.6902 0.9790
-3.1108 3.8504 -1.6631 0.9793
-3.6578 3.1630 -1.6247 0.9798
-4.1132 2.4362 -1.6062 0.9800
-4.4815 1.6690 -1.6067 0.9800
-2.6500 0.2368 -0.8939 0.9888
-2.6518 0.0000 -0.9403 0.9888
-2.7668 -0.4985 -0.9969 0.9881
-2.8417 -0.7784 -1.0448 0.9876
-4.8274 -1.7977 -1.8266 0.9784
-4.6965 -2.7818 -1.9355 0.9771
-4.5805 -3.2969 -2.0012 0.9763
-4.2309 -4.3747 -2.1580 0.9745
-3.9889 -4.9372 -2.2507 0.9734
-3.6958 -5.5146 -2.3539 0.9722
-1.8903 -7.9322 -2.8914 0.9660
-1.2460 -8.5436 -3.0615 0.9640
-0.5098 -9.1438 -3.2473 0.9619
0.3250 -9.7217 -3.4491 0.9596
1.2641 -10.2634 -3.6667 0.9571
2.3103 -10.7510 -3.8992 0.9544
3.4630 -11.1635 -4.1445 0.9516
14.0537 0.9408 -4.9944 0.9420
13.2243 2.0794 -4.7467 0.9448
12.2935 3.0748 -4.4934 0.9476
10.2757 4.6300 -3.9964 0.9533
3.5283 6.1112 -2.5022 0.9705
0.9742 5.7753 -2.0768 0.9754
0.4382 5.6075 -1.9944 0.9764
-0.0603 5.4160 -1.9206 0.9773
-0.5235 5.2044 -1.8547 0.9780
-0.9686 5.0532 -1.8244 0.9784
-1.8366 4.7685 -1.8119 0.9785
-2.2029 4.4827 -1.7711 0.9790
-2.8553 3.8752 -1.7068 0.9798
-3.1440 3.5550 -1.6828 0.9801
-3.4093 3.2245 -1.6640 0.9803
-3.6519 2.8839 -1.6500 0.9804
-3.8726 2.5333 -1.6409 0.9806
-4.0717 2.1727 -1.6365 0.9806
-2.5748 0.3463 -0.9212 0.9890
-2.8093 -0.6365 -1.0214 0.9878
-2.8709 -0.9258 -1.0696 0.9873
-4.8064 -2.0381 -1.8512 0.9781
-4.7413 -2.5300 -1.9056 0.9775
-4.6430 -3.0373 -1.9673 0.9767
-4.5085 -3.5604 -2.0371 0.9759
-3.8491 -5.2241 -2.3009 0.9728
-3.5283 -5.8084 -2.4098 0.9716
-3.1477 -6.4053 -2.5307 0.9702
-2.1803 -7.6251 -2.8121 0.9669
-1.5792 -8.2387 -2.9745 0.9650
-0.8899 -8.8457 -3.1524 0.9630
-0.1051 -9.4363 -3.3462 0.9607
5.3701 -11.5721 -4.5236 0.9473
6.7356 -11.6665 -4.7767 0.9444
13.6543 1.5275 -4.8718 0.9434
12.7690 2.5954 -4.6203 0.9462
10.7898 4.2942 -4.1178 0.9519
8.4277 5.2487 -3.5205 0.9587
7.2675 5.4806 -3.2276 0.9621
6.3613 5.7535 -3.0414 0.9643
3.8984 6.1066 -2.5689 0.9697
0.7014 5.6946 -2.0345 0.9759
0.1844 5.5145 -1.9564 0.9769
-0.2962 5.3126 -1.8867 0.9777
-1.2325 5.1719 -1.8853 0.9777
-2.0232 4.6272 -1.7907 0.9788
-2.7017 4.0313 -1.7208 0.9796
-3.2796 3.3910 -1.6728 0.9802
-3.5334 3.0554 -1.6564 0.9804
-3.9748 2.3543 -1.6381 0.9806
-2.5828 0.7075 -0.9496 0.9887
-2.6623 0.4796 -0.9592 0.9886
-2.7170 -0.4895 -1.0309 0.9883
-4.6504 -1.7319 -1.8530 0.9790
-4.2432 -3.6693 -2.0947 0.9763
-3.1822 -5.8069 -2.4726 0.9721
-2.7825 -6.3637 -2.5935 0.9708
-2.3180 -6.9236 -2.7264 0.9693
-1.7829 -7.4816 -2.8720 0.9677
-1.1713 -8.0314 -3.0308 0.9659
-0.4776 -8.5645 -3.2030 0.9640
0.3033 -9.0701 -3.3888 0.9620
3.1878 -10.2764 -4.0177 0.9551
4.3189 -10.5094 -4.2428 0.9526
9.2360 -9.9859 -5.0792 0.9436
13.6900 -1.5314 -5.1439 0.9429
12.7326 0.8523 -4.7651 0.9470
12.0372 1.8927 -4.5501 0.9493
11.2438 2.8123 -4.3279 0.9517
10.3847 3.6060 -4.1049 0.9541
9.4880 4.2751 -3.8859 0.9565
8.5769 4.8252 -3.6747 0.9589
7.4276 5.0988 -3.3642 0.9623
5.5597 5.4981 -2.9198 0.9672
4.7836 5.6580 -2.7667 0.9689
4.0441 5.7527 -2.6258 0.9704
2.6820 5.7795 -2.3792 0.9732
2.0600 5.7259 -2.2723 0.9744
0.9312 5.5204 -2.0905 0.9764
0.4196 5.3694 -2.0111 0.9773
-0.0578 5.1943 -1.9397 0.9781
-0.5028 4.9984 -1.8759 0.9788
-0.9636 5.0270 -1.9113 0.9784
-1.7699 4.5956 -1.8389 0.9792
-2.1247 4.3236 -1.7989 0.9796
-2.7575 3.7425 -1.7359 0.9803
-3.9378 2.1013 -1.6667 0.9811
-4.1099 1.7428 -1.6670 0.9811
-2.5920 0.1156 -0.9689 0.9890
-4.6279 -1.9624 -1.8771 0.9788
-4.5603 -2.4335 -1.9301 0.9782
-4.4602 -2.9178 -1.9902 0.9775
-3.9354 -4.4499 -2.2182 0.9750
-3.6731 -4.9852 -2.3122 0.9739
-2.9900 -6.0846 -2.5316 0.9715
-2.5586 -6.6435 -2.6584 0.9701
-1.4871 -7.7581 -2.9497 0.9668
-0.8350 -8.3007 -3.1152 0.9650
-0.0983 -8.8215 -3.2943 0.9630
0.7274 -9.3087 -3.4865 0.9609
1.6442 -9.7475 -3.6912 0.9587
4.9088 -10.5780 -4.3545 0.9514
6.1275 -10.6132 -4.5762 0.9490
7.3771 -10.4941 -4.7900 0.9467
8.6249 -10.2015 -4.9884 0.9446
9.8315 -9.7226 -5.1632 0.9427
13.8144 -2.1722 -5.2218 0.9420
13.5156 -0.9048 -5.0582 0.9438
13.0327 0.2904 -4.8678 0.9459
12.3993 1.3870 -4.6589 0.9481
9.0330 4.5645 -3.7792 0.9577
8.1219 5.0583 -3.5729 0.9600
6.7832 5.1154 -3.1724 0.9644
5.1673 5.5868 -2.8417 0.9680
3.0077 5.7908 -2.4366 0.9725
2.3662 5.7576 -2.3244 0.9738
1.7661 5.6931 -2.2258 0.9749
0.9846 4.5820 -1.7500 0.9802
-0.2843 5.0988 -1.9069 0.9784
-1.9506 4.4612 -1.8182 0.9794
-2.2922 4.1828 -1.7811 0.9798
-2.6085 3.8922 -1.7496 0.9802
-3.4158 2.9538 -1.6863 0.9809
-3.8440 2.2768 -1.6683 0.9811
-4.0265 1.9233 -1.6663 0.9811
-2.5691 -0.0000 -1.0083 0.9890
-2.6073 -0.2330 -1.0273 0.9888
-2.6685 -0.4808 -1.0642 0.9884
-2.7221 -0.7457 -1.1077 0.9879
-4.3440 -2.5730 -1.9815 0.9785
-4.2260 -3.0417 -2.0436 0.9779
-4.0724 -3.5215 -2.1130 0.9771
-3.8799 -4.0118 -2.1904 0.9763
-3.6451 -4.5116 -2.2764 0.9754
-3.0321 -5.5329 -2.4762 0.9733
-1.1043 -7.5719 -3.0032 0.9677
-0.4487 -8.0483 -3.1636 0.9660
1.9857 -9.2407 -3.7095 0.9602
6.1728 -9.6695 -4.5023 0.9519
10.3580 -7.8114 -5.0916 0.9458
11.1632 -6.9525 -5.1614 0.9451
12.2570 -4.8782 -5.1775 0.9449
12.5584 -2.5526 -5.0296 0.9464
12.4145 -1.3888 -4.9027 0.9477
12.0954 -0.2695 -4.7483 0.9493
11.0344 1.7351 -4.3839 0.9531
8.8046 3.9671 -3.7901 0.9594
4.5178 5.3436 -2.7463 0.9704
3.8302 5.4485 -2.6139 0.9718
2.5529 5.5012 -2.3802 0.9743
0.8914 5.2842 -2.1032 0.9772
-0.0555 4.9876 -1.9576 0.9788
-0.4835 4.8065 -1.8959 0.9795
-0.9404 4.9064 -1.9607 0.9788
-2.0510 4.1737 -1.8251 0.9802
-2.6651 3.6171 -1.7633 0.9809
-3.1875 3.0148 -1.7219 0.9813
-3.4162 2.6978 -1.7085 0.9815
-3.6240 2.3707 -1.6996 0.9816
-3.9775 1.6866 -1.6956 0.9816
-2.5490 0.1137 -1.0014 0.9891
-2.5889 -0.1155 -1.0171 0.9889
-2.7055 -0.6130 -1.0887 0.9882
-2.7236 -0.8783 -1.1231 0.9878
-4.3906 -2.3429 -1.9532 0.9788
-3.7680 -4.2606 -2.2323 0.9759
-3.5105 -4.7646 -2.3227 0.9749
-2.8458 -5.7910 -2.5324 0.9727
-2.4293 -6.3077 -2.6529 0.9714
-1.9504 -6.8211 -2.7844 0.9700
-1.4041 -7.3254 -2.9273 0.9685
-0.0922 -8.2756 -3.2481 0.9651
0.6799 -8.7011 -3.4254 0.9632
1.5310 -9.0766 -3.6126 0.9612
2.4591 -9.3863 -3.8082 0.9592
3.4585 -9.6129 -4.0095 0.9571
6.7329 -9.5777 -4.5948 0.9509
9.9034 -8.1854 -5.0426 0.9463
12.0550 -5.4318 -5.1893 0.9448
12.4085 -4.3087 -5.1552 0.9451
12.5587 -3.1411 -5.0808 0.9459
12.5096 -1.9670 -4.9700 0.9470
11.8778 0.2647 -4.6629 0.9502
10.7017 2.1752 -4.2860 0.9542
9.9802 2.9744 -4.0872 0.9562
8.3990 4.2442 -3.6933 0.9604
6.5947 4.9732 -3.2417 0.9651
4.8728 5.2684 -2.8165 0.9696
3.4983 5.4800 -2.5516 0.9724
1.6859 5.4346 -2.2332 0.9758
0.9855 4.5862 -1.8410 0.9800
0.1696 5.0706 -1.9912 0.9784
-0.2732 4.8992 -1.9258 0.9791
-0.7099 4.8678 -1.9307 0.9791
-1.1425 4.7941 -1.9342 0.9790
-1.8823 4.3049 -1.8440 0.9800
-2.5204 3.7608 -1.7768 0.9807
-3.3045 2.8576 -1.7146 0.9814
-3.7200 2.2034 -1.6969 0.9816
-3.8968 1.8614 -1.6949 0.9816
-2.5633 0.4618 -1.0222 0.9889
-2.5655 -0.2293 -1.0607 0.9889
-2.6210 -0.4722 -1.0967 0.9885
-2.6410 -0.7235 -1.1276 0.9882
-4.2704 -2.0398 -1.9488 0.9797
-4.1840 -2.4782 -2.0024 0.9792
-3.9128 -3.3835 -2.1301 0.9779
-3.7225 -3.8491 -2.2050 0.9771
-3.2167 -4.7996 -2.3792 0.9753
-2.8938 -5.2805 -2.4795 0.9743
-2.0884 -6.2379 -2.7088 0.9719
-0.4229 -7.5851 -3.1282 0.9677
4.6733 -8.9978 -4.1751 0.9571
5.6804 -8.8981 -4.3470 0.9554
6.6880 -8.6659 -4.5076 0.9538
7.6696 -8.2923 -4.6512 0.9523
8.5951 -7.7738 -4.7722 0.9511
10.1541 -6.3240 -4.9259 0.9496
10.7315 -5.4229 -4.9512 0.9493
11.1459 -4.4360 -4.9398 0.9494
11.3860 -3.3934 -4.8923 0.9499
11.4497 -2.3273 -4.8112 0.9507
11.3437 -1.2690 -4.7002 0.9518
10.6852 0.7153 -4.4098 0.9547
10.1755 1.6000 -4.2416 0.9564
9.5772 2.3954 -4.0652 0.9582
8.2058 3.6973 -3.7061 0.9618
7.4727 4.2041 -3.5307 0.9636
6.7298 4.6197 -3.3613 0.9653
4.9512 4.8963 -2.8673 0.9703
3.6354 5.1714 -2.6030 0.9730
3.0204 5.2315 -2.4875 0.9742
2.4341 5.2452 -2.3811 0.9753
1.8791 5.2228 -2.2856 0.9763
1.3518 5.1598 -2.1964 0.9772
0.8543 5.0648 -2.1150 0.9780
0.3862 4.9417 -2.0411 0.9788
-0.0534 4.7942 -1.9743 0.9795
-0.9062 4.7280 -1.9823 0.9794
-1.2901 4.5117 -1.9323 0.9799
-1.6480 4.2792 -1.8883 0.9804
-1.9814 4.0320 -1.8499 0.9808
-2.5776 3.4983 -1.7894 0.9814
-2.8421 3.2137 -1.7666 0.9816
-3.0853 2.9180 -1.7487 0.9818
-3.3075 2.6119 -1.7354 0.9819
-3.5091 2.2956 -1.7267 0.9820
-3.6905 1.9693 -1.7225 0.9821
-3.9928 1.2875 -1.7275 0.9820
-2.6388 0.5979 -1.1141 0.9884
-2.5479 -0.1136 -1.0502 0.9890
-2.6464 -0.8534 -1.1450 0.9880
-4.2310 -2.2578 -1.9748 0.9795
-4.1290 -2.7011 -2.0317 0.9789
-3.6124 -4.0846 -2.2454 0.9767
-3.0614 -5.0399 -2.4282 0.9748
-2.7131 -5.5211 -2.5332 0.9737
-2.3110 -6.0004 -2.6478 0.9726
-1.3290 -6.9336 -2.9071 0.9699
-0.7419 -7.3745 -3.0520 0.9684
0.6378 -8.1615 -3.3710 0.9652
2.2907 -8.7436 -3.7220 0.9617
3.2100 -8.9224 -3.9046 0.9598
5.1753 -8.9638 -4.2622 0.9562
7.1839 -8.4971 -4.5819 0.9530
8.1413 -8.0511 -4.7149 0.9517
9.0270 -7.4610 -4.8225 0.9506
9.8101 -6.7342 -4.8998 0.9498
10.4622 -5.8859 -4.9431 0.9494
11.2881 -3.9197 -4.9205 0.9496
11.4396 -2.8612 -4.8557 0.9503
11.4171 -1.7953 -4.7591 0.9512
9.2521 2.7574 -3.9754 0.9591
7.8414 3.9624 -3.6178 0.9627
4.6068 4.9808 -2.7938 0.9711
0.9868 4.5922 -1.9342 0.9799
-0.2627 4.7128 -1.9437 0.9798
-1.8178 4.1573 -1.8684 0.9806
-2.1391 3.9033 -1.8328 0.9809
-2.4370 3.6363 -1.8026 0.9812
-2.7126 3.3574 -1.7774 0.9815
-2.9663 3.0672 -1.7571 0.9817
-3.4108 2.4550 -1.7305 0.9820
-3.6023 2.1337 -1.7241 0.9821
-3.5070 0.9607 -1.4973 0.9844
-2.5181 0.4537 -1.0536 0.9890
-2.5507 -0.6987 -1.1408 0.9885
-2.5688 -0.9566 -1.1824 0.9881
-4.1206 -1.9683 -1.9698 0.9803
-4.0333 -2.3890 -2.0221 0.9798
-3.5755 -3.6970 -2.2186 0.9778
-3.0800 -4.5957 -2.3864 0.9762
-0.9889 -6.7804 -2.9557 0.9706
0.9639 -7.8259 -3.4013 0.9662
3.4331 -8.3540 -3.8960 0.9614
5.2554 -8.2324 -4.2130 0.9583
6.1706 -7.9954 -4.3566 0.9570
9.3017 -5.7931 -4.7269 0.9534
9.8264 -4.9655 -4.7491 0.9532
10.2078 -4.0626 -4.7391 0.9533
10.5090 -2.1361 -4.6258 0.9544
10.4315 -1.1669 -4.5278 0.9553
9.8751 0.6610 -4.2692 0.9578
9.4313 1.4830 -4.1183 0.9593
8.3126 2.8864 -3.7957 0.9624
7.6765 3.4588 -3.6319 0.9640
7.0121 3.9449 -3.4705 0.9656
4.7550 4.7023 -2.8847 0.9713
3.4571 4.9178 -2.5930 0.9742
1.7973 4.9956 -2.2901 0.9771
1.2952 4.9436 -2.2044 0.9780
0.8198 4.8601 -2.1261 0.9788
0.3711 4.7487 -2.0547 0.9795
-0.0514 4.6135 -1.9902 0.9801
-0.4749 4.7206 -2.0465 0.9795
-0.8740 4.5598 -2.0027 0.9800
-1.2453 4.3551 -1.9539 0.9805
-1.5921 4.1339 -1.9109 0.9809
-1.9154 3.8978 -1.8734 0.9813
-3.3999 2.2241 -1.7525 0.9825
-3.5759 1.9082 -1.7484 0.9825
-3.7321 1.5825 -1.7486 0.9825
-2.5715 0.5826 -1.1373 0.9886
-2.4106 0.3242 -1.0492 0.9895
-2.4654 0.1099 -1.0645 0.9893
-2.5076 -0.1118 -1.0828 0.9891
-2.6695 -1.1320 -1.2508 0.9874
-3.6740 -3.4749 -2.1814 0.9782
-3.4672 -3.9204 -2.2576 0.9775
-3.2198 -4.3700 -2.3415 0.9766
-2.9288 -4.8215 -2.4334 0.9757
-1.7599 -6.1549 -2.7614 0.9725
1.3425 -7.9589 -3.4816 0.9655
2.1420 -8.1760 -3.6458 0.9639
2.9921 -8.3167 -3.8126 0.9622
3.8822 -8.3659 -3.9783 0.9606
4.7951 -8.3053 -4.1368 0.9591
8.2838 -6.8468 -4.6358 0.9543
8.9906 -6.1717 -4.7040 0.9536
9.5811 -5.3902 -4.7420 0.9532
10.0358 -4.5219 -4.7482 0.9532
10.3415 -3.5909 -4.7221 0.9534
10.4885 -1.6493 -4.5799 0.9548
10.3397 -0.6922 -4.4701 0.9559
10.0592 0.2242 -4.3402 0.9571
9.6650 1.0812 -4.1951 0.9585
9.1768 1.8653 -4.0394 0.9600
8.6150 2.5675 -3.8777 0.9616
7.3469 3.7126 -3.5508 0.9648
6.6739 4.1565 -3.3915 0.9663
5.2775 4.7732 -3.0695 0.9695
3.1650 4.9578 -2.5372 0.9747
2.0570 5.0054 -2.3343 0.9767
1.5429 4.9738 -2.2463 0.9776
0.5921 4.8077 -2.0895 0.9791
-0.2584 4.6342 -2.0021 0.9800
-1.4217 4.2465 -1.9317 0.9807
-2.0685 3.7746 -1.8567 0.9814
-2.6257 3.2500 -1.8023 0.9820
-2.8725 2.9701 -1.7823 0.9822
-3.0986 2.6794 -1.7670 0.9823
-3.3045 2.3784 -1.7562 0.9824
-3.4904 2.0674 -1.7499 0.9825
-3.6565 1.7466 -1.7480 0.9825
-3.8028 1.4162 -1.7504 0.9825
-2.4719 0.4453 -1.0835 0.9891
-2.4387 0.2179 -1.0561 0.9894
-2.4890 -0.9270 -1.1984 0.9884
-3.8912 -2.3048 -2.0407 0.9803
-3.7732 -2.7158 -2.0977 0.9798
-2.6471 -4.8305 -2.4854 0.9761
-2.2957 -5.2505 -2.5857 0.9752
-1.8955 -5.6617 -2.6940 0.9741
-1.4439 -6.0591 -2.8105 0.9730
0.2375 -7.1026 -3.2066 0.9693
1.6305 -7.5878 -3.5019 0.9665
2.3997 -7.7357 -3.6546 0.9651
4.0411 -7.7805 -3.9560 0.9623
4.8846 -7.6516 -4.0961 0.9609
5.7215 -7.4136 -4.2255 0.9597
6.5312 -7.0614 -4.3401 0.9587
7.9785 -6.0169 -4.5090 0.9571
8.5718 -5.3385 -4.5565 0.9567
9.0519 -4.5741 -4.5762 0.9565
9.6219 -2.8676 -4.5303 0.9569
9.7006 -1.9717 -4.4666 0.9575
8.7799 1.3806 -4.0103 0.9617
6.5995 3.7128 -3.4167 0.9673
5.3483 4.4205 -3.1308 0.9700
3.8709 4.5784 -2.7052 0.9740
3.2933 4.6848 -2.5839 0.9752
2.2229 4.7901 -2.3828 0.9771
1.7213 4.7844 -2.2943 0.9779
1.2424 4.7421 -2.2119 0.9787
0.7875 4.6687 -2.1364 0.9794
0.3570 4.5679 -2.0674 0.9801
-0.0506 4.5459 -2.0513 0.9802
-0.8436 4.4010 -2.0220 0.9805
-1.5391 3.9963 -1.9323 0.9814
-2.1448 3.5309 -1.8641 0.9820
-2.6657 3.0141 -1.8156 0.9825
-3.1055 2.4524 -1.7855 0.9828
-3.2958 2.1561 -1.7771 0.9829
-3.4667 1.8499 -1.7730 0.9829
-2.3567 0.3169 -1.0730 0.9896
-2.4105 0.1075 -1.0887 0.9895
-2.4671 -0.5590 -1.1414 0.9890
-2.4782 -0.7991 -1.1749 0.9886
-2.4891 -1.0555 -1.2199 0.9882
-3.9388 -2.1018 -2.0145 0.9806
-3.5348 -3.3432 -2.1953 0.9789
-3.0892 -4.1927 -2.3499 0.9774
-2.8055 -4.6185 -2.4383 0.9766
-2.4773 -5.0413 -2.5346 0.9757
0.5661 -7.2440 -3.2786 0.9686
2.7993 -7.7808 -3.7312 0.9644
3.6224 -7.8061 -3.8830 0.9629
4.4625 -7.7293 -4.0271 0.9616
5.3051 -7.5467 -4.1624 0.9603
7.6453 -6.3190 -4.4755 0.9574
8.2882 -5.6895 -4.5361 0.9568
8.8270 -4.9660 -4.5699 0.9565
9.2450 -4.1656 -4.5754 0.9565
9.5307 -3.3094 -4.5523 0.9567
9.6891 -1.5235 -4.4256 0.9579
9.5691 -0.6406 -4.3274 0.9588
8.5542 1.7387 -3.9387 0.9624
8.0524 2.3999 -3.7913 0.9638
7.4975 2.9839 -3.6411 0.9652
6.9052 3.4893 -3.4909 0.9666
6.2896 3.9172 -3.3434 0.9680
5.6628 4.2704 -3.2003 0.9694
5.0346 4.5535 -3.0630 0.9706
3.5732 4.6299 -2.6389 0.9747
3.0181 4.7276 -2.5308 0.9757
2.4826 4.7797 -2.4302 0.9766
0.9895 4.6045 -2.1250 0.9795
-0.2574 4.6170 -2.0865 0.9799
-0.6550 4.4912 -2.0480 0.9803
-1.0262 4.3062 -1.9974 0.9808
-2.0016 3.6524 -1.8793 0.9819
-2.2828 3.4062 -1.8502 0.9822
-2.5432 3.1477 -1.8260 0.9824
-3.3837 2.0042 -1.7745 0.9829
-3.8085 1.0433 -1.7818 0.9828
-2.3615 -0.0000 -1.1132 0.9896
-2.3773 -0.2124 -1.1251 0.9895
-3.8450 -1.8366 -2.0086 0.9813
-3.4906 -3.0185 -2.1753 0.9798
-3.3083 -3.4208 -2.2432 0.9792
-2.8338 -4.2284 -2.3994 0.9777
-2.5367 -4.6288 -2.4881 0.9769
-2.1962 -5.0229 -2.5841 0.9760
-0.8928 -6.1218 -2.9162 0.9730
-0.3591 -6.4410 -3.0409 0.9719
0.2249 -6.7246 -3.1716 0.9707
3.0068 -7.3165 -3.7287 0.9656
4.5582 -7.1403 -3.9931 0.9632
6.0706 -6.5634 -4.2143 0.9612
6.7664 -6.1198 -4.3005 0.9605
7.3956 -5.5772 -4.3663 0.9599
7.9393 -4.9446 -4.4089 0.9595
8.3814 -4.2353 -4.4265 0.9593
8.7094 -3.4662 -4.4186 0.9594
8.9157 -2.6572 -4.3853 0.9597
8.9980 -1.8289 -4.3282 0.9602
8.9589 -1.0022 -4.2493 0.9609
8.8059 -0.1962 -4.1519 0.9618
8.5500 0.5723 -4.0393 0.9628
8.2047 1.2901 -3.9150 0.9639
7.7849 1.9471 -3.7826 0.9651
7.3059 2.5369 -3.6455 0.9664
6.2275 3.5035 -3.3682 0.9689
5.6536 3.8809 -3.2324 0.9701
5.0707 4.1911 -3.1010 0.9713
3.8574 4.5625 -2.8162 0.9739
3.1460 4.4751 -2.5785 0.9761
2.1285 4.5867 -2.3835 0.9779
1.6505 4.5875 -2.2981 0.9787
1.1930 4.5536 -2.2189 0.9794
0.7573 4.4892 -2.1460 0.9801
-0.4442 4.4163 -2.0923 0.9806
-0.8148 4.2508 -2.0402 0.9810
-2.3404 3.1764 -1.8598 0.9827
-3.0115 2.3781 -1.8088 0.9832
-3.3625 1.7943 -1.7966 0.9833
-3.5093 1.4881 -1.7968 0.9833
-3.6369 1.1728 -1.8013 0.9832
-2.5264 0.5724 -1.2211 0.9886
-2.3488 0.1047 -1.1083 0.9897
-2.3694 -0.1057 -1.1180 0.9896
-2.3799 -0.3201 -1.1319 0.9894
-2.3945 -0.7721 -1.1859 0.9889
-3.8045 -2.0301 -2.0327 0.9811
-3.5691 -2.8185 -2.1437 0.9801
-3.2039 -3.6227 -2.2797 0.9788
-2.6905 -4.4292 -2.4428 0.9773
-2.3720 -4.8269 -2.5352 0.9765
-2.0090 -5.2162 -2.6349 0.9756
-1.1407 -5.9512 -2.8563 0.9736
-0.6323 -6.2853 -2.9777 0.9725
-0.0734 -6.5878 -3.1055 0.9713
0.5353 -6.8503 -3.2389 0.9701
1.1915 -7.0638 -3.3767 0.9688
1.8911 -7.2182 -3.5173 0.9675
2.6275 -7.3032 -3.6586 0.9663
3.3916 -7.3087 -3.7980 0.9650
4.9453 -7.0347 -4.0534 0.9627
5.7038 -6.7465 -4.1644 0.9617
6.4256 -6.3544 -4.2598 0.9608
7.6792 -5.2714 -4.3906 0.9596
8.1739 -4.5986 -4.4209 0.9594
8.9723 -2.2441 -4.3596 0.9599
8.9932 -1.4141 -4.2913 0.9605
8.8960 -0.5955 -4.2028 0.9613
8.0031 1.6267 -3.8496 0.9645
7.5518 2.2507 -3.7145 0.9658
6.5080 3.2886 -3.4371 0.9683
4.7787 4.3221 -3.0372 0.9719
4.1979 4.5387 -2.9142 0.9730
3.4817 4.5113 -2.6862 0.9751
0.9724 4.5250 -2.1817 0.9797
0.5478 4.4471 -2.1121 0.9804
-0.6324 4.3360 -2.0655 0.9808
-0.9916 4.1609 -2.0163 0.9813
-1.9379 3.5362 -1.9008 0.9823
-2.2113 3.2995 -1.8723 0.9826
-2.9118 2.5179 -1.8146 0.9831
-3.4383 1.6424 -1.7962 0.9833
-2.3094 -0.2064 -1.1404 0.9897
-2.3082 -0.4158 -1.1536 0.9896
-2.3278 -0.8669 -1.2217 0.9890
-3.3658 -2.9106 -2.1886 0.9804
-2.9727 -3.6795 -2.3266 0.9791
-2.7225 -4.0623 -2.4053 0.9784
-2.4334 -4.4405 -2.4906 0.9777
-2.1035 -4.8109 -2.5826 0.9769
2.1252 -6.8511 -3.5281 0.9685
2.8271 -6.8793 -3.6582 0.9674
3.5466 -6.8284 -3.7846 0.9663
4.9800 -6.4527 -4.0090 0.9643
6.8845 -5.1919 -4.2411 0.9623
8.2972 -2.4728 -4.2584 0.9621
8.2253 -0.1833 -4.0467 0.9640
6.8795 2.3888 -3.5819 0.9681
6.4007 2.8840 -3.4530 0.9692
5.8902 3.3138 -3.3241 0.9703
5.3591 3.6788 -3.1972 0.9714
4.8168 3.9812 -3.0737 0.9725
3.7296 4.4114 -2.8413 0.9746
3.1321 4.4554 -2.6787 0.9760
-0.4290 4.2646 -2.1082 0.9811
-1.7368 3.5344 -1.9370 0.9826
-2.0126 3.3133 -1.9068 0.9829
-2.7229 2.5753 -1.8434 0.9834
-2.9216 2.3072 -1.8311 0.9835
-3.1016 2.0290 -1.8230 0.9836
-3.2628 1.7411 -1.8190 0.9836
-3.5289 1.1379 -1.8237 0.9836
-2.2513 0.3028 -1.1173 0.9899
-2.2893 0.1021 -1.1271 0.9898
-2.3022 -0.1027 -1.1335 0.9898
-2.3108 -0.3108 -1.1468 0.9897
-2.3142 -0.5243 -1.1671 0.9895
-2.3375 -0.9912 -1.2488 0.9887
-3.5748 -2.3386 -2.1011 0.9811
-3.2803 -3.1025 -2.2208 0.9801
-2.8523 -3.8713 -2.3651 0.9788
-2.2737 -4.6269 -2.5357 0.9773
-1.9226 -4.9921 -2.6312 0.9764
-1.5278 -5.3431 -2.7333 0.9755
-0.6017 -5.9818 -2.9570 0.9736
0.5073 -6.4920 -3.2028 0.9714
1.1267 -6.6794 -3.3317 0.9703
1.7841 -6.8099 -3.4625 0.9691
5.3267 -6.3005 -4.0580 0.9639
7.1458 -4.9053 -4.2631 0.9621
7.6025 -4.2771 -4.2905 0.9619
7.9612 -3.5872 -4.2949 0.9618
8.3028 -0.5558 -4.0929 0.9636
8.1241 0.1810 -3.9969 0.9644
7.8562 0.8788 -3.8882 0.9654
7.5116 1.5268 -3.7701 0.9664
6.6448 2.6446 -3.5176 0.9686
6.1487 3.1071 -3.3884 0.9698
5.0888 3.8376 -3.1349 0.9720
4.5441 4.1098 -3.0136 0.9731
3.4617 4.4855 -2.7868 0.9751
2.8166 4.4121 -2.5746 0.9769
1.8101 4.4046 -2.3422 0.9790
1.3631 4.3943 -2.2629 0.9797
0.9354 4.3528 -2.1898 0.9803
-0.2417 4.3352 -2.1356 0.9808
-0.6109 4.1889 -2.0821 0.9813
-1.2854 3.8394 -1.9915 0.9821
-2.3894 2.9574 -1.8701 0.9832
-3.1845 1.8862 -1.8205 0.9836
-2.2481 -0.6158 -1.1950 0.9896
-2.2721 -1.0853 -1.2909 0.9887
-3.5087 -2.0782 -2.0906 0.9818
-3.3929 -2.4421 -2.1432 0.9814
-3.2478 -2.8085 -2.2013 0.9809
-3.0715 -3.1760 -2.2651 0.9803
-2.3368 -4.2642 -2.4929 0.9784
-2.0170 -4.6132 -2.5812 0.9776
-1.6570 -4.9493 -2.6758 0.9768
-0.8115 -5.5641 -2.8827 0.9750
-0.3252 -5.8316 -2.9943 0.9741
0.2027 -6.0637 -3.1104 0.9731
0.7702 -6.2530 -3.2300 0.9721
1.3735 -6.3918 -3.3517 0.9710
2.6652 -6.4854 -3.5947 0.9690
4.0094 -6.2806 -3.8200 0.9671
4.6699 -6.0509 -3.9185 0.9662
5.3043 -5.7349 -4.0049 0.9655
6.8969 -4.2954 -4.1655 0.9641
7.5637 -3.0103 -4.1735 0.9641
7.8354 -1.5926 -4.0991 0.9647
7.5101 0.5027 -3.8588 0.9667
6.8913 1.7236 -3.6418 0.9686
6.4943 2.2550 -3.5244 0.9696
3.0582 4.3503 -2.7262 0.9764
1.9918 4.2923 -2.4259 0.9790
1.1199 4.2745 -2.2654 0.9803
-0.0473 4.2482 -2.1781 0.9811
-0.7615 3.9729 -2.0739 0.9820
-1.0884 3.8065 -2.0297 0.9824
-1.6829 3.4246 -1.9562 0.9830
-3.0107 1.9695 -1.8444 0.9840
-3.3057 1.4018 -1.8408 0.9840
-2.4709 0.5598 -1.2989 0.9887
-2.2318 0.0995 -1.1453 0.9900
-2.2376 -0.0998 -1.1483 0.9900
-2.2446 -0.3019 -1.1611 0.9899
-2.2672 -0.9614 -1.2625 0.9890
-2.7446 -3.7250 -2.3721 0.9794
-2.4821 -4.0861 -2.4510 0.9787
-1.4615 -5.1111 -2.7253 0.9764
-0.5736 -5.7018 -2.9379 0.9746
-0.0663 -5.9525 -3.0518 0.9736
2.3340 -6.4875 -3.5346 0.9695
3.0000 -6.4648 -3.6538 0.9685
3.6740 -6.3635 -3.7671 0.9675
4.9913 -5.9037 -3.9634 0.9658
6.1729 -5.1021 -4.1057 0.9646
7.0982 -3.9934 -4.1754 0.9641
7.6699 -2.6633 -4.1624 0.9642
7.8058 -1.9523 -4.1250 0.9645
7.7758 -0.5205 -3.9953 0.9656
7.3810 0.8257 -3.8076 0.9672
7.0701 1.4371 -3.6987 0.9681
6.6989 1.9965 -3.5836 0.9691
6.2790 2.4990 -3.4646 0.9701
5.8220 2.9420 -3.3442 0.9711
4.8377 3.6482 -3.1063 0.9731
3.8166 4.1265 -2.8816 0.9751
2.2467 4.3256 -2.4989 0.9783
1.3227 4.2638 -2.2887 0.9801
-0.2334 4.1871 -2.1500 0.9813
-0.9275 3.8919 -2.0511 0.9822
-1.2444 3.7169 -2.0095 0.9825
-1.5416 3.5257 -1.9728 0.9829
-1.8193 3.3199 -1.9408 0.9831
-2.3176 2.8686 -1.8907 0.9836
-2.5387 2.6250 -1.8722 0.9837
-2.7413 2.3705 -1.8579 0.9838
-2.9255 2.1056 -1.8479 0.9839
-3.2389 1.5471 -1.8402 0.9840
-3.3679 1.2542 -1.8425 0.9840
-3.4782 0.9528 -1.8489 0.9839
-2.2585 0.4069 -1.1765 0.9897
-2.2093 0.1974 -1.1372 0.9901
-2.1810 -0.1949 -1.1690 0.9901
-2.2033 -1.0524 -1.3035 0.9890
-3.3937 -2.0101 -2.1057 0.9823
-3.2790 -2.3601 -2.1568 0.9818
-2.9628 -3.0635 -2.2752 0.9809
-2.7579 -3.4135 -2.3427 0.9803
-2.5195 -3.7594 -2.4160 0.9797
-1.2014 -5.0412 -2.7666 0.9768
-0.3101 -5.5617 -2.9737 0.9751
0.7319 -5.9420 -3.1961 0.9732
1.3028 -6.0626 -3.3103 0.9723
2.5185 -6.1285 -3.5371 0.9704
3.7763 -5.9154 -3.7465 0.9687
4.3918 -5.6906 -3.8374 0.9679
