ply
format ascii 1.0
element vertex 1584
property float32 x
property float32 y
property float32 z
property float32 I
end_header
-9.6149 10.8717 0.1206 0.9436
-10.1970 9.6442 0.1167 0.9454
-10.7499 8.4891 0.1138 0.9467
-13.3868 3.0330 0.1141 0.9466
-13.8637 1.8645 0.1163 0.9456
-14.4829 0.6458 0.1205 0.9437
-8.9199 -1.1996 0.0748 0.9646
-8.3713 -1.8967 0.0713 0.9662
9.9639 10.7728 0.1220 0.9430
-9.3088 11.5216 0.1231 0.9425
-9.9103 10.2472 0.1185 0.9446
-10.4763 9.0593 0.1151 0.9461
-12.0750 5.7677 0.1112 0.9479
-14.1671 1.2660 0.1182 0.9447
-13.5130 0.0000 -0.1123 0.9474
-8.8663 -1.5973 -0.0749 0.9646
-8.8165 -2.4151 -0.0760 0.9641
-2.2204 4.5185 -0.0418 0.9801
-7.5217 12.3824 -0.1204 0.9437
-8.7847 9.9330 -0.1102 0.9483
-9.3431 8.8366 -0.1069 0.9499
-10.3740 6.7864 -0.1030 0.9516
-11.3491 4.8124 -0.1025 0.9519
-13.2365 0.5902 -0.1101 0.9484
-14.4135 -1.9384 -0.1209 0.9435
-8.6756 -1.9656 -0.0739 0.9650
-2.0523 4.6939 -0.0426 0.9797
-7.1631 13.0712 -0.1239 0.9421
-9.0685 9.3768 -0.1084 0.9492
-10.6206 6.2906 -0.1026 0.9518
-12.0800 3.3091 -0.1041 0.9511
-12.4224 0.0000 -0.3098 0.9515
-14.0091 -3.8375 -0.3622 0.9435
-5.3593 13.9151 -0.3719 0.9421
-2.2243 4.5262 -0.1258 0.9800
-8.6210 8.1537 -0.2959 0.9536
-9.1224 7.2039 -0.2899 0.9546
-10.9479 3.5303 -0.2869 0.9550
-12.1874 0.5435 -0.3042 0.9524
9.9807 10.7910 -0.3666 0.9429
-5.7757 13.2095 -0.3595 0.9439
-7.1986 10.7411 -0.3225 0.9496
-9.3633 6.7394 -0.2877 0.9549
-9.8303 5.8225 -0.2849 0.9553
-10.7271 3.9948 -0.2855 0.9552
-11.5789 2.0860 -0.2934 0.9540
-11.9575 1.0685 -0.2994 0.9531
-12.3410 -2.2234 -0.5214 0.9510
-13.2965 -4.9517 -0.5900 0.9448
-4.8845 12.6824 -0.5651 0.9470
-2.2281 4.5340 -0.2101 0.9800
-6.9358 9.4133 -0.4862 0.9543
-7.4903 8.4695 -0.4701 0.9557
-8.4798 6.6965 -0.4493 0.9577
-8.9312 5.8425 -0.4438 0.9582
-9.3622 4.9958 -0.4412 0.9584
-9.7783 4.1463 -0.4416 0.9584
-10.5849 2.3982 -0.4513 0.9575
-10.9061 1.4667 -0.4576 0.9569
-11.6993 -0.5217 -0.4869 0.9542
-12.5666 -2.8472 -0.5358 0.9497
9.9891 10.8000 -0.6117 0.9428
-4.4610 13.3246 -0.5843 0.9453
-5.2796 12.0747 -0.5480 0.9486
-5.9981 10.9451 -0.5190 0.9513
-7.2190 8.9351 -0.4776 0.9551
-7.7509 8.0144 -0.4636 0.9563
-8.2447 7.1295 -0.4532 0.9573
-8.7084 6.2680 -0.4461 0.9580
-9.1489 5.4189 -0.4421 0.9583
-10.3850 2.8447 -0.4477 0.9578
-11.4094 -2.0555 -0.6752 0.9546
-11.7820 -3.2274 -0.7115 0.9522
-12.1718 -4.5329 -0.7565 0.9493
-3.4368 12.0194 -0.7281 0.9511
-2.2319 4.5418 -0.2947 0.9799
-6.4439 8.7458 -0.6327 0.9574
-6.9755 7.8873 -0.6133 0.9587
-7.9212 6.2553 -0.5879 0.9604
-8.3495 5.4620 -0.5811 0.9608
-8.7557 4.6722 -0.5780 0.9610
-9.1443 3.8775 -0.5785 0.9610
-9.5194 3.0696 -0.5826 0.9607
-10.2169 1.3740 -0.6004 0.9595
-10.5176 0.4690 -0.6132 0.9587
-11.5939 -2.6269 -0.6924 0.9535
-12.3754 -5.2476 -0.7829 0.9476
-3.0039 12.6049 -0.7547 0.9494
-6.1595 9.1907 -0.6444 0.9566
-6.7155 8.3119 -0.6224 0.9581
-8.1384 5.8577 -0.5840 0.9606
-8.9519 4.2760 -0.5778 0.9610
-9.7030 2.6579 -0.5860 0.9605
-9.9963 0.0000 -0.7491 0.9607
-10.6071 -1.9110 -0.8077 0.9577
-11.5365 -5.5105 -0.9581 0.9500
-0.1623 14.5717 -1.0921 0.9432
-1.3338 13.2584 -0.9986 0.9480
-6.0164 8.1657 -0.7601 0.9601
-6.9952 6.6160 -0.7216 0.9621
-7.4306 5.8679 -0.7096 0.9627
-8.2220 4.3874 -0.6984 0.9633
-8.9349 2.8811 -0.7035 0.9630
-9.2701 2.1003 -0.7123 0.9626
-9.5950 1.2904 -0.7255 0.9619
-10.1498 -0.4526 -0.7614 0.9601
-10.4550 -1.4061 -0.7905 0.9586
-11.6980 -6.2422 -0.9936 0.9482
-0.7746 13.8917 -1.0427 0.9457
-1.8471 12.6648 -0.9591 0.9500
-2.7570 11.5692 -0.8913 0.9534
-3.5429 10.5822 -0.8363 0.9562
-4.8431 8.8375 -0.7552 0.9604
-6.2768 7.7689 -0.7485 0.9607
-6.7653 6.9952 -0.7293 0.9617
-7.2168 6.2406 -0.7150 0.9625
-7.6375 5.4972 -0.7052 0.9630
-8.4065 4.0154 -0.6982 0.9633
-9.1040 2.4938 -0.7074 0.9628
-9.4337 1.6996 -0.7183 0.9623
-9.6950 0.8664 -0.7294 0.9617
-4.4479 -0.0000 -0.4078 0.9823
-9.6498 -0.8623 -0.8882 0.9618
-9.9087 -1.7851 -0.9230 0.9604
-10.4061 -3.8753 -1.0180 0.9564
-10.8815 -6.4452 -1.1595 0.9505
-0.1473 13.2280 -1.2128 0.9482
-1.2204 12.1315 -1.1178 0.9522
-2.1370 11.1489 -1.0407 0.9554
-2.9301 10.2472 -0.9771 0.9581
-6.1301 6.9315 -0.8483 0.9635
-6.9963 5.5250 -0.8173 0.9648
-7.7486 4.1348 -0.8052 0.9653
-8.0917 3.4312 -0.8058 0.9653
-4.0002 0.1784 -0.3671 0.9840
-9.7802 -1.3153 -0.9047 0.9611
-10.5268 -4.4638 -1.0483 0.9551
10.0145 10.8275 -1.3521 0.9425
0.4624 13.8300 -1.2686 0.9459
-0.7061 12.6635 -1.1628 0.9503
-1.6958 11.6279 -1.0773 0.9539
-2.5472 10.6887 -1.0074 0.9568
-3.2887 9.8229 -0.9497 0.9592
-3.9431 9.0182 -0.9023 0.9612
-4.5263 8.2595 -0.8635 0.9629
-5.3800 8.0275 -0.8859 0.9619
-5.8911 7.2914 -0.8594 0.9630
-6.3595 6.5757 -0.8386 0.9639
-6.7919 5.8732 -0.8232 0.9646
-7.5694 4.4834 -0.8065 0.9653
-7.9226 3.7843 -0.8049 0.9653
-4.1097 0.3672 -0.3783 0.9836
-9.0732 -0.8108 -0.9881 0.9640
-10.0479 -5.9514 -1.2667 0.9541
-10.3240 -8.9275 -1.4804 0.9466
9.5040 11.2413 -1.5967 0.9425
-1.1246 11.1786 -1.2186 0.9558
-1.9799 10.3291 -1.1408 0.9586
-2.7281 9.5408 -1.0763 0.9609
-2.2453 4.5691 -0.5522 0.9797
-6.9795 4.5658 -0.9046 0.9670
-7.3254 3.9090 -0.9006 0.9671
-7.9542 2.5649 -0.9065 0.9669
-4.7637 1.0793 -0.5298 0.9805
-3.9257 -0.1751 -0.4262 0.9843
-9.1855 -1.2354 -1.0053 0.9634
-9.6033 -3.0967 -1.0945 0.9602
-9.7923 -4.1523 -1.1537 0.9581
-10.2629 -8.1046 -1.4184 0.9487
-10.3782 -9.8157 -1.5494 0.9441
10.0230 10.8368 -1.6011 0.9423
0.4216 12.6099 -1.3685 0.9505
-0.6486 11.6320 -1.2636 0.9542
-1.5671 10.7450 -1.1778 0.9573
-2.3661 9.9286 -1.1071 0.9598
-3.0679 9.1635 -1.0482 0.9619
-4.7506 7.0884 -0.9256 0.9663
-5.5489 6.8680 -0.9577 0.9651
-5.9986 6.2025 -0.9359 0.9659
-6.4132 5.5457 -0.9196 0.9665
-7.4900 3.5777 -0.9004 0.9672
-7.8041 2.9063 -0.9033 0.9670
-8.0998 2.2188 -0.9109 0.9668
-3.9948 0.7197 -0.4403 0.9838
-3.5692 -0.0000 -0.4473 0.9857
-8.7506 -1.5765 -1.1143 0.9648
-8.9247 -2.4447 -1.1596 0.9634
-9.3305 -5.5265 -1.3590 0.9572
9.4397 11.1653 -1.8322 0.9428
3.6855 14.0673 -1.8224 0.9431
2.1909 12.9886 -1.6507 0.9483
0.9400 12.0287 -1.5120 0.9525
-0.1243 11.1598 -1.3986 0.9560
-1.8438 9.6191 -1.2274 0.9613
-2.2519 4.5825 -0.6398 0.9796
-4.2466 6.9909 -1.0250 0.9676
-5.0131 6.8038 -1.0591 0.9665
-5.4639 6.1782 -1.0336 0.9673
-6.9448 3.7059 -0.9865 0.9688
-7.2518 3.0750 -0.9871 0.9687
-7.5383 2.4308 -0.9926 0.9686
-4.3831 0.9931 -0.5632 0.9820
-8.6573 -1.1643 -1.0947 0.9654
-8.8398 -2.0028 -1.1359 0.9641
-9.2767 -4.9502 -1.3177 0.9585
-9.3776 -6.1345 -1.4043 0.9558
-9.4756 -10.7142 -1.7924 0.9440
2.9034 13.5110 -1.7318 0.9458
0.3873 11.5843 -1.4525 0.9543
-0.5996 10.7529 -1.3496 0.9575
-1.4561 9.9842 -1.2644 0.9601
-3.4670 7.9294 -1.0845 0.9657
-3.9998 7.2987 -1.0430 0.9670
-5.6753 5.8683 -1.0231 0.9676
-6.4414 4.6362 -0.9946 0.9685
-6.7830 4.0176 -0.9879 0.9687
-7.1010 3.3919 -0.9862 0.9688
-7.3975 2.7549 -0.9892 0.9687
-3.5366 0.3160 -0.4450 0.9858
-3.3944 0.0000 -0.4828 0.9864
-8.2648 -1.4890 -1.1945 0.9666
-8.7063 -5.1567 -1.4393 0.9599
-8.7465 -6.2953 -1.5328 0.9574
-8.7477 -7.5645 -1.6449 0.9544
-8.7009 -8.9967 -1.7802 0.9507
3.3429 12.7598 -1.8762 0.9481
2.0048 11.8854 -1.7144 0.9525
0.8663 11.0862 -1.5817 0.9561
-0.9711 9.6532 -1.3800 0.9616
-1.7248 8.9981 -1.3032 0.9637
-2.9927 7.7705 -1.1844 0.9669
-2.2585 4.5960 -0.7284 0.9795
-4.7472 6.4430 -1.1383 0.9682
-5.9465 4.6959 -1.0777 0.9699
-7.1623 2.3096 -1.0704 0.9701
-4.1432 0.9387 -0.6042 0.9830
-3.3671 0.4528 -0.4832 0.9864
-3.4470 -0.1537 -0.4908 0.9862
-3.6292 -0.4881 -0.5208 0.9853
-8.6737 -4.6285 -1.3984 0.9611
-8.7307 -5.7114 -1.4840 0.9587
-8.7525 -6.9118 -1.5863 0.9559
-8.7311 -8.2578 -1.7093 0.9526
-8.5121 -11.5528 -2.0411 0.9437
4.1045 13.2316 -1.9705 0.9456
2.6457 12.3121 -1.7912 0.9504
1.4136 11.4775 -1.6449 0.9544
-0.5573 9.9944 -1.4238 0.9604
-2.0691 8.6823 -1.2695 0.9646
-2.7020 8.0703 -1.2105 0.9662
-3.7783 6.8945 -1.1182 0.9687
-4.2411 6.3281 -1.0835 0.9697
-4.9686 6.1498 -1.1245 0.9686
-3.6716 0.6614 -0.5306 0.9850
-3.2915 0.0000 -0.5241 0.9868
-3.3916 -0.3031 -0.5422 0.9863
-7.8281 -1.4103 -1.2666 0.9683
-7.9497 -2.1777 -1.3125 0.9672
-8.0472 -2.9968 -1.3674 0.9658
-8.1579 -4.8320 -1.5098 0.9623
-8.1621 -5.8748 -1.6014 0.9601
-7.8776 -9.7503 -1.9960 0.9505
9.3288 11.0342 -2.3008 0.9432
6.1674 13.2904 -2.3331 0.9424
4.4774 12.4450 -2.1061 0.9478
3.0574 11.6699 -1.9210 0.9523
-0.1074 9.6399 -1.5351 0.9617
-2.2552 7.8871 -1.3063 0.9673
-3.8065 6.2664 -1.1675 0.9707
-5.3077 5.0200 -1.1633 0.9708
-5.6608 4.4703 -1.1486 0.9712
-5.9866 3.9162 -1.1391 0.9714
-6.5647 2.7837 -1.1354 0.9715
-3.9744 0.9005 -0.6489 0.9836
-3.2540 0.4376 -0.5228 0.9868
-3.2599 0.1453 -0.5196 0.9869
-3.4817 -0.4682 -0.5594 0.9859
-8.0016 -2.5802 -1.3388 0.9665
-8.1420 -4.3447 -1.4696 0.9633
-8.0856 -7.6473 -1.7722 0.9559
-7.4832 -12.3191 -2.2952 0.9433
5.2840 12.8579 -2.2136 0.9452
3.7379 12.0497 -2.0090 0.9502
2.4292 11.3042 -1.8411 0.9542
1.3066 10.6089 -1.7021 0.9576
0.3329 9.9543 -1.5860 0.9605
-0.5204 9.3330 -1.4885 0.9628
-1.9461 8.1663 -1.3368 0.9666
-2.5485 7.6119 -1.2782 0.9680
-3.5789 6.5307 -1.1858 0.9703
-4.0238 6.0040 -1.1509 0.9711
-5.1200 5.2940 -1.1728 0.9706
-5.4879 4.7455 -1.1553 0.9710
-6.6953 2.4934 -1.1377 0.9715
-7.6108 -2.8343 -1.4320 0.9676
-7.6721 -4.5442 -1.5723 0.9644
-7.6485 -5.5051 -1.6617 0.9624
-7.4576 -7.7111 -1.8915 0.9574
-6.9983 -10.4422 -2.2165 0.9502
5.5850 12.0353 -2.3395 0.9475
4.0922 11.3743 -2.1314 0.9521
2.8157 10.7472 -1.9590 0.9559
-0.1005 9.0209 -1.5907 0.9640
-0.8535 8.4846 -1.5036 0.9660
-1.5263 7.9625 -1.4296 0.9676
-4.6908 5.3041 -1.2485 0.9716
-5.4000 4.2644 -1.2133 0.9724
-6.0009 3.2022 -1.1994 0.9728
-6.2656 2.6569 -1.2000 0.9727
-3.1779 0.4274 -0.5654 0.9871
-3.2276 -0.1439 -0.5697 0.9870
-7.5762 -2.4430 -1.4036 0.9682
-7.6381 -3.2389 -1.4629 0.9669
-7.6694 -4.0925 -1.5328 0.9653
-7.5262 -7.1183 -1.8266 0.9588
6.4303 12.3804 -2.4599 0.9449
4.8083 11.7002 -2.2305 0.9499
3.4299 11.0568 -2.0413 0.9541
2.2444 10.4446 -1.8837 0.9575
0.3108 9.2954 -1.6399 0.9629
-0.4879 8.7508 -1.5454 0.9650
-1.1991 8.2218 -1.4651 0.9668
-2.4109 7.2009 -1.3390 0.9696
-3.8267 5.7098 -1.2120 0.9725
-4.4941 5.5625 -1.2609 0.9714
-5.5597 4.0017 -1.2079 0.9726
-5.8599 3.4708 -1.2009 0.9727
-6.3897 2.3795 -1.2023 0.9727
-4.2904 1.1753 -0.7844 0.9821
-3.1509 0.2816 -0.5578 0.9872
-3.3117 -0.5966 -0.6512 0.9864
-7.2170 -2.6877 -1.4903 0.9691
-7.1932 -5.1773 -1.7151 0.9645
-6.9563 -7.1928 -1.9364 0.9601
-6.7451 -8.3485 -2.0770 0.9572
-6.4534 -9.6291 -2.2432 0.9539
-6.0617 -11.0613 -2.4409 0.9499
-5.5431 -12.6775 -2.6776 0.9452
6.6529 11.5230 -2.5749 0.9472
5.1005 10.9912 -2.3449 0.9518
3.7662 10.4683 -2.1529 0.9557
2.6082 9.9553 -1.9915 0.9589
1.5944 9.4522 -1.8550 0.9617
0.7001 8.9586 -1.7389 0.9641
-0.0944 8.4736 -1.6399 0.9661
-1.4425 7.5258 -1.4829 0.9693
-4.0897 5.5506 -1.3342 0.9723
-4.8335 4.5715 -1.2875 0.9733
-5.4618 3.5730 -1.2630 0.9738
-5.7381 3.0620 -1.2586 0.9738
-5.9911 2.5404 -1.2593 0.9738
-6.2217 2.0063 -1.2651 0.9737
-3.6833 0.8345 -0.7309 0.9847
-3.1048 0.4175 -0.6062 0.9873
-3.0751 0.1371 -0.5957 0.9875
-3.1273 -0.1395 -0.6058 0.9873
-3.2339 -0.4349 -0.6315 0.9868
-7.1917 -2.3190 -1.4623 0.9697
-7.2349 -3.0679 -1.5208 0.9685
-7.2462 -3.8667 -1.5894 0.9671
-7.2212 -4.7239 -1.6699 0.9655
-7.1538 -5.6493 -1.7640 0.9635
-6.6104 -8.9717 -2.1566 0.9556
-5.8205 -11.8445 -2.5539 0.9477
-5.2235 -13.5625 -2.8125 0.9425
5.8463 11.2562 -2.4546 0.9496
3.1674 10.2105 -2.0688 0.9574
2.0850 9.7025 -1.9205 0.9604
-1.1318 7.7603 -1.5176 0.9686
-2.2866 6.8298 -1.3938 0.9711
-2.7828 6.3645 -1.3442 0.9721
-3.2345 5.9022 -1.3025 0.9730
-3.6469 5.4415 -1.2677 0.9737
-4.2877 5.3069 -1.3203 0.9726
-4.6592 4.8176 -1.2970 0.9731
-5.0006 4.3242 -1.2794 0.9734
-5.3146 3.8252 -1.2672 0.9737
-3.0994 -0.2770 -0.6560 0.9874
-3.2303 -0.5820 -0.6920 0.9867
-6.8718 -3.2824 -1.6055 0.9693
-6.7865 -4.8847 -1.7628 0.9664
-6.5156 -6.7371 -1.9759 0.9624
-4.4015 -13.1465 -2.9228 0.9449
6.0708 10.5149 -2.5597 0.9516
3.4867 9.6914 -2.1713 0.9588
2.4281 9.2680 -2.0198 0.9616
1.4914 8.8415 -1.8903 0.9640
0.6575 8.4138 -1.7792 0.9661
-0.0889 7.9860 -1.6837 0.9679
-2.4172 6.2762 -1.4179 0.9729
-2.2858 4.6515 -1.0926 0.9790
-3.2877 5.4123 -1.3350 0.9744
-4.2812 4.8409 -1.3624 0.9739
-4.6250 4.3743 -1.3421 0.9743
-5.2305 3.4216 -1.3177 0.9748
-5.4958 2.9327 -1.3133 0.9749
-5.7380 2.4331 -1.3140 0.9748
-5.9578 1.9212 -1.3197 0.9747
-2.9939 0.1335 -0.6318 0.9878
-3.0505 -0.1361 -0.6438 0.9876
-3.1545 -0.4243 -0.6710 0.9871
-6.7851 -1.5373 -1.4667 0.9720
-6.8650 -3.6633 -1.6405 0.9687
-6.8231 -4.4635 -1.7189 0.9672
-6.7385 -5.3214 -1.8102 0.9655
-5.3438 -10.8743 -2.5544 0.9517
-4.7551 -12.3463 -2.7892 0.9474
-4.0019 -13.9956 -3.0688 0.9422
6.8382 10.7119 -2.6792 0.9494
5.3568 10.3135 -2.4501 0.9536
4.0689 9.9011 -2.2567 0.9572
2.9408 9.4802 -2.0926 0.9602
1.0626 8.6277 -1.8326 0.9651
-1.6490 6.9192 -1.4995 0.9713
-2.1735 6.4921 -1.4433 0.9724
-3.0845 5.6286 -1.3531 0.9741
-4.0982 5.0724 -1.3748 0.9737
-4.7862 4.1388 -1.3340 0.9745
-5.0887 3.6626 -1.3218 0.9747
-4.0001 1.0957 -0.8744 0.9832
-3.2435 0.5843 -0.6948 0.9866
-3.0430 -0.2719 -0.6973 0.9875
-6.5331 -3.1206 -1.6525 0.9707
-6.4969 -3.8482 -1.7235 0.9695
-6.1247 -6.3330 -2.0109 0.9645
-5.8877 -7.2873 -2.1383 0.9623
-5.5763 -8.3205 -2.2862 0.9597
-5.1759 -9.4448 -2.4582 0.9568
-4.6651 -10.6694 -2.6578 0.9533
-4.0210 -12.0101 -2.8908 0.9494
-3.2144 -13.4884 -3.1649 0.9447
4.3400 9.3523 -2.3532 0.9586
1.4003 8.3014 -1.9215 0.9660
-1.2987 6.7754 -1.5746 0.9721
-1.8254 6.3837 -1.5154 0.9731
-3.7390 5.0747 -1.4387 0.9745
-4.1004 4.6364 -1.4127 0.9749
-4.7372 3.7409 -1.3777 0.9755
-5.0165 3.2816 -1.3682 0.9757
-5.2717 2.8130 -1.3638 0.9758
-5.7137 1.8424 -1.3702 0.9757
-3.4289 0.7769 -0.8025 0.9857
-6.4783 -1.4678 -1.5161 0.9731
-6.5229 -2.1034 -1.5643 0.9723
-6.5378 -2.7723 -1.6208 0.9713
-6.5196 -3.4790 -1.6867 0.9701
-6.4643 -4.2287 -1.7631 0.9688
-6.3664 -5.0275 -1.8515 0.9673
-6.2193 -5.8822 -1.9538 0.9655
-6.0147 -6.8009 -2.0722 0.9634
-5.3883 -8.8704 -2.3689 0.9583
-4.9361 -10.0446 -2.5545 0.9551
-4.3613 -11.3238 -2.7697 0.9514
-2.7384 -14.2859 -3.3200 0.9421
9.4964 10.2673 -3.1921 0.9442
7.7675 10.0645 -2.9017 0.9492
6.2609 9.8074 -2.6557 0.9534
4.9402 9.5114 -2.4463 0.9570
3.7756 9.1874 -2.2671 0.9601
2.7432 8.8433 -2.1133 0.9627
1.8233 8.4848 -1.9808 0.9650
0.9996 8.1158 -1.8664 0.9670
0.2588 7.7391 -1.7674 0.9687
-1.0165 6.9702 -1.6077 0.9715
-1.5680 6.5800 -1.5439 0.9726
-3.9235 4.8562 -1.4250 0.9747
-4.2699 4.4151 -1.4019 0.9751
-4.8799 3.5123 -1.3723 0.9756
-5.6115 2.0898 -1.3667 0.9757
-3.1659 0.5704 -0.7342 0.9869
-2.9277 0.2616 -0.6709 0.9880
-2.9882 -0.2671 -0.7374 0.9877
-3.1004 -0.5586 -0.7743 0.9871
-6.2165 -1.7029 -1.5843 0.9738
-6.2360 -2.3223 -1.6356 0.9730
-6.2239 -2.9730 -1.6954 0.9720
-6.1770 -3.6586 -1.7646 0.9709
-6.0905 -4.3837 -1.8445 0.9696
-5.9590 -5.1529 -1.9364 0.9681
-5.2178 -7.7855 -2.3037 0.9621
-4.8198 -8.7950 -2.4652 0.9595
-4.3192 -9.8783 -2.6500 0.9566
-2.9346 -12.3142 -3.1116 0.9492
9.4425 9.3378 -3.2642 0.9468
7.8380 9.2708 -2.9840 0.9512
6.4185 9.1304 -2.7433 0.9551
5.1584 8.9346 -2.5359 0.9584
3.0318 8.4270 -2.2013 0.9638
1.3191 7.8200 -1.9493 0.9679
0.5855 7.4926 -1.8473 0.9695
-0.6847 6.8060 -1.6813 0.9722
-1.2364 6.4505 -1.6144 0.9733
-2.2008 5.7143 -1.5052 0.9751
-3.0091 4.9538 -1.4247 0.9764
-3.9330 4.4471 -1.4593 0.9758
-4.2539 4.0234 -1.4392 0.9762
-5.2865 2.2417 -1.4114 0.9766
-5.4871 1.7694 -1.4171 0.9765
-2.8899 0.3886 -0.7167 0.9881
-2.8978 0.1292 -0.7130 0.9881
-6.2051 -3.3112 -1.7288 0.9714
-6.0308 -4.7625 -1.8888 0.9688
-5.8743 -5.5559 -1.9874 0.9672
-5.6620 -6.4022 -2.1008 0.9654
-5.3845 -7.3080 -2.2312 0.9633
-5.0302 -8.2808 -2.3815 0.9609
-4.5833 -9.3268 -2.5544 0.9581
-3.3364 -11.6683 -2.9830 0.9512
-2.4893 -12.9868 -3.2503 0.9470
-1.4504 -14.4172 -3.5616 0.9421
3.5200 8.5653 -2.2762 0.9626
-0.3892 6.9809 -1.7186 0.9716
-1.4944 6.2705 -1.5844 0.9738
-1.9757 5.9013 -1.5297 0.9747
-2.4162 5.5261 -1.4825 0.9755
-3.1909 4.7611 -1.4088 0.9767
-3.7620 4.6563 -1.4714 0.9756
-4.0969 4.2361 -1.4485 0.9760
-4.6861 3.3729 -1.4192 0.9765
-4.9436 2.9281 -1.4123 0.9766
-5.1779 2.4733 -1.4105 0.9766
-5.3896 2.0071 -1.4137 0.9766
-3.8036 1.0419 -0.9694 0.9839
-3.0843 0.5556 -0.7703 0.9872
-3.0385 -0.5474 -0.8135 0.9873
-5.9512 -1.6302 -1.6259 0.9748
-5.9406 -2.8376 -1.7348 0.9731
-5.8847 -3.4856 -1.8022 0.9721
-5.7900 -4.1674 -1.8798 0.9709
-5.6511 -4.8867 -1.9686 0.9696
-5.2146 -6.4543 -2.1864 0.9663
-3.4224 -10.2221 -2.8405 0.9564
-2.6978 -11.3205 -3.0665 0.9530
-1.8215 -12.4896 -3.3258 0.9491
-0.7656 -13.7302 -3.6235 0.9447
1.2462 7.3881 -1.9743 0.9695
0.5548 7.0993 -1.8764 0.9710
-1.1795 6.1533 -1.6509 0.9744
-1.6625 5.8143 -1.5935 0.9753
-2.1054 5.4665 -1.5436 0.9761
-2.3142 4.7093 -1.3826 0.9785
-2.8854 4.7500 -1.4645 0.9773
-3.4396 4.6683 -1.5279 0.9763
-4.0879 3.8664 -1.4827 0.9770
-4.6329 3.0307 -1.4588 0.9774
-4.8698 2.5986 -1.4545 0.9774
-2.8316 0.3808 -0.7528 0.9883
-2.9007 -0.1294 -0.7651 0.9881
-2.9836 -0.4013 -0.7933 0.9876
-3.0952 -0.7013 -0.8363 0.9870
-5.9552 -2.5252 -1.7045 0.9736
-5.8425 -3.8221 -1.8397 0.9715
-4.2752 -8.6999 -2.5543 0.9607
-3.7353 -9.6985 -2.7385 0.9579
-3.0775 -10.7627 -2.9496 0.9548
-0.1601 -14.3769 -3.7886 0.9423
11.0150 8.3067 -3.6353 0.9445
7.8785 8.5181 -3.0574 0.9531
6.5456 8.4813 -2.8230 0.9567
5.3473 8.3764 -2.6186 0.9597
1.6172 7.5258 -2.0283 0.9687
0.8924 7.2458 -1.9237 0.9703
-0.9213 6.3174 -1.6823 0.9739
-1.4263 5.9853 -1.6213 0.9749
-1.8887 5.6413 -1.5676 0.9757
-2.5625 4.6760 -1.4050 0.9782
-4.5058 3.2430 -1.4628 0.9773
-4.7543 2.8159 -1.4560 0.9774
-4.9797 2.3786 -1.4542 0.9774
-5.1829 1.9301 -1.4573 0.9774
-2.8347 0.2533 -0.7499 0.9883
-2.8279 0.0000 -0.7956 0.9883
-2.8819 -0.2575 -0.8141 0.9880
-5.7056 -1.5629 -1.6645 0.9757
-5.5154 -3.9698 -1.9120 0.9722
-5.3711 -4.6446 -1.9979 0.9709
-4.9292 -6.1010 -2.2068 0.9679
-4.2294 -7.7176 -2.4761 0.9641
-3.7553 -8.5887 -2.6374 0.9618
-3.1824 -9.5054 -2.8203 0.9592
-1.6738 -11.4764 -3.2631 0.9530
-0.6984 -12.5255 -3.5296 0.9492
12.3810 6.9654 -3.9969 0.9427
10.7533 7.3817 -3.6698 0.9472
9.2582 7.6521 -3.3794 0.9513
7.8907 7.8033 -3.1224 0.9549
6.6437 7.8581 -2.8952 0.9581
3.5340 7.6155 -2.3621 0.9657
2.6768 7.4403 -2.2247 0.9677
1.1805 6.9982 -1.9968 0.9709
0.5269 6.7425 -1.9028 0.9723
-1.1245 5.8667 -1.6807 0.9755
-3.3055 4.4863 -1.5679 0.9771
-3.9331 3.7200 -1.5232 0.9778
-4.6888 2.5020 -1.4953 0.9782
-4.8950 2.0757 -1.4960 0.9781
-5.0793 1.6379 -1.5016 0.9781
-2.8531 -0.1272 -0.8035 0.9882
-2.9298 -0.3940 -0.8317 0.9878
-3.0353 -0.6877 -0.8756 0.9872
-3.2049 -1.0335 -0.9474 0.9861
-5.6980 -2.4162 -1.7414 0.9746
-5.5712 -3.6445 -1.8731 0.9727
-5.4490 -4.3031 -1.9535 0.9716
-4.7815 -6.4895 -2.2680 0.9671
-4.4334 -7.2984 -2.4026 0.9651
-4.0038 -8.1475 -2.5542 0.9630
-3.4821 -9.0412 -2.7260 0.9605
-2.1022 -10.9669 -3.1418 0.9547
-0.1455 -13.0632 -3.6756 0.9472
11.5507 7.1938 -3.8286 0.9450
8.5589 7.7411 -3.2469 0.9532
7.2527 7.8415 -3.0053 0.9566
6.0626 7.8555 -2.7919 0.9596
0.2209 6.6078 -1.8602 0.9729
-0.8779 6.0204 -1.7118 0.9750
-4.3373 3.1218 -1.5036 0.9780
-4.9899 1.8583 -1.4981 0.9781
-3.6501 0.9999 -1.0648 0.9844
-2.9229 0.5266 -0.8356 0.9877
-2.7884 0.2492 -0.7877 0.9884
-2.7824 -0.0000 -0.8330 0.9884
-2.8308 -0.2530 -0.8509 0.9882
-2.9224 -0.5265 -0.8890 0.9877
-3.0126 -0.8253 -0.9351 0.9870
-5.4386 -2.5978 -1.8044 0.9751
-5.2635 -3.7885 -1.9415 0.9733
-5.1153 -4.4234 -2.0246 0.9722
-4.9199 -5.0872 -2.1187 0.9709
-4.3619 -6.5084 -2.3456 0.9678
-3.9819 -7.2662 -2.4806 0.9660
-3.5222 -8.0555 -2.6321 0.9640
-2.9721 -8.8771 -2.8026 0.9617
-2.3186 -9.7292 -2.9943 0.9591
-1.5471 -10.6078 -3.2094 0.9562
-0.6416 -11.5063 -3.4501 0.9530
12.6616 5.7050 -4.1577 0.9437
11.1866 6.2934 -3.8427 0.9478
9.7942 6.7233 -3.5566 0.9516
7.2840 7.2032 -3.0669 0.9581
5.1387 7.3099 -2.6751 0.9634
4.1931 7.2626 -2.5106 0.9656
2.5269 7.0234 -2.2346 0.9693
-0.0687 6.1695 -1.8472 0.9746
-1.0762 5.6146 -1.7115 0.9764
-1.5241 5.3301 -1.6597 0.9771
-2.3140 4.7090 -1.5708 0.9783
-2.6646 4.3866 -1.5366 0.9788
-3.7883 3.5830 -1.5611 0.9785
-4.5192 2.4115 -1.5336 0.9788
-3.0564 0.6925 -0.9382 0.9870
-2.7204 0.3658 -0.8218 0.9886
-2.7619 0.1231 -0.8277 0.9885
-2.8066 -0.1252 -0.8411 0.9883
-5.0239 -4.7516 -2.0702 0.9715
-4.8027 -5.4305 -2.1704 0.9702
-3.7626 -7.6567 -2.5541 0.9650
-3.2592 -8.4624 -2.7149 0.9628
-2.6591 -9.2995 -2.8957 0.9604
-1.9485 -10.1655 -3.0988 0.9577
-1.1121 -11.0551 -3.3264 0.9547
-0.1332 -11.9600 -3.5808 0.9513
10.4793 6.5265 -3.6960 0.9498
9.1318 6.8866 -3.4241 0.9534
7.8766 7.1240 -3.1795 0.9566
2.9172 7.0985 -2.2976 0.9685
0.8047 6.5334 -1.9707 0.9729
-1.3056 5.4788 -1.6862 0.9768
-2.1285 4.8680 -1.5906 0.9781
-3.0119 4.4941 -1.6197 0.9777
-3.3421 4.1366 -1.5921 0.9780
-4.4116 2.6130 -1.5351 0.9788
-3.5598 0.9751 -1.1050 0.9847
-2.8473 0.5129 -0.8662 0.9880
-2.7412 0.2449 -0.8239 0.9886
-2.7380 -0.0000 -0.8695 0.9886
-2.9540 -0.8092 -0.9727 0.9872
-4.4366 -5.4913 -2.2420 0.9708
-3.7598 -6.8608 -2.4846 0.9677
-3.3144 -7.5803 -2.6274 0.9659
-1.4372 -9.8545 -3.1627 0.9591
-0.5928 -10.6326 -3.3820 0.9563
4.1864 -13.4954 -4.4874 0.9424
12.7460 4.4259 -4.2850 0.9449
10.1942 5.7352 -3.7147 0.9521
6.7590 6.6841 -3.0189 0.9609
3.9425 6.8285 -2.5041 0.9674
3.1367 6.7593 -2.3665 0.9692
1.7028 6.4994 -2.1338 0.9722
-0.0657 5.8943 -1.8720 0.9756
-1.8589 4.8265 -1.6426 0.9785
-2.2251 4.5280 -1.6023 0.9790
-3.3703 3.8109 -1.6157 0.9789
-3.6525 3.4545 -1.5966 0.9791
-4.1466 2.7126 -1.5736 0.9794
-4.3600 2.3265 -1.5695 0.9795
-4.5516 1.9301 -1.5701 0.9795
-2.9791 0.6750 -0.9701 0.9873
-2.7612 -0.1231 -0.8778 0.9885
-2.8254 -0.3800 -0.9054 0.9881
-5.2390 -2.2215 -1.8072 0.9764
-5.1826 -2.7656 -1.8656 0.9756
-5.0913 -3.3306 -1.9322 0.9748
-4.7883 -4.5288 -2.0931 0.9727
-4.5671 -5.1642 -2.1894 0.9715
-3.9544 -6.5099 -2.4190 0.9685
-3.5468 -7.2177 -2.5540 0.9668
-3.0612 -7.9484 -2.7050 0.9649
-2.4875 -8.6995 -2.8736 0.9627
-1.0305 -10.2435 -3.2696 0.9577
-0.1228 -11.0201 -3.5000 0.9548
0.9208 -11.7831 -3.7535 0.9516
2.1109 -12.5139 -4.0304 0.9481
3.4553 -13.1885 -4.3298 0.9444
10.8187 5.4669 -3.8496 0.9504
7.2897 6.5931 -3.1215 0.9596
6.2461 6.7532 -2.9214 0.9621
5.2731 6.8325 -2.7410 0.9644
3.5318 6.7997 -2.4334 0.9684
0.7665 6.2231 -1.9913 0.9740
0.2009 6.0088 -1.9094 0.9751
-2.3976 4.3752 -1.5844 0.9793
-3.2200 3.9854 -1.6272 0.9787
-3.5145 3.6339 -1.6055 0.9790
-4.0316 2.9018 -1.5775 0.9794
-4.4585 2.1296 -1.5692 0.9795
-3.4729 0.9513 -1.1436 0.9850
-2.7749 0.4999 -0.8954 0.9882
-2.8177 -0.5077 -0.9620 0.9880
-2.8971 -0.7936 -1.0092 0.9874
-4.6642 -4.0333 -2.0717 0.9743
-4.2224 -5.2261 -2.2574 0.9720
-3.1279 -7.1537 -2.6232 0.9676
-2.0278 -8.5090 -2.9389 0.9638
-1.3410 -9.1946 -3.1219 0.9615
-0.5506 -9.8747 -3.3229 0.9591
2.5242 -11.7465 -4.0367 0.9506
5.1962 -12.6440 -4.5929 0.9439
11.5504 4.0107 -4.1080 0.9497
10.4480 4.7076 -3.8502 0.9528
9.3557 5.2634 -3.6067 0.9557
8.2925 5.6925 -3.3794 0.9584
7.2713 6.0099 -3.1695 0.9610
6.3002 6.2303 -2.9770 0.9633
3.7178 6.4395 -2.4982 0.9691
2.9673 6.3942 -2.3684 0.9707
0.4567 5.8438 -1.9694 0.9756
-0.0627 5.6287 -1.8913 0.9765
-0.5437 5.4047 -1.8251 0.9773
-0.9898 5.1639 -1.7665 0.9781
-1.7877 4.6416 -1.6712 0.9792
-2.9534 4.0083 -1.6728 0.9792
-3.2511 3.6761 -1.6489 0.9795
-4.5587 1.4700 -1.6093 0.9800
-2.6271 0.5952 -0.9051 0.9887
-2.6180 0.3521 -0.8875 0.9889
-2.7168 -0.1212 -0.9137 0.9886
-5.0623 -1.6324 -1.7871 0.9778
-5.0331 -2.1343 -1.8368 0.9772
-4.8780 -3.1911 -1.9585 0.9757
-4.7457 -3.7477 -2.0317 0.9748
-4.0796 -5.5369 -2.3107 0.9714
-3.7486 -6.1712 -2.4260 0.9700
-2.3353 -8.1670 -2.8539 0.9648
-0.9593 -9.5360 -3.2201 0.9604
-0.1137 -10.2093 -3.4303 0.9578
0.8485 -10.8582 -3.6593 0.9551
1.9340 -11.4653 -3.9066 0.9521
4.4832 -12.4613 -4.4495 0.9456
5.9362 -12.7920 -4.7381 0.9422
13.1653 2.6760 -4.5137 0.9449
12.0979 3.6055 -4.2414 0.9481
10.9993 4.3776 -3.9775 0.9513
6.7791 6.1313 -3.0711 0.9622
5.8348 6.3085 -2.8871 0.9644
4.9460 6.4087 -2.7199 0.9664
3.3358 6.4227 -2.4316 0.9699
0.7313 5.9379 -2.0101 0.9751
0.1917 5.7337 -1.9275 0.9761
-1.5999 4.7787 -1.6931 0.9790
-3.1053 3.8435 -1.6602 0.9794
-3.3909 3.5062 -1.6388 0.9796
-3.6529 3.1588 -1.6226 0.9798
-3.8922 2.8015 -1.6112 0.9800
-4.1095 2.4341 -1.6048 0.9800
-4.3052 2.0564 -1.6030 0.9801
-2.7169 0.4895 -0.9275 0.9884
-2.6500 0.2368 -0.8939 0.9888
-2.6518 -0.0000 -0.9403 0.9888
-2.6931 -0.2407 -0.9588 0.9886
-2.8417 -0.7784 -1.0448 0.9876
-4.8128 -2.2989 -1.8913 0.9776
-4.7327 -2.8032 -1.9504 0.9769
-4.2683 -4.4134 -2.1771 0.9743
-4.0257 -4.9827 -2.2714 0.9732
-3.7305 -5.5663 -2.3760 0.9720
-2.9595 -6.7686 -2.6195 0.9691
-2.4717 -7.3826 -2.7606 0.9675
-0.5136 -9.2109 -3.2711 0.9616
2.3209 -10.8008 -3.9172 0.9542
6.0587 -11.6650 -4.6609 0.9457
13.1264 0.8787 -4.6648 0.9457
12.3486 1.9417 -4.4324 0.9483
10.5507 3.6636 -3.9602 0.9537
5.8954 5.8301 -2.9400 0.9654
5.0567 5.9811 -2.7772 0.9673
3.5154 6.0887 -2.4930 0.9706
2.8137 6.0632 -2.3701 0.9720
2.1568 5.9949 -2.2591 0.9733
1.5431 5.8897 -2.1589 0.9745
0.9704 5.7533 -2.0688 0.9755
0.4361 5.5800 -1.9846 0.9765
-0.0601 5.3932 -1.9125 0.9774
-0.5217 5.1861 -1.8482 0.9781
-1.7210 4.4685 -1.6979 0.9799
-2.5367 4.1759 -1.7325 0.9795
-2.8500 3.8680 -1.7036 0.9798
-3.1389 3.5492 -1.6801 0.9801
-3.4044 3.2199 -1.6616 0.9803
-3.6475 2.8804 -1.6480 0.9805
-3.8687 2.5308 -1.6393 0.9806
-4.2472 1.8010 -1.6358 0.9806
-2.5615 0.5804 -0.9313 0.9889
-2.6346 0.1174 -0.9351 0.9889
-2.7260 -0.3666 -0.9753 0.9884
-2.8093 -0.6365 -1.0214 0.9878
-4.7770 -2.5491 -1.9199 0.9773
-4.5458 -3.5899 -2.0539 0.9757
-4.3717 -4.1348 -2.1337 0.9748
-4.1532 -4.6961 -2.2230 0.9737
-3.8853 -5.2733 -2.3226 0.9726
-1.5922 -8.3063 -2.9989 0.9647
-0.1058 -9.5022 -3.3696 0.9605
1.7829 -10.5697 -3.8008 0.9555
4.0887 -11.3645 -4.2826 0.9500
5.3829 -11.5999 -4.5345 0.9472
11.0193 3.2841 -4.0771 0.9524
10.0752 4.0098 -3.8450 0.9550
8.1625 5.0836 -3.4097 0.9600
6.3308 5.7258 -3.0268 0.9644
5.4706 5.9147 -2.8568 0.9664
3.8834 6.0831 -2.5591 0.9698
3.1588 6.0817 -2.4300 0.9713
2.4797 6.0340 -2.3132 0.9727
1.2518 5.8253 -2.1127 0.9750
-1.8957 4.3356 -1.6779 0.9801
-2.9974 3.7099 -1.6912 0.9800
-3.2745 3.3859 -1.6702 0.9802
-3.5287 3.0514 -1.6542 0.9804
-3.9713 2.3522 -1.6366 0.9806
-4.1605 1.9873 -1.6349 0.9806
-4.3287 1.6121 -1.6379 0.9806
-2.6623 0.4796 -0.9592 0.9886
-2.6060 0.2329 -0.9277 0.9890
-2.6497 -0.2368 -0.9934 0.9887
-2.7878 -0.7637 -1.0794 0.9877
-4.6823 -1.7437 -1.8657 0.9789
-4.6312 -2.2121 -1.9165 0.9783
-4.4321 -3.1901 -2.0391 0.9770
-4.0839 -4.2227 -2.1936 0.9752
-3.8446 -4.7585 -2.2844 0.9742
-2.8066 -6.4189 -2.6160 0.9705
-2.3375 -6.9818 -2.7493 0.9691
-1.7973 -7.5418 -2.8950 0.9674
0.3052 -9.1269 -3.4100 0.9618
1.1807 -9.5866 -3.6068 0.9596
2.1462 -9.9872 -3.8145 0.9573
3.1982 -10.3098 -4.0307 0.9550
6.7610 -10.5908 -4.6919 0.9478
8.0125 -10.3821 -4.8970 0.9455
9.2416 -9.9919 -5.0823 0.9435
10.4059 -9.4116 -5.2392 0.9419
11.2448 1.7682 -4.2505 0.9526
10.5020 2.6267 -4.0423 0.9548
8.0145 4.5090 -3.4338 0.9615
6.3391 5.2394 -3.0710 0.9655
5.5356 5.4742 -2.9071 0.9673
4.7642 5.6351 -2.7554 0.9690
4.0289 5.7311 -2.6159 0.9705
3.3318 5.7707 -2.4882 0.9719
2.6737 5.7615 -2.3718 0.9732
2.0542 5.7096 -2.2658 0.9744
0.4177 5.3451 -2.0020 0.9774
-0.0576 5.1740 -1.9322 0.9781
-0.9147 4.7721 -1.8144 0.9795
-1.2998 4.5459 -1.7655 0.9800
-1.6583 4.3059 -1.7230 0.9805
-2.0034 4.0770 -1.6963 0.9808
-2.4484 4.0307 -1.7610 0.9801
-2.7524 3.7357 -1.7327 0.9804
-3.2907 3.1123 -1.6914 0.9808
-3.5266 2.7850 -1.6780 0.9810
-3.7412 2.4474 -1.6694 0.9811
-4.1075 1.7417 -1.6660 0.9811
-4.2595 1.3735 -1.6712 0.9811
-2.5436 0.5763 -0.9739 0.9889
-2.6307 -0.1173 -0.9833 0.9888
-2.6781 -0.3602 -1.0090 0.9885
-2.8043 -0.9042 -1.1002 0.9875
-4.6605 -1.9762 -1.8903 0.9786
-3.9701 -4.4891 -2.2378 0.9747
-3.3898 -5.5804 -2.4381 0.9725
-3.0163 -6.1382 -2.5539 0.9712
-2.5806 -6.7004 -2.6811 0.9698
-2.0766 -7.2625 -2.8206 0.9683
-1.4987 -7.8187 -2.9727 0.9666
-0.0989 -8.8800 -3.3161 0.9628
0.7317 -9.3631 -3.5069 0.9607
1.6523 -9.7954 -3.7094 0.9585
6.1384 -10.6320 -4.5843 0.9489
7.3871 -10.5082 -4.7964 0.9466
9.8346 -9.7257 -5.1648 0.9427
13.7583 -2.1634 -5.2006 0.9423
13.4546 -0.9007 -5.0353 0.9440
11.5844 1.2959 -4.3527 0.9514
10.8828 2.2120 -4.1468 0.9537
10.1061 3.0119 -3.9378 0.9560
9.2850 3.6953 -3.7316 0.9582
8.4401 4.2649 -3.5311 0.9604
6.7512 5.0912 -3.1574 0.9645
5.9336 5.3667 -2.9875 0.9664
5.1456 5.5633 -2.8297 0.9682
4.3919 5.6906 -2.6842 0.9698
3.6755 5.7574 -2.5506 0.9713
0.6678 5.4220 -2.0399 0.9769
0.1760 5.2623 -1.9661 0.9778
-0.7116 4.8793 -1.8413 0.9792
-1.1107 4.6609 -1.7892 0.9797
-3.1646 3.2722 -1.6998 0.9808
-3.4114 2.9500 -1.6841 0.9809
-3.6365 2.6174 -1.6731 0.9811
-3.8406 2.2748 -1.6668 0.9811
-4.1861 1.5589 -1.6680 0.9811
-2.6096 0.4701 -0.9901 0.9887
-2.5629 0.2290 -0.9608 0.9891
-2.6072 -0.2330 -1.0273 0.9888
-2.6685 -0.4808 -1.0642 0.9884
-2.7221 -0.7457 -1.1077 0.9879
-4.2589 -3.0654 -2.0594 0.9777
-3.9127 -4.0458 -2.2089 0.9761
-2.6671 -6.0999 -2.6129 0.9718
-2.2157 -6.6180 -2.7391 0.9705
-1.6989 -7.1291 -2.8763 0.9690
-1.1123 -7.6265 -3.0249 0.9674
-0.4517 -8.1017 -3.1846 0.9657
0.2857 -8.5443 -3.3553 0.9639
1.1013 -8.9418 -3.5359 0.9620
3.9894 -9.7076 -4.1191 0.9559
6.1811 -9.6825 -4.5084 0.9518
8.3891 -9.0702 -4.8489 0.9483
10.3512 -7.8062 -5.0883 0.9458
12.2268 -4.8662 -5.1648 0.9450
12.5140 -2.5436 -5.0118 0.9466
12.3649 -1.3832 -4.8831 0.9479
12.0425 -0.2684 -4.7275 0.9496
11.5313 0.7719 -4.5358 0.9516
9.6698 2.4186 -3.9120 0.9581
7.4684 4.2017 -3.3632 0.9638
6.7059 4.6033 -3.1923 0.9657
5.2135 5.1557 -2.8777 0.9690
3.8168 5.4294 -2.6047 0.9719
3.1642 5.4806 -2.4837 0.9732
2.5452 5.4848 -2.3731 0.9744
1.9598 5.4472 -2.2720 0.9754
1.4056 5.3652 -2.1767 0.9764
0.8872 5.2596 -2.0934 0.9773
-0.0553 4.9696 -1.9505 0.9789
-1.2527 4.3812 -1.7884 0.9806
-1.9960 4.0619 -1.7763 0.9807
-2.3652 3.8936 -1.7880 0.9806
-2.6603 3.6106 -1.7602 0.9809
-2.9327 3.3160 -1.7374 0.9812
-3.1831 3.0106 -1.7195 0.9813
-3.4121 2.6946 -1.7064 0.9815
-3.9751 1.6856 -1.6946 0.9816
-4.1218 1.3291 -1.6997 0.9816
-2.5568 0.5793 -1.0289 0.9888
-2.6312 -0.3539 -1.0420 0.9887
-2.7054 -0.6130 -1.0887 0.9882
-2.7235 -0.8783 -1.1231 0.9878
-4.3219 -2.8273 -2.0269 0.9781
-4.1868 -3.3064 -2.0938 0.9773
-3.8005 -4.2973 -2.2515 0.9757
-3.5412 -4.8061 -2.3430 0.9747
-3.2322 -5.3210 -2.4434 0.9736
-2.8698 -5.8399 -2.5538 0.9724
-1.9658 -6.8748 -2.8063 0.9697
-0.0928 -8.3279 -3.2686 0.9648
1.5382 -9.1191 -3.6295 0.9610
4.5243 -9.7496 -4.2184 0.9549
8.9141 -8.8153 -4.9203 0.9476
9.8998 -8.1824 -5.0407 0.9463
12.3744 -4.2969 -5.1410 0.9453
12.5174 -3.1308 -5.0640 0.9461
12.4624 -1.9596 -4.9512 0.9472
12.2239 -0.8183 -4.8083 0.9487
7.8464 3.9649 -3.4503 0.9629
7.0874 4.4140 -3.2769 0.9648
6.3266 4.7711 -3.1099 0.9665
4.1549 5.3836 -2.6690 0.9712
3.4866 5.4616 -2.5431 0.9725
2.8506 5.4882 -2.4272 0.9738
2.2484 5.4711 -2.3215 0.9749
1.6771 5.4064 -2.2216 0.9760
0.6400 5.1963 -2.0548 0.9778
-0.2722 4.8830 -1.9194 0.9792
-0.6848 4.6952 -1.8622 0.9798
-1.0700 4.4899 -1.8115 0.9804
-1.4292 4.2688 -1.7668 0.9808
-3.0606 3.1646 -1.7279 0.9813
-3.3003 2.8539 -1.7124 0.9814
-3.5188 2.5327 -1.7016 0.9815
-3.7167 2.2014 -1.6954 0.9816
-4.0510 1.5086 -1.6966 0.9816
-2.5634 0.4618 -1.0222 0.9889
-2.5289 0.0000 -1.0414 0.9891
-2.6410 -0.7235 -1.1276 0.9882
-4.3003 -2.0541 -1.9624 0.9796
-4.2146 -2.4963 -2.0171 0.9790
-3.9439 -3.4104 -2.1470 0.9777
-3.7533 -3.8809 -2.2232 0.9769
-3.5211 -4.3582 -2.3072 0.9761
-2.9175 -5.3239 -2.4999 0.9741
-2.5392 -5.8074 -2.6100 0.9730
-1.6097 -6.7547 -2.8593 0.9704
-1.0510 -7.2064 -2.9989 0.9690
-0.4256 -7.6332 -3.1481 0.9675
0.2684 -8.0253 -3.3065 0.9659
1.8605 -8.6579 -3.6466 0.9624
2.7517 -8.8706 -3.8244 0.9606
3.6960 -8.9936 -4.0039 0.9588
4.6804 -9.0112 -4.1813 0.9570
5.6870 -8.9084 -4.3521 0.9553
7.6721 -8.2950 -4.6527 0.9523
8.5937 -7.7725 -4.7714 0.9511
9.4268 -7.1090 -4.8618 0.9502
10.1415 -6.3162 -4.9198 0.9496
11.3536 -3.3837 -4.8784 0.9500
11.3013 -1.2642 -4.6827 0.9520
9.5120 1.4957 -3.9650 0.9592
8.3299 2.8924 -3.6310 0.9626
7.6681 3.4551 -3.4633 0.9643
6.9830 3.9286 -3.2993 0.9659
4.9229 4.8683 -2.8510 0.9705
3.0110 5.2150 -2.4797 0.9743
2.4238 5.2231 -2.3711 0.9754
1.3455 5.1357 -2.1862 0.9773
-0.4640 4.6126 -1.9090 0.9801
-0.8487 4.4278 -1.8565 0.9807
-1.2084 4.2261 -1.8100 0.9812
-1.5440 4.0091 -1.7691 0.9816
-3.0810 2.9140 -1.7463 0.9818
-3.6875 1.9678 -1.7211 0.9821
-2.5479 -0.1136 -1.0502 0.9890
-2.5854 -0.3477 -1.0742 0.9888
-2.6299 -0.5959 -1.1104 0.9884
-3.8535 -3.6447 -2.1841 0.9773
-3.6428 -4.1190 -2.2643 0.9765
-3.3881 -4.5985 -2.3520 0.9756
-3.0868 -5.0817 -2.4484 0.9746
-2.7352 -5.5660 -2.5538 0.9735
-2.3292 -6.0477 -2.6686 0.9724
-1.8649 -6.5221 -2.7933 0.9711
-0.7468 -7.4235 -3.0723 0.9682
-0.0873 -7.8343 -3.2262 0.9667
0.6412 -8.2049 -3.3889 0.9650
3.2179 -8.9443 -3.9142 0.9597
6.1918 -8.8078 -4.4334 0.9545
7.1879 -8.5018 -4.5844 0.9530
8.1420 -8.0518 -4.7153 0.9517
10.4463 -5.8770 -4.9356 0.9495
10.9374 -4.9282 -4.9399 0.9494
11.2588 -3.9095 -4.9077 0.9497
11.3768 -1.7889 -4.7423 0.9514
8.6468 2.5770 -3.7153 0.9617
6.6364 4.1331 -3.2194 0.9667
5.9463 4.4841 -3.0667 0.9683
4.5896 4.9622 -2.7833 0.9712
3.9393 5.1042 -2.6550 0.9725
2.1431 5.2149 -2.3217 0.9759
1.6040 5.1706 -2.2293 0.9769
1.0945 5.0930 -2.1451 0.9777
-0.6595 4.5224 -1.8820 0.9804
-1.0316 4.3289 -1.8325 0.9809
-1.3792 4.1194 -1.7889 0.9814
-2.1346 3.8952 -1.8290 0.9810
-2.4324 3.6295 -1.7992 0.9813
-3.4071 2.4523 -1.7286 0.9820
-3.9227 1.4608 -1.7237 0.9821
-3.5071 0.9607 -1.4974 0.9844
-2.5181 0.4536 -1.0536 0.9890
-2.4792 0.2215 -1.0250 0.9893
-2.5221 -0.2254 -1.0923 0.9890
-2.5389 -0.4574 -1.1128 0.9888
-2.5507 -0.6987 -1.1408 0.9885
-2.5687 -0.9566 -1.1824 0.9881
-4.1490 -1.9818 -1.9834 0.9802
-4.0624 -2.4062 -2.0367 0.9796
-3.9444 -2.8390 -2.0963 0.9791
-3.3761 -4.1787 -2.3173 0.9769
-3.1048 -4.6328 -2.4057 0.9760
-2.0028 -5.9820 -2.7212 0.9729
-1.5283 -6.4132 -2.8438 0.9717
0.2528 -7.5599 -3.2628 0.9676
1.7422 -8.1074 -3.5770 0.9645
3.4395 -8.3696 -3.9032 0.9613
6.1745 -8.0005 -4.3593 0.9569
7.0603 -7.6336 -4.4853 0.9557
7.8924 -7.1382 -4.5903 0.9547
8.6441 -6.5188 -4.6701 0.9539
9.8095 -4.9569 -4.7409 0.9532
10.3948 -1.1628 -4.5118 0.9555
9.8343 0.6583 -4.2516 0.9580
9.1256 1.4349 -3.9847 0.9606
8.3240 2.0819 -3.7012 0.9633
7.7704 2.6982 -3.5481 0.9648
7.1754 3.2331 -3.3948 0.9663
5.9203 4.0640 -3.0976 0.9692
3.4420 4.8963 -2.5817 0.9743
2.3150 4.9886 -2.3723 0.9763
1.7891 4.9729 -2.2797 0.9772
1.2896 4.9223 -2.1949 0.9781
0.3698 4.7320 -2.0474 0.9795
-0.4471 4.4443 -1.9268 0.9807
-1.5166 3.9378 -1.8202 0.9818
-1.9113 3.8895 -1.8694 0.9813
-2.2117 3.6410 -1.8376 0.9816
-2.4901 3.3797 -1.8109 0.9819
-3.5730 1.9066 -1.7470 0.9825
-3.7298 1.5816 -1.7475 0.9825
-3.8667 1.2469 -1.7525 0.9825
-2.5715 0.5826 -1.1373 0.9886
-2.4106 0.3242 -1.0492 0.9895
-2.4654 0.1099 -1.0646 0.9893
-2.5076 -0.1118 -1.0828 0.9891
-2.5276 -0.3399 -1.1001 0.9890
-2.5665 -0.8276 -1.1632 0.9883
-2.6695 -1.1320 -1.2508 0.9874
-4.1095 -2.1929 -2.0093 0.9799
-3.7033 -3.5026 -2.1988 0.9780
-3.4955 -3.9525 -2.2761 0.9773
-3.2460 -4.4055 -2.3605 0.9764
-2.9522 -4.8601 -2.4529 0.9755
-2.6110 -5.3133 -2.5537 0.9745
-2.2189 -5.7613 -2.6632 0.9735
-1.7727 -6.1995 -2.7814 0.9723
-0.0823 -7.3903 -3.1881 0.9683
2.9993 -8.3366 -3.8217 0.9621
3.8878 -8.3780 -3.9841 0.9606
4.8006 -8.3149 -4.1416 0.9590
5.7195 -8.1361 -4.2900 0.9576
7.4848 -7.4018 -4.5407 0.9552
8.2799 -6.8435 -4.6336 0.9543
9.6237 1.0766 -4.1772 0.9587
6.8672 3.4701 -3.3189 0.9670
4.9685 4.4938 -2.8898 0.9712
3.7382 4.8437 -2.6392 0.9737
2.0488 4.9854 -2.3250 0.9768
1.0498 4.8852 -2.1554 0.9785
0.5899 4.7896 -2.0816 0.9792
0.1561 4.6683 -2.0148 0.9799
-0.6358 4.3597 -1.9005 0.9810
-0.9954 4.1772 -1.8523 0.9815
-1.3319 3.9783 -1.8097 0.9819
-1.7398 3.9792 -1.8734 0.9813
-3.3008 2.3758 -1.7543 0.9824
-3.6539 1.7453 -1.7467 0.9825
-3.8007 1.4154 -1.7495 0.9825
-3.9277 1.0759 -1.7567 0.9824
-2.4719 0.4453 -1.0835 0.9891
-2.4387 0.2179 -1.0561 0.9894
-2.4592 -0.4431 -1.1275 0.9891
-4.0061 -1.9135 -2.0032 0.9807
-3.9188 -2.3211 -2.0551 0.9802
-3.8010 -2.7358 -2.1132 0.9797
-3.6506 -3.1568 -2.1777 0.9790
-3.4650 -3.5828 -2.2490 0.9784
-3.2406 -4.0110 -2.3267 0.9776
-2.9757 -4.4401 -2.4118 0.9768
-2.6674 -4.8675 -2.5044 0.9759
-1.9091 -5.7022 -2.7133 0.9740
-0.9447 -6.4777 -2.9537 0.9717
-0.3806 -6.8270 -3.0852 0.9704
1.6366 -7.6161 -3.5149 0.9664
2.4065 -7.7576 -3.6649 0.9650
3.2133 -7.8191 -3.8144 0.9636
4.0457 -7.7894 -3.9605 0.9622
7.9726 -6.0124 -4.5057 0.9571
9.0368 -4.5665 -4.5686 0.9565
9.3849 -3.7351 -4.5576 0.9566
9.1339 0.6115 -4.1306 0.9606
7.7716 1.9438 -3.6147 0.9655
6.7362 3.0352 -3.3338 0.9681
6.1699 3.4711 -3.1943 0.9694
5.0004 4.1330 -2.9272 0.9719
3.2794 4.6650 -2.5730 0.9753
2.7364 4.7396 -2.4694 0.9763
2.2141 4.7712 -2.3734 0.9772
1.7141 4.7644 -2.2847 0.9780
-0.7901 4.1221 -1.8938 0.9818
-1.5120 3.9259 -1.8983 0.9817
-1.8490 3.7627 -1.8917 0.9818
-2.1407 3.5242 -1.8606 0.9821
-2.4114 3.2728 -1.8343 0.9823
-3.1018 2.4495 -1.7834 0.9828
-3.6158 1.5333 -1.7722 0.9829
-3.7482 1.2087 -1.7770 0.9829
-2.3567 0.3170 -1.0730 0.9896
-2.4105 0.1075 -1.0887 0.9895
-2.4891 -1.0555 -1.2199 0.9882
-3.9661 -2.1164 -2.0284 0.9805
-3.7301 -2.9456 -2.1446 0.9794
-3.5624 -3.3693 -2.2125 0.9787
-3.1134 -4.2256 -2.3683 0.9772
0.5688 -7.2794 -3.2946 0.9685
1.2683 -7.5190 -3.4406 0.9671
2.0163 -7.6961 -3.5898 0.9657
2.8059 -7.7991 -3.7399 0.9643
3.6272 -7.8164 -3.8881 0.9629
5.3088 -7.5518 -4.1652 0.9603
6.1331 -7.2542 -4.2863 0.9592
7.6414 -6.3157 -4.4732 0.9574
9.2275 -4.1577 -4.5667 0.9566
9.6516 -2.4140 -4.4891 0.9573
9.6585 -1.5187 -4.4116 0.9580
9.5356 -0.6383 -4.3122 0.9589
9.2944 0.2071 -4.1948 0.9600
8.9496 1.0011 -4.0634 0.9613
7.5293 2.2440 -3.5450 0.9661
7.0098 2.7898 -3.4042 0.9674
5.8802 3.6622 -3.1257 0.9701
5.2943 3.9926 -2.9920 0.9713
4.7073 4.2575 -2.8639 0.9725
4.1266 4.4616 -2.7422 0.9737
3.5579 4.6100 -2.6276 0.9748
3.0055 4.7080 -2.5203 0.9758
1.9612 4.7723 -2.3281 0.9776
1.0081 4.6910 -2.1650 0.9792
0.5673 4.6055 -2.0938 0.9798
0.1503 4.4944 -2.0291 0.9805
-0.2431 4.3605 -1.9706 0.9810
-0.9612 4.0337 -1.8710 0.9820
-1.3021 3.8894 -1.8507 0.9822
-2.5390 3.1426 -1.8230 0.9824
-2.7790 2.8736 -1.8038 0.9826
-2.9992 2.5935 -1.7891 0.9828
-3.1996 2.3030 -1.7788 0.9828
-3.6845 1.3721 -1.7741 0.9829
-2.4063 0.4335 -1.1032 0.9893
-2.3848 0.2131 -1.0804 0.9895
-2.4034 -0.8950 -1.2089 0.9887
-3.7830 -2.2407 -2.0726 0.9807
-3.5169 -3.0412 -2.1917 0.9796
-3.1138 -3.8541 -2.3356 0.9783
-2.2119 -5.0589 -2.6026 0.9759
-0.8983 -6.1593 -2.9340 0.9729
-0.3611 -6.4772 -3.0580 0.9717
0.2260 -6.7584 -3.1876 0.9705
2.2614 -7.2900 -3.5979 0.9668
3.0122 -7.3298 -3.7355 0.9656
3.7835 -7.2845 -3.8693 0.9644
4.5615 -7.1455 -3.9960 0.9632
5.3301 -6.9064 -4.1123 0.9622
7.9298 -4.9387 -4.4036 0.9595
8.9725 -1.8237 -4.3159 0.9603
8.7754 -0.1955 -4.1375 0.9619
6.8323 2.3724 -3.4092 0.9685
6.3422 2.8576 -3.2790 0.9697
5.8233 3.2761 -3.1495 0.9709
5.2866 3.6291 -3.0226 0.9720
4.1966 4.1501 -2.7821 0.9742
0.3427 4.3846 -2.0731 0.9807
-0.0475 4.2710 -2.0134 0.9813
-1.4855 3.8571 -1.9483 0.9819
-1.7897 3.6421 -1.9129 0.9822
-2.0732 3.4130 -1.8824 0.9825
-2.3364 3.1710 -1.8567 0.9827
-2.5797 2.9169 -1.8355 0.9829
-2.8034 2.6515 -1.8189 0.9831
-3.0079 2.3754 -1.8067 0.9832
-3.1933 2.0890 -1.7987 0.9833
-3.5071 1.4871 -1.7956 0.9833
-2.5265 0.5724 -1.2211 0.9886
-2.2973 0.3089 -1.0926 0.9898
-2.3694 -0.1057 -1.1180 0.9896
-2.3893 -0.5414 -1.1548 0.9892
-2.3945 -0.7721 -1.1859 0.9889
-3.8304 -2.0440 -2.0466 0.9810
-3.7283 -2.4389 -2.1001 0.9805
-3.4299 -3.2440 -2.2254 0.9793
-3.2285 -3.6506 -2.2972 0.9787
-2.7106 -4.4623 -2.4611 0.9772
-2.0231 -5.2529 -2.6534 0.9754
-1.6099 -5.6304 -2.7604 0.9744
-0.0738 -6.6229 -3.1221 0.9711
1.1963 -7.0920 -3.3902 0.9687
2.6335 -7.3200 -3.6670 0.9662
4.1726 -7.2271 -3.9337 0.9638
4.9481 -7.0387 -4.0557 0.9627
5.7052 -6.7480 -4.1653 0.9617
7.0866 -5.8572 -4.3337 0.9602
7.6717 -5.2663 -4.3863 0.9597
8.1624 -4.5921 -4.4147 0.9594
8.5445 -3.8500 -4.4177 0.9594
8.9486 -2.2382 -4.3481 0.9600
8.9662 -1.4099 -4.2784 0.9607
8.6587 0.1930 -4.0825 0.9624
8.3554 0.9347 -3.9631 0.9635
7.9710 1.6202 -3.8342 0.9647
7.0627 2.1049 -3.4739 0.9679
6.5916 2.6234 -3.3442 0.9691
6.0856 3.0752 -3.2140 0.9703
5.0147 3.7817 -2.9606 0.9726
4.4688 4.0418 -2.8402 0.9737
2.3659 4.5550 -2.4195 0.9776
1.8797 4.5739 -2.3310 0.9784
-0.5923 4.0611 -1.9345 0.9820
-1.2983 3.8778 -1.9276 0.9821
-1.9341 3.5292 -1.8970 0.9824
-2.2073 3.2936 -1.8689 0.9826
-2.4605 3.0454 -1.8455 0.9828
-2.9081 2.5147 -1.8123 0.9831
-3.2789 1.9421 -1.7964 0.9833
-3.4358 1.6411 -1.7948 0.9833
-3.6920 1.0113 -1.8044 0.9832
-2.3242 0.2077 -1.1000 0.9897
-2.2975 0.0000 -1.1300 0.9898
-2.3094 -0.2064 -1.1404 0.9897
-2.3278 -0.8669 -1.2217 0.9890
-2.3666 -1.1304 -1.2900 0.9884
-3.6545 -2.1646 -2.0891 0.9812
-3.5379 -2.5465 -2.1440 0.9808
-3.3907 -2.9321 -2.2048 0.9802
-2.4508 -4.4723 -2.5084 0.9775
-1.3218 -5.5466 -2.8045 0.9749
-0.8555 -5.8663 -2.9159 0.9739
-0.3433 -6.1568 -3.0330 0.9729
0.8154 -6.6199 -3.2806 0.9707
2.8322 -6.8917 -3.6648 0.9673
3.5498 -6.8345 -3.7879 0.9663
4.9815 -6.4547 -4.0103 0.9643
5.6646 -6.1244 -4.1032 0.9635
8.0849 -3.2177 -4.2800 0.9620
8.3301 -0.9319 -4.1227 0.9633
8.1981 -0.1827 -4.0333 0.9641
7.6638 1.2051 -3.8158 0.9660
7.2860 1.8223 -3.6940 0.9671
6.4348 2.2344 -3.3504 0.9701
5.5089 3.0992 -3.1089 0.9722
5.0121 3.4406 -2.9902 0.9733
3.4887 4.1264 -2.6577 0.9762
2.9904 4.2539 -2.5575 0.9771
2.0329 4.3807 -2.3753 0.9787
1.1429 4.3622 -2.2180 0.9801
0.3303 4.2258 -2.0848 0.9813
-0.4018 3.9941 -1.9744 0.9823
-1.0956 3.8315 -1.9601 0.9824
-1.7333 3.5272 -1.9331 0.9826
-2.0089 3.3071 -1.9032 0.9829
-2.5015 2.8286 -1.8573 0.9833
-2.7193 2.5719 -1.8410 0.9835
-2.9182 2.3045 -1.8289 0.9836
-3.0985 2.0269 -1.8211 0.9836
-3.4030 1.4430 -1.8181 0.9837
-3.5271 1.1373 -1.8228 0.9836
-2.5041 0.5673 -1.2629 0.9886
-2.2893 0.1021 -1.1271 0.9898
-2.3142 -0.5243 -1.1671 0.9895
-2.3173 -0.7472 -1.1976 0.9892
-3.5999 -2.3550 -2.1159 0.9810
-3.4683 -2.7389 -2.1737 0.9805
-2.2898 -4.6596 -2.5536 0.9771
-1.5377 -5.3778 -2.7511 0.9754
-1.0944 -5.7097 -2.8595 0.9744
0.5096 -6.5214 -3.2174 0.9713
1.7897 -6.8310 -3.4732 0.9690
6.5998 -5.4549 -4.2114 0.9626
8.1952 -2.8457 -4.2669 0.9621
8.3321 -2.0840 -4.2244 0.9624
8.3577 -1.3142 -4.1613 0.9630
7.8275 0.8756 -3.8740 0.9655
6.7392 2.0085 -3.4588 0.9691
6.2150 2.4735 -3.2901 0.9706
5.7507 2.9059 -3.1691 0.9717
5.2623 3.2774 -3.0492 0.9727
4.2501 3.8439 -2.8186 0.9748
3.7412 4.0449 -2.7100 0.9757
2.2665 4.3637 -2.4186 0.9783
1.8035 4.3885 -2.3337 0.9791
1.3584 4.3789 -2.2550 0.9798
0.9323 4.3382 -2.1825 0.9804
0.5259 4.2696 -2.1159 0.9810
0.1396 4.1761 -2.0552 0.9815
-0.5722 3.9235 -1.9502 0.9825
-0.9050 3.7979 -1.9203 0.9827
-1.5881 3.6321 -1.9498 0.9825
-1.8736 3.4189 -1.9175 0.9828
-2.1393 3.1921 -1.8900 0.9830
-3.0107 2.1670 -1.8245 0.9836
-3.3339 1.5925 -1.8173 0.9837
-3.5820 0.9812 -1.8267 0.9836
-2.2658 0.2025 -1.1189 0.9899
-2.2358 -0.0000 -1.1463 0.9900
-2.2443 -0.2006 -1.1552 0.9899
-3.2714 -2.8289 -2.2173 0.9807
-3.0938 -3.1990 -2.2816 0.9802
-2.8828 -3.5681 -2.3517 0.9796
-2.3530 -4.2937 -2.5101 0.9782
-2.0306 -4.6441 -2.5985 0.9775
-0.3268 -5.8621 -3.0100 0.9740
4.6710 -6.0523 -3.9194 0.9662
5.8945 -5.3312 -4.0746 0.9649
6.8889 -4.2904 -4.1606 0.9642
7.2659 -3.6716 -4.1736 0.9641
7.5493 -3.0046 -4.1655 0.9641
7.7330 -2.3047 -4.1368 0.9644
7.8151 -1.5885 -4.0885 0.9648
7.7972 -0.8723 -4.0223 0.9653
7.6843 -0.1713 -3.9405 0.9660
6.1679 2.1417 -3.3473 0.9711
5.6636 2.5519 -3.1847 0.9725
5.2223 2.9380 -3.0719 0.9734
4.7608 3.2681 -2.9604 0.9744
3.3324 3.9415 -2.6461 0.9771
2.3998 4.1566 -2.4606 0.9787
0.7000 4.1499 -2.1576 0.9813
-0.3883 3.8596 -1.9887 0.9827
-1.9474 3.2059 -1.9231 0.9833
-3.0077 1.9675 -1.8426 0.9840
-3.3035 1.4008 -1.8396 0.9840
-2.4709 0.5598 -1.2989 0.9887
-2.2319 0.0995 -1.1453 0.9900
-2.2530 -0.7265 -1.2136 0.9894
-2.3836 -1.2720 -1.3851 0.9879
-3.4782 -2.2754 -2.1309 0.9815
-3.1867 -3.0140 -2.2487 0.9805
-2.7642 -3.7516 -2.3890 0.9793
-2.1968 -4.4704 -2.5536 0.9779
-1.4706 -5.1432 -2.7425 0.9762
-1.0449 -5.4513 -2.8456 0.9754
-0.5767 -5.7330 -2.9540 0.9744
-0.0666 -5.9821 -3.0670 0.9735
0.4838 -6.1912 -3.1837 0.9725
1.0716 -6.3529 -3.3029 0.9715
1.6922 -6.4591 -3.4231 0.9704
2.3392 -6.5018 -3.5424 0.9694
3.6764 -6.3676 -3.7695 0.9675
4.9917 -5.9041 -3.9637 0.9658
6.1692 -5.0989 -4.1032 0.9647
7.0886 -3.9880 -4.1697 0.9641
7.4197 -3.3432 -4.1722 0.9641
7.7868 -1.9476 -4.1150 0.9646
7.8184 -1.2294 -4.0575 0.9650
7.7522 -0.5190 -3.9832 0.9657
6.6734 1.9889 -3.5700 0.9692
5.8738 2.3377 -3.2411 0.9720
5.4461 2.7520 -3.1282 0.9729
4.9935 3.1100 -3.0159 0.9739
4.5252 3.4126 -2.9056 0.9748
4.0487 3.6618 -2.7986 0.9758
3.0958 4.0113 -2.5977 0.9775
2.6291 4.1184 -2.5049 0.9783
2.1737 4.1851 -2.4177 0.9790
1.7322 4.2149 -2.3362 0.9797
1.3064 4.2112 -2.2605 0.9804
0.8977 4.1773 -2.1905 0.9810
0.5070 4.1159 -2.1261 0.9815
0.1348 4.0299 -2.0671 0.9820
-0.9024 3.7868 -1.9957 0.9827
-1.2416 3.7085 -2.0050 0.9826
-2.0743 3.0951 -1.9102 0.9834
-2.5351 2.6212 -1.8695 0.9837
-2.7378 2.3675 -1.8556 0.9839
-2.9223 2.1034 -1.8459 0.9839
-3.0885 1.8293 -1.8403 0.9840
-3.3659 1.2535 -1.8414 0.9840
-3.4767 0.9524 -1.8481 0.9839
-2.2585 0.4069 -1.1765 0.9897
-2.2093 0.1974 -1.1372 0.9901
-2.1765 -0.0000 -1.1619 0.9902
-2.1873 -0.5992 -1.2107 0.9898
-2.1932 -0.8168 -1.2494 0.9894
-2.2033 -1.0525 -1.3035 0.9890
-3.1581 -2.7310 -2.2289 0.9812
-2.2612 -4.1262 -2.5118 0.9789
-1.5981 -4.7732 -2.6872 0.9774
-1.2085 -5.0710 -2.7829 0.9766
0.1939 -5.7989 -3.0974 0.9740
1.9055 -6.1427 -3.4334 0.9713
4.3924 -5.6914 -3.8379 0.9679
4.9811 -5.3855 -3.9162 0.9673
5.5299 -5.0015 -3.9804 0.9668
6.4544 -4.0198 -4.0592 0.9661
7.0727 -2.8148 -4.0637 0.9661
7.2480 -2.1601 -4.0375 0.9663
7.3303 -1.4900 -3.9932 0.9667
7.3208 -0.8189 -3.9325 0.9671
7.2238 -0.1610 -3.8573 0.9678
6.4849 1.6220 -3.5686 0.9701
5.3691 2.4192 -3.1437 0.9737
4.9598 2.7903 -3.0380 0.9745
4.5298 3.1095 -2.9331 0.9754
4.0868 3.3778 -2.8304 0.9762
1.4595 4.0565 -2.3014 0.9806
1.0592 4.0429 -2.2311 0.9812
0.6749 4.0012 -2.1662 0.9818
-0.0428 3.8433 -2.0518 0.9827
-0.3754 3.7318 -2.0022 0.9831
-0.7175 3.7432 -2.0347 0.9829
-1.0514 3.6771 -2.0417 0.9828
-1.6281 3.3131 -1.9707 0.9834
-1.8887 3.1092 -1.9421 0.9836
-2.1310 2.8923 -1.9179 0.9838
-2.3553 2.6632 -1.8980 0.9840
-2.1810 -0.2933 -1.1748 0.9901
-2.1806 -0.4941 -1.1936 0.9899
-2.1912 -0.7066 -1.2291 0.9896
-2.2000 -0.9329 -1.2757 0.9892
-2.2447 -1.1979 -1.3583 0.9885
-3.3626 -2.1997 -2.1451 0.9819
-2.8845 -3.2616 -2.3244 0.9805
-1.4082 -4.9247 -2.7344 0.9770
-0.9989 -5.2114 -2.8327 0.9762
1.6034 -6.1201 -3.3775 0.9717
2.8362 -6.1118 -3.5969 0.9699
4.6909 -5.5484 -3.8787 0.9676
5.2614 -5.2030 -3.9502 0.9670
5.7852 -4.7815 -4.0067 0.9665
6.2489 -4.2896 -4.0463 0.9662
6.6406 -3.7360 -4.0675 0.9660
6.9506 -3.1318 -4.0698 0.9660
7.1719 -2.4904 -4.0529 0.9662
7.2829 -0.4875 -3.8966 0.9674
7.1446 0.1592 -3.8150 0.9681
5.6702 2.2567 -3.2579 0.9727
5.1676 2.6113 -3.0909 0.9741
4.7469 2.9564 -2.9854 0.9750
3.4120 3.6889 -2.6825 0.9775
2.9632 3.8395 -2.5891 0.9782
2.0868 4.0177 -2.4169 0.9797
0.1301 3.8913 -2.0785 0.9825
-0.5412 3.7115 -2.0023 0.9831
-0.8956 3.7580 -2.0624 0.9826
-1.7607 3.2128 -1.9558 0.9835
-2.0121 3.0023 -1.9294 0.9837
-2.2454 2.7792 -1.9074 0.9839
-2.4607 2.5443 -1.8896 0.9841
-2.6580 2.2985 -1.8759 0.9842
-2.8375 2.0424 -1.8664 0.9843
-2.9992 1.7764 -1.8609 0.9843
-3.1429 1.5012 -1.8594 0.9843
-3.2686 1.2172 -1.8620 0.9843
-3.3758 0.9247 -1.8685 0.9843
-2.2057 0.3974 -1.1965 0.9899
-2.1192 -0.0000 -1.1770 0.9904
-2.1202 -0.1895 -1.1823 0.9903
-2.1250 -0.3828 -1.1992 0.9902
-2.1317 -0.7939 -1.2633 0.9896
-2.1374 -1.0209 -1.3156 0.9892
-2.2265 -1.3188 -1.4372 0.9882
-3.1924 -2.2978 -2.1846 0.9822
-2.8793 -2.9773 -2.3004 0.9812
-2.1748 -3.9685 -2.5134 0.9795
-0.2976 -5.3376 -2.9691 0.9758
0.6992 -5.6774 -3.1770 0.9742
1.8074 -5.8264 -3.3881 0.9725
2.3891 -5.8136 -3.4908 0.9717
3.5665 -5.5867 -3.6812 0.9701
4.6906 -5.0714 -3.8367 0.9689
6.3946 -3.2313 -3.9792 0.9677
6.6456 -2.6449 -3.9725 0.9678
6.8130 -2.0304 -3.9483 0.9680
6.8921 -0.7710 -3.8517 0.9688
6.8085 -0.1517 -3.7823 0.9693
6.4235 1.0101 -3.6114 0.9707
6.1385 1.5353 -3.5143 0.9715
2.2107 3.8290 -2.4556 0.9800
1.8022 3.8836 -2.3778 0.9806
1.4050 3.9052 -2.3050 0.9812
1.0209 3.8965 -2.2372 0.9817
0.2969 3.7991 -2.1164 0.9827
-0.3691 3.6696 -2.0484 0.9833
-0.7115 3.7122 -2.0993 0.9829
-1.0185 3.5621 -2.0577 0.9832
