ply
format ascii 1.0
element vertex 1585
property float32 x
property float32 y
property float32 z
property float32 I
end_header
-1.6613 -6.9712 3.8258 0.9680
-0.2194 3.9337 2.1032 0.9823
-0.2202 3.9494 2.0279 0.9824
-10.6145 7.6399 6.7047 0.9429
-1.8085 -7.5889 3.8372 0.9658
-0.3939 3.9152 1.9354 0.9826
-0.2228 3.9952 1.8862 0.9825
-0.3955 3.9310 1.7042 0.9829
-0.3962 3.9387 1.6301 0.9830
-0.3970 3.9464 1.5566 0.9831
-6.4756 -2.4115 2.5803 0.9709
-6.3754 -2.7034 2.5858 0.9709
-6.2358 -2.3222 2.3595 0.9722
-6.1385 -2.9321 2.4122 0.9715
-0.3985 3.9614 1.4118 0.9832
-6.4606 -2.0833 2.4070 0.9716
-6.1335 -2.6008 2.3623 0.9721
-6.6293 -1.8159 2.3094 0.9714
-6.0957 -2.2700 2.1855 0.9729
-5.9806 -2.8567 2.2268 0.9724
-6.2847 -2.0265 2.2186 0.9725
-5.9914 -2.5405 2.1865 0.9729
-5.8762 -2.8068 2.0682 0.9730
-0.4007 3.9831 1.2714 0.9833
-6.1731 -1.9905 2.0599 0.9731
-5.9086 -2.5054 2.0382 0.9734
-5.9289 -3.1637 2.1342 0.9722
-0.5861 4.0186 1.2897 0.9831
-6.0676 -3.5938 2.1112 0.9710
-0.4021 3.9970 1.2026 0.9834
-6.8008 -1.5408 2.0876 0.9713
-6.1013 -1.9674 1.9192 0.9736
-5.8340 -2.4738 1.8971 0.9739
-6.2729 -1.7183 1.8299 0.9733
-5.8909 -2.1938 1.7687 0.9742
-5.9210 -3.5070 1.9362 0.9718
-5.8448 -2.1766 1.6434 0.9745
-5.7025 -2.7238 1.6652 0.9742
-6.5516 -1.4844 1.7701 0.9726
-5.7138 -3.0489 1.7065 0.9736
-7.1909 -1.2955 1.7960 0.9704
-5.6658 -2.7063 1.5434 0.9745
-6.4948 -1.4715 1.6369 0.9729
-5.9686 -1.9246 1.5415 0.9745
-5.7231 -2.4268 1.5280 0.9747
-5.6715 -3.0264 1.5801 0.9739
-6.1409 -1.6821 1.4533 0.9742
-5.6518 -2.6996 1.4296 0.9746
-5.7203 -3.3881 1.5174 0.9731
-0.4076 4.0519 0.9295 0.9834
-6.4395 -1.4590 1.5070 0.9733
-5.6459 -3.0127 1.4606 0.9741
-0.5846 4.0083 0.9245 0.9835
-5.7022 -3.3774 1.3972 0.9733
-6.4104 -1.4524 1.3857 0.9735
-0.5847 4.0089 0.8541 0.9836
-6.8900 -1.2413 1.3548 0.9719
-6.3988 -1.4498 1.2697 0.9736
-5.6860 -2.4111 1.1952 0.9752
-5.6193 -2.9985 1.2326 0.9744
-5.9419 -3.8870 1.3740 0.9715
-6.8525 -1.2345 1.2277 0.9721
-6.1183 -1.6759 1.1186 0.9746
-5.7847 -2.1542 1.0884 0.9752
-5.6736 -3.3604 1.1627 0.9736
-0.4152 4.1277 0.7315 0.9833
-5.9231 -1.9100 1.0974 0.9750
-6.1229 -1.6772 1.0109 0.9746
-5.7860 -2.1547 0.9832 0.9753
-5.6394 -2.6937 0.9952 0.9750
-6.3994 -1.4499 1.0448 0.9738
-5.9244 -1.9104 0.9912 0.9751
-5.6289 -3.0037 1.0160 0.9745
-0.5868 4.0233 0.6474 0.9837
-6.1427 -1.6826 0.9059 0.9746
-5.7990 -2.1596 0.8802 0.9753
-5.6460 -2.6969 0.8900 0.9750
-5.6995 -3.3758 0.9422 0.9736
-5.6383 -3.0087 0.9090 0.9745
-5.9256 -3.8764 1.0072 0.9718
-5.8203 -2.1675 0.7783 0.9753
-5.6682 -2.7075 0.7872 0.9750
-5.7125 -3.3835 0.8320 0.9736
-5.6557 -3.0180 0.8033 0.9745
-6.9660 -1.2550 0.7677 0.9719
-6.1846 -1.6941 0.6955 0.9745
-5.8433 -2.1760 0.6763 0.9752
-5.7493 -3.4053 0.7248 0.9735
-5.9871 -1.9306 0.6823 0.9750
-5.7477 -2.4372 0.6772 0.9752
-5.6865 -3.0344 0.6991 0.9744
-0.5899 4.0445 0.4433 0.9837
-5.7887 -3.4286 0.6168 0.9733
-6.0230 -1.9422 0.5802 0.9749
-5.7704 -2.4468 0.5746 0.9751
-5.7174 -3.0509 0.5941 0.9743
-6.0906 -3.9843 0.6672 0.9712
-0.5909 4.0516 0.3754 0.9837
-5.9160 -2.2031 0.4731 0.9750
-0.7959 4.1524 0.3168 0.9832
-6.5687 -1.4883 0.5047 0.9733
-6.0656 -1.9559 0.4776 0.9748
-0.5919 4.0586 0.3074 0.9837
-6.3197 -1.7311 0.3816 0.9741
-5.9600 -2.2195 0.3704 0.9748
-5.8049 -2.7728 0.3747 0.9746
-5.9084 -3.4995 0.4000 0.9729
-0.7931 4.1376 0.2454 0.9833
-6.6401 -1.5044 0.3965 0.9731
-6.1088 -1.9698 0.3738 0.9746
-6.0104 -2.2383 0.2667 0.9747
-6.0009 -3.5543 0.2900 0.9725
-6.7364 -1.5263 0.2872 0.9727
-5.9057 -2.5042 0.2667 0.9746
-6.0810 -2.2646 0.1618 0.9744
-5.9264 -2.8308 0.1638 0.9741
-6.1006 -3.6134 0.1768 0.9720
-0.7875 4.1083 0.1043 0.9834
-12.3801 8.0987 0.3689 0.9425
-12.9469 6.9087 0.3660 0.9430
-13.5245 5.7349 0.3664 0.9429
-14.1241 4.5545 0.3701 0.9423
-5.9767 -2.5343 0.1619 0.9744
-5.9470 -3.1734 0.1681 0.9734
-12.6627 7.5002 0.3670 0.9428
-13.2336 6.3212 0.3657 0.9430
-14.7782 0.0000 0.1228 0.9426
-6.5709 -1.7999 0.0566 0.9731
-6.1532 -2.2915 0.0546 0.9741
-6.0126 -2.8720 0.0554 0.9737
-10.2068 9.6536 0.1168 0.9454
-13.8365 1.8609 0.1160 0.9457
-14.4507 0.6444 0.1202 0.9438
-7.0281 -1.5923 0.0599 0.9716
-6.0530 -2.5667 0.0546 0.9740
-9.3203 11.5359 0.1233 0.9424
-11.0270 7.9368 0.1129 0.9471
-11.5553 6.8443 0.1116 0.9477
-12.0799 5.7701 0.1113 0.9479
-12.6097 4.6959 0.1118 0.9476
-13.5837 2.4473 0.1147 0.9463
-13.4820 0.0000 -0.1121 0.9475
-14.7023 -2.6487 -0.1242 0.9420
-6.1014 -2.9144 -0.0562 0.9733
-7.5323 12.3999 -0.1206 0.9436
-8.1926 11.1192 -0.1148 0.9463
-8.7940 9.9435 -0.1103 0.9483
-9.8770 7.7998 -0.1046 0.9509
-10.3803 6.7905 -0.1031 0.9516
-10.8696 5.8002 -0.1024 0.9519
-11.8366 3.8168 -0.1034 0.9515
-12.3288 2.7934 -0.1051 0.9507
-13.2078 0.5890 -0.1099 0.9485
-7.3264 -1.6599 -0.0624 0.9704
-6.4259 -2.0721 -0.0561 0.9734
-6.1633 -3.2888 -0.0581 0.9724
-0.6011 4.1213 -0.0346 0.9835
-9.0774 9.3860 -0.1085 0.9491
-10.6261 6.2939 -0.1027 0.9518
-11.5940 4.3177 -0.1028 0.9517
-12.0812 3.3094 -0.1041 0.9511
-12.8800 -1.1509 -0.3225 0.9496
-6.8921 -1.8879 -0.1782 0.9718
-0.7872 4.1067 -0.1043 0.9834
-5.3683 13.9387 -0.3725 0.9420
-7.5165 10.2016 -0.3160 0.9506
-8.0942 9.1523 -0.3047 0.9523
-8.6282 8.1606 -0.2962 0.9536
-9.1288 7.2090 -0.2901 0.9545
-10.0623 5.3694 -0.2844 0.9554
-10.9497 3.5308 -0.2869 0.9550
-11.7311 1.5777 -0.2952 0.9537
-12.1615 0.5423 -0.3036 0.9525
-13.1348 -1.7664 -0.3305 0.9484
-6.5426 -2.1097 -0.1714 0.9729
-0.6030 4.1348 -0.1042 0.9834
-5.7849 13.2305 -0.3601 0.9439
-7.2074 10.7542 -0.3229 0.9495
-8.3660 8.6504 -0.3001 0.9530
-8.8821 7.6807 -0.2928 0.9541
-9.8351 5.8254 -0.2851 0.9553
-10.7296 3.9958 -0.2855 0.9552
-11.1700 3.0598 -0.2888 0.9547
-11.4688 0.0000 -0.4769 0.9551
-12.3082 -2.2174 -0.5200 0.9512
-4.8921 12.7021 -0.5660 0.9470
-5.6575 11.5128 -0.5334 0.9499
-6.3348 10.4285 -0.5073 0.9523
-6.9431 9.4233 -0.4867 0.9542
-8.9360 5.8457 -0.4440 0.9582
-9.3660 4.9979 -0.4414 0.9584
-9.7811 4.1476 -0.4417 0.9584
-10.5852 2.3983 -0.4513 0.9575
-11.2681 0.5025 -0.4690 0.9558
-12.5317 -2.8393 -0.5343 0.9499
-6.3975 -2.7128 -0.2889 0.9726
-0.6050 4.1485 -0.1743 0.9834
-6.0058 10.9593 -0.5196 0.9512
-6.6465 9.9174 -0.4964 0.9533
-8.2506 7.1347 -0.4535 0.9573
-8.7136 6.2717 -0.4464 0.9579
-9.5751 4.5737 -0.4412 0.9584
-10.3860 2.8451 -0.4477 0.9578
-10.7843 1.9429 -0.4556 0.9571
-11.0696 0.9892 -0.4621 0.9565
-11.0221 -0.9849 -0.6445 0.9566
-11.7488 -3.2183 -0.7095 0.9524
-6.7162 -2.5011 -0.4174 0.9717
-6.7106 -3.2054 -0.4331 0.9706
-1.4712 14.6244 -0.8561 0.9428
-4.4929 11.6657 -0.7281 0.9511
-5.8675 9.6592 -0.6582 0.9557
-7.9261 6.2592 -0.5882 0.9603
-10.4960 0.4681 -0.6119 0.9588
-11.5627 -2.6197 -0.6905 0.9536
-12.7627 -6.8104 -0.8426 0.9437
-0.6084 4.1715 -0.2455 0.9833
-4.0925 12.2237 -0.7508 0.9497
-4.8679 11.1333 -0.7077 0.9525
-5.5529 10.1328 -0.6730 0.9548
-6.7217 8.3196 -0.6230 0.9581
-7.2309 7.4767 -0.6058 0.9592
-7.7023 6.6605 -0.5931 0.9600
-8.1431 5.8610 -0.5844 0.9606
-8.9549 4.2775 -0.5780 0.9610
-9.7040 2.6582 -0.5860 0.9605
-10.0644 1.8132 -0.5956 0.9599
-10.5805 -1.9062 -0.8057 0.9578
-11.1877 -4.1663 -0.8947 0.9532
-0.1627 14.6041 -1.0945 0.9431
-1.3353 13.2740 -0.9998 0.9479
-0.7875 4.1086 -0.3135 0.9834
-4.8454 9.8601 -0.8233 0.9569
-6.5314 7.3852 -0.7388 0.9612
-7.0001 6.6207 -0.7221 0.9621
-8.2251 4.3891 -0.6987 0.9633
-8.5888 3.6420 -0.6991 0.9633
-8.9363 2.8816 -0.7036 0.9630
-9.2705 2.1005 -0.7123 0.9626
-9.5943 1.2903 -0.7255 0.9619
-10.1274 -0.4516 -0.7597 0.9602
-11.9896 -7.8432 -1.0737 0.9442
-0.6123 4.1983 -0.3179 0.9831
-5.1628 9.4209 -0.8051 0.9578
-8.7644 3.2639 -0.7009 0.9632
-9.1049 2.4941 -0.7075 0.9628
-9.4336 1.6996 -0.7183 0.9623
-9.6280 -0.8603 -0.8862 0.9619
-10.1335 -2.7758 -0.9632 0.9587
-10.3762 -3.8641 -1.0151 0.9565
-11.0731 -7.9699 -1.2508 0.9467
-11.2961 -9.7681 -1.3691 0.9418
1.1337 14.5082 -1.3341 0.9432
-1.2222 12.1492 -1.1194 0.9521
-0.7882 4.1120 -0.3838 0.9833
-2.9302 10.2478 -0.9771 0.9581
-3.8609 10.0246 -0.9848 0.9578
-5.1110 8.4140 -0.9025 0.9612
-5.6463 7.6633 -0.8727 0.9625
-6.5842 6.2274 -0.8308 0.9643
-7.0003 5.5281 -0.8178 0.9648
-7.3880 4.8330 -0.8094 0.9652
-7.7513 4.1363 -0.8055 0.9653
-4.2496 0.5715 -0.3931 0.9829
-9.4967 -0.4235 -0.8715 0.9625
-10.7296 -5.7254 -1.1150 0.9523
-10.9596 -7.1694 -1.2006 0.9488
-11.1853 -8.8329 -1.3066 0.9444
0.4634 13.8598 -1.2713 0.9458
-0.7075 12.6884 -1.1650 0.9502
-2.5477 10.6905 -1.0075 0.9568
-4.1997 9.6050 -0.9611 0.9588
-5.8959 7.2975 -0.8601 0.9630
-6.3641 6.5804 -0.8393 0.9639
-6.7961 5.8769 -0.8237 0.9646
-7.9250 3.7855 -0.8052 0.9653
-8.2580 3.0754 -0.8079 0.9652
-4.9080 0.8843 -0.4572 0.9802
-4.1097 0.3673 -0.3783 0.9836
-9.4791 -2.5966 -1.0660 0.9612
-9.6725 -3.6021 -1.1195 0.9593
-9.8518 -4.7058 -1.1842 0.9570
-10.0153 -5.9321 -1.2626 0.9542
-10.1610 -7.3134 -1.3579 0.9509
-10.2855 -8.8942 -1.4749 0.9468
2.4196 14.3442 -1.5778 0.9432
-3.3873 8.7950 -1.0223 0.9628
-4.2345 8.6170 -1.0414 0.9621
-4.8003 7.9024 -1.0029 0.9635
-6.2139 5.8771 -0.9277 0.9662
-6.9826 4.5679 -0.9050 0.9670
-7.6514 3.2445 -0.9015 0.9671
-3.7330 0.1665 -0.4053 0.9851
-9.3774 -2.1246 -1.0429 0.9621
-9.5775 -3.0883 -1.0915 0.9603
-9.7640 -4.1403 -1.1503 0.9582
-9.9356 -5.3018 -1.2215 0.9557
-10.2263 -8.0756 -1.4134 0.9489
-10.3379 -9.7774 -1.5434 0.9444
0.4225 12.6351 -1.3712 0.9504
-0.6498 11.6533 -1.2660 0.9541
-2.3666 9.9309 -1.1073 0.9598
-4.5245 8.2562 -1.0212 0.9628
-5.0630 7.5546 -0.9864 0.9641
-6.8009 4.8950 -0.9089 0.9668
-7.4923 3.5788 -0.9006 0.9671
-7.8057 2.9069 -0.9035 0.9670
-3.9948 0.7197 -0.4403 0.9838
-3.7700 -0.3369 -0.4743 0.9849
-9.1901 -4.3897 -1.2763 0.9598
-9.3857 -6.7554 -1.4492 0.9545
-9.4381 -8.1614 -1.5636 0.9509
-9.4503 -9.7715 -1.7035 0.9467
3.6940 14.0998 -1.8266 0.9429
-0.1245 11.1798 -1.4011 0.9559
-0.7910 4.1268 -0.5266 0.9832
-3.1779 8.2513 -1.1081 0.9650
-3.7398 7.6103 -1.0626 0.9664
-5.0171 6.8093 -1.0599 0.9665
-5.4678 6.1826 -1.0343 0.9673
-6.2641 4.9468 -1.0003 0.9683
-7.2536 3.0758 -0.9873 0.9687
-4.3832 0.9931 -0.5632 0.9820
-3.5494 0.4774 -0.4488 0.9857
-3.5348 0.1576 -0.4434 0.9858
-8.8183 -1.9979 -1.1331 0.9642
-8.9815 -2.8961 -1.1826 0.9627
-9.1257 -3.8696 -1.2422 0.9608
-9.3472 -6.1146 -1.3997 0.9560
-9.4499 -8.9377 -1.6300 0.9489
-9.4376 -10.6713 -1.7852 0.9442
1.5421 12.5211 -1.5809 0.9504
0.3880 11.6059 -1.4552 0.9543
-0.6006 10.7715 -1.3519 0.9574
-2.2091 9.2698 -1.1942 0.9623
-4.7763 7.1269 -1.0751 0.9660
-5.6791 5.8722 -1.0237 0.9676
-6.7857 4.0192 -0.9883 0.9687
-7.1031 3.3929 -0.9865 0.9688
-3.8076 0.6860 -0.4848 0.9845
-3.5366 0.3160 -0.4450 0.9858
-3.5138 -0.3140 -0.5018 0.9858
-8.2457 -1.4855 -1.1917 0.9667
-8.5114 -3.1697 -1.2919 0.9640
-8.6094 -4.1123 -1.3571 0.9622
-8.6799 -5.1411 -1.4349 0.9601
-8.7181 -6.2749 -1.5278 0.9575
3.3500 12.7869 -1.8801 0.9480
-0.9726 9.6684 -1.3821 0.9615
-0.7925 4.1342 -0.5987 0.9831
-2.3951 8.3763 -1.2392 0.9654
-3.5353 7.1943 -1.1402 0.9681
-5.9494 4.6983 -1.0783 0.9698
-6.6026 3.5233 -1.0645 0.9702
-6.8937 2.9232 -1.0650 0.9702
-7.1634 2.3099 -1.0706 0.9700
-4.1432 0.9387 -0.6042 0.9830
-3.3671 0.4529 -0.4832 0.9864
-3.3610 0.1499 -0.4785 0.9865
-8.7034 -5.6935 -1.4793 0.9589
-8.7230 -6.8885 -1.5810 0.9561
-8.4772 -11.5053 -2.0327 0.9439
4.1136 13.2609 -1.9748 0.9454
1.4163 11.4992 -1.6480 0.9543
0.3587 10.7284 -1.5268 0.9576
-0.5582 10.0107 -1.4261 0.9603
-3.2672 7.4724 -1.1600 0.9676
-4.0235 7.3420 -1.1908 0.9667
-4.5194 6.7435 -1.1546 0.9677
-4.9722 6.1542 -1.1253 0.9685
-5.7696 4.9892 -1.0849 0.9697
-6.4486 3.8196 -1.0660 0.9702
-7.0311 2.6185 -1.0672 0.9701
-7.2907 1.9972 -1.0752 0.9699
-3.6717 0.6615 -0.5306 0.9850
-3.3525 0.2996 -0.4787 0.9865
-7.8103 -1.4071 -1.2637 0.9684
-8.0264 -2.9890 -1.3638 0.9659
-8.0955 -3.8669 -1.4286 0.9643
-8.1366 -5.8563 -1.5964 0.9602
-8.0965 -7.0013 -1.7044 0.9576
-7.8479 -9.7134 -1.9885 0.9507
6.1816 13.3210 -2.3384 0.9423
-0.1075 9.6554 -1.5376 0.9616
-0.7939 4.1417 -0.6715 0.9831
-3.3395 6.7958 -1.2057 0.9698
-4.0548 6.6751 -1.2437 0.9689
-4.5103 6.1215 -1.2108 0.9697
-4.9274 5.5716 -1.1844 0.9703
-5.3107 5.0229 -1.1640 0.9708
-6.2892 3.3561 -1.1351 0.9715
-6.5663 2.7844 -1.1357 0.9715
-6.8216 2.1997 -1.1413 0.9714
-3.9744 0.9005 -0.6489 0.9836
-3.2600 0.1454 -0.5196 0.9869
-3.3344 -0.1487 -0.5315 0.9866
-3.4817 -0.4682 -0.5594 0.9859
-7.9815 -2.5737 -1.3354 0.9666
-8.0576 -7.6208 -1.7660 0.9561
5.2957 12.8863 -2.2185 0.9451
2.4338 11.3257 -1.8446 0.9542
1.3089 10.6278 -1.7051 0.9576
0.3334 9.9709 -1.5886 0.9604
-1.2763 8.7513 -1.4083 0.9648
-1.9480 8.1741 -1.3381 0.9665
-2.5485 7.6120 -1.2782 0.9680
-3.0890 7.0648 -1.2278 0.9693
-4.2876 6.3977 -1.2264 0.9693
-4.7234 5.8462 -1.1968 0.9700
-5.1231 5.2973 -1.1735 0.9706
-6.6966 2.4939 -1.1379 0.9715
-4.5041 1.2338 -0.7436 0.9813
-7.4166 -1.3361 -1.3288 0.9699
-7.5169 -2.0591 -1.3743 0.9688
-7.6372 -3.6480 -1.4924 0.9662
-7.6252 -5.4883 -1.6566 0.9626
-6.5960 -12.0362 -2.4201 0.9458
5.5968 12.0609 -2.3445 0.9474
1.7148 10.1663 -1.8179 0.9590
-0.1007 9.0347 -1.5932 0.9640
-0.8548 8.4967 -1.5057 0.9659
-2.1320 7.4561 -1.3674 0.9690
-3.1686 6.4481 -1.2668 0.9712
-5.4026 4.2664 -1.2138 0.9724
-5.7151 3.7387 -1.2042 0.9726
-6.0028 3.2032 -1.1997 0.9727
-6.2671 2.6575 -1.2003 0.9727
-3.8238 0.8664 -0.6913 0.9842
-3.1779 0.4274 -0.5654 0.9871
-3.1644 0.1411 -0.5585 0.9872
-3.2276 -0.1439 -0.5697 0.9870
-3.3507 -0.4506 -0.5961 0.9864
-7.4698 -1.6924 -1.3505 0.9694
-7.5576 -2.4370 -1.4002 0.9683
-7.5965 -5.9989 -1.7068 0.9614
-7.5012 -7.0945 -1.8205 0.9589
-7.3463 -8.3066 -1.9553 0.9560
-7.1182 -9.6608 -2.1159 0.9524
-6.3602 -12.9426 -2.5428 0.9431
6.4443 12.4076 -2.4653 0.9448
2.2484 10.4634 -1.8871 0.9575
0.3113 9.3101 -1.6425 0.9629
-1.2008 8.2333 -1.4671 0.9668
-2.4108 7.2009 -1.3390 0.9696
-2.9283 6.6972 -1.2888 0.9707
-4.8822 5.0483 -1.2383 0.9719
-5.2363 4.5280 -1.2206 0.9723
-5.5621 4.0034 -1.2084 0.9725
-6.1378 2.9318 -1.1994 0.9728
-4.2904 1.1753 -0.7844 0.9821
-3.4371 0.6193 -0.6158 0.9859
-3.1510 0.2816 -0.5578 0.9872
-3.1015 0.0000 -0.6002 0.9874
-3.3117 -0.5966 -0.6512 0.9864
-7.1424 -1.9565 -1.4331 0.9703
-6.7213 -8.3190 -2.0697 0.9574
-6.4291 -9.5929 -2.2348 0.9540
3.7732 10.4877 -2.1569 0.9556
2.6127 9.9727 -1.9950 0.9589
-0.7968 4.1569 -0.8191 0.9829
-4.0925 5.5544 -1.3351 0.9723
-4.4800 5.0657 -1.3087 0.9728
-4.8361 4.5739 -1.2881 0.9732
-5.1632 4.0774 -1.2732 0.9736
-5.9924 2.5410 -1.2596 0.9738
-3.2339 -0.4349 -0.6315 0.9868
-7.1038 -1.6095 -1.4095 0.9708
-7.2004 -4.7102 -1.6651 0.9656
-7.1320 -5.6321 -1.7586 0.9637
-6.5863 -8.9390 -2.1487 0.9558
-6.2472 -10.2843 -2.3286 0.9522
7.5438 11.8172 -2.7131 0.9445
4.4174 10.7491 -2.2489 0.9538
3.1730 10.2289 -2.0725 0.9573
-0.4598 8.2458 -1.5982 0.9669
-1.1333 7.7707 -1.5197 0.9685
-1.7395 7.2996 -1.4521 0.9699
-2.2865 6.8295 -1.3937 0.9711
-2.7825 6.3638 -1.3441 0.9721
-3.4210 6.2425 -1.3775 0.9714
-4.2904 5.3104 -1.3211 0.9726
-4.6618 4.8203 -1.2977 0.9730
-5.3168 3.8268 -1.2677 0.9737
-6.1103 2.2755 -1.2618 0.9738
-3.3306 0.6001 -0.6549 0.9863
-3.0639 0.2738 -0.5953 0.9875
-3.0211 0.0000 -0.6369 0.9877
-3.0994 -0.2770 -0.6560 0.9874
-6.8013 -1.8631 -1.4867 0.9716
-6.8541 -3.2739 -1.6014 0.9694
-6.8304 -4.0456 -1.6736 0.9681
-6.7670 -4.8706 -1.7577 0.9665
-6.6577 -5.7572 -1.8556 0.9647
-5.9629 -8.8972 -2.2580 0.9572
-5.5641 -10.1532 -2.4408 0.9538
-5.0491 -11.5476 -2.6570 0.9498
7.6805 10.9256 -2.8155 0.9469
6.0826 10.5354 -2.5647 0.9515
4.6996 10.1273 -2.3537 0.9554
2.4321 9.2833 -2.0232 0.9615
0.6584 8.4262 -1.7818 0.9660
-0.7614 7.5687 -1.6037 0.9694
-2.8718 5.8440 -1.3727 0.9737
-3.5022 5.7654 -1.4221 0.9728
-3.9097 5.3063 -1.3895 0.9734
-4.2837 4.8437 -1.3632 0.9739
-4.9429 3.9034 -1.3278 0.9746
-5.2324 3.4229 -1.3182 0.9748
-5.4975 2.9336 -1.3137 0.9748
-3.0346 0.4081 -0.6455 0.9876
-2.9940 0.1335 -0.6318 0.9878
-3.1545 -0.4242 -0.6710 0.9871
-6.7699 -1.5338 -1.4634 0.9720
-6.8259 -2.2010 -1.5120 0.9711
-6.8527 -2.9057 -1.5692 0.9700
-6.3897 -7.2250 -2.0334 0.9613
-5.7765 -9.5094 -2.3457 0.9555
-5.3227 -10.8314 -2.5443 0.9519
-3.9923 -13.9618 -3.0614 0.9424
8.5749 11.1108 -2.9588 0.9442
5.3669 10.3331 -2.4547 0.9535
4.0762 9.9188 -2.2608 0.9571
1.0642 8.6408 -1.8354 0.9650
0.2746 8.2116 -1.7321 0.9670
-0.4339 7.7828 -1.6433 0.9686
-3.7103 5.5362 -1.4050 0.9731
-4.1007 5.0755 -1.3756 0.9737
-4.4592 4.6108 -1.3523 0.9741
-5.0908 3.6642 -1.3223 0.9747
-5.3679 3.1795 -1.3153 0.9748
-5.8517 2.1792 -1.3164 0.9748
-4.0001 1.0958 -0.8744 0.9832
-2.9810 0.2664 -0.6309 0.9878
-3.1643 -0.5700 -0.7338 0.9869
-6.4893 -1.7776 -1.5357 0.9728
-6.5185 -2.4275 -1.5876 0.9719
-6.5165 -3.1127 -1.6483 0.9708
-6.4796 -3.8378 -1.7189 0.9696
-6.4029 -4.6085 -1.8006 0.9682
-6.2808 -5.4312 -1.8952 0.9665
-5.8683 -7.2633 -2.1313 0.9624
-5.5570 -8.2916 -2.2782 0.9599
-4.6494 -10.6335 -2.6489 0.9535
-3.2089 -13.4650 -3.1594 0.9448
8.6187 10.1943 -3.0469 0.9467
4.3475 9.3686 -2.3573 0.9585
3.2496 9.0324 -2.1909 0.9614
2.2738 8.6792 -2.0478 0.9639
-0.7216 7.1731 -1.6455 0.9709
-5.2732 2.8139 -1.3642 0.9758
-5.7145 1.8427 -1.3704 0.9757
-3.4289 0.7769 -0.8025 0.9857
-2.9625 0.3984 -0.6823 0.9878
-2.9453 0.1313 -0.6729 0.9880
-3.0959 -0.4163 -0.7130 0.9873
-6.4639 -1.4645 -1.5127 0.9732
-6.5076 -2.0984 -1.5606 0.9723
-6.5027 -3.4699 -1.6823 0.9702
-6.3480 -5.0129 -1.8462 0.9674
-6.2004 -5.8642 -1.9479 0.9656
-5.9954 -6.7791 -2.0656 0.9636
-5.7227 -7.7669 -2.2020 0.9612
-4.3480 -11.2895 -2.7613 0.9516
-3.6321 -12.7023 -3.0154 0.9472
9.5157 10.2884 -3.1987 0.9441
4.9489 9.5284 -2.4506 0.9569
2.7476 8.8576 -2.1167 0.9627
1.0010 8.1276 -1.8691 0.9670
-1.0178 6.9788 -1.6097 0.9715
-1.0106 4.2406 -0.9950 0.9823
-2.0704 6.1841 -1.4885 0.9736
-2.5281 5.7819 -1.4403 0.9744
-3.1357 5.7221 -1.4893 0.9736
-3.9259 4.8592 -1.4258 0.9747
-4.8818 3.5138 -1.3729 0.9756
-5.1487 3.0496 -1.3658 0.9757
-5.3920 2.5756 -1.3639 0.9758
-5.6126 2.0902 -1.3670 0.9757
-3.8725 1.0608 -0.9164 0.9837
-2.9277 0.2617 -0.6709 0.9880
-2.9882 -0.2670 -0.7374 0.9877
-3.1004 -0.5586 -0.7743 0.9871
-6.2212 -2.3168 -1.6318 0.9730
-6.2084 -2.9655 -1.6912 0.9721
-6.1608 -3.6490 -1.7600 0.9709
-6.0737 -4.3716 -1.8394 0.9696
-5.7582 -5.9539 -2.0359 0.9665
-2.9300 -12.2950 -3.1068 0.9493
-1.9929 -13.6644 -3.3942 0.9447
9.4606 9.3558 -3.2705 0.9467
7.8526 9.2880 -2.9896 0.9511
6.4300 9.1467 -2.7482 0.9550
3.0366 8.4402 -2.2048 0.9637
-0.8041 4.1948 -1.0498 0.9826
-1.7408 6.0880 -1.5564 0.9743
-3.2059 5.2776 -1.5178 0.9749
-3.5859 4.8669 -1.4859 0.9754
-4.2559 4.0253 -1.4399 0.9762
-4.8195 3.1528 -1.4156 0.9766
-5.2877 2.2422 -1.4117 0.9766
-3.3132 0.7507 -0.8350 0.9861
-2.8899 0.3887 -0.7167 0.9881
-3.0389 -0.4087 -0.7537 0.9874
-3.1571 -0.7153 -0.7957 0.9868
-6.2156 -2.0043 -1.6053 0.9735
-6.2189 -2.6370 -1.6604 0.9726
-6.1892 -3.3026 -1.7244 0.9715
-5.8569 -5.5394 -1.9815 0.9673
-5.3669 -7.2841 -2.2239 0.9634
-2.4853 -12.9659 -3.2450 0.9471
-1.4478 -14.3920 -3.5554 0.9422
7.1198 9.2254 -2.8644 0.9531
1.7170 7.9902 -2.0088 0.9669
-0.9680 6.6371 -1.6486 0.9728
-1.9760 5.9020 -1.5299 0.9747
-2.4163 5.5262 -1.4825 0.9755
-3.3999 5.0730 -1.5011 0.9752
-4.0990 4.2383 -1.4493 0.9760
-5.1792 2.4739 -1.4108 0.9766
-3.8036 1.0419 -0.9694 0.9839
-2.8807 0.2574 -0.7109 0.9882
-2.8744 0.0000 -0.7574 0.9882
-3.0385 -0.5474 -0.8135 0.9873
-5.9380 -1.6265 -1.6223 0.9749
-5.9477 -2.2149 -1.6724 0.9741
-5.6352 -4.8728 -1.9630 0.9697
-5.4457 -5.6308 -2.0641 0.9681
-5.1985 -6.4342 -2.1796 0.9664
-4.8843 -7.2878 -2.3117 0.9644
-4.4919 -8.1966 -2.4629 0.9621
-0.7643 -13.7078 -3.6176 0.9448
11.9306 8.1899 -3.8131 0.9419
8.6159 8.5204 -3.1929 0.9511
5.9405 8.4505 -2.7219 0.9582
3.7752 8.1353 -2.3632 0.9636
2.8483 7.9170 -2.2170 0.9658
2.0093 7.6693 -2.0890 0.9677
1.2479 7.3982 -1.9770 0.9694
0.5555 7.1087 -1.8789 0.9709
-0.0758 6.8042 -1.7930 0.9722
-2.1056 5.4673 -1.5438 0.9761
-2.5122 5.1121 -1.5009 0.9767
-4.3744 3.4545 -1.4687 0.9772
-4.8712 2.5994 -1.4549 0.9774
-5.0852 2.1563 -1.4554 0.9774
-2.8316 0.3808 -0.7528 0.9883
-2.9007 -0.1293 -0.7651 0.9881
-3.0953 -0.7013 -0.8363 0.9870
-5.9466 -1.9175 -1.6464 0.9745
-5.9409 -2.5191 -1.7004 0.9737
-5.7106 -4.5096 -1.9174 0.9703
-5.3298 -6.0265 -2.1199 0.9673
-5.0504 -6.8544 -2.2435 0.9654
-4.2622 -8.6733 -2.5465 0.9608
-3.7261 -9.6744 -2.7318 0.9580
-3.0721 -10.7436 -2.9444 0.9548
-2.2770 -11.8787 -3.1870 0.9512
-1.3159 -13.0803 -3.4641 0.9471
-0.1599 -14.3525 -3.7821 0.9424
11.0346 8.3217 -3.6418 0.9444
9.3794 8.4831 -3.3324 0.9490
7.8923 8.5331 -3.0628 0.9531
4.2752 8.2312 -2.4440 0.9624
1.6195 7.5364 -2.0311 0.9686
0.2327 6.9582 -1.8345 0.9716
-0.3706 6.6472 -1.7543 0.9728
-1.0036 4.2114 -1.1408 0.9823
-2.3132 5.2904 -1.5214 0.9764
-2.8788 5.2532 -1.5784 0.9755
-4.5074 3.2443 -1.4634 0.9773
-4.9810 2.3792 -1.4545 0.9774
-3.7365 1.0236 -1.0208 0.9841
-2.8347 0.2533 -0.7499 0.9883
-2.8819 -0.2575 -0.8141 0.9880
-2.9786 -0.5366 -0.8515 0.9875
-5.6659 -2.7064 -1.7667 0.9742
-5.5009 -3.9593 -1.9069 0.9722
-5.1631 -5.3385 -2.0896 0.9696
-4.2164 -7.6940 -2.4685 0.9642
-3.7458 -8.5668 -2.6307 0.9619
-3.1763 -9.4871 -2.8149 0.9593
-1.6714 -11.4604 -3.2586 0.9530
0.4543 -13.5864 -3.8248 0.9451
12.4007 6.9765 -4.0033 0.9426
9.2740 7.6652 -3.3852 0.9512
6.6545 7.8710 -2.8999 0.9581
3.5392 7.6269 -2.3657 0.9657
2.6807 7.4510 -2.2279 0.9676
1.8974 7.2425 -2.1065 0.9694
1.1820 7.0075 -1.9995 0.9709
0.5275 6.7511 -1.9052 0.9723
-0.6225 6.1879 -1.7498 0.9745
-0.8099 4.2253 -1.2104 0.9823
-3.6345 4.1096 -1.5436 0.9775
-4.2103 3.3249 -1.5094 0.9780
-4.8960 2.0762 -1.4963 0.9781
-3.1370 0.7108 -0.9050 0.9867
-2.7751 0.3732 -0.7878 0.9884
-2.8062 0.1252 -0.7903 0.9884
-3.0353 -0.6877 -0.8756 0.9872
-3.2049 -1.0334 -0.9474 0.9861
-5.6846 -2.4104 -1.7372 0.9747
-5.2661 -4.9807 -2.0394 0.9703
-5.0461 -5.7057 -2.1431 0.9688
-3.9925 -8.1246 -2.5470 0.9631
-3.4743 -9.0209 -2.7198 0.9606
-2.0994 -10.9522 -3.1376 0.9547
1.1045 -14.1347 -3.9890 0.9428
11.5696 7.2057 -3.8349 0.9449
7.2646 7.8545 -3.0102 0.9565
0.8476 6.8817 -1.9508 0.9716
-0.8804 6.0365 -1.7164 0.9750
-1.8088 5.4026 -1.6030 0.9766
-2.2176 5.0719 -1.5575 0.9773
-2.7630 5.0419 -1.6176 0.9764
-3.1334 4.6754 -1.5835 0.9769
-3.7879 3.9167 -1.5330 0.9776
-4.0756 3.5244 -1.5160 0.9779
-4.5787 2.7120 -1.4973 0.9781
-4.7958 2.2908 -1.4954 0.9782
-2.7884 0.2492 -0.7877 0.9884
-2.7824 0.0000 -0.8330 0.9884
-2.8308 -0.2529 -0.8509 0.9882
-2.9224 -0.5265 -0.8890 0.9877
-5.4609 -2.0336 -1.7446 0.9760
-5.4256 -2.5916 -1.8001 0.9752
-5.1014 -4.4113 -2.0191 0.9722
-4.6575 -5.7646 -2.2187 0.9695
-4.3485 -6.4884 -2.3384 0.9679
-3.9707 -7.2456 -2.4736 0.9661
-2.9669 -8.8617 -2.7978 0.9617
-1.5451 -10.5943 -3.2053 0.9563
6.1768 7.3060 -2.8642 0.9608
3.3292 7.1743 -2.3678 0.9675
2.5303 7.0331 -2.2377 0.9693
0.5021 6.4250 -1.9294 0.9735
-0.0688 6.1770 -1.8494 0.9745
-0.5946 5.9112 -1.7786 0.9755
-0.8129 4.2408 -1.2927 0.9821
-3.1822 4.3189 -1.6061 0.9778
-4.7189 2.0010 -1.5345 0.9788
-4.8955 1.5787 -1.5399 0.9788
-3.0564 0.6925 -0.9382 0.9870
-2.8067 -0.1251 -0.8411 0.9883
-2.8771 -0.3869 -0.8691 0.9880
-5.1812 -4.0915 -1.9765 0.9728
-5.0100 -4.7384 -2.0645 0.9716
-4.7888 -5.4148 -2.1641 0.9703
-4.5110 -6.1224 -2.2768 0.9687
-4.1688 -6.8628 -2.4040 0.9670
-3.7529 -7.6369 -2.5475 0.9651
-1.9462 -10.1529 -3.0949 0.9578
1.0040 -12.8487 -3.8584 0.9476
11.9325 6.0298 -4.0026 0.9457
9.1464 6.8977 -3.4296 0.9533
5.6509 7.3221 -2.7690 0.9621
3.7550 7.2296 -2.4389 0.9666
2.1556 6.9491 -2.1782 0.9701
1.4523 6.7584 -2.0695 0.9715
0.8057 6.5417 -1.9732 0.9729
0.2107 6.3032 -1.8881 0.9740
-0.8417 5.7711 -1.7460 0.9759
-2.6552 4.8453 -1.6541 0.9772
-3.6476 3.7717 -1.5708 0.9783
-4.8099 1.7913 -1.5366 0.9788
-3.5598 0.9751 -1.1050 0.9847
-2.8473 0.5130 -0.8662 0.9880
-2.7380 0.0000 -0.8695 0.9886
-2.9540 -0.8092 -0.9727 0.9872
-5.2433 -1.9526 -1.7769 0.9768
-5.2027 -2.4851 -1.8311 0.9761
-5.1290 -3.0379 -1.8932 0.9753
-5.0186 -3.6121 -1.9637 0.9744
-4.6711 -4.8299 -2.1339 0.9722
-4.4239 -5.4755 -2.2356 0.9709
-4.1193 -6.1464 -2.3499 0.9694
-2.7817 -8.3085 -2.7826 0.9639
-1.4356 -9.8429 -3.1590 0.9591
-0.5921 -10.6194 -3.3778 0.9563
0.3808 -11.3894 -3.6191 0.9533
4.1804 -13.4762 -4.4810 0.9425
12.7622 4.4316 -4.2905 0.9449
11.4705 5.1684 -3.9956 0.9486
6.7691 6.6941 -3.0234 0.9608
5.7592 6.8121 -2.8330 0.9633
4.8196 6.8560 -2.6615 0.9654
3.1410 6.7686 -2.3698 0.9692
2.3947 6.6561 -2.2465 0.9707
1.7050 6.5079 -2.1365 0.9722
1.0677 6.3296 -2.0386 0.9734
0.4787 6.1260 -1.9514 0.9745
-0.0657 5.9014 -1.8743 0.9755
-0.8162 4.2580 -1.3769 0.9820
-2.3122 4.7053 -1.6650 0.9782
-3.0649 4.1598 -1.6410 0.9785
-3.9124 3.0897 -1.5833 0.9793
-2.9791 0.6750 -0.9701 0.9873
-2.6672 0.3587 -0.8547 0.9888
-2.7612 -0.1231 -0.8778 0.9885
-3.1071 -1.0019 -1.0368 0.9864
-5.2270 -2.2164 -1.8031 0.9765
-5.1702 -2.7589 -1.8611 0.9757
-5.0786 -3.3222 -1.9273 0.9749
-4.5542 -5.1496 -2.1833 0.9716
-3.5383 -7.2003 -2.5479 0.9669
-1.8125 -9.4560 -3.0577 0.9604
-1.0293 -10.2311 -3.2657 0.9578
-0.1226 -11.0061 -3.4956 0.9549
0.9196 -11.7674 -3.7485 0.9517
2.1079 -12.4967 -4.0248 0.9482
3.4504 -13.1699 -4.3237 0.9445
10.8348 5.4751 -3.8553 0.9503
9.5969 5.9770 -3.5906 0.9537
8.4158 6.3467 -3.3476 0.9567
7.3006 6.6030 -3.1262 0.9595
6.2553 6.7632 -2.9257 0.9621
5.2808 6.8425 -2.7450 0.9644
2.7605 6.7172 -2.3064 0.9700
1.3800 6.4222 -2.0861 0.9728
0.7673 6.2306 -1.9937 0.9740
0.2013 6.0161 -1.9117 0.9751
-0.3223 5.7808 -1.8387 0.9760
-1.0041 4.2135 -1.3756 0.9820
-2.0462 4.6798 -1.6221 0.9788
-2.5546 4.6616 -1.6882 0.9779
-2.9017 4.3296 -1.6553 0.9784
-4.0330 2.9028 -1.5781 0.9794
-4.6401 1.7280 -1.5725 0.9794
-2.6951 0.2408 -0.8593 0.9887
-2.6945 0.0000 -0.9053 0.9887
-2.7374 -0.2446 -0.9234 0.9885
-5.0402 -1.8770 -1.8070 0.9776
-4.8047 -3.4582 -1.9889 0.9753
-4.6520 -4.0227 -2.0663 0.9744
-4.2105 -5.2113 -2.2510 0.9721
-3.1217 -7.1396 -2.6181 0.9677
0.3519 -10.5252 -3.5383 0.9565
1.3738 -11.1544 -3.7760 0.9537
3.7946 -12.2325 -4.3031 0.9474
5.1895 -12.6279 -4.5870 0.9440
13.6883 2.1524 -4.6555 0.9432
10.4624 4.7142 -3.8555 0.9527
9.3689 5.2709 -3.6117 0.9557
8.3043 5.7006 -3.3842 0.9584
6.3091 6.2392 -2.9812 0.9633
4.5290 6.4425 -2.6459 0.9673
3.7228 6.4482 -2.5016 0.9691
2.2717 6.3142 -2.2546 0.9721
1.0176 6.0332 -2.0556 0.9745
0.4572 5.8511 -1.9718 0.9755
-0.5451 5.4181 -1.8296 0.9773
-0.8221 4.2889 -1.4672 0.9817
-2.2820 4.6438 -1.7385 0.9784
-2.9549 4.0105 -1.6737 0.9792
-3.2527 3.6779 -1.6496 0.9795
-3.5263 3.3352 -1.6307 0.9797
-3.7768 2.9825 -1.6169 0.9799
-4.0049 2.6199 -1.6079 0.9800
-4.5593 1.4702 -1.6095 0.9800
-2.6272 0.5953 -0.9050 0.9887
-2.6180 0.3521 -0.8875 0.9889
-2.7751 -0.3732 -0.9408 0.9883
-2.8653 -0.6492 -0.9871 0.9877
-5.0217 -2.1294 -1.8326 0.9772
-4.9609 -2.6472 -1.8892 0.9766
-4.8660 -3.1831 -1.9536 0.9758
-4.5595 -4.3124 -2.1086 0.9739
-3.7387 -6.1548 -2.4196 0.9701
-3.3451 -6.8071 -2.5483 0.9685
-2.8793 -7.4758 -2.6916 0.9668
-2.3326 -8.1577 -2.8507 0.9648
-1.6950 -8.8425 -3.0250 0.9627
-0.9583 -9.5253 -3.2165 0.9604
-0.1136 -10.1973 -3.4263 0.9579
1.9316 -11.4510 -3.9017 0.9522
3.1421 -11.9933 -4.1655 0.9490
4.4775 -12.4453 -4.4438 0.9457
13.1787 2.6787 -4.5183 0.9448
12.1112 3.6095 -4.2460 0.9481
11.0144 4.3836 -3.9829 0.9512
9.9131 5.0094 -3.7317 0.9542
8.8321 5.5007 -3.4959 0.9570
7.7871 5.8726 -3.2769 0.9597
6.7887 6.1401 -3.0754 0.9621
5.8430 6.3174 -2.8912 0.9643
4.9529 6.4177 -2.7237 0.9664
1.3141 6.1146 -2.1013 0.9740
0.1923 5.7519 -1.9336 0.9760
-0.3086 5.5340 -1.8622 0.9769
-1.6005 4.7806 -1.6938 0.9790
-3.1069 3.8455 -1.6610 0.9794
-3.3924 3.5078 -1.6396 0.9796
-4.1107 2.4348 -1.6052 0.9800
-4.3062 2.0569 -1.6034 0.9801
-2.7169 0.4895 -0.9275 0.9884
-2.6500 0.2368 -0.8939 0.9888
-2.6931 -0.2406 -0.9588 0.9886
-4.8502 -1.8062 -1.8352 0.9783
-4.6061 -3.3153 -2.0123 0.9762
-4.2569 -4.4016 -2.1713 0.9743
-4.0146 -4.9689 -2.2651 0.9733
-3.7206 -5.5515 -2.3697 0.9720
-3.3692 -6.1480 -2.4859 0.9707
-2.4685 -7.3730 -2.7570 0.9675
-1.9045 -7.9914 -2.9130 0.9657
2.3183 -10.7884 -3.9127 0.9542
7.4434 -11.6598 -4.9050 0.9430
12.3595 1.9435 -4.4364 0.9483
11.4888 2.8736 -4.1993 0.9510
10.5601 3.6669 -3.9638 0.9537
8.6489 4.8658 -3.5188 0.9588
7.7034 5.2881 -3.3132 0.9611
6.7852 5.6081 -3.1214 0.9633
5.9034 5.8380 -2.9440 0.9654
5.0635 5.9892 -2.7809 0.9673
4.2686 6.0722 -2.6319 0.9690
1.5450 5.8971 -2.1616 0.9745
0.9716 5.7606 -2.0714 0.9755
0.4364 5.5851 -1.9864 0.9765
-0.0602 5.4076 -1.9176 0.9773
-1.3516 4.7269 -1.7433 0.9794
-2.1991 4.4751 -1.7681 0.9791
-2.5381 4.1783 -1.7335 0.9795
-2.8514 3.8700 -1.7045 0.9798
-3.4058 3.2212 -1.6623 0.9803
-3.8699 2.5316 -1.6398 0.9806
-4.0696 2.1716 -1.6356 0.9806
-2.6346 0.1175 -0.9351 0.9889
-2.6733 -0.1192 -0.9489 0.9887
-2.7260 -0.3666 -0.9753 0.9884
-2.8093 -0.6365 -1.0214 0.9878
-4.8299 -2.0480 -1.8602 0.9780
-4.6683 -3.0539 -1.9781 0.9766
-4.5344 -3.5808 -2.0487 0.9758
-4.3603 -4.1239 -2.1281 0.9749
-3.8744 -5.2584 -2.3160 0.9727
-2.1969 -7.6831 -2.8335 0.9667
-1.5906 -8.2981 -2.9960 0.9648
-0.1057 -9.4919 -3.3659 0.9605
1.7809 -10.5576 -3.7965 0.9556
2.8818 -10.9996 -4.0320 0.9529
4.0839 -11.3513 -4.2776 0.9501
12.7973 1.4316 -4.5660 0.9468
11.0296 3.2872 -4.0810 0.9523
7.2402 5.4602 -3.2155 0.9622
6.3393 5.7336 -3.0309 0.9644
5.4779 5.9227 -2.8607 0.9663
3.1629 6.0897 -2.4332 0.9713
1.2534 5.8325 -2.1153 0.9750
0.6984 5.6703 -2.0258 0.9760
0.1841 5.5051 -1.9531 0.9769
-0.2958 5.3050 -1.8840 0.9777
-1.0045 4.2150 -1.5364 0.9818
-1.5401 4.6001 -1.7201 0.9796
-1.9191 4.3890 -1.6985 0.9799
-2.3719 4.3282 -1.7501 0.9793
-2.6979 4.0256 -1.7183 0.9796
-3.2760 3.3874 -1.6709 0.9802
-3.5301 3.0527 -1.6548 0.9804
-2.6624 0.4797 -0.9592 0.9886
-2.6060 0.2329 -0.9277 0.9890
-2.6101 0.0000 -0.9746 0.9889
-4.6721 -1.7399 -1.8617 0.9789
-4.6206 -2.2071 -1.9121 0.9784
-4.5379 -2.6878 -1.9694 0.9777
-3.8342 -4.7456 -2.2782 0.9743
-3.2037 -5.8461 -2.4893 0.9719
-2.8019 -6.4081 -2.6116 0.9706
-2.3347 -6.9735 -2.7461 0.9691
-1.7957 -7.5350 -2.8925 0.9675
-0.4804 -8.6157 -3.2222 0.9638
0.3048 -9.1176 -3.4065 0.9618
2.1439 -9.9767 -3.8104 0.9574
3.1947 -10.2988 -4.0265 0.9550
6.7545 -10.5806 -4.6874 0.9478
8.0054 -10.3728 -4.8927 0.9456
9.2342 -9.9839 -5.0782 0.9436
13.2402 -0.2950 -4.9453 0.9450
11.2541 1.7697 -4.2540 0.9525
8.8700 3.9966 -3.6328 0.9593
8.0229 4.5135 -3.4373 0.9615
7.1780 4.9275 -3.2511 0.9635
6.3475 5.2464 -3.0750 0.9654
5.5429 5.4815 -2.9109 0.9673
4.0341 5.7386 -2.6194 0.9705
3.3360 5.7782 -2.4914 0.9719
2.6768 5.7685 -2.3746 0.9732
2.0568 5.7169 -2.2687 0.9744
1.4746 5.6286 -2.1727 0.9755
0.9273 5.4975 -2.0818 0.9765
0.4180 5.3498 -2.0038 0.9773
-0.0577 5.1865 -1.9368 0.9781
-0.5022 4.9921 -1.8735 0.9788
-0.8345 4.3534 -1.6552 0.9813
-1.3012 4.5507 -1.7674 0.9800
-1.6591 4.3080 -1.7238 0.9805
-2.4498 4.0329 -1.7620 0.9801
-2.7538 3.7376 -1.7336 0.9804
-3.0343 3.4310 -1.7103 0.9806
-3.2921 3.1137 -1.6920 0.9808
-3.5279 2.7860 -1.6786 0.9810
-3.9357 2.1002 -1.6658 0.9811
-2.5436 0.5763 -0.9739 0.9889
-2.5325 0.3406 -0.9542 0.9891
-2.6307 -0.1173 -0.9833 0.9888
-2.6781 -0.3602 -1.0090 0.9885
-2.8043 -0.9042 -1.1002 0.9875
-4.6501 -1.9718 -1.8861 0.9787
-4.5833 -2.4457 -1.9399 0.9781
-4.4840 -2.9333 -2.0008 0.9774
-4.3492 -3.4345 -2.0694 0.9766
-4.1757 -3.9493 -2.1462 0.9758
-3.9595 -4.4771 -2.2318 0.9748
-3.6965 -5.0170 -2.3270 0.9737
-3.0106 -6.1264 -2.5490 0.9713
-2.5769 -6.6907 -2.6773 0.9699
-2.0747 -7.2559 -2.8180 0.9683
-1.4973 -7.8114 -2.9700 0.9666
-0.8403 -8.3530 -3.1349 0.9648
0.7309 -9.3534 -3.5033 0.9607
2.6589 -10.1487 -3.9176 0.9562
6.1323 -10.6214 -4.5797 0.9490
7.3803 -10.4985 -4.7920 0.9467
8.6251 -10.2017 -4.9885 0.9446
9.8274 -9.7185 -5.1610 0.9427
13.7634 -2.1641 -5.2025 0.9422
13.4615 -0.9011 -5.0379 0.9440
12.3446 1.3810 -4.6384 0.9483
10.1156 3.0148 -3.9415 0.9559
7.5993 4.7329 -3.3430 0.9625
5.1524 5.5707 -2.8335 0.9681
3.6802 5.7650 -2.5539 0.9712
3.0014 5.7788 -2.4316 0.9726
0.1764 5.2760 -1.9712 0.9777
-0.2839 5.0918 -1.9043 0.9785
-0.7129 4.8880 -1.8445 0.9791
-1.0058 4.2207 -1.6202 0.9816
-2.2886 4.1762 -1.7783 0.9799
-2.6048 3.8867 -1.7471 0.9802
-4.1868 1.5592 -1.6683 0.9811
-3.4441 0.9435 -1.3334 0.9849
-2.6096 0.4702 -0.9901 0.9887
-2.5629 0.2290 -0.9608 0.9891
-4.3662 -2.5860 -1.9916 0.9784
-4.0952 -3.5412 -2.1248 0.9770
-3.9026 -4.0353 -2.2032 0.9762
-2.6630 -6.0904 -2.6088 0.9718
-1.6975 -7.1231 -2.8739 0.9690
-1.1113 -7.6198 -3.0222 0.9675
-0.4513 -8.0943 -3.1817 0.9658
1.1002 -8.9331 -3.5325 0.9621
2.9567 -9.5316 -3.9167 0.9580
3.9856 -9.6983 -4.1152 0.9559
5.0651 -9.7520 -4.3128 0.9539
10.3463 -7.8024 -5.0859 0.9458
12.4727 -3.7172 -5.1080 0.9456
12.3700 -1.3837 -4.8851 0.9479
12.0490 -0.2685 -4.7301 0.9495
11.5791 0.7752 -4.5546 0.9514
10.9883 1.7279 -4.3656 0.9533
8.9749 3.1165 -3.7287 0.9600
8.2332 3.7097 -3.5442 0.9619
5.2198 5.1620 -2.8812 0.9689
3.1684 5.4877 -2.4869 0.9731
1.9587 5.4444 -2.2708 0.9754
0.8880 5.2643 -2.0952 0.9773
-0.4829 4.8000 -1.8933 0.9795
-1.2539 4.3851 -1.7900 0.9806
-1.6105 4.1816 -1.7586 0.9809
-3.1843 3.0118 -1.7202 0.9813
-3.4133 2.6955 -1.7070 0.9815
-3.8089 2.0325 -1.6944 0.9816
-3.9759 1.6860 -1.6949 0.9816
-4.1224 1.3293 -1.7000 0.9816
-2.6312 -0.3538 -1.0420 0.9887
-2.7055 -0.6130 -1.0887 0.9882
-2.7236 -0.8782 -1.1231 0.9878
-4.4813 -1.9002 -1.9104 0.9793
-4.4123 -2.3545 -1.9629 0.9787
-4.3117 -2.8205 -2.0221 0.9781
-4.0040 -3.7869 -2.1630 0.9766
-3.7905 -4.2860 -2.2456 0.9757
-3.5323 -4.7941 -2.3371 0.9747
-3.2252 -5.3095 -2.4382 0.9737
-2.4460 -6.3510 -2.6711 0.9712
-1.4134 -7.3736 -2.9466 0.9683
-0.0927 -8.3200 -3.2656 0.9649
1.5367 -9.1102 -3.6260 0.9611
2.4657 -9.4116 -3.8185 0.9591
3.4638 -9.6279 -4.0158 0.9570
6.7350 -9.5806 -4.5963 0.9509
7.8429 -9.2766 -4.7676 0.9491
8.9083 -8.8095 -4.9171 0.9476
9.8945 -8.1779 -5.0380 0.9463
10.7646 -7.3895 -5.1244 0.9454
11.4848 -6.4612 -5.1718 0.9449
12.0276 -5.4193 -5.1775 0.9449
12.5199 -3.1314 -5.0651 0.9461
12.4667 -1.9603 -4.9529 0.9472
12.2298 -0.8187 -4.8106 0.9487
11.8310 0.2637 -4.6445 0.9504
11.2971 1.2638 -4.4614 0.9523
8.6076 3.4258 -3.6360 0.9610
7.8541 3.9689 -3.4537 0.9629
7.0895 4.4154 -3.2779 0.9647
6.3334 4.7763 -3.1133 0.9665
5.5863 5.0524 -2.9561 0.9682
4.1599 5.3902 -2.6722 0.9712
2.8542 5.4954 -2.4303 0.9737
0.6406 5.2008 -2.0566 0.9777
0.1690 5.0551 -1.9851 0.9785
-0.2728 4.8926 -1.9232 0.9792
-0.6858 4.7026 -1.8652 0.9798
-1.0080 4.2296 -1.7064 0.9815
-1.4301 4.2716 -1.7679 0.9808
-1.8790 4.2975 -1.8408 0.9800
-2.5169 3.7555 -1.7743 0.9808
-3.0618 3.1660 -1.7286 0.9813
-3.3015 2.8550 -1.7130 0.9814
-3.5200 2.5336 -1.7021 0.9815
-2.5207 0.2253 -0.9932 0.9892
-2.5655 -0.2292 -1.0607 0.9889
-2.6211 -0.4722 -1.0967 0.9885
-2.6436 -0.9845 -1.1616 0.9879
-4.2049 -2.4905 -2.0124 0.9791
-4.0869 -2.9415 -2.0735 0.9785
-3.9342 -3.4020 -2.1417 0.9778
-3.5124 -4.3473 -2.3014 0.9761
-3.2364 -4.8291 -2.3938 0.9752
-2.9122 -5.3140 -2.4953 0.9741
-2.5356 -5.7991 -2.6062 0.9730
-2.1025 -6.2799 -2.7271 0.9718
-1.0501 -7.2004 -2.9964 0.9690
-0.4253 -7.6267 -3.1454 0.9675
0.2681 -8.0182 -3.3036 0.9659
1.8588 -8.6501 -3.6433 0.9624
2.7492 -8.8626 -3.8210 0.9607
7.6672 -8.2896 -4.6497 0.9523
8.5890 -7.7683 -4.7688 0.9511
11.3550 -3.3841 -4.8790 0.9500
11.4147 -2.3201 -4.7964 0.9509
11.3057 -1.2647 -4.6845 0.9520
11.0425 -0.2460 -4.5482 0.9533
10.6448 0.7126 -4.3931 0.9549
8.9582 2.2406 -3.8025 0.9608
6.9896 3.9323 -3.3024 0.9659
6.2951 4.3214 -3.1442 0.9675
2.4261 5.2281 -2.3733 0.9754
0.8514 5.0472 -2.1077 0.9781
0.3850 4.9268 -2.0349 0.9788
-0.0533 4.7875 -1.9715 0.9795
-0.4647 4.6198 -1.9119 0.9801
-0.8497 4.4330 -1.8586 0.9807
-1.2093 4.2293 -1.8113 0.9812
-1.6014 4.1582 -1.8348 0.9809
-3.0821 2.9151 -1.7469 0.9818
-3.5066 2.2940 -1.7255 0.9820
-3.6884 1.9683 -1.7215 0.9821
-3.9916 1.2872 -1.7270 0.9820
-2.6387 0.5979 -1.1141 0.9884
-2.5479 -0.1136 -1.0502 0.9890
-2.6300 -0.5959 -1.1104 0.9884
-2.6464 -0.8534 -1.1450 0.9880
-4.2517 -2.2687 -1.9844 0.9794
-4.1501 -2.7148 -2.0421 0.9788
-4.0151 -3.1707 -2.1067 0.9781
-3.8439 -3.6355 -2.1787 0.9774
-3.6334 -4.1083 -2.2584 0.9766
-3.3802 -4.5876 -2.3465 0.9757
-3.0806 -5.0714 -2.4434 0.9747
-2.7307 -5.5568 -2.5496 0.9736
-0.7462 -7.4172 -3.0697 0.9683
0.6406 -8.1976 -3.3859 0.9651
4.1806 -9.0088 -4.0896 0.9579
8.1372 -8.0470 -4.7125 0.9517
9.0189 -7.4542 -4.8181 0.9506
10.4439 -5.8756 -4.9345 0.9495
11.2595 -3.9096 -4.9080 0.9497
11.1922 -0.7492 -4.6191 0.9526
10.8591 0.2420 -4.4727 0.9541
10.4027 1.1637 -4.3103 0.9557
8.6539 2.5792 -3.7184 0.9617
8.0100 3.1879 -3.5500 0.9634
7.3343 3.7062 -3.3838 0.9651
6.6427 4.1371 -3.2225 0.9667
5.9482 4.4858 -3.0678 0.9683
5.2612 4.7585 -2.9211 0.9698
4.5894 4.9620 -2.7832 0.9712
2.7144 5.2262 -2.4250 0.9748
2.1451 5.2198 -2.3238 0.9759
1.6054 5.1753 -2.2313 0.9768
0.6146 4.9903 -2.0704 0.9785
0.1624 4.8572 -2.0012 0.9792
-1.8147 4.1503 -1.8652 0.9806
-2.1358 3.8973 -1.8300 0.9810
-2.4337 3.6313 -1.8001 0.9813
-2.7092 3.3533 -1.7752 0.9815
-2.9631 3.0639 -1.7552 0.9817
-3.1960 2.7637 -1.7399 0.9819
-3.4082 2.4531 -1.7292 0.9820
-3.6000 2.1323 -1.7230 0.9821
-3.7718 1.8017 -1.7212 0.9821
-2.4893 0.0000 -1.0738 0.9892
-2.5389 -0.4574 -1.1128 0.9888
-2.5688 -0.9566 -1.1824 0.9881
-2.7830 -5.0783 -2.4980 0.9751
-2.4183 -5.5308 -2.6039 0.9740
-2.0010 -5.9767 -2.7188 0.9729
-0.4017 -7.2047 -3.1126 0.9691
0.9676 -7.8562 -3.4144 0.9661
3.4368 -8.3628 -3.9001 0.9614
4.3389 -8.3538 -4.0605 0.9598
7.0563 -7.6291 -4.4827 0.9557
7.8886 -7.1347 -4.5881 0.9547
9.8082 -4.9562 -4.7403 0.9533
10.1851 -4.0535 -4.7286 0.9534
9.8399 0.6588 -4.2540 0.9579
7.7767 2.7004 -3.5510 0.9648
6.5601 3.6907 -3.2468 0.9677
5.2893 4.3718 -2.9600 0.9705
4.6596 4.6080 -2.8268 0.9719
3.4452 4.9009 -2.5841 0.9742
2.8690 4.9693 -2.4751 0.9753
2.3171 4.9931 -2.3744 0.9763
1.7907 4.9773 -2.2817 0.9772
1.2907 4.9265 -2.1968 0.9781
0.8172 4.8448 -2.1194 0.9788
0.3701 4.7357 -2.0490 0.9795
-0.0513 4.6066 -1.9872 0.9801
-1.1673 4.0823 -1.8315 0.9817
-2.2128 3.6428 -1.8385 0.9816
-3.3975 2.2226 -1.7513 0.9825
-3.5738 1.9071 -1.7474 0.9825
-3.8673 1.2470 -1.7528 0.9825
-2.4106 0.3242 -1.0492 0.9895
-2.4654 0.1099 -1.0645 0.9893
-2.5076 -0.1118 -1.0828 0.9891
-2.6695 -1.1320 -1.2508 0.9874
-3.9982 -2.6154 -2.0609 0.9794
-3.8636 -3.0511 -2.1236 0.9788
-3.6941 -3.4939 -2.1933 0.9781
-3.2388 -4.3957 -2.3552 0.9765
-1.2684 -6.6170 -2.9063 0.9711
-0.0822 -7.3842 -3.1855 0.9683
1.3472 -7.9864 -3.4937 0.9653
2.1475 -8.1970 -3.6552 0.9638
2.9968 -8.3298 -3.8186 0.9622
3.8847 -8.3713 -3.9809 0.9606
4.7971 -8.3087 -4.1385 0.9591
6.6184 -7.8282 -4.4219 0.9563
8.2764 -6.8405 -4.6316 0.9543
9.5651 -5.3812 -4.7341 0.9533
10.0153 -4.5126 -4.7385 0.9533
10.4632 -2.6170 -4.6524 0.9541
9.1423 1.8583 -4.0242 0.9602
6.2438 3.8887 -3.1729 0.9685
4.9732 4.4980 -2.8925 0.9712
4.3494 4.7025 -2.7631 0.9725
3.7417 4.8482 -2.6417 0.9737
3.1542 4.9410 -2.5286 0.9748
2.0506 4.9898 -2.3271 0.9768
1.5374 4.9560 -2.2383 0.9776
0.5904 4.7935 -2.0833 0.9792
-0.6366 4.3649 -1.9027 0.9810
-1.3483 4.0271 -1.8319 0.9817
-1.7537 4.0110 -1.8883 0.9811
-2.0654 3.7689 -1.8538 0.9815
-2.3547 3.5136 -1.8245 0.9817
-2.8694 2.9670 -1.7804 0.9822
-3.0957 2.6770 -1.7654 0.9823
-3.3018 2.3766 -1.7549 0.9824
-3.6547 1.7457 -1.7471 0.9825
-2.4719 0.4454 -1.0835 0.9891
-2.4387 0.2179 -1.0561 0.9894
-2.4702 -0.6766 -1.1556 0.9888
-2.4890 -0.9269 -1.1984 0.9884
-3.9973 -1.9093 -1.9989 0.9807
-3.6419 -3.1492 -2.1725 0.9791
-3.2334 -4.0021 -2.3216 0.9777
-2.3099 -5.2829 -2.6017 0.9750
-1.4527 -6.0960 -2.8277 0.9729
-0.9440 -6.4729 -2.9516 0.9717
0.2385 -7.1342 -3.2209 0.9692
0.9115 -7.4005 -3.3645 0.9678
1.6353 -7.6101 -3.5122 0.9664
3.2109 -7.8133 -3.8116 0.9636
9.0358 -4.5660 -4.5681 0.9565
9.3849 -3.7351 -4.5577 0.9566
9.5984 -2.8606 -4.5192 0.9570
9.6741 -1.9663 -4.4544 0.9576
9.6160 -1.0757 -4.3660 0.9584
9.4332 -0.2102 -4.2575 0.9594
9.1389 0.6118 -4.1328 0.9606
8.2811 2.0712 -3.8517 0.9632
7.2803 2.5280 -3.4774 0.9667
6.1752 3.4741 -3.1970 0.9694
5.0049 4.1367 -2.9298 0.9719
4.4197 4.3708 -2.8047 0.9731
3.8439 4.5465 -2.6864 0.9742
3.2823 4.6692 -2.5753 0.9753
2.7389 4.7438 -2.4716 0.9762
0.7853 4.6554 -2.1302 0.9795
-0.0494 4.4367 -2.0020 0.9807
-0.4316 4.2908 -1.9458 0.9813
-1.1276 3.9436 -1.8507 0.9822
-1.5365 3.9895 -1.9290 0.9814
-1.8500 3.7647 -1.8927 0.9818
-2.1418 3.5259 -1.8615 0.9821
-2.8926 2.7359 -1.7965 0.9827
-3.1028 2.4503 -1.7840 0.9828
-3.2935 2.1545 -1.7758 0.9829
-3.4647 1.8489 -1.7720 0.9829
-2.4105 0.1075 -1.0887 0.9895
-2.4395 -0.1088 -1.1018 0.9893
-2.4521 -0.3298 -1.1164 0.9892
-2.4671 -0.5589 -1.1414 0.9890
-2.4782 -0.7991 -1.1749 0.9886
-3.8550 -2.5218 -2.0786 0.9800
-3.5537 -3.3610 -2.2071 0.9788
-3.3498 -3.7877 -2.2816 0.9781
-3.1069 -4.2168 -2.3634 0.9773
-2.8221 -4.6459 -2.4528 0.9764
-2.4925 -5.0721 -2.5500 0.9755
1.2673 -7.5131 -3.4379 0.9671
2.0147 -7.6901 -3.5870 0.9657
2.8038 -7.7932 -3.7371 0.9643
4.4639 -7.7317 -4.0284 0.9616
5.3054 -7.5470 -4.1626 0.9603
6.1296 -7.2501 -4.2839 0.9592
6.9149 -6.8382 -4.3881 0.9582
7.6384 -6.3133 -4.4714 0.9574
9.2269 -4.1574 -4.5664 0.9566
9.6534 -2.4144 -4.4899 0.9573
9.6614 -1.5191 -4.4129 0.9580
9.2990 0.2073 -4.1969 0.9600
8.9549 1.0018 -4.0658 0.9612
8.5238 1.7326 -3.9247 0.9625
7.7654 2.3144 -3.6562 0.9651
5.8852 3.6654 -3.1284 0.9700
5.2990 3.9962 -2.9947 0.9713
4.7115 4.2613 -2.8665 0.9725
4.1303 4.4656 -2.7447 0.9737
2.4747 4.7647 -2.4226 0.9767
1.9629 4.7764 -2.3301 0.9776
1.4741 4.7518 -2.2449 0.9784
1.0089 4.6948 -2.1667 0.9791
0.5677 4.6091 -2.0954 0.9798
0.1504 4.4977 -2.0306 0.9804
-0.6141 4.2105 -1.9199 0.9815
-1.9986 3.6470 -1.8765 0.9819
-2.5401 3.1440 -1.8238 0.9824
-2.7801 2.8747 -1.8045 0.9826
-3.2006 2.3037 -1.7793 0.9828
-3.3815 2.0029 -1.7734 0.9829
-3.5430 1.6924 -1.7717 0.9829
-3.8075 1.0430 -1.7813 0.9828
-2.3848 0.2131 -1.0804 0.9895
-2.3773 -0.2124 -1.1251 0.9895
-2.3816 -0.4290 -1.1407 0.9894
-3.5086 -3.0340 -2.1865 0.9797
-3.3260 -3.4390 -2.2552 0.9791
-2.8500 -4.2525 -2.4131 0.9776
-1.8212 -5.4397 -2.7040 0.9750
-0.3609 -6.4726 -3.0558 0.9717
0.2258 -6.7536 -3.1853 0.9706
1.5406 -7.1695 -3.4567 0.9681
2.2598 -7.2848 -3.5953 0.9668
3.0102 -7.3247 -3.7329 0.9656
4.5587 -7.1411 -3.9936 0.9632
5.3272 -6.9025 -4.1100 0.9622
6.7613 -6.1152 -4.2973 0.9605
7.3877 -5.5713 -4.3616 0.9599
7.9282 -4.9377 -4.4027 0.9595
8.6917 -3.4592 -4.4096 0.9595
8.9746 -1.8241 -4.3169 0.9603
8.7791 -0.1956 -4.1393 0.9619
8.5225 0.5706 -4.0263 0.9629
7.0207 2.4379 -3.5032 0.9677
6.3471 2.8599 -3.2815 0.9697
5.2910 3.6321 -3.0251 0.9720
4.7458 3.9225 -2.9023 0.9731
4.2002 4.1537 -2.7845 0.9742
3.6606 4.3298 -2.6726 0.9752
1.6454 4.5735 -2.2911 0.9787
1.1896 4.5406 -2.2126 0.9795
0.7553 4.4776 -2.1405 0.9801
0.3429 4.3878 -2.0746 0.9807
-0.4165 4.1401 -1.9614 0.9818
-0.7637 3.9843 -1.9123 0.9822
-1.4863 3.8593 -1.9494 0.9819
-1.7907 3.6440 -1.9139 0.9822
-2.3374 3.1724 -1.8575 0.9827
-2.5807 2.9181 -1.8363 0.9829
-3.0089 2.3762 -1.8072 0.9832
-3.3605 1.7932 -1.7955 0.9833
-3.5077 1.4874 -1.7960 0.9833
-2.5264 0.5724 -1.2211 0.9886
-2.2973 0.3090 -1.0926 0.9898
-2.3799 -0.3200 -1.1319 0.9894
-2.3894 -0.5413 -1.1548 0.9892
-2.3945 -0.7721 -1.1859 0.9889
-3.5871 -2.8327 -2.1545 0.9800
-3.2213 -3.6424 -2.2921 0.9787
-2.7061 -4.4548 -2.4570 0.9772
-2.3861 -4.8556 -2.5503 0.9764
-2.0212 -5.2480 -2.6509 0.9754
-1.1472 -5.9849 -2.8725 0.9734
-0.6356 -6.3179 -2.9931 0.9723
-0.0737 -6.6182 -3.1199 0.9712
0.5374 -6.8776 -3.2518 0.9700
1.1954 -7.0867 -3.3877 0.9687
2.6317 -7.3148 -3.6644 0.9662
4.1700 -7.2225 -3.9312 0.9638
5.7022 -6.7446 -4.1632 0.9617
6.4218 -6.3506 -4.2573 0.9608
8.8088 -3.0587 -4.3954 0.9596
8.9688 -1.4102 -4.2796 0.9606
8.8698 -0.5937 -4.1904 0.9615
8.6628 0.1931 -4.0844 0.9624
8.3601 0.9353 -3.9653 0.9635
7.9760 1.6212 -3.8366 0.9646
6.5966 2.6254 -3.3467 0.9691
6.0904 3.0776 -3.2166 0.9703
5.5611 3.4635 -3.0882 0.9714
3.9293 4.2484 -2.7278 0.9747
2.8731 4.5006 -2.5169 0.9767
2.3678 4.5589 -2.4215 0.9775
1.8812 4.5777 -2.3329 0.9784
0.5463 4.4359 -2.1068 0.9804
-0.2348 4.2108 -1.9880 0.9815
-0.5928 4.0645 -1.9362 0.9820
-0.9294 3.9003 -1.8900 0.9824
-1.6411 3.7535 -1.9310 0.9820
-2.2083 3.2952 -1.8698 0.9826
-2.4616 3.0467 -1.8463 0.9828
-2.6950 2.7867 -1.8274 0.9830
-3.1039 2.2341 -1.8027 0.9832
-3.2797 1.9426 -1.7968 0.9833
-3.4365 1.6415 -1.7952 0.9833
-3.5741 1.3310 -1.7978 0.9833
-2.3515 0.4237 -1.1263 0.9895
-2.2975 0.0000 -1.1300 0.9898
-2.3094 -0.2063 -1.1404 0.9897
-2.3082 -0.4158 -1.1536 0.9896
-2.3175 -0.6348 -1.1819 0.9893
-2.3666 -1.1304 -1.2900 0.9884
-3.6464 -2.1597 -2.0845 0.9813
-3.5299 -2.5406 -2.1392 0.9808
-3.2032 -3.3120 -2.2663 0.9797
-2.9889 -3.6993 -2.3392 0.9790
-1.7412 -5.2006 -2.6975 0.9758
-0.8550 -5.8625 -2.9140 0.9739
-0.3431 -6.1527 -3.0309 0.9729
0.2142 -6.4063 -3.1528 0.9718
0.8148 -6.6154 -3.2784 0.9707
2.1295 -6.8648 -3.5352 0.9685
2.8304 -6.8873 -3.6625 0.9674
3.5476 -6.8303 -3.7856 0.9663
4.2687 -6.6867 -3.9019 0.9653
4.9789 -6.4513 -4.0082 0.9643
6.8773 -5.1863 -4.2367 0.9623
8.0851 -3.2178 -4.2800 0.9620
8.3605 -1.6993 -4.1962 0.9627
8.3327 -0.9321 -4.1240 0.9633
8.2015 -0.1827 -4.0349 0.9641
7.9761 0.5340 -3.9319 0.9650
7.2906 1.8235 -3.6964 0.9671
5.9909 2.6994 -3.2320 0.9711
3.9985 3.9542 -2.7659 0.9752
3.4916 4.1298 -2.6599 0.9762
2.9928 4.2574 -2.5596 0.9771
2.0345 4.3842 -2.3773 0.9787
1.5799 4.3913 -2.2954 0.9794
0.7271 4.3105 -2.1501 0.9807
-0.0459 4.1252 -2.0291 0.9818
-0.4021 3.9975 -1.9761 0.9823
-0.7381 3.8508 -1.9285 0.9827
-1.1138 3.8951 -1.9926 0.9821
-1.4386 3.7354 -1.9688 0.9823
-2.0098 3.3087 -1.9041 0.9829
-2.2658 3.0753 -1.8788 0.9831
-2.7202 2.5728 -1.8416 0.9834
-3.0993 2.0275 -1.8216 0.9836
-3.2609 1.7401 -1.8179 0.9837
-2.2513 0.3028 -1.1173 0.9899
-2.2893 0.1021 -1.1271 0.9898
-2.3173 -0.7472 -1.1976 0.9892
-2.3375 -0.9912 -1.2488 0.9887
-3.6938 -1.9710 -2.0593 0.9815
-3.5918 -2.3497 -2.1111 0.9810
-3.2972 -3.1184 -2.2322 0.9800
-2.8680 -3.8925 -2.3781 0.9787
-2.2869 -4.6538 -2.5505 0.9772
-1.9340 -5.0217 -2.6468 0.9763
-1.5368 -5.3745 -2.7494 0.9754
0.5093 -6.5170 -3.2152 0.9713
2.4772 -6.8855 -3.5992 0.9679
6.5978 -5.4531 -4.2101 0.9626
7.1372 -4.8994 -4.2580 0.9621
7.9468 -3.5806 -4.2871 0.9619
8.3335 -2.0843 -4.2251 0.9624
8.2795 -0.5542 -4.0814 0.9637
7.4872 1.5219 -3.7579 0.9665
7.0798 2.1100 -3.6336 0.9676
5.7550 2.9082 -3.1715 0.9717
3.7443 4.0483 -2.7123 0.9757
0.9329 4.3415 -2.1841 0.9804
0.1398 4.1790 -2.0566 0.9815
-0.2266 4.0639 -2.0019 0.9820
-1.5889 3.6341 -1.9508 0.9825
-1.8745 3.4206 -1.9185 0.9828
-2.6137 2.7026 -1.8493 0.9834
-3.0116 2.1676 -1.8250 0.9836
-3.3346 1.5929 -1.8177 0.9837
-2.3061 0.4155 -1.1525 0.9896
-2.2481 -0.6158 -1.1950 0.9896
-2.2593 -0.8414 -1.2360 0.9892
-2.2721 -1.0853 -1.2909 0.9887
-3.5247 -2.0877 -2.1002 0.9818
-3.2639 -2.8224 -2.2122 0.9808
-3.0873 -3.1922 -2.2767 0.9802
-2.6322 -3.9276 -2.4239 0.9790
-2.0286 -4.6396 -2.5960 0.9775
-1.6667 -4.9781 -2.6914 0.9767
-0.8156 -5.5924 -2.8974 0.9749
-0.3266 -5.8584 -3.0081 0.9740
0.2036 -6.0882 -3.1230 0.9730
0.7728 -6.2744 -3.2410 0.9720
1.3773 -6.4093 -3.3609 0.9710
3.3382 -6.4270 -3.7129 0.9680
6.8878 -4.2897 -4.1600 0.9642
7.2654 -3.6713 -4.1733 0.9641
7.7340 -2.3049 -4.1373 0.9644
7.8168 -1.5888 -4.0894 0.9648
7.7996 -0.8725 -4.0235 0.9653
7.6874 -0.1713 -3.9420 0.9660
7.2118 1.1340 -3.7427 0.9677
4.7645 3.2706 -2.9627 0.9744
1.5184 4.2203 -2.2994 0.9800
1.1006 4.2010 -2.2264 0.9807
0.3187 4.0787 -2.0974 0.9818
-0.0443 3.9820 -2.0415 0.9823
-0.3885 3.8622 -1.9900 0.9827
-0.7216 3.7643 -1.9650 0.9829
-1.0865 3.7998 -2.0261 0.9824
-1.6803 3.4195 -1.9533 0.9830
-1.9483 3.2074 -1.9240 0.9833
-2.8332 2.2374 -1.8508 0.9839
-3.0085 1.9681 -1.8431 0.9840
-3.1655 1.6892 -1.8395 0.9840
-3.3041 1.4011 -1.8399 0.9840
-3.4242 1.1042 -1.8445 0.9840
-2.2319 0.0996 -1.1453 0.9900
-2.2446 -0.3018 -1.1611 0.9899
-2.2673 -0.9614 -1.2625 0.9890
-2.3837 -1.2719 -1.3851 0.9879
-3.4705 -2.2703 -2.1261 0.9815
-3.3403 -2.6378 -2.1821 0.9810
-3.1796 -3.0072 -2.2437 0.9805
-2.9866 -3.3770 -2.3112 0.9799
-2.7593 -3.7450 -2.3848 0.9793
-2.4958 -4.1087 -2.4646 0.9786
-2.1942 -4.4652 -2.5506 0.9779
-1.8528 -4.8107 -2.6429 0.9771
-1.0443 -5.4480 -2.8439 0.9754
-0.5764 -5.7295 -2.9522 0.9744
-0.0666 -5.9782 -3.0651 0.9735
2.3378 -6.4978 -3.5403 0.9694
3.0023 -6.4698 -3.6566 0.9684
3.6744 -6.3641 -3.7675 0.9675
4.3414 -6.1757 -3.8702 0.9666
5.6033 -5.5412 -4.0401 0.9652
6.6667 -4.5764 -4.1456 0.9643
7.7881 -1.9479 -4.1157 0.9646
7.8204 -1.2296 -4.0586 0.9650
7.5980 0.1694 -3.8962 0.9664
7.3589 0.8233 -3.7962 0.9673
7.0482 1.4326 -3.6873 0.9682
6.6776 1.9902 -3.5722 0.9692
4.9973 3.1123 -3.0182 0.9739
2.1754 4.1884 -2.4196 0.9790
1.3073 4.2144 -2.2622 0.9804
0.1348 4.0327 -2.0686 0.9820
-0.2188 3.9246 -2.0151 0.9825
-1.2423 3.7106 -2.0061 0.9826
