ply
format ascii 1.0
element vertex 1583
property float32 x
property float32 y
property float32 z
property float32 I
end_header
-3.9170 -3.0933 0.3740 0.9802
-3.8179 -3.6109 0.3938 0.9791
-4.1267 -4.6661 0.4668 0.9753
0.5128 4.1635 0.3144 0.9833
-4.6448 -2.2187 0.2998 0.9796
-4.2684 -2.5282 0.2889 0.9803
-4.0249 -2.8970 0.2888 0.9803
-3.8670 -3.3440 0.2978 0.9797
-4.9124 -2.0831 0.3108 0.9788
-5.3682 -1.9992 0.2382 0.9773
-4.2966 -2.5448 0.2076 0.9802
-4.0415 -2.9089 0.2070 0.9803
-3.8854 -3.3599 0.2136 0.9796
-4.4675 -2.3839 0.2105 0.9799
-4.1518 -2.7160 0.2063 0.9803
-3.9522 -3.1210 0.2094 0.9800
-3.8625 -3.6532 0.2211 0.9789
-4.3250 -2.5617 0.1254 0.9801
-4.0707 -2.9299 0.1251 0.9801
-3.9467 -4.0808 0.1416 0.9775
0.3167 4.0527 0.1014 0.9839
-12.3803 8.0988 0.3689 0.9425
-12.9473 6.9089 0.3660 0.9430
-13.5250 5.7351 0.3664 0.9429
-4.4960 -2.3991 0.1271 0.9798
-3.9802 -3.1432 0.1265 0.9799
-13.2341 6.3214 0.3658 0.9430
-14.7551 0.0000 0.1226 0.9427
-4.7408 -2.2645 0.0437 0.9792
-4.1003 -2.9512 0.0420 0.9800
-3.9517 -3.4172 0.0434 0.9793
-4.0124 -4.1488 0.0480 0.9772
0.3174 4.0614 0.0339 0.9838
-9.6258 10.8840 0.1208 0.9435
-10.2068 9.6535 0.1168 0.9454
-10.7586 8.4960 0.1139 0.9466
-11.2924 7.3871 0.1122 0.9475
-12.3440 5.2343 0.1114 0.9478
-13.4352 3.0440 0.1145 0.9464
-14.0141 1.8847 0.1175 0.9450
-4.5248 -2.4145 0.0426 0.9797
-4.2093 -2.7536 0.0418 0.9801
0.1413 4.2263 0.0351 0.9832
-10.4856 9.0672 0.1152 0.9461
-11.5556 6.8444 0.1116 0.9477
-12.0803 5.7703 0.1113 0.9479
-12.6102 4.6961 0.1118 0.9476
-13.1545 3.6034 0.1134 0.9469
-14.6750 -2.6438 -0.1239 0.9421
-4.1303 -2.9728 -0.0423 0.9798
-3.9922 -3.4522 -0.0439 0.9791
-4.0966 -4.2359 -0.0490 0.9767
0.3181 4.0702 -0.0339 0.9838
-8.7939 9.9434 -0.1103 0.9483
-10.3804 6.7906 -0.1031 0.9516
-12.8380 1.7265 -0.1077 0.9495
-13.7443 -0.6129 -0.1143 0.9465
-14.3490 -1.9298 -0.1203 0.9437
-4.2399 -2.7737 -0.0421 0.9799
-4.0472 -3.1961 -0.0429 0.9796
-3.9850 -3.7691 -0.0456 0.9783
0.1399 4.1858 -0.0348 0.9834
-8.4995 10.5200 -0.1124 0.9473
-10.6264 6.2940 -0.1027 0.9518
-12.5811 2.2666 -0.1062 0.9501
-12.3754 0.0000 -0.3086 0.9517
-4.8533 -2.3182 -0.1341 0.9787
-4.2201 -4.3636 -0.1514 0.9760
0.3187 4.0790 -0.1020 0.9838
-5.3681 13.9380 -0.3725 0.9420
-6.8819 11.3291 -0.3306 0.9483
-8.0942 9.1522 -0.3047 0.9523
-8.6282 8.1605 -0.2962 0.9536
-9.1288 7.2090 -0.2901 0.9545
-10.5090 4.4562 -0.2847 0.9554
-11.3915 2.5810 -0.2913 0.9543
-11.8392 1.5922 -0.2979 0.9533
-5.1849 -2.1986 -0.1404 0.9777
-4.2836 -2.8022 -0.1277 0.9797
-4.0816 -3.2233 -0.1297 0.9794
-4.0399 -3.8209 -0.1387 0.9780
0.1389 4.1542 -0.1037 0.9835
-7.2072 10.7540 -0.3228 0.9495
-7.8115 9.6684 -0.3100 0.9515
-8.3660 8.6503 -0.3001 0.9530
-8.8821 7.6807 -0.2928 0.9541
-10.2868 4.9136 -0.2843 0.9554
-10.7298 3.9958 -0.2855 0.9552
-11.1704 3.0599 -0.2888 0.9547
-11.6142 2.0924 -0.2943 0.9539
-12.7381 -3.4893 -0.5492 0.9485
-13.2267 -4.9257 -0.5869 0.9451
-4.2149 -3.0337 -0.2159 0.9794
-4.0899 -3.5367 -0.2248 0.9786
0.3194 4.0878 -0.1705 0.9837
-4.0119 14.0303 -0.6068 0.9433
-4.8919 12.7015 -0.5659 0.9470
-5.6573 11.5123 -0.5334 0.9499
-6.9430 9.4231 -0.4867 0.9542
-8.0083 7.5742 -0.4583 0.9568
-9.3662 4.9979 -0.4414 0.9584
-9.7813 4.1476 -0.4418 0.9584
-10.1862 3.2846 -0.4450 0.9581
-12.0703 -1.6233 -0.5064 0.9524
-5.3002 -2.2475 -0.2394 0.9772
-4.3342 -2.8353 -0.2154 0.9795
-4.1344 -3.2649 -0.2191 0.9791
-4.1089 -3.8862 -0.2352 0.9776
0.1386 4.1475 -0.1725 0.9835
-4.4682 13.3458 -0.5852 0.9452
-6.6464 9.9171 -0.4964 0.9533
-7.2261 8.9438 -0.4781 0.9550
-7.7575 8.0212 -0.4640 0.9563
-8.7137 6.2717 -0.4464 0.9579
-10.7846 1.9429 -0.4556 0.9571
-11.1809 0.9991 -0.4667 0.9561
-10.6543 0.0000 -0.6205 0.9582
-11.0040 -0.9833 -0.6435 0.9567
-11.7265 -3.2122 -0.7082 0.9525
-12.1095 -4.5097 -0.7526 0.9495
-4.5349 -2.6860 -0.3070 0.9791
-4.2689 -3.0726 -0.3063 0.9791
0.3201 4.0967 -0.2393 0.9837
-1.4715 14.6270 -0.8562 0.9428
-3.6630 12.8102 -0.7760 0.9480
-4.4928 11.6652 -0.7281 0.9511
-5.2203 10.6229 -0.6894 0.9537
-5.8673 9.6590 -0.6582 0.9557
-6.4502 8.7543 -0.6333 0.9574
-7.9261 6.2592 -0.5882 0.9603
-8.3538 5.4648 -0.5814 0.9608
-9.5211 3.0701 -0.5827 0.9607
-9.8853 2.2397 -0.5903 0.9602
-10.2431 1.3776 -0.6020 0.9594
-10.5095 0.4686 -0.6127 0.9587
-11.1809 -1.5037 -0.6571 0.9558
-11.5415 -2.6150 -0.6893 0.9537
-11.9156 -3.8423 -0.7292 0.9511
-4.7360 -2.5272 -0.3127 0.9787
-4.3861 -2.8693 -0.3053 0.9792
0.1384 4.1407 -0.2413 0.9835
-2.0282 13.9062 -0.8185 0.9452
-5.5527 10.1325 -0.6730 0.9548
-6.1660 9.2002 -0.6451 0.9566
-7.7023 6.6604 -0.5931 0.9600
-8.5590 5.0695 -0.5794 0.9609
-8.9551 4.2775 -0.5780 0.9610
-9.7042 2.6583 -0.5860 0.9605
-10.4206 0.9312 -0.6094 0.9589
-9.9635 0.0000 -0.7466 0.9608
-10.2621 -0.9170 -0.7721 0.9595
-10.5620 -1.9029 -0.8043 0.9579
-10.8622 -2.9755 -0.8440 0.9558
-4.6123 -2.7319 -0.4017 0.9787
-4.3287 -3.1156 -0.3997 0.9788
-1.3354 13.2740 -0.9998 0.9479
-2.3204 12.1052 -0.9237 0.9518
-3.3694 11.7835 -0.9184 0.9520
-4.1532 10.7836 -0.8660 0.9547
-4.8453 9.8598 -0.8233 0.9569
-5.4636 8.9942 -0.7886 0.9587
-6.0220 8.1731 -0.7608 0.9601
-7.0001 6.6206 -0.7220 0.9621
-7.8419 5.1299 -0.7022 0.9631
-9.8743 0.4403 -0.7407 0.9611
-10.4122 -1.4003 -0.7873 0.9587
-10.7120 -2.4270 -0.8231 0.9569
-11.0132 -3.5513 -0.8672 0.9546
-4.8226 -2.5734 -0.4096 0.9783
-4.4514 -2.9120 -0.3986 0.9789
-4.2521 -3.3578 -0.4060 0.9785
-4.3533 -4.1174 -0.4490 0.9763
-1.8481 12.6715 -0.9596 0.9499
-2.7574 11.5704 -0.8914 0.9534
-3.7742 11.2728 -0.8909 0.9534
-4.5095 10.3134 -0.8435 0.9559
-5.7495 8.5789 -0.7739 0.9594
-6.2822 7.7756 -0.7491 0.9607
-7.6417 5.5002 -0.7056 0.9629
-8.0362 4.7599 -0.6999 0.9632
-8.4093 4.0168 -0.6984 0.9633
-8.7646 3.2639 -0.7009 0.9632
-9.1051 2.4942 -0.7075 0.9628
-9.4338 1.6996 -0.7184 0.9623
-4.4479 -0.0000 -0.4078 0.9823
-9.8673 -1.7777 -0.9192 0.9605
-5.2689 -2.5167 -0.5353 0.9768
-4.6960 -2.7814 -0.5004 0.9783
-4.3593 -3.7696 -0.5284 0.9771
0.3222 4.1233 -0.3792 0.9835
-1.2220 12.1475 -1.1193 0.9521
-2.1373 11.1499 -1.0408 0.9554
-3.8608 10.0242 -0.9848 0.9578
-6.1348 6.9367 -0.8490 0.9635
-6.5842 6.2273 -0.8308 0.9643
-7.3880 4.8330 -0.8094 0.9652
-8.0939 3.4321 -0.8060 0.9653
-8.7270 1.9773 -0.8203 0.9647
-4.2496 0.5715 -0.3931 0.9829
-4.0002 0.1784 -0.3671 0.9840
-9.4818 -0.4228 -0.8701 0.9626
-9.7408 -1.3100 -0.9010 0.9613
-9.9920 -2.2639 -0.9393 0.9597
-10.2361 -3.3007 -0.9860 0.9577
-4.9127 -2.6215 -0.5105 0.9779
-4.3509 -3.4359 -0.5083 0.9780
-1.6970 11.6358 -1.0780 0.9539
-4.1996 9.6046 -0.9610 0.9588
-4.8230 8.8008 -0.9201 0.9605
-5.3849 8.0349 -0.8868 0.9619
-6.7961 5.8768 -0.8237 0.9646
-7.5725 4.4852 -0.8069 0.9653
-7.9251 3.7855 -0.8052 0.9653
-8.2582 3.0754 -0.8079 0.9652
-8.5744 2.3488 -0.8150 0.9649
-4.1097 0.3672 -0.3783 0.9836
-9.0383 -0.8077 -0.9843 0.9641
-9.6538 -3.5951 -1.1174 0.9594
-5.5685 -2.6599 -0.6694 0.9755
-4.5136 -3.2487 -0.6032 0.9779
-4.5364 -3.9228 -0.6505 0.9762
-10.3610 -10.7133 -1.6166 0.9418
2.4192 14.3422 -1.5776 0.9432
-0.1352 12.1303 -1.3158 0.9524
-1.1262 11.1946 -1.2204 0.9557
-1.9805 10.3321 -1.1411 0.9586
-2.7265 9.5352 -1.0757 0.9609
-5.3136 7.2117 -0.9716 0.9646
-6.2139 5.8771 -0.9277 0.9662
-6.6125 5.2218 -0.9139 0.9667
-7.6516 3.2445 -0.9015 0.9671
-3.7517 0.5045 -0.4106 0.9849
-3.9257 -0.1751 -0.4262 0.9843
-9.1491 -1.2304 -1.0013 0.9635
-9.7446 -4.1321 -1.1481 0.9583
-4.6226 -3.0240 -0.5992 0.9780
-4.4626 -3.5241 -0.6168 0.9774
-1.5685 10.7541 -1.1788 0.9572
-2.3656 9.9265 -1.1068 0.9598
-5.0629 7.5544 -0.9864 0.9641
-7.4924 3.5788 -0.9006 0.9671
-7.8058 2.9069 -0.9035 0.9670
-8.1009 2.2190 -0.9110 0.9668
-8.7152 -1.5701 -1.1097 0.9649
-4.9521 -2.9332 -0.7213 0.9771
-9.4158 -8.1422 -1.5599 0.9511
-9.4264 -9.7469 -1.6992 0.9468
0.3252 4.1624 -0.5232 0.9833
-1.0440 10.3776 -1.3070 0.9588
-3.1762 8.2469 -1.1075 0.9650
-5.8819 5.5630 -1.0145 0.9679
-6.2641 4.9467 -1.0002 0.9683
-6.6182 4.3294 -0.9911 0.9686
-6.9472 3.7071 -0.9868 0.9688
-7.2537 3.0758 -0.9874 0.9687
-4.3832 0.9931 -0.5632 0.9820
-3.5494 0.4773 -0.4488 0.9857
-3.6310 -0.1620 -0.4555 0.9855
-8.6233 -1.1597 -1.0904 0.9655
-5.2886 -2.8221 -0.7512 0.9761
-4.7668 -3.1183 -0.7138 0.9773
-4.6458 -3.6688 -0.7418 0.9764
-9.4129 -10.6433 -1.7806 0.9443
2.9094 13.5390 -1.7354 0.9457
0.1379 4.1261 -0.5174 0.9835
-0.6006 10.7711 -1.3519 0.9574
-1.4576 9.9941 -1.2657 0.9601
-2.2079 9.2649 -1.1936 0.9623
-2.8717 8.5773 -1.1335 0.9642
-4.2597 7.7730 -1.1108 0.9649
-7.1031 3.3929 -0.9865 0.9688
-7.3991 2.7555 -0.9894 0.9687
-7.6754 2.1025 -0.9973 0.9684
-8.3744 -2.2940 -1.2350 0.9655
-8.4955 -3.1638 -1.2894 0.9640
-8.5924 -4.1043 -1.3544 0.9623
-8.6971 -7.5205 -1.6354 0.9546
-8.6478 -8.9418 -1.7693 0.9510
4.9506 13.7604 -2.0800 0.9426
-0.9726 9.6683 -1.3821 0.9615
-1.7259 9.0037 -1.3040 0.9636
-2.3936 8.3710 -1.2384 0.9654
-2.9901 7.7635 -1.1833 0.9669
-5.1842 5.8618 -1.1131 0.9689
-5.5824 5.2797 -1.0929 0.9694
-5.9494 4.6982 -1.0783 0.9698
-6.2886 4.1138 -1.0689 0.9701
-7.1635 2.3099 -1.0706 0.9700
-3.3610 0.1498 -0.4785 0.9865
-3.4470 -0.1537 -0.4908 0.9862
-3.6292 -0.4881 -0.5209 0.9853
-8.3057 -1.8818 -1.2113 0.9662
-8.4378 -2.7209 -1.2610 0.9648
-8.5471 -3.6243 -1.3205 0.9632
-8.7031 -6.8728 -1.5773 0.9562
-8.6014 -9.7258 -1.8467 0.9489
4.1130 13.2591 -1.9746 0.9455
2.6509 12.3360 -1.7947 0.9503
-0.5582 10.0105 -1.4261 0.9603
-1.3610 9.3318 -1.3414 0.9626
-2.7000 8.0645 -1.2096 0.9662
-4.0234 7.3418 -1.1908 0.9667
-4.9721 6.1541 -1.1253 0.9685
-5.3874 5.5705 -1.1023 0.9692
-6.1223 4.4065 -1.0729 0.9700
-6.4486 3.8195 -1.0660 0.9702
-7.0312 2.6185 -1.0672 0.9701
-3.6717 0.6615 -0.5307 0.9850
-3.3525 0.2996 -0.4787 0.9865
-7.7972 -1.4047 -1.2616 0.9684
-7.9164 -2.1685 -1.3070 0.9673
-8.0115 -2.9835 -1.3613 0.9660
-8.0797 -3.8594 -1.4258 0.9644
-8.1172 -4.8079 -1.5023 0.9625
-8.0779 -6.9852 -1.7005 0.9577
-7.8283 -9.6891 -1.9835 0.9508
-7.5891 -11.3238 -2.1707 0.9463
4.4864 12.4701 -2.1103 0.9477
1.8505 10.9704 -1.7716 0.9559
-0.9101 9.0463 -1.4478 0.9638
-1.6210 8.4564 -1.3711 0.9657
-2.2549 7.8858 -1.3060 0.9673
-4.0547 6.6750 -1.2436 0.9689
-5.3107 5.0228 -1.1640 0.9708
-5.9889 3.9178 -1.1396 0.9714
-6.2893 3.3560 -1.1351 0.9715
-3.9744 0.9005 -0.6489 0.9836
-3.2540 0.4376 -0.5228 0.9868
-7.9671 -2.5691 -1.3330 0.9667
-8.1026 -4.3237 -1.4624 0.9635
-8.1229 -5.3138 -1.5456 0.9614
-8.1042 -6.3999 -1.6444 0.9590
-8.0385 -7.6028 -1.7619 0.9562
-7.4314 -12.2337 -2.2793 0.9437
2.4336 11.3249 -1.8445 0.9542
0.1381 4.1305 -0.6581 0.9834
-2.5468 7.6070 -1.2774 0.9680
-3.0875 7.0614 -1.2272 0.9693
-3.8110 6.9541 -1.2627 0.9684
-4.2876 6.3975 -1.2263 0.9693
-4.7233 5.8461 -1.1968 0.9700
-5.4907 4.7480 -1.1559 0.9710
-5.8295 4.1958 -1.1437 0.9713
-6.4306 3.0716 -1.1348 0.9715
-6.6966 2.4938 -1.1379 0.9715
-4.5041 1.2338 -0.7436 0.9813
-3.5500 0.6395 -0.5744 0.9855
-3.2454 0.2900 -0.5189 0.9869
-3.1939 0.0000 -0.5632 0.9871
-3.2817 -0.2933 -0.5809 0.9867
-7.5038 -2.0555 -1.3719 0.9689
7.3690 12.7634 -2.5987 0.9419
5.5961 12.0594 -2.3442 0.9474
4.0999 11.3958 -2.1355 0.9520
2.8207 10.7663 -1.9625 0.9558
-0.1007 9.0346 -1.5932 0.9640
-0.8548 8.4968 -1.5058 0.9659
-1.5275 7.9690 -1.4307 0.9676
-3.8533 6.3433 -1.3087 0.9703
-4.2918 5.8248 -1.2758 0.9710
-4.6937 5.3072 -1.2493 0.9716
-6.0028 3.2032 -1.1997 0.9727
-6.2671 2.6575 -1.2003 0.9727
-6.5093 2.0990 -1.2060 0.9726
-3.8238 0.8663 -0.6913 0.9842
-3.1779 0.4274 -0.5654 0.9871
-3.1644 0.1411 -0.5585 0.9872
-3.2277 -0.1440 -0.5697 0.9870
-3.3507 -0.4506 -0.5961 0.9864
-7.4571 -1.6896 -1.3482 0.9694
-7.5441 -2.4327 -1.3977 0.9683
-7.6330 -4.0731 -1.5255 0.9655
-7.5799 -5.9858 -1.7030 0.9615
-7.4838 -7.0782 -1.8163 0.9590
-7.3285 -8.2865 -1.9506 0.9561
-7.1005 -9.6369 -2.1107 0.9525
-6.3424 -12.9063 -2.5357 0.9433
4.8176 11.7229 -2.2348 0.9498
3.4362 11.0771 -2.0450 0.9540
1.2162 9.8751 -1.7544 0.9604
-2.4093 7.1961 -1.3381 0.9696
-3.6189 6.6036 -1.3278 0.9699
-4.0774 6.0838 -1.2914 0.9707
-4.4971 5.5661 -1.2618 0.9714
-4.8822 5.0481 -1.2383 0.9719
-5.5621 4.0033 -1.2084 0.9725
-6.1378 2.9318 -1.1994 0.9728
-3.4372 0.6192 -0.6158 0.9859
-3.1510 0.2816 -0.5578 0.9872
-3.1775 -0.2839 -0.6174 0.9871
-7.1300 -1.9531 -1.4306 0.9703
-7.1861 -2.6761 -1.4839 0.9692
-7.2120 -3.4449 -1.5467 0.9680
-7.2040 -4.2670 -1.6203 0.9665
-7.0642 -6.1087 -1.8073 0.9627
-6.7049 -8.2987 -2.0646 0.9575
-6.4131 -9.5689 -2.2292 0.9542
-5.5057 -12.5918 -2.6595 0.9455
6.6660 11.5459 -2.5800 0.9471
5.1101 11.0119 -2.3493 0.9517
0.7011 8.9724 -1.7416 0.9640
-0.0946 8.4860 -1.6423 0.9660
-0.8056 8.0075 -1.5574 0.9677
-4.8360 4.5738 -1.2881 0.9732
-5.4639 3.5743 -1.2635 0.9737
-6.2228 2.0066 -1.2653 0.9737
-3.6833 0.8345 -0.7308 0.9847
-3.0751 0.1371 -0.5957 0.9875
-7.0917 -1.6068 -1.4072 0.9708
-7.1616 -2.3093 -1.4562 0.9698
-7.2126 -3.8488 -1.5820 0.9672
-7.1858 -4.7007 -1.6617 0.9656
-7.1168 -5.6200 -1.7549 0.9637
-6.5700 -8.9168 -2.1434 0.9559
-6.2314 -10.2583 -2.3227 0.9523
-5.7815 -11.7650 -2.5368 0.9480
3.1729 10.2283 -2.0724 0.9573
0.1383 4.1351 -0.8007 0.9833
-0.4598 8.2458 -1.5982 0.9669
-2.2850 6.8249 -1.3928 0.9711
-3.8857 5.7979 -1.3507 0.9720
-5.0031 4.3263 -1.2800 0.9734
-5.3168 3.8268 -1.2677 0.9737
-5.6049 3.3198 -1.2606 0.9738
-6.1104 2.2755 -1.2618 0.9738
-4.1641 1.1406 -0.8355 0.9826
-3.0639 0.2738 -0.5953 0.9875
-3.2303 -0.5820 -0.6920 0.9867
-6.8308 -2.5438 -1.5367 0.9706
-6.7531 -4.8606 -1.7541 0.9666
-6.6434 -5.7448 -1.8516 0.9647
-6.2525 -7.7388 -2.0975 0.9601
-5.9479 -8.8750 -2.2524 0.9573
-4.3765 -13.0720 -2.9062 0.9452
6.0821 10.5344 -2.5644 0.9515
3.4926 9.7079 -2.1750 0.9587
1.4937 8.8552 -1.8932 0.9640
-0.0891 7.9973 -1.6861 0.9678
-0.7614 7.5690 -1.6038 0.9694
-1.9169 6.7039 -1.4700 0.9719
-2.4156 6.2720 -1.4169 0.9729
-5.7393 2.4337 -1.3142 0.9748
-5.9587 1.9214 -1.3199 0.9747
-3.0505 -0.1360 -0.6438 0.9876
-6.7585 -1.5313 -1.4609 0.9721
-6.7045 -5.2945 -1.8010 0.9657
-6.5690 -6.2129 -1.9062 0.9637
5.3664 10.3323 -2.4545 0.9535
4.0759 9.9182 -2.2606 0.9571
1.9489 9.0693 -1.9556 0.9628
0.1383 4.1374 -0.8727 0.9832
-0.4340 7.7830 -1.6434 0.9686
-1.6492 6.9202 -1.4998 0.9713
-2.6484 6.0571 -1.3937 0.9733
-3.2847 5.9938 -1.4409 0.9724
-3.7102 5.5361 -1.4050 0.9731
-4.4592 4.6107 -1.3522 0.9741
-5.6212 2.6850 -1.3133 0.9749
-4.0001 1.0957 -0.8744 0.9832
-3.2435 0.5843 -0.6948 0.9866
-2.9810 0.2664 -0.6310 0.9878
-2.9710 -0.0000 -0.6781 0.9879
-3.1642 -0.5701 -0.7338 0.9869
-6.5069 -2.4232 -1.5848 0.9719
-6.5044 -3.1069 -1.6453 0.9709
-6.4670 -3.8304 -1.7155 0.9696
-6.3900 -4.5993 -1.7970 0.9682
-6.2675 -5.4197 -1.8912 0.9666
-5.5435 -8.2715 -2.2727 0.9600
-5.1438 -9.3863 -2.4430 0.9570
5.5891 9.6805 -2.5513 0.9552
4.3473 9.3681 -2.3572 0.9585
1.4024 8.3138 -1.9244 0.9660
-0.0842 7.5590 -1.7254 0.9695
-0.7217 7.1735 -1.6456 0.9709
-1.2994 6.7786 -1.5753 0.9721
-2.9194 5.9408 -1.5108 0.9732
-3.7414 5.0777 -1.4396 0.9745
-4.4345 4.1941 -1.3931 0.9753
-4.7392 3.7424 -1.3783 0.9755
-5.0183 3.2828 -1.3687 0.9757
-5.5051 2.3344 -1.3648 0.9758
-2.9625 0.3984 -0.6823 0.9878
-3.0959 -0.4164 -0.7130 0.9873
-6.4963 -2.0948 -1.5579 0.9724
-6.4904 -3.4634 -1.6791 0.9703
-6.4338 -4.2088 -1.7548 0.9689
-6.1870 -5.8516 -1.9437 0.9657
-5.9819 -6.7638 -2.0609 0.9636
-5.7092 -7.7485 -2.1968 0.9613
-5.3558 -8.8168 -2.3546 0.9586
-4.9052 -9.9819 -2.5385 0.9554
-4.3365 -11.2595 -2.7539 0.9517
-3.6222 -12.6676 -3.0072 0.9474
-2.7272 -14.2278 -3.3065 0.9423
9.5147 10.2872 -3.1983 0.9441
4.9486 9.5278 -2.4505 0.9569
3.7819 9.2026 -2.2709 0.9600
2.7476 8.8573 -2.1167 0.9627
1.0010 8.1276 -1.8691 0.9670
-0.4108 7.3668 -1.6840 0.9702
-1.0175 6.9769 -1.6093 0.9715
-1.5680 6.5798 -1.5438 0.9726
-2.0692 6.1802 -1.4876 0.9736
-3.1383 5.7267 -1.4905 0.9736
-3.9258 4.8590 -1.4258 0.9747
-5.3920 2.5755 -1.3639 0.9758
-3.8725 1.0608 -0.9164 0.9837
-3.1659 0.5703 -0.7342 0.9869
-2.9221 0.0000 -0.7183 0.9880
-6.1971 -2.9601 -1.6881 0.9721
-5.9294 -5.1274 -1.9268 0.9682
-5.7457 -5.9410 -2.0315 0.9665
-5.1880 -7.7411 -2.2906 0.9623
-4.7910 -8.7424 -2.4504 0.9598
-4.2949 -9.8227 -2.6351 0.9568
-2.9220 -12.2612 -3.0982 0.9494
7.8519 9.2873 -2.9894 0.9511
6.4296 9.1462 -2.7480 0.9550
5.1670 8.9495 -2.5401 0.9583
4.0422 8.7107 -2.3604 0.9612
2.1339 8.1450 -2.0696 0.9659
1.3210 7.8313 -1.9521 0.9678
0.5863 7.5031 -1.8499 0.9695
-1.2368 6.4520 -1.6148 0.9733
-2.7923 5.6822 -1.5562 0.9743
-3.2058 5.2775 -1.5178 0.9749
-3.5858 4.8667 -1.4859 0.9754
-4.5502 3.5932 -1.4251 0.9764
-4.8195 3.1528 -1.4156 0.9766
-5.2877 2.2422 -1.4117 0.9766
-2.8978 0.1292 -0.7130 0.9881
-2.9494 -0.1315 -0.7257 0.9879
-3.0390 -0.4087 -0.7537 0.9874
-3.1571 -0.7153 -0.7957 0.9868
-6.2077 -2.6323 -1.6574 0.9726
-6.1776 -3.2965 -1.7211 0.9716
-6.0015 -4.7393 -1.8797 0.9690
-5.8445 -5.5277 -1.9773 0.9674
-5.3546 -7.2672 -2.2188 0.9635
-4.0037 -10.3954 -2.7381 0.9552
10.3422 9.3540 -3.4276 0.9442
8.6309 9.3316 -3.1244 0.9490
5.7798 9.0538 -2.6402 0.9567
4.5886 8.8347 -2.4470 0.9598
3.5255 8.5789 -2.2798 0.9625
0.1390 4.1562 -1.0222 0.9830
-0.3898 6.9902 -1.7209 0.9716
-0.9675 6.6338 -1.6478 0.9728
-1.4939 6.2687 -1.5840 0.9738
-1.9748 5.8983 -1.5289 0.9747
-3.0035 5.4806 -1.5361 0.9746
-3.3998 5.0729 -1.5011 0.9752
-4.0989 4.2382 -1.4493 0.9760
-4.6879 3.3741 -1.4197 0.9765
-5.1792 2.4739 -1.4108 0.9766
-3.8036 1.0419 -0.9694 0.9839
-2.8745 -0.0000 -0.7574 0.9882
-2.9343 -0.2622 -0.7763 0.9879
-3.0385 -0.5474 -0.8135 0.9873
-5.9280 -1.6238 -1.6196 0.9749
-5.9152 -2.8255 -1.7273 0.9732
-5.7630 -4.1480 -1.8710 0.9711
-5.1870 -6.4200 -2.1748 0.9664
-4.8730 -7.2710 -2.3064 0.9644
-4.4811 -8.1768 -2.4569 0.9622
-3.9976 -9.1426 -2.6293 0.9596
-3.4061 -10.1735 -2.8270 0.9566
11.9294 8.1890 -3.8128 0.9419
5.9403 8.4502 -2.7217 0.9582
2.8483 7.9169 -2.2170 0.9658
2.0093 7.6693 -2.0891 0.9677
0.5555 7.1091 -1.8790 0.9709
-0.0474 4.2529 -1.1207 0.9826
-0.6525 6.4854 -1.7175 0.9734
-1.6619 5.8121 -1.5929 0.9753
-2.1044 5.4640 -1.5429 0.9761
-2.6749 5.4433 -1.5981 0.9752
-4.0898 3.8681 -1.4833 0.9770
-4.6345 3.0317 -1.4593 0.9774
-4.8712 2.5993 -1.4549 0.9774
-5.0852 2.1563 -1.4554 0.9774
-5.2770 1.7016 -1.4610 0.9773
-2.8317 0.3808 -0.7529 0.9883
-3.0953 -0.7013 -0.8363 0.9870
-5.9363 -1.9142 -1.6435 0.9745
-5.9303 -2.5147 -1.6973 0.9737
-5.8914 -3.1438 -1.7596 0.9728
-5.5355 -5.2355 -2.0077 0.9690
-5.3183 -6.0134 -2.1153 0.9673
-5.0390 -6.8389 -2.2384 0.9655
-4.2517 -8.6519 -2.5402 0.9609
-3.7165 -9.6496 -2.7247 0.9581
-3.0638 -10.7148 -2.9365 0.9549
-2.2719 -11.8522 -3.1799 0.9513
-1.3143 -13.0650 -3.4600 0.9471
11.0337 8.3209 -3.6415 0.9444
7.8919 8.5326 -3.0626 0.9531
6.5564 8.4954 -2.8277 0.9566
5.3559 8.3899 -2.6228 0.9597
2.4184 7.7963 -2.1509 0.9668
1.6195 7.5365 -2.0312 0.9686
0.8936 7.2558 -1.9264 0.9702
-1.4260 5.9835 -1.6208 0.9749
-2.4624 5.6317 -1.6196 0.9749
-3.2617 4.8668 -1.5438 0.9761
-3.6141 4.4732 -1.5153 0.9765
-3.9379 4.0718 -1.4926 0.9768
-4.5074 3.2442 -1.4634 0.9773
-4.7557 2.8168 -1.4564 0.9774
-5.1839 1.9305 -1.4576 0.9774
-3.7365 1.0235 -1.0208 0.9841
-3.0018 0.5408 -0.8037 0.9875
-2.8348 0.2533 -0.7499 0.9883
-2.9786 -0.5366 -0.8515 0.9875
-5.5920 -3.3122 -1.8286 0.9734
-5.3455 -4.6224 -1.9883 0.9711
-3.7366 -8.5458 -2.6242 0.9620
-2.4852 -10.4283 -3.0162 0.9564
-0.6969 -12.4985 -3.5220 0.9493
12.3995 6.9758 -4.0029 0.9426
10.7710 7.3939 -3.6758 0.9472
9.2735 7.6648 -3.3850 0.9512
3.5392 7.6268 -2.3656 0.9657
1.8975 7.2426 -2.1065 0.9694
0.5276 6.7516 -1.9054 0.9723
-0.6222 6.1845 -1.7488 0.9745
-1.1267 5.8780 -1.6839 0.9754
-1.5902 5.5611 -1.6274 0.9763
-2.0165 5.2357 -1.5786 0.9770
-2.5661 5.2218 -1.6370 0.9761
-2.9519 4.8596 -1.5998 0.9767
-3.6344 4.1095 -1.5435 0.9775
-3.9349 3.7216 -1.5238 0.9777
-4.4617 2.9187 -1.5001 0.9781
-4.8961 2.0761 -1.4963 0.9781
-2.7751 0.3732 -0.7878 0.9884
-2.8062 0.1251 -0.7903 0.9884
-5.6284 -3.0034 -1.7949 0.9738
-5.2553 -4.9705 -2.0352 0.9704
-5.0354 -5.6936 -2.1385 0.9689
-4.7562 -6.4551 -2.2560 0.9672
-4.4089 -7.2581 -2.3894 0.9653
-3.9830 -8.1051 -2.5409 0.9632
-3.4657 -8.9984 -2.7130 0.9607
-2.8421 -9.9396 -2.9086 0.9580
-2.0949 -10.9289 -3.1309 0.9548
-1.2037 -11.9646 -3.3833 0.9513
-0.1453 -13.0419 -3.6697 0.9472
1.1045 -14.1352 -3.9891 0.9428
8.5730 7.7538 -3.2523 0.9531
6.0721 7.8679 -2.7963 0.9595
4.9870 7.8120 -2.6076 0.9622
3.9994 7.7002 -2.4413 0.9646
0.8476 6.8822 -1.9510 0.9716
0.1396 4.1758 -1.1756 0.9828
-1.3633 5.7208 -1.6547 0.9759
-1.8077 5.3991 -1.6020 0.9766
-4.0756 3.5243 -1.5160 0.9779
-4.3389 3.1229 -1.5041 0.9780
-4.7958 2.2908 -1.4954 0.9782
-4.9908 1.8586 -1.4984 0.9781
-2.9229 0.5266 -0.8356 0.9877
-2.7884 0.2492 -0.7877 0.9884
-2.8308 -0.2530 -0.8509 0.9882
-2.9224 -0.5265 -0.8890 0.9877
-3.0126 -0.8253 -0.9351 0.9870
-5.4515 -2.0302 -1.7416 0.9760
-5.2398 -3.7714 -1.9328 0.9734
-5.0913 -4.4026 -2.0151 0.9723
-3.5056 -8.0175 -2.6197 0.9641
0.4145 -12.3971 -3.7135 0.9495
12.6790 5.7129 -4.1634 0.9436
7.2952 7.2144 -3.0717 0.9581
6.1767 7.3058 -2.8642 0.9608
3.3292 7.1743 -2.3678 0.9675
1.7966 6.8577 -2.1223 0.9708
-0.0472 4.2330 -1.2673 0.9825
-0.5943 5.9076 -1.7776 0.9755
-1.9685 5.1112 -1.6398 0.9774
-2.4648 5.0158 -1.6731 0.9769
-3.1821 4.3188 -1.6060 0.9779
-3.4989 3.9563 -1.5812 0.9782
-3.7900 3.5845 -1.5617 0.9785
-4.2998 2.8128 -1.5383 0.9788
-4.5204 2.4121 -1.5339 0.9788
-4.7189 2.0010 -1.5345 0.9788
-3.0564 0.6925 -0.9382 0.9870
-2.7204 0.3658 -0.8218 0.9886
-2.8771 -0.3869 -0.8691 0.9880
-5.3857 -2.8739 -1.8276 0.9748
-5.1710 -4.0835 -1.9726 0.9729
-4.7787 -5.4034 -2.1596 0.9703
-3.7441 -7.6190 -2.5415 0.9652
-3.2447 -8.4245 -2.7027 0.9630
-1.1094 -11.0278 -3.3182 0.9548
1.0040 -12.8491 -3.8585 0.9476
11.9321 6.0295 -4.0024 0.9457
10.4958 6.5368 -3.7018 0.9497
9.1461 6.8974 -3.4295 0.9533
7.8889 7.1351 -3.1845 0.9566
6.7246 7.2706 -2.9650 0.9595
4.6628 7.3041 -2.5943 0.9645
2.9213 7.1086 -2.3009 0.9684
1.4524 6.7588 -2.0697 0.9715
0.1399 4.1858 -1.2539 0.9827
-0.3370 6.0442 -1.8123 0.9750
-0.8412 5.7676 -1.7450 0.9760
-2.2666 5.1839 -1.6938 0.9767
-2.6552 4.8451 -1.6541 0.9772
-3.0136 4.4966 -1.6206 0.9777
-3.3438 4.1387 -1.5929 0.9780
-4.1811 3.0093 -1.5423 0.9787
-4.4129 2.6138 -1.5355 0.9788
-4.6224 2.2079 -1.5336 0.9788
-4.8100 1.7912 -1.5366 0.9788
-3.5598 0.9751 -1.1050 0.9847
-2.7412 0.2449 -0.8239 0.9886
-2.7827 -0.2487 -0.8873 0.9883
-2.8694 -0.5170 -0.9260 0.9878
-5.1935 -2.4807 -1.8279 0.9761
-5.1196 -3.0323 -1.8897 0.9753
-4.6617 -4.8201 -2.1296 0.9722
-4.1103 -6.1330 -2.3447 0.9695
-3.7415 -6.8274 -2.4725 0.9679
-2.7750 -8.2885 -2.7759 0.9640
-0.5917 -10.6122 -3.3755 0.9564
0.3808 -11.3898 -3.6192 0.9533
8.9984 6.1770 -3.4663 0.9552
6.7690 6.6940 -3.0234 0.9608
3.9481 6.8382 -2.5077 0.9674
3.1411 6.7689 -2.3699 0.9692
1.0678 6.3301 -2.0388 0.9734
0.4787 6.1268 -1.9517 0.9745
-0.0471 4.2253 -1.3420 0.9824
-1.0330 5.3893 -1.7427 0.9772
-1.4621 5.1131 -1.6889 0.9779
-2.7316 4.4968 -1.6709 0.9782
-3.6541 3.4560 -1.5973 0.9791
-4.3611 2.3271 -1.5699 0.9795
-4.7224 1.5228 -1.5758 0.9794
-2.7187 0.1212 -0.8643 0.9886
-2.8255 -0.3800 -0.9054 0.9881
-5.1609 -2.7539 -1.8578 0.9757
-4.7658 -4.5075 -2.0833 0.9728
-4.5448 -5.1389 -2.1787 0.9716
-4.2700 -5.7953 -2.2861 0.9702
-3.9345 -6.4770 -2.4068 0.9687
-3.5302 -7.1839 -2.5421 0.9670
-1.0281 -10.2196 -3.2620 0.9578
-0.1226 -11.0039 -3.4949 0.9549
0.9195 -11.7677 -3.7486 0.9517
2.1080 -12.4969 -4.0249 0.9482
3.4504 -13.1701 -4.3238 0.9445
13.4099 3.9965 -4.4439 0.9430
12.1106 4.8199 -4.1396 0.9468
10.8295 5.4723 -3.8534 0.9504
7.3005 6.6029 -3.1262 0.9595
6.2553 6.7631 -2.9257 0.9621
3.5367 6.8094 -2.4369 0.9683
0.7675 6.2313 -1.9939 0.9740
-0.3221 5.7777 -1.8378 0.9760
-0.8054 5.5225 -1.7724 0.9768
-1.2518 5.2528 -1.7149 0.9776
-2.1787 4.9829 -1.7271 0.9774
-2.5546 4.6615 -1.6881 0.9779
-2.9016 4.3295 -1.6552 0.9784
-3.2216 3.9874 -1.6280 0.9787
-4.6401 1.7280 -1.5725 0.9794
-3.4730 0.9513 -1.1436 0.9850
-2.6951 0.2408 -0.8593 0.9887
-2.8971 -0.7936 -1.0092 0.9874
-5.0316 -1.8738 -1.8039 0.9776
-4.9865 -2.3819 -1.8567 0.9770
-4.9089 -2.9076 -1.9169 0.9762
-4.6429 -4.0149 -2.0623 0.9744
-4.4466 -4.5978 -2.1490 0.9734
-4.2017 -5.2006 -2.2463 0.9722
-2.0213 -8.4815 -2.9294 0.9639
-1.3376 -9.1708 -3.1138 0.9616
0.3519 -10.5254 -3.5383 0.9565
2.5210 -11.7318 -4.0317 0.9506
12.8340 3.2100 -4.4448 0.9457
11.5616 4.0146 -4.1120 0.9497
10.4570 4.7117 -3.8535 0.9528
9.3625 5.2672 -3.6093 0.9557
8.3038 5.7002 -3.3840 0.9584
7.2820 6.0187 -3.1741 0.9609
2.9714 6.4033 -2.3718 0.9707
0.4572 5.8508 -1.9718 0.9755
-0.0470 4.2175 -1.4171 0.9824
-0.5448 5.4152 -1.8286 0.9773
-0.9912 5.1709 -1.7690 0.9780
-2.6318 4.3325 -1.7032 0.9788
-2.9549 4.0104 -1.6737 0.9792
-3.5263 3.3351 -1.6307 0.9797
-3.7768 2.9824 -1.6169 0.9799
-4.0048 2.6198 -1.6079 0.9800
-4.3959 1.8640 -1.6042 0.9801
-4.5594 1.4702 -1.6095 0.9800
-2.6272 0.5952 -0.9051 0.9887
-2.7168 -0.1212 -0.9137 0.9886
-2.7752 -0.3732 -0.9408 0.9883
-2.8654 -0.6492 -0.9871 0.9877
-5.0428 -1.6261 -1.7802 0.9779
-5.0130 -2.1257 -1.8294 0.9773
-4.9520 -2.6425 -1.8858 0.9766
-4.7244 -3.7308 -2.0226 0.9749
-4.5505 -4.3039 -2.1044 0.9739
-4.0593 -5.5094 -2.2992 0.9715
-3.7306 -6.1414 -2.4143 0.9701
-3.3376 -6.7919 -2.5426 0.9686
-0.9572 -9.5149 -3.2130 0.9605
-0.1136 -10.1949 -3.4255 0.9579
1.9316 -11.4512 -3.9017 0.9522
3.1421 -11.9935 -4.1656 0.9490
4.4775 -12.4454 -4.4438 0.9457
9.9071 5.0063 -3.7295 0.9542
8.8253 5.4964 -3.4932 0.9571
6.7890 6.1403 -3.0755 0.9621
4.9531 6.4179 -2.7238 0.9664
4.1192 6.4526 -2.5721 0.9682
3.3406 6.4318 -2.4351 0.9699
2.6152 6.3637 -2.3116 0.9714
1.9408 6.2564 -2.2009 0.9727
1.3141 6.1155 -2.1016 0.9740
-1.5999 4.7785 -1.6931 0.9790
-2.4603 4.4895 -1.7201 0.9786
-3.1068 3.8454 -1.6610 0.9794
-3.3924 3.5077 -1.6395 0.9796
-3.6544 3.1600 -1.6232 0.9798
-4.1107 2.4348 -1.6052 0.9800
-4.3062 2.0569 -1.6034 0.9801
-4.4803 1.6685 -1.6063 0.9800
-2.6265 0.7195 -0.9150 0.9886
-2.6519 -0.0000 -0.9403 0.9888
-2.7668 -0.4985 -0.9969 0.9881
-4.8420 -1.8032 -1.8321 0.9783
-4.7934 -2.2896 -1.8836 0.9777
-4.7129 -2.7914 -1.9422 0.9770
-4.5975 -3.3091 -2.0086 0.9762
-4.0064 -4.9588 -2.2605 0.9733
-3.7128 -5.5398 -2.3647 0.9721
-3.3619 -6.1347 -2.4805 0.9707
-2.4628 -7.3560 -2.7506 0.9676
-0.5127 -9.1948 -3.2654 0.9617
0.3268 -9.7753 -3.4681 0.9593
1.2698 -10.3103 -3.6835 0.9569
2.3183 -10.7885 -3.9128 0.9542
3.4707 -11.1884 -4.1538 0.9515
4.7199 -11.4853 -4.4030 0.9487
7.4432 -11.6596 -4.9049 0.9430
13.9863 0.9362 -4.9704 0.9422
13.1590 2.0692 -4.7233 0.9450
7.6963 5.2832 -3.3101 0.9612
5.9036 5.8381 -2.9440 0.9654
5.0636 5.9893 -2.7810 0.9673
3.5203 6.0971 -2.4964 0.9706
2.8176 6.0716 -2.3734 0.9720
1.5438 5.8925 -2.1599 0.9745
0.9717 5.7610 -2.0716 0.9755
-1.3509 4.7243 -1.7423 0.9794
-2.1991 4.4750 -1.7680 0.9791
-3.1403 3.5508 -1.6808 0.9801
-3.6488 2.8814 -1.6486 0.9805
-4.0696 2.1716 -1.6356 0.9806
-4.2481 1.8013 -1.6361 0.9806
-4.4055 1.4206 -1.6414 0.9805
-2.5615 0.5804 -0.9313 0.9889
-2.6733 -0.1192 -0.9489 0.9887
-2.8709 -0.9258 -1.0696 0.9873
-4.7573 -2.5386 -1.9120 0.9774
-4.5258 -3.5740 -2.0448 0.9758
-4.1336 -4.6739 -2.2124 0.9739
-3.8664 -5.2475 -2.3112 0.9727
-2.7144 -7.0478 -2.6780 0.9685
-2.1918 -7.6651 -2.8269 0.9667
-1.5878 -8.2832 -2.9906 0.9648
0.7852 -10.0487 -3.5740 0.9581
2.8818 -10.9997 -4.0320 0.9529
5.3767 -11.5866 -4.5293 0.9472
6.7419 -11.6773 -4.7812 0.9444
13.5877 1.5200 -4.8481 0.9436
12.7055 2.5825 -4.5973 0.9465
10.0825 4.0127 -3.8479 0.9550
9.1215 4.6093 -3.6239 0.9576
4.6605 6.0388 -2.7048 0.9681
3.8887 6.0915 -2.5626 0.9698
3.1632 6.0901 -2.4334 0.9713
1.8473 5.9548 -2.2108 0.9739
0.1418 4.2410 -1.5046 0.9822
-0.2957 5.3024 -1.8831 0.9777
-1.1552 4.8475 -1.7670 0.9791
-1.5823 4.7260 -1.7672 0.9791
-2.0196 4.6188 -1.7875 0.9788
-2.3718 4.3280 -1.7500 0.9793
-2.6978 4.0254 -1.7183 0.9796
-2.9988 3.7117 -1.6920 0.9800
-3.2759 3.3872 -1.6709 0.9802
-3.5301 3.0525 -1.6548 0.9804
-3.7620 2.7078 -1.6436 0.9805
-4.1614 1.9878 -1.6353 0.9806
-2.5828 0.7075 -0.9496 0.9887
-2.6060 0.2329 -0.9277 0.9890
-2.6101 -0.0000 -0.9746 0.9889
-2.7171 -0.4895 -1.0309 0.9883
-2.7878 -0.7637 -1.0794 0.9877
-4.6642 -1.7370 -1.8585 0.9790
-4.6126 -2.2033 -1.9088 0.9784
-4.2594 -3.6832 -2.1027 0.9762
-4.0652 -4.2034 -2.1835 0.9753
-3.8264 -4.7360 -2.2736 0.9743
-3.5387 -5.2800 -2.3735 0.9732
-1.1775 -8.0732 -3.0465 0.9658
1.1795 -9.5768 -3.6031 0.9596
2.1439 -9.9768 -3.8105 0.9574
4.3240 -10.5220 -4.2478 0.9526
6.7543 -10.5805 -4.6873 0.9478
8.0051 -10.3725 -4.8926 0.9456
9.2339 -9.9836 -5.0781 0.9436
10.3984 -9.4048 -5.2355 0.9419
12.6761 0.8486 -4.7440 0.9472
11.9822 1.8841 -4.5292 0.9495
9.7245 3.3767 -3.8439 0.9570
8.0179 4.5108 -3.4353 0.9615
6.3403 5.2404 -3.0716 0.9655
4.0281 5.7300 -2.6154 0.9705
3.3307 5.7688 -2.4874 0.9720
-0.5020 4.9897 -1.8726 0.9788
-1.3007 4.5489 -1.7667 0.9800
-2.4498 4.0328 -1.7620 0.9801
-2.7538 3.7374 -1.7335 0.9804
-3.0342 3.4309 -1.7103 0.9806
-3.5279 2.7859 -1.6786 0.9810
-3.7423 2.4481 -1.6699 0.9811
-4.1083 1.7421 -1.6663 0.9811
-2.5921 0.1156 -0.9689 0.9890
-2.6781 -0.3602 -1.0090 0.9885
-4.4759 -2.9280 -1.9972 0.9774
-4.3411 -3.4281 -2.0655 0.9767
-3.6889 -5.0067 -2.3222 0.9738
-3.0041 -6.1131 -2.5435 0.9713
-2.5711 -6.6758 -2.6713 0.9699
-1.4948 -7.7980 -2.9648 0.9667
4.9139 -10.5893 -4.3592 0.9514
6.1322 -10.6213 -4.5797 0.9490
9.8269 -9.7181 -5.1608 0.9427
13.7620 -2.1640 -5.2020 0.9423
12.9761 0.2892 -4.8466 0.9461
10.7701 3.2098 -4.1965 0.9531
8.4440 4.2669 -3.5328 0.9604
6.7528 5.0925 -3.1582 0.9645
5.9344 5.3674 -2.9879 0.9664
4.3913 5.6900 -2.6839 0.9698
3.6745 5.7560 -2.5500 0.9713
2.9966 5.7695 -2.4277 0.9726
2.3579 5.7375 -2.3163 0.9739
0.6695 5.4358 -2.0451 0.9769
0.1426 4.2640 -1.5931 0.9819
-0.2838 5.0894 -1.9034 0.9785
-1.1116 4.6644 -1.7905 0.9797
-1.5714 4.6934 -1.8482 0.9791
-2.2886 4.1761 -1.7782 0.9799
-2.6048 3.8866 -1.7471 0.9802
-3.1659 3.2735 -1.7005 0.9807
-3.4126 2.9510 -1.6847 0.9809
-3.8416 2.2754 -1.6672 0.9811
-4.1869 1.5592 -1.6683 0.9811
-2.6096 0.4701 -0.9901 0.9887
-2.5629 0.2290 -0.9608 0.9891
-2.5691 0.0000 -1.0083 0.9890
-2.6685 -0.4808 -1.0642 0.9884
-2.7221 -0.7457 -1.1077 0.9879
-2.7584 -1.0273 -1.1552 0.9874
-4.2408 -3.0524 -2.0507 0.9778
-3.8950 -4.0274 -2.1989 0.9762
-2.6572 -6.0772 -2.6032 0.9719
-1.1098 -7.6094 -3.0181 0.9675
0.2854 -8.5364 -3.3521 0.9640
1.1002 -8.9333 -3.5325 0.9621
2.9567 -9.5316 -3.9167 0.9580
3.9855 -9.6983 -4.1152 0.9559
6.1756 -9.6739 -4.5044 0.9519
7.2919 -9.4484 -4.6841 0.9500
9.4131 -8.5137 -4.9813 0.9469
10.3457 -7.8021 -5.0856 0.9458
11.1447 -6.9410 -5.1529 0.9451
12.2255 -4.8656 -5.1642 0.9450
12.4717 -3.7170 -5.1075 0.9456
12.0479 -0.2685 -4.7296 0.9495
9.5556 3.3181 -3.9700 0.9575
8.2325 3.7094 -3.5438 0.9619
7.4715 4.2034 -3.3646 0.9638
6.7070 4.6041 -3.1928 0.9656
5.9512 4.9188 -3.0302 0.9674
5.2133 5.1555 -2.8776 0.9690
4.5000 5.3225 -2.7355 0.9705
1.9586 5.4440 -2.2707 0.9754
1.4068 5.3697 -2.1786 0.9764
0.8893 5.2721 -2.0984 0.9773
0.4014 5.1374 -2.0224 0.9781
-0.0470 4.2201 -1.6564 0.9820
-0.4826 4.7976 -1.8924 0.9795
-0.8815 4.5985 -1.8376 0.9801
-2.0476 4.1667 -1.8221 0.9802
-2.3664 3.8956 -1.7889 0.9806
-2.6615 3.6123 -1.7610 0.9809
-3.4133 2.6955 -1.7070 0.9815
-3.9758 1.6859 -1.6949 0.9816
-2.5490 0.1136 -1.0014 0.9891
-2.6312 -0.3539 -1.0420 0.9887
-2.7236 -0.8783 -1.1231 0.9878
-4.4046 -2.3504 -1.9594 0.9788
-4.1688 -3.2921 -2.0848 0.9774
-3.9963 -3.7797 -2.1588 0.9766
-3.2185 -5.2984 -2.4331 0.9737
-2.8586 -5.8171 -2.5438 0.9725
-2.4407 -6.3371 -2.6652 0.9712
-1.9598 -6.8538 -2.7977 0.9698
-1.4111 -7.3613 -2.9417 0.9683
0.6830 -8.7413 -3.4412 0.9630
1.5367 -9.1103 -3.6261 0.9611
2.4657 -9.4117 -3.8185 0.9591
4.5200 -9.7404 -4.2144 0.9549
5.6178 -9.7304 -4.4097 0.9529
6.7349 -9.5805 -4.5962 0.9509
7.8426 -9.2763 -4.7675 0.9491
9.8940 -8.1776 -5.0378 0.9463
11.4841 -6.4608 -5.1715 0.9450
12.0268 -5.4190 -5.1772 0.9449
12.5188 -3.1312 -5.0646 0.9461
12.2286 -0.8186 -4.8101 0.9487
11.8298 0.2636 -4.6440 0.9504
11.2960 1.2636 -4.4610 0.9523
10.6555 2.1658 -4.2675 0.9544
9.9364 2.9614 -4.0693 0.9564
7.8534 3.9685 -3.4534 0.9629
4.8532 5.2473 -2.8052 0.9698
4.1539 5.3824 -2.6684 0.9712
2.2471 5.4679 -2.3201 0.9749
1.6786 5.4111 -2.2235 0.9759
1.1433 5.3205 -2.1358 0.9769
0.6414 5.2080 -2.0594 0.9777
-0.6855 4.7003 -1.8642 0.9798
-1.0707 4.4928 -1.8127 0.9803
-1.5228 4.5482 -1.8824 0.9796
-1.8790 4.2974 -1.8408 0.9800
-2.2100 4.0327 -1.8048 0.9804
-2.5169 3.7554 -1.7743 0.9808
-3.3015 2.8549 -1.7130 0.9814
-3.8949 1.8604 -1.6941 0.9816
-4.0517 1.5089 -1.6969 0.9816
-2.5634 0.4618 -1.0222 0.9889
-2.5656 -0.2292 -1.0607 0.9889
-2.6211 -0.4722 -1.0967 0.9885
-2.6436 -0.9845 -1.1616 0.9879
-4.2833 -2.0460 -1.9547 0.9797
-4.1974 -2.4862 -2.0089 0.9791
-3.9268 -3.3957 -2.1377 0.9778
-3.7366 -3.8636 -2.2133 0.9770
-3.5054 -4.3387 -2.2969 0.9762
-2.9061 -5.3031 -2.4901 0.9742
-1.0488 -7.1909 -2.9924 0.9691
0.2681 -8.0184 -3.3037 0.9659
2.7492 -8.8626 -3.8210 0.9607
5.6823 -8.9013 -4.3486 0.9553
6.6881 -8.6661 -4.5077 0.9537
9.4223 -7.1057 -4.8596 0.9502
11.1189 -4.4252 -4.9279 0.9495
11.3541 -3.3839 -4.8786 0.9500
10.6439 0.7125 -4.3928 0.9549
9.5379 2.3856 -4.0485 0.9584
6.9890 3.9319 -3.3021 0.9659
5.6028 4.6308 -2.9932 0.9690
4.2608 5.0397 -2.7175 0.9719
3.6221 5.1525 -2.5935 0.9731
3.0098 5.2131 -2.4788 0.9743
1.8714 5.2017 -2.2763 0.9764
0.8524 5.0535 -2.1104 0.9781
0.3854 4.9318 -2.0370 0.9788
-0.0471 4.2228 -1.7390 0.9819
-0.4645 4.6176 -1.9110 0.9801
-0.8493 4.4307 -1.8577 0.9807
-1.6451 4.2714 -1.8848 0.9804
-1.9781 4.0254 -1.8469 0.9808
-2.2875 3.7658 -1.8144 0.9811
-2.8388 3.2099 -1.7645 0.9816
-3.5066 2.2939 -1.7255 0.9820
-3.8501 1.6326 -1.7220 0.9821
-3.9917 1.2871 -1.7270 0.9820
-2.6388 0.5979 -1.1141 0.9884
-2.5479 -0.1136 -1.0502 0.9890
-2.6300 -0.5959 -1.1104 0.9884
-2.6464 -0.8534 -1.1450 0.9880
-4.3149 -1.8297 -1.9299 0.9799
-4.2442 -2.2648 -1.9810 0.9794
-4.1426 -2.7100 -2.0384 0.9788
-3.6263 -4.1004 -2.2540 0.9766
-3.3734 -4.5785 -2.3418 0.9757
-2.7250 -5.5451 -2.5442 0.9736
-2.3214 -6.0273 -2.6596 0.9724
-1.8594 -6.5029 -2.7851 0.9712
-0.7454 -7.4097 -3.0666 0.9683
-0.0872 -7.8248 -3.2223 0.9667
1.4363 -8.5153 -3.5560 0.9633
2.2967 -8.7666 -3.7317 0.9616
6.1868 -8.8009 -4.4299 0.9545
7.1827 -8.4958 -4.5812 0.9530
9.7966 -6.7250 -4.8931 0.9499
11.2586 -3.9094 -4.9076 0.9498
11.3795 -1.7893 -4.7435 0.9514
10.4017 1.1636 -4.3100 0.9557
9.2139 2.7460 -3.9590 0.9593
5.2608 4.7581 -2.9209 0.9698
4.5891 4.9616 -2.7830 0.9712
3.9383 5.1030 -2.6544 0.9725
0.1625 4.8615 -2.0030 0.9792
-0.6602 4.5264 -1.8836 0.9804
-1.0362 4.3479 -1.8405 0.9809
-1.4695 4.3890 -1.9059 0.9802
-1.8146 4.1502 -1.8652 0.9806
-2.1357 3.8972 -1.8300 0.9810
-3.4082 2.4530 -1.7291 0.9820
-3.7718 1.8016 -1.7212 0.9821
-3.9234 1.4611 -1.7240 0.9821
-2.5181 0.4536 -1.0536 0.9890
-2.5389 -0.4574 -1.1128 0.9888
-2.5688 -0.9566 -1.1824 0.9881
-4.1328 -1.9741 -1.9756 0.9802
-3.7764 -3.2656 -2.1536 0.9785
-3.5886 -3.7105 -2.2267 0.9778
-3.3616 -4.1607 -2.3073 0.9770
-2.4133 -5.5192 -2.5984 0.9741
-1.9967 -5.9639 -2.7129 0.9730
-1.5244 -6.3966 -2.8365 0.9718
0.2525 -7.5534 -3.2600 0.9676
2.5666 -8.2739 -3.7368 0.9630
4.3388 -8.3537 -4.0605 0.9598
8.6404 -6.5161 -4.6682 0.9540
9.2874 -5.7843 -4.7197 0.9535
10.1844 -4.0533 -4.7283 0.9534
10.4086 -3.1021 -4.6850 0.9538
10.4780 -2.1297 -4.6122 0.9545
10.3978 -1.1632 -4.5131 0.9554
9.3956 1.4774 -4.1027 0.9594
8.2799 2.8751 -3.7808 0.9625
6.5596 3.6903 -3.2466 0.9677
5.2889 4.3714 -2.9598 0.9706
2.3169 4.9928 -2.3743 0.9763
1.7906 4.9770 -2.2816 0.9772
1.2906 4.9262 -2.1967 0.9781
0.8180 4.8497 -2.1215 0.9788
0.3703 4.7395 -2.0507 0.9795
-0.0471 4.2255 -1.8228 0.9818
-0.8191 4.2733 -1.8769 0.9812
-1.5893 4.1266 -1.9075 0.9809
-2.4913 3.3812 -1.8116 0.9819
-3.3975 2.2225 -1.7512 0.9825
-2.5715 0.5826 -1.1373 0.9886
-2.4106 0.3242 -1.0492 0.9895
-2.4655 0.1099 -1.0645 0.9893
-2.5077 -0.1118 -1.0828 0.9891
-2.5277 -0.3400 -1.1001 0.9890
-2.5465 -0.5770 -1.1263 0.9887
-2.5665 -0.8276 -1.1632 0.9883
-2.6695 -1.1320 -1.2508 0.9874
-4.0931 -2.1842 -2.0013 0.9800
-3.9910 -2.6108 -2.0572 0.9794
-3.8566 -3.0455 -2.1197 0.9788
-3.6872 -3.4873 -2.1892 0.9781
-3.4802 -3.9351 -2.2660 0.9774
-2.9407 -4.8410 -2.4433 0.9756
-2.6016 -5.2941 -2.5445 0.9746
0.6026 -7.7115 -3.3365 0.9669
2.1475 -8.1970 -3.6552 0.9638
3.8847 -8.3713 -3.9809 0.9606
4.7969 -8.3086 -4.1384 0.9591
6.6182 -7.8280 -4.4218 0.9563
8.9785 -6.1634 -4.6977 0.9537
9.5645 -5.3809 -4.7338 0.9533
10.0146 -4.5124 -4.7382 0.9533
10.3159 -3.5821 -4.7105 0.9535
10.4624 -2.6168 -4.6521 0.9541
10.3050 -0.6898 -4.4551 0.9560
9.6290 1.0771 -4.1794 0.9587
8.5813 2.5575 -3.8625 0.9617
7.9676 3.1710 -3.6991 0.9633
6.9039 3.4887 -3.3367 0.9669
6.2433 3.8883 -3.1727 0.9685
4.9728 4.4976 -2.8923 0.9712
4.3491 4.7022 -2.7629 0.9725
3.7414 4.8479 -2.6415 0.9737
2.5897 4.9861 -2.4236 0.9758
2.0505 4.9895 -2.3269 0.9768
1.0506 4.8890 -2.1571 0.9785
0.5909 4.7978 -2.0852 0.9792
0.1563 4.6750 -2.0177 0.9798
-0.2525 4.5291 -1.9567 0.9804
-0.6363 4.3628 -1.9019 0.9810
-1.0295 4.3200 -1.9157 0.9808
-1.7537 4.0109 -1.8883 0.9811
-2.0653 3.7687 -1.8538 0.9815
-2.6225 3.2459 -1.8000 0.9820
-2.8693 2.9669 -1.7804 0.9822
-3.0957 2.6769 -1.7654 0.9823
-3.3018 2.3765 -1.7548 0.9824
-3.4881 2.0660 -1.7488 0.9825
-3.6546 1.7457 -1.7471 0.9825
-3.8014 1.4156 -1.7498 0.9825
-3.9282 1.0760 -1.7569 0.9824
-2.4719 0.4453 -1.0835 0.9891
-2.4387 0.2179 -1.0561 0.9894
-2.4282 -0.0000 -1.0956 0.9894
-2.4481 -0.2188 -1.1090 0.9893
-2.4592 -0.4431 -1.1275 0.9891
-2.4702 -0.6767 -1.1556 0.9888
-2.4891 -0.9269 -1.1984 0.9884
-3.9905 -1.9061 -1.9954 0.9808
-3.9031 -2.3118 -2.0469 0.9803
-3.7854 -2.7246 -2.1045 0.9797
-3.6351 -3.1434 -2.1684 0.9791
-3.2272 -3.9944 -2.3171 0.9777
-2.3052 -5.2721 -2.5963 0.9751
-0.9429 -6.4647 -2.9478 0.9717
-0.3801 -6.8171 -3.0808 0.9705
0.2385 -7.1337 -3.2207 0.9692
1.6353 -7.6102 -3.5122 0.9664
2.4045 -7.7516 -3.6621 0.9650
4.8854 -7.6529 -4.0968 0.9609
6.5283 -7.0584 -4.3383 0.9587
8.5590 -5.3306 -4.5497 0.9567
9.3843 -3.7349 -4.5574 0.9566
9.6734 -1.9662 -4.4541 0.9576
8.7484 1.3756 -3.9959 0.9619
7.7515 2.6916 -3.7025 0.9646
6.2410 3.5111 -3.2311 0.9691
5.5923 3.8389 -3.0607 0.9707
5.0045 4.1363 -2.9296 0.9719
2.7387 4.7435 -2.4715 0.9763
1.2384 4.7269 -2.2048 0.9788
0.3563 4.5592 -2.0635 0.9801
-0.0471 4.2282 -1.9080 0.9816
-1.8500 3.7646 -1.8927 0.9818
-2.1418 3.5258 -1.8614 0.9821
-2.6626 3.0106 -1.8135 0.9825
-2.8926 2.7358 -1.7965 0.9827
-3.1028 2.4503 -1.7839 0.9828
-3.2934 2.1545 -1.7758 0.9829
-3.6165 1.5335 -1.7725 0.9829
-3.7488 1.2088 -1.7773 0.9829
-2.4105 0.1075 -1.0887 0.9895
-2.4521 -0.3298 -1.1164 0.9892
-2.4671 -0.5590 -1.1414 0.9890
-3.8482 -2.5174 -2.0749 0.9800
-3.7145 -2.9333 -2.1356 0.9794
-3.5471 -3.3548 -2.2030 0.9788
-3.1009 -4.2085 -2.3587 0.9773
-2.8165 -4.6366 -2.4479 0.9765
-2.4874 -5.0617 -2.5448 0.9756
-2.1107 -5.4802 -2.6498 0.9746
-1.2033 -6.2778 -2.8842 0.9723
-0.0778 -6.9804 -3.1499 0.9698
0.5684 -7.2738 -3.2921 0.9685
3.6245 -7.8106 -3.8852 0.9629
5.3053 -7.5469 -4.1625 0.9603
6.9146 -6.8380 -4.3880 0.9582
7.6381 -6.3130 -4.4713 0.9574
9.6606 -1.5191 -4.4126 0.9580
9.2983 0.2072 -4.1966 0.9600
8.5231 1.7324 -3.9244 0.9626
8.0225 2.3909 -3.7772 0.9639
7.4694 2.9727 -3.6274 0.9653
6.8702 3.4717 -3.4733 0.9668
5.8848 3.6651 -3.1282 0.9700
4.7112 4.2610 -2.8662 0.9725
4.1300 4.4653 -2.7445 0.9737
3.0080 4.7119 -2.5224 0.9758
2.4746 4.7644 -2.4225 0.9767
1.4740 4.7515 -2.2448 0.9784
0.5681 4.6123 -2.0969 0.9798
-0.2434 4.3645 -1.9724 0.9810
-1.3714 4.0962 -1.9491 0.9812
-2.2797 3.4015 -1.8477 0.9822
-2.7801 2.8746 -1.8044 0.9826
-3.0002 2.5943 -1.7897 0.9827
-3.2006 2.3036 -1.7793 0.9828
-3.3815 2.0029 -1.7733 0.9829
-3.5430 1.6924 -1.7717 0.9829
-3.6851 1.3724 -1.7743 0.9829
-3.8075 1.0430 -1.7813 0.9828
-2.4063 0.4335 -1.1032 0.9893
-2.3616 -0.0000 -1.1132 0.9896
-2.3934 -0.6557 -1.1698 0.9891
-3.7680 -2.2318 -2.0644 0.9808
-3.6509 -2.6277 -2.1203 0.9803
-3.5022 -3.0284 -2.1824 0.9797
-3.3198 -3.4326 -2.2510 0.9791
-3.1014 -3.8386 -2.3262 0.9784
-2.5465 -4.6467 -2.4977 0.9768
-2.2049 -5.0428 -2.5943 0.9760
-0.8966 -6.1474 -2.9284 0.9729
-0.3607 -6.4681 -3.0537 0.9718
0.8608 -6.9891 -3.3194 0.9693
2.2598 -7.2848 -3.5953 0.9668
3.7809 -7.2796 -3.8667 0.9644
4.5586 -7.1410 -3.9935 0.9632
5.3270 -6.9024 -4.1099 0.9622
6.7611 -6.1150 -4.2972 0.9605
7.9278 -4.9375 -4.4025 0.9595
8.6911 -3.4590 -4.4093 0.9595
8.8944 -2.6508 -4.3748 0.9598
8.9740 -1.8240 -4.3166 0.9603
8.9328 -0.9993 -4.2370 0.9610
8.5219 0.5705 -4.0260 0.9629
8.1766 1.2857 -3.9016 0.9641
7.7576 1.9403 -3.7694 0.9653
6.2052 3.4910 -3.3561 0.9690
5.2906 3.6318 -3.0249 0.9720
4.7455 3.9222 -2.9021 0.9731
3.1318 4.4551 -2.5670 0.9762
2.6181 4.5347 -2.4682 0.9771
2.1220 4.5727 -2.3762 0.9780
1.6454 4.5733 -2.2910 0.9787
0.3430 4.3896 -2.0755 0.9807
-0.0472 4.2392 -1.9984 0.9814
-0.4163 4.1386 -1.9607 0.9818
-1.4863 3.8591 -1.9494 0.9819
-2.0742 3.4146 -1.8833 0.9825
-2.5807 2.9180 -1.8362 0.9829
-2.8044 2.6524 -1.8195 0.9831
-3.0088 2.3761 -1.8072 0.9832
-3.1942 2.0895 -1.7992 0.9833
-3.5077 1.4874 -1.7960 0.9833
-3.6357 1.1724 -1.8007 0.9832
-2.3694 -0.1057 -1.1180 0.9896
-2.3945 -0.7721 -1.1859 0.9889
-3.8155 -2.0360 -2.0386 0.9811
-3.7133 -2.4291 -2.0916 0.9806
-3.2152 -3.6355 -2.2877 0.9788
-2.7007 -4.4460 -2.4521 0.9773
-2.0171 -5.2371 -2.6454 0.9755
-0.6350 -6.3117 -2.9902 0.9723
-0.0737 -6.6155 -3.1186 0.9712
1.8957 -7.2359 -3.5260 0.9675
3.3938 -7.3134 -3.8004 0.9650
5.7020 -6.7444 -4.1631 0.9617
6.4215 -6.3504 -4.2571 0.9608
8.1608 -4.5912 -4.4138 0.9594
8.5436 -3.8496 -4.4172 0.9594
8.9496 -2.2385 -4.3486 0.9600
8.9681 -1.4102 -4.2793 0.9606
8.6621 0.1930 -4.0841 0.9624
7.5251 2.2427 -3.7013 0.9659
4.4723 4.0449 -2.8425 0.9737
3.9291 4.2480 -2.7276 0.9747
3.3945 4.3983 -2.6189 0.9757
2.8729 4.5004 -2.5168 0.9767
2.3677 4.5586 -2.4214 0.9775
1.4148 4.5608 -2.2509 0.9791
0.9703 4.5155 -2.1771 0.9798
0.5466 4.4381 -2.1079 0.9804
-1.6411 3.7533 -1.9310 0.9820
-1.9350 3.5309 -1.8979 0.9824
-2.2083 3.2950 -1.8698 0.9826
-2.4615 3.0466 -1.8463 0.9828
-2.6950 2.7866 -1.8273 0.9830
-3.1039 2.2341 -1.8027 0.9832
-3.2797 1.9426 -1.7968 0.9833
-3.4365 1.6415 -1.7952 0.9833
-3.5741 1.3310 -1.7978 0.9833
-2.3095 -0.2064 -1.1404 0.9897
-2.3082 -0.4158 -1.1536 0.9896
-2.3175 -0.6348 -1.1819 0.9893
-2.3666 -1.1304 -1.2900 0.9884
-3.1972 -3.3059 -2.2621 0.9797
-2.4426 -4.4571 -2.4999 0.9776
-0.8540 -5.8554 -2.9105 0.9740
-0.3429 -6.1484 -3.0288 0.9729
0.2142 -6.4055 -3.1523 0.9718
1.4550 -6.7712 -3.4065 0.9696
2.1295 -6.8648 -3.5352 0.9685
3.5475 -6.8302 -3.7856 0.9663
4.2686 -6.6866 -3.9019 0.9653
5.6619 -6.1216 -4.1013 0.9635
6.3004 -5.6984 -4.1783 0.9628
6.8770 -5.1862 -4.2365 0.9623
7.7814 -3.9321 -4.2882 0.9619
8.0846 -3.2176 -4.2798 0.9620
8.3599 -1.6992 -4.1959 0.9627
7.9755 0.5339 -3.9316 0.9650
7.6676 1.2057 -3.8177 0.9660
6.3787 2.8741 -3.4411 0.9693
5.8700 3.3024 -3.3127 0.9704
3.9982 3.9539 -2.7657 0.9752
2.9926 4.2571 -2.5595 0.9771
2.5060 4.3406 -2.4652 0.9779
1.1437 4.3653 -2.2196 0.9801
-0.0459 4.1235 -2.0283 0.9818
-1.1226 3.9261 -2.0085 0.9820
-1.4386 3.7352 -1.9687 0.9823
-2.0098 3.3086 -1.9041 0.9829
-2.2658 3.0751 -1.8788 0.9831
-2.5025 2.8296 -1.8580 0.9833
-2.7202 2.5728 -1.8416 0.9834
-2.9191 2.3052 -1.8295 0.9836
-3.0993 2.0275 -1.8216 0.9836
-3.2608 1.7400 -1.8179 0.9837
-2.5042 0.5673 -1.2629 0.9886
-2.2893 0.1021 -1.1271 0.9898
-2.3022 -0.1027 -1.1335 0.9898
-2.3108 -0.3108 -1.1468 0.9897
-3.5856 -2.3456 -2.1074 0.9811
-3.4541 -2.7277 -2.1648 0.9806
-3.2912 -3.1127 -2.2281 0.9800
-2.2824 -4.6445 -2.5453 0.9772
-1.0922 -5.6977 -2.8535 0.9745
-0.6042 -6.0059 -2.9690 0.9735
-0.0700 -6.2820 -3.0900 0.9724
0.5092 -6.5170 -3.2152 0.9713
2.4772 -6.8855 -3.5992 0.9679
3.1876 -6.8692 -3.7247 0.9668
4.6260 -6.5806 -3.9564 0.9648
5.9878 -5.9215 -4.1420 0.9632
6.5975 -5.4530 -4.2099 0.9626
7.9464 -3.5805 -4.2869 0.9619
8.3330 -2.0842 -4.2249 0.9624
8.3594 -1.3145 -4.1621 0.9630
8.2789 -0.5542 -4.0811 0.9637
8.0993 0.1805 -3.9847 0.9645
7.8311 0.8760 -3.8758 0.9655
7.4867 1.5217 -3.7577 0.9665
7.0792 2.1099 -3.6333 0.9676
6.6220 2.6355 -3.5055 0.9687
5.6073 3.4922 -3.2491 0.9710
4.7629 3.5918 -2.9341 0.9738
3.7440 4.0480 -2.7121 0.9757
2.2682 4.3670 -2.4204 0.9783
1.8048 4.3918 -2.3354 0.9791
1.3593 4.3821 -2.2567 0.9798
0.9334 4.3435 -2.1851 0.9804
-0.2265 4.0625 -2.0013 0.9820
-0.9569 4.0153 -2.0303 0.9818
-1.2832 3.8327 -1.9880 0.9821
-2.3865 2.9538 -1.8678 0.9832
-2.6137 2.7025 -1.8492 0.9834
-2.8220 2.4402 -1.8350 0.9835
-3.0115 2.1676 -1.8250 0.9836
-3.3346 1.5928 -1.8176 0.9837
-3.4680 1.2915 -1.8202 0.9836
-3.5824 0.9813 -1.8269 0.9836
-2.3061 0.4154 -1.1525 0.9896
-2.2444 -0.2006 -1.1552 0.9899
-2.2416 -0.4038 -1.1677 0.9898
-2.2481 -0.6158 -1.1950 0.9896
-2.2593 -0.8414 -1.2360 0.9892
-3.5186 -2.0841 -2.0966 0.9818
-3.4031 -2.4494 -2.1496 0.9813
-2.8720 -3.5547 -2.3428 0.9797
-1.6633 -4.9680 -2.6859 0.9767
-0.8147 -5.5857 -2.8939 0.9749
-0.3264 -5.8543 -3.0060 0.9740
0.2035 -6.0872 -3.1225 0.9730
1.3773 -6.4093 -3.3609 0.9710
2.0116 -6.4848 -3.4808 0.9699
2.6684 -6.4931 -3.5989 0.9689
3.3381 -6.4270 -3.7128 0.9680
4.0093 -6.2804 -3.8199 0.9671
4.6687 -6.0493 -3.9175 0.9662
5.3015 -5.7319 -4.0028 0.9655
5.8923 -5.3293 -4.0731 0.9649
6.4257 -4.8459 -4.1260 0.9645
6.8874 -4.2895 -4.1598 0.9642
7.5490 -3.0045 -4.1654 0.9641
7.8163 -1.5887 -4.0891 0.9648
7.6868 -0.1713 -3.9418 0.9660
7.2113 1.1339 -3.7424 0.9677
6.8692 1.7181 -3.6301 0.9687
6.0345 2.7190 -3.3932 0.9707
5.0729 3.4823 -3.1545 0.9727
3.3348 3.9444 -2.6480 0.9770
1.9524 4.2074 -2.3780 0.9794
1.5183 4.2200 -2.2993 0.9800
-0.0443 3.9808 -2.0410 0.9823
-0.4033 4.0090 -2.0657 0.9821
-1.3931 3.6172 -1.9872 0.9827
-1.6803 3.4193 -1.9532 0.9830
-1.9483 3.2073 -1.9239 0.9833
-2.1974 2.9823 -1.8991 0.9835
-2.8332 2.2373 -1.8508 0.9839
-3.0085 1.9680 -1.8430 0.9840
-3.1655 1.6891 -1.8394 0.9840
-2.4709 0.5598 -1.2989 0.9887
-2.2093 0.2971 -1.1428 0.9900
-2.2377 -0.0998 -1.1483 0.9900
-2.2446 -0.3019 -1.1611 0.9899
-2.2425 -0.5081 -1.1788 0.9897
-2.2673 -0.9614 -1.2625 0.9890
-2.3837 -1.2720 -1.3851 0.9879
-3.3344 -2.6331 -2.1782 0.9811
-3.1738 -3.0018 -2.2396 0.9806
-2.9811 -3.3707 -2.3069 0.9800
-2.7541 -3.7379 -2.3803 0.9793
-2.4910 -4.1008 -2.4598 0.9787
-1.8491 -4.8011 -2.6376 0.9771
-1.0428 -5.4402 -2.8398 0.9754
-0.5758 -5.7240 -2.9494 0.9745
1.0709 -6.3488 -3.3008 0.9715
2.3377 -6.4978 -3.5403 0.9694
3.0023 -6.4697 -3.6566 0.9684
4.3413 -6.1756 -3.8701 0.9666
4.9893 -5.9014 -3.9618 0.9659
5.6031 -5.5411 -4.0400 0.9652
7.7876 -1.9478 -4.1155 0.9646
6.6771 1.9900 -3.5720 0.9692
5.3208 3.3138 -3.2136 0.9722
4.7286 3.5660 -3.0363 0.9737
4.0515 3.6644 -2.8006 0.9757
3.5730 3.8631 -2.6977 0.9766
3.0980 4.0142 -2.5996 0.9775
2.6310 4.1214 -2.5067 0.9783
1.7334 4.2179 -2.3379 0.9797
0.8985 4.1814 -2.1927 0.9810
0.1348 4.0325 -2.0685 0.9820
-1.2422 3.7104 -2.0060 0.9826
-1.8167 3.3150 -1.9380 0.9832
-2.3149 2.8651 -1.8884 0.9836
-2.5360 2.6222 -1.8702 0.9837
-2.7387 2.3682 -1.8562 0.9839
-2.9231 2.1039 -1.8464 0.9839
-2.1789 -0.3925 -1.1819 0.9900
-2.1873 -0.5992 -1.2107 0.9898
-2.1932 -0.8168 -1.2494 0.9894
-3.1456 -2.7201 -2.2200 0.9813
-2.9722 -3.0733 -2.2824 0.9808
-2.7670 -3.4248 -2.3505 0.9802
-0.7782 -5.3358 -2.8786 0.9758
0.1937 -5.7943 -3.0950 0.9741
1.3063 -6.0788 -3.3192 0.9722
1.9044 -6.1391 -3.4314 0.9713
2.5216 -6.1359 -3.5414 0.9704
3.1490 -6.0628 -3.6471 0.9695
3.7759 -5.9149 -3.7462 0.9687
4.3904 -5.6888 -3.8362 0.9679
4.9791 -5.3833 -3.9146 0.9673
6.4532 -4.0191 -4.0585 0.9661
6.8056 -3.4390 -4.0706 0.9660
7.0725 -2.8148 -4.0636 0.9661
7.3313 -1.4902 -3.9938 0.9666
7.3225 -0.8192 -3.9334 0.9671
7.2260 -0.1610 -3.8585 0.9678
6.4882 1.6228 -3.5704 0.9701
5.7204 2.5775 -3.3495 0.9720
5.2846 2.9731 -3.2370 0.9729
4.8266 3.3132 -3.1253 0.9738
3.6616 3.6210 -2.7491 0.9769
3.1893 3.7723 -2.6371 0.9779
1.8756 4.0418 -2.3787 0.9800
0.6754 4.0041 -2.1678 0.9818
-0.0434 3.8963 -2.0801 0.9825
-0.4000 3.9759 -2.1332 0.9820
-0.7354 3.8367 -2.0855 0.9824
-1.0520 3.6790 -2.0427 0.9828
-1.3498 3.5045 -2.0048 0.9831
-2.7508 2.1723 -1.8712 0.9842
-2.9214 1.9110 -1.8636 0.9843
-3.2086 1.3606 -1.8605 0.9843
-3.3250 1.0721 -1.8650 0.9843
-2.4373 0.5522 -1.3341 0.9887
-2.1681 0.2916 -1.1679 0.9901
-2.1735 0.0969 -1.1615 0.9902
-2.1766 -0.0971 -1.1631 0.9902
-2.1810 -0.2933 -1.1748 0.9901
-2.1807 -0.4941 -1.1936 0.9899
-2.2001 -0.9329 -1.2757 0.9892
-2.2448 -1.1979 -1.3583 0.9885
-3.3494 -2.1911 -2.1366 0.9820
-3.2208 -2.5434 -2.1909 0.9816
-2.6519 -3.5992 -2.3866 0.9799
-2.3956 -3.9437 -2.4633 0.9793
-0.9970 -5.2011 -2.8271 0.9763
-0.0634 -5.6933 -3.0395 0.9745
0.4598 -5.8844 -3.1509 0.9736
4.6888 -5.5460 -3.8770 0.9676
