ply
format ascii 1.0
element vertex 1584
property float32 x
property float32 y
property float32 z
property float32 I
end_header
-11.3412 -2.0432 -0.6712 0.9549
-12.0820 -4.4994 -0.7509 0.9497
-3.5292 -2.5401 -0.2533 0.9827
-2.7450 -2.8383 -0.2300 0.9843
-2.2803 -3.4024 -0.2386 0.9837
-2.1284 -3.8837 -0.2579 0.9824
-3.6698 12.8342 -0.7775 0.9479
-5.2286 10.6399 -0.6905 0.9536
-5.8760 9.6732 -0.6592 0.9557
-7.4793 7.0739 -0.5996 0.9596
-7.9343 6.2657 -0.5888 0.9603
-8.7665 4.6780 -0.5787 0.9610
-10.2470 1.3781 -0.6022 0.9594
-10.6006 0.4727 -0.6180 0.9584
-10.8379 -0.4833 -0.6319 0.9575
-11.1640 -1.5014 -0.6561 0.9559
-12.6971 -6.7754 -0.8382 0.9440
-2.6158 -2.9577 -0.2300 0.9843
-2.3817 -3.2325 -0.2339 0.9840
-2.1215 -4.3171 -0.2802 0.9809
0.9572 4.4547 -0.2654 0.9819
-3.0119 12.6383 -0.7567 0.9493
-4.0997 12.2450 -0.7521 0.9496
-5.5613 10.1480 -0.6740 0.9547
-7.2395 7.4856 -0.6065 0.9591
-8.1511 5.8668 -0.5849 0.9606
-10.0693 1.8141 -0.5959 0.9598
-10.4240 0.9315 -0.6095 0.9589
-10.0677 -0.0000 -0.7545 0.9604
-10.8415 -2.9698 -0.8424 0.9559
-11.1406 -4.1488 -0.8909 0.9534
-11.7608 -6.9659 -1.0243 0.9466
-3.5715 -2.5706 -0.3298 0.9825
-3.0913 -2.6731 -0.3063 0.9837
-2.7626 -2.8565 -0.2978 0.9842
-2.5080 -3.1041 -0.2991 0.9841
-2.3012 -3.4337 -0.3098 0.9836
-2.1558 -3.9338 -0.3362 0.9822
-1.3383 13.3037 -1.0020 0.9478
-2.3249 12.1286 -0.9255 0.9517
-3.3752 11.8037 -0.9200 0.9519
-4.1598 10.8008 -0.8674 0.9546
-4.8523 9.8743 -0.8245 0.9568
-5.4710 9.0065 -0.7897 0.9586
-7.8487 5.1344 -0.7028 0.9631
-8.9416 2.8833 -0.7041 0.9630
-9.5980 1.2908 -0.7257 0.9619
-9.9127 0.4420 -0.7436 0.9610
-10.1298 -0.4517 -0.7599 0.9601
-10.6930 -2.4227 -0.8216 0.9570
-10.9906 -3.5440 -0.8654 0.9547
-11.2920 -4.7882 -0.9192 0.9520
-11.6016 -6.1908 -0.9855 0.9486
-2.9172 -2.7591 -0.3009 0.9840
-2.3995 -3.2566 -0.3031 0.9839
-2.2127 -3.6426 -0.3194 0.9830
-0.7777 13.9479 -1.0469 0.9455
-2.7623 11.5911 -0.8930 0.9533
-4.5164 10.3292 -0.8448 0.9558
-5.1700 9.4340 -0.8062 0.9578
-5.7571 8.5902 -0.7749 0.9594
-6.7779 7.0082 -0.7306 0.9616
-8.0428 4.7638 -0.7005 0.9632
-8.4154 4.0197 -0.6989 0.9633
-9.1098 2.4955 -0.7078 0.9628
-9.7562 0.8718 -0.7340 0.9615
-9.6037 -0.8581 -0.8840 0.9620
-9.8513 -1.7748 -0.9177 0.9606
-2.7851 -2.8798 -0.3673 0.9840
-2.5266 -3.1272 -0.3686 0.9840
-2.1912 -3.9984 -0.4180 0.9819
-0.1480 13.2793 -1.2175 0.9481
-1.2244 12.1707 -1.1214 0.9521
-2.9336 10.2594 -0.9783 0.9580
-3.8664 10.0390 -0.9862 0.9577
-5.6529 7.6721 -0.8737 0.9624
-7.3940 4.8369 -0.8100 0.9651
-7.7570 4.1393 -0.8061 0.9653
-8.0990 3.4343 -0.8065 0.9653
-4.0002 0.1784 -0.3671 0.9840
-9.7262 -1.3080 -0.8997 0.9613
-9.9745 -2.2599 -0.9376 0.9598
-10.2155 -3.2940 -0.9840 0.9578
-10.4499 -4.4311 -1.0406 0.9554
-10.6781 -5.6980 -1.1096 0.9525
-4.0573 -2.6541 -0.4445 0.9807
-3.3400 -2.6375 -0.3902 0.9831
-2.9468 -2.7871 -0.3719 0.9838
-2.6494 -2.9957 -0.3666 0.9841
0.9348 4.3502 -0.4079 0.9823
-1.7000 11.6564 -1.0799 0.9538
-3.5066 10.4737 -1.0126 0.9566
-4.8293 8.8125 -0.9213 0.9604
-5.9025 7.3056 -0.8610 0.9630
-6.8025 5.8824 -0.8245 0.9645
-7.2036 5.1849 -0.8137 0.9650
-7.5783 4.4887 -0.8075 0.9652
-7.9304 3.7881 -0.8057 0.9653
-8.2630 3.0772 -0.8084 0.9652
-4.1097 0.3672 -0.3783 0.9836
-9.0386 -0.8077 -0.9843 0.9641
-9.4443 -2.5871 -1.0621 0.9614
-9.8080 -4.6849 -1.1790 0.9572
-9.9663 -5.9030 -1.2564 0.9545
-3.6670 -2.6394 -0.4901 0.9820
-3.1573 -2.7302 -0.4527 0.9833
-2.8157 -2.9114 -0.4393 0.9838
-2.5513 -3.1578 -0.4403 0.9838
2.4240 14.3707 -1.5808 0.9430
-1.1280 11.2127 -1.2224 0.9557
-1.9833 10.3466 -1.1427 0.9585
-2.7298 9.5466 -1.0770 0.9608
-4.2397 8.6276 -1.0427 0.9621
-4.8059 7.9116 -1.0041 0.9634
-6.6180 5.2262 -0.9147 0.9666
-6.9879 4.5713 -0.9057 0.9670
-4.7637 1.0793 -0.5298 0.9805
-3.7518 0.5046 -0.4106 0.9849
-9.5407 -3.0764 -1.0873 0.9605
-9.8893 -5.2771 -1.2158 0.9559
-3.3768 -2.6666 -0.4667 0.9828
-2.6774 -3.0273 -0.4384 0.9839
-2.4372 -3.3078 -0.4457 0.9836
-2.2685 -3.7345 -0.4739 0.9826
1.6949 13.7614 -1.5039 0.9457
0.4232 12.6569 -1.3736 0.9503
-0.6509 11.6726 -1.2681 0.9541
-3.9339 8.9972 -1.0651 0.9613
-5.0687 7.5630 -0.9875 0.9640
-5.5591 6.8806 -0.9595 0.9650
-6.0085 6.2128 -0.9375 0.9658
-6.4226 5.5539 -0.9210 0.9664
-6.8063 4.8989 -0.9096 0.9668
-7.4971 3.5811 -0.9012 0.9671
-8.1045 2.2201 -0.9115 0.9668
-3.9949 0.7197 -0.4403 0.9838
-3.7414 0.3343 -0.4074 0.9850
-3.5692 0.0000 -0.4473 0.9857
-8.7012 -1.5676 -1.1080 0.9650
-8.8699 -2.4297 -1.1525 0.9636
-3.1916 -2.7598 -0.5288 0.9831
-2.8471 -2.9438 -0.5132 0.9836
-2.5831 -3.1971 -0.5151 0.9836
-2.2948 -4.1874 -0.5984 0.9809
2.1993 13.0381 -1.6570 0.9481
0.9433 12.0718 -1.5174 0.9524
-1.8469 9.6351 -1.2294 0.9612
-3.9868 8.1129 -1.1328 0.9642
-5.0222 6.8162 -1.0610 0.9664
-6.9516 3.7095 -0.9874 0.9687
-7.2577 3.0775 -0.9879 0.9687
-7.5431 2.4324 -0.9932 0.9686
-4.3832 0.9931 -0.5632 0.9820
-3.5348 0.1576 -0.4434 0.9858
-8.6104 -1.1579 -1.0887 0.9656
-8.7877 -1.9910 -1.1292 0.9643
-8.9475 -2.8852 -1.1781 0.9628
-2.4679 -3.3494 -0.5214 0.9834
-2.3081 -3.7997 -0.5571 0.9822
0.9285 4.3211 -0.5539 0.9823
-1.4595 10.0069 -1.2673 0.9601
-5.2524 6.5010 -1.0474 0.9669
-5.6842 5.8775 -1.0246 0.9676
-6.0818 5.2592 -1.0076 0.9681
-6.4493 4.6420 -0.9958 0.9685
-7.1073 3.3949 -0.9871 0.9687
-7.6786 2.1034 -0.9977 0.9684
-3.8077 0.6860 -0.4848 0.9845
-3.5139 -0.3140 -0.5018 0.9858
-8.2186 -1.4806 -1.1878 0.9668
-8.3593 -2.2898 -1.2328 0.9656
-8.4782 -3.1573 -1.2868 0.9641
-8.5728 -4.0949 -1.3513 0.9623
-8.6397 -5.1173 -1.4283 0.9602
-3.8580 -2.7768 -0.6761 0.9810
-2.4149 -3.6033 -0.6170 0.9826
4.9596 13.7855 -2.0838 0.9425
1.1226 4.2849 -0.6300 0.9823
0.8692 11.1233 -1.5870 0.9559
-0.9738 9.6803 -1.3838 0.9615
-1.7276 9.0128 -1.3053 0.9636
-4.2815 7.0484 -1.1730 0.9672
-4.7553 6.4540 -1.1403 0.9681
-5.1888 5.8671 -1.1140 0.9689
-5.5869 5.2841 -1.0938 0.9694
-6.2928 4.1166 -1.0696 0.9701
-6.6066 3.5254 -1.0651 0.9702
-6.8973 2.9247 -1.0656 0.9702
-3.3671 0.4528 -0.4832 0.9864
-3.6292 -0.4881 -0.5209 0.9853
-8.2916 -1.8786 -1.2093 0.9662
-8.4216 -2.7156 -1.2586 0.9649
-8.5287 -3.6165 -1.3176 0.9633
-8.6100 -4.5944 -1.3881 0.9613
-8.6613 -5.6659 -1.4721 0.9590
-3.4896 -2.7557 -0.6324 0.9822
-3.0421 -2.8772 -0.5956 0.9832
-2.7377 -3.0955 -0.5878 0.9834
-2.5040 -3.3985 -0.6004 0.9831
-2.3563 -3.8789 -0.6455 0.9818
0.9277 4.3172 -0.6281 0.9823
1.4185 11.5171 -1.6505 0.9542
0.3592 10.7445 -1.5291 0.9575
-0.5590 10.0253 -1.4282 0.9602
-1.3625 9.3420 -1.3428 0.9626
-3.4816 7.9628 -1.2361 0.9655
-4.5238 6.7500 -1.1558 0.9677
-4.9768 6.1598 -1.1264 0.9685
-5.7741 4.9931 -1.0858 0.9696
-6.1266 4.4097 -1.0737 0.9700
-7.0345 2.6197 -1.0677 0.9701
-3.6717 0.6615 -0.5307 0.9850
-3.2915 0.0000 -0.5241 0.9868
-3.3916 -0.3031 -0.5422 0.9863
-7.7848 -1.4025 -1.2596 0.9685
-7.9955 -2.9775 -1.3586 0.9660
-4.0660 -2.9265 -0.7977 0.9799
-3.3013 -2.8547 -0.6950 0.9825
-2.9199 -3.0191 -0.6688 0.9831
-2.4554 -3.6637 -0.7023 0.9823
6.1913 13.3420 -2.3421 0.9422
1.1263 4.2991 -0.7076 0.9822
0.8056 10.3095 -1.6467 0.9590
-0.1077 9.6689 -1.5397 0.9616
-0.9112 9.0571 -1.4495 0.9638
-4.0586 6.6815 -1.2449 0.9688
-4.5143 6.1269 -1.2119 0.9696
-4.9316 5.5762 -1.1854 0.9703
-5.9927 3.9203 -1.1403 0.9714
-3.4817 -0.4682 -0.5594 0.9859
-7.8464 -1.7777 -1.2811 0.9679
-8.0835 -4.3135 -1.4590 0.9636
-8.1017 -5.2999 -1.5416 0.9615
-3.5658 -2.8159 -0.7235 0.9818
-3.0952 -2.9274 -0.6784 0.9829
-2.7691 -3.1311 -0.6656 0.9832
0.9268 4.3132 -0.7025 0.9823
1.3108 10.6432 -1.7076 0.9575
0.3338 9.9850 -1.5909 0.9603
-0.5219 9.3603 -1.4928 0.9627
-1.9482 8.1751 -1.3382 0.9665
-3.2912 7.5271 -1.3082 0.9673
-4.7274 5.8512 -1.1978 0.9700
-5.1272 5.3015 -1.1744 0.9706
-5.8335 4.1986 -1.1445 0.9713
-6.1458 3.6402 -1.1374 0.9715
-6.4339 3.0733 -1.1354 0.9715
-6.6996 2.4950 -1.1384 0.9715
-3.5501 0.6396 -0.5744 0.9855
-3.1939 0.0000 -0.5632 0.9871
-3.2817 -0.2932 -0.5809 0.9867
-3.3651 -2.9099 -0.7844 0.9821
-2.9744 -3.0755 -0.7544 0.9828
5.6049 12.0783 -2.3479 0.9474
1.1356 4.3344 -0.7901 0.9820
-0.1008 9.0467 -1.5953 0.9639
-0.8557 8.5066 -1.5075 0.9659
-2.1319 7.4557 -1.3673 0.9690
-3.3768 6.8716 -1.3501 0.9694
-3.8568 6.3492 -1.3099 0.9703
-4.2955 5.8299 -1.2769 0.9710
-5.7186 3.7410 -1.2049 0.9726
-6.0060 3.2049 -1.2004 0.9727
-3.8238 0.8663 -0.6913 0.9842
-3.1779 0.4274 -0.5654 0.9871
-3.1644 0.1411 -0.5585 0.9872
-3.3507 -0.4506 -0.5961 0.9864
-7.4446 -1.6867 -1.3460 0.9695
-7.5881 -3.2176 -1.4533 0.9671
-7.6076 -4.9767 -1.6030 0.9637
-2.8194 -3.1879 -0.7504 0.9829
-6.3182 -12.8569 -2.5260 0.9435
6.4537 12.4256 -2.4689 0.9447
3.4413 11.0937 -2.0481 0.9539
0.9260 4.3094 -0.7772 0.9823
1.2180 9.8889 -1.7569 0.9603
0.3117 9.3225 -1.6447 0.9628
-1.8383 7.7138 -1.3982 0.9683
-2.4107 7.2003 -1.3389 0.9696
-4.0810 6.0893 -1.2925 0.9707
-4.8859 5.0520 -1.2393 0.9719
-5.2400 4.5311 -1.2215 0.9723
-5.5656 4.0059 -1.2091 0.9725
-6.1408 2.9332 -1.2000 0.9727
-3.4372 0.6192 -0.6158 0.9859
-3.1509 0.2816 -0.5578 0.9872
-3.1015 0.0000 -0.6002 0.9874
-3.1775 -0.2839 -0.6174 0.9871
-3.3117 -0.5966 -0.6512 0.9864
-7.1965 -3.4375 -1.5434 0.9680
-7.1869 -4.2568 -1.6165 0.9665
-3.4663 -2.9974 -0.8868 0.9815
-2.5994 -3.8785 -0.9036 0.9812
-5.9974 -10.9439 -2.4150 0.9504
3.7782 10.5018 -2.1598 0.9555
1.1450 4.3706 -0.8743 0.9818
1.5991 9.4801 -1.8605 0.9616
0.7020 8.9840 -1.7439 0.9640
-0.0947 8.4967 -1.6444 0.9660
-2.7054 7.0243 -1.4567 0.9698
-5.4670 3.5763 -1.2642 0.9737
-5.7427 3.0644 -1.2596 0.9738
-3.1048 0.4176 -0.6062 0.9873
-3.0751 0.1371 -0.5957 0.9875
-7.1883 -3.0481 -1.5110 0.9687
-7.1962 -3.8400 -1.5785 0.9673
-7.1679 -4.6890 -1.6576 0.9657
-3.8412 -3.0334 -0.9472 0.9803
-2.8784 -3.2547 -0.8408 0.9825
-2.6563 -3.6052 -0.8666 0.9819
-6.2071 -10.2183 -2.3137 0.9525
5.8661 11.2942 -2.4628 0.9495
4.4233 10.7635 -2.2520 0.9537
0.9252 4.3054 -0.8522 0.9822
1.1369 9.2309 -1.7998 0.9628
0.2922 8.7393 -1.6922 0.9650
-0.4603 8.2560 -1.6002 0.9669
-1.1340 7.7753 -1.5206 0.9685
-2.9642 6.7792 -1.4318 0.9703
-4.2937 5.3144 -1.3222 0.9725
-4.6651 4.8237 -1.2986 0.9730
-5.0064 4.3292 -1.2808 0.9734
-5.3199 3.8291 -1.2684 0.9736
-5.6079 3.3215 -1.2613 0.9738
-6.1128 2.2764 -1.2623 0.9738
-4.1641 1.1407 -0.8355 0.9826
-3.3306 0.6001 -0.6549 0.9863
-3.0639 0.2738 -0.5953 0.9875
-3.0994 -0.2770 -0.6560 0.9874
-6.7778 -1.8566 -1.4815 0.9717
-6.8177 -2.5389 -1.5337 0.9707
-6.8267 -3.2609 -1.5950 0.9695
-3.5924 -3.1065 -1.0012 0.9808
-3.1102 -3.2159 -0.9432 0.9819
-2.7231 -4.0632 -1.0312 0.9802
-5.0144 -11.4682 -2.6387 0.9501
-4.3562 -13.0111 -2.8926 0.9455
7.6899 10.9390 -2.8190 0.9468
6.0902 10.5486 -2.5679 0.9514
4.7055 10.1400 -2.3567 0.9553
3.4972 9.7205 -2.1779 0.9586
2.4352 9.2950 -2.0257 0.9615
-1.9179 6.7071 -1.4707 0.9719
-2.5740 6.6834 -1.5099 0.9711
-3.0602 6.2274 -1.4628 0.9720
-3.5050 5.7700 -1.4233 0.9728
-4.2867 4.8471 -1.3642 0.9739
-5.5001 2.9349 -1.3143 0.9748
-3.0346 0.4081 -0.6455 0.9876
-2.9940 0.1335 -0.6318 0.9878
-3.0505 -0.1360 -0.6438 0.9876
-6.8263 -2.8946 -1.5632 0.9701
-6.7738 -4.4313 -1.7065 0.9675
-6.6867 -5.2804 -1.7962 0.9658
-2.9434 -3.3281 -0.9367 0.9820
-2.7289 -3.7037 -0.9699 0.9814
-5.7405 -9.4501 -2.3310 0.9558
-5.2874 -10.7596 -2.5274 0.9522
-4.7054 -12.2174 -2.7601 0.9479
8.5853 11.1243 -2.9624 0.9442
4.0813 9.9313 -2.2636 0.9571
2.9495 9.5083 -2.0988 0.9601
0.9247 4.3033 -0.9279 0.9822
1.0655 8.6515 -1.8377 0.9650
-0.4345 7.7922 -1.6453 0.9686
-1.0731 7.3580 -1.5676 0.9701
-1.6500 6.9237 -1.5005 0.9713
-2.1731 6.4908 -1.4430 0.9724
-2.8226 6.4555 -1.4854 0.9716
-3.2875 5.9990 -1.4422 0.9724
-3.7132 5.5405 -1.4061 0.9731
-4.1037 5.0792 -1.3766 0.9737
-4.4621 4.6139 -1.3532 0.9741
-4.7914 4.1433 -1.3354 0.9744
-5.6237 2.6862 -1.3139 0.9748
-3.2435 0.5844 -0.6948 0.9866
-3.1643 -0.5700 -0.7338 0.9869
-6.4670 -1.7715 -1.5304 0.9729
-6.4523 -3.8217 -1.7116 0.9697
-6.3742 -4.5878 -1.7925 0.9683
-2.9349 -3.6326 -1.0659 0.9810
-5.5242 -8.2427 -2.2648 0.9601
-3.9821 -11.8937 -2.8628 0.9498
-3.1846 -13.3631 -3.1355 0.9452
7.0102 9.9721 -2.7822 0.9512
2.2765 8.6895 -2.0502 0.9638
-1.3000 6.7818 -1.5761 0.9721
-3.3506 5.5159 -1.4730 0.9739
-3.7441 5.0815 -1.4407 0.9744
-4.1055 4.6421 -1.4144 0.9749
-4.4373 4.1968 -1.3940 0.9753
-4.7418 3.7446 -1.3791 0.9755
-5.0208 3.2845 -1.3694 0.9757
-5.2756 2.8152 -1.3648 0.9758
-5.5072 2.3353 -1.3653 0.9758
-3.4289 0.7769 -0.8025 0.9857
-2.9994 -0.1337 -0.6853 0.9878
-6.4424 -1.4596 -1.5077 0.9733
-6.4762 -3.4558 -1.6754 0.9703
-6.4185 -4.1988 -1.7506 0.9690
-6.3185 -4.9896 -1.8376 0.9675
-3.4557 -3.2683 -1.0856 0.9807
-5.3365 -8.7850 -2.3461 0.9587
-4.8863 -9.9433 -2.5287 0.9556
-4.3183 -11.2123 -2.7424 0.9519
-3.6057 -12.6097 -2.9934 0.9476
7.7914 10.0956 -2.9107 0.9490
6.2798 9.8371 -2.6638 0.9532
4.9547 9.5396 -2.4535 0.9569
1.0022 8.1371 -1.8713 0.9669
0.2594 7.7588 -1.7719 0.9687
-1.5687 6.5827 -1.5445 0.9726
-2.0700 6.1829 -1.4882 0.9736
-3.1409 5.7313 -1.4917 0.9735
-3.5515 5.2993 -1.4560 0.9742
-4.2750 4.4202 -1.4035 0.9751
-4.8844 3.5156 -1.3736 0.9756
-5.1512 3.0511 -1.3665 0.9757
-5.6146 2.0909 -1.3675 0.9757
-3.8726 1.0608 -0.9164 0.9837
-2.9278 0.2616 -0.6709 0.9880
-2.9882 -0.2670 -0.7374 0.9877
-3.1004 -0.5585 -0.7743 0.9871
-6.1813 -1.6932 -1.5753 0.9739
-6.1843 -2.9540 -1.6846 0.9722
-6.1352 -3.6339 -1.7527 0.9711
-6.0469 -4.3523 -1.8313 0.9698
-5.1707 -7.7151 -2.2829 0.9625
-4.2783 -9.7847 -2.6249 0.9570
-3.6649 -10.9465 -2.8374 0.9536
-2.9089 -12.2063 -3.0843 0.9496
7.8606 9.2976 -2.9927 0.9511
5.1729 8.9598 -2.5430 0.9583
4.0469 8.7208 -2.3631 0.9612
2.1363 8.1543 -2.0720 0.9659
1.3225 7.8401 -1.9543 0.9678
0.5869 7.5114 -1.8519 0.9694
-0.0799 7.1713 -1.7628 0.9709
-1.2373 6.4547 -1.6155 0.9733
-2.3440 6.0861 -1.6031 0.9735
-2.7945 5.6867 -1.5575 0.9742
-3.2082 5.2814 -1.5189 0.9749
-5.0672 2.7040 -1.4118 0.9766
-5.2896 2.2430 -1.4122 0.9766
-2.8900 0.3887 -0.7167 0.9881
-2.8978 0.1292 -0.7130 0.9881
-3.0390 -0.4087 -0.7537 0.9874
-6.1937 -1.9972 -1.5996 0.9736
-6.1955 -2.6271 -1.6541 0.9727
-6.1644 -3.2894 -1.7174 0.9716
-3.2350 -3.6579 -1.2003 0.9801
-5.3373 -7.2438 -2.2117 0.9636
-4.5394 -9.2373 -2.5299 0.9585
-2.4682 -12.8763 -3.2226 0.9474
-1.4390 -14.3036 -3.5336 0.9425
7.1273 9.2351 -2.8674 0.9531
5.7864 9.0642 -2.6433 0.9567
4.5939 8.8448 -2.4498 0.9598
0.2455 7.3426 -1.8058 0.9702
-0.9679 6.6368 -1.6486 0.9728
-1.9757 5.9011 -1.5296 0.9747
-3.0058 5.4848 -1.5373 0.9746
-3.4023 5.0766 -1.5021 0.9751
-4.4088 3.8124 -1.4327 0.9763
-4.6903 3.3759 -1.4205 0.9765
-5.3924 2.0082 -1.4144 0.9766
-3.0843 0.5557 -0.7703 0.9872
-2.8807 0.2574 -0.7109 0.9882
-2.9343 -0.2622 -0.7763 0.9879
-5.9178 -1.6211 -1.6168 0.9749
-5.7493 -4.1381 -1.8665 0.9711
-5.4190 -5.6032 -2.0540 0.9683
-4.4654 -8.1483 -2.4484 0.9623
-3.3925 -10.1329 -2.8157 0.9568
-2.6754 -11.2264 -3.0410 0.9534
-1.8074 -12.3924 -3.3000 0.9495
-0.7602 -13.6330 -3.5979 0.9451
11.9392 8.1958 -3.8159 0.9419
8.6237 8.5282 -3.1958 0.9511
7.2136 8.5323 -2.9441 0.9548
5.9465 8.4591 -2.7246 0.9581
-1.6625 5.8141 -1.5934 0.9753
-2.2426 5.8228 -1.6442 0.9745
-3.0764 5.0645 -1.5614 0.9758
-3.4439 4.6741 -1.5298 0.9763
-4.0921 3.8703 -1.4842 0.9770
-4.3766 3.4562 -1.4695 0.9772
-5.0869 2.1571 -1.4559 0.9774
-5.2785 1.7021 -1.4614 0.9773
-3.2212 0.7298 -0.8703 0.9864
-2.8515 0.1272 -0.7521 0.9883
-3.0953 -0.7013 -0.8363 0.9870
-5.9257 -1.9108 -1.6406 0.9746
-5.9188 -2.5097 -1.6940 0.9738
-5.8026 -3.7959 -1.8271 0.9717
-5.6850 -4.4894 -1.9088 0.9705
-5.5207 -5.2214 -2.0023 0.9691
-5.0233 -6.8176 -2.2314 0.9656
-4.2363 -8.6206 -2.5310 0.9610
-3.0512 -10.6708 -2.9244 0.9551
-0.1591 -14.2809 -3.7633 0.9426
11.0433 8.3282 -3.6446 0.9444
5.3616 8.3988 -2.6256 0.9596
0.9274 4.3156 -1.1631 0.9819
0.8946 7.2636 -1.9284 0.9702
-0.3708 6.6508 -1.7552 0.9728
-0.9221 6.3228 -1.6837 0.9739
-1.4264 5.9856 -1.6214 0.9749
-1.9163 5.7238 -1.5905 0.9753
-3.2640 4.8702 -1.5448 0.9760
-3.6164 4.4761 -1.5163 0.9765
-3.9403 4.0742 -1.4935 0.9768
-4.2375 3.6643 -1.4762 0.9771
-3.0018 0.5408 -0.8037 0.9875
-2.8819 -0.2575 -0.8141 0.9880
-2.9786 -0.5366 -0.8515 0.9875
-5.6738 -1.5542 -1.6552 0.9759
-5.6746 -2.1132 -1.7037 0.9752
-5.6444 -2.6961 -1.7600 0.9743
-5.5799 -3.3050 -1.8247 0.9734
-5.3320 -4.6107 -1.9833 0.9711
-4.1924 -7.6501 -2.4544 0.9644
-3.7231 -8.5150 -2.6148 0.9621
-3.1560 -9.4263 -2.7969 0.9595
-2.4750 -10.3854 -3.0038 0.9566
-1.6614 -11.3914 -3.2390 0.9533
0.4522 -13.5272 -3.8081 0.9453
12.4033 6.9780 -4.0041 0.9426
10.7792 7.3995 -3.6786 0.9471
5.5222 7.8555 -2.7016 0.9609
4.4861 7.7702 -2.5244 0.9634
1.1833 7.0152 -2.0017 0.9709
-1.1271 5.8799 -1.6845 0.9754
-2.1488 5.5793 -1.6822 0.9755
-2.9540 4.8629 -1.6009 0.9766
-3.6366 4.1119 -1.5445 0.9774
-3.9370 3.7236 -1.5247 0.9777
-4.2123 3.3264 -1.5101 0.9779
-4.6918 2.5037 -1.4963 0.9781
-4.8977 2.0768 -1.4968 0.9781
-5.0814 1.6385 -1.5022 0.9781
-3.1370 0.7108 -0.9050 0.9867
-2.7751 0.3732 -0.7878 0.9884
-2.8062 0.1251 -0.7903 0.9884
-2.8531 -0.1272 -0.8035 0.9882
-2.9298 -0.3940 -0.8317 0.9878
-5.6636 -2.4016 -1.7308 0.9748
-5.5337 -3.6199 -1.8605 0.9729
-5.0212 -5.6775 -2.1325 0.9690
-3.4527 -8.9648 -2.7029 0.9609
-2.0860 -10.8827 -3.1177 0.9550
11.5771 7.2103 -3.8374 0.9449
8.5805 7.7606 -3.2551 0.9531
3.1032 7.5512 -2.2970 0.9666
0.8485 6.8893 -1.9530 0.9716
-0.8801 6.0346 -1.7158 0.9750
-1.3637 5.7226 -1.6552 0.9759
-2.7649 5.0453 -1.6187 0.9764
-3.7900 3.9188 -1.5339 0.9776
-4.0777 3.5262 -1.5168 0.9778
-4.5806 2.7131 -1.4979 0.9781
-4.7975 2.2916 -1.4959 0.9781
-2.9229 0.5266 -0.8356 0.9877
-2.7884 0.2492 -0.7877 0.9884
-2.9224 -0.5265 -0.8890 0.9877
-3.0126 -0.8252 -0.9351 0.9870
-5.4415 -2.0264 -1.7384 0.9760
-5.4052 -2.5818 -1.7933 0.9753
-5.3351 -3.1600 -1.8564 0.9744
-5.2277 -3.7627 -1.9283 0.9735
-5.0787 -4.3917 -2.0101 0.9724
-2.9486 -8.8069 -2.7805 0.9620
-2.3011 -9.6557 -2.9717 0.9594
-1.5362 -10.5326 -3.1866 0.9565
-0.6375 -11.4321 -3.4279 0.9533
1.6323 -13.2533 -3.9978 0.9458
9.8093 6.7337 -3.5621 0.9515
7.2894 7.2207 -3.0721 0.9581
6.1823 7.3124 -2.8667 0.9608
4.2033 7.2804 -2.5168 0.9655
1.7985 6.8647 -2.1245 0.9708
-2.4665 5.0192 -1.6743 0.9769
-2.8399 4.6751 -1.6376 0.9774
-3.1840 4.3215 -1.6070 0.9778
-3.5009 3.9585 -1.5821 0.9782
-4.0585 3.2050 -1.5482 0.9786
-4.5221 2.4131 -1.5345 0.9788
-4.7204 2.0016 -1.5350 0.9788
-4.8968 1.5790 -1.5403 0.9787
-3.0564 0.6925 -0.9382 0.9870
-2.7204 0.3658 -0.8218 0.9886
-2.7619 0.1232 -0.8277 0.9885
-2.8771 -0.3869 -0.8691 0.9880
-3.1092 -1.0026 -0.9780 0.9865
-5.4274 -2.3014 -1.7649 0.9757
-5.3746 -2.8679 -1.8238 0.9749
-5.2863 -3.4581 -1.8912 0.9740
-5.1587 -4.0738 -1.9679 0.9729
-4.7656 -5.3886 -2.1536 0.9704
-4.1463 -6.8258 -2.3910 0.9672
-3.7315 -7.5934 -2.5330 0.9653
-1.1046 -10.9801 -3.3038 0.9550
1.0002 -12.8000 -3.8438 0.9478
11.9334 6.0302 -4.0029 0.9457
10.4960 6.5370 -3.7019 0.9497
9.1522 6.9020 -3.4318 0.9533
5.6560 7.3288 -2.7715 0.9621
3.7587 7.2367 -2.4413 0.9665
2.9243 7.1157 -2.3032 0.9684
2.1579 6.9565 -2.1805 0.9700
0.9292 4.3240 -1.3241 0.9817
-0.8414 5.7692 -1.7455 0.9760
-1.3058 5.4794 -1.6864 0.9768
-2.2682 5.1875 -1.6950 0.9766
-2.6570 4.8484 -1.6552 0.9772
-3.0155 4.4995 -1.6216 0.9776
-3.3458 4.1411 -1.5939 0.9780
-4.1829 3.0107 -1.5429 0.9787
-4.4147 2.6148 -1.5361 0.9788
-4.8113 1.7918 -1.5371 0.9788
-3.5598 0.9751 -1.1050 0.9847
-2.7412 0.2450 -0.8239 0.9886
-2.8694 -0.5169 -0.9259 0.9878
-2.9540 -0.8092 -0.9727 0.9872
-5.1833 -2.4758 -1.8243 0.9762
-4.6495 -4.8076 -2.1241 0.9723
-3.7297 -6.8058 -2.4647 0.9680
-3.2885 -7.5210 -2.6069 0.9661
-1.4276 -9.7881 -3.1414 0.9593
-0.5892 -10.5670 -3.3611 0.9566
0.3792 -11.3420 -3.6041 0.9535
2.7535 -12.8136 -4.1623 0.9465
11.4696 5.1680 -3.9953 0.9486
10.2080 5.7430 -3.7197 0.9520
8.9965 6.1758 -3.4656 0.9552
5.7641 6.8177 -2.8353 0.9632
3.9517 6.8444 -2.5100 0.9674
3.1442 6.7752 -2.3721 0.9691
2.3971 6.6630 -2.2488 0.9707
1.7069 6.5147 -2.1388 0.9721
-0.0658 5.9008 -1.8741 0.9755
-0.5687 5.6535 -1.8045 0.9764
-1.9808 5.1429 -1.7503 0.9771
-2.7333 4.4996 -1.6720 0.9781
-3.6559 3.4577 -1.5981 0.9791
-3.9142 3.0910 -1.5839 0.9793
-4.1495 2.7145 -1.5748 0.9794
-4.7235 1.5231 -1.5762 0.9794
-2.9791 0.6750 -0.9701 0.9873
-2.6672 0.3587 -0.8547 0.9888
-2.7187 0.1212 -0.8643 0.9886
-2.7612 -0.1231 -0.8778 0.9885
-2.9205 -0.6617 -0.9510 0.9875
-5.2080 -2.2083 -1.7965 0.9765
-5.0580 -3.3088 -1.9195 0.9750
-4.7538 -4.4961 -2.0780 0.9729
-4.5326 -5.1251 -2.1729 0.9717
-3.5187 -7.1604 -2.5338 0.9671
-2.4692 -8.6354 -2.8524 0.9630
-1.8020 -9.4007 -3.0399 0.9606
0.9161 -11.7234 -3.7345 0.9518
2.1021 -12.4622 -4.0137 0.9483
12.1896 4.8513 -4.1665 0.9464
10.8335 5.4745 -3.8549 0.9503
7.2980 6.6007 -3.1251 0.9595
4.3795 6.8603 -2.5848 0.9664
3.5400 6.8157 -2.4391 0.9683
2.7633 6.7240 -2.3087 0.9700
-0.8056 5.5238 -1.7728 0.9768
-1.2521 5.2541 -1.7153 0.9776
-3.2234 3.9896 -1.6289 0.9787
-3.5178 3.6374 -1.6071 0.9790
-4.0347 2.9040 -1.5787 0.9794
-4.4609 2.1308 -1.5701 0.9795
-4.6414 1.7285 -1.5729 0.9794
-3.4730 0.9514 -1.1436 0.9850
-2.7749 0.4999 -0.8954 0.9882
-2.8177 -0.5076 -0.9619 0.9880
-5.0225 -1.8704 -1.8007 0.9776
-4.8987 -2.9015 -1.9129 0.9763
-4.7849 -3.4439 -1.9808 0.9754
-4.1904 -5.1864 -2.2402 0.9723
-3.8913 -5.8062 -2.3484 0.9709
-3.5318 -6.4446 -2.4691 0.9695
-3.1045 -7.1001 -2.6036 0.9678
-2.0139 -8.4506 -2.9188 0.9640
-1.3324 -9.1355 -3.1019 0.9618
-0.5474 -9.8167 -3.3034 0.9594
0.3505 -10.4829 -3.5240 0.9567
1.3694 -11.1189 -3.7640 0.9538
5.1784 -12.6010 -4.5773 0.9441
13.4690 3.3688 -4.6648 0.9431
12.3125 4.2754 -4.3791 0.9465
6.3059 6.2361 -2.9797 0.9633
3.7265 6.4542 -2.5040 0.9690
1.6218 6.1908 -2.1502 0.9734
0.7464 4.4247 -1.5076 0.9812
-0.0629 5.6442 -1.8965 0.9765
-0.5449 5.4164 -1.8290 0.9773
-0.9913 5.1719 -1.7693 0.9780
-1.4965 5.2336 -1.8289 0.9773
-2.2834 4.6466 -1.7395 0.9784
-2.6333 4.3351 -1.7042 0.9788
-2.9565 4.0126 -1.6746 0.9792
-3.2543 3.6797 -1.6504 0.9795
-3.5279 3.3367 -1.6315 0.9797
-4.2125 2.2479 -1.6042 0.9801
-2.6180 0.3521 -0.8875 0.9889
-2.6762 0.1193 -0.9001 0.9888
-2.7168 -0.1212 -0.9137 0.9886
-5.0340 -1.6232 -1.7771 0.9779
-5.0036 -2.1217 -1.8260 0.9773
-4.8465 -3.1704 -1.9458 0.9759
-4.7136 -3.7222 -2.0179 0.9750
-3.7195 -6.1231 -2.4071 0.9702
-3.3271 -6.7703 -2.5346 0.9687
-2.8630 -7.4335 -2.6764 0.9669
-2.3188 -8.1094 -2.8338 0.9650
-1.6855 -8.7929 -3.0081 0.9629
-0.1131 -10.1525 -3.4113 0.9581
1.9263 -11.4198 -3.8911 0.9523
4.4682 -12.4195 -4.4346 0.9458
5.9157 -12.7479 -4.7218 0.9424
11.7254 4.6666 -4.2401 0.9481
6.7856 6.1372 -3.0740 0.9621
5.8399 6.3140 -2.8897 0.9644
4.9498 6.4136 -2.7220 0.9664
0.9344 4.3485 -1.4944 0.9814
0.7327 5.9486 -2.0137 0.9750
0.1923 5.7511 -1.9333 0.9760
-0.3085 5.5325 -1.8617 0.9769
-1.2035 5.0501 -1.7443 0.9783
-3.3941 3.5095 -1.6403 0.9796
-3.8951 2.8035 -1.6124 0.9800
-4.1121 2.4356 -1.6058 0.9800
-4.3075 2.0575 -1.6039 0.9801
-4.4814 1.6689 -1.6067 0.9800
-2.6265 0.7195 -0.9150 0.9886
-2.7169 0.4895 -0.9275 0.9884
-2.7668 -0.4985 -0.9969 0.9881
-2.8417 -0.7784 -1.0448 0.9876
-4.5874 -3.3018 -2.0042 0.9763
-4.2379 -4.3819 -2.1616 0.9745
-3.9958 -4.9456 -2.2545 0.9734
-3.7023 -5.5242 -2.3580 0.9722
-3.3519 -6.1163 -2.4731 0.9708
-2.9382 -6.7199 -2.6006 0.9694
-2.4546 -7.3314 -2.7415 0.9677
-0.5107 -9.1591 -3.2527 0.9618
4.7107 -11.4629 -4.3944 0.9488
6.0396 -11.6283 -4.6462 0.9459
7.4279 -11.6356 -4.8948 0.9431
13.9806 0.9359 -4.9684 0.9423
13.1562 2.0687 -4.7223 0.9450
11.2444 3.9045 -4.2207 0.9507
10.2272 4.6082 -3.9776 0.9535
8.6452 4.8637 -3.5173 0.9588
6.7816 5.6052 -3.1197 0.9633
5.0601 5.9851 -2.7791 0.9673
4.2654 6.0676 -2.6299 0.9690
3.5170 6.0916 -2.4941 0.9706
2.8146 6.0654 -2.3710 0.9720
1.5462 5.9020 -2.1634 0.9744
0.4373 5.5965 -1.9905 0.9765
-0.0602 5.4064 -1.9171 0.9773
-0.5227 5.1960 -1.8517 0.9781
-0.9524 4.9684 -1.7938 0.9788
-1.8342 4.7625 -1.8096 0.9786
-2.2004 4.4777 -1.7691 0.9790
-2.5395 4.1806 -1.7344 0.9795
-2.8529 3.8720 -1.7054 0.9798
-4.2492 1.8018 -1.6366 0.9806
-2.5615 0.5804 -0.9313 0.9889
-2.8093 -0.6365 -1.0214 0.9878
-2.8709 -0.9257 -1.0696 0.9873
-4.8126 -2.0407 -1.8535 0.9781
-4.7478 -2.5335 -1.9082 0.9774
-4.6498 -3.0417 -1.9702 0.9767
-4.3412 -4.1059 -2.1188 0.9750
-3.8558 -5.2331 -2.3049 0.9728
-3.5346 -5.8187 -2.4141 0.9715
-3.1533 -6.4169 -2.5352 0.9701
-2.7056 -7.0249 -2.6693 0.9686
-2.1843 -7.6388 -2.8172 0.9668
-0.8914 -8.8609 -3.1578 0.9629
0.7825 -10.0132 -3.5614 0.9583
2.8765 -10.9796 -4.0246 0.9530
5.3661 -11.5636 -4.5203 0.9473
6.7281 -11.6535 -4.7714 0.9445
13.5835 1.5195 -4.8466 0.9436
12.7038 2.5822 -4.5967 0.9465
11.7436 3.5000 -4.3451 0.9493
10.7379 4.2736 -4.0980 0.9521
9.1359 4.6166 -3.6296 0.9575
8.1698 5.0882 -3.4128 0.9600
6.3358 5.7304 -3.0292 0.9644
5.4745 5.9190 -2.8589 0.9664
4.6570 6.0343 -2.7028 0.9682
2.4804 6.0357 -2.3139 0.9727
1.8449 5.9475 -2.2080 0.9739
0.9375 4.3627 -1.5823 0.9812
0.6999 5.6830 -2.0303 0.9760
0.1840 5.5042 -1.9528 0.9769
-0.2957 5.3036 -1.8835 0.9777
-0.7415 5.0841 -1.8218 0.9784
-1.6405 4.9000 -1.8322 0.9783
-2.0208 4.6217 -1.7886 0.9788
-3.0004 3.7136 -1.6929 0.9799
-3.2774 3.3889 -1.6717 0.9802
-3.9737 2.3537 -1.6376 0.9806
-4.1626 1.9883 -1.6358 0.9806
-2.7171 -0.4895 -1.0309 0.9883
-4.4035 -3.1694 -2.0260 0.9771
-4.2496 -3.6747 -2.0978 0.9763
-4.0552 -4.1931 -2.1782 0.9754
-3.8165 -4.7237 -2.2676 0.9744
-3.5289 -5.2655 -2.3669 0.9733
-2.3219 -6.9352 -2.7310 0.9693
-0.4783 -8.5777 -3.2080 0.9640
0.3037 -9.0831 -3.3936 0.9619
2.1391 -9.9546 -3.8020 0.9575
3.1892 -10.2810 -4.0195 0.9551
5.5074 -10.6037 -4.4618 0.9503
6.7416 -10.5606 -4.6785 0.9479
9.2166 -9.9649 -5.0686 0.9437
13.6255 -1.5242 -5.1196 0.9431
12.6713 0.8483 -4.7422 0.9472
11.9796 1.8837 -4.5283 0.9495
10.3371 3.5894 -4.0861 0.9544
9.4459 4.2561 -3.8687 0.9567
7.1737 4.9245 -3.2491 0.9635
5.5390 5.4776 -2.9089 0.9673
4.7667 5.6382 -2.7569 0.9690
3.3329 5.7728 -2.4891 0.9719
2.0544 5.7105 -2.2661 0.9744
0.7433 4.4067 -1.6688 0.9811
0.4188 5.3591 -2.0073 0.9773
-1.3859 4.8468 -1.8824 0.9787
-2.4511 4.0350 -1.7629 0.9800
-3.2934 3.1149 -1.6927 0.9808
-3.5292 2.7870 -1.6792 0.9810
-3.9369 2.1008 -1.6663 0.9811
-4.2610 1.3740 -1.6718 0.9811
-2.5921 0.1156 -0.9689 0.9890
-2.6781 -0.3602 -1.0090 0.9885
-2.7557 -0.6244 -1.0551 0.9880
-2.8043 -0.9042 -1.1002 0.9875
-4.6336 -1.9648 -1.8794 0.9787
-4.5662 -2.4366 -1.9327 0.9781
-4.4664 -2.9218 -1.9930 0.9775
-4.1577 -3.9323 -2.1369 0.9759
-3.9416 -4.4569 -2.2217 0.9749
-2.5630 -6.6547 -2.6629 0.9700
-2.0631 -7.2152 -2.8022 0.9685
-1.4896 -7.7708 -2.9545 0.9668
-0.0984 -8.8346 -3.2992 0.9630
1.6462 -9.7593 -3.6957 0.9586
4.9050 -10.5700 -4.3512 0.9515
6.1208 -10.6015 -4.5711 0.9491
7.3662 -10.4784 -4.7829 0.9468
13.4513 -0.9004 -5.0341 0.9441
12.9700 0.2891 -4.8443 0.9461
12.3397 1.3804 -4.6365 0.9484
11.5954 2.3568 -4.4184 0.9507
10.7703 3.2099 -4.1966 0.9531
9.8946 3.9380 -3.9766 0.9555
8.9937 4.5447 -3.7628 0.9579
4.3940 5.6935 -2.6855 0.9698
3.6769 5.7598 -2.5517 0.9712
2.9987 5.7734 -2.4293 0.9726
0.9406 4.3772 -1.6718 0.9811
0.6697 5.4373 -2.0457 0.9769
0.1763 5.2750 -1.9708 0.9777
-0.2838 5.0903 -1.9037 0.9785
-0.7126 4.8862 -1.8439 0.9791
-1.1843 4.9696 -1.9077 0.9784
-2.2898 4.1784 -1.7792 0.9799
-2.6061 3.8887 -1.7480 0.9802
-2.8983 3.5873 -1.7221 0.9805
-3.4140 2.9522 -1.6854 0.9809
-3.6391 2.6193 -1.6742 0.9810
-4.0257 1.9229 -1.6659 0.9811
-4.1878 1.5596 -1.6687 0.9811
-2.6072 -0.2330 -1.0273 0.9888
-2.7583 -1.0272 -1.1552 0.9874
-4.4345 -2.1182 -1.9288 0.9791
-4.3496 -2.5762 -1.9841 0.9785
-3.3691 -5.0271 -2.3751 0.9743
-3.0369 -5.5416 -2.4801 0.9732
-2.2015 -6.5754 -2.7215 0.9706
-1.1060 -7.5832 -3.0077 0.9676
-0.4494 -8.0596 -3.1681 0.9659
0.2843 -8.5049 -3.3398 0.9641
1.0969 -8.9065 -3.5219 0.9622
2.9520 -9.5162 -3.9104 0.9581
6.1649 -9.6572 -4.4966 0.9520
8.3685 -9.0480 -4.8371 0.9484
11.1282 -6.9307 -5.1453 0.9452
12.4586 -3.7131 -5.1022 0.9457
12.5053 -2.5418 -5.0083 0.9466
12.0415 -0.2683 -4.7271 0.9496
10.9850 1.7273 -4.3643 0.9533
10.3035 2.5771 -4.1684 0.9554
8.7677 3.9505 -3.7742 0.9595
7.9581 4.4771 -3.5837 0.9615
6.7095 4.6058 -3.1940 0.9656
5.9538 4.9210 -3.0316 0.9674
5.2159 5.1582 -2.8791 0.9690
3.8179 5.4311 -2.6055 0.9719
3.1652 5.4822 -2.4845 0.9732
2.5456 5.4857 -2.3735 0.9743
1.9599 5.4476 -2.2722 0.9754
1.4097 5.3807 -2.1830 0.9764
0.7425 4.4022 -1.7521 0.9810
-0.4827 4.7984 -1.8927 0.9795
-1.7050 4.4272 -1.8620 0.9798
-2.0487 4.1690 -1.8231 0.9802
-2.6628 3.6140 -1.7618 0.9809
-3.9768 1.6863 -1.6953 0.9816
-4.1232 1.3296 -1.7003 0.9816
-2.4910 0.3350 -0.9865 0.9893
-2.5490 0.1137 -1.0014 0.9891
-2.5889 -0.1154 -1.0171 0.9889
-2.6312 -0.3539 -1.0420 0.9887
-2.7055 -0.6130 -1.0887 0.9882
-4.4654 -1.8935 -1.9036 0.9794
-4.1596 -3.2848 -2.0802 0.9775
-3.9869 -3.7708 -2.1538 0.9767
-3.7737 -4.2669 -2.2356 0.9758
-3.5159 -4.7718 -2.3263 0.9749
-2.4332 -6.3176 -2.6570 0.9713
-1.4063 -7.3365 -2.9318 0.9684
-0.0923 -8.2868 -3.2526 0.9650
2.4613 -9.3947 -3.8116 0.9591
3.4582 -9.6121 -4.0092 0.9571
6.7232 -9.5639 -4.5882 0.9510
7.8292 -9.2604 -4.7593 0.9492
10.7475 -7.3777 -5.1163 0.9455
11.4678 -6.4517 -5.1642 0.9450
12.3600 -4.2919 -5.1351 0.9453
12.5068 -3.1282 -5.0598 0.9461
12.2211 -0.8181 -4.8072 0.9487
11.2928 1.2633 -4.4598 0.9523
10.6541 2.1656 -4.2669 0.9544
9.1658 3.6479 -3.8718 0.9585
7.1367 4.4448 -3.2998 0.9645
5.5822 5.0488 -2.9540 0.9682
3.4874 5.4630 -2.5437 0.9725
2.2485 5.4715 -2.3217 0.9749
1.6820 5.4224 -2.2282 0.9759
0.9459 4.4019 -1.7671 0.9808
-0.2727 4.8912 -1.9226 0.9792
-1.1408 4.7870 -1.9314 0.9791
-1.5237 4.5510 -1.8836 0.9796
-1.8800 4.2998 -1.8418 0.9800
-2.5181 3.7573 -1.7752 0.9808
-2.8018 3.4679 -1.7498 0.9810
-3.0631 3.1673 -1.7293 0.9812
-3.3028 2.8560 -1.7137 0.9814
-3.5212 2.5344 -1.7027 0.9815
-3.8959 1.8610 -1.6945 0.9816
-3.4629 0.9486 -1.4092 0.9847
-2.5634 0.4618 -1.0222 0.9889
-2.5289 0.0000 -1.0413 0.9891
-2.5655 -0.2292 -1.0607 0.9889
-2.6211 -0.4722 -1.0967 0.9885
-2.6410 -0.7234 -1.1276 0.9882
-4.2752 -2.0421 -1.9510 0.9797
-4.1891 -2.4811 -2.0049 0.9792
-3.9180 -3.3880 -2.1329 0.9778
-3.7277 -3.8544 -2.2080 0.9771
-3.4966 -4.3278 -2.2911 0.9762
-3.2214 -4.8066 -2.3827 0.9753
-2.5228 -5.7698 -2.5931 0.9731
-2.0915 -6.2471 -2.7128 0.9719
1.0271 -8.3392 -3.4599 0.9643
1.8547 -8.6310 -3.6352 0.9625
4.6689 -8.9893 -4.1711 0.9571
5.6732 -8.8870 -4.3416 0.9554
6.6775 -8.6522 -4.5005 0.9538
7.6549 -8.2764 -4.6423 0.9524
9.4086 -7.0954 -4.8525 0.9503
10.1242 -6.3054 -4.9114 0.9497
10.6966 -5.4053 -4.9351 0.9495
11.1066 -4.4203 -4.9224 0.9496
11.3432 -3.3806 -4.8739 0.9501
11.2973 -1.2638 -4.6811 0.9520
11.0361 -0.2459 -4.5456 0.9534
10.6403 0.7123 -4.3913 0.9549
8.1731 3.6827 -3.6914 0.9620
4.2630 5.0423 -2.7189 0.9718
3.6242 5.1554 -2.5950 0.9731
0.3855 4.9328 -2.0374 0.9788
-0.4646 4.6186 -1.9114 0.9801
-0.9049 4.7207 -1.9793 0.9794
-1.2883 4.5054 -1.9296 0.9799
-1.9792 4.0275 -1.8479 0.9808
-3.0833 2.9162 -1.7476 0.9818
-3.3058 2.6106 -1.7345 0.9819
-3.8510 1.6330 -1.7224 0.9821
-2.5479 -0.1136 -1.0502 0.9890
-4.3071 -1.8263 -1.9264 0.9800
-4.2360 -2.2604 -1.9771 0.9794
-4.1341 -2.7044 -2.0342 0.9789
-3.3647 -4.5667 -2.3358 0.9758
-3.0659 -5.0472 -2.4318 0.9748
-2.7172 -5.5293 -2.5369 0.9737
-0.0869 -7.7971 -3.2109 0.9668
1.4326 -8.4932 -3.5468 0.9634
2.2925 -8.7505 -3.7249 0.9616
3.2101 -8.9226 -3.9047 0.9598
5.1696 -8.9540 -4.2575 0.9563
6.1770 -8.7868 -4.4228 0.9546
7.1713 -8.4823 -4.5739 0.9531
8.1243 -8.0343 -4.7050 0.9518
9.0050 -7.4428 -4.8107 0.9507
10.9228 -4.9216 -4.9333 0.9495
11.1849 -0.7487 -4.6160 0.9527
10.8536 0.2419 -4.4704 0.9541
10.3990 1.1633 -4.3088 0.9557
9.2139 2.7461 -3.9590 0.9593
8.5293 3.3946 -3.7802 0.9611
7.8107 3.9469 -3.6036 0.9629
7.0748 4.4062 -3.4321 0.9646
5.9500 4.4871 -3.0687 0.9683
5.2631 4.7602 -2.9222 0.9698
4.5914 4.9642 -2.7844 0.9712
3.9405 5.1058 -2.6558 0.9725
3.3144 5.1920 -2.5364 0.9737
1.6081 5.1842 -2.2351 0.9768
-1.8156 4.1524 -1.8662 0.9806
-2.4348 3.6330 -1.8009 0.9813
-2.7104 3.3548 -1.7760 0.9815
-3.1971 2.7647 -1.7405 0.9819
-3.4093 2.4539 -1.7297 0.9820
-3.6011 2.1330 -1.7235 0.9821
-3.7727 1.8021 -1.7217 0.9821
-2.4793 0.2216 -1.0250 0.9893
-2.5507 -0.6987 -1.1408 0.9885
-4.1251 -1.9704 -1.9720 0.9803
-4.0380 -2.3917 -2.0244 0.9798
-3.3533 -4.1504 -2.3016 0.9770
-2.7697 -5.0541 -2.4860 0.9752
-1.5196 -6.3767 -2.8277 0.9718
-0.4001 -7.1755 -3.1000 0.9692
0.9648 -7.8334 -3.4046 0.9662
2.5629 -8.2618 -3.7313 0.9630
3.4317 -8.3506 -3.8944 0.9614
4.3324 -8.3413 -4.0545 0.9599
5.2488 -8.2222 -4.2078 0.9584
6.1611 -7.9832 -4.3499 0.9570
8.6288 -6.5073 -4.6619 0.9540
9.2758 -5.7770 -4.7138 0.9535
10.3993 -3.0993 -4.6808 0.9538
10.3915 -1.1625 -4.5104 0.9555
9.8359 0.6584 -4.2523 0.9580
9.3938 1.4771 -4.1019 0.9594
8.2804 2.8753 -3.7810 0.9625
6.9863 3.9304 -3.4578 0.9657
5.2909 4.3731 -2.9610 0.9705
4.0449 4.7844 -2.7025 0.9731
3.4468 4.9031 -2.5853 0.9742
1.2925 4.9334 -2.1999 0.9780
-1.2436 4.3491 -1.9512 0.9805
-2.9862 2.8244 -1.7730 0.9823
-3.2023 2.5289 -1.7601 0.9824
-3.3985 2.2232 -1.7518 0.9825
-3.5748 1.9076 -1.7478 0.9825
-3.7313 1.5822 -1.7483 0.9825
-3.8679 1.2473 -1.7531 0.9825
-2.5715 0.5827 -1.1373 0.9886
-2.4106 0.3242 -1.0492 0.9895
-2.4655 0.1100 -1.0645 0.9893
-2.5077 -0.1118 -1.0828 0.9891
-2.5277 -0.3399 -1.1001 0.9890
-2.5465 -0.5770 -1.1263 0.9887
-2.6695 -1.1320 -1.2508 0.9874
-4.0853 -2.1800 -1.9974 0.9800
-3.8483 -3.0389 -2.1152 0.9789
-3.6788 -3.4794 -2.1842 0.9782
-3.4718 -3.9256 -2.2606 0.9774
-2.5943 -5.2793 -2.5374 0.9747
-2.2053 -5.7259 -2.6468 0.9736
-1.7623 -6.1632 -2.7651 0.9725
-1.2624 -6.5855 -2.8925 0.9712
2.1436 -8.1818 -3.6484 0.9638
4.7898 -8.2962 -4.1322 0.9591
5.7069 -8.1182 -4.2805 0.9577
6.6084 -7.8165 -4.4152 0.9564
7.4698 -7.3870 -4.5316 0.9553
8.2646 -6.8308 -4.6251 0.9544
10.0037 -4.5075 -4.7330 0.9533
10.4489 -1.6430 -4.5626 0.9550
10.0195 0.2233 -4.3230 0.9573
9.6265 1.0769 -4.1784 0.9587
8.5812 2.5575 -3.8625 0.9617
7.3194 3.6987 -3.5375 0.9649
4.9749 4.4995 -2.8935 0.9712
4.3511 4.7044 -2.7642 0.9725
3.7433 4.8504 -2.6429 0.9737
3.1557 4.9433 -2.5298 0.9748
2.5912 4.9889 -2.4250 0.9758
1.5396 4.9632 -2.2415 0.9776
1.0521 4.8958 -2.1600 0.9784
0.5910 4.7988 -2.0856 0.9792
0.1563 4.6757 -2.0180 0.9798
-0.6721 4.6086 -2.0090 0.9799
-1.4199 4.2409 -1.9292 0.9807
-2.0663 3.7706 -1.8547 0.9814
-2.6236 3.2474 -1.8008 0.9820
-2.8705 2.9681 -1.7811 0.9822
-3.3029 2.3773 -1.7554 0.9824
-3.6555 1.7461 -1.7475 0.9825
-3.8021 1.4159 -1.7501 0.9825
-2.4387 0.2179 -1.0561 0.9894
-2.4481 -0.2187 -1.1090 0.9893
-2.4593 -0.4430 -1.1275 0.9891
-2.4702 -0.6766 -1.1556 0.9888
-3.8955 -2.3073 -2.0429 0.9803
-3.7775 -2.7189 -2.1001 0.9798
-3.6272 -3.1365 -2.1637 0.9792
-3.4420 -3.5590 -2.2340 0.9785
-3.2194 -3.9846 -2.3114 0.9778
-2.2987 -5.2573 -2.5890 0.9751
-1.8980 -5.6689 -2.6975 0.9741
-1.4458 -6.0666 -2.8140 0.9730
-0.3788 -6.7948 -3.0707 0.9706
0.9089 -7.3794 -3.3549 0.9679
3.2065 -7.8026 -3.8064 0.9637
4.0372 -7.7730 -3.9522 0.9623
7.2760 -6.5807 -4.4267 0.9579
7.9597 -6.0026 -4.4983 0.9572
8.5491 -5.3244 -4.5444 0.9568
9.0256 -4.5608 -4.5629 0.9566
9.3753 -3.7313 -4.5530 0.9567
9.5897 -2.8580 -4.5151 0.9570
9.6666 -1.9648 -4.4509 0.9576
9.6098 -1.0750 -4.3631 0.9585
9.4283 -0.2101 -4.2553 0.9595
8.7468 1.3754 -3.9952 0.9619
7.1790 3.2347 -3.5529 0.9660
6.5762 3.6997 -3.4047 0.9674
5.9565 4.0889 -3.2600 0.9688
4.4212 4.3722 -2.8057 0.9731
3.8454 4.5483 -2.6874 0.9742
2.7401 4.7460 -2.4728 0.9762
1.2399 4.7325 -2.2075 0.9788
-0.8423 4.3944 -2.0189 0.9806
-1.5373 3.9914 -1.9300 0.9814
-1.8508 3.7664 -1.8936 0.9818
-2.4135 3.2756 -1.8359 0.9823
-2.6637 3.0119 -1.8142 0.9825
-2.8936 2.7368 -1.7971 0.9827
-3.4655 1.8493 -1.7724 0.9829
-3.6173 1.5339 -1.7728 0.9829
-3.7494 1.2090 -1.7776 0.9829
-2.3567 0.3170 -1.0730 0.9896
-2.4395 -0.1088 -1.1018 0.9893
-2.4782 -0.7991 -1.1749 0.9886
-3.8404 -2.5123 -2.0707 0.9801
-3.7066 -2.9270 -2.1311 0.9795
-3.3355 -3.7715 -2.2718 0.9781
-3.0931 -4.1980 -2.3529 0.9774
-2.8092 -4.6245 -2.4415 0.9765
-2.4806 -5.0479 -2.5379 0.9756
-1.1996 -6.2584 -2.8753 0.9724
-0.6663 -6.6235 -3.0037 0.9712
-0.0775 -6.9573 -3.1394 0.9699
2.7999 -7.7826 -3.7320 0.9644
3.6195 -7.7998 -3.8799 0.9630
4.4576 -7.7208 -4.0227 0.9616
5.2979 -7.5364 -4.1567 0.9604
8.2674 -5.6752 -4.5247 0.9569
8.8024 -4.9522 -4.5572 0.9566
9.4997 -3.2986 -4.5375 0.9568
9.6453 -2.4125 -4.4862 0.9573
9.2948 0.2072 -4.1950 0.9600
7.4700 2.9730 -3.6277 0.9653
6.8805 3.4769 -3.4785 0.9667
6.2678 3.9036 -3.3318 0.9681
5.6438 4.2562 -3.1896 0.9695
4.1318 4.4673 -2.7457 0.9736
3.5625 4.6161 -2.6310 0.9747
2.4759 4.7670 -2.4237 0.9767
1.9639 4.7788 -2.3313 0.9776
1.4758 4.7574 -2.2475 0.9784
1.0100 4.6999 -2.1691 0.9791
0.1505 4.5005 -2.0318 0.9804
-0.2456 4.4042 -1.9904 0.9808
-1.0247 4.3000 -1.9946 0.9808
-1.9995 3.6486 -1.8773 0.9819
-2.2807 3.4031 -1.8485 0.9822
-2.5411 3.1452 -1.8245 0.9824
-3.0012 2.5952 -1.7903 0.9827
-3.5438 1.6928 -1.7721 0.9829
-3.6858 1.3726 -1.7747 0.9829
-3.8081 1.0432 -1.7816 0.9828
-2.4063 0.4335 -1.1032 0.9893
-2.3848 0.2131 -1.0804 0.9895
-2.3934 -0.6556 -1.1698 0.9891
-2.4034 -0.8950 -1.2089 0.9887
-3.6433 -2.6223 -2.1160 0.9803
-3.3122 -3.4248 -2.2459 0.9792
-3.0939 -3.8294 -2.3206 0.9785
-2.5398 -4.6345 -2.4911 0.9769
-2.1989 -5.0290 -2.5872 0.9760
-1.8122 -5.4129 -2.6907 0.9751
-1.3778 -5.7813 -2.8015 0.9741
0.2250 -6.7308 -3.1745 0.9707
2.2563 -7.2735 -3.5897 0.9669
3.0062 -7.3153 -3.7281 0.9656
3.7760 -7.2701 -3.8616 0.9644
4.5527 -7.1316 -3.9883 0.9633
5.3201 -6.8934 -4.1046 0.9622
6.0600 -6.5520 -4.2069 0.9613
8.3582 -4.2236 -4.4143 0.9594
8.8874 -2.6487 -4.3714 0.9598
8.5193 0.5703 -4.0248 0.9629
8.1752 1.2855 -3.9009 0.9641
7.7570 1.9402 -3.7691 0.9653
7.2800 2.5279 -3.6326 0.9665
6.2064 3.4917 -3.3568 0.9690
5.6350 3.8682 -3.2218 0.9702
5.0547 4.1778 -3.0912 0.9714
2.1231 4.5751 -2.3775 0.9779
1.6470 4.5778 -2.2933 0.9787
1.1906 4.5446 -2.2145 0.9794
0.3431 4.3902 -2.0757 0.9807
-0.0481 4.3167 -2.0349 0.9811
-0.4436 4.4092 -2.0889 0.9806
-0.8136 4.2444 -2.0371 0.9811
-1.1612 4.0611 -1.9910 0.9815
-1.4870 3.8610 -1.9503 0.9819
-2.3384 3.1737 -1.8582 0.9827
-2.5817 2.9192 -1.8370 0.9829
-3.1951 2.0901 -1.7997 0.9833
-3.3613 1.7937 -1.7959 0.9833
-3.5084 1.4877 -1.7963 0.9833
-3.6363 1.1726 -1.8010 0.9832
-2.5265 0.5724 -1.2211 0.9886
-2.2973 0.3090 -1.0926 0.9898
-2.3488 0.1047 -1.1083 0.9897
-2.3694 -0.1056 -1.1180 0.9896
-2.3945 -0.7721 -1.1859 0.9889
-2.4109 -1.0223 -1.2344 0.9885
-3.8083 -2.0321 -2.0347 0.9811
-3.5730 -2.8216 -2.1461 0.9801
-3.4077 -3.2230 -2.2110 0.9795
-3.2077 -3.6270 -2.2824 0.9788
-2.9706 -4.0317 -2.3606 0.9781
-2.6938 -4.4346 -2.4458 0.9773
-2.3749 -4.8328 -2.5383 0.9765
-2.0114 -5.2225 -2.6381 0.9756
-1.6011 -5.5994 -2.7452 0.9746
-0.0735 -6.5942 -3.1086 0.9713
1.8922 -7.2223 -3.5193 0.9675
2.6283 -7.3054 -3.6597 0.9663
3.3894 -7.3038 -3.7955 0.9650
4.1644 -7.2130 -3.9260 0.9638
5.6947 -6.7357 -4.1577 0.9617
6.4135 -6.3424 -4.2518 0.9609
7.0753 -5.8479 -4.3269 0.9602
7.6607 -5.2588 -4.3800 0.9597
8.9431 -2.2368 -4.3454 0.9601
8.9628 -1.4093 -4.2767 0.9607
8.6590 0.1930 -4.0827 0.9624
7.9744 1.6209 -3.8358 0.9647
7.0240 2.7955 -3.5636 0.9671
6.4856 3.2773 -3.4253 0.9684
3.9307 4.2498 -2.7287 0.9747
2.8743 4.5026 -2.5180 0.9767
2.3689 4.5610 -2.4226 0.9775
0.1450 4.3360 -2.0450 0.9810
-0.2447 4.3879 -2.0715 0.9808
-0.6314 4.3292 -2.0623 0.9808
-0.9902 4.1550 -2.0134 0.9813
-2.4625 3.0479 -1.8470 0.9828
-2.6960 2.7876 -1.8280 0.9830
-2.9100 2.5164 -1.8134 0.9831
-3.1048 2.2347 -1.8032 0.9832
-2.3515 0.4237 -1.1263 0.9895
-2.3242 0.2077 -1.1000 0.9897
-2.3094 -0.2064 -1.1404 0.9897
-2.3278 -0.8669 -1.2217 0.9890
-2.3666 -1.1304 -1.2900 0.9884
-3.5165 -2.5310 -2.1310 0.9809
-3.1900 -3.2985 -2.2570 0.9798
-2.9762 -3.6836 -2.3293 0.9791
-2.7256 -4.0669 -2.4080 0.9784
-2.1060 -4.8165 -2.5856 0.9768
-1.7327 -5.1754 -2.6844 0.9760
-1.3149 -5.5177 -2.7899 0.9750
-0.3418 -6.1294 -3.0195 0.9730
0.2135 -6.3851 -3.1423 0.9719
0.8125 -6.5970 -3.2693 0.9708
2.1261 -6.8539 -3.5296 0.9685
2.8269 -6.8789 -3.6580 0.9674
3.5432 -6.8218 -3.7809 0.9663
4.2633 -6.6783 -3.8970 0.9653
4.9728 -6.4434 -4.0033 0.9644
5.6551 -6.1142 -4.0964 0.9636
6.2932 -5.6918 -4.1735 0.9629
7.3678 -4.5887 -4.2693 0.9620
7.7742 -3.9284 -4.2842 0.9619
8.0778 -3.2149 -4.2762 0.9620
7.9732 0.5338 -3.9304 0.9650
7.6662 1.2055 -3.8170 0.9660
5.8711 3.3030 -3.3133 0.9704
5.3421 3.6672 -3.1871 0.9715
4.2484 4.2013 -2.9388 0.9737
2.9940 4.2590 -2.5606 0.9771
2.5072 4.3426 -2.4664 0.9779
2.0354 4.3861 -2.3783 0.9787
1.5810 4.3943 -2.2970 0.9794
0.3306 4.2309 -2.0873 0.9813
-0.0479 4.3022 -2.1162 0.9810
-0.7863 4.1022 -2.0544 0.9816
-1.4393 3.7370 -1.9697 0.9823
-2.0106 3.3100 -1.9049 0.9829
-2.5034 2.8307 -1.8587 0.9833
-2.9200 2.3059 -1.8300 0.9836
-3.1001 2.0280 -1.8221 0.9836
-3.4043 1.4436 -1.8188 0.9837
-2.2513 0.3028 -1.1173 0.9899
-2.3022 -0.1026 -1.1335 0.9898
-2.3108 -0.3108 -1.1468 0.9897
-2.3142 -0.5243 -1.1671 0.9895
-2.3173 -0.7472 -1.1976 0.9892
-2.3375 -0.9912 -1.2488 0.9887
-3.5784 -2.3409 -2.1032 0.9811
-3.4469 -2.7220 -2.1603 0.9806
-3.2839 -3.1059 -2.2232 0.9801
-2.5859 -4.2571 -2.4499 0.9780
-2.2764 -4.6323 -2.5387 0.9773
-1.0889 -5.6809 -2.8451 0.9745
-0.0698 -6.2622 -3.0803 0.9725
1.1274 -6.6838 -3.3339 0.9702
1.7850 -6.8133 -3.4643 0.9691
2.4741 -6.8768 -3.5946 0.9679
3.1837 -6.8607 -3.7201 0.9668
3.9036 -6.7613 -3.8400 0.9658
6.5901 -5.4468 -4.2052 0.9626
7.1293 -4.8940 -4.2533 0.9622
7.9393 -3.5773 -4.2831 0.9619
8.3547 -1.3137 -4.1598 0.9630
8.0965 0.1804 -3.9833 0.9645
7.8293 0.8759 -3.8749 0.9655
7.4857 1.5215 -3.7572 0.9665
7.0791 2.1098 -3.6332 0.9676
6.1284 3.0968 -3.3773 0.9699
5.6086 3.4931 -3.2499 0.9710
5.0730 3.8257 -3.1252 0.9721
3.2421 4.2009 -2.6100 0.9766
2.7489 4.3061 -2.5127 0.9775
1.3604 4.3854 -2.2583 0.9797
0.9335 4.3442 -2.1855 0.9804
0.1418 4.2403 -2.0868 0.9813
-0.9574 4.0173 -2.0313 0.9818
-1.2838 3.8345 -1.9889 0.9821
-1.5896 3.6356 -1.9516 0.9825
-1.8753 3.4220 -1.9193 0.9828
-2.1411 3.1948 -1.8916 0.9830
-2.3874 2.9550 -1.8685 0.9832
-2.6146 2.7035 -1.8499 0.9834
-2.8229 2.4411 -1.8356 0.9835
-3.3353 1.5932 -1.8180 0.9837
-2.2359 0.0000 -1.1463 0.9900
-2.2443 -0.2006 -1.1552 0.9899
-2.2417 -0.4038 -1.1677 0.9898
-2.2481 -0.6158 -1.1950 0.9896
-2.2593 -0.8414 -1.2360 0.9892
-2.2721 -1.0853 -1.2909 0.9887
-3.3962 -2.4445 -2.1453 0.9814
-3.2511 -2.8113 -2.2035 0.9809
-1.6588 -4.9545 -2.6786 0.9768
-0.8123 -5.5694 -2.8855 0.9750
-0.3255 -5.8367 -2.9969 0.9741
0.2029 -6.0684 -3.1128 0.9731
0.7706 -6.2572 -3.2321 0.9721
1.3743 -6.3951 -3.3535 0.9710
2.6653 -6.4855 -3.5948 0.9690
4.6633 -6.0423 -3.9130 0.9663
6.8808 -4.2854 -4.1558 0.9642
7.5431 -3.0021 -4.1621 0.9642
7.7282 -2.3032 -4.1342 0.9644
7.7952 -0.8720 -4.0213 0.9654
7.4855 0.5011 -3.8462 0.9668
6.4731 2.2477 -3.5129 0.9697
6.0350 2.7193 -3.3935 0.9707
5.5654 3.1310 -3.2737 0.9717
3.5033 4.1438 -2.7819 0.9759
1.1011 4.2029 -2.2274 0.9807
0.7008 4.1547 -2.1601 0.9812
-0.0472 4.2409 -2.1743 0.9811
-0.7604 3.9671 -2.0708 0.9820
-1.0870 3.8014 -2.0270 0.9824
-1.9491 3.2087 -1.9247 0.9833
-2.1982 2.9834 -1.8998 0.9835
-2.8340 2.2380 -1.8513 0.9839
-3.0092 1.9686 -1.8435 0.9840
-3.1662 1.6895 -1.8398 0.9840
-3.4246 1.1043 -1.8447 0.9840
-2.2319 0.0995 -1.1453 0.9900
-2.2446 -0.3019 -1.1611 0.9899
-2.2673 -0.9614 -1.2625 0.9890
-2.3837 -1.2720 -1.3851 0.9879
-3.3275 -2.6277 -2.1737 0.9811
-3.1670 -2.9953 -2.2348 0.9806
-2.9743 -3.3631 -2.3017 0.9800
-2.7475 -3.7290 -2.3746 0.9794
-2.4848 -4.0906 -2.4537 0.9787
-2.1842 -4.4448 -2.5390 0.9780
-1.4630 -5.1164 -2.7282 0.9764
-1.0398 -5.4246 -2.8317 0.9755
-0.5741 -5.7070 -2.9406 0.9745
1.6879 -6.4426 -3.4144 0.9705
2.9988 -6.4622 -3.6523 0.9685
4.3363 -6.1684 -3.8656 0.9667
4.9836 -5.8946 -3.9573 0.9659
5.5969 -5.5349 -4.0355 0.9652
7.0809 -3.9836 -4.1652 0.9641
7.4130 -3.3401 -4.1684 0.9641
7.7826 -1.9465 -4.1128 0.9646
7.8157 -1.2289 -4.0561 0.9651
7.5950 0.1693 -3.8947 0.9664
7.3567 0.8230 -3.7951 0.9673
7.0468 1.4323 -3.6866 0.9682
6.6769 1.9899 -3.5718 0.9692
5.3218 3.3145 -3.2142 0.9722
4.8231 3.6373 -3.0970 0.9732
3.8059 4.1149 -2.8736 0.9751
2.6321 4.1232 -2.5078 0.9783
2.1763 4.1901 -2.4206 0.9790
1.3080 4.2164 -2.2633 0.9804
0.5097 4.1382 -2.1375 0.9814
0.1414 4.2273 -2.1684 0.9812
-0.5897 4.0431 -2.0947 0.9818
-1.2428 3.7121 -2.0069 0.9826
-1.5398 3.5217 -1.9705 0.9829
-1.8175 3.3164 -1.9388 0.9831
-2.0760 3.0976 -1.9117 0.9834
-2.3157 2.8662 -1.8891 0.9836
-2.5368 2.6231 -1.8708 0.9837
-3.2377 1.5465 -1.8395 0.9840
-3.3670 1.2539 -1.8420 0.9840
-2.2093 0.1974 -1.1372 0.9901
-2.1811 -0.1949 -1.1690 0.9901
-2.1873 -0.5992 -1.2107 0.9898
-2.2033 -1.0524 -1.3035 0.9890
-2.9657 -3.0665 -2.2774 0.9808
-2.7607 -3.4169 -2.3451 0.9803
-1.9380 -4.4324 -2.5825 0.9783
-0.3104 -5.5662 -2.9761 0.9750
0.1931 -5.7769 -3.0857 0.9741
1.9013 -6.1290 -3.4257 0.9713
2.5188 -6.1291 -3.5375 0.9704
3.7718 -5.9084 -3.7421 0.9687
4.9738 -5.3776 -3.9105 0.9673
5.5224 -4.9947 -3.9750 0.9668
6.0178 -4.5383 -4.0237 0.9664
7.0672 -2.8127 -4.0606 0.9661
7.3191 -0.8188 -3.9316 0.9672
7.2234 -0.1609 -3.8571 0.9678
7.0470 0.4718 -3.7704 0.9685
6.7984 1.0690 -3.6739 0.9693
6.1250 2.1268 -3.4613 0.9710
5.7209 2.5777 -3.3498 0.9719
3.8769 3.8340 -2.9108 0.9756
2.3424 4.0572 -2.5010 0.9790
1.8765 4.0437 -2.3798 0.9800
1.4611 4.0612 -2.3041 0.9806
0.3254 4.1642 -2.2298 0.9812
-0.0457 4.0968 -2.1872 0.9816
-1.6295 3.3160 -1.9724 0.9834
-2.1326 2.8945 -1.9193 0.9838
-2.3569 2.6650 -1.8993 0.9840
-2.5632 2.4243 -1.8834 0.9841
-2.9221 1.9116 -1.8641 0.9843
-3.3254 1.0723 -1.8653 0.9843
-2.1682 0.2916 -1.1679 0.9901
-2.1810 -0.2933 -1.1748 0.9901
-2.1912 -0.7066 -1.2291 0.9896
-3.0562 -2.8906 -2.2457 0.9811
-2.3897 -3.9341 -2.4573 0.9793
-1.7687 -4.5923 -2.6271 0.9779
-0.0632 -5.6763 -3.0305 0.9746
1.0141 -6.0121 -3.2549 0.9727
1.5994 -6.1047 -3.3689 0.9718
5.2539 -5.1957 -3.9446 0.9671
6.2416 -4.2846 -4.0415 0.9663
7.1670 -2.4886 -4.0501 0.9662
7.2971 -1.8251 -4.0155 0.9665
6.9311 0.7754 -3.7232 0.9689
6.6502 1.3517 -3.6228 0.9697
6.3121 1.8812 -3.5162 0.9706
3.6369 3.9321 -2.8594 0.9760
3.1587 4.0928 -2.7599 0.9768
2.6014 4.0751 -2.5809 0.9783
2.0998 4.0427 -2.4319 0.9796
1.6670 4.0565 -2.3413 0.9803
0.8722 4.0590 -2.2163 0.9814
0.5077 4.1224 -2.2173 0.9813
-1.2037 3.5954 -2.0241 0.9830
-2.2470 2.7812 -1.9088 0.9839
-3.1442 1.5019 -1.8601 0.9843
-3.2696 1.2176 -1.8625 0.9843
-3.3766 0.9250 -1.8690 0.9843
-2.2058 0.3974 -1.1965 0.9899
-2.1547 0.1925 -1.1549 0.9902
-2.1192 -0.0000 -1.1770 0.9904
-2.1202 -0.1894 -1.1823 0.9903
-2.1250 -0.3828 -1.1992 0.9902
-2.2265 -1.3188 -1.4372 0.9882
-3.1735 -2.2842 -2.1716 0.9823
-3.0325 -2.6223 -2.2266 0.9818
-2.4290 -3.6244 -2.4232 0.9802
-2.1628 -3.9466 -2.4995 0.9796
-1.5251 -4.5553 -2.6680 0.9783
-1.1520 -4.8338 -2.7599 0.9775
-0.7422 -5.0890 -2.8563 0.9767
0.1841 -5.5075 -3.0606 0.9751
1.2384 -5.7629 -3.2738 0.9734
2.3852 -5.8040 -3.4851 0.9717
5.1958 -4.6993 -3.8909 0.9685
5.6578 -4.2667 -3.9357 0.9681
6.6407 -2.6429 -3.9696 0.9678
6.8906 -0.7708 -3.8509 0.9688
6.6504 0.4452 -3.7019 0.9700
6.1409 1.5360 -3.5157 0.9715
5.8071 2.0165 -3.4142 0.9723
5.4331 2.4481 -3.3097 0.9731
5.0280 2.8287 -3.2041 0.9739
3.7063 3.6653 -2.8950 0.9764
2.3376 4.0488 -2.5966 0.9788
1.4405 4.0039 -2.3633 0.9807
0.6876 4.0766 -2.2961 0.9813
0.3165 4.0496 -2.2560 0.9816
-1.3088 3.3983 -2.0225 0.9835
-1.8339 3.0190 -1.9618 0.9840
-2.8384 1.8568 -1.8838 0.9846
-3.2301 1.0416 -1.8850 0.9846
-2.1163 0.0944 -1.1766 0.9904
-2.1237 -0.2856 -1.1901 0.9902
-2.1231 -0.4810 -1.2091 0.9901
-2.1317 -0.6874 -1.2440 0.9898
-2.1353 -0.9054 -1.2881 0.9894
-3.1066 -2.4532 -2.1985 0.9821
-2.9512 -2.7912 -2.2561 0.9816
-1.6980 -4.4088 -2.6240 0.9786
-0.9516 -4.9646 -2.8076 0.9771
-0.5237 -5.2062 -2.9061 0.9763
0.4367 -5.5887 -3.1134 0.9747
1.5183 -5.7953 -3.3273 0.9730
2.0926 -5.8165 -3.4332 0.9721
2.6793 -5.7737 -3.5352 0.9713
3.2685 -5.6611 -3.6306 0.9705
4.4135 -5.2202 -3.7966 0.9692
5.4337 -4.4911 -3.9153 0.9683
6.2333 -3.5068 -3.9722 0.9678
6.5250 -2.9400 -3.9749 0.9678
6.8613 -1.7161 -3.9281 0.9682
6.9018 -1.0853 -3.8803 0.9685
6.8592 -0.4592 -3.8181 0.9690
6.7382 0.1502 -3.7433 0.9696
6.5457 0.7322 -3.6581 0.9703
5.6246 2.2385 -3.3622 0.9727
4.8164 2.9997 -3.1514 0.9744
4.3803 3.3033 -3.0470 0.9752
3.4795 3.7620 -2.8461 0.9768
2.0941 4.0318 -2.5233 0.9794
1.2445 4.0118 -2.3329 0.9810
0.8700 4.0488 -2.3000 0.9812
0.5032 4.0855 -2.2862 0.9813
0.1340 4.0076 -2.2271 0.9818
-0.2178 3.9065 -2.1730 0.9823
-0.5519 3.7843 -2.1240 0.9827
-0.8681 3.6429 -2.0799 0.9830
-1.1664 3.4839 -2.0405 0.9833
-1.4468 3.3088 -2.0057 0.9836
-1.7092 3.1190 -1.9754 0.9839
-2.3908 2.4721 -1.9101 0.9844
-3.0543 1.4589 -1.8799 0.9846
-2.1018 0.1878 -1.1720 0.9904
-2.0638 0.0000 -1.1916 0.9905
