ply
format ascii 1.0
element vertex 1582
property float32 x
property float32 y
property float32 z
property float32 I
end_header
-3.0321 -3.1351 1.6286 0.9815
1.4610 4.0609 1.6115 0.9817
-2.7391 -3.7176 1.7243 0.9805
1.2752 4.1109 1.6072 0.9818
-2.9676 -3.0684 1.5136 0.9820
1.4656 4.0738 1.5351 0.9818
-3.6779 -2.9044 1.6617 0.9803
-2.9131 -3.0121 1.4079 0.9825
-2.5271 -3.7706 1.5250 0.9810
1.4703 4.0869 1.4593 0.9818
-3.5346 -2.7912 1.5132 0.9812
1.2726 4.1025 1.4431 0.9820
-3.8056 -2.7391 1.4891 0.9805
-3.2111 -2.7768 1.3482 0.9823
-2.6240 -3.2477 1.3260 0.9826
-2.5314 -3.4357 1.3553 0.9822
-3.1681 -2.7396 1.2539 0.9827
-2.7021 -3.0554 1.2211 0.9831
-2.4884 -3.3773 1.2559 0.9826
-2.3855 -3.9271 1.3756 0.9810
-3.6197 -2.6053 1.2548 0.9816
-2.3726 -3.5402 1.1991 0.9824
-2.3297 -3.8352 1.2625 0.9815
-3.5565 -2.5598 1.1546 0.9820
-2.7839 -2.8785 1.0552 0.9836
-2.3188 -4.2313 1.2714 0.9802
-3.9555 -2.5876 1.2455 0.9806
-3.3018 -2.6074 1.1086 0.9827
-2.6521 -2.9987 1.0548 0.9836
-2.4405 -3.3122 1.0841 0.9831
-2.2873 -3.7654 1.1609 0.9819
-3.5133 -2.5287 1.0640 0.9823
-2.7654 -2.8594 0.9778 0.9837
-2.3297 -3.4762 1.0286 0.9829
-2.2385 -4.0846 1.1449 0.9810
-3.2744 -2.5858 1.0255 0.9830
-2.9061 -2.7486 0.9832 0.9837
-2.6312 -2.9751 0.9762 0.9838
-2.2649 -3.7285 1.0723 0.9822
1.2728 4.1030 1.0559 0.9825
-3.4831 -2.5070 0.9795 0.9825
-3.0603 -2.6463 0.9234 0.9835
-3.2477 -2.5647 0.9445 0.9832
-2.8919 -2.7351 0.9085 0.9838
-2.6202 -2.9628 0.9027 0.9839
-2.3985 -3.2553 0.9229 0.9835
1.2739 4.1067 0.9814 0.9825
-4.4371 -2.6281 1.0872 0.9791
-3.0417 -2.6303 0.8478 0.9837
-2.2925 -3.4207 0.8681 0.9833
-3.7608 -2.4602 0.9474 0.9818
-3.2216 -2.5441 0.8654 0.9834
-2.3896 -3.2431 0.8493 0.9837
-2.2839 -3.4078 0.7939 0.9834
-2.1586 -3.9389 0.8692 0.9819
1.1109 4.2401 0.8482 0.9823
-3.2016 -2.5282 0.7894 0.9835
-2.5989 -2.9386 0.7592 0.9841
-2.2069 -3.6331 0.8226 0.9828
-2.2582 -4.5953 0.9908 0.9794
1.2762 4.1140 0.8336 0.9826
-4.1661 -2.4676 0.8538 0.9805
-3.4203 -2.4618 0.7431 0.9830
-3.0150 -2.6071 0.7028 0.9839
-2.2753 -3.3950 0.7206 0.9835
-2.1416 -3.9079 0.7858 0.9821
-3.7065 -2.4247 0.7810 0.9822
-3.1952 -2.5232 0.7179 0.9836
-2.8546 -2.6999 0.6928 0.9842
-2.3720 -3.2193 0.7051 0.9839
-2.1821 -4.4404 0.8724 0.9801
1.2796 4.1250 0.7616 0.9826
-4.1229 -2.4420 0.7630 0.9808
-3.0091 -2.6021 0.6335 0.9840
-2.4643 -3.0501 0.6244 0.9842
-2.2669 -3.3825 0.6484 0.9836
-3.6866 -2.4117 0.7015 0.9823
-3.1888 -2.5182 0.6470 0.9837
-2.8514 -2.6968 0.6250 0.9842
-2.5825 -2.9200 0.6207 0.9843
-2.1330 -4.3406 0.7701 0.9806
-4.0807 -2.4170 0.6746 0.9810
-3.0033 -2.5971 0.5647 0.9841
-2.7063 -2.7983 0.5537 0.9844
-2.1249 -3.8775 0.6289 0.9823
1.0993 4.1962 0.6170 0.9826
-3.6669 -2.3988 0.6233 0.9825
-2.8482 -2.6939 0.5576 0.9843
-2.5813 -2.9187 0.5542 0.9844
-2.3579 -3.2001 0.5654 0.9841
-2.1830 -3.5938 0.5981 0.9832
-4.0503 -2.3990 0.5899 0.9812
-2.9976 -2.5921 0.4966 0.9842
-2.2562 -3.3666 0.5079 0.9838
-2.1168 -3.8626 0.5520 0.9824
1.0983 4.1922 0.5431 0.9827
-3.6476 -2.3862 0.5462 0.9826
-3.1764 -2.5083 0.5072 0.9838
-2.8451 -2.6909 0.4907 0.9843
-2.3582 -3.2005 0.4982 0.9841
-2.1116 -4.2969 0.6000 0.9809
1.2907 4.1607 0.5459 0.9826
-3.3848 -2.4362 0.4523 0.9834
-2.9919 -2.5872 0.4290 0.9842
-2.2574 -3.3683 0.4398 0.9838
-2.1104 -3.8509 0.4763 0.9825
-3.6480 -2.3864 0.4728 0.9826
-3.1715 -2.5045 0.4383 0.9839
-2.8420 -2.6879 0.4243 0.9844
-2.1766 -3.5832 0.4547 0.9833
1.2946 4.1736 0.4739 0.9826
-3.3888 -2.4391 0.3828 0.9834
-3.1770 -2.5088 0.3711 0.9839
-2.8407 -2.6867 0.3585 0.9844
-2.5778 -2.9147 0.3567 0.9845
-2.1784 -3.5861 0.3847 0.9833
-2.0936 -4.2603 0.4352 0.9811
1.3046 4.2057 0.4037 0.9825
-4.0404 -2.3932 0.3519 0.9813
-2.9983 -2.5928 0.2971 0.9842
-2.7008 -2.7926 0.2911 0.9845
-2.4582 -3.0425 0.2931 0.9844
-2.1175 -3.8640 0.3302 0.9825
1.0952 4.1806 0.3239 0.9828
-2.8469 -2.6926 0.2937 0.9844
1.3147 4.2382 0.3325 0.9824
-3.3967 -2.4448 0.2438 0.9834
-2.4633 -3.0489 0.2283 0.9844
-3.6532 -2.3898 0.2543 0.9827
-3.1878 -2.5174 0.2366 0.9839
-2.8531 -2.6984 0.2287 0.9844
-2.5853 -2.9233 0.2273 0.9845
-2.3604 -3.2036 0.2318 0.9842
-2.1819 -3.5918 0.2448 0.9833
-2.1073 -4.2882 0.2783 0.9810
-4.0678 -2.4094 0.1966 0.9813
-3.4007 -2.4477 0.1742 0.9834
-3.0091 -2.6021 0.1654 0.9842
-2.7150 -2.8073 0.1624 0.9845
-2.4720 -3.0596 0.1636 0.9844
-2.2694 -3.3862 0.1695 0.9838
-3.6594 -2.3939 0.1818 0.9826
-2.8594 -2.7043 0.1636 0.9844
-2.5925 -2.9314 0.1627 0.9845
-2.1142 -4.3023 0.1993 0.9810
-4.1043 -2.4310 0.1190 0.9811
-3.4135 -2.4569 0.1049 0.9833
-3.0157 -2.6078 0.0994 0.9842
-2.7225 -2.8151 0.0977 0.9845
-12.9494 6.9100 0.3660 0.9430
-3.6826 -2.4090 0.1097 0.9825
-3.1987 -2.5259 0.1016 0.9838
-2.5997 -2.9395 0.0979 0.9844
-2.3774 -3.2266 0.1000 0.9841
-2.1941 -3.6120 0.1054 0.9832
-2.1212 -4.3165 0.1199 0.9809
-12.1038 8.7118 0.3719 0.9421
-12.6667 7.5025 0.3671 0.9428
-14.7423 -0.0000 0.1225 0.9427
-4.1413 -2.4529 0.0400 0.9809
-3.4331 -2.4710 0.0352 0.9832
-3.0270 -2.6175 0.0333 0.9841
-2.4895 -3.0813 0.0329 0.9843
-2.2908 -3.4181 0.0342 0.9837
-10.7652 8.5012 0.1140 0.9466
-11.2968 7.3900 0.1122 0.9474
-12.3436 5.2341 0.1114 0.9478
-13.4288 3.0425 0.1144 0.9464
-14.5901 0.6506 0.1214 0.9433
-3.2164 -2.5400 0.0341 0.9837
-2.8719 -2.7162 0.0329 0.9843
-2.6069 -2.9477 0.0327 0.9844
-2.3859 -3.2382 0.0334 0.9840
-10.4933 9.0738 0.1153 0.9460
-11.0327 7.9408 0.1130 0.9471
-12.0811 5.7706 0.1113 0.9479
-12.6084 4.6954 0.1118 0.9476
-13.7152 2.4709 0.1158 0.9458
-13.4663 -0.0000 -0.1119 0.9476
-14.0034 -1.2514 -0.1169 0.9453
-14.6310 -2.6359 -0.1236 0.9423
-3.4530 -2.4853 -0.0354 0.9831
-3.0445 -2.6326 -0.0334 0.9840
-2.7412 -2.8343 -0.0328 0.9844
-2.4983 -3.0922 -0.0330 0.9842
-2.3016 -3.4343 -0.0344 0.9836
-2.1620 -3.9451 -0.0374 0.9822
1.0988 4.1941 -0.0360 0.9828
-7.5436 12.4184 -0.1208 0.9435
-8.2029 11.1330 -0.1149 0.9462
-8.8029 9.9536 -0.1104 0.9482
-9.3590 8.8517 -0.1071 0.9498
-9.8829 7.8044 -0.1047 0.9509
-10.3844 6.7932 -0.1031 0.9516
-10.8719 5.8014 -0.1024 0.9519
-11.3529 4.8140 -0.1025 0.9519
-12.8301 1.7255 -0.1076 0.9495
-13.3609 0.5958 -0.1112 0.9479
-14.3091 -1.9244 -0.1200 0.9439
-2.3945 -3.2498 -0.0335 0.9840
-2.1982 -4.4731 -0.0414 0.9803
-7.1857 13.1123 -0.1243 0.9419
-7.8817 11.7604 -0.1177 0.9449
-9.0856 9.3945 -0.1086 0.9491
-9.6243 8.3225 -0.1058 0.9504
-10.1359 7.2954 -0.1038 0.9513
-11.1128 5.3081 -0.1024 0.9519
-13.0917 1.1699 -0.1092 0.9488
-12.3986 -0.0000 -0.3092 0.9516
-13.8937 -3.8059 -0.3593 0.9440
-4.2649 -2.5261 -0.1236 0.9804
-2.7583 -2.8521 -0.0989 0.9842
-2.5108 -3.1076 -0.0996 0.9841
-2.1779 -3.9742 -0.1130 0.9820
1.0997 4.1977 -0.1082 0.9828
-5.3787 13.9654 -0.3732 0.9419
-6.1838 12.5837 -0.3497 0.9454
-6.8917 11.3452 -0.3310 0.9483
-7.5254 10.2135 -0.3164 0.9505
-8.1020 9.1611 -0.3050 0.9522
-8.6348 8.1667 -0.2964 0.9536
-9.1341 7.2131 -0.2903 0.9545
-10.0645 5.3706 -0.2845 0.9554
-10.5092 4.4563 -0.2847 0.9554
-11.8328 1.5913 -0.2978 0.9534
-12.2907 0.5480 -0.3068 0.9520
-13.0775 -1.7588 -0.3291 0.9486
-13.6090 -3.0834 -0.3480 0.9457
-3.7558 -2.4570 -0.1119 0.9822
-3.2527 -2.5686 -0.1034 0.9836
-2.6294 -2.9731 -0.0990 0.9842
-2.2316 -3.6737 -0.1072 0.9829
-6.5483 11.9491 -0.3398 0.9469
-7.2166 10.7679 -0.3233 0.9495
-8.8881 7.6858 -0.2930 0.9541
-10.2879 4.9141 -0.2843 0.9554
-10.7290 3.9956 -0.2855 0.9552
-11.1675 3.0591 -0.2888 0.9547
-12.0597 1.0777 -0.3019 0.9527
-11.5183 -0.0000 -0.4789 0.9549
-11.8322 -1.0573 -0.4939 0.9536
-12.2534 -2.2076 -0.5177 0.9514
-13.1805 -4.9085 -0.5848 0.9452
-3.4935 -2.5145 -0.1790 0.9829
-3.0801 -2.6634 -0.1693 0.9838
-2.7757 -2.8701 -0.1660 0.9841
-2.5291 -3.1303 -0.1673 0.9840
-4.0203 14.0600 -0.6080 0.9431
-5.6662 11.5304 -0.5342 0.9499
-6.9508 9.4337 -0.4872 0.9542
-7.5040 8.4850 -0.4710 0.9557
-8.0142 7.5798 -0.4587 0.9568
-8.4902 6.7046 -0.4498 0.9576
-9.3682 4.9990 -0.4415 0.9584
-9.7817 4.1478 -0.4418 0.9584
-10.1849 3.2842 -0.4450 0.9581
-10.9787 1.4765 -0.4606 0.9566
-11.3786 0.5074 -0.4736 0.9554
-11.6353 -0.5188 -0.4843 0.9544
-12.4728 -2.8260 -0.5318 0.9501
-3.2712 -2.5832 -0.1733 0.9835
-2.9206 -2.7623 -0.1671 0.9840
-2.6460 -2.9919 -0.1661 0.9841
-2.4203 -3.2848 -0.1696 0.9838
-2.2478 -3.7004 -0.1800 0.9828
0.9289 4.3227 -0.1838 0.9825
-4.4770 13.3720 -0.5863 0.9451
-5.2960 12.1123 -0.5497 0.9485
-6.0143 10.9748 -0.5204 0.9511
-7.7639 8.0278 -0.4644 0.9563
-10.3841 2.8445 -0.4477 0.9578
-10.7540 0.0000 -0.6263 0.9578
-10.9795 -0.9811 -0.6420 0.9568
-11.3311 -2.0414 -0.6706 0.9549
-3.0982 -2.6792 -0.2386 0.9837
-2.7934 -2.8883 -0.2340 0.9840
-2.5477 -3.1533 -0.2361 0.9839
-2.2379 -4.0836 -0.2712 0.9815
-2.5435 13.2692 -0.7869 0.9473
-4.5004 11.6850 -0.7293 0.9511
-6.4571 8.7637 -0.6340 0.9573
-7.9304 6.2626 -0.5886 0.9603
-8.3570 5.4669 -0.5816 0.9608
-8.7612 4.6751 -0.5784 0.9610
-9.1475 3.8789 -0.5787 0.9610
-9.8827 2.2391 -0.5902 0.9602
-10.8244 -0.4827 -0.6311 0.9575
-11.1544 -1.5001 -0.6555 0.9559
-11.8792 -3.8306 -0.7270 0.9512
-12.6837 -6.7683 -0.8373 0.9440
-2.9376 -2.7783 -0.2355 0.9839
-2.6629 -3.0109 -0.2341 0.9840
-2.4383 -3.3093 -0.2394 0.9837
0.9249 4.3041 -0.2564 0.9825
-2.0337 13.9441 -0.8207 0.9451
-4.0998 12.2453 -0.7521 0.9496
-4.8755 11.1505 -0.7088 0.9524
-6.1731 9.2109 -0.6458 0.9565
-6.7282 8.3276 -0.6235 0.9580
-7.2366 7.4826 -0.6063 0.9591
-8.1468 5.8637 -0.5846 0.9606
-8.5616 5.0710 -0.5796 0.9609
-9.7025 2.6578 -0.5859 0.9605
-10.0613 1.8126 -0.5954 0.9599
-10.4153 0.9307 -0.6090 0.9590
-10.0596 0.0000 -0.7539 0.9605
-10.5365 -1.8983 -0.8023 0.9580
-10.8326 -2.9673 -0.8417 0.9559
-11.4350 -5.4621 -0.9497 0.9504
-3.5764 -2.5742 -0.3302 0.9825
-3.1254 -2.7026 -0.3096 0.9836
-2.8113 -2.9069 -0.3030 0.9839
-2.5666 -3.1767 -0.3060 0.9838
-2.3720 -3.5392 -0.3193 0.9831
1.1076 4.2278 -0.3275 0.9826
-0.1631 14.6414 -1.0973 0.9430
-2.3254 12.1314 -0.9257 0.9517
-3.3755 11.8050 -0.9201 0.9519
-4.1599 10.8009 -0.8674 0.9546
-4.8520 9.8735 -0.8244 0.9568
-6.0281 8.1814 -0.7616 0.9601
-7.4390 5.8745 -0.7103 0.9627
-8.5896 3.6423 -0.6992 0.9633
-8.9358 2.8814 -0.7036 0.9630
-9.9050 0.4417 -0.7430 0.9610
-10.1159 -0.4511 -0.7588 0.9602
-10.6844 -2.4208 -0.8210 0.9570
-3.9185 -2.5634 -0.3509 0.9814
-2.6800 -3.0303 -0.3032 0.9839
-2.3036 -3.7923 -0.3325 0.9824
0.9211 4.2863 -0.3286 0.9826
-0.7781 13.9547 -1.0474 0.9455
-1.8525 12.7016 -0.9619 0.9498
-2.7628 11.5931 -0.8931 0.9533
-4.5162 10.3288 -0.8448 0.9558
-5.1693 9.4328 -0.8061 0.9578
-5.7559 8.5884 -0.7748 0.9594
-6.7755 7.0058 -0.7304 0.9617
-7.2258 6.2484 -0.7159 0.9624
-7.6452 5.5026 -0.7059 0.9629
-8.0386 4.7613 -0.7002 0.9632
-9.7488 0.8712 -0.7335 0.9615
-4.4480 -0.0000 -0.4078 0.9823
-9.5925 -0.8572 -0.8829 0.9621
-10.0885 -2.7635 -0.9590 0.9589
-10.3257 -3.8453 -1.0101 0.9567
-10.7819 -6.3861 -1.1488 0.9509
-2.8362 -2.9326 -0.3740 0.9837
-2.5858 -3.2005 -0.3772 0.9836
1.1367 14.5468 -1.3377 0.9431
-0.1480 13.2868 -1.2182 0.9480
-2.1413 11.1712 -1.0428 0.9553
-3.8666 10.0393 -0.9863 0.9577
-7.0039 5.5309 -0.8182 0.9648
-8.0947 3.4324 -0.8061 0.9653
-4.0002 0.1784 -0.3671 0.9840
-9.7195 -1.3072 -0.8991 0.9614
-9.9674 -2.2583 -0.9369 0.9598
-10.6695 -5.6935 -1.1087 0.9526
-3.9928 -2.6120 -0.4374 0.9810
-3.3658 -2.6579 -0.3932 0.9829
-2.9862 -2.8243 -0.3768 0.9836
0.4646 13.8947 -1.2745 0.9457
-0.7091 12.7171 -1.1677 0.9501
-1.7006 11.6601 -1.0803 0.9538
-2.5512 10.7053 -1.0089 0.9568
-4.2055 9.6182 -0.9624 0.9587
-5.3906 8.0434 -0.8877 0.9619
-6.3687 6.5852 -0.8399 0.9639
-7.2006 5.1827 -0.8133 0.9650
-8.2584 3.0754 -0.8079 0.9652
-8.5734 2.3485 -0.8149 0.9649
-4.9080 0.8842 -0.4572 0.9802
-9.0299 -0.8069 -0.9833 0.9642
-9.6270 -3.5851 -1.1143 0.9595
-9.8012 -4.6817 -1.1782 0.9572
-2.8674 -2.9649 -0.4474 0.9835
-2.4176 -3.6073 -0.4710 0.9827
-2.4058 -4.3900 -0.5430 0.9801
2.4262 14.3838 -1.5822 0.9430
1.0316 13.2015 -1.4363 0.9481
-0.1354 12.1584 -1.3189 0.9523
-1.9838 10.3495 -1.1430 0.9585
-2.7303 9.5484 -1.0772 0.9608
-3.6112 9.3763 -1.0898 0.9604
-4.2397 8.6275 -1.0427 0.9621
-4.8054 7.9108 -1.0040 0.9634
-5.3186 7.2185 -0.9725 0.9646
-5.7873 6.5438 -0.9475 0.9655
-7.3298 3.9113 -0.9012 0.9671
-7.6524 3.2449 -0.9016 0.9671
-7.9553 2.5652 -0.9066 0.9669
-4.7637 1.0793 -0.5298 0.9805
-3.7517 0.5045 -0.4106 0.9849
-3.9258 -0.1751 -0.4262 0.9843
-9.1297 -1.2278 -0.9992 0.9636
-9.3387 -2.1159 -1.0386 0.9622
-9.5344 -3.0744 -1.0866 0.9605
-9.7160 -4.1200 -1.1447 0.9584
-4.1124 -2.6903 -0.5330 0.9804
-3.0177 -2.8541 -0.4505 0.9834
-2.7276 -3.0842 -0.4466 0.9836
-2.5073 -3.4030 -0.4585 0.9831
-2.3626 -3.8893 -0.4936 0.9819
0.4234 12.6650 -1.3745 0.9503
-2.3692 9.9416 -1.1085 0.9597
-3.2695 9.7655 -1.1170 0.9594
-3.9340 8.9973 -1.0651 0.9613
-4.5297 8.2657 -1.0224 0.9628
-5.0680 7.5620 -0.9874 0.9640
-6.0070 6.2112 -0.9372 0.9658
-6.4206 5.5521 -0.9207 0.9664
-6.8039 4.8971 -0.9093 0.9668
-7.1604 4.2411 -0.9027 0.9671
-7.4937 3.5794 -0.9008 0.9671
-7.8061 2.9070 -0.9035 0.9670
-8.1001 2.2188 -0.9110 0.9668
-3.9949 0.7197 -0.4403 0.9838
-3.7700 -0.3369 -0.4743 0.9849
-8.6963 -1.5668 -1.1073 0.9650
-8.8648 -2.4283 -1.1518 0.9636
-9.1446 -4.3680 -1.2700 0.9600
-9.2513 -5.4796 -1.3474 0.9576
-3.7524 -2.7008 -0.5794 0.9815
-3.2268 -2.7903 -0.5346 0.9829
-2.4607 -3.6716 -0.5539 0.9823
1.1196 4.2734 -0.5536 0.9823
2.2012 13.0496 -1.6584 0.9480
-2.5527 8.9273 -1.1636 0.9633
-3.3867 8.7934 -1.1809 0.9627
-5.0215 6.8153 -1.0609 0.9664
-5.4719 6.1872 -1.0351 0.9673
-5.8856 5.5665 -1.0152 0.9679
-6.9489 3.7080 -0.9870 0.9687
-7.5396 2.4312 -0.9927 0.9686
-9.0824 -3.8513 -1.2363 0.9610
-9.2011 -4.9098 -1.3069 0.9588
-3.4511 -2.7253 -0.5511 0.9824
-2.7609 -3.1218 -0.5223 0.9833
-2.4173 -3.9795 -0.5835 0.9814
0.9185 4.2743 -0.5479 0.9825
-0.6018 10.7934 -1.3547 0.9574
-1.4600 10.0104 -1.2677 0.9600
-4.7809 7.1336 -1.0762 0.9660
-5.2516 6.5000 -1.0472 0.9669
-5.6830 5.8762 -1.0244 0.9676
-6.4473 4.6404 -0.9955 0.9685
-6.7877 4.0204 -0.9886 0.9687
-7.6748 2.1024 -0.9972 0.9684
-3.8076 0.6859 -0.4848 0.9845
-3.5366 0.3160 -0.4450 0.9858
-3.3945 -0.0000 -0.4828 0.9864
-3.5139 -0.3140 -0.5018 0.9858
-8.3550 -2.2887 -1.2322 0.9656
-2.9324 -3.0321 -0.6000 0.9831
-2.6800 -3.3170 -0.6065 0.9829
1.1283 4.3069 -0.6333 0.9822
2.0136 11.9376 -1.7219 0.9523
0.8698 11.1309 -1.5881 0.9559
-3.7616 7.6546 -1.2131 0.9661
-4.7549 6.4534 -1.1402 0.9681
-5.1880 5.8662 -1.1139 0.9689
-6.8946 2.9236 -1.0652 0.9702
-3.4470 -0.1537 -0.4908 0.9862
-8.2874 -1.8777 -1.2086 0.9663
-8.4172 -2.7142 -1.2579 0.9649
-8.6566 -5.6629 -1.4713 0.9591
-3.5169 -2.7773 -0.6374 0.9821
-2.7957 -3.1612 -0.6002 0.9831
-2.5839 -3.5069 -0.6196 0.9826
0.9176 4.2703 -0.6213 0.9825
1.4196 11.5258 -1.6518 0.9542
0.3595 10.7511 -1.5300 0.9575
-0.5593 10.0301 -1.4289 0.9602
-1.3630 9.3454 -1.3433 0.9626
-2.0719 8.6941 -1.2713 0.9645
-3.4819 7.9634 -1.2362 0.9655
-4.0278 7.3497 -1.1921 0.9667
-4.5236 6.7496 -1.1557 0.9677
-5.7727 4.9919 -1.0855 0.9696
-6.1249 4.4085 -1.0734 0.9700
-7.0317 2.6187 -1.0673 0.9701
-3.6717 0.6615 -0.5306 0.9850
-3.3525 0.2996 -0.4787 0.9865
-3.2915 -0.0000 -0.5241 0.9868
-3.3915 -0.3031 -0.5422 0.9863
-7.7813 -1.4019 -1.2590 0.9685
-8.0579 -3.8489 -1.4220 0.9645
-8.0933 -4.7937 -1.4978 0.9626
-3.3375 -2.8860 -0.7026 0.9823
-2.9779 -3.0791 -0.6821 0.9828
-2.5620 -3.8228 -0.7328 0.9815
4.4991 12.5055 -2.1163 0.9476
3.0711 11.7221 -1.9296 0.9521
1.8548 10.9962 -1.7757 0.9558
0.8061 10.3164 -1.6477 0.9590
-2.2571 7.8935 -1.3073 0.9673
-3.5595 7.2433 -1.2852 0.9678
-4.5140 6.1265 -1.2118 0.9696
-5.6662 4.4746 -1.1497 0.9712
-5.9911 3.9192 -1.1400 0.9714
-6.2908 3.3569 -1.1354 0.9715
-6.5672 2.7847 -1.1359 0.9715
-3.9744 0.9005 -0.6489 0.9836
-3.2540 0.4376 -0.5228 0.9868
-3.3344 -0.1487 -0.5315 0.9866
-3.4817 -0.4683 -0.5594 0.9859
-3.1398 -2.9696 -0.6882 0.9826
-2.8349 -3.2055 -0.6814 0.9828
-2.6242 -3.5616 -0.7045 0.9822
3.7553 12.1058 -2.0183 0.9500
1.3118 10.6511 -1.7089 0.9575
0.3341 9.9910 -1.5918 0.9603
-0.5222 9.3649 -1.4935 0.9627
-2.5491 7.6137 -1.2785 0.9680
-3.2915 7.5279 -1.3083 0.9673
-4.7270 5.8507 -1.1977 0.9700
-5.4937 4.7505 -1.1565 0.9710
-5.8320 4.1976 -1.1442 0.9713
-6.1440 3.6391 -1.1371 0.9715
-3.1939 -0.0000 -0.5632 0.9871
-3.2817 -0.2933 -0.5809 0.9867
-7.3896 -1.3313 -1.3240 0.9700
-7.6027 -3.6315 -1.4856 0.9664
-2.7727 -3.4317 -0.7779 0.9822
-2.6386 -3.9371 -0.8357 0.9809
-6.5478 -11.9483 -2.4024 0.9462
5.6123 12.0942 -2.3510 0.9473
2.8275 10.7923 -1.9672 0.9557
1.7186 10.1884 -1.8219 0.9589
0.7509 9.6094 -1.6996 0.9616
-0.8561 8.5104 -1.5082 0.9659
-2.1325 7.4577 -1.3677 0.9690
-2.8503 7.4005 -1.3984 0.9683
-5.4051 4.2684 -1.2144 0.9724
-5.7173 3.7401 -1.2046 0.9726
-6.2680 2.6579 -1.2005 0.9727
-6.5096 2.0991 -1.2060 0.9726
-3.1779 0.4274 -0.5654 0.9871
-3.1644 0.1411 -0.5585 0.9872
-3.2276 -0.1439 -0.5697 0.9870
-7.5269 -2.4271 -1.3945 0.9684
-3.6895 -2.9135 -0.8289 0.9811
-3.1974 -3.0240 -0.7760 0.9823
-2.8931 -3.2712 -0.7700 0.9824
-6.7505 -11.1129 -2.2927 0.9486
-6.3160 -12.8527 -2.5251 0.9435
4.8309 11.7553 -2.2410 0.9497
3.4448 11.1051 -2.0502 0.9539
-0.4895 8.7794 -1.5504 0.9649
-1.2021 8.2421 -1.4687 0.9667
-2.4112 7.2020 -1.3392 0.9696
-3.1200 7.1355 -1.3732 0.9689
-4.0809 6.0892 -1.2925 0.9707
-4.8853 5.0514 -1.2391 0.9719
-5.2391 4.5304 -1.2213 0.9723
-5.5644 4.0050 -1.2089 0.9725
-5.8638 3.4731 -1.2017 0.9727
-6.3915 2.3802 -1.2026 0.9727
-4.2904 1.1752 -0.7844 0.9821
-3.1510 0.2816 -0.5578 0.9872
-3.1015 -0.0000 -0.6002 0.9874
-3.1775 -0.2840 -0.6174 0.9871
-7.1695 -2.6699 -1.4805 0.9693
-7.1358 -5.1360 -1.7014 0.9648
-3.5021 -3.0283 -0.8959 0.9813
-3.0919 -3.1970 -0.8607 0.9820
-2.8419 -3.5175 -0.8751 0.9817
-2.7788 -4.1462 -0.9659 0.9799
-5.4801 -12.5333 -2.6471 0.9458
6.6855 11.5796 -2.5875 0.9470
5.1238 11.0415 -2.3556 0.9516
3.7823 10.5130 -2.1621 0.9555
1.6003 9.4873 -1.8619 0.9616
-0.0947 8.5012 -1.6452 0.9660
-0.8068 8.0198 -1.5598 0.9677
-1.4451 7.5390 -1.4855 0.9692
-2.6732 6.9408 -1.4393 0.9702
-4.0957 5.5587 -1.3362 0.9723
-4.4831 5.0691 -1.3096 0.9728
-4.8388 4.5765 -1.2889 0.9732
-5.4659 3.5756 -1.2640 0.9737
-5.7413 3.0637 -1.2593 0.9738
-5.9934 2.5414 -1.2598 0.9738
-3.1048 0.4175 -0.6062 0.9873
-3.0751 0.1371 -0.5957 0.9875
-3.2339 -0.4349 -0.6315 0.9868
-7.1458 -2.3042 -1.4529 0.9699
-7.1856 -3.0470 -1.5104 0.9687
-7.1937 -3.8387 -1.5779 0.9673
-7.1654 -4.6874 -1.6570 0.9657
-6.2057 -10.2160 -2.3131 0.9525
0.9179 4.2717 -0.8455 0.9824
1.1377 9.2374 -1.8011 0.9628
0.2924 8.7444 -1.6931 0.9650
-2.9646 6.7801 -1.4320 0.9703
-3.4476 6.2910 -1.3883 0.9712
-3.8891 5.8029 -1.3518 0.9719
-4.2935 5.3142 -1.3221 0.9725
-5.0057 4.3286 -1.2806 0.9734
-4.1641 1.1407 -0.8355 0.9826
-3.0211 -0.0000 -0.6369 0.9877
-3.0994 -0.2770 -0.6560 0.9874
-3.2303 -0.5820 -0.6920 0.9867
-6.8246 -3.2599 -1.5945 0.9696
-6.7990 -4.0271 -1.6659 0.9682
-6.7339 -4.8468 -1.7491 0.9667
-3.1821 -3.2903 -0.9650 0.9815
-5.9256 -8.8416 -2.2439 0.9574
-5.0140 -11.4673 -2.6385 0.9501
-4.3562 -13.0112 -2.8927 0.9455
7.7022 10.9564 -2.8235 0.9467
4.7111 10.1521 -2.3595 0.9553
3.5007 9.7305 -2.1801 0.9586
2.4373 9.3031 -2.0275 0.9614
-0.0892 8.0110 -1.6890 0.9678
-0.7625 7.5793 -1.6059 0.9693
-1.9184 6.7092 -1.4711 0.9719
-2.5661 6.6629 -1.5053 0.9712
-3.5052 5.7703 -1.4234 0.9728
-4.2866 4.8469 -1.3641 0.9739
-4.6299 4.3789 -1.3435 0.9743
-5.4989 2.9343 -1.3140 0.9748
-5.9591 1.9216 -1.3200 0.9747
-3.0346 0.4081 -0.6455 0.9876
-3.0505 -0.1360 -0.6438 0.9876
-3.1545 -0.4242 -0.6710 0.9871
-6.7452 -1.5283 -1.4581 0.9721
-6.7992 -2.1925 -1.5061 0.9712
-6.8164 -3.6374 -1.6288 0.9689
-6.7718 -4.4299 -1.7060 0.9675
-6.6847 -5.2789 -1.7957 0.9658
-3.0338 -3.4304 -0.9654 0.9815
-2.8762 -3.9037 -1.0222 0.9804
-5.7395 -9.4485 -2.3306 0.9558
-5.2869 -10.7584 -2.5271 0.9522
-3.9616 -13.8546 -3.0379 0.9428
6.8706 10.7625 -2.6919 0.9491
0.9187 4.2755 -0.9219 0.9823
1.0663 8.6574 -1.8389 0.9650
0.2750 8.2264 -1.7352 0.9669
-1.6506 6.9261 -1.5010 0.9713
-2.8230 6.4565 -1.4856 0.9716
-3.2878 5.9995 -1.4423 0.9724
-3.7133 5.5407 -1.4062 0.9731
-4.7910 4.1429 -1.3353 0.9744
-5.3696 3.1804 -1.3157 0.9748
-5.8525 2.1795 -1.3166 0.9748
-2.9810 0.2664 -0.6310 0.9878
-2.9710 -0.0000 -0.6781 0.9879
-3.0430 -0.2719 -0.6973 0.9875
-3.1642 -0.5701 -0.7338 0.9869
-6.4652 -1.7710 -1.5300 0.9729
-6.4927 -2.4179 -1.5814 0.9720
-3.0805 -3.8128 -1.1188 0.9801
-3.9823 -11.8944 -2.8629 0.9498
8.6430 10.2230 -3.0555 0.9466
7.0207 9.9870 -2.7863 0.9511
5.6032 9.7051 -2.5578 0.9551
4.3576 9.3903 -2.3628 0.9584
2.2785 8.6969 -2.0520 0.9638
1.4050 8.3297 -1.9280 0.9659
0.6215 7.9537 -1.8209 0.9678
-0.0843 7.5715 -1.7283 0.9694
-0.7224 7.1815 -1.6474 0.9708
-1.3005 6.7844 -1.5767 0.9721
-3.7442 5.0816 -1.4407 0.9744
-4.7413 3.7442 -1.3789 0.9755
-5.0201 3.2840 -1.3692 0.9757
-3.4289 0.7769 -0.8025 0.9857
-2.9994 -0.1338 -0.6853 0.9878
-3.0959 -0.4164 -0.7130 0.9873
-6.4745 -3.4549 -1.6750 0.9703
-6.4168 -4.1977 -1.7501 0.9690
-6.3169 -4.9884 -1.8371 0.9675
-3.5392 -3.3474 -1.1119 0.9802
-5.6892 -7.7215 -2.1891 0.9614
-5.3358 -8.7840 -2.3458 0.9587
-4.8860 -9.9428 -2.5286 0.9556
-4.3184 -11.2124 -2.7424 0.9519
4.9608 9.5511 -2.4565 0.9568
1.0029 8.1426 -1.8725 0.9669
0.2596 7.7633 -1.7729 0.9686
-1.0185 6.9833 -1.6108 0.9715
-2.0706 6.1844 -1.4886 0.9736
-2.6936 6.1603 -1.5346 0.9728
-3.1412 5.7320 -1.4919 0.9735
-3.5517 5.2995 -1.4561 0.9742
-3.9286 4.8625 -1.4268 0.9747
-4.2747 4.4200 -1.4035 0.9751
-4.5925 3.9712 -1.3858 0.9754
-4.8838 3.5151 -1.3734 0.9756
-3.8725 1.0608 -0.9164 0.9837
-2.9221 0.0000 -0.7182 0.9880
-2.9882 -0.2670 -0.7374 0.9877
-6.1970 -2.3078 -1.6254 0.9731
-6.0456 -4.3513 -1.8309 0.9698
-3.6652 -10.9475 -2.8377 0.9536
-2.9094 -12.2086 -3.0849 0.9496
7.8733 9.3125 -2.9975 0.9510
6.4459 9.1694 -2.7550 0.9549
5.1793 8.9709 -2.5462 0.9582
4.0513 8.7302 -2.3657 0.9611
3.0429 8.4578 -2.2094 0.9637
1.3234 7.8456 -1.9557 0.9678
-1.2378 6.4572 -1.6161 0.9733
-2.7950 5.6875 -1.5577 0.9742
-4.5523 3.5949 -1.4258 0.9764
-4.8213 3.1539 -1.4161 0.9765
-5.0664 2.7035 -1.4115 0.9766
-5.2886 2.2425 -1.4120 0.9766
-2.8978 0.1292 -0.7130 0.9881
-2.9494 -0.1315 -0.7257 0.9879
-3.0390 -0.4087 -0.7537 0.9874
-3.1571 -0.7153 -0.7957 0.9868
-6.1940 -2.6265 -1.6537 0.9727
-6.0949 -3.9871 -1.7902 0.9704
-5.9851 -4.7264 -1.8745 0.9691
-5.8274 -5.5115 -1.9715 0.9675
-4.9830 -8.2032 -2.3592 0.9612
-4.5393 -9.2371 -2.5298 0.9585
-3.9880 -10.3546 -2.7274 0.9553
-3.3069 -11.5650 -2.9566 0.9517
-2.4688 -12.8794 -3.2234 0.9474
-1.4395 -14.3090 -3.5349 0.9425
10.3730 9.3818 -3.4378 0.9440
7.1380 9.2489 -2.8717 0.9530
5.7940 9.0762 -2.6467 0.9566
3.5332 8.5975 -2.2847 0.9624
0.9204 4.2833 -1.0769 0.9821
0.2456 7.3467 -1.8068 0.9702
-0.3903 6.9995 -1.7232 0.9715
-1.4950 6.2735 -1.5852 0.9738
-3.0061 5.4855 -1.5375 0.9746
-4.4085 3.8121 -1.4326 0.9763
-4.6898 3.3755 -1.4203 0.9765
-5.3913 2.0077 -1.4141 0.9766
-3.8036 1.0419 -0.9694 0.9839
-2.8807 0.2574 -0.7109 0.9882
-2.8745 -0.0000 -0.7574 0.9882
-2.9343 -0.2622 -0.7763 0.9879
-3.0385 -0.5474 -0.8135 0.9873
-5.9166 -1.6207 -1.6165 0.9749
-5.9249 -2.2065 -1.6660 0.9742
-5.7482 -4.1374 -1.8662 0.9711
-5.6082 -4.8496 -1.9537 0.9698
-5.4183 -5.6024 -2.0537 0.9683
-5.1709 -6.4001 -2.1681 0.9665
-4.8569 -7.2471 -2.2988 0.9646
-4.4654 -8.1483 -2.4483 0.9623
-3.9828 -9.1088 -2.6196 0.9597
-3.3929 -10.1341 -2.8160 0.9568
-2.6760 -11.2289 -3.0417 0.9534
-0.7605 -13.6393 -3.5995 0.9451
7.2245 8.5452 -2.9485 0.9548
4.8123 8.3351 -2.5361 0.9610
3.7832 8.1525 -2.3682 0.9635
0.7459 4.4220 -1.1817 0.9816
0.5565 7.1209 -1.8821 0.9709
-0.0759 6.8147 -1.7958 0.9722
-0.6530 6.4911 -1.7190 0.9734
-1.1803 6.1577 -1.6521 0.9744
-1.6630 5.8159 -1.5939 0.9753
-3.4441 4.6744 -1.5299 0.9763
-3.7819 4.2762 -1.5042 0.9767
-4.0920 3.8702 -1.4841 0.9770
-4.8725 2.6000 -1.4553 0.9774
-5.0861 2.1567 -1.4557 0.9774
-2.8515 0.1271 -0.7521 0.9883
-2.9007 -0.1294 -0.7651 0.9881
-2.9836 -0.4013 -0.7933 0.9876
-5.8015 -3.7952 -1.8267 0.9717
-4.2364 -8.6208 -2.5310 0.9610
-3.7024 -9.6130 -2.7144 0.9583
-3.0518 -10.6726 -2.9249 0.9551
-2.2625 -11.8034 -3.1668 0.9515
-1.3087 -13.0085 -3.4450 0.9474
-0.1592 -14.2886 -3.7653 0.9426
6.5726 8.5163 -2.8346 0.9565
5.3684 8.4094 -2.6289 0.9596
2.4232 7.8115 -2.1551 0.9667
0.8952 7.2684 -1.9297 0.9702
0.2330 6.9698 -1.8376 0.9716
-1.9015 5.6795 -1.5782 0.9755
-2.8812 5.2575 -1.5798 0.9755
-3.2642 4.8706 -1.5450 0.9760
-3.9402 4.0742 -1.4935 0.9768
-4.7572 2.8177 -1.4569 0.9774
-5.1846 1.9308 -1.4578 0.9774
-3.7365 1.0235 -1.0208 0.9841
-3.0018 0.5408 -0.8037 0.9875
-2.8279 -0.0000 -0.7956 0.9883
-2.9786 -0.5366 -0.8515 0.9875
-5.6737 -2.1129 -1.7034 0.9752
-5.6434 -2.6956 -1.7597 0.9743
-5.4765 -3.9417 -1.8985 0.9724
-5.3313 -4.6102 -1.9830 0.9711
-4.5772 -6.8296 -2.3132 0.9664
-2.4756 -10.3879 -3.0045 0.9566
0.4525 -13.5355 -3.8104 0.9453
10.8006 7.4141 -3.6859 0.9470
9.2978 7.6848 -3.3939 0.9511
7.9233 7.8355 -3.1353 0.9548
6.6701 7.8894 -2.9067 0.9580
5.5294 7.8654 -2.7051 0.9608
4.4912 7.7790 -2.5273 0.9634
3.5464 7.6423 -2.3705 0.9656
1.9009 7.2559 -2.1104 0.9693
0.7424 4.4014 -1.2559 0.9816
0.5285 6.7625 -1.9085 0.9722
-0.0722 6.4846 -1.8246 0.9734
-1.1275 5.8823 -1.6851 0.9754
-1.5955 5.5798 -1.6328 0.9762
-2.5683 5.2264 -1.6385 0.9761
-3.3097 4.4920 -1.5699 0.9771
-3.9370 3.7236 -1.5246 0.9777
-4.2121 3.3263 -1.5101 0.9779
-4.6914 2.5034 -1.4961 0.9781
-2.7752 0.3732 -0.7878 0.9884
-2.9298 -0.3940 -0.8317 0.9878
-3.2049 -1.0335 -0.9474 0.9861
-5.6626 -2.4012 -1.7305 0.9748
-5.6157 -2.9967 -1.7909 0.9739
-5.2410 -4.9569 -2.0296 0.9705
-5.0207 -5.6771 -2.1323 0.9690
-4.3946 -7.2346 -2.3816 0.9654
-3.9693 -8.0773 -2.5322 0.9633
-3.4531 -8.9659 -2.7032 0.9609
-2.8313 -9.9018 -2.8976 0.9581
-0.1447 -12.9871 -3.6542 0.9475
10.0328 7.5661 -3.5355 0.9491
8.5949 7.7736 -3.2606 0.9530
6.0862 7.8861 -2.8028 0.9595
2.2844 7.3643 -2.1694 0.9685
0.9240 4.3002 -1.2375 0.9819
0.2216 6.6269 -1.8656 0.9728
-0.3534 6.3387 -1.7862 0.9740
-2.3631 5.4046 -1.6596 0.9758
-2.7653 5.0460 -1.6190 0.9764
-3.1357 4.6788 -1.5847 0.9769
-3.4766 4.3031 -1.5565 0.9773
-4.0776 3.5260 -1.5167 0.9778
-4.7969 2.2913 -1.4957 0.9782
-3.6501 0.9999 -1.0648 0.9844
-2.9229 0.5266 -0.8356 0.9877
-2.7884 0.2492 -0.7877 0.9884
-2.7824 -0.0000 -0.8330 0.9884
-2.8308 -0.2530 -0.8509 0.9882
-2.9224 -0.5265 -0.8890 0.9877
-5.4407 -2.0262 -1.7381 0.9761
-5.4044 -2.5815 -1.7931 0.9753
-4.8826 -5.0486 -2.1027 0.9711
-4.6341 -5.7357 -2.2076 0.9697
-3.9489 -7.2058 -2.4600 0.9663
-3.4938 -7.9906 -2.6109 0.9642
-2.3017 -9.6583 -2.9725 0.9594
-1.5367 -10.5365 -3.1878 0.9565
12.7092 5.7265 -4.1733 0.9435
11.2273 6.3163 -3.8566 0.9476
7.3125 7.2315 -3.0789 0.9580
5.1575 7.3367 -2.6849 0.9632
2.5351 7.0465 -2.2420 0.9692
1.7998 6.8699 -2.1261 0.9708
0.7389 4.3808 -1.3301 0.9816
-1.0788 5.6281 -1.7156 0.9764
-1.5249 5.3328 -1.6605 0.9771
-2.0623 5.3546 -1.7178 0.9763
-2.4670 5.0201 -1.6746 0.9769
-2.8403 4.6757 -1.6378 0.9774
-3.5010 3.9587 -1.5821 0.9782
-3.7919 3.5864 -1.5626 0.9784
-4.7198 2.0014 -1.5348 0.9788
-2.7204 0.3658 -0.8218 0.9886
-2.8067 -0.1252 -0.8411 0.9883
-2.9771 -0.6745 -0.9139 0.9873
-3.1092 -1.0026 -0.9780 0.9865
-5.3738 -2.8676 -1.8236 0.9749
-5.2857 -3.4578 -1.8910 0.9740
-5.1582 -4.0734 -1.9677 0.9729
-4.4879 -6.0911 -2.2651 0.9689
-4.1464 -6.8260 -2.3910 0.9672
-3.7318 -7.5940 -2.5332 0.9653
-3.2335 -8.3955 -2.6934 0.9631
-2.6392 -9.2296 -2.8739 0.9607
-1.9349 -10.0942 -3.0770 0.9580
-1.1051 -10.9846 -3.3052 0.9549
-0.1325 -11.8936 -3.5609 0.9515
11.9588 6.0430 -4.0114 0.9456
9.1685 6.9143 -3.4379 0.9532
7.9079 7.1523 -3.1922 0.9565
6.7402 7.2874 -2.9718 0.9594
3.7626 7.2442 -2.4439 0.9665
2.9269 7.1223 -2.3053 0.9684
2.1597 6.9621 -2.1823 0.9700
0.9269 4.3135 -1.3209 0.9817
0.2110 6.3113 -1.8905 0.9740
-0.3373 6.0491 -1.8138 0.9750
-0.8418 5.7718 -1.7462 0.9759
-1.8474 5.5178 -1.7421 0.9760
-3.3460 4.1414 -1.5940 0.9780
-4.1828 3.0106 -1.5429 0.9787
-4.8107 1.7915 -1.5369 0.9788
-2.7380 -0.0000 -0.8695 0.9886
-2.7827 -0.2487 -0.8873 0.9883
-5.2241 -1.9455 -1.7704 0.9769
-4.4023 -5.4488 -2.2247 0.9710
-4.0983 -6.1151 -2.3379 0.9696
-2.7657 -8.2606 -2.7666 0.9641
-1.4281 -9.7919 -3.1426 0.9593
0.3794 -11.3489 -3.6062 0.9535
1.4911 -12.1068 -3.8740 0.9501
10.2274 5.7538 -3.7268 0.9519
6.7839 6.7088 -3.0301 0.9607
4.8298 6.8705 -2.6672 0.9654
3.9560 6.8520 -2.5127 0.9673
3.1471 6.7816 -2.3743 0.9691
2.3992 6.6685 -2.2507 0.9707
1.7080 6.5196 -2.1404 0.9721
0.7375 4.3723 -1.4082 0.9816
-0.0658 5.9041 -1.8752 0.9755
-0.5690 5.6562 -1.8054 0.9764
-1.0337 5.3927 -1.7438 0.9772
-1.5010 5.2493 -1.7339 0.9773
-2.3724 4.8277 -1.7083 0.9777
-2.7337 4.5002 -1.6722 0.9781
-3.0670 4.1625 -1.6420 0.9785
-3.9141 3.0909 -1.5839 0.9793
-4.1494 2.7144 -1.5747 0.9794
-4.3623 2.3278 -1.5703 0.9795
-4.5534 1.9308 -1.5707 0.9795
-4.7229 1.5229 -1.5760 0.9794
-2.9791 0.6749 -0.9701 0.9873
-2.6672 0.3587 -0.8547 0.9888
-2.7613 -0.1231 -0.8778 0.9885
-2.9205 -0.6617 -0.9510 0.9875
-3.1071 -1.0019 -1.0368 0.9864
-5.2074 -2.2081 -1.7963 0.9765
-5.0575 -3.3085 -1.9193 0.9750
-4.7536 -4.4959 -2.0779 0.9729
-4.2579 -5.7788 -2.2796 0.9703
-3.9227 -6.4576 -2.3996 0.9688
-3.5191 -7.1612 -2.5341 0.9671
-3.0382 -7.8886 -2.6847 0.9651
-1.0243 -10.1817 -3.2499 0.9580
2.1038 -12.4725 -4.0170 0.9483
3.4457 -13.1523 -4.3179 0.9445
12.1394 4.8314 -4.1494 0.9466
10.8550 5.4852 -3.8625 0.9502
8.4276 6.3555 -3.3522 0.9567
7.3160 6.6169 -3.1328 0.9594
5.2919 6.8568 -2.7507 0.9643
4.3846 6.8683 -2.5878 0.9664
2.0468 6.5981 -2.1940 0.9714
0.7686 6.2410 -1.9970 0.9740
-0.8060 5.5262 -1.7736 0.9768
-2.5566 4.6653 -1.6895 0.9779
-2.9037 4.3326 -1.6564 0.9783
-3.5180 3.6376 -1.6071 0.9790
-3.7879 3.2756 -1.5904 0.9792
-4.2586 2.5223 -1.5719 0.9794
-4.4606 2.1306 -1.5699 0.9795
-4.6409 1.7283 -1.5728 0.9794
-2.6945 -0.0000 -0.9053 0.9887
-2.8177 -0.5076 -0.9619 0.9880
-5.0221 -1.8702 -1.8005 0.9776
-4.8983 -2.9013 -1.9128 0.9763
-4.7846 -3.4438 -1.9807 0.9754
-4.6317 -4.0052 -2.0573 0.9745
-4.4353 -4.5860 -2.1435 0.9734
-3.8915 -5.8066 -2.3485 0.9709
-2.6021 -7.7719 -2.7537 0.9660
-2.0145 -8.4531 -2.9196 0.9640
-1.3329 -9.1391 -3.1031 0.9618
0.3507 -10.4892 -3.5262 0.9567
8.3150 5.7079 -3.3886 0.9583
7.2895 6.0250 -3.1774 0.9609
6.3146 6.2446 -2.9838 0.9632
4.5379 6.4553 -2.6511 0.9673
3.7300 6.4606 -2.5065 0.9690
2.2758 6.3259 -2.2588 0.9720
-2.2839 4.6476 -1.7398 0.9784
-3.2546 3.6800 -1.6506 0.9795
-3.7784 2.9838 -1.6176 0.9799
-4.0062 2.6208 -1.6085 0.9800
-4.2123 2.2477 -1.6041 0.9801
-4.3968 1.8644 -1.6046 0.9800
-2.7751 -0.3732 -0.9408 0.9883
-2.8653 -0.6492 -0.9871 0.9877
-5.0335 -1.6231 -1.7769 0.9779
-4.9416 -2.6370 -1.8819 0.9766
-4.5392 -4.2932 -2.0992 0.9740
-3.7198 -6.1237 -2.4073 0.9702
-2.3194 -8.1115 -2.8345 0.9650
-0.9539 -9.4814 -3.2017 0.9606
0.8450 -10.8130 -3.6440 0.9553
3.1384 -11.9791 -4.1606 0.9491
4.4724 -12.4312 -4.4387 0.9458
12.9224 3.8513 -4.5304 0.9447
11.7485 4.6758 -4.2484 0.9480
8.8443 5.5083 -3.5007 0.9570
7.7963 5.8795 -3.2808 0.9596
6.7954 6.1461 -3.0784 0.9621
5.8475 6.3223 -2.8935 0.9643
4.9629 6.4307 -2.7292 0.9663
2.6201 6.3754 -2.3158 0.9713
0.9328 4.3408 -1.4917 0.9814
0.7331 5.9525 -2.0151 0.9750
-0.3087 5.5354 -1.8627 0.9769
-0.7728 5.2984 -1.7990 0.9777
-1.7052 5.0931 -1.8046 0.9776
-2.0984 4.7992 -1.7598 0.9781
-2.4623 4.4931 -1.7214 0.9786
-2.7986 4.1758 -1.6889 0.9790
-3.3942 3.5096 -1.6404 0.9796
-3.8951 2.8035 -1.6124 0.9800
-4.3072 2.0574 -1.6038 0.9801
-4.4810 1.6687 -1.6066 0.9800
-2.6265 0.7194 -0.9150 0.9886
-2.6500 0.2368 -0.8939 0.9888
-2.6519 -0.0000 -0.9403 0.9888
-2.6931 -0.2407 -0.9588 0.9886
-2.8417 -0.7785 -1.0448 0.9876
-4.8330 -1.7998 -1.8287 0.9784
-4.7838 -2.2851 -1.8799 0.9778
-4.4335 -3.8339 -2.0783 0.9754
-2.9387 -6.7211 -2.6011 0.9693
-2.4552 -7.3332 -2.7421 0.9677
-1.2487 -8.5620 -3.0681 0.9639
-0.5110 -9.1637 -3.2543 0.9618
1.2668 -10.2855 -3.6746 0.9570
2.3151 -10.7737 -3.9074 0.9543
4.7153 -11.4741 -4.3987 0.9487
6.0465 -11.6416 -4.6515 0.9458
7.4377 -11.6510 -4.9013 0.9430
14.0117 0.9379 -4.9795 0.9421
11.2658 3.9119 -4.2287 0.9506
10.1598 4.5778 -3.9513 0.9538
8.6597 4.8719 -3.5232 0.9587
7.7117 5.2938 -3.3168 0.9611
6.7914 5.6132 -3.1242 0.9633
5.9077 5.8422 -2.9461 0.9654
5.0662 5.9923 -2.7824 0.9672
4.2701 6.0743 -2.6328 0.9690
2.8172 6.0708 -2.3731 0.9720
1.5475 5.9065 -2.1650 0.9744
0.4376 5.6000 -1.9917 0.9764
-0.0603 5.4093 -1.9182 0.9773
-0.5230 5.1985 -1.8526 0.9781
-1.4398 5.0354 -1.8571 0.9780
-2.2009 4.4786 -1.7694 0.9790
-2.8533 3.8725 -1.7056 0.9798
-3.6504 2.8827 -1.6493 0.9805
-4.0707 2.1722 -1.6361 0.9806
-4.2490 1.8017 -1.6365 0.9806
-4.4061 1.4208 -1.6416 0.9805
-2.5615 0.5803 -0.9313 0.9889
-2.6347 0.1175 -0.9351 0.9889
-2.7260 -0.3666 -0.9753 0.9884
-2.8093 -0.6365 -1.0214 0.9878
-4.8123 -2.0406 -1.8534 0.9781
-4.7475 -2.5334 -1.9081 0.9774
-4.6496 -3.0417 -1.9701 0.9767
-4.5154 -3.5658 -2.0401 0.9759
-4.3412 -4.1059 -2.1188 0.9750
-3.8560 -5.2335 -2.3050 0.9728
-3.5350 -5.8194 -2.4143 0.9715
-3.1538 -6.4179 -2.5356 0.9701
-0.8918 -8.8648 -3.1592 0.9629
-0.1054 -9.4569 -3.3535 0.9607
1.7775 -10.5376 -3.7893 0.9557
5.3718 -11.5759 -4.5251 0.9473
12.7302 2.5875 -4.6063 0.9464
9.1401 4.6187 -3.6313 0.9575
7.2474 5.4655 -3.2187 0.9622
3.8895 6.0928 -2.5631 0.9698
3.1631 6.0900 -2.4333 0.9713
1.8464 5.9521 -2.2098 0.9739
0.9384 4.3668 -1.5838 0.9812
0.1842 5.5074 -1.9539 0.9769
-0.7418 5.0864 -1.8227 0.9784
-1.1837 4.9672 -1.8106 0.9786
-1.6410 4.9013 -1.8328 0.9783
-2.0213 4.6227 -1.7890 0.9788
-2.6997 4.0283 -1.7195 0.9796
-3.0007 3.7140 -1.6930 0.9799
-3.5317 3.0540 -1.6556 0.9804
-3.7635 2.7088 -1.6442 0.9805
-3.9736 2.3536 -1.6376 0.9806
-4.3302 1.6126 -1.6384 0.9806
-2.5828 0.7075 -0.9496 0.9887
-2.6624 0.4796 -0.9592 0.9886
-2.6498 -0.2368 -0.9934 0.9887
-2.7171 -0.4895 -1.0309 0.9883
-2.7878 -0.7637 -1.0793 0.9877
-4.6557 -1.7338 -1.8551 0.9790
-4.6036 -2.1990 -1.9051 0.9785
-4.5204 -2.6775 -1.9619 0.9778
-4.2496 -3.6748 -2.0979 0.9763
-4.0553 -4.1932 -2.1783 0.9754
-3.8167 -4.7240 -2.2678 0.9744
-3.5293 -5.2661 -2.3672 0.9733
-3.1880 -5.8175 -2.4771 0.9721
-1.7865 -7.4965 -2.8777 0.9676
-0.4785 -8.5819 -3.2096 0.9640
0.3039 -9.0886 -3.3957 0.9619
2.1409 -9.9629 -3.8052 0.9574
5.5134 -10.6152 -4.4666 0.9502
6.7500 -10.5737 -4.6843 0.9478
8.0012 -10.3675 -4.8902 0.9456
13.6550 -1.5276 -5.1307 0.9430
13.2595 -0.2955 -4.9525 0.9449
12.6974 0.8500 -4.7520 0.9471
12.0034 1.8874 -4.5373 0.9494
10.3556 3.5958 -4.0934 0.9543
9.4617 4.2632 -3.8752 0.9567
7.1843 4.9317 -3.2540 0.9635
6.3521 5.2502 -3.0773 0.9654
4.7723 5.6447 -2.7602 0.9689
4.0350 5.7398 -2.6199 0.9705
3.3361 5.7783 -2.4915 0.9719
2.0561 5.7150 -2.2680 0.9744
0.7352 4.3586 -1.6505 0.9813
-0.0578 5.1881 -1.9374 0.9781
-0.9171 4.7843 -1.8191 0.9794
-1.3863 4.8483 -1.8830 0.9787
-2.4515 4.0357 -1.7632 0.9800
-2.7556 3.7399 -1.7346 0.9804
-3.0360 3.4328 -1.7112 0.9806
-3.5294 2.7871 -1.6793 0.9810
-4.1092 1.7424 -1.6667 0.9811
-2.5325 0.3406 -0.9542 0.9891
-2.5920 0.1155 -0.9689 0.9890
-2.6307 -0.1173 -0.9833 0.9888
-2.6781 -0.3602 -1.0090 0.9885
-4.1578 -3.9324 -2.1370 0.9759
-3.9419 -4.4571 -2.2219 0.9749
-3.6794 -4.9937 -2.3162 0.9739
-3.3657 -5.5407 -2.4208 0.9727
-2.9956 -6.0960 -2.5363 0.9714
-2.5636 -6.6562 -2.6635 0.9700
-2.0638 -7.2174 -2.8031 0.9685
-0.8368 -8.3175 -3.1215 0.9649
-0.0985 -8.8395 -3.3010 0.9630
1.6474 -9.7668 -3.6985 0.9586
2.6563 -10.1390 -3.9138 0.9562
3.7469 -10.4148 -4.1330 0.9538
6.1279 -10.6138 -4.5764 0.9490
7.3759 -10.4923 -4.7892 0.9467
8.6213 -10.1973 -4.9863 0.9446
9.8248 -9.7160 -5.1597 0.9427
13.7802 -2.1668 -5.2089 0.9422
13.4801 -0.9024 -5.0449 0.9439
12.9972 0.2896 -4.8545 0.9460
10.7901 3.2158 -4.2043 0.9531
8.8801 4.4873 -3.7153 0.9584
5.1548 5.5733 -2.8348 0.9681
4.3989 5.6999 -2.6885 0.9697
2.3615 5.7463 -2.3199 0.9738
1.7603 5.6746 -2.2186 0.9750
0.9467 4.4054 -1.6826 0.9809
0.6701 5.4409 -2.0470 0.9769
-1.5807 4.7215 -1.8592 0.9790
-2.2903 4.1793 -1.7796 0.9799
-2.8987 3.5877 -1.7223 0.9805
-3.1676 3.2753 -1.7014 0.9807
-3.6391 2.6193 -1.6743 0.9810
-3.8428 2.2761 -1.6678 0.9811
-4.0256 1.9229 -1.6659 0.9811
-4.1876 1.5594 -1.6686 0.9811
-3.4441 0.9434 -1.3334 0.9849
-2.6685 -0.4808 -1.0642 0.9884
-2.7584 -1.0272 -1.1552 0.9874
-4.4344 -2.1182 -1.9287 0.9791
-4.2318 -3.0459 -2.0463 0.9778
-3.8859 -4.0180 -2.1938 0.9763
-3.6509 -4.5188 -2.2800 0.9753
-3.3696 -5.0277 -2.3754 0.9743
-2.2021 -6.5772 -2.7222 0.9706
-1.6892 -7.0881 -2.8598 0.9692
-1.1064 -7.5863 -3.0089 0.9676
-0.4496 -8.0637 -3.1697 0.9659
0.2845 -8.5099 -3.3418 0.9641
1.9893 -9.2575 -3.7162 0.9601
2.9542 -9.5236 -3.9134 0.9581
3.9825 -9.6909 -4.1120 0.9560
5.0616 -9.7453 -4.3099 0.9539
7.2889 -9.4444 -4.6822 0.9500
8.3807 -9.0611 -4.8441 0.9483
9.4125 -8.5131 -4.9809 0.9469
11.7854 -5.9554 -5.1824 0.9448
12.4836 -3.7205 -5.1124 0.9456
12.0653 -0.2689 -4.7365 0.9495
11.5961 0.7763 -4.5613 0.9513
11.0054 1.7305 -4.3724 0.9533
10.3218 2.5817 -4.1758 0.9553
9.5725 3.3239 -3.9770 0.9574
8.7816 3.9568 -3.7802 0.9595
7.8448 4.4134 -3.5327 0.9621
6.7191 4.6124 -3.1986 0.9656
5.2223 5.1645 -2.8826 0.9689
4.5075 5.3316 -2.7401 0.9704
3.8219 5.4367 -2.6082 0.9718
1.4107 5.3847 -2.1847 0.9764
0.7344 4.3539 -1.7329 0.9812
-0.4829 4.8007 -1.8936 0.9795
-0.9101 4.7477 -1.8973 0.9794
-1.3361 4.6725 -1.9073 0.9793
-2.3681 3.8984 -1.7902 0.9806
-2.9356 3.3193 -1.7391 0.9811
-3.4148 2.6966 -1.7077 0.9815
-3.6226 2.3698 -1.6990 0.9816
-3.9767 1.6863 -1.6953 0.9816
-4.1230 1.3295 -1.7002 0.9816
-2.5568 0.5793 -1.0289 0.9888
-2.5490 0.1136 -1.0014 0.9891
-2.6312 -0.3539 -1.0420 0.9887
-2.7055 -0.6130 -1.0887 0.9882
-2.7236 -0.8783 -1.1231 0.9878
-4.4653 -1.8935 -1.9036 0.9794
-4.3960 -2.3458 -1.9556 0.9788
-4.1597 -3.2849 -2.0802 0.9775
-3.7739 -4.2673 -2.2358 0.9758
-3.5163 -4.7724 -2.3265 0.9748
-1.4068 -7.3392 -2.9329 0.9684
-0.7875 -7.8282 -3.0878 0.9668
-0.0924 -8.2914 -3.2543 0.9650
0.6812 -8.7176 -3.4318 0.9631
2.4635 -9.4030 -3.8149 0.9591
4.5167 -9.7334 -4.2113 0.9549
9.8942 -8.1778 -5.0379 0.9463
10.7665 -7.3908 -5.1253 0.9454
11.4891 -6.4637 -5.1738 0.9449
12.0346 -5.4225 -5.1805 0.9449
12.3846 -4.3004 -5.1453 0.9452
12.5320 -3.1345 -5.0700 0.9460
12.2455 -0.8197 -4.8168 0.9486
11.3142 1.2656 -4.4682 0.9523
9.1808 3.6539 -3.8781 0.9584
8.3773 4.2332 -3.6838 0.9605
7.1017 4.4229 -3.2836 0.9647
6.3387 4.7802 -3.1159 0.9665
4.1609 5.3914 -2.6728 0.9712
3.4909 5.4684 -2.5462 0.9725
2.8538 5.4945 -2.4299 0.9737
-0.6860 4.7035 -1.8655 0.9798
-1.5242 4.5523 -1.8841 0.9796
-1.8805 4.3009 -1.8423 0.9800
-2.2116 4.0358 -1.8062 0.9804
-2.5185 3.7579 -1.7755 0.9807
-2.8022 3.4683 -1.7500 0.9810
-3.0634 3.1676 -1.7295 0.9812
-3.4629 0.9486 -1.4091 0.9847
-2.5634 0.4618 -1.0222 0.9889
-2.5656 -0.2293 -1.0607 0.9889
-2.6211 -0.4722 -1.0967 0.9885
-2.6410 -0.7235 -1.1276 0.9882
-2.6436 -0.9845 -1.1616 0.9879
-4.1891 -2.4812 -2.0049 0.9792
-4.0710 -2.9301 -2.0654 0.9785
-3.7280 -3.8547 -2.2082 0.9771
-3.2218 -4.8073 -2.3830 0.9753
-2.8986 -5.2893 -2.4836 0.9742
-2.0921 -6.2489 -2.7136 0.9719
-1.6008 -6.7173 -2.8435 0.9706
-1.0457 -7.1699 -2.9837 0.9691
1.0278 -8.3450 -3.4623 0.9643
1.8562 -8.6379 -3.6381 0.9625
2.7471 -8.8559 -3.8181 0.9607
3.6902 -8.9795 -3.9977 0.9589
5.6796 -8.8969 -4.3464 0.9554
8.5884 -7.7677 -4.7685 0.9511
11.1269 -4.4284 -4.9314 0.9495
11.4259 -2.3224 -4.8012 0.9508
10.6595 0.7136 -4.3992 0.9548
9.5533 2.3894 -4.0551 0.9583
8.8913 3.0874 -3.8757 0.9601
8.1855 3.6882 -3.6970 0.9619
4.9308 4.8761 -2.8556 0.9704
4.2677 5.0478 -2.7219 0.9718
3.0144 5.2211 -2.4825 0.9743
2.4295 5.2353 -2.3766 0.9753
-0.9052 4.7225 -1.9800 0.9794
-1.2887 4.5068 -1.9302 0.9799
-2.2891 3.7684 -1.8156 0.9811
-2.8404 3.2117 -1.7655 0.9816
-3.3060 2.6107 -1.7346 0.9819
-3.5078 2.2947 -1.7261 0.9820
-3.6895 1.9688 -1.7220 0.9821
-3.8509 1.6329 -1.7224 0.9821
-2.6388 0.5978 -1.1141 0.9884
-2.4504 0.3295 -1.0181 0.9894
-2.5068 0.1118 -1.0333 0.9892
-2.5479 -0.1136 -1.0502 0.9890
-2.6464 -0.8534 -1.1450 0.9880
-4.3071 -1.8264 -1.9264 0.9800
-3.9991 -3.1581 -2.0983 0.9782
-3.8280 -3.6205 -2.1696 0.9775
-3.6178 -4.0907 -2.2487 0.9767
-2.3150 -6.0108 -2.6524 0.9725
-1.3314 -6.9460 -2.9123 0.9699
-0.7432 -7.3879 -3.0575 0.9684
1.4337 -8.4995 -3.5494 0.9634
2.2945 -8.7580 -3.7281 0.9616
3.2127 -8.9299 -3.9079 0.9598
5.1750 -8.9634 -4.2620 0.9562
7.1807 -8.4934 -4.5799 0.9530
8.1359 -8.0458 -4.7117 0.9517
9.7990 -6.7266 -4.8943 0.9499
10.4478 -5.8779 -4.9363 0.9495
10.9425 -4.9305 -4.9422 0.9494
11.4169 -2.8556 -4.8461 0.9504
11.3926 -1.7914 -4.7489 0.9513
11.2057 -0.7501 -4.6246 0.9526
10.4174 1.1654 -4.3165 0.9557
9.2290 2.7505 -3.9655 0.9592
8.5426 3.3999 -3.7860 0.9610
7.8221 3.9527 -3.6089 0.9628
5.9579 4.4930 -3.0728 0.9682
4.5966 4.9698 -2.7876 0.9711
3.9446 5.1112 -2.6586 0.9725
2.1480 5.2269 -2.3270 0.9759
1.0979 5.1092 -2.1519 0.9776
0.6159 5.0002 -2.0746 0.9784
0.1627 4.8651 -2.0045 0.9792
-0.6705 4.5974 -1.9131 0.9801
-1.1002 4.6168 -1.9544 0.9797
-1.8161 4.1535 -1.8667 0.9806
-2.1373 3.9000 -1.8313 0.9809
-2.4353 3.6337 -1.8012 0.9813
-3.1974 2.7649 -1.7406 0.9819
-3.6012 2.1330 -1.7235 0.9821
-3.7727 1.8021 -1.7217 0.9821
-3.5070 0.9607 -1.4973 0.9844
-2.5181 0.4537 -1.0536 0.9890
-2.4893 -0.0000 -1.0738 0.9892
-2.5221 -0.2254 -1.0923 0.9890
-2.5688 -0.9566 -1.1824 0.9881
-4.1252 -1.9704 -1.9720 0.9803
-3.9200 -2.8214 -2.0834 0.9792
-3.5805 -3.7022 -2.2217 0.9778
-2.7703 -5.0551 -2.4865 0.9752
-1.9913 -5.9479 -2.7056 0.9730
-1.5202 -6.3790 -2.8287 0.9718
-0.4003 -7.1791 -3.1016 0.9692
0.2518 -7.5316 -3.2506 0.9677
3.4346 -8.3576 -3.8977 0.9614
4.3365 -8.3493 -4.0583 0.9598
5.2545 -8.2310 -4.2123 0.9584
6.1684 -7.9926 -4.3550 0.9570
7.0549 -7.6277 -4.4818 0.9557
7.8882 -7.1345 -4.5879 0.9547
8.6418 -6.5171 -4.6689 0.9539
9.2906 -5.7862 -4.7212 0.9534
10.1914 -4.0561 -4.7315 0.9533
10.4885 -2.1319 -4.6168 0.9544
10.4098 -1.1645 -4.5183 0.9554
9.8526 0.6595 -4.2595 0.9579
9.4094 1.4795 -4.1087 0.9594
8.8828 2.2217 -3.9497 0.9609
8.2930 2.8796 -3.7868 0.9625
7.6585 3.4507 -3.6234 0.9641
6.2618 4.2985 -3.2763 0.9675
4.0492 4.7895 -2.7054 0.9730
2.3202 4.9998 -2.3776 0.9763
1.7930 4.9838 -2.2847 0.9772
0.7359 4.3628 -1.9085 0.9809
0.3707 4.7432 -2.0523 0.9795
-0.4503 4.4763 -1.9406 0.9806
-0.8730 4.5546 -2.0004 0.9800
-1.2440 4.3505 -1.9519 0.9805
-1.5906 4.1300 -1.9091 0.9809
-2.4928 3.3833 -1.8128 0.9819
-3.2026 2.5290 -1.7603 0.9824
-2.5715 0.5826 -1.1373 0.9886
-2.4106 0.3242 -1.0492 0.9895
-2.5277 -0.3399 -1.1001 0.9890
-2.5465 -0.5770 -1.1263 0.9887
-2.6695 -1.1320 -1.2508 0.9874
-4.0854 -2.1801 -1.9975 0.9800
-3.6791 -3.4797 -2.1844 0.9782
-3.2247 -4.3766 -2.3450 0.9766
-2.2059 -5.7275 -2.6475 0.9736
-1.7629 -6.1653 -2.7660 0.9725
-1.2628 -6.5882 -2.8936 0.9712
-0.0820 -7.3603 -3.1751 0.9684
0.6010 -7.6915 -3.3279 0.9669
2.9948 -8.3243 -3.8161 0.9622
4.7947 -8.3046 -4.1364 0.9591
5.7133 -8.1273 -4.2853 0.9576
6.6166 -7.8262 -4.4207 0.9563
7.4799 -7.3970 -4.5378 0.9552
8.2766 -6.8408 -4.6318 0.9543
8.9808 -6.1650 -4.6989 0.9537
9.5686 -5.3832 -4.7358 0.9533
10.3238 -3.5848 -4.7141 0.9535
10.4722 -2.6193 -4.6564 0.9541
10.3175 -0.6907 -4.4605 0.9560
10.0367 0.2237 -4.3305 0.9572
9.6427 1.0787 -4.1854 0.9586
8.5946 2.5615 -3.8685 0.9617
7.3297 3.7039 -3.5425 0.9649
6.6586 4.1470 -3.3837 0.9664
4.3559 4.7096 -2.7672 0.9724
3.7472 4.8553 -2.6456 0.9736
3.1587 4.9480 -2.5322 0.9748
2.5934 4.9933 -2.4271 0.9758
1.5408 4.9669 -2.2433 0.9776
0.1564 4.6784 -2.0192 0.9798
-0.2527 4.5321 -1.9580 0.9804
-0.6676 4.5775 -1.9955 0.9800
-1.0616 4.4547 -1.9754 0.9802
-1.4203 4.2422 -1.9298 0.9807
-2.8708 2.9684 -1.7813 0.9822
-3.4892 2.0667 -1.7493 0.9825
-3.8021 1.4159 -1.7501 0.9825
-3.9287 1.0762 -1.7571 0.9824
-2.4593 -0.4431 -1.1275 0.9891
-2.4890 -0.9270 -1.1984 0.9884
-3.9833 -1.9027 -1.9918 0.9808
-3.2198 -3.9852 -2.3118 0.9778
-1.8986 -5.6708 -2.6983 0.9741
-0.9403 -6.4472 -2.9398 0.9718
-0.3791 -6.7983 -3.0723 0.9706
0.2378 -7.1139 -3.2117 0.9692
1.6330 -7.5991 -3.5071 0.9665
2.4030 -7.7466 -3.6597 0.9650
3.2091 -7.8090 -3.8095 0.9636
7.2856 -6.5895 -4.4326 0.9578
8.5619 -5.3324 -4.5513 0.9567
9.6056 -2.8627 -4.5226 0.9570
9.1501 0.6125 -4.1379 0.9606
8.2924 2.0740 -3.8569 0.9632
7.7630 2.6956 -3.7080 0.9646
7.1889 3.2392 -3.5578 0.9660
5.9639 4.0940 -3.2641 0.9688
4.4261 4.3771 -2.8088 0.9731
3.2869 4.6757 -2.5789 0.9752
2.7425 4.7502 -2.4750 0.9762
2.2189 4.7816 -2.3785 0.9771
1.7189 4.7778 -2.2911 0.9780
1.2408 4.7359 -2.2091 0.9787
0.7367 4.3674 -1.9985 0.9808
0.3565 4.5626 -2.0650 0.9801
-0.8426 4.3960 -2.0197 0.9805
-1.2017 4.2027 -1.9723 0.9810
-1.5377 3.9926 -1.9305 0.9814
-2.1432 3.5282 -1.8627 0.9820
-2.4139 3.2762 -1.8362 0.9823
-3.1041 2.4513 -1.7847 0.9828
-3.6173 1.5339 -1.7729 0.9829
-3.7494 1.2090 -1.7776 0.9829
-2.5488 0.5775 -1.1792 0.9886
-2.4105 0.1075 -1.0887 0.9895
-2.4521 -0.3298 -1.1164 0.9892
-2.4671 -0.5590 -1.1414 0.9890
-2.4891 -1.0555 -1.2199 0.9882
-3.9431 -2.1041 -2.0167 0.9806
-3.8406 -2.5125 -2.0708 0.9801
-3.3360 -3.7720 -2.2721 0.9781
-3.0936 -4.1987 -2.3533 0.9774
-2.8097 -4.6254 -2.4419 0.9765
-1.6790 -5.8719 -2.7557 0.9736
-1.2001 -6.2609 -2.8765 0.9724
1.2650 -7.4994 -3.4317 0.9672
2.0126 -7.6820 -3.5832 0.9658
4.4619 -7.7283 -4.0266 0.9616
5.3036 -7.5445 -4.1612 0.9603
6.1283 -7.2486 -4.2829 0.9592
6.9143 -6.8377 -4.3877 0.9582
7.6388 -6.3137 -4.4717 0.9574
8.2795 -5.6836 -4.5314 0.9569
9.3100 0.2074 -4.2019 0.9600
8.9662 1.0030 -4.0709 0.9612
8.5352 1.7348 -3.9300 0.9625
6.8898 3.4816 -3.4832 0.9667
6.2758 3.9086 -3.3360 0.9681
1.9654 4.7825 -2.3331 0.9776
1.4769 4.7610 -2.2492 0.9784
-0.2443 4.3808 -1.9797 0.9809
-0.6542 4.4860 -2.0456 0.9803
-1.0251 4.3016 -1.9953 0.9808
-1.6973 3.8818 -1.9116 0.9816
-1.9999 3.6494 -1.8777 0.9819
-2.5415 3.1457 -1.8248 0.9824
-2.7815 2.8761 -1.8054 0.9826
-3.0015 2.5955 -1.7905 0.9827
-3.8080 1.0431 -1.7816 0.9828
-2.4063 0.4335 -1.1032 0.9893
-2.3816 -0.4291 -1.1407 0.9894
-3.7610 -2.2276 -2.0605 0.9809
-3.6437 -2.6226 -2.1162 0.9803
-3.4949 -3.0222 -2.1780 0.9798
-3.0944 -3.8300 -2.3210 0.9785
-2.5404 -4.6356 -2.4917 0.9769
-2.1995 -5.0304 -2.5879 0.9760
-0.8942 -6.1312 -2.9207 0.9730
-0.3597 -6.4509 -3.0455 0.9718
0.8589 -6.9740 -3.3122 0.9694
1.5384 -7.1590 -3.4516 0.9681
2.2582 -7.2796 -3.5927 0.9669
3.0086 -7.3211 -3.7310 0.9656
4.5572 -7.1387 -3.9922 0.9632
5.3259 -6.9009 -4.1090 0.9622
6.7614 -6.1153 -4.2974 0.9605
8.9421 -1.0003 -4.2414 0.9610
8.7885 -0.1959 -4.1437 0.9619
8.5324 0.5712 -4.0310 0.9629
7.2902 2.5314 -3.6377 0.9664
5.6418 3.8729 -3.2257 0.9702
4.2167 4.1701 -2.7955 0.9741
3.1362 4.4614 -2.5706 0.9762
2.6217 4.5409 -2.4716 0.9771
1.1915 4.5479 -2.2161 0.9794
0.7375 4.3721 -2.0900 0.9806
0.3433 4.3928 -2.0770 0.9807
-0.8139 4.2461 -2.0379 0.9811
-1.7920 3.6465 -1.9152 0.9822
-2.0755 3.4168 -1.8845 0.9825
-3.0101 2.3770 -1.8080 0.9832
-3.5085 1.4877 -1.7964 0.9833
-2.2973 0.3089 -1.0926 0.9898
-2.3488 0.1047 -1.1083 0.9897
-2.3694 -0.1057 -1.1180 0.9896
-2.3800 -0.3201 -1.1319 0.9894
-2.3894 -0.5413 -1.1548 0.9892
-2.3945 -0.7722 -1.1859 0.9889
-3.8085 -2.0323 -2.0348 0.9811
-3.5734 -2.8219 -2.1463 0.9801
-2.9711 -4.0324 -2.3610 0.9781
-2.3755 -4.8340 -2.5389 0.9765
-2.0120 -5.2241 -2.6388 0.9755
-1.6017 -5.6013 -2.7462 0.9746
-1.1425 -5.9604 -2.8608 0.9735
-0.0735 -6.5978 -3.1103 0.9712
0.5361 -6.8605 -3.2437 0.9700
1.1932 -7.0739 -3.3816 0.9688
1.8937 -7.2280 -3.5221 0.9675
2.6302 -7.3109 -3.6624 0.9662
3.3922 -7.3100 -3.7987 0.9650
4.1684 -7.2198 -3.9297 0.9638
4.9438 -7.0326 -4.0521 0.9627
5.7011 -6.7433 -4.1624 0.9617
7.0846 -5.8556 -4.3326 0.9602
7.6714 -5.2661 -4.3861 0.9597
8.1641 -4.5930 -4.4156 0.9594
8.8145 -3.0607 -4.3983 0.9596
8.9572 -2.2404 -4.3523 0.9600
8.6725 0.1933 -4.0890 0.9624
7.9861 1.6233 -3.8415 0.9646
7.5357 2.2459 -3.7065 0.9658
6.4941 3.2816 -3.4298 0.9683
4.6280 4.1858 -2.9415 0.9728
2.8769 4.5066 -2.5203 0.9766
2.3709 4.5647 -2.4246 0.9775
1.8836 4.5834 -2.3358 0.9783
1.4172 4.5687 -2.2548 0.9791
-0.2429 4.3573 -2.0571 0.9809
-0.9905 4.1565 -2.0141 0.9813
-1.3273 3.9643 -1.9706 0.9817
-1.6424 3.7561 -1.9324 0.9820
-2.2097 3.2971 -1.8709 0.9826
-2.4629 3.0484 -1.8473 0.9828
-3.6929 1.0116 -1.8049 0.9832
-2.3515 0.4236 -1.1263 0.9895
-2.3242 0.2077 -1.1000 0.9897
-2.2975 -0.0000 -1.1300 0.9898
-2.3094 -0.2064 -1.1404 0.9897
-2.3175 -0.6348 -1.1819 0.9893
-2.3666 -1.1304 -1.2900 0.9884
-3.5168 -2.5312 -2.1312 0.9809
-3.3698 -2.9141 -2.1912 0.9803
-2.9767 -3.6843 -2.3297 0.9791
-2.4369 -4.4468 -2.4940 0.9777
-1.7333 -5.1772 -2.6853 0.9760
-1.3154 -5.5199 -2.7910 0.9750
-0.8518 -5.8405 -2.9031 0.9740
1.4529 -6.7613 -3.4015 0.9696
2.1279 -6.8596 -3.5325 0.9685
3.5462 -6.8277 -3.7842 0.9663
4.2674 -6.6848 -3.9008 0.9653
6.3008 -5.6988 -4.1786 0.9628
7.3778 -4.5950 -4.2750 0.9620
