ply
format ascii 1.0
element vertex 1583
property float32 x
property float32 y
property float32 z
property float32 I
end_header
-5.1984 -2.7740 0.6391 0.9766
-6.0428 -1.6553 0.5744 0.9751
-5.5500 -2.0669 0.5429 0.9765
-5.1840 -3.0705 0.5524 0.9761
-0.4051 4.0269 0.3710 0.9839
-5.2218 -2.7864 0.5426 0.9765
-5.2011 -3.4024 0.5698 0.9753
-0.2240 4.0174 0.3689 0.9840
-6.0866 -1.6673 0.4729 0.9750
-5.3811 -3.8731 0.4969 0.9738
-6.5838 -1.4917 0.5059 0.9733
-5.4348 -2.3045 0.4424 0.9766
-5.2452 -2.7990 0.4455 0.9764
-0.2248 4.0314 0.3026 0.9839
-6.1308 -1.6794 0.3702 0.9749
-5.3616 -2.5611 0.3461 0.9765
-6.6882 -1.5153 0.3994 0.9729
-5.2866 -2.8210 0.3490 0.9763
-5.2782 -3.4528 0.3674 0.9750
-0.2256 4.0455 0.2360 0.9839
-6.2100 -1.7011 0.2677 0.9746
-5.6666 -2.1103 0.2514 0.9761
-5.4011 -2.5799 0.2489 0.9763
-5.3027 -3.1408 0.2563 0.9756
-0.4054 4.0295 0.1684 0.9839
-6.8683 -1.5562 0.2928 0.9722
-5.8885 -1.8988 0.2573 0.9755
-5.5100 -2.3365 0.2488 0.9763
-5.3300 -2.8442 0.2512 0.9761
-6.3020 -1.7263 0.1630 0.9742
-5.7275 -2.1329 0.1524 0.9758
-5.7054 -4.1065 0.1753 0.9723
-13.0810 6.9802 0.3698 0.9424
-5.9572 -1.9209 0.1561 0.9753
-5.5585 -2.3570 0.1506 0.9761
-5.4074 -3.5373 0.1611 0.9745
-12.7916 7.5765 0.3708 0.9422
-13.3732 6.3878 0.3696 0.9424
-13.9720 5.2032 0.3718 0.9421
-14.9342 0.0000 0.1241 0.9420
-5.5060 -2.6300 0.0507 0.9759
-5.4176 -3.2089 0.0523 0.9751
-0.4056 4.0315 0.0337 0.9839
-9.6998 10.9677 0.1217 0.9431
-10.2891 9.7313 0.1177 0.9449
-10.8491 8.5674 0.1149 0.9462
-11.3912 7.4517 0.1131 0.9470
-11.9253 6.3635 0.1123 0.9474
-12.4605 5.2837 0.1125 0.9473
-13.0060 4.1939 0.1136 0.9468
-13.5716 3.0749 0.1157 0.9459
-13.9744 1.8794 0.1172 0.9452
-5.6229 -2.3843 0.0508 0.9759
-5.4832 -3.5870 0.0545 0.9741
-0.2284 4.0959 0.0341 0.9837
-9.3901 11.6222 0.1242 0.9420
-10.5720 9.1419 0.1162 0.9456
-13.7834 2.4832 0.1164 0.9455
-14.2811 1.2761 0.1192 0.9443
-6.5772 -1.8017 -0.0567 0.9731
-5.5713 -2.6612 -0.0513 0.9756
-5.5009 -3.2582 -0.0531 0.9747
-7.5763 12.4723 -0.1213 0.9433
-9.9503 7.8577 -0.1054 0.9505
-10.4608 6.8431 -0.1039 0.9512
-10.9575 5.8471 -0.1032 0.9515
-11.9399 3.8501 -0.1043 0.9511
-12.4404 2.8186 -0.1060 0.9503
-14.5151 -1.9521 -0.1217 0.9431
-6.1291 -1.9764 -0.0535 0.9746
-5.6895 -2.4126 -0.0514 0.9756
-0.2302 4.1271 -0.0344 0.9836
-7.9187 11.8156 -0.1182 0.9447
-9.1399 9.4506 -0.1093 0.9488
-10.7104 6.3437 -0.1035 0.9514
-11.2031 5.3512 -0.1032 0.9515
-12.1885 3.3388 -0.1050 0.9507
-13.0581 1.1669 -0.1090 0.9489
-12.9886 -1.1607 -0.3252 0.9492
-6.8670 -1.8811 -0.1776 0.9719
-5.9671 -2.2222 -0.1588 0.9748
-5.6530 -2.7002 -0.1562 0.9752
-6.9166 11.3863 -0.3322 0.9481
-8.1417 9.2060 -0.3065 0.9520
-8.6820 8.2114 -0.2980 0.9533
-9.6707 6.3262 -0.2882 0.9548
-10.5876 4.4895 -0.2868 0.9550
-11.0350 3.5583 -0.2892 0.9547
-11.4830 2.6017 -0.2936 0.9540
-11.8426 1.5927 -0.2980 0.9533
-12.2592 0.5466 -0.3060 0.9521
-5.7794 -2.4507 -0.1566 0.9752
-5.5857 -2.9806 -0.1579 0.9750
-5.7734 -3.7768 -0.1720 0.9728
-6.5696 11.9880 -0.3409 0.9468
-7.2452 10.8105 -0.3245 0.9493
-8.9390 7.7299 -0.2947 0.9538
-9.4324 6.7890 -0.2898 0.9546
-10.3622 4.9496 -0.2864 0.9551
-11.5518 -0.0000 -0.4803 0.9548
-11.9680 -1.0695 -0.4996 0.9530
-12.4024 -2.2344 -0.5240 0.9508
-6.0754 -2.2625 -0.2696 0.9744
-5.7641 -2.7533 -0.2656 0.9748
-5.7521 -3.4070 -0.2780 0.9736
-4.9080 12.7434 -0.5678 0.9468
-6.3621 10.4735 -0.5095 0.9521
-6.9762 9.4681 -0.4890 0.9540
-8.5351 6.7401 -0.4522 0.9574
-9.4264 5.0301 -0.4443 0.9581
-9.8468 4.1754 -0.4447 0.9581
-10.2571 3.3075 -0.4481 0.9578
-11.7581 -0.5243 -0.4894 0.9540
-12.6289 -2.8614 -0.5384 0.9495
-6.4314 -2.0739 -0.2810 0.9733
-5.8852 -2.4955 -0.2658 0.9747
-4.4816 13.3858 -0.5869 0.9451
-6.0303 11.0040 -0.5217 0.9510
-6.6768 9.9624 -0.4987 0.9531
-7.2621 8.9883 -0.4805 0.9548
-8.7660 6.3093 -0.4491 0.9577
-10.0529 3.7437 -0.4460 0.9580
-10.8636 1.9572 -0.4590 0.9568
-11.1550 0.9969 -0.4656 0.9562
-11.0950 -0.9915 -0.6488 0.9563
-11.8299 -3.2406 -0.7144 0.9520
-6.2542 -2.3291 -0.3887 0.9736
-5.8872 -2.8121 -0.3800 0.9742
-0.4074 4.0496 -0.2371 0.9838
-3.6707 12.8373 -0.7777 0.9479
-4.5051 11.6971 -0.7301 0.9510
-5.8894 9.6952 -0.6607 0.9556
-6.4772 8.7909 -0.6360 0.9572
-7.0133 7.9300 -0.6166 0.9585
-7.9675 6.2918 -0.5913 0.9601
-8.8098 4.7010 -0.5816 0.9608
-9.2021 3.9020 -0.5822 0.9607
-10.5628 0.4710 -0.6158 0.9585
-11.6417 -2.6377 -0.6952 0.9533
-6.7252 -2.1686 -0.4116 0.9721
-6.0227 -2.5538 -0.3810 0.9741
-5.8429 -3.1179 -0.3857 0.9738
-3.2065 13.4549 -0.8056 0.9461
-4.8825 11.1665 -0.7098 0.9523
-6.1904 9.2368 -0.6476 0.9564
-7.7413 6.6942 -0.5961 0.9598
-8.1868 5.8924 -0.5875 0.9604
-8.6073 5.0981 -0.5827 0.9607
-9.0079 4.3027 -0.5814 0.9608
-9.7661 2.6752 -0.5898 0.9602
-10.1311 1.8252 -0.5996 0.9596
-10.4064 0.9299 -0.6085 0.9590
-10.0325 -0.0000 -0.7518 0.9606
-10.6439 -1.9176 -0.8105 0.9575
-6.5258 -2.4302 -0.5218 0.9725
-6.0754 -2.9020 -0.5046 0.9734
-11.8966 -7.0464 -1.0362 0.9460
-0.1625 14.5875 -1.0933 0.9432
-0.4082 4.0570 -0.3056 0.9838
-2.3220 12.1136 -0.9243 0.9517
-3.3750 11.8029 -0.9200 0.9520
-4.1626 10.8080 -0.8679 0.9546
-5.4813 9.0234 -0.7912 0.9585
-6.0440 8.2030 -0.7636 0.9600
-6.5577 7.4148 -0.7418 0.9611
-7.4698 5.8988 -0.7133 0.9625
-7.8807 5.1553 -0.7057 0.9629
-8.2680 4.4119 -0.7023 0.9631
-8.6356 3.6618 -0.7029 0.9631
-9.3250 2.1127 -0.7165 0.9624
-9.6524 1.2981 -0.7299 0.9617
-9.8775 0.4404 -0.7410 0.9611
-10.4917 -1.4110 -0.7933 0.9584
-10.7962 -2.4461 -0.8296 0.9566
-11.1022 -3.5800 -0.8742 0.9543
-6.2027 -2.6302 -0.5049 0.9733
-12.0649 -7.8925 -1.0804 0.9438
-1.8485 12.6745 -0.9599 0.9499
-3.7815 11.2949 -0.8926 0.9533
-5.7694 8.6085 -0.7766 0.9593
-6.7987 7.0299 -0.7329 0.9615
-7.6784 5.5266 -0.7090 0.9628
-9.7750 0.8735 -0.7355 0.9614
-4.4480 -0.0000 -0.4078 0.9823
-10.1880 -2.7908 -0.9684 0.9585
-6.4295 -3.0712 -0.6532 0.9718
-11.1323 -8.0126 -1.2574 0.9464
1.1308 14.4718 -1.3308 0.9434
-0.1475 13.2368 -1.2136 0.9482
-0.4089 4.0645 -0.3745 0.9837
-4.5303 9.2189 -0.9417 0.9596
-5.1252 8.4373 -0.9050 0.9611
-5.6643 7.6876 -0.8754 0.9624
-6.1567 6.9615 -0.8520 0.9634
-7.0296 5.5512 -0.8212 0.9647
-7.4209 4.8545 -0.8130 0.9650
-8.7731 1.9877 -0.8247 0.9645
-10.3110 -3.3249 -0.9932 0.9574
-6.6490 -2.8194 -0.6621 0.9714
-10.7876 -5.7565 -1.1210 0.9521
-11.0187 -7.2081 -1.2071 0.9485
-11.2445 -8.8797 -1.3135 0.9441
0.4625 13.8332 -1.2689 0.9459
-0.7068 12.6767 -1.1640 0.9503
-1.6971 11.6358 -1.0780 0.9539
-3.2926 9.8346 -0.9508 0.9592
-4.8355 8.8235 -0.9224 0.9604
-5.4012 8.0591 -0.8894 0.9618
-6.3877 6.6049 -0.8424 0.9638
-6.8235 5.9005 -0.8270 0.9644
-8.6190 2.3610 -0.8193 0.9647
-4.9080 0.8842 -0.4572 0.9802
-9.7186 -3.6193 -1.1249 0.9591
-10.0620 -5.9597 -1.2685 0.9540
-10.3307 -8.9333 -1.4814 0.9465
2.4102 14.2885 -1.5717 0.9434
1.0263 13.1342 -1.4290 0.9484
-0.1350 12.1120 -1.3138 0.9524
-3.3909 8.8041 -1.0233 0.9628
-4.2427 8.6336 -1.0434 0.9620
-5.8009 6.5592 -0.9498 0.9654
-6.2354 5.8974 -0.9309 0.9661
-7.6855 3.2589 -0.9055 0.9670
-7.9923 2.5772 -0.9109 0.9668
-4.7637 1.0793 -0.5298 0.9805
-3.7518 0.5046 -0.4106 0.9849
-3.9258 -0.1751 -0.4262 0.9843
-9.2075 -1.2383 -1.0077 0.9633
-9.4220 -2.1348 -1.0479 0.9619
-9.6232 -3.1031 -1.0967 0.9601
-9.9824 -5.3267 -1.2273 0.9555
-10.1370 -6.6313 -1.3139 0.9524
-10.2722 -8.1119 -1.4197 0.9487
-1.5682 10.7520 -1.1786 0.9572
-2.3670 9.9322 -1.1075 0.9598
-3.0696 9.1684 -1.0487 0.9618
-3.9356 9.0008 -1.0655 0.9612
-4.5343 8.2741 -1.0234 0.9627
-5.0761 7.5741 -0.9890 0.9640
-5.5698 6.8938 -0.9613 0.9650
-6.4401 5.5690 -0.9235 0.9663
-7.5249 3.5943 -0.9045 0.9670
-7.8412 2.9201 -0.9076 0.9669
-8.1390 2.2295 -0.9153 0.9666
-3.9949 0.7197 -0.4403 0.9838
-9.2281 -4.4079 -1.2816 0.9596
3.6746 14.0258 -1.8170 0.9432
0.9392 12.0192 -1.5108 0.9526
-0.4104 4.0795 -0.5138 0.9836
-1.8447 9.6238 -1.2280 0.9613
-3.1800 8.2568 -1.1088 0.9650
-3.9886 8.1165 -1.1333 0.9642
-4.5334 7.4631 -1.0943 0.9654
-5.0292 6.8257 -1.0625 0.9664
-5.4829 6.1996 -1.0372 0.9672
-5.9000 5.5802 -1.0177 0.9678
-6.2851 4.9633 -1.0036 0.9682
-6.9737 3.7213 -0.9906 0.9686
-7.2828 3.0882 -0.9913 0.9686
-7.5712 2.4414 -0.9969 0.9684
-4.3832 0.9931 -0.5632 0.9820
-8.8555 -2.0064 -1.1379 0.9641
-9.1638 -3.8858 -1.2474 0.9607
-9.2866 -4.9555 -1.3191 0.9585
-9.4520 -7.4642 -1.5093 0.9526
2.8966 13.4795 -1.7278 0.9459
1.5371 12.4801 -1.5758 0.9506
0.3872 11.5801 -1.4520 0.9544
-0.5998 10.7571 -1.3501 0.9575
-2.2087 9.2683 -1.1940 0.9623
-4.2677 7.7875 -1.1128 0.9648
-5.2610 6.5116 -1.0491 0.9668
-5.6957 5.8893 -1.0267 0.9675
-6.0963 5.2716 -1.0100 0.9680
-6.4669 4.6546 -0.9985 0.9684
-6.8109 4.0341 -0.9920 0.9686
-7.1310 3.4062 -0.9903 0.9686
-3.5139 -0.3140 -0.5018 0.9858
-8.4208 -2.3067 -1.2419 0.9653
-8.7470 -6.2957 -1.5329 0.9574
-8.7441 -7.5613 -1.6442 0.9544
3.3329 12.7216 -1.8705 0.9483
0.8654 11.0752 -1.5801 0.9561
-0.1153 10.3439 -1.4714 0.9591
-0.4112 4.0871 -0.5843 0.9835
-2.3948 8.3750 -1.2390 0.9654
-2.9931 7.7715 -1.1845 0.9669
-4.2846 7.0534 -1.1738 0.9672
-5.1968 5.8761 -1.1158 0.9688
-5.9672 4.7123 -1.0815 0.9697
-7.1907 2.3187 -1.0746 0.9699
-4.1432 0.9387 -0.6042 0.9830
-3.3671 0.4528 -0.4832 0.9864
-8.3513 -1.8921 -1.2180 0.9660
-8.4847 -2.7360 -1.2680 0.9646
-8.5950 -3.6446 -1.3279 0.9630
-8.6792 -4.6314 -1.3993 0.9610
-8.7510 -6.9106 -1.5860 0.9559
-8.7253 -8.2523 -1.7082 0.9526
4.0896 13.1837 -1.9634 0.9458
2.6393 12.2822 -1.7869 0.9505
0.3579 10.7033 -1.5232 0.9577
-0.6051 4.1490 -0.5964 0.9832
-2.7021 8.0707 -1.2106 0.9662
-4.9835 6.1681 -1.1279 0.9685
-5.4014 5.5849 -1.1051 0.9691
-6.7749 3.2361 -1.0679 0.9701
-7.0573 2.6282 -1.0712 0.9700
-7.3191 2.0049 -1.0794 0.9698
-3.6717 0.6614 -0.5306 0.9850
-3.2915 -0.0000 -0.5241 0.9868
-7.9566 -2.1796 -1.3137 0.9671
-8.0525 -2.9988 -1.3683 0.9658
-8.1210 -3.8791 -1.4331 0.9642
-8.1584 -4.8323 -1.5099 0.9623
-8.1172 -7.0192 -1.7088 0.9575
-7.8622 -9.7312 -1.9921 0.9506
-7.6192 -11.3686 -2.1793 0.9461
6.1325 13.2151 -2.3199 0.9427
0.8021 10.2651 -1.6396 0.9592
-0.4125 4.1008 -0.6563 0.9834
-2.8261 7.3378 -1.2521 0.9687
-3.3421 6.8008 -1.2066 0.9698
-4.5184 6.1325 -1.2130 0.9696
-4.9380 5.5834 -1.1869 0.9703
-6.0063 3.9292 -1.1429 0.9713
-6.8451 2.2073 -1.1453 0.9713
-3.9745 0.9005 -0.6489 0.9836
-3.2540 0.4376 -0.5228 0.9868
-7.8994 -1.7898 -1.2898 0.9677
-8.0904 -3.4306 -1.3993 0.9650
-8.1639 -5.3406 -1.5534 0.9613
-8.1443 -6.4315 -1.6525 0.9588
-7.9513 -8.9907 -1.9112 0.9525
-7.7525 -10.5217 -2.0811 0.9484
-7.4590 -12.2793 -2.2878 0.9435
3.7244 12.0064 -2.0017 0.9504
2.4230 11.2759 -1.8365 0.9544
1.3046 10.5922 -1.6994 0.9577
-0.5204 9.3320 -1.4883 0.9629
-0.6034 4.1373 -0.6658 0.9832
-1.9467 8.1688 -1.3372 0.9666
-2.5482 7.6111 -1.2781 0.9680
-3.0902 7.0674 -1.2283 0.9692
-3.8158 6.9630 -1.2643 0.9684
-4.2946 6.4080 -1.2284 0.9692
-5.1348 5.3093 -1.1761 0.9705
-5.5047 4.7601 -1.1588 0.9710
-5.8458 4.2075 -1.1469 0.9712
-6.1606 3.6489 -1.1402 0.9714
-6.4512 3.0815 -1.1384 0.9715
-4.5041 1.2338 -0.7436 0.9813
-3.5501 0.6396 -0.5744 0.9855
-3.2454 0.2900 -0.5189 0.9869
-3.1939 -0.0000 -0.5632 0.9871
-3.2817 -0.2933 -0.5809 0.9867
-7.6131 -2.8352 -1.4325 0.9675
-7.6700 -4.5430 -1.5719 0.9644
-6.9770 -10.4105 -2.2098 0.9504
7.3018 12.6471 -2.5750 0.9424
5.5545 11.9697 -2.3268 0.9478
4.0751 11.3271 -2.1226 0.9523
2.8070 10.7143 -1.9530 0.9560
1.7082 10.1272 -1.8109 0.9591
0.7472 9.5619 -1.6912 0.9618
-2.1308 7.4517 -1.3666 0.9690
-2.6758 6.9475 -1.3127 0.9702
-3.1701 6.4511 -1.2674 0.9712
-4.2985 5.8339 -1.2777 0.9710
-4.7025 5.3171 -1.2516 0.9716
-5.4155 4.2765 -1.2167 0.9724
-5.7301 3.7484 -1.2073 0.9726
-3.8238 0.8663 -0.6913 0.9842
-3.2277 -0.1439 -0.5697 0.9870
-3.3508 -0.4506 -0.5961 0.9864
-7.5795 -2.4441 -1.4042 0.9682
-7.6395 -3.2395 -1.4632 0.9669
-7.6685 -4.0921 -1.5326 0.9653
-7.5158 -7.1084 -1.8241 0.9589
-6.3587 -12.9395 -2.5422 0.9431
2.2387 10.4178 -1.8789 0.9576
0.3105 9.2865 -1.6384 0.9630
-1.8368 7.7073 -1.3971 0.9683
-2.9287 6.6982 -1.2890 0.9707
-4.5048 5.5756 -1.2639 0.9713
-5.2482 4.5382 -1.2234 0.9722
-5.5760 4.0134 -1.2114 0.9725
-6.1555 2.9402 -1.2029 0.9727
-6.4104 2.3872 -1.2062 0.9726
-3.4372 0.6192 -0.6158 0.9859
-3.1775 -0.2840 -0.6174 0.9871
-3.3118 -0.5966 -0.6512 0.9864
-7.2429 -3.4596 -1.5533 0.9678
-7.0919 -6.1326 -1.8144 0.9625
-6.9428 -7.1788 -1.9326 0.9601
-6.4319 -9.5970 -2.2357 0.9540
-6.0366 -11.0154 -2.4308 0.9501
-5.5154 -12.6139 -2.6642 0.9455
8.4083 11.9610 -2.8294 0.9422
5.0736 10.9333 -2.3325 0.9521
2.6001 9.9246 -1.9854 0.9591
1.5909 9.4314 -1.8509 0.9618
0.6990 8.9456 -1.7364 0.9641
-2.0183 7.0586 -1.4207 0.9705
-3.0142 6.1338 -1.3226 0.9725
-3.6735 6.0473 -1.3693 0.9716
-4.0978 5.5616 -1.3369 0.9722
-4.4872 5.0738 -1.3108 0.9728
-4.8451 4.5825 -1.2906 0.9732
-5.1742 4.0860 -1.2759 0.9735
-6.2403 2.0122 -1.2688 0.9736
-3.6833 0.8345 -0.7309 0.9847
-3.1048 0.4175 -0.6062 0.9873
-3.0751 0.1371 -0.5957 0.9875
-3.1273 -0.1395 -0.6058 0.9873
-7.2340 -3.0675 -1.5206 0.9685
-7.2156 -4.7202 -1.6686 0.9655
-7.1453 -5.6426 -1.7619 0.9636
-7.0248 -6.6441 -1.8711 0.9614
-6.8443 -7.7390 -1.9993 0.9588
-5.1970 -13.4936 -2.7982 0.9428
5.8116 11.1893 -2.4400 0.9499
4.3884 10.6786 -2.2342 0.9541
3.1561 10.1742 -2.0614 0.9575
1.1316 9.1875 -1.7914 0.9630
-0.4589 8.2301 -1.5951 0.9670
-1.7378 7.2922 -1.4507 0.9699
-2.2854 6.8260 -1.3930 0.9711
-2.7824 6.3634 -1.3440 0.9721
-4.2967 5.3180 -1.3231 0.9725
-4.6699 4.8287 -1.3000 0.9730
-5.0131 4.3350 -1.2825 0.9734
-5.3286 3.8353 -1.2705 0.9736
-5.6185 3.3278 -1.2637 0.9737
-5.8843 2.8107 -1.2620 0.9738
-4.1641 1.1406 -0.8355 0.9826
-3.3306 0.6000 -0.6549 0.9863
-3.0639 0.2738 -0.5953 0.9875
-3.0994 -0.2770 -0.6560 0.9874
-3.2303 -0.5820 -0.6920 0.9867
-6.8167 -1.8673 -1.4900 0.9715
-6.8579 -2.5539 -1.5428 0.9705
-6.6669 -5.7651 -1.8581 0.9646
-6.5013 -6.7223 -1.9716 0.9625
-6.2712 -7.7620 -2.1037 0.9600
-5.5612 -10.1478 -2.4395 0.9538
-5.0428 -11.5330 -2.6536 0.9498
-4.3791 -13.0797 -2.9079 0.9452
9.4307 11.1546 -3.0794 0.9420
6.0321 10.4478 -2.5434 0.9519
-0.0889 7.9785 -1.6821 0.9679
-0.4171 4.1464 -0.8786 0.9831
-1.3670 7.1316 -1.5308 0.9708
-2.4161 6.2732 -1.4172 0.9729
-3.5048 5.7697 -1.4232 0.9728
-3.9140 5.3120 -1.3910 0.9734
-4.2896 4.8503 -1.3651 0.9739
-4.6349 4.3836 -1.3449 0.9743
-4.9521 3.9106 -1.3303 0.9745
-5.5099 2.9402 -1.3166 0.9748
-5.7532 2.4395 -1.3174 0.9748
-3.5520 0.8048 -0.7678 0.9852
-3.0505 -0.1360 -0.6438 0.9876
-3.1546 -0.4243 -0.6710 0.9871
-6.8603 -3.6608 -1.6393 0.9687
-6.5915 -6.2342 -1.9127 0.9636
-6.1280 -8.3170 -2.1779 0.9586
-4.7312 -12.2843 -2.7752 0.9476
-3.9813 -13.9235 -3.0530 0.9425
8.4825 10.9910 -2.9269 0.9448
4.0503 9.8559 -2.2464 0.9574
2.9303 9.4466 -2.0852 0.9604
0.2738 8.1897 -1.7275 0.9671
-0.4331 7.7672 -1.6400 0.9687
-0.6017 4.1257 -0.8790 0.9831
-2.1721 6.4877 -1.4424 0.9724
-4.7969 4.1480 -1.3369 0.9744
-5.1009 3.6713 -1.3249 0.9746
-4.0001 1.0957 -0.8744 0.9832
-6.5307 -2.4321 -1.5906 0.9718
-6.5279 -3.1181 -1.6512 0.9708
-6.4897 -3.8439 -1.7216 0.9695
-6.4116 -4.6148 -1.8030 0.9681
-6.1101 -6.3178 -2.0060 0.9646
-5.8701 -7.2655 -2.1319 0.9624
-5.5559 -8.2901 -2.2778 0.9599
-4.6424 -10.6173 -2.6449 0.9536
-4.0008 -11.9497 -2.8762 0.9496
8.5241 10.0823 -3.0135 0.9473
5.5450 9.6042 -2.5312 0.9555
-0.0840 7.5405 -1.7212 0.9695
-1.2982 6.7726 -1.5740 0.9721
-2.7418 5.5794 -1.4189 0.9748
-5.0275 3.2888 -1.3712 0.9757
-5.5170 2.3394 -1.3678 0.9757
-2.9625 0.3984 -0.6823 0.9878
-3.0959 -0.4164 -0.7130 0.9873
-6.5201 -2.1025 -1.5636 0.9723
-6.5135 -3.4757 -1.6851 0.9702
-5.9986 -6.7827 -2.0667 0.9635
-5.7231 -7.7675 -2.2022 0.9612
-5.3666 -8.8346 -2.3593 0.9585
-4.3396 -11.2676 -2.7559 0.9517
-2.7241 -14.2114 -3.3027 0.9424
9.4027 10.1661 -3.1607 0.9448
7.7037 9.9820 -2.8779 0.9496
1.8183 8.4617 -1.9754 0.9651
0.2584 7.7286 -1.7650 0.9688
-2.0688 6.1791 -1.4873 0.9736
-2.5271 5.7795 -1.4397 0.9745
-3.1396 5.7290 -1.4911 0.9736
-3.5514 5.2991 -1.4560 0.9742
-4.2777 4.4231 -1.4044 0.9751
-4.5972 3.9753 -1.3872 0.9754
-4.8903 3.5198 -1.3752 0.9756
-5.1586 3.0554 -1.3685 0.9757
-5.6251 2.0948 -1.3700 0.9757
-3.8726 1.0608 -0.9164 0.9837
-3.1659 0.5704 -0.7342 0.9869
-2.9882 -0.2670 -0.7374 0.9877
-3.1004 -0.5586 -0.7743 0.9871
-6.2311 -2.3205 -1.6344 0.9730
-6.2175 -2.9699 -1.6937 0.9720
-6.0802 -4.3763 -1.8414 0.9696
-5.9465 -5.1421 -1.9323 0.9681
-5.7608 -5.9566 -2.0368 0.9664
-5.5147 -6.8257 -2.1569 0.9645
-5.1981 -7.7560 -2.2950 0.9623
-3.6807 -10.9936 -2.8497 0.9534
-2.9197 -12.2518 -3.0958 0.9494
7.7713 9.1920 -2.9587 0.9516
6.3727 9.0653 -2.7237 0.9554
3.0198 8.3937 -2.1926 0.9639
2.1240 8.1074 -2.0601 0.9661
1.3159 7.8012 -1.9446 0.9679
-0.4204 4.1790 -1.0324 0.9828
-1.7388 6.0808 -1.5546 0.9743
-2.6565 5.4057 -1.4805 0.9755
-3.9389 4.4538 -1.4615 0.9758
-4.2611 4.0301 -1.4416 0.9761
-4.5567 3.5984 -1.4272 0.9764
-4.8274 3.1579 -1.4179 0.9765
-5.4993 1.7733 -1.4203 0.9765
-2.8900 0.3886 -0.7167 0.9881
-2.8978 0.1292 -0.7130 0.9881
-2.9494 -0.1315 -0.7257 0.9879
-3.0390 -0.4087 -0.7537 0.9874
-6.1978 -3.3072 -1.7267 0.9715
-5.6459 -6.3839 -2.0948 0.9655
-5.3660 -7.2827 -2.2235 0.9634
-5.0093 -8.2465 -2.3717 0.9610
-4.5619 -9.2830 -2.5424 0.9583
-4.0059 -10.4011 -2.7397 0.9551
-3.3198 -11.6101 -2.9681 0.9515
-2.4766 -12.9200 -3.2335 0.9473
10.2100 9.2344 -3.3838 0.9449
8.5355 9.2286 -3.0899 0.9495
7.0514 9.1368 -2.8369 0.9536
4.5565 8.7727 -2.4298 0.9601
2.5602 8.2534 -2.1240 0.9650
0.2445 7.3137 -1.7987 0.9703
-1.4928 6.2639 -1.5828 0.9738
-1.9741 5.8963 -1.5284 0.9747
-3.0041 5.4819 -1.5365 0.9746
-3.4017 5.0757 -1.5019 0.9751
-4.1034 4.2429 -1.4509 0.9760
-4.4121 3.8153 -1.4337 0.9763
-4.9537 2.9340 -1.4152 0.9766
-5.4014 2.0115 -1.4167 0.9765
-3.8036 1.0419 -0.9694 0.9839
-2.8807 0.2574 -0.7109 0.9882
-2.8744 -0.0000 -0.7574 0.9882
-2.9343 -0.2622 -0.7763 0.9879
-5.9466 -1.6290 -1.6247 0.9748
-5.9332 -2.8341 -1.7326 0.9732
-5.8757 -3.4802 -1.7994 0.9721
-5.7790 -4.1595 -1.8762 0.9710
-5.6382 -4.8755 -1.9641 0.9696
-4.4864 -8.1866 -2.4599 0.9621
-3.4060 -10.1733 -2.8269 0.9566
-2.6846 -11.2649 -3.0514 0.9532
-1.8117 -12.4223 -3.3079 0.9494
11.7551 8.0694 -3.7571 0.9427
8.5189 8.4245 -3.1570 0.9516
4.7662 8.2554 -2.5118 0.9613
3.7513 8.0839 -2.3483 0.9638
2.8329 7.8741 -2.2050 0.9660
2.0000 7.6341 -2.0795 0.9679
1.2432 7.3699 -1.9694 0.9696
0.5537 7.0863 -1.8729 0.9710
-1.1781 6.1462 -1.6490 0.9744
-2.1038 5.4623 -1.5424 0.9761
-2.6116 5.3145 -1.5603 0.9758
-3.0749 5.0620 -1.5607 0.9758
-3.4434 4.6734 -1.5296 0.9763
-4.3798 3.4587 -1.4705 0.9772
-4.6411 3.0360 -1.4614 0.9773
-4.8789 2.6034 -1.4572 0.9774
-5.0940 2.1600 -1.4579 0.9774
-5.2867 1.7047 -1.4637 0.9773
-3.2212 0.7298 -0.8703 0.9864
-2.9007 -0.1294 -0.7651 0.9881
-2.9836 -0.4013 -0.7933 0.9876
-3.0953 -0.7013 -0.8363 0.9870
-5.9090 -3.1532 -1.7648 0.9727
-5.8325 -3.8155 -1.8365 0.9716
-5.7145 -4.5127 -1.9187 0.9703
-5.5492 -5.2484 -2.0126 0.9689
-5.3299 -6.0267 -2.1200 0.9673
-5.0483 -6.8516 -2.2425 0.9654
-4.6943 -7.7278 -2.3825 0.9633
-2.2689 -11.8368 -3.1758 0.9514
-1.3100 -13.0220 -3.4486 0.9473
10.8828 8.2071 -3.5917 0.9452
7.8095 8.4435 -3.0306 0.9535
6.4968 8.4181 -2.8020 0.9570
4.2460 8.1750 -2.4273 0.9626
2.4064 7.7575 -2.1402 0.9670
0.8905 7.2303 -1.9196 0.9703
-1.4247 5.9783 -1.6194 0.9749
-1.8870 5.6362 -1.5662 0.9757
-2.8790 5.2534 -1.5785 0.9755
-3.2630 4.8687 -1.5444 0.9760
-3.9416 4.0755 -1.4940 0.9768
-4.2400 3.6665 -1.4770 0.9771
-4.5134 3.2486 -1.4653 0.9773
-4.9892 2.3832 -1.4569 0.9774
-3.0018 0.5408 -0.8037 0.9875
-2.8348 0.2533 -0.7499 0.9883
-2.8819 -0.2575 -0.8141 0.9880
-2.9786 -0.5366 -0.8515 0.9875
-5.7000 -1.5614 -1.6628 0.9757
-5.6715 -2.7091 -1.7684 0.9742
-5.6070 -3.3210 -1.8335 0.9733
-5.5040 -3.9616 -1.9080 0.9722
-5.1630 -5.3385 -2.0895 0.9696
-4.5982 -6.8609 -2.3238 0.9663
-4.2106 -7.6833 -2.4651 0.9642
-3.7382 -8.5495 -2.6253 0.9620
-3.1676 -9.4610 -2.8071 0.9594
-2.4828 -10.4183 -3.0133 0.9565
10.6248 7.2935 -3.6259 0.9479
6.5923 7.7974 -2.8728 0.9585
5.4718 7.7838 -2.6770 0.9612
2.6664 7.4114 -2.2161 0.9678
1.8888 7.2096 -2.0969 0.9695
1.1775 6.9808 -1.9918 0.9710
-0.4275 4.2492 -1.2016 0.9824
-2.5655 5.2205 -1.6366 0.9761
-3.3086 4.4905 -1.5693 0.9771
-3.9383 3.7247 -1.5251 0.9777
-4.2147 3.3283 -1.5110 0.9779
-4.6966 2.5062 -1.4978 0.9781
-4.9035 2.0793 -1.4985 0.9781
-2.7751 0.3732 -0.7878 0.9884
-3.0353 -0.6877 -0.8756 0.9872
-3.2049 -1.0335 -0.9474 0.9861
-5.5606 -3.6376 -1.8695 0.9728
-5.4367 -4.2933 -1.9491 0.9716
-5.2669 -4.9815 -2.0397 0.9703
-5.0451 -5.7046 -2.1427 0.9689
-4.7638 -6.4655 -2.2596 0.9672
-4.4142 -7.2668 -2.3922 0.9653
-3.9858 -8.1108 -2.5427 0.9631
-2.8405 -9.9340 -2.9070 0.9580
-0.1445 -12.9702 -3.6495 0.9475
1.0968 -14.0359 -3.9611 0.9432
6.0192 7.7993 -2.7719 0.9599
3.0823 7.5002 -2.2815 0.9669
2.2689 7.3142 -2.1547 0.9687
1.5253 7.0982 -2.0427 0.9703
0.2206 6.5970 -1.8571 0.9729
-0.6024 4.1302 -1.1743 0.9828
-1.3620 5.7152 -1.6530 0.9759
-1.8066 5.3960 -1.6010 0.9766
-2.2159 5.0678 -1.5562 0.9773
-3.1341 4.6763 -1.5839 0.9769
-3.4761 4.3023 -1.5562 0.9773
-3.7907 3.9195 -1.5342 0.9776
-4.8028 2.2941 -1.4976 0.9781
-4.9987 1.8615 -1.5008 0.9781
-3.6502 0.9999 -1.0648 0.9844
-2.7884 0.2491 -0.7877 0.9884
-5.4659 -2.0355 -1.7462 0.9759
-5.3596 -3.1745 -1.8649 0.9743
-4.9050 -5.0717 -2.1123 0.9710
-4.6547 -5.7612 -2.2174 0.9695
-3.5065 -8.0195 -2.6203 0.9641
-2.9585 -8.8366 -2.7898 0.9618
-1.5392 -10.5536 -3.1930 0.9564
-0.6376 -11.4349 -3.4287 0.9533
0.4120 -12.3219 -3.6910 0.9498
3.0177 -14.0432 -4.3002 0.9418
12.4784 5.6225 -4.0975 0.9445
9.6847 6.6482 -3.5168 0.9521
7.2217 7.1416 -3.0407 0.9585
6.1216 7.2406 -2.8386 0.9612
4.1702 7.2230 -2.4970 0.9658
3.3091 7.1310 -2.3536 0.9677
0.5004 6.4042 -1.9231 0.9735
-0.0686 6.1607 -1.8445 0.9746
-1.9334 5.0200 -1.6105 0.9778
-3.1828 4.3197 -1.6064 0.9778
-3.7926 3.5870 -1.5628 0.9784
-4.0602 3.2063 -1.5489 0.9786
-4.3044 2.8158 -1.5399 0.9788
-4.5259 2.4151 -1.5358 0.9788
-4.9026 1.5809 -1.5422 0.9787
-5.4519 -2.3118 -1.7729 0.9756
-5.3107 -3.4741 -1.8999 0.9739
-5.1824 -4.0925 -1.9770 0.9728
-5.0097 -4.7381 -2.0644 0.9716
-4.5074 -6.1175 -2.2749 0.9688
-4.1635 -6.8540 -2.4009 0.9671
-3.7460 -7.6229 -2.5428 0.9652
-3.2445 -8.4241 -2.7026 0.9630
-1.1059 -10.9928 -3.3076 0.9549
10.3545 6.4488 -3.6520 0.9503
9.0361 6.8144 -3.3883 0.9538
7.8044 7.0587 -3.1504 0.9570
6.6608 7.2016 -2.9368 0.9599
4.6284 7.2503 -2.5752 0.9647
1.4462 6.7304 -2.0609 0.9717
0.8029 6.5187 -1.9663 0.9729
-0.3363 6.0319 -1.8086 0.9751
-0.6032 4.1360 -1.2513 0.9827
-2.1271 4.8648 -1.5896 0.9781
-3.0139 4.4970 -1.6207 0.9776
-3.3450 4.1401 -1.5935 0.9780
-3.6497 3.7737 -1.5717 0.9783
-3.9294 3.3979 -1.5552 0.9785
-4.1852 3.0123 -1.5438 0.9787
-4.4179 2.6167 -1.5372 0.9788
-4.8167 1.7937 -1.5388 0.9788
-3.5598 0.9751 -1.1050 0.9847
-2.7412 0.2449 -0.8239 0.9886
-2.7827 -0.2487 -0.8873 0.9883
-2.9540 -0.8092 -0.9727 0.9872
-5.2057 -2.4866 -1.8322 0.9761
-5.1310 -3.0391 -1.8939 0.9753
-5.0194 -3.6128 -1.9641 0.9744
-4.4205 -5.4713 -2.2339 0.9709
-3.7436 -6.8312 -2.4739 0.9678
-2.7736 -8.2843 -2.7745 0.9640
-2.1543 -9.0399 -2.9513 0.9617
13.8091 3.4539 -4.5207 0.9420
12.5561 4.3599 -4.2212 0.9457
11.3017 5.0923 -3.9368 0.9493
10.0733 5.6671 -3.6706 0.9527
7.7648 6.4178 -3.1993 0.9586
6.7037 6.6294 -2.9942 0.9612
5.7097 6.7535 -2.8086 0.9636
3.1224 6.7287 -2.3558 0.9693
2.3824 6.6219 -2.2350 0.9709
1.6974 6.4789 -2.1271 0.9723
1.0635 6.3053 -2.0307 0.9735
-0.0656 5.8852 -1.8692 0.9756
-0.5675 5.6415 -1.8007 0.9765
-1.0316 5.3817 -1.7403 0.9773
-2.3692 4.8211 -1.7060 0.9777
-3.6560 3.4578 -1.5982 0.9791
-3.9152 3.0918 -1.5844 0.9793
-4.1516 2.7158 -1.5755 0.9794
-4.5578 1.9327 -1.5722 0.9794
-4.7283 1.5246 -1.5778 0.9794
-2.6672 0.3587 -0.8547 0.9888
-2.9205 -0.6617 -0.9510 0.9875
-3.1071 -1.0019 -1.0368 0.9864
-3.9376 -6.4821 -2.4087 0.9687
-3.5314 -7.1862 -2.5429 0.9670
-1.8062 -9.4230 -3.0471 0.9605
-1.0249 -10.1873 -3.2517 0.9579
2.0917 -12.4004 -3.9938 0.9486
3.4189 -13.0499 -4.2843 0.9450
9.4752 5.9012 -3.5451 0.9542
7.2260 6.5355 -3.0943 0.9599
4.3441 6.8050 -2.5640 0.9667
3.5143 6.7662 -2.4214 0.9685
1.3743 6.3957 -2.0776 0.9729
0.2005 5.9983 -1.9060 0.9751
-0.6045 4.1444 -1.3301 0.9826
-1.2503 5.2465 -1.7129 0.9776
-1.6628 4.9664 -1.6633 0.9783
-2.5537 4.6599 -1.6876 0.9779
-4.0363 2.9051 -1.5794 0.9793
-4.6458 1.7301 -1.5744 0.9794
-3.4730 0.9513 -1.1436 0.9850
-2.7749 0.4999 -0.8954 0.9882
-5.0428 -1.8780 -1.8080 0.9775
-4.9189 -2.9135 -1.9208 0.9762
-4.8046 -3.4581 -1.9889 0.9753
-4.6507 -4.0217 -2.0658 0.9744
-4.4530 -4.6044 -2.1521 0.9733
-3.9057 -5.8277 -2.3571 0.9708
-3.5440 -6.4670 -2.4777 0.9694
-3.1144 -7.1228 -2.6119 0.9677
-2.6088 -7.7921 -2.7608 0.9659
-1.3345 -9.1496 -3.1066 0.9617
-0.5474 -9.8172 -3.3035 0.9594
0.3499 -10.4654 -3.5182 0.9568
3.7593 -12.1188 -4.2631 0.9479
5.1339 -12.4927 -4.5379 0.9446
13.4481 2.1146 -4.5738 0.9442
12.4447 3.1126 -4.3100 0.9473
11.3887 3.9546 -4.0505 0.9504
10.3184 4.6492 -3.8025 0.9534
9.2512 5.2047 -3.5664 0.9562
5.3462 6.3235 -2.7822 0.9657
4.4955 6.3949 -2.6263 0.9676
3.6985 6.4059 -2.4852 0.9693
1.0137 6.0103 -2.0479 0.9746
0.4558 5.8323 -1.9655 0.9756
-0.0627 5.6290 -1.8914 0.9765
-0.9897 5.1631 -1.7663 0.9781
-1.4030 4.9066 -1.7146 0.9787
-3.2532 3.6785 -1.6499 0.9795
-3.7789 2.9842 -1.6178 0.9799
-4.0078 2.6218 -1.6091 0.9800
-4.4002 1.8659 -1.6058 0.9800
-2.8654 -0.6492 -0.9871 0.9877
-5.0542 -1.6298 -1.7842 0.9778
-4.9623 -2.6480 -1.8898 0.9765
-4.8665 -3.1835 -1.9538 0.9758
-4.7329 -3.7375 -2.0262 0.9749
-3.3382 -6.7930 -2.5430 0.9686
-1.6891 -8.8118 -3.0145 0.9628
-0.9542 -9.4850 -3.2029 0.9606
0.8422 -10.7777 -3.6321 0.9554
1.9173 -11.3667 -3.8729 0.9525
3.1150 -11.8899 -4.1296 0.9495
12.9554 2.6333 -4.4418 0.9457
11.9210 3.5528 -4.1793 0.9489
10.8517 4.3189 -3.9241 0.9519
9.7827 4.9434 -3.6826 0.9548
8.7263 5.4348 -3.4540 0.9575
7.7027 5.8089 -3.2414 0.9601
6.7224 6.0801 -3.0454 0.9625
5.7918 6.2620 -2.8659 0.9646
4.0903 6.4073 -2.5540 0.9684
3.3198 6.3917 -2.4199 0.9701
1.9314 6.2263 -2.1903 0.9729
-0.3078 5.5192 -1.8572 0.9769
-2.0390 4.6633 -1.7100 0.9788
-2.7961 4.1720 -1.6874 0.9790
-3.1070 3.8456 -1.6611 0.9794
-3.3934 3.5087 -1.6400 0.9796
-3.8961 2.8043 -1.6128 0.9799
-4.1140 2.4367 -1.6065 0.9800
-4.3102 2.0588 -1.6049 0.9800
-4.4850 1.6702 -1.6080 0.9800
-2.7169 0.4895 -0.9275 0.9884
-2.6519 -0.0000 -0.9403 0.9888
-2.6932 -0.2407 -0.9588 0.9886
-2.8417 -0.7785 -1.0448 0.9876
-4.8519 -1.8069 -1.8359 0.9783
-4.7215 -2.7966 -1.9458 0.9770
-4.6053 -3.3147 -2.0120 0.9762
-4.4507 -3.8487 -2.0864 0.9753
-2.9469 -6.7397 -2.6083 0.9693
-2.4610 -7.3506 -2.7486 0.9676
-1.2499 -8.5701 -3.0710 0.9639
-0.5107 -9.1586 -3.2526 0.9618
0.3250 -9.7210 -3.4489 0.9596
1.2615 -10.2427 -3.6594 0.9571
2.3006 -10.7060 -3.8829 0.9546
3.4401 -11.0897 -4.1171 0.9519
4.6724 -11.3696 -4.3587 0.9492
7.3486 -11.5114 -4.8426 0.9437
13.7501 0.9205 -4.8865 0.9432
12.2366 1.9241 -4.3922 0.9488
10.4111 3.6151 -3.9078 0.9543
9.4784 4.2708 -3.6863 0.9568
7.6199 5.2308 -3.2773 0.9615
6.7184 5.5529 -3.0907 0.9637
5.8509 5.7860 -2.9178 0.9657
3.4975 6.0578 -2.4803 0.9707
2.8013 6.0367 -2.3598 0.9722
2.1487 5.9723 -2.2506 0.9734
0.9680 5.7389 -2.0637 0.9756
-0.0601 5.3917 -1.9119 0.9774
-0.5216 5.1846 -1.8477 0.9781
-0.9507 4.9594 -1.7906 0.9788
-2.1975 4.4717 -1.7667 0.9791
-3.4067 3.2220 -1.6627 0.9803
-4.4097 1.4219 -1.6429 0.9805
-4.6680 -3.0537 -1.9779 0.9766
-4.5330 -3.5797 -2.0481 0.9758
-4.1382 -4.6792 -2.2149 0.9738
-3.8695 -5.2518 -2.3131 0.9727
-3.5465 -5.8383 -2.4222 0.9714
-3.1631 -6.4368 -2.5431 0.9700
-2.7132 -7.0445 -2.6767 0.9685
-2.1895 -7.6572 -2.8240 0.9668
-0.8920 -8.8668 -3.1599 0.9629
0.7805 -9.9880 -3.5524 0.9584
1.7682 -10.4829 -3.7696 0.9559
8.0423 -11.4404 -4.9586 0.9424
14.1007 0.3142 -5.0011 0.9419
13.3646 1.4950 -4.7685 0.9445
11.7459 2.3874 -4.2501 0.9504
10.8680 3.2390 -4.0212 0.9530
9.9468 3.9587 -3.7961 0.9556
6.2800 5.6799 -3.0025 0.9647
5.4317 5.8727 -2.8365 0.9666
4.6250 5.9928 -2.6842 0.9684
3.8622 6.0500 -2.5451 0.9700
2.4696 6.0093 -2.3037 0.9728
0.6958 5.6499 -2.0185 0.9761
-1.1536 4.8408 -1.7646 0.9791
-2.0178 4.6148 -1.7859 0.9789
-2.6970 4.0242 -1.7177 0.9797
-2.9986 3.7114 -1.6919 0.9800
-3.7640 2.7091 -1.6444 0.9805
-2.6101 -0.0000 -0.9746 0.9889
-2.6498 -0.2368 -0.9934 0.9887
-2.7171 -0.4895 -1.0309 0.9883
-2.7878 -0.7637 -1.0794 0.9877
-4.6208 -2.2072 -1.9122 0.9784
-4.4198 -3.1812 -2.0334 0.9770
-3.8295 -4.7399 -2.2754 0.9743
-3.1972 -5.8342 -2.4842 0.9720
-2.7948 -6.3919 -2.6050 0.9707
-1.1746 -8.0539 -3.0392 0.9658
1.1720 -9.5160 -3.5802 0.9599
2.1281 -9.9035 -3.7825 0.9577
3.1678 -10.2123 -3.9926 0.9554
9.1033 -9.8424 -5.0062 0.9444
13.5954 -2.7634 -5.1805 0.9425
11.8042 1.8561 -4.4620 0.9503
9.5791 3.3262 -3.7864 0.9576
7.9276 4.4600 -3.3966 0.9619
6.2870 5.1963 -3.0457 0.9658
5.4949 5.4340 -2.8857 0.9675
4.0057 5.6982 -2.6009 0.9707
0.9237 5.4763 -2.0738 0.9766
-0.9141 4.7689 -1.8132 0.9795
-1.2988 4.5422 -1.7641 0.9800
-1.6873 4.3809 -1.7530 0.9802
-2.4484 4.0306 -1.7610 0.9801
-3.0340 3.4306 -1.7101 0.9806
-3.7440 2.4492 -1.6706 0.9811
-4.1112 1.7433 -1.6675 0.9811
-2.5325 0.3406 -0.9542 0.9891
-2.5921 0.1156 -0.9689 0.9890
-2.6307 -0.1173 -0.9833 0.9888
-2.6781 -0.3602 -1.0090 0.9885
-4.4830 -2.9326 -2.0004 0.9774
-4.1727 -3.9465 -2.1446 0.9758
-3.9554 -4.4725 -2.2295 0.9748
-3.0038 -6.1125 -2.5432 0.9713
-1.4922 -7.7845 -2.9597 0.9667
-0.8369 -8.3183 -3.1218 0.9649
-0.0983 -8.8270 -3.2963 0.9630
0.7266 -9.2986 -3.4828 0.9610
1.6393 -9.7184 -3.6802 0.9588
2.6379 -10.0690 -3.8868 0.9565
7.2881 -10.3675 -4.7322 0.9473
10.7717 -8.9030 -5.2183 0.9421
13.5256 -2.1268 -5.1127 0.9432
12.7680 0.2845 -4.7689 0.9469
10.7321 2.1814 -4.0894 0.9543
9.9764 2.9733 -3.8872 0.9565
9.1729 3.6507 -3.6866 0.9587
8.3448 4.2168 -3.4913 0.9609
6.6925 5.0471 -3.1300 0.9648
5.8874 5.3249 -2.9643 0.9667
2.9838 5.7448 -2.4173 0.9727
2.3496 5.7175 -2.3082 0.9740
1.7529 5.6508 -2.2092 0.9751
0.6660 5.4073 -2.0344 0.9770
0.1758 5.2591 -1.9649 0.9778
-0.2831 5.0777 -1.8990 0.9785
-1.1099 4.6575 -1.7879 0.9798
-1.4810 4.4234 -1.7419 0.9803
-1.9453 4.4489 -1.8132 0.9795
-2.2870 4.1732 -1.7770 0.9799
-2.6037 3.8849 -1.7463 0.9802
-2.8963 3.5848 -1.7209 0.9805
-3.6391 2.6193 -1.6743 0.9810
-3.8436 2.2766 -1.6681 0.9811
-4.0272 1.9236 -1.6665 0.9811
-4.1900 1.5603 -1.6695 0.9811
-3.4441 0.9434 -1.3334 0.9849
-2.6096 0.4701 -0.9901 0.9887
-2.5629 0.2290 -0.9608 0.9891
-2.6073 -0.2330 -1.0273 0.9888
-2.7584 -1.0272 -1.1552 0.9874
-4.4502 -2.1257 -1.9356 0.9790
-4.3649 -2.5854 -1.9911 0.9784
-3.6624 -4.5330 -2.2872 0.9753
-3.3794 -5.0424 -2.3823 0.9743
-2.6560 -6.0745 -2.6020 0.9719
1.0934 -8.8782 -3.5108 0.9623
1.9780 -9.2049 -3.6951 0.9604
2.9329 -9.4548 -3.8852 0.9584
6.1066 -9.5658 -4.4541 0.9524
7.2029 -9.3331 -4.6270 0.9506
10.9723 -6.8337 -5.0732 0.9460
12.0279 -4.7870 -5.0808 0.9459
12.3153 -2.5032 -4.9322 0.9474
12.1743 -1.3619 -4.8079 0.9487
10.8344 1.7037 -4.3044 0.9540
9.5480 2.3881 -3.8628 0.9586
8.8620 3.0772 -3.6818 0.9605
8.1368 3.6662 -3.5026 0.9624
6.6405 4.5584 -3.1612 0.9660
5.1734 5.1162 -2.8556 0.9692
4.4720 5.2894 -2.7185 0.9707
1.4007 5.3465 -2.1692 0.9765
0.8845 5.2439 -2.0872 0.9774
0.4002 5.1216 -2.0162 0.9782
-0.0553 4.9653 -1.9489 0.9789
-2.3648 3.8930 -1.7877 0.9806
-2.6604 3.6108 -1.7602 0.9809
-3.4139 2.6959 -1.7073 0.9815
-3.6226 2.3697 -1.6989 0.9816
-3.8106 2.0334 -1.6951 0.9816
-3.9780 1.6868 -1.6958 0.9816
-2.5568 0.5793 -1.0289 0.9888
-2.5490 0.1136 -1.0014 0.9891
-2.7055 -0.6130 -1.0887 0.9882
-2.7236 -0.8783 -1.1231 0.9878
-4.4811 -1.9002 -1.9103 0.9793
-4.4115 -2.3541 -1.9625 0.9787
-4.3101 -2.8195 -2.0214 0.9781
-4.0006 -3.7837 -2.1611 0.9766
-3.5270 -4.7869 -2.3336 0.9748
-1.9574 -6.8456 -2.7944 0.9699
-0.0922 -8.2794 -3.2496 0.9650
0.6791 -8.6913 -3.4215 0.9632
2.4471 -9.3406 -3.7896 0.9594
3.4342 -9.5455 -3.9814 0.9573
4.4767 -9.6470 -4.1740 0.9553
6.6561 -9.4685 -4.5424 0.9515
7.7430 -9.1585 -4.7069 0.9498
8.7864 -8.6890 -4.8498 0.9483
11.3036 -6.3593 -5.0902 0.9458
11.8336 -5.3320 -5.0940 0.9458
12.2672 -1.9289 -4.8737 0.9480
12.0390 -0.8059 -4.7355 0.9495
9.2112 2.7452 -3.7723 0.9595
8.5030 3.3841 -3.5918 0.9614
7.0156 4.3694 -3.2438 0.9651
4.1299 5.3512 -2.6529 0.9714
3.4681 5.4327 -2.5296 0.9727
2.8376 5.4635 -2.4162 0.9739
1.6708 5.3862 -2.2133 0.9761
1.1387 5.2989 -2.1271 0.9770
0.6382 5.1820 -2.0492 0.9778
0.1687 5.0463 -1.9817 0.9785
-2.7997 3.4652 -1.7484 0.9810
-3.0615 3.1656 -1.7284 0.9813
-3.5208 2.5341 -1.7025 0.9815
-3.4630 0.9486 -1.4092 0.9847
-2.5634 0.4618 -1.0222 0.9889
-2.5207 0.2252 -0.9932 0.9892
-2.5656 -0.2293 -1.0607 0.9889
-2.6410 -0.7235 -1.1276 0.9882
-2.6436 -0.9845 -1.1616 0.9879
-4.2031 -2.4895 -2.0116 0.9791
-3.9308 -3.3991 -2.1399 0.9778
-3.7395 -3.8667 -2.2150 0.9770
-3.5073 -4.3410 -2.2981 0.9761
-3.2306 -4.8204 -2.3895 0.9752
-2.5288 -5.7835 -2.5993 0.9731
-2.0958 -6.2599 -2.7183 0.9718
-1.6029 -6.7262 -2.8473 0.9705
-0.4234 -7.5927 -3.1314 0.9676
0.2667 -7.9767 -3.2865 0.9661
1.0239 -8.3137 -3.4493 0.9644
1.8461 -8.5909 -3.6183 0.9627
3.6607 -8.9078 -3.9657 0.9592
7.5721 -8.1868 -4.5921 0.9529
8.4756 -7.6657 -4.7058 0.9518
10.5513 -5.3318 -4.8681 0.9501
11.2428 -2.2852 -4.7242 0.9516
11.1385 -1.2460 -4.6152 0.9527
10.8838 -0.2426 -4.4829 0.9540
10.4975 0.7027 -4.3324 0.9555
10.0018 1.5727 -4.1691 0.9571
9.3424 2.3367 -3.9655 0.9592
7.5892 3.4195 -3.4277 0.9646
6.2345 4.2798 -3.1140 0.9678
5.5536 4.5902 -2.9669 0.9693
4.8830 4.8289 -2.8279 0.9707
3.5980 5.1182 -2.5763 0.9733
2.4128 5.1995 -2.3603 0.9755
1.3408 5.1179 -2.1786 0.9774
0.8481 5.0278 -2.0996 0.9782
0.3842 4.9165 -2.0307 0.9789
-0.4635 4.6075 -1.9069 0.9802
-0.8154 4.2540 -1.7836 0.9814
-1.9761 4.0213 -1.8450 0.9808
-2.2858 3.7629 -1.8130 0.9811
-2.8380 3.2089 -1.7640 0.9816
-3.0818 2.9147 -1.7467 0.9818
-3.3048 2.6097 -1.7340 0.9819
-3.5073 2.2944 -1.7258 0.9820
-3.6896 1.9688 -1.7221 0.9821
-3.8517 1.6333 -1.7228 0.9821
-2.5479 -0.1136 -1.0502 0.9890
-2.5854 -0.3477 -1.0742 0.9888
-2.6300 -0.5959 -1.1104 0.9884
-2.6464 -0.8534 -1.1450 0.9880
-2.7240 -5.5432 -2.5433 0.9736
-2.3196 -6.0226 -2.6576 0.9725
-1.8571 -6.4947 -2.7816 0.9712
-1.3329 -6.9534 -2.9154 0.9698
-0.0868 -7.7898 -3.2079 0.9669
0.6370 -8.1518 -3.3670 0.9652
2.2800 -8.7027 -3.7045 0.9618
4.1422 -8.9264 -4.0522 0.9583
5.1255 -8.8777 -4.2212 0.9566
7.0970 -8.3943 -4.5264 0.9536
8.0329 -7.9439 -4.6521 0.9523
8.8964 -7.3531 -4.7527 0.9513
9.6580 -6.6298 -4.8238 0.9506
10.7723 -4.8538 -4.8653 0.9502
11.0888 -3.8504 -4.8336 0.9505
11.2339 -2.8098 -4.7684 0.9511
11.0289 -0.7383 -4.5517 0.9533
10.7058 0.2386 -4.4095 0.9547
10.2619 1.1480 -4.2520 0.9563
8.5471 2.5473 -3.6725 0.9622
7.9173 3.1510 -3.5089 0.9638
6.5762 4.0957 -3.1902 0.9670
5.2166 4.7181 -2.8964 0.9700
4.5538 4.9235 -2.7617 0.9714
2.1340 5.1927 -2.3118 0.9760
1.5980 5.1513 -2.2209 0.9769
1.0909 5.0765 -2.1381 0.9778
0.6124 4.9721 -2.0629 0.9786
-0.2617 4.6928 -1.9354 0.9799
-1.4005 4.1832 -1.8166 0.9811
-2.9625 3.0632 -1.7548 0.9817
-3.1959 2.7635 -1.7398 0.9819
-3.6010 2.1328 -1.7234 0.9821
-3.9252 1.4618 -1.7248 0.9820
-2.4793 0.2215 -1.0250 0.9893
-2.5221 -0.2254 -1.0923 0.9890
-2.5389 -0.4574 -1.1128 0.9888
-4.1383 -1.9767 -1.9783 0.9802
-3.7797 -3.2685 -2.1555 0.9785
-3.5909 -3.7130 -2.2281 0.9777
-3.3629 -4.1623 -2.3082 0.9770
-3.0926 -4.6144 -2.3961 0.9761
-2.7766 -5.0666 -2.4922 0.9751
-1.5220 -6.3864 -2.8320 0.9718
-0.9909 -6.7943 -2.9618 0.9705
-0.4000 -7.1730 -3.0989 0.9692
1.7291 -8.0468 -3.5503 0.9648
2.5474 -8.2121 -3.7089 0.9632
4.2989 -8.2770 -4.0232 0.9602
5.2039 -8.1517 -4.1717 0.9587
6.1030 -7.9079 -4.3089 0.9574
7.7904 -7.0461 -4.5311 0.9553
9.6715 -4.8872 -4.6743 0.9539
10.2614 -3.0582 -4.6187 0.9544
10.3307 -2.0998 -4.5474 0.9551
10.0425 -0.2238 -4.3330 0.9572
7.1045 3.2012 -3.3613 0.9666
6.4945 3.6537 -3.2143 0.9681
5.2440 4.3342 -2.9347 0.9708
4.6229 4.5716 -2.8045 0.9721
2.8519 4.9396 -2.4604 0.9755
2.3045 4.9661 -2.3616 0.9764
-0.0512 4.5925 -1.9811 0.9802
-0.4465 4.4383 -1.9242 0.9808
-1.5871 4.1209 -1.9049 0.9809
-2.7474 3.1065 -1.7889 0.9821
-3.2010 2.5278 -1.7594 0.9824
-3.3977 2.2226 -1.7514 0.9825
-3.5745 1.9074 -1.7477 0.9825
-3.8687 1.2475 -1.7534 0.9824
-2.5077 -0.1118 -1.0828 0.9891
-2.5277 -0.3400 -1.1001 0.9890
-2.5465 -0.5770 -1.1263 0.9887
-2.5665 -0.8276 -1.1632 0.9883
-2.6695 -1.1320 -1.2508 0.9874
-4.0984 -2.1869 -2.0038 0.9800
-3.9956 -2.6138 -2.0596 0.9794
-3.6900 -3.4900 -2.1909 0.9781
-3.4820 -3.9372 -2.2672 0.9774
-2.9405 -4.8407 -2.4431 0.9756
-2.6005 -5.2918 -2.5434 0.9746
-2.2099 -5.7377 -2.6522 0.9736
-1.2640 -6.5941 -2.8962 0.9712
-0.7030 -6.9876 -3.0294 0.9699
0.5993 -7.6693 -3.3183 0.9670
1.3387 -7.9366 -3.4719 0.9655
2.1324 -8.1392 -3.6294 0.9640
4.7508 -8.2286 -4.0986 0.9595
5.6555 -8.0451 -4.2420 0.9581
6.5434 -7.7396 -4.3718 0.9568
8.1707 -6.7533 -4.5725 0.9549
9.4334 -5.3071 -4.6689 0.9539
9.8745 -4.4492 -4.6718 0.9539
10.1701 -3.5314 -4.6439 0.9542
10.3101 -1.6212 -4.5020 0.9556
10.1643 -0.6804 -4.3943 0.9566
7.4004 2.9453 -3.4358 0.9659
6.8019 3.4372 -3.2874 0.9673
6.1836 3.8511 -3.1423 0.9688
4.3166 4.6670 -2.7422 0.9727
3.7159 4.8148 -2.6235 0.9739
3.1344 4.9100 -2.5127 0.9749
1.5303 4.9333 -2.2280 0.9778
0.5882 4.7761 -2.0757 0.9793
0.1559 4.6615 -2.0119 0.9799
-0.2519 4.5180 -1.9519 0.9805
-0.6138 4.2084 -1.8345 0.9816
-0.9941 4.1713 -1.8497 0.9815
-2.0633 3.7651 -1.8520 0.9815
-2.3530 3.5109 -1.8231 0.9818
-2.6212 3.2443 -1.7991 0.9820
-2.8684 2.9659 -1.7798 0.9822
-3.6555 1.7461 -1.7475 0.9825
-2.4720 0.4453 -1.0835 0.9891
-2.4387 0.2179 -1.0561 0.9894
-2.4282 -0.0000 -1.0956 0.9894
-3.7889 -2.7271 -2.1064 0.9797
-3.6379 -3.1458 -2.1701 0.9791
-3.4518 -3.5691 -2.2404 0.9784
-2.6568 -4.8480 -2.4945 0.9760
-2.3035 -5.2682 -2.5944 0.9751
-1.9013 -5.6789 -2.7022 0.9741
-0.9405 -6.4486 -2.9405 0.9718
0.9062 -7.3582 -3.3452 0.9680
1.6248 -7.5610 -3.4895 0.9666
4.0072 -7.7152 -3.9228 0.9626
4.8385 -7.5795 -4.0574 0.9613
8.9171 -4.5060 -4.5081 0.9571
9.4698 -2.8223 -4.4587 0.9576
9.5452 -1.9401 -4.3950 0.9582
9.3122 -0.2075 -4.2029 0.9599
8.6449 1.3594 -3.9487 0.9623
8.1871 2.0477 -3.8080 0.9636
6.6722 3.0064 -3.3021 0.9684
6.1156 3.4406 -3.1662 0.9697
5.5426 3.8047 -3.0334 0.9709
3.2612 4.6390 -2.5587 0.9754
2.7228 4.7159 -2.4571 0.9764
1.2331 4.7067 -2.1954 0.9789
-0.7889 4.1156 -1.8908 0.9818
-1.8478 3.7601 -1.8904 0.9818
-2.4108 3.2719 -1.8338 0.9823
-3.2933 2.1544 -1.7757 0.9829
-3.4650 1.8489 -1.7721 0.9829
-3.7497 1.2091 -1.7777 0.9829
-2.4671 -0.5590 -1.1414 0.9890
-2.4782 -0.7991 -1.1749 0.9886
-3.7176 -2.9358 -2.1374 0.9794
-3.5494 -3.3570 -2.2044 0.9788
-3.3448 -3.7820 -2.2782 0.9781
-3.1013 -4.2091 -2.3591 0.9773
-1.6811 -5.8792 -2.7591 0.9735
-1.2010 -6.2657 -2.8786 0.9724
-0.6664 -6.6244 -3.0041 0.9712
-0.0774 -6.9504 -3.1363 0.9700
1.2596 -7.4674 -3.4170 0.9673
2.0009 -7.6375 -3.5625 0.9659
5.2523 -7.4715 -4.1209 0.9607
6.8357 -6.7600 -4.3379 0.9587
7.5462 -6.2371 -4.4175 0.9579
8.6984 -4.8936 -4.5034 0.9571
9.3816 -3.2576 -4.4811 0.9574
9.5242 -2.3822 -4.4299 0.9578
9.5333 -1.4991 -4.3545 0.9585
9.1816 0.2046 -4.1439 0.9605
8.4246 1.7124 -3.8791 0.9630
7.9345 2.3647 -3.7358 0.9643
6.9408 2.7624 -3.3707 0.9677
6.3966 3.2323 -3.2339 0.9690
5.2531 3.9615 -2.9688 0.9715
4.0999 4.4327 -2.7245 0.9739
2.9896 4.6832 -2.5070 0.9759
1.4673 4.7301 -2.2347 0.9785
0.1500 4.4868 -2.0257 0.9805
-0.2428 4.3535 -1.9675 0.9810
-0.6125 4.1996 -1.9150 0.9815
-1.9964 3.6430 -1.8744 0.9819
-2.2778 3.3987 -1.8461 0.9822
-2.5385 3.1420 -1.8226 0.9824
-2.7789 2.8734 -1.8037 0.9826
-3.2002 2.3034 -1.7791 0.9828
-3.3815 2.0029 -1.7734 0.9829
-3.8086 1.0433 -1.7818 0.9828
-2.4063 0.4335 -1.1032 0.9893
-2.3848 0.2131 -1.0804 0.9895
-2.3616 -0.0000 -1.1132 0.9896
-2.3816 -0.4291 -1.1407 0.9894
-2.3934 -0.6556 -1.1698 0.9891
-3.7716 -2.2340 -2.0663 0.9808
-2.8441 -4.2437 -2.4081 0.9777
-1.8152 -5.4217 -2.6951 0.9750
-1.3795 -5.7888 -2.8051 0.9740
-0.8943 -6.1320 -2.9210 0.9730
0.2247 -6.7202 -3.1695 0.9707
0.8560 -6.9499 -3.3008 0.9695
1.5309 -7.1244 -3.4349 0.9683
3.7489 -7.2179 -3.8339 0.9647
4.5167 -7.0753 -3.9568 0.9636
5.2743 -6.8341 -4.0692 0.9625
6.0036 -6.4911 -4.1678 0.9617
8.2629 -4.1755 -4.3640 0.9599
8.8612 -1.8011 -4.2624 0.9608
8.8221 -0.9870 -4.1845 0.9615
8.6721 -0.1933 -4.0888 0.9624
8.4218 0.5638 -3.9787 0.9634
8.0843 1.2712 -3.8576 0.9645
6.2841 2.8314 -3.2490 0.9700
5.7736 3.2482 -3.1227 0.9711
5.2449 3.6004 -2.9988 0.9723
4.1688 4.1225 -2.7637 0.9744
3.1122 4.4272 -2.5509 0.9764
2.6031 4.5087 -2.4541 0.9772
1.6376 4.5517 -2.2802 0.9788
1.1845 4.5211 -2.2030 0.9795
0.7524 4.4603 -2.1322 0.9802
-0.0475 4.2631 -2.0097 0.9813
-0.7619 3.9748 -1.9077 0.9823
-1.1493 4.0193 -1.9705 0.9817
-1.4841 3.8532 -1.9464 0.9819
-2.3355 3.1698 -1.8559 0.9827
-2.5791 2.9163 -1.8351 0.9829
-3.0080 2.3754 -1.8067 0.9832
-3.3604 1.7931 -1.7954 0.9833
-3.6362 1.1725 -1.8009 0.9832
-2.2973 0.3090 -1.0926 0.9898
-2.3694 -0.1056 -1.1180 0.9896
-2.3800 -0.3201 -1.1319 0.9894
-2.3945 -0.7721 -1.1859 0.9889
-3.7165 -2.4312 -2.0934 0.9806
-3.4171 -3.2319 -2.2171 0.9794
-3.2162 -3.6366 -2.2884 0.9788
-2.7000 -4.4448 -2.4514 0.9773
-2.3798 -4.8427 -2.5435 0.9764
-1.6034 -5.6076 -2.7492 0.9745
-0.6330 -6.2924 -2.9811 0.9724
-0.0734 -6.5876 -3.1054 0.9713
1.1883 -7.0446 -3.3676 0.9689
1.8831 -7.1878 -3.5025 0.9677
3.3663 -7.2541 -3.7696 0.9653
6.3518 -6.2814 -4.2109 0.9613
7.0029 -5.7881 -4.2826 0.9606
7.5782 -5.2022 -4.3329 0.9602
8.4370 -3.8015 -4.3621 0.9599
8.8367 -2.2102 -4.2937 0.9605
8.8561 -1.3926 -4.2258 0.9611
8.7604 -0.5864 -4.1387 0.9619
8.5587 0.1907 -4.0354 0.9629
7.8873 1.6031 -3.7939 0.9650
7.4460 2.2191 -3.6624 0.9662
6.0318 3.0480 -3.1856 0.9706
4.9768 3.7531 -2.9382 0.9728
4.4378 4.0137 -2.8205 0.9739
3.9010 4.2178 -2.7082 0.9749
2.3548 4.5337 -2.4082 0.9777
1.8718 4.5547 -2.3212 0.9785
1.4084 4.5404 -2.2408 0.9792
0.9658 4.4942 -2.1668 0.9799
0.1445 4.3223 -2.0386 0.9811
-0.2341 4.1984 -1.9821 0.9816
-1.6388 3.7481 -1.9283 0.9821
-2.4598 3.0445 -1.8450 0.9828
-2.6936 2.7851 -1.8264 0.9830
-3.1033 2.2336 -1.8023 0.9832
-3.4365 1.6415 -1.7952 0.9833
-3.5745 1.3312 -1.7980 0.9833
-3.6930 1.0116 -1.8049 0.9832
-2.3515 0.4236 -1.1263 0.9895
-2.3095 -0.2064 -1.1404 0.9897
-2.3082 -0.4158 -1.1536 0.9896
-2.3175 -0.6348 -1.1819 0.9893
-2.3278 -0.8669 -1.2217 0.9890
-3.6431 -2.1578 -2.0826 0.9813
-3.5260 -2.5379 -2.1368 0.9808
-3.3784 -2.9214 -2.1968 0.9803
-3.1982 -3.3069 -2.2628 0.9797
-2.7318 -4.0761 -2.4135 0.9784
-2.4413 -4.4548 -2.4985 0.9776
-2.1097 -4.8251 -2.5902 0.9768
-1.7353 -5.1832 -2.6885 0.9759
-1.3165 -5.5242 -2.7932 0.9750
-0.8518 -5.8406 -2.9031 0.9740
-0.3416 -6.1263 -3.0179 0.9730
0.8103 -6.5790 -3.2604 0.9709
1.4461 -6.7296 -3.3855 0.9698
6.8006 -5.1286 -4.1894 0.9627
7.2906 -4.5406 -4.2245 0.9624
7.9880 -3.1792 -4.2287 0.9624
8.2600 -1.6789 -4.1458 0.9631
8.2337 -0.9211 -4.0751 0.9637
7.8860 0.5279 -3.8874 0.9654
7.2145 1.8045 -3.6578 0.9674
6.7885 2.3572 -3.5345 0.9685
6.1610 2.7760 -3.3237 0.9703
5.4634 3.0736 -3.0832 0.9724
4.9737 3.4142 -2.9673 0.9735
3.9692 3.9253 -2.7457 0.9754
3.4679 4.1019 -2.6420 0.9763
2.9742 4.2309 -2.5437 0.9772
2.0239 4.3613 -2.3649 0.9788
0.7243 4.2938 -2.1418 0.9808
0.3295 4.2164 -2.0802 0.9813
-0.7396 3.8586 -1.9324 0.9826
-1.4363 3.7293 -1.9656 0.9823
-2.0076 3.3049 -1.9020 0.9829
-2.9180 2.3043 -1.8288 0.9836
-3.2604 1.7398 -1.8177 0.9837
-2.5042 0.5673 -1.2629 0.9886
-2.2513 0.3027 -1.1173 0.9899
-2.2893 0.1021 -1.1271 0.9898
-2.3022 -0.1027 -1.1335 0.9898
-2.3108 -0.3108 -1.1468 0.9897
-2.3142 -0.5243 -1.1671 0.9895
-2.3173 -0.7472 -1.1976 0.9892
-3.6908 -1.9694 -2.0576 0.9815
-3.0952 -3.4999 -2.2980 0.9794
-2.8623 -3.8848 -2.3734 0.9787
-2.2808 -4.6412 -2.5435 0.9772
-1.0900 -5.6862 -2.8477 0.9745
-0.6023 -5.9876 -2.9599 0.9735
0.5066 -6.4832 -3.1985 0.9714
3.8752 -6.7120 -3.8120 0.9660
4.5836 -6.5203 -3.9201 0.9651
5.2726 -6.2365 -4.0168 0.9643
7.8521 -3.5380 -4.2360 0.9623
8.0971 -2.8116 -4.2158 0.9625
8.2600 -1.2988 -4.1126 0.9634
8.0069 0.1784 -3.9392 0.9649
7.0077 2.0885 -3.5966 0.9679
6.5585 2.6102 -3.4719 0.9690
5.7014 2.8811 -3.1420 0.9719
3.7179 4.0198 -2.6932 0.9759
2.7314 4.2787 -2.4968 0.9776
2.2559 4.3435 -2.4073 0.9784
1.7959 4.3702 -2.3239 0.9792
1.3533 4.3626 -2.2466 0.9798
-0.2259 4.0517 -1.9960 0.9821
-0.9344 3.9211 -1.9826 0.9822
-1.2810 3.8261 -1.9845 0.9822
-1.8722 3.4163 -1.9161 0.9828
-2.1381 3.1903 -1.8890 0.9830
-2.3847 2.9515 -1.8663 0.9832
-2.6121 2.7009 -1.8481 0.9834
-3.0106 2.1669 -1.8245 0.9836
-3.1818 1.8846 -1.8189 0.9837
-3.4680 1.2915 -1.8202 0.9836
-3.5826 0.9814 -1.8270 0.9836
-2.3061 0.4155 -1.1525 0.9896
-2.2721 -1.0853 -1.2909 0.9887
-2.8719 -3.5546 -2.3428 0.9797
-2.6264 -3.9188 -2.4185 0.9790
-2.0226 -4.6259 -2.5883 0.9776
-1.6611 -4.9614 -2.6823 0.9768
-0.8126 -5.5715 -2.8866 0.9750
0.2026 -6.0589 -3.1079 0.9731
2.6490 -6.4459 -3.5728 0.9692
3.3117 -6.3761 -3.6835 0.9682
4.6260 -5.9941 -3.8817 0.9665
6.8119 -4.2425 -4.1142 0.9646
7.7270 -1.5706 -4.0424 0.9652
7.6017 -0.1694 -3.8982 0.9664
7.4069 0.4958 -3.8058 0.9672
6.4115 2.2263 -3.4795 0.9700
5.9801 2.6945 -3.3627 0.9709
5.1973 2.9239 -3.0572 0.9736
4.7253 3.2437 -2.9383 0.9746
4.2579 3.5192 -2.8320 0.9755
3.3129 3.9185 -2.6306 0.9772
2.8459 4.0485 -2.5370 0.9780
2.3882 4.1364 -2.4487 0.9788
0.3176 4.0645 -2.0901 0.9818
-0.0442 3.9693 -2.0351 0.9823
-0.3875 3.8514 -1.9845 0.9828
-0.7362 3.8405 -2.0048 0.9826
-1.0844 3.7923 -2.0221 0.9824
-1.3908 3.6112 -1.9839 0.9828
-1.9460 3.2036 -1.9216 0.9833
-2.1952 2.9794 -1.8973 0.9835
-2.6380 2.4950 -1.8615 0.9838
-2.8318 2.2363 -1.8499 0.9839
-3.0074 1.9674 -1.8424 0.9840
-3.1647 1.6887 -1.8390 0.9840
-2.4709 0.5598 -1.2989 0.9887
-2.2093 0.2971 -1.1428 0.9900
-2.2377 -0.0998 -1.1483 0.9900
-2.2446 -0.3019 -1.1611 0.9899
-2.2425 -0.5081 -1.1788 0.9897
-2.2530 -0.7265 -1.2136 0.9894
-2.2673 -0.9614 -1.2625 0.9890
-2.3837 -1.2720 -1.3851 0.9879
-3.4667 -2.2678 -2.1238 0.9816
-3.3360 -2.6344 -2.1792 0.9811
-3.1748 -3.0027 -2.2403 0.9805
-2.1882 -4.4529 -2.5436 0.9779
-1.8470 -4.7956 -2.6346 0.9772
-0.5741 -5.7066 -2.9404 0.9745
1.6804 -6.4142 -3.3993 0.9706
2.9795 -6.4206 -3.6288 0.9687
4.9424 -5.8458 -3.9246 0.9662
5.5474 -5.4859 -3.9998 0.9655
6.1029 -5.0442 -4.0591 0.9650
7.3351 -3.3051 -4.1246 0.9645
7.6676 -0.5133 -3.9398 0.9660
7.5145 0.1675 -3.8534 0.9668
4.9548 3.0859 -2.9926 0.9741
3.5486 3.8367 -2.6793 0.9768
2.6157 4.0974 -2.4922 0.9784
2.1637 4.1658 -2.4066 0.9791
1.7250 4.1974 -2.3265 0.9798
1.3015 4.1955 -2.2521 0.9804
0.8946 4.1634 -2.1832 0.9810
0.5054 4.1037 -2.1198 0.9816
0.1344 4.0205 -2.0623 0.9821
-0.2182 3.9128 -2.0091 0.9825
-0.9238 3.8765 -2.0431 0.9822
-1.5368 3.5147 -1.9666 0.9829
-1.8144 3.3107 -1.9355 0.9832
-2.5342 2.6203 -1.8689 0.9837
-2.9219 2.1031 -1.8456 0.9839
-3.0884 1.8292 -1.8402 0.9840
-3.4769 0.9524 -1.8482 0.9839
-2.2093 0.1974 -1.1372 0.9901
-2.1765 -0.0000 -1.1619 0.9902
-2.1789 -0.3925 -1.1819 0.9900
-2.1873 -0.5992 -1.2107 0.9898
-2.1932 -0.8168 -1.2494 0.9894
-3.4052 -2.0169 -2.1128 0.9822
-3.2902 -2.3681 -2.1641 0.9818
-3.1465 -2.7209 -2.2207 0.9813
-2.5272 -3.7708 -2.4233 0.9796
-2.2525 -4.1102 -2.5021 0.9790
-1.5918 -4.7544 -2.6766 0.9775
-1.2037 -5.0509 -2.7719 0.9767
-0.7762 -5.3221 -2.8712 0.9759
-0.3102 -5.5629 -2.9743 0.9751
0.1928 -5.7679 -3.0808 0.9742
0.7304 -5.9302 -3.1897 0.9733
1.2986 -6.0431 -3.2997 0.9724
2.5037 -6.0925 -3.5163 0.9706
3.1248 -6.0163 -3.6191 0.9697
5.4740 -4.9509 -3.9402 0.9671
5.9623 -4.4964 -3.9866 0.9667
6.9953 -2.7841 -4.0193 0.9664
7.1689 -2.1366 -3.9934 0.9666
7.2511 -1.4739 -3.9501 0.9670
6.9759 0.4670 -3.7324 0.9688
6.0687 2.1073 -3.4295 0.9713
5.6705 2.5550 -3.3203 0.9722
4.0591 3.3549 -2.8113 0.9764
2.7263 3.8783 -2.5308 0.9787
2.2912 3.9684 -2.4462 0.9794
1.8662 4.0215 -2.3667 0.9801
1.0554 4.0286 -2.2233 0.9813
0.6728 3.9885 -2.1593 0.9818
0.3065 3.9227 -2.1005 0.9823
-0.3757 3.7345 -2.0037 0.9831
-1.0499 3.6718 -2.0387 0.9828
-1.3474 3.4985 -2.0014 0.9831
-2.5606 2.4218 -1.8815 0.9841
-2.7493 2.1711 -1.8701 0.9842
-2.9201 1.9102 -1.8628 0.9843
-3.2078 1.3602 -1.8600 0.9843
-2.1735 0.0969 -1.1615 0.9902
-2.1765 -0.0971 -1.1631 0.9902
-2.1807 -0.4941 -1.1936 0.9899
-2.2448 -1.1979 -1.3583 0.9885
-3.2220 -2.5444 -2.1917 0.9816
-3.0634 -2.8974 -2.2510 0.9811
-2.3943 -3.9416 -2.4620 0.9793
-0.5479 -5.4466 -2.9223 0.9755
-0.0632 -5.6703 -3.0272 0.9746
1.0109 -5.9933 -3.2447 0.9728
1.5926 -6.0787 -3.3546 0.9719
4.0507 -5.7622 -3.7601 0.9686
4.6463 -5.4957 -3.8419 0.9679
5.2091 -5.1514 -3.9110 0.9673
5.7256 -4.7323 -3.9655 0.9669
6.1827 -4.2442 -4.0034 0.9666
6.5690 -3.6956 -4.0237 0.9664
6.8748 -3.0977 -4.0254 0.9664
