ply
format ascii 1.0
element vertex 1586
property float32 x
property float32 y
property float32 z
property float32 I
end_header
-11.1170 -0.9934 -0.6501 0.9563
-11.8554 -3.2475 -0.7159 0.9519
-12.6643 -6.0493 -0.8174 0.9453
-1.6702 4.3367 -0.2707 0.9816
-5.8908 9.6976 -0.6609 0.9556
-6.4788 8.7931 -0.6362 0.9572
-7.5095 7.1024 -0.6020 0.9594
-8.4022 5.4964 -0.5848 0.9606
-9.2047 3.9031 -0.5823 0.9607
-9.9522 2.2549 -0.5943 0.9599
-10.9380 -0.4878 -0.6377 0.9571
-12.4517 -5.2800 -0.7877 0.9473
-12.8855 -6.8759 -0.8507 0.9432
-1.4815 4.4249 -0.2718 0.9815
-4.8836 11.1690 -0.7100 0.9523
-5.5737 10.1706 -0.6755 0.9546
-6.1920 9.2391 -0.6478 0.9564
-7.7434 6.6960 -0.5962 0.9598
-8.1891 5.8941 -0.5877 0.9604
-8.6097 5.0996 -0.5828 0.9607
-9.3956 3.4989 -0.5840 0.9606
-10.1340 1.8257 -0.5997 0.9596
-10.0513 0.0000 -0.7532 0.9605
-10.9717 -3.0055 -0.8525 0.9554
-11.2812 -4.2012 -0.9021 0.9529
-11.5969 -5.5394 -0.9631 0.9498
-11.9241 -7.0627 -1.0386 0.9459
-0.1625 14.5880 -1.0933 0.9432
-3.1713 11.0909 -0.8645 0.9548
-4.8597 9.8893 -0.8257 0.9568
-5.4825 9.0254 -0.7914 0.9585
-6.0454 8.2049 -0.7638 0.9599
-7.0323 6.6512 -0.7254 0.9619
-7.8827 5.1566 -0.7059 0.9629
-8.2701 4.4130 -0.7025 0.9631
-8.9893 2.8986 -0.7078 0.9628
-9.3274 2.1133 -0.7167 0.9624
-9.6550 1.2985 -0.7301 0.9617
-10.2058 -0.4551 -0.7656 0.9599
-10.5125 -1.4138 -0.7949 0.9583
-10.8183 -2.4511 -0.8313 0.9565
-11.1258 -3.5876 -0.8760 0.9542
-11.4380 -4.8501 -0.9310 0.9514
-12.0934 -7.9111 -1.0830 0.9437
10.1025 10.9228 -1.1150 0.9421
-0.7758 13.9132 -1.0443 0.9456
-1.8501 12.6852 -0.9607 0.9499
-1.4885 4.4458 -0.3513 0.9814
-4.5218 10.3416 -0.8458 0.9557
-5.1794 9.4512 -0.8076 0.9577
-6.8004 7.0316 -0.7331 0.9615
-7.6804 5.5280 -0.7092 0.9628
-8.0791 4.7852 -0.7037 0.9630
-8.4562 4.0392 -0.7023 0.9631
-8.8154 3.2829 -0.7050 0.9630
-9.1599 2.5091 -0.7117 0.9626
-9.7487 0.8712 -0.7334 0.9615
-4.4480 -0.0000 -0.4078 0.9823
-9.9566 -1.7937 -0.9275 0.9602
-11.1580 -8.0311 -1.2604 0.9463
-1.2222 12.1491 -1.1194 0.9521
-5.6654 7.6892 -0.8756 0.9624
-6.1580 6.9629 -0.8522 0.9634
-6.6112 6.2529 -0.8343 0.9641
-7.4226 4.8556 -0.8131 0.9650
-7.7896 4.1567 -0.8094 0.9652
-8.1355 3.4497 -0.8101 0.9651
-8.4633 2.7290 -0.8152 0.9649
-8.7752 1.9882 -0.8249 0.9645
-4.2496 0.5715 -0.3931 0.9829
-10.0836 -2.2846 -0.9479 0.9593
-10.5750 -4.4842 -1.0531 0.9549
-0.7069 12.6771 -1.1640 0.9503
-2.5515 10.7066 -1.0090 0.9568
-1.4955 4.4670 -0.4319 0.9813
-4.8363 8.8252 -0.9226 0.9604
-5.4022 8.0607 -0.8896 0.9618
-7.2301 5.2039 -0.8167 0.9649
-7.6089 4.5068 -0.8108 0.9651
-8.6210 2.3616 -0.8195 0.9647
-4.9080 0.8842 -0.4572 0.9802
-3.7849 0.0000 -0.4105 0.9849
-9.1124 -0.8143 -0.9923 0.9639
-9.7386 -3.6267 -1.1272 0.9591
-10.2301 -7.3632 -1.3672 0.9506
2.4100 14.2875 -1.5716 0.9434
1.0263 13.1335 -1.4289 0.9484
-0.1349 12.1116 -1.3138 0.9524
-1.1257 11.1901 -1.2199 0.9558
-2.7320 9.5547 -1.0779 0.9608
-3.9857 8.1106 -0.9802 0.9643
-5.8020 6.5604 -0.9500 0.9654
-6.2366 5.8986 -0.9311 0.9661
-6.6385 5.2424 -0.9175 0.9665
-7.0120 4.5871 -0.9089 0.9668
-7.3606 3.9278 -0.9049 0.9670
-7.6872 3.2596 -0.9057 0.9670
-7.9940 2.5777 -0.9111 0.9668
-4.7637 1.0793 -0.5298 0.9805
-3.7517 0.5046 -0.4106 0.9849
-9.2250 -1.2406 -1.0096 0.9632
-9.4405 -2.1389 -1.0499 0.9618
-9.6427 -3.1094 -1.0989 0.9601
-10.0040 -5.3383 -1.2299 0.9554
-10.1597 -6.6462 -1.3168 0.9523
-10.2955 -8.1303 -1.4229 0.9486
-10.4065 -9.8424 -1.5537 0.9440
-2.3695 9.9428 -1.1087 0.9597
-1.5111 4.5134 -0.5163 0.9810
-3.6983 8.4582 -1.0013 0.9635
-4.2582 7.7703 -0.9611 0.9650
-5.0770 7.5755 -0.9892 0.9640
-6.0237 6.2284 -0.9398 0.9657
-6.4414 5.5701 -0.9237 0.9663
-6.8286 4.9149 -0.9126 0.9667
-7.1892 4.2582 -0.9063 0.9669
-7.5264 3.5951 -0.9047 0.9670
-7.8429 2.9207 -0.9078 0.9669
-3.7414 0.3343 -0.4074 0.9850
-8.7835 -1.5824 -1.1184 0.9647
-8.9572 -2.4537 -1.1638 0.9633
-9.1125 -3.3935 -1.2186 0.9616
-9.2473 -4.4171 -1.2843 0.9595
-9.3589 -5.5432 -1.3631 0.9571
-9.5043 -9.8274 -1.7133 0.9464
3.6741 14.0239 -1.8167 0.9432
-1.0431 10.3687 -1.3059 0.9589
-2.5543 8.9329 -1.1643 0.9632
-4.2573 7.0085 -1.0276 0.9675
-5.0301 6.8269 -1.0627 0.9664
-5.9010 5.5812 -1.0179 0.9678
-6.2863 4.9642 -1.0038 0.9682
-6.6433 4.3459 -0.9948 0.9685
-6.9751 3.7220 -0.9908 0.9686
-7.2842 3.0888 -0.9915 0.9686
-3.5494 0.4774 -0.4488 0.9857
-3.5348 0.1576 -0.4434 0.9858
-8.6901 -1.1687 -1.0988 0.9653
-8.8726 -2.0103 -1.1401 0.9640
-9.0372 -2.9142 -1.1899 0.9624
-9.4047 -6.1523 -1.4083 0.9557
-9.5050 -8.9898 -1.6395 0.9486
1.5369 12.4790 -1.5756 0.9506
-0.5998 10.7566 -1.3501 0.9575
-1.4576 9.9942 -1.2657 0.9601
-2.2112 9.2784 -1.1953 0.9623
-4.0085 7.3145 -1.0452 0.9669
-4.7878 7.1439 -1.0777 0.9659
-5.2619 6.5127 -1.0492 0.9668
-5.6967 5.8904 -1.0269 0.9675
-6.4681 4.6554 -0.9987 0.9684
-3.8076 0.6860 -0.4848 0.9845
-3.5366 0.3160 -0.4450 0.9858
-3.3944 0.0000 -0.4828 0.9864
-8.4369 -2.3111 -1.2443 0.9653
-8.5598 -3.1877 -1.2992 0.9638
-8.7284 -5.1698 -1.4429 0.9598
-8.7635 -7.5781 -1.6479 0.9543
-8.7123 -9.0085 -1.7825 0.9506
-8.5999 -10.6442 -1.9464 0.9462
4.9177 13.6689 -2.0662 0.9430
-0.1152 10.3430 -1.4712 0.9591
-0.9715 9.6569 -1.3805 0.9615
-1.7264 9.0068 -1.3044 0.9636
-2.3975 8.3846 -1.2404 0.9654
-4.0235 6.6237 -1.1023 0.9692
-5.1976 5.8770 -1.1159 0.9688
-5.5985 5.2951 -1.0961 0.9693
-5.9683 4.7131 -1.0817 0.9697
-6.3100 4.1279 -1.0725 0.9700
-6.9200 2.9344 -1.0691 0.9701
-4.1432 0.9387 -0.6043 0.9830
-3.3610 0.1499 -0.4785 0.9865
-3.4470 -0.1537 -0.4908 0.9862
-8.5012 -2.7413 -1.2705 0.9646
-8.6122 -3.6519 -1.3305 0.9629
-8.6971 -4.6409 -1.4021 0.9610
-8.7516 -5.7251 -1.4875 0.9586
-8.7702 -6.9257 -1.5895 0.9559
-8.5149 -11.5565 -2.0418 0.9437
1.4114 11.4598 -1.6423 0.9544
0.3578 10.7023 -1.5231 0.9577
-1.3604 9.3278 -1.3408 0.9626
-3.2729 7.4852 -1.1620 0.9675
-3.7853 6.9073 -1.1203 0.9687
-5.4022 5.5859 -1.1053 0.9691
-5.7871 5.0043 -1.0882 0.9696
-6.1425 4.4211 -1.0765 0.9699
-6.4713 3.8330 -1.0698 0.9701
-6.7761 3.2367 -1.0681 0.9701
-7.0586 2.6286 -1.0714 0.9700
-7.3204 2.0052 -1.0796 0.9698
-3.6717 0.6615 -0.5307 0.9850
-3.3525 0.2996 -0.4787 0.9865
-3.3916 -0.3031 -0.5422 0.9863
-8.0681 -3.0046 -1.3709 0.9657
-8.1751 -4.8422 -1.5130 0.9622
-8.1348 -7.0344 -1.7125 0.9574
-7.6365 -11.3944 -2.1842 0.9460
4.4575 12.3899 -2.0967 0.9481
3.0476 11.6326 -1.9149 0.9525
1.8432 10.9272 -1.7646 0.9561
-0.1073 9.6348 -1.5343 0.9617
-0.9088 9.0338 -1.4458 0.9639
-1.6852 4.3755 -0.7466 0.9812
-3.3449 6.8067 -1.2077 0.9697
-4.9387 5.5842 -1.1871 0.9703
-6.3098 3.3671 -1.1389 0.9714
-6.5890 2.7940 -1.1396 0.9714
-3.9744 0.9005 -0.6489 0.9836
-3.2540 0.4376 -0.5228 0.9868
-3.3344 -0.1487 -0.5315 0.9866
-3.4817 -0.4682 -0.5594 0.9859
-7.9141 -1.7931 -1.2922 0.9677
-8.0231 -2.5871 -1.3424 0.9664
-8.1063 -3.4374 -1.4021 0.9650
-8.1603 -4.3545 -1.4729 0.9632
-8.1808 -5.3516 -1.5567 0.9612
-8.1617 -6.4452 -1.6560 0.9588
-7.4762 -12.3075 -2.2931 0.9433
3.7237 12.0040 -2.0013 0.9504
0.3325 9.9454 -1.5846 0.9605
-1.9479 8.1739 -1.3380 0.9665
-3.0933 7.0747 -1.2295 0.9692
-3.5845 6.5410 -1.1877 0.9702
-4.2952 6.4088 -1.2285 0.9692
-4.7333 5.8585 -1.1993 0.9700
-5.1355 5.3101 -1.1763 0.9705
-6.1616 3.6495 -1.1403 0.9714
-6.4522 3.0820 -1.1386 0.9715
-6.7203 2.5027 -1.1419 0.9714
-3.5501 0.6396 -0.5744 0.9855
-3.2817 -0.2932 -0.5809 0.9867
-7.6276 -2.8405 -1.4352 0.9675
-7.6731 -3.6651 -1.4994 0.9661
-7.6854 -4.5521 -1.5750 0.9644
-7.4612 -7.7148 -1.8925 0.9573
-7.2683 -8.9961 -2.0393 0.9541
-6.9923 -10.4333 -2.2146 0.9503
-6.6119 -12.0652 -2.4259 0.9457
5.5530 11.9665 -2.3261 0.9478
4.0742 11.3245 -2.1221 0.9523
0.7470 9.5606 -1.6909 0.9618
-1.5269 7.9658 -1.4302 0.9676
-5.0744 4.7994 -1.2316 0.9720
-5.4162 4.2771 -1.2169 0.9724
-5.7309 3.7490 -1.2075 0.9726
-6.0205 3.2127 -1.2033 0.9727
-6.2867 2.6658 -1.2041 0.9726
-6.5306 2.1058 -1.2099 0.9725
-3.8238 0.8663 -0.6913 0.9842
-3.1644 0.1411 -0.5585 0.9872
-3.2276 -0.1439 -0.5697 0.9870
-3.3507 -0.4506 -0.5961 0.9864
-7.5056 -1.7005 -1.3570 0.9692
-7.5319 -7.1236 -1.8280 0.9588
-7.1419 -9.6931 -2.1230 0.9523
-6.8169 -11.2222 -2.3152 0.9481
-6.3731 -12.9689 -2.5480 0.9430
4.7841 11.6415 -2.2193 0.9502
3.4169 11.0150 -2.0335 0.9542
2.2383 10.4160 -1.8785 0.9577
0.3104 9.2853 -1.6382 0.9630
-0.4877 8.7471 -1.5447 0.9650
-1.1993 8.2231 -1.4653 0.9668
-1.8376 7.7111 -1.3978 0.9683
-2.4125 7.2057 -1.3399 0.9696
-2.9315 6.7045 -1.2903 0.9707
-4.5053 5.5763 -1.2641 0.9713
-5.5768 4.0139 -1.2116 0.9725
-5.8787 3.4820 -1.2048 0.9726
-6.4114 2.3876 -1.2063 0.9726
-4.2904 1.1753 -0.7844 0.9821
-3.1015 -0.0000 -0.6002 0.9874
-3.1775 -0.2839 -0.6174 0.9871
-7.2306 -2.6927 -1.4931 0.9691
-7.2568 -3.4663 -1.5563 0.9678
-7.2486 -4.2933 -1.6303 0.9663
-7.1065 -6.1452 -1.8181 0.9624
-6.9575 -7.1939 -1.9367 0.9600
-6.4461 -9.6183 -2.2407 0.9539
6.6063 11.4425 -2.5569 0.9476
5.0722 10.9302 -2.3319 0.9521
2.5996 9.9226 -1.9850 0.9591
1.5906 9.4297 -1.8506 0.9618
-0.0943 8.4658 -1.6384 0.9661
-0.8042 7.9937 -1.5547 0.9678
-1.4428 7.5272 -1.4832 0.9693
-2.0201 7.0649 -1.4220 0.9705
-1.6912 4.3910 -0.9106 0.9810
-3.0166 6.1386 -1.3236 0.9725
-3.4495 5.6787 -1.2858 0.9733
-4.0982 5.5622 -1.3370 0.9722
-4.4878 5.0744 -1.3109 0.9728
-4.8457 4.5830 -1.2907 0.9732
-5.1748 4.0865 -1.2760 0.9735
-5.7550 3.0710 -1.2624 0.9738
-6.0093 2.5482 -1.2631 0.9738
-3.6833 0.8345 -0.7309 0.9847
-3.1273 -0.1395 -0.6058 0.9873
-7.1351 -1.6166 -1.4158 0.9706
-7.2058 -2.3236 -1.4652 0.9696
-7.2573 -3.8726 -1.5919 0.9670
-7.2299 -4.7296 -1.6719 0.9654
-6.8589 -7.7555 -2.0036 0.9587
-6.6054 -8.9649 -2.1549 0.9556
-5.2085 -13.5237 -2.8045 0.9427
4.3873 10.6759 -2.2336 0.9541
3.1554 10.1719 -2.0610 0.9575
2.0791 9.6752 -1.9151 0.9605
1.1314 9.1860 -1.7911 0.9630
0.2910 8.7042 -1.6854 0.9651
-2.2874 6.8321 -1.3943 0.9711
-3.2379 5.9085 -1.3038 0.9729
-4.2972 5.3186 -1.3232 0.9725
-4.6705 4.8293 -1.3001 0.9730
-5.0137 4.3355 -1.2827 0.9734
-5.3293 3.8358 -1.2707 0.9736
-5.8851 2.8111 -1.2621 0.9738
-3.3306 0.6000 -0.6549 0.9863
-3.0994 -0.2769 -0.6560 0.9874
-3.2303 -0.5820 -0.6920 0.9867
-6.8706 -2.5587 -1.5456 0.9705
-6.8563 -4.0610 -1.6800 0.9679
-6.2844 -7.7783 -2.1082 0.9599
-5.9763 -8.9172 -2.2631 0.9571
-5.5734 -10.1702 -2.4449 0.9537
-5.0538 -11.5583 -2.6595 0.9497
9.4264 11.1496 -3.0780 0.9421
7.6016 10.8134 -2.7866 0.9474
6.0301 10.4443 -2.5425 0.9519
4.6656 10.0540 -2.3367 0.9557
3.4717 9.6499 -2.1620 0.9589
1.4877 8.8196 -1.8856 0.9641
0.6563 8.3992 -1.7761 0.9661
-3.2911 5.4178 -1.3364 0.9744
-3.9143 5.3125 -1.3912 0.9734
-4.2900 4.8509 -1.3652 0.9739
-4.6354 4.3841 -1.3451 0.9743
-5.9746 1.9265 -1.3234 0.9747
-2.9940 0.1335 -0.6318 0.9878
-3.0505 -0.1360 -0.6437 0.9876
-6.7975 -1.5401 -1.4694 0.9719
-6.8800 -2.9173 -1.5754 0.9699
-6.8733 -3.6677 -1.6424 0.9687
-6.8293 -4.4675 -1.7205 0.9672
-6.6049 -6.2469 -1.9166 0.9635
-6.4084 -7.2461 -2.0393 0.9612
-6.1410 -8.3347 -2.1826 0.9586
8.4789 10.9864 -2.9257 0.9448
5.3244 10.2513 -2.4353 0.9539
2.9297 9.4444 -2.0847 0.9604
0.2738 8.1884 -1.7272 0.9671
-0.4330 7.7661 -1.6398 0.9687
-1.6493 6.9207 -1.4999 0.9713
-2.6513 6.0637 -1.3952 0.9733
-3.0872 5.6334 -1.3543 0.9741
-3.7140 5.5418 -1.4064 0.9731
-4.1061 5.0822 -1.3774 0.9736
-4.7974 4.1485 -1.3371 0.9744
-5.3802 3.1867 -1.3183 0.9748
-5.6351 2.6916 -1.3166 0.9748
-5.8670 2.1849 -1.3199 0.9747
-2.9810 0.2664 -0.6310 0.9878
-6.5136 -1.7843 -1.5415 0.9727
-6.5426 -2.4365 -1.5935 0.9718
-6.5020 -3.8512 -1.7248 0.9695
-6.4240 -4.6237 -1.8065 0.9680
-5.5676 -8.3075 -2.2826 0.9598
-5.1639 -9.4229 -2.4525 0.9569
-4.6525 -10.6405 -2.6506 0.9535
-4.0075 -11.9697 -2.8811 0.9495
-3.1996 -13.4263 -3.1503 0.9449
8.5203 10.0779 -3.0121 0.9473
2.2627 8.6366 -2.0378 0.9640
1.3967 8.2802 -1.9166 0.9661
0.6184 7.9136 -1.8117 0.9680
-0.0840 7.5393 -1.7209 0.9695
-0.7202 7.1590 -1.6423 0.9709
-1.8251 6.3827 -1.5152 0.9731
-1.7008 4.4162 -1.0801 0.9808
-2.7436 5.5830 -1.4198 0.9748
-3.1456 5.1784 -1.3829 0.9754
-4.4413 4.2005 -1.3953 0.9752
-5.7283 1.8471 -1.3737 0.9756
-2.9625 0.3984 -0.6823 0.9878
-6.4883 -1.4701 -1.5184 0.9731
-6.5319 -2.1063 -1.5665 0.9722
-6.5257 -3.4822 -1.6883 0.9701
-6.4684 -4.2314 -1.7642 0.9688
-6.2184 -5.8813 -1.9536 0.9655
-5.7351 -7.7836 -2.2067 0.9611
9.3982 10.1612 -3.1592 0.9448
6.2162 9.7375 -2.6368 0.9537
3.7577 9.1438 -2.2564 0.9603
2.7329 8.8099 -2.1053 0.9629
1.8179 8.4599 -1.9750 0.9651
0.2584 7.7272 -1.7647 0.9688
-0.4098 7.3498 -1.6802 0.9702
-1.0161 6.9671 -1.6070 0.9715
-1.5681 6.5801 -1.5439 0.9726
-2.5291 5.7841 -1.4409 0.9744
-3.5517 5.2996 -1.4561 0.9742
-3.9302 4.8645 -1.4274 0.9747
-4.5977 3.9758 -1.3873 0.9754
-4.8909 3.5202 -1.3754 0.9756
-5.1592 3.0558 -1.3686 0.9757
-5.4039 2.5812 -1.3669 0.9757
-5.6257 2.0950 -1.3702 0.9757
-3.8725 1.0608 -0.9164 0.9837
-3.1004 -0.5586 -0.7743 0.9871
-6.2240 -1.7049 -1.5862 0.9738
-6.2289 -2.9754 -1.6968 0.9720
-5.9580 -5.1521 -1.9361 0.9681
-5.7722 -5.9684 -2.0409 0.9664
-5.5258 -6.8394 -2.1613 0.9644
-2.9213 -12.2584 -3.0975 0.9494
11.1214 9.1920 -3.5465 0.9423
5.1261 8.8786 -2.5200 0.9587
1.3156 7.7995 -1.9442 0.9679
0.5843 7.4779 -1.8437 0.9696
-0.0796 7.1440 -1.7561 0.9710
-1.2360 6.4481 -1.6138 0.9733
-1.7400 6.0853 -1.5557 0.9743
-1.7062 4.4301 -1.1669 0.9806
-3.0114 4.9576 -1.4258 0.9764
-3.9392 4.4542 -1.4616 0.9758
-4.5572 3.5987 -1.4273 0.9764
-5.0746 2.7079 -1.4138 0.9766
-5.2984 2.2467 -1.4146 0.9766
-5.4998 1.7734 -1.4204 0.9765
-6.2398 -2.6459 -1.6659 0.9725
-6.2093 -3.3134 -1.7299 0.9714
-6.1413 -4.0175 -1.8038 0.9702
-5.3769 -7.2975 -2.2281 0.9634
10.2045 9.2295 -3.3820 0.9449
7.0485 9.1330 -2.8357 0.9536
5.7303 8.9764 -2.6177 0.9571
3.5035 8.5253 -2.2656 0.9627
2.5596 8.2513 -2.1235 0.9650
0.9410 7.6405 -1.8922 0.9688
0.2445 7.3124 -1.7984 0.9703
-0.3888 6.9733 -1.7167 0.9716
-0.9663 6.6250 -1.6456 0.9728
-1.4938 6.2684 -1.5839 0.9738
-1.9756 5.9007 -1.5295 0.9747
-2.8214 5.1484 -1.4430 0.9761
-3.4019 5.0761 -1.5020 0.9751
-3.7676 4.6632 -1.4736 0.9756
-4.1038 4.2433 -1.4510 0.9760
-4.4125 3.8157 -1.4339 0.9763
-4.6955 3.3796 -1.4220 0.9765
-4.9541 2.9344 -1.4153 0.9766
-3.8036 1.0419 -0.9694 0.9839
-3.0843 0.5557 -0.7703 0.9872
-2.8744 0.0000 -0.7574 0.9882
-2.9343 -0.2622 -0.7763 0.9879
-5.9570 -1.6318 -1.6275 0.9748
-5.9439 -2.8392 -1.7357 0.9731
-5.4574 -5.6429 -2.0685 0.9680
-5.2078 -6.4457 -2.1835 0.9663
-4.8908 -7.2976 -2.3148 0.9643
-4.4955 -8.2033 -2.4649 0.9620
-3.4107 -10.1873 -2.8308 0.9565
-1.8112 -12.4188 -3.3070 0.9494
-0.7602 -13.6331 -3.5979 0.9451
11.7486 8.0649 -3.7550 0.9428
10.0482 8.3051 -3.4350 0.9475
8.5148 8.4204 -3.1555 0.9517
7.1329 8.4369 -2.9112 0.9553
4.7646 8.2526 -2.5110 0.9613
3.7502 8.0814 -2.3476 0.9638
2.8321 7.8720 -2.2044 0.9660
1.2429 7.3683 -1.9690 0.9696
0.5536 7.0848 -1.8725 0.9710
-0.0756 6.7855 -1.7881 0.9723
-0.6513 6.4731 -1.7143 0.9734
-1.6619 5.8120 -1.5928 0.9753
-2.5124 5.1127 -1.5011 0.9767
-3.4436 4.6737 -1.5297 0.9763
-3.7827 4.2772 -1.5046 0.9767
-4.6415 3.0363 -1.4615 0.9773
-4.8793 2.6037 -1.4573 0.9774
-5.0944 2.1602 -1.4581 0.9774
-5.2872 1.7049 -1.4638 0.9773
-3.2212 0.7298 -0.8703 0.9864
-2.8316 0.3808 -0.7529 0.9883
-2.8515 0.1271 -0.7521 0.9883
-2.9007 -0.1294 -0.7651 0.9881
-2.9836 -0.4013 -0.7933 0.9876
-3.0953 -0.7013 -0.8363 0.9870
-5.5599 -5.2586 -2.0165 0.9688
-5.3404 -6.0385 -2.1241 0.9672
-5.0584 -6.8653 -2.2470 0.9653
-4.2644 -8.6778 -2.5478 0.9608
-3.0654 -10.7205 -2.9381 0.9549
-1.3096 -13.0179 -3.4475 0.9473
-0.1589 -14.2639 -3.7588 0.9427
7.8058 8.4396 -3.0292 0.9536
5.3118 8.3207 -2.6012 0.9600
2.4058 7.7555 -2.1397 0.9670
1.6123 7.5030 -2.0222 0.9688
0.8903 7.2287 -1.9192 0.9703
-0.3697 6.6309 -1.7500 0.9729
-0.9207 6.3128 -1.6810 0.9740
-1.4256 5.9820 -1.6204 0.9749
-1.8883 5.6400 -1.5672 0.9757
-2.3131 5.2903 -1.5214 0.9764
-3.9418 4.0758 -1.4941 0.9768
-4.5138 3.2488 -1.4654 0.9773
-4.7633 2.8213 -1.4588 0.9774
-5.1936 1.9341 -1.4603 0.9773
-3.0018 0.5408 -0.8037 0.9875
-2.8348 0.2533 -0.7499 0.9883
-2.8279 0.0000 -0.7957 0.9883
-2.9786 -0.5366 -0.8515 0.9875
-5.7099 -1.5641 -1.6657 0.9757
-5.7115 -2.1270 -1.7148 0.9750
-5.6172 -3.3271 -1.8369 0.9732
-3.1715 -9.4728 -2.8106 0.9593
-2.4838 -10.4224 -3.0145 0.9565
-1.6646 -11.4132 -3.2452 0.9532
0.4512 -13.4959 -3.7993 0.9454
12.2025 6.8650 -3.9393 0.9435
10.6183 7.2890 -3.6237 0.9479
9.1571 7.5686 -3.3425 0.9518
6.5895 7.7941 -2.8716 0.9585
5.4697 7.7808 -2.6760 0.9612
2.6657 7.4093 -2.2155 0.9678
1.8884 7.2078 -2.0964 0.9695
1.1772 6.9791 -1.9913 0.9710
0.5257 6.7281 -1.8988 0.9723
-0.6211 6.1738 -1.7458 0.9745
-1.1259 5.8739 -1.6828 0.9755
-3.3087 4.4907 -1.5694 0.9771
-3.6369 4.1123 -1.5446 0.9774
-4.4675 2.9225 -1.5020 0.9781
-4.6970 2.5064 -1.4979 0.9781
-4.9039 2.0795 -1.4987 0.9781
-2.8062 0.1251 -0.7903 0.9884
-2.8531 -0.1272 -0.8035 0.9882
-3.2049 -1.0334 -0.9474 0.9861
-5.7007 -2.4173 -1.7422 0.9746
-5.5708 -3.6443 -1.8730 0.9727
-5.4469 -4.3013 -1.9527 0.9716
-5.2769 -4.9909 -2.0436 0.9703
-5.0548 -5.7156 -2.1468 0.9688
-3.4717 -9.0142 -2.7178 0.9607
-2.8429 -9.9423 -2.9094 0.9579
-0.1444 -12.9655 -3.6482 0.9475
1.0963 -14.0299 -3.9594 0.9432
11.3949 7.0968 -3.7770 0.9457
9.8725 7.4452 -3.4790 0.9499
4.9472 7.7497 -2.5868 0.9625
0.8444 6.8561 -1.9436 0.9717
0.2205 6.5955 -1.8567 0.9730
-0.8790 6.0265 -1.7135 0.9750
-1.3627 5.7183 -1.6539 0.9759
-3.1342 4.6766 -1.5840 0.9769
-3.4762 4.3026 -1.5563 0.9773
-3.7909 3.9198 -1.5343 0.9776
-4.0798 3.5280 -1.5175 0.9778
-4.5851 2.7157 -1.4994 0.9781
-3.6502 0.9999 -1.0648 0.9844
-2.7884 0.2492 -0.7877 0.9884
-2.7824 0.0000 -0.8330 0.9884
-2.8309 -0.2530 -0.8509 0.9882
-2.9224 -0.5265 -0.8890 0.9877
-3.0126 -0.8252 -0.9351 0.9870
-5.3693 -3.1802 -1.8683 0.9743
-5.1114 -4.4200 -2.0231 0.9722
-4.9142 -5.0812 -2.1163 0.9709
-2.3085 -9.6869 -2.9813 0.9593
-1.5388 -10.5509 -3.1921 0.9565
-0.6374 -11.4312 -3.4276 0.9533
1.6249 -13.1930 -3.9796 0.9460
11.0371 6.2094 -3.7913 0.9485
8.4048 6.9468 -3.2645 0.9555
7.2183 7.1383 -3.0392 0.9585
6.1189 7.2375 -2.8374 0.9612
2.5164 6.9944 -2.2254 0.9694
1.7880 6.8247 -2.1121 0.9710
1.1177 6.6259 -2.0117 0.9723
0.5003 6.4028 -1.9227 0.9735
-0.0686 6.1592 -1.8440 0.9746
-1.5231 5.3268 -1.6587 0.9771
-1.7228 4.4733 -1.4351 0.9802
-3.5007 3.9583 -1.5820 0.9782
-4.0605 3.2065 -1.5490 0.9786
-4.3047 2.8160 -1.5400 0.9788
-4.5262 2.4153 -1.5359 0.9788
-4.7255 2.0038 -1.5367 0.9788
-4.9030 1.5810 -1.5423 0.9787
-3.0564 0.6925 -0.9382 0.9870
-2.7619 0.1232 -0.8277 0.9885
-3.1092 -1.0026 -0.9780 0.9865
-5.4615 -2.3158 -1.7760 0.9755
-5.4088 -2.8863 -1.8354 0.9747
-5.3203 -3.4804 -1.9033 0.9738
-4.1716 -6.8674 -2.4055 0.9670
-0.1323 -11.8744 -3.5552 0.9516
0.9970 -12.7577 -3.8310 0.9480
13.2099 5.2574 -4.2565 0.9424
7.8005 7.0551 -3.1488 0.9570
6.6578 7.1983 -2.9355 0.9599
5.6012 7.2576 -2.7446 0.9624
4.6267 7.2476 -2.5742 0.9647
2.9040 7.0664 -2.2872 0.9686
0.2100 6.2832 -1.8821 0.9741
-1.9729 4.5121 -1.4743 0.9796
-3.0140 4.4971 -1.6208 0.9776
-3.6499 3.7740 -1.5718 0.9783
-4.4183 2.6170 -1.5374 0.9788
-4.8170 1.7939 -1.5389 0.9788
-2.8473 0.5130 -0.8662 0.9880
-2.7412 0.2450 -0.8239 0.9886
-2.7380 0.0000 -0.8695 0.9886
-2.7827 -0.2487 -0.8873 0.9883
-2.8694 -0.5169 -0.9259 0.9878
-2.9540 -0.8092 -0.9727 0.9872
-5.2560 -1.9574 -1.7812 0.9767
-5.2148 -2.4909 -1.8354 0.9760
-4.6779 -4.8370 -2.1370 0.9722
-2.7765 -8.2928 -2.7774 0.9640
-0.5891 -10.5655 -3.3607 0.9566
0.3784 -11.3189 -3.5967 0.9536
2.7351 -12.7283 -4.1346 0.9468
11.2938 5.0887 -3.9340 0.9493
10.0669 5.6636 -3.6683 0.9527
8.8852 6.0993 -3.4227 0.9558
7.7608 6.4145 -3.1976 0.9586
6.7006 6.6263 -2.9928 0.9612
4.7810 6.8011 -2.6402 0.9657
3.9201 6.7897 -2.4899 0.9676
3.1214 6.7265 -2.3550 0.9694
2.3817 6.6199 -2.2343 0.9709
1.6969 6.4771 -2.1264 0.9723
1.0633 6.3038 -2.0303 0.9735
-0.0655 5.8839 -1.8688 0.9756
-0.5665 5.6317 -1.7976 0.9765
-1.7286 4.4881 -1.5274 0.9800
-2.7311 4.4961 -1.6707 0.9782
-3.3732 3.8141 -1.6171 0.9789
-3.6562 3.4580 -1.5982 0.9791
-4.1518 2.7160 -1.5756 0.9794
-4.3659 2.3297 -1.5716 0.9794
-4.7286 1.5248 -1.5779 0.9794
-2.9791 0.6750 -0.9701 0.9873
-2.6672 0.3587 -0.8547 0.9888
-2.7186 0.1212 -0.8643 0.9886
-2.7613 -0.1231 -0.8778 0.9885
-2.8254 -0.3800 -0.9054 0.9881
-3.1071 -1.0019 -1.0368 0.9864
-5.1818 -2.7651 -1.8653 0.9757
-5.0892 -3.3292 -1.9314 0.9748
-4.5601 -5.1562 -2.1861 0.9715
-3.5383 -7.2001 -2.5478 0.9669
-2.4779 -8.6659 -2.8625 0.9629
-1.8060 -9.4217 -3.0467 0.9605
-1.0246 -10.1845 -3.2508 0.9580
3.4172 -13.0433 -4.2822 0.9450
11.9186 4.7435 -4.0739 0.9476
9.4695 5.8977 -3.5429 0.9543
8.3153 6.2708 -3.3076 0.9572
6.1955 6.6985 -2.8978 0.9624
5.2359 6.7843 -2.7216 0.9647
4.3425 6.8025 -2.5630 0.9667
3.5132 6.7640 -2.4206 0.9685
2.7444 6.6781 -2.2930 0.9702
1.3740 6.3939 -2.0770 0.9729
0.2004 5.9968 -1.9055 0.9751
-0.3208 5.7539 -1.8302 0.9761
-1.6636 4.9688 -1.6641 0.9782
-2.4058 4.3901 -1.5899 0.9792
-2.9015 4.3294 -1.6552 0.9784
-3.2224 3.9884 -1.6284 0.9787
-3.5177 3.6373 -1.6070 0.9790
-4.0365 2.9053 -1.5795 0.9793
-4.4647 2.1326 -1.5714 0.9794
-4.6461 1.7302 -1.5745 0.9794
-3.4730 0.9513 -1.1436 0.9850
-2.7749 0.4999 -0.8954 0.9882
-2.6945 0.0000 -0.9053 0.9887
-2.7374 -0.2446 -0.9234 0.9885
-2.8177 -0.5076 -0.9619 0.9880
-5.0515 -1.8812 -1.8111 0.9775
-4.8132 -3.4643 -1.9925 0.9753
-4.6592 -4.0289 -2.0695 0.9743
-4.4612 -4.6129 -2.1561 0.9733
-4.2144 -5.2162 -2.2531 0.9721
-3.9130 -5.8386 -2.3615 0.9708
-3.5507 -6.4793 -2.4824 0.9693
-3.1193 -7.1340 -2.6160 0.9677
-2.0192 -8.4727 -2.9264 0.9639
-1.3341 -9.1473 -3.1059 0.9617
-0.5473 -9.8143 -3.3026 0.9594
0.3498 -10.4619 -3.5170 0.9568
1.3640 -11.0746 -3.7490 0.9540
5.1310 -12.4856 -4.5354 0.9446
12.4368 3.1106 -4.3073 0.9473
11.3836 3.9528 -4.0487 0.9504
9.2456 5.2014 -3.5642 0.9562
8.2051 5.6325 -3.3438 0.9589
6.2478 6.1786 -2.9522 0.9636
5.3440 6.3209 -2.7810 0.9657
2.2595 6.2802 -2.2424 0.9722
-0.0626 5.6176 -1.8876 0.9766
-0.9900 5.1648 -1.7669 0.9781
-1.4036 4.9087 -1.7153 0.9787
-2.1413 4.3575 -1.6313 0.9797
-3.5278 3.3366 -1.6314 0.9797
-2.6272 0.5952 -0.9051 0.9887
-2.6180 0.3521 -0.8875 0.9889
-2.6762 0.1193 -0.9001 0.9888
-2.8653 -0.6492 -0.9871 0.9877
-5.0627 -1.6325 -1.7873 0.9778
-5.0326 -2.1340 -1.8366 0.9772
-4.9710 -2.6526 -1.8931 0.9765
-4.8751 -3.1892 -1.9573 0.9757
-4.5660 -4.3185 -2.1115 0.9738
-3.3444 -6.8056 -2.5477 0.9685
-2.8752 -7.4654 -2.6879 0.9668
-2.3263 -8.1355 -2.8429 0.9649
4.4304 -12.3145 -4.3971 0.9463
5.8572 -12.6220 -4.6751 0.9430
12.9467 2.6315 -4.4388 0.9458
11.9143 3.5508 -4.1770 0.9489
10.8482 4.3175 -3.9229 0.9519
8.7212 5.4316 -3.4520 0.9576
4.9121 6.3648 -2.7013 0.9666
4.0888 6.4049 -2.5531 0.9684
3.3186 6.3895 -2.4190 0.9701
1.9308 6.2244 -2.1896 0.9729
1.3082 6.0880 -2.0921 0.9741
0.7294 5.9225 -2.0049 0.9751
0.1913 5.7211 -1.9232 0.9761
-0.3072 5.5093 -1.8539 0.9770
-1.2007 5.0385 -1.7402 0.9784
-1.9674 4.4996 -1.6500 0.9795
-2.7961 4.1721 -1.6875 0.9790
-3.1071 3.8458 -1.6611 0.9794
-3.3935 3.5089 -1.6401 0.9796
-3.6563 3.1617 -1.6241 0.9798
-3.8963 2.8044 -1.6129 0.9799
-4.1142 2.4369 -1.6066 0.9800
-4.3104 2.0589 -1.6050 0.9800
-4.4852 1.6703 -1.6081 0.9800
-2.6500 0.2368 -0.8939 0.9888
-2.6519 -0.0000 -0.9403 0.9888
-2.6931 -0.2407 -0.9588 0.9886
-4.7298 -2.8015 -1.9492 0.9769
-3.7220 -5.5536 -2.3706 0.9720
-2.9512 -6.7496 -2.6121 0.9692
-1.8982 -7.9653 -2.9035 0.9658
-0.5105 -9.1560 -3.2516 0.9618
1.2610 -10.2389 -3.6580 0.9572
2.2996 -10.7015 -3.8812 0.9546
4.6700 -11.3636 -4.3564 0.9492
7.3439 -11.5041 -4.8395 0.9437
12.9016 0.8637 -4.5849 0.9466
12.1510 1.9106 -4.3615 0.9491
11.3075 2.8282 -4.1330 0.9517
10.4083 3.6141 -3.9068 0.9543
9.4778 4.2704 -3.6861 0.9568
8.5409 4.8051 -3.4749 0.9593
7.6156 5.2278 -3.2754 0.9616
6.7150 5.5501 -3.0891 0.9637
4.2363 6.0262 -2.6120 0.9692
2.8003 6.0345 -2.3589 0.9722
2.1481 5.9705 -2.2499 0.9734
0.9676 5.7367 -2.0629 0.9756
-0.5208 5.1777 -1.8452 0.9782
-0.9509 4.9608 -1.7910 0.9788
-1.7199 4.4655 -1.6968 0.9799
-2.5370 4.1764 -1.7327 0.9795
-2.8509 3.8693 -1.7042 0.9798
-3.4068 3.2221 -1.6627 0.9803
-3.8723 2.5332 -1.6408 0.9806
-4.0727 2.1732 -1.6369 0.9806
-4.2519 1.8029 -1.6376 0.9806
-2.5748 0.3463 -0.9212 0.9890
-2.6347 0.1175 -0.9351 0.9889
-2.8709 -0.9257 -1.0696 0.9873
-4.7746 -2.5479 -1.9190 0.9773
-4.3656 -4.1290 -2.1307 0.9748
-4.1457 -4.6877 -2.2190 0.9738
-3.8767 -5.2614 -2.3174 0.9726
-3.5530 -5.8491 -2.4267 0.9714
-3.1686 -6.4480 -2.5475 0.9700
-2.1907 -7.6613 -2.8255 0.9667
-1.5848 -8.2679 -2.9851 0.9649
1.7675 -10.4788 -3.7681 0.9559
2.8569 -10.9044 -3.9971 0.9533
6.6566 -11.5296 -4.7207 0.9451
12.5402 1.4028 -4.4743 0.9479
9.9451 3.9581 -3.7954 0.9556
9.0089 4.5524 -3.5791 0.9581
8.0759 5.0297 -3.3736 0.9604
6.2769 5.6771 -3.0010 0.9647
5.4292 5.8700 -2.8352 0.9666
4.6231 5.9903 -2.6831 0.9684
3.1427 6.0508 -2.4177 0.9715
2.4688 6.0075 -2.3030 0.9728
1.2479 5.8068 -2.1060 0.9751
0.6965 5.6551 -2.0204 0.9761
0.1831 5.4768 -1.9431 0.9770
-0.7402 5.0752 -1.8186 0.9785
-1.1540 4.8424 -1.7651 0.9791
-2.6971 4.0243 -1.7178 0.9796
-3.2765 3.3879 -1.6712 0.9802
-3.9752 2.3545 -1.6382 0.9806
-4.1649 1.9894 -1.6367 0.9806
-2.5828 0.7075 -0.9496 0.9887
-2.6624 0.4796 -0.9592 0.9886
-2.6498 -0.2368 -0.9934 0.9887
-4.6287 -2.2109 -1.9155 0.9783
-4.4275 -3.1867 -2.0370 0.9770
-4.2726 -3.6946 -2.1092 0.9762
-4.0769 -4.2155 -2.1899 0.9753
-3.8364 -4.7485 -2.2795 0.9743
-3.5468 -5.2922 -2.3790 0.9732
-3.2031 -5.8449 -2.4888 0.9719
-1.7897 -7.5102 -2.8829 0.9676
-1.1743 -8.0520 -3.0385 0.9659
-0.4781 -8.5741 -3.2066 0.9640
0.3031 -9.0655 -3.3870 0.9620
2.1273 -9.8996 -3.7810 0.9577
3.1665 -10.2077 -3.9908 0.9554
5.4557 -10.5040 -4.4198 0.9507
6.6701 -10.4486 -4.6289 0.9484
7.8958 -10.2308 -4.8257 0.9463
10.2335 -9.2556 -5.1524 0.9428
13.3950 -1.4985 -5.0330 0.9441
12.2575 0.8206 -4.5873 0.9489
10.3560 2.5902 -3.9862 0.9554
7.9295 4.4610 -3.3974 0.9619
5.4926 5.4318 -2.8846 0.9676
4.7313 5.5962 -2.7364 0.9692
3.3139 5.7398 -2.4749 0.9721
2.0458 5.6866 -2.2567 0.9745
0.9237 5.4757 -2.0736 0.9766
0.4166 5.3314 -1.9969 0.9774
-0.0575 5.1631 -1.9281 0.9782
-0.9144 4.7701 -1.8136 0.9795
-1.6571 4.3026 -1.7217 0.9805
-2.4484 4.0307 -1.7610 0.9801
-2.7530 3.7364 -1.7330 0.9804
-3.0341 3.4307 -1.7102 0.9806
-3.7441 2.4493 -1.6707 0.9811
-3.9381 2.1015 -1.6668 0.9811
-2.5325 0.3406 -0.9542 0.9891
-2.5921 0.1156 -0.9689 0.9890
-2.6307 -0.1173 -0.9833 0.9888
-2.7556 -0.6244 -1.0551 0.9880
-2.8043 -0.9042 -1.1002 0.9875
-4.6586 -1.9754 -1.8895 0.9786
-4.5911 -2.4499 -1.9432 0.9780
-4.4908 -2.9378 -2.0039 0.9773
-4.1801 -3.9535 -2.1484 0.9757
-3.9625 -4.4805 -2.2335 0.9748
-3.6981 -5.0191 -2.3280 0.9737
-3.3820 -5.5676 -2.4325 0.9726
-3.0086 -6.1224 -2.5473 0.9713
-1.4919 -7.7830 -2.9592 0.9667
0.7264 -9.2955 -3.4816 0.9610
1.6387 -9.7147 -3.6788 0.9588
2.6369 -10.0647 -3.8851 0.9565
3.7150 -10.3258 -4.0977 0.9542
4.8617 -10.4768 -4.3128 0.9519
6.0596 -10.4955 -4.5254 0.9496
7.2836 -10.3611 -4.7293 0.9474
8.5019 -10.0561 -4.9172 0.9453
10.7638 -8.8964 -5.2145 0.9421
13.6010 -3.4018 -5.2352 0.9419
13.5157 -2.1253 -5.1089 0.9433
13.2263 -0.8854 -4.9499 0.9450
12.7596 0.2844 -4.7658 0.9470
8.3461 4.2175 -3.4919 0.9609
5.8850 5.3227 -2.9630 0.9667
4.3633 5.6537 -2.6668 0.9700
3.6544 5.7245 -2.5360 0.9714
2.3487 5.7153 -2.3073 0.9740
1.1908 5.5414 -2.1164 0.9761
-0.2827 5.0708 -1.8964 0.9785
-1.8265 4.1773 -1.7025 0.9807
-2.2870 4.1733 -1.7770 0.9799
-2.8964 3.5849 -1.7210 0.9805
-3.1661 3.2737 -1.7006 0.9807
-3.4135 2.9518 -1.6851 0.9809
-3.6392 2.6194 -1.6743 0.9810
-4.1901 1.5604 -1.6696 0.9811
-3.4442 0.9435 -1.3335 0.9849
-2.6096 0.4701 -0.9901 0.9887
-2.5691 0.0000 -1.0083 0.9890
-2.6073 -0.2330 -1.0273 0.9888
-2.6685 -0.4808 -1.0642 0.9884
-2.7221 -0.7457 -1.1077 0.9879
-4.3724 -2.5898 -1.9945 0.9784
-4.2539 -3.0618 -2.0570 0.9777
-3.9056 -4.0384 -2.2049 0.9761
-3.0508 -5.5670 -2.4915 0.9731
-1.6919 -7.0994 -2.8644 0.9691
0.2838 -8.4885 -3.3334 0.9642
1.9773 -9.2013 -3.6937 0.9604
3.9476 -9.6058 -4.0759 0.9564
7.1986 -9.3275 -4.6242 0.9506
9.2745 -8.3883 -4.9079 0.9477
10.1851 -7.6809 -5.0066 0.9467
12.3068 -2.5014 -4.9288 0.9475
12.1662 -1.3610 -4.8047 0.9488
11.4018 0.7632 -4.4849 0.9521
10.1672 1.5987 -4.0393 0.9567
8.1331 3.6646 -3.5011 0.9624
7.3881 4.1565 -3.3270 0.9642
4.4705 5.2877 -2.7175 0.9707
3.1475 5.4518 -2.4706 0.9733
0.3996 5.1132 -2.0129 0.9782
-0.0552 4.9587 -1.9463 0.9789
-0.4811 4.7828 -1.8866 0.9796
-0.8801 4.5913 -1.8348 0.9801
-1.2518 4.3779 -1.7871 0.9806
-2.0315 4.1341 -1.8078 0.9804
-2.3648 3.8931 -1.7877 0.9806
-2.9334 3.3169 -1.7378 0.9812
-3.9782 1.6869 -1.6959 0.9816
-2.4910 0.3350 -0.9865 0.9893
-2.5490 0.1137 -1.0014 0.9891
-2.5889 -0.1154 -1.0171 0.9889
-2.6312 -0.3539 -1.0420 0.9887
-2.7055 -0.6130 -1.0887 0.9882
-4.4190 -2.3581 -1.9658 0.9787
-4.1814 -3.3020 -2.0911 0.9774
-4.0076 -3.7904 -2.1649 0.9766
-3.7929 -4.2886 -2.2470 0.9757
-3.2249 -5.3089 -2.4379 0.9737
-2.8623 -5.8246 -2.5471 0.9725
-2.4415 -6.3392 -2.6661 0.9712
-1.4082 -7.3467 -2.9359 0.9684
-0.7873 -7.8260 -3.0870 0.9668
-0.0922 -8.2771 -3.2487 0.9651
2.4461 -9.3368 -3.7881 0.9594
4.4745 -9.6422 -4.1719 0.9554
5.5551 -9.6217 -4.3604 0.9534
6.6523 -9.4630 -4.5398 0.9515
10.5932 -7.2718 -5.0428 0.9463
11.2956 -6.3548 -5.0866 0.9458
12.1648 -4.2241 -5.0540 0.9462
11.6458 0.2595 -4.5718 0.9512
10.7994 1.2081 -4.2649 0.9544
8.4991 3.3825 -3.5901 0.9615
7.7621 3.9224 -3.4133 0.9633
7.0179 4.3707 -3.2448 0.9651
4.8192 5.2105 -2.7856 0.9700
4.1285 5.3495 -2.6521 0.9714
3.4666 5.4304 -2.5285 0.9727
2.2384 5.4471 -2.3113 0.9750
1.6706 5.3855 -2.2130 0.9761
0.1685 5.0388 -1.9787 0.9786
-0.2717 4.8733 -1.9156 0.9792
-1.0692 4.4866 -1.8102 0.9804
-1.7677 4.0429 -1.7318 0.9812
-2.7997 3.4653 -1.7484 0.9810
-3.5209 2.5342 -1.7026 0.9815
-3.4629 0.9486 -1.4092 0.9847
-2.5207 0.2253 -0.9932 0.9892
-2.5289 0.0000 -1.0413 0.9891
-2.5655 -0.2293 -1.0607 0.9889
-2.6211 -0.4722 -1.0967 0.9885
-2.6410 -0.7235 -1.1276 0.9882
-4.2968 -2.0524 -1.9608 0.9796
-4.2103 -2.4938 -2.0150 0.9791
-3.5135 -4.3487 -2.3021 0.9761
-3.2363 -4.8290 -2.3938 0.9752
-2.5318 -5.7904 -2.6023 0.9730
-2.0972 -6.2641 -2.7202 0.9718
-1.6030 -6.7267 -2.8475 0.9705
1.0236 -8.3110 -3.4482 0.9644
2.7268 -8.7904 -3.7899 0.9610
3.6591 -8.9038 -3.9640 0.9592
5.6193 -8.8026 -4.3003 0.9558
8.4703 -7.6610 -4.7029 0.9518
10.5443 -5.3283 -4.8648 0.9502
10.9445 -4.3558 -4.8505 0.9503
11.1316 -1.2453 -4.6124 0.9527
10.8773 -0.2424 -4.4802 0.9540
10.4916 0.7023 -4.3299 0.9555
9.5662 1.5042 -3.9876 0.9590
8.8399 2.2110 -3.7522 0.9613
6.9142 3.8899 -3.2668 0.9663
6.2324 4.2783 -3.1129 0.9678
5.5519 4.5887 -2.9660 0.9693
3.6016 5.1235 -2.5789 0.9733
1.8621 5.1757 -2.2650 0.9765
0.8480 5.0272 -2.0994 0.9782
-0.4631 4.6039 -1.9054 0.9802
-0.8479 4.4235 -1.8547 0.9807
-1.5426 4.0054 -1.7674 0.9816
-2.2858 3.7629 -1.8130 0.9811
-2.5729 3.4919 -1.7861 0.9814
-2.8380 3.2089 -1.7640 0.9816
-3.3049 2.6098 -1.7340 0.9819
-3.6897 1.9689 -1.7221 0.9821
-3.9938 1.2878 -1.7279 0.9820
-2.5068 0.1118 -1.0333 0.9892
-2.5854 -0.3477 -1.0742 0.9888
-2.6300 -0.5959 -1.1104 0.9884
-2.6464 -0.8534 -1.1450 0.9880
-4.3287 -1.8355 -1.9361 0.9799
-3.8468 -3.6383 -2.1803 0.9774
-3.6351 -4.1103 -2.2595 0.9765
-3.3807 -4.5884 -2.3469 0.9756
-3.0799 -5.0702 -2.4429 0.9747
-2.3217 -6.0283 -2.6601 0.9724
-1.3326 -6.9519 -2.9148 0.9698
-0.7429 -7.3850 -3.0564 0.9684
1.4267 -8.4577 -3.5319 0.9636
2.2791 -8.6993 -3.7031 0.9618
3.1873 -8.8593 -3.8770 0.9601
4.1403 -8.9222 -4.0503 0.9583
5.1230 -8.8732 -4.2191 0.9566
6.1153 -8.6991 -4.3787 0.9550
7.0929 -8.3895 -4.5238 0.9536
11.0814 -3.8479 -4.8304 0.9505
10.6996 0.2385 -4.4070 0.9548
9.1218 1.8541 -3.8330 0.9605
6.5738 4.0942 -3.1890 0.9671
5.8914 4.4428 -3.0385 0.9686
4.5579 4.9280 -2.7641 0.9714
3.9150 5.0721 -2.6384 0.9727
2.6983 5.1951 -2.4106 0.9750
2.1337 5.1919 -2.3114 0.9760
0.6123 4.9717 -2.0627 0.9786
0.1619 4.8414 -1.9947 0.9793
-0.2614 4.6882 -1.9335 0.9799
-0.6584 4.5147 -1.8787 0.9805
-1.0306 4.3247 -1.8307 0.9810
-2.1338 3.8938 -1.8284 0.9810
-2.7081 3.3519 -1.7745 0.9815
-2.9625 3.0632 -1.7548 0.9817
-3.1959 2.7636 -1.7398 0.9819
-3.4087 2.4534 -1.7294 0.9820
-3.7733 1.8024 -1.7219 0.9821
-2.5181 0.4537 -1.0536 0.9890
-2.4793 0.2216 -1.0250 0.9893
-4.1452 -1.9800 -1.9816 0.9802
-4.0577 -2.4034 -2.0343 0.9797
-3.0980 -4.6225 -2.4004 0.9761
-2.7809 -5.0745 -2.4961 0.9751
-2.4144 -5.5218 -2.5996 0.9741
-1.9957 -5.9610 -2.7116 0.9730
-0.9907 -6.7928 -2.9611 0.9705
0.2512 -7.5129 -3.2426 0.9678
1.7285 -8.0440 -3.5490 0.9648
2.5464 -8.2089 -3.7075 0.9633
3.4067 -8.2896 -3.8660 0.9617
5.2013 -8.1476 -4.1696 0.9588
6.0999 -7.9038 -4.3066 0.9574
7.7859 -7.0420 -4.5284 0.9553
8.5229 -6.4274 -4.6046 0.9546
10.0347 -3.9937 -4.6588 0.9540
10.2481 -1.1464 -4.4482 0.9561
10.0368 -0.2237 -4.3305 0.9572
9.7061 0.6498 -4.1962 0.9585
6.4920 3.6523 -3.2131 0.9681
5.2423 4.3329 -2.9337 0.9708
4.0130 4.7467 -2.6812 0.9733
3.4218 4.8675 -2.5665 0.9744
1.2850 4.9045 -2.1870 0.9782
0.3688 4.7191 -2.0418 0.9796
-0.4462 4.4357 -1.9230 0.9808
-1.1651 4.0746 -1.8281 0.9817
-1.5137 3.9302 -1.8167 0.9818
-2.4897 3.3791 -1.8105 0.9819
-2.7474 3.1066 -1.7889 0.9821
-3.2011 2.5279 -1.7595 0.9824
-3.3978 2.2227 -1.7514 0.9825
-3.5746 1.9075 -1.7478 0.9825
-3.7317 1.5824 -1.7484 0.9825
-2.4654 0.1099 -1.0646 0.9893
-2.5077 -0.1118 -1.0828 0.9891
-2.5465 -0.5769 -1.1263 0.9887
-2.5665 -0.8276 -1.1632 0.9883
-2.6695 -1.1320 -1.2508 0.9874
-4.0024 -2.6182 -2.0631 0.9794
-3.4881 -3.9440 -2.2712 0.9773
-2.9456 -4.8492 -2.4474 0.9756
-2.2118 -5.7427 -2.6546 0.9735
-1.7659 -6.1760 -2.7708 0.9724
-1.2637 -6.5927 -2.8956 0.9712
0.5991 -7.6670 -3.3173 0.9671
1.3383 -7.9340 -3.4707 0.9656
2.1316 -8.1362 -3.6281 0.9640
3.8490 -8.2943 -3.9443 0.9609
4.7485 -8.2247 -4.0966 0.9595
6.5399 -7.7354 -4.3694 0.9568
7.3862 -7.3043 -4.4809 0.9558
8.8539 -6.0779 -4.6325 0.9543
9.4275 -5.3038 -4.6660 0.9540
9.8683 -4.4464 -4.6689 0.9539
10.3085 -2.5783 -4.5836 0.9548
10.3040 -1.6202 -4.4993 0.9556
8.5367 1.7352 -3.7577 0.9628
7.3973 2.9440 -3.4343 0.9659
5.5553 4.1895 -3.0014 0.9701
3.7150 4.8137 -2.6229 0.9739
2.5747 4.9572 -2.4096 0.9760
2.0398 4.9635 -2.3148 0.9769
1.5301 4.9326 -2.2277 0.9778
1.0462 4.8687 -2.1481 0.9785
-0.2517 4.5145 -1.9504 0.9805
-0.6347 4.3520 -1.8971 0.9810
-0.9942 4.1720 -1.8501 0.9815
-1.3304 3.9737 -1.8076 0.9819
-1.7496 4.0014 -1.8838 0.9812
-2.0633 3.7651 -1.8520 0.9815
-2.3530 3.5109 -1.8231 0.9818
-3.4887 2.0663 -1.7490 0.9825
-3.8027 1.4162 -1.7504 0.9825
-2.4719 0.4454 -1.0835 0.9891
-2.4282 0.0000 -1.0956 0.9894
-2.4702 -0.6766 -1.1556 0.9888
-4.0019 -1.9115 -2.0012 0.9807
-3.9139 -2.3182 -2.0525 0.9802
-3.7953 -2.7317 -2.1100 0.9797
-3.2337 -4.0024 -2.3217 0.9777
-2.9692 -4.4304 -2.4065 0.9769
-2.3058 -5.2737 -2.5971 0.9751
-1.4478 -6.0754 -2.8181 0.9730
-0.3786 -6.7904 -3.0687 0.9706
0.2373 -7.0964 -3.2038 0.9693
4.0054 -7.7118 -3.9211 0.9626
5.6587 -7.3322 -4.1791 0.9602
8.4451 -5.2596 -4.4892 0.9573
8.9119 -4.5034 -4.5055 0.9571
9.5397 -1.9390 -4.3925 0.9582
9.4845 -1.0610 -4.3063 0.9590
9.3073 -0.2074 -4.2007 0.9600
8.6408 1.3587 -3.9468 0.9623
7.6992 1.9257 -3.5810 0.9658
6.1134 3.4393 -3.1650 0.9697
4.3846 4.3360 -2.7824 0.9733
3.2605 4.6380 -2.5581 0.9754
2.7223 4.7150 -2.4566 0.9764
2.2039 4.7491 -2.3624 0.9773
1.2329 4.7061 -2.1951 0.9789
0.7821 4.6369 -2.1218 0.9796
-0.4303 4.2771 -1.9396 0.9813
-1.1253 3.9356 -1.8470 0.9822
-1.5080 3.9156 -1.8933 0.9818
-2.1397 3.5225 -1.8597 0.9821
-2.4107 3.2719 -1.8338 0.9823
-2.6612 3.0091 -1.8126 0.9825
-3.2934 2.1544 -1.7758 0.9829
-3.4650 1.8490 -1.7722 0.9829
-3.6172 1.5338 -1.7728 0.9829
-3.7498 1.2092 -1.7778 0.9829
-2.3567 0.3169 -1.0730 0.9896
-2.4671 -0.5590 -1.1414 0.9890
-2.4891 -1.0555 -1.2199 0.9882
-3.9616 -2.1140 -2.0261 0.9805
-3.8585 -2.5242 -2.0805 0.9800
-3.7239 -2.9408 -2.1411 0.9794
-3.5555 -3.3627 -2.2082 0.9788
-3.1067 -4.2164 -2.3632 0.9773
-2.4892 -5.0654 -2.5467 0.9755
-2.1104 -5.4794 -2.6495 0.9746
-0.6663 -6.6229 -3.0034 0.9712
0.5652 -7.2326 -3.2734 0.9687
2.0002 -7.6348 -3.5612 0.9660
2.7813 -7.7307 -3.7071 0.9646
4.4207 -7.6569 -3.9894 0.9619
5.2498 -7.4679 -4.1189 0.9607
6.8320 -6.7563 -4.3356 0.9587
8.1689 -5.6077 -4.4709 0.9575
8.6933 -4.8908 -4.5007 0.9572
9.0993 -4.1000 -4.5033 0.9571
9.3761 -3.2558 -4.4785 0.9574
9.5187 -2.3808 -4.4273 0.9579
9.5280 -1.4982 -4.3520 0.9586
9.4104 -0.6299 -4.2556 0.9595
8.8416 0.9891 -4.0144 0.9617
5.8284 3.6300 -3.0982 0.9703
5.2515 3.9603 -2.9678 0.9715
4.6725 4.2260 -2.8427 0.9727
3.5362 4.5820 -2.6116 0.9749
2.9890 4.6822 -2.5065 0.9759
1.9527 4.7515 -2.3179 0.9777
1.4671 4.7295 -2.2343 0.9785
-0.9599 4.0278 -1.8683 0.9820
-1.2933 3.8630 -1.8381 0.9823
-1.6937 3.8736 -1.9076 0.9816
-1.9964 3.6430 -1.8744 0.9819
-2.2778 3.3988 -1.8461 0.9822
-2.5385 3.1420 -1.8226 0.9824
-3.2003 2.3034 -1.7792 0.9828
-3.5435 1.6926 -1.7720 0.9829
-3.8087 1.0433 -1.7819 0.9828
-2.4063 0.4335 -1.1032 0.9893
-2.3615 0.0000 -1.1132 0.9896
-2.3816 -0.4291 -1.1407 0.9894
-2.5489 -4.6511 -2.5000 0.9768
-2.2053 -5.0436 -2.5948 0.9760
-1.8161 -5.4245 -2.6965 0.9750
0.2246 -6.7183 -3.1686 0.9707
1.5304 -7.1220 -3.4338 0.9683
2.2431 -7.2311 -3.5688 0.9671
2.9857 -7.2652 -3.7025 0.9659
3.7473 -7.2148 -3.8323 0.9647
4.5147 -7.0721 -3.9550 0.9636
5.2717 -6.8308 -4.0673 0.9626
7.2973 -5.5031 -4.3083 0.9604
7.8278 -4.8752 -4.3469 0.9600
8.5772 -3.4137 -4.3515 0.9600
8.7773 -2.6159 -4.3172 0.9603
8.6678 -0.1931 -4.0868 0.9624
8.4177 0.5635 -3.9768 0.9634
6.7626 2.3482 -3.3745 0.9688
6.2817 2.8304 -3.2477 0.9700
4.7060 3.8896 -2.8779 0.9734
1.1843 4.5205 -2.2028 0.9795
-0.0475 4.2606 -2.0085 0.9813
-0.7619 3.9746 -1.9076 0.9823
-1.4840 3.8531 -1.9463 0.9819
-2.0720 3.4111 -1.8813 0.9825
-2.3355 3.1698 -1.8559 0.9827
-2.5791 2.9163 -1.8351 0.9829
-3.1937 2.0893 -1.7990 0.9833
-3.3604 1.7932 -1.7954 0.9833
-3.5079 1.4875 -1.7961 0.9833
-2.2973 0.3089 -1.0926 0.9898
-2.3488 0.1047 -1.1083 0.9897
-2.3694 -0.1056 -1.1180 0.9896
-2.3945 -0.7721 -1.1859 0.9889
-2.4109 -1.0223 -1.2344 0.9885
-3.8257 -2.0414 -2.0440 0.9810
-3.5892 -2.8344 -2.1558 0.9800
-2.7043 -4.4518 -2.4553 0.9772
0.5344 -6.8394 -3.2338 0.9701
2.6113 -7.2581 -3.6360 0.9665
3.3649 -7.2511 -3.7681 0.9653
4.8955 -6.9640 -4.0126 0.9631
5.6409 -6.6721 -4.1184 0.9621
6.3485 -6.2782 -4.2087 0.9613
6.9992 -5.7850 -4.2803 0.9606
8.0564 -4.5325 -4.3573 0.9599
8.8319 -2.2090 -4.2914 0.9605
8.8514 -1.3918 -4.2236 0.9612
8.7559 -0.5861 -4.1366 0.9619
8.5545 0.1906 -4.0334 0.9629
8.2592 0.9239 -3.9175 0.9639
7.8838 1.6024 -3.7922 0.9650
6.5266 2.5975 -3.3112 0.9694
6.0296 3.0469 -3.1845 0.9706
5.5091 3.4311 -3.0593 0.9717
4.9753 3.7520 -2.9373 0.9728
4.4366 4.0126 -2.8198 0.9739
3.9001 4.2167 -2.7075 0.9749
2.8551 4.4725 -2.5012 0.9768
2.3544 4.5329 -2.4077 0.9777
1.4083 4.5397 -2.2405 0.9792
0.9656 4.4937 -2.1666 0.9799
0.5443 4.4193 -2.0989 0.9805
0.1444 4.3193 -2.0372 0.9811
-1.6388 3.7480 -1.9282 0.9821
-2.2063 3.2920 -1.8681 0.9826
-2.4598 3.0445 -1.8450 0.9828
-2.9080 2.5147 -1.8122 0.9831
-3.5745 1.3312 -1.7980 0.9833
-2.3515 0.4236 -1.1263 0.9895
-2.3242 0.2077 -1.1000 0.9897
-2.2975 0.0000 -1.1300 0.9898
-2.3094 -0.2064 -1.1404 0.9897
-2.3175 -0.6348 -1.1819 0.9893
-3.6491 -2.1614 -2.0861 0.9813
-3.3841 -2.9263 -2.2005 0.9803
-3.2036 -3.3125 -2.2666 0.9797
-1.3164 -5.5241 -2.7932 0.9750
0.2131 -6.3734 -3.1366 0.9720
0.8101 -6.5771 -3.2594 0.9709
1.4456 -6.7274 -3.3845 0.9698
4.2290 -6.6246 -3.8657 0.9656
6.2303 -5.6349 -4.1318 0.9632
6.7971 -5.1259 -4.1873 0.9628
7.9838 -3.1775 -4.2265 0.9624
8.2297 -0.9207 -4.0730 0.9638
7.8824 0.5277 -3.8856 0.9654
7.5813 1.1921 -3.7747 0.9664
5.9313 2.6725 -3.1998 0.9714
5.4615 3.0726 -3.0822 0.9725
3.4671 4.1009 -2.6413 0.9763
2.4914 4.3153 -2.4508 0.9780
2.0236 4.3606 -2.3645 0.9788
-1.0858 3.7974 -1.9427 0.9825
-1.4363 3.7292 -1.9655 0.9823
-1.7318 3.5242 -1.9314 0.9826
-2.2637 3.0724 -1.8771 0.9831
-2.7188 2.5714 -1.8406 0.9835
-2.9180 2.3044 -1.8288 0.9836
-3.2604 1.7398 -1.8177 0.9837
-3.4035 1.4432 -1.8183 0.9837
-3.5277 1.1376 -1.8231 0.9836
-2.5042 0.5674 -1.2629 0.9886
-2.2513 0.3028 -1.1173 0.9899
-3.5942 -2.3512 -2.1125 0.9810
-3.1005 -3.5058 -2.3020 0.9794
-2.2833 -4.6464 -2.5464 0.9772
1.7762 -6.7799 -3.4473 0.9692
2.4586 -6.8337 -3.5721 0.9681
3.1614 -6.8127 -3.6941 0.9671
3.8736 -6.7092 -3.8104 0.9661
5.2702 -6.2336 -4.0149 0.9643
6.5224 -5.3909 -4.1620 0.9630
7.8480 -3.5361 -4.2338 0.9624
8.0928 -2.8101 -4.2136 0.9625
8.1781 -0.5475 -4.0314 0.9641
8.0032 0.1784 -3.9374 0.9649
5.6994 2.8800 -3.1409 0.9719
4.2201 3.8168 -2.7987 0.9750
1.3531 4.3620 -2.2463 0.9798
0.1393 4.1650 -2.0497 0.9816
-0.2258 4.0506 -1.9954 0.9821
-0.5711 3.9157 -1.9463 0.9825
-0.8990 3.7722 -1.9073 0.9829
-1.5866 3.6285 -1.9479 0.9825
-1.8721 3.4162 -1.9161 0.9828
-2.3846 2.9515 -1.8663 0.9832
-2.6121 2.7009 -1.8481 0.9834
-2.8207 2.4392 -1.8342 0.9835
-3.0106 2.1669 -1.8245 0.9836
-3.3343 1.5927 -1.8175 0.9837
-3.4680 1.2915 -1.8202 0.9836
-2.3061 0.4155 -1.1525 0.9896
-2.2481 -0.6158 -1.1950 0.9896
-2.2721 -1.0853 -1.2909 0.9887
-3.2648 -2.8232 -2.2127 0.9808
-2.8767 -3.5605 -2.3467 0.9796
-2.6305 -3.9250 -2.4224 0.9790
-1.6618 -4.9635 -2.6835 0.9767
-1.2580 -5.2788 -2.7821 0.9759
-0.8124 -5.5703 -2.8860 0.9750
-0.3252 -5.8321 -2.9946 0.9741
0.2025 -6.0573 -3.1071 0.9731
0.7684 -6.2388 -3.2226 0.9721
2.6480 -6.4435 -3.5715 0.9692
3.3104 -6.3736 -3.6820 0.9682
5.2477 -5.6738 -3.9622 0.9659
7.1798 -3.6281 -4.1241 0.9645
7.4593 -2.9687 -4.1159 0.9646
7.6411 -2.2773 -4.0876 0.9648
7.7073 -0.8622 -3.9760 0.9657
7.5983 -0.1693 -3.8964 0.9664
5.6130 2.5291 -3.1562 0.9727
5.1787 2.9134 -3.0463 0.9736
4.7238 3.2427 -2.9375 0.9746
4.2567 3.5182 -2.8312 0.9755
3.7841 3.7422 -2.7284 0.9764
3.3121 3.9176 -2.6300 0.9772
2.8454 4.0476 -2.5365 0.9780
2.3877 4.1356 -2.4482 0.9788
1.9422 4.1853 -2.3654 0.9795
0.3176 4.0641 -2.0899 0.9818
-0.3874 3.8511 -1.9843 0.9828
-1.0826 3.7859 -2.0187 0.9825
-1.9460 3.2035 -1.9216 0.9833
-2.1952 2.9794 -1.8973 0.9835
-2.6380 2.4950 -1.8615 0.9838
-2.8318 2.2363 -1.8499 0.9839
-3.1647 1.6887 -1.8390 0.9840
-3.4239 1.1041 -1.8443 0.9840
-2.4709 0.5598 -1.2989 0.9887
-2.2319 0.0995 -1.1453 0.9900
-2.2425 -0.5081 -1.1788 0.9897
-2.2673 -0.9614 -1.2625 0.9890
-2.3837 -1.2720 -1.3851 0.9879
-3.1801 -3.0077 -2.2441 0.9805
-2.9863 -3.3767 -2.3110 0.9799
-2.1905 -4.4575 -2.5463 0.9779
-1.8482 -4.7987 -2.6363 0.9772
-1.4651 -5.1238 -2.7321 0.9763
-1.0404 -5.4279 -2.8334 0.9755
-0.0662 -5.9497 -3.0504 0.9736
0.4809 -6.1540 -3.1646 0.9726
2.9784 -6.4182 -3.6274 0.9687
4.3012 -6.1185 -3.8343 0.9669
4.9402 -5.8432 -3.9228 0.9662
6.1000 -5.0417 -4.0572 0.9651
6.5911 -4.5245 -4.0986 0.9647
7.6946 -1.9246 -4.0663 0.9650
7.6640 -0.5130 -3.9379 0.9661
7.5111 0.1674 -3.8517 0.9668
6.9731 1.4173 -3.6480 0.9685
5.3989 2.7282 -3.1012 0.9732
4.4913 3.3871 -2.8839 0.9750
4.0207 3.6365 -2.7793 0.9759
3.5478 3.8358 -2.6787 0.9768
3.0778 3.9880 -2.5826 0.9776
2.1633 4.1650 -2.4061 0.9791
1.3013 4.1949 -2.2517 0.9805
0.8946 4.1629 -2.1829 0.9810
0.5054 4.1033 -2.1196 0.9816
-0.2181 3.9122 -2.0088 0.9825
-0.5521 3.7851 -1.9611 0.9830
-0.8947 3.7542 -1.9786 0.9828
-1.5367 3.5146 -1.9666 0.9829
-1.8143 3.3107 -1.9354 0.9832
-2.0729 3.0930 -1.9089 0.9834
-2.3128 2.8626 -1.8867 0.9836
-2.7372 2.3670 -1.8552 0.9839
-2.9219 2.1031 -1.8457 0.9839
-3.3661 1.2536 -1.8415 0.9840
-2.1873 -0.5992 -1.2107 0.9898
-2.2033 -1.0524 -1.3035 0.9890
-3.4127 -2.0214 -2.1175 0.9822
-3.2956 -2.3721 -2.1677 0.9818
-2.9775 -3.0787 -2.2865 0.9808
-2.7713 -3.4301 -2.3541 0.9802
-2.5310 -3.7765 -2.4270 0.9796
-2.2551 -4.1151 -2.5051 0.9789
-1.9426 -4.4430 -2.5887 0.9783
-1.5924 -4.7563 -2.6776 0.9775
-0.7760 -5.3210 -2.8706 0.9759
-0.3101 -5.5617 -2.9737 0.9751
0.7302 -5.9286 -3.1888 0.9733
1.2982 -6.0412 -3.2987 0.9724
2.5028 -6.0903 -3.5151 0.9706
4.9305 -5.3308 -3.8764 0.9676
5.9596 -4.4943 -3.9847 0.9667
6.9920 -2.7827 -4.0174 0.9665
7.1655 -2.1355 -3.9915 0.9667
7.2399 -0.8099 -3.8891 0.9675
7.1461 -0.1592 -3.8159 0.9681
6.7288 1.0581 -3.6363 0.9696
6.4233 1.6066 -3.5347 0.9704
6.0665 2.1065 -3.4283 0.9713
5.3640 2.4169 -3.1408 0.9737
4.0580 3.3540 -2.8105 0.9764
2.7258 3.8775 -2.5303 0.9787
2.2907 3.9677 -2.4458 0.9794
1.8658 4.0208 -2.3663 0.9801
1.4535 4.0399 -2.2920 0.9807
1.0553 4.0281 -2.2230 0.9813
-0.3745 3.7233 -1.9977 0.9832
-0.7120 3.7143 -2.0190 0.9830
-1.0498 3.6716 -2.0386 0.9828
-1.6264 3.3096 -1.9686 0.9834
-2.3540 2.6618 -1.8970 0.9840
-2.9200 1.9102 -1.8628 0.9843
-3.0729 1.6398 -1.8594 0.9843
-3.2078 1.3602 -1.8601 0.9843
-3.3243 1.0720 -1.8647 0.9843
-2.1681 0.2916 -1.1679 0.9901
-2.1735 0.0969 -1.1615 0.9902
-2.1912 -0.7066 -1.2291 0.9896
-3.3567 -2.1959 -2.1413 0.9820
-3.0685 -2.9022 -2.2547 0.9810
-1.7723 -4.6017 -2.6325 0.9779
-1.4029 -4.9062 -2.7241 0.9771
-0.9947 -5.1892 -2.8206 0.9763
-0.5478 -5.4454 -2.9217 0.9755
-0.0631 -5.6689 -3.0265 0.9746
3.4343 -5.9484 -3.6668 0.9693
4.0491 -5.7598 -3.7586 0.9686
4.6444 -5.4933 -3.8402 0.9679
7.2034 -0.4822 -3.8541 0.9678
7.0690 0.1576 -3.7747 0.9684
6.5831 1.3381 -3.5862 0.9700
4.7096 2.9332 -2.9619 0.9752
4.2780 3.2261 -2.8604 0.9760
3.8363 3.4697 -2.7614 0.9768
3.3907 3.6659 -2.6658 0.9776
2.0769 3.9987 -2.4054 0.9798
1.6580 4.0344 -2.3285 0.9804
1.2525 4.0377 -2.2569 0.9810
0.8620 4.0114 -2.1904 0.9816
0.4875 3.9583 -2.1291 0.9821
-0.8921 3.7434 -2.0543 0.9827
-1.7590 3.2098 -1.9540 0.9835
-2.2441 2.7775 -1.9062 0.9839
-2.4596 2.5432 -1.8887 0.9841
-2.6571 2.2977 -1.8753 0.9842
-2.8369 2.0419 -1.8660 0.9843
-3.2683 1.2171 -1.8619 0.9843
-2.2057 0.3974 -1.1965 0.9899
-2.1547 0.1925 -1.1549 0.9902
-2.1202 -0.1895 -1.1823 0.9903
-2.1250 -0.3828 -1.1992 0.9902
-2.1288 -0.5831 -1.2259 0.9900
-2.1317 -0.7938 -1.2633 0.9896
-2.4371 -3.6364 -2.4313 0.9802
-1.5275 -4.5624 -2.6722 0.9782
-1.1529 -4.8378 -2.7622 0.9775
0.6950 -5.6430 -3.1578 0.9743
1.7944 -5.7845 -3.3637 0.9727
2.9540 -5.6875 -3.5595 0.9711
3.5350 -5.5374 -3.6487 0.9704
5.6051 -4.2269 -3.8990 0.9684
6.0001 -3.7369 -3.9259 0.9682
6.3251 -3.1962 -3.9360 0.9681
6.8203 -1.3863 -3.8654 0.9687
6.7380 -0.1501 -3.7432 0.9696
6.3617 1.0003 -3.5766 0.9710
6.0821 1.5212 -3.4820 0.9717
5.7534 1.9978 -3.3826 0.9725
5.3400 2.4061 -3.2530 0.9736
3.4552 3.4169 -2.6989 0.9780
1.3992 3.8893 -2.2956 0.9813
1.0171 3.8822 -2.2289 0.9818
-0.3669 3.6470 -2.0358 0.9834
-1.3059 3.3907 -2.0180 0.9835
-2.2852 2.5840 -1.9159 0.9843
-2.4863 2.3516 -1.9007 0.9845
-2.8362 1.8554 -1.8823 0.9846
-2.4040 0.5447 -1.3690 0.9888
-2.1163 0.0944 -1.1766 0.9904
-2.1237 -0.2856 -1.1901 0.9902
-2.1231 -0.4810 -1.2091 0.9901
-2.1317 -0.6874 -1.2440 0.9898
-2.1463 -1.1453 -1.3512 0.9889
-3.2470 -2.1241 -2.1550 0.9824
-3.1189 -2.4629 -2.2072 0.9820
-2.9627 -2.8021 -2.2648 0.9815
-1.3447 -4.7028 -2.7166 0.9779
-0.5235 -5.2041 -2.9049 0.9764
0.4357 -5.5758 -3.1062 0.9747
0.9612 -5.6981 -3.2094 0.9739
2.0810 -5.7843 -3.4142 0.9723
3.2455 -5.6212 -3.6050 0.9707
4.3775 -5.1777 -3.7657 0.9695
4.9026 -4.8483 -3.8295 0.9689
5.3842 -4.4502 -3.8796 0.9685
5.8107 -3.9888 -3.9145 0.9683
6.1719 -3.4722 -3.9330 0.9681
6.8299 -1.0739 -3.8399 0.9689
6.7882 -0.4544 -3.7785 0.9694
4.0807 3.0773 -2.8386 0.9769
3.6652 3.3150 -2.7447 0.9776
2.8234 3.6583 -2.5666 0.9791
1.5952 3.8816 -2.3308 0.9810
0.8312 3.8682 -2.1974 0.9821
0.1254 3.7493 -2.0835 0.9830
-0.5360 3.6752 -2.0628 0.9831
-0.8658 3.6332 -2.0744 0.9831
-1.4437 3.3019 -2.0015 0.9836
-1.7061 3.1132 -1.9717 0.9839
-1.9509 2.9110 -1.9462 0.9841
-2.3880 2.4691 -1.9078 0.9844
-2.5803 2.2313 -1.8946 0.9845
-3.0525 1.4581 -1.8789 0.9846
-3.1745 1.1822 -1.8814 0.9846
-3.2784 0.8981 -1.8879 0.9846
-2.1578 0.3887 -1.2177 0.9900
-2.1018 0.1878 -1.1720 0.9904
-2.0684 -0.1848 -1.1990 0.9905
-2.0727 -0.3734 -1.2160 0.9903
-2.0740 -0.9907 -1.3270 0.9894
-2.1172 -1.2540 -1.4207 0.9887
-3.0819 -2.2183 -2.1923 0.9826
-2.9424 -2.5444 -2.2459 0.9822
-2.5773 -3.1899 -2.3677 0.9812
-2.0875 -3.8093 -2.5079 0.9801
-1.4666 -4.3805 -2.6670 0.9789
-0.2831 -5.0778 -2.9362 0.9768
0.1755 -5.2484 -3.0319 0.9760
1.7052 -5.4971 -3.3229 0.9738
3.3453 -5.2403 -3.5894 0.9717
4.8584 -4.3942 -3.7821 0.9702
5.9605 -3.0120 -3.8557 0.9696
6.1946 -2.4654 -3.8493 0.9697
6.4338 -1.3077 -3.7905 0.9701
6.3676 -0.1419 -3.6773 0.9710
6.0267 0.9477 -3.5222 0.9722
4.5829 2.5783 -3.0359 0.9760
3.7028 3.0605 -2.7735 0.9781
2.1143 3.6620 -2.4414 0.9807
1.3480 3.7469 -2.2990 0.9818
0.6266 3.7144 -2.1748 0.9828
0.2860 3.6600 -2.1196 0.9832
-0.3658 3.6366 -2.1102 0.9833
-0.9855 3.4465 -2.0696 0.9836
-1.2662 3.2876 -2.0340 0.9839
-1.5299 3.1133 -2.0027 0.9841
-1.7766 2.9247 -1.9757 0.9843
-2.0064 2.7231 -1.9528 0.9845
-2.2192 2.5093 -1.9340 0.9846
-2.4150 2.2841 -1.9191 0.9848
-2.7556 1.8026 -1.9011 0.9849
