ply
format ascii 1.0
element vertex 1585
property float32 x
property float32 y
property float32 z
property float32 I
end_header
-7.3879 -1.3310 2.1121 0.9693
-6.3669 -1.7441 1.8574 0.9729
-6.6663 -1.5104 1.9232 0.9720
-6.1791 -1.9925 1.8267 0.9734
-5.9866 -2.5385 1.8295 0.9733
-6.0874 -3.2484 1.9413 0.9717
-0.5864 4.0210 1.1433 0.9833
-6.0119 -2.2389 1.6904 0.9738
-5.9350 -2.8350 1.7331 0.9732
-6.1303 -1.9768 1.6972 0.9737
-5.9446 -2.5207 1.7014 0.9736
-0.5883 4.0341 1.0742 0.9833
-6.9892 -1.2592 1.7456 0.9712
-6.2849 -1.7216 1.6017 0.9735
-5.9858 -2.2291 1.5700 0.9740
-5.8916 -2.8142 1.6049 0.9735
-6.2044 -3.6749 1.7725 0.9707
-0.7770 4.0534 1.0145 0.9831
-5.9101 -2.5061 1.5779 0.9739
-6.8934 -1.2419 1.5987 0.9717
-5.8709 -2.8043 1.4850 0.9737
-6.1286 -3.6300 1.6258 0.9712
-0.7771 4.0539 0.9421 0.9832
-6.5041 -1.4736 1.5222 0.9730
-5.9167 -3.1572 1.5307 0.9729
-6.8600 -1.2359 1.4695 0.9719
-6.2383 -1.7089 1.3636 0.9739
-6.0793 -3.6008 1.4896 0.9715
-5.9012 -3.1490 1.4101 0.9730
-0.7773 4.0550 0.7990 0.9833
-6.4735 -1.4667 1.2845 0.9733
-5.8860 -3.1408 1.2911 0.9732
-0.5960 4.0863 0.7991 0.9833
-6.8229 -1.2292 1.2224 0.9722
-5.9541 -2.2173 1.1203 0.9745
-5.8488 -2.7937 1.1429 0.9740
-6.4653 -1.4648 1.1689 0.9734
-5.8800 -3.1377 1.1752 0.9733
-0.5979 4.0994 0.7305 0.9833
-6.8333 -1.2311 1.1056 0.9723
-6.2352 -1.7080 1.0294 0.9742
-5.9582 -2.2188 1.0124 0.9746
-6.0452 -3.5806 1.1188 0.9719
-0.7775 4.0561 0.6576 0.9834
-6.4709 -1.4661 1.0565 0.9735
-6.0711 -1.9577 1.0158 0.9745
-5.8925 -3.1444 1.0635 0.9733
-6.2551 -1.7134 0.9225 0.9741
-5.9719 -2.2240 0.9064 0.9746
-5.8673 -2.8026 0.9249 0.9741
-0.7776 4.0566 0.5875 0.9835
-5.8947 -2.4996 0.9107 0.9745
-6.8710 -1.2379 0.8749 0.9722
-6.2751 -1.7189 0.8153 0.9741
-5.9953 -2.2327 0.8017 0.9745
-6.0809 -3.6017 0.8857 0.9719
-6.5091 -1.4748 0.8364 0.9735
-5.9243 -3.1613 0.8415 0.9733
-0.6083 4.1712 0.5282 0.9832
-5.9228 -2.8290 0.7119 0.9739
-6.1269 -3.6290 0.7724 0.9718
-0.7801 4.0700 0.4495 0.9835
-6.5406 -1.4819 0.7274 0.9734
-5.9476 -2.5220 0.7007 0.9743
-5.9631 -3.1820 0.7331 0.9732
-5.9541 -2.8440 0.6049 0.9738
-6.5890 -1.4929 0.6194 0.9732
-6.1680 -1.9889 0.5941 0.9743
-5.9742 -2.5333 0.5949 0.9743
-7.0467 -1.2695 0.5366 0.9717
-6.0928 -2.2690 0.4872 0.9743
-6.2474 -3.7003 0.5441 0.9713
-0.7828 4.0838 0.3116 0.9835
-6.6380 -1.5040 0.5101 0.9731
-6.2114 -2.0029 0.4891 0.9742
-6.0207 -2.5530 0.4901 0.9741
-6.0480 -3.2273 0.5137 0.9729
-6.4322 -1.7619 0.3884 0.9736
-6.0549 -2.8922 0.3908 0.9735
-6.7074 -1.5197 0.4006 0.9728
-6.0695 -2.5737 0.3840 0.9739
-6.1173 -3.2643 0.4038 0.9726
-6.1912 -2.3056 0.2747 0.9739
-0.7855 4.0977 0.1735 0.9834
-6.7946 -1.5394 0.2897 0.9725
-6.3175 -2.0371 0.2760 0.9738
-6.1881 -3.3021 0.2916 0.9723
-7.6051 -1.3701 0.1927 0.9696
-6.5847 -1.8037 0.1703 0.9731
-0.7868 4.1046 0.1042 0.9834
-13.1671 7.0262 0.3722 0.9420
-13.7635 5.8362 0.3728 0.9419
-6.3898 -2.0604 0.1674 0.9735
-6.1951 -2.6269 0.1678 0.9734
-6.2956 -3.3594 0.1780 0.9719
-12.8741 7.6254 0.3732 0.9419
-6.6867 -1.8317 0.0576 0.9726
-6.2878 -3.0034 0.0579 0.9725
-0.7882 4.1118 0.0348 0.9834
-10.3409 9.7804 0.1183 0.9447
-11.4543 7.4931 0.1138 0.9467
-11.9943 6.4004 0.1130 0.9471
-13.6605 3.0951 0.1164 0.9455
-14.7127 0.6561 0.1224 0.9428
-6.4672 -2.0854 0.0565 0.9732
-6.2741 -2.6604 0.0566 0.9731
-10.0479 10.3895 0.1201 0.9438
-10.6266 9.1892 0.1168 0.9454
-11.7247 6.9446 0.1133 0.9469
-12.8098 4.7704 0.1136 0.9468
-13.8028 2.4867 0.1166 0.9454
-14.3885 1.2858 0.1201 0.9439
-6.4410 -2.3987 -0.0571 0.9729
-6.4104 -3.0620 -0.0590 0.9720
-8.8895 10.0516 -0.1115 0.9477
-9.4591 8.9464 -0.1082 0.9493
-9.9966 7.8943 -0.1059 0.9503
-10.5120 6.8766 -0.1044 0.9510
-12.0065 3.8716 -0.1049 0.9508
-7.2266 -1.6373 -0.0616 0.9708
-6.5817 -2.1223 -0.0575 0.9727
-6.3800 -2.7054 -0.0576 0.9727
-7.9481 11.8594 -0.1187 0.9445
-8.5891 10.6309 -0.1136 0.9468
-9.1790 9.4910 -0.1097 0.9486
-10.2565 7.3822 -0.1050 0.9507
-12.6824 2.2848 -0.1071 0.9498
-13.1459 1.1747 -0.1097 0.9486
-12.5746 0.0000 -0.3136 0.9509
-13.6088 -2.4517 -0.3449 0.9462
-6.5651 -2.4449 -0.1747 0.9724
-6.5807 -3.1433 -0.1819 0.9712
-7.5828 10.2916 -0.3188 0.9501
-8.7156 8.2433 -0.2992 0.9531
-9.7126 6.3538 -0.2894 0.9546
-10.1810 5.4328 -0.2878 0.9549
-10.6380 4.5109 -0.2882 0.9548
-12.3350 0.5500 -0.3079 0.9518
-7.6431 -1.7317 -0.1954 0.9691
-6.7042 -2.1618 -0.1757 0.9722
-6.5884 12.0223 -0.3419 0.9466
-7.2683 10.8450 -0.3256 0.9491
-7.8832 9.7572 -0.3128 0.9510
-9.4723 6.8178 -0.2911 0.9544
-9.9486 5.8926 -0.2884 0.9548
-10.4105 4.9727 -0.2877 0.9549
-10.8642 4.0459 -0.2891 0.9547
-11.7674 2.1200 -0.2982 0.9533
-12.1006 1.0813 -0.3030 0.9526
-11.6176 0.0000 -0.4831 0.9546
-12.4785 -2.2481 -0.5272 0.9505
-6.8730 -3.2829 -0.3167 0.9700
-4.0282 14.0878 -0.6092 0.9430
-6.3787 10.5007 -0.5109 0.9520
-8.0801 7.6422 -0.4624 0.9565
-9.0258 5.9044 -0.4485 0.9577
-9.4648 5.0506 -0.4461 0.9580
-10.3028 3.3222 -0.4501 0.9576
-10.7113 2.4269 -0.4567 0.9570
-11.0368 1.4843 -0.4630 0.9564
-11.4120 0.5089 -0.4750 0.9553
-12.2558 -1.6482 -0.5142 0.9517
-6.8966 -2.2238 -0.3013 0.9714
-6.7001 -2.8411 -0.3026 0.9713
-0.9924 4.1643 -0.1780 0.9830
-6.0450 11.0308 -0.5230 0.9509
-8.3269 7.2006 -0.4577 0.9569
-8.7990 6.3331 -0.4508 0.9575
-9.2475 5.4773 -0.4469 0.9579
-9.6784 4.6230 -0.4460 0.9580
-10.0968 3.7601 -0.4480 0.9578
-10.5074 2.8783 -0.4530 0.9573
-10.7950 0.0000 -0.6287 0.9577
-11.1543 -0.9968 -0.6523 0.9561
-11.5203 -2.0755 -0.6818 0.9542
-7.0010 -2.6072 -0.4351 0.9705
-12.7121 -6.0721 -0.8205 0.9451
-1.4714 14.6263 -0.8562 0.9428
-3.6747 12.8514 -0.7785 0.9479
-4.5119 11.7150 -0.7312 0.9509
-5.2473 10.6781 -0.6930 0.9534
-5.9025 9.7169 -0.6622 0.9555
-6.4935 8.8131 -0.6376 0.9571
-7.0329 7.9522 -0.6183 0.9584
-7.9934 6.3124 -0.5932 0.9600
-8.4289 5.5140 -0.5866 0.9604
-8.8420 4.7182 -0.5837 0.9606
-9.2374 3.9170 -0.5844 0.9606
-9.6190 3.1018 -0.5887 0.9603
-9.9908 2.2636 -0.5967 0.9598
-10.3440 1.3912 -0.6079 0.9590
-10.6164 0.4734 -0.6190 0.9583
-10.9741 -0.4893 -0.6398 0.9569
-0.9915 4.1605 -0.2491 0.9830
-4.8908 11.1857 -0.7110 0.9523
-5.5838 10.1893 -0.6767 0.9545
-6.2052 9.2588 -0.6492 0.9563
-6.7690 8.3781 -0.6273 0.9578
-7.2862 7.5340 -0.6104 0.9589
-8.2142 5.9123 -0.5895 0.9603
-8.6379 5.1163 -0.5847 0.9606
-9.0416 4.3189 -0.5836 0.9606
-10.0798 0.0000 -0.7554 0.9604
-10.6973 -1.9272 -0.8146 0.9573
-11.3163 -4.2142 -0.9049 0.9527
-11.6336 -5.5569 -0.9662 0.9496
-11.9627 -7.0855 -1.0419 0.9458
-0.1624 14.5726 -1.0921 0.9432
-1.3347 13.2681 -0.9993 0.9479
-6.0573 8.2211 -0.7653 0.9599
-6.5737 7.4331 -0.7436 0.9610
-7.4915 5.9160 -0.7154 0.9624
-7.9051 5.1713 -0.7079 0.9628
-8.2951 4.4264 -0.7046 0.9630
-9.0194 2.9084 -0.7102 0.9627
-9.3600 2.1207 -0.7192 0.9622
-9.9233 0.4425 -0.7444 0.9609
-10.2351 -0.4564 -0.7678 0.9597
-10.8511 -2.4585 -0.8338 0.9564
-11.1602 -3.5987 -0.8787 0.9541
-11.4739 -4.8654 -0.9340 0.9512
-11.7965 -6.2948 -1.0020 0.9478
-0.7750 13.8998 -1.0433 0.9457
-1.8487 12.6762 -0.9600 0.9499
-0.9916 4.1611 -0.3206 0.9830
-3.7854 11.3066 -0.8935 0.9533
-4.5273 10.3541 -0.8469 0.9557
-5.7813 8.6263 -0.7782 0.9592
-6.8163 7.0480 -0.7348 0.9614
-7.2743 6.2904 -0.7207 0.9622
-8.1028 4.7993 -0.7057 0.9629
-8.8442 3.2936 -0.7073 0.9629
-9.1912 2.5177 -0.7142 0.9625
-9.5262 1.7162 -0.7254 0.9619
-9.7823 0.8741 -0.7360 0.9614
-10.2357 -2.8038 -0.9730 0.9583
1.1287 14.4443 -1.3282 0.9435
-0.1473 13.2214 -1.2122 0.9483
-1.2211 12.1380 -1.1184 0.9522
-3.6347 9.4376 -0.9272 0.9602
-4.5363 9.2312 -0.9430 0.9595
-5.1336 8.4512 -0.9065 0.9611
-5.6751 7.7024 -0.8771 0.9623
-6.6255 6.2664 -0.8361 0.9640
-7.8108 4.1680 -0.8116 0.9651
-8.1589 3.4597 -0.8125 0.9650
-8.4888 2.7373 -0.8177 0.9648
-4.2496 0.5715 -0.3931 0.9829
-9.5879 -0.4275 -0.8799 0.9622
-9.8529 -1.3251 -0.9114 0.9609
-10.6032 -4.4962 -1.0559 0.9548
-10.8407 -5.7848 -1.1265 0.9518
-11.0735 -7.2439 -1.2131 0.9482
-11.3011 -8.9244 -1.3202 0.9438
0.4618 13.8122 -1.2670 0.9460
-0.7062 12.6663 -1.1630 0.9503
-4.2132 9.6360 -0.9642 0.9586
-4.8426 8.8367 -0.9238 0.9603
-5.4107 8.0734 -0.8910 0.9617
-5.9279 7.3371 -0.8648 0.9628
-6.4023 6.6199 -0.8443 0.9637
-6.8405 5.9152 -0.8291 0.9643
-7.2479 5.2168 -0.8187 0.9648
-8.6477 2.3688 -0.8220 0.9646
-4.1097 0.3672 -0.3783 0.9836
-9.1324 -0.8161 -0.9945 0.9638
-9.5649 -2.6201 -1.0757 0.9609
-9.7607 -3.6349 -1.1298 0.9590
-10.1067 -5.9862 -1.2741 0.9538
-10.2527 -7.3795 -1.3702 0.9504
-10.3766 -8.9729 -1.4880 0.9463
1.0243 13.1084 -1.4262 0.9485
-0.1347 12.0964 -1.3121 0.9525
-1.1249 11.1824 -1.2190 0.9558
-2.7306 9.5497 -1.0773 0.9608
-3.3940 8.8122 -1.0243 0.9627
-4.2473 8.6431 -1.0446 0.9620
-4.8184 7.9323 -1.0067 0.9633
-6.2486 5.9099 -0.9329 0.9660
-7.0281 4.5976 -0.9109 0.9668
-7.3786 3.9374 -0.9072 0.9669
-7.7071 3.2681 -0.9080 0.9669
-4.7637 1.0793 -0.5298 0.9805
-3.7517 0.5046 -0.4106 0.9849
-3.7330 0.1664 -0.4053 0.9851
-9.4617 -2.1437 -1.0523 0.9617
-9.6645 -3.1164 -1.1014 0.9600
-9.8533 -4.1781 -1.1609 0.9579
-10.0265 -5.3503 -1.2327 0.9553
-10.1821 -6.6608 -1.3197 0.9522
-10.3178 -8.1479 -1.4260 0.9485
-0.6484 11.6287 -1.2633 0.9542
-1.5679 10.7504 -1.1784 0.9572
-0.9919 4.1621 -0.4641 0.9829
-3.0720 9.1756 -1.0496 0.9618
-4.5400 8.2845 -1.0247 0.9627
-5.0838 7.5857 -0.9905 0.9639
-6.0346 6.2398 -0.9416 0.9657
-7.5455 3.6042 -0.9070 0.9669
-8.1635 2.2362 -0.9181 0.9665
-3.9948 0.7197 -0.4403 0.9838
-3.7414 0.3343 -0.4074 0.9850
-3.5692 0.0000 -0.4473 0.9857
-3.7700 -0.3369 -0.4743 0.9849
-8.8004 -1.5854 -1.1206 0.9646
-8.9745 -2.4584 -1.1661 0.9632
-9.1300 -3.4001 -1.2209 0.9615
-9.5101 -8.2237 -1.5756 0.9506
2.1811 12.9300 -1.6432 0.9485
-0.1241 11.1447 -1.3967 0.9561
-2.5524 8.9265 -1.1635 0.9633
-3.1826 8.2634 -1.1097 0.9649
-4.5388 7.4719 -1.0956 0.9654
-5.4920 6.2100 -1.0389 0.9671
-5.9111 5.5907 -1.0196 0.9677
-6.2981 4.9736 -1.0057 0.9682
-6.6569 4.3548 -0.9969 0.9684
-6.9905 3.7302 -0.9929 0.9686
-7.3013 3.0960 -0.9938 0.9685
-3.5494 0.4773 -0.4488 0.9857
-3.5348 0.1576 -0.4434 0.9858
-3.6310 -0.1619 -0.4555 0.9855
-8.8897 -2.0141 -1.1423 0.9639
-9.0547 -2.9198 -1.1922 0.9624
-9.3237 -4.9752 -1.3244 0.9583
-9.4217 -6.1634 -1.4109 0.9556
-9.5204 -9.0044 -1.6422 0.9485
-9.5039 -10.7462 -1.7978 0.9438
1.5335 12.4506 -1.5721 0.9507
0.3865 11.5606 -1.4495 0.9544
-0.5992 10.7453 -1.3486 0.9575
-1.4566 9.9878 -1.2649 0.9601
-2.8764 8.5913 -1.1354 0.9641
-4.2720 7.7955 -1.1140 0.9648
-6.1083 5.2821 -1.0120 0.9680
-6.8267 4.0435 -0.9943 0.9685
-7.7291 2.1172 -1.0043 0.9682
-3.3944 0.0000 -0.4828 0.9864
-8.5736 -3.1928 -1.3013 0.9637
-8.7417 -5.1777 -1.4451 0.9598
-8.7782 -6.3182 -1.5384 0.9572
4.8965 13.6100 -2.0573 0.9432
3.3211 12.6766 -1.8639 0.9484
0.8637 11.0524 -1.5768 0.9562
-0.9706 9.6482 -1.3793 0.9616
-2.3954 8.3775 -1.2393 0.9654
-2.9950 7.7764 -1.1853 0.9669
-3.5349 7.1933 -1.1400 0.9681
-4.2888 7.0604 -1.1750 0.9672
-5.2044 5.8847 -1.1174 0.9688
-5.6069 5.3030 -1.0977 0.9693
-6.3217 4.1355 -1.0745 0.9699
-7.2081 2.3243 -1.0772 0.9699
-4.1432 0.9387 -0.6042 0.9830
-3.3670 0.4528 -0.4832 0.9864
-3.4470 -0.1537 -0.4908 0.9862
-3.6292 -0.4881 -0.5208 0.9853
-8.6260 -3.6577 -1.3327 0.9629
-8.7645 -5.7335 -1.4897 0.9586
-8.7820 -6.9351 -1.5917 0.9558
-8.7553 -8.2807 -1.7141 0.9525
-8.5216 -11.5656 -2.0434 0.9436
4.0733 13.1310 -1.9555 0.9460
-0.5567 9.9836 -1.4222 0.9604
-1.3595 9.3215 -1.3399 0.9627
-3.2718 7.4829 -1.1616 0.9675
-4.5331 6.7638 -1.1581 0.9676
-6.1532 4.4289 -1.0784 0.9698
-6.7900 3.2433 -1.0703 0.9701
-7.8617 -1.4163 -1.2720 0.9682
-8.0790 -3.0086 -1.3728 0.9657
-8.1851 -4.8481 -1.5149 0.9622
-8.1426 -7.0412 -1.7142 0.9573
-8.0462 -8.3198 -1.8430 0.9542
-7.6386 -11.3977 -2.1848 0.9459
6.0996 13.1443 -2.3074 0.9430
4.4392 12.3389 -2.0881 0.9483
3.0376 11.5945 -1.9086 0.9526
0.8005 10.2437 -1.6361 0.9592
-0.1072 9.6209 -1.5321 0.9618
-2.2558 7.8892 -1.3066 0.9673
-2.8274 7.3412 -1.2527 0.9686
-4.5232 6.1389 -1.2142 0.9696
-5.6880 4.4918 -1.1541 0.9711
-6.0172 3.9363 -1.1450 0.9713
-6.3211 3.3731 -1.1409 0.9714
-6.6016 2.7993 -1.1418 0.9714
-6.8601 2.2121 -1.1478 0.9712
-3.2600 0.1454 -0.5196 0.9869
-3.3343 -0.1487 -0.5315 0.9866
-7.9251 -1.7956 -1.2940 0.9676
-8.0341 -2.5906 -1.3442 0.9664
-8.1904 -5.3579 -1.5585 0.9611
-7.9743 -9.0167 -1.9167 0.9524
-7.4770 -12.3088 -2.2933 0.9433
5.2328 12.7331 -2.1921 0.9458
1.3015 10.5669 -1.6953 0.9578
0.3320 9.9286 -1.5819 0.9606
-0.5196 9.3199 -1.4864 0.9629
-2.5490 7.6136 -1.2785 0.9680
-3.0920 7.0718 -1.2290 0.9692
-3.5904 6.5518 -1.1897 0.9702
-4.7382 5.8646 -1.2006 0.9699
-5.5133 4.7676 -1.1606 0.9709
-5.8559 4.2149 -1.1489 0.9712
-6.7335 2.5076 -1.1442 0.9713
-3.5500 0.6396 -0.5744 0.9855
-3.2454 0.2900 -0.5188 0.9869
-7.4608 -1.3441 -1.3367 0.9697
-7.6812 -3.6690 -1.5010 0.9660
-7.6928 -4.5565 -1.5765 0.9643
-7.6656 -5.5174 -1.6654 0.9624
-7.5927 -6.5657 -1.7700 0.9600
-7.4650 -7.7187 -1.8934 0.9573
-7.2701 -8.9984 -2.0398 0.9541
-6.9923 -10.4333 -2.2146 0.9503
5.5263 11.9087 -2.3149 0.9481
2.7976 10.6781 -1.9464 0.9562
-0.1002 9.0009 -1.5872 0.9641
-0.8525 8.4746 -1.5018 0.9660
-0.8255 4.3064 -0.7732 0.9823
-2.1308 7.4519 -1.3666 0.9690
-2.6766 6.9497 -1.3132 0.9702
-3.8604 6.3552 -1.3111 0.9702
-4.3022 5.8391 -1.2789 0.9710
-4.7076 5.3231 -1.2530 0.9715
-5.4233 4.2828 -1.2185 0.9723
-6.2975 2.6704 -1.2061 0.9726
-6.5425 2.1097 -1.2121 0.9725
-3.3507 -0.4506 -0.5961 0.9864
-7.5143 -1.7025 -1.3586 0.9692
-7.6844 -5.0269 -1.6192 0.9634
-7.3768 -8.3412 -1.9634 0.9558
-7.1427 -9.6942 -2.1232 0.9523
-6.3692 -12.9610 -2.5464 0.9430
6.3545 12.2346 -2.4309 0.9455
2.2319 10.3862 -1.8732 0.9578
-0.4871 8.7360 -1.5428 0.9651
-1.1983 8.2162 -1.4641 0.9668
-0.9948 4.1746 -0.7567 0.9827
-2.4105 7.1998 -1.3388 0.9696
-2.9300 6.7012 -1.2896 0.9707
-4.0862 6.0970 -1.2942 0.9706
-4.5093 5.5812 -1.2652 0.9713
-5.5845 4.0196 -1.2133 0.9724
-4.2904 1.1753 -0.7844 0.9821
-3.1014 0.0000 -0.6002 0.9874
-7.2539 -4.2965 -1.6315 0.9662
-6.7423 -8.3451 -2.0761 0.9572
-6.4442 -9.6155 -2.2400 0.9539
-6.0459 -11.0325 -2.4346 0.9500
8.3496 11.8775 -2.8096 0.9426
5.0489 10.8800 -2.3211 0.9523
2.5915 9.8917 -1.9788 0.9592
1.5866 9.4059 -1.8459 0.9619
0.6975 8.9264 -1.7327 0.9642
-1.4418 7.5216 -1.4821 0.9693
-2.0181 7.0577 -1.4205 0.9705
-2.5402 6.5955 -1.3677 0.9716
-4.1008 5.5657 -1.3378 0.9722
-5.1808 4.0913 -1.2775 0.9735
-5.7633 3.0754 -1.2642 0.9737
-6.0186 2.5521 -1.2651 0.9737
-6.2514 2.0158 -1.2711 0.9736
-3.6833 0.8346 -0.7309 0.9847
-3.1048 0.4176 -0.6062 0.9873
-3.2339 -0.4349 -0.6315 0.9868
-7.2629 -3.8756 -1.5931 0.9670
-7.1637 -5.6572 -1.7665 0.9635
-7.0421 -6.6603 -1.8757 0.9613
-6.8599 -7.7566 -2.0039 0.9587
-5.8015 -11.8057 -2.5456 0.9478
-5.2016 -13.5055 -2.8007 0.9427
5.7806 11.1295 -2.4269 0.9502
4.3690 10.6312 -2.2243 0.9543
3.1445 10.1369 -2.0539 0.9577
2.0733 9.6480 -1.9097 0.9606
0.2905 8.6889 -1.6824 0.9652
-0.4582 8.2182 -1.5928 0.9670
-3.2373 5.9074 -1.3036 0.9729
-3.8926 5.8083 -1.3531 0.9719
-5.3359 3.8405 -1.2723 0.9736
-5.6269 3.3329 -1.2656 0.9737
-5.8939 2.8153 -1.2640 0.9737
-6.1378 2.2858 -1.2675 0.9737
-4.1640 1.1407 -0.8355 0.9826
-3.3306 0.6000 -0.6549 0.9863
-3.0639 0.2738 -0.5953 0.9875
-3.0211 0.0000 -0.6369 0.9877
-3.2303 -0.5820 -0.6920 0.9867
-6.8341 -1.8720 -1.4938 0.9714
-6.7943 -4.8902 -1.7648 0.9664
-6.2832 -7.7768 -2.1078 0.9600
-4.3808 -13.0847 -2.9090 0.9452
9.3576 11.0683 -3.0556 0.9425
7.5546 10.7465 -2.7694 0.9477
5.9986 10.3898 -2.5292 0.9521
3.4590 9.6144 -2.1541 0.9591
1.4840 8.7976 -1.8809 0.9642
0.6550 8.3823 -1.7726 0.9662
-1.3660 7.1263 -1.5297 0.9708
-1.9159 6.7006 -1.4692 0.9719
-4.2930 4.8542 -1.3662 0.9739
-5.2500 3.4344 -1.3226 0.9747
-5.9835 1.9295 -1.3254 0.9746
-3.5520 0.8048 -0.7678 0.9852
-3.0346 0.4081 -0.6455 0.9876
-3.0505 -0.1360 -0.6438 0.9876
-6.8585 -2.2116 -1.5192 0.9710
-6.8845 -2.9193 -1.5765 0.9699
-6.6060 -6.2479 -1.9169 0.9635
-6.4080 -7.2456 -2.0392 0.9612
-4.7343 -12.2923 -2.7770 0.9476
-3.9816 -13.9246 -3.0532 0.9425
4.0329 9.8136 -2.2368 0.9576
1.0580 8.5904 -1.8247 0.9652
0.2733 8.1738 -1.7242 0.9671
-0.9984 4.1897 -0.9080 0.9825
-2.1718 6.4871 -1.4422 0.9724
-3.7155 5.5440 -1.4070 0.9731
-4.1086 5.0853 -1.3783 0.9736
-4.4698 4.6218 -1.3555 0.9741
-4.8019 4.1524 -1.3384 0.9744
-5.3867 3.1906 -1.3199 0.9747
-5.8754 2.1881 -1.3218 0.9747
-3.2435 0.5844 -0.6948 0.9866
-6.5173 -1.7853 -1.5424 0.9727
-6.5043 -3.8525 -1.7254 0.9695
-4.6457 -10.6251 -2.6468 0.9535
-3.1957 -13.4097 -3.1464 0.9450
6.8936 9.8062 -2.7359 0.9520
5.5156 9.5532 -2.5178 0.9557
4.2987 9.2636 -2.3309 0.9590
3.2189 8.9471 -2.1702 0.9617
2.2559 8.6107 -2.0317 0.9641
0.6172 7.8977 -1.8081 0.9680
-0.0838 7.5272 -1.7181 0.9696
-1.2973 6.7681 -1.5729 0.9721
-1.8230 6.3754 -1.5135 0.9732
-2.3028 5.9793 -1.4625 0.9741
-2.7419 5.5796 -1.4190 0.9748
-4.4445 4.2036 -1.3963 0.9752
-4.7516 3.7524 -1.3819 0.9755
-5.5245 2.3426 -1.3696 0.9757
-5.7359 1.8496 -1.3756 0.9756
-3.4289 0.7769 -0.8025 0.9857
-6.5354 -2.1074 -1.5673 0.9722
-6.5486 -2.7769 -1.6235 0.9712
-6.5283 -3.4836 -1.6889 0.9701
-6.4702 -4.2326 -1.7647 0.9688
-6.3690 -5.0296 -1.8523 0.9673
-6.2182 -5.8811 -1.9535 0.9655
-6.0093 -6.7949 -2.0704 0.9635
-4.3418 -11.2733 -2.7573 0.9516
-3.6215 -12.6650 -3.0066 0.9474
9.3292 10.0866 -3.1360 0.9452
7.6520 9.9150 -2.8586 0.9499
4.8886 9.4123 -2.4208 0.9574
1.8130 8.4368 -1.9696 0.9652
0.9951 8.0799 -1.8581 0.9672
-1.0150 6.9598 -1.6053 0.9716
-1.0003 4.1974 -0.9848 0.9825
-2.0683 6.1778 -1.4870 0.9736
-2.9587 5.3989 -1.4052 0.9751
-3.9321 4.8669 -1.4281 0.9747
-4.2809 4.4264 -1.4055 0.9751
-4.6014 3.9790 -1.3884 0.9754
-5.6330 2.0978 -1.3720 0.9756
-3.8725 1.0608 -0.9164 0.9837
-2.9882 -0.2670 -0.7374 0.9877
-3.1004 -0.5586 -0.7743 0.9871
-6.2266 -1.7056 -1.5869 0.9738
-6.2445 -2.3255 -1.6379 0.9729
-6.2307 -2.9762 -1.6973 0.9720
-6.1813 -3.6612 -1.7659 0.9708
-5.7704 -5.9666 -2.0403 0.9664
-5.2044 -7.7655 -2.2978 0.9622
-4.3010 -9.8368 -2.6389 0.9567
-3.6810 -10.9947 -2.8500 0.9534
11.0267 9.1138 -3.5163 0.9428
9.2737 9.1710 -3.2059 0.9477
7.7183 9.1292 -2.9384 0.9520
3.0085 8.3622 -2.1844 0.9641
2.1173 8.0816 -2.0535 0.9662
-0.6832 6.7916 -1.6778 0.9723
-1.2346 6.4407 -1.6119 0.9733
-1.7380 6.0782 -1.5539 0.9743
-2.1989 5.7095 -1.5039 0.9751
-2.6216 5.3349 -1.4611 0.9758
-3.2075 5.2804 -1.5186 0.9749
-4.2641 4.0330 -1.4426 0.9761
-4.5606 3.6015 -1.4284 0.9763
-4.8321 3.1610 -1.4193 0.9765
-5.0797 2.7107 -1.4153 0.9766
-3.0389 -0.4087 -0.7537 0.9874
-5.6548 -6.3940 -2.0981 0.9655
-5.3733 -7.2926 -2.2266 0.9634
-4.0073 -10.4046 -2.7406 0.9551
-3.3193 -11.6083 -2.9677 0.9515
10.1239 9.1565 -3.3553 0.9453
7.0066 9.0787 -2.8188 0.9539
3.4903 8.4930 -2.2570 0.9629
2.5514 8.2248 -2.1167 0.9652
0.9389 7.6234 -1.8880 0.9689
0.2441 7.2991 -1.7951 0.9704
-1.9735 5.8946 -1.5279 0.9747
-2.4148 5.5229 -1.4816 0.9755
-2.8834 5.2616 -1.4748 0.9756
-3.4025 5.0770 -1.5023 0.9751
-3.7690 4.6650 -1.4741 0.9756
-4.4155 3.8183 -1.4349 0.9762
-3.0843 0.5557 -0.7703 0.9872
-2.8807 0.2574 -0.7109 0.9882
-2.8744 0.0000 -0.7574 0.9882
-2.9343 -0.2622 -0.7763 0.9879
-3.0385 -0.5474 -0.8135 0.9873
-5.9585 -1.6322 -1.6279 0.9748
-5.9675 -2.2223 -1.6779 0.9740
-5.9447 -2.8395 -1.7359 0.9731
-5.8867 -3.4867 -1.8028 0.9721
-5.6475 -4.8836 -1.9673 0.9696
-5.4549 -5.6404 -2.0676 0.9681
-5.2042 -6.4413 -2.1820 0.9663
-4.0017 -9.1521 -2.6320 0.9595
-2.6821 -11.2545 -3.0486 0.9533
-1.8076 -12.3942 -3.3004 0.9495
9.9691 8.2397 -3.4080 0.9479
8.4559 8.3622 -3.1336 0.9520
5.8566 8.3312 -2.6834 0.9587
4.7428 8.2147 -2.4994 0.9615
2.8225 7.8452 -2.1969 0.9661
0.5525 7.0705 -1.8688 0.9711
-0.6503 6.4647 -1.7120 0.9735
-1.1771 6.1411 -1.6476 0.9745
-1.6599 5.8052 -1.5910 0.9753
-2.5106 5.1090 -1.5000 0.9767
-3.4442 4.6746 -1.5300 0.9763
-4.0964 3.8744 -1.4857 0.9769
-4.3830 3.4612 -1.4716 0.9772
-5.0994 2.1624 -1.4595 0.9773
-2.8316 0.3808 -0.7529 0.9883
-2.8514 0.1272 -0.7521 0.9883
-2.9007 -0.1294 -0.7651 0.9881
-5.9668 -1.9240 -1.6520 0.9744
-5.9602 -2.5273 -1.7059 0.9736
-5.7243 -4.5204 -1.9220 0.9703
-5.5580 -5.2567 -2.0158 0.9689
-5.0542 -6.8597 -2.2452 0.9654
-1.3066 -12.9877 -3.4395 0.9474
9.1933 8.3148 -3.2663 0.9500
7.7554 8.3850 -3.0096 0.9539
3.2678 7.9516 -2.2653 0.9651
1.6080 7.4830 -2.0168 0.9688
0.8883 7.2126 -1.9149 0.9704
0.2315 6.9243 -1.8256 0.9717
-0.3692 6.6211 -1.7474 0.9729
-1.8862 5.6340 -1.5656 0.9757
-2.3112 5.2859 -1.5201 0.9764
-2.8317 5.1672 -1.5526 0.9759
-3.2634 4.8694 -1.5446 0.9760
-4.2428 3.6690 -1.4780 0.9771
-4.9943 2.3856 -1.4584 0.9774
-3.7366 1.0236 -1.0209 0.9841
-2.8348 0.2533 -0.7499 0.9883
-2.8279 0.0000 -0.7956 0.9883
-2.8819 -0.2575 -0.8141 0.9880
-2.9786 -0.5366 -0.8515 0.9875
-5.7105 -1.5643 -1.6659 0.9757
-5.7118 -2.1271 -1.7149 0.9750
-5.6816 -2.7138 -1.7716 0.9742
-5.5129 -3.9679 -1.9111 0.9722
-5.3658 -4.6401 -1.9959 0.9710
-5.1698 -5.3455 -2.0923 0.9696
-4.9179 -6.0870 -2.2018 0.9680
-4.6022 -6.8670 -2.3259 0.9662
-4.2131 -7.6880 -2.4666 0.9642
-3.7392 -8.5517 -2.6260 0.9620
-3.1671 -9.4596 -2.8067 0.9594
-1.6612 -11.3904 -3.2387 0.9533
-0.6918 -12.4078 -3.4964 0.9497
0.4497 -13.4502 -3.7864 0.9456
6.5516 7.7492 -2.8551 0.9587
4.4285 7.6704 -2.4920 0.9639
3.5028 7.5483 -2.3413 0.9660
1.1744 6.9622 -1.9865 0.9711
0.5247 6.7145 -1.8949 0.9724
-0.0718 6.4478 -1.8142 0.9736
-2.0147 5.2311 -1.5772 0.9770
-2.4078 4.8999 -1.5361 0.9776
-2.9520 4.8598 -1.5998 0.9766
-3.3090 4.4911 -1.5696 0.9771
-3.6378 4.1134 -1.5450 0.9774
-3.9401 3.7265 -1.5259 0.9777
-4.2173 3.3304 -1.5119 0.9779
-4.7006 2.5083 -1.4991 0.9781
-3.1370 0.7107 -0.9050 0.9867
-2.8531 -0.1272 -0.8035 0.9882
-3.0353 -0.6877 -0.8756 0.9872
-5.7008 -2.4173 -1.7422 0.9746
-5.6536 -3.0169 -1.8030 0.9737
-5.2743 -4.9884 -2.0426 0.9703
-5.0513 -5.7116 -2.1453 0.9688
-4.7686 -6.4721 -2.2619 0.9671
-4.4175 -7.2723 -2.3940 0.9653
-3.9875 -8.1144 -2.5438 0.9631
-3.4663 -9.0001 -2.7136 0.9607
-2.8394 -9.9301 -2.9059 0.9580
-1.1967 -11.8953 -3.3637 0.9515
-0.1440 -12.9266 -3.6372 0.9477
9.7953 7.3870 -3.4518 0.9503
8.4132 7.6092 -3.1916 0.9540
7.1449 7.7249 -2.9606 0.9572
4.9238 7.7130 -2.5746 0.9627
3.0703 7.4711 -2.2726 0.9670
0.2201 6.5834 -1.8533 0.9730
-0.3517 6.3085 -1.7777 0.9741
-1.0061 4.2219 -1.2211 0.9821
-2.7623 5.0407 -1.6172 0.9764
-3.7922 3.9211 -1.5348 0.9776
-4.3468 3.1287 -1.5069 0.9780
-2.9228 0.5266 -0.8356 0.9877
-2.7884 0.2492 -0.7877 0.9884
-2.7824 0.0000 -0.8330 0.9884
-2.9224 -0.5265 -0.8890 0.9877
-5.4386 -2.5978 -1.8044 0.9751
-5.2594 -3.7855 -1.9400 0.9733
-5.1087 -4.4177 -2.0220 0.9722
-4.9107 -5.0776 -2.1148 0.9709
-4.6593 -5.7668 -2.2196 0.9695
-4.3473 -6.4866 -2.3378 0.9679
-3.9664 -7.2378 -2.4709 0.9661
-2.9577 -8.8343 -2.7891 0.9618
-2.3050 -9.6724 -2.9768 0.9593
-0.6358 -11.4015 -3.4187 0.9534
0.4105 -12.2769 -3.6775 0.9500
1.6183 -13.1395 -3.9634 0.9462
10.9419 6.1558 -3.7586 0.9489
8.3465 6.8985 -3.2418 0.9558
4.1509 7.1896 -2.4854 0.9659
1.7829 6.8055 -2.1062 0.9711
-1.2352 4.3199 -1.3451 0.9814
-1.9325 5.0178 -1.6098 0.9778
-3.1829 4.3200 -1.6065 0.9778
-4.3071 2.8176 -1.5409 0.9787
-4.5292 2.4169 -1.5369 0.9788
-4.7291 2.0053 -1.5378 0.9788
-4.9070 1.5823 -1.5436 0.9787
-3.0564 0.6925 -0.9382 0.9870
-2.7619 0.1231 -0.8277 0.9885
-2.8771 -0.3869 -0.8691 0.9880
-3.1091 -1.0026 -0.9780 0.9865
-5.4609 -2.3156 -1.7758 0.9755
-5.1897 -4.0982 -1.9797 0.9728
-5.0160 -4.7441 -2.0670 0.9716
-4.7921 -5.4185 -2.1656 0.9702
-4.5113 -6.1229 -2.2769 0.9687
-4.1660 -6.8582 -2.4023 0.9670
-3.2443 -8.4237 -2.7025 0.9630
-1.9357 -10.0987 -3.0784 0.9580
2.2872 -13.5593 -4.1167 0.9442
11.6382 5.8810 -3.9038 0.9470
10.2633 6.3921 -3.6198 0.9508
6.6189 7.1563 -2.9183 0.9601
5.5722 7.2200 -2.7304 0.9626
3.7145 7.1517 -2.4126 0.9669
2.1381 6.8925 -2.1605 0.9703
0.8009 6.5027 -1.9615 0.9730
0.2098 6.2716 -1.8787 0.9741
-0.8389 5.7521 -1.7403 0.9760
-1.0096 4.2367 -1.3039 0.9820
-1.7310 5.1704 -1.6324 0.9775
-2.1261 4.8626 -1.5888 0.9781
-2.6540 4.8429 -1.6533 0.9772
-3.0137 4.4968 -1.6206 0.9777
-3.3454 4.1407 -1.5937 0.9780
-4.1875 3.0140 -1.5446 0.9787
-4.4209 2.6186 -1.5383 0.9788
-3.5598 0.9751 -1.1050 0.9847
-2.7380 0.0000 -0.8695 0.9886
-2.9540 -0.8092 -0.9727 0.9872
-5.2550 -1.9570 -1.7809 0.9767
-5.2134 -2.4902 -1.8349 0.9760
-5.1382 -3.0434 -1.8966 0.9752
-4.6741 -4.8330 -2.1353 0.9722
-4.1169 -6.1429 -2.3485 0.9694
-3.7449 -6.8336 -2.4748 0.9678
-3.2999 -7.5471 -2.6160 0.9660
-2.7726 -8.2814 -2.7736 0.9640
-2.1516 -9.0285 -2.9476 0.9618
-1.4268 -9.7830 -3.1398 0.9594
0.3773 -11.2827 -3.5852 0.9537
2.7224 -12.6688 -4.1153 0.9471
13.6528 3.4148 -4.4695 0.9426
11.1937 5.0437 -3.8991 0.9498
7.7098 6.3723 -3.1766 0.9589
6.6610 6.5872 -2.9751 0.9614
1.0608 6.2887 -2.0254 0.9736
0.4761 6.0922 -1.9407 0.9747
-1.0305 5.3760 -1.7384 0.9773
-1.2297 4.3006 -1.4205 0.9814
-2.2526 4.5840 -1.6221 0.9788
-3.0650 4.1598 -1.6410 0.9785
-3.3734 3.8144 -1.6172 0.9789
-3.6570 3.4588 -1.5986 0.9791
-3.9168 3.0931 -1.5850 0.9793
-4.1537 2.7173 -1.5764 0.9794
-4.3683 2.3310 -1.5725 0.9794
-2.9791 0.6750 -0.9701 0.9873
-2.6672 0.3587 -0.8547 0.9888
-2.9205 -0.6617 -0.9510 0.9875
-3.1071 -1.0019 -1.0368 0.9864
-5.2382 -2.2212 -1.8070 0.9764
-5.1802 -2.7642 -1.8647 0.9757
-4.9548 -3.9128 -2.0051 0.9739
-4.5559 -5.1514 -2.1841 0.9716
-4.2781 -5.8064 -2.2905 0.9702
-3.9395 -6.4853 -2.4099 0.9687
-3.5321 -7.1876 -2.5434 0.9669
-3.0472 -7.9119 -2.6926 0.9650
-2.4747 -8.6544 -2.8587 0.9629
-1.8028 -9.4050 -3.0413 0.9606
-1.0222 -10.1612 -3.2433 0.9580
-0.1216 -10.9128 -3.4660 0.9552
2.0818 -12.3420 -3.9750 0.9488
3.3998 -12.9768 -4.2603 0.9453
13.0411 3.8867 -4.3217 0.9445
11.8079 4.6995 -4.0361 0.9481
10.5854 5.3491 -3.7666 0.9514
9.3968 5.8524 -3.5157 0.9546
5.2098 6.7505 -2.7081 0.9648
3.4994 6.7376 -2.4111 0.9686
2.0266 6.5331 -2.1723 0.9717
0.7629 6.1933 -1.9818 0.9742
0.2001 5.9856 -1.9020 0.9752
-1.0133 4.2518 -1.3881 0.9818
-2.9010 4.3287 -1.6549 0.9784
-3.2224 3.9884 -1.6284 0.9787
-3.7898 3.2772 -1.5912 0.9792
-4.0381 2.9065 -1.5801 0.9793
-4.2638 2.5255 -1.5738 0.9794
-2.7749 0.4999 -0.8954 0.9882
-2.6945 0.0000 -0.9053 0.9887
-2.7374 -0.2446 -0.9234 0.9885
-2.8177 -0.5077 -0.9619 0.9880
-5.0041 -2.3902 -1.8632 0.9769
-4.9252 -2.9172 -1.9233 0.9761
-4.8103 -3.4623 -1.9913 0.9753
-4.2096 -5.2103 -2.2505 0.9721
-3.9076 -5.8306 -2.3582 0.9708
-3.1141 -7.1223 -2.6117 0.9677
-0.5458 -9.7894 -3.2942 0.9595
0.3487 -10.4293 -3.5060 0.9569
1.3589 -11.0330 -3.7349 0.9542
14.1866 0.9497 -4.7771 0.9418
13.2974 2.0909 -4.5226 0.9448
12.3146 3.0801 -4.2649 0.9478
11.2812 3.9173 -4.0123 0.9509
8.1484 5.5936 -3.3207 0.9592
7.1579 5.9162 -3.1201 0.9616
6.2125 6.1436 -2.9355 0.9638
4.4733 6.3634 -2.6134 0.9677
2.9425 6.3409 -2.3486 0.9709
1.0111 5.9943 -2.0424 0.9747
0.4547 5.8186 -1.9609 0.9757
-0.0626 5.6189 -1.8880 0.9766
-0.9885 5.1573 -1.7643 0.9781
-1.2242 4.2812 -1.4961 0.9814
-1.7847 4.6340 -1.6684 0.9793
-2.2341 4.5464 -1.7020 0.9789
-3.5282 3.3370 -1.6317 0.9797
-3.7801 2.9851 -1.6183 0.9799
-4.0095 2.6229 -1.6098 0.9800
-2.6271 0.5952 -0.9050 0.9887
-2.7168 -0.1212 -0.9137 0.9886
-2.7751 -0.3732 -0.9408 0.9883
-5.0614 -1.6321 -1.7868 0.9778
-4.8725 -3.1874 -1.9562 0.9757
-4.7382 -3.7417 -2.0285 0.9748
-4.3398 -4.9070 -2.2010 0.9727
-3.7342 -6.1475 -2.4167 0.9701
-3.3384 -6.7936 -2.5432 0.9686
-2.3231 -8.1243 -2.8390 0.9650
-0.1126 -10.1128 -3.3979 0.9582
0.8390 -10.7368 -3.6184 0.9556
5.8192 -12.5401 -4.6448 0.9433
13.7565 1.5389 -4.6507 0.9433
12.8151 2.6048 -4.3937 0.9463
9.6988 4.9011 -3.6510 0.9552
8.6581 5.3923 -3.4270 0.9579
7.6480 5.7676 -3.2184 0.9604
5.7582 6.2257 -2.8492 0.9648
4.8885 6.3342 -2.6883 0.9668
2.5914 6.3057 -2.2905 0.9716
1.9252 6.2061 -2.1832 0.9730
0.7279 5.9095 -2.0005 0.9752
0.1909 5.7096 -1.9194 0.9762
-0.3072 5.5103 -1.8542 0.9770
-0.7699 5.2791 -1.7925 0.9777
-1.0169 4.2672 -1.4739 0.9817
-1.5969 4.7699 -1.6900 0.9790
-1.9656 4.4955 -1.6485 0.9795
-2.4582 4.4857 -1.7186 0.9786
-2.7954 4.1711 -1.6871 0.9790
-3.6570 3.1624 -1.6244 0.9798
-3.8975 2.8053 -1.6134 0.9799
-4.3126 2.0600 -1.6058 0.9800
-4.4878 1.6713 -1.6090 0.9800
-2.6265 0.7195 -0.9150 0.9886
-2.7169 0.4895 -0.9275 0.9884
-2.6500 0.2368 -0.8939 0.9888
-2.6518 0.0000 -0.9403 0.9888
-4.8087 -2.2969 -1.8897 0.9776
-4.7270 -2.7998 -1.9481 0.9770
-4.4549 -3.8523 -2.0883 0.9753
-4.2572 -4.4019 -2.1714 0.9743
-4.0127 -4.9666 -2.2641 0.9733
-3.3632 -6.1370 -2.4815 0.9707
-2.9464 -6.7387 -2.6079 0.9693
-1.2470 -8.5505 -3.0640 0.9640
-0.5092 -9.1330 -3.2435 0.9619
7.2905 -11.4203 -4.8043 0.9441
13.6012 0.9105 -4.8336 0.9438
12.0327 1.8921 -4.3191 0.9496
11.2041 2.8024 -4.0952 0.9522
8.4797 4.7706 -3.4500 0.9595
6.6748 5.5169 -3.0706 0.9639
4.2177 5.9997 -2.6005 0.9694
3.4824 6.0316 -2.4696 0.9709
1.5336 5.8535 -2.1457 0.9746
0.9655 5.7234 -2.0581 0.9757
0.4340 5.5540 -1.9754 0.9766
-0.0599 5.3818 -1.9084 0.9774
-0.9495 4.9535 -1.7884 0.9788
-1.2226 4.2756 -1.5768 0.9813
-1.7179 4.4606 -1.6949 0.9799
-2.8502 3.8684 -1.7038 0.9798
-4.0742 2.1741 -1.6375 0.9806
-4.4122 1.4228 -1.6438 0.9805
-2.5615 0.5804 -0.9313 0.9889
-2.6733 -0.1192 -0.9489 0.9887
-2.8709 -0.9257 -1.0696 0.9873
-4.8373 -2.0512 -1.8631 0.9779
-4.6732 -3.0571 -1.9801 0.9766
-4.5375 -3.5833 -2.0502 0.9758
-4.3616 -4.1252 -2.1287 0.9748
-3.8715 -5.2544 -2.3143 0.9727
-3.1631 -6.4368 -2.5431 0.9700
-2.1876 -7.6504 -2.8215 0.9668
0.7776 -9.9512 -3.5393 0.9585
2.8436 -10.8540 -3.9786 0.9535
4.0218 -11.1786 -4.2125 0.9508
5.2838 -11.3862 -4.4509 0.9481
6.6108 -11.4503 -4.6882 0.9454
7.9752 -11.3449 -4.9173 0.9428
13.9441 0.3108 -4.9456 0.9425
8.9416 4.5184 -3.5524 0.9584
8.0205 4.9952 -3.3504 0.9607
7.1167 5.3669 -3.1606 0.9629
5.4012 5.8397 -2.8206 0.9668
3.1311 6.0284 -2.4087 0.9716
2.4607 5.9878 -2.2955 0.9729
0.1828 5.4658 -1.9392 0.9771
-0.7390 5.0673 -1.8158 0.9785
-1.8931 4.3296 -1.6756 0.9801
-2.3694 4.3236 -1.7482 0.9793
-2.6962 4.0231 -1.7173 0.9797
-2.9982 3.7110 -1.6917 0.9800
-3.7650 2.7099 -1.6449 0.9805
-2.5828 0.7075 -0.9496 0.9887
-2.6101 0.0000 -0.9746 0.9889
-2.7170 -0.4895 -1.0309 0.9883
-4.6785 -1.7423 -1.8642 0.9789
-4.6261 -2.2097 -1.9144 0.9783
-4.2686 -3.6912 -2.1072 0.9762
-4.0724 -4.2108 -2.1874 0.9753
-3.8314 -4.7422 -2.2766 0.9743
-3.1974 -5.8345 -2.4844 0.9720
-1.1719 -8.0355 -3.0323 0.9659
0.3022 -9.0383 -3.3769 0.9621
1.1675 -9.4790 -3.5663 0.9600
2.1185 -9.8587 -3.7654 0.9579
4.2575 -10.3600 -4.1825 0.9533
9.0226 -9.7551 -4.9618 0.9448
11.1563 -8.4133 -5.2177 0.9421
13.4201 -3.9996 -5.2291 0.9420
13.4452 -2.7328 -5.1232 0.9431
12.8855 -0.2871 -4.8128 0.9465
12.3522 0.8269 -4.6228 0.9485
10.9764 1.7260 -4.1491 0.9537
7.8732 4.4295 -3.3733 0.9622
7.0553 4.8432 -3.1955 0.9641
6.2483 5.1643 -3.0270 0.9660
5.4640 5.4035 -2.8695 0.9677
4.7090 5.5697 -2.7235 0.9693
2.6519 5.7146 -2.3525 0.9735
0.9214 5.4622 -2.0685 0.9766
0.4157 5.3199 -1.9925 0.9775
-0.5001 4.9716 -1.8658 0.9789
-0.9130 4.7630 -1.8109 0.9795
-1.6553 4.2979 -1.7198 0.9805
-2.1180 4.3101 -1.7933 0.9797
-2.4473 4.0288 -1.7602 0.9801
-2.7522 3.7353 -1.7325 0.9804
-3.2925 3.1140 -1.6922 0.9808
-3.9393 2.1021 -1.6673 0.9811
-2.5920 0.1156 -0.9689 0.9890
-2.6781 -0.3602 -1.0090 0.9885
-2.7556 -0.6244 -1.0551 0.9880
-2.8043 -0.9043 -1.1002 0.9875
-4.5882 -2.4483 -1.9420 0.9780
-4.3511 -3.4360 -2.0703 0.9766
-3.9578 -4.4751 -2.2308 0.9748
-3.6929 -5.0120 -2.3247 0.9738
-3.3764 -5.5584 -2.4285 0.9726
-2.0656 -7.2241 -2.8057 0.9684
-0.0980 -8.8003 -3.2863 0.9631
0.7240 -9.2652 -3.4703 0.9611
2.6252 -10.0201 -3.8679 0.9567
7.2314 -10.2868 -4.6954 0.9477
13.4601 -3.3666 -5.1810 0.9425
13.3775 -2.1035 -5.0567 0.9438
12.6368 0.2816 -4.7199 0.9475
12.0342 1.3462 -4.5217 0.9496
10.6312 2.1609 -4.0510 0.9547
9.8882 2.9470 -3.8529 0.9569
9.0973 3.6206 -3.6562 0.9591
8.2810 4.1846 -3.4646 0.9612
5.8528 5.2936 -2.9468 0.9669
2.9718 5.7217 -2.4075 0.9728
1.1869 5.5232 -2.1095 0.9762
0.6644 5.3942 -2.0295 0.9771
0.1752 5.2394 -1.9575 0.9779
-1.4796 4.4195 -1.7403 0.9803
-1.8707 4.2785 -1.7437 0.9803
-2.2858 4.1711 -1.7761 0.9799
-3.1658 3.2734 -1.7005 0.9807
-3.6398 2.6198 -1.6746 0.9810
-4.0287 1.9244 -1.6672 0.9811
-3.4441 0.9435 -1.3335 0.9849
-2.5629 0.2290 -0.9608 0.9891
-2.6072 -0.2330 -1.0273 0.9888
-2.7221 -0.7457 -1.1077 0.9879
-4.3691 -2.5878 -1.9930 0.9784
-4.2502 -3.0591 -2.0552 0.9777
-3.9009 -4.0335 -2.2023 0.9762
-3.6638 -4.5348 -2.2881 0.9753
-3.3801 -5.0434 -2.3828 0.9742
-2.6552 -6.0726 -2.6012 0.9719
-2.2050 -6.5859 -2.7258 0.9706
-1.6890 -7.0875 -2.8595 0.9692
1.9694 -9.1647 -3.6790 0.9605
2.9183 -9.4077 -3.8658 0.9586
6.0640 -9.4991 -4.4230 0.9527
7.1479 -9.2617 -4.5916 0.9510
10.0967 -7.6143 -4.9632 0.9471
11.4748 -5.7985 -5.0459 0.9463
11.9047 -4.7379 -5.0287 0.9464
11.3015 0.7566 -4.4454 0.9525
10.6440 1.6737 -4.2288 0.9548
9.4659 2.3676 -3.8295 0.9589
8.7903 3.0523 -3.6520 0.9608
5.1479 5.0909 -2.8415 0.9694
4.4497 5.2630 -2.7049 0.9708
2.5250 5.4410 -2.3542 0.9746
1.3967 5.3310 -2.1629 0.9766
-0.0552 4.9559 -1.9452 0.9789
-1.2229 4.2770 -1.7459 0.9811
-1.5965 4.1453 -1.7434 0.9811
-2.6595 3.6095 -1.7596 0.9809
-3.4140 2.6961 -1.7074 0.9815
-3.6231 2.3702 -1.6992 0.9816
-3.8115 2.0339 -1.6956 0.9816
-3.9793 1.6874 -1.6964 0.9816
-4.1266 1.3307 -1.7017 0.9815
-2.5568 0.5793 -1.0289 0.9888
-2.4910 0.3350 -0.9865 0.9893
-2.5889 -0.1154 -1.0171 0.9889
-2.6312 -0.3539 -1.0420 0.9887
-2.7236 -0.8782 -1.1231 0.9878
-4.4858 -1.9022 -1.9123 0.9793
-4.4159 -2.3564 -1.9644 0.9787
-3.2193 -5.2998 -2.4337 0.9737
-1.9553 -6.8382 -2.7914 0.9699
-1.4056 -7.3330 -2.9304 0.9684
-0.0919 -8.2546 -3.2399 0.9651
0.6768 -8.6608 -3.4095 0.9634
7.6814 -9.0855 -4.6694 0.9502
8.7111 -8.6145 -4.8083 0.9487
9.6618 -7.9857 -4.9196 0.9476
12.1899 -3.0489 -4.9316 0.9474
11.0324 1.2342 -4.3569 0.9534
9.1343 2.7223 -3.7408 0.9599
4.1103 5.3258 -2.6403 0.9715
2.8262 5.4416 -2.4065 0.9740
2.2316 5.4302 -2.3041 0.9751
1.6657 5.3696 -2.2065 0.9761
-0.2716 4.8704 -1.9145 0.9793
-1.0286 4.3162 -1.7414 0.9811
-1.4263 4.2602 -1.7632 0.9809
-1.8598 4.2536 -1.8220 0.9802
-2.5144 3.7519 -1.7726 0.9808
-3.0611 3.1652 -1.7282 0.9813
-3.3017 2.8551 -1.7131 0.9814
-3.7199 2.2033 -1.6968 0.9816
-4.0555 1.5103 -1.6985 0.9816
-2.5633 0.4618 -1.0222 0.9889
-2.5207 0.2253 -0.9932 0.9892
-2.6211 -0.4722 -1.0967 0.9885
-2.6436 -0.9845 -1.1616 0.9879
-4.2936 -2.0508 -1.9594 0.9796
-4.2067 -2.4916 -2.0133 0.9791
-4.0875 -2.9420 -2.0738 0.9785
-3.9333 -3.4013 -2.1413 0.9778
-2.9054 -5.3017 -2.4895 0.9742
-1.6003 -6.7153 -2.8427 0.9706
-0.4222 -7.5721 -3.1229 0.9677
0.2659 -7.9512 -3.2760 0.9662
1.0202 -8.2830 -3.4366 0.9645
1.8383 -8.5546 -3.6030 0.9629
5.5851 -8.7489 -4.2741 0.9561
8.4053 -7.6021 -4.6668 0.9522
9.2106 -6.9460 -4.7503 0.9513
9.9009 -6.1663 -4.8030 0.9508
10.4524 -5.2818 -4.8224 0.9506
11.0754 -3.3008 -4.7589 0.9512
11.1354 -2.2633 -4.6791 0.9520
11.0339 -1.2343 -4.5719 0.9531
10.7842 -0.2403 -4.4418 0.9544
10.4048 0.6966 -4.2941 0.9559
8.7789 2.1958 -3.7264 0.9616
7.5345 3.3949 -3.4029 0.9649
6.8704 3.8652 -3.2461 0.9665
5.5217 4.5638 -2.9498 0.9695
4.8573 4.8034 -2.8130 0.9709
4.2092 4.9786 -2.6846 0.9722
2.4042 5.1807 -2.3518 0.9756
1.8564 5.1598 -2.2580 0.9766
1.3370 5.1030 -2.1723 0.9774
0.8459 5.0149 -2.0942 0.9782
0.3828 4.8989 -2.0234 0.9790
-0.0530 4.7638 -1.9618 0.9796
-0.8466 4.4168 -1.8519 0.9807
-1.2056 4.2162 -1.8057 0.9812
-1.5785 4.0986 -1.8086 0.9812
-1.9746 4.0183 -1.8437 0.9808
-2.2845 3.7608 -1.8120 0.9811
-2.5717 3.4905 -1.7853 0.9814
-2.8372 3.2081 -1.7635 0.9816
-3.3047 2.6097 -1.7340 0.9819
-3.5075 2.2946 -1.7260 0.9820
-3.6902 1.9692 -1.7224 0.9821
-3.8526 1.6337 -1.7232 0.9821
-2.6387 0.5979 -1.1141 0.9884
-2.5854 -0.3477 -1.0742 0.9888
-2.6300 -0.5959 -1.1104 0.9884
-2.6464 -0.8534 -1.1450 0.9880
-4.3256 -1.8342 -1.9347 0.9799
-4.2540 -2.2700 -1.9855 0.9794
-4.1513 -2.7156 -2.0427 0.9788
-3.6302 -4.1047 -2.2565 0.9766
-3.3754 -4.5812 -2.3432 0.9757
-3.0744 -5.0612 -2.4385 0.9747
-2.7233 -5.5419 -2.5427 0.9736
-2.3183 -6.0195 -2.6562 0.9725
-1.8549 -6.4871 -2.7784 0.9712
-1.3300 -6.9388 -2.9093 0.9699
-0.0865 -7.7668 -3.1984 0.9670
1.4215 -8.4272 -3.5192 0.9637
4.1187 -8.8755 -4.0291 0.9586
5.0933 -8.8217 -4.1946 0.9569
7.9683 -7.8800 -4.6147 0.9527
8.8206 -7.2904 -4.7122 0.9517
10.1953 -5.7357 -4.8170 0.9507
10.9825 -3.8135 -4.7872 0.9510
11.1041 -1.7460 -4.6286 0.9525
10.6094 0.2364 -4.3698 0.9551
10.1732 1.1381 -4.2152 0.9567
8.4793 2.5271 -3.6434 0.9624
7.8583 3.1275 -3.4827 0.9641
7.2046 3.6406 -3.3240 0.9657
5.1878 4.6921 -2.8804 0.9702
3.8928 5.0440 -2.6236 0.9728
3.2778 5.1345 -2.5084 0.9740
2.6886 5.1763 -2.4019 0.9751
1.0879 5.0626 -2.1323 0.9778
0.6109 4.9601 -2.0579 0.9786
0.1616 4.8315 -1.9906 0.9793
-1.3761 4.1103 -1.7849 0.9814
-2.1324 3.8913 -1.8272 0.9810
-2.4309 3.6272 -1.7980 0.9813
-2.7072 3.3508 -1.7738 0.9815
-3.6014 2.1331 -1.7236 0.9821
-3.7739 1.8027 -1.7222 0.9821
-3.5071 0.9607 -1.4974 0.9844
-2.5221 -0.2254 -1.0923 0.9890
-2.5389 -0.4574 -1.1128 0.9888
-2.5507 -0.6987 -1.1408 0.9885
-4.1417 -1.9783 -1.9799 0.9802
-4.0539 -2.4011 -2.0324 0.9797
-1.5194 -6.3758 -2.8273 0.9719
-0.3989 -7.1536 -3.0906 0.9693
0.2505 -7.4915 -3.2333 0.9679
2.5356 -8.1740 -3.6917 0.9634
3.3905 -8.2502 -3.8476 0.9619
4.2743 -8.2294 -4.0001 0.9604
5.1711 -8.1004 -4.1454 0.9590
6.0614 -7.8539 -4.2795 0.9577
6.9224 -7.4844 -4.3976 0.9566
9.5864 -4.8442 -4.6331 0.9543
9.9511 -3.9604 -4.6199 0.9544
8.3733 2.0943 -3.7231 0.9631
7.0554 3.1790 -3.3381 0.9669
5.8354 4.0058 -3.0531 0.9696
5.2148 4.3101 -2.9183 0.9710
3.9951 4.7255 -2.6692 0.9734
3.4078 4.8477 -2.5560 0.9745
1.7763 4.9373 -2.2634 0.9774
1.2814 4.8911 -2.1810 0.9782
0.8120 4.8137 -2.1058 0.9790
0.3680 4.7088 -2.0374 0.9796
-0.0510 4.5794 -1.9755 0.9802
-0.4457 4.4310 -1.9210 0.9808
-1.1664 4.0792 -1.8301 0.9817
-1.5705 4.0779 -1.8850 0.9811
-1.9087 3.8842 -1.8668 0.9813
-2.4885 3.3775 -1.8097 0.9819
-3.3977 2.2227 -1.7514 0.9825
-3.7322 1.5826 -1.7487 0.9825
-3.8695 1.2478 -1.7538 0.9824
-2.5715 0.5826 -1.1373 0.9886
-2.4654 0.1099 -1.0646 0.9893
-2.5465 -0.5770 -1.1263 0.9887
-4.1016 -2.1887 -2.0054 0.9800
-3.9984 -2.6156 -2.0610 0.9794
-3.8626 -3.0503 -2.1231 0.9788
-3.6918 -3.4917 -2.1919 0.9781
-3.4831 -3.9384 -2.2679 0.9774
-1.7632 -6.1662 -2.7665 0.9724
-0.0816 -7.3278 -3.1611 0.9686
0.5973 -7.6434 -3.3071 0.9672
1.3336 -7.9060 -3.4585 0.9657
3.8297 -8.2527 -3.9245 0.9611
5.6184 -7.9923 -4.2141 0.9583
6.4970 -7.6847 -4.3408 0.9571
7.3343 -7.2530 -4.4494 0.9561
8.7850 -6.0305 -4.5964 0.9546
9.3515 -5.2610 -4.6284 0.9543
10.0787 -3.4997 -4.6021 0.9546
10.2182 -1.6067 -4.4618 0.9559
9.8067 0.2186 -4.2312 0.9582
8.9600 1.8212 -3.9440 0.9610
7.9047 2.3559 -3.5580 0.9647
7.3476 2.9243 -3.4112 0.9661
6.7565 3.4142 -3.2654 0.9676
6.1450 3.8271 -3.1227 0.9690
4.2953 4.6440 -2.7287 0.9728
3.1216 4.8898 -2.5024 0.9750
2.5656 4.9396 -2.4010 0.9760
2.0333 4.9476 -2.3074 0.9770
1.0435 4.8560 -2.1425 0.9786
0.1554 4.6470 -2.0056 0.9799
-0.2514 4.5099 -1.9484 0.9805
-0.6340 4.3472 -1.8951 0.9810
-1.3342 3.9852 -1.8128 0.9819
-2.3517 3.5090 -1.8221 0.9818
-2.6201 3.2430 -1.7984 0.9820
-2.8676 2.9652 -1.7794 0.9822
-3.6560 1.7463 -1.7477 0.9825
-3.8033 1.4164 -1.7507 0.9825
-3.9307 1.0768 -1.7580 0.9824
-2.4387 0.2179 -1.0561 0.9894
-2.4481 -0.2188 -1.1090 0.9893
-2.4592 -0.4430 -1.1275 0.9891
-3.9099 -2.3159 -2.0505 0.9803
-3.4529 -3.5702 -2.2411 0.9784
-3.2286 -3.9961 -2.3181 0.9777
-2.9639 -4.4225 -2.4022 0.9769
-2.3023 -5.2656 -2.5931 0.9751
-1.8996 -5.6738 -2.6998 0.9741
-1.4453 -6.0647 -2.8131 0.9730
-0.9383 -6.4338 -2.9338 0.9719
0.2366 -7.0765 -3.1948 0.9694
2.3765 -7.6610 -3.6193 0.9654
3.1693 -7.7119 -3.7621 0.9641
4.8094 -7.5338 -4.0330 0.9615
5.6247 -7.2881 -4.1540 0.9604
6.4110 -6.9314 -4.2603 0.9594
7.1468 -6.4639 -4.3481 0.9586
7.8105 -5.8901 -4.4140 0.9580
8.3818 -5.2202 -4.4555 0.9576
8.8432 -4.4686 -4.4707 0.9575
9.1816 -3.6542 -4.4589 0.9576
9.3893 -2.7983 -4.4208 0.9579
9.2361 -0.2058 -4.1685 0.9603
8.5790 1.3490 -3.9185 0.9626
6.6279 2.9864 -3.2802 0.9686
5.5103 3.7826 -3.0158 0.9711
4.3639 4.3155 -2.7693 0.9734
3.2474 4.6195 -2.5479 0.9755
2.7123 4.6978 -2.4476 0.9765
1.7019 4.7304 -2.2684 0.9782
0.7802 4.6255 -2.1166 0.9796
-0.0491 4.4110 -1.9904 0.9808
-0.4297 4.2718 -1.9372 0.9813
-0.7877 4.1097 -1.8881 0.9818
-1.8462 3.7570 -1.8888 0.9818
-2.4094 3.2702 -1.8328 0.9823
-2.8908 2.7342 -1.7954 0.9827
-3.2931 2.1543 -1.7756 0.9829
-3.4650 1.8490 -1.7721 0.9829
-3.6174 1.5339 -1.7729 0.9829
-3.7502 1.2093 -1.7780 0.9829
-2.3567 0.3170 -1.0730 0.9896
-2.4395 -0.1088 -1.1018 0.9893
-2.4521 -0.3297 -1.1164 0.9892
-2.4671 -0.5590 -1.1414 0.9890
-3.9578 -2.1119 -2.0242 0.9805
-3.7195 -2.9373 -2.1385 0.9794
-3.3456 -3.7829 -2.2787 0.9781
-3.1015 -4.2094 -2.3592 0.9773
-2.4851 -5.0571 -2.5425 0.9756
-2.1073 -5.4716 -2.6457 0.9746
-1.6789 -5.8716 -2.7555 0.9736
-1.1985 -6.2524 -2.8726 0.9724
-0.6647 -6.6079 -2.9967 0.9713
0.5635 -7.2108 -3.2636 0.9688
2.7692 -7.6971 -3.6910 0.9647
4.3973 -7.6162 -3.9682 0.9621
5.2194 -7.4247 -4.0951 0.9610
7.4890 -6.1898 -4.3840 0.9583
8.1089 -5.5664 -4.4380 0.9578
9.4433 -2.3619 -4.3922 0.9582
9.4531 -1.4864 -4.3178 0.9589
9.3376 -0.6251 -4.2227 0.9598
8.3618 1.6996 -3.8501 0.9632
7.5334 2.2452 -3.5469 0.9661
5.7953 3.6094 -3.0806 0.9705
5.2237 3.9393 -2.9521 0.9717
2.4518 4.7206 -2.4002 0.9769
1.0021 4.6630 -2.1521 0.9793
0.5643 4.5812 -2.0827 0.9799
-0.2423 4.3456 -1.9639 0.9811
-0.6115 4.1931 -1.9120 0.9816
-0.9584 4.0219 -1.8656 0.9820
-1.6921 3.8701 -1.9059 0.9816
-1.9949 3.6403 -1.8730 0.9819
-2.7780 2.8724 -1.8031 0.9826
-2.9987 2.5931 -1.7888 0.9828
-3.1998 2.3031 -1.7789 0.9828
-3.3815 2.0029 -1.7733 0.9829
-3.8092 1.0435 -1.7821 0.9828
-2.4063 0.4335 -1.1032 0.9893
-2.3816 -0.4291 -1.1407 0.9894
-2.3934 -0.6556 -1.1698 0.9891
-3.8624 -1.8449 -2.0177 0.9812
-3.5056 -3.0315 -2.1846 0.9797
-3.1021 -3.8395 -2.3268 0.9784
-1.3771 -5.7786 -2.8002 0.9741
-0.8922 -6.1178 -2.9143 0.9730
-0.3584 -6.4274 -3.0345 0.9719
0.2240 -6.6996 -3.1598 0.9708
1.5250 -7.0965 -3.4215 0.9684
2.2342 -7.2021 -3.5545 0.9672
3.7290 -7.1796 -3.8136 0.9649
5.9637 -6.4479 -4.1401 0.9619
8.5134 -3.3882 -4.3191 0.9603
8.7900 -1.7866 -4.2281 0.9611
8.3582 0.5595 -3.9487 0.9636
8.0254 1.2620 -3.8294 0.9647
7.6204 1.9060 -3.7027 0.9659
6.2439 2.8133 -3.2282 0.9702
5.7389 3.2287 -3.1039 0.9713
4.6827 3.8703 -2.8636 0.9735
4.1485 4.1025 -2.7502 0.9745
2.1036 4.5332 -2.3557 0.9781
1.6325 4.5374 -2.2730 0.9789
1.1811 4.5082 -2.1968 0.9796
0.7505 4.4489 -2.1267 0.9802
-0.0473 4.2523 -2.0046 0.9814
-0.4146 4.1215 -1.9526 0.9818
-1.1068 3.8709 -1.8978 0.9824
-1.7868 3.6360 -1.9097 0.9822
-2.0705 3.4086 -1.8800 0.9825
-2.3341 3.1680 -1.8549 0.9827
-2.5779 2.9150 -1.8343 0.9829
-3.0073 2.3749 -1.8063 0.9832
-2.2973 0.3090 -1.0926 0.9898
-2.3488 0.1047 -1.1083 0.9897
-2.3694 -0.1056 -1.1180 0.9896
-2.4109 -1.0223 -1.2344 0.9885
-3.7185 -2.4325 -2.0946 0.9805
-3.4182 -3.2329 -2.2178 0.9794
-2.9779 -4.0417 -2.3664 0.9780
-2.6994 -4.4438 -2.4509 0.9773
-2.0136 -5.2283 -2.6410 0.9755
-1.1408 -5.9515 -2.8565 0.9736
-0.0732 -6.5687 -3.0966 0.9714
0.5329 -6.8191 -3.2241 0.9702
1.8753 -7.1581 -3.4880 0.9678
3.3492 -7.2173 -3.7505 0.9654
6.3083 -6.2384 -4.1820 0.9615
6.9525 -5.7463 -4.2517 0.9609
7.5213 -5.1630 -4.3003 0.9605
8.3700 -3.7713 -4.3274 0.9602
8.6273 -2.9957 -4.3049 0.9604
8.7656 -2.1924 -4.2592 0.9608
6.4862 2.5814 -3.2907 0.9696
4.9497 3.7327 -2.9222 0.9730
4.4154 3.9934 -2.8063 0.9740
3.8828 4.1980 -2.6955 0.9750
3.3577 4.3507 -2.5905 0.9760
1.8656 4.5397 -2.3136 0.9785
1.4043 4.5268 -2.2341 0.9793
0.5430 4.4090 -2.0940 0.9805
0.1442 4.3104 -2.0329 0.9811
-0.2336 4.1907 -1.9784 0.9816
-0.5903 4.0474 -1.9280 0.9821
-0.9260 3.8859 -1.8830 0.9825
-1.3206 3.9446 -1.9608 0.9818
-1.6372 3.7445 -1.9264 0.9821
-1.9312 3.5240 -1.8942 0.9824
-2.2048 3.2899 -1.8668 0.9826
-2.4585 3.0429 -1.8440 0.9828
-2.9072 2.5140 -1.8117 0.9831
-3.1027 2.2332 -1.8020 0.9832
-3.5746 1.3312 -1.7980 0.9833
-2.3515 0.4236 -1.1263 0.9895
-2.2975 0.0000 -1.1300 0.9898
-2.3082 -0.4158 -1.1536 0.9896
-2.3278 -0.8669 -1.2218 0.9890
-3.5275 -2.5389 -2.1377 0.9808
-2.9834 -3.6926 -2.3349 0.9791
-2.4403 -4.4531 -2.4976 0.9776
-0.3407 -6.1101 -3.0100 0.9731
0.2125 -6.3559 -3.1279 0.9720
2.1060 -6.7891 -3.4962 0.9688
2.7960 -6.8036 -3.6179 0.9677
6.1915 -5.5998 -4.1061 0.9635
7.2375 -4.5075 -4.1937 0.9627
7.6323 -3.8568 -4.2061 0.9626
7.9273 -3.1550 -4.1965 0.9627
8.1161 -2.4188 -4.1655 0.9630
8.1968 -1.6661 -4.1141 0.9634
7.8290 0.5241 -3.8593 0.9656
6.7452 2.3422 -3.5120 0.9687
3.4527 4.0838 -2.6303 0.9764
2.4826 4.3000 -2.4421 0.9781
2.0170 4.3465 -2.3568 0.9789
1.5675 4.3569 -2.2774 0.9796
0.7225 4.2829 -2.1363 0.9808
0.3286 4.2046 -2.0743 0.9814
-0.7351 3.8353 -1.9207 0.9827
-1.4347 3.7252 -1.9634 0.9824
-2.2623 3.0705 -1.8759 0.9831
-2.7177 2.5704 -1.8399 0.9835
-2.9171 2.3037 -1.8283 0.9836
-3.0979 2.0266 -1.8208 0.9836
-3.4033 1.4432 -1.8182 0.9837
-2.2513 0.3028 -1.1173 0.9899
-2.2893 0.1021 -1.1271 0.9898
-2.3022 -0.1027 -1.1335 0.9898
-2.3108 -0.3108 -1.1468 0.9897
-2.3142 -0.5243 -1.1671 0.9895
-3.2933 -3.1147 -2.2295 0.9800
-3.0955 -3.5002 -2.2983 0.9794
-2.8621 -3.8845 -2.3732 0.9787
-2.5908 -4.2651 -2.4545 0.9780
-0.0695 -6.2381 -3.0684 0.9726
1.1196 -6.6375 -3.3108 0.9704
1.7697 -6.7548 -3.4345 0.9694
2.4485 -6.8057 -3.5575 0.9683
3.1472 -6.7819 -3.6774 0.9672
3.8545 -6.6761 -3.7917 0.9662
4.5572 -6.4826 -3.8975 0.9653
5.2401 -6.1980 -3.9920 0.9645
5.8869 -5.8216 -4.0722 0.9638
6.4808 -5.3565 -4.1354 0.9632
7.0056 -4.8090 -4.1795 0.9628
7.7928 -3.5112 -4.2040 0.9626
8.1700 -2.0434 -4.1422 0.9632
8.1207 -0.5436 -4.0031 0.9644
7.3567 1.4953 -3.6924 0.9671
6.2247 2.4774 -3.2952 0.9706
5.1909 3.2329 -3.0078 0.9731
4.6993 3.5439 -2.8949 0.9741
4.2004 3.7990 -2.7856 0.9751
3.2063 4.1545 -2.5812 0.9769
1.3493 4.3496 -2.2399 0.9799
0.9267 4.3122 -2.1694 0.9805
0.5231 4.2469 -2.1046 0.9811
0.1390 4.1563 -2.0454 0.9816
-0.2255 4.0441 -1.9922 0.9821
-0.5701 3.9094 -1.9432 0.9825
-0.9050 3.7977 -1.9202 0.9827
-1.2794 3.8215 -1.9822 0.9822
-1.8706 3.4134 -1.9145 0.9828
-2.1366 3.1880 -1.8876 0.9830
-2.8197 2.4383 -1.8335 0.9835
-3.3340 1.5925 -1.8173 0.9837
-3.4679 1.2915 -1.8201 0.9836
-3.5826 0.9814 -1.8271 0.9836
-2.2359 -0.0000 -1.1463 0.9900
-2.2593 -0.8414 -1.2360 0.9892
-2.2721 -1.0853 -1.2909 0.9887
-3.5227 -2.0865 -2.0990 0.9818
-3.2600 -2.8191 -2.2096 0.9808
-1.6592 -4.9558 -2.6793 0.9768
-1.2557 -5.2692 -2.7770 0.9759
-0.8107 -5.5587 -2.8799 0.9751
0.7661 -6.2196 -3.2127 0.9722
1.9900 -6.4151 -3.4434 0.9703
2.6369 -6.4165 -3.5565 0.9693
3.9538 -6.1934 -3.7670 0.9675
4.5994 -5.9596 -3.8594 0.9667
5.2181 -5.6417 -3.9398 0.9660
5.7947 -5.2410 -4.0056 0.9655
7.1321 -3.6040 -4.0967 0.9647
7.6706 -1.5591 -4.0129 0.9654
7.6552 -0.8563 -3.9491 0.9660
7.5478 -0.1682 -3.8704 0.9666
6.7569 1.6900 -3.5707 0.9692
6.3721 2.2126 -3.4581 0.9701
5.7012 2.5688 -3.2058 0.9723
4.7001 3.2265 -2.9227 0.9747
4.2366 3.5017 -2.8178 0.9756
3.7675 3.7258 -2.7164 0.9765
3.2986 3.9015 -2.6193 0.9773
2.3794 4.1212 -2.4397 0.9788
1.9360 4.1718 -2.3578 0.9795
1.5066 4.1875 -2.2815 0.9802
1.0929 4.1713 -2.2107 0.9808
0.3169 4.0551 -2.0853 0.9819
-0.0441 3.9604 -2.0305 0.9824
-0.7165 3.7381 -1.9513 0.9830
-1.0829 3.7873 -2.0195 0.9824
-1.3892 3.6071 -1.9817 0.9828
-1.9444 3.2009 -1.9201 0.9833
-2.1937 2.9774 -1.8960 0.9835
-2.6368 2.4939 -1.8607 0.9838
-2.8308 2.2355 -1.8493 0.9839
-3.0066 1.9669 -1.8419 0.9840
-3.3031 1.4007 -1.8394 0.9840
-3.4236 1.1040 -1.8442 0.9840
-2.2093 0.2971 -1.1428 0.9900
-2.2425 -0.5081 -1.1788 0.9897
-2.2530 -0.7265 -1.2136 0.9894
-3.4680 -2.2687 -2.1246 0.9815
-2.9813 -3.3711 -2.3072 0.9800
-2.7532 -3.7367 -2.3796 0.9794
-2.4890 -4.0975 -2.4579 0.9787
-0.5727 -5.6925 -2.9331 0.9746
1.6738 -6.3889 -3.3859 0.9707
2.3114 -6.4246 -3.5004 0.9698
3.6253 -6.2791 -3.7171 0.9679
5.5126 -5.4515 -3.9747 0.9658
6.5492 -4.4957 -4.0725 0.9649
7.2823 -3.2812 -4.0949 0.9647
7.6421 -1.9114 -4.0386 0.9652
7.6126 -0.5096 -3.9115 0.9663
7.4617 0.1663 -3.8263 0.9670
6.9300 1.4086 -3.6254 0.9687
5.3694 2.7133 -3.0842 0.9733
4.9276 3.0690 -2.9761 0.9742
4.4695 3.3706 -2.8699 0.9752
4.0024 3.6199 -2.7667 0.9760
3.0657 3.9723 -2.5724 0.9777
2.6057 4.0817 -2.4826 0.9785
2.1561 4.1511 -2.3981 0.9792
1.2977 4.1832 -2.2454 0.9805
0.8923 4.1522 -2.1773 0.9811
0.1341 4.0106 -2.0573 0.9821
-0.2177 3.9054 -2.0053 0.9826
-1.2385 3.6992 -2.0000 0.9826
-1.5351 3.5110 -1.9645 0.9829
-1.8127 3.3078 -1.9337 0.9832
-2.3114 2.8609 -1.8855 0.9836
-2.7361 2.3660 -1.8544 0.9839
-3.2359 1.5457 -1.8385 0.9840
-2.2585 0.4069 -1.1765 0.9897
-2.1765 0.0000 -1.1619 0.9902
-2.1932 -0.8168 -1.2494 0.9894
-3.4064 -2.0176 -2.1136 0.9822
-3.2911 -2.3688 -2.1647 0.9818
-2.9726 -3.0737 -2.2827 0.9808
-2.5264 -3.7697 -2.4226 0.9796
