ply
format ascii 1.0
element vertex 1586
property float32 x
property float32 y
property float32 z
property float32 I
end_header
-4.5015 11.6878 -0.7295 0.9511
-5.2321 10.6471 -0.6909 0.9536
-5.8824 9.6837 -0.6599 0.9556
-6.4684 8.7790 -0.6351 0.9572
-7.9534 6.2808 -0.5903 0.9602
-8.3840 5.4846 -0.5835 0.9607
-8.7923 4.6917 -0.5804 0.9609
-9.1828 3.8939 -0.5809 0.9608
-9.9267 2.2491 -0.5928 0.9600
-10.2872 1.3835 -0.6046 0.9593
-10.8739 -0.4849 -0.6340 0.9573
-11.5915 -2.6263 -0.6922 0.9535
-11.9679 -3.8591 -0.7324 0.9509
-4.6057 -2.4577 -0.3041 0.9793
-4.1935 -2.7432 -0.2919 0.9801
0.5030 4.0843 -0.2397 0.9836
-2.0296 13.9158 -0.8191 0.9452
-5.5662 10.1570 -0.6746 0.9547
-7.2536 7.5002 -0.6077 0.9591
-7.7281 6.6828 -0.5951 0.9599
-8.5906 5.0883 -0.5815 0.9608
-9.3728 3.4905 -0.5825 0.9607
-9.7442 2.6693 -0.5884 0.9603
-10.1075 1.8210 -0.5982 0.9597
-10.4661 0.9352 -0.6120 0.9588
-10.3006 -0.9204 -0.7750 0.9594
-11.2086 -4.1741 -0.8963 0.9532
-4.4377 -2.6285 -0.3865 0.9795
-0.1626 14.5960 -1.0939 0.9431
-4.1599 10.8011 -0.8674 0.9546
-4.8546 9.8789 -0.8249 0.9568
-6.0369 8.1934 -0.7627 0.9600
-6.5490 7.4051 -0.7408 0.9611
-7.4580 5.8895 -0.7121 0.9626
-7.8674 5.1466 -0.7045 0.9630
-8.6193 3.6549 -0.7016 0.9631
-9.6318 1.2954 -0.7283 0.9618
-9.9369 0.4431 -0.7454 0.9609
-4.6959 -2.5058 -0.3989 0.9789
0.5042 4.0935 -0.3091 0.9836
-0.7760 13.9162 -1.0445 0.9456
-2.7596 11.5799 -0.8921 0.9534
-6.7893 7.0201 -0.7319 0.9616
-8.0629 4.7757 -0.7023 0.9631
-8.7961 3.2757 -0.7034 0.9630
-9.1390 2.5035 -0.7101 0.9627
-4.4480 0.0000 -0.4078 0.9823
-9.6446 -0.8618 -0.8877 0.9619
-10.1493 -2.7802 -0.9647 0.9586
-10.3911 -3.8697 -1.0165 0.9564
-5.3154 -2.5389 -0.5400 0.9766
-4.5185 -2.6763 -0.4815 0.9791
-4.0337 -4.1708 -0.5319 0.9770
0.3223 4.1244 -0.3793 0.9835
-2.9315 10.2521 -0.9775 0.9581
-5.1208 8.4300 -0.9043 0.9612
-6.1495 6.9534 -0.8510 0.9634
-7.7752 4.1490 -0.8079 0.9652
-8.1197 3.4431 -0.8086 0.9652
-9.5133 -0.4242 -0.8730 0.9625
-9.7736 -1.3144 -0.9041 0.9612
-3.9234 -3.7107 -0.4951 0.9785
0.5054 4.1038 -0.3791 0.9835
-0.7072 12.6834 -1.1646 0.9503
-2.5482 10.6927 -1.0077 0.9568
-3.5054 10.4700 -1.0122 0.9566
-4.2058 9.6191 -0.9625 0.9587
-4.8316 8.8166 -0.9217 0.9604
-5.9093 7.3141 -0.8620 0.9629
-6.3799 6.5967 -0.8413 0.9638
-6.8142 5.8925 -0.8259 0.9645
-7.9499 3.7974 -0.8077 0.9652
-8.2851 3.0854 -0.8105 0.9651
-4.1097 0.3672 -0.3783 0.9836
-3.7849 0.0000 -0.4105 0.9849
-9.0654 -0.8100 -0.9872 0.9640
-9.6828 -3.6059 -1.1207 0.9593
-4.6026 -2.7261 -0.5802 0.9787
2.4139 14.3108 -1.5742 0.9433
-0.1350 12.1211 -1.3148 0.9524
-4.2403 8.6287 -1.0428 0.9621
-4.8082 7.9154 -1.0045 0.9634
-5.7949 6.5525 -0.9488 0.9654
-6.2282 5.8907 -0.9298 0.9661
-7.0010 4.5799 -0.9074 0.9669
-7.3484 3.9212 -0.9034 0.9670
-7.9794 2.5730 -0.9094 0.9668
-3.7517 0.5046 -0.4106 0.9849
-3.9257 -0.1751 -0.4262 0.9843
-9.1766 -1.2341 -1.0043 0.9634
-9.5883 -3.0918 -1.0927 0.9603
-4.9361 -2.6340 -0.6069 0.9777
-4.3955 -2.8754 -0.5697 0.9791
-4.1217 -3.2549 -0.5697 0.9791
-4.0529 -3.8332 -0.6051 0.9778
0.4220 12.6204 -1.3697 0.9505
-1.5683 10.7531 -1.1787 0.9572
-3.0683 9.1645 -1.0483 0.9619
-5.0720 7.5679 -0.9882 0.9640
-5.5645 6.8872 -0.9604 0.9650
-6.0160 6.2205 -0.9386 0.9658
-6.4323 5.5623 -0.9224 0.9664
-6.8183 4.9075 -0.9112 0.9668
-7.1776 4.2513 -0.9049 0.9670
-8.1256 2.2258 -0.9138 0.9667
-3.9948 0.7197 -0.4403 0.9838
-8.7386 -1.5743 -1.1127 0.9648
-8.9099 -2.4406 -1.1577 0.9634
-9.0627 -3.3750 -1.2119 0.9618
-9.1952 -4.3922 -1.2770 0.9598
-4.1579 -3.5955 -0.6889 0.9781
-9.4453 -9.7663 -1.7026 0.9467
0.3217 4.1170 -0.5175 0.9835
-0.1244 11.1692 -1.3998 0.9560
-1.0434 10.3724 -1.3064 0.9588
-3.9867 8.1128 -1.1328 0.9642
-4.5306 7.4585 -1.0936 0.9654
-5.0254 6.8206 -1.0617 0.9664
-6.2780 4.9577 -1.0025 0.9683
-7.2727 3.0839 -0.9899 0.9687
-7.5601 2.4379 -0.9954 0.9685
-4.3832 0.9931 -0.5632 0.9820
-3.5494 0.4774 -0.4488 0.9857
-8.6465 -1.1628 -1.0933 0.9654
-8.8264 -1.9998 -1.1341 0.9642
-9.1317 -3.8722 -1.2430 0.9608
-4.2121 -3.3262 -0.6726 0.9786
-4.2275 -3.9984 -0.7292 0.9768
-9.4304 -10.6631 -1.7839 0.9442
2.9018 13.5037 -1.7309 0.9458
0.3875 11.5914 -1.4534 0.9543
-0.6002 10.7642 -1.3510 0.9575
-2.2082 9.2659 -1.1937 0.9623
-4.2653 7.7832 -1.1122 0.9649
-4.7837 7.1378 -1.0768 0.9660
-5.6902 5.8837 -1.0257 0.9675
-6.0898 5.2661 -1.0089 0.9681
-6.4593 4.6492 -0.9973 0.9684
-7.4189 2.7629 -0.9921 0.9686
-7.6966 2.1083 -1.0000 0.9683
-3.8076 0.6860 -0.4848 0.9845
-3.5139 -0.3140 -0.5018 0.9858
-8.3943 -2.2994 -1.2380 0.9654
-8.6117 -4.1135 -1.3575 0.9622
-4.9530 -2.9337 -0.8188 0.9770
-4.4618 -3.2114 -0.7819 0.9780
-8.6618 -8.9563 -1.7722 0.9509
-8.5491 -10.5813 -1.9349 0.9465
4.9311 13.7062 -2.0718 0.9428
3.3396 12.7470 -1.8743 0.9482
2.0041 11.8813 -1.7138 0.9525
0.3219 4.1195 -0.5877 0.9834
-0.1153 10.3529 -1.4726 0.9590
-1.7254 9.0015 -1.3036 0.9636
-3.7609 7.6533 -1.2129 0.9661
-4.7576 6.4571 -1.1408 0.9681
-5.1927 5.8716 -1.1149 0.9688
-5.9613 4.7076 -1.0804 0.9698
-6.9101 2.9302 -1.0676 0.9701
-3.3671 0.4528 -0.4832 0.9864
-3.4470 -0.1537 -0.4908 0.9862
-8.6498 -4.6156 -1.3945 0.9612
-4.6402 -3.0355 -0.7887 0.9778
-8.6942 -8.2229 -1.7021 0.9528
4.0988 13.2133 -1.9678 0.9456
2.6440 12.3039 -1.7900 0.9504
0.5132 4.1669 -0.5972 0.9832
-1.3604 9.3276 -1.3408 0.9626
-2.0693 8.6831 -1.2696 0.9646
-2.7007 8.0666 -1.2100 0.9662
-4.0279 7.3499 -1.1921 0.9667
-4.5254 6.7524 -1.1562 0.9677
-4.9799 6.1637 -1.1271 0.9685
-5.3968 5.5803 -1.1042 0.9691
-6.4628 3.8280 -1.0684 0.9701
-3.3525 0.2996 -0.4787 0.9865
-7.8138 -1.4077 -1.2643 0.9684
-8.0279 -2.9896 -1.3641 0.9659
-8.1323 -4.8168 -1.5051 0.9624
-7.9955 -8.2673 -1.8314 0.9545
-7.5938 -11.3308 -2.1720 0.9463
6.1509 13.2549 -2.3268 0.9425
4.4693 12.4227 -2.1023 0.9479
-0.1074 9.6446 -1.5359 0.9617
-0.9095 9.0405 -1.4468 0.9639
-4.5159 6.1291 -1.2123 0.9696
-5.3193 5.0310 -1.1659 0.9708
-5.6737 4.4804 -1.1512 0.9711
-6.0005 3.9254 -1.1418 0.9714
-6.3021 3.3629 -1.1375 0.9715
-6.5805 2.7904 -1.1382 0.9715
-3.2540 0.4376 -0.5228 0.9868
-3.2600 0.1454 -0.5196 0.9869
-3.3344 -0.1487 -0.5315 0.9866
-7.8763 -1.7845 -1.2860 0.9678
-7.9836 -2.5744 -1.3357 0.9666
-8.0653 -3.4200 -1.3950 0.9651
-8.1181 -4.3319 -1.4652 0.9634
-4.9023 -3.2069 -0.9328 0.9766
-4.5948 -3.6285 -0.9323 0.9766
-8.0499 -7.6135 -1.7643 0.9561
3.7326 12.0326 -2.0061 0.9503
0.5177 4.2032 -0.6744 0.9830
0.3329 9.9571 -1.5864 0.9605
-3.2898 7.5240 -1.3076 0.9673
-3.8145 6.9606 -1.2639 0.9684
-4.7298 5.8541 -1.1984 0.9700
-5.1310 5.3054 -1.1753 0.9705
-5.8403 4.2036 -1.1458 0.9713
-6.1543 3.6452 -1.1390 0.9714
-6.7113 2.4994 -1.1404 0.9714
-3.5500 0.6396 -0.5744 0.9855
-3.2454 0.2900 -0.5188 0.9869
-3.1940 -0.0000 -0.5632 0.9871
-7.4182 -1.3364 -1.3291 0.9698
-7.5177 -2.0593 -1.3744 0.9688
-7.6355 -3.6472 -1.4921 0.9662
-7.6200 -5.4845 -1.6554 0.9626
7.3272 12.6910 -2.5840 0.9422
2.8124 10.7350 -1.9568 0.9559
0.3223 4.1244 -0.7295 0.9833
-0.8541 8.4904 -1.5046 0.9659
-1.5267 7.9648 -1.4300 0.9676
-2.6745 6.9442 -1.3121 0.9702
-4.2964 5.8312 -1.2772 0.9710
-4.6997 5.3141 -1.2509 0.9716
-5.0702 4.7954 -1.2306 0.9721
-6.5225 2.1033 -1.2084 0.9725
-3.8238 0.8664 -0.6913 0.9842
-3.1644 0.1411 -0.5585 0.9872
-3.2276 -0.1439 -0.5697 0.9870
-7.5578 -2.4371 -1.4002 0.9683
-7.6456 -4.0798 -1.5281 0.9654
-7.4923 -7.0862 -1.8184 0.9590
-7.1044 -9.6421 -2.1118 0.9525
-6.3399 -12.9013 -2.5347 0.9433
0.3108 9.2966 -1.6402 0.9629
-1.8364 7.7059 -1.3968 0.9683
-3.6216 6.6086 -1.3288 0.9699
-4.5024 5.5727 -1.2633 0.9713
-5.8725 3.4783 -1.2035 0.9727
-6.4036 2.3848 -1.2049 0.9726
-4.2904 1.1753 -0.7844 0.9821
-3.4372 0.6192 -0.6158 0.9859
-3.1775 -0.2839 -0.6173 0.9871
-3.3117 -0.5966 -0.6512 0.9864
-7.1417 -1.9563 -1.4330 0.9703
-7.2226 -3.4499 -1.5490 0.9679
-7.0713 -6.1148 -1.8091 0.9626
-5.5009 -12.5808 -2.6572 0.9456
5.0876 10.9634 -2.3389 0.9520
2.6051 9.9435 -1.9892 0.9590
1.5934 9.4460 -1.8538 0.9617
0.3225 4.1269 -0.8011 0.9833
-2.5387 6.5917 -1.3669 0.9716
-3.2098 6.5319 -1.4084 0.9708
-3.6725 6.0458 -1.3689 0.9716
-4.8422 4.5797 -1.2898 0.9732
-5.1706 4.0832 -1.2750 0.9735
-5.7494 3.0680 -1.2611 0.9738
-3.6833 0.8345 -0.7308 0.9847
-3.1273 -0.1395 -0.6058 0.9873
-7.2140 -3.0590 -1.5163 0.9686
-7.2228 -3.8542 -1.5843 0.9672
-7.1949 -4.7067 -1.6638 0.9656
-7.0043 -6.6246 -1.8657 0.9615
-6.2309 -10.2574 -2.3225 0.9523
-5.7782 -11.7581 -2.5353 0.9480
-5.1837 -13.4591 -2.7911 0.9429
7.4983 11.7458 -2.6967 0.9448
5.8291 11.2230 -2.4473 0.9498
4.3995 10.7055 -2.2398 0.9539
2.0831 9.6937 -1.9187 0.9604
1.1331 9.2004 -1.7939 0.9629
0.2914 8.7152 -1.6875 0.9651
-0.4593 8.2372 -1.5965 0.9669
-2.2846 6.8238 -1.3926 0.9711
-2.9624 6.7752 -1.4310 0.9703
-3.4463 6.2888 -1.3877 0.9712
-5.0098 4.3322 -1.2817 0.9734
-5.3247 3.8325 -1.2696 0.9736
-5.6139 3.3251 -1.2627 0.9738
-4.1641 1.1407 -0.8355 0.9826
-3.3306 0.6000 -0.6549 0.9863
-3.0639 0.2738 -0.5953 0.9875
-3.2303 -0.5820 -0.6920 0.9867
-6.8401 -2.5473 -1.5388 0.9706
-6.8498 -3.2719 -1.6004 0.9694
-6.6487 -5.7493 -1.8531 0.9647
-6.2542 -7.7408 -2.0980 0.9601
-5.9475 -8.8742 -2.2522 0.9573
-5.5471 -10.1222 -2.4334 0.9539
-5.0307 -11.5054 -2.6473 0.9500
-4.3693 -13.0505 -2.9014 0.9453
9.4719 11.2033 -3.0929 0.9418
6.0510 10.4807 -2.5514 0.9517
3.4804 9.6739 -2.1674 0.9588
2.4251 9.2566 -2.0173 0.9616
1.4903 8.8351 -1.8889 0.9640
0.3227 4.1294 -0.8732 0.9832
-0.0890 7.9867 -1.6839 0.9679
-2.4153 6.2711 -1.4167 0.9729
-4.2878 4.8483 -1.3645 0.9739
-4.6325 4.3814 -1.3442 0.9743
-4.9491 3.9083 -1.3295 0.9746
-5.7484 2.4375 -1.3163 0.9748
-5.9686 1.9247 -1.3221 0.9747
-3.5520 0.8048 -0.7678 0.9852
-2.9940 0.1335 -0.6318 0.9878
-3.1545 -0.4243 -0.6710 0.9871
-6.7683 -1.5335 -1.4631 0.9720
-6.8491 -2.9042 -1.5684 0.9700
-6.7976 -4.4467 -1.7125 0.9673
-6.5735 -6.2171 -1.9075 0.9637
-5.7603 -9.4827 -2.3391 0.9557
-5.3050 -10.7954 -2.5358 0.9520
8.5166 11.0353 -2.9387 0.9446
6.8129 10.6723 -2.6693 0.9496
5.3415 10.2841 -2.4431 0.9537
0.2741 8.1991 -1.7295 0.9670
-0.4335 7.7743 -1.6415 0.9687
-1.0716 7.3472 -1.5653 0.9701
-2.1715 6.4860 -1.4420 0.9724
-3.2862 5.9967 -1.4416 0.9724
-4.4638 4.6155 -1.3537 0.9741
-4.7942 4.1457 -1.3362 0.9744
-5.0975 3.6690 -1.3241 0.9747
-5.6299 2.6892 -1.3153 0.9748
-4.0001 1.0957 -0.8744 0.9832
-3.2435 0.5843 -0.6948 0.9866
-2.9810 0.2664 -0.6310 0.9878
-2.9710 -0.0000 -0.6781 0.9879
-3.0430 -0.2719 -0.6973 0.9875
-6.4862 -1.7767 -1.5350 0.9728
-6.5145 -2.4260 -1.5867 0.9719
-6.4731 -3.8341 -1.7172 0.9696
-6.3950 -4.6029 -1.7984 0.9682
-6.0944 -6.3015 -2.0009 0.9647
-5.8552 -7.2471 -2.1265 0.9625
-5.1404 -9.3800 -2.4413 0.9571
-4.6320 -10.5935 -2.6389 0.9537
-3.1921 -13.3946 -3.1428 0.9451
10.3943 10.2792 -3.3366 0.9418
8.5590 10.1236 -3.0258 0.9471
5.5617 9.6332 -2.5389 0.9554
4.3294 9.3297 -2.3475 0.9587
3.2384 9.0012 -2.1834 0.9615
0.3229 4.1329 -0.9462 0.9831
-0.0841 7.5485 -1.7230 0.9695
-2.3024 5.9780 -1.4621 0.9741
-2.9201 5.9423 -1.5112 0.9732
-4.1060 4.6428 -1.4146 0.9749
-5.0244 3.2868 -1.3704 0.9757
-5.2803 2.8177 -1.3660 0.9757
-5.5129 2.3377 -1.3667 0.9757
-5.7231 1.8455 -1.3725 0.9756
-3.4289 0.7769 -0.8025 0.9857
-2.9625 0.3984 -0.6823 0.9878
-2.9453 0.1313 -0.6729 0.9880
-2.9994 -0.1337 -0.6853 0.9878
-3.0959 -0.4164 -0.7130 0.9873
-6.4613 -1.4639 -1.5121 0.9732
-6.4969 -3.4669 -1.6808 0.9702
-6.4394 -4.2125 -1.7563 0.9689
-6.1900 -5.8544 -1.9446 0.9656
-5.9832 -6.7653 -2.0614 0.9636
-5.7087 -7.7479 -2.1966 0.9613
-4.3304 -11.2436 -2.7500 0.9518
7.7330 10.0199 -2.8888 0.9494
6.2387 9.7727 -2.6463 0.9535
4.9264 9.4851 -2.4395 0.9571
3.7677 9.1681 -2.2624 0.9601
1.8214 8.4761 -1.9788 0.9651
0.9990 8.1111 -1.8653 0.9670
-0.4103 7.3580 -1.6820 0.9702
-1.0165 6.9700 -1.6077 0.9715
-2.0684 6.1779 -1.4870 0.9736
-3.9287 4.8627 -1.4268 0.9747
-4.2760 4.4213 -1.4039 0.9751
-4.5950 3.9734 -1.3865 0.9754
-3.1659 0.5704 -0.7342 0.9869
-2.9277 0.2616 -0.6709 0.9880
-2.9882 -0.2670 -0.7374 0.9877
-6.1986 -1.6980 -1.5798 0.9739
-6.2026 -2.9627 -1.6896 0.9721
-6.0653 -4.3656 -1.8369 0.9697
-5.5016 -6.8094 -2.1518 0.9646
-5.1859 -7.7379 -2.2896 0.9624
-4.7871 -8.7354 -2.4484 0.9598
-4.2895 -9.8102 -2.6318 0.9569
-3.6735 -10.9723 -2.8441 0.9535
9.3889 9.2849 -3.2457 0.9471
7.8014 9.2276 -2.9701 0.9514
6.3942 9.0958 -2.7329 0.9552
3.0263 8.4118 -2.1974 0.9638
2.1279 8.1223 -2.0638 0.9660
1.3180 7.8134 -1.9477 0.9679
0.3237 4.1428 -1.0214 0.9830
-0.0797 7.1532 -1.7584 0.9710
-1.7386 6.0804 -1.5545 0.9743
-2.1990 5.7095 -1.5039 0.9751
-2.7927 5.6829 -1.5564 0.9743
-3.2069 5.2793 -1.5183 0.9749
-4.2595 4.0286 -1.4411 0.9761
-4.8248 3.1563 -1.4171 0.9765
-5.0711 2.7060 -1.4128 0.9766
-5.2944 2.2451 -1.4135 0.9766
-5.4954 1.7721 -1.4192 0.9765
-2.8978 0.1292 -0.7130 0.9881
-2.9494 -0.1315 -0.7257 0.9879
-6.2113 -2.0028 -1.6041 0.9735
-6.1828 -3.2992 -1.7226 0.9715
-6.1148 -4.0001 -1.7960 0.9704
-6.0047 -4.7418 -1.8807 0.9690
-5.8463 -5.5294 -1.9779 0.9674
-5.6323 -6.3685 -2.0897 0.9656
-5.3533 -7.2655 -2.2183 0.9635
-4.9978 -8.2275 -2.3662 0.9611
-2.4728 -12.9002 -3.2286 0.9473
10.2588 9.2785 -3.4000 0.9446
8.5710 9.2669 -3.1027 0.9493
7.0768 9.1697 -2.8471 0.9534
5.7503 9.0077 -2.6268 0.9569
3.5127 8.5475 -2.2715 0.9627
-0.3893 6.9814 -1.7187 0.9716
-0.9665 6.6268 -1.6461 0.9728
-1.4928 6.2641 -1.5828 0.9738
-2.5720 5.8824 -1.5781 0.9739
-3.0042 5.4819 -1.5365 0.9746
-3.7665 4.6618 -1.4731 0.9756
-4.1021 4.2415 -1.4504 0.9760
-5.3977 2.0101 -1.4158 0.9766
-3.8036 1.0419 -0.9694 0.9839
-2.8745 0.0000 -0.7574 0.9882
-2.9343 -0.2622 -0.7763 0.9879
-5.9334 -1.6253 -1.6210 0.9749
-5.9196 -2.8275 -1.7286 0.9732
-5.8621 -3.4721 -1.7953 0.9722
-5.4343 -5.6191 -2.0598 0.9682
-5.1858 -6.4185 -2.1743 0.9664
-4.8703 -7.2671 -2.3051 0.9645
-3.9922 -9.1303 -2.6258 0.9596
-2.6802 -11.2464 -3.0464 0.9533
8.5547 8.4599 -3.1703 0.9515
4.7796 8.2786 -2.5189 0.9612
-1.6608 5.8080 -1.5917 0.9753
-2.6750 5.4434 -1.5982 0.9752
-3.7816 4.2759 -1.5041 0.9767
-4.0927 3.8709 -1.4844 0.9770
-4.8763 2.6021 -1.4564 0.9774
-5.2834 1.7037 -1.4628 0.9773
-3.2212 0.7298 -0.8703 0.9864
-2.8316 0.3808 -0.7528 0.9883
-2.8515 0.1271 -0.7521 0.9883
-2.9007 -0.1294 -0.7651 0.9881
-5.9350 -2.5166 -1.6987 0.9737
-5.7012 -4.5022 -1.9142 0.9704
-5.5364 -5.2363 -2.0080 0.9690
-5.3178 -6.0129 -2.1151 0.9673
-5.0371 -6.8363 -2.2375 0.9655
-3.7105 -9.6342 -2.7204 0.9582
-3.0572 -10.6917 -2.9302 0.9550
-1.3097 -13.0185 -3.4477 0.9473
-0.1592 -14.2898 -3.7656 0.9426
10.9383 8.2489 -3.6100 0.9449
7.8401 8.4767 -3.0425 0.9534
6.5192 8.4472 -2.8116 0.9568
5.3297 8.3488 -2.6100 0.9599
3.2882 8.0014 -2.2795 0.9648
2.4112 7.7728 -2.1444 0.9669
1.6154 7.5175 -2.0261 0.9687
-0.3702 6.6384 -1.7519 0.9729
-1.8868 5.6356 -1.5660 0.9757
-2.4622 5.6312 -1.6195 0.9749
-2.8791 5.2537 -1.5786 0.9755
-3.2628 4.8684 -1.5443 0.9760
-4.5115 3.2472 -1.4647 0.9773
-4.9864 2.3819 -1.4561 0.9774
-3.7365 1.0235 -1.0208 0.9841
-2.9786 -0.5366 -0.8515 0.9875
-5.5946 -3.3137 -1.8295 0.9733
-5.1517 -5.3269 -2.0850 0.9697
-4.9020 -6.0672 -2.1946 0.9681
-4.5887 -6.8468 -2.3190 0.9663
-4.2023 -7.6681 -2.4602 0.9643
-3.7313 -8.5336 -2.6205 0.9620
-3.1621 -9.4448 -2.8023 0.9595
-1.6634 -11.4053 -3.2429 0.9532
9.2033 7.6067 -3.3594 0.9516
7.8510 7.7640 -3.1066 0.9552
6.6155 7.8249 -2.8830 0.9583
5.4888 7.8079 -2.6853 0.9611
4.4619 7.7282 -2.5108 0.9636
2.6720 7.4269 -2.2207 0.9677
1.1794 6.9918 -1.9950 0.9710
0.3253 4.1630 -1.1749 0.9828
-0.0721 6.4676 -1.8198 0.9735
-1.1255 5.8719 -1.6822 0.9755
-2.5659 5.2214 -1.6369 0.9761
-3.9373 3.7239 -1.5248 0.9777
-4.2133 3.3272 -1.5105 0.9779
-4.4654 2.9212 -1.5013 0.9781
-4.9010 2.0782 -1.4978 0.9781
-5.0855 1.6399 -1.5034 0.9780
-3.1370 0.7108 -0.9050 0.9867
-2.7751 0.3732 -0.7878 0.9884
-2.8531 -0.1272 -0.8035 0.9882
-2.9298 -0.3940 -0.8317 0.9878
-3.2049 -1.0334 -0.9474 0.9861
-5.5483 -3.6295 -1.8654 0.9728
-5.4247 -4.2838 -1.9448 0.9717
-5.2554 -4.9705 -2.0352 0.9704
-5.0343 -5.6923 -2.1381 0.9689
-4.4053 -7.2521 -2.3874 0.9654
-3.4599 -8.9834 -2.7085 0.9608
-2.0890 -10.8983 -3.1221 0.9549
-0.1447 -12.9860 -3.6539 0.9475
11.4631 7.1393 -3.7996 0.9454
9.9253 7.4850 -3.4976 0.9497
8.5121 7.6987 -3.2292 0.9534
6.0391 7.8251 -2.7811 0.9598
3.0891 7.5170 -2.2866 0.9668
2.2733 7.3285 -2.1588 0.9686
0.1415 4.2332 -1.1917 0.9826
-0.3526 6.3237 -1.7820 0.9740
-1.8064 5.3956 -1.6009 0.9766
-2.3605 5.3986 -1.6578 0.9758
-2.7631 5.0419 -1.6176 0.9764
-4.0784 3.5267 -1.5170 0.9778
-4.3423 3.1254 -1.5053 0.9780
-4.5828 2.7144 -1.4986 0.9781
-4.8005 2.2930 -1.4968 0.9781
-2.9229 0.5266 -0.8356 0.9877
-2.7885 0.2492 -0.7877 0.9884
-2.8308 -0.2530 -0.8509 0.9882
-3.0126 -0.8252 -0.9351 0.9870
-5.4184 -2.5881 -1.7977 0.9752
-5.3483 -3.1678 -1.8610 0.9744
-5.0913 -4.4026 -2.0151 0.9723
-2.9538 -8.8224 -2.7854 0.9619
-0.6379 -11.4396 -3.4301 0.9533
1.6296 -13.2310 -3.9910 0.9459
12.5516 5.6555 -4.1215 0.9441
11.1026 6.2462 -3.8138 0.9482
9.7307 6.6797 -3.5335 0.9519
7.2491 7.1687 -3.0522 0.9583
6.1422 7.2651 -2.8482 0.9611
4.1813 7.2422 -2.5036 0.9657
3.3169 7.1478 -2.3591 0.9676
1.7917 6.8390 -2.1166 0.9709
0.3261 4.1734 -1.2532 0.9827
-0.0687 6.1663 -1.8462 0.9746
-1.5224 5.3243 -1.6579 0.9771
-2.4644 5.0150 -1.6729 0.9769
-3.1828 4.3197 -1.6064 0.9778
-3.7919 3.5863 -1.5625 0.9784
-4.0591 3.2054 -1.5484 0.9786
-4.3029 2.8149 -1.5394 0.9788
-4.5241 2.4141 -1.5352 0.9788
-4.9002 1.5801 -1.5414 0.9787
-2.7204 0.3658 -0.8218 0.9886
-2.7620 0.1232 -0.8277 0.9885
-2.8771 -0.3869 -0.8691 0.9880
-3.1092 -1.0026 -0.9780 0.9865
-5.4405 -2.3070 -1.7692 0.9756
-5.1715 -4.0839 -1.9728 0.9729
-4.9992 -4.7283 -2.0601 0.9717
-4.4985 -6.1054 -2.2704 0.9688
-1.9368 -10.1042 -3.0801 0.9580
-1.1056 -10.9900 -3.3068 0.9549
-0.1325 -11.8919 -3.5604 0.9516
13.2975 5.2923 -4.2847 0.9420
9.0767 6.8451 -3.4035 0.9536
6.6847 7.2274 -2.9473 0.9597
3.7400 7.2008 -2.4292 0.9667
2.9113 7.0841 -2.2929 0.9685
1.4488 6.7419 -2.0645 0.9716
0.8040 6.5284 -1.9692 0.9729
0.1413 4.2264 -1.2660 0.9825
-0.3365 6.0348 -1.8095 0.9751
-0.8401 5.7604 -1.7428 0.9760
-1.7321 5.1736 -1.6334 0.9775
-3.0140 4.4971 -1.6208 0.9776
-3.9285 3.3971 -1.5548 0.9785
-4.1839 3.0114 -1.5433 0.9787
-4.6263 2.2098 -1.5349 0.9788
-4.8144 1.7929 -1.5380 0.9788
-2.7380 0.0000 -0.8695 0.9886
-2.7827 -0.2487 -0.8873 0.9883
-2.8694 -0.5169 -0.9259 0.9878
-2.9540 -0.8092 -0.9727 0.9872
-5.2365 -1.9501 -1.7746 0.9768
-5.1952 -2.4815 -1.8285 0.9761
-5.1206 -3.0329 -1.8901 0.9753
-5.0093 -3.6055 -1.9601 0.9744
-4.8574 -4.2003 -2.0394 0.9734
-4.6601 -4.8185 -2.1289 0.9723
-4.4120 -5.4608 -2.2296 0.9710
-3.2944 -7.5345 -2.6116 0.9661
-2.1515 -9.0279 -2.9474 0.9618
-0.5896 -10.5730 -3.3630 0.9565
0.3792 -11.3429 -3.6043 0.9535
12.6281 4.3850 -4.2454 0.9454
10.1201 5.6935 -3.6877 0.9524
8.9303 6.1303 -3.4400 0.9556
7.7963 6.4438 -3.2122 0.9584
6.7281 6.6536 -3.0051 0.9611
4.7968 6.8236 -2.6490 0.9656
3.9317 6.8098 -2.4973 0.9675
3.1297 6.7444 -2.3613 0.9693
1.0653 6.3156 -2.0340 0.9735
-0.0656 5.8890 -1.8703 0.9756
-0.5678 5.6439 -1.8015 0.9765
-1.4607 5.1084 -1.6874 0.9779
-1.9785 5.1371 -1.7483 0.9772
-2.3698 4.8224 -1.7064 0.9777
-2.7314 4.4965 -1.6709 0.9782
-3.3728 3.8137 -1.6169 0.9789
-4.1504 2.7151 -1.5751 0.9794
-4.3641 2.3288 -1.5710 0.9795
-4.7263 1.5240 -1.5771 0.9794
-2.9791 0.6750 -0.9701 0.9873
-2.6672 0.3587 -0.8547 0.9888
-2.7186 0.1212 -0.8642 0.9886
-2.7613 -0.1231 -0.8778 0.9885
-2.9205 -0.6617 -0.9510 0.9875
-5.2198 -2.2134 -1.8006 0.9765
-5.1623 -2.7546 -1.8583 0.9757
-5.0698 -3.3165 -1.9240 0.9749
-4.9387 -3.9001 -1.9985 0.9739
-4.7647 -4.5064 -2.0828 0.9729
-4.5428 -5.1366 -2.1778 0.9716
-3.9304 -6.4704 -2.4043 0.9687
-2.4728 -8.6478 -2.8565 0.9630
-1.8041 -9.4115 -3.0434 0.9606
-1.0246 -10.1852 -3.2510 0.9579
-0.1221 -10.9595 -3.4808 0.9550
0.9155 -11.7166 -3.7323 0.9519
13.2650 3.9534 -4.3959 0.9436
11.9913 4.7725 -4.0988 0.9473
10.7329 5.4235 -3.8191 0.9508
9.5202 5.9292 -3.5619 0.9540
7.2537 6.5606 -3.1061 0.9598
6.2196 6.7246 -2.9090 0.9623
5.2542 6.8080 -2.7311 0.9646
4.3561 6.8238 -2.5711 0.9666
2.0372 6.5674 -2.1837 0.9716
0.7659 6.2182 -1.9897 0.9740
0.1411 4.2196 -1.3408 0.9824
-0.3216 5.7685 -1.8348 0.9760
-0.8044 5.5153 -1.7701 0.9769
-1.2505 5.2473 -1.7131 0.9776
-2.5541 4.6608 -1.6879 0.9779
-3.2222 3.9882 -1.6283 0.9787
-3.5172 3.6368 -1.6068 0.9790
-4.0352 2.9044 -1.5790 0.9794
-4.2600 2.5233 -1.5724 0.9794
-4.6438 1.7294 -1.5738 0.9794
-3.4729 0.9513 -1.1436 0.9850
-2.6951 0.2408 -0.8593 0.9887
-2.6945 0.0000 -0.9053 0.9887
-2.8971 -0.7936 -1.0092 0.9874
-5.0332 -1.8744 -1.8045 0.9776
-4.9876 -2.3824 -1.8571 0.9769
-4.6419 -4.0140 -2.0618 0.9744
-4.4447 -4.5958 -2.1481 0.9734
-3.8988 -5.8175 -2.3529 0.9709
-3.1096 -7.1117 -2.6078 0.9678
-2.6052 -7.7811 -2.7570 0.9660
-2.0162 -8.4603 -2.9221 0.9640
-1.3335 -9.1431 -3.1044 0.9618
-0.5476 -9.8211 -3.3048 0.9593
1.3676 -11.1039 -3.7589 0.9539
2.5076 -11.6692 -4.0102 0.9509
3.7711 -12.1569 -4.2765 0.9477
5.1526 -12.5382 -4.5545 0.9444
13.3298 3.3340 -4.6165 0.9437
10.3652 4.6704 -3.8197 0.9532
8.2374 5.6546 -3.3569 0.9587
6.2728 6.2033 -2.9641 0.9635
4.5084 6.4133 -2.6339 0.9675
1.6173 6.1732 -2.1441 0.9734
0.3282 4.2003 -1.4155 0.9824
-0.0627 5.6328 -1.8926 0.9765
-0.9900 5.1646 -1.7668 0.9781
-1.9028 4.9406 -1.7788 0.9779
-2.2812 4.6422 -1.7379 0.9784
-2.9549 4.0105 -1.6737 0.9792
-3.5273 3.3361 -1.6312 0.9797
-3.7783 2.9837 -1.6175 0.9799
-4.0069 2.6212 -1.6087 0.9800
-2.6762 0.1193 -0.9001 0.9888
-2.8653 -0.6492 -0.9871 0.9877
-5.0143 -2.1262 -1.8299 0.9773
-4.9528 -2.6429 -1.8861 0.9766
-4.8570 -3.1773 -1.9500 0.9758
-4.3282 -4.8940 -2.1951 0.9728
-4.0560 -5.5049 -2.2974 0.9716
-3.7265 -6.1347 -2.4116 0.9702
-2.8674 -7.4449 -2.6805 0.9669
-0.9540 -9.4833 -3.2023 0.9606
-0.1132 -10.1548 -3.4121 0.9581
0.8439 -10.7999 -3.6396 0.9553
1.9221 -11.3947 -3.8825 0.9524
3.1241 -11.9245 -4.1416 0.9493
5.8836 -12.6789 -4.6962 0.9427
13.8810 2.8214 -4.7591 0.9420
11.9886 3.5730 -4.2030 0.9486
10.9085 4.3415 -3.9446 0.9517
7.7338 5.8323 -3.2545 0.9599
5.8113 6.2832 -2.8755 0.9645
2.6065 6.3426 -2.3039 0.9715
1.3107 6.1002 -2.0963 0.9740
0.7308 5.9333 -2.0085 0.9751
0.1408 4.2127 -1.4162 0.9824
-0.3079 5.5223 -1.8583 0.9769
-0.7712 5.2879 -1.7954 0.9777
-1.2005 5.0377 -1.7400 0.9784
-2.0957 4.7930 -1.7576 0.9782
-2.7964 4.1726 -1.6876 0.9790
-3.8954 2.8037 -1.6125 0.9800
-4.4834 1.6696 -1.6074 0.9800
-2.6500 0.2368 -0.8939 0.9888
-2.6519 0.0000 -0.9403 0.9888
-2.8417 -0.7784 -1.0448 0.9876
-4.8430 -1.8035 -1.8325 0.9783
-4.7939 -2.2898 -1.8838 0.9777
-4.5968 -3.3086 -2.0083 0.9762
-4.2462 -4.3905 -2.1658 0.9744
-3.7089 -5.5341 -2.3623 0.9721
-3.3574 -6.1265 -2.4772 0.9708
-2.9426 -6.7298 -2.6045 0.9693
-2.4577 -7.3408 -2.7449 0.9677
-1.8956 -7.9545 -2.8995 0.9659
-0.5109 -9.1622 -3.2538 0.9618
0.3255 -9.7362 -3.4542 0.9595
7.3808 -11.5619 -4.8638 0.9434
13.0241 2.0480 -4.6749 0.9456
10.4642 3.6335 -3.9278 0.9541
8.5768 4.8252 -3.4895 0.9591
7.6433 5.2469 -3.2873 0.9614
5.8686 5.8037 -2.9266 0.9656
5.0385 5.9595 -2.7672 0.9674
4.2499 6.0455 -2.6203 0.9691
3.5063 6.0731 -2.4865 0.9707
2.8070 6.0502 -2.3649 0.9721
2.1530 5.9848 -2.2552 0.9734
1.5379 5.8700 -2.1517 0.9746
0.3301 4.2243 -1.5024 0.9822
-0.0601 5.3954 -1.9133 0.9774
-0.5218 5.1871 -1.8486 0.9781
-1.8320 4.7567 -1.8074 0.9786
-2.1982 4.4733 -1.7673 0.9791
-2.5375 4.1773 -1.7331 0.9795
-2.8512 3.8697 -1.7044 0.9798
-3.1406 3.5511 -1.6809 0.9801
-3.4065 3.2219 -1.6626 0.9803
-3.6500 2.8824 -1.6491 0.9805
-4.4083 1.4215 -1.6424 0.9805
-2.5615 0.5804 -0.9313 0.9889
-2.6733 -0.1192 -0.9489 0.9887
-2.7260 -0.3666 -0.9753 0.9884
-2.8093 -0.6365 -1.0214 0.9878
-4.5247 -3.5731 -2.0443 0.9758
-4.1309 -4.6709 -2.2110 0.9739
-3.8629 -5.2428 -2.3092 0.9727
-2.7093 -7.0346 -2.6730 0.9685
-0.8919 -8.8656 -3.1595 0.9629
-0.1053 -9.4530 -3.3521 0.9607
0.7820 -10.0080 -3.5595 0.9583
2.8660 -10.9395 -4.0099 0.9531
4.0583 -11.2803 -4.2508 0.9504
8.0795 -11.4933 -4.9816 0.9421
13.4439 1.5039 -4.7968 0.9442
12.5796 2.5569 -4.5518 0.9470
11.6303 3.4662 -4.3032 0.9498
9.9956 3.9782 -3.8147 0.9554
9.0494 4.5729 -3.5952 0.9579
6.2947 5.6933 -3.0095 0.9646
5.4488 5.8912 -2.8454 0.9665
4.6386 6.0104 -2.6921 0.9683
3.8724 6.0660 -2.5518 0.9699
1.8420 5.9379 -2.2045 0.9740
1.2477 5.8063 -2.1058 0.9751
0.1406 4.2058 -1.4921 0.9823
-0.2952 5.2936 -1.8800 0.9778
-0.7403 5.0761 -1.8190 0.9785
-1.1539 4.8420 -1.7650 0.9791
-2.0185 4.6166 -1.7866 0.9788
-2.6975 4.0249 -1.7180 0.9796
-2.9988 3.7117 -1.6920 0.9800
-2.6624 0.4796 -0.9592 0.9886
-2.6498 -0.2368 -0.9934 0.9887
-2.7171 -0.4895 -1.0309 0.9883
-2.7878 -0.7636 -1.0794 0.9877
-4.6126 -2.2032 -1.9088 0.9784
-4.4119 -3.1755 -2.0298 0.9771
-4.2576 -3.6817 -2.1018 0.9763
-3.8232 -4.7320 -2.2716 0.9744
-3.5348 -5.2742 -2.3708 0.9733
-1.1739 -8.0492 -3.0375 0.9659
0.3036 -9.0817 -3.3931 0.9619
1.1745 -9.5362 -3.5878 0.9598
2.1334 -9.9280 -3.7919 0.9576
3.1769 -10.2414 -4.0040 0.9552
5.4787 -10.5483 -4.4385 0.9505
6.7015 -10.4977 -4.6506 0.9482
7.9365 -10.2836 -4.8506 0.9460
9.1481 -9.8909 -5.0309 0.9441
10.2951 -9.3114 -5.1834 0.9425
13.6798 -2.7805 -5.2126 0.9421
13.0988 -0.2919 -4.8924 0.9456
12.5481 0.8400 -4.6961 0.9477
5.5059 5.4450 -2.8915 0.9675
4.7406 5.6072 -2.7418 0.9691
2.6630 5.7388 -2.3624 0.9733
1.4678 5.6025 -2.1626 0.9756
0.9267 5.4941 -2.0805 0.9765
-0.5012 4.9819 -1.8697 0.9788
-2.4490 4.0317 -1.7615 0.9801
-3.2924 3.1140 -1.6922 0.9808
-3.7435 2.4489 -1.6704 0.9811
-3.9373 2.1010 -1.6665 0.9811
-2.5325 0.3406 -0.9542 0.9891
-2.5921 0.1156 -0.9689 0.9890
-2.8043 -0.9043 -1.1002 0.9875
-4.5750 -2.4413 -1.9364 0.9781
-3.6854 -5.0018 -2.3200 0.9738
-3.3706 -5.5488 -2.4243 0.9727
-2.0652 -7.2226 -2.8051 0.9684
-1.4907 -7.7766 -2.9567 0.9668
-0.8367 -8.3173 -3.1215 0.9649
1.6431 -9.7407 -3.6887 0.9587
2.6450 -10.0958 -3.8971 0.9564
3.7280 -10.3623 -4.1122 0.9541
4.8811 -10.5185 -4.3300 0.9517
8.5477 -10.1103 -4.9437 0.9450
10.8307 -8.9517 -5.2469 0.9418
13.3149 -0.8913 -4.9831 0.9446
12.8418 0.2862 -4.7965 0.9466
12.2220 1.3673 -4.5923 0.9488
10.6771 3.1821 -4.1602 0.9535
9.2154 3.6676 -3.7036 0.9585
8.3806 4.2349 -3.5063 0.9607
5.1191 5.5347 -2.8152 0.9683
3.6592 5.7322 -2.5394 0.9714
2.3501 5.7188 -2.3087 0.9739
0.6680 5.4236 -2.0405 0.9769
-0.2833 5.0808 -1.9002 0.9785
-0.7115 4.8785 -1.8409 0.9792
-2.6042 3.8858 -1.7467 0.9802
-2.8967 3.5853 -1.7211 0.9805
-3.1661 3.2738 -1.7006 0.9807
-3.4133 2.9516 -1.6850 0.9809
-3.6387 2.6190 -1.6741 0.9810
-3.8430 2.2762 -1.6679 0.9811
-4.0263 1.9232 -1.6662 0.9811
-4.1889 1.5600 -1.6691 0.9811
-3.4441 0.9434 -1.3334 0.9849
-2.6096 0.4701 -0.9901 0.9887
-2.5691 0.0000 -1.0083 0.9890
-2.6073 -0.2330 -1.0273 0.9888
-2.6685 -0.4808 -1.0642 0.9884
-2.7221 -0.7457 -1.1077 0.9879
-4.2393 -3.0513 -2.0500 0.9778
-4.0854 -3.5327 -2.1197 0.9771
-3.0411 -5.5493 -2.4836 0.9732
-2.6525 -6.0665 -2.5986 0.9720
-2.2037 -6.5822 -2.7243 0.9706
-1.6899 -7.0912 -2.8610 0.9692
-0.4495 -8.0610 -3.1686 0.9659
1.0957 -8.8966 -3.5180 0.9622
5.0313 -9.6868 -4.2840 0.9542
6.1302 -9.6028 -4.4713 0.9522
7.2334 -9.3726 -4.6466 0.9504
9.3264 -8.4352 -4.9354 0.9474
11.6568 -5.8904 -5.1259 0.9454
12.0970 -4.8145 -5.1099 0.9456
12.3860 -2.5176 -4.9605 0.9471
12.2430 -1.3696 -4.8350 0.9484
11.4688 0.7678 -4.5113 0.9518
10.8889 1.7122 -4.3261 0.9537
10.2173 2.5555 -4.1335 0.9558
9.4804 3.2920 -3.9387 0.9578
6.6647 4.5750 -3.1727 0.9659
5.9169 4.8904 -3.0127 0.9676
4.4785 5.2973 -2.7225 0.9706
1.4030 5.3553 -2.1727 0.9765
0.8872 5.2595 -2.0933 0.9773
0.3340 4.2741 -1.6825 0.9817
-0.4819 4.7901 -1.8894 0.9795
-1.3170 4.6059 -1.8801 0.9796
-2.0465 4.1645 -1.8211 0.9803
-2.3655 3.8942 -1.7882 0.9806
-3.6223 2.3696 -1.6988 0.9816
-3.9774 1.6866 -1.6955 0.9816
-2.5490 0.1137 -1.0014 0.9891
-2.5889 -0.1154 -1.0171 0.9889
-4.4734 -1.8969 -1.9070 0.9793
-4.3027 -2.8147 -2.0179 0.9781
-3.9939 -3.7774 -2.1575 0.9767
-3.7800 -4.2741 -2.2394 0.9758
-2.8540 -5.8078 -2.5398 0.9726
-2.4359 -6.3248 -2.6600 0.9713
-1.9552 -6.8379 -2.7912 0.9699
-1.4072 -7.3412 -2.9337 0.9684
-0.7874 -7.8272 -3.0875 0.9668
1.5300 -9.0703 -3.6101 0.9612
2.4534 -9.3645 -3.7993 0.9593
4.4914 -9.6787 -4.1877 0.9552
7.7773 -9.1990 -4.7277 0.9496
8.8282 -8.7304 -4.8729 0.9480
10.6573 -7.3158 -5.0733 0.9460
11.3664 -6.3946 -5.1185 0.9455
8.8981 3.5414 -3.7587 0.9597
7.0422 4.3859 -3.2561 0.9650
4.8290 5.2210 -2.7912 0.9699
1.6737 5.3956 -2.2172 0.9760
0.6400 5.1963 -2.0548 0.9778
0.1407 4.2103 -1.6533 0.9821
-0.2722 4.8820 -1.9190 0.9792
-1.0695 4.4877 -1.8106 0.9804
-1.5215 4.5446 -1.8809 0.9796
-1.8778 4.2948 -1.8396 0.9801
-2.8001 3.4658 -1.7487 0.9810
-3.5206 2.5340 -1.7024 0.9815
-3.7187 2.2026 -1.6963 0.9816
-3.8963 1.8611 -1.6947 0.9816
-4.0533 1.5095 -1.6976 0.9816
-3.4629 0.9486 -1.4092 0.9847
-2.5207 0.2252 -0.9932 0.9892
-2.5289 0.0000 -1.0413 0.9891
-2.6410 -0.7235 -1.1276 0.9882
-4.1962 -2.4854 -2.0083 0.9791
-3.9245 -3.3936 -2.1365 0.9778
-3.7336 -3.8605 -2.2115 0.9770
-3.5020 -4.3344 -2.2946 0.9762
-2.9018 -5.2951 -2.4864 0.9742
-1.6013 -6.7195 -2.8445 0.9706
-0.4235 -7.5956 -3.1326 0.9676
1.0260 -8.3305 -3.4563 0.9643
3.6716 -8.9342 -3.9775 0.9591
6.6377 -8.6007 -4.4737 0.9541
7.6048 -8.2222 -4.6119 0.9527
8.5147 -7.7010 -4.7275 0.9515
9.3370 -7.0414 -4.8156 0.9507
10.0427 -6.2546 -4.8718 0.9501
11.0102 -4.3820 -4.8797 0.9500
11.2429 -3.3507 -4.8309 0.9505
11.1972 -1.2526 -4.6396 0.9524
10.9397 -0.2438 -4.5059 0.9538
10.5496 0.7062 -4.3538 0.9553
9.4618 2.3666 -4.0162 0.9587
8.8101 3.0592 -3.8403 0.9605
7.9153 3.5665 -3.5750 0.9631
6.9430 3.9060 -3.2804 0.9661
6.2564 4.2948 -3.1248 0.9677
5.5716 4.6050 -2.9765 0.9692
4.8975 4.8433 -2.8363 0.9706
4.2410 5.0163 -2.7049 0.9720
2.4177 5.2100 -2.3651 0.9755
1.8657 5.1859 -2.2695 0.9764
0.8504 5.0414 -2.1053 0.9781
-0.0532 4.7765 -1.9670 0.9795
-1.2863 4.4985 -1.9266 0.9800
-1.6439 4.2682 -1.8834 0.9804
-1.9770 4.0230 -1.8458 0.9808
-2.8384 3.2095 -1.7643 0.9816
-3.0820 2.9150 -1.7468 0.9818
-3.5072 2.2943 -1.7258 0.9820
-3.6893 1.9687 -1.7219 0.9821
-2.5068 0.1118 -1.0333 0.9892
-2.5854 -0.3477 -1.0742 0.9888
-3.6231 -4.0967 -2.2520 0.9766
-3.3697 -4.5734 -2.3392 0.9757
-2.7205 -5.5360 -2.5400 0.9737
-0.7431 -7.3863 -3.0569 0.9684
-0.0869 -7.7964 -3.2106 0.9668
0.6382 -8.1669 -3.3732 0.9652
1.4302 -8.4790 -3.5408 0.9635
2.2856 -8.7242 -3.7137 0.9617
3.1976 -8.8878 -3.8895 0.9600
5.1434 -8.9086 -4.2359 0.9565
8.9387 -7.3880 -4.7753 0.9511
10.3437 -5.8193 -4.8871 0.9500
11.2701 -1.7721 -4.6978 0.9518
10.7598 0.2398 -4.4318 0.9545
10.3117 1.1536 -4.2727 0.9561
9.7650 1.9848 -4.1032 0.9578
9.1427 2.7248 -3.9284 0.9596
7.2835 3.6805 -3.3604 0.9653
5.9131 4.4593 -3.0497 0.9685
5.2327 4.7327 -2.9053 0.9699
4.5667 4.9375 -2.7695 0.9713
3.9209 5.0805 -2.6426 0.9726
3.2993 5.1683 -2.5249 0.9738
2.7045 5.2071 -2.4162 0.9749
2.1381 5.2027 -2.3162 0.9760
1.6007 5.1602 -2.2248 0.9769
1.0940 5.0912 -2.1443 0.9777
-1.4682 4.3853 -1.9043 0.9802
-1.8134 4.1474 -1.8639 0.9806
-2.4328 3.6300 -1.7994 0.9813
-2.7086 3.3525 -1.7748 0.9815
-3.1960 2.7637 -1.7399 0.9819
-3.4086 2.4533 -1.7293 0.9820
-3.6008 2.1327 -1.7233 0.9821
-3.7728 1.8021 -1.7217 0.9821
-3.9246 1.4616 -1.7245 0.9820
-3.5071 0.9607 -1.4973 0.9844
-2.5181 0.4537 -1.0536 0.9890
-2.4893 0.0000 -1.0738 0.9892
-2.5221 -0.2254 -1.0922 0.9890
-2.5389 -0.4574 -1.1128 0.9888
-2.5688 -0.9566 -1.1824 0.9881
-4.1317 -1.9735 -1.9751 0.9803
-4.0445 -2.3955 -2.0277 0.9797
-3.9260 -2.8257 -2.0865 0.9791
-3.7739 -3.2634 -2.1521 0.9785
-3.5855 -3.7074 -2.2248 0.9778
-3.0883 -4.6080 -2.3928 0.9761
-2.7729 -5.0600 -2.4890 0.9752
-2.4088 -5.5091 -2.5936 0.9741
-1.9924 -5.9509 -2.7070 0.9730
-0.9905 -6.7912 -2.9605 0.9705
-0.4001 -7.1757 -3.1001 0.9692
1.7330 -8.0649 -3.5583 0.9647
2.5539 -8.2330 -3.7183 0.9631
3.4178 -8.3168 -3.8787 0.9616
6.1262 -7.9379 -4.3252 0.9573
7.0021 -7.5705 -4.4482 0.9561
7.8243 -7.0766 -4.5507 0.9551
10.3130 -3.0736 -4.6420 0.9542
10.3826 -2.1104 -4.5702 0.9549
10.3049 -1.1527 -4.4728 0.9558
9.3205 1.4656 -4.0699 0.9597
7.5952 3.4223 -3.5935 0.9644
5.8905 4.0436 -3.0820 0.9694
4.0247 4.7604 -2.6890 0.9732
3.4308 4.8804 -2.5733 0.9743
2.8582 4.9505 -2.4658 0.9754
0.8161 4.8380 -2.1164 0.9789
-0.8243 4.3002 -1.8887 0.9811
-1.5880 4.1232 -1.9059 0.9809
-2.2117 3.6409 -1.8376 0.9816
-2.4904 3.3800 -1.8110 0.9819
-2.7479 3.1071 -1.7892 0.9821
-3.2012 2.5280 -1.7595 0.9824
-3.3977 2.2227 -1.7514 0.9825
-3.5744 1.9074 -1.7476 0.9825
-2.4654 0.1099 -1.0645 0.9893
-2.5277 -0.3400 -1.1001 0.9890
-2.5465 -0.5770 -1.1263 0.9887
-2.5665 -0.8276 -1.1632 0.9883
-2.6695 -1.1320 -1.2508 0.9874
-4.0918 -2.1835 -2.0006 0.9800
-3.9893 -2.6096 -2.0563 0.9794
-3.8543 -3.0437 -2.1185 0.9788
-2.9365 -4.8342 -2.4398 0.9757
-2.5972 -5.2851 -2.5402 0.9747
-2.2073 -5.7312 -2.6492 0.9736
-1.7636 -6.1676 -2.7671 0.9724
-1.2629 -6.5886 -2.8938 0.9712
-0.7029 -6.9873 -3.0292 0.9699
-0.0819 -7.3552 -3.1729 0.9685
0.6003 -7.6828 -3.3241 0.9670
1.3416 -7.9533 -3.4792 0.9655
2.9812 -8.2863 -3.7987 0.9624
3.8623 -8.3229 -3.9579 0.9608
5.6761 -8.0743 -4.2574 0.9579
6.5692 -7.7700 -4.3890 0.9566
7.4215 -7.3393 -4.5023 0.9555
8.2072 -6.7834 -4.5929 0.9547
9.4791 -5.3328 -4.6915 0.9537
10.2212 -3.5492 -4.6672 0.9540
10.3667 -2.5929 -4.6095 0.9545
10.2141 -0.6837 -4.4158 0.9564
9.5501 1.0683 -4.1452 0.9590
9.0703 1.8436 -3.9925 0.9605
8.5181 2.5387 -3.8341 0.9620
7.9126 3.1491 -3.6735 0.9636
7.0975 3.5866 -3.4303 0.9660
4.9470 4.4744 -2.8773 0.9714
4.3285 4.6799 -2.7498 0.9726
3.7253 4.8270 -2.6301 0.9738
2.0440 4.9737 -2.3196 0.9768
1.5329 4.9417 -2.2318 0.9777
1.0491 4.8821 -2.1540 0.9785
0.5896 4.7870 -2.0805 0.9792
0.1410 4.2161 -1.8197 0.9818
-0.6353 4.3562 -1.8990 0.9810
-1.0517 4.4131 -1.9569 0.9804
-2.0642 3.7666 -1.8528 0.9815
-2.3537 3.5120 -1.8237 0.9818
-3.6553 1.7460 -1.7474 0.9825
-2.4719 0.4453 -1.0835 0.9891
-2.4387 0.2179 -1.0561 0.9894
-2.4282 0.0000 -1.0956 0.9894
-2.4593 -0.4431 -1.1275 0.9891
-2.4702 -0.6766 -1.1556 0.9888
-2.4890 -0.9270 -1.1984 0.9884
-3.9013 -2.3107 -2.0460 0.9803
-3.7832 -2.7229 -2.1032 0.9798
-3.4468 -3.5639 -2.2371 0.9785
-2.9601 -4.4168 -2.3991 0.9769
-2.6535 -4.8420 -2.4914 0.9761
-1.4465 -6.0697 -2.8155 0.9730
-0.9401 -6.4460 -2.9393 0.9718
-0.3789 -6.7946 -3.0706 0.9706
0.2376 -7.1071 -3.2087 0.9693
0.9080 -7.3724 -3.3517 0.9679
3.1939 -7.7719 -3.7914 0.9638
4.8546 -7.6046 -4.0709 0.9612
5.6820 -7.3623 -4.1963 0.9600
6.4810 -7.0071 -4.3068 0.9590
8.4879 -5.2864 -4.5120 0.9571
8.9584 -4.5269 -4.5290 0.9569
9.5148 -2.8357 -4.4798 0.9574
9.0656 0.6069 -4.0997 0.9609
8.2205 2.0561 -3.8235 0.9635
7.1320 3.2135 -3.5297 0.9663
5.5606 3.8172 -3.0433 0.9708
3.2689 4.6501 -2.5647 0.9754
2.7287 4.7262 -2.4624 0.9763
1.7103 4.7539 -2.2797 0.9781
1.2351 4.7143 -2.1990 0.9788
0.7840 4.6478 -2.1268 0.9795
0.3555 4.5494 -2.0590 0.9802
-0.4307 4.2817 -1.9417 0.9813
-0.8204 4.2801 -1.9664 0.9811
-1.1994 4.1946 -1.9685 0.9810
-1.5351 3.9859 -1.9273 0.9814
-1.8487 3.7620 -1.8913 0.9818
-2.6618 3.0098 -1.8130 0.9825
-2.8921 2.7353 -1.7962 0.9827
-3.1025 2.4501 -1.7838 0.9828
-3.2935 2.1545 -1.7758 0.9829
-3.7495 1.2090 -1.7776 0.9829
-2.3568 0.3169 -1.0730 0.9896
-2.4105 0.1075 -1.0887 0.9895
-2.4521 -0.3298 -1.1164 0.9892
-2.4891 -1.0555 -1.2199 0.9882
-3.9489 -2.1072 -2.0196 0.9805
-3.0971 -4.2033 -2.3559 0.9773
-1.6795 -5.8736 -2.7565 0.9735
-1.2001 -6.2609 -2.8764 0.9724
0.5663 -7.2469 -3.2799 0.9686
1.2622 -7.4828 -3.4241 0.9672
6.8630 -6.7870 -4.3552 0.9585
8.2097 -5.6357 -4.4932 0.9572
8.7382 -4.9160 -4.5239 0.9570
9.1472 -4.1215 -4.5270 0.9569
9.4260 -3.2730 -4.5023 0.9572
9.5694 -2.3935 -4.4509 0.9576
9.5783 -1.5061 -4.3750 0.9583
9.4591 -0.6332 -4.2777 0.9593
9.2230 0.2055 -4.1626 0.9603
8.4598 1.7196 -3.8953 0.9628
7.9661 2.3742 -3.7507 0.9642
7.4199 2.9531 -3.6034 0.9656
6.8367 3.4547 -3.4563 0.9669
5.8501 3.6435 -3.1098 0.9702
4.6875 4.2395 -2.8518 0.9726
2.9964 4.6938 -2.5127 0.9759
1.9566 4.7612 -2.3226 0.9777
1.4698 4.7381 -2.2384 0.9785
0.5668 4.6018 -2.0921 0.9799
-0.6131 4.2039 -1.9169 0.9815
-1.0230 4.2928 -1.9912 0.9808
-1.3701 4.0923 -1.9472 0.9812
-1.6946 3.8758 -1.9087 0.9816
-1.9973 3.6446 -1.8752 0.9819
-2.2786 3.4000 -1.8468 0.9822
-2.7795 2.8740 -1.8040 0.9826
-2.9998 2.5941 -1.7894 0.9827
-3.5434 1.6925 -1.7719 0.9829
-3.6857 1.3726 -1.7746 0.9829
-3.8083 1.0432 -1.7817 0.9828
-2.4063 0.4335 -1.1032 0.9893
-2.3615 0.0000 -1.1132 0.9896
-2.3816 -0.4291 -1.1407 0.9894
-2.3934 -0.6556 -1.1698 0.9891
-2.4034 -0.8950 -1.2089 0.9887
-3.8541 -1.8410 -2.0134 0.9813
-3.0977 -3.8341 -2.3235 0.9784
-2.5423 -4.6391 -2.4936 0.9769
-2.2007 -5.0331 -2.5894 0.9760
-1.8134 -5.4164 -2.6925 0.9751
-1.3784 -5.7838 -2.8027 0.9740
-0.8940 -6.1297 -2.9200 0.9730
-0.3595 -6.4470 -3.0437 0.9719
0.2249 -6.7281 -3.1732 0.9707
0.8576 -6.9631 -3.3070 0.9695
1.5342 -7.1396 -3.4423 0.9682
2.9948 -7.2874 -3.7138 0.9658
5.2924 -6.8576 -4.0832 0.9624
6.7118 -6.0705 -4.2659 0.9608
7.3311 -5.5286 -4.3282 0.9602
7.8655 -4.8986 -4.3679 0.9599
8.2991 -4.1937 -4.3831 0.9597
8.6203 -3.4308 -4.3734 0.9598
8.8216 -2.6291 -4.3390 0.9601
8.9010 -1.8092 -4.2815 0.9606
8.1173 1.2764 -3.8733 0.9643
7.7039 1.9269 -3.7433 0.9655
6.7162 3.0262 -3.4724 0.9679
6.1694 3.4708 -3.3367 0.9692
4.7213 3.9022 -2.8873 0.9733
4.1801 4.1338 -2.7712 0.9743
3.6446 4.3108 -2.6609 0.9753
2.6087 4.5183 -2.4593 0.9772
1.1864 4.5283 -2.2066 0.9795
0.3423 4.3801 -2.0710 0.9808
-0.4157 4.1318 -1.9575 0.9818
-2.0729 3.4125 -1.8821 0.9825
-2.3363 3.1709 -1.8566 0.9827
-3.0084 2.3758 -1.8070 0.9832
-3.3605 1.7932 -1.7955 0.9833
-3.5079 1.4875 -1.7961 0.9833
-3.6361 1.1725 -1.8009 0.9832
-2.5265 0.5724 -1.2211 0.9886
-2.2973 0.3090 -1.0926 0.9898
-2.3488 0.1047 -1.1083 0.9897
-2.3800 -0.3201 -1.1319 0.9894
-2.3894 -0.5414 -1.1548 0.9892
-3.7110 -2.4276 -2.0904 0.9806
-3.5779 -2.8254 -2.1490 0.9800
-3.4123 -3.2273 -2.2139 0.9794
-2.9740 -4.0364 -2.3634 0.9781
-1.6019 -5.6025 -2.7467 0.9746
-1.1424 -5.9598 -2.8605 0.9735
0.5355 -6.8523 -3.2399 0.9701
1.1907 -7.0588 -3.3744 0.9688
1.8874 -7.2041 -3.5105 0.9676
2.6189 -7.2792 -3.6466 0.9664
3.3757 -7.2743 -3.7802 0.9652
4.1457 -7.1805 -3.9083 0.9640
5.6638 -6.6992 -4.1352 0.9619
7.6100 -5.2239 -4.3510 0.9600
8.8764 -2.2201 -4.3130 0.9603
8.8956 -1.3988 -4.2447 0.9610
8.7989 -0.5890 -4.1569 0.9618
8.2974 0.9282 -3.9356 0.9638
6.9788 2.7775 -3.5406 0.9673
5.8059 3.6160 -3.2242 0.9702
4.9919 3.7646 -2.9472 0.9727
4.4504 4.0251 -2.8285 0.9738
3.9113 4.2289 -2.7153 0.9748
2.8621 4.4833 -2.5073 0.9768
1.8753 4.5632 -2.3255 0.9784
0.5454 4.4280 -2.1030 0.9805
0.1412 4.2252 -1.9928 0.9815
-0.2342 4.2014 -1.9835 0.9816
-0.9885 4.1479 -2.0100 0.9813
-1.9337 3.5285 -1.8967 0.9824
-2.4605 3.0454 -1.8455 0.9828
-3.2796 1.9425 -1.7968 0.9833
-3.5744 1.3311 -1.7979 0.9833
-3.6929 1.0116 -1.8049 0.9832
-2.3095 -0.2064 -1.1404 0.9897
-2.3082 -0.4158 -1.1536 0.9896
-2.3175 -0.6348 -1.1819 0.9893
-2.3278 -0.8669 -1.2217 0.9890
-3.6379 -2.1547 -2.0796 0.9813
-3.5211 -2.5343 -2.1338 0.9808
-3.1939 -3.3025 -2.2597 0.9797
-2.9795 -3.6878 -2.3319 0.9791
-1.7337 -5.1784 -2.6860 0.9760
-0.3417 -6.1286 -3.0191 0.9730
0.8118 -6.5913 -3.2665 0.9708
2.1199 -6.8339 -3.5193 0.9686
2.8164 -6.8533 -3.6443 0.9675
3.5285 -6.7935 -3.7652 0.9665
4.2438 -6.6478 -3.8792 0.9655
4.9479 -6.4111 -3.9832 0.9645
6.8272 -5.1486 -4.2058 0.9626
7.3202 -4.5590 -4.2416 0.9623
7.7219 -3.9020 -4.2554 0.9622
8.2686 -0.9250 -4.0923 0.9636
7.9179 0.5301 -3.9031 0.9652
7.6143 1.1973 -3.7911 0.9662
6.3407 2.8570 -3.4207 0.9695
5.8372 3.2840 -3.2942 0.9706
3.9798 3.9357 -2.7530 0.9754
2.0278 4.3698 -2.3694 0.9788
1.5751 4.3781 -2.2885 0.9795
0.3298 4.2207 -2.0823 0.9813
-0.4108 4.0832 -2.0185 0.9819
-1.1214 3.9217 -2.0062 0.9820
-1.4372 3.7317 -1.9668 0.9823
-1.7328 3.5261 -1.9324 0.9826
-2.9185 2.3047 -1.8291 0.9836
-3.2606 1.7400 -1.8178 0.9837
-3.4036 1.4433 -1.8184 0.9837
-3.5277 1.1375 -1.8231 0.9836
-2.5042 0.5674 -1.2629 0.9886
-2.2893 0.1021 -1.1271 0.9898
-2.3142 -0.5243 -1.1671 0.9895
-2.3173 -0.7472 -1.1976 0.9892
-3.5832 -2.3440 -2.1060 0.9811
-3.4513 -2.7255 -2.1630 0.9806
-3.2880 -3.1098 -2.2260 0.9800
-2.8587 -3.8799 -2.3704 0.9787
-2.5884 -4.2612 -2.4523 0.9780
-1.9261 -5.0010 -2.6359 0.9764
-1.5302 -5.3515 -2.7377 0.9755
-0.6024 -5.9876 -2.9599 0.9735
-0.0697 -6.2605 -3.0794 0.9725
3.1712 -6.8337 -3.7055 0.9670
4.5982 -6.5410 -3.9326 0.9650
5.9472 -5.8813 -4.1139 0.9634
7.0842 -4.8631 -4.2264 0.9624
7.5332 -4.2381 -4.2513 0.9622
7.8851 -3.5529 -4.2538 0.9622
8.1316 -2.8236 -4.2338 0.9624
8.2682 -2.0680 -4.1920 0.9627
8.2951 -1.3043 -4.1301 0.9633
8.0398 0.1792 -3.9554 0.9648
7.7755 0.8698 -3.8483 0.9657
7.4357 1.5114 -3.7321 0.9667
6.0922 3.0785 -3.3573 0.9700
3.2275 4.1820 -2.5983 0.9767
2.2605 4.3522 -2.4122 0.9784
1.7993 4.3783 -2.3282 0.9791
0.9310 4.3324 -2.1796 0.9804
0.1395 4.1709 -2.0526 0.9816
-0.6062 4.1566 -2.0661 0.9814
-1.5875 3.6307 -1.9490 0.9825
-1.8731 3.4180 -1.9170 0.9828
-2.3854 2.9525 -1.8669 0.9832
-2.6128 2.7017 -1.8486 0.9834
-2.8213 2.4397 -1.8345 0.9835
-3.1821 1.8848 -1.8191 0.9836
-3.3345 1.5928 -1.8176 0.9837
-3.4681 1.2916 -1.8202 0.9836
-2.2443 -0.2006 -1.1552 0.9899
-2.2416 -0.4038 -1.1677 0.9898
-2.2593 -0.8414 -1.2360 0.9892
-2.2721 -1.0853 -1.2909 0.9887
-3.5163 -2.0827 -2.0952 0.9818
-3.4004 -2.4475 -2.1479 0.9813
-3.2550 -2.8147 -2.2061 0.9808
-3.0782 -3.1828 -2.2700 0.9803
-2.8683 -3.5501 -2.3398 0.9797
-2.3413 -4.2723 -2.4976 0.9783
-2.0206 -4.6212 -2.5857 0.9776
-1.6596 -4.9569 -2.6799 0.9768
-1.2571 -5.2749 -2.7800 0.9759
-0.3254 -5.8356 -2.9964 0.9741
0.7700 -6.2520 -3.2294 0.9721
1.3718 -6.3839 -3.3475 0.9711
2.0028 -6.4564 -3.4656 0.9701
2.6556 -6.4620 -3.5817 0.9691
4.6407 -6.0132 -3.8941 0.9664
6.8382 -4.2589 -4.1301 0.9644
7.2120 -3.6444 -4.1426 0.9643
7.4932 -2.9822 -4.1346 0.9644
7.6761 -2.2877 -4.1064 0.9646
7.7585 -1.5770 -4.0589 0.9650
5.9997 2.7033 -3.3737 0.9709
5.5343 3.1135 -3.2554 0.9719
5.0472 3.4647 -3.1385 0.9729
4.4208 3.6539 -2.9403 0.9745
3.7950 3.7529 -2.7362 0.9763
2.3931 4.1450 -2.4537 0.9787
1.9462 4.1940 -2.3703 0.9794
-0.7590 3.9598 -2.0670 0.9820
-1.0852 3.7951 -2.0236 0.9824
-1.3917 3.6136 -1.9852 0.9827
-1.9469 3.2051 -1.9225 0.9833
-2.1961 2.9806 -1.8980 0.9835
-2.6387 2.4957 -1.8620 0.9838
-2.8324 2.2367 -1.8503 0.9839
-3.1650 1.6889 -1.8392 0.9840
-2.4709 0.5598 -1.2989 0.9887
-2.2093 0.2971 -1.1428 0.9900
-2.2319 0.0995 -1.1453 0.9900
-2.2425 -0.5081 -1.1788 0.9897
-2.2530 -0.7265 -1.2136 0.9894
-2.2673 -0.9614 -1.2625 0.9890
-3.3315 -2.6308 -2.1763 0.9811
-2.7503 -3.7327 -2.3770 0.9794
-2.1859 -4.4481 -2.5409 0.9780
-1.8452 -4.7910 -2.6321 0.9772
-1.4636 -5.1185 -2.7293 0.9764
-1.0400 -5.4256 -2.8322 0.9755
-0.5741 -5.7067 -2.9404 0.9745
1.6841 -6.4280 -3.4067 0.9706
2.3270 -6.4680 -3.5240 0.9696
3.6545 -6.3297 -3.7471 0.9677
4.3162 -6.1399 -3.8477 0.9668
6.1252 -5.0626 -4.0740 0.9649
6.6195 -4.5440 -4.1162 0.9646
7.6984 -0.5153 -3.9555 0.9659
7.3082 0.8176 -3.7701 0.9675
7.0016 1.4232 -3.6629 0.9684
5.7703 2.9158 -3.3145 0.9714
5.2929 3.2964 -3.1967 0.9724
4.0580 3.6703 -2.8051 0.9757
2.6213 4.1063 -2.4975 0.9783
2.1680 4.1741 -2.4113 0.9791
1.7281 4.2050 -2.3307 0.9798
1.3036 4.2025 -2.2558 0.9804
0.5062 4.1100 -2.1230 0.9816
-0.2234 4.0072 -2.0575 0.9821
-0.5885 4.0353 -2.0906 0.9818
-1.2409 3.7064 -2.0038 0.9826
-1.5377 3.5169 -1.9678 0.9829
-1.8153 3.3125 -1.9365 0.9832
-2.0738 3.0944 -1.9097 0.9834
-2.3137 2.8637 -1.8874 0.9836
-2.5350 2.6211 -1.8694 0.9837
-2.7378 2.3675 -1.8556 0.9839
-2.9224 2.1034 -1.8460 0.9839
-3.0888 1.8295 -1.8404 0.9840
-3.4770 0.9525 -1.8482 0.9839
-2.2585 0.4069 -1.1765 0.9897
-2.2093 0.1974 -1.1372 0.9901
-2.1765 0.0000 -1.1619 0.9902
-2.1811 -0.1949 -1.1690 0.9901
-2.2033 -1.0524 -1.3035 0.9890
-3.4006 -2.0142 -2.1100 0.9822
-3.2859 -2.3650 -2.1612 0.9818
-2.7633 -3.4202 -2.3473 0.9803
-2.5243 -3.7665 -2.4205 0.9797
-2.2501 -4.1059 -2.4995 0.9790
-1.5904 -4.7503 -2.6743 0.9775
-0.7760 -5.3206 -2.8704 0.9759
-0.3103 -5.5649 -2.9754 0.9750
0.1930 -5.7739 -3.0841 0.9741
0.7317 -5.9408 -3.1954 0.9732
1.3012 -6.0552 -3.3063 0.9723
2.5098 -6.1073 -3.5249 0.9705
4.3652 -5.6560 -3.8141 0.9681
5.4928 -4.9679 -3.9537 0.9670
6.4091 -3.9916 -4.0307 0.9663
7.0225 -2.7949 -4.0349 0.9663
7.1970 -2.1449 -4.0090 0.9665
7.2713 -0.8134 -3.9059 0.9674
7.0019 0.4687 -3.7463 0.9687
6.4481 1.6128 -3.5483 0.9703
5.6885 2.5631 -3.3308 0.9721
5.2568 2.9574 -3.2199 0.9730
3.7150 3.6738 -2.7892 0.9766
3.1763 3.7569 -2.6263 0.9779
2.7324 3.8869 -2.5364 0.9787
2.2958 3.9765 -2.4512 0.9794
0.3069 3.9278 -2.1032 0.9823
-1.3483 3.5009 -2.0027 0.9831
-1.6274 3.3117 -1.9698 0.9834
-1.8881 3.1082 -1.9414 0.9836
-2.1305 2.8916 -1.9174 0.9838
-2.3549 2.6628 -1.8976 0.9840
-2.7499 2.1716 -1.8706 0.9842
-2.9206 1.9106 -1.8631 0.9843
-3.2081 1.3604 -1.8603 0.9843
-2.4373 0.5522 -1.3341 0.9887
-2.1681 0.2916 -1.1679 0.9901
-2.1735 0.0969 -1.1615 0.9902
-2.1765 -0.0971 -1.1631 0.9902
-2.1810 -0.2933 -1.1748 0.9901
-2.1807 -0.4941 -1.1936 0.9899
-3.2178 -2.5411 -2.1889 0.9816
-3.0595 -2.8937 -2.2481 0.9811
-2.8702 -3.2454 -2.3129 0.9805
-2.3917 -3.9373 -2.4593 0.9793
-1.7696 -4.5947 -2.6285 0.9779
-1.4015 -4.9013 -2.7214 0.9772
-0.9943 -5.1872 -2.8195 0.9763
-0.5479 -5.4468 -2.9224 0.9755
-0.0632 -5.6743 -3.0294 0.9746
1.0129 -6.0047 -3.2509 0.9728
1.5959 -6.0916 -3.3617 0.9719
2.2012 -6.1184 -3.4712 0.9709
2.8209 -6.0788 -3.5775 0.9701
4.6610 -5.5131 -3.8540 0.9678
5.7457 -4.7489 -3.9794 0.9668
6.9012 -3.1095 -4.0409 0.9663
7.2497 -1.8133 -3.9894 0.9667
7.2865 -1.1457 -3.9377 0.9671
7.2344 -0.4843 -3.8707 0.9677
7.0987 0.1582 -3.7905 0.9683
6.8872 0.7705 -3.6996 0.9691
6.2743 1.8700 -3.4951 0.9708
5.4760 2.7672 -3.2754 0.9726
5.0321 3.1340 -3.1647 0.9735
4.5700 3.4464 -3.0556 0.9744
4.0458 3.6592 -2.9122 0.9756
2.5130 3.9365 -2.4932 0.9790
2.0813 4.0072 -2.4106 0.9797
1.6612 4.0424 -2.3331 0.9804
0.4882 3.9641 -2.1322 0.9821
-0.5692 3.9029 -2.1056 0.9823
-1.2019 3.5898 -2.0209 0.9830
-1.4902 3.4081 -1.9857 0.9833
-2.0116 3.0015 -1.9289 0.9838
-2.2450 2.7787 -1.9070 0.9839
-2.4604 2.5440 -1.8893 0.9841
-2.6579 2.2984 -1.8758 0.9842
-3.3759 0.9248 -1.8686 0.9843
-2.1547 0.1926 -1.1549 0.9902
-2.1192 0.0000 -1.1770 0.9904
-2.1317 -0.7938 -1.2633 0.9896
-2.1374 -1.0209 -1.3156 0.9892
-3.1769 -2.2866 -2.1740 0.9822
-2.4309 -3.6272 -2.4251 0.9802
-2.1643 -3.9493 -2.5012 0.9796
-1.8629 -4.2604 -2.5825 0.9789
-1.5257 -4.5570 -2.6690 0.9783
-1.1522 -4.8347 -2.7604 0.9775
-0.7422 -5.0888 -2.8562 0.9767
0.1840 -5.5046 -3.0589 0.9751
0.6964 -5.6542 -3.1640 0.9743
1.2364 -5.7537 -3.2685 0.9734
1.7988 -5.7989 -3.3721 0.9726
2.3770 -5.7842 -3.4732 0.9718
2.9627 -5.7042 -3.5699 0.9710
5.1689 -4.6750 -3.8708 0.9686
6.0242 -3.7519 -3.9417 0.9680
6.3512 -3.2094 -3.9522 0.9680
6.6003 -2.6269 -3.9455 0.9680
6.7669 -2.0168 -3.9217 0.9682
6.8474 -0.7660 -3.8267 0.9690
6.7656 -0.1507 -3.7585 0.9695
6.6095 0.4425 -3.6791 0.9701
6.3863 1.0042 -3.5905 0.9709
6.1048 1.5269 -3.4950 0.9716
5.7740 2.0050 -3.3947 0.9724
5.4033 2.4346 -3.2915 0.9732
4.5772 3.1421 -3.0834 0.9749
4.1376 3.4198 -2.9814 0.9757
2.6202 3.7273 -2.5304 0.9794
1.7977 3.8740 -2.3720 0.9806
1.4018 3.8965 -2.2999 0.9812
1.0188 3.8888 -2.2327 0.9818
0.6500 3.8536 -2.1705 0.9823
-0.0438 3.9297 -2.1827 0.9822
-0.3863 3.8400 -2.1435 0.9825
-0.7109 3.7089 -2.0974 0.9829
-1.0178 3.5595 -2.0561 0.9832
-1.3068 3.3932 -2.0195 0.9835
-1.5781 3.2114 -1.9873 0.9838
-2.2861 2.5850 -1.9166 0.9843
-2.4871 2.3524 -1.9013 0.9845
-2.6707 2.1091 -1.8901 0.9845
-2.9854 1.5931 -1.8794 0.9846
-3.1163 1.3214 -1.8799 0.9846
-2.4040 0.5447 -1.3690 0.9888
-2.1264 0.2860 -1.1916 0.9902
-2.1237 -0.2856 -1.1901 0.9902
-2.1231 -0.4810 -1.2091 0.9901
-2.1317 -0.6874 -1.2440 0.9898
-2.1353 -0.9054 -1.2881 0.9894
-2.1463 -1.1453 -1.3512 0.9889
-3.2371 -2.1176 -2.1484 0.9825
-3.1098 -2.4558 -2.2008 0.9820
-2.7686 -3.1305 -2.3211 0.9811
-2.5516 -3.4631 -2.3891 0.9805
-2.3019 -3.7894 -2.4625 0.9799
-2.0179 -4.1064 -2.5412 0.9793
-1.6988 -4.4108 -2.6251 0.9786
-0.9517 -4.9650 -2.8078 0.9771
-0.5237 -5.2054 -2.9057 0.9763
-0.0603 -5.4140 -3.0071 0.9755
0.4364 -5.5849 -3.1113 0.9747
1.5152 -5.7834 -3.3205 0.9730
2.0864 -5.7993 -3.4231 0.9722
3.8336 -5.4533 -3.7023 0.9700
4.3927 -5.1957 -3.7788 0.9693
6.1970 -3.4864 -3.9491 0.9680
6.6942 -2.3244 -3.9357 0.9681
6.8162 -0.4563 -3.7942 0.9692
5.5931 2.2260 -3.3433 0.9728
5.2058 2.6306 -3.2394 0.9737
4.7917 2.9843 -3.1352 0.9745
4.3588 3.2872 -3.0321 0.9753
3.4006 3.6767 -2.7815 0.9773
1.9999 3.8506 -2.4098 0.9803
1.2108 3.9027 -2.2695 0.9815
0.8326 3.8745 -2.2010 0.9820
0.4716 3.8289 -2.1426 0.9825
-0.2174 3.8981 -2.1683 0.9823
-0.5508 3.7769 -2.1199 0.9827
-0.8666 3.6365 -2.0762 0.9830
-1.1645 3.4784 -2.0372 0.9834
-1.4447 3.3041 -2.0028 0.9836
