ply
format ascii 1.0
element vertex 1583
property float32 x
property float32 y
property float32 z
property float32 I
end_header
-5.2768 -3.7980 0.3787 0.9743
-5.2108 -2.7806 0.3440 0.9766
-0.2238 4.0129 0.2341 0.9840
-6.2046 -1.6996 0.2675 0.9746
-5.3371 -2.5493 0.2459 0.9766
-5.2095 -3.0856 0.2518 0.9761
-0.4084 4.0592 0.1696 0.9838
-5.2532 -2.8032 0.2476 0.9764
-0.2244 4.0238 0.1676 0.9840
-6.2968 -1.7249 0.1628 0.9742
-5.6781 -2.1145 0.1511 0.9760
-5.2596 -3.1152 0.1524 0.9758
-13.1890 7.0378 0.3728 0.9419
-13.7876 5.8465 0.3735 0.9418
-5.9223 -1.9097 0.1552 0.9754
-13.4860 6.4417 0.3727 0.9420
-5.4379 -2.5975 0.0501 0.9762
-5.5956 -4.0275 0.0573 0.9728
-9.7569 11.0323 0.1224 0.9428
-10.9206 8.6239 0.1157 0.9459
-12.0118 6.4097 0.1132 0.9470
-12.5550 5.3238 0.1133 0.9469
-14.0922 1.8952 0.1182 0.9447
-5.3540 -2.8570 0.0504 0.9760
-0.2259 4.0522 0.0337 0.9839
-10.6398 9.2006 0.1169 0.9453
-11.1969 8.0591 0.1147 0.9463
-11.7413 6.9544 0.1134 0.9469
-12.8301 4.7780 0.1138 0.9467
-13.9108 2.5061 0.1175 0.9450
-13.7148 0.0000 -0.1140 0.9466
-14.3161 -1.2793 -0.1195 0.9441
-5.8098 -2.1636 -0.0515 0.9755
-5.3977 -3.1971 -0.0521 0.9752
-0.4074 4.0493 -0.0338 0.9839
-8.2831 11.2419 -0.1161 0.9457
-12.0237 3.8772 -0.1050 0.9507
-12.5317 2.8393 -0.1068 0.9499
-14.0090 -0.6247 -0.1166 0.9455
-14.6381 -1.9686 -0.1228 0.9426
-5.4544 -3.5681 -0.0542 0.9743
-0.2267 4.0665 -0.0339 0.9838
-7.9545 11.8690 -0.1188 0.9444
-9.1882 9.5005 -0.1099 0.9485
-9.7418 8.4241 -0.1070 0.9498
-10.2685 7.3908 -0.1052 0.9507
-12.2760 3.3627 -0.1058 0.9504
-12.7916 2.3045 -0.1080 0.9493
-13.1574 1.1757 -0.1098 0.9485
-12.5837 -0.0000 -0.3138 0.9509
-13.0836 -1.1692 -0.3276 0.9488
-13.6192 -2.4536 -0.3451 0.9461
-7.0534 -1.9321 -0.1824 0.9712
-0.4075 4.0505 -0.1015 0.9838
-6.2214 12.6603 -0.3518 0.9451
-6.9420 11.4280 -0.3335 0.9479
-7.5884 10.2990 -0.3190 0.9501
-8.1780 9.2470 -0.3079 0.9518
-9.2358 7.2935 -0.2935 0.9540
-9.7231 6.3605 -0.2898 0.9546
-10.6509 4.5164 -0.2885 0.9548
-11.1041 3.5806 -0.2910 0.9544
-11.5581 2.6187 -0.2955 0.9537
-11.9267 1.6040 -0.3001 0.9530
-12.3438 0.5504 -0.3081 0.9518
-13.9045 -3.1504 -0.3556 0.9446
-5.7104 -2.4214 -0.1547 0.9755
-5.4938 -2.9316 -0.1553 0.9754
-0.2276 4.0809 -0.1019 0.9838
-5.8265 13.3257 -0.3627 0.9435
-7.2733 10.8525 -0.3258 0.9491
-8.9833 7.7682 -0.2962 0.9536
-10.4228 4.9785 -0.2881 0.9548
-10.8778 4.0509 -0.2895 0.9546
-12.1091 1.0821 -0.3032 0.9525
-11.6242 0.0000 -0.4833 0.9545
-5.6079 -3.3216 -0.2710 0.9742
-0.4076 4.0516 -0.1693 0.9838
-4.0289 14.0900 -0.6093 0.9430
-4.9187 12.7712 -0.5690 0.9467
-5.6944 11.5878 -0.5369 0.9496
-7.0008 9.5016 -0.4907 0.9538
-7.5652 8.5542 -0.4748 0.9553
-8.0866 7.6482 -0.4628 0.9564
-8.5738 6.7707 -0.4543 0.9572
-10.3146 3.3260 -0.4506 0.9575
-11.8331 -0.5277 -0.4925 0.9537
-12.7154 -2.8810 -0.5421 0.9491
-6.3902 -2.0606 -0.2792 0.9735
-5.8120 -2.4645 -0.2625 0.9750
-0.2284 4.0954 -0.1705 0.9837
-6.0479 11.0361 -0.5233 0.9509
-6.6991 9.9957 -0.5003 0.9530
-8.3340 7.2067 -0.4581 0.9568
-8.8070 6.3389 -0.4512 0.9575
-9.2567 5.4827 -0.4473 0.9578
-10.5198 2.8817 -0.4535 0.9573
-11.2239 1.0030 -0.4685 0.9559
-10.7996 -0.0000 -0.6290 0.9577
-11.1593 -0.9972 -0.6525 0.9561
-11.5255 -2.0764 -0.6821 0.9542
-11.9029 -3.2605 -0.7188 0.9518
-5.7851 -2.7633 -0.3734 0.9746
-5.7699 -3.4175 -0.3906 0.9735
-0.4077 4.0528 -0.2372 0.9838
-2.5407 13.2545 -0.7860 0.9474
-3.6751 12.8526 -0.7786 0.9478
-4.5129 11.7176 -0.7313 0.9509
-5.9051 9.7212 -0.6625 0.9554
-6.4970 8.8179 -0.6379 0.9571
-7.0373 7.9572 -0.6187 0.9583
-7.5355 7.1271 -0.6041 0.9593
-8.4360 5.5186 -0.5871 0.9604
-8.8500 4.7225 -0.5843 0.9606
-9.2463 3.9208 -0.5850 0.9606
-9.6290 3.1050 -0.5893 0.9603
-10.0017 2.2661 -0.5973 0.9597
-10.3680 1.3944 -0.6093 0.9590
-10.6210 0.4736 -0.6192 0.9583
-10.9789 -0.4896 -0.6401 0.9569
-11.3413 -1.5252 -0.6665 0.9552
-11.7124 -2.6537 -0.6995 0.9530
-5.9358 -2.5170 -0.3755 0.9745
-0.2296 4.1179 -0.2402 0.9836
-4.1083 12.2710 -0.7537 0.9495
-5.5861 10.1933 -0.6770 0.9545
-6.2083 9.2634 -0.6495 0.9563
-6.7730 8.3830 -0.6277 0.9577
-7.2911 7.5390 -0.6109 0.9588
-7.7714 6.7202 -0.5984 0.9597
-8.6455 5.1208 -0.5852 0.9605
-9.0501 4.3229 -0.5842 0.9606
-9.4391 3.5152 -0.5867 0.9604
-9.8163 2.6890 -0.5928 0.9600
-10.4639 0.9350 -0.6119 0.9588
-10.0830 0.0000 -0.7556 0.9604
-10.3930 -0.9287 -0.7819 0.9590
-6.4423 -2.3991 -0.5152 0.9728
-6.1309 -3.6313 -0.5340 0.9718
-0.1622 14.5652 -1.0916 0.9432
-0.4078 4.0539 -0.3053 0.9838
-5.4938 9.0441 -0.7930 0.9584
-6.5773 7.4371 -0.7440 0.9610
-7.0539 6.6715 -0.7276 0.9618
-8.3018 4.4300 -0.7052 0.9630
-9.0277 2.9110 -0.7108 0.9627
-9.3692 2.1228 -0.7199 0.9622
-9.7000 1.3045 -0.7335 0.9615
-10.2384 -0.4565 -0.7680 0.9597
-10.8545 -2.4593 -0.8341 0.9563
-11.1637 -3.5998 -0.8790 0.9540
-4.5283 10.3564 -0.8471 0.9557
-5.1890 9.4688 -0.8092 0.9576
-6.3243 7.8277 -0.7541 0.9604
-7.2791 6.2945 -0.7212 0.9621
-8.1092 4.8031 -0.7063 0.9629
-8.4896 4.0552 -0.7051 0.9630
-8.8521 3.2966 -0.7079 0.9628
-9.2000 2.5201 -0.7148 0.9625
-9.5358 1.7179 -0.7261 0.9619
-9.8270 0.8781 -0.7394 0.9612
-4.4479 0.0000 -0.4078 0.9823
-9.7236 -0.8689 -0.8950 0.9615
-9.9845 -1.7988 -0.9301 0.9601
-6.2395 -2.9804 -0.6339 0.9726
1.1279 14.4336 -1.3273 0.9435
-0.1472 13.2147 -1.2116 0.9483
-0.4080 4.0555 -0.3737 0.9838
-2.1378 11.1525 -1.0410 0.9554
-2.9337 10.2597 -0.9783 0.9580
-3.8720 10.0536 -0.9877 0.9576
-5.6774 7.7054 -0.8775 0.9623
-6.1729 6.9798 -0.8542 0.9633
-7.4465 4.8713 -0.8158 0.9649
-8.1653 3.4624 -0.8131 0.9650
-8.4959 2.7396 -0.8184 0.9648
-4.2496 0.5715 -0.3931 0.9829
-4.0002 0.1784 -0.3671 0.9840
-9.5900 -0.4276 -0.8801 0.9622
-9.8551 -1.3254 -0.9116 0.9608
-10.1120 -2.2911 -0.9505 0.9592
-10.3618 -3.3413 -0.9981 0.9572
-6.4211 -2.7228 -0.6394 0.9724
-11.3022 -8.9253 -1.3203 0.9438
0.4615 13.8036 -1.2662 0.9460
-2.5491 10.6967 -1.0081 0.9568
-4.8439 8.8390 -0.9240 0.9603
-5.9305 7.3402 -0.8651 0.9628
-6.4055 6.6233 -0.8447 0.9637
-8.3327 3.1032 -0.8152 0.9649
-8.6551 2.3709 -0.8227 0.9646
-4.9080 0.8842 -0.4572 0.9802
-3.7849 -0.0000 -0.4105 0.9849
-9.3563 -1.6856 -1.0312 0.9625
-9.5658 -2.6204 -1.0758 0.9609
-9.7615 -3.6352 -1.1298 0.9590
-10.2528 -7.3795 -1.3702 0.9504
-10.3760 -8.9725 -1.4879 0.9463
1.0236 13.0990 -1.4251 0.9485
-0.4087 4.0630 -0.4429 0.9837
-3.3930 8.8100 -1.0240 0.9627
-4.2480 8.6445 -1.0447 0.9620
-4.8196 7.9342 -1.0069 0.9633
-5.3391 7.2463 -0.9763 0.9644
-5.8143 6.5743 -0.9520 0.9653
-6.2516 5.9127 -0.9333 0.9660
-6.6562 5.2563 -0.9199 0.9665
-7.0323 4.6003 -0.9115 0.9668
-7.3835 3.9400 -0.9078 0.9669
-4.7637 1.0793 -0.5298 0.9805
-3.7330 0.1664 -0.4053 0.9851
-3.9257 -0.1751 -0.4262 0.9843
-9.2466 -1.2435 -1.0120 0.9632
-9.4627 -2.1440 -1.0524 0.9617
-9.6654 -3.1167 -1.1015 0.9600
-9.8539 -4.1784 -1.1609 0.9579
-10.0268 -5.3505 -1.2327 0.9553
-10.1822 -6.6609 -1.3197 0.9522
-10.3177 -8.1477 -1.4260 0.9485
1.6810 13.6488 -1.4916 0.9462
-0.6481 11.6238 -1.2628 0.9542
-1.5670 10.7441 -1.1777 0.9573
-3.0708 9.1719 -1.0491 0.9618
-3.9396 9.0102 -1.0666 0.9612
-5.0854 7.5879 -0.9908 0.9639
-6.0373 6.2426 -0.9420 0.9657
-6.4577 5.5842 -0.9260 0.9662
-3.7414 0.3343 -0.4074 0.9850
-3.5692 0.0000 -0.4473 0.9857
-8.8006 -1.5855 -1.1206 0.9646
-9.5167 -9.8403 -1.7155 0.9463
2.1790 12.9179 -1.6417 0.9486
-0.1241 11.1390 -1.3960 0.9561
-0.4095 4.0705 -0.5127 0.9836
-1.8436 9.6179 -1.2272 0.9613
-3.1812 8.2599 -1.1092 0.9649
-3.9925 8.1246 -1.1344 0.9642
-5.4940 6.2121 -1.0393 0.9671
-5.9135 5.5930 -1.0200 0.9677
-6.6605 4.3571 -0.9974 0.9684
-6.9946 3.7324 -0.9935 0.9685
-7.3060 3.0980 -0.9945 0.9685
-3.6310 -0.1619 -0.4555 0.9855
-8.7071 -1.1710 -1.1010 0.9652
-8.8899 -2.0142 -1.1423 0.9639
-9.3231 -4.9750 -1.3243 0.9583
-9.4208 -6.1628 -1.4107 0.9556
2.8843 13.4225 -1.7205 0.9462
1.5322 12.4404 -1.5708 0.9507
0.3863 11.5536 -1.4487 0.9545
-0.5989 10.7406 -1.3481 0.9576
-1.4557 9.9814 -1.2641 0.9602
-2.2080 9.2651 -1.1936 0.9623
-2.8750 8.5873 -1.1348 0.9642
-3.4717 7.9400 -1.0860 0.9657
-6.8305 4.0458 -0.9949 0.9685
-7.4537 2.7758 -0.9968 0.9684
-3.8076 0.6860 -0.4848 0.9845
-8.4502 -2.3148 -1.2462 0.9652
-8.6707 -4.1417 -1.3668 0.9619
4.8895 13.5907 -2.0544 0.9433
3.3173 12.6621 -1.8618 0.9485
1.9937 11.8197 -1.7049 0.9527
0.8631 11.0447 -1.5758 0.9562
-0.4103 4.0782 -0.5830 0.9836
-1.7242 8.9953 -1.3028 0.9637
-2.3941 8.3728 -1.2386 0.9654
-5.2059 5.8865 -1.1177 0.9687
-5.9808 4.7230 -1.0840 0.9697
-6.3247 4.1374 -1.0750 0.9699
-7.2125 2.3257 -1.0779 0.9698
-4.1432 0.9387 -0.6042 0.9830
-3.3671 0.4528 -0.4832 0.9864
-3.3610 0.1499 -0.4785 0.9865
-3.6292 -0.4881 -0.5209 0.9853
-8.3804 -1.8987 -1.2222 0.9659
-8.5144 -2.7456 -1.2725 0.9645
-8.7628 -5.7324 -1.4894 0.9586
-8.7799 -6.9334 -1.5913 0.9558
-8.6708 -9.8042 -1.8616 0.9485
-8.5176 -11.5601 -2.0424 0.9436
2.6284 12.2315 -1.7795 0.9507
0.3570 10.6781 -1.5197 0.9578
-1.3589 9.3171 -1.3393 0.9627
-2.0687 8.6808 -1.2693 0.9646
-2.7020 8.0703 -1.2105 0.9662
-3.2705 7.4798 -1.1612 0.9676
-4.9915 6.1781 -1.1297 0.9684
-5.7986 5.0143 -1.0904 0.9695
-6.4870 3.8422 -1.0724 0.9700
-3.3525 0.2996 -0.4787 0.9865
-3.2915 -0.0000 -0.5241 0.9868
-7.8608 -1.4162 -1.2719 0.9682
-8.0777 -3.0082 -1.3726 0.9657
-8.1462 -3.8911 -1.4376 0.9641
-8.1834 -5.8901 -1.6055 0.9600
-8.1397 -7.0387 -1.7135 0.9573
-7.8804 -9.7537 -1.9967 0.9505
6.0896 13.1228 -2.3037 0.9431
4.4333 12.3224 -2.0853 0.9483
3.0343 11.5818 -1.9065 0.9527
-0.4111 4.0859 -0.6539 0.9835
-1.6190 8.4459 -1.3694 0.9658
-2.2545 7.8846 -1.3058 0.9673
-4.0644 6.6909 -1.2466 0.9688
-4.5240 6.1400 -1.2145 0.9696
-5.3331 5.0440 -1.1689 0.9707
-6.8639 2.2133 -1.1484 0.9712
-3.9744 0.9005 -0.6489 0.9836
-3.2540 0.4376 -0.5228 0.9868
-3.2600 0.1454 -0.5196 0.9869
-3.4817 -0.4683 -0.5594 0.9859
-7.9241 -1.7954 -1.2938 0.9676
-8.0329 -2.5903 -1.3440 0.9664
-8.0986 -7.6596 -1.7750 0.9559
5.2250 12.7143 -2.1889 0.9458
3.7055 11.9454 -1.9916 0.9506
2.4133 11.2303 -1.8291 0.9545
1.3004 10.5586 -1.6940 0.9578
0.3317 9.9226 -1.5809 0.9606
-1.2736 8.7327 -1.4053 0.9649
-3.8187 6.9682 -1.2653 0.9683
-4.2993 6.4150 -1.2297 0.9692
-5.1433 5.3181 -1.1781 0.9705
-4.5041 1.2338 -0.7436 0.9813
-3.5501 0.6396 -0.5744 0.9855
-3.2454 0.2900 -0.5188 0.9869
-3.1939 -0.0000 -0.5632 0.9871
-3.2817 -0.2933 -0.5810 0.9867
-7.4594 -1.3439 -1.3365 0.9697
-7.5601 -2.0710 -1.3822 0.9687
-7.6792 -3.6681 -1.5006 0.9660
-7.6904 -4.5551 -1.5761 0.9643
-7.2659 -8.9931 -2.0386 0.9541
-6.9877 -10.4264 -2.2132 0.9503
-6.6041 -12.0510 -2.4231 0.9457
7.2432 12.5456 -2.5543 0.9429
4.0530 11.2655 -2.1111 0.9525
2.7946 10.6669 -1.9443 0.9562
0.7451 9.5352 -1.6864 0.9619
-0.1002 8.9961 -1.5864 0.9641
-1.5252 7.9570 -1.4286 0.9676
-2.1295 7.4473 -1.3658 0.9690
-2.6753 6.9462 -1.3125 0.9702
-3.1709 6.4525 -1.2677 0.9712
-4.7086 5.3241 -1.2533 0.9715
-5.0817 4.8062 -1.2333 0.9720
-5.4251 4.2842 -1.2189 0.9723
-6.5458 2.1107 -1.2127 0.9725
-3.8238 0.8663 -0.6913 0.9842
-3.2276 -0.1439 -0.5697 0.9870
-7.5129 -1.7022 -1.3583 0.9692
-7.6008 -2.4509 -1.4082 0.9681
-7.6893 -4.1031 -1.5368 0.9652
-7.3729 -8.3366 -1.9624 0.9558
-6.8108 -11.2121 -2.3132 0.9481
-6.3636 -12.9496 -2.5442 0.9431
6.3438 12.2140 -2.4268 0.9456
4.7566 11.5744 -2.2065 0.9504
1.2083 9.8109 -1.7430 0.9606
0.3097 9.2637 -1.6344 0.9631
-0.4869 8.7321 -1.5421 0.9651
-1.8352 7.7010 -1.3959 0.9684
-2.9288 6.6982 -1.2890 0.9707
-3.6246 6.6141 -1.3299 0.9698
-4.8990 5.0655 -1.2426 0.9718
-5.8901 3.4887 -1.2071 0.9726
-6.4258 2.3930 -1.2091 0.9725
-3.4372 0.6192 -0.6158 0.9859
-3.1015 -0.0000 -0.6002 0.9874
-3.1775 -0.2839 -0.6173 0.9871
-3.3117 -0.5967 -0.6512 0.9864
-7.2350 -2.6943 -1.4940 0.9690
-7.2605 -3.4681 -1.5571 0.9677
-7.2513 -4.2950 -1.6309 0.9662
-7.1064 -6.1452 -1.8181 0.9624
-6.9554 -7.1919 -1.9362 0.9601
-6.4394 -9.6082 -2.2383 0.9540
-5.5161 -12.6157 -2.6645 0.9454
6.5585 11.3597 -2.5384 0.9480
5.0415 10.8642 -2.3178 0.9524
1.5853 9.3981 -1.8444 0.9619
0.6971 8.9204 -1.7315 0.9642
-0.0941 8.4484 -1.6350 0.9662
-0.4126 4.1014 -0.7977 0.9833
-1.4411 7.5183 -1.4814 0.9693
-2.5389 6.5921 -1.3670 0.9716
-3.0144 6.1341 -1.3227 0.9725
-3.6755 6.0507 -1.3700 0.9716
-4.4922 5.0795 -1.3122 0.9728
-4.8517 4.5887 -1.2923 0.9732
-5.1823 4.0924 -1.2779 0.9735
-5.4863 3.5890 -1.2687 0.9736
-5.7655 3.0766 -1.2646 0.9737
-3.6833 0.8345 -0.7308 0.9847
-3.1048 0.4175 -0.6062 0.9873
-3.1273 -0.1394 -0.6058 0.9873
-7.2105 -2.3251 -1.4661 0.9696
-7.1606 -5.6547 -1.7657 0.9635
-5.7962 -11.7950 -2.5432 0.9479
-5.1959 -13.4908 -2.7977 0.9428
3.1410 10.1256 -2.0516 0.9577
2.0713 9.6392 -1.9079 0.9606
1.1280 9.1585 -1.7857 0.9631
-1.7362 7.2853 -1.4493 0.9699
-2.7820 6.3625 -1.3438 0.9721
-3.8930 5.8087 -1.3532 0.9719
-4.3009 5.3233 -1.3244 0.9725
-4.6757 4.8347 -1.3016 0.9730
-5.0204 4.3413 -1.2844 0.9733
-5.6289 3.3340 -1.2660 0.9737
-5.8962 2.8164 -1.2645 0.9737
-6.1404 2.2867 -1.2680 0.9737
-3.0211 -0.0000 -0.6369 0.9877
-3.0994 -0.2770 -0.6560 0.9874
-6.8320 -1.8715 -1.4934 0.9715
-6.8731 -2.5596 -1.5462 0.9705
-6.8828 -3.2877 -1.6081 0.9693
-6.8572 -4.0615 -1.6802 0.9679
-6.6785 -5.7751 -1.8614 0.9646
-6.2789 -7.7714 -2.1063 0.9600
-5.9686 -8.9057 -2.2602 0.9571
-5.5634 -10.1520 -2.4406 0.9538
7.5402 10.7260 -2.7641 0.9478
2.4103 9.2001 -2.0050 0.9619
1.4828 8.7905 -1.8794 0.9642
-0.4134 4.1094 -0.8707 0.9833
-2.8718 5.8439 -1.3727 0.9737
-4.2937 4.8549 -1.3663 0.9739
-4.6403 4.3888 -1.3465 0.9742
-5.5194 2.9453 -1.3189 0.9747
-5.7640 2.4441 -1.3199 0.9747
-5.9859 1.9302 -1.3259 0.9746
-3.0346 0.4081 -0.6455 0.9876
-3.0505 -0.1360 -0.6438 0.9876
-3.1546 -0.4243 -0.6710 0.9871
-6.8747 -3.6684 -1.6428 0.9686
-6.6022 -6.2444 -1.9158 0.9635
-6.4039 -7.2409 -2.0379 0.9613
-6.1344 -8.3257 -2.1802 0.9586
-5.3189 -10.8236 -2.5425 0.9519
-4.7290 -12.2787 -2.7739 0.9476
-3.9764 -13.9065 -3.0493 0.9426
8.4047 10.8902 -2.9001 0.9453
6.7368 10.5531 -2.6395 0.9501
5.2909 10.1868 -2.4200 0.9542
1.9331 8.9959 -1.9398 0.9631
1.0572 8.5840 -1.8234 0.9653
-1.6466 6.9095 -1.4975 0.9714
-4.4706 4.6226 -1.3557 0.9741
-5.1084 3.6768 -1.3269 0.9746
-5.8777 2.1889 -1.3223 0.9747
-3.2435 0.5843 -0.6948 0.9866
-2.9810 0.2664 -0.6310 0.9878
-2.9710 -0.0000 -0.6781 0.9879
-3.1642 -0.5701 -0.7338 0.9869
-6.5151 -1.7847 -1.5418 0.9727
-6.5435 -2.4368 -1.5937 0.9718
-6.5402 -3.1240 -1.6543 0.9707
-6.5013 -3.8508 -1.7246 0.9695
-6.4221 -4.6224 -1.8060 0.9681
-6.2967 -5.4450 -1.9000 0.9664
-6.1176 -6.3256 -2.0085 0.9645
-5.5592 -8.2950 -2.2791 0.9599
-5.1537 -9.4043 -2.4477 0.9570
-4.6406 -10.6134 -2.6439 0.9536
-3.9967 -11.9376 -2.8733 0.9497
-3.1921 -13.3948 -3.1429 0.9451
6.8812 9.7887 -2.7310 0.9521
5.5071 9.5385 -2.5139 0.9558
4.2931 9.2513 -2.3278 0.9590
3.2153 8.9370 -2.1678 0.9618
2.2538 8.6025 -2.0297 0.9642
-0.0838 7.5233 -1.7172 0.9696
-0.4148 4.1233 -0.9459 0.9831
-1.2964 6.7633 -1.5718 0.9721
-1.8219 6.3716 -1.5126 0.9732
-2.3017 5.9762 -1.4617 0.9741
-4.7526 3.7531 -1.3822 0.9755
-5.0344 3.2934 -1.3731 0.9756
-5.2920 2.8239 -1.3691 0.9757
-5.5263 2.3433 -1.3701 0.9757
-2.9625 0.3984 -0.6823 0.9878
-2.9994 -0.1338 -0.6853 0.9878
-6.4899 -1.4704 -1.5188 0.9731
-6.5330 -2.1066 -1.5667 0.9722
-6.5461 -2.7758 -1.6229 0.9712
-6.4671 -4.2306 -1.7639 0.9688
-6.2144 -5.8776 -1.9523 0.9655
-5.7276 -7.7736 -2.2039 0.9612
-4.9119 -9.9955 -2.5420 0.9553
-3.6167 -12.6484 -3.0026 0.9475
-2.7179 -14.1793 -3.2953 0.9425
9.3085 10.0642 -3.1290 0.9453
4.8817 9.3988 -2.4173 0.9575
3.7385 9.0971 -2.2448 0.9605
1.8114 8.4295 -1.9679 0.9652
0.9944 8.0740 -1.8568 0.9672
-0.6067 4.1595 -0.9594 0.9829
-1.5652 6.5679 -1.5411 0.9727
-2.0671 6.1743 -1.4861 0.9736
-4.2815 4.4270 -1.4057 0.9750
-4.8966 3.5244 -1.3770 0.9756
-5.1662 3.0599 -1.3705 0.9757
-5.6350 2.0985 -1.3724 0.9756
-3.1659 0.5704 -0.7342 0.9869
-2.9277 0.2616 -0.6709 0.9880
-2.9221 -0.0000 -0.7183 0.9880
-2.9882 -0.2670 -0.7374 0.9877
-6.2241 -1.7050 -1.5862 0.9738
-6.0887 -4.3824 -1.8440 0.9696
-5.9537 -5.1484 -1.9347 0.9681
-4.7977 -8.7546 -2.4538 0.9597
-4.2962 -9.8257 -2.6359 0.9568
-1.9799 -13.5752 -3.3721 0.9451
5.0941 8.8233 -2.5043 0.9589
2.1153 8.0741 -2.0516 0.9662
0.5828 7.4580 -1.8388 0.9697
-0.0794 7.1287 -1.7523 0.9711
-3.2074 5.2802 -1.5186 0.9749
-3.5898 4.8720 -1.4875 0.9754
-4.2646 4.0335 -1.4428 0.9761
-4.5614 3.6021 -1.4286 0.9763
-4.8332 3.1617 -1.4196 0.9765
-5.0810 2.7113 -1.4156 0.9766
-5.3059 2.2499 -1.4166 0.9765
-3.3132 0.7507 -0.8350 0.9861
-2.8978 0.1292 -0.7130 0.9881
-2.9494 -0.1316 -0.7257 0.9879
-3.1571 -0.7153 -0.7957 0.9868
-6.1388 -4.0158 -1.8031 0.9702
-6.0273 -4.7597 -1.8878 0.9689
-5.6507 -6.3894 -2.0966 0.9655
-5.0101 -8.2478 -2.3720 0.9610
5.6919 8.9162 -2.6001 0.9574
1.7033 7.9265 -1.9928 0.9672
0.2439 7.2948 -1.7941 0.9704
-0.3881 6.9600 -1.7134 0.9717
-1.4908 6.2560 -1.5808 0.9739
-1.9723 5.8911 -1.5270 0.9747
-2.4136 5.5201 -1.4809 0.9755
-3.4025 5.0769 -1.5022 0.9751
-4.4163 3.8189 -1.4351 0.9762
-4.9600 2.9378 -1.4170 0.9765
-5.4098 2.0146 -1.4189 0.9765
-3.8036 1.0419 -0.9694 0.9839
-2.8745 0.0000 -0.7574 0.9882
-2.9343 -0.2622 -0.7763 0.9879
-3.0385 -0.5474 -0.8135 0.9873
-5.4510 -5.6363 -2.0661 0.9681
-5.2000 -6.4362 -2.1803 0.9664
-4.8818 -7.2841 -2.3106 0.9644
-4.4853 -8.1846 -2.4592 0.9621
-3.9972 -9.1418 -2.6291 0.9596
-2.6792 -11.2424 -3.0453 0.9533
-1.8069 -12.3891 -3.2991 0.9495
-0.7577 -13.5884 -3.5861 0.9453
11.6119 7.9711 -3.7113 0.9434
9.9458 8.2204 -3.4000 0.9480
8.4384 8.3449 -3.1272 0.9521
4.7361 8.2032 -2.4959 0.9616
3.7308 8.0395 -2.3354 0.9640
1.9920 7.6032 -2.0711 0.9680
1.2389 7.3446 -1.9627 0.9697
-0.0754 6.7708 -1.7842 0.9724
-1.6589 5.8015 -1.5900 0.9753
-2.1020 5.4579 -1.5411 0.9761
-2.6526 5.3979 -1.5848 0.9754
-3.0749 5.0619 -1.5606 0.9758
-3.4442 4.6745 -1.5300 0.9763
-4.0968 3.8747 -1.4859 0.9769
-4.3836 3.4617 -1.4718 0.9772
-5.2943 1.7072 -1.4658 0.9773
-3.2212 0.7298 -0.8703 0.9864
-2.8316 0.3808 -0.7529 0.9883
-2.9007 -0.1294 -0.7651 0.9881
-5.9641 -1.9232 -1.6512 0.9744
-5.9574 -2.5262 -1.7051 0.9736
-5.5542 -5.2531 -2.0144 0.9689
-5.0500 -6.8539 -2.2433 0.9654
-4.6941 -7.7275 -2.3824 0.9633
-4.2536 -8.6558 -2.5413 0.9609
-3.7139 -9.6430 -2.7229 0.9582
-3.0575 -10.6929 -2.9305 0.9550
-2.2635 -11.8086 -3.1682 0.9515
-1.3059 -12.9812 -3.4378 0.9475
-0.1583 -14.2099 -3.7446 0.9429
10.7582 8.1131 -3.5505 0.9458
4.2210 8.1268 -2.4130 0.9628
3.2641 7.9426 -2.2627 0.9651
1.6067 7.4767 -2.0151 0.9689
0.8877 7.2076 -1.9135 0.9704
0.2314 6.9203 -1.8245 0.9718
-0.3690 6.6180 -1.7466 0.9730
-1.4227 5.9702 -1.6172 0.9749
-1.8852 5.6307 -1.5646 0.9757
-2.3100 5.2831 -1.5194 0.9764
-2.8784 5.2525 -1.5783 0.9755
-3.6177 4.4778 -1.5169 0.9765
-4.2434 3.6694 -1.4782 0.9771
-4.9955 2.3862 -1.4588 0.9774
-3.0018 0.5408 -0.8037 0.9875
-2.8348 0.2533 -0.7499 0.9883
-2.8279 -0.0000 -0.7956 0.9883
-2.8819 -0.2575 -0.8141 0.9880
-5.7079 -1.5636 -1.6651 0.9757
-5.6133 -3.3248 -1.8356 0.9733
-5.5094 -3.9655 -1.9099 0.9722
-5.3622 -4.6369 -1.9945 0.9710
-5.1659 -5.3415 -2.0907 0.9696
-4.5980 -6.8607 -2.3237 0.9663
-4.2088 -7.6801 -2.4640 0.9643
-3.1630 -9.4474 -2.8031 0.9594
-1.6605 -11.3856 -3.2373 0.9533
0.4493 -13.4395 -3.7834 0.9457
12.0548 6.7819 -3.8916 0.9441
10.5045 7.2109 -3.5848 0.9484
7.7500 7.6641 -3.0667 0.9557
6.5402 7.7358 -2.8501 0.9588
5.4337 7.7295 -2.6584 0.9615
3.4987 7.5394 -2.3385 0.9661
2.6541 7.3770 -2.2058 0.9679
1.8813 7.1808 -2.0886 0.9696
0.5244 6.7103 -1.8937 0.9724
-0.0717 6.4445 -1.8133 0.9736
-0.4196 4.1712 -1.1795 0.9827
-2.0136 5.2281 -1.5763 0.9770
-2.9518 4.8593 -1.5997 0.9767
-3.6379 4.1135 -1.5450 0.9774
-2.7751 0.3732 -0.7878 0.9884
-2.9298 -0.3940 -0.8317 0.9878
-3.0353 -0.6877 -0.8756 0.9872
-3.2049 -1.0334 -0.9474 0.9861
-5.6979 -2.4161 -1.7413 0.9746
-5.6505 -3.0152 -1.8020 0.9737
-5.5665 -3.6414 -1.8715 0.9727
-5.4416 -4.2972 -1.9509 0.9716
-5.2706 -4.9849 -2.0411 0.9703
-5.0473 -5.7071 -2.1436 0.9688
-4.4132 -7.2652 -2.3917 0.9653
-2.8356 -9.9166 -2.9019 0.9580
-1.1961 -11.8892 -3.3620 0.9516
-0.1439 -12.9176 -3.6347 0.9477
12.8724 6.5047 -4.0579 0.9418
11.2653 7.0161 -3.7340 0.9463
7.1318 7.7108 -2.9551 0.9573
5.9746 7.7415 -2.7513 0.9602
4.9167 7.7019 -2.5709 0.9627
3.9502 7.6055 -2.4113 0.9650
2.2592 7.2827 -2.1454 0.9688
0.2200 6.5796 -1.8522 0.9730
-0.3516 6.3055 -1.7769 0.9741
-0.6050 4.1482 -1.1795 0.9827
-2.2142 5.0641 -1.5551 0.9773
-3.7924 3.9213 -1.5348 0.9776
-5.3647 -3.1775 -1.8667 0.9743
-5.1051 -4.4146 -2.0205 0.9722
-4.6553 -5.7619 -2.2177 0.9695
-4.3432 -6.4805 -2.3355 0.9680
-3.9622 -7.2302 -2.4683 0.9662
-3.5029 -8.0113 -2.6177 0.9642
-2.3028 -9.6629 -2.9739 0.9594
-1.5350 -10.5250 -3.1843 0.9566
0.4102 -12.2672 -3.6746 0.9500
1.6167 -13.1264 -3.9595 0.9463
9.5820 6.5777 -3.4795 0.9526
7.1603 7.0810 -3.0148 0.9588
1.7814 6.7996 -2.1044 0.9711
1.1142 6.6051 -2.0054 0.9724
-0.4213 4.1877 -1.2600 0.9826
-1.5204 5.3171 -1.6556 0.9772
-2.8371 4.6706 -1.6361 0.9774
-4.0626 3.2082 -1.5498 0.9786
-4.7300 2.0057 -1.5381 0.9788
-4.9081 1.5826 -1.5439 0.9787
-3.1092 -1.0026 -0.9780 0.9865
-5.1861 -4.0954 -1.9784 0.9728
-3.7430 -7.6168 -2.5408 0.9652
-2.6420 -9.2396 -2.8770 0.9607
-1.9346 -10.0924 -3.0765 0.9580
-1.1024 -10.9587 -3.2974 0.9551
-0.1318 -11.8315 -3.5423 0.9518
0.9924 -12.6997 -3.8136 0.9482
13.0371 5.1887 -4.2008 0.9431
10.2387 6.3767 -3.6111 0.9509
8.9454 6.7460 -3.3542 0.9543
7.7343 6.9952 -3.1221 0.9574
6.6074 7.1439 -2.9133 0.9602
5.5635 7.2088 -2.7262 0.9627
4.5992 7.2046 -2.5589 0.9649
3.7100 7.1430 -2.4097 0.9670
2.1361 6.8861 -2.1585 0.9703
0.8003 6.4983 -1.9602 0.9730
-0.3356 6.0182 -1.8045 0.9751
-0.6052 4.1495 -1.2554 0.9826
-1.7300 5.1674 -1.6314 0.9775
-2.1253 4.8608 -1.5882 0.9781
-3.6508 3.7749 -1.5722 0.9783
-4.4216 2.6189 -1.5385 0.9788
-3.5598 0.9751 -1.1050 0.9847
-2.7827 -0.2487 -0.8873 0.9883
-5.2103 -2.4888 -1.8338 0.9761
-5.1349 -3.0415 -1.8954 0.9753
-5.0226 -3.6150 -1.9653 0.9744
-4.4203 -5.4711 -2.2338 0.9709
-4.1129 -6.1369 -2.3462 0.9695
-3.7410 -6.8264 -2.4721 0.9679
-2.7690 -8.2708 -2.7700 0.9641
-2.1496 -9.0200 -2.9448 0.9618
-1.4262 -9.7785 -3.1384 0.9594
0.3770 -11.2741 -3.5825 0.9538
1.4765 -11.9884 -3.8361 0.9506
2.7191 -12.6539 -4.1104 0.9471
4.1081 -13.2434 -4.4036 0.9435
12.3902 4.3023 -4.1654 0.9464
11.1649 5.0307 -3.8891 0.9499
8.8014 6.0418 -3.3904 0.9562
5.6683 6.7044 -2.7882 0.9638
4.7519 6.7597 -2.6241 0.9659
1.0600 6.2840 -2.0239 0.9736
-0.0654 5.8704 -1.8645 0.9757
-0.4235 4.2097 -1.3437 0.9824
-1.0298 5.3724 -1.7372 0.9773
-1.4585 5.1008 -1.6849 0.9780
-1.8551 4.8166 -1.6392 0.9786
-2.7300 4.4943 -1.6700 0.9782
-3.3733 3.8143 -1.6171 0.9789
-3.6571 3.4588 -1.5986 0.9791
-3.9171 3.0933 -1.5851 0.9793
-4.1541 2.7175 -1.5765 0.9794
-4.3689 2.3313 -1.5727 0.9794
-4.5618 1.9344 -1.5736 0.9794
-4.7329 1.5262 -1.5793 0.9793
-2.6672 0.3587 -0.8547 0.9888
-2.7612 -0.1231 -0.8778 0.9885
-2.8255 -0.3800 -0.9054 0.9881
-5.1770 -2.7626 -1.8636 0.9757
-5.0836 -3.3255 -1.9292 0.9748
-4.2742 -5.8010 -2.2884 0.9702
-3.5282 -7.1796 -2.5406 0.9670
-2.4716 -8.6436 -2.8551 0.9630
-1.8017 -9.3993 -3.0394 0.9606
-0.1215 -10.9054 -3.4636 0.9553
0.9093 -11.6359 -3.7067 0.9522
2.0796 -12.3288 -3.9708 0.9489
11.7762 4.6868 -4.0253 0.9482
10.5594 5.3359 -3.7573 0.9516
5.2020 6.7405 -2.7040 0.9649
3.4953 6.7297 -2.4083 0.9687
2.0248 6.5272 -2.1704 0.9717
0.7622 6.1893 -1.9805 0.9742
-0.3207 5.7522 -1.8297 0.9761
-1.2483 5.2383 -1.7102 0.9777
-2.0761 4.7481 -1.6457 0.9785
-4.6500 1.7317 -1.5759 0.9794
-2.8177 -0.5076 -0.9619 0.9880
-2.8971 -0.7936 -1.0092 0.9874
-5.0470 -1.8795 -1.8095 0.9775
-5.0009 -2.3887 -1.8621 0.9769
-4.9219 -2.9153 -1.9220 0.9762
-4.8069 -3.4598 -1.9899 0.9753
-4.2058 -5.2056 -2.2485 0.9722
-3.9038 -5.8249 -2.3559 0.9708
-3.5411 -6.4616 -2.4756 0.9694
-3.1105 -7.1139 -2.6086 0.9678
-2.6044 -7.7787 -2.7561 0.9660
-0.5455 -9.7835 -3.2922 0.9595
0.3484 -10.4214 -3.5034 0.9570
5.0919 -12.3904 -4.5008 0.9450
6.5485 -12.6081 -4.7734 0.9418
13.2571 2.0846 -4.5089 0.9449
12.2795 3.0713 -4.2528 0.9480
9.1552 5.1506 -3.5294 0.9566
8.1320 5.5823 -3.3140 0.9592
6.2021 6.1333 -2.9306 0.9639
2.9393 6.3341 -2.3461 0.9710
1.6081 6.1380 -2.1319 0.9736
1.0104 5.9901 -2.0410 0.9747
0.4544 5.8154 -1.9598 0.9757
-0.0625 5.6147 -1.8866 0.9766
-0.4273 4.2473 -1.4342 0.9821
-1.4010 4.8994 -1.7121 0.9787
-1.7839 4.6318 -1.6676 0.9793
-2.9541 4.0093 -1.6732 0.9792
-3.2532 3.6784 -1.6499 0.9795
-4.2174 2.2505 -1.6061 0.9800
-4.4035 1.8673 -1.6070 0.9800
-4.5681 1.4730 -1.6126 0.9800
-2.6272 0.5952 -0.9050 0.9887
-2.6762 0.1193 -0.9001 0.9888
-5.0279 -2.1320 -1.8349 0.9772
-4.7347 -3.7390 -2.0270 0.9749
-4.5585 -4.3114 -2.1081 0.9739
-4.3360 -4.9029 -2.1991 0.9728
-4.0620 -5.5130 -2.3007 0.9715
-3.7304 -6.1412 -2.4142 0.9701
-3.3347 -6.7860 -2.5404 0.9686
-1.6848 -8.7893 -3.0068 0.9629
-0.9512 -9.4558 -3.1930 0.9607
-0.1126 -10.1059 -3.3956 0.9582
1.9067 -11.3037 -3.8515 0.9528
3.0946 -11.8122 -4.1026 0.9498
4.3990 -12.2271 -4.3659 0.9466
5.8093 -12.5188 -4.6369 0.9434
12.7773 2.5971 -4.3807 0.9465
11.7685 3.5074 -4.1259 0.9495
4.8815 6.3252 -2.6844 0.9668
2.5888 6.2994 -2.2882 0.9717
0.1912 5.7182 -1.9223 0.9761
-1.1983 5.0284 -1.7368 0.9784
-2.0566 4.7037 -1.7248 0.9786
-2.4578 4.4849 -1.7183 0.9787
-2.7951 4.1706 -1.6869 0.9790
-3.3937 3.5090 -1.6401 0.9796
-3.8978 2.8054 -1.6135 0.9799
-4.4885 1.6715 -1.6092 0.9800
-2.6265 0.7195 -0.9150 0.9886
-2.7169 0.4895 -0.9275 0.9884
-2.6519 0.0000 -0.9403 0.9888
-2.8417 -0.7784 -1.0448 0.9876
-4.7238 -2.7979 -1.9468 0.9770
-4.6068 -3.3158 -2.0126 0.9762
-4.4513 -3.8492 -2.0867 0.9753
-4.2536 -4.3981 -2.1696 0.9744
-3.7129 -5.5400 -2.3648 0.9721
-3.3595 -6.1304 -2.4788 0.9708
-2.9429 -6.7307 -2.6048 0.9693
-1.8935 -7.9455 -2.8963 0.9659
-1.2465 -8.5464 -3.0625 0.9640
-0.5089 -9.1275 -3.2415 0.9619
4.6363 -11.2818 -4.3250 0.9496
7.2763 -11.3981 -4.7949 0.9442
10.2910 3.5734 -3.8628 0.9548
9.3771 4.2251 -3.6469 0.9573
8.4596 4.7594 -3.4418 0.9596
7.5514 5.1837 -3.2478 0.9619
6.6632 5.5073 -3.0653 0.9640
4.2122 5.9920 -2.5971 0.9694
3.4784 6.0247 -2.4668 0.9709
2.7877 6.0073 -2.3483 0.9723
2.1394 5.9465 -2.2409 0.9735
1.5324 5.8490 -2.1440 0.9747
0.9639 5.7150 -2.0551 0.9757
-0.4312 4.2860 -1.5274 0.9819
-0.9489 4.9503 -1.7872 0.9788
-2.1958 4.4683 -1.7654 0.9791
-2.8499 3.8680 -1.7036 0.9798
-3.6512 2.8833 -1.6497 0.9804
-4.2542 1.8040 -1.6385 0.9806
-2.5748 0.3463 -0.9212 0.9890
-2.6346 0.1175 -0.9351 0.9889
-2.6733 -0.1192 -0.9489 0.9887
-2.7260 -0.3666 -0.9753 0.9884
-4.3580 -4.1218 -2.1270 0.9749
-4.1374 -4.6783 -2.2145 0.9738
-3.8678 -5.2494 -2.3120 0.9727
-2.7089 -7.0335 -2.6726 0.9685
-0.1048 -9.4085 -3.3363 0.9609
2.8403 -10.8412 -3.9739 0.9536
4.0162 -11.1632 -4.2067 0.9509
6.5987 -11.4294 -4.6796 0.9455
13.9026 0.3098 -4.9309 0.9427
13.1861 1.4751 -4.7048 0.9452
11.5960 2.3570 -4.1959 0.9510
9.8363 3.9147 -3.7539 0.9561
8.0037 4.9847 -3.3434 0.9608
7.1038 5.3572 -3.1549 0.9629
2.4582 5.9817 -2.2931 0.9729
1.8308 5.9020 -2.1912 0.9741
0.6937 5.6321 -2.0122 0.9762
-1.1517 4.8327 -1.7616 0.9791
-2.6958 4.0225 -1.7170 0.9797
-2.9980 3.7107 -1.6915 0.9800
-3.2763 3.3877 -1.6711 0.9802
-3.9767 2.3554 -1.6389 0.9806
-4.1671 1.9905 -1.6375 0.9806
-2.5828 0.7075 -0.9496 0.9887
-2.6624 0.4796 -0.9592 0.9886
-2.6060 0.2328 -0.9277 0.9890
-2.6101 -0.0000 -0.9746 0.9889
-2.6498 -0.2368 -0.9934 0.9887
-2.7878 -0.7637 -1.0794 0.9877
-4.6229 -2.2082 -1.9131 0.9784
-4.5388 -2.6884 -1.9699 0.9777
-4.2651 -3.6882 -2.1055 0.9762
-4.0688 -4.2071 -2.1855 0.9753
-3.8279 -4.7378 -2.2744 0.9743
-3.5378 -5.2788 -2.3729 0.9732
-2.7908 -6.3828 -2.6013 0.9707
-2.3232 -6.9390 -2.7325 0.9692
-1.7853 -7.4915 -2.8757 0.9677
-1.1714 -8.0316 -3.0308 0.9659
-0.4766 -8.5475 -3.1967 0.9641
0.3020 -9.0316 -3.3744 0.9622
1.1664 -9.4706 -3.5631 0.9601
2.1163 -9.8484 -3.7614 0.9579
3.1476 -10.1467 -3.9670 0.9557
5.4135 -10.4229 -4.3857 0.9511
9.0025 -9.7335 -4.9508 0.9450
10.1189 -9.1520 -5.0947 0.9434
13.2214 -1.4790 -4.9678 0.9448
12.8495 -0.2863 -4.7993 0.9466
9.4750 3.2901 -3.7453 0.9581
8.6720 3.9074 -3.5517 0.9602
6.2376 5.1554 -3.0217 0.9660
5.4554 5.3949 -2.8650 0.9678
4.7022 5.5617 -2.7196 0.9694
2.0379 5.6643 -2.2479 0.9746
0.9206 5.4579 -2.0668 0.9766
0.4162 5.3256 -1.9947 0.9774
-1.2967 4.5350 -1.7613 0.9801
-2.1175 4.3090 -1.7928 0.9797
-2.4469 4.0281 -1.7599 0.9801
-2.7518 3.7348 -1.7323 0.9804
-3.0334 3.4299 -1.7098 0.9806
-3.5294 2.7871 -1.6793 0.9810
-2.5436 0.5763 -0.9739 0.9889
-2.5325 0.3406 -0.9542 0.9891
-2.6307 -0.1173 -0.9833 0.9888
-2.6781 -0.3602 -1.0090 0.9885
-2.7556 -0.6244 -1.0551 0.9880
-2.8043 -0.9043 -1.1002 0.9875
-4.5850 -2.4466 -1.9406 0.9781
-4.3477 -3.4334 -2.0687 0.9766
-4.1723 -3.9462 -2.1444 0.9758
-3.9542 -4.4711 -2.2288 0.9748
-3.6892 -5.0071 -2.3224 0.9738
-2.5654 -6.6610 -2.6654 0.9700
-1.4883 -7.7642 -2.9520 0.9668
-0.0979 -8.7943 -3.2841 0.9631
0.7234 -9.2577 -3.4675 0.9611
1.6308 -9.6682 -3.6612 0.9590
2.6221 -10.0087 -3.8635 0.9568
6.0101 -10.4097 -4.4884 0.9500
7.2175 -10.2670 -4.6863 0.9478
9.5715 -9.4655 -5.0266 0.9441
13.3387 -2.0974 -5.0420 0.9440
12.6020 0.2808 -4.7069 0.9476
12.0040 1.3428 -4.5104 0.9497
10.8553 2.2064 -4.1364 0.9538
9.8643 2.9399 -3.8436 0.9570
7.4433 4.6358 -3.2744 0.9633
5.0748 5.4868 -2.7908 0.9686
3.6352 5.6943 -2.5227 0.9716
2.9688 5.7158 -2.4051 0.9729
2.3388 5.6914 -2.2977 0.9741
0.6639 5.3903 -2.0280 0.9771
0.1754 5.2446 -1.9595 0.9778
-2.2853 4.1702 -1.7757 0.9799
-2.6023 3.8829 -1.7455 0.9802
-2.8955 3.5838 -1.7204 0.9805
-3.4135 2.9518 -1.6851 0.9809
-3.6398 2.6198 -1.6746 0.9810
-3.8449 2.2773 -1.6687 0.9811
-4.1922 1.5612 -1.6704 0.9811
-2.6096 0.4701 -0.9901 0.9887
-2.6685 -0.4808 -1.0642 0.9884
-4.4516 -2.1263 -1.9362 0.9790
-4.3658 -2.5859 -1.9915 0.9784
-3.6603 -4.5305 -2.2859 0.9753
-3.3766 -5.0383 -2.3804 0.9743
-3.0420 -5.5509 -2.4843 0.9732
-2.6520 -6.0653 -2.5981 0.9720
-2.2021 -6.5774 -2.7223 0.9706
-1.6876 -7.0817 -2.8572 0.9692
1.0884 -8.8369 -3.4944 0.9625
1.9673 -9.1553 -3.6752 0.9606
3.9218 -9.5432 -4.0494 0.9566
6.0536 -9.4828 -4.4154 0.9528
7.1343 -9.2442 -4.5829 0.9511
9.1779 -8.3009 -4.8568 0.9482
10.0727 -7.5962 -4.9514 0.9472
10.8379 -6.7498 -5.0110 0.9466
11.4449 -5.7834 -5.0327 0.9464
11.8729 -4.7253 -5.0153 0.9466
12.1104 -3.6093 -4.9596 0.9471
12.0198 -1.3446 -4.7468 0.9494
11.2729 0.7546 -4.4342 0.9526
9.5400 2.3861 -3.8595 0.9586
8.7708 3.0455 -3.6439 0.9609
8.0584 3.6310 -3.4689 0.9627
6.5855 4.5207 -3.1350 0.9663
5.8522 4.8369 -2.9798 0.9679
4.4419 5.2539 -2.7002 0.9709
3.7734 5.3677 -2.5751 0.9722
2.5181 5.4263 -2.3478 0.9746
1.9408 5.3945 -2.2500 0.9757
-0.4805 4.7766 -1.8841 0.9796
-1.6890 4.3855 -1.8444 0.9800
-2.3632 3.8903 -1.7865 0.9806
-2.9325 3.3158 -1.7373 0.9812
-3.1839 3.0113 -1.7200 0.9813
-3.6231 2.3702 -1.6992 0.9816
-3.8116 2.0340 -1.6956 0.9816
-2.5490 0.1137 -1.0014 0.9891
-2.6312 -0.3539 -1.0420 0.9887
-2.7236 -0.8783 -1.1231 0.9878
-4.4127 -2.3547 -1.9630 0.9787
-4.3106 -2.8199 -2.0217 0.9781
-4.1740 -3.2962 -2.0874 0.9774
-3.9997 -3.7829 -2.1607 0.9766
-3.7845 -4.2792 -2.2420 0.9758
-3.2159 -5.2942 -2.4311 0.9737
-1.4048 -7.3289 -2.9288 0.9684
-0.0919 -8.2492 -3.2378 0.9652
1.5189 -9.0047 -3.5840 0.9615
2.4330 -9.2866 -3.7677 0.9596
3.4116 -9.4828 -3.9553 0.9576
4.4435 -9.5755 -4.1430 0.9557
6.5955 -9.3822 -4.5011 0.9519
8.6922 -8.5959 -4.7979 0.9488
9.6395 -7.9672 -4.9082 0.9477
12.0158 -4.1723 -4.9920 0.9468
12.1569 -3.0406 -4.9182 0.9476
11.8881 -0.7958 -4.6762 0.9501
11.5116 0.2565 -4.5191 0.9517
11.0051 1.2311 -4.3461 0.9535
9.1135 2.7161 -3.7322 0.9600
7.6933 3.8876 -3.3830 0.9636
5.4907 4.9661 -2.9056 0.9687
4.1051 5.3190 -2.6370 0.9715
3.4492 5.4030 -2.5158 0.9728
1.6641 5.3646 -2.2044 0.9762
-0.2714 4.8670 -1.9131 0.9793
-1.8750 4.2883 -1.8369 0.9801
-2.2065 4.0263 -1.8019 0.9805
-2.5140 3.7512 -1.7723 0.9808
-2.7986 3.4638 -1.7477 0.9810
-3.0609 3.1649 -1.7280 0.9813
-3.3016 2.8550 -1.7131 0.9814
-3.5212 2.5344 -1.7027 0.9815
-3.7200 2.2033 -1.6969 0.9816
-3.8982 1.8620 -1.6955 0.9816
-4.0559 1.5104 -1.6986 0.9816
-3.4629 0.9486 -1.4092 0.9847
-2.5289 0.0000 -1.0413 0.9891
-2.6211 -0.4722 -1.0967 0.9885
-2.6410 -0.7235 -1.1276 0.9882
-2.6436 -0.9845 -1.1616 0.9879
-4.2035 -2.4897 -2.0118 0.9791
-3.9300 -3.3984 -2.1394 0.9778
-3.5050 -4.3382 -2.2966 0.9762
-2.9021 -5.2958 -2.4867 0.9742
-2.5248 -5.7744 -2.5951 0.9731
-1.5991 -6.7099 -2.8404 0.9706
-0.4220 -7.5675 -3.1210 0.9677
1.8364 -8.5461 -3.5994 0.9629
2.7117 -8.7418 -3.7689 0.9612
3.6362 -8.8482 -3.9392 0.9595
4.5968 -8.8504 -4.1067 0.9578
5.5760 -8.7346 -4.2672 0.9562
7.4986 -8.1073 -4.5475 0.9534
8.3877 -7.5862 -4.6570 0.9523
9.8777 -6.1519 -4.7918 0.9509
11.0475 -3.2925 -4.7469 0.9514
10.3801 0.6949 -4.2839 0.9560
7.5194 3.3881 -3.3962 0.9650
6.1849 4.2457 -3.0891 0.9681
5.5127 4.5564 -2.9451 0.9695
4.8500 4.7962 -2.8088 0.9709
4.2033 4.9717 -2.6809 0.9722
3.5776 5.0893 -2.5617 0.9734
2.4016 5.1753 -2.3494 0.9756
1.8546 5.1548 -2.2559 0.9766
1.3358 5.0986 -2.1704 0.9775
0.8452 5.0110 -2.0926 0.9783
0.3831 4.9019 -2.0247 0.9790
-0.0530 4.7604 -1.9604 0.9796
-0.4625 4.5969 -1.9025 0.9802
-0.8461 4.4140 -1.8507 0.9807
-1.9741 4.0173 -1.8432 0.9808
-3.0811 2.9141 -1.7463 0.9818
-3.3045 2.6096 -1.7339 0.9820
-3.8528 1.6337 -1.7233 0.9821
-3.9951 1.2883 -1.7285 0.9820
-2.6388 0.5979 -1.1141 0.9884
-2.5479 -0.1136 -1.0502 0.9890
-4.2509 -2.2683 -1.9841 0.9794
-4.1480 -2.7135 -2.0411 0.9788
-3.6268 -4.1009 -2.2543 0.9766
-1.3293 -6.9350 -2.9077 0.9699
2.2673 -8.6541 -3.6839 0.9620
3.1685 -8.8071 -3.8542 0.9603
4.1130 -8.8632 -4.0235 0.9586
5.0854 -8.8081 -4.1881 0.9570
6.0659 -8.6288 -4.3433 0.9554
7.9521 -7.8640 -4.6053 0.9528
10.1709 -5.7221 -4.8055 0.9508
10.6439 -4.7959 -4.8073 0.9508
10.9549 -3.8039 -4.7752 0.9511
11.0981 -2.7758 -4.7108 0.9517
11.0762 -1.7416 -4.6170 0.9527
10.1494 1.1354 -4.2054 0.9568
8.4914 2.5307 -3.6486 0.9624
7.8421 3.1211 -3.4756 0.9641
7.1907 3.6336 -3.3176 0.9657
6.5218 4.0618 -3.1638 0.9673
5.8481 4.4103 -3.0162 0.9688
3.8876 5.0373 -2.6202 0.9728
3.2738 5.1283 -2.5054 0.9740
2.1246 5.1698 -2.3016 0.9761
0.6105 4.9565 -2.0564 0.9786
-0.2610 4.6812 -1.9306 0.9799
-0.6095 4.1790 -1.7390 0.9819
-1.4099 4.2112 -1.8287 0.9810
-2.1320 3.8903 -1.8267 0.9810
-2.4305 3.6265 -1.7977 0.9813
-2.9616 3.0623 -1.7542 0.9817
-3.1954 2.7632 -1.7395 0.9819
-3.4086 2.4533 -1.7294 0.9820
-3.6014 2.1331 -1.7236 0.9821
-3.7740 1.8027 -1.7223 0.9821
-3.9265 1.4622 -1.7253 0.9820
-3.5071 0.9607 -1.4974 0.9844
-2.5182 0.4537 -1.0536 0.9890
-2.4893 0.0000 -1.0738 0.9892
-2.5221 -0.2254 -1.0922 0.9890
-2.5389 -0.4574 -1.1128 0.9888
-2.5507 -0.6987 -1.1408 0.9885
-4.0508 -2.3993 -2.0308 0.9797
-3.9315 -2.8297 -2.0895 0.9791
-3.7785 -3.2674 -2.1547 0.9785
-2.7729 -5.0600 -2.4889 0.9752
-2.4077 -5.5066 -2.5924 0.9742
-1.9905 -5.9453 -2.7045 0.9731
-1.5182 -6.3708 -2.8251 0.9719
-0.9881 -6.7753 -2.9535 0.9706
-0.3986 -7.1493 -3.0887 0.9693
0.9576 -7.7755 -3.3794 0.9664
1.7204 -8.0059 -3.5323 0.9650
2.5328 -8.1650 -3.6876 0.9634
3.3862 -8.2398 -3.8427 0.9619
4.2683 -8.2178 -3.9945 0.9605
5.1630 -8.0878 -4.1390 0.9591
6.0510 -7.8405 -4.2721 0.9578
7.7143 -6.9771 -4.4868 0.9557
8.4402 -6.3650 -4.5600 0.9550
9.9279 -3.9512 -4.6092 0.9545
10.1449 -3.0235 -4.5663 0.9549
10.2138 -2.0761 -4.4959 0.9556
10.1396 -1.1343 -4.4011 0.9565
9.9328 -0.2213 -4.2857 0.9576
9.6086 0.6432 -4.1540 0.9589
9.1845 1.4442 -4.0105 0.9603
6.4409 3.6236 -3.1878 0.9683
5.8256 3.9990 -3.0480 0.9697
5.2066 4.3034 -2.9137 0.9710
4.5924 4.5415 -2.7861 0.9723
3.9897 4.7191 -2.6656 0.9734
2.2940 4.9434 -2.3508 0.9765
0.8114 4.8100 -2.1041 0.9790
0.3681 4.7106 -2.0382 0.9796
-0.4455 4.4280 -1.9197 0.9808
-1.5851 4.1156 -1.9024 0.9810
-3.2005 2.5274 -1.7591 0.9824
-3.5748 1.9076 -1.7479 0.9825
-3.8697 1.2478 -1.7539 0.9824
-2.5715 0.5826 -1.1373 0.9886
-2.4106 0.3242 -1.0492 0.9895
-2.4655 0.1099 -1.0645 0.9893
-2.5277 -0.3399 -1.1001 0.9890
-2.5465 -0.5769 -1.1263 0.9887
-4.0985 -2.1870 -2.0039 0.9800
-3.8594 -3.0477 -2.1213 0.9788
-3.4798 -3.9347 -2.2658 0.9774
-3.2304 -4.3843 -2.3491 0.9766
-2.9370 -4.8351 -2.4403 0.9757
-2.2058 -5.7272 -2.6474 0.9736
-1.7614 -6.1600 -2.7637 0.9725
-1.2606 -6.5767 -2.8885 0.9713
-0.7008 -6.9663 -3.0201 0.9700
0.5968 -7.6374 -3.3045 0.9672
1.3324 -7.8988 -3.4554 0.9657
2.1208 -8.0952 -3.6098 0.9642
4.7152 -8.1670 -4.0679 0.9598
5.6092 -7.9792 -4.2073 0.9584
6.4855 -7.6711 -4.3331 0.9572
7.3202 -7.2391 -4.4409 0.9561
8.7661 -6.0176 -4.5865 0.9547
10.1941 -1.6029 -4.4513 0.9560
10.0519 -0.6729 -4.3457 0.9571
9.7843 0.2180 -4.2216 0.9583
9.4078 1.0524 -4.0835 0.9596
6.7440 3.4079 -3.2594 0.9676
6.1343 3.8205 -3.1173 0.9690
3.6943 4.7869 -2.6083 0.9740
2.5628 4.9343 -2.3984 0.9761
0.5864 4.7610 -2.0692 0.9793
-0.2513 4.5067 -1.9471 0.9805
-0.9937 4.1696 -1.8490 0.9815
-1.4021 4.1880 -1.9051 0.9809
-2.0614 3.7615 -1.8502 0.9815
-2.3512 3.5083 -1.8218 0.9818
-2.8673 2.9648 -1.7791 0.9822
-3.3016 2.3763 -1.7547 0.9824
-3.4887 2.0664 -1.7490 0.9825
-2.4719 0.4453 -1.0835 0.9891
-2.4481 -0.2188 -1.1090 0.9893
-2.4702 -0.6767 -1.1556 0.9888
-2.4890 -0.9269 -1.1984 0.9884
-3.9068 -2.3140 -2.0488 0.9803
-3.6363 -3.1444 -2.1691 0.9791
-2.9608 -4.4178 -2.3997 0.9769
-2.2995 -5.2592 -2.5900 0.9751
-1.8974 -5.6672 -2.6966 0.9741
0.9023 -7.3261 -3.3306 0.9681
3.9797 -7.6623 -3.8959 0.9628
5.6156 -7.2763 -4.1472 0.9605
7.7950 -5.8785 -4.4053 0.9581
9.1614 -3.6462 -4.4491 0.9577
9.4432 -1.9194 -4.3481 0.9586
6.0670 3.4132 -3.1410 0.9699
4.9289 4.0738 -2.8853 0.9723
4.3577 4.3094 -2.7654 0.9735
1.7003 4.7260 -2.2663 0.9782
1.2286 4.6893 -2.1873 0.9790
-0.4294 4.2689 -1.9359 0.9813
-1.8457 3.7559 -1.8883 0.9818
-2.1378 3.5193 -1.8580 0.9821
-2.8905 2.7338 -1.7952 0.9827
-3.2929 2.1541 -1.7755 0.9829
-2.5488 0.5775 -1.1792 0.9886
-2.4105 0.1075 -1.0887 0.9895
-2.4395 -0.1088 -1.1018 0.9893
-2.4782 -0.7991 -1.1749 0.9886
-2.4891 -1.0555 -1.2199 0.9882
-3.9547 -2.1103 -2.0226 0.9805
-3.5475 -3.3552 -2.2032 0.9788
-3.0983 -4.2050 -2.3568 0.9773
-2.4822 -5.0512 -2.5395 0.9756
-2.1047 -5.4647 -2.6423 0.9746
1.2537 -7.4327 -3.4011 0.9675
4.3910 -7.6054 -3.9626 0.9622
6.7742 -6.6991 -4.2988 0.9591
7.4745 -6.1778 -4.3755 0.9583
8.0924 -5.5551 -4.4289 0.9578
8.6089 -4.8432 -4.4570 0.9576
9.0087 -4.0591 -4.4585 0.9576
8.7586 0.9798 -3.9767 0.9621
6.8931 2.7434 -3.3476 0.9680
5.7856 3.6033 -3.0755 0.9705
5.2155 3.9331 -2.9475 0.9717
4.0746 4.4055 -2.7077 0.9740
3.5170 4.5571 -2.5974 0.9751
2.4492 4.7156 -2.3976 0.9770
1.0012 4.6592 -2.1503 0.9793
0.5638 4.5779 -2.0812 0.9800
0.1496 4.4741 -2.0199 0.9805
-0.2421 4.3426 -1.9625 0.9811
-0.9580 4.0200 -1.8647 0.9820
-1.3672 4.0836 -1.9431 0.9813
-1.6916 3.8689 -1.9053 0.9816
-1.9944 3.6393 -1.8725 0.9820
-2.9984 2.5929 -1.7886 0.9828
-3.3814 2.0028 -1.7733 0.9829
-3.6863 1.3728 -1.7749 0.9829
-3.8093 1.0435 -1.7822 0.9828
-2.3615 0.0000 -1.1132 0.9896
-2.3816 -0.4291 -1.1407 0.9894
-3.6524 -2.6289 -2.1213 0.9803
-3.0990 -3.8356 -2.3244 0.9784
-2.5416 -4.6379 -2.4929 0.9769
-2.1992 -5.0298 -2.5876 0.9760
-1.3761 -5.7743 -2.7981 0.9741
-0.8918 -6.1147 -2.9128 0.9730
0.2238 -6.6949 -3.1576 0.9708
0.8523 -6.9201 -3.2866 0.9696
1.5236 -7.0899 -3.4183 0.9684
2.2318 -7.1946 -3.5508 0.9672
3.7241 -7.1702 -3.8086 0.9649
5.9537 -6.4371 -4.1331 0.9620
7.7568 -4.8310 -4.3075 0.9604
8.4956 -3.3812 -4.3101 0.9604
8.7336 -0.9770 -4.1425 0.9619
8.3412 0.5584 -3.9406 0.9637
7.6059 1.9024 -3.6957 0.9659
6.2600 2.8206 -3.2365 0.9701
5.7293 3.2232 -3.0987 0.9713
4.6758 3.8646 -2.8594 0.9735
3.0957 4.4036 -2.5373 0.9765
1.1801 4.5045 -2.1949 0.9796
0.7499 4.4456 -2.1251 0.9803
-0.0474 4.2517 -2.0043 0.9814
-0.4143 4.1187 -1.9513 0.9819
-0.7603 3.9665 -1.9038 0.9823
-1.1551 4.0398 -1.9806 0.9816
-1.4819 3.8478 -1.9436 0.9819
-1.7863 3.6350 -1.9092 0.9822
-2.3337 3.1673 -1.8545 0.9828
-3.6364 1.1726 -1.8010 0.9832
-2.2973 0.3090 -1.0926 0.9898
-2.3799 -0.3201 -1.1319 0.9894
-2.3945 -0.7721 -1.1859 0.9889
-3.8186 -2.0377 -2.0403 0.9810
-3.7154 -2.4305 -2.0928 0.9806
-2.9748 -4.0375 -2.3640 0.9781
-2.6964 -4.4389 -2.4482 0.9773
-2.3760 -4.8349 -2.5394 0.9765
-2.0111 -5.2217 -2.6376 0.9756
-1.1402 -5.9483 -2.8550 0.9736
-0.6311 -6.2733 -2.9720 0.9725
1.8735 -7.1510 -3.4846 0.9678
3.3450 -7.2083 -3.7459 0.9655
6.2973 -6.2276 -4.1748 0.9616
7.9822 -4.4907 -4.3172 0.9603
8.7470 -2.1878 -4.2501 0.9609
8.6733 -0.5806 -4.0975 0.9623
8.4756 0.1888 -3.9962 0.9632
7.8158 1.5887 -3.7595 0.9653
6.8460 2.7246 -3.4732 0.9679
5.4700 3.4067 -3.0376 0.9719
2.8412 4.4506 -2.4889 0.9769
2.3438 4.5126 -2.3969 0.9778
1.8638 4.5354 -2.3113 0.9786
0.9624 4.4786 -2.1593 0.9799
0.1441 4.3101 -2.0328 0.9811
-1.3219 3.9485 -1.9628 0.9818
-1.6367 3.7433 -1.9258 0.9821
-1.9307 3.5231 -1.8937 0.9824
-2.2043 3.2891 -1.8664 0.9826
-2.4580 3.0424 -1.8437 0.9829
-3.1024 2.2330 -1.8018 0.9832
-3.4363 1.6414 -1.7951 0.9833
-3.6934 1.0117 -1.8051 0.9832
-2.3515 0.4236 -1.1263 0.9895
-2.3243 0.2077 -1.1000 0.9897
-2.2975 -0.0000 -1.1300 0.9898
-2.3094 -0.2064 -1.1404 0.9897
-2.3666 -1.1304 -1.2900 0.9884
-3.6419 -2.1571 -2.0819 0.9813
-3.3763 -2.9196 -2.1954 0.9803
-2.7284 -4.0710 -2.4104 0.9784
-2.4375 -4.4480 -2.4947 0.9776
2.7928 -6.7958 -3.6138 0.9678
5.5601 -6.0115 -4.0276 0.9642
6.7406 -5.0833 -4.1525 0.9631
7.6175 -3.8493 -4.1979 0.9627
8.1802 -1.6627 -4.1058 0.9635
8.1550 -0.9123 -4.0361 0.9641
8.0300 -0.1789 -3.9505 0.9648
7.8138 0.5231 -3.8518 0.9657
6.2264 2.8055 -3.3590 0.9700
5.4227 3.0508 -3.0603 0.9726
4.4439 3.6730 -2.8357 0.9746
1.5660 4.3529 -2.2753 0.9796
1.1347 4.3310 -2.2021 0.9802
0.3285 4.2038 -2.0740 0.9814
-1.7297 3.5199 -1.9290 0.9827
-2.2618 3.0698 -1.8755 0.9831
-2.4990 2.8257 -1.8554 0.9833
-2.9168 2.3034 -1.8280 0.9836
-3.0976 2.0264 -1.8206 0.9836
-3.2598 1.7395 -1.8173 0.9837
-3.4032 1.4431 -1.8181 0.9837
-2.2513 0.3028 -1.1173 0.9899
-2.3022 -0.1027 -1.1335 0.9898
-2.3142 -0.5243 -1.1671 0.9895
-2.3173 -0.7472 -1.1976 0.9892
-2.3375 -0.9912 -1.2488 0.9887
-3.6898 -1.9689 -2.0570 0.9815
-3.0925 -3.4967 -2.2960 0.9794
-2.8591 -3.8804 -2.3707 0.9787
-1.9242 -4.9961 -2.6333 0.9764
-1.0870 -5.6711 -2.8401 0.9746
0.5046 -6.4575 -3.1858 0.9715
1.7680 -6.7482 -3.4312 0.9694
4.5506 -6.4733 -3.8919 0.9653
5.2320 -6.1884 -3.9858 0.9645
5.8771 -5.8120 -4.0654 0.9638
6.4694 -5.3471 -4.1282 0.9633
6.9927 -4.8002 -4.1718 0.9629
7.4326 -4.1815 -4.1946 0.9627
8.1534 -2.0393 -4.1338 0.9632
8.1045 -0.5425 -3.9951 0.9644
6.5066 2.5896 -3.4445 0.9693
5.7124 2.8865 -3.1480 0.9719
4.6923 3.5387 -2.8907 0.9741
4.1946 3.7938 -2.7818 0.9751
3.6961 3.9962 -2.6774 0.9760
1.3481 4.3458 -2.2380 0.9799
0.9259 4.3088 -2.1677 0.9805
0.5227 4.2438 -2.1031 0.9811
0.1389 4.1553 -2.0449 0.9816
-0.2253 4.0414 -1.9909 0.9821
-0.5699 3.9072 -1.9421 0.9826
-0.9387 3.9391 -1.9917 0.9821
-1.2789 3.8200 -1.9814 0.9822
-1.5844 3.6237 -1.9453 0.9825
-2.1361 3.1872 -1.8872 0.9830
-2.3828 2.9492 -1.8649 0.9832
-2.6105 2.6992 -1.8470 0.9834
-3.3338 1.5925 -1.8172 0.9837
-3.4678 1.2914 -1.8201 0.9836
-3.5826 0.9814 -1.8270 0.9836
-2.3061 0.4154 -1.1525 0.9896
-2.2359 -0.0000 -1.1463 0.9900
-2.2593 -0.8414 -1.2360 0.9892
-3.4031 -2.4495 -2.1496 0.9813
-3.2570 -2.8165 -2.2075 0.9808
-2.8687 -3.5507 -2.3402 0.9797
-2.0188 -4.6172 -2.5835 0.9776
-1.2548 -5.2655 -2.7751 0.9760
0.2018 -6.0366 -3.0965 0.9732
1.3626 -6.3412 -3.3252 0.9713
3.2912 -6.3367 -3.6607 0.9684
3.9485 -6.1852 -3.7620 0.9676
4.5928 -5.9510 -3.8538 0.9668
5.2100 -5.6329 -3.9337 0.9661
5.7852 -5.2324 -3.9990 0.9655
6.3038 -4.7539 -4.0478 0.9651
7.1189 -3.5973 -4.0891 0.9648
7.3948 -2.9430 -4.0803 0.9649
7.6405 -0.8547 -3.9415 0.9660
7.5334 -0.1679 -3.8631 0.9667
7.0756 1.1126 -3.6720 0.9683
6.7450 1.6870 -3.5645 0.9692
6.3613 2.2088 -3.4523 0.9702
5.2369 2.9462 -3.0805 0.9734
4.6931 3.2216 -2.9184 0.9747
4.2307 3.4968 -2.8139 0.9756
2.3769 4.1168 -2.4371 0.9789
1.9341 4.1678 -2.3555 0.9796
0.6955 4.1232 -2.1437 0.9814
0.3168 4.0537 -2.0846 0.9819
-0.0441 3.9586 -2.0295 0.9824
-0.3865 3.8421 -1.9797 0.9828
-0.7392 3.8562 -2.0129 0.9825
-1.0825 3.7857 -2.0186 0.9825
-1.9439 3.2000 -1.9195 0.9833
-2.4240 2.7408 -1.8758 0.9837
-2.6364 2.4935 -1.8604 0.9838
-3.0063 1.9666 -1.8417 0.9840
-3.3030 1.4006 -1.8393 0.9840
-2.2319 0.0995 -1.1453 0.9900
-2.2377 -0.0998 -1.1483 0.9900
-2.2446 -0.3019 -1.1611 0.9899
-2.2530 -0.7265 -1.2136 0.9894
-2.2673 -0.9614 -1.2625 0.9890
-3.1723 -3.0003 -2.2385 0.9806
-2.4862 -4.0929 -2.4551 0.9787
-1.8432 -4.7859 -2.6292 0.9772
-0.0661 -5.9306 -3.0406 0.9737
1.0601 -6.2849 -3.2676 0.9718
1.6722 -6.3828 -3.3827 0.9708
2.3089 -6.4178 -3.4967 0.9698
2.9618 -6.3826 -3.6073 0.9689
3.6206 -6.2711 -3.7124 0.9680
5.5038 -5.4428 -3.9683 0.9658
6.5376 -4.4878 -4.0653 0.9650
6.9464 -3.9080 -4.0861 0.9648
7.2686 -3.2751 -4.0872 0.9648
7.6273 -1.9077 -4.0308 0.9653
7.6600 -1.2045 -3.9753 0.9657
7.4476 0.1660 -3.8191 0.9671
7.2175 0.8074 -3.7233 0.9679
6.9176 1.4061 -3.6190 0.9688
4.9201 3.0643 -2.9716 0.9743
3.5282 3.8147 -2.6639 0.9769
3.0621 3.9676 -2.5694 0.9777
2.6028 4.0772 -2.4799 0.9785
2.1538 4.1469 -2.3956 0.9792
1.7178 4.1799 -2.3168 0.9799
1.2965 4.1796 -2.2435 0.9805
0.5039 4.0909 -2.1131 0.9816
0.1341 4.0090 -2.0564 0.9821
-0.2176 3.9027 -2.0039 0.9826
-0.5542 3.8000 -1.9688 0.9829
-0.9221 3.8694 -2.0393 0.9823
-1.8122 3.3068 -1.9332 0.9832
-2.0708 3.0900 -1.9070 0.9834
-2.3109 2.8602 -1.8852 0.9836
-2.5325 2.6186 -1.8676 0.9838
-2.7357 2.3656 -1.8542 0.9839
-2.9207 2.1022 -1.8449 0.9840
-3.0874 1.8286 -1.8396 0.9840
-3.2357 1.5456 -1.8384 0.9840
-3.4766 0.9523 -1.8480 0.9839
-2.1765 0.0000 -1.1619 0.9902
-2.1789 -0.3925 -1.1819 0.9900
-2.2033 -1.0524 -1.3035 0.9890
-3.4035 -2.0159 -2.1117 0.9822
-3.2881 -2.3666 -2.1627 0.9818
-3.1440 -2.7188 -2.2189 0.9813
-2.7634 -3.4204 -2.3474 0.9803
-1.9374 -4.4309 -2.5816 0.9783
1.8825 -6.0687 -3.3920 0.9716
2.4899 -6.0589 -3.4970 0.9707
3.7206 -5.8281 -3.6912 0.9691
5.4315 -4.9125 -3.9096 0.9673
6.9341 -2.7597 -3.9841 0.9667
7.1056 -2.1177 -3.9581 0.9669
7.0875 -0.1580 -3.7846 0.9684
6.0227 2.0913 -3.4035 0.9715
5.2052 2.9284 -3.1883 0.9733
4.4670 3.0664 -2.8925 0.9757
3.5935 3.5537 -2.6980 0.9773
2.7126 3.8587 -2.5180 0.9788
2.2805 3.9499 -2.4348 0.9795
1.8581 4.0042 -2.3565 0.9802
0.3057 3.9117 -2.0946 0.9824
-0.0426 3.8234 -2.0412 0.9828
-0.3763 3.7409 -2.0071 0.9831
-1.0481 3.6653 -2.0351 0.9829
-1.3453 3.4931 -1.9983 0.9832
-1.6242 3.3053 -1.9660 0.9834
-1.8849 3.1031 -1.9382 0.9837
-2.5588 2.4201 -1.8802 0.9842
-3.0719 1.6392 -1.8588 0.9843
-2.1735 0.0969 -1.1615 0.9902
-2.1765 -0.0971 -1.1631 0.9902
-2.1912 -0.7066 -1.2291 0.9896
-2.2000 -0.9329 -1.2757 0.9892
-2.2448 -1.1978 -1.3583 0.9885
-3.3493 -2.1910 -2.1366 0.9820
-3.0607 -2.8948 -2.2490 0.9811
-2.3907 -3.9356 -2.4583 0.9793
-2.0977 -4.2687 -2.5391 0.9787
-0.0629 -5.6508 -3.0168 0.9747
0.4557 -5.8321 -3.1229 0.9738
1.5849 -6.0496 -3.3385 0.9720
2.1846 -6.0721 -3.4449 0.9712
2.7975 -6.0285 -3.5479 0.9703
3.4142 -5.9136 -3.6453 0.9695
4.0236 -5.7236 -3.7349 0.9688
4.6131 -5.4564 -3.8144 0.9681
6.1317 -4.2092 -3.9704 0.9668
6.5131 -3.6642 -3.9894 0.9667
6.8150 -3.0707 -3.9904 0.9667
7.1576 -1.7902 -3.9387 0.9671
7.1943 -1.1313 -3.8878 0.9675
7.0116 0.1562 -3.7440 0.9687
6.5327 1.3278 -3.5587 0.9702
6.2046 1.8491 -3.4562 0.9711
5.4207 2.7392 -3.2423 0.9728
4.8143 2.9984 -3.0278 0.9746
4.2517 3.2063 -2.8428 0.9761
3.8142 3.4497 -2.7454 0.9770
3.3724 3.6462 -2.6514 0.9777
2.9314 3.7984 -2.5614 0.9785
2.4955 3.9091 -2.4758 0.9792
2.0679 3.9814 -2.3951 0.9799
0.8592 3.9981 -2.1831 0.9816
-0.2103 3.7715 -2.0165 0.9830
-1.4871 3.4011 -1.9816 0.9833
-1.7569 3.2059 -1.9516 0.9836
-2.0085 2.9969 -1.9259 0.9838
-2.2421 2.7750 -1.9045 0.9840
-2.6555 2.2963 -1.8742 0.9842
-3.2676 1.2169 -1.8614 0.9843
-3.3751 0.9245 -1.8681 0.9843
-2.2057 0.3974 -1.1965 0.9899
-2.1547 0.1925 -1.1549 0.9902
-2.1250 -0.3829 -1.1992 0.9902
-2.1288 -0.5831 -1.2259 0.9900
-2.1317 -0.7938 -1.2634 0.9896
-2.1374 -1.0210 -1.3156 0.9892
-3.0368 -2.6261 -2.2298 0.9818
-2.8657 -2.9631 -2.2894 0.9813
-2.6639 -3.2972 -2.3543 0.9808
-2.4301 -3.6260 -2.4243 0.9802
-2.1628 -3.9466 -2.4995 0.9796
-0.2952 -5.2951 -2.9454 0.9760
0.6924 -5.6217 -3.1459 0.9744
2.3587 -5.7394 -3.4463 0.9720
2.9379 -5.6563 -3.5400 0.9713
4.0766 -5.2821 -3.7058 0.9699
4.6137 -4.9882 -3.7738 0.9694
5.1133 -4.6247 -3.8292 0.9689
5.5638 -4.1959 -3.8703 0.9686
6.2757 -3.1712 -3.9052 0.9683
6.6844 -1.9922 -3.8739 0.9686
6.7654 -1.3752 -3.8343 0.9689
6.7644 -0.7567 -3.7804 0.9693
6.6849 -0.1490 -3.7137 0.9699
6.5322 0.4373 -3.6361 0.9705
5.7132 1.9838 -3.3590 0.9727
5.3490 2.4101 -3.2584 0.9735
4.9538 2.7869 -3.1568 0.9743
4.4349 3.0444 -2.9876 0.9757
3.8514 3.1833 -2.7751 0.9774
3.4363 3.3982 -2.6841 0.9781
2.6016 3.7007 -2.5124 0.9795
2.1901 3.7933 -2.4327 0.9802
