ply
format ascii 1.0
element vertex 1583
property float32 x
property float32 y
property float32 z
property float32 I
end_header
-7.2024 13.1427 -0.1246 0.9418
-8.5372 10.5667 -0.1129 0.9471
-9.1194 9.4294 -0.1090 0.9489
-10.1814 7.3281 -0.1043 0.9511
-11.1706 5.3358 -0.1029 0.9517
-11.6577 4.3414 -0.1034 0.9515
-12.4403 0.0000 -0.3102 0.9514
-12.9159 -1.1542 -0.3234 0.9494
-13.4356 -2.4206 -0.3405 0.9468
-14.0025 -3.8357 -0.3621 0.9436
-3.5786 -2.5757 -0.1100 0.9825
-3.2567 -2.8162 -0.1074 0.9829
-3.0087 -3.1110 -0.1079 0.9828
-5.3842 13.9797 -0.3736 0.9418
-6.9064 11.3694 -0.3318 0.9482
-7.5449 10.2400 -0.3172 0.9504
-9.1685 7.2403 -0.2913 0.9543
-9.6478 6.3113 -0.2875 0.9549
-10.1094 5.3945 -0.2858 0.9552
-11.0042 3.5484 -0.2883 0.9548
-11.4494 2.5941 -0.2928 0.9541
-12.3134 0.5491 -0.3074 0.9519
-13.1708 -1.7713 -0.3314 0.9482
-4.4871 -2.3945 -0.1268 0.9799
-3.4081 -2.6914 -0.1083 0.9828
-2.9020 -3.2814 -0.1092 0.9826
0.8838 4.1127 -0.1049 0.9833
-6.5606 11.9716 -0.3404 0.9468
-9.4108 6.7735 -0.2892 0.9547
-11.2264 3.0752 -0.2903 0.9545
-12.3339 -2.2221 -0.5211 0.9511
-12.7877 -3.5029 -0.5513 0.9483
-13.2781 -4.9448 -0.5891 0.9449
-4.1219 -2.4414 -0.1992 0.9810
-3.6037 -2.5938 -0.1846 0.9824
-3.2777 -2.8344 -0.1802 0.9828
-3.0307 -3.1337 -0.1813 0.9827
-2.8461 -3.5227 -0.1883 0.9820
-2.7889 -4.1613 -0.2083 0.9801
-4.9042 12.7336 -0.5674 0.9468
-5.6733 11.5449 -0.5349 0.9498
-6.3542 10.4604 -0.5089 0.9522
-6.9661 9.4544 -0.4883 0.9541
-8.0380 7.6023 -0.4600 0.9567
-8.9721 5.8693 -0.4458 0.9580
-9.8234 4.1655 -0.4437 0.9582
-10.2314 3.2992 -0.4470 0.9579
-11.6986 -0.5217 -0.4869 0.9542
-12.1171 -1.6296 -0.5084 0.9522
-12.5570 -2.8451 -0.5353 0.9498
-13.0272 -4.2007 -0.5691 0.9467
-3.8314 -2.5064 -0.1904 0.9818
-6.6677 9.9489 -0.4980 0.9532
-7.2508 8.9745 -0.4797 0.9549
-7.7856 8.0503 -0.4657 0.9562
-10.4330 2.8579 -0.4498 0.9576
-11.2372 1.0041 -0.4691 0.9558
-10.7214 0.0000 -0.6245 0.9580
-11.0409 -0.9866 -0.6456 0.9566
-12.1493 -4.5245 -0.7551 0.9494
-3.6421 -2.6215 -0.2614 0.9822
-3.3008 -2.8543 -0.2542 0.9827
-3.0530 -3.1568 -0.2558 0.9826
-2.8718 -3.5545 -0.2662 0.9819
-2.8409 -4.2389 -0.2972 0.9798
-1.4728 14.6403 -0.8570 0.9427
-2.5405 13.2534 -0.7860 0.9474
-4.5023 11.6901 -0.7296 0.9510
-5.2330 10.6488 -0.6911 0.9536
-5.8831 9.6850 -0.6600 0.9556
-6.4691 8.7799 -0.6352 0.9572
-7.0033 7.9187 -0.6157 0.9585
-8.7922 4.6917 -0.5804 0.9609
-9.5592 3.0824 -0.5850 0.9606
-10.2861 1.3833 -0.6045 0.9593
-11.2184 -1.5088 -0.6593 0.9557
-11.5801 -2.6237 -0.6916 0.9535
-11.9550 -3.8550 -0.7316 0.9509
-12.3499 -5.2368 -0.7813 0.9477
-3.1628 -2.9914 -0.2536 0.9827
-2.9531 -3.3392 -0.2596 0.9823
0.8860 4.1230 -0.2456 0.9832
-3.2059 13.4527 -0.8055 0.9461
-4.1003 12.2471 -0.7522 0.9496
-5.5670 10.1585 -0.6747 0.9546
-6.1833 9.2261 -0.6469 0.9565
-6.7420 8.3447 -0.6248 0.9579
-7.7284 6.6830 -0.5951 0.9599
-8.1720 5.8818 -0.5864 0.9605
-8.5906 5.0883 -0.5815 0.9608
-10.1066 1.8208 -0.5981 0.9597
-10.4649 0.9351 -0.6119 0.9588
-10.0538 0.0000 -0.7534 0.9605
-10.5926 -1.9083 -0.8066 0.9577
-10.8931 -2.9839 -0.8464 0.9557
-11.5056 -5.4958 -0.9555 0.9501
-4.2324 -2.5069 -0.3686 0.9805
-2.9000 -3.5895 -0.3458 0.9817
0.7124 4.2232 -0.3210 0.9830
-1.3360 13.2807 -1.0003 0.9479
-2.3224 12.1158 -0.9245 0.9517
-3.3743 11.8008 -0.9198 0.9520
-4.8554 9.8804 -0.8250 0.9568
-7.4582 5.8897 -0.7122 0.9626
-7.8674 5.1467 -0.7045 0.9630
-8.2531 4.4040 -0.7010 0.9632
-8.6191 3.6548 -0.7016 0.9631
-9.6309 1.2952 -0.7282 0.9618
-9.9486 0.4436 -0.7463 0.9608
-11.3499 -4.8128 -0.9239 0.9518
-11.6642 -6.2242 -0.9908 0.9483
-3.9180 -2.5631 -0.3509 0.9814
-3.4958 -2.7606 -0.3338 0.9823
-2.9794 -3.3690 -0.3370 0.9821
-2.8584 -3.8795 -0.3611 0.9809
0.8883 4.1336 -0.3168 0.9832
-1.8494 12.6804 -0.9603 0.9499
-2.7602 11.5824 -0.8923 0.9534
-3.7803 11.2913 -0.8923 0.9534
-4.5183 10.3336 -0.8452 0.9558
-5.7637 8.6001 -0.7758 0.9593
-6.7897 7.0205 -0.7319 0.9616
-7.2434 6.2636 -0.7176 0.9623
-7.6660 5.5177 -0.7078 0.9628
-8.0630 4.7757 -0.7023 0.9631
-9.1384 2.5033 -0.7101 0.9627
-9.4692 1.7060 -0.7210 0.9621
-9.7907 0.8749 -0.7366 0.9613
-4.4480 -0.0000 -0.4078 0.9823
-9.6366 -0.8611 -0.8870 0.9619
-9.8919 -1.7821 -0.9215 0.9604
-10.1395 -2.7775 -0.9638 0.9587
-10.6146 -5.0702 -1.0784 0.9538
-4.3370 -2.5688 -0.4621 0.9800
-3.7218 -2.6788 -0.4204 0.9817
-3.1166 -3.2226 -0.4110 0.9822
-2.9451 -3.6452 -0.4296 0.9814
0.7097 4.2072 -0.3912 0.9830
1.1325 14.4924 -1.3327 0.9433
-1.2222 12.1496 -1.1195 0.9521
-2.1384 11.1559 -1.0414 0.9554
-3.1225 10.9201 -1.0413 0.9554
-5.6590 7.6805 -0.8746 0.9624
-6.1500 6.9539 -0.8511 0.9634
-6.6016 6.2438 -0.8330 0.9642
-7.0199 5.5436 -0.8200 0.9647
-7.4097 4.8472 -0.8118 0.9651
-7.7752 4.1490 -0.8079 0.9652
-8.1196 3.4430 -0.8085 0.9652
-8.7562 1.9839 -0.8231 0.9646
-4.2496 0.5715 -0.3931 0.9829
-9.7653 -1.3133 -0.9033 0.9612
-10.0166 -2.2695 -0.9416 0.9596
-10.4981 -4.4516 -1.0454 0.9552
-10.7295 -5.7254 -1.1149 0.9523
-3.9701 -2.5971 -0.4349 0.9811
-3.0202 -3.4151 -0.4180 0.9819
-0.7074 12.6872 -1.1649 0.9502
-5.3966 8.0523 -0.8887 0.9618
-5.9098 7.3147 -0.8621 0.9629
-6.3803 6.5972 -0.8414 0.9638
-6.8146 5.8928 -0.8259 0.9645
-7.2181 5.1953 -0.8153 0.9649
-7.5953 4.4987 -0.8093 0.9652
-7.9498 3.7973 -0.8077 0.9652
-8.2848 3.0853 -0.8105 0.9651
-8.6028 2.3566 -0.8177 0.9648
-4.9080 0.8842 -0.4572 0.9802
-9.0581 -0.8094 -0.9864 0.9641
-9.2764 -1.6712 -1.0224 0.9628
-9.6729 -3.6022 -1.1196 0.9593
-3.7760 -2.7178 -0.5046 0.9815
0.7089 4.2025 -0.4623 0.9830
1.0279 13.1533 -1.4310 0.9483
-1.1260 11.1933 -1.2202 0.9557
-2.7280 9.5404 -1.0763 0.9609
-3.6106 9.3747 -1.0897 0.9604
-4.2409 8.6300 -1.0430 0.9621
-4.8088 7.9163 -1.0047 0.9634
-5.3243 7.2262 -0.9736 0.9645
-5.7954 6.5529 -0.9489 0.9654
-6.2286 5.8910 -0.9299 0.9661
-7.0012 4.5800 -0.9074 0.9669
-7.3483 3.9212 -0.9034 0.9670
-7.6735 3.2539 -0.9041 0.9670
-4.7637 1.0793 -0.5298 0.9805
-3.7517 0.5045 -0.4106 0.9849
-3.9257 -0.1751 -0.4262 0.9843
-9.1689 -1.2331 -1.0035 0.9635
-9.5789 -3.0888 -1.0917 0.9603
-9.9321 -5.3000 -1.2211 0.9557
-4.0469 -2.6473 -0.5245 0.9807
-3.5719 -2.8207 -0.4937 0.9819
-3.2715 -3.0942 -0.4884 0.9820
-2.9932 -4.0624 -0.5473 0.9799
0.8929 4.1551 -0.4610 0.9830
-0.6496 11.6504 -1.2656 0.9541
-2.3665 9.9304 -1.1073 0.9598
-3.2682 9.7615 -1.1166 0.9594
-4.5320 8.2698 -1.0229 0.9628
-6.0164 6.2209 -0.9387 0.9658
-7.5135 3.5889 -0.9032 0.9671
-7.8287 2.9154 -0.9061 0.9669
-3.9948 0.7197 -0.4403 0.9838
-3.7700 -0.3369 -0.4743 0.9849
-8.7311 -1.5730 -1.1118 0.9649
-8.9017 -2.4384 -1.1566 0.9635
-9.0537 -3.3717 -1.2107 0.9618
-9.1854 -4.3875 -1.2757 0.9598
-4.8164 -2.8528 -0.7015 0.9777
-3.8466 -2.7687 -0.5939 0.9811
-3.4595 -2.9916 -0.5731 0.9817
-3.1948 -3.3034 -0.5759 0.9816
-3.0564 -3.7830 -0.6095 0.9806
3.6836 14.0601 -1.8214 0.9431
0.7081 4.1978 -0.5335 0.9830
0.9406 12.0370 -1.5130 0.9525
-0.1244 11.1725 -1.4002 0.9560
-1.0436 10.3739 -1.3066 0.9588
-2.5503 8.9191 -1.1625 0.9633
-3.9873 8.1139 -1.1329 0.9642
-4.5311 7.4593 -1.0937 0.9654
-5.8943 5.5748 -1.0167 0.9678
-6.9646 3.7164 -0.9893 0.9687
-3.6310 -0.1619 -0.4555 0.9855
-9.1223 -3.8682 -1.2417 0.9608
-3.6333 -2.8692 -0.5802 0.9815
-3.3123 -3.1327 -0.5713 0.9818
0.8952 4.1660 -0.5340 0.9830
0.3877 11.5950 -1.4539 0.9543
-1.4573 9.9924 -1.2655 0.9601
-2.2082 9.2662 -1.1937 0.9623
-2.8732 8.5819 -1.1341 0.9642
-5.2570 6.5067 -1.0483 0.9668
-5.6906 5.8841 -1.0258 0.9675
-6.4594 4.6493 -0.9974 0.9684
-7.1213 3.4016 -0.9890 0.9687
-7.6963 2.1083 -1.0000 0.9683
-3.3944 -0.0000 -0.4828 0.9864
-8.2445 -1.4853 -1.1916 0.9667
-8.3867 -2.2974 -1.2368 0.9655
-8.5069 -3.1680 -1.2912 0.9640
-8.6028 -4.1092 -1.3561 0.9622
-8.6707 -5.1357 -1.4334 0.9601
-3.2555 -3.3662 -0.6661 0.9813
4.9332 13.7120 -2.0727 0.9428
3.3409 12.7519 -1.8750 0.9481
0.8667 11.0918 -1.5825 0.9560
-0.1153 10.3558 -1.4731 0.9590
-0.9721 9.6635 -1.3814 0.9615
-2.3937 8.3715 -1.2385 0.9654
-3.1862 8.2729 -1.2610 0.9648
-3.7614 7.6543 -1.2131 0.9661
-4.7581 6.4578 -1.1409 0.9681
-5.1931 5.8720 -1.1150 0.9688
-5.9616 4.7078 -1.0805 0.9698
-6.3022 4.1227 -1.0712 0.9700
-4.1431 0.9387 -0.6042 0.9830
-3.4470 -0.1537 -0.4908 0.9862
-3.6292 -0.4881 -0.5209 0.9853
-8.3182 -1.8847 -1.2131 0.9661
-8.5581 -3.6290 -1.3222 0.9631
-4.2765 -2.7976 -0.7269 0.9796
-3.6993 -2.9214 -0.6705 0.9811
-3.3765 -3.1935 -0.6610 0.9814
-8.4556 -11.4764 -2.0276 0.9440
4.1005 13.2187 -1.9686 0.9456
0.3583 10.7174 -1.5253 0.9576
-1.3605 9.3282 -1.3408 0.9626
-2.7005 8.0661 -1.2099 0.9662
-3.4811 7.9615 -1.2359 0.9655
-4.5258 6.7531 -1.1563 0.9677
-5.3972 5.5807 -1.1043 0.9691
-6.7666 3.2321 -1.0666 0.9702
-3.3525 0.2996 -0.4787 0.9865
-3.2915 -0.0000 -0.5241 0.9868
-3.3916 -0.3031 -0.5422 0.9863
-7.9260 -2.1712 -1.3086 0.9673
-8.0874 -3.8630 -1.4272 0.9643
-3.5887 -3.1033 -0.7555 0.9810
-3.3314 -3.4447 -0.7631 0.9808
-3.2655 -4.0418 -0.8274 0.9792
-7.5825 -11.3138 -2.1687 0.9463
4.4711 12.4277 -2.1031 0.9479
3.0553 11.6617 -1.9196 0.9523
-0.1075 9.6472 -1.5363 0.9617
-0.9096 9.0415 -1.4470 0.9639
-1.6203 8.4528 -1.3705 0.9657
-2.2546 7.8849 -1.3059 0.9673
-4.0594 6.6827 -1.2451 0.9688
-4.5163 6.1296 -1.2124 0.9696
-4.9350 5.5801 -1.1862 0.9703
-5.3196 5.0313 -1.1659 0.9708
-6.0006 3.9254 -1.1418 0.9714
-3.9744 0.9005 -0.6489 0.9836
-3.2540 0.4376 -0.5228 0.9868
-7.9763 -2.5721 -1.3345 0.9666
-8.0575 -3.4167 -1.3936 0.9652
-8.1096 -4.3275 -1.4637 0.9635
-4.5070 -2.9484 -0.8576 0.9784
-3.4445 -3.2578 -0.7550 0.9810
-7.7155 -10.4716 -2.0712 0.9487
5.2746 12.8348 -2.2096 0.9453
0.9041 4.2072 -0.6852 0.9827
-0.5208 9.3417 -1.4899 0.9628
-1.2753 8.7442 -1.4071 0.9648
-2.5469 7.6071 -1.2774 0.9680
-3.2903 7.5251 -1.3078 0.9673
-3.8149 6.9614 -1.2641 0.9684
-4.2929 6.4055 -1.2279 0.9692
-4.7301 5.8546 -1.1985 0.9700
-5.1313 5.3057 -1.1754 0.9705
-5.5004 4.7564 -1.1579 0.9710
-6.1544 3.6453 -1.1390 0.9714
-4.5041 1.2338 -0.7436 0.9813
-3.2817 -0.2933 -0.5810 0.9867
-7.5112 -2.0575 -1.3732 0.9689
-7.5841 -2.8244 -1.4270 0.9677
-7.6280 -3.6436 -1.4906 0.9662
-7.6388 -4.5245 -1.5655 0.9646
-4.2024 -3.0247 -0.9130 0.9792
-3.6860 -3.1874 -0.8592 0.9804
-3.4130 -3.5290 -0.8657 0.9803
-7.2203 -8.9367 -2.0258 0.9544
-6.5674 -11.9840 -2.4096 0.9460
7.3306 12.6968 -2.5852 0.9422
5.5728 12.0091 -2.3344 0.9476
2.8134 10.7387 -1.9574 0.9559
0.7058 4.1839 -0.7482 0.9829
-0.1005 9.0264 -1.5917 0.9640
-2.1300 7.4490 -1.3661 0.9690
-3.3761 6.8702 -1.3498 0.9694
-3.8571 6.3496 -1.3100 0.9703
-4.2968 5.8317 -1.2773 0.9710
-4.7001 5.3145 -1.2510 0.9716
-5.7252 3.7453 -1.2063 0.9726
-6.0139 3.2091 -1.2020 0.9727
-6.5224 2.1032 -1.2084 0.9725
-3.8237 0.8663 -0.6913 0.9842
-3.1778 0.4274 -0.5654 0.9871
-3.3507 -0.4506 -0.5961 0.9864
-7.4648 -1.6913 -1.3496 0.9694
-7.5511 -2.4349 -1.3990 0.9683
-7.6099 -3.2269 -1.4575 0.9670
-7.6378 -4.0757 -1.5265 0.9654
-7.6303 -4.9916 -1.6078 0.9636
-3.8961 -3.0768 -0.8754 0.9800
-3.3580 -3.7970 -0.8938 0.9796
-7.0947 -9.6290 -2.1089 0.9526
-6.7714 -11.1473 -2.2998 0.9484
-6.3313 -12.8839 -2.5313 0.9434
4.7997 11.6794 -2.2265 0.9500
3.4262 11.0448 -2.0390 0.9541
-0.4883 8.7576 -1.5466 0.9650
-1.1998 8.2265 -1.4659 0.9668
-1.8363 7.7054 -1.3967 0.9683
-2.4089 7.1952 -1.3379 0.9697
-3.6220 6.6094 -1.3289 0.9699
-4.0818 6.0905 -1.2928 0.9707
-4.5028 5.5732 -1.2634 0.9713
-4.8892 5.0554 -1.2401 0.9718
-5.8726 3.4783 -1.2035 0.9727
-6.1495 2.9374 -1.2017 0.9727
-6.4036 2.3847 -1.2049 0.9726
-3.1509 0.2816 -0.5578 0.9872
-3.1014 -0.0000 -0.6002 0.9874
-3.1775 -0.2840 -0.6174 0.9871
-3.3117 -0.5967 -0.6512 0.9864
-7.1907 -2.6779 -1.4849 0.9692
-3.8073 -3.2923 -0.9741 0.9797
-3.5650 -3.6862 -0.9924 0.9793
-6.6994 -8.2920 -2.0630 0.9575
-6.4052 -9.5572 -2.2264 0.9542
-6.0115 -10.9696 -2.4207 0.9503
-5.4924 -12.5616 -2.6531 0.9457
8.4454 12.0138 -2.8419 0.9419
6.6332 11.4889 -2.5673 0.9474
5.0896 10.9678 -2.3399 0.9519
2.6060 9.9468 -1.9899 0.9590
0.7001 8.9594 -1.7391 0.9640
-0.8050 8.0023 -1.5564 0.9678
-2.5388 6.5920 -1.3670 0.9716
-3.6729 6.0465 -1.3691 0.9716
-4.0966 5.5599 -1.3365 0.9723
-4.4853 5.0717 -1.3102 0.9728
-5.7495 3.0680 -1.2611 0.9738
-6.0030 2.5455 -1.2618 0.9738
-6.2341 2.0102 -1.2676 0.9737
-3.6833 0.8345 -0.7308 0.9847
-3.2339 -0.4349 -0.6315 0.9868
-7.0976 -1.6081 -1.4083 0.9708
-7.2072 -3.0561 -1.5149 0.9686
-4.0801 -3.2220 -1.0061 0.9790
-3.6724 -4.1525 -1.0727 0.9777
-6.2222 -10.2432 -2.3193 0.9523
7.5017 11.7512 -2.6979 0.9448
5.8315 11.2277 -2.4483 0.9498
1.1335 9.2032 -1.7944 0.9629
0.2915 8.7176 -1.6879 0.9651
-0.4594 8.2393 -1.5969 0.9669
-1.1323 7.7635 -1.5183 0.9685
-1.7374 7.2907 -1.4504 0.9699
-2.2844 6.8231 -1.3924 0.9711
-3.4467 6.2895 -1.3879 0.9712
-3.8893 5.8033 -1.3519 0.9719
-4.2951 5.3161 -1.3226 0.9725
-4.6676 4.8263 -1.2993 0.9730
-5.0100 4.3324 -1.2818 0.9734
-5.3249 3.8326 -1.2696 0.9736
-5.6140 3.3252 -1.2627 0.9738
-4.1640 1.1406 -0.8355 0.9826
-3.3306 0.6000 -0.6549 0.9863
-6.7936 -1.8610 -1.4850 0.9716
-6.8340 -2.5450 -1.5374 0.9706
-6.8434 -3.2688 -1.5989 0.9695
-6.8179 -4.0382 -1.6706 0.9681
-6.7526 -4.8602 -1.7540 0.9666
-6.4759 -6.6960 -1.9638 0.9626
-6.2463 -7.7312 -2.0954 0.9602
-5.9398 -8.8628 -2.2493 0.9573
-5.0234 -11.4888 -2.6435 0.9500
-4.3626 -13.0305 -2.8969 0.9454
6.0535 10.4850 -2.5524 0.9517
3.4816 9.6773 -2.1682 0.9588
2.4259 9.2596 -2.0180 0.9616
0.6575 8.4136 -1.7792 0.9661
-0.7608 7.5627 -1.6024 0.9694
-1.3669 7.1311 -1.5307 0.9708
-1.9159 6.7005 -1.4692 0.9719
-2.4241 6.2941 -1.4219 0.9728
-3.9130 5.3108 -1.3907 0.9734
-4.2881 4.8487 -1.3646 0.9739
-4.6327 4.3816 -1.3443 0.9743
-4.9493 3.9084 -1.3295 0.9745
-5.5057 2.9380 -1.3156 0.9748
-5.9686 1.9246 -1.3221 0.9747
-3.5520 0.8047 -0.7678 0.9852
-3.0346 0.4081 -0.6455 0.9876
-3.1545 -0.4243 -0.6710 0.9871
-6.8175 -2.1984 -1.5101 0.9711
-6.8428 -2.9016 -1.5669 0.9701
-6.7906 -4.4422 -1.7107 0.9674
-6.7032 -5.2934 -1.8007 0.9657
-6.1036 -8.2838 -2.1692 0.9588
-5.2975 -10.7802 -2.5323 0.9521
-4.7132 -12.2376 -2.7647 0.9478
-3.9665 -13.8718 -3.0417 0.9427
5.3436 10.2882 -2.4441 0.9537
2.9374 9.4692 -2.0901 0.9603
1.0624 8.6259 -1.8322 0.9651
0.2742 8.2013 -1.7300 0.9670
-1.0715 7.3467 -1.5652 0.9701
-1.6481 6.9156 -1.4988 0.9714
-2.8211 6.4521 -1.4846 0.9716
-3.2866 5.9974 -1.4418 0.9724
-5.3757 3.1841 -1.3172 0.9748
-5.6299 2.6892 -1.3154 0.9748
-4.0000 1.0957 -0.8744 0.9832
-2.9810 0.2664 -0.6310 0.9878
-3.0430 -0.2720 -0.6973 0.9875
-3.1642 -0.5701 -0.7338 0.9869
-6.5088 -2.4239 -1.5853 0.9719
-6.5054 -3.1074 -1.6455 0.9709
-6.2644 -5.4171 -1.8903 0.9666
-6.0874 -6.2943 -1.9986 0.9647
-5.8481 -7.2383 -2.1239 0.9625
-5.5350 -8.2588 -2.2692 0.9600
4.3310 9.3330 -2.3484 0.9587
3.2395 9.0042 -2.1841 0.9615
2.2681 8.6573 -2.0427 0.9639
0.7074 4.1936 -0.9707 0.9827
-0.0841 7.5504 -1.7234 0.9695
-3.3498 5.5146 -1.4727 0.9739
-3.7441 5.0815 -1.4407 0.9744
-4.1063 4.6431 -1.4148 0.9749
-4.4391 4.1985 -1.3946 0.9752
-5.0246 3.2870 -1.3704 0.9757
-5.2804 2.8177 -1.3661 0.9757
-5.5129 2.3377 -1.3668 0.9757
-2.9625 0.3984 -0.6823 0.9878
-2.9994 -0.1337 -0.6853 0.9878
-6.4986 -2.0955 -1.5585 0.9724
-6.5112 -2.7610 -1.6142 0.9714
-6.4907 -3.4636 -1.6792 0.9703
-5.7016 -7.7383 -2.1939 0.9613
-4.3242 -11.2277 -2.7461 0.9518
-3.6093 -12.6227 -2.9965 0.9476
-2.7152 -14.1651 -3.2919 0.9425
9.4488 10.2158 -3.1761 0.9445
7.7364 10.0242 -2.8901 0.9494
6.2412 9.7767 -2.6474 0.9535
4.9283 9.4886 -2.4404 0.9571
3.7690 9.1713 -2.2632 0.9601
2.7400 8.8327 -2.1108 0.9628
0.9993 8.1133 -1.8658 0.9670
-1.5668 6.5748 -1.5427 0.9727
-2.0681 6.1772 -1.4868 0.9736
-3.1398 5.7294 -1.4912 0.9736
-4.2762 4.4216 -1.4040 0.9751
-5.1554 3.0536 -1.3676 0.9757
-5.3995 2.5791 -1.3658 0.9757
-5.6208 2.0932 -1.3690 0.9757
-3.1659 0.5703 -0.7342 0.9869
-2.9882 -0.2671 -0.7374 0.9877
-6.1936 -1.6966 -1.5785 0.9739
-6.0592 -4.3612 -1.8350 0.9697
-5.9257 -5.1242 -1.9256 0.9682
-5.7404 -5.9356 -2.0296 0.9666
-5.4951 -6.8014 -2.1492 0.9646
-4.7809 -8.7241 -2.4453 0.9599
-4.2837 -9.7972 -2.6283 0.9569
9.3933 9.2892 -3.2472 0.9470
7.8048 9.2315 -2.9714 0.9514
6.3967 9.0994 -2.7340 0.9552
5.1446 8.9107 -2.5291 0.9585
4.0275 8.6790 -2.3518 0.9614
3.0273 8.4145 -2.1981 0.9638
2.1286 8.1248 -2.0645 0.9660
0.5854 7.4913 -1.8470 0.9695
-1.2355 6.4457 -1.6132 0.9733
-2.7930 5.6836 -1.5566 0.9743
-3.2072 5.2798 -1.5185 0.9749
-3.5880 4.8697 -1.4868 0.9754
-4.2597 4.0289 -1.4412 0.9761
-5.2944 2.2450 -1.4136 0.9766
-3.3132 0.7507 -0.8350 0.9861
-2.8899 0.3886 -0.7167 0.9881
-2.9494 -0.1315 -0.7257 0.9879
-3.0389 -0.4087 -0.7537 0.9874
-3.1571 -0.7153 -0.7957 0.9868
-6.1770 -3.2962 -1.7210 0.9716
-5.9985 -4.7369 -1.8787 0.9690
-5.6258 -6.3613 -2.0874 0.9656
-4.9915 -8.2172 -2.3632 0.9612
8.5749 9.2710 -3.1041 0.9493
5.7526 9.0112 -2.6278 0.9569
3.5138 8.5504 -2.2722 0.9626
1.7132 7.9723 -2.0043 0.9670
0.2449 7.3245 -1.8014 0.9703
-0.3893 6.9825 -1.7190 0.9716
-0.9664 6.6263 -1.6460 0.9728
-1.9736 5.8949 -1.5280 0.9747
-2.5723 5.8832 -1.5783 0.9739
-3.0045 5.4825 -1.5367 0.9746
-3.4016 5.0756 -1.5018 0.9751
-4.1023 4.2418 -1.4505 0.9760
-4.4105 3.8139 -1.4332 0.9763
-4.6929 3.3778 -1.4213 0.9765
-4.9510 2.9325 -1.4144 0.9766
-5.1856 2.4770 -1.4126 0.9766
-5.3977 2.0101 -1.4158 0.9766
-3.0843 0.5557 -0.7703 0.9872
-2.8744 -0.0000 -0.7574 0.9882
-3.0385 -0.5474 -0.8135 0.9873
-5.8566 -3.4689 -1.7936 0.9722
-5.4284 -5.6130 -2.0576 0.9682
-5.1799 -6.4112 -2.1718 0.9665
-3.9869 -9.1183 -2.6223 0.9597
-3.3951 -10.1407 -2.8179 0.9567
-2.6765 -11.2310 -3.0422 0.9534
-1.8073 -12.3920 -3.2998 0.9495
-0.7597 -13.6250 -3.5958 0.9451
10.1066 8.3533 -3.4550 0.9472
5.9112 8.4088 -2.7084 0.9584
4.7814 8.2816 -2.5198 0.9612
-0.0757 6.7963 -1.7909 0.9723
-3.0752 5.0625 -1.5608 0.9758
-3.7819 4.2763 -1.5042 0.9767
-4.0930 3.8711 -1.4845 0.9770
-4.3783 3.4575 -1.4700 0.9772
-4.6391 3.0348 -1.4607 0.9773
-5.0910 2.1588 -1.4571 0.9774
-2.8316 0.3808 -0.7529 0.9883
-2.9007 -0.1293 -0.7651 0.9881
-3.0953 -0.7013 -0.8363 0.9870
-5.9366 -1.9143 -1.6436 0.9745
-5.9298 -2.5145 -1.6972 0.9737
-5.8900 -3.1430 -1.7592 0.9728
-5.8134 -3.8030 -1.8305 0.9717
-5.6955 -4.4977 -1.9123 0.9704
-5.5306 -5.2308 -2.0059 0.9690
-5.3119 -6.0063 -2.1128 0.9674
-4.6784 -7.7018 -2.3745 0.9634
-4.2415 -8.6312 -2.5341 0.9610
-3.7056 -9.6213 -2.7167 0.9582
-3.0530 -10.6772 -2.9262 0.9551
-2.2623 -11.8025 -3.1666 0.9515
-1.3078 -12.9995 -3.4427 0.9474
10.9436 8.2529 -3.6117 0.9449
9.3122 8.4223 -3.3085 0.9494
7.8434 8.4802 -3.0438 0.9533
6.5218 8.4505 -2.8127 0.9568
5.3317 8.3519 -2.6109 0.9598
4.2586 8.1992 -2.4345 0.9625
3.2893 8.0040 -2.2802 0.9648
2.4119 7.7752 -2.1451 0.9669
0.8921 7.2428 -1.9229 0.9703
-0.3701 6.6380 -1.7518 0.9729
-3.2631 4.8689 -1.5444 0.9760
-3.9407 4.0747 -1.4937 0.9768
-4.2388 3.6654 -1.4766 0.9771
-4.5117 3.2473 -1.4648 0.9773
-4.7606 2.8198 -1.4580 0.9774
-4.9865 2.3819 -1.4562 0.9774
-5.1900 1.9328 -1.4593 0.9774
-2.8348 0.2533 -0.7499 0.9883
-2.8279 -0.0000 -0.7957 0.9883
-2.8819 -0.2575 -0.8141 0.9880
-2.9786 -0.5366 -0.8515 0.9875
-5.5895 -3.3106 -1.8278 0.9734
-5.4866 -3.9490 -1.9020 0.9723
-5.3407 -4.6183 -1.9866 0.9711
-4.1972 -7.6589 -2.4572 0.9644
-1.6611 -11.3895 -3.2384 0.9533
9.2073 7.6100 -3.3609 0.9516
7.8542 7.7672 -3.1079 0.9551
6.6181 7.8279 -2.8841 0.9583
5.4908 7.8108 -2.6863 0.9611
3.5270 7.6004 -2.3575 0.9658
2.6728 7.4292 -2.2214 0.9677
0.7091 4.2039 -1.1995 0.9824
0.5267 6.7406 -1.9023 0.9723
-0.0720 6.4675 -1.8198 0.9735
-1.1254 5.8713 -1.6820 0.9755
-1.5887 5.5563 -1.6259 0.9763
-2.5662 5.2220 -1.6371 0.9761
-3.6364 4.1117 -1.5444 0.9774
-4.6945 2.5051 -1.4971 0.9781
-4.9010 2.0782 -1.4978 0.9781
-5.0854 1.6399 -1.5034 0.9780
-2.7751 0.3732 -0.7878 0.9884
-2.8062 0.1251 -0.7903 0.9884
-2.9298 -0.3940 -0.8317 0.9878
-3.2049 -1.0335 -0.9474 0.9861
-5.6263 -3.0023 -1.7943 0.9738
-4.7484 -6.4447 -2.2523 0.9673
-3.4554 -8.9718 -2.7050 0.9608
-2.8321 -9.9045 -2.8984 0.9581
-1.1978 -11.9061 -3.3668 0.9515
8.5158 7.7020 -3.2306 0.9534
7.2220 7.8084 -2.9926 0.9568
6.0414 7.8280 -2.7821 0.9597
3.0901 7.5193 -2.2873 0.9668
2.2741 7.3308 -2.1595 0.9686
1.5284 7.1124 -2.0468 0.9702
0.2210 6.6070 -1.8600 0.9729
-0.3526 6.3232 -1.7818 0.9740
-0.8787 6.0250 -1.7131 0.9750
-1.3619 5.7151 -1.6530 0.9759
-2.3608 5.3992 -1.6580 0.9758
-3.1343 4.6767 -1.5840 0.9769
-3.4759 4.3022 -1.5562 0.9773
-4.3425 3.1255 -1.5053 0.9780
-4.8006 2.2930 -1.4969 0.9781
-3.6501 0.9998 -1.0648 0.9844
-2.9229 0.5266 -0.8356 0.9877
-2.7884 0.2492 -0.7877 0.9884
-2.7824 -0.0000 -0.8330 0.9884
-3.0126 -0.8252 -0.9351 0.9870
-5.4500 -2.0296 -1.7411 0.9760
-5.4137 -2.5859 -1.7962 0.9753
-5.3434 -3.1650 -1.8593 0.9744
-4.6403 -5.7434 -2.2105 0.9696
-3.9525 -7.2125 -2.4623 0.9662
-3.4961 -7.9958 -2.6126 0.9642
1.6291 -13.2269 -3.9898 0.9459
12.5538 5.6565 -4.1223 0.9441
11.1022 6.2459 -3.8137 0.9482
8.4486 6.9829 -3.2814 0.9553
7.2520 7.1716 -3.0534 0.9583
5.1230 7.2876 -2.6669 0.9635
4.1828 7.2447 -2.5045 0.9657
3.3180 7.1501 -2.3599 0.9676
2.5231 7.0131 -2.2313 0.9694
0.7111 4.2157 -1.2799 0.9823
0.5013 6.4149 -1.9264 0.9735
-0.0687 6.1659 -1.8461 0.9746
-1.0768 5.6175 -1.7124 0.9764
-1.5223 5.3239 -1.6577 0.9771
-2.0598 5.3481 -1.7158 0.9764
-2.4647 5.0155 -1.6731 0.9769
-3.1830 4.3201 -1.6065 0.9778
-3.5004 3.9580 -1.5819 0.9782
-4.0593 3.2056 -1.5485 0.9786
-4.5242 2.4142 -1.5352 0.9788
-4.9002 1.5801 -1.5414 0.9787
-2.8066 -0.1252 -0.8411 0.9883
-5.2946 -3.4635 -1.8941 0.9739
-5.1665 -4.0800 -1.9709 0.9729
-4.7721 -5.3959 -2.1565 0.9704
-4.4935 -6.0987 -2.2679 0.9689
-4.1507 -6.8331 -2.3935 0.9672
-3.2350 -8.3995 -2.6947 0.9631
-2.6394 -9.2306 -2.8742 0.9607
-1.9342 -10.0907 -3.0759 0.9580
-0.1323 -11.8749 -3.5553 0.9516
0.9986 -12.7789 -3.8374 0.9479
13.3035 5.2947 -4.2866 0.9420
10.4113 6.4842 -3.6720 0.9501
7.8390 7.0899 -3.1643 0.9568
6.6873 7.2302 -2.9485 0.9597
5.6234 7.2863 -2.7555 0.9623
4.6431 7.2733 -2.5833 0.9646
2.9122 7.0864 -2.2937 0.9685
1.4492 6.7439 -2.0651 0.9716
0.5328 4.3258 -1.3048 0.9820
-0.8400 5.7599 -1.7426 0.9760
-1.3040 5.4721 -1.6841 0.9768
-2.2663 5.1832 -1.6936 0.9767
-3.0142 4.4976 -1.6209 0.9776
-3.6494 3.7735 -1.5716 0.9783
-3.9287 3.3973 -1.5549 0.9785
-4.1841 3.0115 -1.5434 0.9787
-4.6264 2.2098 -1.5350 0.9788
-4.8144 1.7929 -1.5380 0.9788
-3.5598 0.9751 -1.1050 0.9847
-2.8473 0.5130 -0.8662 0.9880
-2.7412 0.2449 -0.8239 0.9886
-2.9540 -0.8092 -0.9727 0.9872
-5.1908 -2.4794 -1.8269 0.9761
-5.1160 -3.0302 -1.8884 0.9754
-4.8527 -4.1962 -2.0374 0.9734
-4.6554 -4.8137 -2.1267 0.9723
-4.4074 -5.4551 -2.2272 0.9710
-4.1023 -6.1210 -2.3401 0.9695
-3.7328 -6.8115 -2.4668 0.9679
-3.2905 -7.5257 -2.6085 0.9661
-1.4271 -9.7848 -3.1404 0.9593
-0.5888 -10.5588 -3.3585 0.9566
0.3787 -11.3272 -3.5994 0.9535
12.6333 4.3868 -4.2471 0.9454
10.1210 5.6940 -3.6880 0.9524
8.9264 6.1277 -3.4386 0.9556
6.7309 6.6563 -3.0064 0.9610
5.7306 6.7781 -2.8189 0.9634
4.7987 6.8261 -2.6499 0.9656
3.1308 6.7466 -2.3621 0.9693
0.7131 4.2277 -1.3616 0.9822
-1.4607 5.1086 -1.6874 0.9779
-3.3730 3.8140 -1.6170 0.9789
-3.6557 3.4576 -1.5980 0.9791
-3.9146 3.0913 -1.5841 0.9793
-4.1505 2.7152 -1.5752 0.9794
-4.3642 2.3288 -1.5710 0.9795
-2.9791 0.6750 -0.9701 0.9873
-2.7186 0.1212 -0.8643 0.9886
-2.7612 -0.1231 -0.8778 0.9885
-2.8254 -0.3800 -0.9054 0.9881
-3.1071 -1.0019 -1.0368 0.9864
-5.0651 -3.3135 -1.9222 0.9749
-4.7600 -4.5020 -2.0807 0.9729
-4.5381 -5.1313 -2.1755 0.9717
-4.2624 -5.7850 -2.2821 0.9703
-3.9261 -6.4632 -2.4016 0.9688
-1.0233 -10.1717 -3.2467 0.9580
-0.1219 -10.9445 -3.4760 0.9551
0.9146 -11.7047 -3.7286 0.9519
2.0968 -12.4308 -4.0036 0.9485
10.7371 5.4257 -3.8206 0.9508
9.5169 5.9271 -3.5607 0.9540
5.2562 6.8106 -2.7322 0.9645
4.3577 6.8262 -2.5720 0.9666
3.5242 6.7853 -2.4282 0.9684
2.0379 6.5692 -2.1844 0.9715
1.3771 6.4085 -2.0817 0.9729
0.5298 4.3014 -1.3764 0.9820
-0.3216 5.7681 -1.8347 0.9760
-0.8043 5.5148 -1.7699 0.9769
-1.2503 5.2467 -1.7129 0.9776
-3.5174 3.6370 -1.6069 0.9790
-3.7881 3.2757 -1.5905 0.9792
-4.0354 2.9045 -1.5790 0.9793
-4.2602 2.5233 -1.5725 0.9794
-4.4629 2.1318 -1.5707 0.9795
-3.4729 0.9513 -1.1436 0.9850
-2.7749 0.4999 -0.8954 0.9882
-2.6951 0.2408 -0.8593 0.9887
-2.6945 0.0000 -0.9053 0.9887
-2.7374 -0.2446 -0.9234 0.9885
-2.8177 -0.5077 -0.9619 0.9880
-2.8971 -0.7936 -1.0092 0.9874
-5.0291 -1.8729 -1.8031 0.9776
-4.9834 -2.3804 -1.8555 0.9770
-4.7910 -3.4483 -1.9833 0.9754
-4.6374 -4.0101 -2.0599 0.9745
-4.1946 -5.1917 -2.2425 0.9722
-0.5469 -9.8084 -3.3006 0.9594
0.3500 -10.4689 -3.5193 0.9568
2.5073 -11.6681 -4.0098 0.9509
5.1523 -12.5374 -4.5542 0.9444
13.3361 3.3356 -4.6187 0.9436
10.3691 4.6721 -3.8211 0.9531
8.2402 5.6566 -3.3581 0.9587
4.5098 6.4153 -2.6347 0.9675
3.7092 6.4245 -2.4924 0.9692
2.9618 6.3825 -2.3640 0.9707
0.7152 4.2399 -1.4447 0.9820
-0.0627 5.6325 -1.8925 0.9765
-1.4390 5.0325 -1.7586 0.9782
-1.9030 4.9412 -1.7790 0.9779
-2.2815 4.6427 -1.7380 0.9784
-2.6317 4.3323 -1.7031 0.9788
-2.9552 4.0108 -1.6739 0.9792
-3.7785 2.9838 -1.6176 0.9799
-4.0070 2.6213 -1.6088 0.9800
-4.2137 2.2485 -1.6047 0.9800
-4.3989 1.8653 -1.6053 0.9800
-4.5626 1.4713 -1.6107 0.9800
-2.6272 0.5952 -0.9050 0.9887
-2.6180 0.3521 -0.8875 0.9889
-2.6762 0.1193 -0.9001 0.9888
-2.7168 -0.1212 -0.9137 0.9886
-5.0101 -2.1245 -1.8284 0.9773
-4.9485 -2.6406 -1.8845 0.9766
-4.3238 -4.8891 -2.1929 0.9728
-4.0518 -5.4992 -2.2950 0.9716
-2.3190 -8.1100 -2.8340 0.9650
0.8430 -10.7885 -3.6358 0.9554
1.9218 -11.3935 -3.8821 0.9524
10.9126 4.3431 -3.9461 0.9516
8.7614 5.4566 -3.4679 0.9574
7.7292 5.8289 -3.2526 0.9600
5.8134 6.2853 -2.8765 0.9645
3.3289 6.4093 -2.4266 0.9700
1.9371 6.2404 -2.1955 0.9728
1.3113 6.1023 -2.0971 0.9740
-0.3079 5.5218 -1.8581 0.9769
-0.7711 5.2874 -1.7953 0.9777
-1.7026 5.0857 -1.8019 0.9776
-2.0959 4.7935 -1.7578 0.9782
-2.7967 4.1730 -1.6878 0.9790
-3.3934 3.5088 -1.6400 0.9796
-4.4834 1.6697 -1.6074 0.9800
-2.6265 0.7195 -0.9150 0.9886
-2.7169 0.4895 -0.9275 0.9884
-2.6500 0.2368 -0.8939 0.9888
-2.6931 -0.2407 -0.9588 0.9886
-2.7668 -0.4985 -0.9969 0.9881
-2.8417 -0.7784 -1.0448 0.9876
-4.8391 -1.8021 -1.8310 0.9783
-4.7899 -2.2879 -1.8822 0.9777
-4.7087 -2.7890 -1.9405 0.9770
-4.5926 -3.3056 -2.0065 0.9763
-4.4384 -3.8380 -2.0806 0.9754
-2.9393 -6.7224 -2.6016 0.9693
-2.4548 -7.3323 -2.7418 0.9677
-1.8934 -7.9451 -2.8961 0.9659
-1.2476 -8.5542 -3.0653 0.9640
-0.5102 -9.1508 -3.2498 0.9619
0.3251 -9.7238 -3.4499 0.9595
1.2635 -10.2589 -3.6651 0.9571
2.3063 -10.7326 -3.8925 0.9545
4.6882 -11.4081 -4.3734 0.9490
13.0287 2.0487 -4.6766 0.9456
11.1477 3.8709 -4.1843 0.9512
8.5797 4.8269 -3.4907 0.9591
6.7380 5.5691 -3.0996 0.9636
4.2445 6.0378 -2.6170 0.9692
3.5013 6.0645 -2.4830 0.9707
2.1495 5.9745 -2.2514 0.9734
0.4363 5.5832 -1.9858 0.9765
-0.0601 5.3951 -1.9132 0.9774
-0.5218 5.1867 -1.8484 0.9781
-0.9508 4.9605 -1.7909 0.9788
-1.4289 4.9974 -1.8430 0.9782
-2.5377 4.1777 -1.7332 0.9795
-2.8514 3.8700 -1.7045 0.9798
-3.4067 3.2221 -1.6627 0.9803
-3.6501 2.8825 -1.6492 0.9805
-3.8716 2.5327 -1.6405 0.9806
-4.0717 2.1727 -1.6365 0.9806
-4.4083 1.4215 -1.6424 0.9805
-2.5615 0.5804 -0.9313 0.9889
-2.6346 0.1175 -0.9351 0.9889
-2.6733 -0.1192 -0.9489 0.9887
-2.7260 -0.3666 -0.9753 0.9884
-2.8093 -0.6365 -1.0214 0.9878
-2.8709 -0.9258 -1.0696 0.9873
-4.7535 -2.5365 -1.9105 0.9774
-4.6552 -3.0453 -1.9725 0.9767
-4.5205 -3.5698 -2.0425 0.9759
-4.3458 -4.1102 -2.1210 0.9749
-2.7062 -7.0267 -2.6700 0.9685
-1.5815 -8.2506 -2.9788 0.9650
-0.8908 -8.8547 -3.1556 0.9629
0.7812 -9.9971 -3.5556 0.9583
4.0581 -11.2796 -4.2506 0.9504
6.6882 -11.5843 -4.7431 0.9448
12.5841 2.5578 -4.5534 0.9470
11.6392 3.4688 -4.3065 0.9498
10.3449 4.1172 -3.9480 0.9538
8.1103 5.0511 -3.3879 0.9603
6.2967 5.6950 -3.0105 0.9646
3.8673 6.0579 -2.5484 0.9700
0.1837 5.4919 -1.9484 0.9769
-0.7402 5.0756 -1.8188 0.9785
-2.0188 4.6171 -1.7868 0.9788
-2.3713 4.3272 -1.7497 0.9793
-2.9991 3.7120 -1.6921 0.9800
-3.9743 2.3540 -1.6379 0.9806
-4.1638 1.9889 -1.6362 0.9806
-4.3321 1.6133 -1.6392 0.9806
-2.6623 0.4796 -0.9592 0.9886
-2.6060 0.2329 -0.9277 0.9890
-4.6610 -1.7358 -1.8572 0.9790
-4.6088 -2.2015 -1.9072 0.9784
-4.5254 -2.6804 -1.9640 0.9778
-4.4080 -3.1727 -2.0280 0.9771
-4.0587 -4.1968 -2.1801 0.9754
-3.8194 -4.7274 -2.2694 0.9744
-3.5311 -5.2688 -2.3684 0.9733
-3.1890 -5.8193 -2.4779 0.9721
-1.7854 -7.4922 -2.8760 0.9676
2.1333 -9.9273 -3.7916 0.9576
3.1767 -10.2408 -4.0038 0.9553
4.2966 -10.4551 -4.2209 0.9529
6.7015 -10.4977 -4.6506 0.9482
13.6836 -2.7813 -5.2141 0.9421
11.0951 2.7750 -4.2706 0.9523
10.2535 3.5604 -4.0530 0.9547
9.0526 4.0789 -3.7076 0.9585
7.9628 4.4798 -3.4117 0.9617
4.0115 5.7064 -2.6047 0.9707
3.3185 5.7477 -2.4783 0.9721
2.6637 5.7401 -2.3630 0.9733
1.4708 5.6138 -2.1670 0.9755
0.4178 5.3465 -2.0025 0.9774
-0.0576 5.1745 -1.9323 0.9781
-0.5011 4.9815 -1.8695 0.9788
-0.9144 4.7704 -1.8137 0.9795
-1.3840 4.8402 -1.8798 0.9787
-2.4492 4.0320 -1.7616 0.9801
-2.7536 3.7372 -1.7334 0.9804
-3.2926 3.1141 -1.6923 0.9808
-3.5288 2.7867 -1.6790 0.9810
-3.7436 2.4490 -1.6705 0.9811
-2.5325 0.3406 -0.9542 0.9891
-2.6307 -0.1173 -0.9833 0.9888
-2.8043 -0.9043 -1.1002 0.9875
-4.5711 -2.4392 -1.9347 0.9781
-4.4711 -2.9249 -1.9951 0.9774
-4.3357 -3.4238 -2.0629 0.9767
-3.6817 -4.9968 -2.3176 0.9738
-2.9962 -6.0971 -2.5368 0.9714
-2.5634 -6.6557 -2.6633 0.9700
1.6427 -9.7386 -3.6879 0.9587
4.8810 -10.5182 -4.3299 0.9517
9.7332 -9.6254 -5.1115 0.9432
12.8459 0.2863 -4.7980 0.9466
11.4934 2.3361 -4.3795 0.9512
9.8171 3.9071 -3.9455 0.9559
8.3834 4.2363 -3.5074 0.9607
6.7125 5.0621 -3.1394 0.9647
5.1206 5.5363 -2.8160 0.9683
2.9863 5.7496 -2.4193 0.9727
0.5275 4.2824 -1.6112 0.9817
-0.2833 5.0804 -1.9000 0.9785
-1.5783 4.7142 -1.8564 0.9790
-1.9463 4.4513 -1.8141 0.9795
-2.8969 3.5856 -1.7213 0.9805
-3.1663 3.2740 -1.7008 0.9807
-3.4134 2.9517 -1.6851 0.9809
-3.8431 2.2763 -1.6679 0.9811
-4.0264 1.9233 -1.6663 0.9811
-2.6072 -0.2330 -1.0274 0.9888
-2.6685 -0.4808 -1.0642 0.9884
-2.7584 -1.0273 -1.1552 0.9874
-4.3538 -2.5787 -1.9860 0.9785
-4.0816 -3.5295 -2.1178 0.9771
-3.8886 -4.0208 -2.1953 0.9763
-3.0380 -5.5437 -2.4810 0.9732
-2.6497 -6.0600 -2.5958 0.9720
-2.2013 -6.5750 -2.7213 0.9706
-1.1052 -7.5783 -3.0057 0.9676
-0.4489 -8.0516 -3.1649 0.9659
1.0949 -8.8900 -3.5154 0.9622
1.9826 -9.2263 -3.7037 0.9603
2.9408 -9.4803 -3.8956 0.9582
6.1303 -9.6029 -4.4713 0.9522
8.3109 -8.9856 -4.8037 0.9488
9.3273 -8.4360 -4.9358 0.9474
11.0339 -6.8720 -5.1017 0.9457
12.0995 -4.8155 -5.1110 0.9456
12.3892 -2.5182 -4.9618 0.9471
10.8923 1.7127 -4.3274 0.9537
10.2205 2.5563 -4.1348 0.9557
6.6667 4.5764 -3.1736 0.9658
5.1874 5.1299 -2.8633 0.9691
4.4798 5.2987 -2.7232 0.9706
3.8003 5.4059 -2.5935 0.9720
3.1518 5.4590 -2.4740 0.9733
2.5359 5.4646 -2.3644 0.9744
1.4055 5.3646 -2.1765 0.9765
0.4006 5.1264 -2.0181 0.9781
-0.0553 4.9687 -1.9502 0.9789
-0.8817 4.6001 -1.8383 0.9801
-1.3338 4.6645 -1.9040 0.9794
-2.3658 3.8946 -1.7884 0.9806
-3.1846 3.0120 -1.7204 0.9813
-3.4140 2.6960 -1.7073 0.9815
-3.8101 2.0332 -1.6950 0.9816
-3.9774 1.6866 -1.6956 0.9816
-4.1242 1.3299 -1.7007 0.9816
-2.5568 0.5793 -1.0289 0.9888
-2.6312 -0.3539 -1.0420 0.9887
-2.7236 -0.8783 -1.1231 0.9878
-4.4003 -2.3481 -1.9575 0.9788
-4.2990 -2.8123 -2.0162 0.9782
-4.1633 -3.2877 -2.0820 0.9775
-3.7764 -4.2700 -2.2372 0.9758
-3.2110 -5.2862 -2.4274 0.9738
-2.8510 -5.8017 -2.5371 0.9726
-2.4333 -6.3180 -2.6572 0.9713
-1.9531 -6.8304 -2.7882 0.9699
-1.4056 -7.3329 -2.9304 0.9684
-0.7865 -7.8182 -3.0839 0.9668
0.6797 -8.6979 -3.4241 0.9632
5.5785 -9.6621 -4.3787 0.9532
7.7776 -9.1994 -4.7279 0.9496
8.8289 -8.7311 -4.8733 0.9480
9.8013 -8.1010 -4.9906 0.9468
11.9033 -5.3634 -5.1240 0.9454
12.3907 -3.0991 -5.0128 0.9466
11.7192 0.2611 -4.6006 0.9509
11.1955 1.2524 -4.4213 0.9527
10.5662 2.1476 -4.2317 0.9547
9.8585 2.9381 -4.0374 0.9568
8.0093 4.0472 -3.5219 0.9622
6.2910 4.7443 -3.0924 0.9667
3.4720 5.4388 -2.5324 0.9727
0.1689 5.0504 -1.9832 0.9785
-0.2722 4.8817 -1.9189 0.9792
-1.5217 4.5451 -1.8812 0.9796
-1.8780 4.2952 -1.8398 0.9801
-2.8003 3.4660 -1.7488 0.9810
-3.3020 2.8553 -1.7133 0.9814
-3.7188 2.2027 -1.6964 0.9816
-3.8964 1.8611 -1.6947 0.9816
-4.0534 1.5095 -1.6976 0.9816
-3.4629 0.9486 -1.4091 0.9847
-2.5633 0.4618 -1.0222 0.9889
-2.5206 0.2252 -0.9932 0.9892
-2.5289 -0.0000 -1.0414 0.9891
-2.6210 -0.4722 -1.0967 0.9885
-2.6410 -0.7235 -1.1276 0.9882
-2.6436 -0.9845 -1.1616 0.9879
-4.2791 -2.0439 -1.9527 0.9797
-4.1927 -2.4833 -2.0066 0.9791
-3.9210 -3.3906 -2.1345 0.9778
-3.7302 -3.8570 -2.2095 0.9771
-2.5230 -5.7703 -2.5933 0.9731
1.0252 -8.3239 -3.4535 0.9644
1.8503 -8.6104 -3.6265 0.9626
4.6467 -8.9464 -4.1512 0.9573
6.6379 -8.6010 -4.4738 0.9541
7.6052 -8.2227 -4.6122 0.9527
9.3381 -7.0422 -4.8161 0.9507
10.6085 -5.3607 -4.8944 0.9499
11.0124 -4.3828 -4.8806 0.9500
11.2454 -3.3515 -4.8319 0.9505
11.3057 -2.2980 -4.7507 0.9513
11.2001 -1.2529 -4.6408 0.9524
10.9427 -0.2439 -4.5071 0.9538
10.5526 0.7064 -4.3551 0.9553
10.0521 1.5806 -4.1901 0.9569
9.4646 2.3673 -4.0174 0.9587
8.8127 3.0601 -3.8415 0.9604
8.1172 3.6574 -3.6661 0.9622
4.8989 4.8446 -2.8371 0.9706
4.2421 5.0176 -2.7056 0.9720
1.3450 5.1337 -2.1853 0.9773
0.7309 4.3329 -1.8094 0.9812
0.3846 4.9212 -2.0326 0.9789
-0.0532 4.7763 -1.9669 0.9795
-0.4637 4.6098 -1.9078 0.9802
-1.6440 4.2687 -1.8836 0.9804
-2.8386 3.2096 -1.7644 0.9816
-3.0822 2.9151 -1.7470 0.9818
-3.6894 1.9687 -1.7220 0.9821
-3.8513 1.6331 -1.7226 0.9821
-3.9930 1.2876 -1.7276 0.9820
-2.6388 0.5979 -1.1141 0.9884
-2.4504 0.3295 -1.0181 0.9894
-2.5068 0.1118 -1.0333 0.9892
-2.5854 -0.3477 -1.0742 0.9888
-2.6300 -0.5959 -1.1104 0.9884
-2.6464 -0.8534 -1.1450 0.9880
-4.3109 -1.8280 -1.9282 0.9799
-4.1376 -2.7067 -2.0360 0.9788
-4.0021 -3.1604 -2.0999 0.9782
-3.0670 -5.0490 -2.4326 0.9748
-1.3302 -6.9395 -2.9096 0.9699
2.2856 -8.7238 -3.7135 0.9617
9.7074 -6.6637 -4.8485 0.9503
10.3454 -5.8202 -4.8879 0.9499
10.8314 -4.8804 -4.8920 0.9499
11.1506 -3.8719 -4.8605 0.9502
11.0893 -0.7424 -4.5766 0.9531
10.7629 0.2398 -4.4330 0.9545
9.1454 2.7256 -3.9296 0.9596
8.4692 3.3707 -3.7535 0.9613
7.7588 3.9207 -3.5797 0.9631
6.6020 4.1118 -3.2027 0.9669
5.9148 4.4606 -3.0505 0.9685
5.2342 4.7340 -2.9061 0.9699
3.3001 5.1695 -2.5255 0.9738
2.7052 5.2083 -2.4167 0.9749
2.1386 5.2038 -2.3167 0.9760
1.6011 5.1613 -2.2252 0.9769
0.1622 4.8516 -1.9989 0.9792
-0.2618 4.6956 -1.9365 0.9799
-0.6592 4.5197 -1.8808 0.9804
-1.0982 4.6082 -1.9507 0.9797
-1.4683 4.3858 -1.9045 0.9802
-1.8136 4.1478 -1.8641 0.9806
-2.7088 3.3528 -1.7749 0.9815
-2.9630 3.0638 -1.7551 0.9817
-3.4087 2.4535 -1.7294 0.9820
-3.7729 1.8021 -1.7217 0.9821
-3.9247 1.4616 -1.7246 0.9820
-2.4893 -0.0000 -1.0738 0.9892
-2.5507 -0.6987 -1.1408 0.9885
-2.5687 -0.9566 -1.1824 0.9881
-3.0853 -4.6035 -2.3905 0.9761
-2.7702 -5.0550 -2.4865 0.9752
-2.4063 -5.5035 -2.5910 0.9742
0.2513 -7.5163 -3.2441 0.9678
2.5539 -8.2328 -3.7182 0.9631
3.4178 -8.3167 -3.8786 0.9616
5.2221 -8.1802 -4.1863 0.9586
9.7206 -4.9120 -4.6980 0.9537
10.0931 -4.0170 -4.6859 0.9538
10.3152 -3.0743 -4.6429 0.9542
10.3850 -2.1108 -4.5712 0.9549
8.2232 2.8554 -3.7549 0.9628
7.5973 3.4232 -3.5945 0.9644
6.9432 3.9062 -3.4365 0.9659
5.8921 4.0447 -3.0828 0.9693
4.0257 4.7616 -2.6896 0.9732
3.4317 4.8815 -2.5739 0.9743
2.3097 4.9771 -2.3668 0.9764
1.2888 4.9191 -2.1935 0.9781
0.3696 4.7292 -2.0462 0.9795
-0.0512 4.5958 -1.9826 0.9802
-0.4467 4.4410 -1.9253 0.9807
-0.8711 4.5448 -1.9961 0.9800
-1.2418 4.3428 -1.9484 0.9805
-2.4906 3.3803 -1.8112 0.9819
-2.9849 2.8231 -1.7722 0.9823
-3.2014 2.5281 -1.7596 0.9824
-3.5745 1.9074 -1.7477 0.9825
-3.7314 1.5823 -1.7483 0.9825
-3.8683 1.2474 -1.7532 0.9824
-2.5715 0.5826 -1.1373 0.9886
-2.5076 -0.1118 -1.0828 0.9891
-2.5276 -0.3399 -1.1001 0.9890
-2.6695 -1.1320 -1.2508 0.9874
-4.0885 -2.1817 -1.9990 0.9800
-3.2255 -4.3777 -2.3456 0.9766
-2.9336 -4.8294 -2.4374 0.9757
-2.5946 -5.2798 -2.5377 0.9747
-1.2615 -6.5816 -2.8907 0.9712
-0.0818 -7.3471 -3.1694 0.9685
2.1374 -8.1584 -3.6380 0.9639
4.7666 -8.2560 -4.1122 0.9593
5.6763 -8.0746 -4.2575 0.9579
6.5695 -7.7704 -4.3892 0.9566
7.4221 -7.3398 -4.5027 0.9555
8.9019 -6.1108 -4.6576 0.9541
10.2233 -3.5499 -4.6682 0.9540
10.3690 -2.5934 -4.6105 0.9545
10.3640 -1.6297 -4.5255 0.9553
9.9404 0.2215 -4.2889 0.9576
9.0728 1.8441 -3.9936 0.9605
8.5205 2.5394 -3.8351 0.9620
6.4176 3.9969 -3.2613 0.9676
4.9484 4.4755 -2.8780 0.9714
3.7262 4.8281 -2.6308 0.9738
3.1424 4.9225 -2.5191 0.9749
2.5812 4.9696 -2.4156 0.9759
1.5349 4.9479 -2.2347 0.9777
0.5267 4.2766 -1.8587 0.9814
-0.2520 4.5208 -1.9531 0.9805
-0.6459 4.4286 -1.9305 0.9807
-1.0596 4.4463 -1.9716 0.9803
-1.4179 4.2352 -1.9266 0.9807
-2.6220 3.2453 -1.7997 0.9820
-3.3021 2.3767 -1.7550 0.9824
-3.4887 2.0663 -1.7490 0.9825
-3.6554 1.7460 -1.7474 0.9825
-2.4719 0.4453 -1.0835 0.9891
-2.4481 -0.2188 -1.1090 0.9893
-2.4592 -0.4431 -1.1275 0.9891
-2.4701 -0.6767 -1.1556 0.9888
-2.4890 -0.9269 -1.1984 0.9884
-3.9860 -1.9040 -1.9932 0.9808
-3.8981 -2.3089 -2.0443 0.9803
-3.6293 -3.1384 -2.1650 0.9792
-3.4437 -3.5608 -2.2351 0.9785
-2.9573 -4.4126 -2.3968 0.9770
-2.6509 -4.8373 -2.4889 0.9761
-2.2985 -5.2569 -2.5888 0.9751
-1.4450 -6.0634 -2.8125 0.9730
-0.9391 -6.4392 -2.9362 0.9718
-0.3784 -6.7873 -3.0673 0.9706
0.2374 -7.0995 -3.2052 0.9693
4.0194 -7.7386 -3.9347 0.9625
5.6822 -7.3626 -4.1965 0.9600
7.2303 -6.5394 -4.3988 0.9581
8.9598 -4.5276 -4.5297 0.9569
9.3050 -3.7033 -4.5189 0.9570
9.5925 -1.9497 -4.4168 0.9580
7.7006 2.6739 -3.6781 0.9649
6.5372 3.6777 -3.3845 0.9676
4.9867 4.1217 -2.9192 0.9720
4.3992 4.3504 -2.7917 0.9732
3.2696 4.6512 -2.5653 0.9754
2.7293 4.7272 -2.4630 0.9763
2.2090 4.7603 -2.3679 0.9772
0.7840 4.6479 -2.1268 0.9795
-0.8409 4.3870 -2.0156 0.9806
-1.8488 3.7623 -1.8915 0.9818
-2.8922 2.7355 -1.7963 0.9827
-3.4650 1.8490 -1.7722 0.9829
-3.7495 1.2091 -1.7776 0.9829
-2.5488 0.5775 -1.1792 0.9886
-2.3567 0.3169 -1.0730 0.9896
-2.4395 -0.1088 -1.1018 0.9893
-2.4521 -0.3298 -1.1164 0.9892
-2.4782 -0.7991 -1.1749 0.9886
-2.4891 -1.0555 -1.2199 0.9882
-3.9457 -2.1055 -2.0180 0.9806
-3.8430 -2.5140 -2.0721 0.9800
-3.7088 -2.9288 -2.1324 0.9795
-2.8096 -4.6254 -2.4419 0.9765
-2.1042 -5.4636 -2.6418 0.9746
-1.6777 -5.8675 -2.7536 0.9736
-0.6657 -6.6172 -3.0009 0.9712
-0.0774 -6.9484 -3.1355 0.9700
3.6044 -7.7673 -3.8637 0.9631
4.4369 -7.6849 -4.0040 0.9618
5.2707 -7.4976 -4.1353 0.9606
6.0867 -7.1994 -4.2539 0.9595
7.5789 -6.2641 -4.4366 0.9578
8.2107 -5.6364 -4.4937 0.9572
8.7394 -4.9167 -4.5246 0.9569
9.1488 -4.1222 -4.5278 0.9569
9.4278 -3.2737 -4.5032 0.9571
9.5714 -2.3940 -4.4518 0.9576
9.5804 -1.5065 -4.3760 0.9583
9.2253 0.2056 -4.1637 0.9603
3.5466 4.5954 -2.6193 0.9748
2.9971 4.6948 -2.5132 0.9759
1.4713 4.7430 -2.2407 0.9784
1.0072 4.6870 -2.1631 0.9792
0.1502 4.4906 -2.0274 0.9805
-0.6431 4.4098 -2.0108 0.9806
-1.3702 4.0927 -1.9475 0.9812
-1.6948 3.8761 -1.9089 0.9816
-2.5394 3.1430 -1.8232 0.9824
-2.7796 2.8741 -1.8041 0.9826
-2.9999 2.5942 -1.7895 0.9827
-3.3817 2.0030 -1.7735 0.9829
-3.5435 1.6926 -1.7719 0.9829
-3.6857 1.3726 -1.7747 0.9829
-3.8083 1.0432 -1.7817 0.9828
-2.4063 0.4335 -1.1032 0.9893
-2.3848 0.2131 -1.0804 0.9895
-2.3615 -0.0000 -1.1132 0.9896
-2.3773 -0.2125 -1.1251 0.9895
-2.3816 -0.4291 -1.1407 0.9894
-2.4034 -0.8951 -1.2089 0.9887
-3.8511 -1.8395 -2.0118 0.9813
-3.7630 -2.2288 -2.0616 0.9808
-3.6454 -2.6238 -2.1172 0.9803
-3.3136 -3.4262 -2.2468 0.9791
-3.0949 -3.8306 -2.3213 0.9785
-2.5398 -4.6346 -2.4912 0.9769
-1.3769 -5.7780 -2.7999 0.9741
-0.8930 -6.1233 -2.9169 0.9730
1.5339 -7.1380 -3.4415 0.9682
2.2493 -7.2509 -3.5786 0.9670
2.9948 -7.2873 -3.7138 0.9658
3.7599 -7.2391 -3.8451 0.9646
6.0262 -6.5154 -4.1835 0.9615
6.7124 -6.0710 -4.2662 0.9608
8.9028 -1.8096 -4.2824 0.9606
8.8633 -0.9915 -4.2040 0.9613
8.1193 1.2767 -3.8742 0.9643
7.7058 1.9274 -3.7442 0.9655
6.7179 3.0269 -3.4733 0.9679
6.1709 3.4717 -3.3376 0.9692
5.6046 3.8474 -3.2045 0.9704
2.6092 4.5193 -2.4598 0.9772
0.7539 4.4695 -2.1366 0.9802
0.3423 4.3800 -2.0709 0.9808
-0.0475 4.2666 -2.0113 0.9813
-0.8122 4.2373 -2.0337 0.9811
-1.1595 4.0551 -1.9881 0.9815
-2.8039 2.6519 -1.8192 0.9831
-3.5080 1.4875 -1.7961 0.9833
-3.6361 1.1725 -1.8009 0.9832
-2.3488 0.1047 -1.1083 0.9897
-2.3694 -0.1057 -1.1180 0.9896
-2.3893 -0.5414 -1.1548 0.9892
-2.3945 -0.7721 -1.1859 0.9889
-3.8106 -2.0334 -2.0360 0.9811
-3.2089 -3.6284 -2.2832 0.9788
-2.9713 -4.0327 -2.3612 0.9781
-2.0109 -5.2213 -2.6374 0.9756
-0.0733 -6.5857 -3.1045 0.9713
0.5349 -6.8451 -3.2365 0.9701
1.1900 -7.0548 -3.3724 0.9689
4.1457 -7.1806 -3.9084 0.9640
5.6641 -6.6995 -4.1354 0.9619
6.3764 -6.3058 -4.2272 0.9611
8.0969 -4.5552 -4.3792 0.9597
8.4757 -3.8190 -4.3821 0.9597
8.8009 -0.5892 -4.1578 0.9617
7.9208 1.6099 -3.8100 0.9649
7.4763 2.2282 -3.6773 0.9661
6.9806 2.7782 -3.5415 0.9673
6.4475 3.2581 -3.4052 0.9686
5.8895 3.6680 -3.2706 0.9698
3.9122 4.2298 -2.7159 0.9748
3.3812 4.3811 -2.6087 0.9758
2.8627 4.4843 -2.5078 0.9767
1.8756 4.5641 -2.3260 0.9784
1.4120 4.5516 -2.2464 0.9791
0.9679 4.5042 -2.1716 0.9798
0.1447 4.3260 -2.0403 0.9810
-0.2356 4.2252 -1.9948 0.9815
-0.6302 4.3215 -2.0586 0.9809
-0.9886 4.1484 -2.0102 0.9813
-1.6399 3.7506 -1.9296 0.9821
-1.9338 3.5289 -1.8968 0.9824
-2.2073 3.2936 -1.8689 0.9826
-2.6944 2.7860 -1.8269 0.9830
-3.5745 1.3311 -1.7980 0.9833
-3.6929 1.0116 -1.8049 0.9832
-2.3515 0.4236 -1.1263 0.9895
-2.3242 0.2077 -1.1000 0.9897
-2.3094 -0.2064 -1.1404 0.9897
-2.3082 -0.4159 -1.1536 0.9896
-2.3278 -0.8669 -1.2217 0.9890
-2.3666 -1.1304 -1.2900 0.9884
-3.5181 -2.5322 -2.1320 0.9809
-3.3708 -2.9149 -2.1919 0.9803
-2.9768 -3.6845 -2.3298 0.9791
-2.7259 -4.0674 -2.4083 0.9784
-2.4362 -4.4455 -2.4933 0.9777
-1.7320 -5.1733 -2.6833 0.9760
-0.8507 -5.8327 -2.8992 0.9741
-0.3413 -6.1223 -3.0160 0.9730
1.4487 -6.7416 -3.3916 0.9697
3.5285 -6.7936 -3.7653 0.9665
4.9481 -6.4114 -3.9834 0.9645
5.6249 -6.0815 -4.0745 0.9637
6.2572 -5.6593 -4.1497 0.9631
6.8279 -5.1491 -4.2062 0.9626
7.3211 -4.5596 -4.2422 0.9623
7.7230 -3.9026 -4.2560 0.9622
8.0232 -3.1932 -4.2473 0.9622
8.2152 -2.4484 -4.2163 0.9625
8.2703 -0.9252 -4.0932 0.9636
8.1416 -0.1814 -4.0054 0.9643
7.9197 0.5302 -3.9040 0.9652
7.6160 1.1976 -3.7920 0.9662
7.2433 1.8117 -3.6724 0.9673
6.8144 2.3662 -3.5480 0.9684
6.3422 2.8576 -3.4215 0.9695
5.8386 3.2847 -3.2950 0.9706
4.7671 3.9400 -3.0419 0.9728
3.9843 3.9402 -2.7561 0.9753
3.4773 4.1130 -2.6491 0.9763
2.9817 4.2415 -2.5501 0.9772
2.4977 4.3260 -2.4570 0.9780
2.0282 4.3706 -2.3699 0.9788
1.5761 4.3808 -2.2899 0.9795
1.1413 4.3562 -2.2149 0.9801
0.7256 4.3017 -2.1457 0.9807
0.3298 4.2205 -2.0822 0.9813
-0.0461 4.1419 -2.0373 0.9817
-1.1215 3.9221 -2.0064 0.9820
-2.7196 2.5721 -1.8411 0.9835
-2.9186 2.3048 -1.8292 0.9836
-3.0990 2.0273 -1.8215 0.9836
-3.2608 1.7400 -1.8179 0.9837
-3.4037 1.4433 -1.8184 0.9837
-3.5278 1.1376 -1.8232 0.9836
-2.5041 0.5673 -1.2629 0.9886
-2.2893 0.1021 -1.1271 0.9898
-2.3022 -0.1027 -1.1335 0.9898
-2.3108 -0.3108 -1.1468 0.9897
-2.3142 -0.5243 -1.1671 0.9895
-2.3173 -0.7472 -1.1976 0.9892
-2.3375 -0.9912 -1.2488 0.9887
-3.4484 -2.7232 -2.1612 0.9806
-3.0884 -3.4921 -2.2930 0.9794
-2.8561 -3.8764 -2.3682 0.9788
-1.5287 -5.3462 -2.7349 0.9755
-1.0881 -5.6767 -2.8429 0.9746
-0.6017 -5.9816 -2.9569 0.9736
-0.0697 -6.2540 -3.0763 0.9725
0.5069 -6.4865 -3.2001 0.9714
1.1252 -6.6705 -3.3273 0.9703
2.4655 -6.8529 -3.5821 0.9681
3.8867 -6.7319 -3.8233 0.9659
4.5984 -6.5413 -3.9328 0.9650
5.2910 -6.2582 -4.0308 0.9641
5.9477 -5.8818 -4.1143 0.9634
7.0851 -4.8636 -4.2269 0.9624
7.5342 -4.2387 -4.2519 0.9622
7.8863 -3.5534 -4.2545 0.9622
8.2698 -2.0684 -4.1928 0.9627
8.2182 -0.5501 -4.0512 0.9639
6.5830 2.6200 -3.4849 0.9689
6.0937 3.0792 -3.3581 0.9700
5.0472 3.8063 -3.1093 0.9722
3.7283 4.0310 -2.7007 0.9758
3.2283 4.1829 -2.5989 0.9767
2.7380 4.2890 -2.5028 0.9776
2.2610 4.3531 -2.4127 0.9784
0.9310 4.3325 -2.1796 0.9804
-0.6089 4.1749 -2.0752 0.9814
-0.9558 4.0109 -2.0280 0.9818
-1.5877 3.6311 -1.9492 0.9825
-2.1391 3.1918 -1.8899 0.9830
-3.0112 2.1673 -1.8248 0.9836
-3.3346 1.5928 -1.8176 0.9837
-3.4681 1.2916 -1.8203 0.9836
-2.2658 0.2025 -1.1189 0.9899
-2.2443 -0.2006 -1.1552 0.9899
-2.2480 -0.6158 -1.1950 0.9896
-3.5135 -2.0810 -2.0935 0.9818
-3.2522 -2.8123 -2.2043 0.9809
-2.8657 -3.5470 -2.3378 0.9797
-2.6209 -3.9107 -2.4135 0.9791
-2.0187 -4.6168 -2.5833 0.9776
-1.6580 -4.9522 -2.6773 0.9768
-1.2558 -5.2697 -2.7773 0.9759
-0.3250 -5.8297 -2.9934 0.9741
0.7693 -6.2459 -3.2263 0.9721
2.0028 -6.4563 -3.4656 0.9701
2.6556 -6.4620 -3.5817 0.9691
3.3208 -6.3936 -3.6936 0.9681
3.9870 -6.2455 -3.7987 0.9672
4.6410 -6.0134 -3.8943 0.9664
5.8536 -5.2943 -4.0463 0.9651
6.3819 -4.8128 -4.0979 0.9647
7.4944 -2.9827 -4.1353 0.9644
7.6774 -2.2881 -4.1071 0.9646
7.7437 -0.8663 -3.9947 0.9656
7.4373 0.4979 -3.8214 0.9670
7.1647 1.1266 -3.7182 0.9679
6.8268 1.7075 -3.6077 0.9689
6.0011 2.7040 -3.3745 0.9708
3.9634 3.9194 -2.8577 0.9753
1.9466 4.1947 -2.3708 0.9794
0.6990 4.1437 -2.1544 0.9813
0.3181 4.0704 -2.0932 0.9818
-0.0459 4.1276 -2.1163 0.9816
-0.4131 4.1064 -2.1158 0.9816
-0.7591 3.9603 -2.0673 0.9820
-1.0853 3.7956 -2.0239 0.9824
-1.6790 3.4168 -1.9518 0.9830
-1.9471 3.2054 -1.9227 0.9833
-2.1962 2.9808 -1.8982 0.9835
-2.4268 2.7440 -1.8780 0.9837
-2.6388 2.4958 -1.8621 0.9838
-3.1651 1.6890 -1.8393 0.9840
-2.2093 0.2971 -1.1428 0.9900
-2.2318 0.0995 -1.1453 0.9900
-2.2446 -0.3019 -1.1611 0.9899
-2.2425 -0.5081 -1.1788 0.9897
-2.3837 -1.2720 -1.3851 0.9879
-3.4591 -2.2629 -2.1192 0.9816
-3.3287 -2.6287 -2.1745 0.9811
-2.9749 -3.3638 -2.3022 0.9800
-2.7478 -3.7294 -2.3749 0.9794
-2.4847 -4.0904 -2.4536 0.9787
-2.1838 -4.4440 -2.5385 0.9780
-1.8434 -4.7864 -2.6296 0.9772
-1.4621 -5.1135 -2.7266 0.9764
-0.5735 -5.7011 -2.9375 0.9746
-0.0663 -5.9495 -3.0503 0.9736
0.4813 -6.1585 -3.1669 0.9726
1.6840 -6.4277 -3.4065 0.9706
2.3270 -6.4680 -3.5240 0.9696
2.9873 -6.4375 -3.6383 0.9686
3.6546 -6.3298 -3.7471 0.9677
4.3164 -6.1401 -3.8478 0.9668
4.9589 -5.8654 -3.9377 0.9661
5.5671 -5.5054 -4.0140 0.9654
6.6202 -4.5445 -4.1167 0.9645
7.5984 -2.6385 -4.1236 0.9645
7.7313 -1.9337 -4.0857 0.9648
7.7000 -0.5155 -3.9564 0.9659
7.3099 0.8177 -3.7709 0.9675
7.0032 1.4234 -3.6637 0.9684
6.6370 1.9780 -3.5505 0.9693
6.2227 2.4766 -3.4336 0.9703
5.7717 2.9165 -3.3153 0.9714
4.7993 3.6193 -3.0817 0.9733
4.2955 3.8850 -2.9693 0.9743
3.6208 3.9148 -2.7338 0.9763
3.0863 3.9991 -2.5898 0.9775
2.6219 4.1071 -2.4981 0.9783
2.1684 4.1749 -2.4118 0.9791
1.7284 4.2058 -2.3312 0.9798
1.3042 4.2042 -2.2567 0.9804
0.8963 4.1709 -2.1871 0.9810
-0.9247 3.8802 -2.0450 0.9822
-2.5351 2.6213 -1.8695 0.9837
-2.7380 2.3676 -1.8557 0.9839
-3.2368 1.5461 -1.8390 0.9840
-2.2093 0.1974 -1.1372 0.9901
-2.1811 -0.1949 -1.1690 0.9901
-2.1873 -0.5992 -1.2107 0.9898
-2.1932 -0.8168 -1.2494 0.9894
-2.2033 -1.0524 -1.3035 0.9890
-3.3980 -2.0126 -2.1083 0.9823
-3.1398 -2.7151 -2.2160 0.9814
-2.9663 -3.0672 -2.2779 0.9808
-2.7609 -3.4172 -2.3453 0.9803
-1.9374 -4.4310 -2.5817 0.9783
-0.3100 -5.5595 -2.9725 0.9751
0.7310 -5.9350 -3.1923 0.9733
1.3006 -6.0526 -3.3049 0.9723
1.8963 -6.1129 -3.4167 0.9714
3.1332 -6.0324 -3.6288 0.9696
4.3653 -5.6563 -3.8143 0.9681
4.9491 -5.3509 -3.8910 0.9675
5.4932 -4.9683 -3.9540 0.9670
5.9843 -4.5130 -4.0013 0.9666
6.4098 -3.9921 -4.0312 0.9663
6.7590 -3.4155 -4.0427 0.9662
7.0235 -2.7953 -4.0355 0.9663
7.1981 -2.1453 -4.0097 0.9665
7.2727 -0.8136 -3.9067 0.9674
7.0034 0.4688 -3.7471 0.9687
6.7573 1.0625 -3.6517 0.9695
6.4496 1.6131 -3.5491 0.9703
6.0903 2.1148 -3.4417 0.9712
5.6898 2.5637 -3.3316 0.9721
4.3355 3.5833 -3.0027 0.9748
3.8599 3.8171 -2.8980 0.9757
3.2976 3.9004 -2.7266 0.9771
2.7403 3.8982 -2.5438 0.9786
1.8700 4.0298 -2.3716 0.9801
1.0573 4.0357 -2.2271 0.9813
0.6739 3.9949 -2.1628 0.9818
0.3136 4.0123 -2.1485 0.9819
-0.0455 4.0881 -2.1825 0.9816
-0.3994 3.9702 -2.1301 0.9821
-1.3484 3.5012 -2.0029 0.9831
-1.8882 3.1085 -1.9416 0.9836
-2.1307 2.8918 -1.9176 0.9838
-2.5615 2.4227 -1.8822 0.9841
-2.7501 2.1717 -1.8707 0.9842
-2.9207 1.9107 -1.8632 0.9843
-3.0735 1.6401 -1.8598 0.9843
-3.3246 1.0721 -1.8649 0.9843
-2.4372 0.5522 -1.3341 0.9887
-2.1765 -0.0971 -1.1631 0.9902
-2.1810 -0.2933 -1.1748 0.9901
-2.1806 -0.4941 -1.1936 0.9899
-2.2447 -1.1979 -1.3583 0.9885
-3.3441 -2.1876 -2.1333 0.9820
-3.2152 -2.5390 -2.1871 0.9816
-1.7679 -4.5904 -2.6260 0.9779
-0.9933 -5.1821 -2.8168 0.9764
-0.5474 -5.4415 -2.9196 0.9755
-0.0631 -5.6687 -3.0264 0.9746
0.4577 -5.8573 -3.1364 0.9737
1.0122 -6.0004 -3.2485 0.9728
2.8209 -6.0789 -3.5776 0.9701
3.4453 -5.9673 -3.6784 0.9692
4.0629 -5.7796 -3.7715 0.9685
4.6613 -5.5134 -3.8542 0.9678
5.2270 -5.1691 -3.9244 0.9672
5.7462 -4.7494 -3.9797 0.9668
6.2060 -4.2602 -4.0185 0.9664
