ply
format ascii 1.0
element vertex 1585
property float32 x
property float32 y
property float32 z
property float32 I
end_header
-3.7446 -2.9571 1.6919 0.9800
-4.4154 -2.6152 1.7242 0.9786
-3.3660 -3.4804 1.6267 0.9798
1.0376 3.9605 1.3756 0.9829
-4.0701 -2.6625 1.6341 0.9797
-3.6779 -2.9044 1.5745 0.9804
-3.4365 -3.2503 1.5892 0.9802
-3.4852 -3.0137 1.4633 0.9808
-3.2772 -3.7056 1.5710 0.9795
0.8622 4.0122 1.3033 0.9829
-4.1998 -2.4875 1.4613 0.9798
-3.4508 -2.9841 1.3658 0.9811
-3.2592 -3.3700 1.4036 0.9806
1.0431 3.9815 1.2322 0.9830
-3.9379 -2.5761 1.4088 0.9805
-3.3365 -3.1557 1.3749 0.9810
-4.1342 -2.4487 1.3519 0.9802
-3.6984 -2.6619 1.2821 0.9812
1.0476 3.9987 1.1630 0.9830
-4.4897 -2.3958 1.4318 0.9791
-3.8913 -2.5456 1.3083 0.9809
-3.3081 -3.1288 1.2811 0.9813
-3.1666 -3.5805 1.3449 0.9803
0.8599 4.0015 1.1515 0.9831
-4.0857 -2.4200 1.2513 0.9805
-3.1988 -3.3075 1.2124 0.9811
-3.1155 -3.8561 1.3063 0.9797
1.0541 4.0233 1.0959 0.9829
-4.4074 -2.3518 1.3163 0.9795
-3.8546 -2.5216 1.2137 0.9811
-3.5155 -2.7761 1.1803 0.9816
-3.2811 -3.1032 1.1900 0.9815
0.8588 3.9964 1.0771 0.9832
-4.9023 -2.3416 1.3354 0.9779
-3.1725 -3.2804 1.1217 0.9814
-3.0847 -3.8180 1.2065 0.9800
1.0605 4.0479 1.0286 0.9829
-4.3506 -2.3215 1.2121 0.9799
-3.2547 -3.0783 1.1011 0.9817
-3.1676 -4.2991 1.3126 0.9782
-3.6312 -2.6136 1.0211 0.9818
-3.1513 -3.2584 1.0346 0.9816
-4.2968 -2.2928 1.1116 0.9802
-3.8078 -2.4909 1.0385 0.9815
-3.2422 -3.0665 1.0186 0.9819
0.8600 4.0020 0.9343 0.9833
-3.6142 -2.6013 0.9388 0.9820
-4.2603 -2.2734 1.0180 0.9805
-3.7850 -2.4761 0.9535 0.9817
-3.4636 -2.7352 0.9304 0.9821
-3.0689 -3.4700 0.9766 0.9812
0.8606 4.0047 0.8636 0.9834
-4.6314 -2.2122 0.9933 0.9793
-3.9744 -2.3541 0.8939 0.9814
-3.5983 -2.5899 0.8580 0.9821
-3.3304 -2.8799 0.8520 0.9822
-3.0113 -3.7271 0.9272 0.9807
-3.7691 -2.4656 0.8716 0.9818
-3.2206 -3.0460 0.8578 0.9821
-3.0591 -3.4591 0.8936 0.9814
-3.0234 -4.1034 0.9864 0.9794
0.8612 4.0075 0.7932 0.9834
-4.6053 -2.1997 0.8999 0.9795
-3.5950 -2.5876 0.7810 0.9822
-3.3201 -2.8710 0.7739 0.9823
-3.0015 -3.7150 0.8421 0.9808
-3.4430 -2.7189 0.7736 0.9823
-3.2100 -3.0360 0.7791 0.9822
-3.0052 -4.0787 0.8933 0.9796
-4.5796 -2.1875 0.8082 0.9797
-3.3192 -2.8702 0.6987 0.9824
-3.1103 -3.2160 0.7124 0.9820
-2.9919 -3.7031 0.7581 0.9809
-3.2072 -3.0334 0.7030 0.9823
-3.0400 -3.4374 0.7307 0.9816
-2.9936 -4.0630 0.8036 0.9798
0.8623 4.0129 0.6536 0.9835
-4.5557 -2.1761 0.7181 0.9798
-3.9529 -2.3413 0.6535 0.9816
-3.5885 -2.5828 0.6289 0.9823
-3.1112 -3.2170 0.6366 0.9821
0.6985 4.1409 0.5973 0.9832
-4.2046 -2.2437 0.6779 0.9809
-3.7493 -2.4527 0.6373 0.9821
-3.0363 -3.4332 0.6519 0.9817
-2.9822 -4.0476 0.7151 0.9799
-3.9506 -2.3399 0.5754 0.9817
-3.5852 -2.5805 0.5536 0.9823
-2.9839 -3.6933 0.5950 0.9810
-3.2566 -4.8592 0.7330 0.9767
0.6943 4.1161 0.5231 0.9833
-4.2052 -2.2440 0.5973 0.9810
-3.7429 -2.4485 0.5605 0.9821
-3.2092 -3.0353 0.5536 0.9824
-3.0391 -3.4364 0.5749 0.9817
-2.9710 -4.0323 0.6277 0.9800
0.8662 4.0309 0.5167 0.9835
-4.5639 -2.1800 0.5486 0.9799
-3.9586 -2.3447 0.4990 0.9817
-3.5875 -2.5821 0.4794 0.9824
-3.1132 -3.2190 0.4857 0.9821
0.6922 4.1036 0.4514 0.9834
-4.2117 -2.2474 0.5178 0.9810
-3.4394 -2.7161 0.4754 0.9825
-3.0419 -3.4395 0.4980 0.9817
-2.9785 -4.0425 0.5446 0.9800
0.8683 4.0408 0.4483 0.9835
-4.5681 -2.1820 0.4641 0.9799
-3.9666 -2.3494 0.4227 0.9817
-3.5962 -2.5884 0.4062 0.9824
-3.3213 -2.8720 0.4025 0.9825
-2.9938 -3.7055 0.4367 0.9810
0.6913 4.0984 0.3810 0.9834
-3.0447 -3.4427 0.4213 0.9817
-2.9868 -4.0537 0.4616 0.9800
-3.9746 -2.3542 0.3462 0.9816
-3.6050 -2.5947 0.3329 0.9823
-3.3311 -2.8805 0.3300 0.9825
-2.9988 -3.7116 0.3576 0.9810
-3.7695 -2.4659 0.3376 0.9821
-3.4598 -2.7322 0.3304 0.9825
-3.2230 -3.0483 0.3324 0.9824
-3.0474 -3.4458 0.3447 0.9817
-2.9952 -4.0651 0.3784 0.9799
-4.6059 -2.2001 0.2973 0.9798
-3.6138 -2.6011 0.2593 0.9823
-3.1355 -3.2421 0.2627 0.9821
-3.0090 -3.7242 0.2789 0.9810
-4.2388 -2.2619 0.2798 0.9809
-3.7788 -2.4720 0.2630 0.9821
-3.4700 -2.7403 0.2575 0.9824
0.8749 4.0712 0.2425 0.9835
-4.6414 -2.2170 0.2139 0.9796
-3.1498 -3.2568 0.1884 0.9820
-3.0276 -3.7473 0.2003 0.9809
-3.4803 -2.7484 0.1844 0.9824
-3.2464 -3.0705 0.1858 0.9823
-3.0753 -3.4773 0.1930 0.9816
-3.0267 -4.1079 0.2122 0.9798
0.8799 4.0947 0.1741 0.9834
-4.6774 -2.2342 0.1293 0.9795
-4.0282 -2.3859 0.1168 0.9814
-3.3607 -2.9061 0.1108 0.9824
0.6883 4.0806 0.1032 0.9836
-12.3709 8.0927 0.3687 0.9426
-13.5104 5.7289 0.3660 0.9430
-14.1074 4.5490 0.3697 0.9424
-4.2938 -2.2912 0.1214 0.9807
-3.8152 -2.4958 0.1137 0.9819
-3.4941 -2.7593 0.1110 0.9823
-3.2583 -3.0817 0.1118 0.9822
-3.0897 -3.4936 0.1163 0.9815
-3.0541 -4.1450 0.1284 0.9796
0.8850 4.1184 0.1050 0.9833
-12.0892 8.7014 0.3715 0.9421
-12.6525 7.4941 0.3667 0.9429
-13.2209 6.3151 0.3654 0.9431
-13.8054 5.1412 0.3674 0.9428
-14.4177 3.9495 0.3728 0.9419
-4.0528 -2.4005 0.0391 0.9813
-3.6635 -2.6368 0.0375 0.9821
-3.3811 -2.9238 0.0371 0.9823
-3.1786 -3.2867 0.0380 0.9819
-9.6240 10.8821 0.1207 0.9435
-10.2033 9.6502 0.1167 0.9454
-10.7532 8.4918 0.1139 0.9467
-11.8084 6.3012 0.1112 0.9479
-13.4186 3.0403 0.1144 0.9465
-14.0009 1.8830 0.1174 0.9451
-14.4128 0.6427 0.1199 0.9439
-3.8386 -2.5111 0.0381 0.9818
-3.5166 -2.7770 0.0372 0.9822
-3.2742 -3.0967 0.0375 0.9821
-3.0819 -4.1828 0.0432 0.9794
-9.3193 11.5347 0.1232 0.9424
-11.0208 7.9323 0.1129 0.9471
-11.5472 6.8395 0.1115 0.9477
-12.0698 5.7653 0.1112 0.9479
-12.5975 4.6914 0.1117 0.9476
-13.1393 3.5992 0.1132 0.9470
-14.2540 1.2738 0.1189 0.9444
-13.4332 0.0000 -0.1116 0.9477
-4.0777 -2.4152 -0.0394 0.9812
-3.6858 -2.6529 -0.0377 0.9820
-3.4055 -2.9449 -0.0374 0.9822
-3.0861 -3.8198 -0.0408 0.9805
0.6892 4.0860 -0.0344 0.9836
-8.1928 11.1194 -0.1148 0.9462
-8.7928 9.9422 -0.1103 0.9483
-9.3489 8.8422 -0.1069 0.9498
-9.8729 7.7966 -0.1046 0.9509
-10.8624 5.7964 -0.1023 0.9519
-12.3159 2.7904 -0.1050 0.9507
-13.1929 0.5883 -0.1098 0.9485
-13.7143 -0.6115 -0.1141 0.9466
-4.3597 -2.3264 -0.0411 0.9804
-3.8623 -2.5266 -0.0384 0.9817
-3.2980 -3.1192 -0.0377 0.9820
-3.1264 -3.5351 -0.0392 0.9813
-3.1195 -4.2337 -0.0437 0.9792
-7.8718 11.7456 -0.1175 0.9450
-8.4992 10.5196 -0.1124 0.9473
-9.0755 9.3841 -0.1085 0.9491
-10.1261 7.2883 -0.1037 0.9513
-10.6198 6.2901 -0.1026 0.9518
-11.5841 4.3140 -0.1027 0.9518
-12.0693 3.3062 -0.1040 0.9512
-12.3517 0.0000 -0.3080 0.9518
-12.8312 -1.1466 -0.3213 0.9498
-13.3441 -2.4040 -0.3381 0.9472
-13.9031 -3.8085 -0.3595 0.9440
-4.1165 -2.4383 -0.1193 0.9810
-3.4303 -2.9663 -0.1131 0.9820
-3.2324 -3.3424 -0.1160 0.9816
-5.3715 13.9469 -0.3727 0.9420
-6.1761 12.5681 -0.3492 0.9455
-7.5170 10.2023 -0.3160 0.9506
-8.6264 8.1588 -0.2961 0.9536
-9.1257 7.2065 -0.2900 0.9545
-9.6000 6.2801 -0.2861 0.9551
-10.0564 5.3663 -0.2843 0.9554
-10.5014 4.4530 -0.2845 0.9554
-10.9408 3.5280 -0.2867 0.9550
-11.3805 2.5785 -0.2910 0.9544
-11.8263 1.5905 -0.2976 0.9534
-12.1684 0.5426 -0.3038 0.9524
-12.5880 -0.5613 -0.3142 0.9508
-13.6169 -3.0852 -0.3482 0.9457
-3.8870 -2.5427 -0.1158 0.9816
-3.5624 -2.8132 -0.1132 0.9820
-3.3222 -3.1421 -0.1140 0.9819
-3.1606 -3.5738 -0.1190 0.9811
-3.1937 -4.3346 -0.1343 0.9787
-6.5404 11.9347 -0.3394 0.9470
-8.3648 8.6492 -0.3001 0.9530
-9.3655 6.7409 -0.2878 0.9549
-10.7215 3.9927 -0.2853 0.9553
-11.6022 2.0903 -0.2940 0.9539
-12.0535 1.0771 -0.3018 0.9527
-11.8365 -1.0577 -0.4941 0.9535
-12.2598 -2.2087 -0.5180 0.9514
-13.1925 -4.9129 -0.5853 0.9452
-5.0616 -2.4177 -0.2332 0.9778
-3.4554 -2.9880 -0.1899 0.9819
-3.2607 -3.3716 -0.1950 0.9814
-3.1724 -3.9265 -0.2099 0.9800
-2.8019 14.6172 -0.6188 0.9422
-6.9438 9.4242 -0.4867 0.9542
-7.4969 8.4770 -0.4705 0.9557
-8.9325 5.8434 -0.4438 0.9582
-9.3613 4.9954 -0.4412 0.9584
-9.7751 4.1450 -0.4415 0.9584
-10.5765 2.3963 -0.4509 0.9575
-10.9733 1.4758 -0.4604 0.9566
-11.3259 0.5050 -0.4714 0.9556
-11.6319 -0.5187 -0.4841 0.9545
-12.0455 -1.6200 -0.5054 0.9525
-12.4802 -2.8276 -0.5321 0.9501
-13.4526 -5.7044 -0.6076 0.9432
-3.2797 -4.4512 -0.2299 0.9781
-4.4714 13.3555 -0.5856 0.9452
-6.0077 10.9628 -0.5198 0.9512
-7.2264 8.9443 -0.4781 0.9550
-8.2488 7.1331 -0.4534 0.9573
-8.7107 6.2696 -0.4462 0.9579
-9.5698 4.5711 -0.4410 0.9584
-9.9778 3.7158 -0.4427 0.9583
-10.7747 1.9412 -0.4552 0.9571
-10.6552 0.0000 -0.6206 0.9582
-11.3372 -2.0425 -0.6710 0.9549
-11.7010 -3.2052 -0.7066 0.9526
-12.0808 -4.4989 -0.7508 0.9497
-4.2112 -2.4943 -0.2851 0.9806
-3.2896 -3.4014 -0.2756 0.9812
-1.4735 14.6472 -0.8574 0.9427
-2.5398 13.2503 -0.7858 0.9474
-5.8690 9.6618 -0.6584 0.9557
-7.4700 7.0651 -0.5989 0.9596
-7.9243 6.2578 -0.5881 0.9603
-8.3510 5.4630 -0.5812 0.9608
-9.1419 3.8765 -0.5783 0.9610
-10.2341 1.3764 -0.6014 0.9595
-10.5826 0.4719 -0.6170 0.9584
-10.8097 -0.4820 -0.6302 0.9576
-11.1596 -1.5008 -0.6558 0.9559
-11.8885 -3.8335 -0.7275 0.9512
-4.5346 -2.4197 -0.2994 0.9796
-3.2037 13.4436 -0.8049 0.9461
-5.5548 10.1362 -0.6732 0.9547
-6.7222 8.3202 -0.6230 0.9580
-7.7010 6.6593 -0.5930 0.9600
-8.1407 5.8594 -0.5842 0.9606
-8.5556 5.0675 -0.5792 0.9609
-10.0565 1.8118 -0.5952 0.9599
-9.9711 0.0000 -0.7472 0.9608
-10.2445 -0.9154 -0.7708 0.9596
-11.1408 -4.1489 -0.8909 0.9534
-11.4472 -5.4679 -0.9507 0.9504
-3.5309 -3.0533 -0.3498 0.9815
-3.3320 -3.4453 -0.3592 0.9810
-3.2849 -4.0658 -0.3917 0.9793
0.6911 4.0969 -0.3114 0.9835
-1.3370 13.2904 -1.0010 0.9478
-2.3225 12.1166 -0.9245 0.9517
-3.3720 11.7928 -0.9192 0.9520
-4.8474 9.8642 -0.8237 0.9569
-6.0230 8.1746 -0.7609 0.9601
-6.9996 6.6202 -0.7220 0.9621
-7.8396 5.1285 -0.7020 0.9631
-8.2220 4.3874 -0.6984 0.9633
-8.5847 3.6403 -0.6988 0.9633
-8.9312 2.8800 -0.7032 0.9631
-9.2644 2.0991 -0.7119 0.9626
-9.5870 1.2893 -0.7249 0.9619
-10.6912 -2.4223 -0.8215 0.9570
-10.9900 -3.5438 -0.8653 0.9547
-4.6436 -2.4779 -0.3944 0.9791
-4.0156 -2.6269 -0.3596 0.9809
-3.4142 -3.2292 -0.3522 0.9813
-3.2785 -3.7070 -0.3709 0.9803
0.5241 4.2553 -0.3213 0.9829
-5.1646 9.4242 -0.8053 0.9578
-6.7703 7.0004 -0.7298 0.9617
-7.6399 5.4989 -0.7054 0.9629
-8.7598 3.2622 -0.7005 0.9632
-9.0993 2.4926 -0.7070 0.9629
-9.7451 0.8708 -0.7332 0.9615
-4.4479 0.0000 -0.4078 0.9823
-9.5969 -0.8576 -0.8833 0.9620
-10.3347 -3.8487 -1.0110 0.9567
-10.5675 -5.0476 -1.0736 0.9540
-3.3797 -3.4946 -0.4457 0.9807
-3.3906 -4.1966 -0.4946 0.9786
1.1355 14.5311 -1.3362 0.9431
-0.1478 13.2729 -1.2169 0.9481
-2.1391 11.1595 -1.0417 0.9554
-2.9313 10.2515 -0.9775 0.9581
-3.8630 10.0303 -0.9854 0.9577
-4.5218 9.2016 -0.9399 0.9597
-5.6473 7.6646 -0.8728 0.9625
-6.5839 6.2271 -0.8308 0.9643
-6.9993 5.5273 -0.8176 0.9648
-7.3862 4.8319 -0.8092 0.9652
-7.7488 4.1349 -0.8052 0.9653
-8.0904 3.4307 -0.8056 0.9653
-8.4138 2.7131 -0.8105 0.9651
-4.2496 0.5715 -0.3931 0.9829
-9.4712 -0.4222 -0.8690 0.9626
-4.7873 -2.5546 -0.4975 0.9784
-3.7063 -2.9268 -0.4330 0.9812
-3.3375 -3.7737 -0.4619 0.9800
0.5209 4.2295 -0.3907 0.9830
-0.7083 12.7041 -1.1665 0.9502
-2.5486 10.6946 -1.0079 0.9568
-3.5037 10.4650 -1.0117 0.9566
-4.2018 9.6098 -0.9615 0.9587
-4.8248 8.8043 -0.9204 0.9605
-5.8966 7.2984 -0.8602 0.9630
-6.3641 6.5805 -0.8393 0.9639
-7.1961 5.1794 -0.8128 0.9650
-7.5703 4.4839 -0.8066 0.9653
-7.9220 3.7841 -0.8049 0.9653
-8.2542 3.0739 -0.8075 0.9652
-4.9080 0.8842 -0.4572 0.9802
-4.1097 0.3672 -0.3783 0.9836
-3.7849 0.0000 -0.4105 0.9849
-9.8113 -4.6864 -1.1794 0.9572
-4.4379 -2.6285 -0.5595 0.9795
-3.4335 -3.5502 -0.5357 0.9803
1.0306 13.1887 -1.4349 0.9482
-1.1273 11.2059 -1.2216 0.9557
-1.9820 10.3401 -1.1420 0.9585
-2.7280 9.5406 -1.0763 0.9609
-4.2363 8.6207 -1.0419 0.9621
-4.8018 7.9049 -1.0032 0.9635
-5.3148 7.2133 -0.9718 0.9646
-5.7833 6.5393 -0.9469 0.9655
-6.2139 5.8770 -0.9277 0.9662
-6.9812 4.5670 -0.9049 0.9670
-7.3259 3.9093 -0.9007 0.9671
-7.6486 3.2433 -0.9011 0.9671
-7.9518 2.5641 -0.9062 0.9669
-4.7637 1.0793 -0.5298 0.9805
-3.9257 -0.1751 -0.4262 0.9843
-3.7580 -2.9677 -0.5194 0.9809
-5.0643 7.5565 -0.9867 0.9641
-5.5541 6.8745 -0.9586 0.9651
-6.0030 6.2071 -0.9366 0.9659
-6.7998 4.8942 -0.9087 0.9669
-7.1565 4.2388 -0.9022 0.9671
-7.4899 3.5776 -0.9003 0.9672
-8.0967 2.2179 -0.9106 0.9668
-3.9948 0.7197 -0.4403 0.9838
-3.5692 0.0000 -0.4473 0.9857
-3.7700 -0.3369 -0.4743 0.9849
-8.8713 -2.4301 -1.1527 0.9636
-9.0226 -3.3600 -1.2065 0.9619
-3.9994 -2.8786 -0.6175 0.9803
-3.6879 -3.1891 -0.6110 0.9805
3.7011 14.1271 -1.8301 0.9428
0.9432 12.0696 -1.5171 0.9524
-1.8460 9.6305 -1.2288 0.9612
-2.5509 8.9211 -1.1628 0.9633
-3.3841 8.7867 -1.1800 0.9628
-3.9839 8.1070 -1.1320 0.9642
-5.0182 6.8108 -1.0602 0.9665
-6.2637 4.9464 -1.0002 0.9683
-6.6171 4.3287 -0.9909 0.9686
-7.2513 3.0748 -0.9870 0.9687
-7.5365 2.4302 -0.9923 0.9686
-3.5348 0.1576 -0.4434 0.9858
-3.6310 -0.1619 -0.4555 0.9855
-8.7887 -1.9912 -1.1293 0.9643
-9.0909 -3.8548 -1.2374 0.9610
-4.2257 -2.7643 -0.6328 0.9798
-3.8264 -3.0216 -0.6110 0.9805
2.9150 13.5652 -1.7387 0.9456
0.5160 4.1899 -0.5290 0.9831
0.3886 11.6217 -1.4572 0.9542
-0.6013 10.7842 -1.3535 0.9574
-1.4588 10.0022 -1.2667 0.9601
-2.2093 9.2706 -1.1943 0.9623
-2.8730 8.5813 -1.1340 0.9642
-4.7776 7.1287 -1.0754 0.9660
-5.2482 6.4958 -1.0465 0.9669
-7.3963 2.7544 -0.9891 0.9687
-7.6719 2.1016 -0.9968 0.9684
-3.5138 -0.3140 -0.5018 0.9858
-8.3612 -2.2903 -1.2331 0.9656
-4.8889 -2.8957 -0.8082 0.9773
-4.0845 -2.9399 -0.7158 0.9799
-3.7613 -3.2525 -0.7073 0.9801
-3.6109 -3.7337 -0.7388 0.9792
-8.5165 -10.5410 -1.9275 0.9467
-0.1156 10.3764 -1.4760 0.9589
-1.7270 9.0096 -1.3048 0.9636
-3.1854 8.2708 -1.2606 0.9648
-4.2786 7.0437 -1.1722 0.9673
-5.5826 5.2800 -1.0930 0.9694
-6.6013 3.5226 -1.0643 0.9702
-6.8917 2.9224 -1.0647 0.9702
-7.1609 2.3091 -1.0702 0.9701
-4.1432 0.9387 -0.6042 0.9830
-3.3671 0.4528 -0.4832 0.9864
-3.4470 -0.1537 -0.4908 0.9862
-3.8975 -3.0779 -0.7064 0.9801
2.6557 12.3584 -1.7979 0.9502
0.5154 4.1845 -0.5997 0.9831
0.3592 10.7425 -1.5288 0.9575
-0.5588 10.0223 -1.4277 0.9603
-1.3620 9.3389 -1.3424 0.9626
-2.7011 8.0677 -1.2101 0.9662
-3.4795 7.9579 -1.2354 0.9655
-4.9731 6.1553 -1.1256 0.9685
-5.3879 5.5711 -1.1024 0.9692
-6.1218 4.4062 -1.0728 0.9700
-6.4475 3.8189 -1.0659 0.9702
-7.0289 2.6176 -1.0668 0.9702
-3.3525 0.2996 -0.4787 0.9865
-3.3916 -0.3031 -0.5422 0.9863
-7.7863 -1.4028 -1.2598 0.9685
-8.0659 -3.8528 -1.4234 0.9644
-3.7552 -3.8829 -0.8602 0.9784
-7.8104 -9.6670 -1.9790 0.9509
-7.5707 -11.2962 -2.1654 0.9464
6.1957 13.3513 -2.3438 0.9421
3.0688 11.7135 -1.9282 0.9521
0.6995 4.1470 -0.6697 0.9831
-0.1077 9.6671 -1.5394 0.9616
-0.9109 9.0553 -1.4492 0.9638
-2.2559 7.8894 -1.3066 0.9673
-4.5114 6.1229 -1.2111 0.9697
-4.9282 5.5725 -1.1846 0.9703
-5.6634 4.4724 -1.1491 0.9712
-6.2881 3.3555 -1.1350 0.9715
-3.2540 0.4376 -0.5228 0.9868
-3.2600 0.1454 -0.5196 0.9869
-3.4817 -0.4682 -0.5594 0.9859
-8.0883 -4.3160 -1.4599 0.9635
-3.7564 -3.5528 -0.8233 0.9793
-7.8982 -8.9306 -1.8984 0.9529
-7.7021 -10.4534 -2.0676 0.9488
5.3070 12.9137 -2.2232 0.9450
-0.5218 9.3581 -1.4925 0.9627
-1.9477 8.1731 -1.3379 0.9665
-3.2893 7.5230 -1.3074 0.9673
-4.2889 6.3995 -1.2267 0.9693
-4.7243 5.8474 -1.1970 0.9700
-5.1236 5.2978 -1.1736 0.9706
-5.4908 4.7482 -1.1559 0.9710
-6.1413 3.6375 -1.1366 0.9715
-6.4292 3.0710 -1.1346 0.9716
-6.6947 2.4932 -1.1376 0.9715
-3.5500 0.6396 -0.5744 0.9855
-3.2454 0.2900 -0.5188 0.9869
-7.3943 -1.3322 -1.3248 0.9699
-7.4931 -2.0526 -1.3699 0.9689
-7.6102 -3.6351 -1.4871 0.9663
-7.6216 -4.5143 -1.5619 0.9647
-4.0062 -3.4644 -0.9339 0.9787
-7.3992 -7.6508 -1.8767 0.9577
-7.2094 -8.9232 -2.0228 0.9545
-6.9379 -10.3521 -2.1974 0.9506
-6.5627 -11.9754 -2.4079 0.9460
4.1080 11.4184 -2.1397 0.9519
2.8256 10.7851 -1.9659 0.9557
0.7504 9.6029 -1.6984 0.9616
-3.3751 6.8682 -1.3494 0.9694
-4.2929 5.8265 -1.2761 0.9710
-4.6946 5.3083 -1.2495 0.9716
-5.0634 4.7890 -1.2289 0.9721
-5.4026 4.2664 -1.2139 0.9724
-6.2658 2.6570 -1.2001 0.9727
-3.8237 0.8663 -0.6913 0.9842
-3.1644 0.1411 -0.5585 0.9872
-3.2276 -0.1439 -0.5697 0.9870
-3.3507 -0.4506 -0.5961 0.9864
-7.4468 -1.6872 -1.3464 0.9695
-7.6203 -4.0663 -1.5230 0.9655
-7.6135 -4.9805 -1.6042 0.9637
-7.3134 -8.2693 -1.9465 0.9562
-7.0851 -9.6159 -2.1061 0.9526
-6.3271 -12.8752 -2.5296 0.9434
0.3117 9.3218 -1.6446 0.9628
-0.4892 8.7735 -1.5494 0.9649
-1.2014 8.2379 -1.4679 0.9668
-1.8380 7.7125 -1.3980 0.9683
-3.6204 6.6064 -1.3283 0.9699
-4.0787 6.0858 -1.2918 0.9707
-4.8828 5.0489 -1.2385 0.9719
-5.2365 4.5282 -1.2207 0.9723
-5.5619 4.0033 -1.2083 0.9725
-6.1367 2.9313 -1.1992 0.9728
-4.2904 1.1753 -0.7844 0.9821
-3.4371 0.6192 -0.6158 0.9859
-3.1509 0.2816 -0.5578 0.9872
-7.1203 -1.9504 -1.4287 0.9704
-7.1756 -2.6722 -1.4818 0.9693
-7.2009 -3.4396 -1.5443 0.9680
-6.9040 -7.1387 -1.9219 0.9603
-6.6915 -8.2822 -2.0605 0.9575
-6.3998 -9.5492 -2.2246 0.9542
-6.0091 -10.9652 -2.4197 0.9503
-5.4933 -12.5634 -2.6535 0.9457
6.6820 11.5735 -2.5862 0.9470
-0.0946 8.4959 -1.6442 0.9660
-1.4445 7.5359 -1.4849 0.9692
-2.0194 7.0623 -1.4215 0.9705
-2.5398 6.5944 -1.3675 0.9716
-3.2098 6.5318 -1.4084 0.9708
-4.4809 5.0666 -1.3089 0.9728
-5.1634 4.0775 -1.2732 0.9736
-5.4637 3.5742 -1.2635 0.9738
-5.7392 3.0625 -1.2589 0.9738
-6.2212 2.0061 -1.2650 0.9737
-3.1048 0.4176 -0.6062 0.9873
-3.0750 0.1371 -0.5957 0.9875
-3.1273 -0.1394 -0.6058 0.9873
-3.2339 -0.4349 -0.6315 0.9868
-7.0824 -1.6046 -1.4053 0.9708
-7.2011 -3.8426 -1.5795 0.9673
-7.1042 -5.6101 -1.7518 0.9638
-6.9851 -6.6065 -1.8606 0.9616
-6.8067 -7.6965 -1.9883 0.9590
-6.5567 -8.8988 -2.1391 0.9560
-6.2183 -10.2367 -2.3178 0.9524
-5.7687 -11.7390 -2.5312 0.9481
-5.1779 -13.4442 -2.7880 0.9430
5.8708 11.3032 -2.4648 0.9494
4.4259 10.7696 -2.2532 0.9537
3.1785 10.2464 -2.0761 0.9572
2.0917 9.7338 -1.9267 0.9602
-1.1339 7.7751 -1.5205 0.9685
-3.8870 5.7999 -1.3511 0.9720
-5.0034 4.3266 -1.2801 0.9734
-5.3167 3.8268 -1.2677 0.9737
-6.1090 2.2750 -1.2615 0.9738
-3.0639 0.2738 -0.5953 0.9875
-3.0994 -0.2770 -0.6560 0.9874
-3.2303 -0.5820 -0.6920 0.9867
-6.7808 -1.8574 -1.4822 0.9717
-6.8064 -4.0314 -1.6677 0.9682
-6.6321 -5.7350 -1.8484 0.9648
-6.4683 -6.6882 -1.9616 0.9627
-6.2408 -7.7243 -2.0935 0.9602
-5.9365 -8.8578 -2.2480 0.9573
7.6989 10.9518 -2.8223 0.9467
6.0957 10.5581 -2.5702 0.9514
4.7087 10.1468 -2.3583 0.9553
3.4989 9.7252 -2.1789 0.9586
2.4360 9.2979 -2.0263 0.9615
0.7105 4.2120 -0.9005 0.9827
-0.0892 8.0063 -1.6880 0.9678
-1.9177 6.7069 -1.4706 0.9719
-2.4166 6.2746 -1.4175 0.9729
-3.9108 5.3078 -1.3899 0.9734
-4.2846 4.8447 -1.3635 0.9739
-5.7384 2.4333 -1.3140 0.9748
-5.9574 1.9211 -1.3196 0.9747
-3.0346 0.4081 -0.6455 0.9876
-3.0505 -0.1360 -0.6438 0.9876
-6.7499 -1.5293 -1.4591 0.9721
-6.8303 -2.8963 -1.5641 0.9701
-6.3633 -7.1951 -2.0250 0.9615
-5.7506 -9.4668 -2.3352 0.9557
-4.7165 -12.2462 -2.7666 0.9478
8.5967 11.1390 -2.9664 0.9441
6.8675 10.7577 -2.6907 0.9492
4.0836 9.9370 -2.2649 0.9570
1.9518 9.0830 -1.9586 0.9627
0.5132 4.1666 -0.8850 0.9830
-0.4344 7.7913 -1.6451 0.9686
-1.0732 7.3584 -1.5677 0.9701
-2.1730 6.4904 -1.4429 0.9724
-2.8215 6.4531 -1.4848 0.9716
-3.7115 5.5380 -1.4055 0.9731
-4.1017 5.0767 -1.3759 0.9737
-4.7889 4.1411 -1.3347 0.9745
-5.6206 2.6847 -1.3132 0.9749
-4.0001 1.0957 -0.8744 0.9832
-2.9710 0.0000 -0.6781 0.9879
-3.0430 -0.2719 -0.6973 0.9875
-3.1642 -0.5700 -0.7338 0.9869
-6.4953 -3.1025 -1.6430 0.9709
-6.4575 -3.8248 -1.7130 0.9697
-6.3801 -4.5921 -1.7942 0.9683
-5.8444 -7.2337 -2.1226 0.9626
-5.1342 -9.3687 -2.4384 0.9571
-3.9917 -11.9227 -2.8697 0.9497
-3.1935 -13.4005 -3.1442 0.9450
8.6404 10.2198 -3.0545 0.9466
5.6009 9.7009 -2.5567 0.9551
4.3555 9.3859 -2.3617 0.9584
0.7183 4.2583 -0.9857 0.9824
-2.9208 5.9437 -1.5116 0.9732
-3.3493 5.5137 -1.4725 0.9739
-3.7425 5.0794 -1.4400 0.9744
-4.4352 4.1948 -1.3934 0.9753
-4.7395 3.7428 -1.3784 0.9755
-5.2729 2.8137 -1.3641 0.9758
-5.5044 2.3341 -1.3646 0.9758
-3.4289 0.7769 -0.8025 0.9857
-2.9453 0.1313 -0.6729 0.9880
-3.0959 -0.4164 -0.7130 0.9873
-6.4453 -1.4603 -1.5084 0.9732
-6.4810 -3.4584 -1.6767 0.9703
-6.4241 -4.2025 -1.7521 0.9690
-6.3248 -4.9947 -1.8395 0.9675
-6.1767 -5.8419 -1.9405 0.9657
-5.3459 -8.8004 -2.3502 0.9586
-4.8960 -9.9631 -2.5338 0.9555
-2.7218 -14.1992 -3.2999 0.9424
9.5410 10.3155 -3.2071 0.9440
7.8012 10.1082 -2.9143 0.9490
1.8287 8.5101 -1.9867 0.9649
0.2594 7.7591 -1.7719 0.9686
-0.4112 7.3745 -1.6858 0.9702
-1.0181 6.9811 -1.6102 0.9715
-2.0700 6.1827 -1.4881 0.9736
-2.6922 6.1573 -1.5338 0.9728
-5.6117 2.0898 -1.3668 0.9757
-3.8725 1.0608 -0.9164 0.9837
-3.1659 0.5704 -0.7342 0.9869
-2.9881 -0.2670 -0.7374 0.9877
-3.1004 -0.5585 -0.7743 0.9871
-6.2023 -2.3098 -1.6268 0.9731
-6.1887 -2.9561 -1.6858 0.9721
-5.7365 -5.9315 -2.0283 0.9666
-5.4928 -6.7986 -2.1484 0.9646
-5.1791 -7.7278 -2.2866 0.9624
-4.7825 -8.7269 -2.4461 0.9598
-3.6735 -10.9722 -2.8441 0.9535
9.4852 9.3802 -3.2790 0.9465
5.1773 8.9674 -2.5452 0.9582
3.0415 8.4539 -2.2084 0.9637
2.1371 8.1571 -2.0727 0.9659
1.3228 7.8418 -1.9547 0.9678
0.5871 7.5121 -1.8521 0.9694
-0.0799 7.1712 -1.7628 0.9709
-1.2374 6.4555 -1.6157 0.9733
-1.7404 6.0869 -1.5561 0.9743
-2.2280 5.7849 -1.5237 0.9748
-2.7937 5.6850 -1.5570 0.9742
-3.2071 5.2796 -1.5184 0.9749
-5.0648 2.7027 -1.4111 0.9766
-5.4871 1.7694 -1.4171 0.9765
-3.3132 0.7507 -0.8350 0.9861
-2.9494 -0.1315 -0.7257 0.9879
-6.1017 -3.9916 -1.7922 0.9704
-5.8353 -5.5190 -1.9742 0.9675
-5.6227 -6.3577 -2.0862 0.9656
-5.3455 -7.2549 -2.2150 0.9636
-4.9921 -8.2181 -2.3635 0.9612
8.6531 9.3556 -3.1324 0.9489
5.7919 9.0729 -2.6458 0.9566
3.5316 8.5937 -2.2837 0.9625
2.5772 8.3081 -2.1381 0.9648
1.7194 8.0014 -2.0117 0.9669
0.5139 4.1725 -1.0333 0.9828
-1.9755 5.9006 -1.5295 0.9747
-3.0048 5.4830 -1.5368 0.9746
-3.4010 5.0747 -1.5016 0.9752
-3.7651 4.6602 -1.4726 0.9756
-4.0997 4.2391 -1.4496 0.9760
-4.9452 2.9291 -1.4127 0.9766
-5.1788 2.4737 -1.4107 0.9766
-5.3899 2.0072 -1.4137 0.9766
-3.0843 0.5557 -0.7703 0.9872
-2.8744 -0.0000 -0.7574 0.9882
-2.9343 -0.2622 -0.7763 0.9879
-5.9300 -2.2083 -1.6674 0.9742
-5.9076 -2.8218 -1.7251 0.9733
-5.6153 -4.8558 -1.9561 0.9698
-5.1788 -6.4099 -2.1714 0.9665
-4.4736 -8.1633 -2.4529 0.9622
-3.9908 -9.1271 -2.6249 0.9596
-2.6822 -11.2551 -3.0488 0.9533
8.6370 8.5413 -3.2007 0.9510
4.8106 8.3322 -2.5352 0.9610
2.8528 7.9294 -2.2205 0.9657
2.0122 7.6803 -2.0921 0.9677
1.2496 7.4081 -1.9796 0.9694
0.5562 7.1175 -1.8812 0.9709
-0.0759 6.8119 -1.7951 0.9722
-2.1993 5.7104 -1.6124 0.9750
-2.6762 5.4459 -1.5989 0.9752
-3.0754 5.0629 -1.5609 0.9758
-4.0905 3.8688 -1.4836 0.9770
-4.3748 3.4548 -1.4689 0.9772
-4.6347 3.0319 -1.4593 0.9774
-5.2763 1.7014 -1.4608 0.9773
-2.8515 0.1272 -0.7521 0.9883
-2.9007 -0.1293 -0.7651 0.9881
-2.9836 -0.4013 -0.7933 0.9876
-3.0953 -0.7013 -0.8363 0.9870
-5.9293 -1.9119 -1.6416 0.9746
-5.8837 -3.1396 -1.7573 0.9728
-5.6910 -4.4941 -1.9108 0.9704
-5.3100 -6.0041 -2.1121 0.9674
-5.0309 -6.8280 -2.2348 0.9655
-3.7101 -9.6331 -2.7201 0.9582
-3.0586 -10.6965 -2.9315 0.9550
-2.2681 -11.8322 -3.1746 0.9514
-0.1596 -14.3303 -3.7763 0.9424
5.3666 8.4067 -2.6280 0.9596
4.2829 8.2460 -2.4484 0.9623
0.5143 4.1755 -1.1085 0.9827
0.2330 6.9664 -1.8367 0.9716
-1.8886 5.6410 -1.5675 0.9757
-2.4637 5.6347 -1.6205 0.9749
-4.2358 3.6629 -1.4756 0.9771
-3.7365 1.0235 -1.0208 0.9841
-2.8347 0.2533 -0.7499 0.9883
-2.8279 0.0000 -0.7956 0.9883
-2.8819 -0.2575 -0.8141 0.9880
-2.9786 -0.5366 -0.8515 0.9875
-5.6488 -2.6982 -1.7613 0.9743
-5.5848 -3.3079 -1.8263 0.9734
-5.3380 -4.6159 -1.9855 0.9711
-5.1448 -5.3196 -2.0822 0.9697
-4.5847 -6.8408 -2.3170 0.9664
-4.1999 -7.6639 -2.4589 0.9643
-3.7306 -8.5322 -2.6200 0.9620
-1.6660 -11.4229 -3.2479 0.9532
10.8010 7.4145 -3.6860 0.9470
9.2973 7.6844 -3.3937 0.9511
6.6687 7.8878 -2.9061 0.9580
4.4898 7.7765 -2.5264 0.9634
1.9001 7.2528 -2.1095 0.9693
-0.0722 6.4835 -1.8243 0.9734
-0.6225 6.1883 -1.7499 0.9745
-1.1273 5.8812 -1.6848 0.9754
-1.5908 5.5636 -1.6281 0.9762
-2.5673 5.2244 -1.6378 0.9761
-3.3084 4.4903 -1.5693 0.9771
-4.2107 3.3252 -1.5096 0.9780
-4.4619 2.9189 -1.5002 0.9781
-2.7751 0.3732 -0.7878 0.9884
-2.8062 0.1251 -0.7903 0.9884
-2.8531 -0.1272 -0.8035 0.9882
-2.9298 -0.3940 -0.8317 0.9878
-5.5388 -3.6233 -1.8622 0.9729
-5.4161 -4.2770 -1.9417 0.9717
-4.7490 -6.4454 -2.2525 0.9673
-3.4601 -8.9840 -2.7087 0.9608
-2.0915 -10.9112 -3.1258 0.9549
-0.1451 -13.0225 -3.6642 0.9473
1.1043 -14.1319 -3.9882 0.9428
10.0327 7.5660 -3.5355 0.9491
8.5941 7.7729 -3.2603 0.9530
4.9965 7.8269 -2.6126 0.9621
4.0064 7.7136 -2.4455 0.9645
3.1050 7.5555 -2.2983 0.9666
-1.3640 5.7236 -1.6555 0.9758
-1.8085 5.4018 -1.6028 0.9766
-2.3622 5.4024 -1.6590 0.9758
-2.7642 5.0441 -1.6183 0.9764
-3.1345 4.6770 -1.5841 0.9769
-3.6501 0.9999 -1.0648 0.9844
-2.9229 0.5266 -0.8356 0.9877
-2.7884 0.2492 -0.7877 0.9884
-2.9224 -0.5265 -0.8890 0.9877
-5.4453 -2.0279 -1.7396 0.9760
-5.3399 -3.1629 -1.8581 0.9744
-5.2330 -3.7665 -1.9303 0.9734
-4.8891 -5.0553 -2.1055 0.9711
-4.6409 -5.7441 -2.2108 0.9696
-4.3326 -6.4646 -2.3299 0.9680
-3.5003 -8.0055 -2.6158 0.9642
-1.5403 -10.5613 -3.1953 0.9564
1.6376 -13.2961 -4.0107 0.9456
12.7135 5.7284 -4.1747 0.9434
7.3115 7.2305 -3.0785 0.9580
6.1894 7.3208 -2.8701 0.9608
4.2066 7.2860 -2.5187 0.9655
2.5342 7.0438 -2.2411 0.9692
1.7991 6.8670 -2.1252 0.9708
-0.0688 6.1814 -1.8507 0.9745
-1.0786 5.6272 -1.7154 0.9764
-1.5244 5.3311 -1.6600 0.9771
-3.1832 4.3203 -1.6066 0.9778
-3.7907 3.5853 -1.5621 0.9784
-4.0572 3.2039 -1.5477 0.9786
-4.3002 2.8131 -1.5384 0.9788
-4.5205 2.4122 -1.5340 0.9788
-4.7188 2.0009 -1.5345 0.9788
-2.7203 0.3659 -0.8218 0.9886
-2.7619 0.1232 -0.8277 0.9885
-2.8066 -0.1251 -0.8411 0.9883
-2.8771 -0.3869 -0.8691 0.9880
-5.4314 -2.3031 -1.7662 0.9757
-4.4947 -6.1003 -2.2685 0.9689
-1.9393 -10.1171 -3.0840 0.9579
-1.1077 -11.0114 -3.3133 0.9548
-0.1328 -11.9244 -3.5702 0.9514
1.0037 -12.8442 -3.8570 0.9476
2.3174 -13.7383 -4.1711 0.9435
10.5240 6.5544 -3.7117 0.9495
9.1690 6.9146 -3.4381 0.9532
7.9071 7.1516 -3.1918 0.9565
6.7391 7.2862 -2.9713 0.9594
5.6620 7.3365 -2.7744 0.9620
4.6713 7.3175 -2.5990 0.9644
1.4543 6.7677 -2.0724 0.9715
0.5150 4.1815 -1.2613 0.9826
0.2110 6.3104 -1.8903 0.9740
-0.3372 6.0482 -1.8135 0.9750
-1.7488 5.2235 -1.6491 0.9773
-2.2678 5.1867 -1.6947 0.9766
-2.6564 4.8474 -1.6548 0.9772
-3.0146 4.4983 -1.6212 0.9776
-3.6484 3.7725 -1.5712 0.9783
-3.9270 3.3958 -1.5542 0.9786
-4.1815 3.0097 -1.5424 0.9787
-2.8473 0.5130 -0.8662 0.9880
-2.7412 0.2450 -0.8239 0.9886
-2.7380 0.0000 -0.8695 0.9886
-2.9540 -0.8092 -0.9727 0.9872
-5.1134 -3.0287 -1.8874 0.9754
-4.1046 -6.1245 -2.3415 0.9695
-2.1538 -9.0377 -2.9506 0.9618
-1.4313 -9.8139 -3.1497 0.9592
-0.5909 -10.5977 -3.3709 0.9564
0.3804 -11.3783 -3.6156 0.9533
1.4949 -12.1374 -3.8838 0.9500
4.1816 -13.4802 -4.4823 0.9425
12.7962 4.4433 -4.3019 0.9447
10.2295 5.7550 -3.7275 0.9519
7.8675 6.5026 -3.2416 0.9581
4.8285 6.8686 -2.6664 0.9654
2.3983 6.6663 -2.2499 0.9707
-1.0336 5.3921 -1.7436 0.9772
-1.9805 5.1423 -1.7501 0.9771
-2.7327 4.4987 -1.6716 0.9782
-3.6548 3.4568 -1.5976 0.9791
-3.9130 3.0901 -1.5835 0.9793
-4.3613 2.3273 -1.5699 0.9795
-4.7221 1.5227 -1.5757 0.9794
-2.6672 0.3587 -0.8547 0.9888
-2.7186 0.1212 -0.8643 0.9886
-2.8254 -0.3800 -0.9054 0.9881
-5.2120 -2.2101 -1.7979 0.9765
-5.1548 -2.7507 -1.8556 0.9758
-4.7596 -4.5016 -2.0806 0.9729
-0.1224 -10.9893 -3.4902 0.9549
3.4511 -13.1727 -4.3246 0.9445
13.4702 4.0145 -4.4639 0.9427
12.1442 4.8333 -4.1510 0.9466
10.8579 5.4867 -3.8635 0.9502
9.6140 5.9876 -3.5970 0.9536
7.3166 6.6175 -3.1331 0.9594
6.2681 6.7770 -2.9317 0.9620
5.2908 6.8555 -2.7502 0.9643
3.5425 6.8206 -2.4408 0.9683
2.0461 6.5958 -2.1932 0.9714
1.3819 6.4308 -2.0890 0.9728
0.5159 4.1885 -1.3403 0.9824
-0.3223 5.7816 -1.8390 0.9760
-1.7344 5.1804 -1.7350 0.9773
-2.1799 4.9855 -1.7281 0.9774
-2.5557 4.6636 -1.6889 0.9779
-3.2226 3.9887 -1.6285 0.9787
-3.5169 3.6365 -1.6066 0.9790
-4.0334 2.9031 -1.5783 0.9794
-4.4596 2.1302 -1.5696 0.9795
-4.6399 1.7280 -1.5725 0.9794
-3.4729 0.9514 -1.1436 0.9850
-2.6951 0.2408 -0.8593 0.9887
-2.8177 -0.5077 -0.9620 0.9880
-4.9810 -2.3792 -1.8547 0.9770
-4.9033 -2.9042 -1.9147 0.9762
-4.7899 -3.4476 -1.9828 0.9754
-4.4410 -4.5920 -2.1463 0.9734
-4.1963 -5.1938 -2.2434 0.9722
-3.5379 -6.4558 -2.4734 0.9694
-3.1104 -7.1137 -2.6086 0.9678
-2.6069 -7.7865 -2.7589 0.9659
-2.0185 -8.4702 -2.9255 0.9639
0.3516 -10.5150 -3.5348 0.9566
1.3738 -11.1549 -3.7762 0.9537
3.7958 -12.2363 -4.3045 0.9474
5.1920 -12.6340 -4.5893 0.9440
9.3847 5.2798 -3.6178 0.9556
3.7291 6.4589 -2.5058 0.9690
1.6237 6.1980 -2.1527 0.9733
0.3364 4.3043 -1.4506 0.9819
-2.2831 4.6460 -1.7393 0.9784
-2.6329 4.3344 -1.7039 0.9788
-3.2536 3.6789 -1.6501 0.9795
-3.7774 2.9830 -1.6171 0.9799
-4.0053 2.6202 -1.6081 0.9800
-4.2113 2.2473 -1.6038 0.9801
-4.3959 1.8641 -1.6042 0.9801
-2.6271 0.5952 -0.9051 0.9887
-2.7168 -0.1212 -0.9137 0.9886
-2.7751 -0.3732 -0.9408 0.9883
-2.8653 -0.6492 -0.9871 0.9877
-5.0376 -1.6244 -1.7784 0.9779
-5.0076 -2.1234 -1.8275 0.9773
-4.3250 -4.8904 -2.1935 0.9728
-4.0540 -5.5021 -2.2962 0.9716
-3.7257 -6.1333 -2.4111 0.9702
-3.3331 -6.7827 -2.5392 0.9686
-2.3239 -8.1273 -2.8401 0.9650
-1.6896 -8.8143 -3.0154 0.9628
-0.9559 -9.5025 -3.2088 0.9605
-0.1134 -10.1823 -3.4213 0.9579
0.8471 -10.8404 -3.6533 0.9552
12.9219 3.8511 -4.5302 0.9447
11.0379 4.3930 -3.9914 0.9511
9.9314 5.0185 -3.7386 0.9541
8.8457 5.5091 -3.5013 0.9570
7.7968 5.8799 -3.2810 0.9596
5.8543 6.3297 -2.8968 0.9643
4.1261 6.4633 -2.5763 0.9682
1.3158 6.1232 -2.1042 0.9739
0.5173 4.2000 -1.4218 0.9823
0.1924 5.7539 -1.9343 0.9760
-0.7727 5.2980 -1.7989 0.9777
-1.7046 5.0913 -1.8039 0.9776
-2.0977 4.7975 -1.7592 0.9781
-3.1078 3.8466 -1.6615 0.9793
-3.3932 3.5086 -1.6400 0.9796
-4.1110 2.4350 -1.6053 0.9800
-2.7169 0.4895 -0.9275 0.9884
-2.6518 0.0000 -0.9403 0.9888
-2.6931 -0.2407 -0.9588 0.9886
-2.7668 -0.4985 -0.9969 0.9881
-4.8371 -1.8013 -1.8303 0.9783
-4.7076 -2.7883 -1.9401 0.9770
-4.0014 -4.9526 -2.2577 0.9733
-3.7081 -5.5329 -2.3617 0.9721
-2.9437 -6.7325 -2.6055 0.9693
-2.4596 -7.3466 -2.7471 0.9677
-1.8980 -7.9644 -2.9032 0.9658
-1.2513 -8.5797 -3.0744 0.9639
0.3265 -9.7657 -3.4647 0.9594
1.2699 -10.3109 -3.6837 0.9569
6.0559 -11.6596 -4.6587 0.9458
7.4498 -11.6698 -4.9092 0.9429
14.0232 0.9387 -4.9836 0.9421
11.1039 3.8557 -4.1679 0.9513
9.6250 4.3368 -3.7433 0.9562
8.6615 4.8729 -3.5239 0.9587
5.9075 5.8420 -2.9460 0.9654
5.0693 5.9958 -2.7841 0.9672
3.5257 6.1067 -2.5003 0.9705
1.5439 5.8931 -2.1601 0.9745
0.9727 5.7667 -2.0737 0.9755
-0.0602 5.4090 -1.9181 0.9773
-3.6494 2.8820 -1.6489 0.9805
-3.8704 2.5319 -1.6399 0.9806
-4.2482 1.8014 -1.6362 0.9806
-4.4054 1.4206 -1.6413 0.9805
-2.5615 0.5804 -0.9313 0.9889
-2.6733 -0.1192 -0.9489 0.9887
-2.7260 -0.3666 -0.9753 0.9884
-2.8093 -0.6365 -1.0214 0.9878
-4.8165 -2.0424 -1.8551 0.9780
-4.7521 -2.5358 -1.9099 0.9774
-4.5205 -3.5698 -2.0425 0.9759
-4.1285 -4.6682 -2.2097 0.9739
-3.1590 -6.4284 -2.5398 0.9701
-0.8937 -8.8838 -3.1660 0.9628
-0.1056 -9.4784 -3.3611 0.9606
0.7848 -10.0439 -3.5723 0.9581
1.7811 -10.5590 -3.7970 0.9556
4.0856 -11.3560 -4.2794 0.9501
5.3799 -11.5933 -4.5319 0.9472
12.7379 2.5891 -4.6091 0.9463
11.7722 3.5085 -4.3557 0.9492
7.2480 5.4660 -3.2189 0.9622
5.4810 5.9260 -2.8623 0.9663
4.6687 6.0494 -2.7095 0.9681
3.8950 6.1015 -2.5667 0.9697
3.1680 6.0994 -2.4371 0.9713
1.2550 5.8402 -2.1181 0.9750
0.5187 4.2116 -1.5047 0.9822
-0.2958 5.3059 -1.8843 0.9777
-0.7417 5.0861 -1.8225 0.9784
-1.1558 4.8500 -1.7679 0.9791
-1.6404 4.8998 -1.8322 0.9783
-2.0206 4.6213 -1.7884 0.9788
-3.2768 3.3882 -1.6713 0.9802
-3.9728 2.3531 -1.6372 0.9806
-4.1616 1.9879 -1.6354 0.9806
-4.3295 1.6123 -1.6382 0.9806
-2.6623 0.4797 -0.9592 0.9886
-2.6101 0.0000 -0.9746 0.9889
-2.6498 -0.2368 -0.9934 0.9887
-2.7171 -0.4895 -1.0309 0.9883
-4.6596 -1.7352 -1.8567 0.9790
-4.5250 -2.6801 -1.9638 0.9778
-4.4082 -3.1728 -2.0281 0.9771
-4.0604 -4.1985 -2.1810 0.9754
-3.8219 -4.7304 -2.2709 0.9744
-2.3266 -6.9493 -2.7365 0.9692
0.3046 -9.1089 -3.4033 0.9618
2.1443 -9.9788 -3.8113 0.9574
4.3262 -10.5271 -4.2499 0.9526
8.0135 -10.3833 -4.8977 0.9455
9.2454 -9.9960 -5.0844 0.9435
10.4135 -9.4185 -5.2430 0.9418
13.6689 -1.5291 -5.1360 0.9430
13.2714 -0.2957 -4.9569 0.9449
11.2178 2.8058 -4.3179 0.9518
10.3597 3.5973 -4.0950 0.9543
8.9046 4.0122 -3.6470 0.9592
8.0349 4.5204 -3.4425 0.9614
6.3524 5.2504 -3.0774 0.9654
5.5459 5.4845 -2.9125 0.9672
3.3356 5.7774 -2.4911 0.9719
2.6760 5.7667 -2.3739 0.9732
2.0556 5.7137 -2.2674 0.9744
0.9299 5.5126 -2.0875 0.9764
0.3340 4.2741 -1.6009 0.9819
-0.5022 4.9927 -1.8737 0.9788
-1.3779 4.8190 -1.8716 0.9788
-1.7676 4.5896 -1.8365 0.9792
-2.1221 4.3185 -1.7967 0.9797
-2.4508 4.0346 -1.7627 0.9800
-3.9360 2.1004 -1.6659 0.9811
-4.1085 1.7422 -1.6664 0.9811
-4.2601 1.3737 -1.6715 0.9811
-2.5436 0.5763 -0.9739 0.9889
-2.5920 0.1156 -0.9689 0.9890
-2.7556 -0.6244 -1.0551 0.9880
-4.5704 -2.4389 -1.9345 0.9781
-4.4710 -2.9248 -1.9950 0.9774
-4.1628 -3.9371 -2.1396 0.9758
-3.3707 -5.5490 -2.4244 0.9727
-1.4930 -7.7887 -2.9614 0.9667
-0.0987 -8.8587 -3.3082 0.9629
1.6508 -9.7867 -3.7061 0.9585
3.7519 -10.4285 -4.1385 0.9538
4.9168 -10.5954 -4.3617 0.9513
6.1369 -10.6293 -4.5831 0.9489
8.6346 -10.2131 -4.9940 0.9445
13.4931 -0.9032 -5.0497 0.9439
13.0079 0.2899 -4.8585 0.9460
12.3733 1.3842 -4.6491 0.9482
11.6244 2.3628 -4.4294 0.9506
8.4623 4.2762 -3.5404 0.9603
6.7660 5.1025 -3.1644 0.9645
5.9454 5.3773 -2.9934 0.9664
3.0009 5.7777 -2.4311 0.9726
1.1985 5.5775 -2.1302 0.9759
0.5202 4.2234 -1.5890 0.9820
0.1765 5.2779 -1.9719 0.9777
-0.7129 4.8882 -1.8446 0.9791
-1.5802 4.7200 -1.8587 0.9790
-1.9482 4.4557 -1.8159 0.9795
-2.2896 4.1780 -1.7790 0.9799
-2.8979 3.5867 -1.7218 0.9805
-3.4134 2.9517 -1.6851 0.9809
-3.6383 2.6187 -1.6739 0.9810
-4.1869 1.5592 -1.6683 0.9811
-3.4440 0.9434 -1.3334 0.9849
-2.6096 0.4702 -0.9901 0.9887
-2.6685 -0.4808 -1.0642 0.9884
-2.7221 -0.7457 -1.1077 0.9879
-2.7584 -1.0273 -1.1552 0.9874
-4.3538 -2.5788 -1.9860 0.9785
-4.2363 -3.0491 -2.0485 0.9778
-3.6558 -4.5248 -2.2830 0.9753
-3.3743 -5.0348 -2.3788 0.9743
-1.6923 -7.1010 -2.8650 0.9691
1.9926 -9.2727 -3.7223 0.9601
2.9578 -9.5350 -3.9181 0.9580
5.0683 -9.7582 -4.3156 0.9538
6.1807 -9.6818 -4.5081 0.9518
7.2992 -9.4578 -4.6888 0.9500
8.3927 -9.0741 -4.8511 0.9483
10.3617 -7.8141 -5.0935 0.9458
11.1639 -6.9529 -5.1618 0.9451
11.8011 -5.9633 -5.1893 0.9448
12.2501 -4.8754 -5.1746 0.9449
12.3967 -1.3868 -4.8957 0.9478
12.0753 -0.2691 -4.7404 0.9494
11.0120 1.7316 -4.3750 0.9532
10.3269 2.5829 -4.1778 0.9553
9.5761 3.3252 -3.9785 0.9574
8.5258 3.8416 -3.6701 0.9606
6.7199 4.6129 -3.1990 0.9656
5.2223 5.1644 -2.8826 0.9689
1.4107 5.3846 -2.1846 0.9764
0.8902 5.2771 -2.1004 0.9773
0.3335 4.2678 -1.6801 0.9818
-0.4829 4.8006 -1.8936 0.9795
-0.8819 4.6012 -1.8387 0.9801
-1.3356 4.6711 -1.9067 0.9793
-1.7051 4.4271 -1.8619 0.9798
-2.6625 3.6136 -1.7616 0.9809
-3.6219 2.3694 -1.6986 0.9816
-3.8092 2.0327 -1.6946 0.9816
-3.9761 1.6860 -1.6950 0.9816
-4.1225 1.3294 -1.7000 0.9816
-2.4911 0.3350 -0.9865 0.9893
-2.5889 -0.1154 -1.0171 0.9889
-2.7236 -0.8782 -1.1231 0.9878
-4.4001 -2.3480 -1.9574 0.9788
-4.2994 -2.8125 -2.0164 0.9782
-3.9919 -3.7755 -2.1565 0.9767
-3.7788 -4.2727 -2.2387 0.9758
-3.2148 -5.2923 -2.4303 0.9737
-2.4378 -6.3297 -2.6621 0.9713
-1.4094 -7.3530 -2.9384 0.9683
-0.7891 -7.8438 -3.0940 0.9667
-0.0926 -8.3087 -3.2612 0.9649
2.4665 -9.4144 -3.8196 0.9590
3.4653 -9.6320 -4.0175 0.9570
7.8512 -9.2864 -4.7727 0.9491
10.7816 -7.4011 -5.1325 0.9454
12.0502 -5.4295 -5.1872 0.9448
12.3996 -4.3056 -5.1515 0.9452
12.2564 -0.8205 -4.8210 0.9486
11.3216 1.2665 -4.4711 0.9522
10.6793 2.1707 -4.2770 0.9543
9.9581 2.9678 -4.0781 0.9563
7.1028 4.4237 -3.2841 0.9647
6.3392 4.7807 -3.1161 0.9665
4.1605 5.3909 -2.6726 0.9712
2.8533 5.4936 -2.4295 0.9738
2.2500 5.4750 -2.3231 0.9749
0.1693 5.0645 -1.9888 0.9785
-1.1001 4.6163 -1.8625 0.9798
-2.2110 4.0346 -1.8057 0.9804
-2.8014 3.4675 -1.7495 0.9810
-3.3022 2.8555 -1.7134 0.9814
-3.8952 1.8606 -1.6942 0.9816
-4.0518 1.5090 -1.6969 0.9816
-3.4629 0.9486 -1.4091 0.9847
-2.5633 0.4618 -1.0222 0.9889
-2.5207 0.2253 -0.9932 0.9892
-2.5289 -0.0000 -1.0413 0.9891
-2.5655 -0.2293 -1.0607 0.9889
-2.6211 -0.4722 -1.0967 0.9885
-2.6410 -0.7234 -1.1276 0.9882
-2.6436 -0.9845 -1.1616 0.9879
-4.1932 -2.4837 -2.0069 0.9791
-3.7325 -3.8594 -2.2109 0.9770
-2.9029 -5.2971 -2.4873 0.9742
-2.5274 -5.7803 -2.5978 0.9731
-1.6036 -6.7292 -2.8486 0.9705
-1.0476 -7.1833 -2.9893 0.9691
-0.4245 -7.6137 -3.1401 0.9676
1.0300 -8.3630 -3.4698 0.9642
1.8593 -8.6523 -3.6442 0.9624
2.7503 -8.8659 -3.8224 0.9606
5.6869 -8.9083 -4.3520 0.9553
6.6946 -8.6744 -4.5120 0.9537
7.6755 -8.2987 -4.6548 0.9523
8.5998 -7.7780 -4.7748 0.9511
10.1543 -6.3242 -4.9260 0.9496
10.7287 -5.4214 -4.9499 0.9493
11.1398 -4.4335 -4.9371 0.9495
11.3766 -3.3906 -4.8883 0.9499
11.4371 -2.3247 -4.8059 0.9508
10.1562 1.5970 -4.2335 0.9565
8.8945 3.0885 -3.8771 0.9601
8.1878 3.6892 -3.6980 0.9619
7.0024 3.9395 -3.3085 0.9658
5.6126 4.6390 -2.9984 0.9690
4.9308 4.8762 -2.8556 0.9704
4.2675 5.0476 -2.7218 0.9718
2.4291 5.2345 -2.3762 0.9753
1.8737 5.2079 -2.2791 0.9763
1.3500 5.1527 -2.1934 0.9772
-0.0533 4.7888 -1.9721 0.9795
-0.8549 4.4603 -1.8701 0.9805
-1.2883 4.5056 -1.9297 0.9799
-1.6460 4.2738 -1.8859 0.9804
-1.9791 4.0274 -1.8478 0.9808
-3.0829 2.9158 -1.7474 0.9818
-3.3053 2.6102 -1.7343 0.9819
-3.5072 2.2943 -1.7258 0.9820
-3.6888 1.9684 -1.7217 0.9821
-3.9917 1.2872 -1.7271 0.9820
-2.6387 0.5979 -1.1141 0.9884
-2.5068 0.1118 -1.0333 0.9892
-2.5854 -0.3477 -1.0742 0.9888
-2.6300 -0.5958 -1.1104 0.9884
-2.6464 -0.8534 -1.1450 0.9880
-4.3109 -1.8279 -1.9281 0.9799
-4.2401 -2.2626 -1.9790 0.9794
-4.0035 -3.1615 -2.1006 0.9782
-3.3697 -4.5734 -2.3392 0.9757
-3.0709 -5.0553 -2.4357 0.9747
-2.7219 -5.5389 -2.5414 0.9737
-2.3188 -6.0206 -2.6567 0.9725
-0.7446 -7.4020 -3.0634 0.9683
-0.0871 -7.8171 -3.2191 0.9667
0.6402 -8.1933 -3.3841 0.9651
1.4367 -8.5170 -3.5567 0.9633
4.1829 -9.0139 -4.0919 0.9579
5.1816 -8.9747 -4.2673 0.9562
8.1467 -8.0565 -4.7180 0.9516
10.4609 -5.8852 -4.9425 0.9494
10.9556 -4.9363 -4.9481 0.9493
11.4286 -2.8585 -4.8511 0.9503
10.4239 1.1661 -4.3191 0.9556
8.5454 3.4010 -3.7873 0.9610
5.9584 4.4935 -3.0731 0.9682
5.2698 4.7662 -2.9259 0.9697
4.5965 4.9697 -2.7875 0.9711
3.9443 5.1108 -2.6584 0.9725
3.3173 5.1964 -2.5386 0.9737
1.6072 5.1810 -2.2337 0.9768
0.1627 4.8652 -2.0045 0.9792
-0.2624 4.7071 -1.9413 0.9798
-1.4703 4.3917 -1.9071 0.9802
-2.4346 3.6327 -1.8008 0.9813
-3.9236 1.4612 -1.7241 0.9821
-2.5221 -0.2254 -1.0923 0.9890
-2.5389 -0.4574 -1.1128 0.9888
-2.5507 -0.6987 -1.1408 0.9885
-4.1289 -1.9722 -1.9738 0.9803
-4.0421 -2.3941 -2.0265 0.9797
-3.9241 -2.8244 -2.0856 0.9792
-3.7725 -3.2623 -2.1514 0.9785
-3.5848 -3.7067 -2.2244 0.9778
-2.4106 -5.5133 -2.5956 0.9741
-1.5228 -6.3900 -2.8336 0.9718
-0.4011 -7.1928 -3.1075 0.9691
0.2523 -7.5466 -3.2571 0.9676
0.9675 -7.8551 -3.4140 0.9661
1.7412 -8.1028 -3.5750 0.9645
2.5676 -8.2771 -3.7382 0.9630
3.4384 -8.3669 -3.9020 0.9614
4.3416 -8.3590 -4.0631 0.9598
5.2608 -8.2408 -4.2173 0.9583
7.0636 -7.6371 -4.4874 0.9557
8.6524 -6.5250 -4.6746 0.9539
10.2024 -4.0604 -4.7366 0.9533
10.4279 -3.1078 -4.6937 0.9537
10.1999 -0.2273 -4.4009 0.9565
9.8589 0.6600 -4.2622 0.9579
9.4144 1.4804 -4.1109 0.9593
8.8868 2.2227 -3.9515 0.9609
8.2959 2.8807 -3.7881 0.9625
7.6605 3.4517 -3.6244 0.9641
6.8064 3.8292 -3.3687 0.9666
1.7927 4.9829 -2.2843 0.9772
0.8188 4.8541 -2.1234 0.9788
0.3325 4.2550 -1.8410 0.9816
-0.0513 4.6080 -1.9878 0.9801
-0.8505 4.4370 -1.9488 0.9805
-1.2437 4.3494 -1.9513 0.9805
-1.5902 4.1290 -1.9086 0.9809
-2.2137 3.6443 -1.8393 0.9816
-2.4922 3.3825 -1.8123 0.9819
-2.7494 3.1089 -1.7902 0.9821
-2.9858 2.8240 -1.7728 0.9823
-3.3980 2.2229 -1.7516 0.9825
-2.4106 0.3242 -1.0492 0.9895
-2.5276 -0.3399 -1.1001 0.9890
-2.5465 -0.5769 -1.1263 0.9887
-4.0893 -2.1821 -1.9994 0.9800
-3.9871 -2.6082 -2.0552 0.9795
-3.8527 -3.0424 -2.1176 0.9788
-2.9375 -4.8358 -2.4407 0.9757
-2.5988 -5.2885 -2.5418 0.9747
-1.7658 -6.1756 -2.7707 0.9724
-0.0821 -7.3747 -3.1813 0.9684
0.6023 -7.7072 -3.3347 0.9669
1.3475 -7.9882 -3.4945 0.9653
2.9981 -8.3334 -3.8203 0.9622
4.8004 -8.3144 -4.1413 0.9590
6.6248 -7.8358 -4.4262 0.9563
8.2868 -6.8492 -4.6375 0.9542
9.5797 -5.3894 -4.7413 0.9532
10.0318 -4.5201 -4.7463 0.9532
10.3256 -0.6912 -4.4640 0.9559
10.0435 0.2238 -4.3334 0.9572
9.1597 1.8618 -4.0319 0.9601
8.5980 2.5625 -3.8700 0.9617
7.9827 3.1770 -3.7061 0.9633
4.9810 4.5050 -2.8970 0.9712
4.3559 4.7095 -2.7672 0.9724
3.1584 4.9475 -2.5319 0.9748
2.0530 4.9956 -2.3298 0.9767
1.5391 4.9614 -2.2407 0.9776
1.0528 4.8993 -2.1616 0.9784
0.1565 4.6785 -2.0192 0.9798
-1.4199 4.2412 -1.9293 0.9807
-1.7546 4.0130 -1.8893 0.9811
-2.3557 3.5149 -1.8252 0.9817
-2.6234 3.2471 -1.8007 0.9820
-3.0964 2.6776 -1.7658 0.9823
-3.8016 1.4158 -1.7499 0.9825
-2.4719 0.4453 -1.0835 0.9891
-2.4281 0.0000 -1.0956 0.9894
-2.4592 -0.4430 -1.1275 0.9891
-2.4890 -0.9269 -1.1984 0.9884
-3.9869 -1.9044 -1.9937 0.9808
-3.8995 -2.3096 -2.0450 0.9803
-3.6315 -3.1403 -2.1663 0.9792
-2.6550 -4.8447 -2.4928 0.9760
-2.3028 -5.2667 -2.5936 0.9751
-1.4487 -6.0791 -2.8198 0.9729
-0.3797 -6.8109 -3.0780 0.9705
0.2383 -7.1276 -3.2179 0.9692
0.9113 -7.3992 -3.3639 0.9678
5.7260 -7.4193 -4.2288 0.9597
6.5351 -7.0657 -4.3427 0.9586
7.2941 -6.5971 -4.4377 0.9578
9.0494 -4.5728 -4.5750 0.9565
9.3999 -3.7411 -4.5650 0.9566
9.6910 -1.9698 -4.4622 0.9575
9.1556 0.6129 -4.1404 0.9605
8.7650 1.3782 -4.0035 0.9618
8.2959 2.0750 -3.8586 0.9632
7.7657 2.6966 -3.7093 0.9646
5.6019 3.8455 -3.0659 0.9706
5.0126 4.1430 -2.9343 0.9719
4.4262 4.3772 -2.8089 0.9731
3.8492 4.5529 -2.6902 0.9742
3.2867 4.6754 -2.5787 0.9752
2.7423 4.7498 -2.4747 0.9762
2.2186 4.7810 -2.3782 0.9771
0.7866 4.6632 -2.1338 0.9795
0.3326 4.2561 -1.9263 0.9814
-0.0494 4.4379 -2.0026 0.9807
-0.4317 4.2920 -1.9464 0.9812
-0.8424 4.3950 -2.0192 0.9806
-2.1427 3.5274 -1.8623 0.9821
-2.4134 3.2755 -1.8358 0.9823
-3.4652 1.8491 -1.7722 0.9829
-3.6168 1.5337 -1.7727 0.9829
-3.7490 1.2089 -1.7774 0.9829
-2.3567 0.3170 -1.0730 0.9896
-2.4105 0.1075 -1.0887 0.9895
-2.4395 -0.1088 -1.1018 0.9893
-2.4671 -0.5590 -1.1414 0.9890
-3.9469 -2.1061 -2.0186 0.9806
-3.8445 -2.5150 -2.0729 0.9800
-3.7108 -2.9304 -2.1336 0.9795
-3.3400 -3.7767 -2.2749 0.9781
-3.0977 -4.2042 -2.3563 0.9773
-2.8136 -4.6318 -2.4453 0.9765
1.2676 -7.5148 -3.4387 0.9671
2.0154 -7.6927 -3.5882 0.9657
2.8050 -7.7966 -3.7387 0.9643
3.6266 -7.8150 -3.8874 0.9629
4.4669 -7.7369 -4.0311 0.9616
5.3097 -7.5531 -4.1659 0.9603
6.1354 -7.2569 -4.2879 0.9592
7.6476 -6.3209 -4.4768 0.9574
8.2888 -5.6899 -4.5365 0.9568
8.8255 -4.9651 -4.5692 0.9565
8.9712 1.0036 -4.0732 0.9612
8.5392 1.7357 -3.9318 0.9625
8.0374 2.3954 -3.7843 0.9639
7.4829 2.9781 -3.6340 0.9653
6.8914 3.4823 -3.4840 0.9667
4.7186 4.2677 -2.8708 0.9725
3.5659 4.6205 -2.6335 0.9747
3.0120 4.7183 -2.5258 0.9757
1.9651 4.7819 -2.3327 0.9776
1.4756 4.7569 -2.2473 0.9784
0.5316 4.3163 -1.9623 0.9811
-0.2435 4.3672 -1.9736 0.9810
-0.6292 4.3141 -1.9672 0.9810
-1.0248 4.3005 -1.9948 0.9808
-1.3722 4.0986 -1.9503 0.9812
-1.6969 3.8809 -1.9112 0.9816
-2.5410 3.1450 -1.8244 0.9824
-2.7809 2.8755 -1.8050 0.9826
-3.0009 2.5950 -1.7901 0.9827
-3.6854 1.3725 -1.7745 0.9829
-2.3848 0.2131 -1.0804 0.9895
-2.3615 0.0000 -1.1132 0.9896
-2.3816 -0.4290 -1.1407 0.9894
-2.3934 -0.6556 -1.1698 0.9891
-2.4034 -0.8950 -1.2089 0.9887
-3.8524 -1.8401 -2.0125 0.9813
-3.7646 -2.2298 -2.0625 0.9808
-3.6474 -2.6252 -2.1184 0.9803
-2.5439 -4.6421 -2.4952 0.9769
-0.8957 -6.1418 -2.9257 0.9729
-0.3603 -6.4625 -3.0510 0.9718
1.5411 -7.1716 -3.4577 0.9681
2.2607 -7.2876 -3.5967 0.9668
4.5621 -7.1463 -3.9965 0.9632
5.3317 -6.9084 -4.1135 0.9621
6.0738 -6.5669 -4.2165 0.9612
7.3967 -5.5780 -4.3669 0.9599
8.3790 -4.2340 -4.4253 0.9593
8.9092 -2.6552 -4.3821 0.9597
8.9895 -1.8272 -4.3241 0.9602
8.7943 -0.1960 -4.1464 0.9618
8.5374 0.5715 -4.0333 0.9629
7.7715 1.9438 -3.7761 0.9652
6.2155 3.4968 -3.3617 0.9690
5.5611 3.8175 -3.1796 0.9706
4.2062 4.1596 -2.7885 0.9742
3.1361 4.4612 -2.5705 0.9762
2.1245 4.5782 -2.3791 0.9779
1.1916 4.5481 -2.2162 0.9794
-0.0476 4.2777 -2.0165 0.9813
-0.4237 4.2118 -1.9954 0.9815
-0.8137 4.2451 -2.0375 0.9811
-1.4871 3.8613 -1.9504 0.9819
-1.7915 3.6457 -1.9148 0.9822
-2.0751 3.4162 -1.8841 0.9825
-2.3383 3.1736 -1.8582 0.9827
-2.5815 2.9191 -1.8369 0.9829
-2.8052 2.6532 -1.8201 0.9831
-3.3610 1.7935 -1.7957 0.9833
-2.3488 0.1048 -1.1083 0.9897
-2.3694 -0.1056 -1.1180 0.9896
-2.3799 -0.3201 -1.1319 0.9894
-2.3945 -0.7721 -1.1859 0.9889
-3.8121 -2.0342 -2.0368 0.9811
-3.4120 -3.2271 -2.2138 0.9794
-1.1444 -5.9704 -2.8656 0.9735
-0.0736 -6.6099 -3.1160 0.9712
1.1956 -7.0879 -3.3883 0.9687
1.8964 -7.2384 -3.5272 0.9675
2.6329 -7.3181 -3.6660 0.9662
5.7074 -6.7507 -4.1670 0.9617
7.0923 -5.8619 -4.3372 0.9601
8.5568 -3.8555 -4.4240 0.9593
8.8225 -3.0635 -4.4023 0.9595
8.8851 -0.5948 -4.1976 0.9614
8.6778 0.1934 -4.0915 0.9623
7.5385 2.2467 -3.7079 0.9658
7.0357 2.8002 -3.5695 0.9671
5.9307 3.6937 -3.2934 0.9696
5.0700 3.8235 -2.9933 0.9723
4.4792 4.0512 -2.8468 0.9736
3.9348 4.2543 -2.7316 0.9747
3.3992 4.4045 -2.6226 0.9757
2.8767 4.5063 -2.5201 0.9766
2.3707 4.5643 -2.4244 0.9775
1.8833 4.5828 -2.3355 0.9783
1.4173 4.5689 -2.2549 0.9791
0.9713 4.5197 -2.1791 0.9798
0.5471 4.4418 -2.1096 0.9804
0.1451 4.3382 -2.0461 0.9810
-0.2348 4.2122 -1.9886 0.9815
-0.9903 4.1556 -2.0137 0.9813
-1.3269 3.9635 -1.9702 0.9817
-1.6420 3.7554 -1.9320 0.9820
-2.6958 2.7875 -1.8279 0.9830
-2.9098 2.5162 -1.8133 0.9831
-3.2803 1.9430 -1.7971 0.9833
-2.3515 0.4237 -1.1263 0.9895
-2.2975 0.0000 -1.1300 0.9898
-2.3175 -0.6348 -1.1819 0.9893
-2.3278 -0.8669 -1.2217 0.9890
-2.3666 -1.1304 -1.2900 0.9884
-3.5204 -2.5339 -2.1334 0.9809
-2.4402 -4.4528 -2.4975 0.9776
-2.1096 -4.8249 -2.5901 0.9768
-1.7359 -5.1850 -2.6894 0.9759
0.2140 -6.4005 -3.1499 0.9719
2.8318 -6.8907 -3.6643 0.9673
3.5497 -6.8344 -3.7879 0.9663
4.2717 -6.6915 -3.9047 0.9652
5.6674 -6.1275 -4.1053 0.9635
6.3073 -5.7046 -4.1829 0.9628
6.8853 -5.1924 -4.2416 0.9623
7.3850 -4.5994 -4.2792 0.9620
8.3737 -1.7020 -4.2029 0.9626
8.3462 -0.9337 -4.1307 0.9633
8.2150 -0.1830 -4.0416 0.9640
7.3025 1.8265 -3.7024 0.9670
6.3892 2.8788 -3.4468 0.9692
5.3491 3.6719 -3.1912 0.9715
4.6183 3.8171 -2.9470 0.9736
4.0040 3.9597 -2.7698 0.9752
3.4962 4.1353 -2.6635 0.9762
2.9966 4.2627 -2.5629 0.9770
1.5815 4.3959 -2.2978 0.9794
0.7280 4.3159 -2.1528 0.9807
0.3308 4.2331 -2.0884 0.9813
-0.0460 4.1268 -2.0299 0.9818
-1.4394 3.7373 -1.9698 0.9823
-2.2667 3.0764 -1.8795 0.9831
-2.5033 2.8306 -1.8586 0.9833
-2.9198 2.3058 -1.8299 0.9836
-3.2614 1.7404 -1.8182 0.9837
-3.5279 1.1376 -1.8232 0.9836
-2.5041 0.5674 -1.2629 0.9886
-2.2893 0.1021 -1.1271 0.9898
-2.3022 -0.1026 -1.1335 0.9898
-2.3108 -0.3108 -1.1468 0.9897
-3.5823 -2.3435 -2.1055 0.9811
-3.2881 -3.1098 -2.2260 0.9800
-3.0917 -3.4959 -2.2955 0.9794
-2.8598 -3.8813 -2.3713 0.9787
-2.2802 -4.6401 -2.5429 0.9772
-1.9283 -5.0067 -2.6389 0.9764
-1.5324 -5.3593 -2.7416 0.9755
-0.6036 -6.0008 -2.9664 0.9735
-0.0699 -6.2769 -3.0875 0.9724
2.4783 -6.8886 -3.6008 0.9679
3.1894 -6.8730 -3.7268 0.9668
3.9111 -6.7742 -3.8474 0.9657
5.3297 -6.3039 -4.0603 0.9639
5.9940 -5.9275 -4.1463 0.9631
7.1459 -4.9054 -4.2632 0.9621
7.6011 -4.2763 -4.2897 0.9619
8.2080 -2.8501 -4.2736 0.9620
8.3734 -1.3166 -4.1691 0.9629
8.2931 -0.5551 -4.0881 0.9636
6.6331 2.6399 -3.5114 0.9687
5.0544 3.8117 -3.1137 0.9722
4.2596 3.8526 -2.8249 0.9747
1.8069 4.3968 -2.3381 0.9790
0.5269 4.2776 -2.1199 0.9810
0.1399 4.1825 -2.0583 0.9815
-1.5897 3.6359 -1.9518 0.9825
-2.3874 2.9550 -1.8685 0.9832
-2.6145 2.7034 -1.8498 0.9834
-2.8228 2.4410 -1.8355 0.9835
-3.0122 2.1681 -1.8254 0.9836
-3.3351 1.5931 -1.8179 0.9837
-3.4684 1.2917 -1.8204 0.9836
-3.5827 0.9814 -1.8271 0.9836
-2.2658 0.2025 -1.1189 0.9899
-2.2358 0.0000 -1.1463 0.9900
-2.2443 -0.2005 -1.1552 0.9899
-2.2416 -0.4038 -1.1677 0.9898
-2.2481 -0.6158 -1.1950 0.9896
-2.2593 -0.8414 -1.2360 0.9892
-3.2551 -2.8148 -2.2062 0.9808
-2.8693 -3.5514 -2.3407 0.9797
-2.3431 -4.2757 -2.4996 0.9783
-2.0227 -4.6261 -2.5885 0.9776
-1.6618 -4.9636 -2.6835 0.9767
-1.2591 -5.2837 -2.7847 0.9759
0.2034 -6.0826 -3.1201 0.9730
0.7726 -6.2727 -3.2401 0.9720
1.3778 -6.4114 -3.3620 0.9710
2.0125 -6.4875 -3.4823 0.9699
4.0121 -6.2849 -3.8227 0.9670
4.6725 -6.0543 -3.9207 0.9662
5.3065 -5.7373 -4.0065 0.9655
6.8962 -4.2950 -4.1651 0.9641
7.2749 -3.6762 -4.1788 0.9640
7.8286 -1.5912 -4.0956 0.9647
7.8117 -0.8738 -4.0298 0.9653
7.5000 0.5021 -3.8536 0.9668
