ply
format ascii 1.0
element vertex 1586
property float32 x
property float32 y
property float32 z
property float32 I
end_header
-9.1492 3.8796 -0.5788 0.9610
-9.8851 2.2397 -0.5903 0.9602
-10.5947 0.4724 -0.6177 0.9584
-11.1605 -1.5009 -0.6559 0.9559
-12.2760 -5.2055 -0.7766 0.9480
-12.6938 -6.7736 -0.8380 0.9440
-2.7852 -3.1493 -0.2449 0.9833
-2.5935 -3.5199 -0.2546 0.9826
-2.0329 13.9386 -0.8204 0.9451
-3.2068 13.4563 -0.8057 0.9461
-4.8750 11.1493 -0.7087 0.9524
-5.5599 10.1456 -0.6738 0.9547
-6.1729 9.2107 -0.6458 0.9565
-8.9579 4.2788 -0.5782 0.9610
-9.3372 3.4772 -0.5803 0.9609
-9.7047 2.6584 -0.5861 0.9605
-10.5421 -1.8992 -0.8027 0.9579
-10.8389 -2.9691 -0.8422 0.9559
-11.1381 -4.1479 -0.8907 0.9534
-4.3300 -2.5646 -0.3771 0.9800
-3.6115 -2.5994 -0.3334 0.9823
-3.2124 -2.7779 -0.3183 0.9831
-2.5597 -3.8194 -0.3446 0.9817
-2.3247 12.1277 -0.9254 0.9517
-3.3749 11.8028 -0.9199 0.9520
-4.1593 10.7993 -0.8672 0.9546
-6.0280 8.1813 -0.7615 0.9601
-6.5370 7.3915 -0.7395 0.9612
-7.0052 6.6255 -0.7226 0.9621
-7.8457 5.1324 -0.7026 0.9631
-8.5910 3.6429 -0.6993 0.9633
-9.5933 1.2902 -0.7254 0.9619
-9.9077 0.4418 -0.7432 0.9610
-10.6904 -2.4221 -0.8214 0.9570
-11.2896 -4.7872 -0.9190 0.9520
-3.0566 -2.8909 -0.3153 0.9833
0.9005 4.1904 -0.3212 0.9830
-0.7779 13.9497 -1.0470 0.9455
-3.7800 11.2902 -0.8922 0.9534
-4.5157 10.3275 -0.8447 0.9558
-5.7557 8.5881 -0.7748 0.9594
-7.2263 6.2488 -0.7159 0.9624
-7.6459 5.5032 -0.7060 0.9629
-8.7661 3.2645 -0.7010 0.9632
-9.1056 2.4943 -0.7075 0.9628
-4.4480 0.0000 -0.4078 0.9823
-9.8493 -1.7744 -0.9175 0.9606
-10.3318 -3.8476 -1.0107 0.9567
-10.5632 -5.0456 -1.0732 0.9541
-4.5447 -2.6918 -0.4842 0.9790
-3.2463 -2.8072 -0.3935 0.9829
-2.5913 -3.8664 -0.4267 0.9815
-5.1165 8.4229 -0.9035 0.9612
-5.6515 7.6704 -0.8735 0.9625
-7.0044 5.5313 -0.8182 0.9648
-7.3915 4.8353 -0.8097 0.9651
-8.4193 2.7149 -0.8110 0.9651
-9.4901 -0.4232 -0.8709 0.9626
-9.7241 -1.3078 -0.8995 0.9614
-10.2137 -3.2935 -0.9838 0.9578
-10.4483 -4.4304 -1.0404 0.9554
-10.6766 -5.6973 -1.1095 0.9526
-3.4265 -2.7058 -0.4003 0.9826
-2.8326 -3.2028 -0.3920 0.9830
-2.6418 -3.5854 -0.4083 0.9823
0.4644 13.8890 -1.2740 0.9457
-0.7088 12.7128 -1.1673 0.9501
-1.7000 11.6563 -1.0799 0.9538
-2.5506 10.7026 -1.0087 0.9568
-3.5063 10.4729 -1.0125 0.9566
-4.2050 9.6170 -0.9623 0.9587
-4.8285 8.8109 -0.9211 0.9604
-6.3689 6.5854 -0.8399 0.9639
-7.2012 5.1831 -0.8134 0.9650
-7.5757 4.4871 -0.8072 0.9653
-7.9275 3.7866 -0.8054 0.9653
-8.5750 2.3490 -0.8151 0.9649
-4.9081 0.8842 -0.4572 0.9802
-4.1097 0.3672 -0.3783 0.9836
-9.0255 -0.8065 -0.9829 0.9642
-9.2402 -1.6647 -1.0184 0.9629
-3.7021 -2.6646 -0.4947 0.9818
1.0312 13.1958 -1.4357 0.9481
-0.1354 12.1541 -1.3184 0.9523
-1.9833 10.3468 -1.1427 0.9585
-3.6107 9.3749 -1.0897 0.9604
-4.2392 8.6266 -1.0426 0.9621
-4.8051 7.9103 -1.0039 0.9634
-5.3184 7.2182 -0.9725 0.9646
-6.2180 5.8810 -0.9283 0.9662
-6.9858 4.5699 -0.9055 0.9670
-7.9565 2.5657 -0.9068 0.9669
-3.7517 0.5046 -0.4106 0.9849
-3.9258 -0.1751 -0.4262 0.9843
-9.5394 -3.0761 -1.0872 0.9605
-9.7216 -4.1223 -1.1453 0.9584
-9.8885 -5.2766 -1.2157 0.9559
-4.0345 -2.6393 -0.5229 0.9808
-3.4638 -2.7354 -0.4787 0.9824
-3.1245 -2.9552 -0.4665 0.9828
-2.8675 -3.2423 -0.4695 0.9827
0.9019 4.1973 -0.4657 0.9829
1.6955 13.7662 -1.5045 0.9457
-0.6510 11.6744 -1.2682 0.9540
-1.5709 10.7708 -1.1806 0.9572
-2.3687 9.9394 -1.1083 0.9597
-3.2690 9.7639 -1.1168 0.9594
-4.5293 8.2649 -1.0223 0.9628
-5.5579 6.8792 -0.9593 0.9650
-6.4209 5.5524 -0.9207 0.9664
-7.8073 2.9075 -0.9036 0.9670
-8.1014 2.2192 -0.9111 0.9668
-3.9949 0.7197 -0.4403 0.9838
-3.7414 0.3343 -0.4074 0.9850
-3.5692 0.0000 -0.4473 0.9857
-8.8690 -2.4295 -1.1524 0.9636
-9.0195 -3.3589 -1.2061 0.9619
-9.2568 -5.4829 -1.3482 0.9576
-2.8075 -3.4749 -0.5598 0.9822
-2.7153 -4.0516 -0.6112 0.9805
0.9436 12.0753 -1.5178 0.9523
-0.1248 11.1997 -1.4036 0.9559
-2.5522 8.9257 -1.1634 0.9633
-3.9864 8.1121 -1.1327 0.9642
-4.5285 7.4550 -1.0931 0.9654
-5.4718 6.1871 -1.0351 0.9673
-6.2675 4.9494 -1.0008 0.9683
-6.6211 4.3313 -0.9915 0.9686
-6.9496 3.7084 -0.9871 0.9687
-7.2554 3.0765 -0.9876 0.9687
-4.3832 0.9931 -0.5632 0.9820
-3.5494 0.4774 -0.4488 0.9857
-3.5348 0.1576 -0.4434 0.9858
-3.6310 -0.1619 -0.4555 0.9855
-8.7868 -1.9908 -1.1290 0.9643
-8.9466 -2.8849 -1.1780 0.9628
-9.0873 -3.8533 -1.2369 0.9610
-4.1429 -2.7102 -0.6204 0.9802
-3.5161 -2.7766 -0.5614 0.9821
-2.7348 -3.7117 -0.5778 0.9816
0.9027 4.2007 -0.5384 0.9828
1.5452 12.5462 -1.5841 0.9503
-2.2105 9.2755 -1.1949 0.9623
-2.8747 8.5863 -1.1347 0.9642
-4.2641 7.7811 -1.1119 0.9649
-5.2515 6.4998 -1.0472 0.9669
-5.6830 5.8762 -1.0244 0.9676
-6.0803 5.2579 -1.0073 0.9681
-6.7883 4.0207 -0.9887 0.9687
-7.4004 2.7560 -0.9896 0.9687
-3.8076 0.6860 -0.4848 0.9845
-8.3588 -2.2897 -1.2327 0.9656
-8.4779 -3.1572 -1.2868 0.9641
-8.5727 -4.0948 -1.3513 0.9623
-8.6398 -5.1174 -1.4283 0.9602
-3.8476 -2.7693 -0.6743 0.9810
-3.3756 -2.9190 -0.6347 0.9821
-3.0583 -3.1623 -0.6257 0.9824
-2.8501 -3.5277 -0.6451 0.9818
-2.7961 -4.1721 -0.7144 0.9799
3.3571 12.8140 -1.8841 0.9479
2.0127 11.9321 -1.7212 0.9523
0.8694 11.1266 -1.5874 0.9559
-2.3958 8.3786 -1.2395 0.9654
-3.1873 8.2754 -1.2613 0.9648
-4.7547 6.4531 -1.1401 0.9681
-5.1879 5.8661 -1.1138 0.9689
-5.5858 5.2830 -1.0936 0.9694
-5.9525 4.7007 -1.0788 0.9698
-6.6048 3.5244 -1.0648 0.9702
-6.8953 2.9239 -1.0653 0.9702
-4.1432 0.9387 -0.6042 0.9830
-3.3671 0.4528 -0.4832 0.9864
-3.3610 0.1499 -0.4785 0.9865
-3.6292 -0.4881 -0.5208 0.9853
-8.6100 -4.5944 -1.3881 0.9613
-3.2059 -3.0321 -0.6276 0.9823
4.1226 13.2901 -1.9792 0.9453
0.3593 10.7472 -1.5295 0.9575
-1.3626 9.3431 -1.3430 0.9626
-2.0715 8.6924 -1.2710 0.9645
-3.4815 7.9623 -1.2361 0.9655
-4.5233 6.7492 -1.1556 0.9677
-4.9760 6.1588 -1.1262 0.9685
-6.4511 3.8210 -1.0664 0.9702
-7.2915 1.9973 -1.0753 0.9699
-3.3525 0.2996 -0.4787 0.9865
-3.2915 -0.0000 -0.5241 0.9868
-7.7844 -1.4024 -1.2595 0.9685
-7.9954 -2.9775 -1.3586 0.9660
-8.0619 -3.8508 -1.4227 0.9645
-3.9770 -2.8625 -0.7803 0.9803
-3.1197 -3.2257 -0.7146 0.9820
-2.9059 -3.5967 -0.7363 0.9814
-7.5600 -11.2803 -2.1623 0.9465
4.4965 12.4982 -2.1150 0.9476
0.7335 4.3489 -0.7023 0.9823
0.8058 10.3125 -1.6471 0.9590
-0.1077 9.6710 -1.5401 0.9616
-0.9113 9.0586 -1.4497 0.9638
-3.5591 7.2425 -1.2850 0.9678
-4.5138 6.1261 -1.2117 0.9696
-4.9308 5.5754 -1.1852 0.9703
-5.9914 3.9194 -1.1401 0.9714
-6.2913 3.3571 -1.1355 0.9715
-6.5678 2.7850 -1.1360 0.9715
-6.8226 2.2000 -1.1415 0.9714
-3.2540 0.4376 -0.5228 0.9868
-3.2600 0.1454 -0.5196 0.9869
-3.3344 -0.1487 -0.5315 0.9866
-7.8461 -1.7777 -1.2811 0.9679
-8.1023 -5.3002 -1.5417 0.9615
-3.2652 -3.0882 -0.7157 0.9820
3.7532 12.0993 -2.0172 0.9500
0.9042 4.2077 -0.6853 0.9827
1.3113 10.6467 -1.7082 0.9575
0.3339 9.9875 -1.5913 0.9603
-0.5220 9.3620 -1.4931 0.9627
-1.2774 8.7586 -1.4094 0.9648
-2.5487 7.6127 -1.2784 0.9680
-3.2911 7.5269 -1.3081 0.9673
-4.7268 5.8504 -1.1977 0.9700
-5.4937 4.7506 -1.1565 0.9710
-5.8322 4.1978 -1.1442 0.9713
-6.1443 3.6393 -1.1371 0.9715
-6.4323 3.0725 -1.1351 0.9715
-6.6979 2.4943 -1.1381 0.9715
-4.5041 1.2338 -0.7436 0.9813
-3.5501 0.6396 -0.5744 0.9855
-3.2454 0.2900 -0.5188 0.9869
-3.2817 -0.2932 -0.5809 0.9867
-7.3924 -1.3318 -1.3245 0.9700
-4.1501 -2.9870 -0.9016 0.9794
-3.5077 -3.0332 -0.8177 0.9813
-3.1839 -3.2922 -0.8076 0.9816
0.7506 9.6059 -1.6989 0.9616
-0.8559 8.5083 -1.5078 0.9659
-1.5289 7.9759 -1.4320 0.9676
-2.6898 6.9841 -1.3197 0.9701
-5.0659 4.7912 -1.2295 0.9721
-5.4052 4.2684 -1.2144 0.9724
-5.7175 3.7402 -1.2047 0.9726
-6.2685 2.6581 -1.2006 0.9727
-3.8238 0.8663 -0.6913 0.9842
-3.1779 0.4274 -0.5654 0.9871
-3.1644 0.1411 -0.5585 0.9872
-7.4446 -1.6867 -1.3459 0.9695
-7.5301 -2.4281 -1.3951 0.9684
-6.3192 -12.8591 -2.5264 0.9435
3.4431 11.0994 -2.0491 0.9539
1.2183 9.8922 -1.7574 0.9603
-0.4894 8.7768 -1.5500 0.9649
-4.5003 5.5701 -1.2627 0.9713
-4.8853 5.0513 -1.2391 0.9719
-5.5646 4.0051 -1.2089 0.9725
-5.8641 3.4733 -1.2018 0.9727
-6.3921 2.3804 -1.2027 0.9727
-4.2904 1.1752 -0.7844 0.9821
-3.4372 0.6192 -0.6158 0.9859
-3.1509 0.2816 -0.5578 0.9872
-7.1724 -2.6710 -1.4811 0.9693
-7.1971 -3.4377 -1.5435 0.9680
-7.1877 -4.2573 -1.6166 0.9665
-7.1393 -5.1386 -1.7022 0.9648
-3.6223 -3.1323 -0.9267 0.9807
-3.0885 -3.8227 -0.9510 0.9802
-6.3914 -9.5367 -2.2216 0.9543
-5.9999 -10.9485 -2.4160 0.9504
-5.4836 -12.5414 -2.6488 0.9458
6.6810 11.5718 -2.5858 0.9470
3.7803 10.5075 -2.1610 0.9555
2.6173 9.9903 -1.9986 0.9588
0.7265 4.3071 -0.8453 0.9824
-0.0947 8.4986 -1.6447 0.9660
-0.8066 8.0179 -1.5594 0.9677
-1.4448 7.5376 -1.4852 0.9692
-2.0199 7.0640 -1.4218 0.9705
-3.2112 6.5346 -1.4090 0.9708
-3.6729 6.0464 -1.3690 0.9716
-4.0954 5.5583 -1.3361 0.9723
-4.4829 5.0689 -1.3095 0.9728
-4.8387 4.5764 -1.2888 0.9732
-5.1657 4.0793 -1.2738 0.9735
-5.4660 3.5757 -1.2640 0.9737
-5.7416 3.0638 -1.2594 0.9738
-6.2236 2.0069 -1.2654 0.9737
-3.6833 0.8345 -0.7309 0.9847
-3.0751 0.1371 -0.5957 0.9875
-3.1273 -0.1395 -0.6058 0.9873
-3.2339 -0.4349 -0.6315 0.9868
-7.1486 -2.3051 -1.4535 0.9699
-7.1969 -3.8404 -1.5786 0.9673
-7.1688 -4.6896 -1.6578 0.9657
-3.9054 -3.0841 -0.9630 0.9799
-3.4196 -3.2342 -0.9108 0.9810
-5.7593 -11.7199 -2.5271 0.9482
-5.1688 -13.4204 -2.7831 0.9431
7.5604 11.8432 -2.7191 0.9444
4.4260 10.7699 -2.2533 0.9537
3.1788 10.2476 -2.0763 0.9572
-0.4604 8.2576 -1.6005 0.9669
-1.1342 7.7769 -1.5209 0.9685
-3.4472 6.2904 -1.3881 0.9712
-4.2933 5.3139 -1.3220 0.9726
-5.0057 4.3286 -1.2806 0.9734
-5.3190 3.8284 -1.2682 0.9737
-5.6068 3.3209 -1.2611 0.9738
-5.8706 2.8041 -1.2590 0.9738
-6.1115 2.2759 -1.2620 0.9738
-3.0639 0.2738 -0.5953 0.9875
-3.0211 0.0000 -0.6369 0.9877
-3.0994 -0.2770 -0.6560 0.9874
-3.2303 -0.5820 -0.6920 0.9867
-6.7371 -4.8490 -1.7499 0.9666
-6.2337 -7.7155 -2.0911 0.9603
-5.9289 -8.8465 -2.2451 0.9574
-5.0170 -11.4742 -2.6401 0.9501
7.6966 10.9486 -2.8214 0.9468
6.0947 10.5564 -2.5698 0.9514
4.7084 10.1463 -2.3581 0.9553
-0.7623 7.5777 -1.6056 0.9693
-1.9182 6.7082 -1.4709 0.9719
-2.4846 6.4510 -1.4574 0.9721
-3.0602 6.2274 -1.4628 0.9720
-3.9124 5.3099 -1.3905 0.9734
-5.2344 3.4242 -1.3187 0.9748
-5.4991 2.9344 -1.3141 0.9748
-5.7406 2.4342 -1.3145 0.9748
-5.9596 1.9217 -1.3201 0.9747
-3.5520 0.8048 -0.7678 0.9852
-3.0346 0.4081 -0.6455 0.9876
-6.8269 -2.8948 -1.5633 0.9701
-6.7748 -4.4319 -1.7067 0.9674
-3.5348 -3.3432 -1.0257 0.9803
-6.0917 -8.2677 -2.1650 0.9589
-5.7427 -9.4538 -2.3320 0.9558
-5.2899 -10.7646 -2.5286 0.9522
6.8659 10.7553 -2.6901 0.9492
4.0836 9.9370 -2.2649 0.9570
0.9114 4.2417 -0.9146 0.9824
1.0659 8.6542 -1.8383 0.9650
-0.4346 7.7937 -1.6456 0.9686
-2.1734 6.4917 -1.4432 0.9724
-2.8227 6.4556 -1.4854 0.9716
-3.2875 5.9988 -1.4421 0.9724
-4.7908 4.1428 -1.3353 0.9744
-5.0929 3.6657 -1.3229 0.9747
-5.3697 3.1805 -1.3157 0.9748
-5.6227 2.6857 -1.3137 0.9748
-5.8528 2.1796 -1.3167 0.9748
-2.9810 0.2664 -0.6310 0.9878
-2.9710 0.0000 -0.6781 0.9879
-6.4675 -1.7716 -1.5305 0.9729
-6.4952 -2.4188 -1.5819 0.9720
-6.4917 -3.1008 -1.6420 0.9709
-6.4533 -3.8223 -1.7119 0.9697
-6.3753 -4.5887 -1.7928 0.9683
-6.2520 -5.4063 -1.8865 0.9667
-3.6649 -3.7895 -1.2032 0.9786
-3.1869 -13.3728 -3.1377 0.9452
8.6365 10.2153 -3.0532 0.9466
7.0159 9.9803 -2.7845 0.9512
5.5999 9.6993 -2.5563 0.9551
4.3552 9.3853 -2.3615 0.9584
3.2551 9.0477 -2.1947 0.9613
2.2775 8.6932 -2.0511 0.9638
0.6213 7.9511 -1.8203 0.9678
-0.0843 7.5692 -1.7277 0.9694
-0.7223 7.1800 -1.6471 0.9708
-1.3002 6.7832 -1.5764 0.9721
-1.8255 6.3842 -1.5155 0.9731
-3.3505 5.5157 -1.4730 0.9739
-3.7439 5.0812 -1.4406 0.9744
-4.1051 4.6418 -1.4143 0.9749
-4.4369 4.1964 -1.3939 0.9753
-4.7413 3.7442 -1.3789 0.9755
-5.0201 3.2840 -1.3692 0.9757
-5.2748 2.8147 -1.3646 0.9758
-5.5063 2.3349 -1.3651 0.9758
-3.4289 0.7769 -0.8025 0.9857
-2.9625 0.3984 -0.6823 0.9878
-2.9453 0.1313 -0.6729 0.9880
-3.0959 -0.4163 -0.7130 0.9873
-6.4429 -1.4598 -1.5078 0.9733
-6.4771 -3.4563 -1.6757 0.9703
-5.9653 -6.7450 -2.0552 0.9637
-5.6921 -7.7254 -2.1902 0.9614
-5.3387 -8.7886 -2.3470 0.9587
-4.8887 -9.9481 -2.5299 0.9555
-4.3208 -11.2187 -2.7439 0.9519
-3.6081 -12.6182 -2.9954 0.9476
4.9579 9.5457 -2.4551 0.9568
3.7886 9.2189 -2.2749 0.9599
1.0025 8.1397 -1.8719 0.9669
0.2595 7.7608 -1.7723 0.9686
-1.5691 6.5840 -1.5448 0.9726
-2.6932 6.1595 -1.5344 0.9728
-3.5514 5.2991 -1.4560 0.9742
-3.9284 4.8622 -1.4267 0.9747
-4.2746 4.4199 -1.4034 0.9751
-4.5924 3.9712 -1.3857 0.9754
-4.8838 3.5151 -1.3734 0.9756
-5.3934 2.5762 -1.3642 0.9758
-5.6136 2.0905 -1.3672 0.9757
-3.1659 0.5704 -0.7342 0.9869
-2.9221 0.0000 -0.7182 0.9880
-6.1992 -2.3086 -1.6260 0.9731
-6.1363 -3.6345 -1.7530 0.9711
-5.7309 -5.9257 -2.0263 0.9666
-4.7758 -8.7147 -2.4426 0.9599
-4.2805 -9.7898 -2.6263 0.9569
-3.6671 -10.9532 -2.8392 0.9535
-1.9815 -13.5863 -3.3748 0.9450
9.4797 9.3746 -3.2771 0.9466
7.8677 9.3060 -2.9954 0.9510
5.1764 8.9658 -2.5447 0.9583
3.0415 8.4539 -2.2083 0.9637
2.1372 8.1577 -2.0728 0.9659
0.7230 4.2862 -1.0684 0.9823
-0.0799 7.1729 -1.7632 0.9709
-0.6860 6.8191 -1.6846 0.9722
-3.2082 5.2814 -1.5189 0.9749
-3.5882 4.8699 -1.4869 0.9754
-4.5522 3.5948 -1.4258 0.9764
-5.0665 2.7036 -1.4116 0.9766
-5.2888 2.2427 -1.4120 0.9766
-5.4888 1.7699 -1.4175 0.9765
-2.8978 0.1292 -0.7130 0.9881
-6.1943 -1.9974 -1.5998 0.9735
-6.0974 -3.9887 -1.7909 0.9704
-5.9876 -4.7284 -1.8753 0.9691
-5.8300 -5.5140 -1.9724 0.9675
-4.9855 -8.2072 -2.3604 0.9612
-4.5415 -9.2418 -2.5311 0.9585
-3.9900 -10.3598 -2.7288 0.9553
-1.4403 -14.3165 -3.5368 0.9425
10.3645 9.3741 -3.4350 0.9441
7.1332 9.2428 -2.8698 0.9530
5.7905 9.0707 -2.6452 0.9566
4.5968 8.8503 -2.4513 0.9598
3.5315 8.5933 -2.2836 0.9625
0.9459 7.6797 -1.9019 0.9686
0.2455 7.3444 -1.8063 0.9702
-1.9759 5.9016 -1.5298 0.9747
-2.5742 5.8874 -1.5794 0.9739
-3.4022 5.0765 -1.5021 0.9751
-4.4084 3.8121 -1.4325 0.9763
-4.6898 3.3755 -1.4203 0.9765
-5.1805 2.4745 -1.4112 0.9766
-3.8036 1.0419 -0.9694 0.9839
-2.8807 0.2574 -0.7109 0.9882
-2.8744 -0.0000 -0.7574 0.9882
-2.9343 -0.2622 -0.7763 0.9879
-3.0385 -0.5474 -0.8135 0.9873
-5.9270 -2.2072 -1.6665 0.9742
-5.9042 -2.8201 -1.7241 0.9733
-5.8467 -3.4630 -1.7906 0.9723
-5.6106 -4.8516 -1.9545 0.9698
-5.4206 -5.6049 -2.0546 0.9683
-4.8592 -7.2504 -2.2999 0.9645
-4.4675 -8.1521 -2.4495 0.9623
-3.9847 -9.1132 -2.6208 0.9597
-2.6773 -11.2342 -3.0431 0.9534
10.2047 8.4344 -3.4885 0.9467
8.6321 8.5365 -3.1989 0.9510
7.2198 8.5396 -2.9466 0.9548
5.9509 8.4653 -2.7266 0.9581
2.8527 7.9292 -2.2205 0.9657
2.0123 7.6807 -2.0922 0.9677
0.7222 4.2816 -1.1441 0.9822
0.5563 7.1186 -1.8815 0.9709
-0.0759 6.8132 -1.7954 0.9722
-0.6529 6.4899 -1.7187 0.9734
-1.1802 6.1567 -1.6518 0.9744
-2.2428 5.8232 -1.6443 0.9745
-3.0764 5.0645 -1.5614 0.9758
-4.0919 3.8701 -1.4841 0.9770
-4.6361 3.0328 -1.4598 0.9773
-5.0863 2.1568 -1.4557 0.9774
-5.2778 1.7019 -1.4612 0.9773
-3.2212 0.7298 -0.8703 0.9864
-2.9007 -0.1293 -0.7651 0.9881
-2.9836 -0.4013 -0.7933 0.9876
-3.0953 -0.7013 -0.8363 0.9870
-5.9265 -1.9110 -1.6408 0.9746
-5.9197 -2.5102 -1.6943 0.9738
-5.8800 -3.1377 -1.7562 0.9728
-5.8038 -3.7967 -1.8274 0.9717
-5.6864 -4.4905 -1.9092 0.9705
-5.3046 -5.9980 -2.1099 0.9674
-5.0252 -6.8201 -2.2322 0.9656
-3.7042 -9.6176 -2.7157 0.9583
-3.0532 -10.6777 -2.9263 0.9551
-2.2636 -11.8090 -3.1683 0.9515
-0.1593 -14.2952 -3.7670 0.9426
11.0564 8.3380 -3.6489 0.9443
7.9070 8.5489 -3.0684 0.9530
5.3653 8.4046 -2.6274 0.9596
4.2822 8.2448 -2.4481 0.9623
3.3053 8.0430 -2.2913 0.9647
2.4221 7.8082 -2.1542 0.9667
0.9232 4.2963 -1.1579 0.9820
0.2330 6.9677 -1.8370 0.9716
-0.3710 6.6529 -1.7558 0.9728
-0.9224 6.3244 -1.6841 0.9739
-1.8891 5.6425 -1.5679 0.9757
-2.4644 5.6363 -1.6209 0.9749
-2.8809 5.2570 -1.5796 0.9755
-3.2640 4.8701 -1.5448 0.9760
-4.2372 3.6640 -1.4760 0.9771
-5.1848 1.9308 -1.4579 0.9774
-2.8348 0.2533 -0.7499 0.9883
-2.8819 -0.2575 -0.8141 0.9880
-5.6746 -1.5544 -1.6554 0.9758
-5.6454 -2.6966 -1.7603 0.9743
-5.4786 -3.9433 -1.8992 0.9723
-5.1398 -5.3146 -2.0802 0.9697
-4.1944 -7.6537 -2.4556 0.9644
-2.4767 -10.3925 -3.0059 0.9566
-1.6627 -11.4004 -3.2415 0.9533
10.7917 7.4081 -3.6829 0.9471
9.2908 7.6791 -3.3913 0.9511
7.9179 7.8302 -3.1331 0.9548
4.4888 7.7750 -2.5259 0.9634
3.5447 7.6387 -2.3693 0.9656
2.6847 7.4622 -2.2313 0.9676
1.9002 7.2530 -2.1096 0.9693
0.7214 4.2769 -1.2203 0.9821
-0.0722 6.4832 -1.8242 0.9734
-1.1274 5.8814 -1.6849 0.9754
-3.3095 4.4916 -1.5697 0.9771
-3.9368 3.7234 -1.5246 0.9777
-4.2120 3.3262 -1.5100 0.9779
-4.8971 2.0766 -1.4966 0.9781
-2.7752 0.3732 -0.7878 0.9884
-2.9298 -0.3940 -0.8317 0.9878
-3.0353 -0.6877 -0.8756 0.9872
-5.6645 -2.4020 -1.7311 0.9748
-5.5349 -3.6207 -1.8609 0.9729
-5.2431 -4.9589 -2.0305 0.9705
-4.3965 -7.2377 -2.3826 0.9654
-2.8327 -9.9063 -2.8989 0.9581
-0.1447 -12.9926 -3.6558 0.9474
10.0250 7.5602 -3.5327 0.9492
8.5888 7.7681 -3.2583 0.9530
7.2773 7.8682 -3.0155 0.9564
6.0826 7.8815 -2.8011 0.9595
4.9953 7.8249 -2.6120 0.9622
4.0057 7.7125 -2.4452 0.9645
2.2835 7.3612 -2.1685 0.9685
0.2215 6.6249 -1.8650 0.9728
-0.3534 6.3374 -1.7858 0.9740
-0.8804 6.0363 -1.7163 0.9750
-1.3641 5.7238 -1.6555 0.9758
-1.8504 5.5268 -1.6398 0.9761
-2.3628 5.4039 -1.6594 0.9758
-2.7650 5.0454 -1.6188 0.9764
-3.1354 4.6784 -1.5846 0.9769
-3.4764 4.3028 -1.5564 0.9773
-3.7899 3.9187 -1.5338 0.9776
-4.7970 2.2913 -1.4957 0.9782
-4.9917 1.8589 -1.4987 0.9781
-3.6502 0.9999 -1.0648 0.9844
-2.9229 0.5266 -0.8356 0.9877
-2.9224 -0.5265 -0.8890 0.9877
-5.4062 -2.5823 -1.7937 0.9753
-4.3275 -6.4571 -2.3271 0.9681
-3.9505 -7.2088 -2.4610 0.9663
-3.4953 -7.9940 -2.6120 0.9642
-2.3027 -9.6625 -2.9738 0.9594
-0.6380 -11.4420 -3.4308 0.9533
1.6341 -13.2681 -4.0022 0.9457
4.2058 7.2846 -2.5183 0.9655
3.3343 7.1852 -2.3714 0.9675
2.5340 7.0435 -2.2410 0.9692
0.5027 6.4337 -1.9320 0.9734
-1.0787 5.6273 -1.7154 0.9764
-1.5246 5.3318 -1.6602 0.9771
-2.4667 5.0195 -1.6744 0.9769
-3.5008 3.9584 -1.5820 0.9782
-3.7918 3.5862 -1.5625 0.9784
-4.0583 3.2048 -1.5481 0.9786
-4.3013 2.8138 -1.5388 0.9788
-2.7619 0.1232 -0.8277 0.9885
-2.8067 -0.1252 -0.8411 0.9883
-2.9771 -0.6745 -0.9139 0.9873
-5.4283 -2.3018 -1.7652 0.9757
-5.2876 -3.4590 -1.8916 0.9740
-5.1601 -4.0749 -1.9684 0.9729
-4.4897 -6.0935 -2.2660 0.9689
-3.2348 -8.3991 -2.6946 0.9631
1.0012 -12.8134 -3.8478 0.9478
2.1588 6.9593 -2.1814 0.9700
1.4544 6.7680 -2.0725 0.9715
0.8068 6.5506 -1.9760 0.9728
-0.3372 6.0479 -1.8134 0.9750
-0.8417 5.7708 -1.7459 0.9759
-2.2684 5.1879 -1.6951 0.9766
-2.6571 4.8486 -1.6552 0.9772
-3.0155 4.4995 -1.6216 0.9776
-3.3457 4.1411 -1.5938 0.9780
-3.6494 3.7735 -1.5716 0.9783
-3.9281 3.3967 -1.5547 0.9786
-4.1827 3.0105 -1.5428 0.9787
-4.4143 2.6146 -1.5360 0.9788
-4.6235 2.2085 -1.5340 0.9788
-3.5598 0.9751 -1.1050 0.9847
-2.7380 -0.0000 -0.8695 0.9886
-2.8694 -0.5169 -0.9259 0.9878
-5.2257 -1.9461 -1.7709 0.9769
-5.1844 -2.4764 -1.8247 0.9762
-5.1099 -3.0266 -1.8861 0.9754
-4.6511 -4.8092 -2.1248 0.9723
-4.4040 -5.4509 -2.2255 0.9710
-3.7315 -6.8091 -2.4659 0.9679
-2.1502 -9.0224 -2.9456 0.9618
-1.4287 -9.7957 -3.1439 0.9593
-0.5897 -10.5763 -3.3641 0.9565
0.3796 -11.3531 -3.6076 0.9534
1.4916 -12.1110 -3.8753 0.9501
2.7556 -12.8236 -4.1655 0.9464
11.4840 5.1745 -4.0003 0.9485
7.8609 6.4973 -3.2389 0.9581
5.7685 6.8231 -2.8375 0.9632
4.8272 6.8668 -2.6657 0.9654
3.1457 6.7788 -2.3734 0.9691
1.7074 6.5171 -2.1396 0.9721
0.4792 6.1325 -1.9535 0.9745
-0.0658 5.9030 -1.8748 0.9755
-0.5689 5.6552 -1.8051 0.9764
-1.4769 5.1649 -1.7060 0.9777
-2.3721 4.8270 -1.7081 0.9777
-3.3737 3.8147 -1.6173 0.9789
-4.5535 1.9309 -1.5707 0.9795
-4.7231 1.5230 -1.5760 0.9794
-2.8255 -0.3800 -0.9054 0.9881
-5.2090 -2.2088 -1.7969 0.9765
-5.1515 -2.7489 -1.8544 0.9758
-5.0593 -3.3096 -1.9200 0.9749
-4.7553 -4.4976 -2.0787 0.9729
-4.2595 -5.7810 -2.2805 0.9703
-3.5206 -7.1641 -2.5351 0.9671
-3.0395 -7.8918 -2.6858 0.9651
-2.4708 -8.6409 -2.8542 0.9630
-0.1222 -10.9660 -3.4828 0.9550
2.1045 -12.4766 -4.0183 0.9483
3.4453 -13.1508 -4.3174 0.9445
9.6055 5.9823 -3.5938 0.9536
8.4218 6.3512 -3.3500 0.9567
7.3120 6.6134 -3.1311 0.9595
6.2655 6.7742 -2.9305 0.9620
3.5420 6.8196 -2.4405 0.9683
2.7646 6.7270 -2.3098 0.9699
2.0459 6.5955 -2.1931 0.9714
1.3820 6.4312 -2.0891 0.9728
0.7685 6.2393 -1.9965 0.9740
-0.3224 5.7812 -1.8389 0.9760
-0.8059 5.5254 -1.7733 0.9768
-1.7735 5.2972 -1.7741 0.9768
-2.5563 4.6647 -1.6893 0.9779
-2.9034 4.3322 -1.6562 0.9784
-2.7749 0.4999 -0.8954 0.9882
-2.8177 -0.5076 -0.9619 0.9880
-2.8971 -0.7936 -1.0092 0.9874
-5.0235 -1.8708 -1.8010 0.9776
-4.9779 -2.3778 -1.8535 0.9770
-4.8999 -2.9022 -1.9134 0.9763
-4.6333 -4.0066 -2.0580 0.9745
-4.4369 -4.5877 -2.1443 0.9734
-2.0153 -8.4563 -2.9207 0.9640
-1.3334 -9.1425 -3.1042 0.9618
-0.5478 -9.8251 -3.3062 0.9593
0.3508 -10.4928 -3.5274 0.9567
1.3709 -11.1307 -3.7680 0.9538
3.7896 -12.2165 -4.2975 0.9475
5.1827 -12.6114 -4.5811 0.9441
12.3280 4.2808 -4.3846 0.9464
6.3109 6.2410 -2.9821 0.9632
4.5359 6.4523 -2.6499 0.9673
3.7285 6.4578 -2.5054 0.9690
2.2750 6.3232 -2.2578 0.9720
0.7227 4.2843 -1.4598 0.9818
0.4575 5.8550 -1.9732 0.9755
-0.5451 5.4181 -1.8296 0.9773
-1.4665 5.1286 -1.7922 0.9777
-2.2835 4.6470 -1.7396 0.9784
-2.9566 4.0127 -1.6746 0.9792
-3.2543 3.6797 -1.6504 0.9795
-3.5278 3.3367 -1.6315 0.9797
-3.7782 2.9837 -1.6175 0.9799
-4.0062 2.6207 -1.6084 0.9800
-4.2122 2.2477 -1.6041 0.9801
-4.3968 1.8644 -1.6046 0.9800
-4.5600 1.4704 -1.6098 0.9800
-2.6272 0.5952 -0.9050 0.9887
-2.6180 0.3521 -0.8875 0.9889
-2.7751 -0.3732 -0.9408 0.9883
-4.8477 -3.1712 -1.9463 0.9759
-4.7149 -3.7234 -2.0185 0.9750
0.8452 -10.8166 -3.6452 0.9553
12.9120 3.8482 -4.5268 0.9447
9.9216 5.0136 -3.7349 0.9542
1.9433 6.2648 -2.2038 0.9727
1.3159 6.1237 -2.1044 0.9739
0.7329 5.9511 -2.0146 0.9750
0.1924 5.7532 -1.9341 0.9760
-2.4620 4.4925 -1.7212 0.9786
-3.3940 3.5094 -1.6403 0.9796
-3.6559 3.1614 -1.6239 0.9798
-4.1119 2.4355 -1.6057 0.9800
-4.4811 1.6688 -1.6066 0.9800
-2.6265 0.7195 -0.9150 0.9886
-2.7668 -0.4984 -0.9969 0.9881
-2.8417 -0.7784 -1.0448 0.9876
-4.7853 -2.2857 -1.8804 0.9777
-4.7044 -2.7864 -1.9387 0.9771
-4.2394 -4.3835 -2.1623 0.9745
-3.9973 -4.9476 -2.2554 0.9734
-3.3535 -6.1193 -2.4743 0.9708
-2.9398 -6.7235 -2.6020 0.9693
-2.4560 -7.3359 -2.7431 0.9677
-1.8950 -7.9518 -2.8986 0.9659
-0.5112 -9.1667 -3.2554 0.9618
0.3258 -9.7460 -3.4577 0.9595
2.3155 -10.7756 -3.9081 0.9543
4.7144 -11.4719 -4.3979 0.9487
7.4353 -11.6473 -4.8998 0.9430
14.0004 0.9372 -4.9755 0.9422
13.1738 2.0715 -4.7287 0.9450
12.2469 3.0632 -4.4763 0.9478
11.2576 3.9091 -4.2256 0.9507
9.6687 4.3565 -3.7603 0.9560
8.6540 4.8686 -3.5209 0.9587
7.7069 5.2905 -3.3147 0.9611
4.2681 6.0714 -2.6316 0.9690
3.5189 6.0950 -2.4955 0.9706
2.8160 6.0684 -2.3722 0.9720
2.1582 5.9989 -2.2606 0.9733
1.5470 5.9048 -2.1644 0.9744
0.7233 4.2883 -1.5420 0.9817
0.4375 5.5988 -1.9913 0.9764
-0.5229 5.1977 -1.8523 0.9781
-0.9526 4.9695 -1.7942 0.9788
-1.4396 5.0346 -1.8567 0.9780
-1.8344 4.7630 -1.8098 0.9786
-2.2006 4.4780 -1.7692 0.9790
-2.5396 4.1808 -1.7345 0.9795
-3.4073 3.2226 -1.6630 0.9803
-3.6502 2.8825 -1.6492 0.9805
-3.8712 2.5324 -1.6403 0.9806
-4.4062 1.4208 -1.6416 0.9805
-2.5615 0.5804 -0.9313 0.9889
-2.6347 0.1175 -0.9351 0.9889
-2.8093 -0.6365 -1.0214 0.9878
-2.8709 -0.9258 -1.0696 0.9873
-4.8136 -2.0411 -1.8540 0.9781
-4.7490 -2.5341 -1.9087 0.9774
-4.6511 -3.0426 -1.9707 0.9767
-3.8574 -5.2353 -2.3058 0.9728
-3.5362 -5.8214 -2.4152 0.9715
-3.1550 -6.4202 -2.5365 0.9701
-1.5832 -8.2592 -2.9819 0.9649
0.7832 -10.0229 -3.5648 0.9582
1.7779 -10.5406 -3.7903 0.9556
2.8783 -10.9865 -4.0272 0.9529
6.7345 -11.6645 -4.7759 0.9444
12.7204 2.5855 -4.6027 0.9464
10.7500 4.2784 -4.1026 0.9521
9.1339 4.6156 -3.6288 0.9575
6.3409 5.7350 -3.0316 0.9644
5.4785 5.9233 -2.8609 0.9663
4.6601 6.0382 -2.7046 0.9681
3.8877 6.0900 -2.5619 0.9698
2.4816 6.0386 -2.3149 0.9727
1.2547 5.8390 -2.1177 0.9750
-1.6407 4.9006 -1.8325 0.9783
-2.0210 4.6221 -1.7888 0.9788
-3.9736 2.3536 -1.6376 0.9806
-4.3302 1.6126 -1.6385 0.9806
-2.6624 0.4796 -0.9592 0.9886
-2.6060 0.2329 -0.9277 0.9890
-2.6101 0.0000 -0.9746 0.9889
-4.6049 -2.1996 -1.9056 0.9784
-4.5218 -2.6782 -1.9624 0.9778
-4.4048 -3.1704 -2.0265 0.9771
-4.2509 -3.6759 -2.0985 0.9763
-4.0567 -4.1946 -2.1790 0.9754
-3.8180 -4.7256 -2.2686 0.9744
-3.5305 -5.2678 -2.3680 0.9733
-3.1892 -5.8195 -2.4780 0.9721
-2.7887 -6.3779 -2.5993 0.9707
-1.7871 -7.4990 -2.8786 0.9676
-1.1741 -8.0503 -3.0379 0.9659
0.3039 -9.0913 -3.3967 0.9619
1.1770 -9.5569 -3.5956 0.9597
5.5121 -10.6126 -4.4655 0.9502
6.7479 -10.5705 -4.6828 0.9479
7.9983 -10.3637 -4.8884 0.9456
9.2271 -9.9762 -5.0743 0.9436
10.3922 -9.3992 -5.2323 0.9419
13.6447 -1.5264 -5.1269 0.9431
12.6880 0.8494 -4.7484 0.9472
5.5431 5.4817 -2.9110 0.9673
4.0331 5.7372 -2.6187 0.9705
3.3347 5.7759 -2.4904 0.9719
2.0554 5.7130 -2.2671 0.9744
0.4189 5.3614 -2.0081 0.9773
-0.0578 5.1871 -1.9371 0.9781
-0.5022 4.9921 -1.8735 0.9788
-1.3861 4.8474 -1.8826 0.9787
-1.7679 4.5903 -1.8368 0.9792
-2.4512 4.0353 -1.7630 0.9800
-3.0358 3.4326 -1.7111 0.9806
-3.2935 3.1149 -1.6927 0.9808
-3.7435 2.4489 -1.6704 0.9811
-4.1091 1.7424 -1.6667 0.9811
-2.5325 0.3406 -0.9542 0.9891
-2.5921 0.1156 -0.9689 0.9890
-2.6307 -0.1173 -0.9833 0.9888
-2.7556 -0.6243 -1.0551 0.9880
-2.8043 -0.9043 -1.1002 0.9875
-4.5674 -2.4372 -1.9331 0.9781
-4.4677 -2.9226 -1.9935 0.9775
-4.3327 -3.4215 -2.0615 0.9767
-4.1591 -3.9336 -2.1376 0.9759
-3.9432 -4.4586 -2.2226 0.9749
-3.6806 -4.9954 -2.3170 0.9739
-2.0645 -7.2198 -2.8040 0.9684
-1.4906 -7.7762 -2.9566 0.9668
-0.8370 -8.3202 -3.1225 0.9649
1.6479 -9.7693 -3.6995 0.9586
2.6560 -10.1378 -3.9133 0.9562
3.7463 -10.4130 -4.1323 0.9538
8.6179 -10.1933 -4.9843 0.9446
9.8204 -9.7116 -5.1573 0.9427
13.4700 -0.9017 -5.0411 0.9440
11.6095 2.3597 -4.4237 0.9507
10.7826 3.2135 -4.2014 0.9531
9.9051 3.9421 -3.9809 0.9555
8.4989 4.2947 -3.5558 0.9602
6.7616 5.0991 -3.1623 0.9645
5.9421 5.3743 -2.9918 0.9664
5.1522 5.5705 -2.8334 0.9681
4.3968 5.6971 -2.6873 0.9697
3.6791 5.7631 -2.5531 0.9712
1.7596 5.6726 -2.2178 0.9750
1.1983 5.5763 -2.1298 0.9759
0.6700 5.4396 -2.0466 0.9769
0.1764 5.2770 -1.9716 0.9777
-0.2839 5.0920 -1.9044 0.9785
-1.1570 4.8548 -1.8636 0.9789
-1.5805 4.7207 -1.8589 0.9790
-1.9485 4.4564 -1.8162 0.9794
-2.2900 4.1787 -1.7793 0.9799
-3.1674 3.2751 -1.7013 0.9807
-3.8427 2.2760 -1.6677 0.9811
-4.0256 1.9229 -1.6659 0.9811
-4.1876 1.5595 -1.6686 0.9811
-2.5691 0.0000 -1.0083 0.9890
-2.7584 -1.0272 -1.1552 0.9874
-4.4357 -2.1187 -1.9293 0.9791
-4.3508 -2.5770 -1.9846 0.9785
-4.2330 -3.0467 -2.0469 0.9778
-3.6521 -4.5202 -2.2807 0.9753
-2.2028 -6.5794 -2.7231 0.9706
-1.6897 -7.0903 -2.8607 0.9692
-1.1068 -7.5887 -3.0098 0.9676
0.2846 -8.5123 -3.3427 0.9641
1.0980 -8.9150 -3.5253 0.9621
1.9897 -9.2595 -3.7171 0.9601
2.9538 -9.5221 -3.9128 0.9581
3.9817 -9.6890 -4.1112 0.9560
6.1704 -9.6657 -4.5006 0.9519
8.3774 -9.0575 -4.8422 0.9484
9.4082 -8.5092 -4.9787 0.9469
10.3418 -7.7991 -5.0837 0.9459
11.1422 -6.9395 -5.1518 0.9452
12.2270 -4.8662 -5.1648 0.9450
12.4754 -3.7180 -5.1090 0.9456
12.0569 -0.2687 -4.7332 0.9495
11.5881 0.7757 -4.5582 0.9513
9.5663 3.3218 -3.9744 0.9574
8.7762 3.9544 -3.7779 0.9595
7.5374 4.2405 -3.3942 0.9635
4.5054 5.3290 -2.7388 0.9705
2.5469 5.4884 -2.3746 0.9743
0.7248 4.2968 -1.7102 0.9814
0.4017 5.1406 -2.0237 0.9781
-0.4829 4.7999 -1.8933 0.9795
-0.8960 4.6742 -1.8679 0.9798
-1.3358 4.6717 -1.9070 0.9793
-2.0489 4.1694 -1.8233 0.9802
-2.3678 3.8979 -1.7899 0.9806
-3.1857 3.0130 -1.7209 0.9813
-3.4146 2.6965 -1.7076 0.9815
-3.6225 2.3698 -1.6989 0.9816
-3.9767 1.6863 -1.6952 0.9816
-2.5490 0.1137 -1.0014 0.9891
-2.5889 -0.1154 -1.0171 0.9889
-2.6312 -0.3539 -1.0420 0.9887
-2.7236 -0.8783 -1.1231 0.9878
-4.4665 -1.8940 -1.9041 0.9794
-4.3972 -2.3464 -1.9561 0.9788
-4.2962 -2.8104 -2.0149 0.9782
-3.9884 -3.7722 -2.1545 0.9767
-2.8518 -5.8032 -2.5377 0.9726
-2.4346 -6.3212 -2.6585 0.9713
-1.4073 -7.3415 -2.9338 0.9684
-0.0924 -8.2938 -3.2553 0.9650
3.4604 -9.6185 -4.0119 0.9570
4.5158 -9.7313 -4.2104 0.9549
5.6129 -9.7218 -4.4058 0.9529
6.7294 -9.5727 -4.5925 0.9510
7.8371 -9.2698 -4.7641 0.9492
8.9026 -8.8040 -4.9140 0.9476
10.7608 -7.3869 -5.1226 0.9455
12.5235 -3.1323 -5.0665 0.9460
12.4723 -1.9612 -4.9552 0.9472
12.2370 -0.8192 -4.8134 0.9487
11.8395 0.2638 -4.6478 0.9504
9.9472 2.9646 -4.0737 0.9564
8.3722 4.2306 -3.6815 0.9605
7.0975 4.4204 -3.2816 0.9647
5.5864 5.0526 -2.9562 0.9682
4.8592 5.2537 -2.8086 0.9697
2.8526 5.4923 -2.4290 0.9738
2.2496 5.4740 -2.3227 0.9749
-0.2728 4.8929 -1.9233 0.9792
-0.6858 4.7025 -1.8651 0.9798
-1.5239 4.5516 -1.8838 0.9796
-2.2114 4.0352 -1.8059 0.9804
-2.5183 3.7575 -1.7753 0.9808
-2.8020 3.4680 -1.7498 0.9810
-3.0632 3.1674 -1.7293 0.9812
-3.5212 2.5344 -1.7027 0.9815
-3.8958 1.8609 -1.6945 0.9816
-4.0524 1.5091 -1.6972 0.9816
-3.4629 0.9486 -1.4092 0.9847
-2.5634 0.4618 -1.0222 0.9889
-2.5206 0.2252 -0.9932 0.9892
-2.5656 -0.2293 -1.0607 0.9889
-2.6211 -0.4722 -1.0967 0.9885
-2.6410 -0.7234 -1.1276 0.9882
-2.6436 -0.9845 -1.1616 0.9879
-4.2764 -2.0427 -1.9515 0.9797
-4.1903 -2.4819 -2.0054 0.9792
-3.9194 -3.3892 -2.1337 0.9778
-3.4981 -4.3296 -2.2920 0.9762
-2.8995 -5.2909 -2.4844 0.9742
-2.5242 -5.7729 -2.5945 0.9731
-1.0460 -7.1720 -2.9845 0.9691
1.0280 -8.3470 -3.4631 0.9643
3.6895 -8.9778 -3.9969 0.9589
5.6780 -8.8944 -4.3452 0.9554
7.6625 -8.2846 -4.6469 0.9524
8.5847 -7.7644 -4.7664 0.9512
10.7096 -5.4118 -4.9411 0.9494
11.1203 -4.4258 -4.9285 0.9495
11.3573 -3.3848 -4.8800 0.9500
11.4186 -2.3209 -4.7981 0.9508
11.0492 -0.2462 -4.5510 0.9533
10.6525 0.7131 -4.3963 0.9549
9.5473 2.3880 -4.0525 0.9583
8.8858 3.0855 -3.8733 0.9601
6.3167 4.3362 -3.1550 0.9674
5.6094 4.6363 -2.9967 0.9690
4.2657 5.0455 -2.7207 0.9718
3.6262 5.1584 -2.5965 0.9731
2.4285 5.2334 -2.3757 0.9754
-0.8914 4.6503 -1.9498 0.9797
-1.2885 4.5061 -1.9299 0.9799
-1.6462 4.2744 -1.8861 0.9804
-2.2888 3.7679 -1.8154 0.9811
-3.0834 2.9163 -1.7476 0.9818
-3.3058 2.6106 -1.7345 0.9819
-3.5077 2.2946 -1.7260 0.9820
-2.5479 -0.1136 -1.0502 0.9890
-2.6464 -0.8534 -1.1450 0.9880
-4.3082 -1.8268 -1.9269 0.9800
-4.2372 -2.2610 -1.9777 0.9794
-4.1354 -2.7052 -2.0349 0.9789
-4.0002 -3.1590 -2.0989 0.9782
-3.6189 -4.0919 -2.2494 0.9766
-2.7186 -5.5322 -2.5382 0.9737
-2.3158 -6.0127 -2.6532 0.9725
1.4340 -8.5014 -3.5502 0.9634
5.1737 -8.9611 -4.2609 0.9562
7.1782 -8.4904 -4.5782 0.9530
8.1326 -8.0425 -4.7098 0.9517
9.0148 -7.4510 -4.8160 0.9507
10.9362 -4.9276 -4.9394 0.9494
11.4097 -2.8538 -4.8430 0.9504
11.1984 -0.7496 -4.6216 0.9526
10.4107 1.1646 -4.3137 0.9557
9.8551 2.0031 -4.1411 0.9574
7.8176 3.9504 -3.6068 0.9628
5.2669 4.7637 -2.9243 0.9697
4.5944 4.9674 -2.7863 0.9712
3.9428 5.1089 -2.6574 0.9725
2.7172 5.2316 -2.4275 0.9748
2.1472 5.2250 -2.3262 0.9759
1.6090 5.1868 -2.2362 0.9768
0.5435 4.4129 -1.8309 0.9809
-1.1000 4.6159 -1.9540 0.9797
-1.8158 4.1529 -1.8664 0.9806
-2.1370 3.8996 -1.8311 0.9809
-2.4350 3.6333 -1.8010 0.9813
-2.7106 3.3549 -1.7760 0.9815
-2.9644 3.0652 -1.7559 0.9817
-3.1972 2.7647 -1.7405 0.9819
-2.4793 0.2216 -1.0250 0.9893
-4.1262 -1.9709 -1.9725 0.9803
-4.0392 -2.3924 -2.0250 0.9798
-2.4077 -5.5065 -2.5924 0.9742
-1.5206 -6.3808 -2.8295 0.9718
-0.9909 -6.7938 -2.9616 0.9705
-0.4004 -7.1810 -3.1024 0.9692
1.7385 -8.0906 -3.5696 0.9646
2.5645 -8.2670 -3.7337 0.9630
4.3355 -8.3474 -4.0574 0.9599
5.2530 -8.2287 -4.2111 0.9584
7.8850 -7.1316 -4.5861 0.9547
9.8074 -4.9559 -4.7400 0.9533
10.4114 -3.1029 -4.6863 0.9538
10.4034 -1.1638 -4.5156 0.9554
8.8775 2.2204 -3.9474 0.9609
8.2882 2.8780 -3.7846 0.9625
7.6542 3.4488 -3.6214 0.9641
6.9921 3.9337 -3.4607 0.9657
6.0580 4.1586 -3.1696 0.9685
5.2948 4.3763 -2.9631 0.9705
4.6645 4.6128 -2.8297 0.9718
4.0474 4.7873 -2.7042 0.9731
2.3193 4.9980 -2.3767 0.9763
0.3706 4.7423 -2.0518 0.9795
-0.4478 4.4510 -1.9296 0.9807
-1.2438 4.3498 -1.9515 0.9805
-1.9135 3.8939 -1.8715 0.9813
-2.4926 3.3829 -1.8126 0.9819
-2.7498 3.1093 -1.7905 0.9821
-2.9863 2.8244 -1.7730 0.9823
-3.2024 2.5289 -1.7602 0.9824
-3.3985 2.2232 -1.7518 0.9825
-3.5748 1.9075 -1.7478 0.9825
-3.7312 1.5822 -1.7482 0.9825
-2.4106 0.3242 -1.0492 0.9895
-2.4655 0.1099 -1.0645 0.9893
-2.5277 -0.3399 -1.1001 0.9890
-4.0865 -2.1806 -1.9980 0.9800
-3.9842 -2.6063 -2.0537 0.9795
-3.8496 -3.0400 -2.1159 0.9789
-3.2256 -4.3779 -2.3457 0.9766
-2.9343 -4.8305 -2.4380 0.9757
-0.7033 -6.9912 -3.0309 0.9699
-0.0820 -7.3622 -3.1759 0.9684
0.6012 -7.6934 -3.3287 0.9669
1.3450 -7.9735 -3.4880 0.9654
2.1457 -8.1900 -3.6521 0.9638
2.9943 -8.3229 -3.8154 0.9622
5.7117 -8.1249 -4.2841 0.9577
6.6144 -7.8236 -4.4192 0.9564
10.4660 -2.6177 -4.6537 0.9541
10.3112 -0.6903 -4.4578 0.9560
10.0306 0.2235 -4.3278 0.9572
9.1497 1.8597 -4.0275 0.9601
8.5896 2.5600 -3.8662 0.9617
6.6551 4.1448 -3.3820 0.9664
5.6130 4.2329 -3.0325 0.9698
4.3539 4.7074 -2.7660 0.9725
1.0525 4.8981 -2.1610 0.9784
-0.2526 4.5312 -1.9576 0.9804
-1.4201 4.2415 -1.9294 0.9807
-1.7548 4.0134 -1.8895 0.9811
-2.0666 3.7710 -1.8549 0.9814
-2.6238 3.2475 -1.8009 0.9820
-3.0969 2.6780 -1.7660 0.9823
-3.6555 1.7461 -1.7475 0.9825
-2.4387 0.2179 -1.0561 0.9894
-2.4282 0.0000 -1.0956 0.9894
-2.4593 -0.4430 -1.1275 0.9891
-3.6285 -3.1377 -2.1645 0.9792
-3.4433 -3.5604 -2.2349 0.9785
-2.9579 -4.4135 -2.3973 0.9770
-2.6520 -4.8392 -2.4899 0.9761
-1.8991 -5.6723 -2.6991 0.9741
-1.4467 -6.0706 -2.8158 0.9730
-0.9405 -6.4488 -2.9406 0.9718
0.2379 -7.1155 -3.2124 0.9692
1.6333 -7.6005 -3.5078 0.9665
2.4027 -7.7456 -3.6592 0.9650
4.8823 -7.6481 -4.0942 0.9610
6.5253 -7.0550 -4.3362 0.9587
7.2828 -6.5869 -4.4308 0.9578
7.9675 -6.0086 -4.5028 0.9572
8.5579 -5.3299 -4.5492 0.9567
9.6003 -2.8612 -4.5201 0.9570
9.6772 -1.9670 -4.4558 0.9576
9.6202 -1.0762 -4.3679 0.9584
9.4383 -0.2103 -4.2598 0.9594
9.1447 0.6122 -4.1355 0.9606
8.7555 1.3767 -3.9992 0.9619
8.2877 2.0729 -3.8547 0.9632
7.7588 2.6941 -3.7059 0.9646
5.9610 4.0920 -3.2624 0.9688
4.4241 4.3751 -2.8075 0.9731
3.8477 4.5511 -2.6891 0.9742
3.2856 4.6738 -2.5778 0.9752
2.2181 4.7799 -2.3777 0.9771
1.7171 4.7728 -2.2887 0.9780
0.7319 4.3389 -1.9854 0.9809
0.3564 4.5617 -2.0646 0.9801
-0.4419 4.3930 -1.9922 0.9808
-0.8425 4.3953 -2.0193 0.9806
-1.2015 4.2019 -1.9720 0.9810
-1.8511 3.7668 -1.8938 0.9818
-2.4137 3.2759 -1.8360 0.9823
-2.6638 3.0120 -1.8143 0.9825
-3.1039 2.4511 -1.7846 0.9828
-3.2944 2.1551 -1.7763 0.9829
-2.5489 0.5775 -1.1792 0.9886
-2.4891 -1.0554 -1.2199 0.9882
-3.8417 -2.5131 -2.0714 0.9801
-3.0945 -4.1999 -2.3539 0.9774
-2.4819 -5.0505 -2.5392 0.9756
-2.1058 -5.4677 -2.6438 0.9746
-1.6795 -5.8735 -2.7565 0.9735
-0.6668 -6.6283 -3.0059 0.9712
-0.0776 -6.9628 -3.1419 0.9699
0.5671 -7.2570 -3.2845 0.9686
1.2653 -7.5009 -3.4324 0.9672
2.0129 -7.6833 -3.5838 0.9657
3.6219 -7.8050 -3.8825 0.9629
6.9118 -6.8352 -4.3861 0.9582
8.2758 -5.6810 -4.5293 0.9569
9.5441 -0.6389 -4.3161 0.9589
8.9610 1.0024 -4.0686 0.9612
8.0298 2.3931 -3.7807 0.9639
7.4765 2.9756 -3.6309 0.9653
6.2726 3.9066 -3.3343 0.9681
5.4699 4.1250 -3.0913 0.9704
4.1344 4.4700 -2.7474 0.9736
3.0111 4.7168 -2.5250 0.9757
1.4765 4.7598 -2.2486 0.9784
1.0104 4.7021 -2.1701 0.9791
0.1505 4.5023 -2.0326 0.9804
-0.2435 4.3669 -1.9735 0.9810
-0.6541 4.4851 -2.0452 0.9803
-1.3723 4.0990 -1.9504 0.9812
-1.6970 3.8812 -1.9113 0.9816
-1.9997 3.6490 -1.8775 0.9819
-2.7813 2.8758 -1.8052 0.9826
-3.3824 2.0034 -1.7738 0.9829
-3.5438 1.6928 -1.7721 0.9829
-3.6857 1.3726 -1.7747 0.9829
-2.4063 0.4335 -1.1032 0.9893
-2.3773 -0.2124 -1.1251 0.9895
-2.3934 -0.6556 -1.1698 0.9891
-2.4034 -0.8950 -1.2089 0.9887
-3.8498 -1.8389 -2.0111 0.9813
-3.6446 -2.6232 -2.1167 0.9803
-3.3135 -3.4262 -2.2468 0.9791
-3.0953 -3.8311 -2.3216 0.9785
-2.5411 -4.6368 -2.4924 0.9769
-2.2001 -5.0317 -2.5886 0.9760
-1.8133 -5.4161 -2.6923 0.9751
-0.8944 -6.1328 -2.9214 0.9730
0.2252 -6.7362 -3.1771 0.9706
0.8591 -6.9754 -3.3129 0.9694
1.5387 -7.1603 -3.4522 0.9681
3.0081 -7.3197 -3.7303 0.9656
5.3243 -6.8989 -4.1078 0.9622
6.7589 -6.1130 -4.2958 0.9605
7.3857 -5.5698 -4.3605 0.9599
7.9270 -4.9370 -4.4020 0.9595
8.3666 -4.2278 -4.4188 0.9594
8.5277 0.5708 -4.0288 0.9629
6.2112 3.4944 -3.3593 0.9690
5.6391 3.8710 -3.2242 0.9702
4.9545 4.0950 -3.0299 0.9720
4.2042 4.1576 -2.7872 0.9742
3.1350 4.4596 -2.5696 0.9762
2.6207 4.5392 -2.4707 0.9771
1.1912 4.5468 -2.2156 0.9794
-0.8137 4.2452 -2.0375 0.9811
-1.1614 4.0618 -1.9914 0.9815
-1.4873 3.8616 -1.9506 0.9819
-1.7917 3.6460 -1.9149 0.9822
-2.0753 3.4164 -1.8843 0.9825
-2.3386 3.1739 -1.8584 0.9827
-3.1952 2.0902 -1.7998 0.9833
-3.5084 1.4877 -1.7963 0.9833
-2.2973 0.3089 -1.0926 0.9898
-2.3488 0.1047 -1.1083 0.9897
-2.3694 -0.1056 -1.1180 0.9896
-2.3799 -0.3200 -1.1319 0.9894
-2.4109 -1.0223 -1.2344 0.9885
-3.8094 -2.0328 -2.0353 0.9811
-3.7071 -2.4250 -2.0881 0.9806
-3.5743 -2.8226 -2.1468 0.9801
-3.2090 -3.6285 -2.2833 0.9788
-2.3761 -4.8353 -2.5396 0.9765
-2.0126 -5.2255 -2.6395 0.9755
-0.6335 -6.2966 -2.9830 0.9724
0.5362 -6.8620 -3.2444 0.9700
1.8940 -7.2292 -3.5227 0.9675
4.1673 -7.2180 -3.9288 0.9638
4.9424 -7.0306 -4.0510 0.9627
5.6994 -6.7412 -4.1611 0.9617
7.0819 -5.8533 -4.3309 0.9602
7.6681 -5.2639 -4.3843 0.9597
8.1604 -4.5910 -4.4136 0.9594
8.5443 -3.8499 -4.4176 0.9594
8.9524 -2.2391 -4.3500 0.9600
8.8740 -0.5940 -4.1924 0.9614
8.6677 0.1932 -4.0868 0.9624
7.9818 1.6224 -3.8394 0.9646
7.0299 2.7979 -3.5666 0.9671
6.4908 3.2800 -3.4281 0.9684
4.5097 4.0788 -2.8663 0.9735
3.9331 4.2524 -2.7304 0.9747
1.4169 4.5675 -2.2542 0.9791
0.5391 4.3772 -2.0789 0.9807
-0.6315 4.3301 -2.0627 0.9808
-0.9904 4.1557 -2.0138 0.9813
-1.3270 3.9637 -1.9703 0.9817
-1.9361 3.5329 -1.8990 0.9823
-2.2095 3.2967 -1.8707 0.9826
-2.6961 2.7878 -1.8281 0.9830
-3.2806 1.9431 -1.7973 0.9833
-3.5747 1.3313 -1.7981 0.9833
-3.6929 1.0116 -1.8049 0.9832
-2.3515 0.4236 -1.1263 0.9895
-2.3082 -0.4159 -1.1536 0.9896
-2.3278 -0.8669 -1.2217 0.9890
-2.3666 -1.1304 -1.2900 0.9884
-3.6343 -2.1526 -2.0775 0.9813
-3.1913 -3.2998 -2.2579 0.9797
-2.7269 -4.0689 -2.4092 0.9784
-1.7337 -5.1785 -2.6860 0.9760
-1.3158 -5.5212 -2.7917 0.9750
-0.8520 -5.8419 -2.9038 0.9740
-0.3420 -6.1340 -3.0217 0.9730
1.4531 -6.7624 -3.4020 0.9696
4.2663 -6.6831 -3.8998 0.9653
5.6597 -6.1192 -4.0998 0.9635
8.2803 -2.4678 -4.2497 0.9622
8.3630 -1.6999 -4.1975 0.9627
7.9807 0.5342 -3.9341 0.9650
6.8619 2.3827 -3.5727 0.9681
6.3844 2.8767 -3.4442 0.9693
5.8754 3.3054 -3.3158 0.9704
4.0987 4.0533 -2.8353 0.9746
3.4948 4.1336 -2.6624 0.9762
2.9956 4.2613 -2.5620 0.9770
2.5084 4.3447 -2.4676 0.9779
2.0363 4.3881 -2.3794 0.9787
1.5818 4.3966 -2.2982 0.9794
1.1450 4.3706 -2.2222 0.9801
0.3307 4.2322 -2.0880 0.9813
-0.0469 4.2117 -2.0717 0.9814
-0.4284 4.2588 -2.1053 0.9811
-1.4395 3.7375 -1.9699 0.9823
-3.1002 2.0281 -1.8221 0.9836
-3.2617 1.7405 -1.8184 0.9837
-3.4044 1.4436 -1.8188 0.9837
-2.5042 0.5674 -1.2629 0.9886
-2.2513 0.3028 -1.1173 0.9899
-2.3022 -0.1026 -1.1335 0.9898
-2.3375 -0.9912 -1.2488 0.9887
-3.6817 -1.9646 -2.0526 0.9816
-3.5797 -2.3417 -2.1039 0.9811
-3.4481 -2.7230 -2.1610 0.9806
-2.8569 -3.8774 -2.3689 0.9788
-1.9259 -5.0005 -2.6356 0.9764
-1.5304 -5.3522 -2.7380 0.9755
-0.6028 -5.9919 -2.9620 0.9735
-0.0698 -6.2671 -3.0827 0.9724
3.9062 -6.7658 -3.8426 0.9658
4.6237 -6.5773 -3.9545 0.9648
5.3225 -6.2955 -4.0548 0.9639
5.9858 -5.9195 -4.1406 0.9632
6.5959 -5.4516 -4.2089 0.9626
7.1359 -4.8985 -4.2572 0.9622
7.5904 -4.2703 -4.2837 0.9619
7.9471 -3.5808 -4.2873 0.9619
8.1969 -2.8463 -4.2678 0.9621
8.3355 -2.0849 -4.2262 0.9624
8.3629 -1.3150 -4.1639 0.9630
8.2832 -0.5545 -4.0832 0.9637
7.8365 0.8767 -3.8785 0.9655
7.4924 1.5229 -3.7605 0.9665
5.6126 3.4955 -3.2522 0.9710
4.4975 4.0678 -2.9827 0.9733
3.7477 4.0520 -2.7147 0.9757
1.8065 4.3959 -2.3376 0.9790
1.3610 4.3875 -2.2595 0.9797
0.9339 4.3461 -2.1865 0.9804
0.5267 4.2765 -2.1193 0.9810
0.1398 4.1822 -2.0582 0.9815
-0.2386 4.2795 -2.1081 0.9811
-1.2840 3.8351 -1.9892 0.9821
-1.8755 3.4223 -1.9195 0.9828
-2.1413 3.1951 -1.8918 0.9830
-2.8230 2.4412 -1.8357 0.9835
-3.1833 1.8855 -1.8197 0.9836
-3.5829 0.9814 -1.8272 0.9836
-2.3061 0.4155 -1.1525 0.9896
-2.2359 -0.0000 -1.1463 0.9900
-2.2443 -0.2006 -1.1552 0.9899
-2.2593 -0.8414 -1.2360 0.9892
-2.2721 -1.0853 -1.2909 0.9887
-3.5131 -2.0808 -2.0933 0.9818
-3.2524 -2.8124 -2.2043 0.9809
-3.0760 -3.1806 -2.2684 0.9803
-2.6220 -3.9124 -2.4145 0.9791
-0.8128 -5.5732 -2.8874 0.9750
-0.3257 -5.8409 -2.9991 0.9740
0.7713 -6.2624 -3.2348 0.9720
1.3754 -6.4009 -3.3564 0.9710
2.0103 -6.4804 -3.4785 0.9700
2.6668 -6.4893 -3.5968 0.9690
4.6667 -6.0468 -3.9158 0.9662
5.2996 -5.7299 -4.0014 0.9655
5.8907 -5.3279 -4.0720 0.9649
6.4246 -4.8451 -4.1253 0.9645
7.2653 -3.6713 -4.1732 0.9641
7.7354 -2.3054 -4.1381 0.9644
7.8025 -0.8728 -4.0251 0.9653
7.4922 0.5016 -3.8496 0.9668
6.0396 2.7213 -3.3961 0.9707
5.5694 3.1333 -3.2761 0.9717
5.0775 3.4855 -3.1574 0.9727
4.0630 4.0180 -2.9295 0.9746
2.4038 4.1634 -2.4647 0.9786
1.9542 4.2112 -2.3801 0.9793
0.7024 4.1642 -2.1650 0.9812
0.3202 4.0977 -2.1072 0.9817
-0.4140 4.1152 -2.1204 0.9816
-1.0872 3.8021 -2.0273 0.9824
-1.6813 3.4213 -1.9543 0.9830
-1.9493 3.2090 -1.9249 0.9833
-2.4288 2.7463 -1.8795 0.9837
-2.6407 2.4975 -1.8634 0.9838
-2.8341 2.2381 -1.8514 0.9839
-3.1663 1.6896 -1.8399 0.9840
-3.3047 1.4013 -1.8403 0.9840
-2.2093 0.2971 -1.1428 0.9900
-2.2319 0.0995 -1.1453 0.9900
-2.2377 -0.0998 -1.1483 0.9900
-2.2446 -0.3019 -1.1611 0.9899
-2.3837 -1.2719 -1.3851 0.9879
-3.4588 -2.2627 -2.1190 0.9816
-3.3287 -2.6286 -2.1745 0.9811
-2.1854 -4.4472 -2.5403 0.9780
-1.8452 -4.7909 -2.6320 0.9772
-1.0405 -5.4281 -2.8335 0.9755
3.0006 -6.4661 -3.6545 0.9685
4.3393 -6.1728 -3.8683 0.9667
4.9874 -5.8991 -3.9603 0.9659
5.6014 -5.5393 -4.0387 0.9652
7.0873 -3.9873 -4.1690 0.9641
7.4198 -3.3432 -4.1722 0.9641
7.6554 -2.6583 -4.1546 0.9642
7.7900 -1.9484 -4.1167 0.9645
7.8230 -1.2301 -4.0599 0.9650
7.6019 0.1694 -3.8982 0.9664
7.3632 0.8237 -3.7984 0.9672
6.6824 1.9916 -3.5748 0.9691
6.2636 2.4929 -3.4561 0.9702
5.3256 3.3168 -3.2165 0.9722
4.8263 3.6397 -3.0990 0.9732
4.3181 3.9055 -2.9849 0.9742
2.6335 4.1252 -2.5091 0.9782
0.8991 4.1839 -2.1939 0.9809
0.1384 4.1412 -2.1242 0.9815
-0.2331 4.1813 -2.1470 0.9814
-0.5898 4.0440 -2.0952 0.9818
-1.8177 3.3168 -1.9390 0.9831
-2.5370 2.6233 -1.8709 0.9837
-2.7397 2.3691 -1.8569 0.9839
-2.9240 2.1046 -1.8470 0.9839
-3.3671 1.2539 -1.8420 0.9840
-3.4776 0.9526 -1.8485 0.9839
-2.2585 0.4069 -1.1765 0.9897
-2.2093 0.1974 -1.1372 0.9901
-2.1789 -0.3925 -1.1819 0.9900
-2.1873 -0.5992 -1.2107 0.9898
-2.1932 -0.8168 -1.2494 0.9894
-3.3979 -2.0125 -2.1082 0.9823
-3.2833 -2.3631 -2.1596 0.9818
-3.1402 -2.7154 -2.2162 0.9814
-2.9670 -3.0678 -2.2784 0.9808
-2.7619 -3.4185 -2.3461 0.9803
-2.5233 -3.7650 -2.4196 0.9797
-1.9391 -4.4348 -2.5839 0.9783
-1.5907 -4.7511 -2.6747 0.9775
-1.2033 -5.0492 -2.7709 0.9767
-0.7765 -5.3241 -2.8723 0.9759
0.1933 -5.7813 -3.0880 0.9741
4.9775 -5.3816 -3.9134 0.9673
6.4529 -4.0189 -4.0583 0.9661
6.8059 -3.4392 -4.0708 0.9660
7.0735 -2.8152 -4.0642 0.9661
7.2502 -2.1608 -4.0387 0.9663
7.2298 -0.1611 -3.8605 0.9677
7.0531 0.4721 -3.7737 0.9685
6.8041 1.0699 -3.6770 0.9693
3.8792 3.8362 -2.9125 0.9756
3.3881 4.0075 -2.8015 0.9765
1.8773 4.0454 -2.3808 0.9800
-1.0526 3.6814 -2.0440 0.9828
-1.6298 3.3164 -1.9727 0.9834
-1.8905 3.1121 -1.9439 0.9836
-2.5634 2.4244 -1.8836 0.9841
-2.7517 2.1730 -1.8718 0.9842
-3.0748 1.6408 -1.8605 0.9843
-3.2092 1.3608 -1.8609 0.9843
-3.3255 1.0723 -1.8653 0.9843
-2.4373 0.5522 -1.3341 0.9887
-2.1807 -0.4941 -1.1936 0.9899
-2.2000 -0.9329 -1.2757 0.9892
-2.2448 -1.1979 -1.3583 0.9885
-3.3441 -2.1876 -2.1332 0.9820
-2.8685 -3.2435 -2.3115 0.9806
-2.6469 -3.5924 -2.3821 0.9800
-2.3910 -3.9360 -2.4585 0.9793
-1.7697 -4.5949 -2.6286 0.9779
-1.4019 -4.9027 -2.7222 0.9771
-0.9948 -5.1899 -2.8210 0.9763
-0.5484 -5.4511 -2.9248 0.9755
-0.0633 -5.6806 -3.0327 0.9746
0.4588 -5.8716 -3.1441 0.9736
1.0150 -6.0172 -3.2576 0.9727
1.6008 -6.1102 -3.3720 0.9718
2.2099 -6.1424 -3.4848 0.9708
3.4616 -5.9956 -3.6959 0.9691
4.0838 -5.8093 -3.7909 0.9683
4.6872 -5.5440 -3.8756 0.9676
6.6396 -3.7354 -4.0669 0.9660
6.9508 -3.1319 -4.0699 0.9660
7.1734 -2.4909 -4.0538 0.9662
7.1510 0.1594 -3.8185 0.9681
6.9370 0.7760 -3.7264 0.9688
5.5105 2.7846 -3.2960 0.9724
5.0622 3.1528 -3.1837 0.9733
4.5959 3.4660 -3.0730 0.9742
4.1193 3.7257 -2.9651 0.9751
3.6389 3.9343 -2.8609 0.9760
3.0839 3.9960 -2.6946 0.9774
2.5380 3.9759 -2.5181 0.9788
2.0901 4.0241 -2.4207 0.9796
1.6678 4.0582 -2.3422 0.9803
0.8663 4.0314 -2.2013 0.9815
0.1380 4.1278 -2.2048 0.9814
-0.2253 4.0410 -2.1606 0.9818
-0.5705 3.9115 -2.1102 0.9822
-0.8967 3.7625 -2.0648 0.9826
-1.2039 3.5960 -2.0244 0.9830
-1.4925 3.4133 -1.9888 0.9832
-1.7624 3.2160 -1.9577 0.9835
-2.2472 2.7815 -1.9089 0.9839
-2.4625 2.5462 -1.8910 0.9841
-2.8392 2.0436 -1.8675 0.9843
-3.0007 1.7774 -1.8618 0.9843
-2.2057 0.3974 -1.1965 0.9899
-2.1192 0.0000 -1.1770 0.9904
-2.1202 -0.1895 -1.1823 0.9903
-2.1250 -0.3828 -1.1992 0.9902
-2.1374 -1.0210 -1.3156 0.9892
-2.2265 -1.3188 -1.4372 0.9882
-3.0337 -2.6233 -2.2275 0.9818
-2.8636 -2.9610 -2.2878 0.9813
-2.6630 -3.2960 -2.3534 0.9808
-2.1639 -3.9486 -2.5008 0.9796
-1.8629 -4.2605 -2.5826 0.9789
-1.5260 -4.5579 -2.6696 0.9782
-1.1527 -4.8369 -2.7616 0.9775
0.1843 -5.5117 -3.0629 0.9751
2.3866 -5.8075 -3.4872 0.9717
2.9759 -5.7295 -3.5858 0.9709
4.1378 -5.3616 -3.7615 0.9695
4.6875 -5.0680 -3.8341 0.9689
5.1997 -4.7029 -3.8939 0.9684
6.0638 -3.7766 -3.9676 0.9678
6.3944 -3.2312 -3.9791 0.9678
6.6464 -2.6452 -3.9730 0.9678
6.8151 -2.0311 -3.9496 0.9680
6.8966 -0.7715 -3.8542 0.9687
6.6560 0.4456 -3.7050 0.9699
6.4303 1.0111 -3.6153 0.9707
5.4370 2.4498 -3.3121 0.9731
3.7084 3.6673 -2.8967 0.9764
3.2545 3.8494 -2.7996 0.9772
2.7949 3.9758 -2.6991 0.9780
1.4136 3.9292 -2.3192 0.9811
0.6740 3.9958 -2.2506 0.9816
-0.0441 3.9609 -2.2000 0.9820
-0.7124 3.7167 -2.1018 0.9828
-1.0197 3.5661 -2.0600 0.9832
-1.3090 3.3988 -2.0228 0.9835
-1.8341 3.0193 -1.9621 0.9840
-2.0700 2.8095 -1.9382 0.9842
-2.2884 2.5876 -1.9185 0.9843
-2.8386 1.8569 -1.8839 0.9846
-2.1264 0.2860 -1.1916 0.9902
-2.1192 -0.0945 -1.1782 0.9903
-2.1353 -0.9054 -1.2881 0.9894
-2.1463 -1.1453 -1.3512 0.9889
-3.2347 -2.1161 -2.1468 0.9825
-2.9524 -2.7924 -2.2570 0.9816
-2.5507 -3.4618 -2.3882 0.9805
-2.3013 -3.7885 -2.4619 0.9799
-0.9523 -4.9679 -2.8094 0.9771
-0.0604 -5.4202 -3.0106 0.9755
0.4371 -5.5931 -3.1158 0.9747
1.5196 -5.8004 -3.3302 0.9729
2.0945 -5.8216 -3.4362 0.9721
2.6808 -5.7770 -3.5372 0.9713
3.8529 -5.4808 -3.7209 0.9698
4.4165 -5.2239 -3.7993 0.9692
4.9490 -4.8942 -3.8658 0.9687
5.4380 -4.4946 -3.9183 0.9682
6.2385 -3.5097 -3.9755 0.9678
6.8651 -0.4596 -3.8214 0.9690
6.7439 0.1503 -3.7465 0.9696
6.5511 0.7328 -3.6611 0.9703
5.6287 2.2401 -3.3646 0.9727
5.2375 2.6466 -3.2592 0.9735
3.0281 3.9236 -2.7526 0.9776
2.5313 3.9652 -2.6127 0.9787
0.8527 3.9680 -2.2541 0.9816
0.4962 4.0292 -2.2547 0.9816
0.1340 4.0087 -2.2277 0.9818
-0.2179 3.9075 -2.1736 0.9823
-1.1666 3.4845 -2.0408 0.9833
-1.4470 3.3093 -2.0060 0.9836
-2.1814 2.7000 -1.9278 0.9842
-2.3910 2.4723 -1.9102 0.9844
-2.7578 1.9849 -1.8872 0.9846
-3.0544 1.4590 -1.8800 0.9846
-3.1761 1.1828 -1.8823 0.9846
-2.1578 0.3887 -1.2177 0.9900
-2.0684 -0.1848 -1.1989 0.9905
-2.0727 -0.3734 -1.2159 0.9903
-2.0720 -0.5676 -1.2403 0.9901
-2.0734 -0.7721 -1.2774 0.9898
-2.0741 -0.9907 -1.3270 0.9894
-2.1172 -1.2540 -1.4207 0.9887
-3.0712 -2.2105 -2.1847 0.9827
-2.7655 -2.8595 -2.2967 0.9818
-2.5692 -3.1799 -2.3603 0.9813
-2.0831 -3.8012 -2.5026 0.9802
-1.7911 -4.0964 -2.5813 0.9796
-1.1054 -4.6382 -2.7529 0.9782
0.1759 -5.2618 -3.0396 0.9760
0.6648 -5.3981 -3.1401 0.9752
1.1795 -5.4890 -3.2414 0.9744
1.7150 -5.5286 -3.3420 0.9736
2.8194 -5.4282 -3.5315 0.9721
3.9101 -5.0665 -3.6950 0.9709
4.4249 -4.7841 -3.7624 0.9703
5.3369 -4.0247 -3.8592 0.9696
5.7129 -3.5580 -3.8857 0.9694
6.0234 -3.0437 -3.8964 0.9693
6.2613 -2.4920 -3.8908 0.9694
6.4224 -1.9141 -3.8691 0.9695
6.4367 -0.1434 -3.7172 0.9707
6.2949 0.4214 -3.6425 0.9713
6.0896 0.9575 -3.5590 0.9719
5.1718 2.3303 -3.2751 0.9741
3.5493 3.5099 -2.8820 0.9772
3.1193 3.6895 -2.7894 0.9779
1.8221 3.9265 -2.4991 0.9802
1.0315 3.9370 -2.3498 0.9814
0.6703 3.9737 -2.3266 0.9816
0.3058 3.9140 -2.2667 0.9820
-0.3747 3.7250 -2.1615 0.9829
-1.2693 3.2956 -2.0390 0.9838
-2.4181 2.2870 -1.9215 0.9847
-2.7581 1.8043 -1.9029 0.9849
-2.9024 1.5488 -1.8994 0.9849
-3.0293 1.2846 -1.8997 0.9849
-2.0782 0.2795 -1.2106 0.9904
-2.0611 0.0919 -1.1911 0.9905
-2.0719 -0.2786 -1.2070 0.9904
-2.0743 -0.6689 -1.2583 0.9900
