ply
format ascii 1.0
element vertex 1585
property float32 x
property float32 y
property float32 z
property float32 I
end_header
-7.2329 8.9522 -0.4786 0.9550
-8.2608 7.1434 -0.4541 0.9572
-9.5906 4.5810 -0.4419 0.9583
-10.0018 3.7247 -0.4438 0.9582
-10.8055 1.9467 -0.4565 0.9570
-11.0973 0.9917 -0.4633 0.9564
-11.0502 -0.9875 -0.6462 0.9565
-11.4105 -2.0557 -0.6753 0.9546
-11.7820 -3.2274 -0.7115 0.9522
-12.5842 -6.0110 -0.8123 0.9457
-2.5366 13.2332 -0.7848 0.9474
-1.2141 4.2460 -0.2572 0.9825
-6.4550 8.7608 -0.6338 0.9573
-6.9876 7.9010 -0.6143 0.9586
-7.4784 7.0730 -0.5995 0.9596
-7.9352 6.2664 -0.5889 0.9603
-8.3644 5.4717 -0.5822 0.9607
-9.1605 3.8844 -0.5795 0.9609
-9.5362 3.0750 -0.5836 0.9606
-9.9020 2.2435 -0.5913 0.9601
-10.2481 1.3782 -0.6023 0.9594
-10.5207 0.4691 -0.6134 0.9587
-7.7688 -2.5051 -0.4754 0.9678
-12.8036 -6.8322 -0.8452 0.9435
-2.0271 13.8991 -0.8181 0.9453
-1.0005 4.1981 -0.2514 0.9829
-4.0926 12.2241 -0.7508 0.9497
-4.8692 11.1362 -0.7079 0.9525
-6.1700 9.2063 -0.6455 0.9566
-7.7106 6.6676 -0.5937 0.9600
-9.3498 3.4819 -0.5811 0.9608
-10.3470 0.9246 -0.6050 0.9592
-10.3029 -0.9207 -0.7752 0.9594
-10.6064 -1.9108 -0.8076 0.9577
-0.1625 14.5873 -1.0932 0.9432
-1.3345 13.2657 -0.9991 0.9479
-2.3200 12.1037 -0.9236 0.9518
-4.8466 9.8627 -0.8235 0.9569
-6.5363 7.3907 -0.7394 0.9612
-7.0063 6.6265 -0.7227 0.9621
-7.8507 5.1357 -0.7030 0.9631
-8.2353 4.3945 -0.6995 0.9632
-8.9492 2.8858 -0.7047 0.9630
-9.6100 1.2924 -0.7267 0.9619
-9.8430 0.4389 -0.7384 0.9612
-10.4548 -1.4060 -0.7905 0.9586
-11.0636 -3.5675 -0.8711 0.9544
-0.7754 13.9058 -1.0437 0.9457
-6.2866 7.7810 -0.7496 0.9607
-6.7759 7.0063 -0.7304 0.9617
-7.2283 6.2505 -0.7161 0.9624
-8.0457 4.7655 -0.7008 0.9632
-9.7026 0.8670 -0.7300 0.9617
-4.4480 0.0000 -0.4078 0.9823
-9.6487 -0.8622 -0.8881 0.9618
-10.4016 -3.8736 -1.0176 0.9564
1.1320 14.4859 -1.3321 0.9433
-0.1475 13.2399 -1.2139 0.9482
-2.1372 11.1496 -1.0408 0.9554
-1.2066 4.2199 -0.4024 0.9825
-3.6258 9.4142 -0.9249 0.9603
-4.5206 9.1993 -0.9397 0.9597
-5.6491 7.6671 -0.8731 0.9625
-6.5893 6.2321 -0.8315 0.9642
-7.0065 5.5330 -0.8185 0.9648
-7.3954 4.8379 -0.8102 0.9651
-7.7600 4.1409 -0.8064 0.9653
-8.7389 1.9800 -0.8215 0.9646
-9.5166 -0.4244 -0.8733 0.9625
-10.7576 -5.7404 -1.1179 0.9522
0.4628 13.8413 -1.2696 0.9459
-1.6966 11.6329 -1.0778 0.9539
-1.0067 4.2245 -0.3981 0.9827
-3.2888 9.8232 -0.9497 0.9592
-4.2001 9.6057 -0.9611 0.9588
-4.8244 8.8034 -0.9203 0.9605
-7.2042 5.1853 -0.8138 0.9650
-7.5805 4.4900 -0.8077 0.9652
-4.9081 0.8842 -0.4572 0.9802
-3.7849 -0.0000 -0.4105 0.9849
-9.0709 -0.8106 -0.9878 0.9640
-9.6942 -3.6102 -1.1220 0.9592
-10.0394 -5.9464 -1.2656 0.9541
-10.1861 -7.3315 -1.3613 0.9508
-10.3117 -8.9169 -1.4787 0.9466
1.0275 13.1490 -1.4306 0.9483
-1.1256 11.1886 -1.2197 0.9558
-1.9806 10.3327 -1.1412 0.9586
-1.2067 4.2202 -0.4761 0.9825
-4.8016 7.9045 -1.0032 0.9635
-5.3159 7.2148 -0.9720 0.9646
-7.3353 3.9143 -0.9018 0.9671
-7.6598 3.2481 -0.9024 0.9671
-4.7637 1.0793 -0.5298 0.9805
-3.7517 0.5046 -0.4106 0.9849
-3.7330 0.1664 -0.4053 0.9851
-9.5986 -3.0952 -1.0939 0.9602
-9.7863 -4.1498 -1.1530 0.9581
-10.1151 -6.6170 -1.3111 0.9525
-10.3646 -9.8028 -1.5474 0.9442
1.6890 13.7134 -1.4987 0.9459
0.4219 12.6185 -1.3694 0.9505
-0.6491 11.6417 -1.2647 0.9542
-1.0099 4.2379 -0.4726 0.9826
-3.0675 9.1622 -1.0480 0.9619
-3.6902 8.4398 -0.9991 0.9636
-6.4216 5.5530 -0.9208 0.9664
-7.8146 2.9102 -0.9045 0.9670
-8.1106 2.2217 -0.9121 0.9667
-3.9948 0.7197 -0.4403 0.9838
-3.5692 0.0000 -0.4473 0.9857
-3.7700 -0.3369 -0.4743 0.9849
-8.7467 -1.5758 -1.1138 0.9648
-9.0747 -3.3795 -1.2135 0.9617
-9.2096 -4.3991 -1.2790 0.9597
-9.3217 -5.5213 -1.3577 0.9573
-9.4068 -6.7706 -1.4524 0.9544
3.6856 14.0675 -1.8224 0.9431
2.1915 12.9921 -1.6511 0.9483
0.9404 12.0344 -1.5127 0.9525
-0.1244 11.1669 -1.3995 0.9560
-1.8449 9.6249 -1.2281 0.9613
-3.7401 7.6109 -1.0627 0.9664
-5.0188 6.8115 -1.0603 0.9665
-5.4703 6.1854 -1.0348 0.9673
-5.8853 5.5663 -1.0151 0.9679
-6.2684 4.9502 -1.0009 0.9683
-6.9533 3.7104 -0.9877 0.9687
-7.5475 2.4338 -0.9938 0.9685
-4.3832 0.9931 -0.5632 0.9820
-3.5494 0.4773 -0.4488 0.9857
-3.5348 0.1576 -0.4434 0.9858
-3.6310 -0.1619 -0.4555 0.9855
-8.6538 -1.1638 -1.0942 0.9654
-8.9997 -2.9020 -1.1850 0.9626
-9.2688 -4.9459 -1.3166 0.9585
-9.4376 -7.4528 -1.5070 0.9527
-9.4599 -10.6964 -1.7894 0.9441
2.9038 13.5129 -1.7320 0.9458
1.5396 12.5004 -1.5783 0.9505
-1.4574 9.9926 -1.2655 0.9601
-1.0132 4.2514 -0.5477 0.9825
-4.2603 7.7741 -1.1109 0.9649
-4.7776 7.1287 -1.0754 0.9660
-6.4492 4.6419 -0.9958 0.9685
-7.6837 2.1048 -0.9984 0.9684
-3.5366 0.3160 -0.4450 0.9858
-8.6263 -4.1204 -1.3598 0.9621
-8.6973 -5.1515 -1.4378 0.9600
-8.7360 -6.2878 -1.5310 0.9574
-8.6871 -8.9823 -1.7774 0.9508
4.9382 13.7260 -2.0748 0.9428
3.3427 12.7590 -1.8760 0.9481
2.0052 11.8876 -1.7147 0.9525
0.8666 11.0903 -1.5823 0.9561
-0.9717 9.6598 -1.3809 0.9615
-1.7261 9.0053 -1.3042 0.9636
-1.2069 4.2209 -0.6244 0.9824
-2.9920 7.7687 -1.1841 0.9669
-3.5292 7.1818 -1.1382 0.9682
-5.9530 4.7011 -1.0789 0.9698
-6.6079 3.5261 -1.0653 0.9702
-6.8997 2.9258 -1.0660 0.9702
-7.1703 2.3121 -1.0716 0.9700
-4.1432 0.9387 -0.6042 0.9830
-3.3609 0.1499 -0.4785 0.9865
-3.4470 -0.1537 -0.4908 0.9862
-3.6292 -0.4881 -0.5208 0.9853
-8.3351 -1.8885 -1.2156 0.9661
-8.5801 -3.6383 -1.3256 0.9630
-8.6655 -4.6241 -1.3971 0.9611
-8.7411 -6.9028 -1.5842 0.9560
4.1037 13.2289 -1.9701 0.9456
1.4140 11.4807 -1.6453 0.9543
0.3583 10.7145 -1.5248 0.9576
-0.5576 10.0005 -1.4246 0.9603
-3.2676 7.4731 -1.1601 0.9676
-3.7786 6.8951 -1.1183 0.9687
-4.5203 6.7447 -1.1549 0.9677
-4.9738 6.1562 -1.1257 0.9685
-5.3898 5.5730 -1.1028 0.9692
-5.7727 4.9919 -1.0855 0.9696
-6.1263 4.4095 -1.0736 0.9700
-6.7566 3.2273 -1.0650 0.9702
-7.2980 1.9991 -1.0763 0.9699
-3.6716 0.6614 -0.5306 0.9850
-3.3915 -0.3031 -0.5422 0.9863
-7.9439 -2.1761 -1.3116 0.9672
-8.1101 -3.8738 -1.4312 0.9643
-8.1118 -7.0145 -1.7077 0.9575
-8.0195 -8.2921 -1.8369 0.9544
-7.8626 -9.7316 -1.9922 0.9506
-7.6234 -11.3750 -2.1805 0.9460
4.4756 12.4402 -2.1052 0.9479
1.8474 10.9521 -1.7686 0.9560
-0.1074 9.6443 -1.5358 0.9617
-1.2070 4.2212 -0.6991 0.9824
-3.3399 6.7965 -1.2059 0.9698
-4.0550 6.6755 -1.2437 0.9689
-4.5111 6.1226 -1.2110 0.9697
-5.3129 5.0250 -1.1645 0.9708
-5.6665 4.4748 -1.1497 0.9712
-6.2937 3.3584 -1.1359 0.9715
-6.8274 2.2016 -1.1423 0.9714
-3.9744 0.9005 -0.6489 0.9836
-3.2540 0.4376 -0.5228 0.9868
-3.2600 0.1454 -0.5196 0.9869
-8.1336 -4.3403 -1.4680 0.9633
-8.1552 -5.3349 -1.5518 0.9613
-7.9500 -8.9892 -1.9109 0.9526
-7.7547 -10.5248 -2.0817 0.9484
-7.4655 -12.2899 -2.2898 0.9434
5.2811 12.8508 -2.2124 0.9453
3.7369 12.0467 -2.0084 0.9502
1.3069 10.6111 -1.7024 0.9576
-1.2753 8.7443 -1.4071 0.9648
-1.0237 4.2956 -0.7032 0.9823
-2.5482 7.6111 -1.2781 0.9680
-4.2882 6.3985 -1.2265 0.9693
-5.8328 4.1982 -1.1444 0.9713
-4.5041 1.2338 -0.7436 0.9813
-3.5501 0.6396 -0.5744 0.9855
-3.1939 0.0000 -0.5632 0.9871
-3.2817 -0.2933 -0.5809 0.9867
-7.4280 -1.3382 -1.3308 0.9698
-7.6499 -3.6541 -1.4949 0.9662
-7.6632 -4.5389 -1.5705 0.9645
-7.6383 -5.4978 -1.6594 0.9625
-7.5686 -6.5448 -1.7643 0.9602
-6.9826 -10.4189 -2.2116 0.9503
5.5810 12.0266 -2.3378 0.9476
-0.1005 9.0243 -1.5913 0.9640
-1.2071 4.2214 -0.7742 0.9823
-3.1688 6.4484 -1.2669 0.9712
-3.8534 6.3435 -1.3087 0.9703
-4.2924 5.8258 -1.2760 0.9710
-5.0648 4.7903 -1.2292 0.9721
-5.7183 3.7407 -1.2049 0.9726
-6.0065 3.2052 -1.2005 0.9727
-6.5143 2.1006 -1.2069 0.9726
-3.1779 0.4274 -0.5654 0.9871
-3.2276 -0.1439 -0.5697 0.9870
-7.5697 -2.4409 -1.4024 0.9682
-7.6559 -5.0082 -1.6131 0.9635
-7.6096 -6.0092 -1.7097 0.9614
-7.5141 -7.1068 -1.8237 0.9589
-6.3700 -12.9625 -2.5467 0.9430
6.4244 12.3693 -2.4577 0.9450
3.4289 11.0537 -2.0407 0.9541
1.2144 9.8602 -1.7518 0.9605
0.3109 9.2982 -1.6404 0.9629
-1.0296 4.3203 -0.7831 0.9821
-2.4104 7.1997 -1.3388 0.9696
-2.9282 6.6970 -1.2888 0.9707
-3.3983 6.2011 -1.2468 0.9717
-4.0777 6.0844 -1.2915 0.9707
-4.4979 5.5672 -1.2620 0.9713
-5.2384 4.5298 -1.2211 0.9723
-6.1419 2.9337 -1.2002 0.9727
-4.2904 1.1753 -0.7844 0.9821
-3.1775 -0.2839 -0.6173 0.9871
-7.2100 -2.6850 -1.4889 0.9691
-7.2369 -3.4568 -1.5520 0.9679
-7.2297 -4.2822 -1.6261 0.9663
-7.0909 -6.1318 -1.8141 0.9625
-6.7316 -8.3318 -2.0728 0.9573
-6.0462 -11.0328 -2.4346 0.9500
8.4665 12.0438 -2.8489 0.9418
2.6076 9.9532 -1.9911 0.9589
1.5944 9.4521 -1.8550 0.9617
0.7002 8.9600 -1.7392 0.9640
-0.0944 8.4762 -1.6404 0.9661
-0.8048 7.9998 -1.5559 0.9678
-3.0134 6.1321 -1.3222 0.9725
-3.6698 6.0413 -1.3679 0.9716
-4.0927 5.5548 -1.3352 0.9723
-4.4808 5.0666 -1.3089 0.9728
-4.8374 4.5753 -1.2885 0.9732
-5.1652 4.0790 -1.2737 0.9735
-5.4665 3.5761 -1.2641 0.9737
-3.0751 0.1371 -0.5957 0.9875
-3.1273 -0.1395 -0.6058 0.9873
-3.2339 -0.4349 -0.6315 0.9868
-7.1850 -2.3169 -1.4609 0.9697
-7.2274 -3.0647 -1.5192 0.9685
-7.0249 -6.6442 -1.8712 0.9614
-6.5963 -8.9526 -2.1520 0.9557
-5.2110 -13.5301 -2.8058 0.9426
7.5181 11.7769 -2.7038 0.9447
2.0847 9.7015 -1.9203 0.9604
1.1337 9.2050 -1.7948 0.9629
-1.0356 4.3455 -0.8645 0.9820
-2.7823 6.3633 -1.3440 0.9721
-4.2910 5.3111 -1.3213 0.9726
-4.6629 4.8215 -1.2980 0.9730
-5.0048 4.3279 -1.2804 0.9734
-5.3191 3.8284 -1.2682 0.9737
-5.8724 2.8050 -1.2594 0.9738
-6.1144 2.2770 -1.2626 0.9738
-3.0639 0.2738 -0.5953 0.9875
-3.0211 -0.0000 -0.6369 0.9877
-3.0994 -0.2770 -0.6560 0.9874
-6.8107 -1.8656 -1.4887 0.9715
-6.8528 -2.5520 -1.5416 0.9705
-6.8639 -3.2786 -1.6037 0.9694
-6.8402 -4.0515 -1.6760 0.9680
-6.7768 -4.8777 -1.7603 0.9664
-6.6674 -5.7655 -1.8583 0.9646
-6.2761 -7.7680 -2.1054 0.9600
-5.5712 -10.1661 -2.4439 0.9537
-5.0548 -11.5608 -2.6600 0.9497
-4.3930 -13.1214 -2.9172 0.9450
6.0646 10.5040 -2.5570 0.9516
4.6875 10.1012 -2.3477 0.9555
2.4275 9.2657 -2.0193 0.9616
0.6576 8.4147 -1.7794 0.9661
-2.4166 6.2747 -1.4175 0.9729
-2.8716 5.8436 -1.3727 0.9737
-3.9098 5.3064 -1.3896 0.9734
-4.2843 4.8444 -1.3634 0.9739
-4.9445 3.9046 -1.3282 0.9746
-5.2345 3.4243 -1.3187 0.9748
-5.7425 2.4350 -1.3150 0.9748
-5.9624 1.9226 -1.3207 0.9747
-3.0346 0.4081 -0.6455 0.9876
-2.9940 0.1335 -0.6318 0.9878
-3.1545 -0.4242 -0.6710 0.9871
-6.8624 -2.9099 -1.5714 0.9700
-6.8567 -3.6588 -1.6385 0.9687
-6.8138 -4.4574 -1.7166 0.9673
-6.5930 -6.2356 -1.9131 0.9636
-6.3988 -7.2352 -2.0363 0.9613
-6.1341 -8.3253 -2.1801 0.9586
-5.7841 -9.5219 -2.3487 0.9555
-3.9954 -13.9730 -3.0638 0.9423
8.5431 11.0696 -2.9479 0.9444
2.9398 9.4769 -2.0918 0.9602
1.9455 9.0536 -1.9523 0.9629
0.2742 8.2013 -1.7300 0.9670
-1.0489 4.4016 -0.9539 0.9817
-2.6493 6.0592 -1.3942 0.9733
-3.0842 5.6280 -1.3530 0.9741
-3.7102 5.5361 -1.4050 0.9731
-5.3703 3.1809 -1.3159 0.9748
-5.8552 2.1805 -1.3172 0.9748
-4.0001 1.0957 -0.8744 0.9832
-3.2435 0.5843 -0.6948 0.9866
-2.9810 0.2664 -0.6310 0.9878
-3.1642 -0.5701 -0.7338 0.9869
-6.5252 -3.1168 -1.6505 0.9708
-6.4883 -3.8430 -1.7212 0.9695
-6.2892 -5.4384 -1.8977 0.9665
-6.1136 -6.3215 -2.0072 0.9646
5.5736 9.6538 -2.5443 0.9553
1.4002 8.3005 -1.9213 0.9661
-0.0841 7.5500 -1.7233 0.9695
-0.7209 7.1662 -1.6439 0.9709
-1.2993 6.7783 -1.5753 0.9721
-1.2132 4.2429 -1.0072 0.9821
-3.3476 5.5109 -1.4717 0.9739
-4.1030 4.6394 -1.4136 0.9749
-4.4354 4.1950 -1.3934 0.9753
-5.2754 2.8151 -1.3648 0.9758
-5.7177 1.8437 -1.3712 0.9757
-2.9453 0.1313 -0.6729 0.9880
-2.9994 -0.1337 -0.6853 0.9878
-3.0959 -0.4164 -0.7130 0.9873
-6.5161 -2.1012 -1.5627 0.9723
-6.5114 -3.4746 -1.6845 0.9702
-6.4552 -4.2228 -1.7606 0.9688
-6.3565 -5.0197 -1.8487 0.9673
-6.2086 -5.8720 -1.9505 0.9655
-6.0031 -6.7879 -2.0683 0.9635
-3.6346 -12.7111 -3.0175 0.9472
-2.7330 -14.2580 -3.3135 0.9422
7.7556 10.0491 -2.8973 0.9493
4.9358 9.5031 -2.4442 0.9570
2.7422 8.8399 -2.1125 0.9627
0.2588 7.7401 -1.7676 0.9687
-0.4103 7.3587 -1.6822 0.9702
-1.0169 6.9727 -1.6083 0.9715
-1.5683 6.5809 -1.5441 0.9726
-2.0698 6.1823 -1.4880 0.9736
-2.9467 5.3770 -1.3995 0.9752
-4.2727 4.4180 -1.4028 0.9751
-4.5912 3.9702 -1.3854 0.9754
-5.3945 2.5767 -1.3645 0.9758
-3.8725 1.0608 -0.9164 0.9837
-3.1659 0.5704 -0.7342 0.9869
-2.9221 -0.0000 -0.7183 0.9880
-2.9882 -0.2671 -0.7374 0.9877
-3.1004 -0.5585 -0.7743 0.9871
-6.2100 -1.7011 -1.5826 0.9738
-6.1685 -3.6536 -1.7622 0.9709
-6.0812 -4.3770 -1.8417 0.9696
-5.2060 -7.7679 -2.2985 0.9622
-2.9297 -12.2936 -3.1064 0.9493
7.8251 9.2556 -2.9791 0.9513
4.0328 8.6904 -2.3549 0.9613
3.0303 8.4227 -2.2002 0.9638
0.5855 7.4927 -1.8473 0.9695
-0.6848 6.8078 -1.6818 0.9722
-2.6220 5.3358 -1.4613 0.9758
-3.5857 4.8665 -1.4858 0.9754
-3.9353 4.4497 -1.4601 0.9758
-4.5512 3.5941 -1.4255 0.9764
-4.8210 3.1537 -1.4160 0.9765
-5.0669 2.7038 -1.4117 0.9766
-5.2900 2.2432 -1.4123 0.9766
-3.3132 0.7507 -0.8350 0.9861
-2.8899 0.3887 -0.7167 0.9881
-3.0389 -0.4087 -0.7537 0.9874
-6.2231 -2.0067 -1.6072 0.9734
-6.1969 -3.3068 -1.7265 0.9715
-5.0182 -8.2611 -2.3759 0.9610
-4.0177 -10.4317 -2.7477 0.9550
-3.3314 -11.6508 -2.9785 0.9513
-1.4471 -14.3844 -3.5535 0.9422
10.2996 9.3154 -3.4135 0.9444
7.0964 9.1951 -2.8550 0.9533
5.7634 9.0282 -2.6328 0.9568
4.5772 8.8126 -2.4409 0.9599
3.5178 8.5601 -2.2748 0.9626
2.5683 8.2792 -2.1307 0.9649
1.7141 7.9767 -2.0054 0.9670
0.9431 7.6574 -1.8964 0.9687
-0.3893 6.9823 -1.7189 0.9716
-1.4941 6.2698 -1.5843 0.9738
-1.9753 5.9000 -1.5293 0.9747
-2.4158 5.5251 -1.4822 0.9755
-2.8199 5.1457 -1.4423 0.9761
-3.3995 5.0724 -1.5009 0.9752
-4.9468 2.9300 -1.4132 0.9766
-5.1813 2.4749 -1.4114 0.9766
-3.8036 1.0419 -0.9694 0.9839
-2.8807 0.2574 -0.7109 0.9882
-2.8744 -0.0000 -0.7574 0.9882
-5.8764 -3.4806 -1.7997 0.9721
-5.7810 -4.1609 -1.8769 0.9710
-5.6415 -4.8784 -1.9653 0.9696
-5.4517 -5.6370 -2.0664 0.9681
-5.2039 -6.4410 -2.1819 0.9663
-4.8891 -7.2951 -2.3140 0.9643
-4.4959 -8.2040 -2.4651 0.9620
-4.0108 -9.1730 -2.6380 0.9594
-2.6935 -11.3023 -3.0616 0.9531
-0.7638 -13.6978 -3.6150 0.9448
10.1425 8.3829 -3.4672 0.9470
8.5839 8.4888 -3.1811 0.9513
7.1829 8.4959 -2.9315 0.9550
5.9231 8.4258 -2.7139 0.9583
3.7666 8.1167 -2.3578 0.9637
2.0057 7.6557 -2.0854 0.9678
-0.6519 6.4809 -1.7163 0.9734
-1.1795 6.1532 -1.6509 0.9744
-2.1050 5.4656 -1.5433 0.9761
-3.7795 4.2736 -1.5033 0.9767
-4.0902 3.8685 -1.4835 0.9770
-4.8727 2.6002 -1.4553 0.9774
-5.0871 2.1571 -1.4560 0.9774
-2.9007 -0.1294 -0.7651 0.9881
-5.9533 -1.9197 -1.6482 0.9745
-5.9478 -2.5221 -1.7023 0.9736
-5.9092 -3.1533 -1.7649 0.9727
-5.7171 -4.5148 -1.9196 0.9703
-5.3356 -6.0330 -2.1222 0.9672
-4.2658 -8.6807 -2.5486 0.9608
-3.7288 -9.6815 -2.7338 0.9580
-2.2762 -11.8749 -3.1860 0.9512
-0.1597 -14.3398 -3.7788 0.9424
10.9858 8.2848 -3.6257 0.9447
7.8647 8.5032 -3.0520 0.9532
5.3414 8.3671 -2.6157 0.9598
3.2930 8.0130 -2.2828 0.9648
0.2324 6.9495 -1.8322 0.9716
-0.9216 6.3192 -1.6827 0.9739
-1.4261 5.9842 -1.6210 0.9749
-1.8884 5.6403 -1.5673 0.9757
-2.3126 5.2891 -1.5211 0.9764
-2.7027 4.9319 -1.4819 0.9770
-3.6139 4.4730 -1.5153 0.9765
-4.5084 3.2450 -1.4637 0.9773
-4.7570 2.8176 -1.4569 0.9774
-5.1859 1.9313 -1.4582 0.9774
-3.7365 1.0235 -1.0208 0.9841
-3.0018 0.5408 -0.8037 0.9875
-5.6990 -1.5611 -1.6625 0.9757
-5.7011 -2.1231 -1.7117 0.9750
-2.4909 -10.4521 -3.0231 0.9563
10.7249 7.3622 -3.6601 0.9474
4.4705 7.7431 -2.5156 0.9635
2.6754 7.4363 -2.2235 0.9677
-0.0722 6.4693 -1.8203 0.9735
-0.6219 6.1817 -1.7480 0.9745
-1.2200 4.2668 -1.2486 0.9817
-2.0168 5.2365 -1.5788 0.9770
-2.4091 4.9024 -1.5369 0.9776
-2.9513 4.8586 -1.5994 0.9767
-3.3070 4.4883 -1.5686 0.9771
-3.6343 4.1094 -1.5435 0.9775
-3.9351 3.7218 -1.5239 0.9777
-4.2108 3.3253 -1.5096 0.9780
-4.8976 2.0768 -1.4968 0.9781
-5.0820 1.6387 -1.5023 0.9781
-3.1370 0.7107 -0.9050 0.9867
-2.8531 -0.1272 -0.8035 0.9882
-5.6907 -2.4130 -1.7391 0.9746
-5.6448 -3.0122 -1.8002 0.9738
-5.0511 -5.7114 -2.1452 0.9688
-4.7712 -6.4755 -2.2631 0.9671
-4.4229 -7.2811 -2.3969 0.9652
-3.9956 -8.1308 -2.5489 0.9631
-3.4766 -9.0267 -2.7216 0.9606
-2.8500 -9.9671 -2.9167 0.9578
-2.0986 -10.9482 -3.1364 0.9547
-0.1452 -13.0314 -3.6667 0.9473
1.1031 -14.1171 -3.9841 0.9429
11.5167 7.1726 -3.8173 0.9452
9.9654 7.5153 -3.5117 0.9495
8.5417 7.7255 -3.2404 0.9533
4.9739 7.7915 -2.6008 0.9623
3.9900 7.6821 -2.4356 0.9647
1.5293 7.1163 -2.0479 0.9702
0.8464 6.8719 -1.9481 0.9716
-1.8080 5.4004 -1.6023 0.9766
-2.2170 5.0704 -1.5570 0.9773
-2.6517 4.8388 -1.5525 0.9773
-4.0760 3.5247 -1.5161 0.9779
-4.9925 1.8593 -1.4989 0.9781
-3.6501 0.9999 -1.0648 0.9844
-2.9229 0.5266 -0.8356 0.9877
-2.7824 0.0000 -0.8330 0.9884
-2.9224 -0.5265 -0.8890 0.9877
-3.0126 -0.8252 -0.9351 0.9870
-5.4664 -2.0357 -1.7463 0.9759
-5.4311 -2.5942 -1.8019 0.9752
-5.3619 -3.1758 -1.8657 0.9743
-5.2551 -3.7824 -1.9384 0.9733
-4.9106 -5.0775 -2.1147 0.9709
-3.5162 -8.0417 -2.6276 0.9640
-1.5443 -10.5887 -3.2036 0.9563
0.4141 -12.3836 -3.7095 0.9496
1.6354 -13.2782 -4.0053 0.9457
12.6181 5.6854 -4.1434 0.9439
11.1541 6.2752 -3.8315 0.9480
9.7702 6.7068 -3.5478 0.9517
7.2712 7.1906 -3.0615 0.9582
6.1583 7.2841 -2.8556 0.9610
4.1891 7.2557 -2.5083 0.9656
3.3220 7.1588 -2.3627 0.9676
2.5254 7.0196 -2.2334 0.9693
1.7935 6.8456 -2.1186 0.9709
1.1205 6.6429 -2.0168 0.9723
0.5014 6.4164 -1.9268 0.9735
-0.5942 5.9061 -1.7771 0.9755
-1.0780 5.6240 -1.7144 0.9764
-2.3138 4.7086 -1.5707 0.9783
-3.4987 3.9560 -1.5811 0.9782
-3.7900 3.5846 -1.5618 0.9785
-4.0570 3.2038 -1.5476 0.9786
-4.3005 2.8133 -1.5385 0.9788
-4.5214 2.4127 -1.5343 0.9788
-4.7202 2.0015 -1.5349 0.9788
-4.8971 1.5791 -1.5405 0.9787
-2.7204 0.3658 -0.8218 0.9886
-2.7619 0.1231 -0.8277 0.9885
-2.9771 -0.6745 -0.9139 0.9873
-5.4009 -2.8820 -1.8327 0.9748
-5.3134 -3.4759 -1.9009 0.9738
-5.1863 -4.0955 -1.9784 0.9728
-5.0147 -4.7429 -2.0664 0.9716
-4.1720 -6.8681 -2.4058 0.9670
1.0028 -12.8330 -3.8537 0.9477
2.3137 -13.7163 -4.1644 0.9436
6.7036 7.2479 -2.9557 0.9596
5.6349 7.3013 -2.7611 0.9622
3.7464 7.2131 -2.4333 0.9666
2.9153 7.0939 -2.2961 0.9685
2.1517 6.9365 -2.1743 0.9701
0.8046 6.5324 -1.9704 0.9729
-0.3367 6.0401 -1.8111 0.9751
-1.3055 5.4781 -1.6860 0.9768
-1.7335 5.1779 -1.6347 0.9775
-2.1282 4.8673 -1.5904 0.9781
-3.0130 4.4957 -1.6203 0.9777
-3.3435 4.1383 -1.5928 0.9780
-3.6475 3.7715 -1.5708 0.9783
-4.1816 3.0097 -1.5425 0.9787
-4.6235 2.2085 -1.5340 0.9788
-3.5598 0.9751 -1.1050 0.9847
-2.7412 0.2449 -0.8239 0.9886
-2.7827 -0.2487 -0.8872 0.9883
-2.9540 -0.8092 -0.9727 0.9872
-5.2076 -2.4875 -1.8329 0.9761
-5.0232 -3.6155 -1.9656 0.9744
-4.8719 -4.2129 -2.0455 0.9733
-4.1223 -6.1510 -2.3516 0.9694
-3.7524 -6.8473 -2.4797 0.9678
-3.3091 -7.5682 -2.6233 0.9659
-0.5917 -10.6110 -3.3751 0.9564
4.1716 -13.4479 -4.4716 0.9426
12.6999 4.4099 -4.2695 0.9451
8.9642 6.1536 -3.4531 0.9554
6.7476 6.6729 -3.0138 0.9610
4.8071 6.8382 -2.6546 0.9655
3.9388 6.8221 -2.5018 0.9675
3.1344 6.7544 -2.3648 0.9692
1.7021 6.4969 -2.1330 0.9722
-0.5684 5.6503 -1.8035 0.9764
-1.8586 4.8258 -1.6424 0.9785
-3.3716 3.8123 -1.6163 0.9789
-3.6540 3.4559 -1.5973 0.9791
-3.9126 3.0898 -1.5833 0.9793
-4.1483 2.7137 -1.5743 0.9794
-4.3619 2.3276 -1.5701 0.9795
-4.7237 1.5232 -1.5762 0.9794
-2.9791 0.6749 -0.9701 0.9873
-2.6672 0.3587 -0.8547 0.9888
-2.7186 0.1212 -0.8642 0.9886
-2.7612 -0.1231 -0.8778 0.9885
-2.8254 -0.3800 -0.9054 0.9881
-2.9205 -0.6617 -0.9510 0.9875
-3.1071 -1.0019 -1.0368 0.9864
-5.2319 -2.2185 -1.8048 0.9764
-5.1751 -2.7615 -1.8629 0.9757
-4.7795 -4.5204 -2.0893 0.9728
-4.2825 -5.8123 -2.2928 0.9702
-3.5405 -7.2047 -2.5495 0.9669
-2.4842 -8.6878 -2.8697 0.9628
-1.0286 -10.2243 -3.2634 0.9578
0.9184 -11.7532 -3.7440 0.9517
3.4438 -13.1449 -4.3155 0.9446
12.0569 4.7985 -4.1212 0.9470
10.7876 5.4512 -3.8385 0.9505
8.3851 6.3235 -3.3353 0.9569
6.2365 6.7428 -2.9169 0.9622
5.2664 6.8238 -2.7375 0.9645
4.3647 6.8372 -2.5761 0.9665
2.7550 6.7039 -2.3018 0.9700
2.0394 6.5744 -2.1861 0.9715
0.2009 6.0086 -1.9093 0.9751
-0.3220 5.7753 -1.8370 0.9760
-0.8052 5.5213 -1.7721 0.9769
-1.2517 5.2526 -1.7149 0.9776
-1.6643 4.9711 -1.6649 0.9782
-2.5537 4.6600 -1.6876 0.9779
-3.5158 3.6353 -1.6061 0.9790
-3.7862 3.2741 -1.5897 0.9792
-4.2578 2.5220 -1.5716 0.9794
-3.4729 0.9513 -1.1436 0.9850
-2.7374 -0.2446 -0.9234 0.9885
-5.0446 -1.8787 -1.8086 0.9775
-4.9222 -2.9154 -1.9221 0.9761
-4.8088 -3.4612 -1.9907 0.9753
-4.6559 -4.0261 -2.0680 0.9744
-3.9135 -5.8394 -2.3618 0.9708
-3.5525 -6.4826 -2.4837 0.9693
-2.6172 -7.8172 -2.7697 0.9658
-2.0249 -8.4968 -2.9347 0.9638
-0.5495 -9.8555 -3.3164 0.9592
0.3515 -10.5141 -3.5345 0.9566
1.3720 -11.1395 -3.7710 0.9537
3.7870 -12.2080 -4.2945 0.9475
13.6179 2.1413 -4.6316 0.9435
12.5900 3.1490 -4.3603 0.9467
7.2575 5.9985 -3.1635 0.9610
6.2900 6.2203 -2.9722 0.9634
5.3760 6.3588 -2.7977 0.9655
4.5176 6.4263 -2.6392 0.9674
3.7144 6.4335 -2.4959 0.9691
2.2675 6.3025 -2.2504 0.9721
1.6188 6.1790 -2.1461 0.9734
0.4566 5.8433 -1.9692 0.9756
-0.0628 5.6394 -1.8948 0.9765
-2.1734 4.4229 -1.6557 0.9794
-3.5261 3.3349 -1.6306 0.9797
-4.0051 2.6201 -1.6080 0.9800
-4.2117 2.2474 -1.6039 0.9801
-4.3967 1.8644 -1.6045 0.9800
-2.6180 0.3521 -0.8875 0.9889
-2.6762 0.1193 -0.9000 0.9888
-2.7168 -0.1211 -0.9137 0.9886
-2.7751 -0.3732 -0.9408 0.9883
-2.8653 -0.6492 -0.9871 0.9877
-5.0557 -1.6302 -1.7847 0.9778
-4.8702 -3.1859 -1.9553 0.9757
-4.0708 -5.5249 -2.3057 0.9715
-3.3469 -6.8108 -2.5497 0.9685
-2.3322 -8.1562 -2.8502 0.9648
-1.6941 -8.8381 -3.0235 0.9627
-0.9576 -9.5187 -3.2143 0.9604
-0.1135 -10.1879 -3.4231 0.9579
0.8465 -10.8321 -3.6505 0.9552
4.4677 -12.4181 -4.4341 0.9458
12.0556 3.5929 -4.2265 0.9483
10.9658 4.3643 -3.9654 0.9514
7.7602 5.8523 -3.2656 0.9598
5.8262 6.2992 -2.8829 0.9644
4.9399 6.4007 -2.7165 0.9665
2.6100 6.3510 -2.3070 0.9714
0.1917 5.7321 -1.9270 0.9761
-0.3083 5.5286 -1.8604 0.9769
-0.7720 5.2937 -1.7974 0.9777
-1.2017 5.0428 -1.7418 0.9784
-1.9680 4.5010 -1.6505 0.9795
-2.7958 4.1717 -1.6873 0.9790
-3.3921 3.5074 -1.6394 0.9796
-3.6543 3.1600 -1.6232 0.9798
-4.1111 2.4350 -1.6054 0.9800
-4.3068 2.0572 -1.6036 0.9801
-2.6265 0.7195 -0.9150 0.9886
-2.6500 0.2368 -0.8939 0.9888
-2.6518 0.0000 -0.9403 0.9888
-2.7668 -0.4985 -0.9969 0.9881
-4.8542 -1.8077 -1.8367 0.9783
-4.7252 -2.7988 -1.9474 0.9770
-4.0173 -4.9724 -2.2667 0.9732
-2.9554 -6.7592 -2.6158 0.9692
0.3265 -9.7648 -3.4644 0.9594
1.2681 -10.2966 -3.6786 0.9569
2.3146 -10.7711 -3.9065 0.9543
4.7093 -11.4593 -4.3930 0.9488
7.4208 -11.6246 -4.8902 0.9431
12.3008 1.9342 -4.4153 0.9485
9.5701 4.3121 -3.7220 0.9564
5.8862 5.8210 -2.9354 0.9655
3.5121 6.0832 -2.4907 0.9706
2.8116 6.0589 -2.3684 0.9721
0.9702 5.7520 -2.0684 0.9755
-0.5224 5.1930 -1.8506 0.9781
-0.9519 4.9663 -1.7930 0.9788
-1.2349 4.3186 -1.5927 0.9811
-1.7207 4.4679 -1.6977 0.9799
-3.1398 3.5502 -1.6805 0.9801
-3.4055 3.2209 -1.6621 0.9803
-3.6487 2.8814 -1.6486 0.9805
-3.8700 2.5317 -1.6398 0.9806
-4.0699 2.1718 -1.6358 0.9806
-4.2487 1.8016 -1.6364 0.9806
-2.5615 0.5804 -0.9313 0.9889
-2.5748 0.3463 -0.9212 0.9890
-2.7260 -0.3666 -0.9753 0.9884
-4.8338 -2.0497 -1.8617 0.9780
-4.5379 -3.5836 -2.0503 0.9758
-4.3636 -4.1271 -2.1297 0.9748
-2.1963 -7.6810 -2.8327 0.9667
-0.1056 -9.4831 -3.3628 0.9606
2.8767 -10.9803 -4.0249 0.9530
8.1253 -11.5584 -5.0098 0.9418
11.8783 2.4144 -4.2980 0.9499
7.2164 5.4421 -3.2049 0.9624
3.1562 6.0768 -2.4281 0.9714
-0.2955 5.2998 -1.8821 0.9777
-1.1551 4.8470 -1.7668 0.9791
-1.4643 4.3737 -1.6355 0.9806
-1.8956 4.3355 -1.6778 0.9801
-2.3710 4.3265 -1.7494 0.9793
-2.6971 4.0243 -1.7178 0.9796
-2.9982 3.7109 -1.6917 0.9800
-3.5299 3.0524 -1.6547 0.9804
-3.7621 2.7078 -1.6436 0.9805
-4.1620 1.9880 -1.6355 0.9806
-2.6624 0.4796 -0.9592 0.9886
-2.6060 0.2329 -0.9277 0.9890
-2.6101 0.0000 -0.9746 0.9889
-2.6497 -0.2368 -0.9934 0.9887
-2.7171 -0.4895 -1.0309 0.9883
-2.7878 -0.7637 -1.0793 0.9877
-4.6242 -2.2088 -1.9136 0.9784
-4.2706 -3.6929 -2.1082 0.9762
-2.3347 -6.9736 -2.7461 0.9691
0.3045 -9.1080 -3.4029 0.9618
1.1780 -9.5643 -3.5984 0.9597
3.1888 -10.2798 -4.0190 0.9551
4.3147 -10.4992 -4.2387 0.9527
5.5040 -10.5970 -4.4589 0.9503
6.7353 -10.5506 -4.6741 0.9480
10.3588 -9.3690 -5.2155 0.9421
13.7697 -2.7988 -5.2469 0.9418
13.5717 -1.5182 -5.0994 0.9434
13.1780 -0.2937 -4.9220 0.9453
11.2043 1.7618 -4.2352 0.9527
10.4672 2.6180 -4.0290 0.9550
8.8368 3.9817 -3.6193 0.9595
6.3281 5.2303 -3.0657 0.9656
4.7581 5.6279 -2.7519 0.9690
3.3288 5.7657 -2.4860 0.9720
2.6716 5.7571 -2.3699 0.9733
1.4721 5.6194 -2.1691 0.9755
0.9260 5.4898 -2.0789 0.9765
0.4175 5.3431 -2.0013 0.9774
-0.0576 5.1726 -1.9316 0.9782
-0.5017 4.9876 -1.8718 0.9788
-0.9154 4.7758 -1.8158 0.9795
-1.6582 4.3054 -1.7228 0.9805
-2.1201 4.3144 -1.7951 0.9797
-2.4489 4.0314 -1.7614 0.9801
-3.0337 3.4302 -1.7099 0.9806
-3.5277 2.7858 -1.6785 0.9810
-3.7423 2.4481 -1.6699 0.9811
-3.9359 2.1003 -1.6659 0.9811
-2.6781 -0.3602 -1.0090 0.9885
-2.7556 -0.6243 -1.0551 0.9880
-4.4874 -2.9355 -2.0023 0.9774
-4.1785 -3.9521 -2.1477 0.9757
-3.0119 -6.1291 -2.5501 0.9713
-2.0740 -7.2533 -2.8170 0.9683
-1.4965 -7.8071 -2.9683 0.9666
0.7301 -9.3425 -3.4992 0.9608
2.6544 -10.1315 -3.9109 0.9563
3.7428 -10.4033 -4.1285 0.9539
4.9026 -10.5647 -4.3491 0.9515
6.1160 -10.5932 -4.5676 0.9491
9.7911 -9.6826 -5.1419 0.9429
13.3975 -0.8968 -5.0140 0.9443
9.2561 3.6838 -3.7200 0.9584
7.5742 4.7173 -3.3320 0.9626
6.7386 5.0818 -3.1516 0.9646
5.9241 5.3580 -2.9827 0.9665
2.9954 5.7672 -2.4267 0.9726
1.1933 5.5532 -2.1210 0.9760
-0.7123 4.8838 -1.8430 0.9791
-1.1114 4.6637 -1.7903 0.9797
-1.4562 4.3496 -1.7128 0.9806
-1.8366 4.2005 -1.7119 0.9806
-2.6039 3.8854 -1.7465 0.9802
-2.8962 3.5847 -1.7209 0.9805
-3.1654 3.2730 -1.7003 0.9807
-4.1874 1.5594 -1.6685 0.9811
-3.4441 0.9434 -1.3334 0.9849
-2.6096 0.4701 -0.9901 0.9887
-2.5629 0.2290 -0.9608 0.9891
-2.5691 -0.0000 -1.0083 0.9890
-2.6685 -0.4808 -1.0642 0.9884
-2.7583 -1.0272 -1.1552 0.9874
-4.3692 -2.5879 -1.9930 0.9784
-4.2515 -3.0601 -2.0559 0.9777
-3.9050 -4.0377 -2.2046 0.9762
-3.3869 -5.0536 -2.3876 0.9742
-2.6638 -6.0924 -2.6097 0.9718
-1.6966 -7.1195 -2.8725 0.9690
-1.1106 -7.6147 -3.0202 0.9675
1.0988 -8.9218 -3.5280 0.9621
1.9891 -9.2564 -3.7158 0.9601
2.9515 -9.5145 -3.9097 0.9581
5.0531 -9.7288 -4.3026 0.9540
8.3555 -9.0339 -4.8295 0.9485
9.3798 -8.4835 -4.9637 0.9471
11.7296 -5.9272 -5.1579 0.9451
12.4613 -2.5329 -4.9907 0.9468
11.9964 -0.2673 -4.7094 0.9497
9.6396 2.4110 -3.8998 0.9582
8.2041 3.6966 -3.5316 0.9621
7.4474 4.1898 -3.3537 0.9639
6.6923 4.5935 -3.1857 0.9657
1.9588 5.4446 -2.2709 0.9754
0.8868 5.2570 -2.0923 0.9774
0.4005 5.1246 -2.0174 0.9782
-1.2531 4.3823 -1.7888 0.9806
-1.5994 4.1528 -1.7466 0.9811
-2.3655 3.8942 -1.7882 0.9806
-2.6607 3.6112 -1.7605 0.9809
-3.1838 3.0113 -1.7199 0.9813
-3.8089 2.0325 -1.6944 0.9816
-3.9761 1.6861 -1.6950 0.9816
-2.5568 0.5793 -1.0289 0.9888
-2.5490 0.1137 -1.0014 0.9891
-2.5889 -0.1154 -1.0171 0.9889
-2.7055 -0.6130 -1.0887 0.9882
-4.4845 -1.9016 -1.9117 0.9793
-3.7927 -4.2886 -2.2469 0.9757
-3.5342 -4.7967 -2.3384 0.9747
-2.8658 -5.8318 -2.5502 0.9725
-1.9633 -6.8662 -2.8028 0.9698
-1.4125 -7.3694 -2.9449 0.9683
-0.0926 -8.3122 -3.2625 0.9649
0.6823 -8.7311 -3.4371 0.9631
2.4617 -9.3961 -3.8122 0.9591
3.4572 -9.6094 -4.0081 0.9571
4.5101 -9.7189 -4.2051 0.9550
6.7159 -9.5535 -4.5832 0.9511
7.8183 -9.2474 -4.7526 0.9493
8.8776 -8.7792 -4.9002 0.9478
9.8576 -8.1475 -5.0193 0.9465
10.7219 -7.3602 -5.1041 0.9456
11.4369 -6.4343 -5.1502 0.9452
11.9755 -5.3959 -5.1551 0.9451
12.4638 -3.1174 -5.0424 0.9463
12.1758 -0.8150 -4.7893 0.9489
11.2493 1.2584 -4.4426 0.9525
3.4830 5.4560 -2.5404 0.9726
2.8484 5.4841 -2.4253 0.9738
0.6397 5.1940 -2.0539 0.9778
0.1688 5.0492 -1.9828 0.9785
-1.0704 4.4917 -1.8122 0.9804
-1.4293 4.2691 -1.7669 0.9808
-1.8250 4.1740 -1.7879 0.9806
-2.2091 4.0311 -1.8041 0.9804
-2.7998 3.4654 -1.7485 0.9810
-3.3011 2.8546 -1.7128 0.9814
-3.5197 2.5334 -1.7020 0.9815
-3.7177 2.2020 -1.6958 0.9816
-3.8951 1.8605 -1.6942 0.9816
-3.4629 0.9486 -1.4092 0.9847
-2.6410 -0.7235 -1.1276 0.9882
-2.6436 -0.9845 -1.1616 0.9879
-3.9366 -3.4041 -2.1430 0.9777
-3.7459 -3.8732 -2.2188 0.9770
-3.5142 -4.3496 -2.3026 0.9761
-3.2379 -4.8313 -2.3949 0.9752
-2.9133 -5.3161 -2.4962 0.9741
-2.1022 -6.2789 -2.7266 0.9718
-1.6076 -6.7457 -2.8555 0.9704
-1.0494 -7.1955 -2.9943 0.9690
0.2678 -8.0099 -3.3002 0.9659
1.0288 -8.3533 -3.4657 0.9642
1.8561 -8.6372 -3.6379 0.9625
2.7445 -8.8472 -3.8144 0.9607
6.6694 -8.6418 -4.4951 0.9539
7.6434 -8.2640 -4.6353 0.9525
10.1000 -6.2903 -4.8997 0.9498
11.0743 -4.4075 -4.9081 0.9497
11.2587 -1.2595 -4.6650 0.9522
10.6024 0.7097 -4.3756 0.9551
10.0966 1.5876 -4.2087 0.9568
8.3073 2.8846 -3.6211 0.9627
7.6491 3.4465 -3.4547 0.9644
6.9674 3.9198 -3.2919 0.9660
6.2764 4.3085 -3.1348 0.9676
4.9103 4.8559 -2.8437 0.9706
4.2562 5.0343 -2.7146 0.9719
3.6193 5.1487 -2.5916 0.9731
3.0040 5.2030 -2.4740 0.9743
2.4216 5.2184 -2.3689 0.9754
0.8502 5.0403 -2.1048 0.9781
-0.0532 4.7768 -1.9671 0.9795
-0.4643 4.6154 -1.9101 0.9801
-1.5556 4.0391 -1.7823 0.9815
-1.9772 4.0234 -1.8460 0.9808
-2.2866 3.7643 -1.8136 0.9811
-3.0816 2.9146 -1.7466 0.9818
-3.5064 2.2938 -1.7254 0.9820
-3.8502 1.6327 -1.7221 0.9821
-2.6388 0.5978 -1.1141 0.9884
-2.5068 0.1118 -1.0333 0.9892
-2.5479 -0.1136 -1.0502 0.9890
-2.5854 -0.3477 -1.0742 0.9888
-2.6464 -0.8534 -1.1450 0.9880
-4.3252 -1.8341 -1.9345 0.9799
-3.8462 -3.6377 -2.1799 0.9774
-3.6354 -4.1106 -2.2597 0.9765
-3.3818 -4.5899 -2.3477 0.9756
-3.0819 -5.0735 -2.4444 0.9746
-2.7316 -5.5587 -2.5504 0.9736
-2.3267 -6.0412 -2.6658 0.9724
-1.8626 -6.5140 -2.7898 0.9711
-1.3366 -6.9732 -2.9237 0.9698
-0.7456 -7.4115 -3.0673 0.9683
2.2931 -8.7525 -3.7257 0.9616
3.2091 -8.9197 -3.9035 0.9598
4.1716 -8.9896 -4.0809 0.9580
6.1704 -8.7775 -4.4181 0.9546
7.1617 -8.4708 -4.5677 0.9531
8.1109 -8.0210 -4.6972 0.9519
8.9874 -7.4283 -4.8013 0.9508
11.3589 -2.8411 -4.8215 0.9506
11.1460 -0.7461 -4.6000 0.9528
10.8152 0.2410 -4.4546 0.9543
10.3619 1.1591 -4.2934 0.9559
7.3103 3.6940 -3.3727 0.9652
5.9312 4.4729 -3.0590 0.9684
2.7092 5.2161 -2.4203 0.9749
0.6138 4.9837 -2.0677 0.9785
0.1622 4.8516 -1.9989 0.9792
-0.2621 4.7014 -1.9389 0.9798
-0.6599 4.5247 -1.8829 0.9804
-1.3790 4.1191 -1.7887 0.9814
-1.8137 4.1480 -1.8642 0.9806
-2.7084 3.3523 -1.7747 0.9815
-2.9625 3.0632 -1.7548 0.9817
-3.5999 2.1323 -1.7229 0.9821
-3.7718 1.8017 -1.7213 0.9821
-3.9236 1.4612 -1.7241 0.9821
-2.4793 0.2215 -1.0250 0.9893
-2.4892 -0.0000 -1.0738 0.9892
-2.5507 -0.6987 -1.1408 0.9885
-2.5688 -0.9566 -1.1824 0.9881
-4.0556 -2.4021 -2.0333 0.9797
-3.9374 -2.8340 -2.0926 0.9791
-3.5973 -3.7196 -2.2321 0.9777
-3.0997 -4.6251 -2.4017 0.9760
-2.7839 -5.0800 -2.4988 0.9751
-2.4189 -5.5322 -2.6045 0.9740
-0.9939 -6.8151 -2.9709 0.9704
0.9664 -7.8464 -3.4102 0.9661
1.7382 -8.0888 -3.5688 0.9646
4.3294 -8.3356 -4.0517 0.9599
5.2440 -8.2146 -4.2039 0.9584
6.1538 -7.9737 -4.3447 0.9571
7.0355 -7.6067 -4.4695 0.9559
7.8636 -7.1121 -4.5736 0.9549
8.6116 -6.4943 -4.6526 0.9541
9.7717 -4.9379 -4.7227 0.9534
10.1461 -4.0380 -4.7105 0.9535
10.4377 -2.1215 -4.5944 0.9547
10.1411 -0.2260 -4.3755 0.9568
9.8029 0.6562 -4.2380 0.9581
9.3622 1.4721 -4.0881 0.9596
7.1583 3.2254 -3.3867 0.9664
6.5401 3.6794 -3.2369 0.9678
5.2752 4.3600 -2.9521 0.9706
4.6480 4.5965 -2.8197 0.9719
1.7878 4.9691 -2.2780 0.9773
0.3696 4.7299 -2.0465 0.9795
-0.4473 4.4462 -1.9276 0.9807
-0.8187 4.2714 -1.8760 0.9812
-2.4904 3.3801 -1.8110 0.9819
-2.7478 3.1070 -1.7892 0.9821
-2.9844 2.8227 -1.7720 0.9823
-3.2008 2.5277 -1.7593 0.9824
-3.3971 2.2223 -1.7511 0.9825
-3.5737 1.9070 -1.7473 0.9825
-3.7305 1.5819 -1.7479 0.9825
-3.8674 1.2471 -1.7528 0.9825
-2.5715 0.5826 -1.1373 0.9886
-2.4654 0.1099 -1.0645 0.9893
-2.5077 -0.1118 -1.0828 0.9891
-2.5465 -0.5770 -1.1263 0.9887
-2.5665 -0.8276 -1.1632 0.9883
-2.6695 -1.1320 -1.2508 0.9874
-4.1028 -2.1893 -2.0060 0.9799
-4.0006 -2.6171 -2.0621 0.9794
-3.8659 -3.0529 -2.1249 0.9788
-3.4886 -3.9446 -2.2715 0.9773
-3.2402 -4.3977 -2.3563 0.9765
-2.9477 -4.8526 -2.4492 0.9756
-2.6078 -5.3067 -2.5505 0.9746
-1.7705 -6.1920 -2.7780 0.9723
-1.2676 -6.6128 -2.9044 0.9711
-0.7053 -7.0107 -3.0394 0.9698
2.1442 -8.1841 -3.6494 0.9638
2.9914 -8.3147 -3.8117 0.9622
5.7009 -8.1096 -4.2760 0.9577
7.4579 -7.3753 -4.5244 0.9553
8.2492 -6.8181 -4.6164 0.9544
8.9478 -6.1423 -4.6816 0.9538
9.5302 -5.3616 -4.7168 0.9535
9.9775 -4.4956 -4.7206 0.9534
10.4223 -2.6068 -4.6342 0.9543
10.4158 -1.6378 -4.5482 0.9551
9.5941 1.0733 -4.1643 0.9588
8.0316 2.3937 -3.6151 0.9641
7.4585 2.9684 -3.4627 0.9656
6.8516 3.4623 -3.3114 0.9671
6.2253 3.8771 -3.1636 0.9686
5.5917 4.2169 -3.0210 0.9700
3.7334 4.8374 -2.6358 0.9737
1.5350 4.9482 -2.2348 0.9777
1.0492 4.8823 -2.1541 0.9785
0.1561 4.6664 -2.0140 0.9799
-0.2521 4.5228 -1.9540 0.9805
-0.6360 4.3611 -1.9011 0.9810
-0.9955 4.1774 -1.8524 0.9815
-1.7528 4.0087 -1.8873 0.9811
-2.3538 3.5122 -1.8238 0.9818
-2.6217 3.2450 -1.7995 0.9820
-2.8687 2.9662 -1.7800 0.9822
-3.3015 2.3763 -1.7546 0.9824
-3.4879 2.0659 -1.7486 0.9825
-3.8015 1.4157 -1.7498 0.9825
-3.9284 1.0761 -1.7570 0.9824
-2.4719 0.4453 -1.0835 0.9891
-2.4387 0.2179 -1.0561 0.9894
-2.4592 -0.4431 -1.1275 0.9891
-2.4701 -0.6767 -1.1556 0.9888
-2.4890 -0.9269 -1.1984 0.9884
-3.7943 -2.7310 -2.1094 0.9797
-3.6437 -3.1509 -2.1736 0.9791
-3.4581 -3.5757 -2.2445 0.9784
-3.2348 -4.0038 -2.3226 0.9777
-2.6639 -4.8610 -2.5011 0.9760
-1.4519 -6.0925 -2.8260 0.9729
0.9104 -7.3914 -3.3603 0.9678
1.6330 -7.5993 -3.5072 0.9665
2.4006 -7.7389 -3.6561 0.9651
3.2050 -7.7987 -3.8045 0.9637
4.0344 -7.7675 -3.9494 0.9623
4.8742 -7.6352 -4.0873 0.9610
6.5103 -7.0388 -4.3263 0.9588
8.5306 -5.3129 -4.5346 0.9569
9.0041 -4.5500 -4.5521 0.9567
9.3510 -3.7216 -4.5412 0.9568
9.5631 -2.8501 -4.5026 0.9572
9.3988 -0.2095 -4.2419 0.9596
9.1063 0.6096 -4.1181 0.9607
8.7188 1.3710 -3.9824 0.9620
8.1174 2.0303 -3.7755 0.9639
7.2566 2.5198 -3.4661 0.9669
6.7208 3.0282 -3.3261 0.9682
3.8352 4.5363 -2.6803 0.9743
3.2755 4.6594 -2.5699 0.9753
2.2121 4.7669 -2.3712 0.9772
-0.0493 4.4285 -1.9983 0.9808
-0.7901 4.1221 -1.8938 0.9817
-1.5355 3.9870 -1.9278 0.9814
-1.8490 3.7626 -1.8917 0.9818
-2.6618 3.0098 -1.8130 0.9825
-2.8919 2.7352 -1.7961 0.9827
-3.1023 2.4498 -1.7836 0.9828
-3.2930 2.1543 -1.7756 0.9829
-3.4644 1.8487 -1.7719 0.9829
-3.6164 1.5335 -1.7724 0.9829
-3.7488 1.2088 -1.7773 0.9829
-2.5489 0.5775 -1.1792 0.9886
-2.3568 0.3170 -1.0730 0.9896
-2.4105 0.1075 -1.0887 0.9895
-2.4521 -0.3298 -1.1164 0.9892
-2.4782 -0.7991 -1.1749 0.9886
-3.7232 -2.9402 -2.1407 0.9794
-3.1082 -4.2185 -2.3643 0.9773
-2.8231 -4.6474 -2.4536 0.9764
-2.1150 -5.4916 -2.6553 0.9745
-1.6860 -5.8963 -2.7672 0.9734
-1.2044 -6.2834 -2.8868 0.9723
0.5678 -7.2655 -3.2883 0.9685
1.2656 -7.5031 -3.4334 0.9672
2.0116 -7.6783 -3.5815 0.9658
6.8948 -6.8184 -4.3754 0.9583
7.6147 -6.2937 -4.4575 0.9576
8.2506 -5.6637 -4.5155 0.9570
9.6178 -2.4055 -4.4734 0.9574
9.6256 -1.5136 -4.3966 0.9581
8.9234 0.9982 -4.0515 0.9614
7.5098 2.2382 -3.5358 0.9662
6.9930 2.7832 -3.3961 0.9675
5.2848 3.9854 -2.9866 0.9714
4.6997 4.2506 -2.8593 0.9726
2.4702 4.7559 -2.4181 0.9768
1.4717 4.7444 -2.2414 0.9784
1.0074 4.6882 -2.1637 0.9792
0.5670 4.6032 -2.0927 0.9799
0.1502 4.4925 -2.0282 0.9805
-0.2430 4.3590 -1.9699 0.9810
-0.6135 4.2067 -1.9182 0.9815
-0.9611 4.0332 -1.8708 0.9820
-1.3120 3.9187 -1.8647 0.9820
-1.6950 3.8766 -1.9091 0.9816
-1.9976 3.6452 -1.8755 0.9819
-2.5392 3.1429 -1.8231 0.9824
-2.7794 2.8739 -1.8040 0.9826
-3.2001 2.3033 -1.7791 0.9828
-3.5429 1.6923 -1.7716 0.9829
-2.4063 0.4335 -1.1032 0.9893
-2.3848 0.2131 -1.0804 0.9895
-2.3816 -0.4291 -1.1407 0.9894
-2.4034 -0.8950 -1.2089 0.9887
-3.8644 -1.8459 -2.0187 0.9812
-3.7766 -2.2369 -2.0691 0.9808
-2.8509 -4.2539 -2.4139 0.9776
-2.5522 -4.6572 -2.5033 0.9768
-1.3834 -5.8051 -2.8130 0.9740
-0.3606 -6.4669 -3.0531 0.9718
0.2256 -6.7465 -3.1819 0.9706
1.5385 -7.1594 -3.4518 0.9681
2.2562 -7.2731 -3.5895 0.9669
3.0047 -7.3115 -3.7261 0.9656
4.5485 -7.1251 -3.9846 0.9633
5.3140 -6.8855 -4.0999 0.9623
6.0517 -6.5430 -4.2012 0.9614
6.7420 -6.0977 -4.2850 0.9606
7.9029 -4.9219 -4.3886 0.9597
8.8640 -2.6417 -4.3599 0.9599
8.7487 -0.1950 -4.1250 0.9620
8.4936 0.5686 -4.0126 0.9631
6.8159 2.3668 -3.4010 0.9686
6.3282 2.8513 -3.2718 0.9698
5.2769 3.6224 -3.0171 0.9721
2.1184 4.5650 -2.3722 0.9780
1.6428 4.5662 -2.2875 0.9788
0.7543 4.4716 -2.1376 0.9801
-0.0475 4.2693 -2.0126 0.9813
-0.4161 4.1361 -1.9595 0.9818
-1.7897 3.6420 -1.9128 0.9822
-2.0732 3.4131 -1.8824 0.9825
-3.0083 2.3756 -1.8069 0.9832
-3.1937 2.0893 -1.7990 0.9833
-3.5075 1.4873 -1.7959 0.9833
-3.6356 1.1723 -1.8007 0.9832
-2.5265 0.5724 -1.2211 0.9886
-2.3694 -0.1057 -1.1180 0.9896
-2.3799 -0.3201 -1.1319 0.9894
-2.3894 -0.5414 -1.1548 0.9892
-2.4109 -1.0223 -1.2344 0.9885
-3.5888 -2.8341 -2.1556 0.9800
-3.4232 -3.2377 -2.2210 0.9794
-2.7069 -4.4561 -2.4577 0.9772
-1.1464 -5.9810 -2.8706 0.9734
-0.0736 -6.6119 -3.1169 0.9712
0.5368 -6.8698 -3.2481 0.9700
1.1938 -7.0775 -3.3833 0.9688
2.6272 -7.3023 -3.6581 0.9663
3.3873 -7.2994 -3.7932 0.9650
5.6876 -6.7272 -4.1525 0.9618
7.0631 -5.8378 -4.3194 0.9603
8.5153 -3.8368 -4.4026 0.9595
8.7784 -3.0482 -4.3803 0.9597
8.6331 0.1924 -4.0704 0.9625
8.3321 0.9321 -3.9520 0.9636
7.3236 2.1827 -3.6022 0.9668
6.5764 2.6173 -3.3365 0.9692
6.0727 3.0687 -3.2072 0.9704
5.5458 3.4539 -3.0797 0.9715
5.0059 3.7751 -2.9554 0.9727
4.4617 4.0354 -2.8358 0.9737
2.3636 4.5506 -2.4171 0.9776
0.9684 4.5063 -2.1727 0.9798
0.5457 4.4302 -2.1041 0.9805
-0.2344 4.2045 -1.9850 0.9816
-0.5922 4.0608 -1.9344 0.9820
-0.9287 3.8969 -1.8884 0.9824
-1.3065 3.9025 -1.9399 0.9820
-1.9340 3.5292 -1.8970 0.9824
-2.2074 3.2937 -1.8690 0.9826
-2.4607 3.0456 -1.8456 0.9828
-2.6942 2.7858 -1.8268 0.9830
-2.9084 2.5150 -1.8125 0.9831
-2.3242 0.2077 -1.1000 0.9897
-2.2975 0.0000 -1.1300 0.9898
-2.3094 -0.2064 -1.1404 0.9897
-2.3278 -0.8669 -1.2217 0.9890
-2.3666 -1.1304 -1.2900 0.9884
-3.3843 -2.9265 -2.2006 0.9803
-3.2044 -3.3134 -2.2672 0.9797
-1.7404 -5.1983 -2.6963 0.9759
-1.3202 -5.5397 -2.8010 0.9749
0.2140 -6.3997 -3.1495 0.9719
1.4531 -6.7619 -3.4018 0.9696
2.8254 -6.8752 -3.6560 0.9674
3.5406 -6.8169 -3.7782 0.9663
4.2594 -6.6722 -3.8935 0.9653
5.6476 -6.1061 -4.0909 0.9636
6.2834 -5.6830 -4.1670 0.9629
6.8573 -5.1713 -4.2244 0.9624
7.3532 -4.5796 -4.2608 0.9621
7.7572 -3.9199 -4.2749 0.9620
8.0588 -3.2073 -4.2661 0.9621
8.2513 -2.4591 -4.2348 0.9623
8.3326 -1.6937 -4.1822 0.9628
8.1744 -0.1821 -4.0216 0.9642
5.9737 2.6916 -3.2227 0.9712
5.4980 3.0931 -3.1028 0.9723
4.4977 3.7174 -2.8700 0.9743
1.5774 4.3843 -2.2918 0.9794
1.1421 4.3592 -2.2165 0.9801
-0.0459 4.1190 -2.0261 0.9818
-0.7374 3.8473 -1.9268 0.9827
-1.4377 3.7329 -1.9675 0.9823
-1.7332 3.5271 -1.9329 0.9826
-2.0088 3.3070 -1.9032 0.9829
-2.7194 2.5721 -1.8411 0.9835
-3.2605 1.7398 -1.8177 0.9837
-2.2893 0.1021 -1.1271 0.9898
-2.3022 -0.1027 -1.1335 0.9898
-2.3108 -0.3108 -1.1468 0.9897
-2.3142 -0.5243 -1.1671 0.9895
-2.3173 -0.7472 -1.1976 0.9892
-2.3375 -0.9912 -1.2488 0.9887
-3.6956 -1.9721 -2.0603 0.9815
-3.4618 -2.7338 -2.1697 0.9805
-3.1016 -3.5071 -2.3028 0.9793
-2.8689 -3.8938 -2.3789 0.9787
-2.5982 -4.2773 -2.4615 0.9779
-2.2873 -4.6546 -2.5509 0.9771
-1.9337 -5.0208 -2.6463 0.9763
-1.5359 -5.3715 -2.7479 0.9754
1.7858 -6.8163 -3.4658 0.9691
2.4731 -6.8740 -3.5932 0.9680
3.1817 -6.8564 -3.7178 0.9669
3.9004 -6.7557 -3.8369 0.9658
4.6156 -6.5658 -3.9476 0.9649
5.3119 -6.2829 -4.0467 0.9640
7.5675 -4.2574 -4.2707 0.9620
7.9213 -3.5692 -4.2734 0.9620
8.1689 -2.8365 -4.2532 0.9622
8.3321 -1.3101 -4.1485 0.9631
7.0585 2.1037 -3.6227 0.9677
5.7389 2.9000 -3.1626 0.9717
4.7512 3.5830 -2.9269 0.9738
3.2342 4.1906 -2.6036 0.9767
1.8020 4.3848 -2.3317 0.9791
-0.2263 4.0584 -1.9993 0.9820
-0.5721 3.9226 -1.9498 0.9825
-0.9010 3.7809 -1.9117 0.9828
-1.5880 3.6318 -1.9496 0.9825
-2.1393 3.1921 -1.8900 0.9830
-2.3857 2.9528 -1.8671 0.9832
-2.6129 2.7018 -1.8487 0.9834
-2.8213 2.4397 -1.8346 0.9835
-3.0109 2.1672 -1.8247 0.9836
-3.1820 1.8847 -1.8190 0.9836
-3.4678 1.2914 -1.8201 0.9836
-3.5823 0.9813 -1.8269 0.9836
-2.2443 -0.2005 -1.1552 0.9899
-2.2416 -0.4039 -1.1677 0.9898
-2.2481 -0.6158 -1.1950 0.9896
-2.2593 -0.8414 -1.2360 0.9892
-3.5263 -2.0886 -2.1012 0.9817
-3.0884 -3.1934 -2.2776 0.9802
-2.8783 -3.5625 -2.3480 0.9796
-2.3503 -4.2889 -2.5073 0.9783
-1.6658 -4.9757 -2.6901 0.9767
-1.2615 -5.2937 -2.7899 0.9758
-0.3263 -5.8531 -3.0054 0.9740
0.2033 -6.0819 -3.1197 0.9730
1.3754 -6.4006 -3.3563 0.9710
2.0086 -6.4748 -3.4755 0.9700
4.0010 -6.2673 -3.8120 0.9671
5.2886 -5.7179 -3.9930 0.9656
5.8771 -5.3154 -4.0625 0.9650
6.4081 -4.8326 -4.1147 0.9646
6.8677 -4.2772 -4.1479 0.9643
7.2435 -3.6603 -4.1607 0.9642
7.5260 -2.9953 -4.1527 0.9642
7.7747 -0.8697 -4.0107 0.9654
7.1899 1.1305 -3.7313 0.9678
5.6519 2.5466 -3.1781 0.9725
5.2123 2.9324 -3.0660 0.9735
4.7525 3.2624 -2.9553 0.9744
3.8039 3.7617 -2.7426 0.9762
3.3280 3.9363 -2.6426 0.9771
2.8579 4.0654 -2.5476 0.9779
2.3973 4.1523 -2.4580 0.9787
1.5160 4.2137 -2.2958 0.9801
1.0990 4.1950 -2.2232 0.9807
0.6996 4.1474 -2.1563 0.9813
-0.7150 3.7304 -1.9473 0.9831
-1.0857 3.7969 -2.0246 0.9824
-2.8325 2.2368 -1.8503 0.9839
-3.3037 1.4009 -1.8397 0.9840
-2.4709 0.5598 -1.2989 0.9887
-2.2318 0.0995 -1.1453 0.9900
-2.2377 -0.0998 -1.1483 0.9900
-2.2446 -0.3019 -1.1611 0.9899
-2.2530 -0.7265 -1.2136 0.9894
-2.2673 -0.9614 -1.2625 0.9890
-3.4721 -2.2713 -2.1271 0.9815
-3.3417 -2.6389 -2.1830 0.9810
-3.1808 -3.0084 -2.2446 0.9805
-2.9876 -3.3782 -2.3120 0.9799
-2.7601 -3.7461 -2.3855 0.9793
-2.1946 -4.4658 -2.5510 0.9779
-1.0435 -5.4442 -2.8419 0.9754
-0.5759 -5.7247 -2.9497 0.9745
-0.0665 -5.9725 -3.0621 0.9735
0.4830 -6.1803 -3.1781 0.9725
1.0696 -6.3407 -3.2966 0.9715
4.3319 -6.1622 -3.8617 0.9667
7.0667 -3.9757 -4.1569 0.9642
7.3969 -3.3329 -4.1593 0.9642
7.6304 -2.6495 -4.1410 0.9643
7.7634 -1.9417 -4.1026 0.9647
7.7303 -0.5175 -3.9719 0.9658
7.5742 0.1688 -3.8840 0.9665
7.3362 0.8207 -3.7845 0.9674
5.4351 2.7465 -3.1220 0.9730
4.5176 3.4069 -2.9008 0.9749
4.0425 3.6562 -2.7944 0.9758
3.5655 3.8550 -2.6920 0.9767
1.7307 4.2113 -2.3342 0.9797
1.3054 4.2081 -2.2588 0.9804
0.8971 4.1746 -2.1890 0.9810
0.5067 4.1137 -2.1249 0.9815
-0.5530 3.7918 -1.9645 0.9829
-0.8965 3.7621 -1.9827 0.9828
-1.8157 3.3133 -1.9370 0.9832
-2.0742 3.0950 -1.9101 0.9834
-2.3140 2.8641 -1.8877 0.9836
-2.5351 2.6214 -1.8696 0.9837
-2.7379 2.3676 -1.8557 0.9839
-2.9225 2.1035 -1.8460 0.9839
-3.2367 1.5460 -1.8389 0.9840
-3.4769 0.9524 -1.8482 0.9839
-2.1789 -0.3925 -1.1819 0.9900
-2.1932 -0.8168 -1.2494 0.9894
-3.4104 -2.0200 -2.1160 0.9822
-3.2957 -2.3721 -2.1678 0.9818
-3.1524 -2.7260 -2.2248 0.9813
-2.7730 -3.4322 -2.3555 0.9802
-2.5336 -3.7803 -2.4294 0.9796
-1.9468 -4.4525 -2.5942 0.9782
-1.5963 -4.7680 -2.6842 0.9775
-1.2070 -5.0648 -2.7796 0.9767
-0.3112 -5.5815 -2.9843 0.9750
0.1936 -5.7894 -3.0924 0.9741
1.3045 -6.0706 -3.3148 0.9722
2.5173 -6.1256 -3.5355 0.9704
3.1431 -6.0516 -3.6404 0.9696
4.3808 -5.6764 -3.8278 0.9680
5.5143 -4.9873 -3.9692 0.9668
6.0079 -4.5307 -4.0170 0.9665
6.7862 -3.4292 -4.0591 0.9661
7.2269 -2.1538 -4.0257 0.9664
7.3094 -1.4857 -3.9819 0.9667
7.3006 -0.8167 -3.9217 0.9672
7.0283 0.4705 -3.7604 0.9686
6.7803 1.0662 -3.6640 0.9694
6.1086 2.1211 -3.4520 0.9711
4.5220 3.1042 -2.9281 0.9754
4.0803 3.3725 -2.8260 0.9763
3.6321 3.5918 -2.7269 0.9771
3.1830 3.7648 -2.6318 0.9779
2.7376 3.8943 -2.5412 0.9786
2.2998 3.9834 -2.4555 0.9794
1.8726 4.0354 -2.3749 0.9800
1.4583 4.0532 -2.2996 0.9807
1.0585 4.0401 -2.2296 0.9812
-0.0428 3.8416 -2.0509 0.9827
-0.3752 3.7304 -2.0015 0.9831
-1.0512 3.6764 -2.0413 0.9828
-1.6279 3.3128 -1.9705 0.9834
-2.5616 2.4228 -1.8823 0.9841
-2.7501 2.1718 -1.8707 0.9842
-3.2081 1.3604 -1.8603 0.9843
-2.1681 0.2916 -1.1679 0.9901
-2.1809 -0.2933 -1.1748 0.9901
-2.2448 -1.1979 -1.3583 0.9885
-3.3566 -2.1958 -2.1412 0.9820
-3.2278 -2.5489 -2.1956 0.9815
-3.0694 -2.9030 -2.2554 0.9810
-2.8799 -3.2564 -2.3207 0.9805
-2.4007 -3.9521 -2.4685 0.9793
-1.4065 -4.9191 -2.7313 0.9771
-0.5496 -5.4638 -2.9315 0.9754
-0.0634 -5.6903 -3.0379 0.9745
0.4593 -5.8779 -3.1474 0.9736
1.6002 -6.1078 -3.3706 0.9718
2.8296 -6.0976 -3.5886 0.9700
4.0770 -5.7996 -3.7845 0.9684
4.6782 -5.5334 -3.8682 0.9677
5.2467 -5.1885 -3.9392 0.9671
5.7685 -4.7678 -3.9952 0.9666
6.6211 -3.7249 -4.0556 0.9661
6.9301 -3.1225 -4.0578 0.9661
7.2631 -0.4862 -3.8860 0.9675
4.7384 2.9511 -2.9800 0.9750
4.3024 3.2446 -2.8767 0.9759
3.4073 3.6839 -2.6789 0.9775
2.5176 3.9437 -2.4977 0.9790
1.2565 4.0504 -2.2639 0.9810
0.8645 4.0227 -2.1965 0.9815
-0.5373 3.6843 -1.9876 0.9833
-2.0120 3.0021 -1.9293 0.9837
-2.2453 2.7791 -1.9073 0.9839
-2.4607 2.5443 -1.8896 0.9841
-2.8376 2.0424 -1.8665 0.9843
-3.2687 1.2173 -1.8620 0.9843
-3.3759 0.9248 -1.8686 0.9843
-2.1547 0.1925 -1.1549 0.9902
-2.1192 -0.0000 -1.1770 0.9904
-2.1202 -0.1895 -1.1823 0.9903
-2.1250 -0.3828 -1.1992 0.9902
-2.1287 -0.5831 -1.2259 0.9900
-2.1317 -0.7939 -1.2633 0.9896
-2.1374 -1.0209 -1.3156 0.9892
-2.8747 -2.9724 -2.2967 0.9813
-2.6734 -3.3090 -2.3626 0.9807
-1.8700 -4.2769 -2.5925 0.9789
0.1846 -5.5192 -3.0671 0.9750
0.6980 -5.6675 -3.1715 0.9742
1.8037 -5.8145 -3.3812 0.9725
2.3840 -5.8009 -3.4833 0.9717
4.1306 -5.3521 -3.7548 0.9695
4.6782 -5.0580 -3.8265 0.9690
5.1883 -4.6925 -3.8853 0.9685
6.3765 -3.2222 -3.9680 0.9678
6.8760 -1.3976 -3.8970 0.9684
6.8739 -0.7690 -3.8415 0.9688
6.6334 0.4441 -3.6924 0.9700
5.7921 2.0113 -3.4053 0.9723
3.0478 3.6049 -2.6218 0.9786
2.2084 3.8251 -2.4531 0.9800
1.8005 3.8800 -2.3757 0.9806
1.4038 3.9020 -2.3031 0.9812
1.0201 3.8937 -2.2356 0.9818
-1.0183 3.5613 -2.0572 0.9832
-1.8322 3.0163 -1.9601 0.9840
-2.0681 2.8070 -1.9364 0.9842
-2.2866 2.5855 -1.9170 0.9843
-2.6710 2.1093 -1.8903 0.9845
-2.9856 1.5932 -1.8795 0.9846
-3.1164 1.3215 -1.8800 0.9846
-3.2293 1.0413 -1.8845 0.9846
-2.1264 0.2860 -1.1916 0.9902
-2.1192 -0.0945 -1.1782 0.9903
-2.1353 -0.9054 -1.2881 0.9894
-2.1463 -1.1453 -1.3512 0.9889
-1.3483 -4.7152 -2.7238 0.9778
-0.5253 -5.2215 -2.9146 0.9763
-0.0605 -5.4292 -3.0156 0.9755
0.4375 -5.5989 -3.1191 0.9746
0.9656 -5.7241 -3.2241 0.9738
1.5191 -5.7984 -3.3291 0.9729
2.0923 -5.8156 -3.4326 0.9721
3.2658 -5.6565 -3.6276 0.9706
4.4083 -5.2141 -3.7922 0.9692
4.9387 -4.8840 -3.8577 0.9687
5.4254 -4.4842 -3.9093 0.9683
5.8566 -4.0203 -3.9454 0.9680
6.2217 -3.5002 -3.9648 0.9679
6.7210 -2.3338 -3.9514 0.9680
6.8457 -1.7122 -3.9192 0.9682
6.8422 -0.4580 -3.8086 0.9691
6.7212 0.1498 -3.7338 0.9697
6.5289 0.7304 -3.6487 0.9704
4.5118 2.8100 -2.9521 0.9760
3.6843 3.3322 -2.7590 0.9775
3.2601 3.5248 -2.6666 0.9783
2.4159 3.7844 -2.4936 0.9797
1.6007 3.8950 -2.3388 0.9809
1.2103 3.9015 -2.2687 0.9815
0.8336 3.8791 -2.2036 0.9820
0.4718 3.8304 -2.1435 0.9825
0.1257 3.7578 -2.0882 0.9829
-0.8671 3.6385 -2.0774 0.9830
-1.4452 3.3054 -2.0036 0.9836
-1.7076 3.1161 -1.9735 0.9839
-1.9524 2.9132 -1.9477 0.9841
-2.9135 1.7257 -1.8807 0.9846
-3.0532 1.4584 -1.8793 0.9846
-2.0684 -0.1848 -1.1990 0.9905
-2.0720 -0.5676 -1.2403 0.9901
-2.0734 -0.7721 -1.2774 0.9898
-2.1172 -1.2540 -1.4207 0.9887
-3.0825 -2.2186 -2.1927 0.9826
-2.0913 -3.8161 -2.5124 0.9801
-1.7978 -4.1116 -2.5909 0.9795
-1.4702 -4.3913 -2.6737 0.9788
-1.1085 -4.6517 -2.7609 0.9782
-0.7129 -4.8881 -2.8520 0.9774
-0.2841 -5.0956 -2.9465 0.9767
0.1762 -5.2688 -3.0436 0.9759
0.6653 -5.4020 -3.1424 0.9752
1.1796 -5.4892 -3.2416 0.9744
1.7139 -5.5250 -3.3398 0.9736
2.2618 -5.5038 -3.4355 0.9729
2.8156 -5.4210 -3.5268 0.9722
3.3662 -5.2730 -3.6119 0.9715
4.8937 -4.4260 -3.8095 0.9700
5.3244 -4.0153 -3.8502 0.9697
5.6985 -3.5490 -3.8759 0.9695
6.0071 -3.0355 -3.8859 0.9694
6.2435 -2.4849 -3.8797 0.9694
6.4032 -1.9084 -3.8576 0.9696
6.4876 -0.7257 -3.7690 0.9703
6.4160 -0.1430 -3.7052 0.9708
6.0696 0.9544 -3.5473 0.9720
5.5018 1.9104 -3.3625 0.9735
5.1554 2.3229 -3.2647 0.9742
4.7382 2.6656 -3.1388 0.9752
4.1123 2.8229 -2.8798 0.9772
3.7224 3.0766 -2.7882 0.9779
3.3237 3.2869 -2.6988 0.9786
2.1225 3.6762 -2.4508 0.9806
1.7326 3.7337 -2.3764 0.9812
1.3524 3.7591 -2.3065 0.9817
0.2867 3.6689 -2.1247 0.9831
-0.3656 3.6343 -2.1088 0.9833
-1.2677 3.2915 -2.0365 0.9838
-2.2206 2.5109 -1.9352 0.9846
-2.4163 2.2854 -1.9202 0.9848
-2.7566 1.8033 -1.9018 0.9849
-2.9011 1.5481 -1.8985 0.9849
-3.0282 1.2841 -1.8990 0.9849
-2.0660 -0.0921 -1.1940 0.9905
-3.0164 -2.3820 -2.2191 0.9824
-2.2254 -3.6634 -2.4747 0.9804
-1.9488 -3.9658 -2.5512 0.9798
-0.9149 -4.7732 -2.8060 0.9778
-0.5026 -4.9958 -2.8989 0.9771
0.4174 -5.3407 -3.0929 0.9756
1.4446 -5.5139 -3.2909 0.9740
1.9866 -5.5218 -3.3881 0.9733
2.5386 -5.4704 -3.4818 0.9725
3.0919 -5.3554 -3.5702 0.9718
4.1636 -4.9247 -3.7233 0.9707
