ply
format ascii 1.0
element vertex 1584
property float32 x
property float32 y
property float32 z
property float32 I
end_header
-6.8478 -3.2709 1.3381 0.9696
-7.3720 -0.9914 1.3116 0.9702
-6.8678 -1.5561 1.2417 0.9718
-6.6569 -2.1466 1.2333 0.9720
-6.6785 -2.8320 1.2791 0.9710
-8.0427 -0.7187 1.2858 0.9678
-7.0863 -1.2767 1.1466 0.9713
-6.7451 -1.8477 1.1136 0.9721
-6.6431 -2.4739 1.1288 0.9717
-6.8669 -3.2801 1.2118 0.9696
-1.2131 4.2426 0.7027 0.9823
-7.3961 -0.9947 1.1883 0.9702
-1.4190 4.2383 0.7117 0.9821
-8.0642 -0.7206 1.1516 0.9678
-6.7723 -1.8552 0.9987 0.9720
-6.8859 -3.2892 1.0854 0.9696
-7.4203 -0.9980 1.0649 0.9702
-6.9074 -1.5650 1.0074 0.9718
-6.6914 -2.1577 1.0000 0.9720
-1.4190 4.2382 0.6357 0.9821
-7.1350 -1.2854 0.9085 0.9712
-6.6996 -2.4950 0.8959 0.9716
-6.9281 -3.3093 0.9622 0.9695
-6.9328 -1.5708 0.8908 0.9718
-1.4190 4.2382 0.5601 0.9821
-8.3813 -0.7490 0.9127 0.9667
-7.1871 -1.2948 0.7921 0.9710
-6.9853 -3.3366 0.8397 0.9693
-1.2261 4.2881 0.4838 0.9822
-7.5162 -1.0109 0.8226 0.9699
-6.7520 -2.1773 0.7695 0.9719
-6.7931 -2.8806 0.8003 0.9707
-1.4189 4.2381 0.4848 0.9822
-6.8845 -1.8859 0.6544 0.9717
-6.7850 -2.5268 0.6638 0.9713
-1.2320 4.3087 0.4108 0.9822
-7.0244 -1.5915 0.6603 0.9715
-6.8047 -2.1942 0.6555 0.9717
-6.8440 -2.9022 0.6815 0.9706
-1.4189 4.2380 0.4097 0.9822
-7.3052 -1.3161 0.5563 0.9707
-6.8470 -2.5499 0.5475 0.9711
-7.1873 -3.4331 0.5969 0.9686
-7.6937 -1.0347 0.5817 0.9693
-7.0756 -1.6031 0.5437 0.9713
-6.8597 -2.2120 0.5401 0.9715
-6.9189 -2.9339 0.5632 0.9703
-1.4189 4.2380 0.3349 0.9822
-7.3945 -1.3322 0.4376 0.9703
-6.9100 -2.5733 0.4295 0.9709
-7.3348 -3.5036 0.4734 0.9680
-1.2439 4.3502 0.2635 0.9820
-7.8202 -1.0517 0.4596 0.9689
-6.9219 -2.2321 0.4236 0.9713
-1.4206 4.2432 0.2606 0.9822
-7.0870 -1.9413 0.3055 0.9710
-1.2499 4.3712 0.1890 0.9820
-7.2393 -1.6402 0.3086 0.9707
-7.0083 -2.2599 0.3062 0.9710
-7.1153 -3.0172 0.3213 0.9695
-7.6383 -1.3761 0.1935 0.9694
-7.1791 -1.9665 0.1856 0.9707
-1.2639 4.4203 0.1147 0.9818
-12.4507 8.1449 0.3710 0.9422
-13.0238 6.9497 0.3681 0.9426
-13.6081 5.7703 0.3686 0.9426
-14.2151 4.5838 0.3725 0.9420
-8.3605 -1.1244 0.2104 0.9668
-7.3496 -1.6652 0.1879 0.9703
-7.0968 -2.2885 0.1860 0.9706
-7.2674 -3.0817 0.1969 0.9689
-12.7366 7.5439 0.3692 0.9425
-14.8888 -0.0000 0.1237 0.9422
-7.8285 -1.4104 0.0661 0.9687
-9.6674 10.9311 0.1213 0.9433
-11.8793 6.3390 0.1119 0.9476
-12.4109 5.2627 0.1120 0.9475
-14.5564 0.6491 0.1211 0.9434
-7.4824 -1.6953 0.0638 0.9698
-7.2248 -2.3297 0.0631 0.9701
-1.4277 4.2644 0.0374 0.9822
-9.9648 10.3035 0.1191 0.9443
-11.6145 6.8793 0.1122 0.9474
-12.1444 5.8009 0.1119 0.9476
-12.6799 4.7221 0.1125 0.9473
-13.2301 3.6241 0.1140 0.9466
-13.5725 0.0000 -0.1128 0.9472
-8.1417 -1.4668 -0.0688 0.9674
-7.4617 -2.0440 -0.0643 0.9695
-7.4406 -2.7709 -0.0660 0.9687
-7.5566 12.4398 -0.1210 0.9434
-8.2213 11.1581 -0.1152 0.9461
-8.8270 9.9809 -0.1107 0.9481
-10.9200 5.8271 -0.1029 0.9517
-11.4076 4.8372 -0.1030 0.9516
-12.3935 2.8080 -0.1056 0.9504
-13.8611 -0.6181 -0.1153 0.9460
-14.4776 -1.9471 -0.1214 0.9432
-7.6723 -1.7384 -0.0654 0.9690
-7.3771 -2.3788 -0.0644 0.9695
-1.4301 4.2716 -0.0374 0.9821
-7.8974 11.7838 -0.1179 0.9448
-8.5305 10.5583 -0.1128 0.9472
-11.1641 5.3326 -0.1028 0.9517
-12.1433 3.3264 -0.1047 0.9509
-13.0257 1.1640 -0.1087 0.9490
-12.4698 0.0000 -0.3110 0.9513
-12.9613 -1.1582 -0.3245 0.9493
-7.6736 -2.1021 -0.1984 0.9687
-7.8185 -2.9117 -0.2081 0.9672
-5.3795 13.9677 -0.3733 0.9419
-7.5393 10.2325 -0.3170 0.9504
-8.6585 8.1892 -0.2972 0.9534
-9.1628 7.2358 -0.2912 0.9544
-9.6422 6.3076 -0.2873 0.9549
-10.1038 5.3916 -0.2856 0.9552
-10.5541 4.4753 -0.2859 0.9552
-10.9990 3.5467 -0.2882 0.9548
-12.7119 -0.5669 -0.3173 0.9504
-13.2194 -1.7779 -0.3326 0.9480
-6.5554 11.9621 -0.3402 0.9469
-7.2282 10.7853 -0.3238 0.9494
-7.8363 9.6991 -0.3110 0.9513
-9.4052 6.7695 -0.2890 0.9547
-9.8748 5.8489 -0.2862 0.9551
-10.7768 4.0134 -0.2868 0.9550
-11.6400 2.0971 -0.2950 0.9538
-12.0030 1.0726 -0.3005 0.9529
-12.3812 -2.2306 -0.5231 0.9509
-8.2273 -2.2537 -0.3547 0.9664
-2.8009 14.6123 -0.6186 0.9422
-8.5136 6.7231 -0.4511 0.9575
-8.9673 5.8662 -0.4456 0.9580
-9.4006 5.0163 -0.4430 0.9582
-9.8189 4.1636 -0.4435 0.9582
-10.2270 3.2978 -0.4468 0.9579
-11.3292 0.5052 -0.4715 0.9556
-12.1616 -1.6356 -0.5102 0.9521
-12.6074 -2.8565 -0.5375 0.9496
-13.0844 -4.2192 -0.5716 0.9464
-13.6066 -5.7697 -0.6145 0.9425
-1.4349 4.2859 -0.1879 0.9821
-6.0191 10.9836 -0.5208 0.9511
-6.6632 9.9422 -0.4976 0.9532
-7.2462 8.9687 -0.4794 0.9549
-7.7808 8.0453 -0.4654 0.9562
-8.7434 6.2931 -0.4479 0.9578
-9.1862 5.4410 -0.4439 0.9582
-9.6113 4.5909 -0.4429 0.9583
-10.0239 3.7329 -0.4448 0.9581
-10.4288 2.8567 -0.4496 0.9576
-10.7245 0.0000 -0.6246 0.9579
-11.0796 -0.9901 -0.6479 0.9564
-11.4413 -2.0613 -0.6771 0.9545
-11.8142 -3.2363 -0.7135 0.9521
-12.2040 -4.5448 -0.7585 0.9492
-12.6191 -6.0277 -0.8145 0.9455
-1.4716 14.6280 -0.8563 0.9428
-2.5394 13.2480 -0.7857 0.9474
-5.2295 10.6417 -0.6906 0.9536
-6.4651 8.7746 -0.6348 0.9573
-6.9992 7.9142 -0.6154 0.9586
-7.9496 6.2777 -0.5900 0.9602
-8.3800 5.4819 -0.5832 0.9607
-8.7881 4.6895 -0.5802 0.9609
-9.5554 3.0813 -0.5848 0.9606
-9.9223 2.2481 -0.5926 0.9601
-10.9015 -0.4861 -0.6356 0.9572
-12.0066 -3.8716 -0.7348 0.9507
-2.0291 13.9130 -0.8189 0.9452
-4.8756 11.1508 -0.7088 0.9524
-6.1794 9.2204 -0.6465 0.9565
-7.7243 6.6795 -0.5948 0.9599
-8.1679 5.8789 -0.5861 0.9605
-8.5866 5.0858 -0.5813 0.9608
-9.3685 3.4889 -0.5823 0.9607
-9.7399 2.6680 -0.5882 0.9603
-10.0213 0.0000 -0.7510 0.9606
-10.3280 -0.9229 -0.7771 0.9593
-11.2458 -4.1880 -0.8993 0.9530
-11.5604 -5.5220 -0.9601 0.9499
-11.8866 -7.0405 -1.0353 0.9461
-0.1625 14.5900 -1.0934 0.9432
-2.3223 12.1155 -0.9245 0.9517
-3.1680 11.0792 -0.8635 0.9548
-5.4732 9.0101 -0.7900 0.9586
-6.0342 8.1897 -0.7623 0.9600
-6.5460 7.4017 -0.7405 0.9611
-7.0172 6.6369 -0.7238 0.9620
-7.8639 5.1444 -0.7042 0.9630
-8.2496 4.4021 -0.7007 0.9632
-8.9655 2.8910 -0.7059 0.9629
-9.3021 2.1076 -0.7148 0.9625
-9.8665 0.4399 -0.7401 0.9612
-10.7849 -2.4435 -0.8287 0.9566
-11.4021 -4.8349 -0.9281 0.9515
10.1466 10.9704 -1.1198 0.9418
-1.8490 12.6777 -0.9601 0.9499
-5.7604 8.5952 -0.7754 0.9593
-7.2398 6.2605 -0.7173 0.9623
-7.6625 5.5151 -0.7075 0.9628
-9.1353 2.5024 -0.7098 0.9627
-9.7211 0.8687 -0.7314 0.9616
-4.4480 -0.0000 -0.4078 0.9823
-9.9290 -1.7888 -0.9249 0.9603
-10.6643 -5.0939 -1.0835 0.9536
-10.8980 -6.4549 -1.1612 0.9504
-11.1278 -8.0093 -1.2569 0.9464
-0.1475 13.2406 -1.2139 0.9482
-2.9332 10.2580 -0.9781 0.9581
-5.1187 8.4265 -0.9039 0.9612
-5.6561 7.6766 -0.8742 0.9624
-6.1470 6.9505 -0.8507 0.9634
-7.4066 4.8452 -0.8114 0.9651
-7.7721 4.1474 -0.8076 0.9652
-8.1167 3.4418 -0.8083 0.9652
-8.4430 2.7225 -0.8133 0.9650
-8.7536 1.9833 -0.8229 0.9646
-4.2496 0.5715 -0.3931 0.9829
-9.5379 -0.4253 -0.8753 0.9624
-10.0556 -2.2783 -0.9452 0.9594
-10.3036 -3.3225 -0.9925 0.9574
-10.5455 -4.4716 -1.0501 0.9550
-10.7818 -5.7533 -1.1204 0.9521
0.4627 13.8401 -1.2695 0.9459
-0.7069 12.6781 -1.1641 0.9503
-1.6978 11.6415 -1.0786 0.9538
-1.4458 4.3183 -0.4175 0.9819
-6.3773 6.5940 -0.8410 0.9638
-6.8115 5.8901 -0.8256 0.9645
-7.5922 4.4969 -0.8090 0.9652
-7.9469 3.7959 -0.8074 0.9652
-8.2819 3.0842 -0.8102 0.9651
-8.6001 2.3558 -0.8175 0.9648
-3.7849 -0.0000 -0.4105 0.9849
-9.0897 -0.8123 -0.9899 0.9639
-9.3110 -1.6775 -1.0262 0.9626
-9.5193 -2.6076 -1.0706 0.9611
-9.8949 -4.7264 -1.1894 0.9568
-10.0597 -5.9584 -1.2682 0.9540
-10.2060 -7.3458 -1.3639 0.9507
2.4133 14.3073 -1.5738 0.9433
1.0272 13.1447 -1.4301 0.9483
-0.1350 12.1165 -1.3143 0.9524
-1.1258 11.1905 -1.2199 0.9558
-2.7302 9.5480 -1.0772 0.9608
-5.3217 7.2227 -0.9731 0.9645
-6.2259 5.8884 -0.9295 0.9661
-6.9985 4.5782 -0.9071 0.9669
-7.3457 3.9198 -0.9031 0.9671
-3.7517 0.5045 -0.4106 0.9849
-9.8065 -4.1583 -1.1554 0.9580
-9.9795 -5.3252 -1.2269 0.9555
-10.1353 -6.6303 -1.3137 0.9524
-10.2717 -8.1115 -1.4196 0.9487
-10.3836 -9.8208 -1.5502 0.9441
-0.6492 11.6424 -1.2648 0.9542
-1.4501 4.3312 -0.4954 0.9818
-4.2535 7.7616 -0.9600 0.9650
-5.0701 7.5651 -0.9878 0.9640
-5.5623 6.8846 -0.9600 0.9650
-6.0137 6.2182 -0.9383 0.9658
-6.8157 4.9057 -0.9109 0.9668
-7.1750 4.2498 -0.9045 0.9670
-7.8262 2.9145 -0.9058 0.9670
-3.9948 0.7197 -0.4403 0.9838
-3.7700 -0.3369 -0.4743 0.9849
-8.9369 -2.4481 -1.1612 0.9633
-9.2269 -4.4073 -1.2814 0.9596
-9.3388 -5.5314 -1.3602 0.9572
3.6815 14.0522 -1.8204 0.9431
2.1900 12.9828 -1.6499 0.9483
-2.5529 8.9280 -1.1637 0.9633
-3.1812 8.2600 -1.1092 0.9649
-3.7441 7.6190 -1.0638 0.9664
-5.0237 6.8182 -1.0613 0.9664
-5.4761 6.1919 -1.0359 0.9672
-6.2759 4.9561 -1.0021 0.9683
-6.6317 4.3382 -0.9931 0.9686
-7.5578 2.4371 -0.9951 0.9685
-4.3831 0.9931 -0.5632 0.9820
-8.6704 -1.1661 -1.0963 0.9653
-9.2859 -4.9551 -1.3190 0.9585
-9.3848 -6.1393 -1.4054 0.9558
-9.4540 -7.4658 -1.5096 0.9526
-9.4872 -8.9729 -1.6364 0.9487
-9.4740 -10.7125 -1.7921 0.9440
1.5387 12.4935 -1.5775 0.9505
-0.6000 10.7602 -1.3505 0.9575
-1.4545 4.3444 -0.5742 0.9817
-4.0042 7.3068 -1.0442 0.9670
-4.7820 7.1353 -1.0764 0.9660
-5.2547 6.5039 -1.0478 0.9669
-5.6883 5.8817 -1.0254 0.9676
-6.8000 4.0277 -0.9904 0.9686
-7.1190 3.4005 -0.9887 0.9687
-3.8076 0.6860 -0.4848 0.9845
-3.5366 0.3160 -0.4450 0.9858
-3.5139 -0.3140 -0.5018 0.9858
-8.2750 -1.4908 -1.1960 0.9666
-8.4196 -2.3064 -1.2417 0.9653
-8.5425 -3.1813 -1.2966 0.9638
-8.6410 -4.1275 -1.3621 0.9620
-8.7487 -7.5653 -1.6451 0.9543
-8.5886 -10.6302 -1.9438 0.9463
3.3391 12.7450 -1.8740 0.9482
2.0037 11.8785 -1.7134 0.9525
0.8662 11.0851 -1.5815 0.9561
-0.1153 10.3493 -1.4721 0.9590
-0.9718 9.6595 -1.3809 0.9615
-3.5325 7.1886 -1.1393 0.9682
-4.7562 6.4551 -1.1405 0.9681
-5.5908 5.2878 -1.0946 0.9694
-5.9594 4.7061 -1.0801 0.9698
-6.3001 4.1214 -1.0708 0.9700
-3.3610 0.1499 -0.4785 0.9865
-3.4470 -0.1538 -0.4908 0.9862
-8.4839 -2.7357 -1.2679 0.9646
-8.5950 -3.6446 -1.3279 0.9630
-8.6802 -4.6319 -1.3994 0.9610
-8.7353 -5.7144 -1.4847 0.9587
-8.7306 -8.2573 -1.7092 0.9526
-8.6525 -9.7835 -1.8577 0.9486
-8.5047 -11.5428 -2.0393 0.9437
4.0984 13.2118 -1.9675 0.9456
0.3581 10.7108 -1.5243 0.9576
-1.3606 9.3290 -1.3410 0.9626
-4.9783 6.1617 -1.1267 0.9685
-5.3951 5.5785 -1.1038 0.9691
-6.1331 4.4143 -1.0748 0.9699
-3.6716 0.6615 -0.5307 0.9850
-7.8361 -1.4117 -1.2679 0.9683
-7.9569 -2.1796 -1.3137 0.9671
-8.0534 -2.9991 -1.3684 0.9658
-8.1229 -3.8800 -1.4334 0.9642
-8.1613 -4.8340 -1.5104 0.9623
-8.1637 -5.8758 -1.6017 0.9601
-8.0295 -8.3025 -1.8392 0.9543
-7.6302 -11.3851 -2.1824 0.9460
6.1510 13.2550 -2.3269 0.9425
4.4690 12.4216 -2.1021 0.9479
-0.9091 9.0371 -1.4463 0.9639
-1.6824 4.3682 -0.7454 0.9812
-3.3426 6.8021 -1.2069 0.9698
-3.8104 6.2728 -1.1687 0.9707
-4.5146 6.1273 -1.2119 0.9696
-5.3178 5.0295 -1.1655 0.9708
-5.9988 3.9242 -1.1415 0.9714
-6.3004 3.3620 -1.1372 0.9715
-6.5787 2.7896 -1.1379 0.9715
-3.9744 0.9005 -0.6489 0.9836
-3.2540 0.4376 -0.5228 0.9868
-3.2600 0.1453 -0.5196 0.9869
-7.8994 -1.7897 -1.2898 0.9677
-8.1492 -6.4353 -1.6535 0.9588
-8.0835 -7.6453 -1.7717 0.9559
-7.9594 -8.9998 -1.9131 0.9525
-7.7623 -10.5352 -2.0838 0.9484
-7.4713 -12.2995 -2.2916 0.9434
5.2721 12.8289 -2.2086 0.9454
3.7321 12.0311 -2.0059 0.9503
1.3060 10.6041 -1.7013 0.9576
-1.9479 8.1736 -1.3380 0.9665
-3.0915 7.0705 -1.2288 0.9692
-3.5818 6.5360 -1.1868 0.9703
-4.7284 5.8524 -1.1981 0.9700
-5.1295 5.3039 -1.1749 0.9706
-5.4985 4.7547 -1.1575 0.9710
-6.1526 3.6442 -1.1387 0.9715
-3.5500 0.6396 -0.5744 0.9855
-7.4394 -1.3403 -1.3329 0.9698
-7.5403 -2.0655 -1.3785 0.9687
-7.4530 -7.7064 -1.8904 0.9574
-6.9879 -10.4268 -2.2132 0.9503
5.5705 12.0039 -2.3334 0.9477
2.8120 10.7333 -1.9564 0.9559
0.7479 9.5711 -1.6928 0.9618
-0.8538 8.4873 -1.5041 0.9659
-3.6205 5.9602 -1.2297 0.9721
-4.2953 5.8297 -1.2768 0.9710
-5.4097 4.2721 -1.2155 0.9724
-5.7235 3.7442 -1.2060 0.9726
-6.0123 3.2083 -1.2016 0.9727
-6.2777 2.6620 -1.2024 0.9727
-6.5210 2.1028 -1.2081 0.9726
-3.8237 0.8663 -0.6913 0.9842
-3.1644 0.1411 -0.5585 0.9872
-3.2276 -0.1439 -0.5697 0.9870
-7.4929 -1.6977 -1.3547 0.9693
-7.6419 -3.2405 -1.4636 0.9668
-7.6718 -4.0938 -1.5333 0.9653
-7.5229 -7.1151 -1.8258 0.9588
3.4245 11.0394 -2.0380 0.9541
2.2421 10.4339 -1.8818 0.9576
1.2136 9.8533 -1.7505 0.9605
0.3108 9.2938 -1.6397 0.9629
-0.4880 8.7523 -1.5457 0.9650
-1.8378 7.7116 -1.3979 0.9683
-1.4679 4.3846 -0.8153 0.9814
-4.0803 6.0883 -1.2923 0.9707
-4.5012 5.5712 -1.2629 0.9713
-4.8876 5.0537 -1.2397 0.9718
-5.2428 4.5337 -1.2222 0.9722
-6.1479 2.9366 -1.2014 0.9727
-3.1015 -0.0000 -0.6002 0.9874
-3.3117 -0.5966 -0.6512 0.9864
-7.1630 -1.9622 -1.4373 0.9702
-7.2199 -2.6888 -1.4909 0.9691
-7.2465 -3.4614 -1.5541 0.9678
-7.1919 -5.1764 -1.7148 0.9645
-6.9510 -7.1873 -1.9349 0.9601
-6.7374 -8.3390 -2.0746 0.9573
-5.5289 -12.6449 -2.6707 0.9453
5.0875 10.9632 -2.3389 0.9520
3.7591 10.4485 -2.1488 0.9558
1.5930 9.4440 -1.8534 0.9617
-0.0944 8.4727 -1.6397 0.9661
-4.0953 5.5581 -1.3360 0.9723
-4.8410 4.5786 -1.2895 0.9732
-5.1693 4.0821 -1.2747 0.9735
-5.7480 3.0672 -1.2608 0.9738
-7.1950 -2.3201 -1.4630 0.9697
-7.2207 -4.7236 -1.6698 0.9655
-6.8533 -7.7491 -2.0019 0.9587
-6.2600 -10.3053 -2.3334 0.9521
-5.8065 -11.8160 -2.5478 0.9478
-5.2110 -13.5301 -2.8058 0.9426
7.4992 11.7473 -2.6970 0.9448
3.1623 10.1941 -2.0655 0.9574
2.0827 9.6919 -1.9184 0.9604
0.2913 8.7127 -1.6870 0.9651
-0.4591 8.2345 -1.5960 0.9670
-3.8880 5.8013 -1.3515 0.9719
-4.2937 5.3144 -1.3222 0.9725
-5.0086 4.3311 -1.2814 0.9734
-6.1199 2.2791 -1.2638 0.9737
-4.1640 1.1406 -0.8355 0.9826
-3.3306 0.6000 -0.6549 0.9863
-3.0639 0.2738 -0.5953 0.9875
-3.0211 0.0000 -0.6369 0.9877
-3.0994 -0.2770 -0.6560 0.9874
-3.2303 -0.5820 -0.6920 0.9867
-6.8483 -4.0563 -1.6780 0.9680
-6.5097 -6.7310 -1.9741 0.9624
-5.9744 -8.9144 -2.2624 0.9571
-5.0555 -11.5623 -2.6604 0.9497
-4.3912 -13.1159 -2.9159 0.9450
9.4742 11.2061 -3.0937 0.9418
4.6792 10.0833 -2.3435 0.9556
3.4801 9.6729 -2.1672 0.9588
2.4248 9.2551 -2.0170 0.9616
0.6571 8.4091 -1.7782 0.9661
-1.3676 7.1346 -1.5315 0.9707
-3.2898 5.4157 -1.3359 0.9744
-3.9118 5.3092 -1.3903 0.9734
-4.6314 4.3804 -1.3439 0.9743
-5.2385 3.4269 -1.3197 0.9747
-5.5045 2.9373 -1.3153 0.9748
-3.5520 0.8048 -0.7678 0.9852
-3.0346 0.4081 -0.6455 0.9876
-3.0505 -0.1361 -0.6438 0.9876
-3.1545 -0.4243 -0.6710 0.9871
-6.8443 -2.2070 -1.5161 0.9710
-6.8710 -2.9136 -1.5734 0.9700
-6.8649 -3.6633 -1.6404 0.9687
-6.7354 -5.3189 -1.8093 0.9655
-6.5993 -6.2416 -1.9150 0.9635
-6.4041 -7.2412 -2.0380 0.9613
-5.3306 -10.8475 -2.5481 0.9518
-4.7442 -12.3179 -2.7828 0.9475
-3.9910 -13.9574 -3.0604 0.9424
8.5183 11.0374 -2.9393 0.9446
5.3415 10.2842 -2.4431 0.9537
1.9436 9.0445 -1.9503 0.9629
1.0618 8.6213 -1.8313 0.9651
0.2741 8.1967 -1.7290 0.9670
-1.0715 7.3469 -1.5653 0.9701
-2.6506 6.0622 -1.3949 0.9733
-3.0859 5.6311 -1.3537 0.9741
-3.7120 5.5387 -1.4057 0.9731
-5.0964 3.6682 -1.3238 0.9747
-5.3745 3.1833 -1.3169 0.9748
-5.6287 2.6886 -1.3151 0.9748
-5.8601 2.1823 -1.3183 0.9748
-4.0001 1.0957 -0.8744 0.9832
-2.9710 -0.0000 -0.6781 0.9879
-3.0430 -0.2719 -0.6973 0.9875
-3.1642 -0.5701 -0.7338 0.9869
-6.5327 -3.1204 -1.6524 0.9707
-6.4953 -3.8472 -1.7231 0.9695
-6.2949 -5.4434 -1.8995 0.9664
-6.1185 -6.3265 -2.0088 0.9645
-4.6545 -10.6451 -2.6518 0.9535
8.5608 10.1257 -3.0264 0.9471
6.9619 9.9034 -2.7630 0.9515
5.5619 9.6335 -2.5389 0.9554
4.3293 9.3293 -2.3475 0.9587
3.2381 9.0002 -2.1832 0.9615
-0.7207 7.1638 -1.6433 0.9709
-1.2990 6.7770 -1.5750 0.9721
-1.8253 6.3835 -1.5154 0.9731
-3.1446 5.1768 -1.3825 0.9755
-4.1052 4.6418 -1.4144 0.9749
-4.4379 4.1974 -1.3942 0.9752
-5.2792 2.8171 -1.3658 0.9757
-5.7221 1.8451 -1.3723 0.9756
-3.4289 0.7769 -0.8025 0.9857
-3.0959 -0.4164 -0.7130 0.9873
-6.4801 -1.4682 -1.5165 0.9731
-6.5239 -2.1037 -1.5646 0.9723
-6.5379 -2.7723 -1.6209 0.9713
-6.4620 -4.2272 -1.7625 0.9688
-6.0076 -6.7929 -2.0698 0.9635
-5.3776 -8.8528 -2.3642 0.9584
-4.9242 -10.0206 -2.5484 0.9552
-3.6306 -12.6969 -3.0141 0.9473
2.7387 8.8287 -2.1098 0.9628
1.8211 8.4745 -1.9784 0.9651
0.2587 7.7355 -1.7666 0.9687
-0.4101 7.3556 -1.6815 0.9702
-1.4894 4.4486 -1.0708 0.9809
-3.9279 4.8617 -1.4266 0.9747
-5.1543 3.0529 -1.3673 0.9757
-5.6197 2.0928 -1.3687 0.9757
-3.8725 1.0608 -0.9164 0.9837
-2.9882 -0.2670 -0.7374 0.9877
-3.1004 -0.5586 -0.7743 0.9871
-6.2170 -1.7031 -1.5845 0.9738
-6.2357 -2.3222 -1.6356 0.9730
-6.2227 -2.9724 -1.6951 0.9720
-6.0869 -4.3811 -1.8434 0.9696
-5.9540 -5.1487 -1.9348 0.9681
-5.7692 -5.9654 -2.0398 0.9664
-5.5241 -6.8373 -2.1606 0.9644
-5.2083 -7.7713 -2.2995 0.9622
7.8028 9.2292 -2.9707 0.9514
5.1428 8.9075 -2.5282 0.9585
2.1276 8.1210 -2.0635 0.9660
1.3177 7.8117 -1.9472 0.9679
0.5851 7.4873 -1.8460 0.9695
-0.6846 6.8051 -1.6811 0.9722
-1.6823 4.3679 -1.1505 0.9809
-3.5870 4.8684 -1.4864 0.9754
-3.9371 4.4517 -1.4608 0.9758
-4.2587 4.0279 -1.4408 0.9761
-5.2935 2.2446 -1.4133 0.9766
-5.4944 1.7717 -1.4190 0.9765
-2.8899 0.3887 -0.7167 0.9881
-2.8978 0.1292 -0.7130 0.9881
-3.0389 -0.4087 -0.7537 0.9874
-3.1571 -0.7153 -0.7957 0.9868
-6.2301 -2.0090 -1.6090 0.9734
-6.2333 -2.6432 -1.6642 0.9725
-6.2033 -3.3102 -1.7283 0.9715
-6.1360 -4.0140 -1.8023 0.9702
-5.8686 -5.5505 -1.9855 0.9673
-5.0199 -8.2639 -2.3767 0.9610
-4.5730 -9.3058 -2.5486 0.9582
-2.4810 -12.9435 -3.2394 0.9472
-1.4443 -14.3569 -3.5467 0.9423
10.2623 9.2817 -3.4011 0.9446
7.0778 9.1709 -2.8475 0.9534
4.5687 8.7962 -2.4364 0.9600
2.5650 8.2687 -2.1280 0.9650
0.9424 7.6512 -1.8949 0.9687
0.2448 7.3204 -1.8004 0.9703
-0.3891 6.9791 -1.7181 0.9716
-1.4973 4.4721 -1.1592 0.9808
-2.8208 5.1473 -1.4427 0.9761
-3.7657 4.6609 -1.4729 0.9756
-4.1013 4.2407 -1.4501 0.9760
-4.6919 3.3770 -1.4209 0.9765
-4.9499 2.9319 -1.4141 0.9766
-5.3967 2.0098 -1.4155 0.9766
-3.8036 1.0419 -0.9694 0.9839
-2.8807 0.2574 -0.7109 0.9882
-3.0385 -0.5474 -0.8135 0.9873
-5.4552 -5.6407 -2.0677 0.9681
-4.8909 -7.2977 -2.3149 0.9643
-3.4146 -10.1989 -2.8341 0.9565
-2.6900 -11.2879 -3.0577 0.9531
-0.7622 -13.6697 -3.6076 0.9449
10.1053 8.3522 -3.4545 0.9472
8.5568 8.4619 -3.1710 0.9514
5.9094 8.4062 -2.7076 0.9584
4.7797 8.2786 -2.5189 0.9612
3.7603 8.1031 -2.3539 0.9637
2.8386 7.8899 -2.2095 0.9659
1.2449 7.3798 -1.9721 0.9695
-0.0757 6.7924 -1.7899 0.9723
-0.6517 6.4781 -1.7156 0.9734
-1.1794 6.1528 -1.6508 0.9744
-1.6624 5.8137 -1.5933 0.9753
-2.5123 5.1124 -1.5010 0.9767
-2.9803 4.9063 -1.5127 0.9765
-3.7809 4.2752 -1.5039 0.9767
-4.0920 3.8702 -1.4841 0.9770
-4.8755 2.6017 -1.4562 0.9774
-2.9836 -0.4013 -0.7933 0.9876
-5.9537 -2.5246 -1.7040 0.9736
-5.9148 -3.1563 -1.7666 0.9726
-5.5572 -5.2560 -2.0155 0.9689
-4.2662 -8.6814 -2.5488 0.9608
-2.2729 -11.8578 -3.1814 0.9513
-0.1593 -14.3069 -3.7701 0.9425
10.9426 8.2522 -3.6114 0.9449
9.3107 8.4209 -3.3080 0.9494
7.8417 8.4783 -3.0431 0.9534
4.2570 8.1962 -2.4336 0.9625
1.6151 7.5160 -2.0257 0.9687
0.2322 6.9449 -1.8310 0.9717
-1.4261 5.9843 -1.6210 0.9749
-1.5053 4.4960 -1.2493 0.9806
-2.7032 4.9327 -1.4822 0.9770
-3.9398 4.0738 -1.4933 0.9768
-4.2378 3.6646 -1.4763 0.9771
-4.5107 3.2466 -1.4644 0.9773
-4.7597 2.8192 -1.4577 0.9774
-4.9856 2.3814 -1.4559 0.9774
-3.0018 0.5408 -0.8037 0.9875
-2.9786 -0.5366 -0.8515 0.9875
-5.7066 -2.1252 -1.7133 0.9750
-5.6772 -2.7118 -1.7702 0.9742
-5.5110 -3.9666 -1.9104 0.9722
-4.6076 -6.8751 -2.3286 0.9662
-4.2204 -7.7013 -2.4709 0.9642
-3.7482 -8.5723 -2.6323 0.9619
-2.4877 -10.4389 -3.0193 0.9564
0.4527 -13.5392 -3.8115 0.9453
7.8526 7.7656 -3.1073 0.9551
6.6164 7.8258 -2.8833 0.9583
5.4891 7.8083 -2.6854 0.9611
4.4619 7.7281 -2.5107 0.9636
3.5256 7.5974 -2.3565 0.9658
1.8920 7.2214 -2.1004 0.9695
0.5265 6.7369 -1.9012 0.9723
-1.6878 4.3822 -1.3212 0.9807
-2.4096 4.9035 -1.5372 0.9776
-2.9401 4.8402 -1.5934 0.9767
-4.2126 3.3267 -1.5103 0.9779
-4.4647 2.9207 -1.5011 0.9781
-4.6937 2.5046 -1.4969 0.9781
-4.9003 2.0779 -1.4976 0.9781
-3.1370 0.7107 -0.9050 0.9867
-2.8062 0.1251 -0.7903 0.9884
-3.0353 -0.6877 -0.8756 0.9872
-3.2049 -1.0335 -0.9474 0.9861
-5.6498 -3.0149 -1.8018 0.9737
-5.5672 -3.6419 -1.8718 0.9727
-5.2749 -4.9890 -2.0428 0.9703
-5.0537 -5.7144 -2.1463 0.9688
-4.7730 -6.4780 -2.2640 0.9671
-4.4239 -7.2828 -2.3975 0.9652
-3.9957 -8.1311 -2.5490 0.9631
-3.4752 -9.0233 -2.7205 0.9606
-1.2022 -11.9503 -3.3793 0.9513
1.1002 -14.0797 -3.9735 0.9430
11.4684 7.1426 -3.8013 0.9454
8.5142 7.7006 -3.2300 0.9534
4.9635 7.7752 -2.5954 0.9624
3.9829 7.6684 -2.4312 0.9647
-0.8796 6.0307 -1.7147 0.9750
-1.3633 5.7209 -1.6547 0.9759
-2.2174 5.0714 -1.5573 0.9773
-2.5942 4.7338 -1.5188 0.9778
-3.1335 4.6756 -1.5836 0.9769
-3.4751 4.3012 -1.5558 0.9773
-4.0777 3.5261 -1.5168 0.9778
-4.7998 2.2927 -1.4966 0.9781
-4.9952 1.8602 -1.4998 0.9781
-2.9229 0.5266 -0.8356 0.9877
-2.8308 -0.2530 -0.8509 0.9882
-2.9224 -0.5265 -0.8890 0.9877
-3.0126 -0.8252 -0.9351 0.9870
-5.3661 -3.1784 -1.8672 0.9743
-5.1096 -4.4184 -2.0223 0.9722
-4.9131 -5.0802 -2.1158 0.9709
-4.3532 -6.4954 -2.3409 0.9679
-3.5158 -8.0410 -2.6274 0.9640
-2.9654 -8.8573 -2.7964 0.9618
-1.5419 -10.5722 -3.1986 0.9564
-0.6390 -11.4600 -3.4362 0.9532
1.6309 -13.2419 -3.9943 0.9458
12.5593 5.6589 -4.1241 0.9441
7.2504 7.1700 -3.0528 0.9583
6.1429 7.2658 -2.8485 0.9611
3.3167 7.1472 -2.3589 0.9676
2.5220 7.0099 -2.2303 0.9694
1.7914 6.8376 -2.1161 0.9709
1.1195 6.6364 -2.0149 0.9723
-0.5939 5.9039 -1.7764 0.9755
-1.5238 5.3291 -1.6594 0.9771
-1.6909 4.3904 -1.4085 0.9805
-2.3141 4.7091 -1.5709 0.9783
-2.8377 4.6716 -1.6364 0.9774
-3.1823 4.3191 -1.6061 0.9778
-4.3023 2.8144 -1.5392 0.9788
-4.5234 2.4138 -1.5350 0.9788
-4.7224 2.0025 -1.5357 0.9788
-4.8996 1.5799 -1.5412 0.9787
-3.0564 0.6924 -0.9382 0.9870
-2.7204 0.3659 -0.8218 0.9886
-2.8771 -0.3870 -0.8691 0.9880
-2.9771 -0.6746 -0.9139 0.9873
-3.1091 -1.0026 -0.9780 0.9865
-5.4575 -2.3142 -1.7747 0.9756
-5.1897 -4.0983 -1.9798 0.9728
-4.7954 -5.4222 -2.1671 0.9702
-4.5163 -6.1297 -2.2794 0.9687
-3.7554 -7.6421 -2.5492 0.9651
-3.2527 -8.4455 -2.7095 0.9629
-2.6525 -9.2764 -2.8885 0.9605
-1.1081 -11.0144 -3.3141 0.9548
-0.1327 -11.9075 -3.5651 0.9515
2.3068 -13.6755 -4.1520 0.9437
11.8244 5.9751 -3.9663 0.9462
9.0794 6.8471 -3.4045 0.9536
7.8375 7.0886 -3.1637 0.9568
5.6217 7.2842 -2.7547 0.9623
4.6415 7.2708 -2.5825 0.9646
3.7399 7.2004 -2.4291 0.9667
2.1490 6.9277 -2.1715 0.9702
1.4484 6.7402 -2.0640 0.9716
0.2103 6.2907 -1.8844 0.9741
-0.8408 5.7651 -1.7442 0.9760
-1.3053 5.4775 -1.6858 0.9768
-1.7336 5.1779 -1.6348 0.9775
-2.1284 4.8679 -1.5906 0.9781
-3.3443 4.1393 -1.5931 0.9780
-3.6486 3.7726 -1.5713 0.9783
-3.9279 3.3966 -1.5546 0.9786
-4.1833 3.0109 -1.5431 0.9787
-4.4156 2.6154 -1.5365 0.9788
-4.8137 1.7927 -1.5378 0.9788
-2.8473 0.5129 -0.8662 0.9880
-2.7826 -0.2487 -0.8873 0.9883
-2.8694 -0.5170 -0.9260 0.9878
-2.9540 -0.8092 -0.9727 0.9872
-5.2525 -1.9561 -1.7801 0.9768
-5.0265 -3.6179 -1.9668 0.9743
-4.6773 -4.8364 -2.1368 0.9722
-4.4290 -5.4818 -2.2382 0.9709
-3.7526 -6.8476 -2.4799 0.9678
-2.1583 -9.0569 -2.9569 0.9617
-1.4325 -9.8224 -3.1524 0.9592
0.3796 -11.3524 -3.6074 0.9534
1.4890 -12.0894 -3.8684 0.9502
11.3686 5.1224 -3.9601 0.9490
10.1271 5.6973 -3.6902 0.9524
5.7288 6.7761 -2.8180 0.9634
3.9315 6.8095 -2.4971 0.9675
2.3869 6.6344 -2.2392 0.9708
-0.5681 5.6478 -1.8027 0.9765
-1.0326 5.3874 -1.7421 0.9772
-1.6942 4.3989 -1.4971 0.9804
-2.7311 4.4960 -1.6707 0.9782
-3.0648 4.1596 -1.6409 0.9785
-3.9139 3.0908 -1.5838 0.9793
-4.1499 2.7147 -1.5749 0.9794
-4.5555 1.9317 -1.5715 0.9794
-4.7257 1.5239 -1.5769 0.9794
-5.0868 -3.3277 -1.9305 0.9748
-3.0551 -7.9325 -2.6996 0.9650
-2.4814 -8.6781 -2.8665 0.9628
-1.8092 -9.4386 -3.0521 0.9605
-0.1223 -10.9738 -3.4853 0.9550
0.9162 -11.7250 -3.7351 0.9518
3.4326 -13.1020 -4.3014 0.9447
13.2764 3.9567 -4.3996 0.9435
9.5231 5.9310 -3.5630 0.9540
8.3575 6.3026 -3.3243 0.9570
6.2204 6.7253 -2.9094 0.9623
5.2544 6.8083 -2.7313 0.9646
4.3561 6.8237 -2.5710 0.9666
3.5227 6.7824 -2.4272 0.9684
2.7509 6.6939 -2.2984 0.9701
0.2009 6.0040 -1.9079 0.9751
-0.8050 5.5195 -1.7715 0.9769
-2.0455 4.6782 -1.6216 0.9788
-2.4357 4.4446 -1.6096 0.9790
-2.9013 4.3291 -1.6551 0.9784
-3.2218 3.9876 -1.6281 0.9787
-4.2595 2.5229 -1.5722 0.9794
-4.6433 1.7292 -1.5736 0.9794
-2.7749 0.4999 -0.8955 0.9882
-2.7374 -0.2446 -0.9234 0.9885
-2.8177 -0.5077 -0.9620 0.9880
-5.0485 -1.8801 -1.8100 0.9775
-5.0034 -2.3899 -1.8630 0.9769
-4.9255 -2.9174 -1.9234 0.9761
-4.8117 -3.4632 -1.9918 0.9753
-4.6583 -4.0282 -2.0691 0.9743
-4.2148 -5.2168 -2.2533 0.9721
0.3508 -10.4918 -3.5270 0.9567
2.5096 -11.6787 -4.0134 0.9508
5.1578 -12.5507 -4.5590 0.9444
13.5458 2.1300 -4.6071 0.9438
11.4609 3.9797 -4.0762 0.9501
9.2976 5.2307 -3.5843 0.9560
7.2360 5.9807 -3.1541 0.9612
6.2733 6.2038 -2.9643 0.9635
5.3634 6.3439 -2.7911 0.9656
4.5083 6.4130 -2.6338 0.9675
3.7076 6.4218 -2.4914 0.9692
2.2644 6.2939 -2.2473 0.9722
1.6169 6.1717 -2.1436 0.9734
0.4563 5.8382 -1.9675 0.9756
-0.0626 5.6239 -1.8897 0.9765
-0.9907 5.1685 -1.7681 0.9780
-1.4043 4.9113 -1.7162 0.9787
-2.6311 4.3314 -1.7028 0.9788
-2.9546 4.0100 -1.6735 0.9792
-3.7778 2.9833 -1.6174 0.9799
-4.2131 2.2482 -1.6045 0.9801
-4.5621 1.4711 -1.6105 0.9800
-2.6180 0.3521 -0.8875 0.9889
-2.6762 0.1193 -0.9001 0.9888
-2.7751 -0.3732 -0.9408 0.9883
-5.0597 -1.6315 -1.7862 0.9778
-5.0299 -2.1329 -1.8356 0.9772
-4.8733 -3.1880 -1.9566 0.9757
-4.7401 -3.7433 -2.0293 0.9748
-4.0717 -5.5262 -2.3063 0.9715
-3.7414 -6.1593 -2.4213 0.9700
-3.3467 -6.8104 -2.5495 0.9685
-2.8785 -7.4738 -2.6909 0.9668
-2.3296 -8.1471 -2.8470 0.9649
-1.6918 -8.8261 -3.0194 0.9628
-0.9560 -9.5031 -3.2090 0.9605
-0.1132 -10.1680 -3.4165 0.9580
1.9235 -11.4034 -3.8855 0.9524
3.1267 -11.9347 -4.1452 0.9493
14.0221 1.5686 -4.7406 0.9422
13.0462 2.6517 -4.4729 0.9454
11.9988 3.5760 -4.2066 0.9485
8.7679 5.4607 -3.4705 0.9573
7.7358 5.8338 -3.2553 0.9599
6.7483 6.1034 -3.0571 0.9623
5.8116 6.2834 -2.8757 0.9645
4.9290 6.3866 -2.7105 0.9665
4.1012 6.4244 -2.5608 0.9683
2.6062 6.3416 -2.3036 0.9715
1.9348 6.2370 -2.1940 0.9728
0.1915 5.7281 -1.9256 0.9761
-1.2014 5.0416 -1.7414 0.9784
-1.9680 4.5009 -1.6505 0.9795
-3.3928 3.5081 -1.6397 0.9796
-3.8949 2.8034 -1.6123 0.9800
-4.3084 2.0579 -1.6042 0.9801
-4.4829 1.6695 -1.6072 0.9800
-2.6265 0.7195 -0.9150 0.9886
-2.6500 0.2368 -0.8939 0.9888
-2.7668 -0.4985 -0.9969 0.9881
-4.8577 -1.8090 -1.8381 0.9782
-4.8090 -2.2971 -1.8898 0.9776
-4.6123 -3.3197 -2.0151 0.9762
-4.4581 -3.8551 -2.0899 0.9753
-4.0183 -4.9736 -2.2673 0.9732
-3.3709 -6.1512 -2.4872 0.9707
-2.4663 -7.3664 -2.7545 0.9676
-1.9013 -7.9781 -2.9081 0.9658
-1.2520 -8.5848 -3.0762 0.9639
-0.5117 -9.1775 -3.2593 0.9617
0.3258 -9.7448 -3.4573 0.9595
1.2652 -10.2722 -3.6699 0.9570
2.3083 -10.7417 -3.8958 0.9544
6.0123 -11.5758 -4.6253 0.9461
7.3888 -11.5744 -4.8691 0.9434
13.0028 0.8704 -4.6209 0.9462
12.2406 1.9247 -4.3937 0.9488
11.3852 2.8476 -4.1614 0.9514
10.4745 3.6371 -3.9316 0.9540
8.5865 4.8307 -3.4934 0.9590
7.6525 5.2532 -3.2913 0.9614
5.8712 5.8061 -2.9279 0.9656
5.0385 5.9595 -2.7672 0.9674
4.2496 6.0451 -2.6202 0.9691
3.5059 6.0723 -2.4863 0.9707
2.1527 5.9834 -2.2548 0.9734
0.9692 5.7460 -2.0662 0.9756
0.4356 5.5736 -1.9824 0.9766
-0.5213 5.1826 -1.8469 0.9781
-1.3505 4.7230 -1.7418 0.9794
-1.7008 4.4161 -1.6780 0.9801
-3.1402 3.5507 -1.6808 0.9801
-3.6496 2.8820 -1.6489 0.9805
-4.4078 1.4213 -1.6422 0.9805
-2.5615 0.5803 -0.9313 0.9889
-2.6346 0.1175 -0.9351 0.9889
-2.6733 -0.1192 -0.9489 0.9887
-2.8093 -0.6365 -1.0214 0.9878
-2.8709 -0.9258 -1.0696 0.9873
-4.7727 -2.5468 -1.9182 0.9773
-4.3654 -4.1288 -2.1306 0.9748
-4.1461 -4.6881 -2.2192 0.9738
-3.1713 -6.4534 -2.5496 0.9699
-2.1938 -7.6724 -2.8296 0.9667
-1.5876 -8.2826 -2.9903 0.9648
0.7826 -10.0145 -3.5618 0.9583
2.8683 -10.9484 -4.0132 0.9531
5.3438 -11.5156 -4.5015 0.9475
12.6357 1.4135 -4.5084 0.9475
11.8223 2.4030 -4.2777 0.9501
6.3030 5.7007 -3.0135 0.9646
4.6385 6.0102 -2.6920 0.9683
3.8721 6.0655 -2.5516 0.9699
3.1509 6.0666 -2.4240 0.9714
2.4745 6.0213 -2.3083 0.9727
1.8413 5.9360 -2.2037 0.9740
1.2500 5.8170 -2.1097 0.9751
-0.2948 5.2878 -1.8779 0.9778
-1.1547 4.8456 -1.7663 0.9791
-1.5390 4.5968 -1.7189 0.9796
-2.3709 4.3263 -1.7493 0.9793
-2.6972 4.0245 -1.7179 0.9796
-2.9985 3.7113 -1.6918 0.9800
-3.2760 3.3874 -1.6710 0.9802
-3.5306 3.0530 -1.6551 0.9804
-3.9737 2.3536 -1.6377 0.9806
-4.1632 1.9886 -1.6360 0.9806
-4.3316 1.6131 -1.6390 0.9806
-2.5828 0.7075 -0.9496 0.9887
-2.6624 0.4796 -0.9592 0.9886
-2.6060 0.2329 -0.9277 0.9890
-2.6101 -0.0000 -0.9746 0.9889
-2.7171 -0.4895 -1.0309 0.9883
-4.6788 -1.7424 -1.8644 0.9789
-4.6271 -2.2102 -1.9148 0.9783
-4.2723 -3.6945 -2.1091 0.9762
-3.8374 -4.7496 -2.2801 0.9743
-2.3324 -6.9665 -2.7433 0.9691
0.3039 -9.0900 -3.3962 0.9619
1.1753 -9.5424 -3.5902 0.9598
2.1350 -9.9352 -3.7946 0.9575
6.7082 -10.5082 -4.6553 0.9482
9.1584 -9.9020 -5.0365 0.9440
10.3071 -9.3222 -5.1895 0.9424
13.6947 -2.7836 -5.2183 0.9421
13.5001 -1.5102 -5.0725 0.9436
13.1114 -0.2921 -4.8972 0.9455
9.6314 3.3443 -3.8071 0.9574
6.3107 5.2159 -3.0572 0.9656
5.5136 5.4525 -2.8955 0.9674
4.7475 5.6154 -2.7458 0.9691
3.3230 5.7555 -2.4816 0.9720
1.4704 5.6125 -2.1665 0.9755
0.9252 5.4846 -2.0769 0.9765
0.4172 5.3388 -1.9996 0.9774
-0.5008 4.9785 -1.8684 0.9789
-1.3000 4.5466 -1.7658 0.9800
-2.0601 4.1923 -1.7443 0.9803
-2.4488 4.0313 -1.7613 0.9801
-2.7531 3.7366 -1.7331 0.9804
-3.2921 3.1137 -1.6921 0.9808
-3.5283 2.7863 -1.6788 0.9810
-4.1099 1.7427 -1.6670 0.9811
-2.5325 0.3406 -0.9542 0.9891
-2.5920 0.1156 -0.9689 0.9890
-2.8043 -0.9043 -1.1002 0.9875
-4.6567 -1.9746 -1.8888 0.9786
-4.5896 -2.4491 -1.9426 0.9780
-4.1801 -3.9536 -2.1485 0.9757
-3.6993 -5.0208 -2.3287 0.9737
-3.3838 -5.5705 -2.4338 0.9726
-2.5754 -6.6870 -2.6758 0.9699
-0.8384 -8.3337 -3.1276 0.9649
0.7285 -9.3226 -3.4918 0.9609
6.0925 -10.5525 -4.5500 0.9493
8.5571 -10.1214 -4.9492 0.9450
13.6233 -2.1422 -5.1496 0.9428
12.8537 0.2864 -4.8009 0.9466
10.7973 2.1946 -4.1143 0.9540
8.3905 4.2399 -3.5104 0.9607
5.9086 5.3440 -2.9749 0.9666
4.3775 5.6720 -2.6754 0.9699
2.9905 5.7576 -2.4227 0.9727
2.3541 5.7283 -2.3126 0.9739
1.7557 5.6600 -2.2129 0.9750
0.1758 5.2567 -1.9640 0.9778
-0.2830 5.0763 -1.8985 0.9785
-0.7119 4.8816 -1.8421 0.9792
-1.4823 4.4274 -1.7434 0.9803
-1.8273 4.1792 -1.7032 0.9807
-2.2875 4.1742 -1.7774 0.9799
-2.6039 3.8854 -1.7466 0.9802
-3.4129 2.9512 -1.6848 0.9809
-3.8426 2.2760 -1.6677 0.9811
-4.0260 1.9231 -1.6661 0.9811
-2.5629 0.2290 -0.9608 0.9891
-2.5691 -0.0000 -1.0083 0.9890
-4.2535 -3.0615 -2.0568 0.9777
-3.0530 -5.5711 -2.4933 0.9731
-2.6622 -6.0888 -2.6081 0.9718
-1.6946 -7.1109 -2.8690 0.9691
-0.4502 -8.0739 -3.1737 0.9658
0.2846 -8.5109 -3.3421 0.9641
1.0964 -8.9021 -3.5202 0.9622
1.9841 -9.2333 -3.7065 0.9602
3.9649 -9.6480 -4.0939 0.9562
7.2406 -9.3819 -4.6512 0.9504
12.1101 -4.8197 -5.1155 0.9455
12.3534 -3.6817 -5.0591 0.9461
12.3985 -2.5201 -4.9656 0.9471
12.2547 -1.3709 -4.8396 0.9484
11.9400 -0.2661 -4.6872 0.9500
9.6009 2.4013 -3.8842 0.9584
7.4239 4.1766 -3.3431 0.9641
5.9251 4.8972 -3.0169 0.9675
5.1935 5.1359 -2.8666 0.9691
4.4854 5.3053 -2.7266 0.9706
3.8051 5.4128 -2.5968 0.9720
3.1560 5.4664 -2.4773 0.9732
2.5395 5.4726 -2.3678 0.9744
0.8859 5.2518 -2.0903 0.9774
0.4001 5.1203 -2.0157 0.9782
-0.4816 4.7877 -1.8885 0.9795
-2.0463 4.1642 -1.8210 0.9803
-2.3653 3.8939 -1.7881 0.9806
-2.6607 3.6112 -1.7605 0.9809
-2.9334 3.3169 -1.7379 0.9812
-3.4135 2.6956 -1.7071 0.9815
-3.6219 2.3694 -1.6987 0.9816
-2.5568 0.5793 -1.0289 0.9888
-2.5889 -0.1155 -1.0171 0.9889
-2.6312 -0.3539 -1.0420 0.9887
-2.7236 -0.8783 -1.1231 0.9878
-4.4872 -1.9028 -1.9129 0.9793
-3.7937 -4.2896 -2.2475 0.9757
-3.5346 -4.7973 -2.3387 0.9747
-3.2267 -5.3119 -2.4393 0.9736
-2.8650 -5.8303 -2.5496 0.9725
2.4552 -9.3712 -3.8021 0.9592
4.4952 -9.6869 -4.1912 0.9551
5.5835 -9.6709 -4.3827 0.9531
10.6690 -7.3239 -5.0789 0.9459
12.4004 -3.1015 -5.0167 0.9466
12.1173 -0.8111 -4.7663 0.9492
11.7258 0.2613 -4.6032 0.9509
7.0504 4.3912 -3.2599 0.9649
2.2436 5.4593 -2.3165 0.9750
1.6739 5.3961 -2.2174 0.9760
-0.2720 4.8786 -1.9177 0.9792
-0.6849 4.6962 -1.8626 0.9798
-1.0700 4.4901 -1.8116 0.9804
-1.4289 4.2680 -1.7665 0.9808
-1.7746 4.0587 -1.7386 0.9811
-2.7999 3.4655 -1.7485 0.9810
-3.7184 2.2024 -1.6962 0.9816
-3.8959 1.8609 -1.6945 0.9816
-2.5206 0.2252 -0.9932 0.9892
-2.5289 -0.0000 -1.0414 0.9891
-2.5655 -0.2293 -1.0607 0.9889
-2.6210 -0.4722 -1.0967 0.9885
-2.6410 -0.7235 -1.1276 0.9882
-2.6436 -0.9845 -1.1616 0.9879
-4.2959 -2.0520 -1.9604 0.9796
-4.0912 -2.9447 -2.0757 0.9784
-3.9379 -3.4053 -2.1438 0.9777
-2.1000 -6.2725 -2.7238 0.9718
-1.0479 -7.1853 -2.9901 0.9691
0.2673 -7.9948 -3.2940 0.9660
1.0266 -8.3354 -3.4583 0.9643
1.8516 -8.6165 -3.6291 0.9626
2.7371 -8.8235 -3.8042 0.9608
3.6744 -8.9411 -3.9806 0.9590
4.6505 -8.9538 -4.1547 0.9573
5.6478 -8.8471 -4.3221 0.9556
7.6121 -8.2301 -4.6163 0.9527
11.0213 -4.3864 -4.8846 0.9500
11.2539 -3.3540 -4.8356 0.9505
11.3136 -2.2996 -4.7540 0.9513
11.2072 -1.2537 -4.6437 0.9524
9.6794 1.5220 -4.0348 0.9585
8.8907 2.2237 -3.7738 0.9611
8.2778 2.8744 -3.6083 0.9628
6.9463 3.9079 -3.2820 0.9661
6.2590 4.2965 -3.1262 0.9677
5.5736 4.6067 -2.9776 0.9692
3.6124 5.1385 -2.5865 0.9732
3.0034 5.2019 -2.4734 0.9744
1.3431 5.1266 -2.1823 0.9773
0.8494 5.0354 -2.1028 0.9782
0.3842 4.9165 -2.0307 0.9789
-0.4636 4.6087 -1.9073 0.9802
-0.8486 4.4274 -1.8563 0.9807
-1.2081 4.2249 -1.8095 0.9812
-1.9768 4.0228 -1.8457 0.9808
-2.2864 3.7639 -1.8135 0.9811
-2.8382 3.2092 -1.7642 0.9816
-3.9927 1.2875 -1.7275 0.9820
-2.6388 0.5979 -1.1141 0.9884
-2.4504 0.3295 -1.0181 0.9894
-2.5479 -0.1136 -1.0502 0.9890
-4.3276 -1.8351 -1.9356 0.9799
-4.1546 -2.7179 -2.0444 0.9788
-4.0191 -3.1739 -2.1088 0.9781
-3.6361 -4.1114 -2.2601 0.9765
-3.3821 -4.5903 -2.3479 0.9756
-2.7306 -5.5566 -2.5495 0.9736
0.6386 -8.1718 -3.3752 0.9652
3.2000 -8.8945 -3.8924 0.9599
4.1586 -8.9615 -4.0682 0.9582
5.1478 -8.9163 -4.2395 0.9564
6.1476 -8.7450 -4.4018 0.9548
7.1332 -8.4372 -4.5496 0.9533
8.0767 -7.9872 -4.6774 0.9521
8.9477 -7.3954 -4.7801 0.9510
9.7161 -6.6697 -4.8528 0.9503
10.3543 -5.8253 -4.8922 0.9499
11.2804 -1.7738 -4.7021 0.9518
11.0959 -0.7428 -4.5793 0.9530
10.7686 0.2400 -4.4354 0.9545
10.3194 1.1544 -4.2758 0.9561
9.1758 1.8650 -3.8557 0.9603
8.5906 2.5603 -3.6912 0.9620
7.2872 3.6823 -3.3621 0.9653
5.2395 4.7387 -2.9091 0.9699
4.5735 4.9448 -2.7736 0.9713
3.9268 5.0881 -2.6466 0.9726
3.3045 5.1763 -2.5288 0.9738
2.1384 5.2034 -2.3165 0.9760
1.6009 5.1607 -2.2250 0.9769
0.6133 4.9792 -2.0658 0.9785
0.1621 4.8478 -1.9973 0.9792
-0.2617 4.6935 -1.9357 0.9799
-0.6591 4.5190 -1.8805 0.9804
-1.7665 4.0402 -1.8158 0.9811
-2.4326 3.6297 -1.7993 0.9813
-2.9626 3.0633 -1.7548 0.9817
-3.9243 1.4615 -1.7244 0.9820
-3.5071 0.9607 -1.4974 0.9844
-2.5181 0.4537 -1.0536 0.9890
-2.4793 0.2215 -1.0250 0.9893
-2.5221 -0.2254 -1.0923 0.9890
-2.5389 -0.4574 -1.1128 0.9888
-4.1445 -1.9797 -1.9812 0.9802
-3.7867 -3.2745 -2.1594 0.9784
-3.5981 -3.7204 -2.2326 0.9777
-3.3701 -4.1712 -2.3132 0.9769
-3.0997 -4.6251 -2.4017 0.9760
-1.9984 -5.9691 -2.7153 0.9730
-1.5245 -6.3971 -2.8367 0.9718
0.2518 -7.5319 -3.2508 0.9677
0.9644 -7.8302 -3.4031 0.9662
1.7342 -8.0700 -3.5605 0.9647
2.5557 -8.2387 -3.7209 0.9631
3.4204 -8.3229 -3.8815 0.9616
4.3159 -8.3096 -4.0391 0.9600
8.5752 -6.4669 -4.6329 0.9543
10.1007 -4.0200 -4.6894 0.9537
10.3225 -3.0764 -4.6462 0.9542
10.3917 -2.1122 -4.5742 0.9549
10.3135 -1.1537 -4.4766 0.9558
10.0990 -0.2251 -4.3574 0.9569
9.7639 0.6536 -4.2212 0.9583
6.5210 3.6687 -3.2275 0.9679
5.8929 4.0452 -3.0832 0.9693
5.2622 4.3493 -2.9449 0.9707
4.6376 4.5862 -2.8135 0.9720
4.0257 4.7616 -2.6897 0.9732
2.8587 4.9514 -2.4662 0.9754
1.2873 4.9135 -2.1910 0.9781
0.8153 4.8334 -2.1144 0.9789
0.3693 4.7258 -2.0447 0.9796
-0.4467 4.4404 -1.9251 0.9807
-1.1660 4.0778 -1.8295 0.9817
-1.5182 3.9419 -1.8221 0.9818
-2.2115 3.6407 -1.8375 0.9816
-2.7477 3.1069 -1.7891 0.9821
-2.9845 2.8228 -1.7720 0.9823
-3.7310 1.5821 -1.7481 0.9825
-2.4654 0.1099 -1.0646 0.9893
-2.5076 -0.1118 -1.0828 0.9891
-4.1047 -2.1904 -2.0069 0.9799
-3.8672 -3.0539 -2.1256 0.9788
-3.6971 -3.4967 -2.1951 0.9781
-3.4892 -3.9453 -2.2719 0.9773
-3.2404 -4.3979 -2.3564 0.9765
-2.6066 -5.3043 -2.5494 0.9746
-2.2145 -5.7499 -2.6578 0.9735
-1.7686 -6.1851 -2.7749 0.9724
-1.2659 -6.6043 -2.9007 0.9711
-0.7042 -7.0002 -3.0348 0.9698
-0.0820 -7.3646 -3.1770 0.9684
2.1389 -8.1641 -3.6405 0.9639
2.9833 -8.2922 -3.8013 0.9623
4.7705 -8.2626 -4.1155 0.9593
8.2149 -6.7898 -4.5973 0.9546
9.9329 -4.4755 -4.6995 0.9536
10.2307 -3.5525 -4.6716 0.9539
10.2224 -0.6843 -4.4194 0.9564
8.0035 2.3853 -3.6024 0.9643
6.8308 3.4517 -3.3014 0.9672
5.5773 4.2061 -3.0132 0.9700
4.3297 4.6812 -2.7506 0.9726
3.1423 4.9223 -2.5191 0.9749
2.5811 4.9693 -2.4155 0.9759
2.0443 4.9744 -2.3199 0.9768
1.0481 4.8771 -2.1518 0.9785
0.5891 4.7828 -2.0787 0.9792
-0.2520 4.5197 -1.9526 0.9805
-1.3313 3.9764 -1.8088 0.9819
-1.7523 4.0078 -1.8868 0.9811
-2.3536 3.5118 -1.8236 0.9818
-2.6216 3.2448 -1.7994 0.9820
-2.8687 2.9662 -1.7800 0.9822
-3.0952 2.6766 -1.7651 0.9823
-3.3017 2.3765 -1.7548 0.9824
-3.4883 2.0661 -1.7489 0.9825
-3.8020 1.4159 -1.7501 0.9825
-3.9290 1.0763 -1.7573 0.9824
-2.4719 0.4453 -1.0835 0.9891
-2.4387 0.2179 -1.0561 0.9894
-2.4281 -0.0000 -1.0956 0.9894
-2.4481 -0.2188 -1.1090 0.9893
-2.4592 -0.4431 -1.1275 0.9891
-2.4890 -0.9270 -1.1984 0.9884
-3.2351 -4.0042 -2.3227 0.9777
-2.9710 -4.4330 -2.4079 0.9769
-1.4501 -6.0852 -2.8226 0.9729
-0.3794 -6.8051 -3.0753 0.9705
1.6293 -7.5821 -3.4993 0.9665
2.3947 -7.7196 -3.6470 0.9652
4.0224 -7.7444 -3.9376 0.9624
4.8584 -7.6106 -4.0741 0.9612
5.6867 -7.3684 -4.1997 0.9600
7.9127 -5.9672 -4.4718 0.9574
8.4956 -5.2911 -4.5160 0.9570
8.9664 -4.5309 -4.5330 0.9569
9.5983 -1.9510 -4.4195 0.9579
9.0719 0.6073 -4.1026 0.9609
6.1397 3.4541 -3.1787 0.9696
4.9800 4.1161 -2.9152 0.9720
3.8276 4.5273 -2.6750 0.9743
1.2352 4.7147 -2.1992 0.9788
0.7834 4.6444 -2.1252 0.9795
-0.4307 4.2817 -1.9418 0.9813
-0.7897 4.1200 -1.8928 0.9818
-1.5120 3.9258 -1.8982 0.9817
-2.1405 3.5237 -1.8603 0.9821
-2.4113 3.2727 -1.8343 0.9823
-2.6617 3.0096 -1.8129 0.9825
-3.1024 2.4499 -1.7837 0.9828
-2.4395 -0.1088 -1.1018 0.9893
-2.4521 -0.3298 -1.1164 0.9892
-2.4671 -0.5590 -1.1414 0.9890
-2.4891 -1.0554 -1.2199 0.9882
-3.9613 -2.1138 -2.0260 0.9805
-3.7244 -2.9411 -2.1413 0.9794
-3.3518 -3.7900 -2.2829 0.9780
-2.1130 -5.4864 -2.6528 0.9745
-1.6841 -5.8898 -2.7641 0.9735
-1.2029 -6.2753 -2.8831 0.9723
-0.6676 -6.6363 -3.0095 0.9712
0.5667 -7.2517 -3.2821 0.9686
1.2630 -7.4872 -3.4261 0.9672
2.0069 -7.6601 -3.5730 0.9658
4.4402 -7.6906 -4.0070 0.9618
5.2748 -7.5034 -4.1385 0.9605
6.0915 -7.2050 -4.2572 0.9594
6.8690 -6.7929 -4.3590 0.9585
8.2171 -5.6407 -4.4972 0.9572
8.7460 -4.9204 -4.5280 0.9569
9.5775 -2.3955 -4.4547 0.9576
9.5860 -1.5074 -4.3785 0.9583
9.2297 0.2057 -4.1656 0.9603
8.8905 0.9945 -4.0366 0.9615
8.4651 1.7206 -3.8977 0.9628
7.4846 2.2306 -3.5240 0.9663
6.9711 2.7744 -3.3854 0.9676
5.8526 3.6450 -3.1111 0.9702
5.2716 3.9755 -2.9792 0.9714
4.6890 4.2409 -2.8528 0.9726
2.9970 4.6947 -2.5132 0.9759
2.4664 4.7486 -2.4144 0.9768
1.4700 4.7387 -2.2387 0.9785
-0.2428 4.3560 -1.9686 0.9810
-0.6129 4.2026 -1.9164 0.9815
-0.9607 4.0313 -1.8699 0.9820
-1.2945 3.8665 -1.8398 0.9823
-1.6945 3.8756 -1.9086 0.9816
-1.9972 3.6444 -1.8752 0.9819
-2.2785 3.3998 -1.8467 0.9822
-2.7793 2.8738 -1.8039 0.9826
-3.2002 2.3034 -1.7792 0.9828
-3.5432 1.6924 -1.7718 0.9829
-3.6855 1.3725 -1.7745 0.9829
-2.4063 0.4335 -1.1032 0.9893
-2.3848 0.2131 -1.0804 0.9895
-2.3615 -0.0000 -1.1132 0.9896
-2.3934 -0.6556 -1.1698 0.9891
-3.7780 -2.2377 -2.0698 0.9808
-3.6603 -2.6346 -2.1259 0.9803
-3.5111 -3.0361 -2.1880 0.9797
-2.8508 -4.2537 -2.4138 0.9776
-2.5513 -4.6556 -2.5025 0.9768
-1.8186 -5.4320 -2.7002 0.9750
0.2252 -6.7347 -3.1763 0.9706
0.8581 -6.9668 -3.3088 0.9694
2.2507 -7.2556 -3.5809 0.9670
2.9968 -7.2922 -3.7163 0.9657
3.7626 -7.2442 -3.8479 0.9645
5.2966 -6.8629 -4.0864 0.9624
7.3373 -5.5333 -4.3319 0.9602
8.3062 -4.1973 -4.3868 0.9597
8.8288 -2.6312 -4.3426 0.9601
8.9080 -1.8106 -4.2849 0.9606
8.8680 -0.9920 -4.2062 0.9613
8.7161 -0.1943 -4.1096 0.9622
8.4631 0.5665 -3.9982 0.9632
7.7083 1.9280 -3.7454 0.9655
6.7947 2.3594 -3.3904 0.9687
6.3097 2.8430 -3.2622 0.9699
4.7229 3.9035 -2.8882 0.9733
4.1814 4.1351 -2.7720 0.9743
3.6455 4.3119 -2.6616 0.9753
3.1202 4.4385 -2.5574 0.9763
2.1154 4.5585 -2.3688 0.9780
0.3422 4.3786 -2.0703 0.9808
-0.4156 4.1319 -1.9575 0.9818
-0.7626 3.9784 -1.9095 0.9822
-1.0909 3.8153 -1.8705 0.9826
-1.7892 3.6410 -1.9123 0.9822
-2.3362 3.1707 -1.8565 0.9827
-2.5796 2.9169 -1.8355 0.9829
-2.8036 2.6516 -1.8190 0.9831
-3.0083 2.3756 -1.8069 0.9832
-3.3603 1.7931 -1.7954 0.9833
-3.5077 1.4874 -1.7960 0.9833
-3.6359 1.1724 -1.8008 0.9832
-2.3799 -0.3201 -1.1319 0.9894
-2.3945 -0.7721 -1.1859 0.9889
-3.8256 -2.0414 -2.0440 0.9810
-3.7230 -2.4355 -2.0971 0.9805
-3.2230 -3.6443 -2.2933 0.9787
-2.9847 -4.0509 -2.3719 0.9780
-2.0191 -5.2425 -2.6481 0.9755
-1.1450 -5.9733 -2.8669 0.9735
-0.6341 -6.3036 -2.9864 0.9724
-0.0735 -6.6009 -3.1117 0.9712
1.8886 -7.2085 -3.5126 0.9676
2.6206 -7.2839 -3.6489 0.9663
6.3812 -6.3105 -4.2304 0.9611
7.0369 -5.8161 -4.3034 0.9604
7.6164 -5.2284 -4.3547 0.9600
8.7433 -3.0360 -4.3628 0.9599
8.8836 -2.2220 -4.3165 0.9603
8.8054 -0.5895 -4.1599 0.9617
8.6014 0.1917 -4.0555 0.9627
8.3028 0.9288 -3.9381 0.9637
6.0556 3.0600 -3.1982 0.9704
4.9938 3.7660 -2.9483 0.9727
4.4518 4.0264 -2.8295 0.9738
3.3813 4.3812 -2.6087 0.9758
2.8627 4.4843 -2.5078 0.9767
1.8756 4.5638 -2.3259 0.9784
0.1446 4.3252 -2.0399 0.9810
-0.9282 3.8949 -1.8874 0.9824
-1.9336 3.5284 -1.8966 0.9824
-2.2070 3.2931 -1.8687 0.9826
-3.1034 2.2337 -1.8024 0.9832
-3.5742 1.3311 -1.7979 0.9833
-2.3094 -0.2064 -1.1404 0.9897
-2.3082 -0.4159 -1.1536 0.9896
-2.3175 -0.6348 -1.1819 0.9893
-2.3278 -0.8669 -1.2217 0.9890
-2.3666 -1.1304 -1.2900 0.9884
-3.3850 -2.9271 -2.2011 0.9802
-2.9900 -3.7008 -2.3401 0.9790
-2.7383 -4.0858 -2.4192 0.9783
-2.4469 -4.4651 -2.5043 0.9776
-2.1142 -4.8353 -2.5957 0.9768
-1.7386 -5.1929 -2.6935 0.9759
-1.3186 -5.5331 -2.7977 0.9750
-0.8532 -5.8502 -2.9079 0.9740
0.2136 -6.3887 -3.1440 0.9719
0.8122 -6.5947 -3.2682 0.9708
2.1212 -6.8380 -3.5214 0.9686
2.8182 -6.8577 -3.6467 0.9675
3.5309 -6.7981 -3.7678 0.9664
5.6288 -6.0858 -4.0774 0.9637
7.3261 -4.5627 -4.2451 0.9623
7.7281 -3.9052 -4.2588 0.9621
8.0283 -3.1952 -4.2500 0.9622
7.9229 0.5304 -3.9056 0.9652
7.6188 1.1980 -3.7934 0.9662
7.2455 1.8122 -3.6735 0.9673
6.4169 2.2282 -3.3411 0.9702
5.9568 2.6840 -3.2136 0.9713
4.9908 3.4260 -2.9775 0.9734
3.9810 3.9369 -2.7538 0.9754
2.4976 4.3259 -2.4569 0.9780
1.1408 4.3543 -2.2140 0.9801
-0.4014 3.9901 -1.9724 0.9823
-0.7370 3.8450 -1.9256 0.9827
-1.4372 3.7316 -1.9668 0.9823
-2.7192 2.5719 -1.8409 0.9835
-2.9183 2.3046 -1.8290 0.9836
-3.5276 1.1375 -1.8231 0.9836
-2.5041 0.5673 -1.2629 0.9886
-2.3022 -0.1027 -1.1335 0.9898
-2.3108 -0.3108 -1.1468 0.9897
-2.3375 -0.9912 -1.2488 0.9887
-3.5946 -2.3515 -2.1128 0.9810
-3.4627 -2.7345 -2.1702 0.9805
-3.1019 -3.5074 -2.3030 0.9793
-2.8689 -3.8937 -2.3788 0.9787
-2.5978 -4.2766 -2.4611 0.9779
-2.2858 -4.6515 -2.5492 0.9772
-1.9318 -5.0160 -2.6438 0.9763
-1.5342 -5.3655 -2.7448 0.9754
-0.0698 -6.2683 -3.0833 0.9724
0.5078 -6.4978 -3.2057 0.9714
1.1265 -6.6783 -3.3312 0.9703
2.4671 -6.8573 -3.5844 0.9680
4.6016 -6.5458 -3.9355 0.9650
7.0900 -4.8670 -4.2298 0.9624
7.5392 -4.2415 -4.2548 0.9622
8.3012 -1.3053 -4.1332 0.9632
8.2222 -0.5504 -4.0531 0.9639
8.0450 0.1793 -3.9580 0.9648
7.4400 1.5122 -3.7342 0.9667
6.1831 2.4608 -3.2732 0.9708
4.7400 3.5746 -2.9200 0.9739
3.7285 4.0312 -2.7008 0.9758
3.2283 4.1830 -2.5989 0.9767
2.7380 4.2890 -2.5028 0.9776
0.5251 4.2633 -2.1128 0.9810
0.1395 4.1707 -2.0525 0.9816
-0.2261 4.0555 -1.9978 0.9821
-0.5717 3.9198 -1.9484 0.9825
-0.8985 3.7702 -1.9063 0.9829
-1.2818 3.8286 -1.9859 0.9822
-1.5875 3.6306 -1.9490 0.9825
-1.8730 3.4179 -1.9170 0.9828
-2.1389 3.1914 -1.8897 0.9830
-2.3853 2.9524 -1.8669 0.9832
-3.0109 2.1671 -1.8246 0.9836
-3.3343 1.5927 -1.8175 0.9837
-3.4679 1.2915 -1.8202 0.9836
-2.3061 0.4154 -1.1525 0.9896
-2.2416 -0.4039 -1.1677 0.9898
-2.2481 -0.6158 -1.1950 0.9896
-2.2593 -0.8414 -1.2360 0.9892
-2.2721 -1.0853 -1.2909 0.9887
-3.2658 -2.8241 -2.2134 0.9808
-3.0887 -3.1937 -2.2778 0.9802
-2.8783 -3.5625 -2.3480 0.9796
-2.6326 -3.9282 -2.4243 0.9790
-2.3492 -4.2868 -2.5061 0.9783
-1.6641 -4.9705 -2.6873 0.9767
-1.2600 -5.2874 -2.7866 0.9759
-0.8139 -5.5806 -2.8913 0.9750
-0.3258 -5.8443 -3.0008 0.9740
0.2030 -6.0716 -3.1145 0.9731
0.7704 -6.2552 -3.2311 0.9721
1.3726 -6.3873 -3.3494 0.9711
2.6573 -6.4660 -3.5839 0.9691
5.8575 -5.2978 -4.0490 0.9651
6.3861 -4.8160 -4.1006 0.9647
6.8435 -4.2622 -4.1333 0.9644
7.2175 -3.6471 -4.1458 0.9643
7.4989 -2.9845 -4.1377 0.9644
7.6369 -0.1702 -3.9162 0.9662
7.4402 0.4981 -3.8229 0.9670
5.1989 2.9248 -3.0582 0.9735
4.7411 3.2546 -2.9482 0.9745
3.7961 3.7540 -2.7371 0.9763
1.0978 4.1902 -2.2207 0.9807
-0.0442 3.9734 -2.0372 0.9823
-0.7143 3.7273 -1.9457 0.9831
-1.3917 3.6135 -1.9852 0.9827
-1.9468 3.2050 -1.9225 0.9833
-2.6386 2.4955 -1.8619 0.9838
-2.8323 2.2367 -1.8502 0.9839
-3.3037 1.4009 -1.8397 0.9840
-2.4709 0.5598 -1.2989 0.9887
-2.2093 0.2971 -1.1428 0.9900
-2.2377 -0.0998 -1.1483 0.9900
-2.2446 -0.3019 -1.1611 0.9899
-2.2425 -0.5081 -1.1788 0.9897
-2.2673 -0.9614 -1.2625 0.9890
-3.4730 -2.2719 -2.1276 0.9815
-3.3424 -2.6395 -2.1834 0.9810
-3.1813 -3.0089 -2.2449 0.9805
-2.9878 -3.3784 -2.3121 0.9799
-1.8506 -4.8050 -2.6398 0.9771
-1.4673 -5.1315 -2.7362 0.9763
-1.0422 -5.4373 -2.8383 0.9754
-0.0664 -5.9629 -3.0572 0.9736
0.4821 -6.1693 -3.1725 0.9726
1.0674 -6.3282 -3.2901 0.9716
1.6850 -6.4316 -3.4086 0.9706
2.3284 -6.4719 -3.5262 0.9696
5.5709 -5.5091 -4.0167 0.9654
7.0416 -3.9615 -4.1421 0.9643
7.7679 -1.2214 -4.0313 0.9653
7.7035 -0.5157 -3.9582 0.9659
7.5488 0.1682 -3.8710 0.9666
7.3126 0.8180 -3.7723 0.9675
7.0055 1.4239 -3.6649 0.9684
6.6388 1.9786 -3.5514 0.9693
5.8729 2.3373 -3.2405 0.9720
5.4208 2.7392 -3.1137 0.9731
3.0864 3.9992 -2.5898 0.9775
2.6219 4.1071 -2.4981 0.9783
2.1684 4.1748 -2.4118 0.9791
0.8961 4.1701 -2.1867 0.9810
0.5062 4.1097 -2.1228 0.9816
0.1346 4.0246 -2.0644 0.9821
-0.2184 3.9170 -2.0113 0.9825
-0.8932 3.7482 -1.9754 0.9828
-1.2409 3.7063 -2.0038 0.9826
-2.3135 2.8636 -1.8874 0.9836
-2.7377 2.3674 -1.8555 0.9839
-3.2366 1.5460 -1.8389 0.9840
-3.4770 0.9525 -1.8482 0.9839
-2.2585 0.4069 -1.1765 0.9897
-2.1765 -0.0000 -1.1619 0.9902
-2.1789 -0.3926 -1.1819 0.9900
-3.2964 -2.3726 -2.1682 0.9818
-3.1528 -2.7264 -2.2251 0.9813
-2.9789 -3.0802 -2.2875 0.9808
-2.2575 -4.1194 -2.5077 0.9789
-0.7774 -5.3308 -2.8759 0.9759
-0.3107 -5.5732 -2.9798 0.9750
0.1933 -5.7797 -3.0872 0.9741
0.7321 -5.9438 -3.1971 0.9732
1.8973 -6.1164 -3.4187 0.9714
5.9881 -4.5158 -4.0038 0.9666
6.4138 -3.9945 -4.0337 0.9663
6.7630 -3.4175 -4.0451 0.9662
7.0275 -2.7969 -4.0378 0.9663
7.2020 -2.1464 -4.0118 0.9665
7.2844 -1.4806 -3.9683 0.9669
7.2761 -0.8140 -3.9085 0.9673
7.1810 -0.1601 -3.8345 0.9680
7.0060 0.4690 -3.7485 0.9687
6.7596 1.0629 -3.6529 0.9694
6.4514 1.6136 -3.5501 0.9703
5.3979 2.4322 -3.1606 0.9735
4.0715 3.3652 -2.8199 0.9763
3.6248 3.5846 -2.7215 0.9771
3.1771 3.7579 -2.6270 0.9779
2.2963 3.9772 -2.4517 0.9794
1.8700 4.0297 -2.3716 0.9801
0.3070 3.9281 -2.1034 0.9823
-1.3483 3.5008 -2.0027 0.9831
-1.6274 3.3116 -1.9698 0.9834
-2.1305 2.8915 -1.9174 0.9838
-2.5612 2.4224 -1.8820 0.9841
-2.9205 1.9105 -1.8631 0.9843
-3.0733 1.6399 -1.8597 0.9843
-3.3245 1.0720 -1.8648 0.9843
-2.1681 0.2916 -1.1679 0.9901
-2.1810 -0.2933 -1.1748 0.9901
-2.1806 -0.4941 -1.1936 0.9899
-2.2000 -0.9329 -1.2757 0.9892
-2.2447 -1.1979 -1.3583 0.9885
-2.8800 -3.2565 -2.3208 0.9805
-2.6574 -3.6067 -2.3916 0.9799
-2.3999 -3.9508 -2.4677 0.9793
-1.7746 -4.6078 -2.6360 0.9779
-0.9964 -5.1981 -2.8255 0.9763
-0.5489 -5.4561 -2.9274 0.9754
1.0134 -6.0078 -3.2525 0.9728
2.2026 -6.1220 -3.4733 0.9709
4.0655 -5.7832 -3.7738 0.9685
5.2303 -5.1723 -3.9269 0.9672
6.5985 -3.7122 -4.0418 0.9663
6.9062 -3.1118 -4.0438 0.9662
7.1262 -2.4745 -4.0271 0.9664
7.2547 -1.8145 -3.9922 0.9667
7.2390 -0.4846 -3.8731 0.9676
6.8912 0.7709 -3.7017 0.9690
4.7270 2.9440 -2.9729 0.9751
3.8487 3.4808 -2.7702 0.9767
2.9544 3.8280 -2.5814 0.9783
1.6615 4.0430 -2.3335 0.9804
0.8635 4.0184 -2.1942 0.9815
0.4883 3.9644 -2.1324 0.9821
0.1300 3.8861 -2.0757 0.9825
-0.2110 3.7856 -2.0241 0.9830
-0.5371 3.6838 -1.9874 0.9833
