ply
format ascii 1.0
element vertex 1584
property float32 x
property float32 y
property float32 z
property float32 I
end_header
-4.9282 -2.0897 0.7614 0.9786
-4.5808 -2.4444 0.7385 0.9792
-4.3573 -2.8504 0.7406 0.9792
-4.2379 -3.3467 0.7681 0.9784
-4.3391 -4.1038 0.8495 0.9762
-4.7467 -2.2673 0.6592 0.9790
-4.2458 -3.6715 0.7034 0.9776
-5.5781 -1.7987 0.7345 0.9766
-4.5883 -2.4484 0.6517 0.9793
-4.3592 -2.8516 0.6528 0.9792
-5.2090 -1.9399 0.6029 0.9779
-4.2554 -3.6799 0.6102 0.9776
0.3210 4.1079 0.4469 0.9836
-5.5866 -1.8015 0.6367 0.9767
-4.2508 -3.3568 0.5875 0.9784
-4.3704 -4.1335 0.6525 0.9761
-4.4864 -2.6573 0.4780 0.9793
-4.3145 -3.1054 0.4873 0.9789
-4.2691 -3.6916 0.5174 0.9776
-5.6128 -1.8099 0.5407 0.9766
-4.9634 -2.1047 0.4943 0.9786
-4.6173 -2.4639 0.4798 0.9792
-4.2692 -3.3713 0.4987 0.9784
-4.3861 -4.1484 0.5535 0.9760
0.1338 4.0036 0.3672 0.9840
-5.2555 -1.9572 0.4203 0.9778
-4.7861 -2.2861 0.3975 0.9789
-4.5029 -2.6671 0.3922 0.9792
-4.3336 -3.1192 0.4001 0.9788
-4.3003 -3.7186 0.4260 0.9775
-5.6634 -1.8262 0.4459 0.9764
-4.9847 -2.1137 0.4057 0.9785
-4.4029 -2.8802 0.3943 0.9791
-4.2927 -3.3900 0.4099 0.9783
-5.2912 -1.9705 0.3289 0.9776
-4.5217 -2.6782 0.3061 0.9792
-4.3320 -3.7460 0.3336 0.9773
-5.7148 -1.8428 0.3497 0.9762
-4.6558 -2.4844 0.3074 0.9791
-4.4191 -2.8909 0.3076 0.9791
-4.4711 -4.2287 0.3584 0.9756
0.1342 4.0138 0.2339 0.9840
-4.5541 -2.6974 0.2201 0.9790
-4.3640 -3.7738 0.2399 0.9772
-5.7771 -1.8629 0.2524 0.9760
-4.4466 -2.9088 0.2209 0.9790
-4.5483 -4.3017 0.2603 0.9752
0.1345 4.0218 0.1673 0.9840
-4.5869 -2.7168 0.1330 0.9789
-4.4135 -3.1766 0.1356 0.9785
-0.0463 4.1528 0.1036 0.9835
-13.2285 7.0589 0.3739 0.9418
-5.8863 -1.8981 0.1542 0.9756
-4.7180 -2.5176 0.1334 0.9788
-4.4809 -2.9313 0.1335 0.9788
-5.4556 -2.0317 0.0484 0.9770
-4.9194 -2.3498 0.0453 0.9784
-4.4502 -3.2031 0.0456 0.9783
-0.0458 4.1155 0.0342 0.9837
-9.7792 11.0576 0.1227 0.9427
-10.3780 9.8154 0.1187 0.9445
-10.9475 8.6452 0.1159 0.9457
-13.1460 4.2390 0.1148 0.9462
-14.7640 0.6583 0.1228 0.9426
-6.0000 -1.9348 0.0524 0.9751
-4.7497 -2.5346 0.0447 0.9787
-4.5176 -2.9553 0.0449 0.9786
-4.4262 -3.4953 0.0469 0.9777
0.1350 4.0378 0.0336 0.9840
-10.6657 9.2230 0.1172 0.9452
-13.7426 0.0000 -0.1142 0.9465
-4.6634 -2.7622 -0.0450 0.9786
-0.0458 4.1079 -0.0341 0.9837
-8.2988 11.2633 -0.1163 0.9456
-10.0297 7.9204 -0.1062 0.9502
-12.0537 3.8868 -0.1053 0.9506
-12.5639 2.8466 -0.1071 0.9498
-13.0564 1.7559 -0.1095 0.9487
-13.4586 0.6001 -0.1120 0.9475
-14.0376 -0.6260 -0.1168 0.9453
-14.6683 -1.9727 -0.1230 0.9425
-5.2027 -2.2062 -0.0470 0.9776
-4.8003 -2.5615 -0.0452 0.9785
-4.5569 -2.9810 -0.0453 0.9785
-7.9692 11.8909 -0.1190 0.9443
-9.2070 9.5200 -0.1101 0.9484
-9.7626 8.4420 -0.1073 0.9497
-11.3035 5.3992 -0.1041 0.9511
-11.8026 4.3954 -0.1047 0.9509
-12.3072 3.3713 -0.1061 0.9502
-12.8250 2.3106 -0.1083 0.9492
-13.1941 1.1790 -0.1101 0.9484
-12.6055 0.0000 -0.3144 0.9508
-13.1063 -1.1712 -0.3282 0.9487
-14.2295 -3.8979 -0.3679 0.9427
-5.6438 -2.1017 -0.1502 0.9762
-6.2303 12.6783 -0.3523 0.9450
-6.9527 11.4457 -0.3340 0.9478
-7.6010 10.3162 -0.3196 0.9500
-8.1923 9.2632 -0.3084 0.9517
-8.7397 8.2660 -0.3000 0.9530
-11.1288 3.5886 -0.2916 0.9543
-11.5846 2.6247 -0.2962 0.9536
-12.3651 0.5514 -0.3087 0.9517
-12.8521 -0.5731 -0.3208 0.9498
-13.3693 -1.7980 -0.3364 0.9475
-13.9286 -3.1558 -0.3562 0.9445
-5.2657 -2.2329 -0.1426 0.9774
-4.6159 -3.0196 -0.1376 0.9782
-4.5389 -3.5843 -0.1442 0.9771
0.1355 4.0540 -0.1012 0.9839
-5.8344 13.3437 -0.3632 0.9434
-6.6020 12.0472 -0.3426 0.9465
-7.2849 10.8700 -0.3263 0.9490
-9.9800 5.9112 -0.2893 0.9546
-10.4449 4.9891 -0.2887 0.9547
-10.9017 4.0598 -0.2901 0.9545
-11.6413 0.0000 -0.4840 0.9545
-12.9715 -3.5532 -0.5592 0.9476
-5.7832 -2.1537 -0.2566 0.9756
-5.0968 -2.4345 -0.2349 0.9776
-4.7739 -2.8276 -0.2307 0.9780
-4.6211 -3.3260 -0.2367 0.9775
-4.8211 -4.1690 -0.2650 0.9748
-4.9240 12.7849 -0.5697 0.9466
-5.7013 11.6019 -0.5375 0.9496
-7.5770 8.5674 -0.4756 0.9552
-8.0998 7.6608 -0.4636 0.9563
-9.4922 5.0652 -0.4473 0.9578
-10.7463 2.4348 -0.4581 0.9568
-11.1567 1.5004 -0.4681 0.9559
-11.8505 -0.5284 -0.4932 0.9536
-13.2186 -4.2625 -0.5775 0.9459
-4.6766 -3.0593 -0.2324 0.9779
-4.6300 -3.6563 -0.2453 0.9767
0.1358 4.0626 -0.1690 0.9839
-4.4945 13.4245 -0.5886 0.9449
-6.0557 11.0502 -0.5239 0.9508
-7.3000 9.0354 -0.4830 0.9546
-8.8225 6.3501 -0.4520 0.9574
-9.2736 5.4928 -0.4482 0.9578
-10.8131 0.0000 -0.6298 0.9576
-5.1894 -2.4788 -0.3350 0.9772
-4.8428 -2.8684 -0.3278 0.9777
-4.6941 -3.3786 -0.3369 0.9771
-2.5421 13.2619 -0.7865 0.9473
-4.5170 11.7282 -0.7320 0.9509
-6.5053 8.8291 -0.6387 0.9570
-7.0469 7.9681 -0.6195 0.9583
-7.5465 7.1375 -0.6050 0.9592
-9.6463 3.1105 -0.5903 0.9602
-10.6448 0.4747 -0.6206 0.9582
-11.3552 -1.5271 -0.6673 0.9551
-4.7410 -3.1014 -0.3300 0.9776
-3.2113 13.4754 -0.8068 0.9460
-4.8970 11.1998 -0.7119 0.9522
-5.5922 10.2045 -0.6777 0.9544
-7.3014 7.5496 -0.6117 0.9588
-8.2339 5.9264 -0.5909 0.9602
-9.0656 4.3303 -0.5852 0.9605
-9.8342 2.6939 -0.5939 0.9600
-10.5562 0.9433 -0.6173 0.9584
-10.4038 -0.9297 -0.7828 0.9590
-11.0194 -3.0185 -0.8562 0.9552
-11.3302 -4.2194 -0.9060 0.9527
-5.2856 -2.5248 -0.4390 0.9768
-4.8014 -3.4558 -0.4433 0.9765
-2.3229 12.1186 -0.9247 0.9517
-3.3799 11.8201 -0.9213 0.9519
-4.1715 10.8312 -0.8698 0.9545
-4.8721 9.9145 -0.8278 0.9567
-5.4994 9.0532 -0.7938 0.9584
-6.5853 7.4462 -0.7449 0.9609
-7.0631 6.6802 -0.7285 0.9618
-7.5070 5.9282 -0.7168 0.9624
-7.9225 5.1827 -0.7095 0.9627
-8.6866 3.6834 -0.7071 0.9629
-9.0424 2.9158 -0.7120 0.9626
-9.3848 2.1263 -0.7211 0.9621
-9.7166 1.3068 -0.7347 0.9614
-9.9572 0.4440 -0.7470 0.9608
-11.1743 -3.6032 -0.8799 0.9540
-5.6324 -2.3883 -0.4585 0.9758
-4.8984 -3.8683 -0.4677 0.9753
-2.7626 11.5924 -0.8931 0.9533
-4.5320 10.3650 -0.8478 0.9556
-5.1940 9.4778 -0.8099 0.9576
-6.3317 7.8368 -0.7550 0.9604
-6.8288 7.0610 -0.7361 0.9614
-7.2889 6.3029 -0.7221 0.9621
-7.7180 5.5551 -0.7126 0.9626
-8.1211 4.8102 -0.7073 0.9628
-8.5027 4.0614 -0.7062 0.9629
-9.5519 1.7208 -0.7273 0.9618
-9.8793 0.8828 -0.7433 0.9610
-9.7320 -0.8696 -0.8958 0.9615
-10.2458 -2.8066 -0.9739 0.9582
-10.4919 -3.9072 -1.0264 0.9560
-5.0272 -2.9776 -0.5357 0.9768
-4.9405 -3.5560 -0.5581 0.9758
1.1273 14.4261 -1.3266 0.9435
-1.2205 12.1319 -1.1178 0.9522
-2.1381 11.1546 -1.0412 0.9554
-2.9345 10.2628 -0.9786 0.9580
-3.8745 10.0599 -0.9883 0.9576
-4.5408 9.2402 -0.9439 0.9595
-5.6830 7.7130 -0.8783 0.9622
-6.1796 6.9873 -0.8552 0.9632
-7.0608 5.5759 -0.8248 0.9645
-7.4562 4.8776 -0.8168 0.9648
-8.5084 2.7436 -0.8196 0.9647
-4.0002 0.1784 -0.3671 0.9840
-9.5984 -0.4280 -0.8808 0.9621
-4.9393 -3.2312 -0.5411 0.9766
0.1375 4.1132 -0.3773 0.9836
-3.5116 10.4886 -1.0140 0.9565
-5.4177 8.0838 -0.8921 0.9617
-5.9366 7.3478 -0.8660 0.9628
-6.4127 6.6307 -0.8457 0.9636
-8.0045 3.8234 -0.8132 0.9650
-8.3448 3.1076 -0.8164 0.9649
-9.1400 -0.8167 -0.9953 0.9638
-9.5718 -2.6220 -1.0765 0.9609
-9.7671 -3.6373 -1.1305 0.9589
-5.1911 -3.0747 -0.6544 0.9760
-5.2127 -3.7519 -0.6966 0.9745
2.3990 14.2223 -1.5644 0.9436
-0.0455 4.0874 -0.4434 0.9837
-1.1242 11.1746 -1.2182 0.9558
-2.7298 9.5468 -1.0770 0.9608
-4.2508 8.6501 -1.0454 0.9620
-4.8233 7.9403 -1.0077 0.9633
-5.8199 6.5806 -0.9529 0.9653
-6.2580 5.9188 -0.9343 0.9659
-7.0406 4.6057 -0.9125 0.9667
-8.0325 2.5902 -0.9154 0.9666
-4.7637 1.0793 -0.5298 0.9805
-3.7517 0.5046 -0.4106 0.9849
-9.2530 -1.2444 -1.0127 0.9631
-9.4689 -2.1454 -1.0531 0.9617
-9.6713 -3.1186 -1.1022 0.9599
-5.3506 -2.8552 -0.6578 0.9759
-5.1189 -3.3487 -0.6635 0.9757
-10.3202 -8.1497 -1.4263 0.9485
-10.4281 -9.8628 -1.5569 0.9439
1.6798 13.6389 -1.4905 0.9462
0.1381 4.1304 -0.4483 0.9835
-0.6480 11.6220 -1.2626 0.9542
-1.5670 10.7439 -1.1777 0.9573
-3.0714 9.1737 -1.0493 0.9618
-3.9420 9.0155 -1.0673 0.9612
-4.5442 8.2920 -1.0256 0.9627
-6.4646 5.5902 -0.9270 0.9662
-7.2195 4.2761 -0.9101 0.9668
-7.5601 3.6112 -0.9088 0.9669
-7.8798 2.9345 -0.9120 0.9667
-3.7700 -0.3369 -0.4743 0.9849
-8.8054 -1.5863 -1.1212 0.9646
-9.1338 -3.4014 -1.2214 0.9615
-9.5089 -8.2226 -1.5754 0.9506
-9.5153 -9.8388 -1.7152 0.9463
2.1770 12.9062 -1.6402 0.9486
-0.0456 4.0892 -0.5125 0.9836
-1.0417 10.3546 -1.3042 0.9589
-2.5512 8.9222 -1.1629 0.9633
-3.1817 8.2612 -1.1094 0.9649
-5.0417 6.8427 -1.0651 0.9663
-5.9190 5.5982 -1.0210 0.9677
-6.3074 4.9809 -1.0072 0.9681
-6.6676 4.3617 -0.9984 0.9684
-7.0024 3.7366 -0.9946 0.9685
-4.3832 0.9931 -0.5632 0.9820
-3.5494 0.4773 -0.4488 0.9857
-8.7120 -1.1716 -1.1016 0.9652
-9.0589 -2.9211 -1.1928 0.9624
-9.2035 -3.9026 -1.2528 0.9605
-5.4713 -3.5791 -0.8193 0.9740
-9.5181 -9.0021 -1.6417 0.9486
-9.4989 -10.7406 -1.7968 0.9438
2.8812 13.4079 -1.7186 0.9462
1.5311 12.4312 -1.5696 0.9508
0.1387 4.1493 -0.5203 0.9834
-0.5988 10.7383 -1.3478 0.9576
-1.4555 9.9799 -1.2639 0.9602
-2.8752 8.5879 -1.1349 0.9641
-4.7979 7.1589 -1.0800 0.9659
-7.7440 2.1213 -1.0062 0.9681
-3.3944 -0.0000 -0.4828 0.9864
-3.5139 -0.3140 -0.5018 0.9858
-8.3088 -1.4969 -1.2008 0.9665
-8.4533 -2.3156 -1.2467 0.9652
-8.7413 -5.1775 -1.4451 0.9598
-8.7764 -6.3169 -1.5381 0.9573
4.8815 13.5682 -2.0510 0.9434
3.3132 12.6463 -1.8595 0.9486
-0.9701 9.6431 -1.3785 0.9616
-2.9938 7.7732 -1.1848 0.9669
-4.7709 6.4752 -1.1440 0.9680
-5.2099 5.8909 -1.1186 0.9687
-5.6136 5.3094 -1.0990 0.9693
-6.3307 4.1414 -1.0760 0.9699
-6.6499 3.5485 -1.0721 0.9700
-6.9460 2.9453 -1.0731 0.9700
-7.2204 2.3283 -1.0791 0.9698
-3.3671 0.4528 -0.4832 0.9864
-3.3610 0.1499 -0.4785 0.9865
-3.6292 -0.4881 -0.5209 0.9853
-8.3837 -1.8995 -1.2227 0.9659
-8.5173 -2.7465 -1.2729 0.9645
-8.7108 -4.6482 -1.4044 0.9609
-8.7634 -5.7328 -1.4895 0.9586
-8.7794 -6.9330 -1.5912 0.9558
-8.6677 -9.8007 -1.8610 0.9485
1.4060 11.4160 -1.6360 0.9546
-2.0684 8.6796 -1.2691 0.9646
-2.7019 8.0702 -1.2105 0.9662
-3.4850 7.9703 -1.2373 0.9655
-4.0356 7.3640 -1.1944 0.9666
-4.5367 6.7693 -1.1591 0.9676
-4.9951 6.1825 -1.1305 0.9684
-5.4159 5.6000 -1.1081 0.9690
-5.8036 5.0186 -1.0913 0.9695
-6.1618 4.4350 -1.0798 0.9698
-6.4933 3.8460 -1.0734 0.9700
-6.8007 3.2484 -1.0720 0.9700
-7.0858 2.6388 -1.0755 0.9699
-3.6717 0.6615 -0.5306 0.9850
-3.3525 0.2996 -0.4787 0.9865
-3.3916 -0.3031 -0.5422 0.9863
-7.8632 -1.4166 -1.2723 0.9682
-7.9836 -2.1869 -1.3181 0.9670
-8.0792 -3.0087 -1.3728 0.9657
-8.1471 -3.8915 -1.4377 0.9641
-8.1826 -5.8894 -1.6054 0.9600
-8.1378 -7.0370 -1.7131 0.9574
-8.0398 -8.3131 -1.8415 0.9542
-7.8759 -9.7482 -1.9956 0.9505
-7.6279 -11.3816 -2.1817 0.9460
6.0772 13.0961 -2.2990 0.9432
4.4262 12.3027 -2.0820 0.9484
3.0306 11.5676 -1.9042 0.9527
1.8352 10.8796 -1.7569 0.9563
0.7994 10.2299 -1.6339 0.9593
-0.0456 4.0930 -0.6518 0.9836
-0.9074 9.0195 -1.4435 0.9639
-2.2541 7.8832 -1.3056 0.9673
-4.5267 6.1436 -1.2152 0.9696
-4.9488 5.5957 -1.1895 0.9702
-5.3370 5.0477 -1.1697 0.9707
-5.6947 4.4971 -1.1555 0.9710
-6.0249 3.9413 -1.1464 0.9713
-6.6113 2.8034 -1.1435 0.9713
-6.8706 2.2155 -1.1495 0.9712
-3.3343 -0.1487 -0.5315 0.9866
-3.4817 -0.4682 -0.5594 0.9859
-7.9264 -1.7959 -1.2942 0.9676
-8.0347 -2.5908 -1.3443 0.9664
-8.1695 -4.3593 -1.4745 0.9632
-8.0961 -7.6571 -1.7744 0.9559
-7.9672 -9.0086 -1.9150 0.9525
-7.7638 -10.5371 -2.0842 0.9484
-7.4649 -12.2889 -2.2896 0.9434
5.2156 12.6913 -2.1849 0.9459
1.2994 10.5504 -1.6927 0.9579
0.3316 9.9173 -1.5801 0.9606
-1.9450 8.1614 -1.3360 0.9666
-2.5474 7.6087 -1.2777 0.9680
-3.0910 7.0694 -1.2286 0.9692
-4.3016 6.4184 -1.2303 0.9692
-4.7422 5.8695 -1.2016 0.9699
-5.5195 4.7729 -1.1619 0.9709
-6.1804 3.6607 -1.1438 0.9713
-6.4734 3.0921 -1.1424 0.9714
-6.7437 2.5114 -1.1459 0.9713
-3.1939 -0.0000 -0.5632 0.9871
-7.4609 -1.3442 -1.3368 0.9697
-7.6351 -2.8433 -1.4366 0.9674
-7.6614 -5.5143 -1.6644 0.9624
-7.4575 -7.7111 -1.8915 0.9574
7.2258 12.5155 -2.5482 0.9430
5.5071 11.8675 -2.3069 0.9482
4.0468 11.2481 -2.1078 0.9526
2.7912 10.6540 -1.9420 0.9563
1.7006 10.0819 -1.8028 0.9593
0.7446 9.5288 -1.6853 0.9619
-0.0456 4.0949 -0.7221 0.9835
-3.3787 6.8754 -1.3508 0.9694
-3.8623 6.3583 -1.3118 0.9702
-4.3050 5.8429 -1.2797 0.9710
-4.7114 5.3273 -1.2540 0.9715
-5.0850 4.8094 -1.2341 0.9720
-5.7459 3.7588 -1.2107 0.9725
-6.0376 3.2218 -1.2067 0.9726
-6.3059 2.6739 -1.2077 0.9726
-6.5517 2.1127 -1.2138 0.9724
-3.1779 0.4274 -0.5654 0.9871
-3.1644 0.1411 -0.5585 0.9872
-3.3507 -0.4506 -0.5961 0.9864
-7.6809 -5.0246 -1.6184 0.9634
-7.5299 -7.1217 -1.8275 0.9588
-7.3685 -8.3316 -1.9612 0.9558
-6.8040 -11.2008 -2.3108 0.9482
-6.3553 -12.9327 -2.5409 0.9432
1.2074 9.8031 -1.7416 0.9607
-0.4867 8.7289 -1.5415 0.9651
-1.8346 7.6986 -1.3955 0.9684
-3.6259 6.6165 -1.3304 0.9698
-4.5125 5.5852 -1.2661 0.9713
-5.5907 4.0240 -1.2146 0.9724
-6.1746 2.9494 -1.2066 0.9726
-4.2904 1.1753 -0.7844 0.9821
-3.4372 0.6192 -0.6158 0.9859
-3.1509 0.2816 -0.5578 0.9872
-3.1014 -0.0000 -0.6002 0.9874
-3.3117 -0.5966 -0.6512 0.9864
-7.1035 -6.1426 -1.8173 0.9625
-6.9514 -7.1877 -1.9350 0.9601
-6.7329 -8.3333 -2.0732 0.9573
-6.4334 -9.5993 -2.2362 0.9540
-6.0338 -11.0102 -2.4296 0.9501
-5.5079 -12.5968 -2.6606 0.9455
8.3097 11.8206 -2.7962 0.9428
6.5437 11.3341 -2.5327 0.9481
2.5858 9.8699 -1.9745 0.9593
0.6966 8.9142 -1.7303 0.9642
-0.0457 4.1027 -0.7940 0.9834
-0.8027 7.9792 -1.5519 0.9679
-1.4405 7.5150 -1.4808 0.9693
-3.2117 6.5357 -1.4092 0.9708
-3.6767 6.0528 -1.3705 0.9716
-4.1030 5.5687 -1.3386 0.9722
-6.0258 2.5552 -1.2666 0.9737
-3.6833 0.8345 -0.7309 0.9847
-3.2339 -0.4349 -0.6315 0.9868
-7.1409 -1.6179 -1.4169 0.9706
-7.1581 -5.6527 -1.7651 0.9635
-7.0350 -6.6536 -1.8739 0.9613
-6.8513 -7.7468 -2.0013 0.9587
-6.5942 -8.9497 -2.1513 0.9557
5.7596 11.0892 -2.4181 0.9504
4.3559 10.5994 -2.2176 0.9544
3.1368 10.1121 -2.0489 0.9578
1.1271 9.1512 -1.7843 0.9631
0.2902 8.6786 -1.6804 0.9652
-1.1300 7.7483 -1.5153 0.9686
-3.4494 6.2943 -1.3890 0.9712
-3.8945 5.8110 -1.3537 0.9719
-5.3411 3.8443 -1.2735 0.9735
-4.1641 1.1406 -0.8355 0.9826
-3.3306 0.6000 -0.6549 0.9863
-3.0211 0.0000 -0.6369 0.9877
-3.0994 -0.2770 -0.6560 0.9874
-6.8319 -1.8714 -1.4934 0.9715
-6.8726 -2.5594 -1.5461 0.9705
-6.2737 -7.7651 -2.1046 0.9600
-5.9624 -8.8966 -2.2578 0.9572
-5.0345 -11.5142 -2.6493 0.9499
-4.3675 -13.0449 -2.9002 0.9453
7.5208 10.6984 -2.7570 0.9479
5.9759 10.3506 -2.5197 0.9523
0.6541 8.3709 -1.7701 0.9663
-3.9180 5.3175 -1.3925 0.9734
-5.2547 3.4375 -1.3238 0.9747
-5.5231 2.9472 -1.3198 0.9747
-5.7680 2.4459 -1.3208 0.9747
-5.9903 1.9316 -1.3269 0.9746
-2.9940 0.1335 -0.6318 0.9878
-3.0505 -0.1361 -0.6438 0.9876
-3.1545 -0.4243 -0.6710 0.9871
-6.8007 -1.5408 -1.4701 0.9719
-6.8813 -2.9179 -1.5757 0.9699
-6.7382 -5.3212 -1.8101 0.9655
-6.5985 -6.2408 -1.9147 0.9636
-3.9683 -13.8782 -3.0431 0.9427
8.3810 10.8595 -2.8919 0.9455
1.0564 8.5771 -1.8219 0.9653
0.2730 8.1640 -1.7221 0.9672
-1.6459 6.9067 -1.4968 0.9714
-2.1700 6.4816 -1.4410 0.9724
-3.7169 5.5461 -1.4075 0.9731
-4.1107 5.0879 -1.3790 0.9736
-4.4727 4.6248 -1.3564 0.9740
-4.8056 4.1556 -1.3394 0.9744
-5.1114 3.6790 -1.3277 0.9746
-4.0001 1.0957 -0.8744 0.9832
-2.9810 0.2664 -0.6310 0.9878
-6.5425 -2.4365 -1.5935 0.9718
-6.5387 -3.1233 -1.6539 0.9707
-6.4992 -3.8495 -1.7241 0.9695
-6.2932 -5.4419 -1.8989 0.9664
-6.1133 -6.3212 -2.0071 0.9646
-5.8706 -7.2661 -2.1321 0.9624
-4.6335 -10.5969 -2.6398 0.9537
-3.9895 -11.9159 -2.8681 0.9497
-3.1852 -13.3655 -3.1360 0.9452
10.1986 10.0856 -3.2738 0.9428
8.4205 9.9599 -2.9768 0.9479
6.8645 9.7648 -2.7244 0.9522
5.4957 9.5189 -2.5087 0.9559
4.2857 9.2355 -2.3238 0.9591
3.2107 8.9243 -2.1647 0.9618
2.2512 8.5925 -2.0274 0.9642
1.3908 8.2454 -1.9086 0.9663
0.6163 7.8867 -1.8056 0.9681
-0.7187 7.1447 -1.6390 0.9710
-1.2957 6.7598 -1.5710 0.9722
-2.3010 5.9745 -1.4613 0.9741
-4.1122 4.6497 -1.4168 0.9749
-4.4473 4.2062 -1.3971 0.9752
-5.0372 3.2952 -1.3739 0.9756
-5.2952 2.8256 -1.3699 0.9757
-5.7418 1.8515 -1.3770 0.9756
-3.4289 0.7769 -0.8025 0.9857
-2.9453 0.1313 -0.6729 0.9880
-3.0959 -0.4164 -0.7130 0.9873
-6.4894 -1.4703 -1.5187 0.9731
-6.5448 -2.7752 -1.6226 0.9713
-6.5237 -3.4811 -1.6877 0.9701
-6.3625 -5.0244 -1.8504 0.9673
-6.2105 -5.8738 -1.9511 0.9655
-5.3623 -8.8276 -2.3574 0.9585
4.8725 9.3812 -2.4128 0.9576
3.7326 9.0828 -2.2413 0.9605
2.7176 8.7606 -2.0935 0.9631
0.9936 8.0674 -1.8552 0.9672
-0.2380 4.2685 -0.9758 0.9826
-2.0665 6.1723 -1.4856 0.9736
-2.5257 5.7764 -1.4389 0.9745
-3.1405 5.7306 -1.4915 0.9735
-3.5538 5.3026 -1.4570 0.9742
-3.9338 4.8689 -1.4287 0.9746
-4.2832 4.4289 -1.4063 0.9750
-4.6045 3.9816 -1.3894 0.9753
-4.8992 3.5263 -1.3778 0.9755
-5.1692 3.0617 -1.3713 0.9757
-5.6386 2.0998 -1.3733 0.9756
-3.8725 1.0608 -0.9164 0.9837
-3.1659 0.5704 -0.7342 0.9869
-2.9882 -0.2670 -0.7374 0.9877
-6.2405 -2.3240 -1.6368 0.9729
-5.9501 -5.1452 -1.9335 0.9681
-5.1942 -7.7502 -2.2933 0.9623
-1.9753 -13.5440 -3.3643 0.9452
9.2240 9.1218 -3.1887 0.9480
2.1129 8.0649 -2.0492 0.9662
-0.6827 6.7861 -1.6764 0.9723
-1.7361 6.0717 -1.5522 0.9743
-2.1970 5.7045 -1.5026 0.9751
-3.2080 5.2811 -1.5188 0.9749
-4.2663 4.0350 -1.4434 0.9761
-4.5634 3.6037 -1.4293 0.9763
-5.0838 2.7128 -1.4164 0.9765
-5.3089 2.2512 -1.4174 0.9765
-5.5114 1.7772 -1.4234 0.9764
-2.8899 0.3887 -0.7167 0.9881
-2.8978 0.1292 -0.7130 0.9881
-2.9494 -0.1315 -0.7257 0.9879
-3.0389 -0.4087 -0.7537 0.9874
-3.1571 -0.7153 -0.7957 0.9868
-6.2374 -2.6449 -1.6653 0.9725
-6.2056 -3.3114 -1.7289 0.9714
-6.1361 -4.0140 -1.8023 0.9702
-5.8631 -5.5453 -1.9836 0.9673
-5.6460 -6.3841 -2.0948 0.9655
-5.3635 -7.2793 -2.2225 0.9634
-2.4651 -12.8600 -3.2185 0.9475
10.0655 9.1037 -3.3359 0.9456
8.4307 9.1152 -3.0519 0.9501
6.9764 9.0395 -2.8067 0.9541
4.5205 8.7034 -2.4106 0.9604
3.4808 8.4701 -2.2509 0.9630
2.5456 8.2061 -2.1119 0.9652
1.7015 7.9183 -1.9907 0.9672
0.2437 7.2902 -1.7929 0.9704
-0.2349 4.2121 -1.0369 0.9828
-0.9641 6.6103 -1.6420 0.9729
-4.1079 4.2475 -1.4524 0.9760
-4.9626 2.9394 -1.4177 0.9765
-5.1992 2.4835 -1.4163 0.9765
-3.8036 1.0419 -0.9694 0.9839
-3.0843 0.5557 -0.7703 0.9872
-2.8807 0.2574 -0.7109 0.9882
-2.8744 0.0000 -0.7574 0.9882
-2.9343 -0.2622 -0.7763 0.9879
-3.0385 -0.5474 -0.8135 0.9873
-5.9630 -2.2206 -1.6767 0.9740
-5.9396 -2.8371 -1.7345 0.9731
-5.6400 -4.8771 -1.9647 0.9696
-5.4466 -5.6318 -2.0644 0.9681
-4.4792 -8.1736 -2.4559 0.9622
-3.3953 -10.1410 -2.8180 0.9567
-0.7565 -13.5669 -3.5804 0.9453
8.4134 8.3202 -3.1179 0.9522
7.0586 8.3490 -2.8808 0.9558
5.8343 8.2994 -2.6732 0.9589
4.7271 8.1876 -2.4912 0.9616
3.7247 8.0265 -2.3316 0.9641
1.9897 7.5946 -2.0687 0.9680
1.2377 7.3378 -1.9608 0.9697
0.5517 7.0608 -1.8662 0.9711
-0.0461 4.1380 -1.0904 0.9830
-0.6496 6.4577 -1.7102 0.9735
-1.1756 6.1330 -1.6455 0.9745
-2.1012 5.4558 -1.5405 0.9761
-2.6739 5.4413 -1.5975 0.9752
-3.4449 4.6755 -1.5303 0.9763
-3.7852 4.2800 -1.5056 0.9766
-2.8316 0.3808 -0.7528 0.9883
-2.8515 0.1271 -0.7521 0.9883
-2.9007 -0.1293 -0.7651 0.9881
-5.9626 -1.9227 -1.6508 0.9744
-5.8370 -3.8184 -1.8379 0.9716
-5.7173 -4.5149 -1.9196 0.9703
-5.0447 -6.8467 -2.2409 0.9654
-4.6883 -7.7179 -2.3795 0.9633
-4.2474 -8.6432 -2.5376 0.9609
-3.0514 -10.6715 -2.9246 0.9551
-0.1580 -14.1846 -3.7379 0.9430
10.7190 8.0836 -3.5376 0.9460
9.1439 8.2701 -3.2487 0.9503
7.7189 8.3456 -2.9955 0.9541
5.2669 8.2504 -2.5792 0.9603
4.2136 8.1126 -2.4088 0.9629
3.2592 7.9307 -2.2593 0.9652
2.3929 7.7139 -2.1282 0.9671
-0.9183 6.2966 -1.6767 0.9740
-1.4220 5.9670 -1.6163 0.9749
-2.3668 5.4130 -1.5567 0.9759
-2.8787 5.2530 -1.5784 0.9755
-3.2639 4.8701 -1.5448 0.9760
-3.6186 4.4788 -1.5172 0.9765
-3.9450 4.0791 -1.4953 0.9768
-4.5196 3.2530 -1.4673 0.9772
-4.7704 2.8255 -1.4609 0.9773
-4.9980 2.3873 -1.4595 0.9773
-5.2030 1.9376 -1.4630 0.9773
-3.7366 1.0236 -1.0209 0.9841
-3.0018 0.5408 -0.8037 0.9875
-2.8347 0.2533 -0.7499 0.9883
-2.8279 0.0000 -0.7956 0.9883
-2.9786 -0.5366 -0.8515 0.9875
-5.7070 -2.1253 -1.7134 0.9750
-5.6762 -2.7113 -1.7699 0.9742
-5.6105 -3.3231 -1.8347 0.9733
-5.5061 -3.9631 -1.9087 0.9722
-5.3584 -4.6335 -1.9931 0.9710
-5.1615 -5.3370 -2.0890 0.9696
-3.7290 -8.5284 -2.6189 0.9621
-3.1572 -9.4301 -2.7980 0.9595
-1.6568 -11.3599 -3.2300 0.9534
-0.6904 -12.3813 -3.4890 0.9498
12.0055 6.7542 -3.8757 0.9444
10.4664 7.1848 -3.5719 0.9486
9.0408 7.4725 -3.3001 0.9524
6.5242 7.7169 -2.8432 0.9589
5.4221 7.7131 -2.6527 0.9616
2.6505 7.3671 -2.2029 0.9680
0.5240 6.7053 -1.8923 0.9724
-0.0462 4.1471 -1.1669 0.9829
-1.5861 5.5470 -1.6232 0.9763
-2.0128 5.2261 -1.5757 0.9770
-2.5644 5.2184 -1.6359 0.9761
-4.4729 2.9260 -1.5038 0.9780
-4.7034 2.5098 -1.5000 0.9781
-5.0972 1.6437 -1.5069 0.9780
-2.8531 -0.1272 -0.8035 0.9882
-3.0353 -0.6877 -0.8756 0.9872
-5.5634 -3.6394 -1.8705 0.9728
-5.4380 -4.2943 -1.9496 0.9716
-5.0427 -5.7018 -2.1416 0.9689
-3.4562 -8.9738 -2.7056 0.9608
-2.0822 -10.8624 -3.1118 0.9551
-1.1938 -11.8666 -3.3556 0.9516
-0.1437 -12.8955 -3.6284 0.9478
1.0888 -13.9343 -3.9325 0.9436
11.2220 6.9891 -3.7197 0.9465
9.7394 7.3448 -3.4321 0.9506
8.3707 7.5708 -3.1755 0.9542
7.1131 7.6906 -2.9474 0.9574
3.9435 7.5925 -2.4072 0.9651
3.0625 7.4520 -2.2668 0.9671
2.2563 7.2738 -2.1427 0.9688
0.8413 6.8305 -1.9363 0.9718
-0.2339 4.1951 -1.1821 0.9827
-0.8764 6.0089 -1.7085 0.9751
-1.3593 5.7037 -1.6497 0.9759
-2.7620 5.0402 -1.6171 0.9764
-3.4775 4.3042 -1.5569 0.9773
-3.7933 3.9223 -1.5352 0.9776
-4.0834 3.5311 -1.5189 0.9778
-4.8102 2.2977 -1.4999 0.9781
-2.9229 0.5266 -0.8356 0.9877
-2.7884 0.2492 -0.7877 0.9884
-2.8308 -0.2530 -0.8509 0.9882
-2.9224 -0.5265 -0.8890 0.9877
-5.3617 -3.1757 -1.8656 0.9743
-5.2526 -3.7805 -1.9375 0.9733
-5.1012 -4.4112 -2.0190 0.9722
-4.9025 -5.0692 -2.1112 0.9710
-4.6505 -5.7560 -2.2154 0.9696
-2.9486 -8.8069 -2.7804 0.9620
-1.5317 -10.5020 -3.1774 0.9567
2.9897 -13.9131 -4.2604 0.9423
12.2637 5.5258 -4.0270 0.9454
9.5496 6.5554 -3.4677 0.9528
8.3042 6.8636 -3.2254 0.9560
7.1412 7.0621 -3.0068 0.9589
6.0610 7.1690 -2.8105 0.9616
5.0612 7.1998 -2.6348 0.9639
4.1381 7.1675 -2.4777 0.9660
3.2869 7.0830 -2.3377 0.9679
2.5024 6.9554 -2.2130 0.9696
1.1131 6.5991 -2.0035 0.9724
-0.0463 4.1600 -1.2455 0.9828
-1.5195 5.3142 -1.6547 0.9772
-1.9308 5.0134 -1.6084 0.9778
-3.7950 3.5893 -1.5638 0.9784
-4.0638 3.2091 -1.5502 0.9786
-4.3090 2.8189 -1.5416 0.9787
-4.5316 2.4181 -1.5377 0.9788
-4.9102 1.5833 -1.5445 0.9787
-2.7204 0.3658 -0.8218 0.9886
-2.8771 -0.3869 -0.8691 0.9880
-2.9771 -0.6745 -0.9139 0.9873
-3.1092 -1.0026 -0.9780 0.9865
-5.4555 -2.3133 -1.7741 0.9756
-5.3121 -3.4750 -1.9004 0.9738
-5.0081 -4.7367 -2.0637 0.9716
-4.7836 -5.4089 -2.1617 0.9703
-3.7375 -7.6056 -2.5370 0.9652
-3.2349 -8.3991 -2.6946 0.9631
-2.6368 -9.2216 -2.8714 0.9607
-0.1316 -11.8119 -3.5365 0.9519
11.5608 5.8419 -3.8779 0.9474
8.9168 6.7244 -3.3435 0.9544
6.5909 7.1260 -2.9060 0.9603
5.5513 7.1930 -2.7202 0.9628
3.7038 7.1311 -2.4057 0.9670
2.8866 7.0241 -2.2735 0.9688
0.7996 6.4928 -1.9585 0.9731
-0.2334 4.1865 -1.2553 0.9826
-0.8377 5.7439 -1.7378 0.9761
-2.6536 4.8423 -1.6531 0.9772
-3.0137 4.4967 -1.6206 0.9777
-3.6516 3.7758 -1.5725 0.9783
-4.1893 3.0153 -1.5453 0.9787
-4.6345 2.2137 -1.5376 0.9788
-3.5598 0.9751 -1.1050 0.9847
-2.8694 -0.5169 -0.9259 0.9878
-2.9540 -0.8092 -0.9727 0.9872
-5.1319 -3.0396 -1.8942 0.9753
-5.0191 -3.6125 -1.9639 0.9744
-4.8654 -4.2072 -2.0428 0.9734
-4.6660 -4.8246 -2.1316 0.9722
-2.7641 -8.2558 -2.7650 0.9641
-2.1452 -9.0015 -2.9388 0.9619
2.7124 -12.6225 -4.1002 0.9473
4.0963 -13.2051 -4.3909 0.9436
13.5456 3.3880 -4.4344 0.9431
12.3340 4.2828 -4.1465 0.9467
7.6728 6.3418 -3.1614 0.9591
6.6324 6.5590 -2.9624 0.9616
5.6555 6.6894 -2.7819 0.9639
4.7425 6.7463 -2.6189 0.9660
1.6890 6.4467 -2.1165 0.9724
1.0590 6.2783 -2.0221 0.9736
-0.0466 4.1791 -1.3273 0.9826
-2.3675 4.8179 -1.7048 0.9777
-3.6578 3.4595 -1.5989 0.9791
-4.1553 2.7183 -1.5770 0.9794
-4.3703 2.3321 -1.5732 0.9794
-2.7186 0.1212 -0.8642 0.9886
-2.7612 -0.1231 -0.8778 0.9885
-2.9205 -0.6617 -0.9510 0.9875
-5.0803 -3.3234 -1.9280 0.9748
-4.9476 -3.9071 -2.0022 0.9739
-4.5476 -5.1420 -2.1800 0.9716
-4.2694 -5.7944 -2.2858 0.9702
-3.9304 -6.4703 -2.4043 0.9687
-3.5229 -7.1690 -2.5368 0.9670
-1.7977 -9.3787 -3.0328 0.9607
-1.0198 -10.1373 -3.2357 0.9581
0.9075 -11.6135 -3.6995 0.9523
2.0749 -12.3007 -3.9617 0.9490
3.3863 -12.9254 -4.2434 0.9455
11.7241 4.6660 -4.0074 0.9484
10.5201 5.3160 -3.7434 0.9517
8.2159 6.1959 -3.2681 0.9577
4.3096 6.7509 -2.5436 0.9669
2.7284 6.6392 -2.2796 0.9703
2.0224 6.5195 -2.1678 0.9718
1.3679 6.3660 -2.0679 0.9730
0.7616 6.1842 -1.9788 0.9742
0.1999 5.9781 -1.8996 0.9752
-0.2329 4.1779 -1.3289 0.9826
-0.8020 5.4989 -1.7648 0.9769
-2.5523 4.6575 -1.6867 0.9780
-2.9008 4.3284 -1.6548 0.9784
-3.5188 3.6384 -1.6075 0.9790
-4.0395 2.9075 -1.5806 0.9793
-4.4696 2.1349 -1.5731 0.9794
-2.6951 0.2408 -0.8593 0.9887
-2.6945 -0.0000 -0.9053 0.9887
-2.7374 -0.2446 -0.9234 0.9885
-2.8177 -0.5076 -0.9619 0.9880
-2.8971 -0.7936 -1.0092 0.9874
-5.0445 -1.8785 -1.8086 0.9775
-4.9981 -2.3874 -1.8610 0.9769
-4.8033 -3.4572 -1.9884 0.9753
-4.2012 -5.1999 -2.2460 0.9722
-1.3280 -9.1055 -3.0916 0.9619
-0.5447 -9.7688 -3.2872 0.9596
1.3548 -11.0005 -3.7239 0.9543
2.4800 -11.5407 -3.9660 0.9514
5.0761 -12.3520 -4.4868 0.9452
6.5255 -12.5639 -4.7567 0.9420
12.2253 3.0578 -4.2340 0.9482
10.1585 4.5772 -3.7435 0.9541
7.1255 5.8894 -3.1059 0.9617
3.6716 6.3594 -2.4672 0.9695
2.9351 6.3250 -2.3427 0.9710
2.2473 6.2466 -2.2304 0.9724
1.6063 6.1315 -2.1296 0.9736
0.4540 5.8103 -1.9581 0.9757
-0.0468 4.1986 -1.4107 0.9824
-0.5421 5.3888 -1.8197 0.9774
-1.8559 4.8189 -1.7350 0.9784
-2.2787 4.6371 -1.7359 0.9784
-2.6297 4.3290 -1.7018 0.9789
-2.9541 4.0094 -1.6733 0.9792
-3.2535 3.6788 -1.6500 0.9795
-4.2186 2.2511 -1.6065 0.9800
-4.4049 1.8678 -1.6075 0.9800
-2.6762 0.1193 -0.9001 0.9888
-2.7168 -0.1212 -0.9137 0.9886
-2.7751 -0.3732 -0.9408 0.9883
-5.0561 -1.6304 -1.7849 0.9778
-5.0252 -2.1309 -1.8339 0.9772
-4.0573 -5.5066 -2.2981 0.9716
-3.7255 -6.1331 -2.4110 0.9702
-1.6811 -8.7704 -3.0003 0.9630
-0.9496 -9.4387 -3.1873 0.9608
-0.1124 -10.0901 -3.3903 0.9583
1.9025 -11.2791 -3.8431 0.9529
4.3862 -12.1917 -4.3532 0.9468
5.7901 -12.4774 -4.6216 0.9436
10.6815 4.2512 -3.8626 0.9526
4.8717 6.3124 -2.6790 0.9669
3.2971 6.3481 -2.4034 0.9703
0.7268 5.9011 -1.9976 0.9752
-0.2330 4.1780 -1.4059 0.9825
-0.7688 5.2716 -1.7899 0.9778
-1.1975 5.0252 -1.7357 0.9784
-1.5952 4.7647 -1.6882 0.9790
-2.0929 4.7865 -1.7552 0.9782
-2.4576 4.4846 -1.7181 0.9787
-3.8986 2.8061 -1.6139 0.9799
-4.1174 2.4387 -1.6078 0.9800
-4.3144 2.0608 -1.6064 0.9800
-4.4899 1.6721 -1.6097 0.9800
-2.6518 -0.0000 -0.9403 0.9888
-2.6931 -0.2407 -0.9588 0.9886
-2.8417 -0.7784 -1.0448 0.9876
-4.8526 -1.8071 -1.8361 0.9783
-4.8027 -2.2941 -1.8873 0.9777
-4.7205 -2.7960 -1.9454 0.9770
-4.6032 -3.3132 -2.0111 0.9762
-4.2494 -4.3938 -2.1674 0.9744
-3.3548 -6.1217 -2.4752 0.9708
-2.9382 -6.7200 -2.6006 0.9694
-2.4522 -7.3242 -2.7388 0.9678
-1.8897 -7.9295 -2.8904 0.9660
-1.2439 -8.5290 -3.0563 0.9641
-0.5082 -9.1138 -3.2367 0.9620
0.3232 -9.6649 -3.4290 0.9598
1.2529 -10.1727 -3.6343 0.9574
2.2821 -10.6202 -3.8518 0.9549
4.6228 -11.2490 -4.3124 0.9497
5.9111 -11.3809 -4.5474 0.9470
8.6070 -11.1524 -4.9952 0.9420
12.7257 2.0010 -4.5678 0.9468
11.4068 2.8530 -4.1693 0.9513
8.4285 4.7418 -3.4291 0.9598
7.5223 5.1638 -3.2353 0.9620
6.6448 5.4927 -3.0570 0.9641
4.2043 5.9806 -2.5922 0.9695
3.4726 6.0147 -2.4626 0.9710
2.1368 5.9393 -2.2382 0.9736
0.9618 5.7020 -2.0504 0.9758
-0.5200 5.1690 -1.8421 0.9782
-0.9482 4.9467 -1.7860 0.9789
-1.3463 4.7084 -1.7364 0.9794
-1.8288 4.7485 -1.8043 0.9786
-2.1954 4.4676 -1.7651 0.9791
-3.1402 3.5508 -1.6808 0.9801
-3.6518 2.8838 -1.6499 0.9804
-3.8744 2.5345 -1.6416 0.9805
-4.0755 2.1748 -1.6380 0.9806
-4.4140 1.4233 -1.6445 0.9805
-2.5615 0.5803 -0.9313 0.9889
-2.6346 0.1175 -0.9351 0.9889
-2.6733 -0.1192 -0.9489 0.9887
-4.8315 -2.0487 -1.8608 0.9780
-4.7658 -2.5431 -1.9154 0.9773
-4.6665 -3.0527 -1.9773 0.9766
-4.5304 -3.5776 -2.0469 0.9758
-4.3539 -4.1179 -2.1250 0.9749
-4.1331 -4.6734 -2.2122 0.9739
-3.5390 -5.8260 -2.4171 0.9715
-3.1548 -6.4198 -2.5364 0.9701
-2.7043 -7.0216 -2.6680 0.9686
-2.1809 -7.6271 -2.8129 0.9669
-1.5776 -8.2305 -2.9716 0.9651
-0.1047 -9.3941 -3.3312 0.9609
2.8334 -10.8151 -3.9643 0.9537
4.0052 -11.1326 -4.1952 0.9510
7.9284 -11.2784 -4.8884 0.9432
13.8366 0.3083 -4.9075 0.9430
12.3001 2.5001 -4.4506 0.9481
10.6956 3.1876 -3.9574 0.9537
8.8862 4.4904 -3.5304 0.9586
7.9733 4.9658 -3.3307 0.9609
3.1227 6.0124 -2.4023 0.9717
1.8288 5.8952 -2.1887 0.9741
1.2399 5.7703 -2.0927 0.9753
0.6945 5.6385 -2.0144 0.9762
0.1828 5.4673 -1.9397 0.9771
-0.2331 4.1801 -1.4845 0.9824
-0.7380 5.0600 -1.8132 0.9785
-1.1509 4.8295 -1.7604 0.9792
-3.7658 2.7105 -1.6452 0.9805
-3.9776 2.3560 -1.6392 0.9806
-4.1681 1.9909 -1.6379 0.9806
-2.5828 0.7075 -0.9496 0.9887
-2.6624 0.4796 -0.9592 0.9886
-2.6060 0.2329 -0.9277 0.9890
-2.6101 0.0000 -0.9746 0.9889
-4.6727 -1.7401 -1.8619 0.9789
-3.8235 -4.7324 -2.2718 0.9744
-3.5333 -5.2720 -2.3699 0.9733
-3.1893 -5.8197 -2.4781 0.9721
-2.7864 -6.3726 -2.5971 0.9707
-1.7817 -7.4765 -2.8700 0.9677
1.1642 -9.4529 -3.5565 0.9601
3.1398 -10.1218 -3.9573 0.9558
4.2397 -10.3168 -4.1650 0.9535
6.5902 -10.3233 -4.5734 0.9490
8.9665 -9.6944 -4.9310 0.9452
11.0775 -8.3539 -5.1809 0.9425
13.3418 -2.7118 -5.0838 0.9435
13.1597 -1.4721 -4.9446 0.9450
12.7916 -0.2851 -4.7777 0.9468
11.6142 1.8262 -4.3901 0.9510
10.8681 2.7183 -4.1833 0.9533
7.8293 4.4047 -3.3544 0.9624
6.2150 5.1368 -3.0108 0.9662
5.4363 5.3761 -2.8550 0.9679
4.6890 5.5460 -2.7119 0.9695
3.2922 5.7022 -2.4587 0.9723
2.6408 5.6908 -2.3427 0.9736
1.4581 5.5655 -2.1484 0.9757
-1.7622 4.5755 -1.8309 0.9793
-3.2925 3.1141 -1.6923 0.9808
-3.9403 2.1026 -1.6677 0.9811
-4.1141 1.7445 -1.6686 0.9811
-2.5436 0.5763 -0.9739 0.9889
-2.5325 0.3406 -0.9542 0.9891
-2.5920 0.1156 -0.9689 0.9890
-2.6307 -0.1173 -0.9833 0.9888
-2.6781 -0.3602 -1.0090 0.9885
-4.6501 -1.9718 -1.8861 0.9787
-4.4808 -2.9312 -1.9994 0.9774
-3.9499 -4.4663 -2.2264 0.9749
-3.6848 -5.0011 -2.3196 0.9738
-0.0978 -8.7812 -3.2792 0.9632
0.7221 -9.2416 -3.4614 0.9612
2.6160 -9.9857 -3.8546 0.9569
3.6816 -10.2331 -4.0609 0.9546
5.9905 -10.3760 -4.4739 0.9501
7.1919 -10.2305 -4.6697 0.9480
8.3847 -9.9174 -4.8494 0.9461
9.5319 -9.4262 -5.0058 0.9444
10.5925 -8.7550 -5.1315 0.9430
11.5255 -7.9118 -5.2202 0.9421
13.3559 -3.3405 -5.1409 0.9429
12.5465 0.2796 -4.6862 0.9478
11.9538 1.3372 -4.4915 0.9499
9.0452 3.5999 -3.6352 0.9593
8.2371 4.1624 -3.4462 0.9614
5.8224 5.2661 -2.9315 0.9670
3.6291 5.6848 -2.5184 0.9716
2.9644 5.7074 -2.4015 0.9729
1.1846 5.5127 -2.1055 0.9762
0.6645 5.3948 -2.0297 0.9771
0.1752 5.2395 -1.9576 0.9779
-0.2332 4.1823 -1.5641 0.9823
-1.5183 4.5351 -1.7858 0.9798
-1.9429 4.4436 -1.8110 0.9795
-2.6021 3.8827 -1.7453 0.9802
-2.8954 3.5837 -1.7204 0.9805
-3.1658 3.2734 -1.7004 0.9807
-3.6403 2.6201 -1.6748 0.9810
-4.1931 1.5616 -1.6708 0.9811
-2.6096 0.4701 -0.9901 0.9887
-2.5629 0.2290 -0.9608 0.9891
-2.5691 0.0000 -1.0083 0.9890
-2.6073 -0.2330 -1.0273 0.9888
-2.6685 -0.4808 -1.0642 0.9884
-2.7221 -0.7457 -1.1077 0.9879
-4.0879 -3.5350 -2.1211 0.9770
-3.6561 -4.5252 -2.2833 0.9753
-3.3722 -5.0317 -2.3773 0.9743
-3.0376 -5.5429 -2.4807 0.9732
-2.6478 -6.0556 -2.5939 0.9720
-2.1982 -6.5657 -2.7174 0.9707
-1.1019 -7.5550 -2.9965 0.9677
0.2823 -8.4440 -3.3159 0.9643
1.0864 -8.8209 -3.4881 0.9625
9.1415 -8.2679 -4.8375 0.9484
10.0306 -7.5645 -4.9307 0.9474
11.3941 -5.7577 -5.0104 0.9466
11.9676 -1.3388 -4.7262 0.9496
11.6686 -0.2600 -4.5807 0.9511
11.2277 0.7516 -4.4164 0.9528
10.0234 2.5070 -4.0551 0.9566
8.8056 3.0576 -3.6584 0.9607
8.0329 3.6195 -3.4579 0.9628
5.8378 4.8250 -2.9724 0.9680
4.4286 5.2382 -2.6921 0.9710
3.7609 5.3499 -2.5666 0.9723
3.1222 5.4078 -2.4508 0.9735
1.9383 5.3875 -2.2471 0.9757
1.3938 5.3203 -2.1585 0.9766
0.8807 5.2212 -2.0781 0.9775
0.3986 5.1011 -2.0081 0.9783
-0.0479 4.2967 -1.6864 0.9817
-0.4801 4.7726 -1.8825 0.9796
-0.8775 4.5781 -1.8295 0.9802
-1.2495 4.3698 -1.7838 0.9807
-1.6995 4.4128 -1.8559 0.9799
-2.3629 3.8898 -1.7862 0.9806
-3.1840 3.0114 -1.7200 0.9813
-3.4142 2.6962 -1.7074 0.9815
-3.6236 2.3704 -1.6994 0.9816
-3.8122 2.0343 -1.6959 0.9816
-2.5568 0.5793 -1.0289 0.9888
-2.4910 0.3350 -0.9865 0.9893
-2.5490 0.1137 -1.0014 0.9891
-2.5889 -0.1155 -1.0171 0.9889
-2.7236 -0.8782 -1.1231 0.9878
-4.4095 -2.3530 -1.9616 0.9788
-4.1703 -3.2933 -2.0855 0.9774
-3.2115 -5.2869 -2.4278 0.9738
-2.8499 -5.7993 -2.5360 0.9726
-2.4308 -6.3113 -2.6544 0.9714
-1.9496 -6.8181 -2.7832 0.9700
-1.4019 -7.3137 -2.9227 0.9685
-0.0917 -8.2371 -3.2330 0.9652
0.6751 -8.6392 -3.4010 0.9634
1.5160 -8.9873 -3.5771 0.9616
2.4276 -9.2662 -3.7594 0.9597
3.4032 -9.4593 -3.9454 0.9577
4.4312 -9.5491 -4.1316 0.9558
6.5735 -9.3509 -4.4860 0.9521
7.6385 -9.0348 -4.6434 0.9504
8.6587 -8.5628 -4.7794 0.9490
9.6002 -7.9347 -4.8882 0.9479
12.1026 -3.0271 -4.8962 0.9478
11.8373 -0.7924 -4.6562 0.9503
9.6740 2.8832 -3.9618 0.9576
8.3907 3.3394 -3.5443 0.9619
6.9357 4.3196 -3.2068 0.9655
6.2015 4.6767 -3.0484 0.9672
5.4778 4.9544 -2.8988 0.9688
3.4378 5.3852 -2.5075 0.9729
2.8144 5.4187 -2.3964 0.9741
1.6621 5.3581 -2.2018 0.9762
0.1681 5.0274 -1.9742 0.9786
-0.2333 4.1845 -1.6449 0.9822
-1.5087 4.5061 -1.8650 0.9798
-1.8746 4.2872 -1.8364 0.9801
-2.2061 4.0256 -1.8016 0.9805
-2.5138 3.7508 -1.7721 0.9808
-3.0609 3.1650 -1.7280 0.9813
-3.3018 2.8552 -1.7132 0.9814
-3.7204 2.2036 -1.6971 0.9816
-4.0566 1.5107 -1.6989 0.9816
-3.4629 0.9486 -1.4092 0.9847
-2.5206 0.2253 -0.9932 0.9892
-2.5289 0.0000 -1.0413 0.9891
-2.5655 -0.2293 -1.0607 0.9889
-4.2874 -2.0479 -1.9565 0.9797
-4.2002 -2.4877 -2.0102 0.9791
-4.0806 -2.9370 -2.0703 0.9785
-3.9262 -3.3951 -2.1374 0.9778
-3.7340 -3.8609 -2.2117 0.9770
-3.5008 -4.3330 -2.2939 0.9762
-3.2234 -4.8096 -2.3842 0.9753
-2.8979 -5.2881 -2.4831 0.9743
-2.5208 -5.7651 -2.5910 0.9731
-1.0413 -7.1394 -2.9710 0.9693
0.2652 -7.9333 -3.2686 0.9662
3.6271 -8.8260 -3.9293 0.9596
5.5591 -8.7083 -4.2543 0.9563
6.5304 -8.4617 -4.4014 0.9548
7.4722 -8.0789 -4.5315 0.9535
9.8378 -6.1270 -4.7725 0.9511
10.7749 -4.2883 -4.7754 0.9511
11.0012 -3.2787 -4.7270 0.9516
10.7154 -0.2388 -4.4135 0.9547
10.3408 0.6922 -4.2677 0.9562
9.8589 1.5503 -4.1096 0.9577
5.4996 4.5456 -2.9381 0.9696
4.8394 4.7858 -2.8027 0.9710
4.1950 4.9619 -2.6756 0.9723
2.9716 5.1469 -2.4473 0.9746
1.8522 5.1482 -2.2530 0.9766
1.3343 5.0929 -2.1679 0.9775
0.8455 5.0128 -2.0933 0.9782
0.3827 4.8968 -2.0226 0.9790
-0.0530 4.7559 -1.9585 0.9796
-1.2386 4.3318 -1.8552 0.9807
-1.6404 4.2593 -1.8795 0.9804
-1.9737 4.0163 -1.8427 0.9808
-2.2836 3.7594 -1.8113 0.9812
-2.8367 3.2075 -1.7632 0.9816
-3.5078 2.2947 -1.7261 0.9820
-3.6906 1.9694 -1.7226 0.9821
-2.6388 0.5979 -1.1141 0.9884
-2.5068 0.1118 -1.0333 0.9892
-2.5854 -0.3477 -1.0742 0.9888
-2.6299 -0.5959 -1.1104 0.9884
-4.3196 -1.8317 -1.9320 0.9799
-4.2477 -2.2666 -1.9826 0.9794
-4.1446 -2.7113 -2.0394 0.9788
-3.0669 -5.0488 -2.4325 0.9748
-2.7161 -5.5270 -2.5359 0.9737
-2.3116 -6.0018 -2.6484 0.9726
-1.3266 -6.9208 -2.9017 0.9700
-0.7396 -7.3517 -3.0426 0.9685
-0.0863 -7.7505 -3.1917 0.9670
1.4175 -8.4036 -3.5093 0.9638
2.2625 -8.6358 -3.6761 0.9621
6.0468 -8.6016 -4.3296 0.9555
7.0067 -8.2875 -4.4689 0.9541
8.7680 -7.2469 -4.6841 0.9520
9.5119 -6.5295 -4.7508 0.9513
10.1293 -5.6986 -4.7858 0.9510
10.5996 -4.7759 -4.7873 0.9510
10.9090 -3.7880 -4.7552 0.9513
11.0518 -2.7642 -4.6911 0.9519
11.0307 -1.7345 -4.5981 0.9528
10.8558 -0.7267 -4.4802 0.9540
10.1120 1.1312 -4.1899 0.9569
9.5846 1.9481 -4.0275 0.9586
7.8642 3.1299 -3.4854 0.9640
6.5042 4.0509 -3.1553 0.9674
3.8803 5.0279 -2.6153 0.9729
3.2683 5.1196 -2.5011 0.9741
1.5897 5.1248 -2.2095 0.9771
0.6107 4.9581 -2.0571 0.9786
-0.6569 4.5041 -1.8743 0.9805
-1.0279 4.3132 -1.8258 0.9810
-1.8100 4.1396 -1.8604 0.9806
-2.1315 3.8895 -1.8264 0.9810
-2.4301 3.6260 -1.7974 0.9813
-2.7066 3.3500 -1.7734 0.9815
-2.9616 3.0622 -1.7542 0.9817
-3.4088 2.4535 -1.7295 0.9820
-3.7745 1.8029 -1.7225 0.9821
-3.9271 1.4625 -1.7256 0.9820
-2.5181 0.4537 -1.0536 0.9890
-2.4793 0.2215 -1.0250 0.9893
-2.5221 -0.2254 -1.0923 0.9890
-2.5507 -0.6987 -1.1408 0.9885
-4.0475 -2.3973 -2.0292 0.9797
-3.9280 -2.8272 -2.0876 0.9791
-3.5851 -3.7070 -2.2245 0.9778
-3.3563 -4.1542 -2.3037 0.9770
-3.0853 -4.6036 -2.3905 0.9761
-1.5153 -6.3585 -2.8196 0.9719
0.9560 -7.7622 -3.3736 0.9665
3.3780 -8.2200 -3.8335 0.9620
6.0323 -7.8162 -4.2589 0.9579
7.6873 -6.9527 -4.4711 0.9559
9.5275 -4.8145 -4.6047 0.9546
10.1050 -3.0116 -4.5483 0.9551
10.1741 -2.0679 -4.4784 0.9558
10.1009 -1.1300 -4.3843 0.9567
9.5742 0.6409 -4.1392 0.9591
9.1532 1.4393 -3.9968 0.9604
8.6515 2.1639 -3.8469 0.9619
8.0879 2.8084 -3.6931 0.9634
7.0748 3.1878 -3.3473 0.9668
6.4235 3.6138 -3.1792 0.9684
5.8110 3.9891 -3.0404 0.9698
5.1946 4.2934 -2.9070 0.9711
4.5827 4.5320 -2.7802 0.9723
3.9821 4.7100 -2.6605 0.9735
3.3976 4.8332 -2.5484 0.9746
2.2907 4.9364 -2.3474 0.9766
0.8114 4.8106 -2.1044 0.9790
-0.4451 4.4242 -1.9181 0.9808
-1.2319 4.3083 -1.9329 0.9807
-1.5846 4.1142 -1.9018 0.9810
-2.2086 3.6358 -1.8350 0.9816
-2.4878 3.3765 -1.8091 0.9819
-2.7459 3.1048 -1.7879 0.9821
-3.3978 2.2227 -1.7514 0.9825
-3.5751 1.9078 -1.7480 0.9825
-3.7326 1.5828 -1.7489 0.9825
-3.8701 1.2480 -1.7541 0.9824
-2.5715 0.5826 -1.1373 0.9886
-2.4106 0.3242 -1.0492 0.9895
-2.5277 -0.3399 -1.1001 0.9890
-2.5465 -0.5769 -1.1263 0.9887
-2.5665 -0.8276 -1.1632 0.9883
-2.6695 -1.1320 -1.2508 0.9874
-4.0953 -2.1853 -2.0023 0.9800
-3.9918 -2.6113 -2.0576 0.9794
-3.8558 -3.0448 -2.1193 0.9788
-3.6847 -3.4849 -2.1877 0.9781
-3.4758 -3.9302 -2.2632 0.9774
-3.2263 -4.3788 -2.3462 0.9766
-2.9330 -4.8284 -2.4369 0.9757
-2.5927 -5.2759 -2.5358 0.9747
-0.6996 -6.9545 -3.0150 0.9700
-0.0815 -7.3126 -3.1546 0.9686
1.3300 -7.8844 -3.4491 0.9658
2.1165 -8.0786 -3.6024 0.9643
2.9483 -8.1949 -3.7568 0.9628
3.8149 -8.2209 -3.9094 0.9613
6.4647 -7.6464 -4.3192 0.9573
7.2953 -7.2145 -4.4258 0.9563
9.2947 -5.2291 -4.6003 0.9546
9.7260 -4.3823 -4.6016 0.9546
10.0154 -3.4777 -4.5733 0.9549
10.1577 -2.5406 -4.5166 0.9554
10.1547 -1.5968 -4.4341 0.9562
8.9113 1.8113 -3.9225 0.9612
7.7884 3.0997 -3.6159 0.9641
6.1184 3.8106 -3.1092 0.9691
5.5027 4.1498 -2.9729 0.9704
4.8876 4.4206 -2.8427 0.9717
4.2807 4.6282 -2.7194 0.9729
3.6876 4.7781 -2.6035 0.9740
3.1127 4.8759 -2.4953 0.9751
2.0285 4.9360 -2.3020 0.9770
1.5225 4.9080 -2.2166 0.9779
1.0416 4.8469 -2.1385 0.9786
0.1553 4.6438 -2.0043 0.9800
-0.2336 4.1890 -1.8098 0.9819
-1.7489 4.0000 -1.8832 0.9812
-2.0609 3.7607 -1.8498 0.9815
-2.6194 3.2421 -1.7979 0.9820
-2.8672 2.9647 -1.7790 0.9822
-3.4889 2.0665 -1.7492 0.9825
-3.6563 1.7465 -1.7479 0.9825
-2.4719 0.4453 -1.0835 0.9891
-2.4593 -0.4430 -1.1275 0.9891
-2.4890 -0.9269 -1.1984 0.9884
-3.9921 -1.9068 -1.9962 0.9808
-3.9035 -2.3120 -2.0471 0.9803
-3.6326 -3.1412 -2.1669 0.9791
-3.2214 -3.9872 -2.3129 0.9778
-2.9568 -4.4119 -2.3965 0.9770
-2.6492 -4.8342 -2.4874 0.9761
-0.9361 -6.4184 -2.9267 0.9719
-0.3769 -6.7598 -3.0549 0.9707
0.2361 -7.0609 -3.1878 0.9695
0.9008 -7.3138 -3.3251 0.9682
1.6137 -7.5094 -3.4657 0.9669
2.3689 -7.6367 -3.6078 0.9655
3.9697 -7.6429 -3.8860 0.9629
4.7891 -7.5020 -4.0159 0.9617
5.5990 -7.2548 -4.1350 0.9606
6.3796 -6.8975 -4.2394 0.9596
7.1097 -6.4304 -4.3255 0.9588
8.3345 -5.1907 -4.4304 0.9578
9.4085 -1.9123 -4.3321 0.9587
8.5334 1.3418 -3.8977 0.9628
7.5793 2.6318 -3.6202 0.9654
4.9179 4.0647 -2.8789 0.9724
4.3487 4.3006 -2.7597 0.9735
3.2379 4.6060 -2.5404 0.9756
2.7050 4.6852 -2.4411 0.9765
2.1912 4.7218 -2.3488 0.9774
1.6981 4.7201 -2.2634 0.9782
1.2271 4.6840 -2.1848 0.9790
0.7796 4.6215 -2.1148 0.9796
0.3537 4.5266 -2.0487 0.9803
-0.0491 4.4069 -1.9886 0.9808
-0.7868 4.1046 -1.8858 0.9818
-1.1961 4.1832 -1.9632 0.9811
-1.5316 3.9768 -1.9229 0.9815
-2.1373 3.5185 -1.8576 0.9821
-2.6595 3.0071 -1.8114 0.9825
-3.7506 1.2095 -1.7782 0.9829
-2.4395 -0.1088 -1.1018 0.9893
-3.9515 -2.1086 -2.0209 0.9805
-3.7127 -2.9319 -2.1346 0.9795
-3.5437 -3.3516 -2.2009 0.9788
-2.8086 -4.6235 -2.4410 0.9765
-2.1012 -5.4555 -2.6379 0.9747
-1.1954 -6.2365 -2.8653 0.9725
-0.6633 -6.5932 -2.9900 0.9713
-0.0770 -6.9162 -3.1209 0.9701
0.5621 -7.1939 -3.2559 0.9688
3.5619 -7.6757 -3.8181 0.9635
5.1964 -7.3920 -4.0771 0.9611
5.9943 -7.0900 -4.1893 0.9601
6.7523 -6.6775 -4.2850 0.9592
7.4491 -6.1569 -4.3607 0.9585
8.5777 -4.8257 -4.4409 0.9577
8.9756 -4.0442 -4.4420 0.9577
9.3976 -1.4777 -4.2924 0.9591
9.2837 -0.6215 -4.1984 0.9600
9.0565 0.2018 -4.0875 0.9610
8.3184 1.6908 -3.8301 0.9634
7.3083 2.9086 -3.5492 0.9661
4.0666 4.3968 -2.7024 0.9741
3.5107 4.5489 -2.5927 0.9751
2.9692 4.6512 -2.4899 0.9761
2.4456 4.7086 -2.3941 0.9770
1.9420 4.7255 -2.3052 0.9778
1.4598 4.7061 -2.2233 0.9786
1.0002 4.6543 -2.1480 0.9793
0.5637 4.5773 -2.0810 0.9800
-1.6911 3.8677 -1.9047 0.9816
-1.9939 3.6384 -1.8721 0.9820
-2.7774 2.8718 -1.8027 0.9826
-3.1996 2.3030 -1.7788 0.9828
-3.3814 2.0029 -1.7733 0.9829
-3.5438 1.6927 -1.7721 0.9829
-3.8097 1.0436 -1.7823 0.9828
-2.4063 0.4335 -1.1032 0.9893
-2.3848 0.2131 -1.0804 0.9895
-2.3615 -0.0000 -1.1132 0.9896
-2.3934 -0.6556 -1.1698 0.9891
-2.4034 -0.8950 -1.2089 0.9887
-3.7674 -2.2315 -2.0640 0.9808
-3.6490 -2.6263 -2.1192 0.9803
-3.4988 -3.0256 -2.1804 0.9798
-3.0951 -3.8309 -2.3216 0.9785
-2.8369 -4.2330 -2.4020 0.9777
-2.5379 -4.6310 -2.4893 0.9769
-2.1957 -5.0217 -2.5835 0.9761
-1.8082 -5.4008 -2.6847 0.9751
-0.3577 -6.4142 -3.0282 0.9720
0.8509 -6.9088 -3.2812 0.9697
2.2273 -7.1800 -3.5436 0.9673
2.9623 -7.2083 -3.6735 0.9661
5.2185 -6.7618 -4.0262 0.9629
7.2099 -5.4372 -4.2567 0.9609
8.4658 -3.3693 -4.2950 0.9605
8.7408 -1.7766 -4.2045 0.9613
8.7037 -0.9737 -4.1283 0.9620
8.3142 0.5566 -3.9279 0.9638
7.5834 1.8968 -3.6848 0.9660
6.6218 2.9836 -3.4236 0.9684
5.8274 3.2784 -3.1518 0.9709
5.1950 3.5661 -2.9702 0.9725
2.0986 4.5223 -2.3500 0.9782
1.6289 4.5276 -2.2681 0.9789
0.3406 4.3581 -2.0606 0.9809
-0.0473 4.2476 -2.0023 0.9814
-1.1561 4.0432 -1.9822 0.9816
-1.4814 3.8464 -1.9429 0.9819
-1.7857 3.6338 -1.9086 0.9823
-2.3332 3.1667 -1.8541 0.9828
-2.5772 2.9141 -1.8337 0.9829
-3.0069 2.3745 -1.8060 0.9832
-3.5080 1.4875 -1.7961 0.9833
-2.5265 0.5724 -1.2211 0.9886
-2.2973 0.3090 -1.0926 0.9898
-2.3488 0.1047 -1.1083 0.9897
-2.3799 -0.3201 -1.1319 0.9894
-3.8154 -2.0360 -2.0386 0.9811
-3.7120 -2.4283 -2.0909 0.9806
-3.5780 -2.8255 -2.1491 0.9800
-3.2097 -3.6293 -2.2838 0.9788
-2.6926 -4.4327 -2.4448 0.9773
-2.3723 -4.8275 -2.5355 0.9765
-2.0077 -5.2130 -2.6332 0.9756
-1.5968 -5.5844 -2.7379 0.9746
-1.1379 -5.9365 -2.8493 0.9736
-0.6300 -6.2629 -2.9671 0.9725
-0.0730 -6.5554 -3.0903 0.9714
0.5316 -6.8033 -3.2167 0.9703
1.8699 -7.1372 -3.4778 0.9679
2.5918 -7.2040 -3.6089 0.9667
3.3372 -7.1915 -3.7371 0.9655
5.5819 -6.6023 -4.0754 0.9625
7.9548 -4.4753 -4.3024 0.9604
8.3236 -3.7504 -4.3034 0.9604
8.7163 -2.1801 -4.2352 0.9610
8.7363 -1.3737 -4.1687 0.9616
8.6439 -0.5786 -4.0836 0.9624
8.4477 0.1883 -3.9830 0.9633
8.1593 0.9128 -3.8701 0.9643
7.3603 2.1936 -3.6203 0.9666
6.3580 3.2128 -3.3579 0.9690
4.9310 3.7186 -2.9112 0.9731
3.8702 4.1844 -2.6867 0.9751
3.3476 4.3376 -2.5828 0.9761
2.8366 4.4434 -2.4849 0.9770
1.8614 4.5294 -2.3083 0.9786
1.4013 4.5174 -2.2295 0.9793
0.9614 4.4738 -2.1570 0.9800
0.1440 4.3057 -2.0308 0.9811
-0.9855 4.1352 -2.0039 0.9814
-1.3214 3.9468 -1.9619 0.9818
-2.4576 3.0419 -1.8434 0.9829
-2.9067 2.5135 -1.8114 0.9832
-3.2789 1.9421 -1.7964 0.9833
-3.6936 1.0118 -1.8052 0.9832
-2.3515 0.4237 -1.1263 0.9895
-2.3243 0.2077 -1.1000 0.9897
-2.2975 0.0000 -1.1300 0.9898
-2.3082 -0.4158 -1.1536 0.9896
-2.3278 -0.8669 -1.2217 0.9890
-2.3666 -1.1304 -1.2900 0.9884
-3.6386 -2.1552 -2.0800 0.9813
-3.3727 -2.9165 -2.1931 0.9803
-2.9766 -3.6842 -2.3296 0.9791
-2.4340 -4.4414 -2.4911 0.9777
-1.7286 -5.1630 -2.6780 0.9760
-1.3107 -5.4998 -2.7809 0.9751
0.2121 -6.3423 -3.1212 0.9721
0.8056 -6.5408 -3.2414 0.9711
2.0997 -6.7687 -3.4857 0.9689
3.4879 -6.7154 -3.7219 0.9668
6.1623 -5.5734 -4.0868 0.9636
7.2006 -4.4845 -4.1723 0.9629
7.5924 -3.8366 -4.1841 0.9628
7.8852 -3.1382 -4.1742 0.9629
8.1531 -1.6572 -4.0921 0.9636
8.1284 -0.9093 -4.0229 0.9642
7.7896 0.5215 -3.8399 0.9658
4.9276 3.3826 -2.9398 0.9737
3.9373 3.8937 -2.7236 0.9756
2.4762 4.2888 -2.4358 0.9782
1.5641 4.3475 -2.2725 0.9796
1.1334 4.3261 -2.1996 0.9803
-0.3997 3.9736 -1.9643 0.9824
-1.1181 3.9103 -2.0004 0.9820
-1.7291 3.5187 -1.9284 0.9827
-2.4986 2.8252 -1.8551 0.9833
-2.7170 2.5697 -1.8394 0.9835
-2.9166 2.3032 -1.8279 0.9836
-3.2597 1.7395 -1.8173 0.9837
-3.5276 1.1375 -1.8231 0.9836
-2.5042 0.5674 -1.2629 0.9886
-2.2893 0.1021 -1.1271 0.9898
-2.3108 -0.3108 -1.1468 0.9897
-2.3142 -0.5243 -1.1671 0.9895
-2.3375 -0.9912 -1.2488 0.9887
-3.6865 -1.9672 -2.0553 0.9815
-3.5835 -2.3442 -2.1062 0.9811
-3.4508 -2.7251 -2.1627 0.9806
-3.2865 -3.1084 -2.2250 0.9800
-3.0887 -3.4925 -2.2932 0.9794
-2.8553 -3.8753 -2.3676 0.9788
-2.5843 -4.2543 -2.4483 0.9781
-1.9210 -4.9877 -2.6289 0.9765
1.1167 -6.6205 -3.3023 0.9705
2.4408 -6.7842 -3.5462 0.9684
3.1363 -6.7584 -3.6647 0.9673
5.8598 -5.7949 -4.0535 0.9639
6.4495 -5.3307 -4.1155 0.9634
7.4083 -4.1679 -4.1809 0.9628
7.7517 -3.4927 -4.1818 0.9628
8.1262 -2.0325 -4.1201 0.9633
8.1536 -1.2821 -4.0596 0.9639
7.9077 0.1762 -3.8904 0.9654
7.6516 0.8560 -3.7869 0.9663
7.3216 1.4882 -3.6748 0.9672
6.9302 2.0654 -3.5568 0.9683
6.4896 2.5828 -3.4354 0.9693
5.3211 3.3140 -3.0833 0.9724
3.6892 3.9886 -2.6723 0.9761
3.1968 4.1423 -2.5736 0.9769
1.3465 4.3407 -2.2353 0.9799
0.5224 4.2416 -2.1020 0.9811
0.1388 4.1511 -2.0429 0.9817
-0.9527 3.9979 -2.0215 0.9818
-1.5839 3.6224 -1.9446 0.9825
-1.8695 3.4114 -1.9133 0.9828
-2.1355 3.1865 -1.8867 0.9830
-2.6101 2.6989 -1.8467 0.9834
-2.8191 2.4378 -1.8331 0.9835
-3.0094 2.1660 -1.8237 0.9836
-3.1809 1.8841 -1.8184 0.9837
-3.3338 1.5924 -1.8172 0.9837
-3.4678 1.2914 -1.8201 0.9836
-2.3061 0.4155 -1.1525 0.9896
-2.2658 0.2025 -1.1189 0.9899
-2.2359 0.0000 -1.1463 0.9900
-2.2443 -0.2005 -1.1552 0.9899
-2.2481 -0.6158 -1.1950 0.9896
-3.5164 -2.0828 -2.0953 0.9818
-3.3998 -2.4470 -2.1475 0.9813
-3.2535 -2.8134 -2.2051 0.9809
-2.6193 -3.9083 -2.4120 0.9791
-2.3367 -4.2639 -2.4927 0.9784
-2.0156 -4.6098 -2.5793 0.9776
-1.6546 -4.9419 -2.6718 0.9768
-0.8088 -5.5457 -2.8732 0.9751
0.2015 -6.0281 -3.0921 0.9733
1.9842 -6.3963 -3.4334 0.9703
4.5809 -5.9356 -3.8438 0.9669
6.2850 -4.7397 -4.0357 0.9652
7.0965 -3.5860 -4.0763 0.9649
7.6315 -1.5512 -3.9924 0.9656
7.6166 -0.8520 -3.9292 0.9661
7.3201 0.4900 -3.7612 0.9676
7.0553 1.1094 -3.6615 0.9684
5.9210 2.6679 -3.3294 0.9712
2.8267 4.0211 -2.5199 0.9781
2.3733 4.1107 -2.4334 0.9789
1.9314 4.1621 -2.3523 0.9796
1.5033 4.1785 -2.2766 0.9802
1.0907 4.1632 -2.2064 0.9808
-0.0440 3.9547 -2.0276 0.9824
-0.7564 3.9463 -2.0600 0.9821
-1.3881 3.6042 -1.9801 0.9828
-1.9433 3.1991 -1.9190 0.9833
-2.1927 2.9759 -1.8951 0.9835
-2.4235 2.7403 -1.8755 0.9837
-2.6360 2.4931 -1.8601 0.9838
-3.0061 1.9665 -1.8416 0.9840
-3.4234 1.1039 -1.8441 0.9840
-2.4709 0.5598 -1.2989 0.9887
-2.2093 0.2971 -1.1428 0.9900
-2.2319 0.0995 -1.1453 0.9900
-2.2425 -0.5081 -1.1788 0.9897
-2.2530 -0.7265 -1.2136 0.9894
-3.4617 -2.2645 -2.1207 0.9816
-3.3304 -2.6300 -2.1756 0.9811
-1.8401 -4.7778 -2.6248 0.9772
-1.4587 -5.1014 -2.7201 0.9764
-0.0660 -5.9227 -3.0366 0.9737
0.4784 -6.1225 -3.1484 0.9728
1.0584 -6.2745 -3.2622 0.9718
2.9554 -6.3687 -3.5994 0.9689
4.8926 -5.7870 -3.8850 0.9665
6.0347 -4.9878 -4.0138 0.9654
6.5177 -4.4741 -4.0530 0.9651
7.4729 -2.5948 -4.0555 0.9651
7.4252 0.1654 -3.8076 0.9672
6.1374 2.4426 -3.3865 0.9707
4.4855 3.3827 -2.8802 0.9751
3.9890 3.6078 -2.7574 0.9761
2.5988 4.0709 -2.4760 0.9785
2.1508 4.1409 -2.3922 0.9792
0.8906 4.1445 -2.1733 0.9811
0.5035 4.0881 -2.1116 0.9817
0.1339 4.0049 -2.0543 0.9821
-0.9216 3.8673 -2.0382 0.9823
-1.5340 3.5085 -1.9631 0.9829
-1.8116 3.3058 -1.9326 0.9832
-2.5321 2.6181 -1.8673 0.9838
-2.7354 2.3654 -1.8539 0.9839
-3.2356 1.5455 -1.8383 0.9840
-3.4766 0.9524 -1.8480 0.9839
-2.1765 -0.0000 -1.1619 0.9902
-2.1811 -0.1949 -1.1690 0.9901
-2.1932 -0.8167 -1.2494 0.9894
-2.2033 -1.0524 -1.3035 0.9890
-3.4002 -2.0140 -2.1097 0.9822
-3.2847 -2.3642 -2.1605 0.9818
-3.1406 -2.7157 -2.2165 0.9814
-2.7599 -3.4160 -2.3444 0.9803
-2.5202 -3.7604 -2.4166 0.9797
-1.9342 -4.4237 -2.5775 0.9783
-1.1983 -5.0285 -2.7596 0.9768
-0.3087 -5.5369 -2.9604 0.9752
0.7263 -5.8968 -3.1718 0.9734
2.4849 -6.0466 -3.4899 0.9708
3.7118 -5.8144 -3.6826 0.9692
4.3108 -5.5856 -3.7666 0.9685
5.8971 -4.4472 -3.9430 0.9671
6.9129 -2.7513 -3.9720 0.9668
7.0839 -2.1112 -3.9461 0.9670
