ply
format ascii 1.0
element vertex 1583
property float32 x
property float32 y
property float32 z
property float32 I
end_header
-8.2920 -1.1152 0.4873 0.9670
-7.9929 -1.8110 0.4773 0.9677
-8.9632 -0.8010 0.3742 0.9646
-8.2148 -1.4800 0.3471 0.9671
-8.0990 -2.2186 0.3492 0.9669
-8.2628 -2.6644 0.3610 0.9658
9.9318 10.7382 0.6082 0.9431
-2.2255 4.5288 0.1258 0.9800
-12.3648 8.0887 0.3685 0.9426
-8.5347 -2.7521 0.2236 0.9648
9.9402 10.7472 0.3651 0.9431
-12.6483 7.4916 0.3666 0.9429
-13.8096 5.1427 0.3675 0.9427
-14.4269 3.9519 0.3730 0.9419
-8.5863 -1.5469 0.0725 0.9657
-8.5169 -2.3330 0.0734 0.9653
-9.6102 10.8664 0.1206 0.9436
-10.1920 9.6396 0.1166 0.9454
-10.7447 8.4850 0.1138 0.9467
-11.2795 7.3787 0.1120 0.9475
-12.3336 5.2299 0.1113 0.9478
-13.3834 3.0322 0.1140 0.9466
-8.9805 -1.2078 0.0753 0.9644
-9.3043 11.5160 0.1230 0.9425
-9.9055 10.2422 0.1184 0.9446
-10.4713 9.0548 0.1151 0.9461
-11.5432 6.8370 0.1115 0.9477
-12.6004 4.6925 0.1118 0.9476
-13.5652 2.4439 0.1146 0.9464
-14.1613 1.2654 0.1182 0.9447
-8.7809 9.9287 -0.1102 0.9484
-9.3391 8.8328 -0.1068 0.9499
-9.8654 7.7906 -0.1045 0.9510
-10.3696 6.7835 -0.1030 0.9516
-10.8600 5.7950 -0.1023 0.9520
-11.3442 4.8103 -0.1024 0.9519
-12.7045 1.7086 -0.1065 0.9500
-13.2318 0.5900 -0.1101 0.9484
-13.7952 -0.6152 -0.1148 0.9463
-8.7969 -1.9931 -0.0750 0.9646
-7.8573 11.7238 -0.1173 0.9451
-9.0647 9.3728 -0.1084 0.9492
-10.1197 7.2837 -0.1036 0.9513
-10.6160 6.2879 -0.1026 0.9518
-11.5862 4.3148 -0.1028 0.9517
-12.4701 2.2465 -0.1053 0.9506
-12.9644 1.1585 -0.1082 0.9493
-12.4186 -0.0000 -0.3097 0.9515
-12.9081 -1.1535 -0.3232 0.9495
-13.4325 -2.4200 -0.3404 0.9469
-14.0050 -3.8363 -0.3621 0.9436
-2.2390 4.5561 -0.1266 0.9799
-6.8706 11.3105 -0.3300 0.9484
-8.0832 9.1398 -0.3043 0.9524
-8.6177 8.1505 -0.2958 0.9536
-10.0540 5.3650 -0.2842 0.9554
-11.3863 2.5798 -0.2912 0.9544
-11.7279 1.5772 -0.2951 0.9538
-12.1836 0.5433 -0.3041 0.9524
-13.1652 -1.7706 -0.3313 0.9482
-5.7737 13.2047 -0.3594 0.9440
-6.5269 11.9100 -0.3387 0.9471
-7.8004 9.6546 -0.3095 0.9515
-8.3552 8.6392 -0.2997 0.9530
-8.8719 7.6718 -0.2925 0.9542
-9.8265 5.8202 -0.2848 0.9553
-10.2788 4.9098 -0.2841 0.9554
-10.7229 3.9932 -0.2854 0.9552
-11.9537 1.0682 -0.2993 0.9531
-11.4909 -0.0000 -0.4778 0.9550
-11.9052 -1.0638 -0.4970 0.9533
-13.2933 -4.9505 -0.5898 0.9448
-2.7945 14.5788 -0.6172 0.9423
-4.8830 12.6784 -0.5649 0.9471
-2.2453 4.5691 -0.2117 0.9798
-6.3250 10.4124 -0.5066 0.9524
-6.9334 9.4101 -0.4860 0.9543
-7.4878 8.4665 -0.4700 0.9558
-7.9993 7.5657 -0.4578 0.9569
-8.9281 5.8405 -0.4436 0.9582
-9.7748 4.1449 -0.4415 0.9584
-10.1807 3.2828 -0.4448 0.9581
-10.9035 1.4663 -0.4574 0.9569
-11.6962 -0.5216 -0.4868 0.9542
-12.5635 -2.8465 -0.5356 0.9497
9.9887 10.7997 -0.6117 0.9428
-4.4597 13.3204 -0.5841 0.9453
-5.2779 12.0709 -0.5478 0.9486
-6.6368 9.9028 -0.4957 0.9534
-7.2166 8.9321 -0.4775 0.9551
-10.3813 2.8437 -0.4476 0.9578
-12.5844 -6.0111 -0.8123 0.9457
-1.4695 14.6072 -0.8551 0.9429
-2.5351 13.2254 -0.7843 0.9475
-3.4362 12.0173 -0.7280 0.9512
-2.2517 4.5821 -0.2974 0.9798
-6.4420 8.7431 -0.6325 0.9574
-6.9734 7.8849 -0.6131 0.9587
-8.7529 4.6707 -0.5778 0.9610
-9.5163 3.0686 -0.5824 0.9607
-9.8815 2.2388 -0.5901 0.9602
-10.8679 -0.4846 -0.6336 0.9573
-11.2252 -1.5096 -0.6597 0.9556
-12.8049 -6.8329 -0.8453 0.9435
9.9972 10.8088 -0.8575 0.9427
-4.5642 10.4387 -0.6636 0.9554
-7.2229 7.4684 -0.6051 0.9592
-7.6947 6.6538 -0.5925 0.9601
-8.1359 5.8558 -0.5838 0.9606
-8.5524 5.0656 -0.5789 0.9610
-9.3303 3.4746 -0.5799 0.9609
-9.6999 2.6571 -0.5858 0.9605
-10.0615 1.8127 -0.5955 0.9599
-10.3006 -0.9205 -0.7750 0.9594
-10.6052 -1.9106 -0.8075 0.9577
-10.9104 -2.9887 -0.8477 0.9556
-11.5347 -5.5097 -0.9580 0.9500
9.5425 11.2869 -1.1076 0.9424
-0.1623 14.5693 -1.0919 0.9432
-3.8974 10.1195 -0.8127 0.9574
-2.2582 4.5953 -0.3837 0.9797
-6.0149 8.1634 -0.7599 0.9601
-6.5243 7.3771 -0.7380 0.9613
-6.9932 6.6142 -0.7213 0.9621
-7.4286 5.8663 -0.7094 0.9627
-8.2197 4.3861 -0.6982 0.9633
-9.2675 2.0997 -0.7121 0.9626
-10.1478 -0.4525 -0.7612 0.9601
-10.4530 -1.4058 -0.7904 0.9586
-11.6963 -6.2414 -0.9935 0.9482
-12.0317 -7.8708 -1.0774 0.9440
-2.7567 11.5677 -0.8912 0.9534
-4.8420 8.8356 -0.7550 0.9604
-5.7424 8.5682 -0.7730 0.9595
-6.2751 7.7668 -0.7483 0.9607
-6.7634 6.9933 -0.7291 0.9617
-7.6354 5.4956 -0.7050 0.9630
-8.0304 4.7564 -0.6994 0.9633
-8.4041 4.0143 -0.6980 0.9633
-8.7600 3.2622 -0.7005 0.9632
-9.1013 2.4931 -0.7072 0.9629
-9.6933 0.8663 -0.7292 0.9617
-10.8804 -6.4445 -1.1593 0.9505
-11.1121 -7.9980 -1.2552 0.9465
9.4773 11.2098 -1.3458 0.9427
1.1310 14.4740 -1.3310 0.9434
-0.1474 13.2262 -1.2126 0.9483
-3.6252 9.4127 -0.9247 0.9603
-2.2647 4.6086 -0.4708 0.9796
-5.6399 7.6546 -0.8717 0.9625
-6.1286 6.9297 -0.8481 0.9635
-6.5781 6.2216 -0.8301 0.9643
-6.9945 5.5235 -0.8171 0.9648
-7.3827 4.8295 -0.8088 0.9652
-7.7465 4.1337 -0.8050 0.9653
-8.0896 3.4303 -0.8056 0.9653
-8.4146 2.7133 -0.8105 0.9651
-10.7633 -5.7435 -1.1185 0.9522
-10.9964 -7.1936 -1.2047 0.9486
-11.2267 -8.8657 -1.3115 0.9442
-0.7060 12.6616 -1.1626 0.9503
-1.6956 11.6259 -1.0771 0.9539
-2.5470 10.6876 -1.0073 0.9568
-3.2883 9.8218 -0.9496 0.9592
-4.5257 8.2583 -0.8633 0.9629
-5.3787 8.0256 -0.8857 0.9619
-5.8896 7.2896 -0.8592 0.9631
-6.3579 6.5740 -0.8384 0.9639
-6.7901 5.8717 -0.8230 0.9646
-7.1919 5.1764 -0.8124 0.9650
-7.5674 4.4821 -0.8063 0.9653
-8.2542 3.0739 -0.8075 0.9652
-8.5711 2.3479 -0.8147 0.9649
-3.7849 -0.0000 -0.4105 0.9849
-9.2935 -1.6744 -1.0243 0.9627
-9.6985 -3.6118 -1.1225 0.9592
-9.8805 -4.7196 -1.1877 0.9569
-10.0471 -5.9510 -1.2666 0.9541
-10.1958 -7.3385 -1.3626 0.9507
9.4129 11.1336 -1.5814 0.9430
2.4140 14.3109 -1.5742 0.9433
1.0268 13.1403 -1.4296 0.9484
-0.1349 12.1067 -1.3133 0.9525
-2.7278 9.5400 -1.0762 0.9609
-3.3878 8.7963 -1.0224 0.9628
-4.5043 7.4151 -0.9411 0.9657
-5.3081 7.2042 -0.9706 0.9646
-5.7772 6.5324 -0.9459 0.9655
-6.6073 5.2178 -0.9132 0.9667
-7.3237 3.9080 -0.9004 0.9672
-4.7637 1.0793 -0.5298 0.9805
-3.7517 0.5046 -0.4106 0.9849
-3.7330 0.1664 -0.4053 0.9851
-9.1843 -1.2352 -1.0052 0.9634
-9.6021 -3.0963 -1.0943 0.9602
-9.7913 -4.1519 -1.1536 0.9581
-10.1239 -6.6228 -1.3122 0.9525
-10.2625 -8.1043 -1.4184 0.9487
10.0226 10.8363 -1.6010 0.9423
0.4216 12.6087 -1.3684 0.9505
-1.5669 10.7434 -1.1776 0.9573
-2.3657 9.9270 -1.1069 0.9598
-3.6900 8.4393 -0.9991 0.9636
-4.2469 7.7496 -0.9585 0.9651
-4.7496 7.0869 -0.9254 0.9663
-5.9973 6.2011 -0.9357 0.9659
-7.4883 3.5768 -0.9001 0.9672
-7.8023 2.9056 -0.9031 0.9671
-3.9949 0.7197 -0.4403 0.9838
-3.7414 0.3343 -0.4074 0.9850
-8.7497 -1.5763 -1.1141 0.9648
-8.9238 -2.4445 -1.1595 0.9634
-9.0799 -3.3814 -1.2142 0.9617
-9.2162 -4.4023 -1.2799 0.9597
-9.3300 -5.5262 -1.3589 0.9572
-9.4720 -8.1907 -1.5692 0.9508
9.3490 11.0581 -1.8146 0.9433
3.6856 14.0677 -1.8224 0.9431
0.9399 12.0280 -1.5119 0.9525
-1.0423 10.3604 -1.3049 0.9589
-1.8436 9.6178 -1.2272 0.9613
-2.5504 8.9193 -1.1625 0.9633
-5.0121 6.8025 -1.0589 0.9665
-5.4628 6.1769 -1.0334 0.9673
-6.2596 4.9431 -0.9995 0.9684
-6.6139 4.3266 -0.9904 0.9686
-6.9433 3.7051 -0.9862 0.9688
-7.2503 3.0744 -0.9869 0.9688
-7.5367 2.4303 -0.9924 0.9686
-3.5494 0.4774 -0.4488 0.9857
-3.6310 -0.1619 -0.4555 0.9855
-8.8389 -2.0027 -1.1357 0.9641
-9.0042 -2.9035 -1.1856 0.9626
-9.3772 -6.1343 -1.4042 0.9558
-9.4760 -10.7147 -1.7925 0.9440
10.0312 10.8456 -1.8513 0.9422
2.9033 13.5110 -1.7318 0.9458
1.5389 12.4953 -1.5777 0.9505
0.3873 11.5834 -1.4524 0.9544
-0.5995 10.7518 -1.3495 0.9575
-2.2076 9.2637 -1.1934 0.9623
-2.8738 8.5836 -1.1344 0.9642
-3.4667 7.9286 -1.0844 0.9657
-4.4812 6.6864 -1.0087 0.9681
-5.2423 6.4885 -1.0453 0.9669
-5.6742 5.8670 -1.0228 0.9676
-6.0721 5.2507 -1.0060 0.9682
-6.4400 4.6352 -0.9944 0.9685
-6.7816 4.0167 -0.9877 0.9687
-7.0995 3.3911 -0.9860 0.9688
-3.8077 0.6860 -0.4848 0.9845
-3.3944 0.0000 -0.4828 0.9864
-8.2640 -1.4888 -1.1944 0.9666
-8.7464 -6.2953 -1.5328 0.9574
-8.7479 -7.5646 -1.6450 0.9543
-8.5946 -10.6377 -1.9452 0.9462
9.3209 11.0249 -2.0535 0.9433
4.9404 13.7321 -2.0758 0.9427
3.3430 12.7603 -1.8762 0.9481
-1.7246 8.9971 -1.3030 0.9637
-2.3939 8.3721 -1.2386 0.9654
-2.2846 4.6491 -0.7368 0.9793
-5.1798 5.8568 -1.1121 0.9689
-5.5781 5.2757 -1.0921 0.9695
-5.9453 4.6949 -1.0775 0.9699
-6.2848 4.1113 -1.0682 0.9701
-6.8907 2.9219 -1.0646 0.9702
-7.1609 2.3091 -1.0702 0.9701
-3.3671 0.4528 -0.4832 0.9864
-3.3610 0.1499 -0.4785 0.9865
-3.4470 -0.1537 -0.4908 0.9862
-8.3393 -1.8895 -1.2162 0.9660
-8.4743 -2.7326 -1.2665 0.9647
-8.7306 -5.7113 -1.4839 0.9587
-8.7525 -6.9118 -1.5863 0.9559
-8.7313 -8.2581 -1.7094 0.9526
2.6458 12.3122 -1.7912 0.9504
1.4136 11.4772 -1.6448 0.9544
-0.5572 9.9936 -1.4237 0.9604
-1.3594 9.3205 -1.3397 0.9627
-2.0688 8.6812 -1.2694 0.9646
-3.2678 7.4737 -1.1602 0.9676
-5.7654 4.9855 -1.0841 0.9697
-6.7476 3.2230 -1.0636 0.9702
-7.2885 1.9965 -1.0749 0.9699
-3.6717 0.6615 -0.5307 0.9850
-3.2915 -0.0000 -0.5241 0.9868
-3.3916 -0.3031 -0.5422 0.9863
-7.8275 -1.4102 -1.2665 0.9683
-7.9492 -2.1775 -1.3124 0.9672
-8.0468 -2.9967 -1.3673 0.9658
-8.1176 -3.8775 -1.4325 0.9642
-8.1622 -5.8748 -1.6014 0.9601
-7.8784 -9.7512 -1.9962 0.9505
-7.6413 -11.4015 -2.1856 0.9459
6.1684 13.2925 -2.3335 0.9424
3.0575 11.6705 -1.9211 0.9523
0.8030 10.2768 -1.6414 0.9591
-2.2550 7.8862 -1.3061 0.9673
-2.8260 7.3376 -1.2521 0.9687
-4.5063 6.1160 -1.2097 0.9697
-5.3068 5.0191 -1.1631 0.9708
-5.9855 3.9155 -1.1389 0.9714
-6.5635 2.7832 -1.1352 0.9715
-6.8193 2.1989 -1.1409 0.9714
-3.9744 0.9005 -0.6489 0.9836
-3.3344 -0.1487 -0.5315 0.9866
-8.0860 -7.6477 -1.7723 0.9559
-7.9651 -9.0063 -1.9145 0.9525
3.7381 12.0506 -2.0091 0.9502
2.4292 11.3045 -1.8412 0.9542
1.3066 10.6088 -1.7021 0.9576
-0.5204 9.3323 -1.4884 0.9628
-1.2744 8.7379 -1.4061 0.9649
-1.9459 8.1654 -1.3367 0.9666
-2.5482 7.6110 -1.2781 0.9680
-3.5786 6.5301 -1.1857 0.9703
-4.0235 6.0034 -1.1508 0.9712
-5.8259 4.1932 -1.1430 0.9713
-6.4276 3.0702 -1.1343 0.9716
-6.6941 2.4929 -1.1375 0.9715
-4.5041 1.2338 -0.7436 0.9813
-3.5501 0.6396 -0.5744 0.9855
-3.2454 0.2900 -0.5188 0.9869
-7.4328 -1.3391 -1.3317 0.9698
-7.6105 -2.8342 -1.4320 0.9676
-7.6721 -4.5442 -1.5723 0.9644
-7.5804 -6.5550 -1.7671 0.9601
-7.4582 -7.7117 -1.8917 0.9574
7.3550 12.7392 -2.5938 0.9420
5.5859 12.0372 -2.3399 0.9475
4.0926 11.3755 -2.1317 0.9521
0.7482 9.5744 -1.6934 0.9617
-0.1005 9.0205 -1.5907 0.9640
-0.8535 8.4840 -1.5035 0.9660
-2.1307 7.4515 -1.3666 0.9690
-3.6172 5.9548 -1.2285 0.9721
-4.6901 5.3032 -1.2483 0.9717
-5.0594 4.7852 -1.2279 0.9721
-5.3992 4.2637 -1.2131 0.9724
-6.2646 2.6564 -1.1998 0.9727
-6.5072 2.0983 -1.2056 0.9726
-3.1779 0.4274 -0.5654 0.9871
-3.1644 0.1411 -0.5585 0.9872
-3.2276 -0.1439 -0.5697 0.9870
-7.4868 -1.6963 -1.3536 0.9693
-7.5759 -2.4429 -1.4036 0.9682
-7.6693 -4.0925 -1.5328 0.9653
-7.6206 -6.0180 -1.7122 0.9613
-7.1462 -9.6989 -2.1243 0.9522
-6.8266 -11.2381 -2.3185 0.9480
4.8089 11.7017 -2.2308 0.9499
2.2445 10.4450 -1.8838 0.9575
1.2143 9.8588 -1.7515 0.9605
0.3108 9.2951 -1.6399 0.9629
-1.1990 8.2212 -1.4650 0.9668
-1.8362 7.7053 -1.3967 0.9683
-2.4106 7.2001 -1.3388 0.9696
-2.9285 6.6977 -1.2890 0.9707
-2.5626 4.6762 -0.9402 0.9786
-3.8264 5.7094 -1.2119 0.9725
-4.4935 5.5617 -1.2607 0.9714
-5.5588 4.0010 -1.2077 0.9726
-6.1351 2.9305 -1.1989 0.9728
-6.3886 2.3791 -1.2021 0.9727
-3.1509 0.2815 -0.5578 0.9872
-3.1015 0.0000 -0.6002 0.9874
-3.1775 -0.2840 -0.6174 0.9871
-3.3117 -0.5966 -0.6512 0.9864
-7.2169 -2.6876 -1.4903 0.9691
-7.2448 -3.4606 -1.5537 0.9678
-7.2387 -4.2875 -1.6281 0.9663
-7.1934 -5.1775 -1.7151 0.9645
-6.9570 -7.1935 -1.9366 0.9600
-6.4545 -9.6307 -2.2436 0.9539
-5.5442 -12.6798 -2.6781 0.9452
6.6543 11.5256 -2.5755 0.9472
5.1013 10.9930 -2.3452 0.9518
3.7666 10.4695 -2.1532 0.9557
-0.0944 8.4734 -1.6399 0.9661
-0.8044 7.9960 -1.5552 0.9678
-1.4425 7.5253 -1.4828 0.9693
-2.3145 4.7098 -1.0155 0.9788
-4.0492 5.4956 -1.3210 0.9726
-4.8328 4.5708 -1.2873 0.9733
-5.1602 4.0749 -1.2724 0.9736
-5.4610 3.5724 -1.2629 0.9738
-5.7372 3.0615 -1.2584 0.9739
-5.9902 2.5400 -1.2591 0.9738
-3.1048 0.4176 -0.6062 0.9873
-3.2339 -0.4350 -0.6315 0.9868
-7.2463 -3.8668 -1.5894 0.9671
-7.2213 -4.7240 -1.6699 0.9655
-7.1541 -5.6496 -1.7641 0.9635
-7.0371 -6.6557 -1.8744 0.9613
-6.8604 -7.7572 -2.0040 0.9587
-6.2726 -10.3263 -2.3381 0.9520
-5.8219 -11.8473 -2.5545 0.9476
7.5295 11.7947 -2.7079 0.9446
5.8474 11.2582 -2.4550 0.9496
3.1676 10.2114 -2.0690 0.9574
-1.7378 7.2921 -1.4507 0.9699
-2.2865 6.8293 -1.3937 0.9711
-2.5542 4.6608 -1.0285 0.9786
-4.9999 4.3236 -1.2792 0.9734
-5.3138 3.8246 -1.2670 0.9737
-6.1082 2.2747 -1.2614 0.9738
-4.1641 1.1406 -0.8355 0.9826
-3.3306 0.6000 -0.6549 0.9863
-3.0639 0.2738 -0.5953 0.9875
-3.0994 -0.2770 -0.6560 0.9874
-3.2303 -0.5820 -0.6920 0.9867
-6.8598 -2.5547 -1.5432 0.9705
-6.8492 -4.0568 -1.6782 0.9680
-6.5162 -6.7377 -1.9761 0.9624
-6.2896 -7.7847 -2.1099 0.9599
-5.9854 -8.9309 -2.2665 0.9570
-5.5866 -10.1943 -2.4507 0.9536
-5.0688 -11.5927 -2.6674 0.9496
6.0721 10.5172 -2.5602 0.9516
4.6917 10.1102 -2.3498 0.9555
2.4283 9.2687 -2.0200 0.9616
-1.9175 6.7058 -1.4704 0.9719
-2.3249 4.7310 -1.1113 0.9787
-3.9067 5.3022 -1.3885 0.9734
-4.6244 4.3737 -1.3419 0.9743
-4.9401 3.9011 -1.3270 0.9746
-5.2298 3.4212 -1.3175 0.9748
-2.9940 0.1335 -0.6318 0.9878
-3.0505 -0.1361 -0.6438 0.9876
-3.1545 -0.4243 -0.6710 0.9871
-6.7850 -1.5373 -1.4667 0.9720
-6.8651 -3.6634 -1.6405 0.9687
-6.7389 -5.3217 -1.8103 0.9655
-6.6047 -6.2467 -1.9165 0.9635
-6.4117 -7.2498 -2.0404 0.9612
-5.3451 -10.8768 -2.5550 0.9517
-4.7561 -12.3490 -2.7898 0.9473
-4.0030 -13.9995 -3.0697 0.9422
6.8399 10.7145 -2.6799 0.9494
5.3577 10.3154 -2.4505 0.9536
4.0695 9.9023 -2.2570 0.9572
2.9411 9.4811 -2.0928 0.9602
1.0626 8.6279 -1.8327 0.9651
-0.4334 7.7720 -1.6410 0.9687
-1.0712 7.3450 -1.5649 0.9701
-2.6497 6.0601 -1.3944 0.9733
-3.4818 5.1953 -1.3185 0.9748
-4.7856 4.1382 -1.3338 0.9745
-5.6190 2.6840 -1.3128 0.9749
-4.0001 1.0957 -0.8744 0.9832
-3.2435 0.5843 -0.6948 0.9866
-2.9810 0.2664 -0.6310 0.9878
-2.9710 -0.0000 -0.6781 0.9879
-3.1642 -0.5701 -0.7338 0.9869
-6.5343 -2.4334 -1.5915 0.9718
-6.5332 -3.1207 -1.6525 0.9707
-6.2999 -5.4478 -1.9010 0.9664
-5.8884 -7.2882 -2.1386 0.9623
-5.5773 -8.3219 -2.2865 0.9597
-5.1770 -9.4469 -2.4587 0.9568
-4.0220 -12.0130 -2.8915 0.9494
-3.2154 -13.4925 -3.1658 0.9447
8.6044 10.1774 -3.0419 0.9468
6.9907 9.9444 -2.7745 0.9513
5.5804 9.6656 -2.5474 0.9552
4.3406 9.3538 -2.3536 0.9586
3.2446 9.0185 -2.1876 0.9614
2.2704 8.6662 -2.0448 0.9639
1.4004 8.3017 -1.9216 0.9660
-2.3355 4.7525 -1.2086 0.9785
-4.7366 3.7404 -1.3776 0.9755
-5.2710 2.8127 -1.3637 0.9758
-5.5032 2.3335 -1.3643 0.9758
-2.9625 0.3984 -0.6823 0.9878
-2.9453 0.1313 -0.6729 0.9880
-3.0959 -0.4163 -0.7130 0.9873
-6.4782 -1.4678 -1.5161 0.9731
-6.5379 -2.7723 -1.6208 0.9713
-6.5198 -3.4791 -1.6867 0.9701
-6.4646 -4.2289 -1.7632 0.9688
-6.2198 -5.8827 -1.9540 0.9655
-6.0154 -6.8018 -2.0725 0.9634
-5.3894 -8.8721 -2.3693 0.9583
-2.7393 -14.2908 -3.3212 0.9420
9.5000 10.2712 -3.1934 0.9442
4.9410 9.5132 -2.4467 0.9570
1.8234 8.4853 -1.9809 0.9650
0.9996 8.1160 -1.8664 0.9670
0.2587 7.7391 -1.7674 0.9687
-3.3304 4.9693 -1.3654 0.9758
-4.8793 3.5119 -1.3722 0.9756
-5.1464 3.0482 -1.3652 0.9758
-5.3899 2.5745 -1.3634 0.9758
-5.6108 2.0895 -1.3666 0.9757
-3.8725 1.0608 -0.9164 0.9837
-2.9221 -0.0000 -0.7183 0.9880
-2.9882 -0.2671 -0.7374 0.9877
-6.2165 -1.7029 -1.5843 0.9738
-6.2360 -2.3224 -1.6357 0.9730
-6.1772 -3.6588 -1.7647 0.9709
-6.0909 -4.3840 -1.8446 0.9696
-5.9595 -5.1534 -1.9366 0.9681
-5.7763 -5.9727 -2.0424 0.9664
-5.5329 -6.8481 -2.1640 0.9644
-4.8209 -8.7969 -2.4657 0.9595
-3.6997 -11.0504 -2.8644 0.9531
-1.9970 -13.6923 -3.4012 0.9446
7.8405 9.2738 -2.9850 0.9512
6.4202 9.1328 -2.7440 0.9551
1.3191 7.8204 -1.9494 0.9679
0.5855 7.4928 -1.8473 0.9695
-0.0797 7.1538 -1.7585 0.9710
-0.6847 6.8058 -1.6813 0.9722
-1.7404 6.0867 -1.5561 0.9743
-3.5834 4.8634 -1.4849 0.9754
-3.9326 4.4466 -1.4591 0.9758
-4.2534 4.0229 -1.4391 0.9762
-2.8899 0.3887 -0.7167 0.9881
-2.9494 -0.1316 -0.7257 0.9879
-3.1571 -0.7153 -0.7957 0.9868
-6.2300 -2.0090 -1.6090 0.9734
-6.0312 -4.7628 -1.8890 0.9688
-5.8749 -5.5565 -1.9876 0.9672
-5.3854 -7.3091 -2.2316 0.9633
-4.5840 -9.3282 -2.5548 0.9581
-4.0262 -10.4537 -2.7535 0.9549
-1.4510 -14.4230 -3.5631 0.9420
10.3278 9.3409 -3.4229 0.9443
4.5820 8.8218 -2.4434 0.9599
3.5205 8.5665 -2.2765 0.9626
0.9432 7.6582 -1.8966 0.9687
-0.9669 6.6288 -1.6466 0.9728
-1.4943 6.2702 -1.5844 0.9738
-2.4161 5.5259 -1.4824 0.9755
-3.1906 4.7608 -1.4087 0.9767
-4.0964 4.2357 -1.4484 0.9760
-4.6856 3.3725 -1.4190 0.9765
-4.9431 2.9278 -1.4122 0.9766
-5.1773 2.4730 -1.4103 0.9766
-3.8036 1.0419 -0.9694 0.9839
-3.0843 0.5556 -0.7703 0.9872
-2.9343 -0.2622 -0.7763 0.9879
-3.0385 -0.5474 -0.8135 0.9873
-5.9513 -1.6303 -1.6259 0.9748
-5.9617 -2.2202 -1.6763 0.9740
-5.8851 -3.4858 -1.8023 0.9721
-5.7904 -4.1677 -1.8799 0.9709
-5.4625 -5.6482 -2.0705 0.9680
-5.2154 -6.4552 -2.1867 0.9663
-4.0195 -9.1929 -2.6438 0.9593
-2.6986 -11.3237 -3.0674 0.9530
11.9165 8.1802 -3.8086 0.9420
10.1709 8.4064 -3.4770 0.9469
8.6038 8.5084 -3.1884 0.9512
4.7948 8.3048 -2.5269 0.9611
3.7699 8.1240 -2.3599 0.9636
2.0065 7.6589 -2.0862 0.9678
1.2463 7.3885 -1.9744 0.9695
0.5548 7.0995 -1.8764 0.9710
-0.0757 6.7957 -1.7908 0.9723
-1.1794 6.1531 -1.6509 0.9744
-2.1053 5.4663 -1.5435 0.9761
-2.3667 4.8161 -1.4140 0.9780
-3.4393 4.6679 -1.5278 0.9763
-4.0875 3.8660 -1.4825 0.9770
-4.6324 3.0304 -1.4586 0.9774
-4.8693 2.5984 -1.4543 0.9774
-3.2212 0.7298 -0.8703 0.9864
-2.8515 0.1271 -0.7521 0.9883
-2.9007 -0.1294 -0.7651 0.9881
-2.9836 -0.4013 -0.7933 0.9876
-5.9554 -2.5253 -1.7045 0.9736
-5.8429 -3.8223 -1.8398 0.9715
-5.7269 -4.5225 -1.9228 0.9703
-5.5638 -5.2622 -2.0179 0.9688
-5.3467 -6.0457 -2.1267 0.9672
-5.0673 -6.8774 -2.2510 0.9653
-3.0783 -10.7654 -2.9504 0.9547
-0.1602 -14.3835 -3.7903 0.9422
9.3663 8.4713 -3.3277 0.9491
7.8812 8.5210 -3.0584 0.9531
6.5474 8.4837 -2.8238 0.9566
5.3485 8.3783 -2.6192 0.9597
4.2692 8.2196 -2.4406 0.9624
2.4152 7.7857 -2.1480 0.9668
0.8925 7.2461 -1.9238 0.9703
0.2323 6.9493 -1.8322 0.9716
-0.9214 6.3173 -1.6822 0.9739
-1.4263 5.9851 -1.6213 0.9749
-3.0920 4.6136 -1.4635 0.9773
-4.5053 3.2427 -1.4627 0.9773
-4.9793 2.3784 -1.4540 0.9774
-2.8348 0.2533 -0.7499 0.9883
-2.8279 -0.0000 -0.7957 0.9883
-2.8819 -0.2575 -0.8141 0.9880
-2.9786 -0.5366 -0.8515 0.9875
-5.7057 -1.5630 -1.6645 0.9757
-5.6171 -3.3270 -1.8368 0.9732
-4.9300 -6.1020 -2.2072 0.9679
-2.4954 -10.4712 -3.0287 0.9563
-1.6743 -11.4802 -3.2642 0.9529
0.4552 -13.6142 -3.8326 0.9450
12.3883 6.9696 -3.9993 0.9426
10.7588 7.3855 -3.6716 0.9472
7.8936 7.8061 -3.1235 0.9549
6.6456 7.8605 -2.8961 0.9581
3.5346 7.6168 -2.3625 0.9657
2.6771 7.4412 -2.2250 0.9677
1.8950 7.2331 -2.1038 0.9694
0.5269 6.7427 -1.9029 0.9723
-0.6226 6.1807 -1.7475 0.9745
-1.1245 5.8666 -1.6807 0.9755
-1.5906 5.5627 -1.6278 0.9762
-2.3879 4.8591 -1.5233 0.9778
-2.7704 4.5607 -1.5014 0.9781
-3.9328 3.7196 -1.5230 0.9778
-4.2083 3.3232 -1.5087 0.9780
-4.6884 2.5018 -1.4952 0.9782
-4.8946 2.0755 -1.4958 0.9782
-5.0788 1.6377 -1.5014 0.9781
-2.8531 -0.1272 -0.8035 0.9882
-2.9298 -0.3940 -0.8317 0.9878
-3.2049 -1.0335 -0.9474 0.9861
-5.6983 -2.4163 -1.7414 0.9746
-5.6530 -3.0165 -1.8028 0.9737
-5.0618 -5.7235 -2.1497 0.9687
-4.7823 -6.4906 -2.2684 0.9671
-4.4342 -7.2997 -2.4031 0.9651
-4.0044 -8.1488 -2.5546 0.9630
-3.4828 -9.0430 -2.7265 0.9605
11.5571 7.1978 -3.8307 0.9450
9.9941 7.5369 -3.5219 0.9493
8.5623 7.7441 -3.2482 0.9532
6.0642 7.8576 -2.7926 0.9596
4.9804 7.8017 -2.6042 0.9623
3.9941 7.6900 -2.4381 0.9646
2.2771 7.3408 -2.1625 0.9686
1.5298 7.1188 -2.0487 0.9702
0.2209 6.6079 -1.8602 0.9729
-0.3527 6.3263 -1.7827 0.9740
-1.3636 5.7220 -1.6550 0.9759
-1.8083 5.4010 -1.6025 0.9766
-2.2173 5.0710 -1.5572 0.9773
-4.3370 3.1215 -1.5034 0.9780
-4.9894 1.8581 -1.4980 0.9781
-3.6501 0.9999 -1.0648 0.9844
-2.7824 -0.0000 -0.8330 0.9884
-2.9224 -0.5265 -0.8890 0.9877
-3.0126 -0.8253 -0.9351 0.9870
-5.4736 -2.0384 -1.7487 0.9759
-5.4389 -2.5980 -1.8045 0.9751
-5.1158 -4.4239 -2.0248 0.9722
-4.3627 -6.5096 -2.3461 0.9678
-3.9825 -7.2672 -2.4809 0.9660
-2.3191 -9.7318 -2.9951 0.9591
-1.5476 -10.6111 -3.2104 0.9562
0.4153 -12.4199 -3.7204 0.9494
9.7988 6.7265 -3.5583 0.9516
7.2865 7.2057 -3.0680 0.9581
6.1691 7.2968 -2.8606 0.9609
4.1939 7.2641 -2.5111 0.9656
1.7943 6.8488 -2.1196 0.9709
1.1209 6.6448 -2.0174 0.9723
-0.5929 5.8935 -1.7733 0.9756
-1.5241 5.3300 -1.6597 0.9771
-3.1802 4.3162 -1.6051 0.9779
-3.4970 3.9541 -1.5803 0.9782
-3.7881 3.5827 -1.5610 0.9785
-4.5188 2.4113 -1.5334 0.9788
-2.7619 0.1231 -0.8277 0.9885
-2.8067 -0.1252 -0.8411 0.9883
-3.1092 -1.0026 -0.9780 0.9865
-5.4603 -2.3154 -1.7756 0.9755
-5.4090 -2.8863 -1.8355 0.9747
-5.3221 -3.4815 -1.9040 0.9738
-5.1955 -4.1028 -1.9819 0.9727
-4.8033 -5.4313 -2.1707 0.9702
-4.5254 -6.1420 -2.2840 0.9686
-3.7632 -7.6579 -2.5545 0.9650
-2.6598 -9.3018 -2.8964 0.9604
-1.9491 -10.1685 -3.0997 0.9577
-1.1125 -11.0589 -3.3275 0.9547
-0.1333 -11.9649 -3.5823 0.9513
10.4846 6.5299 -3.6979 0.9497
9.1358 6.8896 -3.4256 0.9533
4.6569 7.2949 -2.5910 0.9645
0.8047 6.5337 -1.9708 0.9729
-0.3367 6.0395 -1.8109 0.9751
-0.8394 5.7557 -1.7414 0.9760
-1.7338 5.1786 -1.6349 0.9775
-2.4922 4.5476 -1.5525 0.9786
-3.3419 4.1363 -1.5920 0.9780
-3.6456 3.7696 -1.5700 0.9783
-4.4113 2.6128 -1.5349 0.9788
-4.8087 1.7908 -1.5362 0.9788
-3.5598 0.9751 -1.1050 0.9847
-2.7380 -0.0000 -0.8695 0.9886
-2.7827 -0.2487 -0.8873 0.9883
-2.9540 -0.8092 -0.9727 0.9872
-5.2554 -1.9571 -1.7810 0.9767
-5.1420 -3.0456 -1.8980 0.9752
-4.6848 -4.8440 -2.1401 0.9721
-4.1322 -6.1658 -2.3572 0.9693
-3.7603 -6.8618 -2.4850 0.9677
-3.3150 -7.5816 -2.6279 0.9659
-2.7867 -8.3234 -2.7876 0.9638
-1.4377 -9.8575 -3.1637 0.9591
-0.5931 -10.6364 -3.3832 0.9563
0.3815 -11.4091 -3.6254 0.9532
1.4976 -12.1597 -3.8909 0.9499
2.7650 -12.8671 -4.1797 0.9463
4.1890 -13.5039 -4.4902 0.9424
12.7546 4.4289 -4.2879 0.9449
11.4609 5.1640 -3.9922 0.9486
10.1994 5.7381 -3.7166 0.9521
5.7524 6.8040 -2.8296 0.9633
4.8138 6.8477 -2.6583 0.9655
3.9432 6.8298 -2.5046 0.9674
2.3918 6.6481 -2.2438 0.9708
1.0664 6.3221 -2.0362 0.9735
-1.4623 5.1139 -1.6892 0.9779
-3.0631 4.1573 -1.6400 0.9786
-3.9107 3.0883 -1.5826 0.9793
-4.1463 2.7124 -1.5735 0.9794
-4.5512 1.9299 -1.5700 0.9795
-2.9791 0.6750 -0.9701 0.9873
-2.8254 -0.3800 -0.9054 0.9881
-2.9205 -0.6617 -0.9510 0.9875
-5.2393 -2.2217 -1.8073 0.9764
-5.1830 -2.7658 -1.8658 0.9756
-5.0918 -3.3309 -1.9324 0.9748
-4.2925 -5.8259 -2.2982 0.9701
-3.0618 -7.9499 -2.7056 0.9649
-2.4881 -8.7016 -2.8742 0.9627
-1.8151 -9.4694 -3.0621 0.9603
0.9212 -11.7883 -3.7552 0.9516
12.1054 4.8178 -4.1378 0.9468
9.5870 5.9708 -3.5869 0.9537
7.2923 6.5955 -3.1226 0.9596
6.2480 6.7552 -2.9223 0.9621
5.2745 6.8343 -2.7417 0.9644
4.3702 6.8458 -2.5794 0.9665
1.3784 6.4145 -2.0836 0.9728
0.7665 6.2234 -1.9914 0.9740
0.2010 6.0090 -1.9095 0.9751
-2.3975 4.3750 -1.5844 0.9793
-3.2198 3.9852 -1.6271 0.9787
-4.0313 2.9015 -1.5774 0.9794
-4.4581 2.1295 -1.5691 0.9795
-4.6390 1.7275 -1.5721 0.9794
-2.7749 0.4999 -0.8955 0.9882
-2.6951 0.2408 -0.8593 0.9887
-2.8177 -0.5077 -0.9620 0.9880
-2.8971 -0.7936 -1.0092 0.9874
-5.0073 -2.3918 -1.8645 0.9769
-4.9302 -2.9202 -1.9252 0.9761
-2.6209 -7.8283 -2.7737 0.9658
-2.0283 -8.5111 -2.9397 0.9638
-0.5508 -9.8782 -3.3240 0.9591
1.3761 -11.1734 -3.7824 0.9536
2.5255 -11.7526 -4.0388 0.9505
3.8017 -12.2554 -4.3111 0.9473
5.1995 -12.6524 -4.5959 0.9439
13.6855 2.1519 -4.6546 0.9432
8.2961 5.6949 -3.3809 0.9584
7.2740 6.0121 -3.1707 0.9610
5.3849 6.3693 -2.8023 0.9654
1.0165 6.0260 -2.0533 0.9745
-0.5437 5.4048 -1.8251 0.9773
-1.4035 4.9081 -1.7152 0.9787
-2.1419 4.3586 -1.6317 0.9797
-2.9532 4.0082 -1.6727 0.9792
-3.2510 3.6759 -1.6488 0.9795
-3.5246 3.3336 -1.6300 0.9797
-4.0033 2.6189 -1.6073 0.9800
-4.2097 2.2464 -1.6032 0.9801
-2.6272 0.5952 -0.9051 0.9887
-2.7168 -0.1212 -0.9137 0.9886
-5.0625 -1.6325 -1.7872 0.9778
-4.9731 -2.6537 -1.8939 0.9765
-4.8785 -3.1913 -1.9586 0.9757
-4.5723 -4.3245 -2.1145 0.9738
-4.3522 -4.9211 -2.2072 0.9727
-4.0803 -5.5379 -2.3111 0.9714
-3.3531 -6.8233 -2.5544 0.9684
-2.3358 -8.1689 -2.8546 0.9648
-1.6972 -8.8543 -3.0290 0.9627
-0.9596 -9.5390 -3.2211 0.9604
-0.1138 -10.2130 -3.4316 0.9578
0.8488 -10.8628 -3.6608 0.9551
1.9349 -11.4709 -3.9085 0.9521
4.4860 -12.4691 -4.4523 0.9456
5.9402 -12.8009 -4.7414 0.9422
13.1749 2.6779 -4.5170 0.9448
11.0057 4.3802 -3.9798 0.9512
9.9044 5.0049 -3.7284 0.9543
8.8236 5.4953 -3.4925 0.9571
6.7814 6.1335 -3.0721 0.9622
4.9473 6.4104 -2.7206 0.9664
4.1142 6.4448 -2.5690 0.9683
2.6121 6.3560 -2.3088 0.9714
0.7315 5.9382 -2.0102 0.9751
-1.5999 4.7786 -1.6931 0.9790
-1.9682 4.5015 -1.6507 0.9795
-2.3091 4.2137 -1.6144 0.9799
-3.1052 3.8433 -1.6601 0.9794
-3.3907 3.5060 -1.6387 0.9796
-3.6527 3.1586 -1.6225 0.9798
-3.8920 2.8013 -1.6111 0.9800
-4.1092 2.4339 -1.6046 0.9800
-4.3049 2.0563 -1.6029 0.9801
-2.6265 0.7195 -0.9150 0.9886
-2.6500 0.2368 -0.8939 0.9888
-2.6932 -0.2406 -0.9588 0.9886
-2.7668 -0.4985 -0.9969 0.9881
-4.4646 -3.8608 -2.0929 0.9753
-2.9600 -6.7698 -2.6199 0.9691
-1.9067 -8.0011 -2.9165 0.9657
1.2718 -10.3263 -3.6892 0.9568
6.0627 -11.6729 -4.6640 0.9457
10.5567 3.6657 -3.9625 0.9537
9.6009 4.3260 -3.7340 0.9563
8.6413 4.8615 -3.5157 0.9588
6.7785 5.6025 -3.1183 0.9634
5.8972 5.8319 -2.9409 0.9654
5.0580 5.9827 -2.7779 0.9673
3.5160 6.0898 -2.4934 0.9706
1.5431 5.8903 -2.1591 0.9745
0.4361 5.5804 -1.9848 0.9765
-0.0601 5.3934 -1.9126 0.9774
-1.3500 4.7212 -1.7412 0.9794
-3.1387 3.5490 -1.6800 0.9801
-3.4043 3.2197 -1.6615 0.9803
-3.6473 2.8802 -1.6479 0.9805
-4.0683 2.1709 -1.6351 0.9806
-4.4047 1.4203 -1.6410 0.9806
-2.6347 0.1174 -0.9351 0.9889
-4.8411 -2.0528 -1.8645 0.9779
-4.7773 -2.5493 -1.9201 0.9773
-4.6802 -3.0617 -1.9831 0.9765
-4.1538 -4.6968 -2.2233 0.9737
-3.5617 -5.8634 -2.4326 0.9713
-3.1771 -6.4652 -2.5543 0.9699
-2.7254 -7.0763 -2.6888 0.9683
-1.5926 -8.3085 -2.9997 0.9647
11.9304 2.4249 -4.3169 0.9496
11.0260 3.2860 -4.0796 0.9523
9.1203 4.6087 -3.6234 0.9576
7.2332 5.4548 -3.2124 0.9623
4.6553 6.0320 -2.7018 0.9682
3.8842 6.0844 -2.5596 0.9698
2.4801 6.0349 -2.3135 0.9727
1.8449 5.9474 -2.2080 0.9739
1.2519 5.8258 -2.1129 0.9750
0.6981 5.6708 -2.0259 0.9760
0.1836 5.4896 -1.9476 0.9770
-1.5395 4.5981 -1.7194 0.9796
-1.8957 4.3355 -1.6779 0.9801
-2.2853 4.1701 -1.6861 0.9800
-2.6963 4.0232 -1.7173 0.9797
-2.9973 3.7098 -1.6911 0.9800
-3.2744 3.3857 -1.6701 0.9802
-3.5286 3.0512 -1.6541 0.9804
-3.7606 2.7067 -1.6430 0.9805
-4.1603 1.9872 -1.6348 0.9806
-2.6060 0.2329 -0.9277 0.9890
-2.6101 0.0000 -0.9746 0.9889
-2.6498 -0.2368 -0.9934 0.9887
-4.6826 -1.7439 -1.8659 0.9789
-4.4326 -3.1904 -2.0393 0.9770
-3.2110 -5.8594 -2.4949 0.9719
-2.8071 -6.4201 -2.6165 0.9705
-2.3380 -6.9832 -2.7499 0.9690
-0.4810 -8.6270 -3.2264 0.9638
0.3053 -9.1302 -3.4112 0.9617
1.1812 -9.5906 -3.6083 0.9596
2.1471 -9.9919 -3.8163 0.9573
3.1998 -10.3151 -4.0328 0.9549
6.7655 -10.5980 -4.6951 0.9477
10.4144 -9.4193 -5.2435 0.9418
13.6420 -1.5261 -5.1258 0.9431
11.9059 0.7970 -4.4557 0.9503
8.8689 3.9961 -3.6324 0.9593
8.0181 4.5109 -3.4354 0.9615
5.5372 5.4759 -2.9080 0.9673
4.7654 5.6365 -2.7562 0.9690
4.0298 5.7324 -2.6165 0.9705
3.3324 5.7718 -2.4887 0.9719
2.6741 5.7624 -2.3722 0.9732
2.0544 5.7104 -2.2661 0.9744
1.4729 5.6219 -2.1701 0.9755
-0.0576 5.1743 -1.9323 0.9781
-1.2999 4.5459 -1.7655 0.9800
-2.4484 4.0306 -1.7610 0.9801
-3.0328 3.4292 -1.7095 0.9806
-3.5265 2.7848 -1.6779 0.9810
-3.7410 2.4472 -1.6693 0.9811
-4.1073 1.7416 -1.6659 0.9811
-2.6307 -0.1173 -0.9833 0.9888
-2.6781 -0.3602 -1.0090 0.9885
-4.6609 -1.9764 -1.8904 0.9786
-4.5944 -2.4517 -1.9446 0.9780
-4.3606 -3.4436 -2.0748 0.9766
-3.9707 -4.4898 -2.2381 0.9747
-3.0169 -6.1391 -2.5543 0.9712
-2.5811 -6.7016 -2.6817 0.9698
-2.0771 -7.2641 -2.8212 0.9683
-1.4991 -7.8207 -2.9735 0.9666
-0.8414 -8.3636 -3.1388 0.9647
-0.0989 -8.8831 -3.3172 0.9628
0.7319 -9.3667 -3.5083 0.9607
1.6530 -9.7998 -3.7110 0.9585
3.7563 -10.4409 -4.1434 0.9537
6.1424 -10.6390 -4.5873 0.9489
7.3923 -10.5157 -4.7998 0.9466
8.6389 -10.2181 -4.9965 0.9445
9.8425 -9.7334 -5.1689 0.9426
13.4650 -0.9014 -5.0392 0.9440
10.8896 2.2134 -4.1495 0.9537
9.2903 3.6975 -3.7337 0.9582
7.5934 4.7292 -3.3404 0.9625
6.7536 5.0931 -3.1586 0.9645
5.9356 5.3684 -2.9885 0.9664
5.1470 5.5649 -2.8305 0.9682
3.6762 5.7587 -2.5512 0.9713
2.9983 5.7728 -2.4290 0.9726
2.3594 5.7413 -2.3178 0.9738
1.7590 5.6705 -2.2170 0.9750
1.1956 5.5649 -2.1254 0.9760
0.6679 5.4225 -2.0401 0.9769
-0.7117 4.8795 -1.8413 0.9792
-1.4822 4.4272 -1.7434 0.9803
-1.8276 4.1797 -1.7034 0.9807
-3.1645 3.2721 -1.6998 0.9808
-3.4112 2.9498 -1.6840 0.9809
-3.6364 2.6173 -1.6730 0.9811
-3.8404 2.2746 -1.6667 0.9811
-4.0235 1.9219 -1.6650 0.9811
-2.6096 0.4701 -0.9902 0.9887
-2.5629 0.2290 -0.9608 0.9891
-2.6685 -0.4808 -1.0642 0.9884
-4.4610 -2.1309 -1.9403 0.9790
-4.1060 -3.5506 -2.1304 0.9769
-3.9133 -4.0463 -2.2093 0.9761
-3.6773 -4.5515 -2.2965 0.9752
-3.3935 -5.0635 -2.3923 0.9741
-2.6676 -6.1010 -2.6133 0.9718
-1.6993 -7.1308 -2.8770 0.9690
-1.1126 -7.6286 -3.0257 0.9674
1.1017 -8.9454 -3.5373 0.9620
2.9611 -9.5455 -3.9225 0.9580
3.9915 -9.7129 -4.1214 0.9559
9.4263 -8.5256 -4.9883 0.9468
10.3593 -7.8123 -5.0923 0.9458
11.1580 -6.9493 -5.1591 0.9451
12.4811 -3.7197 -5.1114 0.9456
12.0509 -0.2686 -4.7308 0.9495
10.3181 1.6224 -4.0993 0.9561
8.9714 3.1152 -3.7273 0.9600
8.2293 3.7079 -3.5425 0.9620
6.7084 4.6050 -3.1935 0.9656
5.9527 4.9201 -3.0310 0.9674
5.2150 5.1572 -2.8785 0.9690
3.1648 5.4816 -2.4842 0.9732
2.5456 5.4857 -2.3735 0.9743
1.9601 5.4479 -2.2723 0.9754
0.8873 5.2601 -2.0936 0.9773
-0.8807 4.5948 -1.8362 0.9801
-1.5994 4.1529 -1.7466 0.9811
-1.9963 4.0624 -1.7765 0.9807
-2.3651 3.8935 -1.7879 0.9806
-2.9326 3.3159 -1.7373 0.9812
-3.8078 2.0319 -1.6939 0.9816
-2.4911 0.3350 -0.9865 0.9893
-2.6312 -0.3539 -1.0420 0.9887
-2.7055 -0.6130 -1.0887 0.9882
-2.7236 -0.8782 -1.1231 0.9878
-4.4229 -2.3602 -1.9675 0.9787
-4.1874 -3.3068 -2.0941 0.9773
-4.0148 -3.7972 -2.1688 0.9765
-2.8703 -5.8409 -2.5542 0.9724
-0.7917 -7.8698 -3.1043 0.9666
1.5389 -9.1230 -3.6311 0.9610
2.4693 -9.4253 -3.8240 0.9590
3.4690 -9.6422 -4.0217 0.9569
5.6264 -9.7453 -4.4164 0.9528
7.8543 -9.2902 -4.7746 0.9491
8.9207 -8.8219 -4.9240 0.9475
9.9074 -8.1887 -5.0446 0.9463
10.7775 -7.3984 -5.1306 0.9454
11.4971 -6.4681 -5.1773 0.9449
12.0387 -5.4244 -5.1823 0.9448
12.3843 -4.3003 -5.1452 0.9452
12.4718 -1.9611 -4.9550 0.9472
10.0059 2.0337 -4.0073 0.9571
9.3295 2.7805 -3.8207 0.9590
8.6038 3.4242 -3.6344 0.9610
7.8500 3.9667 -3.4519 0.9629
4.1559 5.3849 -2.6696 0.9712
1.1425 5.3166 -2.1343 0.9769
0.1689 5.0512 -1.9836 0.9785
-1.0700 4.4900 -1.8115 0.9804
-1.7636 4.0335 -1.7277 0.9813
-2.7992 3.4646 -1.7481 0.9810
-3.0605 3.1645 -1.7278 0.9813
-3.5187 2.5326 -1.7015 0.9815
-4.0508 1.5086 -1.6965 0.9816
-3.4629 0.9486 -1.4092 0.9847
-2.5206 0.2252 -0.9932 0.9892
-2.5289 -0.0000 -1.0414 0.9891
-2.6211 -0.4722 -1.0967 0.9885
-2.6410 -0.7235 -1.1276 0.9882
-4.2151 -2.4966 -2.0173 0.9790
-3.7539 -3.8815 -2.2235 0.9769
-3.2440 -4.8403 -2.3994 0.9751
-2.9180 -5.3247 -2.5003 0.9741
-2.5397 -5.8084 -2.6104 0.9729
-2.1050 -6.2874 -2.7303 0.9717
0.2684 -8.0281 -3.3077 0.9658
1.8612 -8.6616 -3.6481 0.9624
2.7530 -8.8747 -3.8262 0.9606
3.6979 -8.9982 -4.0060 0.9588
6.6975 -8.6781 -4.5140 0.9537
7.6772 -8.3006 -4.6558 0.9523
8.5997 -7.7780 -4.7747 0.9511
9.4336 -7.1142 -4.8654 0.9502
11.1282 -4.4290 -4.9320 0.9495
11.4198 -2.3212 -4.7986 0.9508
11.0441 -0.2461 -4.5489 0.9533
9.5175 1.4966 -3.9673 0.9592
8.9560 2.2400 -3.8015 0.9609
6.2914 4.3188 -3.1423 0.9675
5.6043 4.6320 -2.9940 0.9690
1.8701 5.1980 -2.2747 0.9764
1.3457 5.1363 -2.1864 0.9773
0.8507 5.0434 -2.1061 0.9781
0.3847 4.9231 -2.0334 0.9789
-0.0532 4.7787 -1.9679 0.9795
-0.4640 4.6128 -1.9090 0.9801
-1.2084 4.2262 -1.8100 0.9812
-1.9770 4.0232 -1.8459 0.9808
-2.2864 3.7638 -1.8134 0.9811
-3.5055 2.2932 -1.7249 0.9820
-3.6874 1.9677 -1.7211 0.9821
-3.8492 1.6322 -1.7217 0.9821
-3.9909 1.2869 -1.7267 0.9820
-2.6388 0.5979 -1.1141 0.9884
-2.5068 0.1118 -1.0333 0.9892
-2.5479 -0.1136 -1.0502 0.9890
-2.6300 -0.5959 -1.1104 0.9884
-2.6464 -0.8534 -1.1450 0.9880
-4.3321 -1.8370 -1.9376 0.9799
-4.1603 -2.7216 -2.0471 0.9787
-2.7356 -5.5669 -2.5542 0.9735
-1.3389 -6.9848 -2.9286 0.9697
-0.7470 -7.4256 -3.0732 0.9682
1.4382 -8.5263 -3.5606 0.9633
2.2998 -8.7784 -3.7368 0.9615
4.1864 -9.0214 -4.0953 0.9579
5.1852 -8.9809 -4.2703 0.9561
6.1955 -8.8132 -4.4361 0.9545
7.1926 -8.5074 -4.5874 0.9530
8.1476 -8.0573 -4.7185 0.9516
10.4541 -5.8814 -4.9393 0.9494
11.3848 -1.7902 -4.7456 0.9514
10.8599 0.2420 -4.4730 0.9541
10.2185 1.1431 -4.2340 0.9565
9.2456 1.8792 -3.8850 0.9600
8.6512 2.5783 -3.7173 0.9617
5.9482 4.4857 -3.0678 0.9683
2.7160 5.2290 -2.4264 0.9748
1.0946 5.0935 -2.1453 0.9777
0.6142 4.9865 -2.0689 0.9785
0.1623 4.8537 -1.9998 0.9792
-0.6596 4.5226 -1.8820 0.9804
-1.0317 4.3291 -1.8326 0.9809
-1.7474 3.9964 -1.7961 0.9813
-2.1346 3.8951 -1.8290 0.9810
-2.4324 3.6294 -1.7992 0.9813
-3.1947 2.7626 -1.7392 0.9819
-3.4070 2.4522 -1.7286 0.9820
-3.9226 1.4608 -1.7236 0.9821
-2.5181 0.4537 -1.0536 0.9890
-2.4793 0.2215 -1.0250 0.9893
-2.5221 -0.2254 -1.0923 0.9890
-2.5687 -0.9566 -1.1824 0.9881
-4.1494 -1.9820 -1.9836 0.9802
-3.7932 -3.2801 -2.1631 0.9784
-3.3764 -4.1791 -2.3175 0.9769
-3.1052 -4.6334 -2.4060 0.9760
-2.4220 -5.5392 -2.6078 0.9740
-1.5287 -6.4147 -2.8445 0.9717
1.7429 -8.1107 -3.5785 0.9645
4.3445 -8.3647 -4.0658 0.9598
5.2636 -8.2453 -4.2196 0.9583
6.1782 -8.0053 -4.3619 0.9569
7.0648 -7.6384 -4.4881 0.9557
9.2968 -5.7901 -4.7244 0.9534
10.1923 -4.0564 -4.7319 0.9533
10.4832 -2.1308 -4.6145 0.9545
9.8400 0.6587 -4.2541 0.9579
6.5569 3.6888 -3.2452 0.9678
5.9224 4.0655 -3.0987 0.9692
5.2861 4.3691 -2.9582 0.9706
2.3154 4.9894 -2.3727 0.9763
1.2898 4.9229 -2.1952 0.9781
0.8166 4.8413 -2.1178 0.9788
0.3698 4.7323 -2.0476 0.9795
-0.4471 4.4446 -1.9269 0.9807
-0.8186 4.2707 -1.8758 0.9812
-1.1666 4.0798 -1.8304 0.9817
-1.5189 3.9438 -1.8230 0.9818
-2.2117 3.6409 -1.8376 0.9816
-2.7474 3.1065 -1.7889 0.9821
-2.9839 2.8221 -1.7716 0.9823
-3.2001 2.5271 -1.7589 0.9824
-3.3964 2.2218 -1.7507 0.9825
-3.5729 1.9065 -1.7469 0.9825
-2.5715 0.5826 -1.1373 0.9886
-2.4655 0.1099 -1.0645 0.9893
-2.5277 -0.3399 -1.1001 0.9890
-2.6695 -1.1320 -1.2508 0.9874
-3.8734 -3.0588 -2.1290 0.9787
-3.2464 -4.4060 -2.3607 0.9764
-2.9527 -4.8607 -2.4532 0.9755
-2.6114 -5.3141 -2.5541 0.9745
-2.2193 -5.7624 -2.6637 0.9735
-1.7731 -6.2009 -2.7820 0.9723
-0.0823 -7.3926 -3.1891 0.9683
1.3488 -7.9962 -3.4980 0.9653
2.1502 -8.2073 -3.6598 0.9637
3.0007 -8.3405 -3.8235 0.9621
3.8898 -8.3822 -3.9861 0.9605
4.8033 -8.3195 -4.1438 0.9590
7.4896 -7.4066 -4.5436 0.9552
9.5736 -5.3860 -4.7383 0.9533
10.0230 -4.5162 -4.7421 0.9532
10.3232 -3.5846 -4.7138 0.9535
10.3080 -0.6900 -4.4564 0.9560
9.6291 1.0772 -4.1795 0.9587
8.5844 1.7448 -3.7787 0.9626
8.0574 2.4014 -3.6267 0.9640
7.4805 2.9771 -3.4729 0.9655
6.8700 3.4716 -3.3203 0.9670
5.6039 4.2261 -3.0276 0.9699
4.9700 4.4951 -2.8907 0.9712
4.3465 4.6993 -2.7612 0.9725
3.1520 4.9374 -2.5268 0.9748
2.0491 4.9862 -2.3254 0.9768
0.5900 4.7900 -2.0818 0.9792
0.1561 4.6686 -2.0150 0.9799
-0.2523 4.5244 -1.9547 0.9805
-0.9955 4.1773 -1.8524 0.9815
-1.3320 3.9784 -1.8097 0.9819
-1.7413 3.9824 -1.8749 0.9812
-2.0643 3.7669 -1.8529 0.9815
-2.3536 3.5118 -1.8236 0.9818
-2.6214 3.2445 -1.7993 0.9820
-2.8682 2.9657 -1.7797 0.9822
-3.3008 2.3757 -1.7543 0.9824
-3.8006 1.4154 -1.7494 0.9825
-2.4719 0.4453 -1.0835 0.9891
-2.4282 -0.0000 -1.0956 0.9894
-2.4481 -0.2188 -1.1090 0.9893
-2.4593 -0.4431 -1.1275 0.9891
-2.4702 -0.6767 -1.1556 0.9888
-4.0065 -1.9138 -2.0034 0.9807
-3.4653 -3.5832 -2.2492 0.9784
-3.2410 -4.0114 -2.3270 0.9776
-2.9761 -4.4407 -2.4121 0.9768
-2.6678 -4.8682 -2.5048 0.9759
-2.3132 -5.2904 -2.6054 0.9750
-1.9095 -5.7033 -2.7138 0.9740
-0.9450 -6.4793 -2.9545 0.9717
0.2388 -7.1420 -3.2244 0.9691
0.9125 -7.4090 -3.3683 0.9678
1.6372 -7.6191 -3.5163 0.9664
4.0478 -7.7933 -3.9625 0.9622
4.8914 -7.6623 -4.1018 0.9609
6.5359 -7.0665 -4.3433 0.9586
9.0427 -4.5695 -4.5716 0.9565
9.3910 -3.7375 -4.5606 0.9566
9.6780 -1.9671 -4.4561 0.9576
9.4344 -0.2102 -4.2580 0.9594
8.7482 1.3756 -3.9958 0.9619
7.7754 1.9448 -3.6165 0.9654
7.2781 2.5272 -3.4763 0.9668
6.7390 3.0364 -3.3352 0.9681
6.1723 3.4725 -3.1955 0.9694
5.5898 3.8372 -3.0593 0.9707
3.8414 4.5436 -2.6847 0.9742
2.7370 4.7405 -2.4699 0.9763
0.3558 4.5533 -2.0608 0.9802
-0.4312 4.2860 -1.9437 0.9813
-1.5143 3.9319 -1.9012 0.9817
-2.1407 3.5241 -1.8606 0.9821
-2.4114 3.2728 -1.8343 0.9823
-3.4638 1.8484 -1.7715 0.9829
-3.6157 1.5332 -1.7721 0.9829
-2.4105 0.1075 -1.0887 0.9895
-2.4671 -0.5590 -1.1414 0.9890
-2.4891 -1.0555 -1.2199 0.9882
-3.9666 -2.1166 -2.0287 0.9805
-3.8643 -2.5280 -2.0836 0.9799
-3.7306 -2.9461 -2.1449 0.9794
-3.5629 -3.3698 -2.2128 0.9787
-3.3581 -3.7971 -2.2872 0.9780
-3.1138 -4.2261 -2.3686 0.9772
-2.1176 -5.4984 -2.6586 0.9745
-1.6884 -5.9047 -2.7711 0.9734
-1.2064 -6.2935 -2.8914 0.9723
-0.0779 -6.9906 -3.1545 0.9698
0.5690 -7.2819 -3.2957 0.9685
1.2687 -7.5218 -3.4419 0.9671
2.8071 -7.8026 -3.7416 0.9643
3.6289 -7.8202 -3.8900 0.9629
4.4693 -7.7411 -4.0333 0.9615
6.1367 -7.2585 -4.2888 0.9591
6.9224 -6.8458 -4.3929 0.9582
8.2855 -5.6877 -4.5346 0.9569
9.6645 -1.5197 -4.4144 0.9580
8.9544 1.0017 -4.0656 0.9612
8.1908 1.6648 -3.7714 0.9640
7.0129 2.7911 -3.4057 0.9674
5.8823 3.6635 -3.1269 0.9700
4.1277 4.4628 -2.7429 0.9737
3.5587 4.6111 -2.6282 0.9748
3.0061 4.7090 -2.5208 0.9758
2.4730 4.7614 -2.4209 0.9767
0.5673 4.6059 -2.0940 0.9798
0.1503 4.4947 -2.0292 0.9805
-1.6951 3.8768 -1.9092 0.9816
-1.9975 3.6451 -1.8755 0.9819
-2.2787 3.4000 -1.8468 0.9822
-2.7790 2.8735 -1.8037 0.9826
-3.3806 2.0023 -1.7729 0.9829
-3.5422 1.6920 -1.7713 0.9829
-2.3615 -0.0000 -1.1132 0.9896
-2.3773 -0.2125 -1.1251 0.9895
-2.3816 -0.4291 -1.1407 0.9894
-2.3934 -0.6557 -1.1698 0.9891
-3.8739 -1.8504 -2.0237 0.9812
-3.7835 -2.2410 -2.0728 0.9807
-3.6663 -2.6389 -2.1293 0.9802
-3.3341 -3.4475 -2.2607 0.9790
-2.2123 -5.0598 -2.6031 0.9759
-1.8229 -5.4448 -2.7066 0.9749
-1.3855 -5.8138 -2.8172 0.9739
-0.8985 -6.1608 -2.9348 0.9728
-0.3612 -6.4791 -3.0588 0.9717
0.2261 -6.7606 -3.1886 0.9705
0.8617 -6.9966 -3.3229 0.9693
1.5423 -7.1774 -3.4605 0.9681
3.0136 -7.3331 -3.7372 0.9655
3.7853 -7.2880 -3.8711 0.9643
5.3330 -6.9101 -4.1145 0.9621
6.0743 -6.5674 -4.2168 0.9612
7.9347 -4.9418 -4.4063 0.9595
8.3730 -4.2311 -4.4221 0.9594
8.6970 -3.4613 -4.4123 0.9595
8.8993 -2.6523 -4.3773 0.9598
8.9357 -0.9996 -4.2383 0.9610
5.8254 3.2773 -3.1507 0.9709
4.7432 3.9204 -2.9007 0.9732
4.1978 4.1512 -2.7829 0.9742
3.6584 4.3271 -2.6710 0.9753
2.6166 4.5320 -2.4668 0.9771
0.3427 4.3850 -2.0733 0.9807
-0.7632 3.9818 -1.9111 0.9822
-1.4855 3.8571 -1.9484 0.9819
-2.3364 3.1710 -1.8567 0.9827
-3.0079 2.3753 -1.8067 0.9832
-3.1933 2.0889 -1.7987 0.9833
-3.3597 1.7928 -1.7950 0.9833
-3.6351 1.1722 -1.8004 0.9833
-2.2973 0.3089 -1.0926 0.9898
-2.3799 -0.3201 -1.1319 0.9894
-2.3894 -0.5414 -1.1548 0.9892
-3.8309 -2.0443 -2.0468 0.9810
-3.4303 -3.2444 -2.2256 0.9793
-2.7110 -4.4629 -2.4614 0.9772
-2.3897 -4.8628 -2.5541 0.9763
-2.0235 -5.2540 -2.6539 0.9754
-1.6103 -5.6316 -2.7610 0.9744
-1.1483 -5.9904 -2.8752 0.9734
-0.6362 -6.3240 -2.9960 0.9723
-0.0738 -6.6250 -3.1230 0.9711
0.5380 -6.8849 -3.2553 0.9699
1.8979 -7.2440 -3.5299 0.9674
2.6347 -7.3232 -3.6686 0.9662
3.3977 -7.3218 -3.8048 0.9649
4.1747 -7.2308 -3.9357 0.9638
5.7083 -6.7518 -4.1676 0.9617
7.0908 -5.8607 -4.3363 0.9601
8.9540 -2.2396 -4.3507 0.9600
8.9715 -1.4107 -4.2809 0.9606
8.8715 -0.5939 -4.1912 0.9614
8.6634 0.1931 -4.0847 0.9624
8.3597 0.9351 -3.9652 0.9635
7.9748 1.6209 -3.8360 0.9647
7.0660 2.1058 -3.4755 0.9679
5.5585 3.4618 -3.0868 0.9715
3.9270 4.2458 -2.7262 0.9747
2.3663 4.5559 -2.4199 0.9776
1.8800 4.5746 -2.3314 0.9784
0.9691 4.5096 -2.1743 0.9798
0.5460 4.4330 -2.1054 0.9804
0.1448 4.3310 -2.0427 0.9810
-0.5923 4.0612 -1.9347 0.9820
-0.9289 3.8979 -1.8889 0.9824
-2.4605 3.0454 -1.8455 0.9828
-2.6940 2.7855 -1.8267 0.9830
-2.9081 2.5147 -1.8122 0.9831
-3.1030 2.2334 -1.8021 0.9832
-3.2788 1.9421 -1.7963 0.9833
-3.4357 1.6411 -1.7948 0.9833
-3.5735 1.3308 -1.7975 0.9833
-2.3242 0.2077 -1.1000 0.9897
-2.2975 0.0000 -1.1300 0.9898
-2.3094 -0.2064 -1.1404 0.9897
-2.3082 -0.4159 -1.1536 0.9896
-2.3175 -0.6348 -1.1819 0.9893
-2.3278 -0.8669 -1.2218 0.9890
-2.3666 -1.1304 -1.2900 0.9884
-3.6550 -2.1649 -2.0894 0.9812
-3.5384 -2.5468 -2.1443 0.9808
-3.3913 -2.9326 -2.2052 0.9802
-3.2106 -3.3198 -2.2715 0.9796
-2.7428 -4.0925 -2.4232 0.9783
-1.7427 -5.2051 -2.6998 0.9758
-1.3221 -5.5478 -2.8051 0.9749
-0.3434 -6.1585 -3.0338 0.9729
0.2144 -6.4127 -3.1559 0.9718
0.8156 -6.6222 -3.2818 0.9707
1.4566 -6.7783 -3.4101 0.9696
4.2732 -6.6938 -3.9060 0.9652
4.9841 -6.4580 -4.0124 0.9643
5.6676 -6.1278 -4.1055 0.9635
6.8831 -5.1908 -4.2403 0.9623
8.0896 -3.2196 -4.2825 0.9619
8.3346 -0.9324 -4.1250 0.9633
8.2025 -0.1828 -4.0354 0.9641
7.9762 0.5339 -3.9319 0.9650
7.6675 1.2056 -3.8176 0.9660
5.9888 2.6984 -3.2308 0.9711
5.0138 3.4417 -2.9912 0.9733
3.4895 4.1274 -2.6584 0.9762
2.9910 4.2548 -2.5581 0.9771
2.0332 4.3814 -2.3757 0.9787
0.3303 4.2262 -2.0850 0.9813
-0.0459 4.1210 -2.0271 0.9818
-0.4018 3.9944 -1.9746 0.9823
-0.7377 3.8485 -1.9274 0.9827
-1.7334 3.5273 -1.9331 0.9826
-2.0089 3.3071 -1.9032 0.9829
-2.5015 2.8285 -1.8573 0.9833
-2.7193 2.5718 -1.8409 0.9835
-2.9182 2.3045 -1.8289 0.9836
-3.4030 1.4430 -1.8181 0.9837
-2.5042 0.5674 -1.2629 0.9886
-2.2893 0.1021 -1.1271 0.9898
-2.3142 -0.5243 -1.1671 0.9895
-3.6004 -2.3553 -2.1161 0.9810
-3.3052 -3.1260 -2.2376 0.9799
-2.8737 -3.9003 -2.3828 0.9786
-2.2902 -4.6603 -2.5540 0.9771
-1.9361 -5.0269 -2.6496 0.9763
-1.0947 -5.7111 -2.8601 0.9744
-0.6053 -6.0173 -2.9746 0.9734
0.5098 -6.5236 -3.2184 0.9713
1.7904 -6.8336 -3.4746 0.9690
2.4799 -6.8929 -3.6030 0.9679
3.1911 -6.8766 -3.7287 0.9668
3.9127 -6.7770 -3.8489 0.9657
4.6310 -6.5876 -3.9606 0.9647
5.9937 -5.9273 -4.1461 0.9631
6.6036 -5.4580 -4.2138 0.9625
7.1430 -4.9034 -4.2614 0.9621
7.5965 -4.2737 -4.2871 0.9619
8.2810 -0.5544 -4.0821 0.9637
8.1004 0.1805 -3.9852 0.9645
7.4862 1.5216 -3.7574 0.9665
6.7393 2.0085 -3.4588 0.9691
5.7529 2.9070 -3.1703 0.9717
5.2641 3.2785 -3.0503 0.9727
4.2513 3.8451 -2.8194 0.9748
3.7421 4.0459 -2.7107 0.9757
3.2390 4.1968 -2.6075 0.9766
2.7461 4.3017 -2.5102 0.9775
1.8038 4.3892 -2.3341 0.9791
1.3586 4.3795 -2.2553 0.9798
-0.5722 3.9237 -1.9503 0.9825
-0.9064 3.8032 -1.9230 0.9827
-1.2825 3.8307 -1.9870 0.9822
-1.5881 3.6322 -1.9498 0.9825
-1.8736 3.4189 -1.9176 0.9828
-2.8211 2.4395 -1.8344 0.9835
-3.1816 1.8845 -1.8188 0.9837
-3.3339 1.5924 -1.8173 0.9837
-3.4674 1.2913 -1.8199 0.9836
-3.5820 0.9812 -1.8267 0.9836
-2.2658 0.2025 -1.1189 0.9899
-2.2444 -0.2006 -1.1552 0.9899
-2.2416 -0.4038 -1.1677 0.9898
-2.2481 -0.6158 -1.1950 0.9896
-2.2593 -0.8414 -1.2360 0.9892
-3.2717 -2.8292 -2.2175 0.9807
-2.8831 -3.5685 -2.3520 0.9796
-2.6368 -3.9345 -2.4282 0.9789
-2.0309 -4.6449 -2.5990 0.9775
-1.6680 -4.9821 -2.6935 0.9767
-1.2634 -5.3013 -2.7940 0.9758
-0.8163 -5.5972 -2.8999 0.9749
-0.3269 -5.8637 -3.0108 0.9739
0.2037 -6.0939 -3.1259 0.9730
0.7735 -6.2805 -3.2442 0.9720
1.3787 -6.4157 -3.3642 0.9709
2.6711 -6.4997 -3.6026 0.9689
3.3415 -6.4335 -3.7166 0.9679
4.6733 -6.0553 -3.9214 0.9662
6.8927 -4.2928 -4.1630 0.9642
7.2700 -3.6737 -4.1759 0.9640
7.5535 -3.0062 -4.1679 0.9641
7.8193 -1.5894 -4.0907 0.9648
7.6882 -0.1713 -3.9425 0.9660
7.4882 0.5012 -3.8476 0.9668
7.2112 1.1339 -3.7424 0.9677
6.1687 2.1420 -3.3477 0.9711
5.2241 2.9390 -3.0730 0.9734
4.7623 3.2691 -2.9614 0.9744
4.2887 3.5447 -2.8525 0.9753
3.8104 3.7681 -2.7474 0.9762
3.3331 3.9424 -2.6467 0.9771
2.4002 4.1573 -2.4611 0.9787
1.5174 4.2177 -2.2980 0.9801
-0.0443 3.9786 -2.0399 0.9823
-0.3883 3.8599 -1.9888 0.9827
-1.0859 3.7977 -2.0250 0.9824
-1.3925 3.6154 -1.9863 0.9827
-1.6795 3.4178 -1.9523 0.9830
-2.1965 2.9811 -1.8984 0.9835
-2.4268 2.7441 -1.8781 0.9837
-2.6387 2.4957 -1.8620 0.9838
-2.8323 2.2367 -1.8502 0.9839
-3.3035 1.4008 -1.8396 0.9840
-3.4237 1.1040 -1.8442 0.9840
-2.4709 0.5598 -1.2989 0.9887
-2.2093 0.2971 -1.1428 0.9900
-2.2672 -0.9614 -1.2625 0.9890
-3.4787 -2.2757 -2.1311 0.9815
-3.3484 -2.6443 -2.1874 0.9810
-3.1870 -3.0142 -2.2489 0.9805
-2.9929 -3.3842 -2.3161 0.9799
-2.4999 -4.1154 -2.4686 0.9786
-1.0452 -5.4526 -2.8463 0.9754
-0.5769 -5.7345 -2.9548 0.9744
0.4839 -6.1932 -3.1847 0.9725
1.0720 -6.3551 -3.3041 0.9714
6.1725 -5.1017 -4.1054 0.9646
6.6717 -4.5799 -4.1487 0.9643
7.0925 -3.9902 -4.1721 0.9641
7.4239 -3.3451 -4.1745 0.9641
7.7910 -1.9487 -4.1173 0.9645
7.8226 -1.2301 -4.0597 0.9650
7.7562 -0.5192 -3.9852 0.9657
7.3586 0.8232 -3.7961 0.9673
6.6762 1.9897 -3.5715 0.9692
4.9952 3.1110 -3.0169 0.9739
3.0965 4.0122 -2.5983 0.9775
2.1741 4.1858 -2.4181 0.9790
1.7324 4.2156 -2.3366 0.9797
0.5070 4.1164 -2.1263 0.9815
0.1348 4.0302 -2.0673 0.9820
-0.2187 3.9218 -2.0137 0.9825
-0.5532 3.7932 -1.9652 0.9829
-1.2416 3.7086 -2.0050 0.9826
-1.5384 3.5185 -1.9687 0.9829
-1.8159 3.3136 -1.9371 0.9832
-2.3140 2.8640 -1.8877 0.9836
-2.5351 2.6213 -1.8695 0.9837
-3.2364 1.5459 -1.8388 0.9840
-3.3659 1.2535 -1.8414 0.9840
-3.4767 0.9523 -1.8481 0.9839
-2.2585 0.4069 -1.1765 0.9897
-2.1932 -0.8168 -1.2494 0.9894
-2.2033 -1.0524 -1.3035 0.9890
-3.4177 -2.0243 -2.1205 0.9822
-2.5372 -3.7858 -2.4329 0.9795
-2.2615 -4.1268 -2.5122 0.9789
-1.9490 -4.4576 -2.5972 0.9782
-1.5984 -4.7741 -2.6877 0.9774
-1.2087 -5.0721 -2.7835 0.9766
-0.3117 -5.5913 -2.9896 0.9749
1.3075 -6.0846 -3.3224 0.9722
1.9062 -6.1451 -3.4347 0.9712
2.5240 -6.1418 -3.5448 0.9703
3.7796 -5.9206 -3.7498 0.9687
4.3945 -5.6941 -3.8398 0.9679
6.0285 -4.5463 -4.0308 0.9663
6.8100 -3.4412 -4.0732 0.9660
7.0764 -2.8164 -4.0659 0.9661
7.2518 -2.1612 -4.0396 0.9663
7.3245 -0.8194 -3.9345 0.9671
7.0495 0.4719 -3.7717 0.9685
6.7996 1.0692 -3.6745 0.9693
4.9615 2.7912 -3.0391 0.9745
3.6382 3.5979 -2.7316 0.9771
2.7414 3.8996 -2.5447 0.9786
1.8746 4.0397 -2.3775 0.9800
1.4596 4.0571 -2.3018 0.9806
0.3074 3.9342 -2.1067 0.9823
-0.0428 3.8436 -2.0520 0.9827
-0.3754 3.7320 -2.0024 0.9831
-0.7185 3.7484 -2.0375 0.9828
-1.3491 3.5029 -2.0039 0.9831
-1.6281 3.3132 -1.9707 0.9834
-2.3553 2.6632 -1.8980 0.9840
-2.9206 1.9106 -1.8631 0.9843
-2.1681 0.2915 -1.1679 0.9901
-2.1735 0.0969 -1.1615 0.9902
-2.1765 -0.0971 -1.1631 0.9902
-2.1807 -0.4941 -1.1936 0.9899
-2.1912 -0.7066 -1.2291 0.9896
-2.2000 -0.9329 -1.2757 0.9892
-2.2448 -1.1979 -1.3583 0.9885
-3.3636 -2.2004 -2.1457 0.9819
-3.0751 -2.9085 -2.2596 0.9810
-2.4039 -3.9574 -2.4718 0.9792
-2.1100 -4.2937 -2.5540 0.9785
-1.7785 -4.6179 -2.6417 0.9778
-0.9992 -5.2126 -2.8334 0.9762
-0.5506 -5.4729 -2.9365 0.9754
-0.0635 -5.7009 -3.0436 0.9745
0.4603 -5.8898 -3.1538 0.9736
1.0176 -6.0327 -3.2660 0.9726
2.2132 -6.1518 -3.4902 0.9708
2.8373 -6.1143 -3.5984 0.9699
3.4666 -6.0043 -3.7012 0.9691
4.0894 -5.8173 -3.7961 0.9683
4.6931 -5.5511 -3.8805 0.9676
5.7881 -4.7840 -4.0088 0.9665
6.6442 -3.7379 -4.0697 0.9660
6.9543 -3.1335 -4.0720 0.9660
7.1757 -2.4917 -4.0551 0.9661
7.3405 -1.1543 -3.9668 0.9669
7.2864 -0.4878 -3.8985 0.9674
6.6507 1.3518 -3.6230 0.9697
5.6714 2.2572 -3.2586 0.9727
2.0871 4.0185 -2.4173 0.9797
0.8651 4.0259 -2.1983 0.9815
-0.8956 3.7582 -2.0625 0.9826
-1.2026 3.5921 -2.0222 0.9830
-1.4909 3.4098 -1.9868 0.9833
-2.8376 2.0423 -1.8664 0.9843
-2.9992 1.7764 -1.8609 0.9843
-3.1429 1.5012 -1.8594 0.9843
-3.2685 1.2172 -1.8620 0.9843
-2.2057 0.3974 -1.1965 0.9899
-2.1547 0.1925 -1.1549 0.9902
-2.1202 -0.1895 -1.1823 0.9903
-2.1317 -0.7938 -1.2634 0.9896
-3.0509 -2.6382 -2.2401 0.9817
-2.6776 -3.3141 -2.3663 0.9807
-2.4432 -3.6455 -2.4374 0.9801
-1.8721 -4.2817 -2.5954 0.9788
-1.5332 -4.5795 -2.6822 0.9781
-1.1578 -4.8583 -2.7738 0.9774
-0.7457 -5.1133 -2.8699 0.9766
-0.2977 -5.3390 -2.9699 0.9758
0.1849 -5.5297 -3.0729 0.9750
1.2423 -5.7809 -3.2840 0.9733
1.8080 -5.8285 -3.3893 0.9725
2.3901 -5.8158 -3.4922 0.9716
5.2050 -4.7077 -3.8978 0.9684
5.6672 -4.2739 -3.9423 0.9680
6.3979 -3.2330 -3.9813 0.9677
6.6527 0.4453 -3.7031 0.9700
6.4262 1.0105 -3.6129 0.9707
6.1410 1.5359 -3.5157 0.9715
5.8063 2.0161 -3.4136 0.9723
5.2327 2.3578 -3.1876 0.9741
4.3179 2.9640 -2.9088 0.9763
