ply
format ascii 1.0
element vertex 1587
property float32 x
property float32 y
property float32 z
property float32 I
end_header
-9.8667 -1.7776 -0.9191 0.9605
-10.1139 -2.7705 -0.9614 0.9588
-11.0437 -7.9488 -1.2474 0.9468
-11.2635 -9.7399 -1.3651 0.9419
-2.9317 10.2530 -0.9776 0.9581
-3.8634 10.0312 -0.9855 0.9577
-5.1131 8.4174 -0.9029 0.9612
-5.6480 7.6655 -0.8729 0.9625
-6.5848 6.2279 -0.8309 0.9642
-7.0003 5.5281 -0.8177 0.9648
-7.7499 4.1355 -0.8053 0.9653
-8.7229 1.9764 -0.8200 0.9647
-9.4817 -0.4228 -0.8701 0.9626
-9.7404 -1.3100 -0.9010 0.9613
-10.2349 -3.3003 -0.9859 0.9577
-11.1543 -8.8084 -1.3030 0.9445
0.4641 13.8804 -1.2732 0.9457
-1.6988 11.6482 -1.0792 0.9538
-2.5492 10.6971 -1.0081 0.9568
-4.2021 9.6107 -0.9616 0.9587
-4.8253 8.8052 -0.9205 0.9605
-5.3869 8.0379 -0.8871 0.9619
-6.3650 6.5813 -0.8394 0.9639
-6.7964 5.8771 -0.8237 0.9646
-7.5715 4.4846 -0.8068 0.9653
-7.9232 3.7846 -0.8050 0.9653
-8.2555 3.0744 -0.8076 0.9652
-9.2567 -1.6677 -1.0202 0.9629
-9.4616 -2.5918 -1.0641 0.9613
-6.2064 -2.9646 -0.7460 0.9727
-10.1360 -7.2954 -1.3546 0.9510
-10.2581 -8.8705 -1.4710 0.9469
2.4238 14.3694 -1.5806 0.9431
-2.7290 9.5442 -1.0767 0.9608
-3.6084 9.3692 -1.0890 0.9604
-4.2367 8.6214 -1.0419 0.9621
-4.8023 7.9056 -1.0033 0.9635
-5.7839 6.5400 -0.9470 0.9655
-6.2146 5.8778 -0.9278 0.9662
-7.9529 2.5645 -0.9064 0.9669
-3.7517 0.5046 -0.4106 0.9849
-3.7330 0.1664 -0.4053 0.9851
-3.9258 -0.1750 -0.4262 0.9843
-9.3608 -2.1208 -1.0411 0.9621
-9.5592 -3.0824 -1.0894 0.9604
-10.3092 -9.7503 -1.5391 0.9445
1.6946 13.7591 -1.5037 0.9457
0.4231 12.6529 -1.3732 0.9503
-1.5701 10.7657 -1.1801 0.9572
-2.3679 9.9362 -1.1079 0.9597
-3.0684 9.1650 -1.0483 0.9619
-5.0648 7.5572 -0.9868 0.9641
-6.8007 4.8948 -0.9089 0.9668
-7.1574 4.2394 -0.9023 0.9671
-7.4909 3.5781 -0.9004 0.9672
-7.8036 2.9061 -0.9032 0.9671
-8.0978 2.2182 -0.9107 0.9668
-3.7414 0.3343 -0.4074 0.9850
-3.7700 -0.3369 -0.4743 0.9849
-9.0390 -3.3662 -1.2087 0.9619
-9.2811 -5.4972 -1.3518 0.9574
2.1992 13.0374 -1.6569 0.9481
0.9431 12.0694 -1.5171 0.9524
-1.0452 10.3894 -1.3085 0.9588
-1.8466 9.6337 -1.2292 0.9612
-2.5520 8.9250 -1.1633 0.9633
-3.1786 8.2533 -1.1083 0.9650
-5.0186 6.8114 -1.0603 0.9665
-5.4689 6.1839 -1.0345 0.9673
-6.9463 3.7067 -0.9867 0.9688
-7.5374 2.4305 -0.9925 0.9686
-3.5494 0.4773 -0.4488 0.9857
-8.6241 -1.1598 -1.0905 0.9655
-8.8033 -1.9946 -1.1312 0.9643
-9.2294 -4.9249 -1.3110 0.9587
-9.3937 -7.4181 -1.5000 0.9529
-9.4115 -10.6418 -1.7803 0.9443
2.9149 13.5646 -1.7387 0.9456
-2.2101 9.2741 -1.1947 0.9623
-3.6921 8.4442 -1.1549 0.9635
-4.2618 7.7768 -1.1113 0.9649
-5.2487 6.4964 -1.0466 0.9669
-6.7851 4.0188 -0.9882 0.9687
-7.1019 3.3923 -0.9863 0.9688
-7.3973 2.7548 -0.9892 0.9687
-7.6729 2.1018 -0.9970 0.9684
-3.3944 0.0000 -0.4828 0.9864
-8.2328 -1.4832 -1.1899 0.9668
-8.5929 -4.1045 -1.3545 0.9623
4.9614 13.7903 -2.0846 0.9425
2.0119 11.9273 -1.7205 0.9523
0.8691 11.1215 -1.5867 0.9559
-0.1156 10.3760 -1.4759 0.9589
-0.9737 9.6786 -1.3836 0.9615
-2.9926 7.7703 -1.1843 0.9669
-4.2789 7.0442 -1.1723 0.9672
-4.7523 6.4499 -1.1395 0.9681
-5.5832 5.2805 -1.0931 0.9694
-6.2885 4.1138 -1.0688 0.9701
-6.6020 3.5229 -1.0644 0.9702
-6.8925 2.9227 -1.0649 0.9702
-7.1617 2.3094 -1.0703 0.9701
-4.1432 0.9387 -0.6042 0.9830
-3.3671 0.4528 -0.4832 0.9864
-3.3610 0.1499 -0.4785 0.9865
-3.6292 -0.4881 -0.5208 0.9853
-8.6312 -4.6058 -1.3915 0.9612
-8.6849 -5.6814 -1.4762 0.9589
-8.7033 -6.8729 -1.5774 0.9562
-8.6010 -9.7253 -1.8467 0.9489
-8.4539 -11.4738 -2.0271 0.9440
2.6555 12.3576 -1.7978 0.9502
0.3592 10.7421 -1.5288 0.9575
-3.2680 7.4741 -1.1603 0.9676
-4.0253 7.3453 -1.1914 0.9667
-4.5210 6.7458 -1.1551 0.9677
-5.7702 4.9897 -1.0850 0.9696
-6.1224 4.4067 -1.0729 0.9700
-7.0297 2.6179 -1.0670 0.9701
-7.2887 1.9966 -1.0749 0.9699
-3.6717 0.6615 -0.5307 0.9850
-3.3525 0.2996 -0.4787 0.9865
-3.2915 -0.0000 -0.5241 0.9868
-3.3916 -0.3031 -0.5422 0.9863
-7.7986 -1.4050 -1.2618 0.9684
-8.0126 -2.9839 -1.3615 0.9660
-7.9856 -8.2569 -1.8291 0.9545
6.1948 13.3494 -2.3434 0.9421
4.4954 12.4950 -2.1145 0.9476
3.0686 11.7125 -1.9280 0.9521
1.8533 10.9872 -1.7743 0.9559
0.8055 10.3081 -1.6464 0.9590
-0.9110 9.0555 -1.4493 0.9638
-3.5574 7.2392 -1.2844 0.9679
-5.9889 3.9178 -1.1396 0.9714
-6.5654 2.7840 -1.1356 0.9715
-3.4817 -0.4682 -0.5594 0.9859
-7.8610 -1.7811 -1.2835 0.9679
-7.9683 -2.5694 -1.3332 0.9667
-8.1238 -5.3143 -1.5458 0.9614
-8.1050 -6.4004 -1.6445 0.9590
-7.9161 -8.9508 -1.9027 0.9528
3.7522 12.0957 -2.0166 0.9500
2.4376 11.3434 -1.8475 0.9541
1.3108 10.6425 -1.7075 0.9575
-1.2775 8.7590 -1.4095 0.9648
-2.5491 7.6140 -1.2786 0.9680
-4.2892 6.4000 -1.2268 0.9693
-4.7247 5.8478 -1.1971 0.9700
-5.4913 4.7486 -1.1560 0.9710
-6.1419 3.6379 -1.1367 0.9715
-6.6954 2.4934 -1.1377 0.9715
-3.1939 0.0000 -0.5632 0.9871
-3.2817 -0.2933 -0.5809 0.9867
-7.4059 -1.3342 -1.3269 0.9699
-7.5054 -2.0559 -1.3722 0.9689
-7.5790 -2.8224 -1.4260 0.9677
-7.5397 -6.5198 -1.7576 0.9603
-7.4155 -7.6675 -1.8808 0.9576
-6.9543 -10.3765 -2.2026 0.9505
-6.5791 -12.0053 -2.4139 0.9459
4.1075 11.4170 -2.1394 0.9519
1.7173 10.1806 -1.8205 0.9589
0.7503 9.6021 -1.6983 0.9616
-2.6765 6.9495 -1.3131 0.9702
-3.3752 6.8685 -1.3494 0.9694
-3.8549 6.3461 -1.3093 0.9703
-4.6949 5.3086 -1.2496 0.9716
-5.0638 4.7893 -1.2290 0.9721
-6.2663 2.6572 -1.2002 0.9727
-3.8238 0.8664 -0.6913 0.9842
-3.1779 0.4274 -0.5654 0.9871
-3.1644 0.1411 -0.5585 0.9872
-3.3507 -0.4506 -0.5961 0.9864
-7.4587 -1.6899 -1.3485 0.9694
-7.5456 -2.4331 -1.3980 0.9683
-7.6343 -4.0738 -1.5258 0.9655
-7.6282 -4.9902 -1.6073 0.9637
-7.3296 -8.2876 -1.9508 0.9561
-6.3433 -12.9082 -2.5361 0.9433
3.4422 11.0965 -2.0486 0.9539
2.2518 10.4789 -1.8899 0.9574
0.3117 9.3210 -1.6445 0.9628
-1.8389 7.7164 -1.3987 0.9683
-4.4984 5.5677 -1.2621 0.9713
-4.8833 5.0492 -1.2386 0.9719
-5.5624 4.0036 -1.2084 0.9725
-5.8619 3.4720 -1.2013 0.9727
-6.1372 2.9315 -1.1993 0.9728
-6.3899 2.3797 -1.2023 0.9727
-4.2904 1.1753 -0.7844 0.9821
-3.4371 0.6192 -0.6158 0.9859
-3.1015 0.0000 -0.6002 0.9874
-3.1775 -0.2839 -0.6174 0.9871
-3.3117 -0.5966 -0.6512 0.9864
-7.1318 -1.9536 -1.4310 0.9703
-7.2136 -3.4457 -1.5470 0.9680
-7.2056 -4.2679 -1.6206 0.9665
-7.1584 -5.1523 -1.7068 0.9647
-7.0657 -6.1100 -1.8077 0.9627
6.6807 11.5713 -2.5857 0.9470
3.7795 10.5053 -2.1605 0.9555
-0.0946 8.4952 -1.6441 0.9660
-1.4452 7.5397 -1.4856 0.9692
-2.0204 7.0660 -1.4222 0.9705
-2.5410 6.5976 -1.3682 0.9716
-3.2099 6.5321 -1.4084 0.9708
-3.6714 6.0440 -1.3685 0.9716
-4.0938 5.5562 -1.3356 0.9723
-5.1638 4.0778 -1.2733 0.9735
-5.4641 3.5745 -1.2636 0.9737
-5.7397 3.0628 -1.2590 0.9738
-3.6833 0.8345 -0.7308 0.9847
-3.1048 0.4175 -0.6062 0.9873
-3.1273 -0.1394 -0.6058 0.9873
-3.2339 -0.4349 -0.6315 0.9868
-7.0936 -1.6071 -1.4075 0.9708
-7.2046 -3.0550 -1.5144 0.9686
-7.1873 -4.7017 -1.6620 0.9656
-7.1183 -5.6212 -1.7552 0.9637
-6.9996 -6.6202 -1.8644 0.9615
-6.8216 -7.7132 -1.9927 0.9589
-6.5714 -8.9187 -2.1438 0.9559
-5.7828 -11.7677 -2.5374 0.9480
-5.1913 -13.4788 -2.7952 0.9429
7.5604 11.8432 -2.7191 0.9444
5.8697 11.3012 -2.4644 0.9494
4.4252 10.7680 -2.2529 0.9537
2.0914 9.7328 -1.9265 0.9603
-0.2279 4.0880 -0.7923 0.9835
-3.8872 5.8002 -1.3512 0.9720
-5.0038 4.3270 -1.2802 0.9734
-5.6049 3.3198 -1.2606 0.9738
-5.8686 2.8032 -1.2586 0.9739
-6.1096 2.2752 -1.2616 0.9738
-4.1641 1.1407 -0.8355 0.9826
-3.3306 0.6000 -0.6549 0.9863
-3.0639 0.2738 -0.5953 0.9875
-6.7916 -1.8604 -1.4846 0.9716
-6.8327 -2.5445 -1.5371 0.9706
-6.8187 -4.0387 -1.6708 0.9681
-6.7549 -4.8618 -1.7546 0.9666
-6.6452 -5.7463 -1.8521 0.9647
-5.5514 -10.1300 -2.4353 0.9539
-4.3781 -13.0767 -2.9072 0.9452
1.4957 8.8668 -1.8957 0.9639
-0.4250 4.2248 -0.8952 0.9828
-1.3695 7.1444 -1.5336 0.9707
-3.9110 5.3080 -1.3900 0.9734
-4.2849 4.8450 -1.3635 0.9739
-4.6282 4.3773 -1.3430 0.9743
-4.9434 3.9038 -1.3280 0.9746
-5.4974 2.9335 -1.3136 0.9748
-5.9579 1.9212 -1.3197 0.9747
-3.5520 0.8048 -0.7678 0.9852
-3.0505 -0.1360 -0.6437 0.9876
-3.1545 -0.4242 -0.6710 0.9871
-6.7605 -1.5317 -1.4614 0.9721
-6.8158 -2.1978 -1.5098 0.9711
-6.8355 -3.6475 -1.6334 0.9688
-3.9824 -13.9273 -3.0538 0.9425
8.5944 11.1362 -2.9656 0.9441
6.8660 10.7553 -2.6901 0.9492
5.3768 10.3522 -2.4593 0.9534
2.9503 9.5107 -2.0993 0.9601
1.9516 9.0819 -1.9584 0.9627
0.2749 8.2207 -1.7341 0.9669
-1.0736 7.3614 -1.5683 0.9700
-1.6508 6.9272 -1.5013 0.9713
-2.1741 6.4938 -1.4437 0.9724
-2.6502 6.0611 -1.3946 0.9733
-3.2862 5.9967 -1.4416 0.9724
-3.7117 5.5382 -1.4055 0.9731
-4.4602 4.6118 -1.3526 0.9741
-4.7892 4.1414 -1.3348 0.9744
-5.0912 3.6644 -1.3224 0.9747
-5.3680 3.1795 -1.3153 0.9748
-5.6210 2.6849 -1.3133 0.9749
-5.8512 2.1790 -1.3163 0.9748
-4.0001 1.0957 -0.8744 0.9832
-2.9810 0.2664 -0.6310 0.9878
-2.9710 0.0000 -0.6781 0.9879
-3.0430 -0.2719 -0.6973 0.9875
-3.1642 -0.5701 -0.7338 0.9869
-6.4803 -1.7751 -1.5336 0.9728
-6.5064 -3.1079 -1.6458 0.9708
8.6379 10.2169 -3.0537 0.9466
7.0163 9.9808 -2.7846 0.9512
4.3547 9.3842 -2.3613 0.9584
3.2545 9.0460 -2.1943 0.9613
-2.3049 5.9847 -1.4638 0.9740
-2.9209 5.9439 -1.5116 0.9732
-3.3494 5.5139 -1.4725 0.9739
-3.7426 5.0796 -1.4401 0.9744
-4.4354 4.1950 -1.3934 0.9753
-4.7398 3.7430 -1.3785 0.9755
-5.0186 3.2830 -1.3688 0.9757
-5.2732 2.8139 -1.3642 0.9758
-5.5048 2.3342 -1.3647 0.9758
-2.9625 0.3984 -0.6823 0.9878
-2.9994 -0.1337 -0.6853 0.9878
-6.4983 -2.0954 -1.5584 0.9724
-6.5118 -2.7613 -1.6144 0.9714
-6.4923 -3.4644 -1.6796 0.9703
-6.3368 -5.0041 -1.8429 0.9674
-4.9072 -9.9858 -2.5395 0.9554
-4.3383 -11.2640 -2.7550 0.9517
9.5380 10.3124 -3.2061 0.9440
6.2846 9.8447 -2.6658 0.9532
4.9576 9.5450 -2.4549 0.9568
3.7880 9.2176 -2.2746 0.9599
2.7516 8.8703 -2.1198 0.9626
1.8285 8.5089 -1.9864 0.9649
0.2594 7.7582 -1.7717 0.9687
-1.5696 6.5863 -1.5454 0.9726
-2.0710 6.1858 -1.4889 0.9736
-2.5285 5.7829 -1.4406 0.9744
-3.5502 5.2973 -1.4555 0.9742
-3.9270 4.8606 -1.4262 0.9747
-4.2731 4.4184 -1.4030 0.9751
-5.3919 2.5755 -1.3638 0.9758
-5.6121 2.0900 -1.3669 0.9757
-3.8726 1.0608 -0.9164 0.9837
-2.9882 -0.2670 -0.7374 0.9877
-6.1942 -1.6968 -1.5786 0.9739
-6.2124 -2.3135 -1.6294 0.9731
-6.0637 -4.3644 -1.8364 0.9697
-5.9315 -5.1292 -1.9275 0.9682
-5.7478 -5.9432 -2.0323 0.9665
-5.5041 -6.8125 -2.1528 0.9646
-5.1901 -7.7443 -2.2915 0.9623
-4.7931 -8.7463 -2.4515 0.9598
-3.6820 -10.9976 -2.8507 0.9534
-2.9235 -12.2677 -3.0999 0.9494
9.4821 9.3771 -3.2779 0.9466
7.8689 9.3073 -2.9958 0.9510
6.4422 9.1641 -2.7534 0.9549
3.0410 8.4525 -2.2080 0.9637
2.1368 8.1559 -2.0724 0.9659
-1.7413 6.0899 -1.5569 0.9742
-2.2014 5.7160 -1.5056 0.9751
-2.7937 5.6851 -1.5570 0.9742
-3.9362 4.4507 -1.4604 0.9758
-4.2568 4.0261 -1.4402 0.9762
-4.8199 3.1531 -1.4157 0.9766
-5.0652 2.7029 -1.4112 0.9766
-5.2875 2.2421 -1.4117 0.9766
-5.4875 1.7695 -1.4172 0.9765
-3.3132 0.7507 -0.8350 0.9861
-3.1571 -0.7153 -0.7957 0.9868
-6.1797 -3.2976 -1.7217 0.9716
-6.0036 -4.7410 -1.8803 0.9690
-5.8466 -5.5296 -1.9780 0.9674
-5.6340 -6.3705 -2.0904 0.9656
-5.3567 -7.2701 -2.2197 0.9635
-5.0029 -8.2359 -2.3686 0.9611
-4.0058 -10.4008 -2.7396 0.9551
-2.4812 -12.9440 -3.2396 0.9472
-1.4468 -14.3815 -3.5528 0.9422
8.6504 9.3527 -3.1314 0.9489
7.1339 9.2437 -2.8700 0.9530
5.7906 9.0708 -2.6452 0.9566
0.9456 7.6775 -1.9014 0.9686
-0.2294 4.1131 -1.0126 0.9832
-1.9765 5.9036 -1.5303 0.9747
-3.0048 5.4832 -1.5369 0.9746
-3.4011 5.0749 -1.5016 0.9751
-3.7653 4.6604 -1.4727 0.9756
-4.0999 4.2393 -1.4496 0.9760
-4.4071 3.8109 -1.4321 0.9763
-4.9454 2.9292 -1.4128 0.9766
-5.1791 2.4739 -1.4108 0.9766
-3.0843 0.5557 -0.7703 0.9872
-2.8744 -0.0000 -0.7574 0.9882
-2.9343 -0.2622 -0.7763 0.9879
-5.9174 -2.8265 -1.7280 0.9732
-5.7652 -4.1496 -1.8717 0.9710
-5.6258 -4.8648 -1.9598 0.9697
-5.1891 -6.4227 -2.1757 0.9664
-4.4832 -8.1808 -2.4581 0.9621
-3.9997 -9.1475 -2.6307 0.9595
-2.6885 -11.2815 -3.0559 0.9532
-0.7639 -13.6995 -3.6154 0.9448
10.2084 8.4374 -3.4898 0.9467
8.6341 8.5385 -3.1997 0.9510
7.2207 8.5407 -2.9470 0.9548
5.9512 8.4657 -2.7267 0.9581
4.8095 8.3303 -2.5346 0.9610
2.0118 7.6791 -2.0917 0.9677
1.2494 7.4070 -1.9793 0.9694
0.5561 7.1164 -1.8809 0.9709
-0.0759 6.8109 -1.7948 0.9722
-1.1806 6.1593 -1.6525 0.9744
-1.6635 5.8175 -1.5944 0.9753
-3.4428 4.6726 -1.5294 0.9763
-3.7805 4.2747 -1.5037 0.9767
-4.0907 3.8690 -1.4836 0.9770
-4.3750 3.4550 -1.4690 0.9772
-4.8713 2.5995 -1.4549 0.9774
-5.0851 2.1563 -1.4554 0.9774
-2.8316 0.3808 -0.7529 0.9883
-2.9007 -0.1293 -0.7651 0.9881
-3.0953 -0.7013 -0.8363 0.9870
-5.8936 -3.1449 -1.7603 0.9727
-5.3204 -6.0159 -2.1162 0.9673
-4.6897 -7.7203 -2.3802 0.9633
-3.7185 -9.6550 -2.7263 0.9581
-3.0657 -10.7214 -2.9383 0.9549
-0.1598 -14.3441 -3.7799 0.9424
7.9084 8.5505 -3.0690 0.9530
3.3049 8.0419 -2.2910 0.9647
0.8946 7.2637 -1.9285 0.9702
-1.4273 5.9894 -1.6224 0.9749
-1.8895 5.6438 -1.5683 0.9757
-2.8800 5.2555 -1.5791 0.9755
-3.6152 4.4747 -1.5158 0.9765
-3.9390 4.0729 -1.4930 0.9768
-4.2360 3.6631 -1.4756 0.9771
-4.5080 3.2447 -1.4635 0.9773
-3.7366 1.0235 -1.0209 0.9841
-3.0018 0.5408 -0.8037 0.9875
-2.8347 0.2533 -0.7499 0.9883
-2.8279 0.0000 -0.7956 0.9883
-2.8819 -0.2575 -0.8141 0.9880
-2.9786 -0.5366 -0.8515 0.9875
-5.6858 -1.5575 -1.6587 0.9758
-5.4924 -3.9532 -1.9040 0.9723
-5.3477 -4.6243 -1.9892 0.9710
-5.1545 -5.3297 -2.0861 0.9697
-4.9059 -6.0721 -2.1964 0.9681
-4.2087 -7.6799 -2.4640 0.9643
-3.1702 -9.4688 -2.8095 0.9594
-2.4869 -10.4354 -3.0183 0.9564
-1.6700 -11.4500 -3.2556 0.9531
0.4540 -13.5801 -3.8230 0.9451
10.7965 7.4114 -3.6845 0.9470
7.9197 7.8319 -3.1338 0.9548
6.6668 7.8855 -2.9053 0.9580
5.5264 7.8613 -2.7037 0.9609
4.4887 7.7747 -2.5259 0.9634
3.5444 7.6380 -2.3691 0.9656
2.6842 7.4610 -2.2309 0.9676
1.8998 7.2514 -2.1091 0.9693
0.5281 6.7583 -1.9073 0.9722
-0.0723 6.4831 -1.8242 0.9734
-0.4175 4.1504 -1.1736 0.9828
-1.1279 5.8841 -1.6856 0.9754
-1.5917 5.5664 -1.6289 0.9762
-2.0179 5.2395 -1.5797 0.9769
-2.5673 5.2244 -1.6378 0.9761
-2.9533 4.8617 -1.6004 0.9766
-3.6355 4.1107 -1.5440 0.9775
-4.2109 3.3254 -1.5097 0.9780
-4.6903 2.5028 -1.4958 0.9782
-3.1370 0.7108 -0.9050 0.9867
-2.7751 0.3732 -0.7878 0.9884
-2.8062 0.1251 -0.7903 0.9884
-2.8531 -0.1272 -0.8035 0.9882
-2.9298 -0.3940 -0.8317 0.9878
-3.0353 -0.6877 -0.8756 0.9872
-3.2049 -1.0334 -0.9474 0.9861
-5.6768 -2.4072 -1.7349 0.9747
-5.6307 -3.0046 -1.7957 0.9738
-5.4258 -4.2847 -1.9452 0.9717
-5.0376 -5.6961 -2.1395 0.9689
-2.8440 -9.9461 -2.9105 0.9579
-2.0964 -10.9368 -3.1332 0.9548
1.1040 -14.1287 -3.9873 0.9428
7.2786 7.8695 -3.0160 0.9564
6.0831 7.8821 -2.8013 0.9595
4.9953 7.8250 -2.6120 0.9622
3.1043 7.5540 -2.2978 0.9666
2.2830 7.3598 -2.1681 0.9685
1.5335 7.1364 -2.0537 0.9701
0.2214 6.6227 -1.8644 0.9728
-0.2310 4.1421 -1.1672 0.9829
-2.7642 5.0442 -1.6183 0.9764
-3.1345 4.6771 -1.5841 0.9769
-3.4754 4.3016 -1.5560 0.9773
-4.0764 3.5250 -1.5163 0.9779
-4.5791 2.7122 -1.4974 0.9781
-3.6501 0.9999 -1.0648 0.9844
-2.9229 0.5266 -0.8356 0.9877
-2.8308 -0.2530 -0.8509 0.9882
-3.0126 -0.8252 -0.9351 0.9870
-5.4183 -2.5881 -1.7977 0.9752
-5.3489 -3.1681 -1.8612 0.9744
-5.2421 -3.7730 -1.9336 0.9734
-4.8982 -5.0647 -2.1094 0.9710
-4.3411 -6.4774 -2.3345 0.9680
-3.9637 -7.2329 -2.4692 0.9661
-1.5439 -10.5856 -3.2026 0.9563
1.6371 -13.2927 -4.0096 0.9456
12.7102 5.7269 -4.1736 0.9435
9.8310 6.7486 -3.5699 0.9514
8.5232 7.0446 -3.3104 0.9549
7.3091 7.2282 -3.0775 0.9580
6.1876 7.3187 -2.8692 0.9608
5.1549 7.3329 -2.6835 0.9633
3.3339 7.1843 -2.3711 0.9675
1.1235 6.6605 -2.0222 0.9722
-0.0689 6.1830 -1.8512 0.9745
-0.4174 4.1488 -1.2483 0.9827
-1.0792 5.6300 -1.7162 0.9763
-1.5251 5.3338 -1.6608 0.9771
-1.9361 5.0269 -1.6127 0.9778
-2.8393 4.6741 -1.6373 0.9774
-3.1833 4.3204 -1.6066 0.9778
-3.7909 3.5854 -1.5621 0.9784
-4.3003 2.8132 -1.5384 0.9788
-3.0564 0.6925 -0.9382 0.9870
-2.7619 0.1231 -0.8277 0.9885
-2.8066 -0.1252 -0.8411 0.9883
-5.3880 -2.8751 -1.8284 0.9748
-5.0021 -4.7309 -2.0612 0.9717
-4.5035 -6.1122 -2.2729 0.9688
-4.1616 -6.8509 -2.3998 0.9671
-3.7463 -7.6234 -2.5430 0.9652
-3.2467 -8.4298 -2.7044 0.9630
-2.6505 -9.2694 -2.8863 0.9605
-1.9437 -10.1400 -3.0910 0.9578
-1.1102 -11.0354 -3.3205 0.9547
1.0037 -12.8442 -3.8570 0.9476
10.5194 6.5515 -3.7102 0.9496
9.1654 6.9120 -3.4368 0.9532
7.9044 7.1491 -3.1908 0.9565
6.7370 7.2840 -2.9704 0.9594
5.6604 7.3345 -2.7737 0.9621
4.6702 7.3157 -2.5984 0.9644
2.9252 7.1180 -2.3039 0.9684
2.1583 6.9578 -2.1810 0.9700
0.8065 6.5487 -1.9754 0.9728
-0.8421 5.7737 -1.7468 0.9759
-1.3067 5.4833 -1.6876 0.9767
-1.7348 5.1817 -1.6359 0.9774
-2.1933 5.0162 -1.6390 0.9774
-2.6564 4.8474 -1.6548 0.9772
-3.3449 4.1401 -1.5934 0.9780
-3.9271 3.3959 -1.5543 0.9786
-4.1817 3.0098 -1.5425 0.9787
-4.4133 2.6140 -1.5356 0.9788
-4.6226 2.2080 -1.5337 0.9788
-2.7412 0.2450 -0.8239 0.9886
-2.7380 -0.0000 -0.8695 0.9886
-2.7827 -0.2487 -0.8873 0.9883
-2.8694 -0.5170 -0.9260 0.9878
-2.9540 -0.8092 -0.9727 0.9872
-5.2367 -1.9501 -1.7747 0.9768
-5.1959 -2.4819 -1.8287 0.9761
-5.1219 -3.0337 -1.8906 0.9753
-3.7437 -6.8313 -2.4740 0.9678
-3.3017 -7.5511 -2.6173 0.9660
-1.4345 -9.8356 -3.1567 0.9591
-0.5919 -10.6154 -3.3765 0.9564
1.4945 -12.1344 -3.8828 0.9500
12.7906 4.4414 -4.3000 0.9448
9.0166 6.1896 -3.4733 0.9551
7.8645 6.5002 -3.2403 0.9581
4.8271 6.8667 -2.6657 0.9654
3.9537 6.8481 -2.5113 0.9674
2.3977 6.6646 -2.2494 0.9707
1.7070 6.5156 -2.1391 0.9721
0.4792 6.1323 -1.9534 0.9745
-0.0658 5.9059 -1.8757 0.9755
-0.4175 4.1503 -1.3247 0.9826
-1.4634 5.1178 -1.6905 0.9779
-1.8600 4.8294 -1.6436 0.9785
-2.3715 4.8260 -1.7077 0.9777
-2.7327 4.4987 -1.6717 0.9782
-3.0660 4.1612 -1.6415 0.9785
-4.1484 2.7138 -1.5743 0.9794
-4.3614 2.3274 -1.5700 0.9795
-4.5526 1.9305 -1.5705 0.9795
-2.7612 -0.1231 -0.8778 0.9885
-5.1633 -2.7552 -1.8586 0.9757
-5.0715 -3.3176 -1.9246 0.9749
-4.5471 -5.1415 -2.1798 0.9716
-3.5324 -7.1882 -2.5436 0.9669
-3.0503 -7.9198 -2.6953 0.9650
-0.1226 -11.0022 -3.4944 0.9549
2.1075 -12.4941 -4.0240 0.9482
13.4428 4.0064 -4.4548 0.9428
12.1420 4.8324 -4.1503 0.9466
7.3140 6.6151 -3.1319 0.9595
6.2661 6.7748 -2.9308 0.9620
5.2893 6.8535 -2.7494 0.9643
4.3821 6.8644 -2.5864 0.9664
2.7641 6.7261 -2.3094 0.9699
2.0456 6.5942 -2.1927 0.9714
0.7682 6.2372 -1.9958 0.9740
-0.8062 5.5282 -1.7742 0.9768
-1.2530 5.2579 -1.7166 0.9776
-1.6656 4.9749 -1.6661 0.9782
-2.1700 4.9630 -1.7202 0.9775
-3.2226 3.9887 -1.6286 0.9787
-3.5170 3.6366 -1.6067 0.9790
-3.7870 3.2747 -1.5900 0.9792
-4.2577 2.5218 -1.5716 0.9794
-4.6401 1.7280 -1.5725 0.9794
-3.4730 0.9513 -1.1436 0.9850
-2.7374 -0.2446 -0.9234 0.9885
-2.8971 -0.7936 -1.0092 0.9874
-4.7980 -3.4534 -1.9862 0.9754
-3.1166 -7.1279 -2.6138 0.9677
-2.6123 -7.8025 -2.7645 0.9659
-2.0228 -8.4879 -2.9317 0.9638
0.3518 -10.5224 -3.5373 0.9565
1.3735 -11.1523 -3.7753 0.9537
13.7188 2.1572 -4.6659 0.9431
12.6788 3.1712 -4.3911 0.9463
11.5874 4.0236 -4.1212 0.9496
8.3201 5.7114 -3.3907 0.9583
5.3996 6.3867 -2.8099 0.9653
4.5358 6.4522 -2.6499 0.9673
2.9752 6.4113 -2.3747 0.9706
2.2745 6.3221 -2.2574 0.9720
1.6234 6.1962 -2.1521 0.9733
0.4577 5.8572 -1.9739 0.9755
-0.0629 5.6490 -1.8981 0.9764
-0.9921 5.1760 -1.7707 0.9780
-2.6329 4.3344 -1.7039 0.9788
-2.9559 4.0119 -1.6743 0.9792
-3.2536 3.6790 -1.6501 0.9795
-3.5271 3.3360 -1.6311 0.9797
-3.7775 2.9831 -1.6172 0.9799
-4.0054 2.6202 -1.6081 0.9800
-4.5593 1.4702 -1.6095 0.9800
-2.6272 0.5953 -0.9050 0.9887
-2.6180 0.3521 -0.8875 0.9889
-2.6762 0.1193 -0.9001 0.9888
-2.7168 -0.1212 -0.9137 0.9886
-2.8653 -0.6492 -0.9871 0.9877
-4.9544 -2.6438 -1.8868 0.9766
-4.8593 -3.1788 -1.9510 0.9758
-3.3397 -6.7961 -2.5442 0.9686
-2.8745 -7.4635 -2.6872 0.9668
-2.3288 -8.1442 -2.8460 0.9649
1.9313 -11.4492 -3.9011 0.9522
5.9299 -12.7784 -4.7331 0.9423
11.0336 4.3913 -3.9899 0.9511
7.8016 5.8834 -3.2830 0.9596
6.8006 6.1508 -3.0808 0.9620
5.8527 6.3279 -2.8960 0.9643
4.9606 6.4276 -2.7279 0.9663
0.7331 5.9514 -2.0147 0.9750
0.1925 5.7560 -1.9350 0.9760
-0.7730 5.3004 -1.7997 0.9777
-1.2030 5.0480 -1.7435 0.9783
-3.1079 3.8467 -1.6615 0.9793
-3.3933 3.5087 -1.6400 0.9796
-3.8942 2.8029 -1.6120 0.9800
-4.1111 2.4350 -1.6054 0.9800
-4.3064 2.0570 -1.6035 0.9801
-4.4804 1.6685 -1.6063 0.9800
-2.6265 0.7195 -0.9150 0.9886
-2.7169 0.4895 -0.9275 0.9884
-2.6500 0.2368 -0.8939 0.9888
-2.6518 0.0000 -0.9403 0.9888
-2.7668 -0.4984 -0.9969 0.9881
-4.8445 -1.8041 -1.8330 0.9783
-4.7958 -2.2908 -1.8846 0.9777
-4.7153 -2.7929 -1.9433 0.9770
-4.4464 -3.8450 -2.0844 0.9754
-4.2508 -4.3953 -2.1682 0.9744
-4.0087 -4.9616 -2.2618 0.9733
-2.9495 -6.7457 -2.6106 0.9692
-1.2539 -8.5976 -3.0808 0.9638
2.3181 -10.7877 -3.9125 0.9543
3.4708 -11.1888 -4.1539 0.9515
4.7207 -11.4871 -4.4037 0.9487
6.0537 -11.6554 -4.6570 0.9458
14.0165 0.9383 -4.9812 0.9421
13.1872 2.0736 -4.7335 0.9449
11.5120 2.8794 -4.2077 0.9509
10.5808 3.6741 -3.9716 0.9536
8.6588 4.8713 -3.5228 0.9587
7.7174 5.2976 -3.3192 0.9611
6.7971 5.6179 -3.1268 0.9633
5.9131 5.8476 -2.9488 0.9653
5.0714 5.9985 -2.7853 0.9672
3.5248 6.1052 -2.4997 0.9705
2.1621 6.0097 -2.2646 0.9733
0.9716 5.7607 -2.0715 0.9755
-1.7708 4.5977 -1.7470 0.9793
-3.1412 3.5519 -1.6813 0.9801
-3.4067 3.2220 -1.6627 0.9803
-3.6495 2.8820 -1.6489 0.9805
-4.0700 2.1718 -1.6358 0.9806
-4.2483 1.8015 -1.6362 0.9806
-4.4056 1.4206 -1.6414 0.9805
-2.5615 0.5804 -0.9313 0.9889
-2.5748 0.3463 -0.9212 0.9890
-2.6733 -0.1192 -0.9489 0.9887
-2.8709 -0.9257 -1.0696 0.9873
-4.8240 -2.0455 -1.8579 0.9780
-4.7597 -2.5398 -1.9130 0.9774
-4.5282 -3.5758 -2.0459 0.9758
-4.3541 -4.1181 -2.1251 0.9749
-4.1359 -4.6765 -2.2137 0.9739
-3.5470 -5.8393 -2.4226 0.9714
-2.7163 -7.0527 -2.6799 0.9684
1.7807 -10.5565 -3.7961 0.9556
2.8817 -10.9995 -4.0319 0.9529
4.0843 -11.3525 -4.2780 0.9501
5.3780 -11.5893 -4.5303 0.9472
6.7445 -11.6818 -4.7830 0.9444
10.1031 4.0209 -3.8557 0.9549
8.1879 5.0994 -3.4203 0.9599
6.3501 5.7433 -3.0360 0.9643
4.6674 6.0477 -2.7088 0.9681
3.8941 6.0999 -2.5661 0.9698
3.1672 6.0979 -2.4365 0.9713
2.4859 6.0491 -2.3190 0.9726
1.8491 5.9611 -2.2130 0.9739
0.7005 5.6879 -2.0321 0.9760
-0.2358 4.2286 -1.5017 0.9822
-2.0206 4.6213 -1.7884 0.9788
-2.6989 4.0271 -1.7190 0.9796
-2.9998 3.7129 -1.6926 0.9799
-2.6624 0.4796 -0.9592 0.9886
-2.6060 0.2329 -0.9277 0.9890
-2.6101 -0.0000 -0.9746 0.9889
-2.6498 -0.2368 -0.9934 0.9887
-2.7171 -0.4895 -1.0309 0.9883
-2.7878 -0.7637 -1.0794 0.9877
-4.6667 -1.7379 -1.8595 0.9790
-4.5322 -2.6844 -1.9670 0.9778
-4.0675 -4.2058 -2.1848 0.9753
-3.8287 -4.7388 -2.2749 0.9743
-3.5408 -5.2833 -2.3749 0.9732
-3.1990 -5.8374 -2.4856 0.9720
-2.7977 -6.3985 -2.6077 0.9706
-1.7934 -7.5256 -2.8889 0.9675
-1.1785 -8.0801 -3.0491 0.9657
1.1793 -9.5756 -3.6027 0.9596
4.3249 -10.5239 -4.2486 0.9526
6.7575 -10.5854 -4.6895 0.9478
9.2413 -9.9916 -5.0822 0.9435
10.4087 -9.4141 -5.2406 0.9418
13.6623 -1.5283 -5.1335 0.9430
12.0060 1.8879 -4.5383 0.9494
10.5313 2.6341 -4.0536 0.9547
7.1832 4.9310 -3.2535 0.9635
6.3569 5.2541 -3.0796 0.9654
5.5513 5.4898 -2.9154 0.9672
4.0397 5.7465 -2.6230 0.9705
2.6803 5.7760 -2.3777 0.9732
1.4734 5.6236 -2.1708 0.9755
0.9282 5.5027 -2.0838 0.9765
0.4192 5.3638 -2.0090 0.9773
-0.0578 5.1897 -1.9380 0.9781
-0.4180 4.1551 -1.5594 0.9823
-0.9165 4.7815 -1.8180 0.9794
-1.3017 4.5522 -1.7680 0.9800
-1.7580 4.5645 -1.8265 0.9793
-2.1221 4.3184 -1.7967 0.9797
-2.7548 3.7388 -1.7342 0.9804
-3.0352 3.4320 -1.7108 0.9806
-3.7429 2.4485 -1.6701 0.9811
-3.9361 2.1004 -1.6660 0.9811
-4.2602 1.3738 -1.6715 0.9811
-2.5325 0.3406 -0.9542 0.9891
-2.7556 -0.6243 -1.0551 0.9880
-4.6446 -1.9695 -1.8838 0.9787
-4.5777 -2.4427 -1.9375 0.9781
-4.3434 -3.4300 -2.0666 0.9766
-3.9539 -4.4708 -2.2287 0.9748
-3.6912 -5.0097 -2.3236 0.9738
-3.3770 -5.5593 -2.4289 0.9726
-2.5730 -6.6806 -2.6732 0.9699
-2.0716 -7.2449 -2.8137 0.9683
-1.4960 -7.8044 -2.9673 0.9666
0.7308 -9.3521 -3.5028 0.9607
1.6504 -9.7845 -3.7052 0.9585
3.7508 -10.4254 -4.1373 0.9538
7.3841 -10.5040 -4.7945 0.9467
13.4866 -0.9028 -5.0473 0.9439
13.0020 0.2897 -4.8563 0.9460
11.6198 2.3618 -4.4277 0.9506
10.1345 3.0204 -3.9488 0.9559
9.3088 3.7048 -3.7412 0.9581
7.6065 4.7373 -3.3462 0.9625
3.0054 5.7866 -2.4348 0.9725
2.3650 5.7545 -2.3232 0.9738
1.7615 5.6791 -2.2203 0.9749
-0.2385 4.2766 -1.5994 0.9819
-0.7132 4.8903 -1.8454 0.9791
-1.1126 4.6687 -1.7922 0.9797
-1.4841 4.4328 -1.7456 0.9802
-2.2896 4.1780 -1.7790 0.9799
-2.6058 3.8881 -1.7478 0.9802
-2.8979 3.5868 -1.7218 0.9805
-3.1668 3.2745 -1.7010 0.9807
-3.4134 2.9517 -1.6851 0.9809
-3.6384 2.6188 -1.6739 0.9810
-3.8421 2.2757 -1.6675 0.9811
-2.5691 0.0000 -1.0083 0.9890
-2.6072 -0.2330 -1.0273 0.9888
-2.6685 -0.4808 -1.0642 0.9884
-2.7221 -0.7457 -1.1077 0.9879
-2.7584 -1.0272 -1.1552 0.9874
-4.3608 -2.5829 -1.9892 0.9785
-4.0898 -3.5366 -2.1220 0.9770
-3.8973 -4.0298 -2.2002 0.9762
-3.6622 -4.5327 -2.2871 0.9753
-3.3804 -5.0439 -2.3831 0.9742
-2.6591 -6.0816 -2.6050 0.9719
-2.2101 -6.6012 -2.7321 0.9705
0.2854 -8.5350 -3.3516 0.9640
1.1001 -8.9325 -3.5322 0.9621
1.9921 -9.2705 -3.7215 0.9601
3.9864 -9.7003 -4.1160 0.9559
5.0667 -9.7551 -4.3142 0.9539
6.1785 -9.6784 -4.5065 0.9519
7.2964 -9.4542 -4.6870 0.9500
8.3893 -9.0704 -4.8491 0.9483
9.4219 -8.5216 -4.9859 0.9469
10.3571 -7.8106 -5.0912 0.9458
12.4922 -3.7230 -5.1159 0.9455
12.5380 -2.5484 -5.0214 0.9465
12.3911 -1.3862 -4.8935 0.9478
12.0701 -0.2690 -4.7383 0.9494
11.5996 0.7765 -4.5627 0.9513
11.0077 1.7309 -4.3733 0.9532
8.9905 3.1218 -3.7352 0.9599
8.2471 3.7160 -3.5502 0.9619
7.4844 4.2107 -3.3704 0.9638
6.7181 4.6118 -3.1981 0.9656
5.2212 5.1633 -2.8819 0.9689
3.8208 5.4352 -2.6075 0.9719
0.8888 5.2691 -2.0972 0.9773
-2.0486 4.1687 -1.8230 0.9802
-2.3674 3.8973 -1.7897 0.9806
-2.9348 3.3185 -1.7387 0.9811
-3.1851 3.0125 -1.7206 0.9813
-3.6220 2.3694 -1.6987 0.9816
-3.8093 2.0327 -1.6946 0.9816
-3.9762 1.6861 -1.6950 0.9816
-2.5568 0.5793 -1.0289 0.9888
-2.4910 0.3350 -0.9865 0.9893
-2.5490 0.1137 -1.0014 0.9891
-2.5889 -0.1154 -1.0171 0.9889
-4.4761 -1.8980 -1.9082 0.9793
-4.4070 -2.3517 -1.9605 0.9788
-4.3063 -2.8170 -2.0196 0.9781
-4.1712 -3.2940 -2.0860 0.9774
-3.9986 -3.7819 -2.1601 0.9766
-3.7854 -4.2802 -2.2425 0.9757
-3.5274 -4.7874 -2.3339 0.9748
-2.8606 -5.8212 -2.5456 0.9725
-1.4122 -7.3675 -2.9442 0.9683
-0.7906 -7.8587 -3.0999 0.9666
1.5367 -9.1099 -3.6259 0.9611
2.4658 -9.4121 -3.8186 0.9591
3.4644 -9.6293 -4.0164 0.9570
4.5212 -9.7430 -4.2155 0.9549
8.9155 -8.8167 -4.9211 0.9475
11.4993 -6.4694 -5.1784 0.9449
12.0444 -5.4269 -5.1848 0.9448
12.4876 -1.9636 -4.9613 0.9471
12.2509 -0.8201 -4.8189 0.9486
10.6752 2.1698 -4.2754 0.9543
9.3490 2.7863 -3.8287 0.9589
5.5882 5.0542 -2.9572 0.9681
4.1598 5.3899 -2.6721 0.9712
3.4899 5.4669 -2.5455 0.9725
2.8529 5.4928 -2.4292 0.9738
2.2497 5.4743 -2.3228 0.9749
1.6804 5.4170 -2.2259 0.9759
0.6422 5.2139 -2.0618 0.9777
0.1694 5.0661 -1.9894 0.9785
-0.2730 4.8954 -1.9243 0.9792
-0.6862 4.7048 -1.8660 0.9798
-1.0716 4.4967 -1.8142 0.9803
-2.2110 4.0346 -1.8056 0.9804
-2.5178 3.7569 -1.7750 0.9808
-2.8015 3.4675 -1.7495 0.9810
-3.3022 2.8556 -1.7134 0.9814
-3.5206 2.5340 -1.7024 0.9815
-4.0519 1.5090 -1.6970 0.9816
-2.5634 0.4618 -1.0222 0.9889
-2.5207 0.2253 -0.9932 0.9892
-2.6410 -0.7234 -1.1276 0.9882
-4.2857 -2.0471 -1.9558 0.9797
-4.1998 -2.4876 -2.0100 0.9791
-4.0819 -2.9380 -2.0709 0.9785
-3.9292 -3.3977 -2.1390 0.9778
-3.7389 -3.8659 -2.2146 0.9770
-3.5077 -4.3415 -2.2983 0.9761
-2.5320 -5.7909 -2.6026 0.9730
-2.0996 -6.2711 -2.7232 0.9718
-1.6067 -6.7421 -2.8540 0.9705
-1.0497 -7.1972 -2.9951 0.9690
-0.4252 -7.6255 -3.1449 0.9675
1.0301 -8.3634 -3.4699 0.9642
3.6935 -8.9877 -4.0013 0.9588
4.6779 -9.0066 -4.1792 0.9570
5.6850 -8.9054 -4.3506 0.9553
6.6922 -8.6713 -4.5104 0.9537
7.6726 -8.2955 -4.6530 0.9523
8.5963 -7.7749 -4.7729 0.9511
9.4321 -7.1130 -4.8646 0.9502
10.1499 -6.3214 -4.9239 0.9496
10.7240 -5.4190 -4.9477 0.9494
11.1349 -4.4315 -4.9349 0.9495
11.3716 -3.3891 -4.8861 0.9500
11.4322 -2.3237 -4.8038 0.9508
11.3237 -1.2667 -4.6920 0.9519
11.0605 -0.2464 -4.5556 0.9533
5.6113 4.6379 -2.9977 0.9690
4.9297 4.8751 -2.8550 0.9705
3.0136 5.2196 -2.4818 0.9743
2.4288 5.2338 -2.3759 0.9753
1.8734 5.2073 -2.2788 0.9763
0.3858 4.9371 -2.0392 0.9788
-0.0533 4.7904 -1.9727 0.9795
-1.2099 4.2314 -1.8122 0.9811
-1.9791 4.0273 -1.8478 0.9808
-2.2885 3.7674 -1.8151 0.9811
-2.5751 3.4950 -1.7876 0.9814
-3.5073 2.2943 -1.7258 0.9820
-3.6889 1.9685 -1.7218 0.9821
-3.8504 1.6327 -1.7222 0.9821
-2.4504 0.3296 -1.0181 0.9894
-2.5068 0.1118 -1.0333 0.9892
-2.5479 -0.1136 -1.0502 0.9890
-2.6300 -0.5959 -1.1104 0.9884
-2.6464 -0.8534 -1.1450 0.9880
-4.2467 -2.2661 -1.9821 0.9794
-3.8389 -3.6308 -2.1758 0.9774
-3.6286 -4.1029 -2.2554 0.9766
-3.3756 -4.5814 -2.3433 0.9757
-1.8609 -6.5081 -2.7873 0.9711
-1.3364 -6.9721 -2.9232 0.9698
-0.7460 -7.4159 -3.0692 0.9683
-0.0872 -7.8264 -3.2230 0.9667
0.6405 -8.1970 -3.3857 0.9651
1.4363 -8.5152 -3.5559 0.9633
2.2969 -8.7672 -3.7320 0.9616
3.2156 -8.9378 -3.9114 0.9597
4.1817 -9.0112 -4.0907 0.9579
5.1799 -8.9719 -4.2660 0.9562
6.1901 -8.8056 -4.4323 0.9545
8.1435 -8.0532 -4.7161 0.9517
9.0271 -7.4611 -4.8225 0.9506
9.8075 -6.7324 -4.8985 0.9498
10.9507 -4.9341 -4.9459 0.9494
11.2753 -3.9152 -4.9149 0.9497
11.3983 -1.7923 -4.7513 0.9513
10.8770 0.2424 -4.4800 0.9540
10.4200 1.1657 -4.3175 0.9557
9.8629 2.0047 -4.1444 0.9574
9.0511 2.6975 -3.8891 0.9600
8.0230 3.1931 -3.5558 0.9633
7.3459 3.7121 -3.3892 0.9650
5.9570 4.4924 -3.0723 0.9682
3.3168 5.1956 -2.5382 0.9737
2.7175 5.2321 -2.4278 0.9748
1.0964 5.1022 -2.1489 0.9777
0.1627 4.8667 -2.0051 0.9792
-0.2625 4.7088 -1.9420 0.9798
-0.6608 4.5308 -1.8854 0.9804
-1.0330 4.3348 -1.8350 0.9809
-1.4501 4.3314 -1.8809 0.9804
-2.4346 3.6327 -1.8008 0.9813
-3.6006 2.1327 -1.7232 0.9821
-3.7722 1.8018 -1.7214 0.9821
-3.5071 0.9607 -1.4974 0.9844
-2.5181 0.4537 -1.0536 0.9890
-2.4793 0.2215 -1.0250 0.9893
-2.4893 0.0000 -1.0738 0.9892
-2.5221 -0.2254 -1.0922 0.9890
-2.5389 -0.4574 -1.1128 0.9888
-2.5507 -0.6987 -1.1408 0.9885
-3.7787 -3.2676 -2.1549 0.9785
-3.0943 -4.6171 -2.3975 0.9761
-2.7793 -5.0715 -2.4946 0.9751
-1.5257 -6.4020 -2.8389 0.9717
0.9676 -7.8560 -3.4144 0.9661
1.7408 -8.1010 -3.5742 0.9645
2.5669 -8.2751 -3.7373 0.9630
4.3403 -8.3565 -4.0619 0.9598
7.0611 -7.6344 -4.4858 0.9557
8.6490 -6.5225 -4.6728 0.9539
9.2978 -5.7907 -4.7249 0.9534
10.1981 -4.0587 -4.7346 0.9533
10.4236 -3.1066 -4.6917 0.9537
10.4939 -2.1330 -4.6192 0.9544
9.8553 0.6597 -4.2607 0.9579
9.4111 1.4799 -4.1094 0.9593
8.0735 2.8034 -3.6865 0.9635
7.1925 3.2407 -3.4029 0.9662
6.5698 3.6961 -3.2516 0.9677
5.9343 4.0736 -3.1049 0.9691
5.2967 4.3778 -2.9641 0.9705
1.7925 4.9823 -2.2840 0.9772
0.3708 4.7446 -2.0528 0.9795
-0.0513 4.6095 -1.9885 0.9801
-0.8198 4.2767 -1.8784 0.9812
-2.4922 3.3825 -1.8123 0.9819
-2.9859 2.8240 -1.7728 0.9823
-3.2020 2.5286 -1.7599 0.9824
-3.3981 2.2229 -1.7516 0.9825
-3.5743 1.9073 -1.7476 0.9825
-3.7308 1.5821 -1.7480 0.9825
-3.8675 1.2471 -1.7529 0.9825
-2.5715 0.5826 -1.1373 0.9886
-2.4106 0.3242 -1.0492 0.9895
-2.5277 -0.3399 -1.1001 0.9890
-2.5465 -0.5770 -1.1263 0.9887
-2.5665 -0.8276 -1.1632 0.9883
-2.6695 -1.1320 -1.2508 0.9874
-4.0955 -2.1854 -2.0024 0.9800
-3.9934 -2.6124 -2.0584 0.9794
-3.6895 -3.4895 -2.1906 0.9781
-3.4824 -3.9376 -2.2675 0.9774
-2.6035 -5.2980 -2.5464 0.9746
-2.2134 -5.7471 -2.6566 0.9735
-1.7691 -6.1871 -2.7758 0.9724
-1.2675 -6.6123 -2.9042 0.9711
-0.0823 -7.3835 -3.1851 0.9683
1.3472 -7.9866 -3.4937 0.9653
2.1477 -8.1978 -3.6555 0.9638
2.9974 -8.3313 -3.8193 0.9622
3.8858 -8.3737 -3.9820 0.9606
5.7184 -8.1345 -4.2892 0.9576
7.4864 -7.4034 -4.5417 0.9552
8.9880 -6.1699 -4.7026 0.9536
9.5758 -5.3872 -4.7394 0.9533
10.3303 -3.5870 -4.7170 0.9535
10.4780 -2.6207 -4.6590 0.9540
10.4722 -1.6466 -4.5728 0.9549
10.0398 0.2237 -4.3318 0.9572
9.6449 1.0790 -4.1863 0.9586
9.1566 1.8612 -4.0305 0.9601
4.9799 4.5041 -2.8964 0.9712
4.3550 4.7086 -2.7667 0.9724
1.5389 4.9608 -2.2405 0.9776
0.1565 4.6799 -2.0198 0.9798
-0.2528 4.5336 -1.9586 0.9804
-0.6369 4.3670 -1.9036 0.9810
-2.0663 3.7705 -1.8546 0.9814
-2.8702 2.9678 -1.7809 0.9822
-3.0964 2.6776 -1.7658 0.9823
-3.3025 2.3770 -1.7552 0.9824
-3.8017 1.4158 -1.7499 0.9825
-3.9283 1.0761 -1.7569 0.9824
-2.4387 0.2179 -1.0561 0.9894
-2.4282 0.0000 -1.0956 0.9894
-2.4481 -0.2187 -1.1090 0.9893
-2.4592 -0.4431 -1.1275 0.9891
-2.4890 -0.9269 -1.1984 0.9884
-3.9055 -2.3132 -2.0481 0.9803
-3.6374 -3.1454 -2.1698 0.9791
-3.2294 -3.9970 -2.3186 0.9777
-2.6596 -4.8533 -2.4972 0.9760
-2.3069 -5.2761 -2.5983 0.9750
-1.4514 -6.0903 -2.8250 0.9729
-0.9437 -6.4706 -2.9505 0.9717
-0.3803 -6.8211 -3.0826 0.9705
0.2385 -7.1339 -3.2207 0.9692
0.9115 -7.4006 -3.3645 0.9678
2.4050 -7.7528 -3.6627 0.9650
3.2117 -7.8152 -3.8125 0.9636
4.0442 -7.7865 -3.9590 0.9622
5.7242 -7.4170 -4.2274 0.9597
8.5681 -5.3362 -4.5546 0.9567
9.0459 -4.5711 -4.5732 0.9565
9.3963 -3.7396 -4.5632 0.9566
9.6108 -2.8643 -4.5251 0.9569
9.6873 -1.9690 -4.4605 0.9575
9.6297 -1.0772 -4.3722 0.9584
9.4469 -0.2105 -4.2637 0.9594
8.7621 1.3778 -4.0022 0.9618
8.2933 2.0743 -3.8574 0.9632
3.8485 4.5521 -2.6897 0.9742
2.2183 4.7803 -2.3779 0.9771
1.7172 4.7731 -2.2888 0.9780
1.2396 4.7315 -2.2070 0.9788
0.7859 4.6594 -2.1321 0.9795
0.3566 4.5640 -2.0656 0.9801
-0.0495 4.4394 -2.0032 0.9807
-0.4211 4.1854 -1.8981 0.9817
-0.7912 4.1275 -1.8963 0.9817
-1.1896 4.1603 -1.9524 0.9812
-1.5373 3.9915 -1.9300 0.9814
-2.1427 3.5274 -1.8622 0.9821
-2.4134 3.2755 -1.8358 0.9823
-2.8934 2.7366 -1.7970 0.9827
-3.1035 2.4509 -1.7844 0.9828
-3.2941 2.1549 -1.7761 0.9829
-3.4652 1.8491 -1.7722 0.9829
-3.6169 1.5337 -1.7727 0.9829
-2.3568 0.3170 -1.0730 0.9896
-2.4105 0.1075 -1.0887 0.9895
-2.4521 -0.3298 -1.1164 0.9892
-2.4671 -0.5590 -1.1414 0.9890
-2.4891 -1.0554 -1.2199 0.9882
-3.9529 -2.1093 -2.0217 0.9805
-3.5493 -3.3569 -2.2044 0.9788
-3.3456 -3.7829 -2.2787 0.9781
-3.1030 -4.2114 -2.3604 0.9773
-2.8185 -4.6399 -2.4496 0.9765
-2.1123 -5.4845 -2.6519 0.9745
-1.6848 -5.8923 -2.7653 0.9735
-1.2044 -6.2834 -2.8868 0.9723
-0.0778 -6.9826 -3.1509 0.9698
0.5684 -7.2736 -3.2920 0.9685
2.0150 -7.6910 -3.5874 0.9657
2.8043 -7.7947 -3.7378 0.9643
3.6256 -7.8129 -3.8864 0.9629
5.3080 -7.5507 -4.1646 0.9603
6.9199 -6.8432 -4.3913 0.9582
9.2377 -4.1623 -4.5718 0.9565
9.6662 -2.4177 -4.4959 0.9572
9.5532 -0.6395 -4.3202 0.9589
8.9682 1.0032 -4.0718 0.9612
8.5365 1.7351 -3.9305 0.9625
8.0350 2.3947 -3.7831 0.9639
5.8935 3.6705 -3.1328 0.9700
4.1355 4.4712 -2.7481 0.9736
3.5653 4.6197 -2.6331 0.9747
2.4774 4.7698 -2.4252 0.9767
1.9649 4.7813 -2.3325 0.9776
1.4754 4.7563 -2.2470 0.9784
0.5687 4.6173 -2.0991 0.9798
0.1506 4.5045 -2.0337 0.9804
-0.2436 4.3687 -1.9743 0.9810
-1.3722 4.0985 -1.9502 0.9812
-2.2806 3.4030 -1.8484 0.9822
-3.0009 2.5950 -1.7901 0.9827
-3.3821 2.0032 -1.7736 0.9829
-3.5435 1.6926 -1.7719 0.9829
-2.4063 0.4335 -1.1032 0.9893
-2.3934 -0.6556 -1.1698 0.9891
-3.8582 -1.8429 -2.0155 0.9813
-3.7704 -2.2332 -2.0657 0.9808
-3.3220 -3.4349 -2.2525 0.9791
-3.1035 -3.8412 -2.3278 0.9784
-2.8464 -4.2472 -2.4101 0.9776
-2.2066 -5.0467 -2.5964 0.9759
-1.8189 -5.4328 -2.7006 0.9750
-1.3830 -5.8035 -2.8123 0.9740
-0.8974 -6.1530 -2.9311 0.9729
0.2258 -6.7534 -3.1852 0.9706
0.8608 -6.9893 -3.3195 0.9693
1.5408 -7.1702 -3.4570 0.9681
2.2602 -7.2860 -3.5959 0.9668
6.0719 -6.5648 -4.2152 0.9612
8.9059 -2.6542 -4.3805 0.9597
8.7913 -0.1959 -4.1450 0.9619
7.7692 1.9432 -3.7750 0.9652
7.2906 2.5316 -3.6379 0.9664
5.8359 3.2832 -3.1564 0.9708
5.2980 3.6369 -3.0292 0.9720
4.2054 4.1588 -2.7879 0.9742
3.1356 4.4604 -2.5701 0.9762
2.6211 4.5398 -2.4710 0.9771
1.6470 4.5779 -2.2933 0.9787
1.1906 4.5447 -2.2146 0.9794
0.7559 4.4814 -2.1423 0.9801
-0.7642 3.9867 -1.9134 0.9822
-1.1613 4.0614 -1.9912 0.9815
-1.7915 3.6456 -1.9147 0.9822
-2.8052 2.6532 -1.8201 0.9831
-3.0096 2.3767 -1.8077 0.9832
-3.1948 2.0900 -1.7996 0.9833
-3.5081 1.4876 -1.7962 0.9833
-3.6360 1.1725 -1.8008 0.9832
-2.5265 0.5724 -1.2211 0.9886
-2.3488 0.1047 -1.1083 0.9897
-2.3694 -0.1057 -1.1180 0.9896
-2.3799 -0.3201 -1.1319 0.9894
-2.3893 -0.5414 -1.1548 0.9892
-2.3945 -0.7721 -1.1859 0.9889
-2.4109 -1.0223 -1.2344 0.9885
-2.7027 -4.4492 -2.4539 0.9772
-2.0187 -5.2413 -2.6476 0.9755
-1.6071 -5.6204 -2.7555 0.9745
-0.0737 -6.6179 -3.1197 0.9712
1.8960 -7.2369 -3.5264 0.9675
4.1716 -7.2254 -3.9328 0.9638
5.7056 -6.7486 -4.1657 0.9617
8.8193 -3.0624 -4.4007 0.9596
8.9615 -2.2414 -4.3544 0.9600
8.8820 -0.5946 -4.1961 0.9614
7.5363 2.2461 -3.7068 0.9658
7.0338 2.7994 -3.5685 0.9671
6.0988 3.0819 -3.2210 0.9702
5.5686 3.4681 -3.0924 0.9714
4.4783 4.0504 -2.8463 0.9737
3.3986 4.4037 -2.6221 0.9757
2.8763 4.5056 -2.5197 0.9766
2.3703 4.5637 -2.4241 0.9775
0.5472 4.4429 -2.1101 0.9804
0.1451 4.3395 -2.0467 0.9810
-0.2349 4.2132 -1.9891 0.9815
-1.9359 3.5325 -1.8988 0.9823
-2.2092 3.2964 -1.8705 0.9826
-2.4624 3.0478 -1.8469 0.9828
-2.6958 2.7875 -1.8279 0.9830
-2.9098 2.5162 -1.8133 0.9831
-3.1046 2.2346 -1.8031 0.9832
-3.4370 1.6417 -1.7954 0.9833
-3.5744 1.3312 -1.7980 0.9833
-2.3515 0.4236 -1.1263 0.9895
-2.2975 0.0000 -1.1300 0.9898
-2.3094 -0.2064 -1.1404 0.9897
-2.3082 -0.4158 -1.1536 0.9896
-2.3175 -0.6348 -1.1819 0.9893
-3.6424 -2.1574 -2.0822 0.9813
-2.9853 -3.6949 -2.3364 0.9790
-2.7344 -4.0800 -2.4157 0.9783
-2.1133 -4.8332 -2.5946 0.9768
-1.3199 -5.5386 -2.8005 0.9749
-0.8548 -5.8608 -2.9132 0.9739
-0.3430 -6.1524 -3.0308 0.9729
0.2142 -6.4063 -3.1528 0.9718
1.4552 -6.7720 -3.4069 0.9696
2.1299 -6.8661 -3.5359 0.9685
3.5488 -6.8327 -3.7869 0.9663
6.3052 -5.7027 -4.1815 0.9628
6.8830 -5.1907 -4.2402 0.9623
8.2884 -2.4702 -4.2539 0.9622
7.6785 1.2074 -3.8231 0.9659
7.3004 1.8260 -3.7014 0.9670
6.3876 2.8781 -3.4459 0.9693
4.5143 3.7312 -2.8806 0.9742
3.4956 4.1346 -2.6630 0.9762
1.5813 4.3954 -2.2975 0.9794
1.1448 4.3695 -2.2217 0.9801
-0.7571 3.9500 -1.9782 0.9822
-1.1233 3.9284 -2.0096 0.9820
-1.4393 3.7372 -1.9698 0.9823
-2.0106 3.3100 -1.9049 0.9829
-2.2667 3.0763 -1.8795 0.9831
-2.5033 2.8306 -1.8586 0.9833
-2.7210 2.5735 -1.8421 0.9834
-3.1000 2.0279 -1.8220 0.9836
-3.5279 1.1376 -1.8232 0.9836
-2.5042 0.5674 -1.2629 0.9886
-2.2893 0.1021 -1.1271 0.9898
-2.3108 -0.3108 -1.1468 0.9897
-2.3142 -0.5243 -1.1671 0.9895
-2.3173 -0.7472 -1.1976 0.9892
-3.6898 -1.9690 -2.0571 0.9815
-3.4564 -2.7295 -2.1662 0.9806
-2.8646 -3.8878 -2.3753 0.9787
-2.5944 -4.2709 -2.4579 0.9780
-2.2841 -4.6481 -2.5473 0.9772
-1.9317 -5.0155 -2.6435 0.9763
-1.0931 -5.7028 -2.8560 0.9744
-0.6047 -6.0113 -2.9716 0.9734
-0.0700 -6.2844 -3.0912 0.9724
0.5093 -6.5171 -3.2153 0.9713
1.1303 -6.7011 -3.3425 0.9702
1.7887 -6.8274 -3.4714 0.9690
3.1886 -6.8713 -3.7258 0.9668
3.9101 -6.7724 -3.8463 0.9657
6.6029 -5.4574 -4.2134 0.9625
7.5984 -4.2748 -4.2882 0.9619
8.3436 -2.0868 -4.2302 0.9624
8.3705 -1.3162 -4.1677 0.9629
8.2903 -0.5550 -4.0867 0.9636
7.8422 0.8773 -3.8813 0.9654
7.0893 2.1129 -3.6385 0.9676
6.6313 2.6392 -3.5105 0.9687
5.2733 3.2842 -3.0556 0.9727
4.7692 3.5967 -2.9380 0.9737
2.7508 4.3090 -2.5144 0.9775
1.8067 4.3963 -2.3378 0.9790
0.9337 4.3452 -2.1860 0.9804
0.5270 4.2786 -2.1204 0.9810
0.1399 4.1838 -2.0589 0.9815
-0.2267 4.0661 -2.0030 0.9820
-0.5729 3.9286 -1.9527 0.9825
-1.2839 3.8348 -1.9891 0.9821
-1.5897 3.6358 -1.9517 0.9825
-2.6145 2.7034 -1.8498 0.9834
-2.8227 2.4409 -1.8355 0.9835
-3.0122 2.1681 -1.8254 0.9836
-3.1830 1.8853 -1.8196 0.9836
-3.4684 1.2917 -1.8204 0.9836
-2.2658 0.2025 -1.1189 0.9899
-2.2359 0.0000 -1.1463 0.9900
-2.2443 -0.2005 -1.1552 0.9899
-2.2416 -0.4038 -1.1677 0.9898
-2.2481 -0.6158 -1.1950 0.9896
-2.2593 -0.8414 -1.2360 0.9892
-2.2721 -1.0853 -1.2909 0.9887
-3.5210 -2.0854 -2.0980 0.9818
-3.4053 -2.4510 -2.1510 0.9813
-3.2602 -2.8192 -2.2097 0.9808
-2.8740 -3.5572 -2.3445 0.9797
-2.3471 -4.2830 -2.5038 0.9783
-2.0262 -4.6340 -2.5929 0.9775
-1.6647 -4.9722 -2.6882 0.9767
-0.8154 -5.5909 -2.8966 0.9749
0.2036 -6.0883 -3.1230 0.9730
2.0120 -6.4861 -3.4816 0.9699
4.0111 -6.2832 -3.8217 0.9670
5.3049 -5.7355 -4.0054 0.9655
6.4312 -4.8500 -4.1295 0.9644
6.8939 -4.2936 -4.1637 0.9642
7.2725 -3.6749 -4.1774 0.9640
7.8260 -1.5907 -4.0942 0.9647
7.8091 -0.8736 -4.0285 0.9653
7.4977 0.5019 -3.8524 0.9668
7.2211 1.1355 -3.7475 0.9677
6.0426 2.7227 -3.3978 0.9706
3.8168 3.7745 -2.7520 0.9762
3.3387 3.9490 -2.6511 0.9770
2.8666 4.0777 -2.5554 0.9778
2.4042 4.1641 -2.4651 0.9786
1.5197 4.2241 -2.3015 0.9800
0.3191 4.0831 -2.0996 0.9818
-0.3888 3.8647 -1.9913 0.9827
-0.7543 3.9351 -2.0541 0.9822
-2.1982 2.9834 -1.8998 0.9835
-2.6404 2.4973 -1.8632 0.9838
-3.0091 1.9685 -1.8434 0.9840
-3.1660 1.6895 -1.8398 0.9840
-3.3045 1.4013 -1.8402 0.9840
-2.2093 0.2971 -1.1428 0.9900
-2.2377 -0.0998 -1.1483 0.9900
-2.2446 -0.3019 -1.1611 0.9899
-2.2425 -0.5081 -1.1788 0.9897
-2.2530 -0.7265 -1.2136 0.9894
-2.2673 -0.9614 -1.2625 0.9890
-2.3836 -1.2719 -1.3851 0.9879
-3.4667 -2.2678 -2.1238 0.9816
-2.4929 -4.1038 -2.4617 0.9786
-2.1916 -4.4598 -2.5476 0.9779
-1.4683 -5.1351 -2.7381 0.9763
-0.0666 -5.9782 -3.0651 0.9735
0.4835 -6.1875 -3.1818 0.9725
1.6914 -6.4561 -3.4215 0.9704
2.3383 -6.4993 -3.5411 0.9694
4.9923 -5.9049 -3.9642 0.9658
6.1720 -5.1013 -4.1051 0.9646
6.6723 -4.5803 -4.1491 0.9643
7.6628 -2.6608 -4.1585 0.9642
7.8299 -1.2312 -4.0635 0.9650
7.6077 0.1696 -3.9012 0.9664
7.0574 1.4345 -3.6921 0.9681
6.2668 2.4942 -3.4579 0.9701
5.8105 2.9362 -3.3376 0.9712
4.0566 3.6690 -2.8041 0.9757
3.5773 3.8677 -2.7010 0.9766
2.6339 4.1259 -2.5095 0.9782
2.1775 4.1925 -2.4220 0.9790
1.7351 4.2222 -2.3402 0.9797
1.3085 4.2182 -2.2642 0.9803
0.8991 4.1839 -2.1939 0.9809
0.5079 4.1237 -2.1301 0.9815
-0.9263 3.8870 -2.0485 0.9822
-1.5399 3.5219 -1.9706 0.9829
-2.3157 2.8662 -1.8891 0.9836
-3.0898 1.8301 -1.8411 0.9840
-3.2376 1.5465 -1.8395 0.9840
-3.3668 1.2539 -1.8419 0.9840
-3.4774 0.9526 -1.8485 0.9839
-2.2093 0.1974 -1.1372 0.9901
-2.1765 0.0000 -1.1619 0.9902
-2.1811 -0.1949 -1.1690 0.9901
-2.1873 -0.5992 -1.2107 0.9898
-2.2033 -1.0524 -1.3035 0.9890
-3.4054 -2.0170 -2.1129 0.9822
-3.2909 -2.3686 -2.1646 0.9818
-1.5954 -4.7651 -2.6826 0.9775
-0.3115 -5.5865 -2.9870 0.9749
0.1938 -5.7956 -3.0957 0.9740
1.3065 -6.0797 -3.3197 0.9722
3.7777 -5.9176 -3.7479 0.9687
4.3928 -5.6919 -3.8383 0.9679
4.9822 -5.3867 -3.9171 0.9673
6.4590 -4.0227 -4.0622 0.9661
7.0800 -2.8178 -4.0680 0.9660
7.2567 -2.1627 -4.0423 0.9662
7.3401 -1.4919 -3.9986 0.9666
7.3316 -0.8201 -3.9383 0.9671
6.8086 1.0706 -3.6794 0.9692
6.1330 2.1296 -3.4658 0.9710
5.2913 2.9769 -3.2411 0.9728
4.0946 3.3842 -2.8358 0.9762
3.1930 3.7767 -2.6401 0.9778
2.7458 3.9059 -2.5488 0.9786
1.8775 4.0459 -2.3811 0.9800
1.4618 4.0631 -2.3052 0.9806
0.6759 4.0072 -2.1694 0.9817
0.3079 3.9400 -2.1098 0.9822
-0.3829 3.8067 -2.0424 0.9828
-0.7359 3.8391 -2.0868 0.9824
-1.3504 3.5064 -2.0059 0.9831
-1.6296 3.3162 -1.9725 0.9834
-1.8903 3.1119 -1.9437 0.9836
-2.5632 2.4243 -1.8834 0.9841
-2.7515 2.1729 -1.8717 0.9842
-2.9220 1.9115 -1.8640 0.9843
-3.0746 1.6406 -1.8604 0.9843
-2.4373 0.5522 -1.3341 0.9887
-2.1765 -0.0971 -1.1631 0.9902
-2.1806 -0.4941 -1.1936 0.9899
-2.2448 -1.1978 -1.3583 0.9885
-3.2230 -2.5452 -2.1924 0.9816
-2.8758 -3.2517 -2.3174 0.9805
-1.4061 -4.9174 -2.7303 0.9771
-0.9979 -5.2059 -2.8297 0.9763
-0.0634 -5.6959 -3.0409 0.9745
0.4599 -5.8847 -3.1511 0.9736
2.2117 -6.1474 -3.4877 0.9708
2.8355 -6.1104 -3.5961 0.9699
4.6916 -5.5492 -3.8793 0.9676
6.2528 -4.2923 -4.0488 0.9662
6.6459 -3.7389 -4.0708 0.9660
7.1800 -2.4931 -4.0575 0.9661
7.3100 -1.8283 -4.0226 0.9664
7.3471 -1.1553 -3.9704 0.9668
7.1563 0.1595 -3.8213 0.9681
6.9418 0.7765 -3.7289 0.9688
5.9350 2.3621 -3.4101 0.9715
5.5129 2.7858 -3.2975 0.9724
4.3178 3.2562 -2.8870 0.9758
3.8698 3.5000 -2.7855 0.9766
3.4183 3.6959 -2.6875 0.9774
2.9686 3.8465 -2.5939 0.9782
1.6679 4.0586 -2.3425 0.9803
1.2594 4.0599 -2.2693 0.9809
0.8663 4.0316 -2.2014 0.9815
0.1303 3.8970 -2.0815 0.9825
-0.2116 3.7950 -2.0291 0.9829
-0.8966 3.7623 -2.0647 0.9826
-1.2038 3.5958 -2.0243 0.9830
-1.7623 3.2158 -1.9576 0.9835
-2.4623 2.5460 -1.8908 0.9841
-2.6596 2.2998 -1.8770 0.9842
-2.8390 2.0434 -1.8673 0.9843
-3.2695 1.2176 -1.8625 0.9843
-2.1547 0.1925 -1.1549 0.9902
-2.1192 0.0000 -1.1770 0.9904
-2.1288 -0.5831 -1.2259 0.9900
-2.2265 -1.3188 -1.4372 0.9882
-3.0410 -2.6296 -2.2328 0.9818
-2.6698 -3.3044 -2.3594 0.9808
-2.4366 -3.6357 -2.4308 0.9802
-1.5305 -4.5713 -2.6774 0.9782
-0.7450 -5.1081 -2.8670 0.9767
-0.2974 -5.3346 -2.9675 0.9758
0.1847 -5.5253 -3.0704 0.9750
0.6989 -5.6747 -3.1756 0.9742
1.8068 -5.8244 -3.3870 0.9725
2.9784 -5.7344 -3.5888 0.9709
4.1415 -5.3663 -3.7648 0.9695
5.2045 -4.7072 -3.8975 0.9684
5.6675 -4.2740 -3.9425 0.9680
6.0694 -3.7800 -3.9712 0.9678
6.4001 -3.2341 -3.9827 0.9677
6.6523 -2.6476 -3.9765 0.9678
6.9019 -0.7721 -3.8572 0.9687
6.6605 0.4459 -3.7075 0.9699
5.8145 2.0190 -3.4185 0.9722
5.4395 2.4509 -3.3136 0.9731
5.0335 2.8318 -3.2076 0.9739
4.6048 3.1610 -3.1021 0.9748
3.4837 3.4452 -2.7212 0.9778
2.6328 3.7452 -2.5426 0.9793
2.2145 3.8356 -2.4598 0.9799
1.8052 3.8900 -2.3818 0.9806
1.0224 3.9025 -2.2406 0.9817
0.6521 3.8660 -2.1775 0.9822
-0.3816 3.7936 -2.1176 0.9827
-1.0196 3.5659 -2.0599 0.9832
-2.0699 2.8093 -1.9380 0.9842
-2.2882 2.5874 -1.9184 0.9843
-2.4891 2.3542 -1.9028 0.9844
-2.9867 1.5938 -1.8802 0.9846
-3.1174 1.3219 -1.8806 0.9846
-3.2301 1.0416 -1.8849 0.9846
-2.1264 0.2860 -1.1916 0.9902
-2.1231 -0.4810 -1.2091 0.9901
-2.1317 -0.6874 -1.2440 0.9898
-2.1353 -0.9054 -1.2881 0.9894
-2.1463 -1.1453 -1.3512 0.9889
-3.2420 -2.1209 -2.1517 0.9824
-3.1150 -2.4599 -2.2045 0.9820
-2.7742 -3.1368 -2.3258 0.9810
-2.5573 -3.4708 -2.3944 0.9805
-2.0234 -4.1175 -2.5481 0.9792
-1.7038 -4.4239 -2.6330 0.9785
-0.9551 -4.9830 -2.8179 0.9771
0.4380 -5.6055 -3.1228 0.9746
3.2733 -5.6694 -3.6359 0.9705
3.8563 -5.4856 -3.7242 0.9698
4.4205 -5.2286 -3.8027 0.9692
5.8767 -4.0341 -3.9589 0.9679
6.5364 -2.9451 -3.9818 0.9677
6.8730 -1.7190 -3.9348 0.9681
6.9133 -1.0871 -3.8868 0.9685
6.7487 0.1504 -3.7491 0.9696
6.5554 0.7333 -3.6635 0.9703
6.2986 1.2803 -3.5697 0.9710
3.6965 3.3433 -2.7682 0.9775
2.8445 3.6857 -2.5857 0.9789
2.0086 3.8671 -2.4202 0.9803
1.2131 3.9106 -2.2740 0.9814
0.8354 3.8876 -2.2084 0.9820
0.4728 3.8384 -2.1479 0.9825
-1.1665 3.4843 -2.0407 0.9833
-1.4469 3.3091 -2.0059 0.9836
-1.9541 2.9158 -1.9495 0.9841
-2.1812 2.6998 -1.9277 0.9842
-2.7576 1.9848 -1.8870 0.9846
-2.9147 1.7264 -1.8815 0.9846
-3.0543 1.4589 -1.8799 0.9846
-3.1760 1.1828 -1.8823 0.9846
-3.2796 0.8984 -1.8886 0.9846
-2.1578 0.3887 -1.2177 0.9900
-2.1018 0.1878 -1.1720 0.9904
-2.0638 0.0000 -1.1916 0.9905
-2.0684 -0.1848 -1.1990 0.9905
-2.1172 -1.2540 -1.4207 0.9887
-3.0783 -2.2156 -2.1897 0.9826
-2.7723 -2.8665 -2.3024 0.9817
-2.5757 -3.1880 -2.3663 0.9812
-1.7961 -4.1079 -2.5885 0.9795
-1.4696 -4.3893 -2.6725 0.9788
-0.7133 -4.8911 -2.8538 0.9774
-0.2844 -5.1004 -2.9493 0.9767
0.1764 -5.2746 -3.0470 0.9759
0.6662 -5.4089 -3.1464 0.9751
2.2662 -5.5143 -3.4421 0.9728
2.8216 -5.4326 -3.5344 0.9721
3.3742 -5.2855 -3.6204 0.9715
4.9084 -4.4394 -3.8210 0.9699
6.2667 -2.4940 -3.8941 0.9693
6.5096 -1.3231 -3.8352 0.9698
6.2991 0.4217 -3.6449 0.9713
5.5223 1.9176 -3.3751 0.9734
5.1742 2.3314 -3.2766 0.9741
4.7954 2.6979 -3.1767 0.9749
3.3524 3.3153 -2.7221 0.9785
2.5269 3.5946 -2.5368 0.9799
1.7370 3.7431 -2.3824 0.9811
1.3557 3.7681 -2.3120 0.9817
0.6296 3.7321 -2.1852 0.9827
0.2873 3.6760 -2.1288 0.9831
-0.0413 3.7045 -2.1389 0.9830
-0.3747 3.7249 -2.1614 0.9829
-1.5331 3.1198 -2.0070 0.9841
-1.7799 2.9302 -1.9794 0.9843
-2.0096 2.7275 -1.9560 0.9845
-2.2223 2.5128 -1.9367 0.9846
-2.4179 2.2868 -1.9214 0.9847
-2.7579 1.8042 -1.9028 0.9849
-2.9023 1.5487 -1.8993 0.9849
-3.1385 1.0121 -1.9039 0.9849
-2.0611 0.0919 -1.1911 0.9905
-3.1376 -2.0525 -2.1647 0.9828
-2.8595 -2.7044 -2.2723 0.9820
-2.6778 -3.0278 -2.3337 0.9815
-2.4659 -3.3468 -2.4001 0.9810
-2.2226 -3.6589 -2.4717 0.9804
-1.9467 -3.9613 -2.5483 0.9798
-1.6371 -4.2507 -2.6299 0.9792
-1.2934 -4.5233 -2.7162 0.9785
-0.9152 -4.7748 -2.8069 0.9778
-0.0578 -5.1922 -2.9979 0.9763
0.4179 -5.3471 -3.0966 0.9755
1.4469 -5.5227 -3.2961 0.9740
2.5437 -5.4814 -3.4889 0.9725
3.0989 -5.3674 -3.5783 0.9718
3.6462 -5.1867 -3.6604 0.9711
4.1748 -4.9380 -3.7333 0.9706
6.4863 -0.4342 -3.7533 0.9704
6.3786 0.1422 -3.6836 0.9710
6.2036 0.6940 -3.6040 0.9716
5.6823 1.6935 -3.4233 0.9730
4.9881 2.5206 -3.2267 0.9745
4.5971 2.8631 -3.1268 0.9753
3.6251 3.2787 -2.8220 0.9777
3.1324 3.3867 -2.6634 0.9789
2.7333 3.5417 -2.5829 0.9795
1.9315 3.7188 -2.4194 0.9808
1.5450 3.7594 -2.3466 0.9814
0.8061 3.7511 -2.2151 0.9824
0.4566 3.7070 -2.1564 0.9829
-0.2085 3.7396 -2.1624 0.9828
