ply
format ascii 1.0
element vertex 1587
property float32 x
property float32 y
property float32 z
property float32 I
end_header
-9.5037 -2.6033 -1.0688 0.9611
-9.8789 -4.7187 -1.1875 0.9569
-10.0437 -5.9489 -1.2662 0.9541
-10.1903 -7.3345 -1.3618 0.9507
2.4155 14.3201 -1.5752 0.9432
-1.1258 11.1905 -1.2199 0.9558
-1.9815 10.3376 -1.1417 0.9585
-3.3894 8.8004 -1.0229 0.9628
-4.8022 7.9055 -1.0033 0.9635
-5.3165 7.2157 -0.9722 0.9646
-5.7865 6.5430 -0.9474 0.9655
-6.2187 5.8816 -0.9284 0.9661
-6.9894 4.5722 -0.9059 0.9670
-7.3358 3.9145 -0.9019 0.9671
-7.9651 2.5684 -0.9078 0.9669
-4.7637 1.0793 -0.5298 0.9805
-3.7330 0.1665 -0.4053 0.9851
-9.4013 -2.1300 -1.0456 0.9620
-10.1195 -6.6198 -1.3116 0.9525
1.6893 13.7164 -1.4990 0.9459
-1.5689 10.7571 -1.1791 0.9572
-2.3673 9.9335 -1.1076 0.9597
-1.4377 4.2942 -0.4912 0.9819
-3.6919 8.4437 -0.9996 0.9636
-4.2503 7.7558 -0.9593 0.9650
-5.5566 6.8775 -0.9590 0.9651
-6.8071 4.8995 -0.9097 0.9668
-7.1654 4.2441 -0.9033 0.9670
-7.5005 3.5827 -0.9016 0.9671
-8.1108 2.2218 -0.9122 0.9667
-3.7414 0.3343 -0.4074 0.9850
-3.7700 -0.3369 -0.4743 0.9849
-8.7505 -1.5765 -1.1142 0.9648
-8.9237 -2.4444 -1.1595 0.9634
-9.2136 -4.4010 -1.2796 0.9597
-9.3257 -5.5236 -1.3583 0.9572
-9.4109 -6.7735 -1.4530 0.9543
-9.4635 -8.1834 -1.5678 0.9508
3.6864 14.0707 -1.8228 0.9430
2.1919 12.9947 -1.6515 0.9483
0.9406 12.0366 -1.5130 0.9525
-1.0433 10.3713 -1.3062 0.9588
-1.8457 9.6291 -1.2286 0.9612
-2.5520 8.9248 -1.1632 0.9633
-3.7417 7.6142 -1.0632 0.9664
-4.5256 7.4503 -1.0924 0.9655
-5.0193 6.8123 -1.0604 0.9665
-5.4708 6.1860 -1.0349 0.9673
-5.8859 5.5668 -1.0152 0.9679
-6.2690 4.9505 -1.0010 0.9683
-6.9537 3.7107 -0.9877 0.9687
-7.5478 2.4339 -0.9938 0.9685
-4.3832 0.9931 -0.5632 0.9820
-3.5494 0.4774 -0.4488 0.9857
-9.1488 -3.8794 -1.2453 0.9607
-9.2727 -4.9481 -1.3171 0.9585
-9.4416 -7.4560 -1.5076 0.9527
2.9044 13.5159 -1.7324 0.9458
1.5399 12.5029 -1.5787 0.9505
0.3876 11.5928 -1.4536 0.9543
-0.6001 10.7623 -1.3508 0.9575
-1.4402 4.3017 -0.5685 0.9819
-3.4682 7.9320 -1.0849 0.9657
-5.2500 6.4980 -1.0469 0.9669
-5.6827 5.8758 -1.0243 0.9676
-6.7918 4.0228 -0.9892 0.9687
-3.5366 0.3160 -0.4450 0.9858
-3.5139 -0.3140 -0.5018 0.9858
-8.2638 -1.4888 -1.1943 0.9666
-8.5312 -3.1771 -1.2949 0.9639
-8.7392 -7.5570 -1.6433 0.9544
-8.6905 -8.9859 -1.7781 0.9507
-8.5814 -10.6213 -1.9422 0.9463
2.0056 11.8897 -1.7150 0.9525
0.8668 11.0921 -1.5825 0.9560
-0.1154 10.3532 -1.4727 0.9590
-0.9719 9.6611 -1.3811 0.9615
-2.9934 7.7722 -1.1846 0.9669
-4.2783 7.0430 -1.1721 0.9673
-5.1867 5.8647 -1.1136 0.9689
-5.5857 5.2829 -1.0935 0.9694
-5.9535 4.7014 -1.0790 0.9698
-6.2934 4.1170 -1.0697 0.9701
-7.1705 2.3122 -1.0716 0.9700
-3.3671 0.4528 -0.4832 0.9864
-3.3610 0.1499 -0.4785 0.9865
-3.4470 -0.1537 -0.4908 0.9862
-3.6292 -0.4881 -0.5209 0.9853
-8.4726 -2.7321 -1.2662 0.9647
-8.6692 -4.6260 -1.3977 0.9611
-8.7248 -5.7075 -1.4829 0.9588
-8.7448 -6.9057 -1.5849 0.9560
-8.6446 -9.7746 -1.8560 0.9486
2.6464 12.3152 -1.7917 0.9504
1.4143 11.4827 -1.6456 0.9543
0.3583 10.7162 -1.5251 0.9576
-1.3607 9.3296 -1.3410 0.9626
-2.0711 8.6906 -1.2707 0.9645
-3.2690 7.4763 -1.1606 0.9676
-3.7797 6.8970 -1.1187 0.9687
-4.5208 6.7455 -1.1550 0.9677
-4.9743 6.1568 -1.1258 0.9685
-5.3903 5.5736 -1.1029 0.9692
-5.7732 4.9923 -1.0856 0.9696
-6.1268 4.4098 -1.0737 0.9700
-6.4538 3.8226 -1.0669 0.9701
-6.7569 3.2275 -1.0651 0.9702
-3.6717 0.6615 -0.5306 0.9850
-3.3525 0.2996 -0.4787 0.9865
-3.2915 0.0000 -0.5241 0.9868
-3.3916 -0.3030 -0.5422 0.9863
-7.8265 -1.4100 -1.2663 0.9683
-7.9473 -2.1770 -1.3121 0.9672
-8.1136 -3.8755 -1.4318 0.9642
-8.1553 -5.8698 -1.6000 0.9601
-7.8657 -9.7354 -1.9930 0.9506
6.1643 13.2836 -2.3319 0.9424
4.4765 12.4426 -2.1056 0.9478
1.8477 10.9538 -1.7689 0.9560
-0.1075 9.6456 -1.5360 0.9617
-0.9093 9.0392 -1.4466 0.9639
-1.6210 8.4568 -1.3712 0.9657
-3.3412 6.7991 -1.2063 0.9698
-3.8084 6.2696 -1.1681 0.9707
-4.5116 6.1232 -1.2111 0.9697
-5.9930 3.9205 -1.1404 0.9714
-6.2940 3.3586 -1.1360 0.9715
-3.4817 -0.4682 -0.5594 0.9859
-7.8898 -1.7876 -1.2882 0.9678
-7.9988 -2.5793 -1.3383 0.9665
-8.0823 -3.4272 -1.3979 0.9651
-8.1411 -6.4290 -1.6518 0.9589
-8.0763 -7.6385 -1.7701 0.9560
-7.7577 -10.5289 -2.0825 0.9484
-7.4684 -12.2947 -2.2907 0.9434
5.2822 12.8535 -2.2128 0.9453
3.7376 12.0490 -2.0088 0.9502
2.4295 11.3061 -1.8414 0.9542
1.3071 10.6127 -1.7027 0.9576
-1.2754 8.7453 -1.4073 0.9648
-1.9478 8.1733 -1.3379 0.9665
-3.0904 7.0679 -1.2283 0.9692
-4.2886 6.3991 -1.2267 0.9693
-5.1254 5.2996 -1.1740 0.9706
-5.4938 4.7506 -1.1565 0.9710
-6.4357 3.0741 -1.1357 0.9715
-7.6416 -5.5001 -1.6601 0.9625
-7.5717 -6.5476 -1.7651 0.9602
-7.4479 -7.7011 -1.8891 0.9574
-7.2578 -8.9831 -2.0363 0.9542
-6.9854 -10.4229 -2.2124 0.9503
-6.6090 -12.0598 -2.4249 0.9457
7.3468 12.7250 -2.5909 0.9421
1.7122 10.1506 -1.8151 0.9591
0.7485 9.5780 -1.6940 0.9617
-0.1006 9.0254 -1.5915 0.9640
-2.6767 6.9500 -1.3132 0.9702
-3.1699 6.4507 -1.2673 0.9712
-3.6190 5.9577 -1.2291 0.9721
-4.2928 5.8263 -1.2761 0.9710
-6.0069 3.2054 -1.2005 0.9727
-3.1644 0.1411 -0.5585 0.9872
-3.2276 -0.1439 -0.5697 0.9870
-3.3507 -0.4506 -0.5961 0.9864
-7.5730 -2.4420 -1.4030 0.9682
-7.6340 -3.2371 -1.4621 0.9669
-7.6642 -4.0897 -1.5318 0.9653
-7.6128 -6.0118 -1.7104 0.9614
-7.3620 -8.3244 -1.9595 0.9559
-7.1331 -9.6811 -2.1204 0.9523
-6.3724 -12.9674 -2.5477 0.9430
4.8064 11.6957 -2.2296 0.9499
3.4294 11.0555 -2.0410 0.9541
1.2145 9.8616 -1.7520 0.9604
-0.4882 8.7556 -1.5463 0.9650
-1.8378 7.7119 -1.3979 0.9683
-1.4516 4.3358 -0.8062 0.9816
-2.9293 6.6995 -1.2893 0.9707
-4.0781 6.0850 -1.2916 0.9707
-5.2388 4.5302 -1.2212 0.9723
-5.8657 3.4743 -1.2021 0.9727
-6.3959 2.3819 -1.2034 0.9727
-4.2904 1.1753 -0.7844 0.9821
-3.4371 0.6192 -0.6158 0.9859
-3.1015 0.0000 -0.6002 0.9874
-3.1775 -0.2839 -0.6174 0.9871
-7.1560 -1.9602 -1.4358 0.9702
-7.2400 -3.4582 -1.5527 0.9678
-7.2327 -4.2839 -1.6268 0.9663
-7.1863 -5.1724 -1.7134 0.9646
-7.0939 -6.1344 -1.8149 0.9625
-6.9470 -7.1832 -1.9338 0.9601
-6.0486 -11.0372 -2.4356 0.9500
8.4681 12.0461 -2.8495 0.9418
6.6470 11.5129 -2.5726 0.9473
5.0976 10.9851 -2.3435 0.9519
3.7651 10.4653 -2.1523 0.9557
2.6080 9.9546 -1.9914 0.9589
0.7002 8.9611 -1.7394 0.9640
-0.8049 8.0007 -1.5561 0.9678
-1.4435 7.5305 -1.4838 0.9692
-2.5409 6.5975 -1.3681 0.9716
-3.0144 6.1342 -1.3227 0.9725
-3.4466 5.6739 -1.2847 0.9733
-4.0932 5.5553 -1.3354 0.9723
-4.4813 5.0671 -1.3090 0.9728
-5.7433 3.0647 -1.2598 0.9738
-5.9964 2.5428 -1.2604 0.9738
-6.2272 2.0081 -1.2662 0.9737
-3.1273 -0.1394 -0.6058 0.9873
-3.2339 -0.4349 -0.6315 0.9868
-7.1171 -1.6125 -1.4122 0.9707
-7.1881 -2.3179 -1.4616 0.9697
-7.2305 -3.0660 -1.5198 0.9685
-7.2409 -3.8638 -1.5883 0.9671
-7.2148 -4.7197 -1.6684 0.9655
-6.5991 -8.9563 -2.1529 0.9557
-6.2589 -10.3037 -2.3330 0.9521
4.4071 10.7240 -2.2437 0.9539
2.0850 9.7028 -1.9205 0.9604
-1.7391 7.2976 -1.4518 0.9699
-1.4562 4.3494 -0.8876 0.9815
-3.2352 5.9035 -1.3027 0.9729
-4.2914 5.3115 -1.3214 0.9726
-4.6633 4.8218 -1.2981 0.9730
-5.0052 4.3281 -1.2805 0.9734
-4.1641 1.1407 -0.8355 0.9826
-3.0639 0.2738 -0.5953 0.9875
-3.0994 -0.2770 -0.6560 0.9874
-3.2303 -0.5820 -0.6920 0.9867
-6.8136 -1.8664 -1.4894 0.9715
-6.8431 -4.0532 -1.6767 0.9680
-6.7797 -4.8797 -1.7610 0.9664
-6.6702 -5.7679 -1.8591 0.9646
-6.2787 -7.7713 -2.1063 0.9600
-5.5735 -10.1703 -2.4450 0.9537
-5.0570 -11.5655 -2.6611 0.9497
-4.3943 -13.1250 -2.9180 0.9450
6.0655 10.5057 -2.5574 0.9516
3.4856 9.6882 -2.1706 0.9588
2.4279 9.2669 -2.0196 0.9616
0.6576 8.4156 -1.7796 0.9661
-1.3679 7.1363 -1.5318 0.9707
-2.8726 5.8455 -1.3731 0.9737
-4.9448 3.9049 -1.3283 0.9746
-5.2348 3.4245 -1.3188 0.9748
-5.9626 1.9227 -1.3208 0.9747
-2.9940 0.1335 -0.6318 0.9878
-3.0505 -0.1360 -0.6438 0.9876
-3.1545 -0.4243 -0.6710 0.9871
-6.8383 -2.2050 -1.5147 0.9711
-6.8653 -2.9112 -1.5721 0.9700
-6.8596 -3.6604 -1.6392 0.9687
-6.5958 -6.2382 -1.9139 0.9636
-6.4015 -7.2383 -2.0371 0.9613
-6.1367 -8.3288 -2.1810 0.9586
-5.3314 -10.8491 -2.5485 0.9518
-3.9945 -13.9697 -3.0631 0.9423
8.5445 11.0715 -2.9484 0.9444
5.3529 10.3061 -2.4483 0.9536
2.9402 9.4782 -2.0921 0.9602
1.9457 9.0548 -1.9525 0.9628
1.0628 8.6289 -1.8329 0.9651
-1.4608 4.3632 -0.9700 0.9814
-2.6502 6.0612 -1.3946 0.9733
-3.7106 5.5366 -1.4051 0.9731
-4.1014 5.0764 -1.3758 0.9737
-4.4603 4.6120 -1.3526 0.9741
-5.0930 3.6657 -1.3229 0.9747
-5.3706 3.1810 -1.3159 0.9748
-4.0001 1.0957 -0.8744 0.9832
-3.2435 0.5844 -0.6948 0.9866
-3.0430 -0.2719 -0.6973 0.9875
-3.1642 -0.5700 -0.7338 0.9869
-6.5004 -1.7806 -1.5383 0.9727
-6.5298 -2.4318 -1.5904 0.9718
-6.5280 -3.1181 -1.6512 0.9708
-6.4143 -4.6167 -1.8038 0.9681
-6.2918 -5.4407 -1.8985 0.9664
-6.1162 -6.3241 -2.0081 0.9645
-5.8782 -7.2755 -2.1349 0.9624
-5.5660 -8.3051 -2.2819 0.9598
-5.1649 -9.4248 -2.4530 0.9569
-3.2081 -13.4618 -3.1586 0.9448
8.5879 10.1579 -3.0360 0.9469
6.9804 9.9298 -2.7704 0.9514
4.3374 9.3468 -2.3518 0.9586
3.2431 9.0142 -2.1865 0.9615
2.2699 8.6641 -2.0443 0.9639
1.4003 8.3014 -1.9215 0.9660
0.6196 7.9295 -1.8154 0.9679
-0.7210 7.1668 -1.6440 0.9709
-1.8254 6.3841 -1.5155 0.9731
-1.6947 4.4001 -1.0762 0.9808
-2.7425 5.5809 -1.4193 0.9748
-3.1466 5.1800 -1.3833 0.9754
-4.1034 4.6398 -1.4137 0.9749
-4.4357 4.1953 -1.3935 0.9753
-5.0203 3.2842 -1.3693 0.9757
-5.2757 2.8152 -1.3649 0.9758
-5.7179 1.8438 -1.3712 0.9757
-2.9625 0.3984 -0.6823 0.9878
-2.9453 0.1313 -0.6729 0.9880
-3.0959 -0.4163 -0.7130 0.9873
-6.4748 -1.4670 -1.5153 0.9731
-6.5188 -2.1020 -1.5633 0.9723
-6.5330 -2.7702 -1.6196 0.9713
-6.5141 -3.4760 -1.6853 0.9702
-6.2112 -5.8745 -1.9513 0.9655
-6.0057 -6.7907 -2.0691 0.9635
-5.7322 -7.7798 -2.2056 0.9611
-5.3777 -8.8528 -2.3642 0.9584
-4.9253 -10.0227 -2.5489 0.9552
-4.3540 -11.3048 -2.7650 0.9515
-3.6338 -12.7083 -3.0168 0.9472
-2.7324 -14.2546 -3.3127 0.9422
9.4794 10.2489 -3.1864 0.9443
7.7567 10.0507 -2.8977 0.9492
3.7738 9.1830 -2.2661 0.9601
2.7425 8.8410 -2.1128 0.9627
-0.4103 7.3593 -1.6823 0.9702
-1.0170 6.9733 -1.6084 0.9715
-1.5688 6.5831 -1.5446 0.9726
-1.4655 4.3772 -1.0536 0.9812
-4.5915 3.9704 -1.3855 0.9754
-5.1509 3.0509 -1.3664 0.9757
-5.3947 2.5769 -1.3646 0.9758
-3.1659 0.5704 -0.7342 0.9869
-2.9882 -0.2670 -0.7374 0.9877
-6.2314 -2.3206 -1.6345 0.9730
-6.2188 -2.9704 -1.6940 0.9720
-6.0838 -4.3789 -1.8425 0.9696
-5.7675 -5.9635 -2.0392 0.9664
-3.6932 -11.0310 -2.8594 0.9532
-2.9291 -12.2910 -3.1057 0.9493
-1.9917 -13.6560 -3.3922 0.9447
5.1539 8.9269 -2.5337 0.9584
4.0332 8.6914 -2.3552 0.9613
3.0306 8.4237 -2.2005 0.9638
2.1303 8.1312 -2.0661 0.9660
1.3190 7.8197 -1.9492 0.9679
-0.6849 6.8082 -1.6819 0.9722
-1.7406 6.0874 -1.5562 0.9743
-3.0691 5.0525 -1.4531 0.9759
-3.5859 4.8669 -1.4859 0.9754
-3.9356 4.4500 -1.4602 0.9758
-4.2568 4.0261 -1.4402 0.9762
-4.5515 3.5943 -1.4255 0.9764
-4.8212 3.1539 -1.4161 0.9765
-5.0671 2.7039 -1.4117 0.9766
-5.2901 2.2432 -1.4124 0.9766
-3.3132 0.7507 -0.8350 0.9861
-2.8899 0.3887 -0.7167 0.9881
-2.8978 0.1292 -0.7130 0.9881
-3.1571 -0.7153 -0.7957 0.9868
-6.2292 -2.6414 -1.6631 0.9725
-6.1327 -4.0118 -1.8013 0.9703
-6.0237 -4.7569 -1.8866 0.9689
-5.8665 -5.5485 -1.9848 0.9673
-5.3752 -7.2953 -2.2274 0.9634
-5.0203 -8.2645 -2.3768 0.9610
-4.5743 -9.3083 -2.5493 0.9582
-2.4842 -12.9598 -3.2435 0.9471
8.6007 9.2990 -3.1134 0.9492
7.0974 9.1963 -2.8553 0.9533
3.5182 8.5611 -2.2751 0.9626
1.7143 7.9776 -2.0056 0.9669
-0.3893 6.9829 -1.7191 0.9716
-0.9672 6.6316 -1.6473 0.9728
-1.4946 6.2716 -1.5847 0.9738
-2.8204 5.1466 -1.4425 0.9761
-3.7645 4.6593 -1.4723 0.9756
-4.4074 3.8112 -1.4322 0.9763
-4.6894 3.3752 -1.4202 0.9765
-4.9471 2.9302 -1.4133 0.9766
-5.1815 2.4750 -1.4114 0.9766
-5.3932 2.0085 -1.4146 0.9766
-3.8036 1.0419 -0.9694 0.9839
-3.0843 0.5557 -0.7703 0.9872
-2.8745 0.0000 -0.7574 0.9882
-2.9343 -0.2622 -0.7763 0.9879
-5.9472 -1.6291 -1.6248 0.9748
-5.9569 -2.2184 -1.6750 0.9740
-5.8789 -3.4821 -1.8004 0.9721
-5.7834 -4.1627 -1.8776 0.9710
-5.4540 -5.6394 -2.0672 0.9681
-4.4978 -8.2074 -2.4661 0.9620
-4.0125 -9.1767 -2.6391 0.9594
-2.6929 -11.3002 -3.0610 0.9531
-0.7636 -13.6947 -3.6142 0.9448
11.8768 8.1529 -3.7959 0.9422
8.5849 8.4898 -3.1814 0.9513
7.1837 8.4970 -2.9319 0.9550
5.9238 8.4268 -2.7142 0.9583
4.7897 8.2959 -2.5242 0.9611
2.8428 7.9018 -2.2128 0.9659
2.0059 7.6564 -2.0856 0.9678
0.5548 7.0998 -1.8765 0.9710
-0.0757 6.7969 -1.7911 0.9723
-0.6520 6.4813 -1.7164 0.9734
-1.6627 5.8148 -1.5936 0.9753
-1.6882 4.3834 -1.2377 0.9808
-2.5122 5.1123 -1.5009 0.9767
-3.0231 4.9768 -1.5344 0.9762
-4.8729 2.6003 -1.4554 0.9774
-5.0873 2.1572 -1.4560 0.9774
-2.8316 0.3808 -0.7528 0.9883
-2.8515 0.1271 -0.7521 0.9883
-2.9007 -0.1293 -0.7651 0.9881
-2.9836 -0.4013 -0.7933 0.9876
-5.9558 -1.9205 -1.6489 0.9744
-5.9503 -2.5231 -1.7030 0.9736
-5.9117 -3.1546 -1.7656 0.9727
-5.7195 -4.5167 -1.9204 0.9703
-5.5557 -5.2545 -2.0150 0.9689
-5.3378 -6.0356 -2.1231 0.9672
-5.0577 -6.8643 -2.2467 0.9653
-3.7303 -9.6855 -2.7349 0.9580
-2.2758 -11.8725 -3.1854 0.9512
-1.3148 -13.0699 -3.4613 0.9471
7.8656 8.5042 -3.0524 0.9532
5.3420 8.3680 -2.6160 0.9598
3.2933 8.0138 -2.2830 0.9648
1.6170 7.5246 -2.0280 0.9687
0.8924 7.2457 -1.9237 0.9703
0.2324 6.9501 -1.8324 0.9716
-0.3703 6.6406 -1.7525 0.9729
-0.9216 6.3196 -1.6828 0.9739
-1.4265 5.9858 -1.6214 0.9749
-2.3132 5.2905 -1.5215 0.9764
-2.7030 4.9323 -1.4820 0.9770
-3.6142 4.4734 -1.5154 0.9765
-3.9384 4.0723 -1.4928 0.9768
-4.2361 3.6631 -1.4757 0.9771
-4.5086 3.2451 -1.4638 0.9773
-4.9829 2.3801 -1.4551 0.9774
-3.7366 1.0236 -1.0209 0.9841
-3.0018 0.5408 -0.8037 0.9875
-2.8348 0.2533 -0.7499 0.9883
-2.8819 -0.2575 -0.8141 0.9880
-2.9786 -0.5366 -0.8515 0.9875
-5.7014 -1.5618 -1.6632 0.9757
-5.7035 -2.1240 -1.7124 0.9750
-5.6744 -2.7104 -1.7693 0.9742
-5.5090 -3.9652 -1.9098 0.9722
-5.3641 -4.6385 -1.9952 0.9710
-5.1704 -5.3462 -2.0926 0.9696
-4.6081 -6.8758 -2.3289 0.9662
-4.2216 -7.7035 -2.4715 0.9642
-3.7500 -8.5763 -2.6336 0.9619
-3.1779 -9.4918 -2.8163 0.9593
-0.6967 -12.4949 -3.5210 0.9493
12.3428 6.9440 -3.9846 0.9429
10.7260 7.3629 -3.6604 0.9474
9.2387 7.6360 -3.3723 0.9514
2.6756 7.4370 -2.2237 0.9677
0.5269 6.7426 -1.9029 0.9723
-0.0721 6.4698 -1.8204 0.9735
-0.6218 6.1821 -1.7481 0.9745
-2.4097 4.9036 -1.5372 0.9776
-3.3072 4.4886 -1.5687 0.9771
-3.9354 3.7221 -1.5240 0.9777
-4.2110 3.3255 -1.5097 0.9780
-4.4628 2.9194 -1.5004 0.9781
-3.1371 0.7108 -0.9050 0.9867
-2.7751 0.3732 -0.7878 0.9884
-2.8062 0.1252 -0.7903 0.9884
-2.8531 -0.1272 -0.8035 0.9882
-2.9298 -0.3940 -0.8317 0.9878
-3.0353 -0.6877 -0.8756 0.9872
-5.6472 -3.0134 -1.8009 0.9738
-4.4248 -7.2841 -2.3979 0.9652
-3.4776 -9.0295 -2.7224 0.9606
-1.2041 -11.9692 -3.3846 0.9512
-0.1451 -13.0286 -3.6659 0.9473
1.1029 -14.1137 -3.9831 0.9429
11.5179 7.1734 -3.8178 0.9452
8.5426 7.7263 -3.2407 0.9533
7.2413 7.8293 -3.0006 0.9567
3.9904 7.6829 -2.4358 0.9647
3.0938 7.5284 -2.2900 0.9667
1.5293 7.1170 -2.0481 0.9702
0.8464 6.8725 -1.9482 0.9716
0.2210 6.6082 -1.8603 0.9729
-0.8800 6.0334 -1.7155 0.9750
-3.1331 4.6749 -1.5834 0.9769
-3.7882 3.9170 -1.5331 0.9776
-4.3398 3.1237 -1.5044 0.9780
-3.6502 0.9999 -1.0648 0.9844
-2.7884 0.2492 -0.7877 0.9884
-2.7824 0.0000 -0.8330 0.9884
-3.0126 -0.8252 -0.9351 0.9870
-5.4687 -2.0365 -1.7471 0.9759
-5.4334 -2.5953 -1.8027 0.9752
-5.3641 -3.1772 -1.8665 0.9743
-5.2573 -3.7839 -1.9392 0.9733
-5.1085 -4.4175 -2.0219 0.9722
-4.9126 -5.0796 -2.1156 0.9709
-3.5176 -8.0450 -2.6287 0.9640
0.4139 -12.3810 -3.7087 0.9496
12.6194 5.6860 -4.1438 0.9438
11.1550 6.2757 -3.8318 0.9480
7.2719 7.1913 -3.0618 0.9582
6.1589 7.2847 -2.8559 0.9610
4.1895 7.2564 -2.5085 0.9656
2.5257 7.0202 -2.2336 0.9693
1.7936 6.8461 -2.1188 0.9709
-0.0687 6.1702 -1.8474 0.9746
-0.5943 5.9071 -1.7774 0.9755
-1.0782 5.6251 -1.7147 0.9764
-1.5242 5.3306 -1.6598 0.9771
-2.3143 4.7095 -1.5710 0.9783
-3.7903 3.5848 -1.5619 0.9785
-4.3007 2.8134 -1.5386 0.9788
-3.0564 0.6925 -0.9382 0.9870
-2.7204 0.3659 -0.8218 0.9886
-2.7619 0.1232 -0.8277 0.9885
-2.8771 -0.3869 -0.8691 0.9880
-2.9771 -0.6745 -0.9139 0.9873
-3.1092 -1.0025 -0.9780 0.9865
-5.4551 -2.3131 -1.7739 0.9756
-5.4032 -2.8832 -1.8335 0.9748
-5.3157 -3.4773 -1.9017 0.9738
-5.1884 -4.0973 -1.9793 0.9728
-4.1738 -6.8710 -2.4068 0.9670
-3.7570 -7.6452 -2.5503 0.9651
-2.6551 -9.2853 -2.8912 0.9605
-0.1329 -11.9301 -3.5719 0.9514
10.4523 6.5098 -3.6865 0.9499
6.7042 7.2485 -2.9560 0.9596
5.6354 7.3020 -2.7614 0.9622
4.6513 7.2862 -2.5879 0.9645
3.7467 7.2137 -2.4336 0.9666
0.8046 6.5329 -1.9706 0.9729
-1.3058 5.4793 -1.6863 0.9768
-1.4913 4.4541 -1.4062 0.9806
-2.4929 4.5490 -1.5530 0.9786
-3.6477 3.7717 -1.5709 0.9783
-3.9267 3.3956 -1.5542 0.9786
-4.6237 2.2086 -1.5341 0.9788
-2.8694 -0.5169 -0.9259 0.9878
-2.9540 -0.8092 -0.9727 0.9872
-4.6771 -4.8361 -2.1367 0.9722
-4.4293 -5.4822 -2.2383 0.9709
-1.4345 -9.8357 -3.1567 0.9591
1.4925 -12.1184 -3.8777 0.9500
11.4191 5.1452 -3.9777 0.9488
5.7432 6.7930 -2.8251 0.9634
4.8075 6.8388 -2.6548 0.9655
3.1346 6.7549 -2.3650 0.9692
2.3904 6.6441 -2.2425 0.9708
1.7022 6.4973 -2.1331 0.9722
1.0661 6.3205 -2.0357 0.9735
0.4781 6.1182 -1.9490 0.9746
-1.0331 5.3897 -1.7429 0.9772
-1.4624 5.1144 -1.6894 0.9779
-1.6882 4.3834 -1.4918 0.9805
-2.2253 4.5284 -1.6024 0.9790
-2.7310 4.4959 -1.6706 0.9782
-3.0646 4.1592 -1.6407 0.9786
-3.9128 3.0899 -1.5834 0.9793
-4.1485 2.7139 -1.5744 0.9794
-4.3620 2.3277 -1.5702 0.9795
-4.5537 1.9310 -1.5708 0.9795
-2.9791 0.6750 -0.9701 0.9873
-2.6672 0.3587 -0.8547 0.9888
-2.8255 -0.3800 -0.9054 0.9881
-2.9205 -0.6617 -0.9510 0.9875
-5.0854 -3.3267 -1.9299 0.9748
-4.2843 -5.8147 -2.2938 0.9701
-3.5419 -7.2077 -2.5505 0.9669
-2.4838 -8.6865 -2.8693 0.9628
-1.8114 -9.4501 -3.0559 0.9604
-1.0284 -10.2225 -3.2629 0.9578
-0.1225 -10.9939 -3.4917 0.9549
3.4430 -13.1420 -4.3146 0.9446
13.3446 3.9771 -4.4223 0.9432
12.0576 4.7988 -4.1214 0.9470
10.7882 5.4516 -3.8388 0.9505
9.5592 5.9535 -3.5765 0.9538
8.3857 6.3240 -3.3356 0.9569
7.2769 6.5816 -3.1161 0.9597
6.2370 6.7433 -2.9172 0.9622
5.2668 6.8244 -2.7377 0.9645
3.5291 6.7946 -2.4316 0.9684
2.7552 6.7044 -2.3020 0.9700
0.2009 6.0089 -1.9094 0.9751
-0.8054 5.5223 -1.7723 0.9769
-1.2520 5.2537 -1.7152 0.9776
-2.0458 4.6789 -1.6218 0.9788
-2.4553 4.4805 -1.6226 0.9788
-3.2213 3.9871 -1.6279 0.9787
-3.5160 3.6356 -1.6062 0.9790
-3.7864 3.2742 -1.5898 0.9792
-4.0335 2.9032 -1.5783 0.9794
-4.4606 2.1307 -1.5699 0.9795
-2.7749 0.4999 -0.8954 0.9882
-2.6945 0.0000 -0.9053 0.9887
-2.8177 -0.5076 -0.9619 0.9880
-2.8971 -0.7936 -1.0092 0.9874
-5.0019 -2.3892 -1.8624 0.9769
-4.9242 -2.9166 -1.9229 0.9761
-4.8108 -3.4626 -1.9915 0.9753
-4.6578 -4.0277 -2.0689 0.9744
-4.4610 -4.6126 -2.1560 0.9733
-3.5540 -6.4853 -2.4847 0.9693
-2.0246 -8.4956 -2.9343 0.9638
-1.3385 -9.1777 -3.1162 0.9616
1.3717 -11.1375 -3.7703 0.9538
2.5163 -11.7100 -4.0242 0.9507
13.6185 2.1414 -4.6318 0.9435
12.5908 3.1491 -4.3606 0.9467
10.4185 4.6944 -3.8393 0.9529
7.2580 5.9989 -3.1637 0.9610
6.2904 6.2207 -2.9724 0.9634
3.7146 6.4340 -2.4961 0.9691
1.0162 6.0245 -2.0527 0.9745
0.4566 5.8435 -1.9693 0.9756
-0.0627 5.6281 -1.8911 0.9765
-0.5446 5.4139 -1.8282 0.9773
-2.1423 4.3595 -1.6320 0.9797
-2.9544 4.0098 -1.6734 0.9792
-3.2524 3.6776 -1.6495 0.9795
-3.7770 2.9827 -1.6170 0.9799
-4.2118 2.2475 -1.6040 0.9801
-4.3968 1.8644 -1.6046 0.9800
-4.5605 1.4706 -1.6100 0.9800
-2.6272 0.5953 -0.9050 0.9887
-2.6180 0.3521 -0.8875 0.9889
-2.6762 0.1193 -0.9001 0.9888
-2.7751 -0.3732 -0.9408 0.9883
-2.8653 -0.6492 -0.9871 0.9877
-5.0578 -1.6309 -1.7855 0.9778
-4.9673 -2.6506 -1.8917 0.9765
-4.5651 -4.3177 -2.1112 0.9738
-3.3483 -6.8136 -2.5507 0.9685
-2.8807 -7.4795 -2.6929 0.9667
-2.3319 -8.1551 -2.8498 0.9648
1.9283 -11.4317 -3.8951 0.9523
5.9120 -12.7400 -4.7188 0.9425
14.1001 1.5774 -4.7669 0.9419
9.8731 4.9891 -3.7167 0.9544
7.7607 5.8526 -3.2658 0.9598
6.7677 6.1211 -3.0659 0.9622
4.9402 6.4012 -2.7167 0.9665
3.3333 6.4179 -2.4298 0.9699
2.6102 6.3514 -2.3071 0.9714
1.9373 6.2453 -2.1970 0.9728
0.7313 5.9371 -2.0098 0.9751
-0.7722 5.2945 -1.7977 0.9777
-1.2020 5.0437 -1.7421 0.9784
-2.4356 4.4445 -1.7028 0.9788
-2.7961 4.1720 -1.6874 0.9790
-3.3923 3.5076 -1.6395 0.9796
-3.6545 3.1602 -1.6232 0.9798
-4.1112 2.4351 -1.6054 0.9800
-4.3070 2.0573 -1.6037 0.9801
-2.6265 0.7195 -0.9150 0.9886
-2.6500 0.2368 -0.8939 0.9888
-2.6931 -0.2406 -0.9588 0.9886
-2.7668 -0.4984 -0.9969 0.9881
-2.8417 -0.7784 -1.0448 0.9876
-4.8563 -1.8085 -1.8375 0.9782
-4.7272 -2.7999 -1.9482 0.9770
-4.2618 -4.4067 -2.1738 0.9743
-4.0190 -4.9744 -2.2676 0.9732
-2.9562 -6.7611 -2.6165 0.9692
-1.9033 -7.9868 -2.9113 0.9658
-1.2537 -8.5962 -3.0803 0.9638
-0.5125 -9.1921 -3.2645 0.9617
2.3142 -10.7692 -3.9058 0.9543
3.4633 -11.1648 -4.1450 0.9516
4.7084 -11.4571 -4.3922 0.9488
7.4194 -11.6223 -4.8893 0.9432
12.3013 1.9343 -4.4155 0.9485
9.5704 4.3122 -3.7221 0.9564
6.7641 5.5907 -3.1117 0.9634
5.8866 5.8214 -2.9356 0.9655
4.2585 6.0578 -2.6256 0.9691
3.5124 6.0836 -2.4909 0.9706
0.9704 5.7521 -2.0685 0.9755
-0.0601 5.3923 -1.9122 0.9774
-0.5225 5.1936 -1.8509 0.9781
-0.9521 4.9671 -1.7933 0.9788
-1.3510 4.7248 -1.7425 0.9794
-2.0821 4.2371 -1.6740 0.9802
-2.5374 4.1771 -1.7330 0.9795
-2.8509 3.8692 -1.7042 0.9798
-3.1400 3.5504 -1.6806 0.9801
-4.0701 2.1719 -1.6358 0.9806
-4.2488 1.8017 -1.6364 0.9806
-4.4065 1.4209 -1.6417 0.9805
-2.5615 0.5804 -0.9313 0.9889
-2.5748 0.3463 -0.9212 0.9890
-2.6347 0.1175 -0.9351 0.9889
-2.7260 -0.3666 -0.9753 0.9884
-2.8709 -0.9257 -1.0696 0.9873
-4.6740 -3.0576 -1.9805 0.9766
-4.5398 -3.5851 -2.0512 0.9757
-3.8785 -5.2640 -2.3185 0.9726
-3.1729 -6.4566 -2.5509 0.9699
-2.7216 -7.0664 -2.6851 0.9684
-2.1960 -7.6799 -2.8323 0.9667
-1.5896 -8.2925 -2.9940 0.9648
2.8762 -10.9782 -4.0241 0.9530
8.1237 -11.5562 -5.0088 0.9418
12.7004 1.4207 -4.5315 0.9472
11.8788 2.4145 -4.2982 0.9499
10.9822 3.2731 -4.0634 0.9525
5.4630 5.9066 -2.8529 0.9664
4.6487 6.0236 -2.6980 0.9682
3.8797 6.0774 -2.5566 0.9699
2.4783 6.0305 -2.3119 0.9727
1.8438 5.9439 -2.2067 0.9739
1.2514 5.8237 -2.1121 0.9750
0.6990 5.6736 -2.0270 0.9760
-0.2950 5.2914 -1.8792 0.9778
-0.7412 5.0824 -1.8212 0.9784
-1.5253 4.5557 -1.7035 0.9798
-2.3711 4.3268 -1.7495 0.9793
-2.6973 4.0246 -1.7179 0.9796
-2.9984 3.7112 -1.6918 0.9800
-3.2757 3.3871 -1.6708 0.9802
-3.5301 3.0526 -1.6548 0.9804
-3.7622 2.7079 -1.6437 0.9805
-3.9728 2.3531 -1.6373 0.9806
-4.1621 1.9881 -1.6355 0.9806
-4.3303 1.6126 -1.6385 0.9806
-2.6060 0.2329 -0.9277 0.9890
-4.6261 -2.2097 -1.9144 0.9783
-4.5433 -2.6910 -1.9718 0.9777
-4.0776 -4.2162 -2.1902 0.9753
-3.8381 -4.7505 -2.2805 0.9743
-3.5494 -5.2961 -2.3807 0.9731
-3.2066 -5.8512 -2.4915 0.9719
-2.8035 -6.4119 -2.6131 0.9706
-2.3345 -6.9727 -2.7458 0.9691
-1.7946 -7.5304 -2.8907 0.9675
-1.1782 -8.0782 -3.0484 0.9657
4.3140 -10.4974 -4.2379 0.9527
5.5030 -10.5951 -4.4582 0.9503
10.3572 -9.3676 -5.2147 0.9421
13.5714 -1.5182 -5.0993 0.9434
13.1781 -0.2936 -4.9220 0.9453
12.5896 0.8428 -4.7116 0.9476
10.4678 2.6182 -4.0292 0.9550
9.6701 3.3578 -3.8224 0.9572
7.1546 4.9114 -3.2405 0.9636
6.3284 5.2306 -3.0658 0.9656
5.5276 5.4663 -2.9029 0.9674
4.0247 5.7253 -2.6133 0.9706
2.0531 5.7068 -2.2647 0.9744
-0.9156 4.7764 -1.8160 0.9794
-1.3006 4.5485 -1.7665 0.9800
-1.6585 4.3061 -1.7231 0.9805
-2.0700 4.2123 -1.7526 0.9802
-2.4490 4.0317 -1.7615 0.9801
-3.2918 3.1134 -1.6919 0.9808
-3.5278 2.7859 -1.6786 0.9810
-4.1088 1.7423 -1.6665 0.9811
-2.5325 0.3406 -0.9542 0.9891
-2.5921 0.1156 -0.9689 0.9890
-2.6307 -0.1173 -0.9833 0.9888
-2.7556 -0.6243 -1.0551 0.9880
-4.5888 -2.4487 -1.9422 0.9780
-4.3542 -3.4385 -2.0718 0.9766
-4.1803 -3.9537 -2.1486 0.9757
-3.7002 -5.0220 -2.3293 0.9737
-3.0132 -6.1315 -2.5511 0.9713
-1.4963 -7.8061 -2.9679 0.9666
-0.8396 -8.3457 -3.1321 0.9648
-0.0987 -8.8614 -3.3092 0.9629
0.7299 -9.3410 -3.4987 0.9608
1.6479 -9.7696 -3.6996 0.9586
4.9017 -10.5629 -4.3483 0.9515
6.1149 -10.5913 -4.5667 0.9491
7.3567 -10.4651 -4.7767 0.9468
8.5947 -10.1658 -4.9709 0.9447
13.6964 -2.1537 -5.1772 0.9425
10.8456 2.2045 -4.1327 0.9538
10.0748 3.0026 -3.9256 0.9561
9.2567 3.6841 -3.7202 0.9584
7.5745 4.7174 -3.3321 0.9626
6.7388 5.0820 -3.1517 0.9646
5.9244 5.3583 -2.9828 0.9665
5.1387 5.5559 -2.8260 0.9682
4.3869 5.6843 -2.6812 0.9698
3.6721 5.7522 -2.5483 0.9713
2.9956 5.7675 -2.4268 0.9726
2.3576 5.7369 -2.3161 0.9739
1.1951 5.5612 -2.1240 0.9760
0.1759 5.2611 -1.9657 0.9778
-0.2832 5.0799 -1.8998 0.9785
-1.1116 4.6644 -1.7905 0.9797
-1.4828 4.4290 -1.7441 0.9803
-1.8278 4.1803 -1.7037 0.9807
-2.2878 4.1748 -1.7776 0.9799
-3.4125 2.9510 -1.6846 0.9809
-3.6378 2.6183 -1.6737 0.9810
-3.8419 2.2756 -1.6674 0.9811
-4.1875 1.5594 -1.6686 0.9811
-2.5691 0.0000 -1.0083 0.9890
-2.6072 -0.2330 -1.0273 0.9888
-2.7221 -0.7457 -1.1077 0.9879
-4.4557 -2.1283 -1.9380 0.9790
-4.3711 -2.5890 -1.9939 0.9784
-4.0996 -3.5451 -2.1271 0.9770
-3.9066 -4.0394 -2.2055 0.9761
-3.6709 -4.5435 -2.2925 0.9752
-2.6642 -6.0932 -2.6100 0.9718
-2.2129 -6.6095 -2.7356 0.9705
-1.6964 -7.1186 -2.8721 0.9690
-0.4509 -8.0863 -3.1786 0.9658
1.0987 -8.9204 -3.5275 0.9621
2.9510 -9.5130 -3.9091 0.9581
3.9767 -9.6767 -4.1060 0.9560
5.0522 -9.7272 -4.3019 0.9540
6.1582 -9.6466 -4.4917 0.9520
7.2692 -9.4189 -4.6695 0.9502
8.3542 -9.0325 -4.8288 0.9485
9.3785 -8.4823 -4.9630 0.9471
10.3051 -7.7715 -5.0656 0.9460
11.0987 -6.9123 -5.1316 0.9454
11.7285 -5.9267 -5.1574 0.9451
12.4163 -3.7004 -5.0849 0.9458
12.3147 -1.3776 -4.8633 0.9481
11.9964 -0.2673 -4.7094 0.9497
11.5302 0.7719 -4.5354 0.9516
10.2771 1.6160 -4.0830 0.9563
9.6400 2.4111 -3.9000 0.9582
8.2046 3.6968 -3.5318 0.9621
6.6926 4.5942 -3.1860 0.9657
5.9412 4.9105 -3.0251 0.9674
5.2062 5.1486 -2.8737 0.9690
4.4953 5.3171 -2.7327 0.9705
1.9588 5.4447 -2.2710 0.9754
0.4005 5.1250 -2.0176 0.9782
-0.4819 4.7909 -1.8898 0.9795
-0.8813 4.5978 -1.8374 0.9801
-1.2532 4.3829 -1.7891 0.9806
-1.5995 4.1531 -1.7467 0.9811
-2.0468 4.1651 -1.8214 0.9803
-2.6609 3.6114 -1.7606 0.9809
-2.9335 3.3170 -1.7379 0.9812
-3.6214 2.3690 -1.6984 0.9816
-3.9763 1.6861 -1.6951 0.9816
-2.5568 0.5793 -1.0289 0.9888
-2.5490 0.1137 -1.0014 0.9891
-2.5889 -0.1154 -1.0171 0.9889
-2.6312 -0.3539 -1.0420 0.9887
-2.7055 -0.6130 -1.0887 0.9882
-4.4174 -2.3572 -1.9651 0.9787
-4.3165 -2.8237 -2.0244 0.9781
-3.5357 -4.7987 -2.3394 0.9747
-1.9631 -6.8654 -2.8025 0.9698
-1.4124 -7.3684 -2.9445 0.9683
0.6822 -8.7298 -3.4366 0.9631
1.5344 -9.0962 -3.6204 0.9611
2.4613 -9.3946 -3.8116 0.9591
3.4566 -9.6078 -4.0074 0.9571
4.5093 -9.7173 -4.2044 0.9550
5.6029 -9.7044 -4.3979 0.9530
6.7148 -9.5520 -4.5825 0.9511
9.8563 -8.1464 -5.0186 0.9465
11.4357 -6.4336 -5.1497 0.9452
11.9745 -5.3954 -5.1547 0.9451
11.7801 0.2625 -4.6245 0.9506
11.0644 1.2378 -4.3695 0.9533
9.9678 2.0260 -3.9920 0.9572
8.5767 3.4135 -3.6229 0.9611
7.8277 3.9555 -3.4421 0.9630
7.0725 4.4048 -3.2701 0.9648
6.3152 4.7626 -3.1043 0.9666
4.8475 5.2411 -2.8019 0.9698
2.8485 5.4843 -2.4254 0.9738
2.2470 5.4676 -2.3200 0.9749
-1.0705 4.4923 -1.8125 0.9804
-1.7805 4.0721 -1.7443 0.9811
-2.2092 4.0313 -1.8042 0.9804
-2.8000 3.4656 -1.7486 0.9810
-3.0614 3.1655 -1.7283 0.9813
-3.3012 2.8547 -1.7129 0.9814
-3.5199 2.5335 -1.7021 0.9815
-3.8952 1.8606 -1.6942 0.9816
-4.0522 1.5091 -1.6971 0.9816
-2.5289 0.0000 -1.0413 0.9891
-2.5655 -0.2293 -1.0607 0.9889
-2.6410 -0.7235 -1.1276 0.9882
-2.6436 -0.9845 -1.1616 0.9879
-4.2954 -2.0517 -1.9602 0.9796
-3.9382 -3.4055 -2.1439 0.9777
-3.7474 -3.8748 -2.2197 0.9770
-3.5156 -4.3513 -2.3036 0.9761
-3.2392 -4.8333 -2.3959 0.9751
-2.5365 -5.8011 -2.6072 0.9730
-2.1020 -6.2783 -2.7263 0.9718
-1.6074 -6.7449 -2.8552 0.9705
0.2678 -8.0088 -3.2997 0.9659
1.8558 -8.6360 -3.6373 0.9625
2.7441 -8.8459 -3.8138 0.9607
4.6651 -8.9819 -4.1677 0.9572
6.6685 -8.6406 -4.4944 0.9539
7.6423 -8.2628 -4.6347 0.9525
8.5591 -7.7412 -4.7522 0.9513
9.3878 -7.0796 -4.8417 0.9504
10.0990 -6.2897 -4.8992 0.9498
11.0735 -4.4071 -4.9077 0.9497
11.3072 -3.3699 -4.8585 0.9502
11.3665 -2.3103 -4.7762 0.9511
10.9973 -0.2451 -4.5296 0.9535
9.7767 1.5373 -4.0753 0.9581
8.9250 2.2323 -3.7884 0.9610
6.9679 3.9201 -3.2922 0.9660
5.5882 4.6188 -2.9854 0.9691
4.9157 4.8612 -2.8468 0.9705
2.4219 5.2189 -2.3692 0.9754
0.8503 5.0408 -2.1050 0.9781
-0.4639 4.6119 -1.9086 0.9801
-1.2086 4.2270 -1.8103 0.9812
-1.9773 4.0237 -1.8461 0.9808
-2.5735 3.4928 -1.7865 0.9814
-2.8383 3.2093 -1.7642 0.9816
-3.3044 2.6094 -1.7338 0.9820
-3.8504 1.6327 -1.7222 0.9821
-3.9920 1.2873 -1.7272 0.9820
-2.6388 0.5979 -1.1141 0.9884
-2.5479 -0.1136 -1.0502 0.9890
-2.6300 -0.5959 -1.1104 0.9884
-4.2562 -2.2712 -1.9866 0.9793
-4.1545 -2.7177 -2.0443 0.9788
-3.8477 -3.6392 -2.1809 0.9774
-3.0832 -5.0756 -2.4454 0.9746
-2.7325 -5.5604 -2.5512 0.9736
-1.3365 -6.9723 -2.9234 0.9698
-0.7455 -7.4106 -3.0670 0.9683
-0.0871 -7.8190 -3.2199 0.9667
0.6398 -8.1870 -3.3815 0.9651
1.4342 -8.5023 -3.5506 0.9634
2.2927 -8.7512 -3.7252 0.9616
4.1710 -8.9883 -4.0803 0.9580
5.1647 -8.9455 -4.2534 0.9563
7.1607 -8.4696 -4.5671 0.9532
10.4023 -5.8522 -4.9148 0.9497
10.8915 -4.9075 -4.9192 0.9496
11.2122 -3.8933 -4.8874 0.9500
11.3584 -2.8409 -4.8213 0.9506
11.3327 -1.7820 -4.7239 0.9516
11.1459 -0.7461 -4.5999 0.9528
9.2123 1.8725 -3.8710 0.9601
8.6227 2.5698 -3.7050 0.9618
7.3107 3.6943 -3.3730 0.9652
6.6228 4.1247 -3.2128 0.9668
5.9316 4.4733 -3.0592 0.9684
3.9346 5.0984 -2.6519 0.9725
3.3106 5.1859 -2.5335 0.9737
2.7095 5.2166 -2.4206 0.9749
2.1415 5.2111 -2.3200 0.9759
1.6030 5.1675 -2.2279 0.9769
0.6139 4.9842 -2.0679 0.9785
0.1622 4.8520 -1.9991 0.9792
-0.2619 4.6970 -1.9372 0.9799
-1.3792 4.1196 -1.7889 0.9814
-2.4329 3.6302 -1.7995 0.9813
-2.9626 3.0634 -1.7549 0.9817
-3.1956 2.7634 -1.7397 0.9819
-3.6000 2.1323 -1.7230 0.9821
-3.9237 1.4612 -1.7241 0.9821
-2.5181 0.4537 -1.0536 0.9890
-2.4893 0.0000 -1.0738 0.9892
-2.5389 -0.4574 -1.1128 0.9888
-2.5507 -0.6987 -1.1408 0.9885
-4.1442 -1.9795 -1.9811 0.9802
-3.9391 -2.8352 -2.0935 0.9791
-3.7871 -3.2749 -2.1597 0.9784
-3.3711 -4.1725 -2.3139 0.9769
-2.0003 -5.9746 -2.7178 0.9729
0.9662 -7.8454 -3.4097 0.9662
1.7379 -8.0877 -3.5683 0.9646
2.5619 -8.2588 -3.7300 0.9630
7.0346 -7.6058 -4.4690 0.9559
8.6107 -6.4936 -4.6521 0.9541
9.2539 -5.7634 -4.7026 0.9536
9.7709 -4.9374 -4.7223 0.9534
10.3683 -3.0900 -4.6668 0.9540
10.4373 -2.1215 -4.5943 0.9547
10.3579 -1.1587 -4.4958 0.9556
9.3624 1.4722 -4.0882 0.9596
7.1587 3.2256 -3.3869 0.9664
5.2756 4.3604 -2.9523 0.9706
4.6484 4.5969 -2.8200 0.9719
4.0342 4.7717 -2.6953 0.9731
2.3131 4.9845 -2.3703 0.9763
0.8162 4.8386 -2.1167 0.9789
-0.8188 4.2718 -1.8762 0.9812
-1.1666 4.0798 -1.8304 0.9817
-2.4906 3.3803 -1.8111 0.9819
-2.7479 3.1071 -1.7893 0.9821
-2.9846 2.8229 -1.7720 0.9823
-3.8675 1.2471 -1.7529 0.9825
-2.4106 0.3242 -1.0492 0.9895
-2.4655 0.1100 -1.0645 0.9893
-2.5277 -0.3399 -1.1001 0.9890
-4.1045 -2.1902 -2.0068 0.9799
-2.9490 -4.8546 -2.4502 0.9756
-1.7704 -6.1913 -2.7777 0.9723
-1.2674 -6.6121 -2.9041 0.9711
-0.0822 -7.3763 -3.1820 0.9684
2.1439 -8.1830 -3.6489 0.9638
2.9910 -8.3136 -3.8112 0.9622
8.2483 -6.8173 -4.6159 0.9545
8.9469 -6.1417 -4.6811 0.9538
10.4219 -2.6066 -4.6340 0.9543
10.4156 -1.6378 -4.5480 0.9551
9.9861 0.2226 -4.3086 0.9574
9.5943 1.0733 -4.1644 0.9588
8.7040 1.7692 -3.8313 0.9620
8.0320 2.3938 -3.6153 0.9641
6.2258 3.8774 -3.1638 0.9686
4.9607 4.4867 -2.8852 0.9713
3.7337 4.8378 -2.6361 0.9737
3.1480 4.9313 -2.5236 0.9748
2.5852 4.9775 -2.4194 0.9759
0.1561 4.6668 -2.0142 0.9799
-0.2522 4.5231 -1.9541 0.9805
-1.3319 3.9782 -1.8097 0.9819
-1.7529 4.0090 -1.8874 0.9811
-3.3016 2.3764 -1.7547 0.9824
-3.4880 2.0660 -1.7487 0.9825
-3.8016 1.4157 -1.7499 0.9825
-2.4282 0.0000 -1.0956 0.9894
-2.4481 -0.2188 -1.1090 0.9893
-2.4593 -0.4430 -1.1275 0.9891
-2.4702 -0.6766 -1.1556 0.9888
-2.4890 -0.9269 -1.1984 0.9884
-3.9138 -2.3182 -2.0525 0.9802
-3.6453 -3.1521 -2.1745 0.9791
-3.4596 -3.5771 -2.2454 0.9784
-3.2362 -4.0054 -2.3235 0.9777
-2.9723 -4.4349 -2.4090 0.9768
-2.6650 -4.8629 -2.5021 0.9760
0.9102 -7.3905 -3.3599 0.9679
2.4003 -7.7379 -3.6556 0.9651
3.2045 -7.7977 -3.8040 0.9637
4.8735 -7.6342 -4.0868 0.9610
5.7056 -7.3929 -4.2137 0.9598
6.5096 -7.0380 -4.3258 0.9588
7.2631 -6.5691 -4.4188 0.9579
8.5299 -5.3124 -4.5342 0.9569
9.0034 -4.5496 -4.5517 0.9567
9.3504 -3.7214 -4.5409 0.9568
9.5627 -2.8500 -4.5024 0.9572
9.5804 -1.0717 -4.3498 0.9586
9.3988 -0.2094 -4.2419 0.9596
9.1064 0.6096 -4.1181 0.9607
8.7190 1.3710 -3.9825 0.9620
7.8172 1.9552 -3.6359 0.9653
7.2570 2.5199 -3.4662 0.9669
6.1574 3.4641 -3.1878 0.9695
3.2758 4.6598 -2.5701 0.9753
2.2123 4.7673 -2.3714 0.9772
1.2367 4.7205 -2.2019 0.9788
0.7843 4.6494 -2.1275 0.9795
-0.0493 4.4288 -1.9985 0.9808
-1.5158 3.9357 -1.9030 0.9817
-1.8491 3.7629 -1.8918 0.9818
-2.1410 3.5245 -1.8607 0.9821
-2.4117 3.2732 -1.8346 0.9823
-2.8921 2.7353 -1.7962 0.9827
-3.1024 2.4500 -1.7837 0.9828
-3.6165 1.5335 -1.7725 0.9829
-2.4521 -0.3298 -1.1164 0.9892
-2.4671 -0.5590 -1.1414 0.9890
-2.4781 -0.7991 -1.1749 0.9886
-3.7248 -2.9414 -2.1416 0.9794
-3.5569 -3.3641 -2.2091 0.9787
-2.8242 -4.6493 -2.4546 0.9764
-2.4936 -5.0743 -2.5511 0.9755
-2.1148 -5.4910 -2.6551 0.9745
-0.6685 -6.6453 -3.0136 0.9711
-0.0777 -6.9756 -3.1477 0.9699
0.5677 -7.2646 -3.2879 0.9685
3.6169 -7.7941 -3.8771 0.9630
4.4535 -7.7136 -4.0189 0.9617
6.1124 -7.2298 -4.2719 0.9593
6.8940 -6.8176 -4.3749 0.9583
7.6139 -6.2930 -4.4571 0.9576
8.7817 -4.9405 -4.5465 0.9567
9.4737 -3.2896 -4.5251 0.9569
9.6174 -2.4055 -4.4732 0.9574
9.5043 -0.6362 -4.2981 0.9591
9.2655 0.2065 -4.1818 0.9601
8.9235 0.9983 -4.0516 0.9614
8.4950 1.7267 -3.9115 0.9627
6.4420 3.2553 -3.2568 0.9688
5.8688 3.6552 -3.1197 0.9701
5.2852 3.9857 -2.9869 0.9714
4.1210 4.4555 -2.7385 0.9737
3.0024 4.7031 -2.5177 0.9758
2.4704 4.7563 -2.4183 0.9768
1.9597 4.7687 -2.3263 0.9776
1.4719 4.7448 -2.2416 0.9784
1.0075 4.6886 -2.1639 0.9792
0.5670 4.6035 -2.0929 0.9799
0.1502 4.4929 -2.0284 0.9805
-0.2431 4.3594 -1.9701 0.9810
-0.9613 4.0337 -1.8710 0.9820
-1.9977 3.6454 -1.8757 0.9819
-2.9997 2.5939 -1.7894 0.9827
-3.6851 1.3724 -1.7744 0.9829
-3.8077 1.0430 -1.7814 0.9828
-2.3773 -0.2124 -1.1251 0.9895
-2.4034 -0.8950 -1.2089 0.9887
-3.8660 -1.8466 -2.0196 0.9812
-3.6608 -2.6348 -2.1261 0.9803
-3.3288 -3.4420 -2.2571 0.9790
-2.8521 -4.2556 -2.4149 0.9776
-2.5530 -4.6587 -2.5042 0.9768
-1.8203 -5.4371 -2.7028 0.9750
-0.8969 -6.1498 -2.9296 0.9729
0.2255 -6.7457 -3.1816 0.9706
0.8596 -6.9797 -3.3149 0.9694
1.5383 -7.1585 -3.4514 0.9681
2.2559 -7.2722 -3.5891 0.9669
3.0043 -7.3106 -3.7257 0.9657
3.7729 -7.2640 -3.8584 0.9645
4.5480 -7.1242 -3.9841 0.9633
6.0510 -6.5423 -4.2007 0.9614
7.3645 -5.5538 -4.3479 0.9600
7.9022 -4.9215 -4.3883 0.9597
8.3386 -4.2137 -4.4039 0.9595
8.6615 -3.4472 -4.3943 0.9596
8.8637 -2.6416 -4.3597 0.9599
8.9429 -1.8177 -4.3017 0.9604
8.9021 -0.9958 -4.2224 0.9612
8.7487 -0.1949 -4.1250 0.9620
8.1504 1.2816 -3.8891 0.9642
6.8162 2.3669 -3.4012 0.9686
6.3285 2.8515 -3.2719 0.9698
4.7342 3.9129 -2.8952 0.9732
4.1906 4.1442 -2.7781 0.9743
1.6429 4.5666 -2.2877 0.9788
0.7543 4.4720 -2.1378 0.9801
-0.0475 4.2697 -2.0127 0.9813
-0.7631 3.9813 -1.9108 0.9822
-2.5800 2.9173 -1.8358 0.9829
-2.8038 2.6519 -1.8192 0.9831
-3.0084 2.3758 -1.8070 0.9832
-3.1938 2.0893 -1.7990 0.9833
-3.3603 1.7931 -1.7954 0.9833
-3.6357 1.1724 -1.8007 0.9832
-2.5265 0.5724 -1.2211 0.9886
-2.3799 -0.3201 -1.1319 0.9894
-2.3894 -0.5414 -1.1548 0.9892
-2.3945 -0.7721 -1.1859 0.9889
-2.4109 -1.0223 -1.2344 0.9885
-3.8257 -2.0415 -2.0440 0.9810
-3.7233 -2.4357 -2.0973 0.9805
-3.4246 -3.2390 -2.2219 0.9794
-2.7080 -4.4580 -2.4587 0.9772
-2.3869 -4.8572 -2.5511 0.9764
-2.0208 -5.2470 -2.6504 0.9754
-1.6079 -5.6232 -2.7569 0.9745
-1.1463 -5.9804 -2.8703 0.9734
-0.6350 -6.3121 -2.9904 0.9723
1.8926 -7.2241 -3.5202 0.9675
2.6269 -7.3014 -3.6577 0.9663
3.3869 -7.2985 -3.7927 0.9650
4.1605 -7.2062 -3.9224 0.9639
4.9330 -7.0172 -4.0433 0.9628
5.6869 -6.7265 -4.1520 0.9618
8.1340 -4.5761 -4.3993 0.9596
8.5148 -3.8366 -4.4023 0.9595
8.9186 -2.2307 -4.3335 0.9602
8.9371 -1.4053 -4.2645 0.9608
8.8388 -0.5917 -4.1757 0.9616
8.3322 0.9321 -3.9521 0.9636
7.9503 1.6160 -3.8242 0.9648
7.0820 2.1107 -3.4834 0.9678
2.8677 4.4922 -2.5122 0.9767
2.3637 4.5510 -2.4173 0.9776
0.9684 4.5067 -2.1728 0.9798
0.5457 4.4306 -2.1042 0.9805
-0.5921 4.0602 -1.9341 0.9820
-0.9287 3.8972 -1.8885 0.9824
-1.6403 3.7514 -1.9300 0.9821
-3.1035 2.2338 -1.8025 0.9832
-3.2794 1.9424 -1.7967 0.9833
-3.5741 1.3310 -1.7978 0.9833
-3.6925 1.0115 -1.8047 0.9832
-2.3515 0.4237 -1.1263 0.9895
-2.3243 0.2077 -1.1000 0.9897
-2.2975 0.0000 -1.1300 0.9898
-2.3095 -0.2063 -1.1404 0.9897
-2.3175 -0.6348 -1.1819 0.9893
-2.3278 -0.8669 -1.2217 0.9890
-2.3666 -1.1304 -1.2900 0.9884
-3.6497 -2.1617 -2.0864 0.9813
-3.2058 -3.3147 -2.2681 0.9797
-2.7396 -4.0878 -2.4204 0.9783
-2.4486 -4.4682 -2.5061 0.9775
-2.1159 -4.8392 -2.5978 0.9767
-1.7402 -5.1978 -2.6961 0.9759
0.8137 -6.6067 -3.2741 0.9708
2.8251 -6.8743 -3.6556 0.9674
4.9666 -6.4354 -3.9983 0.9644
6.2828 -5.6824 -4.1667 0.9629
7.3527 -4.5793 -4.2605 0.9621
7.7567 -3.9196 -4.2746 0.9620
8.0584 -3.2071 -4.2659 0.9621
8.3324 -1.6936 -4.1821 0.9628
8.1744 -0.1821 -4.0216 0.9642
7.6440 1.2020 -3.8060 0.9661
7.2685 1.8180 -3.6851 0.9672
5.9740 2.6917 -3.2228 0.9712
5.4983 3.0933 -3.1030 0.9723
5.0034 3.4346 -2.9850 0.9733
2.9871 4.2492 -2.5547 0.9771
2.5017 4.3331 -2.4610 0.9779
0.7262 4.3050 -2.1474 0.9807
0.3301 4.2241 -2.0840 0.9813
-0.4017 3.9931 -1.9739 0.9823
-0.7375 3.8476 -1.9269 0.9827
-1.4378 3.7331 -1.9676 0.9823
-1.7333 3.5273 -1.9331 0.9826
-2.9186 2.3048 -1.8292 0.9836
-3.2606 1.7399 -1.8178 0.9837
-3.4035 1.4432 -1.8183 0.9837
-2.5042 0.5674 -1.2629 0.9886
-2.2513 0.3028 -1.1173 0.9899
-2.2893 0.1021 -1.1271 0.9898
-2.3022 -0.1027 -1.1335 0.9898
-2.3108 -0.3108 -1.1468 0.9897
-2.3173 -0.7472 -1.1976 0.9892
-2.3375 -0.9912 -1.2488 0.9887
-3.6972 -1.9729 -2.0612 0.9815
-3.5951 -2.3518 -2.1130 0.9810
-3.2999 -3.1211 -2.2341 0.9800
-3.1029 -3.5086 -2.3038 0.9793
-2.8701 -3.8954 -2.3799 0.9787
-1.9335 -5.0204 -2.6461 0.9763
-1.0929 -5.7016 -2.8554 0.9745
-0.6042 -6.0062 -2.9691 0.9735
0.5086 -6.5089 -3.2112 0.9713
1.1287 -6.6911 -3.3375 0.9702
1.7856 -6.8155 -3.4654 0.9691
5.3113 -6.2822 -4.0463 0.9640
6.5785 -5.4373 -4.1978 0.9627
7.5669 -4.2571 -4.2704 0.9620
7.9209 -3.5689 -4.2731 0.9620
8.1685 -2.8364 -4.2530 0.9622
7.0402 2.0982 -3.6133 0.9678
4.7515 3.5833 -2.9271 0.9738
3.7362 4.0396 -2.7064 0.9758
3.2345 4.1910 -2.6038 0.9767
2.7427 4.2964 -2.5071 0.9775
1.8021 4.3851 -2.3319 0.9791
0.9317 4.3358 -2.1813 0.9804
0.5256 4.2677 -2.1149 0.9810
-0.2263 4.0587 -1.9994 0.9820
-0.5721 3.9226 -1.9498 0.9825
-0.8988 3.7717 -1.9071 0.9829
-1.5880 3.6321 -1.9497 0.9825
-2.3858 2.9529 -1.8672 0.9832
-2.8214 2.4398 -1.8346 0.9835
-3.0111 2.1672 -1.8247 0.9836
-2.3061 0.4155 -1.1525 0.9896
-2.2443 -0.2005 -1.1552 0.9899
-2.2416 -0.4038 -1.1677 0.9898
-2.2481 -0.6158 -1.1950 0.9896
-3.4120 -2.4558 -2.1552 0.9813
-3.0897 -3.1947 -2.2785 0.9802
-2.8795 -3.5640 -2.3490 0.9796
-2.3508 -4.2898 -2.5078 0.9783
-2.0285 -4.6393 -2.5958 0.9775
-1.2614 -5.2932 -2.7897 0.9758
-0.8149 -5.5876 -2.8949 0.9749
-0.3263 -5.8526 -3.0051 0.9740
0.2033 -6.0812 -3.1194 0.9730
0.7718 -6.2663 -3.2368 0.9720
1.3753 -6.3999 -3.3559 0.9710
4.6576 -6.0350 -3.9083 0.9663
5.2881 -5.7174 -3.9927 0.9656
5.8765 -5.3150 -4.0621 0.9650
6.4076 -4.8322 -4.1144 0.9646
7.2430 -3.6600 -4.1604 0.9642
7.7093 -2.2976 -4.1241 0.9645
7.7917 -1.5837 -4.0762 0.9649
7.7746 -0.8697 -4.0107 0.9654
7.6631 -0.1708 -3.9296 0.9661
7.4649 0.4997 -3.8356 0.9669
6.8496 1.7132 -3.6198 0.9688
5.2126 2.9325 -3.0662 0.9735
4.7527 3.2626 -2.9554 0.9744
3.8041 3.7620 -2.7428 0.9762
3.3282 3.9366 -2.6428 0.9771
2.8581 4.0657 -2.5478 0.9779
2.3975 4.1526 -2.4582 0.9787
1.9494 4.2009 -2.3742 0.9794
1.5161 4.2140 -2.2960 0.9801
0.6996 4.1477 -2.1564 0.9813
0.3184 4.0740 -2.0950 0.9818
-0.0443 3.9769 -2.0390 0.9823
-0.7146 3.7282 -1.9462 0.9831
-1.0825 3.7857 -2.0186 0.9825
-1.3923 3.6151 -1.9861 0.9827
-1.6795 3.4177 -1.9523 0.9830
-1.9475 3.2060 -1.9231 0.9833
-2.1966 2.9812 -1.8984 0.9835
-2.4270 2.7443 -1.8782 0.9837
-2.6390 2.4959 -1.8622 0.9838
-2.8326 2.2369 -1.8504 0.9839
-3.1651 1.6890 -1.8392 0.9840
-3.3038 1.4009 -1.8398 0.9840
-2.2319 0.0996 -1.1453 0.9900
-2.2446 -0.3018 -1.1611 0.9899
-2.2425 -0.5081 -1.1788 0.9897
-2.2673 -0.9614 -1.2625 0.9890
-2.3837 -1.2719 -1.3851 0.9879
-2.9889 -3.3796 -2.3130 0.9799
-2.7613 -3.7476 -2.3865 0.9793
-2.4974 -4.1112 -2.4661 0.9786
-2.1946 -4.4659 -2.5511 0.9779
-1.8522 -4.8092 -2.6421 0.9771
-1.4688 -5.1368 -2.7390 0.9763
-1.0435 -5.4437 -2.8416 0.9754
-0.5759 -5.7242 -2.9494 0.9745
1.6885 -6.4449 -3.4156 0.9705
2.9965 -6.4573 -3.6496 0.9685
3.6666 -6.3507 -3.7595 0.9676
4.9772 -5.8869 -3.9522 0.9659
6.6472 -4.5630 -4.1335 0.9644
7.6301 -2.6494 -4.1408 0.9643
7.7631 -1.9417 -4.1025 0.9647
7.7302 -0.5174 -3.9719 0.9658
7.3363 0.8207 -3.7846 0.9674
7.0273 1.4284 -3.6763 0.9683
6.6585 1.9844 -3.5620 0.9693
5.4354 2.7466 -3.1221 0.9730
4.5179 3.4071 -2.9010 0.9749
4.0427 3.6564 -2.7945 0.9758
3.5657 3.8552 -2.6922 0.9767
3.0922 4.0066 -2.5947 0.9775
2.6264 4.1141 -2.5023 0.9783
2.1718 4.1813 -2.4155 0.9790
0.8971 4.1749 -2.1892 0.9810
0.5067 4.1140 -2.1250 0.9815
-0.2186 3.9202 -2.0129 0.9825
-0.5530 3.7920 -1.9646 0.9829
-1.2415 3.7082 -2.0048 0.9826
-1.8158 3.3135 -1.9371 0.9832
-2.0743 3.0952 -1.9102 0.9834
-2.3141 2.8642 -1.8878 0.9836
-2.5353 2.6215 -1.8696 0.9837
-2.7381 2.3677 -1.8558 0.9839
-2.9226 2.1036 -1.8461 0.9839
-3.0888 1.8295 -1.8405 0.9840
-3.2368 1.5461 -1.8390 0.9840
-3.3662 1.2536 -1.8415 0.9840
-3.4770 0.9524 -1.8482 0.9839
-2.2585 0.4069 -1.1765 0.9897
-2.2093 0.1974 -1.1372 0.9901
-2.1765 0.0000 -1.1619 0.9902
-2.1811 -0.1949 -1.1690 0.9901
-2.1873 -0.5991 -1.2107 0.9898
-2.2033 -1.0524 -1.3035 0.9890
-3.1537 -2.7271 -2.2257 0.9813
-2.9799 -3.0812 -2.2883 0.9808
-1.9466 -4.4521 -2.5940 0.9782
-1.5962 -4.7676 -2.6840 0.9775
-1.2069 -5.0644 -2.7793 0.9767
-0.7784 -5.3374 -2.8795 0.9758
0.7333 -5.9542 -3.2026 0.9732
1.3044 -6.0700 -3.3144 0.9722
6.0074 -4.5304 -4.0167 0.9665
7.0515 -2.8064 -4.0516 0.9662
7.3005 -0.8167 -3.9216 0.9672
7.2046 -0.1605 -3.8471 0.9679
6.4704 1.6184 -3.5606 0.9702
4.9508 2.7853 -3.0325 0.9746
3.6323 3.5921 -2.7271 0.9771
3.1832 3.7651 -2.6320 0.9779
2.3000 3.9837 -2.4557 0.9794
1.8727 4.0356 -2.3751 0.9800
1.4583 4.0535 -2.2997 0.9807
1.0585 4.0404 -2.2297 0.9812
0.6746 3.9990 -2.1650 0.9818
-0.3753 3.7306 -2.0016 0.9831
-0.7110 3.7094 -2.0163 0.9830
-1.0513 3.6766 -2.0414 0.9828
-1.3489 3.5025 -2.0037 0.9831
-1.6280 3.3129 -1.9706 0.9834
-2.3554 2.6633 -1.8980 0.9840
-2.5617 2.4229 -1.8823 0.9841
-3.2082 1.3604 -1.8603 0.9843
-2.4373 0.5522 -1.3341 0.9887
-2.1681 0.2916 -1.1679 0.9901
-2.1735 0.0970 -1.1615 0.9902
-2.1912 -0.7066 -1.2291 0.9896
-3.3580 -2.1967 -2.1421 0.9820
-2.8811 -3.2577 -2.3217 0.9805
-2.6587 -3.6084 -2.3927 0.9799
-2.4015 -3.9534 -2.4694 0.9792
-1.7762 -4.6119 -2.6383 0.9778
-1.4064 -4.9187 -2.7310 0.9771
-0.9976 -5.2042 -2.8288 0.9763
0.4593 -5.8773 -3.1471 0.9736
2.8293 -6.0970 -3.5882 0.9700
4.0766 -5.7990 -3.7841 0.9684
5.2462 -5.1881 -3.9388 0.9671
6.2302 -4.2768 -4.0342 0.9663
6.6206 -3.7247 -4.0553 0.9661
7.1506 -2.4829 -4.0409 0.9663
7.2795 -1.8207 -4.0058 0.9665
7.2630 -0.4862 -3.8860 0.9675
7.1260 0.1588 -3.8051 0.9682
6.6325 1.3481 -3.6131 0.9698
6.2954 1.8762 -3.5068 0.9707
5.1578 2.6063 -3.0850 0.9741
4.7386 2.9512 -2.9802 0.9750
4.3026 3.2447 -2.8769 0.9759
3.8569 3.4883 -2.7762 0.9767
2.9598 3.8350 -2.5861 0.9783
2.5178 3.9439 -2.4979 0.9790
1.6638 4.0487 -2.3367 0.9803
0.8645 4.0230 -2.1967 0.9815
0.4888 3.9686 -2.1346 0.9820
-0.2113 3.7887 -2.0257 0.9829
-1.4908 3.4096 -1.9865 0.9833
-2.2454 2.7792 -1.9074 0.9839
-2.4608 2.5444 -1.8897 0.9841
-2.6582 2.2987 -1.8760 0.9842
-2.8377 2.0425 -1.8665 0.9843
-3.1431 1.5014 -1.8596 0.9843
-3.2687 1.2173 -1.8621 0.9843
-2.1547 0.1926 -1.1549 0.9902
-2.1192 0.0000 -1.1770 0.9904
-2.1250 -0.3828 -1.1992 0.9902
-2.1317 -0.7938 -1.2633 0.9896
-2.1374 -1.0210 -1.3156 0.9892
-2.2265 -1.3188 -1.4372 0.9882
-3.1878 -2.2945 -2.1815 0.9822
-2.6745 -3.3103 -2.3636 0.9807
-1.5312 -4.5733 -2.6786 0.9782
-0.2971 -5.3293 -2.9645 0.9759
0.1845 -5.5187 -3.0668 0.9751
0.6980 -5.6669 -3.1712 0.9742
1.8035 -5.8139 -3.3808 0.9725
2.3837 -5.8004 -3.4829 0.9717
5.6483 -4.2596 -3.9291 0.9681
6.0476 -3.7665 -3.9570 0.9679
6.7938 -2.0247 -3.9372 0.9681
6.8759 -1.3976 -3.8969 0.9684
6.7911 -0.1513 -3.7727 0.9694
5.4058 2.4357 -3.2930 0.9732
3.4727 3.4342 -2.7125 0.9779
3.0479 3.6051 -2.6220 0.9786
0.2967 3.7972 -2.1154 0.9827
-0.3667 3.6449 -2.0346 0.9834
-0.7090 3.6989 -2.0917 0.9829
-1.0184 3.5615 -2.0573 0.9832
-1.5788 3.2127 -1.9881 0.9838
-2.0682 2.8071 -1.9365 0.9842
-2.2867 2.5856 -1.9170 0.9843
-2.6711 2.1094 -1.8903 0.9845
-3.1165 1.3215 -1.8801 0.9846
-2.4040 0.5447 -1.3690 0.9888
-2.1163 0.0944 -1.1766 0.9904
-2.1192 -0.0945 -1.1782 0.9903
-2.1237 -0.2856 -1.1901 0.9902
-2.1231 -0.4810 -1.2091 0.9901
-2.1353 -0.9054 -1.2881 0.9894
-3.2480 -2.1248 -2.1556 0.9824
-2.9650 -2.8042 -2.2666 0.9815
-2.7791 -3.1424 -2.3299 0.9810
-2.3111 -3.8047 -2.4724 0.9798
-2.0258 -4.1223 -2.5510 0.9792
-1.7050 -4.4270 -2.6348 0.9785
-0.5252 -5.2210 -2.9144 0.9763
-0.0605 -5.4287 -3.0153 0.9755
0.4375 -5.5984 -3.1188 0.9746
1.5190 -5.7978 -3.3288 0.9729
2.0921 -5.8150 -3.4323 0.9721
2.6773 -5.7693 -3.5325 0.9713
4.4079 -5.2137 -3.7919 0.9692
5.4251 -4.4839 -3.9090 0.9683
6.5115 -2.9339 -3.9666 0.9678
6.7207 -2.3337 -3.9513 0.9680
6.8454 -1.7121 -3.9191 0.9682
6.8422 -0.4580 -3.8086 0.9691
6.5290 0.7304 -3.6488 0.9704
5.9643 1.7776 -3.4565 0.9719
5.0087 2.5310 -3.1168 0.9746
4.5120 2.8101 -2.9522 0.9760
4.1036 3.0947 -2.8546 0.9768
3.2603 3.5250 -2.6668 0.9783
2.8362 3.6749 -2.5782 0.9790
2.0033 3.8571 -2.4139 0.9803
1.6008 3.8953 -2.3389 0.9809
1.2103 3.9018 -2.2689 0.9815
-0.2043 3.6636 -2.0379 0.9834
-1.1651 3.4802 -2.0383 0.9833
-2.1796 2.6978 -1.9263 0.9843
-2.3893 2.4705 -1.9089 0.9844
-2.7563 1.9839 -1.8861 0.9846
-2.9136 1.7258 -1.8808 0.9846
-3.2790 0.8982 -1.8882 0.9846
-2.1578 0.3887 -1.2177 0.9900
-2.1018 0.1878 -1.1720 0.9904
-2.0638 -0.0000 -1.1916 0.9905
-2.0684 -0.1848 -1.1990 0.9905
-2.0734 -0.7721 -1.2774 0.9898
-2.0740 -0.9907 -1.3270 0.9894
-2.1172 -1.2540 -1.4207 0.9887
-2.9446 -2.5463 -2.2475 0.9822
-2.5802 -3.1935 -2.3703 0.9812
-2.3521 -3.5096 -2.4393 0.9807
-2.0914 -3.8163 -2.5125 0.9801
-1.7976 -4.1113 -2.5907 0.9795
-1.1085 -4.6513 -2.7607 0.9782
-0.7128 -4.8877 -2.8518 0.9774
0.1762 -5.2683 -3.0434 0.9759
0.6653 -5.4014 -3.1421 0.9752
2.2616 -5.5033 -3.4352 0.9729
3.9031 -5.0573 -3.6883 0.9709
4.4160 -4.7744 -3.7548 0.9704
5.6982 -3.5488 -3.8757 0.9695
6.4031 -1.9083 -3.8575 0.9696
6.4159 -0.1429 -3.7052 0.9708
6.2744 0.4201 -3.6307 0.9714
6.0697 0.9544 -3.5474 0.9720
5.8094 1.4531 -3.4574 0.9727
5.5019 1.9105 -3.3626 0.9735
4.6313 2.6055 -3.0680 0.9758
3.7226 3.0768 -2.7883 0.9779
3.3239 3.2871 -2.6989 0.9786
2.5199 3.5846 -2.5298 0.9800
1.3525 3.7594 -2.3067 0.9817
0.2873 3.6766 -2.1291 0.9831
-0.6890 3.5945 -2.1131 0.9832
-0.9869 3.4515 -2.0726 0.9836
-1.2678 3.2918 -2.0366 0.9838
-1.5316 3.1167 -2.0049 0.9841
-3.1377 1.0118 -1.9034 0.9849
-2.0782 0.2795 -1.2106 0.9904
-2.0611 0.0919 -1.1911 0.9905
-2.0719 -0.2786 -1.2070 0.9904
-2.0705 -0.4691 -1.2257 0.9902
-2.0743 -0.6688 -1.2583 0.9900
-2.0729 -0.8790 -1.2999 0.9897
-2.0714 -1.1053 -1.3555 0.9892
-3.1464 -2.0583 -2.1708 0.9828
-3.0176 -2.3830 -2.2200 0.9824
-2.8645 -2.7092 -2.2764 0.9820
-2.6825 -3.0331 -2.3378 0.9815
-2.4701 -3.3525 -2.4042 0.9810
-2.2259 -3.6642 -2.4753 0.9804
-1.6381 -4.2534 -2.6315 0.9792
-1.2935 -4.5238 -2.7165 0.9785
-0.5025 -4.9954 -2.8987 0.9771
-0.0578 -5.1864 -2.9946 0.9763
0.9195 -5.4512 -3.1917 0.9748
2.5383 -5.4699 -3.4815 0.9725
3.0917 -5.3549 -3.5699 0.9718
3.6369 -5.1734 -3.6511 0.9712
5.1151 -4.2278 -3.8314 0.9698
5.5188 -3.7884 -3.8648 0.9696
5.8612 -3.2974 -3.8827 0.9694
6.3329 -2.1990 -3.8705 0.9695
6.4535 -1.6141 -3.8407 0.9697
5.3331 2.1226 -3.3140 0.9738
4.9706 2.5118 -3.2153 0.9746
3.9190 2.9554 -2.8339 0.9776
3.1229 3.3764 -2.6553 0.9790
2.7204 3.5249 -2.5707 0.9796
1.9266 3.7094 -2.4132 0.9809
1.5413 3.7504 -2.3410 0.9814
0.4557 3.6998 -2.1522 0.9829
0.1215 3.6329 -2.0986 0.9834
-0.2012 3.6081 -2.0864 0.9834
-1.1295 3.3736 -2.0540 0.9837
-1.6571 3.0238 -1.9907 0.9842
-1.8953 2.8279 -1.9655 0.9844
-2.1165 2.6196 -1.9444 0.9846
-2.3207 2.3996 -1.9273 0.9847
-2.9669 1.4172 -1.8983 0.9849
-3.0852 1.1489 -1.9007 0.9849
-2.1344 0.3846 -1.2521 0.9900
