ply
format ascii 1.0
element vertex 1583
property float32 x
property float32 y
property float32 z
property float32 I
end_header
-9.3807 11.6106 0.1241 0.9420
-11.1085 7.9955 0.1137 0.9467
-11.6441 6.8969 0.1125 0.9473
-12.1762 5.8161 0.1121 0.9475
-13.2667 3.6341 0.1143 0.9465
-13.6504 -0.0000 -0.1135 0.9469
-14.1362 -1.2632 -0.1180 0.9448
-3.4578 -2.4888 -0.0354 0.9831
-2.9600 -2.5596 -0.0325 0.9845
-2.6148 -2.7037 -0.0313 0.9851
-2.1112 -3.1502 -0.0315 0.9849
-1.9120 -3.4889 -0.0331 0.9842
-1.7647 -4.0359 -0.0366 0.9825
-8.2373 11.1798 -0.1154 0.9460
-8.8449 10.0011 -0.1110 0.9480
-9.4085 8.8986 -0.1076 0.9495
-9.9401 7.8497 -0.1053 0.9506
-10.4495 6.8358 -0.1038 0.9513
-10.9451 5.8405 -0.1031 0.9516
-11.4345 4.8487 -0.1032 0.9515
-11.9251 3.8453 -0.1041 0.9511
-12.4243 2.8150 -0.1059 0.9503
-12.9403 1.7403 -0.1085 0.9491
-13.8380 -0.6170 -0.1151 0.9461
-3.8909 -2.5453 -0.0386 0.9816
-3.1810 -2.5120 -0.0337 0.9839
-2.4700 -2.7929 -0.0310 0.9852
-1.8256 -3.7149 -0.0344 0.9836
1.3375 4.3115 -0.0375 0.9821
-9.1314 9.4418 -0.1092 0.9488
-10.1971 7.3394 -0.1044 0.9510
-10.6985 6.3368 -0.1033 0.9515
-12.1731 3.3346 -0.1049 0.9508
-12.6797 2.2843 -0.1071 0.9498
-12.9343 -1.1558 -0.3238 0.9494
-13.4551 -2.4240 -0.3410 0.9468
-14.0230 -3.8413 -0.3626 0.9435
-3.4796 -2.5044 -0.1069 0.9830
-2.6294 -2.7188 -0.0943 0.9850
-1.9212 -3.5057 -0.0997 0.9841
-1.7847 -4.0817 -0.1111 0.9823
-5.3870 13.9870 -0.3738 0.9418
-6.1981 12.6128 -0.3505 0.9453
-9.1805 7.2498 -0.2917 0.9543
-10.1246 5.4026 -0.2862 0.9551
-10.5763 4.4848 -0.2865 0.9551
-11.0228 3.5544 -0.2888 0.9547
-12.7060 -0.5666 -0.3172 0.9504
-13.1897 -1.7738 -0.3319 0.9481
-3.1987 -2.5260 -0.1016 0.9838
-2.7894 -2.6382 -0.0957 0.9848
-1.8381 -3.7405 -0.1039 0.9835
1.3491 4.3489 -0.1135 0.9819
-5.8064 13.2796 -0.3615 0.9437
-6.5656 11.9808 -0.3407 0.9468
-7.2402 10.8032 -0.3243 0.9493
-8.9312 7.7231 -0.2945 0.9539
-9.4236 6.7828 -0.2896 0.9546
-10.3515 4.9445 -0.2861 0.9551
-10.7999 4.0219 -0.2874 0.9549
-11.2459 3.0806 -0.2908 0.9544
-11.6953 2.1070 -0.2964 0.9536
-12.1546 1.0862 -0.3043 0.9523
-12.3488 -2.2247 -0.5217 0.9510
-13.2937 -4.9506 -0.5898 0.9448
-2.9925 -2.5877 -0.1645 0.9843
-2.6442 -2.7341 -0.1582 0.9849
-2.3649 -2.9271 -0.1565 0.9850
-2.1279 -3.1750 -0.1589 0.9848
1.1285 4.3075 -0.1851 0.9823
-2.8042 14.6296 -0.6194 0.9421
-4.9062 12.7387 -0.5676 0.9468
-5.6765 11.5514 -0.5352 0.9498
-6.9719 9.4623 -0.4887 0.9540
-7.5307 8.5151 -0.4727 0.9555
-11.4608 0.5111 -0.4770 0.9551
-11.7408 -0.5235 -0.4887 0.9540
-13.0430 -4.2058 -0.5698 0.9466
-4.0140 -2.6258 -0.1994 0.9810
-2.8044 -2.6524 -0.1605 0.9847
-2.2389 -3.0387 -0.1569 0.9850
-4.4801 13.3815 -0.5867 0.9451
-6.6729 9.9566 -0.4984 0.9531
-7.2573 8.9827 -0.4801 0.9548
-7.7934 8.0583 -0.4661 0.9561
-8.7587 6.3042 -0.4487 0.9577
-9.2028 5.4509 -0.4447 0.9581
-10.8393 0.0000 -0.6313 0.9575
-12.1612 -4.5289 -0.7558 0.9493
-3.0090 -2.6020 -0.2317 0.9842
-2.6592 -2.7495 -0.2228 0.9848
-2.3796 -2.9453 -0.2205 0.9849
-2.1435 -3.1983 -0.2242 0.9847
-1.4729 14.6415 -0.8571 0.9427
-2.5410 13.2562 -0.7861 0.9474
-3.6700 12.8347 -0.7775 0.9479
-4.5037 11.6936 -0.7298 0.9510
-5.2353 10.6537 -0.6914 0.9536
-7.0091 7.9253 -0.6162 0.9585
-7.5025 7.0958 -0.6015 0.9595
-7.9618 6.2874 -0.5909 0.9602
-8.3934 5.4908 -0.5842 0.9606
-9.9401 2.2522 -0.5936 0.9600
-11.2297 -1.5102 -0.6599 0.9556
-12.3617 -5.2418 -0.7820 0.9476
-12.7860 -6.8228 -0.8441 0.9436
-4.2134 -2.7563 -0.2933 0.9800
-3.2377 -2.5567 -0.2403 0.9836
-2.8195 -2.6667 -0.2260 0.9846
-2.2529 -3.0577 -0.2212 0.9849
-2.0307 13.9237 -0.8195 0.9452
-3.0103 12.6319 -0.7563 0.9493
-4.1012 12.2497 -0.7524 0.9496
-5.5699 10.1638 -0.6750 0.9546
-6.1873 9.2322 -0.6473 0.9564
-7.2605 7.5073 -0.6083 0.9590
-7.7360 6.6896 -0.5957 0.9598
-9.3847 3.4949 -0.5833 0.9607
-9.7572 2.6728 -0.5892 0.9603
-10.1214 1.8235 -0.5990 0.9596
-10.1198 0.0000 -0.7584 0.9602
-10.6014 -1.9099 -0.8073 0.9577
-11.5141 -5.4998 -0.9562 0.9501
-2.3946 -2.9638 -0.2855 0.9848
-0.1625 14.5900 -1.0934 0.9432
-4.1616 10.8054 -0.8677 0.9546
-4.8571 9.8840 -0.8253 0.9568
-5.4791 9.0198 -0.7909 0.9586
-6.0412 8.1992 -0.7632 0.9600
-7.0265 6.6457 -0.7248 0.9619
-7.4650 5.8951 -0.7128 0.9626
-8.9797 2.8956 -0.7071 0.9629
-10.2188 -0.4557 -0.7666 0.9598
-10.7515 -2.4359 -0.8261 0.9567
-11.0531 -3.5641 -0.8703 0.9545
-11.6726 -6.2287 -0.9915 0.9483
-12.0002 -7.8501 -1.0746 0.9441
-3.2749 -2.5862 -0.3127 0.9834
-2.5229 -2.8527 -0.2854 0.9848
-2.2671 -3.0770 -0.2864 0.9848
-2.0529 -3.3795 -0.2963 0.9843
-0.7758 13.9141 -1.0443 0.9456
-5.1764 9.4457 -0.8072 0.9577
-6.3033 7.8017 -0.7516 0.9606
-6.7950 7.0260 -0.7325 0.9616
-8.4478 4.0351 -0.7016 0.9631
-9.1499 2.5064 -0.7110 0.9627
-9.4817 1.7082 -0.7220 0.9621
-9.8043 0.8761 -0.7377 0.9613
-9.8986 -1.7833 -0.9221 0.9604
-10.8494 -6.4261 -1.1560 0.9506
-3.6546 -2.6304 -0.4128 0.9821
-3.0636 -2.6492 -0.3713 0.9839
-2.6913 -2.7827 -0.3549 0.9846
-2.4097 -2.9825 -0.3515 0.9847
1.1300 4.3132 -0.4088 0.9822
1.1313 14.4771 -1.3313 0.9433
-0.1475 13.2400 -1.2139 0.9482
-1.2220 12.1471 -1.1192 0.9521
-2.1382 11.1551 -1.0413 0.9554
-2.9319 10.2535 -0.9777 0.9581
-4.5291 9.2165 -0.9415 0.9596
-6.1538 6.9583 -0.8516 0.9634
-6.6063 6.2483 -0.8336 0.9641
-7.0255 5.5481 -0.8207 0.9647
-7.4163 4.8515 -0.8125 0.9650
-7.7827 4.1530 -0.8087 0.9652
-8.4551 2.7264 -0.8145 0.9649
-8.7664 1.9862 -0.8241 0.9645
-4.0002 0.1784 -0.3671 0.9840
-10.0232 -2.2710 -0.9422 0.9596
-10.9620 -7.1710 -1.2009 0.9487
-2.5376 -2.8693 -0.3512 0.9847
0.4627 13.8374 -1.2693 0.9459
-0.7070 12.6794 -1.1642 0.9503
-2.5485 10.6941 -1.0079 0.9568
-4.2074 9.6227 -0.9628 0.9587
-6.3846 6.6017 -0.8420 0.9638
-7.2242 5.1997 -0.8160 0.9649
-7.6023 4.5029 -0.8100 0.9651
-8.2937 3.0886 -0.8114 0.9651
-4.9080 0.8842 -0.4572 0.9802
-4.1097 0.3673 -0.3783 0.9836
-3.7849 0.0000 -0.4105 0.9849
-9.2814 -1.6721 -1.0229 0.9628
-10.0140 -5.9313 -1.2624 0.9543
-3.0964 -2.6775 -0.4440 0.9837
-2.7189 -2.8114 -0.4242 0.9844
-2.1919 -3.2706 -0.4271 0.9843
-2.0004 -3.6502 -0.4515 0.9834
1.0268 13.1397 -1.4296 0.9484
-1.1257 11.1898 -1.2198 0.9558
-1.9806 10.3327 -1.1412 0.9586
-4.2418 8.6318 -1.0432 0.9620
-4.8103 7.9190 -1.0050 0.9634
-5.7985 6.5565 -0.9494 0.9654
-7.0067 4.5836 -0.9082 0.9669
-7.3547 3.9246 -0.9042 0.9670
-7.6807 3.2569 -0.9049 0.9670
-4.7637 1.0793 -0.5298 0.9805
-3.7517 0.5046 -0.4106 0.9849
-3.7330 0.1665 -0.4053 0.9851
-9.1739 -1.2337 -1.0040 0.9634
-9.3855 -2.1265 -1.0438 0.9620
-9.5837 -3.0904 -1.0922 0.9603
-9.7677 -4.1419 -1.1508 0.9582
-3.3525 -2.6474 -0.4633 0.9830
-2.5603 -2.8950 -0.4192 0.9846
-2.3009 -3.1227 -0.4207 0.9845
-1.9394 -3.9467 -0.4770 0.9825
1.6872 13.6992 -1.4971 0.9460
-0.6492 11.6430 -1.2648 0.9542
-3.2682 9.7615 -1.1166 0.9594
-4.5332 8.2720 -1.0231 0.9628
-5.5677 6.8912 -0.9609 0.9650
-6.8236 4.9113 -0.9119 0.9667
-7.1836 4.2549 -0.9056 0.9670
-7.8362 2.9183 -0.9070 0.9669
-3.9949 0.7197 -0.4403 0.9838
-3.7700 -0.3369 -0.4743 0.9849
-8.7348 -1.5736 -1.1122 0.9649
-9.0570 -3.3728 -1.2111 0.9618
-9.1882 -4.3889 -1.2761 0.9598
-2.7473 -2.8407 -0.4952 0.9842
-2.4529 -3.0359 -0.4891 0.9844
-2.2120 -3.3005 -0.4979 0.9841
-2.0264 -3.6977 -0.5284 0.9831
2.1884 12.9736 -1.6488 0.9483
0.9396 12.0249 -1.5115 0.9525
-0.1243 11.1641 -1.3991 0.9560
-1.8442 9.6209 -1.2276 0.9613
-4.5323 7.4613 -1.0940 0.9654
-5.0277 6.8237 -1.0622 0.9664
-5.4809 6.1974 -1.0368 0.9672
-6.9701 3.7194 -0.9900 0.9687
-7.5667 2.4400 -0.9963 0.9685
-3.5494 0.4774 -0.4488 0.9857
-3.6310 -0.1619 -0.4555 0.9855
-8.6431 -1.1624 -1.0929 0.9655
-8.8222 -1.9988 -1.1336 0.9642
-8.9835 -2.8968 -1.1829 0.9627
-9.1253 -3.8695 -1.2421 0.9608
-9.2453 -4.9334 -1.3132 0.9586
-2.9203 -2.7620 -0.5037 0.9839
-2.5884 -2.9267 -0.4896 0.9844
-2.1118 -3.4765 -0.5097 0.9837
2.8986 13.4888 -1.7290 0.9459
-0.6000 10.7604 -1.3505 0.9575
-2.8729 8.5811 -1.1340 0.9642
-4.2667 7.7859 -1.1126 0.9648
-4.7857 7.1408 -1.0772 0.9659
-5.6935 5.8871 -1.0263 0.9675
-6.0937 5.2694 -1.0096 0.9680
-6.4638 4.6524 -0.9980 0.9684
-6.8074 4.0320 -0.9915 0.9686
-7.4252 2.7652 -0.9929 0.9686
-3.8076 0.6860 -0.4848 0.9845
-3.3944 0.0000 -0.4828 0.9864
-3.5138 -0.3140 -0.5018 0.9858
-8.3891 -2.2980 -1.2372 0.9655
-8.6718 -5.1363 -1.4336 0.9601
-2.4801 -3.0697 -0.5613 0.9842
-2.0664 -3.7706 -0.6116 0.9828
1.1334 4.3260 -0.6361 0.9821
2.0023 11.8704 -1.7122 0.9525
0.8659 11.0808 -1.5809 0.9561
-0.1153 10.3480 -1.4719 0.9591
-0.9716 9.6587 -1.3808 0.9615
-3.7617 7.6550 -1.2132 0.9661
-4.7595 6.4597 -1.1413 0.9681
-5.5956 5.2923 -1.0955 0.9694
-6.6223 3.5338 -1.0676 0.9701
-7.1868 2.3175 -1.0741 0.9700
-3.3671 0.4528 -0.4832 0.9864
-3.3610 0.1499 -0.4785 0.9865
-3.4470 -0.1537 -0.4908 0.9862
-3.6292 -0.4881 -0.5209 0.9853
-8.3208 -1.8852 -1.2135 0.9661
-8.4520 -2.7254 -1.2631 0.9648
-8.5600 -3.6297 -1.3225 0.9631
-2.9516 -2.7916 -0.5778 0.9837
-2.6172 -2.9594 -0.5619 0.9842
-2.1447 -3.5307 -0.5876 0.9834
-2.0392 -4.1496 -0.6576 0.9815
1.4124 11.4677 -1.6434 0.9544
0.3580 10.7081 -1.5239 0.9576
-1.3599 9.3242 -1.3403 0.9626
-2.6999 8.0644 -1.2096 0.9662
-3.4812 7.9617 -1.2360 0.9655
-4.0290 7.3520 -1.1924 0.9667
-4.9821 6.1664 -1.1276 0.9685
-5.7839 5.0016 -1.0876 0.9696
-6.1388 4.4185 -1.0758 0.9699
-6.4672 3.8306 -1.0691 0.9701
-3.6717 0.6615 -0.5307 0.9850
-3.3525 0.2996 -0.4787 0.9865
-3.3916 -0.3030 -0.5422 0.9863
-7.8091 -1.4068 -1.2635 0.9684
-7.9275 -2.1716 -1.3089 0.9673
-8.0882 -3.8634 -1.4273 0.9643
1.8447 10.9360 -1.7660 0.9561
0.8026 10.2706 -1.6404 0.9591
-0.9090 9.0363 -1.4462 0.9639
-1.6195 8.4491 -1.3699 0.9658
-3.5590 7.2424 -1.2850 0.9678
-4.0600 6.6837 -1.2453 0.9688
-4.9366 5.5819 -1.1866 0.9703
-5.3219 5.0334 -1.1664 0.9708
-6.3061 3.3651 -1.1382 0.9715
-6.5849 2.7923 -1.1389 0.9714
-3.9744 0.9005 -0.6489 0.9836
-3.2540 0.4376 -0.5228 0.9868
-3.2600 0.1454 -0.5196 0.9869
-3.4817 -0.4682 -0.5594 0.9859
-7.8712 -1.7834 -1.2852 0.9678
-7.9777 -2.5724 -1.3348 0.9666
-8.1101 -4.3277 -1.4638 0.9635
-8.1283 -5.3173 -1.5467 0.9614
-3.5600 -2.8113 -0.7223 0.9818
-2.9970 -2.8346 -0.6569 0.9834
-2.3849 -3.2369 -0.6402 0.9838
-2.1789 -3.5869 -0.6683 0.9831
-2.1431 -4.3611 -0.7738 0.9805
5.2638 12.8086 -2.2051 0.9455
3.7277 12.0171 -2.0035 0.9503
0.9566 4.4518 -0.7251 0.9817
0.3327 9.9514 -1.5855 0.9605
-3.2902 7.5250 -1.3078 0.9673
-4.2938 6.4069 -1.2281 0.9692
-4.7315 5.8563 -1.1989 0.9700
-5.8437 4.2060 -1.1465 0.9713
-6.4483 3.0801 -1.1379 0.9715
-3.2454 0.2900 -0.5188 0.9869
-3.2817 -0.2932 -0.5810 0.9867
-7.4132 -1.3355 -1.3282 0.9699
-7.5846 -2.8245 -1.4271 0.9677
-7.6384 -4.5242 -1.5654 0.9646
-7.6104 -5.4776 -1.6534 0.9626
-2.3054 -3.4399 -0.7302 0.9833
-2.1582 -3.9382 -0.7919 0.9819
5.5610 11.9837 -2.3295 0.9478
4.0792 11.3382 -2.1247 0.9522
1.1386 4.3460 -0.7922 0.9819
-2.8480 7.3947 -1.3972 0.9683
-3.8574 6.3503 -1.3101 0.9703
-4.7014 5.3160 -1.2513 0.9716
-5.0724 4.7974 -1.2311 0.9720
-5.4137 4.2752 -1.2164 0.9724
-5.7280 3.7471 -1.2069 0.9726
-6.0173 3.2110 -1.2026 0.9727
-6.2831 2.6643 -1.2034 0.9727
-6.5267 2.1046 -1.2092 0.9725
-3.8238 0.8664 -0.6913 0.9842
-3.1779 0.4274 -0.5654 0.9871
-3.1644 0.1411 -0.5585 0.9872
-7.5517 -2.4351 -1.3991 0.9683
-7.6102 -3.2270 -1.4575 0.9670
-7.6376 -4.0755 -1.5265 0.9654
-3.7173 -2.9355 -0.8352 0.9809
-2.6854 -3.0365 -0.7148 0.9837
6.3986 12.3194 -2.4478 0.9452
3.4206 11.0271 -2.0358 0.9542
-0.4880 8.7518 -1.5456 0.9650
-1.8354 7.7018 -1.3961 0.9684
-2.4081 7.1927 -1.3375 0.9697
-3.1183 7.1317 -1.3725 0.9689
-4.5038 5.5745 -1.2637 0.9713
-5.5742 4.0120 -1.2110 0.9725
-5.8757 3.4802 -1.2041 0.9726
-4.2904 1.1753 -0.7844 0.9821
-3.4371 0.6192 -0.6158 0.9859
-3.1015 0.0000 -0.6002 0.9874
-3.1775 -0.2839 -0.6174 0.9871
-3.3117 -0.5966 -0.6512 0.9864
-7.1357 -1.9546 -1.4318 0.9703
-7.2054 -4.2677 -1.6206 0.9665
-7.1561 -5.1507 -1.7063 0.9647
-2.9086 -3.0075 -0.8097 0.9831
-2.5846 -3.1990 -0.7959 0.9834
-2.3517 -3.5090 -0.8175 0.9829
-5.4869 -12.5487 -2.6504 0.9457
8.4218 11.9801 -2.8339 0.9421
6.6174 11.4617 -2.5612 0.9475
5.0794 10.9458 -2.3352 0.9520
3.7545 10.4357 -2.1462 0.9558
1.5920 9.4380 -1.8522 0.9618
0.6995 8.9509 -1.7374 0.9641
-0.0944 8.4711 -1.6394 0.9661
-0.8045 7.9968 -1.5553 0.9678
-1.4418 7.5220 -1.4821 0.9693
-4.8439 4.5814 -1.2902 0.9732
-5.1727 4.0849 -1.2755 0.9735
-5.7523 3.0696 -1.2618 0.9738
-3.1048 0.4176 -0.6062 0.9873
-3.0751 0.1371 -0.5957 0.9875
-7.2148 -3.8499 -1.5825 0.9672
-7.1861 -4.7009 -1.6618 0.9656
-2.7360 -3.0937 -0.7992 0.9833
-2.2679 -3.7335 -0.8454 0.9824
-5.7637 -11.7287 -2.5290 0.9481
0.9492 4.4171 -0.8743 0.9818
1.1323 9.1934 -1.7925 0.9630
-0.4591 8.2338 -1.5959 0.9670
-1.7366 7.2869 -1.4496 0.9699
-2.9625 6.7755 -1.4310 0.9703
-3.4467 6.2896 -1.3879 0.9712
-4.6689 4.8276 -1.2997 0.9730
-6.1248 2.2809 -1.2648 0.9737
-3.0211 0.0000 -0.6369 0.9877
-3.0994 -0.2770 -0.6560 0.9874
-6.8164 -4.0374 -1.6702 0.9681
-6.7506 -4.8588 -1.7535 0.9666
-2.9633 -3.0640 -0.8986 0.9827
-5.5343 -10.0988 -2.4278 0.9540
9.4476 11.1747 -3.0850 0.9419
7.6162 10.8342 -2.7919 0.9473
6.0400 10.4616 -2.5467 0.9518
3.4760 9.6617 -2.1647 0.9589
0.6569 8.4057 -1.7775 0.9661
-1.3660 7.1266 -1.5298 0.9708
-2.5718 6.6776 -1.5086 0.9712
-3.5046 5.7693 -1.4231 0.9728
-3.9134 5.3114 -1.3909 0.9734
-4.2889 4.8496 -1.3649 0.9739
-4.6339 4.3828 -1.3447 0.9743
-5.2418 3.4291 -1.3205 0.9747
-5.7512 2.4387 -1.3170 0.9748
-2.9940 0.1335 -0.6318 0.9878
-3.0505 -0.1360 -0.6438 0.9876
-3.1545 -0.4242 -0.6710 0.9871
-6.8170 -2.1982 -1.5100 0.9711
-6.7889 -4.4411 -1.7103 0.9674
-3.2034 -3.0297 -0.9295 0.9821
-2.3495 -3.8678 -0.9541 0.9817
-5.2920 -10.7689 -2.5296 0.9521
6.7994 10.6511 -2.6640 0.9497
1.0613 8.6169 -1.8303 0.9651
0.2740 8.1943 -1.7285 0.9670
-0.4333 7.7710 -1.6408 0.9687
-1.6471 6.9118 -1.4979 0.9714
-2.1703 6.4825 -1.4412 0.9724
-2.8207 6.4512 -1.4844 0.9716
-3.2865 5.9972 -1.4417 0.9724
-4.4650 4.6169 -1.3541 0.9741
-4.7958 4.1471 -1.3366 0.9744
-5.3780 3.1854 -1.3177 0.9748
-5.6326 2.6905 -1.3160 0.9748
-3.2435 0.5844 -0.6948 0.9866
-3.0430 -0.2719 -0.6973 0.9875
-3.1642 -0.5701 -0.7338 0.9869
-6.5078 -2.4235 -1.5850 0.9719
-6.5040 -3.1067 -1.6452 0.9709
-6.3862 -4.5965 -1.7959 0.9682
-3.0613 -3.1653 -1.0051 0.9821
-2.6984 -3.3398 -0.9800 0.9825
-4.6201 -10.5664 -2.6322 0.9538
-3.9811 -11.8911 -2.8621 0.9499
-3.1817 -13.3510 -3.1326 0.9452
10.3655 10.2507 -3.3273 0.9419
8.5387 10.0996 -3.0186 0.9472
6.9469 9.8821 -2.7571 0.9516
5.5522 9.6166 -2.5345 0.9555
4.3231 9.3161 -2.3441 0.9587
3.2344 8.9902 -2.1807 0.9616
1.3980 8.2879 -1.9184 0.9661
-0.0840 7.5447 -1.7221 0.9695
-0.7203 7.1600 -1.6425 0.9709
-1.2973 6.7680 -1.5729 0.9721
-2.4517 6.3658 -1.5570 0.9724
-2.9201 5.9423 -1.5112 0.9732
-3.3498 5.5145 -1.4727 0.9739
-5.0263 3.2881 -1.3709 0.9757
-5.7258 1.8463 -1.3731 0.9756
-3.4289 0.7769 -0.8025 0.9857
-2.9625 0.3984 -0.6823 0.9878
-3.3200 -3.1400 -1.0430 0.9814
-2.5704 -3.4886 -0.9890 0.9824
-2.4706 -4.0672 -1.0862 0.9807
-4.8890 -9.9489 -2.5302 0.9555
7.7160 9.9979 -2.8825 0.9495
6.2270 9.7545 -2.6414 0.9536
-0.4101 7.3546 -1.6813 0.9702
-3.1396 5.7290 -1.4911 0.9736
-4.2770 4.4224 -1.4042 0.9751
-4.8892 3.5191 -1.3749 0.9756
-5.1573 3.0547 -1.3681 0.9757
-5.6234 2.0942 -1.3696 0.9757
-3.1659 0.5704 -0.7342 0.9869
-2.9277 0.2616 -0.6709 0.9880
-2.9882 -0.2670 -0.7374 0.9877
-3.1004 -0.5586 -0.7743 0.9871
-5.9227 -5.1215 -1.9246 0.9683
-2.8025 -3.4687 -1.0961 0.9818
-2.6299 -3.9241 -1.1611 0.9807
-3.6632 -10.9415 -2.8361 0.9536
7.7841 9.2071 -2.9635 0.9516
6.3819 9.0784 -2.7277 0.9553
5.1343 8.8928 -2.5240 0.9586
4.0205 8.6639 -2.3477 0.9614
0.5849 7.4845 -1.8453 0.9696
-0.6840 6.7996 -1.6798 0.9722
-1.2346 6.4412 -1.6121 0.9733
-2.3415 6.0797 -1.6014 0.9735
-3.2070 5.2796 -1.5184 0.9749
-4.2604 4.0295 -1.4414 0.9761
-4.5559 3.5978 -1.4269 0.9764
-4.8263 3.1573 -1.4176 0.9765
-5.0729 2.7070 -1.4133 0.9766
-5.2965 2.2459 -1.4141 0.9766
-2.8899 0.3887 -0.7167 0.9881
-2.9494 -0.1315 -0.7257 0.9879
-3.0389 -0.4087 -0.7537 0.9874
-3.1571 -0.7153 -0.7957 0.9868
-6.1065 -3.9947 -1.7936 0.9704
-5.8367 -5.5203 -1.9747 0.9674
-2.6836 -3.6421 -1.1120 0.9815
-4.9867 -8.2092 -2.3609 0.9612
-3.9871 -10.3522 -2.7268 0.9553
10.2306 9.2530 -3.3906 0.9448
8.5506 9.2448 -3.0953 0.9495
7.0623 9.1508 -2.8412 0.9535
2.5626 8.2608 -2.1260 0.9650
0.9419 7.6475 -1.8939 0.9688
-1.4917 6.2595 -1.5817 0.9738
-3.4016 5.0755 -1.5018 0.9751
-3.7669 4.6625 -1.4734 0.9756
-4.1029 4.2424 -1.4507 0.9760
-4.4114 3.8147 -1.4335 0.9763
-4.9526 2.9334 -1.4148 0.9766
-3.8036 1.0419 -0.9694 0.9839
-3.0843 0.5557 -0.7703 0.9872
-5.9272 -1.6236 -1.6194 0.9749
-5.9355 -2.2104 -1.6690 0.9741
-5.7573 -4.1438 -1.8691 0.9711
-5.6162 -4.8565 -1.9564 0.9698
-5.4249 -5.6093 -2.0562 0.9682
-4.8601 -7.2517 -2.3003 0.9645
-4.4665 -8.1504 -2.4490 0.9623
-3.3903 -10.1262 -2.8138 0.9568
-2.6720 -11.2122 -3.0372 0.9534
-0.7580 -13.5939 -3.5876 0.9452
11.7822 8.0880 -3.7657 0.9426
10.0743 8.3266 -3.4439 0.9474
8.5343 8.4397 -3.1627 0.9516
2.8357 7.8818 -2.2072 0.9659
1.1694 4.4635 -1.2158 0.9811
1.2441 7.3758 -1.9710 0.9695
0.5541 7.0914 -1.8743 0.9710
-1.1773 6.1420 -1.6479 0.9745
-2.2400 5.8162 -1.6423 0.9745
-2.6748 5.4431 -1.5981 0.9752
-3.0749 5.0621 -1.5607 0.9758
-4.0935 3.8717 -1.4847 0.9770
-4.6402 3.0355 -1.4611 0.9773
-5.0928 2.1595 -1.4576 0.9774
-2.8515 0.1271 -0.7521 0.9883
-5.8110 -3.8013 -1.8297 0.9717
-5.6926 -4.4954 -1.9113 0.9704
-5.5272 -5.2276 -2.0047 0.9690
-4.6738 -7.6941 -2.3721 0.9634
-4.2365 -8.6210 -2.5311 0.9610
-3.7006 -9.6084 -2.7131 0.9583
-3.0483 -10.6607 -2.9217 0.9552
-2.2583 -11.7812 -3.1609 0.9516
9.2842 8.3970 -3.2986 0.9495
7.8226 8.4577 -3.0357 0.9535
6.5065 8.4307 -2.8061 0.9569
5.3207 8.3347 -2.6056 0.9599
0.2322 6.9431 -1.8305 0.9717
-1.9451 5.8097 -1.6144 0.9750
-2.4619 5.6306 -1.6193 0.9749
-3.2629 4.8686 -1.5444 0.9760
-3.9411 4.0751 -1.4938 0.9768
-4.2394 3.6660 -1.4768 0.9771
-4.5127 3.2480 -1.4651 0.9773
-5.1918 1.9335 -1.4598 0.9773
-3.7365 1.0236 -1.0208 0.9841
-2.8279 0.0000 -0.7956 0.9883
-2.8819 -0.2575 -0.8141 0.9880
-2.9786 -0.5366 -0.8515 0.9875
-5.6817 -1.5563 -1.6575 0.9758
-5.6825 -2.1162 -1.7061 0.9751
-5.5870 -3.3092 -1.8270 0.9734
-5.4837 -3.9470 -1.9010 0.9723
-5.1427 -5.3175 -2.0813 0.9697
-4.8925 -6.0556 -2.1904 0.9682
-4.1925 -7.6504 -2.4545 0.9644
-3.7218 -8.5119 -2.6138 0.9621
-0.6917 -12.4050 -3.4957 0.9497
12.2349 6.8833 -3.9497 0.9433
10.6465 7.3084 -3.6333 0.9478
9.1799 7.5874 -3.3509 0.9517
7.8334 7.7466 -3.0997 0.9553
5.4793 7.7945 -2.6807 0.9612
3.5213 7.5882 -2.3537 0.9658
1.1785 6.9866 -1.9935 0.9710
-1.5879 5.5532 -1.6251 0.9763
-3.3085 4.4904 -1.5693 0.9771
-3.6365 4.1118 -1.5444 0.9774
-3.9379 3.7244 -1.5250 0.9777
-4.2142 3.3279 -1.5108 0.9779
-4.4665 2.9218 -1.5017 0.9781
-2.8062 0.1251 -0.7903 0.9884
-5.6713 -2.4048 -1.7332 0.9747
-5.6240 -3.0011 -1.7935 0.9739
-5.4164 -4.2773 -1.9418 0.9717
-5.2466 -4.9622 -2.0318 0.9704
-5.0250 -5.6819 -2.1341 0.9690
-4.7442 -6.4389 -2.2503 0.9673
-3.4506 -8.9594 -2.7013 0.9609
-2.8276 -9.8889 -2.8938 0.9582
-2.0824 -10.8639 -3.1123 0.9551
-1.1953 -11.8817 -3.3599 0.9516
-0.1441 -12.9367 -3.6401 0.9477
1.0955 -14.0189 -3.9564 0.9432
11.4227 7.1141 -3.7862 0.9456
6.0280 7.8107 -2.7759 0.9598
4.9554 7.7626 -2.5911 0.9625
2.2711 7.3212 -2.1567 0.9686
0.2207 6.6006 -1.8582 0.9729
-0.3522 6.3172 -1.7801 0.9741
-2.3602 5.3979 -1.6576 0.9758
-3.1341 4.6764 -1.5839 0.9769
-3.7904 3.9192 -1.5340 0.9776
-4.0791 3.5273 -1.5173 0.9778
-4.3433 3.1261 -1.5056 0.9780
-4.5839 2.7151 -1.4990 0.9781
-2.9229 0.5266 -0.8356 0.9877
-2.8308 -0.2530 -0.8509 0.9882
-2.9224 -0.5265 -0.8890 0.9877
-5.3409 -3.1634 -1.8584 0.9744
-5.0830 -4.3954 -2.0118 0.9723
-4.6364 -5.7385 -2.2087 0.9697
-4.3264 -6.4555 -2.3266 0.9681
-3.9481 -7.2043 -2.4595 0.9663
-2.2975 -9.6408 -2.9671 0.9595
-0.6356 -11.3988 -3.4179 0.9534
1.6245 -13.1900 -3.9787 0.9460
12.5058 5.6349 -4.1065 0.9443
11.0636 6.2243 -3.8004 0.9484
9.6975 6.6569 -3.5215 0.9521
6.1310 7.2518 -2.8430 0.9611
5.1130 7.2733 -2.6617 0.9636
4.1754 7.2321 -2.5001 0.9657
2.5197 7.0037 -2.2283 0.9694
1.7903 6.8329 -2.1147 0.9709
1.1189 6.6333 -2.0139 0.9723
0.5008 6.4084 -1.9244 0.9735
-1.0759 5.6131 -1.7110 0.9764
-1.5447 5.4023 -1.6822 0.9768
-2.8380 4.6720 -1.6365 0.9774
-3.5004 3.9580 -1.5819 0.9782
-3.7923 3.5868 -1.5627 0.9784
-4.3038 2.8154 -1.5397 0.9788
-4.5252 2.4147 -1.5356 0.9788
-4.9016 1.5806 -1.5419 0.9787
-2.7619 0.1232 -0.8277 0.9885
-2.8067 -0.1251 -0.8411 0.9883
-2.8771 -0.3869 -0.8691 0.9880
-2.9771 -0.6745 -0.9139 0.9873
-3.1092 -1.0025 -0.9780 0.9865
-5.4337 -2.3041 -1.7670 0.9757
-5.1634 -4.0775 -1.9697 0.9729
-4.9908 -4.7202 -2.0566 0.9717
-4.7683 -5.3916 -2.1548 0.9704
-4.4894 -6.0931 -2.2658 0.9689
-3.7302 -7.5908 -2.5321 0.9653
-2.6352 -9.2159 -2.8697 0.9608
-1.1018 -10.9524 -3.2955 0.9551
2.2987 -13.6278 -4.1375 0.9439
13.2501 5.2734 -4.2694 0.9422
10.3703 6.4586 -3.6575 0.9503
2.1473 6.9221 -2.1698 0.9702
0.8035 6.5241 -1.9680 0.9729
-2.2657 5.1818 -1.6931 0.9767
-2.6548 4.8445 -1.6538 0.9772
-3.0139 4.4971 -1.6207 0.9776
-3.6495 3.7736 -1.5716 0.9783
-4.1847 3.0120 -1.5436 0.9787
-4.4173 2.6164 -1.5370 0.9788
-4.8157 1.7934 -1.5385 0.9788
-3.5598 0.9752 -1.1050 0.9847
-2.8473 0.5130 -0.8662 0.9880
-2.7380 0.0000 -0.8695 0.9886
-2.7827 -0.2487 -0.8873 0.9883
-2.8694 -0.5169 -0.9259 0.9878
-2.9540 -0.8092 -0.9727 0.9872
-5.2300 -1.9477 -1.7724 0.9768
-4.6518 -4.8099 -2.1251 0.9723
-4.4035 -5.4503 -2.2253 0.9710
-4.0982 -6.1149 -2.3378 0.9696
-2.1451 -9.0013 -2.9387 0.9619
-1.4243 -9.7661 -3.1344 0.9594
1.4831 -12.0416 -3.8531 0.9504
2.7379 -12.7410 -4.1387 0.9468
8.9001 6.1095 -3.4284 0.9557
7.7706 6.4226 -3.2017 0.9586
5.7177 6.7630 -2.8126 0.9635
3.9264 6.8006 -2.4939 0.9676
3.1261 6.7364 -2.3585 0.9693
1.0646 6.3114 -2.0327 0.9735
-1.9781 5.1360 -1.7479 0.9772
-2.3695 4.8217 -1.7062 0.9777
-3.6558 3.4577 -1.5981 0.9791
-4.1511 2.7156 -1.5754 0.9794
-4.5571 1.9324 -1.5720 0.9794
-2.9791 0.6750 -0.9701 0.9873
-2.7612 -0.1231 -0.8778 0.9885
-2.9205 -0.6617 -0.9510 0.9875
-5.1552 -2.7509 -1.8557 0.9758
-4.9309 -3.8938 -1.9954 0.9740
-3.0350 -7.8801 -2.6818 0.9652
-2.4658 -8.6234 -2.8484 0.9631
-1.0212 -10.1510 -3.2401 0.9581
-0.1216 -10.9193 -3.4680 0.9552
2.0913 -12.3982 -3.9931 0.9486
3.4231 -13.0659 -4.2896 0.9449
12.7286 5.0659 -4.3508 0.9441
7.2302 6.5393 -3.0961 0.9599
6.2000 6.7033 -2.8998 0.9624
3.5186 6.7744 -2.4243 0.9685
0.2006 5.9977 -1.9058 0.9751
-0.3213 5.7624 -1.8329 0.9761
-1.2495 5.2434 -1.7118 0.9776
-1.7706 5.2886 -1.7712 0.9769
-2.5539 4.6603 -1.6877 0.9779
-3.2222 3.9882 -1.6283 0.9787
-3.7883 3.2759 -1.5905 0.9792
-4.6450 1.7298 -1.5742 0.9794
-2.7749 0.4999 -0.8954 0.9882
-2.6951 0.2408 -0.8593 0.9887
-2.6945 0.0000 -0.9053 0.9887
-2.7374 -0.2446 -0.9234 0.9885
-2.8971 -0.7936 -1.0092 0.9874
-5.0268 -1.8720 -1.8022 0.9776
-4.9809 -2.3792 -1.8546 0.9770
-4.9023 -2.9036 -1.9143 0.9762
-4.6341 -4.0073 -2.0584 0.9745
-4.4367 -4.5875 -2.1442 0.9734
-3.5301 -6.4416 -2.4680 0.9695
-2.5982 -7.7604 -2.7496 0.9661
-2.0104 -8.4358 -2.9137 0.9641
-1.3293 -9.1144 -3.0947 0.9619
0.3492 -10.4440 -3.5110 0.9569
1.3632 -11.0684 -3.7469 0.9540
3.7640 -12.1340 -4.2685 0.9478
5.1414 -12.5109 -4.5446 0.9445
13.2855 3.3229 -4.6012 0.9438
12.1559 4.2210 -4.3234 0.9471
9.2628 5.2112 -3.5708 0.9561
7.2110 5.9601 -3.1432 0.9613
6.2526 6.1833 -2.9545 0.9636
5.3464 6.3237 -2.7822 0.9657
4.4944 6.3934 -2.6257 0.9676
2.9519 6.3613 -2.3562 0.9708
2.2581 6.2763 -2.2411 0.9722
1.6160 6.1682 -2.1424 0.9735
1.0144 6.0137 -2.0490 0.9746
0.4557 5.8316 -1.9653 0.9756
-0.9890 5.1598 -1.7651 0.9781
-1.9024 4.9395 -1.7784 0.9779
-2.6311 4.3315 -1.7028 0.9788
-2.9548 4.0103 -1.6736 0.9792
-3.5276 3.3363 -1.6313 0.9797
-4.3997 1.8657 -1.6056 0.9800
-4.5636 1.4716 -1.6110 0.9800
-2.6180 0.3521 -0.8875 0.9889
-4.7162 -3.7243 -2.0191 0.9750
-4.3201 -4.8848 -2.1910 0.9729
-4.0479 -5.4938 -2.2927 0.9716
-3.7184 -6.1213 -2.4064 0.9702
-3.3249 -6.7660 -2.5329 0.9687
-2.3154 -8.0973 -2.8296 0.9651
-1.6821 -8.7752 -3.0020 0.9630
0.8409 -10.7614 -3.6266 0.9555
1.9167 -11.3628 -3.8716 0.9525
3.1181 -11.9016 -4.1337 0.9494
4.4388 -12.3378 -4.4054 0.9462
11.5817 4.6094 -4.1881 0.9488
9.7965 4.9504 -3.6878 0.9547
8.7358 5.4407 -3.4577 0.9575
7.7086 5.8133 -3.2439 0.9601
5.7928 6.2631 -2.8664 0.9646
4.0889 6.4050 -2.5531 0.9684
3.3178 6.3879 -2.4185 0.9701
2.5988 6.3238 -2.2971 0.9716
1.9294 6.2198 -2.1880 0.9729
0.9472 4.4077 -1.5147 0.9812
-3.6559 3.1614 -1.6239 0.9798
-3.8958 2.8041 -1.6127 0.9799
-2.7169 0.4895 -0.9275 0.9884
-2.6518 0.0000 -0.9403 0.9888
-2.7668 -0.4985 -0.9969 0.9881
-4.8367 -1.8012 -1.8301 0.9783
-4.7873 -2.2867 -1.8812 0.9777
-4.5896 -3.3034 -2.0051 0.9763
-4.4351 -3.8352 -2.0791 0.9754
-3.7012 -5.5225 -2.3573 0.9722
-2.9354 -6.7134 -2.5981 0.9694
-2.4512 -7.3214 -2.7377 0.9678
-1.8903 -7.9319 -2.8913 0.9660
-1.2453 -8.5382 -3.0596 0.9640
-0.5092 -9.1318 -3.2431 0.9619
4.6788 -11.3853 -4.3647 0.9491
5.9923 -11.5373 -4.6099 0.9463
13.7843 0.9228 -4.8987 0.9431
12.0766 3.0206 -4.4141 0.9485
8.5550 4.8130 -3.4806 0.9592
5.0226 5.9408 -2.7585 0.9675
4.2367 6.0268 -2.6122 0.9692
3.4955 6.0544 -2.4789 0.9708
2.1466 5.9665 -2.2484 0.9734
1.5392 5.8752 -2.1536 0.9746
0.9682 5.7398 -2.0640 0.9756
0.4358 5.5765 -1.9834 0.9765
-0.5213 5.1817 -1.8466 0.9781
-1.4368 5.0249 -1.8532 0.9781
-1.8315 4.7555 -1.8070 0.9786
-2.1978 4.4724 -1.7670 0.9791
-2.5371 4.1768 -1.7329 0.9795
-3.1405 3.5510 -1.6809 0.9801
-3.6502 2.8826 -1.6492 0.9805
-4.2512 1.8027 -1.6373 0.9806
-2.5615 0.5804 -0.9313 0.9889
-2.5748 0.3463 -0.9212 0.9890
-2.6347 0.1175 -0.9351 0.9889
-2.6733 -0.1192 -0.9489 0.9887
-2.7260 -0.3666 -0.9753 0.9884
-2.8709 -0.9257 -1.0696 0.9873
-4.8158 -2.0421 -1.8548 0.9780
-4.7507 -2.5351 -1.9094 0.9774
-4.6523 -3.0434 -1.9713 0.9767
-4.5173 -3.5673 -2.0410 0.9759
-3.8551 -5.2322 -2.3045 0.9728
-3.1509 -6.4119 -2.5333 0.9701
-1.5788 -8.2361 -2.9736 0.9650
-0.8890 -8.8373 -3.1494 0.9630
-0.1049 -9.4204 -3.3406 0.9608
0.7793 -9.9727 -3.5470 0.9584
1.7675 -10.4782 -3.7679 0.9559
5.3270 -11.4793 -4.4873 0.9477
6.6718 -11.5559 -4.7315 0.9449
8.0573 -11.4616 -4.9679 0.9423
13.3970 1.4987 -4.7800 0.9444
8.0878 5.0371 -3.3785 0.9604
5.4320 5.8731 -2.8367 0.9666
3.1418 6.0490 -2.4169 0.9715
2.4675 6.0042 -2.3018 0.9728
1.8363 5.9197 -2.1977 0.9740
0.9482 4.4125 -1.6003 0.9810
0.1834 5.4857 -1.9462 0.9770
-0.2948 5.2879 -1.8779 0.9778
-0.7396 5.0711 -1.8172 0.9785
-1.2125 5.0880 -1.8547 0.9780
-1.6379 4.8920 -1.8293 0.9783
-3.5312 3.0536 -1.6553 0.9804
-3.7637 2.7090 -1.6443 0.9805
-3.9747 2.3542 -1.6380 0.9806
-2.5828 0.7075 -0.9496 0.9887
-2.6060 0.2329 -0.9277 0.9890
-2.7878 -0.7637 -1.0794 0.9877
-4.6061 -2.2002 -1.9061 0.9784
-4.2504 -3.6754 -2.0982 0.9763
-4.0552 -4.1931 -2.1782 0.9754
-3.8157 -4.7228 -2.2672 0.9744
-3.1853 -5.8123 -2.4749 0.9721
-1.7825 -7.4798 -2.8713 0.9677
-1.1704 -8.0250 -3.0283 0.9660
0.3026 -9.0501 -3.3813 0.9621
2.1281 -9.9035 -3.7825 0.9577
3.1715 -10.2239 -3.9972 0.9553
4.2884 -10.4352 -4.2129 0.9530
9.1214 -9.8619 -5.0162 0.9443
10.2628 -9.2821 -5.1672 0.9426
13.6297 -2.7703 -5.1936 0.9423
13.4378 -1.5032 -5.0491 0.9439
13.0534 -0.2909 -4.8755 0.9458
11.0584 2.7659 -4.2565 0.9525
8.4571 4.7579 -3.6234 0.9594
3.3131 5.7384 -2.4743 0.9721
2.6598 5.7317 -2.3595 0.9734
1.4686 5.6057 -2.1639 0.9756
0.7698 4.5638 -1.7282 0.9804
0.4173 5.3401 -2.0001 0.9774
-0.5007 4.9767 -1.8677 0.9789
-0.9368 4.8870 -1.8581 0.9790
-1.3833 4.8379 -1.8789 0.9787
-2.4487 4.0311 -1.7612 0.9801
-3.7438 2.4491 -1.6705 0.9811
-3.9377 2.1012 -1.6666 0.9811
-4.1108 1.7431 -1.6673 0.9811
-2.5436 0.5763 -0.9739 0.9889
-2.5325 0.3406 -0.9542 0.9891
-2.5921 0.1156 -0.9689 0.9890
-2.6307 -0.1173 -0.9833 0.9888
-2.6781 -0.3601 -1.0090 0.9885
-2.7556 -0.6243 -1.0551 0.9880
-4.6361 -1.9659 -1.8804 0.9787
-4.5684 -2.4377 -1.9336 0.9781
-4.3325 -3.4213 -2.0614 0.9767
-4.1581 -3.9327 -2.1371 0.9759
-3.6779 -4.9917 -2.3153 0.9739
-2.5598 -6.6463 -2.6595 0.9700
-1.4864 -7.7541 -2.9482 0.9669
-0.8341 -8.2914 -3.1117 0.9650
-0.0981 -8.8055 -3.2883 0.9631
3.7213 -10.3434 -4.1047 0.9541
4.8711 -10.4968 -4.3211 0.9518
6.0725 -10.5179 -4.5351 0.9495
7.3008 -10.3855 -4.7404 0.9472
9.7029 -9.5954 -5.0956 0.9434
13.5595 -2.1321 -5.1255 0.9431
12.1824 1.3628 -4.5774 0.9490
11.4544 2.3282 -4.3646 0.9513
9.7876 3.8954 -3.9336 0.9560
8.9028 4.4988 -3.7247 0.9583
6.6961 5.0498 -3.1317 0.9648
4.3640 5.6545 -2.6672 0.9700
3.6540 5.7239 -2.5357 0.9714
2.9817 5.7408 -2.4156 0.9728
1.7536 5.6531 -2.2102 0.9750
0.9493 4.4175 -1.6872 0.9809
0.1758 5.2573 -1.9642 0.9778
-0.2830 5.0753 -1.8981 0.9785
-1.5776 4.7122 -1.8556 0.9790
-1.9456 4.4498 -1.8135 0.9795
-2.6039 3.8853 -1.7465 0.9802
-3.6390 2.6192 -1.6742 0.9810
-3.8434 2.2764 -1.6680 0.9811
-2.5629 0.2290 -0.9608 0.9891
-2.5691 -0.0000 -1.0083 0.9890
-2.7221 -0.7457 -1.1077 0.9879
-2.7584 -1.0272 -1.1552 0.9874
-3.6494 -4.5170 -2.2791 0.9754
-3.0343 -5.5369 -2.4780 0.9732
-2.1980 -6.5652 -2.7173 0.9707
-1.6853 -7.0717 -2.8532 0.9692
1.9778 -9.2038 -3.6947 0.9604
2.9357 -9.4637 -3.8889 0.9583
3.9544 -9.6223 -4.0829 0.9563
5.0208 -9.6667 -4.2751 0.9543
6.1161 -9.5807 -4.4610 0.9523
8.2877 -8.9605 -4.7904 0.9489
9.2991 -8.4106 -4.9210 0.9475
11.6181 -5.8708 -5.1089 0.9456
12.0560 -4.7981 -5.0926 0.9458
11.4332 0.7654 -4.4973 0.9520
10.1887 2.5484 -4.1220 0.9559
5.9053 4.8808 -3.0068 0.9676
4.4713 5.2886 -2.7180 0.9707
3.1468 5.4504 -2.4700 0.9733
2.5322 5.4568 -2.3610 0.9745
1.9505 5.4216 -2.2613 0.9755
1.4035 5.3569 -2.1734 0.9765
0.7664 4.5436 -1.8084 0.9804
-0.4821 4.7929 -1.8906 0.9795
-1.3331 4.6622 -1.9031 0.9794
-1.7025 4.4202 -1.8590 0.9799
-2.3651 3.8936 -1.7879 0.9806
-2.9335 3.3170 -1.7379 0.9812
-3.1844 3.0118 -1.7202 0.9813
-3.4139 2.6959 -1.7072 0.9815
-3.6224 2.3697 -1.6989 0.9816
-2.5568 0.5793 -1.0289 0.9888
-2.4910 0.3350 -0.9865 0.9893
-2.5889 -0.1154 -1.0171 0.9889
-2.6312 -0.3539 -1.0420 0.9887
-2.7236 -0.8782 -1.1231 0.9878
-4.1601 -3.2852 -2.0804 0.9775
-3.7728 -4.2660 -2.2351 0.9758
-3.5144 -4.7698 -2.3253 0.9749
-3.2074 -5.2801 -2.4247 0.9738
-0.0920 -8.2596 -3.2419 0.9651
0.6781 -8.6778 -3.4162 0.9633
2.4481 -9.3443 -3.7911 0.9593
3.4382 -9.5567 -3.9861 0.9573
5.5663 -9.6411 -4.3692 0.9533
7.7569 -9.1748 -4.7153 0.9497
8.8033 -8.7058 -4.8592 0.9482
9.7707 -8.0757 -4.9750 0.9470
11.3291 -6.3736 -5.1017 0.9457
12.2020 -4.2370 -5.0694 0.9460
12.3455 -3.0878 -4.9945 0.9468
12.2957 -1.9334 -4.8850 0.9479
11.6786 0.2603 -4.5847 0.9510
9.8287 2.9293 -4.0252 0.9569
5.5384 5.0092 -2.9308 0.9684
2.8354 5.4591 -2.4143 0.9739
2.2373 5.4440 -2.3100 0.9750
1.6742 5.3971 -2.2178 0.9760
-0.2719 4.8767 -1.9169 0.9792
-1.1385 4.7773 -1.9274 0.9791
-1.5210 4.5431 -1.8803 0.9796
-2.2086 4.0302 -1.8037 0.9804
-2.7999 3.4655 -1.7485 0.9810
-3.8966 1.8613 -1.6948 0.9816
-4.0538 1.5097 -1.6978 0.9816
-2.5206 0.2253 -0.9932 0.9892
-2.5289 0.0000 -1.0413 0.9891
-2.5655 -0.2292 -1.0607 0.9889
-4.1897 -2.4816 -2.0052 0.9792
-4.0711 -2.9302 -2.0655 0.9785
-3.9177 -3.3878 -2.1328 0.9778
-3.7268 -3.8534 -2.2075 0.9771
-2.8953 -5.2833 -2.4808 0.9743
-2.5196 -5.7625 -2.5898 0.9732
-2.0881 -6.2369 -2.7084 0.9719
-1.5970 -6.7013 -2.8367 0.9706
-1.0426 -7.1490 -2.9750 0.9692
1.0228 -8.3042 -3.4454 0.9645
1.8457 -8.5890 -3.6175 0.9627
2.7300 -8.8007 -3.7943 0.9609
3.6651 -8.9184 -3.9705 0.9591
4.6375 -8.9288 -4.1431 0.9574
5.6306 -8.8201 -4.3089 0.9557
7.5853 -8.2011 -4.6001 0.9528
8.4914 -7.6800 -4.7146 0.9517
10.0125 -6.2358 -4.8572 0.9503
10.5738 -5.3432 -4.8784 0.9500
10.9755 -4.3681 -4.8643 0.9502
11.2072 -3.3401 -4.8155 0.9507
11.1625 -1.2487 -4.6252 0.9526
10.0212 1.5758 -4.1772 0.9571
9.4368 2.3603 -4.0056 0.9588
8.7882 3.0516 -3.8308 0.9606
8.0958 3.6478 -3.6565 0.9623
7.3779 4.1507 -3.4858 0.9640
6.6493 4.5645 -3.3211 0.9657
4.8890 4.8348 -2.8314 0.9707
3.6017 5.1235 -2.5789 0.9733
1.3431 5.1264 -2.1822 0.9773
0.3841 4.9153 -2.0302 0.9789
-0.9028 4.7102 -1.9749 0.9795
-1.2858 4.4968 -1.9259 0.9800
-1.9765 4.0220 -1.8454 0.9808
-2.8381 3.2092 -1.7641 0.9816
-3.0819 2.9149 -1.7468 0.9818
-3.5072 2.2943 -1.7258 0.9820
-3.8515 1.6332 -1.7227 0.9821
-2.6388 0.5979 -1.1141 0.9884
-2.4504 0.3296 -1.0181 0.9894
-2.5479 -0.1136 -1.0502 0.9890
-2.6299 -0.5958 -1.1104 0.9884
-4.2369 -2.2609 -1.9775 0.9794
-4.1346 -2.7047 -2.0345 0.9789
-3.9989 -3.1579 -2.0982 0.9782
-3.8271 -3.6197 -2.1692 0.9775
-3.3629 -4.5642 -2.3345 0.9758
-2.7142 -5.5232 -2.5341 0.9737
-0.0866 -7.7715 -3.2004 0.9669
1.4262 -8.4548 -3.5307 0.9636
2.2806 -8.7049 -3.7055 0.9618
3.1923 -8.8730 -3.8830 0.9600
6.1280 -8.7172 -4.3878 0.9550
8.0474 -7.9582 -4.6605 0.9522
10.3121 -5.8015 -4.8722 0.9501
10.7954 -4.8642 -4.8758 0.9501
11.1129 -3.8588 -4.8441 0.9504
11.2348 -1.7666 -4.6831 0.9520
11.0523 -0.7399 -4.5613 0.9532
9.7384 1.9794 -4.0921 0.9579
9.1192 2.7178 -3.9183 0.9597
8.4463 3.3616 -3.7433 0.9614
7.7391 3.9107 -3.5706 0.9632
4.5592 4.9293 -2.7649 0.9714
2.1357 5.1969 -2.3136 0.9760
0.9546 4.4425 -1.8711 0.9805
0.6132 4.9784 -2.0655 0.9785
0.1620 4.8461 -1.9966 0.9792
-0.6866 4.7080 -1.9592 0.9796
-1.0976 4.6057 -1.9496 0.9797
-1.4677 4.3838 -1.9036 0.9802
-2.1342 3.8944 -1.8287 0.9810
-2.4324 3.6294 -1.7991 0.9813
-2.7083 3.3521 -1.7746 0.9815
-3.4086 2.4533 -1.7293 0.9820
-3.6009 2.1328 -1.7234 0.9821
-3.7730 1.8022 -1.7218 0.9821
-3.5071 0.9607 -1.4973 0.9844
-2.5507 -0.6987 -1.1408 0.9885
-4.0382 -2.3918 -2.0245 0.9798
-3.3514 -4.1481 -2.3004 0.9770
-2.4031 -5.4960 -2.5875 0.9742
-1.9874 -5.9359 -2.7002 0.9731
-1.5165 -6.3633 -2.8217 0.9719
-0.3989 -7.1538 -3.0907 0.9693
0.2508 -7.5004 -3.2372 0.9678
2.5490 -8.2170 -3.7111 0.9632
4.3045 -8.2875 -4.0283 0.9601
6.1124 -7.9200 -4.3155 0.9574
6.9851 -7.5522 -4.4375 0.9562
8.5438 -6.4432 -4.6160 0.9545
9.1797 -5.7171 -4.6649 0.9540
9.6908 -4.8970 -4.6836 0.9538
10.2824 -3.0645 -4.6282 0.9543
10.3519 -2.1041 -4.5567 0.9550
10.0623 -0.2242 -4.3415 0.9571
9.7299 0.6513 -4.2064 0.9584
8.2013 2.8478 -3.7449 0.9629
5.3888 4.4540 -3.0157 0.9700
4.6283 4.5771 -2.8078 0.9720
4.0184 4.7530 -2.6848 0.9733
1.2869 4.9121 -2.1904 0.9781
0.7600 4.5058 -1.9711 0.9803
0.3691 4.7236 -2.0438 0.9796
-0.4609 4.5818 -1.9863 0.9801
-0.8707 4.5427 -1.9952 0.9801
-1.2411 4.3406 -1.9474 0.9805
-1.9106 3.8880 -1.8687 0.9813
-2.4900 3.3795 -1.8107 0.9819
-2.9845 2.8228 -1.7720 0.9823
-3.3977 2.2227 -1.7514 0.9825
-2.5715 0.5826 -1.1373 0.9886
-2.4106 0.3242 -1.0492 0.9895
-2.4655 0.1100 -1.0645 0.9893
-2.5076 -0.1118 -1.0828 0.9891
-2.5277 -0.3399 -1.1001 0.9890
-2.5665 -0.8276 -1.1632 0.9883
-2.6695 -1.1320 -1.2508 0.9874
-3.9829 -2.6055 -2.0530 0.9795
-3.8478 -3.0385 -2.1149 0.9789
-3.6778 -3.4784 -2.1836 0.9782
-3.4702 -3.9238 -2.2596 0.9774
-2.9302 -4.8237 -2.4346 0.9757
-1.7590 -6.1515 -2.7599 0.9725
-0.7009 -6.9667 -3.0203 0.9700
0.5983 -7.6572 -3.3131 0.9671
2.1326 -8.1402 -3.6299 0.9640
3.8553 -8.3080 -3.9508 0.9609
5.6638 -8.0569 -4.2482 0.9580
6.5538 -7.7519 -4.3788 0.9567
8.1855 -6.7655 -4.5808 0.9548
8.8761 -6.0931 -4.6441 0.9542
9.8944 -4.4582 -4.6813 0.9538
10.1909 -3.5386 -4.6534 0.9541
10.3359 -2.5852 -4.5958 0.9546
10.3311 -1.6245 -4.5111 0.9555
9.9099 0.2208 -4.2758 0.9577
9.5243 1.0655 -4.1340 0.9591
7.8943 3.1419 -3.6651 0.9637
6.5949 4.1074 -3.3514 0.9667
4.9384 4.4665 -2.8722 0.9714
4.3215 4.6723 -2.7453 0.9727
3.7198 4.8198 -2.6262 0.9738
3.1374 4.9147 -2.5151 0.9749
0.5889 4.7810 -2.0779 0.9792
-0.2518 4.5168 -1.9514 0.9805
-1.0590 4.4438 -1.9706 0.9803
-2.3533 3.5114 -1.8234 0.9818
-2.6214 3.2446 -1.7993 0.9820
-2.8686 2.9662 -1.7800 0.9822
-3.0953 2.6767 -1.7652 0.9823
-3.3019 2.3766 -1.7549 0.9824
-3.4886 2.0663 -1.7490 0.9825
-3.8025 1.4161 -1.7503 0.9825
-2.4387 0.2179 -1.0561 0.9894
-2.4701 -0.6766 -1.1556 0.9888
-3.9832 -1.9026 -1.9918 0.9808
-3.8952 -2.3071 -2.0428 0.9803
-3.6261 -3.1356 -2.1631 0.9792
-3.4404 -3.5573 -2.2330 0.9785
-3.2173 -3.9820 -2.3099 0.9778
-2.2954 -5.2498 -2.5853 0.9752
-1.8946 -5.6589 -2.6927 0.9742
-1.4426 -6.0536 -2.8080 0.9731
-0.9374 -6.4278 -2.9310 0.9719
0.2369 -7.0846 -3.1985 0.9694
0.9052 -7.3493 -3.3412 0.9680
1.6241 -7.5579 -3.4881 0.9666
3.1887 -7.7592 -3.7852 0.9639
4.0121 -7.7246 -3.9276 0.9625
4.8450 -7.5896 -4.0629 0.9613
7.2120 -6.5229 -4.3878 0.9582
8.4654 -5.2723 -4.5000 0.9572
9.4881 -2.8277 -4.4673 0.9575
9.5636 -1.9439 -4.4035 0.9581
8.2008 2.0512 -3.8143 0.9636
6.5224 3.6695 -3.3768 0.9677
5.9107 4.0575 -3.2349 0.9690
3.8208 4.5193 -2.6703 0.9744
2.7252 4.7202 -2.4593 0.9764
2.2060 4.7538 -2.3647 0.9773
0.7593 4.5016 -2.0599 0.9802
-0.0492 4.4221 -1.9954 0.9808
-0.4584 4.5573 -2.0667 0.9801
-0.8404 4.3844 -2.0143 0.9806
-1.8481 3.7609 -1.8908 0.9818
-2.1401 3.5231 -1.8600 0.9821
-2.4110 3.2723 -1.8340 0.9823
-2.6615 3.0094 -1.8128 0.9825
-3.6171 1.5338 -1.7728 0.9829
-3.7496 1.2091 -1.7777 0.9829
-2.5488 0.5775 -1.1792 0.9886
-2.3567 0.3170 -1.0730 0.9896
-2.4395 -0.1088 -1.1018 0.9893
-2.4521 -0.3298 -1.1164 0.9892
-2.4671 -0.5589 -1.1414 0.9890
-3.8400 -2.5120 -2.0705 0.9801
-3.7057 -2.9264 -2.1306 0.9795
-2.8063 -4.6198 -2.4390 0.9766
-2.4774 -5.0414 -2.5346 0.9757
-2.1012 -5.4558 -2.6380 0.9747
-0.6645 -6.6050 -2.9954 0.9713
-0.0772 -6.9345 -3.1292 0.9700
0.5645 -7.2233 -3.2692 0.9687
3.5982 -7.7539 -3.8571 0.9632
4.4284 -7.6702 -3.9963 0.9619
5.2597 -7.4819 -4.1267 0.9607
6.0729 -7.1830 -4.2442 0.9596
6.8468 -6.7709 -4.3449 0.9586
8.1883 -5.6209 -4.4814 0.9574
9.1220 -4.1102 -4.5145 0.9570
9.3997 -3.2639 -4.4897 0.9573
9.5517 -1.5019 -4.3628 0.9585
9.1985 0.2050 -4.1516 0.9604
8.4390 1.7153 -3.8857 0.9629
7.4035 2.9465 -3.5954 0.9656
6.8225 3.4476 -3.4491 0.9670
6.2180 3.8726 -3.3053 0.9684
5.6018 4.2245 -3.1658 0.9697
4.1044 4.4376 -2.7275 0.9738
3.5406 4.5877 -2.6148 0.9749
2.9924 4.6876 -2.5093 0.9759
2.4630 4.7421 -2.4111 0.9768
1.4692 4.7361 -2.2375 0.9785
0.5661 4.5961 -2.0895 0.9799
-0.2496 4.4762 -2.0229 0.9805
-1.3696 4.0908 -1.9465 0.9812
-1.6941 3.8746 -1.9081 0.9816
-2.5388 3.1423 -1.8228 0.9824
-2.7792 2.8737 -1.8038 0.9826
-3.3816 2.0029 -1.7734 0.9829
-3.5434 1.6926 -1.7719 0.9829
-3.6858 1.3726 -1.7747 0.9829
-3.8085 1.0433 -1.7818 0.9828
-2.4063 0.4335 -1.1032 0.9893
-2.3615 0.0000 -1.1132 0.9896
-2.3773 -0.2124 -1.1251 0.9895
-2.3816 -0.4291 -1.1407 0.9894
-2.3934 -0.6556 -1.1698 0.9891
-3.8483 -1.8382 -2.0103 0.9813
-3.7601 -2.2271 -2.0600 0.9809
-3.6423 -2.6216 -2.1154 0.9804
-3.4931 -3.0206 -2.1768 0.9798
-3.3103 -3.4229 -2.2446 0.9792
-1.8089 -5.4029 -2.6858 0.9751
-0.8915 -6.1126 -2.9118 0.9731
-0.3584 -6.4281 -3.0348 0.9719
0.8549 -6.9413 -3.2967 0.9695
2.2446 -7.2360 -3.5712 0.9671
3.7533 -7.2264 -3.8384 0.9646
6.6963 -6.0564 -4.2560 0.9609
8.2777 -4.1829 -4.3718 0.9598
8.5975 -3.4217 -4.3618 0.9599
8.6875 -0.1936 -4.0961 0.9623
8.4364 0.5648 -3.9856 0.9633
8.0978 1.2733 -3.8640 0.9644
7.6862 1.9224 -3.7347 0.9656
7.2163 2.5058 -3.6008 0.9668
6.7024 3.0200 -3.4652 0.9680
6.1574 3.4641 -3.3303 0.9692
5.5931 3.8395 -3.1979 0.9704
3.1152 4.4314 -2.5534 0.9763
2.6054 4.5127 -2.4563 0.9772
2.1126 4.5525 -2.3658 0.9781
1.6394 4.5566 -2.2827 0.9788
1.1856 4.5254 -2.2052 0.9795
0.7529 4.4637 -2.1338 0.9802
-0.8117 4.2347 -2.0325 0.9811
-1.4844 3.8542 -1.9469 0.9819
-1.7888 3.6401 -1.9118 0.9822
-2.0724 3.4117 -1.8817 0.9825
-2.8034 2.6515 -1.8189 0.9831
-3.0082 2.3756 -1.8068 0.9832
-3.1938 2.0893 -1.7990 0.9833
-3.3604 1.7932 -1.7954 0.9833
-3.5079 1.4875 -1.7961 0.9833
-3.6361 1.1725 -1.8009 0.9832
-2.3694 -0.1056 -1.1180 0.9896
-2.3894 -0.5414 -1.1548 0.9892
-2.3945 -0.7721 -1.1859 0.9889
-3.8078 -2.0318 -2.0345 0.9811
-3.5718 -2.8206 -2.1454 0.9801
-3.2056 -3.6246 -2.2809 0.9788
-2.9680 -4.0282 -2.3586 0.9781
-2.6909 -4.4298 -2.4432 0.9773
-1.5979 -5.5881 -2.7397 0.9746
-1.1393 -5.9437 -2.8528 0.9736
-0.6312 -6.2744 -2.9725 0.9725
-0.0732 -6.5727 -3.0984 0.9714
0.5337 -6.8305 -3.2295 0.9702
1.8830 -7.1871 -3.5022 0.9677
2.6142 -7.2662 -3.6400 0.9664
3.3700 -7.2622 -3.7739 0.9652
4.1381 -7.1674 -3.9012 0.9641
5.6518 -6.6850 -4.1264 0.9620
7.0143 -5.7975 -4.2896 0.9606
8.0750 -4.5429 -4.3674 0.9599
8.7130 -3.0255 -4.3477 0.9600
8.8529 -2.2142 -4.3016 0.9604
8.7761 -0.5875 -4.1461 0.9619
8.5737 0.1911 -4.0425 0.9628
8.2771 0.9260 -3.9260 0.9638
7.9002 1.6058 -3.8001 0.9650
7.4576 2.2226 -3.6681 0.9662
6.9640 2.7716 -3.5331 0.9674
6.4330 3.2507 -3.3975 0.9686
5.3069 4.0021 -3.1331 0.9710
4.7317 4.2796 -3.0074 0.9722
2.8584 4.4775 -2.5040 0.9768
1.8739 4.5598 -2.3238 0.9784
0.9666 4.4982 -2.1687 0.9799
0.5447 4.4225 -2.1004 0.9805
-0.9880 4.1460 -2.0091 0.9813
-1.3243 3.9556 -1.9663 0.9817
-1.6392 3.7490 -1.9287 0.9821
-1.9331 3.5276 -1.8961 0.9824
-2.2066 3.2926 -1.8684 0.9826
-2.4601 3.0449 -1.8452 0.9828
-2.6938 2.7854 -1.8266 0.9830
-2.9082 2.5148 -1.8123 0.9831
-3.2795 1.9425 -1.7967 0.9833
-3.5744 1.3312 -1.7980 0.9833
-2.3515 0.4237 -1.1263 0.9895
-2.3243 0.2077 -1.1000 0.9897
-2.3082 -0.4158 -1.1536 0.9896
-2.3175 -0.6348 -1.1819 0.9893
-3.5151 -2.5300 -2.1302 0.9809
-3.3677 -2.9122 -2.1899 0.9803
-3.1879 -3.2963 -2.2555 0.9798
-2.4331 -4.4399 -2.4902 0.9777
-0.8492 -5.8226 -2.8942 0.9741
0.2127 -6.3629 -3.1314 0.9720
0.8093 -6.5707 -3.2563 0.9709
1.4453 -6.7259 -3.3837 0.9698
3.5226 -6.7821 -3.7589 0.9665
4.2361 -6.6357 -3.8721 0.9655
5.6127 -6.0684 -4.0657 0.9638
6.8114 -5.1367 -4.1961 0.9627
8.1930 -2.4418 -4.2049 0.9626
8.2479 -0.9227 -4.0821 0.9637
8.1198 -0.1810 -3.9948 0.9644
6.7985 2.3607 -3.5397 0.9684
5.3036 3.6407 -3.1641 0.9717
4.7695 3.9421 -3.0435 0.9728
4.2319 4.1850 -2.9274 0.9738
3.6090 4.2687 -2.7494 0.9754
2.9770 4.2349 -2.5461 0.9772
2.0255 4.3649 -2.3668 0.9788
1.1397 4.3502 -2.2119 0.9802
-0.4272 4.2467 -2.0993 0.9812
-1.1208 3.9200 -2.0053 0.9820
-1.4367 3.7303 -1.9661 0.9823
-2.0079 3.3055 -1.9023 0.9829
-2.7190 2.5717 -1.8408 0.9835
-3.0987 2.0271 -1.8213 0.9836
-3.4035 1.4433 -1.8184 0.9837
-2.5042 0.5674 -1.2629 0.9886
-2.3022 -0.1026 -1.1335 0.9898
-2.3108 -0.3108 -1.1468 0.9897
-2.3142 -0.5243 -1.1671 0.9895
-2.3375 -0.9912 -1.2488 0.9887
-3.6797 -1.9635 -2.0514 0.9816
-3.4454 -2.7208 -2.1593 0.9806
-3.0852 -3.4885 -2.2906 0.9795
-2.5829 -4.2521 -2.4470 0.9781
-2.2731 -4.6256 -2.5350 0.9773
-1.9215 -4.9891 -2.6296 0.9764
-0.6007 -5.9708 -2.9516 0.9736
1.1227 -6.6555 -3.3198 0.9704
2.4609 -6.8402 -3.5755 0.9681
3.1661 -6.8227 -3.6995 0.9670
5.2799 -6.2451 -4.0224 0.9642
6.5358 -5.4020 -4.1706 0.9629
7.5148 -4.2277 -4.2410 0.9623
7.8655 -3.5440 -4.2433 0.9623
8.2474 -2.0628 -4.1815 0.9628
8.0204 0.1788 -3.9458 0.9649
7.7573 0.8678 -3.8393 0.9658
7.4190 1.5080 -3.7237 0.9668
7.0182 2.0917 -3.6020 0.9679
6.0804 3.0726 -3.3508 0.9701
4.5007 4.0707 -2.9848 0.9733
2.7339 4.2826 -2.4990 0.9776
2.2579 4.3471 -2.4093 0.9784
1.7976 4.3741 -2.3260 0.9791
1.3544 4.3661 -2.2485 0.9798
0.1442 4.3118 -2.1220 0.9810
-0.2406 4.3162 -2.1262 0.9809
-0.9553 4.0086 -2.0269 0.9818
-1.8726 3.4170 -1.9165 0.9828
-2.1384 3.1908 -1.8893 0.9830
-2.3850 2.9520 -1.8666 0.9832
-3.0108 2.1670 -1.8246 0.9836
-3.3344 1.5927 -1.8175 0.9837
-3.5826 0.9814 -1.8270 0.9836
-2.3061 0.4155 -1.1525 0.9896
-2.2658 0.2025 -1.1189 0.9899
-2.2358 0.0000 -1.1463 0.9900
-2.2416 -0.4038 -1.1677 0.9898
-2.2481 -0.6158 -1.1950 0.9896
-2.2593 -0.8414 -1.2360 0.9892
-3.3946 -2.4433 -2.1442 0.9814
-3.2492 -2.8097 -2.2022 0.9809
-3.0724 -3.1769 -2.2658 0.9803
-2.8626 -3.5431 -2.3352 0.9797
-2.0159 -4.6105 -2.5798 0.9776
-1.6555 -4.9449 -2.6734 0.9768
-1.2538 -5.2613 -2.7729 0.9760
1.3682 -6.3669 -3.3386 0.9712
1.9985 -6.4423 -3.4581 0.9701
2.6512 -6.4512 -3.5757 0.9691
3.3154 -6.3831 -3.6875 0.9682
3.9798 -6.2343 -3.7919 0.9673
4.6320 -6.0018 -3.8867 0.9665
5.2573 -5.6841 -3.9694 0.9658
5.8407 -5.2826 -4.0374 0.9652
7.4753 -2.9751 -4.1247 0.9645
7.7399 -1.5732 -4.0491 0.9651
7.7237 -0.8640 -3.9844 0.9657
7.4187 0.4966 -3.8118 0.9671
7.1473 1.1239 -3.7092 0.9680
6.8107 1.7035 -3.5992 0.9689
6.4206 2.2295 -3.4844 0.9699
5.9882 2.6982 -3.3672 0.9709
5.5242 3.1079 -3.2495 0.9719
5.0386 3.4588 -3.1332 0.9729
4.5398 3.7523 -3.0195 0.9739
3.5317 4.1774 -2.8044 0.9757
2.9539 4.2020 -2.6333 0.9772
2.3996 4.1563 -2.4605 0.9787
1.5123 4.2035 -2.2902 0.9801
1.0967 4.1858 -2.2184 0.9807
0.7030 4.1673 -2.1667 0.9812
-0.0471 4.2286 -2.1680 0.9812
-0.4128 4.1035 -2.1144 0.9816
-1.0847 3.7935 -2.0228 0.9824
-1.3912 3.6122 -1.9845 0.9828
-1.9464 3.2042 -1.9220 0.9833
-2.4261 2.7433 -1.8775 0.9837
-3.0076 1.9675 -1.8425 0.9840
-3.3037 1.4009 -1.8397 0.9840
-2.2318 0.0995 -1.1453 0.9900
-2.2377 -0.0998 -1.1483 0.9900
-2.2446 -0.3019 -1.1611 0.9899
-2.2425 -0.5081 -1.1788 0.9897
-2.2530 -0.7265 -1.2136 0.9894
-2.2673 -0.9614 -1.2625 0.9890
-2.3837 -1.2719 -1.3851 0.9879
-3.3257 -2.6263 -2.1725 0.9811
-2.7447 -3.7251 -2.3722 0.9794
-2.4817 -4.0855 -2.4506 0.9787
-2.1809 -4.4381 -2.5352 0.9780
-1.8408 -4.7796 -2.6258 0.9772
-1.4599 -5.1056 -2.7224 0.9764
-1.0372 -5.4113 -2.8247 0.9755
-0.5725 -5.6908 -2.9323 0.9746
0.4803 -6.1458 -3.1604 0.9727
1.6800 -6.4125 -3.3984 0.9706
2.9826 -6.4274 -3.6326 0.9687
4.3083 -6.1286 -3.8407 0.9669
5.5552 -5.4937 -4.0054 0.9655
6.6045 -4.5337 -4.1070 0.9646
7.5789 -2.6317 -4.1131 0.9646
7.7112 -1.9287 -4.0751 0.9649
7.6802 -0.5141 -3.9462 0.9660
7.5265 0.1677 -3.8596 0.9667
7.2918 0.8157 -3.7616 0.9676
6.2090 2.4711 -3.4260 0.9704
5.2835 3.2906 -3.1911 0.9724
4.7903 3.6125 -3.0759 0.9734
4.2879 3.8782 -2.9640 0.9743
3.7832 4.0903 -2.8564 0.9753
2.6659 4.1760 -2.5400 0.9780
2.1655 4.1692 -2.4085 0.9791
1.3024 4.1984 -2.2536 0.9804
0.8953 4.1660 -2.1845 0.9810
0.5178 4.2038 -2.1714 0.9811
-1.2404 3.7049 -2.0030 0.9826
-1.5372 3.5156 -1.9671 0.9829
-1.8147 3.3115 -1.9359 0.9832
-2.0733 3.0937 -1.9093 0.9834
-2.7375 2.3672 -1.8554 0.9839
-2.9221 2.1032 -1.8458 0.9839
-3.0885 1.8294 -1.8403 0.9840
-3.3661 1.2536 -1.8415 0.9840
-3.4770 0.9525 -1.8482 0.9839
-2.2093 0.1974 -1.1372 0.9901
-2.1765 0.0000 -1.1619 0.9902
-2.1789 -0.3925 -1.1819 0.9900
-2.1873 -0.5991 -1.2107 0.9898
-2.2033 -1.0524 -1.3035 0.9890
-3.3951 -2.0109 -2.1065 0.9823
-3.1368 -2.7125 -2.2138 0.9814
-2.9632 -3.0640 -2.2755 0.9809
-2.7579 -3.4134 -2.3427 0.9803
-2.2452 -4.0969 -2.4940 0.9790
-1.9347 -4.4249 -2.5781 0.9783
-1.1997 -5.0343 -2.7628 0.9768
1.2977 -6.0390 -3.2975 0.9724
1.8920 -6.0993 -3.4092 0.9715
2.5055 -6.0966 -3.5188 0.9706
3.1282 -6.0228 -3.6230 0.9697
4.3572 -5.6457 -3.8071 0.9682
4.9392 -5.3402 -3.8833 0.9676
5.9710 -4.5029 -3.9924 0.9667
6.3950 -3.9828 -4.0219 0.9664
7.1803 -2.1400 -3.9998 0.9666
7.2547 -0.8116 -3.8970 0.9674
7.1604 -0.1595 -3.8235 0.9680
6.7415 1.0600 -3.6431 0.9695
5.6779 2.5584 -3.3246 0.9722
5.2475 2.9522 -3.2143 0.9731
2.3921 4.1432 -2.5540 0.9785
1.9021 4.0989 -2.4123 0.9797
1.4693 4.0840 -2.3170 0.9805
1.0755 4.1050 -2.2654 0.9809
0.3266 4.1800 -2.2382 0.9812
-0.0455 4.0849 -2.1808 0.9816
-1.0502 3.6730 -2.0394 0.9828
-1.6268 3.3105 -1.9692 0.9834
-1.8875 3.1073 -1.9409 0.9836
-2.5609 2.4221 -1.8817 0.9841
-2.9203 1.9104 -1.8629 0.9843
-3.0731 1.6399 -1.8595 0.9843
-3.2079 1.3603 -1.8601 0.9843
-2.4373 0.5522 -1.3341 0.9887
-2.1681 0.2916 -1.1679 0.9901
-2.1765 -0.0970 -1.1631 0.9902
-2.1912 -0.7066 -1.2291 0.9896
-2.2447 -1.1979 -1.3583 0.9885
-3.2122 -2.5366 -2.1850 0.9816
-2.0946 -4.2624 -2.5354 0.9787
-1.3980 -4.8891 -2.7147 0.9772
0.4568 -5.8454 -3.1300 0.9738
1.0100 -5.9873 -3.2414 0.9728
2.1969 -6.1063 -3.4643 0.9710
2.8166 -6.0696 -3.5721 0.9701
3.4395 -5.9574 -3.6723 0.9693
4.0556 -5.7691 -3.7647 0.9685
4.6523 -5.5027 -3.8468 0.9679
6.1919 -4.2505 -4.0094 0.9665
6.5790 -3.7013 -4.0298 0.9664
7.2330 -1.8091 -3.9802 0.9668
7.0829 0.1578 -3.7821 0.9684
6.2617 1.8662 -3.4881 0.9708
5.8820 2.3410 -3.3796 0.9717
3.6156 3.9091 -2.8426 0.9761
3.1414 4.0704 -2.7448 0.9770
2.6604 4.1675 -2.6395 0.9778
2.1399 4.1199 -2.4784 0.9792
1.6792 4.0861 -2.3584 0.9802
1.2690 4.0907 -2.2864 0.9808
0.1383 4.1354 -2.2089 0.9814
-0.2246 4.0288 -2.1541 0.9819
-0.8945 3.7534 -2.0598 0.9827
-1.2013 3.5883 -2.0201 0.9830
-1.4896 3.4069 -1.9850 0.9833
-2.0110 3.0007 -1.9284 0.9838
-2.6575 2.2980 -1.8755 0.9842
-3.2685 1.2172 -1.8619 0.9843
-2.2057 0.3974 -1.1965 0.9899
-2.1202 -0.1894 -1.1823 0.9903
-2.1250 -0.3828 -1.1992 0.9902
-2.1288 -0.5831 -1.2259 0.9900
-2.1317 -0.7938 -1.2633 0.9896
-1.8585 -4.2507 -2.5766 0.9790
-1.1492 -4.8225 -2.7534 0.9776
-0.7402 -5.0753 -2.8487 0.9768
0.1835 -5.4886 -3.0500 0.9752
0.6943 -5.6370 -3.1544 0.9743
3.5403 -5.5457 -3.6542 0.9703
4.6526 -5.0303 -3.8056 0.9691
5.1588 -4.6658 -3.8632 0.9687
5.6154 -4.2348 -3.9062 0.9683
6.0115 -3.7440 -3.9333 0.9681
6.3374 -3.2024 -3.9436 0.9680
6.5858 -2.6211 -3.9368 0.9681
6.7520 -2.0123 -3.9130 0.9683
6.8338 -1.3890 -3.8731 0.9686
6.7510 -0.1504 -3.7504 0.9696
6.5955 0.4415 -3.6713 0.9702
6.3732 1.0021 -3.5831 0.9709
