ply
format ascii 1.0
element vertex 1583
property float32 x
property float32 y
property float32 z
property float32 I
end_header
9.0723 10.7308 1.2883 0.9451
-10.0435 -0.4479 0.9217 0.9604
-9.8791 -1.3286 0.9138 0.9608
9.7503 10.5420 1.3165 0.9440
8.4214 10.9120 1.2637 0.9461
-10.6628 0.0000 0.7991 0.9581
-10.1896 -1.8357 0.7759 0.9593
10.4675 10.3515 1.1032 0.9427
-3.8153 5.1782 0.4820 0.9745
9.7571 10.5492 1.0769 0.9440
-10.2025 -0.9117 0.5966 0.9598
-10.4590 -1.8843 0.6190 0.9583
-3.8288 5.1965 0.3759 0.9745
-10.4075 -0.4641 0.6068 0.9591
9.7639 10.5566 0.8375 0.9440
8.4327 10.9265 0.8039 0.9462
-10.4640 -0.9351 0.4368 0.9588
10.4824 10.3662 0.6130 0.9427
-3.8424 5.2150 0.2693 0.9744
10.4898 10.3736 0.3679 0.9427
-13.0482 6.9628 0.3688 0.9425
-13.6347 5.7816 0.3693 0.9425
8.4567 10.9577 0.3452 0.9461
-12.7599 7.5577 0.3698 0.9424
-13.3394 6.3717 0.3687 0.9426
-13.9358 5.1898 0.3709 0.9422
-14.9649 -0.0000 0.1244 0.9419
9.1170 10.7836 0.1174 0.9451
-10.2679 9.7113 0.1175 0.9450
-11.3666 7.4357 0.1129 0.9471
-11.8989 6.3495 0.1121 0.9475
-12.4323 5.2717 0.1122 0.9474
-12.9759 4.1842 0.1133 0.9469
-14.6295 0.6524 0.1217 0.9431
8.4623 10.9650 0.1151 0.9461
-9.3716 11.5993 0.1239 0.9421
-9.9786 10.3178 0.1193 0.9442
-10.5500 9.1229 0.1159 0.9457
-12.1649 5.8107 0.1120 0.9475
-13.2545 3.6308 0.1142 0.9465
-13.7037 2.4688 0.1157 0.9458
-13.6383 0.0000 -0.1134 0.9469
9.1232 10.7909 -0.1174 0.9450
-7.5640 12.4521 -0.1211 0.9434
-3.8837 5.2710 -0.0544 0.9741
-8.8373 9.9925 -0.1109 0.9480
-9.4005 8.8909 -0.1075 0.9496
-9.9317 7.8430 -0.1052 0.9506
-10.4407 6.8300 -0.1037 0.9513
-10.9359 5.8356 -0.1030 0.9516
-11.4250 4.8446 -0.1031 0.9516
-12.4142 2.8127 -0.1058 0.9504
-12.8235 1.7246 -0.1075 0.9496
-13.9293 -0.6211 -0.1159 0.9458
14.8768 1.6642 -0.1244 0.9419
-7.2027 13.1433 -0.1246 0.9418
-10.1884 7.3332 -0.1043 0.9510
-11.1808 5.3406 -0.1030 0.9516
-11.6695 4.3458 -0.1035 0.9514
-12.1632 3.3318 -0.1048 0.9508
-13.0869 1.1695 -0.1092 0.9488
-13.0230 -1.1637 -0.3261 0.9490
-14.1336 -3.8716 -0.3655 0.9431
8.2410 11.7230 -0.3574 0.9443
-5.0562 13.1281 -0.3508 0.9453
-6.9068 11.3702 -0.3318 0.9482
-3.8977 5.2900 -0.1639 0.9741
-8.1291 9.1917 -0.3060 0.9521
-8.6680 8.1982 -0.2975 0.9534
-9.1736 7.2443 -0.2915 0.9543
-10.5685 4.4814 -0.2863 0.9551
-11.0147 3.5518 -0.2886 0.9547
-11.4614 2.5968 -0.2931 0.9541
-12.7715 -0.5695 -0.3188 0.9501
-13.2833 -1.7864 -0.3343 0.9478
-13.8366 -3.1350 -0.3538 0.9448
14.8309 1.6591 -0.3722 0.9420
9.8127 10.6093 -0.3604 0.9438
8.4736 10.9796 -0.3459 0.9460
-4.6335 13.8396 -0.3640 0.9433
-5.4487 12.4615 -0.3392 0.9470
-6.5606 11.9715 -0.3404 0.9468
-7.8440 9.7086 -0.3113 0.9513
-8.4033 8.6890 -0.3015 0.9528
-10.3438 4.9408 -0.2859 0.9552
-11.2376 3.0783 -0.2906 0.9544
-11.6743 2.1032 -0.2958 0.9536
-11.5833 0.0000 -0.4816 0.9547
-12.0019 -1.0725 -0.5010 0.9529
-12.4392 -2.2410 -0.5255 0.9507
-12.9032 -3.5346 -0.5563 0.9478
-5.3308 10.8480 -0.5026 0.9528
-5.9692 9.8266 -0.4781 0.9550
-3.9118 5.3091 -0.2742 0.9739
-7.5255 8.5093 -0.4723 0.9555
-8.0410 7.6051 -0.4602 0.9567
-8.5224 6.7301 -0.4515 0.9575
-10.2401 3.3020 -0.4474 0.9578
-10.6438 2.4116 -0.4538 0.9572
-10.9874 1.4777 -0.4610 0.9566
-11.3788 0.5074 -0.4736 0.9554
-11.7907 -0.5258 -0.4907 0.9538
-12.2178 -1.6431 -0.5126 0.9518
-12.6673 -2.8700 -0.5401 0.9493
-13.1484 -4.2398 -0.5744 0.9462
-13.6734 -5.7983 -0.6176 0.9423
14.7877 1.6542 -0.6187 0.9422
8.4793 10.9869 -0.5771 0.9460
-4.2102 12.5751 -0.5514 0.9483
-7.2523 8.9763 -0.4798 0.9549
-7.7880 8.0528 -0.4658 0.9561
-8.2855 7.1647 -0.4555 0.9571
-9.1966 5.4471 -0.4444 0.9581
-10.4424 2.8605 -0.4502 0.9576
-10.7704 -0.0000 -0.6273 0.9578
-11.1282 -0.9944 -0.6507 0.9562
-11.8686 -3.2511 -0.7167 0.9519
-12.2617 -4.5663 -0.7621 0.9489
8.0910 11.5096 -0.8194 0.9452
-1.4724 14.6361 -0.8568 0.9428
-2.5436 13.2699 -0.7870 0.9473
-4.2347 10.9953 -0.6863 0.9539
-4.9205 10.0130 -0.6498 0.9563
-7.0047 7.9204 -0.6158 0.9585
-7.4978 7.0914 -0.6011 0.9595
-8.7973 4.6944 -0.5808 0.9608
-9.1887 3.8963 -0.5813 0.9608
-9.5664 3.0848 -0.5854 0.9605
-10.9487 -0.4882 -0.6383 0.9570
-11.3094 -1.5210 -0.6646 0.9553
-12.0626 -3.8897 -0.7382 0.9505
-12.4670 -5.2864 -0.7887 0.9472
8.4849 10.9942 -0.8089 0.9459
-5.2339 9.5506 -0.6343 0.9573
-8.1757 5.8845 -0.5867 0.9604
-8.5953 5.0910 -0.5818 0.9608
-9.7513 2.6712 -0.5889 0.9603
-10.1155 1.8224 -0.5986 0.9597
-10.6786 -1.9238 -0.8131 0.9574
-10.9860 -3.0094 -0.8536 0.9553
-11.2967 -4.2070 -0.9034 0.9528
8.0179 11.4055 -1.0448 0.9456
-1.3354 13.2741 -0.9998 0.9479
-2.3245 12.1270 -0.9253 0.9517
-3.1738 11.0996 -0.8651 0.9547
-5.1494 8.4772 -0.7433 0.9610
-6.5505 7.4068 -0.7410 0.9611
-7.4608 5.8917 -0.7124 0.9626
-8.2573 4.4063 -0.7014 0.9632
-8.6242 3.6570 -0.7020 0.9631
-9.3122 2.1099 -0.7155 0.9624
-9.6390 1.2963 -0.7289 0.9617
-9.9069 0.4418 -0.7432 0.9610
-10.2176 -0.4556 -0.7665 0.9598
-10.5252 -1.4155 -0.7959 0.9583
-10.8321 -2.4542 -0.8323 0.9564
-11.1407 -3.5924 -0.8772 0.9541
-12.1118 -7.9231 -1.0846 0.9436
14.7423 1.6491 -1.1117 0.9422
-0.7753 13.9043 -1.0436 0.9457
-1.8498 12.6835 -0.9605 0.9499
-3.5561 10.6216 -0.8394 0.9561
-4.8668 8.8808 -0.7589 0.9602
-5.9167 7.3232 -0.7055 0.9629
-6.7912 7.0220 -0.7321 0.9616
-7.2455 6.2655 -0.7178 0.9623
-8.0668 4.7780 -0.7026 0.9631
-8.4430 4.0329 -0.7012 0.9632
-8.8013 3.2776 -0.7038 0.9630
-9.7602 0.8721 -0.7344 0.9615
-4.4480 -0.0000 -0.4078 0.9823
-10.2238 -2.8006 -0.9718 0.9583
-10.9474 -6.4841 -1.1665 0.9502
-11.1779 -8.0454 -1.2626 0.9462
7.9458 11.3031 -1.2667 0.9460
1.1306 14.4694 -1.3306 0.9434
-0.1474 13.2313 -1.2131 0.9482
-2.1398 11.1631 -1.0420 0.9554
-2.9368 10.2705 -0.9793 0.9580
-4.8165 7.9290 -0.8505 0.9634
-3.9689 5.3866 -0.6134 0.9735
-6.6029 6.2450 -0.8332 0.9642
-7.4125 4.8490 -0.8121 0.9650
-8.7622 1.9853 -0.8237 0.9646
-4.2496 0.5715 -0.3931 0.9829
-10.0980 -2.2879 -0.9492 0.9593
-10.3480 -3.3368 -0.9968 0.9573
-10.5918 -4.4913 -1.0547 0.9548
-11.2918 -8.9171 -1.3191 0.9438
14.7196 1.6466 -1.3579 0.9422
8.4963 11.0090 -1.2749 0.9457
-0.7065 12.6704 -1.1634 0.9503
-2.5517 10.7075 -1.0091 0.9567
-3.9575 9.0511 -0.9056 0.9611
-6.3813 6.5983 -0.8415 0.9638
-6.8163 5.8943 -0.8261 0.9645
-7.2205 5.1970 -0.8156 0.9649
-7.5984 4.5006 -0.8096 0.9651
-7.9537 3.7992 -0.8081 0.9652
-8.2895 3.0871 -0.8110 0.9651
-8.6084 2.3581 -0.8183 0.9648
-4.1097 0.3672 -0.3783 0.9836
-9.3487 -1.6843 -1.0304 0.9625
-9.7551 -3.6328 -1.1291 0.9590
-10.1035 -5.9843 -1.2737 0.9539
-10.2511 -7.3783 -1.3700 0.9505
-10.3762 -8.9727 -1.4879 0.9463
7.8749 11.2022 -1.4852 0.9464
1.0262 13.1325 -1.4288 0.9484
-0.1349 12.1076 -1.3134 0.9525
-1.1251 11.1841 -1.2192 0.9558
-1.9818 10.3389 -1.1418 0.9585
-2.7320 9.5546 -1.0779 0.9608
-5.4423 6.1537 -0.8911 0.9675
-6.6307 5.2362 -0.9164 0.9666
-7.0034 4.5814 -0.9077 0.9669
-7.6772 3.2554 -0.9045 0.9670
-7.9834 2.5743 -0.9098 0.9668
-4.7637 1.0793 -0.5298 0.9805
-9.2389 -1.2425 -1.0111 0.9632
-9.6586 -3.1145 -1.1008 0.9600
-9.8480 -4.1760 -1.1603 0.9579
-10.0225 -5.3482 -1.2322 0.9553
-10.1798 -6.6593 -1.3194 0.9522
-10.3168 -8.1471 -1.4259 0.9485
14.7682 1.6521 -1.6119 0.9420
8.5020 11.0164 -1.5094 0.9455
-0.6488 11.6348 -1.2640 0.9542
-2.3688 9.9400 -1.1084 0.9597
-3.0739 9.1812 -1.0502 0.9618
-4.2639 7.7806 -0.9624 0.9649
-4.7688 7.1155 -0.9291 0.9661
-5.2278 6.4705 -0.9023 0.9671
-7.1803 4.2529 -0.9052 0.9670
-7.8326 2.9169 -0.9066 0.9669
-8.1299 2.2270 -0.9143 0.9667
-3.9948 0.7197 -0.4403 0.9838
-3.5692 -0.0000 -0.4473 0.9857
-3.7700 -0.3369 -0.4743 0.9849
-8.7981 -1.5851 -1.1203 0.9646
-9.3779 -5.5545 -1.3659 0.9570
-9.4636 -6.8115 -1.4612 0.9541
-9.5162 -8.2290 -1.5766 0.9505
-9.5272 -9.8511 -1.7174 0.9463
2.1874 12.9678 -1.6480 0.9484
-4.0107 5.4433 -0.8473 0.9731
-5.1445 5.8170 -0.9731 0.9692
-5.8951 5.5755 -1.0168 0.9678
-6.2796 4.9590 -1.0027 0.9683
-6.9671 3.7178 -0.9896 0.9687
-7.2757 3.0851 -0.9903 0.9686
-9.4245 -6.1652 -1.4113 0.9556
-9.4945 -7.4977 -1.5161 0.9524
1.5371 12.4804 -1.5758 0.9506
0.3871 11.5777 -1.4517 0.9544
-1.4568 9.9888 -1.2650 0.9601
-2.2098 9.2730 -1.1946 0.9623
-2.8777 8.5954 -1.1359 0.9641
-4.4975 6.7108 -1.0124 0.9680
-4.2692 5.2841 -0.8513 0.9730
-5.6911 5.8846 -1.0259 0.9675
-7.7003 2.1093 -1.0005 0.9683
-3.5366 0.3160 -0.4450 0.9858
-3.3945 -0.0000 -0.4828 0.9864
-3.5139 -0.3140 -0.5018 0.9858
-8.4525 -2.3154 -1.2465 0.9652
-8.7858 -6.3237 -1.5397 0.9572
-8.7850 -7.5967 -1.6519 0.9542
-8.7352 -9.0322 -1.7872 0.9505
-8.6236 -10.6735 -1.9517 0.9461
7.8777 11.2061 -1.9484 0.9462
4.9225 13.6823 -2.0682 0.9429
3.3344 12.7273 -1.8714 0.9482
-1.7255 9.0019 -1.3037 0.9636
-2.3961 8.3798 -1.2397 0.9654
-2.9969 7.7813 -1.1860 0.9669
-4.0769 5.5332 -0.9776 0.9726
-4.8764 5.5138 -1.0470 0.9707
-5.5935 5.2903 -1.0951 0.9694
-7.1841 2.3166 -1.0737 0.9700
-3.3671 0.4528 -0.4832 0.9864
-3.3610 0.1499 -0.4785 0.9865
-3.6292 -0.4881 -0.5209 0.9853
-8.3823 -1.8992 -1.2225 0.9659
-8.6292 -3.6591 -1.3332 0.9628
-8.7709 -5.7377 -1.4908 0.9585
-8.7669 -8.2917 -1.7164 0.9524
-8.6881 -9.8238 -1.8654 0.9484
-8.5392 -11.5895 -2.0476 0.9435
8.5136 11.0313 -1.9820 0.9453
4.0921 13.1917 -1.9645 0.9457
1.4116 11.4617 -1.6426 0.9544
0.3578 10.7014 -1.5230 0.9577
-0.5571 9.9921 -1.4234 0.9604
-2.0704 8.6876 -1.2703 0.9646
-3.2746 7.4892 -1.1626 0.9675
-3.7893 6.9147 -1.1215 0.9686
-4.2542 6.3477 -1.0869 0.9696
-4.2669 5.2812 -0.9657 0.9729
-6.1364 4.4167 -1.0754 0.9699
-6.4647 3.8291 -1.0687 0.9701
-6.7689 3.2332 -1.0670 0.9701
-7.0509 2.6258 -1.0702 0.9701
-7.3123 2.0030 -1.0784 0.9698
-3.6716 0.6614 -0.5306 0.9850
-3.3525 0.2996 -0.4787 0.9865
-3.2915 -0.0000 -0.5241 0.9868
-7.8655 -1.4170 -1.2726 0.9681
-7.9871 -2.1879 -1.3187 0.9670
-8.1545 -3.8951 -1.4390 0.9641
-8.1960 -5.8992 -1.6080 0.9599
-8.1554 -7.0522 -1.7168 0.9573
-8.0618 -8.3359 -1.8466 0.9541
7.8830 11.2137 -2.1827 0.9460
4.4617 12.4016 -2.0987 0.9480
3.0495 11.6396 -1.9160 0.9524
1.8438 10.9307 -1.7652 0.9561
-0.1073 9.6335 -1.5341 0.9617
-0.9085 9.0310 -1.4453 0.9639
-3.3482 6.8133 -1.2089 0.9697
-4.2431 5.7588 -1.1391 0.9714
-5.3200 5.0316 -1.1660 0.9708
-3.9744 0.9005 -0.6489 0.9836
-3.2600 0.1453 -0.5196 0.9869
-3.3344 -0.1487 -0.5315 0.9866
-8.1231 -3.4445 -1.4050 0.9649
-8.1159 -7.6760 -1.7788 0.9558
-7.7932 -10.5771 -2.0921 0.9482
3.7266 12.0133 -2.0029 0.9503
2.4237 11.2793 -1.8371 0.9543
1.3047 10.5928 -1.6995 0.9577
-1.9469 8.1695 -1.3373 0.9666
-2.5503 7.6173 -1.2791 0.9680
-3.0952 7.0788 -1.2302 0.9692
-3.5879 6.5470 -1.1888 0.9702
-4.2646 5.2783 -1.0806 0.9729
-5.1314 5.3059 -1.1754 0.9705
-6.1559 3.6461 -1.1393 0.9714
-6.4460 3.0790 -1.1375 0.9715
-3.2454 0.2900 -0.5188 0.9869
-7.4667 -1.3452 -1.3378 0.9697
-7.6438 -2.8466 -1.4382 0.9674
-7.6900 -3.6733 -1.5027 0.9660
-7.7032 -4.5626 -1.5787 0.9643
-7.6779 -5.5262 -1.6680 0.9623
-7.6072 -6.5782 -1.7733 0.9600
-7.4820 -7.7364 -1.8977 0.9572
-7.2901 -9.0231 -2.0454 0.9540
-6.6256 -12.0902 -2.4310 0.9455
7.8883 11.2212 -2.4186 0.9458
5.5602 11.9819 -2.3291 0.9478
-0.8532 8.4813 -1.5030 0.9660
-2.1316 7.4548 -1.3672 0.9690
-3.6254 5.9682 -1.2313 0.9720
-4.0362 5.4780 -1.1998 0.9727
-5.0707 4.7959 -1.2307 0.9720
-5.7261 3.7459 -1.2065 0.9726
-6.0154 3.2099 -1.2022 0.9727
-6.5247 2.1039 -1.2088 0.9725
-3.1779 0.4274 -0.5654 0.9871
-3.1644 0.1411 -0.5585 0.9872
-7.5206 -1.7039 -1.3597 0.9692
-7.6708 -3.2527 -1.4691 0.9667
-7.6958 -5.0344 -1.6215 0.9633
-7.6487 -6.0402 -1.7185 0.9612
-7.3953 -8.3620 -1.9683 0.9557
-7.1624 -9.7209 -2.1291 0.9521
-6.8332 -11.2489 -2.3208 0.9479
-6.3841 -12.9913 -2.5524 0.9429
6.3981 12.3185 -2.4476 0.9452
4.7894 11.6542 -2.2217 0.9501
3.4195 11.0233 -2.0351 0.9542
2.2393 10.4208 -1.8794 0.9576
0.3104 9.2854 -1.6382 0.9630
-1.1989 8.2204 -1.4648 0.9668
-1.8367 7.7074 -1.3971 0.9683
-2.4120 7.2043 -1.3396 0.9696
-3.8354 5.7229 -1.2148 0.9724
-4.2284 5.2335 -1.1864 0.9730
-4.8892 5.0554 -1.2401 0.9718
-5.2449 4.5354 -1.2226 0.9722
-5.5723 4.0107 -1.2106 0.9725
-6.1511 2.9381 -1.2020 0.9727
-6.4056 2.3855 -1.2053 0.9726
-4.2904 1.1753 -0.7844 0.9821
-3.4371 0.6192 -0.6158 0.9859
-3.1014 0.0000 -0.6002 0.9874
-3.3117 -0.5966 -0.6512 0.9864
-7.1891 -1.9693 -1.4425 0.9701
-7.2465 -2.6986 -1.4964 0.9690
-7.2188 -5.1959 -1.7212 0.9644
-7.1255 -6.1617 -1.8230 0.9623
-6.9773 -7.2144 -1.9422 0.9599
-5.5345 -12.6577 -2.6734 0.9453
6.6171 11.4611 -2.5610 0.9475
-0.0943 8.4654 -1.6383 0.9661
-0.8040 7.9921 -1.5544 0.9678
-2.5408 6.5970 -1.3681 0.9716
-3.4515 5.6820 -1.2865 0.9733
-4.3872 4.9607 -1.2816 0.9734
-4.8425 4.5800 -1.2899 0.9732
-5.7506 3.0686 -1.2614 0.9738
-6.0045 2.5461 -1.2621 0.9738
-6.2360 2.0108 -1.2680 0.9737
-3.6833 0.8345 -0.7309 0.9847
-3.2339 -0.4349 -0.6315 0.9868
-7.1500 -1.6200 -1.4187 0.9706
-7.2214 -2.3286 -1.4683 0.9696
-7.2639 -3.0802 -1.5269 0.9684
-7.2743 -3.8817 -1.5956 0.9670
-7.0589 -6.6762 -1.8802 0.9612
-6.8791 -7.7783 -2.0095 0.9586
-6.6225 -8.9881 -2.1605 0.9555
-6.2755 -10.3308 -2.3391 0.9519
-5.8157 -11.8346 -2.5518 0.9477
7.4825 11.7211 -2.6910 0.9449
5.8181 11.2017 -2.4427 0.9499
3.1577 10.1795 -2.0625 0.9575
2.0801 9.6798 -1.9160 0.9605
1.1316 9.1884 -1.7915 0.9630
0.2911 8.7046 -1.6854 0.9651
-0.4588 8.2280 -1.5947 0.9670
-1.1314 7.7576 -1.5171 0.9686
-5.0103 4.3326 -1.2818 0.9734
-5.3254 3.8330 -1.2698 0.9736
-6.1230 2.2802 -1.2644 0.9737
-4.1641 1.1407 -0.8355 0.9826
-3.3306 0.6000 -0.6549 0.9863
-3.0639 0.2738 -0.5953 0.9875
-3.0211 -0.0000 -0.6369 0.9877
-3.2303 -0.5820 -0.6920 0.9867
-6.8973 -3.2946 -1.6115 0.9692
-6.8732 -4.0710 -1.6841 0.9679
-6.8091 -4.9009 -1.7687 0.9663
-6.6986 -5.7925 -1.8670 0.9644
-6.5332 -6.7553 -1.9812 0.9623
-5.9891 -8.9364 -2.2680 0.9570
9.4505 11.1781 -3.0859 0.9419
7.6164 10.8344 -2.7920 0.9473
3.4748 9.6583 -2.1639 0.9589
2.4216 9.2429 -2.0144 0.9617
-0.0888 7.9773 -1.6819 0.9679
-0.7599 7.5535 -1.6005 0.9694
-1.9176 6.7061 -1.4704 0.9719
-2.4144 6.2688 -1.4162 0.9729
-3.2925 5.4202 -1.3370 0.9744
-3.6743 4.9869 -1.3059 0.9750
-4.2878 4.8483 -1.3645 0.9739
-4.9496 3.9086 -1.3296 0.9745
-5.2403 3.4281 -1.3202 0.9747
-5.7497 2.4381 -1.3166 0.9748
-5.9702 1.9251 -1.3225 0.9747
-3.5520 0.8048 -0.7678 0.9852
-2.9940 0.1335 -0.6318 0.9878
-3.0505 -0.1360 -0.6438 0.9876
-6.8121 -1.5435 -1.4725 0.9719
-6.8688 -2.2149 -1.5215 0.9709
-6.7601 -5.3384 -1.8160 0.9654
-6.1554 -8.3543 -2.1877 0.9585
-5.7991 -9.5466 -2.3549 0.9554
-5.3374 -10.8613 -2.5513 0.9517
-3.9900 -13.9539 -3.0597 0.9424
8.4976 11.0106 -2.9322 0.9447
6.7991 10.6506 -2.6639 0.9497
5.3316 10.2652 -2.4386 0.9538
2.9319 9.4514 -2.0862 0.9604
-1.0707 7.3417 -1.5642 0.9701
-1.6486 6.9179 -1.4993 0.9713
-2.1714 6.4856 -1.4419 0.9724
-3.0853 5.6299 -1.3534 0.9741
-3.8537 4.7698 -1.2928 0.9752
-5.0981 3.6694 -1.3242 0.9746
-5.6310 2.6897 -1.3156 0.9748
-5.8627 2.1833 -1.3189 0.9748
-4.0001 1.0957 -0.8744 0.9832
-2.9710 0.0000 -0.6781 0.9879
-6.5579 -2.4422 -1.5972 0.9717
-6.5559 -3.1315 -1.6583 0.9706
-6.4410 -4.6359 -1.8113 0.9680
-6.1384 -6.3471 -2.0154 0.9644
-5.8958 -7.2974 -2.1413 0.9622
-5.1717 -9.4371 -2.4562 0.9568
-4.6570 -10.6508 -2.6532 0.9534
-4.0109 -11.9800 -2.8835 0.9495
-3.2034 -13.4422 -3.1540 0.9449
10.3704 10.2555 -3.3289 0.9419
6.9467 9.8818 -2.7570 0.9516
4.3220 9.3135 -2.3435 0.9587
3.2332 8.9869 -2.1799 0.9616
2.2641 8.6419 -2.0390 0.9640
1.3972 8.2835 -1.9174 0.9661
0.6185 7.9152 -1.8121 0.9680
-0.0840 7.5395 -1.7209 0.9695
-0.7201 7.1581 -1.6420 0.9709
-1.8214 6.3701 -1.5122 0.9732
-2.3017 5.9762 -1.4617 0.9741
-3.1447 5.1769 -1.3825 0.9755
-3.5151 4.7707 -1.3525 0.9760
-4.7448 3.7469 -1.3799 0.9755
-5.2811 2.8181 -1.3663 0.9757
-3.4289 0.7769 -0.8025 0.9857
-2.9625 0.3984 -0.6823 0.9878
-2.9453 0.1313 -0.6729 0.9880
-3.0959 -0.4164 -0.7130 0.9873
-6.5611 -2.7821 -1.6266 0.9712
-6.5418 -3.4909 -1.6924 0.9700
-6.4851 -4.2424 -1.7688 0.9687
-6.3854 -5.0425 -1.8571 0.9672
-5.3873 -8.8687 -2.3684 0.9583
-4.9292 -10.0306 -2.5509 0.9552
-3.6295 -12.6932 -3.0133 0.9473
7.7162 9.9983 -2.8826 0.9495
6.2264 9.7535 -2.6411 0.9536
4.9176 9.4680 -2.4351 0.9572
3.7614 9.1529 -2.2586 0.9602
1.8188 8.4641 -1.9760 0.9651
0.9977 8.1004 -1.8628 0.9671
0.2584 7.7281 -1.7649 0.9688
-1.0159 6.9657 -1.6067 0.9715
-1.5676 6.5778 -1.5434 0.9726
-2.0669 6.1736 -1.4860 0.9736
-2.5263 5.7779 -1.4393 0.9745
-5.6220 2.0936 -1.3693 0.9757
-3.8725 1.0608 -0.9164 0.9837
-3.1659 0.5704 -0.7342 0.9869
-2.9221 -0.0000 -0.7183 0.9880
-6.2384 -1.7089 -1.5899 0.9737
-6.2573 -2.3303 -1.6412 0.9729
-6.2444 -2.9827 -1.7010 0.9719
-6.1962 -3.6700 -1.7701 0.9708
-5.9739 -5.1658 -1.9413 0.9680
-5.5376 -6.8539 -2.1658 0.9644
-5.2179 -7.7857 -2.3038 0.9621
-4.8144 -8.7852 -2.4624 0.9596
-4.3114 -9.8604 -2.6452 0.9566
-3.6896 -11.0199 -2.8565 0.9533
-2.9247 -12.2727 -3.1011 0.9494
-1.9875 -13.6278 -3.3852 0.9449
11.1580 9.2223 -3.5582 0.9421
6.3813 9.0776 -2.7274 0.9553
4.0193 8.6613 -2.3470 0.9614
0.5845 7.4796 -1.8441 0.9696
-1.7370 6.0745 -1.5530 0.9743
-2.6217 5.3351 -1.4611 0.9758
-3.0108 4.9564 -1.4255 0.9764
-3.3685 4.5718 -1.3958 0.9769
-4.2595 4.0286 -1.4411 0.9761
-4.5549 3.5970 -1.4266 0.9764
-5.0717 2.7064 -1.4130 0.9766
-5.4965 1.7724 -1.4195 0.9765
-2.9494 -0.1315 -0.7257 0.9879
-3.0389 -0.4087 -0.7537 0.9874
-3.1571 -0.7153 -0.7957 0.9868
-6.2550 -2.6524 -1.6700 0.9724
-5.8871 -5.5680 -1.9917 0.9672
-5.6700 -6.4112 -2.1038 0.9654
-5.3874 -7.3118 -2.2324 0.9633
-4.5765 -9.3128 -2.5506 0.9582
-4.0167 -10.4291 -2.7470 0.9550
-1.4433 -14.3464 -3.5441 0.9423
10.2349 9.2569 -3.3921 0.9447
4.5607 8.7808 -2.4321 0.9601
2.5615 8.2572 -2.1250 0.9650
0.9413 7.6429 -1.8928 0.9688
0.2445 7.3134 -1.7986 0.9703
-1.4907 6.2555 -1.5807 0.9739
-1.9726 5.8919 -1.5272 0.9747
-2.4145 5.5222 -1.4814 0.9755
-3.1934 4.7648 -1.4099 0.9767
-3.7635 4.6581 -1.4720 0.9756
-4.4104 3.8138 -1.4332 0.9763
-4.6931 3.3779 -1.4213 0.9765
-3.8036 1.0419 -0.9694 0.9839
-2.8807 0.2574 -0.7109 0.9882
-2.9343 -0.2622 -0.7763 0.9879
-5.8054 -4.1785 -1.8848 0.9708
-5.6630 -4.8970 -1.9727 0.9695
-5.2179 -6.4583 -2.1878 0.9662
-4.5009 -8.2132 -2.4678 0.9620
8.5351 8.4405 -3.1630 0.9516
7.1472 8.4537 -2.9170 0.9552
4.7711 8.2636 -2.5143 0.9613
3.7542 8.0901 -2.3501 0.9638
-0.0756 6.7860 -1.7882 0.9723
-0.6511 6.4725 -1.7141 0.9735
-1.1764 6.1371 -1.6466 0.9745
-2.5112 5.1102 -1.5003 0.9767
-3.7814 4.2757 -1.5040 0.9767
-4.0927 3.8708 -1.4844 0.9770
-4.6392 3.0349 -1.4608 0.9773
-5.0917 2.1591 -1.4573 0.9774
-2.8316 0.3808 -0.7528 0.9883
-2.9007 -0.1294 -0.7651 0.9881
-3.0953 -0.7013 -0.8363 0.9870
-5.9798 -1.9282 -1.6556 0.9743
-5.8591 -3.8329 -1.8449 0.9715
-5.7401 -4.5329 -1.9273 0.9702
-5.5731 -5.2710 -2.0213 0.9688
-4.7104 -7.7544 -2.3907 0.9632
-4.2685 -8.6862 -2.5502 0.9608
-3.7271 -9.6772 -2.7325 0.9580
-2.2717 -11.8516 -3.1797 0.9513
-1.3118 -13.0394 -3.4532 0.9472
-0.1592 -14.2931 -3.7665 0.9426
9.2862 8.3989 -3.2993 0.9495
7.8229 8.4580 -3.0358 0.9535
5.3197 8.3332 -2.6051 0.9599
3.2829 7.9885 -2.2758 0.9649
1.6131 7.5069 -2.0232 0.9687
0.8907 7.2311 -1.9198 0.9703
-0.3697 6.6309 -1.7500 0.9729
-0.9204 6.3114 -1.6807 0.9740
-1.4230 5.9712 -1.6175 0.9749
-2.3114 5.2863 -1.5203 0.9764
-3.0633 4.5707 -1.4499 0.9775
-3.6155 4.4750 -1.5159 0.9765
-3.9403 4.0743 -1.4935 0.9768
-4.5117 3.2474 -1.4648 0.9773
-4.7609 2.8199 -1.4580 0.9774
-3.7365 1.0235 -1.0208 0.9841
-3.0018 0.5408 -0.8037 0.9875
-2.9786 -0.5366 -0.8515 0.9875
-5.7237 -1.5679 -1.6697 0.9756
-5.7258 -2.1323 -1.7191 0.9749
-5.6964 -2.7209 -1.7762 0.9741
-5.6323 -3.3360 -1.8418 0.9732
-4.6140 -6.8846 -2.3318 0.9661
-3.7481 -8.5721 -2.6323 0.9619
-2.4866 -10.4342 -3.0180 0.9564
-1.6670 -11.4295 -3.2498 0.9531
12.2487 6.8911 -3.9542 0.9433
9.1815 7.5887 -3.3514 0.9517
6.6020 7.8088 -2.8771 0.9584
4.4540 7.7145 -2.5063 0.9637
3.5200 7.5854 -2.3528 0.9658
1.1777 6.9820 -1.9922 0.9710
-0.6209 6.1730 -1.7456 0.9745
-1.1239 5.8635 -1.6798 0.9755
-2.0150 5.2319 -1.5774 0.9770
-2.7717 4.5629 -1.5021 0.9781
-3.3079 4.4896 -1.5690 0.9771
-3.6358 4.1111 -1.5441 0.9775
-3.9371 3.7237 -1.5247 0.9777
-4.4656 2.9213 -1.5014 0.9781
-4.6948 2.5052 -1.4972 0.9781
-4.9016 2.0784 -1.4980 0.9781
-2.7751 0.3732 -0.7878 0.9884
-2.8062 0.1251 -0.7903 0.9884
-2.9298 -0.3940 -0.8317 0.9878
-3.0353 -0.6877 -0.8756 0.9872
-3.2049 -1.0335 -0.9474 0.9861
-5.6689 -3.0250 -1.8079 0.9737
-5.4601 -4.3118 -1.9575 0.9715
-5.2886 -5.0019 -2.0481 0.9702
-5.0647 -5.7267 -2.1510 0.9687
-4.7809 -6.4888 -2.2677 0.9671
-4.4286 -7.2905 -2.4000 0.9652
-3.4744 -9.0211 -2.7199 0.9606
-2.0945 -10.9268 -3.1303 0.9548
9.9016 7.4671 -3.4893 0.9498
8.4926 7.6810 -3.2218 0.9535
7.2038 7.7886 -2.9850 0.9569
4.9543 7.7608 -2.5905 0.9625
3.9762 7.6556 -2.4272 0.9648
3.0842 7.5050 -2.2829 0.9668
1.5257 7.1002 -2.0433 0.9703
0.2205 6.5966 -1.8570 0.9729
-0.8772 6.0147 -1.7102 0.9751
-1.3606 5.7094 -1.6514 0.9759
-1.8057 5.3935 -1.6003 0.9766
-2.2159 5.0679 -1.5562 0.9773
-2.9788 4.4447 -1.5054 0.9780
-3.7897 3.9185 -1.5338 0.9776
-4.0783 3.5266 -1.5170 0.9778
-4.5831 2.7146 -1.4987 0.9781
-4.8010 2.2932 -1.4970 0.9781
-3.6501 0.9999 -1.0648 0.9844
-2.7884 0.2491 -0.7877 0.9884
-2.7825 0.0000 -0.8330 0.9884
-2.8309 -0.2530 -0.8509 0.9882
-5.4537 -2.6050 -1.8094 0.9751
-5.3828 -3.1883 -1.8730 0.9742
-5.1225 -4.4296 -2.0274 0.9721
-4.3583 -6.5030 -2.3437 0.9678
-3.5153 -8.0396 -2.6269 0.9640
-2.9645 -8.8544 -2.7955 0.9618
-2.3111 -9.6978 -2.9846 0.9592
-1.5409 -10.5656 -3.1966 0.9564
-0.6385 -11.4507 -3.4334 0.9532
0.4127 -12.3425 -3.6972 0.9497
1.6288 -13.2251 -3.9893 0.9459
11.0754 6.2309 -3.8045 0.9483
9.7073 6.6637 -3.5250 0.9520
6.1300 7.2506 -2.8425 0.9611
3.3115 7.1360 -2.3552 0.9677
2.5184 7.0000 -2.2272 0.9694
1.7891 6.8288 -2.1134 0.9710
0.5005 6.4045 -1.9232 0.9735
-0.0686 6.1596 -1.8442 0.9746
-0.5923 5.8878 -1.7716 0.9756
-1.9333 5.0197 -1.6104 0.9778
-2.3135 4.7079 -1.5704 0.9783
-3.1823 4.3191 -1.6061 0.9778
-4.7235 2.0029 -1.5360 0.9788
-2.7619 0.1231 -0.8277 0.9885
-3.1092 -1.0026 -0.9780 0.9865
-5.4756 -2.3219 -1.7806 0.9755
-4.8046 -5.4327 -2.1713 0.9702
-3.7562 -7.6437 -2.5497 0.9651
-2.6515 -9.2728 -2.8873 0.9605
-1.1073 -11.0065 -3.3118 0.9549
-0.1325 -11.8966 -3.5618 0.9515
2.3035 -13.6563 -4.1462 0.9438
13.2656 5.2796 -4.2744 0.9421
11.7890 5.9573 -3.9544 0.9463
9.0551 6.8288 -3.3954 0.9537
1.4466 6.7320 -2.0615 0.9717
-0.3363 6.0307 -1.8083 0.9751
-0.8388 5.7511 -1.7400 0.9760
-1.3029 5.4675 -1.6827 0.9768
-1.7315 5.1717 -1.6328 0.9775
-3.6489 3.7729 -1.5714 0.9783
-4.4165 2.6159 -1.5368 0.9788
-2.7412 0.2450 -0.8239 0.9886
-2.7380 0.0000 -0.8695 0.9886
-2.9540 -0.8092 -0.9727 0.9872
-5.2697 -1.9624 -1.7858 0.9767
-5.2279 -2.4972 -1.8400 0.9760
-5.0397 -3.6274 -1.9720 0.9743
-2.1573 -9.0525 -2.9555 0.9617
-0.5901 -10.5829 -3.3662 0.9565
0.3792 -11.3411 -3.6038 0.9535
1.4871 -12.0747 -3.8637 0.9502
4.1497 -13.3775 -4.4482 0.9429
14.0021 2.2017 -4.5015 0.9422
13.8633 3.4675 -4.5384 0.9418
11.3349 5.1072 -3.9483 0.9492
10.0984 5.6813 -3.6798 0.9525
8.9089 6.1156 -3.4318 0.9557
7.7789 6.4294 -3.2051 0.9585
6.7141 6.6397 -2.9989 0.9611
2.3835 6.6251 -2.2361 0.9709
1.6979 6.4809 -2.1277 0.9723
1.0638 6.3064 -2.0311 0.9735
-1.0307 5.3770 -1.7387 0.9773
-2.6399 4.3460 -1.6149 0.9789
-4.3644 2.3289 -1.5710 0.9795
-4.5564 1.9321 -1.5718 0.9794
-4.7268 1.5242 -1.5773 0.9794
-2.6672 0.3587 -0.8547 0.9888
-2.7613 -0.1231 -0.8778 0.9885
-2.8255 -0.3800 -0.9054 0.9881
-2.9205 -0.6617 -0.9510 0.9875
-3.1071 -1.0019 -1.0368 0.9864
-5.2529 -2.2274 -1.8120 0.9763
-4.5678 -5.1649 -2.1897 0.9715
-3.5406 -7.2049 -2.5495 0.9669
-3.0543 -7.9302 -2.6989 0.9650
-1.0262 -10.1998 -3.2556 0.9579
0.9152 -11.7121 -3.7309 0.9519
2.0960 -12.4259 -4.0020 0.9485
3.4271 -13.0811 -4.2946 0.9448
11.9649 4.7619 -4.0897 0.9474
10.7118 5.4129 -3.8116 0.9509
9.4968 5.9146 -3.5531 0.9541
8.3361 6.2865 -3.3158 0.9571
7.2381 6.5464 -3.0994 0.9599
6.2071 6.7110 -2.9032 0.9624
5.2442 6.7951 -2.7260 0.9646
4.3484 6.8116 -2.5665 0.9667
3.5171 6.7715 -2.4233 0.9685
2.7469 6.6841 -2.2950 0.9701
2.0341 6.5572 -2.1803 0.9716
0.2005 5.9977 -1.9058 0.9751
-0.3210 5.7565 -1.8310 0.9761
-0.8032 5.5074 -1.7676 0.9769
-2.0445 4.6760 -1.6208 0.9788
-2.9012 4.3289 -1.6550 0.9784
-3.2218 3.9876 -1.6281 0.9787
-4.0352 2.9044 -1.5790 0.9794
-4.2601 2.5233 -1.5725 0.9794
-3.4729 0.9513 -1.1436 0.9850
-2.7749 0.4999 -0.8954 0.9882
-2.6951 0.2408 -0.8593 0.9887
-4.4687 -4.6206 -2.1597 0.9732
-3.9174 -5.8452 -2.3641 0.9707
-2.6136 -7.8065 -2.7659 0.9659
-0.5481 -9.8300 -3.3078 0.9593
0.3504 -10.4816 -3.5236 0.9567
1.3670 -11.0990 -3.7572 0.9539
3.7684 -12.1479 -4.2734 0.9477
13.5009 2.1229 -4.5918 0.9440
12.4898 3.1239 -4.3256 0.9471
10.3453 4.6613 -3.8124 0.9532
7.2189 5.9666 -3.1467 0.9613
6.2598 6.1904 -2.9579 0.9635
5.3528 6.3313 -2.7856 0.9656
4.5001 6.4014 -2.6290 0.9675
1.0139 6.0107 -2.0480 0.9746
0.4558 5.8314 -1.9653 0.9756
-0.0626 5.6207 -1.8886 0.9766
-0.5431 5.3987 -1.8230 0.9774
-1.4026 4.9054 -1.7142 0.9787
-1.7862 4.6377 -1.6698 0.9792
-2.1415 4.3579 -1.6314 0.9797
-2.6306 4.3307 -1.7025 0.9788
-2.9545 4.0098 -1.6734 0.9792
-3.7782 2.9836 -1.6175 0.9799
-4.2137 2.2485 -1.6047 0.9800
-4.3991 1.8654 -1.6054 0.9800
-2.6762 0.1193 -0.9001 0.9888
-2.7168 -0.1212 -0.9137 0.9886
-5.0755 -1.6367 -1.7918 0.9777
-5.0449 -2.1392 -1.8411 0.9771
-4.9825 -2.6588 -1.8975 0.9765
-4.8857 -3.1961 -1.9615 0.9757
-4.7509 -3.7517 -2.0339 0.9748
-4.5742 -4.3262 -2.1153 0.9738
-4.3510 -4.9197 -2.2066 0.9727
-3.3465 -6.8099 -2.5493 0.9685
-2.8776 -7.4714 -2.6900 0.9668
-2.3286 -8.1436 -2.8458 0.9649
-1.6909 -8.8211 -3.0177 0.9628
1.9211 -11.3888 -3.8805 0.9524
3.1220 -11.9166 -4.1389 0.9493
4.4441 -12.3527 -4.4107 0.9461
13.9741 1.5632 -4.7243 0.9424
11.9623 3.5651 -4.1938 0.9487
10.8862 4.3326 -3.9366 0.9518
6.7330 6.0896 -3.0502 0.9624
5.7996 6.2704 -2.8697 0.9646
4.0941 6.4132 -2.5564 0.9684
3.3222 6.3963 -2.4216 0.9700
2.6023 6.3324 -2.3002 0.9715
1.3089 6.0910 -2.0932 0.9741
0.7297 5.9243 -2.0055 0.9751
-0.7702 5.2812 -1.7931 0.9777
-1.1997 5.0343 -1.7388 0.9784
-2.7959 4.1718 -1.6873 0.9790
-3.1067 3.8452 -1.6609 0.9794
-3.3929 3.5082 -1.6398 0.9796
-3.6554 3.1610 -1.6237 0.9798
-4.3091 2.0583 -1.6045 0.9801
-4.4837 1.6697 -1.6075 0.9800
-2.7169 0.4894 -0.9275 0.9884
-2.6500 0.2368 -0.8939 0.9888
-2.6519 0.0000 -0.9403 0.9888
-2.6931 -0.2407 -0.9588 0.9886
-4.7398 -2.8074 -1.9534 0.9769
-4.0229 -4.9793 -2.2698 0.9732
-3.3713 -6.1519 -2.4875 0.9707
-2.9533 -6.7545 -2.6140 0.9692
-2.4653 -7.3636 -2.7535 0.9676
-1.9003 -7.9741 -2.9067 0.9658
-1.2513 -8.5793 -3.0743 0.9639
-0.5113 -9.1703 -3.2567 0.9618
0.3255 -9.7355 -3.4540 0.9595
2.3052 -10.7274 -3.8906 0.9545
6.0001 -11.5522 -4.6158 0.9463
13.5868 -0.3028 -4.8189 0.9440
12.9606 0.8676 -4.6059 0.9464
11.3524 2.8394 -4.1494 0.9515
10.4434 3.6263 -3.9200 0.9542
7.6337 5.2403 -3.2832 0.9615
6.7291 5.5617 -3.0956 0.9636
5.8589 5.7939 -2.9218 0.9656
5.0288 5.9480 -2.7619 0.9675
4.2421 6.0344 -2.6155 0.9692
1.5386 5.8725 -2.1526 0.9746
0.9679 5.7386 -2.0636 0.9756
0.4352 5.5698 -1.9810 0.9766
-0.0600 5.3851 -1.9096 0.9774
-0.5211 5.1800 -1.8460 0.9781
-2.0680 4.2082 -1.6626 0.9803
-2.8507 3.8690 -1.7041 0.9798
-4.0716 2.1727 -1.6364 0.9806
-4.2507 1.8024 -1.6371 0.9806
-4.7851 -2.5534 -1.9232 0.9772
-4.6858 -3.0653 -1.9855 0.9765
-4.3730 -4.1360 -2.1343 0.9748
-4.1517 -4.6945 -2.2222 0.9738
-3.5561 -5.8542 -2.4288 0.9713
-3.1707 -6.4521 -2.5492 0.9700
-2.7185 -7.0585 -2.6821 0.9684
-0.8930 -8.8772 -3.1636 0.9628
0.7817 -10.0041 -3.5581 0.9583
4.0551 -11.2714 -4.2475 0.9504
5.3336 -11.4935 -4.4929 0.9476
6.6808 -11.5715 -4.7378 0.9449
8.0690 -11.4783 -4.9751 0.9422
13.2926 0.2962 -4.7145 0.9451
12.5958 1.4090 -4.4942 0.9476
9.0344 4.5652 -3.5892 0.9580
7.1776 5.4129 -3.1877 0.9626
3.8655 6.0552 -2.5473 0.9700
2.4709 6.0125 -2.3050 0.9728
1.2484 5.8095 -2.1070 0.9751
0.6963 5.6537 -2.0199 0.9761
-1.8948 4.3337 -1.6771 0.9801
-2.3319 4.2553 -1.7206 0.9796
-2.9984 3.7111 -1.6918 0.9800
-3.2760 3.3874 -1.6710 0.9802
-3.9742 2.3539 -1.6378 0.9806
-4.1638 1.9889 -1.6362 0.9806
-4.3323 1.6134 -1.6392 0.9806
-2.6623 0.4796 -0.9592 0.9886
-2.6060 0.2329 -0.9277 0.9890
-2.6101 -0.0000 -0.9746 0.9889
-2.6498 -0.2368 -0.9934 0.9887
-2.7171 -0.4895 -1.0309 0.9883
-2.7878 -0.7637 -1.0794 0.9877
-4.6913 -1.7471 -1.8693 0.9789
-4.6386 -2.2157 -1.9196 0.9783
-4.5543 -2.6976 -1.9766 0.9777
-4.0829 -4.2217 -2.1931 0.9752
-3.5502 -5.2972 -2.3812 0.9731
-3.2050 -5.8485 -2.4903 0.9719
-0.4788 -8.5871 -3.2115 0.9639
0.3037 -9.0814 -3.3930 0.9619
1.1739 -9.5319 -3.5862 0.9598
2.1322 -9.9224 -3.7897 0.9576
4.2932 -10.4469 -4.2175 0.9529
6.6938 -10.4857 -4.6453 0.9483
7.9262 -10.2703 -4.8443 0.9461
12.7986 -0.2852 -4.7803 0.9468
11.7580 0.7871 -4.4004 0.9509
10.3946 2.5998 -4.0010 0.9553
9.6072 3.3360 -3.7975 0.9575
6.2968 5.2044 -3.0505 0.9657
5.5023 5.4413 -2.8896 0.9675
4.7385 5.6047 -2.7406 0.9691
0.4169 5.3352 -1.9983 0.9774
-0.5006 4.9760 -1.8675 0.9789
-1.2989 4.5425 -1.7642 0.9800
-2.0566 4.1852 -1.7413 0.9803
-2.4484 4.0307 -1.7611 0.9801
-2.7529 3.7362 -1.7330 0.9804
-3.0338 3.4304 -1.7100 0.9806
-3.2921 3.1137 -1.6920 0.9808
-3.5284 2.7864 -1.6789 0.9810
-2.5436 0.5763 -0.9739 0.9889
-2.5325 0.3405 -0.9542 0.9891
-2.5921 0.1156 -0.9689 0.9890
-2.6781 -0.3602 -1.0090 0.9885
-4.3626 -3.4452 -2.0758 0.9765
-4.1867 -3.9597 -2.1518 0.9757
-3.9679 -4.4865 -2.2365 0.9748
-2.5745 -6.6846 -2.6748 0.9699
-2.0707 -7.2419 -2.8126 0.9684
-0.8378 -8.3279 -3.1254 0.9649
0.7277 -9.3131 -3.4882 0.9609
3.7252 -10.3544 -4.1091 0.9541
4.8767 -10.5090 -4.3261 0.9517
6.0801 -10.5311 -4.5408 0.9494
7.3106 -10.3995 -4.7468 0.9472
13.5794 -2.1352 -5.1330 0.9430
10.7673 2.1885 -4.1028 0.9542
10.0067 2.9823 -3.8990 0.9564
9.1994 3.6613 -3.6972 0.9586
8.3682 4.2286 -3.5011 0.9608
7.5314 4.6905 -3.3131 0.9628
6.7037 5.0555 -3.1352 0.9648
5.8961 5.3326 -2.9686 0.9666
5.1163 5.5316 -2.8136 0.9683
3.6588 5.7314 -2.5391 0.9714
2.9858 5.7485 -2.4188 0.9727
0.6664 5.4110 -2.0358 0.9770
0.1756 5.2534 -1.9628 0.9778
-1.1098 4.6570 -1.7877 0.9798
-1.4813 4.4245 -1.7423 0.9803
-2.2871 4.1735 -1.7771 0.9799
-3.6385 2.6189 -1.6740 0.9810
-4.1891 1.5600 -1.6692 0.9811
-2.5629 0.2290 -0.9608 0.9891
-2.6073 -0.2330 -1.0273 0.9888
-2.6685 -0.4808 -1.0642 0.9884
-2.7221 -0.7457 -1.1077 0.9879
-4.4667 -2.1336 -1.9428 0.9790
-4.3807 -2.5947 -1.9983 0.9784
-3.9109 -4.0439 -2.2079 0.9761
-3.3884 -5.0558 -2.3887 0.9742
-3.0527 -5.5704 -2.4930 0.9731
-1.6937 -7.1071 -2.8675 0.9691
-1.1083 -7.5989 -3.0139 0.9675
-0.4498 -8.0677 -3.1713 0.9659
1.9816 -9.2218 -3.7019 0.9603
2.9390 -9.4743 -3.8932 0.9583
5.0265 -9.6777 -4.2800 0.9542
7.2245 -9.3611 -4.6409 0.9505
11.0128 -6.8588 -5.0919 0.9458
12.0737 -4.8052 -5.1001 0.9457
12.3160 -3.6706 -5.0438 0.9463
11.9055 -0.2653 -4.6737 0.9501
8.1595 3.6765 -3.5124 0.9623
5.1829 5.1255 -2.8608 0.9692
4.4769 5.2953 -2.7215 0.9706
1.9531 5.4287 -2.2643 0.9755
0.3998 5.1169 -2.0143 0.9782
-1.5985 4.1503 -1.7455 0.9811
-2.0459 4.1633 -1.8206 0.9803
-2.3650 3.8933 -1.7878 0.9806
-3.1841 3.0115 -1.7201 0.9813
-3.4136 2.6957 -1.7071 0.9815
-4.1243 1.3299 -1.7007 0.9816
-2.5568 0.5793 -1.0289 0.9888
-2.5490 0.1137 -1.0014 0.9891
-2.5889 -0.1154 -1.0171 0.9889
-2.6312 -0.3539 -1.0420 0.9887
-2.7055 -0.6130 -1.0887 0.9882
-4.4980 -1.9073 -1.9175 0.9792
-4.3254 -2.8296 -2.0286 0.9780
-4.1883 -3.3075 -2.0946 0.9773
-4.0135 -3.7960 -2.1681 0.9765
-3.5369 -4.8002 -2.3401 0.9747
-3.2272 -5.3127 -2.4396 0.9736
-2.8642 -5.8286 -2.5489 0.9725
-2.4435 -6.3444 -2.6683 0.9712
-0.0923 -8.2903 -3.2539 0.9650
0.6802 -8.7044 -3.4266 0.9632
3.4417 -9.5663 -3.9901 0.9573
5.5728 -9.6524 -4.3743 0.9532
6.6754 -9.4958 -4.5556 0.9513
11.3459 -6.3831 -5.1093 0.9456
11.8785 -5.3522 -5.1133 0.9456
12.3123 -1.9360 -4.8916 0.9479
12.0818 -0.8088 -4.7524 0.9493
10.4891 1.1734 -4.1423 0.9557
9.9000 2.0123 -3.9649 0.9575
7.7868 3.9348 -3.4241 0.9632
6.2837 4.7386 -3.0888 0.9667
4.8262 5.2188 -2.7898 0.9699
4.1341 5.3567 -2.6556 0.9713
3.4709 5.4371 -2.5316 0.9727
1.6724 5.3911 -2.2153 0.9760
1.1396 5.3031 -2.1288 0.9770
0.6387 5.1855 -2.0506 0.9778
0.1686 5.0421 -1.9800 0.9786
-0.6840 4.6898 -1.8601 0.9798
-1.4282 4.2658 -1.7655 0.9809
-1.8012 4.1195 -1.7646 0.9809
-3.3014 2.8549 -1.7130 0.9814
-3.7186 2.2026 -1.6962 0.9816
-3.8962 1.8611 -1.6947 0.9816
-4.0534 1.5095 -1.6976 0.9816
-3.4629 0.9486 -1.4092 0.9847
-2.5207 0.2252 -0.9932 0.9892
-2.6410 -0.7235 -1.1276 0.9882
-2.6436 -0.9845 -1.1616 0.9879
-4.2178 -2.4982 -2.0186 0.9790
-3.9435 -3.4101 -2.1468 0.9777
-3.2389 -4.8328 -2.3956 0.9751
-2.0991 -6.2698 -2.7226 0.9718
-1.0473 -7.1807 -2.9882 0.9691
0.2671 -7.9876 -3.2910 0.9660
1.0255 -8.3267 -3.4547 0.9644
1.8493 -8.6061 -3.6247 0.9626
2.7333 -8.8114 -3.7989 0.9609
4.6425 -8.9384 -4.1475 0.9574
6.6299 -8.5906 -4.4684 0.9541
7.5949 -8.2115 -4.6059 0.9528
10.0262 -6.2444 -4.8639 0.9502
10.5883 -5.3505 -4.8851 0.9500
10.9905 -4.3741 -4.8709 0.9501
11.2222 -3.3446 -4.8219 0.9506
11.2818 -2.2931 -4.7406 0.9514
11.1762 -1.2503 -4.6309 0.9525
10.2367 0.6853 -4.2247 0.9566
4.2399 5.0149 -2.7042 0.9720
3.6062 5.1298 -2.5821 0.9732
1.8642 5.1815 -2.2675 0.9765
1.3420 5.1222 -2.1804 0.9774
0.8487 5.0315 -2.1011 0.9782
0.3839 4.9132 -2.0293 0.9789
-0.4634 4.6062 -1.9063 0.9802
-0.8478 4.4229 -1.8544 0.9807
-2.2860 3.7633 -1.8131 0.9811
-2.5729 3.4920 -1.7861 0.9814
-2.8379 3.2089 -1.7640 0.9816
-3.0816 2.9146 -1.7466 0.9818
-3.3045 2.6096 -1.7339 0.9820
-3.9931 1.2876 -1.7276 0.9820
-2.6388 0.5978 -1.1141 0.9884
-2.5068 0.1118 -1.0333 0.9892
-4.3373 -1.8392 -1.9399 0.9798
-4.1622 -2.7228 -2.0481 0.9787
-3.8521 -3.6433 -2.1833 0.9773
-3.6394 -4.1151 -2.2621 0.9765
-3.3838 -4.5926 -2.3490 0.9756
-2.3237 -6.0333 -2.6623 0.9724
-1.3341 -6.9600 -2.9182 0.9698
-0.7439 -7.3950 -3.0605 0.9684
1.4295 -8.4747 -3.5390 0.9635
3.1953 -8.8815 -3.8867 0.9600
7.1177 -8.4189 -4.5397 0.9534
8.0578 -7.9685 -4.6665 0.9522
8.9254 -7.3771 -4.7682 0.9511
11.1279 -3.8640 -4.8507 0.9503
11.2489 -1.7688 -4.6890 0.9519
8.5704 2.5543 -3.6825 0.9621
7.2721 3.6748 -3.3552 0.9654
6.5926 4.1060 -3.1982 0.9670
5.9086 4.4558 -3.0474 0.9685
5.2297 4.7300 -2.9037 0.9700
4.5650 4.9356 -2.7685 0.9713
3.9197 5.0789 -2.6418 0.9726
0.1620 4.8447 -1.9961 0.9792
-1.0306 4.3246 -1.8307 0.9810
-1.7953 4.1061 -1.8454 0.9808
-2.1341 3.8942 -1.8286 0.9810
-2.4322 3.6292 -1.7990 0.9813
-2.9624 3.0631 -1.7547 0.9817
-3.4082 2.4531 -1.7292 0.9820
-3.6005 2.1326 -1.7232 0.9821
-3.7727 1.8021 -1.7217 0.9821
-2.5181 0.4537 -1.0536 0.9890
-2.5389 -0.4574 -1.1128 0.9888
-2.5507 -0.6987 -1.1408 0.9885
-2.5687 -0.9566 -1.1824 0.9881
-4.1527 -1.9836 -1.9852 0.9802
-3.3720 -4.1736 -2.3145 0.9769
-3.1002 -4.6258 -2.4021 0.9760
-2.7827 -5.0778 -2.4977 0.9751
-2.4162 -5.5261 -2.6016 0.9741
-1.5237 -6.3937 -2.8352 0.9718
-0.4004 -7.1814 -3.1026 0.9692
0.9634 -7.8221 -3.3996 0.9663
3.4153 -8.3105 -3.8757 0.9616
5.2168 -8.1720 -4.1821 0.9586
9.1914 -5.7245 -4.6709 0.9539
9.7032 -4.9032 -4.6896 0.9537
10.3644 -2.1066 -4.5622 0.9550
9.7399 0.6520 -4.2108 0.9584
4.6305 4.5792 -2.8092 0.9720
2.3071 4.9716 -2.3642 0.9764
1.7837 4.9579 -2.2729 0.9773
1.2862 4.9093 -2.1891 0.9781
0.8147 4.8297 -2.1128 0.9789
0.3691 4.7226 -2.0433 0.9796
-0.0511 4.5911 -1.9805 0.9802
-0.8176 4.2656 -1.8735 0.9813
-1.5578 4.0446 -1.8696 0.9813
-1.9105 3.8879 -1.8686 0.9813
-2.2111 3.6400 -1.8371 0.9816
-2.4898 3.3793 -1.8106 0.9819
-2.9843 2.8225 -1.7719 0.9823
-3.3975 2.2225 -1.7513 0.9825
-3.8683 1.2473 -1.7532 0.9825
-2.4106 0.3242 -1.0492 0.9895
-2.4655 0.1099 -1.0645 0.9893
-2.5077 -0.1118 -1.0828 0.9891
-2.5277 -0.3400 -1.1001 0.9890
-2.5665 -0.8276 -1.1632 0.9883
-4.0089 -2.6225 -2.0664 0.9793
-3.8726 -3.0582 -2.1286 0.9787
-3.7012 -3.5006 -2.1975 0.9781
-3.2416 -4.3996 -2.3573 0.9765
-1.7677 -6.1821 -2.7736 0.9724
-0.7037 -6.9953 -3.0327 0.9698
-0.0820 -7.3585 -3.1743 0.9685
0.6002 -7.6802 -3.3230 0.9670
1.3409 -7.9494 -3.4775 0.9655
2.1362 -8.1538 -3.6359 0.9639
3.8591 -8.3162 -3.9547 0.9608
5.6701 -8.0658 -4.2529 0.9580
8.1957 -6.7739 -4.5865 0.9547
9.4641 -5.3244 -4.6841 0.9538
9.9070 -4.4639 -4.6872 0.9538
10.3433 -1.6264 -4.5165 0.9554
10.1961 -0.6826 -4.4080 0.9565
9.2166 1.0310 -4.0004 0.9604
6.8173 3.4449 -3.2948 0.9673
6.1964 3.8592 -3.1489 0.9687
5.5677 4.1988 -3.0081 0.9701
2.0422 4.9694 -2.3175 0.9769
1.0472 4.8731 -2.1501 0.9785
-0.2518 4.5171 -1.9515 0.9805
-1.3390 3.9995 -1.8193 0.9818
-1.7519 4.0067 -1.8863 0.9811
-3.8022 1.4160 -1.7502 0.9825
-3.9293 1.0763 -1.7574 0.9824
-2.4719 0.4453 -1.0835 0.9891
-2.4387 0.2179 -1.0561 0.9894
-2.4702 -0.6767 -1.1556 0.9888
-4.0088 -1.9149 -2.0046 0.9807
-3.4616 -3.5793 -2.2468 0.9784
-2.9711 -4.4333 -2.4081 0.9769
-2.6624 -4.8583 -2.4998 0.9760
-2.3077 -5.2778 -2.5991 0.9750
-1.9041 -5.6874 -2.7062 0.9740
-0.9414 -6.4551 -2.9435 0.9718
0.2377 -7.1077 -3.2089 0.9693
1.6275 -7.5735 -3.4953 0.9666
4.0160 -7.7321 -3.9314 0.9625
4.8500 -7.5974 -4.0670 0.9612
5.6759 -7.3545 -4.1918 0.9601
6.4734 -6.9989 -4.3017 0.9590
7.2204 -6.5305 -4.3929 0.9582
7.8948 -5.9537 -4.4617 0.9575
9.2886 -3.6968 -4.5109 0.9571
9.4992 -2.8311 -4.4725 0.9574
7.7070 1.9277 -3.5846 0.9657
7.2180 2.5064 -3.4477 0.9670
6.1284 3.4478 -3.1728 0.9696
5.5533 3.8121 -3.0393 0.9709
4.9721 4.1095 -2.9106 0.9721
4.3929 4.3442 -2.7877 0.9733
3.8224 4.5212 -2.6714 0.9744
3.2656 4.6453 -2.5621 0.9754
2.7261 4.7216 -2.4601 0.9764
2.2066 4.7551 -2.3653 0.9773
0.7829 4.6409 -2.1236 0.9796
-0.4305 4.2795 -1.9407 0.9813
-1.1293 3.9494 -1.8534 0.9821
-1.8481 3.7608 -1.8908 0.9818
-2.4109 3.2722 -1.8340 0.9823
-2.6614 3.0092 -1.8127 0.9825
-3.1022 2.4498 -1.7836 0.9828
-2.3568 0.3169 -1.0730 0.9896
-2.4105 0.1075 -1.0887 0.9895
-2.4395 -0.1088 -1.1018 0.9893
-2.4521 -0.3298 -1.1164 0.9892
-2.4782 -0.7991 -1.1749 0.9886
-2.4891 -1.0554 -1.2199 0.9882
-3.9682 -2.1175 -2.0295 0.9805
-3.7291 -2.9449 -2.1441 0.9794
-3.5598 -3.3668 -2.2108 0.9787
-2.4910 -5.0690 -2.5485 0.9755
-0.6671 -6.6316 -3.0074 0.9712
-0.0775 -6.9590 -3.1402 0.9699
1.2616 -7.4791 -3.4224 0.9673
2.0044 -7.6508 -3.5687 0.9659
2.7877 -7.7486 -3.7157 0.9645
3.6016 -7.7612 -3.8607 0.9631
4.4328 -7.6778 -4.0003 0.9618
6.8546 -6.7787 -4.3499 0.9586
8.1981 -5.6277 -4.4868 0.9573
8.7250 -4.9086 -4.5172 0.9570
9.1329 -4.1151 -4.5199 0.9570
9.4108 -3.2678 -4.4950 0.9572
9.5537 -2.3895 -4.4436 0.9577
9.4434 -0.6321 -4.2705 0.9593
8.8701 0.9923 -4.0273 0.9616
7.9403 1.6139 -3.6561 0.9651
7.4687 2.2259 -3.5165 0.9664
6.9570 2.7688 -3.3786 0.9677
6.4105 3.2394 -3.2409 0.9690
5.2629 3.9689 -2.9743 0.9715
4.6818 4.2344 -2.8484 0.9727
4.1062 4.4396 -2.7287 0.9738
1.9550 4.7571 -2.3207 0.9777
1.4687 4.7344 -2.2367 0.9785
1.0055 4.6794 -2.1596 0.9792
0.5660 4.5955 -2.0893 0.9799
0.1500 4.4860 -2.0253 0.9805
-0.2427 4.3535 -1.9674 0.9810
-1.3346 3.9863 -1.8968 0.9817
-2.2781 3.3991 -1.8464 0.9822
-2.5387 3.1422 -1.8227 0.9824
-2.9994 2.5937 -1.7892 0.9827
-3.5432 1.6925 -1.7718 0.9829
-3.6856 1.3725 -1.7746 0.9829
-2.3848 0.2131 -1.0804 0.9895
-2.4034 -0.8950 -1.2089 0.9887
-3.8726 -1.8498 -2.0230 0.9812
-3.7837 -2.2411 -2.0729 0.9807
-3.3303 -3.4435 -2.2581 0.9790
-3.1098 -3.8490 -2.3325 0.9784
-2.2070 -5.0476 -2.5968 0.9759
-1.3810 -5.7950 -2.8081 0.9740
-0.3597 -6.4520 -3.0460 0.9718
0.2250 -6.7288 -3.1736 0.9707
0.8572 -6.9599 -3.3055 0.9695
2.2479 -7.2465 -3.5764 0.9670
2.9926 -7.2821 -3.7112 0.9658
4.5270 -7.0913 -3.9657 0.9635
6.0190 -6.5077 -4.1785 0.9616
7.3216 -5.5214 -4.3226 0.9603
7.8546 -4.8919 -4.3618 0.9599
8.2871 -4.1877 -4.3767 0.9598
8.6072 -3.4256 -4.3668 0.9599
8.8079 -2.6250 -4.3323 0.9602
8.1044 1.2744 -3.8671 0.9644
7.2231 1.8066 -3.5097 0.9676
6.2978 2.8376 -3.2560 0.9699
5.7854 3.2547 -3.1290 0.9711
3.6406 4.3062 -2.6580 0.9754
1.6392 4.5561 -2.2824 0.9788
1.1855 4.5249 -2.2049 0.9795
0.3419 4.3756 -2.0689 0.9808
-0.0475 4.2635 -2.0098 0.9813
-1.1239 3.9305 -1.9270 0.9821
-2.8033 2.6513 -1.8188 0.9831
-3.1937 2.0892 -1.7989 0.9833
-3.3602 1.7931 -1.7954 0.9833
-3.6360 1.1724 -1.8008 0.9832
-2.2973 0.3089 -1.0926 0.9898
-2.3488 0.1047 -1.1083 0.9897
-2.3694 -0.1057 -1.1180 0.9896
-2.3894 -0.5414 -1.1548 0.9892
-3.7282 -2.4389 -2.1000 0.9805
-3.4268 -3.2411 -2.2234 0.9794
-2.9852 -4.0516 -2.3722 0.9780
-2.7059 -4.4546 -2.4568 0.9772
-2.3843 -4.8520 -2.5484 0.9764
-2.0182 -5.2403 -2.6470 0.9755
-1.6054 -5.6146 -2.7527 0.9745
-1.1443 -5.9697 -2.8652 0.9735
-0.6337 -6.2992 -2.9843 0.9724
0.5353 -6.8506 -3.2391 0.9701
1.1901 -7.0554 -3.3727 0.9689
3.3731 -7.2687 -3.7772 0.9652
5.6577 -6.6920 -4.1307 0.9620
7.0221 -5.8039 -4.2943 0.9605
7.5997 -5.2169 -4.3452 0.9601
8.4618 -3.8127 -4.3749 0.9598
8.8626 -2.2167 -4.3063 0.9604
8.8816 -1.3966 -4.2380 0.9610
8.7850 -0.5881 -4.1503 0.9618
8.5820 0.1912 -4.0463 0.9628
7.5852 1.5417 -3.6486 0.9664
7.0081 2.0886 -3.4470 0.9682
6.5438 2.6044 -3.3199 0.9693
6.0445 3.0544 -3.1923 0.9705
4.9857 3.7599 -2.9435 0.9728
4.4452 4.0204 -2.8252 0.9738
3.9070 4.2242 -2.7123 0.9749
2.3574 4.5388 -2.4109 0.9776
1.8737 4.5593 -2.3236 0.9784
1.4097 4.5444 -2.2429 0.9792
-0.2341 4.1991 -1.9824 0.9816
-0.5914 4.0554 -1.9318 0.9820
-1.3243 3.9556 -1.9663 0.9817
-1.9331 3.5275 -1.8961 0.9824
-2.4600 3.0448 -1.8451 0.9828
-2.6937 2.7853 -1.8265 0.9830
-3.1032 2.2336 -1.8023 0.9832
-3.4364 1.6414 -1.7951 0.9833
-3.5743 1.3311 -1.7979 0.9833
-3.6928 1.0116 -1.8048 0.9832
-2.3515 0.4236 -1.1263 0.9895
-2.3243 0.2077 -1.1000 0.9897
-2.2975 -0.0000 -1.1300 0.9898
-2.3082 -0.4159 -1.1536 0.9896
-2.3278 -0.8669 -1.2218 0.9890
-2.3666 -1.1304 -1.2900 0.9884
-3.6544 -2.1645 -2.0891 0.9812
-3.5366 -2.5455 -2.1432 0.9808
-3.3880 -2.9297 -2.2030 0.9802
-3.2067 -3.3157 -2.2688 0.9796
-2.7379 -4.0853 -2.4189 0.9783
-2.1134 -4.8334 -2.5947 0.9768
-0.8527 -5.8464 -2.9060 0.9740
1.4484 -6.7401 -3.3908 0.9697
2.8144 -6.8484 -3.6418 0.9675
3.5257 -6.7881 -3.7622 0.9665
4.2400 -6.6418 -3.8757 0.9655
6.2493 -5.6522 -4.1445 0.9631
8.2828 -1.6836 -4.1572 0.9630
8.2561 -0.9236 -4.0861 0.9636
7.9061 0.5292 -3.8973 0.9653
5.9459 2.6791 -3.2077 0.9713
5.4741 3.0797 -3.0893 0.9724
4.4807 3.7034 -2.8592 0.9744
2.9781 4.2364 -2.5470 0.9772
2.4948 4.3212 -2.4542 0.9780
2.0261 4.3660 -2.3674 0.9788
1.5739 4.3746 -2.2867 0.9795
1.1398 4.3506 -2.2121 0.9802
0.3296 4.2171 -2.0805 0.9813
-0.0458 4.1132 -2.0232 0.9818
-0.7375 3.8472 -1.9267 0.9827
-2.2641 3.0729 -1.8773 0.9831
-2.5010 2.8279 -1.8569 0.9833
-2.7189 2.5716 -1.8407 0.9835
-3.0986 2.0270 -1.8212 0.9836
-3.5276 1.1375 -1.8230 0.9836
-2.5042 0.5674 -1.2629 0.9886
-2.2513 0.3028 -1.1173 0.9899
-2.3109 -0.3108 -1.1468 0.9897
-2.3142 -0.5244 -1.1671 0.9895
-2.3173 -0.7472 -1.1976 0.9892
-2.3375 -0.9912 -1.2488 0.9887
-3.4662 -2.7373 -2.1724 0.9805
-3.3015 -3.1226 -2.2352 0.9799
-2.5970 -4.2753 -2.4604 0.9779
-1.5334 -5.3628 -2.7434 0.9754
-0.6030 -5.9939 -2.9630 0.9735
-0.0698 -6.2633 -3.0808 0.9725
3.8833 -6.7261 -3.8200 0.9660
4.5939 -6.5349 -3.9289 0.9650
5.9405 -5.8747 -4.1093 0.9634
7.0752 -4.8568 -4.2210 0.9625
7.8740 -3.5479 -4.2478 0.9622
8.2559 -2.0649 -4.1858 0.9628
8.2827 -1.3024 -4.1239 0.9633
8.2040 -0.5492 -4.0442 0.9640
8.0277 0.1789 -3.9494 0.9648
7.7640 0.8685 -3.8426 0.9658
6.5950 1.9655 -3.3848 0.9698
6.1715 2.4562 -3.2670 0.9708
5.2303 3.2574 -3.0307 0.9729
4.7326 3.5690 -2.9155 0.9739
4.2281 3.8241 -2.8040 0.9749
3.7235 4.0258 -2.6972 0.9759
3.2243 4.1778 -2.5957 0.9768
2.7348 4.2840 -2.4999 0.9776
1.3545 4.3665 -2.2486 0.9798
0.9299 4.3273 -2.1770 0.9805
-0.2260 4.0531 -1.9966 0.9821
-0.5714 3.9179 -1.9474 0.9825
-1.8725 3.4169 -1.9165 0.9828
-2.1384 3.1907 -1.8892 0.9830
-2.6123 2.7011 -1.8482 0.9834
-3.0106 2.1669 -1.8245 0.9836
-3.3343 1.5926 -1.8175 0.9837
-3.4679 1.2914 -1.8201 0.9836
-2.2658 0.2024 -1.1189 0.9899
-2.2443 -0.2006 -1.1552 0.9899
-2.2721 -1.0853 -1.2909 0.9887
-3.4149 -2.4579 -2.1571 0.9813
-2.8787 -3.5631 -2.3484 0.9796
-2.6321 -3.9273 -2.4238 0.9790
-2.3484 -4.2853 -2.5052 0.9783
-2.0260 -4.6336 -2.5926 0.9775
-1.6633 -4.9681 -2.6860 0.9767
-0.8134 -5.5770 -2.8894 0.9750
-0.3256 -5.8399 -2.9986 0.9741
0.2029 -6.0664 -3.1118 0.9731
0.7697 -6.2492 -3.2280 0.9721
1.3711 -6.3805 -3.3458 0.9711
2.0016 -6.4525 -3.4635 0.9701
3.3182 -6.3886 -3.6906 0.9682
4.6363 -6.0074 -3.8904 0.9665
7.2025 -3.6395 -4.1371 0.9644
7.6653 -2.2845 -4.1006 0.9647
7.7475 -1.5747 -4.0531 0.9651
7.7310 -0.8648 -3.9882 0.9656
7.4250 0.4971 -3.8151 0.9671
7.1530 1.1247 -3.7122 0.9680
6.8159 1.7048 -3.6019 0.9689
6.0331 2.0949 -3.2741 0.9717
5.1902 2.9200 -3.0531 0.9736
4.2649 3.5250 -2.8366 0.9754
2.8496 4.0536 -2.5403 0.9780
2.3910 4.1413 -2.4515 0.9787
1.5127 4.2045 -2.2908 0.9801
1.0969 4.1867 -2.2188 0.9807
0.6983 4.1400 -2.1524 0.9813
-1.0848 3.7937 -2.0228 0.9824
-1.3912 3.6123 -1.9845 0.9828
-1.9464 3.2042 -1.9220 0.9833
-2.8320 2.2364 -1.8500 0.9839
-3.0075 1.9674 -1.8425 0.9840
-3.3036 1.4009 -1.8396 0.9840
-3.4238 1.1040 -1.8443 0.9840
-2.2093 0.2971 -1.1428 0.9900
-2.2530 -0.7265 -1.2136 0.9894
-2.2673 -0.9614 -1.2625 0.9890
-2.3837 -1.2720 -1.3851 0.9879
-3.3454 -2.6419 -2.1854 0.9810
-2.9887 -3.3795 -2.3129 0.9799
-2.7599 -3.7458 -2.3853 0.9793
-2.4950 -4.1073 -2.4638 0.9786
-1.8497 -4.8028 -2.6386 0.9771
-1.4666 -5.1289 -2.7348 0.9763
-0.5747 -5.7126 -2.9434 0.9745
1.0664 -6.3218 -3.2868 0.9716
1.6831 -6.4244 -3.4048 0.9706
3.6515 -6.3245 -3.7440 0.9677
4.3123 -6.1343 -3.8442 0.9669
5.5607 -5.4991 -4.0094 0.9655
6.6113 -4.5384 -4.1112 0.9646
7.5866 -2.6343 -4.1172 0.9645
7.7189 -1.9306 -4.0791 0.9649
7.7513 -1.2188 -4.0227 0.9653
7.6873 -0.5146 -3.9498 0.9660
7.5332 0.1679 -3.8630 0.9667
7.2979 0.8164 -3.7647 0.9675
6.9919 1.4212 -3.6578 0.9684
5.8341 2.3219 -3.2191 0.9722
4.5004 3.3939 -2.8897 0.9750
4.0281 3.6432 -2.7845 0.9759
3.5538 3.8423 -2.6832 0.9767
1.7267 4.2016 -2.3288 0.9798
1.3027 4.1993 -2.2541 0.9804
0.8954 4.1667 -2.1849 0.9810
0.5058 4.1067 -2.1213 0.9816
0.1345 4.0219 -2.0631 0.9821
-0.5534 3.7947 -1.9660 0.9829
-1.5372 3.5157 -1.9671 0.9829
-2.0733 3.0936 -1.9092 0.9834
-2.5345 2.6206 -1.8690 0.9837
-2.9220 2.1032 -1.8457 0.9839
-3.0884 1.8293 -1.8402 0.9840
-3.2365 1.5459 -1.8388 0.9840
-3.3661 1.2536 -1.8415 0.9840
-3.4769 0.9524 -1.8482 0.9839
-2.2585 0.4069 -1.1765 0.9897
-2.2093 0.1974 -1.1372 0.9901
-2.1873 -0.5992 -1.2107 0.9898
-2.2033 -1.0524 -1.3035 0.9890
-3.2994 -2.3748 -2.1702 0.9817
-2.7731 -3.4323 -2.3556 0.9802
-1.5939 -4.7607 -2.6801 0.9775
-1.2049 -5.0560 -2.7747 0.9767
-0.7770 -5.3273 -2.8740 0.9759
-0.3105 -5.5690 -2.9776 0.9750
1.3005 -6.0520 -3.3046 0.9723
1.8951 -6.1092 -3.4147 0.9714
2.5081 -6.1031 -3.5225 0.9705
3.1307 -6.0277 -3.6260 0.9697
3.7524 -5.8780 -3.7228 0.9689
5.9768 -4.5073 -3.9963 0.9666
6.4013 -3.9867 -4.0258 0.9664
6.7495 -3.4106 -4.0371 0.9663
7.2695 -1.4776 -3.9601 0.9669
7.1666 -0.1597 -3.8268 0.9680
6.9923 0.4681 -3.7412 0.9687
6.4396 1.6107 -3.5436 0.9703
4.0656 3.3603 -2.8158 0.9764
3.6199 3.5798 -2.7178 0.9772
3.1731 3.7531 -2.6237 0.9780
2.2938 3.9730 -2.4491 0.9794
1.4551 4.0444 -2.2946 0.9807
1.0564 4.0321 -2.2252 0.9813
0.6733 3.9916 -2.1610 0.9818
0.3068 3.9254 -2.1020 0.9823
-0.0427 3.8361 -2.0480 0.9828
-0.7309 3.8131 -2.0727 0.9825
-1.0503 3.6731 -2.0395 0.9828
-1.3478 3.4996 -2.0020 0.9831
-3.0731 1.6398 -1.8595 0.9843
-3.2079 1.3603 -1.8601 0.9843
-3.3244 1.0720 -1.8647 0.9843
-2.4373 0.5522 -1.3341 0.9887
-2.1682 0.2916 -1.1679 0.9901
-2.1735 0.0969 -1.1615 0.9902
-2.1765 -0.0971 -1.1631 0.9902
-2.1810 -0.2933 -1.1748 0.9901
-2.2448 -1.1979 -1.3583 0.9885
-3.0714 -2.9049 -2.2568 0.9810
-2.6571 -3.6063 -2.3913 0.9799
-2.3991 -3.9495 -2.4669 0.9793
-1.7738 -4.6057 -2.6348 0.9779
-1.4043 -4.9110 -2.7268 0.9771
-0.5485 -5.4522 -2.9253 0.9755
0.4581 -5.8623 -3.1391 0.9737
1.5950 -6.0881 -3.3598 0.9719
2.8188 -6.0744 -3.5749 0.9701
3.4424 -5.9623 -3.6754 0.9693
5.2211 -5.1633 -3.9200 0.9673
6.1980 -4.2546 -4.0133 0.9665
7.2398 -1.8108 -3.9840 0.9667
7.2244 -0.4836 -3.8653 0.9677
7.0889 0.1580 -3.7853 0.9684
6.8779 0.7694 -3.6946 0.9691
6.6003 1.3415 -3.5955 0.9699
6.2661 1.8675 -3.4905 0.9708
5.5267 2.1996 -3.1755 0.9734
5.1357 2.5952 -3.0718 0.9742
4.2864 3.2325 -2.8660 0.9760
3.8433 3.4760 -2.7664 0.9768
2.5107 3.9329 -2.4909 0.9791
2.0796 4.0038 -2.4085 0.9798
1.2538 4.0420 -2.2592 0.9810
0.4879 3.9616 -2.1308 0.9821
-0.2110 3.7834 -2.0229 0.9830
-0.5505 3.7746 -2.0364 0.9829
-1.2014 3.5884 -2.0201 0.9830
-1.4896 3.4070 -1.9850 0.9833
-2.2444 2.7780 -1.9066 0.9839
-2.6574 2.2980 -1.8755 0.9842
-2.9989 1.7763 -1.8607 0.9843
-3.1427 1.5012 -1.8593 0.9843
-3.3757 0.9247 -1.8685 0.9843
-2.2057 0.3974 -1.1965 0.9899
-2.1547 0.1925 -1.1549 0.9902
-2.1192 -0.0000 -1.1770 0.9904
-2.1202 -0.1895 -1.1823 0.9903
-2.1288 -0.5831 -1.2259 0.9900
-2.1317 -0.7939 -1.2633 0.9896
-2.2265 -1.3188 -1.4373 0.9882
-3.1897 -2.2958 -2.1827 0.9822
