ply
format ascii 1.0
element vertex 1584
property float32 x
property float32 y
property float32 z
property float32 I
end_header
-2.5589 4.6694 -0.1328 0.9789
-7.2242 10.7793 -0.3236 0.9494
-7.8325 9.6944 -0.3108 0.9514
-8.3909 8.6761 -0.3010 0.9529
-9.4022 6.7673 -0.2889 0.9547
-11.2202 3.0735 -0.2901 0.9545
-12.4009 -2.2341 -0.5239 0.9508
9.2789 10.9751 -0.5976 0.9441
-4.8971 12.7150 -0.5665 0.9469
-5.6657 11.5294 -0.5341 0.9499
-6.3463 10.4474 -0.5083 0.9522
-7.5156 8.4981 -0.4717 0.9556
-8.0302 7.5950 -0.4596 0.9567
-8.5109 6.7210 -0.4509 0.9575
-8.9649 5.8646 -0.4454 0.9580
-9.8173 4.1629 -0.4434 0.9582
-10.2258 3.2974 -0.4467 0.9579
-10.9568 1.4735 -0.4597 0.9567
-11.3445 0.5058 -0.4722 0.9556
-11.7549 -0.5242 -0.4893 0.9540
-12.1803 -1.6381 -0.5110 0.9520
-13.6316 -5.7803 -0.6156 0.9424
9.9918 10.8031 -0.6119 0.9428
-3.3066 13.8752 -0.5931 0.9445
-4.1995 12.5434 -0.5500 0.9484
-2.5661 4.6825 -0.2220 0.9789
-6.6597 9.9371 -0.4974 0.9532
-7.2429 8.9646 -0.4792 0.9549
-7.7777 8.0421 -0.4652 0.9562
-8.2743 7.1551 -0.4548 0.9572
-10.8300 1.9511 -0.4576 0.9569
-11.1431 0.9957 -0.4652 0.9562
-11.0959 -0.9915 -0.6488 0.9563
-11.4592 -2.0645 -0.6782 0.9544
-2.5402 13.2524 -0.7859 0.9474
-3.4444 12.0461 -0.7297 0.9510
-4.2243 10.9682 -0.6846 0.9540
-4.9079 9.9875 -0.6482 0.9564
-5.8764 9.6739 -0.6593 0.9557
-6.4622 8.7706 -0.6345 0.9573
-6.9964 7.9111 -0.6151 0.9586
-7.4888 7.0829 -0.6004 0.9595
-7.9471 6.2758 -0.5898 0.9602
-8.3779 5.4806 -0.5831 0.9607
-8.7863 4.6886 -0.5800 0.9609
-9.5544 3.0809 -0.5847 0.9606
-9.9217 2.2480 -0.5925 0.9601
-10.9171 -0.4868 -0.6365 0.9572
-11.2765 -1.5165 -0.6627 0.9554
-12.0271 -3.8783 -0.7360 0.9506
-12.4302 -5.2709 -0.7864 0.9473
-12.8638 -6.8644 -0.8492 0.9433
-3.0100 12.6308 -0.7563 0.9493
-3.8479 11.4933 -0.7059 0.9526
-7.2473 7.4937 -0.6072 0.9591
-8.5846 5.0847 -0.5811 0.9608
-8.9837 4.2912 -0.5799 0.9609
-10.0351 0.0000 -0.7520 0.9605
-10.9554 -3.0010 -0.8512 0.9555
-11.5817 -5.5321 -0.9619 0.9498
-11.9093 -7.0539 -1.0373 0.9460
9.2940 10.9929 -1.0788 0.9439
-0.1624 14.5751 -1.0923 0.9432
-1.3347 13.2678 -0.9993 0.9479
-4.5570 9.2733 -0.7743 0.9594
-5.1373 8.4573 -0.7416 0.9611
-7.0149 6.6347 -0.7236 0.9620
-7.4526 5.8853 -0.7116 0.9626
-9.6280 1.2948 -0.7280 0.9618
-9.8797 0.4406 -0.7411 0.9611
-10.1895 -0.4544 -0.7644 0.9599
-10.8019 -2.4474 -0.8300 0.9565
-11.1097 -3.5824 -0.8748 0.9543
-11.4224 -4.8435 -0.9298 0.9515
-11.7437 -6.2665 -0.9975 0.9480
-12.0793 -7.9019 -1.0817 0.9437
-3.5502 10.6039 -0.8380 0.9561
-6.7838 7.0145 -0.7313 0.9616
-7.2375 6.2586 -0.7171 0.9623
-7.6605 5.5137 -0.7073 0.9628
-9.1346 2.5022 -0.7098 0.9627
-9.4660 1.7054 -0.7208 0.9622
-9.7331 0.8698 -0.7323 0.9616
-9.6842 -0.8654 -0.8914 0.9617
-10.1967 -2.7932 -0.9693 0.9584
-10.4429 -3.8890 -1.0216 0.9562
-10.9187 -6.4672 -1.1634 0.9503
-11.1497 -8.0251 -1.2594 0.9463
9.3015 11.0019 -1.3208 0.9438
1.1305 14.4676 -1.3304 0.9434
-0.1473 13.2281 -1.2128 0.9482
-2.9349 10.2640 -0.9787 0.9580
-3.6326 9.4320 -0.9266 0.9602
-4.2519 8.6524 -0.8838 0.9620
-4.8063 7.9123 -0.8487 0.9635
-5.6539 7.6736 -0.8738 0.9624
-6.1448 6.9480 -0.8503 0.9634
-6.5965 6.2389 -0.8324 0.9642
-7.4050 4.8441 -0.8112 0.9651
-7.7707 4.1466 -0.8075 0.9652
-8.4422 2.7223 -0.8132 0.9650
-8.7531 1.9832 -0.8228 0.9646
-4.2496 0.5715 -0.3931 0.9829
-4.0002 0.1784 -0.3671 0.9840
-10.3205 -3.3279 -0.9941 0.9574
-10.8017 -5.7640 -1.1224 0.9520
-11.0345 -7.2184 -1.2088 0.9484
-11.2638 -8.8949 -1.3158 0.9440
-1.6970 11.6354 -1.0780 0.9539
-2.5505 10.7024 -1.0086 0.9568
-3.2946 9.8404 -0.9514 0.9592
-3.9511 9.0366 -0.9042 0.9612
-2.5880 4.7224 -0.4937 0.9786
-5.9047 7.3083 -0.8614 0.9630
-6.3751 6.5919 -0.8407 0.9638
-6.8095 5.8884 -0.8253 0.9645
-7.5907 4.4960 -0.8088 0.9652
-7.9455 3.7953 -0.8073 0.9652
-4.9080 0.8842 -0.4572 0.9802
-3.7849 0.0000 -0.4105 0.9849
-9.5343 -2.6117 -1.0723 0.9610
-9.7304 -3.6236 -1.1262 0.9591
-9.9123 -4.7347 -1.1915 0.9568
-10.0783 -5.9694 -1.2705 0.9540
-10.3521 -8.9518 -1.4844 0.9464
9.3092 11.0110 -1.5640 0.9436
1.0262 13.1321 -1.4287 0.9484
-1.9811 10.3354 -1.1415 0.9585
-2.7309 9.5507 -1.0775 0.9608
-3.9838 8.1069 -0.9798 0.9643
-5.3197 7.2200 -0.9728 0.9646
-5.7908 6.5478 -0.9481 0.9654
-6.2241 5.8867 -0.9292 0.9661
-6.6247 5.2315 -0.9156 0.9666
-6.9970 4.5772 -0.9069 0.9669
-7.3444 3.9191 -0.9030 0.9671
-7.9759 2.5719 -0.9090 0.9668
-4.7637 1.0793 -0.5298 0.9805
-9.4313 -2.1369 -1.0489 0.9618
-9.8232 -4.1654 -1.1573 0.9580
-10.1547 -6.6429 -1.3162 0.9524
-10.2918 -8.1273 -1.4224 0.9486
-0.6486 11.6324 -1.2637 0.9542
-2.3679 9.9363 -1.1079 0.9597
-3.0725 9.1771 -1.0497 0.9618
-4.7600 7.1025 -0.9274 0.9662
-5.5604 6.8822 -0.9597 0.9650
-6.0118 6.2162 -0.9380 0.9658
-6.4282 5.5587 -0.9218 0.9664
-6.8141 4.9045 -0.9106 0.9668
-7.1736 4.2489 -0.9043 0.9670
-7.8253 2.9142 -0.9057 0.9670
-8.1222 2.2249 -0.9134 0.9667
-3.9948 0.7197 -0.4403 0.9838
-3.7414 0.3343 -0.4074 0.9850
-3.5692 -0.0000 -0.4473 0.9857
-3.7700 -0.3369 -0.4743 0.9849
-8.7766 -1.5812 -1.1176 0.9647
-9.1068 -3.3914 -1.2178 0.9616
-9.3556 -5.5413 -1.3626 0.9571
-9.5069 -9.8301 -1.7137 0.9464
9.3168 11.0200 -1.8084 0.9435
-0.1243 11.1559 -1.3981 0.9560
-1.0424 10.3623 -1.3051 0.9589
-1.8446 9.6232 -1.2279 0.9613
-3.1833 8.2653 -1.1099 0.9649
-4.2542 7.0034 -1.0269 0.9675
-4.7156 6.4002 -0.9962 0.9685
-6.6303 4.3374 -0.9929 0.9686
-7.5571 2.4368 -0.9950 0.9685
-4.3831 0.9931 -0.5632 0.9820
-3.5494 0.4774 -0.4488 0.9857
-8.6830 -1.1678 -1.0979 0.9653
-8.8659 -2.0087 -1.1392 0.9640
-9.0312 -2.9122 -1.1891 0.9625
-9.4023 -6.1507 -1.4080 0.9557
-9.4944 -10.7355 -1.7960 0.9439
2.8983 13.4876 -1.7288 0.9459
0.3871 11.5776 -1.4517 0.9544
-1.4565 9.9867 -1.2647 0.9601
-2.2092 9.2703 -1.1943 0.9623
-3.4724 7.9416 -1.0862 0.9657
-5.6865 5.8799 -1.0251 0.9676
-6.4557 4.6465 -0.9968 0.9684
-3.5366 0.3160 -0.4450 0.9858
-3.5138 -0.3140 -0.5018 0.9858
-8.4325 -2.3099 -1.2436 0.9653
-8.5562 -3.1864 -1.2987 0.9638
-8.6556 -4.1345 -1.3644 0.9620
-8.7272 -5.1691 -1.4427 0.9598
-8.7658 -7.5801 -1.6483 0.9543
-8.7169 -9.0132 -1.7835 0.9506
4.9257 13.6912 -2.0696 0.9429
3.3359 12.7328 -1.8722 0.9482
2.0019 11.8679 -1.7119 0.9525
0.8655 11.0758 -1.5802 0.9561
-0.1152 10.3411 -1.4710 0.9591
-0.9710 9.6524 -1.3798 0.9616
-2.3955 8.3778 -1.2394 0.9654
-2.9960 7.7789 -1.1857 0.9669
-3.5344 7.1924 -1.1399 0.9681
-5.1895 5.8679 -1.1142 0.9688
-5.5894 5.2864 -1.0943 0.9694
-5.9580 4.7050 -1.0798 0.9698
-6.2988 4.1205 -1.0706 0.9700
-6.6145 3.5296 -1.0664 0.9702
-6.9072 2.9289 -1.0671 0.9701
-3.4470 -0.1537 -0.4908 0.9862
-3.6292 -0.4881 -0.5209 0.9853
-8.3625 -1.8947 -1.2196 0.9660
-8.4972 -2.7400 -1.2699 0.9646
-8.6091 -3.6506 -1.3301 0.9629
-8.7511 -5.7248 -1.4874 0.9586
-8.7715 -6.9268 -1.5897 0.9558
-8.5234 -11.5681 -2.0438 0.9436
0.3578 10.7021 -1.5231 0.9577
-2.7037 8.0757 -1.2113 0.9662
-3.2723 7.4840 -1.1618 0.9675
-4.2480 6.3385 -1.0853 0.9696
-4.9767 6.1598 -1.1264 0.9685
-5.7774 4.9959 -1.0864 0.9696
-6.4597 3.8261 -1.0679 0.9701
-6.7636 3.2307 -1.0662 0.9702
-3.6717 0.6615 -0.5306 0.9850
-3.2915 0.0000 -0.5241 0.9868
-7.8475 -1.4138 -1.2697 0.9682
-8.1363 -3.8864 -1.4358 0.9641
-8.1785 -5.8865 -1.6046 0.9600
-8.0456 -8.3192 -1.8429 0.9542
-7.8876 -9.7626 -1.9985 0.9504
9.3323 11.0383 -2.3017 0.9431
0.8023 10.2665 -1.6398 0.9591
-1.6199 8.4508 -1.3702 0.9657
-3.8117 6.2750 -1.1691 0.9707
-4.9317 5.5764 -1.1854 0.9703
-5.3164 5.0283 -1.1652 0.9708
-5.6707 4.4782 -1.1506 0.9712
-6.2994 3.3615 -1.1370 0.9715
-6.8345 2.2039 -1.1435 0.9713
-3.4817 -0.4682 -0.5594 0.9859
-7.9111 -1.7925 -1.2917 0.9677
-8.0208 -2.5864 -1.3420 0.9664
-8.1049 -3.4368 -1.4018 0.9650
-8.1818 -5.3523 -1.5569 0.9612
-8.1643 -6.4473 -1.6566 0.9587
-7.4880 -12.3270 -2.2967 0.9433
5.2670 12.8164 -2.2065 0.9454
1.3050 10.5954 -1.6999 0.9577
-0.5202 9.3292 -1.4879 0.9629
-2.5497 7.6158 -1.2789 0.9680
-3.0930 7.0738 -1.2294 0.9692
-4.0296 6.0127 -1.1526 0.9711
-4.7269 5.8506 -1.1977 0.9700
-6.1515 3.6436 -1.1385 0.9715
-6.4414 3.0768 -1.1367 0.9715
-3.2454 0.2900 -0.5188 0.9869
-3.2817 -0.2932 -0.5809 0.9867
-7.5516 -2.0686 -1.3806 0.9687
-7.6735 -3.6653 -1.4995 0.9660
-7.4676 -7.7214 -1.8941 0.9573
-7.2767 -9.0065 -2.0417 0.9541
-7.0030 -10.4493 -2.2180 0.9502
-6.6245 -12.0883 -2.4306 0.9456
9.3401 11.0475 -2.5509 0.9429
7.3207 12.6797 -2.5816 0.9423
5.5653 11.9928 -2.3312 0.9477
2.8096 10.7243 -1.9548 0.9560
1.7092 10.1326 -1.8119 0.9591
0.7473 9.5639 -1.6915 0.9618
-0.1004 9.0146 -1.5896 0.9640
-0.8532 8.4816 -1.5031 0.9660
-1.5262 7.9621 -1.4295 0.9676
-3.1724 6.4556 -1.2683 0.9712
-4.0321 5.4725 -1.1986 0.9728
-4.6972 5.3112 -1.2502 0.9716
-5.7225 3.7435 -1.2058 0.9726
-6.2770 2.6617 -1.2022 0.9727
-6.5204 2.1026 -1.2080 0.9726
-3.2276 -0.1439 -0.5697 0.9870
-7.5928 -2.4484 -1.4067 0.9681
-7.6846 -4.1006 -1.5359 0.9652
-7.6331 -6.0279 -1.7150 0.9613
-7.5372 -7.1287 -1.8293 0.9587
-7.1514 -9.7060 -2.1258 0.9522
-6.8285 -11.2413 -2.3192 0.9480
-6.3869 -12.9971 -2.5535 0.9429
6.4047 12.3313 -2.4501 0.9451
4.7932 11.6635 -2.2235 0.9501
2.2403 10.4254 -1.8802 0.9576
1.2126 9.8456 -1.7492 0.9605
-0.4877 8.7463 -1.5446 0.9650
-1.1989 8.2203 -1.4648 0.9668
-1.8366 7.7068 -1.3970 0.9683
-2.4117 7.2035 -1.3395 0.9696
-2.9313 6.7042 -1.2902 0.9707
-4.4999 5.5696 -1.2625 0.9713
-5.2417 4.5327 -1.2219 0.9722
-5.5688 4.0082 -1.2098 0.9725
-5.8700 3.4768 -1.2030 0.9727
-6.1471 2.9362 -1.2012 0.9727
-3.1509 0.2816 -0.5578 0.9872
-3.1014 -0.0000 -0.6002 0.9874
-3.1775 -0.2840 -0.6173 0.9871
-7.1737 -1.9651 -1.4394 0.9702
-7.2311 -2.6929 -1.4932 0.9691
-7.2582 -3.4670 -1.5566 0.9678
-7.2510 -4.2948 -1.6309 0.9662
-7.2044 -5.1855 -1.7178 0.9645
-7.1117 -6.1498 -1.8194 0.9624
-6.9642 -7.2010 -1.9386 0.9600
-5.5381 -12.6661 -2.6752 0.9452
8.4348 11.9987 -2.8383 0.9420
6.6247 11.4743 -2.5640 0.9475
2.6026 9.9340 -1.9873 0.9590
-0.0943 8.4669 -1.6386 0.9661
-1.4423 7.5246 -1.4827 0.9693
-2.0192 7.0616 -1.4213 0.9705
-2.5422 6.6008 -1.3688 0.9716
-3.8444 5.2177 -1.2542 0.9739
-4.4827 5.0687 -1.3095 0.9728
-4.8398 4.5775 -1.2892 0.9732
-5.4701 3.5784 -1.2649 0.9737
-5.7472 3.0668 -1.2606 0.9738
-6.0009 2.5446 -1.2614 0.9738
-6.2323 2.0096 -1.2672 0.9737
-3.6833 0.8345 -0.7309 0.9847
-3.1048 0.4176 -0.6062 0.9873
-3.0751 0.1371 -0.5957 0.9875
-3.1272 -0.1395 -0.6058 0.9873
-3.2339 -0.4349 -0.6315 0.9868
-7.2330 -4.7316 -1.6726 0.9654
-7.1643 -5.6576 -1.7666 0.9635
-7.0454 -6.6636 -1.8766 0.9613
-5.8189 -11.8410 -2.5532 0.9477
-5.2171 -13.5460 -2.8091 0.9426
8.9484 11.5948 -2.8343 0.9421
5.8241 11.2132 -2.4452 0.9498
4.3955 10.6957 -2.2378 0.9540
3.1597 10.1858 -2.0638 0.9575
2.0811 9.6844 -1.9169 0.9604
0.2911 8.7065 -1.6858 0.9651
-1.1314 7.7579 -1.5172 0.9686
-1.7378 7.2925 -1.4508 0.9699
-2.7848 6.3691 -1.3452 0.9721
-4.2925 5.3129 -1.3218 0.9726
-4.6650 4.8236 -1.2986 0.9730
-5.0075 4.3302 -1.2811 0.9734
-5.3223 3.8308 -1.2690 0.9736
-5.8769 2.8072 -1.2604 0.9738
-6.1194 2.2789 -1.2637 0.9737
-3.3306 0.6000 -0.6549 0.9863
-3.0639 0.2738 -0.5953 0.9875
-3.0211 0.0000 -0.6369 0.9877
-3.2303 -0.5820 -0.6920 0.9867
-6.8720 -2.5592 -1.5460 0.9705
-6.8596 -4.0629 -1.6808 0.9679
-6.6860 -5.7816 -1.8635 0.9645
-6.2930 -7.7890 -2.1110 0.9599
-5.9865 -8.9324 -2.2669 0.9570
-5.5851 -10.1915 -2.4501 0.9536
-5.0628 -11.5790 -2.6642 0.9497
-4.3944 -13.1255 -2.9181 0.9450
9.3559 11.0662 -3.0550 0.9425
7.6270 10.8495 -2.7959 0.9472
3.4773 9.6654 -2.1655 0.9589
1.4889 8.8268 -1.8872 0.9641
0.6567 8.4033 -1.7770 0.9661
-2.4183 6.2790 -1.4185 0.9729
-2.8739 5.8484 -1.3738 0.9737
-3.6722 4.9840 -1.3051 0.9750
-4.2857 4.8460 -1.3639 0.9739
-4.6303 4.3794 -1.3436 0.9743
-4.9470 3.9066 -1.3289 0.9746
-5.5037 2.9369 -1.3152 0.9748
-5.7465 2.4368 -1.3159 0.9748
-3.5520 0.8048 -0.7678 0.9852
-3.0346 0.4081 -0.6455 0.9876
-3.1545 -0.4242 -0.6710 0.9871
-6.8545 -2.2103 -1.5184 0.9710
-6.8818 -2.9181 -1.5759 0.9699
-6.8761 -3.6692 -1.6431 0.9686
-6.6113 -6.2529 -1.9184 0.9635
-6.4162 -7.2550 -2.0418 0.9612
-5.7989 -9.5462 -2.3548 0.9554
-5.3403 -10.8673 -2.5527 0.9517
-4.7490 -12.3304 -2.7856 0.9474
4.0568 9.8714 -2.2500 0.9573
1.9421 9.0379 -1.9489 0.9629
1.0611 8.6152 -1.8300 0.9651
0.2739 8.1912 -1.7278 0.9671
-0.4330 7.7667 -1.6399 0.9687
-1.6486 6.9182 -1.4993 0.9713
-2.1742 6.4942 -1.4438 0.9724
-2.6513 6.0638 -1.3952 0.9733
-4.7921 4.1438 -1.3356 0.9744
-5.3736 3.1828 -1.3167 0.9748
-5.8595 2.1821 -1.3182 0.9748
-3.2435 0.5844 -0.6948 0.9866
-6.5059 -3.8534 -1.7259 0.9695
-6.4289 -4.6272 -1.8079 0.9680
-6.3059 -5.4530 -1.9028 0.9664
-6.1296 -6.3381 -2.0125 0.9645
-5.8908 -7.2911 -2.1394 0.9623
10.3893 10.2742 -3.3350 0.9418
6.9561 9.8951 -2.7607 0.9516
3.2356 8.9935 -2.1815 0.9615
2.2654 8.6470 -2.0402 0.9640
1.3979 8.2873 -1.9182 0.9661
0.6187 7.9179 -1.8127 0.9679
-0.7202 7.1594 -1.6423 0.9709
-1.8251 6.3831 -1.5153 0.9731
-2.9071 4.7858 -1.2781 0.9773
-3.5609 4.8329 -1.3702 0.9757
-4.1042 4.6407 -1.4140 0.9749
-4.4369 4.1965 -1.3939 0.9753
-2.9625 0.3985 -0.6823 0.9878
-2.9453 0.1313 -0.6729 0.9880
-3.0959 -0.4163 -0.7130 0.9873
-6.4894 -1.4703 -1.5187 0.9731
-6.5337 -2.1068 -1.5669 0.9722
-6.5480 -2.7766 -1.6234 0.9712
-6.3735 -5.0332 -1.8536 0.9672
-6.2250 -5.8876 -1.9556 0.9655
-6.0187 -6.8055 -2.0736 0.9634
-5.7443 -7.7962 -2.2103 0.9610
-5.3884 -8.8706 -2.3689 0.9583
-3.6331 -12.7059 -3.0163 0.9472
7.7277 10.0130 -2.8869 0.9494
4.9225 9.4775 -2.4376 0.9571
3.7645 9.1604 -2.2605 0.9602
0.2585 7.7305 -1.7654 0.9688
-1.0160 6.9667 -1.6069 0.9715
-2.0707 6.1848 -1.4887 0.9736
-2.5291 5.7843 -1.4409 0.9744
-3.9269 4.8604 -1.4262 0.9747
-4.5930 3.9718 -1.3859 0.9754
-4.8857 3.5165 -1.3739 0.9756
-5.1535 3.0524 -1.3671 0.9757
-3.8725 1.0608 -0.9164 0.9837
-3.1659 0.5704 -0.7342 0.9869
-2.9277 0.2616 -0.6709 0.9880
-2.9221 0.0000 -0.7182 0.9880
-2.9882 -0.2670 -0.7374 0.9877
-3.1004 -0.5586 -0.7743 0.9871
-6.2261 -1.7055 -1.5868 0.9738
-6.2450 -2.3257 -1.6380 0.9729
-6.1846 -3.6631 -1.7668 0.9708
-5.7795 -5.9760 -2.0435 0.9663
-5.2183 -7.7862 -2.3039 0.9621
-4.8167 -8.7895 -2.4636 0.9596
-1.9902 -13.6462 -3.3897 0.9448
11.1810 9.2413 -3.5655 0.9420
9.3839 9.2799 -3.2439 0.9471
7.7966 9.2218 -2.9683 0.9515
6.3897 9.0895 -2.7310 0.9553
5.1389 8.9008 -2.5263 0.9585
4.0229 8.6692 -2.3491 0.9614
1.3168 7.8065 -1.9459 0.9679
0.5847 7.4825 -1.8448 0.9696
-0.6842 6.8011 -1.6801 0.9722
-1.7403 6.0863 -1.5560 0.9743
-2.2011 5.7152 -1.5054 0.9751
-2.6234 5.3385 -1.4621 0.9758
-3.5267 4.7865 -1.4614 0.9758
-3.9361 4.4507 -1.4604 0.9758
-4.2578 4.0270 -1.4405 0.9761
-4.8231 3.1552 -1.4167 0.9765
-5.2929 2.2444 -1.4131 0.9766
-3.3132 0.7507 -0.8350 0.9861
-3.0389 -0.4087 -0.7537 0.9874
-3.1571 -0.7153 -0.7957 0.9868
-6.1460 -4.0206 -1.8052 0.9702
-5.6651 -6.4056 -2.1019 0.9654
-5.0296 -8.2799 -2.3813 0.9609
-3.3299 -11.6453 -2.9771 0.9513
-2.4828 -12.9526 -3.2417 0.9471
8.5660 9.2615 -3.1009 0.9494
5.7462 9.0013 -2.6249 0.9570
3.5098 8.5406 -2.2696 0.9627
2.5632 8.2629 -2.1265 0.9650
0.9417 7.6462 -1.8936 0.9688
0.2446 7.3159 -1.7992 0.9703
-1.4938 6.2685 -1.5839 0.9738
-2.6788 4.8883 -1.3701 0.9773
-3.1924 4.7634 -1.4095 0.9767
-4.9492 2.9314 -1.4139 0.9766
-5.1840 2.4762 -1.4121 0.9766
-5.3962 2.0096 -1.4154 0.9766
-3.0843 0.5557 -0.7703 0.9872
-2.8807 0.2574 -0.7109 0.9882
-2.9343 -0.2622 -0.7763 0.9879
-5.9596 -1.6325 -1.6282 0.9748
-5.8912 -3.4894 -1.8042 0.9721
-5.7954 -4.1713 -1.8815 0.9709
-5.6554 -4.8904 -1.9701 0.9695
-4.9001 -7.3115 -2.3192 0.9642
-4.5032 -8.2173 -2.4691 0.9620
-3.4165 -10.2047 -2.8356 0.9565
-2.6917 -11.2949 -3.0596 0.9531
-1.8162 -12.4531 -3.3161 0.9493
-0.7627 -13.6796 -3.6102 0.9449
10.0975 8.3458 -3.4519 0.9473
7.1580 8.4665 -2.9214 0.9552
5.9050 8.4000 -2.7056 0.9584
4.7762 8.2726 -2.5171 0.9613
-0.6513 6.4742 -1.7146 0.9734
-2.5125 5.1128 -1.5011 0.9767
-3.4415 4.6709 -1.5288 0.9763
-4.6374 3.0337 -1.4602 0.9773
-4.8749 2.6013 -1.4560 0.9774
-5.2821 1.7033 -1.4624 0.9773
-3.2212 0.7298 -0.8703 0.9864
-2.8316 0.3808 -0.7528 0.9883
-2.9836 -0.4012 -0.7933 0.9876
-5.5668 -5.2651 -2.0190 0.9688
-3.7299 -9.6844 -2.7346 0.9580
-3.0714 -10.7414 -2.9438 0.9548
-1.3136 -13.0579 -3.4581 0.9472
-0.1595 -14.3178 -3.7730 0.9425
10.9351 8.2465 -3.6089 0.9449
9.3035 8.4145 -3.3054 0.9494
7.8357 8.4719 -3.0408 0.9534
4.2540 8.1903 -2.4319 0.9625
1.6141 7.5111 -2.0244 0.9687
0.2321 6.9406 -1.8299 0.9717
-0.3698 6.6329 -1.7505 0.9729
-2.7034 4.9332 -1.4823 0.9770
-3.0625 4.5696 -1.4495 0.9775
-3.6143 4.4736 -1.5154 0.9765
-4.5099 3.2461 -1.4642 0.9773
-4.7590 2.8188 -1.4575 0.9774
-5.1886 1.9323 -1.4590 0.9774
-3.7365 1.0235 -1.0208 0.9841
-2.8279 0.0000 -0.7956 0.9883
-2.8819 -0.2575 -0.8141 0.9880
-5.7151 -2.1283 -1.7159 0.9750
-5.5199 -3.9730 -1.9135 0.9721
-4.6157 -6.8871 -2.3327 0.9661
-2.4891 -10.4449 -3.0210 0.9564
10.6754 7.3282 -3.6432 0.9476
7.8470 7.7600 -3.1050 0.9552
5.4852 7.8029 -2.6836 0.9611
4.4588 7.7228 -2.5090 0.9636
3.5232 7.5923 -2.3549 0.9658
1.8907 7.2169 -2.0990 0.9695
1.1784 6.9858 -1.9933 0.9710
0.5261 6.7328 -1.9001 0.9723
-1.1239 5.8635 -1.6798 0.9755
-2.0169 5.2368 -1.5789 0.9770
-3.3070 4.4884 -1.5686 0.9771
-3.6347 4.1099 -1.5437 0.9775
-4.2119 3.3261 -1.5100 0.9779
-5.0844 1.6395 -1.5031 0.9780
-3.1370 0.7108 -0.9050 0.9867
-2.7751 0.3732 -0.7878 0.9884
-2.8062 0.1251 -0.7903 0.9884
-2.8531 -0.1272 -0.8035 0.9882
-2.9298 -0.3940 -0.8317 0.9878
-3.0353 -0.6877 -0.8756 0.9872
-3.2048 -1.0334 -0.9474 0.9861
-5.7046 -2.4190 -1.7434 0.9746
-5.5761 -3.6478 -1.8748 0.9727
-5.4530 -4.3062 -1.9549 0.9715
-5.0626 -5.7244 -2.1501 0.9687
-4.7817 -6.4898 -2.2681 0.9671
-4.4305 -7.2937 -2.4011 0.9652
-3.9995 -8.1388 -2.5515 0.9630
-3.4770 -9.0278 -2.7219 0.9606
-2.8483 -9.9614 -2.9150 0.9579
-2.0968 -10.9391 -3.1338 0.9548
-1.2029 -11.9580 -3.3814 0.9513
1.1011 -14.0901 -3.9764 0.9430
9.9214 7.4821 -3.4963 0.9497
8.5080 7.6951 -3.2276 0.9534
7.2152 7.8009 -2.9897 0.9568
6.0354 7.8203 -2.7793 0.9598
4.9601 7.7698 -2.5936 0.9624
3.9802 7.6632 -2.4296 0.9648
3.0868 7.5113 -2.2848 0.9668
0.2207 6.5993 -1.8578 0.9729
-0.3524 6.3201 -1.7809 0.9740
-1.3605 5.7092 -1.6513 0.9759
-1.8079 5.4000 -1.6022 0.9766
-2.2173 5.0712 -1.5573 0.9773
-2.5942 4.7338 -1.5188 0.9778
-3.4743 4.3002 -1.5554 0.9773
-3.7885 3.9173 -1.5333 0.9776
-4.5814 2.7136 -1.4982 0.9781
-4.7992 2.2924 -1.4964 0.9781
-4.9948 1.8601 -1.4996 0.9781
-2.9228 0.5266 -0.8356 0.9877
-2.7884 0.2492 -0.7877 0.9884
-2.7824 0.0000 -0.8330 0.9884
-5.4793 -2.0405 -1.7505 0.9759
-4.6716 -5.7821 -2.2255 0.9694
-4.3600 -6.5055 -2.3446 0.9678
-2.3134 -9.7075 -2.9876 0.9592
-1.5428 -10.5782 -3.2004 0.9563
0.4134 -12.3631 -3.7034 0.9497
1.6320 -13.2510 -3.9971 0.9458
12.5526 5.6559 -4.1218 0.9441
11.1008 6.2452 -3.8132 0.9482
7.2454 7.1651 -3.0507 0.9583
2.5204 7.0054 -2.2289 0.9694
1.1188 6.6324 -2.0137 0.9723
0.5007 6.4075 -1.9241 0.9735
-0.5924 5.8884 -1.7718 0.9756
-1.0755 5.6111 -1.7104 0.9764
-1.5214 5.3209 -1.6568 0.9772
-2.3141 4.7090 -1.5708 0.9783
-2.6640 4.3855 -1.5362 0.9788
-3.1815 4.3181 -1.6058 0.9779
-3.4989 3.9563 -1.5812 0.9782
-3.0564 0.6925 -0.9382 0.9870
-2.8066 -0.1251 -0.8411 0.9883
-5.4657 -2.3177 -1.7774 0.9755
-5.4136 -2.8888 -1.8371 0.9747
-5.1982 -4.1050 -1.9830 0.9727
-4.8036 -5.4316 -2.1708 0.9702
-4.5244 -6.1406 -2.2835 0.9687
-4.1783 -6.8784 -2.4094 0.9670
-3.2542 -8.4495 -2.7107 0.9629
-2.6538 -9.2811 -2.8899 0.9605
-1.9437 -10.1401 -3.0910 0.9578
-1.1087 -11.0209 -3.3161 0.9548
-0.1327 -11.9150 -3.5673 0.9515
2.3084 -13.6851 -4.1549 0.9437
10.4033 6.4792 -3.6692 0.9501
9.0732 6.8424 -3.4022 0.9537
6.6811 7.2235 -2.9457 0.9597
5.6179 7.2793 -2.7528 0.9623
4.6384 7.2659 -2.5807 0.9646
3.7374 7.1958 -2.4275 0.9667
1.4475 6.7362 -2.0627 0.9716
0.8034 6.5227 -1.9675 0.9729
0.2102 6.2870 -1.8833 0.9741
-0.8388 5.7514 -1.7401 0.9760
-1.3029 5.4675 -1.6827 0.9768
-1.7333 5.1770 -1.6345 0.9775
-2.1283 4.8675 -1.5904 0.9781
-2.9736 4.4369 -1.5991 0.9779
-3.6478 3.7719 -1.5709 0.9783
-3.9272 3.3960 -1.5543 0.9786
-4.1826 3.0105 -1.5428 0.9787
-4.4151 2.6151 -1.5363 0.9788
-4.6252 2.2093 -1.5346 0.9788
-4.8133 1.7925 -1.5377 0.9788
-3.5598 0.9751 -1.1050 0.9847
-2.8473 0.5129 -0.8662 0.9880
-2.7412 0.2449 -0.8239 0.9886
-5.2602 -1.9589 -1.7826 0.9767
-5.0345 -3.6236 -1.9700 0.9743
-4.6852 -4.8445 -2.1404 0.9721
-4.4366 -5.4913 -2.2420 0.9708
-2.7812 -8.3069 -2.7821 0.9639
-1.4333 -9.8275 -3.1541 0.9592
-0.5909 -10.5973 -3.3708 0.9564
0.3798 -11.3591 -3.6095 0.9534
1.4899 -12.0969 -3.8708 0.9501
2.7483 -12.7896 -4.1545 0.9466
4.1598 -13.4097 -4.4589 0.9428
10.1207 5.6938 -3.6879 0.9524
8.9271 6.1281 -3.4388 0.9556
3.9290 6.8052 -2.4956 0.9676
3.1274 6.7393 -2.3595 0.9693
1.6991 6.4854 -2.1292 0.9723
1.0644 6.3101 -2.0323 0.9735
0.4775 6.1092 -1.9461 0.9746
-0.0653 5.8842 -1.8689 0.9756
-0.5668 5.6346 -1.7985 0.9765
-1.4600 5.1059 -1.6865 0.9780
-1.8583 4.8251 -1.6421 0.9785
-3.9132 3.0903 -1.5836 0.9793
-4.5550 1.9315 -1.5713 0.9794
-2.9790 0.6750 -0.9701 0.9873
-2.7186 0.1212 -0.8643 0.9886
-2.7612 -0.1231 -0.8778 0.9885
-3.1071 -1.0019 -1.0368 0.9864
-5.1869 -2.7678 -1.8671 0.9756
-4.2905 -5.8232 -2.2971 0.9701
-3.9510 -6.5044 -2.4169 0.9686
-2.4826 -8.6822 -2.8679 0.9628
-1.8101 -9.4434 -3.0537 0.9604
0.9168 -11.7322 -3.7373 0.9518
2.1002 -12.4504 -4.0099 0.9484
3.4348 -13.1106 -4.3043 0.9447
13.2709 3.9551 -4.3978 0.9435
10.7364 5.4253 -3.8203 0.9508
8.3521 6.2986 -3.3222 0.9570
7.2504 6.5575 -3.1047 0.9598
3.5205 6.7781 -2.4257 0.9685
1.3756 6.4012 -2.0793 0.9729
0.7652 6.2124 -1.9879 0.9741
0.2007 6.0006 -1.9068 0.9751
-0.3210 5.7574 -1.8313 0.9761
-0.8033 5.5078 -1.7677 0.9769
-3.2211 3.9868 -1.6278 0.9787
-3.5160 3.6356 -1.6062 0.9790
-4.0341 2.9036 -1.5785 0.9794
-4.2589 2.5226 -1.5720 0.9794
-4.6429 1.7291 -1.5735 0.9794
-2.6944 0.0000 -0.9053 0.9887
-2.7374 -0.2446 -0.9234 0.9885
-2.8177 -0.5076 -0.9619 0.9880
-2.8971 -0.7936 -1.0092 0.9874
-4.9330 -2.9219 -1.9263 0.9761
-2.6157 -7.8127 -2.7681 0.9658
-2.0233 -8.4902 -2.9324 0.9638
-0.5488 -9.8429 -3.3122 0.9593
0.3510 -10.4975 -3.5290 0.9566
1.3694 -11.1183 -3.7638 0.9538
2.5111 -11.6856 -4.0158 0.9508
3.7768 -12.1753 -4.2830 0.9476
13.5418 2.1294 -4.6057 0.9438
11.4553 3.9777 -4.0742 0.9501
9.2921 5.2276 -3.5821 0.9560
7.2315 5.9770 -3.1521 0.9612
4.5055 6.4091 -2.6322 0.9675
1.0146 6.0145 -2.0493 0.9746
0.4560 5.8348 -1.9664 0.9756
-0.0626 5.6219 -1.8890 0.9766
-0.5432 5.3995 -1.8233 0.9774
-0.9891 5.1600 -1.7652 0.9781
-1.4027 4.9055 -1.7142 0.9787
-2.1415 4.3578 -1.6314 0.9797
-3.5262 3.3351 -1.6307 0.9797
-3.7772 2.9829 -1.6171 0.9799
-4.0058 2.6205 -1.6083 0.9800
-4.2126 2.2479 -1.6043 0.9801
-2.6271 0.5952 -0.9050 0.9887
-2.6762 0.1193 -0.9001 0.9888
-2.7168 -0.1211 -0.9137 0.9886
-2.7751 -0.3732 -0.9408 0.9883
-5.0669 -1.6339 -1.7887 0.9778
-5.0373 -2.1360 -1.8383 0.9772
-4.8808 -3.1929 -1.9596 0.9757
-4.5728 -4.3250 -2.1147 0.9738
-3.7452 -6.1655 -2.4237 0.9700
-2.8796 -7.4768 -2.6920 0.9668
-0.9565 -9.5079 -3.2106 0.9605
0.8450 -10.8133 -3.6441 0.9553
3.1287 -11.9418 -4.1477 0.9492
14.0184 1.5682 -4.7393 0.9422
11.9937 3.5745 -4.2048 0.9486
9.8284 4.9665 -3.6998 0.9546
7.7311 5.8302 -3.2533 0.9600
4.9259 6.3827 -2.7088 0.9666
4.0987 6.4204 -2.5592 0.9684
3.3255 6.4026 -2.4240 0.9700
2.6046 6.3378 -2.3022 0.9715
-0.7703 5.2818 -1.7933 0.9777
-1.1998 5.0345 -1.7389 0.9784
-1.9677 4.5003 -1.6502 0.9795
-2.3089 4.2133 -1.6142 0.9799
-3.6546 3.1603 -1.6233 0.9798
-4.1119 2.4355 -1.6057 0.9800
-4.3079 2.0577 -1.6040 0.9801
-4.4825 1.6693 -1.6071 0.9800
-2.6265 0.7195 -0.9150 0.9886
-2.6518 0.0000 -0.9403 0.9888
-2.7667 -0.4985 -0.9969 0.9881
-2.8417 -0.7784 -1.0448 0.9876
-4.8647 -1.8116 -1.8407 0.9782
-4.8161 -2.3005 -1.8926 0.9776
-4.7353 -2.8047 -1.9515 0.9769
-4.6195 -3.3249 -2.0182 0.9761
-4.4652 -3.8612 -2.0932 0.9753
-3.7274 -5.5617 -2.3740 0.9720
-3.3731 -6.1552 -2.4888 0.9707
-2.9553 -6.7589 -2.6157 0.9692
-2.4672 -7.3693 -2.7556 0.9676
-1.2526 -8.5887 -3.0776 0.9638
0.3260 -9.7497 -3.4591 0.9594
1.2658 -10.2776 -3.6718 0.9570
4.6955 -11.4255 -4.3801 0.9489
7.3928 -11.5806 -4.8717 0.9434
11.3816 2.8467 -4.1601 0.9514
10.4689 3.6352 -3.9296 0.9541
9.5279 4.2931 -3.7056 0.9566
5.8677 5.8026 -2.9261 0.9656
3.5038 6.0687 -2.4848 0.9707
2.8055 6.0457 -2.3633 0.9721
2.1514 5.9799 -2.2534 0.9734
1.5397 5.8769 -2.1542 0.9745
-0.9503 4.9575 -1.7898 0.9788
-2.0634 4.1990 -1.6590 0.9803
-2.5366 4.1759 -1.7325 0.9795
-2.8503 3.8684 -1.7038 0.9798
-3.6490 2.8816 -1.6487 0.9805
-4.0707 2.1722 -1.6361 0.9806
-4.2497 1.8020 -1.6368 0.9806
-2.5748 0.3463 -0.9212 0.9890
-2.6346 0.1175 -0.9351 0.9889
-2.7260 -0.3666 -0.9753 0.9884
-2.8093 -0.6365 -1.0214 0.9878
-2.8709 -0.9257 -1.0696 0.9873
-4.8443 -2.0542 -1.8658 0.9779
-4.7799 -2.5507 -1.9211 0.9773
-4.3725 -4.1355 -2.1340 0.9748
-4.1529 -4.6958 -2.2228 0.9737
-3.5578 -5.8570 -2.4299 0.9713
-3.1725 -6.4560 -2.5507 0.9699
-2.7204 -7.0636 -2.6840 0.9684
-2.1947 -7.6756 -2.8307 0.9667
-0.8941 -8.8877 -3.1674 0.9628
-0.1055 -9.4698 -3.3581 0.9606
1.7747 -10.5210 -3.7833 0.9557
2.8699 -10.9543 -4.0154 0.9531
5.3468 -11.5219 -4.5040 0.9475
10.0004 3.9801 -3.8165 0.9553
9.0542 4.5753 -3.5971 0.9579
7.1904 5.4225 -3.1933 0.9625
6.2993 5.6973 -3.0117 0.9646
5.4463 5.8884 -2.8441 0.9665
4.6357 6.0066 -2.6904 0.9683
3.1491 6.0630 -2.4225 0.9714
2.4730 6.0178 -2.3070 0.9728
1.8404 5.9329 -2.2026 0.9740
1.2493 5.8136 -2.1085 0.9751
0.6966 5.6556 -2.0206 0.9761
-0.7396 5.0712 -1.8172 0.9785
-1.1533 4.8397 -1.7642 0.9791
-2.2805 4.1615 -1.6827 0.9801
-2.9979 3.7106 -1.6915 0.9800
-3.2754 3.3868 -1.6707 0.9802
-3.5300 3.0526 -1.6548 0.9804
-3.7625 2.7081 -1.6438 0.9805
-4.1628 1.9884 -1.6358 0.9806
-2.6624 0.4796 -0.9592 0.9886
-2.7170 -0.4895 -1.0309 0.9883
-2.7878 -0.7637 -1.0794 0.9877
-4.2791 -3.7003 -2.1124 0.9761
-3.8425 -4.7559 -2.2831 0.9742
-3.5517 -5.2995 -2.3822 0.9731
-3.2068 -5.8517 -2.4917 0.9719
-0.4794 -8.5977 -3.2155 0.9639
0.3041 -9.0942 -3.3978 0.9619
2.1360 -9.9401 -3.7965 0.9575
3.1811 -10.2547 -4.0092 0.9552
5.4866 -10.5635 -4.4448 0.9504
6.7115 -10.5133 -4.6575 0.9481
7.9487 -10.2994 -4.8580 0.9460
13.1095 -0.2921 -4.8965 0.9455
11.7911 0.7893 -4.4128 0.9508
10.4196 2.6062 -4.0107 0.9552
7.9654 4.4812 -3.4127 0.9617
6.3071 5.2129 -3.0555 0.9657
5.5104 5.4493 -2.8939 0.9675
2.6661 5.7451 -2.3650 0.9733
0.9248 5.4826 -2.0762 0.9765
-0.5007 4.9769 -1.8678 0.9789
-0.9139 4.7681 -1.8129 0.9795
-1.6573 4.3030 -1.7219 0.9805
-2.0103 4.0909 -1.7021 0.9807
-2.7525 3.7358 -1.7328 0.9804
-3.2915 3.1131 -1.6918 0.9808
-3.5278 2.7859 -1.6785 0.9810
-3.7426 2.4484 -1.6700 0.9811
-4.2617 1.3742 -1.6721 0.9811
-2.5921 0.1156 -0.9689 0.9890
-2.7556 -0.6243 -1.0551 0.9880
-4.6635 -1.9775 -1.8915 0.9786
-4.5964 -2.4527 -1.9454 0.9780
-4.4967 -2.9416 -2.0065 0.9773
-4.3612 -3.4440 -2.0751 0.9766
-3.9691 -4.4879 -2.2372 0.9747
-3.0124 -6.1301 -2.5505 0.9713
-1.4951 -7.7999 -2.9656 0.9667
-0.8387 -8.3374 -3.1290 0.9649
-0.0986 -8.8505 -3.3051 0.9629
0.7288 -9.3270 -3.4934 0.9608
2.6483 -10.1085 -3.9020 0.9564
4.8880 -10.5333 -4.3361 0.9516
7.3306 -10.4279 -4.7598 0.9470
8.5609 -10.1259 -4.9514 0.9450
9.7475 -9.6395 -5.1191 0.9431
13.6227 -2.1421 -5.1494 0.9428
11.4839 1.2847 -4.3150 0.9519
10.7943 2.1940 -4.1131 0.9541
10.0298 2.9892 -3.9080 0.9563
7.5457 4.6995 -3.3194 0.9628
5.9052 5.3409 -2.9732 0.9666
5.1234 5.5393 -2.8175 0.9683
3.6629 5.7378 -2.5419 0.9714
2.9887 5.7543 -2.4213 0.9727
1.7548 5.6567 -2.2116 0.9750
1.1916 5.5454 -2.1180 0.9761
0.6667 5.4129 -2.0365 0.9770
-0.2829 5.0746 -1.8978 0.9785
-0.7109 4.8746 -1.8395 0.9792
-1.4814 4.4247 -1.7424 0.9803
-1.8268 4.1781 -1.7027 0.9807
-2.2720 4.1459 -1.7653 0.9800
-2.6034 3.8846 -1.7462 0.9802
-3.4123 2.9508 -1.6846 0.9809
-3.8422 2.2757 -1.6675 0.9811
-3.4440 0.9434 -1.3334 0.9849
-2.5629 0.2290 -0.9608 0.9891
-2.6072 -0.2330 -1.0273 0.9888
-4.1058 -3.5505 -2.1304 0.9769
-3.9120 -4.0450 -2.2085 0.9761
-3.6744 -4.5479 -2.2947 0.9752
-3.0543 -5.5735 -2.4944 0.9731
-2.6631 -6.0908 -2.6090 0.9718
-2.2116 -6.6059 -2.7341 0.9705
1.0969 -8.9061 -3.5218 0.9622
1.9850 -9.2375 -3.7082 0.9602
2.9446 -9.4922 -3.9006 0.9582
8.3222 -8.9978 -4.8103 0.9487
9.3396 -8.4472 -4.9424 0.9473
11.0471 -6.8802 -5.1078 0.9456
11.6719 -5.8980 -5.1325 0.9454
12.3541 -3.6819 -5.0594 0.9461
12.2538 -1.3708 -4.8392 0.9484
11.4296 0.7651 -4.4958 0.9520
9.5983 2.4007 -3.8831 0.9584
8.1731 3.6826 -3.5183 0.9622
7.4245 4.1770 -3.3434 0.9641
5.9217 4.8944 -3.0152 0.9675
3.8032 5.4101 -2.5954 0.9720
3.1541 5.4632 -2.4758 0.9733
2.5380 5.4694 -2.3664 0.9744
1.9549 5.4337 -2.2664 0.9755
1.4027 5.3538 -2.1721 0.9765
0.4000 5.1186 -2.0150 0.9782
-0.4814 4.7862 -1.8879 0.9795
-0.8799 4.5905 -1.8344 0.9801
-1.2518 4.3781 -1.7871 0.9806
-2.6602 3.6105 -1.7601 0.9809
-3.4130 2.6952 -1.7068 0.9815
-4.1236 1.3297 -1.7005 0.9816
-4.0142 -3.7967 -2.1685 0.9765
-3.7988 -4.2954 -2.2505 0.9757
-2.8660 -5.8321 -2.5504 0.9725
-1.9618 -6.8611 -2.8007 0.9698
-0.7892 -7.8455 -3.0947 0.9667
0.6812 -8.7169 -3.4316 0.9631
3.4486 -9.5853 -3.9980 0.9572
4.4973 -9.6914 -4.1932 0.9551
5.5861 -9.6753 -4.3847 0.9531
6.6924 -9.5201 -4.5672 0.9512
7.7883 -9.2120 -4.7344 0.9495
9.8141 -8.1115 -4.9971 0.9468
10.6720 -7.3258 -5.0803 0.9459
11.3814 -6.4031 -5.1252 0.9454
12.1161 -0.8111 -4.7658 0.9492
11.7240 0.2613 -4.6025 0.9509
10.5158 1.1764 -4.1529 0.9555
9.9235 2.0171 -3.9743 0.9574
4.8334 5.2257 -2.7937 0.9699
3.4748 5.4432 -2.5345 0.9726
2.8420 5.4718 -2.4199 0.9739
2.2429 5.4563 -2.3154 0.9750
1.6733 5.3941 -2.2166 0.9760
1.1401 5.3056 -2.1298 0.9770
0.6389 5.1875 -2.0513 0.9778
0.1687 5.0436 -1.9806 0.9785
-0.2719 4.8771 -1.9171 0.9792
-0.6841 4.6905 -1.8604 0.9798
-1.0691 4.4863 -1.8100 0.9804
-1.4283 4.2661 -1.7657 0.9809
-1.7676 4.0426 -1.7316 0.9812
-2.2083 4.0297 -1.8035 0.9804
-2.5154 3.7533 -1.7733 0.9808
-3.8956 1.8608 -1.6944 0.9816
-4.0527 1.5093 -1.6973 0.9816
-3.4629 0.9486 -1.4091 0.9847
-2.5633 0.4618 -1.0222 0.9889
-2.5206 0.2252 -0.9932 0.9892
-2.5289 -0.0000 -1.0414 0.9891
-2.6410 -0.7234 -1.1276 0.9882
-2.6436 -0.9845 -1.1616 0.9879
-4.3021 -2.0550 -1.9633 0.9796
-4.2159 -2.4971 -2.0177 0.9790
-4.0974 -2.9492 -2.0789 0.9784
-3.9440 -3.4106 -2.1471 0.9777
-3.5184 -4.3548 -2.3054 0.9761
-2.5354 -5.7986 -2.6060 0.9730
-1.0483 -7.1880 -2.9912 0.9691
-0.4243 -7.6106 -3.1388 0.9676
0.2675 -7.9981 -3.2953 0.9660
1.0271 -8.3390 -3.4598 0.9643
1.8524 -8.6202 -3.6307 0.9626
2.7383 -8.8273 -3.8058 0.9608
3.6760 -8.9450 -3.9823 0.9590
7.6148 -8.2330 -4.6180 0.9526
8.5258 -7.7112 -4.7337 0.9515
9.3490 -7.0504 -4.8217 0.9506
10.0552 -6.2624 -4.8779 0.9500
11.0225 -4.3868 -4.8851 0.9500
11.2544 -3.3542 -4.8358 0.9505
11.3135 -2.2996 -4.7539 0.9513
10.9475 -0.2440 -4.5091 0.9537
10.5560 0.7066 -4.3565 0.9553
6.9440 3.9066 -3.2808 0.9661
6.2568 4.2951 -3.1251 0.9677
5.5760 4.6086 -2.9788 0.9692
4.9018 4.8474 -2.8387 0.9706
2.4172 5.2089 -2.3646 0.9755
1.8653 5.1847 -2.2689 0.9764
1.3427 5.1248 -2.1815 0.9773
0.8491 5.0337 -2.1021 0.9782
0.3841 4.9149 -2.0300 0.9789
-0.0532 4.7718 -1.9651 0.9796
-0.4635 4.6073 -1.9068 0.9802
-0.8479 4.4236 -1.8547 0.9807
-1.2075 4.2229 -1.8086 0.9812
-1.5431 4.0067 -1.7680 0.9816
-2.8377 3.2086 -1.7638 0.9816
-3.5064 2.2938 -1.7254 0.9820
-3.8506 1.6328 -1.7223 0.9821
-3.9925 1.2874 -1.7274 0.9820
-2.6388 0.5979 -1.1141 0.9884
-2.5068 0.1118 -1.0333 0.9892
-2.6464 -0.8534 -1.1450 0.9880
-4.3338 -1.8377 -1.9384 0.9798
-4.2629 -2.2748 -1.9897 0.9793
-4.0253 -3.1788 -2.1121 0.9781
-3.8531 -3.6443 -2.1839 0.9773
-3.6406 -4.1165 -2.2629 0.9765
-3.3852 -4.5945 -2.3500 0.9756
-2.7314 -5.5583 -2.5502 0.9736
-1.8612 -6.5090 -2.7877 0.9711
-1.3354 -6.9666 -2.9210 0.9698
-0.7447 -7.4031 -3.0638 0.9683
-0.0870 -7.8095 -3.2160 0.9668
0.6388 -8.1751 -3.3766 0.9651
1.4318 -8.4879 -3.5445 0.9634
4.1604 -8.9654 -4.0699 0.9581
5.1500 -8.9199 -4.2413 0.9564
7.1359 -8.4403 -4.5512 0.9533
8.0794 -7.9898 -4.6790 0.9520
8.9503 -7.3976 -4.7815 0.9510
10.3563 -5.8263 -4.8931 0.9499
10.8418 -4.8851 -4.8967 0.9499
11.1602 -3.8752 -4.8647 0.9502
11.0948 -0.7427 -4.5789 0.9530
10.7670 0.2399 -4.4347 0.9545
9.1736 1.8646 -3.8548 0.9603
8.5882 2.5596 -3.6902 0.9620
7.9525 3.1650 -3.5245 0.9637
7.2848 3.6812 -3.3610 0.9653
5.9168 4.4620 -3.0515 0.9685
5.2370 4.7366 -2.9077 0.9699
2.7055 5.2091 -2.4170 0.9749
2.1376 5.2015 -2.3157 0.9760
1.0923 5.0829 -2.1408 0.9778
-0.2616 4.6921 -1.9351 0.9799
-1.3782 4.1166 -1.7876 0.9814
-1.7589 4.0228 -1.8079 0.9812
-2.4321 3.6290 -1.7989 0.9813
-2.7079 3.3516 -1.7743 0.9815
-3.1953 2.7631 -1.7395 0.9819
-3.7721 1.8018 -1.7214 0.9821
-3.9241 1.4613 -1.7243 0.9820
-2.4893 0.0000 -1.0738 0.9892
-2.5221 -0.2254 -1.0923 0.9890
-2.5507 -0.6987 -1.1408 0.9885
-4.1505 -1.9825 -1.9841 0.9802
-4.0634 -2.4068 -2.0372 0.9796
-3.9448 -2.8393 -2.0966 0.9790
-3.1016 -4.6279 -2.4032 0.9760
-2.7842 -5.0806 -2.4991 0.9751
-1.9991 -5.9710 -2.7162 0.9729
-1.5250 -6.3993 -2.8377 0.9717
-0.9929 -6.8080 -2.9678 0.9705
3.4217 -8.3262 -3.8830 0.9615
4.3176 -8.3129 -4.0406 0.9600
6.1337 -7.9476 -4.3305 0.9572
7.0106 -7.5798 -4.4537 0.9560
7.8338 -7.0853 -4.5563 0.9550
8.5773 -6.4684 -4.6340 0.9543
9.2163 -5.7399 -4.6835 0.9538
9.7297 -4.9166 -4.7024 0.9536
10.1016 -4.0204 -4.6898 0.9537
10.3229 -3.0765 -4.6464 0.9542
10.3129 -1.1537 -4.4763 0.9558
8.2685 2.0681 -3.6765 0.9636
7.7219 2.6813 -3.5260 0.9650
6.5190 3.6675 -3.2265 0.9679
5.2604 4.3479 -2.9439 0.9707
4.6360 4.5846 -2.8125 0.9720
3.4304 4.8797 -2.5730 0.9744
2.8577 4.9497 -2.4654 0.9754
2.3087 4.9751 -2.3658 0.9764
1.7848 4.9610 -2.2742 0.9773
1.2869 4.9119 -2.1903 0.9781
0.3692 4.7244 -2.0441 0.9796
-0.4466 4.4391 -1.9245 0.9808
-1.5293 3.9708 -1.8355 0.9816
-1.9105 3.8879 -1.8687 0.9813
-2.7472 3.1064 -1.7888 0.9821
-2.9840 2.8223 -1.7717 0.9823
-3.3971 2.2223 -1.7511 0.9825
-3.5738 1.9071 -1.7473 0.9825
-3.7307 1.5820 -1.7480 0.9825
-3.8678 1.2472 -1.7530 0.9825
-2.5715 0.5826 -1.1373 0.9886
-2.4106 0.3242 -1.0492 0.9895
-2.4654 0.1099 -1.0645 0.9893
-2.5276 -0.3399 -1.1001 0.9890
-2.5465 -0.5770 -1.1263 0.9887
-2.5665 -0.8276 -1.1632 0.9883
-2.6695 -1.1320 -1.2508 0.9874
-4.1107 -2.1936 -2.0099 0.9799
-3.7022 -3.5015 -2.1981 0.9780
-3.4930 -3.9497 -2.2744 0.9773
-3.2430 -4.4014 -2.3583 0.9765
-2.9488 -4.8545 -2.4501 0.9756
-1.7691 -6.1871 -2.7758 0.9724
-1.2663 -6.6065 -2.9017 0.9711
-0.7044 -7.0027 -3.0359 0.9698
1.3429 -7.9613 -3.4827 0.9654
2.1398 -8.1673 -3.6419 0.9639
4.7723 -8.2657 -4.1171 0.9593
5.6830 -8.0841 -4.2626 0.9579
6.5772 -7.7796 -4.3944 0.9566
7.4306 -7.3482 -4.5078 0.9555
8.9113 -6.1172 -4.6625 0.9540
10.2314 -3.5527 -4.6719 0.9539
10.3762 -2.5953 -4.6137 0.9545
10.3701 -1.6306 -4.5282 0.9553
9.5546 1.0688 -4.1472 0.9590
8.0014 2.3847 -3.6015 0.9643
7.4320 2.9579 -3.4504 0.9658
6.8287 3.4507 -3.3003 0.9672
6.2059 3.8651 -3.1537 0.9687
5.5755 4.2046 -3.0122 0.9700
4.9470 4.4743 -2.8772 0.9714
4.3282 4.6796 -2.7496 0.9726
3.7249 4.8264 -2.6298 0.9738
3.1412 4.9206 -2.5182 0.9749
2.5802 4.9676 -2.4146 0.9759
2.0436 4.9727 -2.3191 0.9769
1.0477 4.8755 -2.1511 0.9785
0.5889 4.7813 -2.0780 0.9792
0.1559 4.6613 -2.0118 0.9799
-0.2519 4.5184 -1.9521 0.9805
-1.7519 4.0068 -1.8864 0.9811
-2.0636 3.7656 -1.8523 0.9815
-2.3531 3.5111 -1.8232 0.9818
-2.6211 3.2442 -1.7991 0.9820
-3.3013 2.3762 -1.7546 0.9824
-3.6547 1.7457 -1.7471 0.9825
-3.8017 1.4158 -1.7500 0.9825
-3.9288 1.0762 -1.7572 0.9824
-2.4719 0.4454 -1.0835 0.9891
-2.4387 0.2179 -1.0561 0.9894
-2.4592 -0.4430 -1.1275 0.9891
-2.4701 -0.6766 -1.1556 0.9888
-2.4890 -0.9269 -1.1984 0.9884
-4.0092 -1.9151 -2.0048 0.9807
-3.8012 -2.7360 -2.1133 0.9797
-3.6498 -3.1561 -2.1772 0.9790
-3.4627 -3.5804 -2.2475 0.9784
-2.9725 -4.4354 -2.4092 0.9768
-2.6639 -4.8611 -2.5012 0.9760
-2.3092 -5.2812 -2.6008 0.9750
-1.9055 -5.6917 -2.7083 0.9740
-1.4506 -6.0871 -2.8235 0.9729
-0.9423 -6.4615 -2.9464 0.9718
-0.3796 -6.8074 -3.0764 0.9705
1.6299 -7.5850 -3.5006 0.9665
2.3955 -7.7225 -3.6483 0.9651
3.1973 -7.7803 -3.7955 0.9638
4.8602 -7.6132 -4.0755 0.9611
6.4884 -7.0152 -4.3117 0.9589
7.2379 -6.5462 -4.4035 0.9581
8.9677 -4.5315 -4.5336 0.9569
9.5982 -1.9509 -4.4194 0.9579
9.5411 -1.0673 -4.3319 0.9587
9.3609 -0.2086 -4.2248 0.9597
9.0706 0.6072 -4.1019 0.9609
8.6859 1.3658 -3.9673 0.9622
6.6985 3.0182 -3.3151 0.9683
6.1379 3.4531 -3.1777 0.9696
4.9784 4.1147 -2.9143 0.9721
4.3979 4.3492 -2.7909 0.9732
3.8263 4.5258 -2.6741 0.9743
3.2685 4.6495 -2.5645 0.9754
0.3552 4.5455 -2.0573 0.9802
-0.0493 4.4238 -1.9962 0.9808
-0.4306 4.2805 -1.9412 0.9813
-0.7893 4.1179 -1.8919 0.9818
-2.4109 3.2721 -1.8339 0.9823
-2.6612 3.0091 -1.8126 0.9825
-2.8915 2.7347 -1.7958 0.9827
-3.4644 1.8486 -1.7718 0.9829
-3.6165 1.5335 -1.7725 0.9829
-2.5488 0.5775 -1.1792 0.9886
-2.4105 0.1075 -1.0887 0.9895
-2.4395 -0.1088 -1.1018 0.9893
-2.4521 -0.3298 -1.1164 0.9892
-3.9670 -2.1169 -2.0289 0.9805
-3.8643 -2.5279 -2.0836 0.9799
-3.7299 -2.9455 -2.1445 0.9794
-3.5608 -3.3678 -2.2115 0.9787
-3.1104 -4.2215 -2.3660 0.9773
-2.8238 -4.6487 -2.4542 0.9764
-1.6846 -5.8916 -2.7649 0.9735
-1.2033 -6.2773 -2.8840 0.9723
-0.6678 -6.6385 -3.0105 0.9711
-0.0776 -6.9671 -3.1439 0.9699
0.5669 -7.2543 -3.2833 0.9686
3.6084 -7.7757 -3.8679 0.9631
5.2765 -7.5059 -4.1399 0.9605
6.0934 -7.2072 -4.2585 0.9594
6.8709 -6.7947 -4.3602 0.9585
9.5776 -2.3955 -4.4547 0.9576
9.4656 -0.6336 -4.2806 0.9592
8.8890 0.9944 -4.0359 0.9615
8.1806 1.6628 -3.7667 0.9640
7.4828 2.2301 -3.5231 0.9663
6.4209 3.2446 -3.2461 0.9689
5.8508 3.6439 -3.1101 0.9702
5.2699 3.9742 -2.9783 0.9715
3.5454 4.5939 -2.6184 0.9749
2.4655 4.7470 -2.4136 0.9768
1.9562 4.7603 -2.3222 0.9777
1.4695 4.7371 -2.2380 0.9785
1.0061 4.6817 -2.1607 0.9792
0.5662 4.5974 -2.0901 0.9799
-0.2428 4.3548 -1.9680 0.9810
-0.9604 4.0299 -1.8693 0.9820
-1.3128 3.9212 -1.8658 0.9820
-1.9967 3.6436 -1.8748 0.9819
-2.5386 3.1421 -1.8227 0.9824
-2.7788 2.8733 -1.8036 0.9826
-2.9991 2.5935 -1.7891 0.9828
-3.3811 2.0026 -1.7731 0.9829
-3.5429 1.6923 -1.7716 0.9829
-3.6852 1.3724 -1.7744 0.9829
-3.8079 1.0431 -1.7815 0.9828
-2.4063 0.4335 -1.1032 0.9893
-2.3848 0.2131 -1.0804 0.9895
-2.3773 -0.2124 -1.1251 0.9895
-2.4034 -0.8950 -1.2089 0.9887
-3.8730 -1.8500 -2.0233 0.9812
-3.7835 -2.2410 -2.0728 0.9807
-3.3314 -3.4446 -2.2589 0.9790
-2.5520 -4.6568 -2.5031 0.9768
-1.8191 -5.4336 -2.7010 0.9750
-1.3822 -5.7999 -2.8105 0.9740
0.2253 -6.7370 -3.1774 0.9706
0.8584 -6.9692 -3.3100 0.9694
1.5357 -7.1462 -3.4455 0.9682
7.8734 -4.9036 -4.3723 0.9598
8.3072 -4.1978 -4.3874 0.9597
8.9078 -1.8106 -4.2848 0.9606
8.8674 -0.9920 -4.2060 0.9613
8.7152 -0.1942 -4.1091 0.9622
7.4027 1.8516 -3.5969 0.9668
6.7930 2.3588 -3.3896 0.9687
6.3080 2.8422 -3.2613 0.9699
5.7940 3.2596 -3.1337 0.9710
4.1801 4.1338 -2.7712 0.9743
3.6443 4.3105 -2.6607 0.9753
2.6083 4.5177 -2.4590 0.9772
1.6402 4.5589 -2.2838 0.9788
0.7533 4.4658 -2.1348 0.9802
0.3421 4.3773 -2.0697 0.9808
-0.0475 4.2649 -2.0105 0.9813
-0.4155 4.1308 -1.9570 0.9818
-0.7624 3.9773 -1.9090 0.9823
-1.4846 3.8546 -1.9471 0.9819
-1.7888 3.6402 -1.9119 0.9822
-2.0724 3.4117 -1.8817 0.9825
-2.5792 2.9164 -1.8352 0.9829
-2.8032 2.6512 -1.8188 0.9831
-3.0078 2.3753 -1.8066 0.9832
-3.3600 1.7929 -1.7952 0.9833
-3.5075 1.4873 -1.7958 0.9833
-3.6357 1.1724 -1.8007 0.9832
-2.5265 0.5724 -1.2211 0.9886
-2.3488 0.1048 -1.1083 0.9897
-2.3694 -0.1056 -1.1180 0.9896
-2.3799 -0.3201 -1.1319 0.9894
-2.3945 -0.7721 -1.1859 0.9889
-3.5948 -2.8388 -2.1591 0.9799
-3.2258 -3.6476 -2.2953 0.9787
-2.9865 -4.0533 -2.3733 0.9780
-2.7073 -4.4568 -2.4581 0.9772
-2.3858 -4.8550 -2.5499 0.9764
-2.0196 -5.2439 -2.6489 0.9755
-1.6067 -5.6191 -2.7549 0.9745
-0.6343 -6.3056 -2.9873 0.9724
-0.0736 -6.6031 -3.1127 0.9712
0.5361 -6.8594 -3.2432 0.9700
1.1918 -7.0652 -3.3774 0.9688
3.3791 -7.2818 -3.7840 0.9651
4.9194 -6.9979 -4.0321 0.9629
5.6699 -6.7064 -4.1396 0.9619
7.0385 -5.8174 -4.3043 0.9604
7.6179 -5.2293 -4.3555 0.9600
8.8836 -2.2219 -4.3165 0.9603
8.8047 -0.5894 -4.1596 0.9617
8.6004 0.1916 -4.0550 0.9627
8.3014 0.9287 -3.9375 0.9637
7.9220 1.6102 -3.8106 0.9649
6.5549 2.6088 -3.3255 0.9693
6.0539 3.0592 -3.1973 0.9705
4.9923 3.7648 -2.9474 0.9727
3.3802 4.3797 -2.6079 0.9758
2.3592 4.5423 -2.4127 0.9776
0.9671 4.5001 -2.1697 0.9799
0.5450 4.4247 -2.1015 0.9805
-0.5916 4.0564 -1.9323 0.9820
-0.9279 3.8939 -1.8869 0.9825
-1.9332 3.5277 -1.8962 0.9824
-2.2066 3.2925 -1.8683 0.9826
-2.4600 3.0447 -1.8451 0.9828
-2.6936 2.7852 -1.8264 0.9830
-2.9079 2.5146 -1.8122 0.9831
-3.1030 2.2334 -1.8022 0.9832
-3.2791 1.9422 -1.7965 0.9833
-3.4361 1.6413 -1.7950 0.9833
-3.5740 1.3310 -1.7977 0.9833
-3.6925 1.0115 -1.8047 0.9832
-2.3082 -0.4158 -1.1536 0.9896
-2.3175 -0.6348 -1.1819 0.9893
-2.3278 -0.8669 -1.2217 0.9890
-3.5374 -2.5461 -2.1437 0.9808
-3.2078 -3.3169 -2.2696 0.9796
-2.4475 -4.4662 -2.5049 0.9776
-1.7390 -5.1943 -2.6942 0.9759
-1.3189 -5.5347 -2.7985 0.9750
-0.3423 -6.1397 -3.0245 0.9730
0.8125 -6.5969 -3.2692 0.9708
1.4504 -6.7497 -3.3957 0.9697
2.1219 -6.8403 -3.5226 0.9686
2.8191 -6.8599 -3.6479 0.9675
3.5320 -6.8002 -3.7690 0.9664
4.9529 -6.4176 -3.9873 0.9645
5.6303 -6.0873 -4.0784 0.9637
6.2630 -5.6645 -4.1535 0.9631
8.0288 -3.1954 -4.2503 0.9622
8.2203 -2.4499 -4.2189 0.9625
8.2740 -0.9256 -4.0950 0.9636
8.1445 -0.1815 -4.0069 0.9643
7.6175 1.1978 -3.7927 0.9662
7.2441 1.8119 -3.6728 0.9673
5.4820 3.0842 -3.0938 0.9724
4.9894 3.4250 -2.9766 0.9734
4.4862 3.7079 -2.8627 0.9744
3.4764 4.1118 -2.6484 0.9763
2.9807 4.2402 -2.5493 0.9772
2.4969 4.3246 -2.4561 0.9780
2.0275 4.3691 -2.3691 0.9788
1.5749 4.3774 -2.2881 0.9795
-0.4013 3.9890 -1.9719 0.9823
-0.7368 3.8441 -1.9251 0.9827
-1.7323 3.5253 -1.9320 0.9826
-2.5010 2.8279 -1.8568 0.9833
-3.0984 2.0269 -1.8211 0.9836
-3.2602 1.7397 -1.8176 0.9837
-3.5274 1.1375 -1.8229 0.9836
-2.5041 0.5674 -1.2629 0.9886
-2.3108 -0.3108 -1.1468 0.9897
-2.3375 -0.9912 -1.2488 0.9887
-3.7030 -1.9760 -2.0644 0.9815
-3.4671 -2.7380 -2.1729 0.9805
-3.1044 -3.5102 -2.3048 0.9793
-2.8703 -3.8957 -2.3801 0.9787
-1.9323 -5.0173 -2.6445 0.9763
1.1269 -6.6805 -3.3323 0.9703
2.4679 -6.8595 -3.5856 0.9680
3.1743 -6.8404 -3.7091 0.9669
5.2961 -6.2642 -4.0347 0.9641
5.9533 -5.8873 -4.1181 0.9634
7.0912 -4.8678 -4.2305 0.9624
8.2746 -2.0696 -4.1952 0.9627
8.0441 0.1793 -3.9575 0.9648
7.7791 0.8702 -3.8500 0.9657
7.4386 1.5120 -3.7335 0.9667
6.7418 2.0093 -3.4601 0.9691
5.7217 2.8913 -3.1531 0.9718
5.2376 3.2620 -3.0349 0.9729
4.7386 3.5736 -2.9192 0.9739
2.2602 4.3516 -2.4118 0.9784
0.1394 4.1696 -2.0519 0.9816
-0.2261 4.0544 -1.9973 0.9821
-0.5715 3.9189 -1.9479 0.9825
-1.2815 3.8277 -1.9854 0.9822
-1.8726 3.4172 -1.9166 0.9828
-2.1384 3.1909 -1.8893 0.9830
-2.6123 2.7011 -1.8482 0.9834
-3.0105 2.1669 -1.8244 0.9836
-3.4677 1.2914 -1.8200 0.9836
-2.3061 0.4155 -1.1525 0.9896
-2.2658 0.2025 -1.1189 0.9899
-2.2443 -0.2005 -1.1552 0.9899
-2.2480 -0.6158 -1.1950 0.9896
-2.2593 -0.8414 -1.2360 0.9892
-3.4157 -2.4585 -2.1576 0.9813
-3.2692 -2.8271 -2.2158 0.9808
-3.0913 -3.1964 -2.2797 0.9802
-2.8799 -3.5646 -2.3494 0.9796
-2.3497 -4.2878 -2.5066 0.9783
-1.6645 -4.9718 -2.6880 0.9767
1.3730 -6.3893 -3.3504 0.9711
2.0046 -6.4621 -3.4687 0.9700
3.9907 -6.2513 -3.8022 0.9672
4.6453 -6.0190 -3.8979 0.9664
5.8587 -5.2988 -4.0499 0.9651
6.8445 -4.2627 -4.1338 0.9644
7.6362 -0.1702 -3.9158 0.9662
7.4393 0.4980 -3.8224 0.9670
6.1737 2.1437 -3.3504 0.9711
5.1976 2.9241 -3.0574 0.9735
3.7950 3.7529 -2.7362 0.9763
1.9460 4.1934 -2.3700 0.9794
1.5136 4.2071 -2.2922 0.9801
0.6987 4.1420 -2.1535 0.9813
-0.3878 3.8546 -1.9861 0.9827
-1.3914 3.6127 -1.9848 0.9827
-1.6785 3.4157 -1.9511 0.9830
-1.9465 3.2044 -1.9221 0.9833
-2.8319 2.2364 -1.8500 0.9839
-3.4237 1.1040 -1.8442 0.9840
-2.2425 -0.5081 -1.1788 0.9897
-2.3837 -1.2720 -1.3851 0.9879
-3.4777 -2.2750 -2.1305 0.9815
-2.7612 -3.7475 -2.3864 0.9793
-2.4963 -4.1095 -2.4651 0.9786
-2.1935 -4.4636 -2.5497 0.9779
-1.4677 -5.1329 -2.7370 0.9763
-1.0425 -5.4388 -2.8391 0.9754
-0.5752 -5.7182 -2.9464 0.9745
-0.0664 -5.9647 -3.0581 0.9735
1.0678 -6.3301 -3.2911 0.9716
2.3291 -6.4739 -3.5272 0.9695
2.9901 -6.4434 -3.6417 0.9686
3.6580 -6.3357 -3.7506 0.9676
5.5721 -5.5103 -4.0176 0.9654
6.1311 -5.0674 -4.0779 0.9649
6.6256 -4.5482 -4.1200 0.9645
7.0424 -3.9620 -4.1426 0.9643
7.3708 -3.3211 -4.1447 0.9643
7.6032 -2.6401 -4.1262 0.9645
7.7676 -1.2214 -4.0311 0.9653
7.3115 0.8179 -3.7718 0.9675
7.0042 1.4237 -3.6643 0.9684
6.6375 1.9781 -3.5507 0.9693
5.8433 2.3256 -3.2242 0.9721
4.5059 3.3981 -2.8933 0.9750
4.0327 3.6474 -2.7876 0.9759
3.5575 3.8463 -2.6860 0.9767
3.0855 3.9980 -2.5891 0.9776
2.6211 4.1059 -2.4973 0.9783
0.5061 4.1086 -2.1223 0.9816
-0.9094 3.8162 -2.0112 0.9825
-1.8149 3.3118 -1.9361 0.9832
-2.3132 2.8631 -1.8870 0.9836
-2.5344 2.6206 -1.8691 0.9837
-3.2364 1.5459 -1.8388 0.9840
-3.4768 0.9524 -1.8481 0.9839
-2.1873 -0.5992 -1.2107 0.9898
-2.1932 -0.8168 -1.2494 0.9894
-2.2033 -1.0524 -1.3035 0.9890
-3.4159 -2.0233 -2.1194 0.9822
-3.3003 -2.3754 -2.1708 0.9817
-2.9811 -3.0825 -2.2892 0.9807
-1.9454 -4.4495 -2.5924 0.9782
-1.5950 -4.7642 -2.6821 0.9775
-1.2059 -5.0602 -2.7770 0.9767
-0.7777 -5.3322 -2.8767 0.9759
-0.3108 -5.5747 -2.9807 0.9750
0.7323 -5.9456 -3.1980 0.9732
2.5121 -6.1126 -3.5280 0.9705
3.7590 -5.8883 -3.7294 0.9688
5.4978 -4.9724 -3.9573 0.9669
5.9891 -4.5165 -4.0045 0.9666
6.4146 -3.9950 -4.0342 0.9663
6.7636 -3.4178 -4.0455 0.9662
7.2021 -2.1465 -4.0119 0.9665
3.1762 3.7568 -2.6262 0.9779
2.7322 3.8866 -2.5362 0.9787
1.8695 4.0285 -2.3709 0.9801
1.4560 4.0469 -2.2960 0.9807
0.3069 3.9271 -2.1028 0.9823
-0.3749 3.7268 -1.9996 0.9832
-1.6270 3.3110 -1.9694 0.9834
-2.1301 2.8910 -1.9170 0.9838
-2.3545 2.6623 -1.8973 0.9840
-2.7495 2.1713 -1.8703 0.9842
-2.9202 1.9103 -1.8629 0.9843
-3.0730 1.6398 -1.8595 0.9843
-2.4372 0.5522 -1.3341 0.9887
-2.1765 -0.0971 -1.1631 0.9902
-2.1912 -0.7066 -1.2291 0.9896
-2.2000 -0.9329 -1.2757 0.9892
-2.2448 -1.1979 -1.3583 0.9885
-3.2318 -2.5521 -2.1984 0.9815
-3.0724 -2.9059 -2.2576 0.9810
-2.8818 -3.2585 -2.3222 0.9805
-2.4004 -3.9516 -2.4682 0.9793
-1.4053 -4.9148 -2.7289 0.9771
-0.5490 -5.4575 -2.9282 0.9754
2.2032 -6.1237 -3.4742 0.9709
3.4483 -5.9726 -3.6817 0.9692
4.0665 -5.7846 -3.7748 0.9684
5.7509 -4.7532 -3.9830 0.9667
6.2107 -4.2634 -4.0216 0.9664
6.9068 -3.1121 -4.0441 0.9662
7.2547 -1.8145 -3.9922 0.9667
7.2912 -1.1464 -3.9401 0.9671
6.8902 0.7708 -3.7012 0.9691
6.6115 1.3438 -3.6017 0.9699
5.1430 2.5989 -3.0762 0.9742
4.7258 2.9432 -2.9721 0.9751
3.8476 3.4799 -2.7695 0.9768
3.3998 3.6758 -2.6730 0.9776
0.8633 4.0173 -2.1936 0.9815
0.4881 3.9633 -2.1318 0.9821
0.1299 3.8850 -2.0752 0.9825
-0.5453 3.7391 -2.0172 0.9830
-0.8947 3.7544 -2.0604 0.9827
-1.2016 3.5890 -2.0205 0.9830
-1.4898 3.4074 -1.9853 0.9833
-1.7596 3.2110 -1.9547 0.9835
-2.0111 3.0009 -1.9285 0.9838
-2.2445 2.7781 -1.9066 0.9839
-2.4599 2.5436 -1.8890 0.9841
-2.8371 2.0420 -1.8661 0.9843
-2.9988 1.7762 -1.8607 0.9843
-3.2683 1.2172 -1.8619 0.9843
-3.3756 0.9247 -1.8685 0.9843
-2.2057 0.3974 -1.1965 0.9899
-2.1547 0.1926 -1.1549 0.9902
-2.1192 0.0000 -1.1770 0.9904
-2.1202 -0.1895 -1.1823 0.9903
-2.1317 -0.7938 -1.2633 0.9896
-3.0483 -2.6360 -2.2382 0.9817
-2.8767 -2.9746 -2.2983 0.9812
-2.6744 -3.3102 -2.3635 0.9807
-2.4398 -3.6405 -2.4340 0.9801
-1.8687 -4.2739 -2.5907 0.9789
-0.7438 -5.0997 -2.8623 0.9767
0.1843 -5.5117 -3.0629 0.9751
0.6970 -5.6588 -3.1666 0.9742
1.2374 -5.7582 -3.2711 0.9734
2.3791 -5.7890 -3.4761 0.9718
3.5492 -5.5597 -3.6634 0.9703
4.1199 -5.3383 -3.7452 0.9696
5.1734 -4.6790 -3.8741 0.9686
5.6317 -4.2470 -3.9175 0.9682
6.0291 -3.7550 -3.9449 0.9680
6.6052 -2.6288 -3.9484 0.9680
6.8534 -1.3930 -3.8841 0.9685
6.8513 -0.7664 -3.8289 0.9689
6.3888 1.0046 -3.5919 0.9708
6.1068 1.5274 -3.4961 0.9716
5.7755 2.0055 -3.3956 0.9724
5.2408 2.3614 -3.1925 0.9740
4.2985 2.9507 -2.8957 0.9764
3.8855 3.2115 -2.7997 0.9772
3.4647 3.4263 -2.7063 0.9780
3.0414 3.5974 -2.6163 0.9787
2.2045 3.8182 -2.4487 0.9800
1.7975 3.8736 -2.3717 0.9807
1.0187 3.8883 -2.2324 0.9818
0.6499 3.8529 -2.1701 0.9823
-0.0413 3.7092 -2.0602 0.9832
-0.3718 3.6962 -2.0632 0.9831
-1.5778 3.2107 -1.9869 0.9838
-1.8313 3.0148 -1.9591 0.9840
-2.0673 2.8058 -1.9356 0.9842
-2.2857 2.5846 -1.9163 0.9843
-2.4867 2.3520 -1.9010 0.9845
-2.8364 1.8555 -1.8825 0.9846
-2.9850 1.5929 -1.8792 0.9846
-3.1160 1.3213 -1.8798 0.9846
-3.2289 1.0412 -1.8843 0.9846
-2.1264 0.2860 -1.1916 0.9902
-2.1231 -0.4810 -1.2091 0.9901
-2.1353 -0.9054 -1.2881 0.9894
-2.9663 -2.8055 -2.2676 0.9815
-2.7795 -3.1429 -2.3302 0.9810
-2.3100 -3.8028 -2.4712 0.9798
-2.0246 -4.1199 -2.5496 0.9792
-1.7039 -4.4240 -2.6330 0.9785
-0.9539 -4.9766 -2.8143 0.9771
0.9640 -5.7148 -3.2188 0.9738
1.5164 -5.7880 -3.3232 0.9730
