ply
format ascii 1.0
element vertex 1585
property float32 x
property float32 y
property float32 z
property float32 I
end_header
-11.2948 7.3887 0.1122 0.9474
-12.3488 5.2364 0.1115 0.9478
-12.8860 4.1552 0.1125 0.9473
-13.8895 1.8679 0.1165 0.9455
-9.3191 11.5345 0.1232 0.9424
-9.9206 10.2579 0.1186 0.9445
-10.4865 9.0680 0.1152 0.9461
-11.0290 7.9382 0.1129 0.9471
-12.0844 5.7723 0.1113 0.9478
-14.1932 1.2683 0.1184 0.9446
-13.5366 0.0000 -0.1125 0.9473
10.6104 10.4929 -0.1240 0.9421
-7.5300 12.3961 -0.1205 0.9436
-8.1910 11.1170 -0.1148 0.9463
-8.7932 9.9426 -0.1103 0.9483
-9.8780 7.8006 -0.1046 0.9509
-10.3822 6.7917 -0.1031 0.9516
-10.8726 5.8019 -0.1024 0.9519
-11.8419 3.8185 -0.1034 0.9514
-12.3355 2.7948 -0.1051 0.9507
-13.2599 0.5913 -0.1103 0.9483
9.8816 10.6839 -0.1210 0.9434
8.7484 11.3356 -0.1190 0.9443
-3.3245 4.9605 -0.0496 0.9764
-9.0770 9.3856 -0.1085 0.9491
-11.1150 5.3092 -0.1024 0.9519
-12.0872 3.3110 -0.1042 0.9511
-12.4931 2.2507 -0.1055 0.9505
-12.9334 -1.1557 -0.3238 0.9494
-6.1710 12.5580 -0.3489 0.9456
-7.5150 10.1995 -0.3160 0.9506
-8.0934 9.1514 -0.3047 0.9523
-8.6281 8.1604 -0.2962 0.9536
-9.6059 6.2839 -0.2863 0.9551
-10.0646 5.3707 -0.2845 0.9554
-11.3965 2.5821 -0.2914 0.9543
-13.1907 -1.7740 -0.3319 0.9481
-13.7375 -3.1125 -0.3513 0.9452
9.8890 10.6919 -0.3632 0.9434
8.6779 11.2443 -0.3542 0.9448
-5.7820 13.2240 -0.3599 0.9439
-3.3337 4.9743 -0.1493 0.9763
-8.3655 8.6499 -0.3001 0.9530
-9.3702 6.7444 -0.2879 0.9549
-10.7334 3.9972 -0.2856 0.9552
-11.1748 3.0612 -0.2890 0.9547
-11.9781 1.0704 -0.2999 0.9530
-13.3158 -4.9588 -0.5908 0.9447
-2.8015 14.6152 -0.6188 0.9422
-3.7695 13.1830 -0.5701 0.9466
-6.3328 10.4253 -0.5072 0.9523
-6.9417 9.4213 -0.4866 0.9542
-7.4963 8.4762 -0.4705 0.9557
-8.4859 6.7012 -0.4496 0.9576
-8.9371 5.8464 -0.4441 0.9581
-9.3679 4.9989 -0.4415 0.9584
-9.7837 4.1487 -0.4419 0.9583
-10.1895 3.2857 -0.4452 0.9580
-11.7184 -0.5225 -0.4877 0.9541
-12.1411 -1.6328 -0.5094 0.9521
-12.5860 -2.8516 -0.5366 0.9496
-13.0622 -4.2120 -0.5707 0.9465
8.6086 11.1545 -0.5859 0.9452
-4.1975 12.5372 -0.5497 0.9484
-4.9649 11.3552 -0.5153 0.9516
-5.6382 10.2883 -0.4878 0.9541
-3.3430 4.9882 -0.2497 0.9762
-7.2250 8.9425 -0.4780 0.9550
-7.7569 8.0206 -0.4639 0.9563
-8.2507 7.1347 -0.4535 0.9573
-8.7144 6.2723 -0.4464 0.9579
-9.1547 5.4223 -0.4424 0.9583
-9.5774 4.5747 -0.4413 0.9584
-9.9876 3.7194 -0.4431 0.9582
-10.3900 2.8461 -0.4479 0.9578
-10.7892 1.9438 -0.4558 0.9571
-11.4269 -2.0587 -0.6763 0.9545
-11.7995 -3.2322 -0.7126 0.9522
-12.1892 -4.5393 -0.7576 0.9492
-12.6035 -6.0202 -0.8135 0.9456
-2.5405 13.2537 -0.7860 0.9474
-7.9263 6.2594 -0.5883 0.9603
-8.3546 5.4653 -0.5815 0.9608
-9.1490 3.8795 -0.5788 0.9610
-9.5238 3.0710 -0.5828 0.9607
-9.8887 2.2405 -0.5906 0.9602
-10.2427 1.3775 -0.6019 0.9594
-10.5348 0.4698 -0.6142 0.9586
-10.8877 -0.4855 -0.6348 0.9573
-11.2451 -1.5123 -0.6609 0.9556
-11.6114 -2.6308 -0.6934 0.9534
-11.9918 -3.8669 -0.7339 0.9508
-12.3928 -5.2550 -0.7840 0.9475
-12.8235 -6.8428 -0.8466 0.9434
-2.0295 13.9154 -0.8191 0.9452
-3.8472 11.4910 -0.7058 0.9526
-5.2165 9.5190 -0.6322 0.9574
-6.7206 8.3182 -0.6228 0.9581
-7.2302 7.4761 -0.6058 0.9592
-7.7022 6.6604 -0.5931 0.9600
-8.1435 5.8614 -0.5844 0.9606
-9.3378 3.4775 -0.5804 0.9609
-9.7073 2.6591 -0.5862 0.9605
-10.3588 0.9257 -0.6057 0.9592
-10.0121 0.0000 -0.7503 0.9606
-10.3186 -0.9221 -0.7764 0.9593
-10.6231 -1.9138 -0.8089 0.9576
-10.9282 -2.9936 -0.8491 0.9556
-11.2368 -4.1846 -0.8986 0.9530
-11.5520 -5.5179 -0.9594 0.9499
-11.8779 -7.0354 -1.0346 0.9461
9.2136 10.8979 -1.0694 0.9444
-0.1625 14.5847 -1.0930 0.9432
-1.3349 13.2695 -0.9994 0.9479
-4.5553 9.2700 -0.7740 0.9594
-5.1339 8.4516 -0.7411 0.9611
-5.6549 7.6749 -0.7144 0.9625
-6.5305 7.3842 -0.7387 0.9612
-6.9997 6.6203 -0.7220 0.9621
-7.4351 5.8715 -0.7100 0.9627
-7.8424 5.1303 -0.7023 0.9631
-8.5906 3.6428 -0.6993 0.9633
-8.9387 2.8824 -0.7038 0.9630
-9.2737 2.1011 -0.7126 0.9626
-9.5981 1.2908 -0.7258 0.9619
-9.8574 0.4396 -0.7394 0.9612
-10.1657 -0.4533 -0.7626 0.9600
-10.7754 -2.4414 -0.8280 0.9566
-11.7133 -6.2504 -0.9950 0.9481
-0.7752 13.9037 -1.0436 0.9457
-1.8486 12.6754 -0.9599 0.9499
-2.7614 11.5874 -0.8927 0.9533
-3.5503 10.6044 -0.8381 0.9561
-4.8526 8.8549 -0.7567 0.9603
-3.3618 5.0162 -0.4525 0.9761
-7.6420 5.5004 -0.7056 0.9629
-8.0370 4.7604 -0.7000 0.9632
-8.7664 3.2647 -0.7010 0.9632
-4.4479 0.0000 -0.4078 0.9823
-9.6645 -0.8636 -0.8896 0.9618
-9.9233 -1.7878 -0.9244 0.9603
-11.1255 -8.0076 -1.2567 0.9464
1.1321 14.4875 -1.3322 0.9433
-0.1475 13.2383 -1.2137 0.9482
-1.2213 12.1404 -1.1186 0.9522
-2.9337 10.2600 -0.9783 0.9580
-3.6322 9.4310 -0.9265 0.9602
-4.8038 7.9083 -0.8483 0.9635
-5.3030 7.1974 -0.8196 0.9647
-6.1340 6.9358 -0.8489 0.9635
-6.5837 6.2269 -0.8308 0.9643
-7.0002 5.5280 -0.8177 0.9648
-7.7522 4.1368 -0.8056 0.9653
-8.0952 3.4327 -0.8061 0.9653
-8.4201 2.7152 -0.8111 0.9651
-4.0002 0.1784 -0.3671 0.9840
-10.0500 -2.2770 -0.9447 0.9595
0.4628 13.8411 -1.2696 0.9459
-0.7066 12.6730 -1.1636 0.9503
-1.6970 11.6361 -1.0781 0.9539
-2.5496 10.6987 -1.0083 0.9568
-3.2938 9.8381 -0.9511 0.9592
-3.9510 9.0363 -0.9042 0.9612
-4.5348 8.2750 -0.8651 0.9628
-3.3713 5.0304 -0.5552 0.9760
-6.3633 6.5797 -0.8392 0.9639
-6.7958 5.8766 -0.8237 0.9646
-7.5731 4.4856 -0.8069 0.9653
-4.9080 0.8842 -0.4572 0.9802
-4.1097 0.3672 -0.3783 0.9836
-9.8944 -4.7262 -1.1894 0.9568
-10.2084 -7.3476 -1.3643 0.9507
-10.3346 -8.9367 -1.4820 0.9465
1.0276 13.1508 -1.4308 0.9483
-0.1350 12.1163 -1.3143 0.9524
-1.1252 11.1857 -1.2194 0.9558
-2.7300 9.5474 -1.0771 0.9608
-3.3924 8.8084 -1.0238 0.9627
-3.9835 8.1062 -0.9797 0.9643
-4.9911 6.7740 -0.9127 0.9667
-6.2133 5.8766 -0.9276 0.9662
-6.6123 5.2217 -0.9139 0.9667
-7.3287 3.9107 -0.9010 0.9671
-7.6526 3.2450 -0.9016 0.9671
-4.7637 1.0793 -0.5298 0.9805
-3.7517 0.5046 -0.4106 0.9849
-9.4143 -2.1330 -1.0470 0.9619
-9.6166 -3.1010 -1.0960 0.9602
-9.9795 -5.3252 -1.2269 0.9555
-10.1369 -6.6312 -1.3139 0.9524
-10.3884 -9.8253 -1.5509 0.9441
-1.5680 10.7518 -1.1785 0.9572
-3.0709 9.1725 -1.0492 0.9618
-3.6963 8.4539 -1.0008 0.9636
-6.4166 5.5487 -0.9201 0.9664
-6.8009 4.8950 -0.9089 0.9668
-7.1587 4.2401 -0.9025 0.9671
-7.4932 3.5792 -0.9007 0.9671
-3.9948 0.7197 -0.4403 0.9838
-3.7413 0.3344 -0.4074 0.9850
-3.5692 0.0000 -0.4473 0.9857
-8.7632 -1.5788 -1.1159 0.9647
-9.3421 -5.5333 -1.3607 0.9572
3.6880 14.0770 -1.8236 0.9430
2.1924 12.9971 -1.6518 0.9483
-2.5520 8.9252 -1.1633 0.9633
-3.7462 7.6235 -1.0645 0.9663
-4.2529 7.0013 -1.0266 0.9675
-5.4669 6.1815 -1.0341 0.9673
-5.8813 5.5625 -1.0145 0.9679
-7.5409 2.4316 -0.9929 0.9686
-3.5348 0.1576 -0.4434 0.9858
-8.6699 -1.1660 -1.0963 0.9653
-8.8524 -2.0056 -1.1375 0.9641
-9.2886 -4.9565 -1.3194 0.9584
-9.3890 -6.1420 -1.4060 0.9558
-9.4600 -7.4705 -1.5106 0.9526
-9.4947 -8.9800 -1.6377 0.9487
-9.4840 -10.7237 -1.7940 0.9439
2.9053 13.5200 -1.7330 0.9458
1.5400 12.5038 -1.5788 0.9505
0.3876 11.5914 -1.4534 0.9543
-2.8757 8.5893 -1.1351 0.9641
-4.0059 7.3099 -1.0446 0.9670
-5.6783 5.8714 -1.0236 0.9676
-6.7859 4.0194 -0.9884 0.9687
-7.1038 3.3932 -0.9866 0.9688
-7.4001 2.7559 -0.9896 0.9687
-7.6768 2.1029 -0.9975 0.9684
-3.8076 0.6860 -0.4848 0.9845
-3.5366 0.3160 -0.4450 0.9858
-3.5138 -0.3140 -0.5018 0.9858
-8.5454 -3.1823 -1.2970 0.9638
-8.6450 -4.1294 -1.3627 0.9620
-8.7170 -5.1631 -1.4411 0.9599
-8.7574 -7.5728 -1.6468 0.9543
-8.7098 -9.0059 -1.7820 0.9506
4.9430 13.7391 -2.0768 0.9427
2.0060 11.8922 -1.7154 0.9524
0.8668 11.0923 -1.5825 0.9560
-0.1153 10.3516 -1.4725 0.9590
-0.9716 9.6582 -1.3807 0.9615
-2.9949 7.7762 -1.1852 0.9669
-4.4626 6.0567 -1.0701 0.9701
-5.1833 5.8609 -1.1129 0.9689
-5.5818 5.2792 -1.0928 0.9694
-5.9491 4.6980 -1.0782 0.9698
-6.6030 3.5235 -1.0645 0.9702
-7.1646 2.3103 -1.0707 0.9700
-3.3609 0.1499 -0.4785 0.9865
-3.4470 -0.1537 -0.4908 0.9862
-3.6292 -0.4881 -0.5209 0.9853
-8.3517 -1.8923 -1.2180 0.9660
-8.4864 -2.7365 -1.2683 0.9646
-8.5984 -3.6461 -1.3284 0.9630
-8.7403 -8.2666 -1.7112 0.9526
-8.6641 -9.7967 -1.8602 0.9485
-8.5189 -11.5620 -2.0427 0.9436
8.5700 11.1045 -1.9951 0.9449
4.1070 13.2395 -1.9717 0.9455
2.6473 12.3192 -1.7922 0.9504
1.4144 11.4839 -1.6458 0.9543
0.3583 10.7153 -1.5250 0.9576
-0.5575 9.9996 -1.4245 0.9603
-1.3601 9.3261 -1.3405 0.9626
-2.0700 8.6864 -1.2701 0.9646
-3.2719 7.4832 -1.1617 0.9675
-3.7836 6.9042 -1.1198 0.9687
-3.4088 5.0863 -0.8709 0.9756
-4.6689 5.7788 -1.0567 0.9704
-5.3867 5.5698 -1.1021 0.9692
-6.1221 4.4065 -1.0729 0.9700
-6.7515 3.2249 -1.0642 0.9702
-7.0320 2.6188 -1.0673 0.9701
-7.2921 1.9975 -1.0754 0.9699
-3.6716 0.6615 -0.5306 0.9850
-3.2915 0.0000 -0.5241 0.9868
-3.3915 -0.3031 -0.5422 0.9863
-7.8391 -1.4123 -1.2684 0.9683
-7.9605 -2.1806 -1.3143 0.9671
-8.0579 -3.0008 -1.3692 0.9658
-8.1283 -3.8826 -1.4344 0.9642
-8.1717 -5.8817 -1.6033 0.9600
-8.0413 -8.3147 -1.8419 0.9542
-7.8850 -9.7595 -1.9979 0.9505
-7.6460 -11.4087 -2.1869 0.9459
6.1706 13.2972 -2.3343 0.9424
4.4797 12.4514 -2.1071 0.9478
1.8481 10.9563 -1.7693 0.9560
0.8035 10.2821 -1.6423 0.9591
-2.8281 7.3432 -1.2530 0.9686
-3.3445 6.8060 -1.2076 0.9698
-4.2364 5.7497 -1.1373 0.9715
-6.8225 2.2000 -1.1415 0.9714
-3.2540 0.4376 -0.5228 0.9868
-3.3343 -0.1487 -0.5315 0.9866
-8.0124 -2.5837 -1.3406 0.9665
-8.0966 -3.4333 -1.4004 0.9650
-8.0942 -7.6555 -1.7741 0.9559
0.3330 9.9591 -1.5867 0.9604
-0.5206 9.3373 -1.4891 0.9628
-1.2750 8.7425 -1.4069 0.9648
-2.5495 7.6150 -1.2787 0.9680
-3.5834 6.5390 -1.1874 0.9702
-4.4351 5.4894 -1.1238 0.9718
-5.1223 5.2965 -1.1733 0.9706
-5.8293 4.1957 -1.1437 0.9713
-6.1422 3.6380 -1.1368 0.9715
-6.4310 3.0719 -1.1349 0.9715
-6.6973 2.4942 -1.1380 0.9715
-4.5041 1.2338 -0.7436 0.9813
-3.5500 0.6396 -0.5744 0.9855
-3.2454 0.2900 -0.5189 0.9869
-3.1939 0.0000 -0.5632 0.9871
-7.4436 -1.3410 -1.3336 0.9697
-7.6815 -4.5498 -1.5742 0.9644
-7.6575 -5.5115 -1.6636 0.9624
7.3564 12.7416 -2.5943 0.9420
4.0940 11.3793 -2.1324 0.9521
1.7127 10.1531 -1.8156 0.9590
-2.1316 7.4550 -1.3672 0.9690
-2.6782 6.9539 -1.3140 0.9702
-5.0623 4.7879 -1.2286 0.9721
-5.4022 4.2661 -1.2138 0.9724
-6.2675 2.6577 -1.2004 0.9727
-3.1779 0.4274 -0.5654 0.9871
-3.2276 -0.1439 -0.5697 0.9870
-7.5864 -2.4463 -1.4055 0.9681
-7.6789 -4.0976 -1.5347 0.9653
-7.6746 -5.0205 -1.6171 0.9634
-7.6291 -6.0246 -1.7141 0.9613
-7.5343 -7.1259 -1.8286 0.9588
-7.3799 -8.3446 -1.9643 0.9558
-7.1517 -9.7064 -2.1259 0.9522
-6.3849 -12.9929 -2.5527 0.9429
8.5827 11.1209 -2.4770 0.9445
6.4330 12.3856 -2.4609 0.9449
4.8104 11.7053 -2.2315 0.9499
0.3110 9.2993 -1.6406 0.9629
-1.1996 8.2251 -1.4656 0.9668
-3.4023 6.2085 -1.2483 0.9717
-3.4358 5.1266 -1.0882 0.9752
-6.3915 2.3802 -1.2026 0.9727
-4.2904 1.1753 -0.7844 0.9821
-3.4371 0.6192 -0.6158 0.9859
-3.1509 0.2816 -0.5578 0.9872
-3.3117 -0.5966 -0.6512 0.9864
-7.2474 -4.2926 -1.6301 0.9663
-7.2015 -5.1834 -1.7171 0.9645
-6.9636 -7.2003 -1.9384 0.9600
6.6551 11.5270 -2.5758 0.9472
-0.8047 7.9992 -1.5558 0.9678
-2.5428 6.6024 -1.3692 0.9716
-4.8354 4.5733 -1.2880 0.9732
-5.1628 4.0770 -1.2731 0.9736
-5.9928 2.5412 -1.2597 0.9738
-3.6833 0.8345 -0.7309 0.9847
-3.1048 0.4176 -0.6062 0.9873
-3.1273 -0.1395 -0.6058 0.9873
-7.2297 -4.7295 -1.6719 0.9654
-6.8666 -7.7643 -2.0058 0.9586
-6.6165 -8.9800 -2.1586 0.9556
-6.2742 -10.3288 -2.3387 0.9520
-5.8176 -11.8386 -2.5527 0.9477
-5.2183 -13.5491 -2.8097 0.9426
7.5300 11.7956 -2.7081 0.9446
5.8484 11.2601 -2.4554 0.9496
4.4106 10.7325 -2.2455 0.9538
3.1686 10.2145 -2.0696 0.9574
-0.4593 8.2371 -1.5965 0.9669
-1.7385 7.2951 -1.4513 0.9699
-2.7854 6.3706 -1.3455 0.9721
-3.4496 5.1472 -1.1991 0.9751
-4.0283 4.9860 -1.2404 0.9742
-4.6611 4.8195 -1.2975 0.9731
-5.0025 4.3259 -1.2798 0.9734
-5.3164 3.8266 -1.2676 0.9737
-5.6048 3.3197 -1.2606 0.9738
-4.1640 1.1407 -0.8355 0.9826
-3.3306 0.6001 -0.6549 0.9863
-3.0639 0.2738 -0.5953 0.9875
-3.0211 0.0000 -0.6369 0.9877
-6.8262 -1.8699 -1.4921 0.9715
-6.8688 -2.5579 -1.5452 0.9705
-6.8805 -3.2865 -1.6075 0.9693
-6.6855 -5.7812 -1.8633 0.9645
-6.5224 -6.7441 -1.9780 0.9624
-6.2949 -7.7913 -2.1117 0.9599
-5.9878 -8.9345 -2.2675 0.9570
-5.5842 -10.1899 -2.4497 0.9536
7.6666 10.9059 -2.8104 0.9470
6.0725 10.5179 -2.5604 0.9516
4.6924 10.1117 -2.3501 0.9555
2.4289 9.2711 -2.0205 0.9616
1.4919 8.8444 -1.8909 0.9640
-0.0890 7.9886 -1.6843 0.9679
-2.4190 6.2810 -1.4190 0.9729
-3.2904 5.4168 -1.3361 0.9744
-3.6711 4.9825 -1.3047 0.9750
-4.9424 3.9030 -1.3277 0.9746
-5.2321 3.4228 -1.3181 0.9748
-5.7395 2.4338 -1.3143 0.9748
-5.9592 1.9216 -1.3200 0.9747
-2.9939 0.1335 -0.6318 0.9878
-3.0505 -0.1360 -0.6438 0.9876
-3.1545 -0.4243 -0.6710 0.9871
-6.7943 -1.5394 -1.4687 0.9719
-6.8511 -2.2092 -1.5176 0.9710
-6.7462 -5.3274 -1.8122 0.9655
-6.1529 -8.3508 -2.1868 0.9585
-5.7991 -9.5467 -2.3549 0.9554
-5.3402 -10.8669 -2.5526 0.9517
-4.7508 -12.3351 -2.7867 0.9474
8.5587 11.0898 -2.9533 0.9443
6.8400 10.7147 -2.6799 0.9494
5.3583 10.3165 -2.4508 0.9536
4.0702 9.9042 -2.2574 0.9572
1.9465 9.0580 -1.9532 0.9628
1.0630 8.6306 -1.8332 0.9651
-0.4335 7.7748 -1.6416 0.9687
-1.6493 6.9211 -1.5000 0.9713
-2.6519 6.0652 -1.3956 0.9733
-3.0870 5.6332 -1.3542 0.9741
-3.8989 4.8258 -1.3079 0.9750
-4.4584 4.6100 -1.3521 0.9741
-5.3678 3.1794 -1.3152 0.9748
-5.6213 2.6851 -1.3133 0.9749
-4.0000 1.0957 -0.8744 0.9832
-3.2435 0.5844 -0.6948 0.9866
-2.9809 0.2664 -0.6310 0.9878
-3.0430 -0.2719 -0.6973 0.9875
-6.5127 -1.7840 -1.5413 0.9727
-6.5427 -2.4365 -1.5935 0.9718
-6.5412 -3.1245 -1.6546 0.9707
-6.5048 -3.8528 -1.7256 0.9695
-6.4285 -4.6269 -1.8078 0.9680
-6.3064 -5.4534 -1.9029 0.9664
-5.8934 -7.2944 -2.1404 0.9623
-5.1738 -9.4411 -2.4572 0.9568
-4.6614 -10.6610 -2.6557 0.9534
-4.0173 -11.9991 -2.8881 0.9494
-3.2110 -13.4740 -3.1615 0.9448
6.9902 9.9436 -2.7742 0.9514
4.3411 9.3547 -2.3539 0.9586
3.2452 9.0199 -2.1879 0.9614
2.2709 8.6680 -2.0452 0.9639
0.6197 7.9306 -1.8156 0.9679
-0.0841 7.5507 -1.7235 0.9695
-2.3018 5.9765 -1.4618 0.9741
-3.5127 4.7676 -1.3517 0.9760
-4.1019 4.6381 -1.4132 0.9749
-4.4339 4.1936 -1.3930 0.9753
-5.0180 3.2827 -1.3686 0.9757
-5.7149 1.8429 -1.3705 0.9757
-3.4289 0.7769 -0.8025 0.9857
-2.9625 0.3984 -0.6823 0.9878
-6.4870 -1.4698 -1.5181 0.9731
-6.5314 -2.1061 -1.5664 0.9722
-6.5277 -3.4833 -1.6888 0.9701
-6.3736 -5.0332 -1.8536 0.9672
-6.0208 -6.8079 -2.0744 0.9634
-5.3883 -8.8703 -2.3689 0.9583
-4.3575 -11.3142 -2.7673 0.9515
-3.6366 -12.7182 -3.0192 0.9472
9.4980 10.2691 -3.1927 0.9442
6.2622 9.8096 -2.6563 0.9534
3.7766 9.1898 -2.2677 0.9601
0.9999 8.1181 -1.8669 0.9670
0.2589 7.7414 -1.7679 0.9687
-1.0168 6.9721 -1.6082 0.9715
-1.5684 6.5816 -1.5443 0.9726
-2.0673 6.1747 -1.4862 0.9736
-2.9489 5.3811 -1.4005 0.9751
-4.2714 4.4167 -1.4024 0.9751
-4.5896 3.9688 -1.3849 0.9754
-4.8814 3.5135 -1.3728 0.9756
-5.6128 2.0903 -1.3671 0.9757
-3.1659 0.5704 -0.7342 0.9869
-2.9277 0.2616 -0.6709 0.9880
-3.1004 -0.5585 -0.7743 0.9871
-6.0975 -4.3887 -1.8466 0.9695
-5.7818 -5.9783 -2.0443 0.9663
-4.8171 -8.7901 -2.4638 0.9596
-1.9940 -13.6720 -3.3961 0.9447
6.4195 9.1318 -2.7437 0.9551
5.1594 8.9362 -2.5363 0.9584
1.3195 7.8220 -1.9498 0.9679
0.5857 7.4945 -1.8478 0.9695
-0.6848 6.8076 -1.6818 0.9722
-1.2366 6.4519 -1.6148 0.9733
-1.7377 6.0771 -1.5536 0.9743
-2.1986 5.7087 -1.5037 0.9751
-3.3667 4.5694 -1.3951 0.9769
-3.9343 4.4487 -1.4598 0.9758
-4.2553 4.0247 -1.4397 0.9762
-4.5497 3.5929 -1.4250 0.9764
-4.8192 3.1526 -1.4155 0.9766
-5.0649 2.7028 -1.4111 0.9766
-5.4882 1.7698 -1.4174 0.9765
-2.8899 0.3887 -0.7167 0.9881
-3.1571 -0.7153 -0.7957 0.9868
-6.2381 -2.0115 -1.6111 0.9734
-6.2420 -2.6468 -1.6665 0.9725
-6.1462 -4.0207 -1.8053 0.9702
-5.8807 -5.5619 -1.9896 0.9672
-5.0293 -8.2793 -2.3811 0.9609
-4.5801 -9.3203 -2.5526 0.9581
10.3243 9.3378 -3.4217 0.9443
5.7710 9.0400 -2.6362 0.9568
3.5208 8.5672 -2.2767 0.9626
2.5700 8.2846 -2.1321 0.9649
0.9434 7.6599 -1.8970 0.9687
0.2450 7.3263 -1.8018 0.9703
-0.3893 6.9826 -1.7190 0.9716
-0.9670 6.6304 -1.6470 0.9728
-1.4918 6.2612 -1.5822 0.9738
-4.0982 4.2376 -1.4490 0.9760
-4.6875 3.3739 -1.4196 0.9765
-3.0843 0.5557 -0.7703 0.9872
-2.8744 0.0000 -0.7574 0.9882
-2.9343 -0.2622 -0.7763 0.9879
-3.0385 -0.5474 -0.8135 0.9873
-5.9590 -1.6323 -1.6281 0.9748
-5.9692 -2.2229 -1.6784 0.9740
-5.9479 -2.8411 -1.7369 0.9731
-4.9001 -7.3115 -2.3192 0.9642
-3.4196 -10.2138 -2.8382 0.9564
-2.6953 -11.3101 -3.0637 0.9530
8.6005 8.5052 -3.1872 0.9512
7.1946 8.5098 -2.9363 0.9550
5.9313 8.4373 -2.7176 0.9582
4.7945 8.3043 -2.5267 0.9611
3.7700 8.1241 -2.3600 0.9636
2.8446 7.9067 -2.2141 0.9658
2.0068 7.6599 -2.0865 0.9678
0.5549 7.1009 -1.8768 0.9710
-0.0757 6.7971 -1.7912 0.9723
-1.1773 6.1422 -1.6480 0.9745
-1.6602 5.8062 -1.5912 0.9753
-4.0892 3.8676 -1.4831 0.9770
-4.3739 3.4540 -1.4686 0.9772
-4.6341 3.0316 -1.4592 0.9774
-4.8710 2.5993 -1.4548 0.9774
-5.0852 2.1563 -1.4555 0.9774
-2.8514 0.1271 -0.7521 0.9883
-2.9007 -0.1293 -0.7651 0.9881
-2.9836 -0.4013 -0.7933 0.9876
-5.9678 -1.9244 -1.6523 0.9744
-5.5692 -5.2674 -2.0199 0.9688
-5.3504 -6.0499 -2.1281 0.9671
-4.7127 -7.7581 -2.3919 0.9631
-3.7325 -9.6912 -2.7365 0.9580
-0.1599 -14.3588 -3.7838 0.9423
11.0149 8.3067 -3.6352 0.9445
3.2957 8.0195 -2.2846 0.9648
2.4154 7.7865 -2.1482 0.9668
1.6176 7.5274 -2.0287 0.9687
0.8926 7.2474 -1.9241 0.9702
0.2324 6.9507 -1.8325 0.9716
-0.3702 6.6405 -1.7525 0.9729
-1.4239 5.9753 -1.6186 0.9749
-2.7039 4.9341 -1.4826 0.9770
-3.6133 4.4723 -1.5150 0.9765
-4.5070 3.2440 -1.4632 0.9773
-5.1840 1.9306 -1.4576 0.9774
-2.8347 0.2533 -0.7499 0.9883
-2.8279 0.0000 -0.7957 0.9883
-2.8819 -0.2575 -0.8141 0.9880
-2.9786 -0.5366 -0.8515 0.9875
-5.7130 -1.5649 -1.6666 0.9757
-5.7154 -2.1285 -1.7160 0.9750
-5.6867 -2.7163 -1.7732 0.9742
-5.5218 -3.9744 -1.9142 0.9721
-5.3771 -4.6497 -2.0001 0.9709
-5.1825 -5.3587 -2.0975 0.9695
-4.9312 -6.1034 -2.2077 0.9679
-4.6159 -6.8874 -2.3328 0.9661
-4.2269 -7.7132 -2.4747 0.9641
-3.7528 -8.5829 -2.6356 0.9618
-2.4926 -10.4594 -3.0252 0.9563
-1.6721 -11.4652 -3.2600 0.9530
0.4544 -13.5912 -3.8261 0.9451
12.3788 6.9642 -3.9962 0.9427
10.7525 7.3812 -3.6695 0.9472
9.2573 7.6514 -3.3791 0.9513
5.5086 7.8361 -2.6950 0.9610
4.4753 7.7514 -2.5183 0.9635
3.5345 7.6166 -2.3625 0.9657
0.5270 6.7437 -1.9032 0.9723
-0.0721 6.4702 -1.8206 0.9735
-1.5887 5.5562 -1.6259 0.9763
-2.0157 5.2338 -1.5780 0.9770
-4.4613 2.9185 -1.5000 0.9781
-4.8960 2.0761 -1.4963 0.9781
-5.0802 1.6382 -1.5018 0.9781
-3.1370 0.7108 -0.9050 0.9867
-2.8062 0.1251 -0.7903 0.9884
-2.8531 -0.1272 -0.8035 0.9882
-3.0353 -0.6877 -0.8756 0.9872
-5.7052 -2.4192 -1.7435 0.9746
-5.6596 -3.0201 -1.8049 0.9737
-5.4552 -4.3079 -1.9557 0.9715
-5.2868 -5.0002 -2.0474 0.9702
-4.7821 -6.4903 -2.2683 0.9671
-4.4313 -7.2949 -2.4015 0.9652
-3.4796 -9.0348 -2.7240 0.9606
-2.1002 -10.9569 -3.1389 0.9547
-0.1454 -13.0480 -3.6714 0.9472
9.9886 7.5327 -3.5199 0.9493
7.2527 7.8415 -3.0053 0.9566
6.0629 7.8559 -2.7920 0.9596
4.9798 7.8007 -2.6039 0.9623
3.9939 7.6896 -2.4379 0.9646
2.2773 7.3413 -2.1626 0.9686
-0.3527 6.3274 -1.7830 0.9740
-0.8781 6.0211 -1.7120 0.9750
-1.8066 5.3962 -1.6011 0.9766
-2.5940 4.7335 -1.5187 0.9778
-3.4736 4.2993 -1.5551 0.9773
-4.3385 3.1227 -1.5040 0.9780
-4.7957 2.2907 -1.4953 0.9782
-4.9908 1.8586 -1.4984 0.9781
-3.6501 0.9999 -1.0648 0.9844
-2.9228 0.5266 -0.8356 0.9877
-3.0126 -0.8252 -0.9351 0.9870
-5.4803 -2.0409 -1.7508 0.9759
-5.4452 -2.6010 -1.8067 0.9751
-5.3762 -3.1844 -1.8707 0.9742
-4.9233 -5.0907 -2.1202 0.9709
-4.6723 -5.7830 -2.2258 0.9694
-3.9797 -7.2621 -2.4792 0.9660
-2.3166 -9.7213 -2.9919 0.9591
11.1846 6.2923 -3.8420 0.9478
7.2836 7.2029 -3.0667 0.9581
5.1390 7.3103 -2.6752 0.9634
2.5272 7.0244 -2.2349 0.9693
1.1210 6.6454 -2.0176 0.9723
0.5015 6.4180 -1.9273 0.9735
-0.0687 6.1704 -1.8474 0.9746
-1.9342 5.0220 -1.6111 0.9778
-2.3140 4.7090 -1.5708 0.9783
-3.1813 4.3179 -1.6057 0.9779
-3.4982 3.9555 -1.5809 0.9782
-3.7894 3.5840 -1.5615 0.9785
-4.7188 2.0010 -1.5345 0.9788
-3.0564 0.6925 -0.9382 0.9870
-2.7619 0.1232 -0.8277 0.9885
-2.8771 -0.3869 -0.8691 0.9880
-2.9771 -0.6745 -0.9139 0.9873
-3.1091 -1.0026 -0.9780 0.9865
-5.4668 -2.3181 -1.7777 0.9755
-5.2008 -4.1071 -1.9840 0.9727
-4.8049 -5.4330 -2.1714 0.9702
-4.5245 -6.1408 -2.2836 0.9687
-4.1794 -6.8802 -2.4101 0.9669
-3.7604 -7.6522 -2.5526 0.9650
-3.2570 -8.4566 -2.7130 0.9629
-2.6571 -9.2924 -2.8935 0.9604
11.9120 6.0194 -3.9957 0.9458
10.4776 6.5255 -3.6954 0.9498
6.7142 7.2593 -2.9603 0.9596
4.6562 7.2938 -2.5906 0.9645
2.9175 7.0994 -2.2979 0.9685
2.1530 6.9407 -2.1756 0.9701
0.8048 6.5344 -1.9710 0.9729
-0.3368 6.0402 -1.8111 0.9751
-1.3040 5.4721 -1.6841 0.9768
-2.1279 4.8667 -1.5902 0.9781
-2.9383 4.3843 -1.5801 0.9782
-3.3431 4.1379 -1.5926 0.9780
-3.9257 3.3948 -1.5538 0.9786
-4.1807 3.0091 -1.5421 0.9787
-4.6222 2.2079 -1.5336 0.9788
-4.8099 1.7913 -1.5366 0.9788
-2.8473 0.5130 -0.8662 0.9880
-2.7380 0.0000 -0.8695 0.9886
-2.7826 -0.2487 -0.8873 0.9883
-2.9540 -0.8092 -0.9727 0.9872
-5.2617 -1.9595 -1.7832 0.9767
-4.8851 -4.2243 -2.0510 0.9733
-4.4370 -5.4918 -2.2422 0.9708
-3.3124 -7.5757 -2.6259 0.9659
-2.7841 -8.3159 -2.7851 0.9639
-1.4359 -9.8460 -3.1600 0.9591
1.4952 -12.1398 -3.8846 0.9500
4.1806 -13.4770 -4.4813 0.9425
12.7412 4.4242 -4.2834 0.9450
11.4509 5.1595 -3.9887 0.9487
7.8368 6.4772 -3.2289 0.9582
3.9427 6.8288 -2.5043 0.9674
3.1370 6.7599 -2.3667 0.9692
1.7030 6.5002 -2.1340 0.9722
1.0665 6.3224 -2.0363 0.9734
0.4781 6.1191 -1.9493 0.9746
-0.0655 5.8848 -1.8690 0.9756
-0.5675 5.6417 -1.8007 0.9765
-2.6139 4.3031 -1.5990 0.9791
-3.0641 4.1588 -1.6405 0.9786
-3.3712 3.8120 -1.6162 0.9789
-3.6535 3.4554 -1.5971 0.9791
-3.9119 3.0892 -1.5830 0.9793
-4.1475 2.7132 -1.5740 0.9794
-2.7612 -0.1231 -0.8778 0.9885
-2.8254 -0.3800 -0.9054 0.9881
-3.1071 -1.0019 -1.0368 0.9864
-5.2455 -2.2243 -1.8095 0.9764
-5.1889 -2.7689 -1.8679 0.9756
-5.0973 -3.3345 -1.9345 0.9748
-4.5686 -5.1658 -2.1901 0.9715
-3.9524 -6.5066 -2.4178 0.9686
-3.0593 -7.9432 -2.7033 0.9649
-1.8131 -9.4591 -3.0588 0.9604
-1.0295 -10.2343 -3.2667 0.9577
-0.1226 -11.0091 -3.4965 0.9548
0.9197 -11.7701 -3.7494 0.9517
3.4507 -13.1712 -4.3242 0.9445
9.5800 5.9665 -3.5843 0.9537
7.2889 6.5924 -3.1212 0.9596
6.2458 6.7529 -2.9213 0.9621
4.3695 6.8446 -2.5789 0.9665
2.7571 6.7089 -2.3035 0.9700
2.0406 6.5781 -2.1873 0.9715
0.7666 6.2239 -1.9915 0.9740
0.2010 6.0096 -1.9096 0.9751
-0.3214 5.7653 -1.8338 0.9761
-0.8042 5.5140 -1.7697 0.9769
-1.2506 5.2480 -1.7133 0.9776
-1.6635 4.9688 -1.6641 0.9782
-2.3983 4.3765 -1.5849 0.9793
-3.2209 3.9866 -1.6277 0.9787
-3.5154 3.6349 -1.6060 0.9790
-3.7856 3.2736 -1.5894 0.9792
-4.0325 2.9025 -1.5779 0.9794
-4.2569 2.5214 -1.5713 0.9794
-4.6401 1.7280 -1.5725 0.9794
-2.7749 0.4999 -0.8954 0.9882
-2.6951 0.2408 -0.8593 0.9887
-5.0131 -2.3946 -1.8666 0.9768
-4.9357 -2.9234 -1.9274 0.9761
-4.8221 -3.4707 -1.9962 0.9752
-4.6678 -4.0364 -2.0733 0.9743
-4.4694 -4.6214 -2.1601 0.9732
-4.2222 -5.2258 -2.2573 0.9720
-3.9203 -5.8494 -2.3659 0.9707
-3.5573 -6.4913 -2.4870 0.9692
-3.1261 -7.1496 -2.6217 0.9676
-2.6187 -7.8215 -2.7713 0.9658
-1.3399 -9.1871 -3.1194 0.9616
3.7947 -12.2329 -4.3032 0.9474
12.6321 3.1595 -4.3749 0.9465
11.5460 4.0092 -4.1065 0.9497
9.3529 5.2619 -3.6056 0.9557
7.2702 6.0090 -3.1690 0.9610
6.2996 6.2298 -2.9767 0.9633
4.5227 6.4336 -2.6422 0.9674
3.7180 6.4397 -2.4983 0.9691
1.6196 6.1820 -2.1471 0.9734
1.0165 6.0261 -2.0533 0.9745
0.4567 5.8443 -1.9695 0.9756
-0.5439 5.4064 -1.8256 0.9773
-0.9901 5.1654 -1.7671 0.9781
-1.4038 4.9097 -1.7157 0.9787
-2.1424 4.3597 -1.6321 0.9797
-2.6271 0.5952 -0.9051 0.9887
-2.6180 0.3521 -0.8875 0.9889
-2.6762 0.1194 -0.9001 0.9888
-2.7751 -0.3732 -0.9408 0.9883
-2.8653 -0.6492 -0.9871 0.9877
-5.0687 -1.6344 -1.7894 0.9778
-4.5744 -4.3265 -2.1155 0.9738
-4.3522 -4.9212 -2.2073 0.9727
-4.0784 -5.5353 -2.3101 0.9714
-3.7468 -6.1682 -2.4248 0.9700
-3.3507 -6.8185 -2.5526 0.9684
-2.8824 -7.4841 -2.6946 0.9667
-2.3336 -8.1613 -2.8520 0.9648
-0.9585 -9.5279 -3.2174 0.9604
-0.1136 -10.1997 -3.4271 0.9579
0.8477 -10.8471 -3.6555 0.9551
10.9954 4.3761 -3.9761 0.9513
9.8957 5.0005 -3.7252 0.9543
7.7746 5.8631 -3.2717 0.9597
5.8345 6.3081 -2.8870 0.9644
4.1135 6.4436 -2.5685 0.9683
2.6119 6.3555 -2.3086 0.9714
1.9383 6.2484 -2.1980 0.9728
0.7315 5.9383 -2.0103 0.9751
-0.3078 5.5207 -1.8577 0.9769
-1.2009 5.0393 -1.7405 0.9784
-1.9682 4.5016 -1.6507 0.9795
-3.1061 3.8446 -1.6606 0.9794
-3.3918 3.5071 -1.6392 0.9796
-4.1103 2.4346 -1.6051 0.9800
-2.6265 0.7195 -0.9150 0.9886
-2.7169 0.4895 -0.9275 0.9884
-2.6500 0.2368 -0.8939 0.9888
-2.6931 -0.2406 -0.9588 0.9886
-2.7668 -0.4985 -0.9969 0.9881
-2.8417 -0.7784 -1.0448 0.9876
-4.8670 -1.8125 -1.8416 0.9782
-4.8187 -2.3017 -1.8936 0.9776
-4.7383 -2.8065 -1.9528 0.9769
-4.4669 -3.8627 -2.0940 0.9752
-3.7289 -5.5639 -2.3750 0.9720
-2.9578 -6.7648 -2.6180 0.9692
-2.4701 -7.3780 -2.7589 0.9675
-1.9049 -7.9935 -2.9138 0.9657
-1.2550 -8.6048 -3.0834 0.9638
6.0508 -11.6498 -4.6548 0.9458
7.4412 -11.6565 -4.9036 0.9430
12.3419 1.9407 -4.4300 0.9484
10.5459 3.6619 -3.9584 0.9537
7.6912 5.2797 -3.3079 0.9612
6.7749 5.5996 -3.1166 0.9634
5.8948 5.8295 -2.9397 0.9654
3.5154 6.0888 -2.4930 0.9706
2.1570 5.9952 -2.2592 0.9733
0.4362 5.5816 -1.9852 0.9765
-0.0601 5.3947 -1.9130 0.9774
-1.7209 4.4682 -1.6978 0.9799
-2.0645 4.2013 -1.6599 0.9803
-2.5373 4.1771 -1.7330 0.9795
-2.8507 3.8690 -1.7041 0.9798
-3.1396 3.5501 -1.6805 0.9801
-3.4052 3.2207 -1.6620 0.9803
-3.6483 2.8810 -1.6484 0.9805
-4.0692 2.1715 -1.6355 0.9806
-2.5748 0.3463 -0.9212 0.9890
-2.8709 -0.9257 -1.0696 0.9873
-4.8467 -2.0552 -1.8667 0.9779
-4.6848 -3.0646 -1.9850 0.9765
-4.1534 -4.6963 -2.2231 0.9737
-3.8838 -5.2712 -2.3216 0.9726
-1.5910 -8.3002 -2.9967 0.9648
-0.8959 -8.9062 -3.1740 0.9627
-0.1057 -9.4939 -3.3666 0.9605
0.7854 -10.0500 -3.5745 0.9581
1.7810 -10.5587 -3.7969 0.9556
2.8819 -11.0000 -4.0321 0.9529
5.3762 -11.5852 -4.5287 0.9472
6.7405 -11.6747 -4.7801 0.9444
10.0706 4.0080 -3.8433 0.9550
9.1127 4.6048 -3.6203 0.9576
8.1603 5.0823 -3.4088 0.9600
7.2290 5.4517 -3.2105 0.9623
4.6539 6.0303 -2.7010 0.9682
3.8834 6.0831 -2.5590 0.9698
1.2519 5.8256 -2.1128 0.9750
0.6979 5.6665 -2.0245 0.9761
0.1836 5.4908 -1.9481 0.9770
-1.5391 4.5970 -1.7190 0.9796
-1.8960 4.3363 -1.6781 0.9801
-2.9981 3.7109 -1.6916 0.9800
-3.9720 2.3527 -1.6370 0.9806
-2.5828 0.7075 -0.9496 0.9887
-2.7171 -0.4895 -1.0309 0.9883
-2.7878 -0.7636 -1.0794 0.9877
-4.5535 -2.6971 -1.9762 0.9777
-4.2804 -3.7014 -2.1131 0.9761
-4.0844 -4.2232 -2.1939 0.9752
-3.8435 -4.7572 -2.2837 0.9742
-1.7961 -7.5367 -2.8931 0.9675
-1.1793 -8.0862 -3.0514 0.9657
1.1796 -9.5776 -3.6034 0.9596
3.1947 -10.2986 -4.0264 0.9550
8.0022 -10.3687 -4.8908 0.9456
10.3924 -9.3993 -5.2324 0.9419
11.8901 0.7960 -4.4498 0.9504
11.2391 1.7673 -4.2484 0.9526
4.7638 5.6347 -2.7552 0.9690
3.3317 5.7706 -2.4882 0.9719
2.6737 5.7615 -2.3718 0.9732
2.0543 5.7096 -2.2658 0.9744
0.9267 5.4939 -2.0805 0.9765
0.4178 5.3465 -2.0025 0.9774
-0.5013 4.9836 -1.8703 0.9788
-1.3002 4.5471 -1.7660 0.9800
-2.0409 4.1533 -1.7280 0.9804
-3.7419 2.4479 -1.6697 0.9811
-3.9354 2.1000 -1.6657 0.9811
-4.1081 1.7421 -1.6662 0.9811
-4.2601 1.3737 -1.6714 0.9811
-2.5436 0.5763 -0.9739 0.9889
-2.5920 0.1156 -0.9689 0.9890
-2.7556 -0.6244 -1.0551 0.9880
-4.6662 -1.9786 -1.8926 0.9786
-3.9698 -4.4888 -2.2376 0.9747
-3.3883 -5.5779 -2.4370 0.9725
-2.5791 -6.6965 -2.6796 0.9698
-2.0753 -7.2579 -2.8188 0.9683
-0.0988 -8.8725 -3.3133 0.9628
0.7310 -9.3546 -3.5038 0.9607
3.7501 -10.4236 -4.1365 0.9538
8.6213 -10.1971 -4.9862 0.9446
9.8218 -9.7129 -5.1581 0.9427
13.4442 -0.9000 -5.0315 0.9441
12.1715 0.2712 -4.5461 0.9493
11.5779 1.2952 -4.3503 0.9515
10.8778 2.2110 -4.1449 0.9537
10.1025 3.0109 -3.9364 0.9560
9.2816 3.6941 -3.7303 0.9582
7.5882 4.7259 -3.3381 0.9625
6.7498 5.0902 -3.1568 0.9645
5.9328 5.3659 -2.9871 0.9664
5.1451 5.5628 -2.8295 0.9682
4.3916 5.6903 -2.6840 0.9698
3.6754 5.7573 -2.5506 0.9713
2.9978 5.7718 -2.4286 0.9726
1.7589 5.6700 -2.2168 0.9750
1.1943 5.5576 -2.1226 0.9760
0.6680 5.4234 -2.0405 0.9769
-0.2833 5.0819 -1.9006 0.9785
-2.2879 4.1749 -1.7777 0.9799
-2.8962 3.5848 -1.7209 0.9805
-3.1653 3.2729 -1.7002 0.9807
-3.6372 2.6180 -1.6734 0.9810
-4.1867 1.5591 -1.6683 0.9811
-2.5628 0.2290 -0.9608 0.9891
-2.5691 0.0000 -1.0083 0.9890
-2.6685 -0.4807 -1.0642 0.9884
-2.7221 -0.7456 -1.1077 0.9879
-2.7584 -1.0272 -1.1552 0.9874
-4.2617 -3.0674 -2.0608 0.9777
-3.6756 -4.5494 -2.2955 0.9752
-3.0566 -5.5776 -2.4962 0.9730
-2.6657 -6.0967 -2.6115 0.9718
-1.1115 -7.6212 -3.0227 0.9674
-0.4514 -8.0955 -3.1822 0.9658
0.2855 -8.5372 -3.3525 0.9640
1.9922 -9.2707 -3.7215 0.9601
2.9566 -9.5312 -3.9166 0.9580
3.9852 -9.6973 -4.1148 0.9559
5.0641 -9.7501 -4.3120 0.9539
7.2893 -9.4450 -4.6825 0.9500
8.3791 -9.0593 -4.8432 0.9484
9.4080 -8.5090 -4.9786 0.9470
10.3390 -7.7970 -5.0823 0.9459
11.1364 -6.9358 -5.1491 0.9452
12.4594 -3.7132 -5.1025 0.9457
12.3554 -1.3821 -4.8794 0.9480
12.0345 -0.2682 -4.7244 0.9496
10.8610 0.7271 -4.2721 0.9543
10.3068 1.6207 -4.0948 0.9562
9.6660 2.4176 -3.9105 0.9581
5.9496 4.9174 -3.0294 0.9674
5.2127 5.1550 -2.8773 0.9690
4.5002 5.3228 -2.7356 0.9705
3.1644 5.4809 -2.4838 0.9732
1.9597 5.4470 -2.2719 0.9754
1.4059 5.3663 -2.1772 0.9764
0.8874 5.2608 -2.0939 0.9773
0.4007 5.1279 -2.0187 0.9781
-0.8809 4.5958 -1.8366 0.9801
-2.3657 3.8946 -1.7884 0.9806
-3.1837 3.0112 -1.7199 0.9813
-3.6210 2.3688 -1.6982 0.9816
-3.8085 2.0323 -1.6942 0.9816
-3.9756 1.6859 -1.6948 0.9816
-2.5568 0.5793 -1.0289 0.9888
-2.5490 0.1137 -1.0014 0.9891
-2.5889 -0.1154 -1.0171 0.9889
-2.6312 -0.3538 -1.0420 0.9887
-4.4967 -1.9068 -1.9169 0.9792
-4.4271 -2.3624 -1.9694 0.9787
-3.7998 -4.2965 -2.2511 0.9757
-3.2308 -5.3187 -2.4424 0.9736
-2.8684 -5.8371 -2.5526 0.9724
-1.9646 -6.8706 -2.8046 0.9698
-0.7909 -7.8617 -3.1011 0.9666
-0.0927 -8.3212 -3.2660 0.9649
5.6166 -9.7282 -4.4087 0.9529
8.9034 -8.8048 -4.9144 0.9476
9.8881 -8.1726 -5.0347 0.9464
11.4750 -6.4557 -5.1674 0.9450
12.5061 -3.1280 -5.0595 0.9461
12.4523 -1.9580 -4.9472 0.9473
11.8166 0.2633 -4.6388 0.9505
10.5964 1.1854 -4.1847 0.9552
9.9956 2.0317 -4.0032 0.9571
9.3212 2.7780 -3.8173 0.9591
7.8481 3.9658 -3.4511 0.9629
6.3252 4.7700 -3.1092 0.9665
5.5785 5.0454 -2.9520 0.9682
4.8531 5.2471 -2.8051 0.9698
3.4864 5.4612 -2.5429 0.9725
2.2483 5.4709 -2.3214 0.9749
1.6775 5.4075 -2.2221 0.9760
-0.2723 4.8842 -1.9199 0.9792
-1.0702 4.4910 -1.8120 0.9804
-1.4295 4.2699 -1.7672 0.9808
-2.5162 3.7545 -1.7738 0.9808
-2.7999 3.4655 -1.7486 0.9810
-3.3009 2.8544 -1.7127 0.9814
-3.5195 2.5332 -1.7019 0.9815
-3.7173 2.2018 -1.6957 0.9816
-4.0515 1.5088 -1.6968 0.9816
-2.5633 0.4618 -1.0222 0.9889
-2.5206 0.2252 -0.9932 0.9892
-2.5289 0.0000 -1.0414 0.9891
-2.6410 -0.7235 -1.1276 0.9882
-2.6436 -0.9845 -1.1616 0.9879
-4.0989 -2.9502 -2.0796 0.9784
-3.9448 -3.4113 -2.1476 0.9777
-3.7529 -3.8805 -2.2230 0.9769
-3.5199 -4.3566 -2.3064 0.9761
-2.5379 -5.8045 -2.6087 0.9730
-2.1034 -6.2826 -2.7282 0.9717
0.2682 -8.0190 -3.3039 0.9659
2.7491 -8.8621 -3.8208 0.9607
4.6755 -9.0019 -4.1770 0.9571
6.6859 -8.6631 -4.5061 0.9538
7.6636 -8.2858 -4.6476 0.9523
8.5842 -7.7639 -4.7661 0.9512
10.1309 -6.3095 -4.9146 0.9497
10.7016 -5.4077 -4.9374 0.9495
11.1094 -4.4214 -4.9236 0.9496
11.3437 -3.3807 -4.8741 0.9501
11.4026 -2.3176 -4.7914 0.9509
11.2932 -1.2633 -4.6793 0.9520
9.5077 1.4950 -3.9632 0.9592
8.9479 2.2380 -3.7980 0.9609
8.3275 2.8916 -3.6300 0.9626
6.9821 3.9280 -3.2988 0.9659
5.6012 4.6295 -2.9923 0.9691
3.6229 5.1535 -2.5940 0.9731
2.4242 5.2240 -2.3715 0.9754
1.8702 5.1982 -2.2748 0.9764
1.3458 5.1367 -2.1866 0.9773
0.8509 5.0440 -2.1064 0.9781
-0.4641 4.6137 -1.9094 0.9801
-0.8489 4.4288 -1.8569 0.9807
-1.5540 4.0348 -1.7804 0.9815
-1.9775 4.0242 -1.8463 0.9808
-2.5735 3.4929 -1.7866 0.9814
-3.0816 2.9146 -1.7466 0.9818
-3.5062 2.2937 -1.7253 0.9820
-3.8498 1.6325 -1.7219 0.9821
-2.4504 0.3296 -1.0181 0.9894
-2.5854 -0.3477 -1.0742 0.9888
-2.6299 -0.5959 -1.1104 0.9884
-4.3366 -1.8389 -1.9397 0.9798
-4.1626 -2.7231 -2.0483 0.9787
-3.8538 -3.6449 -2.1843 0.9773
-3.6417 -4.1178 -2.2637 0.9765
-3.0855 -5.0795 -2.4473 0.9746
-1.8638 -6.5182 -2.7917 0.9711
-1.3377 -6.9786 -2.9260 0.9697
0.6406 -8.1982 -3.3862 0.9651
2.2967 -8.7663 -3.7316 0.9616
3.2148 -8.9356 -3.9104 0.9598
5.1767 -8.9662 -4.2633 0.9562
6.1850 -8.7982 -4.4286 0.9545
8.1330 -8.0429 -4.7100 0.9517
9.0133 -7.4496 -4.8151 0.9507
10.4355 -5.8709 -4.9305 0.9495
10.9267 -4.9233 -4.9351 0.9495
11.3682 -1.7876 -4.7387 0.9514
9.7582 1.0916 -4.0433 0.9584
9.2366 1.8774 -3.8812 0.9600
8.0010 3.1843 -3.5460 0.9634
7.3262 3.7021 -3.3801 0.9651
5.9455 4.4837 -3.0664 0.9683
4.5891 4.9617 -2.7830 0.9712
2.7152 5.2277 -2.4257 0.9748
2.1435 5.2158 -2.3221 0.9759
1.0947 5.0941 -2.1455 0.9777
-0.2620 4.6991 -1.9380 0.9798
-0.6597 4.5235 -1.8824 0.9804
-1.7835 4.0791 -1.8332 0.9809
-2.1351 3.8961 -1.8294 0.9810
-2.4330 3.6303 -1.7996 0.9813
-3.4077 2.4527 -1.7289 0.9820
-3.9232 1.4611 -1.7239 0.9821
-2.5181 0.4537 -1.0536 0.9890
-2.4793 0.2215 -1.0250 0.9893
-2.4893 0.0000 -1.0738 0.9892
-2.5221 -0.2254 -1.0923 0.9890
-2.5507 -0.6987 -1.1408 0.9885
-2.5687 -0.9566 -1.1824 0.9881
-3.9460 -2.8402 -2.0972 0.9790
-3.6037 -3.7262 -2.2361 0.9777
-2.7865 -5.0848 -2.5012 0.9751
-2.4203 -5.5355 -2.6061 0.9740
-2.0017 -5.9788 -2.7197 0.9729
0.2526 -7.5542 -3.2604 0.9676
0.9677 -7.8564 -3.4146 0.9661
1.7407 -8.1004 -3.5740 0.9646
2.5665 -8.2733 -3.7366 0.9630
4.3380 -8.3521 -4.0597 0.9598
5.2554 -8.2323 -4.2130 0.9583
7.0531 -7.6256 -4.4807 0.9558
7.8843 -7.1309 -4.5856 0.9547
8.6354 -6.5122 -4.6654 0.9540
9.2813 -5.7804 -4.7165 0.9535
9.8003 -4.9523 -4.7365 0.9533
10.1762 -4.0500 -4.7244 0.9534
10.3995 -3.0994 -4.6809 0.9538
10.4684 -2.1278 -4.6079 0.9545
10.1695 -0.2266 -4.3878 0.9567
9.8293 0.6580 -4.2494 0.9580
8.8148 1.3861 -3.8491 0.9619
7.7683 2.6974 -3.5472 0.9648
6.5533 3.6868 -3.2435 0.9678
5.9198 4.0637 -3.0973 0.9692
5.2842 4.3675 -2.9572 0.9706
4.6553 4.6037 -2.8242 0.9719
2.3153 4.9893 -2.3726 0.9763
-0.0512 4.5999 -1.9843 0.9802
-1.1668 4.0806 -1.8307 0.9817
-1.9118 3.8904 -1.8698 0.9813
-2.2121 3.6418 -1.8380 0.9816
-2.4907 3.3804 -1.8112 0.9819
-2.7479 3.1072 -1.7893 0.9821
-2.9845 2.8228 -1.7720 0.9823
-3.2007 2.5276 -1.7593 0.9824
-3.3970 2.2223 -1.7510 0.9825
-3.7302 1.5818 -1.7478 0.9825
-3.8671 1.2470 -1.7527 0.9825
-2.4106 0.3242 -1.0492 0.9895
-2.4654 0.1099 -1.0646 0.9893
-2.5276 -0.3399 -1.1001 0.9890
-2.5465 -0.5770 -1.1263 0.9887
-2.5665 -0.8276 -1.1632 0.9883
-4.0096 -2.6230 -2.0668 0.9793
-3.8740 -3.0592 -2.1293 0.9787
-3.7032 -3.5024 -2.1987 0.9780
-2.6098 -5.3108 -2.5526 0.9746
-2.2178 -5.7584 -2.6618 0.9735
-1.2685 -6.6179 -2.9067 0.9711
2.1475 -8.1966 -3.6550 0.9638
3.8841 -8.3699 -3.9802 0.9606
5.7137 -8.1278 -4.2856 0.9576
6.6157 -7.8250 -4.4201 0.9563
9.5578 -5.3771 -4.7305 0.9534
10.3073 -3.5790 -4.7065 0.9536
10.2950 -0.6891 -4.4508 0.9560
8.0509 2.3994 -3.6238 0.9641
7.4753 2.9751 -3.4705 0.9656
6.8660 3.4695 -3.3183 0.9670
6.2374 3.8847 -3.1697 0.9685
5.6017 4.2244 -3.0264 0.9699
3.7385 4.8440 -2.6394 0.9737
3.1516 4.9369 -2.5265 0.9748
2.0491 4.9862 -2.3254 0.9768
0.5900 4.7906 -2.0821 0.9792
0.1562 4.6693 -2.0152 0.9799
-0.2523 4.5252 -1.9550 0.9805
-0.9957 4.1781 -1.8527 0.9815
-1.3349 3.9877 -1.8140 0.9818
-2.0647 3.7677 -1.8533 0.9815
-2.3541 3.5126 -1.8240 0.9817
-2.6219 3.2452 -1.7997 0.9820
-2.8687 2.9663 -1.7801 0.9822
-3.0951 2.6765 -1.7651 0.9823
-3.4877 2.0658 -1.7486 0.9825
-3.6543 1.7455 -1.7469 0.9825
-3.9280 1.0760 -1.7568 0.9824
-2.4719 0.4453 -1.0835 0.9891
-2.4387 0.2179 -1.0561 0.9894
-2.4281 0.0000 -1.0956 0.9894
-2.4481 -0.2188 -1.1090 0.9893
-2.4592 -0.4430 -1.1275 0.9891
-3.9210 -2.3224 -2.0563 0.9802
-3.8022 -2.7366 -2.1138 0.9797
-3.4640 -3.5818 -2.2483 0.9784
-3.2396 -4.0096 -2.3260 0.9776
-2.6663 -4.8654 -2.5034 0.9759
-1.9081 -5.6992 -2.7119 0.9740
-1.4529 -6.0968 -2.8280 0.9729
0.2386 -7.1346 -3.2211 0.9692
1.6353 -7.6099 -3.5121 0.9664
3.2105 -7.8122 -3.8111 0.9636
4.0420 -7.7822 -3.9569 0.9622
5.7190 -7.4102 -4.2236 0.9598
6.5257 -7.0554 -4.3365 0.9587
7.9652 -6.0068 -4.5014 0.9572
8.5536 -5.3272 -4.5469 0.9567
9.0289 -4.5625 -4.5646 0.9566
9.5899 -2.8581 -4.5152 0.9570
8.6512 1.3603 -3.9515 0.9623
7.7690 1.9432 -3.6135 0.9655
7.2728 2.5254 -3.4738 0.9668
5.5874 3.8355 -3.0580 0.9707
5.0002 4.1328 -2.9271 0.9719
2.2144 4.7719 -2.3737 0.9772
1.7144 4.7651 -2.2850 0.9780
0.7848 4.6525 -2.1289 0.9795
-0.7903 4.1230 -1.8942 0.9817
-1.5359 3.9881 -1.9283 0.9814
-2.1412 3.5249 -1.8609 0.9821
-2.6620 3.0100 -1.8131 0.9825
-3.1023 2.4499 -1.7837 0.9828
-3.6162 1.5334 -1.7724 0.9829
-3.7486 1.2088 -1.7772 0.9829
-2.4105 0.1075 -1.0887 0.9895
-2.4521 -0.3298 -1.1164 0.9892
-2.4781 -0.7991 -1.1749 0.9886
-2.4890 -1.0555 -1.2199 0.9882
-3.3567 -3.7955 -2.2863 0.9780
-1.6871 -5.9002 -2.7690 0.9734
-1.2053 -6.2883 -2.8890 0.9723
-0.6692 -6.6521 -3.0167 0.9711
-0.0778 -6.9836 -3.1513 0.9698
0.5684 -7.2740 -3.2922 0.9685
1.2673 -7.5130 -3.4379 0.9671
2.8035 -7.7923 -3.7367 0.9643
3.6239 -7.8093 -3.8846 0.9629
4.4629 -7.7298 -4.0274 0.9616
7.6341 -6.3097 -4.4689 0.9575
8.2725 -5.6787 -4.5275 0.9569
8.8064 -4.9544 -4.5593 0.9566
9.2196 -4.1541 -4.5628 0.9566
9.6521 -1.5177 -4.4087 0.9580
9.5300 -0.6379 -4.3097 0.9590
9.2896 0.2070 -4.1926 0.9600
8.9457 1.0007 -4.0616 0.9613
7.5270 2.2433 -3.5439 0.9661
6.4546 3.2616 -3.2631 0.9688
5.8795 3.6618 -3.1254 0.9701
4.7072 4.2574 -2.8638 0.9725
3.5581 4.6103 -2.6277 0.9748
3.0058 4.7084 -2.5205 0.9758
2.4729 4.7611 -2.4208 0.9767
1.9615 4.7730 -2.3284 0.9776
1.4731 4.7486 -2.2434 0.9784
1.0083 4.6919 -2.1654 0.9792
0.5674 4.6064 -2.0942 0.9798
-0.2432 4.3614 -1.9710 0.9810
-0.6136 4.2071 -1.9184 0.9815
-1.3281 3.9670 -1.8876 0.9818
-1.6954 3.8776 -1.9096 0.9816
-2.7795 2.8740 -1.8041 0.9826
-2.9996 2.5939 -1.7894 0.9827
-3.2001 2.3033 -1.7791 0.9828
-3.5427 1.6922 -1.7715 0.9829
-3.6848 1.3723 -1.7742 0.9829
-2.4063 0.4335 -1.1032 0.9893
-2.3615 0.0000 -1.1132 0.9896
-2.3934 -0.6556 -1.1698 0.9891
-2.8542 -4.2587 -2.4166 0.9776
-2.2109 -5.0566 -2.6015 0.9759
-1.8216 -5.4410 -2.7047 0.9749
-0.8977 -6.1556 -2.9323 0.9729
-0.3609 -6.4731 -3.0560 0.9717
0.2258 -6.7538 -3.1854 0.9706
1.5406 -7.1691 -3.4565 0.9681
2.2596 -7.2841 -3.5950 0.9668
4.5575 -7.1391 -3.9925 0.9632
6.7579 -6.1121 -4.2952 0.9605
7.3834 -5.5680 -4.3591 0.9599
8.8875 -2.6487 -4.3714 0.9598
8.9666 -1.8225 -4.3131 0.9603
8.9252 -0.9984 -4.2334 0.9611
8.5143 0.5700 -4.0224 0.9630
8.1693 1.2846 -3.8981 0.9641
7.2787 1.8205 -3.5367 0.9674
6.8305 2.3718 -3.4083 0.9685
6.3409 2.8571 -3.2783 0.9697
5.8224 3.2756 -3.1491 0.9709
5.2861 3.6287 -3.0223 0.9720
4.7416 3.9190 -2.8997 0.9732
4.1966 4.1501 -2.7821 0.9742
3.1296 4.4519 -2.5651 0.9762
2.6163 4.5316 -2.4665 0.9771
1.1888 4.5377 -2.2111 0.9795
0.7549 4.4749 -2.1392 0.9801
0.3427 4.3854 -2.0735 0.9807
-0.0476 4.2718 -2.0138 0.9813
-0.4161 4.1367 -1.9598 0.9818
-0.7633 3.9824 -1.9114 0.9822
-1.4858 3.8579 -1.9487 0.9819
-1.7901 3.6428 -1.9133 0.9822
-2.3368 3.1716 -1.8570 0.9827
-3.1937 2.0893 -1.7990 0.9833
-3.3601 1.7930 -1.7953 0.9833
-2.5265 0.5724 -1.2211 0.9886
-2.2973 0.3090 -1.0926 0.9898
-2.3694 -0.1056 -1.1180 0.9896
-2.3945 -0.7721 -1.1859 0.9889
-3.8325 -2.0451 -2.0477 0.9810
-3.5957 -2.8395 -2.1597 0.9799
-2.9885 -4.0560 -2.3749 0.9780
-2.0221 -5.2504 -2.6522 0.9754
-1.6091 -5.6275 -2.7590 0.9744
-1.1473 -5.9856 -2.8728 0.9734
-0.6356 -6.3184 -2.9934 0.9723
-0.0737 -6.6185 -3.1200 0.9712
0.5375 -6.8777 -3.2519 0.9700
1.1954 -7.0866 -3.3877 0.9687
1.8956 -7.2354 -3.5257 0.9675
2.6314 -7.3139 -3.6640 0.9662
4.1690 -7.2208 -3.9303 0.9638
4.9436 -7.0324 -4.0520 0.9627
6.4188 -6.3476 -4.2553 0.9609
7.6650 -5.2617 -4.3825 0.9597
8.1556 -4.5882 -4.4110 0.9595
8.5377 -3.8469 -4.4141 0.9594
8.9606 -1.4090 -4.2757 0.9607
8.6545 0.1929 -4.0805 0.9624
6.5901 2.6228 -3.3434 0.9691
6.0845 3.0747 -3.2135 0.9703
5.0143 3.7815 -2.9604 0.9726
4.4687 4.0417 -2.8402 0.9737
3.9260 4.2447 -2.7255 0.9748
2.8709 4.4972 -2.5150 0.9767
1.4139 4.5580 -2.2495 0.9791
0.1448 4.3314 -2.0429 0.9810
-0.2345 4.2068 -1.9861 0.9815
-0.9290 3.8986 -1.8891 0.9824
-1.9344 3.5299 -1.8974 0.9824
-2.6944 2.7861 -1.8270 0.9830
-2.9085 2.5151 -1.8125 0.9831
-3.1034 2.2337 -1.8024 0.9832
-3.2793 1.9424 -1.7966 0.9833
-3.4361 1.6413 -1.7950 0.9833
-3.5739 1.3310 -1.7977 0.9833
-3.6923 1.0115 -1.8046 0.9832
-2.3094 -0.2063 -1.1404 0.9897
-3.5383 -2.5467 -2.1443 0.9808
-3.3902 -2.9316 -2.2045 0.9802
-3.2094 -3.3185 -2.2707 0.9796
-2.9939 -3.7055 -2.3431 0.9790
-1.7414 -5.2015 -2.6980 0.9758
-1.3211 -5.5437 -2.8030 0.9749
-0.8550 -5.8630 -2.9143 0.9739
0.2142 -6.4065 -3.1528 0.9718
0.8148 -6.6153 -3.2784 0.9707
1.4550 -6.7708 -3.4063 0.9696
2.1293 -6.8641 -3.5349 0.9685
2.8299 -6.8862 -3.6619 0.9674
4.2675 -6.6848 -3.9008 0.9653
4.9772 -6.4491 -4.0069 0.9643
5.6597 -6.1192 -4.0997 0.9635
6.2976 -5.6958 -4.1765 0.9629
6.8734 -5.1835 -4.2343 0.9624
7.3711 -4.5907 -4.2711 0.9620
8.0790 -3.2153 -4.2768 0.9620
7.9687 0.5335 -3.9282 0.9650
7.6610 1.2046 -3.8144 0.9660
7.1255 1.7822 -3.6127 0.9678
6.4331 2.2338 -3.3495 0.9701
5.9853 2.6969 -3.2289 0.9712
4.5048 3.7233 -2.8746 0.9743
3.4887 4.1265 -2.6578 0.9762
2.0331 4.3812 -2.3756 0.9787
-0.4018 3.9949 -1.9748 0.9823
-1.7336 3.5279 -1.9334 0.9826
-2.2652 3.0744 -1.8783 0.9831
-3.0989 2.0272 -1.8214 0.9836
-3.5274 1.1375 -1.8230 0.9836
-2.2893 0.1021 -1.1271 0.9898
-2.3021 -0.1027 -1.1335 0.9898
-2.3142 -0.5243 -1.1671 0.9895
-2.3375 -0.9912 -1.2488 0.9887
-3.7035 -1.9762 -2.0647 0.9815
-3.6007 -2.3555 -2.1163 0.9810
-3.1061 -3.5121 -2.3061 0.9793
-2.8724 -3.8984 -2.3818 0.9786
-2.6006 -4.2813 -2.4639 0.9779
-1.9348 -5.0237 -2.6479 0.9763
-0.0700 -6.2848 -3.0914 0.9724
0.5093 -6.5170 -3.2152 0.9713
3.1871 -6.8679 -3.7240 0.9668
6.5943 -5.4503 -4.2079 0.9626
7.5861 -4.2678 -4.2812 0.9619
7.9411 -3.5780 -4.2840 0.9619
8.3528 -1.3134 -4.1588 0.9630
7.8244 0.8753 -3.8724 0.9655
6.2136 2.4730 -3.2893 0.9706
4.2499 3.8438 -2.8185 0.9748
3.7412 4.0449 -2.7100 0.9757
3.2384 4.1961 -2.6070 0.9766
1.3586 4.3795 -2.2553 0.9798
0.9324 4.3389 -2.1828 0.9804
0.1397 4.1768 -2.0555 0.9815
-0.5723 3.9242 -1.9506 0.9825
-1.2827 3.8314 -1.9873 0.9822
-1.8739 3.4195 -1.9179 0.9828
-2.1396 3.1926 -1.8904 0.9830
-2.3860 2.9532 -1.8674 0.9832
-3.0111 2.1673 -1.8248 0.9836
-3.1820 1.8848 -1.8190 0.9836
-3.3343 1.5927 -1.8175 0.9837
-3.4678 1.2914 -1.8201 0.9836
-2.3061 0.4155 -1.1525 0.9896
-2.2658 0.2025 -1.1189 0.9899
-2.2359 0.0000 -1.1463 0.9900
-2.2480 -0.6158 -1.1950 0.9896
-2.2593 -0.8414 -1.2360 0.9892
-2.2721 -1.0853 -1.2909 0.9887
-3.5333 -2.0928 -2.1053 0.9817
-3.2706 -2.8282 -2.2168 0.9808
-2.8819 -3.5670 -2.3510 0.9796
-2.6355 -3.9325 -2.4270 0.9789
-1.6669 -4.9788 -2.6917 0.9767
-1.2624 -5.2974 -2.7919 0.9758
-0.3266 -5.8586 -3.0082 0.9740
0.7728 -6.2742 -3.2409 0.9720
2.6680 -6.4920 -3.5984 0.9689
4.0083 -6.2788 -3.8189 0.9671
4.6672 -6.0473 -3.9162 0.9662
5.2995 -5.7297 -4.0013 0.9655
5.8897 -5.3269 -4.0713 0.9649
6.8836 -4.2871 -4.1575 0.9642
7.5440 -3.0024 -4.1626 0.9642
7.7281 -2.3032 -4.1341 0.9644
7.7930 -0.8718 -4.0201 0.9654
7.6807 -0.1711 -3.9386 0.9661
6.8635 1.7167 -3.6271 0.9687
6.0740 2.1091 -3.2963 0.9715
5.2215 2.9376 -3.0715 0.9734
4.2872 3.5435 -2.8515 0.9753
2.8614 4.0703 -2.5507 0.9779
1.9512 4.2048 -2.3765 0.9794
1.5174 4.2175 -2.2979 0.9801
1.1000 4.1984 -2.2250 0.9807
0.3186 4.0765 -2.0963 0.9818
-0.3883 3.8603 -1.9890 0.9827
-0.7313 3.8153 -1.9916 0.9827
-1.9478 3.2065 -1.9234 0.9833
-2.1968 2.9816 -1.8987 0.9835
-2.8327 2.2370 -1.8505 0.9839
-3.0080 1.9678 -1.8428 0.9840
-3.4239 1.1041 -1.8444 0.9840
-2.4709 0.5598 -1.2989 0.9887
-2.2093 0.2971 -1.1428 0.9900
-2.2318 0.0995 -1.1453 0.9900
-2.2377 -0.0998 -1.1483 0.9900
-2.2446 -0.3018 -1.1611 0.9899
-2.2672 -0.9614 -1.2625 0.9890
-3.4786 -2.2756 -2.1311 0.9815
-2.9917 -3.3828 -2.3152 0.9799
-2.1959 -4.4685 -2.5525 0.9779
-1.0443 -5.4484 -2.8441 0.9754
-0.5764 -5.7297 -2.9523 0.9744
0.4835 -6.1872 -3.1817 0.9725
1.6910 -6.4544 -3.4207 0.9705
3.0018 -6.4685 -3.6559 0.9685
3.6734 -6.3625 -3.7665 0.9675
4.9876 -5.8993 -3.9605 0.9659
5.6008 -5.5387 -4.0383 0.9652
6.6629 -4.5738 -4.1432 0.9643
7.0833 -3.9849 -4.1666 0.9641
7.4145 -3.3407 -4.1692 0.9641
7.7482 -0.5187 -3.9812 0.9657
7.3523 0.8225 -3.7928 0.9673
7.0419 1.4313 -3.6840 0.9682
6.5129 1.9411 -3.4841 0.9699
5.4451 2.7515 -3.1277 0.9729
3.5704 3.8602 -2.6957 0.9766
3.0959 4.0114 -2.5978 0.9775
2.1739 4.1854 -2.4179 0.9790
1.7323 4.2154 -2.3365 0.9797
1.3065 4.2118 -2.2608 0.9804
0.8978 4.1779 -2.1908 0.9810
0.5070 4.1166 -2.1264 0.9815
-0.2187 3.9221 -2.0139 0.9825
-0.9180 3.8524 -2.0303 0.9824
-1.2418 3.7092 -2.0053 0.9826
-1.5386 3.5190 -1.9690 0.9829
-2.0746 3.0956 -1.9105 0.9834
-2.7382 2.3679 -1.8559 0.9839
-2.9226 2.1036 -1.8461 0.9839
-3.0888 1.8296 -1.8405 0.9840
-3.2367 1.5461 -1.8390 0.9840
-2.2585 0.4069 -1.1765 0.9897
-2.1764 0.0000 -1.1619 0.9902
-2.1873 -0.5992 -1.2107 0.9898
-2.1932 -0.8167 -1.2494 0.9894
-2.2033 -1.0524 -1.3035 0.9890
-3.4169 -2.0238 -2.1201 0.9822
-2.7763 -3.4363 -2.3584 0.9802
-2.5359 -3.7839 -2.4318 0.9796
-1.5973 -4.7710 -2.6859 0.9774
-1.2079 -5.0685 -2.7816 0.9767
0.7343 -5.9616 -3.2066 0.9731
1.3062 -6.0783 -3.3190 0.9722
1.9042 -6.1384 -3.4310 0.9713
3.7750 -5.9133 -3.7452 0.9687
5.5257 -4.9977 -3.9774 0.9668
6.0208 -4.5404 -4.0257 0.9664
6.8016 -3.4370 -4.0682 0.9660
7.2435 -2.1588 -4.0350 0.9663
7.3261 -1.4890 -3.9910 0.9667
7.3170 -0.8185 -3.9305 0.9672
7.0433 0.4715 -3.7684 0.9685
6.7942 1.0683 -3.6716 0.9693
6.4830 1.6215 -3.5675 0.9702
5.3680 2.4187 -3.1431 0.9737
4.9591 2.7899 -3.0376 0.9745
2.7409 3.8989 -2.5443 0.9786
1.8745 4.0394 -2.3773 0.9800
1.4596 4.0569 -2.3017 0.9806
1.0594 4.0434 -2.2314 0.9812
0.3075 3.9344 -2.1067 0.9823
-0.3761 3.7403 -2.0069 0.9831
-0.7291 3.8038 -2.0676 0.9826
-1.0516 3.6778 -2.0420 0.9828
-1.6283 3.3137 -1.9710 0.9834
-2.1313 2.8927 -1.9182 0.9838
-2.3556 2.6636 -1.8982 0.9840
-2.5619 2.4231 -1.8825 0.9841
-2.7504 2.1720 -1.8709 0.9842
-2.9209 1.9108 -1.8634 0.9843
-3.0736 1.6402 -1.8599 0.9843
-3.3247 1.0721 -1.8649 0.9843
-2.4372 0.5522 -1.3341 0.9887
-2.1765 -0.0971 -1.1631 0.9902
-2.2000 -0.9329 -1.2757 0.9892
-2.2447 -1.1978 -1.3583 0.9885
-2.8837 -3.2606 -2.3238 0.9805
-2.6604 -3.6108 -2.3943 0.9799
-2.4026 -3.9554 -2.4706 0.9792
-2.1087 -4.2912 -2.5525 0.9786
-0.9984 -5.2087 -2.8313 0.9762
-0.0634 -5.6959 -3.0409 0.9745
0.4598 -5.8842 -3.1508 0.9736
1.0166 -6.0266 -3.2627 0.9727
1.6023 -6.1159 -3.3751 0.9717
2.8341 -6.1073 -3.5943 0.9699
3.4624 -5.9971 -3.6968 0.9691
4.0844 -5.8101 -3.7914 0.9683
4.6873 -5.5440 -3.8757 0.9676
5.2573 -5.1990 -3.9472 0.9670
6.2443 -4.2864 -4.0433 0.9662
6.9459 -3.1296 -4.0670 0.9660
7.1673 -2.4887 -4.0503 0.9662
7.2964 -1.8249 -4.0151 0.9665
7.3328 -1.1530 -3.9627 0.9669
7.2793 -0.4873 -3.8947 0.9675
7.1415 0.1592 -3.8134 0.9681
6.9272 0.7749 -3.7211 0.9689
6.6457 1.3508 -3.6203 0.9697
4.3091 3.2496 -2.8812 0.9758
3.8623 3.4932 -2.7800 0.9767
3.4119 3.6889 -2.6825 0.9775
2.9633 3.8396 -2.5892 0.9782
2.0870 4.0180 -2.4171 0.9797
1.6653 4.0522 -2.3388 0.9803
1.2576 4.0539 -2.2659 0.9809
0.8651 4.0259 -2.1983 0.9815
-1.2028 3.5926 -2.0225 0.9830
-1.7609 3.2134 -1.9561 0.9835
-2.0124 3.0028 -1.9297 0.9837
-2.4610 2.5447 -1.8898 0.9841
-2.6583 2.2988 -1.8762 0.9842
-2.8379 2.0426 -1.8666 0.9843
-3.2688 1.2173 -1.8621 0.9843
-2.1191 0.0000 -1.1770 0.9904
-2.1249 -0.3828 -1.1992 0.9902
-2.1374 -1.0209 -1.3156 0.9892
-3.0499 -2.6373 -2.2394 0.9817
-2.4420 -3.6438 -2.4362 0.9801
-2.1740 -3.9671 -2.5124 0.9795
-1.8710 -4.2792 -2.5939 0.9789
-1.5322 -4.5765 -2.6805 0.9782
-1.1569 -4.8549 -2.7719 0.9774
-0.2974 -5.3346 -2.9674 0.9758
2.9766 -5.7310 -3.5867 0.9709
4.1380 -5.3617 -3.7616 0.9695
5.6604 -4.2686 -3.9375 0.9681
6.0609 -3.7747 -3.9656 0.9679
6.3904 -3.2292 -3.9766 0.9678
6.6414 -2.6432 -3.9700 0.9678
6.8911 -1.4007 -3.9055 0.9683
6.8055 -0.1517 -3.7807 0.9693
6.4213 1.0097 -3.6102 0.9707
6.1367 1.5349 -3.5133 0.9715
5.1288 2.3109 -3.1243 0.9746
3.0516 3.6095 -2.6251 0.9786
2.6283 3.7387 -2.5382 0.9793
1.8023 3.8839 -2.3780 0.9806
1.0210 3.8970 -2.2374 0.9817
0.6513 3.8608 -2.1746 0.9822
-0.7117 3.7129 -2.0996 0.9829
-1.0187 3.5627 -2.0580 0.9832
-1.8327 3.0170 -1.9606 0.9840
-2.6713 2.1096 -1.8905 0.9845
-2.8373 1.8561 -1.8831 0.9846
-2.9858 1.5933 -1.8796 0.9846
-3.1166 1.3216 -1.8801 0.9846
-2.4040 0.5447 -1.3690 0.9888
-2.1163 0.0944 -1.1766 0.9904
-2.1192 -0.0945 -1.1782 0.9903
-2.1237 -0.2856 -1.1901 0.9902
