ply
format ascii 1.0
element vertex 1584
property float32 x
property float32 y
property float32 z
property float32 I
end_header
-12.8918 -0.5748 -0.3218 0.9497
-13.4101 -1.8035 -0.3374 0.9473
9.9339 10.7404 -0.3649 0.9431
-6.6113 12.0641 -0.3431 0.9464
-7.9100 9.7903 -0.3139 0.9509
-9.9806 5.9115 -0.2893 0.9546
-10.4434 4.9884 -0.2886 0.9547
-10.8979 4.0585 -0.2900 0.9545
-11.3501 3.1091 -0.2935 0.9540
-11.6786 0.0000 -0.4856 0.9543
-12.5433 -2.2598 -0.5299 0.9503
9.2383 10.9271 -0.5950 0.9443
-3.7967 13.2779 -0.5742 0.9462
-7.5827 8.5739 -0.4759 0.9552
-8.1043 7.6651 -0.4638 0.9563
-8.5917 6.7848 -0.4552 0.9571
-9.0522 5.9217 -0.4498 0.9576
-9.4921 5.0652 -0.4473 0.9578
-9.9168 4.2051 -0.4479 0.9578
-11.0753 1.4896 -0.4646 0.9562
-11.8883 -0.5301 -0.4948 0.9535
-12.7737 -2.8941 -0.5446 0.9489
-13.2593 -4.2755 -0.5793 0.9458
-13.7899 -5.8474 -0.6228 0.9418
8.8346 11.4473 -0.6012 0.9438
-3.3282 13.9656 -0.5969 0.9441
-4.2297 12.6336 -0.5540 0.9481
-5.0074 11.4523 -0.5197 0.9512
-7.8483 8.1151 -0.4694 0.9558
-8.3518 7.2221 -0.4591 0.9568
-8.8249 6.3518 -0.4521 0.9574
-9.2743 5.4932 -0.4482 0.9578
-9.7060 4.6362 -0.4472 0.9579
-10.1250 3.7706 -0.4492 0.9577
-11.2676 1.0069 -0.4704 0.9557
-10.8487 0.0000 -0.6319 0.9575
-11.2096 -1.0017 -0.6555 0.9559
-11.5769 -2.0856 -0.6851 0.9540
-12.3508 -4.5995 -0.7676 0.9486
-12.7706 -6.1000 -0.8243 0.9449
-1.4768 14.6800 -0.8593 0.9426
-2.5533 13.3203 -0.7899 0.9471
-4.2518 11.0397 -0.6890 0.9537
-4.9426 10.0579 -0.6527 0.9561
-3.0784 5.0677 -0.3454 0.9765
-6.5114 8.8374 -0.6393 0.9570
-7.5507 7.1414 -0.6053 0.9592
-8.0149 6.3293 -0.5948 0.9599
-8.4513 5.5286 -0.5882 0.9603
-9.2610 3.9270 -0.5859 0.9605
-9.6432 3.1095 -0.5901 0.9602
-10.6694 0.4758 -0.6220 0.9581
-11.0286 -0.4918 -0.6430 0.9567
-11.7644 -2.6654 -0.7026 0.9528
-12.9935 -6.9335 -0.8578 0.9427
-3.0267 12.7005 -0.7604 0.9490
-3.8719 11.5646 -0.7103 0.9523
-4.6078 10.5384 -0.6699 0.9550
-3.2791 4.8928 -0.3430 0.9767
-7.3061 7.5545 -0.6121 0.9588
-9.8302 2.6928 -0.5936 0.9600
-10.1986 1.8374 -0.6036 0.9593
-11.0559 -3.0285 -0.8591 0.9551
-12.0128 -7.1152 -1.0463 0.9455
-0.1626 14.6001 -1.0942 0.9431
-1.3384 13.3047 -1.0021 0.9478
-4.5853 9.3309 -0.7791 0.9592
-3.0968 5.0980 -0.4470 0.9764
-6.5901 7.4515 -0.7455 0.9609
-8.3148 4.4369 -0.7063 0.9629
-8.6856 3.6830 -0.7070 0.9629
-9.0399 2.9150 -0.7118 0.9626
-9.3807 2.1254 -0.7208 0.9622
-10.2835 -0.4585 -0.7714 0.9596
-10.9013 -2.4699 -0.8376 0.9562
-11.2112 -3.6151 -0.8828 0.9538
-11.5253 -4.8871 -0.9381 0.9510
-11.8473 -6.3219 -1.0063 0.9476
-12.1826 -7.9695 -1.0910 0.9433
8.7010 11.2743 -1.0672 0.9445
-0.7767 13.9300 -1.0455 0.9456
-2.7740 11.6404 -0.8968 0.9531
-4.8864 8.9165 -0.7620 0.9600
-7.2922 6.3058 -0.7225 0.9621
-8.1222 4.8108 -0.7074 0.9628
-8.8646 3.3012 -0.7089 0.9628
-9.2118 2.5234 -0.7158 0.9624
-9.8209 0.8777 -0.7388 0.9612
-9.7652 -0.8726 -0.8988 0.9614
-10.0268 -1.8064 -0.9340 0.9599
-10.7677 -5.1432 -1.0940 0.9532
-11.0019 -6.5164 -1.1723 0.9499
9.2595 10.9522 -1.3148 0.9440
1.1303 14.4650 -1.3302 0.9434
-0.1475 13.2421 -1.2141 0.9482
-1.2236 12.1624 -1.1206 0.9521
-2.1451 11.1911 -1.0446 0.9553
-2.9460 10.3029 -0.9824 0.9579
-3.6507 9.4787 -0.9312 0.9600
-4.2751 8.6996 -0.8887 0.9618
-4.8345 7.9588 -0.8537 0.9633
-7.0635 5.5780 -0.8251 0.9645
-7.4579 4.8788 -0.8170 0.9648
-7.8277 4.1770 -0.8134 0.9650
-10.1546 -2.3007 -0.9545 0.9590
-10.4048 -3.3551 -1.0023 0.9570
-10.6483 -4.5152 -1.0603 0.9546
-11.1166 -7.2722 -1.2179 0.9480
-11.3427 -8.9572 -1.3250 0.9436
0.4625 13.8329 -1.2689 0.9459
-1.7013 11.6650 -1.0807 0.9538
-2.5590 10.7379 -1.0120 0.9566
-3.9718 9.0838 -0.9089 0.9610
-4.5622 8.3250 -0.8703 0.9626
-5.9413 7.3536 -0.8667 0.9627
-6.4167 6.6349 -0.8462 0.9636
-7.6456 4.5285 -0.8147 0.9649
-8.3435 3.1072 -0.8162 0.9649
-4.1097 0.3672 -0.3783 0.9836
-3.7849 0.0000 -0.4105 0.9849
-9.1718 -0.8196 -0.9988 0.9636
-9.3951 -1.6926 -1.0355 0.9623
-9.6049 -2.6310 -1.0802 0.9607
-9.8008 -3.6498 -1.1344 0.9588
-9.9816 -4.7678 -1.1998 0.9565
-10.1457 -6.0093 -1.2790 0.9537
-10.2903 -7.4064 -1.3752 0.9503
9.2665 10.9606 -1.5568 0.9439
1.0255 13.1235 -1.4278 0.9484
-1.9857 10.3595 -1.1441 0.9584
-3.4071 8.8462 -1.0282 0.9626
-4.0029 8.1456 -0.9844 0.9641
-5.8239 6.5852 -0.9535 0.9652
-7.0422 4.6068 -0.9128 0.9667
-7.3933 3.9452 -0.9090 0.9668
-8.0310 2.5897 -0.9153 0.9666
-3.7517 0.5046 -0.4106 0.9849
-3.7330 0.1665 -0.4053 0.9851
-9.2851 -1.2487 -1.0162 0.9630
-10.0659 -5.3713 -1.2375 0.9551
-10.2206 -6.6860 -1.3247 0.9520
-10.3539 -8.1764 -1.4310 0.9483
1.6842 13.6748 -1.4945 0.9461
0.4214 12.6040 -1.3679 0.9505
-0.6493 11.6444 -1.2650 0.9542
-2.3743 9.9631 -1.1109 0.9596
-3.7138 8.4937 -1.0055 0.9634
-4.2770 7.8045 -0.9653 0.9648
-6.4676 5.5928 -0.9274 0.9662
-7.2207 4.2769 -0.9103 0.9668
-7.5603 3.6113 -0.9088 0.9669
-7.8789 2.9342 -0.9119 0.9667
-8.1787 2.2404 -0.9198 0.9665
-3.9949 0.7197 -0.4403 0.9838
-3.5692 0.0000 -0.4473 0.9857
-8.8364 -1.5919 -1.1252 0.9645
-9.0106 -2.4682 -1.1708 0.9630
-9.1658 -3.4134 -1.2257 0.9613
-9.3002 -4.4423 -1.2916 0.9593
-9.4931 -6.8327 -1.4657 0.9539
-9.5413 -8.2506 -1.5807 0.9504
-9.5470 -9.8715 -1.7209 0.9461
-1.0435 10.3726 -1.3064 0.9588
-2.5590 8.9493 -1.1664 0.9632
-3.1931 8.2907 -1.1133 0.9648
-3.7619 7.6553 -1.0689 0.9662
-4.7384 6.4310 -1.0010 0.9683
-6.3099 4.9829 -1.0076 0.9681
-6.6692 4.3628 -0.9987 0.9684
-7.0032 3.7371 -0.9947 0.9685
-7.3143 3.1016 -0.9956 0.9685
-7.6045 2.4522 -1.0013 0.9683
-4.3832 0.9931 -0.5632 0.9820
-3.5494 0.4773 -0.4488 0.9857
-3.6310 -0.1619 -0.4555 0.9855
-8.7426 -1.1758 -1.1055 0.9651
-8.9257 -2.0223 -1.1469 0.9638
-9.2358 -3.9163 -1.2572 0.9604
-9.3587 -4.9939 -1.3293 0.9581
-9.4557 -6.1856 -1.4160 0.9555
-9.5219 -7.5193 -1.5204 0.9523
-9.5499 -9.0322 -1.6472 0.9484
8.5971 11.1396 -1.7634 0.9449
1.5347 12.4609 -1.5733 0.9506
0.3869 11.5721 -1.4510 0.9544
-0.5998 10.7574 -1.3502 0.9575
-1.4586 10.0008 -1.2665 0.9601
-2.2140 9.2903 -1.1968 0.9622
-2.8848 8.6164 -1.1387 0.9640
-3.4855 7.9715 -1.0903 0.9655
-3.3009 4.9253 -0.7430 0.9764
-4.9557 6.1338 -0.9882 0.9687
-5.7166 5.9109 -1.0305 0.9674
-6.1198 5.2920 -1.0139 0.9679
-6.8392 4.0509 -0.9961 0.9685
-7.1615 3.4208 -0.9946 0.9685
-7.4619 2.7789 -0.9978 0.9684
-8.3384 -1.5022 -1.2051 0.9663
-8.4834 -2.3238 -1.2511 0.9651
-8.7726 -5.1960 -1.4502 0.9596
-8.8028 -7.6120 -1.6553 0.9541
-8.7476 -9.0449 -1.7898 0.9504
-8.6296 -10.6809 -1.9531 0.9460
1.9966 11.8366 -1.7074 0.9527
0.8643 11.0604 -1.5780 0.9562
-0.1151 10.3376 -1.4705 0.9591
-1.7275 9.0124 -1.3052 0.9636
-2.4003 8.3945 -1.2419 0.9653
-4.0375 6.6467 -1.1062 0.9691
-4.4839 6.0856 -1.0752 0.9699
-5.2133 5.8948 -1.1193 0.9687
-6.9460 2.9454 -1.0731 0.9700
-4.1432 0.9387 -0.6042 0.9830
-3.3671 0.4528 -0.4832 0.9864
-3.6292 -0.4880 -0.5208 0.9853
-8.6581 -3.6713 -1.3376 0.9627
-8.7948 -5.7533 -1.4948 0.9584
8.6036 11.1481 -2.0030 0.9447
-0.5572 9.9929 -1.4236 0.9604
-2.0734 8.7004 -1.2722 0.9645
-3.7982 6.9309 -1.1241 0.9686
-3.3069 4.9343 -0.8449 0.9763
-5.8063 5.0209 -1.0918 0.9695
-6.4946 3.8468 -1.0736 0.9700
-6.8012 3.2487 -1.0721 0.9700
-7.0853 2.6386 -1.0754 0.9699
-3.2915 0.0000 -0.5241 0.9868
-8.0125 -2.1948 -1.3229 0.9669
-8.1084 -3.0196 -1.3778 0.9656
-8.1766 -3.9056 -1.4429 0.9640
-8.1676 -7.0627 -1.7194 0.9572
-8.0691 -8.3434 -1.8483 0.9541
-7.9040 -9.7829 -2.0027 0.9503
-7.6546 -11.4214 -2.1894 0.9458
6.0964 13.1375 -2.3062 0.9430
4.4385 12.3370 -2.0878 0.9483
-0.9087 9.0324 -1.4455 0.9639
-2.2596 7.9025 -1.3088 0.9673
-2.8349 7.3606 -1.2560 0.9686
-3.3545 6.8262 -1.2111 0.9697
-4.2541 5.7738 -1.1420 0.9714
-4.9520 5.5994 -1.1903 0.9702
-5.3397 5.0503 -1.1703 0.9707
-6.6115 2.8035 -1.1435 0.9713
-3.9744 0.9005 -0.6489 0.9836
-3.2540 0.4376 -0.5228 0.9868
-3.3344 -0.1487 -0.5315 0.9866
-3.4817 -0.4682 -0.5594 0.9859
-7.9550 -1.8024 -1.2988 0.9675
-8.1462 -3.4543 -1.4090 0.9648
-8.1990 -4.3751 -1.4798 0.9631
-8.1960 -6.4723 -1.6630 0.9586
-7.9959 -9.0411 -1.9219 0.9523
-7.7912 -10.5742 -2.0915 0.9482
8.6102 11.1566 -2.2441 0.9445
5.2311 12.7290 -2.1914 0.9458
-0.5201 9.3270 -1.4875 0.9629
-1.9490 8.1786 -1.3388 0.9665
-3.1018 7.0939 -1.2329 0.9691
-5.1499 5.3250 -1.1796 0.9704
-5.5220 4.7751 -1.1625 0.9709
-6.1817 3.6614 -1.1441 0.9713
-6.4739 3.0924 -1.1425 0.9714
-6.7434 2.5113 -1.1458 0.9713
-4.5041 1.2338 -0.7436 0.9813
-3.2817 -0.2932 -0.5809 0.9867
-7.4882 -1.3491 -1.3416 0.9696
-7.5889 -2.0788 -1.3874 0.9685
-7.7181 -4.5714 -1.5817 0.9642
-7.4854 -7.7399 -1.8986 0.9572
-7.0072 -10.4555 -2.2193 0.9502
7.2491 12.5558 -2.5564 0.9428
1.7040 10.1019 -1.8064 0.9592
-0.1004 9.0058 -1.5880 0.9641
-0.8531 8.4803 -1.5028 0.9660
-1.5271 7.9666 -1.4303 0.9676
-3.1806 6.4724 -1.2716 0.9711
-3.6326 5.9802 -1.2338 0.9720
-5.4312 4.2890 -1.2203 0.9723
-5.7475 3.7599 -1.2110 0.9725
-6.0386 3.2223 -1.2069 0.9726
-6.3062 2.6741 -1.2078 0.9726
-3.1644 0.1411 -0.5585 0.9872
-3.2277 -0.1439 -0.5697 0.9870
-3.3507 -0.4506 -0.5961 0.9864
-7.7173 -4.1180 -1.5424 0.9651
-7.6587 -6.0480 -1.7207 0.9611
6.3493 12.2246 -2.4289 0.9456
4.7611 11.5855 -2.2086 0.9504
3.4043 10.9743 -2.0260 0.9544
2.2321 10.3873 -1.8734 0.9578
0.3100 9.2737 -1.6361 0.9630
-1.8383 7.7136 -1.3982 0.9683
-2.9383 6.7201 -1.2933 0.9706
-4.9049 5.0717 -1.2441 0.9717
-5.2630 4.5511 -1.2268 0.9721
-5.5926 4.0253 -1.2150 0.9724
-5.8961 3.4923 -1.2083 0.9725
-6.4314 2.3951 -1.2101 0.9725
-4.2904 1.1753 -0.7844 0.9821
-3.4371 0.6193 -0.6158 0.9859
-3.1510 0.2816 -0.5578 0.9872
-3.1015 0.0000 -0.6002 0.9874
-3.1775 -0.2839 -0.6174 0.9871
-3.3117 -0.5966 -0.6512 0.9864
-7.2058 -1.9738 -1.4458 0.9700
-7.2769 -4.3102 -1.6367 0.9661
-7.2270 -5.2017 -1.7231 0.9644
-7.1301 -6.1656 -1.8241 0.9623
-6.9777 -7.2149 -1.9424 0.9599
-6.4580 -9.6359 -2.2448 0.9538
-6.0537 -11.0466 -2.4377 0.9500
6.5627 11.3670 -2.5400 0.9479
5.0453 10.8723 -2.3195 0.9523
3.7342 10.3793 -2.1346 0.9561
-0.0942 8.4564 -1.6366 0.9661
-1.4427 7.5263 -1.4830 0.9693
-2.0209 7.0673 -1.4224 0.9705
-2.5464 6.6116 -1.3711 0.9715
-3.4576 5.6920 -1.2888 0.9732
-4.4974 5.0853 -1.3137 0.9727
-5.1877 4.0967 -1.2792 0.9734
-5.7708 3.0794 -1.2658 0.9737
-6.0262 2.5554 -1.2667 0.9737
-6.2590 2.0183 -1.2727 0.9736
-3.6833 0.8346 -0.7308 0.9847
-3.1048 0.4176 -0.6062 0.9873
-3.1273 -0.1394 -0.6058 0.9873
-7.2374 -2.3338 -1.4716 0.9695
-7.2784 -3.0862 -1.5299 0.9683
-7.1849 -5.6738 -1.7717 0.9634
-7.0615 -6.6787 -1.8809 0.9612
-6.8773 -7.7763 -2.0089 0.9586
-6.2708 -10.3231 -2.3374 0.9520
-5.1967 -13.4929 -2.7981 0.9428
8.6235 11.1738 -2.7314 0.9441
7.4139 11.6137 -2.6664 0.9454
5.7754 11.1197 -2.4248 0.9502
4.3666 10.6254 -2.2231 0.9543
-0.4585 8.2221 -1.5936 0.9670
-3.3267 4.9638 -1.1564 0.9759
-5.0258 4.3460 -1.2858 0.9733
-5.3429 3.8456 -1.2739 0.9735
-5.6342 3.3372 -1.2672 0.9737
-6.1454 2.2886 -1.2690 0.9736
-3.0639 0.2738 -0.5953 0.9875
-3.0211 0.0000 -0.6369 0.9877
-3.0994 -0.2770 -0.6560 0.9874
-3.2303 -0.5820 -0.6920 0.9867
-6.8574 -1.8784 -1.4989 0.9714
-6.8812 -4.0757 -1.6861 0.9678
-6.8143 -4.9046 -1.7700 0.9663
-5.5745 -10.1721 -2.4454 0.9537
-4.3732 -13.0621 -2.9040 0.9452
9.3385 11.0456 -3.0493 0.9426
7.5427 10.7297 -2.7650 0.9478
5.9917 10.3779 -2.5264 0.9522
4.6414 10.0020 -2.3246 0.9559
2.4121 9.2070 -2.0065 0.9618
1.4839 8.7974 -1.8809 0.9642
-0.7595 7.5491 -1.5995 0.9695
-2.8790 5.8586 -1.3762 0.9737
-3.2975 5.4286 -1.3390 0.9744
-5.5242 2.9478 -1.3200 0.9747
-5.7685 2.4461 -1.3209 0.9747
-2.9940 0.1335 -0.6318 0.9878
-3.0505 -0.1360 -0.6437 0.9876
-3.1546 -0.4242 -0.6710 0.9871
-6.8261 -1.5466 -1.4755 0.9718
-6.8815 -2.2190 -1.5243 0.9709
-6.8990 -3.6814 -1.6486 0.9685
-6.8531 -4.4831 -1.7265 0.9671
-6.7638 -5.3412 -1.8169 0.9654
-6.4238 -7.2635 -2.0442 0.9611
4.0304 9.8075 -2.2354 0.9576
1.9346 9.0029 -1.9413 0.9631
0.2734 8.1756 -1.7246 0.9671
-0.4326 7.7583 -1.6381 0.9687
-1.0704 7.3396 -1.5637 0.9701
-2.1761 6.4995 -1.4450 0.9724
-3.3365 4.9783 -1.2634 0.9758
-3.9819 4.9284 -1.3357 0.9744
-4.8078 4.1575 -1.3400 0.9744
-5.3932 3.1945 -1.3215 0.9747
-5.8821 2.1905 -1.3233 0.9747
-4.0001 1.0957 -0.8744 0.9832
-3.2435 0.5844 -0.6948 0.9866
-2.9810 0.2664 -0.6310 0.9878
-3.0430 -0.2719 -0.6973 0.9875
-6.5633 -3.1350 -1.6602 0.9706
-6.4437 -4.6379 -1.8121 0.9680
-6.3173 -5.4627 -1.9062 0.9663
-5.8935 -7.2944 -2.1404 0.9623
-5.5738 -8.3167 -2.2851 0.9598
-3.9950 -11.9323 -2.8721 0.9497
-3.1860 -13.3691 -3.1369 0.9452
10.2323 10.1189 -3.2846 0.9427
8.4451 9.9889 -2.9855 0.9477
6.8827 9.7908 -2.7316 0.9521
0.6172 7.8980 -1.8082 0.9680
-0.7195 7.1525 -1.6407 0.9709
-1.2979 6.7706 -1.5735 0.9721
-1.8257 6.3847 -1.5156 0.9731
-2.3071 5.9904 -1.4652 0.9740
-3.5208 4.7785 -1.3547 0.9759
-4.1147 4.6526 -1.4176 0.9748
-4.7570 3.7566 -1.3835 0.9754
-5.0388 3.2962 -1.3743 0.9756
-5.2962 2.8262 -1.3702 0.9757
-5.5304 2.3451 -1.3711 0.9757
-5.7418 1.8515 -1.3770 0.9756
-2.9453 0.1313 -0.6729 0.9880
-2.9994 -0.1337 -0.6853 0.9878
-3.0959 -0.4163 -0.7130 0.9873
-6.5138 -1.4758 -1.5244 0.9730
-6.5694 -2.7857 -1.6287 0.9711
-6.3867 -5.0436 -1.8575 0.9672
-3.6126 -12.6339 -2.9992 0.9475
-2.7105 -14.1403 -3.2862 0.9426
9.3078 10.0635 -3.1288 0.9453
6.1743 9.6718 -2.6190 0.9540
3.7404 9.1018 -2.2460 0.9604
1.8125 8.4350 -1.9692 0.9652
0.9951 8.0796 -1.8580 0.9672
-0.4093 7.3413 -1.6782 0.9703
-1.5677 6.5782 -1.5435 0.9726
-2.0677 6.1759 -1.4865 0.9736
-3.3396 4.9830 -1.3691 0.9757
-3.9365 4.8722 -1.4297 0.9746
-5.1704 3.0625 -1.3716 0.9756
-5.6388 2.1000 -1.3734 0.9756
-2.9221 0.0000 -0.7182 0.9880
-6.2467 -1.7111 -1.5920 0.9737
-6.2496 -2.9852 -1.7024 0.9719
-6.1091 -4.3970 -1.8501 0.9695
-5.9730 -5.1651 -1.9410 0.9680
-5.7846 -5.9812 -2.0452 0.9663
-5.5353 -6.8510 -2.1649 0.9644
-5.2124 -7.7774 -2.3013 0.9622
-4.8053 -8.7686 -2.4577 0.9597
-3.6747 -10.9758 -2.8450 0.9534
10.9945 9.0872 -3.5060 0.9429
9.2504 9.1480 -3.1978 0.9478
3.9948 8.6086 -2.3327 0.9617
1.3121 7.7787 -1.9390 0.9680
0.5831 7.4625 -1.8399 0.9696
-0.0795 7.1331 -1.7534 0.9710
-1.2352 6.4438 -1.6127 0.9733
-1.7368 6.0741 -1.5528 0.9743
-2.2024 5.7185 -1.5062 0.9751
-3.0152 4.9637 -1.4275 0.9764
-3.3823 4.5905 -1.4015 0.9768
-3.9450 4.4607 -1.4637 0.9758
-4.2685 4.0371 -1.4441 0.9761
-5.0848 2.7134 -1.4167 0.9765
-5.3095 2.2514 -1.4176 0.9765
-5.5115 1.7772 -1.4234 0.9764
-3.3132 0.7507 -0.8350 0.9861
-2.8899 0.3887 -0.7167 0.9881
-2.8978 0.1292 -0.7130 0.9881
-3.1571 -0.7153 -0.7957 0.9868
-6.2592 -2.0183 -1.6165 0.9733
-6.2611 -2.6549 -1.6716 0.9724
-6.1596 -4.0294 -1.8092 0.9701
-6.0471 -4.7754 -1.8940 0.9688
-5.8858 -5.5668 -1.9913 0.9672
-5.6681 -6.4090 -2.1030 0.9654
-5.3837 -7.3067 -2.2309 0.9633
-4.5657 -9.2909 -2.5445 0.9583
-2.4647 -12.8581 -3.2181 0.9475
10.0964 9.1317 -3.3462 0.9455
4.5301 8.7220 -2.4158 0.9603
3.4876 8.4866 -2.2553 0.9629
0.9388 7.6225 -1.8878 0.9689
-0.3883 6.9642 -1.7145 0.9717
-0.9654 6.6193 -1.6442 0.9728
-1.4915 6.2586 -1.5814 0.9738
-1.9729 5.8928 -1.5275 0.9747
-2.4188 5.5321 -1.4841 0.9754
-3.7728 4.6696 -1.4756 0.9756
-4.1102 4.2499 -1.4532 0.9759
-4.4201 3.8222 -1.4363 0.9762
-4.9639 2.9401 -1.4181 0.9765
-5.4133 2.0159 -1.4199 0.9765
-3.8036 1.0419 -0.9694 0.9839
-2.8807 0.2574 -0.7109 0.9882
-5.9858 -2.2291 -1.6831 0.9739
-5.9623 -2.8479 -1.7411 0.9730
-5.8050 -4.1782 -1.8846 0.9708
-5.6620 -4.8961 -1.9724 0.9695
-4.8925 -7.3002 -2.3157 0.9643
-4.4917 -8.1963 -2.4628 0.9621
-3.9994 -9.1469 -2.6305 0.9595
-2.6748 -11.2238 -3.0403 0.9534
11.6037 7.9655 -3.7086 0.9434
9.9401 8.2157 -3.3981 0.9481
5.8474 8.3180 -2.6792 0.9588
4.7369 8.2045 -2.4963 0.9616
3.7318 8.0418 -2.3360 0.9640
1.9928 7.6065 -2.0720 0.9680
1.2395 7.3482 -1.9636 0.9696
0.5524 7.0695 -1.8685 0.9711
-0.0755 6.7743 -1.7851 0.9724
-0.6504 6.4652 -1.7122 0.9735
-2.8899 4.7575 -1.4667 0.9772
-3.3550 4.5535 -1.4904 0.9769
-4.1003 3.8780 -1.4871 0.9769
-4.8881 2.6084 -1.4599 0.9773
-5.1039 2.1643 -1.4608 0.9773
-2.8316 0.3808 -0.7528 0.9883
-2.8515 0.1272 -0.7521 0.9883
-2.9836 -0.4013 -0.7933 0.9876
-3.0953 -0.7013 -0.8363 0.9870
-5.9854 -1.9300 -1.6571 0.9743
-5.9782 -2.5350 -1.7110 0.9735
-5.7394 -4.5324 -1.9271 0.9702
-5.3496 -6.0489 -2.1278 0.9671
-5.0628 -6.8713 -2.2490 0.9653
-3.7142 -9.6436 -2.7230 0.9582
-1.3020 -12.9419 -3.4274 0.9476
9.1687 8.2926 -3.2575 0.9501
7.7384 8.3666 -3.0030 0.9540
5.2782 8.2682 -2.5847 0.9602
4.2219 8.1286 -2.4136 0.9628
1.6074 7.4802 -2.0160 0.9688
0.2315 6.9238 -1.8254 0.9718
-0.3692 6.6215 -1.7475 0.9729
-0.9207 6.3065 -1.6791 0.9740
-1.8857 5.6324 -1.5651 0.9757
-3.6210 4.4818 -1.5182 0.9764
-4.7717 2.8263 -1.4613 0.9773
-4.9989 2.3878 -1.4597 0.9773
-3.7365 1.0236 -1.0208 0.9841
-2.8348 0.2533 -0.7499 0.9883
-5.7281 -1.5691 -1.6710 0.9756
-5.7289 -2.1335 -1.7200 0.9749
-5.6322 -3.3360 -1.8418 0.9732
-5.5275 -3.9785 -1.9162 0.9721
-5.3793 -4.6517 -2.0009 0.9709
-4.6073 -6.8746 -2.3284 0.9662
-4.2143 -7.6901 -2.4672 0.9642
-3.1615 -9.4428 -2.8017 0.9595
-2.4737 -10.3801 -3.0023 0.9566
-0.6894 -12.3631 -3.4839 0.9498
0.4479 -13.3942 -3.7706 0.9458
12.0424 6.7750 -3.8876 0.9442
10.4955 7.2048 -3.5818 0.9485
9.0639 7.4916 -3.3085 0.9523
6.5388 7.7342 -2.8495 0.9588
5.4334 7.7292 -2.6582 0.9615
3.4993 7.5408 -2.3390 0.9660
2.6548 7.3791 -2.2064 0.9679
1.8820 7.1833 -2.0893 0.9696
0.5246 6.7130 -1.8945 0.9724
-0.0719 6.4470 -1.8140 0.9736
-0.6202 6.1653 -1.7434 0.9746
-1.5870 5.5502 -1.6242 0.9763
-2.4108 4.9059 -1.5380 0.9775
-2.7736 4.5660 -1.5031 0.9780
-3.3118 4.4948 -1.5708 0.9771
-3.9435 3.7298 -1.5272 0.9777
-4.2209 3.3333 -1.5132 0.9779
-4.7045 2.5104 -1.5003 0.9781
-4.9121 2.0829 -1.5012 0.9781
-3.1370 0.7108 -0.9050 0.9867
-2.7751 0.3732 -0.7878 0.9884
-2.8531 -0.1272 -0.8035 0.9882
-2.9298 -0.3940 -0.8317 0.9878
-3.0353 -0.6877 -0.8756 0.9872
-3.2049 -1.0334 -0.9474 0.9861
-5.7176 -2.4245 -1.7474 0.9745
-5.5850 -3.6535 -1.8777 0.9726
-5.4592 -4.3111 -1.9572 0.9715
-5.2872 -5.0006 -2.0475 0.9702
-4.4207 -7.2773 -2.3957 0.9652
-3.9868 -8.1129 -2.5433 0.9631
11.2548 7.0096 -3.7305 0.9464
7.1295 7.7084 -2.9542 0.9573
4.9168 7.7021 -2.5709 0.9627
3.9507 7.6066 -2.4116 0.9650
3.0677 7.4647 -2.2707 0.9670
1.5202 7.0746 -2.0359 0.9704
0.8423 6.8389 -1.9387 0.9718
0.2201 6.5823 -1.8530 0.9730
-0.3518 6.3081 -1.7776 0.9741
-0.8762 6.0076 -1.7082 0.9751
-1.3597 5.7056 -1.6502 0.9759
-2.2162 5.0686 -1.5564 0.9773
-2.5959 4.7371 -1.5198 0.9778
-3.4798 4.3070 -1.5579 0.9773
-4.0853 3.5327 -1.5196 0.9778
-4.3505 3.1314 -1.5082 0.9780
-4.8111 2.2981 -1.5001 0.9781
-3.6501 0.9999 -1.0648 0.9844
-2.7884 0.2492 -0.7877 0.9884
-5.4540 -2.6052 -1.8096 0.9751
-5.3826 -3.1881 -1.8729 0.9742
-5.2731 -3.7954 -1.9451 0.9732
-3.5043 -8.0144 -2.6187 0.9641
-2.2993 -9.6481 -2.9694 0.9594
2.9861 -13.8962 -4.2552 0.9424
9.5730 6.5715 -3.4763 0.9527
7.1570 7.0778 -3.0134 0.9588
6.0736 7.1839 -2.8163 0.9615
5.0711 7.2137 -2.6399 0.9639
4.1455 7.1803 -2.4822 0.9660
3.2923 7.0948 -2.3416 0.9679
2.5061 6.9660 -2.2163 0.9696
1.7819 6.8013 -2.1049 0.9711
1.1145 6.6070 -2.0059 0.9724
0.4991 6.3879 -1.9182 0.9736
-0.5914 5.8786 -1.7688 0.9756
-1.9328 5.0185 -1.6100 0.9778
-2.3138 4.7084 -1.5706 0.9783
-2.6656 4.3882 -1.5371 0.9788
-4.3104 2.8198 -1.5421 0.9787
-4.7326 2.0068 -1.5390 0.9788
-4.9105 1.5835 -1.5446 0.9787
-3.0564 0.6925 -0.9382 0.9870
-2.8067 -0.1252 -0.8411 0.9883
-5.2028 -4.1086 -1.9847 0.9727
-5.0279 -4.7554 -2.0719 0.9715
-4.5171 -6.1307 -2.2798 0.9687
-4.1683 -6.8619 -2.4037 0.9670
-3.7460 -7.6229 -2.5428 0.9652
-2.6393 -9.2303 -2.8741 0.9607
-1.9305 -10.0712 -3.0700 0.9581
-1.0996 -10.9297 -3.2887 0.9552
-0.1314 -11.7964 -3.5319 0.9519
0.9891 -12.6579 -3.8011 0.9484
2.2763 -13.4947 -4.0971 0.9445
13.0179 5.1810 -4.1946 0.9432
7.7299 6.9913 -3.1203 0.9574
6.6050 7.1413 -2.9122 0.9602
5.5624 7.2075 -2.7256 0.9627
4.5989 7.2042 -2.5588 0.9649
3.7102 7.1435 -2.4099 0.9669
2.8912 7.0353 -2.2771 0.9687
2.1366 6.8877 -2.1590 0.9703
1.4414 6.7076 -2.0539 0.9718
0.8006 6.5003 -1.9608 0.9730
0.2096 6.2700 -1.8781 0.9741
-0.3358 6.0207 -1.8053 0.9751
-0.8377 5.7436 -1.7377 0.9761
-1.3019 5.4629 -1.6813 0.9768
-3.3480 4.1438 -1.5949 0.9780
-3.6536 3.7779 -1.5734 0.9783
-3.9342 3.4021 -1.5571 0.9785
-4.1908 3.0164 -1.5459 0.9787
-4.4244 2.6206 -1.5395 0.9788
-2.8473 0.5130 -0.8662 0.9880
-2.7412 0.2450 -0.8239 0.9886
-2.7827 -0.2486 -0.8873 0.9883
-2.8694 -0.5169 -0.9259 0.9878
-2.9540 -0.8092 -0.9727 0.9872
-5.2701 -1.9626 -1.7860 0.9767
-4.4305 -5.4837 -2.2389 0.9708
-4.1200 -6.1476 -2.3503 0.9694
-3.7450 -6.8337 -2.4748 0.9678
-2.1464 -9.0066 -2.9405 0.9619
-1.4228 -9.7555 -3.1310 0.9595
-0.5857 -10.5043 -3.3412 0.9568
0.3758 -11.2412 -3.5720 0.9539
1.4718 -11.9498 -3.8238 0.9507
2.7095 -12.6091 -4.0959 0.9473
13.5849 3.3979 -4.4473 0.9429
12.3695 4.2952 -4.1584 0.9465
11.1489 5.0235 -3.8835 0.9500
9.9501 5.5978 -3.6257 0.9532
7.6893 6.3554 -3.1682 0.9590
6.6460 6.5724 -2.9684 0.9615
5.6664 6.7022 -2.7873 0.9638
3.8987 6.7527 -2.4763 0.9678
3.1067 6.6948 -2.3439 0.9695
1.0602 6.2855 -2.0244 0.9736
-0.0653 5.8618 -1.8617 0.9757
-1.8565 4.8202 -1.6404 0.9786
-3.0671 4.1627 -1.6421 0.9785
-3.3758 3.8171 -1.6183 0.9788
-3.6596 3.4613 -1.5997 0.9791
-3.9197 3.0954 -1.5862 0.9793
-4.1567 2.7192 -1.5775 0.9794
-4.7350 1.5269 -1.5800 0.9793
-2.9791 0.6750 -0.9701 0.9873
-2.6672 0.3587 -0.8547 0.9888
-2.8255 -0.3800 -0.9054 0.9881
-2.9205 -0.6617 -0.9510 0.9875
-3.1071 -1.0019 -1.0368 0.9864
-5.1003 -3.3364 -1.9356 0.9747
-4.9672 -3.9225 -2.0101 0.9738
-4.5638 -5.1604 -2.1878 0.9715
-4.2829 -5.8128 -2.2930 0.9702
-3.9411 -6.4879 -2.4108 0.9686
-3.5307 -7.1847 -2.5424 0.9670
-1.7981 -9.3804 -3.0333 0.9607
-0.1212 -10.8751 -3.4540 0.9554
3.3829 -12.9122 -4.2391 0.9455
12.9800 3.8685 -4.3014 0.9447
9.3656 5.8329 -3.5041 0.9547
7.1598 6.4757 -3.0659 0.9603
6.1481 6.6473 -2.8756 0.9627
4.3171 6.7627 -2.5480 0.9669
2.0250 6.5281 -2.1707 0.9717
1.3696 6.3737 -2.0704 0.9730
-0.8021 5.4994 -1.7650 0.9769
-1.6615 4.9626 -1.6620 0.9783
-2.0441 4.6749 -1.6204 0.9788
-3.5207 3.6404 -1.6084 0.9790
-4.2668 2.5272 -1.5749 0.9794
-4.4705 2.1354 -1.5734 0.9794
-2.6951 0.2409 -0.8593 0.9887
-2.6945 0.0000 -0.9053 0.9887
-2.7374 -0.2446 -0.9234 0.9885
-2.8177 -0.5076 -0.9619 0.9880
-5.0177 -2.3967 -1.8683 0.9768
-4.8224 -3.4709 -1.9963 0.9752
-4.6664 -4.0352 -2.0727 0.9743
-4.2149 -5.2168 -2.2533 0.9721
-3.9100 -5.8342 -2.3597 0.9708
-3.1113 -7.1157 -2.6093 0.9678
-1.3278 -9.1041 -3.0912 0.9619
-0.5442 -9.7592 -3.2840 0.9596
0.3475 -10.3928 -3.4938 0.9571
3.7195 -11.9904 -4.2179 0.9484
12.2579 3.0659 -4.2453 0.9481
11.2326 3.9004 -3.9950 0.9511
9.1441 5.1444 -3.5251 0.9567
8.1241 5.5769 -3.3108 0.9593
5.3068 6.2770 -2.7616 0.9659
4.4662 6.3533 -2.6092 0.9678
1.6082 6.1387 -2.1321 0.9736
-0.5421 5.3889 -1.8197 0.9774
-0.9877 5.1526 -1.7627 0.9781
-3.2554 3.6810 -1.6510 0.9795
-3.5306 3.3392 -1.6327 0.9797
-4.0121 2.6246 -1.6108 0.9800
-4.2196 2.2517 -1.6069 0.9800
-2.6180 0.3521 -0.8875 0.9889
-2.7168 -0.1211 -0.9137 0.9886
-2.7752 -0.3732 -0.9408 0.9883
-2.8654 -0.6492 -0.9871 0.9877
-5.0759 -1.6367 -1.7919 0.9777
-4.7498 -3.7509 -2.0334 0.9748
-4.0697 -5.5234 -2.3051 0.9715
-3.7353 -6.1491 -2.4173 0.9701
-3.3368 -6.7902 -2.5420 0.9686
-2.8670 -7.4440 -2.6801 0.9669
-2.3180 -8.1066 -2.8328 0.9650
-0.1123 -10.0796 -3.3868 0.9584
0.8359 -10.6969 -3.6049 0.9557
3.0841 -11.7718 -4.0886 0.9499
5.7864 -12.4694 -4.6186 0.9436
13.6818 1.5306 -4.6255 0.9436
12.7525 2.5921 -4.3722 0.9466
11.7497 3.5018 -4.1193 0.9496
8.6304 5.3751 -3.4161 0.9580
4.0653 6.3682 -2.5384 0.9686
1.9236 6.2011 -2.1814 0.9730
1.3041 6.0685 -2.0855 0.9741
0.7274 5.9064 -1.9994 0.9752
0.1909 5.7096 -1.9194 0.9762
-0.3067 5.5006 -1.8510 0.9770
-0.7690 5.2729 -1.7903 0.9778
-1.1984 5.0286 -1.7368 0.9784
-1.9665 4.4975 -1.6492 0.9795
-2.3152 4.2249 -1.6187 0.9799
-2.7971 4.1737 -1.6881 0.9790
-3.3959 3.5114 -1.6412 0.9796
-3.6594 3.1644 -1.6254 0.9798
-4.3153 2.0613 -1.6068 0.9800
-2.6265 0.7195 -0.9150 0.9886
-2.7169 0.4895 -0.9275 0.9884
-2.6500 0.2368 -0.8939 0.9888
-2.6519 0.0000 -0.9403 0.9888
-2.6931 -0.2406 -0.9588 0.9886
-2.7668 -0.4984 -0.9969 0.9881
-2.8417 -0.7784 -1.0448 0.9876
-4.8717 -1.8142 -1.8433 0.9782
-4.8216 -2.3031 -1.8947 0.9776
-4.6215 -3.3264 -2.0191 0.9761
-4.2642 -4.4091 -2.1750 0.9743
-3.7184 -5.5482 -2.3683 0.9721
-3.3625 -6.1358 -2.4809 0.9707
-1.2438 -8.5283 -3.0560 0.9641
-0.5077 -9.1060 -3.2339 0.9620
2.2803 -10.6115 -3.8486 0.9550
3.4057 -10.9789 -4.0760 0.9524
5.9084 -11.3756 -4.5453 0.9471
7.2478 -11.3534 -4.7761 0.9444
8.6063 -11.1515 -4.9948 0.9420
13.9713 -0.3113 -4.9553 0.9424
11.9752 1.8830 -4.2984 0.9499
7.5438 5.1786 -3.2445 0.9619
4.9868 5.8984 -2.7388 0.9678
3.4776 6.0234 -2.4662 0.9709
2.7873 6.0065 -2.3480 0.9723
0.9647 5.7194 -2.0566 0.9757
-0.0598 5.3721 -1.9050 0.9775
-0.5201 5.1700 -1.8425 0.9782
-0.9488 4.9496 -1.7870 0.9788
-1.3476 4.7130 -1.7381 0.9794
-1.7185 4.4619 -1.6954 0.9799
-2.0627 4.1976 -1.6584 0.9803
-2.5373 4.1770 -1.7329 0.9795
-2.8518 3.8706 -1.7047 0.9798
-3.8757 2.5354 -1.6422 0.9805
-4.0766 2.1753 -1.6384 0.9806
-2.5615 0.5804 -0.9313 0.9889
-2.5748 0.3463 -0.9212 0.9890
-2.6733 -0.1192 -0.9489 0.9887
-4.7846 -2.5531 -1.9230 0.9772
-4.5482 -3.5916 -2.0549 0.9757
-4.3698 -4.1330 -2.1327 0.9748
-3.1613 -6.4330 -2.5416 0.9700
-2.7084 -7.0323 -2.6721 0.9685
-1.5781 -8.2327 -2.9724 0.9650
-0.8873 -8.8198 -3.1432 0.9631
1.7536 -10.3963 -3.7385 0.9562
2.8312 -10.8067 -3.9612 0.9537
5.2561 -11.3266 -4.4277 0.9484
13.0191 0.2902 -4.6175 0.9462
11.5750 2.3527 -4.1882 0.9511
8.9103 4.5026 -3.5399 0.9585
7.9958 4.9798 -3.3401 0.9608
6.2265 5.6316 -2.9769 0.9650
5.3903 5.8280 -2.8149 0.9669
3.8389 6.0135 -2.5297 0.9702
3.1271 6.0208 -2.4057 0.9716
2.4581 5.9815 -2.2931 0.9729
1.2437 5.7880 -2.0992 0.9752
-2.6977 4.0252 -1.7182 0.9796
-2.9999 3.7131 -1.6926 0.9799
-3.5339 3.0559 -1.6566 0.9804
-4.3379 1.6155 -1.6414 0.9805
-2.6060 0.2329 -0.9277 0.9890
-2.6498 -0.2368 -0.9934 0.9887
-2.7878 -0.7637 -1.0794 0.9877
-4.6912 -1.7470 -1.8693 0.9789
-4.5536 -2.6971 -1.9763 0.9777
-3.5427 -5.2860 -2.3762 0.9732
-2.3219 -6.9350 -2.7309 0.9693
-1.7829 -7.4812 -2.8718 0.9677
-0.4755 -8.5284 -3.1895 0.9642
0.3012 -9.0095 -3.3661 0.9622
3.1379 -10.1154 -3.9548 0.9558
4.2375 -10.3114 -4.1629 0.9535
5.3948 -10.3869 -4.3705 0.9513
6.5887 -10.3210 -4.5723 0.9491
13.3373 -3.9749 -5.1968 0.9423
13.3656 -2.7166 -5.0929 0.9434
12.8182 -0.2856 -4.7876 0.9467
11.5398 0.7725 -4.3187 0.9518
10.9273 1.7183 -4.1305 0.9539
7.8504 4.4166 -3.3635 0.9623
7.0353 4.8295 -3.1865 0.9642
4.7001 5.5593 -2.7184 0.9694
3.9807 5.6626 -2.5847 0.9709
3.2966 5.7098 -2.4620 0.9722
2.6489 5.7081 -2.3498 0.9735
1.4624 5.5821 -2.1548 0.9757
-0.0574 5.1531 -1.9243 0.9782
-1.2973 4.5371 -1.7621 0.9801
-1.6558 4.2993 -1.7203 0.9805
-2.0346 4.1403 -1.7226 0.9805
-3.2942 3.1157 -1.6931 0.9808
-2.5436 0.5763 -0.9739 0.9889
-2.5921 0.1156 -0.9689 0.9890
-2.6781 -0.3601 -1.0090 0.9885
-4.6685 -1.9796 -1.8935 0.9786
-4.6000 -2.4546 -1.9470 0.9780
-4.3605 -3.4435 -2.0748 0.9766
-4.1830 -3.9562 -2.1499 0.9757
-3.6953 -5.0153 -2.3262 0.9738
-3.3766 -5.5586 -2.4286 0.9726
-1.4856 -7.7503 -2.9467 0.9669
-0.8325 -8.2751 -3.1056 0.9651
-0.0977 -8.7737 -3.2764 0.9632
0.7216 -9.2340 -3.4586 0.9612
1.6263 -9.6414 -3.6511 0.9591
2.6143 -9.9789 -3.8520 0.9569
3.6794 -10.2271 -4.0586 0.9547
5.9888 -10.3728 -4.4726 0.9501
8.3853 -9.9181 -4.8498 0.9461
9.5346 -9.4290 -5.0073 0.9444
10.5982 -8.7596 -5.1343 0.9430
11.5344 -7.9179 -5.2242 0.9420
13.3785 -3.3462 -5.1496 0.9428
13.3004 -2.0913 -5.0275 0.9441
11.2465 1.2581 -4.2258 0.9528
10.5859 2.1517 -4.0337 0.9549
8.2590 4.1735 -3.4554 0.9613
6.6318 5.0013 -3.1016 0.9652
5.8393 5.2813 -2.9400 0.9669
4.3361 5.6185 -2.6501 0.9702
3.6341 5.6928 -2.5220 0.9716
2.9681 5.7147 -2.4046 0.9729
2.3384 5.6905 -2.2973 0.9741
1.7456 5.6273 -2.2001 0.9752
1.1864 5.5212 -2.1087 0.9762
0.6642 5.3931 -2.0290 0.9771
0.1752 5.2389 -1.9574 0.9779
-0.7096 4.8651 -1.8359 0.9792
-1.1083 4.6504 -1.7851 0.9798
-1.4798 4.4199 -1.7405 0.9803
-2.6040 3.8854 -1.7465 0.9802
-2.8972 3.5860 -1.7215 0.9805
-3.1675 3.2752 -1.7014 0.9807
-3.4154 2.9535 -1.6861 0.9809
-3.6417 2.6212 -1.6755 0.9810
-3.8467 2.2784 -1.6695 0.9811
-2.6073 -0.2330 -1.0273 0.9888
-2.6685 -0.4807 -1.0642 0.9884
-2.7221 -0.7456 -1.1077 0.9879
-3.6669 -4.5385 -2.2900 0.9752
-3.0442 -5.5549 -2.4861 0.9731
-2.6523 -6.0660 -2.5984 0.9720
-2.2008 -6.5735 -2.7207 0.9707
0.2821 -8.4377 -3.3134 0.9644
1.9620 -9.1305 -3.6653 0.9607
6.0332 -9.4509 -4.4006 0.9530
11.4065 -5.7639 -5.0158 0.9466
12.0739 -3.5984 -4.9446 0.9473
11.9893 -1.3412 -4.7348 0.9495
8.7600 3.0418 -3.6394 0.9609
8.0504 3.6273 -3.4655 0.9628
5.8542 4.8387 -2.9808 0.9679
5.1372 5.0803 -2.8356 0.9694
4.4416 5.2535 -2.7000 0.9709
2.5218 5.4345 -2.3513 0.9746
0.8820 5.2287 -2.0811 0.9775
-0.8783 4.5820 -1.8310 0.9802
-1.2501 4.3718 -1.7846 0.9807
-1.5969 4.1463 -1.7438 0.9811
-2.0281 4.1271 -1.8048 0.9804
-2.3646 3.8927 -1.7875 0.9806
-2.6607 3.6111 -1.7604 0.9809
-3.6248 2.3713 -1.7000 0.9816
-3.8132 2.0348 -1.6963 0.9816
-2.7055 -0.6129 -1.0887 0.9882
-2.7236 -0.8782 -1.1231 0.9878
-4.4271 -2.3623 -1.9694 0.9787
-4.1857 -3.3054 -2.0932 0.9773
-4.0094 -3.7921 -2.1659 0.9766
-2.8554 -5.8106 -2.5410 0.9726
-2.4343 -6.3205 -2.6582 0.9713
-1.4024 -7.3162 -2.9237 0.9685
-0.7835 -7.7881 -3.0720 0.9669
-0.0917 -8.2307 -3.2305 0.9652
0.6746 -8.6329 -3.3985 0.9635
3.4015 -9.4545 -3.9435 0.9577
6.5730 -9.3502 -4.4857 0.9521
7.6393 -9.0358 -4.6439 0.9504
10.4366 -7.1643 -4.9683 0.9471
11.9783 -4.1593 -4.9765 0.9470
12.1217 -3.0318 -4.9040 0.9477
12.0778 -1.8991 -4.7984 0.9488
11.4870 0.2560 -4.5094 0.9518
10.3119 1.1536 -4.0724 0.9564
9.7429 1.9803 -3.9020 0.9582
9.1011 2.7124 -3.7272 0.9600
8.4089 3.3467 -3.5520 0.9619
5.4934 4.9685 -2.9070 0.9687
4.1033 5.3168 -2.6359 0.9716
2.2288 5.4234 -2.3012 0.9751
1.6647 5.3666 -2.2052 0.9761
0.1681 5.0278 -1.9744 0.9786
-0.6827 4.6808 -1.8565 0.9799
-1.4265 4.2609 -1.7635 0.9809
-1.7844 4.0811 -1.7481 0.9810
-2.2078 4.0287 -1.8030 0.9805
-2.8002 3.4658 -1.7487 0.9810
-3.0626 3.1667 -1.7290 0.9812
-3.3033 2.8565 -1.7139 0.9814
-3.7216 2.2043 -1.6976 0.9816
-3.8997 1.8628 -1.6962 0.9816
-2.5207 0.2253 -0.9932 0.9892
-2.5289 0.0000 -1.0413 0.9891
-2.6211 -0.4722 -1.0967 0.9885
-2.6410 -0.7234 -1.1276 0.9882
-4.3045 -2.0561 -1.9643 0.9796
-4.2165 -2.4975 -2.0180 0.9790
-4.0957 -2.9479 -2.0779 0.9784
-3.9397 -3.4068 -2.1447 0.9777
-3.7458 -3.8731 -2.2187 0.9770
-3.5108 -4.3454 -2.3004 0.9761
-3.2314 -4.8216 -2.3901 0.9752
-2.5250 -5.7747 -2.5953 0.9731
-2.0905 -6.2438 -2.7114 0.9719
-1.5970 -6.7011 -2.8367 0.9706
-1.0413 -7.1399 -2.9712 0.9693
0.2651 -7.9278 -3.2664 0.9663
1.8317 -8.5241 -3.5902 0.9630
3.6257 -8.8226 -3.9278 0.9596
4.5829 -8.8237 -4.0943 0.9579
9.8459 -6.1321 -4.7764 0.9511
10.3945 -5.2526 -4.7957 0.9509
10.7881 -4.2936 -4.7812 0.9510
11.0786 -2.2518 -4.6552 0.9523
10.7349 -0.2392 -4.4215 0.9546
10.3605 0.6936 -4.2758 0.9561
9.2734 1.4582 -3.8655 0.9602
8.7403 2.1861 -3.7099 0.9618
8.1470 2.8289 -3.5513 0.9634
7.5121 3.3848 -3.3929 0.9650
4.8526 4.7989 -2.8103 0.9709
4.2068 4.9757 -2.6831 0.9722
1.8551 5.1563 -2.2565 0.9766
0.8456 5.0130 -2.0934 0.9782
0.3827 4.8977 -2.0229 0.9790
-0.8462 4.4149 -1.8511 0.9807
-1.2056 4.2163 -1.8058 0.9812
-1.5506 4.0261 -1.7766 0.9815
-1.9753 4.0196 -1.8442 0.9808
-2.5728 3.4918 -1.7860 0.9814
-2.8383 3.2094 -1.7642 0.9816
-3.0826 2.9156 -1.7472 0.9818
-3.5090 2.2955 -1.7267 0.9820
-3.8541 1.6343 -1.7238 0.9821
-2.6300 -0.5959 -1.1104 0.9884
-4.1603 -2.7215 -2.0471 0.9787
-4.0222 -3.1763 -2.1105 0.9781
-3.8477 -3.6391 -2.1808 0.9774
-3.6337 -4.1086 -2.2586 0.9766
-3.3769 -4.5832 -2.3442 0.9757
-3.0740 -5.0604 -2.4381 0.9747
-2.3149 -6.0104 -2.6522 0.9725
-1.3271 -6.9233 -2.9028 0.9700
-0.0863 -7.7451 -3.1895 0.9670
0.6329 -8.0987 -3.3451 0.9655
4.1008 -8.8370 -4.0116 0.9587
5.0697 -8.7809 -4.1752 0.9571
10.6115 -4.7813 -4.7927 0.9509
11.0682 -2.7683 -4.6981 0.9518
11.0487 -1.7373 -4.6056 0.9528
10.5625 0.2354 -4.3505 0.9553
9.8539 1.1023 -4.0830 0.9580
9.0156 1.8325 -3.7884 0.9610
8.4499 2.5184 -3.6308 0.9626
7.1844 3.6305 -3.3147 0.9658
6.5174 4.0591 -3.1617 0.9673
5.8453 4.4081 -3.0147 0.9688
4.5274 4.8950 -2.7456 0.9716
3.2773 5.1337 -2.5080 0.9740
2.6860 5.1714 -2.3996 0.9751
0.6107 4.9586 -2.0573 0.9786
-0.6574 4.5078 -1.8758 0.9805
-1.0289 4.3177 -1.8277 0.9810
-1.7788 4.0683 -1.8284 0.9810
-2.4318 3.6285 -1.7987 0.9813
-2.9631 3.0639 -1.7551 0.9817
-3.1969 2.7645 -1.7404 0.9819
-3.4101 2.4545 -1.7301 0.9820
-3.7754 1.8034 -1.7229 0.9821
-3.9277 1.4628 -1.7259 0.9820
-3.5071 0.9607 -1.4973 0.9844
-2.5181 0.4537 -1.0536 0.9890
-2.4893 0.0000 -1.0738 0.9892
-2.5221 -0.2254 -1.0923 0.9890
-2.5389 -0.4574 -1.1128 0.9888
-2.5507 -0.6987 -1.1408 0.9885
-2.5688 -0.9566 -1.1824 0.9881
-4.1519 -1.9832 -1.9848 0.9802
-4.0628 -2.4064 -2.0369 0.9796
-3.9420 -2.8373 -2.0951 0.9791
-3.7874 -3.2751 -2.1598 0.9784
-3.0928 -4.6148 -2.3963 0.9761
-1.9893 -5.9417 -2.7028 0.9731
-1.5163 -6.3627 -2.8214 0.9719
-0.3979 -7.1352 -3.0826 0.9693
0.2498 -7.4702 -3.2241 0.9680
0.9555 -7.7578 -3.3717 0.9665
6.0328 -7.8168 -4.2593 0.9579
6.8884 -7.4477 -4.3761 0.9568
9.5914 0.6421 -4.1466 0.9590
8.8530 1.3921 -3.8657 0.9617
8.1372 2.0352 -3.6182 0.9641
7.6073 2.6415 -3.4737 0.9655
5.8222 3.9967 -3.0462 0.9697
5.2044 4.3016 -2.9125 0.9710
4.5912 4.5404 -2.7853 0.9723
3.9892 4.7185 -2.6653 0.9734
3.4035 4.8415 -2.5528 0.9745
1.7750 4.9339 -2.2618 0.9774
1.2807 4.8884 -2.1798 0.9782
0.3679 4.7074 -2.0368 0.9796
-0.0510 4.5786 -1.9751 0.9803
-0.8161 4.2575 -1.8699 0.9813
-1.1636 4.0695 -1.8257 0.9817
-1.9092 3.8852 -1.8673 0.9813
-2.2102 3.6385 -1.8363 0.9816
-2.4894 3.3787 -1.8103 0.9819
-3.3990 2.2235 -1.7520 0.9825
-3.7334 1.5831 -1.7492 0.9825
-2.5715 0.5826 -1.1373 0.9886
-2.4655 0.1100 -1.0645 0.9893
-2.5076 -0.1118 -1.0828 0.9891
-2.5465 -0.5770 -1.1263 0.9887
-4.1112 -2.1938 -2.0101 0.9799
-3.8691 -3.0554 -2.1266 0.9788
-3.4860 -3.9417 -2.2698 0.9773
-3.2347 -4.3902 -2.3523 0.9765
-1.2586 -6.5659 -2.8838 0.9713
-0.0814 -7.3080 -3.1526 0.9687
1.3292 -7.8802 -3.4472 0.9658
2.9472 -8.1919 -3.7554 0.9628
3.8139 -8.2187 -3.9083 0.9613
5.5925 -7.9554 -4.1947 0.9585
7.2977 -7.2168 -4.4273 0.9563
8.0638 -6.6648 -4.5127 0.9554
8.7395 -5.9993 -4.5726 0.9549
9.7364 -4.3870 -4.6065 0.9545
10.1720 -2.5442 -4.5229 0.9554
10.1703 -1.5992 -4.4409 0.9561
10.0307 -0.6714 -4.3365 0.9572
9.3921 1.0507 -4.0766 0.9597
8.3813 1.7036 -3.6893 0.9634
7.8785 2.3480 -3.5462 0.9648
5.5132 4.1577 -2.9786 0.9704
4.2884 4.6366 -2.7243 0.9729
3.1179 4.8842 -2.4995 0.9751
2.5631 4.9349 -2.3987 0.9761
2.0316 4.9437 -2.3055 0.9770
1.5247 4.9153 -2.2199 0.9778
1.0430 4.8537 -2.1415 0.9786
0.5866 4.7629 -2.0700 0.9793
-1.3322 3.9795 -1.8102 0.9819
-1.7504 4.0033 -1.8847 0.9811
-2.3525 3.5101 -1.8227 0.9818
-2.6210 3.2441 -1.7990 0.9820
-2.8687 2.9662 -1.7800 0.9822
-3.0959 2.6771 -1.7655 0.9823
-3.3029 2.3773 -1.7554 0.9824
-3.4900 2.0672 -1.7497 0.9825
-3.6573 1.7470 -1.7483 0.9825
-3.8046 1.4169 -1.7512 0.9825
-2.4720 0.4454 -1.0835 0.9891
-2.4387 0.2179 -1.0561 0.9894
-2.4481 -0.2188 -1.1090 0.9893
-2.4702 -0.6766 -1.1556 0.9888
-2.4890 -0.9269 -1.1984 0.9884
-3.9178 -2.3205 -2.0546 0.9802
-3.7976 -2.7333 -2.1112 0.9797
-3.2301 -3.9979 -2.3192 0.9777
-2.2995 -5.2591 -2.5899 0.9751
-1.8962 -5.6637 -2.6950 0.9741
-0.9362 -6.4193 -2.9272 0.9719
0.2360 -7.0570 -3.1860 0.9695
0.9003 -7.3101 -3.3234 0.9682
1.6130 -7.5060 -3.4642 0.9669
2.3681 -7.6339 -3.6065 0.9655
3.1572 -7.6826 -3.7479 0.9642
4.7889 -7.5017 -4.0158 0.9617
5.5996 -7.2556 -4.1354 0.9606
6.3812 -6.8993 -4.2405 0.9596
7.7726 -5.8616 -4.3927 0.9582
8.3409 -5.1947 -4.4338 0.9578
8.8002 -4.4469 -4.4490 0.9577
9.1376 -3.6367 -4.4376 0.9578
9.1984 -0.2049 -4.1515 0.9604
8.9197 0.5971 -4.0337 0.9615
8.5486 1.3442 -3.9046 0.9627
7.1282 2.4752 -3.4048 0.9674
6.6096 2.9782 -3.2712 0.9687
5.4982 3.7743 -3.0092 0.9712
4.3564 4.3082 -2.7646 0.9735
3.7936 4.4871 -2.6513 0.9745
3.2433 4.6137 -2.5447 0.9756
1.2289 4.6906 -2.1879 0.9789
0.7799 4.6235 -2.1157 0.9796
-0.0491 4.4101 -1.9900 0.9808
-1.1243 3.9323 -1.8454 0.9822
-2.1388 3.5211 -1.8589 0.9821
-2.6610 3.0089 -1.8124 0.9825
-2.8917 2.7350 -1.7960 0.9827
-3.1027 2.4502 -1.7839 0.9828
-3.4661 1.8496 -1.7727 0.9829
-2.4521 -0.3298 -1.1164 0.9892
-2.4671 -0.5589 -1.1414 0.9890
-2.4891 -1.0554 -1.2199 0.9882
-3.7252 -2.9418 -2.1418 0.9794
-3.5548 -3.3621 -2.2078 0.9788
-1.6757 -5.8604 -2.7503 0.9736
-1.1959 -6.2391 -2.8665 0.9725
-0.6632 -6.5922 -2.9896 0.9713
0.5618 -7.1900 -3.2542 0.9688
1.2509 -7.4159 -3.3935 0.9675
1.9856 -7.5792 -3.5353 0.9662
2.7590 -7.6688 -3.6775 0.9649
3.5612 -7.6740 -3.8173 0.9636
4.3790 -7.5846 -3.9517 0.9623
5.9954 -7.0913 -4.1900 0.9601
6.7546 -6.6797 -4.2864 0.9592
7.4529 -6.1600 -4.3629 0.9585
9.2579 -3.2147 -4.4220 0.9579
9.3999 -2.3510 -4.3720 0.9584
9.0716 0.2022 -4.0943 0.9610
7.9929 1.6246 -3.6803 0.9648
7.3727 2.1973 -3.4713 0.9668
4.6411 4.1976 -2.8236 0.9729
3.5166 4.5566 -2.5971 0.9751
2.9741 4.6589 -2.4940 0.9760
2.4494 4.7160 -2.3978 0.9769
1.9449 4.7326 -2.3087 0.9778
1.4619 4.7129 -2.2265 0.9786
1.0015 4.6607 -2.1510 0.9793
0.1495 4.4724 -2.0192 0.9806
-1.3257 3.9596 -1.8841 0.9818
-1.6925 3.8708 -1.9062 0.9816
-1.9954 3.6411 -1.8735 0.9819
-2.2771 3.3977 -1.8455 0.9822
-2.5381 3.1415 -1.8223 0.9824
-3.6873 1.3732 -1.7754 0.9829
-2.4063 0.4335 -1.1032 0.9893
-2.4034 -0.8950 -1.2089 0.9887
-3.8707 -1.8489 -2.0220 0.9812
-3.7809 -2.2394 -2.0714 0.9808
-3.6613 -2.6352 -2.1264 0.9802
-3.3247 -3.4376 -2.2543 0.9791
-3.1033 -3.8409 -2.3276 0.9784
-2.5428 -4.6400 -2.4941 0.9769
-1.3744 -5.7671 -2.7946 0.9741
-0.8903 -6.1044 -2.9079 0.9731
1.5202 -7.0741 -3.4107 0.9685
4.4724 -7.0059 -3.9179 0.9639
5.2192 -6.7627 -4.0267 0.9629
5.9375 -6.4196 -4.1219 0.9621
7.2142 -5.4404 -4.2592 0.9608
8.1603 -4.1236 -4.3098 0.9604
8.4747 -3.3729 -4.2996 0.9605
8.6728 -2.5847 -4.2659 0.9608
8.7163 -0.9750 -4.1343 0.9620
7.9981 1.2577 -3.8165 0.9648
7.2603 1.8159 -3.5278 0.9674
6.6999 2.3265 -3.3432 0.9691
6.2272 2.8059 -3.2196 0.9702
4.6737 3.8630 -2.8582 0.9735
3.6137 4.2743 -2.6384 0.9756
2.5904 4.4869 -2.4422 0.9773
2.1017 4.5291 -2.3536 0.9782
1.1804 4.5055 -2.1955 0.9796
0.3408 4.3612 -2.0620 0.9808
-1.1177 3.9088 -1.9163 0.9822
-1.4827 3.8496 -1.9445 0.9819
-2.0710 3.4093 -1.8803 0.9825
-2.3347 3.1687 -1.8553 0.9827
-2.8030 2.6511 -1.8186 0.9831
-3.1942 2.0896 -1.7992 0.9833
-3.3611 1.7936 -1.7958 0.9833
-3.5088 1.4879 -1.7965 0.9833
-3.6372 1.1729 -1.8014 0.9832
-2.5265 0.5724 -1.2211 0.9886
-2.2973 0.3090 -1.0926 0.9898
-2.3488 0.1047 -1.1083 0.9897
-2.3945 -0.7721 -1.1859 0.9889
-3.2186 -3.6393 -2.2902 0.9787
-2.6984 -4.4421 -2.4500 0.9773
-2.0104 -5.2200 -2.6368 0.9756
-1.5983 -5.5895 -2.7404 0.9746
-0.0730 -6.5520 -3.0887 0.9714
1.1803 -6.9974 -3.3450 0.9691
1.8692 -7.1346 -3.4766 0.9679
2.5911 -7.2020 -3.6079 0.9667
4.8482 -6.8966 -3.9738 0.9634
5.5831 -6.6037 -4.0762 0.9625
7.9614 -4.4790 -4.3059 0.9604
8.3318 -3.7541 -4.3077 0.9604
8.7274 -2.1828 -4.2406 0.9610
8.7485 -1.3756 -4.1745 0.9616
8.4611 0.1886 -3.9893 0.9633
8.1728 0.9143 -3.8765 0.9643
5.4663 3.4045 -3.0356 0.9719
4.9396 3.7252 -2.9163 0.9730
3.3531 4.3448 -2.5870 0.9760
2.8411 4.4505 -2.4889 0.9769
2.3439 4.5129 -2.3971 0.9778
1.8641 4.5360 -2.3117 0.9785
1.4033 4.5238 -2.2326 0.9793
0.9626 4.4798 -2.1598 0.9799
0.5428 4.4072 -2.0931 0.9806
-0.9260 3.8857 -1.8829 0.9825
-1.6375 3.7450 -1.9267 0.9821
-1.9316 3.5247 -1.8946 0.9824
-2.2053 3.2906 -1.8673 0.9826
-2.4591 3.0437 -1.8445 0.9828
-3.1035 2.2338 -1.8025 0.9832
-3.2800 1.9428 -1.7970 0.9833
-3.6941 1.0119 -1.8055 0.9832
-2.3515 0.4237 -1.1263 0.9895
-2.3243 0.2077 -1.1000 0.9897
-2.2975 0.0000 -1.1300 0.9898
-2.3095 -0.2063 -1.1404 0.9897
-2.3082 -0.4158 -1.1536 0.9896
-2.3666 -1.1304 -1.2900 0.9884
-3.6513 -2.1627 -2.0873 0.9813
-3.5326 -2.5426 -2.1408 0.9808
-2.9842 -3.6936 -2.3356 0.9791
-2.7308 -4.0746 -2.4126 0.9784
-2.4386 -4.4498 -2.4958 0.9776
-2.1058 -4.8159 -2.5853 0.9768
-1.7305 -5.1688 -2.6810 0.9760
-0.8480 -5.8146 -2.8902 0.9741
0.2120 -6.3394 -3.1198 0.9721
2.7862 -6.7799 -3.6053 0.9679
4.8823 -6.3261 -3.9304 0.9650
5.5458 -5.9960 -4.0172 0.9642
6.1650 -5.5759 -4.0885 0.9636
6.7234 -5.0703 -4.1419 0.9632
7.5991 -3.8400 -4.1877 0.9628
7.8932 -3.1414 -4.1785 0.9628
8.0820 -2.4087 -4.1479 0.9631
8.0161 -0.1786 -3.9437 0.9649
7.8017 0.5223 -3.8459 0.9657
7.5071 1.1804 -3.7378 0.9667
4.9361 3.3884 -2.9448 0.9737
2.9584 4.2084 -2.5302 0.9773
2.4799 4.2954 -2.4395 0.9781
2.0151 4.3425 -2.3546 0.9789
1.5663 4.3536 -2.2757 0.9796
1.1349 4.3319 -2.2026 0.9802
0.7221 4.2808 -2.1352 0.9808
-0.0457 4.1012 -2.0173 0.9819
-0.7351 3.8355 -1.9209 0.9827
-1.1143 3.8969 -1.9935 0.9821
-1.4348 3.7255 -1.9636 0.9824
-1.7305 3.5214 -1.9298 0.9827
-2.0063 3.3029 -1.9008 0.9829
-2.5000 2.8268 -1.8561 0.9833
-2.7183 2.5710 -1.8403 0.9835
-3.0986 2.0270 -1.8212 0.9836
-3.4040 1.4434 -1.8186 0.9837
-3.5283 1.1378 -1.8234 0.9836
-2.5042 0.5674 -1.2629 0.9886
-2.3108 -0.3108 -1.1468 0.9897
-2.3173 -0.7472 -1.1976 0.9892
-3.6997 -1.9742 -2.0626 0.9815
-3.5957 -2.3522 -2.1134 0.9810
-3.4618 -2.7337 -2.1696 0.9805
-3.2963 -3.1175 -2.2316 0.9800
-2.8622 -3.8846 -2.3733 0.9787
-2.5896 -4.2631 -2.4534 0.9780
-2.2774 -4.6343 -2.5398 0.9772
-1.9235 -4.9943 -2.6324 0.9764
-1.5266 -5.3388 -2.7312 0.9756
-0.5995 -5.9593 -2.9459 0.9737
-0.0693 -6.2227 -3.0608 0.9726
1.7641 -6.7335 -3.4237 0.9694
5.8620 -5.7970 -4.0550 0.9639
6.9750 -4.7880 -4.1612 0.9630
7.4143 -4.1712 -4.1842 0.9628
7.7590 -3.4960 -4.1858 0.9628
8.0010 -2.7782 -4.1658 0.9629
8.1644 -1.2838 -4.0650 0.9638
7.9196 0.1765 -3.8963 0.9653
7.6637 0.8573 -3.7929 0.9662
6.6266 1.9749 -3.4010 0.9696
6.1024 2.4288 -3.2305 0.9711
5.6532 2.8567 -3.1154 0.9722
5.1793 3.2257 -3.0011 0.9732
4.6900 3.5369 -2.8892 0.9742
4.1930 3.7924 -2.7807 0.9751
3.6952 3.9952 -2.6767 0.9760
3.2019 4.1488 -2.5777 0.9769
2.2456 4.3237 -2.3963 0.9785
0.9261 4.3098 -2.1682 0.9805
0.5228 4.2450 -2.1037 0.9811
-1.2795 3.8217 -1.9823 0.9822
-1.5851 3.6253 -1.9461 0.9825
-2.1370 3.1886 -1.8880 0.9830
-2.8204 2.4389 -1.8340 0.9835
-3.1820 1.8847 -1.8190 0.9836
-3.3347 1.5929 -1.8177 0.9837
-3.5832 0.9815 -1.8274 0.9836
-2.3061 0.4155 -1.1525 0.9896
-2.2658 0.2025 -1.1189 0.9899
-2.2443 -0.2005 -1.1552 0.9899
-2.2416 -0.4038 -1.1677 0.9898
-2.2593 -0.8414 -1.2360 0.9892
-2.2721 -1.0853 -1.2909 0.9887
-3.4107 -2.4548 -2.1544 0.9813
-3.2633 -2.8219 -2.2117 0.9808
-2.6250 -3.9168 -2.4173 0.9790
-2.3410 -4.2719 -2.4974 0.9783
-2.0186 -4.6167 -2.5832 0.9776
-1.6564 -4.9474 -2.6748 0.9768
-1.2533 -5.2593 -2.7718 0.9760
-0.3237 -5.8046 -2.9805 0.9742
0.7639 -6.2026 -3.2039 0.9723
2.6281 -6.3950 -3.5446 0.9694
4.5816 -5.9366 -3.8445 0.9669
5.1972 -5.6192 -3.9241 0.9662
7.1025 -3.5891 -4.0797 0.9649
7.5586 -2.2527 -4.0435 0.9652
7.6267 -0.8531 -3.9344 0.9661
7.5209 -0.1676 -3.8567 0.9668
6.7372 1.6851 -3.5603 0.9693
5.1393 2.8913 -3.0231 0.9738
3.2938 3.8959 -2.6155 0.9773
2.8310 4.0272 -2.5237 0.9781
2.3768 4.1167 -2.4370 0.9789
1.0921 4.1686 -2.2092 0.9808
-0.0441 3.9592 -2.0299 0.9824
-0.3866 3.8434 -1.9803 0.9828
-0.7307 3.8122 -1.9900 0.9827
-2.1940 2.9778 -1.8963 0.9835
-2.4249 2.7418 -1.8765 0.9837
-2.6373 2.4944 -1.8610 0.9838
-3.0072 1.9672 -1.8423 0.9840
-3.3037 1.4009 -1.8397 0.9840
-2.4709 0.5598 -1.2989 0.9887
-2.2319 0.0995 -1.1453 0.9900
-2.2377 -0.0998 -1.1483 0.9900
-2.2446 -0.3018 -1.1611 0.9899
-2.2530 -0.7265 -1.2136 0.9894
-2.3837 -1.2720 -1.3851 0.9879
-3.3408 -2.6382 -2.1824 0.9810
-3.1779 -3.0056 -2.2425 0.9805
-2.9826 -3.3724 -2.3081 0.9800
-2.4877 -4.0954 -2.4566 0.9787
-2.1847 -4.4458 -2.5396 0.9780
-1.8425 -4.7841 -2.6283 0.9772
-1.4600 -5.1060 -2.7226 0.9764
-1.0363 -5.4065 -2.8222 0.9756
-0.5714 -5.6800 -2.9267 0.9747
0.4782 -6.1201 -3.1471 0.9728
1.0580 -6.2724 -3.2611 0.9718
1.6687 -6.3694 -3.3756 0.9708
2.9551 -6.3680 -3.5991 0.9689
4.2628 -6.0639 -3.8001 0.9672
4.8937 -5.7883 -3.8859 0.9665
5.4903 -5.4294 -3.9586 0.9659
7.2522 -3.2677 -4.0780 0.9649
7.4807 -2.5975 -4.0598 0.9650
7.6119 -1.9038 -4.0226 0.9653
7.6455 -1.2021 -3.9678 0.9658
7.5848 -0.5077 -3.8972 0.9664
7.4359 0.1658 -3.8131 0.9671
7.2073 0.8063 -3.7180 0.9679
6.9090 1.4043 -3.6145 0.9688
5.7709 2.2968 -3.1843 0.9725
4.9169 3.0623 -2.9697 0.9743
4.4607 3.3640 -2.8643 0.9752
3.9954 3.6137 -2.7618 0.9761
3.5273 3.8137 -2.6632 0.9769
3.0616 3.9670 -2.5690 0.9777
2.6026 4.0770 -2.4797 0.9785
2.1538 4.1470 -2.3957 0.9792
1.7179 4.1803 -2.3170 0.9799
1.2967 4.1802 -2.2438 0.9805
-0.9171 3.8482 -2.0281 0.9824
-1.2385 3.6993 -2.0000 0.9826
-1.5353 3.5113 -1.9646 0.9829
-2.0717 3.0912 -1.9077 0.9834
-2.3118 2.8613 -1.8859 0.9836
-2.5334 2.6195 -1.8682 0.9838
-2.7366 2.3665 -1.8548 0.9839
-3.3662 1.2537 -1.8416 0.9840
-3.4771 0.9525 -1.8483 0.9839
-2.2585 0.4069 -1.1765 0.9897
-2.1765 0.0000 -1.1619 0.9902
-2.1811 -0.1949 -1.1690 0.9901
-2.1932 -0.8167 -1.2494 0.9894
-2.5256 -3.7684 -2.4218 0.9796
-2.2495 -4.1048 -2.4988 0.9790
-1.5872 -4.7408 -2.6689 0.9776
-1.1992 -5.0320 -2.7615 0.9768
-0.3087 -5.5358 -2.9599 0.9752
0.1918 -5.7367 -3.0642 0.9743
1.2901 -6.0037 -3.2782 0.9725
4.3116 -5.5867 -3.7673 0.9685
5.9004 -4.4497 -3.9452 0.9670
6.6598 -3.3654 -3.9835 0.9667
7.0914 -2.1134 -3.9503 0.9670
7.1673 -0.8018 -3.8501 0.9678
6.3678 1.5927 -3.5041 0.9707
6.0169 2.0893 -3.4002 0.9715
4.4645 3.0647 -2.8908 0.9757
4.0320 3.3325 -2.7925 0.9766
3.1508 3.7268 -2.6053 0.9781
2.7122 3.8582 -2.5177 0.9788
2.2804 3.9497 -2.4347 0.9795
1.8582 4.0043 -2.3566 0.9802
-1.0484 3.6666 -2.0358 0.9829
-1.3458 3.4944 -1.9990 0.9832
-1.6248 3.3065 -1.9668 0.9834
-2.1283 2.8886 -1.9154 0.9839
-2.3529 2.6605 -1.8961 0.9840
-2.5597 2.4209 -1.8808 0.9842
-2.9196 1.9099 -1.8625 0.9843
-3.0726 1.6396 -1.8592 0.9843
-3.2075 1.3602 -1.8599 0.9843
-3.3242 1.0719 -1.8646 0.9843
-2.4373 0.5522 -1.3341 0.9887
-2.1735 0.0969 -1.1615 0.9902
-2.1766 -0.0970 -1.1631 0.9902
-2.1810 -0.2933 -1.1748 0.9901
-2.2001 -0.9329 -1.2757 0.9892
-3.3568 -2.1959 -2.1414 0.9820
-3.2261 -2.5476 -2.1945 0.9815
-2.8745 -3.2502 -2.3163 0.9805
-1.7669 -4.5876 -2.6245 0.9780
-1.3980 -4.8891 -2.7146 0.9772
-0.9908 -5.1688 -2.8096 0.9764
-0.5454 -5.4215 -2.9088 0.9756
-0.0629 -5.6412 -3.0117 0.9747
2.1800 -6.0592 -3.4377 0.9712
3.4065 -5.9003 -3.6371 0.9696
4.0143 -5.7104 -3.7263 0.9688
4.6023 -5.4437 -3.8055 0.9682
5.1577 -5.1005 -3.8723 0.9676
6.8004 -3.0641 -3.9819 0.9667
7.0166 -2.4364 -3.9652 0.9669
7.1813 -1.1292 -3.8808 0.9676
7.0010 0.1561 -3.7384 0.9687
6.5248 1.3262 -3.5544 0.9703
5.0850 2.5696 -3.0415 0.9745
4.6759 2.9122 -2.9408 0.9753
3.8127 3.4484 -2.7444 0.9770
2.4952 3.9088 -2.4756 0.9792
1.6515 4.0187 -2.3194 0.9805
0.4861 3.9471 -2.1231 0.9821
0.1294 3.8710 -2.0676 0.9826
-0.8928 3.7464 -2.0560 0.9827
-1.1994 3.5826 -2.0169 0.9830
-2.2429 2.7760 -1.9052 0.9839
-2.4585 2.5422 -1.8879 0.9841
-2.6563 2.2971 -1.8747 0.9842
-2.8363 2.0415 -1.8656 0.9843
-2.9983 1.7759 -1.8603 0.9843
-2.2058 0.3974 -1.1965 0.9899
-2.1547 0.1926 -1.1549 0.9902
-2.1202 -0.1894 -1.1823 0.9903
-2.1250 -0.3828 -1.1992 0.9902
-2.1288 -0.5831 -1.2259 0.9900
-2.1317 -0.7938 -1.2633 0.9896
-2.2265 -1.3188 -1.4372 0.9882
-3.0421 -2.6305 -2.2336 0.9818
-2.4318 -3.6285 -2.4260 0.9802
-2.1634 -3.9477 -2.5002 0.9796
-1.8606 -4.2553 -2.5794 0.9790
-0.7392 -5.0681 -2.8446 0.9768
-0.2948 -5.2866 -2.9407 0.9761
0.1829 -5.4698 -3.0396 0.9753
0.6912 -5.6116 -3.1402 0.9745
1.7826 -5.7464 -3.3416 0.9728
2.9316 -5.6443 -3.5324 0.9713
3.5064 -5.4927 -3.6193 0.9706
4.0675 -5.2704 -3.6976 0.9700
4.6034 -4.9771 -3.7653 0.9695
5.1019 -4.6144 -3.8206 0.9690
6.2625 -3.1646 -3.8971 0.9684
6.5075 -2.5899 -3.8899 0.9685
6.6717 -1.9883 -3.8665 0.9686
6.7532 -0.7554 -3.7741 0.9694
6.6746 -0.1487 -3.7080 0.9699
6.0312 1.5086 -3.4529 0.9720
5.7078 1.9820 -3.3558 0.9727
4.6473 2.6145 -2.9615 0.9759
4.2557 2.9214 -2.8669 0.9767
3.8496 3.1818 -2.7738 0.9774
3.4351 3.3971 -2.6832 0.9781
3.0174 3.5690 -2.5957 0.9788
2.1899 3.7930 -2.4325 0.9802
1.7867 3.8504 -2.3575 0.9808
1.0137 3.8693 -2.2215 0.9819
0.6471 3.8361 -2.1606 0.9824
0.2952 3.7778 -2.1045 0.9828
-0.0412 3.6964 -2.0531 0.9832
-1.0155 3.5514 -2.0515 0.9832
-2.0653 2.8030 -1.9337 0.9842
-2.2840 2.5826 -1.9148 0.9843
-2.4040 0.5447 -1.3690 0.9888
-2.1264 0.2860 -1.1916 0.9902
-2.1353 -0.9054 -1.2881 0.9894
-3.2461 -2.1235 -2.1544 0.9824
-3.1171 -2.4616 -2.2060 0.9820
-2.7722 -3.1346 -2.3241 0.9810
-0.9483 -4.9474 -2.7978 0.9772
1.5020 -5.7331 -3.2917 0.9732
3.7894 -5.3905 -3.6596 0.9703
5.3336 -4.4083 -3.8431 0.9688
6.1111 -3.4380 -3.8944 0.9684
6.3949 -2.8814 -3.8956 0.9684
6.7228 -1.6815 -3.8489 0.9688
6.7633 -1.0635 -3.8025 0.9692
