ply
format ascii 1.0
element vertex 1583
property float32 x
property float32 y
property float32 z
property float32 I
end_header
-12.9803 6.9265 0.3669 0.9428
-13.5621 5.7509 0.3674 0.9428
9.7989 10.5944 0.3599 0.9439
8.4713 10.9765 0.3458 0.9460
-13.8607 5.1618 0.3689 0.9425
-14.8827 0.0000 0.1237 0.9422
9.1350 10.8048 0.1176 0.9450
-3.7387 5.0742 0.0524 0.9751
-10.7788 8.5120 0.1142 0.9465
-11.8442 6.3203 0.1116 0.9477
-13.4197 3.0405 0.1144 0.9464
-13.9270 1.8730 0.1168 0.9453
9.8208 10.6181 0.1202 0.9438
-9.9365 10.2743 0.1188 0.9444
-11.0488 7.9525 0.1131 0.9470
-11.5803 6.8591 0.1119 0.9476
-12.6417 4.7078 0.1121 0.9475
-13.1898 3.6130 0.1137 0.9468
-13.6323 2.4560 0.1151 0.9461
-14.1617 -1.2655 -0.1182 0.9447
10.5469 10.4300 -0.1233 0.9424
9.1413 10.8124 -0.1177 0.9449
-7.5385 12.4101 -0.1207 0.9436
-3.7455 5.0834 -0.0525 0.9751
-9.8932 7.8126 -0.1048 0.9508
-10.3991 6.8028 -0.1033 0.9515
-10.8912 5.8118 -0.1026 0.9518
-14.4776 -1.9471 -0.1214 0.9432
8.4828 10.9915 -0.1154 0.9460
-8.5095 10.5324 -0.1125 0.9473
-10.1484 7.3044 -0.1039 0.9512
-11.6200 4.3274 -0.1031 0.9516
-12.1104 3.3174 -0.1044 0.9510
-12.5205 2.2557 -0.1057 0.9504
-13.0245 1.1639 -0.1087 0.9490
-12.4727 -0.0000 -0.3111 0.9513
-13.4923 -2.4308 -0.3419 0.9466
-14.0680 -3.8536 -0.3638 0.9433
-5.0425 13.0926 -0.3499 0.9454
-6.1762 12.5683 -0.3492 0.9455
-3.7523 5.0927 -0.1578 0.9750
-8.6391 8.1708 -0.2965 0.9535
-9.1419 7.2193 -0.2905 0.9545
-9.6198 6.2930 -0.2867 0.9550
-10.0800 5.3788 -0.2849 0.9553
-10.5289 4.4646 -0.2852 0.9553
-11.7782 1.5840 -0.2964 0.9536
-12.7152 -0.5670 -0.3174 0.9503
-13.7731 -3.1206 -0.3522 0.9451
9.8347 10.6332 -0.3612 0.9437
-4.6215 13.8037 -0.3630 0.9434
-7.2129 10.7625 -0.3231 0.9495
-8.3758 8.6605 -0.3005 0.9529
-10.3054 4.9225 -0.2848 0.9553
-11.6257 2.0944 -0.2946 0.9538
-12.0053 1.0728 -0.3006 0.9529
-11.5377 -0.0000 -0.4797 0.9549
-11.9540 -1.0682 -0.4990 0.9531
-12.3888 -2.2320 -0.5234 0.9509
-12.8501 -3.5200 -0.5540 0.9481
-13.3487 -4.9711 -0.5923 0.9446
-3.7722 13.1923 -0.5705 0.9465
-4.5987 11.9402 -0.5320 0.9501
-5.9529 9.7999 -0.4768 0.9551
-8.0171 7.5825 -0.4588 0.9568
-8.4961 6.7093 -0.4501 0.9576
-8.9486 5.8539 -0.4446 0.9581
-9.3806 5.0057 -0.4421 0.9583
-9.7978 4.1546 -0.4425 0.9583
-10.2048 3.2906 -0.4458 0.9580
-11.7439 -0.5237 -0.4888 0.9540
-12.1686 -1.6365 -0.5105 0.9520
-13.0939 -4.2223 -0.5721 0.9464
8.4944 11.0065 -0.5781 0.9459
-3.3081 13.8816 -0.5934 0.9445
-4.2008 12.5472 -0.5502 0.9484
-5.6442 10.2994 -0.4883 0.9541
-8.7253 6.2801 -0.4470 0.9579
-9.1668 5.4295 -0.4430 0.9582
-9.5908 4.5811 -0.4419 0.9583
-11.0881 -0.9909 -0.6484 0.9564
-11.4508 -2.0630 -0.6777 0.9545
-12.2164 -4.5495 -0.7593 0.9491
-12.6324 -6.0340 -0.8154 0.9455
-1.4711 14.6236 -0.8560 0.9428
-2.5405 13.2541 -0.7860 0.9474
-4.9095 9.9906 -0.6484 0.9564
-5.5166 9.0816 -0.6189 0.9583
-6.9869 7.9003 -0.6143 0.9586
-8.7713 4.6805 -0.5791 0.9609
-9.5367 3.0752 -0.5836 0.9606
-9.9027 2.2436 -0.5914 0.9601
-11.2684 -1.5154 -0.6622 0.9555
-11.6362 -2.6364 -0.6949 0.9533
-12.0181 -3.8754 -0.7355 0.9507
-12.4208 -5.2669 -0.7858 0.9474
-12.8532 -6.8587 -0.8485 0.9433
-2.0293 13.9144 -0.8190 0.9452
-3.0112 12.6358 -0.7566 0.9493
-3.8499 11.4990 -0.7063 0.9526
-5.2217 9.5284 -0.6328 0.9574
-5.7961 8.6484 -0.6064 0.9591
-7.2371 7.4832 -0.6063 0.9591
-8.9680 4.2837 -0.5789 0.9610
-9.3502 3.4821 -0.5811 0.9608
-10.3786 0.9274 -0.6069 0.9591
-10.9498 -2.9995 -0.8508 0.9555
-11.2595 -4.1931 -0.9004 0.9529
-11.9031 -7.0503 -1.0367 0.9460
-1.3345 13.2661 -0.9992 0.9479
-2.3223 12.1157 -0.9245 0.9517
-3.1700 11.0862 -0.8641 0.9548
-5.1385 8.4592 -0.7417 0.9611
-3.7794 5.1295 -0.4775 0.9748
-6.5357 7.3900 -0.7393 0.9612
-7.8505 5.1356 -0.7030 0.9631
-9.6108 1.2925 -0.7267 0.9618
-9.8750 0.4403 -0.7408 0.9611
-10.4908 -1.4109 -0.7933 0.9584
-10.7964 -2.4462 -0.8296 0.9566
-11.4166 -4.8411 -0.9293 0.9515
-11.7379 -6.2636 -0.9970 0.9480
-12.0729 -7.8978 -1.0811 0.9438
8.5061 11.0216 -1.0433 0.9457
-0.7750 13.8986 -1.0432 0.9457
-1.8484 12.6736 -0.9598 0.9499
-2.7615 11.5879 -0.8927 0.9533
-3.5513 10.6074 -0.8383 0.9561
-4.8568 8.8626 -0.7573 0.9603
-6.7754 7.0057 -0.7304 0.9617
-7.6496 5.5058 -0.7063 0.9629
-8.0456 4.7654 -0.7008 0.9632
-8.4201 4.0220 -0.6993 0.9633
-8.7769 3.2685 -0.7019 0.9631
-9.1190 2.4979 -0.7086 0.9628
-9.4493 1.7024 -0.7195 0.9622
-9.6812 -0.8651 -0.8911 0.9617
-10.6805 -5.1016 -1.0851 0.9536
-10.9162 -6.4657 -1.1631 0.9503
-11.1470 -8.0231 -1.2591 0.9463
-3.6329 9.4327 -0.9267 0.9602
-4.2540 8.6568 -0.8843 0.9620
-4.8075 7.9144 -0.8489 0.9635
-7.7599 4.1408 -0.8064 0.9653
-8.7394 1.9801 -0.8215 0.9646
-4.2496 0.5715 -0.3931 0.9829
-4.0002 0.1784 -0.3671 0.9840
-9.5483 -0.4258 -0.8762 0.9623
-10.3174 -3.3269 -0.9938 0.9574
-10.5608 -4.4782 -1.0516 0.9550
-10.7989 -5.7625 -1.1222 0.9520
8.5119 11.0292 -1.2772 0.9456
0.4625 13.8320 -1.2688 0.9459
-2.5495 10.6983 -1.0083 0.9568
-3.2942 9.8392 -0.9512 0.9592
-3.9523 9.0391 -0.9044 0.9611
-4.5381 8.2812 -0.8657 0.9628
-5.0636 7.5555 -0.8338 0.9641
-6.8014 5.8814 -0.8243 0.9645
-7.2040 5.1851 -0.8137 0.9650
-7.5804 4.4899 -0.8077 0.9652
-7.9342 3.7899 -0.8061 0.9653
-8.2686 3.0793 -0.8089 0.9652
-4.9080 0.8842 -0.4572 0.9802
-9.1012 -0.8133 -0.9911 0.9639
-9.3235 -1.6797 -1.0276 0.9626
-9.7292 -3.6232 -1.1261 0.9591
-10.0779 -5.9692 -1.2705 0.9540
-10.3525 -8.9522 -1.4845 0.9464
8.2514 11.7378 -1.5563 0.9439
2.4133 14.3067 -1.5737 0.9433
1.0268 13.1402 -1.4296 0.9484
-0.1349 12.1094 -1.3136 0.9524
-1.9807 10.3335 -1.1412 0.9586
-3.3928 8.8093 -1.0239 0.9627
-3.9852 8.1098 -0.9801 0.9643
-4.5152 7.4331 -0.9433 0.9656
-3.8008 5.1585 -0.6950 0.9745
-6.6173 5.2256 -0.9146 0.9666
-6.9886 4.5718 -0.9058 0.9670
-7.6598 3.2481 -0.9024 0.9671
-7.9650 2.5684 -0.9077 0.9669
-4.7637 1.0793 -0.5298 0.9805
-3.7517 0.5045 -0.4106 0.9849
-3.7330 0.1664 -0.4053 0.9851
-3.9257 -0.1751 -0.4262 0.9843
-9.8222 -4.1650 -1.1572 0.9580
-10.4064 -9.8423 -1.5536 0.9440
-0.6487 11.6344 -1.2639 0.9542
-1.5676 10.7489 -1.1782 0.9572
-3.0711 9.1729 -1.0492 0.9618
-3.6970 8.4553 -1.0010 0.9636
-4.7607 7.1035 -0.9275 0.9662
-5.2183 6.4588 -0.9007 0.9671
-6.0059 6.2101 -0.9371 0.9658
-6.4213 5.5527 -0.9208 0.9664
-7.1648 4.2438 -0.9032 0.9671
-7.5001 3.5825 -0.9016 0.9671
-8.1109 2.2218 -0.9122 0.9667
-3.9948 0.7197 -0.4403 0.9838
-3.7413 0.3343 -0.4074 0.9850
-3.5692 0.0000 -0.4473 0.9857
-9.1072 -3.3916 -1.2179 0.9616
-9.2434 -4.4153 -1.2837 0.9595
-9.3569 -5.5421 -1.3628 0.9571
-9.4435 -6.7970 -1.4581 0.9542
-9.4974 -8.2127 -1.5734 0.9506
-9.5102 -9.8336 -1.7143 0.9463
8.1786 11.6343 -1.7822 0.9443
3.6829 14.0573 -1.8211 0.9431
2.1900 12.9831 -1.6500 0.9483
0.9398 12.0265 -1.5117 0.9525
-1.8444 9.6221 -1.2278 0.9613
-2.5519 8.9245 -1.1632 0.9633
-3.7474 7.6260 -1.0648 0.9663
-3.8117 5.1733 -0.8053 0.9744
-5.1366 5.8080 -0.9716 0.9692
-6.9533 3.7104 -0.9877 0.9687
-3.5494 0.4774 -0.4488 0.9857
-3.5348 0.1576 -0.4434 0.9858
-3.6310 -0.1619 -0.4555 0.9855
-8.6829 -1.1678 -1.0979 0.9653
-8.8659 -2.0088 -1.1392 0.9640
-9.3032 -4.9644 -1.3215 0.9584
-9.4749 -7.4823 -1.5130 0.9525
-9.5096 -8.9941 -1.6403 0.9486
-9.4983 -10.7400 -1.7967 0.9438
8.5237 11.0445 -1.7483 0.9453
2.9018 13.5034 -1.7308 0.9458
1.5386 12.4920 -1.5773 0.9505
-0.5996 10.7539 -1.3497 0.9575
-2.2087 9.2685 -1.1940 0.9623
-2.8756 8.5891 -1.1351 0.9641
-4.4909 6.7009 -1.0109 0.9680
-4.9305 6.1026 -0.9832 0.9689
-5.6816 5.8748 -1.0242 0.9676
-6.0803 5.2578 -1.0073 0.9681
-6.4490 4.6417 -0.9957 0.9685
-6.7912 4.0224 -0.9891 0.9687
-7.1097 3.3960 -0.9874 0.9687
-7.4067 2.7582 -0.9905 0.9686
-7.6839 2.1048 -0.9984 0.9684
-3.8076 0.6860 -0.4848 0.9845
-3.3944 0.0000 -0.4828 0.9864
-8.5577 -3.1870 -1.2989 0.9638
-8.6575 -4.1354 -1.3647 0.9620
-8.7297 -5.1706 -1.4431 0.9598
-8.7220 -9.0185 -1.7845 0.9506
-8.6126 -10.6600 -1.9493 0.9461
4.9346 13.7158 -2.0733 0.9428
3.3404 12.7500 -1.8747 0.9481
2.0039 11.8795 -1.7136 0.9525
-0.1152 10.3452 -1.4716 0.9591
-2.3950 8.3760 -1.2391 0.9654
-2.9949 7.7760 -1.1852 0.9669
-4.0224 6.6219 -1.1020 0.9692
-3.8226 5.1881 -0.9166 0.9743
-4.8698 5.5064 -1.0456 0.9707
-5.5848 5.2821 -1.0934 0.9694
-6.6077 3.5260 -1.0653 0.9702
-6.8997 2.9258 -1.0660 0.9702
-7.1704 2.3122 -1.0716 0.9700
-3.3671 0.4528 -0.4832 0.9864
-8.3636 -1.8950 -1.2198 0.9659
-8.6108 -3.6513 -1.3303 0.9629
-8.7539 -5.7266 -1.4879 0.9586
-8.7527 -8.2782 -1.7136 0.9525
-8.6760 -9.8101 -1.8628 0.9485
-8.5298 -11.5768 -2.0453 0.9436
8.5296 11.0521 -1.9857 0.9452
4.1008 13.2194 -1.9687 0.9456
1.4131 11.4731 -1.6442 0.9544
-0.5573 9.9944 -1.4238 0.9604
-3.2721 7.4835 -1.1617 0.9675
-4.2488 6.3397 -1.0855 0.9696
-5.3894 5.5726 -1.1027 0.9692
-5.7724 4.9916 -1.0855 0.9696
-6.4533 3.8223 -1.0668 0.9702
-6.7565 3.2273 -1.0650 0.9702
-7.2982 1.9992 -1.0763 0.9699
-3.3525 0.2996 -0.4787 0.9865
-3.3915 -0.3031 -0.5422 0.9863
-7.9711 -2.1835 -1.3161 0.9671
-8.0686 -3.0048 -1.3710 0.9657
-8.1392 -3.8878 -1.4363 0.9641
-8.0514 -8.3251 -1.8442 0.9542
-7.8945 -9.7712 -2.0003 0.9504
-7.6546 -11.4215 -2.1894 0.9458
8.0359 11.4312 -2.2250 0.9450
6.1583 13.2707 -2.3296 0.9425
4.4724 12.4312 -2.1037 0.9479
3.0550 11.6605 -1.9194 0.9523
1.8462 10.9448 -1.7674 0.9560
0.8028 10.2735 -1.6409 0.9591
-2.2557 7.8889 -1.3065 0.9673
-2.8279 7.3425 -1.2529 0.9686
-3.8126 6.2763 -1.1694 0.9707
-5.3126 5.0246 -1.1644 0.9708
-5.6662 4.4746 -1.1497 0.9712
-5.9924 3.9201 -1.1403 0.9714
-6.2936 3.3584 -1.1359 0.9715
-6.5714 2.7865 -1.1366 0.9715
-3.9744 0.9004 -0.6489 0.9836
-3.4817 -0.4683 -0.5594 0.9859
-7.9131 -1.7929 -1.2920 0.9677
-8.1075 -3.4379 -1.4023 0.9650
-8.1631 -4.3560 -1.4734 0.9632
-8.1856 -5.3548 -1.5576 0.9612
-8.1046 -7.6653 -1.7763 0.9558
-7.9821 -9.0255 -1.9186 0.9524
-7.7863 -10.5676 -2.0902 0.9482
-7.4939 -12.3367 -2.2985 0.9432
8.5356 11.0599 -2.2246 0.9450
5.2772 12.8414 -2.2107 0.9453
3.7343 12.0382 -2.0070 0.9502
1.3061 10.6042 -1.7013 0.9576
-0.5203 9.3322 -1.4883 0.9628
-1.2746 8.7391 -1.4063 0.9649
-1.9464 8.1677 -1.3370 0.9666
-2.5492 7.6140 -1.2786 0.9680
-3.5845 6.5409 -1.1877 0.9702
-4.4371 5.4919 -1.1243 0.9718
-5.8326 4.1980 -1.1443 0.9713
-6.1460 3.6403 -1.1375 0.9715
-6.4353 3.0739 -1.1356 0.9715
-6.7021 2.4959 -1.1388 0.9714
-4.5040 1.2338 -0.7436 0.9813
-3.5500 0.6396 -0.5744 0.9855
-3.2454 0.2900 -0.5188 0.9869
-3.1939 0.0000 -0.5632 0.9871
-7.4527 -1.3427 -1.3353 0.9697
-7.5545 -2.0694 -1.3811 0.9687
-7.6302 -2.8416 -1.4357 0.9675
-7.5974 -6.5697 -1.7710 0.9600
-7.2839 -9.0154 -2.0437 0.9540
-7.0095 -10.4589 -2.2201 0.9501
-6.6268 -12.0923 -2.4314 0.9455
7.9659 11.3316 -2.4424 0.9453
7.3396 12.7126 -2.5883 0.9421
4.0876 11.3615 -2.1291 0.9521
1.7109 10.1425 -1.8137 0.9591
-1.5263 7.9627 -1.4296 0.9676
-2.1312 7.4533 -1.3669 0.9690
-2.6779 6.9531 -1.3138 0.9702
-3.1732 6.4573 -1.2687 0.9712
-3.8449 5.2183 -1.1429 0.9740
-4.5568 5.1525 -1.2129 0.9724
-5.0644 4.7899 -1.2291 0.9721
-6.0064 3.2051 -1.2005 0.9727
-6.2715 2.6593 -1.2011 0.9727
-3.1778 0.4274 -0.5654 0.9871
-3.1644 0.1411 -0.5585 0.9872
-3.3507 -0.4506 -0.5961 0.9864
-7.5067 -1.7008 -1.3572 0.9692
-7.5958 -2.4493 -1.4073 0.9681
-7.6884 -4.1027 -1.5366 0.9652
-7.5431 -7.1342 -1.8307 0.9587
-7.3881 -8.3538 -1.9664 0.9557
8.5416 11.0677 -2.4651 0.9448
4.8021 11.6852 -2.2276 0.9500
-1.8366 7.7067 -1.3970 0.9683
-2.9321 6.7062 -1.2906 0.9707
-3.4030 6.2097 -1.2486 0.9716
-3.8319 5.7177 -1.2137 0.9724
-4.2239 5.2280 -1.1851 0.9731
-5.5646 4.0052 -1.2089 0.9725
-5.8653 3.4740 -1.2020 0.9727
-3.4371 0.6192 -0.6158 0.9859
-3.1014 -0.0000 -0.6002 0.9874
-3.1775 -0.2839 -0.6174 0.9871
-3.3117 -0.5967 -0.6512 0.9864
-7.1771 -1.9660 -1.4401 0.9701
-7.2348 -2.6943 -1.4940 0.9690
-7.2096 -5.1892 -1.7190 0.9645
-6.9708 -7.2078 -1.9404 0.9600
5.0932 10.9753 -2.3415 0.9519
3.7619 10.4564 -2.1505 0.9557
-0.0943 8.4711 -1.6394 0.9661
-1.4425 7.5255 -1.4828 0.9693
-2.5425 6.6014 -1.3690 0.9716
-4.4805 5.0662 -1.3088 0.9728
-4.8371 4.5749 -1.2884 0.9732
-6.2271 2.0079 -1.2662 0.9737
-3.6833 0.8345 -0.7308 0.9847
-3.0750 0.1371 -0.5957 0.9875
-3.2339 -0.4349 -0.6315 0.9868
-7.2635 -3.8760 -1.5932 0.9670
-7.2379 -4.7348 -1.6738 0.9654
-7.1698 -5.6620 -1.7680 0.9635
-6.8735 -7.7721 -2.0078 0.9586
8.5477 11.0756 -2.7074 0.9446
3.1642 10.2003 -2.0667 0.9574
1.1330 9.1992 -1.7936 0.9629
-0.4590 8.2322 -1.5956 0.9670
-1.7379 7.2928 -1.4508 0.9699
-2.7854 6.3705 -1.3455 0.9721
-3.2379 5.9086 -1.3038 0.9729
-4.0292 4.9870 -1.2407 0.9742
-4.6626 4.8211 -1.2979 0.9730
-5.3188 3.8283 -1.2682 0.9737
-5.8724 2.8050 -1.2594 0.9738
-3.3306 0.6000 -0.6549 0.9863
-3.0639 0.2738 -0.5953 0.9875
-3.0211 0.0000 -0.6369 0.9877
-3.2303 -0.5820 -0.6920 0.9867
-6.8336 -1.8719 -1.4937 0.9715
-6.6921 -5.7869 -1.8652 0.9645
-6.2989 -7.7963 -2.1130 0.9599
-5.5852 -10.1917 -2.4501 0.9536
-5.0637 -11.5811 -2.6647 0.9496
6.0602 10.4964 -2.5552 0.9517
0.6571 8.4095 -1.7783 0.9661
-0.0889 7.9831 -1.6831 0.9679
-0.7602 7.5570 -1.6012 0.9694
-1.3670 7.1315 -1.5308 0.9708
-1.9176 6.7062 -1.4704 0.9719
-2.4138 6.2674 -1.4159 0.9729
-2.8743 5.8491 -1.3740 0.9737
-3.2907 5.4172 -1.3363 0.9744
-3.6718 4.9834 -1.3050 0.9750
-4.6281 4.3772 -1.3430 0.9743
-5.2343 3.4241 -1.3187 0.9748
-5.9624 1.9226 -1.3207 0.9747
-3.5520 0.8047 -0.7678 0.9852
-3.0345 0.4081 -0.6455 0.9876
-6.8016 -1.5411 -1.4703 0.9719
-6.8383 -4.4735 -1.7227 0.9671
-6.6177 -6.2590 -1.9203 0.9634
-6.1550 -8.3536 -2.1875 0.9585
-5.3407 -10.8681 -2.5529 0.9517
-4.7504 -12.3343 -2.7865 0.9474
8.5365 11.0610 -2.9456 0.9445
5.3482 10.2971 -2.4462 0.9537
1.9443 9.0478 -1.9510 0.9629
-2.1731 6.4914 -1.4432 0.9724
-2.6472 6.0544 -1.3931 0.9733
-3.0871 5.6334 -1.3543 0.9741
-3.4854 5.2006 -1.3199 0.9747
-4.7895 4.1417 -1.3349 0.9744
-5.0924 3.6653 -1.3228 0.9747
-5.3701 3.1807 -1.3158 0.9748
-5.6240 2.6864 -1.3140 0.9748
-5.8552 2.1805 -1.3172 0.9748
-2.9810 0.2664 -0.6309 0.9878
-2.9710 0.0000 -0.6781 0.9879
-3.1642 -0.5701 -0.7338 0.9869
-6.5193 -1.7858 -1.5428 0.9726
-6.5493 -2.4390 -1.5951 0.9717
-6.5478 -3.1276 -1.6562 0.9707
-6.5111 -3.8566 -1.7273 0.9694
-6.3122 -5.4584 -1.9047 0.9663
-6.1364 -6.3451 -2.0147 0.9644
-5.1744 -9.4420 -2.4575 0.9568
-4.6612 -10.6606 -2.6556 0.9534
-4.0164 -11.9965 -2.8875 0.9494
1.3993 8.2953 -1.9201 0.9661
-0.0840 7.5455 -1.7223 0.9695
-0.7205 7.1620 -1.6429 0.9709
-2.3014 5.9755 -1.4615 0.9741
-2.7405 5.5770 -1.4183 0.9748
-3.1451 5.1776 -1.3827 0.9755
-3.5130 4.7680 -1.3518 0.9760
-4.4351 4.1947 -1.3933 0.9753
-4.7402 3.7433 -1.3786 0.9755
-5.0198 3.2838 -1.3691 0.9757
-5.2753 2.8150 -1.3648 0.9758
-5.5077 2.3355 -1.3655 0.9758
-2.9625 0.3984 -0.6823 0.9878
-2.9453 0.1313 -0.6729 0.9880
-6.5527 -2.7786 -1.6245 0.9712
-6.5342 -3.4867 -1.6904 0.9701
-6.4782 -4.2379 -1.7669 0.9687
-6.0244 -6.8119 -2.0756 0.9634
-5.7475 -7.8007 -2.2116 0.9610
-5.3892 -8.8718 -2.3692 0.9583
-4.9326 -10.0377 -2.5527 0.9551
-4.3570 -11.3128 -2.7670 0.9515
-3.6355 -12.7142 -3.0182 0.9472
-2.7337 -14.2617 -3.3144 0.9422
7.7498 10.0416 -2.8951 0.9493
4.9324 9.4965 -2.4424 0.9570
3.7708 9.1756 -2.2642 0.9601
1.8218 8.4777 -1.9792 0.9650
0.2587 7.7354 -1.7665 0.9687
-0.4101 7.3543 -1.6812 0.9702
-1.5679 6.5791 -1.5437 0.9726
-2.5258 5.7767 -1.4390 0.9745
-3.3330 4.9733 -1.3665 0.9757
-3.7994 4.7026 -1.3799 0.9755
-4.2724 4.4177 -1.4027 0.9751
-4.8831 3.5146 -1.3732 0.9756
-5.1505 3.0507 -1.3663 0.9757
-5.6155 2.0912 -1.3677 0.9757
-3.8725 1.0608 -0.9164 0.9837
-3.1659 0.5704 -0.7342 0.9869
-2.9277 0.2616 -0.6709 0.9880
-2.9221 0.0000 -0.7183 0.9880
-3.1004 -0.5586 -0.7743 0.9871
-6.1029 -4.3926 -1.8483 0.9695
-5.9706 -5.1630 -1.9402 0.9680
-5.7849 -5.9816 -2.0454 0.9663
-5.5377 -6.8541 -2.1659 0.9644
-4.8173 -8.7905 -2.4639 0.9596
-3.6947 -11.0355 -2.8605 0.9532
-2.9303 -12.2964 -3.1071 0.9493
4.0301 8.6845 -2.3533 0.9613
3.0283 8.4172 -2.1988 0.9638
0.5852 7.4881 -1.8462 0.9695
-0.0796 7.1505 -1.7577 0.9710
-1.2362 6.4489 -1.6140 0.9733
-2.1982 5.7076 -1.5034 0.9751
-2.6212 5.3340 -1.4609 0.9758
-3.0109 4.9566 -1.4255 0.9764
-3.9350 4.4494 -1.4600 0.9758
-4.2562 4.0255 -1.4400 0.9762
-4.8208 3.1536 -1.4160 0.9766
-5.2899 2.2431 -1.4123 0.9766
-5.4906 1.7705 -1.4180 0.9765
-2.8978 0.1292 -0.7130 0.9881
-6.2440 -2.0134 -1.6126 0.9733
-6.2478 -2.6493 -1.6681 0.9724
-6.2184 -3.3183 -1.7325 0.9714
-6.1517 -4.0243 -1.8069 0.9702
-5.3882 -7.3129 -2.2327 0.9633
-5.0297 -8.2801 -2.3813 0.9609
-4.5800 -9.3201 -2.5525 0.9581
-3.3321 -11.6534 -2.9792 0.9513
-1.4474 -14.3878 -3.5544 0.9422
10.2931 9.3095 -3.4113 0.9444
8.5930 9.2906 -3.1107 0.9492
7.0913 9.1884 -2.8529 0.9533
0.9426 7.6527 -1.8953 0.9687
0.2448 7.3206 -1.8004 0.9703
-0.3891 6.9781 -1.7179 0.9716
-0.9665 6.6270 -1.6461 0.9728
-2.4142 5.5215 -1.4812 0.9755
-2.8195 5.1451 -1.4421 0.9761
-3.1924 4.7634 -1.4095 0.9767
-4.0990 4.2384 -1.4493 0.9760
-4.4068 3.8107 -1.4320 0.9763
-4.9467 2.9299 -1.4132 0.9766
-5.1811 2.4748 -1.4114 0.9766
-3.0843 0.5556 -0.7703 0.9872
-5.9643 -1.6338 -1.6295 0.9747
-5.9531 -2.8436 -1.7384 0.9731
-5.8014 -4.1756 -1.8835 0.9709
-5.6613 -4.8956 -1.9722 0.9695
-5.2185 -6.4591 -2.1881 0.9662
-2.6940 -11.3046 -3.0622 0.9531
-1.8184 -12.4678 -3.3200 0.9492
11.8686 8.1473 -3.7933 0.9422
7.1777 8.4897 -2.9294 0.9551
2.8407 7.8959 -2.2111 0.9659
2.0045 7.6509 -2.0840 0.9678
0.5544 7.0948 -1.8752 0.9710
-0.0757 6.7922 -1.7899 0.9723
-0.6516 6.4768 -1.7152 0.9734
-1.1768 6.1396 -1.6472 0.9745
-1.6596 5.8043 -1.5907 0.9753
-2.1031 5.4607 -1.5419 0.9761
-2.5109 5.1096 -1.5002 0.9767
-3.3307 4.5205 -1.4796 0.9770
-3.7792 4.2732 -1.5032 0.9767
-4.0899 3.8683 -1.4834 0.9770
-4.3749 3.4548 -1.4689 0.9772
-4.6354 3.0324 -1.4596 0.9773
-5.0870 2.1571 -1.4560 0.9774
-3.2212 0.7298 -0.8703 0.9864
-2.8316 0.3808 -0.7528 0.9883
-2.8514 0.1271 -0.7521 0.9883
-2.9007 -0.1294 -0.7651 0.9881
-5.9732 -1.9261 -1.6537 0.9744
-5.9296 -3.1641 -1.7710 0.9726
-5.7375 -4.5309 -1.9264 0.9702
-5.5720 -5.2700 -2.0209 0.9688
-5.3516 -6.0512 -2.1286 0.9671
-5.0686 -6.8792 -2.2516 0.9653
-4.7128 -7.7585 -2.3920 0.9631
-3.7317 -9.6890 -2.7359 0.9580
-0.1597 -14.3429 -3.7796 0.9424
7.8590 8.4970 -3.0498 0.9533
5.3377 8.3613 -2.6139 0.9598
2.4124 7.7766 -2.1455 0.9669
0.8918 7.2407 -1.9223 0.9703
0.2322 6.9453 -1.8311 0.9717
-0.9209 6.3150 -1.6816 0.9739
-2.7024 4.9313 -1.4817 0.9770
-3.0623 4.5693 -1.4494 0.9775
-3.6136 4.4727 -1.5151 0.9765
-3.9379 4.0717 -1.4926 0.9768
-4.7569 2.8175 -1.4568 0.9774
-5.1859 1.9313 -1.4582 0.9774
-3.0017 0.5408 -0.8037 0.9875
-2.8819 -0.2575 -0.8141 0.9880
-2.9786 -0.5366 -0.8515 0.9875
-5.7178 -1.5663 -1.6680 0.9757
-5.7202 -2.1303 -1.7174 0.9750
-5.3794 -4.6518 -2.0010 0.9709
-5.1836 -5.3598 -2.0979 0.9695
-4.6161 -6.8877 -2.3328 0.9661
-4.2266 -7.7127 -2.4745 0.9641
-3.1788 -9.4950 -2.8172 0.9592
-2.4913 -10.4540 -3.0237 0.9563
-1.6710 -11.4570 -3.2576 0.9530
-0.6970 -12.4999 -3.5224 0.9493
12.3347 6.9394 -3.9820 0.9429
10.7184 7.3577 -3.6578 0.9474
9.2310 7.6296 -3.3695 0.9515
7.8705 7.7833 -3.1144 0.9550
6.6290 7.8407 -2.8888 0.9582
3.5291 7.6049 -2.3589 0.9658
1.8930 7.2253 -2.1015 0.9694
1.1795 6.9925 -1.9952 0.9710
-0.6214 6.1775 -1.7468 0.9745
-1.1245 5.8662 -1.6805 0.9755
-1.5882 5.5543 -1.6254 0.9763
-2.4087 4.9015 -1.5366 0.9776
-4.4624 2.9191 -1.5003 0.9781
-4.6912 2.5033 -1.4961 0.9781
-4.8975 2.0767 -1.4967 0.9781
-2.8062 0.1251 -0.7903 0.9884
-3.0353 -0.6877 -0.8756 0.9872
-3.2048 -1.0334 -0.9474 0.9861
-5.7099 -2.4212 -1.7450 0.9746
-5.6642 -3.0225 -1.8064 0.9737
-5.5821 -3.6516 -1.8768 0.9727
-5.4586 -4.3106 -1.9570 0.9715
-4.0008 -8.1414 -2.5523 0.9630
-2.8505 -9.9689 -2.9172 0.9578
-1.2045 -11.9739 -3.3859 0.9512
-0.1452 -13.0339 -3.6674 0.9473
1.1034 -14.1198 -3.9848 0.9428
7.2354 7.8228 -2.9981 0.9567
4.9705 7.7862 -2.5990 0.9623
3.9874 7.6770 -2.4340 0.9647
3.0916 7.5228 -2.2883 0.9668
2.2745 7.3321 -2.1599 0.9686
1.5283 7.1119 -2.0467 0.9702
0.8459 6.8677 -1.9469 0.9717
0.2208 6.6037 -1.8590 0.9729
-0.3525 6.3232 -1.7818 0.9740
-0.8777 6.0181 -1.7111 0.9750
-2.2159 5.0681 -1.5563 0.9773
-3.4738 4.2996 -1.5552 0.9773
-4.5796 2.7125 -1.4976 0.9781
-4.7971 2.2914 -1.4958 0.9782
-4.9925 1.8592 -1.4989 0.9781
-2.9229 0.5266 -0.8356 0.9877
-2.7884 0.2492 -0.7877 0.9884
-2.8308 -0.2530 -0.8509 0.9882
-5.4494 -2.6030 -1.8080 0.9751
-5.2725 -3.7949 -1.9448 0.9732
-4.6726 -5.7835 -2.2260 0.9694
-3.9793 -7.2614 -2.4789 0.9660
-3.5192 -8.0486 -2.6298 0.9640
-2.9688 -8.8675 -2.7996 0.9617
-2.3154 -9.7161 -2.9903 0.9592
1.6357 -13.2804 -4.0059 0.9457
12.6116 5.6825 -4.1412 0.9439
8.4687 6.9995 -3.2892 0.9552
3.3199 7.1541 -2.3612 0.9676
2.5239 7.0151 -2.2320 0.9694
1.7923 6.8413 -2.1172 0.9709
1.1198 6.6387 -2.0156 0.9723
-0.0687 6.1658 -1.8460 0.9746
-0.5927 5.8921 -1.7729 0.9756
-1.0761 5.6139 -1.7113 0.9764
-1.5220 5.3229 -1.6574 0.9771
-2.3136 4.7080 -1.5705 0.9783
-2.6642 4.3859 -1.5363 0.9788
-3.1813 4.3178 -1.6056 0.9779
-3.7898 3.5843 -1.5617 0.9785
-4.3003 2.8131 -1.5384 0.9788
-4.5212 2.4126 -1.5342 0.9788
-3.0564 0.6925 -0.9382 0.9870
-2.8771 -0.3869 -0.8691 0.9880
-3.1091 -1.0026 -0.9780 0.9865
-5.2028 -4.1087 -1.9848 0.9727
-5.0293 -4.7567 -2.0725 0.9715
-4.8055 -5.4337 -2.1717 0.9702
-3.2560 -8.4541 -2.7122 0.9629
-1.9456 -10.1504 -3.0942 0.9578
1.0030 -12.8352 -3.8543 0.9477
2.3141 -13.7186 -4.1651 0.9436
11.8706 5.9984 -3.9818 0.9460
10.4448 6.5050 -3.6838 0.9499
9.1044 6.8659 -3.4139 0.9535
6.6989 7.2427 -2.9536 0.9596
5.6310 7.2963 -2.7592 0.9622
4.6479 7.2807 -2.5860 0.9646
2.9135 7.0894 -2.2947 0.9685
2.1504 6.9321 -2.1729 0.9701
1.4491 6.7433 -2.0649 0.9716
0.8041 6.5283 -1.9692 0.9729
0.2104 6.2912 -1.8845 0.9741
-1.3035 5.4699 -1.6834 0.9768
-1.7319 5.1731 -1.6332 0.9775
-2.1274 4.8655 -1.5898 0.9781
-2.9552 4.4095 -1.5892 0.9781
-3.3432 4.1379 -1.5926 0.9780
-3.6472 3.7712 -1.5707 0.9783
-4.1814 3.0096 -1.5424 0.9787
-4.4136 2.6142 -1.5357 0.9788
-4.6234 2.2084 -1.5340 0.9788
-2.8473 0.5129 -0.8662 0.9880
-2.7412 0.2450 -0.8239 0.9886
-2.7380 -0.0000 -0.8695 0.9886
-2.9540 -0.8092 -0.9727 0.9872
-5.2251 -2.4959 -1.8390 0.9760
-5.1508 -3.0509 -1.9013 0.9752
-4.8858 -4.2250 -2.0514 0.9733
-4.6871 -4.8465 -2.1412 0.9721
-4.1296 -6.1619 -2.3558 0.9693
-2.1613 -9.0695 -2.9610 0.9616
-1.4350 -9.8389 -3.1577 0.9591
11.4120 5.1420 -3.9752 0.9488
7.8167 6.4607 -3.2206 0.9583
6.7430 6.6682 -3.0117 0.9610
2.3887 6.6394 -2.2409 0.9708
1.7011 6.4928 -2.1316 0.9722
-0.0655 5.8807 -1.8677 0.9756
-0.5672 5.6383 -1.7997 0.9765
-1.0312 5.3801 -1.7398 0.9773
-1.4605 5.1079 -1.6872 0.9780
-1.8577 4.8233 -1.6415 0.9785
-3.3713 3.8121 -1.6162 0.9789
-3.6537 3.4557 -1.5972 0.9791
-4.1482 2.7136 -1.5742 0.9794
-4.3617 2.3275 -1.5701 0.9795
-4.5534 1.9308 -1.5708 0.9795
-4.7236 1.5232 -1.5762 0.9794
-2.9790 0.6750 -0.9701 0.9873
-2.6671 0.3587 -0.8547 0.9888
-2.7186 0.1212 -0.8643 0.9886
-2.8254 -0.3800 -0.9054 0.9881
-5.2493 -2.2259 -1.8108 0.9764
-4.2910 -5.8239 -2.2974 0.9701
-3.0582 -7.9407 -2.7024 0.9649
-2.4845 -8.6891 -2.8701 0.9628
-1.8120 -9.4531 -3.0568 0.9604
-1.0287 -10.2258 -3.2640 0.9578
0.9186 -11.7549 -3.7446 0.9517
2.1050 -12.4793 -4.0192 0.9483
3.4443 -13.1466 -4.3161 0.9446
13.3381 3.9752 -4.4201 0.9433
10.7809 5.4478 -3.8362 0.9506
9.5516 5.9488 -3.5736 0.9539
8.3791 6.3189 -3.3329 0.9569
7.2712 6.5764 -3.1136 0.9597
4.3618 6.8327 -2.5744 0.9666
2.7532 6.6996 -2.3003 0.9701
0.2007 6.0047 -1.9080 0.9751
-0.3212 5.7616 -1.8327 0.9761
-1.2501 5.2457 -1.7126 0.9776
-2.9006 4.3281 -1.6547 0.9784
-3.2209 3.9865 -1.6277 0.9787
-4.0331 2.9028 -1.5781 0.9794
-4.4603 2.1305 -1.5698 0.9795
-4.6412 1.7284 -1.5729 0.9794
-2.6945 -0.0000 -0.9053 0.9887
-2.8177 -0.5076 -0.9619 0.9880
-2.8971 -0.7936 -1.0092 0.9874
-5.0612 -1.8849 -1.8146 0.9775
-5.0163 -2.3961 -1.8678 0.9768
-4.8229 -3.4713 -1.9965 0.9752
-4.2221 -5.2258 -2.2572 0.9720
-3.9199 -5.8490 -2.3657 0.9707
-3.1252 -7.1475 -2.6209 0.9676
1.3722 -11.1410 -3.7715 0.9537
13.6129 2.1405 -4.6299 0.9435
12.5853 3.1478 -4.3587 0.9467
11.5063 3.9954 -4.0923 0.9499
10.4111 4.6910 -3.8366 0.9530
7.2525 5.9943 -3.1613 0.9611
6.2857 6.2160 -2.9701 0.9634
3.7120 6.4293 -2.4943 0.9692
-0.9896 5.1629 -1.7662 0.9781
-2.9539 4.0092 -1.6732 0.9792
-3.2519 3.6771 -1.6493 0.9795
-4.0049 2.6199 -1.6079 0.9800
-4.2115 2.2473 -1.6039 0.9801
-4.5603 1.4705 -1.6099 0.9800
-2.6762 0.1193 -0.9001 0.9888
-2.7168 -0.1212 -0.9137 0.9886
-2.7751 -0.3732 -0.9408 0.9883
-2.8653 -0.6492 -0.9871 0.9877
-5.0722 -1.6356 -1.7906 0.9778
-5.0428 -2.1384 -1.8403 0.9772
-4.8850 -3.1956 -1.9613 0.9757
-4.7508 -3.7517 -2.0339 0.9748
-4.0782 -5.5351 -2.3100 0.9714
-3.3499 -6.8169 -2.5520 0.9685
-2.3325 -8.1573 -2.8506 0.9648
-1.6943 -8.8393 -3.0239 0.9627
-0.9577 -9.5200 -3.2147 0.9604
-0.1135 -10.1892 -3.4236 0.9579
3.1368 -11.9728 -4.1584 0.9491
4.4681 -12.4193 -4.4345 0.9458
5.9137 -12.7437 -4.7202 0.9424
13.1080 2.6643 -4.4941 0.9451
12.0498 3.5912 -4.2245 0.9483
9.8657 4.9853 -3.7139 0.9544
6.7626 6.1163 -3.0636 0.9623
1.3111 6.1013 -2.0967 0.9740
0.1916 5.7310 -1.9266 0.9761
-0.7708 5.2850 -1.7945 0.9777
-1.5986 4.7750 -1.6918 0.9790
-1.9677 4.5003 -1.6502 0.9795
-2.3316 4.2547 -1.6301 0.9797
-2.7956 4.1713 -1.6871 0.9790
-3.3918 3.5072 -1.6393 0.9796
-3.8935 2.8024 -1.6118 0.9800
-4.1109 2.4349 -1.6053 0.9800
-2.6500 0.2368 -0.8939 0.9888
-2.7668 -0.4985 -0.9969 0.9881
-4.7392 -2.8071 -1.9531 0.9769
-4.4672 -3.8630 -2.0941 0.9752
-3.7284 -5.5632 -2.3747 0.9720
-3.3745 -6.1577 -2.4898 0.9706
-2.9569 -6.7627 -2.6172 0.9692
-1.2540 -8.5985 -3.0812 0.9638
-0.5127 -9.1947 -3.2654 0.9617
0.3265 -9.7659 -3.4648 0.9594
1.2683 -10.2978 -3.6790 0.9569
3.4643 -11.1679 -4.1461 0.9516
4.7096 -11.4602 -4.3934 0.9488
7.4211 -11.6249 -4.8903 0.9431
13.7046 -0.3054 -4.8606 0.9435
7.6716 5.2662 -3.2995 0.9613
6.7591 5.5865 -3.1093 0.9635
2.8098 6.0548 -2.3669 0.9721
1.5414 5.8833 -2.1565 0.9745
0.4358 5.5771 -1.9836 0.9765
-0.0600 5.3909 -1.9117 0.9774
-0.5215 5.1845 -1.8476 0.9781
-0.9508 4.9603 -1.7909 0.9788
-1.3497 4.7205 -1.7409 0.9794
-1.7203 4.4667 -1.6972 0.9799
-2.5369 4.1764 -1.7327 0.9795
-2.8504 3.8687 -1.7039 0.9798
-3.1395 3.5500 -1.6804 0.9801
-3.4053 3.2207 -1.6620 0.9803
-3.8699 2.5316 -1.6397 0.9806
-2.5615 0.5803 -0.9313 0.9889
-2.7260 -0.3666 -0.9753 0.9884
-2.8093 -0.6365 -1.0214 0.9878
-2.8709 -0.9258 -1.0696 0.9873
-4.6854 -3.0651 -1.9853 0.9765
-4.5499 -3.5931 -2.0557 0.9757
-4.1533 -4.6963 -2.2230 0.9737
-3.8834 -5.2707 -2.3214 0.9726
-3.5590 -5.8590 -2.4308 0.9713
-3.1740 -6.4591 -2.5519 0.9699
-2.7222 -7.0681 -2.6857 0.9684
-2.1965 -7.6819 -2.8331 0.9667
-1.5900 -8.2947 -2.9948 0.9648
-0.8952 -8.8989 -3.1714 0.9628
-0.1056 -9.4843 -3.3632 0.9605
0.7844 -10.0378 -3.5701 0.9582
1.7785 -10.5434 -3.7914 0.9556
2.8770 -10.9814 -4.0253 0.9530
8.1254 -11.5586 -5.0099 0.9418
12.6958 1.4202 -4.5298 0.9472
10.0394 3.9955 -3.8314 0.9552
9.0863 4.5915 -3.6098 0.9577
8.1385 5.0687 -3.3997 0.9601
7.2114 5.4383 -3.2027 0.9624
6.3158 5.7123 -3.0196 0.9645
5.4591 5.9022 -2.8508 0.9665
2.4765 6.0262 -2.3102 0.9727
1.8427 5.9400 -2.2052 0.9740
1.2505 5.8194 -2.1106 0.9751
0.1835 5.4867 -1.9466 0.9770
-0.2950 5.2900 -1.8787 0.9778
-0.7401 5.0745 -1.8184 0.9785
-1.8954 4.3349 -1.6776 0.9801
-2.3238 4.2403 -1.7146 0.9797
-2.9979 3.7106 -1.6915 0.9800
-3.5297 3.0522 -1.6546 0.9804
-3.7619 2.7077 -1.6435 0.9805
-4.1618 1.9879 -1.6354 0.9806
-2.6623 0.4796 -0.9592 0.9886
-2.6101 0.0000 -0.9746 0.9889
-2.6497 -0.2368 -0.9934 0.9887
-2.7878 -0.7637 -1.0794 0.9877
-4.6902 -1.7467 -1.8689 0.9789
-4.5540 -2.6974 -1.9765 0.9777
-4.4360 -3.1929 -2.0409 0.9769
-4.2806 -3.7016 -2.1132 0.9761
-4.0843 -4.2232 -2.1939 0.9752
-3.8432 -4.7568 -2.2835 0.9742
-3.2082 -5.8543 -2.4928 0.9719
-2.8041 -6.4133 -2.6137 0.9706
-1.1784 -8.0803 -3.0492 0.9657
-0.4800 -8.6095 -3.2199 0.9639
0.3046 -9.1090 -3.4033 0.9618
1.1781 -9.5653 -3.5987 0.9597
13.7662 -2.7981 -5.2456 0.9418
13.5680 -1.5178 -5.0980 0.9434
13.0450 -0.2907 -4.8724 0.9458
11.8474 0.7931 -4.4338 0.9506
11.2008 1.7612 -4.2339 0.9527
6.3238 5.2267 -3.0635 0.9656
5.5236 5.4623 -2.9008 0.9674
4.0218 5.7211 -2.6114 0.9706
3.3266 5.7617 -2.4843 0.9720
2.6700 5.7535 -2.3685 0.9733
2.0516 5.7025 -2.2630 0.9745
1.4711 5.6149 -2.1675 0.9755
0.9259 5.4887 -2.0785 0.9765
0.4175 5.3421 -2.0009 0.9774
-0.0576 5.1717 -1.9313 0.9782
-0.9145 4.7709 -1.8140 0.9795
-1.6579 4.3047 -1.7225 0.9805
-2.0501 4.1720 -1.7358 0.9803
-3.2914 3.1130 -1.6917 0.9808
-3.9358 2.1002 -1.6658 0.9811
-4.1086 1.7422 -1.6665 0.9811
-2.5324 0.3406 -0.9542 0.9891
-2.5920 0.1156 -0.9689 0.9890
-2.6307 -0.1173 -0.9833 0.9888
-2.8043 -0.9043 -1.1002 0.9875
-4.6678 -1.9793 -1.8933 0.9786
-4.6001 -2.4547 -1.9470 0.9780
-4.4995 -2.9435 -2.0077 0.9773
-4.1878 -3.9609 -2.1524 0.9757
-3.9696 -4.4886 -2.2375 0.9747
-3.7044 -5.0278 -2.3320 0.9737
-3.0139 -6.1332 -2.5518 0.9712
-2.5780 -6.6938 -2.6785 0.9698
-0.0987 -8.8637 -3.3100 0.9629
1.6484 -9.7722 -3.7006 0.9586
3.7431 -10.4040 -4.1288 0.9539
4.9029 -10.5653 -4.3493 0.9515
6.1162 -10.5935 -4.5677 0.9491
7.3581 -10.4670 -4.7776 0.9468
8.5960 -10.1673 -4.9716 0.9447
13.6932 -2.1532 -5.1760 0.9425
12.1268 0.2703 -4.5294 0.9495
11.5373 1.2907 -4.3350 0.9516
10.0710 3.0014 -3.9241 0.9561
8.4139 4.2517 -3.5202 0.9605
4.3837 5.6801 -2.6792 0.9698
2.3561 5.7332 -2.3146 0.9739
1.1931 5.5520 -2.1205 0.9760
0.6674 5.4186 -2.0387 0.9770
0.1759 5.2597 -1.9651 0.9778
-1.1105 4.6599 -1.7888 0.9798
-1.8274 4.1795 -1.7033 0.9807
-2.6037 3.8850 -1.7464 0.9802
-2.8960 3.5844 -1.7207 0.9805
-3.4121 2.9506 -1.6845 0.9809
-3.8416 2.2754 -1.6672 0.9811
-4.0248 1.9225 -1.6656 0.9811
-2.6096 0.4701 -0.9901 0.9887
-2.6072 -0.2330 -1.0273 0.9888
-2.7584 -1.0272 -1.1552 0.9874
-4.4663 -2.1334 -1.9426 0.9790
-4.3808 -2.5948 -1.9983 0.9784
-3.3910 -5.0598 -2.3906 0.9742
-3.0557 -5.5761 -2.4955 0.9730
-2.6647 -6.0945 -2.6106 0.9718
-0.4510 -8.0883 -3.1793 0.9658
0.2852 -8.5281 -3.3489 0.9640
8.3552 -9.0335 -4.8294 0.9485
9.3792 -8.4829 -4.9633 0.9471
10.3054 -7.7717 -5.0658 0.9460
11.7277 -5.9263 -5.1571 0.9451
12.4144 -3.6999 -5.0841 0.9459
12.4583 -2.5323 -4.9895 0.9468
11.9931 -0.2673 -4.7081 0.9498
10.8446 0.7260 -4.2657 0.9544
10.2737 1.6154 -4.0817 0.9563
8.9385 3.1037 -3.7136 0.9602
5.2024 5.1447 -2.8715 0.9690
3.8102 5.4200 -2.6002 0.9719
3.1596 5.4726 -2.4801 0.9732
1.9572 5.4402 -2.2691 0.9755
1.4045 5.3607 -2.1749 0.9765
0.4004 5.1237 -2.0170 0.9782
-0.0553 4.9673 -1.9496 0.9789
-0.4818 4.7897 -1.8893 0.9795
-0.8804 4.5934 -1.8356 0.9801
-1.5992 4.1523 -1.7463 0.9811
-2.0434 4.1582 -1.8184 0.9803
-2.3652 3.8937 -1.7881 0.9806
-2.9330 3.3165 -1.7376 0.9812
-3.1836 3.0110 -1.7198 0.9813
-3.4128 2.6951 -1.7067 0.9815
-3.6211 2.3688 -1.6983 0.9816
-3.8088 2.0324 -1.6944 0.9816
-2.5568 0.5793 -1.0289 0.9888
-2.4910 0.3350 -0.9865 0.9893
-2.5490 0.1137 -1.0014 0.9891
-4.4275 -2.3626 -1.9696 0.9787
-4.3257 -2.8298 -2.0287 0.9780
-4.1891 -3.3082 -2.0950 0.9773
-4.0148 -3.7973 -2.1689 0.9765
-3.5393 -4.8036 -2.3417 0.9747
-3.2300 -5.3175 -2.4418 0.9736
-2.8675 -5.8352 -2.5517 0.9724
-1.9635 -6.8669 -2.8031 0.9698
-1.4127 -7.3701 -2.9452 0.9683
-0.7902 -7.8553 -3.0985 0.9666
-0.0926 -8.3130 -3.2628 0.9649
0.6823 -8.7319 -3.4375 0.9631
3.4574 -9.6100 -4.0083 0.9571
5.6039 -9.7062 -4.3987 0.9530
6.7159 -9.5535 -4.5832 0.9511
8.8771 -8.7787 -4.8999 0.9478
10.7207 -7.3593 -5.1035 0.9457
11.9735 -5.3950 -5.1542 0.9451
12.3176 -4.2771 -5.1175 0.9455
12.4610 -3.1167 -5.0412 0.9463
12.4079 -1.9510 -4.9296 0.9475
12.1726 -0.8149 -4.7881 0.9489
11.6212 0.2590 -4.5621 0.9513
10.5616 1.1815 -4.1709 0.9554
9.9644 2.0253 -3.9907 0.9572
9.2937 2.7698 -3.8061 0.9592
8.5736 3.4122 -3.6216 0.9611
7.8274 3.9553 -3.4420 0.9630
7.0679 4.4019 -3.2679 0.9649
5.5669 5.0349 -2.9459 0.9683
4.8439 5.2371 -2.7998 0.9698
4.1473 5.3738 -2.6641 0.9713
2.8466 5.4806 -2.4238 0.9738
2.2454 5.4637 -2.3184 0.9749
1.6756 5.4015 -2.2196 0.9760
0.6396 5.1930 -2.0535 0.9778
0.1688 5.0483 -1.9824 0.9785
-0.2721 4.8810 -1.9186 0.9792
-1.0697 4.4888 -1.8111 0.9804
-1.4289 4.2681 -1.7665 0.9808
-1.7961 4.1079 -1.7596 0.9809
-2.7996 3.4651 -1.7484 0.9810
-3.3008 2.8544 -1.7127 0.9814
-3.7175 2.2019 -1.6958 0.9816
-3.8950 1.8605 -1.6941 0.9816
-4.0520 1.5090 -1.6970 0.9816
-2.5634 0.4618 -1.0222 0.9889
-2.5206 0.2252 -0.9932 0.9892
-2.5289 -0.0000 -1.0414 0.9891
-2.5655 -0.2293 -1.0607 0.9889
-2.6210 -0.4722 -1.0967 0.9885
-2.6436 -0.9845 -1.1616 0.9879
-3.9447 -3.4112 -2.1475 0.9777
-2.9154 -5.3199 -2.4980 0.9741
-2.5370 -5.8023 -2.6077 0.9730
-2.1023 -6.2795 -2.7269 0.9718
-0.4249 -7.6208 -3.1430 0.9675
0.2679 -8.0106 -3.3004 0.9659
2.7446 -8.8478 -3.8146 0.9607
8.5596 -7.7417 -4.7525 0.9513
9.3880 -7.0798 -4.8418 0.9504
10.0988 -6.2896 -4.8990 0.9498
11.3055 -3.3694 -4.8578 0.9502
10.9945 -0.2450 -4.5284 0.9535
9.4789 1.4905 -3.9512 0.9593
8.9221 2.2316 -3.7871 0.9610
7.6470 3.4456 -3.4538 0.9644
6.9655 3.9187 -3.2910 0.9660
5.5902 4.6204 -2.9864 0.9691
4.9131 4.8586 -2.8453 0.9706
3.6169 5.1451 -2.5898 0.9732
2.4211 5.2172 -2.3684 0.9754
1.3444 5.1314 -2.1843 0.9773
0.8501 5.0393 -2.1044 0.9781
-0.4638 4.6107 -1.9082 0.9802
-1.9770 4.0230 -1.8458 0.9808
-2.5731 3.4923 -1.7863 0.9814
-2.8379 3.2089 -1.7640 0.9816
-3.3040 2.6092 -1.7336 0.9820
-3.5062 2.2937 -1.7253 0.9820
-3.8501 1.6326 -1.7221 0.9821
-3.9918 1.2872 -1.7271 0.9820
-2.6387 0.5979 -1.1141 0.9884
-2.5068 0.1118 -1.0333 0.9892
-2.6299 -0.5959 -1.1104 0.9884
-2.6464 -0.8534 -1.1450 0.9880
-4.3370 -1.8391 -1.9398 0.9798
-4.1628 -2.7232 -2.0484 0.9787
-4.0264 -3.1796 -2.1127 0.9781
-3.8536 -3.6448 -2.1842 0.9773
-3.0847 -5.0782 -2.4467 0.9746
-2.7329 -5.5614 -2.5517 0.9736
-2.3269 -6.0418 -2.6661 0.9724
-1.3367 -6.9739 -2.9240 0.9697
-0.7456 -7.4122 -3.0676 0.9683
-0.0871 -7.8208 -3.2206 0.9667
0.6399 -8.1888 -3.3823 0.9651
1.4345 -8.5042 -3.5514 0.9634
3.2093 -8.9202 -3.9037 0.9598
4.1718 -8.9900 -4.0811 0.9580
7.1615 -8.4706 -4.5676 0.9531
8.9867 -7.4277 -4.8009 0.9508
9.7598 -6.6997 -4.8747 0.9501
10.4019 -5.8520 -4.9146 0.9497
10.8906 -4.9071 -4.9187 0.9496
11.2109 -3.8928 -4.8868 0.9500
11.3565 -2.8404 -4.8204 0.9506
11.3304 -1.7816 -4.7230 0.9516
5.2498 4.7481 -2.9148 0.9698
3.9319 5.0948 -2.6501 0.9725
2.1409 5.2094 -2.3192 0.9759
0.6137 4.9828 -2.0673 0.9785
0.1622 4.8507 -1.9986 0.9792
-0.2618 4.6959 -1.9367 0.9799
-0.6593 4.5208 -1.8813 0.9804
-1.0313 4.3278 -1.8320 0.9809
-1.3789 4.1186 -1.7885 0.9814
-1.7903 4.0946 -1.8402 0.9809
-2.4325 3.6297 -1.7992 0.9813
-2.7082 3.3521 -1.7745 0.9815
-2.9623 3.0630 -1.7547 0.9817
-2.5181 0.4537 -1.0536 0.9890
-2.4893 0.0000 -1.0738 0.9892
-2.5389 -0.4574 -1.1128 0.9888
-2.5507 -0.6987 -1.1408 0.9885
-4.1529 -1.9837 -1.9853 0.9802
-4.0652 -2.4079 -2.0381 0.9796
-3.1029 -4.6299 -2.4042 0.9760
-2.7856 -5.0833 -2.5004 0.9751
-1.5264 -6.4054 -2.8404 0.9717
-0.4014 -7.1991 -3.1102 0.9691
0.2523 -7.5463 -3.2570 0.9676
1.7383 -8.0893 -3.5690 0.9646
3.4303 -8.3470 -3.8927 0.9615
7.0353 -7.6064 -4.4693 0.9559
10.1445 -4.0374 -4.7097 0.9536
10.3668 -3.0896 -4.6662 0.9540
10.4355 -2.1211 -4.5935 0.9547
10.3557 -1.1585 -4.4949 0.9556
10.1387 -0.2259 -4.3745 0.9568
8.2983 2.0755 -3.6898 0.9634
7.1564 3.2245 -3.3858 0.9664
6.5384 3.6784 -3.2360 0.9678
5.2738 4.3589 -2.9513 0.9706
4.0329 4.7701 -2.6945 0.9732
2.8627 4.9584 -2.4697 0.9754
1.2886 4.9182 -2.1931 0.9781
-0.4469 4.4425 -1.9260 0.9807
-1.1662 4.0786 -1.8299 0.9817
-2.7476 3.1067 -1.7890 0.9821
-3.2006 2.5275 -1.7592 0.9824
-3.3970 2.2222 -1.7510 0.9825
-3.5736 1.9069 -1.7472 0.9825
-3.7304 1.5819 -1.7478 0.9825
-2.5714 0.5826 -1.1373 0.9886
-2.4105 0.3242 -1.0492 0.9895
-2.4654 0.1099 -1.0645 0.9893
-2.5077 -0.1118 -1.0828 0.9891
-2.5465 -0.5770 -1.1263 0.9887
-4.0096 -2.6230 -2.0668 0.9793
-3.8738 -3.0592 -2.1292 0.9787
-3.7029 -3.5022 -2.1985 0.9780
-2.9502 -4.8568 -2.4512 0.9755
-0.7053 -7.0113 -3.0396 0.9698
-0.0821 -7.3778 -3.1827 0.9684
1.3454 -7.9762 -3.4892 0.9654
2.1443 -8.1846 -3.6496 0.9638
2.9916 -8.3151 -3.8119 0.9622
3.8769 -8.3544 -3.9729 0.9607
4.7861 -8.2896 -4.1290 0.9592
5.7009 -8.1095 -4.2760 0.9577
8.2486 -6.8176 -4.6161 0.9545
10.2749 -3.5678 -4.6917 0.9537
9.9836 0.2225 -4.3076 0.9574
8.5524 1.7383 -3.7646 0.9627
8.0295 2.3930 -3.6141 0.9642
6.8498 3.4613 -3.3105 0.9671
6.2237 3.8761 -3.1627 0.9686
5.5902 4.2157 -3.0202 0.9700
4.9591 4.4852 -2.8843 0.9713
3.7325 4.8362 -2.6352 0.9737
1.0490 4.8814 -2.1537 0.9785
0.5895 4.7864 -2.0802 0.9792
-0.6356 4.3581 -1.8998 0.9810
-1.7525 4.0083 -1.8871 0.9811
-2.3536 3.5119 -1.8236 0.9818
-2.8685 2.9660 -1.7799 0.9822
-3.4877 2.0658 -1.7486 0.9825
-3.9283 1.0761 -1.7570 0.9824
-2.4719 0.4453 -1.0835 0.9891
-2.4387 0.2179 -1.0561 0.9894
-2.4480 -0.2188 -1.1090 0.9893
-2.4592 -0.4431 -1.1275 0.9891
-4.0092 -1.9151 -2.0048 0.9807
-3.8020 -2.7365 -2.1137 0.9797
-3.4635 -3.5813 -2.2480 0.9784
-1.9071 -5.6962 -2.7105 0.9740
-1.4520 -6.0930 -2.8262 0.9729
0.2383 -7.1273 -3.2177 0.9692
0.9104 -7.3919 -3.3606 0.9678
2.4008 -7.7392 -3.6562 0.9651
3.2051 -7.7990 -3.8046 0.9637
4.0345 -7.7676 -3.9494 0.9623
6.5100 -7.0386 -4.3261 0.9588
8.5296 -5.3123 -4.5341 0.9569
9.6364 -1.9587 -4.4370 0.9578
9.5785 -1.0715 -4.3489 0.9586
9.3967 -0.2094 -4.2410 0.9596
7.7487 1.9380 -3.6040 0.9656
6.7191 3.0274 -3.3253 0.9682
5.5759 3.8276 -3.0517 0.9708
4.9907 4.1249 -2.9215 0.9720
3.2748 4.6583 -2.5693 0.9753
2.7330 4.7336 -2.4663 0.9763
2.2116 4.7659 -2.3707 0.9772
1.7125 4.7597 -2.2824 0.9780
0.7841 4.6482 -2.1270 0.9795
-0.7898 4.1206 -1.8932 0.9818
-1.1281 3.9451 -1.8514 0.9822
-1.5354 3.9866 -1.9276 0.9814
-1.8487 3.7622 -1.8915 0.9818
-2.1406 3.5239 -1.8605 0.9821
-3.1021 2.4497 -1.7835 0.9828
-3.7487 1.2088 -1.7773 0.9829
-2.5488 0.5775 -1.1792 0.9886
-2.4105 0.1075 -1.0887 0.9895
-2.4395 -0.1088 -1.1018 0.9893
-2.4521 -0.3298 -1.1164 0.9892
-2.4890 -1.0555 -1.2199 0.9882
-3.9688 -2.1178 -2.0298 0.9805
-3.8654 -2.5287 -2.0842 0.9799
-3.7304 -2.9459 -2.1448 0.9794
-3.5615 -3.3685 -2.2119 0.9787
-3.1116 -4.2231 -2.3669 0.9772
-2.4940 -5.0752 -2.5516 0.9755
-2.1152 -5.4920 -2.6555 0.9745
-1.2045 -6.2839 -2.8870 0.9723
-0.6686 -6.6466 -3.0142 0.9711
-0.0777 -6.9770 -3.1483 0.9698
1.2657 -7.5036 -3.4336 0.9672
2.0118 -7.6787 -3.5817 0.9658
3.6175 -7.7954 -3.8777 0.9630
4.4541 -7.7146 -4.0195 0.9617
6.8945 -6.8180 -4.3751 0.9583
7.6141 -6.2932 -4.4572 0.9576
8.2497 -5.6631 -4.5151 0.9570
8.7814 -4.9403 -4.5463 0.9567
9.4726 -3.2892 -4.5245 0.9570
9.6159 -2.4051 -4.4725 0.9574
9.6236 -1.5132 -4.3957 0.9582
9.5023 -0.6361 -4.2972 0.9591
9.2633 0.2064 -4.1808 0.9602
7.9753 1.6210 -3.6722 0.9649
6.9912 2.7824 -3.3952 0.9675
4.1197 4.4541 -2.7376 0.9737
3.0015 4.7017 -2.5169 0.9758
2.4696 4.7549 -2.4176 0.9768
1.9592 4.7673 -2.3257 0.9776
0.5669 4.6023 -2.0923 0.9799
0.1502 4.4918 -2.0279 0.9805
-0.6132 4.2045 -1.9172 0.9815
-2.2786 3.3999 -1.8468 0.9822
-2.5390 3.1426 -1.8230 0.9824
-2.7791 2.8737 -1.8038 0.9826
-3.3810 2.0026 -1.7731 0.9829
-3.5427 1.6922 -1.7716 0.9829
-3.6850 1.3723 -1.7743 0.9829
-2.4063 0.4335 -1.1032 0.9893
-2.3848 0.2131 -1.0804 0.9895
-2.3816 -0.4291 -1.1407 0.9894
-2.8533 -4.2575 -2.4159 0.9776
-2.5534 -4.6595 -2.5045 0.9768
-2.2099 -5.0543 -2.6003 0.9759
-1.3835 -5.8055 -2.8132 0.9740
-0.3606 -6.4674 -3.0533 0.9718
0.2256 -6.7470 -3.1821 0.9706
3.7734 -7.2650 -3.8589 0.9644
4.5485 -7.1250 -3.9846 0.9633
6.0514 -6.5427 -4.2010 0.9614
7.3646 -5.5538 -4.3480 0.9600
8.3381 -4.2134 -4.4037 0.9595
8.8625 -2.6413 -4.3592 0.9599
8.9414 -1.8174 -4.3010 0.9605
8.1481 1.2812 -3.8880 0.9642
5.8100 3.2686 -3.1424 0.9710
5.2756 3.6214 -3.0163 0.9721
3.6518 4.3193 -2.6662 0.9753
3.1250 4.4453 -2.5614 0.9763
2.6128 4.5254 -2.4632 0.9772
-0.0475 4.2687 -2.0123 0.9813
-0.4159 4.1340 -1.9585 0.9818
-0.7629 3.9801 -1.9103 0.9822
-1.1216 3.9228 -1.9232 0.9821
-1.7895 3.6416 -1.9126 0.9822
-2.0730 3.4128 -1.8822 0.9825
-2.3363 3.1709 -1.8566 0.9827
-2.8035 2.6516 -1.8190 0.9831
-3.0081 2.3755 -1.8068 0.9832
-3.1936 2.0891 -1.7989 0.9833
-3.6355 1.1723 -1.8006 0.9832
-2.5264 0.5724 -1.2211 0.9886
-2.2973 0.3089 -1.0926 0.9898
-2.3694 -0.1057 -1.1180 0.9896
-2.3945 -0.7721 -1.1859 0.9889
-2.4109 -1.0223 -1.2344 0.9885
-3.4286 -3.2429 -2.2246 0.9793
-3.2269 -3.6487 -2.2961 0.9787
-2.7087 -4.4591 -2.4593 0.9772
-2.3873 -4.8580 -2.5515 0.9763
-1.6081 -5.6242 -2.7573 0.9745
1.8930 -7.2254 -3.5208 0.9675
2.6273 -7.3025 -3.6582 0.9663
3.3874 -7.2995 -3.7932 0.9650
4.1611 -7.2071 -3.9228 0.9639
5.6874 -6.7270 -4.1523 0.9618
6.4037 -6.3327 -4.2452 0.9610
8.1336 -4.5759 -4.3991 0.9596
8.7770 -3.0477 -4.3796 0.9597
8.9356 -1.4051 -4.2638 0.9608
8.8371 -0.5916 -4.1749 0.9616
8.3301 0.9319 -3.9511 0.9636
7.6609 1.5571 -3.6850 0.9660
7.0434 2.0992 -3.4644 0.9680
6.5748 2.6167 -3.3356 0.9692
6.0712 3.0679 -3.2064 0.9704
5.5444 3.4530 -3.0789 0.9715
4.4607 4.0344 -2.8351 0.9738
3.9195 4.2377 -2.7210 0.9748
3.3868 4.3883 -2.6129 0.9758
2.8669 4.4908 -2.5114 0.9767
1.8777 4.5691 -2.3285 0.9784
1.4125 4.5531 -2.2471 0.9791
0.9682 4.5055 -2.1723 0.9798
0.5456 4.4295 -2.1037 0.9805
0.1447 4.3280 -2.0413 0.9810
-0.2344 4.2039 -1.9847 0.9816
-1.3251 3.9580 -1.9675 0.9817
-1.9338 3.5288 -1.8968 0.9824
-2.2072 3.2934 -1.8688 0.9826
-3.1032 2.2336 -1.8023 0.9832
-3.2792 1.9422 -1.7965 0.9833
-3.5739 1.3309 -1.7977 0.9833
-3.6924 1.0114 -1.8046 0.9832
-2.3514 0.4236 -1.1263 0.9895
-2.3242 0.2077 -1.1000 0.9897
-2.2975 0.0000 -1.1300 0.9898
-2.3082 -0.4158 -1.1536 0.9896
-2.3174 -0.6348 -1.1819 0.9893
-3.5380 -2.5465 -2.1441 0.9808
-3.3897 -2.9312 -2.2042 0.9802
-3.2088 -3.3179 -2.2703 0.9796
-2.9931 -3.7047 -2.3426 0.9790
-2.7405 -4.0892 -2.4212 0.9783
-2.1162 -4.8400 -2.5982 0.9767
-1.7405 -5.1987 -2.6965 0.9759
-1.3202 -5.5400 -2.8012 0.9749
0.2140 -6.4001 -3.1496 0.9719
0.8138 -6.6078 -3.2746 0.9708
1.4531 -6.7621 -3.4019 0.9696
3.5407 -6.8169 -3.7782 0.9663
4.2594 -6.6722 -3.8934 0.9653
5.6473 -6.1058 -4.0908 0.9636
6.8567 -5.1709 -4.2240 0.9624
7.3525 -4.5791 -4.2603 0.9621
8.3033 -0.9289 -4.1095 0.9634
8.1727 -0.1821 -4.0208 0.9642
7.9485 0.5321 -3.9182 0.9651
7.6422 1.2017 -3.8050 0.9661
6.4184 2.2287 -3.3418 0.9702
5.9723 2.6910 -3.2219 0.9712
5.4967 3.0924 -3.1021 0.9723
4.4967 3.7166 -2.8694 0.9743
3.9884 3.9442 -2.7590 0.9753
2.9862 4.2479 -2.5540 0.9771
1.5771 4.3835 -2.2913 0.9794
1.1419 4.3585 -2.2161 0.9801
0.7261 4.3040 -2.1468 0.9807
0.3300 4.2231 -2.0835 0.9813
-0.7373 3.8468 -1.9265 0.9827
-1.4375 3.7325 -1.9673 0.9823
-2.0086 3.3067 -1.9030 0.9829
-2.2647 3.0737 -1.8779 0.9831
-2.7193 2.5719 -1.8410 0.9835
-3.5274 1.1374 -1.8229 0.9836
-2.5041 0.5673 -1.2629 0.9886
-2.2893 0.1021 -1.1271 0.9898
-2.3021 -0.1027 -1.1335 0.9898
-2.3108 -0.3108 -1.1468 0.9897
-3.7033 -1.9762 -2.0646 0.9815
-3.6004 -2.3553 -2.1162 0.9810
-3.4678 -2.7385 -2.1734 0.9805
-3.3035 -3.1244 -2.2365 0.9799
-2.5997 -4.2798 -2.4630 0.9779
-2.2878 -4.6557 -2.5515 0.9771
-1.9338 -5.0212 -2.6465 0.9763
-1.5360 -5.3718 -2.7481 0.9754
-1.0930 -5.7025 -2.8559 0.9744
-0.6043 -6.0072 -2.9696 0.9734
-0.0699 -6.2789 -3.0885 0.9724
1.1289 -6.6921 -3.3381 0.9702
1.7859 -6.8165 -3.4659 0.9691
4.6156 -6.5657 -3.9475 0.9649
5.3116 -6.2826 -4.0465 0.9640
6.5786 -5.4373 -4.1979 0.9627
7.1153 -4.8843 -4.2449 0.9623
7.9203 -3.5687 -4.2728 0.9620
8.3305 -1.3099 -4.1477 0.9631
8.2504 -0.5523 -4.0670 0.9638
8.0716 0.1799 -3.9710 0.9647
6.1997 2.4674 -3.2820 0.9707
5.7375 2.8993 -3.1618 0.9718
4.7501 3.5822 -2.9262 0.9738
1.8016 4.3839 -2.3312 0.9791
1.3571 4.3748 -2.2529 0.9798
0.1396 4.1735 -2.0539 0.9816
-2.1391 3.1918 -1.8899 0.9830
-2.3855 2.9525 -1.8670 0.9832
-2.8211 2.4395 -1.8344 0.9835
-3.0108 2.1671 -1.8246 0.9836
-3.1818 1.8846 -1.8189 0.9837
-3.3341 1.5926 -1.8174 0.9837
-3.4677 1.2914 -1.8200 0.9836
-2.3061 0.4154 -1.1525 0.9896
-2.2658 0.2025 -1.1189 0.9899
-2.2416 -0.4038 -1.1677 0.9898
-2.2593 -0.8414 -1.2360 0.9892
-2.2721 -1.0853 -1.2909 0.9887
-3.2701 -2.8278 -2.2164 0.9808
-3.0923 -3.1975 -2.2804 0.9802
-2.8811 -3.5661 -2.3503 0.9796
-2.6347 -3.9313 -2.4262 0.9790
-2.3511 -4.2904 -2.5082 0.9782
-2.0287 -4.6399 -2.5962 0.9775
-0.8150 -5.5885 -2.8954 0.9749
-0.3263 -5.8535 -3.0056 0.9740
2.6638 -6.4820 -3.5928 0.9690
3.3318 -6.4147 -3.7058 0.9680
4.6580 -6.0355 -3.9085 0.9663
5.2884 -5.7177 -3.9928 0.9656
6.4076 -4.8322 -4.1144 0.9646
7.2426 -3.6598 -4.1602 0.9642
7.7084 -2.2973 -4.1236 0.9645
7.7733 -0.8696 -4.0100 0.9655
7.4632 0.4996 -3.8347 0.9669
6.8479 1.7128 -3.6189 0.9688
5.6506 2.5460 -3.1774 0.9725
5.2111 2.9317 -3.0653 0.9735
4.7514 3.2616 -2.9546 0.9744
2.8573 4.0645 -2.5471 0.9779
2.3969 4.1514 -2.4576 0.9787
1.9489 4.1997 -2.3736 0.9794
-0.0443 3.9760 -2.0385 0.9823
-0.3881 3.8577 -1.9877 0.9827
-1.0855 3.7964 -2.0243 0.9824
-1.3921 3.6145 -1.9857 0.9827
-1.9471 3.2055 -1.9228 0.9833
-2.1962 2.9808 -1.8982 0.9835
-2.6387 2.4957 -1.8620 0.9838
-2.8323 2.2367 -1.8502 0.9839
-3.0077 1.9676 -1.8426 0.9840
-3.3036 1.4008 -1.8397 0.9840
-3.4238 1.1040 -1.8443 0.9840
-2.2377 -0.0998 -1.1483 0.9900
-2.2446 -0.3019 -1.1611 0.9899
-2.2530 -0.7265 -1.2136 0.9894
-2.2672 -0.9614 -1.2625 0.9890
-2.3837 -1.2720 -1.3851 0.9879
-3.4783 -2.2754 -2.1309 0.9815
-3.3471 -2.6432 -2.1865 0.9810
-2.7624 -3.7493 -2.3875 0.9793
-2.1949 -4.4666 -2.5514 0.9779
-0.5759 -5.7251 -2.9499 0.9745
-0.0665 -5.9728 -3.0623 0.9735
1.0696 -6.3409 -3.2967 0.9715
1.6888 -6.4458 -3.4161 0.9705
2.3340 -6.4874 -3.5346 0.9695
3.6670 -6.3514 -3.7599 0.9676
4.9775 -5.8873 -3.9524 0.9659
6.1502 -5.0833 -4.0906 0.9648
7.7941 -1.2256 -4.0449 0.9652
7.7288 -0.5174 -3.9712 0.9658
6.3991 1.9071 -3.4232 0.9704
5.8599 2.3321 -3.2333 0.9720
5.4339 2.7459 -3.1213 0.9730
4.5166 3.4061 -2.9001 0.9749
4.0416 3.6554 -2.7937 0.9758
3.5647 3.8541 -2.6915 0.9767
3.0913 4.0055 -2.5939 0.9775
2.6257 4.1130 -2.5016 0.9783
2.1712 4.1802 -2.4149 0.9790
1.3052 4.2073 -2.2584 0.9804
0.8970 4.1738 -2.1887 0.9810
0.5066 4.1130 -2.1245 0.9815
-0.2185 3.9194 -2.0125 0.9825
-0.5531 3.7928 -1.9651 0.9829
-0.9194 3.8583 -2.0334 0.9823
-1.2412 3.7075 -2.0044 0.9826
-1.5380 3.5177 -1.9682 0.9829
-2.0740 3.0947 -1.9099 0.9834
-2.3138 2.8638 -1.8875 0.9836
-2.5350 2.6212 -1.8694 0.9837
-2.7378 2.3675 -1.8556 0.9839
-2.9223 2.1034 -1.8459 0.9839
-3.2365 1.5460 -1.8389 0.9840
-3.4768 0.9524 -1.8481 0.9839
-2.2093 0.1974 -1.1372 0.9901
-2.1873 -0.5992 -1.2107 0.9898
-2.2033 -1.0524 -1.3035 0.9890
-3.4165 -2.0236 -2.1198 0.9822
-3.1568 -2.7298 -2.2280 0.9813
-2.5351 -3.7827 -2.4309 0.9796
-1.9469 -4.4527 -2.5944 0.9782
-1.5964 -4.7683 -2.6844 0.9775
-1.2071 -5.0651 -2.7797 0.9767
-0.7785 -5.3382 -2.8799 0.9758
-0.3112 -5.5818 -2.9844 0.9750
0.7335 -5.9550 -3.2031 0.9732
1.3046 -6.0708 -3.3149 0.9722
1.9016 -6.1300 -3.4263 0.9713
3.1432 -6.0516 -3.6404 0.9696
4.3807 -5.6762 -3.8277 0.9680
4.9672 -5.3704 -3.9052 0.9674
7.0509 -2.8062 -4.0512 0.9662
7.2258 -2.1535 -4.0251 0.9664
7.2993 -0.8165 -3.9210 0.9672
7.2033 -0.1605 -3.8463 0.9679
7.0269 0.4704 -3.7597 0.9686
6.4689 1.6179 -3.5597 0.9702
5.8860 2.0438 -3.3262 0.9721
5.3571 2.4138 -3.1367 0.9737
4.5211 3.1035 -2.9275 0.9754
4.0795 3.3717 -2.8254 0.9763
3.6313 3.5911 -2.7264 0.9771
3.1823 3.7640 -2.6313 0.9779
2.7371 3.8935 -2.5407 0.9787
2.2994 3.9826 -2.4550 0.9794
1.8723 4.0346 -2.3744 0.9800
1.0583 4.0394 -2.2292 0.9812
0.6744 3.9980 -2.1645 0.9818
0.3072 3.9311 -2.1050 0.9823
-0.3763 3.7400 -2.0066 0.9831
-0.7298 3.8077 -2.0697 0.9826
-1.0511 3.6759 -2.0410 0.9828
-1.3487 3.5019 -2.0033 0.9831
-1.6277 3.3124 -1.9703 0.9834
-2.1307 2.8919 -1.9176 0.9838
-2.3551 2.6629 -1.8978 0.9840
-2.5614 2.4226 -1.8821 0.9841
-2.4373 0.5522 -1.3341 0.9887
-2.2447 -1.1979 -1.3583 0.9885
-3.2326 -2.5528 -2.1990 0.9815
-2.8829 -3.2598 -2.3232 0.9805
-2.4017 -3.9539 -2.4697 0.9792
-2.1078 -4.2894 -2.5514 0.9786
-1.7764 -4.6125 -2.6387 0.9778
-1.4066 -4.9193 -2.7314 0.9771
-0.0634 -5.6906 -3.0381 0.9745
1.6003 -6.1079 -3.3707 0.9718
2.2077 -6.1362 -3.4813 0.9709
4.0769 -5.7994 -3.7844 0.9684
5.2464 -5.1882 -3.9390 0.9671
5.7681 -4.7675 -3.9949 0.9666
7.1499 -2.4827 -4.0405 0.9663
7.3150 -1.1502 -3.9530 0.9670
7.1246 0.1588 -3.8044 0.9682
6.9112 0.7731 -3.7125 0.9690
6.6309 1.3478 -3.6122 0.9698
6.2939 1.8758 -3.5060 0.9707
5.5504 2.2090 -3.1891 0.9733
4.7374 2.9504 -2.9794 0.9750
4.3015 3.2439 -2.8761 0.9759
3.8558 3.4874 -2.7754 0.9767
3.4066 3.6831 -2.6783 0.9775
2.9589 3.8340 -2.5854 0.9783
2.5171 3.9429 -2.4972 0.9790
2.0844 4.0130 -2.4141 0.9797
1.6634 4.0476 -2.3361 0.9804
1.2563 4.0496 -2.2635 0.9810
0.8643 4.0221 -2.1962 0.9815
-0.8952 3.7567 -2.0617 0.9826
-1.2022 3.5909 -2.0216 0.9830
-1.4905 3.4090 -1.9862 0.9833
-1.7603 3.2122 -1.9555 0.9835
-2.0118 3.0019 -1.9292 0.9837
-2.2451 2.7789 -1.9072 0.9839
-2.9992 1.7764 -1.8609 0.9843
-3.1429 1.5013 -1.8594 0.9843
-3.2686 1.2172 -1.8620 0.9843
-2.2057 0.3974 -1.1965 0.9899
