ply
format ascii 1.0
element vertex 1585
property float32 x
property float32 y
property float32 z
property float32 I
end_header
7.4495 2.9648 -0.7351 0.9683
7.9682 1.9930 -0.8909 0.9675
7.4993 3.3790 -0.8922 0.9674
8.3644 1.7001 -0.9258 0.9662
1.5743 9.3333 -1.1861 0.9626
-3.2819 -11.4774 -1.4959 0.9530
8.4444 1.7164 -1.0799 0.9659
7.5268 2.9956 -1.0152 0.9679
7.7221 3.9021 -1.0842 0.9657
-3.2819 -11.4776 -1.6980 0.9529
8.6016 1.7484 -1.2485 0.9652
7.8270 2.3327 -1.1617 0.9675
7.5899 3.0207 -1.1619 0.9675
7.8801 3.9820 -1.2558 0.9650
-6.5989 -12.0416 -2.1865 0.9459
1.5743 9.3331 -1.5072 0.9624
-3.2820 -11.4777 -1.9009 0.9528
7.9081 2.3569 -1.3140 0.9671
-6.5503 -11.9528 -2.4033 0.9461
8.3566 2.0901 -1.5189 0.9656
1.5743 9.3329 -1.6689 0.9623
-3.2820 -11.4779 -2.1050 0.9527
8.0223 2.3909 -1.4760 0.9666
-11.8790 -8.5500 -2.8323 0.9421
-9.2158 -11.4065 -2.8378 0.9420
-8.1366 -12.1406 -2.8283 0.9422
-5.8249 -13.3218 -2.8137 0.9425
-4.6078 -13.7626 -2.8086 0.9426
-3.3543 -14.0753 -2.8001 0.9428
-0.8019 -14.3815 -2.7874 0.9430
8.6058 2.1525 -1.7167 0.9645
7.9732 2.7686 -1.6333 0.9662
8.1368 3.6663 -1.7271 0.9643
1.5743 9.3328 -1.8316 0.9622
-9.7553 11.0305 -2.8496 0.9418
-10.6951 10.1153 -2.8487 0.9418
-12.2899 8.0397 -2.8420 0.9419
-11.4900 -9.0735 -2.8332 0.9421
-10.6460 -10.0689 -2.8357 0.9420
-9.7154 -10.9854 -2.8380 0.9420
-8.6834 -11.7851 -2.8328 0.9421
-7.5763 -12.4724 -2.8240 0.9423
-6.4196 -13.0634 -2.8168 0.9424
-5.2207 -13.5551 -2.8110 0.9425
-2.7204 -14.1920 -2.7964 0.9428
-10.2354 10.5833 -2.8492 0.9418
-11.1334 9.6274 -2.8483 0.9418
-14.1718 0.0000 -2.9877 0.9437
-13.6606 -3.7420 -2.9860 0.9437
-12.7780 -6.1035 -2.9854 0.9438
-12.1834 -7.2162 -2.9852 0.9438
-10.1665 -8.7913 -2.8335 0.9465
-9.3501 -9.6679 -2.8354 0.9465
-6.4640 -11.7954 -2.8356 0.9465
-4.2512 -12.6977 -2.8230 0.9467
-3.0954 -12.9889 -2.8150 0.9469
-0.7424 -13.3137 -2.8112 0.9469
2.9254 -13.6136 -2.9355 0.9447
6.4364 -12.3922 -2.9439 0.9445
12.5733 -6.3536 -2.9699 0.9440
13.1070 -5.2165 -2.9740 0.9440
13.8481 -2.8147 -2.9791 0.9439
14.1629 -0.3156 -2.9866 0.9437
14.0272 2.2057 -2.9935 0.9436
13.7911 3.4494 -2.9970 0.9435
12.9884 5.8523 -3.0033 0.9434
12.4276 6.9917 -3.0062 0.9434
11.7660 8.0769 -3.0087 0.9433
10.1588 10.0463 -3.0121 0.9433
9.2236 10.9097 -3.0118 0.9433
7.1412 12.3690 -3.0110 0.9433
6.0109 12.9532 -3.0105 0.9433
4.8331 13.4339 -3.0098 0.9433
1.5742 9.3327 -1.9953 0.9620
-2.5498 13.3021 -2.8554 0.9461
-3.7224 13.0182 -2.8545 0.9462
-7.0228 11.5611 -2.8517 0.9462
-8.0215 10.8868 -2.8509 0.9462
-10.5904 8.3632 -2.8449 0.9463
-13.0644 5.5398 -2.9916 0.9436
-13.5012 4.3536 -2.9906 0.9437
-14.1595 0.6314 -2.9881 0.9437
-14.1562 -0.6312 -2.9874 0.9437
-13.4794 -4.3465 -2.9858 0.9437
-12.4930 -6.6665 -2.9853 0.9438
-10.9182 -8.6221 -2.9330 0.9447
-9.7677 -9.2382 -2.8344 0.9465
-6.9919 -11.5101 -2.8392 0.9464
-5.9255 -12.0579 -2.8324 0.9466
-4.8196 -12.5138 -2.8271 0.9467
-3.2821 -11.4782 -2.5168 0.9524
-0.1481 -13.2974 -2.8035 0.9471
2.3150 -13.7243 -2.9342 0.9447
3.5306 -13.4761 -2.9369 0.9446
5.8749 -12.6601 -2.9424 0.9445
6.9858 -12.0997 -2.9455 0.9445
8.0441 -11.4428 -2.9488 0.9444
9.0414 -10.6942 -2.9523 0.9444
11.5905 -7.9564 -2.9638 0.9441
12.2693 -6.9026 -2.9679 0.9441
12.8527 -5.7912 -2.9720 0.9440
14.1714 0.3158 -2.9883 0.9437
14.1033 1.5777 -2.9918 0.9436
13.9231 2.8300 -2.9953 0.9436
8.1768 3.2543 -1.8553 0.9647
12.1091 7.5416 -3.0075 0.9434
10.5961 9.5836 -3.0120 0.9433
8.7280 11.3092 -3.0117 0.9433
7.6858 12.0396 -3.0113 0.9433
6.5826 12.6737 -3.0108 0.9433
2.9983 13.9530 -3.0087 0.9433
1.6554 13.4408 -2.8550 0.9461
0.4530 13.5481 -2.8578 0.9461
-1.9550 13.4046 -2.8559 0.9461
-4.2980 12.8373 -2.8540 0.9462
-5.4217 12.3999 -2.8531 0.9462
-6.5018 11.8643 -2.8522 0.9462
-10.9450 7.8777 -2.8429 0.9464
-12.2160 7.2356 -2.9932 0.9436
-13.2960 4.9515 -2.9911 0.9437
-13.9546 2.5140 -2.9893 0.9437
-14.1191 1.2617 -2.9884 0.9437
-13.0936 0.0000 -2.9885 0.9477
-12.8813 -2.3207 -2.9874 0.9477
-12.2626 -4.5666 -2.9866 0.9477
-11.2572 -6.6676 -2.9863 0.9477
-10.6189 -7.6430 -2.9862 0.9477
-9.8966 -8.5579 -2.9863 0.9477
-7.8091 -9.6655 -2.8361 0.9503
-6.9223 -10.3287 -2.8379 0.9503
-4.9867 -11.4050 -2.8411 0.9502
-3.9531 -11.8073 -2.8420 0.9502
-2.8872 -12.1151 -2.8426 0.9502
-1.7970 -12.3214 -2.8420 0.9502
-0.6928 -12.4246 -2.8402 0.9502
2.7043 -12.5849 -2.9380 0.9486
3.8164 -12.3030 -2.9401 0.9485
4.9013 -11.9267 -2.9431 0.9485
6.9525 -10.8908 -2.9491 0.9484
8.7926 -9.5065 -2.9556 0.9483
9.6152 -8.6964 -2.9591 0.9482
11.6102 -5.8669 -2.9691 0.9480
12.0956 -4.8139 -2.9714 0.9480
12.7879 -2.5993 -2.9784 0.9479
13.0761 -0.2914 -2.9853 0.9478
11.9875 5.4013 -3.0010 0.9475
11.4691 6.4524 -3.0036 0.9474
10.1584 8.3961 -3.0080 0.9474
8.5166 10.0736 -3.0108 0.9473
7.5854 10.7904 -3.0105 0.9473
6.5940 11.4212 -3.0101 0.9473
5.5504 11.9607 -3.0096 0.9473
4.4629 12.4048 -3.0090 0.9473
3.3403 12.7500 -3.0083 0.9474
1.5742 9.3325 -2.1602 0.9619
-0.1394 12.5169 -2.8571 0.9499
-2.3551 12.2863 -2.8553 0.9500
-4.4935 11.6671 -2.8536 0.9500
-5.5125 11.2176 -2.8528 0.9500
-6.4871 10.6793 -2.8519 0.9500
-7.4098 10.0567 -2.8511 0.9500
-9.0630 8.5718 -2.8472 0.9501
-9.7779 7.7216 -2.8437 0.9502
-11.5696 6.1738 -2.9931 0.9476
-12.0693 5.1179 -2.9922 0.9476
-12.7779 2.8951 -2.9904 0.9477
-12.9814 1.7458 -2.9896 0.9477
-13.0793 -0.5832 -2.9882 0.9477
-12.9730 -1.7447 -2.9877 0.9477
-12.7642 -2.8920 -2.9872 0.9477
-12.4545 -4.0161 -2.9868 0.9477
-10.9489 -7.1624 -2.9862 0.9477
-3.2822 -11.4784 -2.7249 0.9522
-2.3447 -12.2322 -2.8428 0.9502
1.0061 -12.8759 -2.9478 0.9484
2.1404 -12.6890 -2.9371 0.9486
5.4307 -11.7028 -2.9447 0.9484
9.2128 -9.1107 -2.9573 0.9482
9.9991 -8.2645 -2.9609 0.9482
11.8649 -5.3461 -2.9703 0.9480
12.8985 -2.0282 -2.9802 0.9478
13.0201 1.4565 -2.9903 0.9477
12.2105 4.8597 -2.9996 0.9475
11.1748 6.9597 -3.0048 0.9474
9.7773 8.8431 -3.0090 0.9473
8.9564 9.6836 -3.0106 0.9473
8.0591 10.4424 -3.0107 0.9473
7.0968 11.1169 -3.0103 0.9473
6.0782 11.7026 -3.0098 0.9473
5.0116 12.1950 -3.0093 0.9473
3.9054 12.5900 -3.0087 0.9474
2.7687 12.8845 -3.0079 0.9474
0.4178 12.4951 -2.8535 0.9500
-6.0058 10.9593 -2.8524 0.9500
-6.9554 10.3783 -2.8515 0.9500
-7.8494 9.7153 -2.8507 0.9500
-8.6774 8.9723 -2.8489 0.9501
-11.2850 6.6841 -2.9936 0.9476
-12.6380 3.4619 -2.9908 0.9477
-12.8924 2.3227 -2.9900 0.9477
-12.1614 0.0000 -2.9893 0.9511
-11.9645 -2.1555 -2.9882 0.9512
-11.7236 -3.2114 -2.9878 0.9512
-11.3900 -4.2417 -2.9875 0.9512
-10.9666 -5.2382 -2.9873 0.9512
-9.8633 -7.0992 -2.9871 0.9512
-7.3245 -9.0657 -2.8648 0.9531
-6.4248 -9.5865 -2.8366 0.9536
-5.5490 -10.1257 -2.8381 0.9536
-3.6692 -10.9592 -2.8407 0.9535
-0.6432 -11.5348 -2.8397 0.9535
0.4068 -12.1665 -2.9922 0.9511
4.5533 -11.0798 -2.9444 0.9519
6.4568 -10.1144 -2.9495 0.9518
7.3394 -9.5099 -2.9527 0.9517
8.1654 -8.8283 -2.9559 0.9517
8.9278 -8.0747 -2.9589 0.9516
10.2381 -6.3763 -2.9647 0.9515
10.7769 -5.4458 -2.9680 0.9515
11.2313 -4.4700 -2.9713 0.9514
11.8721 -2.4131 -2.9778 0.9513
12.0528 -1.3483 -2.9810 0.9513
12.1380 -0.2704 -2.9842 0.9512
12.0189 1.8899 -2.9906 0.9511
10.0742 6.9156 -3.0035 0.9509
9.4248 7.7898 -3.0055 0.9509
7.0416 10.0169 -3.0096 0.9508
5.1526 11.1036 -3.0088 0.9508
3.1010 11.8366 -3.0076 0.9508
-0.1295 11.6226 -2.8570 0.9533
-3.1927 11.1655 -2.8545 0.9533
-4.1726 10.8340 -2.8537 0.9533
-6.0242 9.9171 -2.8521 0.9533
-6.8811 9.3391 -2.8514 0.9533
-7.6789 8.6826 -2.8491 0.9534
-8.4119 7.9560 -2.8460 0.9534
-9.1154 7.1984 -2.8550 0.9533
-10.7447 5.7335 -2.9935 0.9511
-11.5842 3.7354 -2.9918 0.9511
-12.0568 1.6215 -2.9902 0.9511
-12.1505 0.5418 -2.9896 0.9511
-12.0495 -1.6205 -2.9884 0.9512
-11.8557 -2.6862 -2.9880 0.9512
-11.5682 -3.7303 -2.9876 0.9512
-11.1893 -4.7446 -2.9874 0.9512
-10.1698 -6.6528 -2.9871 0.9512
-7.9391 -8.9769 -2.9457 0.9518
-6.8435 -9.2881 -2.8358 0.9536
-5.9930 -9.8659 -2.8374 0.9536
-5.0938 -10.3654 -2.8388 0.9535
-4.1529 -10.7826 -2.8401 0.9535
-3.1779 -11.1138 -2.8413 0.9535
0.9418 -12.0531 -2.9717 0.9514
1.9902 -11.7991 -2.9412 0.9519
3.0327 -11.5757 -2.9413 0.9519
5.0444 -10.8704 -2.9456 0.9518
5.9971 -10.3872 -2.9482 0.9518
6.9046 -9.8220 -2.9511 0.9517
9.2829 -7.6729 -2.9603 0.9516
9.9384 -6.8223 -2.9631 0.9516
10.5178 -5.9172 -2.9663 0.9515
11.4256 -3.9674 -2.9729 0.9514
11.7464 -2.9379 -2.9762 0.9513
11.9743 -1.8829 -2.9794 0.9513
12.1073 -0.8105 -2.9826 0.9512
12.1445 0.2706 -2.9859 0.9512
12.0850 1.3519 -2.9890 0.9511
11.6769 3.4801 -2.9949 0.9511
11.3311 4.5097 -2.9977 0.9510
10.8939 5.5049 -3.0002 0.9510
9.7594 7.3600 -3.0045 0.9509
9.0711 8.2043 -3.0064 0.9509
8.3151 8.9902 -3.0101 0.9508
6.5880 10.3200 -3.0095 0.9508
4.6524 11.3211 -3.0085 0.9508
3.6256 11.6879 -3.0079 0.9508
2.4397 11.3537 -2.8544 0.9533
1.4192 11.5230 -2.8537 0.9533
0.3878 11.6005 -2.8530 0.9533
-0.6470 11.6034 -2.8565 0.9533
-2.6925 11.2982 -2.8549 0.9533
-3.6864 11.0107 -2.8541 0.9533
-4.6505 10.6359 -2.8533 0.9533
-6.4591 9.6377 -2.8517 0.9533
-7.2883 9.0209 -2.8506 0.9534
-8.0536 8.3274 -2.8475 0.9534
-8.7531 7.5691 -2.8443 0.9535
-10.9877 5.2484 -2.9931 0.9511
-11.9740 2.1572 -2.9906 0.9511
-12.1157 1.0827 -2.9899 0.9511
-11.2998 -1.0097 -2.9894 0.9542
-10.9387 -2.9964 -2.9885 0.9542
-10.6276 -3.9577 -2.9882 0.9542
-10.2324 -4.8876 -2.9880 0.9542
-9.2031 -6.6240 -2.9879 0.9542
-8.5772 -7.4170 -2.9879 0.9542
-6.1626 -9.1953 -2.9168 0.9552
-4.3151 -9.8688 -2.8382 0.9564
-2.4985 -10.4843 -2.8400 0.9564
-1.5554 -10.6643 -2.8398 0.9564
-0.6157 -11.0419 -2.9141 0.9553
1.3750 -11.1640 -2.9640 0.9545
2.3461 -10.9181 -2.9426 0.9549
3.3105 -10.6721 -2.9443 0.9548
4.2501 -10.3419 -2.9462 0.9548
5.1575 -9.9299 -2.9484 0.9548
7.6178 -8.2362 -2.9562 0.9547
11.3085 0.7570 -2.9865 0.9542
11.2071 1.7623 -2.9893 0.9542
11.0159 2.7553 -2.9921 0.9541
10.7363 3.7281 -2.9947 0.9541
9.9207 5.5813 -2.9994 0.9540
8.1206 8.0306 -3.0094 0.9539
4.8054 10.3553 -3.0081 0.9539
3.8640 10.7401 -3.0076 0.9539
2.8921 11.0392 -3.0070 0.9539
0.8435 10.7940 -2.8529 0.9562
-2.0399 10.6419 -2.8552 0.9562
-2.9782 10.4154 -2.8545 0.9562
-3.8924 10.1064 -2.8537 0.9562
-4.7753 9.7174 -2.8530 0.9562
-6.4170 8.7093 -2.8505 0.9562
-7.8439 7.4187 -2.8449 0.9563
-8.9222 7.0458 -2.9957 0.9541
-10.4574 4.4344 -2.9930 0.9541
-11.0723 2.5087 -2.9915 0.9541
-11.3366 0.5055 -2.9902 0.9541
-11.3345 -0.5054 -2.9896 0.9542
-11.0620 -2.5063 -2.9887 0.9542
-10.0043 -5.3384 -2.9880 0.9542
-8.8990 -7.0274 -2.9879 0.9542
-7.5127 -8.4946 -2.9881 0.9542
-6.7170 -9.1164 -2.9838 0.9542
-4.7494 -9.6647 -2.8375 0.9564
-3.8720 -10.0533 -2.8387 0.9564
-2.0290 -10.5852 -2.8400 0.9564
-1.0786 -10.7218 -2.8395 0.9564
-0.1265 -11.3551 -2.9922 0.9541
0.8844 -11.3182 -2.9914 0.9541
1.8621 -11.0392 -2.9499 0.9547
2.8310 -10.8058 -2.9434 0.9548
4.7082 -10.1460 -2.9473 0.9548
5.5970 -9.6942 -2.9496 0.9548
6.4431 -9.1655 -2.9521 0.9547
9.8120 -5.5202 -2.9666 0.9545
10.6574 -3.7006 -2.9727 0.9544
10.9558 -2.7402 -2.9758 0.9544
11.2914 -0.7558 -2.9819 0.9543
11.3253 0.2524 -2.9850 0.9542
11.2690 1.2607 -2.9879 0.9542
11.1226 2.2608 -2.9907 0.9541
10.8870 3.2447 -2.9934 0.9541
8.4553 7.6474 -3.0041 0.9539
7.7546 8.3841 -3.0093 0.9539
6.9770 9.0404 -3.0091 0.9539
6.1440 9.6245 -3.0087 0.9539
4.3390 10.5582 -3.0079 0.9539
0.3617 10.8195 -2.8525 0.9562
-3.4388 10.2711 -2.8541 0.9562
-4.3382 9.9217 -2.8534 0.9562
-6.0255 8.9907 -2.8519 0.9562
-6.7953 8.4107 -2.8492 0.9563
-7.5095 7.7647 -2.8463 0.9563
-8.1973 7.0884 -2.8556 0.9562
-10.2509 4.8965 -2.9934 0.9541
-10.6286 0.0000 -2.9904 0.9568
-10.5847 -0.9458 -2.9899 0.9568
-10.4571 -1.8839 -2.9895 0.9568
-10.2467 -2.8068 -2.9892 0.9568
-9.9553 -3.7074 -2.9889 0.9568
-9.1393 -5.4132 -2.9886 0.9568
-8.6211 -6.2050 -2.9885 0.9568
-8.0347 -6.9478 -2.9886 0.9568
-7.3847 -7.6357 -2.9887 0.9568
-5.1018 -9.3096 -2.9868 0.9568
-3.2056 -9.5746 -2.8409 0.9589
1.2980 -10.5389 -2.9876 0.9568
3.1023 -10.0009 -2.9461 0.9574
6.4157 -8.3131 -2.9545 0.9573
7.1364 -7.7158 -2.9571 0.9573
8.4068 -6.3399 -2.9625 0.9572
8.9462 -5.5718 -2.9653 0.9572
10.1300 -3.0190 -2.9740 0.9570
10.4921 1.6498 -2.9883 0.9568
10.3125 2.5793 -2.9909 0.9568
7.6035 7.5193 -3.0087 0.9565
5.3454 9.2585 -3.0079 0.9565
2.7081 10.3368 -3.0065 0.9566
0.7908 10.1200 -2.8560 0.9587
-1.0160 10.0996 -2.8559 0.9587
-1.9104 9.9664 -2.8551 0.9587
-3.6454 9.4652 -2.8538 0.9587
-5.2620 8.6624 -2.8517 0.9588
-6.0069 8.1527 -2.8492 0.9588
-8.9081 5.8274 -2.9950 0.9567
-9.3889 5.0101 -2.9942 0.9567
-10.1232 3.2643 -2.9926 0.9568
-10.3711 2.3498 -2.9919 0.9568
-10.5368 1.4171 -2.9913 0.9568
-10.6191 0.4735 -2.9907 0.9568
-10.6172 -0.4734 -2.9902 0.9568
-10.5313 -1.4163 -2.9897 0.9568
-10.1110 -3.2604 -2.9890 0.9568
-9.7799 -4.1470 -2.9888 0.9568
-9.3714 -5.0008 -2.9886 0.9568
-8.3361 -6.5829 -2.9886 0.9568
-7.7173 -7.2990 -2.9886 0.9568
-7.0374 -7.9573 -2.9888 0.9568
-6.3018 -8.5528 -2.9890 0.9568
-5.5161 -9.0807 -2.9893 0.9568
-4.6082 -9.3775 -2.9398 0.9575
-1.9085 -9.9563 -2.8523 0.9588
-0.1185 -10.6359 -2.9927 0.9568
1.7499 -10.3741 -2.9600 0.9572
2.6530 -10.1263 -2.9453 0.9574
6.7826 -8.0225 -2.9558 0.9573
8.1122 -6.7049 -2.9611 0.9572
9.1900 -5.1702 -2.9668 0.9571
10.2595 -2.5661 -2.9755 0.9570
10.5727 -0.7077 -2.9813 0.9569
10.6038 0.2363 -2.9842 0.9569
10.1916 3.0374 -2.9921 0.9568
9.8886 3.9356 -2.9945 0.9567
7.2608 7.8503 -3.0086 0.9565
6.5328 8.4648 -3.0084 0.9565
5.7529 9.0117 -3.0081 0.9565
4.9273 9.4868 -3.0077 0.9566
4.0628 9.8862 -3.0073 0.9566
3.1662 10.2069 -3.0068 0.9566
2.1307 9.9153 -2.8534 0.9587
-0.5652 10.1365 -2.8564 0.9587
-1.4647 10.0429 -2.8555 0.9587
-3.2206 9.6193 -2.8541 0.9587
-4.0630 9.2923 -2.8534 0.9587
-4.8727 8.8917 -2.8527 0.9587
-6.3613 7.8735 -2.8479 0.9588
-9.6014 4.5862 -2.9938 0.9567
-9.9690 3.7125 -2.9930 0.9568
-10.2573 2.8098 -2.9923 0.9568
-10.4644 1.8852 -2.9916 0.9568
-10.5884 0.9462 -2.9910 0.9568
-9.9904 0.0000 -2.9909 0.9591
-9.9492 -0.8891 -2.9905 0.9592
-9.8293 -1.7708 -2.9901 0.9592
-9.3578 -3.4848 -2.9895 0.9592
-9.0099 -4.3036 -2.9893 0.9592
-8.1037 -5.8327 -2.9892 0.9592
-5.5597 -8.2957 -2.9897 0.9592
-4.0018 -9.1522 -2.9905 0.9592
-2.3164 -9.7200 -2.9915 0.9591
2.0758 -9.6598 -2.9580 0.9596
2.9171 -9.4039 -2.9477 0.9597
4.5438 -8.7483 -2.9513 0.9597
5.3081 -8.3150 -2.9534 0.9596
6.0317 -7.8154 -2.9556 0.9596
7.9020 -5.9592 -2.9630 0.9595
8.4086 -5.2369 -2.9657 0.9595
9.5198 -2.8372 -2.9739 0.9594
9.8904 -1.1064 -2.9795 0.9593
9.9477 0.6659 -2.9848 0.9592
9.8573 1.5500 -2.9873 0.9592
9.4412 3.2784 -2.9921 0.9591
8.2559 5.6674 -2.9980 0.9590
7.1443 7.0651 -3.0081 0.9589
5.7776 8.2188 -3.0077 0.9589
5.0226 8.6995 -3.0074 0.9589
3.3997 9.4495 -3.0065 0.9589
2.5447 9.7130 -3.0060 0.9589
1.5741 9.3320 -2.8333 0.9613
-0.9548 9.4914 -2.8559 0.9610
-4.2022 8.5511 -2.8525 0.9610
-8.3724 5.4770 -2.9952 0.9591
-8.8244 4.7089 -2.9944 0.9591
-9.2062 3.9038 -2.9937 0.9591
-9.5149 3.0682 -2.9930 0.9591
-9.7481 2.2086 -2.9923 0.9591
-9.9039 1.3320 -2.9917 0.9591
-9.9813 0.4451 -2.9912 0.9591
-9.1929 -3.8981 -2.9894 0.9592
-8.8090 -4.7006 -2.9892 0.9592
-8.3555 -5.4659 -2.9892 0.9592
-7.2541 -6.8609 -2.9892 0.9592
-6.6150 -7.4797 -2.9894 0.9592
-3.5904 -9.3221 -2.9907 0.9591
-1.8813 -9.8144 -2.9917 0.9591
-1.0005 -9.9450 -2.9924 0.9591
4.9307 -8.5402 -2.9523 0.9597
5.6754 -8.0733 -2.9544 0.9596
6.3764 -7.5420 -2.9567 0.9596
7.0281 -6.9502 -2.9592 0.9596
8.1632 -5.6037 -2.9643 0.9595
9.0440 -4.0750 -2.9698 0.9594
9.3796 -3.2570 -2.9725 0.9594
9.6413 -2.4114 -2.9753 0.9594
9.8268 -1.5452 -2.9781 0.9593
9.9344 -0.6650 -2.9808 0.9593
9.9124 1.1089 -2.9861 0.9592
9.7825 1.9884 -2.9886 0.9592
9.2892 3.6970 -2.9932 0.9591
8.4977 5.2924 -2.9971 0.9591
6.8223 7.3762 -3.0080 0.9589
6.1383 7.9536 -3.0078 0.9589
4.6298 8.9140 -3.0072 0.9589
2.9751 9.5908 -3.0063 0.9589
1.1654 9.4628 -2.8544 0.9610
-1.3765 9.4381 -2.8555 0.9610
-3.0267 9.0402 -2.8541 0.9610
-4.5772 8.3524 -2.8514 0.9610
-5.9760 7.3966 -2.8468 0.9611
-7.5708 6.5467 -2.9964 0.9591
-8.1212 5.8453 -2.9956 0.9591
-8.6070 5.0979 -2.9948 0.9591
-9.3699 3.4894 -2.9933 0.9591
-9.6410 2.6410 -2.9927 0.9591
-9.3804 -0.8382 -2.9909 0.9612
-9.2674 -1.6696 -2.9906 0.9613
-8.8229 -3.2857 -2.9900 0.9613
-8.4949 -4.0577 -2.9898 0.9613
-7.6406 -5.4993 -2.9897 0.9613
-7.1208 -6.1576 -2.9897 0.9613
-6.5447 -6.7672 -2.9898 0.9613
-4.5254 -8.2579 -2.9906 0.9613
-3.7730 -8.6290 -2.9909 0.9612
-2.1839 -9.1641 -2.9919 0.9612
-1.3599 -9.3238 -2.9924 0.9612
-0.5247 -9.4097 -2.9930 0.9612
0.3150 -9.4211 -2.9937 0.9612
1.1525 -9.3578 -2.9943 0.9612
1.9698 -9.1667 -2.9777 0.9614
3.5316 -8.5937 -2.9507 0.9618
5.0057 -7.8413 -2.9545 0.9617
6.3260 -6.8396 -2.9588 0.9617
6.9151 -6.2543 -2.9611 0.9616
8.3429 -4.2158 -2.9686 0.9615
8.6926 -3.4596 -2.9712 0.9615
8.9739 -2.6745 -2.9739 0.9615
9.3223 -1.0428 -2.9791 0.9614
9.3861 -0.2091 -2.9816 0.9614
9.3753 0.6276 -2.9841 0.9613
9.1297 2.2835 -2.9888 0.9613
8.8967 3.0893 -2.9909 0.9612
7.7789 5.3399 -2.9965 0.9612
7.2997 6.0334 -3.0076 0.9610
6.1138 7.2315 -3.0074 0.9610
5.4455 7.7463 -3.0072 0.9610
4.7339 8.1995 -3.0069 0.9610
3.9849 8.5872 -3.0065 0.9610
3.2043 8.9066 -3.0061 0.9611
0.7001 8.9596 -2.8541 0.9630
-0.1002 8.9897 -2.8552 0.9630
-0.9001 8.9470 -2.8558 0.9630
-1.6924 8.8293 -2.8551 0.9630
-2.4710 8.6417 -2.8544 0.9630
-5.3175 7.2170 -2.8470 0.9631
-6.0313 6.8197 -2.8913 0.9625
-8.9705 2.8926 -2.9933 0.9612
-9.1904 2.0823 -2.9927 0.9612
-9.4091 -0.4196 -2.9911 0.9612
-7.8780 -5.1535 -2.9897 0.9613
-5.5849 -7.5799 -2.9901 0.9613
-4.8885 -8.0476 -2.9904 0.9613
-4.1534 -8.4518 -2.9907 0.9612
-0.9432 -9.3760 -2.9927 0.9612
-0.1050 -9.4247 -2.9933 0.9612
0.7344 -9.3987 -2.9940 0.9612
2.3607 -9.0106 -2.9582 0.9617
3.1444 -8.7401 -2.9499 0.9618
3.9121 -8.4304 -2.9516 0.9617
5.3519 -7.6132 -2.9555 0.9617
6.0127 -7.1118 -2.9576 0.9617
7.1897 -5.9425 -2.9623 0.9616
8.5261 -3.8417 -2.9699 0.9615
8.8420 -3.0703 -2.9726 0.9615
9.0882 -2.2731 -2.9752 0.9614
9.3635 -0.6268 -2.9804 0.9614
9.3418 1.0450 -2.9853 0.9613
9.2189 1.8738 -2.9877 0.9613
8.0068 4.9867 -2.9957 0.9612
7.5352 5.6826 -2.9973 0.9612
5.0948 7.9808 -3.0070 0.9610
4.3637 8.4017 -3.0067 0.9610
2.8042 9.0397 -3.0058 0.9611
1.9185 8.9279 -2.9001 0.9624
1.0983 8.9175 -2.8535 0.9630
-1.2976 8.8971 -2.8555 0.9630
-2.0838 8.7441 -2.8548 0.9630
-4.3130 7.8702 -2.8501 0.9630
-4.9927 7.4496 -2.8481 0.9631
-5.6315 6.9702 -2.8458 0.9631
-7.1371 6.1717 -2.9966 0.9612
-8.5077 4.0638 -2.9943 0.9612
-8.8337 3.2897 -2.9936 0.9612
-8.9046 0.0000 -2.9918 0.9631
-8.7612 -1.5784 -2.9910 0.9631
-8.5851 -2.3517 -2.9907 0.9631
-8.3411 -3.1062 -2.9905 0.9631
-8.0311 -3.8361 -2.9903 0.9631
-7.6575 -4.5355 -2.9902 0.9631
-6.7320 -5.8214 -2.9902 0.9631
-5.5937 -6.9234 -2.9905 0.9631
-3.5669 -8.1576 -2.9914 0.9631
-0.4960 -8.8954 -2.9933 0.9631
2.6096 -8.4125 -2.9593 0.9635
4.0520 -7.8014 -2.9536 0.9636
4.7332 -7.4144 -2.9554 0.9636
5.3780 -6.9684 -2.9574 0.9635
7.4945 -4.6676 -2.9664 0.9634
7.8866 -3.9853 -2.9689 0.9634
8.4824 -2.5280 -2.9738 0.9633
8.6809 -1.7645 -2.9763 0.9633
8.8707 -0.1977 -2.9811 0.9633
8.8601 0.5931 -2.9835 0.9632
8.6273 2.1578 -2.9879 0.9632
8.1187 3.6581 -2.9919 0.9631
6.8989 5.7021 -3.0071 0.9629
5.1465 7.3210 -3.0067 0.9629
4.4740 7.7493 -3.0064 0.9629
3.7661 8.1158 -3.0061 0.9629
3.0284 8.4177 -3.0057 0.9630
2.2669 8.6525 -3.0052 0.9630
1.4119 8.3703 -2.8520 0.9648
0.6615 8.4658 -2.8530 0.9648
-0.0946 8.4936 -2.8539 0.9648
-0.8504 8.4529 -2.8544 0.9648
-3.0505 7.9205 -2.8517 0.9648
-3.7411 7.6129 -2.8499 0.9648
-5.9109 6.6836 -2.9978 0.9630
-7.4613 4.8809 -2.9956 0.9631
-7.8643 4.1965 -2.9949 0.9631
-8.4801 2.7345 -2.9936 0.9631
-8.6881 1.9685 -2.9930 0.9631
-8.8272 1.1872 -2.9925 0.9631
-8.8964 0.3967 -2.9920 0.9631
-8.8234 -1.1866 -2.9912 0.9631
-8.6818 -1.9670 -2.9908 0.9631
-8.1942 -3.4746 -2.9904 0.9631
-6.4661 -6.1156 -2.9903 0.9631
-4.6216 -7.6081 -2.9909 0.9631
-3.2001 -8.3090 -2.9916 0.9631
-2.4483 -8.5621 -2.9920 0.9631
-1.6768 -8.7474 -2.9925 0.9631
-0.8917 -8.8636 -2.9930 0.9631
-0.0993 -8.9095 -2.9936 0.9631
0.6943 -8.8848 -2.9943 0.9631
1.4826 -8.7897 -2.9949 0.9631
3.6993 -7.9718 -2.9527 0.9636
4.3968 -7.6155 -2.9545 0.9636
5.6850 -6.7243 -2.9585 0.9635
6.7973 -5.6181 -2.9629 0.9635
7.2762 -4.9948 -2.9652 0.9634
8.3579 -2.9021 -2.9726 0.9634
8.5901 -2.1485 -2.9750 0.9633
8.7545 -1.3766 -2.9775 0.9633
8.8495 -0.5924 -2.9799 0.9633
8.8742 0.1978 -2.9823 0.9632
8.8282 0.9876 -2.9846 0.9632
8.7117 1.7708 -2.9868 0.9632
8.5256 2.5409 -2.9889 0.9632
8.2710 3.2918 -2.9909 0.9631
6.6379 6.0037 -3.0071 0.9629
5.4677 7.0848 -3.0068 0.9629
4.8151 7.5427 -3.0066 0.9629
3.4006 8.2750 -3.0059 0.9630
1.8790 8.7442 -3.0050 0.9630
1.0378 8.4263 -2.8525 0.9648
-0.4729 8.4818 -2.8542 0.9648
-2.6954 8.0508 -2.8525 0.9648
-3.3993 7.7744 -2.8508 0.9648
-4.0752 7.4363 -2.8490 0.9649
-6.2021 6.4129 -2.9974 0.9631
-6.7466 5.8340 -2.9967 0.9631
-8.3508 3.1099 -2.9939 0.9631
-8.5926 2.3538 -2.9933 0.9631
-8.7664 1.5793 -2.9928 0.9631
-8.4038 -0.7509 -2.9917 0.9648
-7.9046 -2.9437 -2.9909 0.9648
-7.6108 -3.6354 -2.9908 0.9648
-7.2568 -4.2982 -2.9907 0.9648
-6.8454 -4.9270 -2.9906 0.9648
-5.8636 -6.0629 -2.9908 0.9648
-4.6963 -7.0074 -2.9911 0.9648
-2.6790 -8.0018 -2.9921 0.9648
-1.9565 -8.2097 -2.9926 0.9648
-1.2182 -8.3526 -2.9931 0.9648
1.7748 -8.2591 -2.9954 0.9648
3.1693 -7.7120 -2.9565 0.9652
4.4862 -7.0276 -2.9563 0.9652
5.0972 -6.6046 -2.9582 0.9652
5.6686 -6.1288 -2.9602 0.9652
7.1020 -4.4232 -2.9668 0.9651
7.4733 -3.7764 -2.9691 0.9651
7.7859 -3.0987 -2.9714 0.9651
8.0372 -2.3953 -2.9737 0.9650
8.2249 -1.6718 -2.9761 0.9650
8.3936 0.5619 -2.9829 0.9649
8.3162 1.3077 -2.9851 0.9649
8.1724 2.0441 -2.9871 0.9649
7.9632 2.7651 -2.9890 0.9649
7.6902 3.4650 -2.9908 0.9648
7.3553 4.1380 -2.9925 0.9648
6.9827 4.7933 -3.0032 0.9647
6.5359 5.4021 -3.0067 0.9647
6.0290 5.9622 -3.0066 0.9647
4.8758 6.9359 -3.0063 0.9647
2.1477 8.1976 -3.0049 0.9647
1.3674 8.1067 -2.9151 0.9657
-1.5146 7.9017 -2.8528 0.9664
-2.2112 7.7331 -2.8520 0.9664
-2.8893 7.5019 -2.8505 0.9665
-4.1686 6.8624 -2.8471 0.9665
-5.6009 6.3331 -2.9978 0.9648
-6.1409 5.8080 -2.9971 0.9648
-6.6319 5.2372 -2.9964 0.9648
-7.0702 4.6251 -2.9958 0.9648
-7.4521 3.9766 -2.9951 0.9648
-7.7748 3.2968 -2.9945 0.9648
-8.2331 1.8654 -2.9933 0.9648
-8.4306 0.3760 -2.9923 0.9648
-8.3615 -1.1245 -2.9916 0.9648
-8.2274 -1.8641 -2.9913 0.9648
-8.0281 -2.5887 -2.9910 0.9648
-7.7654 -3.2928 -2.9908 0.9648
-7.4412 -3.9707 -2.9907 0.9648
-7.0581 -4.6172 -2.9906 0.9648
-6.6191 -5.2271 -2.9906 0.9648
-3.7210 -7.5719 -2.9916 0.9648
-3.0326 -7.8740 -2.9919 0.9648
-2.3201 -8.1138 -2.9924 0.9648
-0.8450 -8.3994 -2.9933 0.9648
1.4049 -8.3291 -2.9951 0.9648
2.1383 -8.1616 -2.9917 0.9648
2.8265 -7.8563 -2.9605 0.9652
3.5065 -7.5562 -2.9538 0.9653
4.1675 -7.2183 -2.9555 0.9652
5.9381 -5.8723 -2.9613 0.9652
6.4418 -5.3243 -2.9634 0.9652
6.8953 -4.7334 -2.9656 0.9651
7.2948 -4.1040 -2.9679 0.9651
7.6371 -3.4411 -2.9702 0.9651
7.9194 -2.7499 -2.9726 0.9650
8.1391 -2.0357 -2.9749 0.9650
8.3842 -0.5612 -2.9796 0.9650
8.3633 0.9356 -2.9840 0.9649
8.2526 1.6774 -2.9861 0.9649
7.5303 3.8053 -2.9917 0.9648
6.7701 5.1056 -3.0067 0.9647
6.2887 5.6878 -3.0067 0.9647
5.7573 6.2248 -3.0065 0.9647
4.5618 7.1459 -3.0061 0.9647
3.2218 7.8399 -3.0055 0.9647
-1.1612 7.9618 -2.8530 0.9664
-2.5529 7.6251 -2.8513 0.9664
-3.8600 7.0436 -2.8480 0.9665
-4.4691 6.6685 -2.8465 0.9665
-5.3138 6.5771 -2.9982 0.9648
-5.8768 6.0766 -2.9975 0.9648
-6.3928 5.5281 -2.9968 0.9648
-6.8579 4.9360 -2.9961 0.9648
-7.2684 4.3051 -2.9954 0.9648
-7.6211 3.6403 -2.9948 0.9648
-7.9132 2.9469 -2.9942 0.9648
-8.1425 2.2305 -2.9936 0.9648
-8.4061 0.7512 -2.9926 0.9648
-8.0138 0.0000 -2.9925 0.9664
-7.9810 -0.7132 -2.9921 0.9664
-7.2281 -3.4526 -2.9911 0.9664
-6.8919 -4.0821 -2.9911 0.9664
-5.5687 -5.7580 -2.9912 0.9664
-5.0344 -6.2311 -2.9913 0.9664
-3.2101 -7.3417 -2.9921 0.9664
-1.8580 -7.7966 -2.9929 0.9664
-1.1569 -7.9323 -2.9934 0.9664
1.6854 -7.8432 -2.9956 0.9663
2.3728 -7.6491 -2.9906 0.9664
3.0150 -7.3365 -2.9618 0.9667
3.6482 -7.0240 -2.9555 0.9668
4.2613 -6.6751 -2.9572 0.9668
4.8414 -6.2732 -2.9590 0.9667
5.3840 -5.8211 -2.9609 0.9667
6.3395 -4.7808 -2.9649 0.9667
6.7447 -4.2006 -2.9671 0.9666
7.0970 -3.5863 -2.9692 0.9666
7.8099 -1.5874 -2.9759 0.9665
7.9793 -0.1778 -2.9803 0.9665
7.9691 0.5335 -2.9824 0.9665
7.8953 1.2415 -2.9844 0.9665
7.7585 1.9406 -2.9864 0.9664
7.3002 3.2894 -2.9899 0.9664
5.7243 5.6609 -3.0062 0.9662
4.6294 6.5854 -3.0059 0.9662
2.7242 7.5722 -3.0050 0.9662
2.0392 7.7835 -3.0045 0.9662
0.5948 7.6116 -2.8509 0.9679
-0.0851 7.6361 -2.8516 0.9679
-1.4376 7.5001 -2.8516 0.9679
-2.7426 7.1210 -2.8495 0.9679
-3.3637 6.8449 -2.8479 0.9680
-4.7633 6.4649 -2.9986 0.9663
-5.3186 6.0139 -2.9979 0.9663
-6.2978 4.9734 -2.9965 0.9663
-6.7141 4.3922 -2.9959 0.9663
-7.3834 3.1309 -2.9947 0.9663
-7.8187 1.7715 -2.9936 0.9663
-7.9441 1.0684 -2.9931 0.9664
-7.6244 -2.4586 -2.9914 0.9664
-7.0670 -3.7711 -2.9911 0.9664
-6.7032 -4.3850 -2.9910 0.9664
-5.8196 -5.5041 -2.9911 0.9664
-5.3068 -6.0005 -2.9912 0.9664
-4.7520 -6.4494 -2.9914 0.9664
-4.1594 -6.8473 -2.9916 0.9664
-3.5338 -7.1910 -2.9919 0.9664
-1.5090 -7.8722 -2.9931 0.9664
2.0333 -7.7612 -2.9959 0.9663
2.6933 -7.4863 -2.9709 0.9666
3.3347 -7.1860 -2.9582 0.9667
4.5557 -6.4806 -2.9580 0.9667
5.1176 -6.0532 -2.9599 0.9667
6.5485 -4.4953 -2.9660 0.9667
7.5201 -2.6113 -2.9726 0.9666
7.7285 -1.9330 -2.9748 0.9666
7.9606 -0.5329 -2.9792 0.9665
7.9401 0.8883 -2.9834 0.9665
7.8348 1.5925 -2.9854 0.9664
7.6668 2.2850 -2.9873 0.9664
7.4374 2.9600 -2.9891 0.9664
7.1484 3.6123 -2.9907 0.9664
6.8185 4.2466 -2.9996 0.9663
3.7098 7.1428 -3.0055 0.9662
3.0590 7.4438 -3.0051 0.9662
2.3841 7.6855 -3.0048 0.9662
1.6903 7.8661 -3.0043 0.9662
0.2552 7.6315 -2.8513 0.9679
-0.4252 7.6252 -2.8518 0.9679
-1.7701 7.4277 -2.8512 0.9679
-3.0563 6.9899 -2.8487 0.9680
-3.6643 6.6864 -2.8471 0.9680
-5.0460 6.2456 -2.9982 0.9663
-6.5124 4.6874 -2.9962 0.9663
-7.2374 3.4570 -2.9950 0.9663
-7.9832 0.7134 -2.9929 0.9664
-7.6254 0.0000 -2.9928 0.9678
-7.5030 -1.3517 -2.9921 0.9678
-7.3523 -2.0140 -2.9919 0.9678
-7.1434 -2.6602 -2.9917 0.9678
-6.5580 -3.8843 -2.9914 0.9678
-6.1862 -4.4525 -2.9914 0.9678
-4.7905 -5.9292 -2.9917 0.9678
-4.2440 -6.3325 -2.9919 0.9678
-3.6638 -6.6857 -2.9921 0.9678
-1.7680 -7.4187 -2.9932 0.9678
-1.1008 -7.5477 -2.9936 0.9678
0.2550 -7.6259 -2.9946 0.9677
4.0553 -6.3526 -2.9579 0.9681
4.6073 -5.9698 -2.9596 0.9681
5.5998 -5.0647 -2.9633 0.9681
6.0324 -4.5492 -2.9653 0.9681
6.4177 -3.9970 -2.9673 0.9680
7.4302 -1.5102 -2.9758 0.9679
7.5404 -0.8435 -2.9779 0.9679
7.5809 0.5075 -2.9819 0.9679
7.5105 1.1810 -2.9839 0.9679
7.3801 1.8459 -2.9857 0.9678
7.1907 2.4969 -2.9875 0.9678
6.9437 3.1287 -2.9891 0.9678
5.4456 5.3853 -3.0058 0.9676
3.8287 6.6315 -3.0053 0.9676
3.2229 6.9452 -3.0050 0.9676
2.5917 7.2037 -3.0046 0.9676
1.9400 7.4048 -3.0043 0.9676
-0.0809 7.2625 -2.8505 0.9693
-0.7271 7.2270 -2.8507 0.9693
-1.3673 7.1329 -2.8504 0.9693
-3.1999 6.5113 -2.8474 0.9693
-5.0604 5.7219 -2.9979 0.9677
-5.5484 5.2477 -2.9973 0.9677
-6.3883 4.1790 -2.9960 0.9677
-6.7336 3.5932 -2.9954 0.9677
-7.2613 2.3415 -2.9943 0.9677
-7.4396 1.6856 -2.9938 0.9678
-7.6184 0.3397 -2.9930 0.9678
-7.6174 -0.3397 -2.9926 0.9678
-7.0176 -2.9757 -2.9916 0.9678
-6.7246 -3.5883 -2.9915 0.9678
-5.9817 -4.7237 -2.9914 0.9678
-5.0497 -5.7098 -2.9916 0.9678
-4.5217 -6.1369 -2.9917 0.9678
-3.9579 -6.5155 -2.9920 0.9678
-0.7635 -7.5899 -2.9938 0.9678
0.5945 -7.6076 -2.9949 0.9677
1.2695 -7.5260 -2.9955 0.9677
2.5791 -7.1686 -2.9900 0.9678
3.7673 -6.5251 -2.9571 0.9681
4.8702 -5.7604 -2.9605 0.9681
5.8218 -4.8118 -2.9643 0.9681
6.2312 -4.2774 -2.9663 0.9680
6.5917 -3.7084 -2.9684 0.9680
6.9005 -3.1092 -2.9705 0.9680
7.3529 -1.8391 -2.9747 0.9680
7.4927 -1.1782 -2.9768 0.9679
7.5731 -0.5069 -2.9789 0.9679
7.5934 0.1692 -2.9809 0.9679
7.0743 2.8155 -2.9883 0.9678
6.8002 3.4372 -2.9902 0.9678
6.1150 4.6116 -3.0059 0.9676
5.6802 5.1375 -3.0059 0.9676
4.6789 6.0627 -3.0056 0.9676
4.1204 6.4546 -3.0054 0.9676
2.9102 7.0815 -3.0048 0.9676
2.2681 7.3116 -3.0045 0.9676
0.9355 7.5957 -3.0036 0.9676
-0.4044 7.2521 -2.8507 0.9693
-1.0482 7.1873 -2.8506 0.9693
-1.6835 7.0642 -2.8501 0.9693
-3.5734 6.5205 -2.9182 0.9686
-4.2540 6.3474 -2.9989 0.9677
-4.8010 5.9423 -2.9982 0.9677
-5.3097 5.4902 -2.9976 0.9677
-6.1964 4.4599 -2.9963 0.9677
-6.8863 3.2893 -2.9952 0.9677
-7.5067 1.3524 -2.9936 0.9678
-7.5962 0.6788 -2.9932 0.9678
-7.2388 -0.6468 -2.9927 0.9691
-7.1519 -1.2884 -2.9924 0.9691
-7.0082 -1.9197 -2.9922 0.9691
-6.8091 -2.5357 -2.9920 0.9691
-6.5561 -3.1316 -2.9918 0.9691
-6.2512 -3.7026 -2.9918 0.9691
-5.8968 -4.2442 -2.9917 0.9691
-5.4957 -4.7523 -2.9918 0.9691
-4.5663 -5.6518 -2.9920 0.9691
-4.0454 -6.0362 -2.9922 0.9691
-3.4924 -6.3728 -2.9924 0.9691
0.2430 -7.2687 -2.9948 0.9690
0.8892 -7.2195 -2.9953 0.9690
2.1559 -6.9501 -2.9965 0.9690
3.8661 -6.0561 -2.9586 0.9694
4.3921 -5.6911 -2.9602 0.9694
4.8841 -5.2806 -2.9620 0.9694
6.1173 -3.8099 -2.9676 0.9693
6.7049 -2.6685 -2.9716 0.9693
6.9205 -2.0625 -2.9736 0.9692
7.1862 -0.8039 -2.9776 0.9692
7.1570 1.1254 -2.9833 0.9691
6.8519 2.3792 -2.9868 0.9691
6.0176 4.1309 -3.0056 0.9689
4.7121 5.5735 -3.0054 0.9689
4.1971 5.9705 -3.0052 0.9689
3.6488 6.3199 -3.0050 0.9689
3.0715 6.6189 -3.0047 0.9689
2.4699 6.8653 -3.0044 0.9689
1.2132 7.1925 -3.0036 0.9689
0.5681 7.2709 -3.0031 0.9689
-0.0774 6.9449 -2.8599 0.9704
-0.6927 6.8856 -2.8497 0.9705
-1.9019 6.6514 -2.8487 0.9705
-3.1766 6.4642 -2.9659 0.9693
-3.7813 6.2250 -2.9992 0.9690
-4.3195 5.8625 -2.9986 0.9690
-6.0890 3.9832 -2.9962 0.9690
-7.2617 0.3238 -2.9932 0.9690
-7.2025 -0.9686 -2.9925 0.9691
-7.0871 -1.6057 -2.9923 0.9691
-6.9155 -2.2300 -2.9921 0.9691
-6.6893 -2.8365 -2.9919 0.9691
-6.4100 -3.4205 -2.9918 0.9691
-6.0800 -3.9773 -2.9917 0.9691
-5.7019 -4.5027 -2.9917 0.9691
-5.2785 -4.9924 -2.9918 0.9691
-4.8134 -5.4426 -2.9919 0.9691
-3.7726 -6.2106 -2.9923 0.9691
0.5666 -7.2513 -2.9951 0.9690
1.2100 -7.1734 -2.9956 0.9690
1.8440 -7.0385 -2.9962 0.9690
2.4636 -6.8478 -2.9968 0.9690
3.0382 -6.5472 -2.9722 0.9693
3.5965 -6.2293 -2.9619 0.9694
4.1331 -5.8794 -2.9594 0.9694
4.6427 -5.4913 -2.9611 0.9694
5.1160 -5.0593 -2.9628 0.9694
6.2830 -3.5348 -2.9686 0.9693
7.1409 -1.1228 -2.9766 0.9692
7.2173 -0.4831 -2.9786 0.9692
7.1019 1.4435 -2.9842 0.9691
6.9492 2.0711 -2.9859 0.9691
6.7409 2.6828 -2.9875 0.9691
5.8276 4.3948 -3.0056 0.9689
4.9558 5.3582 -3.0054 0.9689
3.3634 6.4758 -3.0048 0.9689
2.7734 6.7488 -3.0045 0.9689
2.1615 6.9680 -3.0042 0.9689
1.5325 7.1318 -3.0038 0.9689
0.2380 7.1191 -2.9331 0.9697
-0.9987 6.8477 -2.8496 0.9705
-2.1959 6.5589 -2.8482 0.9705
-4.0545 6.0497 -2.9989 0.9690
-4.5759 5.6637 -2.9983 0.9690
-5.0608 5.2328 -2.9976 0.9690
-5.9061 4.2509 -2.9964 0.9690
-6.2598 3.7077 -2.9959 0.9690
-7.2406 0.6470 -2.9934 0.9690
-6.9392 0.0000 -2.9933 0.9702
-6.9109 -0.6175 -2.9930 0.9702
-6.8279 -1.2301 -2.9927 0.9702
-6.6908 -1.8328 -2.9925 0.9702
-6.5008 -2.4209 -2.9923 0.9702
-6.2592 -2.9898 -2.9922 0.9702
-5.2468 -4.5371 -2.9921 0.9702
-4.8222 -4.9862 -2.9922 0.9702
-4.3595 -5.3958 -2.9923 0.9702
-3.3342 -6.0842 -2.9927 0.9702
-2.7797 -6.3573 -2.9930 0.9702
-2.2031 -6.5802 -2.9933 0.9702
-1.0017 -6.8683 -2.9941 0.9702
2.0581 -6.6349 -2.9966 0.9702
3.6973 -5.7917 -2.9639 0.9705
4.1936 -5.4338 -2.9608 0.9705
5.0964 -4.6094 -2.9642 0.9705
5.8401 -3.6372 -2.9678 0.9705
6.4007 -2.5474 -2.9716 0.9704
6.6063 -1.9689 -2.9736 0.9704
6.7597 -1.3740 -2.9755 0.9704
6.8596 -0.7674 -2.9774 0.9704
6.8955 0.4616 -2.9811 0.9703
6.5396 2.2708 -2.9861 0.9703
6.3321 2.8531 -2.9959 0.9702
6.0720 3.4160 -3.0052 0.9701
5.7439 3.9430 -3.0053 0.9701
5.3701 4.4385 -3.0053 0.9701
4.9536 4.8988 -3.0052 0.9701
4.0062 5.6989 -3.0049 0.9701
3.4828 6.0324 -3.0047 0.9701
2.3576 6.5531 -3.0041 0.9701
1.7648 6.7362 -3.0037 0.9701
0.5423 6.9404 -3.0029 0.9701
-0.6700 6.6603 -2.8875 0.9713
-1.2465 6.5030 -2.8562 0.9716
-1.8316 6.4054 -2.8738 0.9714
-3.0671 6.2413 -2.9997 0.9702
-3.6097 5.9424 -2.9992 0.9702
-4.1235 5.5964 -2.9986 0.9702
-4.6043 5.2062 -2.9980 0.9702
-6.1271 3.2696 -2.9957 0.9702
-6.3927 2.7108 -2.9952 0.9702
-6.8762 -0.9248 -2.9928 0.9702
-6.7661 -1.5330 -2.9926 0.9702
-6.3863 -2.7080 -2.9922 0.9702
-6.1197 -3.2656 -2.9921 0.9702
-5.8047 -3.7972 -2.9921 0.9702
-5.0395 -4.7663 -2.9921 0.9702
-4.1149 -5.5848 -2.9924 0.9702
-1.3066 -6.8164 -2.9939 0.9702
-0.6948 -6.9066 -2.9943 0.9702
-0.0773 -6.9421 -2.9947 0.9702
1.1551 -6.8482 -2.9957 0.9702
2.3519 -6.5372 -2.9968 0.9702
2.9177 -6.2875 -2.9900 0.9703
4.4327 -5.2430 -2.9616 0.9705
4.8846 -4.8305 -2.9633 0.9705
5.2983 -4.3791 -2.9651 0.9705
5.9982 -3.3746 -2.9688 0.9705
6.2789 -2.8291 -2.9707 0.9704
6.6896 -1.6732 -2.9745 0.9704
6.7784 1.3778 -2.9837 0.9703
6.6325 1.9767 -2.9853 0.9703
6.4380 2.5623 -2.9890 0.9703
6.2180 3.1421 -3.0052 0.9701
5.9138 3.6832 -3.0053 0.9701
5.5625 4.1949 -3.0053 0.9701
4.7304 5.1145 -3.0051 0.9701
4.2562 5.5150 -3.0050 0.9701
2.6473 6.4419 -3.0043 0.9701
1.4629 6.8076 -3.0036 0.9701
0.2326 6.9571 -3.0027 0.9701
-0.9581 6.5692 -2.8637 0.9715
-2.7862 6.3724 -3.0000 0.9702
-5.6382 4.0581 -2.9965 0.9702
-6.5066 2.4231 -2.9950 0.9702
-6.6954 1.8341 -2.9945 0.9702
-6.8310 1.2307 -2.9941 0.9702
-6.6073 -0.5904 -2.9932 0.9713
-6.5280 -1.1760 -2.9930 0.9713
-6.3969 -1.7523 -2.9927 0.9713
-6.2152 -2.3146 -2.9926 0.9713
-5.9843 -2.8584 -2.9924 0.9713
-5.3825 -3.8741 -2.9923 0.9713
-5.0164 -4.3378 -2.9924 0.9713
-4.6105 -4.7672 -2.9924 0.9713
-3.1877 -5.8169 -2.9930 0.9713
-2.1063 -6.2911 -2.9935 0.9713
-0.9577 -6.5665 -2.9943 0.9713
0.8115 -6.5892 -2.9956 0.9713
1.3950 -6.4919 -2.9961 0.9713
1.9676 -6.3431 -2.9966 0.9713
2.5249 -6.1439 -2.9972 0.9713
3.0557 -5.8832 -2.9913 0.9713
3.5394 -5.5444 -2.9680 0.9715
4.4586 -4.8206 -2.9629 0.9716
4.8727 -4.4071 -2.9645 0.9716
5.5835 -3.4774 -2.9680 0.9715
5.8744 -2.9685 -2.9698 0.9715
6.1191 -2.4353 -2.9717 0.9715
6.3155 -1.8822 -2.9735 0.9715
6.4620 -1.3134 -2.9754 0.9715
6.5912 0.4413 -2.9807 0.9714
6.5294 1.0267 -2.9824 0.9714
6.2569 2.1727 -2.9886 0.9714
6.0716 2.7358 -3.0049 0.9712
5.4905 3.7691 -3.0050 0.9712
5.1333 4.2428 -3.0050 0.9712
4.7352 4.6827 -3.0049 0.9712
4.2994 5.0854 -3.0048 0.9712
3.8295 5.4476 -3.0046 0.9712
3.3292 5.7664 -3.0044 0.9712
2.8025 6.0393 -3.0042 0.9712
2.2537 6.2642 -3.0039 0.9712
1.6870 6.4392 -3.0035 0.9712
1.1070 6.5630 -3.0031 0.9712
0.5184 6.6345 -3.0027 0.9712
-0.0741 6.6533 -3.0023 0.9712
-0.6659 6.6193 -3.0018 0.9712
-1.2412 6.4750 -2.9748 0.9715
-2.3898 6.2050 -3.0002 0.9712
-3.4508 5.6808 -2.9991 0.9713
-4.4017 4.9771 -2.9980 0.9713
-4.8263 4.5647 -2.9975 0.9713
-5.5572 3.6354 -2.9964 0.9713
-6.1116 2.5916 -2.9954 0.9713
-6.3171 2.0370 -2.9949 0.9713
-6.5763 0.8844 -2.9941 0.9713
-6.6281 0.2956 -2.9937 0.9713
-6.6274 -0.2955 -2.9934 0.9713
-6.4689 -1.4656 -2.9928 0.9713
-6.3123 -2.0354 -2.9926 0.9713
-5.8509 -3.1221 -2.9924 0.9713
-5.5497 -3.6304 -2.9923 0.9713
-5.2046 -4.1100 -2.9923 0.9713
-4.8182 -4.5570 -2.9924 0.9713
-4.3936 -4.9679 -2.9925 0.9713
-3.9342 -5.3395 -2.9926 0.9713
-3.4436 -5.6689 -2.9928 0.9713
-2.3843 -6.1907 -2.9934 0.9713
-1.8241 -6.3790 -2.9937 0.9713
-1.2492 -6.5169 -2.9941 0.9713
-0.6643 -6.6031 -2.9945 0.9713
0.5172 -6.6182 -2.9954 0.9713
1.1043 -6.5470 -2.9959 0.9713
3.2985 -5.7132 -2.9767 0.9715
5.0657 -4.1869 -2.9654 0.9716
5.7346 -3.2262 -2.9689 0.9715
6.3951 -1.5995 -2.9744 0.9715
6.6024 0.1471 -2.9799 0.9714
6.5669 0.7346 -2.9816 0.9714
5.9438 3.0035 -3.0049 0.9712
5.3172 4.0099 -3.0050 0.9712
4.9391 4.4672 -3.0049 0.9712
4.5218 4.8889 -3.0049 0.9712
3.5829 5.6126 -3.0045 0.9712
1.9723 6.3580 -3.0037 0.9712
1.3984 6.5076 -3.0033 0.9712
0.8135 6.6053 -3.0029 0.9712
0.2224 6.6505 -3.0025 0.9712
-0.9547 6.5462 -2.9850 0.9714
-2.1112 6.3058 -3.0005 0.9712
-2.6636 6.0918 -3.0000 0.9712
-3.7001 5.5209 -2.9989 0.9713
-5.7131 3.3839 -2.9961 0.9713
-5.9906 2.8615 -2.9956 0.9713
-6.5308 1.1766 -2.9943 0.9713
-6.3511 0.0000 -2.9937 0.9723
-6.3252 -0.5652 -2.9934 0.9723
-5.7289 -2.7364 -2.9927 0.9723
-4.4137 -4.5637 -2.9927 0.9723
-3.5349 -5.2745 -2.9930 0.9723
-3.0517 -5.5685 -2.9932 0.9723
-0.3537 -6.3436 -2.9949 0.9723
0.7769 -6.3076 -2.9957 0.9723
1.3354 -6.2145 -2.9962 0.9723
2.9313 -5.6438 -2.9978 0.9723
3.8470 -4.9847 -2.9680 0.9725
4.2696 -4.6162 -2.9640 0.9726
5.0247 -3.7893 -2.9665 0.9726
5.6234 -2.8416 -2.9700 0.9725
5.8575 -2.3312 -2.9717 0.9725
6.0453 -1.8017 -2.9735 0.9725
6.3086 0.4223 -2.9804 0.9724
6.2493 0.9827 -2.9820 0.9724
6.1436 1.5366 -2.9852 0.9724
6.0089 2.0865 -2.9984 0.9723
5.5554 3.1255 -3.0047 0.9722
5.2552 3.6075 -3.0047 0.9722
0.4962 6.3504 -3.0026 0.9722
-2.2875 5.9394 -3.0002 0.9722
-2.8066 5.7113 -2.9996 0.9723
-3.3032 5.4378 -2.9991 0.9723
-3.7734 5.1213 -2.9986 0.9723
-4.6200 4.3696 -2.9975 0.9723
-5.8505 2.4808 -2.9955 0.9723
-6.0473 1.9500 -2.9951 0.9723
-6.3451 0.2829 -2.9939 0.9723
-6.3444 -0.2829 -2.9936 0.9723
-6.2935 -0.8464 -2.9933 0.9723
-6.1927 -1.4031 -2.9931 0.9723
-6.0429 -1.9486 -2.9929 0.9723
-5.3129 -3.4755 -2.9926 0.9723
-4.9824 -3.9346 -2.9926 0.9723
-4.6125 -4.3625 -2.9927 0.9723
-4.2061 -4.7559 -2.9928 0.9723
-3.2966 -5.4269 -2.9931 0.9723
-2.8007 -5.6992 -2.9933 0.9723
-2.2825 -5.9264 -2.9936 0.9723
-1.1959 -6.2386 -2.9943 0.9723
-0.6359 -6.3211 -2.9946 0.9723
-0.0708 -6.3535 -2.9951 0.9723
1.6110 -6.1493 -2.9965 0.9723
2.1523 -5.9825 -2.9970 0.9723
2.6767 -5.7682 -2.9975 0.9723
5.1900 -3.5627 -2.9674 0.9725
5.4896 -3.0884 -2.9691 0.9725
5.7461 -2.5891 -2.9708 0.9725
6.1214 -1.5310 -2.9744 0.9725
6.3033 -0.4219 -2.9779 0.9725
6.2852 0.7031 -2.9812 0.9724
6.0756 1.8108 -2.9883 0.9724
5.9222 2.3570 -3.0045 0.9722
5.6891 2.8748 -3.0046 0.9722
4.7275 4.2758 -3.0047 0.9722
3.8942 5.0458 -3.0045 0.9722
1.8878 6.0857 -3.0035 0.9722
1.3385 6.2288 -3.0031 0.9722
0.7787 6.3224 -3.0028 0.9722
-0.3546 6.3585 -3.0019 0.9722
-0.9190 6.3007 -3.0014 0.9722
-1.4758 6.1929 -3.0009 0.9722
-3.5418 5.2848 -2.9988 0.9723
-4.8096 4.1591 -2.9972 0.9723
-5.7347 2.7392 -2.9957 0.9723
-6.1277 1.6786 -2.9948 0.9723
-6.2519 1.1263 -2.9944 0.9723
-6.0871 0.0000 -2.9939 0.9732
-5.8694 -1.6078 -2.9932 0.9732
-5.7027 -2.1237 -2.9931 0.9732
-5.4908 -2.6227 -2.9930 0.9732
-5.2355 -3.1009 -2.9929 0.9732
-4.9386 -3.5546 -2.9929 0.9732
-2.9248 -5.3371 -2.9934 0.9732
-2.4384 -5.5767 -2.9937 0.9732
-1.9325 -5.7721 -2.9940 0.9732
0.2035 -6.0867 -2.9954 0.9732
0.7446 -6.0453 -2.9959 0.9732
1.2799 -5.9559 -2.9963 0.9732
1.8052 -5.8193 -2.9968 0.9732
3.6948 -4.7875 -2.9745 0.9734
4.0983 -4.4310 -2.9687 0.9735
4.4717 -4.0431 -2.9654 0.9735
4.8159 -3.6318 -2.9668 0.9735
5.1228 -3.1905 -2.9684 0.9735
5.3895 -2.7234 -2.9701 0.9734
5.6137 -2.2342 -2.9718 0.9734
5.9276 -1.2048 -2.9751 0.9734
6.0147 -0.6728 -2.9768 0.9734
6.0541 -0.1349 -2.9785 0.9734
5.9904 0.9420 -2.9826 0.9733
5.8965 1.4748 -2.9896 0.9733
5.5690 2.5093 -3.0043 0.9731
5.3237 2.9951 -3.0044 0.9731
4.7083 3.8916 -3.0044 0.9731
3.9435 4.6645 -3.0043 0.9731
3.5125 4.9967 -3.0041 0.9731
2.5706 5.5395 -3.0037 0.9731
2.0672 5.7458 -3.0034 0.9731
1.0154 6.0200 -3.0028 0.9732
0.4755 6.0857 -3.0024 0.9732
-0.0680 6.1030 -3.0020 0.9732
-1.1487 5.9925 -3.0011 0.9732
-1.6772 5.8655 -3.0006 0.9732
-2.1923 5.6920 -3.0001 0.9732
-2.6897 5.4734 -2.9996 0.9732
-3.6163 4.9081 -2.9986 0.9732
-4.4277 4.1877 -2.9976 0.9732
-4.7821 3.7764 -2.9970 0.9732
-5.0984 3.3352 -2.9966 0.9732
-5.3741 2.8678 -2.9961 0.9732
-5.6072 2.3777 -2.9956 0.9732
-5.7958 1.8689 -2.9952 0.9732
-5.9383 1.3455 -2.9948 0.9732
-6.0337 0.8115 -2.9944 0.9732
-6.0813 0.2712 -2.9941 0.9732
-6.0319 -0.8112 -2.9935 0.9732
-5.9353 -1.3448 -2.9933 0.9732
-5.7918 -1.8676 -2.9931 0.9732
-5.6023 -2.3755 -2.9930 0.9732
-5.3684 -2.8647 -2.9929 0.9732
-4.7754 -3.7711 -2.9929 0.9732
-4.0313 -4.5582 -2.9930 0.9732
-3.6097 -4.8992 -2.9931 0.9732
-3.1596 -5.2013 -2.9933 0.9732
-1.6736 -5.8528 -2.9941 0.9732
1.0132 -6.0066 -2.9961 0.9732
2.0628 -5.7336 -2.9971 0.9732
2.5654 -5.5282 -2.9976 0.9732
3.8987 -4.6114 -2.9701 0.9734
4.2894 -4.2419 -2.9672 0.9735
4.6481 -3.8417 -2.9660 0.9735
4.9743 -3.4146 -2.9676 0.9735
5.7093 -1.9825 -2.9726 0.9734
5.9771 -0.9399 -2.9760 0.9734
6.0557 0.1350 -2.9793 0.9734
5.1850 3.2293 -3.0044 0.9731
4.1475 4.4842 -3.0043 0.9731
3.2864 5.1480 -3.0040 0.9731
2.3212 5.6483 -3.0036 0.9731
1.8091 5.8319 -3.0033 0.9731
0.7462 6.0589 -3.0026 0.9732
0.2040 6.1004 -3.0022 0.9732
-0.3398 6.0935 -3.0018 0.9732
-1.4144 5.9349 -3.0008 0.9732
-2.4434 5.5883 -2.9999 0.9732
-2.9306 5.3477 -2.9994 0.9732
-3.3944 5.0647 -2.9988 0.9732
-3.8310 4.7417 -2.9983 0.9732
-4.2371 4.3812 -2.9978 0.9732
-4.6095 3.9860 -2.9973 0.9732
-5.4961 2.6253 -2.9959 0.9732
-5.9920 1.0795 -2.9946 0.9732
-5.7468 -1.0353 -2.9936 0.9741
-5.4715 -2.0376 -2.9933 0.9741
-5.2683 -2.5164 -2.9932 0.9741
-5.0233 -2.9753 -2.9931 0.9741
-4.7385 -3.4105 -2.9931 0.9741
-4.4162 -3.8188 -2.9931 0.9741
-3.2507 -4.8504 -2.9934 0.9741
-2.8063 -5.1208 -2.9936 0.9741
-2.3395 -5.3506 -2.9939 0.9741
-1.8542 -5.5381 -2.9941 0.9741
0.1952 -5.8398 -2.9956 0.9741
1.2279 -5.7143 -2.9964 0.9741
1.7319 -5.5832 -2.9969 0.9741
2.2223 -5.4077 -2.9974 0.9741
2.6953 -5.1893 -2.9978 0.9741
4.2966 -3.8860 -2.9700 0.9743
4.9151 -3.0612 -2.9686 0.9743
5.1709 -2.6129 -2.9702 0.9743
5.5583 -1.6565 -2.9734 0.9743
5.6868 -1.1559 -2.9750 0.9743
5.7702 -0.6455 -2.9767 0.9742
5.7536 0.9047 -2.9860 0.9742
5.5353 1.9221 -3.0040 0.9740
5.1071 2.8733 -3.0042 0.9740
3.7831 4.4747 -3.0041 0.9740
3.3697 4.7935 -3.0039 0.9740
2.9295 5.0741 -3.0037 0.9740
1.9831 5.5122 -3.0032 0.9740
0.9741 5.7752 -3.0026 0.9740
0.4562 5.8383 -3.0022 0.9740
-0.5860 5.8251 -3.0014 0.9740
-1.1020 5.7490 -3.0010 0.9740
-1.6091 5.6272 -3.0005 0.9740
-2.5805 5.2511 -2.9996 0.9740
-3.4695 4.7088 -2.9986 0.9741
-3.8742 4.3806 -2.9981 0.9741
-4.2480 4.0177 -2.9976 0.9741
-4.5880 3.6231 -2.9971 0.9741
-5.3798 2.2812 -2.9958 0.9741
-5.5607 1.7931 -2.9953 0.9741
-5.7891 0.7786 -2.9946 0.9741
-5.8342 -0.2601 -2.9940 0.9741
-5.6948 -1.2903 -2.9935 0.9741
-5.5570 -1.7919 -2.9934 0.9741
-4.5819 -3.6182 -2.9931 0.9741
-3.4635 -4.7006 -2.9934 0.9741
-3.0315 -4.9905 -2.9935 0.9741
-2.5755 -5.2409 -2.9937 0.9741
-2.0990 -5.4498 -2.9940 0.9741
0.9721 -5.7629 -2.9962 0.9741
1.9791 -5.5009 -2.9971 0.9741
2.4612 -5.3038 -2.9976 0.9741
2.9240 -5.0645 -2.9981 0.9741
3.7521 -4.4380 -2.9794 0.9742
4.1207 -4.0750 -2.9711 0.9743
4.4638 -3.6894 -2.9689 0.9743
5.0480 -2.8399 -2.9694 0.9743
5.4775 -1.9020 -2.9726 0.9743
5.7342 -0.9016 -2.9759 0.9742
5.7947 -0.3879 -2.9774 0.9742
5.7837 0.6472 -2.9836 0.9742
5.7213 1.1629 -2.9931 0.9741
5.2300 2.6429 -3.0042 0.9740
4.9741 3.0979 -3.0042 0.9740
4.6786 3.5284 -3.0042 0.9740
3.5800 4.6387 -3.0040 0.9740
3.1527 4.9387 -3.0038 0.9740
2.7004 5.1993 -3.0036 0.9740
2.2268 5.4186 -3.0034 0.9740
1.2305 5.7264 -3.0028 0.9740
0.1957 5.8525 -3.0020 0.9740
-1.3569 5.6938 -3.0008 0.9740
-2.3442 5.3613 -2.9998 0.9740
-3.6755 4.5492 -2.9983 0.9741
-4.4224 3.8242 -2.9974 0.9741
-4.7445 3.4149 -2.9969 0.9741
-5.0288 2.9786 -2.9964 0.9741
-5.2731 2.5188 -2.9960 0.9741
-5.6347 1.5435 -2.9952 0.9741
-5.7490 1.0358 -2.9948 0.9741
-5.6090 0.0000 -2.9943 0.9749
-5.5862 -0.4992 -2.9941 0.9749
-5.4085 -1.4815 -2.9936 0.9749
-5.0597 -2.4168 -2.9934 0.9749
-4.8244 -2.8575 -2.9933 0.9749
-4.2413 -3.6676 -2.9933 0.9749
-3.8981 -4.0306 -2.9934 0.9749
-3.1220 -4.6583 -2.9937 0.9749
-2.6952 -4.9180 -2.9938 0.9749
-1.7808 -5.3188 -2.9943 0.9749
0.1875 -5.6084 -2.9957 0.9749
1.1793 -5.4878 -2.9965 0.9749
1.6633 -5.3618 -2.9970 0.9749
2.1342 -5.1933 -2.9974 0.9749
3.4320 -4.4470 -2.9988 0.9749
3.7980 -4.1063 -2.9860 0.9750
4.7239 -2.9420 -2.9709 0.9751
4.9659 -2.5094 -2.9703 0.9751
5.5410 -0.6198 -2.9765 0.9750
5.5817 -0.1243 -2.9805 0.9750
5.5779 0.3734 -2.9844 0.9750
5.3154 1.8457 -3.0038 0.9748
4.9042 2.7591 -3.0040 0.9748
4.6392 3.1847 -3.0040 0.9748
4.3373 3.5849 -3.0040 0.9748
1.9043 5.2932 -3.0031 0.9748
-0.5628 5.5939 -3.0013 0.9748
-1.0582 5.5208 -3.0009 0.9748
-2.9166 4.8014 -2.9991 0.9748
-4.4061 3.4795 -2.9972 0.9749
-4.6976 3.0730 -2.9967 0.9749
-4.9518 2.6424 -2.9963 0.9749
-5.3404 1.7221 -2.9955 0.9749
-5.4718 1.2398 -2.9951 0.9749
-5.6037 0.2499 -2.9945 0.9749
-5.5582 -0.7475 -2.9939 0.9749
-5.1624 -2.1890 -2.9934 0.9749
-4.9469 -2.6398 -2.9934 0.9749
-4.4005 -3.4750 -2.9933 0.9749
-3.3263 -4.5145 -2.9936 0.9749
-2.9115 -4.7929 -2.9937 0.9749
-2.0158 -5.2339 -2.9942 0.9749
-1.5421 -5.3931 -2.9945 0.9749
-0.0625 -5.6108 -2.9955 0.9749
0.4372 -5.5948 -2.9959 0.9749
1.9006 -5.2828 -2.9972 0.9749
2.3636 -5.0935 -2.9976 0.9749
2.8081 -4.8637 -2.9981 0.9749
4.2922 -3.5476 -2.9727 0.9751
4.5889 -3.1501 -2.9714 0.9751
5.5065 -0.8658 -2.9757 0.9750
5.5854 0.1245 -2.9825 0.9750
5.5646 0.6225 -2.9891 0.9749
5.5135 1.1207 -3.0035 0.9748
5.3922 1.6071 -3.0037 0.9748
5.0222 2.5378 -3.0039 0.9748
3.4377 4.4544 -3.0038 0.9748
3.0275 4.7425 -3.0036 0.9748
2.5932 4.9928 -3.0034 0.9748
0.6875 5.5817 -3.0023 0.9748
-1.3030 5.4678 -3.0007 0.9748
-2.2512 5.1486 -2.9998 0.9748
-4.8295 2.8605 -2.9965 0.9749
-5.4115 1.4824 -2.9953 0.9749
-5.5873 0.4993 -2.9946 0.9749
-5.1989 -1.4241 -2.9938 0.9756
-5.0513 -1.8811 -2.9937 0.9756
-4.8637 -2.3232 -2.9936 0.9756
-4.3746 -3.1486 -2.9935 0.9756
-4.0770 -3.5255 -2.9935 0.9756
-3.7471 -3.8745 -2.9936 0.9756
-3.3875 -4.1927 -2.9937 0.9756
-2.5907 -4.7274 -2.9940 0.9756
-1.7117 -5.1127 -2.9945 0.9756
-1.2500 -5.2452 -2.9948 0.9756
-0.7783 -5.3362 -2.9951 0.9756
-0.3003 -5.3849 -2.9954 0.9756
0.1802 -5.3910 -2.9958 0.9756
0.6594 -5.3542 -2.9962 0.9756
1.1335 -5.2750 -2.9966 0.9756
2.0514 -4.9919 -2.9975 0.9756
2.4880 -4.7902 -2.9979 0.9756
2.9049 -4.5504 -2.9984 0.9756
3.9875 -3.6065 -2.9861 0.9757
4.2788 -3.2268 -2.9764 0.9758
4.5462 -2.8314 -2.9746 0.9758
4.7799 -2.4154 -2.9744 0.9758
4.9767 -1.9807 -2.9749 0.9758
5.1352 -1.5306 -2.9760 0.9758
5.2544 -1.0680 -2.9780 0.9758
5.3712 -0.1197 -2.9839 0.9757
4.9308 2.2217 -3.0037 0.9756
4.4589 3.0609 -3.0038 0.9756
4.1687 3.4456 -3.0038 0.9756
2.7038 4.6831 -3.0033 0.9756
1.8303 5.0875 -3.0029 0.9756
1.3701 5.2298 -3.0026 0.9756
0.8991 5.3304 -3.0023 0.9756
0.4211 5.3887 -3.0020 0.9756
-0.5409 5.3766 -3.0012 0.9756
-1.4852 5.1941 -3.0004 0.9756
-1.9413 5.0405 -2.9999 0.9756
-3.2026 4.3466 -2.9986 0.9756
-3.5762 4.0437 -2.9981 0.9756
-4.2352 3.3445 -2.9972 0.9756
-4.9663 2.1059 -2.9960 0.9756
-5.2574 -1.1912 -2.9939 0.9756
-5.1302 -1.6543 -2.9938 0.9756
-3.9159 -3.7037 -2.9936 0.9756
-3.1975 -4.3396 -2.9938 0.9756
-2.7987 -4.6072 -2.9939 0.9756
-2.3776 -4.8383 -2.9941 0.9756
-1.9377 -5.0311 -2.9944 0.9756
-1.0152 -5.2960 -2.9949 0.9756
-0.0601 -5.3933 -2.9956 0.9756
0.4202 -5.3779 -2.9960 0.9756
0.8973 -5.3199 -2.9964 0.9756
1.3675 -5.2196 -2.9968 0.9756
3.8319 -3.7894 -2.9931 0.9756
4.6676 -2.6259 -2.9744 0.9758
5.3795 0.1199 -2.9885 0.9757
5.3711 0.6009 -3.0017 0.9756
5.2992 1.0771 -3.0033 0.9756
5.1826 1.5446 -3.0035 0.9756
4.5908 2.8592 -3.0038 0.9756
4.3181 3.2565 -3.0038 0.9756
3.3041 4.2813 -3.0036 0.9756
1.1357 5.2853 -3.0025 0.9756
0.6607 5.3649 -3.0021 0.9756
0.1806 5.4018 -3.0018 0.9756
-1.2524 5.2555 -3.0006 0.9756
-1.7150 5.1224 -3.0002 0.9756
-3.3928 4.1993 -2.9984 0.9756
-4.3797 3.1523 -2.9970 0.9756
-5.0548 1.8825 -2.9958 0.9756
-5.2017 1.4249 -2.9954 0.9756
-5.3707 0.4800 -2.9948 0.9756
-5.1659 -0.4616 -2.9944 0.9763
-5.0016 -1.3700 -2.9940 0.9763
-4.8595 -1.8097 -2.9939 0.9763
-4.6790 -2.2350 -2.9938 0.9763
-4.4615 -2.6425 -2.9937 0.9763
-4.2085 -3.0291 -2.9937 0.9763
-3.2589 -4.0336 -2.9939 0.9763
-2.4923 -4.5479 -2.9942 0.9763
-2.0778 -4.7520 -2.9944 0.9763
-1.2025 -5.0460 -2.9949 0.9763
-0.7487 -5.1336 -2.9952 0.9763
0.1734 -5.1861 -2.9959 0.9763
1.9735 -4.8021 -2.9975 0.9763
2.3934 -4.6081 -2.9979 0.9763
2.7944 -4.3774 -2.9984 0.9763
3.5273 -3.8137 -2.9993 0.9763
3.8506 -3.4826 -2.9975 0.9763
4.1340 -3.1176 -2.9894 0.9764
4.3831 -2.7298 -2.9812 0.9764
4.6039 -2.3266 -2.9782 0.9765
4.7926 -1.9074 -2.9781 0.9765
4.9452 -1.4738 -2.9792 0.9764
5.0602 -1.0286 -2.9813 0.9764
5.1892 -0.1156 -2.9967 0.9763
5.1895 0.3474 -3.0028 0.9763
5.1383 0.8080 -3.0031 0.9763
4.7430 2.1371 -3.0035 0.9763
4.2891 2.9443 -3.0036 0.9763
4.0100 3.3143 -3.0036 0.9763
3.3586 3.9726 -3.0034 0.9763
2.9916 4.2556 -3.0033 0.9763
2.6008 4.5048 -3.0032 0.9763
2.1894 4.7180 -3.0030 0.9763
1.3180 5.0307 -3.0025 0.9763
0.8649 5.1275 -3.0022 0.9763
0.4050 5.1836 -3.0018 0.9763
-0.5203 5.1720 -3.0011 0.9763
-1.4287 4.9965 -3.0003 0.9763
-2.2913 4.6627 -2.9995 0.9763
-3.0808 4.1813 -2.9986 0.9763
-3.7723 3.5678 -2.9977 0.9763
-4.0743 3.2174 -2.9973 0.9763
-4.3438 2.8416 -2.9969 0.9763
