ply
format ascii 1.0
element vertex 1590
property float32 x
property float32 y
property float32 z
property float32 I
end_header
-1.8056 -6.3147 3.5062 0.9707
4.3772 9.4327 5.3312 0.9543
3.4139 9.4890 5.1700 0.9557
1.5929 9.4435 4.9098 0.9579
3.8841 9.4513 5.2386 0.9551
1.5907 9.4300 4.7037 0.9583
5.9900 9.3831 5.4753 0.9516
2.0516 9.5473 4.8031 0.9574
1.5929 9.4431 4.5142 0.9585
1.5928 9.4430 4.3210 0.9588
-1.8466 -7.7487 3.4361 0.9659
1.5928 9.4428 4.1308 0.9591
-1.9435 -8.1555 3.2904 0.9646
1.5927 9.4424 3.7582 0.9597
1.5927 9.4423 3.5757 0.9599
-2.0600 -8.6441 3.1509 0.9630
-2.1273 -8.9264 3.0831 0.9620
1.5926 9.4418 3.0409 0.9606
3.4041 9.4617 3.0104 0.9589
1.5926 9.4416 2.8666 0.9608
7.1555 9.2716 3.5063 0.9523
3.8598 9.3923 3.0401 0.9585
3.3987 9.4469 2.8247 0.9591
2.4807 9.4689 2.7540 0.9601
1.5926 9.4414 2.6939 0.9610
8.5210 9.2128 3.5308 0.9492
2.4852 9.4860 2.5839 0.9602
1.5925 9.4413 2.5229 0.9612
2.0323 9.4575 2.5489 0.9608
1.5925 9.4411 2.3534 0.9613
1.5925 9.4410 2.1853 0.9615
1.5924 9.4405 1.6881 0.9619
1.5924 9.4404 1.5245 0.9620
8.9243 3.0988 1.1839 0.9626
8.3641 3.7687 0.9951 0.9638
1.5923 9.4399 1.0384 0.9622
8.3695 3.3310 0.9771 0.9644
8.3560 2.9015 0.8109 0.9651
8.1765 3.2542 0.8068 0.9653
8.3558 4.2224 0.8583 0.9631
9.2332 2.3094 0.7132 0.9625
8.2273 2.8568 0.6527 0.9657
8.0012 3.6052 0.6577 0.9654
1.5923 9.4396 0.7174 0.9623
8.0554 3.2060 0.6497 0.9658
8.1122 4.0992 0.6811 0.9642
8.9161 2.2301 0.5353 0.9638
8.1169 2.8185 0.5004 0.9662
7.8894 3.5548 0.5040 0.9659
1.5922 9.4395 0.5576 0.9624
8.4007 2.5037 0.5106 0.9655
7.9486 4.0166 0.5187 0.9649
7.8118 3.5198 0.3563 0.9663
1.5922 9.4393 0.3980 0.9624
8.3109 2.4769 0.3606 0.9659
7.9713 2.7679 0.2104 0.9668
7.8146 3.1101 0.2098 0.9669
8.5787 2.1457 0.0735 0.9652
7.9288 2.7532 0.0698 0.9670
7.9304 4.4616 0.0756 0.9643
7.7214 3.9018 0.0719 0.9660
8.5177 2.1304 -0.0730 0.9655
7.6591 3.4510 -0.0698 0.9670
7.8493 4.4159 -0.0749 0.9646
1.5921 9.4389 -0.0796 0.9624
7.6735 3.8776 -0.0715 0.9662
8.4948 2.1247 -0.2184 0.9656
7.8704 2.7329 -0.2078 0.9672
7.6427 3.4436 -0.2091 0.9670
1.5921 9.4387 -0.2387 0.9624
9.2826 1.8868 -0.2362 0.9628
8.1154 2.4187 -0.2112 0.9667
8.4748 2.1197 -0.3632 0.9656
7.8572 2.7283 -0.3458 0.9672
7.6290 3.4374 -0.3479 0.9671
7.7932 4.3844 -0.3718 0.9648
9.2286 1.8758 -0.3916 0.9630
8.0996 2.4139 -0.3514 0.9667
7.7061 3.0669 -0.3449 0.9673
7.8551 2.7276 -0.4843 0.9672
7.6273 3.4367 -0.4873 0.9670
1.5921 9.4384 -0.5575 0.9624
8.0987 2.4137 -0.4922 0.9667
7.7038 3.0660 -0.4829 0.9673
7.6404 3.4426 -0.6280 0.9669
1.5920 9.4383 -0.7173 0.9623
7.7162 3.0710 -0.6224 0.9672
7.6547 3.8681 -0.6427 0.9662
7.8807 2.7365 -0.7648 0.9670
7.6545 3.4489 -0.7697 0.9668
7.8742 4.4300 -0.8283 0.9644
8.1318 2.4236 -0.7779 0.9665
8.5902 2.1486 -0.9605 0.9650
7.9605 4.4785 -0.9907 0.9639
7.7686 3.0918 -0.9069 0.9669
7.7407 3.4878 -1.0640 0.9664
8.0775 4.5443 -1.1614 0.9633
8.0386 2.7913 -1.2103 0.9662
1.5919 9.4377 -1.3613 0.9621
8.3205 2.4798 -1.2349 0.9655
7.8673 3.9755 -1.2538 0.9650
-5.4787 -12.5302 -2.1777 0.9461
9.0598 2.2660 -1.4871 0.9629
8.1214 2.8200 -1.3690 0.9658
7.8973 3.5584 -1.3793 0.9655
1.5919 9.4375 -1.5240 0.9620
8.2508 2.8650 -1.5400 0.9651
8.0307 3.6185 -1.5531 0.9649
1.5919 9.4374 -1.6876 0.9619
8.5853 2.5587 -1.5796 0.9643
8.0741 3.2134 -1.5323 0.9653
-10.9551 -9.4732 -2.8027 0.9427
-10.0803 -10.4229 -2.8060 0.9426
-9.1237 -11.2925 -2.8094 0.9426
-4.5770 -13.6706 -2.7898 0.9430
-0.7989 -14.3269 -2.7768 0.9432
0.4791 -14.3293 -2.7745 0.9433
8.4242 2.9252 -1.7257 0.9643
8.2210 3.7042 -1.7449 0.9639
1.5919 9.4372 -1.8521 0.9618
-7.6407 12.5783 -2.8480 0.9418
-8.7184 11.8327 -2.8443 0.9419
-9.7243 10.9955 -2.8406 0.9419
-10.6510 10.0736 -2.8370 0.9420
-11.4898 9.0734 -2.8332 0.9421
-12.2231 7.9960 -2.8266 0.9422
-11.3613 -8.9719 -2.8015 0.9427
-10.5284 -9.9576 -2.8043 0.9427
-9.6118 -10.8682 -2.8077 0.9426
-8.6141 -11.6911 -2.8102 0.9426
-7.5188 -12.3775 -2.8026 0.9427
-5.1846 -13.4614 -2.7916 0.9429
-3.9616 -13.8545 -2.7886 0.9430
-2.7077 -14.1257 -2.7833 0.9431
-1.4372 -14.2862 -2.7786 0.9432
-0.1598 -14.3405 -2.7753 0.9432
1.1169 -14.2932 -2.7744 0.9433
8.8733 2.6445 -1.7918 0.9630
8.2320 3.2762 -1.7146 0.9645
-8.1880 12.2174 -2.8461 0.9418
-9.2308 11.4251 -2.8424 0.9419
-14.0407 0.0000 -2.9601 0.9442
-13.5229 -3.7043 -2.9559 0.9443
-11.3765 -8.1883 -2.9550 0.9443
-7.4297 -11.0859 -2.8135 0.9469
-6.4194 -11.7139 -2.8160 0.9469
-5.3207 -12.1688 -2.7999 0.9472
-4.2277 -12.6274 -2.8073 0.9470
-1.9149 -13.1295 -2.7972 0.9472
-0.7434 -13.3330 -2.8152 0.9469
0.4432 -13.2568 -2.7964 0.9472
2.9171 -13.5749 -2.9272 0.9448
5.2967 -12.8886 -2.9377 0.9446
7.5269 -11.7906 -2.9490 0.9444
9.5373 -10.3116 -2.9612 0.9442
10.4393 -9.4418 -2.9674 0.9441
12.6433 -6.3889 -2.9865 0.9437
13.1893 -5.2492 -2.9927 0.9436
13.6276 -4.0615 -2.9978 0.9435
14.1757 -1.5858 -3.0072 0.9434
14.2792 0.9559 -3.0171 0.9432
12.5505 7.0608 -3.0359 0.9428
7.2020 12.4742 -3.0366 0.9428
4.8685 13.5322 -3.0319 0.9429
3.6414 13.8990 -3.0291 0.9430
1.5918 9.4371 -2.0176 0.9616
1.0602 13.5681 -2.8691 0.9459
-0.1516 13.6103 -2.8695 0.9459
-1.3608 13.5266 -2.8661 0.9459
-2.5562 13.3358 -2.8626 0.9460
-3.7285 13.0394 -2.8591 0.9461
-4.8682 12.6401 -2.8556 0.9461
-8.0051 10.8646 -2.8451 0.9463
-8.9297 10.0970 -2.8417 0.9464
-12.4472 6.6421 -2.9744 0.9440
-12.9752 5.5020 -2.9712 0.9440
-13.4002 4.3210 -2.9683 0.9441
-13.9300 1.8734 -2.9632 0.9442
-14.0225 -0.6253 -2.9592 0.9442
-13.9040 -1.8699 -2.9576 0.9443
-12.3651 -6.5982 -2.9547 0.9443
-9.6695 -9.1453 -2.8059 0.9470
-7.9117 -10.7378 -2.8118 0.9469
-4.7887 -12.4336 -2.8089 0.9470
-0.1481 -13.2959 -2.8032 0.9471
5.8710 -12.6517 -2.9404 0.9446
8.0527 -11.4552 -2.9520 0.9444
10.8611 -8.9769 -2.9706 0.9440
12.3332 -6.9385 -2.9833 0.9438
13.4229 -4.6609 -2.9955 0.9436
14.0785 -2.2137 -3.0045 0.9434
14.2446 -0.9536 -3.0098 0.9433
14.2965 0.3186 -3.0147 0.9432
14.0550 2.8568 -3.0237 0.9431
13.7634 4.1019 -3.0277 0.9430
8.5042 3.3846 -1.9296 0.9633
12.8467 6.4917 -3.0345 0.9429
12.2285 7.6160 -3.0371 0.9428
11.5102 8.6803 -3.0393 0.9428
7.7531 12.1450 -3.0376 0.9428
4.2589 13.7294 -3.0305 0.9429
3.0171 14.0405 -3.0276 0.9430
0.4545 13.5942 -2.8675 0.9459
-1.9608 13.4446 -2.8644 0.9460
-3.1459 13.2006 -2.8609 0.9460
-4.3030 12.8524 -2.8574 0.9461
-7.5177 11.2172 -2.8468 0.9463
-8.4761 10.4910 -2.8434 0.9464
-10.1750 8.7987 -2.8359 0.9465
-11.9076 7.0529 -2.9177 0.9450
-13.5731 3.7181 -2.9669 0.9441
-13.9944 1.2505 -2.9621 0.9442
-12.9231 -1.1548 -2.9614 0.9482
-12.5040 -3.4252 -2.9591 0.9482
-11.6945 -5.5860 -2.9581 0.9482
-9.8059 -8.4795 -2.9589 0.9482
-8.8331 -9.1334 -2.9001 0.9492
-4.9498 -11.3204 -2.8200 0.9506
-3.9257 -11.7254 -2.8223 0.9505
-0.6900 -12.3754 -2.8290 0.9504
1.5825 -12.8492 -2.9549 0.9483
5.9476 -11.4511 -2.9451 0.9484
6.9564 -10.8971 -2.9508 0.9483
7.9136 -10.2539 -2.9563 0.9482
8.8117 -9.5272 -2.9620 0.9481
10.4021 -7.8446 -2.9737 0.9479
11.0807 -6.9011 -2.9795 0.9478
11.6706 -5.8974 -2.9845 0.9478
13.0809 -1.4633 -3.0042 0.9474
13.1730 0.8818 -3.0134 0.9473
13.0607 2.0537 -3.0177 0.9472
12.5206 4.3476 -3.0251 0.9471
11.5735 6.5111 -3.0309 0.9470
10.9559 7.5208 -3.0331 0.9469
10.2488 8.4709 -3.0348 0.9469
9.4580 9.3532 -3.0360 0.9469
7.6483 10.8799 -3.0355 0.9469
6.6457 11.5107 -3.0337 0.9469
5.5910 12.0483 -3.0316 0.9470
4.4930 12.4885 -3.0293 0.9470
3.3608 12.8279 -3.0267 0.9470
-0.1400 12.5667 -2.8684 0.9497
-1.2565 12.4901 -2.8652 0.9498
-3.4434 12.0423 -2.8587 0.9499
-4.4964 11.6747 -2.8555 0.9500
-6.4803 10.6681 -2.8490 0.9501
-7.3958 10.0377 -2.8458 0.9501
-9.0342 8.5445 -2.8382 0.9503
-11.5041 6.1388 -2.9762 0.9479
-12.3867 3.9942 -2.9705 0.9480
-12.6825 2.8735 -2.9681 0.9480
-12.8782 1.7320 -2.9658 0.9481
-12.9725 0.5785 -2.9638 0.9481
-12.9650 -0.5781 -2.9621 0.9481
-12.8559 -1.7289 -2.9607 0.9482
-12.6462 -2.8652 -2.9596 0.9482
-11.9324 -5.0597 -2.9582 0.9482
-10.8458 -7.0950 -2.9581 0.9482
-9.4197 -8.9091 -2.9593 0.9482
-6.4040 -10.5425 -2.8154 0.9506
-2.3314 -12.1629 -2.8267 0.9505
-1.2405 -12.3314 -2.8288 0.9504
-0.1381 -12.3947 -2.8292 0.9504
0.9716 -12.4337 -2.8466 0.9501
2.1408 -12.6916 -2.9377 0.9486
3.2563 -12.4294 -2.9327 0.9486
5.4258 -11.6923 -2.9420 0.9485
6.4582 -11.1859 -2.9481 0.9484
9.2364 -9.1341 -2.9649 0.9481
13.1435 -0.8799 -3.0066 0.9474
13.1897 0.2940 -3.0112 0.9473
12.9649 2.6352 -3.0197 0.9472
11.8470 5.9866 -3.0296 0.9470
11.2762 7.0229 -3.0321 0.9470
10.6133 8.0038 -3.0340 0.9469
8.1275 10.5311 -3.0362 0.9469
7.1541 11.2067 -3.0346 0.9469
5.0468 12.2808 -3.0305 0.9470
-0.6993 12.5409 -2.8668 0.9498
-5.0091 11.4563 -2.8538 0.9500
-6.0021 10.9524 -2.8506 0.9500
-7.8313 9.6929 -2.8442 0.9502
-8.6531 8.9473 -2.8410 0.9502
-11.7603 5.6174 -2.9747 0.9479
-12.2020 4.5441 -2.9719 0.9480
-12.7929 2.3048 -2.9669 0.9481
-12.0645 0.0000 -2.9654 0.9515
-11.8627 -2.1371 -2.9628 0.9516
-10.8697 -5.1920 -2.9609 0.9516
-9.1141 -7.8812 -2.9617 0.9516
-5.5079 -10.0507 -2.8171 0.9539
-4.5961 -10.5116 -2.8199 0.9538
-3.6460 -10.8899 -2.8228 0.9538
-1.6604 -11.3843 -2.8279 0.9537
2.5137 -11.6975 -2.9409 0.9519
3.5407 -11.4141 -2.9375 0.9520
5.5249 -10.6373 -2.9463 0.9518
6.4603 -10.1200 -2.9511 0.9517
7.3479 -9.5209 -2.9561 0.9517
8.9511 -8.0958 -2.9666 0.9515
10.2805 -6.4027 -2.9770 0.9513
10.8285 -5.4719 -2.9822 0.9513
11.2919 -4.4941 -2.9873 0.9512
11.6665 -3.4770 -2.9923 0.9511
11.9490 -2.4287 -2.9971 0.9510
12.2269 -0.2724 -3.0061 0.9509
12.2200 0.8180 -3.0104 0.9508
12.1146 1.9050 -3.0144 0.9507
10.7317 6.0376 -3.0266 0.9505
9.5025 7.8541 -3.0303 0.9505
7.9696 9.4265 -3.0342 0.9504
7.0958 10.0939 -3.0328 0.9504
4.1690 11.5879 -3.0270 0.9505
0.9083 11.6237 -2.8658 0.9531
-4.1751 10.8405 -2.8554 0.9533
-5.1179 10.4148 -2.8523 0.9533
-10.6880 5.7033 -2.9777 0.9513
-11.7851 2.6702 -2.9702 0.9514
-11.9676 1.6095 -2.9681 0.9515
-12.0494 -0.5373 -2.9647 0.9515
-11.9484 -1.6069 -2.9633 0.9516
-11.7537 -2.6630 -2.9623 0.9516
-11.4671 -3.6976 -2.9615 0.9516
-11.0907 -4.7028 -2.9610 0.9516
-10.0808 -6.5945 -2.9610 0.9516
-6.8498 -9.2967 -2.8384 0.9535
-5.9472 -9.7905 -2.8157 0.9539
-3.1588 -11.0470 -2.8242 0.9538
-2.1651 -11.2952 -2.8269 0.9537
-0.1282 -11.5101 -2.8294 0.9537
1.9976 -11.8426 -2.9520 0.9517
3.0266 -11.5525 -2.9355 0.9520
4.0485 -11.2530 -2.9396 0.9519
5.0415 -10.8642 -2.9439 0.9519
8.5740 -8.4790 -2.9640 0.9515
9.3109 -7.6956 -2.9691 0.9515
10.5648 -5.9436 -2.9796 0.9513
11.8195 -2.9562 -2.9947 0.9511
12.0547 -1.8955 -2.9994 0.9510
12.1938 -0.8163 -3.0039 0.9509
12.1796 1.3625 -3.0124 0.9508
12.0252 2.4442 -3.0162 0.9507
10.9857 5.5513 -3.0255 0.9506
7.5402 9.7701 -3.0335 0.9504
5.6822 10.9403 -3.0302 0.9505
4.6828 11.3949 -3.0282 0.9505
2.5842 12.0257 -3.0234 0.9506
1.4259 11.5771 -2.8671 0.9531
-0.6491 11.6417 -2.8660 0.9531
-1.6809 11.5254 -2.8629 0.9532
-3.6900 11.0216 -2.8569 0.9533
-4.6514 10.6381 -2.8539 0.9533
-5.5739 10.1710 -2.8508 0.9533
-7.2737 9.0028 -2.8449 0.9534
-8.0326 8.3057 -2.8401 0.9535
-9.5579 6.8794 -2.8946 0.9527
-11.8881 2.1418 -2.9691 0.9515
-12.0235 1.0744 -2.9672 0.9515
-11.2623 0.0000 -2.9676 0.9545
-11.2124 -1.0019 -2.9663 0.9545
-11.0746 -1.9952 -2.9651 0.9545
-10.8500 -2.9721 -2.9643 0.9545
-10.1480 -4.8473 -2.9634 0.9545
-9.1284 -6.5702 -2.9636 0.9545
-5.1660 -9.4269 -2.8325 0.9565
-3.4008 -10.1576 -2.8226 0.9567
-2.4855 -10.4296 -2.8252 0.9566
-1.5485 -10.6176 -2.8274 0.9566
0.3749 -11.2137 -2.9565 0.9546
1.3849 -11.2441 -2.9852 0.9542
3.3054 -10.6557 -2.9398 0.9549
4.2465 -10.3331 -2.9437 0.9548
5.1567 -9.9283 -2.9479 0.9548
6.0289 -9.4441 -2.9523 0.9547
6.8563 -8.8840 -2.9570 0.9546
7.6322 -8.2518 -2.9618 0.9546
9.0039 -6.7901 -2.9716 0.9544
9.5883 -5.9716 -2.9764 0.9543
10.0982 -5.1028 -2.9813 0.9543
10.5291 -4.1905 -2.9861 0.9542
10.8772 -3.2417 -2.9907 0.9541
11.3131 -1.2655 -2.9996 0.9540
11.3969 -0.2540 -3.0038 0.9539
11.3893 0.7625 -3.0078 0.9539
10.8195 3.7570 -3.0179 0.9537
9.9985 5.6251 -3.0229 0.9537
9.4641 6.4967 -3.0248 0.9536
7.4283 8.7863 -3.0317 0.9535
3.8865 10.8026 -3.0251 0.9536
2.9074 11.0975 -3.0229 0.9537
-1.0878 10.8136 -2.8638 0.9560
-2.9820 10.4288 -2.8581 0.9561
-3.8945 10.1120 -2.8553 0.9562
-4.7744 9.7156 -2.8525 0.9562
-5.6146 9.2429 -2.8496 0.9563
-7.1446 8.0786 -2.8418 0.9564
-8.6217 6.8085 -2.8948 0.9556
-9.4698 6.1949 -2.9818 0.9543
-9.9746 5.3227 -2.9791 0.9543
-10.4000 4.4100 -2.9766 0.9543
-11.2541 0.5018 -2.9684 0.9545
-11.2484 -0.5016 -2.9669 0.9545
-10.9731 -2.4861 -2.9647 0.9545
-10.7056 -3.4521 -2.9640 0.9545
-9.9218 -5.2944 -2.9633 0.9545
-9.4115 -6.1567 -2.9634 0.9545
-6.6781 -9.0636 -2.9665 0.9545
-5.6952 -9.3756 -2.8906 0.9556
-4.7178 -9.6004 -2.8187 0.9567
-3.8481 -9.9913 -2.8212 0.9567
-2.9463 -10.3038 -2.8239 0.9566
-1.0743 -10.6790 -2.8281 0.9566
1.8807 -11.1498 -2.9795 0.9543
5.5979 -9.6959 -2.9501 0.9547
6.4486 -9.1733 -2.9547 0.9547
7.9987 -7.9101 -2.9642 0.9545
8.6853 -7.1786 -2.9691 0.9545
9.3051 -6.3876 -2.9740 0.9544
10.3237 -4.6516 -2.9837 0.9542
10.7137 -3.7202 -2.9884 0.9542
11.0192 -2.7561 -2.9930 0.9541
10.9707 3.2696 -3.0164 0.9538
10.6463 4.2371 -3.0193 0.9537
10.2354 5.1722 -3.0218 0.9537
9.1677 6.9137 -3.0256 0.9536
7.8137 8.4482 -3.0323 0.9535
7.0281 9.1066 -3.0311 0.9535
6.1868 9.6915 -3.0297 0.9536
5.2967 10.1981 -3.0280 0.9536
3.4001 10.9611 -3.0240 0.9536
2.4092 11.2116 -3.0217 0.9537
1.3294 10.7940 -2.8657 0.9560
0.3631 10.8599 -2.8632 0.9560
-0.6054 10.8569 -2.8652 0.9560
-1.5677 10.7490 -2.8623 0.9561
-2.5157 10.5564 -2.8595 0.9561
-3.4419 10.2805 -2.8567 0.9561
-4.3390 9.9235 -2.8539 0.9562
-7.4911 7.7458 -2.8394 0.9564
-9.1887 6.6137 -2.9832 0.9542
-11.0968 1.9992 -2.9711 0.9544
-11.2237 1.0030 -2.9692 0.9545
-10.3791 -1.8699 -2.9672 0.9571
-9.8786 -3.6788 -2.9659 0.9571
-9.5110 -4.5430 -2.9656 0.9571
-8.5553 -6.1577 -2.9658 0.9571
-7.9746 -6.8959 -2.9662 0.9571
-7.3310 -7.5802 -2.9670 0.9571
-5.8752 -8.7663 -2.9692 0.9571
-4.1493 -9.4898 -2.9141 0.9579
-2.3276 -9.7668 -2.8249 0.9591
-1.4501 -9.9427 -2.8270 0.9591
-0.5732 -10.2796 -2.8967 0.9581
0.3543 -10.5976 -2.9834 0.9569
1.2973 -10.5335 -2.9860 0.9569
3.1030 -10.0032 -2.9468 0.9574
3.9794 -9.6832 -2.9455 0.9574
4.8319 -9.3030 -2.9495 0.9574
5.6486 -8.8484 -2.9536 0.9573
6.4231 -8.3226 -2.9579 0.9573
8.4320 -6.3589 -2.9714 0.9571
8.9784 -5.5918 -2.9760 0.9570
10.1824 -3.0347 -2.9894 0.9568
10.5889 -1.1845 -2.9978 0.9567
10.3858 2.5977 -3.0121 0.9565
10.1230 3.5151 -3.0150 0.9564
8.8535 6.0776 -3.0214 0.9564
7.6587 7.5738 -3.0305 0.9562
6.9520 8.2228 -3.0296 0.9562
4.5261 9.7534 -3.0253 0.9563
3.6377 10.1113 -3.0234 0.9563
2.7215 10.3878 -3.0213 0.9564
1.5917 9.4364 -2.6925 0.9610
-2.7925 9.7660 -2.8579 0.9587
-3.6473 9.4700 -2.8552 0.9587
-4.4715 9.0993 -2.8526 0.9587
-5.9989 8.1417 -2.8454 0.9588
-6.6893 7.5637 -2.8410 0.9589
-7.3243 6.9273 -2.8364 0.9590
-8.3276 6.5762 -2.9855 0.9569
-9.3454 4.9869 -2.9803 0.9569
-10.0661 3.2459 -2.9758 0.9570
-10.5465 0.4703 -2.9703 0.9571
-10.5416 -0.4700 -2.9689 0.9571
-10.2840 -2.3300 -2.9668 0.9571
-8.8207 -5.7703 -2.9656 0.9571
-7.6604 -7.2451 -2.9666 0.9571
-6.9871 -7.9004 -2.9674 0.9571
-6.2585 -8.4941 -2.9685 0.9571
-5.4801 -9.0215 -2.9699 0.9571
-4.6407 -9.4436 -2.9605 0.9572
-1.8909 -9.8645 -2.8260 0.9591
-1.0096 -10.0361 -2.8380 0.9590
0.8264 -10.5760 -2.9847 0.9569
2.6585 -10.1473 -2.9514 0.9573
6.7925 -8.0341 -2.9601 0.9572
8.7137 -5.9816 -2.9737 0.9570
10.0297 -3.4827 -2.9872 0.9568
10.6383 -0.7121 -2.9998 0.9567
10.4858 2.1313 -3.0106 0.9565
9.9606 3.9643 -3.0163 0.9564
9.1129 5.6756 -3.0206 0.9564
5.7903 9.0704 -3.0277 0.9563
4.9575 9.5449 -3.0261 0.9563
3.1826 10.2599 -3.0224 0.9563
1.2454 10.1118 -2.8665 0.9585
0.3404 10.1826 -2.8665 0.9585
-0.5668 10.1655 -2.8646 0.9586
-1.4679 10.0651 -2.8618 0.9586
-2.3558 9.8853 -2.8592 0.9587
-3.2233 9.6275 -2.8565 0.9587
-8.6083 6.1960 -2.9841 0.9569
-9.5544 4.5638 -2.9791 0.9570
-9.9151 3.6924 -2.9768 0.9570
-10.3985 1.8734 -2.9728 0.9570
-9.9247 0.0000 -2.9713 0.9594
-9.8813 -0.8830 -2.9701 0.9594
-9.7603 -1.7584 -2.9691 0.9594
-8.9443 -4.2723 -2.9675 0.9595
-6.2341 -7.7160 -2.9698 0.9594
-5.5247 -8.2434 -2.9709 0.9594
-3.9795 -9.1013 -2.9738 0.9594
-3.1555 -9.4249 -2.9756 0.9593
-2.2941 -9.6265 -2.9627 0.9595
-1.4325 -9.8220 -2.9716 0.9594
3.7418 -9.1052 -2.9471 0.9597
5.3105 -8.3188 -2.9547 0.9596
6.0381 -7.8238 -2.9587 0.9596
6.7199 -7.2655 -2.9629 0.9595
8.4370 -5.2546 -2.9757 0.9593
9.7950 -1.9909 -2.9924 0.9591
9.9463 -1.1126 -2.9963 0.9591
10.0182 -0.2232 -3.0000 0.9590
9.1810 4.1367 -3.0147 0.9588
8.7822 4.9408 -3.0167 0.9588
8.3122 5.7060 -3.0184 0.9588
7.7747 6.4259 -3.0197 0.9588
7.1929 7.1132 -3.0286 0.9586
4.2513 9.1613 -3.0236 0.9587
3.4170 9.4978 -3.0219 0.9587
1.5918 9.4366 -2.8650 0.9608
0.7455 9.5409 -2.8651 0.9608
-2.6242 9.1774 -2.8576 0.9609
-3.4276 8.8996 -2.8551 0.9610
-4.9396 8.1317 -2.8484 0.9611
-6.2850 7.1066 -2.8402 0.9612
-7.8282 6.1819 -2.9862 0.9592
-8.3404 5.4561 -2.9838 0.9592
-8.7859 4.6883 -2.9814 0.9593
-9.1615 3.8848 -2.9792 0.9593
-9.4644 3.0519 -2.9771 0.9593
-9.8435 1.3238 -2.9735 0.9594
-9.9172 0.4422 -2.9720 0.9594
-9.8305 -1.3221 -2.9695 0.9594
-9.4355 -3.0426 -2.9680 0.9595
-9.1260 -3.8697 -2.9676 0.9595
-7.7801 -6.1439 -2.9679 0.9595
-6.5705 -7.4294 -2.9693 0.9594
-2.7334 -9.5592 -2.9765 0.9593
-0.9966 -9.9063 -2.9807 0.9593
-0.1110 -9.9635 -2.9831 0.9592
0.7769 -9.9420 -2.9855 0.9592
2.5170 -9.6071 -2.9733 0.9594
3.3353 -9.2707 -2.9496 0.9597
4.1463 -8.9350 -2.9489 0.9597
4.9314 -8.5415 -2.9527 0.9597
5.6797 -8.0795 -2.9567 0.9596
6.3851 -7.5523 -2.9608 0.9595
7.0419 -6.9639 -2.9650 0.9595
8.6690 -4.8770 -2.9778 0.9593
9.0816 -4.0920 -2.9821 0.9593
9.4230 -3.2720 -2.9863 0.9592
9.6902 -2.4237 -2.9904 0.9592
9.8805 -1.5536 -2.9944 0.9591
9.9922 -0.6689 -2.9982 0.9590
10.0241 0.2234 -3.0018 0.9590
9.6387 2.8726 -3.0111 0.9589
8.9907 4.5432 -3.0158 0.9588
8.5559 5.3287 -3.0176 0.9588
6.8680 7.4256 -3.0282 0.9586
5.4385 8.5193 -3.0259 0.9587
2.9896 9.6375 -3.0209 0.9587
2.0326 9.4590 -2.8965 0.9604
0.3198 9.5643 -2.8650 0.9608
-0.5326 9.5517 -2.8640 0.9608
-1.3794 9.4577 -2.8614 0.9609
-3.8190 8.7343 -2.8539 0.9610
-4.5756 8.3495 -2.8504 0.9610
-5.2932 7.8981 -2.8464 0.9611
-6.5904 6.8146 -2.8382 0.9612
-9.3222 3.4716 -2.9781 0.9593
-9.7775 1.7615 -2.9743 0.9594
-9.3607 0.0000 -2.9728 0.9615
-8.4365 -4.0298 -2.9693 0.9615
-6.5025 -6.7235 -2.9705 0.9615
-5.8799 -7.2776 -2.9714 0.9615
-2.9759 -8.8885 -2.9769 0.9614
-0.5229 -9.3776 -2.9828 0.9613
0.3141 -9.3941 -2.9851 0.9613
1.9779 -9.2044 -2.9899 0.9613
2.7723 -8.9370 -2.9717 0.9615
5.0078 -7.8446 -2.9557 0.9617
6.9297 -6.2676 -2.9674 0.9615
7.4702 -5.6336 -2.9714 0.9615
9.2300 -1.8761 -2.9912 0.9612
9.3718 -1.0484 -2.9949 0.9612
9.3463 1.4697 -3.0047 0.9611
9.1870 2.2978 -3.0075 0.9610
8.9535 3.1090 -3.0100 0.9610
8.6476 3.8964 -3.0123 0.9610
8.2717 4.6536 -3.0142 0.9610
7.3477 6.0730 -3.0274 0.9608
6.7767 6.7016 -3.0268 0.9608
6.1516 7.2762 -3.0260 0.9608
2.4089 9.1947 -3.0187 0.9609
1.4997 8.8910 -2.8635 0.9629
-2.4736 8.6507 -2.8574 0.9629
-3.9593 8.0569 -2.8510 0.9630
-4.6546 7.6626 -2.8473 0.9631
-5.9238 6.6982 -2.8398 0.9632
-6.8386 6.4680 -2.9894 0.9613
-7.3812 5.8289 -2.9869 0.9613
-7.8645 5.1447 -2.9846 0.9613
-8.6395 3.6635 -2.9803 0.9614
-8.9255 2.8781 -2.9783 0.9614
-9.1407 2.0710 -2.9765 0.9614
-9.3534 0.4171 -2.9735 0.9615
-9.1218 -2.0667 -2.9704 0.9615
-8.8998 -2.8698 -2.9698 0.9615
-8.6080 -3.6501 -2.9694 0.9615
-8.2485 -4.4015 -2.9692 0.9615
-5.5509 -7.5337 -2.9719 0.9615
-4.8602 -8.0010 -2.9731 0.9615
-3.3679 -8.7446 -2.9760 0.9614
-2.5778 -9.0150 -2.9778 0.9614
-0.9398 -9.3416 -2.9817 0.9614
-0.1047 -9.3951 -2.9839 0.9613
1.5653 -9.2795 -2.9887 0.9613
3.1512 -8.7587 -2.9562 0.9617
3.9104 -8.4266 -2.9503 0.9618
5.3557 -7.6186 -2.9576 0.9617
6.0204 -7.1209 -2.9614 0.9616
6.6392 -6.5656 -2.9654 0.9616
7.2070 -5.9567 -2.9694 0.9615
7.7190 -5.2988 -2.9735 0.9615
8.5594 -3.8567 -2.9815 0.9614
8.8805 -3.0836 -2.9855 0.9613
9.1315 -2.2839 -2.9894 0.9613
9.3102 -1.4639 -2.9931 0.9612
9.3978 1.0513 -3.0032 0.9611
9.0794 2.7060 -3.0088 0.9610
8.8095 3.5061 -3.0112 0.9610
8.4682 4.2792 -3.0132 0.9610
8.0584 5.0188 -3.0150 0.9609
7.0693 6.3938 -3.0272 0.9608
5.8204 7.5417 -3.0255 0.9608
5.1241 8.0267 -3.0243 0.9608
4.3873 8.4471 -3.0229 0.9608
1.1022 8.9490 -2.8635 0.9629
0.3013 9.0108 -2.8633 0.9629
-0.5018 8.9997 -2.8626 0.9629
-1.3001 8.9144 -2.8610 0.9629
-2.8552 8.5282 -2.8562 0.9630
-4.3115 7.8675 -2.8492 0.9630
-5.6230 6.9597 -2.8416 0.9631
-7.1171 6.1544 -2.9881 0.9613
-7.6305 5.4921 -2.9858 0.9613
-8.0828 4.7875 -2.9835 0.9613
-8.4707 4.0461 -2.9813 0.9614
-9.0420 2.4769 -2.9774 0.9614
-9.3277 0.8335 -2.9741 0.9615
-8.5302 -2.3366 -2.9716 0.9634
-7.9788 -3.8112 -2.9709 0.9634
-6.1495 -6.3585 -2.9720 0.9634
-4.9277 -7.3527 -2.9739 0.9633
-3.5491 -8.1170 -2.9765 0.9633
-2.8140 -8.4051 -2.9780 0.9633
-2.0560 -8.6272 -2.9798 0.9633
-1.2807 -8.7815 -2.9817 0.9632
1.0871 -8.8267 -2.9880 0.9632
1.8699 -8.7017 -2.9904 0.9631
3.3472 -8.1449 -2.9586 0.9635
5.3830 -6.9749 -2.9602 0.9635
8.5189 -2.5389 -2.9866 0.9632
8.8549 -0.9905 -2.9936 0.9631
8.6783 2.1706 -3.0056 0.9630
8.1681 3.6804 -3.0100 0.9629
7.8127 4.3954 -3.0118 0.9629
7.3941 5.0758 -3.0133 0.9629
6.4023 6.3314 -3.0252 0.9627
5.8118 6.8743 -3.0244 0.9627
5.1752 7.3618 -3.0234 0.9627
4.4976 7.7901 -3.0222 0.9628
3.7847 8.1558 -3.0208 0.9628
3.0421 8.4558 -3.0193 0.9628
2.2762 8.6881 -3.0175 0.9628
1.4170 8.4007 -2.8624 0.9647
0.6636 8.4921 -2.8619 0.9647
-1.6018 8.3564 -2.8587 0.9647
-2.3371 8.1735 -2.8562 0.9648
-3.0520 7.9244 -2.8531 0.9648
-3.7409 7.6125 -2.8498 0.9648
-4.3982 7.2405 -2.8463 0.9649
-5.8244 6.5857 -2.9539 0.9636
-6.4652 6.1148 -2.9899 0.9631
-6.9784 5.5109 -2.9876 0.9632
-7.4357 4.8642 -2.9853 0.9632
-8.1691 3.4640 -2.9812 0.9632
-8.6436 1.9584 -2.9777 0.9633
-8.7790 1.1807 -2.9762 0.9633
-8.4169 -2.7141 -2.9713 0.9634
-8.1409 -3.4520 -2.9710 0.9634
-7.8010 -4.1627 -2.9708 0.9634
-7.3997 -4.8407 -2.9709 0.9634
-5.2494 -7.1246 -2.9733 0.9633
-3.9062 -7.9489 -2.9757 0.9633
-3.1848 -8.2692 -2.9772 0.9633
-2.4375 -8.5245 -2.9789 0.9633
-0.0990 -8.8830 -2.9847 0.9632
2.2566 -8.6132 -2.9915 0.9631
4.3973 -7.6164 -2.9548 0.9636
5.0638 -7.2033 -2.9584 0.9635
5.6919 -6.7324 -2.9620 0.9635
7.2962 -5.0085 -2.9734 0.9633
7.7230 -4.3448 -2.9772 0.9633
8.9224 0.1989 -2.9985 0.9630
8.8782 0.9932 -3.0015 0.9630
8.5765 2.5561 -3.0068 0.9629
8.3211 3.3117 -3.0090 0.9629
7.6111 4.7403 -3.0126 0.9629
7.1854 5.4188 -3.0237 0.9627
6.6787 6.0405 -3.0256 0.9627
6.1132 6.6095 -3.0249 0.9627
4.8412 7.5836 -3.0229 0.9627
4.1452 7.9810 -3.0216 0.9628
3.4167 8.3141 -3.0201 0.9628
2.6617 8.5805 -3.0184 0.9628
1.0413 8.4545 -2.8620 0.9647
-0.4741 8.5018 -2.8609 0.9647
-1.2283 8.4222 -2.8596 0.9647
-1.9717 8.2735 -2.8576 0.9647
-3.4000 7.7761 -2.8515 0.9648
-4.0738 7.4338 -2.8481 0.9649
-4.7134 7.0329 -2.8445 0.9649
-6.7286 5.8185 -2.9887 0.9632
-7.2143 5.1926 -2.9864 0.9632
-7.6423 4.5265 -2.9843 0.9632
-8.5502 2.3421 -2.9785 0.9633
-8.3913 0.0000 -2.9754 0.9650
-8.3552 -0.7466 -2.9744 0.9650
-8.0864 -2.2151 -2.9730 0.9650
-7.8560 -2.9256 -2.9725 0.9650
-7.5638 -3.6129 -2.9723 0.9651
-7.2121 -4.2718 -2.9723 0.9651
-6.3417 -5.4838 -2.9728 0.9650
-5.2713 -6.5243 -2.9742 0.9650
-3.3642 -7.6941 -2.9776 0.9650
-1.9487 -8.1772 -2.9807 0.9650
-1.2139 -8.3232 -2.9825 0.9649
2.5008 -8.0619 -2.9930 0.9648
6.2077 -5.6145 -2.9679 0.9651
7.1221 -4.4357 -2.9751 0.9650
7.4978 -3.7888 -2.9788 0.9650
7.8146 -3.1101 -2.9823 0.9649
8.4461 -0.1882 -2.9956 0.9648
8.2181 2.0555 -3.0038 0.9647
7.7343 3.4849 -3.0080 0.9646
7.3976 4.1618 -3.0097 0.9646
6.5743 5.4339 -3.0244 0.9644
6.0635 5.9964 -3.0238 0.9645
5.5044 6.5106 -3.0231 0.9645
4.9015 6.9725 -3.0221 0.9645
1.3907 8.2448 -2.9648 0.9651
-0.0898 8.0645 -2.8597 0.9664
-0.8070 8.0216 -2.8587 0.9664
-2.2134 7.7407 -2.8547 0.9664
-2.8906 7.5053 -2.8518 0.9664
-4.1661 6.8584 -2.8454 0.9665
-4.8067 6.5238 -2.8733 0.9662
-5.5910 6.3219 -2.9926 0.9648
-7.0472 4.6101 -2.9860 0.9649
-7.4246 3.9619 -2.9840 0.9649
-7.9996 2.5796 -2.9804 0.9650
-8.1930 1.8563 -2.9788 0.9650
-8.3217 1.1192 -2.9773 0.9650
-7.9791 -2.5729 -2.9727 0.9650
-7.7175 -3.2725 -2.9724 0.9650
-7.3953 -3.9462 -2.9722 0.9651
-7.0149 -4.5889 -2.9723 0.9650
-6.5792 -5.1955 -2.9726 0.9650
-4.3569 -7.1724 -2.9757 0.9650
-3.0188 -7.8382 -2.9783 0.9650
-2.3104 -8.0800 -2.9799 0.9650
1.4024 -8.3139 -2.9897 0.9648
2.1384 -8.1622 -2.9919 0.9648
3.5151 -7.5749 -2.9610 0.9652
4.7993 -6.8271 -2.9591 0.9652
5.3942 -6.3803 -2.9626 0.9652
6.9132 -4.7457 -2.9733 0.9650
7.3171 -4.1165 -2.9770 0.9650
7.9501 -2.7605 -2.9841 0.9649
8.4250 -0.5640 -2.9941 0.9648
8.4080 0.9406 -3.0000 0.9647
8.1215 2.4205 -3.0050 0.9647
7.5737 3.8271 -3.0089 0.9646
7.2067 4.4884 -3.0105 0.9646
6.8103 5.1359 -3.0246 0.9644
5.7897 6.2598 -3.0235 0.9645
3.9261 7.5592 -3.0203 0.9645
3.2362 7.8749 -3.0189 0.9645
-1.1632 7.9757 -2.8580 0.9664
-2.5547 7.6306 -2.8533 0.9664
-3.2203 7.3651 -2.8503 0.9665
-5.2837 6.5397 -2.9811 0.9649
-5.8649 6.0643 -2.9914 0.9648
-6.3766 5.5141 -2.9892 0.9649
-6.8372 4.9211 -2.9871 0.9649
-7.5912 3.6260 -2.9831 0.9649
-7.8790 2.9342 -2.9812 0.9649
-8.2655 1.4891 -2.9780 0.9650
-8.3614 0.7472 -2.9766 0.9650
-7.9371 -0.7093 -2.9756 0.9665
-7.6820 -2.1043 -2.9742 0.9666
-7.1857 -3.4323 -2.9736 0.9666
-6.0245 -5.2096 -2.9741 0.9666
-5.5380 -5.7262 -2.9746 0.9666
-5.0076 -6.1979 -2.9754 0.9666
-4.4374 -6.6211 -2.9763 0.9665
-2.5337 -7.5677 -2.9801 0.9665
-1.8510 -7.7673 -2.9816 0.9665
-1.1530 -7.9057 -2.9833 0.9665
-0.4451 -7.9818 -2.9851 0.9664
0.9785 -7.9447 -2.9891 0.9664
1.6829 -7.8315 -2.9912 0.9664
3.0444 -7.4081 -2.9908 0.9664
3.6580 -7.0429 -2.9635 0.9667
4.2627 -6.6774 -2.9582 0.9667
4.8454 -6.2783 -2.9614 0.9667
7.1190 -3.5974 -2.9784 0.9665
7.6613 -2.2833 -2.9851 0.9664
7.8426 -1.5941 -2.9884 0.9664
7.9616 -0.8906 -2.9915 0.9664
8.0172 -0.1786 -2.9944 0.9663
7.9360 1.2479 -2.9998 0.9663
5.7554 5.6916 -3.0225 0.9660
5.2247 6.1798 -3.0218 0.9660
4.0436 7.0037 -3.0198 0.9661
0.5965 7.6331 -2.8590 0.9678
-0.7659 7.6132 -2.8572 0.9679
-1.4397 7.5106 -2.8556 0.9679
-2.7438 7.1240 -2.8507 0.9679
-3.3634 6.8444 -2.8477 0.9680
-5.3097 6.0038 -2.9928 0.9664
-5.8188 5.5034 -2.9907 0.9664
-6.2812 4.9602 -2.9886 0.9664
-6.6933 4.3786 -2.9866 0.9664
-7.5986 2.4503 -2.9813 0.9665
-7.7825 1.7633 -2.9797 0.9665
-7.9649 0.3552 -2.9771 0.9665
-7.7689 -1.7602 -2.9745 0.9666
-7.0255 -3.7489 -2.9735 0.9666
-6.6641 -4.3594 -2.9736 0.9666
-6.2502 -4.9357 -2.9739 0.9666
-4.7272 -6.4158 -2.9758 0.9665
-3.5173 -7.1575 -2.9780 0.9665
-2.8676 -7.4455 -2.9793 0.9665
-2.1946 -7.6751 -2.9808 0.9665
-0.7999 -7.9516 -2.9842 0.9665
2.0308 -7.7516 -2.9922 0.9664
3.3520 -7.2234 -2.9736 0.9666
3.9647 -6.8671 -2.9609 0.9667
5.1231 -6.0596 -2.9630 0.9667
6.1303 -5.0668 -2.9698 0.9666
6.5646 -4.5063 -2.9733 0.9666
7.2763 -3.2785 -2.9801 0.9665
7.7596 -1.9408 -2.9868 0.9664
7.9973 -0.5353 -2.9930 0.9664
7.9804 0.8928 -2.9985 0.9663
7.8758 1.6008 -3.0010 0.9663
7.7078 2.2972 -3.0033 0.9662
6.8592 4.2719 -3.0174 0.9661
6.4642 4.8749 -3.0232 0.9660
6.0038 5.4301 -3.0228 0.9660
5.4955 5.9417 -3.0222 0.9660
3.7268 7.1754 -3.0192 0.9661
1.6962 7.8934 -3.0148 0.9661
0.9568 7.7688 -2.9229 0.9671
-1.7722 7.4364 -2.8546 0.9679
-2.4249 7.2428 -2.8521 0.9679
-3.6630 6.6842 -2.8462 0.9680
-5.0388 6.2366 -2.9939 0.9663
-5.5699 5.7592 -2.9918 0.9664
-6.0561 5.2369 -2.9897 0.9664
-6.4938 4.6739 -2.9876 0.9664
-7.2104 3.4441 -2.9838 0.9665
-7.4840 2.7871 -2.9821 0.9665
-7.6982 2.1088 -2.9805 0.9665
-7.8515 1.4145 -2.9790 0.9665
-7.4625 -1.3444 -2.9760 0.9679
-7.1036 -2.6454 -2.9750 0.9680
-6.8394 -3.2669 -2.9748 0.9680
-6.5214 -3.8626 -2.9747 0.9680
-6.1521 -4.4280 -2.9749 0.9680
-5.7342 -4.9586 -2.9753 0.9679
-5.2711 -5.4502 -2.9758 0.9679
-4.2234 -6.3018 -2.9774 0.9679
-3.6470 -6.6550 -2.9784 0.9679
-3.0415 -6.9560 -2.9796 0.9679
-2.4114 -7.2024 -2.9809 0.9679
-1.0973 -7.5236 -2.9840 0.9679
-0.4235 -7.5958 -2.9858 0.9678
1.6014 -7.4521 -2.9915 0.9678
3.4952 -6.7294 -2.9761 0.9679
4.6109 -5.9745 -2.9619 0.9681
5.1298 -5.5463 -2.9651 0.9681
6.4340 -4.0071 -2.9749 0.9680
6.7726 -3.4223 -2.9781 0.9679
7.0579 -2.8090 -2.9814 0.9679
7.4597 -1.5162 -2.9876 0.9678
7.5472 1.1868 -2.9985 0.9677
6.9796 3.1449 -3.0045 0.9676
5.9347 4.9052 -3.0218 0.9675
5.4737 5.4131 -3.0213 0.9675
4.9691 5.8775 -3.0207 0.9675
4.4250 6.2946 -3.0198 0.9675
1.2770 7.5704 -3.0131 0.9675
0.5808 7.4320 -2.9257 0.9685
-0.0811 7.2788 -2.8569 0.9692
-0.7283 7.2399 -2.8558 0.9692
-1.3691 7.1425 -2.8542 0.9692
-1.9979 6.9872 -2.8522 0.9693
-2.6095 6.7756 -2.8496 0.9693
-3.1990 6.5103 -2.8470 0.9693
-3.9122 6.4403 -2.9574 0.9681
-5.0523 5.7127 -2.9931 0.9678
-5.5369 5.2368 -2.9911 0.9678
-5.9771 4.7201 -2.9891 0.9678
-6.9991 2.9679 -2.9837 0.9679
-7.2316 2.3319 -2.9821 0.9679
-7.5235 1.0118 -2.9793 0.9679
-7.5159 -1.0108 -2.9763 0.9679
-7.2148 -2.3265 -2.9752 0.9680
-6.6870 -3.5683 -2.9747 0.9680
-5.9490 -4.6979 -2.9751 0.9680
-5.0236 -5.6803 -2.9761 0.9679
-4.4993 -6.1064 -2.9769 0.9679
-3.9392 -6.4848 -2.9779 0.9679
-3.3476 -6.8122 -2.9790 0.9679
-2.7292 -7.0861 -2.9802 0.9679
-0.7613 -7.5671 -2.9849 0.9678
-0.0848 -7.6094 -2.9867 0.9678
1.2674 -7.5135 -2.9905 0.9678
1.9324 -7.3759 -2.9925 0.9678
2.5830 -7.1796 -2.9946 0.9677
4.3386 -6.1717 -2.9608 0.9681
5.8328 -4.8209 -2.9699 0.9680
6.2457 -4.2874 -2.9732 0.9680
6.6098 -3.7186 -2.9765 0.9679
7.1799 -2.4931 -2.9829 0.9679
7.6064 -0.5092 -2.9920 0.9678
7.5895 0.8490 -2.9973 0.9677
7.1107 2.8300 -3.0037 0.9676
5.2266 5.6509 -3.0210 0.9675
4.1395 6.4844 -3.0193 0.9675
3.5446 6.8246 -3.0182 0.9675
2.9219 7.1100 -3.0169 0.9675
0.9382 7.6176 -3.0123 0.9676
0.2433 7.2767 -2.8575 0.9692
-0.4052 7.2667 -2.8564 0.9692
-1.0499 7.1985 -2.8551 0.9692
-1.6853 7.0720 -2.8533 0.9692
-2.3062 6.8883 -2.8509 0.9693
-2.9074 6.6493 -2.8482 0.9693
-5.2999 5.4801 -2.9921 0.9678
-5.7628 4.9833 -2.9901 0.9678
-6.5467 3.8777 -2.9863 0.9678
-6.8618 3.2776 -2.9845 0.9679
-7.3265 2.0070 -2.9814 0.9679
-7.4725 1.3463 -2.9800 0.9679
-7.5596 0.6755 -2.9787 0.9679
-6.5211 -3.1148 -2.9759 0.9692
-6.2179 -3.6829 -2.9758 0.9692
-5.8657 -4.2219 -2.9760 0.9692
-5.4673 -4.7278 -2.9763 0.9692
-4.0267 -6.0082 -2.9783 0.9692
-3.4771 -6.3449 -2.9793 0.9692
-2.2989 -6.8665 -2.9817 0.9692
-1.0461 -7.1724 -2.9847 0.9691
0.2425 -7.2524 -2.9881 0.9691
0.8876 -7.2065 -2.9899 0.9691
2.1540 -6.9438 -2.9938 0.9690
2.7653 -6.7290 -2.9958 0.9690
3.3506 -6.4510 -2.9933 0.9690
4.3983 -5.6990 -2.9644 0.9693
5.3465 -4.8356 -2.9685 0.9693
6.4544 -3.2615 -2.9778 0.9692
7.1082 -1.4448 -2.9869 0.9691
7.2153 -0.8071 -2.9897 0.9691
7.2650 -0.1619 -2.9924 0.9691
7.1903 1.1306 -2.9972 0.9690
7.0662 1.7674 -2.9994 0.9690
6.8853 2.3908 -3.0013 0.9690
6.3943 3.5974 -3.0211 0.9688
5.2152 5.1574 -3.0202 0.9688
4.7344 5.5999 -3.0196 0.9688
4.2161 5.9974 -3.0188 0.9688
2.4790 6.8905 -3.0154 0.9688
1.8550 7.0804 -3.0140 0.9688
-0.0776 6.9637 -2.8677 0.9703
-1.9034 6.6569 -2.8510 0.9705
-3.1386 6.3869 -2.9304 0.9697
-3.7790 6.2211 -2.9973 0.9690
-4.3148 5.8562 -2.9953 0.9690
-5.6976 4.4994 -2.9895 0.9691
-6.3975 3.4139 -2.9860 0.9691
-6.6724 2.8293 -2.9844 0.9691
-6.8942 2.2231 -2.9829 0.9692
-7.1728 0.9647 -2.9802 0.9692
-7.2275 0.3223 -2.9791 0.9692
-6.0478 -3.9563 -2.9759 0.9692
-4.2897 -5.8220 -2.9779 0.9692
-3.1916 -6.4947 -2.9799 0.9692
-2.6019 -6.7557 -2.9811 0.9692
-1.3642 -7.1168 -2.9839 0.9691
-0.0808 -7.2539 -2.9872 0.9691
1.2081 -7.1620 -2.9909 0.9691
1.8419 -7.0306 -2.9928 0.9690
2.4620 -6.8433 -2.9948 0.9690
3.0634 -6.6014 -2.9968 0.9690
3.6177 -6.2660 -2.9794 0.9692
5.5595 -4.5951 -2.9700 0.9693
5.9527 -4.0863 -2.9732 0.9692
6.5967 -2.9723 -2.9794 0.9692
7.0333 -1.7592 -2.9854 0.9691
7.1689 -1.1272 -2.9883 0.9691
7.2474 -0.4851 -2.9910 0.9691
7.2308 0.8089 -2.9961 0.9690
7.1354 1.4503 -2.9983 0.9690
6.7739 2.6960 -3.0022 0.9690
6.5369 3.3032 -3.0159 0.9688
6.2276 3.8786 -3.0211 0.9688
5.8573 4.4172 -3.0209 0.9688
5.4402 4.9204 -3.0205 0.9688
4.9797 5.3840 -3.0199 0.9688
4.4797 5.8045 -3.0192 0.9688
2.7841 6.7746 -3.0161 0.9688
1.5374 7.1542 -3.0132 0.9688
0.8940 7.2588 -3.0116 0.9689
0.2391 7.1524 -2.9469 0.9695
-0.3860 6.9231 -2.8552 0.9705
-1.6056 6.7375 -2.8521 0.9705
-2.1972 6.5628 -2.8499 0.9705
-2.7864 6.3726 -2.8640 0.9704
-3.4993 6.3854 -2.9983 0.9690
-4.0510 6.0446 -2.9963 0.9690
-5.0519 5.2237 -2.9924 0.9691
-5.8906 4.2398 -2.9886 0.9691
-6.7900 2.5287 -2.9836 0.9691
-7.1242 1.2835 -2.9808 0.9692
-6.9072 0.0000 -2.9795 0.9704
-6.8779 -0.6146 -2.9786 0.9704
-6.7943 -1.2241 -2.9780 0.9704
-6.4677 -2.4086 -2.9771 0.9704
-6.2273 -2.9745 -2.9769 0.9704
-4.7991 -4.9622 -2.9778 0.9704
-4.3393 -5.3708 -2.9784 0.9704
-3.8451 -5.7373 -2.9792 0.9704
-1.6036 -6.7289 -2.9838 0.9703
0.2315 -6.9244 -2.9886 0.9703
0.8474 -6.8803 -2.9903 0.9703
2.6399 -6.4239 -2.9959 0.9702
3.2033 -6.1674 -2.9978 0.9702
4.2057 -5.4495 -2.9693 0.9705
4.6684 -5.0474 -2.9657 0.9705
6.1609 -3.1132 -2.9776 0.9704
6.4199 -2.5550 -2.9805 0.9703
6.6282 -1.9754 -2.9834 0.9703
6.7841 -1.3789 -2.9862 0.9703
6.8860 -0.7703 -2.9889 0.9703
6.9332 -0.1545 -2.9914 0.9702
6.8614 1.0789 -2.9961 0.9702
6.7427 1.6865 -2.9981 0.9702
6.5715 2.2820 -3.0007 0.9702
5.7720 3.9623 -3.0200 0.9700
4.9768 4.9217 -3.0192 0.9700
4.5181 5.3440 -3.0186 0.9700
3.4970 6.0570 -3.0169 0.9700
2.9430 6.3419 -3.0158 0.9700
1.7704 6.7575 -3.0133 0.9700
0.5436 6.9573 -3.0102 0.9701
-0.0772 6.9342 -2.9913 0.9702
-1.2448 6.4941 -2.8523 0.9716
-1.8236 6.3775 -2.8613 0.9715
-4.1192 5.5906 -2.9955 0.9702
-5.7972 3.7924 -2.9882 0.9703
-6.3709 2.7015 -2.9850 0.9703
-6.7427 1.5277 -2.9822 0.9703
-6.8491 0.9211 -2.9810 0.9703
-6.9015 0.3078 -2.9800 0.9704
-6.8994 -0.3076 -2.9790 0.9704
-6.5689 -2.1182 -2.9772 0.9704
-6.3537 -2.6942 -2.9770 0.9704
-6.0885 -3.2489 -2.9768 0.9704
-5.7753 -3.7780 -2.9769 0.9704
-5.0150 -4.7431 -2.9775 0.9704
-4.5738 -5.1716 -2.9781 0.9704
-4.0963 -5.5595 -2.9788 0.9704
-3.5863 -5.9038 -2.9797 0.9704
-3.0476 -6.2017 -2.9807 0.9703
-2.4845 -6.4508 -2.9819 0.9703
-0.6929 -6.8878 -2.9861 0.9703
0.5399 -6.9092 -2.9894 0.9703
1.1534 -6.8378 -2.9912 0.9702
1.7585 -6.7121 -2.9930 0.9702
4.8910 -4.8368 -2.9672 0.9705
5.3074 -4.3867 -2.9701 0.9704
5.6825 -3.9008 -2.9731 0.9704
6.0131 -3.3829 -2.9761 0.9704
6.5305 -2.2676 -2.9820 0.9703
6.7128 -1.6790 -2.9848 0.9703
6.9165 -0.4630 -2.9902 0.9703
6.9360 0.1546 -2.9927 0.9702
6.8089 1.3840 -2.9971 0.9702
6.4719 2.5762 -3.0046 0.9701
6.2488 3.1577 -3.0201 0.9700
5.9429 3.7013 -3.0200 0.9700
4.7522 5.1380 -3.0190 0.9700
4.2750 5.5393 -3.0183 0.9700
3.7640 5.8962 -3.0174 0.9700
3.2232 6.2057 -3.0164 0.9700
2.0701 6.6734 -3.0140 0.9700
0.2331 6.9727 -3.0094 0.9701
-0.3783 6.7836 -2.9307 0.9708
-2.1248 6.3465 -2.8870 0.9713
-3.3405 6.0956 -2.9983 0.9702
-4.8231 4.9870 -2.9926 0.9702
-5.9587 3.5293 -2.9874 0.9703
-6.2458 2.9834 -2.9858 0.9703
-6.4834 2.4144 -2.9843 0.9703
-6.8821 0.6150 -2.9805 0.9703
-6.6050 0.0000 -2.9803 0.9714
-6.5771 -0.5877 -2.9795 0.9714
-6.4972 -1.1705 -2.9789 0.9714
-6.3662 -1.7439 -2.9783 0.9714
-5.6782 -3.3632 -2.9778 0.9715
-4.5893 -4.7453 -2.9787 0.9714
-4.1495 -5.1360 -2.9793 0.9714
-3.6769 -5.4863 -2.9801 0.9714
-2.6476 -6.0553 -2.9820 0.9714
-2.0990 -6.2694 -2.9832 0.9714
-1.5333 -6.4341 -2.9845 0.9714
-0.3686 -6.6105 -2.9874 0.9714
0.8102 -6.5783 -2.9907 0.9713
2.5238 -6.1414 -2.9960 0.9713
3.0623 -5.8960 -2.9978 0.9713
4.0305 -5.2225 -2.9767 0.9715
4.8798 -4.4135 -2.9688 0.9715
5.2582 -3.9654 -2.9717 0.9715
6.1366 -2.4423 -2.9802 0.9714
6.3354 -1.8881 -2.9829 0.9714
6.4841 -1.3179 -2.9856 0.9714
6.5813 -0.7362 -2.9881 0.9714
6.6262 -0.1476 -2.9906 0.9713
6.6181 0.4431 -2.9929 0.9713
6.5571 1.0311 -2.9950 0.9713
6.2911 2.1845 -3.0049 0.9712
5.8315 3.2808 -3.0191 0.9711
4.7563 4.7036 -3.0183 0.9711
4.3179 5.1073 -3.0177 0.9711
3.8453 5.4700 -3.0170 0.9711
3.3422 5.7888 -3.0161 0.9711
2.8127 6.0612 -3.0151 0.9711
2.2612 6.2851 -3.0139 0.9711
1.6921 6.4586 -3.0126 0.9711
1.1100 6.5805 -3.0112 0.9711
0.5196 6.6499 -3.0097 0.9712
-0.0742 6.6662 -3.0081 0.9712
-0.6669 6.6295 -3.0064 0.9712
-1.2379 6.4582 -2.9671 0.9716
-1.8164 6.3522 -2.9811 0.9714
-2.9316 5.9657 -2.9993 0.9713
-3.4488 5.6776 -2.9974 0.9713
-3.9381 5.3448 -2.9956 0.9713
-6.2945 2.0297 -2.9842 0.9714
-6.5493 0.8808 -2.9818 0.9714
-6.5995 0.2943 -2.9808 0.9714
-6.5976 -0.2942 -2.9799 0.9714
-6.4380 -1.4587 -2.9786 0.9714
-6.2817 -2.0256 -2.9782 0.9715
-6.0760 -2.5764 -2.9779 0.9715
-5.5228 -3.6128 -2.9778 0.9715
-4.7957 -4.5357 -2.9784 0.9714
-2.3757 -6.1684 -2.9826 0.9714
1.6812 -6.4172 -2.9933 0.9713
3.3230 -5.7555 -2.9987 0.9713
4.2525 -5.0299 -2.9720 0.9715
4.6793 -4.6274 -2.9694 0.9715
5.0740 -4.1937 -2.9702 0.9715
5.4323 -3.7290 -2.9731 0.9715
5.7481 -3.2338 -2.9759 0.9715
6.6103 -0.4425 -2.9894 0.9713
6.5942 0.7377 -2.9940 0.9713
6.5068 1.3226 -2.9960 0.9713
6.2126 2.4725 -3.0171 0.9711
5.3418 4.0285 -3.0189 0.9711
4.0857 5.2940 -3.0174 0.9711
3.5973 5.6351 -3.0166 0.9711
3.0805 5.9310 -3.0156 0.9711
2.5394 6.1794 -3.0145 0.9711
1.9786 6.3783 -3.0133 0.9711
0.8156 6.6218 -3.0105 0.9711
-0.3710 6.6545 -3.0073 0.9712
-1.5243 6.3963 -2.9669 0.9716
-2.1122 6.3090 -3.0020 0.9712
-2.6637 6.0922 -3.0002 0.9712
-5.0143 4.3361 -2.9911 0.9713
-5.3773 3.8704 -2.9895 0.9713
-5.6974 3.3746 -2.9878 0.9714
-6.5048 1.1719 -2.9823 0.9714
-6.3242 0.0000 -2.9811 0.9724
-6.2975 -0.5627 -2.9803 0.9724
-6.2211 -1.1208 -2.9797 0.9724
-5.9222 -2.2054 -2.9789 0.9724
-5.7020 -2.7236 -2.9787 0.9724
-5.4370 -3.2203 -2.9787 0.9724
-4.7805 -4.1339 -2.9791 0.9724
-4.3942 -4.5436 -2.9795 0.9724
-3.5206 -5.2531 -2.9808 0.9724
-2.5350 -5.7977 -2.9827 0.9724
-2.0097 -6.0025 -2.9838 0.9724
-0.9143 -6.2692 -2.9864 0.9724
0.2119 -6.3383 -2.9894 0.9723
1.3338 -6.2070 -2.9926 0.9723
1.8820 -6.0671 -2.9943 0.9723
2.9314 -5.6439 -2.9978 0.9723
3.8800 -5.0274 -2.9935 0.9723
5.0334 -3.7958 -2.9717 0.9725
5.3562 -3.3359 -2.9744 0.9725
5.8735 -2.3376 -2.9798 0.9724
6.0635 -1.8071 -2.9824 0.9724
6.2056 -1.2613 -2.9850 0.9724
6.2984 -0.7046 -2.9875 0.9724
6.3332 0.4240 -2.9920 0.9723
6.2746 0.9867 -2.9940 0.9723
6.1746 1.5449 -3.0001 0.9722
6.0477 2.1000 -3.0177 0.9721
5.8376 2.6303 -3.0182 0.9721
5.2787 3.6237 -3.0181 0.9721
4.9348 4.0788 -3.0179 0.9721
4.1322 4.8876 -3.0169 0.9721
2.6918 5.8006 -3.0143 0.9721
2.1640 6.0150 -3.0132 0.9721
0.4973 6.3645 -3.0092 0.9722
-0.0711 6.3803 -3.0077 0.9722
-0.6383 6.3452 -3.0061 0.9722
-1.1999 6.2598 -3.0044 0.9722
-1.7513 6.1247 -3.0027 0.9722
-2.8062 5.7104 -2.9992 0.9723
-3.3014 5.4348 -2.9975 0.9723
-4.6119 4.3620 -2.9923 0.9723
-5.3066 3.4714 -2.9891 0.9723
-5.5916 2.9838 -2.9875 0.9724
-5.8322 2.4731 -2.9861 0.9724
-6.1731 1.3986 -2.9836 0.9724
-6.2707 0.8433 -2.9825 0.9724
-6.3188 0.2818 -2.9815 0.9724
-6.2654 -0.8426 -2.9800 0.9724
-6.1644 -1.3967 -2.9794 0.9724
-6.0148 -1.9395 -2.9790 0.9724
-5.2882 -3.4593 -2.9787 0.9724
-4.9596 -3.9166 -2.9789 0.9724
-4.5919 -4.3430 -2.9793 0.9724
-4.1879 -4.7353 -2.9798 0.9724
-3.7506 -5.0904 -2.9805 0.9724
-3.2835 -5.4054 -2.9813 0.9724
-2.7903 -5.6780 -2.9822 0.9724
-0.6343 -6.3052 -2.9871 0.9724
-0.0706 -6.3398 -2.9886 0.9724
2.1511 -5.9790 -2.9952 0.9723
2.6763 -5.7672 -2.9970 0.9723
4.0850 -4.8317 -2.9824 0.9724
4.4858 -4.4361 -2.9738 0.9725
4.8598 -4.0167 -2.9720 0.9725
5.1999 -3.5695 -2.9730 0.9725
5.5020 -3.0954 -2.9758 0.9725
5.7609 -2.5957 -2.9785 0.9724
6.1407 -1.5358 -2.9837 0.9724
6.2583 -0.9840 -2.9862 0.9724
6.3261 -0.4235 -2.9886 0.9724
6.3102 0.7059 -2.9930 0.9723
6.2308 1.2662 -2.9972 0.9723
6.1151 1.8225 -3.0078 0.9722
5.9488 2.3676 -3.0181 0.9721
4.7479 4.2943 -3.0177 0.9721
4.3462 4.6991 -3.0172 0.9721
3.9099 5.0662 -3.0166 0.9721
2.4303 5.9137 -3.0138 0.9721
1.8935 6.1042 -3.0126 0.9721
1.3421 6.2458 -3.0113 0.9721
0.7805 6.3375 -3.0099 0.9722
-0.3551 6.3691 -3.0069 0.9722
-2.0218 6.0388 -3.0019 0.9722
-2.5498 5.8315 -3.0001 0.9722
-3.9928 4.9420 -2.9948 0.9723
-5.1480 3.7053 -2.9898 0.9723
-5.9353 2.2103 -2.9855 0.9724
-6.2281 1.1221 -2.9830 0.9724
-6.3010 0.5631 -2.9820 0.9724
-5.9636 -1.0744 -2.9804 0.9733
-5.8434 -1.6007 -2.9800 0.9734
-5.4661 -2.6109 -2.9795 0.9734
-5.2120 -3.0871 -2.9795 0.9734
-4.9168 -3.5389 -2.9796 0.9734
-4.5827 -3.9628 -2.9799 0.9734
-4.2124 -4.3556 -2.9803 0.9734
-2.4300 -5.5575 -2.9834 0.9733
-1.9264 -5.7538 -2.9844 0.9733
-0.8764 -6.0092 -2.9869 0.9733
-0.3382 -6.0661 -2.9883 0.9733
3.2815 -5.1403 -2.9995 0.9732
4.1272 -4.4622 -2.9896 0.9733
5.1336 -3.1972 -2.9747 0.9734
5.4019 -2.7297 -2.9769 0.9734
5.6283 -2.2400 -2.9795 0.9734
5.8102 -1.7316 -2.9820 0.9733
5.9462 -1.2086 -2.9845 0.9733
6.0349 -0.6751 -2.9868 0.9733
6.0756 -0.1354 -2.9890 0.9733
6.0694 0.4061 -2.9920 0.9732
5.7947 2.0122 -3.0171 0.9730
5.0576 3.4718 -3.0173 0.9730
4.7281 3.9079 -3.0170 0.9730
3.9591 4.6828 -3.0161 0.9730
3.5258 5.0155 -3.0154 0.9730
2.5792 5.5579 -3.0137 0.9731
2.0735 5.7634 -3.0126 0.9731
1.0179 6.0347 -3.0101 0.9731
0.4765 6.0986 -3.0087 0.9731
-1.6783 5.8693 -3.0025 0.9732
-2.1928 5.6935 -3.0009 0.9732
-3.1640 5.2086 -2.9975 0.9732
-3.6130 4.9036 -2.9958 0.9732
-4.0328 4.5600 -2.9942 0.9732
-4.7723 3.7687 -2.9910 0.9733
-5.3596 2.8600 -2.9880 0.9733
-5.5903 2.3705 -2.9866 0.9733
-6.0572 0.2701 -2.9822 0.9733
-6.0556 -0.2700 -2.9814 0.9733
-6.0061 -0.8077 -2.9807 0.9733
-5.7660 -1.8593 -2.9798 0.9734
-5.5771 -2.3649 -2.9796 0.9734
-5.3443 -2.8518 -2.9795 0.9734
-4.0145 -4.5393 -2.9806 0.9733
-3.5953 -4.8796 -2.9812 0.9733
-2.6747 -5.4428 -2.9829 0.9733
-2.1804 -5.6612 -2.9839 0.9733
-1.1430 -5.9628 -2.9863 0.9733
-0.6080 -6.0436 -2.9876 0.9733
0.4737 -6.0616 -2.9905 0.9733
2.5649 -5.5271 -2.9970 0.9732
5.7249 -1.9879 -2.9808 0.9733
6.0613 -0.4057 -2.9879 0.9733
6.0778 0.1355 -2.9901 0.9733
6.0510 0.6769 -2.9948 0.9732
5.9810 1.2157 -3.0019 0.9732
5.6996 2.2684 -3.0172 0.9730
4.8977 3.6936 -3.0172 0.9730
4.1641 4.5022 -3.0164 0.9730
2.3286 5.6663 -3.0131 0.9731
1.8143 5.8489 -3.0120 0.9731
1.2860 5.9847 -3.0108 0.9731
0.2044 6.1123 -3.0080 0.9731
-0.3403 6.1032 -3.0065 0.9731
-0.8817 6.0455 -3.0050 0.9731
-1.4155 5.9399 -3.0034 0.9731
-1.9375 5.7871 -3.0017 0.9732
-4.2308 4.3746 -2.9933 0.9732
-4.6009 3.9786 -2.9917 0.9733
-5.2282 3.0967 -2.9887 0.9733
-5.4804 2.6178 -2.9873 0.9733
-5.8528 1.6033 -2.9848 0.9733
-6.0401 0.5398 -2.9827 0.9733
-5.7930 -0.5177 -2.9817 0.9742
-5.4480 -2.0288 -2.9804 0.9742
-4.7183 -3.3960 -2.9804 0.9742
-4.3977 -3.8029 -2.9806 0.9742
-2.3318 -5.3329 -2.9840 0.9742
-0.8410 -5.7661 -2.9874 0.9741
-0.3246 -5.8206 -2.9887 0.9741
1.2266 -5.7079 -2.9931 0.9741
2.2215 -5.4057 -2.9963 0.9741
3.9753 -4.2980 -3.0014 0.9740
4.6397 -3.4990 -2.9792 0.9742
4.9325 -3.0720 -2.9791 0.9742
5.1866 -2.6209 -2.9792 0.9742
5.5736 -1.6611 -2.9816 0.9742
5.7904 -0.6476 -2.9871 0.9741
5.8329 -0.1300 -2.9911 0.9741
5.8295 0.3903 -2.9953 0.9741
5.7956 0.9113 -3.0077 0.9740
5.7071 1.4275 -3.0160 0.9739
5.5580 1.9300 -3.0163 0.9739
5.3646 2.4172 -3.0165 0.9739
4.8510 3.3300 -3.0165 0.9739
3.7974 4.4916 -3.0154 0.9739
3.3818 4.8107 -3.0147 0.9739
2.9395 5.0913 -3.0139 0.9739
1.9889 5.5283 -3.0120 0.9739
1.4884 5.6812 -3.0109 0.9739
0.9765 5.7888 -3.0096 0.9740
0.4571 5.8501 -3.0083 0.9740
-0.0654 5.8649 -3.0069 0.9740
-1.6100 5.6307 -3.0024 0.9740
-2.1037 5.4621 -3.0008 0.9740
-2.5801 5.2504 -2.9992 0.9740
-3.0355 4.9972 -2.9975 0.9741
-3.4664 4.7047 -2.9959 0.9741
-3.8693 4.3751 -2.9943 0.9741
-5.1427 2.7443 -2.9884 0.9741
-5.6781 1.2865 -2.9848 0.9742
-5.8125 0.2592 -2.9829 0.9742
-5.8110 -0.2591 -2.9821 0.9742
-5.5332 -1.7842 -2.9806 0.9742
-5.3521 -2.2695 -2.9803 0.9742
-5.1287 -2.7367 -2.9802 0.9742
-4.8648 -3.1824 -2.9803 0.9742
-4.5625 -3.6030 -2.9805 0.9742
-4.2242 -3.9952 -2.9808 0.9742
-3.8525 -4.3560 -2.9813 0.9742
-3.4502 -4.6826 -2.9819 0.9742
-3.0204 -4.9723 -2.9826 0.9742
-2.5666 -5.2229 -2.9835 0.9742
-1.6010 -5.5991 -2.9856 0.9742
-0.5834 -5.7991 -2.9880 0.9741
-0.0650 -5.8306 -2.9894 0.9741
0.4545 -5.8161 -2.9908 0.9741
1.9780 -5.4979 -2.9955 0.9741
2.9246 -5.0655 -2.9987 0.9741
3.7804 -4.4715 -3.0019 0.9740
4.1569 -4.1109 -2.9972 0.9741
4.4847 -3.7067 -2.9829 0.9742
4.7908 -3.2887 -2.9791 0.9742
5.2986 -2.3874 -2.9795 0.9742
5.6443 -1.4117 -2.9828 0.9742
5.8173 -0.3894 -2.9890 0.9741
5.8144 0.6505 -2.9995 0.9740
5.7628 1.1713 -3.0148 0.9739
5.4668 2.1758 -3.0165 0.9739
5.2517 2.6538 -3.0166 0.9739
4.6977 3.5427 -3.0164 0.9739
3.5932 4.6558 -3.0151 0.9739
2.7094 5.2164 -3.0135 0.9739
1.7404 5.6104 -3.0115 0.9739
0.1960 5.8633 -3.0076 0.9740
-1.3580 5.6983 -3.0032 0.9740
-2.3443 5.3616 -3.0000 0.9740
-2.8107 5.1288 -2.9983 0.9741
-4.0593 4.1973 -2.9935 0.9741
-4.7344 3.4076 -2.9905 0.9741
-5.2587 2.5119 -2.9877 0.9741
-5.4591 2.0330 -2.9865 0.9742
-5.6162 1.5384 -2.9853 0.9742
-5.7288 1.0321 -2.9842 0.9742
-5.7960 0.5179 -2.9833 0.9742
-5.5879 0.0000 -2.9831 0.9750
-5.4971 -0.9903 -2.9818 0.9750
-5.0387 -2.4068 -2.9810 0.9750
-4.2243 -3.6529 -2.9813 0.9750
-3.8829 -4.0149 -2.9817 0.9750
-3.5108 -4.3453 -2.9822 0.9750
-3.1107 -4.6415 -2.9829 0.9750
-1.2969 -5.4421 -2.9866 0.9750
1.6621 -5.3580 -2.9948 0.9749
2.1335 -5.1915 -2.9963 0.9749
3.0233 -4.7358 -2.9994 0.9748
3.4346 -4.4503 -3.0010 0.9748
3.8190 -4.1290 -3.0025 0.9748
4.1704 -3.7720 -3.0019 0.9748
4.4754 -3.3750 -2.9924 0.9749
4.7450 -2.9552 -2.9842 0.9750
5.3594 -1.5973 -2.9854 0.9750
5.5788 0.8773 -3.0148 0.9747
5.4795 1.3705 -3.0153 0.9747
5.3363 1.8530 -3.0156 0.9747
5.1506 2.3208 -3.0158 0.9747
4.9237 2.7700 -3.0159 0.9747
4.6575 3.1972 -3.0158 0.9747
4.3541 3.5987 -3.0156 0.9747
4.0160 3.9715 -3.0152 0.9747
3.2470 4.6189 -3.0141 0.9747
2.8223 4.8884 -3.0133 0.9747
1.9097 5.3080 -3.0115 0.9747
0.9376 5.5583 -3.0092 0.9748
-0.5635 5.6010 -3.0052 0.9748
-1.0592 5.5260 -3.0037 0.9748
-1.5461 5.4071 -3.0022 0.9748
-2.0202 5.2453 -3.0007 0.9748
-2.4777 5.0421 -2.9991 0.9748
-2.9152 4.7990 -2.9976 0.9749
-3.3290 4.5182 -2.9960 0.9749
-4.0732 3.8525 -2.9930 0.9749
-4.9394 2.6358 -2.9888 0.9749
-5.1522 2.1848 -2.9875 0.9749
-5.3242 1.7168 -2.9864 0.9750
-5.4539 1.2357 -2.9853 0.9750
-5.5404 0.7451 -2.9843 0.9750
-5.5363 -0.7445 -2.9821 0.9750
-5.4471 -1.2342 -2.9816 0.9750
-5.3150 -1.7139 -2.9813 0.9750
-5.1410 -2.1800 -2.9810 0.9750
-4.6730 -3.0569 -2.9810 0.9750
-4.3826 -3.4609 -2.9812 0.9750
-4.0576 -3.8376 -2.9815 0.9750
-3.3140 -4.4978 -2.9825 0.9750
-2.9012 -4.7761 -2.9832 0.9750
-2.0096 -5.2179 -2.9850 0.9750
-1.5378 -5.3779 -2.9861 0.9750
-1.0534 -5.4956 -2.9872 0.9749
0.4365 -5.5859 -2.9911 0.9749
0.9324 -5.5276 -2.9926 0.9749
1.4214 -5.4254 -2.9940 0.9749
1.8996 -5.2800 -2.9956 0.9749
3.2321 -4.5977 -3.0002 0.9748
3.6303 -4.2939 -3.0018 0.9748
4.0001 -3.9558 -3.0033 0.9748
4.8690 -2.7392 -2.9824 0.9750
5.4271 -1.3574 -2.9865 0.9750
5.5313 -0.8695 -2.9891 0.9749
5.6083 0.6273 -3.0126 0.9747
5.5347 1.1250 -3.0151 0.9747
5.4133 1.6134 -3.0155 0.9747
5.0421 2.5479 -3.0159 0.9747
4.5102 3.4013 -3.0157 0.9747
4.1892 3.7889 -3.0154 0.9747
1.6710 5.3869 -3.0109 0.9748
1.1845 5.5122 -3.0098 0.9748
0.1882 5.6301 -3.0073 0.9748
-1.3040 5.4720 -3.0030 0.9748
-2.2513 5.1488 -2.9999 0.9748
-3.1253 4.6632 -2.9968 0.9749
-3.8986 4.0311 -2.9937 0.9749
-4.2398 3.6663 -2.9923 0.9749
-4.5471 3.2728 -2.9908 0.9749
-5.0507 2.4126 -2.9882 0.9749
-5.5026 0.9914 -2.9848 0.9750
-5.5673 0.4975 -2.9839 0.9750
-5.3721 0.0000 -2.9837 0.9757
-5.1785 -1.4185 -2.9821 0.9757
-5.0312 -1.8736 -2.9818 0.9757
-4.8442 -2.3139 -2.9816 0.9757
-4.6190 -2.7359 -2.9816 0.9757
-4.0612 -3.5119 -2.9820 0.9757
-3.7330 -3.8599 -2.9823 0.9757
-2.1532 -4.9245 -2.9851 0.9757
-1.2468 -5.2317 -2.9871 0.9757
1.1323 -5.2695 -2.9935 0.9756
1.5977 -5.1503 -2.9949 0.9756
2.0507 -4.9901 -2.9964 0.9756
2.4880 -4.7902 -2.9979 0.9756
2.9059 -4.5520 -2.9994 0.9756
4.5828 -2.8542 -2.9986 0.9756
5.1601 -1.5379 -2.9905 0.9757
5.2814 -1.0735 -2.9933 0.9756
5.3612 0.8430 -3.0142 0.9755
4.4757 3.0724 -3.0151 0.9755
3.5037 4.1443 -3.0141 0.9755
3.1204 4.4388 -3.0135 0.9755
2.7122 4.6978 -3.0127 0.9755
1.3735 5.2425 -3.0099 0.9755
0.9011 5.3419 -3.0088 0.9755
0.4219 5.3987 -3.0076 0.9755
-0.5416 5.3832 -3.0049 0.9755
-1.4860 5.1970 -3.0021 0.9756
-1.9417 5.0416 -3.0006 0.9756
-2.8021 4.6129 -2.9976 0.9756
-3.1999 4.3430 -2.9961 0.9756
-3.5720 4.0390 -2.9946 0.9756
-4.5059 2.9476 -2.9905 0.9757
-4.9530 2.1003 -2.9880 0.9757
-5.1183 1.6505 -2.9868 0.9757
-5.3264 0.7163 -2.9849 0.9757
-5.2369 -1.1865 -2.9823 0.9757
-5.1099 -1.6477 -2.9819 0.9757
-4.7363 -2.5274 -2.9816 0.9757
-4.4926 -2.9389 -2.9817 0.9757
-4.2135 -3.3273 -2.9818 0.9757
-3.9010 -3.6895 -2.9821 0.9757
-3.5577 -4.0227 -2.9826 0.9757
-3.1861 -4.3242 -2.9831 0.9757
-2.7892 -4.5917 -2.9838 0.9757
