ply
format ascii 1.0
element vertex 1588
property float32 x
property float32 y
property float32 z
property float32 I
end_header
-1.0991 -7.5362 3.4364 0.9671
-1.1342 -7.7766 3.3900 0.9663
-1.2033 -8.2502 3.2722 0.9648
-1.2403 -8.5041 3.2091 0.9640
-1.3268 -9.0973 3.0889 0.9619
4.4982 9.6934 3.1993 0.9564
3.4808 9.6751 3.0783 0.9580
7.5239 9.7490 3.6868 0.9499
3.9685 9.6568 3.1257 0.9573
8.2198 9.7224 3.5821 0.9485
2.5258 9.6409 2.8041 0.9594
2.9930 9.6485 2.8423 0.9589
9.8479 9.7388 3.6495 0.9443
1.6224 9.6185 2.5703 0.9605
2.0704 9.6350 2.5968 0.9601
1.6387 9.7149 2.4217 0.9602
8.8634 3.9937 1.2183 0.9616
9.3088 3.2324 1.0688 0.9611
8.5567 3.8555 1.0180 0.9629
8.7759 3.4927 1.0245 0.9627
8.9614 3.1117 0.8697 0.9626
8.5248 4.7960 0.8967 0.9615
8.5702 3.4109 0.8456 0.9636
8.0712 3.6367 0.3681 0.9652
9.0690 2.7029 0.3935 0.9628
8.4097 5.2376 0.4119 0.9611
8.4842 2.9460 0.2240 0.9647
8.9446 2.6658 0.2328 0.9633
8.1927 3.2606 0.2199 0.9653
8.2007 5.1075 0.2409 0.9621
7.9733 3.5926 0.0727 0.9656
7.8868 4.4371 0.0752 0.9644
8.8734 2.6446 0.0770 0.9636
7.8812 3.9826 0.0734 0.9653
8.3934 2.9145 -0.0738 0.9651
7.9400 3.5776 -0.0724 0.9658
7.8473 4.4148 -0.0748 0.9646
8.8218 2.6292 -0.0765 0.9638
8.0448 5.0104 -0.0788 0.9628
8.3774 2.9089 -0.2212 0.9651
7.9270 3.5717 -0.2168 0.9658
8.1009 3.2241 -0.2174 0.9657
7.8326 3.9580 -0.2189 0.9655
8.0187 4.9941 -0.2356 0.9629
7.9140 3.5659 -0.3609 0.9658
8.7823 2.6174 -0.3810 0.9640
7.8190 3.9511 -0.3643 0.9655
7.9243 3.5705 -0.5062 0.9658
7.8311 4.4057 -0.5233 0.9646
7.8304 3.9569 -0.5110 0.9655
8.3919 2.9140 -0.6657 0.9650
7.9375 3.5765 -0.6524 0.9657
8.1118 3.2284 -0.6543 0.9656
8.0509 5.0141 -0.7108 0.9627
8.4311 2.9276 -0.8182 0.9648
7.9664 3.5895 -0.8011 0.9655
8.1427 3.2407 -0.8035 0.9654
8.0085 3.6085 -0.9528 0.9653
7.9381 4.4659 -0.9879 0.9640
7.9205 4.0024 -0.9626 0.9649
8.2544 5.1409 -1.0548 0.9616
8.0649 3.6339 -1.1085 0.9650
8.2486 3.2829 -1.1125 0.9648
8.1442 3.6696 -1.2706 0.9646
8.1403 4.5797 -1.3285 0.9630
8.0666 4.0762 -1.2855 0.9641
8.8127 3.0601 -1.4855 0.9629
8.1861 4.1366 -1.4605 0.9635
-11.0390 -9.5458 -2.8242 0.9423
-9.1863 -11.3700 -2.8287 0.9422
-5.8181 -13.3062 -2.8104 0.9425
-4.5989 -13.7360 -2.8032 0.9427
-3.3512 -14.0620 -2.7975 0.9428
-0.8008 -14.3621 -2.7836 0.9431
1.1369 14.5495 -2.8242 0.9423
-0.1628 14.6093 -2.8273 0.9422
-4.0171 14.0486 -2.8276 0.9422
-5.2518 13.6360 -2.8278 0.9422
-6.4451 13.1153 -2.8279 0.9422
-7.5874 12.4906 -2.8282 0.9422
-9.6837 10.9495 -2.8287 0.9422
-11.4743 9.0612 -2.8294 0.9422
-12.2281 7.9992 -2.8277 0.9422
-10.6068 -10.0318 -2.8252 0.9423
-9.6800 -10.9453 -2.8276 0.9422
-6.4145 -13.0530 -2.8145 0.9425
-3.9781 -13.9121 -2.8001 0.9428
-2.7192 -14.1857 -2.7952 0.9429
-1.4418 -14.3316 -2.7874 0.9430
-0.1601 -14.3658 -2.7802 0.9431
1.1169 -14.2929 -2.7744 0.9433
2.3815 -14.1186 -2.7708 0.9433
8.8674 3.5292 -1.8469 0.9619
8.7107 4.4017 -1.8887 0.9610
1.7839 14.4844 -2.8242 0.9423
-0.8134 14.5883 -2.8275 0.9422
-3.3872 14.2133 -2.8275 0.9422
-7.0232 12.8157 -2.8281 0.9422
-11.0586 9.5628 -2.8292 0.9422
-11.8657 8.5404 -2.8292 0.9422
-14.1191 0.0000 -2.9766 0.9439
-14.0630 -1.2567 -2.9766 0.9439
-13.8954 -2.5033 -2.9766 0.9439
-13.2313 -4.9274 -2.9766 0.9439
-11.4594 -8.2480 -2.9766 0.9439
-10.6798 -9.2352 -2.9766 0.9439
-8.4248 -10.4275 -2.8262 0.9467
-6.4501 -11.7699 -2.8295 0.9466
-5.3680 -12.2768 -2.8248 0.9467
-4.2439 -12.6759 -2.8181 0.9468
-3.0930 -12.9788 -2.8128 0.9469
-1.9207 -13.1691 -2.8057 0.9470
-0.7389 -13.2521 -2.7982 0.9472
0.4453 -13.3206 -2.8098 0.9470
1.6186 -13.1420 -2.7915 0.9473
2.9170 -13.5745 -2.9271 0.9448
4.1010 -13.2203 -2.9181 0.9450
5.2642 -12.8091 -2.9196 0.9450
6.3871 -12.2974 -2.9214 0.9449
7.4609 -11.6873 -2.9232 0.9449
8.4774 -10.9845 -2.9252 0.9449
9.4286 -10.1941 -2.9274 0.9448
11.1055 -8.3751 -2.9324 0.9447
12.9611 -5.1584 -2.9409 0.9446
13.8929 -1.5542 -2.9472 0.9445
13.9897 -0.3117 -2.9500 0.9444
13.9754 0.9356 -2.9529 0.9444
13.8498 2.1778 -2.9557 0.9443
13.6147 3.4053 -2.9587 0.9442
12.8201 5.7765 -2.9644 0.9441
12.2664 6.9010 -2.9672 0.9441
11.6137 7.9724 -2.9698 0.9440
10.0321 9.9210 -2.9745 0.9440
9.1156 10.7821 -2.9766 0.9439
7.0595 12.2275 -2.9766 0.9439
5.9432 12.8073 -2.9766 0.9439
4.7797 13.2854 -2.9766 0.9439
3.5783 13.6581 -2.9766 0.9439
1.0436 13.3555 -2.8242 0.9467
-0.1494 13.4132 -2.8279 0.9466
-1.3426 13.3462 -2.8278 0.9466
-2.5253 13.1740 -2.8279 0.9466
-8.8899 10.0520 -2.8290 0.9466
-10.5300 8.3154 -2.8286 0.9466
-11.2178 7.3383 -2.8260 0.9467
-13.7701 3.1199 -2.9766 0.9439
-14.1051 0.6290 -2.9766 0.9439
-13.7701 -3.1199 -2.9766 0.9439
-13.4377 -4.3331 -2.9766 0.9439
-11.8155 -7.7293 -2.9766 0.9439
-11.0807 -8.7503 -2.9766 0.9439
-5.9176 -12.0418 -2.8286 0.9466
-4.7460 -12.3227 -2.7839 0.9474
-1.3303 -13.2235 -2.8018 0.9471
-0.1484 -13.3168 -2.8076 0.9470
1.0342 -13.2353 -2.7988 0.9472
2.1988 -13.0356 -2.7870 0.9474
4.6867 -13.0269 -2.9186 0.9450
7.9768 -11.3472 -2.9242 0.9449
8.9616 -10.5999 -2.9263 0.9448
9.8773 -9.7679 -2.9286 0.9448
11.4728 -7.8757 -2.9337 0.9447
12.1397 -6.8297 -2.9365 0.9446
13.1826 -4.5775 -2.9419 0.9446
13.5446 -3.3877 -2.9434 0.9445
13.8031 -2.1704 -2.9457 0.9445
13.9265 1.5579 -2.9543 0.9443
13.0585 5.1972 -2.9630 0.9442
12.5559 6.3448 -2.9658 0.9441
11.2517 8.4854 -2.9710 0.9440
10.4601 9.4607 -2.9734 0.9440
9.5836 10.3618 -2.9756 0.9439
7.5972 11.9008 -2.9766 0.9439
2.9663 13.8040 -2.9766 0.9439
0.4476 13.3887 -2.8242 0.9467
-0.7468 13.3932 -2.8279 0.9466
-1.9358 13.2732 -2.8279 0.9466
-3.1097 13.0486 -2.8279 0.9466
-7.4698 11.1457 -2.8286 0.9466
-8.4329 10.4375 -2.8289 0.9466
-9.3293 9.6465 -2.8292 0.9466
-11.5279 6.8280 -2.8246 0.9467
-13.2313 4.9274 -2.9766 0.9439
-13.6174 3.7302 -2.9766 0.9439
-13.8954 2.5034 -2.9766 0.9439
-14.0630 1.2567 -2.9766 0.9439
-13.0412 0.0000 -2.9766 0.9479
-12.8346 -2.3123 -2.9766 0.9479
-12.2213 -4.5512 -2.9766 0.9479
-11.7677 -5.6209 -2.9766 0.9479
-11.2207 -6.6460 -2.9766 0.9479
-10.5846 -7.6183 -2.9766 0.9479
-9.8646 -8.5302 -2.9766 0.9479
-9.0662 -9.3743 -2.9766 0.9479
-7.7762 -9.6247 -2.8242 0.9505
-4.9646 -11.3542 -2.8284 0.9504
-3.9357 -11.7552 -2.8294 0.9504
-0.6902 -12.3776 -2.8295 0.9504
2.7124 -12.6226 -2.9468 0.9484
4.8653 -11.8391 -2.9215 0.9488
5.9023 -11.3640 -2.9228 0.9488
6.8941 -10.7994 -2.9243 0.9488
7.8346 -10.1517 -2.9268 0.9487
8.7140 -9.4214 -2.9292 0.9487
9.5252 -8.6150 -2.9314 0.9487
10.9176 -6.7996 -2.9357 0.9486
11.4867 -5.8045 -2.9375 0.9486
12.3524 -3.6814 -2.9419 0.9485
12.6423 -2.5697 -2.9445 0.9484
12.9208 -0.2879 -2.9498 0.9484
12.7907 2.0113 -2.9553 0.9483
12.5726 3.1447 -2.9580 0.9482
12.2540 4.2551 -2.9607 0.9482
10.7217 7.3601 -2.9683 0.9480
10.0317 8.2914 -2.9705 0.9480
9.2605 9.1579 -2.9726 0.9480
5.4895 11.8296 -2.9766 0.9479
4.4148 12.2712 -2.9766 0.9479
3.3051 12.6155 -2.9766 0.9479
2.0581 12.2012 -2.8242 0.9505
0.9639 12.3359 -2.8242 0.9505
-0.1381 12.3916 -2.8285 0.9504
-2.3328 12.1698 -2.8282 0.9504
-9.0059 8.5177 -2.8293 0.9504
-9.7204 7.6761 -2.8270 0.9505
-10.3561 6.7747 -2.8245 0.9505
-11.5056 6.1396 -2.9766 0.9479
-12.4119 4.0023 -2.9766 0.9479
-12.7189 2.8817 -2.9766 0.9479
-13.0283 -0.5809 -2.9766 0.9479
-11.5056 -6.1396 -2.9766 0.9479
-10.9135 -7.1393 -2.9766 0.9479
-8.4062 -9.5051 -2.8962 0.9493
-5.4643 -11.1194 -2.8278 0.9504
-2.3289 -12.1498 -2.8236 0.9505
-1.2409 -12.3346 -2.8295 0.9504
-0.1381 -12.3937 -2.8290 0.9504
2.0912 -12.3979 -2.8697 0.9497
5.3890 -11.6129 -2.9221 0.9488
6.4043 -11.0926 -2.9235 0.9488
7.3716 -10.4862 -2.9256 0.9488
9.1284 -9.0273 -2.9302 0.9487
10.6003 -7.2767 -2.9346 0.9486
11.2134 -6.3085 -2.9366 0.9486
12.5097 -3.1289 -2.9432 0.9485
12.9266 0.2881 -2.9511 0.9483
12.8615 1.4388 -2.9539 0.9483
12.4258 3.7033 -2.9594 0.9482
12.0577 4.7989 -2.9620 0.9481
11.5928 5.8581 -2.9646 0.9481
11.0345 6.8724 -2.9671 0.9481
10.3872 7.8334 -2.9694 0.9480
8.8462 9.5645 -2.9736 0.9480
7.9678 10.3242 -2.9766 0.9479
7.0173 10.9924 -2.9766 0.9479
6.0110 11.5733 -2.9766 0.9479
4.9571 12.0624 -2.9766 0.9479
3.8638 12.4557 -2.9766 0.9479
2.7398 12.7502 -2.9766 0.9479
-1.7883 12.2615 -2.8282 0.9504
-3.9342 11.7509 -2.8284 0.9504
-6.9003 10.2959 -2.8289 0.9504
-8.6179 8.9109 -2.8294 0.9504
-9.3727 8.1049 -2.8282 0.9504
-10.9225 6.4694 -2.8975 0.9492
-12.2213 4.5513 -2.9766 0.9479
-12.5779 3.4455 -2.9766 0.9479
-12.9895 1.1607 -2.9766 0.9479
-12.0617 -1.0778 -2.9766 0.9513
-11.6795 -3.1993 -2.9766 0.9513
-10.4192 -6.1713 -2.9766 0.9513
-8.4186 -8.7048 -2.9766 0.9513
-6.4130 -9.5687 -2.8314 0.9537
-4.6064 -10.5350 -2.8262 0.9537
-2.6670 -11.1913 -2.8278 0.9537
-1.6606 -11.3861 -2.8283 0.9537
2.5412 -11.8260 -2.9732 0.9514
3.5321 -11.3865 -2.9304 0.9521
7.2767 -9.4287 -2.9275 0.9521
8.0919 -8.7489 -2.9293 0.9521
8.8442 -7.9991 -2.9312 0.9521
9.5277 -7.1852 -2.9332 0.9520
10.1368 -6.3132 -2.9353 0.9520
10.6666 -5.3901 -2.9376 0.9520
11.4717 -3.4189 -2.9423 0.9519
11.7401 -2.3863 -2.9447 0.9519
11.9842 0.8023 -2.9523 0.9517
11.8757 1.8674 -2.9549 0.9517
11.6724 2.9195 -2.9575 0.9516
11.3759 3.9502 -2.9600 0.9516
9.3106 7.6954 -2.9691 0.9515
8.5944 8.4992 -2.9710 0.9514
7.8184 9.2477 -2.9766 0.9513
5.0974 10.9847 -2.9766 0.9513
4.0995 11.3948 -2.9766 0.9513
0.8951 11.4548 -2.8242 0.9538
-2.1664 11.3017 -2.8285 0.9537
-6.8278 9.2667 -2.8293 0.9537
-7.6261 8.6229 -2.8295 0.9537
-8.3579 7.9049 -2.8277 0.9537
-9.0216 7.1243 -2.8256 0.9538
-9.8534 6.4458 -2.8942 0.9527
-11.1489 4.7275 -2.9766 0.9513
-11.5254 3.7165 -2.9766 0.9513
-12.0977 0.5395 -2.9766 0.9513
-12.0977 -0.5394 -2.9766 0.9513
-11.8104 -2.6759 -2.9766 0.9513
-11.5254 -3.7164 -2.9766 0.9513
-10.1340 -6.6293 -2.9766 0.9513
-9.5037 -7.5050 -2.9766 0.9513
-7.0244 -9.5336 -2.9108 0.9524
-4.1332 -10.7316 -2.8267 0.9537
-3.1626 -11.0601 -2.8275 0.9537
-2.1660 -11.3000 -2.8281 0.9537
-1.1518 -11.4489 -2.8283 0.9537
-0.1281 -11.5017 -2.8273 0.9537
0.8954 -11.4592 -2.8253 0.9538
3.0345 -11.5826 -2.9431 0.9519
5.0074 -10.7907 -2.9240 0.9522
7.6918 -9.0979 -2.9284 0.9521
9.1949 -7.5998 -2.9322 0.9521
9.8419 -6.7560 -2.9343 0.9520
10.4119 -5.8576 -2.9365 0.9520
10.9004 -4.9115 -2.9387 0.9519
11.8397 -1.8617 -2.9460 0.9518
11.7858 2.3956 -2.9562 0.9517
10.7610 5.4378 -2.9636 0.9515
10.2422 6.3789 -2.9659 0.9515
9.6408 7.2705 -2.9680 0.9515
8.2097 8.8763 -2.9719 0.9514
6.5160 10.2072 -2.9766 0.9513
5.5817 10.7467 -2.9766 0.9513
4.6030 11.2008 -2.9766 0.9513
3.5878 11.5661 -2.9766 0.9513
2.5441 11.8395 -2.9766 0.9513
1.4045 11.4036 -2.8242 0.9538
0.3839 11.4833 -2.8242 0.9538
-0.6407 11.4900 -2.8286 0.9537
-1.6608 11.3869 -2.8285 0.9537
-2.6677 11.1942 -2.8286 0.9537
-4.6106 10.5447 -2.8288 0.9537
-6.4080 9.5613 -2.8292 0.9537
-8.6986 7.5220 -2.8266 0.9537
-9.3263 6.7127 -2.8244 0.9538
-10.4192 6.1714 -2.9766 0.9513
-11.6795 3.1994 -2.9766 0.9513
-11.9179 2.1471 -2.9766 0.9513
-11.2963 0.0000 -2.9766 0.9543
-10.8949 -2.9844 -2.9766 0.9543
-10.5861 -3.9423 -2.9766 0.9543
-10.1932 -4.8689 -2.9766 0.9543
-9.1684 -6.5990 -2.9766 0.9543
-8.5447 -7.3888 -2.9766 0.9543
-7.0992 -8.7868 -2.9766 0.9543
-5.2498 -9.5798 -2.8785 0.9558
-0.5971 -10.7083 -2.8260 0.9566
0.3582 -10.7144 -2.8248 0.9566
2.3732 -11.0442 -2.9766 0.9543
3.3079 -10.6638 -2.9420 0.9549
5.9781 -9.3646 -2.9275 0.9551
7.5514 -8.1645 -2.9305 0.9550
8.2531 -7.4646 -2.9323 0.9550
9.9523 -5.0291 -2.9382 0.9549
10.3681 -4.1264 -2.9404 0.9549
11.1787 0.7483 -2.9522 0.9547
11.0768 1.7417 -2.9546 0.9547
10.8866 2.7229 -2.9570 0.9546
10.6094 3.6840 -2.9593 0.9546
10.2472 4.6172 -2.9616 0.9546
9.8028 5.5150 -2.9638 0.9545
8.6815 7.1754 -2.9678 0.9545
7.2932 8.6265 -2.9766 0.9543
6.4964 9.2413 -2.9766 0.9543
5.6481 9.7829 -2.9766 0.9543
4.7550 10.2468 -2.9766 0.9543
2.8629 10.9275 -2.9766 0.9543
1.7829 10.5700 -2.8245 0.9566
0.8358 10.6963 -2.8271 0.9566
-2.0210 10.5435 -2.8288 0.9566
-4.7353 9.6361 -2.8291 0.9566
-6.3696 8.6449 -2.8295 0.9566
-7.7927 7.3703 -2.8263 0.9566
-9.4533 6.1841 -2.9766 0.9543
-9.9662 5.3181 -2.9766 0.9543
-10.3999 4.4100 -2.9766 0.9543
-11.0171 2.4961 -2.9766 0.9543
-11.1955 -1.5056 -2.9766 0.9543
-11.0171 -2.4961 -2.9766 0.9543
-9.4533 -6.1840 -2.9766 0.9543
-8.2070 -7.7621 -2.9766 0.9543
-4.7271 -9.6192 -2.8242 0.9566
-3.8529 -10.0038 -2.8248 0.9566
-2.0191 -10.5333 -2.8261 0.9566
0.8350 -10.6853 -2.8242 0.9566
1.8789 -11.1389 -2.9766 0.9543
3.7666 -10.4696 -2.9318 0.9550
5.5538 -9.6196 -2.9269 0.9551
6.3908 -9.0911 -2.9282 0.9551
7.1782 -8.4904 -2.9297 0.9551
7.9100 -7.8224 -2.9314 0.9550
10.5456 -3.6618 -2.9415 0.9549
10.8379 -2.7107 -2.9438 0.9548
11.0450 -1.7367 -2.9461 0.9548
10.9926 2.2344 -2.9558 0.9547
10.0351 5.0710 -2.9627 0.9546
8.9896 6.7794 -2.9668 0.9545
7.6702 8.2930 -2.9766 0.9543
6.0783 9.5216 -2.9766 0.9543
4.2938 10.4484 -2.9766 0.9543
3.3468 10.7891 -2.9766 0.9543
2.3732 11.0442 -2.9766 0.9543
0.3587 10.7278 -2.8283 0.9566
-1.5493 10.6231 -2.8288 0.9566
-2.4888 10.4432 -2.8288 0.9566
-3.4085 10.1806 -2.8289 0.9566
-4.3012 9.8372 -2.8290 0.9566
-5.1600 9.4158 -2.8292 0.9566
-6.7472 8.3511 -2.8290 0.9566
-8.9255 6.4242 -2.8977 0.9555
-10.1932 4.8689 -2.9766 0.9543
-10.5861 3.9423 -2.9766 0.9543
-10.8949 2.9845 -2.9766 0.9543
-11.1173 2.0029 -2.9766 0.9543
-11.2515 1.0054 -2.9766 0.9543
-10.4118 -1.8758 -2.9766 0.9570
-10.2035 -2.7950 -2.9766 0.9570
-9.9142 -3.6921 -2.9766 0.9570
-9.5463 -4.5598 -2.9766 0.9570
-8.5865 -6.1802 -2.9766 0.9570
-8.0024 -6.9199 -2.9766 0.9570
-7.3547 -7.6047 -2.9766 0.9570
-5.8899 -8.7882 -2.9766 0.9570
-4.1938 -9.5913 -2.9453 0.9574
-3.2241 -9.6296 -2.8572 0.9587
-2.3270 -9.7643 -2.8242 0.9591
-1.4488 -9.9335 -2.8244 0.9591
-0.5589 -10.0225 -2.8243 0.9591
0.3410 -10.1984 -2.8710 0.9585
2.2226 -10.3432 -2.9766 0.9570
3.1261 -10.0777 -2.9687 0.9571
6.3630 -8.2448 -2.9302 0.9576
7.0751 -7.6496 -2.9317 0.9576
7.7321 -6.9933 -2.9333 0.9576
8.3288 -6.2811 -2.9350 0.9576
8.8604 -5.5183 -2.9369 0.9576
9.3227 -4.7109 -2.9389 0.9575
9.7118 -3.8652 -2.9409 0.9575
10.0246 -2.9876 -2.9431 0.9575
10.2583 -2.0851 -2.9453 0.9574
10.3728 1.6311 -2.9543 0.9573
10.1942 2.5498 -2.9566 0.9573
9.5946 4.3231 -2.9609 0.9572
9.1780 5.1635 -2.9629 0.9572
8.6877 5.9638 -2.9648 0.9572
6.0841 8.6549 -2.9766 0.9570
3.5814 9.9548 -2.9766 0.9570
2.6812 10.2340 -2.9766 0.9570
1.6698 9.8993 -2.8246 0.9591
-0.1121 10.0551 -2.8292 0.9591
-1.8929 9.8752 -2.8290 0.9591
-2.7644 9.6678 -2.8291 0.9591
-3.6141 9.3837 -2.8292 0.9591
-4.4351 9.0252 -2.8293 0.9591
-5.2211 8.5951 -2.8295 0.9591
-5.9629 8.0930 -2.8283 0.9591
-7.2950 6.8995 -2.8251 0.9591
-8.8533 5.7916 -2.9766 0.9570
-9.3337 4.9806 -2.9766 0.9570
-10.0689 3.2468 -2.9766 0.9570
-10.4850 1.4101 -2.9766 0.9570
-10.5689 0.4713 -2.9766 0.9570
-10.5689 -0.4712 -2.9766 0.9570
-10.4850 -1.4101 -2.9766 0.9570
-10.3179 -2.3377 -2.9766 0.9570
-10.0689 -3.2468 -2.9766 0.9570
-9.7399 -4.1301 -2.9766 0.9570
-9.3337 -4.9806 -2.9766 0.9570
-8.3027 -6.5566 -2.9766 0.9570
-7.0087 -7.9248 -2.9766 0.9570
-6.2755 -8.5171 -2.9766 0.9570
-3.7017 -9.6112 -2.8978 0.9581
-1.8897 -9.8585 -2.8242 0.9591
-1.0048 -9.9882 -2.8244 0.9591
2.6812 -10.2340 -2.9766 0.9570
3.5395 -9.8383 -2.9418 0.9575
5.2040 -9.0136 -2.9284 0.9577
7.4109 -7.3288 -2.9325 0.9576
9.5266 -4.2925 -2.9399 0.9575
9.8779 -3.4300 -2.9420 0.9575
10.4567 -0.7000 -2.9486 0.9574
10.4312 1.1669 -2.9532 0.9573
10.2937 2.0923 -2.9554 0.9573
10.0742 3.0025 -2.9577 0.9573
7.1834 7.7667 -2.9766 0.9570
6.4637 8.3752 -2.9766 0.9570
4.8763 9.3886 -2.9766 0.9570
4.0213 9.7853 -2.9766 0.9570
1.2277 9.9680 -2.8257 0.9591
-3.1924 9.5352 -2.8291 0.9591
-4.8329 8.8189 -2.8294 0.9591
-5.5979 8.3527 -2.8290 0.9591
-6.3158 7.8172 -2.8276 0.9591
-6.9825 7.2199 -2.8259 0.9591
-9.1025 5.3914 -2.9766 0.9570
-9.5463 4.5599 -2.9766 0.9570
-9.9142 3.6921 -2.9766 0.9570
-10.4118 1.8758 -2.9766 0.9570
-9.9425 0.0000 -2.9766 0.9593
-9.9030 -0.8849 -2.9766 0.9593
-9.7849 -1.7628 -2.9766 0.9593
-9.5892 -2.6267 -2.9766 0.9593
-8.9715 -4.2853 -2.9766 0.9593
-8.5545 -5.0668 -2.9766 0.9593
-8.0695 -5.8081 -2.9766 0.9593
-7.5206 -6.5033 -2.9766 0.9593
-6.2484 -7.7337 -2.9766 0.9593
-5.5352 -8.2591 -2.9766 0.9593
-4.7782 -8.7190 -2.9766 0.9593
-3.1566 -9.4281 -2.9766 0.9593
-1.4090 -9.6610 -2.9229 0.9601
0.3322 -9.9369 -2.9766 0.9593
1.2153 -9.8679 -2.9766 0.9593
2.9457 -9.4960 -2.9766 0.9593
3.7357 -9.0902 -2.9423 0.9598
5.9824 -7.7516 -2.9314 0.9599
6.6517 -7.1917 -2.9328 0.9599
7.2691 -6.5746 -2.9343 0.9599
7.8298 -5.9048 -2.9360 0.9599
9.1288 -3.6332 -2.9415 0.9598
9.6417 -1.9598 -2.9456 0.9598
9.7849 -1.0946 -2.9477 0.9597
9.8506 -0.2195 -2.9498 0.9597
9.5792 2.3959 -2.9562 0.9596
9.0150 4.0620 -2.9602 0.9596
8.1622 5.6031 -2.9640 0.9595
7.0694 6.9911 -2.9766 0.9593
6.4191 7.5926 -2.9766 0.9593
2.5197 9.6179 -2.9766 0.9593
1.5691 9.3025 -2.8243 0.9614
-0.1053 9.4472 -2.8285 0.9613
-4.1683 8.4823 -2.8295 0.9613
-7.8028 6.1618 -2.9766 0.9593
-8.3203 5.4429 -2.9766 0.9593
-9.1535 3.8814 -2.9766 0.9593
-9.6967 2.1970 -2.9766 0.9593
-9.8538 -1.3252 -2.9766 0.9593
-9.6967 -2.1970 -2.9766 0.9593
-9.4627 -3.0513 -2.9766 0.9593
-9.1535 -3.8814 -2.9766 0.9593
-7.2234 -6.8319 -2.9766 0.9593
-5.8977 -8.0044 -2.9766 0.9593
-2.7334 -9.5593 -2.9766 0.9593
-1.8489 -9.6454 -2.9402 0.9598
-0.9764 -9.7055 -2.9203 0.9601
0.7746 -9.9122 -2.9766 0.9593
1.6537 -9.8039 -2.9766 0.9593
2.5197 -9.6178 -2.9766 0.9593
3.3544 -9.3239 -2.9666 0.9595
4.8929 -8.4747 -2.9297 0.9600
7.5569 -6.2459 -2.9351 0.9599
8.5547 -4.8128 -2.9386 0.9598
8.9549 -4.0349 -2.9405 0.9598
9.2848 -3.2240 -2.9425 0.9598
9.7229 -1.5289 -2.9466 0.9597
9.8542 0.2196 -2.9509 0.9597
9.1839 3.6551 -2.9592 0.9596
8.8280 4.4610 -2.9612 0.9595
8.4012 5.2323 -2.9631 0.9595
7.9069 5.9629 -2.9648 0.9595
7.3738 6.6693 -2.9766 0.9593
6.0745 7.8710 -2.9766 0.9593
3.7792 9.1962 -2.9766 0.9593
2.9457 9.4961 -2.9766 0.9593
0.3156 9.4393 -2.8275 0.9613
-4.5412 8.2866 -2.8289 0.9613
-5.2584 7.8461 -2.8277 0.9613
-5.9330 7.3434 -2.8263 0.9613
-6.5595 6.7825 -2.8248 0.9614
-7.3834 6.3847 -2.9223 0.9601
-8.5545 5.0669 -2.9766 0.9593
-8.9715 4.2853 -2.9766 0.9593
-9.7849 1.7629 -2.9766 0.9593
-9.9030 0.8849 -2.9766 0.9593
-9.3354 -0.8342 -2.9766 0.9614
-9.2241 -1.6618 -2.9766 0.9614
-8.4573 -4.0397 -2.9766 0.9614
-6.5157 -6.7372 -2.9766 0.9614
-4.5043 -8.2192 -2.9766 0.9614
-2.9756 -8.8876 -2.9766 0.9614
0.3132 -9.3673 -2.9766 0.9614
1.9691 -9.1633 -2.9766 0.9614
2.7768 -8.9517 -2.9766 0.9614
6.2725 -6.7818 -2.9338 0.9620
6.8546 -6.1996 -2.9352 0.9620
7.3831 -5.5678 -2.9368 0.9619
8.2628 -4.1754 -2.9402 0.9619
8.8835 -2.6476 -2.9439 0.9618
9.0899 -1.8476 -2.9458 0.9618
9.2245 -1.0319 -2.9478 0.9618
9.2860 -0.2069 -2.9498 0.9618
9.2739 0.6208 -2.9518 0.9617
9.1881 1.4448 -2.9539 0.9617
9.0291 2.2583 -2.9558 0.9617
8.7980 3.0550 -2.9578 0.9617
8.1271 4.5722 -2.9615 0.9616
7.6923 5.2805 -2.9632 0.9616
6.0512 7.1574 -2.9766 0.9614
4.6863 8.1169 -2.9766 0.9614
3.9452 8.5018 -2.9766 0.9614
1.4791 8.7688 -2.8242 0.9634
-0.8917 8.8631 -2.8290 0.9633
-2.4494 8.5660 -2.8295 0.9633
-3.2017 8.3129 -2.8291 0.9633
-6.7311 6.3662 -2.9424 0.9619
-7.8434 5.1309 -2.9766 0.9614
-8.2689 4.4124 -2.9766 0.9614
-8.6288 3.6590 -2.9766 0.9614
-9.1409 2.0711 -2.9766 0.9614
-9.2889 1.2492 -2.9766 0.9614
-9.3633 -0.4175 -2.9766 0.9614
-9.1409 -2.0710 -2.9766 0.9614
-8.6288 -3.6589 -2.9766 0.9614
-6.2092 -7.0208 -2.9766 0.9614
-4.1337 -8.4117 -2.9766 0.9614
-3.3686 -8.7463 -2.9766 0.9614
-2.5767 -9.0114 -2.9766 0.9614
-0.9382 -9.3254 -2.9766 0.9614
0.7301 -9.3440 -2.9766 0.9614
1.5589 -9.2420 -2.9766 0.9614
3.9013 -8.4072 -2.9435 0.9618
4.6150 -7.9934 -2.9313 0.9620
5.9629 -7.0529 -2.9331 0.9620
7.6259 -5.2349 -2.9376 0.9619
8.0662 -4.5380 -2.9393 0.9619
8.7539 -3.0397 -2.9429 0.9619
8.9956 -2.2499 -2.9449 0.9618
9.1662 -1.4413 -2.9468 0.9618
9.2644 -0.6202 -2.9488 0.9618
9.1177 1.8533 -2.9548 0.9617
8.6559 3.4450 -2.9587 0.9617
7.9176 4.9312 -2.9623 0.9616
3.5626 8.6691 -2.9766 0.9614
2.7769 8.9518 -2.9766 0.9614
1.0873 8.8283 -2.8249 0.9634
0.2974 8.8958 -2.8268 0.9633
-0.4958 8.8919 -2.8283 0.9633
-2.8285 8.4484 -2.8295 0.9633
-6.1821 6.3923 -2.8242 0.9634
-8.0642 4.7764 -2.9766 0.9614
-8.4573 4.0397 -2.9766 0.9614
-8.7833 3.2709 -2.9766 0.9614
-9.0395 2.4762 -2.9766 0.9614
-9.2241 1.6618 -2.9766 0.9614
-8.8593 0.0000 -2.9766 0.9633
-8.5446 -2.3406 -2.9766 0.9633
-8.3023 -3.0918 -2.9766 0.9633
-7.9942 -3.8185 -2.9766 0.9633
-7.6226 -4.5148 -2.9766 0.9633
-6.7013 -5.7948 -2.9766 0.9633
-6.1590 -6.3683 -2.9766 0.9633
-4.9322 -7.3594 -2.9766 0.9633
-3.5492 -8.1173 -2.9766 0.9633
-1.2786 -8.7666 -2.9766 0.9633
0.2960 -8.8544 -2.9766 0.9633
2.6248 -8.4616 -2.9766 0.9633
5.3344 -6.9120 -2.9335 0.9638
6.9805 -5.2643 -2.9375 0.9638
7.4253 -4.6245 -2.9391 0.9638
8.3980 -2.5029 -2.9442 0.9637
8.5928 -1.7466 -2.9461 0.9637
8.7197 -0.9754 -2.9480 0.9637
8.7658 0.5868 -2.9518 0.9636
8.6844 1.3656 -2.9537 0.9636
8.5338 2.1345 -2.9555 0.9636
8.0299 3.6181 -2.9591 0.9635
7.2734 4.9932 -2.9641 0.9635
6.8287 5.6441 -2.9766 0.9633
5.7198 6.7654 -2.9766 0.9633
4.4296 7.6724 -2.9766 0.9633
3.7292 8.0362 -2.9766 0.9633
2.2452 8.5701 -2.9766 0.9633
1.4379 8.5249 -2.9047 0.9642
0.6550 8.3831 -2.8252 0.9651
-0.8425 8.3745 -2.8279 0.9651
-2.3145 8.0943 -2.8285 0.9651
-3.7110 7.5517 -2.8270 0.9651
-4.3668 7.1888 -2.8260 0.9651
-4.9873 6.7688 -2.8249 0.9651
-5.6229 6.3579 -2.8517 0.9648
-6.9528 5.4906 -2.9766 0.9633
-7.4139 4.8500 -2.9766 0.9633
-7.8161 4.1708 -2.9766 0.9633
-8.1564 3.4586 -2.9766 0.9633
-8.7803 1.1809 -2.9766 0.9633
-8.8505 0.3947 -2.9766 0.9633
-8.8505 -0.3946 -2.9766 0.9633
-8.6404 -1.9576 -2.9766 0.9633
-8.4318 -2.7189 -2.9766 0.9633
-8.1564 -3.4586 -2.9766 0.9633
-7.8162 -4.1708 -2.9766 0.9633
-7.4139 -4.8499 -2.9766 0.9633
-6.9528 -5.4905 -2.9766 0.9633
-6.4365 -6.0876 -2.9766 0.9633
-5.8692 -6.6363 -2.9766 0.9633
-3.1841 -8.2673 -2.9766 0.9633
-2.4356 -8.5179 -2.9766 0.9633
-1.6679 -8.7009 -2.9766 0.9633
-0.8868 -8.8148 -2.9766 0.9633
0.6902 -8.8324 -2.9766 0.9633
1.4735 -8.7359 -2.9766 0.9633
2.9991 -8.3362 -2.9766 0.9633
3.7153 -8.0064 -2.9655 0.9634
5.0202 -7.1414 -2.9329 0.9638
6.7374 -5.5686 -2.9368 0.9638
7.2100 -4.9494 -2.9383 0.9638
7.6261 -4.2903 -2.9399 0.9638
8.2757 -2.8736 -2.9433 0.9637
8.5038 -2.1270 -2.9452 0.9637
8.7574 -0.5862 -2.9489 0.9636
8.7338 0.9771 -2.9527 0.9636
8.6177 1.7516 -2.9546 0.9636
8.4329 2.5133 -2.9564 0.9635
7.0734 5.3343 -2.9766 0.9633
6.5705 5.9427 -2.9766 0.9633
6.0155 6.5039 -2.9766 0.9633
5.4128 7.0135 -2.9766 0.9633
1.8613 8.6616 -2.9766 0.9633
1.0275 8.3431 -2.8243 0.9652
0.2810 8.4063 -2.8259 0.9651
-3.3715 7.7107 -2.8275 0.9651
-4.0430 7.3776 -2.8265 0.9651
-4.6818 6.9858 -2.8255 0.9651
-5.2827 6.5385 -2.8242 0.9652
-6.1396 6.3482 -2.9672 0.9634
-7.6226 4.5149 -2.9766 0.9633
-7.9942 3.8185 -2.9766 0.9633
-8.5446 2.3406 -2.9766 0.9633
-8.7190 1.5708 -2.9766 0.9633
-8.3612 -0.7471 -2.9766 0.9650
-8.2615 -1.4884 -2.9766 0.9650
-8.0963 -2.2178 -2.9766 0.9650
-7.8667 -2.9296 -2.9766 0.9650
-7.2227 -4.2780 -2.9766 0.9650
-5.8358 -6.0342 -2.9766 0.9650
-4.6735 -6.9733 -2.9766 0.9650
-4.0343 -7.3615 -2.9766 0.9650
-3.3630 -7.6914 -2.9766 0.9650
1.0261 -8.3315 -2.9766 0.9650
2.4871 -8.0176 -2.9766 0.9650
3.8563 -7.4247 -2.9666 0.9651
4.4623 -6.9901 -2.9406 0.9654
5.0560 -6.5513 -2.9344 0.9655
6.1426 -5.5556 -2.9368 0.9655
7.9583 -2.3718 -2.9446 0.9654
8.1426 -1.6550 -2.9463 0.9654
8.3171 -0.1853 -2.9499 0.9653
7.2761 4.0935 -2.9603 0.9652
6.9208 4.7509 -2.9766 0.9650
6.4704 5.3480 -2.9766 0.9650
2.8418 7.8989 -2.9766 0.9650
0.6205 7.9412 -2.8244 0.9668
-0.0888 7.9688 -2.8258 0.9667
-0.7980 7.9322 -2.8268 0.9667
-3.5150 7.1528 -2.8260 0.9667
-4.1363 6.8092 -2.8250 0.9668
-4.7246 6.4122 -2.8242 0.9668
-7.0249 4.5955 -2.9766 0.9650
-7.4060 3.9520 -2.9766 0.9650
-8.1870 1.8549 -2.9766 0.9650
-8.3862 0.3740 -2.9766 0.9650
-8.3196 -1.1189 -2.9766 0.9650
-7.9894 -2.5762 -2.9766 0.9650
-7.4061 -3.9520 -2.9766 0.9650
-7.0249 -4.5955 -2.9766 0.9650
-6.0988 -5.7682 -2.9766 0.9650
-4.3582 -7.1745 -2.9766 0.9650
-3.7023 -7.5339 -2.9766 0.9650
-3.0171 -7.8336 -2.9766 0.9650
-1.5803 -8.2444 -2.9766 0.9650
-0.0935 -8.3940 -2.9766 0.9650
1.3962 -8.2775 -2.9766 0.9650
2.8418 -7.8988 -2.9766 0.9650
4.1564 -7.1990 -2.9476 0.9653
5.3439 -6.3207 -2.9349 0.9655
5.8877 -5.8224 -2.9361 0.9655
6.3854 -5.2777 -2.9375 0.9655
6.8331 -4.6907 -2.9389 0.9654
7.2273 -4.0660 -2.9404 0.9654
7.5646 -3.4084 -2.9420 0.9654
8.2107 -1.2911 -2.9472 0.9653
8.2981 -0.5555 -2.9490 0.9653
8.1649 1.6596 -2.9544 0.9653
7.9895 2.3812 -2.9561 0.9652
7.7504 3.0846 -2.9578 0.9652
7.4492 3.7643 -2.9595 0.9652
7.0946 4.4187 -2.9637 0.9651
6.2258 5.6309 -2.9766 0.9650
5.6999 6.1627 -2.9766 0.9650
5.1288 6.6456 -2.9766 0.9650
3.1908 7.7645 -2.9766 0.9650
2.4871 8.0176 -2.9766 0.9650
0.9783 7.9437 -2.8380 0.9666
-0.4438 7.9585 -2.8264 0.9667
-1.1507 7.8898 -2.8272 0.9667
-1.8485 7.7568 -2.8275 0.9667
-2.5313 7.5605 -2.8271 0.9667
-3.1933 7.3033 -2.8264 0.9667
-3.8295 6.9880 -2.8255 0.9667
-4.4347 6.6170 -2.8245 0.9668
-5.1220 6.3395 -2.8899 0.9660
-5.8358 6.0342 -2.9766 0.9650
-6.3497 5.4908 -2.9766 0.9650
-7.2226 4.2780 -2.9766 0.9650
-7.5748 3.6182 -2.9766 0.9650
-8.0962 2.2178 -2.9766 0.9650
-8.3612 0.7472 -2.9766 0.9650
-7.9713 0.0000 -2.9766 0.9665
-7.9397 -0.7095 -2.9766 0.9665
-7.8450 -1.4133 -2.9766 0.9665
-7.4701 -2.7819 -2.9766 0.9665
-7.1929 -3.4357 -2.9766 0.9665
-6.8585 -4.0623 -2.9766 0.9665
-6.0296 -5.2140 -2.9766 0.9665
-5.0096 -6.2004 -2.9766 0.9665
-4.4378 -6.6217 -2.9766 0.9665
-3.8309 -6.9904 -2.9766 0.9665
-3.1935 -7.3037 -2.9766 0.9665
-2.5308 -7.5589 -2.9766 0.9665
-1.8479 -7.7541 -2.9766 0.9665
-1.1504 -7.8878 -2.9766 0.9665
-0.4438 -7.9589 -2.9766 0.9665
0.9744 -7.9115 -2.9766 0.9665
1.6747 -7.7934 -2.9766 0.9665
2.3617 -7.6134 -2.9766 0.9665
3.6742 -7.0740 -2.9766 0.9665
4.2515 -6.6599 -2.9504 0.9668
4.8092 -6.2314 -2.9393 0.9669
5.3392 -5.7727 -2.9362 0.9670
5.8342 -5.2768 -2.9375 0.9670
6.2836 -4.7387 -2.9388 0.9670
6.6836 -4.1626 -2.9402 0.9669
7.0311 -3.5530 -2.9417 0.9669
7.5578 -2.2525 -2.9448 0.9669
7.8463 -0.8777 -2.9482 0.9669
7.8979 -0.1760 -2.9499 0.9668
7.8868 0.5280 -2.9516 0.9668
7.8130 1.2286 -2.9533 0.9668
7.2229 3.2545 -2.9582 0.9667
6.9166 3.8912 -2.9634 0.9667
5.6679 5.6051 -2.9766 0.9665
5.1465 6.0873 -2.9766 0.9665
4.5842 6.5212 -2.9766 0.9665
3.3554 7.2307 -2.9766 0.9665
2.0202 7.7111 -2.9766 0.9665
-0.0843 7.5648 -2.8249 0.9682
-3.9266 6.4640 -2.8242 0.9682
-4.6575 6.3212 -2.9319 0.9670
-5.2808 5.9712 -2.9766 0.9665
-5.7913 5.4774 -2.9766 0.9665
-6.2559 4.9402 -2.9766 0.9665
-7.0327 3.7528 -2.9766 0.9665
-7.3388 3.1119 -2.9766 0.9665
-7.7743 1.7614 -2.9766 0.9665
-7.9634 0.3551 -2.9766 0.9665
-7.9002 -1.0625 -2.9766 0.9665
-7.7743 -1.7614 -2.9766 0.9665
-7.3388 -3.1119 -2.9766 0.9665
-7.0327 -3.7527 -2.9766 0.9665
-6.6708 -4.3638 -2.9766 0.9665
-6.2559 -4.9402 -2.9766 0.9665
-5.7914 -5.4774 -2.9766 0.9665
-5.2808 -5.9711 -2.9766 0.9665
-3.5157 -7.1541 -2.9766 0.9665
-0.7979 -7.9312 -2.9766 0.9665
-0.0888 -7.9708 -2.9766 0.9665
0.6210 -7.9471 -2.9766 0.9665
1.3258 -7.8603 -2.9766 0.9665
2.6985 -7.5006 -2.9766 0.9665
6.0648 -5.0127 -2.9381 0.9670
6.4899 -4.4551 -2.9395 0.9669
7.6528 -1.9141 -2.9457 0.9669
7.8799 -0.5275 -2.9490 0.9668
7.8577 0.8790 -2.9525 0.9668
7.7527 1.5758 -2.9542 0.9668
7.3587 2.9287 -2.9574 0.9667
7.0726 3.5739 -2.9590 0.9667
5.4125 5.8520 -2.9766 0.9665
4.8702 6.3105 -2.9766 0.9665
3.6742 7.0741 -2.9766 0.9665
3.0300 7.3730 -2.9766 0.9665
-0.4213 7.5549 -2.8255 0.9682
-1.0923 7.4893 -2.8262 0.9682
-1.7547 7.3629 -2.8264 0.9682
-3.6353 6.6335 -2.8246 0.9682
-4.2410 6.3280 -2.8445 0.9680
-5.0096 6.2005 -2.9766 0.9665
-5.5416 5.7300 -2.9766 0.9665
-6.4698 4.6567 -2.9766 0.9665
-7.8450 1.4134 -2.9766 0.9665
-7.9397 0.7095 -2.9766 0.9665
-7.5842 0.0000 -2.9766 0.9679
-7.5541 -0.6750 -2.9766 0.9679
-7.4640 -1.3447 -2.9766 0.9679
-6.8436 -3.2689 -2.9766 0.9679
-6.5254 -3.8650 -2.9766 0.9679
-5.7368 -4.9608 -2.9766 0.9679
-4.2223 -6.3001 -2.9766 0.9679
-3.0384 -6.9490 -2.9766 0.9679
-2.4078 -7.1918 -2.9766 0.9679
-1.7582 -7.3776 -2.9766 0.9679
-1.0946 -7.5048 -2.9766 0.9679
1.5934 -7.4149 -2.9766 0.9679
2.2470 -7.2437 -2.9766 0.9679
4.5837 -5.9393 -2.9445 0.9683
5.5521 -5.0215 -2.9381 0.9683
5.9795 -4.5094 -2.9393 0.9683
6.6906 -3.3809 -2.9421 0.9683
7.1914 -2.1433 -2.9451 0.9683
7.4655 -0.8351 -2.9483 0.9682
7.5036 0.5023 -2.9515 0.9682
7.4332 1.1688 -2.9532 0.9682
7.3036 1.8268 -2.9548 0.9682
6.8749 3.0969 -2.9596 0.9681
6.6099 3.7187 -2.9766 0.9679
5.3926 5.3329 -2.9766 0.9679
4.8965 5.7917 -2.9766 0.9679
4.3616 6.2045 -2.9766 0.9679
2.5674 7.1364 -2.9766 0.9679
1.9221 7.3366 -2.9766 0.9679
1.2615 7.4786 -2.9766 0.9679
0.5874 7.5174 -2.9593 0.9681
-0.0803 7.2031 -2.8272 0.9695
-1.3553 7.0702 -2.8254 0.9695
-3.1795 6.4682 -2.8285 0.9695
-3.8324 6.3090 -2.8971 0.9688
-4.4988 6.1058 -2.9766 0.9679
-5.5101 5.2114 -2.9766 0.9679
-5.9521 4.7003 -2.9766 0.9679
-6.3468 4.1519 -2.9766 0.9679
-7.2182 2.3276 -2.9766 0.9679
-7.3967 1.6759 -2.9766 0.9679
-7.5165 -1.0109 -2.9766 0.9679
-6.6912 -3.5705 -2.9766 0.9679
-6.3468 -4.1519 -2.9766 0.9679
-5.9521 -4.7003 -2.9766 0.9679
-4.4988 -6.1058 -2.9766 0.9679
-3.9375 -6.4820 -2.9766 0.9679
-2.7258 -7.0774 -2.9766 0.9679
-0.0845 -7.5837 -2.9766 0.9679
0.5908 -7.5611 -2.9766 0.9679
2.5674 -7.1364 -2.9766 0.9679
5.3218 -5.2628 -2.9375 0.9684
6.1759 -4.2395 -2.9400 0.9683
6.8363 -3.0803 -2.9428 0.9683
7.4974 -0.5019 -2.9491 0.9682
7.4758 0.8363 -2.9524 0.9682
7.3758 1.4992 -2.9540 0.9682
6.4377 4.0095 -2.9766 0.9679
6.0553 4.5665 -2.9766 0.9679
5.6248 5.0874 -2.9766 0.9679
5.1497 5.5678 -2.9766 0.9679
3.4957 6.7305 -2.9766 0.9679
2.8828 7.0149 -2.9766 0.9679
2.2470 7.2437 -2.9766 0.9679
1.5934 7.4149 -2.9766 0.9679
0.9271 7.5273 -2.9766 0.9679
-1.0389 7.1232 -2.8252 0.9695
-1.6689 7.0029 -2.8254 0.9695
-2.2854 6.8260 -2.8251 0.9695
-2.8832 6.5940 -2.8245 0.9695
-3.4640 6.3216 -2.8292 0.9695
-4.2224 6.3002 -2.9766 0.9679
-4.7663 5.8994 -2.9766 0.9679
-6.1556 4.4305 -2.9766 0.9679
-6.5254 3.8650 -2.9766 0.9679
-6.8436 3.2689 -2.9766 0.9679
-7.5541 0.6751 -2.9766 0.9679
-6.2194 -3.6838 -2.9766 0.9692
-5.8669 -4.2227 -2.9766 0.9692
-5.0252 -5.1960 -2.9766 0.9692
-2.8959 -6.6231 -2.9766 0.9692
-2.2949 -6.8545 -2.9766 0.9692
0.2415 -7.2245 -2.9766 0.9692
0.8836 -7.1743 -2.9766 0.9692
1.5186 -7.0672 -2.9766 0.9692
2.1416 -6.9040 -2.9766 0.9692
4.3919 -5.6908 -2.9601 0.9694
5.2933 -4.7875 -2.9389 0.9696
5.7001 -4.2986 -2.9398 0.9696
6.8547 -2.0429 -2.9453 0.9695
7.0129 -1.4254 -2.9468 0.9695
7.1157 -0.7960 -2.9484 0.9695
7.1620 -0.1596 -2.9499 0.9695
7.0843 1.1140 -2.9530 0.9695
6.9606 1.7410 -2.9546 0.9694
6.5744 2.9623 -2.9693 0.9693
6.2999 3.5443 -2.9766 0.9692
5.5717 4.6052 -2.9766 0.9692
4.6669 5.5201 -2.9766 0.9692
3.6143 6.2601 -2.9766 0.9692
1.8319 6.9926 -2.9766 0.9692
-0.0780 6.9967 -2.8813 0.9702
-0.6865 6.8240 -2.8242 0.9708
-1.2913 6.7365 -2.8245 0.9708
-3.7529 6.1780 -2.9766 0.9692
-4.7888 5.4147 -2.9766 0.9692
-5.2517 4.9670 -2.9766 0.9692
-5.6730 4.4799 -2.9766 0.9692
-6.6550 2.8220 -2.9766 0.9692
-7.0499 1.5973 -2.9766 0.9692
-7.1641 0.9635 -2.9766 0.9692
-7.2214 0.3220 -2.9766 0.9692
-6.0492 -3.9572 -2.9766 0.9692
-4.2878 -5.8194 -2.9766 0.9692
-3.7529 -6.1780 -2.9766 0.9692
-2.5980 -6.7455 -2.9766 0.9692
-1.9873 -6.9500 -2.9766 0.9692
0.5631 -7.2066 -2.9766 0.9692
2.4471 -6.8017 -2.9766 0.9692
4.1517 -5.9058 -2.9727 0.9693
4.6224 -5.4674 -2.9481 0.9695
5.0797 -5.0235 -2.9418 0.9696
6.2263 -3.5029 -2.9418 0.9696
6.5164 -2.9362 -2.9432 0.9696
6.7552 -2.3456 -2.9446 0.9695
6.9407 -1.7360 -2.9461 0.9695
7.1459 -0.4784 -2.9492 0.9695
7.1639 0.1597 -2.9507 0.9695
7.1250 0.7971 -2.9523 0.9695
6.6793 2.6583 -2.9602 0.9694
6.4516 3.2601 -2.9766 0.9692
5.3610 4.8488 -2.9766 0.9692
4.9082 5.3067 -2.9766 0.9692
4.4164 5.7225 -2.9766 0.9692
3.8895 6.0929 -2.9766 0.9692
3.3318 6.4149 -2.9766 0.9692
2.7476 6.6860 -2.9766 0.9692
0.2409 7.2068 -2.9693 0.9693
-1.5901 6.6724 -2.8245 0.9708
-2.1775 6.5038 -2.8243 0.9708
-2.7551 6.3023 -2.8324 0.9707
-4.0244 6.0047 -2.9766 0.9692
-4.5428 5.6227 -2.9766 0.9692
-6.2195 3.6838 -2.9766 0.9692
-6.5226 3.1156 -2.9766 0.9692
-7.1998 0.6434 -2.9766 0.9692
-6.7912 -1.2235 -2.9766 0.9704
-6.6553 -1.8231 -2.9766 0.9704
-6.4666 -2.4082 -2.9766 0.9704
-5.9372 -3.5166 -2.9766 0.9704
-5.2196 -4.5135 -2.9766 0.9704
-4.7972 -4.9602 -2.9766 0.9704
-3.8417 -5.7322 -2.9766 0.9704
-3.3163 -6.0514 -2.9766 0.9704
-2.1908 -6.5435 -2.9766 0.9704
-1.5997 -6.7125 -2.9766 0.9704
0.8435 -6.8487 -2.9766 0.9704
1.4497 -6.7465 -2.9766 0.9704
2.6229 -6.3825 -2.9766 0.9704
3.1806 -6.1237 -2.9766 0.9704
3.7130 -5.8163 -2.9766 0.9704
4.6486 -5.0260 -2.9532 0.9706
5.4426 -4.1038 -2.9404 0.9707
5.7884 -3.6050 -2.9415 0.9707
6.0890 -3.0769 -2.9428 0.9707
6.3415 -2.5239 -2.9442 0.9707
6.6950 -1.3608 -2.9470 0.9707
6.7929 -0.7599 -2.9485 0.9707
6.8370 -0.1523 -2.9499 0.9706
6.8269 0.4570 -2.9514 0.9706
6.6448 1.6624 -2.9546 0.9706
6.4867 2.2523 -2.9620 0.9705
6.2913 2.8347 -2.9766 0.9704
5.6890 3.9053 -2.9766 0.9704
5.3189 4.3962 -2.9766 0.9704
3.9684 5.6452 -2.9766 0.9704
3.4502 5.9760 -2.9766 0.9704
2.3360 6.4931 -2.9766 0.9704
0.5376 6.8795 -2.9766 0.9704
-0.0769 6.9001 -2.9766 0.9704
-1.2390 6.4639 -2.8390 0.9717
-2.4184 6.2792 -2.9025 0.9711
-3.0434 6.1931 -2.9766 0.9704
-3.5826 5.8977 -2.9766 0.9704
-4.5715 5.1690 -2.9766 0.9704
-6.5675 2.1177 -2.9766 0.9704
-6.7299 1.5248 -2.9766 0.9704
-6.8389 0.9198 -2.9766 0.9704
-6.8936 -0.3074 -2.9766 0.9704
-6.8389 -0.9197 -2.9766 0.9704
-6.7299 -1.5248 -2.9766 0.9704
-6.3529 -2.6939 -2.9766 0.9704
-6.0880 -3.2486 -2.9766 0.9704
-4.5714 -5.1690 -2.9766 0.9704
-4.0932 -5.5553 -2.9766 0.9704
-3.5825 -5.8976 -2.9766 0.9704
-3.0434 -6.1931 -2.9766 0.9704
-1.2991 -6.7771 -2.9766 0.9704
-0.6907 -6.8658 -2.9766 0.9704
0.5375 -6.8795 -2.9766 0.9704
1.1477 -6.8043 -2.9766 0.9704
1.7488 -6.6752 -2.9766 0.9704
2.3360 -6.4930 -2.9766 0.9704
2.9046 -6.2593 -2.9766 0.9704
4.4393 -5.2508 -2.9660 0.9705
5.2585 -4.3462 -2.9428 0.9707
5.6209 -3.8585 -2.9409 0.9707
5.9445 -3.3443 -2.9422 0.9707
6.4492 -2.2394 -2.9449 0.9707
6.6261 -1.6573 -2.9463 0.9707
6.7507 -1.0615 -2.9477 0.9707
6.8217 -0.4567 -2.9492 0.9707
6.8388 0.1524 -2.9507 0.9706
6.8015 0.7609 -2.9522 0.9706
6.4055 2.5495 -2.9739 0.9704
5.1177 4.6287 -2.9766 0.9704
3.7130 5.8164 -2.9766 0.9704
2.0444 6.5907 -2.9766 0.9704
1.4497 6.7465 -2.9766 0.9704
0.8435 6.8487 -2.9766 0.9704
-1.5240 6.3950 -2.8358 0.9718
-3.3163 6.0514 -2.9766 0.9704
-4.3369 5.3675 -2.9766 0.9704
-4.7972 4.9602 -2.9766 0.9704
-5.6006 4.0311 -2.9766 0.9704
-6.2266 2.9742 -2.9766 0.9704
-6.8731 0.6142 -2.9766 0.9704
-6.5968 0.0000 -2.9766 0.9715
-6.5706 -0.5871 -2.9766 0.9715
-6.3624 -1.7428 -2.9766 0.9715
-5.9526 -2.8433 -2.9766 0.9715
-5.6759 -3.3618 -2.9766 0.9715
-5.3541 -3.8536 -2.9766 0.9715
-4.9899 -4.3149 -2.9766 0.9715
-4.1458 -5.1313 -2.9766 0.9715
-3.6726 -5.4799 -2.9766 0.9715
-3.1703 -5.7850 -2.9766 0.9715
-2.6428 -6.0442 -2.9766 0.9715
-2.0944 -6.2555 -2.9766 0.9715
-1.5293 -6.4171 -2.9766 0.9715
-0.3673 -6.5865 -2.9766 0.9715
0.8064 -6.5473 -2.9766 0.9715
2.5075 -6.1016 -2.9766 0.9715
3.5496 -5.5603 -2.9766 0.9715
4.8517 -4.3881 -2.9517 0.9717
5.2129 -3.9313 -2.9461 0.9718
5.5365 -3.4482 -2.9431 0.9718
6.4007 -1.3010 -2.9471 0.9717
6.4941 -0.7265 -2.9485 0.9717
6.5361 -0.1456 -2.9500 0.9717
6.5263 0.4369 -2.9514 0.9717
6.4672 1.0170 -2.9540 0.9717
5.7493 3.2346 -2.9766 0.9715
5.0848 4.2027 -2.9766 0.9715
4.6905 4.6386 -2.9766 0.9715
4.2590 5.0377 -2.9766 0.9715
2.7768 5.9839 -2.9766 0.9715
1.6718 6.3814 -2.9766 0.9715
1.0972 6.5049 -2.9766 0.9715
-1.2348 6.4416 -2.9595 0.9716
-1.8059 6.3155 -2.9639 0.9716
-2.3709 6.1560 -2.9766 0.9715
-3.4249 5.6381 -2.9766 0.9715
-3.9131 5.3109 -2.9766 0.9715
-4.3702 4.9415 -2.9766 0.9715
-5.1772 4.0884 -2.9766 0.9715
-5.5205 3.6114 -2.9766 0.9715
-5.8200 3.1057 -2.9766 0.9715
-6.2784 2.0246 -2.9766 0.9715
-6.5379 0.8793 -2.9766 0.9715
-6.5902 0.2939 -2.9766 0.9715
-6.5379 -0.8793 -2.9766 0.9715
-6.4337 -1.4577 -2.9766 0.9715
-6.0733 -2.5753 -2.9766 0.9715
-5.5205 -3.6113 -2.9766 0.9715
-4.3702 -4.9415 -2.9766 0.9715
-3.4249 -5.6381 -2.9766 0.9715
-2.9095 -5.9205 -2.9766 0.9715
-0.6603 -6.5636 -2.9766 0.9715
0.5139 -6.5767 -2.9766 0.9715
1.0972 -6.5049 -2.9766 0.9715
1.6718 -6.3814 -2.9766 0.9715
2.2332 -6.2072 -2.9766 0.9715
2.7768 -5.9838 -2.9766 0.9715
3.2984 -5.7129 -2.9766 0.9715
4.6660 -4.6143 -2.9610 0.9716
5.0350 -4.1616 -2.9475 0.9717
5.6836 -3.1975 -2.9425 0.9718
5.9482 -2.6801 -2.9438 0.9718
6.5216 -0.4366 -2.9492 0.9717
6.5019 0.7274 -2.9521 0.9717
6.3037 1.8787 -2.9680 0.9715
5.8877 2.9752 -2.9766 0.9715
4.8925 4.4250 -2.9766 0.9715
4.0304 5.2224 -2.9766 0.9715
3.5496 5.5604 -2.9766 0.9715
3.0406 5.8542 -2.9766 0.9715
2.5075 6.1016 -2.9766 0.9715
1.3859 6.4496 -2.9766 0.9715
-3.1703 5.7851 -2.9766 0.9715
-3.6726 5.4799 -2.9766 0.9715
-4.1458 5.1313 -2.9766 0.9715
-4.9899 4.3149 -2.9766 0.9715
-5.9526 2.8433 -2.9766 0.9715
-6.5706 0.5872 -2.9766 0.9715
-6.2146 -1.1196 -2.9766 0.9725
-5.9176 -2.2037 -2.9766 0.9725
-5.6980 -2.7217 -2.9766 0.9725
-5.4331 -3.2180 -2.9766 0.9725
-3.5154 -5.2455 -2.9766 0.9725
-3.0347 -5.5376 -2.9766 0.9725
-0.9113 -6.2485 -2.9766 0.9725
-0.3516 -6.3048 -2.9766 0.9725
0.2110 -6.3111 -2.9766 0.9725
0.7719 -6.2673 -2.9766 0.9725
1.3266 -6.1737 -2.9766 0.9725
2.4002 -5.8407 -2.9766 0.9725
2.9106 -5.6038 -2.9766 0.9725
3.3978 -5.3225 -2.9766 0.9725
3.8580 -4.9990 -2.9766 0.9725
4.6718 -4.2254 -2.9693 0.9725
5.3088 -3.3063 -2.9481 0.9727
5.8050 -2.3103 -2.9451 0.9727
5.9893 -1.7850 -2.9460 0.9727
6.1272 -1.2454 -2.9473 0.9727
6.2165 -0.6954 -2.9486 0.9727
6.2533 0.4186 -2.9542 0.9727
6.2001 0.9747 -2.9585 0.9726
5.9652 2.0714 -2.9766 0.9725
5.2060 3.5738 -2.9766 0.9725
4.0769 4.8222 -2.9766 0.9725
3.6315 5.1659 -2.9766 0.9725
3.1573 5.4686 -2.9766 0.9725
2.6580 5.7280 -2.9766 0.9725
1.0503 6.2267 -2.9766 0.9725
0.4919 6.2955 -2.9766 0.9725
-0.0704 6.3143 -2.9766 0.9725
-1.7360 6.0713 -2.9766 0.9725
-2.2695 5.8927 -2.9766 0.9725
-3.7457 5.0837 -2.9766 0.9725
-4.1833 4.7302 -2.9766 0.9725
-4.5878 4.3391 -2.9766 0.9725
-5.5711 2.9728 -2.9766 0.9725
-6.1586 1.3954 -2.9766 0.9725
-6.2583 0.8417 -2.9766 0.9725
-6.3084 -0.2813 -2.9766 0.9725
-6.1586 -1.3953 -2.9766 0.9725
-5.5711 -2.9728 -2.9766 0.9725
-5.2844 -3.4569 -2.9766 0.9725
-4.9557 -3.9135 -2.9766 0.9725
-4.5878 -4.3390 -2.9766 0.9725
-4.1833 -4.7301 -2.9766 0.9725
-3.2784 -5.3969 -2.9766 0.9725
-2.7850 -5.6673 -2.9766 0.9725
-2.2696 -5.8927 -2.9766 0.9725
-1.1888 -6.2017 -2.9766 0.9725
-0.6321 -6.2829 -2.9766 0.9725
-0.0704 -6.3142 -2.9766 0.9725
0.4919 -6.2954 -2.9766 0.9725
2.6580 -5.7279 -2.9766 0.9725
3.6315 -5.1659 -2.9766 0.9725
4.8402 -4.0005 -2.9600 0.9726
5.1579 -3.5407 -2.9490 0.9727
5.6975 -2.5672 -2.9457 0.9727
5.9026 -2.0496 -2.9453 0.9727
6.1780 -0.9714 -2.9479 0.9727
6.2616 0.1393 -2.9523 0.9727
6.0516 1.8036 -2.9766 0.9725
5.8670 2.3350 -2.9766 0.9725
5.3601 3.3383 -2.9766 0.9725
5.0417 3.8021 -2.9766 0.9725
3.8580 4.9990 -2.9766 0.9725
3.3978 5.3226 -2.9766 0.9725
2.9106 5.6039 -2.9766 0.9725
1.8709 6.0312 -2.9766 0.9725
0.2110 6.3111 -2.9766 0.9725
-0.3516 6.3049 -2.9766 0.9725
-0.9113 6.2485 -2.9766 0.9725
-1.4639 6.1426 -2.9766 0.9725
-2.0048 5.9880 -2.9766 0.9725
-2.5298 5.7858 -2.9766 0.9725
-3.0347 5.5376 -2.9766 0.9725
-3.9685 4.9118 -2.9766 0.9725
-5.1252 3.6889 -2.9766 0.9725
-5.4331 3.2181 -2.9766 0.9725
-6.0903 1.6683 -2.9766 0.9725
-6.2146 1.1196 -2.9766 0.9725
-6.2896 0.5621 -2.9766 0.9725
-6.0277 -0.5386 -2.9766 0.9734
-5.9559 -1.0730 -2.9766 0.9734
-5.8367 -1.5988 -2.9766 0.9734
-5.6713 -2.1120 -2.9766 0.9734
-5.4608 -2.6084 -2.9766 0.9734
-5.2069 -3.0840 -2.9766 0.9734
-4.9118 -3.5352 -2.9766 0.9734
-3.8033 -4.7073 -2.9766 0.9734
-3.3692 -5.0271 -2.9766 0.9734
-2.9084 -5.3071 -2.9766 0.9734
-2.4245 -5.5448 -2.9766 0.9734
-1.9213 -5.7386 -2.9766 0.9734
-1.4029 -5.8869 -2.9766 0.9734
-0.8734 -5.9884 -2.9766 0.9734
1.2714 -5.9167 -2.9766 0.9734
1.7930 -5.7800 -2.9766 0.9734
4.4883 -4.0594 -2.9766 0.9734
5.1019 -3.1775 -2.9563 0.9736
5.5727 -2.2179 -2.9501 0.9736
5.7482 -1.7131 -2.9502 0.9736
5.8795 -1.1951 -2.9510 0.9736
5.9659 -0.6674 -2.9527 0.9736
6.0056 0.4020 -2.9605 0.9735
5.7169 1.9851 -2.9766 0.9734
5.5175 2.4861 -2.9766 0.9734
5.2743 2.9673 -2.9766 0.9734
4.9893 3.4250 -2.9766 0.9734
4.6646 3.8555 -2.9766 0.9734
3.4803 4.9508 -2.9766 0.9734
3.0259 5.2410 -2.9766 0.9734
2.5474 5.4895 -2.9766 0.9734
2.0487 5.6945 -2.9766 0.9734
1.0066 5.9674 -2.9766 0.9734
0.4714 6.0334 -2.9766 0.9734
-2.1750 5.6474 -2.9766 0.9734
-3.1419 5.1723 -2.9766 0.9734
-3.5898 4.8721 -2.9766 0.9734
-4.0092 4.5332 -2.9766 0.9734
-4.3967 4.1584 -2.9766 0.9734
-4.7494 3.7506 -2.9766 0.9734
-5.0644 3.3130 -2.9766 0.9734
-5.3392 2.8491 -2.9766 0.9734
-5.5716 2.3625 -2.9766 0.9734
-5.7597 1.8573 -2.9766 0.9734
-5.9022 1.3373 -2.9766 0.9734
-6.0458 -0.2696 -2.9766 0.9734
-5.9978 -0.8066 -2.9766 0.9734
-5.9022 -1.3372 -2.9766 0.9734
-5.5715 -2.3625 -2.9766 0.9734
-5.3392 -2.8490 -2.9766 0.9734
-5.0644 -3.3129 -2.9766 0.9734
-4.3967 -4.1584 -2.9766 0.9734
-3.5898 -4.8721 -2.9766 0.9734
-2.1750 -5.6474 -2.9766 0.9734
-1.6638 -5.8185 -2.9766 0.9734
-1.1393 -5.9435 -2.9766 0.9734
-0.6058 -6.0213 -2.9766 0.9734
-0.0674 -6.0514 -2.9766 0.9734
1.0066 -5.9674 -2.9766 0.9734
2.0487 -5.6944 -2.9766 0.9734
3.0259 -5.2409 -2.9766 0.9734
3.4803 -4.9508 -2.9766 0.9734
3.9072 -4.6214 -2.9766 0.9734
4.3030 -4.2553 -2.9766 0.9734
4.6614 -3.8527 -2.9745 0.9734
5.2320 -2.9434 -2.9527 0.9736
5.6659 -1.9674 -2.9500 0.9736
5.9920 -0.4009 -2.9538 0.9736
5.9949 0.6707 -2.9670 0.9735
5.9305 1.2054 -2.9766 0.9734
5.7996 1.7285 -2.9766 0.9734
5.4013 2.7294 -2.9766 0.9734
4.8318 3.6438 -2.9766 0.9734
3.6974 4.7909 -2.9766 0.9734
2.7894 5.3706 -2.9766 0.9734
1.2714 5.9167 -2.9766 0.9734
0.7397 6.0064 -2.9766 0.9734
0.2022 6.0484 -2.9766 0.9734
-1.9213 5.7387 -2.9766 0.9734
-3.3692 5.0272 -2.9766 0.9734
-4.2071 4.3502 -2.9766 0.9734
-4.5776 3.9584 -2.9766 0.9734
-5.2069 3.0841 -2.9766 0.9734
-6.0277 0.5386 -2.9766 0.9734
-5.8060 0.0000 -2.9766 0.9742
-5.5997 -1.5339 -2.9766 0.9742
-5.2391 -2.5025 -2.9766 0.9742
-4.9955 -2.9588 -2.9766 0.9742
-3.6488 -4.5162 -2.9766 0.9742
-3.2324 -4.8230 -2.9766 0.9742
-2.3260 -5.3197 -2.9766 0.9742
-1.3460 -5.6478 -2.9766 0.9742
1.2198 -5.6765 -2.9766 0.9742
2.6761 -5.1525 -2.9766 0.9742
3.5473 -4.5963 -2.9766 0.9742
3.9423 -4.2624 -2.9766 0.9742
4.3060 -3.8946 -2.9766 0.9742
4.6356 -3.4959 -2.9766 0.9742
4.9217 -3.0653 -2.9726 0.9743
5.7369 -0.6418 -2.9595 0.9744
5.7902 0.3877 -2.9751 0.9743
5.2935 2.3851 -2.9766 0.9742
4.4753 3.6989 -2.9766 0.9742
4.1283 4.0825 -2.9766 0.9742
3.7485 4.4338 -2.9766 0.9742
1.9655 5.4632 -2.9766 0.9742
1.4714 5.6165 -2.9766 0.9742
0.9657 5.7252 -2.9766 0.9742
0.4523 5.7884 -2.9766 0.9742
-0.5812 5.7769 -2.9766 0.9742
-1.5962 5.5823 -2.9766 0.9742
-3.4440 4.6743 -2.9766 0.9742
-3.8464 4.3492 -2.9766 0.9742
-4.5566 3.5983 -2.9766 0.9742
-4.8588 3.1785 -2.9766 0.9742
-5.1224 2.7334 -2.9766 0.9742
-5.3453 2.2666 -2.9766 0.9742
-5.3453 -2.2666 -2.9766 0.9742
-3.4440 -4.6742 -2.9766 0.9742
-2.5607 -5.2108 -2.9766 0.9742
-1.5962 -5.5823 -2.9766 0.9742
-1.0930 -5.7022 -2.9766 0.9742
-0.5812 -5.7769 -2.9766 0.9742
-0.0647 -5.8056 -2.9766 0.9742
0.4523 -5.7884 -2.9766 0.9742
1.4714 -5.6164 -2.9766 0.9742
1.9655 -5.4632 -2.9766 0.9742
3.3390 -4.7498 -2.9766 0.9742
4.1283 -4.0825 -2.9766 0.9742
4.7852 -3.2849 -2.9756 0.9742
5.0467 -2.8392 -2.9686 0.9743
5.2650 -2.3723 -2.9606 0.9744
5.5936 -1.3990 -2.9560 0.9744
5.7953 0.1292 -2.9718 0.9743
5.5642 1.6583 -2.9766 0.9742
5.3945 2.1470 -2.9766 0.9742
5.1820 2.6186 -2.9766 0.9742
4.9283 3.0694 -2.9766 0.9742
4.6356 3.4959 -2.9766 0.9742
4.3060 3.8946 -2.9766 0.9742
2.2069 5.3703 -2.9766 0.9742
1.7202 5.5454 -2.9766 0.9742
0.7097 5.7625 -2.9766 0.9742
0.1940 5.8028 -2.9766 0.9742
-0.3233 5.7970 -2.9766 0.9742
-1.3460 5.6479 -2.9766 0.9742
-1.8433 5.5057 -2.9766 0.9742
-2.3260 5.3198 -2.9766 0.9742
-2.7903 5.0916 -2.9766 0.9742
-3.6488 4.5162 -2.9766 0.9742
-4.0363 4.1735 -2.9766 0.9742
-4.3918 3.7977 -2.9766 0.9742
-4.9955 2.9589 -2.9766 0.9742
-5.2391 2.5025 -2.9766 0.9742
-5.7140 1.0295 -2.9766 0.9742
-5.7830 0.5168 -2.9766 0.9742
-5.5758 0.0000 -2.9766 0.9750
-5.5536 -0.4963 -2.9766 0.9750
-5.3777 -1.4731 -2.9766 0.9750
-5.2252 -1.9459 -2.9766 0.9750
-4.7974 -2.8415 -2.9766 0.9750
-4.2176 -3.6471 -2.9766 0.9750
-3.5041 -4.3371 -2.9766 0.9750
-2.2338 -5.1087 -2.9766 0.9750
-1.7702 -5.2873 -2.9766 0.9750
-0.8047 -5.5174 -2.9766 0.9750
1.6519 -5.3254 -2.9766 0.9750
2.5700 -4.9481 -2.9766 0.9750
3.0002 -4.6997 -2.9766 0.9750
3.4066 -4.4140 -2.9766 0.9750
3.7859 -4.0933 -2.9766 0.9750
4.9760 -2.5145 -2.9763 0.9750
5.1749 -2.0595 -2.9733 0.9751
5.5081 0.8661 -2.9766 0.9750
5.2672 1.8290 -2.9766 0.9750
3.9645 3.9207 -2.9766 0.9750
3.2066 4.5614 -2.9766 0.9750
2.3470 5.0577 -2.9766 0.9750
0.9274 5.4981 -2.9766 0.9750
-0.0621 5.5754 -2.9766 0.9750
-2.0040 5.2032 -2.9766 0.9750
-2.8948 4.7654 -2.9766 0.9750
-4.0509 3.8313 -2.9766 0.9750
-4.3758 3.4556 -2.9766 0.9750
-4.6661 3.0524 -2.9766 0.9750
-4.9192 2.6250 -2.9766 0.9750
-5.4379 1.2321 -2.9766 0.9750
-5.5702 0.2484 -2.9766 0.9750
-5.5702 -0.2484 -2.9766 0.9750
-5.5260 -0.7432 -2.9766 0.9750
-5.1333 -2.1767 -2.9766 0.9750
-4.6661 -3.0524 -2.9766 0.9750
-4.0509 -3.8313 -2.9766 0.9750
-3.6938 -4.1766 -2.9766 0.9750
-2.8948 -4.7654 -2.9766 0.9750
-1.5329 -5.3609 -2.9766 0.9750
-0.5581 -5.5477 -2.9766 0.9750
0.9274 -5.4980 -2.9766 0.9750
1.4131 -5.3937 -2.9766 0.9750
1.8875 -5.2465 -2.9766 0.9750
2.3470 -5.0577 -2.9766 0.9750
3.2066 -4.5614 -2.9766 0.9750
4.2978 -3.5522 -2.9766 0.9750
5.4007 -1.3508 -2.9720 0.9751
5.5017 -0.8651 -2.9731 0.9751
5.5744 0.1242 -2.9766 0.9750
5.5412 0.6199 -2.9766 0.9750
5.3435 1.5925 -2.9766 0.9750
4.9764 2.5147 -2.9766 0.9750
4.7329 2.9477 -2.9766 0.9750
4.4517 3.3572 -2.9766 0.9750
4.1352 3.7401 -2.9766 0.9750
3.4066 4.4141 -2.9766 0.9750
3.0002 4.6998 -2.9766 0.9750
2.5700 4.9481 -2.9766 0.9750
1.6519 5.3254 -2.9766 0.9750
0.6815 5.5340 -2.9766 0.9750
-0.8047 5.5174 -2.9766 0.9750
-1.2926 5.4239 -2.9766 0.9750
-1.7702 5.2873 -2.9766 0.9750
-3.1042 4.6318 -2.9766 0.9750
-3.8762 4.0080 -2.9766 0.9750
-4.2176 3.6471 -2.9766 0.9750
-5.5536 0.4963 -2.9766 0.9750
-5.3381 -0.4770 -2.9766 0.9758
-5.0224 -1.8704 -2.9766 0.9758
-4.8360 -2.3099 -2.9766 0.9758
-4.3498 -3.1308 -2.9766 0.9758
-3.3681 -4.1688 -2.9766 0.9758
-2.9837 -4.4520 -2.9766 0.9758
-1.7015 -5.0821 -2.9766 0.9758
-1.2424 -5.2134 -2.9766 0.9758
-0.2984 -5.3510 -2.9766 0.9758
2.4703 -4.7561 -2.9766 0.9758
2.8838 -4.5174 -2.9766 0.9758
3.2744 -4.2427 -2.9766 0.9758
3.9748 -3.5950 -2.9766 0.9758
4.2790 -3.2269 -2.9766 0.9758
4.7833 -2.4171 -2.9766 0.9758
5.1361 -1.5307 -2.9766 0.9758
5.2520 -1.0675 -2.9766 0.9758
5.3580 -0.1194 -2.9766 0.9758
4.6709 2.6278 -2.9766 0.9758
4.4185 3.0331 -2.9766 0.9758
3.8107 3.7685 -2.9766 0.9758
3.0821 4.3845 -2.9766 0.9758
2.6797 4.6414 -2.9766 0.9758
0.8914 5.2847 -2.9766 0.9758
-0.0597 5.3591 -2.9766 0.9758
-1.0089 5.2636 -2.9766 0.9758
-1.4734 5.1529 -2.9766 0.9758
-1.9262 5.0013 -2.9766 0.9758
-2.3637 4.8100 -2.9766 0.9758
-3.5505 4.0146 -2.9766 0.9758
-3.8937 3.6827 -2.9766 0.9758
-4.7283 2.5231 -2.9766 0.9758
-5.1008 1.6448 -2.9766 0.9758
-5.2269 1.1843 -2.9766 0.9758
-5.3116 0.7144 -2.9766 0.9758
-5.3541 0.2388 -2.9766 0.9758
-5.2269 -1.1842 -2.9766 0.9758
-5.1008 -1.6448 -2.9766 0.9758
-4.9341 -2.0922 -2.9766 0.9758
-4.7283 -2.5231 -2.9766 0.9758
-3.1791 -4.3146 -2.9766 0.9758
-1.9262 -5.0012 -2.9766 0.9758
-0.0597 -5.3590 -2.9766 0.9758
0.8914 -5.2847 -2.9766 0.9758
1.8143 -5.0429 -2.9766 0.9758
2.2559 -4.8614 -2.9766 0.9758
2.6797 -4.6413 -2.9766 0.9758
3.4602 -4.0927 -2.9766 0.9758
4.6709 -2.6278 -2.9766 0.9758
5.0628 -1.7580 -2.9766 0.9758
5.2943 -0.8325 -2.9766 0.9758
5.3474 -0.3580 -2.9766 0.9758
5.3580 0.1194 -2.9766 0.9758
5.3262 0.5958 -2.9766 0.9758
5.2520 1.0675 -2.9766 0.9758
5.1361 1.5307 -2.9766 0.9758
4.7833 2.4171 -2.9766 0.9758
4.5492 2.8333 -2.9766 0.9758
3.9748 3.5950 -2.9766 0.9758
3.2744 4.2428 -2.9766 0.9758
2.0371 4.9571 -2.9766 0.9758
1.5878 5.1188 -2.9766 0.9758
0.6551 5.3192 -2.9766 0.9758
-0.7735 5.3033 -2.9766 0.9758
-1.2424 5.2134 -2.9766 0.9758
-2.5756 4.6999 -2.9766 0.9758
-3.3681 4.1688 -2.9766 0.9758
-4.0539 3.5056 -2.9766 0.9758
-4.3498 3.1308 -2.9766 0.9758
-4.6112 2.7312 -2.9766 0.9758
-4.8360 2.3100 -2.9766 0.9758
-5.0224 1.8704 -2.9766 0.9758
-5.3381 0.4770 -2.9766 0.9758
-5.0739 -0.9141 -2.9766 0.9765
-4.9724 -1.3621 -2.9766 0.9765
-3.8998 -3.3722 -2.9766 0.9765
