ply
format ascii 1.0
element vertex 1587
property float32 x
property float32 y
property float32 z
property float32 I
end_header
7.8221 0.8750 -0.1963 0.9690
7.2806 1.4799 -0.1853 0.9707
-4.9084 -11.2258 -0.5094 0.9521
7.3890 3.3293 -0.3370 0.9681
7.8039 0.8730 -0.3265 0.9691
7.2681 1.4773 -0.3084 0.9707
8.6413 0.5785 -0.5044 0.9659
7.4690 1.1745 -0.4404 0.9702
7.1304 1.7834 -0.4281 0.9710
7.0576 2.4507 -0.4351 0.9705
7.3882 3.3290 -0.4720 0.9681
7.1363 2.8402 -0.4473 0.9697
1.9598 9.1204 -0.5433 0.9633
-4.9086 -11.2261 -0.9182 0.9520
7.4833 1.1767 -0.5677 0.9701
7.1421 1.7864 -0.5517 0.9709
7.4150 3.3410 -0.6095 0.9679
7.8182 0.8746 -0.5895 0.9689
7.1511 2.8461 -0.5768 0.9696
1.9598 9.1203 -0.6991 0.9633
7.4976 1.1790 -0.6958 0.9700
7.1538 1.7893 -0.6760 0.9708
7.0829 2.4595 -0.6874 0.9703
7.4422 3.3533 -0.7483 0.9677
7.2858 1.4809 -0.6816 0.9706
7.0858 2.1118 -0.6778 0.9707
7.1768 1.7950 -0.8024 0.9707
7.1105 2.4691 -0.8164 0.9702
7.8935 0.8830 -0.8615 0.9685
7.2037 2.8670 -0.8410 0.9693
-4.9088 -11.2266 -1.5355 0.9518
7.2147 1.8045 -0.9320 0.9705
7.6221 3.4343 -1.0477 0.9669
7.9710 0.8917 -1.0051 0.9682
7.3521 1.4944 -0.9402 0.9702
7.1473 2.1301 -0.9346 0.9704
1.9598 9.1201 -1.1690 0.9631
7.6323 1.2001 -1.0989 0.9693
7.2532 1.8141 -1.0634 0.9702
8.0872 0.9047 -1.1575 0.9677
7.3207 2.9136 -1.1207 0.9687
-7.9169 -11.8129 -2.2644 0.9440
-4.9089 -11.2270 -1.9512 0.9516
7.2738 2.5257 -1.2261 0.9693
7.4695 1.5182 -1.2137 0.9696
7.2559 2.1625 -1.2056 0.9698
-7.8749 -11.7502 -2.4942 0.9442
7.8375 1.2324 -1.3990 0.9683
7.3954 1.8497 -1.3442 0.9695
7.3542 2.5537 -1.3727 0.9689
7.5482 1.5342 -1.3582 0.9692
7.5847 3.0187 -1.4394 0.9674
1.9598 9.1200 -1.6448 0.9628
-11.8788 -8.5498 -2.8323 0.9421
-11.0785 -9.5800 -2.8343 0.9421
-9.1845 -11.3677 -2.8281 0.9422
-7.8331 -11.6878 -2.7228 0.9443
-6.9853 -12.7466 -2.8128 0.9425
-4.5876 -13.7024 -2.7963 0.9428
-3.3406 -14.0175 -2.7886 0.9430
7.5078 1.8778 -1.4976 0.9690
7.5047 2.6059 -1.5374 0.9682
-11.5449 9.1169 -2.8468 0.9418
-10.6444 -10.0674 -2.8352 0.9421
-6.4041 -13.0319 -2.8100 0.9426
-5.2012 -13.5047 -2.8005 0.9427
-3.9672 -13.8740 -2.7925 0.9429
-2.7099 -14.1372 -2.7856 0.9430
7.6743 1.5599 -1.5155 0.9686
7.4444 2.2187 -1.5032 0.9688
1.9598 9.1199 -1.8052 0.9627
-11.1362 9.6298 -2.8490 0.9418
-14.1146 -1.2613 -2.9875 0.9437
-13.9422 -2.5118 -2.9866 0.9437
-13.6597 -3.7418 -2.9858 0.9437
-12.7745 -6.1018 -2.9846 0.9438
-12.1788 -7.2135 -2.9841 0.9438
-9.3478 -9.6655 -2.8348 0.9465
-8.4552 -10.4651 -2.8364 0.9465
-6.4488 -11.7674 -2.8289 0.9466
-4.9091 -11.2275 -2.5833 0.9511
-4.2643 -12.7368 -2.8317 0.9466
-3.1115 -13.0563 -2.8296 0.9466
-0.7754 -13.9063 -2.9363 0.9447
0.4643 -13.8871 -2.9293 0.9448
1.6999 -13.8021 -2.9317 0.9447
2.9240 -13.6071 -2.9341 0.9447
4.1273 -13.3050 -2.9368 0.9446
6.4345 -12.3887 -2.9431 0.9445
8.5501 -11.0787 -2.9503 0.9444
10.4071 -9.4127 -2.9583 0.9443
11.2195 -8.4610 -2.9625 0.9442
11.9454 -7.4397 -2.9668 0.9441
13.5339 -4.0335 -2.9772 0.9439
14.0716 -1.5742 -2.9851 0.9438
14.1745 -0.3159 -2.9890 0.9437
14.1643 0.9482 -2.9928 0.9436
8.4061 1.3218 -1.7939 0.9658
7.7137 2.6785 -1.7214 0.9672
13.0046 5.8596 -3.0071 0.9434
9.2305 10.9179 -3.0141 0.9432
7.1477 12.3802 -3.0138 0.9432
4.8381 13.4478 -3.0130 0.9433
3.6213 13.8224 -3.0124 0.9433
1.0569 13.5256 -2.8602 0.9460
-1.3578 13.4970 -2.8598 0.9461
-4.8708 12.6468 -2.8571 0.9461
-5.9752 12.1591 -2.8562 0.9461
-8.0309 10.8996 -2.8542 0.9462
-9.8200 9.2877 -2.8495 0.9462
-10.5923 8.3647 -2.8454 0.9463
-13.5094 4.3562 -2.9924 0.9436
-13.8378 3.1352 -2.9912 0.9436
-14.0565 1.8904 -2.9901 0.9437
-14.1638 0.6316 -2.9890 0.9437
-14.1590 -0.6314 -2.9880 0.9437
-14.0423 -1.8885 -2.9870 0.9437
-13.4780 -4.3460 -2.9855 0.9438
-13.0348 -5.5272 -2.9848 0.9438
-12.4889 -6.6643 -2.9843 0.9438
-10.5429 -8.3256 -2.8321 0.9466
-8.9105 -10.0753 -2.8356 0.9465
-7.9827 -10.8342 -2.8371 0.9465
-6.9740 -11.4807 -2.8319 0.9466
-4.8077 -12.4828 -2.8201 0.9468
-3.7016 -12.9453 -2.8385 0.9464
-2.5146 -13.1186 -2.8160 0.9469
1.0828 -13.8572 -2.9303 0.9448
5.8730 -12.6559 -2.9414 0.9446
6.9841 -12.0968 -2.9448 0.9445
10.8237 -8.9460 -2.9604 0.9442
11.5937 -7.9586 -2.9646 0.9441
12.8589 -5.7940 -2.9734 0.9440
13.7082 -3.4287 -2.9790 0.9439
14.1371 -0.9464 -2.9871 0.9437
14.1170 1.5792 -2.9947 0.9436
7.5855 2.2607 -1.6687 0.9682
13.2457 5.2717 -3.0055 0.9434
12.7371 6.4364 -3.0086 0.9433
11.4138 8.6075 -3.0138 0.9432
9.7077 10.4959 -3.0141 0.9432
8.7349 11.3181 -3.0141 0.9432
5.4328 13.2200 -3.0132 0.9432
1.6573 13.4563 -2.8583 0.9461
-1.9574 13.4211 -2.8594 0.9461
-4.3033 12.8534 -2.8576 0.9461
-7.5387 11.2485 -2.8547 0.9461
-8.5071 10.5293 -2.8538 0.9462
-9.4031 9.7228 -2.8515 0.9462
-13.6872 3.7493 -2.9918 0.9436
-13.9610 2.5152 -2.9906 0.9437
-13.0967 0.0000 -2.9892 0.9477
-12.8818 -2.3208 -2.9875 0.9477
-12.6211 -3.4573 -2.9868 0.9477
-12.2607 -4.5659 -2.9862 0.9477
-11.8035 -5.6380 -2.9856 0.9477
-11.2532 -6.6653 -2.9852 0.9478
-8.6305 -8.9239 -2.8335 0.9503
-3.9484 -11.7931 -2.8386 0.9503
-2.8815 -12.0911 -2.8370 0.9503
-1.7927 -12.2913 -2.8351 0.9503
0.4293 -12.8415 -2.9326 0.9486
1.5714 -12.7593 -2.9342 0.9486
4.9001 -11.9237 -2.9424 0.9485
6.9513 -10.8891 -2.9486 0.9484
7.9021 -10.2391 -2.9521 0.9483
8.7929 -9.5067 -2.9557 0.9483
9.6164 -8.6975 -2.9594 0.9482
11.0341 -6.8723 -2.9670 0.9481
12.7956 -2.6008 -2.9802 0.9478
13.0862 -0.2916 -2.9876 0.9477
13.0762 0.8754 -2.9912 0.9477
7.8677 1.9679 -1.8511 0.9673
12.4227 4.3136 -3.0015 0.9475
12.0014 5.4076 -3.0045 0.9474
10.8714 7.4629 -3.0097 0.9473
10.1715 8.4070 -3.0119 0.9473
9.3858 9.2819 -3.0129 0.9473
8.5225 10.0805 -3.0129 0.9473
6.5995 11.4308 -3.0126 0.9473
3.3437 12.7628 -3.0113 0.9473
2.0825 12.3460 -2.8577 0.9499
0.9751 12.4793 -2.8570 0.9499
-0.1396 12.5306 -2.8602 0.9499
-1.2540 12.4649 -2.8594 0.9499
-2.3578 12.3004 -2.8586 0.9499
-3.4422 12.0382 -2.8578 0.9499
-5.5188 11.2303 -2.8560 0.9500
-7.4179 10.0676 -2.8542 0.9500
-8.2772 9.3591 -2.8517 0.9500
-10.2395 8.0860 -2.9779 0.9479
-10.9867 7.1872 -2.9965 0.9476
-11.5780 6.1782 -2.9953 0.9476
-12.0771 5.1211 -2.9941 0.9476
-12.4800 4.0243 -2.9929 0.9476
-12.7839 2.8965 -2.9918 0.9476
-12.9863 1.7465 -2.9907 0.9477
-12.9741 -1.7449 -2.9879 0.9477
-12.7641 -2.8919 -2.9871 0.9477
-12.4532 -4.0156 -2.9865 0.9477
-11.5398 -6.1578 -2.9854 0.9477
-10.9445 -7.1595 -2.9850 0.9478
-9.0175 -8.5287 -2.8329 0.9504
-8.2266 -9.3020 -2.8343 0.9503
-2.3392 -12.2033 -2.8360 0.9503
-0.1433 -12.8666 -2.9369 0.9486
2.1390 -12.6810 -2.9352 0.9486
3.2625 -12.4528 -2.9382 0.9486
5.4291 -11.6994 -2.9438 0.9485
7.4338 -10.5747 -2.9503 0.9483
10.0008 -8.2659 -2.9614 0.9482
11.3350 -6.3770 -2.9685 0.9480
11.8675 -5.3473 -2.9710 0.9480
12.9068 -2.0295 -2.9821 0.9478
13.0321 1.4579 -2.9930 0.9476
8.1656 1.6597 -1.9019 0.9664
12.2244 4.8652 -3.0030 0.9474
11.1886 6.9683 -3.0085 0.9474
10.5322 7.9427 -3.0109 0.9473
8.9631 9.6909 -3.0129 0.9473
8.0649 10.4500 -3.0129 0.9473
7.1024 11.1258 -3.0127 0.9473
5.0162 12.2063 -3.0121 0.9473
3.9093 12.6023 -3.0116 0.9473
1.9597 9.1198 -2.1291 0.9625
1.5303 12.4250 -2.8574 0.9499
0.4188 12.5261 -2.8606 0.9499
-0.6976 12.5101 -2.8598 0.9499
-2.9030 12.1813 -2.8582 0.9499
-3.9745 11.8711 -2.8573 0.9499
-5.0138 11.4668 -2.8565 0.9499
-6.9631 10.3897 -2.8547 0.9500
-8.6803 8.9754 -2.8499 0.9501
-9.4323 8.1564 -2.8461 0.9501
-11.8393 5.6552 -2.9947 0.9476
-12.2908 4.5771 -2.9935 0.9476
-13.0490 1.1661 -2.9902 0.9477
-11.3883 -4.2411 -2.9871 0.9512
-10.9639 -5.2370 -2.9866 0.9512
-10.4528 -6.1912 -2.9862 0.9512
-9.8593 -7.0963 -2.9859 0.9512
-9.1879 -7.9451 -2.9857 0.9512
-7.2456 -8.9679 -2.8339 0.9536
-6.4215 -9.5815 -2.8351 0.9536
-5.5454 -10.1190 -2.8363 0.9536
-3.6647 -10.9459 -2.8373 0.9536
-2.6750 -11.2247 -2.8363 0.9536
-1.7367 -11.9075 -2.9578 0.9516
-0.6728 -12.0666 -2.9706 0.9514
1.4606 -11.8590 -2.9370 0.9520
2.5118 -11.6890 -2.9387 0.9519
3.5449 -11.4276 -2.9409 0.9519
4.5517 -11.0759 -2.9434 0.9519
5.5259 -10.6392 -2.9468 0.9518
8.1672 -8.8302 -2.9565 0.9517
9.6226 -7.2567 -2.9624 0.9516
11.6031 -3.4581 -2.9760 0.9514
11.8789 -2.4145 -2.9795 0.9513
12.0606 -1.3492 -2.9830 0.9512
12.1471 -0.2707 -2.9865 0.9512
12.1369 0.8125 -2.9899 0.9511
12.0298 1.8916 -2.9933 0.9511
11.8262 2.9579 -2.9964 0.9510
11.5275 4.0028 -2.9994 0.9510
11.1358 5.0176 -3.0022 0.9509
10.0861 6.9237 -3.0071 0.9509
9.4362 7.7992 -3.0091 0.9508
5.1569 11.1129 -3.0113 0.9508
3.1039 11.8476 -3.0104 0.9508
1.9332 11.4609 -2.8569 0.9533
0.9052 11.5848 -2.8562 0.9533
-2.1891 11.4206 -2.8583 0.9532
-3.1961 11.1774 -2.8575 0.9532
-4.1771 10.8456 -2.8567 0.9533
-5.1244 10.4278 -2.8559 0.9533
-6.0304 9.9274 -2.8551 0.9533
-6.8861 9.3458 -2.8534 0.9533
-7.6818 8.6859 -2.8502 0.9534
-9.5717 7.5587 -2.9979 0.9510
-10.7519 5.7374 -2.9955 0.9510
-11.5902 3.7374 -2.9933 0.9511
-11.8727 2.6900 -2.9923 0.9511
-11.8556 -2.6861 -2.9880 0.9512
-11.5671 -3.7299 -2.9873 0.9512
-10.7189 -5.7198 -2.9863 0.9512
-10.1661 -6.6503 -2.9860 0.9512
-9.5330 -7.5281 -2.9857 0.9512
-3.1731 -11.0968 -2.8369 0.9536
-2.1718 -11.3298 -2.8356 0.9536
-1.2168 -12.0954 -2.9881 0.9512
-0.1335 -11.9810 -2.9451 0.9518
0.9306 -11.9091 -2.9362 0.9520
3.0311 -11.5697 -2.9398 0.9519
6.9061 -9.8241 -2.9517 0.9517
8.5569 -8.4621 -2.9581 0.9516
9.9401 -6.8242 -2.9637 0.9515
11.7526 -2.9395 -2.9778 0.9513
11.9816 -1.8840 -2.9813 0.9513
12.1158 -0.8110 -2.9847 0.9512
12.0955 1.3531 -2.9916 0.9511
11.9400 2.4269 -2.9949 0.9511
11.6886 3.4836 -2.9980 0.9510
11.3431 4.5145 -3.0008 0.9510
10.9060 5.5111 -3.0035 0.9509
9.7711 7.3687 -3.0081 0.9508
7.4863 9.7004 -3.0119 0.9508
6.5929 10.3277 -3.0117 0.9508
4.6565 11.3308 -3.0111 0.9508
3.6289 11.6986 -3.0107 0.9508
0.3888 11.6302 -2.8603 0.9532
-1.6785 11.5083 -2.8587 0.9532
-5.5830 10.1877 -2.8555 0.9533
-11.4143 4.2507 -2.9939 0.9511
-11.9788 2.1581 -2.9918 0.9511
-12.1194 1.0830 -2.9908 0.9511
-11.3492 0.0000 -2.9905 0.9541
-11.1638 -2.0112 -2.9890 0.9542
-9.7534 -5.7769 -2.9870 0.9542
-9.1997 -6.6215 -2.9867 0.9542
-5.1708 -9.4354 -2.8351 0.9565
-4.3118 -9.8612 -2.8360 0.9565
-3.4171 -10.2063 -2.8361 0.9565
-2.5122 -10.5416 -2.8555 0.9562
0.3735 -11.1727 -2.9457 0.9548
2.3449 -10.9122 -2.9410 0.9549
5.1562 -9.9274 -2.9477 0.9548
6.0248 -9.4376 -2.9503 0.9547
6.8474 -8.8725 -2.9532 0.9547
7.6176 -8.2361 -2.9562 0.9547
8.9762 -6.7693 -2.9624 0.9546
9.5536 -5.9500 -2.9657 0.9545
10.4806 -4.1712 -2.9723 0.9544
11.2478 -1.2583 -2.9823 0.9543
11.3174 0.7576 -2.9888 0.9542
8.7952 7.2694 -3.0067 0.9539
6.5714 9.3479 -3.0109 0.9538
5.7129 9.8951 -3.0107 0.9538
3.8672 10.7490 -3.0101 0.9538
2.8946 11.0489 -3.0096 0.9539
1.8029 10.6883 -2.8562 0.9562
0.8442 10.8041 -2.8556 0.9562
-1.0860 10.7946 -2.8587 0.9561
-2.9812 10.4258 -2.8573 0.9561
-3.8963 10.1164 -2.8566 0.9561
-5.6246 9.2594 -2.8547 0.9562
-7.1624 8.0986 -2.8488 0.9563
-8.0883 7.6498 -2.9335 0.9550
-10.0303 5.3524 -2.9957 0.9541
-10.4633 4.4368 -2.9947 0.9541
-10.8130 3.4868 -2.9937 0.9541
-11.2527 1.5133 -2.9918 0.9541
-11.3363 -0.5055 -2.9901 0.9541
-11.0619 -2.5063 -2.9887 0.9542
-10.4383 -4.4263 -2.9876 0.9542
-10.0016 -5.3370 -2.9872 0.9542
-9.4859 -6.2054 -2.9868 0.9542
-8.8952 -7.0245 -2.9866 0.9542
-8.2343 -7.7879 -2.9865 0.9542
-6.5656 -8.9108 -2.9165 0.9552
-3.8684 -10.0441 -2.8361 0.9565
-2.9588 -10.3475 -2.8358 0.9565
-1.1354 -11.2856 -2.9888 0.9542
-0.1251 -11.2302 -2.9593 0.9546
0.8688 -11.1184 -2.9386 0.9549
1.8559 -11.0027 -2.9402 0.9549
2.8296 -10.8004 -2.9419 0.9549
3.7823 -10.5131 -2.9440 0.9548
4.7068 -10.1429 -2.9464 0.9548
5.5958 -9.6922 -2.9490 0.9548
7.2395 -8.5629 -2.9546 0.9547
8.6611 -7.1586 -2.9608 0.9546
9.8146 -5.5216 -2.9673 0.9545
10.2786 -4.6313 -2.9707 0.9544
10.9613 -2.7416 -2.9773 0.9543
11.3338 0.2526 -2.9872 0.9542
11.2783 1.2617 -2.9904 0.9541
10.8974 3.2478 -2.9963 0.9541
10.1664 5.1373 -3.0015 0.9540
9.6762 6.0264 -3.0037 0.9539
9.1075 6.8683 -3.0058 0.9539
7.7589 8.3889 -3.0110 0.9538
5.2662 10.1394 -3.0106 0.9538
4.3424 10.5667 -3.0103 0.9538
3.3842 10.9098 -3.0099 0.9538
-3.4422 10.2813 -2.8569 0.9561
-4.3425 9.9315 -2.8562 0.9562
-6.0285 8.9952 -2.8533 0.9562
-6.7982 8.4142 -2.8503 0.9562
-7.5119 7.7672 -2.8472 0.9563
-8.6075 7.4432 -2.9985 0.9540
-9.2324 6.6451 -2.9974 0.9540
-10.6487 3.9656 -2.9942 0.9541
-10.9558 3.0011 -2.9932 0.9541
-10.4574 -1.8840 -2.9896 0.9568
-8.6180 -6.2028 -2.9875 0.9568
-8.0312 -6.9448 -2.9873 0.9568
-5.9111 -8.8199 -2.9873 0.9568
-5.0509 -9.2166 -2.9570 0.9573
-4.1300 -9.4456 -2.9005 0.9581
-3.2956 -9.8433 -2.9206 0.9578
-2.4624 -10.3327 -2.9886 0.9568
0.3508 -10.4924 -2.9537 0.9573
2.1976 -10.2267 -2.9430 0.9575
5.6448 -8.8425 -2.9516 0.9573
6.4152 -8.3125 -2.9543 0.9573
7.8024 -7.0569 -2.9600 0.9572
8.9482 -5.5730 -2.9660 0.9571
9.8151 -3.9063 -2.9722 0.9571
10.1345 -3.0204 -2.9753 0.9570
10.5319 -1.1782 -2.9817 0.9569
10.6059 -0.2363 -2.9848 0.9569
10.5956 0.7093 -2.9878 0.9568
10.5006 1.6512 -2.9907 0.9568
10.3215 2.5816 -2.9935 0.9568
7.6072 7.5230 -3.0102 0.9565
6.9075 8.1703 -3.0102 0.9565
6.1527 8.7524 -3.0101 0.9565
5.3490 9.2648 -3.0100 0.9565
2.5862 9.8715 -2.8711 0.9585
-0.1132 10.1619 -2.8593 0.9587
-2.7918 9.7635 -2.8571 0.9587
-3.6488 9.4739 -2.8564 0.9587
-6.0096 8.1563 -2.8505 0.9588
-7.7441 7.3243 -2.9990 0.9567
-8.3623 6.6037 -2.9980 0.9567
-8.9139 5.8312 -2.9969 0.9567
-9.3944 5.0130 -2.9959 0.9567
-9.8001 4.1556 -2.9950 0.9567
-10.1278 3.2658 -2.9940 0.9567
-10.3751 2.3507 -2.9931 0.9568
-10.5401 1.4175 -2.9922 0.9568
-10.6215 0.4736 -2.9914 0.9568
-10.6188 -0.4735 -2.9906 0.9568
-10.5321 -1.4164 -2.9899 0.9568
-10.1101 -3.2601 -2.9888 0.9568
-7.7137 -7.2956 -2.9872 0.9568
-7.0337 -7.9531 -2.9872 0.9568
-6.2980 -8.5477 -2.9873 0.9568
-3.7046 -9.6186 -2.9000 0.9581
-2.8967 -10.1303 -2.9645 0.9572
-1.9999 -10.4330 -2.9888 0.9568
-0.1181 -10.5996 -2.9825 0.9569
0.8158 -10.4396 -2.9462 0.9574
4.4104 -9.5041 -2.9479 0.9574
5.2431 -9.0813 -2.9503 0.9574
6.7823 -8.0221 -2.9556 0.9573
8.6866 -5.9630 -2.9645 0.9572
9.1922 -5.1718 -2.9675 0.9571
9.9846 -3.4670 -2.9738 0.9570
10.5794 -0.7082 -2.9833 0.9569
10.6113 0.2365 -2.9863 0.9569
9.8980 3.9393 -2.9973 0.9567
9.5155 4.8084 -2.9997 0.9567
8.5236 6.4280 -3.0037 0.9566
7.9347 7.1765 -3.0101 0.9565
4.0658 9.8937 -3.0095 0.9565
3.1687 10.2150 -3.0092 0.9565
1.2418 10.0833 -2.8584 0.9587
0.3396 10.1591 -2.8599 0.9586
-0.5657 10.1453 -2.8589 0.9587
-4.8756 8.8968 -2.8544 0.9587
-5.6430 8.4199 -2.8518 0.9588
-7.2278 7.4735 -2.9252 0.9577
-8.0612 6.9708 -2.9985 0.9567
-9.6068 4.5888 -2.9954 0.9567
-9.9739 3.7143 -2.9945 0.9567
-10.5913 0.9464 -2.9918 0.9568
-9.9922 0.0000 -2.9915 0.9591
-9.8296 -1.7709 -2.9902 0.9592
-8.5885 -5.0870 -2.9884 0.9592
-7.5494 -6.5282 -2.9880 0.9592
-6.9382 -7.1740 -2.9879 0.9592
-6.2722 -7.7631 -2.9879 0.9592
-5.5565 -8.2908 -2.9880 0.9592
-3.9990 -9.1460 -2.9884 0.9592
-3.1695 -9.4667 -2.9888 0.9592
1.2032 -9.7691 -2.9468 0.9597
2.0665 -9.6169 -2.9448 0.9598
2.9160 -9.4002 -2.9465 0.9597
3.7435 -9.1092 -2.9484 0.9597
4.5426 -8.7460 -2.9505 0.9597
5.3071 -8.3134 -2.9528 0.9597
6.0310 -7.8146 -2.9552 0.9596
7.9030 -5.9600 -2.9634 0.9595
8.8519 -4.4730 -2.9692 0.9594
9.2241 -3.6711 -2.9722 0.9594
9.7486 -1.9815 -2.9782 0.9593
9.9651 -0.2221 -2.9841 0.9592
9.9547 0.6664 -2.9869 0.9592
9.8649 1.5512 -2.9896 0.9592
9.4495 3.2812 -2.9947 0.9591
9.1269 4.1124 -2.9970 0.9591
5.7810 8.2236 -3.0094 0.9589
5.0258 8.7050 -3.0093 0.9589
4.2307 9.1171 -3.0090 0.9589
2.4928 9.5151 -2.9448 0.9598
1.5871 9.4088 -2.8566 0.9609
-0.9557 9.4994 -2.8583 0.9609
-2.6236 9.1751 -2.8569 0.9609
-4.9454 8.1412 -2.8517 0.9610
-5.6454 7.6619 -2.8492 0.9610
-8.8293 4.7115 -2.9961 0.9591
-9.5190 3.0695 -2.9943 0.9591
-9.7516 2.2094 -2.9934 0.9591
-9.9835 0.4452 -2.9918 0.9591
-9.9811 -0.4451 -2.9911 0.9591
-9.8998 -1.3314 -2.9905 0.9592
-9.1915 -3.8975 -2.9889 0.9592
-8.8070 -4.6995 -2.9885 0.9592
-7.8329 -6.1856 -2.9880 0.9592
-7.2510 -6.8579 -2.9879 0.9592
-6.6118 -7.4760 -2.9879 0.9592
-4.4023 -8.9583 -2.9883 0.9592
-2.7448 -9.5991 -2.9890 0.9592
-0.9997 -9.9370 -2.9900 0.9592
0.7683 -9.8319 -2.9525 0.9597
1.6357 -9.6969 -2.9441 0.9598
3.3329 -9.2639 -2.9474 0.9597
4.9296 -8.5383 -2.9516 0.9597
8.1646 -5.6047 -2.9648 0.9595
9.3833 -3.2582 -2.9737 0.9594
9.6458 -2.4126 -2.9767 0.9593
9.9698 0.2222 -2.9855 0.9592
9.9197 1.1097 -2.9883 0.9592
9.5824 2.8559 -2.9935 0.9591
8.9378 4.5165 -2.9980 0.9590
8.0055 6.0372 -3.0018 0.9590
6.8257 7.3799 -3.0095 0.9589
6.1417 7.9580 -3.0095 0.9589
4.6329 8.9200 -3.0092 0.9589
3.8202 9.2960 -3.0089 0.9589
2.9773 9.5980 -3.0085 0.9589
1.9597 9.1196 -2.7925 0.9618
0.3191 9.5440 -2.8589 0.9609
-1.3777 9.4462 -2.8579 0.9609
-3.8208 8.7383 -2.8552 0.9610
-4.5797 8.3569 -2.8529 0.9610
-5.3008 7.9094 -2.8505 0.9610
-5.9783 7.3994 -2.8479 0.9611
-6.9650 7.2018 -2.9994 0.9590
-7.5759 6.5512 -2.9985 0.9590
-9.0290 4.3128 -2.9956 0.9591
-9.3742 3.4910 -2.9947 0.9591
-9.6449 2.6420 -2.9938 0.9591
-9.8390 1.7726 -2.9930 0.9591
-9.9550 0.8896 -2.9922 0.9591
-9.4208 -0.0000 -2.9919 0.9612
-9.3813 -0.8383 -2.9912 0.9612
-9.2677 -1.6696 -2.9906 0.9612
-9.0807 -2.4875 -2.9901 0.9613
-8.4934 -4.0569 -2.9893 0.9613
-8.0978 -4.7963 -2.9890 0.9613
-7.1181 -6.1553 -2.9886 0.9613
-6.5419 -6.7642 -2.9885 0.9613
-5.2391 -7.8172 -2.9886 0.9613
-3.7705 -8.6234 -2.9890 0.9613
-2.9884 -8.9257 -2.9893 0.9613
-2.1823 -9.1575 -2.9897 0.9613
0.3144 -9.4057 -2.9888 0.9613
1.9491 -9.0706 -2.9464 0.9618
2.7502 -8.8659 -2.9480 0.9618
3.5306 -8.5911 -2.9498 0.9618
6.3258 -6.8393 -2.9587 0.9617
7.4513 -5.6193 -2.9639 0.9616
7.9292 -4.9383 -2.9666 0.9616
8.3451 -4.2170 -2.9694 0.9615
8.9776 -2.6756 -2.9751 0.9614
9.1889 -1.8677 -2.9779 0.9614
9.3919 -0.2093 -2.9835 0.9613
9.3816 0.6280 -2.9861 0.9613
8.2262 4.6280 -2.9976 0.9612
7.3025 6.0357 -3.0088 0.9610
6.1168 7.2351 -3.0089 0.9610
5.4485 7.7506 -3.0088 0.9610
3.9875 8.5928 -3.0084 0.9610
3.2065 8.9127 -3.0081 0.9610
0.7008 8.9685 -2.8569 0.9629
-0.1003 8.9983 -2.8579 0.9629
-3.2307 8.3883 -2.8548 0.9630
-3.9617 8.0617 -2.8527 0.9630
-6.2577 7.0757 -2.9998 0.9611
-7.8976 5.1663 -2.9971 0.9612
-8.6834 3.6821 -2.9954 0.9612
-9.4104 -0.4196 -2.9916 0.9612
-9.1833 -2.0806 -2.9904 0.9613
-8.9602 -2.8893 -2.9899 0.9613
-8.6662 -3.6748 -2.9895 0.9613
-8.3038 -4.4310 -2.9891 0.9613
-7.8757 -5.1521 -2.9889 0.9613
-7.3854 -5.8322 -2.9887 0.9613
-4.8857 -8.0430 -2.9887 0.9613
-4.1508 -8.4465 -2.9889 0.9613
-3.3828 -8.7833 -2.9892 0.9613
-2.5880 -9.0506 -2.9895 0.9613
-1.7724 -9.2463 -2.9899 0.9613
-0.1049 -9.4174 -2.9910 0.9612
3.9110 -8.4281 -2.9508 0.9618
4.6489 -8.0521 -2.9529 0.9617
5.3512 -7.6122 -2.9551 0.9617
6.6270 -6.5536 -2.9600 0.9616
8.1451 -4.5824 -2.9680 0.9615
8.5287 -3.8428 -2.9708 0.9615
8.8453 -3.0714 -2.9737 0.9615
9.2673 -1.4572 -2.9793 0.9614
9.3961 0.2094 -2.9848 0.9613
9.2259 1.8753 -2.9899 0.9613
8.4215 4.2556 -2.9966 0.9612
8.0143 4.9914 -2.9985 0.9611
7.5486 5.6927 -3.0026 0.9611
5.0977 7.9855 -3.0088 0.9610
3.6006 8.7615 -3.0083 0.9610
1.8885 8.7885 -2.8548 0.9630
1.0994 8.9264 -2.8563 0.9630
0.3006 8.9926 -2.8575 0.9629
-0.5011 8.9858 -2.8582 0.9629
-1.2987 8.9042 -2.8577 0.9629
-2.0855 8.7513 -2.8571 0.9629
-2.8548 8.5267 -2.8557 0.9630
-4.9949 7.4529 -2.8493 0.9630
-7.1417 6.1757 -2.9985 0.9611
-7.6607 5.5139 -2.9976 0.9612
-8.1187 4.8087 -2.9967 0.9612
-8.5118 4.0658 -2.9958 0.9612
-8.8375 3.2911 -2.9949 0.9612
-8.7615 -1.5784 -2.9911 0.9631
-8.3402 -3.1059 -2.9902 0.9631
-7.6556 -4.5345 -2.9895 0.9632
-7.2212 -5.1975 -2.9893 0.9632
-6.1848 -6.3950 -2.9891 0.9632
-4.9531 -7.3905 -2.9892 0.9632
-4.2758 -7.8024 -2.9893 0.9632
-3.5647 -8.1526 -2.9895 0.9631
-1.2846 -8.8080 -2.9907 0.9631
-0.4957 -8.8889 -2.9912 0.9631
1.8434 -8.5785 -2.9480 0.9637
2.6008 -8.3843 -2.9494 0.9636
3.3387 -8.1242 -2.9511 0.9636
4.0511 -7.7997 -2.9530 0.9636
5.3775 -6.9678 -2.9572 0.9635
5.9810 -6.4666 -2.9595 0.9635
6.5381 -5.9134 -2.9619 0.9635
7.4959 -4.6685 -2.9670 0.9634
8.2195 -3.2713 -2.9723 0.9634
8.4857 -2.5290 -2.9750 0.9633
8.6850 -1.7653 -2.9777 0.9633
8.7849 1.3814 -2.9878 0.9632
8.6337 2.1595 -2.9902 0.9631
8.4134 2.9215 -2.9923 0.9631
8.1255 3.6612 -2.9944 0.9631
7.7722 4.3726 -2.9962 0.9631
7.3589 5.0516 -2.9989 0.9630
6.9013 5.7041 -3.0082 0.9629
6.3664 6.2959 -3.0083 0.9629
4.4766 7.7537 -3.0081 0.9629
3.7684 8.1208 -3.0079 0.9629
3.0304 8.4232 -3.0076 0.9629
0.6621 8.4736 -2.8557 0.9648
-0.0947 8.5012 -2.8564 0.9648
-0.8511 8.4600 -2.8568 0.9648
-1.6005 8.3496 -2.8564 0.9648
-3.0524 7.9252 -2.8534 0.9648
-3.7431 7.6170 -2.8515 0.9648
-6.4848 6.1333 -2.9989 0.9630
-7.8681 4.1986 -2.9964 0.9631
-8.2084 3.4807 -2.9956 0.9631
-8.4833 2.7355 -2.9948 0.9631
-8.6909 1.9691 -2.9940 0.9631
-8.8295 1.1875 -2.9933 0.9631
-8.8962 -0.3967 -2.9919 0.9631
-8.8239 -1.1867 -2.9914 0.9631
-7.8505 -4.1891 -2.9896 0.9631
-7.4458 -4.8708 -2.9894 0.9632
-6.9823 -5.5138 -2.9892 0.9632
-6.4636 -6.1132 -2.9891 0.9632
-5.2773 -7.1624 -2.9891 0.9632
-4.6191 -7.6040 -2.9892 0.9632
-3.9242 -7.9854 -2.9894 0.9632
-3.1982 -8.3037 -2.9897 0.9631
1.4622 -8.6689 -2.9537 0.9636
2.2242 -8.4896 -2.9486 0.9636
5.6847 -6.7239 -2.9583 0.9635
7.2773 -4.9956 -2.9657 0.9634
8.0620 -3.6326 -2.9710 0.9634
8.7589 -1.3773 -2.9790 0.9633
8.8545 -0.5927 -2.9816 0.9632
8.8797 0.1979 -2.9842 0.9632
8.8342 0.9883 -2.9866 0.9632
8.7181 1.7720 -2.9890 0.9632
8.5322 2.5429 -2.9913 0.9631
7.9569 4.0208 -2.9953 0.9631
7.1484 5.3909 -3.0081 0.9629
6.0797 6.5733 -3.0083 0.9629
5.4705 7.0883 -3.0083 0.9629
4.8177 7.5468 -3.0082 0.9629
3.4028 8.2803 -3.0078 0.9629
2.6520 8.5493 -3.0074 0.9629
1.7848 8.3056 -2.8542 0.9648
1.0387 8.4341 -2.8551 0.9648
0.2840 8.4960 -2.8561 0.9648
-1.9705 8.2685 -2.8558 0.9648
-2.6971 8.0559 -2.8543 0.9648
-4.0772 7.4400 -2.8504 0.9648
-6.2061 6.4171 -2.9994 0.9630
-6.7507 5.8375 -2.9985 0.9630
-7.2414 5.2120 -2.9976 0.9631
-7.6744 4.5456 -2.9968 0.9631
-8.0461 3.8433 -2.9960 0.9631
-8.3541 3.1111 -2.9952 0.9631
-8.7689 1.5798 -2.9936 0.9631
-8.8726 0.7929 -2.9929 0.9631
-8.4045 -0.7510 -2.9920 0.9648
-8.1355 -2.2285 -2.9910 0.9648
-7.9038 -2.9434 -2.9906 0.9648
-7.6096 -3.6348 -2.9903 0.9648
-7.2552 -4.2972 -2.9900 0.9648
-4.6940 -7.0039 -2.9897 0.9648
-3.3782 -7.7261 -2.9900 0.9648
-1.2174 -8.3471 -2.9911 0.9648
0.2820 -8.4335 -2.9921 0.9648
1.7505 -8.1464 -2.9545 0.9653
2.4654 -7.9477 -2.9506 0.9653
3.8399 -7.3931 -2.9540 0.9653
5.0968 -6.6041 -2.9580 0.9652
5.6685 -6.1287 -2.9602 0.9652
6.1963 -5.6042 -2.9625 0.9652
6.6759 -5.0345 -2.9649 0.9651
7.1034 -4.4240 -2.9673 0.9651
8.0403 -2.3963 -2.9749 0.9650
8.2286 -1.6725 -2.9774 0.9650
8.4088 -0.1874 -2.9824 0.9649
8.3218 1.3086 -2.9871 0.9649
8.1783 2.0455 -2.9893 0.9649
7.3614 4.1415 -2.9950 0.9648
6.9928 4.8003 -3.0076 0.9646
5.4766 6.4778 -3.0078 0.9646
4.8782 6.9394 -3.0078 0.9646
2.8710 7.9800 -3.0071 0.9646
2.1490 8.2029 -3.0068 0.9647
1.3385 7.9356 -2.8536 0.9664
0.6271 8.0255 -2.8544 0.9664
-0.0897 8.0513 -2.8551 0.9664
-0.8060 8.0120 -2.8553 0.9664
-2.2127 7.7381 -2.8538 0.9664
-2.8910 7.5062 -2.8522 0.9664
-3.5453 7.2145 -2.8503 0.9665
-5.0195 6.8126 -3.0005 0.9647
-5.6045 6.3371 -2.9997 0.9647
-6.1446 5.8115 -2.9989 0.9647
-7.0738 4.6275 -2.9973 0.9648
-7.4556 3.9785 -2.9965 0.9648
-7.7781 3.2982 -2.9957 0.9648
-8.2356 1.8659 -2.9942 0.9648
-8.4322 0.3760 -2.9929 0.9648
-8.4305 -0.3759 -2.9923 0.9648
-8.3620 -1.1246 -2.9917 0.9648
-7.7644 -3.2924 -2.9904 0.9648
-7.4397 -3.9700 -2.9901 0.9648
-7.0563 -4.6160 -2.9899 0.9648
-3.7189 -7.5677 -2.9899 0.9648
-3.0308 -7.8693 -2.9902 0.9648
-0.0940 -8.4369 -2.9918 0.9648
0.6574 -8.4134 -2.9924 0.9648
2.1084 -8.0477 -2.9499 0.9653
3.5057 -7.5545 -2.9531 0.9653
5.3879 -6.3728 -2.9591 0.9652
5.9382 -5.8724 -2.9613 0.9652
7.6393 -3.4421 -2.9711 0.9651
8.2985 -1.3049 -2.9787 0.9650
8.3687 0.9362 -2.9859 0.9649
7.5365 3.8083 -2.9941 0.9648
6.2910 5.6899 -3.0078 0.9646
4.5641 7.1496 -3.0077 0.9646
3.9095 7.5271 -3.0075 0.9646
1.7655 8.2159 -2.9797 0.9650
0.9838 7.9884 -2.8540 0.9664
0.2690 8.0465 -2.8548 0.9664
-0.4483 8.0399 -2.8552 0.9664
-1.8662 7.8307 -2.8544 0.9664
-3.2215 7.3677 -2.8513 0.9664
-3.8618 7.0470 -2.8494 0.9665
-5.3173 6.5813 -3.0001 0.9647
-5.8804 6.0803 -2.9993 0.9647
-6.3965 5.5313 -2.9985 0.9647
-7.2720 4.3072 -2.9969 0.9648
-7.6245 3.6419 -2.9961 0.9648
-8.3096 1.4971 -2.9939 0.9648
-7.9818 -0.7132 -2.9923 0.9664
-7.7264 -2.1165 -2.9914 0.9664
-7.2270 -3.4520 -2.9907 0.9664
-5.5667 -5.7558 -2.9900 0.9664
-3.2084 -7.3377 -2.9905 0.9664
-1.1562 -7.9273 -2.9915 0.9664
0.2678 -8.0092 -2.9924 0.9664
0.9793 -7.9512 -2.9915 0.9664
4.2607 -6.6743 -2.9568 0.9668
6.7459 -4.2014 -2.9676 0.9666
7.6347 -2.2754 -2.9748 0.9666
7.8132 -1.5881 -2.9772 0.9665
7.9004 1.2423 -2.9864 0.9664
7.7639 1.9419 -2.9884 0.9664
7.5652 2.6269 -2.9904 0.9664
7.3058 3.2919 -2.9922 0.9664
6.9877 3.9313 -2.9939 0.9663
5.7264 5.6630 -3.0073 0.9662
5.1997 6.1502 -3.0074 0.9662
4.6316 6.5885 -3.0073 0.9662
4.0266 6.9743 -3.0072 0.9662
3.3897 7.3046 -3.0070 0.9662
2.0404 7.7883 -3.0064 0.9662
0.5952 7.6178 -2.8532 0.9679
-0.0852 7.6420 -2.8538 0.9679
-1.4386 7.5051 -2.8535 0.9679
-2.7442 7.1250 -2.8511 0.9679
-5.3218 6.0175 -2.9997 0.9663
-5.8348 5.5185 -2.9989 0.9663
-6.7173 4.3943 -2.9974 0.9663
-7.0800 3.7780 -2.9966 0.9663
-7.3864 3.1321 -2.9959 0.9663
-7.6340 2.4617 -2.9951 0.9663
-7.8210 1.7720 -2.9945 0.9663
-8.0079 0.3571 -2.9932 0.9664
-7.9414 -1.0680 -2.9921 0.9664
-7.8136 -1.7703 -2.9916 0.9664
-7.3740 -3.1268 -2.9908 0.9664
-7.0657 -3.7704 -2.9905 0.9664
-5.8176 -5.5022 -2.9900 0.9664
-4.1574 -6.8439 -2.9902 0.9664
-3.5319 -7.1872 -2.9903 0.9664
-0.8020 -7.9715 -2.9917 0.9664
2.6767 -7.4400 -2.9525 0.9668
3.9579 -6.8553 -2.9559 0.9668
5.6400 -5.5775 -2.9619 0.9667
6.1186 -5.0571 -2.9641 0.9667
6.5495 -4.4960 -2.9664 0.9666
6.9292 -3.8983 -2.9688 0.9666
7.5227 -2.6122 -2.9736 0.9666
7.7316 -1.9338 -2.9760 0.9665
7.6723 2.2866 -2.9894 0.9664
7.4430 2.9623 -2.9913 0.9664
6.4298 4.8490 -3.0072 0.9662
5.9729 5.4022 -3.0073 0.9662
4.9205 6.3757 -3.0073 0.9662
3.7118 7.1466 -3.0071 0.9662
0.2553 7.6376 -2.8535 0.9679
-0.4255 7.6310 -2.8539 0.9679
-1.1030 7.5625 -2.8538 0.9679
-1.7713 7.4325 -2.8531 0.9679
-2.4247 7.2422 -2.8518 0.9679
-3.7012 6.7539 -2.8759 0.9677
-6.0741 5.2524 -2.9985 0.9663
-7.5949 -0.6787 -2.9927 0.9678
-7.3520 -2.0139 -2.9918 0.9678
-7.1427 -2.6600 -2.9914 0.9678
-6.8769 -3.2848 -2.9911 0.9678
-5.7636 -4.9840 -2.9905 0.9678
-5.2971 -5.4771 -2.9904 0.9678
-3.6621 -6.6824 -2.9907 0.9678
-1.1002 -7.5432 -2.9918 0.9678
2.8612 -6.9623 -2.9543 0.9682
4.0549 -6.3519 -2.9576 0.9681
4.6071 -5.9695 -2.9595 0.9681
6.0331 -4.5498 -2.9657 0.9681
6.7544 -3.4132 -2.9701 0.9680
7.0368 -2.8006 -2.9724 0.9680
7.2637 -2.1648 -2.9747 0.9680
7.5440 -0.8439 -2.9793 0.9679
7.5852 0.5078 -2.9836 0.9679
7.3850 1.8471 -2.9877 0.9678
6.3160 4.3357 -3.0067 0.9676
4.9465 5.8508 -3.0069 0.9676
1.2738 7.5516 -3.0057 0.9676
-0.7276 7.2320 -2.8527 0.9692
-3.2720 6.6584 -2.9117 0.9686
-3.9699 6.5353 -3.0011 0.9677
-4.5347 6.1546 -3.0003 0.9677
-5.0633 5.7252 -2.9996 0.9677
-5.9952 4.7344 -2.9982 0.9677
-7.0280 2.9801 -2.9960 0.9677
-7.2637 2.3422 -2.9953 0.9677
-7.5606 1.0168 -2.9940 0.9678
-7.6196 0.3398 -2.9935 0.9678
-7.6182 -0.3397 -2.9929 0.9678
-7.4350 -1.6845 -2.9920 0.9678
-7.2546 -2.3393 -2.9916 0.9678
-7.0168 -2.9754 -2.9912 0.9678
-6.7235 -3.5877 -2.9909 0.9678
-5.0478 -5.7076 -2.9904 0.9678
-4.5198 -6.1343 -2.9905 0.9678
-2.0954 -7.3279 -2.9913 0.9678
-1.4350 -7.4862 -2.9916 0.9678
-0.7631 -7.5852 -2.9920 0.9678
1.9115 -7.2961 -2.9601 0.9681
2.5475 -7.0811 -2.9535 0.9682
3.1693 -6.8298 -2.9550 0.9682
4.3352 -6.1669 -2.9585 0.9681
4.8700 -5.7603 -2.9604 0.9681
5.3670 -5.3076 -2.9625 0.9681
6.2321 -4.2781 -2.9668 0.9680
6.5931 -3.7092 -2.9690 0.9680
6.9024 -3.1101 -2.9713 0.9680
7.1573 -2.4853 -2.9736 0.9680
7.3558 -1.8398 -2.9759 0.9679
7.5770 -0.5072 -2.9804 0.9679
7.5577 0.8455 -2.9847 0.9678
7.0794 2.8176 -2.9904 0.9678
6.5026 4.0499 -3.0066 0.9676
6.1167 4.6129 -3.0068 0.9676
5.6821 5.1392 -3.0069 0.9676
5.2022 5.6246 -3.0069 0.9676
4.6809 6.0653 -3.0069 0.9676
3.5311 6.7986 -3.0067 0.9676
2.9117 7.0854 -3.0065 0.9676
1.6090 7.4879 -3.0058 0.9676
0.2428 7.2638 -2.8524 0.9693
-0.4047 7.2573 -2.8527 0.9692
-2.3061 6.8878 -2.8507 0.9693
-2.9086 6.6523 -2.8495 0.9693
-3.6753 6.7065 -3.0014 0.9677
-4.8038 5.9458 -3.0000 0.9677
-5.7791 4.9974 -2.9985 0.9677
-6.1994 4.4621 -2.9978 0.9677
-7.1529 2.6638 -2.9957 0.9677
-7.2695 0.0000 -2.9934 0.9690
-7.1520 -1.2885 -2.9925 0.9691
-7.0080 -1.9197 -2.9921 0.9691
-6.8085 -2.5355 -2.9917 0.9691
-6.5552 -3.1311 -2.9914 0.9691
-6.2500 -3.7019 -2.9912 0.9691
-4.5646 -5.6496 -2.9908 0.9691
-4.0437 -6.0336 -2.9909 0.9691
-3.4908 -6.3698 -2.9910 0.9691
-2.3064 -6.8888 -2.9915 0.9691
-1.6843 -7.0675 -2.9918 0.9691
-1.0487 -7.1902 -2.9921 0.9691
-0.4046 -7.2560 -2.9925 0.9691
0.2429 -7.2643 -2.9930 0.9690
2.1305 -6.8681 -2.9611 0.9694
2.7278 -6.6378 -2.9551 0.9694
3.3095 -6.3720 -2.9567 0.9694
4.3919 -5.6908 -2.9601 0.9694
5.3383 -4.8282 -2.9640 0.9693
5.7509 -4.3369 -2.9660 0.9693
6.1184 -3.8106 -2.9681 0.9693
6.9229 -2.0632 -2.9747 0.9692
7.1895 -0.8043 -2.9790 0.9692
7.2377 -0.1613 -2.9811 0.9692
7.2283 0.4839 -2.9832 0.9691
7.1613 1.1261 -2.9851 0.9691
6.8566 2.3809 -2.9888 0.9691
6.0190 4.1319 -3.0063 0.9689
5.6276 4.6514 -3.0065 0.9689
4.7139 5.5757 -3.0065 0.9689
3.6504 6.3228 -3.0064 0.9689
2.4712 6.8689 -3.0060 0.9689
1.2139 7.1967 -3.0053 0.9689
-4.8258 5.4566 -2.9996 0.9690
-5.2911 5.0043 -2.9989 0.9690
-6.0917 3.9850 -2.9975 0.9690
-6.4207 3.4262 -2.9968 0.9690
-6.6987 2.8405 -2.9961 0.9690
-6.9234 2.2325 -2.9955 0.9690
-7.2066 0.9692 -2.9943 0.9690
-7.2029 -0.9687 -2.9927 0.9691
-6.6885 -2.8361 -2.9916 0.9691
-5.7003 -4.5015 -2.9909 0.9691
-5.2769 -4.9908 -2.9909 0.9691
-4.8117 -5.4406 -2.9908 0.9691
-4.3084 -5.8474 -2.9909 0.9691
-3.7710 -6.2079 -2.9910 0.9691
-3.2037 -6.5192 -2.9911 0.9691
-2.6109 -6.7790 -2.9913 0.9691
-0.7274 -7.2303 -2.9923 0.9691
-0.0810 -7.2674 -2.9928 0.9690
0.5663 -7.2469 -2.9932 0.9690
3.0216 -6.5113 -2.9559 0.9694
5.9405 -4.0779 -2.9671 0.9693
6.2844 -3.5355 -2.9692 0.9693
6.8216 -2.3687 -2.9736 0.9692
7.2402 0.1614 -2.9821 0.9692
4.9576 5.3601 -3.0065 0.9689
3.9286 6.1540 -3.0064 0.9689
2.1627 6.9718 -3.0058 0.9689
1.5334 7.1359 -3.0055 0.9689
0.8921 7.2432 -3.0051 0.9689
-0.3856 6.9142 -2.8516 0.9705
-1.6049 6.7345 -2.8508 0.9705
-2.8718 6.5680 -2.9518 0.9695
-3.5027 6.3917 -3.0013 0.9690
-4.5785 5.6668 -2.9999 0.9690
-6.5662 3.1364 -2.9965 0.9690
-7.1570 1.2894 -2.9945 0.9690
-7.2419 0.6471 -2.9940 0.9690
-6.9115 -0.6176 -2.9932 0.9702
-6.6906 -1.8327 -2.9924 0.9702
-6.5002 -2.4207 -2.9920 0.9702
-6.2584 -2.9894 -2.9918 0.9702
-5.9670 -3.5342 -2.9915 0.9702
-5.6284 -4.0511 -2.9914 0.9702
-5.2453 -4.5358 -2.9912 0.9702
-2.7784 -6.3543 -2.9916 0.9702
-1.0012 -6.8646 -2.9924 0.9702
-0.3863 -6.9274 -2.9928 0.9702
1.4583 -6.7865 -2.9943 0.9702
2.6076 -6.3451 -2.9591 0.9706
3.1601 -6.0843 -2.9574 0.9706
3.6911 -5.7820 -2.9590 0.9706
4.6633 -5.0419 -2.9625 0.9705
5.4905 -4.1406 -2.9663 0.9705
6.4026 -2.5482 -2.9725 0.9704
6.8626 -0.7677 -2.9787 0.9704
6.8351 1.0748 -2.9846 0.9703
6.7163 1.6799 -2.9864 0.9703
6.5438 2.2723 -2.9881 0.9703
5.7452 3.9439 -3.0060 0.9701
4.9552 4.9004 -3.0062 0.9701
4.4994 5.3220 -3.0062 0.9701
2.3588 6.5564 -3.0056 0.9701
1.1587 6.8694 -3.0050 0.9701
0.5426 6.9444 -3.0046 0.9701
-0.0762 6.8356 -2.9488 0.9707
-0.6671 6.6311 -2.8748 0.9714
-1.2486 6.5140 -2.8610 0.9715
-2.4990 6.4885 -2.9993 0.9702
-3.6118 5.9457 -3.0008 0.9701
-5.8153 3.8042 -2.9975 0.9702
-6.1295 3.2708 -2.9969 0.9702
-6.3949 2.7117 -2.9962 0.9702
-6.7716 1.5343 -2.9950 0.9702
-6.9338 0.3092 -2.9939 0.9702
-6.9327 -0.3091 -2.9934 0.9702
-6.1188 -3.2650 -2.9916 0.9702
-5.4423 -4.2977 -2.9913 0.9702
-4.5939 -5.1943 -2.9912 0.9702
-4.1134 -5.5827 -2.9912 0.9702
-2.4927 -6.4720 -2.9917 0.9702
-1.9069 -6.6688 -2.9919 0.9702
-0.6944 -6.9028 -2.9926 0.9702
-0.0773 -6.9382 -2.9930 0.9702
1.1545 -6.8441 -2.9940 0.9702
1.7537 -6.6939 -2.9849 0.9703
4.4327 -5.2430 -2.9616 0.9705
5.9995 -3.3753 -2.9694 0.9705
6.2805 -2.8299 -2.9715 0.9704
6.5120 -2.2612 -2.9735 0.9704
6.8924 -0.4614 -2.9797 0.9704
6.9107 0.1540 -2.9817 0.9703
6.8740 0.7690 -2.9837 0.9703
6.2190 3.1426 -3.0057 0.9701
5.9150 3.6839 -3.0059 0.9701
5.5640 4.1960 -3.0060 0.9701
3.7498 5.8740 -3.0061 0.9701
3.2120 6.1842 -3.0059 0.9701
2.6486 6.4451 -3.0058 0.9701
0.2327 6.9612 -3.0044 0.9701
-0.3748 6.7213 -2.9038 0.9711
-1.5434 6.4762 -2.8718 0.9714
-2.1640 6.4635 -2.9402 0.9707
-2.7879 6.3761 -3.0018 0.9701
-3.3437 6.1014 -3.0012 0.9701
-3.8726 5.7783 -3.0005 0.9702
-4.3706 5.4095 -2.9999 0.9702
-4.8337 4.9980 -2.9992 0.9702
-5.2581 4.5469 -2.9985 0.9702
-5.6407 4.0599 -2.9979 0.9702
-6.2684 2.9942 -2.9966 0.9702
-6.5087 2.4239 -2.9959 0.9702
-6.6972 1.8345 -2.9953 0.9702
-6.8326 1.2310 -2.9947 0.9702
-6.6352 0.0000 -2.9939 0.9713
-6.5281 -1.1761 -2.9930 0.9713
-5.0150 -4.3366 -2.9916 0.9713
-4.6090 -4.7657 -2.9915 0.9713
-4.1666 -5.1570 -2.9915 0.9713
-3.6911 -5.5075 -2.9916 0.9713
-3.1864 -5.8144 -2.9917 0.9713
-1.5374 -6.4511 -2.9924 0.9713
-0.9572 -6.5630 -2.9927 0.9713
1.3942 -6.4882 -2.9944 0.9713
1.9588 -6.3147 -2.9832 0.9714
3.5294 -5.5287 -2.9596 0.9716
5.2493 -3.9587 -2.9666 0.9716
5.5845 -3.4780 -2.9686 0.9715
6.1208 -2.4360 -2.9725 0.9715
6.3176 -1.8828 -2.9745 0.9715
6.5946 0.4415 -2.9823 0.9714
6.5331 1.0273 -2.9841 0.9714
6.4194 1.6056 -2.9858 0.9714
6.0698 2.7349 -3.0040 0.9712
5.8052 3.2660 -3.0055 0.9712
5.1346 4.2439 -3.0058 0.9712
4.3009 5.0872 -3.0058 0.9712
3.3306 5.7689 -3.0057 0.9712
2.8038 6.0421 -3.0055 0.9712
1.6878 6.4425 -3.0051 0.9712
1.1076 6.5665 -3.0047 0.9712
-0.0742 6.6571 -3.0040 0.9712
-1.2437 6.4882 -2.9809 0.9714
-1.8294 6.3978 -3.0025 0.9712
-2.3911 6.2084 -3.0019 0.9712
-2.9337 5.9698 -3.0014 0.9712
-4.4039 4.9796 -2.9995 0.9712
-4.8286 4.5669 -2.9989 0.9713
-5.2148 4.1181 -2.9982 0.9713
-5.5595 3.6368 -2.9976 0.9713
-6.5776 0.8846 -2.9946 0.9713
-6.4688 -1.4656 -2.9928 0.9713
-6.1052 -2.5888 -2.9922 0.9713
-5.8501 -3.1217 -2.9919 0.9713
-5.5486 -3.6297 -2.9917 0.9713
-5.2033 -4.1090 -2.9916 0.9713
-4.8168 -4.5557 -2.9915 0.9713
-3.4422 -5.6666 -2.9916 0.9713
-1.8231 -6.3759 -2.9922 0.9713
-1.2486 -6.5135 -2.9925 0.9713
-0.0739 -6.6334 -2.9933 0.9713
0.5169 -6.6146 -2.9937 0.9713
1.6818 -6.4193 -2.9943 0.9713
2.2271 -6.1905 -2.9685 0.9715
2.7619 -5.9519 -2.9607 0.9716
3.2787 -5.6789 -2.9588 0.9716
5.4222 -3.7221 -2.9676 0.9716
5.7358 -3.2269 -2.9695 0.9715
6.0042 -2.7054 -2.9715 0.9715
6.2254 -2.1617 -2.9735 0.9715
6.3974 -1.6001 -2.9755 0.9715
6.4828 1.3177 -2.9849 0.9714
6.3433 1.8905 -2.9866 0.9714
5.9446 3.0040 -3.0054 0.9712
5.6541 3.5214 -3.0056 0.9712
4.9405 4.4685 -3.0058 0.9712
4.5233 4.8905 -3.0059 0.9712
3.5844 5.6149 -3.0058 0.9712
3.0703 5.9114 -3.0056 0.9712
1.3991 6.5109 -3.0049 0.9712
-0.3706 6.6467 -3.0037 0.9712
-1.5381 6.4539 -2.9936 0.9713
-4.6209 4.7779 -2.9992 0.9713
-5.7153 3.3852 -2.9973 0.9713
-5.9927 2.8625 -2.9967 0.9713
-6.5323 1.1768 -2.9949 0.9713
-6.6099 0.5907 -2.9944 0.9713
-6.3518 0.0000 -2.9941 0.9723
-6.3257 -0.5652 -2.9937 0.9723
-6.2495 -1.1259 -2.9933 0.9723
-5.9495 -2.2156 -2.9926 0.9723
-4.4124 -4.5623 -2.9918 0.9723
-3.9888 -4.9370 -2.9918 0.9723
-3.0504 -5.5663 -2.9920 0.9723
-2.5430 -5.8160 -2.9922 0.9723
-2.0154 -6.0197 -2.9924 0.9723
-0.3536 -6.3403 -2.9933 0.9723
1.3347 -6.2111 -2.9946 0.9723
1.8815 -6.0655 -2.9935 0.9723
2.8966 -5.5771 -2.9623 0.9726
3.3791 -5.2933 -2.9602 0.9726
3.8388 -4.9741 -2.9617 0.9726
4.2687 -4.6153 -2.9634 0.9726
4.6652 -4.2195 -2.9651 0.9726
5.0253 -3.7898 -2.9669 0.9726
5.6247 -2.8423 -2.9706 0.9725
6.3205 -0.1408 -2.9801 0.9724
6.3118 0.4225 -2.9819 0.9724
6.2527 0.9832 -2.9836 0.9724
5.5563 3.1260 -3.0052 0.9722
5.2564 3.6083 -3.0053 0.9722
4.9145 4.0620 -3.0055 0.9722
4.5336 4.4834 -3.0055 0.9722
4.1166 4.8691 -3.0055 0.9722
3.6668 5.2161 -3.0055 0.9722
3.1879 5.5216 -3.0054 0.9722
2.6836 5.7831 -3.0052 0.9722
2.1581 5.9986 -3.0050 0.9722
1.6155 6.1664 -3.0048 0.9722
-0.6378 6.3394 -3.0033 0.9722
-2.2888 5.9426 -3.0018 0.9722
-2.8081 5.7143 -3.0012 0.9722
-4.9918 3.9420 -2.9982 0.9723
-5.6094 2.9933 -2.9970 0.9723
-5.8524 2.4816 -2.9964 0.9723
-6.0489 1.9505 -2.9959 0.9723
-6.2938 -0.8464 -2.9935 0.9723
-5.6004 -2.9884 -2.9922 0.9723
-4.9813 -3.9337 -2.9919 0.9723
-4.6113 -4.3613 -2.9918 0.9723
-3.2953 -5.4247 -2.9919 0.9723
1.0566 -6.2639 -2.9944 0.9723
1.6102 -6.1460 -2.9949 0.9723
2.1420 -5.9538 -2.9826 0.9724
2.6475 -5.7051 -2.9647 0.9726
4.0577 -4.7995 -2.9626 0.9726
4.4713 -4.4218 -2.9643 0.9726
4.8500 -4.0087 -2.9660 0.9726
5.1908 -3.5633 -2.9678 0.9725
5.4907 -3.0890 -2.9697 0.9725
5.7476 -2.5897 -2.9716 0.9725
6.3060 -0.4221 -2.9792 0.9724
6.2885 0.7035 -2.9828 0.9724
6.0716 1.8095 -2.9864 0.9724
5.6899 2.8752 -3.0051 0.9722
5.4117 3.3705 -3.0053 0.9722
5.0905 3.8390 -3.0054 0.9722
4.3294 4.6809 -3.0055 0.9722
1.3392 6.2319 -3.0046 0.9722
0.7791 6.3257 -3.0043 0.9722
-1.4767 6.1963 -3.0026 0.9722
-2.5510 5.8342 -3.0015 0.9722
-3.9994 4.9501 -2.9998 0.9723
-4.4232 4.5736 -2.9992 0.9723
-4.8117 4.1609 -2.9985 0.9723
-5.1619 3.7154 -2.9979 0.9723
-5.9566 2.2183 -2.9962 0.9723
-6.1292 1.6790 -2.9956 0.9723
-6.3276 0.5654 -2.9946 0.9723
-6.0627 -0.5417 -2.9939 0.9732
-5.8692 -1.6077 -2.9931 0.9732
-5.7023 -2.1235 -2.9929 0.9732
-5.2346 -3.1004 -2.9924 0.9732
-4.9376 -3.5539 -2.9922 0.9732
-3.3868 -5.0535 -2.9922 0.9732
-2.9237 -5.3350 -2.9923 0.9732
-1.4106 -5.9191 -2.9929 0.9732
-0.8783 -6.0218 -2.9932 0.9732
-0.3389 -6.0768 -2.9935 0.9732
1.8042 -5.8163 -2.9953 0.9732
2.3052 -5.6094 -2.9829 0.9733
2.7796 -5.3517 -2.9661 0.9735
3.6796 -4.7678 -2.9622 0.9735
5.3907 -2.7240 -2.9708 0.9734
5.9298 -1.2053 -2.9762 0.9734
5.9915 0.9421 -2.9832 0.9733
5.8896 1.4732 -2.9861 0.9733
5.7647 2.0017 -3.0015 0.9732
5.5696 2.5096 -3.0047 0.9731
4.7095 3.8925 -3.0052 0.9731
2.0681 5.7484 -3.0048 0.9731
1.5481 5.9092 -3.0045 0.9731
1.0159 6.0229 -3.0042 0.9731
0.4758 6.0887 -3.0039 0.9731
-0.6112 6.0750 -3.0031 0.9731
-1.6781 5.8686 -3.0022 0.9732
-2.6911 5.4762 -3.0011 0.9732
-3.1672 5.2140 -3.0006 0.9732
-3.6180 4.9104 -3.0000 0.9732
-4.0400 4.5680 -2.9994 0.9732
-5.1003 3.3364 -2.9977 0.9732
-5.7973 1.8694 -2.9960 0.9732
-6.0348 0.8116 -2.9950 0.9732
-6.0813 -0.2712 -2.9941 0.9732
-6.0322 -0.8112 -2.9937 0.9732
-5.9353 -1.3447 -2.9933 0.9732
-5.7915 -1.8675 -2.9930 0.9732
-5.6018 -2.3753 -2.9927 0.9732
-4.7743 -3.7702 -2.9922 0.9732
-4.4197 -4.1801 -2.9921 0.9732
-4.0301 -4.5569 -2.9921 0.9732
-3.6085 -4.8975 -2.9921 0.9732
-3.1584 -5.1994 -2.9922 0.9732
-1.6728 -5.8502 -2.9928 0.9732
-1.1456 -5.9764 -2.9930 0.9732
-0.6092 -6.0553 -2.9934 0.9732
2.5424 -5.4787 -2.9707 0.9734
3.0132 -5.2190 -2.9641 0.9735
4.6485 -3.8421 -2.9663 0.9735
5.2624 -2.9606 -2.9698 0.9734
5.5084 -2.4820 -2.9717 0.9734
5.7110 -1.9830 -2.9735 0.9734
6.0430 -0.4045 -2.9789 0.9734
6.0259 0.6741 -2.9824 0.9733
5.9452 1.2084 -2.9840 0.9733
5.8248 1.7360 -2.9895 0.9733
5.4525 2.7553 -3.0048 0.9731
5.1860 3.2299 -3.0050 0.9731
4.5315 4.0985 -3.0052 0.9731
4.1487 4.4856 -3.0053 0.9731
2.8161 5.4219 -3.0050 0.9731
2.3222 5.6507 -3.0049 0.9731
0.7466 6.0619 -3.0041 0.9731
-0.3400 6.0967 -3.0033 0.9731
-1.9377 5.7875 -3.0019 0.9732
-4.2390 4.3831 -2.9991 0.9732
-4.9471 3.5607 -2.9980 0.9732
-5.7088 2.1260 -2.9963 0.9732
-5.8743 1.6091 -2.9957 0.9732
-5.8409 0.0000 -2.9945 0.9741
-5.6313 -1.5426 -2.9934 0.9741
-4.4151 -3.8179 -2.9924 0.9741
-1.8534 -5.5358 -2.9929 0.9741
-1.3534 -5.6792 -2.9931 0.9741
0.1951 -5.8369 -2.9941 0.9741
0.7140 -5.7972 -2.9945 0.9741
1.7311 -5.5804 -2.9954 0.9741
2.2195 -5.4008 -2.9936 0.9741
3.5307 -4.5749 -2.9627 0.9744
4.2904 -3.8804 -2.9658 0.9743
4.6213 -3.4851 -2.9674 0.9743
4.9160 -3.0617 -2.9691 0.9743
5.1720 -2.6135 -2.9709 0.9743
5.6888 -1.1563 -2.9761 0.9742
5.8103 -0.1295 -2.9795 0.9742
5.7475 0.9038 -2.9828 0.9742
5.3430 2.4075 -3.0044 0.9740
5.1079 2.8737 -3.0046 0.9740
4.8321 3.3171 -3.0048 0.9740
4.1677 4.1215 -3.0050 0.9740
3.7843 4.4761 -3.0050 0.9740
3.3708 4.7951 -3.0049 0.9740
2.9306 5.0759 -3.0049 0.9740
2.4671 5.3164 -3.0047 0.9740
0.4564 5.8411 -3.0037 0.9740
-0.0653 5.8579 -3.0033 0.9740
-0.5863 5.8280 -3.0029 0.9740
-1.6099 5.6300 -3.0020 0.9740
-2.1042 5.4635 -3.0015 0.9740
-3.4711 4.7110 -3.0000 0.9740
-3.8759 4.3825 -2.9994 0.9740
-4.5898 3.6245 -2.9983 0.9741
-5.3813 2.2819 -2.9966 0.9741
-5.6987 1.2912 -2.9956 0.9741
-5.7901 0.7787 -2.9951 0.9741
-5.8355 0.2602 -2.9947 0.9741
-5.8347 -0.2602 -2.9943 0.9741
-5.3748 -2.2791 -2.9930 0.9741
-5.1502 -2.7482 -2.9927 0.9741
-4.2406 -4.0108 -2.9924 0.9741
-3.8668 -4.3722 -2.9924 0.9741
-3.0304 -4.9887 -2.9925 0.9741
-2.5745 -5.2389 -2.9926 0.9741
-2.0981 -5.4475 -2.9928 0.9741
-1.6050 -5.6131 -2.9930 0.9741
-0.5845 -5.8098 -2.9936 0.9741
-0.0651 -5.8395 -2.9939 0.9741
0.9716 -5.7601 -2.9947 0.9741
2.4501 -5.2799 -2.9841 0.9742
3.3249 -4.7298 -2.9640 0.9743
4.4602 -3.6865 -2.9666 0.9743
4.7733 -3.2767 -2.9683 0.9743
5.2849 -2.3812 -2.9717 0.9743
5.7363 -0.9020 -2.9770 0.9742
5.7972 -0.3881 -2.9787 0.9742
5.8120 0.1295 -2.9804 0.9742
5.7073 1.1601 -2.9858 0.9742
5.4448 2.1670 -3.0043 0.9740
5.2307 2.6432 -3.0046 0.9740
4.6797 3.5291 -3.0049 0.9740
3.1538 4.9404 -3.0049 0.9740
2.2277 5.4209 -3.0046 0.9740
1.7363 5.5972 -3.0044 0.9740
1.2311 5.7291 -3.0042 0.9740
-0.3261 5.8487 -3.0031 0.9740
-1.3576 5.6966 -3.0023 0.9740
-2.8130 5.1330 -3.0008 0.9740
-3.6772 4.5513 -2.9997 0.9740
-4.7462 3.4161 -2.9980 0.9741
-5.6360 1.5439 -2.9958 0.9741
-5.7501 1.0359 -2.9954 0.9741
-5.6096 0.0000 -2.9946 0.9749
-4.8237 -2.8571 -2.9929 0.9749
-4.2404 -3.6668 -2.9927 0.9749
-3.1210 -4.6568 -2.9927 0.9749
-2.2460 -5.1368 -2.9929 0.9749
-1.7800 -5.3166 -2.9931 0.9749
-1.2999 -5.4544 -2.9933 0.9749
-0.8093 -5.5490 -2.9936 0.9749
-0.3123 -5.5996 -2.9939 0.9749
0.1874 -5.6058 -2.9943 0.9749
0.6857 -5.5676 -2.9947 0.9749
1.1787 -5.4852 -2.9951 0.9749
2.9928 -4.6881 -2.9692 0.9751
4.7213 -2.9404 -2.9693 0.9751
5.1736 -2.0591 -2.9726 0.9751
5.3394 -1.5913 -2.9743 0.9751
5.5432 -0.6201 -2.9777 0.9750
5.5713 0.3730 -2.9809 0.9750
5.4535 1.3640 -3.0010 0.9748
5.3157 1.8458 -3.0040 0.9748
5.1307 2.3118 -3.0042 0.9748
4.9049 2.7595 -3.0044 0.9748
4.6401 3.1853 -3.0046 0.9748
4.3383 3.5857 -3.0047 0.9748
4.0020 3.9577 -3.0047 0.9748
2.3690 5.1051 -3.0045 0.9748
1.4261 5.4435 -3.0041 0.9748
0.4383 5.6091 -3.0035 0.9748
-0.5630 5.5966 -3.0028 0.9748
-1.0588 5.5235 -3.0023 0.9748
-2.0207 5.2467 -3.0014 0.9748
-3.3334 4.5241 -2.9999 0.9748
-3.7221 4.2087 -2.9994 0.9748
-4.6992 3.0741 -2.9978 0.9749
-4.9532 2.6432 -2.9972 0.9749
-5.3417 1.7225 -2.9962 0.9749
-5.5607 0.7479 -2.9953 0.9749
-5.6044 0.2499 -2.9948 0.9749
-5.6036 -0.2499 -2.9944 0.9749
-5.5585 -0.7475 -2.9941 0.9749
-5.4693 -1.2392 -2.9937 0.9749
-5.3367 -1.7209 -2.9934 0.9749
-4.6915 -3.0690 -2.9928 0.9749
-4.3996 -3.4743 -2.9927 0.9749
-3.7138 -4.1992 -2.9926 0.9749
-3.3253 -4.5131 -2.9926 0.9749
-2.9105 -4.7912 -2.9927 0.9749
-2.0150 -5.2319 -2.9930 0.9749
-1.5415 -5.3909 -2.9932 0.9749
-1.0556 -5.5071 -2.9935 0.9749
-0.5613 -5.5798 -2.9938 0.9749
-0.0625 -5.6082 -2.9941 0.9749
1.4220 -5.4277 -2.9953 0.9749
1.8997 -5.2804 -2.9958 0.9749
3.5854 -4.2408 -2.9646 0.9751
3.9495 -3.9057 -2.9653 0.9751
5.0753 -2.2868 -2.9718 0.9751
5.4065 -1.3523 -2.9752 0.9750
5.5809 0.1244 -2.9801 0.9750
5.5527 0.6212 -2.9827 0.9750
5.3924 1.6071 -3.0038 0.9748
5.2284 2.0809 -3.0041 0.9748
5.0228 2.5382 -3.0043 0.9748
3.8218 4.1321 -3.0047 0.9748
3.4388 4.4558 -3.0047 0.9748
2.1392 5.2054 -3.0044 0.9748
1.6673 5.3748 -3.0042 0.9748
1.1822 5.5014 -3.0039 0.9748
0.6878 5.5843 -3.0036 0.9748
0.1880 5.6227 -3.0033 0.9748
-1.7851 5.3319 -3.0017 0.9748
-2.7013 4.9293 -3.0007 0.9748
-3.9056 4.0383 -2.9991 0.9748
-4.5580 3.2807 -2.9980 0.9749
-5.5223 0.9949 -2.9955 0.9749
-5.3055 -0.9558 -2.9941 0.9756
-5.0510 -1.8810 -2.9935 0.9756
-4.8632 -2.3229 -2.9933 0.9756
-4.6369 -2.7464 -2.9931 0.9756
-4.3738 -3.1481 -2.9930 0.9756
-3.0001 -4.4764 -2.9929 0.9756
-2.1590 -4.9378 -2.9931 0.9756
-1.7111 -5.1107 -2.9933 0.9756
-0.3001 -5.3826 -2.9941 0.9756
0.1801 -5.3885 -2.9945 0.9756
0.6591 -5.3518 -2.9948 0.9756
1.5980 -5.1516 -2.9957 0.9756
3.2669 -4.2330 -2.9697 0.9758
3.6278 -3.9224 -2.9674 0.9758
3.9611 -3.5826 -2.9663 0.9759
4.2664 -3.2175 -2.9679 0.9758
4.7744 -2.4126 -2.9710 0.9758
5.2508 -1.0673 -2.9759 0.9758
5.3594 0.3588 -2.9832 0.9757
5.3214 0.8368 -2.9918 0.9757
4.9313 2.2220 -3.0040 0.9756
4.7142 2.6522 -3.0042 0.9756
4.4597 3.0614 -3.0043 0.9756
4.1696 3.4463 -3.0044 0.9756
3.8464 3.8038 -3.0045 0.9756
2.7047 4.6847 -3.0044 0.9756
1.8311 5.0895 -3.0041 0.9756
1.3707 5.2319 -3.0039 0.9756
0.8995 5.3327 -3.0036 0.9756
0.4212 5.3911 -3.0033 0.9756
-0.0603 5.4066 -3.0030 0.9756
-0.5412 5.3791 -3.0026 0.9756
-1.0176 5.3089 -3.0022 0.9756
-1.4859 5.1965 -3.0018 0.9756
-1.9422 5.0429 -3.0013 0.9756
-2.8047 4.6171 -3.0004 0.9756
-3.5777 4.0453 -2.9993 0.9756
-3.9228 3.7102 -2.9988 0.9756
-4.2367 3.3457 -2.9983 0.9756
-4.5170 2.9549 -2.9978 0.9756
-4.7610 2.5406 -2.9973 0.9756
-4.9676 2.1064 -2.9968 0.9756
-5.2607 1.1919 -2.9958 0.9756
-5.3872 0.2402 -2.9950 0.9756
-5.3431 -0.7186 -2.9942 0.9756
-4.9620 -2.1041 -2.9934 0.9756
-4.7547 -2.5372 -2.9932 0.9756
-4.5098 -2.9501 -2.9930 0.9756
-3.9150 -3.7028 -2.9929 0.9756
-2.3768 -4.8366 -2.9931 0.9756
-1.9370 -5.0292 -2.9932 0.9756
-1.4818 -5.1820 -2.9934 0.9756
-0.0601 -5.3909 -2.9943 0.9756
0.8969 -5.3175 -2.9950 0.9756
1.8261 -5.0756 -2.9959 0.9756
2.2709 -4.8937 -2.9964 0.9756
3.0773 -4.3775 -2.9719 0.9758
4.1178 -3.4035 -2.9671 0.9759
4.4067 -3.0250 -2.9686 0.9758
5.3504 -0.3582 -2.9783 0.9758
5.3424 0.5977 -2.9857 0.9757
5.1828 1.5446 -3.0036 0.9756
4.8276 2.4395 -3.0041 0.9756
4.0120 3.6287 -3.0045 0.9756
3.6732 3.9714 -3.0045 0.9756
2.0560 5.0031 -3.0042 0.9756
0.6610 5.3672 -3.0035 0.9756
0.1807 5.4042 -3.0031 0.9756
-0.7802 5.3493 -3.0024 0.9756
-1.7158 5.1248 -3.0015 0.9756
-2.1648 4.9509 -3.0011 0.9756
-3.0073 4.4872 -3.0001 0.9756
-3.3942 4.2010 -2.9996 0.9756
-3.7540 3.8816 -2.9991 0.9756
-4.3812 3.1534 -2.9980 0.9756
-4.6437 2.7505 -2.9975 0.9756
-5.0561 1.8829 -2.9965 0.9756
-5.3082 0.9563 -2.9956 0.9756
-5.3715 0.4800 -2.9952 0.9756
-5.1874 0.0000 -2.9949 0.9763
-5.1041 -0.9195 -2.9942 0.9763
-5.0015 -1.3700 -2.9940 0.9763
-4.8593 -1.8096 -2.9937 0.9763
-4.6786 -2.2347 -2.9935 0.9763
-4.2078 -3.0286 -2.9932 0.9763
-3.6040 -3.7265 -2.9931 0.9763
-2.4915 -4.5464 -2.9932 0.9763
-1.2021 -5.0441 -2.9937 0.9763
-0.2887 -5.1782 -2.9943 0.9763
0.1733 -5.1839 -2.9946 0.9763
1.0900 -5.0723 -2.9954 0.9763
2.3924 -4.6061 -2.9967 0.9763
3.1490 -4.0802 -2.9757 0.9765
3.8142 -3.4498 -2.9693 0.9765
4.1045 -3.0953 -2.9681 0.9765
4.5930 -2.3209 -2.9711 0.9765
4.7838 -1.9039 -2.9727 0.9765
4.9369 -1.4713 -2.9742 0.9765
5.0509 -1.0266 -2.9758 0.9765
5.1629 -0.1150 -2.9816 0.9764
5.1369 0.8078 -3.0023 0.9763
5.0464 1.2622 -3.0033 0.9763
4.9145 1.7065 -3.0036 0.9763
4.5346 2.5512 -3.0040 0.9763
4.0108 3.3150 -3.0042 0.9763
3.6999 3.6589 -3.0043 0.9763
3.3595 3.9737 -3.0043 0.9763
2.9925 4.2569 -3.0042 0.9763
2.6016 4.5062 -3.0042 0.9763
1.7613 4.8957 -3.0039 0.9763
0.8652 5.1296 -3.0034 0.9763
0.4052 5.1858 -3.0031 0.9763
-0.5205 5.1743 -3.0024 0.9763
-1.8683 4.8509 -3.0012 0.9763
-2.2923 4.6647 -3.0008 0.9763
-3.0821 4.1830 -2.9998 0.9763
-3.4416 3.8914 -2.9993 0.9763
-3.7737 3.5691 -2.9988 0.9763
-4.0757 3.2185 -2.9983 0.9763
-4.9395 1.5928 -2.9964 0.9763
-5.0609 1.1466 -2.9959 0.9763
-5.1421 0.6916 -2.9955 0.9763
-5.1402 -0.6913 -2.9944 0.9763
-4.9352 -1.5914 -2.9938 0.9763
-4.7737 -2.0242 -2.9936 0.9763
-4.3386 -2.8382 -2.9933 0.9763
-4.0686 -3.2129 -2.9931 0.9763
-2.2866 -4.6530 -2.9933 0.9763
-1.8635 -4.8383 -2.9934 0.9763
-1.4255 -4.9853 -2.9936 0.9763
-0.5191 -5.1600 -2.9941 0.9763
-0.0578 -5.1862 -2.9944 0.9763
3.3231 -3.9305 -2.9716 0.9765
3.6579 -3.6168 -2.9700 0.9765
3.9631 -3.2756 -2.9685 0.9765
4.2394 -2.9102 -2.9688 0.9765
4.4839 -2.5226 -2.9703 0.9765
4.6931 -2.1146 -2.9719 0.9765
4.8652 -1.6894 -2.9734 0.9765
4.9989 -1.2503 -2.9750 0.9765
5.0929 -0.8008 -2.9766 0.9765
5.1489 -0.3446 -2.9794 0.9764
5.1553 0.5767 -2.9950 0.9763
5.0974 1.0361 -3.0032 0.9763
4.9854 1.4858 -3.0034 0.9763
4.6437 2.3466 -3.0039 0.9763
4.1544 3.1330 -3.0042 0.9763
2.3983 4.6176 -3.0041 0.9763
1.9777 4.8125 -3.0040 0.9763
1.0929 5.0862 -3.0035 0.9763
0.6359 5.1628 -3.0033 0.9763
0.1738 5.1984 -3.0030 0.9763
-1.2053 5.0577 -3.0019 0.9763
-1.6505 4.9297 -3.0014 0.9763
-2.4976 4.5576 -3.0005 0.9763
-3.9286 3.3972 -2.9986 0.9763
-4.8640 1.8114 -2.9966 0.9763
