ply
format ascii 1.0
element vertex 1590
property float32 x
property float32 y
property float32 z
property float32 I
end_header
-3.6673 -7.4628 3.4241 0.9647
-3.7632 -7.6578 3.3488 0.9640
-7.8177 -11.6649 5.2435 0.9418
-3.8811 -7.8978 3.2860 0.9631
1.9804 9.2163 3.5200 0.9605
-7.8393 -11.6970 4.7310 0.9423
5.9620 8.4811 3.4831 0.9572
1.9804 9.2161 3.1671 0.9610
7.0759 8.3694 3.4806 0.9550
4.0718 8.7746 3.0721 0.9602
4.5242 8.7105 3.1172 0.9596
1.9804 9.2160 2.9937 0.9612
-7.8379 -11.6949 4.2148 0.9429
3.6423 8.8630 2.8687 0.9608
9.6290 7.9586 3.5148 0.9494
10.3033 7.7701 3.6308 0.9478
1.9804 9.2158 2.6521 0.9616
-4.2543 -9.7297 2.7982 0.9570
11.1470 7.6520 3.5627 0.9456
2.3948 9.1407 2.4899 0.9617
-7.8358 -11.6918 3.4596 0.9437
-4.3914 -10.0435 2.6944 0.9559
1.9803 9.2156 2.3169 0.9619
-7.8345 -11.6898 2.9667 0.9441
-7.8338 -11.6888 2.7230 0.9443
-7.8331 -11.6879 2.4809 0.9445
-7.8325 -11.6869 2.2403 0.9446
1.9802 9.2152 1.5009 0.9625
8.2250 2.0572 1.2059 0.9663
8.1518 2.4295 1.2099 0.9662
1.9802 9.2151 1.3406 0.9626
7.9269 2.7525 1.0516 0.9667
8.1621 1.6590 1.0438 0.9670
-7.8305 -11.6840 1.5256 0.9450
7.9320 1.6122 0.8779 0.9680
7.6337 2.2751 0.8640 0.9685
8.1633 3.2489 0.9530 0.9653
-7.8299 -11.6830 1.2894 0.9451
8.1333 1.2789 0.7548 0.9675
7.5878 1.8978 0.7171 0.9691
7.7314 3.0770 0.7629 0.9671
-7.8293 -11.6821 1.0539 0.9452
7.3962 2.2043 0.5784 0.9695
7.5556 3.0071 0.6094 0.9679
7.3235 2.5430 0.4515 0.9694
7.5670 1.5380 0.4497 0.9695
7.3254 2.1832 0.4452 0.9698
7.4332 2.9583 0.4660 0.9685
1.9801 9.2147 0.5489 0.9629
-7.8280 -11.6802 0.5846 0.9453
7.7530 1.2191 0.3263 0.9691
7.6851 3.4628 0.3505 0.9668
-7.8273 -11.6792 0.3506 0.9453
7.2915 1.8237 0.1874 0.9704
7.1988 2.4997 0.1900 0.9700
7.2773 2.8963 0.1953 0.9691
1.9801 9.2145 0.2350 0.9630
-7.8267 -11.6783 0.1168 0.9453
7.6396 1.2013 0.0643 0.9695
7.1593 2.4860 0.0630 0.9701
8.0563 0.9012 0.0674 0.9681
7.2312 2.8780 0.0647 0.9693
1.9801 9.2144 0.0783 0.9630
-7.8261 -11.6773 -0.1168 0.9453
7.1209 2.4726 -0.0627 0.9703
7.3654 1.4971 -0.0625 0.9704
1.9800 9.2143 -0.0783 0.9630
7.5811 1.1921 -0.1914 0.9698
7.2070 1.8026 -0.1853 0.9707
7.1083 2.4683 -0.1877 0.9703
7.3776 3.3242 -0.2018 0.9681
7.1257 2.1237 -0.1854 0.9707
1.9800 9.2143 -0.2350 0.9630
7.5666 1.1898 -0.3185 0.9698
7.1952 1.7996 -0.3084 0.9707
7.3538 3.3135 -0.3354 0.9682
7.3402 1.4920 -0.3114 0.9705
7.1139 2.1202 -0.3087 0.9707
7.1575 2.8486 -0.3203 0.9696
-7.8242 -11.6745 -0.8185 0.9452
7.5624 1.1891 -0.4459 0.9698
7.0904 2.4620 -0.4372 0.9704
7.3541 3.3136 -0.4698 0.9682
7.3347 1.4908 -0.4359 0.9705
7.1537 2.8471 -0.4484 0.9696
-7.8235 -11.6735 -1.0531 0.9452
7.5770 1.1914 -0.5748 0.9697
7.2012 1.8011 -0.5563 0.9707
7.9613 0.8906 -0.6003 0.9684
7.3474 1.4934 -0.5619 0.9704
7.1686 2.8530 -0.5782 0.9695
-7.8229 -11.6726 -1.2882 0.9451
7.5917 1.1938 -0.7045 0.9696
7.2131 1.8041 -0.6816 0.9706
7.1159 2.4709 -0.6906 0.9702
7.4062 3.3371 -0.7447 0.9679
1.9799 9.2139 -0.8640 0.9629
7.6295 1.1997 -0.8377 0.9694
7.2386 1.8105 -0.8093 0.9704
7.1454 2.4812 -0.8204 0.9700
1.9799 9.2138 -1.0222 0.9628
7.6772 1.2072 -0.9739 0.9692
7.2769 1.8201 -0.9400 0.9702
7.5826 3.4165 -1.0422 0.9670
8.1422 0.9108 -1.0267 0.9675
7.4302 1.5102 -0.9502 0.9699
7.1959 2.1446 -0.9410 0.9702
7.2713 2.8939 -0.9807 0.9689
7.3164 1.8300 -1.0727 0.9700
7.2333 2.5117 -1.0891 0.9695
7.7862 3.5083 -1.2147 0.9661
7.4756 1.5195 -1.0850 0.9696
7.2356 2.1564 -1.0739 0.9700
7.3354 2.9194 -1.1230 0.9686
1.9799 9.2136 -1.3404 0.9626
7.8514 1.2346 -1.2656 0.9683
7.3888 1.8481 -1.2128 0.9696
7.3118 2.5389 -1.2325 0.9691
7.3082 2.1781 -1.2143 0.9696
7.4382 2.9603 -1.2748 0.9681
1.9799 9.2136 -1.5006 0.9625
-7.7278 -11.5307 -2.4475 0.9452
7.9865 1.2558 -1.4255 0.9677
7.4631 1.8666 -1.3565 0.9692
7.3948 2.5677 -1.3803 0.9687
7.6338 1.5516 -1.3736 0.9689
-11.9159 -8.5765 -2.8411 0.9419
-11.1123 -9.6091 -2.8429 0.9419
-10.2173 -10.5646 -2.8441 0.9419
-9.2107 -11.4002 -2.8362 0.9420
-5.8215 -13.3141 -2.8121 0.9425
-2.0789 -14.2538 -2.7875 0.9430
8.2014 1.2896 -1.6066 0.9667
7.5332 2.6158 -1.5432 0.9680
-11.5257 -9.1018 -2.8420 0.9419
-10.6763 -10.0975 -2.8437 0.9419
-7.5742 -12.4689 -2.8233 0.9423
-5.2135 -13.5364 -2.8071 0.9426
-1.4408 -14.3214 -2.7854 0.9430
7.7819 1.5817 -1.5367 0.9682
7.8298 3.1162 -1.6308 0.9662
1.9798 9.2134 -1.8237 0.9623
-11.9520 8.6025 -2.8497 0.9418
-14.2148 0.0000 -2.9968 0.9435
-13.3089 -4.9563 -2.9940 0.9436
-12.2146 -7.2347 -2.9929 0.9436
-11.1449 -8.0216 -2.8949 0.9454
-9.3731 -9.6916 -2.8424 0.9464
-8.4771 -10.4922 -2.8437 0.9464
-7.5058 -11.1993 -2.8423 0.9464
-3.1180 -13.0835 -2.8355 0.9465
-1.9248 -13.1976 -2.8118 0.9469
-0.7768 -13.9304 -2.9414 0.9446
1.7010 -13.8113 -2.9337 0.9447
4.1278 -13.3067 -2.9372 0.9446
6.4319 -12.3836 -2.9418 0.9446
9.5034 -10.2750 -2.9507 0.9444
11.2006 -8.4468 -2.9575 0.9443
11.9226 -7.4255 -2.9612 0.9442
13.0806 -5.2060 -2.9680 0.9441
13.5004 -4.0236 -2.9699 0.9440
13.8203 -2.8091 -2.9732 0.9440
13.9986 2.2012 -2.9875 0.9437
12.4053 6.9791 -3.0008 0.9435
11.7460 8.0632 -3.0036 0.9434
10.9878 9.0817 -3.0053 0.9434
9.2060 10.8889 -3.0061 0.9434
8.2011 11.6663 -3.0064 0.9434
6.0036 12.9374 -3.0068 0.9434
4.8284 13.4210 -3.0069 0.9434
2.2518 13.3499 -2.8542 0.9462
-1.3567 13.4858 -2.8574 0.9461
-2.5515 13.3110 -2.8573 0.9461
-3.7259 13.0304 -2.8572 0.9461
-4.8706 12.6464 -2.8570 0.9461
-7.0348 11.5808 -2.8566 0.9461
-8.9752 10.1484 -2.8561 0.9461
-11.9145 7.7941 -3.0015 0.9435
-13.1014 5.5555 -3.0001 0.9435
-13.5405 4.3662 -2.9993 0.9435
-13.8719 3.1430 -2.9986 0.9435
-14.0932 1.8954 -2.9979 0.9435
-13.8553 -3.1392 -2.9950 0.9436
-12.5259 -6.6840 -2.9931 0.9436
-10.5727 -8.3492 -2.8401 0.9464
-8.9341 -10.1019 -2.8431 0.9464
-8.0029 -10.8616 -2.8443 0.9463
-4.8102 -12.4894 -2.8216 0.9468
-2.5202 -13.1474 -2.8222 0.9467
2.3152 -13.7253 -2.9345 0.9447
3.5297 -13.4729 -2.9362 0.9447
6.9803 -12.0902 -2.9432 0.9445
9.0314 -10.6824 -2.9491 0.9444
9.9573 -9.8470 -2.9523 0.9444
10.8067 -8.9320 -2.9557 0.9443
11.5728 -7.9443 -2.9593 0.9442
12.8304 -5.7811 -2.9668 0.9441
13.3042 -4.6197 -2.9691 0.9441
13.9402 -2.1920 -2.9750 0.9439
14.0970 -0.9437 -2.9786 0.9439
14.1418 0.3151 -2.9821 0.9438
14.0742 1.5744 -2.9856 0.9438
13.2042 5.2552 -2.9961 0.9436
11.3802 8.5823 -3.0049 0.9434
9.6813 10.4673 -3.0059 0.9434
8.7122 11.2888 -3.0062 0.9434
5.4214 13.1923 -3.0069 0.9434
4.2258 13.6229 -3.0070 0.9434
1.9798 9.2133 -1.9867 0.9622
1.6549 13.4368 -2.8541 0.9462
-4.3026 12.8512 -2.8571 0.9461
-5.4290 12.4165 -2.8569 0.9461
-7.5434 11.2555 -2.8565 0.9461
-8.5145 10.5386 -2.8563 0.9461
-10.2315 8.8475 -2.8516 0.9462
-12.8425 6.1343 -3.0005 0.9435
-13.7199 3.7583 -2.9990 0.9435
-14.1618 1.2655 -2.9975 0.9435
-13.1303 0.0000 -2.9969 0.9476
-12.6556 -3.4667 -2.9950 0.9476
-12.2944 -4.5785 -2.9944 0.9476
-10.6424 -7.6600 -2.9928 0.9476
-7.8247 -9.6847 -2.8418 0.9502
-6.9341 -10.3464 -2.8428 0.9502
-5.9874 -10.9256 -2.8436 0.9502
-4.9923 -11.4177 -2.8442 0.9502
-2.8864 -12.1117 -2.8418 0.9502
-1.7953 -12.3095 -2.8393 0.9502
0.4297 -12.8525 -2.9351 0.9486
3.8162 -12.3024 -2.9399 0.9485
5.9457 -11.4476 -2.9442 0.9485
6.9469 -10.8822 -2.9467 0.9484
7.8952 -10.2301 -2.9495 0.9484
9.6035 -8.6859 -2.9555 0.9483
12.4687 -3.7161 -2.9696 0.9480
12.9592 -1.4497 -2.9763 0.9479
13.0401 0.8729 -2.9830 0.9478
7.9800 1.9959 -1.8775 0.9668
11.9667 5.3920 -2.9958 0.9476
10.8408 7.4418 -3.0012 0.9475
10.1436 8.3839 -3.0037 0.9474
8.5016 10.0557 -3.0055 0.9474
6.5851 11.4058 -3.0060 0.9474
5.5441 11.9473 -3.0062 0.9474
3.3382 12.7417 -3.0064 0.9474
-4.4985 11.6801 -2.8568 0.9499
-5.5199 11.2327 -2.8566 0.9499
-7.4230 10.0746 -2.8562 0.9500
-8.2854 9.3684 -2.8546 0.9500
-9.0768 8.5848 -2.8515 0.9500
-10.1309 8.0003 -2.9464 0.9484
-11.5987 6.1892 -3.0006 0.9475
-12.5066 4.0329 -2.9993 0.9475
-13.0175 1.7507 -2.9979 0.9475
-13.1187 0.5850 -2.9972 0.9475
-13.1158 -0.5849 -2.9966 0.9476
-12.7988 -2.8998 -2.9953 0.9476
-12.4874 -4.0267 -2.9947 0.9476
-12.0771 -5.1211 -2.9941 0.9476
-10.2899 -8.1258 -2.9926 0.9476
-7.3869 -10.0255 -2.8423 0.9502
-0.1436 -12.8896 -2.9422 0.9485
1.0019 -12.8224 -2.9356 0.9486
2.1401 -12.6873 -2.9367 0.9486
4.3619 -12.1242 -2.9409 0.9485
7.4282 -10.5667 -2.9481 0.9484
8.3472 -9.8731 -2.9509 0.9483
9.9863 -8.2539 -2.9571 0.9482
10.6933 -7.3405 -2.9604 0.9482
12.8745 -2.0244 -2.9746 0.9479
8.4714 1.7219 -1.9731 0.9652
12.1890 4.8511 -2.9943 0.9476
10.5029 7.9206 -3.0025 0.9475
8.9406 9.6665 -3.0053 0.9474
8.0456 10.4250 -3.0057 0.9474
5.0065 12.1827 -3.0063 0.9474
3.9024 12.5803 -3.0063 0.9474
1.9798 9.2132 -2.1509 0.9621
0.4183 12.5123 -2.8574 0.9499
-6.0146 10.9753 -2.8565 0.9499
-6.9671 10.3957 -2.8563 0.9500
-8.6900 8.9854 -2.8531 0.9500
-9.4450 8.1674 -2.8500 0.9501
-10.6737 7.6825 -3.0016 0.9475
-11.3127 6.7005 -3.0010 0.9475
-11.8615 5.6658 -3.0003 0.9475
-12.6724 3.4713 -2.9989 0.9475
-12.9281 2.3291 -2.9983 0.9475
-13.0811 1.1689 -2.9976 0.9475
-12.1929 0.0000 -2.9970 0.9510
-11.9949 -2.1610 -2.9958 0.9510
-11.7527 -3.2194 -2.9952 0.9510
-11.4174 -4.2519 -2.9947 0.9511
-9.8837 -7.1138 -2.9932 0.9511
-9.2100 -7.9642 -2.9928 0.9511
-7.2616 -8.9878 -2.8402 0.9535
-5.5563 -10.1389 -2.8418 0.9535
-4.6328 -10.5954 -2.8424 0.9535
-3.6710 -10.9647 -2.8422 0.9535
-1.6983 -11.6440 -2.8924 0.9527
0.4000 -11.9633 -2.9422 0.9519
1.4614 -11.8658 -2.9387 0.9519
3.5453 -11.4289 -2.9413 0.9519
6.4541 -10.1102 -2.9483 0.9518
8.9186 -8.0664 -2.9558 0.9517
9.6077 -7.2467 -2.9581 0.9516
11.2135 -4.4629 -2.9666 0.9515
11.5783 -3.4507 -2.9697 0.9515
7.8931 9.3360 -3.0050 0.9509
7.0314 10.0024 -3.0053 0.9509
4.1397 11.5065 -3.0058 0.9509
-1.1634 11.5648 -2.8570 0.9533
-4.1770 10.8452 -2.8566 0.9533
-6.0330 9.9316 -2.8563 0.9533
-6.8909 9.3524 -2.8554 0.9533
-7.6889 8.6939 -2.8528 0.9533
-10.2176 6.6840 -3.0011 0.9510
-11.8978 2.6957 -2.9986 0.9510
-12.0880 1.6257 -2.9980 0.9510
-12.1796 -0.5431 -2.9967 0.9510
-12.0804 -1.6246 -2.9961 0.9510
-11.5965 -3.7394 -2.9949 0.9510
-11.2157 -4.7558 -2.9944 0.9511
-10.7461 -5.7343 -2.9939 0.9511
-8.8456 -8.3661 -2.9927 0.9511
-3.1783 -11.1151 -2.8416 0.9535
3.0318 -11.5723 -2.9405 0.9519
4.0521 -11.2629 -2.9421 0.9519
5.0421 -10.8654 -2.9443 0.9519
5.9946 -10.3830 -2.9470 0.9518
7.7542 -9.1717 -2.9521 0.9517
9.2727 -7.6641 -2.9570 0.9517
10.5024 -5.9086 -2.9620 0.9516
10.9979 -4.9554 -2.9650 0.9515
11.6573 3.4743 -2.9899 0.9511
10.3532 6.4481 -2.9980 0.9510
9.0594 8.1938 -3.0025 0.9509
8.3007 8.9746 -3.0049 0.9509
7.4697 9.6788 -3.0051 0.9509
6.5791 10.3060 -3.0054 0.9509
5.6361 10.8514 -3.0056 0.9509
3.6230 11.6796 -3.0058 0.9509
0.3884 11.6183 -2.8574 0.9532
-2.6944 11.3060 -2.8568 0.9533
-6.4692 9.6527 -2.8562 0.9533
-8.0646 8.3388 -2.8514 0.9533
-8.9961 7.7792 -2.9233 0.9522
-11.4360 4.2588 -2.9996 0.9510
-11.7672 3.2234 -2.9989 0.9510
-12.0048 2.1628 -2.9983 0.9510
-11.3743 -0.0000 -2.9971 0.9540
-11.3270 -1.0122 -2.9965 0.9540
-11.1899 -2.0159 -2.9960 0.9541
-10.6514 -3.9666 -2.9949 0.9541
-10.2544 -4.8981 -2.9945 0.9541
-9.7763 -5.7905 -2.9940 0.9541
-9.2208 -6.6368 -2.9936 0.9541
-8.5925 -7.4302 -2.9932 0.9541
-7.1145 -8.8057 -2.9830 0.9543
-6.0571 -9.0377 -2.8668 0.9560
-4.3191 -9.8781 -2.8408 0.9564
-3.4226 -10.2226 -2.8406 0.9564
-1.6387 -11.2358 -2.9920 0.9541
-0.6322 -11.3373 -2.9920 0.9541
2.3456 -10.9158 -2.9420 0.9549
6.0215 -9.4325 -2.9487 0.9548
6.8422 -8.8658 -2.9509 0.9547
9.5390 -5.9410 -2.9612 0.9546
10.0394 -5.0732 -2.9640 0.9545
10.4612 -4.1634 -2.9668 0.9545
11.2227 -1.2555 -2.9756 0.9544
11.3014 -0.2518 -2.9787 0.9543
10.9986 2.7509 -2.9874 0.9542
10.7199 3.7223 -2.9901 0.9541
9.9067 5.5734 -2.9952 0.9541
8.7743 7.2521 -2.9995 0.9540
7.3618 8.7076 -3.0046 0.9539
6.5581 9.3291 -3.0048 0.9539
5.7021 9.8764 -3.0050 0.9539
4.8007 10.3452 -3.0052 0.9539
1.8006 10.6749 -2.8526 0.9562
-0.1208 10.8420 -2.8570 0.9561
-1.0852 10.7874 -2.8568 0.9561
-2.9804 10.4232 -2.8566 0.9561
-4.7808 9.7287 -2.8563 0.9562
-6.4241 8.7189 -2.8537 0.9562
-8.0234 7.5884 -2.9100 0.9553
-9.5307 6.2347 -3.0009 0.9540
-10.0459 5.3606 -3.0004 0.9540
-10.8329 3.4932 -2.9992 0.9540
-11.0986 2.5146 -2.9986 0.9540
-11.3641 0.5067 -2.9974 0.9540
-11.3619 -0.5066 -2.9968 0.9540
-11.2696 -1.5156 -2.9963 0.9541
-11.0879 -2.5122 -2.9957 0.9541
-9.5080 -6.2198 -2.9938 0.9541
-7.5243 -8.5078 -2.9927 0.9541
-5.5960 -9.2123 -2.8402 0.9564
-4.7545 -9.6751 -2.8406 0.9564
-3.8748 -10.0607 -2.8408 0.9564
-2.9633 -10.3633 -2.8402 0.9564
-2.0887 -10.8965 -2.9235 0.9551
0.8699 -11.1320 -2.9422 0.9549
2.8301 -10.8027 -2.9426 0.9549
3.7823 -10.5130 -2.9440 0.9548
4.7057 -10.1406 -2.9458 0.9548
7.9726 -7.8843 -2.9545 0.9547
8.6502 -7.1496 -2.9571 0.9546
9.7988 -5.5127 -2.9626 0.9546
10.2604 -4.6231 -2.9654 0.9545
11.1500 -1.7532 -2.9741 0.9544
11.2732 -0.7546 -2.9772 0.9543
11.3071 0.2520 -2.9802 0.9543
11.1050 2.2572 -2.9860 0.9542
10.8701 3.2396 -2.9888 0.9542
10.5480 4.1980 -2.9915 0.9541
10.1411 5.1245 -2.9940 0.9541
9.6523 6.0115 -2.9963 0.9541
8.4452 7.6383 -3.0005 0.9540
7.7420 8.3706 -3.0044 0.9539
6.9669 9.0273 -3.0047 0.9539
5.2566 10.1209 -3.0051 0.9539
4.3352 10.5490 -3.0052 0.9539
1.3233 10.7444 -2.8526 0.9562
-2.5132 10.5459 -2.8567 0.9561
-3.4417 10.2799 -2.8565 0.9561
-4.3428 9.9323 -2.8564 0.9561
-5.2093 9.5058 -2.8562 0.9562
-6.0318 9.0000 -2.8548 0.9562
-8.6169 7.4514 -3.0018 0.9540
-9.2443 6.6536 -3.0012 0.9540
-10.2737 4.9073 -3.0001 0.9540
-10.6676 3.9726 -2.9995 0.9540
-11.1985 2.0175 -2.9983 0.9540
-11.3314 1.0126 -2.9977 0.9540
-10.4803 -1.8881 -2.9962 0.9567
-9.9762 -3.7152 -2.9952 0.9567
-9.1567 -5.4236 -2.9943 0.9567
-8.6365 -6.2162 -2.9939 0.9567
-7.3960 -7.6473 -2.9933 0.9568
-5.9219 -8.8361 -2.9928 0.9568
-3.2786 -9.7927 -2.9056 0.9580
1.2786 -10.3815 -2.9430 0.9575
2.1982 -10.2298 -2.9439 0.9575
3.1013 -9.9976 -2.9451 0.9574
4.8298 -9.2990 -2.9482 0.9574
5.6419 -8.8380 -2.9501 0.9574
6.4106 -8.3066 -2.9522 0.9573
7.1299 -7.7088 -2.9544 0.9573
7.7939 -7.0492 -2.9567 0.9573
8.3974 -6.3328 -2.9592 0.9572
9.7980 -3.8995 -2.9670 0.9571
10.1155 -3.0148 -2.9698 0.9571
10.3536 -2.1045 -2.9726 0.9570
10.5099 -1.1757 -2.9755 0.9570
10.5829 -0.2358 -2.9783 0.9570
10.2974 2.5756 -2.9865 0.9569
10.0359 3.4848 -2.9890 0.9568
9.6937 4.3678 -2.9915 0.9568
9.2736 5.2173 -2.9938 0.9567
8.7787 6.0262 -2.9959 0.9567
8.2128 6.7881 -2.9978 0.9567
6.8937 8.1540 -3.0042 0.9566
5.3395 9.2484 -3.0046 0.9566
3.6154 10.0493 -3.0049 0.9566
2.7067 10.3314 -3.0049 0.9566
0.7909 10.1214 -2.8564 0.9587
-0.1131 10.1538 -2.8570 0.9587
-1.0163 10.1023 -2.8567 0.9587
-2.7911 9.7612 -2.8565 0.9587
-3.6487 9.4736 -2.8563 0.9587
-4.4772 9.1109 -2.8562 0.9587
-5.2669 8.6704 -2.8543 0.9587
-6.0132 8.1612 -2.8522 0.9588
-6.7104 7.5875 -2.8499 0.9588
-7.7513 7.3312 -3.0018 0.9566
-9.4079 5.0202 -3.0003 0.9567
-10.1453 3.2714 -2.9992 0.9567
-10.3942 2.3550 -2.9986 0.9567
-10.5606 1.4203 -2.9980 0.9567
-10.5549 -1.4195 -2.9964 0.9567
-10.1326 -3.2673 -2.9954 0.9567
-8.9055 -5.8257 -2.9941 0.9567
-8.3506 -6.5944 -2.9937 0.9567
-6.3099 -8.5638 -2.9929 0.9568
-3.6924 -9.5870 -2.8905 0.9582
-2.8757 -10.0569 -2.9430 0.9575
-2.0022 -10.4453 -2.9924 0.9568
-1.0646 -10.5822 -2.9924 0.9568
0.8168 -10.4529 -2.9499 0.9574
1.7400 -10.3158 -2.9434 0.9575
5.2409 -9.0775 -2.9491 0.9574
6.7768 -8.0157 -2.9533 0.9573
8.1035 -6.6977 -2.9580 0.9573
8.6748 -5.9549 -2.9605 0.9572
9.1784 -5.1637 -2.9631 0.9572
10.2447 -2.5624 -2.9712 0.9571
10.4421 -1.6419 -2.9740 0.9570
10.5879 0.2360 -2.9797 0.9569
10.1769 3.0330 -2.9878 0.9568
9.8747 3.9301 -2.9903 0.9568
7.9179 7.1613 -3.0038 0.9566
7.2498 7.8384 -3.0041 0.9566
5.7460 9.0010 -3.0045 0.9566
4.9224 9.4772 -3.0047 0.9566
4.0594 9.8782 -3.0048 0.9566
1.2405 10.0720 -2.8552 0.9587
0.3393 10.1500 -2.8574 0.9587
-1.4653 10.0467 -2.8566 0.9587
-2.3536 9.8761 -2.8565 0.9587
-3.2232 9.6270 -2.8564 0.9587
-4.0670 9.3015 -2.8563 0.9587
-5.6458 8.4242 -2.8533 0.9587
-6.3683 7.8821 -2.8511 0.9588
-8.0696 6.9780 -3.0016 0.9566
-9.9904 3.7204 -2.9994 0.9567
-10.4879 1.8895 -2.9983 0.9567
-10.6124 0.9483 -2.9978 0.9567
-9.3762 -3.4917 -2.9954 0.9591
-9.0270 -4.3118 -2.9950 0.9591
-8.6062 -5.0975 -2.9946 0.9591
-5.5660 -8.3050 -2.9931 0.9591
-4.8045 -8.7670 -2.9930 0.9591
-4.0049 -9.1595 -2.9928 0.9591
5.3046 -8.3095 -2.9514 0.9597
6.0269 -7.8093 -2.9533 0.9596
6.7028 -7.2470 -2.9553 0.9596
7.3267 -6.6266 -2.9576 0.9596
7.8936 -5.9529 -2.9599 0.9596
8.3989 -5.2309 -2.9623 0.9595
9.2091 -3.6651 -2.9674 0.9595
9.5072 -2.8334 -2.9700 0.9594
9.7304 -1.9778 -2.9727 0.9594
9.8767 -1.1049 -2.9753 0.9594
9.9337 0.6650 -2.9806 0.9593
9.6748 2.4199 -2.9857 0.9592
9.4286 3.2740 -2.9881 0.9592
9.1068 4.1033 -2.9904 0.9592
7.1336 7.0546 -3.0036 0.9590
6.4780 7.6622 -3.0039 0.9590
5.0174 8.6905 -3.0043 0.9590
4.2242 9.1030 -3.0044 0.9590
2.5434 9.7082 -3.0045 0.9590
1.5853 9.3982 -2.8534 0.9610
-3.4289 8.9029 -2.8562 0.9609
-4.2054 8.5576 -2.8546 0.9610
-4.9472 8.1442 -2.8528 0.9610
-5.6486 7.6663 -2.8508 0.9610
-7.8673 6.2127 -3.0011 0.9590
-8.8412 4.7179 -3.0002 0.9590
-9.5344 3.0744 -2.9991 0.9590
-9.7685 2.2132 -2.9986 0.9590
-9.9250 1.3348 -2.9981 0.9590
-10.0026 0.4460 -2.9976 0.9591
-9.2107 -3.9057 -2.9952 0.9591
-8.8253 -4.7093 -2.9948 0.9591
-8.3701 -5.4754 -2.9944 0.9591
-7.8486 -6.1980 -2.9940 0.9591
-4.4091 -8.9721 -2.9929 0.9591
-3.5929 -9.3287 -2.9928 0.9591
-2.7483 -9.6113 -2.9927 0.9591
-1.0006 -9.9464 -2.9928 0.9591
-0.1114 -9.9963 -2.9929 0.9591
0.7695 -9.8479 -2.9573 0.9596
3.3328 -9.2638 -2.9474 0.9597
4.1462 -8.9347 -2.9489 0.9597
5.6712 -8.0674 -2.9523 0.9597
6.3711 -7.5357 -2.9543 0.9596
7.0216 -6.9438 -2.9564 0.9596
7.6176 -6.2961 -2.9587 0.9596
8.6272 -4.8536 -2.9635 0.9595
9.3673 -3.2527 -2.9687 0.9594
9.6283 -2.4082 -2.9713 0.9594
9.8132 -1.5430 -2.9740 0.9594
9.9205 -0.6641 -2.9767 0.9593
9.8985 1.1073 -2.9819 0.9593
9.5613 2.8496 -2.9869 0.9592
9.2770 3.6922 -2.9892 0.9592
8.4876 5.2861 -2.9935 0.9591
6.1305 7.9435 -3.0040 0.9590
5.3995 8.4581 -3.0042 0.9590
4.6254 8.9056 -3.0043 0.9590
3.8146 9.2823 -3.0044 0.9590
2.9733 9.5852 -3.0045 0.9590
1.9797 9.2128 -2.8211 0.9614
1.1654 9.4630 -2.8544 0.9610
0.3188 9.5357 -2.8564 0.9609
-1.3770 9.4415 -2.8565 0.9609
-3.8211 8.7390 -2.8555 0.9610
-5.9823 7.4043 -2.8498 0.9610
-6.9706 7.2075 -3.0018 0.9590
-8.6230 5.1074 -3.0004 0.9590
-9.0419 4.3189 -2.9999 0.9590
-9.3888 3.4964 -2.9994 0.9590
-9.8565 1.7757 -2.9983 0.9590
-9.4381 0.0000 -2.9974 0.9612
-9.2856 -1.6729 -2.9964 0.9612
-8.8393 -3.2918 -2.9956 0.9612
-8.5101 -4.0650 -2.9952 0.9612
-8.1135 -4.8056 -2.9948 0.9612
-7.1314 -6.1667 -2.9941 0.9612
0.3149 -9.4198 -2.9933 0.9612
1.1377 -9.2378 -2.9560 0.9617
1.9496 -9.0730 -2.9472 0.9618
5.0026 -7.8364 -2.9526 0.9617
5.6836 -7.3645 -2.9544 0.9617
7.4429 -5.6130 -2.9606 0.9616
8.6822 -3.4554 -2.9677 0.9615
9.3101 -1.0415 -2.9752 0.9614
9.3629 0.6268 -2.9802 0.9614
9.2775 1.4588 -2.9826 0.9614
9.1180 2.2806 -2.9850 0.9613
8.8856 3.0854 -2.9872 0.9613
7.7704 5.3341 -2.9933 0.9612
4.7293 8.1915 -3.0039 0.9611
3.9816 8.5803 -3.0041 0.9611
3.2022 8.9009 -3.0041 0.9611
2.3973 9.1506 -3.0042 0.9611
-0.9003 8.9494 -2.8565 0.9630
-2.4724 8.6465 -2.8560 0.9630
-3.2307 8.3882 -2.8547 0.9630
-5.3225 7.2238 -2.8496 0.9630
-6.8663 6.4941 -3.0014 0.9611
-7.4160 5.8563 -3.0010 0.9611
-7.9066 5.1722 -3.0005 0.9611
-8.3342 4.4473 -3.0001 0.9611
-9.3562 1.2583 -2.9981 0.9612
-9.4279 -0.4204 -2.9971 0.9612
-9.3516 -1.2577 -2.9967 0.9612
-7.8909 -5.1620 -2.9946 0.9612
-6.8493 -6.4780 -2.9940 0.9612
-6.2450 -7.0613 -2.9937 0.9612
-5.5913 -7.5885 -2.9935 0.9612
-4.1568 -8.4588 -2.9932 0.9612
-3.3873 -8.7949 -2.9931 0.9612
-2.5910 -9.0613 -2.9931 0.9612
-1.7742 -9.2560 -2.9931 0.9612
-0.9434 -9.3773 -2.9931 0.9612
-0.1050 -9.4243 -2.9932 0.9612
1.5453 -9.1614 -2.9506 0.9618
2.3523 -8.9787 -2.9477 0.9618
3.1433 -8.7371 -2.9489 0.9618
3.9103 -8.4265 -2.9502 0.9618
4.6472 -8.0492 -2.9518 0.9617
5.3483 -7.6080 -2.9535 0.9617
6.0080 -7.1063 -2.9553 0.9617
7.1828 -5.9368 -2.9595 0.9616
8.1342 -4.5762 -2.9640 0.9616
9.0767 -2.2702 -2.9714 0.9615
9.2506 -1.4546 -2.9739 0.9615
9.3512 -0.6260 -2.9765 0.9614
9.3295 1.0437 -2.9814 0.9614
8.7425 3.4795 -2.9883 0.9613
7.5327 5.6808 -2.9963 0.9612
7.0133 6.3431 -3.0032 0.9611
6.4214 6.9428 -3.0034 0.9611
5.7784 7.4874 -3.0037 0.9611
4.3598 8.3942 -3.0040 0.9611
1.8864 8.7785 -2.8516 0.9630
-0.5007 8.9799 -2.8563 0.9630
-1.2981 8.9000 -2.8564 0.9630
-2.0849 8.7487 -2.8563 0.9630
-4.3163 7.8763 -2.8524 0.9630
-4.9971 7.4562 -2.8506 0.9630
-5.7683 7.1395 -2.9149 0.9622
-7.1482 6.1813 -3.0012 0.9611
-7.6689 5.5197 -3.0008 0.9611
-8.1285 4.8145 -3.0003 0.9611
-9.2916 1.6740 -2.9984 0.9612
-8.8847 -0.7939 -2.9970 0.9631
-8.7775 -1.5813 -2.9966 0.9631
-8.6007 -2.3559 -2.9961 0.9631
-8.3558 -3.1117 -2.9957 0.9631
-7.6698 -4.5428 -2.9950 0.9631
-6.1953 -6.4058 -2.9941 0.9631
-5.6001 -6.9313 -2.9939 0.9631
-4.9607 -7.4018 -2.9937 0.9631
-3.5694 -8.1634 -2.9935 0.9631
-2.0654 -8.6666 -2.9934 0.9631
-0.4960 -8.8957 -2.9934 0.9631
1.8453 -8.5875 -2.9511 0.9636
2.6010 -8.3850 -2.9496 0.9636
3.3384 -8.1234 -2.9508 0.9636
5.3743 -6.9637 -2.9554 0.9636
6.5322 -5.9080 -2.9592 0.9635
7.4868 -4.6629 -2.9634 0.9635
8.2076 -3.2665 -2.9680 0.9634
8.4724 -2.5250 -2.9703 0.9634
8.8597 -0.1974 -2.9775 0.9633
8.6169 2.1552 -2.9843 0.9632
7.3448 5.0419 -2.9932 0.9631
6.8889 5.6938 -3.0028 0.9630
5.1410 7.3132 -3.0035 0.9630
4.4699 7.7422 -3.0036 0.9630
3.0266 8.4126 -3.0038 0.9630
2.2658 8.6487 -3.0039 0.9630
1.4117 8.3692 -2.8516 0.9648
-0.8506 8.4555 -2.8552 0.9648
-1.5999 8.3465 -2.8553 0.9648
-4.4044 7.2507 -2.8503 0.9648
-6.4900 6.1381 -3.0013 0.9630
-7.0096 5.5354 -3.0009 0.9630
-7.4734 4.8888 -3.0004 0.9630
-8.4955 2.7395 -2.9991 0.9630
-8.7043 1.9721 -2.9986 0.9630
-8.8439 1.1894 -2.9981 0.9630
-8.9133 0.3975 -2.9977 0.9631
-8.8399 -1.1889 -2.9968 0.9631
-8.6977 -1.9706 -2.9963 0.9631
-8.2083 -3.4806 -2.9955 0.9631
-6.9948 -5.5237 -2.9945 0.9631
-6.4748 -6.1238 -2.9943 0.9631
-3.9296 -7.9964 -2.9935 0.9631
-0.8918 -8.8647 -2.9934 0.9631
0.6935 -8.8747 -2.9908 0.9631
1.4635 -8.6765 -2.9563 0.9636
2.2245 -8.4910 -2.9491 0.9636
2.9725 -8.2624 -2.9502 0.9636
6.2604 -6.1910 -2.9582 0.9635
8.0508 -3.6275 -2.9668 0.9634
8.8632 0.1975 -2.9786 0.9633
8.8173 0.9864 -2.9809 0.9633
8.7011 1.7686 -2.9832 0.9632
8.5154 2.5379 -2.9854 0.9632
8.2615 3.2880 -2.9875 0.9632
7.1353 5.3810 -3.0026 0.9630
6.0693 6.5621 -3.0032 0.9630
5.4615 7.0767 -3.0034 0.9630
3.3983 8.2693 -3.0038 0.9630
2.6489 8.5392 -3.0039 0.9630
1.7877 8.3193 -2.8589 0.9647
1.0378 8.4262 -2.8525 0.9648
-0.4731 8.4840 -2.8549 0.9648
-2.6969 8.0550 -2.8540 0.9648
-4.0782 7.4418 -2.8511 0.9648
-4.7219 7.0456 -2.8496 0.9648
-7.6831 4.5507 -3.0002 0.9630
-8.0565 3.8483 -2.9998 0.9630
-8.3657 3.1154 -2.9993 0.9630
-8.6085 2.3581 -2.9988 0.9630
-8.8874 0.7942 -2.9979 0.9630
-8.4188 -0.7523 -2.9971 0.9648
-8.3173 -1.4984 -2.9967 0.9648
-7.9178 -2.9486 -2.9959 0.9648
-7.6230 -3.6412 -2.9955 0.9648
-7.2678 -4.3047 -2.9952 0.9648
-4.7008 -7.0140 -2.9940 0.9648
-4.0577 -7.4042 -2.9938 0.9648
0.2821 -8.4384 -2.9938 0.9648
1.0299 -8.3623 -2.9876 0.9649
1.7519 -8.1528 -2.9569 0.9652
2.4656 -7.9483 -2.9509 0.9653
3.1645 -7.7003 -2.9520 0.9653
3.8389 -7.3913 -2.9533 0.9653
4.4838 -7.0237 -2.9547 0.9653
5.0939 -6.6004 -2.9563 0.9652
5.6644 -6.1243 -2.9581 0.9652
6.1909 -5.5994 -2.9599 0.9652
7.0952 -4.4190 -2.9639 0.9651
7.7776 -3.0954 -2.9682 0.9651
8.3380 -0.9327 -2.9750 0.9650
8.1632 2.0417 -2.9837 0.9649
7.3478 4.1338 -2.9895 0.9649
6.9805 4.7919 -3.0023 0.9647
6.5269 5.3947 -3.0026 0.9647
6.0214 5.9547 -3.0028 0.9647
4.8709 6.9289 -3.0032 0.9647
4.2350 7.3353 -3.0034 0.9647
3.5655 7.6834 -3.0035 0.9647
2.8675 7.9705 -3.0036 0.9647
2.1468 8.1942 -3.0036 0.9647
0.6266 8.0190 -2.8521 0.9664
-0.0897 8.0459 -2.8532 0.9664
-0.8056 8.0079 -2.8538 0.9664
-2.8909 7.5061 -2.8521 0.9664
-3.5458 7.2155 -2.8508 0.9665
-5.0217 6.8156 -3.0019 0.9647
-6.1492 5.8158 -3.0011 0.9647
-7.4642 3.9830 -2.9999 0.9647
-7.7879 3.3024 -2.9995 0.9647
-8.0498 2.5957 -2.9990 0.9647
-8.2476 1.8687 -2.9986 0.9647
-8.3800 1.1270 -2.9982 0.9648
-8.4458 0.3766 -2.9977 0.9648
-8.3764 -1.1265 -2.9969 0.9648
-8.0418 -2.5931 -2.9961 0.9648
-7.7781 -3.2982 -2.9957 0.9648
-7.4528 -3.9769 -2.9954 0.9648
-7.0683 -4.6240 -2.9950 0.9648
-6.6282 -5.2342 -2.9947 0.9648
-6.1355 -5.8029 -2.9945 0.9648
-5.5942 -6.3255 -2.9943 0.9648
-3.7237 -7.5775 -2.9938 0.9648
-3.0344 -7.8787 -2.9937 0.9648
-1.5894 -8.2917 -2.9937 0.9648
-0.8451 -8.4004 -2.9937 0.9648
2.1097 -8.0529 -2.9518 0.9653
4.7935 -6.8188 -2.9555 0.9652
5.3844 -6.3687 -2.9572 0.9652
5.9335 -5.8677 -2.9590 0.9652
6.8889 -4.7290 -2.9629 0.9652
7.6292 -3.4375 -2.9671 0.9651
7.9108 -2.7469 -2.9693 0.9651
8.2850 -1.3027 -2.9738 0.9650
8.3744 -0.5606 -2.9761 0.9650
8.3535 0.9345 -2.9805 0.9650
8.0669 2.4042 -2.9847 0.9649
7.1585 4.4583 -2.9903 0.9648
6.2804 5.6803 -3.0027 0.9647
5.7504 6.2173 -3.0029 0.9647
5.1745 6.7049 -3.0031 0.9647
4.5575 7.1392 -3.0033 0.9647
3.2197 7.8348 -3.0035 0.9647
2.5096 8.0904 -3.0036 0.9647
0.2688 8.0405 -2.8527 0.9664
-1.8657 7.8286 -2.8537 0.9664
-3.2217 7.3681 -2.8515 0.9664
-3.8628 7.0486 -2.8500 0.9665
-5.3201 6.5847 -3.0017 0.9647
-7.6337 3.6463 -2.9997 0.9647
-8.1568 2.2344 -2.9988 0.9647
-7.9946 -0.7144 -2.9972 0.9663
-7.8982 -1.4229 -2.9968 0.9663
-7.7393 -2.1200 -2.9964 0.9663
-7.2391 -3.4578 -2.9957 0.9663
-6.9019 -4.0880 -2.9954 0.9663
-6.5100 -4.6856 -2.9951 0.9663
-6.0666 -5.2459 -2.9948 0.9663
-5.0396 -6.2375 -2.9944 0.9663
-4.4641 -6.6610 -2.9942 0.9663
-3.8534 -7.0315 -2.9941 0.9663
-3.2122 -7.3464 -2.9940 0.9663
-2.5455 -7.6029 -2.9939 0.9663
-1.1571 -7.9338 -2.9939 0.9663
-0.4464 -8.0054 -2.9940 0.9663
0.9802 -7.9583 -2.9942 0.9663
1.6671 -7.7582 -2.9631 0.9667
3.0060 -7.3147 -2.9530 0.9668
4.2590 -6.6717 -2.9556 0.9668
4.8384 -6.2694 -2.9572 0.9668
7.0902 -3.5829 -2.9664 0.9666
7.3861 -2.9396 -2.9685 0.9666
7.6239 -2.2722 -2.9706 0.9666
7.8015 -1.5857 -2.9727 0.9666
7.9174 -0.8857 -2.9749 0.9666
7.9705 -0.1776 -2.9770 0.9665
7.9603 0.5329 -2.9791 0.9665
7.7502 1.9385 -2.9832 0.9665
7.2929 3.2860 -2.9869 0.9664
6.9755 3.9244 -2.9886 0.9664
5.1919 6.1410 -3.0028 0.9662
4.6249 6.5791 -3.0030 0.9662
4.0212 6.9650 -3.0031 0.9662
3.3855 7.2955 -3.0032 0.9662
2.0384 7.7804 -3.0033 0.9662
0.5948 7.6119 -2.8510 0.9679
-0.0851 7.6372 -2.8520 0.9679
-1.4381 7.5027 -2.8526 0.9679
-2.7441 7.1249 -2.8510 0.9679
-3.3659 6.8493 -2.8497 0.9679
-4.1329 6.8036 -2.9725 0.9666
-5.3249 6.0209 -3.0014 0.9663
-6.3065 4.9802 -3.0006 0.9663
-6.7239 4.3985 -3.0003 0.9663
-7.0877 3.7821 -2.9999 0.9663
-7.9576 1.0702 -2.9982 0.9663
-8.0201 0.3576 -2.9978 0.9663
-8.0190 -0.3576 -2.9974 0.9663
-7.9543 -1.0698 -2.9970 0.9663
-7.6367 -2.4625 -2.9962 0.9663
-7.3863 -3.1321 -2.9959 0.9663
-6.7126 -4.3911 -2.9952 0.9663
-6.2945 -4.9707 -2.9949 0.9663
-5.3126 -6.0070 -2.9945 0.9663
-4.1629 -6.8530 -2.9941 0.9663
-3.5363 -7.1961 -2.9940 0.9663
-2.8817 -7.4821 -2.9939 0.9663
-2.2043 -7.7088 -2.9939 0.9663
-1.5094 -7.8743 -2.9939 0.9663
-0.0893 -8.0175 -2.9940 0.9663
0.6246 -7.9939 -2.9941 0.9663
2.0073 -7.6617 -2.9575 0.9667
3.3295 -7.1750 -2.9536 0.9668
3.9567 -6.8532 -2.9549 0.9668
6.1131 -5.0526 -2.9615 0.9667
6.5428 -4.4914 -2.9634 0.9667
7.2453 -3.2646 -2.9674 0.9666
7.5124 -2.6086 -2.9695 0.9666
7.8672 -1.2371 -2.9738 0.9666
7.9518 -0.5323 -2.9759 0.9665
7.9733 0.1777 -2.9781 0.9665
7.9314 0.8873 -2.9802 0.9665
7.8263 1.5908 -2.9822 0.9665
7.4298 2.9570 -2.9860 0.9664
6.8170 4.2457 -2.9989 0.9663
6.4192 4.8410 -3.0022 0.9663
5.4601 5.9034 -3.0027 0.9662
4.9133 6.3664 -3.0029 0.9662
4.3274 6.7788 -3.0031 0.9662
3.7070 7.1373 -3.0032 0.9662
1.6898 7.8635 -3.0033 0.9662
0.2551 7.6322 -2.8515 0.9679
-1.7708 7.4306 -2.8524 0.9679
-5.5875 5.7774 -3.0012 0.9663
-6.0788 5.2565 -3.0008 0.9663
-6.5217 4.6940 -3.0005 0.9663
-6.9127 4.0944 -3.0001 0.9663
-7.2487 3.4624 -2.9997 0.9663
-7.6065 -0.6797 -2.9972 0.9677
-7.1541 -2.6642 -2.9961 0.9677
-6.8878 -3.2900 -2.9958 0.9677
-6.5670 -3.8896 -2.9955 0.9677
-6.1942 -4.4583 -2.9952 0.9677
-5.7723 -4.9915 -2.9950 0.9677
-4.7952 -5.9350 -2.9946 0.9677
-3.6665 -6.6905 -2.9943 0.9677
-3.0564 -6.9900 -2.9942 0.9677
-2.4221 -7.2343 -2.9941 0.9677
-1.7685 -7.4211 -2.9941 0.9677
-1.1010 -7.5491 -2.9941 0.9677
0.2549 -7.6250 -2.9943 0.9677
1.5945 -7.4202 -2.9787 0.9679
2.8609 -6.9617 -2.9540 0.9682
3.4706 -6.6821 -2.9552 0.9682
4.6047 -5.9665 -2.9579 0.9681
6.7466 -3.4092 -2.9667 0.9680
7.5729 0.5070 -2.9788 0.9679
7.5027 1.1798 -2.9808 0.9679
6.3060 4.3288 -3.0019 0.9677
5.8962 4.8733 -3.0022 0.9677
4.9394 5.8424 -3.0026 0.9677
2.5903 7.2000 -3.0031 0.9677
1.9392 7.4020 -3.0031 0.9677
0.5661 7.2448 -2.8520 0.9693
-1.9971 6.9841 -2.8509 0.9693
-3.9709 6.5370 -3.0018 0.9677
-4.5365 6.1570 -3.0016 0.9677
-5.0660 5.7282 -3.0012 0.9677
-5.5551 5.2540 -3.0009 0.9677
-6.0000 4.7382 -3.0005 0.9677
-6.7434 3.5984 -2.9998 0.9677
-7.2726 2.3451 -2.9990 0.9677
-7.6307 0.3403 -2.9978 0.9677
-7.6297 -0.3402 -2.9974 0.9677
-7.4467 -1.6872 -2.9967 0.9677
-7.2661 -2.3430 -2.9963 0.9677
-5.0550 -5.7157 -2.9947 0.9677
-2.7419 -7.1192 -2.9942 0.9677
-2.0974 -7.3349 -2.9941 0.9677
1.9126 -7.3008 -2.9620 0.9681
3.7656 -6.5223 -2.9558 0.9682
5.3632 -5.3038 -2.9603 0.9681
7.1480 -2.4821 -2.9697 0.9680
7.3456 -1.8372 -2.9717 0.9680
7.4851 -1.1770 -2.9738 0.9680
7.5653 -0.5064 -2.9758 0.9679
7.4451 1.5133 -2.9817 0.9679
7.2854 2.1713 -2.9836 0.9679
7.0675 2.8128 -2.9854 0.9678
6.7929 3.4326 -2.9871 0.9678
6.4922 4.0434 -3.0018 0.9677
6.1071 4.6056 -3.0021 0.9677
5.6734 5.1313 -3.0023 0.9677
4.6744 6.0568 -3.0027 0.9677
4.1169 6.4491 -3.0029 0.9677
2.2670 7.3083 -3.0031 0.9677
1.6076 7.4811 -3.0031 0.9677
0.9179 7.4532 -2.9472 0.9682
-1.6841 7.0669 -2.8512 0.9693
-2.9088 6.6526 -2.8497 0.9693
-4.2580 6.3533 -3.0017 0.9677
-4.8061 5.9485 -3.0014 0.9677
-5.7833 5.0010 -3.0007 0.9677
-6.8965 3.2942 -2.9996 0.9677
-7.1614 2.6669 -2.9992 0.9677
-7.3694 2.0187 -2.9988 0.9677
-7.6085 0.6799 -2.9980 0.9677
-7.1627 -1.2904 -2.9969 0.9690
-7.0186 -1.9226 -2.9966 0.9690
-6.5651 -3.1359 -2.9960 0.9690
-6.2594 -3.7074 -2.9957 0.9690
-5.9040 -4.2494 -2.9954 0.9690
-4.5706 -5.6571 -2.9948 0.9690
-3.4948 -6.3772 -2.9945 0.9690
-2.3086 -6.8955 -2.9944 0.9690
-1.6857 -7.0736 -2.9943 0.9690
-0.4049 -7.2605 -2.9944 0.9690
0.2430 -7.2679 -2.9945 0.9690
2.7278 -6.6378 -2.9551 0.9694
3.8643 -6.0533 -2.9573 0.9694
4.3898 -5.6880 -2.9586 0.9694
4.8811 -5.2774 -2.9601 0.9694
5.7458 -4.3332 -2.9634 0.9693
6.1123 -3.8068 -2.9652 0.9693
6.4309 -3.2497 -2.9670 0.9693
6.9140 -2.0606 -2.9708 0.9693
7.1500 1.1243 -2.9804 0.9692
7.0258 1.7573 -2.9822 0.9692
6.8455 2.3770 -2.9840 0.9691
5.1840 5.1266 -3.0022 0.9690
3.0695 6.6148 -3.0028 0.9689
2.4687 6.8619 -3.0029 0.9689
1.8482 7.0544 -3.0029 0.9689
1.2129 7.1909 -3.0029 0.9689
0.5627 7.2016 -2.9745 0.9692
-1.3031 6.7981 -2.8503 0.9705
-3.2153 6.5428 -3.0019 0.9690
-4.3236 5.8680 -3.0014 0.9690
-6.0970 3.9885 -3.0001 0.9690
-6.4270 3.4296 -2.9997 0.9690
-6.7059 2.8435 -2.9994 0.9690
-6.9315 2.2351 -2.9990 0.9690
-7.2721 -0.3243 -2.9975 0.9690
-6.9256 -2.2332 -2.9964 0.9690
-6.0877 -3.9824 -2.9955 0.9690
-5.7086 -4.5080 -2.9953 0.9690
-5.2843 -4.9979 -2.9951 0.9690
-4.8182 -5.4480 -2.9949 0.9690
-3.2072 -6.5265 -2.9945 0.9690
-0.7279 -7.2352 -2.9944 0.9690
-0.0810 -7.2715 -2.9944 0.9690
0.5665 -7.2500 -2.9945 0.9690
1.2096 -7.1711 -2.9947 0.9690
3.5900 -6.2181 -2.9566 0.9694
4.1311 -5.8765 -2.9579 0.9694
4.6400 -5.4882 -2.9594 0.9694
6.2778 -3.5318 -2.9661 0.9693
6.8132 -2.3658 -2.9699 0.9693
7.0012 -1.7511 -2.9718 0.9693
7.0950 1.4421 -2.9813 0.9692
6.4816 3.2753 -2.9904 0.9691
6.1875 3.8536 -3.0016 0.9690
5.4071 4.8904 -3.0021 0.9690
4.9507 5.3527 -3.0023 0.9690
4.4549 5.7724 -3.0025 0.9690
3.9236 6.1463 -3.0027 0.9689
2.7719 6.7450 -3.0029 0.9689
1.5321 7.1297 -3.0029 0.9689
0.8914 7.2377 -3.0029 0.9689
-0.3854 6.9107 -2.8501 0.9705
-1.6045 6.7329 -2.8501 0.9705
-2.1971 6.5624 -2.8497 0.9705
-2.8670 6.5570 -2.9469 0.9695
-3.5033 6.3928 -3.0018 0.9690
-4.0581 6.0551 -3.0016 0.9690
-5.0664 5.2386 -3.0010 0.9690
-5.5119 4.7664 -3.0006 0.9690
-5.9136 4.2563 -3.0003 0.9690
-6.2682 3.7127 -2.9999 0.9690
-7.1662 1.2911 -2.9984 0.9690
-7.2518 0.6480 -2.9980 0.9690
-6.9495 0.0000 -2.9977 0.9702
-6.9211 -0.6185 -2.9974 0.9702
-6.5096 -2.4242 -2.9964 0.9702
-6.2674 -2.9937 -2.9961 0.9702
-5.9756 -3.5393 -2.9958 0.9702
-5.2525 -4.5420 -2.9953 0.9702
-3.8652 -5.7673 -2.9948 0.9702
-3.3365 -6.0882 -2.9947 0.9702
-2.2040 -6.5830 -2.9946 0.9702
-1.6093 -6.7530 -2.9945 0.9702
-1.0019 -6.8695 -2.9945 0.9702
-0.3865 -6.9315 -2.9946 0.9702
0.2320 -6.9385 -2.9947 0.9702
3.1594 -6.0830 -2.9568 0.9706
4.6605 -5.0389 -2.9607 0.9705
5.8356 -3.6345 -2.9656 0.9705
6.1396 -3.1025 -2.9673 0.9705
6.3952 -2.5452 -2.9691 0.9705
6.6005 -1.9671 -2.9709 0.9704
6.7536 -1.3727 -2.9728 0.9704
6.8532 -0.7666 -2.9746 0.9704
6.8891 0.4612 -2.9783 0.9704
6.7060 1.6773 -2.9818 0.9703
6.5338 2.2688 -2.9835 0.9703
6.3166 2.8461 -2.9885 0.9703
5.7369 3.9382 -3.0016 0.9701
5.3640 4.4335 -3.0019 0.9701
4.9485 4.8937 -3.0021 0.9701
4.0029 5.6942 -3.0024 0.9701
1.1578 6.8641 -3.0027 0.9701
0.5423 6.9398 -3.0027 0.9701
-1.8458 6.4551 -2.8961 0.9712
-2.4959 6.4803 -2.9955 0.9702
-3.0691 6.2456 -3.0018 0.9701
-3.6126 5.9471 -3.0016 0.9701
-4.1272 5.6015 -3.0013 0.9701
-4.6090 5.2114 -3.0010 0.9701
-5.0540 4.7800 -3.0007 0.9702
-5.8202 3.8074 -3.0000 0.9702
-6.1352 3.2739 -2.9997 0.9702
-6.7797 1.5361 -2.9986 0.9702
-6.8887 0.9264 -2.9982 0.9702
-6.7757 -1.5352 -2.9968 0.9702
-5.8117 -3.8018 -2.9957 0.9702
-5.4498 -4.3037 -2.9954 0.9702
-5.0448 -4.7713 -2.9952 0.9702
-4.5998 -5.2010 -2.9950 0.9702
-3.0619 -6.2307 -2.9946 0.9702
-2.4951 -6.4783 -2.9946 0.9702
-1.3069 -6.8180 -2.9945 0.9702
-0.6949 -6.9073 -2.9946 0.9702
-0.0774 -6.9419 -2.9946 0.9702
0.5408 -6.9214 -2.9947 0.9702
1.1548 -6.8461 -2.9948 0.9702
1.7569 -6.7062 -2.9904 0.9703
2.3257 -6.4644 -2.9634 0.9705
2.8852 -6.2175 -2.9567 0.9706
3.9445 -5.6111 -2.9586 0.9706
4.4303 -5.2402 -2.9600 0.9705
4.8816 -4.8275 -2.9615 0.9705
6.2736 -2.8267 -2.9682 0.9705
6.5043 -2.2585 -2.9700 0.9705
6.6836 -1.6717 -2.9719 0.9704
6.8827 -0.4607 -2.9756 0.9704
6.8637 0.7678 -2.9792 0.9704
6.4279 2.5583 -2.9843 0.9703
6.2098 3.1380 -3.0012 0.9701
5.1614 4.6682 -3.0020 0.9701
4.2525 5.5101 -3.0023 0.9701
3.2084 6.1773 -3.0026 0.9701
2.6459 6.4385 -3.0027 0.9701
2.0624 6.6485 -3.0027 0.9701
1.4624 6.8057 -3.0027 0.9701
0.8509 6.9088 -3.0027 0.9701
0.2326 6.9570 -3.0026 0.9701
-0.3751 6.7259 -2.9058 0.9711
-0.9575 6.5649 -2.8618 0.9715
-4.3725 5.4118 -3.0011 0.9701
-5.9836 3.5441 -2.9999 0.9702
-6.2746 2.9971 -2.9995 0.9702
-6.7050 1.8367 -2.9988 0.9702
-6.9227 0.6186 -2.9981 0.9702
-6.6437 0.0000 -2.9977 0.9713
-5.3885 -3.8784 -2.9957 0.9713
-5.0216 -4.3423 -2.9955 0.9713
-4.6149 -4.7717 -2.9953 0.9713
-3.6953 -5.5138 -2.9950 0.9713
-3.1898 -5.8206 -2.9949 0.9713
-1.5386 -6.4562 -2.9947 0.9713
-0.9579 -6.5675 -2.9947 0.9713
0.8113 -6.5877 -2.9949 0.9713
1.9630 -6.3280 -2.9895 0.9713
2.4973 -6.0767 -2.9644 0.9716
4.0078 -5.1931 -2.9599 0.9716
5.2451 -3.9556 -2.9643 0.9716
6.1141 -2.4334 -2.9693 0.9715
6.3102 -1.8806 -2.9710 0.9715
6.5514 -0.7329 -2.9746 0.9715
6.5853 0.4408 -2.9781 0.9715
6.2452 2.1686 -2.9830 0.9714
6.0622 2.7315 -3.0002 0.9712
5.7970 3.2613 -3.0012 0.9712
5.1277 4.2382 -3.0017 0.9712
3.8265 5.4433 -3.0022 0.9712
3.3269 5.7625 -3.0024 0.9712
1.1068 6.5616 -3.0025 0.9712
0.5184 6.6340 -3.0025 0.9712
-1.2436 6.4878 -2.9807 0.9714
-1.8291 6.3969 -3.0020 0.9712
-2.9340 5.9704 -3.0017 0.9712
-3.4535 5.6851 -3.0014 0.9712
-3.9454 5.3547 -3.0012 0.9712
-4.8314 4.5695 -3.0006 0.9712
-6.1197 2.5950 -2.9993 0.9713
-6.3257 2.0398 -2.9990 0.9713
-6.4813 1.4685 -2.9986 0.9713
-6.4777 -1.4676 -2.9969 0.9713
-6.1136 -2.5924 -2.9963 0.9713
-5.5562 -3.6346 -2.9958 0.9713
-4.8230 -4.5615 -2.9954 0.9713
-2.9273 -5.9568 -2.9948 0.9713
-0.6644 -6.6037 -2.9947 0.9713
-0.0740 -6.6367 -2.9948 0.9713
1.1040 -6.5451 -2.9950 0.9713
1.6823 -6.4212 -2.9952 0.9713
2.2309 -6.2010 -2.9735 0.9715
3.2778 -5.6774 -2.9581 0.9716
4.2361 -5.0105 -2.9606 0.9716
5.4176 -3.7190 -2.9651 0.9716
5.9979 -2.7025 -2.9684 0.9715
6.2183 -2.1592 -2.9701 0.9715
6.3896 -1.5981 -2.9719 0.9715
6.5104 -1.0237 -2.9737 0.9715
6.5795 -0.4404 -2.9755 0.9715
5.3112 4.0054 -3.0016 0.9712
4.9340 4.4625 -3.0018 0.9712
4.5175 4.8843 -3.0020 0.9712
4.0651 5.2673 -3.0022 0.9712
3.5803 5.6084 -3.0023 0.9712
3.0670 5.9050 -3.0024 0.9712
1.9715 6.3555 -3.0025 0.9712
0.8134 6.6044 -3.0025 0.9712
0.2223 6.6504 -3.0025 0.9712
-0.3705 6.6437 -3.0024 0.9712
-2.6652 6.0954 -3.0018 0.9712
-4.1799 5.1735 -3.0010 0.9712
-4.6233 4.7804 -3.0008 0.9712
-5.9984 2.8652 -2.9995 0.9712
-6.2289 2.3197 -2.9991 0.9713
-6.4099 1.7558 -2.9988 0.9713
-6.5399 1.1782 -2.9984 0.9713
-6.6181 0.5914 -2.9981 0.9713
-6.3597 0.0000 -2.9978 0.9723
-6.3337 -0.5660 -2.9975 0.9723
-6.2576 -1.1274 -2.9971 0.9723
-6.1318 -1.6797 -2.9968 0.9723
-5.9574 -2.2186 -2.9966 0.9723
-4.8070 -4.1568 -2.9956 0.9723
-3.5375 -5.2782 -2.9951 0.9723
-2.5454 -5.8214 -2.9949 0.9723
-1.4729 -6.1804 -2.9949 0.9723
-0.3537 -6.3437 -2.9949 0.9723
0.2123 -6.3502 -2.9950 0.9723
1.3349 -6.2124 -2.9952 0.9723
1.8827 -6.0692 -2.9954 0.9723
2.3981 -5.8354 -2.9739 0.9725
3.8371 -4.9719 -2.9605 0.9726
4.6621 -4.2167 -2.9632 0.9726
6.0405 -1.8002 -2.9711 0.9725
6.1802 -1.2562 -2.9728 0.9725
6.2711 -0.7015 -2.9745 0.9725
6.3123 -0.1407 -2.9762 0.9725
6.2441 0.9819 -2.9795 0.9724
6.1352 1.5345 -2.9811 0.9724
5.9851 2.0783 -2.9865 0.9724
5.8042 2.6153 -3.0009 0.9722
4.9082 4.0567 -3.0016 0.9722
4.5279 4.4778 -3.0018 0.9722
3.6626 5.2102 -3.0021 0.9722
3.1845 5.5157 -3.0022 0.9722
2.1562 5.9932 -3.0023 0.9722
1.6142 6.1614 -3.0024 0.9722
1.0594 6.2806 -3.0024 0.9722
0.4962 6.3499 -3.0023 0.9722
-0.0710 6.3688 -3.0023 0.9722
-0.6375 6.3369 -3.0022 0.9722
-1.1990 6.2548 -3.0020 0.9722
-2.2887 5.9425 -3.0017 0.9722
-2.8084 5.7148 -3.0015 0.9722
-3.3056 5.4418 -3.0013 0.9722
-3.7766 5.1256 -3.0011 0.9722
-4.2174 4.7687 -3.0008 0.9722
-5.6142 2.9958 -2.9996 0.9723
-5.8579 2.4840 -2.9993 0.9723
-6.2042 1.4057 -2.9986 0.9723
-6.3537 0.2833 -2.9979 0.9723
-6.3019 -0.8475 -2.9973 0.9723
-6.0506 -1.9510 -2.9967 0.9723
-5.8524 -2.4816 -2.9964 0.9723
-5.6078 -2.9924 -2.9962 0.9723
-4.2097 -4.7600 -2.9953 0.9723
-3.7692 -5.1155 -2.9952 0.9723
-0.0708 -6.3533 -2.9950 0.9723
0.4950 -6.3345 -2.9950 0.9723
1.0569 -6.2655 -2.9952 0.9723
1.6104 -6.1469 -2.9953 0.9723
2.6482 -5.7067 -2.9655 0.9726
4.4686 -4.4191 -2.9625 0.9726
5.1865 -3.5603 -2.9654 0.9726
5.7418 -2.5871 -2.9686 0.9725
6.2319 -0.9799 -2.9737 0.9725
6.1958 1.2594 -2.9803 0.9724
6.0642 1.8073 -2.9828 0.9724
5.6822 2.8714 -3.0010 0.9722
5.4045 3.3660 -3.0013 0.9722
3.8910 5.0418 -3.0020 0.9722
2.9357 5.6522 -3.0022 0.9722
2.4210 5.8912 -3.0023 0.9722
1.3381 6.2272 -3.0024 0.9722
0.2128 6.3657 -3.0023 0.9722
-0.3546 6.3592 -3.0022 0.9722
-0.9192 6.3022 -3.0021 0.9722
-2.0218 6.0387 -3.0018 0.9722
-3.0600 5.5839 -3.0014 0.9722
-3.5446 5.2889 -3.0012 0.9722
-4.4254 4.5758 -3.0007 0.9722
-4.8147 4.1634 -3.0004 0.9722
-5.4755 3.2431 -2.9998 0.9723
-5.7418 2.7426 -2.9994 0.9723
-6.2603 1.1278 -2.9984 0.9723
-6.0950 0.0000 -2.9978 0.9732
-5.9972 -1.0804 -2.9972 0.9732
-5.7095 -2.1262 -2.9966 0.9732
-4.6071 -3.9839 -2.9957 0.9732
-4.2340 -4.3779 -2.9956 0.9732
-3.3903 -5.0587 -2.9953 0.9732
-2.9265 -5.3402 -2.9952 0.9732
-2.4396 -5.5794 -2.9951 0.9732
-1.4116 -5.9234 -2.9950 0.9732
-0.8788 -6.0255 -2.9950 0.9732
-0.3390 -6.0799 -2.9951 0.9732
0.2035 -6.0861 -2.9952 0.9732
0.7444 -6.0440 -2.9952 0.9732
1.2794 -5.9540 -2.9954 0.9732
2.7802 -5.3528 -2.9667 0.9735
4.0894 -4.4214 -2.9622 0.9735
4.8130 -3.6296 -2.9650 0.9735
5.6096 -2.2325 -2.9696 0.9734
5.7891 -1.7253 -2.9712 0.9734
4.7036 3.8877 -3.0015 0.9732
4.3392 4.2912 -3.0016 0.9732
3.9403 4.6606 -3.0018 0.9732
3.0517 5.2858 -3.0020 0.9732
2.0663 5.7434 -3.0022 0.9732
1.5469 5.9046 -3.0022 0.9732
1.0152 6.0188 -3.0022 0.9732
-0.6109 6.0728 -3.0020 0.9732
-1.1490 5.9941 -3.0019 0.9732
-2.6913 5.4767 -3.0014 0.9732
-3.1679 5.2150 -3.0012 0.9732
-6.0415 0.8125 -2.9983 0.9732
-6.0396 -0.8123 -2.9974 0.9732
-5.9428 -1.3464 -2.9971 0.9732
-5.7988 -1.8699 -2.9968 0.9732
-5.6089 -2.3784 -2.9965 0.9732
-5.3745 -2.8679 -2.9963 0.9732
-4.7801 -3.7748 -2.9958 0.9732
-1.6741 -5.8546 -2.9950 0.9732
1.5434 -5.8913 -2.9954 0.9732
2.5462 -5.4868 -2.9751 0.9734
3.0137 -5.2200 -2.9647 0.9735
3.4614 -4.9239 -2.9604 0.9735
3.8875 -4.5982 -2.9616 0.9735
5.5031 -2.4796 -2.9688 0.9735
5.7050 -1.9810 -2.9704 0.9734
5.8619 -1.4661 -2.9720 0.9734
5.9724 -0.9391 -2.9736 0.9734
6.0180 0.6732 -2.9784 0.9734
4.8720 3.6742 -3.0014 0.9732
4.5259 4.0935 -3.0016 0.9732
4.1439 4.4803 -3.0017 0.9732
2.8133 5.4166 -3.0021 0.9732
2.3201 5.6456 -3.0022 0.9732
1.2824 5.9676 -3.0022 0.9732
0.2039 6.1003 -3.0021 0.9732
-0.3398 6.0941 -3.0021 0.9732
-0.8808 6.0395 -3.0020 0.9732
-1.4148 5.9369 -3.0018 0.9732
-2.4448 5.5913 -3.0015 0.9732
-2.9325 5.3512 -3.0013 0.9732
-5.5027 2.6284 -2.9994 0.9732
-5.8803 1.6108 -2.9988 0.9732
-5.8238 -0.5204 -2.9976 0.9741
-5.6382 -1.5444 -2.9970 0.9741
-5.2741 -2.5192 -2.9965 0.9741
-4.7432 -3.4139 -2.9960 0.9741
-4.0622 -4.2003 -2.9957 0.9741
-3.6721 -4.5450 -2.9955 0.9741
-3.2528 -4.8535 -2.9954 0.9741
-2.8079 -5.1236 -2.9953 0.9741
-1.8548 -5.5401 -2.9952 0.9741
-1.3544 -5.6832 -2.9952 0.9741
-0.8432 -5.7812 -2.9952 0.9741
0.1952 -5.8393 -2.9953 0.9741
0.7142 -5.7989 -2.9954 0.9741
2.6767 -5.1536 -2.9772 0.9742
3.1133 -4.8769 -2.9663 0.9743
3.5301 -4.5741 -2.9622 0.9744
4.2878 -3.8781 -2.9640 0.9743
4.6181 -3.4826 -2.9653 0.9743
4.9120 -3.0592 -2.9667 0.9743
5.1674 -2.6112 -2.9682 0.9743
5.5542 -1.6553 -2.9713 0.9743
5.7948 0.3879 -2.9775 0.9742
5.3364 2.4045 -3.0007 0.9740
4.8262 3.3130 -3.0012 0.9740
3.3673 4.7901 -3.0018 0.9740
2.4648 5.3116 -3.0020 0.9740
1.9823 5.5100 -3.0020 0.9740
1.4840 5.6646 -3.0021 0.9740
0.4562 5.8379 -3.0020 0.9740
-0.0652 5.8552 -3.0020 0.9740
-1.1023 5.7505 -3.0018 0.9740
-3.0392 5.0031 -3.0011 0.9740
-4.2519 4.0215 -3.0004 0.9740
-4.8967 3.2033 -2.9998 0.9740
-5.8415 -0.2605 -2.9977 0.9741
-5.7016 -1.2918 -2.9971 0.9741
-5.3813 -2.2819 -2.9966 0.9741
-4.8907 -3.1993 -2.9961 0.9741
-4.5862 -3.6217 -2.9959 0.9741
-4.2454 -4.0153 -2.9958 0.9741
-3.0333 -4.9935 -2.9954 0.9741
-1.6062 -5.6172 -2.9952 0.9741
-0.0651 -5.8421 -2.9953 0.9741
1.9781 -5.4984 -2.9957 0.9741
2.8951 -5.0141 -2.9684 0.9743
3.3254 -4.7304 -2.9644 0.9743
3.7302 -4.4122 -2.9621 0.9744
4.4573 -3.6841 -2.9646 0.9743
5.4736 -1.9006 -2.9705 0.9743
5.7903 -0.3876 -2.9752 0.9743
5.4380 2.1643 -3.0006 0.9740
4.6740 3.5249 -3.0013 0.9740
3.9755 4.2982 -3.0016 0.9740
2.6989 5.1964 -3.0020 0.9740
2.2258 5.4161 -3.0020 0.9740
1.7349 5.5928 -3.0021 0.9740
1.2302 5.7251 -3.0021 0.9740
0.1956 5.8524 -3.0020 0.9740
-0.3260 5.8464 -3.0019 0.9740
-0.8450 5.7940 -3.0018 0.9740
-1.3573 5.6955 -3.0017 0.9740
-2.3454 5.3641 -3.0014 0.9740
-3.2589 4.8626 -3.0010 0.9740
-3.6785 4.5529 -3.0007 0.9740
-4.0688 4.2071 -3.0005 0.9740
-4.4267 3.8279 -3.0002 0.9740
-4.7494 3.4184 -3.0000 0.9740
-5.0343 2.9818 -2.9997 0.9740
-5.6415 1.5454 -2.9988 0.9740
-5.5257 -0.9955 -2.9973 0.9749
-5.4147 -1.4832 -2.9971 0.9749
-5.2607 -1.9591 -2.9968 0.9749
-5.0651 -2.4194 -2.9966 0.9749
-4.8292 -2.8603 -2.9963 0.9749
-4.2450 -3.6708 -2.9960 0.9749
-3.5266 -4.3649 -2.9957 0.9749
-2.6966 -4.9206 -2.9954 0.9749
-2.2479 -5.1410 -2.9954 0.9749
-1.7814 -5.3206 -2.9953 0.9749
-1.3007 -5.4580 -2.9953 0.9749
-0.8098 -5.5521 -2.9953 0.9749
0.6859 -5.5691 -2.9955 0.9749
1.6626 -5.3597 -2.9958 0.9749
2.1332 -5.1907 -2.9959 0.9749
3.7688 -4.0748 -2.9631 0.9751
4.1182 -3.7247 -2.9643 0.9751
4.4354 -3.3449 -2.9656 0.9751
4.9628 -2.5078 -2.9684 0.9751
5.3341 -1.5897 -2.9713 0.9751
5.4488 1.3629 -2.9984 0.9749
5.3093 1.8436 -3.0004 0.9748
4.6347 3.1815 -3.0010 0.9748
4.3334 3.5817 -3.0012 0.9748
3.9976 3.9533 -3.0014 0.9748
2.3669 5.1007 -3.0019 0.9748
0.9353 5.5449 -3.0019 0.9748
0.4380 5.6061 -3.0019 0.9748
-0.0627 5.6227 -3.0018 0.9748
-1.0585 5.5222 -3.0016 0.9748
-1.5458 5.4058 -3.0015 0.9748
-2.0207 5.2465 -3.0014 0.9748
-3.3343 4.5254 -3.0008 0.9748
-4.4104 3.4828 -3.0000 0.9748
-4.7024 3.0762 -2.9998 0.9748
-4.9572 2.6452 -2.9995 0.9748
-5.1723 2.1933 -2.9992 0.9748
-5.5664 0.7486 -2.9983 0.9749
-5.3430 -1.7229 -2.9969 0.9749
-4.6969 -3.0725 -2.9962 0.9749
-4.4045 -3.4782 -2.9960 0.9749
-3.3286 -4.5175 -2.9956 0.9749
-2.9132 -4.7957 -2.9955 0.9749
-2.4747 -5.0358 -2.9954 0.9749
-2.0166 -5.2360 -2.9953 0.9749
-1.5426 -5.3947 -2.9953 0.9749
-1.0563 -5.5105 -2.9953 0.9749
1.4221 -5.4283 -2.9957 0.9749
2.7911 -4.8343 -2.9800 0.9750
3.5856 -4.2411 -2.9648 0.9751
4.2810 -3.5383 -2.9650 0.9751
4.5810 -3.1447 -2.9663 0.9751
4.8450 -2.7258 -2.9677 0.9751
5.2566 -1.8253 -2.9706 0.9751
5.5025 -0.8652 -2.9736 0.9751
5.5605 -0.3722 -2.9751 0.9750
5.5472 0.6205 -2.9798 0.9750
5.4848 1.1149 -2.9879 0.9749
5.3860 1.6052 -3.0002 0.9748
4.1696 3.7712 -3.0013 0.9748
3.8176 4.1276 -3.0015 0.9748
3.4353 4.4512 -3.0016 0.9748
2.5918 4.9901 -3.0018 0.9748
1.6660 5.3708 -3.0019 0.9748
1.1814 5.4977 -3.0019 0.9748
0.6873 5.5810 -3.0019 0.9748
0.1879 5.6200 -3.0019 0.9748
-0.3131 5.6143 -3.0018 0.9748
-0.8115 5.5640 -3.0017 0.9748
-1.3035 5.4694 -3.0016 0.9748
-1.7850 5.3315 -3.0014 0.9748
-2.2523 5.1512 -3.0013 0.9748
-2.7017 4.9299 -3.0011 0.9748
-3.1295 4.6696 -3.0009 0.9748
-3.5325 4.3722 -3.0007 0.9748
-3.9073 4.0401 -3.0004 0.9748
-4.2510 3.6760 -3.0002 0.9748
-4.8345 2.8635 -2.9996 0.9748
-5.2647 1.9606 -2.9991 0.9748
-5.4177 1.4841 -2.9988 0.9749
-5.3759 -0.4804 -2.9976 0.9756
-5.3113 -0.9569 -2.9974 0.9756
-5.2046 -1.4257 -2.9971 0.9756
-4.0805 -3.5285 -2.9961 0.9756
-3.7500 -3.8775 -2.9959 0.9756
-3.3899 -4.1956 -2.9958 0.9756
-2.5921 -4.7299 -2.9956 0.9756
-2.1607 -4.9417 -2.9955 0.9756
-0.7784 -5.3369 -2.9955 0.9756
0.1802 -5.3905 -2.9955 0.9756
0.6593 -5.3532 -2.9956 0.9756
1.1332 -5.2735 -2.9957 0.9756
1.5981 -5.1519 -2.9959 0.9756
2.0504 -4.9895 -2.9960 0.9756
2.4865 -4.7875 -2.9962 0.9756
3.2668 -4.2329 -2.9697 0.9758
3.6277 -3.9222 -2.9673 0.9759
3.9589 -3.5806 -2.9647 0.9759
4.2636 -3.2154 -2.9659 0.9759
4.7705 -2.4106 -2.9686 0.9758
5.1272 -1.5281 -2.9714 0.9758
5.2454 -1.0662 -2.9728 0.9758
5.3565 -0.1194 -2.9757 0.9758
5.3543 0.3584 -2.9804 0.9757
5.2402 1.3107 -3.0001 0.9756
4.7088 2.6492 -3.0008 0.9756
4.4547 3.0580 -3.0010 0.9756
4.1651 3.4425 -3.0011 0.9756
3.8423 3.7998 -3.0013 0.9756
2.7023 4.6805 -3.0017 0.9756
1.8297 5.0856 -3.0018 0.9756
-0.0602 5.4043 -3.0017 0.9756
-0.5410 5.3774 -3.0016 0.9756
-1.0174 5.3077 -3.0015 0.9756
-1.9422 5.0427 -3.0013 0.9756
-4.2391 3.3476 -3.0000 0.9756
-4.5199 2.9567 -2.9997 0.9756
-4.7648 2.5425 -2.9995 0.9756
-4.9716 2.1081 -2.9992 0.9756
-5.1390 1.6571 -2.9989 0.9756
-5.3504 0.7196 -2.9983 0.9756
-5.3489 -0.7194 -2.9975 0.9756
-5.2632 -1.1925 -2.9972 0.9756
-5.1358 -1.6561 -2.9970 0.9756
-4.9676 -2.1064 -2.9968 0.9756
-4.5147 -2.9534 -2.9963 0.9756
-4.2337 -3.3433 -2.9961 0.9756
-3.9191 -3.7066 -2.9960 0.9756
-3.5735 -4.0406 -2.9958 0.9756
-3.1995 -4.3424 -2.9957 0.9756
-2.8002 -4.6098 -2.9956 0.9756
-2.3788 -4.8406 -2.9955 0.9756
-1.4828 -5.1855 -2.9954 0.9756
-1.0153 -5.2969 -2.9954 0.9756
-0.0601 -5.3931 -2.9955 0.9756
0.8971 -5.3187 -2.9957 0.9756
1.8261 -5.0758 -2.9959 0.9756
2.2707 -4.8933 -2.9961 0.9756
2.6938 -4.6658 -2.9923 0.9757
3.4507 -4.0816 -2.9685 0.9758
4.1153 -3.4014 -2.9653 0.9759
4.4036 -3.0229 -2.9666 0.9759
4.6573 -2.6201 -2.9679 0.9758
4.8743 -2.1962 -2.9693 0.9758
5.0528 -1.7545 -2.9707 0.9758
5.2890 -0.8317 -2.9736 0.9758
5.3446 -0.3578 -2.9750 0.9758
5.3607 0.1198 -2.9780 0.9758
5.3371 0.5970 -2.9827 0.9757
5.2917 1.0756 -2.9991 0.9756
5.0194 1.9977 -3.0004 0.9756
4.8220 2.4367 -3.0006 0.9756
4.3142 3.2535 -3.0010 0.9756
3.6694 3.9673 -3.0014 0.9756
2.9080 4.5554 -3.0016 0.9756
2.4911 4.7963 -3.0017 0.9756
2.0544 4.9990 -3.0018 0.9756
1.1355 5.2842 -3.0018 0.9756
-1.2528 5.2570 -3.0015 0.9756
-1.7157 5.1244 -3.0013 0.9756
-2.5968 4.7385 -3.0010 0.9756
-4.0860 3.5333 -3.0001 0.9756
-4.3839 3.1553 -2.9999 0.9756
-4.6469 2.7523 -2.9996 0.9756
-4.8730 2.3276 -2.9993 0.9756
-5.0603 1.8845 -2.9990 0.9756
-5.1095 -0.9205 -2.9974 0.9763
-5.0068 -1.3715 -2.9972 0.9763
-4.8645 -1.8115 -2.9969 0.9763
-4.6836 -2.2372 -2.9967 0.9763
-4.4656 -2.6450 -2.9965 0.9763
-3.2611 -4.0363 -2.9959 0.9763
-2.4936 -4.5502 -2.9957 0.9763
-2.0787 -4.7540 -2.9956 0.9763
-1.2028 -5.0471 -2.9956 0.9763
-0.2889 -5.1805 -2.9956 0.9763
0.1734 -5.1857 -2.9957 0.9763
1.0901 -5.0732 -2.9958 0.9763
