ply
format ascii 1.0
element vertex 1589
property float32 x
property float32 y
property float32 z
property float32 I
end_header
5.6649 -0.1262 0.4246 0.9775
5.6892 -0.3808 0.4273 0.9774
5.6840 0.1267 0.4261 0.9775
-9.4098 -9.7296 0.7884 0.9472
5.7026 -0.6379 0.3342 0.9773
5.6128 -0.1251 0.3270 0.9778
5.6923 0.3811 0.3323 0.9774
5.8423 -0.9186 0.3445 0.9766
5.6311 0.1255 0.3281 0.9777
5.8125 0.6502 0.3406 0.9768
6.7389 1.3697 0.4005 0.9728
-9.4098 -9.7296 0.5628 0.9473
6.0267 -1.2250 0.2557 0.9757
5.6558 -0.6327 0.2366 0.9775
5.6451 0.3779 0.2352 0.9776
5.9565 0.9366 0.2507 0.9761
5.7847 -0.9096 0.2435 0.9768
5.5901 -0.3742 0.2330 0.9778
6.4027 1.3014 0.2717 0.9742
-9.4099 -9.7297 0.3375 0.9473
5.9669 -1.2128 0.1518 0.9759
5.5429 -0.1235 0.1383 0.9781
5.9083 0.9290 0.1492 0.9764
5.5599 0.1239 0.1387 0.9780
5.7181 0.6397 0.1435 0.9772
-9.4099 -9.7297 0.1125 0.9473
5.9219 -1.2037 0.0502 0.9761
5.8609 0.9216 0.0493 0.9765
2.1641 8.2601 0.0710 0.9664
6.4563 -1.6148 0.0553 0.9737
5.5309 -0.3702 0.0461 0.9781
5.5315 0.1233 0.0460 0.9781
5.6819 0.6356 0.0475 0.9774
5.8776 -1.1947 -0.0498 0.9763
5.5527 0.3717 -0.0463 0.9780
5.8153 0.9144 -0.0489 0.9767
2.1640 8.2600 -0.0710 0.9664
6.3457 -1.5871 -0.0544 0.9742
5.6795 -0.8930 -0.0478 0.9773
5.5018 -0.3683 -0.0458 0.9782
6.1562 1.2513 -0.0522 0.9752
5.8614 -1.1914 -0.1492 0.9764
5.5404 0.3709 -0.1385 0.9780
2.1640 8.2599 -0.2129 0.9664
6.3092 -1.5780 -0.1622 0.9743
5.6663 -0.8910 -0.1430 0.9773
5.4920 0.1224 -0.1370 0.9783
6.1301 1.2460 -0.1560 0.9753
5.8471 -1.1885 -0.2481 0.9764
5.4671 -0.1218 -0.2274 0.9783
5.5307 0.3702 -0.2305 0.9781
5.7886 0.9102 -0.2436 0.9768
6.2741 -1.5692 -0.2689 0.9744
5.6551 -0.8892 -0.2380 0.9773
5.4807 -0.3669 -0.2284 0.9782
5.4830 0.1222 -0.2280 0.9783
5.8329 -1.1856 -0.3467 0.9764
5.4582 -0.1216 -0.3180 0.9784
5.5209 0.3696 -0.3223 0.9781
5.7764 0.9083 -0.3406 0.9768
6.2394 -1.5606 -0.3746 0.9746
5.6440 -0.8875 -0.3328 0.9774
5.4714 -0.3663 -0.3194 0.9783
5.8325 -1.1855 -0.4460 0.9764
5.5284 -0.6184 -0.4169 0.9779
5.4513 -0.1215 -0.4086 0.9784
5.5144 0.3692 -0.4142 0.9781
5.7739 0.9079 -0.4380 0.9768
5.6398 -0.8868 -0.4278 0.9774
5.4645 -0.3658 -0.4104 0.9783
5.4671 0.1218 -0.4098 0.9783
-9.4101 -9.7299 -1.2409 0.9471
5.8469 -1.1884 -0.5470 0.9763
5.5381 -0.6195 -0.5109 0.9779
5.5244 0.3698 -0.5076 0.9780
5.7865 0.9099 -0.5370 0.9767
5.6511 -0.8886 -0.5244 0.9773
5.4740 -0.3664 -0.5030 0.9782
5.4763 0.1221 -0.5022 0.9782
6.1146 1.2429 -0.5720 0.9752
-9.4101 -9.7299 -1.4682 0.9470
5.4695 -0.1219 -0.5934 0.9782
5.5345 0.3705 -0.6016 0.9779
5.7991 0.9119 -0.6367 0.9767
2.1639 8.2595 -0.9261 0.9662
5.4835 -0.3671 -0.5961 0.9781
5.6286 0.6297 -0.6143 0.9775
6.1392 1.2479 -0.6795 0.9751
5.8801 -1.1952 -0.7519 0.9761
5.4786 -0.1221 -0.6867 0.9782
2.1639 8.2595 -1.0700 0.9662
6.4359 -1.6097 -0.8314 0.9736
5.6739 -0.8922 -0.7198 0.9771
5.4932 -0.3677 -0.6899 0.9781
5.4949 0.1225 -0.6888 0.9781
5.9280 -1.2049 -0.8604 0.9759
5.5808 -0.6243 -0.7987 0.9776
2.1638 8.2594 -1.2144 0.9661
5.5129 -0.3690 -0.7859 0.9779
5.5136 0.1229 -0.7844 0.9780
5.6696 0.6343 -0.8114 0.9772
6.2719 1.2748 -0.9103 0.9745
-9.4102 -9.7300 -2.1554 0.9466
5.5263 -0.1231 -0.8802 0.9779
5.5998 0.3749 -0.8937 0.9775
5.9119 0.9296 -0.9530 0.9761
2.1638 8.2593 -1.3596 0.9660
5.5442 -0.3711 -0.8848 0.9777
5.7086 0.6386 -0.9147 0.9770
5.6458 -0.6316 -1.0017 0.9772
5.6333 0.3771 -0.9955 0.9773
5.5745 0.1242 -0.9832 0.9776
-13.2572 -6.3324 -2.8431 0.9419
-12.6461 -7.4903 -2.8443 0.9419
-11.9332 -8.5889 -2.8452 0.9419
-11.0964 -9.5954 -2.8389 0.9420
-9.4103 -9.7301 -2.6195 0.9463
-8.1086 -12.0988 -2.8185 0.9424
-6.9409 -12.6655 -2.7949 0.9429
5.5907 -0.1246 -1.0822 0.9775
5.6760 0.3800 -1.1009 0.9771
6.0675 0.9541 -1.1886 0.9753
-12.9647 -6.9181 -2.8438 0.9419
-12.3020 -8.0476 -2.8448 0.9419
-9.6805 -10.9458 -2.8278 0.9422
-7.5221 -12.3830 -2.8038 0.9427
5.8452 -0.9191 -1.1450 0.9762
5.6138 -0.3758 -1.0888 0.9773
5.6101 0.1250 -1.0859 0.9774
-14.1647 -1.2657 -2.9981 0.9435
-12.5230 -5.9817 -2.9258 0.9448
-10.9446 -7.8774 -2.8429 0.9464
-9.3780 -9.6967 -2.8439 0.9463
-8.4742 -10.4886 -2.8427 0.9464
-7.4997 -11.1903 -2.8400 0.9464
-5.5815 -12.7651 -2.9371 0.9446
-0.7752 -13.9011 -2.9352 0.9447
4.1361 -13.3334 -2.9431 0.9445
5.3112 -12.9241 -2.9458 0.9445
9.5293 -10.3030 -2.9587 0.9442
11.2333 -8.4714 -2.9661 0.9441
13.1074 -5.2166 -2.9741 0.9440
13.5365 -4.0343 -2.9778 0.9439
6.3518 -1.2910 -1.3665 0.9739
5.7590 -0.6442 -1.2217 0.9766
5.7410 0.3843 -1.2130 0.9768
13.8024 3.4522 -2.9995 0.9435
12.9850 5.8508 -3.0025 0.9434
10.9868 9.0809 -3.0050 0.9434
9.2069 10.8900 -3.0064 0.9434
8.2027 11.6685 -3.0070 0.9434
4.5852 12.7449 -2.8555 0.9461
2.1638 8.2590 -1.7999 0.9657
1.0567 13.5230 -2.8596 0.9461
-1.3579 13.4982 -2.8600 0.9461
-2.5541 13.3244 -2.8602 0.9460
-3.7300 13.0446 -2.8603 0.9460
-4.8763 12.6611 -2.8603 0.9460
-7.0437 11.5956 -2.8603 0.9460
-8.9682 10.1405 -2.8539 0.9462
-10.3596 9.7981 -3.0061 0.9434
-11.1880 8.8352 -3.0054 0.9434
-11.9271 7.8024 -3.0047 0.9434
-12.5709 6.7081 -3.0039 0.9434
-13.1144 5.5610 -3.0031 0.9434
-13.8845 3.1458 -3.0013 0.9435
-14.2135 0.6338 -2.9995 0.9435
-14.0919 -1.8951 -2.9976 0.9435
-13.8631 -3.1409 -2.9967 0.9435
-13.5244 -4.3610 -2.9958 0.9436
-13.0787 -5.5458 -2.9949 0.9436
-11.8928 -6.3462 -2.8419 0.9464
-11.2831 -7.3810 -2.8425 0.9464
-6.9899 -11.5069 -2.8384 0.9464
-3.8239 -13.3728 -2.9322 0.9447
-2.6196 -13.6659 -2.9335 0.9447
-1.3933 -13.8497 -2.9345 0.9447
1.0855 -13.8917 -2.9376 0.9446
5.8845 -12.6809 -2.9472 0.9445
9.0555 -10.7108 -2.9569 0.9443
10.8378 -8.9577 -2.9642 0.9441
11.6067 -7.9675 -2.9680 0.9441
13.7112 -3.4294 -2.9796 0.9439
5.6693 0.1264 -1.1955 0.9771
5.8866 0.6585 -1.2488 0.9761
13.6424 4.0659 -3.0011 0.9435
12.0944 7.5325 -3.0038 0.9434
11.3790 8.5813 -3.0046 0.9434
10.5727 9.5624 -3.0054 0.9434
9.6818 10.4679 -3.0060 0.9434
8.7135 11.2905 -3.0067 0.9434
7.6755 12.0235 -3.0072 0.9434
5.4237 13.1980 -3.0082 0.9433
4.0131 12.9372 -2.8556 0.9461
1.6580 13.4620 -2.8595 0.9461
-0.7553 13.5449 -2.8600 0.9461
-4.3074 12.8656 -2.8603 0.9460
-6.5203 11.8980 -2.8603 0.9460
-7.5496 11.2649 -2.8589 0.9461
-8.5122 10.5357 -2.8555 0.9461
-9.9140 10.2510 -3.0064 0.9434
-11.5691 8.3270 -3.0051 0.9434
-13.3472 4.9706 -3.0026 0.9434
-14.0087 2.5238 -3.0009 0.9435
-14.1734 1.2666 -2.9999 0.9435
-13.1394 0.0001 -2.9990 0.9475
-12.2993 -4.5803 -2.9956 0.9476
-11.8396 -5.6553 -2.9948 0.9476
-9.4167 -8.1429 -2.8414 0.9502
-7.8220 -9.6813 -2.8408 0.9502
-6.9244 -10.3318 -2.8388 0.9503
-6.2963 -11.4893 -2.9903 0.9477
-5.1682 -11.8199 -2.9444 0.9484
-4.0829 -12.1950 -2.9353 0.9486
-2.9816 -12.5111 -2.9356 0.9486
-1.8569 -12.7315 -2.9366 0.9486
-0.7167 -12.8534 -2.9383 0.9486
1.5753 -12.7904 -2.9414 0.9485
2.7093 -12.6079 -2.9434 0.9485
3.8236 -12.3260 -2.9456 0.9484
4.9096 -11.9468 -2.9481 0.9484
5.9589 -11.4729 -2.9508 0.9483
8.8058 -9.5207 -2.9600 0.9482
9.6290 -8.7090 -2.9633 0.9481
10.3738 -7.8227 -2.9654 0.9481
12.1064 -4.8182 -2.9740 0.9479
12.7981 -2.6013 -2.9808 0.9478
5.8321 -0.6524 -1.3394 0.9762
5.8079 0.3888 -1.3286 0.9764
6.4173 1.0091 -1.4827 0.9737
12.7408 3.1867 -2.9976 0.9475
12.4190 4.3124 -3.0006 0.9475
11.9925 5.4036 -3.0022 0.9475
11.4670 6.4513 -3.0030 0.9474
9.3618 9.2581 -3.0052 0.9474
8.5024 10.0567 -3.0058 0.9474
2.0835 12.3519 -2.8591 0.9499
-0.1396 12.5271 -2.8594 0.9499
-1.2541 12.4657 -2.8596 0.9499
-4.5033 11.6926 -2.8598 0.9499
-10.3322 8.1593 -3.0049 0.9474
-11.0149 7.2057 -3.0042 0.9474
-12.1119 5.1359 -3.0027 0.9475
-12.5176 4.0365 -3.0019 0.9475
-12.8237 2.9055 -3.0011 0.9475
-13.0277 1.7521 -3.0003 0.9475
-12.0815 -5.1229 -2.9952 0.9476
-10.6156 -6.9443 -2.8953 0.9493
-7.3805 -10.0169 -2.8399 0.9502
-5.7401 -11.6807 -2.9706 0.9480
-4.6222 -12.0011 -2.9353 0.9486
-0.1435 -12.8755 -2.9389 0.9485
3.2694 -12.4792 -2.9444 0.9484
4.3707 -12.1485 -2.9468 0.9484
5.4394 -11.7215 -2.9494 0.9484
6.4672 -11.2015 -2.9522 0.9483
8.3683 -9.8980 -2.9584 0.9482
10.7146 -7.3551 -2.9663 0.9481
11.3366 -6.3779 -2.9689 0.9480
11.8729 -5.3497 -2.9723 0.9480
12.3161 -4.2766 -2.9757 0.9479
6.0441 -0.9504 -1.3965 0.9752
5.7386 -0.3842 -1.3127 0.9767
12.5926 3.7530 -2.9991 0.9475
12.2197 4.8634 -3.0018 0.9475
11.7415 5.9333 -3.0026 0.9475
11.1697 6.9565 -3.0034 0.9474
8.0467 10.4264 -3.0061 0.9474
7.0880 11.1032 -3.0066 0.9474
6.0726 11.6918 -3.0070 0.9474
5.0085 12.1875 -3.0074 0.9474
3.7059 11.9466 -2.8549 0.9500
1.5312 12.4328 -2.8591 0.9499
-0.6975 12.5089 -2.8595 0.9499
-2.9046 12.1882 -2.8598 0.9499
-3.9780 11.8815 -2.8598 0.9499
-5.0197 11.4804 -2.8598 0.9499
-9.9595 8.6124 -3.0052 0.9474
-11.8726 5.6711 -3.0031 0.9474
-12.9386 2.3311 -3.0007 0.9475
-12.2008 0.0000 -2.9990 0.9510
-11.7579 -3.2208 -2.9966 0.9510
-11.4217 -4.2534 -2.9958 0.9510
-10.9950 -5.2518 -2.9950 0.9510
-9.8850 -7.1147 -2.9936 0.9511
-8.9761 -7.7618 -2.9168 0.9523
-7.3392 -9.0837 -2.8705 0.9530
-1.7255 -11.8311 -2.9389 0.9519
-0.6659 -11.9416 -2.9398 0.9519
3.5531 -11.4540 -2.9477 0.9518
5.5367 -10.6600 -2.9526 0.9517
6.4694 -10.1342 -2.9553 0.9517
7.3526 -9.5271 -2.9580 0.9516
8.1774 -8.8413 -2.9602 0.9516
8.9375 -8.0835 -2.9621 0.9516
9.6294 -7.2618 -2.9645 0.9515
10.2482 -6.3826 -2.9676 0.9515
10.7871 -5.4509 -2.9708 0.9514
11.2414 -4.4739 -2.9739 0.9514
11.6074 -3.4593 -2.9771 0.9513
11.8819 -2.4151 -2.9803 0.9513
5.9472 -0.6653 -1.4709 0.9757
5.7872 -0.1290 -1.4229 0.9764
12.0291 1.8915 -2.9931 0.9511
10.0738 6.9153 -3.0034 0.9509
8.6918 8.5955 -3.0047 0.9509
7.8937 9.3368 -3.0053 0.9509
6.1152 10.5919 -3.0062 0.9509
0.9061 11.5956 -2.8589 0.9532
-1.1643 11.5737 -2.8592 0.9532
-3.1982 11.1847 -2.8594 0.9532
-4.1810 10.8558 -2.8594 0.9532
-6.8866 9.3466 -2.8537 0.9533
-8.1007 9.1596 -3.0056 0.9509
-10.7792 5.7520 -3.0031 0.9509
-11.2457 4.7686 -3.0024 0.9509
-11.6226 3.7479 -3.0017 0.9509
-11.9070 2.6978 -3.0009 0.9510
-12.1903 0.5436 -2.9994 0.9510
-12.0871 -1.6255 -2.9977 0.9510
-11.8913 -2.6942 -2.9970 0.9510
-11.6013 -3.7409 -2.9962 0.9510
-10.1933 -6.6680 -2.9940 0.9511
-9.4890 -7.4933 -2.9719 0.9514
-7.6795 -8.6833 -2.8493 0.9534
-7.0446 -9.5610 -2.9191 0.9523
-5.3573 -10.9017 -2.9857 0.9512
-4.3017 -11.1691 -2.9420 0.9519
-2.2506 -11.7411 -2.9385 0.9520
-0.1333 -11.9631 -2.9407 0.9519
3.0382 -11.5967 -2.9467 0.9518
4.0613 -11.2887 -2.9489 0.9518
5.0541 -10.8913 -2.9513 0.9517
6.9177 -9.8406 -2.9567 0.9517
7.7726 -9.1935 -2.9592 0.9516
11.0251 -4.9676 -2.9723 0.9514
11.7562 -2.9404 -2.9787 0.9513
5.8264 -0.3900 -1.4353 0.9762
5.8121 0.1295 -1.4290 0.9763
6.1115 0.6837 -1.5116 0.9750
11.6865 3.4830 -2.9974 0.9510
10.9018 5.5089 -3.0024 0.9509
10.3707 6.4589 -3.0031 0.9509
9.7568 7.3580 -3.0038 0.9509
9.0652 8.1989 -3.0044 0.9509
8.3011 8.9750 -3.0050 0.9509
7.4706 9.6800 -3.0055 0.9509
6.5805 10.3082 -3.0060 0.9509
5.6377 10.8545 -3.0064 0.9509
4.6498 11.3146 -3.0068 0.9509
3.4404 11.0909 -2.8543 0.9533
1.4217 11.5435 -2.8588 0.9532
-0.6476 11.6138 -2.8591 0.9532
-1.6788 11.5107 -2.8592 0.9532
-8.4998 8.7888 -3.0053 0.9509
-9.2467 7.9960 -3.0048 0.9509
-10.5135 6.2272 -3.0035 0.9509
-11.4456 4.2624 -3.0021 0.9509
-11.7766 3.2260 -3.0013 0.9509
-12.0138 2.1644 -3.0005 0.9510
-12.1556 1.0863 -2.9997 0.9510
-10.9686 -3.0046 -2.9967 0.9540
-10.2572 -4.8994 -2.9953 0.9541
-9.7783 -5.7916 -2.9946 0.9541
-9.2220 -6.6375 -2.9940 0.9541
-7.8960 -8.1643 -2.9928 0.9541
-7.1367 -8.8332 -2.9923 0.9541
-4.5100 -10.3145 -2.9663 0.9545
-3.5430 -10.5823 -2.9406 0.9549
-2.5872 -10.8563 -2.9408 0.9549
4.2569 -10.3586 -2.9510 0.9547
6.0349 -9.4533 -2.9552 0.9547
10.4860 -4.1733 -2.9739 0.9544
11.0825 -2.2526 -2.9800 0.9543
6.0824 -0.6804 -1.6127 0.9750
5.8942 -0.1313 -1.5535 0.9759
6.0292 0.4036 -1.5923 0.9753
11.2165 1.7637 -2.9919 0.9541
9.3961 6.4501 -3.0031 0.9540
7.3624 8.7083 -3.0048 0.9539
4.8021 10.3484 -3.0061 0.9539
2.1637 8.2587 -2.2496 0.9653
1.8015 10.6804 -2.8540 0.9562
-2.0426 10.6559 -2.8589 0.9561
-4.7825 9.7321 -2.8573 0.9561
-5.6249 9.2599 -2.8549 0.9562
-6.4830 8.7989 -2.8799 0.9558
-8.2843 7.8353 -3.0046 0.9539
-8.9472 7.0656 -3.0041 0.9539
-9.5387 6.2400 -3.0035 0.9539
-10.0541 5.3651 -3.0028 0.9540
-10.4894 4.4479 -3.0022 0.9540
-10.8411 3.4959 -3.0015 0.9540
-11.3684 -0.5069 -2.9986 0.9540
-11.0929 -2.5133 -2.9971 0.9540
-7.5238 -8.5072 -2.9926 0.9541
-6.7356 -9.1416 -2.9921 0.9541
-5.8944 -9.7034 -2.9916 0.9541
-5.0067 -10.1882 -2.9912 0.9541
-4.0213 -10.4410 -2.9482 0.9548
-3.0681 -10.7298 -2.9406 0.9549
-0.1244 -11.1664 -2.9425 0.9549
0.8703 -11.1378 -2.9438 0.9548
1.8592 -11.0222 -2.9454 0.9548
2.8351 -10.8214 -2.9477 0.9548
3.7898 -10.5341 -2.9499 0.9547
4.7159 -10.1625 -2.9521 0.9547
5.6057 -9.7094 -2.9542 0.9547
7.2481 -8.5731 -2.9582 0.9546
7.9896 -7.9011 -2.9609 0.9546
8.6693 -7.1654 -2.9636 0.9545
5.9407 -0.3977 -1.5689 0.9757
5.9212 0.1320 -1.5606 0.9758
6.3453 0.7098 -1.6824 0.9739
10.5725 4.2078 -2.9984 0.9540
9.6731 6.0245 -3.0028 0.9540
6.9677 9.0284 -3.0051 0.9539
6.1374 9.6142 -3.0055 0.9539
5.2581 10.1236 -3.0059 0.9539
3.2087 10.3439 -2.8537 0.9562
2.2755 10.5892 -2.8539 0.9562
-2.5153 10.5545 -2.8590 0.9561
-4.3460 9.9395 -2.8585 0.9561
-5.2091 9.5054 -2.8561 0.9562
-8.6244 7.4578 -3.0043 0.9539
-9.2522 6.6594 -3.0038 0.9539
-9.8062 5.8082 -3.0032 0.9539
-10.2820 4.9113 -3.0025 0.9540
-10.9848 3.0091 -3.0011 0.9540
-11.2063 2.0190 -3.0004 0.9540
-10.6140 -0.9485 -2.9982 0.9567
-9.6070 -4.5888 -2.9955 0.9567
-9.1584 -5.4245 -2.9949 0.9567
-8.6376 -6.2169 -2.9943 0.9567
-6.6847 -8.2737 -2.9927 0.9568
-5.1104 -9.3253 -2.9919 0.9568
-3.3242 -9.9288 -2.9459 0.9574
-2.4248 -10.1748 -2.9429 0.9575
0.3497 -10.4612 -2.9450 0.9574
1.2800 -10.3931 -2.9463 0.9574
2.2011 -10.2431 -2.9478 0.9574
3.1058 -10.0122 -2.9494 0.9574
3.9872 -9.7022 -2.9513 0.9573
5.6524 -8.8543 -2.9555 0.9573
6.4231 -8.3226 -2.9579 0.9573
7.1443 -7.7243 -2.9604 0.9572
7.8102 -7.0639 -2.9629 0.9572
8.4154 -6.3464 -2.9656 0.9571
8.9551 -5.5772 -2.9683 0.9571
9.8204 -3.9084 -2.9738 0.9570
10.3781 -2.1094 -2.9797 0.9569
6.2497 0.4184 -1.7623 0.9743
10.5009 1.6512 -2.9908 0.9568
10.3211 2.5815 -2.9934 0.9568
9.7149 4.3774 -2.9980 0.9567
9.2931 5.2283 -3.0001 0.9567
8.7989 6.0402 -3.0028 0.9566
8.2280 6.8007 -3.0034 0.9566
2.1637 8.2587 -2.4020 0.9651
1.6869 10.0008 -2.8535 0.9587
0.7915 10.1286 -2.8584 0.9587
-0.1132 10.1589 -2.8584 0.9587
-1.9127 9.9786 -2.8586 0.9587
-2.7933 9.7689 -2.8587 0.9587
-7.7576 7.3371 -3.0042 0.9566
-8.9324 5.8433 -3.0032 0.9566
-9.8230 4.1653 -3.0020 0.9566
-10.1525 3.2738 -3.0013 0.9566
-10.4013 2.3566 -3.0006 0.9567
-10.5673 1.4212 -3.0000 0.9567
-10.5600 -1.4201 -2.9979 0.9567
-9.3920 -5.0117 -2.9952 0.9567
-8.9068 -5.8265 -2.9946 0.9567
-8.3513 -6.5949 -2.9940 0.9567
-7.0472 -7.9683 -2.9929 0.9568
-3.7725 -9.7949 -2.9532 0.9573
-2.8755 -10.0563 -2.9428 0.9575
-1.9692 -10.2733 -2.9431 0.9575
-1.0472 -10.4097 -2.9436 0.9575
0.8156 -10.4375 -2.9456 0.9574
3.5499 -9.8670 -2.9503 0.9574
5.2503 -9.0938 -2.9544 0.9573
6.7902 -8.0315 -2.9591 0.9572
7.4845 -7.4016 -2.9616 0.9572
8.6937 -5.9679 -2.9669 0.9571
9.1989 -5.1752 -2.9696 0.9571
9.6320 -4.3399 -2.9724 0.9571
9.9896 -3.4688 -2.9753 0.9570
10.4669 -1.6458 -2.9811 0.9569
6.1082 -0.4089 -1.7224 0.9749
6.0739 0.1354 -1.7094 0.9751
10.4214 2.1183 -2.9921 0.9568
10.2000 3.0400 -2.9946 0.9567
9.5136 4.8075 -2.9991 0.9567
7.9176 7.1611 -3.0037 0.9566
3.0046 9.6858 -2.8533 0.9587
2.1307 9.9155 -2.8534 0.9587
1.2419 10.0838 -2.8586 0.9587
0.3395 10.1538 -2.8584 0.9587
-2.3554 9.8835 -2.8587 0.9587
-3.2258 9.6349 -2.8587 0.9587
-4.0678 9.3033 -2.8568 0.9587
-6.7120 8.3075 -3.0049 0.9566
-7.4236 7.6760 -3.0045 0.9566
-8.0760 6.9837 -3.0040 0.9566
-10.2871 2.8180 -3.0010 0.9566
-10.6189 0.9489 -2.9996 0.9567
-10.0170 0.0000 -2.9989 0.9590
-9.9750 -0.8914 -2.9982 0.9590
-9.3791 -3.4928 -2.9963 0.9591
-8.6077 -5.0983 -2.9951 0.9591
-7.5646 -6.5413 -2.9940 0.9591
-6.9512 -7.1875 -2.9935 0.9591
-5.5651 -8.3037 -2.9926 0.9591
-4.8034 -8.7650 -2.9923 0.9591
-4.0027 -9.1543 -2.9912 0.9591
-3.1299 -9.3483 -2.9514 0.9597
0.3289 -9.8372 -2.9467 0.9597
1.2036 -9.7727 -2.9479 0.9597
2.0696 -9.6313 -2.9493 0.9597
2.9202 -9.4139 -2.9508 0.9597
5.3139 -8.3241 -2.9566 0.9596
7.3415 -6.6399 -2.9635 0.9595
7.9100 -5.9652 -2.9660 0.9595
9.7524 -1.9822 -2.9794 0.9593
6.2727 -0.1398 -1.8784 0.9741
9.6962 2.4252 -2.9923 0.9591
9.4489 3.2811 -2.9945 0.9591
9.1258 4.1119 -2.9966 0.9591
8.7292 4.9110 -2.9986 0.9590
7.7319 6.3906 -3.0031 0.9590
6.4784 7.6627 -3.0041 0.9590
5.7715 8.2101 -3.0045 0.9590
5.0185 8.6923 -3.0049 0.9590
4.2254 9.1054 -3.0052 0.9590
3.2286 8.9741 -2.8552 0.9610
2.1636 8.2586 -2.5559 0.9650
-0.1064 9.5466 -2.8582 0.9609
-3.4290 8.9033 -2.8563 0.9609
-4.2049 8.5568 -2.8543 0.9610
-4.9463 8.1429 -2.8523 0.9610
-6.6481 7.5172 -3.0043 0.9590
-7.2897 6.8946 -3.0039 0.9590
-7.8732 6.2174 -3.0034 0.9590
-8.3939 5.4911 -3.0029 0.9590
-8.8476 4.7213 -3.0023 0.9590
-9.2309 3.9143 -3.0017 0.9590
-9.5408 3.0765 -3.0011 0.9590
-9.9309 1.3356 -2.9999 0.9590
-10.0081 0.4463 -2.9992 0.9590
-10.0059 -0.4461 -2.9986 0.9590
-9.9244 -1.3347 -2.9979 0.9591
-9.7641 -2.2122 -2.9973 0.9591
-8.3713 -5.4762 -2.9948 0.9591
-7.8492 -6.1984 -2.9943 0.9591
-7.2651 -6.8712 -2.9937 0.9591
-6.6237 -7.4894 -2.9933 0.9591
-5.9299 -8.0481 -2.9928 0.9591
-3.5584 -9.2392 -2.9641 0.9595
-2.7042 -9.4571 -2.9447 0.9598
-0.9848 -9.7893 -2.9455 0.9598
1.6381 -9.7116 -2.9485 0.9597
2.4973 -9.5320 -2.9500 0.9597
4.9361 -8.5495 -2.9555 0.9596
5.6815 -8.0821 -2.9577 0.9596
7.0355 -6.9575 -2.9623 0.9595
8.1713 -5.6093 -2.9673 0.9595
8.6456 -4.8639 -2.9698 0.9594
9.3882 -3.2599 -2.9753 0.9594
9.6500 -2.4136 -2.9780 0.9593
6.3467 0.1414 -1.9005 0.9738
9.9208 1.1098 -2.9886 0.9592
9.2967 3.7000 -2.9956 0.9591
8.5044 5.2966 -2.9995 0.9590
8.0082 6.0393 -3.0028 0.9590
7.4402 6.7293 -3.0034 0.9590
5.4004 8.4596 -3.0047 0.9590
2.8239 9.1036 -2.8535 0.9610
0.3190 9.5420 -2.8583 0.9609
-0.5315 9.5324 -2.8582 0.9609
-1.3779 9.4475 -2.8583 0.9609
-2.2133 9.2876 -2.8584 0.9609
-3.0300 9.0501 -2.8572 0.9609
-3.8209 8.7387 -2.8553 0.9610
-6.3071 7.8064 -3.0045 0.9590
-8.1416 5.8600 -3.0032 0.9590
-8.6293 5.1112 -3.0026 0.9590
-9.3952 3.4988 -3.0014 0.9590
-9.8626 1.7768 -3.0002 0.9590
-9.9794 0.8918 -2.9995 0.9590
-9.1017 -2.4932 -2.9970 0.9612
-8.5121 -4.0658 -2.9959 0.9612
-8.1149 -4.8064 -2.9953 0.9612
-3.7748 -8.6330 -2.9924 0.9612
-2.9548 -8.8255 -2.9558 0.9617
-2.1508 -9.0253 -2.9466 0.9618
2.7540 -8.8780 -2.9521 0.9617
3.5353 -8.6025 -2.9537 0.9617
4.2895 -8.2588 -2.9556 0.9617
5.6936 -7.3774 -2.9596 0.9616
6.3323 -6.8464 -2.9618 0.9616
8.9821 -2.6769 -2.9766 0.9614
9.1927 -1.8685 -2.9791 0.9614
9.3305 -1.0437 -2.9817 0.9614
9.3943 -0.2093 -2.9842 0.9613
9.3833 0.6282 -2.9867 0.9613
9.2975 1.4620 -2.9890 0.9613
9.1373 2.2854 -2.9913 0.9612
8.5992 3.8746 -2.9954 0.9612
8.2252 4.6274 -2.9972 0.9612
7.7940 5.3503 -3.0023 0.9611
6.7241 6.6496 -3.0033 0.9611
3.9827 8.5824 -3.0048 0.9611
2.1636 8.2585 -2.7113 0.9648
0.7010 8.9705 -2.8576 0.9629
-0.1003 8.9989 -2.8581 0.9629
-1.6942 8.8386 -2.8581 0.9629
-2.4729 8.6483 -2.8566 0.9630
-3.2309 8.3889 -2.8549 0.9630
-4.8323 7.9552 -2.9560 0.9617
-5.6115 7.6161 -3.0044 0.9611
-6.2663 7.0855 -3.0040 0.9611
-8.7013 3.6897 -3.0016 0.9611
-8.9934 2.9001 -3.0010 0.9611
-9.2141 2.0877 -3.0004 0.9611
-9.3614 1.2590 -2.9998 0.9611
-9.4324 -0.4206 -2.9986 0.9611
-9.3556 -1.2582 -2.9979 0.9612
-9.2046 -2.0854 -2.9973 0.9612
-8.9807 -2.8958 -2.9967 0.9612
-8.3217 -4.4405 -2.9956 0.9612
-6.2446 -7.0609 -2.9936 0.9612
-4.8925 -8.0541 -2.9928 0.9612
-3.3719 -8.7548 -2.9795 0.9614
-1.7468 -9.1126 -2.9467 0.9618
3.9161 -8.4391 -2.9546 0.9617
5.3574 -7.6211 -2.9585 0.9617
6.6336 -6.5601 -2.9629 0.9616
7.1967 -5.9483 -2.9652 0.9616
8.5340 -3.8452 -2.9727 0.9615
9.0964 -2.2751 -2.9779 0.9614
9.3982 0.2095 -2.9855 0.9613
9.3497 1.0459 -2.9879 0.9613
9.2266 1.8754 -2.9902 0.9613
8.7604 3.4866 -2.9944 0.9612
8.4207 4.2552 -2.9963 0.9612
8.0238 4.9973 -3.0021 0.9611
7.5485 5.6927 -3.0026 0.9611
5.7790 7.4881 -3.0040 0.9611
5.0902 7.9737 -3.0043 0.9611
3.5966 8.7517 -3.0050 0.9611
1.8886 8.7889 -2.8549 0.9630
1.0996 8.9280 -2.8568 0.9630
-0.5010 8.9854 -2.8581 0.9629
-1.2988 8.9052 -2.8581 0.9629
-2.8549 8.5271 -2.8558 0.9630
-4.3160 7.8757 -2.8521 0.9630
-5.2670 7.8589 -3.0045 0.9611
-6.5753 6.7989 -3.0038 0.9611
-7.1533 6.1857 -3.0034 0.9611
-8.8562 3.2981 -3.0013 0.9611
-9.1128 2.4963 -3.0007 0.9611
-9.2970 1.6750 -3.0001 0.9611
-9.4072 0.8407 -2.9995 0.9611
-8.7808 -1.5819 -2.9977 0.9631
-8.6035 -2.3567 -2.9971 0.9631
-8.3580 -3.1125 -2.9965 0.9631
-7.6710 -4.5435 -2.9955 0.9631
-7.2349 -5.2073 -2.9950 0.9631
-6.7417 -5.8297 -2.9945 0.9631
-5.5997 -6.9307 -2.9937 0.9631
-4.2811 -7.8120 -2.9930 0.9631
-3.5685 -8.1612 -2.9927 0.9631
-2.8009 -8.3659 -2.9642 0.9635
-2.0342 -8.5356 -2.9481 0.9637
-1.2665 -8.6838 -2.9485 0.9636
0.2934 -8.7747 -2.9498 0.9636
1.0735 -8.7166 -2.9508 0.9636
1.8458 -8.5899 -2.9519 0.9636
2.6042 -8.3953 -2.9533 0.9636
4.0559 -7.8090 -2.9565 0.9635
5.3832 -6.9752 -2.9603 0.9635
5.9868 -6.4729 -2.9624 0.9635
6.5440 -5.9187 -2.9646 0.9635
8.4900 -2.5303 -2.9765 0.9633
8.6887 -1.7660 -2.9789 0.9633
8.8784 -0.1978 -2.9837 0.9632
8.7862 1.3816 -2.9883 0.9632
8.6344 2.1596 -2.9904 0.9631
8.1253 3.6611 -2.9943 0.9631
6.3553 6.2850 -3.0031 0.9630
5.7715 6.8266 -3.0035 0.9630
3.0275 8.4151 -3.0047 0.9630
2.1520 8.2142 -2.8529 0.9648
1.4132 8.3783 -2.8547 0.9648
0.6622 8.4750 -2.8561 0.9648
-0.0947 8.5028 -2.8569 0.9648
-0.8512 8.4613 -2.8572 0.9648
-1.6006 8.3502 -2.8566 0.9648
-2.3364 8.1709 -2.8553 0.9648
-4.6425 7.6426 -3.0044 0.9630
-5.3037 7.1983 -3.0041 0.9630
-6.4943 6.1423 -3.0033 0.9630
-7.0143 5.5391 -3.0029 0.9630
-7.8827 4.2064 -3.0019 0.9630
-8.5006 2.7411 -3.0009 0.9630
-8.8486 1.1901 -2.9997 0.9630
-8.9177 0.3977 -2.9992 0.9630
-8.9159 -0.3975 -2.9986 0.9630
-8.8434 -1.1893 -2.9980 0.9630
-8.7008 -1.9713 -2.9974 0.9631
-7.4604 -4.8803 -2.9952 0.9631
-6.9952 -5.5240 -2.9947 0.9631
-6.4748 -6.1238 -2.9943 0.9631
-5.2850 -7.1728 -2.9935 0.9631
-4.6251 -7.6139 -2.9931 0.9631
-3.9287 -7.9945 -2.9928 0.9631
-3.1977 -8.3027 -2.9893 0.9632
-2.4174 -8.4539 -2.9542 0.9636
-1.6520 -8.6182 -2.9483 0.9636
-0.8785 -8.7323 -2.9487 0.9636
-0.0978 -8.7779 -2.9494 0.9636
0.6841 -8.7543 -2.9503 0.9636
4.4011 -7.6230 -2.9574 0.9635
6.2715 -6.2020 -2.9635 0.9635
6.8038 -5.6235 -2.9657 0.9634
7.2830 -4.9994 -2.9680 0.9634
7.7052 -4.3349 -2.9704 0.9634
7.9565 4.0206 -2.9952 0.9631
7.5840 4.7234 -3.0019 0.9630
4.8110 7.5363 -3.0040 0.9630
4.1216 7.9354 -3.0043 0.9630
2.5151 8.1078 -2.8521 0.9648
0.2841 8.4975 -2.8566 0.9648
-1.2272 8.4144 -2.8570 0.9648
-1.9706 8.2689 -2.8560 0.9648
-3.4017 7.7799 -2.8528 0.9648
-4.1851 7.6368 -2.9259 0.9639
-4.9780 7.4278 -3.0042 0.9630
-5.6188 6.9545 -3.0039 0.9630
-6.2147 6.4260 -3.0035 0.9630
-6.7610 5.8465 -3.0031 0.9630
-7.6882 4.5538 -3.0022 0.9630
-8.3708 3.1174 -3.0011 0.9630
-8.6135 2.3595 -3.0006 0.9630
-8.7876 1.5832 -3.0000 0.9630
-8.4573 0.0001 -2.9988 0.9647
-8.4222 -0.7526 -2.9983 0.9647
-8.3202 -1.4989 -2.9977 0.9648
-7.6245 -3.6419 -2.9961 0.9648
-6.8558 -4.9344 -2.9952 0.9648
-6.3884 -5.5242 -2.9947 0.9648
-5.8705 -6.0700 -2.9943 0.9648
-5.3063 -6.5676 -2.9939 0.9648
-4.7001 -7.0130 -2.9936 0.9648
-3.3816 -7.7338 -2.9930 0.9648
-2.6659 -7.9627 -2.9775 0.9650
-1.9303 -8.0999 -2.9525 0.9653
-1.2006 -8.2321 -2.9499 0.9653
-0.4632 -8.3077 -2.9504 0.9653
0.2781 -8.3180 -2.9511 0.9653
1.0177 -8.2628 -2.9520 0.9653
2.4686 -7.9579 -2.9544 0.9653
3.1686 -7.7104 -2.9559 0.9652
5.6740 -6.1347 -2.9630 0.9652
6.6813 -5.0386 -2.9673 0.9651
7.1086 -4.4273 -2.9695 0.9651
8.3549 -0.9346 -2.9810 0.9649
8.4008 0.5624 -2.9855 0.9649
8.3233 1.3088 -2.9876 0.9649
7.6964 3.4679 -2.9933 0.9648
7.3701 4.1464 -2.9985 0.9647
6.9797 4.7913 -3.0019 0.9647
6.5266 5.3944 -3.0024 0.9647
6.0214 5.9547 -3.0028 0.9647
5.4682 6.4679 -3.0032 0.9647
4.8714 6.9297 -3.0036 0.9647
4.2357 7.3366 -3.0039 0.9647
2.8683 7.9727 -3.0044 0.9647
0.6272 8.0264 -2.8547 0.9664
-1.5159 7.9082 -2.8552 0.9664
-3.6142 7.3547 -2.9057 0.9658
-5.6114 6.3449 -3.0034 0.9647
-6.1531 5.8196 -3.0031 0.9647
-7.0854 4.6351 -3.0022 0.9647
-8.0543 2.5972 -3.0007 0.9647
-8.3842 1.1276 -2.9997 0.9647
-8.4497 0.3768 -2.9991 0.9647
-8.4481 -0.3767 -2.9986 0.9647
-8.3795 -1.1269 -2.9980 0.9648
-8.2445 -1.8679 -2.9975 0.9648
-8.0440 -2.5938 -2.9969 0.9648
-7.7799 -3.2989 -2.9964 0.9648
-7.4541 -3.9776 -2.9959 0.9648
-6.1355 -5.8029 -2.9945 0.9648
-4.3828 -7.2151 -2.9934 0.9648
-3.0336 -7.8765 -2.9929 0.9648
-2.2935 -8.0209 -2.9581 0.9652
-0.8328 -8.2780 -2.9501 0.9653
-0.0927 -8.3211 -2.9507 0.9653
4.1715 -7.2252 -2.9583 0.9652
4.8009 -6.8294 -2.9601 0.9652
5.9437 -5.8778 -2.9641 0.9651
6.4479 -5.3293 -2.9662 0.9651
6.9017 -4.7378 -2.9684 0.9651
8.1464 -2.0375 -2.9776 0.9650
8.3018 -1.3054 -2.9799 0.9650
8.3915 -0.5617 -2.9822 0.9649
8.4144 0.1875 -2.9844 0.9649
8.3704 0.9364 -2.9865 0.9649
8.0826 2.4089 -2.9906 0.9648
7.5364 3.8083 -2.9941 0.9648
6.7599 5.0979 -3.0022 0.9647
6.2803 5.6802 -3.0026 0.9647
5.7506 6.2175 -3.0030 0.9647
4.5581 7.1403 -3.0037 0.9647
3.2205 7.8368 -3.0043 0.9647
0.9839 7.9890 -2.8542 0.9664
0.2691 8.0476 -2.8551 0.9664
-0.4484 8.0410 -2.8557 0.9664
-1.8663 7.8315 -2.8547 0.9664
-3.2220 7.3689 -2.8518 0.9664
-4.7164 7.0374 -3.0039 0.9647
-5.8881 6.0883 -3.0033 0.9647
-6.4058 5.5393 -3.0029 0.9647
-7.6382 3.6485 -3.0015 0.9647
-8.1613 2.2356 -3.0005 0.9647
-8.3264 1.5001 -2.9999 0.9647
-8.4253 0.7529 -2.9994 0.9647
-7.9009 -1.4234 -2.9978 0.9663
-7.7415 -2.1206 -2.9973 0.9663
-7.5208 -2.8007 -2.9968 0.9663
-7.2405 -3.4584 -2.9963 0.9663
-6.0668 -5.2461 -2.9949 0.9663
-4.4636 -6.6601 -2.9938 0.9663
-3.8527 -7.0302 -2.9935 0.9663
-3.2114 -7.3446 -2.9933 0.9664
-2.5407 -7.5886 -2.9883 0.9664
-1.8356 -7.7026 -2.9568 0.9668
0.2642 -7.9020 -2.9523 0.9668
0.9667 -7.8494 -2.9532 0.9668
1.6621 -7.7349 -2.9543 0.9668
4.2653 -6.6815 -2.9600 0.9667
4.8460 -6.2791 -2.9618 0.9667
5.3891 -5.8266 -2.9637 0.9667
7.1035 -3.5896 -2.9720 0.9666
7.4003 -2.9452 -2.9742 0.9666
7.6387 -2.2766 -2.9764 0.9665
7.9329 -0.8874 -2.9807 0.9665
7.9862 -0.1779 -2.9829 0.9665
7.9759 0.5340 -2.9850 0.9664
7.3062 3.2921 -2.9924 0.9664
7.0051 3.9410 -3.0013 0.9663
6.6275 4.5496 -3.0018 0.9663
6.1972 5.1221 -3.0022 0.9663
5.7174 5.6541 -3.0026 0.9662
4.6254 6.5799 -3.0033 0.9662
3.3862 7.2971 -3.0039 0.9662
1.9531 7.4550 -2.8777 0.9676
0.5953 7.6184 -2.8534 0.9679
-0.0851 7.6429 -2.8541 0.9679
-0.7651 7.6054 -2.8543 0.9679
-2.1005 7.3458 -2.8529 0.9679
-2.7446 7.1263 -2.8516 0.9679
-4.1763 6.8752 -3.0038 0.9662
-5.8424 5.5258 -3.0028 0.9662
-6.3103 4.9832 -3.0025 0.9663
-6.7278 4.4012 -3.0020 0.9663
-7.3993 3.1376 -3.0011 0.9663
-7.8358 1.7754 -3.0001 0.9663
-8.0222 -0.3577 -2.9986 0.9663
-7.8290 -1.7738 -2.9975 0.9663
-7.6387 -2.4631 -2.9970 0.9663
-7.0787 -3.7772 -2.9960 0.9663
-6.7133 -4.3916 -2.9956 0.9663
-6.2949 -4.9709 -2.9951 0.9663
-5.8266 -5.5108 -2.9947 0.9663
-4.1623 -6.8519 -2.9937 0.9663
-3.5356 -7.1946 -2.9934 0.9664
-2.1831 -7.6347 -2.9652 0.9667
-1.4877 -7.7614 -2.9510 0.9668
0.6160 -7.8834 -2.9527 0.9668
1.3157 -7.7998 -2.9537 0.9668
2.0054 -7.6547 -2.9548 0.9668
2.6800 -7.4491 -2.9561 0.9668
3.9623 -6.8629 -2.9592 0.9667
4.5601 -6.4868 -2.9609 0.9667
5.6451 -5.5826 -2.9646 0.9667
6.1238 -5.0614 -2.9666 0.9666
6.5546 -4.4994 -2.9687 0.9666
7.5269 -2.6136 -2.9753 0.9666
7.8827 -1.2395 -2.9797 0.9665
7.9675 -0.5333 -2.9818 0.9665
7.9469 0.8890 -2.9860 0.9664
7.8413 1.5938 -2.9879 0.9664
7.6732 2.2869 -2.9898 0.9664
6.8231 4.2495 -3.0015 0.9663
6.4187 4.8406 -3.0020 0.9663
5.9633 5.3935 -3.0024 0.9663
4.9137 6.3669 -3.0032 0.9662
3.7077 7.1387 -3.0038 0.9662
2.3836 7.6841 -3.0042 0.9662
1.6045 7.4666 -2.8518 0.9679
0.9339 7.5831 -2.8530 0.9679
-0.4256 7.6320 -2.8543 0.9679
-1.1031 7.5634 -2.8541 0.9679
-3.8660 7.0547 -3.0039 0.9662
-5.0547 6.2563 -3.0034 0.9662
-6.5256 4.6968 -3.0022 0.9663
-6.9167 4.0968 -3.0018 0.9663
-7.5311 2.8046 -3.0009 0.9663
-7.7496 2.1229 -3.0004 0.9663
-7.9064 1.4245 -2.9999 0.9663
-7.6093 -0.6799 -2.9983 0.9677
-7.5173 -1.3543 -2.9978 0.9677
-7.3657 -2.0176 -2.9973 0.9677
-7.1558 -2.6648 -2.9968 0.9677
-6.8891 -3.2906 -2.9964 0.9677
-6.5679 -3.8901 -2.9959 0.9677
-5.7725 -4.9916 -2.9951 0.9677
-5.3046 -5.4849 -2.9947 0.9677
-4.2471 -6.3371 -2.9941 0.9678
-3.6659 -6.6894 -2.9938 0.9678
-3.0557 -6.9885 -2.9935 0.9678
-1.7486 -7.3371 -2.9603 0.9681
-0.4189 -7.5118 -2.9528 0.9682
0.2514 -7.5210 -2.9534 0.9682
1.5820 -7.3618 -2.9553 0.9682
2.2318 -7.1946 -2.9564 0.9681
3.4753 -6.6911 -2.9592 0.9681
4.6117 -5.9755 -2.9624 0.9681
5.1283 -5.5447 -2.9642 0.9681
6.0380 -4.5534 -2.9681 0.9680
6.4236 -4.0006 -2.9701 0.9680
7.4368 -1.5116 -2.9784 0.9679
7.5470 -0.8442 -2.9805 0.9679
7.5974 -0.1693 -2.9825 0.9679
7.5873 0.5079 -2.9845 0.9679
7.3863 1.8474 -2.9882 0.9678
6.6646 3.7495 -3.0012 0.9677
4.4005 6.2598 -3.0031 0.9677
3.8262 6.6273 -3.0034 0.9677
3.2215 6.9421 -3.0036 0.9676
2.5910 7.2018 -3.0038 0.9676
1.2084 7.1642 -2.8514 0.9693
-1.3683 7.1385 -2.8526 0.9692
-3.3755 6.8689 -3.0038 0.9676
-3.9732 6.5407 -3.0035 0.9676
-4.5391 6.1606 -3.0033 0.9677
-5.0690 5.7316 -3.0030 0.9677
-6.7471 3.6004 -3.0014 0.9677
-7.2763 2.3463 -3.0005 0.9677
-7.4551 1.6891 -3.0001 0.9677
-7.5746 1.0187 -2.9996 0.9677
-7.6339 0.3404 -2.9991 0.9677
-7.6327 -0.3403 -2.9986 0.9677
-7.4489 -1.6877 -2.9976 0.9677
-7.2680 -2.3436 -2.9971 0.9677
-7.0294 -2.9806 -2.9966 0.9677
-5.9895 -4.7298 -2.9953 0.9677
-5.5440 -5.2434 -2.9949 0.9677
-5.0547 -5.7154 -2.9945 0.9677
-0.7530 -7.4851 -2.9525 0.9682
-0.0838 -7.5238 -2.9531 0.9682
0.5863 -7.5033 -2.9538 0.9682
3.7709 -6.5313 -2.9599 0.9681
4.3396 -6.1732 -2.9616 0.9681
4.8747 -5.7658 -2.9633 0.9681
5.3719 -5.3124 -2.9651 0.9681
6.9068 -3.1120 -2.9732 0.9680
7.1614 -2.4867 -2.9753 0.9679
7.5797 -0.5074 -2.9815 0.9679
7.5999 0.1694 -2.9835 0.9679
7.4590 1.5162 -2.9873 0.9678
6.8123 3.4425 -2.9956 0.9677
6.4914 4.0429 -3.0014 0.9677
6.1067 4.6053 -3.0018 0.9677
5.6733 5.1312 -3.0022 0.9677
2.2676 7.3103 -3.0039 0.9676
1.5450 7.1900 -2.8863 0.9689
-0.4047 7.2581 -2.8530 0.9692
-2.3065 6.8893 -2.8513 0.9693
-3.6780 6.7115 -3.0037 0.9676
-4.2604 6.3570 -3.0034 0.9677
-4.8088 5.9520 -3.0031 0.9677
-5.3190 5.4998 -3.0028 0.9677
-5.7867 5.0040 -3.0025 0.9677
-6.2083 4.4685 -3.0021 0.9677
-6.5805 3.8977 -3.0017 0.9677
-7.5223 1.3552 -2.9998 0.9677
-7.2525 -0.6480 -2.9983 0.9690
-6.5663 -3.1364 -2.9965 0.9690
-6.2601 -3.7079 -2.9961 0.9690
-5.0562 -5.2280 -2.9949 0.9690
-4.5703 -5.6566 -2.9946 0.9690
0.8773 -7.1229 -2.9552 0.9694
2.7310 -6.6454 -2.9585 0.9694
3.3132 -6.3789 -2.9599 0.9694
4.8887 -5.2855 -2.9647 0.9693
5.3429 -4.8324 -2.9665 0.9693
5.7554 -4.3404 -2.9684 0.9693
6.1229 -3.8133 -2.9703 0.9693
6.4423 -3.2554 -2.9723 0.9693
6.7109 -2.6709 -2.9743 0.9692
7.1925 -0.8046 -2.9802 0.9692
7.2403 -0.1613 -2.9822 0.9692
7.2305 0.4841 -2.9840 0.9691
6.8576 2.3812 -2.9892 0.9691
3.0702 6.6161 -3.0034 0.9689
2.4693 6.8635 -3.0036 0.9689
1.1802 6.9966 -2.9218 0.9698
0.5394 6.9032 -2.8513 0.9705
-0.0772 6.9249 -2.8517 0.9705
-0.6932 6.8909 -2.8518 0.9705
-1.3037 6.8011 -2.8515 0.9705
-1.9036 6.6572 -2.8512 0.9705
-2.6217 6.8070 -3.0037 0.9689
-3.2169 6.5463 -3.0035 0.9689
-3.7865 6.2335 -3.0033 0.9689
-4.8309 5.4624 -3.0028 0.9689
-5.2974 5.0103 -3.0024 0.9690
-6.1003 3.9906 -3.0017 0.9690
-6.7093 2.8450 -3.0009 0.9690
-6.9349 2.2362 -3.0004 0.9690
-6.9273 -2.2337 -2.9972 0.9690
-6.7000 -2.8410 -2.9967 0.9690
-6.0883 -3.9828 -2.9958 0.9690
-5.7089 -4.5083 -2.9954 0.9690
-4.8180 -5.4477 -2.9947 0.9690
-4.3135 -5.8543 -2.9944 0.9690
-3.7750 -6.2144 -2.9941 0.9690
-3.2066 -6.5252 -2.9939 0.9690
-1.3529 -7.0578 -2.9592 0.9694
-0.0799 -7.1735 -2.9541 0.9694
0.5590 -7.1539 -2.9548 0.9694
1.1939 -7.0778 -2.9557 0.9694
1.8197 -6.9459 -2.9567 0.9694
2.4317 -6.7590 -2.9579 0.9694
3.0250 -6.5187 -2.9592 0.9694
3.5949 -6.2266 -2.9606 0.9694
4.1370 -5.8850 -2.9622 0.9694
4.6470 -5.4965 -2.9639 0.9693
5.1208 -5.0641 -2.9656 0.9693
5.9450 -4.0810 -2.9693 0.9693
6.2888 -3.5380 -2.9713 0.9693
6.5831 -2.9662 -2.9733 0.9692
7.1472 -1.1238 -2.9792 0.9692
7.2236 -0.4835 -2.9812 0.9692
7.2426 0.1614 -2.9831 0.9691
7.2040 0.8059 -2.9850 0.9691
7.1079 1.4448 -2.9867 0.9691
6.9550 2.0728 -2.9884 0.9691
6.7465 2.6851 -2.9900 0.9691
6.5042 3.2868 -3.0008 0.9690
6.1867 3.8531 -3.0013 0.9690
5.4070 4.8903 -3.0021 0.9690
4.9508 5.3528 -3.0024 0.9690
3.9241 6.1471 -3.0030 0.9689
3.3617 6.4725 -3.0033 0.9689
2.1611 6.9669 -3.0037 0.9689
0.8480 6.8854 -2.8567 0.9704
0.2314 6.9209 -2.8515 0.9705
-0.3856 6.9149 -2.8518 0.9705
-0.9995 6.8529 -2.8517 0.9705
-1.6065 6.7413 -2.8536 0.9705
-4.5830 5.6725 -3.0029 0.9689
-5.0692 5.2415 -3.0026 0.9689
-7.0271 1.9249 -3.0002 0.9690
-7.1694 1.2917 -2.9998 0.9690
-6.9520 0.0000 -2.9988 0.9702
-6.7020 -1.8358 -2.9974 0.9702
-6.2684 -2.9942 -2.9966 0.9702
-5.9763 -3.5397 -2.9962 0.9702
-5.6368 -4.0570 -2.9958 0.9702
-4.3631 -5.4002 -2.9948 0.9702
-3.8648 -5.7666 -2.9945 0.9702
-3.3359 -6.0872 -2.9942 0.9702
-2.2035 -6.5814 -2.9938 0.9702
-1.6002 -6.7147 -2.9776 0.9704
-0.9897 -6.7860 -2.9582 0.9706
1.4402 -6.7022 -2.9571 0.9706
4.6676 -5.0465 -2.9652 0.9705
5.1011 -4.6137 -2.9669 0.9705
5.8455 -3.6406 -2.9705 0.9704
6.1502 -3.1078 -2.9724 0.9704
6.9110 -0.1540 -2.9818 0.9703
6.9014 0.4620 -2.9836 0.9703
6.8369 1.0751 -2.9854 0.9703
6.7178 1.6803 -2.9870 0.9703
6.0633 3.4112 -3.0009 0.9701
5.7364 3.9378 -3.0013 0.9701
4.9485 4.8937 -3.0021 0.9701
4.4938 5.3153 -3.0024 0.9701
3.4808 6.0290 -3.0029 0.9701
2.9306 6.3154 -3.0032 0.9701
2.3570 6.5515 -3.0034 0.9701
1.7646 6.7356 -3.0035 0.9701
1.1582 6.8663 -3.0036 0.9701
0.5277 6.7533 -2.9220 0.9709
-0.0737 6.6143 -2.8533 0.9716
-1.8905 6.6115 -2.9662 0.9705
-3.0707 6.2487 -3.0033 0.9701
-4.6114 5.2142 -3.0026 0.9701
-5.0566 4.7826 -3.0023 0.9701
-5.4616 4.3131 -3.0019 0.9701
-5.8231 3.8094 -3.0016 0.9701
-6.4046 2.7158 -3.0008 0.9701
-6.8915 0.9269 -2.9995 0.9702
-6.9456 0.3098 -2.9990 0.9702
-6.9446 -0.3096 -2.9986 0.9702
-6.7776 -1.5355 -2.9977 0.9702
-6.1284 -3.2702 -2.9964 0.9702
-5.8123 -3.8022 -2.9960 0.9702
-5.4501 -4.3039 -2.9956 0.9702
-3.6039 -5.9328 -2.9943 0.9702
-0.6856 -6.8150 -2.9546 0.9706
1.1400 -6.7586 -2.9566 0.9706
3.9501 -5.6190 -2.9628 0.9705
4.4369 -5.2479 -2.9644 0.9705
5.6757 -3.8961 -2.9696 0.9705
6.0037 -3.3776 -2.9715 0.9704
6.2845 -2.8316 -2.9734 0.9704
6.6956 -1.6746 -2.9772 0.9704
6.9131 0.1541 -2.9828 0.9703
6.8760 0.7692 -2.9845 0.9703
6.6380 1.9784 -2.9878 0.9703
6.2088 3.1375 -3.0007 0.9702
5.9057 3.6781 -3.0011 0.9701
5.5556 4.1897 -3.0015 0.9701
4.7258 5.1096 -3.0022 0.9701
4.2528 5.5105 -3.0025 0.9701
1.4629 6.8077 -3.0036 0.9701
0.8438 6.8513 -2.9777 0.9704
0.2229 6.6674 -2.8776 0.9714
-0.9539 6.5403 -2.8511 0.9716
-1.5628 6.5577 -2.9079 0.9711
-2.2106 6.6028 -3.0035 0.9701
-2.7894 6.3795 -3.0034 0.9701
-3.3459 6.1055 -3.0032 0.9701
-4.8388 5.0034 -3.0024 0.9701
-5.2644 4.5523 -3.0021 0.9701
-5.6480 4.0652 -3.0018 0.9701
-5.9867 3.5460 -3.0014 0.9701
-6.5188 2.4276 -3.0006 0.9702
-6.9255 0.6189 -2.9993 0.9702
-6.6460 0.0000 -2.9988 0.9713
-6.4071 -1.7550 -2.9975 0.9713
-6.2246 -2.3180 -2.9971 0.9713
-5.7134 -3.3840 -2.9963 0.9713
-4.6148 -4.7716 -2.9952 0.9713
-4.1713 -5.1629 -2.9949 0.9713
-2.6585 -6.0800 -2.9942 0.9713
-2.1066 -6.2921 -2.9940 0.9713
-1.5352 -6.4421 -2.9882 0.9714
-0.3647 -6.5403 -2.9557 0.9717
0.2189 -6.5481 -2.9563 0.9717
1.9428 -6.2630 -2.9589 0.9716
2.4935 -6.0676 -2.9600 0.9716
3.5329 -5.5342 -2.9626 0.9716
4.0135 -5.2004 -2.9641 0.9716
4.8772 -4.4112 -2.9673 0.9716
5.2535 -3.9618 -2.9690 0.9715
5.5886 -3.4806 -2.9707 0.9715
5.8797 -2.9711 -2.9725 0.9715
6.6062 -0.1472 -2.9816 0.9714
6.0627 2.7318 -3.0004 0.9712
5.1275 4.2380 -3.0016 0.9712
4.7305 4.6781 -3.0019 0.9712
4.2958 5.0811 -3.0022 0.9712
3.8268 5.4438 -3.0025 0.9712
3.3274 5.7633 -3.0028 0.9712
2.8014 6.0370 -3.0030 0.9712
-0.0733 6.5814 -2.9698 0.9715
-0.6549 6.5099 -2.9522 0.9717
-2.3922 6.2112 -3.0032 0.9712
-2.9354 5.9733 -3.0031 0.9712
-3.9474 5.3574 -3.0027 0.9712
-4.8338 4.5718 -3.0021 0.9712
-5.5666 3.6415 -3.0014 0.9712
-6.1225 2.5962 -3.0007 0.9712
-6.3285 2.0407 -3.0003 0.9712
-6.6389 -0.2960 -2.9986 0.9713
-6.3221 -2.0386 -2.9973 0.9713
-5.8589 -3.1264 -2.9965 0.9713
-5.2105 -4.1146 -2.9957 0.9713
-4.8230 -4.5615 -2.9954 0.9713
-4.3974 -4.9722 -2.9951 0.9713
-2.9268 -5.9558 -2.9943 0.9713
-2.3849 -6.1922 -2.9941 0.9713
-0.0730 -6.5506 -2.9560 0.9717
1.0902 -6.4629 -2.9574 0.9716
2.2203 -6.1714 -2.9594 0.9716
3.7769 -5.3727 -2.9633 0.9716
4.2423 -5.0178 -2.9649 0.9716
5.7398 -3.2291 -2.9716 0.9715
6.4007 -1.6009 -2.9771 0.9715
6.5218 -1.0255 -2.9789 0.9714
6.5911 -0.4412 -2.9807 0.9714
6.6081 0.1473 -2.9824 0.9714
6.5725 0.7353 -2.9841 0.9714
6.3447 1.8909 -2.9873 0.9714
5.3109 4.0052 -3.0014 0.9712
3.5807 5.6091 -3.0026 0.9712
3.0675 5.9060 -3.0029 0.9712
1.3984 6.5076 -3.0034 0.9712
0.8136 6.6064 -3.0034 0.9712
0.2221 6.6438 -2.9994 0.9712
-0.9480 6.5002 -2.9640 0.9716
-2.6664 6.0983 -3.0032 0.9712
-3.7049 5.5282 -3.0028 0.9712
-4.1819 5.1761 -3.0025 0.9712
-5.3992 3.8861 -3.0016 0.9712
-5.7230 3.3897 -3.0013 0.9712
-6.0012 2.8666 -3.0009 0.9712
-6.4126 1.7566 -3.0001 0.9712
-6.3356 -0.5661 -2.9984 0.9723
-6.1332 -1.6800 -2.9975 0.9723
-5.9585 -2.2189 -2.9971 0.9723
-5.7366 -2.7401 -2.9967 0.9723
-5.1586 -3.7129 -2.9960 0.9723
-3.9931 -4.9423 -2.9951 0.9723
-3.0531 -5.5711 -2.9946 0.9723
-2.5449 -5.8203 -2.9944 0.9723
-2.0167 -6.0234 -2.9942 0.9723
-1.4722 -6.1775 -2.9935 0.9723
1.3186 -6.1364 -2.9586 0.9726
2.3874 -5.8094 -2.9606 0.9726
2.8962 -5.5761 -2.9618 0.9726
3.3825 -5.2985 -2.9632 0.9726
5.3499 -3.3319 -2.9709 0.9725
5.6285 -2.8442 -2.9726 0.9725
5.8627 -2.3333 -2.9744 0.9725
6.0507 -1.8033 -2.9761 0.9725
6.1908 -1.2583 -2.9779 0.9725
6.2819 -0.7027 -2.9796 0.9724
6.3231 -0.1409 -2.9813 0.9724
6.3140 0.4227 -2.9829 0.9724
6.1454 1.5371 -2.9860 0.9724
5.2490 3.6032 -3.0011 0.9722
3.1849 5.5165 -3.0026 0.9722
2.6815 5.7784 -3.0028 0.9722
2.1566 5.9945 -3.0030 0.9722
1.0597 6.2824 -3.0032 0.9722
0.4963 6.3520 -3.0033 0.9722
-0.6377 6.3394 -3.0033 0.9722
-2.2897 5.9452 -3.0030 0.9722
-3.3072 5.4444 -3.0027 0.9722
-4.2194 4.7710 -3.0022 0.9722
-5.3283 3.4857 -3.0013 0.9722
-5.6168 2.9972 -3.0010 0.9722
-6.2067 1.4063 -2.9998 0.9723
-6.3550 -0.2833 -2.9986 0.9723
-5.8534 -2.4820 -2.9969 0.9723
-5.6085 -2.9927 -2.9966 0.9723
-5.3192 -3.4796 -2.9962 0.9723
-4.6169 -4.3666 -2.9955 0.9723
-4.2095 -4.7598 -2.9952 0.9723
-1.7463 -6.1071 -2.9942 0.9723
-1.1898 -6.2070 -2.9791 0.9724
-0.6287 -6.2495 -2.9607 0.9726
-0.0699 -6.2722 -2.9568 0.9726
0.4888 -6.2548 -2.9574 0.9726
1.0438 -6.1881 -2.9582 0.9726
3.6160 -5.1438 -2.9638 0.9726
4.0615 -4.8039 -2.9653 0.9726
4.8540 -4.0119 -2.9684 0.9725
5.1947 -3.5659 -2.9701 0.9725
5.4946 -3.0912 -2.9718 0.9725
5.7513 -2.5914 -2.9735 0.9725
6.3087 -0.4223 -2.9804 0.9724
6.3248 0.1410 -2.9821 0.9724
6.2906 0.7037 -2.9837 0.9724
6.2062 1.2615 -2.9853 0.9724
6.0723 1.8098 -2.9867 0.9724
5.0835 3.8337 -3.0013 0.9722
4.7227 4.2714 -3.0016 0.9722
1.8875 6.0848 -3.0030 0.9722
1.3385 6.2289 -3.0032 0.9722
-0.3547 6.3615 -3.0033 0.9722
-0.9195 6.3046 -3.0033 0.9722
-1.4770 6.1976 -3.0032 0.9722
-3.0614 5.5865 -3.0028 0.9722
-3.5463 5.2915 -3.0026 0.9722
-4.8170 4.1654 -3.0018 0.9722
-5.1681 3.7198 -3.0015 0.9722
-5.7443 2.7439 -3.0008 0.9722
-6.1383 1.6815 -3.0000 0.9722
-6.3374 0.5663 -2.9992 0.9723
-6.0719 -0.5425 -2.9984 0.9732
-5.8779 -1.6101 -2.9976 0.9732
-5.7105 -2.1266 -2.9972 0.9732
-3.3900 -5.0582 -2.9950 0.9732
0.2009 -6.0102 -2.9578 0.9735
0.7352 -5.9698 -2.9585 0.9735
2.2885 -5.5687 -2.9612 0.9735
2.7761 -5.3450 -2.9624 0.9735
3.6830 -4.7722 -2.9650 0.9735
4.0952 -4.4276 -2.9664 0.9735
4.4753 -4.0476 -2.9679 0.9735
4.8203 -3.6351 -2.9695 0.9734
5.1275 -3.1934 -2.9711 0.9734
5.3943 -2.7259 -2.9728 0.9734
5.6187 -2.2362 -2.9744 0.9734
5.7987 -1.7282 -2.9761 0.9734
6.0200 -0.6734 -2.9794 0.9734
6.0593 -0.1350 -2.9810 0.9733
5.8886 1.4729 -2.9856 0.9733
5.7410 1.9936 -2.9891 0.9733
5.5615 2.5059 -3.0003 0.9732
5.0302 3.4531 -3.0010 0.9732
4.7035 3.8875 -3.0013 0.9732
3.9405 4.6608 -3.0019 0.9732
3.5103 4.9935 -3.0022 0.9732
2.0667 5.7446 -3.0028 0.9732
1.0155 6.0205 -3.0030 0.9732
0.4756 6.0871 -3.0031 0.9732
-0.0680 6.1054 -3.0031 0.9731
-1.1494 5.9964 -3.0031 0.9732
-2.1943 5.6973 -3.0029 0.9732
-3.1693 5.2174 -3.0025 0.9732
-3.6208 4.9143 -3.0023 0.9732
-4.0435 4.5721 -3.0021 0.9732
-4.7892 3.7820 -3.0015 0.9732
-5.3827 2.8723 -3.0009 0.9732
-5.8053 1.8720 -3.0001 0.9732
-6.0913 0.2716 -2.9990 0.9732
-6.0413 -0.8125 -2.9982 0.9732
-5.9442 -1.3467 -2.9978 0.9732
-5.0979 -3.3349 -2.9963 0.9732
-4.4249 -4.1850 -2.9956 0.9732
-3.6121 -4.9023 -2.9951 0.9732
-3.1612 -5.2040 -2.9949 0.9732
-2.1881 -5.6813 -2.9945 0.9732
-1.1440 -5.9683 -2.9890 0.9733
-0.6031 -5.9952 -2.9637 0.9735
-0.0670 -6.0126 -2.9575 0.9736
1.5250 -5.8210 -2.9597 0.9735
2.5347 -5.4622 -2.9618 0.9735
3.0121 -5.2171 -2.9630 0.9735
3.8929 -4.6045 -2.9657 0.9735
4.2894 -4.2419 -2.9672 0.9735
4.6523 -3.8452 -2.9687 0.9735
5.2661 -2.9626 -2.9719 0.9734
5.7143 -1.9842 -2.9753 0.9734
5.8716 -1.4685 -2.9769 0.9734
5.9823 -0.9406 -2.9786 0.9734
6.0456 -0.4047 -2.9802 0.9734
6.0609 0.1351 -2.9818 0.9733
6.0280 0.6744 -2.9834 0.9733
5.6672 2.2555 -3.0001 0.9732
4.5259 4.0934 -3.0015 0.9732
4.1440 4.4804 -3.0018 0.9732
3.7291 4.8319 -3.0021 0.9732
2.8137 5.4174 -3.0025 0.9732
2.3205 5.6467 -3.0027 0.9732
1.8088 5.8311 -3.0029 0.9732
0.7463 6.0598 -3.0030 0.9732
-0.8812 6.0418 -3.0031 0.9732
-1.4154 5.9392 -3.0030 0.9732
-2.4458 5.5938 -3.0028 0.9732
-3.3985 5.0709 -3.0024 0.9732
-3.8360 4.7479 -3.0022 0.9732
-4.9527 3.5648 -3.0014 0.9732
-5.5050 2.6296 -3.0007 0.9732
-5.7165 2.1289 -3.0003 0.9732
-5.8826 1.6114 -3.0000 0.9732
-5.8493 0.0000 -2.9988 0.9740
-5.8254 -0.5205 -2.9984 0.9741
-5.7552 -1.0368 -2.9980 0.9741
-5.4788 -2.0403 -2.9973 0.9741
-5.2748 -2.5195 -2.9969 0.9741
-5.0290 -2.9787 -2.9966 0.9741
-4.0621 -4.2002 -2.9956 0.9741
-3.6719 -4.5447 -2.9954 0.9741
-1.3541 -5.6818 -2.9945 0.9741
-0.8394 -5.7548 -2.9816 0.9742
0.1928 -5.7676 -2.9585 0.9744
1.2130 -5.6446 -2.9599 0.9744
1.7111 -5.5159 -2.9608 0.9744
2.6639 -5.1288 -2.9629 0.9744
3.1110 -4.8733 -2.9641 0.9743
4.9196 -3.0639 -2.9713 0.9743
5.1755 -2.6153 -2.9729 0.9743
5.5632 -1.6580 -2.9761 0.9742
5.7752 -0.6460 -2.9792 0.9742
5.8128 -0.1295 -2.9808 0.9742
5.8042 0.3886 -2.9823 0.9742
5.7494 0.9041 -2.9838 0.9742
5.3355 2.4041 -3.0002 0.9740
5.1010 2.8698 -3.0006 0.9740
3.3676 4.7905 -3.0020 0.9740
2.9281 5.0716 -3.0023 0.9740
2.4652 5.3124 -3.0024 0.9740
0.9742 5.7757 -3.0028 0.9740
0.4563 5.8396 -3.0029 0.9740
-0.0653 5.8571 -3.0029 0.9740
-0.5863 5.8280 -3.0029 0.9740
-1.6103 5.6315 -3.0028 0.9740
-2.1050 5.4657 -3.0027 0.9740
-2.5830 5.2563 -3.0026 0.9740
-3.4736 4.7145 -3.0022 0.9740
-3.8792 4.3863 -3.0019 0.9740
-4.5946 3.6283 -3.0014 0.9740
-4.8988 3.2047 -3.0011 0.9740
-5.5695 1.7960 -3.0001 0.9740
-5.7982 0.7798 -2.9993 0.9740
-5.8431 -0.2605 -2.9986 0.9741
-5.7960 -0.7795 -2.9982 0.9741
-5.7029 -1.2921 -2.9978 0.9741
-5.1571 -2.7518 -2.9967 0.9741
-4.5864 -3.6218 -2.9961 0.9741
-4.2454 -4.0152 -2.9958 0.9741
-3.4656 -4.7035 -2.9952 0.9741
-3.0330 -4.9929 -2.9950 0.9741
-2.5764 -5.2427 -2.9948 0.9741
-1.6058 -5.6159 -2.9945 0.9741
-1.0994 -5.7354 -2.9939 0.9741
0.4496 -5.7538 -2.9588 0.9744
0.9602 -5.6923 -2.9595 0.9744
1.9554 -5.4351 -2.9613 0.9744
2.4323 -5.2414 -2.9624 0.9744
3.3258 -4.7309 -2.9648 0.9743
4.1157 -4.0701 -2.9675 0.9743
4.4638 -3.6894 -2.9690 0.9743
4.7770 -3.2792 -2.9705 0.9743
5.0525 -2.8425 -2.9721 0.9743
5.2883 -2.3827 -2.9737 0.9743
5.4823 -1.9036 -2.9753 0.9743
5.6330 -1.4089 -2.9769 0.9742
5.8143 0.1296 -2.9816 0.9742
5.7826 0.6469 -2.9830 0.9742
5.5832 1.6641 -2.9867 0.9742
4.9684 3.0944 -3.0007 0.9740
4.3419 3.9271 -3.0014 0.9740
3.5775 4.6355 -3.0019 0.9740
3.1510 4.9360 -3.0022 0.9740
2.6993 5.1971 -3.0024 0.9740
1.7353 5.5940 -3.0027 0.9740
-0.3261 5.8484 -3.0029 0.9740
-0.8453 5.7961 -3.0029 0.9740
-2.3464 5.3663 -3.0026 0.9740
-2.8145 5.1359 -3.0025 0.9740
-4.7514 3.4199 -3.0013 0.9740
-5.2813 2.5227 -3.0006 0.9740
-5.6436 1.5460 -2.9999 0.9740
-5.8269 0.5207 -2.9992 0.9740
-5.6173 0.0000 -2.9988 0.9749
-5.5943 -0.4999 -2.9984 0.9749
-5.5270 -0.9957 -2.9980 0.9749
-5.4158 -1.4835 -2.9977 0.9749
-4.5555 -3.2788 -2.9963 0.9749
-3.5264 -4.3646 -2.9955 0.9749
-2.6962 -4.9200 -2.9951 0.9749
-2.2475 -5.1401 -2.9949 0.9749
-1.7810 -5.3195 -2.9947 0.9749
-1.3004 -5.4567 -2.9946 0.9749
-0.8084 -5.5425 -2.9901 0.9749
-0.3093 -5.5469 -2.9658 0.9751
1.1651 -5.4219 -2.9605 0.9752
1.6435 -5.2982 -2.9614 0.9752
2.9881 -4.6808 -2.9646 0.9751
3.3943 -4.3981 -2.9658 0.9751
3.7739 -4.0803 -2.9671 0.9751
4.4418 -3.3497 -2.9700 0.9751
5.5818 -0.1244 -2.9806 0.9750
5.5207 0.8681 -2.9834 0.9750
5.4240 1.3567 -2.9848 0.9750
5.3083 1.8433 -2.9998 0.9748
5.1238 2.3087 -3.0002 0.9748
4.8985 2.7559 -3.0005 0.9748
3.2339 4.6003 -3.0019 0.9748
2.8118 4.8702 -3.0021 0.9748
2.3673 5.1014 -3.0023 0.9748
0.9355 5.5463 -3.0027 0.9748
0.4382 5.6076 -3.0027 0.9748
-0.0627 5.6245 -3.0028 0.9748
-1.0589 5.5242 -3.0027 0.9748
-2.0214 5.2486 -3.0025 0.9748
-2.4805 5.0476 -3.0024 0.9748
-2.9197 4.8065 -3.0022 0.9748
-3.3357 4.5273 -3.0020 0.9748
-3.7251 4.2121 -3.0018 0.9748
-4.4122 3.4843 -3.0013 0.9748
-5.1744 2.1941 -3.0004 0.9748
-5.3485 1.7247 -3.0000 0.9748
-5.4801 1.2417 -2.9997 0.9748
-5.6121 0.2503 -2.9989 0.9748
-5.6114 -0.2502 -2.9986 0.9749
-5.5662 -0.7485 -2.9982 0.9749
-5.4768 -1.2408 -2.9978 0.9749
-5.3440 -1.7232 -2.9975 0.9749
-4.9526 -2.6428 -2.9968 0.9749
-4.4047 -3.4783 -2.9962 0.9749
-3.7175 -4.2033 -2.9956 0.9749
-3.3283 -4.5172 -2.9954 0.9749
-2.0163 -5.2350 -2.9948 0.9749
-1.0560 -5.5091 -2.9946 0.9749
-0.0618 -5.5496 -2.9628 0.9751
0.4319 -5.5268 -2.9595 0.9752
0.9223 -5.4677 -2.9601 0.9752
2.7761 -4.8083 -2.9640 0.9751
3.1943 -4.5439 -2.9652 0.9751
4.2871 -3.5434 -2.9692 0.9751
5.5113 -0.8666 -2.9783 0.9750
5.5832 0.1245 -2.9813 0.9750
5.4778 1.1134 -2.9841 0.9750
4.7712 2.9716 -3.0007 0.9748
4.1696 3.7712 -3.0013 0.9748
3.4355 4.4515 -3.0018 0.9748
3.0258 4.7400 -3.0020 0.9748
1.6663 5.3719 -3.0025 0.9748
1.1817 5.4990 -3.0026 0.9748
0.6876 5.5825 -3.0027 0.9748
-0.3131 5.6161 -3.0028 0.9748
-2.2532 5.1532 -3.0025 0.9748
-3.5340 4.3741 -3.0019 0.9748
-3.9089 4.0419 -3.0017 0.9748
-4.2528 3.6776 -3.0014 0.9748
-5.2667 1.9613 -3.0002 0.9748
-5.5297 0.9962 -2.9995 0.9748
-5.5957 0.5001 -2.9991 0.9748
-5.3993 0.0000 -2.9988 0.9756
-5.3125 -0.9571 -2.9981 0.9756
-5.2056 -1.4259 -2.9977 0.9756
-5.0575 -1.8834 -2.9974 0.9756
-4.8692 -2.3258 -2.9970 0.9756
-4.6424 -2.7497 -2.9967 0.9756
-4.0805 -3.5285 -2.9961 0.9756
-3.7499 -3.8773 -2.9959 0.9756
-3.3897 -4.1954 -2.9956 0.9756
-3.0026 -4.4801 -2.9954 0.9756
-2.5917 -4.7293 -2.9952 0.9756
-1.7120 -5.1133 -2.9949 0.9756
-0.7782 -5.3355 -2.9947 0.9756
0.1782 -5.3311 -2.9626 0.9759
1.5800 -5.0935 -2.9619 0.9759
2.0277 -4.9342 -2.9628 0.9759
2.8725 -4.4997 -2.9650 0.9759
3.6279 -3.9224 -2.9674 0.9758
3.9644 -3.5855 -2.9688 0.9758
4.5416 -2.8285 -2.9716 0.9758
4.7776 -2.4142 -2.9730 0.9758
4.9760 -1.9804 -2.9745 0.9758
5.1351 -1.5304 -2.9760 0.9758
5.3304 -0.5963 -2.9789 0.9758
5.3649 -0.1195 -2.9804 0.9757
5.3567 0.3586 -2.9818 0.9757
5.3059 0.8344 -2.9831 0.9757
4.7083 2.6489 -3.0004 0.9756
4.4543 3.0578 -3.0007 0.9756
4.1649 3.4424 -3.0010 0.9756
3.8423 3.7998 -3.0013 0.9756
3.4892 4.1271 -3.0015 0.9756
2.7026 4.6810 -3.0020 0.9756
2.2753 4.9032 -3.0022 0.9756
0.4212 5.3898 -3.0026 0.9756
-0.0602 5.4059 -3.0026 0.9756
-2.3841 4.8515 -3.0022 0.9756
-2.8063 4.6198 -3.0021 0.9756
-3.2061 4.3514 -3.0019 0.9756
-3.5804 4.0485 -3.0017 0.9756
-3.9263 3.7135 -3.0015 0.9756
-4.7665 2.5435 -3.0006 0.9756
-5.1409 1.6577 -3.0000 0.9756
-5.2674 1.1935 -2.9996 0.9756
-5.3521 0.7198 -2.9993 0.9756
-5.3943 0.2406 -2.9989 0.9756
-5.3936 -0.2405 -2.9986 0.9756
-5.1367 -1.6563 -2.9975 0.9756
-4.5151 -2.9536 -2.9966 0.9756
-4.2339 -3.3434 -2.9963 0.9756
-3.1993 -4.3421 -2.9955 0.9756
-2.7999 -4.6093 -2.9953 0.9756
-2.3784 -4.8399 -2.9951 0.9756
-1.9381 -5.0321 -2.9950 0.9756
-1.4825 -5.1844 -2.9948 0.9756
0.4152 -5.3134 -2.9601 0.9759
0.8867 -5.2566 -2.9607 0.9759
1.3514 -5.1581 -2.9615 0.9759
1.8056 -5.0188 -2.9624 0.9759
3.4488 -4.0792 -2.9668 0.9759
4.1211 -3.4062 -2.9695 0.9758
4.6642 -2.6240 -2.9723 0.9758
5.1995 -1.3004 -2.9767 0.9758
5.2972 -0.8329 -2.9782 0.9758
5.3661 0.1196 -2.9811 0.9757
5.3366 0.5971 -2.9824 0.9757
5.2646 1.0701 -2.9838 0.9757
5.1708 1.5411 -2.9967 0.9756
