ply
format ascii 1.0
element vertex 1590
property float32 x
property float32 y
property float32 z
property float32 I
end_header
5.5272 -0.3700 0.9768 0.9778
2.4244 7.8154 1.4428 0.9673
5.2074 -0.5825 0.8344 0.9790
5.1819 -1.2961 0.8506 0.9786
5.1241 -0.5732 0.7334 0.9794
5.4434 -0.1213 0.7744 0.9782
5.0844 -1.2717 0.7455 0.9790
5.0603 -0.7957 0.7286 0.9795
5.2412 -0.3509 0.7472 0.9790
5.0902 -1.5170 0.6656 0.9788
4.9691 -1.0100 0.6354 0.9798
5.0441 -0.5643 0.6361 0.9797
5.3307 -0.1188 0.6682 0.9787
4.9817 -0.7833 0.6320 0.9799
4.9953 -1.4887 0.5654 0.9792
4.9015 -0.9963 0.5425 0.9801
5.2287 -0.1165 0.5673 0.9792
5.1658 -1.7938 0.5931 0.9782
5.0738 -0.3396 0.5516 0.9797
5.5021 0.1226 0.5969 0.9781
2.4241 7.8146 0.8875 0.9676
5.4857 -2.1833 0.5413 0.9766
4.9369 -1.4713 0.4723 0.9795
4.8549 -0.9868 0.4542 0.9803
5.1670 -0.1151 0.4738 0.9795
6.0088 0.4022 0.5521 0.9761
4.8736 -1.2190 0.4606 0.9800
4.8686 -0.7655 0.4518 0.9804
5.4051 0.1204 0.4957 0.9785
5.2986 -2.1088 0.4274 0.9774
4.8800 -1.4544 0.3816 0.9798
4.8813 -0.5461 0.3681 0.9805
5.1070 -0.1138 0.3828 0.9797
4.8231 -0.7584 0.3659 0.9806
4.9713 -0.3328 0.3734 0.9802
5.3253 0.1187 0.3992 0.9789
4.7647 -0.9685 0.2832 0.9807
4.7769 -1.1948 0.2868 0.9805
4.7785 -0.7514 0.2817 0.9808
2.4240 7.8141 0.4765 0.9678
5.0999 -2.0297 0.2282 0.9783
4.8070 -0.5377 0.2011 0.9808
5.0082 -0.1116 0.2083 0.9801
4.8822 -1.6953 0.2149 0.9795
4.7505 -0.7470 0.1999 0.9809
4.8893 -0.3273 0.2037 0.9806
2.4239 7.8139 0.3402 0.9678
4.9767 -0.1109 0.1241 0.9803
5.4602 0.3655 0.1365 0.9783
4.7263 -0.7432 0.1193 0.9810
4.8624 -0.3255 0.1215 0.9807
2.4238 7.8137 0.2040 0.9678
4.7277 -1.4090 0.0410 0.9805
4.6881 -0.9529 0.0398 0.9810
4.7579 -0.5322 0.0398 0.9810
4.9457 -0.1102 0.0411 0.9804
4.8178 -1.6729 0.0424 0.9798
4.6942 -1.1741 0.0402 0.9808
4.7023 -0.7394 0.0396 0.9811
4.9501 -1.9701 -0.0443 0.9789
4.7337 -0.5296 -0.0396 0.9811
4.9150 -0.1095 -0.0409 0.9805
5.4321 -2.4476 -0.0495 0.9764
4.7871 -1.6622 -0.0421 0.9799
4.6689 -1.1678 -0.0400 0.9809
4.6785 -0.7357 -0.0394 0.9812
4.8097 -0.3220 -0.0401 0.9809
5.0855 0.1133 -0.0423 0.9799
4.9320 -1.9629 -0.1324 0.9790
4.6865 -1.3967 -0.1220 0.9806
4.6523 -0.9456 -0.1184 0.9812
4.9006 -0.1092 -0.1222 0.9806
4.7726 -1.6572 -0.1260 0.9800
4.6664 -0.7338 -0.1178 0.9813
4.7964 -0.3211 -0.1199 0.9809
5.0695 0.1130 -0.1265 0.9799
6.1217 0.6848 -0.1536 0.9757
4.9189 -1.9577 -0.2201 0.9790
5.3137 0.3557 -0.2214 0.9789
4.7626 -1.6538 -0.2096 0.9800
4.6587 -0.7325 -0.1961 0.9813
4.7879 -0.3205 -0.1995 0.9810
5.0590 0.1127 -0.2104 0.9799
5.9431 0.6648 -0.2487 0.9763
2.4236 7.8130 -0.3401 0.9678
4.6697 -1.3917 -0.2838 0.9807
4.6369 -0.9425 -0.2756 0.9812
4.8830 -0.1088 -0.2845 0.9806
5.2996 0.3548 -0.3094 0.9789
4.7527 -1.6503 -0.2930 0.9800
4.6397 -1.1605 -0.2786 0.9810
4.6510 -0.7313 -0.2742 0.9813
4.7795 -0.3199 -0.2790 0.9810
5.0484 0.1125 -0.2941 0.9800
5.8993 0.6599 -0.3457 0.9765
4.8929 -1.9473 -0.3946 0.9791
4.6980 -0.5255 -0.3543 0.9812
4.8742 -0.1086 -0.3654 0.9806
5.2966 -2.3865 -0.4354 0.9770
4.7428 -1.6469 -0.3762 0.9801
4.6315 -1.1584 -0.3578 0.9810
5.0379 0.1123 -0.3776 0.9800
5.8898 0.6588 -0.4441 0.9765
4.8746 -0.1086 -0.4470 0.9806
5.2975 0.3546 -0.4867 0.9789
5.3355 -2.4040 -0.5365 0.9768
4.7465 -1.6482 -0.4606 0.9800
4.6305 -1.1582 -0.4376 0.9810
5.9372 0.6642 -0.5477 0.9763
4.6702 -1.3919 -0.5286 0.9806
4.6350 -0.9421 -0.5130 0.9811
4.7039 -0.5262 -0.5134 0.9811
4.8836 -0.1088 -0.5298 0.9805
5.3750 -2.4219 -0.6395 0.9766
4.6386 -1.1602 -0.5186 0.9809
4.6488 -0.7310 -0.5104 0.9812
4.7784 -0.3199 -0.5195 0.9809
4.9299 -1.9621 -0.6649 0.9788
4.6786 -1.3944 -0.6118 0.9805
4.7118 -0.5271 -0.5941 0.9811
5.3268 0.3566 -0.6690 0.9787
5.4165 -2.4405 -0.7445 0.9763
4.7664 -1.6551 -0.6323 0.9799
4.6469 -1.1622 -0.6003 0.9809
4.6565 -0.7322 -0.5907 0.9812
2.4233 7.8121 -1.0250 0.9676
4.9477 -1.9691 -0.7574 0.9787
4.6872 -1.3969 -0.6957 0.9804
4.6506 -0.9453 -0.6750 0.9810
4.9016 -0.1092 -0.6974 0.9804
5.3472 0.3579 -0.7623 0.9786
4.7765 -1.6586 -0.7192 0.9798
4.6552 -1.1644 -0.6825 0.9808
5.0744 0.1131 -0.7219 0.9797
2.4233 7.8119 -1.1634 0.9675
4.9918 -1.9867 -0.8555 0.9785
4.7040 -1.4020 -0.7816 0.9803
4.7305 -0.5292 -0.7580 0.9809
4.6684 -1.1677 -0.7663 0.9807
4.6741 -0.7350 -0.7534 0.9810
4.8096 -0.3220 -0.7676 0.9807
5.1034 0.1137 -0.8128 0.9795
5.0509 -2.0102 -0.9585 0.9782
4.7355 -1.4113 -0.8713 0.9801
4.6867 -0.9526 -0.8433 0.9808
4.7566 -0.5321 -0.8439 0.9807
5.4758 0.3666 -0.9677 0.9780
4.8366 -1.6795 -0.9028 0.9794
4.6958 -1.1745 -0.8535 0.9805
4.6997 -0.7390 -0.8389 0.9809
5.1396 0.1145 -0.9065 0.9793
2.4232 7.8115 -1.4421 0.9673
-13.1823 -6.2967 -2.8271 0.9422
-11.8652 -8.5400 -2.8290 0.9422
-11.0568 -9.5612 -2.8287 0.9422
-9.1222 -11.2907 -2.8090 0.9426
5.1166 -2.0364 -1.0657 0.9778
4.7678 -1.4209 -0.9627 0.9799
4.7127 -0.9579 -0.9306 0.9806
-13.4472 -5.7021 -2.8266 0.9422
-12.8912 -6.8789 -2.8276 0.9422
-12.2319 -8.0018 -2.8286 0.9422
4.8708 -1.6913 -0.9978 0.9792
4.7257 -0.7431 -0.9257 0.9807
5.1812 0.1155 -1.0029 0.9791
-14.1517 0.0000 -2.9835 0.9438
-10.1464 -8.7740 -2.8279 0.9466
-7.7439 -11.5548 -2.9325 0.9447
-5.5540 -12.7023 -2.9227 0.9449
-3.2185 -13.5056 -2.9270 0.9448
-2.0054 -13.7498 -2.9294 0.9448
0.4653 -13.9157 -2.9353 0.9447
1.7040 -13.8355 -2.9388 0.9446
2.9325 -13.6466 -2.9426 0.9445
4.1412 -13.3500 -2.9467 0.9445
5.3208 -12.9474 -2.9511 0.9444
8.5936 -11.1351 -2.9653 0.9441
9.5668 -10.3435 -2.9703 0.9440
11.2834 -8.5092 -2.9794 0.9439
5.2498 -2.0894 -1.1912 0.9772
4.8007 -1.4308 -1.0561 0.9797
4.8099 -0.5381 -1.0204 0.9804
5.7064 0.3820 -1.2057 0.9769
14.1345 2.2226 -3.0165 0.9432
13.8860 3.4731 -3.0176 0.9432
13.5263 4.6968 -3.0186 0.9431
13.0583 5.8838 -3.0195 0.9431
12.4857 7.0243 -3.0202 0.9431
11.8130 8.1091 -3.0207 0.9431
4.6020 12.7916 -2.8659 0.9459
-0.1514 13.5912 -2.8655 0.9460
-2.5567 13.3380 -2.8631 0.9460
-4.8765 12.6617 -2.8605 0.9460
-11.1559 8.8098 -2.9968 0.9435
-11.8879 7.7767 -2.9948 0.9436
-13.8201 3.1312 -2.9874 0.9437
-14.1343 -0.6303 -2.9827 0.9438
-13.4496 -4.3370 -2.9792 0.9439
-12.7079 -5.3887 -2.9100 0.9451
-11.8289 -6.3121 -2.8266 0.9467
-11.2237 -7.3422 -2.8275 0.9466
-10.5279 -8.3138 -2.8281 0.9466
-8.3486 -11.3308 -2.9672 0.9441
-7.1954 -11.8452 -2.9218 0.9449
-4.9849 -12.9431 -2.9240 0.9449
-3.8156 -13.3440 -2.9259 0.9448
-1.3915 -13.8318 -2.9307 0.9448
2.3201 -13.7546 -2.9407 0.9446
4.7352 -13.1618 -2.9489 0.9444
7.0155 -12.1511 -2.9580 0.9443
10.0266 -9.9155 -2.9729 0.9440
10.8870 -8.9984 -2.9777 0.9439
12.3376 -6.9410 -2.9844 0.9438
4.9231 -1.7095 -1.0987 0.9789
5.2402 0.1168 -1.1050 0.9788
14.2141 1.5901 -3.0153 0.9432
14.0243 2.8505 -3.0171 0.9432
10.6283 9.6127 -3.0212 0.9431
8.7555 11.3448 -3.0211 0.9431
6.6036 12.7143 -3.0204 0.9431
2.4230 7.8111 -1.7242 0.9671
2.8580 13.3001 -2.8679 0.9459
1.6624 13.4973 -2.8670 0.9459
0.4543 13.5870 -2.8660 0.9459
-1.9604 13.4416 -2.8637 0.9460
-4.3087 12.8694 -2.8612 0.9460
-6.5142 11.8869 -2.8576 0.9461
-7.5337 11.2411 -2.8529 0.9462
-8.9483 11.0754 -3.0018 0.9435
-9.8920 10.2283 -2.9998 0.9435
-11.5334 8.3013 -2.9958 0.9436
-13.2913 4.9497 -2.9901 0.9437
-13.6709 3.7448 -2.9883 0.9437
-13.9420 2.5118 -2.9866 0.9437
-14.1026 1.2602 -2.9850 0.9438
-13.0765 0.0000 -2.9846 0.9478
-12.8588 -2.3166 -2.9822 0.9478
-10.0533 -7.2359 -2.8272 0.9504
-8.7738 -9.0721 -2.8806 0.9495
-8.2003 -10.1496 -2.9782 0.9479
-5.1369 -11.7484 -2.9266 0.9488
-4.0727 -12.1647 -2.9280 0.9487
-0.7160 -12.8418 -2.9356 0.9486
1.5755 -12.7920 -2.9418 0.9485
3.8281 -12.3406 -2.9491 0.9484
4.9180 -11.9672 -2.9531 0.9483
6.9822 -10.9374 -2.9617 0.9482
7.9401 -10.2883 -2.9662 0.9481
5.4745 -2.1788 -1.3448 0.9761
4.7758 -0.9707 -1.1123 0.9802
4.8474 -0.5422 -1.1133 0.9802
5.0873 -0.1134 -1.1614 0.9793
12.8198 3.2064 -3.0162 0.9472
12.4874 4.3361 -3.0171 0.9472
12.0551 5.4318 -3.0179 0.9472
10.9051 7.4859 -3.0190 0.9472
10.1966 8.4277 -3.0193 0.9472
9.4065 9.3022 -3.0195 0.9472
8.5412 10.1025 -3.0195 0.9472
7.6076 10.8220 -3.0193 0.9472
6.6135 11.4549 -3.0190 0.9472
4.2485 11.8089 -2.8644 0.9498
3.1839 12.1527 -2.8674 0.9498
2.0889 12.3838 -2.8665 0.9498
-1.2558 12.4829 -2.8635 0.9498
-2.3609 12.3168 -2.8624 0.9498
-4.5035 11.6931 -2.8600 0.9499
-6.4909 10.6855 -2.8536 0.9500
-7.5562 10.2554 -2.9075 0.9491
-10.3048 8.1376 -2.9969 0.9476
-10.9815 7.1838 -2.9951 0.9476
-11.5703 6.1741 -2.9933 0.9476
-12.4674 4.0202 -2.9899 0.9477
-12.4291 -4.0079 -2.9807 0.9478
-9.7297 -7.6835 -2.8297 0.9504
-8.6336 -9.7621 -2.9745 0.9479
-6.6661 -10.9739 -2.9306 0.9487
-5.6543 -11.5062 -2.9262 0.9488
-3.5282 -12.3388 -2.9291 0.9487
-1.2868 -12.7913 -2.9343 0.9486
-0.1433 -12.8671 -2.9370 0.9486
1.0035 -12.8423 -2.9401 0.9485
2.1451 -12.7166 -2.9435 0.9485
4.3770 -12.1660 -2.9510 0.9483
6.4832 -11.2292 -2.9595 0.9482
8.3971 -9.9321 -2.9685 0.9480
9.2598 -9.1572 -2.9724 0.9480
10.0482 -8.3049 -2.9754 0.9479
11.9356 -5.3779 -2.9880 0.9477
4.7872 -0.7528 -1.1061 0.9803
5.3333 0.1188 -1.2176 0.9784
12.6663 3.7749 -3.0167 0.9472
12.2836 4.8888 -3.0175 0.9472
10.5614 7.9647 -3.0192 0.9472
9.8114 8.8738 -3.0194 0.9472
8.0825 10.4728 -3.0194 0.9472
7.1176 11.1496 -3.0192 0.9472
6.0962 11.7372 -3.0187 0.9472
4.7709 11.6093 -2.8648 0.9498
2.6390 12.2808 -2.8670 0.9498
1.5349 12.4626 -2.8660 0.9498
-1.8103 12.4122 -2.8630 0.9498
-5.0188 11.4782 -2.8593 0.9499
-6.0131 10.9725 -2.8558 0.9500
-8.2645 10.2292 -3.0015 0.9475
-9.1366 9.4472 -2.9997 0.9475
-10.6538 7.6681 -2.9960 0.9476
-11.2872 6.6854 -2.9942 0.9476
-12.8816 2.3207 -2.9875 0.9477
-13.0306 1.1644 -2.9860 0.9477
-12.0935 -1.0807 -2.9844 0.9512
-11.9450 -2.1520 -2.9834 0.9512
-11.7024 -3.2056 -2.9824 0.9512
-11.3675 -4.2333 -2.9816 0.9513
-10.9431 -5.2271 -2.9809 0.9513
-10.4325 -6.1792 -2.9804 0.9513
-9.1696 -7.9293 -2.9797 0.9513
-8.4272 -8.7137 -2.9796 0.9513
-6.7061 -10.0062 -2.9608 0.9516
-3.7860 -11.3083 -2.9312 0.9521
-2.7661 -11.6070 -2.9329 0.9520
1.4642 -11.8886 -2.9443 0.9519
3.5571 -11.4670 -2.9511 0.9517
4.5694 -11.1190 -2.9548 0.9517
7.3726 -9.5530 -2.9661 0.9515
8.2019 -8.8678 -2.9691 0.9515
9.6689 -7.2917 -2.9767 0.9513
10.2939 -6.4111 -2.9808 0.9513
10.8387 -5.4770 -2.9850 0.9512
4.9256 -1.4680 -1.2633 0.9791
4.8276 -0.9812 -1.2109 0.9799
4.9000 -0.5481 -1.2119 0.9799
5.1575 -0.1149 -1.2680 0.9790
12.2106 0.8174 -3.0081 0.9508
12.1023 1.9030 -3.0113 0.9508
11.8966 2.9755 -3.0143 0.9507
11.5904 4.0246 -3.0158 0.9507
10.1213 6.9479 -3.0176 0.9507
8.7303 8.6336 -3.0180 0.9507
7.0608 10.0441 -3.0178 0.9507
5.1316 11.0583 -2.9965 0.9510
3.9432 10.9604 -2.8631 0.9532
1.9392 11.4961 -2.8657 0.9531
0.9079 11.6193 -2.8647 0.9531
-1.1658 11.5886 -2.8628 0.9532
-3.1996 11.1898 -2.8607 0.9532
-4.1812 10.8562 -2.8595 0.9532
-8.0869 9.1440 -3.0005 0.9510
-8.8636 8.3832 -2.9988 0.9510
-9.5691 7.5567 -2.9971 0.9510
-10.1980 6.6712 -2.9954 0.9510
-11.2069 4.7522 -2.9921 0.9511
-11.8597 2.6871 -2.9890 0.9511
-12.1320 -0.5410 -2.9850 0.9512
-12.0311 -1.6180 -2.9839 0.9512
-11.5463 -3.7232 -2.9820 0.9513
-11.1663 -4.7349 -2.9812 0.9513
-10.6983 -5.7088 -2.9806 0.9513
-9.5141 -7.5132 -2.9798 0.9513
-7.1909 -9.7596 -2.9797 0.9513
-6.2043 -10.2136 -2.9374 0.9520
-5.2568 -10.6972 -2.9297 0.9521
-4.2851 -11.1262 -2.9306 0.9521
-3.2794 -11.4689 -2.9320 0.9521
-2.2470 -11.7225 -2.9338 0.9520
-1.1960 -11.8885 -2.9370 0.9520
-0.1332 -11.9597 -2.9399 0.9519
0.9327 -11.9357 -2.9427 0.9519
4.0670 -11.3042 -2.9529 0.9517
6.9359 -9.8665 -2.9645 0.9515
8.5927 -8.4975 -2.9704 0.9514
10.5767 -5.9503 -2.9829 0.9512
5.0975 -1.7700 -1.3263 0.9780
4.8512 -1.2134 -1.2292 0.9796
4.9998 -0.3347 -1.2317 0.9796
5.4306 0.1210 -1.3352 0.9779
12.1687 1.3613 -3.0097 0.9508
12.0116 2.4415 -3.0128 0.9508
11.7566 3.5038 -3.0154 0.9507
11.4011 4.5375 -3.0162 0.9507
10.9544 5.5355 -3.0168 0.9507
10.4200 6.4896 -3.0174 0.9507
7.5015 9.7199 -3.0179 0.9507
6.6060 10.3482 -3.0177 0.9507
4.4281 10.7750 -2.8634 0.9531
2.4229 7.8108 -2.0101 0.9669
1.4249 11.5691 -2.8652 0.9531
-1.6806 11.5231 -2.8623 0.9532
-3.6942 11.0340 -2.8601 0.9532
-4.6584 10.6541 -2.8582 0.9532
-9.2257 7.9777 -2.9979 0.9510
-10.4821 6.2086 -2.9945 0.9511
-11.9648 2.1556 -2.9883 0.9512
-11.3339 0.0000 -2.9865 0.9542
-11.2848 -1.0084 -2.9854 0.9542
-10.9203 -2.9914 -2.9835 0.9542
-10.2121 -4.8779 -2.9821 0.9543
-9.1827 -6.6093 -2.9812 0.9543
-8.5573 -7.3998 -2.9810 0.9543
-7.8645 -8.1318 -2.9809 0.9543
-7.1096 -8.7996 -2.9809 0.9543
-6.2854 -9.3785 -2.9749 0.9544
-2.5827 -10.8374 -2.9356 0.9550
-1.6089 -11.0312 -2.9375 0.9549
1.3665 -11.0954 -2.9457 0.9548
3.3190 -10.7012 -2.9523 0.9547
4.2635 -10.3745 -2.9555 0.9547
5.1755 -9.9646 -2.9587 0.9546
6.0481 -9.4741 -2.9617 0.9546
7.6501 -8.2712 -2.9687 0.9545
9.0189 -6.8015 -2.9765 0.9543
9.6010 -5.9796 -2.9804 0.9543
10.1081 -5.1079 -2.9842 0.9542
10.5360 -4.1932 -2.9880 0.9542
4.8808 -0.9921 -1.3124 0.9796
10.8060 3.7522 -3.0142 0.9538
10.4332 4.7010 -3.0153 0.9538
9.9752 5.6119 -3.0159 0.9538
7.3915 8.7427 -3.0167 0.9537
4.8176 10.3818 -3.0158 0.9538
2.7520 10.5044 -2.8613 0.9561
1.8085 10.7212 -2.8649 0.9560
0.8468 10.8361 -2.8640 0.9560
-0.1211 10.8652 -2.8631 0.9560
-2.9842 10.4365 -2.8602 0.9561
-4.7781 9.7232 -2.8547 0.9562
-5.6172 9.2472 -2.8510 0.9562
-7.5434 8.5294 -3.0004 0.9540
-8.2682 7.8201 -2.9988 0.9540
-9.5136 6.2236 -2.9956 0.9541
-10.8035 3.4837 -2.9911 0.9541
-11.0655 2.5071 -2.9897 0.9542
-11.2397 1.5116 -2.9883 0.9542
-11.3249 0.5050 -2.9871 0.9542
-9.9837 -5.3275 -2.9818 0.9543
-9.4685 -6.1940 -2.9814 0.9543
-8.2190 -7.7735 -2.9809 0.9543
-6.7107 -9.1078 -2.9810 0.9543
-5.7984 -9.5455 -2.9429 0.9549
-3.0621 -10.7088 -2.9349 0.9550
-2.0980 -10.9450 -2.9365 0.9549
-1.1163 -11.0959 -2.9385 0.9549
-0.1243 -11.1598 -2.9408 0.9549
1.8605 -11.0296 -2.9474 0.9548
4.7239 -10.1799 -2.9571 0.9546
7.2693 -8.5982 -2.9668 0.9545
8.0161 -7.9274 -2.9707 0.9544
9.3190 -6.3971 -2.9785 0.9543
5.2354 -1.8179 -1.4603 0.9773
4.8921 -0.7692 -1.3049 0.9797
5.6103 0.1250 -1.4787 0.9771
11.3428 1.2689 -3.0075 0.9539
10.2144 5.1616 -3.0156 0.9538
8.4907 7.6794 -3.0166 0.9537
7.7737 8.4048 -3.0167 0.9537
6.1597 9.6489 -3.0164 0.9538
5.2758 10.1577 -3.0160 0.9538
4.1289 10.0472 -2.8623 0.9561
0.3632 10.8614 -2.8636 0.9560
-0.6048 10.8473 -2.8627 0.9561
-1.5674 10.7469 -2.8618 0.9561
-2.5168 10.5610 -2.8608 0.9561
-4.3430 9.9327 -2.8565 0.9561
-5.2031 9.4945 -2.8529 0.9562
-6.3189 9.4285 -2.9908 0.9541
-7.1578 8.8593 -3.0012 0.9540
-7.9137 8.1828 -2.9996 0.9540
-9.2294 6.6429 -2.9964 0.9541
-9.7789 5.7921 -2.9948 0.9541
-10.6402 3.9624 -2.9918 0.9541
-10.9454 2.9983 -2.9903 0.9541
-11.1637 2.0112 -2.9890 0.9542
-10.4422 -1.8812 -2.9853 0.9569
-9.9381 -3.7010 -2.9837 0.9569
-9.5673 -4.5699 -2.9831 0.9569
-8.0172 -6.9328 -2.9821 0.9569
-7.3681 -7.6186 -2.9820 0.9569
-5.9010 -8.8049 -2.9822 0.9569
-5.0240 -9.1676 -2.9413 0.9575
-3.3140 -9.8983 -2.9369 0.9576
-2.4208 -10.1584 -2.9382 0.9575
-0.5821 -10.4396 -2.9418 0.9575
0.3497 -10.4580 -2.9441 0.9575
2.2023 -10.2485 -2.9493 0.9574
3.1088 -10.0218 -2.9522 0.9573
4.8469 -9.3319 -2.9586 0.9572
5.6647 -8.8736 -2.9620 0.9572
6.4397 -8.3441 -2.9655 0.9571
7.1654 -7.7471 -2.9691 0.9571
7.8360 -7.0873 -2.9727 0.9570
8.4461 -6.3695 -2.9764 0.9570
5.1172 -1.5251 -1.5023 0.9781
4.9512 -1.0064 -1.4215 0.9792
5.3632 -0.1195 -1.5093 0.9780
10.6532 0.7131 -3.0040 0.9566
10.5573 1.6601 -3.0069 0.9566
8.8352 6.0650 -3.0152 0.9564
8.2610 6.8279 -3.0154 0.9564
6.9198 8.1847 -3.0155 0.9564
4.5103 9.7194 -3.0147 0.9565
2.5765 9.8344 -2.8604 0.9586
1.6934 10.0390 -2.8644 0.9586
0.7929 10.1464 -2.8635 0.9586
-0.1133 10.1736 -2.8626 0.9586
-1.9142 9.9861 -2.8608 0.9586
-6.3285 8.5892 -3.0017 0.9566
-7.7434 7.3237 -2.9988 0.9567
-8.3604 6.6022 -2.9973 0.9567
-9.3893 5.0103 -2.9943 0.9567
-9.7934 4.1527 -2.9929 0.9568
-10.3652 2.3484 -2.9902 0.9568
-10.5287 1.4160 -2.9890 0.9568
-10.6088 0.4731 -2.9878 0.9568
-10.3466 -2.3442 -2.9849 0.9569
-10.0942 -3.2550 -2.9841 0.9569
-9.7623 -4.1396 -2.9834 0.9569
-9.3535 -4.9912 -2.9829 0.9569
-8.8709 -5.8030 -2.9825 0.9569
-7.7003 -7.2829 -2.9820 0.9569
-7.0214 -7.9393 -2.9820 0.9569
-6.2872 -8.5330 -2.9821 0.9569
-5.4502 -8.9723 -2.9537 0.9573
-1.9664 -10.2588 -2.9389 0.9575
-1.0462 -10.3996 -2.9408 0.9575
-0.1165 -10.4590 -2.9429 0.9575
0.8155 -10.4364 -2.9453 0.9574
1.7427 -10.3316 -2.9479 0.9574
2.6579 -10.1452 -2.9507 0.9574
3.5540 -9.8784 -2.9538 0.9573
5.2608 -9.1119 -2.9603 0.9572
6.8090 -8.0538 -2.9673 0.9571
7.5080 -7.4248 -2.9709 0.9571
8.1490 -6.7353 -2.9745 0.9570
8.7268 -5.9906 -2.9782 0.9570
9.6742 -4.3590 -2.9854 0.9569
10.0361 -3.4849 -2.9891 0.9568
4.9944 -1.2492 -1.4485 0.9788
4.9593 -0.7798 -1.4125 0.9794
5.1495 -0.3447 -1.4521 0.9788
10.6159 1.1876 -3.0055 0.9566
10.4775 2.1296 -3.0082 0.9565
9.5627 4.8323 -3.0145 0.9565
9.0960 5.6650 -3.0150 0.9564
8.5566 6.4529 -3.0153 0.9564
7.9488 7.1893 -3.0155 0.9564
6.5482 8.4847 -3.0155 0.9564
2.1356 9.9382 -2.8600 0.9586
1.2443 10.1026 -2.8639 0.9586
0.3400 10.1701 -2.8630 0.9586
-2.3567 9.8892 -2.8603 0.9586
-5.9410 8.8647 -3.0025 0.9566
-8.6441 6.2217 -2.9965 0.9567
-9.1590 5.4249 -2.9951 0.9567
-9.6009 4.5860 -2.9936 0.9568
-9.9663 3.7115 -2.9922 0.9568
-10.2525 2.8085 -2.9909 0.9568
-10.5792 0.9454 -2.9884 0.9568
-9.9376 -0.8880 -2.9870 0.9592
-9.3426 -3.4792 -2.9846 0.9592
-8.9941 -4.2962 -2.9841 0.9592
-8.5748 -5.0788 -2.9836 0.9592
-7.5371 -6.5176 -2.9831 0.9592
-6.9268 -7.1623 -2.9830 0.9593
-6.2619 -7.7505 -2.9830 0.9592
-3.9320 -8.9926 -2.9383 0.9598
-3.1169 -9.3098 -2.9392 0.9598
-2.2769 -9.5542 -2.9404 0.9598
0.3288 -9.8344 -2.9459 0.9597
2.9229 -9.4226 -2.9535 0.9596
3.7537 -9.1341 -2.9565 0.9596
4.5565 -8.7728 -2.9595 0.9596
5.3250 -8.3415 -2.9627 0.9595
6.7347 -7.2815 -2.9694 0.9594
7.3645 -6.6608 -2.9728 0.9594
7.9373 -5.9858 -2.9762 0.9593
8.8934 -4.4940 -2.9832 0.9592
9.2689 -3.6889 -2.9866 0.9592
5.0486 -1.0262 -1.5424 0.9787
5.5513 -0.1237 -1.6624 0.9771
9.9156 1.5592 -3.0050 0.9590
9.7453 2.4375 -3.0074 0.9589
9.4965 3.2976 -3.0096 0.9589
8.7736 4.9360 -3.0138 0.9588
8.3005 5.6980 -3.0142 0.9588
5.7905 8.2371 -3.0144 0.9588
5.0339 8.7190 -3.0141 0.9588
3.2341 8.9893 -2.8601 0.9609
1.5912 9.4331 -2.8640 0.9608
-0.9566 9.5092 -2.8612 0.9609
-1.7987 9.3835 -2.8604 0.9609
-5.2075 8.5728 -3.0029 0.9590
-5.9471 8.0715 -3.0016 0.9590
-6.6389 7.5067 -3.0002 0.9590
-7.8573 6.2049 -2.9974 0.9591
-8.3745 5.4783 -2.9960 0.9591
-8.8248 4.7091 -2.9946 0.9591
-9.2048 3.9032 -2.9933 0.9591
-9.8967 1.3310 -2.9896 0.9592
-9.9722 0.4447 -2.9885 0.9592
-9.9689 -0.4445 -2.9874 0.9592
-9.8867 -1.3296 -2.9865 0.9592
-9.7264 -2.2037 -2.9857 0.9592
-9.1774 -3.8915 -2.9843 0.9592
-6.6009 -7.4638 -2.9830 0.9593
-5.1475 -8.4739 -2.9683 0.9594
-4.3295 -8.8104 -2.9389 0.9598
-2.6996 -9.4412 -2.9398 0.9598
-1.8494 -9.6485 -2.9412 0.9598
-0.9839 -9.7802 -2.9428 0.9598
-0.1096 -9.8356 -2.9448 0.9598
0.7669 -9.8138 -2.9470 0.9597
1.6387 -9.7147 -2.9495 0.9597
5.6944 -8.1004 -2.9644 0.9595
6.4000 -7.5699 -2.9677 0.9595
8.2007 -5.6295 -2.9779 0.9593
8.6793 -4.8829 -2.9814 0.9593
9.0901 -4.0958 -2.9849 0.9592
5.1014 -1.2759 -1.5743 0.9783
5.0565 -0.7951 -1.5324 0.9789
9.9709 1.1154 -3.0037 0.9590
9.6306 2.8702 -3.0085 0.9589
9.3433 3.7186 -3.0106 0.9589
8.9805 4.5381 -3.0124 0.9589
8.5456 5.3223 -3.0140 0.9588
7.4678 6.7542 -3.0145 0.9588
6.8371 7.3922 -3.0145 0.9588
6.1519 7.9712 -3.0145 0.9588
5.4176 8.4865 -3.0143 0.9588
4.6403 8.9341 -3.0139 0.9588
3.6317 8.8371 -2.8603 0.9609
2.4227 7.8102 -2.4481 0.9664
2.0094 9.3507 -2.8633 0.9609
1.1692 9.4930 -2.8635 0.9609
0.3195 9.5562 -2.8625 0.9609
-1.3791 9.4558 -2.8608 0.9609
-2.2144 9.2920 -2.8597 0.9609
-4.5765 8.3511 -2.8510 0.9610
-5.5830 8.3304 -3.0022 0.9590
-6.9651 7.2018 -2.9995 0.9590
-8.1240 5.8473 -2.9967 0.9591
-8.6082 5.0987 -2.9953 0.9591
-9.0238 4.3103 -2.9939 0.9591
-9.4103 0.0000 -2.9886 0.9613
-9.0684 -2.4841 -2.9861 0.9613
-8.0856 -4.7891 -2.9845 0.9613
-7.6264 -5.4892 -2.9842 0.9613
-6.5318 -6.7538 -2.9839 0.9613
-4.4672 -8.1516 -2.9521 0.9617
1.9529 -9.0881 -2.9521 0.9617
3.5397 -8.6134 -2.9575 0.9617
7.9634 -4.9596 -2.9795 0.9614
8.3826 -4.2359 -2.9828 0.9613
5.1694 -1.0507 -1.6753 0.9781
9.4383 -0.2103 -2.9982 0.9612
9.4280 0.6312 -3.0009 0.9611
9.1813 2.2964 -3.0056 0.9611
8.2683 4.6517 -3.0129 0.9610
7.3140 6.0452 -3.0135 0.9610
6.1265 7.2464 -3.0136 0.9610
5.4570 7.7626 -3.0135 0.9610
3.9933 8.6054 -3.0129 0.9610
3.0484 8.4732 -2.8598 0.9629
1.4991 8.8875 -2.8624 0.9629
-0.1004 9.0103 -2.8617 0.9629
-0.9017 8.9629 -2.8608 0.9629
-2.4731 8.6492 -2.8569 0.9629
-3.9597 8.0577 -2.8513 0.9630
-4.9086 8.0807 -3.0027 0.9611
-5.6059 7.6085 -3.0014 0.9611
-6.2582 7.0762 -3.0001 0.9611
-6.8601 6.4883 -2.9988 0.9611
-7.4071 5.8493 -2.9974 0.9612
-8.3196 4.4395 -2.9948 0.9612
-8.6781 3.6798 -2.9936 0.9612
-9.1857 2.0812 -2.9912 0.9612
-9.4025 0.4193 -2.9890 0.9613
-9.1711 -2.0779 -2.9864 0.9613
-8.9477 -2.8853 -2.9857 0.9613
-7.8638 -5.1442 -2.9843 0.9613
-7.3741 -5.8232 -2.9841 0.9613
-6.2244 -7.0381 -2.9839 0.9613
-5.5735 -7.5644 -2.9840 0.9613
-4.0891 -8.3212 -2.9445 0.9618
-3.3282 -8.6414 -2.9409 0.9619
-2.5467 -8.9063 -2.9419 0.9619
-1.7446 -9.1016 -2.9432 0.9619
-0.9281 -9.2256 -2.9447 0.9618
0.7233 -9.2561 -2.9486 0.9618
1.5455 -9.1622 -2.9509 0.9618
3.1511 -8.7584 -2.9561 0.9617
3.9218 -8.4513 -2.9589 0.9617
4.6631 -8.0768 -2.9619 0.9616
5.3690 -7.6375 -2.9649 0.9616
6.6524 -6.5786 -2.9713 0.9615
7.2193 -5.9669 -2.9745 0.9615
7.7303 -5.3065 -2.9778 0.9614
5.2780 -1.3201 -1.7279 0.9774
5.1698 -0.8129 -1.6620 0.9783
9.3945 1.0509 -3.0021 0.9611
9.0730 2.7040 -3.0067 0.9610
8.4599 4.2750 -3.0103 0.9610
8.0534 5.0157 -3.0131 0.9610
6.4432 6.9664 -3.0136 0.9610
5.7975 7.5120 -3.0136 0.9610
5.1055 7.9977 -3.0134 0.9610
-0.5016 8.9955 -2.8613 0.9629
-1.2998 8.9125 -2.8604 0.9629
-2.8546 8.5262 -2.8555 0.9630
-4.5246 8.2564 -2.9900 0.9613
-5.2626 7.8524 -3.0020 0.9611
-6.5657 6.7889 -2.9994 0.9611
-7.1407 6.1749 -2.9981 0.9612
-8.1153 4.8067 -2.9955 0.9612
-8.5073 4.0636 -2.9942 0.9612
-9.0857 2.4888 -2.9918 0.9612
-9.2676 1.6696 -2.9906 0.9612
-8.8966 0.0000 -2.9891 0.9632
-8.8588 -0.7916 -2.9882 0.9632
-8.7508 -1.5765 -2.9875 0.9632
-8.5738 -2.3486 -2.9868 0.9632
-8.0186 -3.8301 -2.9857 0.9632
-7.2108 -5.1900 -2.9850 0.9632
-6.1758 -6.3857 -2.9847 0.9632
-4.9460 -7.3799 -2.9849 0.9632
-4.2377 -7.7328 -2.9626 0.9635
-0.4884 -8.7584 -2.9472 0.9637
0.2933 -8.7725 -2.9490 0.9636
2.6065 -8.4025 -2.9558 0.9636
3.3470 -8.1443 -2.9584 0.9635
4.0623 -7.8213 -2.9611 0.9635
4.7469 -7.4359 -2.9640 0.9635
5.3952 -6.9908 -2.9669 0.9634
6.5626 -5.9356 -2.9730 0.9633
7.0724 -5.3335 -2.9761 0.9633
8.9179 -0.1987 -2.9970 0.9631
8.9077 0.5963 -2.9995 0.9630
8.8262 1.3879 -3.0019 0.9630
8.4518 2.9348 -3.0060 0.9630
8.1616 3.6775 -3.0077 0.9629
5.7894 6.8478 -3.0128 0.9629
4.4830 7.7648 -3.0124 0.9629
2.8803 8.0059 -2.8586 0.9647
2.1573 8.2341 -2.8599 0.9647
1.4163 8.3962 -2.8608 0.9647
-0.0949 8.5146 -2.8609 0.9647
-3.0519 7.9241 -2.8530 0.9648
-3.8461 7.8265 -2.9299 0.9639
-4.6395 7.6377 -3.0025 0.9630
-5.2987 7.1915 -3.0012 0.9630
-6.4844 6.1330 -2.9988 0.9630
-7.4629 4.8820 -2.9963 0.9631
-8.2037 3.4787 -2.9939 0.9631
-8.8865 -0.3963 -2.9887 0.9632
-8.6709 -1.9645 -2.9871 0.9632
-8.4598 -2.7279 -2.9864 0.9632
-8.1819 -3.4694 -2.9859 0.9632
-6.9721 -5.5059 -2.9849 0.9632
-5.2697 -7.1521 -2.9848 0.9632
-3.1480 -8.1736 -2.9428 0.9637
-2.4088 -8.4240 -2.9438 0.9637
1.4615 -8.6642 -2.9522 0.9636
2.9795 -8.2816 -2.9571 0.9635
4.4088 -7.6363 -2.9625 0.9635
5.0759 -7.2206 -2.9654 0.9634
5.7042 -6.7469 -2.9684 0.9634
6.2885 -6.2188 -2.9714 0.9634
6.8241 -5.6403 -2.9746 0.9633
7.3068 -5.0158 -2.9777 0.9633
7.7324 -4.3502 -2.9809 0.9633
8.6335 -2.1594 -2.9900 0.9631
5.3657 -0.8437 -1.8249 0.9773
8.9217 0.1988 -2.9983 0.9630
8.7588 1.7803 -3.0030 0.9630
8.5714 2.5546 -3.0050 0.9630
7.6104 4.7398 -3.0123 0.9629
6.6504 6.0149 -3.0128 0.9629
6.0888 6.5831 -3.0128 0.9629
4.8247 7.5577 -3.0126 0.9629
3.4075 8.2916 -3.0119 0.9629
2.4226 7.8097 -2.7473 0.9661
1.0409 8.4517 -2.8611 0.9647
-1.9712 8.2715 -2.8569 0.9648
-2.6972 8.0560 -2.8543 0.9648
-3.4002 7.7765 -2.8516 0.9648
-4.2955 7.8383 -3.0031 0.9630
-5.6127 6.9469 -3.0006 0.9630
-6.2061 6.4171 -2.9994 0.9630
-7.2396 5.2107 -2.9969 0.9631
-8.0421 3.8414 -2.9944 0.9631
-8.3489 3.1092 -2.9933 0.9631
-8.5892 2.3529 -2.9921 0.9631
-8.7614 1.5785 -2.9911 0.9631
-8.8641 0.7921 -2.9901 0.9631
-8.4313 0.0000 -2.9896 0.9649
-8.2933 -1.4941 -2.9880 0.9649
-8.1256 -2.2258 -2.9874 0.9649
-7.5996 -3.6300 -2.9863 0.9649
-7.2454 -4.2915 -2.9860 0.9649
-6.8340 -4.9188 -2.9857 0.9649
-5.8532 -6.0521 -2.9854 0.9649
-4.0320 -7.3575 -2.9749 0.9650
-3.3300 -7.6159 -2.9474 0.9653
-2.6368 -7.8757 -2.9450 0.9654
-0.4630 -8.3031 -2.9488 0.9653
1.0178 -8.2639 -2.9524 0.9653
1.7506 -8.1463 -2.9545 0.9653
2.4706 -7.9643 -2.9568 0.9652
3.8501 -7.4127 -2.9618 0.9652
4.4987 -7.0471 -2.9645 0.9651
5.1129 -6.6250 -2.9674 0.9651
5.6878 -6.1496 -2.9702 0.9651
6.2187 -5.6245 -2.9732 0.9650
6.7013 -5.0537 -2.9762 0.9650
7.5062 -3.7931 -2.9821 0.9649
8.0755 -2.4067 -2.9879 0.9649
8.3896 -0.9385 -2.9934 0.9648
8.4369 0.5648 -2.9983 0.9647
8.3594 1.3145 -3.0005 0.9647
7.0026 4.8070 -3.0117 0.9646
6.5474 5.4115 -3.0120 0.9646
5.4843 6.4869 -3.0120 0.9646
4.2468 7.3557 -3.0117 0.9646
2.7399 7.6158 -2.8699 0.9662
-0.0898 8.0631 -2.8592 0.9664
-0.8068 8.0204 -2.8583 0.9664
-1.5166 7.9123 -2.8567 0.9664
-2.8908 7.5057 -2.8520 0.9664
-3.7356 7.6019 -3.0034 0.9647
-4.3958 7.2364 -3.0023 0.9647
-5.0205 6.8139 -3.0011 0.9647
-6.6345 5.2392 -2.9976 0.9648
-7.0717 4.6261 -2.9964 0.9648
-7.4524 3.9768 -2.9952 0.9648
-7.7739 3.2964 -2.9941 0.9648
-8.3599 1.1243 -2.9910 0.9648
-8.3527 -1.1233 -2.9884 0.9649
-8.2176 -1.8619 -2.9877 0.9649
-8.0176 -2.5853 -2.9871 0.9649
-7.4298 -3.9647 -2.9861 0.9649
-6.1170 -5.7854 -2.9855 0.9649
-5.5778 -6.3069 -2.9854 0.9649
-4.3715 -7.1966 -2.9857 0.9649
-1.5644 -8.1614 -2.9466 0.9653
2.8240 -7.8496 -2.9580 0.9652
4.1783 -7.2372 -2.9632 0.9652
4.8104 -6.8429 -2.9659 0.9651
5.4056 -6.3937 -2.9688 0.9651
7.9565 -2.7628 -2.9865 0.9649
8.1785 -2.0456 -2.9893 0.9649
8.4504 0.1883 -2.9971 0.9648
8.2954 1.6861 -3.0016 0.9647
7.5795 3.8301 -3.0112 0.9646
7.2094 4.4901 -3.0116 0.9646
6.7817 5.1144 -3.0119 0.9646
6.2999 5.6979 -3.0120 0.9646
5.1898 6.7246 -3.0120 0.9646
4.5704 7.1595 -3.0118 0.9646
3.2279 7.8547 -3.0112 0.9646
2.3880 7.6983 -2.8580 0.9664
-1.1630 7.9745 -2.8576 0.9664
-2.5547 7.6304 -2.8533 0.9664
-3.2587 7.4530 -2.8843 0.9661
-4.0698 7.4265 -3.0028 0.9647
-4.7129 7.0321 -3.0017 0.9647
-5.3180 6.5822 -3.0005 0.9647
-5.8804 6.0803 -2.9993 0.9647
-6.8599 4.9375 -2.9970 0.9648
-7.2693 4.3056 -2.9958 0.9648
-7.9116 2.9463 -2.9936 0.9648
-8.1395 2.2296 -2.9925 0.9648
-8.4003 0.7506 -2.9905 0.9648
-8.0074 0.0000 -2.9901 0.9664
-7.9736 -0.7125 -2.9893 0.9664
-7.8766 -1.4190 -2.9886 0.9664
-7.7175 -2.1140 -2.9880 0.9664
-7.4973 -2.7920 -2.9874 0.9664
-6.8816 -4.0760 -2.9866 0.9664
-6.0490 -5.2308 -2.9862 0.9664
-5.5593 -5.7483 -2.9861 0.9664
-5.0257 -6.2204 -2.9861 0.9664
-3.8391 -7.0054 -2.9829 0.9665
-3.1665 -7.2421 -2.9515 0.9668
-2.5052 -7.4827 -2.9466 0.9669
-1.1396 -7.8140 -2.9487 0.9668
0.9669 -7.8505 -2.9536 0.9668
4.2728 -6.6932 -2.9651 0.9667
6.7719 -4.2176 -2.9790 0.9665
7.6669 -2.2850 -2.9873 0.9664
7.8468 -1.5949 -2.9900 0.9664
7.9643 -0.8909 -2.9925 0.9664
7.9347 1.2477 -2.9993 0.9663
7.3358 3.3054 -3.0045 0.9662
6.6481 4.5637 -3.0111 0.9662
6.2159 5.1376 -3.0113 0.9662
5.7341 5.6706 -3.0114 0.9662
4.6377 6.5972 -3.0113 0.9662
1.9392 7.4019 -2.8572 0.9679
1.2730 7.5467 -2.8578 0.9679
0.5963 7.6304 -2.8580 0.9678
-0.0853 7.6524 -2.8577 0.9679
-0.7658 7.6121 -2.8568 0.9679
-1.4395 7.5099 -2.8553 0.9679
-2.7491 7.1379 -2.8562 0.9679
-3.5471 7.2181 -3.0032 0.9662
-4.7672 6.4701 -3.0010 0.9663
-5.3222 6.0179 -2.9999 0.9663
-6.3001 4.9752 -2.9976 0.9663
-7.3826 3.1305 -2.9943 0.9663
-7.6293 2.4601 -2.9933 0.9664
-7.8154 1.7707 -2.9923 0.9664
-7.9395 1.0678 -2.9914 0.9664
-7.8048 -1.7683 -2.9883 0.9664
-7.6149 -2.4555 -2.9877 0.9664
-7.0568 -3.7656 -2.9868 0.9664
-6.6929 -4.3783 -2.9865 0.9664
-6.2762 -4.9562 -2.9862 0.9664
-5.8099 -5.4950 -2.9861 0.9664
-5.2978 -5.9903 -2.9861 0.9664
-4.7437 -6.4382 -2.9862 0.9664
-4.1521 -6.8353 -2.9864 0.9664
-2.8356 -7.3626 -2.9462 0.9669
-2.1697 -7.5880 -2.9470 0.9669
-1.4863 -7.7539 -2.9481 0.9669
-0.7906 -7.8589 -2.9494 0.9668
1.3161 -7.8022 -2.9546 0.9668
2.0067 -7.6595 -2.9567 0.9668
2.6825 -7.4562 -2.9589 0.9667
3.3382 -7.1937 -2.9613 0.9667
6.9563 -3.9136 -2.9804 0.9665
7.5541 -2.6230 -2.9860 0.9664
7.7645 -1.9421 -2.9887 0.9664
7.9134 -1.2443 -2.9913 0.9664
7.8739 1.6004 -3.0003 0.9663
7.1959 3.6363 -3.0106 0.9662
6.8445 4.2628 -3.0110 0.9662
5.9810 5.4095 -3.0113 0.9662
4.9271 6.3842 -3.0113 0.9662
3.7166 7.1556 -3.0109 0.9662
3.0646 7.4572 -3.0106 0.9662
2.2669 7.3079 -2.8571 0.9679
0.9356 7.5963 -2.8580 0.9678
0.2558 7.6492 -2.8579 0.9678
-1.7721 7.4359 -2.8544 0.9679
-3.2225 7.3702 -3.0037 0.9662
-3.8644 7.0516 -3.0026 0.9662
-6.0733 5.2519 -2.9982 0.9663
-6.5143 4.6887 -2.9971 0.9663
-6.9032 4.0887 -2.9960 0.9663
-7.7300 2.1175 -2.9928 0.9664
-7.8852 1.4206 -2.9918 0.9664
-7.9779 0.7129 -2.9909 0.9664
-7.5875 -0.6780 -2.9897 0.9678
-7.4954 -1.3503 -2.9891 0.9678
-7.1345 -2.6569 -2.9880 0.9678
-6.1770 -4.4459 -2.9869 0.9678
-5.7564 -4.9778 -2.9868 0.9678
-5.2904 -5.4703 -2.9867 0.9678
-4.7826 -5.9195 -2.9867 0.9678
-2.3847 -7.1228 -2.9480 0.9682
-1.7418 -7.3090 -2.9489 0.9682
-0.4186 -7.5084 -2.9514 0.9682
0.2514 -7.5198 -2.9530 0.9682
0.9203 -7.4720 -2.9547 0.9682
1.5827 -7.3652 -2.9566 0.9681
2.2335 -7.2002 -2.9587 0.9681
2.8676 -6.9780 -2.9609 0.9681
3.4801 -6.7004 -2.9632 0.9681
5.1398 -5.5571 -2.9708 0.9680
5.6191 -5.0821 -2.9735 0.9680
7.2933 -2.1736 -2.9868 0.9678
7.6268 -0.1699 -2.9940 0.9678
7.6171 0.5099 -2.9962 0.9677
7.5466 1.1867 -2.9982 0.9677
7.4155 1.8547 -3.0000 0.9677
7.2250 2.5088 -3.0017 0.9677
6.9843 3.1470 -3.0066 0.9676
6.6846 3.7607 -3.0102 0.9676
5.9128 4.8871 -3.0107 0.9676
4.4116 6.2755 -3.0106 0.9676
3.2285 6.9572 -3.0102 0.9676
2.5961 7.2160 -3.0098 0.9676
1.8445 7.0403 -2.8564 0.9692
0.5670 7.2563 -2.8566 0.9692
-0.7282 7.2390 -2.8554 0.9692
-3.3745 6.8670 -3.0029 0.9677
-4.5355 6.1557 -3.0009 0.9677
-5.0636 5.7255 -2.9998 0.9677
-6.7338 3.5933 -2.9956 0.9677
-7.2594 2.3409 -2.9936 0.9678
-7.5489 -1.0152 -2.9894 0.9678
-7.4270 -1.6827 -2.9888 0.9678
-7.0086 -2.9719 -2.9877 0.9678
-6.7153 -3.5834 -2.9873 0.9678
-5.5289 -5.2292 -2.9867 0.9678
-4.5142 -6.1267 -2.9868 0.9678
-2.7015 -7.0142 -2.9500 0.9682
-0.7525 -7.4805 -2.9507 0.9682
1.9099 -7.2899 -2.9576 0.9681
3.1769 -6.8460 -2.9621 0.9681
4.3475 -6.1845 -2.9670 0.9680
4.8850 -5.7780 -2.9695 0.9680
5.8425 -4.8289 -2.9749 0.9680
6.6181 -3.7233 -2.9802 0.9679
7.1861 -2.4953 -2.9855 0.9678
7.5273 -1.1836 -2.9905 0.9678
7.3276 2.1839 -3.0009 0.9677
6.8451 3.4590 -3.0100 0.9676
6.1245 4.6187 -3.0106 0.9676
4.6869 6.0729 -3.0107 0.9676
4.1275 6.4656 -3.0106 0.9676
3.5354 6.8068 -3.0103 0.9676
2.2359 7.2079 -2.9618 0.9681
1.5290 7.1153 -2.8563 0.9692
-0.4051 7.2654 -2.8559 0.9692
-1.6853 7.0719 -2.8533 0.9692
-2.3085 6.8953 -2.8539 0.9692
-4.2575 6.3527 -3.0014 0.9677
-4.8044 5.9465 -3.0003 0.9677
-5.3127 5.4933 -2.9993 0.9677
-5.7785 4.9968 -2.9982 0.9677
-6.1981 4.4611 -2.9971 0.9677
-6.5682 3.8904 -2.9961 0.9677
-7.1491 2.6624 -2.9941 0.9678
-7.5031 1.3518 -2.9922 0.9678
-7.2632 0.0000 -2.9909 0.9691
-7.2327 -0.6463 -2.9902 0.9691
-7.1449 -1.2872 -2.9895 0.9691
-7.0007 -1.9177 -2.9890 0.9691
-6.8011 -2.5328 -2.9885 0.9691
-6.2427 -3.6976 -2.9877 0.9691
-5.8884 -4.2382 -2.9875 0.9691
-4.5592 -5.6429 -2.9873 0.9691
-4.0390 -6.0266 -2.9874 0.9691
-2.2739 -6.7918 -2.9493 0.9695
-1.6609 -6.9693 -2.9502 0.9695
0.2397 -7.1698 -2.9541 0.9694
0.8774 -7.1240 -2.9557 0.9694
1.5089 -7.0220 -2.9575 0.9694
2.1294 -6.8644 -2.9595 0.9694
2.7338 -6.6524 -2.9616 0.9694
3.3176 -6.3875 -2.9639 0.9693
4.4046 -5.7072 -2.9686 0.9693
5.7707 -4.3518 -2.9762 0.9692
6.1404 -3.8242 -2.9788 0.9692
6.7326 -2.6795 -2.9839 0.9691
6.9501 -2.0714 -2.9863 0.9691
7.2186 -0.8075 -2.9910 0.9691
7.2671 -0.1619 -2.9932 0.9690
6.8835 2.3902 -3.0005 0.9690
6.6629 3.0022 -3.0093 0.9689
6.3700 3.5837 -3.0097 0.9689
5.6345 4.6571 -3.0101 0.9689
3.0765 6.6297 -3.0096 0.9689
2.4739 6.8764 -3.0092 0.9689
1.8263 6.9709 -2.9674 0.9693
1.1534 6.8376 -2.8554 0.9704
0.5402 6.9129 -2.8553 0.9705
-0.0772 6.9327 -2.8549 0.9705
-1.3043 6.8044 -2.8529 0.9705
-1.9200 6.7147 -2.8758 0.9702
-3.7846 6.2303 -3.0018 0.9690
-4.8261 5.4569 -2.9998 0.9690
-5.2908 5.0040 -2.9987 0.9690
-6.4184 3.4249 -2.9957 0.9690
-6.6956 2.8392 -2.9947 0.9690
-6.9195 2.2313 -2.9938 0.9690
-7.0885 1.6060 -2.9929 0.9690
-7.2013 0.9685 -2.9920 0.9691
-7.2551 -0.3235 -2.9905 0.9691
-7.1959 -0.9678 -2.9898 0.9691
-7.0798 -1.6041 -2.9892 0.9691
-6.9077 -2.2275 -2.9887 0.9691
-4.8060 -5.4342 -2.9873 0.9691
-4.3033 -5.8405 -2.9873 0.9691
-3.7666 -6.2007 -2.9875 0.9691
-1.3490 -7.0376 -2.9507 0.9695
-0.0799 -7.1715 -2.9533 0.9695
1.8209 -6.9501 -2.9585 0.9694
3.0286 -6.5264 -2.9627 0.9694
3.6002 -6.2358 -2.9650 0.9693
4.1443 -5.8953 -2.9674 0.9693
4.6564 -5.5076 -2.9699 0.9693
6.3074 -3.5484 -2.9801 0.9692
6.8482 -2.3779 -2.9851 0.9691
7.2697 0.1620 -2.9943 0.9690
7.1348 1.4502 -2.9981 0.9690
6.9813 2.0807 -2.9997 0.9690
6.7718 2.6951 -3.0012 0.9690
6.5230 3.2962 -3.0095 0.9689
4.9637 5.3667 -3.0102 0.9689
4.4662 5.7871 -3.0101 0.9689
3.9332 6.1613 -3.0100 0.9689
1.4675 6.8294 -2.8764 0.9702
0.8476 6.8820 -2.8553 0.9704
-1.6057 6.7380 -2.8523 0.9705
-3.5039 6.3938 -3.0023 0.9690
-5.5075 4.7626 -2.9982 0.9690
-5.9075 4.2520 -2.9972 0.9690
-6.5635 3.1351 -2.9952 0.9690
-6.8143 2.5377 -2.9943 0.9690
-7.0110 1.9205 -2.9933 0.9690
-7.1520 1.2885 -2.9925 0.9691
-7.2363 0.6466 -2.9916 0.9691
-6.8216 -1.2290 -2.9899 0.9703
-6.6839 -1.8309 -2.9894 0.9703
-6.4934 -2.4182 -2.9889 0.9703
-5.9604 -3.5304 -2.9882 0.9703
-5.6221 -4.0465 -2.9880 0.9703
-5.2394 -4.5307 -2.9878 0.9703
-4.8152 -4.9789 -2.9878 0.9703
-3.8563 -5.7541 -2.9879 0.9703
-2.7565 -6.3042 -2.9679 0.9705
-2.1730 -6.4904 -2.9525 0.9706
-1.5861 -6.6557 -2.9514 0.9706
0.2289 -6.8468 -2.9551 0.9706
0.8379 -6.8029 -2.9567 0.9706
1.4409 -6.7053 -2.9584 0.9706
2.0333 -6.5546 -2.9603 0.9705
2.6104 -6.3519 -2.9623 0.9705
3.7007 -5.7970 -2.9667 0.9705
5.1129 -4.6244 -2.9738 0.9704
5.8615 -3.6506 -2.9787 0.9704
6.1682 -3.1169 -2.9811 0.9703
6.9356 -0.1545 -2.9924 0.9702
6.9263 0.4637 -2.9944 0.9702
6.8618 1.0790 -2.9962 0.9702
6.7422 1.6863 -2.9979 0.9702
6.5687 2.2809 -2.9994 0.9702
6.3595 2.8654 -3.0088 0.9701
6.0799 3.4205 -3.0092 0.9701
5.7518 3.9484 -3.0094 0.9701
5.3779 4.4449 -3.0096 0.9701
4.9610 4.9061 -3.0097 0.9701
4.0124 5.7078 -3.0096 0.9701
3.4883 6.0419 -3.0094 0.9701
2.9364 6.3278 -3.0091 0.9701
2.3613 6.5633 -3.0088 0.9701
1.7675 6.7464 -3.0083 0.9701
1.1304 6.7017 -2.9317 0.9708
0.5155 6.5972 -2.8544 0.9716
-0.0737 6.6155 -2.8538 0.9716
-0.6621 6.5811 -2.8531 0.9716
-5.0507 4.7769 -2.9987 0.9702
-5.8139 3.8033 -2.9968 0.9702
-6.1274 3.2697 -2.9958 0.9702
-6.3921 2.7105 -2.9949 0.9702
-6.9268 -0.3089 -2.9909 0.9702
-6.7595 -1.5315 -2.9897 0.9703
-6.3788 -2.7049 -2.9887 0.9703
-6.1120 -3.2615 -2.9884 0.9703
-5.4361 -4.2929 -2.9879 0.9703
-4.5887 -5.1885 -2.9878 0.9703
-3.5963 -5.9203 -2.9880 0.9703
-3.0535 -6.2136 -2.9864 0.9703
-2.4637 -6.3970 -2.9570 0.9706
-1.2883 -6.7209 -2.9519 0.9706
-0.6852 -6.8115 -2.9530 0.9706
-0.0763 -6.8485 -2.9543 0.9706
0.5338 -6.8316 -2.9558 0.9706
1.7387 -6.6365 -2.9593 0.9706
3.4375 -5.9538 -2.9655 0.9705
3.9568 -5.6285 -2.9678 0.9705
5.6907 -3.9064 -2.9775 0.9704
6.3035 -2.8402 -2.9823 0.9703
6.5365 -2.2697 -2.9847 0.9703
6.7178 -1.6802 -2.9870 0.9703
6.9379 0.1546 -2.9934 0.9702
6.8088 1.3840 -2.9971 0.9702
6.6621 1.9855 -2.9987 0.9702
6.4657 2.5733 -3.0018 0.9701
6.2259 3.1461 -3.0090 0.9701
5.9218 3.6881 -3.0093 0.9701
5.5704 4.2008 -3.0095 0.9701
4.7376 5.1222 -3.0097 0.9701
4.2628 5.5235 -3.0096 0.9701
3.2155 6.1910 -3.0093 0.9701
0.2211 6.6129 -2.8541 0.9716
-0.3683 6.6048 -2.8535 0.9716
-0.9545 6.5443 -2.8528 0.9716
-1.5713 6.5935 -2.9238 0.9709
-2.7890 6.3787 -3.0030 0.9701
-3.3447 6.1033 -3.0021 0.9701
-3.8734 5.7795 -3.0012 0.9701
-4.3710 5.4101 -3.0002 0.9702
-4.8337 4.9980 -2.9992 0.9702
-5.2576 4.5464 -2.9983 0.9702
-5.9766 3.5399 -2.9963 0.9702
-6.2660 2.9930 -2.9954 0.9702
-6.8281 1.2302 -2.9928 0.9702
-6.6300 0.0000 -2.9916 0.9713
-6.5222 -1.1750 -2.9903 0.9713
-6.3906 -1.7506 -2.9898 0.9713
-5.9773 -2.8551 -2.9890 0.9713
-5.6989 -3.3755 -2.9887 0.9714
-5.0096 -4.3319 -2.9883 0.9714
-4.6040 -4.7605 -2.9883 0.9714
-3.6872 -5.5017 -2.9884 0.9714
-3.1831 -5.8084 -2.9886 0.9714
-2.0798 -6.2122 -2.9560 0.9717
-0.9446 -6.4770 -2.9535 0.9717
0.2189 -6.5475 -2.9560 0.9717
0.8012 -6.5054 -2.9575 0.9716
1.3778 -6.4119 -2.9592 0.9716
1.9442 -6.2676 -2.9610 0.9716
2.4960 -6.0736 -2.9629 0.9716
3.0288 -5.8314 -2.9650 0.9716
3.5383 -5.5427 -2.9671 0.9716
5.6034 -3.4898 -2.9786 0.9714
5.8963 -2.9795 -2.9809 0.9714
6.1429 -2.4448 -2.9832 0.9714
6.3409 -1.8898 -2.9855 0.9714
6.5849 -0.7366 -2.9897 0.9713
6.6288 -0.1477 -2.9917 0.9713
6.5578 1.0312 -2.9954 0.9713
6.0787 2.7389 -3.0084 0.9712
5.8114 3.2695 -3.0087 0.9712
5.4978 3.7740 -3.0089 0.9712
4.7419 4.6894 -3.0092 0.9712
3.3342 5.7751 -3.0089 0.9712
2.8068 6.0484 -3.0087 0.9712
2.2570 6.2735 -3.0083 0.9712
1.6895 6.4486 -3.0079 0.9712
0.5115 6.5461 -2.9627 0.9716
-0.0720 6.4648 -2.9172 0.9720
-0.6490 6.4510 -2.9255 0.9719
-1.2475 6.5079 -2.9899 0.9713
-1.8303 6.4012 -3.0041 0.9712
-2.9347 5.9719 -3.0024 0.9712
-4.4041 4.9799 -2.9997 0.9712
-4.8284 4.5667 -2.9987 0.9713
-5.8579 3.1259 -2.9960 0.9713
-6.1111 2.5913 -2.9951 0.9713
-6.4628 -1.4643 -2.9901 0.9713
-6.3058 -2.0333 -2.9896 0.9713
-5.8439 -3.1184 -2.9888 0.9714
-5.5427 -3.6259 -2.9886 0.9714
-5.1977 -4.1046 -2.9884 0.9714
-4.3874 -4.9609 -2.9883 0.9714
-3.9285 -5.3318 -2.9883 0.9714
-3.4386 -5.6606 -2.9885 0.9714
-2.9213 -5.9447 -2.9887 0.9714
0.5105 -6.5329 -2.9567 0.9717
1.0905 -6.4650 -2.9583 0.9716
2.2222 -6.1768 -2.9619 0.9716
3.2867 -5.6927 -2.9660 0.9716
3.7831 -5.3815 -2.9682 0.9715
4.2503 -5.0272 -2.9704 0.9715
5.4402 -3.7345 -2.9774 0.9715
6.2480 -2.1695 -2.9844 0.9714
6.5433 -1.0289 -2.9887 0.9714
6.5954 0.7378 -2.9945 0.9713
6.3668 1.8975 -2.9977 0.9713
4.9461 4.4734 -3.0092 0.9712
4.5283 4.8960 -3.0092 0.9712
4.0745 5.2795 -3.0091 0.9712
3.5883 5.6210 -3.0090 0.9712
2.5344 6.1671 -3.0085 0.9712
1.4004 6.5169 -3.0077 0.9712
0.8135 6.6048 -3.0027 0.9712
0.2172 6.4959 -2.9327 0.9719
-0.3596 6.4495 -2.9146 0.9721
-0.9436 6.4701 -2.9503 0.9717
-1.5436 6.4772 -3.0045 0.9712
-2.1134 6.3124 -3.0037 0.9712
-2.6661 6.0976 -3.0028 0.9712
-3.1973 5.8344 -3.0019 0.9712
-3.7028 5.5250 -3.0010 0.9712
-4.6209 4.7780 -2.9992 0.9713
-5.3915 3.8806 -2.9973 0.9713
-5.7137 3.3843 -2.9964 0.9713
-5.9905 2.8614 -2.9955 0.9713
-6.2196 2.3162 -2.9947 0.9713
-6.3992 1.7529 -2.9938 0.9713
-6.5281 1.1761 -2.9930 0.9713
-6.3471 0.0000 -2.9919 0.9723
-5.9438 -2.2135 -2.9897 0.9723
-5.4560 -3.2316 -2.9891 0.9723
-4.7960 -4.1473 -2.9888 0.9724
-3.9847 -4.9319 -2.9887 0.9724
-3.0474 -5.5608 -2.9890 0.9723
-2.5372 -5.8028 -2.9854 0.9724
-1.4525 -6.0950 -2.9535 0.9727
0.2096 -6.2694 -2.9569 0.9726
1.3192 -6.1392 -2.9599 0.9726
1.8615 -6.0009 -2.9617 0.9726
2.3897 -5.8150 -2.9635 0.9726
2.8997 -5.5829 -2.9655 0.9726
3.3875 -5.3063 -2.9675 0.9725
3.8490 -4.9873 -2.9696 0.9725
4.2808 -4.6283 -2.9718 0.9725
5.0411 -3.8017 -2.9763 0.9725
6.0689 -1.8087 -2.9851 0.9724
6.3351 0.4241 -2.9929 0.9723
6.0104 2.0870 -2.9991 0.9723
5.8179 2.6214 -3.0080 0.9722
5.5621 3.1292 -3.0083 0.9722
4.9198 4.0663 -3.0087 0.9722
4.1210 4.8743 -3.0087 0.9722
2.6863 5.7889 -3.0082 0.9722
2.1602 6.0044 -3.0079 0.9722
0.4969 6.3588 -3.0065 0.9722
-0.0710 6.3765 -3.0059 0.9722
-1.1999 6.2601 -3.0046 0.9722
-1.7519 6.1270 -3.0038 0.9722
-2.2897 5.9451 -3.0031 0.9722
-3.3057 5.4419 -3.0014 0.9722
-3.7758 5.1246 -3.0005 0.9722
-4.9911 3.9415 -2.9978 0.9723
-5.6076 2.9923 -2.9961 0.9723
-5.8500 2.4806 -2.9952 0.9723
-6.1938 1.4033 -2.9936 0.9723
-6.3414 0.2828 -2.9922 0.9723
-6.3401 -0.2827 -2.9915 0.9723
-6.0369 -1.9466 -2.9900 0.9723
-5.8389 -2.4759 -2.9896 0.9723
-5.5948 -2.9855 -2.9892 0.9723
-5.3064 -3.4713 -2.9890 0.9723
-4.2004 -4.7495 -2.9887 0.9724
-3.2920 -5.4193 -2.9889 0.9723
-2.7968 -5.6912 -2.9891 0.9723
-2.2621 -5.8734 -2.9668 0.9726
-1.7234 -6.0271 -2.9549 0.9727
-0.6275 -6.2374 -2.9550 0.9727
-0.0699 -6.2711 -2.9562 0.9726
1.5919 -6.0761 -2.9608 0.9726
2.1276 -5.9138 -2.9626 0.9726
3.1466 -5.4501 -2.9665 0.9726
3.6218 -5.1520 -2.9686 0.9725
4.4844 -4.4347 -2.9729 0.9725
4.8649 -4.0210 -2.9751 0.9725
5.7674 -2.5987 -2.9818 0.9724
6.1456 -1.5371 -2.9861 0.9724
6.3458 0.1414 -2.9920 0.9723
6.3117 0.7061 -2.9937 0.9723
5.9286 2.3595 -3.0078 0.9722
5.4174 3.3740 -3.0084 0.9722
5.0959 3.8430 -3.0086 0.9722
4.7338 4.2815 -3.0087 0.9722
4.3340 4.6859 -3.0087 0.9722
3.4343 5.3798 -3.0086 0.9722
2.9417 5.6637 -3.0084 0.9722
2.4257 5.9025 -3.0081 0.9722
1.8905 6.0942 -3.0077 0.9722
1.3404 6.2374 -3.0073 0.9722
0.7797 6.3309 -3.0068 0.9722
0.2131 6.3740 -3.0062 0.9722
-0.3550 6.3664 -3.0056 0.9722
-3.0604 5.5846 -3.0018 0.9722
-3.5443 5.2885 -3.0009 0.9722
-6.1260 1.6781 -2.9940 0.9723
-6.2494 1.1259 -2.9933 0.9723
-6.3233 0.5650 -2.9925 0.9723
-6.0834 0.0000 -2.9921 0.9732
-6.0580 -0.5413 -2.9915 0.9733
-5.9847 -1.0782 -2.9910 0.9733
-5.8641 -1.6063 -2.9905 0.9733
-5.6970 -2.1216 -2.9901 0.9733
-5.2295 -3.0975 -2.9895 0.9733
-4.9328 -3.5504 -2.9893 0.9733
-4.5970 -3.9752 -2.9892 0.9733
-3.8193 -4.7272 -2.9891 0.9733
-3.3835 -5.0485 -2.9892 0.9733
-2.9209 -5.3300 -2.9894 0.9733
-1.9116 -5.7096 -2.9615 0.9735
-0.8671 -5.9457 -2.9554 0.9736
1.2646 -5.8849 -2.9606 0.9735
1.7844 -5.7522 -2.9623 0.9735
3.2468 -5.0861 -2.9679 0.9735
4.1029 -4.4359 -2.9720 0.9734
4.4846 -4.0561 -2.9741 0.9734
5.1401 -3.2013 -2.9784 0.9734
5.6343 -2.2424 -2.9827 0.9733
5.8155 -1.7332 -2.9847 0.9733
5.9507 -1.2095 -2.9867 0.9733
6.0386 -0.6755 -2.9887 0.9733
5.9077 1.4776 -2.9953 0.9732
5.7696 2.0035 -3.0040 0.9731
5.5750 2.5120 -3.0076 0.9731
5.0421 3.4612 -3.0081 0.9731
3.0579 5.2964 -3.0081 0.9731
2.0700 5.7536 -3.0075 0.9731
1.5495 5.9143 -3.0071 0.9731
1.0168 6.0279 -3.0067 0.9731
-0.6115 6.0789 -3.0050 0.9731
-1.6789 5.8714 -3.0036 0.9731
-2.6919 5.4779 -3.0021 0.9732
-3.1679 5.2152 -3.0013 0.9732
-4.0401 4.5683 -2.9996 0.9732
-4.4294 4.1894 -2.9987 0.9732
-5.0992 3.3357 -2.9970 0.9732
-5.3743 2.8679 -2.9962 0.9732
-5.9364 1.3450 -2.9938 0.9732
-6.0780 0.2710 -2.9925 0.9732
-6.0767 -0.2710 -2.9918 0.9732
-6.0274 -0.8106 -2.9913 0.9733
-5.9303 -1.3436 -2.9908 0.9733
-5.7863 -1.8658 -2.9903 0.9733
-5.3626 -2.8616 -2.9896 0.9733
-5.0862 -3.3272 -2.9894 0.9733
-4.7696 -3.7665 -2.9892 0.9733
-3.6050 -4.8927 -2.9892 0.9733
-2.6807 -5.4550 -2.9895 0.9733
-2.1749 -5.6469 -2.9763 0.9734
1.0009 -5.9339 -2.9598 0.9735
1.5259 -5.8244 -2.9614 0.9735
2.0394 -5.6687 -2.9631 0.9735
2.5375 -5.4681 -2.9650 0.9735
3.0160 -5.2239 -2.9669 0.9735
3.4713 -4.9380 -2.9689 0.9735
4.2979 -4.2503 -2.9730 0.9734
4.6625 -3.8536 -2.9752 0.9734
4.9906 -3.4258 -2.9773 0.9734
5.2795 -2.9702 -2.9795 0.9734
5.5269 -2.4903 -2.9816 0.9733
5.7306 -1.9899 -2.9837 0.9733
5.8890 -1.4729 -2.9857 0.9733
6.0803 0.1355 -2.9914 0.9733
6.0475 0.6765 -2.9930 0.9732
5.8374 1.7397 -2.9959 0.9732
5.6810 2.2610 -3.0074 0.9731
5.4578 2.7579 -3.0077 0.9731
4.8831 3.6825 -3.0082 0.9731
4.5361 4.1027 -3.0083 0.9731
4.1530 4.4902 -3.0083 0.9731
3.7368 4.8419 -3.0083 0.9731
2.8188 5.4272 -3.0080 0.9731
2.3244 5.6560 -3.0077 0.9731
1.8115 5.8398 -3.0073 0.9731
1.2844 5.9770 -3.0069 0.9731
0.2042 6.1080 -3.0059 0.9731
-3.3966 5.0682 -3.0009 0.9732
-3.8332 4.7444 -3.0000 0.9732
-4.6110 3.9873 -2.9983 0.9732
-4.9462 3.5601 -2.9975 0.9732
-5.2420 3.1048 -2.9966 0.9732
-5.7063 2.1251 -2.9950 0.9732
-5.8713 1.6083 -2.9942 0.9732
-6.0605 0.5415 -2.9928 0.9732
-5.7423 -1.0345 -2.9913 0.9741
-5.6266 -1.5413 -2.9909 0.9741
-5.0178 -2.9721 -2.9899 0.9741
-4.4109 -3.8142 -2.9896 0.9741
-2.8026 -5.1142 -2.9898 0.9741
-1.3372 -5.6113 -2.9573 0.9744
-0.8322 -5.7059 -2.9562 0.9744
-0.3211 -5.7594 -2.9573 0.9744
0.7057 -5.7300 -2.9598 0.9744
3.5397 -4.5865 -2.9702 0.9743
4.6351 -3.4955 -2.9763 0.9742
4.9313 -3.0712 -2.9783 0.9742
5.1886 -2.6219 -2.9804 0.9742
5.4051 -2.1512 -2.9824 0.9742
5.5788 -1.6627 -2.9844 0.9742
5.7083 -1.1603 -2.9863 0.9742
5.7925 -0.6480 -2.9882 0.9741
5.8222 0.3897 -2.9916 0.9741
5.7674 0.9069 -2.9931 0.9741
5.6664 1.4173 -2.9945 0.9741
5.5406 1.9239 -3.0069 0.9740
5.3480 2.4097 -3.0072 0.9740
5.1128 2.8764 -3.0075 0.9740
4.8368 3.3203 -3.0077 0.9740
4.5223 3.7378 -3.0078 0.9740
4.1718 4.1255 -3.0079 0.9740
3.7880 4.4804 -3.0079 0.9740
3.3741 4.7997 -3.0078 0.9740
2.9334 5.0807 -3.0077 0.9740
2.4693 5.3212 -3.0075 0.9740
0.4568 5.8454 -3.0059 0.9740
-0.0653 5.8618 -3.0053 0.9740
-1.1031 5.7550 -3.0041 0.9740
-1.6106 5.6327 -3.0034 0.9740
-2.1050 5.4656 -3.0027 0.9740
-3.0392 5.0032 -3.0012 0.9740
-3.8761 4.3828 -2.9995 0.9740
-4.2496 4.0193 -2.9987 0.9741
-5.1563 2.7515 -2.9963 0.9741
-5.5596 1.7927 -2.9948 0.9741
-5.6957 1.2905 -2.9940 0.9741
-5.7867 0.7782 -2.9934 0.9741
-5.7832 -0.7778 -2.9916 0.9741
-5.6901 -1.2892 -2.9911 0.9741
-5.3699 -2.2771 -2.9903 0.9741
-4.8803 -3.1925 -2.9898 0.9741
-4.5765 -3.6141 -2.9896 0.9741
-3.0276 -4.9841 -2.9897 0.9741
-2.5721 -5.2342 -2.9899 0.9741
-1.5878 -5.5529 -2.9609 0.9744
-0.5773 -5.7383 -2.9567 0.9744
1.9570 -5.4396 -2.9637 0.9743
3.3308 -4.7380 -2.9692 0.9743
3.7417 -4.4257 -2.9712 0.9743
4.1236 -4.0779 -2.9732 0.9743
4.4733 -3.6973 -2.9752 0.9743
5.0650 -2.8495 -2.9794 0.9742
5.4974 -1.9089 -2.9834 0.9742
5.6491 -1.4129 -2.9854 0.9742
5.7561 -0.9051 -2.9872 0.9741
5.8173 -0.3894 -2.9890 0.9741
5.8322 0.1300 -2.9907 0.9741
5.4497 2.1689 -3.0070 0.9740
5.2356 2.6457 -3.0074 0.9740
4.9797 3.1014 -3.0076 0.9740
4.6842 3.5325 -3.0078 0.9740
4.3514 3.9356 -3.0079 0.9740
3.1569 4.9451 -3.0078 0.9740
2.2297 5.4257 -3.0073 0.9740
1.7378 5.6020 -3.0070 0.9740
1.2321 5.7337 -3.0066 0.9740
0.7168 5.8197 -3.0061 0.9740
-0.8457 5.7990 -3.0044 0.9740
-2.3461 5.3658 -3.0023 0.9740
-2.8137 5.1343 -3.0016 0.9740
-3.6775 4.5517 -3.0000 0.9740
-4.0669 4.2052 -2.9991 0.9740
-4.4238 3.8254 -2.9983 0.9741
-4.7455 3.4156 -2.9975 0.9741
-5.0293 2.9788 -2.9967 0.9741
-5.2731 2.5187 -2.9959 0.9741
-5.4749 2.0389 -2.9951 0.9741
-5.7469 1.0354 -2.9937 0.9741
-5.8149 0.5196 -2.9930 0.9741
-5.6059 0.0000 -2.9927 0.9749
-5.5151 -0.9936 -2.9916 0.9749
-5.4040 -1.4803 -2.9912 0.9749
-5.0547 -2.4144 -2.9905 0.9749
-4.8194 -2.8545 -2.9902 0.9749
-4.5459 -3.2719 -2.9900 0.9749
-4.2365 -3.6634 -2.9899 0.9749
-3.8935 -4.0259 -2.9899 0.9749
-3.5198 -4.3565 -2.9899 0.9749
-3.1181 -4.6526 -2.9900 0.9749
-2.6918 -4.9119 -2.9902 0.9749
-2.2441 -5.1324 -2.9904 0.9749
-0.7994 -5.4811 -2.9570 0.9752
0.6779 -5.5039 -2.9604 0.9752
3.3996 -4.4049 -2.9704 0.9751
4.1321 -3.7373 -2.9743 0.9751
4.4513 -3.3569 -2.9763 0.9750
4.9826 -2.5178 -2.9802 0.9750
5.3570 -1.5965 -2.9841 0.9750
5.5374 0.8707 -2.9924 0.9749
5.1353 2.3138 -3.0069 0.9748
4.3424 3.5891 -3.0075 0.9748
3.2399 4.6088 -3.0075 0.9748
2.8167 4.8786 -3.0073 0.9748
2.3711 5.1096 -3.0071 0.9748
1.9067 5.2999 -3.0068 0.9748
0.9366 5.5526 -3.0061 0.9748
-1.0593 5.5263 -3.0039 0.9748
-2.0214 5.2486 -3.0025 0.9748
-2.9186 4.8046 -3.0011 0.9748
-3.7223 4.2089 -2.9995 0.9748
-4.4072 3.4804 -2.9979 0.9749
-4.9519 2.6424 -2.9964 0.9749
-5.1662 2.1906 -2.9956 0.9749
-5.3394 1.7217 -2.9949 0.9749
-5.5544 -0.7470 -2.9919 0.9749
-5.4650 -1.2382 -2.9914 0.9749
-5.1575 -2.1870 -2.9906 0.9749
-4.6873 -3.0663 -2.9901 0.9749
-4.3955 -3.4711 -2.9900 0.9749
-4.0690 -3.8485 -2.9899 0.9749
-3.7103 -4.1953 -2.9899 0.9749
-2.9079 -4.7870 -2.9901 0.9749
-2.4704 -5.0271 -2.9903 0.9749
-0.0617 -5.5417 -2.9586 0.9752
0.4319 -5.5275 -2.9598 0.9752
1.4065 -5.3684 -2.9626 0.9752
2.3386 -5.0395 -2.9659 0.9751
4.2959 -3.5507 -2.9753 0.9750
4.8639 -2.7364 -2.9793 0.9750
5.0915 -2.2941 -2.9812 0.9750
5.4245 -1.3567 -2.9850 0.9750
5.5270 -0.8691 -2.9868 0.9749
5.5857 -0.3739 -2.9885 0.9749
5.5999 0.1248 -2.9902 0.9749
5.5694 0.6231 -2.9917 0.9749
5.3869 1.6055 -3.0008 0.9748
4.1783 3.7790 -3.0075 0.9748
3.4420 4.4599 -3.0075 0.9748
2.5965 4.9991 -3.0072 0.9748
1.6687 5.3793 -3.0067 0.9748
1.1831 5.5057 -3.0063 0.9748
0.6883 5.5884 -3.0058 0.9748
-0.3134 5.6199 -3.0048 0.9748
-0.8121 5.5686 -3.0042 0.9748
-1.3043 5.4730 -3.0036 0.9748
-1.7858 5.3340 -3.0029 0.9748
-2.2530 5.1527 -3.0022 0.9748
