ply
format ascii 1.0
element vertex 1590
property float32 x
property float32 y
property float32 z
property float32 I
end_header
4.1512 -1.2372 0.8383 0.9825
2.6045 7.2392 1.4888 0.9691
3.8058 -2.1411 0.8450 0.9824
4.0066 -1.3912 0.8208 0.9829
4.3959 -1.0995 0.8769 0.9817
3.7816 -2.3552 0.7856 0.9821
3.7325 -1.8861 0.7374 0.9832
3.8398 -1.5282 0.7287 0.9834
4.6044 -0.9359 0.8285 0.9811
2.6045 7.2392 1.3566 0.9692
3.7311 -2.0991 0.7549 0.9828
3.7679 -1.6977 0.7287 0.9834
3.9377 -1.3673 0.7350 0.9832
3.6961 -2.3019 0.6934 0.9825
3.6705 -1.8548 0.6549 0.9835
3.9936 -1.1902 0.6636 0.9833
4.4466 -0.9038 0.7225 0.9818
2.6044 7.2391 1.2251 0.9693
3.7202 -1.4806 0.5695 0.9840
3.9250 -1.1698 0.5825 0.9836
4.3351 -0.8812 0.6292 0.9823
2.6044 7.2391 1.0943 0.9694
3.7097 -2.5466 0.6400 0.9820
3.8082 -1.3224 0.5734 0.9838
4.0937 -1.0239 0.6002 0.9831
4.8626 -0.7646 0.7001 0.9803
3.8644 -2.9143 0.6065 0.9807
3.5745 -1.8063 0.5019 0.9840
3.6843 -1.4663 0.4969 0.9841
4.2480 -0.8634 0.5432 0.9827
2.6044 7.2390 0.9641 0.9695
3.6149 -2.4815 0.5495 0.9825
3.5524 -1.9986 0.5108 0.9837
3.5146 -2.1889 0.4491 0.9835
3.5394 -1.7885 0.4301 0.9842
3.6492 -1.4524 0.4260 0.9843
3.8432 -1.1454 0.4350 0.9840
3.5139 -1.9769 0.4373 0.9839
3.5779 -1.6121 0.4257 0.9843
3.7325 -1.2961 0.4286 0.9842
3.6390 -2.7443 0.4178 0.9819
3.5051 -1.7712 0.3600 0.9843
3.8050 -1.1340 0.3640 0.9842
3.5180 -2.4150 0.3912 0.9830
3.5443 -1.5970 0.3564 0.9845
4.4115 -0.6937 0.4094 0.9822
3.5728 -2.6944 0.3353 0.9822
3.4384 -2.1414 0.3036 0.9839
3.7677 -1.1229 0.2946 0.9844
4.0734 -0.8280 0.3115 0.9835
4.8804 -0.5460 0.3680 0.9805
2.6043 7.2389 0.5765 0.9696
3.5115 -1.5822 0.2886 0.9847
3.6603 -1.2710 0.2904 0.9846
3.5149 -2.6507 0.2564 0.9825
3.4489 -1.7428 0.2251 0.9846
3.7418 -1.1152 0.2274 0.9845
4.0306 -0.8193 0.2396 0.9837
2.6043 7.2388 0.4481 0.9696
3.8768 -3.2043 0.2929 0.9800
3.4348 -2.3579 0.2427 0.9834
3.4141 -1.9207 0.2282 0.9844
3.3904 -2.1115 0.1661 0.9841
3.4308 -1.7337 0.1598 0.9847
4.0055 -0.8142 0.1700 0.9838
4.6121 -0.5160 0.1930 0.9816
3.7176 -3.0727 0.2005 0.9809
3.4103 -2.3410 0.1720 0.9836
3.3944 -1.9096 0.1619 0.9845
3.4720 -1.5644 0.1583 0.9849
3.6171 -1.2560 0.1592 0.9848
3.8472 -0.9623 0.1649 0.9842
3.4129 -1.7246 0.0954 0.9848
3.5232 -1.4022 0.0946 0.9849
3.7018 -1.1033 0.0963 0.9847
3.9807 -0.8091 0.1013 0.9839
2.6043 7.2387 0.1919 0.9697
3.3749 -1.8987 0.0966 0.9846
3.4545 -1.5565 0.0945 0.9850
3.5980 -1.2494 0.0950 0.9849
3.8241 -0.9565 0.0983 0.9844
4.2044 -0.6611 0.1061 0.9831
3.3508 -2.0869 0.0328 0.9843
3.6821 -1.0974 0.0319 0.9847
3.9563 -0.8042 0.0336 0.9840
4.5045 -0.5039 0.0377 0.9820
3.5968 -2.9729 0.0388 0.9815
3.3623 -2.3081 0.0339 0.9838
4.1723 -0.6561 0.0351 0.9832
3.3829 -2.5512 -0.0352 0.9832
3.3313 -2.0747 -0.0326 0.9844
3.3777 -1.7068 -0.0315 0.9850
3.4879 -1.3882 -0.0312 0.9851
3.6627 -1.0916 -0.0318 0.9848
3.9322 -0.7992 -0.0333 0.9841
4.4557 -0.4985 -0.0373 0.9822
2.6042 7.2387 -0.0639 0.9697
3.5394 -2.9254 -0.0382 0.9818
3.5606 -1.2364 -0.0313 0.9850
4.1407 -0.6511 -0.0348 0.9834
3.3673 -1.7016 -0.0941 0.9850
3.4774 -1.3840 -0.0933 0.9851
3.6513 -1.0882 -0.0950 0.9849
3.9186 -0.7965 -0.0997 0.9841
3.3260 -2.2831 -0.1006 0.9840
4.1237 -0.6484 -0.1041 0.9834
3.3619 -2.5353 -0.1751 0.9833
3.3140 -2.0640 -0.1623 0.9845
3.4718 -1.3817 -0.1554 0.9852
3.6450 -1.0863 -0.1581 0.9849
3.9109 -0.7949 -0.1659 0.9841
4.4158 -0.4940 -0.1848 0.9824
2.6042 7.2385 -0.3198 0.9697
3.4938 -2.8877 -0.1885 0.9820
3.5435 -1.2304 -0.1560 0.9851
3.7586 -0.9401 -0.1611 0.9846
3.3540 -2.5293 -0.2447 0.9833
3.3078 -2.0601 -0.2270 0.9845
3.3561 -1.6959 -0.2190 0.9850
3.4661 -1.3795 -0.2173 0.9852
3.6388 -1.0845 -0.2211 0.9849
2.6042 7.2385 -0.4480 0.9696
3.4780 -2.8746 -0.2628 0.9821
3.7514 -0.9383 -0.2252 0.9846
4.1035 -0.6452 -0.2419 0.9835
3.3460 -2.5233 -0.3141 0.9833
3.3504 -1.6930 -0.2813 0.9851
3.4605 -1.3772 -0.2791 0.9852
3.6326 -1.0826 -0.2841 0.9849
3.8955 -0.7918 -0.2979 0.9842
4.3850 -0.4905 -0.3307 0.9825
3.3034 -2.2677 -0.3003 0.9841
3.3116 -1.8631 -0.2848 0.9849
3.3930 -1.5288 -0.2789 0.9852
3.5315 -1.2263 -0.2802 0.9851
3.7442 -0.9365 -0.2892 0.9846
4.0935 -0.6437 -0.3105 0.9835
3.3381 -2.5174 -0.3833 0.9833
3.3448 -1.6902 -0.3436 0.9851
3.8877 -0.7902 -0.3637 0.9842
2.6042 7.2384 -0.7052 0.9696
3.2959 -2.2625 -0.3665 0.9841
3.3060 -1.8599 -0.3478 0.9849
3.3875 -1.5263 -0.3406 0.9852
3.5256 -1.2242 -0.3421 0.9851
3.7370 -0.9347 -0.3532 0.9846
3.6224 -1.0796 -0.4100 0.9849
2.6042 7.2383 -0.8344 0.9695
3.3027 -1.8581 -0.4110 0.9849
3.3828 -1.5242 -0.4024 0.9852
3.7341 -0.9340 -0.4175 0.9846
4.0880 -0.6428 -0.4489 0.9835
3.3511 -2.5272 -0.5260 0.9832
3.2999 -2.0552 -0.4872 0.9845
3.3464 -1.6910 -0.4699 0.9850
3.4559 -1.3754 -0.4661 0.9851
3.6288 -1.0815 -0.4745 0.9849
3.8954 -0.7918 -0.4981 0.9841
4.4040 -0.4927 -0.5553 0.9823
3.4838 -2.8794 -0.5664 0.9819
3.3042 -2.2682 -0.5022 0.9840
4.0985 -0.6445 -0.5199 0.9834
3.3594 -2.5334 -0.5985 0.9831
3.3063 -2.0592 -0.5540 0.9844
3.3522 -1.6939 -0.5342 0.9849
3.6353 -1.0834 -0.5395 0.9848
3.9035 -0.7934 -0.5666 0.9840
2.6041 7.2382 -1.0941 0.9694
3.5032 -2.8954 -0.6464 0.9818
3.3120 -2.2736 -0.5714 0.9839
3.3677 -2.5397 -0.6717 0.9831
3.3581 -1.6969 -0.5991 0.9849
3.9116 -0.7951 -0.6356 0.9840
2.6041 7.2382 -1.2249 0.9693
3.5228 -2.9117 -0.7278 0.9817
3.3198 -2.2789 -0.6412 0.9838
3.3202 -1.8679 -0.6066 0.9847
3.3999 -1.5319 -0.5938 0.9850
3.7566 -0.9396 -0.6166 0.9844
4.1198 -0.6478 -0.6641 0.9833
3.3194 -2.0673 -0.6895 0.9842
3.3640 -1.6999 -0.6646 0.9848
3.4735 -1.3824 -0.6592 0.9849
3.6484 -1.0873 -0.6713 0.9847
3.9198 -0.7967 -0.7053 0.9839
2.6041 7.2381 -1.3564 0.9692
3.5863 -2.9641 -0.8204 0.9813
3.3278 -2.2844 -0.7117 0.9837
3.3261 -1.8712 -0.6729 0.9846
3.5456 -1.2312 -0.6618 0.9849
4.1306 -0.6495 -0.7373 0.9832
-13.7795 -5.1316 -2.8455 0.9419
-13.2728 -6.3399 -2.8465 0.9418
-11.9283 -8.5854 -2.8441 0.9419
3.3301 -2.0740 -0.7592 0.9841
3.3699 -1.7029 -0.7307 0.9847
3.9375 -0.8003 -0.7776 0.9838
2.6041 7.2381 -1.4886 0.9691
-13.5398 -5.7414 -2.8460 0.9418
-11.5279 -9.1034 -2.8426 0.9419
3.6597 -3.0248 -0.9188 0.9808
3.3321 -1.8746 -0.7399 0.9845
3.5520 -1.2334 -0.7276 0.9848
4.1654 -0.6550 -0.8160 0.9830
-14.2219 0.0000 -2.9983 0.9435
-14.1632 -1.2656 -2.9978 0.9435
-13.7100 -3.7556 -2.9968 0.9435
-11.6045 -6.8733 -2.8434 0.9464
-11.1539 -8.0281 -2.8972 0.9454
-10.7450 -9.2915 -2.9947 0.9436
-6.7055 -12.2360 -2.9416 0.9446
-5.5916 -12.7882 -2.9425 0.9445
-3.2385 -13.5894 -2.9452 0.9445
-2.0174 -13.8320 -2.9469 0.9445
-0.7787 -13.9662 -2.9489 0.9444
0.4678 -13.9908 -2.9512 0.9444
6.4836 -12.4832 -2.9655 0.9441
7.5774 -11.8699 -2.9688 0.9441
9.5816 -10.3595 -2.9749 0.9439
10.4701 -9.4697 -2.9762 0.9439
3.3519 -2.0876 -0.8325 0.9840
3.3876 -1.7118 -0.8002 0.9846
3.4959 -1.3913 -0.7932 0.9847
3.9647 -0.8059 -0.8529 0.9836
14.1952 0.9503 -2.9993 0.9435
14.0565 2.2103 -2.9998 0.9435
13.8062 3.4532 -3.0003 0.9435
11.7399 8.0590 -3.0020 0.9435
10.9774 9.0730 -3.0024 0.9434
10.1274 10.0152 -3.0028 0.9434
2.2524 13.3532 -2.8549 0.9461
-1.3558 13.4774 -2.8556 0.9461
-2.5502 13.3043 -2.8559 0.9461
-3.7245 13.0254 -2.8561 0.9461
-4.8693 12.6430 -2.8563 0.9461
-8.4491 11.4673 -3.0029 0.9434
-11.1744 8.8244 -3.0018 0.9435
-11.9138 7.7937 -3.0014 0.9435
-12.5584 6.7013 -3.0009 0.9435
-13.1030 5.5562 -3.0005 0.9435
-13.5434 4.3672 -3.0000 0.9435
-13.8761 3.1439 -2.9995 0.9435
-14.2066 -0.6335 -2.9980 0.9435
-13.8648 -3.1413 -2.9971 0.9435
-13.4678 -4.3428 -2.9833 0.9438
-12.4666 -5.2863 -2.8547 0.9461
-11.9004 -6.3503 -2.8437 0.9464
-11.1489 -8.8042 -2.9949 0.9436
-9.2391 -10.4468 -2.9401 0.9446
-7.2422 -11.9224 -2.9409 0.9446
-3.8396 -13.4281 -2.9444 0.9445
-2.6307 -13.7241 -2.9460 0.9445
-1.3996 -13.9127 -2.9479 0.9444
-0.1559 -13.9922 -2.9500 0.9444
1.0910 -13.9618 -2.9524 0.9444
2.3314 -13.8215 -2.9550 0.9443
4.7543 -13.2149 -2.9608 0.9442
8.1033 -11.5271 -2.9705 0.9440
9.1077 -10.7726 -2.9740 0.9440
3.7367 -3.0884 -1.0220 0.9804
3.3738 -2.3160 -0.8627 0.9834
3.3516 -1.8856 -0.8107 0.9844
3.4276 -1.5444 -0.7926 0.9847
3.8005 -0.9506 -0.8259 0.9841
4.2021 -0.6607 -0.8968 0.9828
14.1917 -0.9500 -2.9986 0.9435
14.2222 0.3170 -2.9991 0.9435
13.9452 2.8345 -3.0000 0.9435
13.2258 5.2638 -3.0010 0.9435
12.7067 6.4210 -3.0014 0.9435
10.5629 9.5536 -3.0026 0.9434
8.7035 11.2774 -3.0032 0.9434
7.6659 12.0084 -3.0035 0.9434
1.6554 13.4409 -2.8550 0.9461
0.4526 13.5362 -2.8553 0.9461
-1.9549 13.4041 -2.8558 0.9461
-3.1404 13.1779 -2.8560 0.9461
-4.3012 12.8470 -2.8562 0.9461
-5.4264 12.4105 -2.8555 0.9461
-6.5020 11.8648 -2.8523 0.9462
-7.9303 11.8329 -3.0030 0.9434
-9.9005 10.2371 -3.0024 0.9434
-11.5556 8.3172 -3.0016 0.9435
-12.2483 7.2547 -3.0011 0.9435
-13.7234 3.7592 -2.9997 0.9435
-14.0012 2.5224 -2.9993 0.9435
-14.1678 1.2661 -2.9988 0.9435
-13.1364 0.0000 -2.9983 0.9475
-13.0823 -1.1690 -2.9978 0.9475
-12.3032 -4.5817 -2.9965 0.9476
-11.2929 -6.6888 -2.9957 0.9476
-10.6514 -7.6665 -2.9954 0.9476
-9.9257 -8.5831 -2.9950 0.9476
-5.1693 -11.8226 -2.9451 0.9484
-4.0983 -12.2411 -2.9464 0.9484
-0.7199 -12.9102 -2.9512 0.9483
0.4324 -12.9322 -2.9533 0.9483
1.5829 -12.8524 -2.9556 0.9483
2.7229 -12.6712 -2.9581 0.9482
3.8433 -12.3897 -2.9608 0.9482
4.9356 -12.0099 -2.9636 0.9481
5.9909 -11.5345 -2.9666 0.9481
7.0010 -10.9668 -2.9697 0.9480
3.3741 -2.1014 -0.9073 0.9838
3.4074 -1.7218 -0.8714 0.9845
3.5157 -1.3992 -0.8636 0.9846
3.9926 -0.8115 -0.9299 0.9834
12.9831 2.0415 -2.9997 0.9475
12.7518 3.1894 -3.0002 0.9475
12.4190 4.3124 -3.0006 0.9475
11.4608 6.4477 -3.0014 0.9475
10.1384 8.3796 -3.0021 0.9475
8.4938 10.0465 -3.0027 0.9475
2.6040 7.2379 -1.7557 0.9689
3.1696 12.0983 -2.8546 0.9500
2.0804 12.3334 -2.8548 0.9500
0.9745 12.4707 -2.8550 0.9500
-0.1394 12.5089 -2.8553 0.9500
-1.2523 12.4479 -2.8555 0.9500
-3.4399 12.0303 -2.8559 0.9500
-4.4964 11.6748 -2.8555 0.9500
-6.6358 10.9241 -2.9173 0.9489
-8.7140 9.8531 -3.0022 0.9475
-9.5553 9.0374 -3.0019 0.9475
-10.3206 8.1501 -3.0015 0.9475
-13.0221 1.7513 -2.9990 0.9475
-13.0162 -1.7505 -2.9976 0.9475
-12.8068 -2.9017 -2.9972 0.9475
-12.4960 -4.0294 -2.9967 0.9476
-12.0861 -5.1249 -2.9963 0.9476
-11.5804 -6.1795 -2.9959 0.9476
-10.9830 -7.1848 -2.9955 0.9476
-10.2988 -8.1328 -2.9952 0.9476
-9.4949 -8.9802 -2.9829 0.9478
-8.5421 -9.6587 -2.9430 0.9485
-6.6944 -11.0205 -2.9431 0.9485
-5.6885 -11.5757 -2.9439 0.9485
-2.4320 -12.6874 -2.9485 0.9484
2.1548 -12.7744 -2.9569 0.9482
3.2861 -12.5429 -2.9595 0.9482
4.3935 -12.2120 -2.9622 0.9481
5.4684 -11.7840 -2.9651 0.9481
7.4852 -10.6478 -2.9707 0.9480
8.4077 -9.9446 -2.9723 0.9480
9.2646 -9.1620 -2.9740 0.9479
13.1044 -0.8772 -2.9977 0.9475
13.0602 1.4610 -2.9995 0.9475
12.8802 2.6180 -2.9999 0.9475
11.1629 6.9523 -3.0016 0.9475
8.9325 9.6577 -3.0026 0.9475
8.0382 10.4153 -3.0029 0.9475
5.7568 11.0838 -2.8507 0.9500
3.7054 11.9451 -2.8545 0.9500
2.6276 12.2279 -2.8547 0.9500
0.4180 12.5022 -2.8551 0.9500
-1.8056 12.3802 -2.8556 0.9500
-2.9005 12.1712 -2.8558 0.9500
-5.0095 11.4571 -2.8540 0.9500
-6.0031 10.9542 -2.8510 0.9500
-8.2669 10.2321 -3.0024 0.9475
-10.6727 7.6818 -3.0013 0.9475
-12.3179 4.5872 -3.0001 0.9475
-12.6754 3.4722 -2.9997 0.9475
-12.9322 2.3299 -2.9992 0.9475
-12.0016 -2.1622 -2.9975 0.9510
-11.7599 -3.2213 -2.9971 0.9510
-11.4250 -4.2547 -2.9967 0.9510
-10.9996 -5.2541 -2.9963 0.9510
-9.8914 -7.1194 -2.9956 0.9510
-8.3618 -8.6461 -2.9565 0.9517
-4.8022 -10.9829 -2.9464 0.9518
-1.7329 -11.8821 -2.9515 0.9517
1.4707 -11.9413 -2.9573 0.9516
3.5704 -11.5100 -2.9621 0.9516
4.5848 -11.1564 -2.9648 0.9515
5.5634 -10.7113 -2.9668 0.9515
8.2119 -8.8786 -2.9727 0.9514
3.4275 -1.7320 -0.9439 0.9843
3.5358 -1.4072 -0.9354 0.9844
3.7208 -1.1089 -0.9543 0.9841
12.1093 -1.3546 -2.9950 0.9510
12.0555 1.8956 -2.9996 0.9510
11.8405 2.9615 -3.0000 0.9510
10.6415 5.9868 -3.0012 0.9510
10.0676 6.9110 -3.0015 0.9509
9.4135 7.7805 -3.0019 0.9509
7.8863 9.3280 -3.0024 0.9509
7.0253 9.9937 -3.0027 0.9509
5.9610 10.3248 -2.9304 0.9521
4.8814 10.5191 -2.8504 0.9534
2.6040 7.2379 -1.8907 0.9688
-0.1294 11.6150 -2.8551 0.9533
-2.1870 11.4096 -2.8555 0.9533
-7.2452 9.8333 -3.0023 0.9509
-8.0909 9.1486 -3.0020 0.9509
-9.5827 7.5674 -3.0013 0.9509
-10.2170 6.6837 -3.0010 0.9510
-10.7700 5.7471 -3.0006 0.9510
-11.2373 4.7650 -3.0002 0.9510
-11.6152 3.7454 -2.9998 0.9510
-11.9009 2.6964 -2.9994 0.9510
-12.1869 0.5434 -2.9985 0.9510
-12.0868 -1.6255 -2.9977 0.9510
-10.7540 -5.7385 -2.9961 0.9510
-9.5639 -7.5525 -2.9954 0.9510
-7.1079 -9.6470 -2.9454 0.9518
-3.2983 -11.5347 -2.9489 0.9518
-1.2023 -11.9509 -2.9524 0.9517
-0.1339 -12.0180 -2.9542 0.9517
0.9370 -11.9905 -2.9563 0.9517
3.0529 -11.6527 -2.9609 0.9516
6.0368 -10.4559 -2.9677 0.9515
6.9468 -9.8819 -2.9691 0.9515
8.6033 -8.5080 -2.9741 0.9514
3.4292 -2.3540 -1.0224 0.9830
3.4667 -1.5620 -0.9346 0.9845
3.6127 -1.2545 -0.9400 0.9844
3.8527 -0.9636 -0.9761 0.9838
12.1628 -0.8142 -2.9963 0.9510
12.1971 0.2718 -2.9988 0.9510
12.1271 1.3566 -2.9994 0.9510
11.6976 3.4863 -3.0002 0.9510
11.3424 4.5142 -3.0006 0.9510
10.8969 5.5065 -3.0010 0.9510
8.2937 8.9670 -3.0023 0.9509
7.4633 9.6704 -3.0026 0.9509
6.5734 10.2971 -3.0028 0.9509
5.3450 10.2910 -2.8503 0.9534
3.4408 11.0919 -2.8545 0.9533
-0.6467 11.5981 -2.8552 0.9533
-1.6765 11.4953 -2.8554 0.9533
-4.6496 10.6339 -2.8527 0.9533
-6.8003 10.1468 -3.0024 0.9509
-7.6757 9.5004 -3.0021 0.9509
-8.4900 8.7787 -3.0018 0.9509
-9.2367 7.9872 -3.0015 0.9509
-10.5040 6.2215 -3.0008 0.9510
-11.0146 5.2613 -3.0004 0.9510
-11.4376 4.2594 -3.0000 0.9510
-11.7697 3.2241 -2.9996 0.9510
-12.0083 2.1634 -2.9992 0.9510
-11.3789 0.0000 -2.9983 0.9540
-11.3322 -1.0126 -2.9979 0.9540
-11.1957 -2.0170 -2.9976 0.9540
-10.2612 -4.9014 -2.9965 0.9540
-9.7831 -5.7946 -2.9961 0.9541
-9.2276 -6.6416 -2.9958 0.9541
-8.5990 -7.4358 -2.9955 0.9541
-7.0301 -8.7012 -2.9476 0.9548
-2.5956 -10.8916 -2.9503 0.9547
-0.6242 -11.1941 -2.9542 0.9547
0.3754 -11.2130 -2.9563 0.9547
1.3724 -11.1428 -2.9583 0.9546
5.1872 -9.9871 -2.9654 0.9545
7.6609 -8.2829 -2.9729 0.9544
3.6252 -2.7339 -1.1964 0.9814
3.4200 -2.1300 -1.0617 0.9835
3.5564 -1.4154 -1.0086 0.9843
11.2916 -1.2631 -2.9939 0.9541
11.3541 0.7601 -2.9985 0.9540
11.2454 1.7683 -2.9996 0.9540
10.7564 3.7350 -3.0003 0.9540
10.3825 4.6782 -3.0007 0.9540
8.7805 7.2573 -3.0016 0.9540
8.1005 8.0107 -3.0019 0.9540
7.3559 8.7006 -3.0022 0.9540
6.5528 9.3215 -3.0024 0.9540
4.5530 9.8115 -2.8501 0.9562
0.8440 10.8013 -2.8548 0.9562
-0.1207 10.8344 -2.8550 0.9562
-1.0846 10.7813 -2.8552 0.9562
-2.0400 10.6427 -2.8554 0.9562
-3.8912 10.1034 -2.8529 0.9562
-4.7708 9.7083 -2.8503 0.9562
-5.9153 9.7379 -3.0023 0.9540
-6.7580 9.1721 -3.0020 0.9540
-8.2756 7.8271 -3.0015 0.9540
-8.9385 7.0587 -3.0011 0.9540
-9.5302 6.2344 -3.0008 0.9540
-10.4821 4.4448 -3.0001 0.9540
-10.8347 3.4938 -2.9997 0.9540
-11.1012 2.5152 -2.9993 0.9540
-11.2796 1.5170 -2.9989 0.9540
-11.3683 0.5069 -2.9985 0.9540
-10.8249 -3.4906 -2.9970 0.9540
-10.4700 -4.4396 -2.9966 0.9540
-9.5148 -6.2243 -2.9960 0.9541
-8.9221 -7.0457 -2.9957 0.9541
-8.2588 -7.8112 -2.9954 0.9541
-5.8077 -9.5608 -2.9477 0.9548
-2.1083 -10.9988 -2.9509 0.9547
-1.1218 -11.1511 -2.9532 0.9547
1.8680 -11.0743 -2.9593 0.9546
3.8068 -10.5811 -2.9631 0.9545
5.6292 -9.7501 -2.9666 0.9545
3.4868 -1.5711 -1.0077 0.9843
3.8796 -0.9704 -1.0538 0.9836
11.3725 0.2534 -2.9974 0.9540
11.3123 1.2655 -2.9994 0.9540
10.9114 3.2520 -3.0001 0.9540
10.1644 5.1363 -3.0009 0.9540
6.9613 9.0200 -3.0023 0.9540
6.1313 9.6045 -3.0025 0.9540
4.1115 10.0048 -2.8502 0.9562
3.2049 10.3315 -2.8503 0.9562
1.3243 10.7527 -2.8547 0.9562
0.3621 10.8286 -2.8549 0.9562
-3.4388 10.2711 -2.8541 0.9562
-4.3355 9.9157 -2.8516 0.9562
-9.2435 6.6531 -3.0010 0.9540
-9.7979 5.8033 -3.0006 0.9540
-10.6690 3.9732 -2.9999 0.9540
-10.9789 3.0074 -2.9995 0.9540
-10.6132 -0.9484 -2.9980 0.9567
-10.4854 -1.8890 -2.9976 0.9567
-10.2744 -2.8144 -2.9973 0.9567
-9.6104 -4.5905 -2.9966 0.9567
-6.5882 -8.1544 -2.9495 0.9574
-5.8363 -8.7084 -2.9495 0.9574
-3.3298 -9.9456 -2.9509 0.9574
-1.5148 -10.3862 -2.9532 0.9573
3.1188 -10.0539 -2.9617 0.9572
4.8591 -9.3554 -2.9661 0.9571
5.6769 -8.8927 -2.9684 0.9571
6.4510 -8.3587 -2.9707 0.9571
7.1752 -7.7577 -2.9731 0.9570
3.4640 -2.1574 -1.1482 0.9832
4.1332 -0.8401 -1.1867 0.9826
10.5715 -1.1826 -2.9929 0.9568
10.6289 0.7115 -2.9972 0.9567
10.3436 2.5871 -2.9999 0.9567
9.7232 4.3811 -3.0005 0.9567
8.7942 6.0369 -3.0012 0.9566
8.2227 6.7962 -3.0015 0.9566
5.3355 9.2413 -3.0023 0.9566
2.6040 7.2378 -2.1642 0.9685
2.5714 9.8153 -2.8548 0.9587
0.7905 10.1156 -2.8548 0.9587
-0.1130 10.1464 -2.8549 0.9587
-1.0157 10.0967 -2.8551 0.9587
-3.6429 9.4586 -2.8518 0.9588
-5.5394 9.1192 -3.0020 0.9566
-8.9250 5.8385 -3.0007 0.9567
-9.4082 5.0203 -3.0003 0.9567
-9.8165 4.1626 -3.0000 0.9567
-10.5636 1.4207 -2.9989 0.9567
-10.6468 0.4748 -2.9985 0.9567
-10.5597 -1.4201 -2.9978 0.9567
-10.1383 -3.2691 -2.9971 0.9567
-9.8059 -4.1581 -2.9968 0.9567
-9.3959 -5.0138 -2.9964 0.9567
-8.9115 -5.8296 -2.9961 0.9567
-7.7352 -7.3159 -2.9956 0.9567
-6.2184 -8.4396 -2.9495 0.9574
-5.4427 -8.9599 -2.9496 0.9574
-2.8839 -10.0857 -2.9514 0.9573
-1.9755 -10.3063 -2.9525 0.9573
-0.1170 -10.5031 -2.9553 0.9573
2.6669 -10.1794 -2.9607 0.9572
5.2730 -9.1331 -2.9672 0.9571
6.0698 -8.6344 -2.9695 0.9571
6.8197 -8.0664 -2.9719 0.9571
7.5167 -7.4334 -2.9744 0.9570
8.1552 -6.7404 -2.9768 0.9570
3.4515 -1.9418 -1.1142 0.9837
3.5110 -1.5820 -1.0835 0.9841
3.6627 -1.2718 -1.0909 0.9840
10.6176 -0.7108 -2.9940 0.9567
10.6464 0.2373 -2.9962 0.9567
10.5902 1.1847 -2.9982 0.9567
10.4479 2.1236 -2.9997 0.9567
9.0539 5.6388 -3.0010 0.9566
7.9122 7.1561 -3.0016 0.9566
7.2444 7.8326 -3.0018 0.9566
5.7417 8.9942 -3.0022 0.9566
3.0012 9.6749 -2.8500 0.9588
0.3391 10.1411 -2.8548 0.9587
-0.5649 10.1316 -2.8550 0.9587
-2.3524 9.8713 -2.8551 0.9587
-3.2192 9.6153 -2.8529 0.9587
-5.1279 9.3572 -3.0021 0.9566
-8.0683 6.9770 -3.0011 0.9566
-8.6565 6.2306 -3.0008 0.9566
-9.9916 3.7209 -2.9998 0.9567
-10.4905 1.8900 -2.9991 0.9567
-9.6561 -2.6451 -2.9973 0.9591
-9.3813 -3.4937 -2.9970 0.9591
-9.0322 -4.3143 -2.9967 0.9591
-7.5694 -6.5455 -2.9959 0.9591
-6.9388 -7.1747 -2.9882 0.9592
-6.1986 -7.6720 -2.9528 0.9597
-5.4881 -8.1889 -2.9512 0.9597
-3.9501 -9.0341 -2.9519 0.9597
-3.1310 -9.3518 -2.9525 0.9597
-2.2869 -9.5963 -2.9534 0.9596
-0.5497 -9.8579 -2.9558 0.9596
1.2082 -9.8094 -2.9589 0.9596
2.9319 -9.4514 -2.9626 0.9595
6.0633 -7.8564 -2.9711 0.9594
7.3715 -6.6671 -2.9756 0.9593
3.5112 -2.1868 -1.2384 0.9829
3.5167 -1.7771 -1.1796 0.9837
9.9321 -1.1111 -2.9920 0.9591
8.2643 5.6731 -3.0010 0.9590
7.7272 6.3867 -3.0013 0.9590
7.1287 7.0497 -3.0015 0.9590
6.4734 7.6568 -3.0017 0.9590
5.7666 8.2031 -3.0019 0.9590
5.0139 8.6843 -3.0021 0.9590
2.6039 7.2377 -2.3028 0.9684
1.5861 9.4027 -2.8547 0.9610
0.7429 9.5066 -2.8548 0.9610
-0.1062 9.5353 -2.8549 0.9610
-3.4224 8.8862 -2.8508 0.9610
-4.3446 8.8410 -2.9491 0.9597
-6.6416 7.5098 -3.0014 0.9590
-7.2830 6.8882 -3.0011 0.9590
-8.3873 5.4867 -3.0005 0.9590
-8.8414 4.7179 -3.0002 0.9590
-9.5358 3.0749 -2.9996 0.9590
-9.7705 2.2137 -2.9992 0.9590
-9.9276 1.3351 -2.9989 0.9590
-10.0059 0.4462 -2.9985 0.9590
-10.0047 -0.4461 -2.9982 0.9590
-8.8306 -4.7121 -2.9966 0.9591
-8.3754 -5.4789 -2.9963 0.9591
-7.2700 -6.8759 -2.9958 0.9591
-3.5441 -9.2020 -2.9521 0.9597
-2.7117 -9.4833 -2.9529 0.9597
-0.9880 -9.8213 -2.9552 0.9596
-0.1100 -9.8750 -2.9566 0.9596
4.1697 -8.9855 -2.9656 0.9595
7.6641 -6.3346 -2.9768 0.9593
3.4971 -1.9675 -1.2013 0.9834
3.5510 -1.6000 -1.1660 0.9839
3.7065 -1.2871 -1.1746 0.9838
3.9832 -0.9963 -1.2292 0.9830
9.9753 -0.6678 -2.9931 0.9591
10.0019 0.2229 -2.9951 0.9591
9.9486 1.1129 -2.9970 0.9591
9.8158 1.9952 -2.9987 0.9590
9.6031 2.8621 -3.0000 0.9590
9.3113 3.7058 -3.0003 0.9590
8.9454 4.5204 -3.0006 0.9590
8.5084 5.2991 -3.0009 0.9590
7.4354 6.7249 -3.0014 0.9590
6.8078 7.3606 -3.0016 0.9590
5.3956 8.4521 -3.0020 0.9590
4.4862 8.6374 -2.9139 0.9602
2.8203 9.0917 -2.8498 0.9610
0.3186 9.5304 -2.8548 0.9610
-3.8134 8.7216 -2.8497 0.9610
-4.8188 8.7933 -3.0019 0.9590
-5.5820 8.3289 -3.0017 0.9590
-7.5823 6.5566 -3.0010 0.9590
-8.1350 5.8552 -3.0007 0.9590
-8.6229 5.1074 -3.0004 0.9590
-9.6627 2.6469 -2.9994 0.9590
-9.8588 1.7762 -2.9991 0.9590
-9.9766 0.8915 -2.9987 0.9590
-9.4412 0.0000 -2.9984 0.9612
-9.4027 -0.8402 -2.9981 0.9612
-9.1028 -2.4935 -2.9974 0.9612
-8.8438 -3.2935 -2.9971 0.9612
-8.5148 -4.0672 -2.9968 0.9612
-6.5522 -6.7749 -2.9933 0.9612
-5.8515 -7.2425 -2.9570 0.9617
-1.3432 -9.2095 -2.9558 0.9617
1.1393 -9.2502 -2.9599 0.9616
1.9592 -9.1172 -2.9616 0.9616
2.7645 -8.9119 -2.9634 0.9616
3.5490 -8.6360 -2.9652 0.9616
4.3064 -8.2914 -2.9672 0.9615
5.0308 -7.8806 -2.9692 0.9615
6.3572 -6.8736 -2.9735 0.9615
6.9490 -6.2850 -2.9757 0.9614
7.4867 -5.6459 -2.9780 0.9614
3.5632 -2.2192 -1.3331 0.9825
3.5592 -1.7986 -1.2665 0.9834
3.6644 -1.4584 -1.2525 0.9836
9.3603 -1.0471 -2.9912 0.9612
9.4226 -0.2099 -2.9932 0.9612
9.3216 1.4658 -2.9968 0.9612
9.1589 2.2908 -2.9983 0.9612
8.6134 3.8810 -3.0003 0.9611
6.7197 6.6452 -3.0014 0.9611
6.1020 7.2175 -3.0016 0.9611
5.4357 7.7324 -3.0018 0.9611
3.7768 8.1387 -2.8495 0.9630
2.6039 7.2377 -2.4428 0.9682
2.2773 8.6922 -2.8537 0.9630
1.4952 8.8642 -2.8549 0.9630
-0.1001 8.9887 -2.8548 0.9630
-0.8998 8.9444 -2.8549 0.9630
-1.6917 8.8254 -2.8538 0.9630
-2.4689 8.6342 -2.8520 0.9630
-4.1687 8.4831 -3.0018 0.9611
-6.8652 6.4931 -3.0010 0.9611
-7.4152 5.8557 -3.0007 0.9611
-7.9062 5.1720 -3.0004 0.9611
-9.2103 2.0868 -2.9992 0.9611
-9.3585 1.2586 -2.9989 0.9611
-9.4313 -0.4205 -2.9982 0.9612
-9.2054 -2.0856 -2.9976 0.9612
-8.3248 -4.4422 -2.9967 0.9612
-7.4039 -5.8468 -2.9962 0.9612
-6.1872 -6.9960 -2.9661 0.9616
-4.1011 -8.3455 -2.9531 0.9617
-3.3426 -8.6789 -2.9536 0.9617
-2.5575 -8.9440 -2.9543 0.9617
-1.7517 -9.1388 -2.9552 0.9617
-0.9318 -9.2621 -2.9564 0.9617
-0.1037 -9.3124 -2.9577 0.9617
1.5507 -9.1928 -2.9607 0.9616
4.6731 -8.0940 -2.9682 0.9615
5.3787 -7.6513 -2.9703 0.9615
6.6597 -6.5859 -2.9746 0.9615
3.6948 -2.5363 -1.4233 0.9814
3.7519 -1.3028 -1.2613 0.9835
9.3012 -1.4625 -2.9902 0.9613
9.4008 -0.6293 -2.9922 0.9612
9.4255 0.2100 -2.9941 0.9612
9.2495 1.8801 -2.9976 0.9612
9.0500 2.6972 -2.9991 0.9611
8.7773 3.4933 -3.0002 0.9611
8.4324 4.2611 -3.0005 0.9611
8.0204 4.9951 -3.0007 0.9611
6.4172 6.9383 -3.0015 0.9611
5.7746 7.4823 -3.0017 0.9611
5.0860 7.9671 -3.0018 0.9611
2.6613 8.5792 -2.8527 0.9630
1.0988 8.9217 -2.8548 0.9630
0.3004 8.9841 -2.8548 0.9630
-0.5004 8.9754 -2.8549 0.9630
-2.0825 8.7385 -2.8529 0.9630
-2.8500 8.5127 -2.8510 0.9630
-5.9392 7.3511 -3.0013 0.9611
-7.1473 6.1805 -3.0008 0.9611
-7.6683 5.5194 -3.0006 0.9611
-8.5238 4.0715 -3.0000 0.9611
-9.1087 2.4951 -2.9994 0.9611
-9.2936 1.6743 -2.9990 0.9611
-9.4047 0.8404 -2.9987 0.9611
-8.9243 0.0000 -2.9984 0.9630
-8.8879 -0.7942 -2.9981 0.9630
-8.3598 -3.1132 -2.9972 0.9631
-8.0488 -3.8446 -2.9969 0.9631
-7.6740 -4.5453 -2.9967 0.9631
-6.7454 -5.8330 -2.9962 0.9631
-6.1990 -6.4098 -2.9960 0.9631
-5.5375 -6.8539 -2.9605 0.9635
-3.5232 -8.0577 -2.9547 0.9636
-2.0396 -8.5585 -2.9560 0.9636
-1.2701 -8.7087 -2.9569 0.9635
0.2943 -8.8031 -2.9593 0.9635
1.0772 -8.7463 -2.9608 0.9635
1.8524 -8.6202 -2.9624 0.9635
4.0713 -7.8386 -2.9677 0.9634
6.0097 -6.4976 -2.9737 0.9633
7.0768 -5.3368 -2.9780 0.9633
3.7081 -1.4758 -1.3409 0.9833
3.9221 -1.1689 -1.3750 0.9829
8.8917 0.5952 -2.9941 0.9631
8.1415 3.6684 -3.0002 0.9630
7.3633 5.0546 -3.0008 0.9630
6.8848 5.6904 -3.0010 0.9630
2.6039 7.2376 -2.5843 0.9681
2.1518 8.2135 -2.8527 0.9648
1.4129 8.3764 -2.8541 0.9648
0.6619 8.4711 -2.8548 0.9648
-0.0946 8.4965 -2.8548 0.9648
-2.3329 8.1589 -2.8511 0.9648
-3.0479 7.9136 -2.8492 0.9648
-3.9402 8.0181 -3.0016 0.9630
-4.6380 7.6352 -3.0015 0.9630
-5.9174 6.6910 -3.0011 0.9630
-7.4730 4.8887 -3.0003 0.9630
-7.8778 4.2037 -3.0001 0.9630
-8.2199 3.4856 -2.9998 0.9630
-8.9149 -0.3975 -2.9982 0.9630
-8.8433 -1.1893 -2.9979 0.9630
-8.7014 -1.9715 -2.9976 0.9631
-8.4906 -2.7379 -2.9973 0.9631
-8.2125 -3.4824 -2.9971 0.9631
-6.9988 -5.5269 -2.9963 0.9631
-5.8651 -6.6318 -2.9746 0.9633
-5.2156 -7.0786 -2.9542 0.9636
-4.5650 -7.5150 -2.9542 0.9636
-3.8783 -7.8922 -2.9545 0.9636
-1.6565 -8.6421 -2.9565 0.9635
-0.0981 -8.8055 -2.9587 0.9635
0.6864 -8.7834 -2.9601 0.9635
1.4661 -8.6919 -2.9616 0.9635
4.4179 -7.6520 -2.9686 0.9634
5.0848 -7.2331 -2.9706 0.9634
5.7122 -6.7564 -2.9726 0.9634
6.8295 -5.6447 -2.9769 0.9633
4.1238 -1.0314 -1.4282 0.9822
8.7900 -1.3821 -2.9896 0.9631
8.8588 0.9910 -2.9950 0.9631
8.7400 1.7765 -2.9965 0.9631
7.1312 5.3779 -3.0009 0.9630
6.6247 5.9916 -3.0011 0.9630
5.4581 7.0722 -3.0015 0.9630
4.1181 7.9288 -3.0018 0.9630
3.2243 7.8459 -2.8500 0.9648
1.0386 8.4324 -2.8545 0.9648
0.2839 8.4923 -2.8548 0.9648
-0.4730 8.4833 -2.8547 0.9648
-1.9678 8.2573 -2.8520 0.9648
-2.6932 8.0442 -2.8502 0.9648
-3.5470 8.1122 -2.9747 0.9633
-5.6137 6.9482 -3.0012 0.9630
-6.2094 6.4205 -3.0010 0.9630
-6.7557 5.8419 -3.0007 0.9630
-7.6831 4.5507 -3.0002 0.9630
-8.0568 3.8484 -2.9999 0.9630
-8.3666 3.1158 -2.9996 0.9630
-8.6098 2.3585 -2.9993 0.9630
-8.7847 1.5827 -2.9990 0.9630
-8.8898 0.7944 -2.9987 0.9630
-8.4561 0.0000 -2.9984 0.9647
-8.1533 -2.2334 -2.9975 0.9648
-7.9214 -2.9500 -2.9973 0.9648
-7.6267 -3.6430 -2.9970 0.9648
-7.2716 -4.3070 -2.9968 0.9648
-2.6471 -7.9065 -2.9565 0.9652
-1.9333 -8.1126 -2.9572 0.9652
1.0210 -8.2896 -2.9616 0.9652
1.7556 -8.1700 -2.9631 0.9652
2.4771 -7.9856 -2.9647 0.9651
5.6948 -6.1572 -2.9739 0.9650
6.7055 -5.0569 -2.9780 0.9650
4.0184 -1.1976 -1.4868 0.9824
8.2580 -1.6785 -2.9880 0.9649
8.3798 -0.9374 -2.9899 0.9648
8.4349 -0.1879 -2.9916 0.9648
8.4228 0.5638 -2.9933 0.9648
8.3435 1.3120 -2.9948 0.9648
7.9858 2.7730 -2.9975 0.9648
7.7141 3.4758 -3.0001 0.9647
6.9768 4.7893 -3.0006 0.9647
6.5233 5.3916 -3.0009 0.9647
6.0179 5.9513 -3.0011 0.9647
4.8680 6.9248 -3.0014 0.9647
4.2325 7.3309 -3.0016 0.9647
2.6039 7.2376 -2.7274 0.9679
-0.0896 8.0470 -2.8535 0.9664
-1.5141 7.8989 -2.8518 0.9664
-5.0205 6.8140 -3.0011 0.9647
-5.6067 6.3396 -3.0009 0.9647
-6.1483 5.8150 -3.0007 0.9647
-6.6409 5.2443 -3.0005 0.9647
-7.0807 4.6320 -3.0002 0.9647
-7.4643 3.9831 -3.0000 0.9647
-7.7884 3.3026 -2.9997 0.9647
-8.3818 1.1272 -2.9988 0.9647
-8.4481 0.3767 -2.9986 0.9647
-8.4473 -0.3767 -2.9983 0.9648
-8.3794 -1.1269 -2.9980 0.9648
-8.0453 -2.5943 -2.9974 0.9648
-7.7818 -3.2997 -2.9971 0.9648
-7.0722 -4.6264 -2.9966 0.9648
-3.6764 -7.4813 -2.9558 0.9652
-1.5702 -8.1918 -2.9576 0.9652
2.1184 -8.0858 -2.9639 0.9651
3.5225 -7.5907 -2.9672 0.9651
6.9265 -4.7548 -2.9790 0.9650
3.7040 -1.6689 -1.4405 0.9829
4.2421 -1.0610 -1.5505 0.9816
8.2787 1.6827 -2.9956 0.9648
8.0997 2.4140 -2.9969 0.9648
6.2769 5.6771 -3.0010 0.9647
5.7470 6.2136 -3.0012 0.9647
5.1715 6.7009 -3.0013 0.9647
4.5548 7.1349 -3.0015 0.9647
3.9018 7.5123 -3.0016 0.9647
3.0544 7.4324 -2.8493 0.9665
2.3822 7.6793 -2.8510 0.9665
0.9836 7.9863 -2.8532 0.9664
-0.4480 8.0345 -2.8533 0.9664
-1.1610 7.9603 -2.8525 0.9664
-2.5512 7.6202 -2.8494 0.9665
-3.3912 7.7560 -3.0015 0.9647
-7.6339 3.6464 -2.9998 0.9647
-8.4233 0.7527 -2.9987 0.9647
-8.0298 0.0000 -2.9984 0.9663
-7.9011 -1.4234 -2.9979 0.9663
-6.9052 -4.0900 -2.9969 0.9663
-6.5133 -4.6880 -2.9966 0.9663
-5.5782 -5.7678 -2.9962 0.9663
-4.9938 -6.1810 -2.9672 0.9666
-4.4080 -6.5773 -2.9566 0.9668
-3.8053 -6.9439 -2.9567 0.9668
-3.1725 -7.2558 -2.9571 0.9668
-2.5146 -7.5106 -2.9576 0.9667
-1.8365 -7.7064 -2.9582 0.9667
-0.4413 -7.9147 -2.9600 0.9667
0.2650 -7.9256 -2.9612 0.9667
1.6675 -7.7600 -2.9638 0.9667
3.6644 -7.0552 -2.9686 0.9666
4.2803 -6.7050 -2.9704 0.9666
4.8631 -6.3013 -2.9722 0.9666
5.9110 -5.3461 -2.9761 0.9665
6.7741 -4.2189 -2.9800 0.9665
3.7637 -1.9019 -1.5746 0.9822
4.1284 -1.2304 -1.6086 0.9818
8.0079 -0.1784 -2.9910 0.9664
7.9962 0.5353 -2.9925 0.9664
7.9207 1.2455 -2.9940 0.9663
7.0028 3.9397 -3.0003 0.9663
6.1942 5.1196 -3.0008 0.9663
2.5832 7.1801 -2.8494 0.9679
1.9348 7.3850 -2.8507 0.9679
1.2702 7.5305 -2.8517 0.9679
0.5950 7.6151 -2.8522 0.9679
-0.7645 7.5989 -2.8518 0.9679
-1.4372 7.4981 -2.8508 0.9679
-2.0979 7.3369 -2.8495 0.9679
-4.7672 6.4702 -3.0010 0.9663
-5.3238 6.0198 -3.0008 0.9663
-6.3059 4.9798 -3.0004 0.9663
-6.7236 4.3984 -3.0002 0.9663
-7.8331 1.7748 -2.9991 0.9663
-7.9592 1.0704 -2.9988 0.9663
-8.0215 -0.3577 -2.9983 0.9663
-7.8295 -1.7739 -2.9977 0.9663
-7.6399 -2.4635 -2.9975 0.9663
-7.0809 -3.7785 -2.9970 0.9663
-6.2978 -4.9733 -2.9965 0.9663
-5.8298 -5.5137 -2.9963 0.9663
-5.3070 -6.0007 -2.9913 0.9664
-4.1107 -6.7672 -2.9566 0.9668
-3.4924 -7.1068 -2.9569 0.9668
-2.8464 -7.3905 -2.9573 0.9668
-2.1777 -7.6160 -2.9579 0.9667
-1.4916 -7.7816 -2.9586 0.9667
-0.7933 -7.8859 -2.9595 0.9667
0.6179 -7.9076 -2.9618 0.9667
1.3199 -7.8247 -2.9631 0.9667
2.0121 -7.6799 -2.9646 0.9667
2.6890 -7.4743 -2.9661 0.9667
4.5762 -6.5097 -2.9713 0.9666
5.1406 -6.0804 -2.9732 0.9666
3.7884 -1.7070 -1.5516 0.9824
3.9680 -1.3779 -1.5685 0.9822
4.4797 -1.1204 -1.7243 0.9805
7.9060 -1.2431 -2.9884 0.9664
8.0100 0.1785 -2.9918 0.9664
7.6890 2.2915 -2.9959 0.9663
7.4645 2.9708 -2.9999 0.9663
6.4159 4.8384 -3.0006 0.9663
5.9602 5.3907 -3.0009 0.9663
4.3249 6.7749 -3.0014 0.9663
2.9039 7.0662 -2.8527 0.9679
1.6042 7.4654 -2.8513 0.9679
-0.4252 7.6262 -2.8521 0.9679
-1.1020 7.5561 -2.8514 0.9679
-2.4222 7.2349 -2.8490 0.9679
-3.8626 7.0484 -3.0013 0.9663
-6.5213 4.6937 -3.0003 0.9663
-6.9126 4.0944 -3.0000 0.9663
-7.2489 3.4626 -2.9998 0.9663
-7.5277 2.8034 -2.9995 0.9663
-7.9987 0.7148 -2.9987 0.9663
-7.6089 -0.6799 -2.9982 0.9677
-7.1571 -2.6653 -2.9974 0.9677
-6.8909 -3.2915 -2.9972 0.9677
-6.5701 -3.8915 -2.9969 0.9677
-6.1972 -4.4605 -2.9967 0.9677
-3.6218 -6.6090 -2.9578 0.9681
-3.0195 -6.9058 -2.9581 0.9681
-2.3933 -7.1483 -2.9586 0.9681
-1.0884 -7.4630 -2.9600 0.9681
-0.4200 -7.5326 -2.9609 0.9681
1.5869 -7.3849 -2.9645 0.9681
2.2390 -7.2178 -2.9659 0.9680
3.4870 -6.7136 -2.9691 0.9680
4.6274 -5.9959 -2.9725 0.9680
5.6241 -5.0867 -2.9762 0.9679
3.9003 -1.9709 -1.7151 0.9814
3.9717 -1.5807 -1.6777 0.9818
4.3463 -1.2953 -1.7799 0.9807
7.6174 -0.1697 -2.9904 0.9678
7.5341 1.1847 -2.9932 0.9678
6.9691 3.1402 -3.0000 0.9677
6.6625 3.7482 -3.0002 0.9677
6.3029 4.3267 -3.0004 0.9677
5.8932 4.8708 -3.0006 0.9677
4.3977 6.2558 -3.0012 0.9677
3.8236 6.6226 -3.0013 0.9677
1.2081 7.1622 -2.8506 0.9693
0.5659 7.2424 -2.8511 0.9693
-0.0809 7.2642 -2.8512 0.9693
-1.3670 7.1316 -2.8499 0.9693
-3.3726 6.8630 -3.0012 0.9677
-3.9699 6.5353 -3.0011 0.9677
-4.5355 6.1557 -3.0009 0.9677
-5.5544 5.2534 -3.0005 0.9677
-5.9995 4.7378 -3.0003 0.9677
-6.3969 4.1847 -3.0001 0.9677
-6.7435 3.5984 -2.9998 0.9677
-7.0364 2.9837 -2.9996 0.9677
-7.4527 1.6886 -2.9991 0.9677
-7.5727 1.0184 -2.9988 0.9677
-7.6326 0.3404 -2.9986 0.9677
-7.6319 -0.3403 -2.9983 0.9677
-7.5707 -1.0181 -2.9980 0.9677
-6.7372 -3.5951 -2.9970 0.9677
-5.9921 -4.7320 -2.9966 0.9677
-5.5468 -5.2462 -2.9964 0.9677
-5.0560 -5.7169 -2.9953 0.9677
-3.9125 -6.4408 -2.9577 0.9681
-3.3239 -6.7641 -2.9579 0.9681
-2.7091 -7.0340 -2.9583 0.9681
-0.7550 -7.5052 -2.9604 0.9681
-0.0840 -7.5452 -2.9614 0.9681
0.5881 -7.5256 -2.9626 0.9681
1.9148 -7.3086 -2.9652 0.9681
3.1835 -6.8604 -2.9683 0.9680
3.7836 -6.5534 -2.9699 0.9680
5.8469 -4.8326 -2.9771 0.9679
6.2578 -4.2957 -2.9790 0.9679
3.9021 -1.7582 -1.6797 0.9818
7.5777 0.8477 -2.9926 0.9678
7.4754 1.5195 -2.9939 0.9678
7.1018 2.8265 -2.9999 0.9677
6.8226 3.4476 -3.0001 0.9677
6.1041 4.6033 -3.0005 0.9677
5.6705 5.1287 -3.0007 0.9677
4.1147 6.4456 -3.0012 0.9677
0.8879 7.2096 -2.8509 0.9693
0.2428 7.2606 -2.8512 0.9693
-0.4044 7.2530 -2.8510 0.9693
-1.0481 7.1866 -2.8504 0.9693
-1.6830 7.0622 -2.8493 0.9693
-2.3757 7.0960 -2.9369 0.9684
-3.0636 7.0066 -3.0013 0.9677
-3.6749 6.7058 -3.0011 0.9677
-4.2569 6.3518 -3.0010 0.9677
-4.8051 5.9474 -3.0008 0.9677
-6.2044 4.4657 -3.0002 0.9677
-6.5767 3.8954 -3.0000 0.9677
-6.8968 3.2943 -2.9997 0.9677
-7.5201 1.3548 -2.9990 0.9677
-7.6102 0.6801 -2.9987 0.9677
-7.2816 0.0000 -2.9984 0.9690
-7.0211 -1.9233 -2.9977 0.9690
-6.8216 -2.5404 -2.9975 0.9690
-6.2621 -3.7091 -2.9970 0.9690
-4.0027 -5.9725 -2.9606 0.9694
-2.8788 -6.5841 -2.9590 0.9694
-1.6664 -6.9927 -2.9601 0.9694
-1.0377 -7.1151 -2.9609 0.9694
-0.4004 -7.1813 -2.9617 0.9694
0.8798 -7.1438 -2.9639 0.9693
2.7397 -6.6667 -2.9680 0.9693
4.4108 -5.7153 -2.9728 0.9693
4.9049 -5.3030 -2.9745 0.9692
5.3606 -4.8483 -2.9763 0.9692
6.4625 -3.2656 -2.9816 0.9692
4.1578 -1.6548 -1.8427 0.9808
7.1078 -1.4447 -2.9867 0.9691
7.2588 -0.1618 -2.9898 0.9691
6.6422 2.9928 -2.9999 0.9690
5.6166 4.6423 -3.0006 0.9690
4.7051 5.5652 -3.0009 0.9690
3.6441 6.3118 -3.0012 0.9690
3.0680 6.6113 -3.0013 0.9690
1.7534 6.6926 -2.8489 0.9705
1.1511 6.8239 -2.8497 0.9705
-0.6927 6.8858 -2.8498 0.9705
-1.3025 6.7950 -2.8490 0.9705
-1.9528 6.8293 -2.9249 0.9697
-3.2143 6.5410 -3.0011 0.9690
-3.7835 6.2286 -3.0009 0.9690
-4.8274 5.4585 -3.0006 0.9690
-5.2938 5.0069 -3.0004 0.9690
-5.7180 4.5155 -3.0002 0.9690
-6.4271 3.4296 -2.9998 0.9690
-6.9323 2.2354 -2.9993 0.9690
-7.2747 0.3244 -2.9986 0.9690
-7.2741 -0.3244 -2.9983 0.9690
-6.9282 -2.2341 -2.9976 0.9690
-6.7014 -2.8416 -2.9973 0.9690
-6.4214 -3.4265 -2.9971 0.9690
-6.0905 -3.9842 -2.9969 0.9690
-5.2869 -5.0003 -2.9965 0.9690
-4.8206 -5.4507 -2.9964 0.9690
-3.1691 -6.4489 -2.9589 0.9694
-2.5829 -6.7063 -2.9593 0.9694
1.8253 -6.9673 -2.9658 0.9693
2.4394 -6.7804 -2.9672 0.9693
3.6067 -6.2470 -2.9703 0.9693
4.1507 -5.9044 -2.9720 0.9693
4.6624 -5.5147 -2.9737 0.9692
5.1377 -5.0808 -2.9754 0.9692
5.9643 -4.0942 -2.9789 0.9692
6.3088 -3.5492 -2.9807 0.9692
4.0923 -1.8439 -1.8483 0.9808
4.4308 -1.5385 -1.9314 0.9799
7.2426 -0.4848 -2.9890 0.9691
7.2606 0.1618 -2.9905 0.9691
6.7686 2.6938 -2.9998 0.9690
6.5025 3.2859 -3.0000 0.9690
6.1847 3.8518 -3.0003 0.9690
5.8177 4.3873 -3.0005 0.9690
5.4044 4.8880 -3.0006 0.9690
4.9482 5.3499 -3.0008 0.9690
4.4526 5.7694 -3.0010 0.9690
3.9216 6.1431 -3.0011 0.9690
3.3594 6.4680 -3.0012 0.9690
1.4537 6.7651 -2.8493 0.9705
0.8460 6.8690 -2.8499 0.9705
0.2313 6.9176 -2.8501 0.9705
-0.9986 6.8473 -2.8494 0.9705
-1.6038 6.7298 -2.8488 0.9705
-3.5024 6.3911 -3.0010 0.9690
-4.0572 6.0538 -3.0009 0.9690
-5.0656 5.2379 -3.0005 0.9690
-5.5114 4.7659 -3.0003 0.9690
-7.0247 1.9243 -2.9992 0.9690
-7.1674 1.2913 -2.9989 0.9690
-6.9230 -0.6186 -2.9982 0.9702
-6.8399 -1.2323 -2.9980 0.9702
-6.2699 -2.9949 -2.9973 0.9702
-5.9781 -3.5408 -2.9971 0.9702
-4.3568 -5.3924 -2.9904 0.9703
-3.8248 -5.7070 -2.9635 0.9705
-3.2973 -6.0169 -2.9596 0.9706
-2.1788 -6.5078 -2.9604 0.9705
-0.3823 -6.8572 -2.9625 0.9705
2.0379 -6.5696 -2.9671 0.9705
2.6158 -6.3651 -2.9685 0.9705
3.1735 -6.1101 -2.9699 0.9705
3.7067 -5.8064 -2.9715 0.9704
4.2110 -5.4563 -2.9731 0.9704
5.5122 -4.1570 -2.9781 0.9704
5.8637 -3.6519 -2.9798 0.9704
6.1689 -3.1173 -2.9814 0.9703
6.6312 -1.9763 -2.9847 0.9703
6.8836 -0.7700 -2.9878 0.9703
6.9176 0.4631 -2.9906 0.9702
6.8518 1.0774 -2.9919 0.9702
6.3406 2.8570 -2.9999 0.9702
5.7344 3.9364 -3.0003 0.9702
5.3615 4.4314 -3.0005 0.9702
4.9462 4.8913 -3.0006 0.9702
3.4786 6.0251 -3.0010 0.9701
2.3554 6.5468 -3.0012 0.9701
1.6980 6.4812 -2.8901 0.9712
1.1001 6.5219 -2.8530 0.9716
0.5146 6.5849 -2.8491 0.9716
-0.6610 6.5712 -2.8488 0.9716
-1.2510 6.5266 -2.8665 0.9715
-1.9128 6.6894 -3.0012 0.9701
-3.0683 6.2438 -3.0010 0.9701
-3.6117 5.9457 -3.0008 0.9701
-4.1264 5.6004 -3.0007 0.9702
-4.6082 5.2106 -3.0005 0.9702
-5.0534 4.7795 -3.0003 0.9702
-6.1353 3.2739 -2.9997 0.9702
-6.6176 2.1339 -2.9993 0.9702
-6.7807 1.5363 -2.9990 0.9702
-6.8900 0.9266 -2.9988 0.9702
-5.8142 -3.8035 -2.9970 0.9702
-4.6020 -5.2035 -2.9965 0.9702
-3.5620 -5.8639 -2.9595 0.9706
-3.0262 -6.1581 -2.9598 0.9706
-2.4664 -6.4038 -2.9601 0.9705
-1.8869 -6.5990 -2.9606 0.9705
-0.6873 -6.8323 -2.9621 0.9705
-0.0765 -6.8685 -2.9630 0.9705
0.5353 -6.8504 -2.9640 0.9705
1.7428 -6.6524 -2.9664 0.9705
3.9627 -5.6370 -2.9723 0.9704
4.4511 -5.2648 -2.9739 0.9704
5.3200 -4.3971 -2.9772 0.9704
5.6935 -3.9084 -2.9789 0.9704
6.0222 -3.3880 -2.9806 0.9703
6.5348 -2.2691 -2.9839 0.9703
6.7144 -1.6794 -2.9855 0.9703
6.8916 0.7709 -2.9913 0.9702
6.7983 1.3818 -2.9925 0.9702
6.6508 1.9822 -2.9936 0.9702
6.4613 2.5715 -2.9998 0.9702
5.9038 3.6769 -3.0002 0.9702
4.7235 5.1070 -3.0007 0.9702
3.2068 6.1742 -3.0011 0.9701
0.2207 6.6014 -2.8492 0.9716
-0.3677 6.5946 -2.8490 0.9716
-0.9531 6.5350 -2.8487 0.9716
-2.2088 6.5975 -3.0011 0.9701
-2.7872 6.3745 -3.0010 0.9701
-3.3433 6.1008 -3.0009 0.9701
-5.6448 4.0629 -3.0001 0.9702
-6.2748 2.9972 -2.9996 0.9702
-6.5162 2.4267 -2.9994 0.9702
-6.7058 1.8369 -2.9992 0.9702
-6.8421 1.2327 -2.9989 0.9702
-6.9241 0.6187 -2.9987 0.9702
-6.6452 0.0000 -2.9984 0.9713
-6.4077 -1.7552 -2.9978 0.9713
-5.9941 -2.8631 -2.9973 0.9713
-5.3908 -3.8800 -2.9970 0.9713
-3.6593 -5.4602 -2.9659 0.9716
-3.1531 -5.7537 -2.9604 0.9716
-2.6287 -6.0121 -2.9607 0.9716
-2.0835 -6.2230 -2.9611 0.9716
0.2195 -6.5655 -2.9641 0.9716
0.8033 -6.5222 -2.9652 0.9716
2.5010 -6.0859 -2.9689 0.9715
3.0342 -5.8419 -2.9703 0.9715
4.8923 -4.4249 -2.9765 0.9715
5.2696 -3.9740 -2.9781 0.9715
5.6055 -3.4911 -2.9797 0.9714
6.1422 -2.4445 -2.9829 0.9714
6.4850 -1.3181 -2.9860 0.9714
6.5798 -0.7360 -2.9874 0.9714
6.6222 -0.1476 -2.9888 0.9714
6.6119 0.4426 -2.9901 0.9713
6.2800 2.1807 -2.9996 0.9712
6.0614 2.7311 -2.9998 0.9712
4.7283 4.6759 -3.0005 0.9712
4.2936 5.0785 -3.0007 0.9712
3.8247 5.4407 -3.0008 0.9712
3.3254 5.7597 -3.0009 0.9712
1.6857 6.4341 -3.0012 0.9712
1.0704 6.3455 -2.9037 0.9722
-2.3903 6.2064 -3.0010 0.9712
-3.4526 5.6838 -3.0007 0.9712
-3.9446 5.3537 -3.0006 0.9712
-5.2180 4.1207 -3.0001 0.9712
-5.8652 3.1298 -2.9997 0.9712
-6.1200 2.5951 -2.9995 0.9712
-6.4822 1.4687 -2.9990 0.9713
-6.5867 0.8858 -2.9988 0.9713
-6.6389 0.2961 -2.9986 0.9713
-6.6384 -0.2960 -2.9983 0.9713
-6.5852 -0.8856 -2.9981 0.9713
-5.8604 -3.1272 -2.9973 0.9713
-5.2124 -4.1162 -2.9969 0.9713
-3.9103 -5.3071 -2.9745 0.9715
-3.4066 -5.6080 -2.9607 0.9716
-2.8938 -5.8887 -2.9606 0.9716
-1.8043 -6.3102 -2.9614 0.9716
-1.2358 -6.4471 -2.9620 0.9716
-0.0731 -6.5677 -2.9636 0.9716
1.0933 -6.4812 -2.9657 0.9716
1.6665 -6.3607 -2.9669 0.9716
2.7703 -5.9698 -2.9696 0.9715
3.2923 -5.7023 -2.9710 0.9715
3.7886 -5.3894 -2.9725 0.9715
6.2467 -2.1691 -2.9837 0.9714
6.4182 -1.6053 -2.9852 0.9714
6.5389 -1.0282 -2.9867 0.9714
6.3591 1.8952 -2.9941 0.9713
5.9339 2.9985 -2.9999 0.9712
3.5786 5.6058 -3.0009 0.9712
2.5281 6.1518 -3.0011 0.9712
0.2110 6.3098 -2.8487 0.9727
-0.3527 6.3268 -2.8592 0.9726
-0.9362 6.4193 -2.9272 0.9719
-1.5418 6.4699 -3.0011 0.9712
-2.1115 6.3069 -3.0010 0.9712
-2.6644 6.0937 -3.0009 0.9712
-3.7023 5.5243 -3.0007 0.9712
-4.1791 5.1726 -3.0005 0.9712
-4.6227 4.7798 -3.0004 0.9712
-5.9986 2.8653 -2.9996 0.9712
-6.3611 0.0000 -2.9985 0.9723
-6.2594 -1.1277 -2.9980 0.9723
-6.1337 -1.6802 -2.9978 0.9723
-4.8090 -4.1585 -2.9969 0.9723
-2.5169 -5.7564 -2.9615 0.9726
-1.9949 -5.9584 -2.9619 0.9726
-1.4569 -6.1134 -2.9624 0.9726
-0.9072 -6.2202 -2.9631 0.9726
0.2102 -6.2860 -2.9647 0.9726
0.7691 -6.2445 -2.9657 0.9726
1.3223 -6.1535 -2.9668 0.9726
1.8655 -6.0138 -2.9680 0.9725
3.3927 -5.3145 -2.9721 0.9725
5.0443 -3.8040 -2.9781 0.9724
5.8791 -2.3398 -2.9827 0.9724
6.2976 -0.7045 -2.9870 0.9724
6.2677 0.9855 -2.9907 0.9723
6.1573 1.5400 -2.9918 0.9723
5.8021 2.6143 -2.9998 0.9723
5.5467 3.1205 -3.0000 0.9722
5.2473 3.6021 -3.0001 0.9722
4.9061 4.0550 -3.0003 0.9722
4.1098 4.8611 -3.0006 0.9722
3.6610 5.2078 -3.0007 0.9722
2.6798 5.7748 -3.0009 0.9722
2.1552 5.9906 -3.0010 0.9722
1.6135 6.1587 -3.0010 0.9722
1.0590 6.2779 -3.0011 0.9722
0.4912 6.2854 -2.9718 0.9725
-0.0699 6.2808 -2.9608 0.9726
-4.2167 4.7680 -3.0004 0.9722
-5.3257 3.4839 -2.9998 0.9722
-5.6142 2.9959 -2.9996 0.9723
-5.8582 2.4841 -2.9994 0.9723
-6.2049 1.4059 -2.9990 0.9723
-6.3050 0.8479 -2.9988 0.9723
-6.3550 0.2834 -2.9986 0.9723
-6.3545 -0.2833 -2.9983 0.9723
-6.0526 -1.9517 -2.9977 0.9723
-5.8544 -2.4825 -2.9975 0.9723
-5.6099 -2.9935 -2.9973 0.9723
-4.9896 -3.9403 -2.9970 0.9723
-3.7529 -5.0935 -2.9823 0.9724
-3.2642 -5.3736 -2.9637 0.9726
-2.7707 -5.6383 -2.9613 0.9726
-2.2581 -5.8632 -2.9617 0.9726
-1.7276 -6.0418 -2.9621 0.9726
-1.1832 -6.1728 -2.9627 0.9726
0.4901 -6.2714 -2.9652 0.9726
1.0467 -6.2051 -2.9663 0.9726
1.5954 -6.0897 -2.9674 0.9725
2.1320 -5.9260 -2.9686 0.9725
3.1518 -5.4590 -2.9713 0.9725
3.6269 -5.1593 -2.9728 0.9725
5.5106 -3.1002 -2.9804 0.9724
5.7676 -2.5987 -2.9820 0.9724
6.1431 -1.5365 -2.9849 0.9724
6.3241 -0.4234 -2.9877 0.9724
6.3042 0.7053 -2.9902 0.9723
6.2187 1.2640 -2.9913 0.9723
6.0966 1.8170 -2.9987 0.9723
5.6800 2.8703 -2.9999 0.9722
4.7207 4.2696 -3.0004 0.9722
3.8893 5.0395 -3.0007 0.9722
2.4199 5.8885 -3.0010 0.9722
0.2099 6.2758 -2.9599 0.9726
-0.3513 6.3010 -2.9747 0.9725
-1.4758 6.1930 -3.0010 0.9722
-3.0593 5.5826 -3.0007 0.9722
-4.0003 4.9512 -3.0004 0.9722
-5.1653 3.7178 -2.9999 0.9722
-5.7419 2.7427 -2.9995 0.9723
-5.9629 2.2206 -2.9993 0.9723
-6.1364 1.6809 -2.9991 0.9723
-6.2612 1.1280 -2.9989 0.9723
-6.0962 0.0000 -2.9985 0.9732
-6.0716 -0.5426 -2.9983 0.9732
-5.9988 -1.0807 -2.9980 0.9732
-5.8784 -1.6102 -2.9978 0.9732
-5.2431 -3.1055 -2.9973 0.9732
-4.9456 -3.5596 -2.9971 0.9732
-4.6089 -3.9855 -2.9969 0.9732
-3.8289 -4.7391 -2.9967 0.9732
-2.8940 -5.2809 -2.9619 0.9735
-1.3965 -5.8601 -2.9631 0.9735
-0.8696 -5.9625 -2.9637 0.9735
-0.3355 -6.0177 -2.9644 0.9735
1.2675 -5.8982 -2.9673 0.9735
2.2950 -5.5845 -2.9697 0.9734
5.8140 -1.7328 -2.9840 0.9733
5.9479 -1.2090 -2.9853 0.9733
6.0346 -0.6751 -2.9867 0.9733
5.7610 2.0004 -2.9995 0.9732
5.0287 3.4520 -3.0001 0.9732
4.7017 3.8861 -3.0002 0.9732
4.3374 4.2894 -3.0004 0.9732
3.9386 4.6586 -3.0005 0.9732
3.5085 4.9909 -3.0006 0.9732
3.0504 5.2835 -3.0007 0.9732
2.5681 5.5342 -3.0008 0.9732
2.0654 5.7410 -3.0009 0.9732
1.0148 6.0164 -3.0010 0.9732
-0.0680 6.1010 -3.0010 0.9732
-2.1927 5.6933 -3.0008 0.9732
-3.1672 5.2139 -3.0006 0.9732
-3.6185 4.9112 -3.0004 0.9732
-4.7867 3.7800 -3.0000 0.9732
-5.1039 3.3388 -2.9998 0.9732
-5.3804 2.8711 -2.9996 0.9732
-5.6142 2.3807 -2.9994 0.9732
-6.0900 -0.2716 -2.9984 0.9732
-5.9445 -1.3468 -2.9979 0.9732
-5.8006 -1.8704 -2.9977 0.9732
-5.3764 -2.8689 -2.9974 0.9732
-5.0994 -3.3359 -2.9972 0.9732
-4.0363 -4.5639 -2.9967 0.9732
-3.6055 -4.8934 -2.9896 0.9733
-3.1310 -5.1542 -2.9662 0.9735
-1.6560 -5.7916 -2.9628 0.9735
-1.1342 -5.9171 -2.9634 0.9735
-0.6032 -5.9960 -2.9641 0.9735
-0.0671 -6.0275 -2.9649 0.9735
0.4698 -6.0114 -2.9658 0.9735
1.0033 -5.9478 -2.9668 0.9735
3.0209 -5.2323 -2.9716 0.9734
3.4762 -4.9449 -2.9730 0.9734
4.3020 -4.2543 -2.9759 0.9734
4.9931 -3.4276 -2.9788 0.9734
5.5272 -2.4904 -2.9818 0.9733
5.8868 -1.4724 -2.9846 0.9733
5.9972 -0.9430 -2.9860 0.9733
6.0746 0.1354 -2.9885 0.9733
6.0407 0.6758 -2.9897 0.9733
5.9587 1.2112 -2.9907 0.9733
5.8442 1.7418 -2.9994 0.9732
5.6663 2.2551 -2.9996 0.9732
5.4435 2.7507 -2.9998 0.9732
4.8701 3.6727 -3.0002 0.9732
4.5241 4.0918 -3.0003 0.9732
3.7273 4.8296 -3.0006 0.9732
2.8121 5.4143 -3.0008 0.9732
2.3191 5.6432 -3.0009 0.9732
1.8077 5.8273 -3.0009 0.9732
1.2819 5.9652 -3.0010 0.9732
0.7458 6.0556 -3.0010 0.9732
-0.3397 6.0919 -3.0010 0.9732
-0.8805 6.0374 -3.0009 0.9732
-1.9369 5.7854 -3.0008 0.9732
-3.3962 5.0676 -3.0005 0.9732
-4.6137 3.9896 -3.0001 0.9732
-4.9502 3.5629 -2.9999 0.9732
-5.2473 3.1080 -2.9997 0.9732
-5.7145 2.1281 -2.9993 0.9732
-5.8809 1.6110 -2.9991 0.9732
-6.0725 0.5427 -2.9987 0.9732
-5.8251 -0.5205 -2.9983 0.9741
-5.7553 -1.0369 -2.9981 0.9741
-5.6398 -1.5449 -2.9979 0.9741
-5.4796 -2.0406 -2.9977 0.9741
-4.7449 -3.4152 -2.9972 0.9741
-4.0638 -4.2020 -2.9969 0.9741
-3.2320 -4.8225 -2.9763 0.9742
-2.3153 -5.2952 -2.9628 0.9744
-1.8350 -5.4809 -2.9632 0.9744
-1.3401 -5.6234 -2.9637 0.9743
-0.8344 -5.7215 -2.9643 0.9743
0.1933 -5.7818 -2.9658 0.9743
0.7074 -5.7434 -2.9667 0.9743
2.6714 -5.1433 -2.9713 0.9743
3.1199 -4.8872 -2.9726 0.9743
3.5441 -4.5922 -2.9739 0.9743
3.9406 -4.2606 -2.9753 0.9743
4.6380 -3.4977 -2.9781 0.9742
5.1896 -2.6224 -2.9810 0.9742
5.4050 -2.1511 -2.9824 0.9742
5.5776 -1.6623 -2.9837 0.9742
5.7059 -1.1597 -2.9851 0.9742
5.7890 -0.6476 -2.9863 0.9742
5.8260 -0.1298 -2.9875 0.9741
5.7609 0.9059 -2.9897 0.9741
5.5270 1.9192 -2.9995 0.9740
4.1612 4.1151 -3.0003 0.9740
3.7786 4.4693 -3.0004 0.9740
2.9265 5.0688 -3.0007 0.9740
1.9815 5.5077 -3.0008 0.9740
1.4835 5.6623 -3.0008 0.9740
0.4560 5.8356 -3.0009 0.9740
-1.6092 5.6277 -3.0008 0.9740
-2.1036 5.4620 -3.0007 0.9740
-3.4715 4.7116 -3.0004 0.9740
-4.5923 3.6265 -2.9999 0.9740
-4.8965 3.2032 -2.9997 0.9740
-5.1619 2.7545 -2.9996 0.9740
-5.5678 1.7954 -2.9992 0.9740
-5.7051 1.2926 -2.9990 0.9740
-5.7971 0.7797 -2.9988 0.9740
-5.8431 0.2606 -2.9986 0.9741
-5.5652 -1.7945 -2.9978 0.9741
-5.1582 -2.7525 -2.9974 0.9741
-4.5879 -3.6231 -2.9971 0.9741
-4.2471 -4.0168 -2.9969 0.9741
-3.4639 -4.7012 -2.9938 0.9741
-3.0059 -4.9484 -2.9682 0.9743
-2.5487 -5.1865 -2.9627 0.9744
-2.0772 -5.3933 -2.9630 0.9744
-1.5891 -5.5576 -2.9634 0.9744
-0.5788 -5.7537 -2.9646 0.9743
-0.0644 -5.7839 -2.9654 0.9743
0.4508 -5.7683 -2.9663 0.9743
1.9608 -5.4501 -2.9694 0.9743
2.4391 -5.2561 -2.9706 0.9743
2.8985 -5.0203 -2.9719 0.9743
3.3353 -4.7445 -2.9732 0.9743
4.4765 -3.6999 -2.9774 0.9742
5.3026 -2.3892 -2.9817 0.9742
5.4967 -1.9087 -2.9830 0.9742
5.7531 -0.9046 -2.9857 0.9742
5.8132 -0.3891 -2.9869 0.9742
5.6068 1.6710 -2.9994 0.9740
5.4362 2.1636 -2.9996 0.9740
5.2224 2.6390 -2.9998 0.9740
4.9670 3.0935 -2.9999 0.9740
3.9739 4.2965 -3.0004 0.9740
3.5758 4.6333 -3.0005 0.9740
3.1493 4.9334 -3.0006 0.9740
2.6978 5.1943 -3.0007 0.9740
0.7155 5.8096 -3.0009 0.9740
0.1956 5.8502 -3.0009 0.9740
-0.3259 5.8444 -3.0009 0.9740
-2.8127 5.1326 -3.0005 0.9740
-3.6779 4.5522 -3.0003 0.9740
-5.0342 2.9818 -2.9996 0.9740
-5.4825 2.0417 -2.9993 0.9740
-5.7568 1.0371 -2.9989 0.9740
-5.5270 -0.9958 -2.9981 0.9749
-5.4162 -1.4837 -2.9979 0.9749
-5.2623 -1.9597 -2.9977 0.9749
-4.2466 -3.6722 -2.9971 0.9749
-2.2239 -5.0862 -2.9634 0.9751
-0.8015 -5.4956 -2.9648 0.9751
0.1857 -5.5534 -2.9663 0.9751
0.6794 -5.5165 -2.9672 0.9751
2.1150 -5.1464 -2.9704 0.9751
2.9964 -4.6938 -2.9728 0.9751
3.7845 -4.0917 -2.9754 0.9750
4.1355 -3.7404 -2.9768 0.9750
4.4541 -3.3590 -2.9781 0.9750
5.1903 -2.0657 -2.9822 0.9750
5.4791 -1.1137 -2.9848 0.9750
5.5588 -0.6218 -2.9860 0.9750
5.5942 -0.1246 -2.9872 0.9749
5.3078 1.8431 -2.9995 0.9748
5.1229 2.3083 -2.9996 0.9748
4.8974 2.7553 -2.9998 0.9748
3.9961 3.9518 -3.0002 0.9748
3.2323 4.5981 -3.0005 0.9748
2.3660 5.0987 -3.0007 0.9748
1.9029 5.2891 -3.0007 0.9748
1.4246 5.4376 -3.0008 0.9748
0.9349 5.5428 -3.0008 0.9748
0.4379 5.6041 -3.0008 0.9748
-2.0201 5.2452 -3.0006 0.9748
-2.4789 5.0444 -3.0005 0.9748
-4.9571 2.6452 -2.9995 0.9748
-5.1725 2.1934 -2.9993 0.9748
-5.4788 1.2413 -2.9990 0.9748
-5.5672 0.7487 -2.9988 0.9749
-5.4770 -1.2409 -2.9980 0.9749
-5.3445 -1.7234 -2.9978 0.9749
-5.1696 -2.1921 -2.9976 0.9749
-4.9537 -2.6434 -2.9975 0.9749
-4.6985 -3.0736 -2.9973 0.9749
-4.0787 -3.8576 -2.9970 0.9749
-2.8884 -4.7550 -2.9701 0.9751
-2.4481 -4.9818 -2.9633 0.9751
-1.0454 -5.4539 -2.9645 0.9751
-0.5560 -5.5265 -2.9652 0.9751
-0.0619 -5.5554 -2.9659 0.9751
0.4329 -5.5404 -2.9667 0.9751
0.9247 -5.4816 -2.9677 0.9751
2.3426 -5.0481 -2.9709 0.9751
2.7838 -4.8216 -2.9722 0.9751
3.2032 -4.5566 -2.9734 0.9751
3.5977 -4.2553 -2.9747 0.9750
3.9639 -3.9200 -2.9761 0.9750
4.2990 -3.5532 -2.9774 0.9750
4.8654 -2.7372 -2.9802 0.9750
5.2784 -1.8328 -2.9829 0.9750
5.5244 -0.8687 -2.9854 0.9750
5.5953 0.1247 -2.9877 0.9749
5.4882 1.1155 -2.9898 0.9749
5.3844 1.6047 -2.9994 0.9748
5.0152 2.5343 -2.9997 0.9748
4.7700 2.9708 -2.9999 0.9748
4.1681 3.7698 -3.0002 0.9748
3.8162 4.1260 -3.0003 0.9748
3.0244 4.7376 -3.0005 0.9748
2.5908 4.9881 -3.0006 0.9748
1.1809 5.4956 -3.0008 0.9748
0.6871 5.5790 -3.0008 0.9748
-0.3129 5.6124 -3.0008 0.9748
-2.2518 5.1499 -3.0006 0.9748
-2.7011 4.9289 -3.0005 0.9748
-4.2507 3.6757 -2.9999 0.9748
-4.8345 2.8635 -2.9996 0.9748
-5.0699 2.4217 -2.9994 0.9748
-5.5948 0.5000 -2.9987 0.9749
-5.3770 -0.4805 -2.9983 0.9756
-5.3126 -0.9571 -2.9981 0.9756
-5.2060 -1.4261 -2.9979 0.9756
-4.8701 -2.3263 -2.9976 0.9756
-4.6435 -2.7504 -2.9974 0.9756
-4.3801 -3.1526 -2.9973 0.9756
-4.0819 -3.5297 -2.9971 0.9756
-3.7514 -3.8789 -2.9970 0.9756
-2.5687 -4.6873 -2.9686 0.9758
-0.2973 -5.3321 -2.9660 0.9759
0.1785 -5.3388 -2.9668 0.9759
1.1230 -5.2256 -2.9686 0.9758
1.5841 -5.1067 -2.9696 0.9758
