ply
format ascii 1.0
element vertex 1586
property float32 x
property float32 y
property float32 z
property float32 I
end_header
6.7112 0.1496 0.0558 0.9735
6.9353 -0.1545 -0.0577 0.9726
6.5106 0.4358 -0.0542 0.9742
6.9543 2.4148 -0.0612 0.9710
7.5368 -0.5045 -0.0628 0.9702
6.5808 1.9613 -0.0571 0.9729
1.8842 8.7681 -0.0745 0.9648
-10.2717 -10.6209 -0.3685 0.9426
-7.1298 -10.6384 -0.3194 0.9500
6.9151 -0.1541 -0.1725 0.9727
6.4168 1.6050 -0.1650 0.9739
6.9224 2.4037 -0.1827 0.9711
1.8841 8.7676 -0.2236 0.9648
-10.2713 -10.6205 -0.6143 0.9426
6.8987 -0.1537 -0.2869 0.9728
6.4844 0.4341 -0.2702 0.9743
7.4566 -0.4992 -0.3107 0.9705
6.6418 0.1480 -0.2762 0.9738
6.5436 1.9502 -0.2839 0.9730
1.8839 8.7671 -0.3729 0.9647
-10.2709 -10.6201 -0.8605 0.9425
-7.1301 -10.6389 -0.7459 0.9500
6.3308 0.9955 -0.3733 0.9746
6.8740 2.3869 -0.4238 0.9713
6.6288 0.1477 -0.3862 0.9738
6.3784 0.7135 -0.3738 0.9746
6.3332 1.2873 -0.3764 0.9744
6.5296 1.9460 -0.3968 0.9731
-10.2705 -10.6196 -1.1071 0.9425
-7.1303 -10.6392 -0.9598 0.9499
6.8953 -0.1537 -0.5169 0.9727
6.3336 0.9959 -0.4805 0.9746
6.3986 1.6004 -0.4943 0.9739
6.9006 2.3962 -0.5474 0.9711
6.6355 0.1479 -0.4974 0.9737
6.3812 0.7139 -0.4812 0.9746
6.5394 1.9490 -0.5114 0.9730
1.8837 8.7661 -0.6719 0.9647
-10.2701 -10.6192 -1.3544 0.9424
6.9113 -0.1540 -0.6338 0.9726
6.3440 0.9975 -0.5887 0.9745
6.5541 1.9533 -0.6270 0.9729
1.8836 8.7656 -0.8220 0.9646
-10.2697 -10.6188 -1.6023 0.9423
-7.1307 -10.6397 -1.3893 0.9498
6.3545 0.9992 -0.6977 0.9745
6.9753 2.4221 -0.8009 0.9707
7.6467 -0.5119 -0.8313 0.9696
6.5713 1.9585 -0.7438 0.9728
-7.1309 -10.6400 -1.6051 0.9497
6.5248 0.4368 -0.8195 0.9740
7.1152 2.4707 -0.9439 0.9701
6.4243 0.7187 -0.8101 0.9743
6.3813 1.2971 -0.8160 0.9741
-10.2688 -10.6179 -2.1010 0.9421
7.0441 -0.1570 -1.0022 0.9719
6.5613 0.4392 -0.9353 0.9738
6.4584 0.7225 -0.9243 0.9741
6.6811 1.9912 -0.9916 0.9722
1.8833 8.7641 -1.2750 0.9644
-10.1790 -10.5251 -2.3315 0.9424
-7.1312 -10.6405 -2.0397 0.9494
7.1420 -0.1592 -1.1376 0.9715
6.4456 1.0135 -1.0390 0.9739
6.5353 1.6346 -1.0727 0.9731
6.7797 0.1511 -1.0798 0.9729
6.4930 0.7263 -1.0404 0.9739
6.4545 1.3119 -1.0488 0.9737
1.8832 8.7636 -1.4273 0.9643
-10.1533 -10.4985 -2.5753 0.9424
-7.1314 -10.6408 -2.2587 0.9493
7.2851 -0.1623 -1.2849 0.9708
6.5000 1.0221 -1.1602 0.9736
6.6162 1.6548 -1.2025 0.9727
6.8603 0.1529 -1.2100 0.9725
6.5476 0.7325 -1.1617 0.9736
6.5162 1.3245 -1.1725 0.9734
6.8682 2.0469 -1.2637 0.9713
-11.0229 -9.5318 -2.8201 0.9424
-7.1316 -10.6411 -2.4789 0.9491
-6.9296 -12.6449 -2.7904 0.9429
-5.7668 -13.1890 -2.7856 0.9430
-4.5539 -13.6017 -2.7758 0.9432
6.5670 1.0326 -1.2864 0.9733
6.7029 1.6765 -1.3371 0.9722
-12.8310 -6.8468 -2.8144 0.9425
-12.1802 -7.9679 -2.8166 0.9424
-11.4319 -9.0277 -2.8189 0.9424
-10.5841 -10.0103 -2.8192 0.9424
-8.5953 -11.6657 -2.8041 0.9427
-7.4973 -12.3423 -2.7946 0.9429
-6.3583 -12.9388 -2.7899 0.9430
-4.0142 -14.0384 -2.8256 0.9422
6.9587 0.1551 -1.3470 0.9720
1.8830 8.7626 -1.7344 0.9641
-11.0849 9.5855 -2.8359 0.9420
-14.0973 0.0000 -2.9720 0.9440
-14.0354 -1.2542 -2.9707 0.9440
-13.8631 -2.4975 -2.9697 0.9440
-13.5821 -3.7205 -2.9689 0.9441
-10.8481 -7.8080 -2.8178 0.9468
-10.1176 -8.7490 -2.8199 0.9468
-6.4431 -11.7572 -2.8264 0.9467
-5.3695 -12.2805 -2.8256 0.9467
-4.2344 -12.6476 -2.8118 0.9469
-0.7725 -13.8548 -2.9254 0.9449
0.4642 -13.8851 -2.9289 0.9448
2.9268 -13.6201 -2.9369 0.9446
4.1337 -13.3259 -2.9414 0.9446
5.3120 -12.9260 -2.9462 0.9445
6.4524 -12.4231 -2.9512 0.9444
7.5458 -11.8203 -2.9564 0.9443
9.5571 -10.3331 -2.9673 0.9441
10.4585 -9.4592 -2.9729 0.9440
12.6557 -6.3952 -2.9894 0.9437
14.1723 -1.5854 -3.0065 0.9434
14.2780 -0.3182 -3.0108 0.9433
6.8322 1.7088 -1.4847 0.9716
12.5276 7.0479 -3.0303 0.9429
11.0779 9.1562 -3.0299 0.9429
10.2170 10.1039 -3.0293 0.9430
9.2746 10.9701 -3.0285 0.9430
7.1771 12.4310 -3.0261 0.9430
4.8541 13.4922 -3.0229 0.9431
3.4471 13.1574 -2.8675 0.9459
2.2607 13.4027 -2.8655 0.9460
-2.5541 13.3243 -2.8602 0.9460
-3.7268 13.0335 -2.8578 0.9461
-5.9688 12.1462 -2.8531 0.9462
-7.0204 11.5572 -2.8508 0.9462
-8.9351 10.1031 -2.8434 0.9464
-9.7802 9.2502 -2.8380 0.9465
-11.8483 7.7508 -2.9848 0.9438
-13.4443 4.3352 -2.9780 0.9439
-13.7678 3.1194 -2.9761 0.9439
-13.9823 1.8804 -2.9743 0.9440
-13.9630 -1.8778 -2.9702 0.9440
-13.7361 -3.1122 -2.9692 0.9441
-12.9615 -5.4962 -2.9681 0.9441
-9.7214 -9.1944 -2.8209 0.9468
-6.9589 -11.4559 -2.8258 0.9467
-4.8082 -12.4842 -2.8204 0.9468
-3.8228 -13.3691 -2.9314 0.9447
-1.3880 -13.7969 -2.9233 0.9449
4.7270 -13.1390 -2.9438 0.9445
9.0789 -10.7385 -2.9646 0.9441
10.0173 -9.9064 -2.9701 0.9440
14.0769 -2.2135 -3.0042 0.9434
13.3428 5.3103 -3.0275 0.9430
11.4756 8.6542 -3.0301 0.9429
10.6581 9.6397 -3.0296 0.9429
9.7556 10.5476 -3.0289 0.9430
6.6146 12.7353 -3.0254 0.9430
5.4519 13.2664 -3.0238 0.9431
4.2469 13.6908 -3.0220 0.9431
1.8828 8.7621 -1.8894 0.9640
0.4542 13.5858 -2.8658 0.9459
-1.9588 13.4302 -2.8613 0.9460
-3.1438 13.1920 -2.8590 0.9461
-4.3020 12.8492 -2.8567 0.9461
-7.5253 11.2284 -2.8496 0.9462
-9.3674 9.6858 -2.8407 0.9464
-11.4961 8.2744 -2.9861 0.9437
-12.1768 7.2124 -2.9836 0.9438
-12.7604 6.0951 -2.9813 0.9438
-13.6195 3.7308 -2.9770 0.9439
-14.0484 1.2554 -2.9735 0.9440
-13.0301 0.0000 -2.9740 0.9479
-12.9732 -1.1593 -2.9728 0.9480
-12.8143 -2.3086 -2.9719 0.9480
-12.5548 -3.4391 -2.9711 0.9480
-8.5943 -8.8865 -2.8217 0.9505
-7.7745 -9.6226 -2.8236 0.9505
-6.8917 -10.2831 -2.8254 0.9505
-4.0511 -12.1001 -2.9124 0.9490
0.4292 -12.8378 -2.9318 0.9487
2.7060 -12.5926 -2.9398 0.9485
7.9309 -10.2764 -2.9628 0.9481
8.8293 -9.5461 -2.9679 0.9480
10.4181 -7.8567 -2.9783 0.9479
11.0915 -6.9078 -2.9824 0.9478
12.5753 -3.7478 -2.9950 0.9476
12.8783 -2.6176 -2.9995 0.9475
13.0788 -1.4631 -3.0038 0.9474
13.1751 -0.2936 -3.0079 0.9474
6.9692 0.4665 -1.5942 0.9717
12.5076 4.3431 -3.0220 0.9471
12.0820 5.4439 -3.0247 0.9471
10.2241 8.4505 -3.0275 0.9470
9.4297 9.3253 -3.0270 0.9470
8.5601 10.1250 -3.0262 0.9471
5.5744 12.0126 -3.0226 0.9471
2.0871 12.3733 -2.8640 0.9498
0.9782 12.5188 -2.8660 0.9498
-1.2550 12.4755 -2.8618 0.9499
-2.3587 12.3052 -2.8597 0.9499
-4.4963 11.6744 -2.8554 0.9500
-5.5133 11.2193 -2.8532 0.9500
-6.4851 10.6760 -2.8511 0.9500
-8.2503 9.3288 -2.8425 0.9502
-10.2748 8.1140 -2.9882 0.9477
-12.0266 5.0997 -2.9816 0.9478
-12.7241 2.8829 -2.9778 0.9479
-12.9230 1.7380 -2.9761 0.9479
-13.0200 0.5806 -2.9747 0.9479
-13.0144 -0.5803 -2.9734 0.9480
-12.9065 -1.7357 -2.9723 0.9480
-12.3879 -3.9946 -2.9708 0.9480
-11.4809 -6.1264 -2.9702 0.9480
-10.8901 -7.1240 -2.9702 0.9480
-8.1927 -9.2637 -2.8226 0.9505
-5.4610 -11.1127 -2.8261 0.9505
-4.4491 -11.5517 -2.8254 0.9505
-3.5770 -12.5093 -2.9696 0.9480
-2.4149 -12.5985 -2.9279 0.9487
-1.2837 -12.7599 -2.9271 0.9487
-0.1430 -12.8361 -2.9299 0.9487
2.1409 -12.6921 -2.9378 0.9486
4.3696 -12.1457 -2.9461 0.9484
5.4417 -11.7266 -2.9507 0.9483
6.4742 -11.2137 -2.9554 0.9483
7.4590 -10.6105 -2.9603 0.9482
9.2537 -9.1512 -2.9705 0.9480
12.7394 -3.1863 -2.9973 0.9475
12.9915 -2.0428 -3.0017 0.9475
13.1399 -0.8796 -3.0058 0.9474
12.6825 3.7798 -3.0205 0.9472
12.3074 4.8982 -3.0234 0.9471
10.5911 7.9871 -3.0277 0.9470
7.1306 11.1699 -3.0246 0.9471
1.8827 8.7615 -2.0454 0.9639
1.5340 12.4556 -2.8644 0.9498
-0.6983 12.5236 -2.8629 0.9498
-2.9034 12.1834 -2.8586 0.9499
-5.0100 11.4582 -2.8543 0.9500
-6.9513 10.3720 -2.8498 0.9501
-9.9072 8.5671 -2.9894 0.9477
-10.6219 7.6452 -2.9871 0.9477
-11.2516 6.6643 -2.9848 0.9478
-11.7915 5.6324 -2.9826 0.9478
-12.2377 4.5574 -2.9806 0.9478
-11.9067 -2.1451 -2.9738 0.9514
-11.6658 -3.1956 -2.9731 0.9514
-11.3331 -4.2205 -2.9726 0.9514
-10.9114 -5.2119 -2.9723 0.9514
-6.3981 -9.5466 -2.8248 0.9538
-5.5246 -10.0812 -2.8256 0.9538
-3.8474 -11.4916 -2.9787 0.9513
-2.7864 -11.6921 -2.9544 0.9517
-1.7199 -11.7923 -2.9292 0.9521
0.3989 -11.9314 -2.9344 0.9520
3.5511 -11.4478 -2.9461 0.9518
4.5623 -11.1017 -2.9502 0.9518
6.4777 -10.1471 -2.9590 0.9516
8.1995 -8.8652 -2.9682 0.9515
10.2910 -6.4093 -2.9800 0.9513
10.8371 -5.4762 -2.9845 0.9512
11.2983 -4.4966 -2.9890 0.9511
11.6706 -3.4782 -2.9933 0.9511
12.1354 -1.3575 -3.0015 0.9509
12.2241 -0.2724 -3.0054 0.9509
7.1881 0.4812 -1.7708 0.9708
6.9228 1.0885 -1.7225 0.9715
11.9024 2.9770 -3.0157 0.9507
10.7190 6.0304 -3.0231 0.9506
10.1454 6.9644 -3.0248 0.9506
9.4874 7.8416 -3.0254 0.9506
7.0736 10.0624 -3.0233 0.9506
6.1477 10.6482 -3.0222 0.9506
5.1733 11.1483 -3.0209 0.9506
1.9372 11.4844 -2.8627 0.9532
0.9081 11.6214 -2.8652 0.9531
-0.1298 11.6479 -2.8632 0.9532
-1.1652 11.5823 -2.8613 0.9532
-3.1959 11.1767 -2.8573 0.9532
-6.0212 9.9123 -2.8507 0.9534
-6.8688 9.3224 -2.8462 0.9534
-7.6589 8.6600 -2.8417 0.9535
-8.8413 8.3621 -2.9912 0.9511
-10.7132 5.7167 -2.9847 0.9512
-11.5424 3.7219 -2.9810 0.9513
-11.8212 2.6783 -2.9793 0.9513
-11.9922 -1.6128 -2.9742 0.9514
-11.7978 -2.6730 -2.9734 0.9514
-11.1332 -4.7209 -2.9724 0.9514
-10.1192 -6.6196 -2.9722 0.9514
-8.5847 -8.1194 -2.9044 0.9525
-7.6069 -8.6013 -2.8224 0.9538
-5.9676 -9.8240 -2.8253 0.9538
-4.2776 -11.1066 -2.9255 0.9522
-1.1933 -11.8619 -2.9304 0.9521
0.9305 -11.9081 -2.9359 0.9520
1.9890 -11.7915 -2.9393 0.9519
4.0604 -11.2859 -2.9482 0.9518
5.0560 -10.8953 -2.9524 0.9517
6.9286 -9.8561 -2.9613 0.9516
11.4958 -3.9918 -2.9912 0.9511
11.8222 -2.9569 -2.9954 0.9510
12.1920 -0.8161 -3.0035 0.9509
6.9741 0.7802 -1.7249 0.9715
11.4148 4.5430 -3.0198 0.9507
10.9734 5.5451 -3.0221 0.9506
10.4428 6.5039 -3.0240 0.9506
9.1280 8.2558 -3.0252 0.9506
8.3553 9.0337 -3.0246 0.9506
6.6172 10.3657 -3.0228 0.9506
5.6661 10.9092 -3.0216 0.9506
3.6385 11.7295 -3.0186 0.9507
1.8826 8.7610 -2.2026 0.9638
0.3894 11.6462 -2.8642 0.9531
-0.6483 11.6266 -2.8622 0.9532
-2.6958 11.3119 -2.8583 0.9532
-3.6893 11.0194 -2.8563 0.9533
-4.6522 10.6397 -2.8543 0.9533
-7.2714 8.9999 -2.8440 0.9535
-10.9535 5.2321 -2.9838 0.9512
-11.9256 2.1485 -2.9785 0.9513
-11.2991 0.0000 -2.9773 0.9543
-11.2504 -1.0053 -2.9763 0.9544
-10.5780 -3.9393 -2.9743 0.9544
-10.1845 -4.8647 -2.9740 0.9544
-9.1607 -6.5934 -2.9741 0.9544
-8.5383 -7.3833 -2.9744 0.9544
-7.8486 -8.1154 -2.9749 0.9544
-6.9919 -8.6539 -2.9316 0.9550
-6.0563 -9.0366 -2.8665 0.9560
-5.2609 -9.5998 -2.8845 0.9557
-4.5288 -10.3575 -2.9787 0.9543
-1.6084 -11.0279 -2.9366 0.9549
-0.6200 -11.1190 -2.9344 0.9550
0.3725 -11.1397 -2.9370 0.9549
2.3466 -10.9200 -2.9431 0.9548
4.2559 -10.3562 -2.9503 0.9547
5.1681 -9.9504 -2.9545 0.9547
7.6445 -8.2651 -2.9666 0.9545
8.3618 -7.5628 -2.9709 0.9544
10.1062 -5.1069 -2.9837 0.9542
10.5352 -4.1929 -2.9878 0.9542
7.1917 1.1308 -1.9183 0.9703
11.0924 2.7744 -3.0129 0.9538
10.8108 3.7539 -3.0155 0.9538
9.9879 5.6192 -3.0197 0.9537
8.8448 7.3104 -3.0236 0.9536
8.1578 8.0674 -3.0232 0.9536
6.5948 9.3813 -3.0216 0.9537
5.7317 9.9276 -3.0206 0.9537
4.8234 10.3942 -3.0194 0.9537
0.8469 10.8385 -2.8646 0.9560
-2.9810 10.4252 -2.8571 0.9561
-4.7759 9.7187 -2.8534 0.9562
-6.4051 8.6931 -2.8452 0.9563
-8.9042 7.0316 -2.9896 0.9542
-9.9966 5.3344 -2.9857 0.9542
-10.4254 4.4208 -2.9839 0.9542
-10.7713 3.4733 -2.9822 0.9543
-11.0319 2.4995 -2.9806 0.9543
-11.2052 1.5070 -2.9792 0.9543
-11.2900 0.5035 -2.9779 0.9543
-11.2858 -0.5032 -2.9768 0.9543
-11.1928 -1.5053 -2.9758 0.9544
-10.7438 -3.4644 -2.9745 0.9544
-10.3915 -4.4063 -2.9742 0.9544
-9.9574 -5.3134 -2.9740 0.9544
-8.2015 -7.7570 -2.9746 0.9544
-6.5061 -8.8301 -2.8901 0.9556
-5.6442 -9.2916 -2.8647 0.9560
-4.0638 -10.5513 -2.9794 0.9543
-3.1100 -10.8764 -2.9808 0.9543
-2.1032 -10.9724 -2.9439 0.9548
-1.1143 -11.0760 -2.9333 0.9550
-0.1241 -11.1403 -2.9357 0.9550
0.8687 -11.1173 -2.9384 0.9549
1.8567 -11.0075 -2.9415 0.9549
2.8323 -10.8109 -2.9448 0.9548
4.7163 -10.1634 -2.9524 0.9547
7.2639 -8.5916 -2.9646 0.9545
8.0108 -7.9221 -2.9687 0.9545
8.6967 -7.1880 -2.9730 0.9544
10.7188 -3.7220 -2.9899 0.9541
11.2384 -1.7671 -2.9977 0.9540
11.3654 -0.7608 -3.0015 0.9540
11.4016 0.2541 -3.0051 0.9539
7.2620 0.8124 -1.9255 0.9702
7.5101 1.5265 -2.0194 0.9688
10.9627 3.2673 -3.0142 0.9538
7.7895 8.4219 -3.0229 0.9537
4.3546 10.5965 -3.0187 0.9537
1.3271 10.7755 -2.8608 0.9561
0.3631 10.8615 -2.8636 0.9560
-0.6047 10.8436 -2.8617 0.9561
-2.5145 10.5511 -2.8581 0.9561
-3.4413 10.2787 -2.8562 0.9562
-7.8960 8.1644 -2.9928 0.9541
-9.2055 6.6257 -2.9886 0.9542
-9.7522 5.7763 -2.9866 0.9542
-10.2212 4.8823 -2.9848 0.9542
-10.6089 3.9508 -2.9830 0.9543
-10.9124 2.9892 -2.9813 0.9543
-10.4129 -1.8760 -2.9769 0.9570
-10.2025 -2.7947 -2.9763 0.9570
-9.5431 -4.5583 -2.9756 0.9570
-8.5838 -6.1782 -2.9756 0.9570
-8.0006 -6.9184 -2.9759 0.9570
-5.8923 -8.7919 -2.9778 0.9570
-5.0881 -9.2846 -2.9788 0.9570
-3.3640 -10.0478 -2.9812 0.9569
-1.5098 -10.3516 -2.9433 0.9575
-0.5811 -10.4222 -2.9369 0.9576
0.3491 -10.4410 -2.9393 0.9575
1.2781 -10.3779 -2.9420 0.9575
3.9876 -9.7033 -2.9516 0.9573
5.6591 -8.8648 -2.9591 0.9572
6.4340 -8.3368 -2.9629 0.9572
7.1601 -7.7414 -2.9669 0.9571
7.8313 -7.0829 -2.9709 0.9571
9.4624 -4.7815 -2.9829 0.9569
9.8632 -3.9255 -2.9868 0.9568
10.4294 -2.1198 -2.9944 0.9567
10.6554 0.7133 -3.0047 0.9566
10.1158 3.5126 -3.0129 0.9565
8.8442 6.0713 -3.0183 0.9564
8.2791 6.8429 -3.0220 0.9563
7.6361 7.5515 -3.0216 0.9564
6.1733 8.7817 -3.0202 0.9564
4.5153 9.7303 -3.0181 0.9564
2.5781 9.8405 -2.8621 0.9586
1.6929 10.0364 -2.8637 0.9586
-1.9128 9.9787 -2.8587 0.9587
-2.7916 9.7629 -2.8569 0.9587
-4.4707 9.0976 -2.8520 0.9588
-7.7265 7.3076 -2.9922 0.9568
-8.3407 6.5866 -2.9902 0.9568
-8.8882 5.8144 -2.9883 0.9568
-9.3648 4.9972 -2.9865 0.9569
-10.0913 3.2540 -2.9832 0.9569
-10.3357 2.3418 -2.9817 0.9569
-10.5745 -0.4715 -2.9782 0.9570
-10.0671 -3.2462 -2.9761 0.9570
-9.7370 -4.1288 -2.9757 0.9570
-8.3004 -6.5547 -2.9757 0.9570
-7.0089 -7.9251 -2.9767 0.9570
-5.4957 -9.0471 -2.9783 0.9570
-3.8074 -9.8857 -2.9806 0.9569
-1.9813 -10.3364 -2.9612 0.9572
-1.0447 -10.3841 -2.9364 0.9576
1.7400 -10.3157 -2.9434 0.9575
5.2552 -9.1022 -2.9572 0.9573
6.0523 -8.6095 -2.9610 0.9572
6.8036 -8.0473 -2.9649 0.9572
8.1445 -6.7316 -2.9729 0.9570
9.2339 -5.1949 -2.9809 0.9569
10.0347 -3.4844 -2.9887 0.9568
10.5199 -1.6541 -2.9962 0.9567
10.6379 -0.7121 -2.9998 0.9567
10.4806 2.1303 -3.0091 0.9565
10.2582 3.0573 -3.0117 0.9565
9.9530 3.9612 -3.0140 0.9565
7.2914 7.8834 -3.0213 0.9564
6.5593 8.4991 -3.0206 0.9564
4.9453 9.5214 -3.0187 0.9564
-2.3547 9.8806 -2.8578 0.9587
-3.2228 9.6259 -2.8561 0.9587
-4.0636 9.2937 -2.8539 0.9587
-4.8683 8.8836 -2.8502 0.9588
-5.6321 8.4037 -2.8463 0.9588
-7.3957 7.6472 -2.9932 0.9568
-9.5753 4.5738 -2.9856 0.9569
-10.5487 0.9426 -2.9798 0.9569
-9.9534 0.0000 -2.9799 0.9593
-9.9109 -0.8856 -2.9790 0.9593
-9.7903 -1.7638 -2.9782 0.9593
-9.5926 -2.6277 -2.9776 0.9593
-8.0708 -5.8089 -2.9770 0.9593
-6.9146 -7.1496 -2.9777 0.9593
-5.5399 -8.2661 -2.9791 0.9593
-3.1626 -9.4462 -2.9823 0.9593
-2.3103 -9.6945 -2.9836 0.9592
-0.5466 -9.8021 -2.9391 0.9598
0.3283 -9.8194 -2.9414 0.9598
1.2020 -9.7595 -2.9439 0.9598
2.9190 -9.4100 -2.9496 0.9597
3.7491 -9.1229 -2.9528 0.9597
6.7297 -7.2760 -2.9672 0.9595
7.3599 -6.6566 -2.9709 0.9594
7.9330 -5.9830 -2.9747 0.9594
8.4450 -5.2596 -2.9785 0.9593
8.8907 -4.4926 -2.9822 0.9593
9.2668 -3.6881 -2.9859 0.9592
9.7975 -1.9914 -2.9932 0.9591
10.0175 -0.2232 -2.9998 0.9590
10.0077 0.6700 -3.0028 0.9590
9.9177 1.5595 -3.0056 0.9589
9.7478 2.4381 -3.0082 0.9589
9.4994 3.2986 -3.0105 0.9589
9.1742 4.1337 -3.0125 0.9589
8.7748 4.9366 -3.0142 0.9588
8.3044 5.7007 -3.0156 0.9588
7.7770 6.4279 -3.0206 0.9587
7.1731 7.0936 -3.0202 0.9588
5.7991 8.2494 -3.0189 0.9588
5.0404 8.7302 -3.0180 0.9588
4.2418 9.1409 -3.0169 0.9588
3.4101 9.4784 -3.0157 0.9588
-0.1065 9.5586 -2.8618 0.9609
-0.9562 9.5054 -2.8601 0.9609
-2.6234 9.1747 -2.8568 0.9609
-4.1997 8.5461 -2.8508 0.9610
-4.9375 8.1283 -2.8472 0.9611
-5.6771 7.7050 -2.8653 0.9608
-6.6263 7.4925 -2.9945 0.9591
-8.3549 5.4655 -2.9889 0.9592
-8.8032 4.6975 -2.9872 0.9592
-9.8700 1.3274 -2.9815 0.9593
-9.8603 -1.3261 -2.9786 0.9593
-9.4653 -3.0521 -2.9774 0.9593
-8.7727 -4.6813 -2.9769 0.9593
-7.2256 -6.8339 -2.9775 0.9593
-5.1670 -8.5059 -2.9795 0.9593
-4.3908 -8.9350 -2.9805 0.9593
-3.5795 -9.2940 -2.9817 0.9593
-0.1094 -9.8204 -2.9402 0.9598
0.7657 -9.7991 -2.9426 0.9598
1.6363 -9.7007 -2.9452 0.9598
2.4956 -9.5258 -2.9481 0.9597
4.1541 -8.9519 -2.9545 0.9596
4.9402 -8.5567 -2.9580 0.9596
7.6540 -6.3262 -2.9728 0.9594
8.1971 -5.6270 -2.9766 0.9593
8.6763 -4.8812 -2.9804 0.9593
9.0876 -4.0947 -2.9841 0.9592
9.4277 -3.2736 -2.9878 0.9592
9.6933 -2.4244 -2.9914 0.9591
9.9923 -0.6689 -2.9982 0.9590
10.0227 0.2234 -3.0013 0.9590
9.9727 1.1156 -3.0043 0.9590
9.8427 2.0006 -3.0070 0.9589
9.6333 2.8710 -3.0094 0.9589
9.3462 3.7197 -3.0115 0.9589
8.0560 6.0754 -3.0208 0.9587
6.8493 7.4055 -3.0199 0.9588
6.1617 7.9839 -3.0193 0.9588
3.8297 9.3190 -3.0163 0.9588
2.9838 9.6188 -3.0151 0.9588
-1.3783 9.4506 -2.8592 0.9609
-3.0285 9.0456 -2.8558 0.9610
-4.5734 8.3454 -2.8490 0.9610
-5.2913 7.8952 -2.8454 0.9611
-7.5587 6.5362 -2.9916 0.9591
-8.1055 5.8340 -2.9898 0.9592
-8.5876 5.0864 -2.9881 0.9592
-9.0012 4.2995 -2.9864 0.9592
-9.8031 1.7661 -2.9821 0.9593
-9.9174 0.8862 -2.9809 0.9593
-9.3863 0.0000 -2.9809 0.9614
-9.2328 -1.6634 -2.9794 0.9614
-8.4619 -4.0419 -2.9782 0.9614
-5.2243 -7.7952 -2.9802 0.9614
-3.7618 -8.6034 -2.9821 0.9614
-2.9823 -8.9075 -2.9832 0.9613
-2.1785 -9.1415 -2.9845 0.9613
-1.3486 -9.2466 -2.9676 0.9615
-0.5160 -9.2548 -2.9437 0.9618
1.1337 -9.2055 -2.9456 0.9618
1.9503 -9.0760 -2.9482 0.9618
4.2919 -8.2633 -2.9572 0.9617
5.0159 -7.8573 -2.9605 0.9616
5.7020 -7.3883 -2.9639 0.9616
6.9381 -6.2751 -2.9710 0.9615
7.4781 -5.6395 -2.9746 0.9615
7.9600 -4.9574 -2.9781 0.9614
9.0187 -2.6879 -2.9887 0.9613
9.3729 -1.0485 -2.9953 0.9612
9.1830 2.2969 -3.0062 0.9611
8.9486 3.1073 -3.0084 0.9610
8.6419 3.8939 -3.0103 0.9610
7.3282 6.0569 -3.0194 0.9609
6.7591 6.6843 -3.0190 0.9609
5.4646 7.7736 -3.0177 0.9609
4.7497 8.2267 -3.0169 0.9609
3.2135 8.9322 -3.0147 0.9609
2.2826 8.7126 -2.8604 0.9629
0.7019 8.9824 -2.8614 0.9629
-0.1004 9.0087 -2.8612 0.9629
-3.2285 8.3828 -2.8529 0.9630
-3.9574 8.0531 -2.8497 0.9630
-4.6530 7.6599 -2.8463 0.9631
-5.5969 7.5962 -2.9965 0.9612
-6.2470 7.0636 -2.9947 0.9612
-7.3917 5.8371 -2.9912 0.9612
-7.8775 5.1532 -2.9895 0.9613
-8.6573 3.6710 -2.9864 0.9613
-8.9454 2.8845 -2.9850 0.9613
-9.1626 2.0760 -2.9837 0.9613
-9.3785 0.4182 -2.9814 0.9614
-9.3756 -0.4180 -2.9805 0.9614
-9.2987 -1.2505 -2.9797 0.9614
-8.6339 -3.6611 -2.9783 0.9614
-8.2733 -4.4148 -2.9782 0.9614
-7.8476 -5.1337 -2.9782 0.9614
-6.2146 -7.0269 -2.9792 0.9614
-4.1406 -8.4258 -2.9816 0.9614
-2.5831 -9.0334 -2.9838 0.9613
-1.7695 -9.2315 -2.9852 0.9613
-0.9295 -9.2394 -2.9491 0.9618
-0.1032 -9.2636 -2.9421 0.9619
2.3538 -8.9843 -2.9496 0.9618
3.9173 -8.4417 -2.9556 0.9617
5.3641 -7.6305 -2.9622 0.9616
6.0290 -7.1311 -2.9657 0.9616
7.2151 -5.9634 -2.9728 0.9615
8.1778 -4.6007 -2.9799 0.9614
8.5651 -3.8592 -2.9835 0.9613
8.8850 -3.0852 -2.9870 0.9613
9.3120 -1.4642 -2.9937 0.9612
9.4152 -0.6302 -2.9968 0.9612
9.4432 0.2105 -2.9998 0.9611
9.0750 2.7046 -3.0073 0.9610
8.8041 3.5040 -3.0094 0.9610
8.4622 4.2762 -3.0111 0.9610
8.0519 5.0148 -3.0126 0.9610
6.4541 6.9781 -3.0187 0.9609
5.8062 7.5233 -3.0181 0.9609
5.1122 8.0082 -3.0173 0.9609
4.3778 8.4288 -3.0164 0.9609
3.6090 8.7819 -3.0153 0.9609
0.3010 9.0048 -2.8614 0.9629
-1.2992 8.9081 -2.8590 0.9629
-2.0857 8.7520 -2.8573 0.9629
-2.8535 8.5229 -2.8544 0.9630
-5.9279 7.3371 -2.9956 0.9612
-6.5535 6.7762 -2.9938 0.9612
-7.6422 5.5005 -2.9903 0.9613
-8.0970 4.7959 -2.9887 0.9613
-8.8101 3.2809 -2.9857 0.9613
-9.0630 2.4826 -2.9843 0.9613
-9.2441 1.6654 -2.9830 0.9613
-9.3521 0.8357 -2.9819 0.9614
-8.8752 0.0000 -2.9819 0.9632
-8.8376 -0.7897 -2.9811 0.9633
-8.7303 -1.5728 -2.9804 0.9633
-8.5541 -2.3432 -2.9799 0.9633
-7.1972 -5.1802 -2.9794 0.9633
-6.7081 -5.8007 -2.9796 0.9633
-6.1660 -6.3756 -2.9800 0.9633
-4.9399 -7.3709 -2.9812 0.9632
-4.2654 -7.7834 -2.9820 0.9632
-1.2809 -8.7825 -2.9820 0.9632
1.0722 -8.7060 -2.9472 0.9637
1.8444 -8.5831 -2.9496 0.9636
4.0581 -7.8133 -2.9581 0.9635
4.7424 -7.4289 -2.9612 0.9635
5.3907 -6.9849 -2.9644 0.9635
6.5585 -5.9318 -2.9711 0.9634
7.5235 -4.6857 -2.9779 0.9633
8.2537 -3.2849 -2.9847 0.9632
8.5226 -2.5400 -2.9879 0.9632
8.7241 -1.7732 -2.9911 0.9631
8.6751 2.1698 -3.0045 0.9630
6.9243 5.7231 -3.0182 0.9628
4.4881 7.7737 -3.0159 0.9628
3.0367 8.4407 -3.0139 0.9629
2.1635 8.2581 -2.8682 0.9646
1.4157 8.3927 -2.8596 0.9647
0.6631 8.4859 -2.8598 0.9647
-0.0948 8.5102 -2.8595 0.9647
-1.6008 8.3513 -2.8570 0.9648
-5.2907 7.1805 -2.9967 0.9631
-6.9879 5.5183 -2.9916 0.9631
-7.8474 4.1875 -2.9885 0.9632
-8.1851 3.4708 -2.9871 0.9632
-8.8651 -0.3953 -2.9815 0.9632
-8.6507 -1.9600 -2.9802 0.9633
-8.4407 -2.7217 -2.9797 0.9633
-7.4207 -4.8543 -2.9793 0.9633
-6.9595 -5.4959 -2.9795 0.9633
-6.4434 -6.0941 -2.9798 0.9633
-5.8764 -6.6445 -2.9802 0.9633
-5.2627 -7.1426 -2.9809 0.9633
-4.6073 -7.5846 -2.9816 0.9632
-3.9151 -7.9670 -2.9825 0.9632
-3.1916 -8.2866 -2.9835 0.9632
-2.4423 -8.5411 -2.9847 0.9632
-0.0976 -8.7615 -2.9439 0.9637
2.2259 -8.4962 -2.9509 0.9636
2.9760 -8.2720 -2.9537 0.9636
3.7041 -7.9822 -2.9566 0.9635
5.0714 -7.2141 -2.9628 0.9635
5.6996 -6.7416 -2.9661 0.9634
8.0947 -3.6473 -2.9830 0.9632
8.3965 -2.9155 -2.9863 0.9632
8.6319 -2.1590 -2.9895 0.9631
8.9219 0.1989 -2.9984 0.9630
8.7599 1.7805 -3.0033 0.9630
8.3167 3.3100 -3.0074 0.9629
7.6056 4.7369 -3.0104 0.9629
6.6621 6.0256 -3.0181 0.9628
4.8306 7.5671 -3.0163 0.9628
4.1368 7.9647 -3.0154 0.9628
3.4103 8.2985 -3.0144 0.9628
2.6572 8.5659 -3.0133 0.9629
1.7880 8.3206 -2.8594 0.9647
1.0404 8.4478 -2.8598 0.9647
-1.2276 8.4171 -2.8579 0.9647
-1.9705 8.2684 -2.8558 0.9648
-2.6960 8.0526 -2.8531 0.9648
-3.3985 7.7726 -2.8502 0.9648
-4.9670 7.4112 -2.9975 0.9631
-5.6036 6.9357 -2.9958 0.9631
-7.2248 5.2001 -2.9908 0.9631
-7.6550 4.5341 -2.9892 0.9632
-8.3297 3.1020 -2.9864 0.9632
-8.2749 -1.4908 -2.9814 0.9649
-7.8772 -2.9335 -2.9806 0.9650
-7.5843 -3.6227 -2.9803 0.9650
-5.8444 -6.0431 -2.9810 0.9650
-3.3712 -7.7101 -2.9838 0.9649
-2.6725 -7.9823 -2.9848 0.9649
1.0165 -8.2531 -2.9486 0.9653
1.7484 -8.1363 -2.9509 0.9653
2.4677 -7.9551 -2.9534 0.9653
3.1688 -7.7110 -2.9561 0.9652
3.8463 -7.4054 -2.9589 0.9652
5.6836 -6.1451 -2.9681 0.9651
6.2147 -5.6208 -2.9713 0.9651
6.6976 -5.0509 -2.9745 0.9650
7.1283 -4.4395 -2.9777 0.9650
7.8192 -3.1120 -2.9841 0.9649
8.0735 -2.4061 -2.9872 0.9649
8.2639 -1.6797 -2.9902 0.9648
8.2155 2.0549 -3.0028 0.9647
7.7303 3.4831 -3.0065 0.9647
7.0157 4.8160 -3.0174 0.9645
4.8911 6.9578 -3.0157 0.9645
4.2514 7.3636 -3.0150 0.9646
2.8766 7.9957 -3.0131 0.9646
0.6280 8.0364 -2.8583 0.9664
-0.0898 8.0593 -2.8579 0.9664
-0.8065 8.0169 -2.8570 0.9664
-2.8894 7.5020 -2.8506 0.9665
-3.5421 7.2078 -2.8477 0.9665
-4.3902 7.2272 -2.9984 0.9647
-5.0132 6.8040 -2.9968 0.9648
-6.1336 5.8011 -2.9935 0.9648
-7.4370 3.9685 -2.9890 0.9649
-8.3408 1.1217 -2.9842 0.9649
-8.4049 0.3748 -2.9832 0.9649
-8.4026 -0.3747 -2.9824 0.9649
-8.3339 -1.1208 -2.9817 0.9649
-8.0005 -2.5798 -2.9807 0.9650
-7.4152 -3.9569 -2.9803 0.9650
-7.0337 -4.6012 -2.9803 0.9650
-4.9882 -6.7700 -2.9818 0.9649
-4.3669 -7.1888 -2.9825 0.9649
-3.0249 -7.8539 -2.9843 0.9649
-2.3147 -8.0949 -2.9854 0.9649
1.3836 -8.2028 -2.9497 0.9653
2.8209 -7.8409 -2.9547 0.9653
6.9197 -4.7501 -2.9761 0.9650
7.3229 -4.1198 -2.9793 0.9650
7.6688 -3.4554 -2.9825 0.9649
8.3345 -1.3105 -2.9916 0.9648
8.4260 -0.5640 -2.9944 0.9648
8.4502 0.1883 -2.9971 0.9648
8.2960 1.6863 -3.0018 0.9647
8.1185 2.4196 -3.0038 0.9647
7.8757 3.1345 -3.0057 0.9647
7.5694 3.8250 -3.0072 0.9646
6.7940 5.1236 -3.0173 0.9645
6.3104 5.7075 -3.0170 0.9645
5.7766 6.2456 -3.0166 0.9645
4.5758 7.1679 -3.0154 0.9646
3.9186 7.5446 -3.0145 0.9646
1.6935 7.8810 -2.8583 0.9664
0.2693 8.0560 -2.8581 0.9664
-0.4487 8.0463 -2.8575 0.9664
-2.5535 7.6270 -2.8520 0.9664
-3.8907 7.0996 -2.8707 0.9662
-4.7065 7.0225 -2.9976 0.9648
-5.3099 6.5722 -2.9959 0.9648
-6.8467 4.9280 -2.9912 0.9648
-7.6047 3.6325 -2.9883 0.9649
-8.1213 2.2247 -2.9858 0.9649
-8.2840 1.4924 -2.9847 0.9649
-8.3811 0.7489 -2.9837 0.9649
-7.9564 -0.7110 -2.9829 0.9665
-7.8600 -1.4160 -2.9823 0.9665
-7.7016 -2.1097 -2.9818 0.9665
-7.2042 -3.4412 -2.9813 0.9665
-6.4800 -4.6640 -2.9813 0.9665
-5.5514 -5.7401 -2.9819 0.9665
-5.0193 -6.2125 -2.9823 0.9665
-4.4474 -6.6359 -2.9830 0.9665
-3.8400 -7.0072 -2.9837 0.9665
-3.2021 -7.3233 -2.9846 0.9664
-0.4421 -7.9285 -2.9652 0.9667
0.2640 -7.8958 -2.9500 0.9668
1.6609 -7.7292 -2.9521 0.9668
2.3441 -7.5568 -2.9544 0.9668
3.0100 -7.3245 -2.9570 0.9668
4.2689 -6.6871 -2.9625 0.9667
6.3599 -4.7962 -2.9745 0.9666
6.7685 -4.2155 -2.9776 0.9665
7.8451 -1.5946 -2.9894 0.9664
7.9632 -0.8908 -2.9921 0.9664
7.9348 1.2477 -2.9993 0.9663
7.7976 1.9503 -3.0014 0.9663
6.2262 5.1461 -3.0163 0.9661
5.7428 5.6792 -3.0159 0.9661
5.2137 6.1669 -3.0155 0.9661
4.0360 6.9905 -3.0141 0.9661
0.5960 7.6275 -2.8569 0.9679
-0.0852 7.6492 -2.8564 0.9679
-1.4389 7.5067 -2.8541 0.9679
-2.0998 7.3436 -2.8521 0.9679
-2.7427 7.1214 -2.8496 0.9679
-3.4071 6.9333 -2.8847 0.9676
-6.2890 4.9663 -2.9923 0.9664
-6.7028 4.3848 -2.9909 0.9664
-7.0633 3.7691 -2.9895 0.9664
-7.3675 3.1241 -2.9882 0.9664
-7.7986 1.7669 -2.9859 0.9664
-7.9812 -0.3559 -2.9832 0.9665
-7.7885 -1.7646 -2.9820 0.9665
-7.0437 -3.7586 -2.9812 0.9665
-6.2660 -4.9482 -2.9814 0.9665
-5.8013 -5.4868 -2.9817 0.9665
-5.2906 -5.9822 -2.9821 0.9665
-3.5246 -7.1723 -2.9841 0.9665
-2.8731 -7.4598 -2.9850 0.9664
-2.1985 -7.6885 -2.9861 0.9664
-1.5060 -7.8567 -2.9872 0.9664
-0.0881 -7.9115 -2.9544 0.9668
1.3144 -7.7925 -2.9509 0.9668
2.0043 -7.6506 -2.9532 0.9668
3.9649 -6.8674 -2.9611 0.9667
4.5648 -6.4935 -2.9639 0.9667
5.1297 -6.0675 -2.9669 0.9666
6.1368 -5.0721 -2.9729 0.9666
6.5706 -4.5105 -2.9760 0.9665
6.9532 -3.9118 -2.9791 0.9665
7.2811 -3.2807 -2.9821 0.9665
7.5517 -2.6222 -2.9851 0.9664
7.7627 -1.9415 -2.9880 0.9664
7.9120 -1.2441 -2.9907 0.9664
7.9796 0.8927 -2.9982 0.9663
7.1837 3.6301 -3.0055 0.9662
6.8571 4.2706 -3.0165 0.9661
4.9334 6.3924 -3.0152 0.9661
3.0669 7.4628 -3.0128 0.9661
1.6564 7.7085 -2.9441 0.9669
0.9352 7.5936 -2.8569 0.9679
-1.1034 7.5655 -2.8549 0.9679
-1.7713 7.4327 -2.8532 0.9679
-2.4239 7.2398 -2.8509 0.9679
-3.0558 6.9889 -2.8483 0.9680
-3.8601 7.0436 -2.9992 0.9663
-5.5751 5.7646 -2.9945 0.9663
-6.5024 4.6802 -2.9916 0.9664
-7.2226 3.4500 -2.9889 0.9664
-7.7136 2.1130 -2.9864 0.9664
-7.8683 1.4175 -2.9854 0.9664
-7.6040 0.0000 -2.9843 0.9679
-6.8563 -3.2750 -2.9821 0.9679
-6.5375 -3.8721 -2.9821 0.9679
-6.1670 -4.4387 -2.9821 0.9679
-4.7768 -5.9123 -2.9831 0.9679
-3.0473 -6.9692 -2.9853 0.9678
-2.4156 -7.2150 -2.9862 0.9678
-1.7645 -7.4039 -2.9872 0.9678
-1.0989 -7.5344 -2.9883 0.9678
0.2516 -7.5247 -2.9549 0.9682
0.9191 -7.4626 -2.9510 0.9682
3.4767 -6.6939 -2.9604 0.9681
4.0624 -6.3636 -2.9631 0.9681
4.6170 -5.9824 -2.9658 0.9680
5.1360 -5.5530 -2.9687 0.9680
5.6153 -5.0788 -2.9716 0.9680
6.0510 -4.5633 -2.9745 0.9680
6.7775 -3.4248 -2.9803 0.9679
7.0621 -2.8107 -2.9831 0.9679
7.2911 -2.1730 -2.9859 0.9678
7.4623 -1.5168 -2.9886 0.9678
7.6259 -0.1699 -2.9937 0.9678
7.6166 0.5099 -2.9960 0.9677
7.5463 1.1866 -2.9981 0.9677
6.9768 3.1436 -3.0033 0.9677
6.6841 3.7604 -3.0100 0.9676
5.9221 4.8948 -3.0154 0.9675
5.4624 5.4019 -3.0151 0.9675
4.9592 5.8658 -3.0147 0.9675
4.4166 6.2827 -3.0141 0.9675
2.5977 7.2206 -3.0117 0.9676
0.5668 7.2537 -2.8555 0.9692
-0.7280 7.2360 -2.8542 0.9692
-1.9971 6.9843 -2.8510 0.9693
-4.5296 6.1476 -2.9970 0.9677
-5.5424 5.2420 -2.9940 0.9678
-5.9842 4.7257 -2.9926 0.9678
-7.0109 2.9729 -2.9887 0.9678
-7.4215 1.6815 -2.9865 0.9678
-7.5974 0.3388 -2.9847 0.9678
-7.5955 -0.3387 -2.9840 0.9679
-7.2324 -2.3321 -2.9824 0.9679
-5.9634 -4.7092 -2.9822 0.9679
-5.5210 -5.2218 -2.9825 0.9679
-5.0351 -5.6932 -2.9829 0.9679
-3.3542 -6.8256 -2.9848 0.9678
-2.7342 -7.0991 -2.9857 0.9678
-0.7623 -7.5774 -2.9889 0.9678
-0.0840 -7.5424 -2.9604 0.9681
1.2511 -7.4169 -2.9520 0.9682
1.9077 -7.2815 -2.9542 0.9682
2.5502 -7.0885 -2.9566 0.9681
4.3438 -6.1792 -2.9644 0.9681
4.8812 -5.7735 -2.9672 0.9680
5.8389 -4.8259 -2.9730 0.9680
6.2514 -4.2913 -2.9759 0.9679
6.9266 -3.1210 -2.9817 0.9679
7.1837 -2.4945 -2.9845 0.9679
7.3840 -1.8469 -2.9873 0.9678
7.5257 -1.1833 -2.9899 0.9678
7.6288 0.1700 -2.9948 0.9677
7.5891 0.8490 -2.9971 0.9677
7.3278 2.1839 -3.0010 0.9677
4.6926 6.0803 -3.0144 0.9675
4.1319 6.4725 -3.0138 0.9675
2.9173 7.0988 -3.0121 0.9676
2.2731 7.3279 -3.0112 0.9676
0.8895 7.2225 -2.8560 0.9692
-1.0493 7.1948 -2.8536 0.9692
-2.3054 6.8857 -2.8499 0.9693
-2.9644 6.7797 -2.9041 0.9687
-4.7978 5.9383 -2.9962 0.9677
-5.3047 5.4850 -2.9948 0.9677
-5.7691 4.9887 -2.9933 0.9678
-6.1873 4.4534 -2.9919 0.9678
-6.5562 3.8833 -2.9906 0.9678
-6.8729 3.2829 -2.9893 0.9678
-7.1350 2.6571 -2.9881 0.9678
-7.3405 2.0108 -2.9870 0.9678
-7.4878 1.3490 -2.9860 0.9678
-7.2490 0.0000 -2.9850 0.9691
-7.2186 -0.6450 -2.9843 0.9691
-7.1313 -1.2847 -2.9838 0.9691
-6.9876 -1.9141 -2.9834 0.9691
-6.2325 -3.6915 -2.9828 0.9692
-5.8794 -4.2317 -2.9829 0.9691
-4.0349 -6.0205 -2.9844 0.9691
-3.4839 -6.3572 -2.9851 0.9691
-2.9050 -6.6438 -2.9859 0.9691
-2.3028 -6.8780 -2.9868 0.9691
-1.6820 -7.0580 -2.9877 0.9691
0.2401 -7.1812 -2.9587 0.9694
0.8763 -7.1153 -2.9521 0.9695
1.5072 -7.0138 -2.9541 0.9694
2.1270 -6.8569 -2.9563 0.9694
5.7672 -4.3493 -2.9745 0.9692
6.7300 -2.6785 -2.9827 0.9692
6.9479 -2.0707 -2.9854 0.9691
7.2171 -0.8074 -2.9904 0.9691
7.2660 -0.1619 -2.9928 0.9690
7.1897 1.1305 -2.9970 0.9690
6.8834 2.3902 -3.0005 0.9690
6.6466 2.9948 -3.0019 0.9690
6.0360 4.1435 -3.0148 0.9688
3.0789 6.6348 -3.0119 0.9689
2.4754 6.8806 -3.0111 0.9689
1.8526 7.0713 -3.0101 0.9689
0.5482 7.0153 -2.8975 0.9700
-0.0772 6.9301 -2.8539 0.9705
-1.3037 6.8015 -2.8517 0.9705
-3.2131 6.5383 -2.9999 0.9690
-6.0797 3.9772 -2.9916 0.9691
-6.6832 2.8339 -2.9892 0.9691
-7.0748 1.6029 -2.9871 0.9691
-7.1872 0.9666 -2.9862 0.9691
-7.2410 -0.3229 -2.9846 0.9691
-7.1820 -0.9659 -2.9840 0.9691
-6.8950 -2.2233 -2.9832 0.9691
-6.3908 -3.4102 -2.9828 0.9692
-5.6852 -4.4895 -2.9830 0.9691
-5.2635 -4.9781 -2.9833 0.9691
-4.8001 -5.4276 -2.9836 0.9691
-4.2987 -5.8342 -2.9841 0.9691
-3.7632 -6.1950 -2.9848 0.9691
-3.1976 -6.5069 -2.9855 0.9691
-0.0804 -7.2195 -2.9731 0.9693
1.1928 -7.0716 -2.9531 0.9695
2.4313 -6.7579 -2.9574 0.9694
3.0256 -6.5199 -2.9598 0.9694
4.1408 -5.8903 -2.9649 0.9693
4.6528 -5.5033 -2.9676 0.9693
5.1289 -5.0721 -2.9703 0.9693
6.3043 -3.5467 -2.9786 0.9692
7.0363 -1.7599 -2.9867 0.9691
7.1345 1.4502 -2.9979 0.9690
6.9812 2.0806 -2.9997 0.9690
6.7718 2.6951 -3.0012 0.9690
4.9701 5.3737 -3.0141 0.9688
4.4714 5.7938 -3.0136 0.9688
3.9372 6.1675 -3.0130 0.9688
3.3718 6.4920 -3.0123 0.9689
2.1661 6.9829 -3.0106 0.9689
1.5355 7.1456 -3.0096 0.9689
0.2316 6.9281 -2.8545 0.9705
-0.3858 6.9189 -2.8535 0.9705
-0.9997 6.8545 -2.8524 0.9705
-2.2056 6.5879 -2.8608 0.9704
-2.9193 6.6766 -3.0006 0.9690
-5.0562 5.2281 -2.9949 0.9690
-5.8978 4.2450 -2.9923 0.9691
-6.2496 3.7017 -2.9910 0.9691
-7.1380 1.2860 -2.9866 0.9691
-7.2221 0.6454 -2.9858 0.9691
-6.9215 0.0000 -2.9856 0.9703
-6.8925 -0.6159 -2.9850 0.9703
-6.6721 -1.8277 -2.9841 0.9703
-6.4823 -2.4140 -2.9838 0.9703
-6.2413 -2.9812 -2.9836 0.9703
-5.9511 -3.5248 -2.9836 0.9703
-5.6139 -4.0406 -2.9836 0.9703
-5.2323 -4.5245 -2.9838 0.9703
-4.8093 -4.9728 -2.9841 0.9703
-4.3482 -5.3819 -2.9845 0.9703
-3.3264 -6.0699 -2.9857 0.9703
-2.1987 -6.5671 -2.9873 0.9703
-0.3860 -6.9217 -2.9904 0.9703
0.2298 -6.8746 -2.9671 0.9705
2.6077 -6.3455 -2.9593 0.9706
4.2018 -5.4444 -2.9666 0.9705
5.1095 -4.6213 -2.9718 0.9704
5.5055 -4.1519 -2.9744 0.9704
6.1653 -3.1155 -2.9797 0.9704
6.6314 -1.9764 -2.9849 0.9703
6.7866 -1.3794 -2.9873 0.9703
6.8610 1.0789 -2.9959 0.9702
6.3439 2.8583 -3.0015 0.9701
5.7607 3.9545 -3.0141 0.9700
5.3855 4.4513 -3.0139 0.9700
4.5100 5.3344 -3.0132 0.9700
4.0166 5.7137 -3.0127 0.9700
2.3626 6.5671 -3.0105 0.9701
1.1601 6.8775 -3.0086 0.9701
-0.0752 6.7456 -2.9100 0.9710
-0.6642 6.6025 -2.8624 0.9715
-3.0672 6.2415 -2.9998 0.9702
-3.6088 5.9410 -2.9985 0.9702
-4.1215 5.5937 -2.9971 0.9702
-5.8044 3.7971 -2.9919 0.9702
-6.3808 2.7057 -2.9896 0.9703
-6.5940 2.1263 -2.9886 0.9703
-6.9154 0.3084 -2.9860 0.9703
-6.9138 -0.3083 -2.9853 0.9703
-6.8576 -0.9223 -2.9847 0.9703
-4.5833 -5.1824 -2.9843 0.9703
-3.0531 -6.2128 -2.9861 0.9703
-0.6938 -6.8963 -2.9898 0.9703
1.1391 -6.7528 -2.9540 0.9706
1.7367 -6.6291 -2.9560 0.9706
2.8889 -6.2254 -2.9604 0.9705
3.4343 -5.9484 -2.9628 0.9705
4.8964 -4.8422 -2.9705 0.9704
6.0178 -3.3855 -2.9784 0.9704
6.3007 -2.8390 -2.9810 0.9703
6.5341 -2.2689 -2.9836 0.9703
6.7157 -1.6797 -2.9861 0.9703
6.9180 -0.4631 -2.9908 0.9702
6.9368 0.1546 -2.9930 0.9702
6.8082 1.3838 -2.9968 0.9702
6.4618 2.5718 -3.0000 0.9702
5.5787 4.2071 -3.0140 0.9700
5.1817 4.6866 -3.0138 0.9700
3.7577 5.8864 -3.0124 0.9700
3.2182 6.1961 -3.0117 0.9700
2.0674 6.6648 -3.0101 0.9701
1.4656 6.8202 -3.0091 0.9701
0.8524 6.9211 -3.0080 0.9701
0.2291 6.8520 -2.9573 0.9706
-2.7867 6.3734 -3.0005 0.9702
-4.3656 5.4033 -2.9964 0.9702
-4.8271 4.9911 -2.9951 0.9702
-5.2498 4.5397 -2.9938 0.9702
-5.6307 4.0528 -2.9925 0.9702
-5.9666 3.5341 -2.9913 0.9702
-6.4938 2.4183 -2.9891 0.9703
-6.8153 1.2279 -2.9872 0.9703
-6.8957 0.6162 -2.9863 0.9703
-6.6181 0.0000 -2.9862 0.9714
-6.3798 -1.7476 -2.9847 0.9714
-5.9680 -2.8506 -2.9843 0.9714
-5.0031 -4.3263 -2.9845 0.9714
-4.1577 -5.1461 -2.9852 0.9714
-3.1806 -5.8039 -2.9863 0.9714
-1.5355 -6.4432 -2.9887 0.9714
-0.9562 -6.5564 -2.9897 0.9713
-0.3690 -6.6179 -2.9907 0.9713
1.3763 -6.4046 -2.9558 0.9717
2.4935 -6.0675 -2.9599 0.9716
3.5352 -5.5378 -2.9645 0.9716
4.0173 -5.2054 -2.9669 0.9716
4.8848 -4.4180 -2.9719 0.9715
5.2631 -3.9691 -2.9744 0.9715
6.1403 -2.4438 -2.9820 0.9714
6.3386 -1.8891 -2.9844 0.9714
6.4866 -1.3185 -2.9867 0.9714
6.5570 1.0311 -2.9950 0.9713
6.2770 2.1796 -2.9982 0.9713
6.0721 2.7360 -3.0051 0.9712
5.8205 3.2746 -3.0134 0.9711
5.5059 3.7796 -3.0134 0.9711
5.1474 4.2545 -3.0132 0.9711
3.8390 5.4611 -3.0121 0.9711
3.3371 5.7800 -3.0115 0.9711
2.2583 6.2770 -3.0100 0.9712
1.6901 6.4512 -3.0091 0.9712
1.1089 6.5738 -3.0081 0.9712
0.5192 6.6442 -3.0071 0.9712
-0.6616 6.5760 -2.9822 0.9714
-1.2465 6.5031 -2.9877 0.9714
-1.8293 6.3975 -3.0024 0.9712
-2.3904 6.2067 -3.0011 0.9712
-3.4501 5.6796 -2.9985 0.9713
-4.8218 4.5605 -2.9946 0.9713
-5.2065 4.1115 -2.9934 0.9713
-6.3047 2.0330 -2.9890 0.9713
-6.4587 1.4633 -2.9881 0.9714
-6.6123 0.2949 -2.9865 0.9714
-6.6108 -0.2947 -2.9859 0.9714
-6.2953 -2.0299 -2.9846 0.9714
-6.0892 -2.5820 -2.9843 0.9714
-5.8350 -3.1136 -2.9842 0.9714
-4.8056 -4.5451 -2.9846 0.9714
-4.3825 -4.9554 -2.9849 0.9714
-3.9247 -5.3266 -2.9854 0.9714
-2.9193 -5.9405 -2.9866 0.9714
-1.2472 -6.5062 -2.9892 0.9713
-0.0739 -6.6289 -2.9913 0.9713
1.0899 -6.4613 -2.9567 0.9717
1.6607 -6.3390 -2.9568 0.9717
2.2199 -6.1703 -2.9589 0.9716
2.7623 -5.9526 -2.9610 0.9716
3.7799 -5.3770 -2.9657 0.9716
4.6811 -4.6293 -2.9706 0.9715
5.4370 -3.7323 -2.9757 0.9715
6.4190 -1.6055 -2.9856 0.9714
6.5414 -1.0286 -2.9879 0.9714
6.6296 0.1478 -2.9921 0.9713
6.5944 0.7377 -2.9941 0.9713
6.5064 1.3225 -2.9958 0.9713
6.1750 2.4576 -2.9989 0.9713
5.9606 3.0120 -3.0134 0.9711
5.6689 3.5306 -3.0134 0.9711
5.3319 4.0210 -3.0133 0.9711
4.5337 4.9018 -3.0128 0.9711
3.5916 5.6262 -3.0118 0.9711
2.5360 6.1710 -3.0104 0.9711
1.4008 6.5190 -3.0086 0.9712
-0.3702 6.6387 -3.0002 0.9712
-1.5428 6.4740 -3.0030 0.9712
-3.6988 5.5191 -2.9978 0.9713
-4.1736 5.1657 -2.9965 0.9713
-5.0192 4.3402 -2.9940 0.9713
-5.7046 3.3789 -2.9917 0.9713
-5.9805 2.8567 -2.9906 0.9713
-6.5165 1.1740 -2.9877 0.9714
-6.5934 0.5892 -2.9869 0.9714
-6.3362 0.0000 -2.9867 0.9724
-6.1081 -1.6732 -2.9853 0.9724
-5.7139 -2.7293 -2.9849 0.9724
-5.1395 -3.6992 -2.9849 0.9724
-2.5391 -5.8070 -2.9875 0.9724
-1.4701 -6.1685 -2.9891 0.9723
-0.9155 -6.2768 -2.9901 0.9723
-0.3533 -6.3355 -2.9911 0.9723
0.7684 -6.2392 -2.9632 0.9726
1.3181 -6.1341 -2.9575 0.9726
1.8595 -5.9945 -2.9585 0.9726
2.3873 -5.8092 -2.9605 0.9726
2.8970 -5.5777 -2.9627 0.9726
3.3845 -5.3017 -2.9649 0.9726
5.8770 -2.3390 -2.9816 0.9724
6.3003 -0.7048 -2.9883 0.9724
6.3424 -0.1413 -2.9904 0.9723
5.8271 2.6256 -3.0127 0.9721
5.2693 3.6172 -3.0128 0.9721
4.9262 4.0716 -3.0126 0.9721
4.5439 4.4936 -3.0123 0.9721
3.6741 5.2266 -3.0115 0.9721
1.6176 6.1743 -3.0087 0.9722
-1.7510 6.1236 -3.0022 0.9722
-2.2881 5.9410 -3.0010 0.9722
-2.8067 5.7114 -2.9997 0.9723
-4.6159 4.3657 -2.9948 0.9723
-4.9842 3.9360 -2.9936 0.9723
-5.3127 3.4754 -2.9925 0.9723
-5.5989 2.9877 -2.9914 0.9723
-5.8406 2.4766 -2.9904 0.9723
-6.0359 1.9464 -2.9894 0.9723
-6.2818 0.8448 -2.9878 0.9724
-6.3293 -0.2822 -2.9864 0.9724
-5.5866 -2.9811 -2.9848 0.9724
-4.6010 -4.3516 -2.9852 0.9724
-2.7949 -5.6874 -2.9872 0.9724
-2.2782 -5.9150 -2.9879 0.9724
0.4918 -6.2942 -2.9760 0.9725
1.0447 -6.1935 -2.9607 0.9726
1.5901 -6.0694 -2.9576 0.9726
3.1437 -5.4451 -2.9638 0.9726
4.8618 -4.0183 -2.9732 0.9725
5.2044 -3.5726 -2.9756 0.9725
5.9777 -2.0757 -2.9828 0.9724
6.2604 -0.9844 -2.9873 0.9724
6.3444 0.1414 -2.9914 0.9723
5.9150 2.3542 -3.0009 0.9722
5.7045 2.8826 -3.0128 0.9721
5.4253 3.3789 -3.0128 0.9721
5.1028 3.8483 -3.0127 0.9721
4.3390 4.6912 -3.0122 0.9721
3.9036 5.0581 -3.0118 0.9721
3.4374 5.3845 -3.0112 0.9721
1.8913 6.0970 -3.0091 0.9722
0.2131 6.3740 -3.0062 0.9722
-0.9197 6.3061 -3.0040 0.9722
-3.9952 4.9450 -2.9966 0.9723
-4.4177 4.5679 -2.9954 0.9723
-4.8048 4.1549 -2.9942 0.9723
-5.9442 2.2137 -2.9899 0.9723
-6.1157 1.6753 -2.9890 0.9723
-6.3125 0.5641 -2.9874 0.9724
-6.0734 0.0000 -2.9872 0.9733
-6.0482 -0.5404 -2.9867 0.9733
-5.9752 -1.0765 -2.9862 0.9733
-5.6885 -2.1184 -2.9856 0.9733
-5.4771 -2.6162 -2.9855 0.9733
-4.9265 -3.5458 -2.9855 0.9733
-4.5916 -3.9704 -2.9856 0.9733
-4.2203 -4.3638 -2.9859 0.9733
-2.4337 -5.5661 -2.9880 0.9733
-1.9291 -5.7620 -2.9887 0.9733
0.2033 -6.0805 -2.9924 0.9732
1.2650 -5.8869 -2.9616 0.9735
1.7825 -5.7462 -2.9592 0.9735
2.2884 -5.5684 -2.9611 0.9735
4.8283 -3.6412 -2.9744 0.9734
5.1372 -3.1995 -2.9767 0.9734
5.4058 -2.7317 -2.9790 0.9734
5.6317 -2.2414 -2.9813 0.9733
5.9486 -1.2091 -2.9857 0.9733
6.0117 0.9453 -2.9932 0.9732
5.9068 1.4774 -2.9948 0.9732
5.3375 3.0028 -3.0122 0.9731
4.7202 3.9014 -3.0120 0.9731
3.9529 4.6755 -3.0114 0.9731
3.5205 5.0081 -3.0110 0.9731
3.0603 5.3006 -3.0104 0.9731
2.0710 5.7566 -3.0091 0.9731
1.5500 5.9165 -3.0082 0.9731
1.0170 6.0292 -3.0074 0.9731
-0.0681 6.1100 -3.0054 0.9731
-1.1495 5.9967 -3.0032 0.9731
-1.6780 5.8684 -3.0021 0.9732
-4.4239 4.1842 -2.9950 0.9732
-4.7770 3.7724 -2.9939 0.9732
-5.0919 3.3310 -2.9928 0.9732
-5.3663 2.8636 -2.9917 0.9733
-5.7854 1.8656 -2.9898 0.9733
-5.9268 1.3428 -2.9890 0.9733
-6.0212 0.8098 -2.9882 0.9733
-5.7774 -1.8629 -2.9857 0.9733
-5.5883 -2.3696 -2.9855 0.9733
-5.3550 -2.8575 -2.9854 0.9733
-4.4103 -4.1712 -2.9858 0.9733
-3.6017 -4.8883 -2.9865 0.9733
-2.1836 -5.6697 -2.9883 0.9733
-1.1444 -5.9703 -2.9900 0.9733
-0.6087 -6.0503 -2.9909 0.9733
-0.0678 -6.0825 -2.9919 0.9732
0.4732 -6.0560 -2.9878 0.9733
1.0023 -5.9422 -2.9640 0.9735
1.5244 -5.8185 -2.9584 0.9735
2.0373 -5.6629 -2.9601 0.9735
2.5350 -5.4628 -2.9621 0.9735
3.4684 -4.9339 -2.9664 0.9735
4.2948 -4.2472 -2.9709 0.9734
4.9876 -3.4238 -2.9756 0.9734
5.2767 -2.9686 -2.9779 0.9734
6.0629 -0.4058 -2.9887 0.9733
6.0788 0.1355 -2.9906 0.9733
5.8365 1.7395 -2.9955 0.9732
5.4659 2.7621 -3.0122 0.9731
4.8895 3.6873 -3.0121 0.9731
4.5416 4.1076 -3.0119 0.9731
4.1575 4.4951 -3.0116 0.9731
3.7404 4.8467 -3.0112 0.9731
3.2937 5.1595 -3.0107 0.9731
2.8208 5.4311 -3.0101 0.9731
0.7473 6.0675 -3.0069 0.9731
0.2042 6.1080 -3.0059 0.9731
-0.3401 6.0998 -3.0049 0.9731
-0.8814 6.0431 -3.0038 0.9731
-1.4152 5.9384 -3.0026 0.9732
-1.9374 5.7867 -3.0015 0.9732
-2.4438 5.5891 -3.0003 0.9732
-3.3933 5.0632 -2.9979 0.9732
-4.9394 3.5552 -2.9933 0.9732
-5.2344 3.1003 -2.9922 0.9732
-5.4877 2.6212 -2.9912 0.9733
-6.0506 0.5407 -2.9879 0.9733
-5.8277 0.0000 -2.9877 0.9741
-5.8036 -0.5186 -2.9872 0.9741
-5.6182 -1.5390 -2.9864 0.9742
-5.2556 -2.5104 -2.9860 0.9742
-5.0113 -2.9682 -2.9860 0.9742
-4.7273 -3.4025 -2.9860 0.9742
-4.0497 -4.1873 -2.9864 0.9742
-3.6613 -4.5317 -2.9868 0.9742
-2.8008 -5.1107 -2.9878 0.9741
-2.3353 -5.3409 -2.9884 0.9741
-1.3520 -5.6731 -2.9899 0.9741
0.1950 -5.8341 -2.9927 0.9741
1.2150 -5.6540 -2.9648 0.9743
2.6645 -5.1300 -2.9636 0.9744
3.1126 -4.8759 -2.9657 0.9743
3.5368 -4.5828 -2.9678 0.9743
5.1859 -2.6206 -2.9788 0.9742
5.4026 -2.1501 -2.9810 0.9742
5.7062 -1.1598 -2.9852 0.9742
5.8290 -0.1299 -2.9891 0.9741
5.7662 0.9067 -2.9925 0.9741
5.6654 1.4170 -2.9939 0.9741
5.1198 2.8804 -3.0117 0.9739
4.8431 3.3246 -3.0116 0.9739
4.5277 3.7423 -3.0115 0.9739
4.1764 4.1301 -3.0112 0.9739
3.7918 4.4850 -3.0109 0.9739
3.3771 4.8039 -3.0105 0.9739
2.4708 5.3246 -3.0093 0.9740
1.9867 5.5221 -3.0086 0.9740
1.4869 5.6755 -3.0079 0.9740
0.9756 5.7837 -3.0070 0.9740
0.4568 5.8458 -3.0061 0.9740
-0.0653 5.8614 -3.0051 0.9740
-0.5865 5.8303 -3.0041 0.9740
-1.1027 5.7529 -3.0030 0.9740
-3.8718 4.3779 -2.9962 0.9741
-4.5833 3.6194 -2.9941 0.9741
-4.8856 3.1960 -2.9930 0.9741
-5.1490 2.7476 -2.9920 0.9741
-5.6869 1.2885 -2.9894 0.9741
-5.8225 0.2596 -2.9880 0.9741
-5.6815 -1.2872 -2.9865 0.9742
-5.5438 -1.7876 -2.9862 0.9742
-5.3623 -2.2738 -2.9861 0.9742
-4.8741 -3.1885 -2.9860 0.9742
-4.5711 -3.6097 -2.9861 0.9742
-4.2320 -4.0026 -2.9863 0.9742
-3.4561 -4.6906 -2.9870 0.9742
-2.5706 -5.2310 -2.9881 0.9741
-2.0953 -5.4402 -2.9888 0.9741
-1.6031 -5.6065 -2.9895 0.9741
-1.0981 -5.7285 -2.9903 0.9741
-0.5840 -5.8053 -2.9912 0.9741
-0.0650 -5.8361 -2.9922 0.9741
1.4645 -5.5901 -2.9626 0.9744
1.9550 -5.4341 -2.9607 0.9744
2.4325 -5.2419 -2.9626 0.9744
4.1206 -4.0750 -2.9711 0.9743
5.0622 -2.8479 -2.9777 0.9742
5.2995 -2.3878 -2.9799 0.9742
5.8307 0.1300 -2.9900 0.9741
5.2430 2.6494 -3.0116 0.9739
4.9864 3.1056 -3.0117 0.9739
4.6901 3.5370 -3.0116 0.9739
4.3564 3.9401 -3.0114 0.9739
1.7385 5.6044 -3.0083 0.9740
1.2324 5.7353 -3.0074 0.9740
-0.3263 5.8516 -3.0046 0.9740
-1.8587 5.5515 -3.0014 0.9740
-2.8114 5.1301 -2.9991 0.9740
-4.4183 3.8207 -2.9946 0.9741
-4.7392 3.4111 -2.9935 0.9741
-5.0223 2.9747 -2.9925 0.9741
-5.2654 2.5151 -2.9915 0.9741
-5.4667 2.0358 -2.9906 0.9741
-5.6246 1.5408 -2.9898 0.9741
-5.7379 1.0337 -2.9890 0.9741
-5.5974 0.0000 -2.9881 0.9749
-5.2429 -1.9525 -2.9866 0.9750
-5.0480 -2.4112 -2.9865 0.9750
-4.8133 -2.8509 -2.9865 0.9750
-4.5406 -3.2681 -2.9865 0.9750
-4.2319 -3.6594 -2.9867 0.9750
-3.8897 -4.0219 -2.9869 0.9749
-2.6901 -4.9087 -2.9882 0.9749
-1.7779 -5.3102 -2.9895 0.9749
-0.3120 -5.5959 -2.9920 0.9749
0.1873 -5.6032 -2.9929 0.9749
2.1091 -5.1322 -2.9621 0.9752
2.9895 -4.6830 -2.9660 0.9751
3.7777 -4.0844 -2.9701 0.9751
4.7328 -2.9476 -2.9765 0.9750
5.3546 -1.5958 -2.9828 0.9750
5.4791 -1.1137 -2.9848 0.9750
5.5600 -0.6220 -2.9867 0.9750
5.5967 -0.1247 -2.9885 0.9749
5.5887 0.3742 -2.9902 0.9749
5.5361 0.8705 -2.9917 0.9749
5.1424 2.3171 -3.0111 0.9747
4.6502 3.1922 -3.0111 0.9747
4.0100 3.9657 -3.0107 0.9748
3.6408 4.3064 -3.0104 0.9748
3.2426 4.6127 -3.0100 0.9748
2.8187 4.8822 -3.0095 0.9748
0.9368 5.5537 -3.0067 0.9748
-0.0627 5.6284 -3.0049 0.9748
-1.0590 5.5244 -3.0029 0.9748
-1.5459 5.4063 -3.0018 0.9748
-3.3306 4.5203 -2.9974 0.9749
-4.0764 3.8554 -2.9953 0.9749
-4.4018 3.4761 -2.9942 0.9749
-4.6922 3.0695 -2.9932 0.9749
-5.3316 1.7192 -2.9905 0.9749
-5.4620 1.2375 -2.9898 0.9749
-5.5461 -0.7459 -2.9874 0.9749
-5.3248 -1.7170 -2.9867 0.9750
-5.1505 -2.1840 -2.9866 0.9750
-4.6816 -3.0626 -2.9865 0.9750
-4.3906 -3.4672 -2.9866 0.9750
-3.7069 -4.1914 -2.9871 0.9749
-3.3195 -4.5053 -2.9875 0.9749
-2.9058 -4.7836 -2.9879 0.9749
-2.0124 -5.2251 -2.9891 0.9749
-1.5398 -5.3848 -2.9899 0.9749
0.9291 -5.5082 -2.9821 0.9750
1.8778 -5.2194 -2.9612 0.9752
3.1963 -4.5467 -2.9670 0.9751
3.5908 -4.2472 -2.9691 0.9751
4.5951 -3.1544 -2.9755 0.9750
4.8611 -2.7348 -2.9776 0.9750
5.5250 -0.8688 -2.9857 0.9750
5.5982 0.1248 -2.9893 0.9749
5.3865 1.6054 -3.0005 0.9748
5.2404 2.0857 -3.0110 0.9747
5.0342 2.5439 -3.0111 0.9747
4.7878 2.9819 -3.0111 0.9747
3.0337 4.7522 -3.0098 0.9748
2.5982 5.0024 -3.0092 0.9748
0.6883 5.5891 -3.0062 0.9748
0.1881 5.6265 -3.0053 0.9748
-0.8119 5.5671 -3.0034 0.9748
-2.2515 5.1493 -3.0002 0.9748
-2.6999 4.9266 -2.9991 0.9748
-4.2433 3.6694 -2.9948 0.9749
-4.8235 2.8569 -2.9928 0.9749
-5.5110 0.9929 -2.9894 0.9749
-5.5763 0.4983 -2.9887 0.9749
-5.3809 0.0000 -2.9885 0.9757
-4.8529 -2.3180 -2.9870 0.9757
-4.0683 -3.5180 -2.9871 0.9757
-3.3807 -4.1843 -2.9877 0.9757
-2.1562 -4.9313 -2.9892 0.9757
-1.2483 -5.2379 -2.9906 0.9757
-0.7773 -5.3296 -2.9914 0.9757
0.1801 -5.3862 -2.9931 0.9756
2.0276 -4.9338 -2.9626 0.9759
2.4602 -4.7367 -2.9644 0.9759
2.8738 -4.5018 -2.9663 0.9759
3.6313 -3.9262 -2.9703 0.9758
3.9691 -3.5898 -2.9723 0.9758
4.7864 -2.4187 -2.9785 0.9758
5.1463 -1.5337 -2.9825 0.9757
5.3785 -0.1198 -2.9879 0.9757
5.3201 0.8366 -2.9910 0.9757
4.7244 2.6579 -3.0107 0.9755
4.1781 3.4533 -3.0105 0.9755
3.1163 4.4330 -3.0096 0.9755
2.7090 4.6921 -3.0091 0.9755
1.3722 5.2377 -3.0072 0.9755
-1.0178 5.3098 -3.0027 0.9756
-1.4858 5.1963 -3.0017 0.9756
-4.2312 3.3414 -2.9944 0.9756
-4.5104 2.9506 -2.9935 0.9756
-5.1252 1.6527 -2.9909 0.9757
-5.2507 1.1897 -2.9901 0.9757
-5.3345 0.7174 -2.9894 0.9757
-5.3751 -0.2397 -2.9883 0.9757
-5.3317 -0.7170 -2.9878 0.9757
-5.2461 -1.1886 -2.9875 0.9757
-5.1190 -1.6506 -2.9872 0.9757
-4.9514 -2.0996 -2.9870 0.9757
-3.9077 -3.6958 -2.9872 0.9757
-3.5635 -4.0293 -2.9875 0.9757
-3.1912 -4.3311 -2.9879 0.9757
-2.7935 -4.5986 -2.9884 0.9757
-2.3735 -4.8299 -2.9889 0.9757
-1.9346 -5.0230 -2.9895 0.9757
-1.4802 -5.1764 -2.9902 0.9757
-1.0138 -5.2890 -2.9910 0.9757
0.4199 -5.3736 -2.9936 0.9756
1.3552 -5.1726 -2.9698 0.9758
2.2460 -4.8400 -2.9635 0.9759
2.6696 -4.6238 -2.9654 0.9759
3.8039 -3.7618 -2.9713 0.9758
4.1265 -3.4106 -2.9733 0.9758
4.4167 -3.0319 -2.9754 0.9758
4.8911 -2.2038 -2.9795 0.9758
5.0712 -1.7609 -2.9815 0.9757
5.2112 -1.3034 -2.9834 0.9757
5.3098 -0.8349 -2.9853 0.9757
5.3799 0.1199 -2.9887 0.9757
5.3507 0.5986 -2.9903 0.9757
5.2823 1.0737 -2.9937 0.9756
5.1930 1.5477 -3.0096 0.9755
5.0363 2.0044 -3.0105 0.9755
4.6013 2.8657 -3.0107 0.9755
4.0200 3.6358 -3.0104 0.9755
3.3109 4.2901 -3.0098 0.9755
2.9155 4.5671 -3.0093 0.9755
2.4970 4.8076 -3.0088 0.9755
2.0588 5.0098 -3.0082 0.9755
1.6044 5.1720 -3.0075 0.9755
1.1374 5.2929 -3.0068 0.9755
0.6616 5.3717 -3.0060 0.9755
-0.3011 5.4007 -3.0042 0.9756
-0.7804 5.3507 -3.0032 0.9756
-2.1641 4.9494 -3.0001 0.9756
-2.5951 4.7354 -2.9991 0.9756
-3.0052 4.4841 -2.9980 0.9756
-4.0789 3.5271 -2.9949 0.9756
-4.6366 2.7463 -2.9930 0.9756
-4.8612 2.3220 -2.9921 0.9757
-5.1556 -0.4607 -2.9885 0.9764
-5.0935 -0.9176 -2.9881 0.9764
-4.9911 -1.3672 -2.9878 0.9764
-4.8492 -1.8059 -2.9875 0.9764
-4.6691 -2.2302 -2.9874 0.9764
-4.4520 -2.6369 -2.9874 0.9764
-2.8818 -4.2999 -2.9885 0.9764
-2.4880 -4.5400 -2.9890 0.9764
-0.2886 -5.1751 -2.9925 0.9763
0.1732 -5.1817 -2.9933 0.9763
1.0883 -5.0643 -2.9906 0.9764
1.5242 -4.9137 -2.9703 0.9765
2.3669 -4.5571 -2.9648 0.9766
3.4934 -3.7770 -2.9704 0.9765
3.8183 -3.4534 -2.9724 0.9765
4.6041 -2.3266 -2.9783 0.9765
4.7961 -1.9088 -2.9803 0.9764
5.1394 -0.5749 -2.9857 0.9764
5.1655 0.3458 -2.9890 0.9764
5.0535 1.2640 -3.0075 0.9762
4.7535 2.1418 -3.0101 0.9762
4.0186 3.3215 -3.0101 0.9762
3.7068 3.6657 -3.0098 0.9762
3.3654 3.9807 -3.0095 0.9762
2.6056 4.5130 -3.0087 0.9762
2.1932 4.7262 -3.0081 0.9762
1.7634 4.9016 -3.0075 0.9762
0.8660 5.1342 -3.0061 0.9762
0.4055 5.1895 -3.0053 0.9762
-0.0580 5.2035 -3.0044 0.9763
-0.5207 5.1761 -3.0035 0.9763
-0.9791 5.1076 -3.0025 0.9763
-1.4293 4.9986 -3.0016 0.9763
-1.8679 4.8499 -3.0006 0.9763
-3.0797 4.1798 -2.9975 0.9763
-3.4384 3.8878 -2.9965 0.9763
-3.7695 3.5652 -2.9955 0.9763
-4.0706 3.2145 -2.9946 0.9763
-4.5733 2.4404 -2.9928 0.9763
-5.0516 1.1445 -2.9904 0.9764
-5.1323 0.6902 -2.9898 0.9764
-5.1723 0.2307 -2.9892 0.9764
-5.1714 -0.2306 -2.9887 0.9764
-4.9250 -1.5881 -2.9876 0.9764
-4.7639 -2.0200 -2.9875 0.9764
-4.5650 -2.4360 -2.9874 0.9764
-4.0609 -3.2069 -2.9875 0.9764
-3.4285 -3.8767 -2.9880 0.9764
-2.6876 -4.4243 -2.9888 0.9764
-1.8612 -4.8326 -2.9899 0.9764
-1.4240 -4.9801 -2.9905 0.9764
-0.9754 -5.0884 -2.9913 0.9764
-0.0578 -5.1835 -2.9929 0.9763
0.4040 -5.1696 -2.9938 0.9763
1.3078 -4.9919 -2.9794 0.9764
