ply
format ascii 1.0
element vertex 1588
property float32 x
property float32 y
property float32 z
property float32 I
end_header
2.1165 -1.9143 0.1662 0.9886
2.2973 -1.7325 0.1676 0.9885
2.5299 -1.5757 0.1736 0.9881
1.8929 -2.2389 0.1708 0.9883
2.0369 -2.0143 0.1668 0.9886
2.2065 -1.8237 0.1667 0.9886
2.4108 -1.6549 0.1703 0.9884
2.6758 -1.5054 0.1788 0.9878
1.7287 -2.7080 0.1336 0.9872
1.8258 -2.3658 0.1243 0.9881
1.9545 -2.1132 0.1197 0.9885
2.2856 -1.7236 0.1190 0.9886
3.3920 -1.3500 0.1518 0.9855
1.7057 -2.9543 0.1418 0.9864
1.8821 -2.2261 0.1212 0.9884
2.0264 -2.0039 0.1185 0.9887
2.1953 -1.8145 0.1184 0.9887
2.3976 -1.6459 0.1209 0.9884
2.6585 -1.4956 0.1268 0.9879
3.0509 -1.3747 0.1391 0.9867
1.8152 -2.3521 0.0741 0.9882
1.9444 -2.1022 0.0714 0.9886
2.0952 -1.8950 0.0705 0.9888
3.3456 -1.3315 0.0898 0.9857
2.3917 6.6479 0.1762 0.9721
1.6883 -2.9242 0.0842 0.9866
1.7561 -2.4981 0.0762 0.9879
1.8714 -2.2135 0.0723 0.9885
2.3846 -1.6370 0.0721 0.9885
1.8047 -2.3385 0.0246 0.9883
2.0847 -1.8855 0.0234 0.9888
2.3918 6.6481 0.0587 0.9721
1.7457 -2.4833 0.0252 0.9879
1.8615 -2.2017 0.0240 0.9885
2.0057 -1.9835 0.0234 0.9888
2.1732 -1.7962 0.0234 0.9888
1.6599 -3.1959 -0.0299 0.9857
1.6914 -2.6495 -0.0261 0.9875
1.7944 -2.3251 -0.0244 0.9883
2.2511 -1.6977 -0.0234 0.9888
2.4747 -1.5413 -0.0242 0.9884
2.7693 -1.3994 -0.0258 0.9877
2.3918 6.6481 -0.0587 0.9721
2.1624 -1.7872 -0.0233 0.9888
1.6447 -3.1667 -0.0890 0.9858
1.6832 -2.6367 -0.0780 0.9876
1.9172 -2.0729 -0.0704 0.9888
2.0666 -1.8692 -0.0695 0.9889
2.2428 -1.6914 -0.0701 0.9888
2.4652 -1.5354 -0.0724 0.9884
2.7575 -1.3934 -0.0770 0.9877
3.2319 -1.2863 -0.0867 0.9862
1.6441 -2.8477 -0.0820 0.9869
1.8448 -2.1821 -0.0713 0.9886
2.1544 -1.7807 -0.0697 0.9889
1.6390 -3.1557 -0.1479 0.9859
1.6794 -2.6307 -0.1298 0.9876
1.7838 -2.3113 -0.1214 0.9884
1.9141 -2.0695 -0.1172 0.9888
2.2392 -1.6887 -0.1166 0.9888
2.4609 -1.5327 -0.1205 0.9885
2.3919 6.6484 -0.2938 0.9721
1.8417 -2.1784 -0.1186 0.9886
2.1509 -1.7778 -0.1160 0.9889
1.9109 -2.0661 -0.1639 0.9888
2.0600 -1.8632 -0.1618 0.9889
2.4566 -1.5300 -0.1686 0.9885
2.7459 -1.3876 -0.1792 0.9877
3.2042 -1.2753 -0.2009 0.9863
2.3919 6.6485 -0.4115 0.9721
1.6345 -2.8309 -0.1904 0.9870
1.8387 -2.1748 -0.1659 0.9887
2.1475 -1.7750 -0.1623 0.9889
2.3419 -1.6076 -0.1654 0.9887
2.5864 -1.4551 -0.1728 0.9882
3.8365 -1.3322 -0.2365 0.9839
1.6717 -2.6186 -0.2328 0.9876
1.7772 -2.3028 -0.2180 0.9884
2.2320 -1.6832 -0.2095 0.9888
2.4523 -1.5273 -0.2165 0.9885
2.7401 -1.3846 -0.2301 0.9878
3.1905 -1.2698 -0.2573 0.9863
1.6305 -2.8241 -0.2444 0.9870
1.7185 -2.4446 -0.2239 0.9881
2.1440 -1.7721 -0.2085 0.9889
2.5811 -1.4521 -0.2219 0.9882
3.7943 -1.3175 -0.3010 0.9840
1.6221 -3.1232 -0.3226 0.9860
1.9047 -2.0593 -0.2572 0.9888
2.4480 -1.5246 -0.2644 0.9885
2.7343 -1.3817 -0.2809 0.9878
2.3920 6.6487 -0.6478 0.9720
1.7153 -2.4400 -0.2734 0.9881
1.8326 -2.1676 -0.2602 0.9887
1.9752 -1.9533 -0.2547 0.9889
2.1406 -1.7693 -0.2546 0.9889
1.6165 -3.1124 -0.3804 0.9860
1.6640 -2.6066 -0.3354 0.9876
1.9015 -2.0559 -0.3038 0.9888
3.1681 -1.2609 -0.3698 0.9864
2.3920 6.6488 -0.7664 0.9720
1.7120 -2.4354 -0.3229 0.9881
2.1372 -1.7664 -0.3007 0.9889
2.5706 -1.4462 -0.3199 0.9882
2.9168 -1.3142 -0.3470 0.9872
2.0469 -1.8513 -0.3459 0.9889
2.4394 -1.5193 -0.3601 0.9885
2.3921 6.6489 -0.8855 0.9719
1.6205 -2.8067 -0.4061 0.9870
1.7088 -2.4308 -0.3724 0.9881
2.3258 -1.5966 -0.3535 0.9887
1.6261 -3.1308 -0.5018 0.9858
1.6631 -2.6052 -0.4396 0.9876
1.7665 -2.2889 -0.4112 0.9884
1.8957 -2.0496 -0.3971 0.9888
2.7265 -1.3778 -0.4345 0.9877
2.3921 6.6490 -1.0051 0.9719
1.6247 -2.8141 -0.4622 0.9870
1.9655 -1.9437 -0.3932 0.9889
2.1303 -1.7607 -0.3931 0.9889
2.3231 -1.5947 -0.4008 0.9887
1.6323 -3.1428 -0.5639 0.9858
1.7700 -2.2935 -0.4613 0.9883
1.8991 -2.0532 -0.4454 0.9887
2.2217 -1.6755 -0.4431 0.9888
2.4425 -1.5212 -0.4582 0.9884
3.1961 -1.2720 -0.5478 0.9862
1.6290 -2.8216 -0.5188 0.9869
1.7128 -2.4365 -0.4743 0.9880
2.3274 -1.5977 -0.4495 0.9886
2.5713 -1.4466 -0.4698 0.9881
2.9283 -1.3195 -0.5114 0.9871
1.6387 -3.1551 -0.6269 0.9857
1.6716 -2.6185 -0.5478 0.9875
1.7736 -2.2981 -0.5119 0.9883
2.2256 -1.6784 -0.4915 0.9887
2.4471 -1.5241 -0.5083 0.9884
2.3922 6.6492 -1.2460 0.9717
1.6334 -2.8292 -0.5760 0.9868
1.7164 -2.4416 -0.5262 0.9880
1.8311 -2.1658 -0.5001 0.9885
2.9371 -1.3234 -0.5680 0.9870
1.6759 -2.6252 -0.6027 0.9874
1.9059 -2.0606 -0.5432 0.9886
2.4518 -1.5270 -0.5590 0.9883
2.7452 -1.3872 -0.5952 0.9875
8.4179 11.9747 -2.8326 0.9421
7.3251 12.6874 -2.8351 0.9421
6.1778 13.3127 -2.8401 0.9420
2.3922 6.6493 -1.3675 0.9716
3.7270 14.2260 -2.8459 0.9418
2.4487 14.5165 -2.8489 0.9418
1.6381 -2.8373 -0.6340 0.9867
1.8344 -2.1697 -0.5498 0.9885
1.9759 -1.9540 -0.5378 0.9887
2.9459 -1.3274 -0.6253 0.9869
7.8796 12.3431 -2.8338 0.9421
6.7614 13.0181 -2.8388 0.9420
5.5813 13.5814 -2.8415 0.9419
-14.3030 -1.2781 -3.0274 0.9430
-14.1289 -2.5454 -3.0266 0.9430
-13.8418 -3.7917 -3.0256 0.9430
-12.9390 -6.1804 -3.0230 0.9431
-11.4238 -8.2223 -2.9673 0.9441
-8.8337 -10.9336 -2.9633 0.9442
-7.8223 -11.6717 -2.9621 0.9442
-5.6252 -12.8652 -2.9602 0.9442
-2.0253 -13.8868 -2.9586 0.9442
-0.7813 -14.0112 -2.9584 0.9442
0.4689 -14.0252 -2.9584 0.9442
1.7155 -13.9288 -2.9587 0.9442
2.9488 -13.7227 -2.9591 0.9442
4.1593 -13.4084 -2.9596 0.9442
5.3376 -12.9883 -2.9604 0.9442
1.6637 -3.2033 -0.7610 0.9854
1.6802 -2.6320 -0.6583 0.9873
1.7808 -2.3075 -0.6145 0.9882
2.7516 -1.3904 -0.6499 0.9875
3.2439 -1.2910 -0.7360 0.9858
13.4988 -4.0230 -2.9695 0.9440
14.0819 -0.3138 -2.9695 0.9440
14.0561 0.9410 -2.9699 0.9440
13.9198 2.1888 -2.9706 0.9440
11.6425 7.9921 -2.9771 0.9439
9.1358 10.8059 -2.9832 0.9438
6.7260 11.6499 -2.8360 0.9465
3.4219 13.0611 -2.8465 0.9463
-0.1509 13.5406 -2.8548 0.9461
-1.3567 13.4866 -2.8576 0.9461
-2.5542 13.3252 -2.8604 0.9460
-3.7336 13.0573 -2.8631 0.9460
-9.4942 10.7353 -3.0213 0.9431
-10.4176 9.8529 -3.0229 0.9431
-11.2585 8.8908 -3.0244 0.9430
-12.6657 6.7587 -3.0266 0.9430
-13.6693 4.4078 -3.0279 0.9430
-14.2360 1.9145 -3.0282 0.9430
-14.2302 -1.9138 -3.0270 0.9430
-13.9993 -3.1718 -3.0261 0.9430
-13.6565 -4.4037 -3.0251 0.9430
-12.6476 -6.7490 -3.0222 0.9431
-10.2160 -9.6623 -2.9645 0.9441
-9.3110 -10.5282 -2.9630 0.9442
-6.1936 -12.6036 -2.9606 0.9442
1.0933 -13.9908 -2.9585 0.9442
5.9118 -12.7396 -2.9608 0.9442
1.6441 -2.8476 -0.6932 0.9866
1.7236 -2.4519 -0.6318 0.9878
2.1452 -1.7730 -0.5867 0.9887
2.5884 -1.4562 -0.6261 0.9879
13.3070 -4.6207 -2.9697 0.9440
14.0829 0.3138 -2.9697 0.9440
14.0017 1.5663 -2.9702 0.9440
13.8104 2.8071 -2.9710 0.9440
13.5103 4.0265 -2.9720 0.9440
13.1036 5.2151 -2.9732 0.9440
12.5934 6.3637 -2.9747 0.9440
11.9835 7.4634 -2.9763 0.9439
11.2784 8.5054 -2.9780 0.9439
10.4834 9.4817 -2.9800 0.9439
8.2535 10.6943 -2.8479 0.9463
7.2354 11.3341 -2.8348 0.9465
5.1250 12.4709 -2.8425 0.9464
2.8380 13.2070 -2.8478 0.9463
0.4523 13.5273 -2.8534 0.9462
-3.1468 13.2045 -2.8617 0.9460
-5.4404 12.4426 -2.8629 0.9460
-6.8765 12.5479 -3.0165 0.9432
-7.9714 11.8941 -3.0186 0.9431
-9.0040 11.1444 -3.0205 0.9431
-10.8488 9.3813 -3.0237 0.9431
-11.6458 8.3821 -3.0250 0.9430
-12.3502 7.3150 -3.0261 0.9430
-13.8529 3.7947 -3.0281 0.9430
-14.1365 2.5468 -3.0282 0.9430
-13.2562 0.0000 -3.0256 0.9471
-13.2014 -1.1797 -3.0251 0.9471
-13.0410 -2.3494 -3.0244 0.9471
-12.7763 -3.4998 -3.0235 0.9471
-12.4095 -4.6213 -3.0224 0.9471
-11.9438 -5.7051 -3.0211 0.9471
-10.5643 -7.6037 -2.9709 0.9480
-9.0304 -9.3374 -2.9648 0.9481
-4.1189 -12.3026 -2.9612 0.9482
2.7253 -12.6826 -2.9608 0.9482
3.8440 -12.3920 -2.9613 0.9482
4.9324 -12.0025 -2.9618 0.9482
12.7580 -2.5932 -2.9715 0.9480
12.9382 -1.4474 -2.9715 0.9480
12.3114 4.2750 -2.9746 0.9479
11.8869 5.3560 -2.9758 0.9479
10.0653 8.3192 -2.9805 0.9478
9.2907 9.1878 -2.9823 0.9478
7.1423 10.1601 -2.8346 0.9503
6.2143 10.7635 -2.8367 0.9503
5.2416 11.2953 -2.8421 0.9502
3.1612 12.0662 -2.8470 0.9501
2.0766 12.3106 -2.8495 0.9501
0.9735 12.4578 -2.8521 0.9500
-0.1393 12.5064 -2.8547 0.9500
-1.2530 12.4556 -2.8572 0.9499
-2.3588 12.3056 -2.8598 0.9499
-5.5283 11.2497 -2.8610 0.9499
-6.8605 11.2940 -3.0161 0.9472
-7.8432 10.6449 -3.0179 0.9472
-9.6163 9.0951 -3.0211 0.9471
-10.3922 8.2067 -3.0224 0.9471
-12.6164 4.0682 -3.0256 0.9471
-13.1393 1.7671 -3.0260 0.9471
-13.2437 0.5905 -3.0258 0.9471
-13.1343 -1.7664 -3.0248 0.9471
-12.9216 -2.9277 -3.0240 0.9471
-12.1888 -5.1685 -3.0218 0.9471
-11.6751 -6.2300 -3.0204 0.9472
-10.9410 -7.1573 -2.9841 0.9478
-10.2033 -8.0575 -2.9674 0.9481
-6.7400 -11.0955 -2.9631 0.9481
-5.7240 -11.6480 -2.9622 0.9481
-3.5665 -12.4727 -2.9609 0.9482
-2.4418 -12.7389 -2.9605 0.9482
-1.2982 -12.9047 -2.9603 0.9482
-0.1445 -12.9688 -2.9602 0.9482
2.1575 -12.7906 -2.9606 0.9482
3.2879 -12.5497 -2.9611 0.9482
1.7273 -2.4571 -0.6855 0.9878
2.3450 -1.6098 -0.6492 0.9884
2.5942 -1.4595 -0.6794 0.9879
12.2953 -4.2694 -2.9707 0.9480
12.8607 -2.0223 -2.9714 0.9480
13.0173 0.2901 -2.9719 0.9480
12.4873 3.7216 -2.9740 0.9479
8.8751 9.5957 -2.9833 0.9478
5.7308 11.0338 -2.8378 0.9503
4.7352 11.5225 -2.8434 0.9502
3.6939 11.9082 -2.8457 0.9501
-0.6966 12.4934 -2.8560 0.9500
-2.9059 12.1936 -2.8611 0.9499
-5.0218 11.4853 -2.8611 0.9499
-7.3591 10.9805 -3.0170 0.9472
-10.0142 8.6596 -3.0217 0.9471
-10.7495 7.7371 -3.0230 0.9471
-11.3993 6.7519 -3.0240 0.9471
-12.4217 4.6259 -3.0254 0.9471
-12.7858 3.5024 -3.0258 0.9471
-12.2507 -1.0947 -3.0232 0.9506
-12.1020 -2.1803 -3.0226 0.9506
-11.8566 -3.2479 -3.0217 0.9506
-11.5166 -4.2888 -3.0207 0.9506
-11.0847 -5.2947 -3.0195 0.9507
-9.1322 -7.8969 -2.9675 0.9515
-3.8267 -11.4297 -2.9627 0.9516
-2.7938 -11.7231 -2.9622 0.9516
-1.7391 -11.9240 -2.9619 0.9516
-0.6708 -12.0309 -2.9618 0.9516
1.4730 -11.9600 -2.9620 0.9516
2.5318 -11.7818 -2.9621 0.9516
3.5700 -11.5083 -2.9617 0.9516
4.5792 -11.1426 -2.9611 0.9516
1.7521 -3.3735 -0.9344 0.9845
1.6955 -2.6559 -0.7745 0.9871
1.7883 -2.3171 -0.7194 0.9880
1.9164 -2.0720 -0.6937 0.9884
2.2416 -1.6905 -0.6901 0.9885
2.4661 -1.5359 -0.7141 0.9881
12.0218 -1.3448 -2.9734 0.9514
12.0946 -0.2695 -2.9736 0.9514
11.9546 1.8798 -2.9745 0.9514
11.4386 3.9719 -2.9763 0.9513
10.5617 5.9419 -2.9787 0.9513
9.3504 7.7283 -2.9817 0.9513
2.3923 6.6496 -1.7370 0.9713
2.9358 11.2061 -2.8474 0.9534
-0.1294 11.6126 -2.8546 0.9533
-1.1634 11.5647 -2.8569 0.9533
-2.1899 11.4247 -2.8593 0.9532
-3.1995 11.1894 -2.8606 0.9532
-6.3678 10.4829 -3.0148 0.9507
-7.2796 9.8801 -3.0165 0.9507
-8.1343 9.1976 -3.0181 0.9507
-8.9247 8.4410 -3.0194 0.9507
-12.1928 1.6398 -3.0240 0.9506
-12.1886 -1.6392 -3.0229 0.9506
-11.9914 -2.7169 -3.0222 0.9506
-11.6983 -3.7722 -3.0212 0.9506
-10.8355 -5.7820 -3.0188 0.9507
-9.4775 -7.4843 -2.9684 0.9515
-7.9919 -9.0366 -2.9652 0.9515
-4.3321 -11.2484 -2.9628 0.9516
-2.2686 -11.8352 -2.9621 0.9516
-1.2061 -11.9893 -2.9618 0.9516
-0.1342 -12.0488 -2.9618 0.9516
2.0044 -11.8831 -2.9621 0.9516
3.0539 -11.6567 -2.9619 0.9516
4.0787 -11.3368 -2.9614 0.9516
5.0700 -10.9259 -2.9607 0.9516
1.8447 -2.1819 -0.7023 0.9883
2.1529 -1.7794 -0.6865 0.9886
2.3495 -1.6129 -0.7005 0.9883
11.4198 -3.9654 -2.9714 0.9514
11.7348 -2.9351 -2.9733 0.9514
11.9498 -1.8790 -2.9734 0.9514
12.0701 -0.8080 -2.9735 0.9514
11.8605 2.4108 -2.9749 0.9514
10.8134 5.4643 -2.9780 0.9513
10.2889 6.4080 -2.9794 0.9513
9.6827 7.3021 -2.9809 0.9513
8.2442 8.9135 -2.9844 0.9512
6.2092 9.7266 -2.8364 0.9536
4.3982 10.7022 -2.8441 0.9535
2.4348 11.3304 -2.8486 0.9534
0.3879 11.6020 -2.8534 0.9533
-6.8304 10.1917 -3.0157 0.9507
-11.0972 5.3007 -3.0229 0.9506
-11.8648 3.2501 -3.0238 0.9506
-12.2537 1.0951 -3.0239 0.9506
-11.4686 0.0000 -3.0220 0.9537
-11.4214 -1.0206 -3.0215 0.9537
-10.7376 -3.9987 -3.0192 0.9537
-9.8507 -5.8346 -3.0168 0.9537
-9.1693 -6.5996 -2.9769 0.9543
-8.5213 -7.3686 -2.9684 0.9545
-7.0730 -8.7544 -2.9656 0.9545
-6.2633 -9.3455 -2.9644 0.9545
-5.4050 -9.8628 -2.9635 0.9545
-4.5044 -10.3019 -2.9627 0.9546
-1.6225 -11.1243 -2.9623 0.9546
4.2719 -10.3951 -2.9614 0.9546
1.7105 -2.6794 -0.8376 0.9869
2.2468 -1.6944 -0.7415 0.9884
2.4778 -1.5432 -0.7692 0.9880
11.2884 -0.2515 -2.9752 0.9544
11.2674 0.7543 -2.9756 0.9544
10.3068 4.6440 -2.9788 0.9543
9.8566 5.5452 -2.9800 0.9543
9.3281 6.4034 -2.9814 0.9543
8.7255 7.2119 -2.9829 0.9543
8.0534 7.9642 -2.9845 0.9542
4.5366 9.7761 -2.8399 0.9564
2.3924 6.6498 -1.8622 0.9712
0.8432 10.7914 -2.8522 0.9562
-1.0852 10.7869 -2.8567 0.9561
-2.9830 10.4323 -2.8591 0.9561
-5.0415 10.2591 -3.0121 0.9538
-5.9379 9.7752 -3.0137 0.9538
-7.5845 8.5760 -3.0167 0.9537
-8.3213 7.8703 -3.0180 0.9537
-8.9921 7.1010 -3.0191 0.9537
-9.5915 6.2745 -3.0201 0.9537
-10.9150 3.5196 -3.0220 0.9537
-11.1859 2.5344 -3.0222 0.9537
-11.3673 1.5287 -3.0222 0.9537
-11.4577 0.5109 -3.0221 0.9537
-11.4564 -0.5109 -3.0218 0.9537
-10.5469 -4.4723 -3.0187 0.9537
-10.1030 -5.3911 -3.0175 0.9537
-9.5292 -6.2337 -3.0005 0.9540
-8.8433 -6.9835 -2.9692 0.9545
-8.1825 -7.7389 -2.9677 0.9545
-6.6746 -9.0588 -2.9650 0.9545
-4.0405 -10.4910 -2.9623 0.9546
-2.1164 -11.0410 -2.9623 0.9546
-1.1253 -11.1855 -2.9622 0.9546
0.8757 -11.2065 -2.9619 0.9546
3.8043 -10.5743 -2.9612 0.9546
1.6970 -2.9393 -0.8943 0.9861
1.7439 -2.4807 -0.7990 0.9875
1.9908 -1.9687 -0.7377 0.9885
2.1572 -1.7830 -0.7374 0.9885
2.6196 -1.4738 -0.7920 0.9876
3.0298 -1.3652 -0.8757 0.9863
10.6549 -3.6998 -2.9720 0.9544
11.1534 -1.7538 -2.9750 0.9544
10.8283 3.2272 -2.9773 0.9543
10.5015 4.1795 -2.9783 0.9543
10.0917 5.0996 -2.9794 0.9543
9.6019 5.9801 -2.9807 0.9543
9.0358 6.8142 -2.9821 0.9543
7.6928 8.3174 -2.9853 0.9542
4.9660 9.5612 -2.8389 0.9564
4.0980 9.9719 -2.8408 0.9564
3.2010 10.3189 -2.8468 0.9563
1.3226 10.7389 -2.8511 0.9562
-0.6033 10.8203 -2.8556 0.9562
-3.4444 10.2880 -2.8588 0.9561
-4.3455 9.9383 -2.8581 0.9561
-5.4950 10.0272 -3.0129 0.9538
-7.9608 8.2314 -3.0174 0.9537
-9.3011 6.6945 -3.0197 0.9537
-9.8629 5.8418 -3.0205 0.9537
-10.7467 4.0021 -3.0218 0.9537
-11.4239 1.0208 -3.0222 0.9537
-10.7354 0.0000 -3.0205 0.9564
-10.5619 -1.9028 -3.0195 0.9564
-10.3481 -2.8346 -3.0188 0.9564
-10.0518 -3.7433 -3.0179 0.9564
-9.2219 -5.4622 -3.0156 0.9564
-7.3331 -7.5823 -2.9678 0.9571
-6.6263 -8.2014 -2.9666 0.9571
-5.8677 -8.7552 -2.9654 0.9571
-5.0635 -9.2398 -2.9645 0.9572
-4.2200 -9.6513 -2.9637 0.9572
-3.3435 -9.9864 -2.9630 0.9572
-2.4409 -10.2426 -2.9625 0.9572
-1.5194 -10.4178 -2.9621 0.9572
2.2116 -10.2920 -2.9618 0.9572
3.1192 -10.0552 -2.9621 0.9572
4.0023 -9.7390 -2.9625 0.9572
4.8540 -9.3457 -2.9630 0.9572
1.7259 -2.7035 -0.9024 0.9868
1.9333 -2.0903 -0.8011 0.9882
2.2603 -1.7046 -0.7965 0.9883
10.1278 -3.0184 -2.9734 0.9570
10.3621 -2.1062 -2.9750 0.9570
10.5772 -0.2357 -2.9767 0.9570
10.2689 2.5684 -2.9782 0.9570
9.2346 5.1953 -2.9812 0.9569
8.1745 6.7564 -2.9838 0.9569
6.8542 8.1072 -2.9870 0.9568
6.1089 8.6901 -2.9887 0.9568
5.0443 8.7370 -2.8385 0.9589
4.2493 9.1570 -2.8403 0.9589
2.5656 9.7929 -2.8483 0.9588
1.6850 9.9891 -2.8502 0.9588
0.7898 10.1068 -2.8523 0.9588
-0.1130 10.1444 -2.8544 0.9587
-1.0162 10.1014 -2.8564 0.9587
-2.7924 9.7657 -2.8578 0.9587
-3.6498 9.4765 -2.8572 0.9587
-5.5593 9.1518 -3.0128 0.9565
-7.1004 8.0286 -3.0156 0.9564
-8.4177 6.6474 -3.0178 0.9564
-9.4682 5.0524 -3.0195 0.9564
-9.8821 4.1904 -3.0200 0.9564
-10.2173 3.2946 -3.0204 0.9564
-10.4707 2.3724 -3.0207 0.9564
-10.7251 0.4783 -3.0206 0.9564
-10.7241 -0.4782 -3.0203 0.9564
-10.6373 -1.4306 -3.0198 0.9564
-10.4655 -2.3712 -3.0192 0.9564
-10.2101 -3.2923 -3.0183 0.9564
-9.8734 -4.1867 -3.0174 0.9564
-7.6653 -7.2498 -2.9685 0.9571
-6.9865 -7.8998 -2.9672 0.9571
-6.2531 -8.4867 -2.9660 0.9571
-4.6463 -9.4549 -2.9641 0.9572
-2.8950 -10.1245 -2.9628 0.9572
-1.9821 -10.3404 -2.9623 0.9572
-0.1173 -10.5261 -2.9618 0.9572
0.8201 -10.4945 -2.9617 0.9572
1.7509 -10.3800 -2.9617 0.9572
4.4325 -9.5518 -2.9627 0.9572
1.7564 -2.4985 -0.8593 0.9874
2.6398 -1.4851 -0.8522 0.9875
9.9806 -3.4656 -2.9726 0.9570
10.2551 -2.5650 -2.9742 0.9570
10.4486 -1.6429 -2.9759 0.9570
10.5558 -0.7066 -2.9766 0.9570
10.5777 0.2357 -2.9768 0.9570
10.1456 3.0237 -2.9786 0.9570
9.8393 3.9159 -2.9795 0.9569
9.4550 4.7779 -2.9806 0.9569
6.4881 8.4069 -2.9878 0.9568
5.4269 8.5010 -2.8376 0.9590
3.8384 9.3401 -2.8412 0.9589
2.9983 9.6656 -2.8473 0.9588
2.1275 9.9007 -2.8492 0.9588
1.2388 10.0579 -2.8512 0.9588
-0.5650 10.1330 -2.8554 0.9587
-3.2244 9.6307 -2.8575 0.9587
-5.1447 9.3880 -3.0120 0.9565
-5.9629 8.8973 -3.0135 0.9565
-7.4526 7.7059 -3.0162 0.9564
-8.1119 7.0146 -3.0173 0.9564
-8.7069 6.2669 -3.0183 0.9564
-10.3543 2.8364 -3.0206 0.9564
-10.0433 -0.8975 -3.0188 0.9588
-9.9218 -1.7875 -3.0182 0.9588
-9.7212 -2.6629 -3.0175 0.9588
-9.4429 -3.5166 -3.0167 0.9588
-9.0895 -4.3417 -3.0157 0.9588
-8.6637 -5.1315 -3.0146 0.9588
-7.5037 -6.4887 -2.9699 0.9594
-6.8934 -7.1277 -2.9686 0.9594
-5.5161 -8.2307 -2.9663 0.9595
0.3307 -9.8906 -2.9627 0.9595
2.9324 -9.4530 -2.9631 0.9595
3.7625 -9.1556 -2.9634 0.9595
4.5632 -8.7858 -2.9639 0.9595
1.7417 -2.7283 -0.9690 0.9866
1.8233 -2.3625 -0.8934 0.9876
2.0936 -1.8935 -0.8451 0.9883
2.5107 -1.5637 -0.8855 0.9877
9.2245 -3.6713 -2.9723 0.9594
9.7393 -1.9796 -2.9754 0.9594
9.9448 -0.2216 -2.9780 0.9593
9.8291 1.5456 -2.9788 0.9593
9.6546 2.4148 -2.9794 0.9593
9.4038 3.2654 -2.9802 0.9593
8.6817 4.8843 -2.9822 0.9593
8.2158 5.6398 -2.9834 0.9592
7.0922 7.0136 -2.9861 0.9592
6.4431 7.6209 -2.9877 0.9592
4.7414 8.2123 -2.8389 0.9612
2.3925 6.6500 -2.1158 0.9709
2.4115 9.2046 -2.8487 0.9610
0.7422 9.4985 -2.8523 0.9610
-0.1062 9.5334 -2.8543 0.9610
-1.7966 9.3726 -2.8570 0.9609
-2.6232 9.1741 -2.8566 0.9609
-3.4287 8.9024 -2.8560 0.9609
-6.6707 7.5426 -3.0145 0.9588
-7.3183 6.9216 -3.0157 0.9588
-8.4347 5.5178 -3.0175 0.9588
-9.5979 3.0949 -3.0191 0.9588
-9.8359 2.2285 -3.0193 0.9588
-9.9954 1.3443 -3.0194 0.9588
-10.0750 0.4493 -3.0193 0.9588
-10.0740 -0.4492 -3.0190 0.9588
-9.9926 -1.3438 -3.0185 0.9588
-9.8313 -2.2275 -3.0179 0.9588
-9.5916 -3.0929 -3.0171 0.9588
-9.2754 -3.9331 -3.0162 0.9588
-8.8854 -4.7414 -3.0152 0.9588
-8.4169 -5.5060 -3.0111 0.9589
-7.7931 -6.1541 -2.9729 0.9594
-5.8784 -7.9782 -2.9668 0.9595
-5.1431 -8.4668 -2.9658 0.9595
-4.3679 -8.8883 -2.9649 0.9595
-3.5586 -9.2397 -2.9643 0.9595
-2.7216 -9.5180 -2.9637 0.9595
-1.8633 -9.7210 -2.9633 0.9595
-0.9907 -9.8472 -2.9630 0.9595
-0.1102 -9.8957 -2.9628 0.9595
1.6460 -9.7584 -2.9628 0.9595
3.3507 -9.3135 -2.9632 0.9595
4.1670 -8.9796 -2.9637 0.9595
2.3882 -1.6394 -0.8672 0.9880
2.6604 -1.4967 -0.9139 0.9873
9.3812 -3.2575 -2.9731 0.9594
9.6389 -2.4109 -2.9746 0.9594
9.9243 -0.6644 -2.9778 0.9593
9.8873 1.1061 -2.9785 0.9593
9.7515 1.9821 -2.9791 0.9593
9.5386 2.8428 -2.9798 0.9593
9.2504 3.6816 -2.9807 0.9593
8.8890 4.4918 -2.9817 0.9593
6.7744 7.3244 -2.9869 0.9592
5.2358 8.2017 -2.9131 0.9602
3.6077 8.7787 -2.8414 0.9611
1.1642 9.4529 -2.8514 0.9610
0.3185 9.5254 -2.8533 0.9610
-0.5309 9.5225 -2.8553 0.9610
-1.3773 9.4438 -2.8572 0.9609
-2.2121 9.2826 -2.8568 0.9609
-3.0290 9.0473 -2.8563 0.9609
-4.0274 9.2109 -3.0096 0.9589
-4.8337 8.8204 -3.0112 0.9589
-5.6022 8.3591 -3.0126 0.9589
-6.3268 7.8307 -3.0139 0.9588
-7.0014 7.2394 -3.0151 0.9588
-8.1794 5.8872 -3.0171 0.9588
-8.6732 5.1371 -3.0179 0.9588
-9.7266 2.6644 -3.0192 0.9588
-9.9256 1.7882 -3.0194 0.9588
-8.5656 -4.0914 -3.0147 0.9609
-8.1646 -4.8359 -3.0137 0.9610
-7.6327 -5.4937 -2.9867 0.9613
-6.4998 -6.7207 -2.9693 0.9615
-5.8736 -7.2698 -2.9682 0.9615
-5.2014 -7.7610 -2.9671 0.9615
-3.7407 -8.5553 -2.9654 0.9616
-2.1638 -9.0797 -2.9643 0.9616
-1.3469 -9.2352 -2.9640 0.9616
0.3118 -9.3265 -2.9636 0.9616
1.1407 -9.2617 -2.9636 0.9616
1.9606 -9.1238 -2.9637 0.9616
2.7651 -8.9138 -2.9639 0.9616
1.8364 -2.3795 -0.9546 0.9875
2.2881 -1.7255 -0.9101 0.9880
9.1820 -1.8663 -2.9757 0.9614
9.1045 2.2772 -2.9805 0.9614
8.5611 3.8575 -2.9821 0.9614
8.1866 4.6057 -2.9831 0.9613
7.7471 5.3181 -2.9843 0.9613
7.2460 5.9890 -2.9855 0.9613
6.6872 6.6131 -2.9868 0.9613
6.0750 7.1855 -2.9883 0.9613
5.4141 7.7016 -2.9898 0.9613
4.4702 7.7427 -2.8394 0.9632
3.7654 8.1143 -2.8409 0.9632
1.4930 8.8512 -2.8507 0.9630
0.6997 8.9544 -2.8524 0.9630
-0.1001 8.9868 -2.8542 0.9630
-1.6929 8.8321 -2.8560 0.9630
-2.4720 8.6451 -2.8556 0.9630
-3.2314 8.3901 -2.8553 0.9630
-4.1797 8.5054 -3.0097 0.9610
-6.2864 7.1081 -3.0136 0.9610
-8.3814 4.4725 -3.0171 0.9609
-9.0442 2.9164 -3.0179 0.9609
-9.4187 1.2667 -3.0182 0.9609
-9.4937 0.4233 -3.0181 0.9609
-9.4929 -0.4233 -3.0178 0.9609
-9.4162 -1.2663 -3.0174 0.9609
-9.2643 -2.0990 -3.0168 0.9609
-9.0386 -2.9146 -3.0161 0.9609
-7.9396 -5.1938 -3.0131 0.9610
-7.3527 -5.8064 -2.9754 0.9614
-6.7941 -6.4258 -2.9699 0.9615
-6.1927 -7.0022 -2.9687 0.9615
-5.5429 -7.5229 -2.9676 0.9615
-4.8497 -7.9837 -2.9667 0.9616
-4.1187 -8.3813 -2.9658 0.9616
-1.7571 -9.1665 -2.9641 0.9616
1.7838 -2.5375 -0.9851 0.9871
1.8879 -2.2330 -0.9287 0.9878
2.0277 -2.0053 -0.9057 0.9881
2.1966 -1.8155 -0.9050 0.9881
2.6816 -1.5087 -0.9772 0.9872
8.8448 -3.0712 -2.9735 0.9615
9.0875 -2.2729 -2.9749 0.9614
9.3788 0.2090 -2.9793 0.9614
9.1959 1.8692 -2.9802 0.9614
8.7231 3.4717 -2.9817 0.9614
8.3822 4.2357 -2.9826 0.9614
7.5040 5.6591 -2.9849 0.9613
6.9736 6.3072 -2.9862 0.9613
6.3875 6.9061 -2.9876 0.9613
5.7503 7.4509 -2.9890 0.9613
5.0670 7.9373 -2.9906 0.9613
4.1220 7.9363 -2.8401 0.9632
3.4012 8.2763 -2.8417 0.9631
2.6526 8.5511 -2.8433 0.9631
1.8853 8.7734 -2.8499 0.9630
1.0976 8.9116 -2.8516 0.9630
-1.2979 8.8992 -2.8561 0.9630
-5.9623 7.3797 -3.0130 0.9610
-7.1814 6.2100 -3.0152 0.9609
-7.7078 5.5478 -3.0160 0.9609
-9.3529 1.6850 -3.0182 0.9609
-9.4657 0.8458 -3.0181 0.9609
-8.9792 0.0000 -3.0169 0.9628
-8.9426 -0.7991 -3.0165 0.9628
-8.6561 -2.3712 -3.0154 0.9628
-8.4086 -3.1314 -3.0147 0.9628
-7.7154 -4.5698 -3.0128 0.9629
-5.5532 -6.8733 -2.9688 0.9634
-2.8023 -8.3700 -2.9656 0.9634
-2.0458 -8.5848 -2.9651 0.9634
-1.2735 -8.7318 -2.9648 0.9634
0.2948 -8.8182 -2.9644 0.9635
1.8537 -8.6265 -2.9645 0.9635
3.3545 -8.1627 -2.9651 0.9634
4.0683 -7.8328 -2.9655 0.9634
1.7855 -2.7970 -1.1149 0.9861
2.3025 -1.7364 -0.9689 0.9879
2.5450 -1.5851 -1.0074 0.9874
8.2221 -3.2723 -2.9732 0.9633
8.8068 -0.9852 -2.9774 0.9633
8.8639 -0.1975 -2.9788 0.9633
8.8507 0.5925 -2.9803 0.9633
8.6087 2.1532 -2.9815 0.9632
8.3850 2.9116 -2.9822 0.9632
8.0948 3.6473 -2.9830 0.9632
7.7405 4.3547 -2.9840 0.9632
6.8509 5.6624 -2.9862 0.9632
4.2921 7.4342 -2.8842 0.9644
0.6614 8.4645 -2.8526 0.9648
-0.0946 8.4946 -2.8542 0.9648
-2.3359 8.1690 -2.8546 0.9648
-3.1493 8.1769 -2.9440 0.9637
-3.9500 8.0380 -3.0091 0.9629
-4.6518 7.6579 -3.0104 0.9629
-5.3171 7.2165 -3.0116 0.9629
-5.9405 6.7170 -3.0128 0.9629
-6.5170 6.1637 -3.0138 0.9629
-7.0418 5.5608 -3.0147 0.9628
-7.9197 4.2261 -3.0160 0.9628
-8.2658 3.5050 -3.0165 0.9628
-8.5459 2.7557 -3.0169 0.9628
-8.9699 -0.4000 -3.0167 0.9628
-8.8975 -1.1966 -3.0163 0.9628
-8.2596 -3.5024 -3.0143 0.9629
-7.9126 -4.2223 -3.0133 0.9629
-6.9550 -5.4923 -2.9775 0.9633
-6.4233 -6.0751 -2.9705 0.9634
-5.8549 -6.6203 -2.9694 0.9634
-4.5853 -7.5485 -2.9674 0.9634
-3.1727 -8.2377 -2.9659 0.9634
0.6874 -8.7963 -2.9644 0.9635
1.4676 -8.7004 -2.9645 0.9635
2.2362 -8.5357 -2.9646 0.9635
3.7150 -8.0057 -2.9653 0.9634
1.8705 -3.2398 -1.2569 0.9843
1.9014 -2.2490 -0.9895 0.9876
2.2103 -1.8269 -0.9635 0.9880
2.7034 -1.5209 -1.0422 0.9870
3.2406 -1.4602 -1.1942 0.9851
8.3616 -2.9035 -2.9739 0.9633
8.7521 -1.3762 -2.9767 0.9633
8.8441 -0.5920 -2.9781 0.9633
8.8166 0.9863 -2.9807 0.9633
8.2480 3.2826 -2.9826 0.9632
7.5401 4.6960 -2.9845 0.9632
6.0389 6.5292 -2.9882 0.9632
5.4364 7.0441 -2.9895 0.9631
4.7902 7.5037 -2.9910 0.9631
3.8968 7.5026 -2.8405 0.9650
2.5109 8.0943 -2.8474 0.9649
-3.5872 8.2042 -3.0084 0.9629
-4.3051 7.8559 -3.0098 0.9629
-6.2349 6.4469 -3.0133 0.9629
-7.2834 5.2423 -3.0151 0.9628
-8.1008 3.8695 -3.0163 0.9628
-8.5054 0.0000 -3.0159 0.9645
-8.4707 -0.7569 -3.0156 0.9646
-8.3685 -1.5077 -3.0151 0.9646
-8.1995 -2.2461 -3.0146 0.9646
-7.9652 -2.9662 -3.0138 0.9646
-6.8678 -4.9431 -3.0004 0.9647
-6.3397 -5.4821 -2.9719 0.9651
-5.8238 -6.0218 -2.9705 0.9651
-4.6608 -6.9545 -2.9685 0.9651
-3.3522 -7.6667 -2.9670 0.9651
-2.6559 -7.9329 -2.9664 0.9651
-1.2070 -8.2757 -2.9655 0.9651
-0.4656 -8.3496 -2.9653 0.9651
1.0222 -8.2996 -2.9652 0.9651
3.1792 -7.7362 -2.9658 0.9651
3.8558 -7.4237 -2.9662 0.9651
1.8675 -2.4197 -1.0838 0.9871
2.1329 -1.9291 -1.0198 0.9879
2.5651 -1.5976 -1.0715 0.9873
2.9664 -1.4990 -1.1785 0.9860
7.7917 -3.1010 -2.9736 0.9650
8.3452 -0.9336 -2.9776 0.9650
8.3864 0.5614 -2.9803 0.9650
8.1595 2.0409 -2.9824 0.9649
7.6721 3.4569 -2.9838 0.9649
6.9421 4.7655 -2.9857 0.9649
5.4430 6.4380 -2.9893 0.9649
4.8506 6.9000 -2.9907 0.9648
2.3926 6.6503 -2.5061 0.9705
1.3371 7.9269 -2.8505 0.9665
-0.8056 8.0083 -2.8540 0.9664
-3.0481 7.9143 -3.0072 0.9646
-6.1734 5.8387 -3.0130 0.9646
-6.6704 5.2676 -3.0138 0.9646
-7.1144 4.6541 -3.0145 0.9646
-7.5019 4.0032 -3.0151 0.9646
-8.0949 2.6103 -3.0159 0.9645
-8.2956 1.8795 -3.0161 0.9645
-8.4301 1.1337 -3.0161 0.9645
-8.4972 0.3789 -3.0160 0.9645
-8.4965 -0.3788 -3.0158 0.9645
-8.4280 -1.1334 -3.0154 0.9646
-8.2923 -1.8788 -3.0149 0.9646
-8.0904 -2.6088 -3.0142 0.9646
-7.4956 -3.9997 -3.0125 0.9646
-7.1074 -4.6495 -3.0115 0.9646
-6.0874 -5.7574 -2.9710 0.9651
-4.9668 -6.7409 -2.9690 0.9651
-4.3458 -7.1541 -2.9681 0.9651
-0.0932 -8.3619 -2.9652 0.9651
0.6515 -8.3368 -2.9651 0.9651
1.3909 -8.2459 -2.9652 0.9651
2.8313 -7.8697 -2.9656 0.9651
3.5210 -7.5875 -2.9660 0.9651
1.9152 -2.2653 -1.0518 0.9875
2.2244 -1.8385 -1.0233 0.9878
2.7415 -1.5423 -1.1154 0.9867
3.3835 -1.5245 -1.3159 0.9844
8.1408 -2.0362 -2.9755 0.9650
8.2935 -1.3041 -2.9769 0.9650
8.3805 -0.5610 -2.9783 0.9650
7.8174 3.1112 -2.9834 0.9649
6.7242 5.0709 -2.9863 0.9649
6.2485 5.6515 -2.9874 0.9649
5.7231 6.1878 -2.9887 0.9649
5.1520 6.6756 -2.9900 0.9648
4.5395 7.1110 -2.9914 0.9648
3.6927 7.1097 -2.8407 0.9666
3.0485 7.4179 -2.8438 0.9665
0.9830 7.9813 -2.8514 0.9664
0.2689 8.0412 -2.8529 0.9664
-3.3984 7.7723 -3.0079 0.9646
-4.0784 7.4422 -3.0092 0.9646
-5.3375 6.6063 -3.0115 0.9646
-6.4283 5.5587 -3.0134 0.9646
-6.8993 4.9658 -3.0142 0.9646
-7.3155 4.3330 -3.0148 0.9646
-7.9702 2.9681 -3.0157 0.9645
-8.2034 2.2471 -3.0160 0.9645
-8.3712 1.5082 -3.0161 0.9645
-8.4721 0.7571 -3.0161 0.9645
-8.0742 0.0000 -3.0150 0.9661
-7.5617 -2.8160 -3.0131 0.9661
-6.9387 -4.1098 -3.0114 0.9662
-6.0254 -5.2103 -2.9745 0.9666
-5.5312 -5.7192 -2.9710 0.9666
-1.8417 -7.7282 -2.9666 0.9666
-1.1464 -7.8605 -2.9663 0.9667
2.3535 -7.5868 -2.9662 0.9667
3.0197 -7.3481 -2.9665 0.9666
1.8957 -2.4563 -1.1586 0.9868
2.1505 -1.9450 -1.0827 0.9877
2.6013 -1.6201 -1.1443 0.9870
3.0373 -1.5348 -1.2707 0.9856
7.3998 -2.9451 -2.9740 0.9666
7.6357 -2.2757 -2.9752 0.9666
7.8112 -1.5877 -2.9764 0.9665
7.9759 -0.1777 -2.9790 0.9665
7.9636 0.5331 -2.9804 0.9665
7.8881 1.2404 -2.9817 0.9665
7.5486 2.6212 -2.9838 0.9665
7.2871 3.2834 -2.9846 0.9664
6.9680 3.9201 -2.9854 0.9664
6.5935 4.5262 -2.9864 0.9664
6.1667 5.0969 -2.9874 0.9664
5.6907 5.6277 -2.9886 0.9664
5.1694 6.1144 -2.9898 0.9664
4.6066 6.5530 -2.9911 0.9664
4.0069 6.9402 -2.9924 0.9664
2.3926 6.6504 -2.6392 0.9703
0.5948 7.6120 -2.8511 0.9679
-0.7647 7.6017 -2.8529 0.9679
-1.4384 7.5039 -2.8530 0.9679
-2.1004 7.3457 -2.8529 0.9679
-3.5528 7.2298 -3.0080 0.9662
-5.3425 6.0409 -3.0113 0.9662
-7.1217 3.8003 -3.0143 0.9661
-7.8750 1.7843 -3.0152 0.9661
-8.0027 1.0763 -3.0152 0.9661
-8.0665 0.3597 -3.0151 0.9661
-8.0659 -0.3596 -3.0149 0.9661
-8.0009 -1.0760 -3.0145 0.9661
-7.8721 -1.7836 -3.0140 0.9661
-7.6805 -2.4766 -3.0134 0.9661
-7.1160 -3.7972 -3.0118 0.9661
-6.7476 -4.4141 -3.0109 0.9662
-5.2701 -5.9590 -2.9705 0.9666
-4.7173 -6.4024 -2.9696 0.9666
-4.1276 -6.7950 -2.9688 0.9666
-2.8561 -7.4157 -2.9674 0.9666
-1.4955 -7.8021 -2.9664 0.9666
-0.7951 -7.9034 -2.9661 0.9667
-0.0885 -7.9423 -2.9659 0.9667
0.6188 -7.9185 -2.9659 0.9667
1.3211 -7.8321 -2.9659 0.9667
2.0131 -7.6838 -2.9661 0.9667
1.8660 -2.6543 -1.2116 0.9862
1.9407 -2.2955 -1.1224 0.9872
2.2436 -1.8544 -1.0869 0.9876
2.4666 -1.6932 -1.1172 0.9873
2.7882 -1.5686 -1.1946 0.9864
7.5252 -2.6130 -2.9746 0.9666
7.7311 -1.9337 -2.9758 0.9665
7.8759 -1.2384 -2.9771 0.9665
7.9583 -0.5327 -2.9784 0.9665
7.9338 0.8875 -2.9810 0.9665
7.8267 1.5909 -2.9824 0.9665
7.4252 2.9552 -2.9842 0.9665
7.1346 3.6053 -2.9850 0.9664
6.7875 4.2273 -2.9859 0.9664
6.3865 4.8163 -2.9869 0.9664
5.9346 5.3675 -2.9880 0.9664
3.5493 6.8336 -2.8754 0.9677
1.6026 7.4579 -2.8484 0.9680
0.9331 7.5760 -2.8503 0.9679
-0.4253 7.6275 -2.8526 0.9679
-2.4615 7.3522 -2.8952 0.9674
-3.2266 7.3793 -3.0074 0.9662
-5.0673 6.2718 -3.0108 0.9662
-5.6071 5.7978 -3.0118 0.9661
-7.6800 0.0000 -3.0142 0.9675
-7.4042 -2.0282 -3.0130 0.9675
-6.6003 -3.9094 -3.0107 0.9676
-6.2205 -4.4772 -3.0080 0.9676
-4.7567 -5.8874 -2.9705 0.9680
-3.6355 -6.6339 -2.9690 0.9680
-1.7527 -7.3546 -2.9673 0.9680
-1.0910 -7.4805 -2.9670 0.9680
-0.4208 -7.5474 -2.9667 0.9680
0.9240 -7.5020 -2.9666 0.9680
2.2397 -7.2201 -2.9669 0.9680
3.4852 -6.7103 -2.9676 0.9680
1.9673 -3.0817 -1.4349 0.9844
3.1168 -1.5750 -1.3705 0.9851
7.2655 -2.1654 -2.9755 0.9679
7.4324 -1.5107 -2.9766 0.9679
7.5888 -0.1691 -2.9791 0.9679
7.5769 0.5072 -2.9804 0.9679
7.5049 1.1801 -2.9816 0.9679
7.3757 1.8448 -2.9839 0.9679
7.1837 2.4945 -2.9845 0.9679
6.6310 3.7305 -2.9860 0.9678
6.2746 4.3072 -2.9870 0.9678
5.8683 4.8502 -2.9880 0.9678
3.0480 6.5683 -2.8419 0.9694
2.3927 6.6506 -2.7739 0.9701
1.2072 7.1568 -2.8485 0.9693
-0.0809 7.2642 -2.8511 0.9693
-1.3681 7.1371 -2.8521 0.9693
-2.7531 7.1483 -3.0064 0.9676
-3.3798 6.8776 -3.0076 0.9676
-5.0820 5.7463 -3.0107 0.9676
-5.5749 5.2727 -3.0116 0.9676
-6.0235 4.7568 -3.0123 0.9676
-6.4244 4.2027 -3.0130 0.9676
-6.7741 3.6148 -3.0135 0.9675
-7.0699 2.9979 -3.0139 0.9675
-7.3094 2.3570 -3.0142 0.9675
-7.6120 1.0237 -3.0144 0.9675
-7.6727 0.3421 -3.0143 0.9675
-7.6721 -0.3421 -3.0141 0.9675
-7.3058 -2.3558 -3.0127 0.9676
-6.4187 -4.1989 -3.0103 0.9676
-4.4890 -6.0926 -2.9701 0.9680
-3.3360 -6.7885 -2.9686 0.9680
-2.0787 -7.2698 -2.9675 0.9680
0.5889 -7.5357 -2.9666 0.9680
1.2573 -7.4535 -2.9666 0.9680
2.5592 -7.1135 -2.9670 0.9680
3.1826 -6.8583 -2.9674 0.9680
1.9032 -2.7073 -1.2988 0.9859
1.9699 -2.3300 -1.1975 0.9870
2.2727 -1.8784 -1.1572 0.9874
2.8371 -1.5961 -1.2776 0.9861
7.3562 -1.8399 -2.9760 0.9679
7.4938 -1.1783 -2.9773 0.9679
7.5904 0.1692 -2.9797 0.9679
7.4465 1.5136 -2.9823 0.9679
7.0662 2.8123 -2.9849 0.9678
6.7896 3.4310 -2.9856 0.9678
6.4592 4.0228 -2.9865 0.9678
6.0774 4.5832 -2.9875 0.9678
5.6474 5.1078 -2.9885 0.9678
4.1022 6.4260 -2.9921 0.9678
3.5155 6.7686 -2.9934 0.9678
2.1480 6.9244 -2.8454 0.9693
0.8875 7.2055 -2.8493 0.9693
0.2427 7.2592 -2.8506 0.9693
-0.4045 7.2544 -2.8515 0.9693
-1.0487 7.1907 -2.8520 0.9693
-1.6846 7.0690 -2.8521 0.9693
-2.4314 7.2623 -3.0057 0.9676
-3.6835 6.7215 -3.0081 0.9676
-4.8202 5.9661 -3.0102 0.9676
-5.8050 5.0197 -3.0120 0.9676
-6.9289 3.3097 -3.0137 0.9675
-7.1968 2.6801 -3.0141 0.9675
-7.4074 2.0291 -3.0143 0.9675
-7.6500 0.6836 -3.0144 0.9675
-7.0554 -1.9327 -3.0123 0.9689
-6.8540 -2.5524 -3.0117 0.9689
-6.2896 -3.7254 -3.0102 0.9689
-5.4708 -4.7308 -2.9783 0.9692
-4.0157 -5.9919 -2.9702 0.9693
-3.4657 -6.3240 -2.9695 0.9693
-2.8884 -6.6060 -2.9689 0.9693
-1.0401 -7.1313 -2.9676 0.9693
0.2408 -7.2019 -2.9673 0.9693
0.8808 -7.1518 -2.9672 0.9693
2.1351 -6.8830 -2.9675 0.9693
2.7396 -6.6663 -2.9678 0.9693
3.3225 -6.3969 -2.9682 0.9693
3.8793 -6.0768 -2.9687 0.9693
1.9559 -2.5343 -1.3182 0.9862
2.6875 -1.6738 -1.3037 0.9864
3.3959 -1.7160 -1.5667 0.9837
6.9254 -2.0640 -2.9757 0.9692
7.0843 -1.4399 -2.9768 0.9692
7.1872 -0.8040 -2.9780 0.9692
7.2217 0.4834 -2.9804 0.9692
7.0314 1.7587 -2.9846 0.9691
6.8483 2.3780 -2.9852 0.9691
6.6110 2.9788 -2.9858 0.9691
5.1621 5.1049 -2.9895 0.9691
4.6890 5.5461 -2.9906 0.9691
4.1783 5.9438 -2.9918 0.9691
3.6342 6.2947 -2.9930 0.9690
-0.0771 6.9211 -2.8501 0.9705
-2.6237 6.8122 -3.0060 0.9689
-3.2208 6.5542 -3.0071 0.9689
-3.7927 6.2437 -3.0082 0.9689
-4.8427 5.4758 -3.0101 0.9689
-6.4549 3.4445 -3.0128 0.9688
-6.7368 2.8567 -3.0132 0.9688
-6.9649 2.2459 -3.0134 0.9688
-7.1375 1.6172 -3.0136 0.9688
-7.3105 -0.3260 -3.0133 0.9688
-7.2517 -0.9753 -3.0130 0.9688
-7.1351 -1.6166 -3.0126 0.9688
-6.9616 -2.2448 -3.0120 0.9689
-6.4502 -3.4419 -3.0106 0.9689
-6.1165 -4.0012 -3.0097 0.9689
-5.6993 -4.5007 -2.9904 0.9691
-2.5910 -6.7275 -2.9686 0.9693
-1.9817 -6.9303 -2.9681 0.9693
-1.3568 -7.0782 -2.9678 0.9693
-0.7213 -7.1703 -2.9675 0.9693
-0.0803 -7.2055 -2.9673 0.9693
1.1986 -7.1056 -2.9673 0.9693
1.8263 -6.9710 -2.9674 0.9693
3.0340 -6.5381 -2.9680 0.9693
2.5377 -1.7421 -1.2675 0.9868
2.8887 -1.6252 -1.3649 0.9858
6.5849 -2.9670 -2.9741 0.9692
6.8253 -2.3700 -2.9751 0.9692
7.2173 -0.4831 -2.9786 0.9692
7.1944 0.8048 -2.9810 0.9692
7.0971 1.4426 -2.9822 0.9692
6.9467 2.0704 -2.9849 0.9691
6.7363 2.6810 -2.9855 0.9691
6.1574 3.8349 -2.9871 0.9691
5.7934 4.3690 -2.9880 0.9691
4.4381 5.7506 -2.9912 0.9691
3.3509 6.4517 -2.9936 0.9690
2.6241 6.3853 -2.8427 0.9706
0.2312 6.9164 -2.8496 0.9705
-2.3171 6.9210 -3.0054 0.9689
-2.9251 6.6899 -3.0066 0.9689
-4.0678 6.0696 -3.0087 0.9689
-5.0826 5.2554 -3.0105 0.9689
-5.5316 4.7833 -3.0113 0.9689
-6.2946 3.7283 -3.0125 0.9688
-6.8577 2.5538 -3.0133 0.9688
-7.2894 0.6514 -3.0136 0.9688
-6.9844 0.0000 -3.0128 0.9700
-6.5416 -2.4361 -3.0111 0.9700
-6.2974 -3.0080 -3.0104 0.9701
-6.0031 -3.5557 -3.0096 0.9701
-5.6612 -4.0747 -3.0088 0.9701
-4.3292 -5.3583 -2.9715 0.9704
-2.7578 -6.3073 -2.9694 0.9705
-2.1851 -6.5267 -2.9689 0.9705
-0.9930 -6.8090 -2.9682 0.9705
1.4455 -6.7269 -2.9679 0.9705
2.0387 -6.5720 -2.9681 0.9705
2.0012 -2.5931 -1.4129 0.9858
2.0870 -2.2565 -1.3258 0.9867
2.2371 -2.0233 -1.3011 0.9869
6.1533 -3.1094 -2.9739 0.9704
6.8613 -0.7676 -2.9781 0.9704
6.9050 -0.1539 -2.9793 0.9704
6.8281 1.0737 -2.9816 0.9703
6.5388 2.2705 -2.9858 0.9703
6.3121 2.8441 -2.9864 0.9703
6.0355 3.3955 -2.9872 0.9703
5.7109 3.9203 -2.9880 0.9703
5.3409 4.4144 -2.9889 0.9703
3.9891 5.6746 -2.9921 0.9702
3.4696 6.0095 -2.9933 0.9702
1.6716 6.3804 -2.8451 0.9717
1.0977 6.5077 -2.8468 0.9717
0.5144 6.5827 -2.8481 0.9716
-0.0736 6.6048 -2.8492 0.9716
-0.6613 6.5737 -2.8499 0.9716
-1.9149 6.6968 -3.0045 0.9701
-2.5043 6.5023 -3.0057 0.9701
-3.0742 6.2559 -3.0067 0.9701
-3.6200 5.9595 -3.0078 0.9701
-4.1374 5.6154 -3.0087 0.9701
-4.6221 5.2264 -3.0096 0.9701
-5.0703 4.7954 -3.0104 0.9701
-5.4782 4.3261 -3.0111 0.9700
-5.8427 3.8221 -3.0116 0.9700
-6.1564 -3.2851 -3.0100 0.9701
-5.8380 -3.8190 -3.0092 0.9701
-5.4517 -4.3051 -2.9965 0.9702
-5.0090 -4.7375 -2.9740 0.9704
-4.5642 -5.1608 -2.9719 0.9704
-4.0857 -5.5451 -2.9711 0.9704
-3.5750 -5.8853 -2.9704 0.9704
-2.4739 -6.4233 -2.9692 0.9705
-1.8921 -6.6170 -2.9687 0.9705
-0.6887 -6.8462 -2.9681 0.9705
-0.0766 -6.8800 -2.9679 0.9705
0.5360 -6.8593 -2.9678 0.9705
1.1444 -6.7845 -2.9679 0.9705
1.7438 -6.6560 -2.9680 0.9705
2.8969 -6.2426 -2.9686 0.9705
3.4415 -5.9608 -2.9690 0.9705
2.0522 -2.9192 -1.5392 0.9846
2.1576 -2.1337 -1.3089 0.9869
2.3343 -1.9294 -1.3064 0.9869
2.5757 -1.7681 -1.3476 0.9865
3.0173 -1.6975 -1.4933 0.9850
6.2867 -2.8326 -2.9744 0.9704
6.6940 -1.6743 -2.9765 0.9704
6.8190 -1.0722 -2.9776 0.9704
6.9063 0.1539 -2.9798 0.9704
6.7748 1.3770 -2.9821 0.9703
6.4319 2.5598 -2.9861 0.9703
5.8790 3.6615 -2.9876 0.9703
5.5314 4.1714 -2.9884 0.9703
4.7073 5.0895 -2.9904 0.9703
1.3861 6.4505 -2.8460 0.9717
0.2207 6.6004 -2.8487 0.9716
-1.5811 6.6343 -2.9419 0.9707
-5.2795 4.5654 -3.0107 0.9701
-5.6661 4.0782 -3.0114 0.9700
-6.5450 2.4374 -3.0126 0.9700
-6.9570 0.6217 -3.0129 0.9700
-6.6756 0.0000 -3.0121 0.9711
-6.5685 -1.1834 -3.0115 0.9711
-6.4361 -1.7630 -3.0111 0.9711
-6.2525 -2.3285 -3.0105 0.9711
-5.7380 -3.3986 -3.0091 0.9712
-5.4112 -3.8947 -3.0083 0.9712
-4.9973 -4.3213 -2.9810 0.9714
-4.5800 -4.7357 -2.9727 0.9715
-4.1392 -5.1232 -2.9719 0.9715
-0.9495 -6.5105 -2.9687 0.9715
-0.3663 -6.5687 -2.9685 0.9715
0.8042 -6.5293 -2.9684 0.9715
1.3822 -6.4321 -2.9685 0.9715
2.5011 -6.0860 -2.9690 0.9715
3.5415 -5.5477 -2.9698 0.9715
2.4909 -1.8785 -1.4077 0.9864
6.1262 -2.4382 -2.9751 0.9715
6.4659 -1.3142 -2.9772 0.9715
6.6012 -0.1471 -2.9793 0.9714
6.5906 0.4412 -2.9804 0.9714
6.5275 1.0264 -2.9815 0.9714
5.7708 3.2466 -2.9877 0.9714
5.4604 3.7483 -2.9885 0.9714
4.7121 4.6599 -2.9903 0.9713
3.8139 5.4253 -2.9924 0.9713
3.3171 5.7454 -2.9935 0.9713
2.7937 6.0202 -2.9946 0.9713
2.2135 6.1524 -2.9503 0.9717
1.5978 6.0987 -2.8447 0.9727
1.0491 6.2196 -2.8460 0.9727
0.4916 6.2911 -2.8473 0.9727
-0.0703 6.3122 -2.8483 0.9727
-2.3938 6.2155 -3.0053 0.9712
-3.4602 5.6964 -3.0074 0.9712
-4.4180 4.9955 -3.0091 0.9712
-4.8463 4.5836 -3.0098 0.9712
-5.5844 3.6532 -3.0111 0.9711
-6.3534 2.0487 -3.0121 0.9711
-6.6691 0.2974 -3.0122 0.9711
-6.6687 -0.2974 -3.0120 0.9711
-6.5088 -1.4747 -3.0113 0.9711
-6.1420 -2.6044 -3.0102 0.9711
-5.8844 -3.1400 -3.0095 0.9712
-5.2215 -4.1234 -3.0021 0.9712
-4.3639 -4.9343 -2.9723 0.9715
-3.9064 -5.3018 -2.9715 0.9715
-3.4182 -5.6271 -2.9708 0.9715
-2.9032 -5.9078 -2.9702 0.9715
-0.6585 -6.5461 -2.9686 0.9715
0.5125 -6.5587 -2.9684 0.9715
1.6674 -6.3642 -2.9686 0.9715
2.2274 -6.1911 -2.9688 0.9715
3.7855 -5.3849 -2.9700 0.9715
2.1963 -2.1719 -1.3937 0.9865
2.3743 -1.9624 -1.3899 0.9866
2.6432 -1.8145 -1.4466 0.9860
6.0105 -2.7082 -2.9747 0.9715
6.2298 -2.1632 -2.9756 0.9715
6.3998 -1.6007 -2.9766 0.9715
6.5192 -1.0251 -2.9777 0.9715
6.6024 0.1471 -2.9799 0.9714
6.5656 0.7345 -2.9810 0.9714
6.4789 1.3169 -2.9832 0.9714
6.3421 1.8902 -2.9861 0.9714
6.1499 2.4476 -2.9866 0.9714
4.9142 4.4447 -2.9898 0.9713
4.0511 5.2491 -2.9918 0.9713
3.5691 5.5909 -2.9929 0.9713
0.7712 6.2617 -2.8467 0.9727
0.2109 6.3080 -2.8479 0.9727
-0.3515 6.3038 -2.8488 0.9727
-0.9222 6.3233 -2.8834 0.9723
-1.5432 6.4755 -3.0037 0.9712
-2.1142 6.3148 -3.0048 0.9712
-2.6688 6.1037 -3.0059 0.9712
-3.2026 5.8439 -3.0069 0.9712
-3.7112 5.5374 -3.0078 0.9712
-4.1905 5.1867 -3.0087 0.9712
-4.6367 4.7944 -3.0095 0.9712
-5.4157 3.8980 -3.0108 0.9711
-5.7421 3.4011 -3.0113 0.9711
-6.0228 2.8769 -3.0117 0.9711
-6.2556 2.3296 -3.0120 0.9711
-6.4386 1.7637 -3.0122 0.9711
-6.3889 0.0000 -3.0116 0.9721
-6.3630 -0.5686 -3.0113 0.9721
-5.9841 -2.2285 -3.0100 0.9722
-5.1791 -3.7277 -3.0079 0.9722
-4.3846 -4.5337 -2.9730 0.9725
-3.9627 -4.9047 -2.9722 0.9725
-3.5096 -5.2367 -2.9716 0.9725
-2.0003 -5.9746 -2.9699 0.9725
-1.4604 -6.1281 -2.9695 0.9725
-0.9091 -6.2332 -2.9693 0.9725
-0.3507 -6.2889 -2.9691 0.9725
0.2105 -6.2949 -2.9690 0.9725
1.3233 -6.1580 -2.9690 0.9725
1.8662 -6.0162 -2.9692 0.9725
2.3945 -5.8267 -2.9695 0.9725
2.9040 -5.5911 -2.9698 0.9725
3.3906 -5.3112 -2.9702 0.9725
2.3472 -3.0414 -1.8109 0.9832
2.5645 -1.9339 -1.5140 0.9859
5.6319 -2.8459 -2.9745 0.9725
5.8647 -2.3341 -2.9754 0.9725
6.3191 -0.1408 -2.9794 0.9724
5.9858 2.0785 -2.9868 0.9724
5.7782 2.6035 -2.9874 0.9724
5.5248 3.1082 -2.9881 0.9724
5.2276 3.5886 -2.9889 0.9723
0.4714 6.0329 -2.8524 0.9736
-0.0678 6.0879 -2.8699 0.9734
-0.6245 6.2078 -2.9410 0.9728
-1.1993 6.2566 -3.0029 0.9722
-1.7520 6.1272 -3.0040 0.9722
-2.2912 5.9491 -3.0050 0.9722
-2.8126 5.7234 -3.0060 0.9722
-4.2284 4.7811 -3.0086 0.9722
-4.6383 4.3869 -3.0094 0.9722
-5.3447 3.4963 -3.0105 0.9722
-5.6354 3.0072 -3.0110 0.9721
-6.0805 1.9607 -3.0115 0.9721
-6.2312 1.4118 -3.0117 0.9721
-6.3827 0.2846 -3.0116 0.9721
-6.3310 -0.8514 -3.0112 0.9721
-6.2293 -1.4114 -3.0108 0.9722
-5.8783 -2.4926 -3.0097 0.9722
-5.6318 -3.0052 -3.0090 0.9722
-5.3407 -3.4937 -3.0083 0.9722
-5.0024 -3.9504 -3.0046 0.9722
-4.5894 -4.3407 -2.9777 0.9725
-3.7398 -5.0757 -2.9719 0.9725
-3.2725 -5.3872 -2.9712 0.9725
-2.7795 -5.6560 -2.9706 0.9725
-1.7320 -6.0573 -2.9697 0.9725
-1.1859 -6.1867 -2.9694 0.9725
-0.6305 -6.2672 -2.9691 0.9725
-0.0702 -6.2982 -2.9690 0.9725
1.0476 -6.2107 -2.9690 0.9725
1.5963 -6.0931 -2.9691 0.9725
2.1325 -5.9273 -2.9693 0.9725
2.6519 -5.7146 -2.9696 0.9725
3.1504 -5.4566 -2.9700 0.9725
2.4387 -2.0156 -1.4914 0.9861
2.7235 -1.8696 -1.5572 0.9855
5.4988 -3.0936 -2.9740 0.9725
5.7540 -2.5926 -2.9749 0.9725
6.1265 -1.5323 -2.9768 0.9725
6.2406 -0.9813 -2.9778 0.9725
6.0720 1.8096 -2.9866 0.9724
5.8879 2.3433 -2.9871 0.9724
5.6571 2.8587 -2.9878 0.9724
5.3815 3.3517 -2.9885 0.9724
4.3086 4.6584 -2.9911 0.9723
2.9279 5.6371 -2.9942 0.9723
2.4154 5.8776 -2.9954 0.9723
1.8798 6.0600 -2.9908 0.9723
0.7399 6.0077 -2.8533 0.9736
-0.9186 6.2986 -3.0004 0.9722
-2.5544 5.8421 -3.0055 0.9722
-3.0652 5.5933 -3.0065 0.9722
-3.5520 5.2999 -3.0074 0.9722
-4.8296 4.1763 -3.0097 0.9722
-6.2879 1.1329 -3.0117 0.9721
-6.3637 0.5687 -3.0117 0.9721
-6.1217 0.0000 -3.0110 0.9731
-5.9023 -1.6168 -3.0100 0.9731
-5.7340 -2.1354 -3.0095 0.9731
-4.9628 -3.5720 -3.0075 0.9731
-4.5977 -3.9758 -2.9896 0.9733
-4.2033 -4.3462 -2.9739 0.9734
-3.3639 -5.0193 -2.9719 0.9734
-2.9032 -5.2977 -2.9713 0.9734
-1.9173 -5.7267 -2.9704 0.9734
-1.3998 -5.8739 -2.9700 0.9734
-0.8714 -5.9746 -2.9697 0.9734
-0.3361 -6.0281 -2.9695 0.9734
0.2018 -6.0339 -2.9694 0.9734
1.2684 -5.9026 -2.9695 0.9734
3.2499 -5.0909 -2.9707 0.9734
3.6907 -4.7822 -2.9712 0.9734
2.2680 -2.4521 -1.6429 0.9852
2.4004 -2.1710 -1.5919 0.9857
5.1323 -3.1964 -2.9739 0.9734
5.6210 -2.2371 -2.9756 0.9734
5.7995 -1.7284 -2.9765 0.9734
5.9322 -1.2058 -2.9775 0.9734
5.8912 1.4735 -2.9868 0.9733
4.6858 3.8729 -2.9901 0.9733
4.3238 4.2759 -2.9909 0.9733
3.4994 4.9779 -2.9929 0.9732
3.0435 5.2715 -2.9939 0.9732
2.0621 5.7317 -2.9960 0.9732
1.5443 5.8946 -2.9972 0.9732
-2.6952 5.4846 -3.0057 0.9731
-5.6355 2.3897 -3.0108 0.9731
-6.0674 0.8160 -3.0112 0.9731
-6.0664 -0.8158 -3.0106 0.9731
-5.8240 -1.8780 -3.0098 0.9731
-5.6327 -2.3884 -3.0092 0.9731
-4.4005 -4.1619 -2.9791 0.9734
-4.0043 -4.5277 -2.9730 0.9734
-2.6641 -5.4213 -2.9711 0.9734
-0.6043 -6.0073 -2.9696 0.9734
-0.0673 -6.0369 -2.9695 0.9734
0.4703 -6.0188 -2.9694 0.9734
2.5418 -5.4775 -2.9701 0.9734
3.4737 -4.9414 -2.9709 0.9734
2.3322 -2.7585 -1.7767 0.9840
2.3229 -2.2971 -1.6068 0.9855
2.5077 -2.0727 -1.6002 0.9856
2.8905 -1.9842 -1.7244 0.9845
5.2703 -2.9650 -2.9743 0.9734
5.7159 -1.9848 -2.9761 0.9734
5.9810 -0.9405 -2.9780 0.9734
6.0430 -0.4045 -2.9789 0.9734
5.8201 1.7346 -2.9871 0.9733
5.6436 2.2461 -2.9876 0.9733
5.4224 2.7401 -2.9882 0.9733
4.5093 4.0784 -2.9905 0.9733
3.7170 4.8163 -2.9924 0.9732
2.8061 5.4027 -2.9944 0.9732
2.3150 5.6331 -2.9955 0.9732
1.8050 5.8189 -2.9966 0.9732
0.7366 5.9806 -2.9638 0.9735
0.2017 6.0323 -2.9687 0.9735
-1.9392 5.7921 -3.0043 0.9731
-2.4478 5.5983 -3.0053 0.9731
-2.9373 5.3599 -3.0062 0.9731
-3.4036 5.0786 -3.0070 0.9731
-3.8432 4.7568 -3.0078 0.9731
-4.2523 4.3969 -3.0086 0.9731
-4.6278 4.0018 -3.0092 0.9731
-4.9665 3.5747 -3.0098 0.9731
-5.5232 2.6382 -3.0106 0.9731
-5.9044 1.6174 -3.0111 0.9731
-6.0977 0.5449 -3.0111 0.9731
-5.8722 0.0000 -3.0105 0.9739
-5.8485 -0.5226 -3.0103 0.9740
-5.7781 -1.0410 -3.0100 0.9740
-5.6618 -1.5509 -3.0096 0.9740
-5.0480 -2.9899 -3.0079 0.9740
-4.7607 -3.4265 -3.0071 0.9740
-4.0353 -4.1725 -2.9758 0.9742
-3.6443 -4.5106 -2.9729 0.9743
-2.3218 -5.3102 -2.9712 0.9743
-1.8397 -5.4950 -2.9708 0.9743
-1.3432 -5.6362 -2.9704 0.9743
-0.8361 -5.7329 -2.9702 0.9743
0.1936 -5.7898 -2.9699 0.9743
0.7081 -5.7495 -2.9699 0.9743
1.2171 -5.6638 -2.9700 0.9743
2.2023 -5.3590 -2.9704 0.9743
2.6708 -5.1423 -2.9707 0.9743
3.1184 -4.8848 -2.9711 0.9743
3.5413 -4.5886 -2.9716 0.9743
4.9244 -3.0669 -2.9742 0.9743
5.1792 -2.6172 -2.9750 0.9743
5.7738 -0.6459 -2.9785 0.9742
5.8103 -0.1295 -2.9795 0.9742
5.8006 0.3883 -2.9805 0.9742
5.7460 0.9035 -2.9820 0.9742
5.5054 1.9117 -2.9878 0.9741
5.3144 2.3946 -2.9883 0.9741
4.1486 4.1027 -2.9913 0.9741
3.7681 4.4570 -2.9921 0.9741
3.3576 4.7762 -2.9931 0.9741
2.9201 5.0577 -2.9941 0.9741
1.9784 5.4992 -2.9961 0.9741
1.4817 5.6554 -2.9972 0.9741
-0.5860 5.8253 -3.0015 0.9740
-1.1025 5.7520 -3.0025 0.9740
-2.1063 5.4689 -3.0045 0.9740
-2.5855 5.2614 -3.0054 0.9740
-3.0444 5.0118 -3.0063 0.9740
-3.8868 4.3948 -3.0078 0.9740
-4.2634 4.0323 -3.0085 0.9740
-4.6063 3.6376 -3.0091 0.9740
-5.4058 2.2923 -3.0103 0.9740
-5.7272 1.2976 -3.0106 0.9739
-5.8665 0.2616 -3.0106 0.9739
-5.8662 -0.2616 -3.0104 0.9740
-5.8191 -0.7826 -3.0101 0.9740
-5.5867 -1.8015 -3.0093 0.9740
-5.4032 -2.2911 -3.0088 0.9740
-4.2236 -3.9946 -2.9804 0.9742
-3.8421 -4.3443 -2.9733 0.9743
-3.4394 -4.6680 -2.9726 0.9743
-3.0097 -4.9546 -2.9720 0.9743
-2.5563 -5.2019 -2.9715 0.9743
-1.5930 -5.5711 -2.9706 0.9743
-1.0907 -5.6902 -2.9703 0.9743
-0.5799 -5.7642 -2.9701 0.9743
1.4682 -5.6041 -2.9700 0.9743
1.9613 -5.4516 -2.9702 0.9743
2.8975 -5.0185 -2.9709 0.9743
2.6539 -2.1935 -1.7652 0.9846
5.0568 -2.8449 -2.9746 0.9743
5.4842 -1.9043 -2.9762 0.9742
5.7384 -0.9023 -2.9781 0.9742
5.7098 1.1606 -2.9871 0.9741
5.5847 1.6644 -2.9875 0.9741
5.4153 2.1552 -2.9880 0.9741
4.9494 3.0825 -2.9893 0.9741
4.6566 3.5117 -2.9900 0.9741
4.3267 3.9133 -2.9908 0.9741
3.9624 4.2841 -2.9917 0.9741
3.5664 4.6212 -2.9926 0.9741
2.6923 5.1837 -2.9946 0.9741
1.2285 5.7169 -2.9978 0.9741
0.1956 5.8483 -2.9999 0.9740
-0.3259 5.8446 -3.0010 0.9740
-0.8451 5.7944 -3.0020 0.9740
-1.3579 5.6981 -3.0031 0.9740
-2.3482 5.3705 -3.0050 0.9740
-3.2651 4.8719 -3.0067 0.9740
-3.6867 4.5631 -3.0075 0.9740
-4.0791 4.2178 -3.0082 0.9740
-4.4393 3.8388 -3.0088 0.9740
-4.7642 3.4290 -3.0093 0.9740
-5.2981 2.5307 -3.0101 0.9740
-5.5028 2.0493 -3.0104 0.9740
-5.6637 1.5515 -3.0106 0.9739
-5.8491 0.5227 -3.0106 0.9739
-5.6384 0.0000 -3.0100 0.9748
-5.6156 -0.5018 -3.0098 0.9748
-5.4364 -1.4892 -3.0091 0.9748
-5.0845 -2.4287 -3.0081 0.9748
-4.8472 -2.8710 -3.0075 0.9748
-4.5713 -3.2902 -3.0068 0.9748
-3.5002 -4.3322 -2.9732 0.9751
-3.1000 -4.6256 -2.9726 0.9751
-1.7670 -5.2777 -2.9712 0.9751
-1.2901 -5.4134 -2.9708 0.9751
-0.3098 -5.5556 -2.9704 0.9751
0.1859 -5.5609 -2.9703 0.9751
0.6801 -5.5223 -2.9703 0.9751
1.1690 -5.4400 -2.9704 0.9751
1.6486 -5.3146 -2.9705 0.9751
2.5653 -4.9390 -2.9711 0.9751
3.4013 -4.4072 -2.9719 0.9751
3.7807 -4.0877 -2.9725 0.9751
4.1304 -3.7357 -2.9731 0.9751
4.9741 -2.5135 -2.9752 0.9750
5.3440 -1.5927 -2.9768 0.9750
5.5450 -0.6203 -2.9786 0.9750
5.5706 0.3729 -2.9805 0.9750
5.5223 0.8683 -2.9843 0.9750
5.4295 1.3580 -2.9878 0.9749
4.8803 2.7456 -2.9893 0.9749
4.6176 3.1698 -2.9900 0.9749
4.3182 3.5691 -2.9907 0.9749
3.9845 3.9403 -2.9915 0.9749
3.2246 4.5871 -2.9933 0.9749
2.8044 4.8574 -2.9942 0.9749
2.3618 5.0894 -2.9952 0.9749
1.4229 5.4312 -2.9973 0.9749
0.4377 5.6013 -2.9993 0.9748
-0.0626 5.6200 -3.0004 0.9748
-1.5467 5.4091 -3.0033 0.9748
-2.4827 5.0522 -3.0052 0.9748
-3.7321 4.2200 -3.0074 0.9748
-4.0938 3.8719 -3.0081 0.9748
-4.4230 3.4928 -3.0086 0.9748
-4.9736 2.6540 -3.0095 0.9748
-5.3663 1.7304 -3.0100 0.9748
-5.4992 1.2460 -3.0101 0.9748
-5.5883 0.7516 -3.0102 0.9748
-5.6329 0.2512 -3.0101 0.9748
-5.6326 -0.2512 -3.0099 0.9748
-5.5874 -0.7514 -3.0097 0.9748
-5.4977 -1.2456 -3.0093 0.9748
-4.7139 -3.0837 -3.0071 0.9748
-4.4197 -3.4902 -3.0064 0.9748
-4.0585 -3.8386 -2.9822 0.9750
-2.4552 -4.9962 -2.9718 0.9751
-1.5300 -5.3509 -2.9710 0.9751
-1.0476 -5.4653 -2.9707 0.9751
-0.0620 -5.5638 -2.9704 0.9751
0.9255 -5.4865 -2.9703 0.9751
2.3426 -5.0481 -2.9709 0.9751
4.5930 -3.1529 -2.9741 0.9751
5.0819 -2.2898 -2.9756 0.9750
5.4104 -1.3532 -2.9773 0.9750
5.5110 -0.8665 -2.9782 0.9750
5.3639 1.5986 -2.9880 0.9749
4.9973 2.5252 -2.9890 0.9749
4.4724 3.3728 -2.9904 0.9749
3.0175 4.7269 -2.9938 0.9749
1.1798 5.4901 -2.9978 0.9749
-0.8115 5.5643 -3.0019 0.9748
-1.3040 5.4718 -3.0029 0.9748
-2.7057 4.9373 -3.0056 0.9748
-3.5400 4.3816 -3.0071 0.9748
-3.9168 4.0500 -3.0078 0.9748
-4.5745 3.2926 -3.0089 0.9748
-4.8501 2.8727 -3.0093 0.9748
-5.2837 1.9677 -3.0099 0.9748
-5.4382 1.4897 -3.0101 0.9748
-5.5493 0.9998 -3.0101 0.9748
-5.4188 0.0000 -3.0096 0.9755
-5.3969 -0.4823 -3.0094 0.9755
-5.2247 -1.4312 -3.0087 0.9755
-4.8866 -2.3342 -3.0077 0.9755
-3.3647 -4.1645 -2.9735 0.9758
-2.9801 -4.4465 -2.9729 0.9758
-2.5720 -4.6933 -2.9724 0.9758
-0.2978 -5.3407 -2.9708 0.9758
1.1238 -5.2296 -2.9708 0.9758
2.0334 -4.9481 -2.9712 0.9758
2.4660 -4.7479 -2.9715 0.9758
3.2697 -4.2366 -2.9723 0.9758
3.6344 -3.9295 -2.9728 0.9758
3.9705 -3.5911 -2.9734 0.9758
4.2753 -3.2241 -2.9740 0.9758
4.7815 -2.4162 -2.9754 0.9758
4.9788 -1.9815 -2.9762 0.9758
5.1369 -1.5309 -2.9770 0.9758
5.3635 -0.1195 -2.9796 0.9758
5.3544 0.3584 -2.9805 0.9757
5.3143 0.8357 -2.9878 0.9757
5.2195 1.3055 -2.9882 0.9757
5.0833 1.7651 -2.9886 0.9757
3.0997 4.4094 -2.9935 0.9756
