ply
format ascii 1.0
element vertex 1591
property float32 x
property float32 y
property float32 z
property float32 I
end_header
8.7252 4.4090 3.6504 0.9591
4.3699 6.8454 3.0326 0.9659
2.4783 7.9892 3.1235 0.9649
9.2080 4.1490 3.5812 0.9580
4.0785 7.0642 2.8924 0.9660
3.4303 7.3921 2.8896 0.9660
-8.4707 -5.5412 3.4009 0.9582
3.0985 7.5398 2.7388 0.9662
2.4780 7.9884 2.8101 0.9653
2.7757 7.7152 2.6040 0.9662
10.8593 3.2364 3.5987 0.9536
3.1191 7.5899 2.6060 0.9661
2.4665 7.9511 2.6438 0.9657
-9.0546 -6.5171 3.1388 0.9547
2.4774 7.9864 2.0553 0.9661
-9.8393 -7.7700 2.8616 0.9499
-10.0092 -7.9042 2.6888 0.9492
2.4772 7.9856 1.7627 0.9664
6.2461 -0.1392 1.2090 0.9749
5.7449 -0.9033 1.1254 0.9766
5.6372 -1.1458 1.0143 0.9769
5.5246 -0.6180 0.9802 0.9777
5.5340 -0.8702 0.9878 0.9775
5.6016 -0.3750 0.9899 0.9775
5.4595 -1.1097 0.8871 0.9777
5.5935 -0.1246 0.8909 0.9776
5.6700 -1.4182 0.9307 0.9766
2.4768 7.9845 1.3312 0.9667
5.3397 -1.0854 0.7750 0.9782
5.2932 -0.5921 0.7576 0.9787
5.3508 -0.3582 0.7628 0.9786
5.6883 0.1268 0.8093 0.9773
2.4767 7.9841 1.1890 0.9668
5.2514 -1.0674 0.6715 0.9786
5.2119 -0.5830 0.6572 0.9791
5.9647 0.3993 0.7491 0.9762
5.3626 -1.3413 0.6927 0.9780
5.2676 -0.3526 0.6616 0.9789
5.5571 0.1238 0.6966 0.9778
2.4766 7.9837 1.0475 0.9669
5.4652 -1.6288 0.6186 0.9773
5.1407 -0.5751 0.5611 0.9794
5.2897 -0.1179 0.5739 0.9789
5.1349 -0.8074 0.5638 0.9793
5.1938 -0.3477 0.5646 0.9793
5.3712 -1.6008 0.5138 0.9777
5.1187 -1.0404 0.4789 0.9792
5.0926 -0.5697 0.4698 0.9796
5.6365 0.3773 0.5179 0.9776
5.2008 -1.3008 0.4915 0.9787
5.0866 -0.7998 0.4721 0.9795
5.3837 0.1200 0.4937 0.9786
2.4763 7.9830 0.7663 0.9670
5.2948 -1.5780 0.4140 0.9781
5.0454 -0.5644 0.3805 0.9798
5.5525 0.3717 0.4170 0.9779
5.6854 -1.9742 0.4510 0.9761
5.1420 -1.2861 0.3972 0.9790
5.0393 -0.7924 0.3823 0.9797
2.4762 7.9826 0.6263 0.9670
5.2207 -1.5559 0.3173 0.9784
4.9993 -0.5593 0.2930 0.9800
5.1316 -0.1144 0.2990 0.9796
5.4711 0.3662 0.3194 0.9783
4.9930 -0.7851 0.2944 0.9800
2.4761 7.9822 0.4868 0.9671
4.9873 -1.0137 0.2116 0.9798
5.4139 0.3624 0.2256 0.9785
4.9647 -0.7807 0.2090 0.9801
5.0207 -0.3361 0.2092 0.9801
5.7847 0.6471 0.2420 0.9770
2.4760 7.9819 0.3475 0.9671
4.9605 -1.0082 0.1262 0.9799
5.0714 -0.1130 0.1265 0.9799
4.9951 -0.3344 0.1248 0.9802
5.1868 0.1156 0.1294 0.9795
5.7165 0.6395 0.1434 0.9772
2.4759 7.9815 0.2084 0.9671
4.9216 -0.5506 0.0412 0.9804
5.0439 -0.1124 0.0419 0.9800
5.3146 -1.8454 0.0468 0.9777
4.9148 -0.7728 0.0413 0.9803
5.6499 0.6320 0.0473 0.9775
2.4758 7.9811 0.0695 0.9671
4.9077 -0.9975 -0.0416 0.9802
4.8971 -0.5478 -0.0410 0.9805
5.0166 -0.1118 -0.0417 0.9801
5.2933 0.3544 -0.0441 0.9790
4.9553 -1.2394 -0.0425 0.9798
4.9448 -0.3310 -0.0412 0.9804
5.1224 0.1141 -0.0426 0.9797
5.5860 0.6249 -0.0467 0.9778
5.0452 -1.5036 -0.1313 0.9792
4.8983 -0.9956 -0.1247 0.9802
4.8882 -0.5468 -0.1227 0.9805
4.9448 -1.2368 -0.1271 0.9798
4.9359 -0.3304 -0.1234 0.9804
5.1114 0.1139 -0.1275 0.9798
5.5652 0.6226 -0.1397 0.9778
2.4755 7.9804 -0.2084 0.9671
5.0351 -1.5006 -0.2185 0.9792
4.8900 -0.9939 -0.2075 0.9802
4.8805 -0.5460 -0.2042 0.9805
5.2227 -1.8135 -0.2299 0.9781
4.9279 -0.3299 -0.2054 0.9804
5.5446 0.6203 -0.2320 0.9779
2.4754 7.9800 -0.3474 0.9671
5.8541 -2.3299 -0.3670 0.9751
4.8817 -0.9923 -0.2901 0.9802
4.8727 -0.5451 -0.2856 0.9805
5.2096 -1.8090 -0.3212 0.9781
5.5282 0.6184 -0.3240 0.9780
2.4753 7.9797 -0.4866 0.9671
6.0179 -2.3951 -0.4854 0.9744
5.0161 -1.4950 -0.3922 0.9792
4.8649 -0.5442 -0.3668 0.9806
5.2514 0.3515 -0.3944 0.9791
4.9162 -1.2296 -0.3798 0.9799
5.0815 0.1132 -0.3809 0.9798
2.4752 7.9793 -0.6261 0.9670
5.0268 -1.4982 -0.4809 0.9792
4.8690 -0.5447 -0.4492 0.9805
4.9872 -0.1111 -0.4573 0.9802
5.2629 0.3523 -0.4836 0.9790
5.2179 -1.8118 -0.5064 0.9781
4.8623 -0.7646 -0.4512 0.9804
4.9167 -0.3291 -0.4518 0.9804
5.0901 0.1134 -0.4668 0.9798
2.4751 7.9789 -0.7659 0.9670
4.8880 -0.9935 -0.5410 0.9801
4.8774 -0.5456 -0.5323 0.9804
4.9964 -0.1113 -0.5421 0.9801
4.9252 -0.3297 -0.5354 0.9803
5.5605 0.6220 -0.6069 0.9777
2.4750 7.9786 -0.9061 0.9669
5.0485 -1.5046 -0.6602 0.9790
4.8970 -0.9954 -0.6262 0.9801
4.8857 -0.5466 -0.6161 0.9804
5.0056 -0.1115 -0.6274 0.9800
4.9450 -1.2368 -0.6388 0.9797
4.8791 -0.7672 -0.6189 0.9803
5.5826 0.6245 -0.7039 0.9776
2.4749 7.9782 -1.0468 0.9669
4.8942 -0.5475 -0.7005 0.9803
5.0150 -0.1117 -0.7135 0.9799
5.3038 -1.8417 -0.7986 0.9776
4.9554 -1.2394 -0.7265 0.9796
4.8875 -0.7685 -0.7037 0.9802
5.1228 0.1142 -0.7288 0.9795
2.4747 7.9778 -1.1881 0.9668
5.1060 -1.5217 -0.8484 0.9787
4.9308 -1.0022 -0.8012 0.9798
4.9878 -1.2475 -0.8187 0.9794
4.9643 -0.3323 -0.7923 0.9800
5.1580 0.1149 -0.8215 0.9793
5.7201 0.6399 -0.9165 0.9770
4.9599 -1.0081 -0.8925 0.9797
4.9919 -0.3342 -0.8822 0.9799
5.1938 0.1157 -0.9160 0.9791
5.7985 0.6487 -1.0288 0.9766
5.1943 -1.5481 -1.0489 0.9782
4.9896 -1.0142 -0.9853 0.9795
4.9694 -0.5559 -0.9677 0.9798
5.1021 -0.1137 -0.9876 0.9794
5.4439 0.3644 -1.0558 0.9780
4.9477 13.7523 -2.8283 0.9422
2.4381 14.4538 -2.8366 0.9420
-0.1636 14.6886 -2.8427 0.9419
-2.7717 14.4598 -2.8492 0.9418
5.2304 0.1166 -1.0124 0.9789
2.4744 7.9767 -1.6162 0.9665
0.4906 14.6733 -2.8411 0.9419
-0.8183 14.6750 -2.8443 0.9419
-14.3208 -1.2797 -3.0311 0.9429
-14.1511 -2.5494 -3.0314 0.9429
-13.8679 -3.7988 -3.0313 0.9429
-11.7422 -6.9549 -2.8771 0.9457
-11.0782 -7.9736 -2.8776 0.9457
-10.3237 -8.9272 -2.8773 0.9457
-8.5589 -10.5934 -2.8711 0.9458
-7.9178 -11.8142 -2.9983 0.9435
-6.7539 -12.3244 -2.9628 0.9442
-5.6264 -12.8680 -2.9608 0.9442
-4.4573 -13.3132 -2.9598 0.9442
-3.2531 -13.6504 -2.9584 0.9442
-2.0243 -13.8797 -2.9571 0.9443
-0.7806 -13.9994 -2.9559 0.9443
6.4559 -12.4298 -2.9528 0.9444
9.5135 -10.2859 -2.9538 0.9443
11.1897 -8.4386 -2.9546 0.9443
11.8918 -7.4061 -2.9535 0.9443
13.0227 -5.1829 -2.9549 0.9443
4.9982 -0.5591 -1.0603 0.9797
5.5403 0.3709 -1.1706 0.9776
13.6495 3.4140 -2.9662 0.9441
13.2924 4.6156 -2.9664 0.9441
12.8309 5.7813 -2.9669 0.9441
10.0210 9.9100 -2.9712 0.9440
9.1042 10.7686 -2.9728 0.9440
8.1147 11.5433 -2.9747 0.9440
5.9479 12.8173 -2.9789 0.9439
4.5440 12.6301 -2.8298 0.9466
2.2391 13.2742 -2.8380 0.9465
1.0498 13.4338 -2.8407 0.9464
-0.1503 13.4874 -2.8436 0.9464
-2.5446 13.2748 -2.8495 0.9462
-3.7200 13.0096 -2.8526 0.9462
-7.0435 11.5953 -2.8602 0.9460
-8.0466 10.9210 -2.8598 0.9461
-10.3970 9.8335 -3.0170 0.9432
-11.9938 7.8460 -3.0215 0.9431
-12.6530 6.7518 -3.0235 0.9431
-13.2116 5.6022 -3.0253 0.9430
-14.0092 3.1741 -3.0283 0.9430
-14.2415 1.9153 -3.0294 0.9429
-14.3596 0.6403 -3.0303 0.9429
-14.2503 -1.9165 -3.0313 0.9429
-13.6844 -4.4126 -3.0312 0.9429
-12.8462 -5.4472 -2.9416 0.9446
-11.4218 -7.4718 -2.8774 0.9457
-10.7121 -8.4592 -2.8776 0.9457
-9.9128 -9.3754 -2.8765 0.9458
-8.1042 -10.9991 -2.8803 0.9457
-6.1961 -12.6086 -2.9618 0.9442
-5.0465 -13.1028 -2.9601 0.9442
1.0918 -13.9719 -2.9545 0.9443
2.3305 -13.8160 -2.9538 0.9443
4.7418 -13.1800 -2.9530 0.9443
5.8958 -12.7050 -2.9528 0.9444
7.0033 -12.1300 -2.9529 0.9444
9.9633 -9.8530 -2.9541 0.9443
10.8036 -8.9294 -2.9549 0.9443
11.5523 -7.9305 -2.9541 0.9443
12.7764 -5.7568 -2.9543 0.9443
5.8342 -2.0258 -1.3020 0.9751
5.1067 -1.2773 -1.1098 0.9787
5.0512 -0.3381 -1.0673 0.9795
5.2859 0.1178 -1.1147 0.9786
13.7879 2.8025 -2.9662 0.9441
13.4842 4.0187 -2.9663 0.9441
13.0745 5.2036 -2.9666 0.9441
10.4499 9.4514 -2.9705 0.9440
9.5722 10.3493 -2.9720 0.9440
7.5949 11.8973 -2.9757 0.9439
2.4743 7.9763 -1.7606 0.9664
2.8270 13.1556 -2.8368 0.9465
0.4505 13.4739 -2.8421 0.9464
-0.7513 13.4743 -2.8451 0.9463
-3.1350 13.1553 -2.8511 0.9462
-4.2981 12.8378 -2.8541 0.9462
-5.4295 12.4176 -2.8572 0.9461
-6.5201 11.8977 -2.8602 0.9460
-8.5472 10.5790 -2.8672 0.9459
-9.9446 10.2827 -3.0157 0.9432
-10.8290 9.3643 -3.0182 0.9432
-11.6283 8.3696 -3.0204 0.9431
-13.4517 5.0095 -3.0261 0.9430
-13.2672 0.0000 -3.0282 0.9470
-12.7985 -3.5059 -3.0288 0.9470
-11.0439 -6.5413 -2.9297 0.9487
-10.2153 -7.3525 -2.8727 0.9497
-7.3631 -10.9865 -3.0187 0.9472
-5.1989 -11.8901 -2.9619 0.9481
-3.0059 -12.6134 -2.9595 0.9482
-0.7214 -12.9377 -2.9575 0.9482
0.4329 -12.9466 -2.9566 0.9482
2.7203 -12.6591 -2.9553 0.9483
3.8357 -12.3651 -2.9549 0.9483
5.9667 -11.4880 -2.9546 0.9483
6.9658 -10.9118 -2.9548 0.9483
7.9102 -10.2495 -2.9551 0.9483
8.7925 -9.5063 -2.9555 0.9483
9.6019 -8.6844 -2.9550 0.9483
10.3328 -7.7923 -2.9538 0.9483
11.5563 -5.8396 -2.9553 0.9483
12.0343 -4.7896 -2.9563 0.9482
5.0515 -0.5651 -1.1602 0.9794
5.2008 -0.1159 -1.1873 0.9789
12.8377 2.0186 -2.9661 0.9481
12.6159 3.1554 -2.9682 0.9480
12.2877 4.2668 -2.9689 0.9480
10.7310 7.3665 -2.9708 0.9480
10.0365 8.2954 -2.9720 0.9480
7.4998 10.6686 -2.9765 0.9479
6.5245 11.3009 -2.9784 0.9479
5.4966 11.8448 -2.9804 0.9478
4.1989 11.6711 -2.8310 0.9504
-1.2486 12.4113 -2.8471 0.9501
-3.4361 12.0168 -2.8527 0.9500
-4.4965 11.6748 -2.8555 0.9500
-5.5230 11.2390 -2.8582 0.9499
-6.5011 10.7024 -2.8581 0.9499
-7.4271 10.0801 -2.8578 0.9499
-8.7460 9.8893 -3.0132 0.9473
-11.0717 7.2428 -3.0197 0.9472
-12.1947 5.1710 -3.0233 0.9471
-12.6127 4.0671 -3.0247 0.9471
-13.1439 1.7677 -3.0270 0.9470
-13.2527 0.5910 -3.0278 0.9470
-12.2151 -5.1796 -3.0283 0.9470
-11.5992 -6.1895 -3.0008 0.9475
-9.8775 -7.8002 -2.8727 0.9497
-9.1406 -8.6452 -2.8716 0.9497
-7.8517 -10.6564 -3.0212 0.9471
-6.7811 -11.1633 -2.9812 0.9478
-4.6626 -12.1062 -2.9610 0.9482
-3.5648 -12.4669 -2.9595 0.9482
2.1538 -12.7689 -2.9556 0.9483
3.2813 -12.5244 -2.9551 0.9483
5.4491 -11.7424 -2.9546 0.9483
6.4727 -11.2110 -2.9547 0.9483
9.2066 -9.1048 -2.9554 0.9483
11.2829 -6.3476 -2.9548 0.9483
11.8069 -5.3199 -2.9558 0.9483
5.0474 -0.7937 -1.1662 0.9793
5.1056 -0.3418 -1.1679 0.9792
5.3585 0.1194 -1.2233 0.9782
12.9105 1.4443 -2.9651 0.9481
12.7394 2.5894 -2.9671 0.9481
8.8474 9.5657 -2.9740 0.9479
7.9652 10.3208 -2.9756 0.9479
4.7129 11.4682 -2.8299 0.9504
2.6124 12.1570 -2.8381 0.9503
-0.6941 12.4486 -2.8457 0.9501
-3.9699 11.8577 -2.8541 0.9500
-6.0181 10.9817 -2.8582 0.9499
-8.2935 10.2650 -3.0121 0.9473
-9.9974 8.6451 -3.0167 0.9472
-10.7346 7.7263 -3.0187 0.9472
-11.3870 6.7446 -3.0207 0.9471
-11.9490 5.7076 -3.0224 0.9471
-12.4161 4.6238 -3.0240 0.9471
-12.3109 0.0000 -3.0260 0.9506
-11.8758 -3.2531 -3.0266 0.9505
-11.5382 -4.2969 -3.0264 0.9505
-11.1082 -5.3059 -3.0259 0.9506
-10.5894 -6.2721 -3.0252 0.9506
-7.7224 -9.5581 -3.0204 0.9506
-6.8372 -10.2018 -3.0187 0.9507
-5.8119 -10.6053 -2.9726 0.9514
-3.8248 -11.4242 -2.9613 0.9516
-1.7372 -11.9109 -2.9587 0.9516
-0.6702 -12.0188 -2.9588 0.9516
1.4707 -11.9414 -2.9574 0.9516
2.5273 -11.7610 -2.9569 0.9517
5.5435 -10.6732 -2.9562 0.9517
6.4717 -10.1378 -2.9563 0.9517
7.3474 -9.5202 -2.9559 0.9517
8.1634 -8.8262 -2.9552 0.9517
9.5988 -7.2388 -2.9551 0.9517
5.2626 -0.1173 -1.2939 0.9786
11.9236 1.8749 -2.9668 0.9515
11.7169 2.9306 -2.9687 0.9515
9.3256 7.7078 -2.9738 0.9514
7.8181 9.2473 -2.9765 0.9513
6.9677 9.9117 -2.9780 0.9513
3.9005 10.8416 -2.8321 0.9536
2.9221 11.1537 -2.8341 0.9536
1.9220 11.3945 -2.8403 0.9535
-0.1289 11.5738 -2.8450 0.9534
-1.1596 11.5267 -2.8475 0.9534
-3.1907 11.1588 -2.8527 0.9533
-4.1751 10.8405 -2.8554 0.9533
-8.1185 9.1797 -3.0122 0.9508
-10.8394 5.7841 -3.0199 0.9507
-11.3170 4.7988 -3.0215 0.9506
-11.9986 2.7185 -3.0240 0.9506
-12.1968 1.6404 -3.0250 0.9506
-12.2996 -0.5485 -3.0263 0.9506
-12.2033 -1.6412 -3.0266 0.9505
-11.7187 -3.7788 -3.0265 0.9505
-11.3345 -4.8063 -3.0261 0.9506
-10.8597 -5.7949 -3.0256 0.9506
-10.2981 -6.7366 -3.0248 0.9506
-9.4972 -7.4998 -2.9745 0.9514
-8.1426 -9.2069 -3.0211 0.9506
-6.3258 -10.4136 -2.9949 0.9511
-5.3179 -10.8216 -2.9638 0.9515
-3.3113 -11.5804 -2.9605 0.9516
-1.2049 -11.9771 -2.9588 0.9516
2.0010 -11.8629 -2.9571 0.9517
4.0717 -11.3173 -2.9564 0.9517
5.0626 -10.9096 -2.9562 0.9517
9.9128 -6.8047 -2.9554 0.9517
10.9683 -4.9421 -2.9570 0.9517
5.1025 -0.8023 -1.2696 0.9789
11.9915 1.3415 -2.9659 0.9515
11.8320 2.4050 -2.9678 0.9515
11.2308 4.4698 -2.9711 0.9514
10.7903 5.4526 -2.9716 0.9514
10.2646 6.3929 -2.9724 0.9514
6.5211 10.2152 -2.9789 0.9513
5.5895 10.7617 -2.9807 0.9513
4.3780 10.6533 -2.8311 0.9537
2.4740 7.9755 -2.0525 0.9662
1.4131 11.4734 -2.8415 0.9535
-0.6447 11.5617 -2.8463 0.9534
-1.6727 11.4688 -2.8488 0.9534
-3.6864 11.0106 -2.8541 0.9533
-4.6556 10.6476 -2.8564 0.9533
-6.4692 9.6527 -2.8562 0.9533
-8.5224 8.8121 -3.0133 0.9508
-10.5681 6.2595 -3.0191 0.9507
-11.8634 3.2497 -3.0234 0.9506
-11.2971 -2.0353 -3.0247 0.9536
-10.7564 -4.0057 -3.0245 0.9536
-10.3556 -4.9464 -3.0240 0.9536
-9.8722 -5.8473 -3.0234 0.9536
-9.3099 -6.7009 -3.0225 0.9537
-8.6736 -7.5003 -3.0215 0.9537
-7.2001 -8.9116 -3.0189 0.9537
-5.4277 -9.9042 -2.9760 0.9544
-1.6210 -11.1146 -2.9597 0.9546
1.3722 -11.1411 -2.9579 0.9546
2.3582 -10.9739 -2.9576 0.9546
4.2655 -10.3795 -2.9570 0.9546
10.0183 -5.0625 -2.9577 0.9546
5.2201 -1.0610 -1.4036 0.9782
5.1662 -0.5779 -1.3698 0.9787
5.3448 -0.1191 -1.4087 0.9781
11.2299 0.7518 -2.9657 0.9545
10.9316 2.7342 -2.9692 0.9545
10.2866 4.6349 -2.9730 0.9544
9.8358 5.5335 -2.9737 0.9544
9.3067 6.3887 -2.9745 0.9544
8.7039 7.1940 -2.9755 0.9544
7.2965 8.6304 -2.9779 0.9543
6.5026 9.2502 -2.9794 0.9543
3.6397 10.1166 -2.8330 0.9565
2.7266 10.4074 -2.8349 0.9565
1.7936 10.6332 -2.8414 0.9564
0.8407 10.7581 -2.8434 0.9563
-0.1203 10.7986 -2.8456 0.9563
-1.0818 10.7539 -2.8480 0.9563
-2.0364 10.6239 -2.8504 0.9562
-3.8939 10.1103 -2.8548 0.9562
-4.7784 9.7238 -2.8549 0.9562
-5.6247 9.2596 -2.8548 0.9562
-7.5708 8.5604 -3.0113 0.9538
-8.3081 7.8578 -3.0132 0.9538
-8.9801 7.0916 -3.0151 0.9538
-9.5812 6.2677 -3.0169 0.9537
-10.1064 5.3930 -3.0185 0.9537
-10.5513 4.4742 -3.0199 0.9537
-11.1862 2.5345 -3.0223 0.9537
-11.4644 0.5112 -3.0239 0.9536
-11.4663 -0.5113 -3.0244 0.9536
-11.3764 -1.5300 -3.0247 0.9536
-11.1953 -2.5365 -3.0247 0.9536
-10.9247 -3.5227 -3.0246 0.9536
-10.5666 -4.4806 -3.0243 0.9536
-9.0007 -7.1078 -3.0220 0.9537
-8.3292 -7.8777 -3.0209 0.9537
-7.5917 -8.5841 -3.0196 0.9537
-6.7943 -9.2212 -3.0181 0.9537
-5.9284 -9.7595 -3.0089 0.9539
-4.9659 -10.1054 -2.9669 0.9545
-4.0415 -10.4934 -2.9630 0.9546
-2.1149 -11.0334 -2.9602 0.9546
0.8745 -11.1913 -2.9579 0.9546
1.8670 -11.0685 -2.9578 0.9546
2.8445 -10.8575 -2.9575 0.9546
3.7993 -10.5599 -2.9572 0.9546
4.7233 -10.1784 -2.9567 0.9546
6.4505 -9.1759 -2.9555 0.9547
7.9755 -7.8872 -2.9556 0.9547
8.6471 -7.1470 -2.9561 0.9547
9.7815 -5.5030 -2.9573 0.9546
10.2353 -4.6118 -2.9581 0.9546
10.6088 -3.6837 -2.9591 0.9546
5.3570 -1.3399 -1.4550 0.9774
5.2264 -0.3499 -1.3802 0.9786
11.1885 1.2516 -2.9666 0.9545
11.0392 2.2438 -2.9683 0.9545
9.5807 5.9669 -2.9741 0.9544
9.0142 6.7979 -2.9750 0.9544
6.9065 8.9490 -2.9786 0.9543
5.2160 10.0427 -2.9819 0.9543
2.2611 10.5222 -2.8359 0.9565
0.3607 10.7889 -2.8445 0.9563
-1.5605 10.6996 -2.8492 0.9563
-2.5087 10.5272 -2.8516 0.9562
-3.4387 10.2709 -2.8540 0.9562
-5.2068 9.5012 -2.8548 0.9562
-6.0807 9.0731 -2.8780 0.9558
-9.8536 5.8363 -3.0177 0.9537
-11.0603 3.0297 -3.0217 0.9537
-10.7013 -0.9562 -3.0229 0.9563
-10.0682 -3.7494 -3.0228 0.9563
-9.6932 -4.6300 -3.0224 0.9563
-8.7147 -6.2724 -3.0210 0.9564
-8.1192 -7.0209 -3.0200 0.9564
-5.9681 -8.9050 -3.0161 0.9564
-5.0973 -9.3015 -2.9842 0.9569
-4.2212 -9.6541 -2.9645 0.9572
-3.3436 -9.9867 -2.9631 0.9572
-1.5186 -10.4123 -2.9606 0.9572
0.3514 -10.5102 -2.9588 0.9572
1.2852 -10.4346 -2.9580 0.9573
3.9944 -9.7197 -2.9566 0.9573
4.8433 -9.3250 -2.9564 0.9573
5.6539 -8.8567 -2.9563 0.9573
6.4199 -8.3184 -2.9564 0.9573
8.3923 -6.3289 -2.9574 0.9573
9.7736 -3.8898 -2.9597 0.9572
5.2650 -0.5890 -1.4906 0.9782
5.4583 -0.1216 -1.5361 0.9776
10.5195 0.7042 -2.9663 0.9571
10.4207 1.6386 -2.9680 0.9571
10.2393 2.5611 -2.9696 0.9571
9.2153 5.1845 -2.9749 0.9570
8.7204 5.9863 -2.9760 0.9570
7.5259 7.4425 -2.9780 0.9570
6.8364 8.0862 -2.9792 0.9570
6.0924 8.6666 -2.9806 0.9569
5.2996 9.1792 -2.9821 0.9569
4.4640 9.6197 -2.9838 0.9569
2.5542 9.7493 -2.8356 0.9590
1.6774 9.9445 -2.8375 0.9590
-0.1127 10.1152 -2.8461 0.9588
-1.0133 10.0727 -2.8483 0.9588
-1.9073 9.9504 -2.8506 0.9588
-2.7876 9.7490 -2.8529 0.9587
-3.6450 9.4641 -2.8534 0.9587
-5.2656 8.6684 -2.8536 0.9587
-6.3427 8.6085 -3.0085 0.9565
-7.7784 7.3568 -3.0123 0.9565
-8.4073 6.6392 -3.0141 0.9565
-9.8772 4.1883 -3.0185 0.9564
-10.2148 3.2939 -3.0197 0.9564
-10.6435 1.4314 -3.0216 0.9564
-10.7327 -0.4786 -3.0227 0.9563
-10.6485 -1.4321 -3.0230 0.9563
-10.4790 -2.3742 -3.0231 0.9563
-9.4764 -5.0567 -3.0221 0.9563
-8.4253 -6.6534 -3.0205 0.9564
-7.7969 -7.3743 -3.0195 0.9564
-5.5628 -9.1575 -3.0147 0.9565
-4.6576 -9.4779 -2.9713 0.9571
-1.0531 -10.4679 -2.9601 0.9572
-0.1172 -10.5168 -2.9592 0.9572
1.7485 -10.3659 -2.9577 0.9573
2.6637 -10.1673 -2.9572 0.9573
3.5576 -9.8885 -2.9568 0.9573
4.4232 -9.5317 -2.9565 0.9573
5.2538 -9.0998 -2.9564 0.9573
7.4722 -7.3894 -2.9568 0.9573
8.6667 -5.9494 -2.9577 0.9573
9.1639 -5.1555 -2.9583 0.9572
9.9390 -3.4512 -2.9602 0.9572
5.2647 -0.8278 -1.4994 0.9781
5.7327 0.1278 -1.6133 0.9765
10.3403 2.1018 -2.9688 0.9571
10.1180 3.0155 -2.9705 0.9571
8.9773 5.5911 -2.9756 0.9570
8.4463 6.3697 -2.9764 0.9570
7.1883 7.7719 -2.9786 0.9570
6.4709 8.3846 -2.9799 0.9569
4.8868 9.4087 -2.9829 0.9569
2.4738 7.9747 -2.3492 0.9659
1.2353 10.0296 -2.8432 0.9589
0.3379 10.1065 -2.8451 0.9589
-2.3496 9.8595 -2.8517 0.9588
-5.9510 8.8795 -3.0075 0.9566
-6.7222 8.3201 -3.0095 0.9565
-8.1008 7.0051 -3.0132 0.9565
-8.6970 6.2598 -3.0149 0.9565
-10.0560 3.7449 -3.0192 0.9564
-10.3532 2.8360 -3.0203 0.9564
-10.6980 0.9560 -3.0219 0.9564
-10.0910 0.0000 -3.0210 0.9587
-10.0521 -0.8982 -3.0214 0.9587
-9.9328 -1.7895 -3.0216 0.9587
-9.4574 -3.5220 -3.0213 0.9587
-9.1052 -4.3492 -3.0209 0.9587
-8.6804 -5.1414 -3.0204 0.9588
-7.6270 -6.5954 -3.0187 0.9588
-5.6068 -8.3659 -3.0150 0.9588
-4.8115 -8.7798 -2.9973 0.9591
-3.9692 -9.0778 -2.9662 0.9595
-3.1431 -9.3879 -2.9639 0.9595
-1.4276 -9.7885 -2.9615 0.9595
0.3304 -9.8804 -2.9597 0.9596
1.2082 -9.8095 -2.9590 0.9596
2.0761 -9.6612 -2.9584 0.9596
2.9273 -9.4367 -2.9580 0.9596
4.5533 -8.7666 -2.9574 0.9596
6.0355 -7.8204 -2.9574 0.9596
6.7080 -7.2526 -2.9576 0.9596
7.3277 -6.6275 -2.9579 0.9596
7.8896 -5.9498 -2.9584 0.9596
8.3895 -5.2250 -2.9589 0.9596
8.8235 -4.4587 -2.9597 0.9596
9.4806 -2.8255 -2.9617 0.9595
5.4893 -1.1158 -1.6770 0.9769
5.6341 -0.1255 -1.6871 0.9767
9.8881 0.6620 -2.9669 0.9595
9.7949 1.5402 -2.9684 0.9594
9.3768 3.2560 -2.9716 0.9594
9.0548 4.0799 -2.9733 0.9594
6.4273 7.6023 -2.9804 0.9593
5.7277 8.1477 -2.9817 0.9593
4.9821 8.6294 -2.9831 0.9592
1.5793 9.3629 -2.8426 0.9611
-0.1059 9.5079 -2.8467 0.9611
-2.6190 9.1593 -2.8520 0.9610
-3.4241 8.8905 -2.8522 0.9610
-5.1593 8.4934 -2.9751 0.9594
-5.9597 8.0886 -3.0079 0.9589
-6.6600 7.5306 -3.0097 0.9589
-7.3081 6.9120 -3.0115 0.9589
-8.4267 5.5126 -3.0146 0.9588
-9.2788 3.9346 -3.0173 0.9588
-9.5957 3.0943 -3.0184 0.9588
-9.8362 2.2286 -3.0194 0.9588
-10.0802 0.4495 -3.0208 0.9587
-10.0024 -1.3452 -3.0215 0.9587
-9.8434 -2.2301 -3.0216 0.9587
-8.9017 -4.7500 -3.0207 0.9587
-8.4417 -5.5223 -3.0200 0.9588
-7.9145 -6.2500 -3.0192 0.9588
-7.3244 -6.9274 -3.0182 0.9588
-6.6762 -7.5489 -3.0170 0.9588
-5.9753 -8.1097 -3.0157 0.9588
-3.5590 -9.2406 -2.9645 0.9595
-2.7212 -9.5165 -2.9632 0.9595
-1.8626 -9.7170 -2.9620 0.9595
-0.9900 -9.8406 -2.9610 0.9595
-0.1101 -9.8866 -2.9600 0.9596
0.7701 -9.8547 -2.9593 0.9596
4.1584 -8.9610 -2.9575 0.9596
5.6810 -8.0813 -2.9574 0.9596
7.0248 -6.9469 -2.9578 0.9596
7.6162 -6.2949 -2.9581 0.9596
8.1476 -5.5930 -2.9586 0.9596
9.3436 -3.2444 -2.9611 0.9595
9.5989 -2.4008 -2.9622 0.9595
5.3725 -0.8448 -1.6282 0.9775
5.4380 -0.3640 -1.6317 0.9775
9.8513 1.1021 -2.9677 0.9595
9.5099 2.8343 -2.9708 0.9594
9.2250 3.6715 -2.9725 0.9594
8.8666 4.4805 -2.9742 0.9594
7.9413 5.9889 -2.9778 0.9593
7.3791 6.6740 -2.9787 0.9593
6.0836 7.8827 -2.9810 0.9593
4.5940 8.8450 -2.9839 0.9592
2.4737 7.9744 -2.4996 0.9657
1.9935 9.2770 -2.8407 0.9612
1.1613 9.4287 -2.8441 0.9611
0.3176 9.5001 -2.8457 0.9611
-3.0246 9.0339 -2.8521 0.9610
-4.5786 8.3549 -2.8522 0.9610
-6.3160 7.8175 -3.0088 0.9589
-6.9909 7.2286 -3.0106 0.9589
-7.6109 6.5814 -3.0123 0.9589
-8.1708 5.8810 -3.0139 0.9588
-8.6660 5.1329 -3.0154 0.9588
-9.4467 3.5180 -3.0179 0.9588
-9.7256 2.6641 -3.0189 0.9588
-9.4717 -0.8464 -3.0201 0.9609
-9.1720 -2.5125 -3.0202 0.9609
-7.7139 -5.5521 -3.0184 0.9609
-7.1871 -6.2149 -3.0175 0.9609
-6.6032 -6.8276 -3.0165 0.9609
-5.9670 -7.3854 -3.0154 0.9609
-5.2837 -7.8838 -3.0141 0.9610
-3.7470 -8.5697 -2.9704 0.9615
-2.9636 -8.8518 -2.9646 0.9616
-2.1631 -9.0768 -2.9634 0.9616
-0.5191 -9.3101 -2.9613 0.9616
0.3115 -9.3166 -2.9605 0.9616
1.1392 -9.2498 -2.9598 0.9616
2.7603 -8.8984 -2.9589 0.9617
4.2936 -8.2667 -2.9584 0.9617
5.0122 -7.8515 -2.9583 0.9617
7.4396 -5.6104 -2.9592 0.9616
8.6641 -3.4482 -2.9615 0.9616
5.8621 -1.1915 -1.8998 0.9752
5.5594 -0.6219 -1.7766 0.9768
8.8400 3.0696 -2.9719 0.9615
8.5362 3.8463 -2.9735 0.9615
8.1722 4.5976 -2.9779 0.9614
7.7323 5.3079 -2.9786 0.9614
6.6726 6.5986 -2.9803 0.9614
5.4011 7.6832 -2.9826 0.9614
4.6979 8.1371 -2.9840 0.9613
3.9570 8.5271 -2.9855 0.9613
3.0222 8.4005 -2.8353 0.9632
2.2654 8.6470 -2.8388 0.9632
0.6980 8.9324 -2.8454 0.9631
-4.9133 8.0884 -3.0055 0.9611
-5.6171 7.6236 -3.0073 0.9610
-6.2769 7.0974 -3.0091 0.9610
-6.8875 6.5142 -3.0107 0.9610
-7.9412 5.1949 -3.0137 0.9610
-8.7438 3.7077 -3.0162 0.9609
-9.0422 2.9158 -3.0173 0.9609
-9.4211 1.2670 -3.0189 0.9609
-9.4249 -1.2675 -3.0202 0.9609
-9.2749 -2.1014 -3.0202 0.9609
-9.0507 -2.9185 -3.0201 0.9609
-8.7543 -3.7121 -3.0198 0.9609
-8.3879 -4.4759 -3.0194 0.9609
-7.9545 -5.2036 -3.0188 0.9609
-7.4579 -5.8894 -3.0180 0.9609
-6.2913 -7.1137 -3.0160 0.9609
-5.6309 -7.6423 -3.0147 0.9609
-4.9261 -8.1095 -3.0134 0.9610
-3.3557 -8.7128 -2.9652 0.9616
-2.5658 -8.9732 -2.9640 0.9616
-0.9335 -9.2792 -2.9618 0.9616
2.3614 -9.0132 -2.9591 0.9617
3.9212 -8.4499 -2.9584 0.9617
4.6575 -8.0671 -2.9583 0.9617
5.3571 -7.6205 -2.9583 0.9617
6.6241 -6.5507 -2.9587 0.9617
7.1817 -5.9358 -2.9590 0.9617
8.1237 -4.5703 -2.9602 0.9616
8.5006 -3.8302 -2.9610 0.9616
8.8105 -3.0593 -2.9620 0.9616
9.0511 -2.2638 -2.9630 0.9616
5.5845 -0.8781 -1.7953 0.9766
5.6571 -0.3787 -1.8006 0.9765
9.2881 1.0390 -2.9681 0.9615
8.6968 3.4613 -2.9727 0.9615
8.3587 4.2238 -2.9743 0.9615
7.9601 4.9576 -2.9782 0.9614
7.4891 5.6478 -2.9789 0.9614
6.9587 6.2938 -2.9798 0.9614
1.0946 8.8877 -2.8439 0.9631
0.2994 8.9572 -2.8463 0.9631
-0.4993 8.9539 -2.8480 0.9631
-1.2951 8.8799 -2.8499 0.9630
-2.0809 8.7319 -2.8508 0.9630
-2.8501 8.5129 -2.8510 0.9630
-4.4135 8.0536 -2.9166 0.9622
-6.5887 6.8127 -3.0099 0.9610
-7.7001 5.5422 -3.0130 0.9610
-8.1666 4.8371 -3.0144 0.9609
-8.9019 3.3151 -3.0168 0.9609
-9.1646 2.5104 -3.0178 0.9609
-9.3542 1.6853 -3.0186 0.9609
-9.4692 0.8462 -3.0192 0.9609
-8.9843 0.0000 -3.0186 0.9628
-8.9495 -0.7997 -3.0189 0.9628
-8.8433 -1.5932 -3.0190 0.9628
-8.6663 -2.3739 -3.0190 0.9628
-8.4201 -3.1357 -3.0188 0.9628
-7.2889 -5.2462 -3.0173 0.9628
-6.7912 -5.8725 -3.0165 0.9628
-4.9930 -7.4500 -3.0132 0.9629
-3.5456 -8.1091 -2.9736 0.9633
-2.8019 -8.3688 -2.9652 0.9634
-1.2728 -8.7267 -2.9631 0.9635
1.0772 -8.7458 -2.9606 0.9635
3.3481 -8.1470 -2.9594 0.9635
4.0596 -7.8162 -2.9592 0.9635
5.9807 -6.4663 -2.9594 0.9635
7.0344 -5.3049 -2.9601 0.9635
7.4801 -4.6587 -2.9607 0.9635
7.8670 -3.9753 -2.9615 0.9635
8.1919 -3.2603 -2.9623 0.9635
8.6459 -1.7573 -2.9643 0.9635
8.7714 -0.9812 -2.9654 0.9634
8.8275 -0.1967 -2.9666 0.9634
8.7303 1.3728 -2.9693 0.9634
7.7277 4.3475 -2.9790 0.9633
6.8375 5.6514 -2.9804 0.9633
5.1068 7.2646 -2.9835 0.9632
4.4419 7.6936 -2.9848 0.9632
3.7412 8.0621 -2.9862 0.9632
1.4069 8.3404 -2.8418 0.9649
-0.0944 8.4728 -2.8469 0.9649
-0.8486 8.4358 -2.8486 0.9649
-2.3320 8.1556 -2.8500 0.9648
-3.0488 7.9162 -2.8501 0.9648
-4.6436 7.6445 -3.0051 0.9630
-6.5089 6.1561 -3.0100 0.9629
-7.0344 5.5550 -3.0115 0.9629
-7.9147 4.2235 -3.0141 0.9629
-8.2623 3.5036 -3.0153 0.9628
-8.5442 2.7552 -3.0162 0.9628
-8.7579 1.9843 -3.0171 0.9628
-8.9019 1.1972 -3.0178 0.9628
-8.9747 0.4002 -3.0183 0.9628
-8.9759 -0.4002 -3.0187 0.9628
-8.9053 -1.1976 -3.0190 0.9628
-8.7636 -1.9855 -3.0190 0.9628
-8.5518 -2.7576 -3.0189 0.9628
-8.2717 -3.5075 -3.0187 0.9628
-7.0470 -5.5650 -3.0169 0.9628
-6.5218 -6.1683 -3.0160 0.9628
-5.9449 -6.7220 -3.0150 0.9628
-5.3210 -7.2217 -3.0138 0.9629
-4.6551 -7.6634 -3.0126 0.9629
-3.9233 -7.9837 -2.9888 0.9632
-1.6605 -8.6628 -2.9636 0.9635
-0.8826 -8.7734 -2.9626 0.9635
-0.0982 -8.8146 -2.9617 0.9635
2.9819 -8.2884 -2.9595 0.9635
3.7075 -7.9895 -2.9593 0.9635
4.4037 -7.6275 -2.9592 0.9635
5.6866 -6.7261 -2.9593 0.9635
7.6811 -4.3213 -2.9611 0.9635
8.7172 -1.3707 -2.9648 0.9634
8.8294 0.1968 -2.9672 0.9634
8.6625 1.7607 -2.9700 0.9634
8.4755 2.5260 -2.9714 0.9634
7.9012 3.9927 -2.9743 0.9633
7.0815 5.3404 -2.9800 0.9633
6.5799 5.9512 -2.9808 0.9633
4.0957 7.8856 -2.9855 0.9632
3.3792 8.2228 -2.9869 0.9632
2.4734 7.9736 -2.8049 0.9654
1.7760 8.2650 -2.8403 0.9650
1.0345 8.3991 -2.8432 0.9649
0.2830 8.4653 -2.8458 0.9649
-1.9663 8.2510 -2.8498 0.9648
-3.3985 7.7727 -2.8502 0.9648
-4.2972 7.8415 -3.0043 0.9630
-5.6258 6.9632 -3.0077 0.9629
-6.2266 6.4383 -3.0093 0.9629
-6.7783 5.8615 -3.0108 0.9629
-7.2765 5.2374 -3.0122 0.9629
-7.7172 4.5709 -3.0135 0.9629
-8.0966 3.8674 -3.0147 0.9628
-8.8387 1.5924 -3.0175 0.9628
-8.4770 -0.7575 -3.0178 0.9645
-8.2087 -2.2486 -3.0179 0.9645
-7.6786 -3.6678 -3.0174 0.9645
-7.3206 -4.3360 -3.0169 0.9645
-6.9042 -4.9693 -3.0163 0.9645
-5.3412 -6.6108 -3.0136 0.9646
-4.0811 -7.4471 -3.0112 0.9646
-1.9383 -8.1332 -2.9647 0.9651
-0.4652 -8.3428 -2.9629 0.9652
2.4736 -7.9742 -2.9605 0.9652
3.1732 -7.7216 -2.9602 0.9652
3.8477 -7.4081 -2.9600 0.9652
4.4917 -7.0361 -2.9599 0.9652
6.6671 -5.0279 -2.9610 0.9652
7.0895 -4.4154 -2.9615 0.9652
7.7639 -3.0900 -2.9630 0.9652
8.0105 -2.3874 -2.9639 0.9651
8.3127 -0.9299 -2.9659 0.9651
8.1282 2.0330 -2.9709 0.9651
7.9187 2.7497 -2.9723 0.9650
7.6461 3.4452 -2.9737 0.9650
6.4808 5.3566 -2.9813 0.9649
5.9800 5.9138 -2.9822 0.9649
5.4317 6.4247 -2.9832 0.9649
4.2098 7.2916 -2.9855 0.9649
2.0287 7.7436 -2.8384 0.9666
0.6248 7.9956 -2.8438 0.9665
-0.0894 8.0255 -2.8459 0.9665
-1.5123 7.8898 -2.8485 0.9665
-2.2090 7.7253 -2.8491 0.9665
-3.7353 7.6012 -3.0031 0.9647
-4.3995 7.2426 -3.0048 0.9647
-5.6198 6.3545 -3.0080 0.9646
-7.1088 4.6504 -3.0121 0.9646
-7.8265 3.3187 -3.0144 0.9646
-8.2957 1.8796 -3.0161 0.9645
-8.4320 1.1340 -3.0168 0.9645
-8.5009 0.3791 -3.0173 0.9645
-8.5019 -0.3791 -3.0177 0.9645
-8.4351 -1.1344 -3.0179 0.9645
-8.3008 -1.8807 -3.0179 0.9645
-8.1002 -2.6119 -3.0178 0.9645
-7.1195 -4.6573 -3.0166 0.9645
-6.6751 -5.2713 -3.0159 0.9645
-6.1777 -5.8429 -3.0151 0.9646
-5.0404 -6.8409 -3.0130 0.9646
-3.7319 -7.5942 -3.0004 0.9647
-2.2990 -8.0402 -2.9652 0.9651
-0.0931 -8.3542 -2.9625 0.9652
0.6507 -8.3273 -2.9617 0.9652
1.3890 -8.2346 -2.9611 0.9652
2.8262 -7.8556 -2.9603 0.9652
3.5139 -7.5723 -2.9601 0.9652
4.1738 -7.2292 -2.9599 0.9652
4.8007 -6.8291 -2.9600 0.9652
5.3897 -6.3749 -2.9601 0.9652
6.8851 -4.7264 -2.9612 0.9652
7.2800 -4.0956 -2.9619 0.9652
8.1102 -2.0285 -2.9644 0.9651
8.2615 -1.2990 -2.9654 0.9651
8.3474 -0.5588 -2.9665 0.9651
8.3674 0.1865 -2.9677 0.9651
8.3211 0.9309 -2.9690 0.9651
8.2089 1.6685 -2.9703 0.9651
8.0314 2.3936 -2.9716 0.9651
7.1345 4.4434 -2.9803 0.9650
6.2366 5.6407 -2.9817 0.9649
5.7116 6.1753 -2.9827 0.9649
4.5295 7.0954 -2.9849 0.9649
3.8817 7.4735 -2.9861 0.9649
3.2025 7.7929 -2.9875 0.9649
1.6826 7.8303 -2.8399 0.9666
0.9799 7.9565 -2.8426 0.9665
0.2681 8.0186 -2.8449 0.9665
-1.1592 7.9482 -2.8481 0.9665
-2.5510 7.6196 -2.8492 0.9665
-4.7190 7.0413 -3.0056 0.9647
-6.8931 4.9614 -3.0115 0.9646
-7.3104 4.3299 -3.0127 0.9646
-7.9679 2.9673 -3.0149 0.9646
-8.2027 2.2470 -3.0157 0.9645
-8.3722 1.5083 -3.0165 0.9645
-8.4749 0.7573 -3.0171 0.9645
-8.0470 -0.7191 -3.0168 0.9661
-7.7923 -2.1345 -3.0169 0.9661
-7.5710 -2.8194 -3.0168 0.9661
-7.2892 -3.4817 -3.0164 0.9661
-6.9494 -4.1161 -3.0160 0.9661
-6.5541 -4.7174 -3.0154 0.9661
-6.1068 -5.2807 -3.0147 0.9661
-5.6109 -5.8017 -3.0138 0.9661
-3.8746 -7.0702 -3.0105 0.9662
-2.5220 -7.5327 -2.9663 0.9667
-1.8409 -7.7247 -2.9653 0.9667
-1.1457 -7.8554 -2.9643 0.9667
-0.4418 -7.9240 -2.9635 0.9667
1.6663 -7.7543 -2.9616 0.9667
2.3495 -7.5742 -2.9612 0.9667
5.3842 -5.8213 -2.9610 0.9667
5.8816 -5.3196 -2.9613 0.9667
7.3741 -2.9348 -2.9636 0.9667
7.6083 -2.2675 -2.9645 0.9667
7.9325 0.5310 -2.9687 0.9666
7.8569 1.2355 -2.9699 0.9666
7.7191 1.9307 -2.9712 0.9666
7.2609 3.2716 -2.9738 0.9666
5.6801 5.6172 -2.9830 0.9665
3.9984 6.9255 -2.9861 0.9664
3.3676 7.2570 -2.9874 0.9664
0.5931 7.5906 -2.8430 0.9680
-0.0849 7.6186 -2.8450 0.9680
-2.0970 7.3336 -2.8482 0.9680
-2.7419 7.1192 -2.8487 0.9680
-3.5467 7.2174 -3.0029 0.9662
-5.8542 5.5369 -3.0089 0.9662
-6.3265 4.9961 -3.0102 0.9662
-7.8752 1.7843 -3.0152 0.9661
-7.6893 -2.4795 -3.0169 0.9661
-7.4375 -3.1538 -3.0166 0.9661
-7.1264 -3.8028 -3.0162 0.9661
-6.7585 -4.4212 -3.0157 0.9661
-6.3367 -5.0041 -3.0151 0.9661
-4.7852 -6.4945 -3.0123 0.9661
-2.1835 -7.6363 -2.9657 0.9667
-1.4947 -7.7978 -2.9648 0.9667
-0.7945 -7.8975 -2.9639 0.9667
1.3193 -7.8215 -2.9619 0.9667
2.6845 -7.4616 -2.9611 0.9667
3.9645 -6.8666 -2.9607 0.9667
5.1194 -6.0552 -2.9609 0.9667
5.6385 -5.5760 -2.9611 0.9667
7.2351 -3.2600 -2.9633 0.9667
7.7029 -1.9266 -2.9649 0.9667
7.8464 -1.2338 -2.9659 0.9667
7.9467 0.1771 -2.9681 0.9666
7.9025 0.8840 -2.9693 0.9666
6.7769 4.2207 -2.9812 0.9665
5.4251 5.8655 -2.9835 0.9665
4.3022 6.7392 -2.9855 0.9664
2.2963 7.4026 -2.8941 0.9674
1.5976 7.4345 -2.8395 0.9681
0.2545 7.6122 -2.8441 0.9680
-0.4243 7.6095 -2.8459 0.9680
-1.1004 7.5449 -2.8471 0.9680
-1.7681 7.4191 -2.8479 0.9680
-2.4217 7.2333 -2.8483 0.9680
-3.1919 7.3001 -2.9751 0.9666
-6.0964 5.2718 -3.0095 0.9662
-6.5442 4.7103 -3.0108 0.9662
-8.0451 0.7189 -3.0161 0.9661
-7.6837 0.0000 -3.0156 0.9675
-7.4117 -2.0302 -3.0160 0.9675
-6.9332 -3.3117 -3.0156 0.9675
-6.2341 -4.4870 -3.0146 0.9675
-4.8232 -5.9698 -3.0121 0.9676
-4.2713 -6.3732 -3.0111 0.9676
-3.0560 -6.9891 -2.9938 0.9678
-1.0903 -7.4753 -2.9649 0.9681
0.2523 -7.5464 -2.9634 0.9681
0.9228 -7.4925 -2.9628 0.9681
1.5857 -7.3794 -2.9623 0.9681
2.2360 -7.2081 -2.9619 0.9681
4.0602 -6.3602 -2.9615 0.9681
4.6103 -5.9737 -2.9615 0.9681
5.5973 -5.0624 -2.9620 0.9681
6.4082 -3.9910 -2.9629 0.9681
7.0174 -2.7929 -2.9642 0.9681
7.2401 -2.1578 -2.9650 0.9681
7.5603 -0.1685 -2.9679 0.9680
6.2648 4.3005 -2.9823 0.9679
5.8585 4.8421 -2.9830 0.9679
4.9098 5.8074 -2.9846 0.9679
4.3749 6.2234 -2.9856 0.9678
2.5784 7.1667 -2.9892 0.9678
1.8668 7.1256 -2.8910 0.9688
0.5642 7.2202 -2.8423 0.9694
-0.0807 7.2465 -2.8442 0.9693
-0.7258 7.2143 -2.8457 0.9693
-1.3655 7.1236 -2.8467 0.9693
-5.5689 5.2671 -3.0084 0.9676
-7.4907 1.6972 -3.0144 0.9675
-7.6135 1.0239 -3.0150 0.9675
-7.6757 0.3423 -3.0155 0.9675
-7.0743 -2.9997 -3.0157 0.9675
-6.7784 -3.6170 -3.0154 0.9675
-6.4285 -4.2053 -3.0149 0.9675
-6.0274 -4.7598 -3.0142 0.9675
-5.5784 -5.2760 -3.0135 0.9675
-5.0852 -5.7499 -3.0126 0.9676
-3.9824 -6.5559 -3.0105 0.9676
-3.3818 -6.8816 -3.0093 0.9676
-2.0778 -7.2666 -2.9662 0.9680
-1.4224 -7.4204 -2.9653 0.9681
-0.7561 -7.5154 -2.9645 0.9681
1.2555 -7.4433 -2.9626 0.9681
1.9128 -7.3009 -2.9621 0.9681
3.1764 -6.8449 -2.9616 0.9681
4.3395 -6.1730 -2.9615 0.9681
5.3659 -5.3065 -2.9618 0.9681
6.2235 -4.2722 -2.9626 0.9681
6.5803 -3.7020 -2.9632 0.9681
6.8852 -3.1023 -2.9639 0.9681
7.3301 -1.8333 -2.9655 0.9681
7.5440 -0.5050 -2.9674 0.9680
7.4178 1.5078 -2.9708 0.9680
7.0388 2.8014 -2.9733 0.9680
6.7805 3.4263 -2.9816 0.9679
6.4496 4.0168 -2.9821 0.9679
5.6376 5.0989 -2.9833 0.9679
5.1629 5.5821 -2.9842 0.9679
4.6470 6.0213 -2.9851 0.9678
4.0941 6.4133 -2.9862 0.9678
3.5084 6.7548 -2.9873 0.9678
2.8944 7.0432 -2.9886 0.9678
0.8850 7.1853 -2.8413 0.9694
0.2421 7.2406 -2.8433 0.9693
-1.6817 7.0567 -2.8471 0.9693
-2.3037 6.8809 -2.8479 0.9693
-3.6777 6.7110 -3.0034 0.9677
-4.2625 6.3602 -3.0049 0.9676
-4.8140 5.9584 -3.0063 0.9676
-5.3276 5.5087 -3.0077 0.9676
-5.7993 5.0149 -3.0090 0.9676
-6.6016 3.9102 -3.0113 0.9676
-6.9258 3.3082 -3.0124 0.9676
-7.1949 2.6795 -3.0133 0.9675
-7.4068 2.0289 -3.0140 0.9675
-7.3214 0.0000 -3.0148 0.9688
-7.2930 -0.6517 -3.0151 0.9688
-6.6063 -3.1555 -3.0148 0.9688
-4.0702 -6.0731 -3.0105 0.9689
-3.5122 -6.4090 -3.0094 0.9689
-2.9215 -6.6816 -3.0028 0.9689
-1.6699 -7.0072 -2.9662 0.9693
-0.4008 -7.1884 -2.9647 0.9693
0.2405 -7.1940 -2.9640 0.9693
0.8797 -7.1426 -2.9634 0.9693
3.3157 -6.3838 -2.9622 0.9694
3.8707 -6.0633 -2.9621 0.9694
4.3951 -5.6948 -2.9622 0.9694
4.8848 -5.2814 -2.9624 0.9694
5.3360 -4.8261 -2.9627 0.9694
6.1089 -3.8046 -2.9635 0.9693
6.4246 -3.2465 -2.9641 0.9693
6.6896 -2.6624 -2.9648 0.9693
6.9018 -2.0569 -2.9656 0.9693
7.0595 -1.4349 -2.9664 0.9693
7.1614 -0.8011 -2.9673 0.9693
7.1949 0.4817 -2.9694 0.9693
7.0009 1.7511 -2.9716 0.9693
6.8199 2.3681 -2.9728 0.9693
6.6003 2.9740 -2.9810 0.9692
6.3127 3.5515 -2.9826 0.9692
5.9725 4.0999 -2.9831 0.9691
5.1533 5.0962 -2.9844 0.9691
4.6806 5.5363 -2.9853 0.9691
3.6273 6.2826 -2.9873 0.9691
2.4578 6.8316 -2.9896 0.9691
1.1497 6.8158 -2.8462 0.9705
0.5376 6.8800 -2.8417 0.9706
-0.0769 6.9049 -2.8435 0.9706
-0.6915 6.8740 -2.8449 0.9706
-1.3011 6.7876 -2.8459 0.9705
-1.9117 6.6857 -2.8634 0.9704
-3.7873 6.2348 -3.0039 0.9689
-4.8371 5.4695 -3.0066 0.9689
-5.3070 5.0193 -3.0079 0.9689
-5.7349 4.5288 -3.0091 0.9689
-6.1175 4.0019 -3.0102 0.9689
-6.4516 3.4427 -3.0112 0.9689
-7.1376 1.6172 -3.0136 0.9688
-7.2546 0.9757 -3.0142 0.9688
-7.2569 -0.9759 -3.0152 0.9688
-7.1414 -1.6180 -3.0152 0.9688
-6.4588 -3.4465 -3.0146 0.9688
-6.1254 -4.0070 -3.0141 0.9688
-5.3156 -5.0274 -3.0128 0.9688
-4.3374 -5.8868 -3.0110 0.9689
-2.6014 -6.7543 -2.9805 0.9692
-1.9807 -6.9269 -2.9667 0.9693
-0.7207 -7.1643 -2.9650 0.9693
-0.0802 -7.1983 -2.9643 0.9693
0.5607 -7.1754 -2.9637 0.9693
1.1969 -7.0957 -2.9632 0.9694
1.8235 -6.9601 -2.9628 0.9694
2.4354 -6.7694 -2.9625 0.9694
3.0281 -6.5254 -2.9622 0.9694
4.6445 -5.4936 -2.9623 0.9694
5.1154 -5.0587 -2.9625 0.9694
5.5460 -4.5839 -2.9628 0.9694
6.2729 -3.5291 -2.9638 0.9693
6.8024 -2.3620 -2.9652 0.9693
7.1175 -1.1192 -2.9669 0.9693
7.1912 -0.4814 -2.9678 0.9693
6.7090 2.6702 -2.9734 0.9692
6.4642 3.2665 -2.9824 0.9692
6.1487 3.8295 -2.9828 0.9692
5.3745 4.8610 -2.9841 0.9691
3.9028 6.1137 -2.9867 0.9691
1.4884 6.9265 -2.9173 0.9698
0.2307 6.8994 -2.8426 0.9706
-0.3845 6.8964 -2.8442 0.9706
-0.9972 6.8377 -2.8454 0.9706
-1.6024 6.7241 -2.8464 0.9705
-2.2778 6.8036 -2.9545 0.9694
-2.9204 6.6791 -3.0018 0.9690
-4.5877 5.6782 -3.0060 0.9689
-5.0770 5.2496 -3.0073 0.9689
-5.9321 4.2697 -3.0097 0.9689
-6.2908 3.7261 -3.0107 0.9689
-6.5996 3.1524 -3.0117 0.9689
-7.0577 1.9333 -3.0133 0.9688
-7.2033 1.2978 -3.0139 0.9688
-6.9874 0.0000 -3.0141 0.9700
-6.9603 -0.6220 -3.0143 0.9700
-6.8775 -1.2390 -3.0144 0.9700
-6.7399 -1.8462 -3.0144 0.9700
-6.5485 -2.4387 -3.0143 0.9700
-4.8538 -5.0188 -3.0117 0.9700
-3.8847 -5.7964 -3.0099 0.9701
-2.7929 -6.3876 -3.0072 0.9701
-1.5943 -6.6902 -2.9667 0.9705
0.2297 -6.8687 -2.9645 0.9705
0.8399 -6.8198 -2.9640 0.9705
3.1659 -6.0954 -2.9628 0.9705
5.8328 -3.6327 -2.9641 0.9705
6.8373 -0.7649 -2.9677 0.9705
6.8033 1.0698 -2.9707 0.9704
6.6836 1.6717 -2.9718 0.9704
6.0277 3.3911 -2.9833 0.9703
5.7028 3.9148 -2.9838 0.9703
5.3328 4.4077 -2.9844 0.9703
4.4691 5.2860 -2.9859 0.9703
3.9820 5.6646 -2.9868 0.9703
3.4632 5.9985 -2.9878 0.9703
2.9167 6.2852 -2.9889 0.9703
-1.9042 6.6593 -2.9877 0.9703
-3.0697 6.2466 -3.0023 0.9701
-3.6151 5.9513 -3.0037 0.9701
-4.1323 5.6084 -3.0050 0.9701
-4.6170 5.2205 -3.0063 0.9701
-5.8388 3.8196 -3.0097 0.9701
-6.4275 2.7255 -3.0115 0.9700
-6.9808 -0.3113 -3.0142 0.9700
-6.8155 -1.5442 -3.0145 0.9700
-6.1641 -3.2893 -3.0138 0.9700
-5.8460 -3.8243 -3.0134 0.9700
-5.0732 -4.7982 -3.0121 0.9700
-4.6248 -5.2293 -3.0113 0.9700
-4.1398 -5.6185 -3.0104 0.9701
-3.6221 -5.9627 -3.0094 0.9701
-1.8929 -6.6198 -2.9699 0.9705
-1.2946 -6.7536 -2.9663 0.9705
0.5354 -6.8510 -2.9643 0.9705
1.1428 -6.7751 -2.9638 0.9705
1.7411 -6.6455 -2.9634 0.9705
2.3254 -6.4636 -2.9631 0.9705
3.4342 -5.9483 -2.9628 0.9705
4.8843 -4.8302 -2.9631 0.9705
5.2954 -4.3767 -2.9634 0.9705
5.9894 -3.3695 -2.9644 0.9705
6.4947 -2.2552 -2.9656 0.9705
6.7954 -1.0685 -2.9673 0.9705
6.8816 0.1534 -2.9692 0.9705
6.8430 0.7655 -2.9702 0.9704
6.7502 1.3721 -2.9713 0.9704
6.6037 1.9681 -2.9724 0.9704
6.4064 2.5497 -2.9743 0.9704
5.8710 3.6565 -2.9835 0.9703
5.1317 4.6414 -2.9847 0.9703
4.6994 5.0810 -2.9855 0.9703
3.7264 5.8373 -2.9873 0.9703
1.4572 6.7812 -2.9919 0.9702
0.8247 6.6962 -2.9103 0.9710
0.2202 6.5857 -2.8424 0.9717
-3.3457 6.1051 -3.0030 0.9701
-4.3790 5.4199 -3.0056 0.9701
-4.8460 5.0108 -3.0069 0.9701
-5.6619 4.0752 -3.0092 0.9701
-6.2988 3.0087 -3.0111 0.9700
-6.5434 2.4368 -3.0119 0.9700
-6.8748 1.2386 -3.0132 0.9700
-6.9589 0.6219 -3.0137 0.9700
-6.6524 -0.5945 -3.0136 0.9711
-6.5733 -1.1842 -3.0137 0.9711
-5.4187 -3.9001 -3.0125 0.9711
-4.6393 -4.7970 -3.0111 0.9711
-4.1928 -5.1895 -3.0103 0.9711
-3.2042 -5.8470 -3.0084 0.9712
-2.0959 -6.2603 -2.9789 0.9714
-1.5244 -6.3966 -2.9671 0.9716
0.8031 -6.5208 -2.9645 0.9716
1.3801 -6.4225 -2.9641 0.9716
1.9461 -6.2734 -2.9638 0.9716
3.0271 -5.8283 -2.9634 0.9716
3.5338 -5.5356 -2.9633 0.9716
4.0126 -5.1992 -2.9634 0.9716
4.8715 -4.4060 -2.9638 0.9716
6.1069 -2.4305 -2.9658 0.9716
6.3005 -1.8777 -2.9665 0.9716
6.4443 -1.3098 -2.9672 0.9716
6.5372 -0.7313 -2.9681 0.9715
6.5783 -0.1466 -2.9690 0.9715
6.5674 0.4396 -2.9699 0.9715
6.3898 1.5982 -2.9720 0.9715
6.2245 2.1614 -2.9731 0.9715
5.7636 3.2426 -2.9840 0.9714
5.4530 3.7433 -2.9844 0.9714
5.0991 4.2146 -2.9850 0.9714
4.2731 5.0543 -2.9864 0.9714
3.8075 5.4162 -2.9873 0.9714
3.3113 5.7354 -2.9883 0.9714
2.7887 6.0095 -2.9893 0.9713
1.6803 6.4136 -2.9916 0.9713
-1.2470 6.5057 -2.9889 0.9713
-1.8276 6.3913 -2.9994 0.9712
-3.4557 5.6890 -3.0034 0.9712
-3.9500 5.3610 -3.0047 0.9712
-5.8855 3.1406 -3.0101 0.9711
-6.5109 1.4752 -3.0123 0.9711
-6.5140 -1.4759 -3.0137 0.9711
-5.8915 -3.1438 -3.0132 0.9711
-4.8490 -4.5861 -3.0115 0.9711
-4.4204 -4.9982 -3.0108 0.9711
-2.3888 -6.2023 -2.9990 0.9713
-1.8112 -6.3342 -2.9727 0.9715
-0.0732 -6.5714 -2.9653 0.9716
4.2403 -5.0154 -2.9635 0.9716
4.6702 -4.6184 -2.9637 0.9716
5.4164 -3.7181 -2.9644 0.9716
6.3787 -1.5954 -2.9668 0.9716
6.4971 -1.0216 -2.9676 0.9716
6.5424 0.7319 -2.9704 0.9715
6.4535 1.3117 -2.9715 0.9715
6.1334 2.4411 -2.9786 0.9714
5.2813 3.9828 -2.9847 0.9714
4.9069 4.4380 -2.9853 0.9714
4.0443 5.2404 -2.9868 0.9714
3.5630 5.5813 -2.9878 0.9714
3.0531 5.8782 -2.9888 0.9714
2.5187 6.1288 -2.9898 0.9713
1.9639 6.3311 -2.9910 0.9713
0.2187 6.5412 -2.9532 0.9717
-0.9448 6.4778 -2.9538 0.9717
-2.1109 6.3050 -3.0001 0.9712
-2.6649 6.0948 -3.0015 0.9712
-3.1982 5.8360 -3.0028 0.9712
-4.1858 5.1808 -3.0053 0.9712
-4.6321 4.7896 -3.0065 0.9712
-5.4119 3.8953 -3.0087 0.9712
-5.7389 3.3992 -3.0096 0.9712
-6.0205 2.8758 -3.0105 0.9711
-6.2542 2.3291 -3.0113 0.9711
-6.4381 1.7636 -3.0120 0.9711
-6.3914 0.0000 -3.0128 0.9721
-6.2908 -1.1333 -3.0131 0.9721
-6.1649 -1.6887 -3.0131 0.9721
-5.9899 -2.2306 -3.0129 0.9721
-5.1859 -3.7326 -3.0119 0.9721
-4.8322 -4.1785 -3.0113 0.9721
-4.4401 -4.5910 -3.0106 0.9722
-4.0128 -4.9667 -3.0098 0.9722
-2.5556 -5.8448 -3.0070 0.9722
-1.4608 -6.1298 -2.9704 0.9725
0.2102 -6.2876 -2.9655 0.9726
0.7689 -6.2429 -2.9650 0.9726
1.3213 -6.1488 -2.9646 0.9726
1.8631 -6.0062 -2.9643 0.9726
2.3902 -5.8161 -2.9640 0.9726
3.8417 -4.9778 -2.9639 0.9726
5.0215 -3.7869 -2.9647 0.9726
5.6152 -2.8374 -2.9656 0.9726
6.1695 -1.2540 -2.9676 0.9725
6.2583 -0.7001 -2.9684 0.9725
6.2871 0.4209 -2.9702 0.9725
6.2267 0.9791 -2.9712 0.9725
5.7721 2.6008 -2.9843 0.9724
5.5183 3.1046 -2.9846 0.9724
5.2208 3.5839 -2.9850 0.9724
4.5044 4.4546 -2.9862 0.9724
3.6452 5.1854 -2.9878 0.9724
1.0561 6.2612 -2.9930 0.9723
0.4949 6.3329 -2.9943 0.9723
-0.0708 6.3545 -2.9955 0.9723
-1.7494 6.1179 -2.9994 0.9723
-2.2879 5.9405 -3.0007 0.9722
-3.7808 5.1313 -3.0044 0.9722
-5.0076 3.9545 -3.0077 0.9722
-5.3414 3.4942 -3.0087 0.9722
-5.8796 2.4932 -3.0104 0.9722
-6.2313 1.4119 -3.0117 0.9721
-6.3853 -0.2847 -3.0129 0.9721
-6.3350 -0.8520 -3.0130 0.9721
-6.2341 -1.4124 -3.0131 0.9721
-6.0835 -1.9617 -3.0130 0.9721
-4.6407 -4.3891 -3.0110 0.9721
-3.7870 -5.1398 -3.0094 0.9722
-3.3135 -5.4548 -3.0085 0.9722
-2.2905 -5.9471 -3.0041 0.9722
-1.1850 -6.1820 -2.9671 0.9725
2.1288 -5.9170 -2.9641 0.9726
3.1439 -5.4453 -2.9639 0.9726
3.6161 -5.1439 -2.9639 0.9726
4.0597 -4.8018 -2.9640 0.9726
4.8475 -4.0066 -2.9645 0.9726
5.1856 -3.5597 -2.9649 0.9726
5.7365 -2.5847 -2.9659 0.9726
6.1067 -1.5273 -2.9672 0.9725
6.2986 0.1404 -2.9697 0.9725
6.2631 0.7006 -2.9707 0.9725
6.1779 1.2557 -2.9717 0.9725
5.8820 2.3410 -2.9841 0.9724
5.6508 2.8555 -2.9844 0.9724
5.3749 3.3475 -2.9848 0.9724
5.0564 3.8132 -2.9853 0.9724
4.3021 4.6513 -2.9866 0.9724
3.8720 5.0171 -2.9873 0.9724
2.4112 5.8674 -2.9902 0.9723
1.8801 6.0610 -2.9913 0.9723
1.3337 6.2067 -2.9925 0.9723
0.2123 6.3500 -2.9949 0.9723
-0.3539 6.3464 -2.9962 0.9723
-1.4748 6.1884 -2.9988 0.9723
-2.0206 6.0352 -3.0000 0.9722
-2.5508 5.8339 -3.0013 0.9722
-3.0612 5.5860 -3.0026 0.9722
-3.5477 5.2936 -3.0038 0.9722
-4.0064 4.9588 -3.0050 0.9722
-4.8257 4.1729 -3.0072 0.9722
-5.9856 2.2291 -3.0108 0.9722
-6.1616 1.6879 -3.0114 0.9721
-6.3653 0.5688 -3.0124 0.9721
-6.1002 -0.5451 -3.0124 0.9731
-6.0277 -1.0859 -3.0125 0.9731
-5.9071 -1.6181 -3.0125 0.9731
-5.7393 -2.1373 -3.0123 0.9731
-5.5259 -2.6395 -3.0121 0.9731
-5.2685 -3.1205 -3.0117 0.9731
-4.9691 -3.5765 -3.0113 0.9731
-4.2545 -4.3991 -3.0101 0.9731
-3.8451 -4.7591 -3.0094 0.9731
-2.9387 -5.3624 -3.0076 0.9731
-2.4489 -5.6008 -3.0066 0.9731
-0.8706 -5.9693 -2.9671 0.9735
-0.3358 -6.0219 -2.9665 0.9735
0.2015 -6.0267 -2.9659 0.9735
0.7370 -5.9839 -2.9655 0.9735
3.6823 -4.7713 -2.9644 0.9735
4.0926 -4.4248 -2.9646 0.9735
4.4705 -4.0433 -2.9648 0.9735
5.1179 -3.1874 -2.9655 0.9735
5.3822 -2.7197 -2.9660 0.9735
5.7815 -1.7230 -2.9672 0.9735
6.0360 -0.1345 -2.9695 0.9734
6.0258 0.4034 -2.9704 0.9734
5.9678 0.9384 -2.9714 0.9734
5.7188 1.9858 -2.9776 0.9734
5.0044 3.4353 -2.9856 0.9733
4.6796 3.8678 -2.9861 0.9733
3.0386 5.2630 -2.9891 0.9733
2.0587 5.7222 -2.9911 0.9733
1.0122 6.0009 -2.9933 0.9732
-0.0678 6.0902 -2.9956 0.9732
-1.1475 5.9866 -2.9981 0.9732
-2.1926 5.6929 -3.0006 0.9732
-2.6917 5.4774 -3.0018 0.9732
-3.1698 5.2182 -3.0030 0.9732
-4.0478 4.5770 -3.0053 0.9731
-4.7985 3.7894 -3.0074 0.9731
-5.6339 2.3890 -3.0099 0.9731
-5.9707 1.3528 -3.0112 0.9731
-6.0684 0.8162 -3.0116 0.9731
-6.1182 -0.2728 -3.0123 0.9731
-6.0700 -0.8163 -3.0124 0.9731
-5.9733 -1.3534 -3.0125 0.9731
-4.8044 -3.7939 -3.0110 0.9731
-4.4467 -4.2057 -3.0104 0.9731
-4.0538 -4.5837 -3.0097 0.9731
-3.6288 -4.9250 -3.0089 0.9731
-3.1751 -5.2270 -3.0081 0.9731
-2.1966 -5.7034 -3.0061 0.9731
-0.0672 -6.0303 -2.9662 0.9735
1.0028 -5.9447 -2.9652 0.9735
2.0405 -5.6716 -2.9646 0.9735
2.5370 -5.4671 -2.9645 0.9735
3.0135 -5.2195 -2.9644 0.9735
4.9705 -3.4120 -2.9653 0.9735
5.2552 -2.9565 -2.9658 0.9735
5.6983 -1.9786 -2.9669 0.9735
5.8532 -1.4639 -2.9676 0.9735
5.9617 -0.9374 -2.9683 0.9735
6.0231 -0.4032 -2.9691 0.9734
6.0368 0.1346 -2.9700 0.9734
6.0027 0.6715 -2.9709 0.9734
5.9210 1.2035 -2.9718 0.9734
5.7923 1.7263 -2.9728 0.9734
5.6382 2.2440 -2.9847 0.9733
5.1521 3.2087 -2.9853 0.9733
4.5031 4.0728 -2.9864 0.9733
4.1236 4.4584 -2.9870 0.9733
3.7114 4.8090 -2.9878 0.9733
2.8016 5.3940 -2.9896 0.9733
1.8020 5.8092 -2.9916 0.9733
0.2035 6.0859 -2.9950 0.9732
-0.3391 6.0823 -2.9963 0.9732
-0.8795 6.0305 -2.9975 0.9732
-2.4445 5.5908 -3.0012 0.9732
-4.6242 3.9987 -3.0069 0.9731
-5.7354 2.1359 -3.0103 0.9731
-5.9040 1.6173 -3.0109 0.9731
-6.0256 1.0856 -3.0114 0.9731
-5.8743 0.0000 -3.0116 0.9739
-5.8514 -0.5229 -3.0118 0.9739
-5.7818 -1.0416 -3.0119 0.9739
-5.6661 -1.5521 -3.0119 0.9739
-4.7665 -3.4307 -3.0108 0.9739
-4.0811 -4.2198 -3.0096 0.9740
-2.8190 -5.1440 -3.0072 0.9740
-1.8590 -5.5525 -3.0019 0.9740
-1.3452 -5.6448 -2.9750 0.9743
0.7072 -5.7418 -2.9659 0.9743
1.2153 -5.6553 -2.9655 0.9743
1.7136 -5.5242 -2.9652 0.9743
3.1118 -4.8745 -2.9648 0.9743
3.5334 -4.5783 -2.9649 0.9743
4.2897 -3.8798 -2.9653 0.9743
4.9108 -3.0584 -2.9660 0.9743
5.1643 -2.6096 -2.9664 0.9743
5.6738 -1.1532 -2.9683 0.9743
5.7815 0.3871 -2.9707 0.9743
5.5003 1.9099 -2.9850 0.9742
5.3092 2.3922 -2.9854 0.9742
4.4903 3.7114 -2.9866 0.9742
4.1430 4.0971 -2.9872 0.9741
3.3526 4.7691 -2.9886 0.9741
2.4553 5.2911 -2.9904 0.9741
1.9753 5.4904 -2.9914 0.9741
1.4793 5.6463 -2.9924 0.9741
-0.0651 5.8431 -2.9958 0.9741
-0.5851 5.8164 -2.9969 0.9741
-1.1009 5.7435 -2.9981 0.9741
-2.5823 5.2548 -3.0017 0.9740
-3.0409 5.0061 -3.0028 0.9740
-3.4757 4.7172 -3.0039 0.9740
-3.8831 4.3908 -3.0050 0.9740
-4.2600 4.0291 -3.0060 0.9740
-4.6031 3.6351 -3.0070 0.9740
-4.9099 3.2119 -3.0079 0.9740
-5.1776 2.7629 -3.0087 0.9740
-5.7273 1.2977 -3.0106 0.9739
-5.7297 -1.2982 -3.0119 0.9739
-5.5913 -1.8030 -3.0118 0.9739
-5.4083 -2.2933 -3.0117 0.9739
-5.1823 -2.7653 -3.0114 0.9739
-4.9149 -3.2152 -3.0110 0.9739
-4.6085 -3.6393 -3.0105 0.9739
-3.4810 -4.7244 -3.0085 0.9740
-3.0458 -5.0141 -3.0077 0.9740
-2.5867 -5.2637 -3.0068 0.9740
-1.6007 -5.5982 -2.9851 0.9742
-1.0910 -5.6915 -2.9710 0.9743
0.4507 -5.7680 -2.9661 0.9743
0.9622 -5.7042 -2.9657 0.9743
1.4659 -5.5953 -2.9653 0.9743
1.9579 -5.4421 -2.9651 0.9743
3.3259 -4.7311 -2.9649 0.9743
4.4585 -3.6850 -2.9654 0.9743
4.7693 -3.2739 -2.9657 0.9743
5.0425 -2.8369 -2.9662 0.9743
5.2759 -2.3772 -2.9667 0.9743
5.4676 -1.8985 -2.9673 0.9743
5.7203 -0.8995 -2.9686 0.9743
5.7922 0.1291 -2.9702 0.9743
5.4103 2.1532 -2.9853 0.9742
4.9438 3.0790 -2.9859 0.9742
4.3209 3.9081 -2.9869 0.9742
3.5612 4.6144 -2.9882 0.9741
2.2175 5.3960 -2.9909 0.9741
1.7290 5.5739 -2.9919 0.9741
1.2265 5.7077 -2.9929 0.9741
0.7139 5.7963 -2.9940 0.9741
0.1952 5.8391 -2.9952 0.9741
-0.3254 5.8355 -2.9963 0.9741
-1.3560 5.6899 -2.9987 0.9741
-1.8577 5.5488 -2.9999 0.9740
-2.3452 5.3636 -3.0011 0.9740
-2.8143 5.1356 -3.0023 0.9740
-4.0756 4.2141 -3.0055 0.9740
-5.6404 0.0000 -3.0111 0.9747
-5.6183 -0.5020 -3.0113 0.9747
-4.8524 -2.8741 -3.0107 0.9748
-4.2646 -3.6877 -3.0098 0.9748
-3.9187 -4.0518 -3.0092 0.9748
-3.5417 -4.3836 -3.0085 0.9748
-3.1367 -4.6802 -3.0077 0.9748
-2.7069 -4.9394 -3.0069 0.9748
-1.7871 -5.3378 -3.0050 0.9748
0.6792 -5.5148 -2.9663 0.9751
1.6459 -5.3058 -2.9656 0.9751
2.1115 -5.1379 -2.9654 0.9751
2.5603 -4.9294 -2.9653 0.9751
3.3937 -4.3974 -2.9653 0.9751
3.7718 -4.0780 -2.9655 0.9751
4.1201 -3.7264 -2.9657 0.9751
4.7166 -2.9375 -2.9663 0.9751
5.1644 -2.0554 -2.9673 0.9751
5.4019 1.3511 -2.9726 0.9751
5.0995 2.2977 -2.9859 0.9750
3.9793 3.9352 -2.9876 0.9749
3.6140 4.2747 -2.9883 0.9749
2.8003 4.8502 -2.9898 0.9749
2.3582 5.0817 -2.9907 0.9749
1.4207 5.4228 -2.9926 0.9749
0.9327 5.5297 -2.9937 0.9749
0.4370 5.5928 -2.9948 0.9749
-0.0625 5.6115 -2.9959 0.9749
-0.5619 5.5858 -2.9970 0.9749
-2.4797 5.0462 -3.0016 0.9748
-3.7288 4.2162 -3.0048 0.9748
-4.0906 3.8689 -3.0057 0.9748
-4.4200 3.4905 -3.0067 0.9748
-4.9716 2.6529 -3.0083 0.9748
-5.4992 1.2460 -3.0102 0.9748
-5.5891 0.7517 -3.0106 0.9748
-5.6350 -0.2512 -3.0112 0.9747
-5.5905 -0.7518 -3.0113 0.9747
-5.5015 -1.2464 -3.0114 0.9747
-4.9759 -2.6552 -3.0109 0.9748
-4.0957 -3.8737 -3.0095 0.9748
-3.7339 -4.2219 -3.0088 0.9748
-3.3425 -4.5364 -3.0081 0.9748
-2.9246 -4.8146 -3.0073 0.9748
-2.4838 -5.0544 -3.0064 0.9748
-1.0485 -5.4701 -2.9733 0.9751
-0.5564 -5.5308 -2.9675 0.9751
0.4329 -5.5399 -2.9665 0.9751
2.7773 -4.8104 -2.9653 0.9751
4.5808 -3.1445 -2.9661 0.9751
5.2514 -1.8234 -2.9676 0.9751
5.4939 -0.8639 -2.9689 0.9751
5.5504 -0.3715 -2.9697 0.9751
5.5629 0.1240 -2.9705 0.9751
5.5313 0.6188 -2.9713 0.9751
5.4559 1.1090 -2.9722 0.9751
5.1966 2.0682 -2.9858 0.9750
4.9923 2.5227 -2.9860 0.9750
3.0132 4.7201 -2.9894 0.9749
2.1298 5.1825 -2.9912 0.9749
1.6606 5.3533 -2.9921 0.9749
0.6856 5.5668 -2.9942 0.9749
-0.3125 5.6043 -2.9964 0.9749
-0.8104 5.5563 -2.9976 0.9749
-1.3022 5.4642 -2.9987 0.9749
-1.7840 5.3287 -2.9999 0.9748
-3.1319 4.6732 -3.0032 0.9748
-3.5367 4.3774 -3.0042 0.9748
-3.9135 4.0466 -3.0052 0.9748
-5.2827 1.9673 -3.0093 0.9748
-5.4378 1.4896 -3.0099 0.9748
-5.5497 0.9999 -3.0104 0.9748
-5.4206 0.0000 -3.0106 0.9755
-5.3994 -0.4825 -3.0108 0.9755
-5.3352 -0.9612 -3.0109 0.9755
