ply
format ascii 1.0
element vertex 1590
property float32 x
property float32 y
property float32 z
property float32 I
end_header
0.9953 -2.7666 0.2695 0.9883
1.1588 -2.4973 0.2524 0.9890
1.3289 -2.3017 0.2437 0.9894
1.5143 -2.1540 0.2414 0.9895
1.7221 -2.0369 0.2445 0.9893
1.9652 -1.9435 0.2534 0.9890
2.2821 -1.8862 0.2714 0.9882
1.2369 -2.3816 0.2011 0.9893
2.0939 -1.8938 0.2116 0.9887
2.4657 -1.8595 0.2314 0.9877
0.8412 -3.2109 0.2487 0.9868
0.9884 -2.7475 0.2188 0.9884
1.3219 -2.2896 0.1981 0.9895
1.5064 -2.1429 0.1963 0.9895
1.7129 -2.0261 0.1988 0.9894
1.9536 -1.9319 0.2059 0.9890
2.2651 -1.8721 0.2202 0.9883
2.7690 -1.9008 0.2517 0.9866
1.2301 -2.3684 0.1554 0.9894
1.4073 -2.2045 0.1523 0.9896
1.5972 -2.0696 0.1523 0.9896
1.8130 -1.9602 0.1555 0.9894
2.4463 -1.8449 0.1785 0.9878
0.9817 -2.7286 0.1689 0.9884
1.1457 -2.4690 0.1585 0.9892
1.3151 -2.2778 0.1532 0.9895
1.4987 -2.1319 0.1518 0.9896
1.9421 -1.9205 0.1591 0.9891
2.2483 -1.8583 0.1699 0.9884
2.7381 -1.8796 0.1934 0.9868
2.5833 6.2862 0.3958 0.9731
0.8107 -3.7726 0.1604 0.9847
1.0542 -2.5653 0.1153 0.9890
1.5890 -2.0589 0.1081 0.9896
1.8034 -1.9498 0.1104 0.9894
2.0687 -1.8711 0.1160 0.9889
2.4275 -1.8307 0.1264 0.9879
0.8187 -3.1250 0.1343 0.9872
0.9750 -2.7101 0.1198 0.9885
1.1393 -2.4551 0.1125 0.9892
1.3083 -2.2661 0.1088 0.9896
1.6951 -2.0049 0.1092 0.9895
1.9307 -1.9093 0.1129 0.9892
2.5833 6.2861 0.2826 0.9732
0.8863 -2.8571 0.0746 0.9881
1.3930 -2.1821 0.0646 0.9897
1.5808 -2.0483 0.0645 0.9897
1.7940 -1.9396 0.0659 0.9895
2.0564 -1.8599 0.0691 0.9890
2.4090 -1.8167 0.0752 0.9880
1.3017 -2.2545 0.0649 0.9896
1.9195 -1.8983 0.0673 0.9893
2.2157 -1.8313 0.0717 0.9886
2.6784 -1.8386 0.0810 0.9871
2.5832 6.2859 0.1695 0.9732
0.7471 -3.4765 0.0296 0.9859
1.0407 -2.5323 0.0228 0.9891
1.3859 -2.1711 0.0214 0.9897
1.5727 -2.0379 0.0214 0.9898
1.7846 -1.9295 0.0218 0.9895
2.3908 -1.8030 0.0249 0.9881
0.8034 -3.0665 0.0263 0.9874
0.9620 -2.6739 0.0236 0.9887
1.1267 -2.4279 0.0222 0.9894
1.4760 -2.0997 0.0213 0.9898
1.9085 -1.8873 0.0223 0.9893
2.1997 -1.8181 0.0237 0.9886
2.6496 -1.8189 0.0267 0.9872
2.5832 6.2858 0.0565 0.9732
0.8709 -2.8075 -0.0244 0.9883
1.7753 -1.9195 -0.0217 0.9896
2.0322 -1.8380 -0.0228 0.9891
1.1205 -2.4146 -0.0221 0.9894
1.2885 -2.2318 -0.0214 0.9897
1.0293 -2.5046 -0.0675 0.9892
1.5578 -2.0185 -0.0636 0.9898
1.7675 -1.9109 -0.0649 0.9896
2.0224 -1.8291 -0.0680 0.9891
1.1154 -2.4035 -0.0661 0.9895
1.2829 -2.2220 -0.0640 0.9898
1.8884 -1.8675 -0.0662 0.9894
2.6016 -1.7859 -0.0787 0.9875
0.7226 -3.3627 -0.1430 0.9863
0.8645 -2.7868 -0.1213 0.9884
1.5552 -2.0152 -0.1058 0.9899
2.3537 -1.7750 -0.1226 0.9883
2.9930 -1.8641 -0.1466 0.9860
0.7884 -3.0093 -0.1294 0.9876
1.6588 -1.9620 -0.1068 0.9898
2.1666 -1.7907 -0.1169 0.9888
0.7190 -3.3458 -0.1993 0.9864
1.0255 -2.4955 -0.1571 0.9892
1.1938 -2.2985 -0.1509 0.9897
1.5527 -2.0119 -0.1480 0.9899
1.7615 -1.9046 -0.1511 0.9897
2.0147 -1.8222 -0.1582 0.9892
2.3480 -1.7707 -0.1713 0.9883
2.9735 -1.8520 -0.2040 0.9861
0.7861 -3.0003 -0.1806 0.9876
0.9466 -2.6311 -0.1629 0.9889
1.2787 -2.2148 -0.1490 0.9898
1.4575 -2.0733 -0.1476 0.9899
1.8814 -1.8606 -0.1541 0.9895
2.1616 -1.7866 -0.1633 0.9888
2.5838 -1.7737 -0.1825 0.9875
1.0237 -2.4909 -0.2018 0.9893
1.1917 -2.2945 -0.1938 0.9897
1.5501 -2.0086 -0.1901 0.9899
1.7586 -1.9014 -0.1941 0.9897
2.3423 -1.7664 -0.2199 0.9883
2.9543 -1.8400 -0.2608 0.9861
0.7837 -2.9913 -0.2317 0.9877
0.9446 -2.6255 -0.2091 0.9889
1.1094 -2.3907 -0.1975 0.9895
1.2766 -2.2112 -0.1913 0.9898
1.6533 -1.9555 -0.1919 0.9898
2.5829 6.2852 -0.5092 0.9731
1.0218 -2.4864 -0.2464 0.9893
1.1896 -2.2905 -0.2366 0.9897
1.3641 -2.1368 -0.2324 0.9899
1.5476 -2.0053 -0.2322 0.9899
1.7556 -1.8982 -0.2370 0.9897
2.3367 -1.7622 -0.2683 0.9883
2.9353 -1.8281 -0.3170 0.9862
0.9425 -2.6198 -0.2552 0.9889
1.2745 -2.2075 -0.2337 0.9898
1.8744 -1.8537 -0.2417 0.9895
2.1517 -1.7784 -0.2559 0.9888
2.5662 -1.7616 -0.2854 0.9876
2.5829 6.2850 -0.6230 0.9731
0.7083 -3.2961 -0.3657 0.9865
0.8568 -2.7620 -0.3137 0.9884
1.0199 -2.4818 -0.2910 0.9893
1.1876 -2.2864 -0.2795 0.9897
1.3619 -2.1333 -0.2745 0.9899
2.9164 -1.8164 -0.3727 0.9863
1.1055 -2.3822 -0.2849 0.9895
1.2724 -2.2039 -0.2760 0.9898
1.4504 -2.0633 -0.2736 0.9899
1.6478 -1.9491 -0.2768 0.9898
1.8710 -1.8503 -0.2854 0.9895
2.5575 -1.7556 -0.3365 0.9876
0.8549 -2.7558 -0.3616 0.9884
1.1855 -2.2824 -0.3223 0.9897
1.3596 -2.1298 -0.3166 0.9899
1.7497 -1.8918 -0.3229 0.9897
1.9995 -1.8084 -0.3378 0.9892
2.3254 -1.7537 -0.3650 0.9883
0.9385 -2.6085 -0.3474 0.9889
1.2704 -2.2003 -0.3184 0.9898
1.4481 -2.0599 -0.3155 0.9899
2.5828 6.2848 -0.8515 0.9730
0.8540 -2.7531 -0.4100 0.9884
1.0162 -2.4728 -0.3803 0.9893
1.1834 -2.2784 -0.3652 0.9897
1.9957 -1.8050 -0.3827 0.9892
2.9406 -1.8314 -0.4927 0.9861
0.7780 -2.9695 -0.4366 0.9877
1.1015 -2.3737 -0.3722 0.9895
1.6423 -1.9426 -0.3618 0.9898
2.5544 -1.7535 -0.4407 0.9876
2.5827 6.2847 -0.9664 0.9729
1.5378 -1.9926 -0.4008 0.9899
2.3295 -1.7568 -0.4646 0.9883
2.9624 -1.8450 -0.5557 0.9860
1.2668 -2.1942 -0.4034 0.9898
1.4436 -2.0536 -0.3997 0.9899
1.6405 -1.9404 -0.4046 0.9898
0.7197 -3.3490 -0.6040 0.9862
0.8581 -2.7662 -0.5107 0.9883
1.0187 -2.4789 -0.4726 0.9892
1.3579 -2.1272 -0.4450 0.9898
1.5405 -1.9961 -0.4446 0.9898
2.3356 -1.7614 -0.5158 0.9882
2.9847 -1.8589 -0.6200 0.9858
0.7829 -2.9885 -0.5447 0.9875
0.9404 -2.6140 -0.4898 0.9888
1.2690 -2.1979 -0.4475 0.9897
1.4461 -2.0571 -0.4434 0.9898
1.8674 -1.8467 -0.4631 0.9894
2.5826 6.2844 -1.1980 0.9728
1.0207 -2.4837 -0.5196 0.9891
1.1868 -2.2850 -0.4983 0.9896
1.3603 -2.1309 -0.4892 0.9898
1.5432 -1.9996 -0.4888 0.9898
2.0052 -1.8136 -0.5232 0.9890
3.0075 -1.8731 -0.6856 0.9857
0.9426 -2.6200 -0.5388 0.9887
1.1055 -2.3822 -0.5082 0.9894
1.6463 -1.9473 -0.4935 0.9897
2.5834 -1.7734 -0.6064 0.9873
-14.1908 0.0000 -2.9917 0.9436
-14.1285 -1.2625 -2.9904 0.9437
-13.9544 -2.5140 -2.9892 0.9437
-13.6700 -3.7446 -2.9881 0.9437
-11.9787 -7.0950 -2.9351 0.9447
-10.5280 -9.1039 -2.9343 0.9447
-8.7538 -10.8347 -2.9365 0.9446
-6.7000 -12.2259 -2.9391 0.9446
-5.5887 -12.7817 -2.9410 0.9446
0.4683 -14.0081 -2.9548 0.9443
0.7277 -3.3865 -0.7302 0.9859
0.8622 -2.7795 -0.6135 0.9882
1.0227 -2.4886 -0.5672 0.9891
1.1890 -2.2893 -0.5438 0.9895
1.3627 -2.1346 -0.5339 0.9897
1.5460 -2.0031 -0.5334 0.9897
1.7549 -1.8973 -0.5449 0.9895
3.0434 -1.8955 -0.7559 0.9854
14.2296 0.9525 -3.0066 0.9434
14.0941 2.2162 -3.0078 0.9433
12.4518 7.0053 -3.0120 0.9433
11.7820 8.0879 -3.0128 0.9433
11.0178 9.1065 -3.0135 0.9432
10.1655 10.0528 -3.0140 0.9432
8.7625 10.3644 -2.8613 0.9460
7.8061 11.1043 -2.8616 0.9460
6.7937 11.7670 -2.8645 0.9460
5.7199 12.3261 -2.8647 0.9460
2.2604 13.4004 -2.8650 0.9460
1.0586 13.5479 -2.8649 0.9460
-2.5574 13.3420 -2.8640 0.9460
-3.7317 13.0507 -2.8616 0.9460
-4.8714 12.6484 -2.8575 0.9461
-6.2945 12.8091 -3.0088 0.9433
-10.3514 9.7903 -3.0037 0.9434
-11.9120 7.7925 -3.0009 0.9435
-12.5522 6.6981 -2.9994 0.9435
-13.0923 5.5516 -2.9980 0.9435
-13.8558 3.1394 -2.9951 0.9436
-14.1737 -0.6320 -2.9911 0.9437
-14.0553 -1.8902 -2.9898 0.9437
-13.4872 -4.3490 -2.9875 0.9437
-13.0422 -5.5304 -2.9865 0.9437
-12.2936 -6.5600 -2.9376 0.9446
-5.0156 -13.0226 -2.9420 0.9445
-2.6316 -13.7287 -2.9470 0.9445
1.0925 -13.9817 -2.9566 0.9443
1.6493 -1.9508 -0.5385 0.9896
2.5933 -1.7802 -0.6631 0.9872
13.8133 -3.4549 -3.0018 0.9435
14.0726 -2.2128 -3.0032 0.9434
14.1760 1.5858 -3.0072 0.9434
13.6808 4.0773 -3.0096 0.9433
12.7496 6.4427 -3.0116 0.9433
10.6022 9.5892 -3.0138 0.9432
9.2149 9.9631 -2.8611 0.9460
8.2926 10.7450 -2.8614 0.9460
7.3104 11.4515 -2.8642 0.9460
6.2630 12.0585 -2.8646 0.9460
4.0263 12.9795 -2.8650 0.9460
1.6612 13.4876 -2.8649 0.9460
-1.9607 13.4437 -2.8642 0.9460
-3.1488 13.2132 -2.8636 0.9460
-4.3063 12.8623 -2.8596 0.9461
-6.8576 12.5135 -3.0083 0.9433
-12.2443 7.2524 -3.0002 0.9435
-12.8350 6.1308 -2.9987 0.9435
-14.1408 1.2637 -2.9930 0.9436
-13.1098 0.0000 -2.9922 0.9476
-13.0527 -1.1664 -2.9911 0.9477
-12.6299 -3.4597 -2.9889 0.9477
-11.7095 -5.5931 -2.9618 0.9482
-11.0777 -6.5613 -2.9386 0.9485
-9.7357 -8.4188 -2.9377 0.9486
-8.0925 -10.0162 -2.9391 0.9485
-7.1739 -10.7042 -2.9411 0.9485
-6.1956 -11.3055 -2.9425 0.9485
-5.1677 -11.8189 -2.9442 0.9485
-2.9947 -12.5663 -2.9485 0.9484
-1.8660 -12.7942 -2.9511 0.9483
0.4329 -12.9483 -2.9570 0.9482
1.5854 -12.8728 -2.9603 0.9482
1.3651 -2.1384 -0.5790 0.9896
2.0136 -1.8212 -0.6197 0.9889
2.3543 -1.7755 -0.6730 0.9880
11.1354 -6.9352 -2.9942 0.9476
12.2105 -4.8597 -2.9996 0.9475
13.0777 -1.4629 -3.0035 0.9474
13.0152 2.0466 -3.0071 0.9474
12.7860 3.1980 -3.0082 0.9474
12.4548 4.3248 -3.0092 0.9473
12.0241 5.4178 -3.0101 0.9473
11.4973 6.4683 -3.0110 0.9473
10.1729 8.4081 -3.0123 0.9473
8.0904 9.5693 -2.8601 0.9499
7.2072 10.2524 -2.8604 0.9499
6.2730 10.8651 -2.8635 0.9498
5.2816 11.3815 -2.8638 0.9498
2.0872 12.3735 -2.8641 0.9498
0.9775 12.5097 -2.8640 0.9498
-1.2558 12.4828 -2.8635 0.9498
-4.4975 11.6775 -2.8562 0.9500
-5.8125 11.8282 -3.0081 0.9474
-13.0010 1.7485 -2.9941 0.9476
-12.9853 -1.7463 -2.9905 0.9477
-12.7737 -2.8941 -2.9894 0.9477
-12.0503 -5.1097 -2.9875 0.9477
-10.7731 -7.0474 -2.9383 0.9486
-8.5283 -9.6431 -2.9382 0.9486
-7.6408 -10.3709 -2.9402 0.9485
-5.6874 -11.5735 -2.9433 0.9485
-4.6376 -12.0413 -2.9452 0.9484
-3.5501 -12.4154 -2.9473 0.9484
-2.4330 -12.6927 -2.9498 0.9484
-0.1442 -12.9479 -2.9555 0.9483
1.0098 -12.9233 -2.9587 0.9482
2.1586 -12.7968 -2.9621 0.9481
0.7907 -3.0180 -0.7121 0.9873
1.1097 -2.3914 -0.6017 0.9892
1.2757 -2.2096 -0.5823 0.9896
1.4537 -2.0679 -0.5769 0.9897
1.6523 -1.9543 -0.5841 0.9896
1.8787 -1.8579 -0.6031 0.9892
2.1630 -1.7878 -0.6405 0.9886
2.6034 -1.7871 -0.7207 0.9871
11.4407 -6.4364 -2.9961 0.9476
12.4176 -4.3119 -3.0002 0.9475
13.1642 0.2934 -3.0054 0.9474
13.0910 1.4645 -3.0066 0.9474
12.9134 2.6248 -3.0077 0.9474
12.2517 4.8761 -3.0097 0.9473
10.5363 7.9458 -3.0120 0.9473
8.6219 9.3219 -2.8982 0.9492
7.6565 9.9208 -2.8603 0.9499
3.7177 11.9848 -2.8640 0.9498
2.6363 12.2683 -2.8641 0.9498
1.5339 12.4540 -2.8640 0.9498
-1.8105 12.4137 -2.8633 0.9498
-3.9755 11.8742 -2.8581 0.9499
-6.3325 11.5554 -3.0075 0.9474
-7.3331 10.9419 -3.0064 0.9474
-9.1496 9.4607 -3.0040 0.9474
-10.6728 7.6819 -3.0014 0.9475
-12.3067 4.5831 -2.9974 0.9475
-12.6601 3.4680 -2.9960 0.9476
-12.1753 0.0000 -2.9927 0.9511
-12.1226 -1.0833 -2.9916 0.9511
-11.7305 -3.2133 -2.9896 0.9511
-10.2972 -6.0990 -2.9417 0.9519
-9.0499 -7.8258 -2.9408 0.9519
-8.3178 -8.6005 -2.9409 0.9519
-6.6643 -9.9439 -2.9424 0.9519
-5.7569 -10.5049 -2.9444 0.9519
-3.8088 -11.3763 -2.9488 0.9518
-2.7831 -11.6786 -2.9510 0.9518
-1.7341 -11.8897 -2.9534 0.9517
0.4027 -12.0298 -2.9585 0.9516
0.8058 -3.7497 -0.9427 0.9843
0.8664 -2.7931 -0.7188 0.9880
1.0268 -2.4985 -0.6640 0.9889
1.3675 -2.1422 -0.6247 0.9896
10.8821 -5.4989 -2.9969 0.9510
11.3381 -4.5124 -2.9995 0.9510
11.9683 -2.4327 -3.0020 0.9509
12.1999 0.8167 -3.0055 0.9509
12.0831 1.9000 -3.0065 0.9509
11.8700 2.9689 -3.0075 0.9508
11.5623 4.0149 -3.0085 0.9508
10.6730 6.0045 -3.0101 0.9508
10.0985 6.9322 -3.0108 0.9508
9.4432 7.8050 -3.0113 0.9508
8.7124 8.6159 -3.0118 0.9508
6.6901 9.5168 -2.8594 0.9532
4.9031 10.5660 -2.8631 0.9532
1.9375 11.4865 -2.8633 0.9532
0.9075 11.6130 -2.8632 0.9532
-0.1297 11.6470 -2.8630 0.9532
-1.1658 11.5882 -2.8627 0.9532
-2.1919 11.4352 -2.8619 0.9532
-4.1803 10.8540 -2.8590 0.9532
-6.3499 10.4535 -3.0064 0.9509
-7.2526 9.8433 -3.0053 0.9509
-9.5843 7.5686 -3.0018 0.9509
-10.7655 5.7447 -2.9993 0.9510
-11.2294 4.7617 -2.9981 0.9510
-11.6039 3.7418 -2.9968 0.9510
-11.8860 2.6930 -2.9956 0.9510
-12.1655 0.5425 -2.9933 0.9511
-8.6923 -8.2211 -2.9408 0.9519
-7.9270 -8.9632 -2.9412 0.9519
-7.0995 -9.6356 -2.9419 0.9519
-5.2852 -10.7551 -2.9456 0.9518
-4.3103 -11.1914 -2.9478 0.9518
-2.2610 -11.7957 -2.9522 0.9517
-0.1340 -12.0307 -2.9573 0.9516
0.9381 -12.0047 -2.9597 0.9516
2.0047 -11.8829 -2.9621 0.9516
0.7969 -3.0417 -0.7729 0.9871
1.2780 -2.2136 -0.6283 0.9895
1.8825 -1.8617 -0.6508 0.9892
2.1686 -1.7924 -0.6915 0.9885
10.6200 -5.9747 -2.9951 0.9510
11.8457 -2.9628 -3.0014 0.9509
12.0673 -1.8975 -3.0026 0.9509
12.1931 -0.8162 -3.0038 0.9509
12.2220 0.2724 -3.0049 0.9509
12.1537 1.3596 -3.0060 0.9509
11.9885 2.4368 -3.0070 0.9509
10.9285 5.5224 -3.0097 0.9508
9.0869 8.2186 -3.0116 0.9508
7.1071 9.2089 -2.8593 0.9532
6.2597 9.8056 -2.8595 0.9532
2.5824 6.2839 -1.6699 0.9724
2.4473 11.3889 -2.8633 0.9532
-0.6484 11.6292 -2.8629 0.9532
-1.6807 11.5241 -2.8626 0.9532
-2.6976 11.3196 -2.8603 0.9532
-4.9024 11.2121 -3.0079 0.9508
-5.8790 10.7278 -3.0069 0.9509
-6.8081 10.1585 -3.0058 0.9509
-7.6824 9.5087 -3.0047 0.9509
-8.4950 8.7838 -3.0036 0.9509
-9.2394 7.9897 -3.0024 0.9509
-11.0084 5.2583 -2.9987 0.9510
-11.7566 3.2205 -2.9962 0.9510
-11.9917 2.1604 -2.9950 0.9510
-10.2122 -4.8779 -2.9821 0.9543
-9.6142 -5.6945 -2.9444 0.9548
-9.0675 -6.5264 -2.9438 0.9548
-8.4499 -7.3069 -2.9436 0.9548
-7.7661 -8.0301 -2.9436 0.9548
-4.4810 -10.2483 -2.9473 0.9548
-1.6178 -11.0922 -2.9537 0.9547
-0.6245 -11.2006 -2.9559 0.9547
0.3751 -11.2197 -2.9581 0.9546
1.3733 -11.1504 -2.9603 0.9546
2.3626 -10.9944 -2.9632 0.9545
0.8720 -2.8111 -0.7755 0.9879
1.0288 -2.5035 -0.7132 0.9889
1.1959 -2.3025 -0.6837 0.9893
1.3700 -2.1461 -0.6709 0.9895
1.5544 -2.0140 -0.6704 0.9895
1.7646 -1.9079 -0.6848 0.9893
2.0221 -1.8289 -0.7184 0.9888
9.6402 -6.0040 -2.9926 0.9541
10.1477 -5.1279 -2.9959 0.9541
11.1636 -2.2691 -3.0018 0.9540
11.3974 -0.2540 -3.0040 0.9539
10.4099 4.6905 -3.0086 0.9539
9.9535 5.5997 -3.0093 0.9539
8.8064 7.2787 -3.0105 0.9538
8.1248 8.0348 -3.0109 0.9538
6.2387 8.8747 -2.8585 0.9561
4.5727 9.8539 -2.8625 0.9561
1.8070 10.7123 -2.8626 0.9561
0.8463 10.8304 -2.8625 0.9561
-1.0872 10.8073 -2.8621 0.9561
-2.9811 10.4258 -2.8573 0.9561
-4.1024 10.6516 -3.0077 0.9539
-6.7644 9.1807 -3.0048 0.9539
-7.5520 8.5392 -3.0038 0.9539
-8.9398 7.0597 -3.0016 0.9540
-10.0422 5.3587 -2.9993 0.9540
-10.4752 4.4419 -2.9981 0.9540
-10.8248 3.4906 -2.9970 0.9540
-11.2637 1.5148 -2.9947 0.9541
-11.3457 -0.5059 -2.9926 0.9541
-11.0691 -2.5079 -2.9906 0.9541
-10.4432 -4.4283 -2.9890 0.9542
-8.7673 -6.9234 -2.9437 0.9548
-7.4010 -8.3685 -2.9437 0.9548
-4.9319 -10.0361 -2.9466 0.9548
-3.0782 -10.7653 -2.9503 0.9547
-0.1250 -11.2213 -2.9570 0.9546
0.8748 -11.1957 -2.9591 0.9546
0.8062 -3.0771 -0.8382 0.9869
1.2803 -2.2176 -0.6747 0.9895
2.6671 -1.8308 -0.8524 0.9867
9.9037 -5.5717 -2.9943 0.9541
10.7554 -3.7346 -3.0000 0.9540
11.0493 -2.7636 -3.0012 0.9540
11.3994 0.2540 -3.0045 0.9539
11.1811 2.2727 -3.0065 0.9539
10.1919 5.1502 -3.0090 0.9539
9.6952 6.0382 -3.0096 0.9539
9.1211 6.8785 -3.0102 0.9538
7.7593 8.3893 -3.0111 0.9538
5.8374 9.1441 -2.8586 0.9561
5.0072 9.6406 -2.8625 0.9561
2.5823 6.2837 -1.7901 0.9723
3.2186 10.3759 -2.8626 0.9561
1.3279 10.7821 -2.8625 0.9561
0.3630 10.8570 -2.8624 0.9561
-2.5152 10.5542 -2.8589 0.9561
-4.5721 10.4568 -3.0072 0.9539
-6.3497 9.4745 -3.0054 0.9539
-7.1654 8.8687 -3.0043 0.9539
-7.9235 8.1929 -3.0033 0.9539
-8.6181 7.4523 -3.0022 0.9540
-9.2437 6.6532 -3.0010 0.9540
-10.2689 4.9051 -2.9987 0.9540
-10.6606 3.9701 -2.9975 0.9540
-11.1871 2.0155 -2.9953 0.9541
-10.2520 -2.8083 -2.9907 0.9568
-9.9587 -3.7086 -2.9899 0.9568
-9.0154 -5.3398 -2.9481 0.9574
-7.9201 -6.8488 -2.9460 0.9574
-5.0356 -9.1887 -2.9481 0.9574
-3.3297 -9.9453 -2.9508 0.9574
-0.5851 -10.4924 -2.9567 0.9573
0.3514 -10.5112 -2.9590 0.9572
1.2867 -10.4471 -2.9616 0.9572
2.2134 -10.3003 -2.9642 0.9572
0.8816 -2.8420 -0.8372 0.9877
1.0334 -2.5145 -0.7649 0.9888
1.1982 -2.3070 -0.7314 0.9893
1.5572 -2.0178 -0.7171 0.9895
9.9005 -3.9403 -2.9981 0.9567
10.2201 -3.0459 -3.0005 0.9567
10.4544 -2.1249 -3.0016 0.9566
10.6057 -1.1864 -3.0026 0.9566
10.6729 -0.2378 -3.0036 0.9566
10.6551 0.7133 -3.0046 0.9566
10.5526 1.6593 -3.0055 0.9566
10.3661 2.5927 -3.0064 0.9566
9.7472 4.3919 -3.0080 0.9565
8.8178 6.0531 -3.0092 0.9565
7.6072 7.5229 -3.0102 0.9565
6.9082 8.1710 -3.0105 0.9565
5.0787 8.7966 -2.8578 0.9587
4.2819 9.2273 -2.8621 0.9586
3.4436 9.5717 -2.8620 0.9586
-0.1133 10.1706 -2.8617 0.9586
-2.7909 9.7604 -2.8562 0.9587
-3.8413 9.9737 -3.0071 0.9566
-7.0720 7.9964 -3.0035 0.9566
-7.7530 7.3327 -3.0024 0.9566
-8.9240 5.8378 -3.0003 0.9567
-9.4047 5.0185 -2.9992 0.9567
-10.1382 3.2692 -2.9971 0.9567
-10.5497 1.4188 -2.9950 0.9567
-10.5394 -1.4174 -2.9920 0.9568
-6.9370 -7.8438 -2.9461 0.9574
-6.2124 -8.4315 -2.9466 0.9574
-5.4389 -8.9536 -2.9475 0.9574
-3.7684 -9.7845 -2.9501 0.9574
-1.0515 -10.4521 -2.9556 0.9573
-0.1171 -10.5122 -2.9579 0.9573
1.7516 -10.3840 -2.9629 0.9572
0.8158 -3.1138 -0.9056 0.9867
1.1172 -2.4074 -0.7467 0.9890
1.2827 -2.2216 -0.7218 0.9894
2.1945 -1.8138 -0.8010 0.9882
2.7049 -1.8568 -0.9231 0.9865
9.2728 -5.2168 -2.9935 0.9568
10.0712 -3.4971 -2.9996 0.9567
10.3475 -2.5881 -3.0010 0.9566
10.6746 0.2379 -3.0041 0.9566
10.4698 2.1281 -3.0060 0.9566
10.2417 3.0524 -3.0068 0.9566
9.9319 3.9528 -3.0076 0.9566
9.5430 4.8223 -3.0083 0.9565
9.0778 5.6537 -3.0089 0.9565
7.9342 7.1761 -3.0100 0.9565
2.5823 6.2836 -1.9114 0.9722
2.1371 9.9451 -2.8620 0.9586
1.2434 10.0957 -2.8619 0.9586
0.3399 10.1659 -2.8618 0.9586
-3.2212 9.6213 -2.8547 0.9587
-5.1342 9.3688 -3.0058 0.9566
-8.0705 6.9789 -3.0019 0.9566
-10.6006 0.9473 -2.9944 0.9567
-9.9998 0.0000 -2.9938 0.9591
-9.9572 -0.8897 -2.9929 0.9591
-9.3608 -3.4860 -2.9905 0.9592
-9.0113 -4.3043 -2.9898 0.9592
-8.4848 -5.0256 -2.9523 0.9597
-7.4488 -6.4412 -2.9481 0.9597
-6.8459 -7.0786 -2.9482 0.9597
-6.1894 -7.6607 -2.9485 0.9597
-5.4840 -8.1827 -2.9490 0.9597
-3.9491 -9.0319 -2.9512 0.9597
-1.4250 -9.7705 -2.9561 0.9596
-0.5501 -9.8654 -2.9581 0.9596
0.3304 -9.8825 -2.9603 0.9596
1.2097 -9.8218 -2.9627 0.9595
0.8915 -2.8739 -0.9008 0.9875
1.0413 -2.5339 -0.8202 0.9886
1.7780 -1.9223 -0.7839 0.9891
2.0470 -1.8514 -0.8263 0.9885
8.4813 -5.2822 -2.9913 0.9591
9.3015 -3.7019 -2.9971 0.9591
9.6028 -2.8620 -2.9999 0.9590
9.9664 -1.1149 -3.0024 0.9590
10.0293 -0.2235 -3.0033 0.9590
10.0124 0.6703 -3.0042 0.9590
9.7405 2.4363 -3.0059 0.9589
9.4874 3.2944 -3.0067 0.9589
9.1587 4.1267 -3.0074 0.9589
8.2851 5.6874 -3.0086 0.9589
7.7473 6.4033 -3.0091 0.9589
7.1476 7.0684 -3.0095 0.9589
6.4907 7.6773 -3.0098 0.9589
4.7718 8.2650 -2.8571 0.9609
4.0173 8.6570 -2.8572 0.9609
0.7446 9.5286 -2.8614 0.9609
-0.9564 9.5073 -2.8607 0.9609
-3.6094 9.3717 -3.0066 0.9589
-5.9522 8.0784 -3.0041 0.9590
-6.6456 7.5143 -3.0032 0.9590
-7.2857 6.8908 -3.0022 0.9590
-9.5281 3.0724 -2.9972 0.9591
-9.7605 2.2115 -2.9962 0.9591
-9.9153 1.3335 -2.9952 0.9591
-9.9915 0.4456 -2.9942 0.9591
-9.9884 -0.4454 -2.9933 0.9591
-9.9062 -1.3322 -2.9924 0.9591
-8.7317 -4.6594 -2.9630 0.9595
-7.7285 -6.1031 -2.9482 0.9597
-6.5241 -7.3769 -2.9483 0.9597
-5.1148 -8.4201 -2.9495 0.9597
-4.3466 -8.8451 -2.9505 0.9597
-2.7121 -9.4848 -2.9534 0.9596
0.7706 -9.8619 -2.9615 0.9595
0.8278 -3.1596 -0.9778 0.9865
0.9673 -2.6888 -0.8555 0.9881
1.9053 -1.8841 -0.8022 0.9889
2.2142 -1.8301 -0.8600 0.9881
9.1230 -4.1106 -2.9957 0.9591
9.4615 -3.2854 -2.9985 0.9590
9.7241 -2.4321 -3.0009 0.9590
9.9053 -1.5575 -3.0019 0.9590
7.4549 6.7425 -3.0093 0.9589
5.1351 8.0440 -2.8571 0.9609
-0.5320 9.5420 -2.8611 0.9609
-3.0267 9.0403 -2.8541 0.9610
-4.8244 8.8035 -3.0054 0.9590
-7.5842 6.5583 -3.0017 0.9590
-8.1351 5.8553 -3.0007 0.9590
-9.0382 4.3172 -2.9987 0.9590
-9.8477 1.7742 -2.9957 0.9591
-9.4275 0.0000 -2.9940 0.9612
-9.3874 -0.8388 -2.9932 0.9612
-9.2730 -1.6706 -2.9924 0.9612
-8.8256 -3.2867 -2.9909 0.9612
-8.4962 -4.0583 -2.9903 0.9613
-8.0081 -4.7432 -2.9559 0.9617
-7.0264 -6.0759 -2.9501 0.9618
-5.8384 -7.2262 -2.9504 0.9618
-2.9531 -8.8206 -2.9541 0.9617
-2.1575 -9.0532 -2.9557 0.9617
-0.5188 -9.3038 -2.9593 0.9616
0.3116 -9.3196 -2.9614 0.9616
1.9621 -9.1308 -2.9660 0.9616
0.9017 -2.9068 -0.9666 0.9873
1.2132 -2.3359 -0.8359 0.9890
1.5735 -2.0388 -0.8179 0.9892
1.7893 -1.9346 -0.8369 0.9890
7.9938 -4.9786 -2.9908 0.9612
8.4130 -4.2512 -2.9936 0.9612
8.7658 -3.4887 -2.9963 0.9612
9.2608 -1.8823 -3.0012 0.9611
9.3945 -1.0509 -3.0021 0.9611
9.4535 -0.2107 -3.0030 0.9611
9.3464 1.4697 -3.0047 0.9611
8.2534 4.6433 -3.0075 0.9610
7.3017 6.0351 -3.0085 0.9610
6.1174 7.2357 -3.0091 0.9610
5.1725 7.3580 -2.8564 0.9630
4.4973 7.7895 -2.8565 0.9630
3.7862 8.1590 -2.8565 0.9630
3.0501 8.4778 -2.8614 0.9629
2.2832 8.7151 -2.8612 0.9629
1.4984 8.8832 -2.8610 0.9629
0.7018 8.9809 -2.8609 0.9629
-0.9012 8.9587 -2.8595 0.9629
-3.4020 8.8331 -3.0061 0.9611
-4.1737 8.4932 -3.0054 0.9611
-4.9118 8.0860 -3.0046 0.9611
-5.6104 7.6146 -3.0038 0.9611
-6.8676 6.4953 -3.0020 0.9611
-7.4161 5.8565 -3.0011 0.9611
-7.9054 5.1715 -3.0001 0.9611
-8.6915 3.6856 -2.9982 0.9612
-8.9822 2.8964 -2.9973 0.9612
-9.2014 2.0848 -2.9963 0.9612
-9.3476 1.2571 -2.9954 0.9612
-9.3395 -1.2560 -2.9928 0.9612
-8.2527 -4.4037 -2.9707 0.9615
-7.7746 -5.0859 -2.9505 0.9618
-7.2902 -5.7570 -2.9501 0.9618
-6.7487 -6.3829 -2.9501 0.9618
-6.1541 -6.9586 -2.9502 0.9618
-4.8246 -7.9424 -2.9513 0.9617
-1.7526 -9.1429 -2.9565 0.9617
-0.1038 -9.3209 -2.9604 0.9616
1.5528 -9.2054 -2.9648 0.9616
0.9754 -2.7112 -0.9151 0.9880
1.1322 -2.4398 -0.8542 0.9888
1.6800 -1.9871 -0.8264 0.9891
1.9188 -1.8976 -0.8570 0.9887
2.2346 -1.8469 -0.9207 0.9879
2.8022 -1.9236 -1.0794 0.9858
8.2114 -4.6197 -2.9922 0.9612
8.5979 -3.8740 -2.9949 0.9612
9.3369 -1.4681 -3.0017 0.9611
9.4334 -0.6314 -3.0026 0.9611
9.4013 1.0517 -3.0043 0.9611
8.7960 3.5007 -3.0066 0.9610
8.4512 4.2706 -3.0072 0.9610
8.0391 5.0068 -3.0078 0.9610
7.5628 5.7034 -3.0082 0.9610
7.0261 6.3548 -3.0087 0.9610
5.7733 7.4806 -3.0010 0.9611
4.1458 7.9822 -2.8565 0.9630
2.5822 6.2833 -2.1574 0.9719
2.6693 8.6048 -2.8612 0.9629
1.8927 8.8079 -2.8611 0.9629
-2.0845 8.7470 -2.8557 0.9630
-3.7917 8.6718 -3.0058 0.9611
-8.5201 4.0697 -2.9987 0.9611
-8.8457 3.2942 -2.9977 0.9612
-8.9120 0.0000 -2.9943 0.9631
-8.5888 -2.3527 -2.9920 0.9631
-8.3435 -3.1071 -2.9913 0.9631
-7.5773 -4.4880 -2.9589 0.9635
-7.1311 -5.1327 -2.9520 0.9636
-4.2244 -7.7086 -2.9534 0.9636
-2.7928 -8.3416 -2.9555 0.9636
-1.2709 -8.7137 -2.9586 0.9635
-0.4906 -8.7977 -2.9605 0.9635
0.9123 -2.9409 -1.0345 0.9871
1.2214 -2.3517 -0.8903 0.9889
1.8009 -1.9471 -0.8911 0.9889
2.0774 -1.8789 -0.9411 0.9883
2.4746 -1.8662 -1.0413 0.9870
7.5549 -4.7052 -2.9903 0.9631
7.9506 -4.0176 -2.9929 0.9631
8.2837 -3.2968 -2.9955 0.9631
8.5512 -2.5485 -2.9979 0.9630
8.8795 -0.9933 -3.0020 0.9630
8.9199 0.5971 -3.0036 0.9630
8.8336 1.3890 -3.0044 0.9630
7.8002 4.3883 -3.0070 0.9629
7.3799 5.0660 -3.0075 0.9629
6.9007 5.7036 -3.0079 0.9629
6.3664 6.2959 -3.0083 0.9629
5.7813 6.8382 -3.0086 0.9629
4.8942 6.9621 -2.8593 0.9647
3.5781 7.7106 -2.8560 0.9648
2.8825 8.0120 -2.8608 0.9647
2.1580 8.2370 -2.8609 0.9647
1.4162 8.3959 -2.8607 0.9647
0.6633 8.4881 -2.8605 0.9647
-1.6003 8.3487 -2.8561 0.9648
-3.2153 8.3483 -3.0057 0.9630
-3.9446 8.0272 -3.0050 0.9630
-4.6423 7.6423 -3.0043 0.9630
-5.3027 7.1969 -3.0035 0.9630
-5.9206 6.6946 -3.0027 0.9630
-7.0097 5.5355 -3.0010 0.9630
-7.4724 4.8882 -3.0001 0.9630
-8.2157 3.4838 -2.9982 0.9630
-8.4906 2.7379 -2.9973 0.9631
-8.6980 1.9707 -2.9964 0.9631
-8.4746 -2.7327 -2.9917 0.9631
-7.3532 -4.8102 -2.9522 0.9636
-6.8951 -5.4450 -2.9519 0.9636
-6.3829 -6.0369 -2.9518 0.9636
-5.8206 -6.5814 -2.9519 0.9636
-5.2124 -7.0743 -2.9523 0.9636
-4.5630 -7.5117 -2.9530 0.9636
-3.8774 -7.8903 -2.9538 0.9636
-3.1609 -8.2071 -2.9549 0.9636
-1.6573 -8.6460 -2.9578 0.9635
-0.8817 -8.7643 -2.9595 0.9635
-0.0982 -8.8136 -2.9614 0.9635
0.6872 -8.7934 -2.9635 0.9635
0.8875 -3.3874 -1.1765 0.9853
0.9837 -2.7343 -0.9763 0.9878
1.6907 -1.9997 -0.8798 0.9890
1.9327 -1.9113 -0.9133 0.9886
7.7604 -4.3659 -2.9916 0.9631
8.1252 -3.6610 -2.9942 0.9631
8.4258 -2.9257 -2.9967 0.9631
8.9162 -0.5968 -3.0024 0.9630
8.9364 0.1992 -3.0032 0.9630
8.5727 2.5550 -3.0055 0.9630
7.1474 5.3901 -3.0077 0.9629
6.6402 6.0057 -3.0081 0.9629
4.5738 7.1647 -2.8559 0.9648
3.9181 7.5436 -2.8560 0.9648
2.5821 6.2832 -2.2823 0.9717
1.0408 8.4503 -2.8606 0.9647
0.2845 8.5089 -2.8604 0.9647
-0.4738 8.4976 -2.8595 0.9647
-2.8405 8.4842 -3.0060 0.9629
-3.5836 8.1959 -3.0054 0.9630
-6.2121 6.4233 -3.0023 0.9630
-7.6815 4.5498 -2.9996 0.9630
-8.7758 1.5811 -2.9960 0.9631
-8.1391 -2.2295 -2.9924 0.9648
-7.9068 -2.9445 -2.9917 0.9648
-7.6119 -3.6358 -2.9912 0.9648
-7.1861 -4.2563 -2.9615 0.9652
-6.7606 -4.8660 -2.9536 0.9653
-5.2349 -6.4794 -2.9537 0.9653
-3.3395 -7.6376 -2.9558 0.9652
-2.6475 -7.9076 -2.9569 0.9652
-1.9340 -8.1154 -2.9582 0.9652
-0.4650 -8.3389 -2.9615 0.9652
0.2793 -8.3525 -2.9633 0.9652
1.0223 -8.3001 -2.9653 0.9651
1.7582 -8.1820 -2.9675 0.9651
1.0671 -2.5965 -0.9954 0.9882
1.2298 -2.3678 -0.9461 0.9887
1.4041 -2.1996 -0.9253 0.9890
1.5936 -2.0648 -0.9248 0.9890
2.0932 -1.8932 -1.0007 0.9881
2.5368 -1.9131 -1.1266 0.9866
7.5320 -3.8061 -2.9924 0.9648
8.1003 -2.4141 -2.9971 0.9648
8.2890 -1.6848 -2.9993 0.9647
8.4119 -0.9410 -3.0013 0.9647
8.4658 -0.1886 -3.0026 0.9647
8.4511 0.5657 -3.0034 0.9647
8.3693 1.3160 -3.0041 0.9647
8.2208 2.0562 -3.0048 0.9647
7.7292 3.4826 -3.0060 0.9647
7.3899 4.1575 -3.0066 0.9647
6.5376 5.4034 -3.0074 0.9646
3.3898 7.3048 -2.8555 0.9664
2.7300 7.5881 -2.8595 0.9664
1.3418 7.9546 -2.8604 0.9663
0.6284 8.0418 -2.8602 0.9663
-0.8066 8.0177 -2.8573 0.9664
-1.5159 7.9082 -2.8552 0.9664
-2.2122 7.7365 -2.8532 0.9664
-4.3983 7.2407 -3.0040 0.9647
-5.0241 6.8187 -3.0033 0.9647
-5.6096 6.3429 -3.0025 0.9647
-6.6417 5.2449 -3.0008 0.9647
-7.0801 4.6316 -3.0000 0.9647
-7.4621 3.9819 -2.9991 0.9647
-7.7847 3.3010 -2.9983 0.9648
-8.2419 1.8674 -2.9965 0.9648
-8.4378 0.3763 -2.9949 0.9648
-8.4356 -0.3761 -2.9941 0.9648
-8.3666 -1.1252 -2.9934 0.9648
-8.2313 -1.8649 -2.9927 0.9648
-7.7670 -3.2935 -2.9914 0.9648
-7.4284 -3.9639 -2.9855 0.9649
-6.0513 -5.7232 -2.9534 0.9653
-2.9965 -7.7802 -2.9563 0.9652
-1.5709 -8.1956 -2.9590 0.9652
-0.0931 -8.3539 -2.9624 0.9652
0.6513 -8.3345 -2.9643 0.9651
1.3915 -8.2492 -2.9664 0.9651
0.9923 -2.7581 -1.0394 0.9876
1.1480 -2.4739 -0.9671 0.9885
1.4948 -2.1263 -0.9216 0.9890
7.6972 -3.4682 -2.9936 0.9648
7.9816 -2.7715 -2.9959 0.9648
8.4669 0.1887 -3.0030 0.9647
8.3033 1.6877 -3.0045 0.9647
8.1220 2.4206 -3.0051 0.9647
7.5671 3.8238 -3.0063 0.9647
7.1979 4.4829 -3.0068 0.9647
6.2907 5.6896 -3.0076 0.9646
5.7599 6.2276 -3.0079 0.9646
5.1832 6.7160 -3.0081 0.9646
4.3331 6.7876 -2.8554 0.9664
0.9861 8.0062 -2.8603 0.9663
0.2695 8.0604 -2.8597 0.9664
-0.4487 8.0482 -2.8582 0.9664
-1.1625 7.9709 -2.8563 0.9664
-1.8659 7.8297 -2.8541 0.9664
-2.6911 8.0380 -3.0057 0.9647
-4.0719 7.4303 -3.0044 0.9647
-4.7159 7.0367 -3.0036 0.9647
-6.8678 4.9432 -3.0004 0.9647
-7.9229 2.9505 -2.9978 0.9648
-8.4138 0.7519 -2.9953 0.9648
-7.9861 -0.7136 -2.9940 0.9663
-7.8891 -1.4213 -2.9933 0.9664
-6.8330 -4.0472 -2.9655 0.9667
-4.9734 -6.1557 -2.9551 0.9668
-4.4065 -6.5749 -2.9556 0.9668
-0.4417 -7.9212 -2.9625 0.9667
1.6700 -7.7714 -2.9682 0.9666
1.4132 -2.2137 -0.9807 0.9888
2.6197 -1.9756 -1.2252 0.9861
6.7957 -4.2324 -2.9895 0.9664
7.1511 -3.6136 -2.9919 0.9664
7.8689 -1.5994 -2.9984 0.9663
7.9852 -0.8933 -3.0004 0.9663
7.9467 1.2496 -3.0038 0.9662
7.6024 2.6398 -3.0051 0.9662
7.3386 3.3067 -3.0057 0.9662
7.0164 3.9474 -3.0062 0.9662
6.6382 4.5569 -3.0066 0.9662
5.2001 6.1507 -3.0076 0.9662
3.8229 6.6214 -2.8550 0.9679
1.2736 7.5501 -2.8591 0.9678
0.5964 7.6324 -2.8587 0.9678
-0.7656 7.6105 -2.8562 0.9679
-3.5485 7.2210 -3.0044 0.9662
-4.1762 6.8750 -3.0037 0.9662
-4.7704 6.4745 -3.0030 0.9662
-5.3264 6.0227 -3.0023 0.9663
-7.6399 2.4635 -2.9975 0.9663
-7.8267 1.7733 -2.9967 0.9663
-8.0109 -0.3572 -2.9944 0.9663
-7.6269 -2.4593 -2.9924 0.9664
-7.0621 -3.7684 -2.9890 0.9664
-6.6296 -4.3369 -2.9582 0.9667
-5.7490 -5.4373 -2.9548 0.9668
-5.2425 -5.9277 -2.9549 0.9668
-4.1097 -6.7654 -2.9559 0.9668
-3.4921 -7.1062 -2.9566 0.9668
-2.8467 -7.3912 -2.9576 0.9667
-0.7939 -7.8915 -2.9616 0.9667
0.6186 -7.9166 -2.9652 0.9667
1.3217 -7.8354 -2.9672 0.9666
2.0152 -7.6921 -2.9692 0.9666
1.1562 -2.4916 -1.0257 0.9883
1.3215 -2.2888 -0.9869 0.9888
1.5044 -2.1400 -0.9768 0.9889
1.7129 -2.0260 -0.9907 0.9887
1.9616 -1.9399 -1.0302 0.9883
2.3157 -1.9140 -1.1219 0.9873
6.9803 -3.9270 -2.9907 0.9664
7.3078 -3.2927 -2.9930 0.9664
7.5775 -2.6312 -2.9953 0.9663
7.7872 -1.9477 -2.9974 0.9663
7.9350 -1.2477 -2.9994 0.9663
8.0196 -0.5368 -3.0013 0.9663
8.0394 0.1792 -3.0028 0.9662
7.9935 0.8942 -3.0035 0.9662
7.8840 1.6025 -3.0042 0.9662
7.4780 2.9762 -3.0054 0.9662
7.1847 3.6306 -3.0059 0.9662
5.9727 5.4020 -3.0072 0.9662
4.9211 6.3764 -3.0077 0.9662
2.5820 6.2829 -2.5365 0.9714
-1.1035 7.5664 -2.8553 0.9679
-3.2237 7.3727 -3.0047 0.9662
-3.8662 7.0550 -3.0041 0.9662
-4.4778 6.6814 -3.0034 0.9662
-6.5213 4.6938 -3.0003 0.9663
-7.6310 -0.0000 -2.9949 0.9677
-7.5989 -0.6790 -2.9942 0.9677
-7.5066 -1.3524 -2.9936 0.9678
-7.3550 -2.0147 -2.9930 0.9678
-7.1451 -2.6609 -2.9924 0.9678
-6.8787 -3.2857 -2.9919 0.9678
-6.5127 -3.8574 -2.9707 0.9680
-5.6974 -4.9267 -2.9561 0.9682
-5.2363 -5.4143 -2.9562 0.9682
-4.7340 -5.8593 -2.9564 0.9681
-4.1943 -6.2584 -2.9568 0.9681
-2.3939 -7.1501 -2.9593 0.9681
-1.7487 -7.3378 -2.9605 0.9681
-1.0891 -7.4677 -2.9619 0.9681
-0.4204 -7.5389 -2.9634 0.9681
0.2525 -7.5507 -2.9651 0.9681
0.9241 -7.5029 -2.9669 0.9680
1.5892 -7.3957 -2.9689 0.9680
0.9814 -3.1637 -1.3000 0.9859
1.0938 -2.6615 -1.1293 0.9877
1.2473 -2.4014 -1.0620 0.9884
1.4225 -2.2283 -1.0376 0.9887
1.6147 -2.0922 -1.0372 0.9887
1.8373 -1.9865 -1.0620 0.9884
2.1415 -1.9369 -1.1332 0.9877
2.7094 -2.0432 -1.3318 0.9855
6.4649 -4.0264 -2.9892 0.9678
7.0868 -2.8205 -2.9936 0.9678
7.3148 -2.1800 -2.9956 0.9677
7.4848 -1.5213 -2.9976 0.9677
7.6450 -0.1704 -3.0012 0.9677
7.6339 0.5111 -3.0028 0.9677
7.5601 1.1888 -3.0036 0.9676
7.2324 2.5114 -3.0048 0.9676
5.9048 4.8805 -3.0066 0.9676
5.4476 5.3872 -3.0069 0.9676
4.4066 6.2686 -3.0073 0.9676
3.0630 6.6005 -2.8558 0.9692
1.2111 7.1799 -2.8577 0.9692
-1.3687 7.1403 -2.8534 0.9692
-2.7516 7.1443 -3.0047 0.9676
-3.9731 6.5406 -3.0035 0.9677
-4.5384 6.1596 -3.0028 0.9677
-5.0674 5.7299 -3.0021 0.9677
-5.5560 5.2549 -3.0014 0.9677
-6.0001 4.7383 -3.0006 0.9677
-6.3964 4.1844 -2.9999 0.9677
-7.2690 2.3440 -2.9975 0.9677
-7.4469 1.6873 -2.9968 0.9677
-7.5656 1.0175 -2.9960 0.9677
-7.6224 -0.3399 -2.9946 0.9677
-7.2572 -2.3401 -2.9927 0.9678
-7.0189 -2.9762 -2.9921 0.9678
-6.3135 -4.1301 -2.9609 0.9681
-5.4722 -5.1756 -2.9561 0.9682
-3.9117 -6.4396 -2.9571 0.9681
-3.3239 -6.7639 -2.9579 0.9681
-2.0734 -7.2511 -2.9599 0.9681
-1.4204 -7.4100 -2.9612 0.9681
0.5887 -7.5342 -2.9660 0.9680
1.1674 -2.5156 -1.0884 0.9882
1.3302 -2.3040 -1.0441 0.9886
1.5142 -2.1540 -1.0334 0.9887
6.2768 -4.3087 -2.9880 0.9678
7.4072 -1.8526 -2.9966 0.9677
7.3365 2.1865 -3.0045 0.9676
6.8350 3.4539 -3.0056 0.9676
6.5014 4.0491 -3.0060 0.9676
5.6818 5.1389 -3.0067 0.9676
4.6814 6.0659 -3.0072 0.9676
4.0928 6.4113 -2.9852 0.9678
2.5819 6.2828 -2.6659 0.9712
2.1570 6.9535 -2.8573 0.9692
0.8900 7.2263 -2.8575 0.9692
-0.4051 7.2652 -2.8558 0.9692
-2.4308 7.2605 -3.0050 0.9676
-3.0668 7.0140 -3.0044 0.9676
-5.3170 5.4978 -3.0017 0.9677
-5.7838 5.0015 -3.0010 0.9677
-6.2045 4.4657 -3.0002 0.9677
-6.5756 3.8948 -2.9995 0.9677
-7.3652 2.0176 -2.9971 0.9677
-7.2735 0.0000 -2.9951 0.9690
-6.8107 -2.5363 -2.9927 0.9691
-5.8293 -4.1957 -2.9575 0.9694
-4.5138 -5.5868 -2.9576 0.9694
-3.4529 -6.3008 -2.9586 0.9694
-2.2824 -6.8173 -2.9604 0.9694
-1.6672 -6.9961 -2.9615 0.9694
-0.4008 -7.1875 -2.9643 0.9693
0.2407 -7.1986 -2.9659 0.9693
0.8810 -7.1528 -2.9676 0.9693
1.5150 -7.0504 -2.9695 0.9693
2.1379 -6.8921 -2.9714 0.9693
1.1138 -2.7102 -1.2066 0.9874
1.2647 -2.4351 -1.1299 0.9882
1.4367 -2.2506 -1.0995 0.9885
2.1810 -1.9726 -1.2110 0.9874
6.9703 -2.0774 -2.9950 0.9690
7.1320 -1.4496 -2.9969 0.9690
7.2843 -0.1623 -3.0003 0.9690
7.2735 0.4869 -3.0018 0.9690
7.0770 1.7701 -3.0039 0.9689
5.1914 5.1339 -3.0065 0.9689
4.7142 5.5760 -3.0067 0.9689
3.5245 6.1046 -2.9026 0.9700
2.3478 6.5257 -2.8558 0.9704
1.1538 6.8401 -2.8564 0.9704
-0.6937 6.8962 -2.8540 0.9705
-2.6223 6.8086 -3.0044 0.9689
-4.3253 5.8704 -3.0026 0.9689
-5.2952 5.0082 -3.0012 0.9690
-5.7186 4.5160 -3.0005 0.9690
-6.0963 3.9881 -2.9998 0.9690
-6.4255 3.4288 -2.9991 0.9690
-6.9282 2.2341 -2.9976 0.9690
-7.0978 1.6082 -2.9968 0.9690
-7.2063 -0.9691 -2.9941 0.9690
-7.0900 -1.6064 -2.9935 0.9690
-6.6904 -2.8370 -2.9924 0.9691
-6.4103 -3.4207 -2.9920 0.9691
-6.0222 -3.9396 -2.9633 0.9693
-5.2177 -4.9349 -2.9573 0.9694
-3.7298 -6.1400 -2.9583 0.9694
-3.1692 -6.4492 -2.9590 0.9694
-1.3542 -7.0649 -2.9622 0.9694
1.1991 -7.1086 -2.9685 0.9693
1.0479 -2.9128 -1.2747 0.9867
1.1848 -2.5532 -1.1590 0.9879
1.5285 -2.1744 -1.0945 0.9886
1.7443 -2.0631 -1.1125 0.9884
2.0139 -1.9915 -1.1663 0.9878
6.6246 -2.9849 -2.9920 0.9691
6.8686 -2.3850 -2.9940 0.9690
7.1917 -1.1308 -2.9978 0.9690
7.2679 -0.4865 -2.9995 0.9690
7.1481 1.4529 -3.0036 0.9689
6.9918 2.0838 -3.0042 0.9689
6.7798 2.6983 -3.0048 0.9689
6.1958 3.8588 -3.0057 0.9689
5.8285 4.3955 -3.0060 0.9689
4.9578 5.3603 -3.0066 0.9689
4.4613 5.7807 -3.0068 0.9689
3.9292 6.1551 -3.0069 0.9689
3.1948 6.1511 -2.8542 0.9705
2.5819 6.2826 -2.7970 0.9710
2.0550 6.6246 -2.8561 0.9704
1.4574 6.7820 -2.8564 0.9704
-0.3859 6.9218 -2.8547 0.9705
-1.0000 6.8567 -2.8533 0.9705
-2.9227 6.6845 -3.0041 0.9689
-3.5054 6.3965 -3.0036 0.9689
-4.0599 6.0579 -3.0029 0.9689
-4.5820 5.6713 -3.0023 0.9690
-5.0674 5.2397 -3.0016 0.9690
-5.5124 4.7668 -3.0009 0.9690
-5.9134 4.2562 -3.0002 0.9690
-6.2672 3.7121 -2.9994 0.9690
-6.5711 3.1388 -2.9987 0.9690
-6.8227 2.5408 -2.9979 0.9690
-7.0200 1.9230 -2.9972 0.9690
-6.9438 0.0000 -2.9952 0.9702
-6.9148 -0.6179 -2.9946 0.9702
-6.2599 -2.9901 -2.9925 0.9702
-5.5697 -4.0088 -2.9602 0.9705
-5.1878 -4.4861 -2.9585 0.9706
-3.8191 -5.6985 -2.9591 0.9706
-3.2974 -6.0170 -2.9597 0.9706
-2.7494 -6.2882 -2.9604 0.9705
-1.5921 -6.6806 -2.9625 0.9705
-0.9916 -6.7987 -2.9637 0.9705
-0.3827 -6.8632 -2.9651 0.9705
0.8412 -6.8297 -2.9683 0.9705
2.0413 -6.5804 -2.9719 0.9704
1.1348 -2.7613 -1.2877 0.9871
1.4563 -2.2812 -1.1674 0.9883
1.6535 -2.1426 -1.1674 0.9883
1.8924 -2.0461 -1.2022 0.9879
2.2267 -2.0139 -1.2951 0.9870
5.5277 -4.1686 -2.9864 0.9703
5.8809 -3.6626 -2.9885 0.9703
6.1877 -3.1268 -2.9906 0.9702
6.6527 -1.9827 -2.9944 0.9702
6.8069 -1.3835 -2.9962 0.9702
6.9069 -0.7726 -2.9979 0.9702
6.9518 -0.1549 -2.9995 0.9702
6.9413 0.4647 -3.0009 0.9701
6.5793 2.2846 -3.0042 0.9701
6.0718 3.4160 -3.0052 0.9701
5.7444 3.9433 -3.0055 0.9701
4.9552 4.9003 -3.0061 0.9701
4.4997 5.3223 -3.0064 0.9701
4.0084 5.7020 -3.0065 0.9701
2.7879 6.0077 -2.8569 0.9716
1.6775 6.4029 -2.8552 0.9716
1.1010 6.5269 -2.8552 0.9716
0.5156 6.5982 -2.8549 0.9716
-0.6620 6.5809 -2.8531 0.9716
-1.9150 6.6972 -3.0046 0.9701
-2.5031 6.4991 -3.0042 0.9701
-3.0710 6.2494 -3.0036 0.9701
-5.0547 4.7807 -3.0011 0.9701
-5.4589 4.3109 -3.0004 0.9702
-5.8196 3.8070 -2.9997 0.9702
-6.1339 3.2732 -2.9990 0.9702
-6.6139 2.1327 -2.9976 0.9702
-6.7759 1.5352 -2.9969 0.9702
-6.8841 0.9258 -2.9962 0.9702
-6.9376 0.3094 -2.9956 0.9702
-6.9361 -0.3093 -2.9949 0.9702
-6.3874 -2.7085 -2.9927 0.9702
-4.9828 -4.7127 -2.9585 0.9706
-4.5438 -5.1377 -2.9586 0.9706
-4.0689 -5.5223 -2.9589 0.9706
-3.0265 -6.1587 -2.9600 0.9705
-2.4670 -6.4054 -2.9609 0.9705
-0.6879 -6.8377 -2.9644 0.9705
-0.0766 -6.8752 -2.9658 0.9705
1.7455 -6.6626 -2.9710 0.9704
1.5493 -2.2038 -1.1620 0.9883
2.0466 -2.0240 -1.2416 0.9875
5.7099 -3.9196 -2.9875 0.9703
6.3230 -2.8490 -2.9916 0.9702
6.5557 -2.2764 -2.9935 0.9702
6.7365 -1.6849 -2.9953 0.9702
6.9535 0.1550 -3.0002 0.9702
6.8232 1.3869 -3.0034 0.9701
6.4715 2.5756 -3.0045 0.9701
5.9140 3.6833 -3.0054 0.9701
5.5634 4.1955 -3.0057 0.9701
4.7322 5.1164 -3.0063 0.9701
3.7505 5.8750 -3.0066 0.9701
3.0771 5.9245 -2.8797 0.9713
1.9609 6.3214 -2.8550 0.9716
0.2211 6.6139 -2.8546 0.9716
-0.9544 6.5438 -2.8526 0.9716
-1.6149 6.7763 -3.0049 0.9701
-2.7898 6.3805 -3.0039 0.9701
-3.8754 5.7826 -3.0027 0.9701
-4.3738 5.4136 -3.0021 0.9701
-4.8373 5.0017 -3.0015 0.9701
-5.2621 4.5503 -3.0008 0.9701
-5.9827 3.5436 -2.9994 0.9702
-6.7016 1.8358 -2.9973 0.9702
-6.8368 1.2317 -2.9966 0.9702
-6.9177 0.6182 -2.9959 0.9702
-6.6108 -0.5907 -2.9948 0.9713
-6.5307 -1.1766 -2.9942 0.9713
-6.3990 -1.7528 -2.9937 0.9713
-5.9849 -2.8587 -2.9928 0.9713
-4.5597 -4.7147 -2.9595 0.9716
-3.6523 -5.4496 -2.9601 0.9716
-3.1533 -5.7541 -2.9607 0.9716
-2.0843 -6.2254 -2.9623 0.9716
-1.5224 -6.3885 -2.9633 0.9716
-0.9482 -6.5012 -2.9645 0.9716
-0.3659 -6.5628 -2.9658 0.9716
0.2197 -6.5726 -2.9673 0.9716
0.8043 -6.5304 -2.9689 0.9715
1.9517 -6.2917 -2.9724 0.9715
1.4767 -2.3132 -1.2383 0.9880
5.6215 -3.5011 -2.9882 0.9714
5.9147 -2.9888 -2.9902 0.9713
6.1611 -2.4520 -2.9921 0.9713
6.6013 -0.7385 -2.9972 0.9713
6.6442 -0.1480 -2.9987 0.9713
5.8040 3.2653 -3.0049 0.9712
5.4910 3.7694 -3.0052 0.9712
4.7366 4.6841 -3.0058 0.9712
4.3012 5.0875 -3.0060 0.9712
3.3313 5.7699 -3.0062 0.9712
1.6031 6.1188 -2.8541 0.9726
1.0521 6.2373 -2.8541 0.9726
-0.0704 6.3228 -2.8531 0.9726
-0.6328 6.2899 -2.8525 0.9726
-1.2537 6.5403 -3.0048 0.9712
-1.8305 6.4019 -3.0044 0.9712
-2.3927 6.2125 -3.0039 0.9712
-2.9357 5.9739 -3.0034 0.9712
-3.4550 5.6879 -3.0028 0.9712
-3.9468 5.3567 -3.0023 0.9712
-6.1177 2.5942 -2.9983 0.9713
-6.3229 2.0389 -2.9977 0.9713
-6.5813 0.8851 -2.9963 0.9713
-6.5773 -0.8845 -2.9945 0.9713
-6.4713 -1.4662 -2.9940 0.9713
-6.3140 -2.0360 -2.9934 0.9713
-6.1068 -2.5895 -2.9930 0.9713
-5.5050 -3.6012 -2.9682 0.9715
-5.1475 -4.0650 -2.9596 0.9716
-3.8911 -5.2811 -2.9599 0.9716
-3.4062 -5.6073 -2.9604 0.9716
-2.8942 -5.8895 -2.9610 0.9716
-1.2366 -6.4512 -2.9639 0.9716
0.5125 -6.5579 -2.9681 0.9715
1.0947 -6.4899 -2.9697 0.9715
1.6690 -6.3704 -2.9715 0.9715
1.2220 -2.6335 -1.3100 0.9873
1.3823 -2.3943 -1.2475 0.9879
2.0810 -2.0579 -1.3206 0.9872
5.0996 -4.2149 -2.9852 0.9714
5.4582 -3.7468 -2.9873 0.9714
6.4387 -1.6104 -2.9948 0.9713
6.5602 -1.0315 -2.9964 0.9713
6.6294 -0.4438 -2.9980 0.9713
6.6133 0.7398 -3.0026 0.9712
6.1861 2.4620 -3.0042 0.9712
5.9433 3.0033 -3.0047 0.9712
5.3180 4.0105 -3.0054 0.9712
4.9404 4.4683 -3.0057 0.9712
4.0704 5.2742 -3.0061 0.9712
2.4038 5.8493 -2.8535 0.9726
1.3289 6.1842 -2.8541 0.9726
0.7732 6.2776 -2.8540 0.9726
0.2113 6.3205 -2.8535 0.9726
-0.3520 6.3124 -2.8527 0.9726
-2.1137 6.3134 -3.0042 0.9712
-3.1986 5.8367 -3.0031 0.9712
-4.1811 5.1751 -3.0020 0.9712
-5.0303 4.3499 -3.0007 0.9712
-5.7193 3.3876 -2.9994 0.9713
-5.9968 2.8644 -2.9987 0.9713
-6.2265 2.3188 -2.9980 0.9713
-6.4067 1.7550 -2.9973 0.9713
-6.5361 1.1775 -2.9967 0.9713
-6.3549 0.0000 -2.9955 0.9723
-6.3284 -0.5655 -2.9950 0.9723
-3.9473 -4.8856 -2.9607 0.9726
-3.4972 -5.2182 -2.9610 0.9726
-1.9957 -5.9609 -2.9631 0.9726
-1.4577 -6.1169 -2.9641 0.9726
-0.9079 -6.2248 -2.9653 0.9726
-0.3503 -6.2836 -2.9665 0.9726
0.2104 -6.2928 -2.9679 0.9725
1.3242 -6.1623 -2.9711 0.9725
1.3242 -2.5495 -1.3542 0.9874
1.4980 -2.3466 -1.3123 0.9878
1.9554 -2.1142 -1.3575 0.9873
2.3932 -2.1645 -1.5210 0.9858
5.0578 -3.8142 -2.9861 0.9724
5.3806 -3.3511 -2.9880 0.9724
5.6611 -2.8607 -2.9898 0.9723
5.8968 -2.3468 -2.9916 0.9723
6.0858 -1.8137 -2.9934 0.9723
6.3176 -0.7067 -2.9966 0.9723
6.1809 1.5460 -3.0033 0.9722
5.8106 2.6182 -3.0042 0.9722
4.9142 4.0617 -3.0053 0.9722
4.5336 4.4834 -3.0055 0.9722
4.1168 4.8694 -3.0057 0.9722
3.6673 5.2167 -3.0058 0.9722
2.0550 5.7120 -2.8614 0.9735
1.5339 5.8550 -2.8531 0.9736
1.0067 5.9684 -2.8531 0.9736
-0.6255 6.2176 -2.9456 0.9727
-1.1999 6.2600 -3.0045 0.9722
-1.7521 6.1276 -3.0041 0.9722
-2.2902 5.9464 -3.0037 0.9722
-2.8099 5.7180 -3.0032 0.9722
-3.7778 5.1274 -3.0021 0.9722
-4.2184 4.7699 -3.0015 0.9722
-4.6252 4.3746 -3.0009 0.9722
-4.9952 3.9447 -3.0003 0.9722
-5.6131 2.9952 -2.9990 0.9723
-5.8561 2.4832 -2.9984 0.9723
-6.0526 1.9517 -2.9977 0.9723
-6.3001 0.8473 -2.9964 0.9723
-6.3492 0.2831 -2.9958 0.9723
-6.2964 -0.8468 -2.9947 0.9723
-6.1949 -1.4036 -2.9942 0.9723
-6.0444 -1.9491 -2.9937 0.9723
-5.6015 -2.9890 -2.9928 0.9723
-4.5629 -4.3155 -2.9605 0.9726
-4.1608 -4.7047 -2.9606 0.9726
-3.7259 -5.0568 -2.9608 0.9726
-3.2615 -5.3692 -2.9613 0.9726
-2.7713 -5.6394 -2.9619 0.9726
-1.7285 -6.0448 -2.9636 0.9726
-1.1840 -6.1769 -2.9647 0.9726
-0.6298 -6.2604 -2.9659 0.9726
-0.0701 -6.2944 -2.9672 0.9725
0.4906 -6.2787 -2.9687 0.9725
1.0481 -6.2135 -2.9703 0.9725
1.5935 -2.2667 -1.3061 0.9878
1.8209 -2.1537 -1.3294 0.9876
2.1312 -2.1075 -1.4128 0.9868
4.8813 -4.0345 -2.9851 0.9724
5.2244 -3.5863 -2.9870 0.9724
5.5263 -3.1090 -2.9889 0.9723
6.3444 -0.4247 -2.9973 0.9723
6.3599 0.1418 -2.9987 0.9723
6.2431 1.2690 -3.0030 0.9722
5.0900 3.8386 -3.0051 0.9722
4.7286 4.2768 -3.0054 0.9722
4.3295 4.6810 -3.0056 0.9722
3.8959 5.0481 -3.0058 0.9722
2.9393 5.6592 -3.0059 0.9722
1.7933 5.7810 -2.8531 0.9736
0.7398 6.0070 -2.8530 0.9736
0.2022 6.0483 -2.8526 0.9736
-0.3400 6.0985 -2.8792 0.9734
-1.4775 6.1999 -3.0043 0.9722
-3.0616 5.5867 -3.0029 0.9722
-4.0021 4.9535 -3.0018 0.9722
-4.4262 4.5767 -3.0012 0.9722
-4.8150 4.1637 -3.0006 0.9722
-6.0905 0.0000 -2.9957 0.9732
-5.4913 -2.6230 -2.9932 0.9732
-4.5542 -3.9381 -2.9614 0.9735
-4.1856 -4.3279 -2.9614 0.9735
-3.7840 -4.6836 -2.9616 0.9735
-2.8945 -5.2818 -2.9624 0.9735
-2.4135 -5.5197 -2.9631 0.9735
-1.3974 -5.8637 -2.9649 0.9735
-0.8702 -5.9670 -2.9660 0.9735
-0.3358 -6.0233 -2.9672 0.9735
0.2017 -6.0320 -2.9685 0.9735
0.7381 -5.9930 -2.9700 0.9734
1.2693 -5.9067 -2.9715 0.9734
1.3628 -2.6239 -1.4543 0.9869
1.5256 -2.3899 -1.3946 0.9874
1.7338 -2.2466 -1.3958 0.9874
5.4248 -2.7413 -2.9895 0.9733
5.8315 -1.7379 -2.9929 0.9732
6.0534 -0.6772 -2.9960 0.9732
6.0924 -0.1358 -2.9973 0.9732
5.9232 1.4815 -3.0031 0.9732
5.7687 2.0031 -3.0035 0.9731
5.5683 2.5090 -3.0040 0.9731
3.9450 4.6662 -3.0054 0.9731
3.5142 4.9990 -3.0055 0.9731
2.5723 5.5431 -3.0056 0.9731
2.0451 5.6845 -2.9714 0.9734
1.4900 5.6872 -2.8917 0.9741
-0.6115 6.0781 -3.0046 0.9731
-1.1499 5.9989 -3.0043 0.9731
-4.0426 4.5711 -3.0014 0.9732
-4.4325 4.1923 -3.0008 0.9732
-4.7871 3.7804 -3.0002 0.9732
-5.1036 3.3386 -2.9996 0.9732
-5.3793 2.8705 -2.9990 0.9732
-6.0379 0.8120 -2.9965 0.9732
-6.0839 -0.2713 -2.9954 0.9732
-5.9374 -1.3452 -2.9943 0.9732
-5.6031 -2.3759 -2.9934 0.9732
-5.3687 -2.8648 -2.9931 0.9732
-5.0673 -3.3148 -2.9783 0.9734
-4.7260 -3.7321 -2.9619 0.9735
-3.9888 -4.5102 -2.9615 0.9735
-2.6567 -5.4061 -2.9627 0.9735
-2.1655 -5.6225 -2.9635 0.9735
-1.6569 -5.7947 -2.9644 0.9735
-1.1350 -5.9212 -2.9654 0.9735
0.4703 -6.0185 -2.9692 0.9734
1.0046 -5.9557 -2.9708 0.9734
1.3020 -2.8058 -1.5214 0.9863
1.4347 -2.4850 -1.4113 0.9873
1.8613 -2.2015 -1.4180 0.9872
2.2105 -2.1860 -1.5291 0.9862
5.0065 -3.4368 -2.9868 0.9733
5.2957 -2.9793 -2.9886 0.9733
5.5431 -2.4976 -2.9904 0.9733
5.7467 -1.9954 -2.9921 0.9732
6.0790 -0.4069 -2.9967 0.9732
6.0662 0.6786 -3.0023 0.9732
5.8518 1.7440 -3.0033 0.9731
5.4514 2.7547 -3.0042 0.9731
5.1852 3.2294 -3.0045 0.9731
4.5313 4.0983 -3.0051 0.9731
4.1489 4.4857 -3.0053 0.9731
1.2271 5.7102 -2.8727 0.9743
0.1976 5.9092 -2.9081 0.9740
-0.3387 6.0754 -2.9928 0.9732
-0.8816 6.0445 -3.0045 0.9731
-1.4159 5.9414 -3.0041 0.9731
-1.9388 5.7910 -3.0037 0.9731
-2.4461 5.5946 -3.0032 0.9731
-2.9339 5.3538 -3.0028 0.9732
-3.3982 5.0705 -3.0022 0.9732
-3.8353 4.7471 -3.0017 0.9732
-4.6144 3.9903 -3.0005 0.9732
-5.2467 3.1076 -2.9993 0.9732
-5.7122 2.1273 -2.9981 0.9732
-5.8776 1.6101 -2.9974 0.9732
-5.6331 -1.5430 -2.9943 0.9741
-5.2687 -2.5166 -2.9935 0.9741
-4.3705 -3.7793 -2.9622 0.9744
-3.6314 -4.4947 -2.9624 0.9744
-3.2174 -4.8006 -2.9627 0.9744
-2.7777 -5.0687 -2.9632 0.9744
-1.8359 -5.4836 -2.9646 0.9743
-1.3410 -5.6269 -2.9656 0.9743
-0.8351 -5.7260 -2.9666 0.9743
0.1935 -5.7882 -2.9691 0.9743
2.2059 -5.3677 -2.9752 0.9743
1.5707 -2.4605 -1.4966 0.9870
4.3168 -3.9043 -2.9840 0.9742
4.6499 -3.5066 -2.9858 0.9742
5.4204 -2.1573 -2.9909 0.9741
5.7230 -1.1632 -2.9940 0.9741
5.8439 -0.1302 -2.9967 0.9741
5.5341 1.9217 -3.0033 0.9740
5.3418 2.4069 -3.0037 0.9740
4.8316 3.3167 -3.0044 0.9740
4.1677 4.1215 -3.0050 0.9740
3.3712 4.7956 -3.0053 0.9740
1.4846 5.6666 -3.0031 0.9740
0.9656 5.7245 -2.9763 0.9742
-0.0653 5.8605 -3.0047 0.9740
-0.5866 5.8309 -3.0044 0.9740
-2.1054 5.4667 -3.0033 0.9740
-2.5832 5.2568 -3.0028 0.9740
-3.0404 5.0052 -3.0023 0.9740
-3.4732 4.7139 -3.0018 0.9740
-4.8963 3.2030 -2.9996 0.9740
-5.3845 2.2832 -2.9984 0.9741
-5.5652 1.7946 -2.9978 0.9741
-5.7018 1.2918 -2.9972 0.9741
-5.8372 -0.2603 -2.9955 0.9741
-5.3760 -2.2796 -2.9937 0.9741
-4.8708 -3.1864 -2.9840 0.9742
-4.5379 -3.5835 -2.9644 0.9743
-3.8279 -4.3283 -2.9623 0.9744
-3.4278 -4.6522 -2.9625 0.9744
-3.0005 -4.9395 -2.9630 0.9744
-1.0892 -5.6821 -2.9661 0.9743
-0.5793 -5.7586 -2.9672 0.9743
-0.0645 -5.7897 -2.9684 0.9743
1.9640 -5.4591 -2.9744 0.9743
1.4814 -2.5659 -1.5189 0.9868
1.6684 -2.3734 -1.4873 0.9870
1.9184 -2.2691 -1.5233 0.9867
4.4877 -3.7092 -2.9849 0.9742
4.8029 -3.2970 -2.9866 0.9742
5.3175 -2.3959 -2.9901 0.9741
5.5126 -1.9142 -2.9917 0.9741
5.6641 -1.4166 -2.9932 0.9741
5.8310 -0.3903 -2.9961 0.9741
5.7395 1.1666 -3.0027 0.9740
4.9743 3.0980 -3.0043 0.9740
4.6792 3.5288 -3.0046 0.9740
4.3470 3.9316 -3.0048 0.9740
3.9801 4.3032 -3.0050 0.9740
3.1543 4.9411 -3.0053 0.9740
2.2283 5.4222 -3.0054 0.9740
1.7368 5.5989 -3.0053 0.9740
1.2227 5.6899 -2.9836 0.9742
0.7110 5.7727 -2.9819 0.9742
0.1959 5.8578 -3.0048 0.9740
-1.8600 5.5555 -3.0035 0.9740
-2.3467 5.3671 -3.0031 0.9740
-2.8147 5.1361 -3.0026 0.9740
-3.2601 4.8644 -3.0021 0.9740
-3.6794 4.5541 -3.0016 0.9740
-5.4803 2.0409 -2.9981 0.9741
-5.6391 1.5447 -2.9975 0.9741
-5.7531 1.0365 -2.9969 0.9741
-5.5887 -0.4994 -2.9954 0.9749
-5.5212 -0.9947 -2.9949 0.9749
-5.0601 -2.4170 -2.9937 0.9749
-4.5173 -3.2513 -2.9712 0.9751
-2.6682 -4.8689 -2.9640 0.9751
-2.2248 -5.0881 -2.9646 0.9751
-0.8022 -5.5000 -2.9672 0.9751
-0.3096 -5.5517 -2.9684 0.9751
0.1859 -5.5596 -2.9696 0.9751
0.6803 -5.5234 -2.9709 0.9751
1.6505 -5.3206 -2.9739 0.9751
2.1186 -5.1553 -2.9755 0.9750
1.5107 -2.9087 -1.7497 0.9852
1.6194 -2.5368 -1.6067 0.9864
1.8428 -2.3877 -1.6101 0.9864
4.1455 -3.7493 -2.9839 0.9750
4.4653 -3.3674 -2.9856 0.9750
4.7499 -2.9583 -2.9873 0.9749
4.9971 -2.5252 -2.9889 0.9749
5.5753 -0.6237 -2.9949 0.9749
5.6110 -0.1250 -2.9961 0.9749
5.6104 0.3756 -3.0018 0.9748
5.5556 0.8736 -3.0023 0.9748
5.3143 1.8453 -3.0032 0.9748
4.6396 3.1849 -3.0042 0.9748
4.3381 3.5855 -3.0045 0.9748
4.0020 3.9577 -3.0047 0.9748
3.6341 4.2984 -3.0049 0.9748
3.2372 4.6050 -3.0050 0.9748
2.3695 5.1062 -3.0051 0.9748
1.9056 5.2968 -3.0051 0.9748
0.4385 5.6113 -3.0047 0.9748
-1.0593 5.5262 -3.0039 0.9748
-2.4807 5.0480 -3.0027 0.9748
-3.7244 4.2112 -3.0012 0.9748
-4.4104 3.4829 -3.0001 0.9748
-4.7020 3.0760 -2.9995 0.9748
-4.9562 2.6447 -2.9990 0.9748
-5.1709 2.1927 -2.9984 0.9749
-5.4756 1.2407 -2.9973 0.9749
-5.6059 -0.2499 -2.9956 0.9749
-5.4710 -1.2396 -2.9947 0.9749
-5.1631 -2.1893 -2.9939 0.9749
-4.9471 -2.6399 -2.9935 0.9749
-4.6853 -3.0650 -2.9888 0.9749
-4.3609 -3.4438 -2.9664 0.9751
-4.0324 -3.8138 -2.9630 0.9751
-3.6771 -4.1577 -2.9631 0.9751
-3.2927 -4.4689 -2.9633 0.9751
-2.8823 -4.7448 -2.9637 0.9751
-2.4489 -4.9834 -2.9643 0.9751
-1.9961 -5.1828 -2.9649 0.9751
-1.5273 -5.3414 -2.9658 0.9751
-0.5564 -5.5313 -2.9678 0.9751
-0.0619 -5.5611 -2.9690 0.9751
0.4335 -5.5470 -2.9703 0.9751
1.4115 -5.3874 -2.9731 0.9751
1.8863 -5.2431 -2.9747 0.9751
1.7198 -2.4465 -1.5965 0.9865
1.9823 -2.3447 -1.6391 0.9862
4.6121 -3.1661 -2.9865 0.9750
5.1061 -2.3006 -2.9897 0.9749
5.2933 -1.8380 -2.9913 0.9749
5.6121 0.1251 -2.9967 0.9749
5.5886 0.6252 -3.0020 0.9748
5.3908 1.6067 -3.0029 0.9748
5.2272 2.0804 -3.0034 0.9748
4.7766 2.9749 -3.0041 0.9748
4.1742 3.7753 -3.0046 0.9748
2.5946 4.9956 -3.0051 0.9748
0.1881 5.6250 -3.0046 0.9748
-0.8121 5.5683 -3.0040 0.9748
-1.7861 5.3348 -3.0033 0.9748
-2.2535 5.1539 -3.0029 0.9748
-2.7029 4.9321 -3.0024 0.9748
-3.1306 4.6712 -3.0020 0.9748
-3.9079 4.0408 -3.0009 0.9748
-4.2513 3.6762 -3.0004 0.9748
-4.5608 3.2827 -2.9998 0.9748
-5.2630 1.9600 -2.9981 0.9749
-5.4155 1.4835 -2.9975 0.9749
-5.2003 -1.4245 -2.9946 0.9756
-5.0522 -1.8814 -2.9942 0.9756
-4.6375 -2.7468 -2.9935 0.9756
-4.3476 -3.1292 -2.9751 0.9758
-4.0363 -3.4903 -2.9637 0.9759
-3.7097 -3.8358 -2.9637 0.9759
-2.9713 -4.4335 -2.9642 0.9759
-2.5653 -4.6811 -2.9647 0.9759
-1.6954 -5.0640 -2.9660 0.9759
-0.7712 -5.2876 -2.9678 0.9758
-0.2976 -5.3372 -2.9689 0.9758
