ply
format ascii 1.0
element vertex 1587
property float32 x
property float32 y
property float32 z
property float32 I
end_header
2.9955 -1.5137 0.0837 0.9867
3.5394 -1.0548 0.0921 0.9853
4.2455 -0.8629 0.1080 0.9828
2.6625 -2.6330 0.0934 0.9851
2.6799 -2.2150 0.0867 0.9862
2.7702 -1.9016 0.0838 0.9866
2.9075 -1.6357 0.0832 0.9867
3.0940 -1.3941 0.0846 0.9865
3.3535 -1.1645 0.0885 0.9859
2.6792 -2.8967 0.0328 0.9843
2.6452 -2.3924 0.0296 0.9858
2.8231 -1.7582 0.0276 0.9868
3.5141 -1.0473 0.0305 0.9854
2.5063 6.9664 0.0615 0.9708
2.7556 -1.8916 0.0278 0.9867
2.8929 -1.6275 0.0276 0.9868
3.3338 -1.1576 0.0293 0.9860
3.7514 -0.9383 0.0321 0.9847
2.6486 -2.8637 -0.0324 0.9845
2.6287 -2.3776 -0.0295 0.9859
2.9648 -1.4982 -0.0276 0.9868
4.1022 -0.8338 -0.0348 0.9834
2.6478 -2.1885 -0.0286 0.9864
2.7412 -1.8817 -0.0276 0.9868
3.0620 -1.3796 -0.0279 0.9867
3.3143 -1.1508 -0.0292 0.9861
2.7998 -1.7437 -0.0823 0.9869
3.4746 -1.0355 -0.0904 0.9856
2.5063 6.9663 -0.1846 0.9708
2.8062 -3.3192 -0.1084 0.9828
2.6089 -2.5800 -0.0915 0.9854
2.7318 -1.8753 -0.0826 0.9868
2.8691 -1.6141 -0.0821 0.9869
3.3024 -1.1467 -0.0872 0.9861
2.6279 -2.8412 -0.1609 0.9846
2.6136 -2.3638 -0.1465 0.9860
2.6815 -2.0222 -0.1396 0.9866
2.7953 -1.7409 -0.1369 0.9869
3.1592 -1.2573 -0.1414 0.9865
3.4666 -1.0331 -0.1504 0.9856
4.0449 -0.8222 -0.1716 0.9836
2.5063 6.9663 -0.3078 0.9708
2.6342 -2.1772 -0.1421 0.9864
2.8644 -1.6115 -0.1367 0.9869
3.0467 -1.3728 -0.1389 0.9867
3.2961 -1.1445 -0.1451 0.9861
2.6083 -2.3591 -0.2048 0.9860
2.7908 -1.7381 -0.1915 0.9869
2.9452 -1.4883 -0.1922 0.9869
3.1534 -1.2550 -0.1977 0.9865
4.0230 -0.8177 -0.2391 0.9837
2.5063 6.9662 -0.4312 0.9708
2.7639 -3.2691 -0.2493 0.9830
2.5958 -2.5670 -0.2126 0.9855
2.7226 -1.8689 -0.1923 0.9869
3.6718 -0.9184 -0.2204 0.9849
2.6139 -2.8261 -0.2885 0.9847
2.6723 -2.0153 -0.2508 0.9867
3.1476 -1.2527 -0.2539 0.9865
3.4508 -1.0284 -0.2698 0.9857
4.0012 -0.8133 -0.3060 0.9838
2.8552 -1.6063 -0.2455 0.9869
3.0365 -1.3682 -0.2496 0.9867
3.2837 -1.1402 -0.2605 0.9862
2.6070 -2.8186 -0.3520 0.9847
2.5979 -2.3496 -0.3211 0.9860
2.6677 -2.0118 -0.3063 0.9867
2.5062 6.9662 -0.6787 0.9707
2.7226 -3.2204 -0.3866 0.9832
2.5828 -2.5542 -0.3330 0.9855
2.6204 -2.1658 -0.3117 0.9864
2.7134 -1.8627 -0.3017 0.9869
3.0314 -1.3659 -0.3048 0.9867
2.5927 -2.3450 -0.3792 0.9860
2.6631 -2.0083 -0.3618 0.9867
2.9306 -1.4809 -0.3562 0.9869
3.1360 -1.2481 -0.3661 0.9865
2.5062 6.9662 -0.8030 0.9707
2.7396 -3.2404 -0.4603 0.9831
2.6159 -2.1621 -0.3681 0.9864
2.7088 -1.8595 -0.3564 0.9869
2.8460 -1.6011 -0.3542 0.9869
3.0264 -1.3636 -0.3600 0.9867
3.2713 -1.1359 -0.3756 0.9862
3.6455 -0.9118 -0.4076 0.9850
2.6118 -2.8238 -0.4820 0.9846
2.5951 -2.3471 -0.4385 0.9860
2.6621 -2.0076 -0.4178 0.9866
3.4414 -1.0256 -0.4500 0.9856
4.0108 -0.8152 -0.5129 0.9836
2.5062 6.9662 -0.9277 0.9706
2.7627 -3.2677 -0.5362 0.9829
2.7068 -1.8581 -0.4114 0.9869
3.0249 -1.3630 -0.4158 0.9867
3.6547 -0.9141 -0.4721 0.9849
2.6192 -2.8318 -0.5487 0.9845
2.6006 -2.3521 -0.4987 0.9859
2.6670 -2.0112 -0.4751 0.9866
4.0346 -0.8201 -0.5856 0.9835
2.7863 -3.2957 -0.6138 0.9827
2.5894 -2.5607 -0.5180 0.9854
2.6208 -2.1662 -0.4836 0.9864
2.7117 -1.8614 -0.4678 0.9868
2.8484 -1.6025 -0.4649 0.9869
3.0303 -1.3654 -0.4727 0.9867
2.6061 -2.3571 -0.5595 0.9859
2.6718 -2.0149 -0.5329 0.9865
4.0588 -0.8250 -0.6595 0.9834
2.8105 -3.3242 -0.6932 0.9825
2.5964 -2.5676 -0.5815 0.9853
2.6257 -2.1702 -0.5424 0.9863
2.8533 -1.6052 -0.5213 0.9868
3.0356 -1.3678 -0.5302 0.9866
3.6784 -0.9200 -0.6038 0.9848
2.6767 -2.0186 -0.5911 0.9865
2.9439 -1.4876 -0.5816 0.9867
3.1542 -1.2554 -0.5986 0.9863
2.8667 -3.3908 -0.7829 0.9821
2.6306 -2.1742 -0.6018 0.9862
2.8582 -1.6080 -0.5783 0.9868
3.0410 -1.3702 -0.5881 0.9865
3.2930 -1.1435 -0.6147 0.9859
2.6472 -2.8622 -0.7545 0.9842
2.6174 -2.3673 -0.6829 0.9857
2.6817 -2.0223 -0.6500 0.9864
2.7941 -1.7402 -0.6370 0.9867
3.1605 -1.2578 -0.6583 0.9862
2.5062 6.9660 -1.4326 0.9703
3.7314 14.2428 -2.8492 0.9418
2.6106 -2.5817 -0.7105 0.9852
2.8632 -1.6108 -0.6357 0.9867
3.2998 -1.1458 -0.6760 0.9859
3.7043 -0.9265 -0.7389 0.9846
7.9038 12.3812 -2.8426 0.9419
4.3612 14.0591 -2.8486 0.9418
-14.2781 0.0000 -3.0101 0.9433
-13.7650 -3.7706 -3.0088 0.9433
-12.4237 -5.9343 -2.9026 0.9453
-12.2272 -7.2421 -2.9960 0.9436
-11.5728 -8.3296 -3.0060 0.9434
-10.6134 -9.1777 -2.9581 0.9443
-9.7308 -10.0615 -2.9509 0.9444
-7.7928 -11.6277 -2.9510 0.9444
-6.7271 -12.2753 -2.9510 0.9444
-5.6083 -12.8266 -2.9513 0.9444
-4.4452 -13.2772 -2.9518 0.9444
-3.2467 -13.6236 -2.9526 0.9444
-0.7803 -13.9936 -2.9547 0.9443
2.9492 -13.7245 -2.9594 0.9442
5.3431 -13.0018 -2.9635 0.9442
6.4840 -12.4840 -2.9657 0.9441
7.5755 -11.8667 -2.9681 0.9441
8.6069 -11.1523 -2.9699 0.9440
2.7990 -1.7432 -0.6952 0.9866
2.9544 -1.4929 -0.6978 0.9866
3.1668 -1.2603 -0.7186 0.9862
14.0797 -1.5750 -2.9868 0.9437
14.1384 0.9465 -2.9873 0.9437
13.7506 3.4393 -2.9882 0.9437
13.3924 4.6504 -2.9888 0.9437
12.9282 5.8252 -2.9894 0.9437
12.3613 6.9544 -2.9901 0.9437
10.9384 9.0408 -2.9917 0.9436
10.0933 9.9815 -2.9926 0.9436
8.1689 11.6204 -2.9946 0.9436
5.6791 12.2382 -2.8443 0.9463
3.4256 13.0754 -2.8496 0.9462
2.2492 13.3342 -2.8508 0.9462
1.0539 13.4874 -2.8521 0.9462
-1.3553 13.4726 -2.8546 0.9462
-2.5502 13.3044 -2.8559 0.9461
-4.8721 12.6502 -2.8579 0.9461
-7.4059 12.1918 -3.0073 0.9434
-8.4636 11.4869 -3.0080 0.9433
-10.3702 9.8081 -3.0092 0.9433
-11.2036 8.8475 -3.0096 0.9433
-11.9481 7.8161 -3.0100 0.9433
-12.5975 6.7223 -3.0103 0.9433
-13.1467 5.5747 -3.0105 0.9433
-13.5911 4.3826 -3.0105 0.9433
-13.9272 3.1555 -3.0105 0.9433
-14.1523 1.9033 -3.0104 0.9433
-14.1482 -1.9027 -3.0096 0.9433
-13.9206 -3.1539 -3.0091 0.9433
-13.4288 -4.3302 -2.9746 0.9440
-12.2736 -6.5494 -2.9329 0.9447
-11.9340 -7.8068 -3.0064 0.9434
-11.0954 -8.7619 -2.9805 0.9438
-10.1708 -9.6195 -2.9513 0.9444
-8.3009 -11.2661 -2.9502 0.9444
-7.2671 -11.9632 -2.9510 0.9444
-6.1738 -12.5633 -2.9511 0.9444
-5.0318 -13.0647 -2.9515 0.9444
-2.6370 -13.7568 -2.9530 0.9443
-1.4026 -13.9420 -2.9541 0.9443
-0.1562 -14.0176 -2.9554 0.9443
2.3342 -13.8380 -2.9585 0.9442
4.7569 -13.2221 -2.9624 0.9442
5.9192 -12.7556 -2.9646 0.9441
9.0961 -10.7589 -2.9702 0.9440
2.6276 -2.5985 -0.7791 0.9850
2.6406 -2.1825 -0.7222 0.9861
3.0520 -1.3752 -0.7057 0.9864
13.9952 -2.2006 -2.9867 0.9437
14.1363 -0.9463 -2.9869 0.9437
13.5850 4.0488 -2.9885 0.9437
12.6573 6.3960 -2.9898 0.9437
11.3286 8.5433 -2.9913 0.9436
9.6402 10.4229 -2.9931 0.9436
8.6770 11.2431 -2.9941 0.9436
2.8403 13.2179 -2.8502 0.9462
1.6533 13.4241 -2.8514 0.9462
-0.7537 13.5166 -2.8540 0.9462
-3.1411 13.1805 -2.8565 0.9461
-6.5069 11.8736 -2.8544 0.9462
-7.9426 11.8512 -3.0077 0.9433
-8.9678 11.0996 -3.0083 0.9433
-9.9221 10.2594 -3.0089 0.9433
-11.5874 8.3401 -3.0098 0.9433
-12.2850 7.2765 -3.0101 0.9433
-13.3822 4.9836 -3.0105 0.9433
-13.7728 3.7728 -3.0106 0.9433
-14.0537 2.5319 -3.0105 0.9433
-13.1843 0.0000 -3.0092 0.9473
-13.1306 -1.1733 -3.0089 0.9473
-12.9723 -2.3371 -3.0085 0.9474
-12.7109 -3.4818 -3.0080 0.9474
-11.8875 -5.6782 -3.0069 0.9474
-9.8175 -8.4895 -2.9624 0.9481
-8.9945 -9.3002 -2.9530 0.9483
-8.1291 -10.0615 -2.9524 0.9483
-6.2172 -11.3450 -2.9528 0.9483
-5.1841 -11.8564 -2.9535 0.9483
-1.8688 -12.8137 -2.9556 0.9483
-0.7212 -12.9339 -2.9567 0.9482
0.4330 -12.9524 -2.9580 0.9482
2.7255 -12.6837 -2.9611 0.9482
2.7230 -2.9440 -0.9153 0.9837
2.8071 -1.7483 -0.7548 0.9865
2.9637 -1.4976 -0.7579 0.9865
3.1832 -1.2669 -0.7820 0.9860
3.5219 -1.0496 -0.8388 0.9850
12.8206 -2.6059 -2.9861 0.9477
13.0875 -0.2916 -2.9879 0.9477
13.0628 0.8745 -2.9882 0.9477
12.9347 2.0339 -2.9885 0.9477
12.7043 3.1776 -2.9890 0.9477
12.3732 4.2965 -2.9895 0.9477
11.9440 5.3818 -2.9901 0.9477
11.4201 6.4249 -2.9908 0.9477
9.3242 9.2210 -2.9931 0.9476
8.4690 10.0172 -2.9940 0.9476
7.5461 10.7345 -2.9949 0.9476
5.2459 11.3046 -2.8445 0.9502
2.5061 6.9659 -1.6897 0.9701
2.0776 12.3171 -2.8510 0.9500
-1.2518 12.4437 -2.8545 0.9500
-6.8390 11.2586 -3.0066 0.9474
-7.8156 10.6074 -3.0073 0.9474
-9.5759 9.0569 -3.0084 0.9474
-10.3455 8.1698 -3.0088 0.9474
-11.6324 6.2073 -3.0094 0.9473
-12.1394 5.1476 -3.0095 0.9473
-12.8601 2.9137 -3.0096 0.9473
-13.1717 0.5874 -3.0093 0.9473
-13.1706 -0.5873 -3.0091 0.9473
-13.0645 -1.7570 -3.0087 0.9474
-12.8544 -2.9124 -3.0083 0.9474
-12.1299 -5.1435 -3.0072 0.9474
-10.2907 -8.1264 -2.9928 0.9476
-9.4012 -8.8916 -2.9535 0.9483
-8.5702 -9.6904 -2.9527 0.9483
-7.6723 -10.4129 -2.9522 0.9483
-5.7068 -11.6131 -2.9534 0.9483
-3.5585 -12.4449 -2.9543 0.9483
-1.2964 -12.8865 -2.9561 0.9482
-0.1444 -12.9559 -2.9573 0.9482
2.1572 -12.7889 -2.9602 0.9482
4.3959 -12.2186 -2.9638 0.9481
5.4696 -11.7867 -2.9658 0.9481
7.4788 -10.6387 -2.9682 0.9480
2.7403 -1.8811 -0.7586 0.9865
2.8761 -1.6181 -0.7532 0.9866
3.0634 -1.3803 -0.7669 0.9863
3.3290 -1.1559 -0.8043 0.9856
3.7918 -0.9484 -0.8921 0.9841
13.0881 0.2917 -2.9880 0.9477
13.0116 1.4556 -2.9883 0.9477
12.5511 3.7407 -2.9892 0.9477
10.4658 7.8926 -2.9919 0.9476
9.7244 8.7952 -2.9927 0.9476
8.9055 9.6285 -2.9935 0.9476
4.7434 11.5424 -2.8483 0.9501
2.6237 12.2099 -2.8504 0.9501
1.5272 12.4000 -2.8516 0.9500
-0.6961 12.4846 -2.8539 0.9500
-3.9744 11.8708 -2.8572 0.9499
-7.3345 10.9439 -3.0070 0.9474
-8.2812 10.2498 -3.0076 0.9474
-9.9706 8.6219 -3.0086 0.9474
-10.6998 7.7013 -3.0090 0.9473
-11.8978 5.6831 -3.0095 0.9473
-12.3568 4.6018 -3.0096 0.9473
-12.9769 2.3379 -3.0096 0.9473
-13.1329 1.1736 -3.0094 0.9473
-12.1897 -1.0893 -3.0082 0.9508
-12.0429 -2.1696 -3.0078 0.9508
-11.4638 -4.2691 -3.0069 0.9509
-11.0363 -5.2716 -3.0063 0.9509
-7.5534 -9.3489 -2.9543 0.9517
-6.6903 -9.9827 -2.9538 0.9517
-5.7752 -10.5384 -2.9538 0.9517
-4.8146 -11.0114 -2.9540 0.9517
-3.8175 -11.4023 -2.9556 0.9517
-2.7884 -11.7005 -2.9565 0.9517
0.4023 -12.0338 -2.9596 0.9516
1.4725 -11.9558 -2.9609 0.9516
4.5854 -11.1581 -2.9652 0.9515
6.4939 -10.1725 -2.9665 0.9515
7.3782 -9.5603 -2.9684 0.9515
2.7629 -2.9872 -1.0002 0.9834
2.6629 -2.4085 -0.8825 0.9853
2.8232 -1.7583 -0.8175 0.9864
12.0137 1.8891 -2.9892 0.9511
10.0355 6.8890 -2.9920 0.9511
8.6593 8.5634 -2.9935 0.9511
7.8649 9.3027 -2.9943 0.9511
7.0077 9.9686 -2.9951 0.9510
5.7847 10.0194 -2.8437 0.9535
4.8714 10.4976 -2.8446 0.9534
2.5061 6.9659 -1.8197 0.9700
1.9294 11.4380 -2.8512 0.9533
0.9040 11.5687 -2.8523 0.9533
-0.1293 11.6078 -2.8533 0.9533
-2.1870 11.4096 -2.8555 0.9533
-6.3493 10.4524 -3.0061 0.9509
-8.8899 8.4080 -3.0077 0.9508
-9.6042 7.5844 -3.0080 0.9508
-10.2422 6.7002 -3.0084 0.9508
-10.7988 5.7624 -3.0086 0.9508
-11.2694 4.7786 -3.0088 0.9508
-11.9384 2.7049 -3.0088 0.9508
-12.1314 1.6315 -3.0087 0.9508
-12.2279 0.5453 -3.0086 0.9508
-12.1284 -1.6311 -3.0080 0.9508
-11.2612 -4.7751 -3.0066 0.9509
-10.2318 -6.6933 -3.0053 0.9509
-7.9631 -9.0040 -2.9546 0.9517
-7.1288 -9.6753 -2.9540 0.9517
-5.3001 -10.7854 -2.9539 0.9517
-4.3206 -11.2181 -2.9549 0.9517
-3.3065 -11.5633 -2.9562 0.9517
-0.1341 -12.0373 -2.9590 0.9516
0.9382 -12.0067 -2.9602 0.9516
2.0041 -11.8813 -2.9617 0.9516
3.0553 -11.6620 -2.9633 0.9516
4.0832 -11.3494 -2.9647 0.9515
6.0337 -10.4509 -2.9662 0.9515
6.9428 -9.8763 -2.9674 0.9515
7.7994 -9.2251 -2.9693 0.9515
2.6770 -2.6473 -0.9254 0.9846
2.6733 -2.2096 -0.8525 0.9858
2.8926 -1.6274 -0.8158 0.9864
3.3517 -1.1638 -0.8721 0.9855
12.1563 0.2709 -2.9888 0.9511
12.0852 1.3520 -2.9891 0.9511
11.9184 2.4225 -2.9894 0.9511
11.3037 4.4988 -2.9904 0.9511
10.3312 6.4344 -2.9916 0.9511
9.0310 8.1681 -2.9931 0.9511
8.2704 8.9419 -2.9939 0.9511
6.4420 10.0912 -2.9427 0.9519
5.3334 10.2686 -2.8442 0.9535
4.3996 10.7058 -2.8450 0.9534
3.4350 11.0733 -2.8497 0.9534
0.3878 11.5997 -2.8528 0.9533
-1.6763 11.4935 -2.8550 0.9533
-2.6936 11.3030 -2.8561 0.9533
-3.6886 11.0174 -2.8558 0.9533
-7.6880 9.5156 -3.0069 0.9509
-8.5059 8.7950 -3.0074 0.9509
-10.5310 6.2375 -3.0085 0.9508
-11.0055 -3.0147 -3.0068 0.9539
-10.6918 -3.9816 -3.0063 0.9539
-9.8127 -5.8121 -3.0052 0.9539
-7.8002 -8.0654 -2.9565 0.9546
-6.2445 -9.3174 -2.9555 0.9547
-1.6201 -11.1080 -2.9579 0.9546
-0.6252 -11.2129 -2.9592 0.9546
0.3755 -11.2285 -2.9604 0.9546
2.3620 -10.9919 -2.9625 0.9546
4.2757 -10.4044 -2.9640 0.9545
6.0591 -9.4915 -2.9672 0.9545
6.8840 -8.9198 -2.9689 0.9545
2.8166 -3.0452 -1.0930 0.9830
2.6826 -2.4263 -0.9531 0.9851
2.7313 -2.0597 -0.9014 0.9859
2.8397 -1.7686 -0.8815 0.9863
11.1019 -2.2565 -2.9852 0.9542
11.3202 0.7578 -2.9896 0.9542
11.2090 1.7626 -2.9899 0.9541
11.0091 2.7536 -2.9903 0.9541
10.7219 3.7231 -2.9907 0.9541
10.3498 4.6634 -2.9912 0.9541
9.8955 5.5672 -2.9918 0.9541
9.3627 6.4271 -2.9924 0.9541
8.7555 7.2366 -2.9931 0.9541
5.3964 9.3468 -2.8439 0.9563
2.5061 6.9659 -1.9507 0.9698
2.7416 10.4647 -2.8505 0.9562
1.7999 10.6703 -2.8513 0.9562
0.8433 10.7919 -2.8523 0.9562
-0.1206 10.8280 -2.8533 0.9562
-1.0843 10.7781 -2.8544 0.9562
-3.8924 10.1063 -2.8537 0.9562
-4.7739 9.7147 -2.8522 0.9562
-5.9218 9.7486 -3.0056 0.9539
-6.7672 9.1846 -3.0061 0.9539
-11.1339 2.5226 -3.0081 0.9539
-11.3139 1.5216 -3.0081 0.9539
-11.4038 0.5085 -3.0079 0.9539
-11.1296 -2.5216 -3.0070 0.9539
-10.8594 -3.5017 -3.0065 0.9539
-10.0629 -5.3697 -3.0055 0.9539
-9.5431 -6.2428 -3.0049 0.9539
-8.9476 -7.0658 -3.0042 0.9539
-8.1634 -7.7209 -2.9608 0.9546
-7.4324 -8.4039 -2.9562 0.9547
-6.6538 -9.0305 -2.9557 0.9547
-5.8230 -9.5859 -2.9554 0.9547
-4.9467 -10.0662 -2.9554 0.9547
-4.0314 -10.4673 -2.9556 0.9547
-2.1128 -11.0223 -2.9573 0.9546
-1.1239 -11.1716 -2.9586 0.9546
-0.1253 -11.2319 -2.9598 0.9546
2.8498 -10.8775 -2.9630 0.9546
3.8076 -10.5835 -2.9637 0.9545
5.6287 -9.7492 -2.9663 0.9545
7.2767 -8.6069 -2.9699 0.9544
2.7026 -2.6727 -1.0016 0.9844
2.6925 -2.2254 -0.9204 0.9857
2.7738 -1.9041 -0.8865 0.9862
3.8850 -0.9717 -1.0552 0.9836
11.1953 -1.7604 -2.9862 0.9542
11.3422 0.2528 -2.9894 0.9542
11.1201 2.2603 -2.9901 0.9541
10.1327 5.1203 -2.9915 0.9541
8.4254 7.6204 -2.9935 0.9541
6.9443 8.9980 -2.9950 0.9541
6.1175 9.5830 -2.9958 0.9541
4.9753 9.5793 -2.8443 0.9563
2.2730 10.5779 -2.8509 0.9562
1.3230 10.7417 -2.8518 0.9562
0.3618 10.8207 -2.8528 0.9562
-1.5636 10.7210 -2.8549 0.9562
-3.4393 10.2727 -2.8545 0.9562
-4.3373 9.9198 -2.8528 0.9562
-5.4811 10.0018 -3.0053 0.9539
-7.1702 8.8748 -3.0064 0.9539
-7.9329 8.2026 -3.0068 0.9539
-9.2638 6.6678 -3.0076 0.9539
-9.8214 5.8172 -3.0078 0.9539
-10.6982 3.9841 -3.0081 0.9539
-11.0105 3.0161 -3.0081 0.9539
-11.2351 2.0241 -3.0081 0.9539
-10.3052 -2.8229 -3.0062 0.9566
-10.0116 -3.7283 -3.0058 0.9566
-9.6384 -4.6038 -3.0053 0.9566
-8.0156 -6.9314 -2.9815 0.9569
-6.6059 -8.1761 -2.9574 0.9573
-5.0505 -9.2160 -2.9568 0.9573
-4.2103 -9.6291 -2.9569 0.9573
-1.5174 -10.4040 -2.9582 0.9573
-0.5855 -10.5005 -2.9590 0.9572
0.3515 -10.5141 -2.9599 0.9572
1.2864 -10.4447 -2.9609 0.9572
3.1205 -10.0595 -2.9633 0.9572
2.9552 -3.1952 -1.2245 0.9821
2.8565 -1.7791 -0.9468 0.9861
3.0171 -1.5246 -0.9511 0.9861
3.6134 -1.0769 -1.0608 0.9845
10.5497 -1.1801 -2.9867 0.9568
10.6038 0.7099 -2.9901 0.9568
9.2689 5.2146 -2.9922 0.9568
8.7697 6.0200 -2.9928 0.9568
8.2008 6.7781 -2.9934 0.9568
6.8722 8.1285 -2.9948 0.9567
6.1230 8.7101 -2.9956 0.9567
5.0563 8.7577 -2.8452 0.9589
4.2561 9.1716 -2.8448 0.9589
-0.1130 10.1408 -2.8533 0.9587
-1.0155 10.0939 -2.8543 0.9587
-1.9105 9.9667 -2.8552 0.9587
-2.7889 9.7535 -2.8542 0.9587
-4.6761 9.5157 -2.9831 0.9569
-9.8410 4.1729 -3.0075 0.9566
-10.1735 3.2806 -3.0075 0.9566
-10.4252 2.3621 -3.0075 0.9566
-10.5937 1.4247 -3.0074 0.9566
-10.6772 -0.4761 -3.0071 0.9566
-10.5914 -1.4244 -3.0068 0.9566
-10.1685 -3.2789 -3.0060 0.9566
-8.9362 -5.8458 -3.0045 0.9566
-7.6547 -7.2397 -2.9644 0.9572
-6.9641 -7.8744 -2.9577 0.9573
-5.4562 -8.9821 -2.9569 0.9573
-4.6349 -9.4317 -2.9568 0.9573
-1.9791 -10.3250 -2.9579 0.9573
-0.1172 -10.5176 -2.9594 0.9572
0.8197 -10.4898 -2.9604 0.9572
2.6687 -10.1862 -2.9627 0.9572
4.4366 -9.5606 -2.9655 0.9571
5.2727 -9.1325 -2.9670 0.9571
2.7910 -1.9159 -0.9525 0.9860
2.9267 -1.6465 -0.9448 0.9861
10.5952 -0.7092 -2.9877 0.9568
10.6229 0.2368 -2.9896 0.9568
10.4162 2.1172 -2.9906 0.9568
9.0282 5.6228 -2.9925 0.9568
6.5041 8.4276 -2.9952 0.9567
4.6598 8.9717 -2.8444 0.9589
1.2391 10.0605 -2.8520 0.9588
0.3388 10.1341 -2.8529 0.9587
-2.3523 9.8706 -2.8549 0.9587
-4.0606 9.2870 -2.8518 0.9588
-5.1325 9.3657 -3.0048 0.9566
-7.4282 7.6807 -3.0063 0.9566
-8.0833 6.9899 -3.0067 0.9566
-8.6743 6.2433 -3.0070 0.9566
-9.1963 5.4470 -3.0072 0.9566
-9.6451 4.6071 -3.0074 0.9566
-10.0024 -0.8938 -3.0064 0.9589
-9.8821 -1.7803 -3.0061 0.9589
-9.6833 -2.6525 -3.0058 0.9589
-9.4075 -3.5034 -3.0054 0.9590
-8.6344 -5.1142 -3.0044 0.9590
-8.1434 -5.8612 -3.0038 0.9590
-7.5574 -6.5352 -2.9911 0.9591
-6.2109 -7.6873 -2.9587 0.9596
-5.5014 -8.2086 -2.9584 0.9596
-4.7486 -8.6651 -2.9582 0.9596
-3.9585 -9.0533 -2.9581 0.9596
-2.2911 -9.6137 -2.9588 0.9596
-1.4266 -9.7814 -2.9593 0.9596
0.3305 -9.8845 -2.9609 0.9595
2.0793 -9.6761 -2.9630 0.9595
4.5678 -8.7946 -2.9669 0.9595
5.3351 -8.3573 -2.9684 0.9594
6.0609 -7.8534 -2.9699 0.9594
6.7395 -7.2867 -2.9715 0.9594
2.7325 -2.4714 -1.1030 0.9847
2.7662 -2.0861 -1.0373 0.9856
2.8737 -1.7898 -1.0135 0.9860
9.9131 -1.1089 -2.9863 0.9592
9.9643 0.6671 -2.9898 0.9592
9.4399 3.2779 -2.9916 0.9591
9.1121 4.1057 -2.9921 0.9591
8.7119 4.9013 -2.9926 0.9591
8.2426 5.6583 -2.9932 0.9591
7.7078 6.3707 -2.9938 0.9591
7.1117 7.0330 -2.9944 0.9591
4.9848 8.6339 -2.9847 0.9592
4.0000 8.6197 -2.8449 0.9611
2.5061 6.9658 -2.2163 0.9696
1.5844 9.3929 -2.8518 0.9610
-0.9543 9.4860 -2.8542 0.9610
-3.4235 8.8889 -2.8517 0.9610
-5.9544 8.0814 -3.0052 0.9590
-7.2949 6.8995 -3.0060 0.9589
-8.4042 5.4978 -3.0066 0.9589
-9.2468 3.9210 -3.0069 0.9589
-9.5593 3.0825 -3.0070 0.9589
-9.7957 2.2195 -3.0070 0.9589
-9.9542 1.3387 -3.0069 0.9589
-10.0327 -0.4473 -3.0066 0.9589
-9.7924 -2.2187 -3.0060 0.9589
-9.5549 -3.0810 -3.0056 0.9589
-8.3972 -5.4932 -3.0041 0.9590
-7.8734 -6.2176 -3.0035 0.9590
-7.2010 -6.8107 -2.9674 0.9595
-3.5513 -9.2208 -2.9582 0.9596
-1.8607 -9.7071 -2.9590 0.9596
-0.1102 -9.8880 -2.9605 0.9596
0.7706 -9.8616 -2.9614 0.9595
1.6459 -9.7572 -2.9624 0.9595
2.5087 -9.5757 -2.9636 0.9595
3.3525 -9.3184 -2.9648 0.9595
4.1705 -8.9871 -2.9662 0.9595
4.9563 -8.5845 -2.9676 0.9595
5.7036 -8.1134 -2.9691 0.9594
6.4065 -7.5776 -2.9707 0.9594
2.7887 -2.7578 -1.1742 0.9838
2.7321 -2.2581 -1.0611 0.9853
3.1389 -1.4143 -1.0307 0.9857
3.4292 -1.1907 -1.0868 0.9850
4.1547 -1.0392 -1.2821 0.9823
9.8509 -1.5489 -2.9854 0.9592
9.5759 2.8540 -2.9914 0.9591
9.2852 3.6954 -2.9919 0.9591
8.9208 4.5079 -2.9923 0.9591
6.7921 7.3436 -2.9947 0.9591
6.1129 7.9208 -2.9954 0.9591
4.3794 8.4319 -2.8445 0.9611
3.6124 8.7904 -2.8452 0.9611
0.3184 9.5241 -2.8529 0.9610
-1.3761 9.4355 -2.8547 0.9610
-2.2098 9.2729 -2.8538 0.9610
-3.0249 9.0349 -2.8524 0.9610
-3.8154 8.7261 -2.8512 0.9610
-4.8229 8.8007 -3.0044 0.9590
-6.3089 7.8087 -3.0054 0.9590
-6.9799 7.2171 -3.0058 0.9589
-7.5954 6.5680 -3.0062 0.9589
-8.6411 5.1181 -3.0067 0.9589
-9.0628 4.3290 -3.0069 0.9589
-9.4125 3.5053 -3.0070 0.9589
-9.6872 2.6536 -3.0070 0.9589
-9.8848 1.7808 -3.0070 0.9589
-9.4659 0.0000 -3.0062 0.9611
-9.4276 -0.8424 -3.0060 0.9611
-9.1270 -2.5001 -3.0054 0.9611
-8.5367 -4.0776 -3.0045 0.9611
-8.1386 -4.8205 -3.0040 0.9611
-7.6759 -5.5247 -3.0035 0.9611
-7.1404 -6.1745 -2.9979 0.9612
-6.4857 -6.7061 -2.9628 0.9616
-5.8572 -7.2495 -2.9599 0.9616
-4.4782 -8.1717 -2.9594 0.9616
-3.7331 -8.5378 -2.9593 0.9616
-1.3453 -9.2239 -2.9604 0.9616
-0.5191 -9.3091 -2.9610 0.9616
1.1404 -9.2590 -2.9627 0.9616
2.7660 -8.9166 -2.9649 0.9616
3.5501 -8.6387 -2.9661 0.9616
4.3068 -8.2921 -2.9675 0.9615
5.0301 -7.8796 -2.9689 0.9615
6.3539 -6.8698 -2.9719 0.9615
2.7743 -2.5092 -1.1880 0.9844
2.7944 -2.1073 -1.1115 0.9854
2.8951 -1.8031 -1.0832 0.9858
3.7427 -1.1154 -1.2403 0.9837
9.2082 -1.8716 -2.9842 0.9613
9.4049 -0.2096 -2.9876 0.9613
9.3028 1.4628 -2.9907 0.9612
8.5908 3.8708 -2.9925 0.9612
8.2135 4.6209 -2.9929 0.9612
7.7710 5.3345 -2.9935 0.9612
7.2667 6.0061 -2.9940 0.9612
6.7046 6.6304 -2.9946 0.9612
6.0891 7.2023 -2.9953 0.9612
5.4251 7.7174 -2.9959 0.9612
4.7178 8.1714 -2.9966 0.9612
1.4937 8.8552 -2.8520 0.9630
-0.1001 8.9841 -2.8534 0.9630
-1.6915 8.8244 -2.8535 0.9630
-2.4691 8.6350 -2.8522 0.9630
-5.6124 7.6172 -3.0048 0.9611
-6.8758 6.5031 -3.0056 0.9611
-7.4280 5.8659 -3.0059 0.9611
-7.9213 5.1819 -3.0061 0.9611
-8.3516 4.4565 -3.0063 0.9611
-8.7154 3.6957 -3.0064 0.9610
-9.0099 2.9053 -3.0065 0.9610
-9.3821 1.2618 -3.0064 0.9610
-9.4561 -0.4216 -3.0061 0.9611
-9.0060 -2.9040 -3.0052 0.9611
-7.9151 -5.1778 -3.0038 0.9611
-7.4214 -5.8606 -3.0032 0.9611
-6.7940 -6.4257 -2.9699 0.9615
-1.7547 -9.1539 -2.9601 0.9616
-0.9331 -9.2757 -2.9607 0.9616
1.5519 -9.2006 -2.9632 0.9616
2.3655 -9.0292 -2.9643 0.9616
5.3775 -7.6495 -2.9696 0.9615
6.0403 -7.1441 -2.9711 0.9615
2.8463 -2.8148 -1.2713 0.9833
2.7710 -2.2903 -1.1417 0.9850
2.8324 -1.9443 -1.0911 0.9857
2.9656 -1.6684 -1.0806 0.9858
3.1680 -1.4274 -1.1035 0.9855
3.4867 -1.2107 -1.1722 0.9846
9.1130 -2.2793 -2.9833 0.9613
9.3836 -0.6281 -2.9867 0.9613
9.4074 0.2097 -2.9884 0.9613
9.3564 1.0467 -2.9900 0.9613
9.2307 1.8762 -2.9915 0.9612
9.0282 2.6907 -2.9918 0.9612
7.5263 5.6759 -2.9937 0.9612
6.4033 6.9232 -2.9949 0.9612
5.7629 7.4672 -2.9956 0.9612
5.0765 7.9523 -2.9962 0.9612
4.1285 7.9488 -2.8446 0.9631
2.6550 8.5589 -2.8459 0.9631
1.8865 8.7793 -2.8518 0.9630
1.0979 8.9140 -2.8523 0.9630
-0.5003 8.9720 -2.8538 0.9630
-2.0824 8.7384 -2.8529 0.9630
-2.8506 8.5144 -2.8516 0.9630
-3.7312 8.5336 -2.9579 0.9617
-4.5459 8.2953 -3.0041 0.9611
-5.2671 7.8590 -3.0046 0.9611
-5.9465 7.3601 -3.0050 0.9611
-6.5789 6.8025 -3.0054 0.9611
-7.1590 6.1906 -3.0057 0.9611
-7.6823 5.5294 -3.0060 0.9611
-8.1445 4.8240 -3.0062 0.9611
-8.8715 3.3038 -3.0065 0.9610
-9.3167 1.6785 -3.0065 0.9610
-8.9102 -0.7962 -3.0056 0.9630
-8.8032 -1.5859 -3.0053 0.9630
-8.6261 -2.3629 -3.0050 0.9630
-8.0684 -3.8539 -3.0042 0.9630
-6.7577 -5.8436 -3.0016 0.9630
-6.1370 -6.3456 -2.9660 0.9634
-5.5385 -6.8550 -2.9610 0.9635
-4.2346 -7.7271 -2.9605 0.9635
-2.0429 -8.5724 -2.9608 0.9635
-1.2720 -8.7215 -2.9613 0.9635
1.8537 -8.6264 -2.9645 0.9635
2.6151 -8.4303 -2.9656 0.9634
3.3564 -8.1673 -2.9667 0.9634
6.0068 -6.4945 -2.9723 0.9634
2.8305 -2.1345 -1.1911 0.9852
3.3586 -1.3367 -1.2145 0.9849
3.8412 -1.1448 -1.3467 0.9832
8.7032 -1.7690 -2.9839 0.9632
8.8309 -0.9879 -2.9855 0.9632
8.8885 -0.1981 -2.9871 0.9632
8.8754 0.5942 -2.9887 0.9632
8.7916 1.3824 -2.9901 0.9631
8.4136 2.9215 -2.9924 0.9631
7.3461 5.0429 -2.9937 0.9631
6.8694 5.6777 -2.9943 0.9631
5.7561 6.8083 -2.9954 0.9631
5.1283 7.2951 -2.9961 0.9631
2.5061 6.9658 -2.4872 0.9692
-0.0946 8.4924 -2.8534 0.9648
-1.5983 8.3385 -2.8526 0.9648
-3.0492 7.9170 -2.8504 0.9648
-3.9427 8.0232 -3.0036 0.9630
-6.4984 6.1462 -3.0052 0.9630
-7.0203 5.5439 -3.0055 0.9630
-8.2370 3.4928 -3.0060 0.9630
-8.7259 1.9771 -3.0061 0.9629
-8.9376 0.3986 -3.0059 0.9630
-8.9371 -0.3985 -3.0057 0.9630
-8.5118 -2.7447 -3.0048 0.9630
-8.2326 -3.4909 -3.0044 0.9630
-7.4809 -4.8938 -3.0035 0.9630
-6.4350 -6.0862 -2.9759 0.9633
-4.5747 -7.5310 -2.9605 0.9635
-3.1669 -8.2226 -2.9605 0.9635
-2.4226 -8.4724 -2.9607 0.9635
-0.8823 -8.7704 -2.9616 0.9635
-0.0982 -8.8162 -2.9623 0.9635
0.6870 -8.7923 -2.9631 0.9635
1.4673 -8.6990 -2.9640 0.9635
2.2365 -8.5368 -2.9650 0.9634
3.7176 -8.0113 -2.9674 0.9634
5.7100 -6.7538 -2.9715 0.9634
2.9605 -2.9277 -1.3989 0.9826
2.8128 -2.3248 -1.2261 0.9847
3.0010 -1.6883 -1.1569 0.9856
8.8685 -0.5937 -2.9863 0.9632
8.8908 0.1982 -2.9879 0.9632
8.8423 0.9892 -2.9894 0.9632
8.7233 1.7731 -2.9908 0.9631
8.5346 2.5436 -2.9921 0.9631
8.2757 3.2937 -2.9926 0.9631
7.9508 4.0178 -2.9930 0.9631
7.5629 4.7102 -2.9935 0.9631
7.1148 5.3656 -2.9940 0.9631
6.6102 5.9786 -2.9946 0.9631
5.4476 7.0587 -2.9957 0.9631
4.7987 7.5171 -2.9964 0.9631
3.2205 7.8366 -2.8466 0.9649
1.7828 8.2965 -2.8511 0.9648
0.2838 8.4871 -2.8531 0.9648
-0.4729 8.4804 -2.8537 0.9648
-1.2255 8.4028 -2.8531 0.9648
-2.6938 8.0459 -2.8508 0.9648
-4.2966 7.8403 -3.0038 0.9630
-5.6202 6.9563 -3.0047 0.9630
-6.2178 6.4292 -3.0050 0.9630
-7.2606 5.2259 -3.0056 0.9630
-7.6975 4.5592 -3.0058 0.9630
-8.0731 3.8562 -3.0060 0.9630
-8.3845 3.1225 -3.0060 0.9629
-8.6292 2.3638 -3.0061 0.9629
-8.8052 1.5864 -3.0060 0.9629
-8.4758 0.0000 -3.0054 0.9647
-8.1726 -2.2387 -3.0047 0.9647
-7.9400 -2.9569 -3.0043 0.9647
-7.6443 -3.6513 -3.0039 0.9647
-6.4050 -5.5386 -3.0025 0.9647
-5.8201 -6.0180 -2.9686 0.9651
-5.2496 -6.4974 -2.9619 0.9652
-4.6500 -6.9382 -2.9616 0.9652
-4.0137 -7.3241 -2.9614 0.9652
-1.9363 -8.1253 -2.9618 0.9652
1.7568 -8.1756 -2.9652 0.9651
3.1809 -7.7402 -2.9673 0.9651
3.8587 -7.4293 -2.9685 0.9651
4.5066 -7.0595 -2.9698 0.9651
2.8892 -2.6131 -1.3813 0.9836
2.9657 -1.8470 -1.2389 0.9853
3.4071 -1.3560 -1.3003 0.9846
8.2459 -1.6760 -2.9837 0.9649
8.3667 -0.9359 -2.9852 0.9649
8.4210 -0.1876 -2.9867 0.9649
8.4084 0.5629 -2.9882 0.9649
7.3578 4.1395 -2.9935 0.9648
4.8594 6.9127 -2.9962 0.9648
4.2258 7.3192 -2.9968 0.9648
3.3774 7.2782 -2.8451 0.9665
2.5061 6.9657 -2.6249 0.9691
2.0365 7.7731 -2.8492 0.9665
0.6266 8.0185 -2.8519 0.9664
-0.0896 8.0439 -2.8524 0.9664
-3.7355 7.6016 -3.0033 0.9647
-4.3980 7.2401 -3.0038 0.9647
-5.0256 6.8208 -3.0042 0.9647
-6.1567 5.8230 -3.0049 0.9647
-7.0928 4.6399 -3.0053 0.9647
-8.0675 2.6014 -3.0057 0.9647
-8.4007 1.1298 -3.0056 0.9647
-8.4676 0.3776 -3.0055 0.9647
-8.2647 -1.8725 -3.0048 0.9647
-7.0878 -4.6366 -3.0032 0.9647
-5.5342 -6.2576 -2.9621 0.9652
-4.3361 -7.1382 -2.9615 0.9652
-3.0017 -7.7938 -2.9615 0.9652
-2.2963 -8.0306 -2.9617 0.9652
-0.0930 -8.3558 -2.9630 0.9652
0.6511 -8.3331 -2.9638 0.9651
2.1196 -8.0906 -2.9657 0.9651
3.5232 -7.5923 -2.9679 0.9651
4.8177 -6.8533 -2.9705 0.9651
5.9624 -5.8963 -2.9734 0.9650
2.8564 -2.3608 -1.3140 0.9844
2.9055 -1.9945 -1.2496 0.9852
3.0377 -1.7090 -1.2359 0.9853
3.6127 -1.2545 -1.3560 0.9839
8.1609 -2.0412 -2.9829 0.9649
8.3145 -1.3074 -2.9844 0.9649
8.4022 -0.5624 -2.9860 0.9649
8.3769 0.9371 -2.9889 0.9649
8.0850 2.4096 -2.9915 0.9648
7.1667 4.4635 -2.9938 0.9648
6.7421 5.0844 -2.9942 0.9648
6.2638 5.6653 -2.9948 0.9648
4.5471 7.1230 -2.9965 0.9648
3.8959 7.5010 -2.9971 0.9648
1.6887 7.8585 -2.8501 0.9665
0.9830 7.9814 -2.8515 0.9664
0.2688 8.0394 -2.8522 0.9664
-0.4479 8.0320 -2.8524 0.9664
-2.5518 7.6218 -2.8500 0.9665
-4.0708 7.4282 -3.0035 0.9647
-4.7165 7.0375 -3.0040 0.9647
-5.3248 6.5906 -3.0044 0.9647
-6.4103 5.5433 -3.0050 0.9647
-6.8788 4.9511 -3.0052 0.9647
-7.6485 3.6534 -3.0056 0.9647
-8.3422 1.5029 -3.0056 0.9647
-8.0476 0.0000 -3.0051 0.9662
-7.5390 -2.8075 -3.0040 0.9662
-7.2583 -3.4670 -3.0036 0.9662
-6.9199 -4.0987 -3.0032 0.9662
-6.0816 -5.2590 -3.0023 0.9663
-4.4169 -6.5904 -2.9625 0.9667
-3.8125 -6.9570 -2.9623 0.9667
-3.1782 -7.2687 -2.9623 0.9667
-2.5187 -7.5230 -2.9624 0.9667
-1.8393 -7.7179 -2.9627 0.9667
-1.1452 -7.8520 -2.9631 0.9667
0.2652 -7.9337 -2.9642 0.9667
0.9706 -7.8806 -2.9649 0.9667
1.6686 -7.7652 -2.9658 0.9667
3.6649 -7.0561 -2.9690 0.9666
5.4060 -5.8449 -2.9730 0.9666
3.0106 -2.7229 -1.5158 0.9828
2.9068 -2.1921 -1.3595 0.9846
3.0030 -1.8702 -1.3210 0.9850
3.4678 -1.3802 -1.3937 0.9842
7.6530 -2.2808 -2.9819 0.9665
7.8296 -1.5914 -2.9834 0.9665
7.9441 -0.8887 -2.9849 0.9664
7.9955 -0.1782 -2.9863 0.9664
7.9833 0.5345 -2.9877 0.9664
7.9075 1.2434 -2.9890 0.9664
7.7686 1.9431 -2.9903 0.9664
7.3087 3.2931 -2.9934 0.9664
6.1817 5.1093 -2.9947 0.9663
5.1796 6.1265 -2.9957 0.9663
2.5061 6.9657 -2.7643 0.9689
1.2694 7.5256 -2.8498 0.9679
-0.7643 7.5973 -2.8512 0.9679
-2.0982 7.3379 -2.8499 0.9679
-2.8900 7.5037 -3.0026 0.9662
-4.1759 6.8745 -3.0035 0.9662
-4.7718 6.4763 -3.0039 0.9662
-5.3299 6.0266 -3.0042 0.9662
-7.1002 3.7888 -3.0052 0.9662
-7.4095 3.1419 -3.0053 0.9662
-7.8493 1.7784 -3.0053 0.9662
-8.0398 0.3585 -3.0051 0.9662
-8.0394 -0.3585 -3.0050 0.9662
-7.9750 -1.0725 -3.0048 0.9662
-7.0961 -3.7866 -3.0034 0.9662
-6.3104 -4.9833 -3.0025 0.9663
-5.8205 -5.5049 -2.9915 0.9664
-5.2596 -5.9472 -2.9646 0.9667
-4.1188 -6.7804 -2.9624 0.9667
-3.4988 -7.1199 -2.9623 0.9667
-2.8513 -7.4031 -2.9624 0.9667
-2.1812 -7.6280 -2.9625 0.9667
0.6185 -7.9150 -2.9646 0.9667
1.3209 -7.8306 -2.9654 0.9667
2.6901 -7.4773 -2.9673 0.9666
3.3462 -7.2109 -2.9684 0.9666
3.9764 -6.8872 -2.9696 0.9666
4.5755 -6.5088 -2.9709 0.9666
5.6624 -5.5996 -2.9737 0.9666
2.9177 -2.4115 -1.4135 0.9840
2.9442 -2.0211 -1.3335 0.9849
3.0758 -1.7304 -1.3178 0.9850
3.2922 -1.4834 -1.3484 0.9847
7.7490 -1.9381 -2.9827 0.9665
7.8947 -1.2413 -2.9842 0.9665
7.9777 -0.5340 -2.9856 0.9664
7.9974 0.1782 -2.9870 0.9664
7.8459 1.5948 -2.9897 0.9664
7.6759 2.2877 -2.9908 0.9664
7.4476 2.9641 -2.9932 0.9664
7.1552 3.6157 -2.9936 0.9663
6.4026 4.8285 -2.9945 0.9663
5.9484 5.3801 -2.9950 0.9663
4.9020 6.3518 -2.9960 0.9663
4.3181 6.7642 -2.9966 0.9663
3.6996 7.1230 -2.9972 0.9663
2.8966 7.0485 -2.8456 0.9680
-0.4251 7.6240 -2.8513 0.9679
-3.2216 7.3681 -3.0028 0.9662
-5.0559 6.2578 -3.0041 0.9662
-5.5934 5.7835 -3.0044 0.9662
-7.2621 3.4688 -3.0052 0.9662
-7.5422 2.8088 -3.0053 0.9662
-7.7623 2.1263 -3.0053 0.9662
-7.6560 0.0000 -3.0047 0.9676
-7.3823 -2.0222 -3.0041 0.9676
-6.5834 -3.8993 -3.0030 0.9677
-6.2093 -4.4691 -3.0026 0.9677
-4.2035 -6.2721 -2.9633 0.9681
-2.3970 -7.1596 -2.9632 0.9681
-1.0899 -7.4727 -2.9638 0.9681
-0.4205 -7.5412 -2.9643 0.9681
4.6265 -5.9947 -2.9720 0.9680
5.6212 -5.0840 -2.9746 0.9680
2.9770 -2.2451 -1.4634 0.9841
3.0554 -1.9029 -1.4127 0.9847
3.5654 -1.4190 -1.5061 0.9836
7.2811 -2.1700 -2.9818 0.9679
7.5576 -0.8454 -2.9846 0.9679
7.6063 -0.1695 -2.9860 0.9678
7.5223 1.1829 -2.9886 0.9678
7.2048 2.5018 -2.9933 0.9678
6.2902 4.3180 -2.9944 0.9677
5.4267 5.3666 -2.9954 0.9677
4.9283 5.8293 -2.9959 0.9677
3.2149 6.9280 -2.9975 0.9677
2.4548 6.8231 -2.8459 0.9693
1.8388 7.0186 -2.8476 0.9693
1.2073 7.1577 -2.8488 0.9693
-0.0809 7.2617 -2.8502 0.9693
-2.7495 7.1388 -3.0024 0.9677
-3.9728 6.5401 -3.0032 0.9677
-5.5613 5.2599 -3.0042 0.9676
-6.0079 4.7444 -3.0045 0.9676
-6.4067 4.1911 -3.0047 0.9676
-7.5881 1.0205 -3.0049 0.9676
-7.4654 -1.6914 -3.0042 0.9676
-6.7510 -3.6024 -3.0032 0.9677
-6.4027 -4.1884 -3.0028 0.9677
-6.0036 -4.7409 -3.0023 0.9677
-0.7560 -7.5144 -2.9641 0.9681
1.9159 -7.3127 -2.9669 0.9680
2.5600 -7.1155 -2.9679 0.9680
3.1843 -6.8619 -2.9690 0.9680
3.7838 -6.5538 -2.9701 0.9680
4.3540 -6.1935 -2.9713 0.9680
4.8900 -5.7839 -2.9726 0.9680
5.3879 -5.3282 -2.9740 0.9680
3.0072 -2.4855 -1.5312 0.9834
3.3727 -1.5197 -1.4519 0.9842
3.9010 -1.3546 -1.6207 0.9824
7.3723 -1.8439 -2.9825 0.9679
7.5660 0.8464 -2.9879 0.9678
7.4636 1.5171 -2.9891 0.9678
7.3017 2.1762 -2.9903 0.9678
7.0866 2.8204 -2.9935 0.9678
6.4759 4.0332 -2.9942 0.9677
5.6599 5.1191 -2.9951 0.9677
5.1827 5.6034 -2.9956 0.9677
4.6642 6.0435 -2.9961 0.9677
3.5200 6.7772 -2.9972 0.9677
2.1490 6.9278 -2.8468 0.9693
1.5247 7.0953 -2.8482 0.9693
0.8874 7.2055 -2.8493 0.9693
0.2427 7.2576 -2.8500 0.9693
-0.4043 7.2511 -2.8503 0.9693
-2.4033 7.1783 -2.9710 0.9680
-3.0650 7.0098 -3.0026 0.9677
-3.6772 6.7101 -3.0030 0.9677
-4.2604 6.3571 -3.0034 0.9677
-5.7903 5.0071 -3.0044 0.9676
-6.5873 3.9017 -3.0048 0.9676
-6.9086 3.3000 -3.0049 0.9676
-7.1751 2.6721 -3.0050 0.9676
-7.2962 0.0000 -3.0045 0.9689
-7.1797 -1.2935 -3.0041 0.9689
-6.8353 -2.5455 -3.0035 0.9689
-6.5809 -3.1434 -3.0032 0.9689
-6.2742 -3.7162 -3.0028 0.9689
-4.5241 -5.5995 -2.9643 0.9693
-4.0074 -5.9794 -2.9641 0.9693
-3.4591 -6.3121 -2.9639 0.9693
-2.8836 -6.5949 -2.9639 0.9693
-1.6688 -7.0024 -2.9642 0.9693
-0.4009 -7.1893 -2.9650 0.9693
2.7406 -6.6687 -2.9689 0.9693
3.3244 -6.4006 -2.9700 0.9693
3.8824 -6.0817 -2.9711 0.9693
5.3580 -4.8460 -2.9749 0.9692
3.3181 -1.6767 -1.5309 0.9840
6.9394 -2.0681 -2.9817 0.9692
7.2489 -0.1615 -2.9857 0.9691
7.2375 0.4845 -2.9869 0.9691
7.1685 1.1272 -2.9881 0.9691
7.0423 1.7614 -2.9892 0.9691
6.8675 2.3847 -2.9935 0.9690
4.6974 5.5561 -2.9960 0.9690
4.1849 5.9532 -2.9965 0.9690
3.6391 6.3031 -2.9970 0.9690
0.5390 6.8971 -2.8487 0.9705
-0.6926 6.8846 -2.8493 0.9705
-1.3025 6.7949 -2.8489 0.9705
-4.3264 5.8719 -3.0034 0.9689
-5.7256 4.5215 -3.0042 0.9689
-6.7177 2.8486 -3.0046 0.9689
-6.9446 2.2394 -3.0047 0.9689
-7.2892 0.3250 -3.0045 0.9689
-7.2888 -0.3250 -3.0044 0.9689
-6.9423 -2.2386 -3.0037 0.9689
-6.1020 -3.9917 -3.0026 0.9689
-5.2938 -5.0069 -3.0005 0.9690
-3.7370 -6.1518 -2.9640 0.9693
-3.1745 -6.4599 -2.9639 0.9693
-2.5870 -6.7169 -2.9639 0.9693
-0.7207 -7.1637 -2.9648 0.9693
1.1983 -7.1041 -2.9667 0.9693
2.4404 -6.7831 -2.9684 0.9693
3.6069 -6.2474 -2.9705 0.9693
4.6612 -5.5133 -2.9729 0.9693
5.1356 -5.0787 -2.9742 0.9692
6.8388 -2.3747 -2.9810 0.9692
7.0262 -1.7574 -2.9824 0.9692
7.1125 1.4457 -2.9887 0.9691
6.7548 2.6884 -2.9937 0.9690
6.4895 3.2793 -2.9940 0.9690
4.9398 5.3409 -2.9958 0.9690
3.9159 6.1342 -2.9968 0.9690
3.3550 6.4596 -2.9973 0.9690
2.0477 6.6013 -2.8461 0.9705
1.4527 6.7605 -2.8474 0.9705
0.8456 6.8654 -2.8484 0.9705
0.2312 6.9149 -2.8490 0.9705
-0.9986 6.8467 -2.8491 0.9705
-1.6039 6.7302 -2.8490 0.9705
-2.3145 6.9131 -3.0020 0.9690
-2.9210 6.6806 -3.0024 0.9690
-3.5045 6.3950 -3.0028 0.9689
-5.0712 5.2437 -3.0038 0.9689
-5.5183 4.7719 -3.0041 0.9689
-5.9215 4.2621 -3.0043 0.9689
-7.0375 1.9278 -3.0047 0.9689
-6.8533 -1.2347 -3.0038 0.9701
-6.7157 -1.8396 -3.0036 0.9701
-6.5246 -2.4298 -3.0033 0.9701
-6.2818 -3.0005 -3.0030 0.9701
-5.9891 -3.5473 -3.0026 0.9701
-5.2638 -4.5518 -3.0018 0.9701
-4.3217 -5.3491 -2.9664 0.9705
-3.8264 -5.7094 -2.9648 0.9705
-3.3029 -6.0270 -2.9646 0.9705
1.4454 -6.7262 -2.9676 0.9705
2.0389 -6.5727 -2.9685 0.9705
3.7067 -5.8064 -2.9715 0.9704
4.6811 -5.0612 -2.9738 0.9704
5.1152 -4.6264 -2.9751 0.9704
3.2362 -2.4405 -1.7484 0.9825
6.6242 -1.9742 -2.9816 0.9703
6.7766 -1.3774 -2.9829 0.9703
6.9192 -0.1542 -2.9854 0.9703
6.9082 0.4625 -2.9866 0.9703
6.0501 3.4037 -2.9944 0.9702
5.7239 3.9292 -2.9948 0.9702
4.9379 4.8832 -2.9957 0.9702
2.3310 6.4791 -2.9702 0.9704
1.6723 6.3829 -2.8462 0.9717
0.5143 6.5820 -2.8478 0.9716
-4.1298 5.6050 -3.0032 0.9701
-5.8281 3.8126 -3.0041 0.9701
-6.4122 2.7190 -3.0044 0.9701
-6.7928 1.5391 -3.0044 0.9701
-6.9027 0.9283 -3.0043 0.9701
-6.9574 -0.3102 -3.0041 0.9701
-6.9017 -0.9282 -3.0039 0.9701
-6.6267 -2.1368 -3.0034 0.9701
-6.4096 -2.7179 -3.0031 0.9701
-5.4617 -4.3131 -3.0020 0.9701
-5.0554 -4.7814 -3.0016 0.9701
-4.0771 -5.5335 -2.9649 0.9705
-1.8896 -6.6083 -2.9648 0.9705
-1.2940 -6.7508 -2.9651 0.9705
-0.6881 -6.8401 -2.9654 0.9705
0.5357 -6.8563 -2.9665 0.9705
1.1442 -6.7830 -2.9672 0.9705
2.3300 -6.4763 -2.9689 0.9705
2.8981 -6.2453 -2.9699 0.9705
3.4437 -5.9646 -2.9709 0.9704
3.9624 -5.6366 -2.9720 0.9704
4.4501 -5.2636 -2.9732 0.9704
3.2820 -1.8464 -1.6244 0.9837
3.6251 -1.6334 -1.7151 0.9828
6.8327 -1.0744 -2.9835 0.9703
6.8821 0.7699 -2.9872 0.9703
6.7888 1.3799 -2.9883 0.9703
6.1954 3.1307 -2.9942 0.9702
5.8929 3.6701 -2.9946 0.9702
5.5435 4.1806 -2.9950 0.9702
5.1502 4.6581 -2.9954 0.9702
3.7383 5.8560 -2.9968 0.9702
3.2028 6.1665 -2.9974 0.9702
2.6417 6.4282 -2.9979 0.9702
-0.3676 6.5931 -2.8484 0.9716
-2.2094 6.5990 -3.0018 0.9701
-2.7883 6.3771 -3.0023 0.9701
-3.8758 5.7831 -3.0030 0.9701
-4.3756 5.4158 -3.0033 0.9701
-4.8407 5.0053 -3.0036 0.9701
-5.2674 4.5549 -3.0038 0.9701
-6.2846 3.0020 -3.0043 0.9701
-6.5270 2.4307 -3.0044 0.9701
-6.8546 1.2349 -3.0044 0.9701
-6.6306 -0.5925 -3.0038 0.9712
-6.2370 -2.3227 -3.0031 0.9712
-6.0049 -2.8683 -3.0028 0.9712
-5.7251 -3.3910 -3.0024 0.9712
-5.0319 -4.3512 -3.0016 0.9712
-4.6118 -4.7685 -2.9933 0.9713
-3.6588 -5.4593 -2.9654 0.9716
-3.1582 -5.7630 -2.9653 0.9716
-1.5236 -6.3933 -2.9655 0.9716
-0.9486 -6.5042 -2.9659 0.9716
0.2197 -6.5714 -2.9668 0.9716
3.0347 -5.8428 -2.9708 0.9715
3.5439 -5.5515 -2.9718 0.9715
4.0255 -5.2159 -2.9729 0.9715
4.4755 -4.8388 -2.9741 0.9715
3.6052 -1.8218 -1.8226 0.9824
6.1367 -2.4423 -2.9802 0.9714
6.3324 -1.8872 -2.9815 0.9714
6.5721 -0.7352 -2.9840 0.9714
6.6141 -0.1474 -2.9851 0.9714
6.6035 0.4421 -2.9863 0.9714
6.4250 1.6070 -2.9884 0.9714
6.2682 2.1766 -2.9940 0.9713
6.0502 2.7261 -2.9943 0.9713
5.7842 3.2541 -2.9946 0.9713
5.4722 3.7565 -2.9950 0.9713
5.1169 4.2292 -2.9954 0.9713
4.7208 4.6685 -2.9958 0.9713
4.2872 5.0710 -2.9962 0.9713
2.2494 6.2523 -2.9981 0.9713
1.0494 6.2211 -2.8467 0.9727
-0.0703 6.3106 -2.8476 0.9727
-0.6349 6.3111 -2.8620 0.9725
-1.2422 6.4807 -2.9774 0.9715
-2.3911 6.2084 -3.0019 0.9712
-2.9345 5.9717 -3.0023 0.9712
-3.4548 5.6875 -3.0026 0.9712
-4.8361 4.5740 -3.0035 0.9712
-5.2243 4.1256 -3.0037 0.9712
-5.8737 3.1343 -3.0040 0.9712
-6.1295 2.5991 -3.0041 0.9712
-6.6506 -0.2965 -3.0039 0.9712
-6.5974 -0.8872 -3.0037 0.9712
-5.2211 -4.1230 -3.0018 0.9712
-4.8327 -4.5707 -3.0014 0.9712
-3.4119 -5.6167 -2.9653 0.9716
-2.8983 -5.8979 -2.9652 0.9716
-2.3619 -6.1326 -2.9653 0.9716
-1.8068 -6.3188 -2.9654 0.9716
-0.6580 -6.5404 -2.9660 0.9716
-0.0733 -6.5741 -2.9665 0.9716
0.5123 -6.5558 -2.9671 0.9716
1.0940 -6.4856 -2.9678 0.9715
2.2278 -6.1922 -2.9694 0.9715
3.2925 -5.7028 -2.9713 0.9715
3.7884 -5.3891 -2.9724 0.9715
5.0836 -4.2016 -2.9759 0.9715
6.0206 -2.7127 -2.9796 0.9714
6.2408 -2.1670 -2.9809 0.9714
6.4116 -1.6036 -2.9821 0.9714
6.5997 -0.4418 -2.9846 0.9714
6.6154 0.1475 -2.9857 0.9714
6.5784 0.7359 -2.9868 0.9714
6.4891 1.3190 -2.9879 0.9714
6.3586 1.8951 -2.9938 0.9713
6.1653 2.4537 -2.9941 0.9713
5.6338 3.5088 -2.9948 0.9713
5.2998 3.9968 -2.9952 0.9713
4.9237 4.4533 -2.9956 0.9713
4.5085 4.8746 -2.9960 0.9713
4.0573 5.2573 -2.9965 0.9713
3.5739 5.5984 -2.9969 0.9713
3.0619 5.8952 -2.9974 0.9713
2.5255 6.1454 -2.9979 0.9713
1.3385 6.2291 -2.8748 0.9724
0.7713 6.2622 -2.8469 0.9727
0.2109 6.3070 -2.8474 0.9727
-0.3514 6.3018 -2.8479 0.9727
-0.9309 6.3828 -2.9105 0.9721
-1.5419 6.4703 -3.0013 0.9712
-3.1979 5.8354 -3.0025 0.9712
-3.7049 5.5282 -3.0028 0.9712
-4.6273 4.7846 -3.0034 0.9712
-5.4031 3.8889 -3.0038 0.9712
-6.2392 2.3235 -3.0041 0.9712
-6.4213 1.7590 -3.0041 0.9712
-6.6312 0.5926 -3.0041 0.9712
-6.3722 0.0000 -3.0037 0.9722
-5.7478 -2.7454 -3.0026 0.9722
-4.8165 -4.1650 -3.0015 0.9722
-3.5030 -5.2269 -2.9660 0.9726
-1.9976 -5.9665 -2.9659 0.9726
-0.3504 -6.2842 -2.9668 0.9726
0.7696 -6.2491 -2.9679 0.9725
2.3952 -5.8282 -2.9702 0.9725
2.9053 -5.5937 -2.9712 0.9725
3.3927 -5.3146 -2.9721 0.9725
4.6815 -4.2341 -2.9754 0.9725
5.3623 -3.3396 -2.9778 0.9725
5.6405 -2.8503 -2.9790 0.9724
6.0614 -1.8065 -2.9814 0.9724
6.2006 -1.2603 -2.9826 0.9724
6.2906 -0.7037 -2.9838 0.9724
6.3204 0.4231 -2.9860 0.9724
6.1535 1.5391 -2.9899 0.9723
6.0005 2.0836 -2.9942 0.9723
5.7918 2.6097 -2.9945 0.9723
5.2385 3.5960 -2.9951 0.9723
4.8983 4.0485 -2.9955 0.9723
3.1792 5.5066 -2.9972 0.9723
2.6769 5.7686 -2.9977 0.9723
2.1532 5.9849 -2.9982 0.9723
1.6122 6.1538 -2.9986 0.9723
1.0426 6.1810 -2.9547 0.9727
-0.0691 6.2014 -2.9234 0.9729
-0.6325 6.2873 -2.9786 0.9724
-1.1985 6.2525 -3.0009 0.9722
-2.2887 5.9426 -3.0017 0.9722
-2.8089 5.7160 -3.0021 0.9722
-3.7787 5.1285 -3.0028 0.9722
-4.6289 4.3780 -3.0033 0.9722
-5.8669 2.4878 -3.0039 0.9722
-6.0651 1.9558 -3.0039 0.9722
-6.2151 1.4082 -3.0039 0.9722
-6.3660 0.2839 -3.0038 0.9722
-6.3657 -0.2838 -3.0036 0.9722
-6.3148 -0.8492 -3.0035 0.9722
-6.2138 -1.4079 -3.0033 0.9722
-6.0633 -1.9551 -3.0030 0.9722
-4.1853 -4.7323 -2.9780 0.9724
-3.7325 -5.0658 -2.9661 0.9726
-3.2666 -5.3776 -2.9659 0.9726
-2.7750 -5.6468 -2.9658 0.9726
-1.1847 -6.1802 -2.9663 0.9726
1.0474 -6.2093 -2.9683 0.9725
1.5963 -6.0929 -2.9690 0.9725
2.1328 -5.9283 -2.9698 0.9725
3.1521 -5.4596 -2.9716 0.9725
4.0730 -4.8176 -2.9737 0.9725
4.8664 -4.0221 -2.9760 0.9725
5.2071 -3.5745 -2.9772 0.9725
5.9737 -2.0743 -2.9808 0.9724
6.1371 -1.5350 -2.9820 0.9724
6.3169 -0.4229 -2.9843 0.9724
6.3319 0.1411 -2.9854 0.9724
6.2964 0.7044 -2.9865 0.9724
6.2108 1.2624 -2.9875 0.9724
6.0871 1.8142 -2.9940 0.9723
5.3932 3.3589 -2.9949 0.9723
5.0734 3.8261 -2.9953 0.9723
3.8839 5.0326 -2.9965 0.9723
2.9310 5.6432 -2.9975 0.9723
1.3337 6.2065 -2.9924 0.9723
-0.3477 6.2360 -2.9440 0.9728
-0.9187 6.2993 -3.0007 0.9722
-2.5513 5.8351 -3.0019 0.9722
-3.0609 5.5855 -3.0023 0.9722
-4.0036 4.9553 -3.0029 0.9722
-5.4827 3.2474 -3.0037 0.9722
-5.7502 2.7466 -3.0038 0.9722
-5.9719 2.2240 -3.0039 0.9722
-6.2716 1.1299 -3.0039 0.9722
-6.3471 0.5672 -3.0038 0.9722
-6.1065 0.0000 -3.0035 0.9731
-6.0819 -0.5435 -3.0033 0.9731
-4.9533 -3.5651 -3.0017 0.9732
-4.6157 -3.9914 -3.0014 0.9732
-3.7983 -4.7012 -2.9727 0.9734
-3.3578 -5.0102 -2.9665 0.9735
-1.3983 -5.8673 -2.9667 0.9735
-0.8706 -5.9690 -2.9670 0.9735
-0.3359 -6.0236 -2.9673 0.9735
0.7377 -5.9898 -2.9684 0.9735
1.7889 -5.7668 -2.9698 0.9734
2.2957 -5.5863 -2.9706 0.9734
3.2518 -5.0939 -2.9724 0.9734
3.6935 -4.7858 -2.9734 0.9734
4.1063 -4.4397 -2.9745 0.9734
4.4868 -4.0580 -2.9756 0.9734
4.8320 -3.6440 -2.9767 0.9734
5.8089 -1.7312 -2.9813 0.9733
5.9422 -1.2078 -2.9825 0.9733
6.0667 -0.1352 -2.9847 0.9733
6.0567 0.4055 -2.9857 0.9733
5.9986 0.9433 -2.9867 0.9733
5.9055 1.4771 -2.9941 0.9732
5.7510 1.9970 -2.9943 0.9732
5.3069 2.9856 -2.9949 0.9732
4.6945 3.8801 -2.9956 0.9732
4.3311 4.2831 -2.9960 0.9732
2.0636 5.7358 -2.9982 0.9732
0.4751 6.0799 -2.9995 0.9732
-2.1933 5.6949 -3.0016 0.9732
-3.6211 4.9147 -3.0026 0.9732
-4.4359 4.1954 -3.0031 0.9732
-5.1101 3.3429 -3.0034 0.9731
-5.8121 1.8742 -3.0037 0.9731
-6.0523 0.8140 -3.0036 0.9731
-5.3852 -2.8736 -3.0023 0.9732
-5.1075 -3.3412 -3.0019 0.9732
-3.5795 -4.8582 -2.9681 0.9735
-2.6599 -5.4128 -2.9664 0.9735
-1.6582 -5.7990 -2.9666 0.9735
-1.1355 -5.9240 -2.9668 0.9735
-0.0672 -6.0331 -2.9676 0.9735
1.0039 -5.9517 -2.9687 0.9735
1.5300 -5.8401 -2.9694 0.9734
3.0212 -5.2328 -2.9720 0.9734
3.4761 -4.9448 -2.9729 0.9734
4.6640 -3.8549 -2.9761 0.9734
4.9905 -3.4257 -2.9773 0.9734
5.2776 -2.9691 -2.9784 0.9734
6.0337 0.6750 -2.9862 0.9733
5.9516 1.2097 -2.9872 0.9733
5.1689 3.2192 -2.9951 0.9732
4.8624 3.6669 -2.9954 0.9732
4.1363 4.4721 -2.9962 0.9732
2.3168 5.6377 -2.9980 0.9732
0.2038 6.0955 -2.9998 0.9732
-0.8804 6.0368 -3.0006 0.9732
-1.4145 5.9353 -3.0010 0.9732
-2.4450 5.5919 -3.0018 0.9732
-2.9333 5.3527 -3.0021 0.9732
-3.3984 5.0709 -3.0024 0.9732
-3.8366 4.7487 -3.0027 0.9732
-4.6186 3.9938 -3.0032 0.9731
-5.7228 2.1312 -3.0037 0.9731
-6.0100 1.0828 -3.0037 0.9731
-5.7647 -1.0385 -3.0030 0.9740
-5.4884 -2.0439 -3.0025 0.9740
-5.0381 -2.9840 -3.0019 0.9740
-4.7520 -3.4202 -3.0016 0.9740
-3.6460 -4.5127 -2.9743 0.9743
-3.2221 -4.8076 -2.9671 0.9743
-2.3185 -5.3025 -2.9669 0.9743
-1.3417 -5.6300 -2.9672 0.9743
-0.8354 -5.7276 -2.9675 0.9743
-0.3223 -5.7800 -2.9678 0.9743
1.2169 -5.6629 -2.9695 0.9743
1.7165 -5.5334 -2.9702 0.9743
2.2027 -5.3601 -2.9710 0.9743
3.9398 -4.2597 -2.9747 0.9743
4.9306 -3.0708 -2.9779 0.9742
5.4009 -2.1495 -2.9801 0.9742
5.5729 -1.6609 -2.9812 0.9742
5.7833 -0.6469 -2.9834 0.9742
5.8199 -0.1297 -2.9844 0.9742
5.7545 0.9049 -2.9864 0.9742
5.0916 2.8645 -2.9951 0.9741
4.8170 3.3067 -2.9954 0.9741
4.1554 4.1094 -2.9961 0.9741
3.7736 4.4635 -2.9965 0.9741
2.9233 5.0633 -2.9973 0.9741
0.4558 5.8330 -2.9995 0.9740
-0.5858 5.8230 -3.0003 0.9740
-1.1019 5.7485 -3.0007 0.9740
-1.6094 5.6284 -3.0011 0.9740
-2.1042 5.4635 -3.0015 0.9740
-4.2555 4.0249 -3.0029 0.9740
-4.5972 3.6304 -3.0031 0.9740
-4.9023 3.2070 -3.0032 0.9740
-5.1684 2.7580 -3.0034 0.9740
-5.3935 2.2871 -3.0034 0.9740
-5.5758 1.7980 -3.0035 0.9740
-5.8061 0.7809 -3.0034 0.9740
-5.8522 -0.2609 -3.0032 0.9740
-5.7125 -1.2943 -3.0029 0.9740
-5.3917 -2.2862 -3.0024 0.9740
-5.1663 -2.7568 -3.0021 0.9740
-3.8638 -4.3689 -2.9901 0.9741
-3.4368 -4.6644 -2.9703 0.9743
-1.0896 -5.6844 -2.9673 0.9743
-0.5794 -5.7595 -2.9676 0.9743
-0.0645 -5.7890 -2.9681 0.9743
0.9633 -5.7108 -2.9691 0.9743
1.9616 -5.4522 -2.9706 0.9743
2.4397 -5.2574 -2.9714 0.9743
3.3352 -4.7444 -2.9732 0.9743
4.1264 -4.0806 -2.9752 0.9743
4.4748 -3.6985 -2.9763 0.9742
5.0634 -2.8486 -2.9785 0.9742
5.6424 -1.4112 -2.9818 0.9742
5.8074 -0.3887 -2.9839 0.9742
5.7881 0.6475 -2.9859 0.9742
5.7093 1.1605 -2.9868 0.9742
5.5975 1.6682 -2.9944 0.9741
1.7328 5.5861 -2.9984 0.9741
-0.3258 5.8429 -3.0001 0.9740
-2.3456 5.3646 -3.0017 0.9740
-3.6807 4.5557 -3.0026 0.9740
-5.0404 2.9854 -3.0033 0.9740
-5.6503 1.5478 -3.0035 0.9740
-5.6254 0.0000 -3.0031 0.9748
-5.2705 -1.9627 -3.0024 0.9748
-5.0744 -2.4238 -3.0021 0.9748
-4.8381 -2.8656 -3.0018 0.9748
-4.5633 -3.2845 -3.0015 0.9748
-3.9078 -4.0406 -3.0008 0.9748
-3.5056 -4.3389 -2.9778 0.9750
-3.0948 -4.6177 -2.9675 0.9751
-2.6714 -4.8746 -2.9674 0.9751
-2.2269 -5.0930 -2.9674 0.9751
-0.8024 -5.5013 -2.9679 0.9751
1.1688 -5.4390 -2.9699 0.9751
2.1156 -5.1480 -2.9713 0.9751
2.9966 -4.6941 -2.9730 0.9751
3.4036 -4.4101 -2.9739 0.9751
3.7838 -4.0910 -2.9749 0.9750
4.4523 -3.3576 -2.9769 0.9750
4.7351 -2.9490 -2.9780 0.9750
5.1867 -2.0642 -2.9801 0.9750
5.5536 -0.6212 -2.9832 0.9750
5.5887 -0.1245 -2.9842 0.9750
5.5257 0.8689 -2.9861 0.9750
5.2993 1.8401 -2.9947 0.9749
4.8899 2.7511 -2.9952 0.9749
4.6261 3.1757 -2.9955 0.9749
4.3256 3.5752 -2.9959 0.9749
1.9013 5.2847 -2.9982 0.9749
0.9345 5.5397 -2.9990 0.9748
0.4377 5.6016 -2.9995 0.9748
-0.5626 5.5919 -3.0003 0.9748
-1.0582 5.5204 -3.0007 0.9748
-2.0206 5.2466 -3.0014 0.9748
-2.9195 4.8062 -3.0020 0.9748
-4.0865 3.8650 -3.0027 0.9748
-4.7076 3.0796 -3.0031 0.9748
-5.1793 2.1962 -3.0032 0.9748
-5.3543 1.7266 -3.0033 0.9748
-5.4867 1.2431 -3.0033 0.9748
-5.5755 0.7498 -3.0032 0.9748
-5.6199 0.2506 -3.0032 0.9748
-5.5749 -0.7497 -3.0029 0.9748
-5.3529 -1.7261 -3.0025 0.9748
-4.9611 -2.6473 -3.0020 0.9748
-4.7054 -3.0781 -3.0017 0.9748
-4.4122 -3.4843 -3.0013 0.9748
-4.0841 -3.8627 -3.0010 0.9748
-3.7176 -4.2035 -2.9957 0.9749
-2.4516 -4.9887 -2.9674 0.9751
-1.9978 -5.1872 -2.9674 0.9751
-1.5283 -5.3447 -2.9676 0.9751
-1.0466 -5.4599 -2.9678 0.9751
0.4332 -5.5446 -2.9690 0.9751
3.9630 -3.9190 -2.9754 0.9750
4.8626 -2.7357 -2.9785 0.9750
5.0887 -2.2928 -2.9796 0.9750
5.4184 -1.3552 -2.9817 0.9750
5.5195 -0.8679 -2.9827 0.9750
5.5767 -0.3733 -2.9837 0.9750
5.5581 0.6218 -2.9857 0.9750
5.4855 1.1150 -2.9883 0.9749
5.2123 2.0745 -2.9948 0.9749
5.0074 2.5304 -2.9951 0.9749
4.4803 3.3788 -2.9957 0.9749
4.1623 3.7646 -2.9960 0.9749
3.8112 4.1206 -2.9964 0.9749
3.0210 4.7323 -2.9972 0.9749
2.1347 5.1944 -2.9980 0.9749
1.6641 5.3645 -2.9984 0.9749
1.1802 5.4921 -2.9988 0.9749
0.6868 5.5761 -2.9993 0.9748
-0.3129 5.6111 -3.0001 0.9748
-1.3031 5.4681 -3.0008 0.9748
-2.2525 5.1516 -3.0015 0.9748
-2.7024 4.9312 -3.0019 0.9748
-3.5345 4.3747 -3.0024 0.9748
-4.2548 3.6793 -3.0028 0.9748
-4.8402 2.8669 -3.0031 0.9748
-5.2720 1.9634 -3.0033 0.9748
-5.5366 0.9975 -3.0033 0.9748
-5.4068 0.0000 -3.0029 0.9756
-5.3852 -0.4812 -3.0028 0.9756
-5.3206 -0.9586 -3.0026 0.9756
-5.2139 -1.4282 -3.0024 0.9756
-5.0657 -1.8864 -3.0022 0.9756
-4.8773 -2.3297 -3.0020 0.9756
-4.6501 -2.7542 -3.0017 0.9756
-4.3861 -3.1569 -3.0014 0.9756
-3.3750 -4.1773 -2.9827 0.9757
-2.9770 -4.4419 -2.9698 0.9758
-2.1408 -4.8961 -2.9679 0.9758
-1.2389 -5.1985 -2.9681 0.9758
1.5848 -5.1090 -2.9709 0.9758
2.0337 -4.9488 -2.9716 0.9758
2.4668 -4.7494 -2.9724 0.9758
2.8805 -4.5123 -2.9732 0.9758
3.6372 -3.9325 -2.9751 0.9758
4.5515 -2.8346 -2.9780 0.9758
4.9854 -1.9841 -2.9801 0.9757
5.1439 -1.5330 -2.9811 0.9757
5.2617 -1.0695 -2.9821 0.9757
5.3715 -0.1197 -2.9841 0.9757
5.3625 0.3590 -2.9850 0.9757
5.3108 0.8351 -2.9858 0.9757
5.0939 1.7688 -2.9948 0.9756
3.8360 3.7935 -2.9963 0.9756
3.1033 4.4146 -2.9970 0.9756
1.3683 5.2228 -2.9986 0.9756
0.8981 5.3246 -2.9990 0.9756
0.4207 5.3841 -2.9994 0.9756
-1.9422 5.0428 -3.0013 0.9756
-4.2430 3.3507 -3.0027 0.9756
-4.5246 2.9599 -3.0029 0.9756
-4.7703 2.5455 -3.0030 0.9756
-4.9780 2.1109 -3.0031 0.9756
-5.1462 1.6595 -3.0031 0.9756
-5.3588 0.7207 -3.0030 0.9756
-5.3582 -0.7206 -3.0027 0.9756
-5.2725 -1.1946 -3.0025 0.9756
-4.9764 -2.1102 -3.0021 0.9756
-4.7684 -2.5445 -3.0018 0.9756
-4.5226 -2.9585 -3.0015 0.9756
-4.2409 -3.3489 -3.0012 0.9756
-3.9255 -3.7127 -3.0009 0.9756
-3.5765 -4.0440 -2.9984 0.9756
-3.1761 -4.3106 -2.9738 0.9758
-2.7744 -4.5672 -2.9679 0.9758
-1.9206 -4.9867 -2.9679 0.9758
-1.0061 -5.2488 -2.9682 0.9758
-0.0595 -5.3452 -2.9689 0.9758
1.8111 -5.0339 -2.9712 0.9758
2.2525 -4.8539 -2.9720 0.9758
3.0791 -4.3801 -2.9737 0.9758
3.4578 -4.0899 -2.9746 0.9758
3.8094 -3.7672 -2.9755 0.9758
4.1309 -3.4143 -2.9765 0.9758
4.6740 -2.6295 -2.9785 0.9758
4.8912 -2.2038 -2.9796 0.9758
5.2080 -1.3026 -2.9816 0.9757
5.3051 -0.8341 -2.9826 0.9757
5.2816 1.0735 -2.9933 0.9756
