ply
format ascii 1.0
element vertex 1589
property float32 x
property float32 y
property float32 z
property float32 I
end_header
7.0597 -0.1573 0.6474 0.9720
6.6002 0.4418 0.6064 0.9738
6.5830 1.3380 0.6158 0.9734
6.9236 -0.1543 0.5190 0.9726
6.5273 0.4370 0.4903 0.9741
6.6689 0.1486 0.4999 0.9736
6.4579 0.7224 0.4870 0.9743
6.5035 1.3219 0.4973 0.9737
6.4648 0.4328 0.3774 0.9744
6.3883 1.0045 0.3766 0.9744
7.3676 -0.4932 0.4301 0.9708
6.4379 1.3086 0.3826 0.9740
6.4057 0.4288 0.2669 0.9746
6.3315 0.9956 0.2665 0.9747
6.5289 0.1455 0.2715 0.9742
6.3430 0.7096 0.2654 0.9748
6.7718 2.0182 0.2938 0.9721
6.4905 0.1446 0.1619 0.9744
6.3395 1.2886 0.1613 0.9744
6.6492 -0.1482 0.0553 0.9737
6.3384 0.4243 0.0528 0.9749
6.3045 1.2815 0.0535 0.9746
6.6373 1.9781 0.0576 0.9727
6.3053 0.4221 -0.0525 0.9750
6.2349 0.9804 -0.0525 0.9751
6.3702 1.5933 -0.0546 0.9741
6.9454 -0.4649 -0.0579 0.9725
6.2699 1.2744 -0.0532 0.9747
6.2245 0.9788 -0.1571 0.9751
6.3571 1.5900 -0.1634 0.9741
6.9240 -0.4635 -0.1731 0.9726
6.4031 0.1427 -0.1597 0.9747
6.2375 0.6978 -0.1565 0.9752
6.2588 1.2722 -0.1593 0.9748
6.2143 0.9772 -0.2616 0.9751
6.3440 1.5868 -0.2719 0.9742
7.3084 2.5377 -0.3217 0.9695
6.9028 -0.4621 -0.2877 0.9727
6.3911 0.1424 -0.2658 0.9747
6.2274 0.6966 -0.2605 0.9752
6.2477 1.2699 -0.2651 0.9748
6.2733 0.4200 -0.3662 0.9751
7.2416 2.5145 -0.4465 0.9698
6.8845 -0.4608 -0.4019 0.9727
6.3791 0.1422 -0.3716 0.9748
6.2174 0.6955 -0.3644 0.9752
6.2366 1.2676 -0.3707 0.9748
6.5337 1.9473 -0.3971 0.9731
6.5704 -0.1464 -0.4925 0.9740
6.2089 0.9763 -0.4710 0.9751
6.3409 1.5860 -0.4898 0.9741
6.3861 0.1423 -0.4787 0.9747
6.2429 1.2689 -0.4774 0.9748
6.5515 1.9526 -0.5123 0.9730
6.2194 0.9780 -0.5772 0.9750
6.9283 -0.4638 -0.6366 0.9725
6.3985 0.1426 -0.5867 0.9746
6.2544 1.2713 -0.5851 0.9747
6.3680 1.5927 -0.7120 0.9739
6.9589 -0.4658 -0.7565 0.9723
6.4110 0.1429 -0.6955 0.9745
6.2426 0.6983 -0.6813 0.9750
6.2659 1.2736 -0.6935 0.9746
6.5906 1.9642 -0.7459 0.9727
6.3239 0.4233 -0.7943 0.9748
6.2525 0.9832 -0.7932 0.9748
6.4051 1.6020 -0.8274 0.9737
7.0316 -0.4707 -0.8831 0.9720
6.4407 0.1435 -0.8073 0.9744
6.2642 0.7008 -0.7899 0.9749
6.4493 1.6131 -0.9456 0.9735
7.1062 -0.4757 -1.0130 0.9716
6.4811 0.1444 -0.9221 0.9741
6.3953 0.4281 -1.0206 0.9744
6.3212 0.9940 -1.0189 0.9744
6.4949 1.6245 -1.0661 0.9732
7.2849 -0.4877 -1.1626 0.9709
6.5221 0.1454 -1.0388 0.9739
6.3678 1.2943 -1.0347 0.9740
6.8336 2.0366 -1.1354 0.9715
6.8509 -0.1527 -1.2083 0.9726
6.4512 0.4319 -1.1401 0.9741
6.3744 1.0023 -1.1378 0.9741
7.0092 2.0890 -1.2896 0.9707
-10.2253 -10.5729 -2.8464 0.9418
-8.1297 -12.1303 -2.8259 0.9422
-6.9904 -12.7558 -2.8148 0.9425
-5.8055 -13.2774 -2.8043 0.9427
6.9537 -0.1550 -1.3460 0.9721
6.5204 0.4365 -1.2646 0.9737
3.7287 14.2326 -2.8472 0.9418
2.4480 14.5127 -2.8481 0.9418
-9.7289 -11.0005 -2.8419 0.9419
-8.6800 -11.7806 -2.8318 0.9421
-7.5663 -12.4559 -2.8203 0.9424
-6.4136 -13.0513 -2.8142 0.9425
3.0915 14.3869 -2.8477 0.9418
-14.2102 -1.2698 -3.0077 0.9433
-13.7556 -3.7680 -3.0068 0.9434
-12.8645 -6.1448 -3.0056 0.9434
-10.9829 -7.9050 -2.8528 0.9462
-9.4127 -9.7327 -2.8545 0.9462
-7.5360 -11.2445 -2.8537 0.9462
-5.4074 -12.3670 -2.8455 0.9463
-3.2319 -13.5616 -2.9391 0.9446
0.4660 -13.9369 -2.9398 0.9446
1.7050 -13.8435 -2.9405 0.9446
4.1356 -13.3319 -2.9428 0.9445
6.4409 -12.4010 -2.9460 0.9445
7.5241 -11.7864 -2.9480 0.9444
8.5496 -11.0781 -2.9501 0.9444
9.5094 -10.2814 -2.9525 0.9444
10.3957 -9.4024 -2.9551 0.9443
11.2016 -8.4475 -2.9578 0.9443
11.9206 -7.4242 -2.9606 0.9442
13.4839 -4.0186 -2.9662 0.9441
14.0105 -1.5673 -2.9721 0.9440
6.5168 1.0247 -1.3907 0.9734
6.8506 1.7134 -1.4887 0.9715
13.3872 4.6486 -2.9876 0.9437
12.9331 5.8274 -2.9906 0.9437
12.3693 6.9589 -2.9920 0.9436
8.1728 11.6260 -2.9960 0.9436
5.9855 12.8985 -2.9978 0.9435
4.8152 13.3841 -2.9987 0.9435
2.2469 13.3209 -2.8480 0.9463
1.0540 13.4886 -2.8523 0.9462
-1.3551 13.4704 -2.8542 0.9462
-2.5495 13.3008 -2.8551 0.9461
-8.9781 10.1517 -2.8571 0.9461
-9.8758 9.3405 -2.8657 0.9459
-11.1985 8.8434 -3.0082 0.9433
-11.9421 7.8122 -3.0085 0.9433
-12.5907 6.7186 -3.0086 0.9433
-13.1390 5.5715 -3.0087 0.9433
-13.5828 4.3799 -3.0087 0.9433
-14.1430 1.9021 -3.0085 0.9433
-14.2535 -0.6356 -3.0079 0.9433
-14.1385 -1.9014 -3.0075 0.9434
-13.5729 -4.3767 -3.0065 0.9434
-12.4677 -6.6530 -2.9793 0.9439
-9.8359 -9.3027 -2.8542 0.9462
-8.0306 -10.8992 -2.8541 0.9462
-7.0266 -11.5674 -2.8533 0.9462
-4.8348 -12.5531 -2.8359 0.9465
-3.8472 -13.4543 -2.9501 0.9444
-1.3956 -13.8721 -2.9393 0.9446
-0.1553 -13.9426 -2.9396 0.9446
1.0864 -13.9038 -2.9401 0.9446
4.7265 -13.1376 -2.9435 0.9445
5.8803 -12.6718 -2.9451 0.9445
6.9892 -12.1057 -2.9469 0.9445
10.8092 -8.9340 -2.9564 0.9443
11.5724 -7.9440 -2.9592 0.9442
12.2452 -6.8891 -2.9620 0.9442
13.2850 -4.6130 -2.9648 0.9441
13.6562 -3.4156 -2.9677 0.9441
13.9199 -2.1888 -2.9706 0.9440
14.0735 -0.9421 -2.9736 0.9440
6.5972 1.3409 -1.4193 0.9729
13.5741 4.0455 -2.9861 0.9437
11.3355 8.5485 -2.9931 0.9436
10.5324 9.5260 -2.9939 0.9436
8.6813 11.2488 -2.9956 0.9436
7.6479 11.9803 -2.9964 0.9436
6.5532 12.6172 -2.9973 0.9435
5.4058 13.1543 -2.9982 0.9435
1.6536 13.4261 -2.8519 0.9462
-0.7536 13.5152 -2.8537 0.9462
-1.9542 13.3989 -2.8546 0.9462
-5.4300 12.4187 -2.8574 0.9461
-7.5505 11.2661 -2.8592 0.9461
-10.7929 9.3330 -3.0081 0.9433
-12.2786 7.2726 -3.0086 0.9433
-12.8776 6.1512 -3.0087 0.9433
-14.0446 2.5303 -3.0086 0.9433
-13.1223 -1.1726 -3.0070 0.9474
-12.3406 -4.5957 -3.0056 0.9474
-10.3367 -7.4400 -2.9069 0.9491
-8.6855 -8.9808 -2.8516 0.9500
-7.8527 -9.7194 -2.8520 0.9500
-6.0012 -10.9508 -2.8502 0.9501
-4.1601 -12.4255 -2.9908 0.9477
-1.8598 -12.7520 -2.9414 0.9485
1.5762 -12.7979 -2.9431 0.9485
2.7099 -12.6107 -2.9440 0.9485
4.9071 -11.9407 -2.9466 0.9484
5.9537 -11.4628 -2.9482 0.9484
6.9546 -10.8941 -2.9500 0.9484
7.9020 -10.2389 -2.9520 0.9483
8.7885 -9.5020 -2.9542 0.9483
10.3505 -7.8057 -2.9589 0.9482
11.5801 -5.8517 -2.9614 0.9482
12.0656 -4.8020 -2.9640 0.9481
12.7489 -2.5913 -2.9694 0.9480
13.0309 -0.2904 -2.9750 0.9479
6.6334 1.0431 -1.5326 0.9728
12.3610 4.2922 -2.9866 0.9477
6.5654 11.3716 -2.9970 0.9476
5.5287 11.9141 -2.9978 0.9475
4.4476 12.3623 -2.9987 0.9475
3.1613 12.0665 -2.8471 0.9501
2.0753 12.3034 -2.8478 0.9501
0.9736 12.4600 -2.8526 0.9500
-1.2517 12.4421 -2.8542 0.9500
-2.3549 12.2851 -2.8550 0.9500
-6.5018 10.7034 -2.8584 0.9499
-9.5722 9.0533 -3.0072 0.9474
-12.5427 4.0445 -3.0079 0.9474
-12.8525 2.9120 -3.0079 0.9474
-13.1623 -0.5869 -3.0072 0.9474
-12.5342 -4.0417 -3.0059 0.9474
-12.1225 -5.1404 -3.0054 0.9474
-10.9862 -7.1868 -2.9964 0.9476
-5.5049 -11.2020 -2.8488 0.9501
-4.5132 -11.7183 -2.8661 0.9498
-2.4262 -12.6573 -2.9415 0.9485
-1.2899 -12.8217 -2.9413 0.9485
-0.1436 -12.8867 -2.9415 0.9485
2.1451 -12.7168 -2.9435 0.9485
3.2696 -12.4798 -2.9446 0.9484
4.3692 -12.1445 -2.9458 0.9484
6.4603 -11.1896 -2.9490 0.9484
7.4354 -10.5770 -2.9510 0.9483
8.3533 -9.8803 -2.9531 0.9483
9.2067 -9.1047 -2.9554 0.9483
10.6904 -7.3386 -2.9596 0.9482
11.8344 -5.3323 -2.9627 0.9481
12.6150 -3.1552 -2.9680 0.9480
6.6351 0.7422 -1.5239 0.9730
6.7372 1.3694 -1.5692 0.9722
12.5341 3.7356 -2.9852 0.9478
12.1631 4.8408 -2.9879 0.9477
10.4716 7.8970 -2.9935 0.9476
4.9932 12.1503 -2.9983 0.9475
3.6951 11.9121 -2.8467 0.9501
2.6210 12.1971 -2.8474 0.9501
1.5275 12.4022 -2.8521 0.9500
0.4177 12.4924 -2.8529 0.9500
-2.9002 12.1698 -2.8555 0.9500
-3.9731 11.8670 -2.8563 0.9500
-6.0177 10.9810 -2.8580 0.9499
-6.9718 10.4027 -2.8583 0.9499
-7.8644 9.7339 -2.8562 0.9500
-10.6950 7.6978 -3.0076 0.9474
-11.8915 5.6801 -3.0079 0.9474
-12.3501 4.5992 -3.0079 0.9474
-12.9692 2.3365 -3.0078 0.9474
-13.1249 1.1729 -3.0076 0.9474
-12.2324 0.0000 -3.0067 0.9509
-12.1826 -1.0886 -3.0064 0.9509
-12.0358 -2.1684 -3.0060 0.9509
-11.7935 -3.2305 -3.0056 0.9509
-11.4573 -4.2667 -3.0051 0.9509
-11.0301 -5.2686 -3.0046 0.9509
-10.5153 -6.2282 -3.0040 0.9509
-9.9172 -7.1379 -3.0034 0.9509
-9.1073 -7.8754 -2.9595 0.9516
-8.0591 -8.3330 -2.8495 0.9534
-4.7370 -10.8338 -2.9064 0.9525
-2.7862 -11.6914 -2.9542 0.9517
0.4002 -11.9695 -2.9438 0.9519
2.5179 -11.7176 -2.9459 0.9518
3.5525 -11.4522 -2.9473 0.9518
4.5597 -11.0954 -2.9486 0.9518
8.1639 -8.8267 -2.9553 0.9517
11.5680 -3.4476 -2.9670 0.9515
12.0168 -1.3443 -2.9721 0.9514
12.0999 -0.2696 -2.9749 0.9514
6.7834 1.0666 -1.6878 0.9721
10.6040 5.9657 -2.9906 0.9511
10.0386 6.8911 -2.9929 0.9511
9.3895 7.7607 -2.9942 0.9511
8.6635 8.5675 -2.9949 0.9511
7.8684 9.3069 -2.9956 0.9510
7.0106 9.9727 -2.9964 0.9510
6.0967 10.5598 -2.9971 0.9510
5.1339 11.0633 -2.9979 0.9510
2.9354 11.2044 -2.8470 0.9534
0.9041 11.5706 -2.8527 0.9533
-0.1293 11.6078 -2.8534 0.9533
-1.1623 11.5534 -2.8542 0.9533
-2.1866 11.4074 -2.8550 0.9533
-5.1269 10.4330 -2.8573 0.9532
-6.0349 9.9348 -2.8572 0.9532
-7.6908 8.6960 -2.8534 0.9533
-8.8867 8.4050 -3.0066 0.9509
-9.6004 7.5814 -3.0068 0.9509
-11.2638 4.7763 -3.0073 0.9509
-11.6442 3.7548 -3.0073 0.9509
-12.2208 0.5450 -3.0068 0.9509
-11.9266 -2.7022 -3.0058 0.9509
-11.6369 -3.7524 -3.0054 0.9509
-10.7834 -5.7542 -3.0043 0.9509
-10.2264 -6.6898 -3.0037 0.9509
-6.8767 -9.3330 -2.8495 0.9534
-6.0171 -9.9054 -2.8488 0.9534
-4.3846 -11.3844 -2.9986 0.9510
-3.3359 -11.6663 -2.9825 0.9512
-2.2556 -11.7672 -2.9450 0.9518
-1.1987 -11.9154 -2.9436 0.9519
-0.1334 -11.9747 -2.9436 0.9519
0.9331 -11.9407 -2.9440 0.9519
1.9929 -11.8148 -2.9451 0.9518
3.0382 -11.5969 -2.9467 0.9518
5.0507 -10.8839 -2.9493 0.9518
8.5511 -8.4563 -2.9560 0.9517
9.2737 -7.6649 -2.9573 0.9517
9.9236 -6.8122 -2.9586 0.9516
10.9915 -4.9525 -2.9633 0.9516
11.3981 -3.9579 -2.9658 0.9515
11.7150 -2.9301 -2.9683 0.9515
12.0703 -0.8080 -2.9735 0.9514
7.2010 0.1605 -1.7704 0.9708
11.6357 3.4678 -2.9844 0.9512
11.2906 4.4936 -2.9870 0.9512
10.8549 5.4852 -2.9894 0.9511
10.3317 6.4347 -2.9918 0.9511
9.7248 7.3339 -2.9939 0.9511
8.2742 8.9460 -2.9953 0.9510
6.5602 10.2764 -2.9967 0.9510
4.6366 11.2825 -2.9983 0.9510
1.4164 11.5001 -2.8481 0.9534
0.3878 11.6007 -2.8530 0.9533
-0.6464 11.5921 -2.8537 0.9533
-1.6760 11.4918 -2.8546 0.9533
-6.4695 9.6531 -2.8563 0.9533
-9.2527 8.0012 -3.0067 0.9509
-9.9289 7.1465 -3.0070 0.9509
-10.5262 6.2347 -3.0071 0.9509
-12.1848 1.0888 -3.0070 0.9509
-11.4086 0.0000 -3.0062 0.9539
-11.3622 -1.0153 -3.0059 0.9539
-11.2255 -2.0224 -3.0055 0.9539
-10.9996 -3.0130 -3.0051 0.9539
-10.6861 -3.9795 -3.0047 0.9539
-10.2878 -4.9140 -3.0042 0.9539
-9.8078 -5.8091 -3.0037 0.9539
-9.2500 -6.6577 -3.0031 0.9540
-7.9197 -8.1889 -3.0018 0.9540
-6.9883 -8.6495 -2.9301 0.9550
-5.3560 -9.7734 -2.9367 0.9549
-3.6125 -10.7900 -2.9983 0.9540
-2.6083 -10.9447 -2.9647 0.9545
-1.6134 -11.0621 -2.9457 0.9548
-0.6224 -11.1613 -2.9456 0.9548
0.3735 -11.1727 -2.9457 0.9548
1.3667 -11.0967 -2.9461 0.9548
3.3143 -10.6841 -2.9476 0.9548
4.2539 -10.3510 -2.9488 0.9548
6.0278 -9.4424 -2.9518 0.9547
8.9642 -6.7602 -2.9585 0.9546
10.0353 -5.0711 -2.9627 0.9546
11.0445 -2.2449 -2.9697 0.9545
11.2869 -0.2515 -2.9748 0.9544
7.0561 1.1095 -1.8821 0.9709
10.9804 2.7464 -2.9825 0.9543
10.7011 3.7158 -2.9849 0.9542
10.3361 4.6573 -2.9873 0.9542
9.8880 5.5629 -2.9895 0.9542
9.3603 6.4255 -2.9917 0.9541
8.0822 7.9927 -2.9952 0.9541
5.6873 9.8508 -2.9972 0.9540
3.8525 10.7082 -2.9987 0.9540
2.7382 10.4516 -2.8469 0.9563
1.7975 10.6563 -2.8476 0.9563
0.8435 10.7944 -2.8530 0.9562
-0.1206 10.8284 -2.8535 0.9562
-1.0842 10.7773 -2.8541 0.9562
-2.9795 10.4198 -2.8557 0.9562
-3.8961 10.1159 -2.8564 0.9561
-4.7819 9.7308 -2.8569 0.9561
-5.6261 9.2617 -2.8554 0.9562
-6.4243 8.7191 -2.8538 0.9562
-8.9538 7.0708 -3.0063 0.9539
-9.5482 6.2462 -3.0065 0.9539
-10.0667 5.3718 -3.0066 0.9539
-10.5051 4.4546 -3.0067 0.9539
-10.8599 3.5019 -3.0067 0.9539
-11.3977 0.5083 -3.0063 0.9539
-10.8536 -3.4998 -3.0049 0.9539
-8.9433 -7.0625 -3.0028 0.9540
-8.2775 -7.8288 -3.0021 0.9540
-7.4829 -8.4611 -2.9763 0.9544
-6.5236 -8.8538 -2.8979 0.9555
-5.0203 -10.2159 -2.9994 0.9540
-3.1256 -10.9310 -2.9958 0.9541
1.8598 -11.0260 -2.9464 0.9548
4.7120 -10.1540 -2.9496 0.9548
6.4440 -9.1666 -2.9525 0.9547
7.9753 -7.8869 -2.9555 0.9547
9.2597 -6.3564 -2.9595 0.9546
9.7958 -5.5110 -2.9616 0.9546
10.2551 -4.6207 -2.9639 0.9545
10.6339 -3.6925 -2.9662 0.9545
10.5291 4.1905 -2.9861 0.9542
9.6339 6.0000 -2.9906 0.9541
9.0679 6.8384 -2.9927 0.9541
8.4293 7.6239 -2.9948 0.9541
6.1198 9.5865 -2.9969 0.9540
5.2435 10.0955 -2.9976 0.9540
4.3251 10.5247 -2.9983 0.9540
1.3212 10.7271 -2.8479 0.9563
-2.5120 10.5408 -2.8553 0.9562
-3.4411 10.2781 -2.8560 0.9562
-4.3434 9.9336 -2.8568 0.9561
-5.2093 9.5058 -2.8562 0.9562
-8.6296 7.4623 -3.0062 0.9539
-9.8172 5.8148 -3.0066 0.9539
-10.2962 4.9181 -3.0066 0.9539
-10.6931 3.9822 -3.0067 0.9539
-11.0050 3.0146 -3.0066 0.9539
-11.2293 2.0231 -3.0065 0.9539
-10.6829 0.0000 -3.0057 0.9566
-10.3000 -2.8215 -3.0047 0.9566
-7.4165 -7.6686 -3.0016 0.9566
-6.7031 -8.2965 -3.0010 0.9566
-5.1237 -9.3495 -2.9996 0.9567
-1.5133 -10.3757 -2.9502 0.9574
-0.5832 -10.4593 -2.9474 0.9574
0.3501 -10.4700 -2.9475 0.9574
1.2807 -10.3983 -2.9477 0.9574
3.9856 -9.6983 -2.9501 0.9574
6.4148 -8.3119 -2.9541 0.9573
7.7958 -7.0509 -2.9575 0.9573
8.3977 -6.3330 -2.9593 0.9572
9.4002 -4.7501 -2.9633 0.9572
9.7927 -3.8974 -2.9654 0.9571
10.1083 -3.0126 -2.9677 0.9571
10.3445 -2.1026 -2.9700 0.9571
10.5705 -0.2355 -2.9748 0.9570
10.5580 0.7068 -2.9772 0.9570
10.4615 1.6450 -2.9796 0.9569
10.2817 2.5717 -2.9819 0.9569
9.6774 4.3604 -2.9864 0.9569
9.2574 5.2082 -2.9885 0.9568
8.7630 6.0155 -2.9905 0.9568
6.8749 8.1317 -2.9960 0.9567
4.4852 9.6654 -2.9980 0.9567
3.6080 10.0286 -2.9986 0.9567
2.5644 9.7881 -2.8469 0.9588
-1.0154 10.0933 -2.8542 0.9587
-2.7903 9.7582 -2.8556 0.9587
-3.6486 9.4734 -2.8563 0.9587
-9.4262 5.0300 -3.0061 0.9566
-9.8367 4.1711 -3.0062 0.9566
-10.1689 3.2791 -3.0062 0.9566
-10.5886 1.4240 -3.0060 0.9566
-10.6718 -0.4758 -3.0056 0.9566
-10.4161 -2.3599 -3.0049 0.9566
-10.1634 -3.2772 -3.0045 0.9566
-7.7516 -7.3314 -3.0019 0.9566
-7.0668 -7.9906 -3.0013 0.9566
-5.5357 -9.1130 -3.0000 0.9567
-2.9294 -10.2448 -2.9980 0.9567
-1.0486 -10.4231 -2.9474 0.9574
-0.1167 -10.4750 -2.9474 0.9574
2.6561 -10.1382 -2.9487 0.9574
3.5490 -9.8645 -2.9496 0.9574
4.4145 -9.5130 -2.9507 0.9574
5.2459 -9.0861 -2.9519 0.9573
6.0367 -8.5872 -2.9533 0.9573
7.4717 -7.3889 -2.9566 0.9573
8.6743 -5.9546 -2.9603 0.9572
10.2365 -2.5603 -2.9688 0.9571
10.4321 -1.6403 -2.9712 0.9571
10.5747 0.2357 -2.9760 0.9570
10.5202 1.1769 -2.9784 0.9570
10.3820 2.1102 -2.9808 0.9569
9.8584 3.9236 -2.9853 0.9569
8.4890 6.4019 -2.9915 0.9568
7.8950 7.1406 -2.9951 0.9567
5.7316 8.9784 -2.9970 0.9567
4.9108 9.4550 -2.9976 0.9567
4.0507 9.8568 -2.9983 0.9567
-0.5647 10.1275 -2.8538 0.9587
-1.4642 10.0393 -2.8545 0.9587
-2.3525 9.8716 -2.8552 0.9587
-3.2226 9.6254 -2.8559 0.9587
-4.0665 9.3004 -2.8559 0.9587
-4.8760 8.8975 -2.8546 0.9587
-6.5598 8.1192 -2.9368 0.9576
-7.4260 7.6784 -3.0054 0.9566
-8.6711 6.2411 -3.0059 0.9566
-10.0382 0.0000 -3.0053 0.9590
-9.9976 -0.8933 -3.0050 0.9590
-9.4033 -3.5017 -3.0040 0.9590
-8.6306 -5.1119 -3.0030 0.9590
-8.1400 -5.8587 -3.0025 0.9590
-5.5792 -8.3247 -3.0002 0.9590
-4.8151 -8.7864 -2.9996 0.9590
-4.0131 -9.1782 -2.9990 0.9590
-3.1796 -9.4969 -2.9983 0.9590
-2.3194 -9.7326 -2.9953 0.9591
-1.4250 -9.7703 -2.9560 0.9596
-0.5484 -9.8349 -2.9490 0.9597
0.3292 -9.8450 -2.9490 0.9597
4.5457 -8.7520 -2.9525 0.9597
5.3088 -8.3161 -2.9538 0.9596
6.0308 -7.8143 -2.9551 0.9596
7.8941 -5.9532 -2.9600 0.9596
8.8358 -4.4649 -2.9638 0.9595
9.2045 -3.6633 -2.9659 0.9595
9.7225 -1.9762 -2.9703 0.9594
9.8673 -1.1038 -2.9725 0.9594
9.8306 1.5458 -2.9793 0.9593
9.4145 3.2691 -2.9836 0.9592
7.7111 6.3734 -2.9950 0.9591
7.1145 7.0357 -2.9956 0.9591
1.5835 9.3878 -2.8502 0.9610
0.7423 9.5001 -2.8528 0.9610
-2.6222 9.1704 -2.8555 0.9610
-3.4274 8.8991 -2.8550 0.9610
-4.2042 8.5553 -2.8538 0.9610
-5.7757 7.8389 -2.9150 0.9602
-7.8783 6.2214 -3.0054 0.9590
-8.4012 5.4958 -3.0055 0.9589
-9.2431 3.9194 -3.0057 0.9589
-9.7914 2.2184 -3.0056 0.9589
-10.0286 0.4472 -3.0054 0.9590
-9.7877 -2.2176 -3.0045 0.9590
-8.3936 -5.4908 -3.0028 0.9590
-4.4185 -8.9912 -2.9993 0.9590
-1.8663 -9.7361 -2.9679 0.9595
-0.1097 -9.8496 -2.9490 0.9597
0.7674 -9.8209 -2.9492 0.9597
4.9320 -8.5425 -2.9531 0.9597
5.6754 -8.0732 -2.9544 0.9596
7.0240 -6.9462 -2.9575 0.9596
7.6188 -6.2971 -2.9592 0.9596
8.6253 -4.8525 -2.9628 0.9595
9.0290 -4.0683 -2.9648 0.9595
9.3620 -3.2508 -2.9670 0.9595
9.6213 -2.4064 -2.9691 0.9594
9.8046 -1.5417 -2.9714 0.9594
9.9104 -0.6634 -2.9736 0.9594
9.9377 0.2215 -2.9759 0.9593
9.8860 1.1059 -2.9781 0.9593
9.7556 1.9829 -2.9804 0.9593
9.2628 3.6865 -2.9847 0.9592
6.7947 7.3464 -2.9959 0.9591
6.1151 7.9236 -2.9965 0.9591
5.3867 8.4381 -2.9971 0.9591
4.6152 8.8859 -2.9977 0.9591
2.8564 9.2083 -2.8864 0.9605
1.9992 9.3034 -2.8488 0.9610
1.1643 9.4534 -2.8515 0.9610
-1.3760 9.4349 -2.8545 0.9610
-3.8197 8.7359 -2.8544 0.9610
-5.3032 7.9130 -2.8518 0.9610
-6.3074 7.8068 -3.0047 0.9590
-7.5931 6.5660 -3.0053 0.9590
-8.6379 5.1163 -3.0056 0.9589
-9.6829 2.6525 -3.0057 0.9589
-9.8803 1.7800 -3.0056 0.9589
-9.3101 -1.6773 -3.0043 0.9611
-9.1229 -2.4990 -3.0040 0.9611
-8.8632 -3.3006 -3.0036 0.9611
-8.1352 -4.8184 -3.0028 0.9611
-7.1496 -6.1825 -3.0018 0.9611
-6.5697 -6.7930 -3.0012 0.9611
-5.2592 -7.8473 -3.0001 0.9611
-4.5390 -8.2826 -2.9995 0.9611
-2.9973 -8.9526 -2.9983 0.9612
-2.1882 -9.1820 -2.9977 0.9612
-0.5172 -9.2757 -2.9504 0.9618
1.1357 -9.2215 -2.9507 0.9618
4.2867 -8.2533 -2.9536 0.9617
5.0063 -7.8421 -2.9548 0.9617
5.6869 -7.3687 -2.9561 0.9617
7.4433 -5.6132 -2.9607 0.9616
8.3309 -4.2098 -2.9644 0.9616
8.6783 -3.4539 -2.9664 0.9616
8.9574 -2.6696 -2.9684 0.9615
9.3020 -1.0406 -2.9726 0.9615
9.3644 -0.2087 -2.9747 0.9615
9.3525 0.6261 -2.9769 0.9614
9.2662 1.4571 -2.9790 0.9614
8.5694 3.8612 -2.9850 0.9613
8.1969 4.6115 -2.9869 0.9613
7.7621 5.3284 -2.9901 0.9613
6.7071 6.6328 -2.9957 0.9612
6.0912 7.2048 -2.9963 0.9612
5.4268 7.7198 -2.9969 0.9612
4.7191 8.1738 -2.9974 0.9612
-0.1001 8.9847 -2.8536 0.9630
-2.4711 8.6418 -2.8545 0.9630
-3.9614 8.0613 -2.8525 0.9630
-5.6112 7.6156 -3.0042 0.9611
-6.2674 7.0867 -3.0045 0.9611
-6.8739 6.5013 -3.0048 0.9611
-7.4257 5.8641 -3.0050 0.9611
-7.9186 5.1801 -3.0051 0.9611
-9.2289 2.0910 -3.0052 0.9611
-9.4526 0.4215 -3.0050 0.9611
-9.4519 -0.4214 -3.0048 0.9611
-9.0020 -2.9028 -3.0038 0.9611
-8.7067 -3.6920 -3.0034 0.9611
-8.3424 -4.4516 -3.0030 0.9611
-7.9118 -5.1756 -3.0025 0.9611
-4.9039 -8.0730 -2.9998 0.9611
-4.1651 -8.4757 -2.9992 0.9611
-3.3935 -8.8111 -2.9986 0.9611
-2.5953 -9.0763 -2.9980 0.9612
-1.7696 -9.2318 -2.9853 0.9613
-0.1035 -9.2896 -2.9504 0.9618
1.5455 -9.1623 -2.9509 0.9618
2.3553 -8.9901 -2.9515 0.9617
3.1469 -8.7469 -2.9522 0.9617
3.9141 -8.4346 -2.9531 0.9617
4.6510 -8.0557 -2.9542 0.9617
6.6232 -6.5498 -2.9583 0.9617
7.1838 -5.9376 -2.9599 0.9616
9.0706 -2.2687 -2.9694 0.9615
9.2431 -1.4534 -2.9715 0.9615
9.3186 1.0425 -2.9779 0.9614
9.1953 1.8691 -2.9800 0.9614
8.9987 2.6819 -2.9821 0.9614
8.3915 4.2405 -2.9860 0.9613
7.9857 4.9736 -2.9878 0.9613
7.5293 5.6782 -2.9950 0.9612
6.9953 6.3269 -2.9955 0.9612
5.0781 7.9547 -2.9971 0.9612
3.5886 8.7325 -2.9983 0.9612
1.0972 8.9089 -2.8507 0.9630
0.3002 8.9777 -2.8528 0.9630
-0.5003 8.9727 -2.8540 0.9630
-3.5991 8.2313 -2.8531 0.9630
-5.9452 7.3585 -3.0044 0.9611
-6.5772 6.8008 -3.0046 0.9611
-7.6798 5.5276 -3.0051 0.9611
-8.1417 4.8224 -3.0052 0.9611
-8.5388 4.0787 -3.0053 0.9611
-8.8680 3.3025 -3.0053 0.9611
-9.1267 2.5001 -3.0053 0.9611
-9.4247 0.8422 -3.0051 0.9611
-8.9425 0.0000 -3.0045 0.9630
-8.9063 -0.7958 -3.0043 0.9630
-8.7994 -1.5853 -3.0040 0.9630
-8.6225 -2.3619 -3.0037 0.9630
-8.0651 -3.8524 -3.0030 0.9630
-7.6891 -4.5542 -3.0026 0.9630
-6.2097 -6.4208 -3.0011 0.9630
-2.8332 -8.4624 -2.9983 0.9630
-1.2766 -8.7531 -2.9720 0.9634
-0.4893 -8.7747 -2.9527 0.9636
1.0740 -8.7203 -2.9520 0.9636
1.8462 -8.5913 -2.9524 0.9636
5.3772 -6.9674 -2.9570 0.9635
6.5336 -5.9093 -2.9598 0.9635
7.4861 -4.6624 -2.9631 0.9635
8.4678 -2.5237 -2.9687 0.9634
8.6646 -1.7611 -2.9707 0.9634
8.7929 -0.9836 -2.9727 0.9634
8.7580 1.3772 -2.9787 0.9633
8.6064 2.1526 -2.9807 0.9633
8.3860 2.9119 -2.9826 0.9632
8.0985 3.6491 -2.9844 0.9632
6.8719 5.6798 -2.9954 0.9631
6.3401 6.2700 -2.9959 0.9631
5.7579 6.8106 -2.9964 0.9631
5.1298 7.2973 -2.9970 0.9631
2.1473 8.1964 -2.8468 0.9649
1.4103 8.3607 -2.8487 0.9649
-0.0946 8.4888 -2.8523 0.9648
-1.5990 8.3417 -2.8537 0.9648
-2.3347 8.1650 -2.8532 0.9648
-3.7430 7.6167 -2.8514 0.9648
-5.3034 7.1978 -3.0039 0.9630
-6.4967 6.1446 -3.0044 0.9630
-7.0183 5.5423 -3.0046 0.9630
-8.2340 3.4915 -3.0049 0.9630
-8.5121 2.7448 -3.0049 0.9630
-8.8635 1.1920 -3.0048 0.9630
-8.7196 -1.9756 -3.0039 0.9630
-8.2292 -3.4895 -3.0032 0.9630
-7.8849 -4.2075 -3.0028 0.9630
-7.4780 -4.8919 -3.0023 0.9630
-7.0119 -5.5372 -3.0019 0.9630
-5.9170 -6.6904 -3.0008 0.9630
-5.2971 -7.1893 -3.0003 0.9630
-3.9370 -8.0115 -2.9992 0.9630
-3.2077 -8.3286 -2.9986 0.9630
-2.4532 -8.5794 -2.9981 0.9630
-1.6785 -8.7564 -2.9955 0.9631
-0.8816 -8.7634 -2.9592 0.9635
1.4615 -8.6643 -2.9522 0.9636
2.9758 -8.2713 -2.9534 0.9636
3.7012 -7.9758 -2.9542 0.9636
4.3979 -7.6174 -2.9552 0.9636
5.0604 -7.1985 -2.9564 0.9636
5.6835 -6.7224 -2.9577 0.9635
6.2623 -6.1929 -2.9591 0.9635
6.7921 -5.6138 -2.9606 0.9635
7.6887 -4.3256 -2.9640 0.9635
8.8077 0.9853 -2.9777 0.9633
7.9303 4.0074 -2.9853 0.9632
7.1175 5.3676 -2.9951 0.9631
6.6126 5.9808 -2.9956 0.9631
6.0551 6.5467 -2.9961 0.9631
5.4493 7.0609 -2.9967 0.9631
4.8001 7.5193 -2.9972 0.9631
4.1126 7.9182 -2.9978 0.9630
1.7806 8.2863 -2.8476 0.9649
1.0368 8.4183 -2.8498 0.9648
-0.4727 8.4780 -2.8529 0.9648
-1.2258 8.4045 -2.8536 0.9648
-2.6957 8.0517 -2.8528 0.9648
-3.4006 7.7773 -2.8519 0.9648
-4.9772 7.4265 -3.0037 0.9630
-6.2163 6.4276 -3.0043 0.9630
-6.7642 5.8493 -3.0045 0.9630
-7.6949 4.5577 -3.0048 0.9630
-8.0703 3.8549 -3.0049 0.9630
-8.6259 2.3629 -3.0049 0.9630
-8.4382 -0.7540 -3.0040 0.9647
-8.3369 -1.5019 -3.0037 0.9647
-8.1693 -2.2378 -3.0034 0.9647
-7.9369 -2.9557 -3.0031 0.9647
-7.6413 -3.6499 -3.0027 0.9647
-6.8712 -4.9456 -3.0019 0.9647
-6.4028 -5.5367 -3.0015 0.9647
-5.8836 -6.0836 -3.0010 0.9647
-5.3179 -6.5820 -3.0005 0.9647
-4.7102 -7.0280 -3.0000 0.9647
1.0180 -8.2660 -2.9532 0.9653
3.1675 -7.7077 -2.9548 0.9653
3.8421 -7.3974 -2.9557 0.9652
5.0966 -6.6038 -2.9579 0.9652
6.1923 -5.6006 -2.9606 0.9652
7.4641 -3.7718 -2.9654 0.9651
8.3317 -0.9320 -2.9728 0.9650
8.3757 0.5607 -2.9766 0.9650
8.2978 1.3048 -2.9785 0.9650
8.1539 2.0395 -2.9803 0.9650
7.6722 3.4570 -2.9839 0.9649
7.3382 4.1285 -2.9856 0.9649
6.5117 5.3821 -2.9956 0.9648
6.0078 5.9413 -2.9960 0.9648
5.4560 6.4535 -2.9965 0.9648
4.8608 6.9147 -2.9970 0.9648
4.2268 7.3211 -2.9976 0.9648
2.8628 7.9574 -2.9986 0.9647
-0.0896 8.0400 -2.8510 0.9665
-0.8051 8.0029 -2.8520 0.9664
-1.5144 7.9003 -2.8523 0.9664
-2.8900 7.5039 -2.8513 0.9664
-3.5453 7.2144 -2.8503 0.9665
-4.3973 7.2390 -3.0033 0.9647
-7.0907 4.6385 -3.0044 0.9647
-7.4756 3.9891 -3.0045 0.9647
-8.2639 1.8724 -3.0045 0.9647
-8.3975 1.1294 -3.0044 0.9647
-8.4643 0.3775 -3.0043 0.9647
-8.4638 -0.3774 -3.0041 0.9647
-7.7969 -3.3061 -3.0029 0.9647
-5.0190 -6.8118 -3.0002 0.9647
-4.3920 -7.2302 -2.9997 0.9647
-3.0394 -7.8916 -2.9986 0.9647
-2.3245 -8.1293 -2.9981 0.9648
-0.0928 -8.3271 -2.9529 0.9653
0.6488 -8.3027 -2.9530 0.9653
2.1112 -8.0583 -2.9538 0.9653
2.8207 -7.8402 -2.9545 0.9653
5.3868 -6.3716 -2.9585 0.9652
6.4373 -5.3206 -2.9613 0.9652
6.8889 -4.7290 -2.9629 0.9652
7.9074 -2.7457 -2.9681 0.9651
8.2793 -1.3018 -2.9718 0.9651
8.3677 -0.5601 -2.9737 0.9650
8.3897 0.1870 -2.9756 0.9650
8.2341 1.6737 -2.9794 0.9650
8.0574 2.4014 -2.9812 0.9649
7.8163 3.1108 -2.9830 0.9649
7.5128 3.7964 -2.9847 0.9649
7.1615 4.4602 -2.9916 0.9648
6.2660 5.6673 -2.9958 0.9648
3.2142 7.8213 -2.9984 0.9647
2.5057 8.0778 -2.9989 0.9647
1.6868 7.8499 -2.8470 0.9665
-3.9305 7.1722 -2.9000 0.9659
-5.8896 6.0898 -3.0040 0.9647
-6.4087 5.5418 -3.0042 0.9647
-6.8769 4.9497 -3.0044 0.9647
-7.9408 2.9572 -3.0046 0.9647
-8.1724 2.2387 -3.0046 0.9647
-8.4393 0.7542 -3.0044 0.9647
-8.0446 0.0000 -3.0039 0.9662
-7.7569 -2.1248 -3.0032 0.9662
-7.2556 -3.4657 -3.0025 0.9663
-6.9175 -4.0972 -3.0022 0.9663
-6.5245 -4.6960 -3.0017 0.9663
-6.0797 -5.2573 -3.0013 0.9663
-5.0496 -6.2500 -3.0004 0.9663
-3.2174 -7.3583 -2.9989 0.9663
-2.5493 -7.6142 -2.9984 0.9663
-0.4416 -7.9201 -2.9621 0.9667
1.6623 -7.7358 -2.9546 0.9668
4.2619 -6.6761 -2.9576 0.9667
5.3823 -5.8193 -2.9599 0.9667
6.3347 -4.7772 -2.9627 0.9667
6.7382 -4.1966 -2.9642 0.9667
7.0889 -3.5822 -2.9658 0.9667
7.3837 -2.9386 -2.9675 0.9666
7.7970 -1.5848 -2.9710 0.9666
7.9641 -0.1775 -2.9746 0.9666
7.8790 1.2389 -2.9782 0.9665
7.7420 1.9364 -2.9800 0.9665
7.2842 3.2822 -2.9834 0.9665
6.9692 3.9208 -2.9860 0.9664
6.1837 5.1110 -2.9957 0.9663
5.7052 5.6420 -2.9962 0.9663
5.1812 6.1283 -2.9966 0.9663
3.3797 7.2830 -2.9981 0.9663
2.0355 7.7695 -2.9991 0.9663
1.2682 7.5186 -2.8472 0.9680
-0.0850 7.6317 -2.8499 0.9679
-0.7642 7.5962 -2.8508 0.9679
-2.0990 7.3406 -2.8509 0.9679
-3.4354 6.9908 -2.9086 0.9673
-5.8444 5.5276 -3.0038 0.9662
-6.7325 4.4042 -3.0041 0.9662
-7.6573 2.4692 -3.0043 0.9662
-7.8465 1.7778 -3.0042 0.9662
-8.0368 0.3584 -3.0040 0.9662
-8.0363 -0.3583 -3.0038 0.9662
-7.9719 -1.0721 -3.0036 0.9662
-7.4033 -3.1392 -3.0027 0.9662
-4.7658 -6.4682 -3.0001 0.9663
-4.1705 -6.8656 -2.9996 0.9663
-3.5423 -7.2083 -2.9991 0.9663
-2.2074 -7.7196 -2.9981 0.9663
-1.5113 -7.8841 -2.9976 0.9663
-0.7979 -7.9315 -2.9767 0.9665
0.6163 -7.8870 -2.9541 0.9668
1.3160 -7.8016 -2.9544 0.9668
2.6794 -7.4474 -2.9554 0.9668
3.9596 -6.8582 -2.9571 0.9668
6.1141 -5.0534 -2.9620 0.9667
6.5429 -4.4914 -2.9635 0.9667
7.2434 -3.2637 -2.9667 0.9666
7.7163 -1.9300 -2.9701 0.9666
7.8622 -1.2363 -2.9719 0.9666
7.9459 -0.5319 -2.9737 0.9666
7.9240 0.8864 -2.9773 0.9665
7.8183 1.5892 -2.9791 0.9665
7.4212 2.9536 -2.9826 0.9665
7.1327 3.6044 -2.9842 0.9665
5.9504 5.3818 -2.9959 0.9663
5.4486 5.8910 -2.9964 0.9663
4.9034 6.3536 -2.9969 0.9663
2.3794 7.6705 -2.9989 0.9663
0.9323 7.5696 -2.8479 0.9680
-0.4250 7.6217 -2.8504 0.9679
-1.1019 7.5552 -2.8510 0.9679
-1.7700 7.4273 -2.8511 0.9679
-3.0577 6.9930 -2.8499 0.9679
-3.8647 7.0523 -3.0029 0.9662
-4.4776 6.6810 -3.0032 0.9662
-5.5922 5.7823 -3.0037 0.9662
-6.9222 4.1000 -3.0042 0.9662
-7.5397 2.8078 -3.0043 0.9662
-7.9178 1.4265 -3.0042 0.9662
-8.0130 0.7161 -3.0041 0.9662
-7.6224 -0.6811 -3.0035 0.9677
-7.5309 -1.3567 -3.0032 0.9677
-7.3796 -2.0215 -3.0030 0.9677
-7.1697 -2.6700 -3.0027 0.9677
-6.9028 -3.2972 -3.0023 0.9677
-6.5811 -3.8980 -3.0020 0.9677
-6.2073 -4.4677 -3.0016 0.9677
-5.7842 -5.0018 -3.0012 0.9677
-4.2553 -6.3493 -2.9998 0.9677
-3.0611 -7.0010 -2.9989 0.9677
-2.4255 -7.2445 -2.9984 0.9677
-1.7708 -7.4304 -2.9979 0.9677
-0.4211 -7.5526 -2.9688 0.9680
2.2315 -7.1937 -2.9560 0.9682
4.0560 -6.3536 -2.9584 0.9681
5.1221 -5.5379 -2.9606 0.9681
5.5971 -5.0622 -2.9619 0.9681
6.7455 -3.4086 -2.9662 0.9680
7.2509 -2.1610 -2.9695 0.9680
7.5278 -0.8421 -2.9729 0.9680
7.4958 1.1787 -2.9780 0.9679
7.3653 1.8422 -2.9797 0.9679
7.1761 2.4918 -2.9814 0.9679
6.6484 3.7403 -2.9939 0.9678
6.2923 4.3195 -2.9954 0.9677
5.8837 4.8630 -2.9958 0.9677
5.4283 5.3682 -2.9963 0.9677
4.9297 5.8309 -2.9967 0.9677
3.2156 6.9294 -2.9981 0.9677
2.5865 7.1893 -2.9986 0.9677
1.9366 7.3921 -2.9991 0.9677
1.2371 7.3340 -2.9190 0.9685
-0.0809 7.2585 -2.8489 0.9693
-1.3671 7.1319 -2.8500 0.9693
-1.9963 6.9815 -2.8499 0.9693
-5.0696 5.7323 -3.0034 0.9677
-6.0064 4.7432 -3.0037 0.9676
-6.4050 4.1900 -3.0039 0.9676
-6.7527 3.6034 -3.0040 0.9676
-7.0467 2.9881 -3.0040 0.9676
-7.2847 2.3490 -3.0040 0.9676
-7.4648 1.6913 -3.0040 0.9676
-7.5842 -1.0200 -3.0034 0.9677
-7.4627 -1.6908 -3.0031 0.9677
-7.0432 -2.9866 -3.0025 0.9677
-6.7487 -3.6012 -3.0022 0.9677
-6.0017 -4.7394 -3.0014 0.9677
-4.5343 -6.1539 -3.0001 0.9677
-2.7460 -7.1298 -2.9986 0.9677
-2.1002 -7.3447 -2.9981 0.9677
-0.0841 -7.5445 -2.9612 0.9681
0.5866 -7.5064 -2.9550 0.9682
3.1715 -6.8345 -2.9571 0.9681
3.7683 -6.5269 -2.9579 0.9681
4.8693 -5.7594 -2.9600 0.9681
5.3648 -5.3054 -2.9612 0.9681
5.8183 -4.8090 -2.9626 0.9681
6.2262 -4.2741 -2.9640 0.9681
6.5853 -3.7048 -2.9655 0.9681
6.8925 -3.1056 -2.9670 0.9680
7.1455 -2.4812 -2.9687 0.9680
7.3421 -1.8364 -2.9703 0.9680
7.5795 0.1689 -2.9755 0.9679
7.0598 2.8098 -2.9822 0.9679
6.4781 4.0346 -2.9952 0.9677
6.0941 4.5958 -2.9956 0.9677
5.6616 5.1207 -2.9961 0.9677
5.1842 5.6051 -2.9965 0.9677
2.9039 7.0663 -2.9984 0.9677
2.2638 7.2979 -2.9989 0.9677
1.6055 7.4717 -2.9993 0.9677
0.8868 7.2006 -2.8474 0.9693
0.2425 7.2534 -2.8484 0.9693
-0.4042 7.2488 -2.8494 0.9693
-1.6834 7.0639 -2.8500 0.9693
-4.2598 6.3561 -3.0030 0.9677
-5.3201 5.5010 -3.0035 0.9677
-5.7890 5.0059 -3.0037 0.9676
-6.5854 3.9006 -3.0039 0.9676
-7.5326 1.3571 -3.0039 0.9676
-7.6232 0.6812 -3.0038 0.9676
-7.0331 -1.9265 -3.0028 0.9689
-6.8330 -2.5446 -3.0025 0.9690
-6.2722 -3.7150 -3.0018 0.9690
-5.5127 -4.7670 -3.0010 0.9690
-3.5004 -6.3875 -2.9993 0.9690
-2.3117 -6.9048 -2.9984 0.9690
-1.6878 -7.0820 -2.9979 0.9690
-0.4031 -7.2296 -2.9817 0.9692
0.2402 -7.1854 -2.9605 0.9694
0.8775 -7.1248 -2.9561 0.9694
3.3113 -6.3754 -2.9583 0.9694
3.8668 -6.0572 -2.9591 0.9694
6.4300 -3.2492 -2.9666 0.9693
6.6971 -2.6654 -2.9681 0.9693
7.2115 0.4828 -2.9762 0.9692
7.1439 1.1233 -2.9779 0.9692
6.6036 2.9755 -2.9825 0.9692
5.9975 4.1171 -2.9956 0.9690
5.6080 4.6352 -2.9960 0.9690
4.6987 5.5576 -2.9968 0.9690
3.6399 6.3045 -2.9977 0.9690
3.0648 6.6045 -2.9982 0.9690
2.4652 6.8521 -2.9986 0.9690
-2.5732 6.6812 -2.9482 0.9695
-3.7857 6.2321 -3.0026 0.9689
-4.3258 5.8710 -3.0029 0.9689
-5.2989 5.0117 -3.0033 0.9689
-5.7243 4.5204 -3.0035 0.9689
-6.1041 3.9932 -3.0036 0.9689
-7.2292 0.9722 -3.0036 0.9689
-7.2867 0.3249 -3.0035 0.9689
-7.2280 -0.9720 -3.0031 0.9689
-6.7125 -2.8463 -3.0023 0.9690
-6.4318 -3.4321 -3.0020 0.9690
-5.2945 -5.0075 -3.0008 0.9690
-4.3216 -5.8652 -3.0000 0.9690
-2.6172 -6.7954 -2.9986 0.9690
-1.3705 -7.1496 -2.9977 0.9690
-0.7286 -7.2421 -2.9972 0.9690
1.1941 -7.0791 -2.9562 0.9694
2.4311 -6.7574 -2.9572 0.9694
3.0236 -6.5157 -2.9579 0.9694
3.5925 -6.2224 -2.9587 0.9694
4.6420 -5.4906 -2.9607 0.9694
5.5465 -4.5843 -2.9631 0.9694
7.1301 -1.1211 -2.9721 0.9693
7.2056 -0.4823 -2.9738 0.9692
7.1849 0.8038 -2.9770 0.9692
6.7279 2.6777 -2.9818 0.9692
6.4718 3.2704 -2.9859 0.9691
6.1746 3.8456 -2.9954 0.9690
5.8086 4.3805 -2.9958 0.9690
5.3963 4.8807 -2.9962 0.9690
4.9412 5.3424 -2.9966 0.9690
4.4468 5.7618 -2.9970 0.9690
3.3557 6.4609 -2.9979 0.9690
2.7678 6.7350 -2.9984 0.9690
2.1577 6.9557 -2.9988 0.9690
1.5302 7.1212 -2.9993 0.9690
0.8772 7.1223 -2.9550 0.9694
0.2311 6.9118 -2.8477 0.9705
-0.9985 6.8460 -2.8489 0.9705
-1.6039 6.7302 -2.8490 0.9705
-2.2122 6.6074 -2.8692 0.9703
-2.9208 6.6801 -3.0022 0.9690
-3.5042 6.3943 -3.0025 0.9690
-4.0597 6.0576 -3.0028 0.9689
-4.5832 5.6727 -3.0030 0.9689
-5.5171 4.7708 -3.0034 0.9689
-6.2760 3.7173 -3.0037 0.9689
-6.5821 3.1440 -3.0037 0.9689
-7.2651 0.6492 -3.0036 0.9689
-6.9622 0.0000 -3.0032 0.9701
-6.9342 -0.6196 -3.0030 0.9701
-6.7134 -1.8390 -3.0026 0.9701
-6.5225 -2.4290 -3.0023 0.9701
-5.9873 -3.5462 -3.0017 0.9701
0.2296 -6.8676 -2.9640 0.9705
0.8379 -6.8034 -2.9569 0.9706
1.4403 -6.7025 -2.9572 0.9706
2.6068 -6.3432 -2.9583 0.9706
5.8357 -3.6345 -2.9656 0.9705
6.5982 -1.9665 -2.9699 0.9705
6.7505 -1.3721 -2.9714 0.9704
6.8941 -0.1536 -2.9746 0.9704
6.8840 0.4609 -2.9761 0.9704
6.5277 2.2667 -2.9807 0.9703
6.3062 2.8414 -2.9836 0.9703
6.0520 3.4048 -2.9954 0.9702
5.3537 4.4250 -2.9961 0.9702
4.9393 4.8846 -2.9965 0.9702
3.9961 5.6845 -2.9973 0.9702
2.3533 6.5412 -2.9986 0.9702
1.7620 6.7256 -2.9991 0.9702
1.1566 6.8568 -2.9995 0.9702
-0.0749 6.7234 -2.9004 0.9711
-0.6633 6.5931 -2.8583 0.9715
-1.8707 6.5423 -2.9352 0.9708
-2.5011 6.4941 -3.0018 0.9701
-3.6137 5.9489 -3.0024 0.9701
-4.6119 5.2148 -3.0029 0.9701
-5.0581 4.7839 -3.0031 0.9701
-5.8267 3.8116 -3.0034 0.9701
-6.1430 3.2780 -3.0035 0.9701
-6.6269 2.1369 -3.0035 0.9701
-6.9551 -0.3101 -3.0031 0.9701
-6.7890 -1.5381 -3.0027 0.9701
-6.1396 -3.2762 -3.0018 0.9701
-5.8230 -3.8092 -3.0015 0.9701
-5.4602 -4.3118 -3.0011 0.9701
-4.6079 -5.2103 -3.0003 0.9702
-2.4985 -6.4870 -2.9986 0.9702
-1.9109 -6.6827 -2.9982 0.9702
-0.6955 -6.9136 -2.9973 0.9702
-0.0768 -6.8937 -2.9739 0.9704
0.5345 -6.8409 -2.9599 0.9706
1.7376 -6.6322 -2.9574 0.9706
2.3214 -6.4524 -2.9579 0.9706
3.9467 -5.6143 -2.9603 0.9705
4.4323 -5.2425 -2.9613 0.9705
5.2957 -4.3770 -2.9636 0.9705
5.6667 -3.8900 -2.9649 0.9705
6.2725 -2.8262 -2.9677 0.9705
6.5024 -2.2579 -2.9692 0.9705
6.6810 -1.6710 -2.9707 0.9704
6.8067 -1.0703 -2.9722 0.9704
6.8786 -0.4604 -2.9738 0.9704
6.7665 1.3754 -2.9785 0.9704
6.4218 2.5558 -2.9814 0.9703
5.8947 3.6712 -2.9955 0.9702
5.5452 4.1818 -2.9959 0.9702
3.7391 5.8573 -2.9975 0.9702
3.2034 6.1678 -2.9980 0.9702
2.6422 6.4293 -2.9984 0.9702
1.4608 6.7980 -2.9993 0.9702
0.8500 6.9020 -2.9997 0.9702
0.2281 6.8222 -2.9444 0.9707
-0.9560 6.5550 -2.8574 0.9716
-1.5548 6.5244 -2.8931 0.9712
-2.2036 6.5818 -2.9940 0.9702
-3.3449 6.1037 -3.0023 0.9701
-5.9908 3.5484 -3.0034 0.9701
-6.7155 1.8396 -3.0035 0.9701
-6.8524 1.2345 -3.0034 0.9701
-6.9349 0.6197 -3.0033 0.9701
-6.6286 -0.5923 -3.0028 0.9712
-6.5491 -1.1798 -3.0026 0.9712
-6.4176 -1.7579 -3.0024 0.9712
-6.0031 -2.8674 -3.0018 0.9712
-5.3984 -3.8855 -3.0012 0.9712
-5.0305 -4.3500 -3.0008 0.9712
-3.7011 -5.5224 -2.9997 0.9712
-3.1944 -5.8291 -2.9992 0.9713
-2.6626 -6.0894 -2.9988 0.9713
-1.5403 -6.4632 -2.9980 0.9713
-0.9588 -6.5737 -2.9976 0.9713
-0.3698 -6.6321 -2.9972 0.9713
0.8017 -6.5096 -2.9595 0.9716
1.9425 -6.2621 -2.9584 0.9716
2.4926 -6.0655 -2.9590 0.9716
4.0098 -5.1956 -2.9614 0.9716
4.8710 -4.4055 -2.9635 0.9716
5.2459 -3.9561 -2.9647 0.9716
5.8693 -2.9659 -2.9673 0.9716
6.3082 -1.8800 -2.9701 0.9715
6.4537 -1.3118 -2.9716 0.9715
6.5809 0.4406 -2.9760 0.9715
6.4048 1.6020 -2.9790 0.9714
6.2398 2.1667 -2.9804 0.9714
6.0411 2.7220 -2.9898 0.9713
4.2882 5.0722 -2.9970 0.9713
3.8203 5.4344 -2.9974 0.9713
3.3219 5.7537 -2.9978 0.9713
2.7970 6.0274 -2.9982 0.9713
1.1057 6.5549 -2.9995 0.9712
-0.0741 6.6489 -3.0003 0.9712
-1.2470 6.5054 -2.9888 0.9714
-2.3910 6.2080 -3.0017 0.9712
-3.4544 5.6868 -3.0023 0.9712
-5.8722 3.1335 -3.0033 0.9712
-6.3348 2.0427 -3.0033 0.9712
-6.4914 1.4708 -3.0033 0.9712
-6.5964 0.8871 -3.0032 0.9712
-6.6486 -0.2964 -3.0029 0.9712
-6.4898 -1.4704 -3.0025 0.9712
-6.3326 -2.0420 -3.0023 0.9712
-5.8691 -3.1318 -3.0017 0.9712
-5.2197 -4.1219 -3.0010 0.9712
-3.9437 -5.3524 -2.9999 0.9712
-2.9314 -5.9652 -2.9990 0.9713
-2.3885 -6.2015 -2.9986 0.9713
-1.8268 -6.3886 -2.9982 0.9713
-1.2507 -6.5249 -2.9978 0.9713
-0.0737 -6.6195 -2.9871 0.9714
2.2197 -6.1699 -2.9587 0.9716
2.7607 -5.9491 -2.9593 0.9716
3.7738 -5.3683 -2.9609 0.9716
4.6690 -4.6172 -2.9629 0.9716
5.0634 -4.1850 -2.9641 0.9716
5.4180 -3.7193 -2.9653 0.9716
5.7301 -3.2237 -2.9666 0.9716
5.9970 -2.7021 -2.9680 0.9715
6.2167 -2.1586 -2.9694 0.9715
6.5073 -1.0232 -2.9723 0.9715
6.5759 -0.4402 -2.9738 0.9715
6.5563 0.7334 -2.9768 0.9715
6.4682 1.3147 -2.9783 0.9715
6.1393 2.4437 -2.9814 0.9714
5.9249 2.9940 -2.9954 0.9713
5.3013 3.9979 -2.9960 0.9713
4.9250 4.4545 -2.9964 0.9713
4.5096 4.8758 -2.9968 0.9713
4.0583 5.2585 -2.9972 0.9713
2.5259 6.1464 -2.9984 0.9713
1.3965 6.4987 -2.9992 0.9713
0.8126 6.5981 -2.9997 0.9712
0.2222 6.6451 -3.0001 0.9712
-0.3693 6.6233 -2.9932 0.9713
-0.9521 6.5280 -2.9767 0.9715
-1.5419 6.4702 -3.0012 0.9712
-3.1975 5.8348 -3.0021 0.9712
-4.1821 5.1762 -3.0026 0.9712
-5.4019 3.8881 -3.0031 0.9712
-5.7267 3.3919 -3.0032 0.9712
-6.4195 1.7585 -3.0033 0.9712
-6.5504 1.1801 -3.0032 0.9712
-6.3703 0.0000 -3.0028 0.9722
-6.3447 -0.5669 -3.0026 0.9722
-6.1428 -1.6827 -3.0022 0.9722
-5.9681 -2.2225 -3.0020 0.9722
-5.7461 -2.7447 -3.0017 0.9722
-5.4785 -3.2449 -3.0014 0.9722
-5.1673 -3.7192 -3.0011 0.9722
-3.9997 -4.9504 -3.0000 0.9722
-3.0578 -5.5797 -2.9992 0.9723
-2.0195 -6.0318 -2.9984 0.9723
-1.4744 -6.1868 -2.9980 0.9723
-0.9178 -6.2927 -2.9976 0.9723
-0.3540 -6.3486 -2.9972 0.9723
0.2113 -6.3195 -2.9806 0.9724
1.8598 -5.9956 -2.9591 0.9726
3.3800 -5.2947 -2.9610 0.9726
4.2679 -4.6144 -2.9629 0.9726
4.6634 -4.2177 -2.9639 0.9726
5.3415 -3.3267 -2.9663 0.9726
5.8519 -2.3290 -2.9689 0.9725
6.0388 -1.7997 -2.9703 0.9725
6.1779 -1.2557 -2.9717 0.9725
6.2682 -0.7012 -2.9731 0.9725
6.3087 -0.1406 -2.9745 0.9725
5.5387 3.1161 -2.9956 0.9723
5.2399 3.5971 -2.9960 0.9723
4.5202 4.4701 -2.9967 0.9723
4.1049 4.8554 -2.9970 0.9723
3.6569 5.2021 -2.9974 0.9723
2.1535 5.9858 -2.9986 0.9723
1.6124 6.1546 -2.9990 0.9723
1.0583 6.2745 -2.9994 0.9723
0.4958 6.3446 -2.9998 0.9723
-0.0709 6.3644 -3.0002 0.9722
-0.6372 6.3336 -3.0006 0.9722
-2.2886 5.9422 -3.0016 0.9722
-2.8087 5.7155 -3.0019 0.9722
-3.3065 5.4433 -3.0021 0.9722
-3.7782 5.1278 -3.0024 0.9722
-4.2199 4.7715 -3.0026 0.9722
-5.6207 2.9993 -3.0031 0.9722
-6.0635 1.9552 -3.0031 0.9722
-6.2133 1.4078 -3.0031 0.9722
-6.3129 -0.8490 -3.0026 0.9722
-6.2119 -1.4074 -3.0024 0.9722
-5.8629 -2.4861 -3.0018 0.9722
-5.3282 -3.4855 -3.0012 0.9722
-4.9963 -3.9455 -3.0009 0.9722
-4.6247 -4.3740 -3.0006 0.9722
-3.7750 -5.1234 -2.9998 0.9723
-2.2863 -5.9363 -2.9986 0.9723
-1.7487 -6.1154 -2.9982 0.9723
-0.0708 -6.3533 -2.9950 0.9723
0.4903 -6.2744 -2.9666 0.9726
1.0442 -6.1903 -2.9592 0.9726
1.5908 -6.0721 -2.9588 0.9726
2.1253 -5.9073 -2.9593 0.9726
2.6432 -5.6959 -2.9599 0.9726
3.1404 -5.4393 -2.9606 0.9726
4.8475 -4.0066 -2.9645 0.9726
5.4856 -3.0861 -2.9669 0.9726
5.7410 -2.5868 -2.9682 0.9725
6.1144 -1.5293 -2.9710 0.9725
6.2757 0.7021 -2.9767 0.9725
6.1913 1.2584 -2.9781 0.9724
6.0575 1.8053 -2.9795 0.9724
5.8823 2.3411 -2.9843 0.9724
5.6718 2.8661 -2.9955 0.9723
5.3947 3.3599 -2.9958 0.9723
5.0748 3.8271 -2.9961 0.9723
4.7146 4.2641 -2.9965 0.9723
4.3169 4.6674 -2.9968 0.9723
3.4218 5.3602 -2.9976 0.9723
2.9315 5.6442 -2.9980 0.9723
1.3367 6.2207 -2.9992 0.9723
0.7778 6.3158 -2.9996 0.9723
-0.9187 6.2993 -3.0007 0.9722
-2.0215 6.0379 -3.0014 0.9722
-2.5511 5.8346 -3.0017 0.9722
-3.0606 5.5849 -3.0020 0.9722
-4.0030 4.9546 -3.0025 0.9722
-5.1705 3.7215 -3.0029 0.9722
-5.7487 2.7460 -3.0031 0.9722
-5.9703 2.2234 -3.0031 0.9722
-6.1445 1.6832 -3.0031 0.9722
-6.2698 1.1296 -3.0030 0.9722
-6.3453 0.5670 -3.0029 0.9722
-6.1047 0.0000 -3.0026 0.9732
-6.0802 -0.5433 -3.0025 0.9732
-6.0073 -1.0822 -3.0023 0.9732
-5.8867 -1.6125 -3.0021 0.9732
-5.7194 -2.1299 -3.0018 0.9732
-5.5066 -2.6303 -3.0016 0.9732
-5.2502 -3.1096 -3.0013 0.9732
-4.2407 -4.3848 -3.0003 0.9732
-3.3952 -5.0659 -2.9996 0.9732
-1.9354 -5.7807 -2.9984 0.9732
-1.4130 -5.9293 -2.9980 0.9732
-0.8796 -6.0308 -2.9976 0.9732
0.7372 -5.9858 -2.9664 0.9735
1.2640 -5.8823 -2.9593 0.9735
1.7828 -5.7472 -2.9597 0.9735
2.2877 -5.5667 -2.9602 0.9735
3.2399 -5.0752 -2.9616 0.9735
3.6798 -4.7681 -2.9624 0.9735
5.1197 -3.1886 -2.9666 0.9735
5.3854 -2.7214 -2.9678 0.9735
5.6087 -2.2322 -2.9691 0.9734
5.7876 -1.7249 -2.9704 0.9734
5.9209 -1.2035 -2.9718 0.9734
6.0073 -0.6720 -2.9731 0.9734
6.0460 -0.1347 -2.9745 0.9734
6.0368 0.4041 -2.9759 0.9734
5.9796 0.9403 -2.9773 0.9734
5.8748 1.4694 -2.9786 0.9734
5.7283 1.9891 -2.9825 0.9733
5.5525 2.5019 -2.9955 0.9732
5.0220 3.4474 -2.9961 0.9732
4.6957 3.8811 -2.9964 0.9732
4.3321 4.2842 -2.9967 0.9732
3.9341 4.6533 -2.9971 0.9732
3.5048 4.9856 -2.9975 0.9732
3.0475 5.2784 -2.9978 0.9732
0.4751 6.0803 -2.9998 0.9732
-0.0680 6.0993 -3.0001 0.9732
-1.1486 5.9919 -3.0008 0.9732
-2.1932 5.6945 -3.0014 0.9732
-2.6916 5.4772 -3.0017 0.9732
-3.1687 5.2164 -3.0020 0.9732
-3.6207 4.9141 -3.0022 0.9732
-4.0440 4.5726 -3.0024 0.9732
-4.7911 3.7835 -3.0027 0.9732
-5.3863 2.8742 -3.0029 0.9732
-5.9543 1.3491 -3.0029 0.9732
-6.0506 0.8137 -3.0028 0.9732
-5.9530 -1.3487 -3.0022 0.9732
-5.1062 -3.3403 -3.0011 0.9732
-3.6177 -4.9100 -2.9997 0.9732
-2.6892 -5.4722 -2.9990 0.9732
1.0020 -5.9406 -2.9632 0.9735
1.5249 -5.8205 -2.9595 0.9735
2.0372 -5.6625 -2.9599 0.9735
3.0102 -5.2139 -2.9612 0.9735
3.4632 -4.9265 -2.9620 0.9735
3.8892 -4.6001 -2.9629 0.9735
4.6464 -3.8403 -2.9649 0.9735
4.9716 -3.4128 -2.9660 0.9735
5.2577 -2.9579 -2.9672 0.9735
5.7038 -1.9806 -2.9698 0.9734
6.0326 -0.4038 -2.9738 0.9734
6.0474 0.1348 -2.9752 0.9734
5.9332 1.2060 -2.9779 0.9734
5.8049 1.7300 -2.9792 0.9734
5.4358 2.7469 -2.9956 0.9732
5.1703 3.2201 -2.9959 0.9732
4.5184 4.0867 -2.9966 0.9732
3.7231 4.8242 -2.9973 0.9732
3.2794 5.1371 -2.9976 0.9732
0.2038 6.0958 -2.9999 0.9732
-1.4144 5.9352 -3.0010 0.9732
-1.9373 5.7863 -3.0013 0.9732
-2.4448 5.5915 -3.0016 0.9732
-2.9330 5.3521 -3.0018 0.9732
-3.3981 5.0703 -3.0021 0.9732
-5.7214 2.1307 -3.0029 0.9732
-5.8883 1.6130 -3.0029 0.9732
-5.8565 0.0000 -3.0025 0.9740
-5.6475 -1.5470 -3.0019 0.9740
-5.4869 -2.0433 -3.0017 0.9740
-4.7508 -3.4194 -3.0009 0.9740
-4.4271 -3.8283 -3.0006 0.9740
-2.8115 -5.1302 -2.9992 0.9740
-2.3434 -5.3594 -2.9988 0.9740
-1.3557 -5.6886 -2.9980 0.9741
-0.3255 -5.8374 -2.9973 0.9741
0.1953 -5.8425 -2.9970 0.9741
0.7087 -5.7543 -2.9723 0.9743
1.7108 -5.5149 -2.9603 0.9744
3.5310 -4.5752 -2.9629 0.9744
3.9253 -4.2441 -2.9638 0.9743
4.2889 -3.8791 -2.9647 0.9743
4.6188 -3.4832 -2.9658 0.9743
5.6807 -1.1546 -2.9719 0.9743
5.7634 -0.6447 -2.9732 0.9743
5.7366 0.9021 -2.9771 0.9742
5.6360 1.4097 -2.9784 0.9742
5.5090 1.9130 -2.9897 0.9741
5.3273 2.4004 -2.9956 0.9741
4.5052 3.7237 -2.9965 0.9741
3.7744 4.4644 -2.9972 0.9741
3.3625 4.7833 -2.9975 0.9741
1.9801 5.5037 -2.9986 0.9741
1.4825 5.6588 -2.9990 0.9740
0.9731 5.7690 -2.9993 0.9740
0.4558 5.8334 -2.9997 0.9740
-0.0652 5.8515 -3.0001 0.9740
-0.5858 5.8231 -3.0004 0.9740
-1.1019 5.7485 -3.0007 0.9740
-2.1041 5.4632 -3.0013 0.9740
-2.5822 5.2546 -3.0016 0.9740
-3.0399 5.0044 -3.0018 0.9740
-3.8796 4.3867 -3.0022 0.9740
-4.2548 4.0242 -3.0024 0.9740
-5.1673 2.7574 -3.0027 0.9740
-5.5744 1.7975 -3.0027 0.9740
-5.8046 0.7807 -3.0026 0.9740
-5.8508 0.2609 -3.0025 0.9740
-5.5727 -1.7970 -3.0018 0.9740
-5.1650 -2.7561 -3.0013 0.9740
-4.5935 -3.6275 -3.0007 0.9740
-3.8767 -4.3834 -3.0001 0.9740
-2.5800 -5.2500 -2.9990 0.9740
-2.1022 -5.4581 -2.9986 0.9741
-1.1009 -5.7430 -2.9979 0.9741
-0.5853 -5.8175 -2.9975 0.9741
-0.0651 -5.8458 -2.9971 0.9741
0.9624 -5.7054 -2.9663 0.9743
1.9549 -5.4337 -2.9605 0.9744
3.7318 -4.4140 -2.9633 0.9744
4.7703 -3.2746 -2.9663 0.9743
5.0447 -2.8381 -2.9675 0.9743
5.2795 -2.3788 -2.9687 0.9743
5.4725 -1.9003 -2.9699 0.9743
5.6224 -1.4062 -2.9712 0.9743
5.8018 0.1293 -2.9752 0.9743
5.7698 0.6455 -2.9765 0.9742
5.5730 1.6613 -2.9812 0.9742
5.4287 2.1606 -2.9955 0.9741
5.2153 2.6355 -2.9957 0.9741
4.9605 3.0895 -2.9960 0.9741
4.6663 3.5191 -2.9963 0.9741
3.1463 4.9286 -2.9977 0.9741
0.7152 5.8069 -2.9995 0.9740
-0.3258 5.8431 -3.0002 0.9740
-2.8139 5.1346 -3.0017 0.9740
-3.2599 4.8642 -3.0019 0.9740
-3.6802 4.5550 -3.0021 0.9740
-4.4300 3.8307 -3.0025 0.9740
-5.6489 1.5474 -3.0027 0.9740
-5.6240 0.0000 -3.0023 0.9748
-5.4232 -1.4856 -3.0018 0.9748
-5.2691 -1.9622 -3.0016 0.9748
-5.0731 -2.4232 -3.0013 0.9748
-4.8369 -2.8649 -3.0011 0.9748
-4.5622 -3.2837 -3.0008 0.9748
-3.9069 -4.0397 -3.0002 0.9748
-2.2504 -5.1468 -2.9988 0.9749
-1.3019 -5.4630 -2.9981 0.9749
-0.8104 -5.5565 -2.9977 0.9749
-0.3126 -5.6060 -2.9974 0.9749
3.3914 -4.3944 -2.9633 0.9751
3.7702 -4.0763 -2.9642 0.9751
4.1193 -3.7257 -2.9651 0.9751
4.4361 -3.3454 -2.9661 0.9751
4.7180 -2.9383 -2.9672 0.9751
5.4555 -1.1089 -2.9720 0.9751
5.5349 -0.6192 -2.9732 0.9751
5.5088 0.8662 -2.9770 0.9750
5.1162 2.3053 -2.9957 0.9749
4.6273 3.1765 -2.9963 0.9749
4.3266 3.5761 -2.9966 0.9749
3.6248 4.2875 -2.9972 0.9749
2.8078 4.8633 -2.9979 0.9749
2.3641 5.0945 -2.9982 0.9749
1.9015 5.2854 -2.9986 0.9749
-0.0626 5.6193 -3.0000 0.9748
-0.5626 5.5920 -3.0003 0.9748
-1.0582 5.5203 -3.0006 0.9748
-1.5455 5.4048 -3.0009 0.9748
-3.3356 4.5271 -3.0019 0.9748
-3.7255 4.2125 -3.0021 0.9748
-4.0858 3.8644 -3.0022 0.9748
-4.7066 3.0789 -3.0025 0.9748
-4.9621 2.6479 -3.0025 0.9748
-5.3530 1.7261 -3.0026 0.9748
-5.5734 -0.7495 -3.0021 0.9748
-5.1762 -2.1949 -3.0015 0.9748
-4.7042 -3.0773 -3.0009 0.9748
-4.4112 -3.4835 -3.0006 0.9748
-3.7229 -4.2095 -3.0000 0.9748
-3.3331 -4.5236 -2.9997 0.9748
-2.9169 -4.8018 -2.9993 0.9748
-2.4776 -5.0418 -2.9990 0.9748
-1.0572 -5.5153 -2.9979 0.9749
-0.0625 -5.6140 -2.9972 0.9749
0.9255 -5.4870 -2.9706 0.9751
1.4069 -5.3701 -2.9636 0.9751
1.8777 -5.2191 -2.9610 0.9752
2.7744 -4.8054 -2.9622 0.9752
3.1919 -4.5405 -2.9629 0.9751
3.5843 -4.2395 -2.9637 0.9751
5.2558 -1.8250 -2.9701 0.9751
5.3996 -1.3505 -2.9713 0.9751
5.5007 -0.8649 -2.9726 0.9751
5.5582 -0.3721 -2.9739 0.9751
5.5716 0.1242 -2.9751 0.9750
5.4659 1.1110 -2.9776 0.9750
4.7639 2.9670 -2.9961 0.9749
4.4814 3.3796 -2.9964 0.9749
3.0215 4.7332 -2.9977 0.9749
2.1350 5.1951 -2.9984 0.9749
1.6643 5.3652 -2.9988 0.9749
1.1803 5.4926 -2.9991 0.9748
-1.3031 5.4680 -3.0008 0.9748
-2.2524 5.1513 -3.0013 0.9748
-3.9096 4.0425 -3.0022 0.9748
-4.5647 3.2855 -3.0024 0.9748
-4.8392 2.8663 -3.0025 0.9748
-5.0752 2.4242 -3.0025 0.9748
-5.2125 -1.4278 -3.0017 0.9756
-4.6490 -2.7536 -3.0010 0.9756
-4.0864 -3.5336 -3.0004 0.9756
-3.3944 -4.2012 -2.9998 0.9756
-3.0067 -4.4862 -2.9994 0.9756
0.1803 -5.3933 -2.9971 0.9756
1.1234 -5.2272 -2.9695 0.9758
1.5812 -5.0972 -2.9640 0.9759
2.0270 -4.9325 -2.9618 0.9759
2.4584 -4.7334 -2.9623 0.9759
2.8706 -4.4967 -2.9630 0.9759
3.6244 -3.9186 -2.9646 0.9759
4.2644 -3.2159 -2.9664 0.9759
4.5353 -2.8246 -2.9675 0.9758
4.9680 -1.9772 -2.9697 0.9758
5.2440 -1.0659 -2.9720 0.9758
5.3202 -0.5951 -2.9733 0.9758
5.3543 -0.1193 -2.9745 0.9758
4.7015 2.6450 -2.9961 0.9756
4.1588 3.4374 -2.9966 0.9756
3.8368 3.7943 -2.9969 0.9756
3.4842 4.1212 -2.9973 0.9756
2.6989 4.6747 -2.9979 0.9756
2.2724 4.8969 -2.9983 0.9756
1.3685 5.2234 -2.9989 0.9756
0.4207 5.3845 -2.9996 0.9756
-0.0602 5.4011 -2.9999 0.9756
-0.5407 5.3749 -3.0003 0.9756
-1.0171 5.3060 -3.0006 0.9756
-2.3834 4.8500 -3.0014 0.9756
-2.8058 4.6190 -3.0016 0.9756
-3.2060 4.3512 -3.0018 0.9756
-4.9769 2.1104 -3.0024 0.9756
-5.1450 1.6591 -3.0024 0.9756
-5.3575 0.7205 -3.0023 0.9756
-5.4002 0.2408 -3.0022 0.9756
-5.4000 -0.2408 -3.0021 0.9756
-5.3569 -0.7204 -3.0020 0.9756
-5.2712 -1.1943 -3.0018 0.9756
-5.1436 -1.6586 -3.0016 0.9756
-4.9752 -2.1096 -3.0014 0.9756
-4.7673 -2.5439 -3.0011 0.9756
-4.2399 -3.3482 -3.0006 0.9756
-3.9247 -3.7119 -3.0003 0.9756
-3.5783 -4.0461 -2.9999 0.9756
-3.2037 -4.3480 -2.9996 0.9756
-1.0162 -5.3013 -2.9979 0.9756
-0.5402 -5.3701 -2.9976 0.9756
-0.0601 -5.3962 -2.9973 0.9756
0.4204 -5.3796 -2.9969 0.9756
1.3537 -5.1673 -2.9667 0.9759
1.8051 -5.0175 -2.9615 0.9759
2.6672 -4.6196 -2.9627 0.9759
3.4457 -4.0756 -2.9641 0.9759
3.7959 -3.7538 -2.9650 0.9759
4.1162 -3.4021 -2.9659 0.9759
4.4042 -3.0233 -2.9669 0.9759
4.6575 -2.6202 -2.9680 0.9758
4.8740 -2.1961 -2.9691 0.9758
5.1902 -1.2982 -2.9714 0.9758
5.3553 0.1194 -2.9751 0.9758
5.3256 0.5958 -2.9763 0.9758
5.2563 1.0681 -2.9792 0.9758
4.8145 2.4329 -2.9960 0.9756
4.3076 3.2486 -2.9965 0.9756
3.6641 3.9617 -2.9971 0.9756
2.9043 4.5495 -2.9978 0.9756
2.4881 4.7905 -2.9981 0.9756
2.0521 4.9935 -2.9984 0.9756
1.1345 5.2795 -2.9991 0.9756
0.6601 5.3601 -2.9995 0.9756
-0.3007 5.3934 -3.0001 0.9756
-2.1649 4.9512 -3.0012 0.9756
-3.0089 4.4896 -3.0017 0.9756
-3.7577 3.8854 -3.0020 0.9756
-4.6511 2.7549 -3.0023 0.9756
-5.0660 1.8866 -3.0024 0.9756
-5.3201 0.9585 -3.0023 0.9756
-5.3842 0.4812 -3.0023 0.9756
-5.1788 -0.4628 -3.0019 0.9763
-5.1168 -0.9218 -3.0017 0.9763
-4.8716 -1.8142 -3.0014 0.9763
-4.6905 -2.2404 -3.0011 0.9763
-4.4721 -2.6488 -3.0009 0.9763
-3.9309 -3.3991 -3.0003 0.9763
-3.6124 -3.7352 -3.0000 0.9763
-3.2653 -4.0414 -2.9997 0.9763
-2.4964 -4.5554 -2.9991 0.9763
-1.6488 -4.9247 -2.9984 0.9763
-1.2038 -5.0514 -2.9981 0.9763
-0.7494 -5.1379 -2.9978 0.9763
0.1734 -5.1883 -2.9972 0.9763
0.6345 -5.1517 -2.9969 0.9763
2.3653 -4.5541 -2.9628 0.9766
3.1367 -4.0644 -2.9641 0.9766
4.1027 -3.0940 -2.9667 0.9765
4.3632 -2.7174 -2.9677 0.9765
4.5894 -2.3191 -2.9688 0.9765
4.9315 -1.4697 -2.9710 0.9765
5.0447 -1.0254 -2.9721 0.9765
5.1180 -0.5725 -2.9733 0.9765
5.1506 -0.1148 -2.9745 0.9765
5.1424 0.3443 -2.9756 0.9765
5.0292 1.2579 -2.9930 0.9763
4.9016 1.7021 -2.9957 0.9763
4.5229 2.5445 -2.9962 0.9763
4.0008 3.3068 -2.9967 0.9763
3.6909 3.6501 -2.9970 0.9763
3.3518 3.9645 -2.9973 0.9763
