ply
format ascii 1.0
element vertex 1587
property float32 x
property float32 y
property float32 z
property float32 I
end_header
0.8122 -2.6183 -0.4365 0.9890
1.5302 -1.9828 -0.3988 0.9899
2.4224 -1.8268 -0.4831 0.9878
2.8306 6.0998 -1.0708 0.9731
0.5632 -3.3389 -0.5392 0.9864
1.0660 -2.2972 -0.4033 0.9898
1.2437 -2.1541 -0.3961 0.9900
1.4287 -2.0324 -0.3956 0.9900
1.6338 -1.9325 -0.4030 0.9898
1.8823 -1.8614 -0.4215 0.9893
2.2037 -1.8214 -0.4552 0.9885
0.6435 -2.9944 -0.5401 0.9876
0.8141 -2.6245 -0.4845 0.9889
1.1562 -2.2262 -0.4423 0.9899
1.3341 -2.0899 -0.4372 0.9900
2.4309 -1.8333 -0.5369 0.9877
2.8306 6.0998 -1.1857 0.9731
0.5666 -3.3591 -0.6007 0.9863
1.0680 -2.3015 -0.4474 0.9897
1.2457 -2.1576 -0.4393 0.9899
1.6367 -1.9359 -0.4470 0.9898
1.8861 -1.8652 -0.4677 0.9893
2.2092 -1.8260 -0.5054 0.9884
2.7782 -1.9071 -0.5942 0.9864
0.6457 -3.0047 -0.5947 0.9876
1.3364 -2.0935 -0.4806 0.9899
1.5356 -1.9897 -0.4864 0.9898
1.7593 -1.9021 -0.5014 0.9895
2.0337 -1.8394 -0.5307 0.9889
10.4179 10.3025 -2.8354 0.9421
8.4383 12.0036 -2.8394 0.9420
4.9740 13.8254 -2.8433 0.9419
2.4465 14.5037 -2.8464 0.9418
-0.1640 14.7246 -2.8496 0.9418
1.0700 -2.3059 -0.4919 0.9897
1.6397 -1.9394 -0.4915 0.9897
2.2148 -1.8306 -0.5561 0.9884
9.9501 10.7579 -2.8358 0.9420
8.9560 11.6046 -2.8367 0.9420
4.3543 14.0369 -2.8441 0.9419
3.0893 14.3764 -2.8456 0.9418
1.7985 14.6024 -2.8472 0.9418
0.4919 14.7130 -2.8488 0.9418
-14.0624 -2.5335 -3.0124 0.9433
-10.6193 -9.1829 -2.9597 0.9442
-9.7643 -10.0962 -2.9611 0.9442
-8.8280 -10.9265 -2.9614 0.9442
-2.0312 -13.9268 -2.9671 0.9441
1.7232 -13.9910 -2.9719 0.9440
0.6479 -3.0151 -0.6501 0.9875
0.8180 -2.6370 -0.5821 0.9888
1.1603 -2.2340 -0.5307 0.9898
1.3388 -2.0972 -0.5245 0.9899
1.5383 -1.9933 -0.5308 0.9898
2.0387 -1.8439 -0.5795 0.9888
12.0246 -7.4890 -2.9865 0.9437
12.6441 -6.3894 -2.9866 0.9437
13.5719 -4.0449 -2.9856 0.9438
14.1262 0.9456 -2.9847 0.9438
13.7358 3.4355 -2.9850 0.9438
12.9118 5.8178 -2.9856 0.9438
12.3447 6.9450 -2.9861 0.9437
10.9224 9.0276 -2.9874 0.9437
10.0628 9.9513 -2.9836 0.9438
8.6884 10.2766 -2.8370 0.9465
7.7416 11.0126 -2.8379 0.9465
4.5670 12.6942 -2.8441 0.9463
1.0526 13.4700 -2.8484 0.9463
-0.1506 13.5174 -2.8499 0.9462
-1.3538 13.4576 -2.8514 0.9462
-2.5476 13.2909 -2.8530 0.9462
-3.7194 13.0077 -2.8522 0.9462
-4.8589 12.6161 -2.8502 0.9462
-6.2841 12.7878 -3.0039 0.9434
-7.4001 12.1823 -3.0050 0.9434
-9.4494 10.6846 -3.0071 0.9434
-12.5979 6.7225 -3.0104 0.9433
-13.1489 5.5756 -3.0110 0.9433
-14.2751 -0.6365 -3.0125 0.9433
-13.9352 -3.1573 -3.0123 0.9433
-13.5977 -4.3847 -3.0120 0.9433
-13.1165 -5.5619 -3.0036 0.9434
-12.3897 -6.6113 -2.9606 0.9442
-10.2020 -9.6490 -2.9604 0.9442
-7.2950 -12.0092 -2.9623 0.9442
-5.0531 -13.1201 -2.9640 0.9441
-2.6489 -13.8193 -2.9664 0.9441
-1.4091 -14.0068 -2.9678 0.9441
-0.1569 -14.0839 -2.9694 0.9440
1.0979 -14.0498 -2.9710 0.9440
0.5736 -3.4007 -0.7271 0.9860
0.7313 -2.7913 -0.6083 0.9883
0.9019 -2.5068 -0.5616 0.9892
1.2500 -2.1651 -0.5271 0.9898
1.4361 -2.0428 -0.5264 0.9898
1.6426 -1.9429 -0.5364 0.9897
2.2205 -1.8353 -0.6073 0.9883
2.8160 -1.9331 -0.7201 0.9861
12.3483 -6.9470 -2.9870 0.9437
12.9149 -5.8192 -2.9863 0.9437
13.3792 -4.6458 -2.9858 0.9437
13.7377 -3.4360 -2.9854 0.9438
13.9875 -2.1994 -2.9851 0.9438
14.1267 -0.9457 -2.9849 0.9438
14.0701 1.5740 -2.9848 0.9438
13.8747 2.8201 -2.9849 0.9438
13.5696 4.0442 -2.9851 0.9438
13.1573 5.2364 -2.9854 0.9438
12.0242 7.4887 -2.9864 0.9437
11.3124 8.5310 -2.9870 0.9437
8.2232 10.6551 -2.8375 0.9465
7.2515 11.3593 -2.8411 0.9464
6.2141 11.9642 -2.8422 0.9464
5.1268 12.4753 -2.8435 0.9464
3.9979 12.8881 -2.8448 0.9463
2.8364 13.1993 -2.8462 0.9463
1.6512 13.4062 -2.8477 0.9463
0.4516 13.5071 -2.8491 0.9463
-0.7528 13.5009 -2.8507 0.9462
-1.9525 13.3876 -2.8522 0.9462
-3.1373 13.1649 -2.8531 0.9462
-5.7071 13.0526 -3.0033 0.9434
-9.9176 10.2547 -3.0075 0.9433
-10.7942 9.3341 -3.0085 0.9433
-11.5853 8.3387 -3.0093 0.9433
-12.8863 6.1553 -3.0107 0.9433
-13.7781 3.7742 -3.0117 0.9433
-14.0609 2.5332 -3.0121 0.9433
-13.1937 0.0000 -3.0114 0.9473
-13.1414 -1.1743 -3.0114 0.9473
-12.9844 -2.3393 -3.0113 0.9473
-12.3620 -4.6036 -3.0108 0.9473
-9.0198 -9.3264 -2.9613 0.9482
-8.1574 -10.0961 -2.9625 0.9481
-5.2044 -11.9028 -2.9651 0.9481
0.8200 -2.6433 -0.6317 0.9887
0.9908 -2.4110 -0.5950 0.9894
1.1624 -2.2380 -0.5756 0.9897
2.4573 -1.8532 -0.7025 0.9875
11.1055 -6.9166 -2.9862 0.9477
12.1593 -4.8393 -2.9870 0.9477
13.0786 -0.2915 -2.9858 0.9477
13.0524 0.8737 -2.9858 0.9477
12.9231 2.0321 -2.9858 0.9477
10.7915 7.4079 -2.9876 0.9477
10.0914 8.3408 -2.9882 0.9477
8.0271 9.4945 -2.8377 0.9503
7.1522 10.1741 -2.8386 0.9503
6.2271 10.7857 -2.8426 0.9502
2.8306 6.0997 -1.5348 0.9728
0.9724 12.4432 -2.8487 0.9501
-1.2505 12.4307 -2.8516 0.9500
-4.4874 11.6515 -2.8498 0.9501
-6.8341 11.2505 -3.0045 0.9474
-8.7261 9.8668 -3.0064 0.9474
-9.5725 9.0536 -3.0073 0.9474
-10.3431 8.1679 -3.0081 0.9474
-11.0317 7.2166 -3.0088 0.9474
-11.6327 6.2074 -3.0095 0.9473
-12.1413 5.1484 -3.0100 0.9473
-13.0750 1.7584 -3.0111 0.9473
-13.1803 0.5877 -3.0113 0.9473
-13.1807 -0.5877 -3.0114 0.9473
-13.0759 -1.7585 -3.0114 0.9473
-12.8669 -2.9153 -3.0112 0.9473
-12.5554 -4.0486 -3.0110 0.9473
-7.7014 -10.4524 -2.9633 0.9481
-6.7418 -11.0986 -2.9639 0.9481
-3.5733 -12.4966 -2.9666 0.9481
-2.4478 -12.7700 -2.9677 0.9481
-1.3021 -12.9429 -2.9690 0.9480
-0.1450 -13.0136 -2.9705 0.9480
0.5851 -3.4686 -0.8029 0.9857
0.9037 -2.5119 -0.6093 0.9891
1.0741 -2.3147 -0.5824 0.9896
1.2523 -2.1690 -0.5716 0.9898
1.4386 -2.0464 -0.5710 0.9898
1.8975 -1.8765 -0.6091 0.9891
2.8758 -1.9741 -0.7962 0.9858
11.9327 -5.3766 -2.9873 0.9477
12.9241 -2.0322 -2.9861 0.9477
13.0784 0.2914 -2.9858 0.9477
12.5380 3.7367 -2.9861 0.9477
12.1569 4.8383 -2.9864 0.9477
11.6796 5.9020 -2.9868 0.9477
10.4519 7.8821 -2.9879 0.9477
3.6936 11.9069 -2.8454 0.9501
2.6203 12.1939 -2.8467 0.9501
-0.6953 12.4710 -2.8508 0.9500
-2.8968 12.1558 -2.8522 0.9500
-5.2708 12.0547 -3.0029 0.9475
-6.3251 11.5418 -3.0040 0.9474
-8.2767 10.2442 -3.0060 0.9474
-11.8989 5.6836 -3.0098 0.9473
-12.3596 4.6028 -3.0103 0.9473
-12.7220 3.4849 -3.0107 0.9473
-13.1407 1.1743 -3.0112 0.9473
-12.2475 0.0000 -3.0104 0.9508
-12.1990 -1.0901 -3.0105 0.9508
-12.0533 -2.1715 -3.0104 0.9508
-10.9290 -5.2203 -2.9771 0.9513
-8.3793 -8.6641 -2.9627 0.9516
-7.5754 -9.3762 -2.9629 0.9516
-5.7970 -10.5782 -2.9650 0.9515
-4.8347 -11.0572 -2.9663 0.9515
-3.8326 -11.4475 -2.9673 0.9515
-1.7435 -11.9544 -2.9695 0.9515
1.4783 -12.0018 -2.9723 0.9514
0.6548 -3.0471 -0.7661 0.9872
1.5439 -2.0004 -0.6211 0.9896
1.7698 -1.9135 -0.6407 0.9893
2.0488 -1.8530 -0.6790 0.9887
10.3113 -6.4220 -2.9859 0.9512
10.8483 -5.4819 -2.9876 0.9512
11.2940 -4.4949 -2.9878 0.9512
11.6476 -3.4713 -2.9874 0.9512
10.0233 6.8806 -2.9884 0.9512
8.6481 8.5523 -2.9896 0.9511
7.4553 8.8182 -2.8383 0.9535
2.8305 6.0996 -1.6529 0.9727
3.9188 10.8925 -2.8454 0.9534
2.9350 11.2026 -2.8465 0.9534
1.9271 11.4243 -2.8478 0.9534
0.9030 11.5557 -2.8490 0.9534
-1.1612 11.5433 -2.8517 0.9533
-2.1844 11.3960 -2.8521 0.9533
-3.1882 11.1499 -2.8505 0.9534
-6.3450 10.4454 -3.0041 0.9509
-8.8869 8.4052 -3.0067 0.9509
-11.6534 3.7577 -3.0096 0.9508
-11.9430 2.7059 -3.0100 0.9508
-12.2355 -0.5456 -3.0105 0.9508
-12.1382 -1.6324 -3.0104 0.9508
-11.9443 -2.7062 -3.0103 0.9508
-11.6552 -3.7583 -3.0101 0.9508
-10.0883 -6.5995 -2.9632 0.9516
-9.4598 -7.4703 -2.9628 0.9516
-7.1506 -9.7049 -2.9631 0.9516
-6.2608 -10.3067 -2.9642 0.9515
-3.3195 -11.6088 -2.9678 0.9515
-1.2095 -12.0227 -2.9701 0.9514
-0.1346 -12.0872 -2.9712 0.9514
0.9420 -12.0544 -2.9720 0.9514
0.7350 -2.8054 -0.7129 0.9881
0.9055 -2.5170 -0.6575 0.9890
2.2320 -1.8448 -0.7118 0.9881
2.9545 -2.0281 -0.8808 0.9853
11.0834 -4.9939 -2.9881 0.9512
11.4821 -3.9871 -2.9876 0.9512
11.7900 -2.9489 -2.9873 0.9512
12.0046 -1.8876 -2.9870 0.9512
12.1480 0.2707 -2.9867 0.9512
11.6460 3.4709 -2.9870 0.9512
10.8484 5.4819 -2.9876 0.9512
9.7078 7.3210 -2.9886 0.9512
8.1055 8.7636 -2.9342 0.9520
7.0560 9.1427 -2.8387 0.9535
6.2160 9.7371 -2.8395 0.9535
5.3329 10.2676 -2.8439 0.9535
1.4166 11.5014 -2.8484 0.9534
0.3874 11.5870 -2.8497 0.9534
-1.6747 11.4827 -2.8523 0.9533
-2.6891 11.2842 -2.8513 0.9533
-5.8725 10.7160 -3.0036 0.9509
-7.6841 9.5108 -3.0054 0.9509
-9.2537 8.0020 -3.0070 0.9509
-10.5306 6.2373 -3.0084 0.9508
-11.0460 5.2762 -3.0090 0.9508
-11.4736 4.2729 -3.0094 0.9508
-12.0522 2.1713 -3.0101 0.9508
-12.1985 1.0901 -3.0103 0.9508
-11.4218 0.0000 -3.0096 0.9539
-11.3765 -1.0166 -3.0097 0.9539
-10.7020 -3.9855 -3.0092 0.9539
-10.2184 -4.8809 -2.9839 0.9542
-9.1304 -6.5717 -2.9643 0.9545
-7.8195 -8.0854 -2.9639 0.9545
-6.2632 -9.3453 -2.9644 0.9545
-4.5085 -10.3113 -2.9654 0.9545
-1.6262 -11.1487 -2.9688 0.9545
-0.6274 -11.2523 -2.9696 0.9545
0.3767 -11.2659 -2.9702 0.9544
1.3783 -11.1909 -2.9711 0.9544
0.6628 -3.0845 -0.8313 0.9870
0.9948 -2.4206 -0.6896 0.9892
1.5467 -2.0041 -0.6671 0.9896
10.1183 -5.1130 -2.9873 0.9542
10.5378 -4.1940 -2.9885 0.9542
11.3124 0.7573 -2.9875 0.9542
11.2003 1.7612 -2.9875 0.9542
10.9996 2.7512 -2.9877 0.9542
10.7118 3.7196 -2.9879 0.9542
9.3522 6.4199 -2.9890 0.9542
6.1975 8.8160 -2.8396 0.9564
5.3896 9.3351 -2.8403 0.9564
2.8305 6.0996 -1.7719 0.9726
3.6563 10.1627 -2.8459 0.9563
2.7383 10.4517 -2.8470 0.9563
0.8424 10.7804 -2.8493 0.9563
-0.1205 10.8172 -2.8505 0.9562
-1.0833 10.7682 -2.8517 0.9562
-4.0944 10.6311 -3.0019 0.9540
-5.0260 10.2276 -3.0028 0.9540
-5.9181 9.7426 -3.0037 0.9539
-6.7637 9.1798 -3.0045 0.9539
-8.2884 7.8392 -3.0061 0.9539
-8.9553 7.0720 -3.0068 0.9539
-10.0713 5.3743 -3.0080 0.9539
-10.5114 4.4572 -3.0085 0.9539
-10.8679 3.5045 -3.0089 0.9539
-11.4103 0.5088 -3.0096 0.9539
-11.1390 -2.5238 -3.0095 0.9539
-10.5133 -4.4580 -3.0090 0.9539
-9.4147 -6.1588 -2.9644 0.9545
-8.1721 -7.7291 -2.9639 0.9545
-6.6728 -9.0564 -2.9642 0.9545
-5.8411 -9.6157 -2.9646 0.9545
-4.9629 -10.0992 -2.9651 0.9545
-4.0455 -10.5038 -2.9659 0.9545
-3.0958 -10.8268 -2.9672 0.9545
-0.1256 -11.2704 -2.9699 0.9544
0.7391 -2.8211 -0.7685 0.9880
1.0783 -2.3238 -0.6750 0.9895
1.2568 -2.1768 -0.6623 0.9897
1.6516 -1.9535 -0.6741 0.9895
2.2450 -1.8555 -0.7674 0.9880
10.3388 -4.6584 -2.9880 0.9542
10.7135 -3.7201 -2.9883 0.9542
11.0008 -2.7515 -2.9880 0.9542
11.2011 -1.7613 -2.9877 0.9542
11.3127 -0.7573 -2.9876 0.9542
11.3349 0.2526 -2.9875 0.9542
11.1109 2.2584 -2.9876 0.9542
10.8665 3.2385 -2.9878 0.9542
10.1221 5.1150 -2.9884 0.9542
9.6281 5.9964 -2.9888 0.9542
9.0577 6.8307 -2.9893 0.9542
8.4154 7.6112 -2.9899 0.9541
7.7062 8.3318 -2.9905 0.9541
4.9755 9.5796 -2.8444 0.9563
3.2005 10.3174 -2.8464 0.9563
2.2704 10.5654 -2.8475 0.9563
1.3215 10.7299 -2.8487 0.9563
0.3614 10.8095 -2.8499 0.9562
-0.6024 10.8034 -2.8511 0.9562
-1.5621 10.7105 -2.8521 0.9562
-5.4774 9.9951 -3.0032 0.9539
-6.3472 9.4706 -3.0041 0.9539
-8.6304 7.4630 -3.0065 0.9539
-9.2625 6.6668 -3.0071 0.9539
-9.8210 5.8170 -3.0077 0.9539
-10.3016 4.9207 -3.0082 0.9539
-10.7003 3.9848 -3.0087 0.9539
-11.0138 3.0170 -3.0091 0.9539
-10.6944 0.0000 -3.0089 0.9565
-10.5248 -1.8961 -3.0089 0.9565
-10.3137 -2.8252 -3.0087 0.9565
-10.0206 -3.7317 -3.0085 0.9565
-9.5972 -4.5842 -2.9925 0.9568
-8.5542 -6.1570 -2.9654 0.9571
-5.8676 -8.7551 -2.9654 0.9572
-4.2237 -9.6599 -2.9663 0.9571
-3.3479 -9.9997 -2.9670 0.9571
-2.4452 -10.2606 -2.9677 0.9571
-0.5876 -10.5379 -2.9695 0.9571
0.6712 -3.1233 -0.8988 0.9868
1.1687 -2.2502 -0.7134 0.9895
1.3484 -2.1122 -0.7051 0.9896
1.5495 -2.0078 -0.7136 0.9895
1.7770 -1.9213 -0.7363 0.9892
2.5404 -1.9158 -0.8952 0.9869
9.0068 -5.6096 -2.9854 0.9569
9.4752 -4.7880 -2.9869 0.9568
10.5554 -1.1808 -2.9883 0.9568
10.6182 -0.2366 -2.9882 0.9568
10.5969 0.7094 -2.9882 0.9568
10.0342 3.4843 -2.9886 0.9568
8.7604 6.0137 -2.9896 0.9568
7.5581 7.4743 -2.9907 0.9568
6.6719 7.8916 -2.9075 0.9580
5.0482 8.7437 -2.8407 0.9589
2.8305 6.0996 -1.8919 0.9724
3.4249 9.5195 -2.8464 0.9588
-0.1129 10.1312 -2.8507 0.9588
-3.8343 9.9556 -3.0016 0.9566
-4.7066 9.5776 -3.0025 0.9566
-7.0754 8.0004 -3.0049 0.9566
-8.3855 6.6220 -3.0063 0.9566
-10.6838 -0.4764 -3.0090 0.9565
-10.5990 -1.4254 -3.0089 0.9565
-10.1773 -3.2818 -3.0086 0.9565
-9.3194 -4.9730 -2.9720 0.9571
-8.2711 -6.5316 -2.9652 0.9572
-6.2514 -8.4845 -2.9652 0.9572
-2.8995 -10.1401 -2.9673 0.9571
-1.9860 -10.3608 -2.9681 0.9571
0.8227 -10.5278 -2.9711 0.9571
1.7571 -10.4167 -2.9722 0.9571
0.7455 -2.8457 -0.8277 0.9879
0.9107 -2.5314 -0.7569 0.9889
1.0805 -2.3284 -0.7222 0.9894
1.2591 -2.1807 -0.7085 0.9896
1.6547 -1.9572 -0.7211 0.9894
1.9126 -1.8914 -0.7568 0.9889
10.5973 -0.7094 -2.9883 0.9568
10.4082 2.1155 -2.9883 0.9568
9.0189 5.6170 -2.9894 0.9568
8.4845 6.3984 -2.9899 0.9568
7.8828 7.1295 -2.9904 0.9568
7.2184 7.8044 -2.9910 0.9568
5.4321 8.5091 -2.8403 0.9589
3.8449 9.3559 -2.8459 0.9588
2.9979 9.6641 -2.8469 0.9588
0.3385 10.1242 -2.8501 0.9588
-0.5642 10.1182 -2.8512 0.9588
-2.3481 9.8533 -2.8499 0.9588
-3.2144 9.6010 -2.8487 0.9588
-4.2746 9.7764 -3.0021 0.9566
-5.1293 9.3598 -3.0029 0.9566
-5.9436 8.8686 -3.0038 0.9566
-9.6458 4.6074 -3.0076 0.9566
-10.0190 3.7311 -3.0080 0.9565
-10.3125 2.8249 -3.0084 0.9565
-10.5239 1.8960 -3.0087 0.9565
-10.6516 0.9518 -3.0088 0.9565
-10.0484 0.0000 -3.0083 0.9589
-10.0086 -0.8944 -3.0083 0.9589
-8.0420 -5.7883 -2.9664 0.9595
-6.8875 -7.1216 -2.9661 0.9595
-6.2263 -7.7064 -2.9661 0.9595
-5.5160 -8.2304 -2.9662 0.9595
-3.9705 -9.0808 -2.9671 0.9595
-0.5523 -9.9056 -2.9701 0.9594
0.3316 -9.9187 -2.9711 0.9594
0.6798 -3.1634 -0.9687 0.9866
0.8373 -2.6991 -0.8460 0.9883
1.1732 -2.2588 -0.7620 0.9894
1.3524 -2.1185 -0.7525 0.9896
1.5555 -2.0156 -0.7622 0.9894
1.7889 -1.9341 -0.7887 0.9891
2.5750 -1.9419 -0.9655 0.9866
8.4641 -5.2715 -2.9852 0.9592
8.9039 -4.4993 -2.9867 0.9592
9.2733 -3.6907 -2.9880 0.9592
9.7844 -1.9887 -2.9891 0.9592
9.9219 -1.1099 -2.9890 0.9592
9.9810 -0.2224 -2.9888 0.9592
9.8623 1.5508 -2.9888 0.9592
9.4321 3.2752 -2.9892 0.9592
8.7037 4.8966 -2.9898 0.9592
8.2345 5.6526 -2.9902 0.9592
7.1042 7.0254 -2.9912 0.9591
6.4520 7.6314 -2.9918 0.9591
2.8305 6.0996 -2.0131 0.9723
-1.7921 9.3495 -2.8500 0.9610
-2.6159 9.1486 -2.8487 0.9610
-5.9516 8.0777 -3.0038 0.9590
-8.8610 4.7284 -3.0069 0.9589
-9.2479 3.9215 -3.0073 0.9589
-9.7988 2.2201 -3.0079 0.9589
-9.9582 1.3393 -3.0081 0.9589
-10.0383 0.4477 -3.0083 0.9589
-9.7997 -2.2203 -3.0082 0.9589
-9.5626 -3.0835 -3.0080 0.9589
-7.1980 -6.8078 -2.9661 0.9595
-5.8770 -7.9763 -2.9661 0.9595
-4.3707 -8.8941 -2.9669 0.9595
-2.7256 -9.5321 -2.9681 0.9594
-1.8669 -9.7393 -2.9689 0.9594
-0.1105 -9.9220 -2.9706 0.9594
1.6516 -9.7912 -2.9727 0.9594
0.7533 -2.8754 -0.8899 0.9877
0.9171 -2.5489 -0.8110 0.9888
1.0859 -2.3400 -0.7723 0.9893
1.4512 -2.0643 -0.7554 0.9895
9.0976 -4.0992 -2.9874 0.9592
9.4306 -3.2747 -2.9887 0.9592
9.6865 -2.4228 -2.9893 0.9592
9.8629 -1.5509 -2.9890 0.9592
9.7836 1.9886 -2.9889 0.9592
8.9126 4.5038 -2.9896 0.9592
8.4775 5.2798 -2.9900 0.9592
7.4094 6.7014 -2.9909 0.9591
6.7848 7.3356 -2.9915 0.9591
4.3746 8.4225 -2.8414 0.9611
3.6140 8.7943 -2.8465 0.9611
1.9988 9.3014 -2.8482 0.9611
1.1634 9.4457 -2.8492 0.9610
0.3182 9.5152 -2.8503 0.9610
-0.5302 9.5093 -2.8513 0.9610
-4.0170 9.1871 -3.0019 0.9590
-5.5852 8.3337 -3.0035 0.9590
-6.3063 7.8054 -3.0042 0.9590
-8.6408 5.1180 -3.0066 0.9589
-9.0634 4.3293 -3.0071 0.9589
-9.6898 2.6543 -3.0078 0.9589
-9.8883 1.7815 -3.0080 0.9589
-9.4707 0.0000 -3.0077 0.9610
-9.4331 -0.8429 -3.0078 0.9610
-9.1337 -2.5020 -3.0076 0.9610
-8.0440 -4.7645 -2.9692 0.9615
-7.0669 -6.1110 -2.9671 0.9615
-6.4947 -6.7155 -2.9670 0.9616
-5.2014 -7.7611 -2.9671 0.9615
-3.7438 -8.5624 -2.9679 0.9615
-2.1673 -9.0944 -2.9691 0.9615
0.3127 -9.3517 -2.9716 0.9615
0.6928 -3.2238 -1.0472 0.9863
0.8445 -2.7223 -0.9052 0.9881
1.0103 -2.4584 -0.8441 0.9889
1.3607 -2.1315 -0.8031 0.9894
2.1060 -1.9048 -0.9018 0.9882
2.6109 -1.9690 -1.0385 0.9864
9.3549 -1.0465 -2.9895 0.9613
9.3918 0.6287 -2.9894 0.9613
9.2987 1.4621 -2.9894 0.9613
9.1320 2.2841 -2.9895 0.9613
8.5836 3.8676 -2.9899 0.9613
8.2062 4.6167 -2.9903 0.9613
7.7637 5.3295 -2.9907 0.9612
7.2596 6.0002 -2.9911 0.9612
5.1440 7.3175 -2.8407 0.9632
2.8305 6.0995 -2.1355 0.9722
1.4921 8.8459 -2.8490 0.9631
0.6991 8.9465 -2.8499 0.9630
-0.8984 8.9310 -2.8507 0.9630
-1.6891 8.8119 -2.8495 0.9630
-6.8740 6.5014 -3.0048 0.9611
-7.9207 5.1815 -3.0059 0.9611
-9.3857 1.2622 -3.0076 0.9610
-9.4613 -0.4219 -3.0078 0.9610
-9.3862 -1.2624 -3.0077 0.9610
-9.2363 -2.0927 -3.0076 0.9610
-9.0128 -2.9063 -3.0075 0.9610
-8.7177 -3.6966 -3.0072 0.9610
-8.2684 -4.4121 -2.9764 0.9614
-4.8507 -7.9854 -2.9673 0.9615
-4.1212 -8.3865 -2.9676 0.9615
-3.3590 -8.7216 -2.9682 0.9615
-2.5700 -8.9877 -2.9688 0.9615
-0.1042 -9.3549 -2.9712 0.9615
0.7291 -9.3300 -2.9721 0.9615
0.9235 -2.5670 -0.8664 0.9886
1.0932 -2.3557 -0.8248 0.9892
1.4601 -2.0771 -0.8063 0.9894
1.6728 -1.9786 -0.8229 0.9892
1.9400 -1.9185 -0.8665 0.9886
2.3073 -1.9070 -0.9507 0.9875
8.1937 -4.6097 -2.9857 0.9613
9.2992 -1.4622 -2.9896 0.9613
9.4105 0.2097 -2.9894 0.9613
9.0214 2.6887 -2.9896 0.9613
8.7470 3.4812 -2.9898 0.9613
6.9857 6.3182 -2.9914 0.9612
4.8135 7.5402 -2.8410 0.9632
3.4019 8.2780 -2.8423 0.9631
0.2999 8.9703 -2.8504 0.9630
-2.9999 8.9603 -3.0009 0.9611
-3.7865 8.6600 -3.0017 0.9611
-4.5434 8.2907 -3.0024 0.9611
-5.9442 7.3572 -3.0039 0.9611
-7.6813 5.5287 -3.0057 0.9611
-8.5425 4.0804 -3.0066 0.9610
-8.8729 3.3043 -3.0070 0.9610
-9.3198 1.6791 -3.0075 0.9610
-9.4328 0.8429 -3.0077 0.9610
-8.9506 0.0000 -3.0072 0.9629
-8.9151 -0.7967 -3.0073 0.9629
-8.8086 -1.5870 -3.0072 0.9629
-8.6321 -2.3646 -3.0071 0.9629
-7.6109 -4.5079 -2.9719 0.9634
-7.1700 -5.1607 -2.9681 0.9634
-6.1408 -6.3496 -2.9678 0.9634
-4.2457 -7.7474 -2.9682 0.9634
-3.5396 -8.0955 -2.9686 0.9634
0.7291 -3.3929 -1.1660 0.9855
1.0174 -2.4757 -0.8993 0.9888
1.3692 -2.1447 -0.8549 0.9893
1.5751 -2.0410 -0.8662 0.9892
2.1251 -1.9220 -0.9627 0.9880
7.9326 -4.0085 -2.9862 0.9632
8.2614 -3.2879 -2.9874 0.9632
8.7202 -1.7725 -2.9897 0.9631
8.8441 -0.9894 -2.9900 0.9631
8.8968 -0.1983 -2.9899 0.9631
8.7910 1.3823 -2.9899 0.9631
8.1149 3.6564 -2.9904 0.9631
7.7580 4.3646 -2.9907 0.9631
6.8630 5.6724 -2.9915 0.9631
5.7505 6.8017 -2.9925 0.9631
2.8695 7.9757 -2.8479 0.9649
1.4106 8.3624 -2.8493 0.9648
0.6609 8.4572 -2.8501 0.9648
-0.0945 8.4849 -2.8510 0.9648
-1.5963 8.3279 -2.8490 0.9649
-4.6397 7.6380 -3.0026 0.9630
-5.3023 7.1963 -3.0032 0.9630
-8.2379 3.4932 -3.0063 0.9629
-8.5170 2.7464 -3.0066 0.9629
-8.7283 1.9776 -3.0069 0.9629
-8.8703 1.1929 -3.0071 0.9629
-8.9416 0.3987 -3.0072 0.9629
-8.8707 -1.1930 -3.0072 0.9629
-8.5179 -2.7467 -3.0070 0.9629
-7.8282 -4.1772 -2.9812 0.9633
-6.9328 -5.4747 -2.9680 0.9634
-6.4176 -6.0697 -2.9679 0.9634
-3.8965 -7.9293 -2.9684 0.9634
-3.1758 -8.2458 -2.9688 0.9634
-1.6642 -8.6819 -2.9701 0.9634
-0.0985 -8.8441 -2.9716 0.9634
0.6892 -8.8204 -2.9725 0.9634
1.4721 -8.7268 -2.9735 0.9633
0.7718 -2.9459 -1.0232 0.9872
1.1006 -2.3718 -0.8785 0.9890
1.4693 -2.0901 -0.8584 0.9893
1.6835 -1.9913 -0.8761 0.9891
2.3293 -1.9252 -1.0153 0.9873
8.1050 -3.6519 -2.9868 0.9632
8.4013 -2.9172 -2.9880 0.9632
8.7915 -1.3824 -2.9901 0.9631
8.8792 -0.5944 -2.9899 0.9631
8.8438 0.9893 -2.9899 0.9631
8.7208 1.7726 -2.9899 0.9631
8.2693 3.2911 -2.9903 0.9631
7.9443 4.0144 -2.9906 0.9631
7.5563 4.7061 -2.9909 0.9631
5.4423 7.0518 -2.9928 0.9631
4.5504 7.1280 -2.8413 0.9649
3.8987 7.5063 -2.8419 0.9649
3.2159 7.8253 -2.8425 0.9649
2.5116 8.0968 -2.8483 0.9649
-0.4723 8.4711 -2.8506 0.9648
-1.2240 8.3925 -2.8495 0.9648
-1.9653 8.2468 -2.8484 0.9649
-2.8355 8.4693 -3.0008 0.9630
-3.5789 8.1853 -3.0015 0.9630
-6.2160 6.4274 -3.0042 0.9630
-7.2598 5.2253 -3.0053 0.9630
-7.6973 4.5591 -3.0057 0.9630
-8.3858 3.1229 -3.0065 0.9629
-8.8081 1.5869 -3.0070 0.9629
-8.4797 0.0000 -3.0068 0.9647
-8.1780 -2.2402 -3.0066 0.9647
-7.2166 -4.2744 -2.9741 0.9650
-5.8201 -6.0179 -2.9686 0.9651
-4.6611 -6.9548 -2.9687 0.9651
-3.3548 -7.6726 -2.9693 0.9651
-1.2092 -8.2909 -2.9709 0.9651
-0.4666 -8.3677 -2.9717 0.9651
1.7623 -8.2009 -2.9743 0.9650
0.8595 -2.7708 -1.0287 0.9878
1.3778 -2.1583 -0.9080 0.9892
2.1447 -1.9398 -1.0254 0.9878
6.7180 -5.0663 -2.9836 0.9649
7.5159 -3.7979 -2.9860 0.9649
8.0765 -2.4070 -2.9883 0.9649
8.2616 -1.6793 -2.9894 0.9649
8.4313 -0.1879 -2.9903 0.9648
8.3310 1.3100 -2.9904 0.9648
8.1816 2.0463 -2.9905 0.9648
7.3519 4.1361 -2.9911 0.9648
6.9554 4.7746 -2.9915 0.9648
6.5038 5.3755 -2.9919 0.9648
5.4494 6.4455 -2.9928 0.9648
4.7004 6.6864 -2.8981 0.9659
4.0072 6.9407 -2.8418 0.9666
2.7183 7.5555 -2.8472 0.9665
-0.0895 8.0373 -2.8501 0.9665
-1.5123 7.8896 -2.8485 0.9665
-2.2140 7.7428 -2.8555 0.9664
-5.6117 6.3452 -3.0036 0.9647
-6.1553 5.8217 -3.0042 0.9647
-7.0923 4.6396 -3.0051 0.9647
-7.4782 3.9905 -3.0056 0.9647
-7.8046 3.3094 -3.0059 0.9647
-8.0690 2.6019 -3.0062 0.9647
-8.2692 1.8735 -3.0065 0.9647
-8.4712 0.3777 -3.0068 0.9647
-7.8057 -3.3099 -3.0063 0.9647
-7.0070 -4.5838 -2.9690 0.9651
-6.0825 -5.7528 -2.9686 0.9651
-5.5462 -6.2712 -2.9686 0.9651
-4.9662 -6.7401 -2.9686 0.9651
-3.6930 -7.5151 -2.9691 0.9651
-0.8388 -8.3375 -2.9713 0.9651
-0.0934 -8.3813 -2.9721 0.9651
0.6532 -8.3587 -2.9729 0.9650
0.7857 -2.9989 -1.0992 0.9869
1.1083 -2.3884 -0.9336 0.9889
1.4787 -2.1034 -0.9117 0.9891
1.6945 -2.0043 -0.9306 0.9889
1.9687 -1.9469 -0.9818 0.9883
2.3676 -1.9569 -1.0892 0.9870
6.9384 -4.7629 -2.9842 0.9649
7.3378 -4.1282 -2.9854 0.9649
7.6791 -3.4601 -2.9866 0.9649
8.3297 -1.3098 -2.9899 0.9648
8.4312 0.1879 -2.9903 0.9648
8.2645 1.6798 -2.9904 0.9648
7.5285 3.8043 -2.9910 0.9648
6.7363 5.0801 -2.9917 0.9648
5.7306 6.1958 -2.9926 0.9648
5.1573 6.6824 -2.9931 0.9648
4.3120 6.7546 -2.8415 0.9666
3.6945 7.1131 -2.8421 0.9666
1.6882 7.8562 -2.8493 0.9665
-0.4474 8.0245 -2.8498 0.9665
-1.1595 7.9505 -2.8490 0.9665
-1.8619 7.8129 -2.8479 0.9665
-2.6866 8.0246 -3.0007 0.9647
-3.3910 7.7554 -3.0014 0.9647
-5.3229 6.5883 -3.0033 0.9647
-5.8893 6.0896 -3.0039 0.9647
-7.6490 3.6536 -3.0057 0.9647
-7.9447 2.9586 -3.0061 0.9647
-8.1772 2.2400 -3.0063 0.9647
-8.3447 1.5034 -3.0066 0.9647
-8.4458 0.7547 -3.0067 0.9647
-7.7646 -2.1269 -3.0062 0.9662
-7.2635 -3.4695 -3.0058 0.9662
-6.8572 -4.0615 -2.9760 0.9665
-6.0149 -5.2013 -2.9693 0.9666
-5.5280 -5.7159 -2.9693 0.9666
-3.8219 -6.9741 -2.9696 0.9666
-2.5255 -7.5431 -2.9704 0.9666
-1.1484 -7.8743 -2.9715 0.9666
0.2661 -7.9571 -2.9729 0.9666
1.6736 -7.7885 -2.9747 0.9666
1.0321 -2.5114 -1.0139 0.9885
1.2033 -2.3168 -0.9748 0.9889
1.8408 -1.9903 -1.0123 0.9885
6.7847 -4.2255 -2.9846 0.9664
7.6685 -2.2855 -2.9880 0.9664
7.8442 -1.5944 -2.9890 0.9664
7.9576 -0.8902 -2.9900 0.9664
7.9914 0.5349 -2.9907 0.9664
7.9121 1.2441 -2.9908 0.9664
7.5668 2.6275 -2.9910 0.9664
5.6985 5.6354 -2.9926 0.9664
3.8055 6.5913 -2.8420 0.9680
2.5806 7.1729 -2.8465 0.9680
1.9329 7.3779 -2.8480 0.9680
0.5945 7.6073 -2.8493 0.9679
-0.7636 7.5906 -2.8487 0.9680
-1.4358 7.4904 -2.8479 0.9680
-2.8883 7.4994 -3.0009 0.9663
-3.5451 7.2142 -3.0015 0.9663
-5.3283 6.0248 -3.0033 0.9662
-6.3143 4.9864 -3.0044 0.9662
-7.1003 3.7889 -3.0052 0.9662
-7.4102 3.1422 -3.0055 0.9662
-7.9789 1.0730 -3.0062 0.9662
-8.0430 0.3586 -3.0063 0.9662
-8.0431 -0.3586 -3.0064 0.9662
-7.9792 -1.0731 -3.0064 0.9662
-7.8518 -1.7790 -3.0063 0.9662
-5.7772 -5.4640 -2.9693 0.9666
-4.7169 -6.4018 -2.9693 0.9666
-2.8588 -7.4226 -2.9701 0.9666
-2.1871 -7.6488 -2.9706 0.9666
0.6203 -7.9385 -2.9734 0.9666
0.8079 -3.0838 -1.1904 0.9865
0.9464 -2.6306 -1.0439 0.9881
1.2954 -2.2437 -0.9674 0.9890
1.4883 -2.1171 -0.9664 0.9890
1.9836 -1.9617 -1.0417 0.9882
6.5884 -4.5227 -2.9841 0.9665
7.9906 -0.5349 -2.9904 0.9664
8.0073 0.1784 -2.9907 0.9664
7.9596 0.8904 -2.9907 0.9664
7.8489 1.5954 -2.9908 0.9664
7.6761 2.2877 -2.9909 0.9664
6.3974 4.8245 -2.9920 0.9664
5.9434 5.3755 -2.9924 0.9664
5.4422 5.8841 -2.9929 0.9664
4.0950 6.4146 -2.8418 0.9680
3.5101 6.7581 -2.8436 0.9680
2.8967 7.0486 -2.8456 0.9680
1.6027 7.4581 -2.8485 0.9680
0.9327 7.5728 -2.8491 0.9679
-0.4248 7.6179 -2.8490 0.9679
-1.7677 7.4178 -2.8474 0.9680
-2.5511 7.6198 -3.0005 0.9663
-3.2199 7.3641 -3.0012 0.9663
-3.8634 7.0498 -3.0019 0.9663
-5.0542 6.2556 -3.0031 0.9662
-6.0854 5.2623 -3.0041 0.9662
-6.5306 4.7005 -3.0046 0.9662
-7.2625 3.4690 -3.0054 0.9662
-7.5432 2.8091 -3.0057 0.9662
-7.1768 -2.6727 -3.0057 0.9676
-6.9100 -3.3006 -3.0055 0.9676
-6.1422 -4.4209 -2.9702 0.9680
-4.7556 -5.8861 -2.9699 0.9680
-4.2130 -6.2863 -2.9700 0.9680
-2.4033 -7.1782 -2.9709 0.9680
-1.7551 -7.3648 -2.9714 0.9680
-1.0928 -7.4933 -2.9720 0.9680
-0.4217 -7.5625 -2.9727 0.9680
0.2532 -7.5719 -2.9734 0.9680
0.9263 -7.5213 -2.9742 0.9680
1.5926 -7.4112 -2.9751 0.9680
1.0405 -2.5319 -1.0743 0.9883
1.3958 -2.1865 -1.0181 0.9889
1.6064 -2.0814 -1.0319 0.9888
6.0693 -4.5771 -2.9834 0.9679
6.7896 -3.4309 -2.9856 0.9678
7.0705 -2.8140 -2.9867 0.9678
7.2954 -2.1743 -2.9877 0.9678
7.5702 -0.8468 -2.9896 0.9678
7.5288 1.1838 -2.9911 0.9678
6.9496 3.1313 -2.9916 0.9678
6.2855 4.3147 -2.9922 0.9678
5.8772 4.8576 -2.9925 0.9678
5.4223 5.3622 -2.9929 0.9678
4.9242 5.8244 -2.9934 0.9678
3.6210 6.2718 -2.8423 0.9694
2.8304 6.0994 -2.6390 0.9715
2.4547 6.8230 -2.8458 0.9693
1.8385 7.0176 -2.8471 0.9693
0.5654 7.2355 -2.8484 0.9693
-0.0808 7.2572 -2.8484 0.9693
-0.7263 7.2202 -2.8480 0.9693
-3.9711 6.5374 -3.0020 0.9677
-4.5381 6.1591 -3.0026 0.9677
-5.0692 5.7318 -3.0031 0.9677
-6.4063 4.1908 -3.0045 0.9676
-7.2883 2.3502 -3.0055 0.9676
-7.5904 1.0208 -3.0059 0.9676
-7.5908 -1.0209 -3.0060 0.9676
-7.4696 -1.6924 -3.0059 0.9676
-6.7433 -3.5983 -2.9998 0.9677
-5.9390 -4.6900 -2.9700 0.9680
-5.0131 -5.6684 -2.9699 0.9680
-3.9289 -6.4679 -2.9701 0.9680
-2.7204 -7.0635 -2.9707 0.9680
-0.7580 -7.5353 -2.9723 0.9680
-0.0844 -7.5746 -2.9730 0.9680
0.5903 -7.5541 -2.9738 0.9680
1.2607 -7.4736 -2.9746 0.9680
0.8317 -3.1747 -1.2880 0.9860
1.3040 -2.2586 -1.0235 0.9889
1.4982 -2.1312 -1.0224 0.9889
1.7185 -2.0327 -1.0447 0.9886
6.2683 -4.3029 -2.9840 0.9679
7.1901 -2.4967 -2.9872 0.9678
7.3863 -1.8474 -2.9882 0.9678
7.5238 -1.1831 -2.9891 0.9678
7.5740 0.8473 -2.9911 0.9678
7.4687 1.5181 -2.9912 0.9678
7.3042 2.1769 -2.9913 0.9678
6.0874 4.5907 -2.9923 0.9678
5.6554 5.1150 -2.9927 0.9678
3.9887 6.2482 -2.9093 0.9686
1.5244 7.0937 -2.8476 0.9693
0.8871 7.2027 -2.8482 0.9693
0.2425 7.2537 -2.8485 0.9693
-1.6835 7.0645 -2.8503 0.9693
-2.4271 7.2495 -3.0004 0.9677
-3.6756 6.7071 -3.0017 0.9677
-5.3199 5.5008 -3.0034 0.9677
-5.7893 5.0063 -3.0039 0.9676
-6.2129 4.4718 -3.0043 0.9676
-7.3860 2.0232 -3.0056 0.9676
-7.5372 1.3579 -3.0058 0.9676
-7.2991 0.0000 -3.0056 0.9689
-7.2702 -0.6497 -3.0056 0.9689
-7.1834 -1.2942 -3.0056 0.9689
-5.8553 -4.2144 -2.9707 0.9693
-5.0149 -5.1854 -2.9705 0.9693
-4.5335 -5.6112 -2.9705 0.9693
-3.4671 -6.3267 -2.9708 0.9693
-2.2910 -6.8428 -2.9715 0.9693
-1.6731 -7.0207 -2.9719 0.9693
-1.0418 -7.1430 -2.9725 0.9693
-0.4020 -7.2089 -2.9731 0.9692
0.2413 -7.2178 -2.9738 0.9692
0.8830 -7.1695 -2.9746 0.9692
0.9051 -2.9177 -1.2579 0.9869
1.8846 -2.0377 -1.1429 0.9881
5.7846 -4.3623 -2.9834 0.9691
7.2144 -0.8070 -2.9893 0.9691
7.2596 -0.1618 -2.9901 0.9691
6.6244 2.9848 -2.9919 0.9691
6.3330 3.5629 -2.9922 0.9691
5.9913 4.1128 -2.9925 0.9691
4.6937 5.5517 -2.9936 0.9690
3.4614 5.9953 -2.8507 0.9705
2.8304 6.0993 -2.7688 0.9713
2.3391 6.5015 -2.8452 0.9706
1.7518 6.6867 -2.8464 0.9705
1.1501 6.8179 -2.8471 0.9705
0.5387 6.8942 -2.8475 0.9705
-0.0770 6.9149 -2.8476 0.9705
-1.3016 6.7902 -2.8470 0.9705
-2.0029 7.0048 -3.0001 0.9690
-3.2145 6.5413 -3.0013 0.9690
-3.7847 6.2304 -3.0018 0.9690
-4.3250 5.8699 -3.0024 0.9690
-5.2990 5.0118 -3.0034 0.9689
-6.1053 3.9939 -3.0042 0.9689
-6.9457 2.2397 -3.0052 0.9689
-7.2337 0.9729 -3.0055 0.9689
-7.2918 0.3252 -3.0056 0.9689
-7.2919 -0.3251 -3.0056 0.9689
-7.2340 -0.9729 -3.0056 0.9689
-7.1185 -1.6128 -3.0056 0.9689
-6.9464 -2.2399 -3.0054 0.9689
-6.7190 -2.8491 -3.0052 0.9689
-6.4326 -3.4325 -3.0023 0.9690
-5.6616 -4.4709 -2.9706 0.9693
-5.2410 -4.9569 -2.9705 0.9693
-4.7789 -5.4036 -2.9705 0.9693
-4.2791 -5.8076 -2.9705 0.9693
-3.7454 -6.1658 -2.9707 0.9693
-1.9840 -6.9386 -2.9717 0.9693
-0.0804 -7.2205 -2.9735 0.9692
1.2017 -7.1240 -2.9750 0.9692
1.8315 -6.9908 -2.9758 0.9692
0.9785 -2.7197 -1.1902 0.9876
1.1382 -2.4528 -1.1135 0.9884
1.5106 -2.1488 -1.0816 0.9887
1.7396 -2.0576 -1.1095 0.9884
2.7964 -2.3113 -1.4939 0.9844
7.0392 -1.7606 -2.9879 0.9691
7.2605 0.1618 -2.9905 0.9691
7.2197 0.8076 -2.9915 0.9691
6.9625 2.0750 -2.9916 0.9691
6.7506 2.6867 -2.9918 0.9691
4.4421 5.7557 -2.9939 0.9690
3.9128 6.1293 -2.9944 0.9690
3.1821 6.1267 -2.8428 0.9706
2.0476 6.6007 -2.8458 0.9705
1.4525 6.7591 -2.8468 0.9705
0.8453 6.8629 -2.8474 0.9705
0.2311 6.9115 -2.8476 0.9705
-0.3850 6.9044 -2.8475 0.9705
-0.9978 6.8416 -2.8471 0.9705
-1.6692 7.0045 -2.9651 0.9693
-2.3132 6.9093 -3.0004 0.9690
-2.9196 6.6774 -3.0010 0.9690
-3.5030 6.3922 -3.0015 0.9690
-4.5826 5.6720 -3.0026 0.9689
-5.5174 4.7711 -3.0036 0.9689
-5.9210 4.2617 -3.0040 0.9689
-6.2776 3.7182 -3.0044 0.9689
-6.5844 3.1451 -3.0047 0.9689
-6.8388 2.5468 -3.0050 0.9689
-7.1830 1.2941 -3.0054 0.9689
-6.9671 0.0000 -3.0053 0.9701
-6.9394 -0.6201 -3.0053 0.9701
-6.8566 -1.2353 -3.0053 0.9701
-6.7192 -1.8406 -3.0052 0.9701
-5.9537 -3.5264 -2.9849 0.9703
-5.2099 -4.5052 -2.9711 0.9704
-4.3285 -5.3575 -2.9710 0.9704
-3.3104 -6.0407 -2.9713 0.9704
-2.7598 -6.3119 -2.9716 0.9704
-0.9946 -6.8199 -2.9729 0.9704
-0.3837 -6.8827 -2.9735 0.9704
1.4493 -6.7445 -2.9757 0.9704
0.9296 -2.9969 -1.3535 0.9864
1.0728 -2.6106 -1.2175 0.9878
1.2395 -2.3864 -1.1600 0.9884
2.3106 -2.0898 -1.3439 0.9865
5.5219 -4.1643 -2.9833 0.9703
5.8726 -3.6575 -2.9843 0.9703
6.4323 -2.5600 -2.9863 0.9703
6.6367 -1.9779 -2.9872 0.9703
6.7884 -1.3798 -2.9881 0.9703
6.8862 -0.7703 -2.9889 0.9703
6.9293 -0.1544 -2.9897 0.9703
6.8516 1.0774 -2.9918 0.9702
6.5525 2.2753 -2.9920 0.9702
6.3244 2.8496 -2.9922 0.9702
6.0461 3.4015 -2.9924 0.9702
4.9343 4.8796 -2.9934 0.9702
4.4810 5.3001 -2.9938 0.9702
2.7745 5.9789 -2.8432 0.9717
2.2324 6.2051 -2.8446 0.9717
1.6719 6.3816 -2.8457 0.9717
-0.0735 6.5994 -2.8469 0.9717
-0.6605 6.5661 -2.8466 0.9717
-1.2757 6.6553 -2.9231 0.9709
-1.9120 6.6867 -3.0000 0.9702
-2.5001 6.4913 -3.0006 0.9702
-3.0685 6.2442 -3.0011 0.9701
-4.6115 5.2144 -3.0027 0.9701
-5.0581 4.7839 -3.0032 0.9701
-5.4646 4.3154 -3.0036 0.9701
-5.8278 3.8124 -3.0040 0.9701
-6.1446 3.2789 -3.0043 0.9701
-6.7943 1.5394 -3.0050 0.9701
-6.9047 0.9286 -3.0052 0.9701
-6.9602 -0.3104 -3.0053 0.9701
-6.7947 -1.5395 -3.0052 0.9701
-6.6304 -2.1380 -3.0051 0.9701
-6.1455 -3.2793 -3.0047 0.9701
-5.7732 -3.7766 -2.9758 0.9704
-5.4056 -4.2687 -2.9711 0.9704
-5.0040 -4.7328 -2.9710 0.9704
-4.5629 -5.1593 -2.9710 0.9704
-3.0381 -6.1824 -2.9714 0.9704
-2.4761 -6.4290 -2.9718 0.9704
-1.2973 -6.7682 -2.9727 0.9704
-0.0768 -6.8937 -2.9739 0.9704
0.5372 -6.8748 -2.9746 0.9704
1.1473 -6.8015 -2.9753 0.9704
0.9975 -2.7727 -1.2711 0.9872
1.1555 -2.4901 -1.1841 0.9881
1.3328 -2.3086 -1.1499 0.9885
1.5313 -2.1783 -1.1486 0.9885
1.7665 -2.0894 -1.1802 0.9882
2.0847 -2.0616 -1.2647 0.9873
6.0307 -3.3928 -2.9848 0.9703
6.3108 -2.8435 -2.9858 0.9703
6.5410 -2.2713 -2.9867 0.9703
6.7192 -1.6806 -2.9877 0.9703
6.8441 -1.0762 -2.9885 0.9703
6.9301 0.1544 -2.9901 0.9703
6.8928 0.7711 -2.9918 0.9702
6.7969 1.3815 -2.9918 0.9702
6.6472 1.9811 -2.9919 0.9702
6.4448 2.5650 -2.9921 0.9702
6.1914 3.1287 -2.9923 0.9702
5.5396 4.1776 -2.9929 0.9702
2.5061 6.0981 -2.8439 0.9717
1.9542 6.2997 -2.8452 0.9717
1.3862 6.4507 -2.8461 0.9717
0.8067 6.5497 -2.8466 0.9717
-0.3674 6.5894 -2.8468 0.9717
-1.6121 6.7646 -2.9997 0.9702
-2.2082 6.5956 -3.0003 0.9702
-4.8396 5.0042 -3.0029 0.9701
-5.9921 3.5492 -3.0041 0.9701
-6.7187 1.8404 -3.0050 0.9701
-6.9393 0.6201 -3.0052 0.9701
-6.6598 0.0000 -3.0050 0.9712
-6.6334 -0.5928 -3.0050 0.9712
-6.2405 -2.3240 -3.0047 0.9712
-5.7028 -3.3778 -2.9907 0.9713
-5.3459 -3.8476 -2.9719 0.9715
-4.9815 -4.3077 -2.9716 0.9715
-4.1387 -5.1225 -2.9715 0.9715
-2.0914 -6.2467 -2.9724 0.9715
-0.9510 -6.5206 -2.9733 0.9715
0.8060 -6.5444 -2.9752 0.9715
1.3857 -6.4483 -2.9760 0.9715
0.9917 -3.1968 -1.5103 0.9854
1.0901 -2.6526 -1.2940 0.9875
1.2571 -2.4203 -1.2306 0.9881
5.2788 -3.9810 -2.9833 0.9714
5.6140 -3.4964 -2.9842 0.9714
6.3441 -1.8907 -2.9870 0.9714
6.4890 -1.3190 -2.9878 0.9714
6.5825 -0.7364 -2.9886 0.9714
6.6236 -0.1476 -2.9894 0.9713
6.6120 0.4426 -2.9901 0.9713
6.5507 1.0301 -2.9921 0.9713
6.4332 1.6090 -2.9922 0.9713
6.0466 2.7245 -2.9925 0.9713
5.7806 3.2521 -2.9927 0.9713
4.7175 4.6652 -2.9937 0.9713
3.3188 5.7482 -2.9950 0.9713
2.6620 5.7363 -2.8534 0.9726
2.1337 5.9308 -2.8440 0.9727
1.5980 6.0993 -2.8450 0.9727
1.0490 6.2188 -2.8457 0.9727
-0.6314 6.2765 -2.8464 0.9727
-1.2514 6.5284 -2.9993 0.9713
-3.4535 5.6854 -3.0015 0.9712
-3.9465 5.3563 -3.0020 0.9712
-4.4083 4.9846 -3.0025 0.9712
-4.8352 4.5731 -3.0030 0.9712
-5.2237 4.1251 -3.0034 0.9712
-5.8737 3.1343 -3.0041 0.9712
-6.1299 2.5993 -3.0043 0.9712
-6.6001 0.8876 -3.0049 0.9712
-6.6531 0.2967 -3.0050 0.9712
-6.6532 -0.2967 -3.0050 0.9712
-6.4950 -1.4716 -3.0049 0.9712
-5.5220 -3.6123 -2.9774 0.9715
-3.9065 -5.3019 -2.9716 0.9715
-3.4192 -5.6288 -2.9717 0.9715
-1.8112 -6.3341 -2.9726 0.9715
-0.0734 -6.5911 -2.9742 0.9715
1.6718 -6.3810 -2.9764 0.9715
1.1736 -2.5291 -1.2580 0.9878
1.3516 -2.3410 -1.2197 0.9882
1.5530 -2.2092 -1.2185 0.9882
1.7946 -2.1227 -1.2542 0.9879
2.1282 -2.1046 -1.3506 0.9870
5.0954 -4.2115 -2.9828 0.9714
5.4518 -3.7424 -2.9838 0.9714
6.0328 -2.7182 -2.9856 0.9714
6.2527 -2.1712 -2.9865 0.9714
6.4230 -1.6065 -2.9874 0.9714
6.6096 -0.4425 -2.9890 0.9713
6.6244 0.1476 -2.9898 0.9713
6.5900 0.7372 -2.9921 0.9713
6.4984 1.3208 -2.9921 0.9713
6.1618 2.4523 -2.9924 0.9713
5.9195 2.9912 -2.9926 0.9713
5.6302 3.5065 -2.9928 0.9713
4.9203 4.4501 -2.9935 0.9713
4.0544 5.2534 -2.9943 0.9713
3.5713 5.5943 -2.9947 0.9713
2.3954 5.8287 -2.8434 0.9727
0.2108 6.3042 -2.8461 0.9727
-1.5411 6.4668 -2.9996 0.9712
-3.1966 5.8331 -3.0013 0.9712
-4.6263 4.7836 -3.0027 0.9712
-6.5539 1.1807 -3.0048 0.9712
-6.6332 0.5927 -3.0049 0.9712
-6.3491 -0.5673 -3.0047 0.9722
-6.2733 -1.1302 -3.0047 0.9722
-5.7510 -2.7470 -3.0043 0.9722
-5.1206 -3.6857 -2.9741 0.9725
-4.7692 -4.1241 -2.9720 0.9725
-4.3831 -4.5321 -2.9720 0.9725
-3.5102 -5.2376 -2.9721 0.9725
-3.0303 -5.5296 -2.9722 0.9725
-2.5263 -5.7778 -2.9725 0.9725
-2.0022 -5.9804 -2.9728 0.9725
0.2109 -6.3075 -2.9749 0.9725
0.7716 -6.2651 -2.9755 0.9725
1.3265 -6.1731 -2.9763 0.9725
1.8712 -6.0321 -2.9770 0.9725
1.1092 -2.6990 -1.3755 0.9872
1.9811 -2.1420 -1.3753 0.9872
4.6923 -4.2439 -2.9823 0.9724
5.0530 -3.8106 -2.9832 0.9724
5.6520 -2.8561 -2.9851 0.9724
6.0724 -1.8097 -2.9868 0.9724
6.3397 -0.1413 -2.9891 0.9723
6.3323 0.4239 -2.9916 0.9723
6.2711 0.9861 -2.9924 0.9723
5.9973 2.0825 -2.9926 0.9723
5.7885 2.6082 -2.9927 0.9723
5.2352 3.5937 -2.9932 0.9723
4.5160 4.4660 -2.9939 0.9723
4.1011 4.8508 -2.9942 0.9723
3.1770 5.5027 -2.9951 0.9723
-0.6257 6.2202 -2.9469 0.9727
-2.2877 5.9399 -3.0004 0.9722
-3.3057 5.4420 -3.0014 0.9722
-4.2195 4.7711 -3.0023 0.9722
-5.0000 3.9484 -3.0032 0.9722
-5.3322 3.4882 -3.0035 0.9722
-5.6221 3.0000 -3.0038 0.9722
-5.8673 2.4880 -3.0041 0.9722
-6.0659 1.9560 -3.0043 0.9722
-6.2163 1.4084 -3.0045 0.9722
-6.3681 -0.2840 -3.0047 0.9722
-6.3175 -0.8496 -3.0047 0.9722
-6.2167 -1.4085 -3.0047 0.9722
-5.8679 -2.4882 -3.0044 0.9722
-4.1768 -4.7228 -2.9720 0.9725
-3.7400 -5.0759 -2.9720 0.9725
-3.2735 -5.3889 -2.9721 0.9725
-2.7810 -5.6593 -2.9724 0.9725
-1.1875 -6.1953 -2.9735 0.9725
0.4917 -6.2925 -2.9752 0.9725
1.0501 -6.2253 -2.9759 0.9725
1.6004 -6.1086 -2.9767 0.9725
1.0583 -2.9416 -1.4736 0.9863
1.8241 -2.1576 -1.3318 0.9876
5.9849 -2.0782 -2.9864 0.9724
6.2619 -0.9846 -2.9880 0.9724
6.3263 -0.4235 -2.9887 0.9724
6.0840 1.8132 -2.9925 0.9723
5.6668 2.8635 -2.9928 0.9723
5.3898 3.3568 -2.9931 0.9723
4.3129 4.6630 -2.9941 0.9723
3.8812 5.0290 -2.9944 0.9723
2.9290 5.6392 -2.9953 0.9723
2.3286 5.6662 -2.8877 0.9733
1.2679 5.9002 -2.8447 0.9737
0.7378 5.9907 -2.8452 0.9737
0.2017 6.0334 -2.8456 0.9737
-0.3397 6.0932 -2.8766 0.9734
-3.0598 5.5834 -3.0012 0.9722
-4.4282 4.5787 -3.0026 0.9722
-5.1712 3.7220 -3.0033 0.9722
-5.4826 3.2473 -3.0037 0.9722
-5.7504 2.7467 -3.0040 0.9722
-6.2730 1.1302 -3.0046 0.9722
-6.3489 0.5673 -3.0047 0.9722
-4.5713 -3.9529 -2.9724 0.9734
-4.2012 -4.3440 -2.9724 0.9734
-3.7979 -4.7007 -2.9724 0.9734
-3.3645 -5.0203 -2.9725 0.9734
-2.4214 -5.5380 -2.9729 0.9734
-1.4015 -5.8810 -2.9736 0.9734
-0.8726 -5.9833 -2.9741 0.9734
-0.3367 -6.0383 -2.9746 0.9734
1.2714 -5.9165 -2.9765 0.9734
1.1545 -2.8093 -1.4939 0.9866
1.2974 -2.4979 -1.3844 0.9875
1.4881 -2.3311 -1.3603 0.9877
1.7221 -2.2314 -1.3864 0.9875
4.4970 -4.0672 -2.9823 0.9733
5.1499 -3.2074 -2.9841 0.9733
5.8192 -1.7343 -2.9866 0.9733
6.0708 0.4064 -2.9926 0.9732
5.7481 1.9960 -2.9928 0.9732
5.0176 3.4444 -2.9934 0.9732
4.3283 4.2803 -2.9941 0.9732
2.0244 5.6269 -2.9413 0.9737
1.4782 5.6423 -2.8688 0.9743
-0.0665 5.9699 -2.9365 0.9737
-0.6102 6.0662 -2.9988 0.9732
-1.1480 5.9889 -2.9993 0.9732
-1.6767 5.8640 -2.9998 0.9732
-3.6201 4.9133 -3.0018 0.9732
-5.1098 3.3427 -3.0033 0.9731
-5.3876 2.8749 -3.0036 0.9731
-5.6226 2.3842 -3.0039 0.9731
-6.0539 0.8141 -3.0044 0.9731
-6.1023 0.2721 -3.0045 0.9731
-6.1024 -0.2721 -3.0045 0.9731
-6.0539 -0.8142 -3.0045 0.9731
-5.9573 -1.3497 -3.0044 0.9731
-5.8133 -1.8746 -3.0043 0.9731
-5.3882 -2.8753 -3.0040 0.9731
-5.0723 -3.3181 -2.9812 0.9733
-4.7429 -3.7454 -2.9725 0.9734
-4.3906 -4.1526 -2.9724 0.9734
-4.0035 -4.5268 -2.9724 0.9734
-3.5848 -4.8653 -2.9724 0.9734
-3.1376 -5.1653 -2.9726 0.9734
-2.6656 -5.4244 -2.9728 0.9734
-2.1724 -5.6407 -2.9731 0.9734
-1.6620 -5.8124 -2.9734 0.9734
-1.1382 -5.9380 -2.9738 0.9734
-0.6053 -6.0168 -2.9743 0.9734
1.0065 -5.9666 -2.9762 0.9734
1.2234 -2.6365 -1.4296 0.9871
1.3917 -2.4104 -1.3690 0.9877
1.5993 -2.2750 -1.3678 0.9877
2.3229 -2.2971 -1.6068 0.9855
4.6744 -3.8634 -2.9828 0.9733
5.0012 -3.4331 -2.9836 0.9733
5.5338 -2.4934 -2.9854 0.9733
5.8915 -1.4735 -2.9870 0.9733
6.0758 0.1354 -2.9891 0.9733
5.9625 1.2120 -2.9927 0.9732
5.8312 1.7379 -2.9928 0.9732
5.6536 2.2501 -2.9929 0.9732
4.8594 3.6646 -2.9936 0.9732
2.8071 5.4046 -2.9955 0.9732
2.3153 5.6339 -2.9959 0.9732
1.7455 5.6268 -2.8977 0.9741
1.2194 5.6747 -2.8549 0.9745
0.7102 5.7667 -2.8578 0.9744
0.1970 5.8901 -2.8987 0.9741
-0.3384 6.0693 -2.9899 0.9733
-0.8800 6.0335 -2.9990 0.9732
-1.4137 5.9323 -2.9995 0.9732
-1.9365 5.7840 -3.0001 0.9732
-2.9323 5.3507 -3.0011 0.9732
-4.2436 4.3879 -3.0024 0.9732
-4.9556 3.5668 -3.0031 0.9731
-5.8908 1.6137 -3.0042 0.9731
-5.7671 -1.0390 -3.0042 0.9740
-5.6515 -1.5481 -3.0041 0.9740
-5.2870 -2.5254 -3.0038 0.9740
-5.0386 -2.9843 -3.0022 0.9740
-4.7136 -3.3926 -2.9774 0.9742
-3.6442 -4.5104 -2.9728 0.9743
-2.7869 -5.0856 -2.9730 0.9743
-2.3234 -5.3138 -2.9733 0.9743
-1.3448 -5.6429 -2.9740 0.9743
-0.8373 -5.7410 -2.9744 0.9743
-0.3230 -5.7937 -2.9749 0.9743
0.1940 -5.8006 -2.9755 0.9742
0.7096 -5.7615 -2.9761 0.9742
1.2199 -5.6768 -2.9768 0.9742
1.7207 -5.5470 -2.9775 0.9742
1.3398 -2.5797 -1.4903 0.9870
1.5296 -2.3960 -1.4573 0.9873
2.1438 -2.3178 -1.6186 0.9859
4.6459 -3.5036 -2.9832 0.9742
5.1964 -2.6258 -2.9848 0.9742
5.4109 -2.1535 -2.9856 0.9742
5.5826 -1.6638 -2.9864 0.9742
5.8280 -0.1299 -2.9885 0.9741
5.6635 1.4165 -2.9929 0.9741
5.5152 1.9151 -2.9931 0.9741
5.0888 2.8629 -2.9934 0.9741
4.8142 3.3047 -2.9936 0.9741
4.5014 3.7205 -2.9939 0.9741
4.1528 4.1068 -2.9942 0.9741
2.9214 5.0600 -2.9954 0.9741
2.4598 5.3006 -2.9958 0.9741
1.9785 5.4994 -2.9963 0.9741
1.4729 5.6220 -2.9795 0.9742
0.9600 5.6910 -2.9588 0.9744
0.4536 5.8046 -2.9849 0.9742
-0.0651 5.8479 -2.9982 0.9741
-0.5855 5.8199 -2.9987 0.9740
-1.1014 5.7457 -2.9993 0.9740
-2.1033 5.4612 -3.0002 0.9740
-2.5814 5.2531 -3.0007 0.9740
-3.8793 4.3864 -3.0020 0.9740
-4.2548 4.0242 -3.0024 0.9740
-4.5967 3.6300 -3.0028 0.9740
-4.9020 3.2068 -3.0031 0.9740
-5.3939 2.2872 -3.0036 0.9740
-5.5764 1.7982 -3.0038 0.9740
-5.7147 1.2948 -3.0040 0.9740
-5.8075 0.7810 -3.0041 0.9740
-5.8541 0.2610 -3.0042 0.9740
-5.8542 -0.2610 -3.0042 0.9740
-5.8077 -0.7811 -3.0042 0.9740
-5.7150 -1.2949 -3.0042 0.9740
-5.5769 -1.7983 -3.0041 0.9740
-5.3944 -2.2874 -3.0039 0.9740
-5.1691 -2.7583 -3.0037 0.9740
-4.8722 -3.1872 -2.9848 0.9742
-3.8415 -4.3436 -2.9728 0.9743
-3.4397 -4.6684 -2.9728 0.9743
-3.0106 -4.9562 -2.9730 0.9743
-2.5577 -5.2048 -2.9732 0.9743
-1.5947 -5.5770 -2.9738 0.9743
-1.0921 -5.6976 -2.9742 0.9743
-0.5808 -5.7731 -2.9746 0.9743
-0.0646 -5.8029 -2.9752 0.9743
0.9657 -5.7248 -2.9764 0.9742
1.4717 -5.6175 -2.9771 0.9742
1.9663 -5.4655 -2.9778 0.9742
1.2654 -2.7268 -1.5411 0.9866
1.4329 -2.4818 -1.4692 0.9872
1.9371 -2.2912 -1.5381 0.9866
4.1357 -4.0898 -2.9819 0.9742
4.4846 -3.7066 -2.9827 0.9742
4.7980 -3.2936 -2.9836 0.9742
5.3089 -2.3921 -2.9852 0.9742
5.5022 -1.9106 -2.9860 0.9742
5.7567 -0.9052 -2.9875 0.9741
5.8016 0.6490 -2.9929 0.9741
5.7209 1.1628 -2.9929 0.9741
5.5949 1.6674 -2.9930 0.9741
4.3314 3.9175 -2.9941 0.9741
3.5690 4.6245 -2.9948 0.9741
3.1437 4.9245 -2.9952 0.9741
2.6933 5.1854 -2.9956 0.9741
2.2214 5.4054 -2.9960 0.9741
1.7317 5.5825 -2.9965 0.9741
0.7075 5.7444 -2.9672 0.9743
0.1954 5.8445 -2.9980 0.9741
-1.3563 5.6914 -2.9995 0.9740
-2.8131 5.1333 -3.0010 0.9740
-3.6798 4.5545 -3.0018 0.9740
-4.0711 4.2095 -3.0022 0.9740
-4.7541 3.4218 -3.0029 0.9740
-5.0403 2.9854 -3.0033 0.9740
-5.2865 2.5251 -3.0035 0.9740
-5.6512 1.5480 -3.0039 0.9740
-5.6048 -0.5009 -3.0040 0.9748
-5.0769 -2.4251 -3.0036 0.9748
-4.5287 -3.2595 -2.9787 0.9750
-3.5001 -4.3321 -2.9732 0.9751
-3.1007 -4.6266 -2.9733 0.9751
-2.6767 -4.8845 -2.9734 0.9751
-1.7686 -5.2826 -2.9739 0.9751
-0.8042 -5.5139 -2.9747 0.9751
1.1716 -5.4520 -2.9770 0.9750
1.6526 -5.3273 -2.9777 0.9750
2.1207 -5.1604 -2.9784 0.9750
1.3866 -2.6697 -1.6059 0.9865
1.5768 -2.4701 -1.5644 0.9868
3.7922 -4.1001 -2.9815 0.9750
4.1433 -3.7473 -2.9823 0.9750
4.4616 -3.3646 -2.9831 0.9750
4.9901 -2.5216 -2.9847 0.9750
5.1961 -2.0680 -2.9855 0.9750
5.4831 -1.1145 -2.9870 0.9749
5.5618 -0.6222 -2.9877 0.9749
5.5963 -0.1247 -2.9883 0.9749
5.4393 1.3604 -2.9932 0.9749
5.2968 1.8392 -2.9933 0.9749
5.1123 2.3035 -2.9934 0.9749
4.8873 2.7496 -2.9936 0.9749
4.6236 3.1739 -2.9938 0.9749
3.6218 4.2839 -2.9947 0.9749
2.8056 4.8595 -2.9955 0.9749
2.3623 5.0906 -2.9959 0.9749
0.9339 5.5364 -2.9973 0.9749
-1.0576 5.5177 -2.9992 0.9748
-1.5448 5.4025 -2.9997 0.9748
-2.0198 5.2444 -3.0002 0.9748
-2.4790 5.0446 -3.0006 0.9748
-3.7252 4.2122 -3.0019 0.9748
-4.0859 3.8644 -3.0023 0.9748
-4.4141 3.4858 -3.0026 0.9748
-4.7073 3.0794 -3.0029 0.9748
-5.1796 2.1964 -3.0034 0.9748
-5.3549 1.7268 -3.0036 0.9748
-5.4877 1.2433 -3.0038 0.9748
-5.5767 0.7500 -3.0039 0.9748
-5.1801 -2.1966 -3.0037 0.9748
-4.9637 -2.6487 -3.0035 0.9748
-4.0463 -3.8270 -2.9732 0.9751
-3.6896 -4.1719 -2.9732 0.9751
-3.3037 -4.4838 -2.9732 0.9751
-2.4566 -4.9990 -2.9735 0.9751
-1.5316 -5.3564 -2.9741 0.9751
-1.0489 -5.4722 -2.9745 0.9751
-0.5578 -5.5447 -2.9750 0.9750
0.4343 -5.5578 -2.9760 0.9750
1.4775 -2.5592 -1.5776 0.9867
1.6984 -2.4160 -1.5766 0.9867
2.0357 -2.4079 -1.6833 0.9858
4.8722 -2.7410 -2.9843 0.9750
5.4274 -1.3575 -2.9866 0.9750
5.5976 0.1247 -2.9890 0.9749
5.3734 1.6014 -2.9932 0.9749
4.4778 3.3768 -2.9940 0.9749
3.0191 4.7293 -2.9953 0.9749
2.5865 4.9799 -2.9957 0.9749
1.1795 5.4888 -2.9970 0.9749
0.6864 5.5729 -2.9975 0.9749
-0.3127 5.6081 -2.9985 0.9749
-0.8107 5.5589 -2.9990 0.9748
-1.3025 5.4656 -2.9995 0.9748
-2.7014 4.9296 -3.0009 0.9748
-3.5337 4.3737 -3.0017 0.9748
-4.5652 3.2859 -3.0028 0.9748
-4.8401 2.8668 -3.0031 0.9748
-5.2725 1.9635 -3.0035 0.9748
-5.5377 0.9977 -3.0039 0.9748
-5.6047 0.5008 -3.0040 0.9748
-5.2160 -1.4288 -3.0037 0.9756
-5.0679 -1.8873 -3.0036 0.9756
-4.6525 -2.7557 -3.0032 0.9756
-3.3647 -4.1645 -2.9735 0.9758
-2.9807 -4.4476 -2.9736 0.9758
-1.7002 -5.0781 -2.9743 0.9758
-1.2416 -5.2099 -2.9746 0.9758
-0.2983 -5.3491 -2.9755 0.9758
0.1791 -5.3553 -2.9760 0.9758
0.6551 -5.3192 -2.9766 0.9758
1.1262 -5.2408 -2.9772 0.9758
1.6584 -2.5979 -1.7118 0.9860
3.6451 -3.9410 -2.9815 0.9757
3.9825 -3.6019 -2.9823 0.9757
4.2884 -3.2340 -2.9831 0.9757
4.5604 -2.8402 -2.9839 0.9757
4.7963 -2.4237 -2.9846 0.9757
5.1526 -1.5356 -2.9861 0.9757
5.2700 -1.0712 -2.9868 0.9757
5.3787 -0.1199 -2.9881 0.9757
5.3774 0.3600 -2.9933 0.9756
5.3241 0.8372 -2.9933 0.9756
5.2286 1.3078 -2.9934 0.9756
5.0916 1.7680 -2.9935 0.9756
4.6980 2.6430 -2.9938 0.9756
4.4444 3.0509 -2.9940 0.9756
2.2707 4.8932 -2.9960 0.9756
1.8264 5.0766 -2.9964 0.9756
1.3675 5.2198 -2.9969 0.9756
0.8976 5.3216 -2.9973 0.9756
0.4205 5.3812 -2.9978 0.9756
-0.0601 5.3981 -2.9983 0.9756
-1.0166 5.3036 -2.9992 0.9756
-1.4848 5.1928 -2.9997 0.9756
-2.8052 4.6181 -3.0010 0.9756
-3.5805 4.0486 -3.0018 0.9756
-4.2426 3.3504 -3.0025 0.9756
-4.7703 2.5455 -3.0030 0.9756
-4.9783 2.1110 -3.0032 0.9756
-5.4030 -0.2409 -3.0038 0.9756
-5.3601 -0.7209 -3.0038 0.9756
-5.2746 -1.1950 -3.0037 0.9756
-5.1471 -1.6597 -3.0036 0.9756
-4.9787 -2.1112 -3.0035 0.9756
-4.7708 -2.5458 -3.0033 0.9756
-4.5127 -2.9521 -2.9950 0.9756
-4.2054 -3.3210 -2.9762 0.9758
-3.8897 -3.6789 -2.9735 0.9758
-3.5468 -4.0104 -2.9735 0.9758
-3.1758 -4.3103 -2.9736 0.9758
-1.9246 -4.9971 -2.9741 0.9758
-1.4723 -5.1491 -2.9744 0.9758
1.3587 -5.1860 -2.9775 0.9758
2.2577 -4.8652 -2.9789 0.9758
1.7981 -2.5578 -1.7365 0.9858
4.1395 -3.4214 -2.9827 0.9757
4.9001 -2.2079 -2.9850 0.9757
5.0784 -1.7634 -2.9857 0.9757
5.2165 -1.3047 -2.9865 0.9757
5.3131 -0.8354 -2.9871 0.9757
5.3675 -0.3593 -2.9878 0.9757
5.3843 0.1200 -2.9911 0.9757
5.3561 0.5992 -2.9933 0.9756
5.2816 1.0735 -2.9933 0.9756
5.1652 1.5394 -2.9934 0.9756
4.8109 2.4310 -2.9937 0.9756
4.5757 2.8498 -2.9939 0.9756
4.3042 3.2460 -2.9941 0.9756
3.6612 3.9585 -2.9947 0.9756
2.4863 4.7869 -2.9958 0.9756
2.0506 4.9898 -2.9962 0.9756
1.5986 5.1533 -2.9967 0.9756
1.1337 5.2759 -2.9971 0.9756
0.1804 5.3950 -2.9980 0.9756
-0.3006 5.3905 -2.9985 0.9756
-1.2519 5.2534 -2.9994 0.9756
-2.1642 4.9497 -3.0003 0.9756
-3.0084 4.4888 -3.0012 0.9756
-3.3964 4.2038 -3.0016 0.9756
-3.7575 3.8853 -3.0019 0.9756
-4.0889 3.5358 -3.0023 0.9756
-4.3878 3.1582 -3.0026 0.9756
-4.8791 2.3306 -3.0031 0.9756
-5.2157 1.4287 -3.0035 0.9756
-5.2024 0.0000 -3.0036 0.9763
-5.1817 -0.4630 -3.0036 0.9763
-4.6938 -2.2420 -3.0032 0.9763
-4.4753 -2.6507 -3.0031 0.9763
-4.1929 -3.0179 -2.9826 0.9764
-3.8962 -3.3692 -2.9739 0.9765
-3.2371 -4.0066 -2.9739 0.9765
-2.8677 -4.2789 -2.9739 0.9765
-2.4756 -4.5174 -2.9741 0.9765
-2.0638 -4.7201 -2.9743 0.9765
-1.6357 -4.8855 -2.9746 0.9765
-1.1945 -5.0123 -2.9749 0.9765
-0.7437 -5.0994 -2.9753 0.9765
-0.2869 -5.1461 -2.9757 0.9765
0.1723 -5.1521 -2.9762 0.9765
0.6303 -5.1173 -2.9768 0.9765
1.5282 -4.9265 -2.9780 0.9765
2.7774 -4.3507 -2.9801 0.9764
3.5065 -3.7912 -2.9816 0.9764
4.3869 -2.7322 -2.9838 0.9764
4.6138 -2.3314 -2.9845 0.9764
4.8041 -1.9120 -2.9853 0.9764
5.1738 -0.1153 -2.9878 0.9764
5.1733 0.3463 -2.9935 0.9763
4.8983 1.7009 -2.9937 0.9763
4.2757 2.9351 -2.9942 0.9763
3.6882 3.6473 -2.9947 0.9763
2.9837 4.2443 -2.9954 0.9763
1.3156 5.0214 -2.9969 0.9763
0.8635 5.1193 -2.9974 0.9763
0.4046 5.1766 -2.9978 0.9763
-0.0578 5.1928 -2.9983 0.9763
-0.9779 5.1018 -2.9992 0.9763
-1.4283 4.9953 -2.9996 0.9763
-1.8676 4.8490 -3.0001 0.9763
-2.6985 4.4423 -3.0009 0.9763
-3.4442 3.8945 -3.0016 0.9763
-4.0811 3.2228 -3.0023 0.9763
-4.3521 2.8470 -3.0026 0.9763
-4.5886 2.4486 -3.0028 0.9763
-4.9507 1.5964 -3.0033 0.9763
-5.1558 0.6934 -3.0035 0.9763
-5.1971 0.2318 -3.0036 0.9763
-5.0737 -1.1495 -3.0035 0.9763
-4.9511 -1.5965 -3.0034 0.9763
-4.5891 -2.4488 -3.0031 0.9763
-4.3469 -2.8436 -2.9990 0.9763
-4.0473 -3.1962 -2.9776 0.9765
-3.7422 -3.5394 -2.9739 0.9765
-3.4123 -3.8584 -2.9738 0.9765
-3.0554 -4.1468 -2.9739 0.9765
-2.6743 -4.4025 -2.9740 0.9765
-1.4165 -4.9538 -2.9747 0.9765
-0.9701 -5.0608 -2.9751 0.9765
-0.0574 -5.1542 -2.9760 0.9765
0.4016 -5.1398 -2.9765 0.9765
0.8577 -5.0846 -2.9771 0.9765
1.3071 -4.9891 -2.9777 0.9765
2.1720 -4.6804 -2.9790 0.9764
2.5805 -4.4696 -2.9797 0.9764
3.6724 -3.6317 -2.9819 0.9764
4.2603 -2.9245 -2.9834 0.9764
5.1631 -0.3456 -2.9876 0.9764
5.1527 0.5764 -2.9935 0.9763
5.0810 1.0328 -2.9935 0.9763
4.8178 1.9174 -2.9937 0.9763
4.4020 2.7416 -2.9941 0.9763
3.1696 4.1070 -2.9952 0.9763
2.7918 4.3733 -2.9955 0.9763
