ply
format ascii 1.0
element vertex 1588
property float32 x
property float32 y
property float32 z
property float32 I
end_header
5.7439 -1.1675 0.5374 0.9767
5.5140 -0.6168 0.5087 0.9780
5.5156 -0.1229 0.5058 0.9781
5.7135 0.3825 0.5250 0.9773
-9.9572 -9.4174 1.2565 0.9464
5.5871 -0.8785 0.5185 0.9775
5.5835 0.1244 0.5120 0.9778
5.9543 0.6661 0.5493 0.9762
5.6652 -1.1515 0.4332 0.9771
5.6467 0.3780 0.4241 0.9776
5.5251 -0.8687 0.4191 0.9778
5.4420 -0.3643 0.4087 0.9784
5.5270 0.1232 0.4143 0.9781
5.5903 -1.1363 0.3323 0.9774
5.5815 0.3737 0.3258 0.9778
-9.9578 -9.4180 0.7983 0.9466
5.8538 -1.4641 0.3514 0.9761
5.4717 0.1219 0.3188 0.9783
5.3645 -0.6001 0.2244 0.9786
2.1677 8.2742 0.3556 0.9663
5.7531 -1.4389 0.2466 0.9765
5.4199 -0.8522 0.2281 0.9783
5.3521 -0.3583 0.2230 0.9788
5.4272 0.1210 0.2257 0.9785
6.3829 -1.9023 0.1661 0.9737
5.3356 -0.5969 0.1339 0.9787
5.9891 0.9418 0.1512 0.9760
2.1669 8.2710 0.2132 0.9664
5.7019 -1.4261 0.1466 0.9768
5.3903 -0.8476 0.1361 0.9784
5.3248 -0.3564 0.1331 0.9789
5.3973 0.1203 0.1346 0.9786
5.6661 0.6338 0.1422 0.9774
5.4655 0.3659 0.0455 0.9783
5.9194 0.9308 0.0498 0.9763
2.1661 8.2680 0.0710 0.9664
-9.9587 -9.4189 0.1139 0.9466
5.2978 -0.3546 0.0441 0.9790
6.0387 -1.7997 -0.0524 0.9751
5.2790 -0.5905 -0.0441 0.9790
5.4351 0.3638 -0.0453 0.9784
5.8574 0.9211 -0.0493 0.9766
-9.9590 -9.4192 -0.1139 0.9466
5.6149 -1.4044 -0.0481 0.9771
5.2710 -0.3529 -0.0439 0.9791
5.3384 0.1190 -0.0444 0.9789
5.4190 -1.1014 -0.1379 0.9781
5.2772 -0.1176 -0.1316 0.9791
5.4207 0.3629 -0.1355 0.9785
5.8357 0.9176 -0.1473 0.9766
5.2581 -0.3520 -0.1314 0.9791
5.3244 0.1187 -0.1328 0.9789
5.2563 -0.5880 -0.2199 0.9790
5.2685 -0.1174 -0.2191 0.9791
5.4108 0.3622 -0.2255 0.9785
5.8199 0.9152 -0.2450 0.9767
5.3092 -0.8348 -0.2235 0.9787
5.2494 -0.3514 -0.2188 0.9792
5.4010 0.3616 -0.3153 0.9785
-9.9600 -9.4200 -0.7985 0.9466
5.3054 0.1182 -0.3091 0.9790
5.5524 0.6212 -0.3254 0.9779
5.5612 -1.3909 -0.4296 0.9773
5.2904 -0.8319 -0.4013 0.9787
5.2320 -0.3502 -0.3930 0.9792
5.5434 0.6201 -0.4180 0.9779
5.9644 -1.7776 -0.5706 0.9753
5.3985 -1.0973 -0.5050 0.9781
5.2571 -0.1171 -0.4821 0.9791
5.8147 0.9143 -0.5396 0.9766
-9.9606 -9.4206 -1.2569 0.9464
5.5750 -1.3944 -0.5268 0.9772
5.2988 -0.8332 -0.4917 0.9787
5.5552 0.6214 -0.5125 0.9778
5.4104 0.3622 -0.5882 0.9784
5.8308 0.9169 -0.6402 0.9765
2.1623 8.2534 -0.9254 0.9663
-9.9609 -9.4209 -1.4871 0.9463
5.3081 -0.8346 -0.5828 0.9786
6.0710 -1.8094 -0.7939 0.9748
5.4202 -1.1017 -0.6931 0.9779
5.2629 -0.5888 -0.6636 0.9789
5.4204 0.3629 -0.6808 0.9783
5.8471 0.9194 -0.7417 0.9764
5.3224 0.1186 -0.6672 0.9788
5.5791 0.6241 -0.7035 0.9776
6.2011 -1.8481 -0.9204 0.9742
5.4418 -1.1061 -0.7898 0.9778
5.2844 -0.1178 -0.7518 0.9789
5.9090 0.9292 -0.8508 0.9761
5.3314 -0.8383 -0.7676 0.9784
5.2647 -0.3524 -0.7505 0.9789
5.3345 0.1189 -0.7590 0.9787
5.3131 -0.1184 -0.8463 0.9787
5.4690 0.3661 -0.8728 0.9780
2.1619 8.2521 -1.3584 0.9660
-9.9618 -9.4218 -2.1834 0.9460
5.3621 -0.8432 -0.8643 0.9783
5.3658 0.1196 -0.8546 0.9785
5.6448 0.6315 -0.9045 0.9773
5.5143 -1.1208 -0.9922 0.9774
5.3341 -0.5967 -0.9464 0.9784
5.3423 -0.1190 -0.9422 0.9785
5.5020 0.3683 -0.9723 0.9779
6.0717 0.9547 -1.0838 0.9753
2.1618 8.2516 -1.5041 0.9659
-9.9622 -9.4221 -2.4178 0.9458
5.3934 -0.8481 -0.9627 0.9781
5.3975 0.1203 -0.9520 0.9783
5.6850 0.6360 -1.0087 0.9770
-11.8441 -8.5249 -2.8240 0.9423
-9.1719 -11.3521 -2.8243 0.9423
-8.0451 -12.0041 -2.7965 0.9428
5.3650 -0.6002 -1.0447 0.9782
2.1617 8.2511 -1.6506 0.9658
-9.7411 11.0145 -2.8455 0.9419
-13.4183 -5.6898 -2.8205 0.9423
-12.8652 -6.8651 -2.8219 0.9423
-11.4454 -9.0383 -2.8222 0.9423
-9.9625 -9.4224 -2.6536 0.9457
-9.6698 -10.9338 -2.8246 0.9423
-8.6246 -11.7053 -2.8137 0.9425
5.8540 -1.4642 -1.1677 0.9757
5.4252 -0.8531 -1.0628 0.9779
5.3511 -0.3582 -1.0379 0.9784
-9.2501 11.4490 -2.8483 0.9418
-13.2188 -4.9227 -2.9738 0.9440
-12.3753 -5.9112 -2.8913 0.9455
-10.1345 -8.7636 -2.8246 0.9467
-8.4192 -10.4206 -2.8243 0.9467
-4.3980 -13.1361 -2.9204 0.9449
-3.2144 -13.4882 -2.9232 0.9449
0.4648 -13.9010 -2.9322 0.9447
1.7024 -13.8221 -2.9360 0.9447
2.9299 -13.6347 -2.9401 0.9446
4.1380 -13.3396 -2.9445 0.9445
5.3172 -12.9387 -2.9491 0.9444
6.4584 -12.4347 -2.9540 0.9443
7.5524 -11.8307 -2.9590 0.9442
9.5645 -10.3410 -2.9696 0.9440
10.4660 -9.4659 -2.9750 0.9439
11.2876 -8.5124 -2.9805 0.9438
12.0164 -7.4839 -2.9844 0.9438
12.6483 -6.3915 -2.9876 0.9437
13.1891 -5.2492 -2.9927 0.9436
5.6371 -1.1458 -1.2127 0.9768
5.4154 -0.6058 -1.1488 0.9780
13.9106 3.4793 -3.0230 0.9431
13.5499 4.7051 -3.0239 0.9431
9.2645 10.9581 -3.0252 0.9430
8.2509 11.7371 -3.0246 0.9430
7.1717 12.4218 -3.0239 0.9431
6.0358 13.0068 -3.0229 0.9431
4.6057 12.8019 -2.8682 0.9459
2.2635 13.4191 -2.8690 0.9459
1.0596 13.5603 -2.8675 0.9459
-0.1514 13.5936 -2.8660 0.9459
-1.3600 13.5185 -2.8643 0.9460
-2.5563 13.3359 -2.8627 0.9460
-3.7308 13.0474 -2.8609 0.9460
-4.8742 12.6555 -2.8591 0.9461
-5.9774 12.1636 -2.8572 0.9461
-8.0181 10.8823 -2.8497 0.9462
-10.3228 9.7633 -2.9954 0.9436
-11.1422 8.7989 -2.9931 0.9436
-11.8720 7.7663 -2.9908 0.9437
-12.5069 6.6739 -2.9886 0.9437
-13.4732 4.3446 -2.9844 0.9438
-14.1169 0.6295 -2.9791 0.9439
-14.1098 -0.6292 -2.9776 0.9439
-13.7633 -3.1183 -2.9751 0.9439
-11.2049 -7.3299 -2.8228 0.9467
-7.9442 -10.7819 -2.8234 0.9467
-6.1168 -12.4473 -2.9239 0.9449
-3.8105 -13.3261 -2.9220 0.9449
-1.3899 -13.8155 -2.9273 0.9448
1.0842 -13.8752 -2.9341 0.9447
3.5370 -13.5005 -2.9422 0.9445
7.0119 -12.1449 -2.9565 0.9443
8.0791 -11.4926 -2.9616 0.9442
9.0861 -10.7471 -2.9669 0.9441
10.0247 -9.9137 -2.9723 0.9440
10.8872 -8.9985 -2.9778 0.9439
11.6642 -8.0071 -2.9827 0.9438
12.3443 -6.9447 -2.9860 0.9437
5.4844 -0.8624 -1.1704 0.9776
5.4842 0.1222 -1.1565 0.9778
13.7440 4.0962 -3.0235 0.9431
12.1811 7.5865 -3.0254 0.9430
11.4584 8.6412 -3.0256 0.9430
7.7190 12.0916 -3.0243 0.9430
6.6103 12.7271 -3.0234 0.9431
5.1724 12.5864 -2.8688 0.9459
4.0300 12.9916 -2.8676 0.9459
2.8597 13.3079 -2.8696 0.9459
-0.7566 13.5696 -2.8652 0.9460
-1.9602 13.4406 -2.8635 0.9460
-3.1468 13.2048 -2.8618 0.9460
-4.3070 12.8642 -2.8600 0.9461
-5.4314 12.4219 -2.8582 0.9461
-8.4872 10.5047 -2.8471 0.9463
-9.8815 10.2175 -2.9966 0.9435
-11.5186 8.2906 -2.9920 0.9436
-12.2016 7.2271 -2.9897 0.9437
-13.2707 4.9421 -2.9854 0.9438
-13.6488 3.7388 -2.9835 0.9438
-13.9188 2.5076 -2.9816 0.9438
-14.0786 1.2581 -2.9799 0.9439
-11.7616 -5.6180 -2.9750 0.9479
-11.1153 -6.5835 -2.9486 0.9484
-6.2304 -11.3691 -2.9590 0.9482
-5.1308 -11.7345 -2.9232 0.9488
-4.0679 -12.1502 -2.9245 0.9488
-2.9722 -12.4720 -2.9264 0.9488
-0.7153 -12.8279 -2.9324 0.9487
1.5740 -12.7803 -2.9391 0.9485
3.8253 -12.3315 -2.9469 0.9484
6.9791 -10.9325 -2.9604 0.9482
8.8359 -9.5533 -2.9701 0.9480
9.6663 -8.7426 -2.9748 0.9479
12.5782 -3.7487 -2.9957 0.9476
5.4759 -0.6126 -1.2576 0.9776
5.4766 -0.1220 -1.2503 0.9778
5.6865 0.3807 -1.3008 0.9769
13.0538 2.0526 -3.0160 0.9472
12.5075 4.3431 -3.0220 0.9471
12.0740 5.4403 -3.0226 0.9471
11.5438 6.4944 -3.0231 0.9471
9.4187 9.3144 -3.0234 0.9471
8.5515 10.1147 -3.0231 0.9471
4.2516 11.8176 -2.8665 0.9498
2.1615 8.2503 -1.9466 0.9656
0.9784 12.5206 -2.8665 0.9498
-0.1398 12.5519 -2.8651 0.9498
-1.2558 12.4831 -2.8636 0.9498
-5.5206 11.2341 -2.8570 0.9499
-6.4898 10.6838 -2.8531 0.9500
-7.4027 10.0471 -2.8484 0.9501
-8.7014 9.8388 -2.9979 0.9475
-11.5551 6.1660 -2.9894 0.9477
-12.0501 5.1097 -2.9874 0.9477
-12.4492 4.0144 -2.9855 0.9477
-12.7495 2.8887 -2.9837 0.9478
-12.9488 1.7415 -2.9821 0.9478
-13.0457 0.5818 -2.9806 0.9478
-13.0397 -0.5814 -2.9792 0.9479
-12.9309 -1.7390 -2.9780 0.9479
-12.7203 -2.8820 -2.9769 0.9479
-12.0013 -5.0890 -2.9753 0.9479
-11.4987 -6.1359 -2.9748 0.9479
-9.7081 -7.6663 -2.8234 0.9505
-8.1977 -9.2692 -2.8243 0.9505
-4.6040 -11.9540 -2.9238 0.9488
-2.4148 -12.5975 -2.9277 0.9487
-1.2854 -12.7771 -2.9310 0.9487
1.0026 -12.8300 -2.9373 0.9486
4.3739 -12.1575 -2.9490 0.9484
6.4799 -11.2236 -2.9580 0.9482
7.4652 -10.6194 -2.9628 0.9481
8.3946 -9.9291 -2.9677 0.9481
9.2605 -9.1579 -2.9726 0.9480
10.0523 -8.3084 -2.9766 0.9479
10.7632 -7.3885 -2.9798 0.9478
12.3895 -4.3021 -2.9934 0.9476
5.5543 -0.8734 -1.2833 0.9772
5.4537 -0.3651 -1.2476 0.9778
5.9556 0.6662 -1.3678 0.9757
12.6840 3.7803 -3.0209 0.9471
12.3031 4.8965 -3.0223 0.9471
11.2436 7.0026 -3.0233 0.9471
10.5764 7.9761 -3.0235 0.9471
7.1251 11.1613 -3.0223 0.9471
6.1018 11.7481 -3.0215 0.9471
4.8013 11.6833 -2.8830 0.9495
3.7202 11.9930 -2.8660 0.9498
1.5355 12.4677 -2.8672 0.9498
0.4196 12.5488 -2.8658 0.9498
-0.6987 12.5299 -2.8643 0.9498
-1.8102 12.4114 -2.8628 0.9498
-5.0162 11.4723 -2.8578 0.9499
-6.0123 10.9712 -2.8555 0.9500
-7.8995 9.7774 -2.8690 0.9497
-9.1277 9.4380 -2.9968 0.9476
-10.6412 7.6591 -2.9925 0.9476
-11.8143 5.6433 -2.9884 0.9477
-12.8619 2.3172 -2.9829 0.9478
-12.1286 0.0000 -2.9812 0.9513
-11.9273 -2.1488 -2.9789 0.9513
-11.6852 -3.2009 -2.9780 0.9513
-8.1705 -8.4481 -2.8888 0.9527
-6.7428 -10.0608 -2.9770 0.9513
-4.7768 -10.9247 -2.9308 0.9521
-2.7631 -11.5944 -2.9297 0.9521
-1.7214 -11.8029 -2.9319 0.9521
-0.6647 -11.9203 -2.9346 0.9520
0.3995 -11.9479 -2.9384 0.9520
2.5173 -11.7147 -2.9452 0.9518
6.4831 -10.1556 -2.9615 0.9516
9.6691 -7.2919 -2.9768 0.9513
11.6735 -3.4791 -2.9941 0.9511
5.5361 -0.1234 -1.3611 0.9774
11.9042 2.9775 -3.0162 0.9507
10.1350 6.9573 -3.0217 0.9506
9.4758 7.8320 -3.0217 0.9506
7.9361 9.3868 -3.0214 0.9506
3.9460 10.9680 -2.8651 0.9531
2.1613 8.2498 -2.0962 0.9655
1.9401 11.5015 -2.8670 0.9531
0.9082 11.6229 -2.8656 0.9531
-0.1298 11.6521 -2.8643 0.9531
-4.1795 10.8518 -2.8584 0.9532
-6.0232 9.9157 -2.8517 0.9533
-6.8718 9.3265 -2.8475 0.9534
-8.0800 9.1363 -2.9979 0.9510
-8.8552 8.3752 -2.9959 0.9510
-10.1863 6.6636 -2.9919 0.9511
-11.5636 3.7288 -2.9865 0.9512
-11.8431 2.6833 -2.9848 0.9512
-12.0287 1.6177 -2.9833 0.9512
-12.1140 -0.5401 -2.9806 0.9513
-12.0132 -1.6156 -2.9794 0.9513
-11.8179 -2.6775 -2.9785 0.9513
-11.1503 -4.7281 -2.9770 0.9513
-10.1327 -6.6284 -2.9762 0.9513
-8.5450 -8.0817 -2.8910 0.9527
-7.8422 -8.8673 -2.9097 0.9524
-7.1836 -9.7496 -2.9767 0.9513
-5.2753 -10.7349 -2.9400 0.9519
-4.2805 -11.1140 -2.9274 0.9521
-2.2446 -11.7100 -2.9307 0.9521
-0.1330 -11.9461 -2.9365 0.9520
0.9318 -11.9248 -2.9401 0.9519
3.0386 -11.5983 -2.9471 0.9518
6.0198 -10.4266 -2.9593 0.9516
7.7949 -9.2199 -2.9676 0.9515
9.3277 -7.7096 -2.9745 0.9514
9.9918 -6.8590 -2.9790 0.9513
11.0822 -4.9934 -2.9878 0.9512
11.4990 -3.9929 -2.9920 0.9511
11.8250 -2.9576 -2.9961 0.9510
5.6362 -0.8862 -1.4024 0.9768
5.5123 -0.3690 -1.3580 0.9775
12.0191 2.4430 -3.0147 0.9507
10.4344 6.4987 -3.0215 0.9506
9.1174 8.2463 -3.0217 0.9506
8.3468 9.0245 -3.0215 0.9506
7.5095 9.7304 -3.0212 0.9506
6.6125 10.3583 -3.0206 0.9506
3.4528 11.1309 -2.8646 0.9531
2.4474 11.3895 -2.8634 0.9531
1.4254 11.5738 -2.8663 0.9531
-0.6486 11.6320 -2.8636 0.9531
-3.6929 11.0302 -2.8591 0.9532
-4.6574 10.6519 -2.8576 0.9532
-9.2164 7.9697 -2.9949 0.9511
-11.7150 3.2091 -2.9856 0.9512
-10.9053 -2.9872 -2.9794 0.9543
-10.5936 -3.9451 -2.9787 0.9543
-10.1986 -4.8714 -2.9782 0.9543
-9.1715 -6.6012 -2.9776 0.9543
-8.5475 -7.3913 -2.9776 0.9543
-7.8560 -8.1231 -2.9777 0.9543
-7.1025 -8.7909 -2.9780 0.9543
-6.2929 -9.3896 -2.9784 0.9543
-4.4663 -10.2146 -2.9376 0.9549
-3.5317 -10.5487 -2.9312 0.9550
-1.6073 -11.0204 -2.9346 0.9550
-0.6205 -11.1285 -2.9369 0.9549
1.3651 -11.0836 -2.9426 0.9549
2.3492 -10.9322 -2.9464 0.9548
4.2610 -10.3686 -2.9538 0.9547
6.0462 -9.4720 -2.9610 0.9546
6.8734 -8.9061 -2.9644 0.9545
10.1099 -5.1087 -2.9848 0.9542
10.8845 -3.2439 -2.9927 0.9541
5.6437 -0.6313 -1.4964 0.9768
5.9265 0.3967 -1.5651 0.9757
11.0944 2.7749 -3.0134 0.9538
10.8126 3.7546 -3.0160 0.9538
10.4433 4.7055 -3.0182 0.9537
9.9883 5.6194 -3.0198 0.9537
8.8347 7.3021 -3.0202 0.9537
7.3992 8.7519 -3.0198 0.9537
4.8213 10.3896 -3.0181 0.9537
1.8094 10.7267 -2.8664 0.9560
0.8470 10.8395 -2.8649 0.9560
-0.1211 10.8668 -2.8636 0.9560
-2.0440 10.6633 -2.8609 0.9561
-5.6162 9.2455 -2.8504 0.9562
-6.7113 9.1086 -2.9813 0.9543
-8.2608 7.8131 -2.9961 0.9541
-8.9179 7.0424 -2.9942 0.9541
-9.5035 6.2169 -2.9924 0.9541
-10.4430 4.4282 -2.9889 0.9542
-11.0510 2.5038 -2.9857 0.9542
-11.3094 0.5043 -2.9830 0.9543
-11.3048 -0.5041 -2.9818 0.9543
-11.2111 -1.5077 -2.9807 0.9543
-11.0290 -2.4988 -2.9798 0.9543
-10.4064 -4.4127 -2.9784 0.9543
-9.9708 -5.3206 -2.9780 0.9543
-9.4568 -6.1863 -2.9777 0.9543
-8.8683 -7.0032 -2.9776 0.9543
-7.4867 -8.4653 -2.9778 0.9543
-6.7044 -9.0992 -2.9782 0.9543
-4.9465 -10.0657 -2.9553 0.9547
-1.1152 -11.0853 -2.9357 0.9550
-0.1242 -11.1500 -2.9382 0.9549
1.8587 -11.0190 -2.9445 0.9548
2.8357 -10.8236 -2.9483 0.9548
3.7925 -10.5415 -2.9520 0.9547
4.7216 -10.1748 -2.9557 0.9547
6.4663 -9.1984 -2.9627 0.9546
7.2678 -8.5963 -2.9662 0.9545
8.7009 -7.1915 -2.9744 0.9544
9.3195 -6.3974 -2.9786 0.9543
9.8655 -5.5502 -2.9827 0.9543
5.7651 -0.9065 -1.5378 0.9761
11.3487 1.2696 -3.0090 0.9539
10.9646 3.2678 -3.0148 0.9538
10.2266 5.1678 -3.0192 0.9537
8.5006 7.6884 -3.0202 0.9537
7.0016 9.0722 -3.0196 0.9537
6.1652 9.6577 -3.0191 0.9537
4.3531 10.5926 -3.0176 0.9537
3.2195 10.3787 -2.8633 0.9560
-0.6049 10.8482 -2.8629 0.9561
-2.5164 10.5591 -2.8602 0.9561
-3.4445 10.2880 -2.8588 0.9561
-5.2024 9.4932 -2.8524 0.9562
-6.0181 8.9797 -2.8484 0.9563
-7.1525 8.8528 -2.9989 0.9540
-7.9071 8.1759 -2.9970 0.9540
-9.2199 6.6361 -2.9933 0.9541
-9.7681 5.7857 -2.9915 0.9541
-10.9312 2.9944 -2.9865 0.9542
-11.2781 1.0078 -2.9836 0.9542
-10.6036 0.0001 -2.9834 0.9569
-10.5578 -0.9434 -2.9823 0.9569
-10.2174 -2.7988 -2.9806 0.9569
-9.9255 -3.6963 -2.9800 0.9569
-7.3607 -7.6109 -2.9790 0.9570
-6.6547 -8.2366 -2.9793 0.9570
-5.0906 -9.2891 -2.9803 0.9569
-2.4186 -10.1489 -2.9354 0.9576
-1.5066 -10.3300 -2.9372 0.9575
-0.5816 -10.4304 -2.9392 0.9575
1.2792 -10.3865 -2.9444 0.9574
2.2008 -10.2417 -2.9473 0.9574
3.1069 -10.0159 -2.9505 0.9574
3.9906 -9.7106 -2.9538 0.9573
4.8448 -9.3279 -2.9573 0.9573
5.6628 -8.8706 -2.9610 0.9572
6.4380 -8.3419 -2.9647 0.9572
8.9911 -5.5997 -2.9802 0.9569
9.4659 -4.7833 -2.9840 0.9569
5.7579 -0.6441 -1.6301 0.9762
5.7409 -0.1279 -1.6156 0.9764
10.5625 1.6609 -3.0083 0.9565
10.1177 3.5133 -3.0134 0.9565
8.8456 6.0722 -3.0187 0.9564
8.2703 6.8356 -3.0188 0.9564
6.9265 8.1928 -3.0185 0.9564
5.3625 9.2881 -3.0175 0.9564
2.1611 8.2488 -2.3992 0.9652
1.6912 10.0260 -2.8607 0.9586
0.7931 10.1496 -2.8643 0.9586
-0.1134 10.1751 -2.8630 0.9586
-1.0181 10.1202 -2.8618 0.9586
-2.7938 9.7705 -2.8592 0.9587
-5.2577 8.6554 -2.8493 0.9588
-6.3245 8.5837 -2.9998 0.9567
-7.0592 7.9820 -2.9980 0.9567
-8.3527 6.5961 -2.9945 0.9567
-10.5154 1.4142 -2.9852 0.9569
-10.5912 -0.4723 -2.9829 0.9569
-10.3332 -2.3412 -2.9810 0.9569
-9.3421 -4.9851 -2.9793 0.9570
-7.6923 -7.2753 -2.9789 0.9570
-7.0147 -7.9316 -2.9791 0.9570
-6.2816 -8.5254 -2.9795 0.9570
-4.6589 -9.4806 -2.9721 0.9571
-2.8676 -10.0286 -2.9347 0.9576
-1.9647 -10.2495 -2.9363 0.9576
-0.1164 -10.4502 -2.9404 0.9575
3.5520 -9.8730 -2.9521 0.9573
5.2587 -9.1084 -2.9592 0.9572
6.0561 -8.6149 -2.9629 0.9572
8.1485 -6.7349 -2.9744 0.9570
8.7270 -5.9907 -2.9783 0.9570
9.6757 -4.3597 -2.9859 0.9569
10.3216 -2.5816 -2.9935 0.9568
5.8488 0.1304 -1.6460 0.9760
10.4828 2.1307 -3.0097 0.9565
10.2602 3.0579 -3.0122 0.9565
8.5665 6.4603 -3.0188 0.9564
7.9575 7.1971 -3.0188 0.9564
5.7715 9.0409 -3.0178 0.9564
4.9429 9.5167 -3.0172 0.9564
2.1365 9.9426 -2.8613 0.9586
1.2447 10.1066 -2.8650 0.9586
-0.5664 10.1578 -2.8624 0.9586
-4.0650 9.2968 -2.8548 0.9587
-5.7721 8.6126 -2.9171 0.9578
-6.6986 8.2910 -2.9989 0.9567
-7.4055 7.6573 -2.9971 0.9567
-8.0529 6.9637 -2.9954 0.9567
-9.1496 5.4193 -2.9920 0.9568
-9.9548 3.7072 -2.9888 0.9568
-10.2401 2.8051 -2.9873 0.9568
-10.5657 0.9442 -2.9846 0.9569
-9.9254 -0.8869 -2.9833 0.9592
-9.8042 -1.7663 -2.9824 0.9593
-8.9837 -4.2912 -2.9806 0.9593
-6.9203 -7.1555 -2.9802 0.9593
-6.2565 -7.7437 -2.9804 0.9593
-5.5432 -8.2710 -2.9808 0.9593
-3.9523 -9.0392 -2.9535 0.9596
-2.2749 -9.5457 -2.9378 0.9599
1.2029 -9.7669 -2.9461 0.9597
4.5546 -8.7691 -2.9583 0.9596
6.0514 -7.8410 -2.9653 0.9595
6.7334 -7.2801 -2.9688 0.9594
7.3637 -6.6601 -2.9725 0.9594
7.9370 -5.9856 -2.9761 0.9593
8.8942 -4.4944 -2.9834 0.9592
9.2703 -3.6895 -2.9871 0.9592
9.8007 -1.9921 -2.9941 0.9591
5.9628 -0.6670 -1.7963 0.9753
5.9228 -0.1320 -1.7736 0.9756
9.1759 4.1345 -3.0131 0.9588
8.7764 4.9375 -3.0147 0.9588
8.3097 5.7043 -3.0175 0.9588
7.1667 7.0873 -3.0175 0.9588
6.5069 7.6964 -3.0173 0.9588
5.7954 8.2440 -3.0169 0.9588
4.2402 9.1374 -3.0157 0.9588
3.2359 8.9944 -2.8617 0.9609
2.1610 8.2484 -2.5527 0.9650
1.5913 9.4338 -2.8642 0.9608
-0.9567 9.5095 -2.8613 0.9609
-1.7985 9.3826 -2.8601 0.9609
-3.4276 8.8997 -2.8552 0.9610
-4.2012 8.5492 -2.8518 0.9610
-4.9752 8.1904 -2.8690 0.9608
-6.6343 7.5015 -2.9981 0.9590
-7.2716 6.8774 -2.9964 0.9591
-8.3666 5.4732 -2.9932 0.9591
-8.8160 4.7044 -2.9916 0.9591
-9.1950 3.8991 -2.9901 0.9592
-9.7316 2.2049 -2.9873 0.9592
-9.8850 1.3295 -2.9860 0.9592
-9.9567 -0.4439 -2.9838 0.9592
-9.8746 -1.3280 -2.9829 0.9593
-9.4779 -3.0562 -2.9814 0.9593
-9.1666 -3.8870 -2.9808 0.9593
-8.3304 -5.4495 -2.9802 0.9593
-7.8120 -6.1691 -2.9801 0.9593
-7.2320 -6.8400 -2.9801 0.9593
-6.5949 -7.4570 -2.9803 0.9593
-4.3908 -8.9350 -2.9805 0.9593
-1.8479 -9.6401 -2.9386 0.9598
-0.9831 -9.7722 -2.9404 0.9598
-0.1095 -9.8278 -2.9424 0.9598
0.7663 -9.8064 -2.9448 0.9598
2.4976 -9.5331 -2.9504 0.9597
3.3396 -9.2826 -2.9534 0.9596
4.1571 -8.9583 -2.9566 0.9596
4.9435 -8.5624 -2.9600 0.9596
5.6927 -8.0980 -2.9635 0.9595
6.3986 -7.5682 -2.9670 0.9595
8.6798 -4.8832 -2.9816 0.9593
9.0912 -4.0963 -2.9853 0.9592
9.6967 -2.4253 -2.9924 0.9591
9.8853 -1.5544 -2.9958 0.9591
9.8449 2.0011 -3.0076 0.9589
9.3481 3.7205 -3.0121 0.9589
8.5550 5.3281 -3.0173 0.9588
6.1573 7.9782 -3.0171 0.9588
5.4219 8.4933 -3.0167 0.9588
2.8327 9.1317 -2.8624 0.9609
2.0096 9.3518 -2.8636 0.9608
1.1696 9.4968 -2.8646 0.9608
0.3196 9.5584 -2.8632 0.9609
-0.5322 9.5446 -2.8619 0.9609
-1.3790 9.4554 -2.8607 0.9609
-2.2142 9.2912 -2.8595 0.9609
-3.0295 9.0486 -2.8568 0.9609
-3.8185 8.7331 -2.8535 0.9610
-4.5751 8.3486 -2.8501 0.9610
-6.2953 7.7918 -2.9989 0.9590
-7.5686 6.5448 -2.9956 0.9591
-8.1167 5.8421 -2.9940 0.9591
-9.0145 4.3059 -2.9908 0.9591
-9.3573 3.4847 -2.9894 0.9592
-9.8180 1.7688 -2.9866 0.9592
-9.9324 0.8876 -2.9854 0.9592
-9.2451 -1.6656 -2.9834 0.9613
-9.0581 -2.4812 -2.9827 0.9614
-8.7996 -3.2770 -2.9821 0.9614
-8.4717 -4.0466 -2.9817 0.9614
-6.5260 -6.7477 -2.9812 0.9614
-3.7449 -8.5648 -2.9687 0.9615
-2.9400 -8.7814 -2.9410 0.9619
-0.5160 -9.2534 -2.9433 0.9619
0.3099 -9.2691 -2.9454 0.9618
2.7549 -8.8811 -2.9531 0.9617
3.5380 -8.6093 -2.9560 0.9617
4.2948 -8.2689 -2.9592 0.9616
5.0191 -7.8624 -2.9624 0.9616
5.7054 -7.3927 -2.9657 0.9616
6.3480 -6.8634 -2.9691 0.9615
8.3831 -4.2362 -2.9830 0.9613
8.7370 -3.4772 -2.9864 0.9613
9.0220 -2.6888 -2.9898 0.9613
9.2356 -1.8772 -2.9931 0.9612
9.4314 0.6314 -3.0020 0.9611
9.3459 1.4696 -3.0046 0.9611
8.9506 3.1080 -3.0091 0.9610
8.6437 3.8947 -3.0109 0.9610
8.2671 4.6510 -3.0125 0.9610
6.7535 6.6787 -3.0164 0.9609
6.1318 7.2527 -3.0162 0.9609
5.4613 7.7688 -3.0159 0.9609
4.7474 8.2227 -3.0154 0.9609
3.0495 8.4762 -2.8608 0.9629
1.4993 8.8882 -2.8626 0.9629
0.7023 8.9879 -2.8631 0.9629
-5.6028 7.6042 -2.9997 0.9611
-6.2540 7.0716 -2.9981 0.9612
-7.4011 5.8446 -2.9950 0.9612
-8.3118 4.4353 -2.9920 0.9612
-8.9581 2.8887 -2.9892 0.9613
-9.3918 0.4188 -2.9856 0.9613
-9.3887 -0.4186 -2.9847 0.9613
-8.9376 -2.8820 -2.9824 0.9614
-8.6442 -3.6654 -2.9819 0.9614
-8.2826 -4.4197 -2.9815 0.9614
-7.3669 -5.8175 -2.9811 0.9614
-6.8199 -6.4502 -2.9812 0.9614
-6.2191 -7.0320 -2.9813 0.9614
-4.8750 -8.0253 -2.9821 0.9614
-2.5445 -8.8985 -2.9393 0.9619
-1.7432 -9.0940 -2.9407 0.9619
-0.9274 -9.2183 -2.9424 0.9619
0.7228 -9.2497 -2.9465 0.9618
1.5444 -9.1562 -2.9489 0.9618
2.3555 -8.9906 -2.9517 0.9617
4.6614 -8.0737 -2.9608 0.9616
5.3674 -7.6352 -2.9640 0.9616
6.0325 -7.1353 -2.9674 0.9615
7.2187 -5.9664 -2.9743 0.9615
7.7301 -5.3064 -2.9777 0.9614
8.1813 -4.6027 -2.9812 0.9614
8.5685 -3.8608 -2.9847 0.9613
8.8883 -3.0863 -2.9881 0.9613
9.3150 -1.4647 -2.9947 0.9612
6.2261 -0.4168 -1.9817 0.9742
9.3981 1.0513 -3.0033 0.9611
8.4640 4.2771 -3.0117 0.9610
8.0620 5.0211 -3.0163 0.9609
7.5835 5.7190 -3.0165 0.9609
7.0444 6.3713 -3.0165 0.9609
5.1094 8.0037 -3.0156 0.9609
4.3759 8.4252 -3.0151 0.9609
2.6692 8.6046 -2.8611 0.9629
1.1020 8.9472 -2.8629 0.9629
0.3012 9.0092 -2.8628 0.9629
-1.2998 8.9122 -2.8603 0.9629
-2.0864 8.7549 -2.8583 0.9629
-2.8545 8.5258 -2.8554 0.9630
-3.5981 8.2291 -2.8523 0.9630
-4.3119 7.8683 -2.8495 0.9630
-5.2598 7.8483 -3.0005 0.9611
-6.5611 6.7842 -2.9973 0.9612
-7.1352 6.1701 -2.9958 0.9612
-7.6522 5.5077 -2.9942 0.9612
-8.1079 4.8023 -2.9927 0.9612
-8.4990 4.0597 -2.9913 0.9612
-9.3655 0.8369 -2.9862 0.9613
-8.8870 0.0000 -2.9859 0.9632
-8.0103 -3.8262 -2.9826 0.9632
-7.2039 -5.1850 -2.9821 0.9632
-6.7137 -5.8056 -2.9821 0.9632
-6.1706 -6.3803 -2.9822 0.9632
-5.5786 -6.9047 -2.9824 0.9632
-4.2672 -7.7866 -2.9833 0.9632
-3.5529 -8.1256 -2.9796 0.9633
0.2931 -8.7665 -2.9470 0.9637
1.0730 -8.7120 -2.9492 0.9636
1.8456 -8.5889 -2.9516 0.9636
2.6052 -8.3979 -2.9542 0.9636
4.0607 -7.8181 -2.9599 0.9635
4.7453 -7.4333 -2.9630 0.9635
6.5618 -5.9347 -2.9726 0.9634
7.5269 -4.6878 -2.9793 0.9633
8.2570 -3.2862 -2.9858 0.9632
8.5258 -2.5409 -2.9890 0.9632
8.9205 -0.1988 -2.9979 0.9630
8.9107 0.5965 -3.0005 0.9630
8.8294 1.3884 -3.0030 0.9630
8.1651 3.6791 -3.0090 0.9629
7.3994 5.0795 -3.0155 0.9628
6.9181 5.7180 -3.0155 0.9628
4.4860 7.7701 -3.0145 0.9628
3.7759 8.1370 -3.0139 0.9629
2.1576 8.2354 -2.8603 0.9647
1.4164 8.3969 -2.8611 0.9647
0.6635 8.4905 -2.8613 0.9647
-0.0949 8.5148 -2.8610 0.9647
-2.3366 8.1716 -2.8555 0.9648
-3.0516 7.9234 -2.8527 0.9648
-4.6374 7.6343 -3.0011 0.9630
-5.2959 7.1877 -2.9996 0.9630
-5.9117 6.6845 -2.9981 0.9630
-7.4567 4.8779 -2.9938 0.9631
-8.8122 1.1851 -2.9874 0.9632
-8.8768 -0.3958 -2.9854 0.9632
-8.4507 -2.7250 -2.9833 0.9632
-7.4279 -4.8591 -2.9822 0.9632
-6.9657 -5.5007 -2.9821 0.9632
-6.4485 -6.0990 -2.9821 0.9632
-4.6095 -7.5881 -2.9830 0.9632
-3.1606 -8.2063 -2.9546 0.9636
-0.8771 -8.7189 -2.9442 0.9637
0.6836 -8.7479 -2.9481 0.9637
1.4606 -8.6590 -2.9504 0.9636
2.2274 -8.5019 -2.9529 0.9636
2.9780 -8.2774 -2.9556 0.9636
3.7065 -7.9872 -2.9584 0.9635
5.0744 -7.2184 -2.9645 0.9635
8.3997 -2.9167 -2.9874 0.9632
8.8790 0.9933 -3.0018 0.9630
8.7622 1.7810 -3.0041 0.9630
8.5749 2.5556 -3.0062 0.9629
7.6181 4.7446 -3.0154 0.9628
6.6565 6.0205 -3.0155 0.9628
5.4828 7.1043 -3.0151 0.9628
2.5219 8.1297 -2.8598 0.9647
1.7888 8.3246 -2.8607 0.9647
0.2846 8.5113 -2.8612 0.9647
-0.4740 8.5009 -2.8606 0.9647
-1.2281 8.4207 -2.8591 0.9647
-1.9712 8.2714 -2.8569 0.9648
-6.2020 6.4129 -2.9974 0.9631
-8.5806 2.3505 -2.9891 0.9632
-8.7523 1.5768 -2.9880 0.9632
-8.8547 0.7913 -2.9869 0.9632
-8.4226 0.0000 -2.9865 0.9649
-8.3868 -0.7494 -2.9857 0.9649
-8.2848 -1.4926 -2.9850 0.9649
-8.1174 -2.2236 -2.9843 0.9649
-7.5922 -3.6265 -2.9834 0.9649
-6.8279 -4.9144 -2.9830 0.9649
-5.8485 -6.0473 -2.9831 0.9649
-4.6845 -6.9897 -2.9836 0.9649
-3.3721 -7.7123 -2.9847 0.9649
-1.9245 -8.0755 -2.9437 0.9654
-1.1986 -8.2186 -2.9450 0.9654
-0.4627 -8.2972 -2.9467 0.9653
1.0172 -8.2588 -2.9506 0.9653
1.7496 -8.1417 -2.9529 0.9653
3.8486 -7.4099 -2.9607 0.9652
4.4972 -7.0448 -2.9636 0.9652
5.1116 -6.6232 -2.9666 0.9651
5.6866 -6.1483 -2.9696 0.9651
6.7008 -5.0533 -2.9759 0.9650
7.5064 -3.7931 -2.9822 0.9649
8.0766 -2.4071 -2.9883 0.9649
8.2668 -1.6803 -2.9912 0.9648
8.3915 -0.9387 -2.9941 0.9648
8.4492 -0.1883 -2.9967 0.9648
8.3621 1.3149 -3.0015 0.9647
8.2177 2.0554 -3.0036 0.9647
7.4091 4.1683 -3.0144 0.9646
7.0091 4.8115 -3.0146 0.9646
4.8885 6.9539 -3.0141 0.9646
4.2495 7.3604 -3.0136 0.9646
3.5769 7.7080 -3.0131 0.9646
1.3414 7.9521 -2.8596 0.9664
-0.8069 8.0205 -2.8583 0.9664
-1.5166 7.9122 -2.8566 0.9664
-2.2131 7.7396 -2.8543 0.9664
-3.6679 7.4639 -2.9489 0.9653
-5.0179 6.8104 -2.9996 0.9647
-5.6015 6.3338 -2.9982 0.9648
-6.1402 5.8074 -2.9968 0.9648
-7.7669 3.2935 -2.9914 0.9648
-8.0260 2.5881 -2.9902 0.9648
-8.3515 1.1232 -2.9880 0.9649
-8.3440 -1.1221 -2.9853 0.9649
-8.0095 -2.5827 -2.9841 0.9649
-7.0402 -4.6055 -2.9831 0.9649
-6.6021 -5.2137 -2.9830 0.9649
-5.5735 -6.3020 -2.9832 0.9649
-4.9909 -6.7737 -2.9834 0.9649
-4.3688 -7.1920 -2.9838 0.9649
-3.7120 -7.5536 -2.9843 0.9649
-1.5632 -8.1550 -2.9443 0.9654
-0.8316 -8.2660 -2.9458 0.9654
-0.0926 -8.3121 -2.9476 0.9653
1.3846 -8.2084 -2.9517 0.9653
2.1114 -8.0590 -2.9541 0.9653
4.8090 -6.8409 -2.9651 0.9651
5.4043 -6.3922 -2.9681 0.9651
5.9580 -5.8920 -2.9712 0.9651
6.4656 -5.3439 -2.9743 0.9650
7.3262 -4.1216 -2.9806 0.9650
8.3374 -1.3110 -2.9927 0.9648
8.4528 0.1884 -2.9980 0.9648
8.4092 0.9407 -3.0004 0.9647
8.2983 1.6867 -3.0026 0.9647
8.1206 2.4202 -3.0046 0.9647
5.1937 6.7297 -3.0142 0.9646
1.6941 7.8838 -2.8593 0.9664
0.9858 8.0044 -2.8597 0.9664
-1.1630 7.9745 -2.8575 0.9664
-1.8669 7.8338 -2.8555 0.9664
-3.2206 7.3655 -2.8504 0.9665
-4.0683 7.4237 -3.0017 0.9647
-5.8768 6.0765 -2.9975 0.9648
-6.3913 5.5268 -2.9961 0.9648
-6.8547 4.9337 -2.9947 0.9648
-7.2634 4.3021 -2.9934 0.9648
-8.1317 2.2275 -2.9896 0.9649
-8.2946 1.4944 -2.9885 0.9649
-8.3918 0.7499 -2.9875 0.9649
-7.9997 0.0000 -2.9872 0.9664
-7.9658 -0.7118 -2.9864 0.9664
-7.4902 -2.7894 -2.9846 0.9664
-6.8755 -4.0723 -2.9839 0.9665
-6.4854 -4.6679 -2.9838 0.9665
-5.0222 -6.2160 -2.9841 0.9665
-4.4495 -6.6391 -2.9844 0.9665
-3.8415 -7.0098 -2.9848 0.9664
-3.2029 -7.3252 -2.9854 0.9664
-2.5134 -7.5071 -2.9562 0.9668
-1.8285 -7.6725 -2.9453 0.9669
1.6620 -7.7343 -2.9540 0.9668
2.3456 -7.5616 -2.9563 0.9668
3.0119 -7.3290 -2.9588 0.9667
4.2714 -6.6910 -2.9642 0.9667
5.9047 -5.3404 -2.9729 0.9666
6.3630 -4.7985 -2.9759 0.9665
6.7716 -4.2174 -2.9789 0.9665
7.8480 -1.5951 -2.9905 0.9664
7.9659 -0.8911 -2.9931 0.9664
8.0204 -0.1787 -2.9956 0.9663
8.0108 0.5363 -2.9980 0.9663
7.9371 1.2480 -3.0002 0.9663
7.7997 1.9509 -3.0022 0.9663
7.3385 3.3066 -3.0056 0.9662
7.0337 3.9571 -3.0136 0.9661
6.6540 4.5678 -3.0138 0.9661
6.2212 5.1420 -3.0138 0.9661
4.6408 6.6017 -3.0133 0.9661
3.3957 7.3176 -3.0123 0.9661
2.7303 7.5892 -3.0117 0.9661
-0.0853 7.6526 -2.8577 0.9679
-2.1007 7.3464 -2.8532 0.9679
-2.7439 7.1245 -2.8508 0.9679
-4.1722 6.8685 -3.0009 0.9663
-4.7649 6.4670 -2.9995 0.9663
-7.0715 3.7735 -2.9930 0.9664
-7.6225 2.4580 -2.9906 0.9664
-7.9319 1.0668 -2.9885 0.9664
-7.9929 0.3564 -2.9876 0.9664
-7.9906 -0.3563 -2.9867 0.9664
-7.7972 -1.7666 -2.9853 0.9664
-7.6076 -2.4531 -2.9848 0.9664
-7.3580 -3.1200 -2.9844 0.9665
-7.0503 -3.7621 -2.9840 0.9665
-6.6871 -4.3744 -2.9838 0.9665
-6.2710 -4.9521 -2.9838 0.9665
-5.8054 -5.4907 -2.9838 0.9665
-5.2939 -5.9859 -2.9839 0.9665
-4.7405 -6.4339 -2.9842 0.9665
-4.1496 -6.8311 -2.9846 0.9664
-2.8677 -7.4457 -2.9794 0.9665
-2.1717 -7.5951 -2.9498 0.9668
-1.4852 -7.7480 -2.9459 0.9669
-0.7901 -7.8533 -2.9473 0.9669
-0.0880 -7.8969 -2.9490 0.9668
0.6156 -7.8783 -2.9508 0.9668
2.6813 -7.4527 -2.9576 0.9667
3.3369 -7.1907 -2.9601 0.9667
6.1398 -5.0746 -2.9744 0.9666
6.5737 -4.5126 -2.9774 0.9665
7.5548 -2.6233 -2.9863 0.9664
8.0236 0.1788 -2.9969 0.9663
7.8763 1.6010 -3.0012 0.9663
7.7074 2.2971 -3.0031 0.9662
7.1876 3.6321 -3.0071 0.9662
6.4440 4.8597 -3.0138 0.9661
5.4801 5.9250 -3.0137 0.9661
4.9306 6.3888 -3.0135 0.9661
4.3419 6.8014 -3.0131 0.9661
3.7186 7.1597 -3.0126 0.9661
0.9356 7.5969 -2.8582 0.9678
0.2558 7.6495 -2.8580 0.9678
-0.4260 7.6402 -2.8573 0.9679
-2.4248 7.2426 -2.8520 0.9679
-3.1404 7.1823 -2.9271 0.9671
-3.8630 7.0491 -3.0015 0.9663
-4.4731 6.6743 -3.0002 0.9663
-5.0471 6.2469 -2.9989 0.9663
-7.5068 2.7956 -2.9912 0.9664
-7.7230 2.1156 -2.9901 0.9664
-7.5804 -0.6774 -2.9870 0.9678
-7.4884 -1.3491 -2.9863 0.9678
-6.8627 -3.2780 -2.9849 0.9678
-6.5431 -3.8755 -2.9846 0.9679
-5.7520 -4.9739 -2.9845 0.9679
-5.2866 -5.4663 -2.9846 0.9679
-4.2344 -6.3181 -2.9851 0.9678
-2.3998 -7.1678 -2.9667 0.9680
-1.7418 -7.3090 -2.9489 0.9682
-0.4184 -7.5034 -2.9494 0.9682
0.9197 -7.4677 -2.9530 0.9682
1.5818 -7.3613 -2.9550 0.9682
2.8664 -6.9750 -2.9596 0.9681
4.0647 -6.3672 -2.9648 0.9681
4.6195 -5.9856 -2.9675 0.9680
5.1387 -5.5559 -2.9702 0.9680
5.6182 -5.0813 -2.9730 0.9680
6.0539 -4.5655 -2.9759 0.9679
6.4424 -4.0123 -2.9787 0.9679
7.2940 -2.1738 -2.9871 0.9678
7.4651 -1.5173 -2.9897 0.9678
7.5769 -0.8476 -2.9923 0.9678
7.6284 -0.1700 -2.9947 0.9677
7.5486 1.1870 -2.9990 0.9677
7.4177 1.8553 -3.0009 0.9677
5.9176 4.8911 -3.0131 0.9675
5.4587 5.3982 -3.0130 0.9675
4.9563 5.8623 -3.0129 0.9676
4.4144 6.2796 -3.0126 0.9676
3.8375 6.6467 -3.0122 0.9676
3.2301 6.9607 -3.0117 0.9676
2.5972 7.2191 -3.0111 0.9676
-0.0811 7.2773 -2.8563 0.9692
-1.3690 7.1418 -2.8540 0.9692
-1.9979 6.9870 -2.8521 0.9693
-3.9695 6.5347 -3.0008 0.9677
-4.5334 6.1529 -2.9995 0.9677
-5.5478 5.2471 -2.9970 0.9677
-5.9903 4.7305 -2.9957 0.9677
-7.0189 2.9763 -2.9921 0.9678
-7.5480 1.0151 -2.9890 0.9678
-7.5419 -1.0143 -2.9866 0.9678
-7.4201 -1.6812 -2.9860 0.9678
-6.7095 -3.5803 -2.9848 0.9678
-5.9679 -4.7128 -2.9845 0.9679
-4.5114 -6.1229 -2.9849 0.9678
-3.9490 -6.5009 -2.9853 0.9678
-2.0690 -7.2357 -2.9536 0.9682
0.5860 -7.4988 -2.9520 0.9682
1.9089 -7.2862 -2.9561 0.9682
3.1756 -6.8432 -2.9609 0.9681
3.7753 -6.5391 -2.9634 0.9681
4.8838 -5.7766 -2.9688 0.9680
5.8417 -4.8283 -2.9745 0.9680
6.6179 -3.7232 -2.9802 0.9679
7.1866 -2.4954 -2.9857 0.9678
7.3868 -1.8475 -2.9884 0.9678
7.3299 2.1845 -3.0018 0.9677
6.5164 4.0585 -3.0130 0.9676
5.6938 5.1498 -3.0131 0.9675
4.6900 6.0770 -3.0127 0.9676
2.2728 7.3268 -3.0107 0.9676
1.5294 7.1171 -2.8570 0.9692
-1.0498 7.1977 -2.8548 0.9692
-3.0650 7.0099 -3.0026 0.9677
-4.2558 6.3500 -3.0001 0.9677
-6.1938 4.4581 -2.9951 0.9677
-6.5634 3.8875 -2.9939 0.9678
-6.8806 3.2866 -2.9927 0.9678
-7.3489 2.0131 -2.9905 0.9678
-7.4964 1.3505 -2.9895 0.9678
-7.5845 0.6778 -2.9886 0.9678
-7.2569 0.0000 -2.9882 0.9691
-7.2263 -0.6457 -2.9875 0.9691
-4.5563 -5.6394 -2.9854 0.9691
-4.0367 -6.0231 -2.9857 0.9691
-2.2965 -6.8593 -2.9786 0.9692
-1.6625 -6.9760 -2.9530 0.9695
-1.0336 -7.0872 -2.9493 0.9695
0.8769 -7.1200 -2.9540 0.9694
2.7327 -6.6496 -2.9604 0.9694
3.3164 -6.3851 -2.9628 0.9694
3.8748 -6.0697 -2.9653 0.9693
4.4034 -5.7057 -2.9678 0.9693
5.3549 -4.8432 -2.9732 0.9692
6.4618 -3.2653 -2.9813 0.9692
7.2197 -0.8076 -2.9915 0.9691
7.2685 -0.1620 -2.9938 0.9690
7.2593 0.4860 -2.9959 0.9690
7.1920 1.1309 -2.9979 0.9690
6.8854 2.3909 -3.0014 0.9690
6.3754 3.5868 -3.0122 0.9689
5.6388 4.6606 -3.0124 0.9688
3.6567 6.3337 -3.0115 0.9689
2.4749 6.8793 -3.0105 0.9689
1.1665 6.9154 -2.8878 0.9701
0.5402 6.9132 -2.8554 0.9704
-0.0772 6.9329 -2.8550 0.9705
-0.6938 6.8964 -2.8541 0.9705
-1.3042 6.8041 -2.8528 0.9705
-2.6211 6.8055 -3.0030 0.9689
-4.3208 5.8643 -2.9995 0.9690
-4.8236 5.4542 -2.9982 0.9690
-5.2878 5.0012 -2.9970 0.9690
-6.4137 3.4225 -2.9935 0.9690
-6.9139 2.2295 -2.9914 0.9691
-7.0826 1.6047 -2.9904 0.9691
-7.1951 0.9677 -2.9895 0.9691
-7.2506 0.3233 -2.9886 0.9691
-7.0736 -1.6026 -2.9866 0.9691
-6.9017 -2.2255 -2.9861 0.9691
-6.6754 -2.8306 -2.9857 0.9691
-6.3963 -3.4131 -2.9854 0.9691
-6.0667 -3.9686 -2.9852 0.9691
-5.6893 -4.4928 -2.9851 0.9691
-5.2669 -4.9813 -2.9852 0.9691
-4.3007 -5.8370 -2.9855 0.9691
-3.1985 -6.5088 -2.9863 0.9691
-2.6070 -6.7689 -2.9869 0.9691
-1.9750 -6.9071 -2.9582 0.9694
-0.0798 -7.1670 -2.9514 0.9695
0.5587 -7.1498 -2.9531 0.9695
1.8199 -6.9467 -2.9570 0.9694
3.0274 -6.5238 -2.9616 0.9694
4.6553 -5.5063 -2.9692 0.9693
6.6038 -2.9755 -2.9826 0.9692
7.2712 0.1621 -2.9949 0.9690
7.2329 0.8091 -2.9969 0.9690
7.1367 1.4506 -2.9988 0.9690
6.7737 2.6959 -3.0021 0.9690
5.4256 4.9072 -3.0124 0.9688
4.4691 5.7908 -3.0121 0.9689
3.9355 6.1649 -3.0118 0.9689
3.3707 6.4898 -3.0113 0.9689
2.7792 6.7629 -3.0108 0.9689
1.5164 7.0567 -2.9721 0.9693
0.8477 6.8831 -2.8557 0.9704
0.2317 6.9301 -2.8553 0.9705
-1.6056 6.7374 -2.8520 0.9705
-3.5027 6.3917 -3.0013 0.9690
-4.5768 5.6648 -2.9989 0.9690
-5.0608 5.2328 -2.9976 0.9690
-5.5042 4.7597 -2.9964 0.9690
-5.9037 4.2493 -2.9953 0.9690
-7.1459 1.2874 -2.9899 0.9691
-7.2300 0.6461 -2.9890 0.9691
-6.8995 -0.6165 -2.9880 0.9703
-6.4881 -2.4162 -2.9865 0.9703
-5.2357 -4.5275 -2.9858 0.9703
-4.3504 -5.3845 -2.9860 0.9703
-3.3275 -6.0719 -2.9867 0.9703
-2.7743 -6.3450 -2.9871 0.9703
-2.1973 -6.5630 -2.9855 0.9703
-1.5889 -6.6671 -2.9565 0.9706
0.2288 -6.8427 -2.9533 0.9706
0.8374 -6.7991 -2.9550 0.9706
1.4401 -6.7019 -2.9569 0.9706
2.6093 -6.3493 -2.9611 0.9705
3.1665 -6.0966 -2.9634 0.9705
3.6995 -5.7952 -2.9657 0.9705
4.2041 -5.4474 -2.9682 0.9705
4.6762 -5.0559 -2.9707 0.9704
5.1121 -4.6236 -2.9733 0.9704
5.5081 -4.1538 -2.9759 0.9704
5.8611 -3.6503 -2.9785 0.9704
6.1681 -3.1168 -2.9810 0.9703
6.4265 -2.5576 -2.9836 0.9703
6.6341 -1.9772 -2.9861 0.9703
6.8904 -0.7708 -2.9908 0.9702
6.9367 -0.1545 -2.9929 0.9702
6.9277 0.4638 -2.9950 0.9702
6.3615 2.8664 -3.0098 0.9701
6.0848 3.4233 -3.0116 0.9700
5.3818 4.4482 -3.0118 0.9700
4.9644 4.9095 -3.0117 0.9700
4.5075 5.3316 -3.0116 0.9700
2.9378 6.3307 -3.0105 0.9701
1.7681 6.7487 -3.0093 0.9701
1.1601 6.8776 -3.0086 0.9701
-1.2517 6.5300 -2.8680 0.9715
-3.0691 6.2454 -3.0017 0.9701
-3.6114 5.9453 -3.0006 0.9702
-4.1247 5.5980 -2.9994 0.9702
-5.0480 4.7744 -2.9971 0.9702
-6.1231 3.2674 -2.9938 0.9702
-6.3874 2.7085 -2.9927 0.9702
-6.6009 2.1285 -2.9917 0.9702
-6.7620 1.5321 -2.9908 0.9702
-6.7538 -1.5302 -2.9871 0.9703
-6.5897 -2.1249 -2.9867 0.9703
-6.1072 -3.2589 -2.9860 0.9703
-5.4322 -4.2897 -2.9858 0.9703
-5.0289 -4.7562 -2.9858 0.9703
-4.5858 -5.1852 -2.9859 0.9703
-3.5944 -5.9172 -2.9865 0.9703
-2.4891 -6.4629 -2.9874 0.9703
-1.8913 -6.6141 -2.9674 0.9705
-1.2885 -6.7220 -2.9524 0.9706
-0.6848 -6.8070 -2.9511 0.9706
0.5335 -6.8277 -2.9541 0.9706
1.1398 -6.7572 -2.9559 0.9706
2.8906 -6.2291 -2.9622 0.9705
3.4363 -5.9518 -2.9645 0.9705
4.8989 -4.8446 -2.9720 0.9704
5.3153 -4.3932 -2.9746 0.9704
6.0205 -3.3871 -2.9798 0.9704
6.3035 -2.8402 -2.9823 0.9703
6.5367 -2.2698 -2.9848 0.9703
6.8466 -1.0766 -2.9896 0.9703
6.6638 1.9860 -2.9994 0.9702
6.4637 2.5725 -3.0009 0.9701
3.2171 6.1941 -3.0107 0.9701
2.6526 6.4548 -3.0102 0.9701
2.0672 6.6639 -3.0096 0.9701
0.2217 6.6297 -2.8613 0.9715
-0.3683 6.6053 -2.8537 0.9716
-0.9544 6.5442 -2.8527 0.9716
-1.5650 6.5670 -2.9120 0.9710
-3.8719 5.7773 -3.0000 0.9702
-4.3691 5.4077 -2.9989 0.9702
-4.8312 4.9954 -2.9977 0.9702
-5.2546 4.5439 -2.9965 0.9702
-5.6361 4.0566 -2.9954 0.9702
-5.9725 3.5376 -2.9943 0.9702
-6.5006 2.4209 -2.9922 0.9702
-6.8225 1.2292 -2.9903 0.9703
-6.5969 -0.5895 -2.9885 0.9714
-6.5170 -1.1741 -2.9879 0.9714
-6.3855 -1.7491 -2.9874 0.9714
-5.9728 -2.8529 -2.9867 0.9714
-5.6947 -3.3730 -2.9865 0.9714
-5.3717 -3.8663 -2.9863 0.9714
-5.0062 -4.3290 -2.9863 0.9714
-4.6012 -4.7575 -2.9864 0.9714
-4.1597 -5.1485 -2.9866 0.9714
-3.6853 -5.4988 -2.9868 0.9714
-3.1816 -5.8057 -2.9872 0.9714
-0.3643 -6.5340 -2.9528 0.9717
2.4950 -6.0712 -2.9617 0.9716
4.0195 -5.2082 -2.9685 0.9715
5.8961 -2.9794 -2.9808 0.9714
6.1429 -2.4448 -2.9832 0.9714
6.3411 -1.8899 -2.9856 0.9714
6.6297 -0.1477 -2.9922 0.9713
6.6209 0.4432 -2.9941 0.9713
6.5591 1.0314 -2.9960 0.9713
6.4448 1.6120 -2.9976 0.9713
6.0835 2.7411 -3.0108 0.9711
5.5019 3.7768 -3.0112 0.9711
4.7450 4.6925 -3.0112 0.9711
4.3083 5.0959 -3.0110 0.9711
3.3359 5.7780 -3.0104 0.9711
1.1089 6.5739 -3.0082 0.9712
-2.3917 6.2100 -3.0027 0.9712
-2.9339 5.9703 -3.0016 0.9712
-3.4524 5.6834 -3.0005 0.9712
-4.4021 4.9776 -2.9983 0.9713
-4.8259 4.5643 -2.9972 0.9713
-5.8540 3.1238 -2.9940 0.9713
-6.1068 2.5895 -2.9930 0.9713
-6.3110 2.0350 -2.9920 0.9713
-6.4652 1.4648 -2.9911 0.9713
-6.6189 0.2952 -2.9895 0.9713
-5.1941 -4.1017 -2.9863 0.9714
-4.8084 -4.5478 -2.9863 0.9714
-4.3848 -4.9579 -2.9865 0.9714
-3.4369 -5.6578 -2.9870 0.9714
-2.9200 -5.9421 -2.9874 0.9714
-2.3800 -6.1794 -2.9879 0.9714
-1.8149 -6.3470 -2.9786 0.9714
-1.2333 -6.4341 -2.9560 0.9717
-0.6549 -6.5098 -2.9522 0.9717
-0.0729 -6.5453 -2.9535 0.9717
1.6618 -6.3430 -2.9587 0.9716
2.7640 -5.9562 -2.9628 0.9716
3.7820 -5.3800 -2.9673 0.9716
4.2492 -5.0260 -2.9697 0.9715
5.0814 -4.1999 -2.9746 0.9715
5.4396 -3.7341 -2.9771 0.9715
6.2482 -2.1696 -2.9844 0.9714
6.4215 -1.6061 -2.9868 0.9714
6.5439 -1.0289 -2.9890 0.9713
6.6143 -0.4428 -2.9912 0.9713
6.6319 0.1478 -2.9932 0.9713
6.3683 1.8980 -2.9984 0.9713
6.1804 2.4598 -3.0015 0.9712
5.9556 3.0096 -3.0109 0.9711
5.3282 4.0182 -3.0112 0.9711
4.9494 4.4765 -3.0112 0.9711
4.0769 5.2826 -3.0109 0.9711
2.5354 6.1696 -3.0097 0.9712
1.9759 6.3696 -3.0092 0.9712
1.4008 6.5188 -3.0085 0.9712
-0.3630 6.5110 -2.9424 0.9718
-0.9467 6.4909 -2.9598 0.9716
-2.1131 6.3114 -3.0032 0.9712
-2.6655 6.0962 -3.0021 0.9712
-3.1964 5.8326 -3.0011 0.9712
-3.7015 5.5230 -3.0000 0.9712
-4.6186 4.7757 -2.9977 0.9713
-5.3883 3.8783 -2.9956 0.9713
-5.7101 3.3821 -2.9945 0.9713
-6.2151 2.3146 -2.9925 0.9713
-6.3944 1.7516 -2.9916 0.9713
-6.5230 1.1752 -2.9907 0.9713
-6.6000 0.5898 -2.9899 0.9713
-6.3422 0.0000 -2.9896 0.9723
-6.2392 -1.1240 -2.9884 0.9724
-6.1134 -1.6746 -2.9879 0.9724
-5.9393 -2.2118 -2.9875 0.9724
-5.4522 -3.2293 -2.9870 0.9724
-5.1429 -3.7016 -2.9869 0.9724
-3.5283 -5.2645 -2.9873 0.9724
-3.0460 -5.5583 -2.9877 0.9724
-0.3489 -6.2566 -2.9538 0.9727
0.2095 -6.2658 -2.9552 0.9727
0.7667 -6.2256 -2.9568 0.9726
1.3186 -6.1362 -2.9585 0.9726
1.8607 -5.9982 -2.9603 0.9726
2.3887 -5.8127 -2.9623 0.9726
3.3864 -5.3047 -2.9666 0.9726
4.2798 -4.6273 -2.9711 0.9725
4.6784 -4.2314 -2.9735 0.9725
5.0405 -3.8012 -2.9759 0.9725
5.6435 -2.8518 -2.9806 0.9724
5.8795 -2.3400 -2.9829 0.9724
6.0691 -1.8088 -2.9852 0.9724
6.2105 -1.2623 -2.9874 0.9724
6.3447 -0.1414 -2.9915 0.9723
6.3360 0.4242 -2.9933 0.9723
6.1673 1.5426 -2.9967 0.9723
6.0084 2.0863 -2.9981 0.9723
5.2656 3.6147 -3.0106 0.9722
4.1234 4.8771 -3.0105 0.9722
3.1927 5.5299 -3.0099 0.9722
2.1610 6.0065 -3.0090 0.9722
0.4970 6.3599 -3.0070 0.9722
-0.0710 6.3771 -3.0062 0.9722
-0.6382 6.3437 -3.0054 0.9722
-1.7517 6.1262 -3.0035 0.9722
-3.3047 5.4402 -3.0004 0.9722
-4.2139 4.7647 -2.9983 0.9723
-4.9884 3.9393 -2.9962 0.9723
-5.3174 3.4785 -2.9952 0.9723
-6.1893 1.4023 -2.9914 0.9723
-6.2879 0.8456 -2.9906 0.9723
-6.1824 -1.4007 -2.9881 0.9724
-5.8346 -2.4741 -2.9873 0.9724
-5.3028 -3.4689 -2.9869 0.9724
-4.1980 -4.7467 -2.9870 0.9724
-3.2904 -5.4167 -2.9875 0.9724
-2.7956 -5.6888 -2.9879 0.9724
-2.2785 -5.9160 -2.9884 0.9724
-1.1818 -6.1653 -2.9591 0.9726
-0.6271 -6.2335 -2.9532 0.9727
0.4885 -6.2518 -2.9560 0.9727
1.5911 -6.0732 -2.9594 0.9726
2.6462 -5.7025 -2.9633 0.9726
3.1456 -5.4482 -2.9655 0.9726
3.6207 -5.1505 -2.9677 0.9725
4.0679 -4.8115 -2.9700 0.9725
4.4835 -4.4338 -2.9723 0.9725
4.8642 -4.0203 -2.9747 0.9725
5.2069 -3.5743 -2.9770 0.9725
5.5087 -3.0991 -2.9794 0.9724
5.7672 -2.5986 -2.9818 0.9724
5.9802 -2.0766 -2.9841 0.9724
6.3300 -0.4237 -2.9905 0.9723
6.3467 0.1415 -2.9924 0.9723
5.9271 2.3589 -3.0070 0.9722
5.7000 2.8803 -3.0104 0.9722
5.4213 3.3764 -3.0106 0.9722
4.7369 4.2843 -3.0107 0.9722
4.3367 4.6887 -3.0106 0.9722
3.4361 5.3825 -3.0101 0.9722
2.9430 5.6663 -3.0097 0.9722
1.8911 6.0963 -3.0087 0.9722
1.3407 6.2391 -3.0081 0.9722
0.7799 6.3322 -3.0074 0.9722
-0.3550 6.3668 -3.0058 0.9722
-2.0226 6.0411 -3.0030 0.9722
-2.5514 5.8352 -3.0020 0.9722
-3.5431 5.2867 -2.9999 0.9722
-3.9982 4.9486 -2.9988 0.9723
-4.4212 4.5715 -2.9978 0.9723
-6.1216 1.6769 -2.9919 0.9723
-6.0535 -0.5409 -2.9893 0.9733
-5.9803 -1.0774 -2.9888 0.9733
-3.8173 -4.7247 -2.9876 0.9733
-3.3819 -5.0461 -2.9878 0.9733
-2.4342 -5.5672 -2.9886 0.9733
-1.9294 -5.7627 -2.9891 0.9733
-0.8682 -5.9528 -2.9589 0.9735
0.7350 -5.9679 -2.9575 0.9736
2.7784 -5.3494 -2.9649 0.9735
4.4838 -4.0553 -2.9736 0.9734
5.1396 -3.2009 -2.9781 0.9734
5.6342 -2.2423 -2.9826 0.9733
5.8156 -1.7332 -2.9848 0.9733
5.9510 -1.2096 -2.9869 0.9733
6.0391 -0.6756 -2.9889 0.9733
6.0792 -0.1354 -2.9908 0.9733
6.0138 0.9456 -2.9943 0.9732
5.7608 2.0004 -2.9995 0.9732
5.3336 3.0006 -3.0100 0.9731
5.0456 3.4636 -3.0101 0.9731
4.7173 3.8990 -3.0102 0.9731
4.3515 4.3033 -3.0101 0.9731
3.5191 5.0061 -3.0098 0.9731
2.5752 5.5494 -3.0091 0.9731
2.0707 5.7556 -3.0086 0.9731
1.0170 6.0292 -3.0074 0.9731
-0.6115 6.0790 -3.0051 0.9731
-2.1939 5.6963 -3.0023 0.9732
-3.6172 4.9094 -2.9993 0.9732
-4.0385 4.5664 -2.9983 0.9732
-4.4274 4.1874 -2.9973 0.9732
-5.6031 2.3760 -2.9935 0.9732
-5.7907 1.8673 -2.9926 0.9732
-6.0268 0.8105 -2.9910 0.9733
-6.0736 0.2709 -2.9903 0.9733
-6.0229 -0.8100 -2.9890 0.9733
-5.9259 -1.3426 -2.9886 0.9733
-5.7821 -1.8645 -2.9881 0.9733
-5.5926 -2.3714 -2.9878 0.9733
-5.0828 -3.3250 -2.9874 0.9733
-4.4127 -4.1734 -2.9874 0.9733
-4.0238 -4.5498 -2.9875 0.9733
-3.6032 -4.8902 -2.9877 0.9733
-2.6796 -5.4528 -2.9883 0.9733
-2.1840 -5.6705 -2.9888 0.9733
-1.6709 -5.8435 -2.9893 0.9733
-1.1343 -5.9172 -2.9634 0.9735
1.5252 -5.8217 -2.9601 0.9735
3.0150 -5.2221 -2.9659 0.9735
3.4703 -4.9366 -2.9680 0.9735
3.8988 -4.6115 -2.9702 0.9734
4.2970 -4.2494 -2.9724 0.9734
4.9900 -3.4254 -2.9770 0.9734
6.0810 0.1355 -2.9917 0.9733
5.8384 1.7401 -2.9965 0.9732
5.1947 3.2353 -3.0101 0.9731
4.8863 3.6850 -3.0102 0.9731
4.1554 4.4928 -3.0101 0.9731
3.2925 5.1576 -3.0096 0.9731
2.3252 5.6582 -3.0088 0.9731
0.7473 6.0678 -3.0070 0.9731
-1.4157 5.9407 -3.0038 0.9731
-2.9321 5.3504 -3.0009 0.9732
-3.3955 5.0665 -2.9999 0.9732
-3.8317 4.7425 -2.9988 0.9732
-4.2371 4.3812 -2.9978 0.9732
-4.9435 3.5581 -2.9958 0.9732
-5.2389 3.1030 -2.9948 0.9732
-5.4926 2.6236 -2.9939 0.9732
-5.7025 2.1237 -2.9930 0.9732
-6.0562 0.5412 -2.9906 0.9733
-5.7383 -1.0337 -2.9892 0.9741
-5.4626 -2.0343 -2.9884 0.9741
-5.2594 -2.5122 -2.9881 0.9741
-5.0146 -2.9701 -2.9879 0.9741
-2.8015 -5.1121 -2.9886 0.9741
-1.8513 -5.5294 -2.9895 0.9741
-1.3506 -5.6672 -2.9868 0.9742
-0.3210 -5.7560 -2.9555 0.9744
0.1927 -5.7643 -2.9568 0.9744
1.7115 -5.5174 -2.9616 0.9744
2.1971 -5.3464 -2.9634 0.9744
2.6660 -5.1330 -2.9653 0.9743
3.5387 -4.5852 -2.9694 0.9743
4.3018 -3.8908 -2.9737 0.9743
5.5788 -1.6627 -2.9844 0.9742
5.8311 -0.1299 -2.9902 0.9741
5.8229 0.3898 -2.9919 0.9741
5.7682 0.9070 -2.9935 0.9741
5.6673 1.4175 -2.9950 0.9741
5.5384 1.9232 -3.0057 0.9740
5.1162 2.8784 -3.0095 0.9740
4.8400 3.3225 -3.0097 0.9740
2.9347 5.0830 -3.0090 0.9740
0.4568 5.8463 -3.0063 0.9740
-0.0653 5.8623 -3.0056 0.9740
-1.6104 5.6321 -3.0031 0.9740
-2.5819 5.2541 -3.0012 0.9740
-3.4703 4.7100 -2.9993 0.9740
-3.8745 4.3810 -2.9983 0.9741
-4.8896 3.1987 -2.9955 0.9741
-5.3760 2.2797 -2.9937 0.9741
-5.5560 1.7916 -2.9928 0.9741
-5.6919 1.2896 -2.9920 0.9741
-5.6861 -1.2883 -2.9890 0.9741
-5.3663 -2.2755 -2.9883 0.9741
-4.8772 -3.1905 -2.9879 0.9741
-4.5738 -3.6118 -2.9878 0.9741
-3.8611 -4.3658 -2.9879 0.9741
-3.0263 -4.9819 -2.9884 0.9741
-2.0956 -5.4410 -2.9892 0.9741
-1.0912 -5.6928 -2.9717 0.9743
-0.5777 -5.7421 -2.9587 0.9744
-0.0642 -5.7658 -2.9562 0.9744
0.4494 -5.7513 -2.9575 0.9744
1.4636 -5.5865 -2.9607 0.9744
1.9562 -5.4373 -2.9625 0.9744
3.3298 -4.7367 -2.9683 0.9743
4.1227 -4.0770 -2.9726 0.9743
4.4725 -3.6966 -2.9748 0.9743
4.7873 -3.2863 -2.9769 0.9742
5.3018 -2.3889 -2.9813 0.9742
5.7564 -0.9051 -2.9874 0.9741
5.8178 -0.3894 -2.9893 0.9741
3.9861 4.3097 -3.0096 0.9740
3.5865 4.6471 -3.0094 0.9740
2.7052 5.2084 -3.0088 0.9740
0.7169 5.8208 -3.0067 0.9740
0.1959 5.8602 -3.0060 0.9740
-0.8457 5.7990 -3.0044 0.9740
-1.3581 5.6991 -3.0035 0.9740
-1.8595 5.5539 -3.0027 0.9740
-2.3457 5.3647 -3.0017 0.9740
-2.8130 5.1330 -3.0008 0.9740
-5.4714 2.0376 -2.9932 0.9741
-5.7430 1.0347 -2.9917 0.9741
-5.5788 -0.4985 -2.9901 0.9749
-5.4004 -1.4793 -2.9892 0.9749
-4.8164 -2.8527 -2.9884 0.9749
-4.2341 -3.6613 -2.9882 0.9749
-3.5181 -4.3543 -2.9884 0.9749
-2.2434 -5.1306 -2.9894 0.9749
-1.7781 -5.3108 -2.9898 0.9749
0.1851 -5.5371 -2.9576 0.9752
0.6775 -5.5012 -2.9590 0.9752
1.1651 -5.4218 -2.9605 0.9752
2.1103 -5.1352 -2.9639 0.9751
2.5606 -4.9300 -2.9657 0.9751
2.9912 -4.6856 -2.9676 0.9751
4.4506 -3.3564 -2.9758 0.9750
4.7350 -2.9490 -2.9779 0.9750
4.9822 -2.5176 -2.9800 0.9750
5.4813 -1.1141 -2.9860 0.9750
5.5988 -0.1247 -2.9896 0.9749
5.5908 0.3743 -2.9913 0.9749
5.4411 1.3610 -2.9942 0.9749
5.3239 1.8487 -3.0086 0.9748
4.9126 2.7638 -3.0091 0.9748
4.6473 3.1902 -3.0092 0.9748
3.6392 4.3045 -3.0091 0.9748
3.2414 4.6110 -3.0089 0.9748
0.9368 5.5537 -3.0067 0.9748
-0.0627 5.6293 -3.0053 0.9748
-2.0211 5.2477 -3.0021 0.9748
-2.9178 4.8033 -3.0002 0.9748
-3.3327 4.5232 -2.9993 0.9748
-4.0793 3.8582 -2.9974 0.9749
-4.4051 3.4787 -2.9965 0.9749
-4.9492 2.6410 -2.9947 0.9749
-5.1631 2.1894 -2.9939 0.9749
-5.3361 1.7207 -2.9931 0.9749
-5.4667 1.2386 -2.9923 0.9749
-5.5971 0.2496 -2.9909 0.9749
-5.4613 -1.2373 -2.9894 0.9749
-5.3288 -1.7183 -2.9890 0.9749
-5.1542 -2.1855 -2.9887 0.9749
-4.6844 -3.0644 -2.9883 0.9749
-4.3930 -3.4691 -2.9882 0.9749
-4.0668 -3.8463 -2.9883 0.9749
-3.7085 -4.1932 -2.9884 0.9749
-2.9067 -4.7850 -2.9888 0.9749
-2.0127 -5.2259 -2.9896 0.9749
-1.5399 -5.3852 -2.9901 0.9749
-1.0514 -5.4853 -2.9816 0.9750
0.4317 -5.5246 -2.9583 0.9752
0.9222 -5.4669 -2.9597 0.9752
1.8789 -5.2225 -2.9630 0.9751
2.3377 -5.0376 -2.9648 0.9751
3.9594 -3.9155 -2.9727 0.9751
5.0912 -2.2939 -2.9810 0.9750
5.5272 -0.8691 -2.9869 0.9749
5.6004 0.1248 -2.9905 0.9749
5.4951 1.1170 -2.9935 0.9749
5.3817 1.6039 -2.9979 0.9749
5.2366 2.0841 -3.0088 0.9748
4.5006 3.3941 -3.0093 0.9748
4.1807 3.7812 -3.0093 0.9748
3.8274 4.1382 -3.0092 0.9748
3.0326 4.7506 -3.0088 0.9748
2.5975 5.0011 -3.0084 0.9748
1.6691 5.3808 -3.0075 0.9748
1.1834 5.5070 -3.0070 0.9748
0.1881 5.6272 -3.0057 0.9748
-0.8121 5.5686 -3.0042 0.9748
-1.7856 5.3333 -3.0025 0.9748
-2.2526 5.1517 -3.0016 0.9748
-4.2464 3.6721 -2.9970 0.9749
-5.0612 2.4175 -2.9943 0.9749
-5.5157 0.9937 -2.9919 0.9749
-5.5810 0.4987 -2.9912 0.9749
-5.3852 0.0000 -2.9909 0.9757
-5.3629 -0.4792 -2.9904 0.9757
-5.2981 -0.9545 -2.9899 0.9757
-5.1914 -1.4221 -2.9895 0.9757
-5.0437 -1.8783 -2.9892 0.9757
-4.3675 -3.1435 -2.9887 0.9757
-4.0703 -3.5197 -2.9886 0.9757
-3.7410 -3.8681 -2.9887 0.9757
-2.9962 -4.4706 -2.9891 0.9757
-2.1566 -4.9321 -2.9897 0.9757
-1.2483 -5.2380 -2.9907 0.9757
0.1780 -5.3234 -2.9583 0.9759
1.5804 -5.0948 -2.9626 0.9759
2.0288 -4.9367 -2.9643 0.9759
2.4616 -4.7394 -2.9661 0.9759
2.8754 -4.5043 -2.9679 0.9758
3.2670 -4.2332 -2.9699 0.9758
4.9883 -1.9853 -2.9818 0.9757
5.3455 -0.5979 -2.9874 0.9757
5.3727 0.3597 -2.9907 0.9757
5.3220 0.8369 -2.9921 0.9757
4.9387 2.2253 -3.0085 0.9755
4.7213 2.6562 -3.0087 0.9755
3.8520 3.8093 -3.0088 0.9755
3.1152 4.4315 -3.0085 0.9755
1.8331 5.0952 -3.0074 0.9755
0.4216 5.3955 -3.0058 0.9755
-0.0603 5.4104 -3.0051 0.9755
-0.5415 5.3822 -3.0043 0.9756
-1.0181 5.3113 -3.0036 0.9756
-2.3831 4.8496 -3.0011 0.9756
-3.2033 4.3476 -2.9993 0.9756
-3.9211 3.7085 -2.9975 0.9756
-4.7574 2.5386 -2.9949 0.9756
-4.9631 2.1045 -2.9941 0.9756
-5.3388 0.7180 -2.9919 0.9757
-5.3794 -0.2399 -2.9907 0.9757
-4.7478 -2.5335 -2.9888 0.9757
-4.2231 -3.3349 -2.9886 0.9757
-3.9095 -3.6976 -2.9887 0.9757
-3.1923 -4.3326 -2.9889 0.9757
-1.4803 -5.1768 -2.9904 0.9757
0.4150 -5.3114 -2.9589 0.9759
1.8063 -5.0207 -2.9635 0.9759
2.2473 -4.8428 -2.9652 0.9759
3.0742 -4.3731 -2.9689 0.9758
3.4535 -4.0848 -2.9708 0.9758
3.8059 -3.7637 -2.9728 0.9758
4.4189 -3.0334 -2.9768 0.9758
5.3120 -0.8352 -2.9865 0.9757
5.2806 1.0734 -2.9928 0.9756
5.1861 1.5456 -3.0055 0.9755
5.0327 2.0030 -3.0084 0.9755
4.3254 3.2620 -3.0089 0.9755
3.6784 3.9771 -3.0088 0.9755
3.3096 4.2885 -3.0086 0.9755
2.9146 4.5657 -3.0084 0.9755
2.4964 4.8064 -3.0081 0.9755
2.0584 5.0089 -3.0077 0.9755
1.6042 5.1714 -3.0072 0.9755
0.1808 5.4083 -3.0054 0.9755
-0.3012 5.4017 -3.0047 0.9755
-0.7806 5.3521 -3.0040 0.9756
-1.2535 5.2600 -3.0032 0.9756
-1.7162 5.1261 -3.0023 0.9756
-2.1650 4.9516 -3.0015 0.9756
-3.0069 4.4867 -2.9997 0.9756
-3.3933 4.1999 -2.9988 0.9756
-4.0818 3.5296 -2.9970 0.9756
-4.3784 3.1514 -2.9961 0.9756
-4.6402 2.7484 -2.9953 0.9756
-4.8651 2.3239 -2.9945 0.9756
-5.1973 1.4237 -2.9929 0.9756
-5.3649 0.4794 -2.9915 0.9757
-5.0972 -0.9183 -2.9903 0.9764
-4.9946 -1.3682 -2.9899 0.9764
-4.6720 -2.2316 -2.9893 0.9764
-4.4546 -2.6384 -2.9891 0.9764
-4.2019 -3.0243 -2.9890 0.9764
-3.9160 -3.3863 -2.9890 0.9764
-3.5992 -3.7215 -2.9891 0.9764
-2.8826 -4.3012 -2.9894 0.9764
-2.0748 -4.7451 -2.9901 0.9764
-1.6444 -4.9117 -2.9905 0.9764
