ply
format ascii 1.0
element vertex 1589
property float32 x
property float32 y
property float32 z
property float32 I
end_header
4.8804 -0.9920 0.6241 0.9801
4.9858 -0.5578 0.6287 0.9800
4.9134 -0.7726 0.6233 0.9801
5.8041 0.1294 0.7275 0.9769
4.8164 -0.9790 0.5331 0.9804
5.2083 -0.1161 0.5651 0.9793
4.9718 -1.7264 0.5709 0.9790
4.8492 -0.7625 0.5324 0.9804
5.0293 -0.3367 0.5467 0.9799
2.4134 7.7802 0.8836 0.9678
5.1382 -2.0449 0.5070 0.9780
4.8991 -1.7012 0.4754 0.9794
4.9776 -0.3332 0.4574 0.9802
5.0299 -2.0018 0.4057 0.9785
5.0859 -0.1133 0.3812 0.9798
4.7199 -1.1805 0.3646 0.9807
4.7582 -0.7482 0.3610 0.9809
5.3391 0.1190 0.4002 0.9788
2.4133 7.7798 0.6104 0.9679
4.9475 -1.9690 0.3101 0.9789
4.7041 -1.4020 0.2859 0.9805
5.7743 0.3866 0.3371 0.9771
4.7847 -1.6614 0.2950 0.9799
4.6733 -1.1689 0.2806 0.9809
4.7142 -0.7413 0.2779 0.9811
4.8778 -0.3265 0.2847 0.9806
5.2604 0.1172 0.3065 0.9791
4.8914 -1.9467 0.2189 0.9791
4.6728 -1.3926 0.2027 0.9807
4.7450 -0.5308 0.1985 0.9811
4.6439 -1.1615 0.1990 0.9810
4.8454 -0.3244 0.2019 0.9807
4.8515 -1.9309 0.1302 0.9793
4.6469 -1.3849 0.1209 0.9808
4.7206 -0.5281 0.1185 0.9812
4.9546 -0.1104 0.1236 0.9804
5.5327 0.3704 0.1383 0.9781
4.7152 -1.6373 0.1245 0.9802
4.6628 -0.7332 0.1177 0.9813
5.1598 0.1150 0.1287 0.9796
4.6212 -1.3773 0.0401 0.9809
4.6074 -0.9365 0.0391 0.9814
4.6964 -0.5254 0.0393 0.9813
5.4679 0.3660 0.0455 0.9783
5.0959 -2.2961 0.0465 0.9779
4.6852 -1.6269 0.0412 0.9804
4.5936 -1.1489 0.0394 0.9812
4.6391 -0.7295 0.0390 0.9814
4.7738 -1.8999 -0.0427 0.9797
4.8925 -0.1090 -0.0407 0.9806
5.4046 0.3618 -0.0450 0.9786
4.7661 -0.3190 -0.0397 0.9811
2.4130 7.7787 -0.0677 0.9679
4.7554 -1.8926 -0.1276 0.9797
4.5827 -1.3658 -0.1193 0.9810
4.5715 -0.9292 -0.1163 0.9815
5.3744 0.3598 -0.1343 0.9787
5.0580 0.1127 -0.1262 0.9800
4.7429 -1.8876 -0.2122 0.9798
4.5745 -1.3633 -0.1985 0.9811
4.5640 -0.9277 -0.1936 0.9815
4.6519 -0.5204 -0.1946 0.9814
5.3544 0.3584 -0.2231 0.9787
4.6310 -1.6080 -0.2038 0.9806
4.7437 -0.3175 -0.1977 0.9811
5.0450 0.1124 -0.2098 0.9800
4.5564 -0.9261 -0.2708 0.9815
4.8566 -0.1082 -0.2829 0.9807
4.9702 -2.2394 -0.3175 0.9784
4.6214 -1.6047 -0.2849 0.9806
4.5401 -1.1355 -0.2726 0.9814
4.7353 -0.3170 -0.2764 0.9812
2.4128 7.7780 -0.4743 0.9679
4.7180 -1.8777 -0.3805 0.9798
4.5488 -0.9246 -0.3479 0.9816
4.6364 -0.5187 -0.3496 0.9815
5.3145 0.3558 -0.3992 0.9789
4.9524 -2.2314 -0.4071 0.9784
4.6118 -1.6014 -0.3658 0.9806
4.5325 -1.1336 -0.3501 0.9814
4.5802 -0.7202 -0.3475 0.9816
2.4127 7.7778 -0.6103 0.9679
4.7235 -1.8799 -0.4661 0.9798
4.5563 -1.3579 -0.4359 0.9811
4.6330 -0.5183 -0.4274 0.9814
4.9716 -2.2401 -0.4999 0.9783
4.6123 -1.6016 -0.4476 0.9806
4.5295 -1.1329 -0.4280 0.9814
4.7244 -0.3162 -0.4341 0.9812
5.0229 0.1119 -0.4606 0.9800
2.4126 7.7776 -0.7465 0.9678
4.7358 -1.8848 -0.5529 0.9797
4.5644 -1.3604 -0.5166 0.9810
4.6407 -0.5191 -0.5065 0.9814
4.8562 -0.1082 -0.5269 0.9806
5.3524 0.3583 -0.5819 0.9786
4.6218 -1.6049 -0.5307 0.9805
4.5370 -1.1348 -0.5073 0.9814
4.5840 -0.7208 -0.5033 0.9815
4.7329 -0.3168 -0.5145 0.9811
5.0362 0.1122 -0.5464 0.9799
2.4126 7.7774 -0.8832 0.9678
4.7482 -1.8897 -0.6404 0.9796
4.5726 -1.3628 -0.5979 0.9809
4.6485 -0.5200 -0.5862 0.9813
4.8663 -0.1084 -0.6100 0.9806
5.3736 0.3597 -0.6749 0.9785
5.0105 -2.2576 -0.6887 0.9781
4.5916 -0.7220 -0.5825 0.9814
4.5809 -1.3652 -0.6799 0.9809
4.5679 -0.9285 -0.6630 0.9813
4.8765 -0.1087 -0.6938 0.9805
5.4056 0.3619 -0.7706 0.9783
5.0496 -2.2752 -0.7878 0.9779
5.0631 0.1128 -0.7203 0.9797
2.4124 7.7769 -1.1582 0.9676
4.5930 -1.3688 -0.7632 0.9808
4.5756 -0.9300 -0.7435 0.9813
4.8952 -0.1091 -0.7797 0.9804
5.4781 0.3667 -0.8743 0.9780
5.1179 -2.3060 -0.8939 0.9775
4.5611 -1.1408 -0.7487 0.9811
5.0977 0.1136 -0.8119 0.9796
2.4124 7.7767 -1.2966 0.9676
4.8400 -1.9263 -0.9185 0.9791
4.6203 -1.3770 -0.8501 0.9806
5.5529 0.3717 -0.9813 0.9776
5.2553 -2.3679 -1.0164 0.9769
5.1430 0.1146 -0.9071 0.9793
-11.8375 -8.5201 -2.8224 0.9423
4.6480 -1.3852 -0.9386 0.9804
4.7161 -0.5276 -0.9183 0.9809
4.9634 -0.1106 -0.9607 0.9800
5.6594 0.3789 -1.0976 0.9772
-13.9846 -4.5094 -2.8435 0.9419
-13.4146 -5.6883 -2.8197 0.9424
-12.8602 -6.8624 -2.8208 0.9423
-12.2031 -7.9829 -2.8219 0.9423
-11.4463 -9.0390 -2.8225 0.9423
-10.5925 -10.0183 -2.8214 0.9423
4.7256 -1.6409 -0.9681 0.9798
4.6571 -0.7323 -0.9123 0.9810
5.1893 0.1157 -1.0045 0.9791
-14.1210 -0.0000 -2.9770 0.9439
-13.8841 -2.5013 -2.9742 0.9440
-13.6011 -3.7257 -2.9730 0.9440
-10.1244 -8.7549 -2.8218 0.9468
-9.3006 -9.6167 -2.8204 0.9468
-8.8489 -10.9524 -2.9684 0.9441
-0.7739 -13.8785 -2.9304 0.9448
0.4651 -13.9101 -2.9342 0.9447
1.7037 -13.8328 -2.9383 0.9446
6.4661 -12.4495 -2.9575 0.9443
7.5622 -11.8460 -2.9629 0.9442
9.5784 -10.3561 -2.9739 0.9440
11.3003 -8.5220 -2.9838 0.9438
12.0269 -7.4905 -2.9871 0.9437
4.6763 -1.3937 -1.0287 0.9803
4.7427 -0.5305 -1.0061 0.9807
14.1670 2.2277 -3.0234 0.9431
13.5576 4.7077 -3.0256 0.9430
11.8389 8.1270 -3.0274 0.9430
11.0690 9.1488 -3.0275 0.9430
9.2702 10.9648 -3.0270 0.9430
4.6083 12.8090 -2.8698 0.9459
3.4522 13.1771 -2.8717 0.9458
2.2646 13.4255 -2.8703 0.9459
-0.1515 13.5997 -2.8673 0.9459
-2.5573 13.3411 -2.8638 0.9460
-7.0267 11.5676 -2.8533 0.9462
-8.0132 10.8756 -2.8479 0.9463
-11.8704 7.7652 -2.9904 0.9437
-12.5045 6.6726 -2.9880 0.9437
-13.4693 4.3433 -2.9836 0.9438
-14.0072 1.8838 -2.9796 0.9439
-14.1110 0.6292 -2.9778 0.9439
-14.1033 -0.6289 -2.9762 0.9439
-13.7561 -3.1167 -2.9736 0.9440
-12.6741 -5.3742 -2.9022 0.9453
-11.8028 -6.2981 -2.8204 0.9468
-11.1994 -7.3263 -2.8214 0.9468
-10.5052 -8.2958 -2.8220 0.9468
-9.7225 -9.1955 -2.8212 0.9468
-8.8611 -10.0194 -2.8198 0.9468
-8.3018 -11.2672 -2.9505 0.9444
-6.1044 -12.4220 -2.9179 0.9450
-3.8115 -13.3296 -2.9228 0.9449
-2.6124 -13.6287 -2.9255 0.9449
-1.3905 -13.8221 -2.9287 0.9448
2.3199 -13.7533 -2.9404 0.9446
3.5403 -13.5132 -2.9450 0.9445
8.0898 -11.5080 -2.9656 0.9441
9.0990 -10.7624 -2.9711 0.9440
10.9026 -9.0113 -2.9820 0.9438
11.6752 -8.0146 -2.9855 0.9438
12.9520 -5.8359 -2.9949 0.9436
4.7591 -1.6525 -1.0621 0.9796
14.2488 1.5940 -3.0227 0.9431
14.0566 2.8571 -3.0240 0.9430
12.8139 6.4752 -3.0267 0.9430
12.1886 7.5911 -3.0272 0.9430
10.6504 9.6328 -3.0275 0.9430
8.7718 11.3660 -3.0268 0.9430
2.8611 13.3147 -2.8711 0.9458
1.6639 13.5097 -2.8696 0.9459
-4.3084 12.8684 -2.8609 0.9460
-5.4329 12.4254 -2.8590 0.9461
-7.5280 11.2325 -2.8507 0.9462
-8.9404 11.0657 -2.9991 0.9435
-9.8815 10.2174 -2.9966 0.9435
-10.7427 9.2896 -2.9941 0.9436
-12.1996 7.2259 -2.9892 0.9437
-13.2672 4.9407 -2.9846 0.9438
-13.6446 3.7376 -2.9825 0.9438
-14.0730 1.2576 -2.9787 0.9439
-13.0504 0.0000 -2.9786 0.9479
-12.5711 -3.4435 -2.9750 0.9479
-12.2112 -4.5475 -2.9741 0.9479
-10.9823 -6.5048 -2.9133 0.9490
-10.0388 -7.2254 -2.8231 0.9505
-8.1864 -10.1323 -2.9731 0.9480
-5.1305 -11.7337 -2.9230 0.9488
-2.9740 -12.4795 -2.9281 0.9487
-1.8532 -12.7065 -2.9309 0.9487
1.5752 -12.7897 -2.9412 0.9485
4.9199 -11.9719 -2.9543 0.9483
5.9756 -11.5051 -2.9590 0.9482
7.9477 -10.2981 -2.9691 0.9480
8.8474 -9.5656 -2.9740 0.9479
9.6756 -8.7510 -2.9777 0.9479
10.4283 -7.8643 -2.9812 0.9478
4.6816 -0.9516 -1.0904 0.9806
5.0592 -0.1127 -1.1550 0.9795
13.1900 0.8830 -3.0173 0.9472
12.5140 4.3454 -3.0235 0.9471
12.0806 5.4433 -3.0243 0.9471
11.5502 6.4980 -3.0248 0.9471
9.4241 9.3197 -3.0252 0.9471
8.5564 10.1205 -3.0249 0.9471
6.6237 11.4726 -3.0236 0.9471
5.2912 11.4024 -2.8691 0.9497
0.9788 12.5261 -2.8677 0.9498
-3.4465 12.0530 -2.8613 0.9499
-4.5028 11.6911 -2.8595 0.9499
-5.5201 11.2331 -2.8567 0.9499
-6.4870 10.6790 -2.8519 0.9500
-7.6800 10.4233 -2.9551 0.9483
-9.5354 9.0185 -2.9956 0.9476
-11.5531 6.1649 -2.9888 0.9477
-12.4459 4.0133 -2.9847 0.9478
-12.7455 2.8878 -2.9828 0.9478
-12.9442 1.7408 -2.9810 0.9478
-12.9250 -1.7382 -2.9766 0.9479
-11.9950 -5.0863 -2.9737 0.9479
-11.4925 -6.1326 -2.9732 0.9480
-10.4783 -6.8546 -2.8579 0.9499
-9.7018 -7.6614 -2.8216 0.9505
-9.0852 -8.5927 -2.8542 0.9500
-8.6290 -9.7570 -2.9729 0.9480
-5.6468 -11.4909 -2.9223 0.9488
-2.4162 -12.6052 -2.9294 0.9487
-1.2860 -12.7830 -2.9324 0.9487
1.0032 -12.8387 -2.9393 0.9485
2.1448 -12.7155 -2.9432 0.9485
4.3783 -12.1697 -2.9519 0.9483
5.4527 -11.7503 -2.9566 0.9482
6.4876 -11.2368 -2.9615 0.9482
7.4746 -10.6328 -2.9665 0.9481
8.4058 -9.9425 -2.9716 0.9480
10.0611 -8.3158 -2.9792 0.9479
11.4116 -6.4201 -2.9885 0.9477
4.6770 -1.1698 -1.1004 0.9804
4.7132 -0.7411 -1.0890 0.9806
12.6933 3.7830 -3.0231 0.9471
12.3097 4.8991 -3.0239 0.9471
11.8273 5.9766 -3.0246 0.9471
9.8302 8.8909 -3.0252 0.9471
8.0964 10.4908 -3.0246 0.9471
7.1291 11.1675 -3.0240 0.9471
2.4121 7.7758 -1.8582 0.9671
2.6416 12.2931 -2.8699 0.9497
0.4197 12.5541 -2.8670 0.9498
-0.6990 12.5349 -2.8655 0.9498
-2.9070 12.1983 -2.8622 0.9499
-5.0175 11.4753 -2.8586 0.9499
-6.0100 10.9668 -2.8543 0.9500
-8.2579 10.2209 -2.9991 0.9475
-9.9238 8.5814 -2.9945 0.9476
-10.6401 7.6583 -2.9922 0.9476
-11.2711 6.6759 -2.9899 0.9477
-11.8120 5.6421 -2.9878 0.9477
-12.8576 2.3164 -2.9819 0.9478
-13.0053 1.1622 -2.9802 0.9478
-12.1240 0.0000 -2.9801 0.9513
-11.9221 -2.1479 -2.9776 0.9513
-10.9223 -5.2171 -2.9752 0.9514
-9.8220 -7.0694 -2.9746 0.9514
-6.6666 -9.9473 -2.9434 0.9519
-5.7201 -10.4378 -2.9256 0.9522
-4.7702 -10.9097 -2.9267 0.9521
-3.7823 -11.2971 -2.9283 0.9521
-2.7637 -11.5972 -2.9304 0.9521
-1.7223 -11.8092 -2.9334 0.9520
0.3997 -11.9554 -2.9403 0.9519
1.4640 -11.8866 -2.9438 0.9519
2.5194 -11.7243 -2.9476 0.9518
4.5711 -11.1231 -2.9559 0.9517
5.5513 -10.6882 -2.9604 0.9516
6.4903 -10.1669 -2.9648 0.9515
8.9796 -8.1216 -2.9761 0.9514
10.8560 -5.4858 -2.9898 0.9511
5.1932 -2.0668 -1.3739 0.9772
4.7321 -0.9619 -1.1869 0.9803
4.8270 -0.5400 -1.1939 0.9802
5.1296 -0.1143 -1.2612 0.9791
12.1278 1.9071 -3.0177 0.9507
11.9218 2.9818 -3.0206 0.9506
10.7186 6.0302 -3.0229 0.9506
10.1403 6.9610 -3.0232 0.9506
8.7455 8.6487 -3.0233 0.9506
7.0717 10.0597 -3.0225 0.9506
6.1469 10.6468 -3.0218 0.9506
2.9543 11.2766 -2.8653 0.9531
1.9408 11.5060 -2.8681 0.9531
-0.1299 11.6566 -2.8654 0.9531
-2.1923 11.4369 -2.8624 0.9532
-3.1997 11.1901 -2.8608 0.9532
-5.1229 10.4249 -2.8551 0.9533
-7.2402 9.8265 -3.0002 0.9510
-8.0802 9.1364 -2.9980 0.9510
-8.8549 8.3750 -2.9958 0.9510
-11.1901 4.7450 -2.9876 0.9512
-11.5608 3.7279 -2.9857 0.9512
-11.8397 2.6825 -2.9839 0.9512
-12.0248 1.6172 -2.9823 0.9513
-12.1092 -0.5400 -2.9794 0.9513
-11.5240 -3.7160 -2.9762 0.9513
-10.6781 -5.6980 -2.9750 0.9514
-10.1275 -6.6250 -2.9746 0.9514
-8.7920 -8.3154 -2.9745 0.9514
-8.0176 -9.0656 -2.9748 0.9514
-4.2805 -11.1141 -2.9275 0.9521
-2.2453 -11.7135 -2.9316 0.9521
-1.1951 -11.8818 -2.9353 0.9520
1.9933 -11.8171 -2.9457 0.9518
5.0658 -10.9166 -2.9581 0.9516
6.0266 -10.4383 -2.9627 0.9516
6.9413 -9.8742 -2.9668 0.9515
10.5929 -5.9595 -2.9875 0.9512
4.7640 -0.7491 -1.1854 0.9803
4.9470 -0.3312 -1.2187 0.9798
12.0370 2.4466 -3.0192 0.9507
11.4236 4.5465 -3.0221 0.9506
10.4399 6.5021 -3.0231 0.9506
8.3512 9.0293 -3.0231 0.9506
5.6658 10.9086 -3.0214 0.9506
4.4335 10.7884 -2.8670 0.9531
1.4260 11.5781 -2.8674 0.9531
0.3896 11.6536 -2.8661 0.9531
-2.6988 11.3247 -2.8616 0.9532
-4.6570 10.6509 -2.8573 0.9532
-5.5779 10.1783 -2.8529 0.9533
-6.4621 9.6418 -2.8529 0.9533
-8.4761 8.7643 -2.9969 0.9510
-9.2159 7.9693 -2.9948 0.9511
-11.7118 3.2082 -2.9848 0.9512
-11.2648 -1.0066 -2.9801 0.9543
-11.1265 -2.0045 -2.9790 0.9543
-10.9006 -2.9860 -2.9781 0.9543
-10.5889 -3.9433 -2.9774 0.9543
-9.7188 -5.7564 -2.9764 0.9544
-9.1671 -6.5981 -2.9762 0.9544
-8.5433 -7.3877 -2.9761 0.9544
-7.0991 -8.7867 -2.9765 0.9543
-5.3420 -9.7479 -2.9290 0.9551
-4.4548 -10.1883 -2.9300 0.9550
-3.5320 -10.5496 -2.9315 0.9550
-2.5807 -10.8289 -2.9333 0.9550
-1.6078 -11.0242 -2.9356 0.9550
0.3730 -11.1572 -2.9416 0.9549
1.3663 -11.0939 -2.9453 0.9548
2.3513 -10.9421 -2.9491 0.9548
3.3202 -10.7030 -2.9528 0.9547
4.2649 -10.3781 -2.9565 0.9546
5.1781 -9.9696 -2.9602 0.9546
6.0523 -9.4801 -2.9637 0.9545
6.8803 -8.9151 -2.9674 0.9545
7.6575 -8.2792 -2.9716 0.9544
9.0302 -6.8100 -2.9802 0.9543
9.6143 -5.9878 -2.9845 0.9542
10.5529 -4.2000 -2.9928 0.9541
4.8363 -1.4413 -1.3297 0.9793
11.4044 0.7635 -3.0118 0.9538
11.3027 1.7773 -3.0149 0.9538
11.1099 2.7788 -3.0176 0.9537
10.8273 3.7597 -3.0201 0.9537
10.4523 4.7096 -3.0208 0.9537
9.4540 6.4898 -3.0216 0.9537
8.1536 8.0632 -3.0216 0.9537
6.5932 9.3789 -3.0209 0.9537
4.8235 10.3944 -3.0195 0.9537
3.6809 10.2312 -2.8651 0.9560
2.7546 10.5144 -2.8640 0.9560
1.8099 10.7297 -2.8672 0.9560
-2.0446 10.6665 -2.8618 0.9561
-3.8979 10.1207 -2.8577 0.9561
-6.7536 9.1661 -3.0001 0.9540
-8.2606 7.8129 -2.9960 0.9541
-8.9173 7.0419 -2.9940 0.9541
-10.4410 4.4274 -2.9883 0.9542
-10.7873 3.4785 -2.9866 0.9542
-11.0480 2.5031 -2.9849 0.9542
-11.2211 1.5091 -2.9834 0.9542
-11.3007 -0.5039 -2.9807 0.9543
-11.2067 -1.5071 -2.9795 0.9543
-11.0244 -2.4978 -2.9786 0.9543
-10.4017 -4.4107 -2.9771 0.9543
-7.4831 -8.4612 -2.9764 0.9544
-2.0965 -10.9372 -2.9344 0.9550
-1.1156 -11.0897 -2.9369 0.9549
-0.1243 -11.1554 -2.9396 0.9549
0.8702 -11.1367 -2.9435 0.9548
1.8604 -11.0290 -2.9472 0.9548
2.8378 -10.8335 -2.9509 0.9547
6.4717 -9.2062 -2.9653 0.9545
8.0245 -7.9356 -2.9738 0.9544
9.3313 -6.4056 -2.9824 0.9543
9.8784 -5.5575 -2.9866 0.9542
4.9768 -1.7281 -1.3882 0.9784
4.8164 -0.7573 -1.2847 0.9800
5.7184 0.1274 -1.5072 0.9766
11.3650 1.2714 -3.0134 0.9538
11.2176 2.2801 -3.0163 0.9538
10.9797 3.2723 -3.0189 0.9537
10.6506 4.2389 -3.0205 0.9537
9.1557 6.9046 -3.0217 0.9537
8.5048 7.6922 -3.0217 0.9537
7.0050 9.0766 -3.0211 0.9537
2.2867 10.6414 -2.8680 0.9560
0.3633 10.8677 -2.8652 0.9560
-3.4453 10.2906 -2.8595 0.9561
-4.3418 9.9300 -2.8557 0.9562
-6.3408 9.4611 -3.0011 0.9540
-7.1529 8.8532 -2.9991 0.9540
-8.5976 7.4346 -2.9950 0.9541
-9.2191 6.6355 -2.9930 0.9541
-9.7668 5.7849 -2.9911 0.9541
-10.2365 4.8896 -2.9892 0.9542
-10.9285 2.9936 -2.9857 0.9542
-11.2745 1.0075 -2.9827 0.9543
-10.6001 0.0000 -2.9824 0.9569
-10.5540 -0.9431 -2.9813 0.9569
-9.9214 -3.6948 -2.9787 0.9570
-9.1063 -5.3937 -2.9778 0.9570
-8.0050 -6.9221 -2.9775 0.9570
-7.3574 -7.6074 -2.9777 0.9570
-5.8817 -8.7761 -2.9725 0.9570
-5.0135 -9.1485 -2.9352 0.9576
-3.3110 -9.8896 -2.9343 0.9576
-1.5071 -10.3331 -2.9380 0.9575
1.2800 -10.3927 -2.9462 0.9574
2.2023 -10.2486 -2.9493 0.9574
3.1093 -10.0234 -2.9527 0.9573
3.9939 -9.7187 -2.9563 0.9573
4.8492 -9.3363 -2.9600 0.9572
5.6683 -8.8792 -2.9639 0.9572
6.4446 -8.3505 -2.9678 0.9571
7.1719 -7.7543 -2.9718 0.9571
7.8443 -7.0947 -2.9758 0.9570
8.4560 -6.3770 -2.9799 0.9569
9.0022 -5.6066 -2.9839 0.9569
9.4779 -4.7894 -2.9878 0.9568
4.8423 -0.9842 -1.3903 0.9797
10.6726 0.7145 -3.0095 0.9565
10.5768 1.6631 -3.0124 0.9565
10.1308 3.5178 -3.0173 0.9564
9.7839 4.4084 -3.0193 0.9564
8.8497 6.0750 -3.0201 0.9564
7.6324 7.5479 -3.0201 0.9564
5.3649 9.2923 -3.0189 0.9564
1.6946 10.0466 -2.8666 0.9585
0.7933 10.1526 -2.8652 0.9586
-1.0184 10.1233 -2.8626 0.9586
-1.9145 9.9878 -2.8613 0.9586
-5.4126 8.9104 -2.9333 0.9576
-8.3522 6.5957 -2.9943 0.9567
-9.3780 5.0043 -2.9907 0.9568
-9.7805 4.1473 -2.9890 0.9568
-10.3498 2.3450 -2.9858 0.9569
-10.5918 0.4723 -2.9830 0.9569
-10.4997 -1.4121 -2.9808 0.9569
-10.3292 -2.3403 -2.9798 0.9569
-9.3380 -4.9829 -2.9780 0.9570
-8.8566 -5.7937 -2.9777 0.9570
-8.3054 -6.5587 -2.9775 0.9570
-7.0115 -7.9280 -2.9778 0.9570
-6.2788 -8.5216 -2.9781 0.9570
-5.4289 -8.9372 -2.9421 0.9575
-3.7474 -9.7299 -2.9336 0.9576
-0.1165 -10.4552 -2.9418 0.9575
2.6581 -10.1461 -2.9510 0.9574
5.2637 -9.1169 -2.9619 0.9572
7.5153 -7.4321 -2.9738 0.9570
8.1581 -6.7428 -2.9779 0.9570
8.7376 -5.9980 -2.9819 0.9569
9.2491 -5.2034 -2.9858 0.9569
9.6884 -4.3653 -2.9898 0.9568
5.1436 -1.7860 -1.5319 0.9776
4.8557 -1.2145 -1.4083 0.9794
5.0905 -0.3408 -1.4354 0.9790
10.6883 0.2382 -3.0080 0.9565
10.6354 1.1898 -3.0110 0.9565
10.4969 2.1336 -3.0137 0.9565
9.5790 4.8405 -3.0197 0.9564
9.1112 5.6745 -3.0200 0.9564
8.5705 6.4633 -3.0202 0.9564
6.5573 8.4966 -3.0197 0.9564
5.7741 9.0450 -3.0192 0.9564
2.4119 7.7751 -2.2904 0.9667
0.3402 10.1755 -2.8646 0.9586
-0.5666 10.1609 -2.8633 0.9586
-1.4680 10.0655 -2.8620 0.9586
-2.3570 9.8902 -2.8606 0.9586
-3.2250 9.6326 -2.8581 0.9587
-4.8689 8.8846 -2.8505 0.9588
-5.9380 8.8602 -3.0009 0.9566
-6.6988 8.2913 -2.9990 0.9567
-8.0526 6.9634 -2.9953 0.9567
-9.1485 5.4186 -2.9916 0.9568
-9.5888 4.5802 -2.9898 0.9568
-9.9528 3.7065 -2.9882 0.9568
-10.2377 2.8044 -2.9866 0.9569
-10.5625 0.9439 -2.9837 0.9569
-9.9652 0.0000 -2.9834 0.9592
-9.6021 -2.6303 -2.9806 0.9593
-6.2539 -7.7404 -2.9792 0.9593
-5.5409 -8.2675 -2.9796 0.9593
-3.1144 -9.3021 -2.9368 0.9599
-2.2753 -9.5475 -2.9384 0.9598
1.2036 -9.7726 -2.9478 0.9597
2.0707 -9.6365 -2.9508 0.9597
2.9234 -9.4241 -2.9540 0.9596
5.3281 -8.3464 -2.9645 0.9595
6.0574 -7.8488 -2.9682 0.9594
6.7405 -7.2878 -2.9720 0.9594
8.4585 -5.2680 -2.9833 0.9592
8.9052 -4.5000 -2.9871 0.9592
5.0584 -1.5076 -1.5802 0.9782
4.9372 -1.0035 -1.5083 0.9792
5.0558 -0.5656 -1.5230 0.9790
10.0234 0.6710 -3.0075 0.9589
9.9328 1.5619 -3.0102 0.9589
9.1869 4.1395 -3.0167 0.9588
8.7875 4.9438 -3.0186 0.9588
8.3133 5.7068 -3.0188 0.9588
7.7726 6.4243 -3.0189 0.9588
5.7978 8.2476 -3.0182 0.9588
3.2372 8.9979 -2.8628 0.9609
2.4227 9.2473 -2.8619 0.9609
-0.1066 9.5637 -2.8634 0.9609
-0.9569 9.5121 -2.8621 0.9609
-1.7990 9.3850 -2.8608 0.9609
-4.2005 8.5478 -2.8513 0.9610
-5.2054 8.5693 -3.0017 0.9590
-5.9439 8.0671 -2.9999 0.9590
-7.2714 6.8773 -2.9963 0.9591
-7.8501 6.1991 -2.9946 0.9591
-8.3658 5.4727 -2.9929 0.9591
-8.8148 4.7037 -2.9912 0.9591
-9.4991 3.0630 -2.9880 0.9592
-9.7293 2.2044 -2.9866 0.9592
-9.8824 1.3291 -2.9852 0.9592
-9.9573 0.4440 -2.9840 0.9592
-9.8712 -1.3275 -2.9818 0.9593
-9.7110 -2.2002 -2.9810 0.9593
-9.1630 -3.8854 -2.9796 0.9593
-8.3269 -5.4472 -2.9789 0.9593
-7.8087 -6.1664 -2.9788 0.9593
-7.2289 -6.8371 -2.9788 0.9593
-6.5921 -7.4538 -2.9790 0.9593
-5.1208 -8.4300 -2.9529 0.9597
-3.5249 -9.1521 -2.9361 0.9599
-2.6976 -9.4341 -2.9376 0.9599
-1.8483 -9.6424 -2.9393 0.9598
-0.9834 -9.7754 -2.9413 0.9598
-0.1095 -9.8322 -2.9437 0.9598
0.7667 -9.8118 -2.9464 0.9597
1.6386 -9.7141 -2.9493 0.9597
2.4993 -9.5397 -2.9524 0.9597
4.9480 -8.5702 -2.9627 0.9595
6.4051 -7.5760 -2.9701 0.9594
7.0630 -6.9847 -2.9739 0.9594
8.2103 -5.6361 -2.9814 0.9593
9.1026 -4.1014 -2.9890 0.9592
4.9696 -0.7814 -1.5061 0.9792
5.2190 -0.3494 -1.5660 0.9784
10.0385 0.2237 -3.0061 0.9589
9.9882 1.1173 -3.0089 0.9589
9.6474 2.8753 -3.0138 0.9588
8.9958 4.5458 -3.0175 0.9588
8.5590 5.3306 -3.0187 0.9588
6.8466 7.4025 -3.0187 0.9588
5.4242 8.4970 -3.0180 0.9588
3.6353 8.8461 -2.8633 0.9609
2.4118 7.7749 -2.4371 0.9666
0.3197 9.5611 -2.8640 0.9608
-0.5324 9.5473 -2.8627 0.9609
-1.3794 9.4580 -2.8615 0.9609
-3.0293 9.0481 -2.8566 0.9609
-3.8180 8.7319 -2.8531 0.9610
-5.5803 8.3264 -3.0008 0.9590
-6.9599 7.1965 -2.9972 0.9591
-7.5683 6.5446 -2.9955 0.9591
-8.5989 5.0931 -2.9920 0.9591
-9.0131 4.3052 -2.9904 0.9592
-9.3556 3.4840 -2.9888 0.9592
-9.6237 2.6362 -2.9873 0.9592
-9.9296 0.8873 -2.9846 0.9592
-9.3968 0.0000 -2.9843 0.9613
-9.2420 -1.6650 -2.9824 0.9614
-8.7963 -3.2758 -2.9810 0.9614
-8.0739 -4.7822 -2.9802 0.9614
-6.5233 -6.7450 -2.9800 0.9614
-4.4571 -8.1332 -2.9454 0.9618
-2.9381 -8.7757 -2.9391 0.9619
-2.1465 -9.0069 -2.9406 0.9619
-1.3371 -9.1678 -2.9423 0.9619
-0.5162 -9.2568 -2.9444 0.9618
0.3100 -9.2733 -2.9467 0.9618
1.1352 -9.2171 -2.9493 0.9618
3.5408 -8.6160 -2.9584 0.9617
4.2984 -8.2758 -2.9617 0.9616
5.0237 -7.8695 -2.9651 0.9616
5.7109 -7.3998 -2.9686 0.9615
6.3544 -6.8703 -2.9721 0.9615
6.9491 -6.2850 -2.9757 0.9614
7.4899 -5.6484 -2.9793 0.9614
8.7477 -3.4815 -2.9901 0.9613
5.2694 -1.5704 -1.7462 0.9772
9.3574 1.4714 -3.0083 0.9610
9.1963 2.3002 -3.0106 0.9610
8.9612 3.1117 -3.0126 0.9610
8.6536 3.8992 -3.0144 0.9609
8.2807 4.6587 -3.0174 0.9609
6.1343 7.2557 -3.0175 0.9609
5.4634 7.7719 -3.0171 0.9609
4.7492 8.2259 -3.0166 0.9609
3.9974 8.6141 -3.0159 0.9609
2.2852 8.7226 -2.8636 0.9629
1.5002 8.8938 -2.8644 0.9629
0.7026 8.9912 -2.8642 0.9629
-0.9019 8.9655 -2.8617 0.9629
-2.4732 8.6491 -2.8569 0.9629
-3.2295 8.3852 -2.8537 0.9630
-3.9588 8.0557 -2.8506 0.9630
-6.8549 6.4833 -2.9965 0.9612
-8.3107 4.4347 -2.9916 0.9612
-8.9564 2.8881 -2.9886 0.9613
-9.1737 2.0785 -2.9873 0.9613
-9.3892 0.4187 -2.9848 0.9613
-9.3858 -0.4185 -2.9837 0.9613
-9.3083 -1.2519 -2.9828 0.9613
-9.1575 -2.0748 -2.9820 0.9614
-8.6409 -3.6640 -2.9807 0.9614
-6.8172 -6.4476 -2.9800 0.9614
-6.2166 -7.0292 -2.9801 0.9614
-4.0814 -8.3053 -2.9389 0.9619
-1.7436 -9.0962 -2.9414 0.9619
-0.9277 -9.2213 -2.9433 0.9619
-0.1033 -9.2741 -2.9455 0.9618
2.3570 -8.9967 -2.9537 0.9617
3.1517 -8.7604 -2.9567 0.9617
4.6654 -8.0808 -2.9633 0.9616
6.6582 -6.5844 -2.9739 0.9615
7.2265 -5.9728 -2.9775 0.9614
8.1909 -4.6081 -2.9847 0.9613
5.0793 -1.2704 -1.6628 0.9783
9.2862 1.8875 -3.0095 0.9610
8.8163 3.5088 -3.0135 0.9610
7.5866 5.7213 -3.0177 0.9609
6.4517 6.9755 -3.0176 0.9609
4.3776 8.4285 -3.0163 0.9609
3.4258 8.3362 -2.8623 0.9629
2.4117 7.7747 -2.5852 0.9664
-0.5018 8.9986 -2.8623 0.9629
-2.8544 8.5256 -2.8553 0.9630
-4.5433 8.2904 -3.0024 0.9611
-7.1349 6.1698 -2.9957 0.9612
-7.6516 5.5073 -2.9940 0.9612
-8.4978 4.0591 -2.9908 0.9612
-9.0741 2.4856 -2.9879 0.9613
-9.2552 1.6674 -2.9866 0.9613
-8.8846 0.0000 -2.9851 0.9632
-8.8465 -0.7905 -2.9841 0.9632
-8.7385 -1.5743 -2.9833 0.9632
-8.5617 -2.3453 -2.9825 0.9632
-8.3173 -3.0974 -2.9820 0.9632
-8.0074 -3.8248 -2.9815 0.9632
-7.2012 -5.1831 -2.9810 0.9633
-6.1682 -6.3779 -2.9811 0.9633
-5.5765 -6.9021 -2.9813 0.9632
-4.9407 -7.3720 -2.9817 0.9632
1.0735 -8.7165 -2.9507 0.9636
2.6068 -8.4037 -2.9562 0.9636
3.3479 -8.1466 -2.9592 0.9635
4.0640 -7.8245 -2.9623 0.9635
6.0067 -6.4944 -2.9722 0.9634
6.5685 -5.9408 -2.9757 0.9633
7.9321 -4.0083 -2.9860 0.9632
8.2666 -3.2900 -2.9893 0.9632
5.2215 -1.0613 -1.7902 0.9778
5.3890 -0.6028 -1.8219 0.9774
8.9214 0.5972 -3.0041 0.9630
8.1741 3.6831 -3.0123 0.9629
6.9208 5.7202 -3.0167 0.9628
5.7964 6.8560 -3.0164 0.9628
5.1626 7.3439 -3.0161 0.9628
4.4877 7.7730 -3.0156 0.9628
3.7773 8.1399 -3.0150 0.9628
1.4172 8.4018 -2.8627 0.9647
0.6638 8.4947 -2.8628 0.9647
-0.0949 8.5181 -2.8621 0.9647
-0.8523 8.4717 -2.8607 0.9647
-1.6017 8.3557 -2.8585 0.9647
-2.3367 8.1719 -2.8556 0.9648
-3.0515 7.9231 -2.8526 0.9648
-3.8694 7.8741 -2.9477 0.9637
-4.6378 7.6349 -3.0014 0.9630
-5.2962 7.1880 -2.9998 0.9630
-6.9959 5.5246 -2.9950 0.9631
-7.8567 4.1924 -2.9920 0.9631
-8.1947 3.4748 -2.9906 0.9631
-8.4676 2.7304 -2.9892 0.9632
-8.8773 0.3959 -2.9856 0.9632
-8.8743 -0.3957 -2.9846 0.9632
-8.8012 -1.1836 -2.9837 0.9632
-8.6586 -1.9618 -2.9829 0.9632
-8.4478 -2.7240 -2.9822 0.9632
-8.1704 -3.4646 -2.9817 0.9632
-7.8286 -4.1774 -2.9813 0.9632
-7.4251 -4.8572 -2.9811 0.9633
-6.9630 -5.4986 -2.9810 0.9633
-5.2638 -7.1441 -2.9815 0.9632
-0.0977 -8.7713 -2.9472 0.9637
1.4614 -8.6638 -2.9520 0.9636
4.4109 -7.6398 -2.9639 0.9635
6.2937 -6.2239 -2.9739 0.9633
6.8306 -5.6456 -2.9774 0.9633
7.3145 -5.0211 -2.9808 0.9633
5.2951 -1.3244 -1.8339 0.9772
5.2535 -0.8261 -1.7868 0.9778
8.9095 -0.5964 -3.0001 0.9630
8.5848 2.5586 -3.0097 0.9629
8.3279 3.3145 -3.0115 0.9629
7.1687 5.4062 -3.0167 0.9628
6.6591 6.0228 -3.0167 0.9628
6.0963 6.5913 -3.0166 0.9628
3.3719 8.2052 -2.9805 0.9633
2.4117 7.7744 -2.7349 0.9662
1.7899 8.3297 -2.8625 0.9647
0.2847 8.5150 -2.8625 0.9647
-0.4742 8.5037 -2.8615 0.9647
-2.6970 8.0555 -2.8542 0.9648
-3.3996 7.7750 -2.8510 0.9648
-4.9719 7.4187 -3.0006 0.9630
-5.6096 6.9431 -2.9990 0.9630
-6.2020 6.4129 -2.9974 0.9631
-8.0337 3.8374 -2.9913 0.9631
-8.7503 1.5765 -2.9873 0.9632
-8.8524 0.7911 -2.9861 0.9632
-8.2823 -1.4921 -2.9841 0.9649
-8.1148 -2.2229 -2.9834 0.9649
-7.5896 -3.6252 -2.9824 0.9649
-5.8464 -6.0451 -2.9820 0.9649
-5.2856 -6.5420 -2.9822 0.9649
-3.3241 -7.6025 -2.9422 0.9654
-1.9249 -8.0773 -2.9443 0.9654
-1.1990 -8.2210 -2.9459 0.9654
-0.4628 -8.3002 -2.9477 0.9653
1.0177 -8.2630 -2.9521 0.9653
3.1731 -7.7213 -2.9600 0.9652
4.5009 -7.0506 -2.9661 0.9651
5.6920 -6.1541 -2.9724 0.9650
6.2240 -5.6292 -2.9757 0.9650
7.8311 -3.1167 -2.9887 0.9649
8.2764 -1.6822 -2.9947 0.9648
8.4492 0.5656 -3.0027 0.9647
8.2269 2.0577 -3.0070 0.9646
7.4118 4.1698 -3.0155 0.9646
7.0117 4.8133 -3.0157 0.9645
6.5556 5.4184 -3.0158 0.9645
6.0472 5.9802 -3.0157 0.9645
4.8902 6.9565 -3.0152 0.9646
4.2510 7.3630 -3.0147 0.9646
2.7307 7.5902 -2.8603 0.9663
2.0446 7.8043 -2.8607 0.9663
0.6286 8.0440 -2.8610 0.9663
-0.0899 8.0662 -2.8603 0.9663
-3.7348 7.6001 -3.0027 0.9647
-4.3943 7.2340 -3.0012 0.9647
-5.6016 6.3339 -2.9982 0.9648
-6.1401 5.8073 -2.9967 0.9648
-6.6293 5.2351 -2.9952 0.9648
-7.0655 4.6220 -2.9938 0.9648
-7.4453 3.9730 -2.9924 0.9648
-7.7658 3.2930 -2.9910 0.9648
-8.0246 2.5876 -2.9897 0.9648
-8.2197 1.8623 -2.9885 0.9649
-8.3496 1.1229 -2.9873 0.9649
-8.4135 0.3752 -2.9863 0.9649
-8.4108 -0.3750 -2.9853 0.9649
-8.2066 -1.8594 -2.9837 0.9649
-8.0069 -2.5819 -2.9831 0.9649
-7.7441 -3.2837 -2.9826 0.9649
-4.9891 -6.7713 -2.9824 0.9649
-4.3673 -7.1895 -2.9828 0.9649
-0.0927 -8.3154 -2.9487 0.9653
0.6483 -8.2968 -2.9509 0.9653
5.4092 -6.3981 -2.9708 0.9651
6.4721 -5.3493 -2.9773 0.9650
6.9302 -4.7573 -2.9806 0.9650
7.3341 -4.1261 -2.9839 0.9649
7.6805 -3.4606 -2.9871 0.9649
8.4385 -0.5649 -2.9989 0.9647
8.4626 0.1886 -3.0015 0.9647
8.4189 0.9418 -3.0038 0.9647
8.3076 1.6886 -3.0060 0.9647
7.8861 3.1386 -3.0096 0.9646
7.5898 3.8353 -3.0153 0.9646
7.2189 4.4960 -3.0156 0.9646
6.3077 5.7050 -3.0157 0.9645
5.7747 6.2435 -3.0156 0.9645
5.1956 6.7321 -3.0153 0.9646
4.5752 7.1669 -3.0149 0.9646
3.9184 7.5444 -3.0144 0.9646
3.2307 7.8615 -3.0138 0.9646
2.3899 7.7045 -2.8603 0.9663
0.9863 8.0084 -2.8611 0.9663
0.2696 8.0633 -2.8607 0.9663
-1.1633 7.9761 -2.8581 0.9664
-1.8671 7.8346 -2.8558 0.9664
-2.5545 7.6300 -2.8531 0.9664
-3.2734 7.4864 -2.8972 0.9659
-4.0687 7.4244 -3.0020 0.9647
-4.7110 7.0293 -3.0005 0.9647
-5.8768 6.0765 -2.9975 0.9648
-6.3911 5.5266 -2.9960 0.9648
-6.8543 4.9334 -2.9945 0.9648
-7.9031 2.9432 -2.9903 0.9648
-8.2929 1.4940 -2.9879 0.9649
-8.3899 0.7497 -2.9868 0.9649
-7.9636 -0.7116 -2.9856 0.9664
-5.5532 -5.7420 -2.9828 0.9665
-3.8267 -6.9827 -2.9733 0.9666
-1.8289 -7.6742 -2.9459 0.9669
-1.1392 -7.8106 -2.9474 0.9669
1.6629 -7.7386 -2.9557 0.9668
3.0140 -7.3341 -2.9609 0.9667
3.6582 -7.0434 -2.9637 0.9667
4.8588 -6.2957 -2.9696 0.9666
5.4054 -5.8443 -2.9727 0.9666
7.1348 -3.6054 -2.9850 0.9664
7.6762 -2.2877 -2.9910 0.9664
7.8568 -1.5969 -2.9938 0.9663
7.9458 1.2495 -3.0035 0.9662
7.8082 1.9530 -3.0055 0.9662
7.3460 3.3100 -3.0087 0.9662
7.0361 3.9585 -3.0146 0.9661
5.7407 5.6771 -3.0148 0.9661
5.2123 6.1652 -3.0146 0.9661
4.6424 6.6039 -3.0143 0.9661
4.0356 6.9899 -3.0139 0.9661
3.3968 7.3200 -3.0133 0.9661
2.6975 7.4977 -2.9754 0.9665
1.2737 7.5513 -2.8596 0.9678
0.5965 7.6342 -2.8594 0.9678
-0.0853 7.6553 -2.8587 0.9678
-1.4397 7.5108 -2.8557 0.9679
-3.5463 7.2165 -3.0025 0.9663
-4.1725 6.8690 -3.0011 0.9663
-4.7651 6.4673 -2.9997 0.9663
-5.3193 6.0146 -2.9982 0.9663
-5.8307 5.5147 -2.9968 0.9663
-7.0707 3.7731 -2.9927 0.9664
-7.6212 2.4575 -2.9901 0.9664
-7.9302 1.0665 -2.9879 0.9664
-7.9910 0.3563 -2.9869 0.9664
-7.9886 -0.3562 -2.9860 0.9664
-7.9230 -1.0655 -2.9852 0.9664
-7.7949 -1.7661 -2.9845 0.9664
-7.6053 -2.4524 -2.9839 0.9665
-7.3556 -3.1191 -2.9834 0.9665
-6.6848 -4.3730 -2.9828 0.9665
-6.2688 -4.9504 -2.9827 0.9665
-5.8034 -5.4888 -2.9828 0.9665
-4.7389 -6.4317 -2.9832 0.9665
-2.1684 -7.5835 -2.9452 0.9669
-0.7903 -7.8558 -2.9483 0.9668
0.6159 -7.8820 -2.9522 0.9668
1.3160 -7.8019 -2.9545 0.9668
3.9703 -6.8767 -2.9651 0.9667
4.5712 -6.5026 -2.9681 0.9666
5.6633 -5.6006 -2.9742 0.9666
6.1458 -5.0796 -2.9773 0.9665
7.7742 -1.9444 -2.9924 0.9664
7.9237 -1.2459 -2.9952 0.9663
8.0101 -0.5362 -2.9978 0.9663
7.9908 0.8939 -3.0025 0.9663
7.7157 2.2995 -3.0064 0.9662
7.2051 3.6409 -3.0145 0.9661
6.8531 4.2681 -3.0147 0.9661
5.9880 5.4158 -3.0149 0.9661
3.7199 7.1621 -3.0136 0.9661
3.0670 7.4632 -3.0130 0.9661
0.9361 7.6005 -2.8595 0.9678
-1.7722 7.4364 -2.8546 0.9679
-3.8634 7.0497 -3.0018 0.9663
-4.4734 6.6747 -3.0004 0.9663
-5.0473 6.2471 -2.9990 0.9663
-5.5806 5.7703 -2.9975 0.9663
-6.0692 5.2482 -2.9961 0.9663
-6.8972 4.0852 -2.9933 0.9664
-7.2302 3.4536 -2.9920 0.9664
-7.8762 1.4190 -2.9884 0.9664
-7.5785 -0.6772 -2.9862 0.9678
-7.1259 -2.6537 -2.9844 0.9679
-6.8606 -3.2770 -2.9840 0.9679
-6.5411 -3.8742 -2.9837 0.9679
-6.1699 -4.4408 -2.9835 0.9679
-5.7502 -4.9723 -2.9835 0.9679
-5.2849 -5.4645 -2.9836 0.9679
-3.6502 -6.6608 -2.9810 0.9679
-3.0122 -6.8892 -2.9510 0.9682
-1.0844 -7.4348 -2.9488 0.9682
2.2338 -7.2011 -2.9591 0.9681
3.4813 -6.7027 -2.9643 0.9681
4.0679 -6.3722 -2.9671 0.9680
5.1433 -5.5608 -2.9728 0.9680
6.4488 -4.0164 -2.9817 0.9679
6.7874 -3.4298 -2.9846 0.9679
7.3017 -2.1761 -2.9903 0.9678
7.4731 -1.5190 -2.9930 0.9678
7.5566 1.1882 -3.0022 0.9677
7.4255 1.8573 -3.0041 0.9676
7.2346 2.5122 -3.0057 0.9676
6.6927 3.7653 -3.0138 0.9675
5.4605 5.4000 -3.0140 0.9675
3.8387 6.6488 -3.0132 0.9675
3.2311 6.9629 -3.0126 0.9676
2.5980 7.2213 -3.0120 0.9676
1.8456 7.0448 -2.8582 0.9692
0.5673 7.2597 -2.8579 0.9692
-0.0811 7.2798 -2.8573 0.9692
-1.3692 7.1430 -2.8544 0.9692
-1.9980 6.9876 -2.8523 0.9693
-3.9698 6.5352 -3.0010 0.9677
-4.5336 6.1531 -2.9996 0.9677
-5.0610 5.7226 -2.9983 0.9677
-5.9900 4.7303 -2.9956 0.9677
-6.3845 4.1766 -2.9943 0.9677
-7.0180 2.9759 -2.9917 0.9678
-7.2521 2.3385 -2.9906 0.9678
-7.5464 1.0149 -2.9884 0.9678
-7.2377 -2.3338 -2.9846 0.9679
-7.0002 -2.9683 -2.9841 0.9679
-6.3618 -4.1617 -2.9836 0.9679
-5.9659 -4.7112 -2.9835 0.9679
-5.0364 -5.6947 -2.9837 0.9679
-4.5099 -6.1209 -2.9839 0.9679
-3.9477 -6.4988 -2.9843 0.9679
-2.6975 -7.0039 -2.9457 0.9683
-2.0642 -7.2189 -2.9468 0.9683
0.5862 -7.5022 -2.9534 0.9682
1.2526 -7.4257 -2.9555 0.9682
2.5535 -7.0975 -2.9603 0.9681
3.1778 -6.8480 -2.9630 0.9681
3.7782 -6.5441 -2.9657 0.9681
4.3498 -6.1877 -2.9685 0.9680
4.8880 -5.7816 -2.9714 0.9680
5.8473 -4.8329 -2.9773 0.9679
6.2604 -4.2975 -2.9802 0.9679
6.6246 -3.7269 -2.9832 0.9679
6.9367 -3.1255 -2.9861 0.9678
7.5366 -1.1851 -2.9942 0.9677
7.6185 -0.5100 -2.9967 0.9677
7.6396 0.1703 -2.9991 0.9677
6.5186 4.0598 -3.0140 0.9675
6.1316 4.6241 -3.0141 0.9675
5.6957 5.1515 -3.0141 0.9675
4.6915 6.0790 -3.0137 0.9675
3.5384 6.8127 -3.0129 0.9676
2.9174 7.0992 -3.0123 0.9676
2.2216 7.1619 -2.9429 0.9683
0.2433 7.2771 -2.8576 0.9692
-1.0500 7.1991 -2.8553 0.9692
-1.6854 7.0724 -2.8534 0.9692
-4.2560 6.3504 -3.0003 0.9677
-5.7747 4.9936 -2.9962 0.9677
-6.1935 4.4578 -2.9949 0.9677
-6.5628 3.8872 -2.9936 0.9678
-7.1421 2.6598 -2.9911 0.9678
-7.4950 1.3503 -2.9889 0.9678
-7.2245 -0.6456 -2.9868 0.9691
-7.1368 -1.2857 -2.9861 0.9691
-6.9926 -1.9155 -2.9855 0.9691
-6.2358 -3.6934 -2.9844 0.9691
-5.4818 -4.7403 -2.9842 0.9691
-4.0354 -6.0213 -2.9848 0.9691
-0.3991 -7.1570 -2.9517 0.9695
0.2397 -7.1685 -2.9535 0.9694
1.5090 -7.0221 -2.9576 0.9694
3.3187 -6.3897 -2.9649 0.9693
3.8777 -6.0743 -2.9675 0.9693
4.9024 -5.3004 -2.9730 0.9693
5.7754 -4.3554 -2.9787 0.9692
6.7397 -2.6823 -2.9870 0.9691
6.9578 -2.0736 -2.9896 0.9691
7.2273 -0.8085 -2.9946 0.9690
7.2761 -0.1621 -2.9969 0.9690
7.1994 1.1321 -3.0010 0.9690
6.3773 3.5879 -3.0131 0.9688
6.0330 4.1415 -3.0133 0.9688
5.6406 4.6621 -3.0134 0.9688
5.2032 5.1456 -3.0133 0.9688
4.2078 5.9857 -3.0129 0.9688
3.6578 6.3356 -3.0125 0.9688
3.0789 6.6349 -3.0120 0.9689
2.4756 6.8812 -3.0114 0.9689
1.8166 6.9341 -2.9517 0.9695
1.1540 6.8412 -2.8569 0.9704
-0.0773 6.9351 -2.8559 0.9704
-0.6939 6.8980 -2.8548 0.9705
-1.3044 6.8052 -2.8533 0.9705
-1.9219 6.7214 -2.8787 0.9702
-2.6214 6.8064 -3.0034 0.9689
-3.7835 6.2285 -3.0009 0.9690
-4.3210 5.8645 -2.9996 0.9690
-4.8237 5.4543 -2.9983 0.9690
-6.4131 3.4221 -2.9932 0.9690
-6.9129 2.2291 -2.9909 0.9691
-7.0814 1.6044 -2.9899 0.9691
-7.2490 0.3232 -2.9880 0.9691
-7.2470 -0.3231 -2.9872 0.9691
-7.1878 -0.9666 -2.9864 0.9691
-7.0717 -1.6022 -2.9858 0.9691
-6.0649 -3.9675 -2.9843 0.9691
-5.2652 -4.9798 -2.9842 0.9691
-4.2994 -5.8352 -2.9846 0.9691
-3.7635 -6.1955 -2.9850 0.9691
-3.1804 -6.4719 -2.9694 0.9693
-2.5746 -6.6848 -2.9498 0.9695
-1.3484 -7.0345 -2.9494 0.9695
1.1942 -7.0798 -2.9565 0.9694
1.8210 -6.9506 -2.9587 0.9694
2.4343 -6.7663 -2.9611 0.9694
3.6017 -6.2382 -2.9662 0.9693
4.1464 -5.8983 -2.9689 0.9693
5.1360 -5.0791 -2.9744 0.9692
5.5730 -4.6062 -2.9773 0.9692
5.9665 -4.0958 -2.9801 0.9692
6.8555 -2.3805 -2.9883 0.9691
7.2589 -0.4859 -2.9958 0.9690
7.2787 0.1622 -2.9980 0.9690
7.1440 1.4521 -3.0019 0.9690
6.9902 2.0833 -3.0036 0.9689
6.2114 3.8685 -3.0132 0.9688
5.4273 4.9087 -3.0134 0.9688
3.9367 6.1668 -3.0127 0.9688
3.3717 6.4917 -3.0122 0.9689
2.7800 6.7648 -3.0117 0.9689
2.1664 6.9839 -3.0110 0.9689
0.2318 6.9325 -2.8563 0.9704
-0.3861 6.9236 -2.8554 0.9704
-1.6059 6.7385 -2.8525 0.9705
-4.0563 6.0525 -3.0002 0.9690
-5.0608 5.2328 -2.9976 0.9690
-6.2555 3.7052 -2.9938 0.9690
-6.5578 3.1324 -2.9926 0.9691
-7.0041 1.9187 -2.9904 0.9691
-7.1446 1.2871 -2.9894 0.9691
-7.2285 0.6460 -2.9884 0.9691
-6.6766 -1.8289 -2.9861 0.9703
-5.6163 -4.0423 -2.9849 0.9703
-5.2342 -4.5261 -2.9849 0.9703
-3.8531 -5.7492 -2.9854 0.9703
-3.3266 -6.0702 -2.9858 0.9703
-2.1704 -6.4826 -2.9489 0.9707
-0.9874 -6.7703 -2.9513 0.9706
0.2289 -6.8456 -2.9545 0.9706
1.4409 -6.7054 -2.9585 0.9706
2.0335 -6.5554 -2.9607 0.9705
3.7023 -5.7995 -2.9679 0.9705
4.2074 -5.4517 -2.9705 0.9704
4.6801 -5.0601 -2.9732 0.9704
6.1740 -3.1198 -2.9839 0.9703
6.6407 -1.9791 -2.9890 0.9703
6.9437 -0.1547 -2.9960 0.9702
6.9347 0.4642 -2.9980 0.9702
6.8701 1.0803 -2.9999 0.9702
6.5766 2.2837 -3.0031 0.9701
6.0866 3.4243 -3.0125 0.9700
5.7580 3.9526 -3.0126 0.9700
4.9659 4.9110 -3.0127 0.9700
4.5089 5.3332 -3.0125 0.9700
4.0159 5.7128 -3.0122 0.9700
3.4911 6.0468 -3.0118 0.9700
2.9386 6.3325 -3.0114 0.9700
2.3628 6.5677 -3.0108 0.9701
1.7685 6.7504 -3.0101 0.9701
1.1261 6.6763 -2.9206 0.9709
0.5157 6.5999 -2.8556 0.9716
-1.2518 6.5308 -2.8684 0.9714
-5.0479 4.7743 -2.9971 0.9702
-5.4506 4.3043 -2.9959 0.9702
-6.6000 2.1282 -2.9913 0.9702
-6.7609 1.5318 -2.9903 0.9703
-6.8682 0.9237 -2.9893 0.9703
-6.9212 0.3086 -2.9885 0.9703
-6.8628 -0.9229 -2.9870 0.9703
-6.7521 -1.5298 -2.9864 0.9703
-6.3719 -2.7019 -2.9855 0.9703
-6.1055 -3.2580 -2.9852 0.9703
-5.4306 -4.2885 -2.9849 0.9703
-4.5844 -5.1837 -2.9850 0.9703
-1.8798 -6.5740 -2.9494 0.9707
-1.2877 -6.7180 -2.9506 0.9706
2.3244 -6.4608 -2.9618 0.9705
3.4387 -5.9561 -2.9667 0.9705
3.9587 -5.6312 -2.9692 0.9705
4.9031 -4.8488 -2.9745 0.9704
5.6954 -3.9097 -2.9799 0.9704
6.0262 -3.3903 -2.9826 0.9703
6.9275 -0.4637 -2.9949 0.9702
6.8171 1.3857 -3.0008 0.9702
5.9282 3.6921 -3.0126 0.9700
5.1799 4.6849 -3.0127 0.9700
4.7421 5.1272 -3.0126 0.9700
3.7573 5.8857 -3.0120 0.9700
2.6533 6.4565 -3.0111 0.9700
2.0677 6.6657 -3.0104 0.9701
0.8137 6.6071 -2.8715 0.9714
0.2212 6.6153 -2.8551 0.9716
-2.2108 6.6033 -3.0038 0.9701
-2.7887 6.3778 -3.0026 0.9701
-3.3439 6.1018 -3.0014 0.9701
-3.8721 5.7777 -3.0002 0.9702
-4.3692 5.4079 -2.9989 0.9702
-5.2545 4.5437 -2.9965 0.9702
-5.6358 4.0564 -2.9952 0.9702
-6.2608 2.9905 -2.9929 0.9702
-6.4998 2.4205 -2.9918 0.9702
-6.6871 1.8318 -2.9908 0.9702
-6.8213 1.2289 -2.9898 0.9703
-6.6233 0.0000 -2.9885 0.9714
-6.5954 -0.5894 -2.9878 0.9714
-6.5154 -1.1738 -2.9872 0.9714
-6.3839 -1.7487 -2.9867 0.9714
-6.2020 -2.3097 -2.9862 0.9714
-5.9712 -2.8522 -2.9859 0.9714
-5.3702 -3.8652 -2.9855 0.9714
-4.5999 -4.7562 -2.9856 0.9714
-4.1585 -5.1470 -2.9857 0.9714
-3.6842 -5.4973 -2.9860 0.9714
-2.0773 -6.2046 -2.9524 0.9717
-0.9443 -6.4748 -2.9524 0.9717
-0.3645 -6.5363 -2.9539 0.9717
0.2189 -6.5464 -2.9555 0.9717
0.8011 -6.5049 -2.9573 0.9716
4.0226 -5.2122 -2.9708 0.9715
4.4744 -4.8376 -2.9733 0.9715
5.2703 -3.9745 -2.9785 0.9714
6.1488 -2.4471 -2.9861 0.9714
6.3473 -1.8917 -2.9885 0.9714
6.6362 -0.1479 -2.9951 0.9713
6.6274 0.4437 -2.9971 0.9713
6.0852 2.7419 -3.0116 0.9711
4.7464 4.6938 -3.0120 0.9711
3.3368 5.7796 -3.0113 0.9711
2.2584 6.2775 -3.0102 0.9711
0.5101 6.5281 -2.9546 0.9717
-0.6483 6.4441 -2.9224 0.9720
-2.3920 6.2106 -3.0030 0.9712
-2.9342 5.9708 -3.0019 0.9712
-3.4526 5.6838 -3.0007 0.9712
-4.4022 4.9776 -2.9983 0.9713
-4.8259 4.5642 -2.9971 0.9713
-6.1061 2.5892 -2.9926 0.9713
-6.3102 2.0348 -2.9916 0.9713
-6.4642 1.4646 -2.9907 0.9713
-6.6176 0.2951 -2.9889 0.9713
-6.6159 -0.2950 -2.9882 0.9714
-6.5619 -0.8825 -2.9875 0.9714
-6.4560 -1.4627 -2.9869 0.9714
-6.2992 -2.0312 -2.9864 0.9714
-6.0926 -2.5835 -2.9860 0.9714
-5.8379 -3.1152 -2.9857 0.9714
-5.5372 -3.6222 -2.9856 0.9714
-4.3835 -4.9565 -2.9856 0.9714
-3.9253 -5.3274 -2.9859 0.9714
-3.4359 -5.6563 -2.9862 0.9714
-2.9174 -5.9367 -2.9847 0.9714
-1.2315 -6.4248 -2.9518 0.9717
-0.6551 -6.5119 -2.9531 0.9717
0.5104 -6.5321 -2.9564 0.9717
2.2226 -6.1778 -2.9625 0.9716
2.7657 -5.9600 -2.9647 0.9716
3.2879 -5.6948 -2.9671 0.9716
5.4445 -3.7374 -2.9798 0.9714
6.0312 -2.7175 -2.9848 0.9714
6.4278 -1.6077 -2.9897 0.9713
6.5504 -1.0300 -2.9920 0.9713
6.6384 0.1479 -2.9961 0.9713
6.6030 0.7387 -2.9980 0.9713
6.5148 1.3242 -2.9997 0.9712
6.2009 2.4679 -3.0114 0.9711
5.9573 3.0104 -3.0117 0.9711
5.6661 3.5289 -3.0120 0.9711
5.3298 4.0194 -3.0121 0.9711
3.0758 5.9220 -3.0110 0.9711
1.4011 6.5203 -3.0092 0.9712
0.8108 6.5834 -2.9930 0.9713
0.2167 6.4809 -2.9259 0.9719
-2.1133 6.3122 -3.0036 0.9712
-3.7017 5.5232 -3.0001 0.9712
-4.6186 4.7756 -2.9977 0.9713
-5.0234 4.3439 -2.9966 0.9713
-5.3880 3.8781 -2.9954 0.9713
-5.9858 2.8592 -2.9932 0.9713
-6.5220 1.1750 -2.9902 0.9713
-6.3143 -0.5642 -2.9883 0.9724
-6.1120 -1.6742 -2.9872 0.9724
-5.1415 -3.7006 -2.9861 0.9724
-4.7917 -4.1435 -2.9860 0.9724
-3.9814 -4.9278 -2.9863 0.9724
-3.5273 -5.2631 -2.9866 0.9724
-2.5301 -5.7864 -2.9769 0.9725
-1.4519 -6.0924 -2.9523 0.9727
-0.9043 -6.2000 -2.9535 0.9727
1.3193 -6.1393 -2.9600 0.9726
4.2832 -4.6310 -2.9735 0.9725
5.8850 -2.3422 -2.9857 0.9724
6.2165 -1.2636 -2.9902 0.9723
6.3421 0.4246 -2.9962 0.9723
6.1730 1.5440 -2.9994 0.9723
5.8239 2.6241 -3.0110 0.9721
5.2671 3.6157 -3.0115 0.9721
4.9244 4.0702 -3.0115 0.9721
3.6736 5.2258 -3.0111 0.9721
3.1935 5.5314 -3.0107 0.9722
2.6881 5.7929 -3.0103 0.9722
1.0615 6.2933 -3.0084 0.9722
-0.6383 6.3448 -3.0059 0.9722
-1.2001 6.2608 -3.0049 0.9722
-1.7520 6.1270 -3.0039 0.9722
-2.2896 5.9447 -3.0028 0.9722
-2.8086 5.7152 -3.0017 0.9722
-3.3049 5.4405 -3.0006 0.9722
-4.2139 4.7648 -2.9983 0.9723
-5.3171 3.4783 -2.9950 0.9723
-6.1884 1.4021 -2.9910 0.9723
-6.2868 0.8455 -2.9901 0.9723
-6.3354 0.2825 -2.9893 0.9723
-6.2823 -0.8449 -2.9880 0.9724
-6.0309 -1.9447 -2.9870 0.9724
-5.5893 -2.9825 -2.9863 0.9724
-5.3014 -3.4680 -2.9861 0.9724
-3.7581 -5.1005 -2.9864 0.9724
-1.7215 -6.0206 -2.9517 0.9727
-0.6273 -6.2355 -2.9541 0.9727
0.4887 -6.2546 -2.9573 0.9726
1.5920 -6.0765 -2.9610 0.9726
2.6479 -5.7061 -2.9652 0.9726
3.6233 -5.1542 -2.9699 0.9725
4.4871 -4.4374 -2.9747 0.9725
5.2114 -3.5774 -2.9796 0.9724
5.5137 -3.1019 -2.9821 0.9724
5.7725 -2.6010 -2.9845 0.9724
6.1517 -1.5386 -2.9891 0.9723
6.2688 -0.9857 -2.9913 0.9723
6.3361 -0.4241 -2.9934 0.9723
6.3187 0.7069 -2.9971 0.9723
6.2341 1.2671 -2.9987 0.9723
5.9347 2.3620 -3.0109 0.9721
5.7015 2.8811 -3.0112 0.9721
5.4228 3.3774 -3.0114 0.9721
4.7382 4.2855 -3.0115 0.9721
4.3379 4.6901 -3.0114 0.9721
3.9029 5.0572 -3.0112 0.9721
3.4370 5.3840 -3.0109 0.9721
2.9438 5.6678 -3.0105 0.9722
1.8915 6.0978 -3.0094 0.9722
1.3410 6.2405 -3.0088 0.9722
0.7800 6.3336 -3.0080 0.9722
-0.3551 6.3679 -3.0063 0.9722
-0.9202 6.3091 -3.0054 0.9722
-1.4776 6.2000 -3.0044 0.9722
-2.5516 5.8357 -3.0023 0.9722
-3.0598 5.5834 -3.0012 0.9722
-4.4212 4.5715 -2.9978 0.9723
-5.4658 3.2374 -2.9945 0.9723
-5.9491 2.2155 -2.9924 0.9723
-6.1207 1.6766 -2.9915 0.9723
-6.2438 1.1249 -2.9906 0.9723
-6.3174 0.5646 -2.9897 0.9723
-6.0778 0.0000 -2.9894 0.9733
-5.9790 -1.0771 -2.9881 0.9733
-5.6916 -2.1196 -2.9872 0.9733
-5.2247 -3.0946 -2.9867 0.9733
-4.5930 -3.9717 -2.9866 0.9733
-4.2213 -4.3648 -2.9866 0.9733
-3.8163 -4.7235 -2.9868 0.9733
-3.3810 -5.0448 -2.9871 0.9733
-2.9190 -5.3264 -2.9874 0.9733
-2.4305 -5.5586 -2.9840 0.9733
-1.9097 -5.7039 -2.9585 0.9735
0.7354 -5.9707 -2.9589 0.9735
1.2646 -5.8851 -2.9607 0.9735
2.2911 -5.5751 -2.9647 0.9735
2.7802 -5.3529 -2.9668 0.9735
3.6909 -4.7824 -2.9713 0.9734
4.1051 -4.4384 -2.9736 0.9734
5.1440 -3.2037 -2.9807 0.9733
5.8210 -1.7348 -2.9875 0.9733
5.9565 -1.2107 -2.9897 0.9733
6.0447 -0.6762 -2.9917 0.9733
5.9141 1.4792 -2.9985 0.9732
5.7782 2.0064 -3.0085 0.9731
5.0469 3.4645 -3.0109 0.9731
4.7186 3.9000 -3.0110 0.9731
4.3527 4.3045 -3.0109 0.9731
3.5201 5.0074 -3.0106 0.9731
2.5758 5.5508 -3.0098 0.9731
1.0172 6.0305 -3.0080 0.9731
0.4763 6.0956 -3.0073 0.9731
-0.0681 6.1121 -3.0065 0.9731
-0.6117 6.0800 -3.0056 0.9731
-1.1500 5.9996 -3.0046 0.9731
-2.1941 5.6969 -3.0026 0.9732
-3.1672 5.2139 -3.0005 0.9732
-3.6174 4.9095 -2.9994 0.9732
-4.4273 4.1873 -2.9973 0.9732
-5.6026 2.3756 -2.9931 0.9732
-5.7900 1.8670 -2.9922 0.9732
-6.0258 0.8104 -2.9905 0.9733
-6.0724 0.2708 -2.9897 0.9733
-6.0711 -0.2707 -2.9890 0.9733
-6.0216 -0.8098 -2.9884 0.9733
-5.9246 -1.3423 -2.9879 0.9733
-5.5912 -2.3709 -2.9871 0.9733
-4.7653 -3.7631 -2.9866 0.9733
-4.4115 -4.1724 -2.9866 0.9733
-3.1531 -5.1907 -2.9872 0.9733
-2.6790 -5.4515 -2.9876 0.9733
-2.1675 -5.6278 -2.9663 0.9735
-0.0670 -6.0105 -2.9565 0.9736
0.4685 -5.9958 -2.9581 0.9735
1.5260 -5.8248 -2.9616 0.9735
2.0398 -5.6697 -2.9636 0.9735
2.5381 -5.4694 -2.9657 0.9735
3.4728 -4.9401 -2.9701 0.9734
3.9017 -4.6150 -2.9725 0.9734
4.6656 -3.8562 -2.9772 0.9734
4.9942 -3.4283 -2.9795 0.9734
5.5316 -2.4924 -2.9842 0.9733
5.7358 -1.9917 -2.9864 0.9733
6.0539 0.6773 -2.9962 0.9732
5.9727 1.2140 -2.9978 0.9732
5.6866 2.2632 -3.0104 0.9731
5.4631 2.7606 -3.0107 0.9731
4.8876 3.6860 -3.0110 0.9731
4.5401 4.1063 -3.0110 0.9731
3.7398 4.8458 -3.0107 0.9731
3.2933 5.1589 -3.0104 0.9731
2.8207 5.4309 -3.0100 0.9731
1.2850 5.9799 -3.0084 0.9731
-0.8818 6.0458 -3.0051 0.9731
-1.4159 5.9414 -3.0042 0.9731
-2.9323 5.3507 -3.0011 0.9732
-3.3957 5.0667 -3.0000 0.9732
-4.9433 3.5580 -2.9957 0.9732
-5.2385 3.1028 -2.9946 0.9732
-5.9845 1.0782 -2.9909 0.9733
-6.0551 0.5411 -2.9901 0.9733
-5.7371 -1.0336 -2.9886 0.9741
-5.6214 -1.5398 -2.9881 0.9741
-5.0134 -2.9694 -2.9872 0.9741
-4.4072 -3.8110 -2.9871 0.9741
-4.0506 -4.1883 -2.9871 0.9741
-3.6620 -4.5324 -2.9873 0.9741
-3.2443 -4.8408 -2.9875 0.9741
-2.8009 -5.1109 -2.9879 0.9741
-1.8337 -5.4769 -2.9610 0.9744
-1.3358 -5.6054 -2.9542 0.9744
0.7057 -5.7296 -2.9596 0.9744
1.2135 -5.6474 -2.9613 0.9744
2.6677 -5.1362 -2.9672 0.9743
3.1165 -4.8819 -2.9693 0.9743
3.5412 -4.5885 -2.9715 0.9743
4.3052 -3.8938 -2.9760 0.9742
5.1928 -2.6240 -2.9828 0.9742
5.5838 -1.6641 -2.9871 0.9741
5.7137 -1.1613 -2.9891 0.9741
5.8282 0.3902 -2.9946 0.9741
5.7733 0.9078 -2.9962 0.9741
5.5458 1.9257 -3.0097 0.9740
5.1175 2.8791 -3.0103 0.9740
3.3766 4.8033 -3.0101 0.9740
2.4709 5.3246 -3.0093 0.9740
1.4871 5.6763 -3.0083 0.9740
-0.0653 5.8633 -3.0061 0.9740
-0.5868 5.8326 -3.0053 0.9740
-1.1032 5.7555 -3.0044 0.9740
-2.1049 5.4653 -3.0025 0.9740
-2.5821 5.2545 -3.0015 0.9740
-3.0385 5.0021 -3.0005 0.9740
-3.4704 4.7102 -2.9994 0.9740
-3.8746 4.3810 -2.9984 0.9741
-4.5868 3.6221 -2.9963 0.9741
-5.3755 2.2794 -2.9934 0.9741
-5.8253 -0.2597 -2.9894 0.9741
-5.7779 -0.7771 -2.9888 0.9741
-4.5726 -3.6109 -2.9871 0.9741
-4.2331 -4.0036 -2.9871 0.9741
-3.8601 -4.3646 -2.9872 0.9741
-3.4565 -4.6912 -2.9874 0.9741
-1.5862 -5.5474 -2.9580 0.9744
-0.5771 -5.7368 -2.9559 0.9744
-0.0643 -5.7681 -2.9573 0.9744
0.9605 -5.6941 -2.9605 0.9744
1.4644 -5.5894 -2.9623 0.9744
3.3321 -4.7400 -2.9704 0.9743
4.1259 -4.0802 -2.9749 0.9743
4.4761 -3.6996 -2.9771 0.9742
5.3065 -2.3910 -2.9839 0.9742
5.6543 -1.4142 -2.9881 0.9741
5.7616 -0.9059 -2.9901 0.9741
5.8231 -0.3898 -2.9920 0.9741
5.6083 1.6715 -3.0002 0.9740
5.4549 2.1710 -3.0099 0.9740
4.6884 3.5357 -3.0105 0.9739
3.9871 4.3108 -3.0104 0.9740
3.5874 4.6483 -3.0102 0.9740
2.2310 5.4290 -3.0091 0.9740
1.7387 5.6050 -3.0086 0.9740
1.2326 5.7363 -3.0080 0.9740
0.7171 5.8220 -3.0073 0.9740
0.1960 5.8612 -3.0065 0.9740
-0.3264 5.8538 -3.0057 0.9740
-1.3583 5.6998 -3.0039 0.9740
-4.0652 4.2033 -2.9979 0.9741
-4.7428 3.4137 -2.9958 0.9741
-5.4709 2.0374 -2.9929 0.9741
-5.8099 0.5192 -2.9904 0.9741
-5.5777 -0.4984 -2.9895 0.9749
-5.3992 -1.4790 -2.9885 0.9749
-5.0503 -2.4123 -2.9879 0.9749
-4.8153 -2.8521 -2.9877 0.9749
-4.5421 -3.2692 -2.9875 0.9749
-4.2331 -3.6604 -2.9875 0.9749
-2.6902 -4.9089 -2.9883 0.9749
-2.2429 -5.1295 -2.9887 0.9749
-1.7645 -5.2703 -2.9670 0.9751
-1.2842 -5.3889 -2.9574 0.9752
3.7825 -4.0896 -2.9739 0.9751
4.1345 -3.7394 -2.9760 0.9750
4.4542 -3.3590 -2.9782 0.9750
4.7389 -2.9514 -2.9804 0.9750
4.9864 -2.5197 -2.9825 0.9750
5.4861 -1.1151 -2.9886 0.9749
5.5671 -0.6228 -2.9905 0.9749
5.6037 -0.1248 -2.9923 0.9749
5.5957 0.3746 -2.9939 0.9749
5.5429 0.8716 -2.9954 0.9749
5.4458 1.3621 -2.9968 0.9749
4.9138 2.7645 -3.0098 0.9748
4.0090 3.9646 -3.0100 0.9748
3.6401 4.3055 -3.0098 0.9748
3.2422 4.6121 -3.0096 0.9748
2.8185 4.8819 -3.0093 0.9748
1.9078 5.3027 -3.0085 0.9748
-0.0627 5.6302 -3.0058 0.9748
-1.0594 5.5268 -3.0042 0.9748
-1.5467 5.4090 -3.0033 0.9748
-2.4796 5.0459 -3.0014 0.9748
-2.9179 4.8036 -3.0004 0.9748
-3.7209 4.2073 -2.9984 0.9749
-4.6956 3.0717 -2.9954 0.9749
-5.3355 1.7205 -2.9927 0.9749
-5.4659 1.2384 -2.9919 0.9749
-5.5962 0.2496 -2.9904 0.9749
-5.5949 -0.2495 -2.9898 0.9749
-5.4602 -1.2371 -2.9887 0.9749
-5.1530 -2.1851 -2.9880 0.9749
-4.9377 -2.6348 -2.9877 0.9749
-4.3919 -3.4683 -2.9875 0.9749
-3.3199 -4.5058 -2.9878 0.9749
-2.4690 -5.0242 -2.9885 0.9749
-1.5247 -5.3321 -2.9606 0.9752
-0.0617 -5.5407 -2.9581 0.9752
3.9624 -3.9185 -2.9749 0.9750
4.2986 -3.5529 -2.9771 0.9750
4.6011 -3.1585 -2.9793 0.9750
5.0955 -2.2959 -2.9836 0.9750
5.2833 -1.8346 -2.9857 0.9750
5.4293 -1.3579 -2.9877 0.9749
5.5321 -0.8699 -2.9896 0.9749
5.4999 1.1179 -2.9961 0.9749
5.0319 2.5427 -3.0097 0.9748
4.5017 3.3949 -3.0100 0.9748
4.1817 3.7821 -3.0100 0.9748
3.8284 4.1392 -3.0099 0.9748
3.4446 4.4633 -3.0097 0.9748
2.1423 5.2129 -3.0087 0.9748
1.1836 5.5081 -3.0076 0.9748
0.1882 5.6282 -3.0062 0.9748
-0.8123 5.5694 -3.0046 0.9748
-1.7858 5.3339 -3.0028 0.9748
-2.2528 5.1522 -3.0019 0.9748
-3.1285 4.6680 -2.9999 0.9748
-3.5303 4.3696 -2.9989 0.9749
-4.5548 3.2784 -2.9959 0.9749
-4.8270 2.8590 -2.9950 0.9749
-5.0608 2.4173 -2.9940 0.9749
-5.2543 1.9567 -2.9931 0.9749
-5.5149 0.9936 -2.9915 0.9749
-5.5801 0.4987 -2.9908 0.9749
-5.3843 0.0000 -2.9904 0.9757
-5.2971 -0.9543 -2.9893 0.9757
-5.1904 -1.4218 -2.9889 0.9757
-4.8550 -2.3190 -2.9883 0.9757
-4.0694 -3.5189 -2.9880 0.9757
-3.7401 -3.8672 -2.9880 0.9757
-2.9956 -4.4697 -2.9884 0.9757
-1.7008 -5.0800 -2.9753 0.9758
-1.2358 -5.1849 -2.9602 0.9759
-0.2965 -5.3179 -2.9581 0.9759
0.1781 -5.3256 -2.9595 0.9759
1.1206 -5.2150 -2.9625 0.9759
2.0299 -4.9395 -2.9660 0.9759
2.8773 -4.5072 -2.9699 0.9758
4.2813 -3.2286 -2.9782 0.9758
4.7925 -2.4218 -2.9823 0.9757
4.9924 -1.9869 -2.9843 0.9757
5.1529 -1.5357 -2.9863 0.9757
5.3852 -0.1200 -2.9917 0.9757
5.3773 0.3600 -2.9932 0.9756
5.2367 1.3097 -2.9982 0.9756
4.7224 2.6568 -3.0094 0.9755
4.4674 3.0667 -3.0095 0.9755
4.1768 3.4522 -3.0096 0.9755
3.8529 3.8102 -3.0095 0.9755
3.4983 4.1379 -3.0094 0.9755
3.1159 4.4325 -3.0092 0.9755
1.8335 5.0963 -3.0081 0.9755
-0.0603 5.4113 -3.0056 0.9755
-0.5415 5.3830 -3.0048 0.9755
-1.0182 5.3120 -3.0040 0.9756
-1.4866 5.1988 -3.0031 0.9756
-1.9428 5.0443 -3.0022 0.9756
-3.2034 4.3477 -2.9994 0.9756
-3.9210 3.7085 -2.9974 0.9756
-5.1288 1.6538 -2.9930 0.9756
-5.2543 1.1905 -2.9922 0.9757
-5.3381 0.7179 -2.9914 0.9757
-5.3785 -0.2398 -2.9901 0.9757
-5.1216 -1.6515 -2.9887 0.9757
-4.5023 -2.9452 -2.9880 0.9757
-3.5642 -4.0301 -2.9881 0.9757
-3.1915 -4.3316 -2.9883 0.9757
-2.7936 -4.5989 -2.9885 0.9757
-1.0022 -5.2283 -2.9566 0.9759
-0.5330 -5.2983 -2.9575 0.9759
-0.0594 -5.3270 -2.9588 0.9759
0.4152 -5.3136 -2.9602 0.9759
1.8073 -5.0235 -2.9651 0.9759
3.8087 -3.7665 -2.9750 0.9758
4.1317 -3.4149 -2.9771 0.9758
4.4224 -3.0358 -2.9792 0.9758
4.8973 -2.2066 -2.9833 0.9757
5.0777 -1.7632 -2.9853 0.9757
5.3165 -0.8360 -2.9891 0.9757
5.1915 1.5473 -3.0087 0.9755
5.0338 2.0034 -3.0090 0.9755
4.3264 3.2627 -3.0096 0.9755
3.6793 3.9780 -3.0095 0.9755
2.4969 4.8075 -3.0087 0.9755
1.6045 5.1725 -3.0078 0.9755
0.6617 5.3729 -3.0066 0.9755
0.1809 5.4093 -3.0059 0.9755
