ply
format ascii 1.0
element vertex 1589
property float32 x
property float32 y
property float32 z
property float32 I
end_header
7.2305 2.5107 0.5736 0.9698
7.2132 0.8069 0.5439 0.9713
1.9050 8.8653 0.6795 0.9643
-6.0218 -10.9884 0.7298 0.9510
7.4156 0.4964 0.4329 0.9707
6.8699 1.7183 0.4124 0.9720
8.0659 0.1798 0.4699 0.9682
1.9050 8.8653 0.5281 0.9643
7.3219 0.4902 0.3051 0.9710
6.9092 1.0864 0.2908 0.9724
7.0239 2.4390 0.3092 0.9707
7.8423 0.1748 0.3262 0.9691
7.7188 3.0720 0.3454 0.9673
1.9051 8.8654 0.3770 0.9643
6.8717 1.0805 0.1735 0.9726
6.9605 2.4169 0.1837 0.9709
7.7072 0.1718 0.1923 0.9696
7.0183 0.7851 0.1761 0.9721
6.7920 1.3805 0.1728 0.9726
7.4193 2.9528 0.1991 0.9686
1.9051 8.8654 0.2261 0.9644
-6.0214 -10.9876 0.1041 0.9511
6.8359 1.0749 0.0575 0.9727
6.7357 1.6847 0.0577 0.9726
7.6349 0.1702 0.0635 0.9699
6.9778 0.7806 0.0584 0.9723
6.7580 1.3736 0.0573 0.9728
1.9051 8.8654 0.0754 0.9644
6.7044 1.6769 -0.0574 0.9727
6.8610 2.3824 -0.0604 0.9714
7.5718 0.1688 -0.0629 0.9702
6.7271 1.3674 -0.0571 0.9729
6.7410 2.0090 -0.0585 0.9723
1.9051 8.8655 -0.0754 0.9644
7.1531 0.4788 -0.1788 0.9717
6.8469 2.3775 -0.1808 0.9714
7.5491 0.1682 -0.1883 0.9702
6.9297 0.7752 -0.1739 0.9725
6.7164 1.3652 -0.1709 0.9729
6.7292 2.0055 -0.1751 0.9723
7.1814 2.8581 -0.1928 0.9695
1.9051 8.8655 -0.2261 0.9644
6.6827 1.6715 -0.2864 0.9728
6.9181 0.7739 -0.2894 0.9725
6.7173 2.0020 -0.2914 0.9723
7.1553 2.8477 -0.3202 0.9696
1.9051 8.8656 -0.3770 0.9643
7.1300 0.4773 -0.4162 0.9718
6.6749 1.6695 -0.4007 0.9728
6.8275 2.3708 -0.4210 0.9715
-6.0207 -10.9864 -0.9388 0.9510
6.7844 1.0668 -0.5147 0.9728
6.8423 2.3759 -0.5428 0.9714
6.9229 0.7744 -0.5220 0.9724
6.7088 1.3636 -0.5130 0.9729
7.1835 2.8590 -0.5794 0.9695
-6.0206 -10.9862 -1.1485 0.9509
6.6979 1.6753 -0.6330 0.9726
7.5715 0.1687 -0.6943 0.9700
6.7202 1.3659 -0.6287 0.9728
6.7353 2.0073 -0.6443 0.9722
7.2113 2.8700 -0.7115 0.9693
1.9051 8.8657 -0.8313 0.9642
7.1965 0.4818 -0.7823 0.9714
6.8130 1.0713 -0.7481 0.9726
7.6360 0.1702 -0.8285 0.9697
6.7355 1.3690 -0.7455 0.9727
6.7564 2.0136 -0.7647 0.9720
1.9051 8.8657 -0.9836 0.9642
7.2505 0.4854 -0.9106 0.9711
6.9496 2.4132 -0.9219 0.9708
7.7152 0.1719 -0.9671 0.9694
6.9988 0.7829 -0.8825 0.9720
6.7714 1.3763 -0.8659 0.9725
7.4702 2.9731 -1.0076 0.9681
1.9051 8.8657 -1.1364 0.9641
-6.0202 -10.9854 -1.7818 0.9506
6.8893 1.0833 -0.9919 0.9722
6.7880 1.6978 -0.9952 0.9721
7.8916 0.1759 -1.1228 0.9686
6.8078 1.3837 -0.9881 0.9723
6.8369 2.0376 -1.0147 0.9716
-9.1809 -11.3634 -2.3262 0.9425
-6.0200 -10.9852 -1.9947 0.9505
7.4054 0.4957 -1.1819 0.9704
6.9446 1.0920 -1.1194 0.9719
6.8422 1.7113 -1.1231 0.9718
7.1248 2.4740 -1.2010 0.9699
6.8592 1.3942 -1.1146 0.9720
-9.1337 -11.3050 -2.5627 0.9427
-6.0199 -10.9849 -2.2087 0.9504
7.1953 0.8049 -1.2766 0.9710
6.9284 1.4083 -1.2466 0.9717
6.9953 2.0848 -1.2871 0.9708
1.9052 8.8658 -1.5990 0.9638
-9.0867 -11.2467 -2.7980 0.9428
-8.1969 -12.2307 -2.8493 0.9418
-6.0198 -10.9847 -2.4240 0.9502
-3.3618 -14.1068 -2.8064 0.9426
7.1048 1.1172 -1.3918 0.9711
7.0029 1.7516 -1.3969 0.9710
2.4384 14.4557 -2.8370 0.9420
-0.1638 14.7016 -2.8452 0.9419
-1.4731 14.6427 -2.8479 0.9418
-7.6318 -12.5636 -2.8447 0.9419
-6.4548 -13.1351 -2.8322 0.9421
-5.2393 -13.6036 -2.8210 0.9423
-3.9931 -13.9647 -2.8107 0.9425
7.3068 0.8174 -1.4228 0.9705
7.1185 2.1216 -1.4374 0.9702
1.9052 8.8659 -1.7549 0.9637
1.7928 14.5564 -2.8382 0.9420
0.4910 14.6874 -2.8439 0.9419
-0.8189 14.6867 -2.8465 0.9418
-14.1309 -2.5458 -3.0270 0.9430
-13.8473 -3.7932 -3.0268 0.9430
-12.9509 -6.1861 -3.0258 0.9430
-12.2304 -7.2440 -2.9967 0.9435
-9.4696 -9.7915 -2.8717 0.9458
-6.0196 -10.9844 -2.6407 0.9501
-4.2988 -12.8399 -2.8546 0.9462
-3.1108 -13.0533 -2.8290 0.9466
-0.7779 -13.9512 -2.9458 0.9445
2.9325 -13.6469 -2.9427 0.9445
5.3038 -12.9060 -2.9416 0.9446
8.5258 -11.0472 -2.9419 0.9446
9.4772 -10.2466 -2.9425 0.9445
10.3545 -9.3651 -2.9433 0.9445
12.4772 -6.3050 -2.9472 0.9445
12.9888 -5.1695 -2.9472 0.9445
14.0078 -0.3121 -2.9539 0.9443
7.2329 1.1373 -1.5436 0.9705
7.1353 1.7847 -1.5506 0.9704
12.8348 5.7831 -2.9678 0.9441
12.2819 6.9097 -2.9709 0.9440
8.1265 11.5601 -2.9790 0.9439
4.7933 13.3233 -2.9851 0.9438
3.4086 13.0107 -2.8355 0.9465
-1.3524 13.4433 -2.8484 0.9463
-2.5459 13.2815 -2.8510 0.9462
-8.0579 10.9362 -2.8638 0.9460
-9.0028 10.1796 -2.8649 0.9460
-9.8702 9.3352 -2.8641 0.9460
-11.9867 7.8413 -3.0197 0.9431
-12.6438 6.7470 -3.0213 0.9431
-13.6519 4.4022 -3.0240 0.9430
-14.2249 1.9131 -3.0259 0.9430
-14.3415 0.6395 -3.0265 0.9430
-14.3434 -0.6396 -3.0269 0.9430
-14.2303 -1.9138 -3.0270 0.9430
-14.0031 -3.1727 -3.0270 0.9430
-13.6638 -4.4060 -3.0267 0.9430
-13.2151 -5.6037 -3.0261 0.9430
-11.4435 -7.4859 -2.8829 0.9456
-9.0240 -10.2035 -2.8717 0.9458
-4.8831 -12.6787 -2.8643 0.9460
-1.3991 -13.9070 -2.9467 0.9445
2.3220 -13.7660 -2.9431 0.9445
3.5371 -13.5010 -2.9424 0.9445
4.7239 -13.1302 -2.9418 0.9446
5.8732 -12.6564 -2.9415 0.9446
6.9763 -12.0833 -2.9415 0.9446
10.7633 -8.8961 -2.9439 0.9445
11.5171 -7.9060 -2.9451 0.9445
12.1809 -6.8529 -2.9465 0.9445
12.7460 -5.7430 -2.9473 0.9445
13.2051 -4.5853 -2.9470 0.9445
13.5685 -3.3937 -2.9486 0.9444
13.8259 -2.1740 -2.9506 0.9444
14.0133 0.3123 -2.9550 0.9443
7.4566 0.8341 -1.5818 0.9698
7.2783 2.1692 -1.6011 0.9694
11.9681 7.4538 -2.9725 0.9440
11.2622 8.4933 -2.9738 0.9440
9.5867 10.3651 -2.9765 0.9439
6.5195 12.5522 -2.9819 0.9438
0.4509 13.4861 -2.8447 0.9463
-0.7519 13.4843 -2.8472 0.9463
-3.1364 13.1609 -2.8523 0.9462
-4.2993 12.8412 -2.8549 0.9461
-5.4300 12.4188 -2.8575 0.9461
-6.5197 11.8969 -2.8600 0.9461
-7.5594 11.2794 -2.8626 0.9460
-8.5406 10.5709 -2.8650 0.9460
-9.4461 9.7672 -2.8646 0.9460
-10.2746 8.8848 -2.8636 0.9460
-12.3275 7.3016 -3.0205 0.9431
-12.9350 6.1786 -3.0221 0.9431
-14.2975 1.2776 -3.0262 0.9430
-13.2514 0.0000 -3.0245 0.9471
-13.1999 -1.1795 -3.0248 0.9471
-13.0427 -2.3497 -3.0248 0.9471
-12.4171 -4.6242 -3.0243 0.9471
-11.3953 -6.7495 -3.0229 0.9471
-9.5023 -8.2169 -2.8673 0.9498
-8.7341 -9.0309 -2.8675 0.9498
-1.8721 -12.8358 -2.9607 0.9482
-0.7190 -12.8952 -2.9478 0.9484
0.4313 -12.9014 -2.9463 0.9484
1.5775 -12.8086 -2.9456 0.9484
4.9029 -11.9306 -2.9441 0.9485
7.8814 -10.2123 -2.9443 0.9484
8.7608 -9.4720 -2.9449 0.9484
9.5716 -8.6570 -2.9457 0.9484
10.9599 -6.8258 -2.9470 0.9484
11.5231 -5.8229 -2.9468 0.9484
12.0001 -4.7759 -2.9479 0.9484
12.8582 -1.4384 -2.9531 0.9483
12.9442 -0.2885 -2.9552 0.9483
12.9290 0.8655 -2.9576 0.9482
7.3277 1.8328 -1.7240 0.9695
12.2736 4.2619 -2.9655 0.9481
9.2756 9.1728 -2.9775 0.9479
8.4264 9.9668 -2.9789 0.9479
7.5099 10.6829 -2.9805 0.9478
6.5330 11.3156 -2.9822 0.9478
0.9709 12.4248 -2.8445 0.9502
-0.1390 12.4708 -2.8466 0.9501
-2.3517 12.2687 -2.8512 0.9500
-6.5072 10.7123 -2.8608 0.9499
-7.4401 10.0978 -2.8628 0.9498
-9.1085 8.6148 -2.8615 0.9499
-10.3718 8.1905 -3.0164 0.9472
-11.0657 7.2388 -3.0181 0.9472
-12.6015 4.0635 -3.0220 0.9471
-13.1344 -1.7664 -3.0248 0.9471
-12.6117 -4.0667 -3.0245 0.9471
-12.1977 -5.1723 -3.0240 0.9471
-11.6863 -6.2360 -3.0233 0.9471
-11.0816 -7.2492 -3.0224 0.9471
-8.3231 -9.4110 -2.8675 0.9498
-7.4516 -10.1133 -2.8672 0.9498
-5.5361 -11.2656 -2.8650 0.9498
-4.5061 -11.6996 -2.8616 0.9499
-3.4415 -12.0357 -2.8572 0.9499
-2.4636 -12.8526 -2.9869 0.9477
-1.2939 -12.8613 -2.9503 0.9483
-0.1438 -12.9109 -2.9470 0.9484
3.2698 -12.4805 -2.9447 0.9484
4.3669 -12.1379 -2.9442 0.9485
5.4294 -11.7000 -2.9440 0.9485
9.9493 -8.2233 -2.9461 0.9484
11.7725 -5.3044 -2.9472 0.9484
12.9494 0.2886 -2.9564 0.9482
7.7439 0.8663 -1.7785 0.9685
7.2907 1.4819 -1.6981 0.9699
7.6599 2.2829 -1.8243 0.9677
11.6125 5.8681 -2.9697 0.9480
11.0548 6.8850 -2.9725 0.9480
9.6729 8.7486 -2.9768 0.9479
8.8598 9.5792 -2.9782 0.9479
7.9761 10.3350 -2.9797 0.9478
6.0243 11.5989 -2.9832 0.9478
3.8775 12.4998 -2.9871 0.9477
0.4166 12.4601 -2.8455 0.9501
-1.8021 12.3561 -2.8500 0.9501
-2.8971 12.1568 -2.8524 0.9500
-6.9807 10.4160 -2.8619 0.9499
-7.8819 9.7555 -2.8626 0.9498
-9.9640 8.6162 -3.0066 0.9474
-11.9404 5.7035 -3.0203 0.9472
-12.4057 4.6200 -3.0215 0.9471
-12.2494 -1.0946 -3.0229 0.9506
-12.1035 -2.1805 -3.0229 0.9506
-11.5231 -4.2912 -3.0224 0.9506
-11.0934 -5.2989 -3.0219 0.9506
-10.5752 -6.2637 -3.0211 0.9506
-9.9727 -7.1779 -3.0202 0.9506
-8.1287 -8.4050 -2.8741 0.9530
-7.3222 -9.0628 -2.8639 0.9531
-6.4854 -9.6769 -2.8634 0.9531
-5.5966 -10.2125 -2.8625 0.9532
-2.8365 -11.9026 -3.0076 0.9508
3.5508 -11.4466 -2.9458 0.9518
4.5558 -11.0858 -2.9460 0.9518
9.5712 -7.2180 -2.9466 0.9518
10.1774 -6.3385 -2.9471 0.9518
10.7052 -5.4096 -2.9482 0.9518
11.1491 -4.4372 -2.9495 0.9518
11.5055 -3.4290 -2.9510 0.9518
12.0101 0.8040 -2.9587 0.9516
7.7509 1.2188 -1.9286 0.9682
7.7322 1.9340 -1.9591 0.9677
11.3992 3.9583 -2.9660 0.9515
9.9749 6.8474 -2.9739 0.9514
6.9764 9.9242 -2.9818 0.9513
6.0687 10.5114 -2.9834 0.9512
2.9251 11.1650 -2.8370 0.9536
1.9210 11.3887 -2.8389 0.9535
-4.1759 10.8423 -2.8559 0.9533
-6.9030 9.3689 -2.8605 0.9532
-10.2705 6.7187 -3.0167 0.9507
-10.8327 5.7805 -3.0181 0.9507
-11.6949 3.7711 -3.0203 0.9506
-12.1846 1.6387 -3.0219 0.9506
-12.2843 0.5478 -3.0225 0.9506
-12.1886 -1.6392 -3.0229 0.9506
-11.9941 -2.7175 -3.0229 0.9506
-11.7035 -3.7739 -3.0226 0.9506
-11.3196 -4.7999 -3.0222 0.9506
-10.8452 -5.7871 -3.0215 0.9506
-10.2842 -6.7276 -3.0207 0.9506
-7.7189 -8.7279 -2.8640 0.9531
-6.0471 -9.9549 -2.8630 0.9532
-5.1345 -10.4484 -2.8616 0.9532
-4.1801 -10.8534 -2.8588 0.9532
-3.2189 -11.2571 -2.8779 0.9529
-2.3027 -12.0130 -3.0066 0.9509
1.9938 -11.8203 -2.9465 0.9518
3.0372 -11.5928 -2.9457 0.9518
4.0573 -11.2775 -2.9460 0.9518
6.8933 -9.8058 -2.9462 0.9518
8.5238 -8.4294 -2.9466 0.9518
9.2405 -7.6372 -2.9467 0.9518
9.8833 -6.7845 -2.9466 0.9518
10.4516 -5.8800 -2.9476 0.9518
11.6499 -2.9138 -2.9518 0.9517
7.5706 1.5388 -1.8989 0.9687
11.2164 4.4641 -2.9673 0.9515
10.2654 6.3934 -2.9726 0.9514
9.6643 7.2882 -2.9753 0.9514
8.2310 8.8993 -2.9796 0.9513
7.4097 9.6011 -2.9810 0.9513
6.5292 10.2278 -2.9826 0.9512
4.6176 11.2364 -2.9860 0.9512
3.6015 11.6101 -2.9879 0.9512
-0.6451 11.5693 -2.8482 0.9534
-1.6735 11.4747 -2.8503 0.9534
-3.6873 11.0133 -2.8548 0.9533
-4.6565 10.6497 -2.8570 0.9533
-7.3130 9.0514 -2.8602 0.9532
-8.0879 8.3629 -2.8597 0.9532
-9.9585 7.1677 -3.0159 0.9507
-10.5621 6.2560 -3.0174 0.9507
-11.0818 5.2934 -3.0187 0.9507
-11.8531 3.2469 -3.0208 0.9506
-11.4650 0.0000 -3.0210 0.9537
-11.2842 -2.0329 -3.0213 0.9537
-11.0580 -3.0291 -3.0211 0.9537
-10.7433 -4.0008 -3.0208 0.9537
-9.2983 -6.6925 -3.0187 0.9537
-8.6628 -7.4910 -3.0177 0.9537
-7.0225 -8.6919 -2.9444 0.9548
-6.0440 -9.0183 -2.8606 0.9561
-5.2151 -9.5162 -2.8594 0.9561
-4.3446 -9.9363 -2.8576 0.9561
-2.6455 -11.1007 -3.0070 0.9539
1.3679 -11.1065 -2.9487 0.9548
4.2506 -10.3431 -2.9466 0.9548
5.1538 -9.9229 -2.9463 0.9548
6.0164 -9.4245 -2.9462 0.9548
6.8316 -8.8519 -2.9463 0.9548
7.5931 -8.2096 -2.9467 0.9548
8.2951 -7.5024 -2.9471 0.9548
9.4989 -5.9159 -2.9487 0.9548
9.9912 -5.0488 -2.9497 0.9547
10.4052 -4.1412 -2.9509 0.9547
10.7374 -3.2001 -2.9523 0.9547
10.9853 -2.2329 -2.9538 0.9547
11.2215 -0.2500 -2.9576 0.9546
10.9130 2.7295 -2.9642 0.9545
10.6352 3.6930 -2.9665 0.9545
9.8281 5.5292 -2.9714 0.9544
9.3047 6.3874 -2.9739 0.9544
8.0420 7.9529 -2.9803 0.9543
5.6630 9.8086 -2.9844 0.9542
4.7701 10.2793 -2.9860 0.9542
3.8384 10.6692 -2.9877 0.9542
2.7292 10.4173 -2.8376 0.9564
1.7923 10.6255 -2.8394 0.9564
0.8400 10.7498 -2.8412 0.9564
-0.1204 10.8065 -2.8477 0.9563
-1.0825 10.7600 -2.8496 0.9563
-2.0373 10.6285 -2.8516 0.9562
-3.8952 10.1136 -2.8557 0.9562
-4.7833 9.7338 -2.8578 0.9561
-5.6323 9.2721 -2.8586 0.9561
-6.4348 8.7333 -2.8584 0.9561
-7.1854 8.1247 -2.8580 0.9561
-8.9768 7.0890 -3.0140 0.9538
-10.5442 4.4712 -3.0179 0.9537
-10.9039 3.5161 -3.0189 0.9537
-11.1767 2.5323 -3.0197 0.9537
-11.3602 1.5278 -3.0204 0.9537
-11.3636 -1.5283 -3.0213 0.9537
-11.1823 -2.5335 -3.0212 0.9537
-10.9115 -3.5185 -3.0210 0.9537
-10.1114 -5.3956 -3.0200 0.9537
-9.5886 -6.2726 -3.0192 0.9537
-8.9895 -7.0989 -3.0183 0.9537
-4.7846 -9.7363 -2.8586 0.9561
-3.1383 -10.9753 -3.0079 0.9539
-2.1476 -11.2041 -3.0060 0.9539
-1.1259 -11.1913 -2.9638 0.9545
-0.1247 -11.1967 -2.9505 0.9547
1.8609 -11.0325 -2.9481 0.9548
3.7859 -10.5230 -2.9468 0.9548
4.7068 -10.1430 -2.9464 0.9548
5.5906 -9.6832 -2.9463 0.9548
6.4303 -9.1472 -2.9463 0.9548
7.9519 -7.8638 -2.9469 0.9548
9.7546 -5.4878 -2.9492 0.9548
10.2082 -4.5996 -2.9503 0.9547
11.0773 -1.7418 -2.9547 0.9547
11.1666 1.2492 -2.9608 0.9546
10.7848 3.2143 -2.9653 0.9545
10.4644 4.1648 -2.9677 0.9545
9.0147 6.7983 -2.9751 0.9544
7.6813 8.3050 -2.9809 0.9543
6.0927 9.5442 -2.9836 0.9542
-0.6019 10.7938 -2.8486 0.9563
-2.5097 10.5310 -2.8526 0.9562
-3.4395 10.2733 -2.8547 0.9562
-5.2137 9.5139 -2.8587 0.9561
-9.2860 6.6836 -3.0147 0.9538
-9.8484 5.8333 -3.0161 0.9538
-10.3327 4.9355 -3.0173 0.9537
-10.7348 3.9977 -3.0184 0.9537
-11.4180 1.0203 -3.0206 0.9537
-10.5630 -1.9030 -3.0198 0.9564
-10.3512 -2.8355 -3.0197 0.9564
-9.6820 -4.6247 -3.0189 0.9564
-8.7044 -6.2650 -3.0175 0.9564
-6.7327 -8.3331 -3.0142 0.9565
-5.9616 -8.8953 -3.0128 0.9565
-5.0831 -9.2755 -2.9759 0.9570
-3.3944 -10.1385 -3.0082 0.9565
-2.4771 -10.3944 -3.0064 0.9566
-0.5860 -10.5091 -2.9614 0.9572
0.3505 -10.4838 -2.9513 0.9573
1.2818 -10.4071 -2.9502 0.9574
2.2022 -10.2484 -2.9493 0.9574
5.6375 -8.8310 -2.9478 0.9574
7.1149 -7.6926 -2.9482 0.9574
8.3692 -6.3115 -2.9493 0.9574
9.3614 -4.7305 -2.9511 0.9574
9.7490 -3.8800 -2.9522 0.9573
10.2925 -2.0920 -2.9551 0.9573
10.4989 0.7028 -2.9605 0.9572
10.4019 1.6357 -2.9626 0.9572
9.9617 3.4591 -2.9670 0.9571
9.2047 5.1785 -2.9715 0.9571
8.7141 5.9819 -2.9739 0.9570
8.1650 6.7486 -2.9804 0.9569
7.5345 7.4511 -2.9814 0.9569
6.8441 8.0953 -2.9826 0.9569
6.0991 8.6761 -2.9839 0.9569
2.5566 9.7584 -2.8382 0.9589
0.7881 10.0858 -2.8464 0.9588
-2.7885 9.7518 -2.8537 0.9587
-3.6478 9.4714 -2.8556 0.9587
-5.2716 8.6782 -2.8568 0.9587
-7.7765 7.3550 -3.0116 0.9565
-8.9657 5.8651 -3.0144 0.9565
-9.4559 5.0459 -3.0156 0.9564
-9.8710 4.1857 -3.0166 0.9564
-10.4627 2.3705 -3.0183 0.9564
-10.7210 0.4781 -3.0194 0.9564
-10.7220 -0.4781 -3.0197 0.9564
-10.2142 -3.2936 -3.0195 0.9564
-9.8792 -4.1891 -3.0191 0.9564
-9.4654 -5.0509 -3.0186 0.9564
-8.9761 -5.8719 -3.0179 0.9564
-4.6686 -9.5002 -2.9783 0.9570
-2.0110 -10.4913 -3.0055 0.9566
-1.0605 -10.5419 -2.9810 0.9569
-0.1169 -10.4950 -2.9530 0.9573
0.8170 -10.4557 -2.9508 0.9574
2.6562 -10.1388 -2.9489 0.9574
3.5474 -9.8602 -2.9483 0.9574
4.4104 -9.5042 -2.9480 0.9574
7.4510 -7.3685 -2.9484 0.9574
8.6432 -5.9332 -2.9497 0.9574
9.9142 -3.4426 -2.9528 0.9573
10.3784 -1.6319 -2.9559 0.9573
10.4887 -0.7021 -2.9577 0.9573
10.3224 2.0981 -2.9637 0.9572
10.1021 3.0108 -2.9658 0.9571
9.8015 3.9009 -2.9681 0.9571
7.1965 7.7808 -2.9820 0.9569
6.4781 8.3939 -2.9832 0.9569
4.8918 9.4184 -2.9860 0.9569
4.0362 9.8216 -2.9876 0.9568
3.1477 10.1474 -2.9892 0.9568
1.9053 8.8663 -2.5515 0.9630
-0.5638 10.1102 -2.8490 0.9588
-4.8798 8.9045 -2.8569 0.9587
-5.6528 8.4345 -2.8568 0.9587
-6.3803 7.8971 -2.8565 0.9587
-8.0985 7.0030 -3.0123 0.9565
-8.6936 6.2573 -3.0137 0.9565
-9.2199 5.4610 -3.0150 0.9564
-9.6731 4.6205 -3.0161 0.9564
-10.3454 2.8339 -3.0180 0.9564
-10.5590 1.9023 -3.0187 0.9564
-9.7239 -2.6636 -3.0184 0.9588
-9.4473 -3.5182 -3.0181 0.9588
-9.0953 -4.3445 -3.0176 0.9588
-8.1773 -5.8856 -3.0163 0.9588
-6.9997 -7.2376 -3.0144 0.9588
-6.3253 -7.8289 -3.0132 0.9588
-4.8328 -8.8187 -3.0106 0.9589
-2.3276 -9.7670 -3.0059 0.9589
-1.4482 -9.9299 -3.0043 0.9590
-0.5523 -9.9043 -2.9698 0.9594
2.0707 -9.6362 -2.9507 0.9597
3.7449 -9.1126 -2.9495 0.9597
5.3006 -8.3032 -2.9492 0.9597
6.0188 -7.7987 -2.9493 0.9597
8.3679 -5.2116 -2.9513 0.9597
9.1658 -3.6479 -2.9534 0.9596
9.4583 -2.8188 -2.9547 0.9596
9.6764 -1.9668 -2.9562 0.9596
9.8184 -1.0983 -2.9578 0.9596
9.8829 -0.2202 -2.9595 0.9596
9.8694 0.6607 -2.9613 0.9595
9.6087 2.4033 -2.9653 0.9595
9.3632 3.2513 -2.9673 0.9595
9.0432 4.0747 -2.9695 0.9594
8.6509 4.8670 -2.9716 0.9594
8.1894 5.6217 -2.9738 0.9594
7.0833 7.0049 -2.9824 0.9593
5.7336 8.1561 -2.9848 0.9592
1.5791 9.3616 -2.8423 0.9611
-2.6206 9.1648 -2.8537 0.9610
-4.9514 8.1511 -2.8552 0.9610
-6.6591 7.5296 -3.0093 0.9589
-7.3064 6.9104 -3.0108 0.9589
-8.8836 4.7405 -3.0145 0.9588
-9.5893 3.0922 -3.0164 0.9588
-9.8288 2.2269 -3.0171 0.9588
-10.0713 0.4491 -3.0181 0.9588
-10.0722 -0.4491 -3.0184 0.9588
-8.8919 -4.7449 -3.0174 0.9588
-7.3165 -6.9199 -3.0149 0.9588
-5.2220 -8.5966 -3.0113 0.9589
-4.4341 -9.0230 -3.0099 0.9589
-3.6116 -9.3772 -3.0084 0.9589
-2.7612 -9.6563 -3.0068 0.9589
-1.0024 -9.9640 -2.9981 0.9590
2.4976 -9.5332 -2.9504 0.9597
3.3355 -9.2711 -2.9498 0.9597
4.1468 -8.9363 -2.9493 0.9597
5.6653 -8.0589 -2.9492 0.9597
7.5958 -6.2781 -2.9502 0.9597
8.1264 -5.5784 -2.9509 0.9597
8.5930 -4.8344 -2.9518 0.9597
9.3212 -3.2366 -2.9540 0.9596
9.8333 1.1001 -2.9623 0.9595
9.4954 2.8300 -2.9663 0.9595
9.2124 3.6665 -2.9684 0.9594
8.8559 4.4751 -2.9706 0.9594
8.4286 5.2494 -2.9727 0.9594
6.7655 7.3148 -2.9830 0.9593
6.0899 7.8910 -2.9841 0.9592
1.9053 8.8666 -2.7151 0.9628
1.1613 9.4289 -2.8441 0.9611
0.3178 9.5067 -2.8477 0.9611
-0.5299 9.5028 -2.8494 0.9610
-2.2090 9.2695 -2.8528 0.9610
-3.0272 9.0419 -2.8546 0.9610
-3.8207 8.7381 -2.8551 0.9610
-6.1151 7.5687 -2.9131 0.9602
-6.9897 7.2273 -3.0101 0.9589
-7.6088 6.5796 -3.0115 0.9589
-8.1677 5.8788 -3.0128 0.9589
-9.4407 3.5158 -3.0160 0.9588
-9.5003 0.0000 -3.0172 0.9609
-9.3504 -1.6845 -3.0174 0.9609
-8.9024 -3.3153 -3.0170 0.9609
-8.5707 -4.0939 -3.0165 0.9609
-7.7059 -5.5464 -3.0153 0.9609
-6.5965 -6.8207 -3.0135 0.9610
-5.2786 -7.8763 -3.0112 0.9610
-4.5547 -8.3112 -3.0099 0.9610
-3.7951 -8.6797 -3.0085 0.9610
-3.0061 -8.9786 -3.0070 0.9610
-2.1939 -9.2058 -3.0055 0.9611
-0.5237 -9.3919 -2.9874 0.9613
0.3112 -9.3082 -2.9578 0.9617
1.9528 -9.0878 -2.9520 0.9617
2.7533 -8.8759 -2.9514 0.9617
4.2823 -8.2449 -2.9506 0.9618
7.4208 -5.5963 -2.9518 0.9617
7.8915 -4.9148 -2.9525 0.9617
8.3002 -4.1942 -2.9535 0.9617
8.6437 -3.4401 -2.9545 0.9617
8.9194 -2.6582 -2.9558 0.9617
9.2584 -1.0357 -2.9587 0.9617
9.3058 0.6230 -2.9620 0.9616
9.0593 2.2659 -2.9657 0.9616
8.8275 3.0653 -2.9677 0.9615
8.5254 3.8414 -2.9697 0.9615
8.1553 4.5881 -2.9717 0.9615
7.7199 5.2995 -2.9738 0.9615
6.6794 6.6054 -2.9834 0.9613
6.0670 7.1762 -2.9844 0.9613
4.7023 8.1447 -2.9868 0.9613
3.1867 8.8576 -2.9896 0.9613
1.4884 8.8243 -2.8420 0.9631
0.6980 8.9321 -2.8453 0.9631
-1.6906 8.8199 -2.8520 0.9630
-3.2294 8.3850 -2.8536 0.9630
-3.9631 8.0648 -2.8538 0.9630
-6.8860 6.5128 -3.0101 0.9610
-7.4415 5.8765 -3.0114 0.9610
-7.9381 5.1929 -3.0125 0.9610
-8.3718 4.4673 -3.0136 0.9610
-9.0365 2.9139 -3.0154 0.9609
-9.4904 0.4232 -3.0170 0.9609
-9.4912 -0.4232 -3.0173 0.9609
-9.2660 -2.0994 -3.0173 0.9609
-8.7454 -3.7083 -3.0168 0.9609
-7.4502 -5.8834 -3.0149 0.9609
-6.2850 -7.1065 -3.0129 0.9610
-2.6025 -9.1013 -3.0063 0.9611
-1.7811 -9.2920 -3.0047 0.9611
-0.9465 -9.4086 -3.0031 0.9611
-0.1040 -9.3332 -2.9643 0.9616
0.7245 -9.2711 -2.9533 0.9617
2.3554 -8.9907 -2.9517 0.9617
3.9110 -8.4279 -2.9507 0.9618
4.6452 -8.0458 -2.9505 0.9618
5.9984 -7.0949 -2.9506 0.9618
8.1038 -4.5591 -2.9530 0.9617
8.7902 -3.0523 -2.9551 0.9617
9.0310 -2.2588 -2.9564 0.9617
9.2007 -1.4467 -2.9579 0.9617
9.1483 1.8595 -2.9648 0.9616
8.9523 2.6681 -2.9667 0.9616
8.6852 3.4566 -2.9687 0.9615
8.3487 4.2188 -2.9707 0.9615
7.9456 4.9486 -2.9728 0.9615
7.4969 5.6537 -2.9820 0.9614
6.3796 6.8975 -2.9839 0.9613
5.7424 7.4407 -2.9849 0.9613
5.0594 7.9255 -2.9861 0.9613
4.3358 8.3480 -2.9874 0.9613
3.5772 8.7048 -2.9888 0.9613
1.8790 8.7439 -2.8403 0.9632
1.0945 8.8871 -2.8437 0.9631
-0.4996 8.9589 -2.8496 0.9630
-2.0825 8.7384 -2.8529 0.9630
-2.8525 8.5200 -2.8534 0.9630
-4.3185 7.8803 -2.8538 0.9630
-5.0026 7.4644 -2.8537 0.9630
-7.1708 6.2009 -3.0107 0.9610
-8.1631 4.8350 -3.0131 0.9610
-9.1585 2.5088 -3.0157 0.9609
-9.3473 1.6840 -3.0163 0.9609
-8.9770 0.0000 -3.0161 0.9628
-8.9419 -0.7990 -3.0163 0.9628
-8.8354 -1.5917 -3.0163 0.9628
-8.6583 -2.3717 -3.0162 0.9628
-8.4121 -3.1327 -3.0159 0.9628
-7.7210 -4.5731 -3.0150 0.9628
-6.7846 -5.8668 -3.0136 0.9629
-6.2336 -6.4454 -3.0126 0.9629
-4.3044 -7.8545 -3.0093 0.9629
-2.8410 -8.4856 -3.0066 0.9629
-2.0735 -8.7006 -3.0051 0.9630
-1.2902 -8.8462 -3.0036 0.9630
-0.4971 -8.9144 -2.9997 0.9630
0.2947 -8.8133 -2.9628 0.9635
1.0747 -8.7261 -2.9540 0.9636
1.8466 -8.5935 -2.9532 0.9636
2.6037 -8.3933 -2.9526 0.9636
6.5171 -5.8944 -2.9524 0.9636
7.0172 -5.2919 -2.9529 0.9636
7.4622 -4.6475 -2.9537 0.9636
8.1733 -3.2529 -2.9556 0.9636
8.4337 -2.5135 -2.9567 0.9635
8.8108 -0.1963 -2.9610 0.9635
8.7981 0.5890 -2.9626 0.9635
8.7159 1.3705 -2.9644 0.9635
8.5645 2.1421 -2.9662 0.9634
8.0592 3.6313 -2.9699 0.9634
7.7090 4.3370 -2.9718 0.9634
5.7363 6.7850 -2.9852 0.9632
5.1115 7.2712 -2.9862 0.9632
3.0127 8.3740 -2.9900 0.9631
2.2457 8.5718 -2.9772 0.9633
0.6596 8.4409 -2.8446 0.9649
-3.7445 7.6198 -2.8525 0.9648
-4.4078 7.2564 -2.8526 0.9648
-5.3085 7.2047 -3.0068 0.9629
-5.9314 6.7067 -3.0081 0.9629
-6.5076 6.1548 -3.0094 0.9629
-7.0324 5.5534 -3.0106 0.9629
-7.5015 4.9073 -3.0118 0.9629
-8.2580 3.5017 -3.0137 0.9629
-8.5391 2.7535 -3.0144 0.9628
-8.9677 0.3999 -3.0160 0.9628
-8.9684 -0.3999 -3.0162 0.9628
-8.8975 -1.1966 -3.0163 0.9628
-8.5437 -2.7550 -3.0161 0.9628
-7.9178 -4.2250 -3.0153 0.9628
-7.5088 -4.9120 -3.0147 0.9628
-7.0402 -5.5595 -3.0140 0.9629
-6.5155 -6.1623 -3.0131 0.9629
-5.9393 -6.7156 -3.0121 0.9629
-4.6510 -7.6565 -3.0099 0.9629
-3.2169 -8.3526 -3.0073 0.9629
-1.6834 -8.7822 -3.0044 0.9630
0.6855 -8.7721 -2.9563 0.9636
1.4622 -8.6684 -2.9536 0.9636
2.2274 -8.5018 -2.9529 0.9636
2.9747 -8.2683 -2.9523 0.9636
6.2476 -6.1784 -2.9522 0.9636
7.2468 -4.9747 -2.9533 0.9636
8.3117 -2.8861 -2.9561 0.9636
8.6993 -1.3679 -2.9587 0.9635
8.7910 -0.5885 -2.9602 0.9635
8.8132 0.1964 -2.9618 0.9635
8.7657 0.9806 -2.9635 0.9635
8.4632 2.5223 -2.9671 0.9634
8.2103 3.2676 -2.9690 0.9634
7.5106 4.6777 -2.9728 0.9634
7.0885 5.3457 -2.9829 0.9632
6.5863 5.9570 -2.9837 0.9632
5.4293 7.0350 -2.9857 0.9632
4.7835 7.4932 -2.9868 0.9632
4.0992 7.8924 -2.9880 0.9632
3.3820 8.2296 -2.9894 0.9632
-0.4720 8.4650 -2.8485 0.9649
-1.2244 8.3952 -2.8505 0.9648
-2.6951 8.0499 -2.8522 0.9648
-3.4012 7.7788 -2.8524 0.9648
-4.8343 7.2133 -2.9175 0.9640
-5.6255 6.9627 -3.0075 0.9629
-6.2256 6.4372 -3.0088 0.9629
-7.2742 5.2356 -3.0112 0.9629
-8.0927 3.8655 -3.0132 0.9629
-8.4701 -0.7569 -3.0154 0.9646
-8.3692 -1.5078 -3.0154 0.9646
-8.2015 -2.2466 -3.0153 0.9646
-7.9683 -2.9674 -3.0150 0.9646
-7.6716 -3.6644 -3.0146 0.9646
-7.3138 -4.3319 -3.0141 0.9646
-6.4269 -5.5575 -3.0128 0.9646
-5.9051 -6.1057 -3.0119 0.9646
-4.7257 -7.0512 -3.0099 0.9646
-4.0778 -7.4410 -3.0087 0.9646
-2.6916 -8.0393 -3.0061 0.9647
-1.2224 -8.3813 -3.0034 0.9647
3.1658 -7.7035 -2.9532 0.9653
4.4809 -7.0192 -2.9528 0.9653
5.0880 -6.5926 -2.9529 0.9653
6.6515 -5.0161 -2.9540 0.9653
7.7469 -3.0832 -2.9565 0.9652
7.9935 -2.3823 -2.9576 0.9652
8.3503 -0.1861 -2.9616 0.9652
8.2599 1.2988 -2.9648 0.9651
8.1162 2.0300 -2.9665 0.9651
7.9079 2.7460 -2.9683 0.9651
5.9855 5.9192 -2.9849 0.9649
5.4366 6.4305 -2.9858 0.9649
4.2133 7.2978 -2.9880 0.9649
3.5485 7.6469 -2.9892 0.9649
2.8551 7.9358 -2.9905 0.9648
2.1384 8.1621 -2.9918 0.9648
-2.2103 7.7300 -2.8508 0.9665
-2.8899 7.5036 -2.8512 0.9665
-3.5465 7.2170 -2.8513 0.9664
-5.0292 6.8257 -3.0063 0.9647
-5.6192 6.3538 -3.0076 0.9646
-6.1650 5.8308 -3.0089 0.9646
-6.6620 5.2609 -3.0100 0.9646
-7.1063 4.6487 -3.0111 0.9646
-7.8226 3.3171 -3.0129 0.9646
-8.0888 2.6083 -3.0136 0.9646
-8.2905 1.8784 -3.0142 0.9646
-8.4262 1.1332 -3.0147 0.9646
-8.2936 -1.8791 -3.0153 0.9646
-8.0930 -2.6096 -3.0152 0.9646
-7.8278 -3.3192 -3.0148 0.9646
-7.5002 -4.0022 -3.0144 0.9646
-6.6690 -5.2664 -3.0131 0.9646
-6.1721 -5.8375 -3.0123 0.9646
-3.7415 -7.6137 -3.0081 0.9646
-2.3303 -8.1494 -3.0055 0.9647
0.6507 -8.3267 -2.9615 0.9652
1.3859 -8.2164 -2.9546 0.9653
4.1638 -7.2120 -2.9529 0.9653
4.7892 -6.8127 -2.9528 0.9653
5.3768 -6.3596 -2.9530 0.9653
5.9220 -5.8564 -2.9533 0.9653
6.4208 -5.3069 -2.9537 0.9653
7.2634 -4.0863 -2.9551 0.9652
7.8780 -2.7355 -2.9570 0.9652
8.0934 -2.0243 -2.9582 0.9652
8.2450 -1.2964 -2.9595 0.9652
8.3525 0.1862 -2.9624 0.9652
8.3072 0.9293 -2.9640 0.9651
8.1961 1.6660 -2.9657 0.9651
7.7801 3.0965 -2.9692 0.9651
6.2424 5.6459 -2.9845 0.9649
3.8848 7.4797 -2.9886 0.9649
3.2050 7.7990 -2.9898 0.9648
2.4992 8.0569 -2.9911 0.9648
1.7068 7.9428 -2.8807 0.9661
0.9799 7.9566 -2.8426 0.9665
-1.1597 7.9514 -2.8493 0.9665
-5.3295 6.5964 -3.0070 0.9646
-5.8979 6.0984 -3.0082 0.9646
-6.4198 5.5514 -3.0094 0.9646
-6.8910 4.9598 -3.0105 0.9646
-7.3075 4.3283 -3.0115 0.9646
-7.6661 3.6618 -3.0125 0.9646
-7.9636 2.9657 -3.0132 0.9646
-8.1978 2.2456 -3.0139 0.9646
-8.3667 1.5074 -3.0145 0.9646
-8.4688 0.7568 -3.0149 0.9646
-8.0408 -0.7185 -3.0145 0.9661
-7.9450 -1.4313 -3.0145 0.9661
-7.7858 -2.1327 -3.0144 0.9661
-7.5645 -2.8171 -3.0142 0.9661
-6.9433 -4.1125 -3.0133 0.9661
-6.1014 -5.2761 -3.0120 0.9661
-5.0664 -6.2707 -3.0103 0.9662
-4.4866 -6.6945 -3.0093 0.9662
-3.2261 -7.3783 -3.0070 0.9662
-2.5556 -7.6330 -3.0058 0.9662
-1.8652 -7.8268 -3.0045 0.9662
0.9691 -7.8689 -2.9605 0.9667
1.6627 -7.7374 -2.9552 0.9668
3.0072 -7.3176 -2.9542 0.9668
3.6463 -7.0203 -2.9540 0.9668
4.8331 -6.2625 -2.9539 0.9668
5.3717 -5.8078 -2.9541 0.9668
6.3182 -4.7648 -2.9550 0.9668
6.7187 -4.1844 -2.9556 0.9668
7.3584 -2.9286 -2.9573 0.9667
7.5926 -2.2628 -2.9584 0.9667
7.7669 -1.5787 -2.9596 0.9667
7.8801 -0.8815 -2.9609 0.9667
7.9309 -0.1767 -2.9622 0.9667
7.8446 1.2335 -2.9653 0.9667
7.7079 1.9279 -2.9669 0.9666
6.5886 4.5229 -2.9841 0.9665
4.0016 6.9311 -2.9885 0.9664
2.7115 7.5367 -2.9909 0.9664
2.0308 7.7515 -2.9922 0.9664
0.5932 7.5911 -2.8433 0.9680
-1.4363 7.4928 -2.8488 0.9679
-2.7432 7.1227 -2.8501 0.9679
-3.3670 6.8515 -2.8506 0.9679
-4.1775 6.8771 -3.0046 0.9662
-4.7751 6.4808 -3.0059 0.9662
-5.3351 6.0325 -3.0072 0.9662
-5.8531 5.5359 -3.0083 0.9662
-6.3249 4.9948 -3.0094 0.9662
-6.7466 4.4134 -3.0104 0.9662
-7.6791 2.4762 -3.0128 0.9661
-8.0641 0.3596 -3.0142 0.9661
-8.0647 -0.3596 -3.0144 0.9661
-7.6828 -2.4774 -3.0143 0.9661
-6.7525 -4.4173 -3.0131 0.9661
-6.3312 -4.9997 -3.0124 0.9661
-5.8596 -5.5419 -3.0116 0.9661
-5.3415 -6.0397 -3.0108 0.9662
-4.1832 -6.8864 -3.0087 0.9662
-3.5523 -7.2287 -3.0076 0.9662
-2.8937 -7.5132 -3.0064 0.9662
-2.2125 -7.7376 -3.0051 0.9662
-0.8048 -8.0001 -3.0024 0.9663
0.6187 -7.9177 -2.9656 0.9667
1.3165 -7.8047 -2.9555 0.9668
4.5493 -6.4715 -2.9539 0.9668
5.1075 -6.0411 -2.9540 0.9668
6.0991 -5.0410 -2.9547 0.9668
7.4829 -2.5983 -2.9579 0.9667
7.6873 -1.9227 -2.9590 0.9667
7.8312 -1.2314 -2.9602 0.9667
7.9133 -0.5297 -2.9615 0.9667
7.9329 0.1768 -2.9630 0.9667
7.7840 1.5822 -2.9661 0.9667
7.3884 2.9405 -2.9694 0.9666
6.7829 4.2245 -2.9839 0.9665
5.9291 5.3625 -2.9852 0.9664
3.6896 7.1038 -2.9891 0.9664
3.0439 7.4069 -2.9903 0.9664
2.3735 7.6516 -2.9915 0.9664
1.6838 7.8359 -2.9928 0.9664
0.9304 7.5540 -2.8420 0.9680
0.2545 7.6132 -2.8444 0.9680
-0.4244 7.6113 -2.8465 0.9680
-1.1008 7.5477 -2.8482 0.9680
-2.4231 7.2374 -2.8500 0.9679
-3.0579 6.9937 -2.8502 0.9679
-5.5996 5.7900 -3.0078 0.9662
-6.0950 5.2706 -3.0089 0.9662
-7.2779 3.4764 -3.0117 0.9661
-7.5603 2.8155 -3.0125 0.9661
-7.7825 2.1319 -3.0131 0.9661
-8.0397 0.7184 -3.0141 0.9661
-7.6785 0.0000 -3.0136 0.9675
-7.5572 -1.3615 -3.0137 0.9675
-7.1953 -2.6796 -3.0134 0.9675
-6.9275 -3.3090 -3.0131 0.9675
-6.2289 -4.4833 -3.0121 0.9676
-5.8038 -5.0188 -3.0114 0.9676
-4.2680 -6.3682 -3.0088 0.9676
-3.6829 -6.7205 -3.0077 0.9676
-2.4312 -7.2615 -3.0054 0.9676
-1.7745 -7.4460 -3.0042 0.9676
-1.1042 -7.5711 -3.0029 0.9677
0.9235 -7.4970 -2.9647 0.9681
2.2311 -7.1925 -2.9556 0.9682
2.8621 -6.9645 -2.9552 0.9682
3.4703 -6.6815 -2.9549 0.9682
4.0511 -6.3459 -2.9548 0.9682
4.5999 -5.9603 -2.9549 0.9682
6.0132 -4.5347 -2.9559 0.9682
7.0029 -2.7871 -2.9581 0.9681
7.2256 -2.1534 -2.9591 0.9681
7.4989 -0.8388 -2.9615 0.9681
7.5472 -0.1682 -2.9628 0.9681
7.5357 0.5045 -2.9642 0.9681
7.4646 1.1738 -2.9657 0.9681
6.9004 3.1092 -2.9704 0.9680
4.9138 5.8121 -2.9871 0.9678
3.8079 6.5956 -2.9890 0.9678
3.2069 6.9108 -2.9901 0.9678
1.2687 7.5217 -2.9937 0.9678
0.5643 7.2213 -2.8428 0.9694
-0.7260 7.2163 -2.8465 0.9693
-1.3660 7.1264 -2.8478 0.9693
-1.9955 6.9787 -2.8487 0.9693
-3.9742 6.5425 -3.0043 0.9676
-5.0753 5.7387 -3.0067 0.9676
-6.7678 3.6114 -3.0107 0.9676
-7.0642 2.9955 -3.0115 0.9676
-7.3044 2.3554 -3.0121 0.9676
-7.4865 1.6962 -3.0127 0.9676
-7.6710 -0.3420 -3.0137 0.9675
-7.6104 -1.0235 -3.0137 0.9675
-7.4890 -1.6968 -3.0137 0.9675
-7.3078 -2.3564 -3.0135 0.9675
-7.0684 -2.9973 -3.0133 0.9675
-6.7727 -3.6140 -3.0129 0.9676
-6.4231 -4.2018 -3.0123 0.9676
-4.5482 -6.1728 -3.0092 0.9676
-1.4407 -7.5160 -3.0035 0.9677
-0.0852 -7.6457 -3.0009 0.9677
0.5909 -7.5618 -2.9768 0.9679
1.2543 -7.4363 -2.9598 0.9681
3.1693 -6.8297 -2.9550 0.9682
5.3539 -5.2946 -2.9552 0.9682
6.2098 -4.2628 -2.9562 0.9682
6.5661 -3.6940 -2.9569 0.9681
6.8708 -3.0958 -2.9577 0.9681
7.1213 -2.4728 -2.9586 0.9681
7.3157 -1.8298 -2.9597 0.9681
7.2473 2.1600 -2.9680 0.9680
7.0301 2.7979 -2.9696 0.9680
6.7569 3.4144 -2.9712 0.9680
6.4550 4.0202 -2.9846 0.9679
6.0727 4.5797 -2.9851 0.9678
5.6423 5.1032 -2.9858 0.9678
4.0972 6.4183 -2.9885 0.9678
3.5110 6.7599 -2.9895 0.9678
2.8965 7.0482 -2.9907 0.9678
2.2585 7.2809 -2.9918 0.9678
0.8994 7.3029 -2.8878 0.9689
-1.0470 7.1786 -2.8472 0.9693
-1.6824 7.0597 -2.8483 0.9693
-5.3269 5.5080 -3.0073 0.9676
-6.5994 3.9088 -3.0103 0.9676
-6.9230 3.3068 -3.0111 0.9676
-7.1915 2.6782 -3.0118 0.9676
-7.4028 2.0279 -3.0124 0.9676
-7.5552 1.3611 -3.0129 0.9676
-7.3167 0.0000 -3.0129 0.9688
-7.2880 -0.6512 -3.0130 0.9688
-7.0568 -1.9330 -3.0129 0.9688
-6.8563 -2.5533 -3.0127 0.9688
-6.6011 -3.1531 -3.0124 0.9688
-5.0817 -5.2544 -3.0100 0.9689
-4.5926 -5.6843 -3.0092 0.9689
-2.9247 -6.6890 -3.0062 0.9689
-1.6911 -7.0962 -3.0039 0.9689
-0.4058 -7.2776 -3.0014 0.9690
0.8822 -7.1629 -2.9719 0.9693
2.7287 -6.6398 -2.9560 0.9694
3.3085 -6.3700 -2.9558 0.9694
4.8741 -5.2699 -2.9559 0.9694
5.3244 -4.8156 -2.9562 0.9694
6.0960 -3.7967 -2.9573 0.9694
6.4113 -3.2398 -2.9580 0.9694
7.1486 -0.7997 -2.9620 0.9694
7.1944 -0.1603 -2.9633 0.9693
7.1834 0.4809 -2.9646 0.9693
7.1155 1.1189 -2.9660 0.9693
6.9911 1.7486 -2.9675 0.9693
6.8112 2.3651 -2.9690 0.9693
6.3177 3.5543 -2.9850 0.9691
5.9773 4.1032 -2.9855 0.9691
5.5895 4.6199 -2.9861 0.9691
4.6842 5.5405 -2.9876 0.9691
4.1737 5.9372 -2.9885 0.9691
3.6299 6.2872 -2.9894 0.9691
3.0569 6.5876 -2.9905 0.9691
2.4594 6.8361 -2.9916 0.9691
1.8419 7.0306 -2.9927 0.9690
1.2093 7.1695 -2.9939 0.9690
0.5541 7.0913 -2.9290 0.9697
-0.0770 6.9066 -2.8442 0.9706
-0.6917 6.8758 -2.8456 0.9705
-1.9013 6.6494 -2.8478 0.9705
-3.2162 6.5448 -3.0028 0.9689
-4.3291 5.8755 -3.0052 0.9689
-5.7336 4.5278 -3.0084 0.9689
-6.4493 3.4415 -3.0101 0.9689
-6.9604 2.2444 -3.0115 0.9689
-7.1338 1.6163 -3.0120 0.9689
-7.2503 0.9751 -3.0124 0.9688
-7.3096 -0.3259 -3.0129 0.9688
-7.1361 -1.6168 -3.0130 0.9688
-6.9635 -2.2454 -3.0128 0.9688
-6.4537 -3.4438 -3.0122 0.9689
-6.1205 -4.0038 -3.0117 0.9689
-3.7922 -6.2427 -3.0078 0.9689
-3.2204 -6.5533 -3.0067 0.9689
-2.6234 -6.8114 -3.0056 0.9689
-2.0059 -7.0152 -3.0045 0.9689
-1.3731 -7.1630 -3.0033 0.9689
-0.0812 -7.2868 -3.0008 0.9690
0.5661 -7.2446 -2.9923 0.9691
1.1972 -7.0977 -2.9640 0.9693
1.8197 -6.9456 -2.9566 0.9694
3.0216 -6.5113 -2.9559 0.9694
3.5889 -6.2162 -2.9557 0.9694
4.1279 -5.8720 -2.9557 0.9694
4.6344 -5.4815 -2.9558 0.9694
5.5340 -4.5740 -2.9564 0.9694
6.2598 -3.5217 -2.9576 0.9694
6.5502 -2.9513 -2.9584 0.9694
6.7889 -2.3574 -2.9593 0.9694
7.1960 0.1604 -2.9639 0.9693
7.1565 0.8006 -2.9653 0.9693
6.9080 2.0588 -2.9682 0.9693
6.4467 3.2577 -2.9743 0.9692
5.3788 4.8649 -2.9864 0.9691
4.9257 5.3256 -2.9872 0.9691
4.4334 5.7445 -2.9880 0.9691
3.9057 6.1182 -2.9890 0.9691
2.7610 6.7185 -2.9910 0.9691
0.8889 7.2177 -2.9946 0.9690
-2.1961 6.5595 -2.8484 0.9705
-2.9151 6.6670 -2.9963 0.9690
-3.5052 6.3963 -3.0035 0.9689
-4.5874 5.6779 -3.0058 0.9689
-5.9305 4.2685 -3.0089 0.9689
-6.5970 3.1511 -3.0105 0.9689
-6.8528 2.5520 -3.0112 0.9689
-7.1993 1.2970 -3.0122 0.9689
-6.9557 -0.6215 -3.0123 0.9700
-6.8728 -1.2382 -3.0124 0.9700
-6.7351 -1.8449 -3.0123 0.9700
-6.5437 -2.4369 -3.0121 0.9700
-6.3002 -3.0093 -3.0118 0.9700
-5.2786 -4.5645 -3.0102 0.9701
-4.8502 -5.0151 -3.0095 0.9701
-4.3834 -5.4254 -3.0087 0.9701
-3.8820 -5.7923 -3.0078 0.9701
-2.7917 -6.3847 -3.0059 0.9701
-0.3874 -6.9470 -3.0013 0.9701
1.4434 -6.7169 -2.9635 0.9705
2.0311 -6.5476 -2.9572 0.9706
3.1592 -6.0826 -2.9566 0.9706
3.6880 -5.7771 -2.9565 0.9706
4.1876 -5.4260 -2.9565 0.9706
5.0841 -4.5983 -2.9570 0.9706
6.1218 -3.0935 -2.9587 0.9706
6.8254 -0.7635 -2.9625 0.9705
6.7933 1.0682 -2.9664 0.9705
6.5025 2.2580 -2.9692 0.9705
6.2840 2.8315 -2.9731 0.9704
6.0322 3.3937 -2.9856 0.9703
4.9242 4.8697 -2.9873 0.9703
4.4724 5.2899 -2.9881 0.9703
2.9186 6.2894 -2.9908 0.9702
2.3480 6.5265 -2.9919 0.9702
1.1545 6.8446 -2.9942 0.9702
-0.0756 6.7863 -2.9275 0.9709
-0.6654 6.6142 -2.8675 0.9715
-2.5008 6.4932 -3.0014 0.9701
-4.6166 5.2201 -3.0060 0.9701
-5.0646 4.7901 -3.0070 0.9701
-5.4726 4.3217 -3.0079 0.9701
-6.1555 3.2847 -3.0096 0.9701
-6.6432 2.1422 -3.0109 0.9701
-6.9759 0.3111 -3.0121 0.9700
-6.8107 -1.5431 -3.0123 0.9700
-6.1595 -3.2868 -3.0116 0.9700
-5.0694 -4.7946 -3.0099 0.9701
-4.6214 -5.2255 -3.0091 0.9701
-4.1368 -5.6145 -3.0083 0.9701
-3.6196 -5.9586 -3.0074 0.9701
-3.0739 -6.2551 -3.0064 0.9701
-2.5040 -6.5016 -3.0053 0.9701
-1.9147 -6.6962 -3.0042 0.9701
0.5417 -6.9324 -2.9995 0.9702
2.8852 -6.2175 -2.9567 0.9706
4.4252 -5.2342 -2.9566 0.9706
5.6530 -3.8805 -2.9577 0.9706
6.4822 -2.2508 -2.9599 0.9706
6.6590 -1.6655 -2.9609 0.9705
6.7833 -1.0666 -2.9620 0.9705
6.8539 -0.4588 -2.9631 0.9705
6.8326 0.7644 -2.9657 0.9705
6.7406 1.3701 -2.9670 0.9705
6.3971 2.5460 -2.9699 0.9705
5.8755 3.6594 -2.9858 0.9703
5.5275 4.1685 -2.9863 0.9703
4.2329 5.4847 -2.9885 0.9703
3.7290 5.8414 -2.9894 0.9703
0.8486 6.8905 -2.9947 0.9702
0.2310 6.9084 -2.9817 0.9703
-0.9567 6.5596 -2.8595 0.9715
-2.1820 6.5173 -2.9647 0.9705
-2.7881 6.3767 -3.0020 0.9701
-5.2738 4.5605 -3.0075 0.9701
-5.6605 4.0742 -3.0084 0.9701
-6.0023 3.5552 -3.0092 0.9701
-6.5406 2.4358 -3.0106 0.9701
-6.7326 1.8443 -3.0112 0.9700
-6.8711 1.2379 -3.0116 0.9700
-6.9548 0.6215 -3.0120 0.9700
-6.6744 0.0000 -3.0116 0.9711
-6.4374 -1.7634 -3.0117 0.9711
-6.0218 -2.8763 -3.0112 0.9711
-5.7411 -3.4004 -3.0108 0.9711
-5.4147 -3.8973 -3.0103 0.9711
-5.0454 -4.3629 -3.0097 0.9712
-4.1899 -5.1858 -3.0082 0.9712
-2.6685 -6.1030 -3.0055 0.9712
-2.1140 -6.3142 -3.0045 0.9712
-1.5431 -6.4749 -3.0034 0.9712
-0.9603 -6.5841 -3.0023 0.9712
0.8117 -6.5905 -2.9962 0.9713
1.3814 -6.4287 -2.9669 0.9716
3.0209 -5.8163 -2.9573 0.9716
3.5265 -5.5242 -2.9572 0.9716
4.0043 -5.1885 -2.9573 0.9716
4.8615 -4.3970 -2.9577 0.9716
5.2343 -3.9474 -2.9581 0.9716
5.5659 -3.4664 -2.9587 0.9716
6.0953 -2.4258 -2.9601 0.9716
6.2888 -1.8743 -2.9610 0.9716
6.5260 -0.7300 -2.9630 0.9716
6.5676 -0.1463 -2.9642 0.9716
6.5573 0.4390 -2.9654 0.9716
6.3812 1.5961 -2.9680 0.9715
6.0272 2.7158 -2.9829 0.9714
5.7678 3.2450 -2.9861 0.9714
5.4570 3.7460 -2.9866 0.9714
5.1028 4.2177 -2.9872 0.9714
4.2762 5.0579 -2.9885 0.9714
3.3135 5.7392 -2.9902 0.9713
2.7904 6.0132 -2.9912 0.9713
1.1038 6.5437 -2.9943 0.9713
0.5172 6.6185 -2.9955 0.9713
-0.6631 6.5915 -2.9892 0.9713
-2.9347 5.9720 -3.0025 0.9712
-3.4559 5.6892 -3.0036 0.9712
-4.4129 4.9898 -3.0057 0.9712
-4.8411 4.5787 -3.0066 0.9712
-5.2310 4.1309 -3.0075 0.9712
-5.5794 3.6499 -3.0084 0.9712
-5.8836 3.1396 -3.0091 0.9712
-6.5077 1.4745 -3.0108 0.9711
-6.6679 -0.2973 -3.0117 0.9711
-6.6152 -0.8896 -3.0117 0.9711
-6.5096 -1.4749 -3.0117 0.9711
-6.3522 -2.0483 -3.0116 0.9711
-5.8873 -3.1415 -3.0110 0.9711
-4.8455 -4.5828 -3.0094 0.9712
-4.4173 -4.9947 -3.0086 0.9712
-3.9542 -5.3666 -3.0078 0.9712
-2.9382 -5.9791 -3.0060 0.9712
2.7589 -5.9453 -2.9574 0.9716
3.2770 -5.6758 -2.9573 0.9716
3.7691 -5.3616 -2.9572 0.9716
5.0529 -4.1763 -2.9579 0.9716
5.4054 -3.7106 -2.9584 0.9716
6.5533 -0.4387 -2.9636 0.9716
6.5326 0.7308 -2.9660 0.9716
6.4445 1.3099 -2.9673 0.9716
5.9063 2.9846 -2.9859 0.9714
5.6180 3.4989 -2.9864 0.9714
4.9104 4.4412 -2.9875 0.9714
4.4967 4.8618 -2.9882 0.9714
4.0471 5.2441 -2.9889 0.9713
3.0550 5.8820 -2.9907 0.9713
2.5202 6.1326 -2.9917 0.9713
0.2219 6.6362 -2.9960 0.9713
-0.9533 6.5360 -2.9804 0.9714
-2.1114 6.3063 -3.0007 0.9712
-2.6653 6.0957 -3.0019 0.9712
-3.7066 5.5306 -3.0041 0.9712
-5.0410 4.3592 -3.0071 0.9712
-5.4106 3.8943 -3.0079 0.9712
-5.7372 3.3982 -3.0087 0.9712
-6.0183 2.8747 -3.0094 0.9712
-6.2516 2.3281 -3.0101 0.9711
-6.4351 1.7628 -3.0106 0.9711
-6.5674 1.1832 -3.0110 0.9711
-6.6474 0.5940 -3.0114 0.9711
-6.3626 -0.5685 -3.0111 0.9721
-6.2868 -1.1326 -3.0112 0.9721
-5.4946 -3.2544 -3.0102 0.9722
-5.1823 -3.7300 -3.0098 0.9722
-4.4371 -4.5879 -3.0086 0.9722
-3.5515 -5.2992 -3.0070 0.9722
-3.0649 -5.5927 -3.0062 0.9722
-2.0234 -6.0436 -3.0042 0.9722
-0.9192 -6.3022 -3.0021 0.9722
-0.3544 -6.3567 -3.0010 0.9722
0.2126 -6.3606 -2.9999 0.9722
1.3270 -6.1754 -2.9774 0.9725
1.8625 -6.0042 -2.9633 0.9726
2.3854 -5.8046 -2.9582 0.9726
2.8924 -5.5689 -2.9580 0.9726
3.3765 -5.2892 -2.9579 0.9726
4.2611 -4.6070 -2.9581 0.9726
4.6547 -4.2099 -2.9584 0.9726
5.6044 -2.8320 -2.9599 0.9726
5.8357 -2.3225 -2.9607 0.9726
6.2776 0.4203 -2.9657 0.9726
5.7760 2.6026 -2.9863 0.9724
5.5221 3.1067 -2.9867 0.9724
5.2245 3.5864 -2.9871 0.9724
4.8854 4.0379 -2.9876 0.9724
4.5076 4.4576 -2.9883 0.9724
4.0939 4.8423 -2.9890 0.9723
1.0566 6.2642 -2.9945 0.9723
-0.0708 6.3570 -2.9967 0.9723
-0.6366 6.3278 -2.9978 0.9723
-1.1977 6.2484 -2.9990 0.9723
-1.7498 6.1193 -3.0001 0.9722
-2.8091 5.7163 -3.0023 0.9722
-4.2238 4.7759 -3.0053 0.9722
-4.6335 4.3824 -3.0063 0.9722
-5.0066 3.9537 -3.0071 0.9722
-6.0771 1.9596 -3.0098 0.9722
-6.2283 1.4112 -3.0103 0.9722
-6.3310 -0.8514 -3.0112 0.9721
-6.0794 -1.9603 -3.0110 0.9721
-5.8804 -2.4935 -3.0108 0.9722
-5.6345 -3.0066 -3.0104 0.9722
-5.3437 -3.4957 -3.0100 0.9722
-4.6375 -4.3861 -3.0089 0.9722
-4.2278 -4.7804 -3.0082 0.9722
-3.7846 -5.1364 -3.0074 0.9722
-1.1992 -6.2561 -3.0027 0.9722
-0.0709 -6.3650 -3.0005 0.9722
1.0563 -6.2621 -2.9935 0.9723
2.6415 -5.6923 -2.9581 0.9726
4.0515 -4.7921 -2.9580 0.9726
4.4623 -4.4128 -2.9582 0.9726
5.1754 -3.5527 -2.9590 0.9726
5.9342 -2.0606 -2.9611 0.9726
6.0959 -1.5246 -2.9620 0.9726
6.2094 -0.9763 -2.9629 0.9726
6.2888 0.1402 -2.9651 0.9726
6.1694 1.2540 -2.9676 0.9725
6.0360 1.7989 -2.9689 0.9725
5.8721 2.3371 -2.9791 0.9724
5.3786 3.3499 -2.9869 0.9724
5.0600 3.8159 -2.9874 0.9724
4.3050 4.6545 -2.9886 0.9724
0.2124 6.3526 -2.9962 0.9723
-0.3540 6.3487 -2.9973 0.9723
-3.0615 5.5865 -3.0028 0.9722
-3.5478 5.2937 -3.0039 0.9722
-4.0062 4.9585 -3.0049 0.9722
-4.8248 4.1722 -3.0067 0.9722
-5.1785 3.7272 -3.0075 0.9722
-5.9832 2.2282 -3.0096 0.9722
-6.3619 0.5685 -3.0108 0.9721
-6.1207 0.0000 -3.0105 0.9731
-6.0967 -0.5448 -3.0106 0.9731
-6.0240 -1.0853 -3.0106 0.9731
-5.9034 -1.6171 -3.0106 0.9731
-5.5223 -2.6378 -3.0101 0.9731
-5.2650 -3.1184 -3.0097 0.9731
-4.9658 -3.5741 -3.0093 0.9731
-4.2517 -4.3962 -3.0081 0.9731
-3.8427 -4.7561 -3.0074 0.9731
-3.4032 -5.0780 -3.0067 0.9731
-2.4476 -5.5977 -3.0049 0.9731
-1.9390 -5.7915 -3.0040 0.9731
-1.4154 -5.9391 -3.0030 0.9732
-0.3397 -6.0918 -3.0009 0.9732
0.2038 -6.0957 -2.9999 0.9732
1.2776 -5.9456 -2.9911 0.9733
1.7870 -5.7607 -2.9666 0.9735
2.2874 -5.5660 -2.9598 0.9735
3.6751 -4.7619 -2.9586 0.9735
4.0845 -4.4161 -2.9587 0.9735
5.1081 -3.1814 -2.9599 0.9735
5.9032 -1.1999 -2.9629 0.9735
5.9595 0.9371 -2.9672 0.9735
5.8548 1.4644 -2.9684 0.9735
5.7167 1.9851 -2.9765 0.9734
5.5365 2.4946 -2.9868 0.9733
4.3205 4.2727 -2.9887 0.9733
3.9239 4.6413 -2.9894 0.9733
3.0404 5.2662 -2.9909 0.9733
1.5425 5.8878 -2.9937 0.9732
-1.6769 5.8644 -3.0000 0.9732
-2.6920 5.4780 -3.0021 0.9732
-4.0475 4.5767 -3.0051 0.9731
-4.7976 3.7886 -3.0068 0.9731
-5.1170 3.3474 -3.0075 0.9731
-5.3959 2.8794 -3.0082 0.9731
-5.8231 1.8777 -3.0094 0.9731
-6.1145 0.2727 -3.0104 0.9731
-5.1205 -3.3496 -3.0095 0.9731
-4.8012 -3.7914 -3.0090 0.9731
-3.6265 -4.9220 -3.0071 0.9731
-2.6949 -5.4839 -3.0054 0.9731
-2.1954 -5.7003 -3.0045 0.9731
-1.6788 -5.8712 -3.0035 0.9731
-0.6108 -6.0717 -3.0015 0.9732
0.4751 -6.0795 -2.9993 0.9732
1.5329 -5.8509 -2.9749 0.9734
2.0397 -5.6694 -2.9635 0.9735
2.5321 -5.4565 -2.9587 0.9735
3.8836 -4.5936 -2.9587 0.9735
4.6374 -3.8329 -2.9592 0.9735
4.9609 -3.4055 -2.9596 0.9735
5.2453 -2.9509 -2.9602 0.9735
5.8430 -1.4614 -2.9624 0.9735
5.9518 -0.9358 -2.9634 0.9735
6.0135 -0.4025 -2.9644 0.9735
6.0277 0.1344 -2.9655 0.9735
5.9941 0.6706 -2.9666 0.9735
5.9130 1.2019 -2.9678 0.9735
5.6419 2.2454 -2.9867 0.9733
5.1555 3.2109 -2.9874 0.9733
3.2716 5.1248 -2.9905 0.9733
2.8032 5.3972 -2.9913 0.9733
0.7444 6.0439 -2.9952 0.9732
0.2035 6.0884 -2.9962 0.9732
-0.3393 6.0845 -2.9973 0.9732
-1.4137 5.9322 -2.9995 0.9732
-2.9338 5.3535 -3.0026 0.9732
-3.3998 5.0729 -3.0036 0.9731
-3.8390 4.7517 -3.0046 0.9731
-4.2480 4.3925 -3.0055 0.9731
-4.6234 3.9981 -3.0064 0.9731
-5.2617 3.1165 -3.0079 0.9731
-5.5194 2.6364 -3.0085 0.9731
-5.7332 2.1351 -3.0091 0.9731
-6.0227 1.0851 -3.0100 0.9731
-6.0960 0.5448 -3.0103 0.9731
-5.7785 -1.0410 -3.0101 0.9740
-5.5019 -2.0489 -3.0099 0.9740
-5.2972 -2.5302 -3.0096 0.9740
-5.0504 -2.9913 -3.0093 0.9740
-4.7635 -3.4285 -3.0089 0.9740
-4.0786 -4.2172 -3.0077 0.9740
-3.6862 -4.5624 -3.0071 0.9740
-3.2647 -4.8712 -3.0063 0.9740
-2.8174 -5.1411 -3.0055 0.9740
-2.3480 -5.3699 -3.0047 0.9740
-1.8601 -5.5559 -3.0038 0.9740
-1.3578 -5.6977 -3.0028 0.9740
-0.3259 -5.8443 -3.0008 0.9740
0.7150 -5.8055 -2.9988 0.9740
1.2285 -5.7168 -2.9977 0.9741
2.1976 -5.3472 -2.9639 0.9743
3.1058 -4.8652 -2.9592 0.9744
3.9195 -4.2377 -2.9593 0.9744
4.2815 -3.8723 -2.9596 0.9744
4.6097 -3.4763 -2.9600 0.9744
5.1549 -2.6049 -2.9610 0.9744
5.7825 -0.1288 -2.9653 0.9743
5.7731 0.3865 -2.9663 0.9743
5.7180 0.8991 -2.9675 0.9743
5.6213 1.4060 -2.9707 0.9743
5.5040 1.9112 -2.9870 0.9742
4.8051 3.2986 -2.9880 0.9741
4.1456 4.0997 -2.9891 0.9741
3.3546 4.7720 -2.9904 0.9741
2.4567 5.2940 -2.9921 0.9741
1.9763 5.4933 -2.9929 0.9741
0.9716 5.7603 -2.9948 0.9741
0.4552 5.8258 -2.9958 0.9741
-0.5853 5.8182 -2.9979 0.9741
-1.1012 5.7450 -2.9989 0.9740
-2.5825 5.2553 -3.0020 0.9740
-3.8828 4.3904 -3.0048 0.9740
-4.2594 4.0285 -3.0056 0.9740
-4.6023 3.6344 -3.0064 0.9740
-4.9087 3.2111 -3.0072 0.9740
-5.4025 2.2909 -3.0084 0.9740
-5.5859 1.8012 -3.0089 0.9740
-5.8182 0.7825 -3.0097 0.9740
-5.8191 -0.7826 -3.0101 0.9740
-5.5879 -1.8018 -3.0100 0.9740
-5.1790 -2.7636 -3.0095 0.9740
-3.8862 -4.3942 -3.0074 0.9740
-3.4789 -4.7216 -3.0067 0.9740
-2.5852 -5.2608 -3.0051 0.9740
-1.6106 -5.6324 -3.0033 0.9740
-0.0652 -5.8520 -3.0003 0.9740
0.4558 -5.8325 -2.9993 0.9740
0.9727 -5.7668 -2.9983 0.9741
1.4773 -5.6386 -2.9883 0.9741
1.9590 -5.4452 -2.9668 0.9743
4.1045 -4.0590 -2.9595 0.9744
5.7700 -0.3862 -2.9648 0.9743
5.7836 0.1289 -2.9658 0.9743
5.7513 0.6434 -2.9669 0.9743
5.5619 1.6576 -2.9754 0.9742
5.2009 2.6282 -2.9874 0.9741
4.9469 3.0810 -2.9878 0.9741
3.9593 4.2808 -2.9894 0.9741
3.5634 4.6172 -2.9901 0.9741
2.2187 5.3990 -2.9925 0.9741
0.7142 5.7988 -2.9953 0.9741
0.1953 5.8413 -2.9963 0.9741
-1.3563 5.6913 -2.9994 0.9740
-2.8146 5.1359 -3.0025 0.9740
-3.2615 4.8666 -3.0034 0.9740
-3.6829 4.5583 -3.0043 0.9740
-4.0752 4.2137 -3.0052 0.9740
-4.4352 3.8353 -3.0060 0.9740
-5.0474 2.9896 -3.0075 0.9740
-5.4997 2.0481 -3.0087 0.9740
-5.6610 1.5507 -3.0091 0.9740
-5.7773 1.0408 -3.0095 0.9740
-5.6375 0.0000 -3.0096 0.9748
-5.5484 -0.9996 -3.0097 0.9748
-5.0864 -2.4295 -3.0092 0.9748
-4.8494 -2.8723 -3.0089 0.9748
-4.5739 -3.2921 -3.0084 0.9748
-3.5396 -4.3810 -3.0067 0.9748
-3.1349 -4.6775 -3.0060 0.9748
-2.7054 -4.9367 -3.0053 0.9748
-2.2547 -5.1565 -3.0044 0.9748
-1.7862 -5.3352 -3.0036 0.9748
-1.3039 -5.4714 -3.0027 0.9748
0.6866 -5.5752 -2.9988 0.9749
1.6575 -5.3433 -2.9866 0.9750
2.1126 -5.1408 -2.9671 0.9751
2.5571 -4.9233 -2.9616 0.9752
2.9832 -4.6731 -2.9597 0.9752
3.3873 -4.3891 -2.9598 0.9752
4.1124 -3.7195 -2.9601 0.9752
4.9513 -2.5020 -2.9615 0.9752
5.3189 -1.5852 -2.9629 0.9751
5.4404 -1.1058 -2.9637 0.9751
5.5538 -0.1237 -2.9656 0.9751
5.5447 0.3712 -2.9666 0.9751
5.1026 2.2992 -2.9877 0.9749
4.6152 3.1682 -2.9884 0.9749
4.3156 3.5669 -2.9889 0.9749
3.9817 3.9376 -2.9895 0.9749
3.2219 4.5832 -2.9908 0.9749
2.8018 4.8530 -2.9915 0.9749
2.3594 5.0844 -2.9923 0.9749
1.8980 5.2758 -2.9932 0.9749
0.4372 5.5950 -2.9959 0.9749
-0.5621 5.5875 -2.9979 0.9749
-2.4800 5.0467 -3.0018 0.9748
-2.9202 4.8074 -3.0028 0.9748
-3.7285 4.2159 -3.0045 0.9748
-4.4193 3.4899 -3.0061 0.9748
-4.7134 3.0834 -3.0068 0.9748
-5.1875 2.1997 -3.0080 0.9748
-5.4970 1.2455 -3.0089 0.9748
-5.5866 0.7513 -3.0092 0.9748
-5.6318 0.2511 -3.0095 0.9748
-5.4984 -1.2457 -3.0096 0.9748
-5.3654 -1.7301 -3.0095 0.9748
-5.1898 -2.2006 -3.0093 0.9748
-4.7163 -3.0853 -3.0087 0.9748
-4.4223 -3.4923 -3.0082 0.9748
-4.0932 -3.8713 -3.0077 0.9748
-2.9230 -4.8119 -3.0056 0.9748
-2.0224 -5.2511 -3.0040 0.9748
-1.5466 -5.4087 -3.0031 0.9748
-1.0587 -5.5231 -3.0022 0.9748
-0.5627 -5.5937 -3.0012 0.9748
-0.0626 -5.6197 -3.0003 0.9748
0.4377 -5.6012 -2.9993 0.9748
1.4223 -5.4291 -2.9961 0.9749
2.7721 -4.8014 -2.9597 0.9752
3.9425 -3.8988 -2.9600 0.9752
4.5724 -3.1387 -2.9607 0.9752
4.8344 -2.7198 -2.9612 0.9752
5.2423 -1.8203 -2.9625 0.9752
5.3850 -1.3469 -2.9633 0.9751
5.4851 -0.8625 -2.9642 0.9751
5.5418 -0.3710 -2.9651 0.9751
5.5547 0.1238 -2.9661 0.9751
5.3608 1.5977 -2.9863 0.9750
5.1997 2.0695 -2.9876 0.9749
4.9953 2.5243 -2.9879 0.9749
4.1528 3.7560 -2.9892 0.9749
3.4224 4.4346 -2.9904 0.9749
2.5832 4.9736 -2.9919 0.9749
2.1309 5.1852 -2.9927 0.9749
1.6614 5.3559 -2.9936 0.9749
1.1785 5.4842 -2.9945 0.9749
0.1875 5.6098 -2.9964 0.9749
-0.8106 5.5579 -2.9984 0.9749
-2.2524 5.1513 -3.0014 0.9748
-3.9132 4.0462 -3.0050 0.9748
-4.2589 3.6828 -3.0057 0.9748
-4.5709 3.2899 -3.0065 0.9748
-4.8467 2.8707 -3.0071 0.9748
-5.0839 2.4284 -3.0077 0.9748
-5.4357 1.4890 -3.0087 0.9748
-5.6148 0.5017 -3.0094 0.9748
-5.3967 -0.4822 -3.0092 0.9755
-5.3324 -0.9606 -3.0092 0.9755
-5.2255 -1.4314 -3.0092 0.9755
-5.0771 -1.8907 -3.0090 0.9755
-4.8883 -2.3349 -3.0088 0.9755
-4.6606 -2.7604 -3.0085 0.9755
-4.0961 -3.5420 -3.0076 0.9755
-3.7639 -3.8918 -3.0070 0.9755
-3.4019 -4.2105 -3.0064 0.9755
-1.2532 -5.2587 -3.0025 0.9756
-0.7800 -5.3478 -3.0016 0.9756
-0.3008 -5.3943 -3.0007 0.9756
1.1340 -5.2771 -2.9978 0.9756
1.5977 -5.1505 -2.9950 0.9756
2.0352 -4.9524 -2.9737 0.9758
2.4609 -4.7381 -2.9653 0.9759
4.2566 -3.2100 -2.9610 0.9759
4.9561 -1.9725 -2.9626 0.9759
5.2300 -1.0630 -2.9641 0.9759
5.3300 0.3568 -2.9669 0.9759
5.2842 0.8309 -2.9709 0.9758
4.9053 2.2102 -2.9881 0.9757
4.1486 3.4290 -2.9893 0.9757
3.8276 3.7853 -2.9898 0.9757
3.4762 4.1117 -2.9904 0.9757
3.0971 4.4058 -2.9911 0.9757
2.6934 4.6650 -2.9918 0.9757
2.2680 4.8875 -2.9925 0.9756
1.3663 5.2152 -2.9942 0.9756
0.4202 5.3781 -2.9960 0.9756
-0.5403 5.3707 -2.9979 0.9756
-1.0165 5.3030 -2.9989 0.9756
-1.9419 5.0420 -3.0008 0.9756
-2.3836 4.8506 -3.0017 0.9756
-3.5836 4.0520 -3.0043 0.9756
-3.9310 3.7179 -3.0051 0.9755
-4.9856 2.1141 -3.0076 0.9755
-5.2830 1.1970 -3.0085 0.9755
-5.4127 -0.2413 -3.0092 0.9755
-5.3699 -0.7221 -3.0092 0.9755
-5.2842 -1.1972 -3.0092 0.9755
-5.1565 -1.6627 -3.0091 0.9755
-4.9877 -2.1149 -3.0089 0.9755
-4.5327 -2.9651 -3.0083 0.9755
-4.2502 -3.3563 -3.0078 0.9755
-0.0602 -5.4015 -3.0002 0.9756
0.4207 -5.3837 -2.9992 0.9756
1.3677 -5.2205 -2.9973 0.9756
1.8199 -5.0586 -2.9858 0.9757
2.6673 -4.6199 -2.9628 0.9759
3.0652 -4.3604 -2.9603 0.9759
3.7901 -3.7481 -2.9605 0.9759
4.1091 -3.3963 -2.9608 0.9759
4.3957 -3.0174 -2.9612 0.9759
5.1767 -1.2948 -2.9637 0.9759
5.3274 -0.3566 -2.9654 0.9759
5.3397 0.1190 -2.9664 0.9759
5.1556 1.5365 -2.9879 0.9757
4.9987 1.9895 -2.9880 0.9757
4.8022 2.4267 -2.9883 0.9757
4.2969 3.2405 -2.9890 0.9757
3.2900 4.2630 -2.9907 0.9757
2.8981 4.5399 -2.9914 0.9757
2.4832 4.7810 -2.9922 0.9757
1.5970 5.1484 -2.9938 0.9756
1.1328 5.2716 -2.9947 0.9756
-1.2519 5.2533 -2.9994 0.9756
-1.7151 5.1226 -3.0003 0.9756
-2.1649 4.9512 -3.0012 0.9756
