ply
format ascii 1.0
element vertex 1591
property float32 x
property float32 y
property float32 z
property float32 I
end_header
1.7533 -2.2718 0.6550 0.9883
1.0445 -2.9034 0.7043 0.9874
1.2150 -2.6182 0.6588 0.9882
1.4080 -2.4387 0.6427 0.9885
1.6294 -2.3178 0.6467 0.9884
0.9418 -3.0361 0.6701 0.9871
1.1035 -2.6852 0.6120 0.9882
1.4862 -2.3281 0.5823 0.9888
2.5346 -2.2924 0.7205 0.9861
0.9037 -3.4495 0.7518 0.9855
1.1918 -2.5683 0.5969 0.9885
1.6009 -2.2773 0.5869 0.9887
0.9154 -2.9509 0.5979 0.9875
1.0857 -2.6419 0.5527 0.9884
1.9798 -2.1406 0.5643 0.9882
2.4397 -2.2066 0.6366 0.9867
0.9970 -2.7713 0.5699 0.9881
1.5820 -2.2504 0.5323 0.9889
1.8344 -2.1698 0.5498 0.9885
0.8995 -2.8996 0.5353 0.9877
1.2570 -2.4201 0.4809 0.9890
1.6792 -2.1758 0.4846 0.9889
2.8117 6.0591 1.1778 0.9732
0.8219 -3.1373 0.5719 0.9869
0.9836 -2.7339 0.5123 0.9883
1.8137 -2.1452 0.4953 0.9887
1.2443 -2.3957 0.4299 0.9891
2.3183 -2.0968 0.4977 0.9874
0.8062 -3.0774 0.5066 0.9872
1.1495 -2.4771 0.4348 0.9890
1.3405 -2.3218 0.4269 0.9892
1.7934 -2.1213 0.4423 0.9888
2.1078 -2.0845 0.4720 0.9881
0.7239 -3.3688 0.4901 0.9862
1.0498 -2.5546 0.3928 0.9889
1.2320 -2.3720 0.3802 0.9893
1.9127 -2.0680 0.4007 0.9887
2.2749 -2.0576 0.4363 0.9877
0.7912 -3.0200 0.4441 0.9875
0.9585 -2.6642 0.4027 0.9886
1.1372 -2.4506 0.3843 0.9891
1.7738 -2.0981 0.3908 0.9890
1.0385 -2.5271 0.3424 0.9890
2.2419 -2.0277 0.3788 0.9879
2.8116 6.0589 0.8371 0.9734
1.1252 -2.4247 0.3350 0.9893
1.7546 -2.0754 0.3406 0.9891
2.0515 -2.0287 0.3616 0.9884
0.6833 -3.1800 0.3528 0.9870
1.0275 -2.5003 0.2932 0.9892
1.6133 -2.0905 0.2864 0.9894
2.2111 -1.9998 0.3234 0.9881
1.1135 -2.3995 0.2869 0.9894
1.3018 -2.2548 0.2824 0.9896
1.5050 -2.1409 0.2838 0.9895
2.0245 -2.0021 0.3088 0.9886
2.4641 -2.0366 0.3467 0.9872
0.6705 -3.1202 0.2926 0.9873
1.0194 -2.4806 0.2459 0.9893
1.2004 -2.3113 0.2388 0.9896
1.3899 -2.1772 0.2368 0.9897
1.6026 -2.0766 0.2405 0.9895
1.8549 -2.0055 0.2504 0.9891
2.1818 -1.9733 0.2697 0.9883
2.8116 6.0588 0.6124 0.9735
0.7527 -2.8730 0.2723 0.9881
0.9295 -2.5835 0.2517 0.9890
1.1058 -2.3829 0.2408 0.9895
1.2937 -2.2408 0.2372 0.9897
1.4954 -2.1272 0.2384 0.9896
1.7226 -2.0375 0.2446 0.9893
2.0017 -1.9795 0.2581 0.9888
2.4176 -1.9982 0.2875 0.9875
0.6618 -3.0796 0.2361 0.9874
0.8363 -2.6961 0.2115 0.9887
1.0136 -2.4664 0.1998 0.9894
1.3826 -2.1659 0.1926 0.9897
1.8439 -1.9937 0.2035 0.9892
2.7318 -2.0602 0.2564 0.9864
2.8116 6.0588 0.5005 0.9736
0.5879 -3.4854 0.2649 0.9859
1.7127 -2.0257 0.1988 0.9894
1.9876 -1.9656 0.2095 0.9888
2.3875 -1.9734 0.2321 0.9877
0.8305 -2.6773 0.1633 0.9888
1.1879 -2.2872 0.1501 0.9897
1.5858 -2.0548 0.1512 0.9897
2.6836 -2.0238 0.1958 0.9866
0.5776 -3.4242 0.2023 0.9862
0.7418 -2.8312 0.1705 0.9883
1.0942 -2.3579 0.1514 0.9896
1.9738 -1.9519 0.1617 0.9889
0.6487 -3.0189 0.1284 0.9877
1.3685 -2.1437 0.1057 0.9899
1.8226 -1.9705 0.1116 0.9893
0.9133 -2.5385 0.1122 0.9893
1.0885 -2.3457 0.1075 0.9897
1.2738 -2.2063 0.1059 0.9899
1.4722 -2.0942 0.1064 0.9898
1.9602 -1.9385 0.1146 0.9890
0.6424 -2.9895 0.0763 0.9878
0.9965 -2.4247 0.0654 0.9896
1.1758 -2.2638 0.0636 0.9898
1.3615 -2.1327 0.0631 0.9899
1.8121 -1.9592 0.0666 0.9894
2.1193 -1.9168 0.0713 0.9886
2.5952 -1.9572 0.0811 0.9871
2.8115 6.0586 0.1666 0.9736
0.5581 -3.3084 0.0837 0.9867
0.9080 -2.5239 0.0669 0.9893
1.0829 -2.3336 0.0642 0.9898
1.2673 -2.1951 0.0632 0.9899
1.4646 -2.0835 0.0635 0.9899
1.6837 -1.9915 0.0650 0.9896
1.9469 -1.9253 0.0683 0.9891
2.3175 -1.9155 0.0750 0.9880
0.8136 -2.6228 0.0228 0.9891
0.9909 -2.4112 0.0217 0.9896
1.3546 -2.1219 0.0209 0.9900
1.8017 -1.9480 0.0221 0.9894
0.5488 -3.2535 0.0274 0.9869
0.7260 -2.7711 0.0238 0.9886
1.0773 -2.3216 0.0213 0.9898
1.4572 -2.0729 0.0211 0.9899
1.6743 -1.9804 0.0216 0.9897
2.2951 -1.8970 0.0247 0.9882
0.8081 -2.6051 -0.0227 0.9891
0.9854 -2.3978 -0.0215 0.9897
1.1639 -2.2408 -0.0210 0.9900
1.3478 -2.1113 -0.0208 0.9900
1.5534 -2.0128 -0.0211 0.9899
1.7915 -1.9369 -0.0219 0.9895
0.5398 -3.2004 -0.0270 0.9871
0.8977 -2.4952 -0.0220 0.9894
1.0718 -2.3097 -0.0212 0.9899
1.6650 -1.9694 -0.0214 0.9897
0.6257 -2.9117 -0.0743 0.9882
0.8036 -2.5907 -0.0676 0.9892
0.9806 -2.3863 -0.0643 0.9897
1.7828 -1.9275 -0.0655 0.9895
2.0777 -1.8792 -0.0699 0.9889
2.5231 -1.9027 -0.0788 0.9874
2.8114 6.0584 -0.1666 0.9736
0.8019 -2.5851 -0.1125 0.9892
0.9789 -2.3820 -0.1071 0.9897
1.1567 -2.2270 -0.1043 0.9900
1.3395 -2.0983 -0.1035 0.9901
1.7795 -1.9240 -0.1090 0.9896
2.0730 -1.8749 -0.1162 0.9889
0.7153 -2.7302 -0.1174 0.9888
1.4408 -2.0496 -0.1042 0.9900
1.6539 -1.9563 -0.1065 0.9898
2.2559 -1.8645 -0.1217 0.9884
0.6218 -2.8937 -0.1724 0.9882
0.9771 -2.3777 -0.1497 0.9898
1.1548 -2.2234 -0.1459 0.9900
1.5412 -1.9970 -0.1469 0.9899
1.7762 -1.9204 -0.1524 0.9896
2.8113 6.0583 -0.3890 0.9736
0.5309 -3.1475 -0.1859 0.9873
1.2448 -2.1561 -0.1450 0.9901
1.6510 -1.9528 -0.1489 0.9898
1.9076 -1.8865 -0.1563 0.9893
2.2505 -1.8601 -0.1701 0.9884
2.9507 -2.0256 -0.2085 0.9858
1.1529 -2.2197 -0.1874 0.9900
1.3351 -2.0914 -0.1859 0.9901
1.5386 -1.9937 -0.1887 0.9899
2.4979 -1.8838 -0.2345 0.9875
2.8113 6.0582 -0.5005 0.9736
0.7120 -2.7178 -0.2105 0.9888
1.0617 -2.2879 -0.1890 0.9899
1.2428 -2.1526 -0.1863 0.9901
2.2451 -1.8557 -0.2183 0.9884
2.9213 -2.0053 -0.2655 0.9859
0.9736 -2.3692 -0.2348 0.9898
1.3329 -2.0880 -0.2271 0.9901
1.5361 -1.9904 -0.2305 0.9900
1.7697 -1.9134 -0.2389 0.9896
2.0589 -1.8622 -0.2545 0.9889
2.8113 6.0582 -0.6123 0.9735
0.5274 -3.1267 -0.2907 0.9873
0.7104 -2.7116 -0.2570 0.9888
0.8868 -2.4650 -0.2402 0.9895
1.0599 -2.2841 -0.2308 0.9899
1.6450 -1.9458 -0.2336 0.9898
1.9004 -1.8794 -0.2450 0.9893
2.2398 -1.8512 -0.2664 0.9884
0.6161 -2.8671 -0.3181 0.9883
0.7949 -2.5626 -0.2910 0.9893
1.3308 -2.0846 -0.2683 0.9901
1.7664 -1.9099 -0.2822 0.9896
2.0542 -1.8579 -0.3004 0.9889
0.7088 -2.7054 -0.3034 0.9888
1.0582 -2.2803 -0.2727 0.9899
1.4314 -2.0362 -0.2700 0.9900
1.8968 -1.8758 -0.2894 0.9893
0.6142 -2.8582 -0.3664 0.9883
0.9701 -2.3606 -0.3198 0.9898
2.8112 6.0581 -0.8369 0.9734
0.5239 -3.1060 -0.3947 0.9874
0.7072 -2.6993 -0.3497 0.9888
0.8836 -2.4560 -0.3271 0.9895
1.0564 -2.2765 -0.3145 0.9899
1.6391 -1.9388 -0.3182 0.9898
1.8932 -1.8723 -0.3337 0.9893
2.8934 -1.9862 -0.4398 0.9860
0.7914 -2.5514 -0.3800 0.9893
0.9684 -2.3564 -0.3624 0.9898
1.1453 -2.2051 -0.3534 0.9900
1.3264 -2.0778 -0.3506 0.9901
2.0449 -1.8495 -0.3922 0.9889
2.8112 6.0580 -0.9499 0.9734
1.0546 -2.2727 -0.3564 0.9899
1.6362 -1.9353 -0.3605 0.9898
1.8897 -1.8687 -0.3780 0.9893
2.2267 -1.8404 -0.4109 0.9884
0.7919 -2.5527 -0.4256 0.9892
0.9672 -2.3536 -0.4052 0.9897
1.1434 -2.2015 -0.3950 0.9900
1.3242 -2.0744 -0.3919 0.9901
1.7588 -1.9016 -0.4125 0.9896
2.4876 -1.8760 -0.4961 0.9875
0.7072 -2.6992 -0.4443 0.9888
0.8816 -2.4504 -0.4147 0.9895
1.0529 -2.2690 -0.3983 0.9899
1.4243 -2.0262 -0.3944 0.9900
2.2323 -1.8451 -0.4612 0.9883
2.9330 -2.0134 -0.5665 0.9857
0.6177 -2.8747 -0.5185 0.9881
1.5286 -1.9806 -0.4411 0.9899
2.0536 -1.8574 -0.4882 0.9888
0.5294 -3.1382 -0.5612 0.9872
0.7089 -2.7057 -0.4932 0.9887
0.8833 -2.4552 -0.4601 0.9895
1.0548 -2.2730 -0.4418 0.9899
1.4264 -2.0291 -0.4373 0.9900
1.6370 -1.9363 -0.4471 0.9898
2.2380 -1.8498 -0.5120 0.9883
3.0261 -2.0773 -0.6472 0.9852
0.6198 -2.8844 -0.5709 0.9881
0.7956 -2.5646 -0.5196 0.9891
1.5312 -1.9841 -0.4850 0.9898
1.7657 -1.9091 -0.5032 0.9895
2.5057 -1.8896 -0.6073 0.9873
2.8111 6.0578 -1.2924 0.9732
0.5313 -3.1496 -0.6181 0.9871
0.7106 -2.7123 -0.5426 0.9886
0.8850 -2.4600 -0.5059 0.9894
1.0566 -2.2770 -0.4858 0.9898
1.2364 -2.1415 -0.4785 0.9900
1.4289 -2.0327 -0.4808 0.9899
1.6402 -1.9400 -0.4916 0.9897
1.8977 -1.8767 -0.5165 0.9892
-14.2200 -0.0000 -2.9979 0.9435
-14.1608 -1.2654 -2.9973 0.9435
-13.7070 -3.7547 -2.9962 0.9436
-12.6327 -6.0341 -2.9515 0.9444
-10.5647 -9.1357 -2.9445 0.9445
-5.6089 -12.8279 -2.9516 0.9444
-0.7820 -14.0233 -2.9610 0.9442
0.4698 -14.0508 -2.9638 0.9441
1.7202 -13.9675 -2.9669 0.9441
0.7974 -2.5707 -0.5674 0.9891
1.1492 -2.2126 -0.5256 0.9899
1.7692 -1.9129 -0.5493 0.9894
12.6852 -6.4101 -2.9963 0.9436
14.1974 0.9504 -2.9998 0.9435
13.8092 3.4539 -3.0009 0.9435
13.4493 4.6701 -3.0015 0.9435
12.9825 5.8496 -3.0020 0.9435
12.4124 6.9831 -3.0025 0.9434
9.8053 9.6966 -2.9072 0.9452
7.7853 11.0748 -2.8540 0.9462
6.7704 11.7267 -2.8547 0.9462
2.8111 6.0578 -1.4079 0.9731
3.4332 13.1043 -2.8559 0.9461
2.2535 13.3596 -2.8562 0.9461
-2.5516 13.3114 -2.8574 0.9461
-6.2847 12.7890 -3.0041 0.9434
-7.3973 12.1775 -3.0038 0.9434
-8.4507 11.4693 -3.0034 0.9434
-11.1755 8.8252 -3.0021 0.9435
-11.9146 7.7942 -3.0016 0.9435
-12.5588 6.7016 -3.0010 0.9435
-13.5430 4.3671 -2.9999 0.9435
-13.8752 3.1437 -2.9993 0.9435
-14.2073 0.6335 -2.9982 0.9435
-14.2045 -0.6334 -2.9976 0.9435
-14.0891 -1.8948 -2.9970 0.9435
-13.8619 -3.1407 -2.9964 0.9436
-13.0029 -5.5137 -2.9775 0.9439
-12.3237 -6.5762 -2.9448 0.9445
-9.2597 -10.4701 -2.9467 0.9445
-3.8531 -13.4752 -2.9547 0.9443
-1.4052 -13.9681 -2.9596 0.9442
-0.1566 -14.0509 -2.9624 0.9442
1.0958 -14.0230 -2.9653 0.9441
0.5332 -3.1611 -0.6758 0.9870
1.4314 -2.0362 -0.5247 0.9899
1.9016 -1.8805 -0.5638 0.9891
11.7075 -8.0368 -2.9938 0.9436
13.4302 -4.6635 -2.9972 0.9435
13.7946 -3.4503 -2.9978 0.9435
14.0497 -2.2092 -2.9983 0.9435
13.6428 4.0660 -3.0012 0.9435
11.3734 8.5771 -3.0031 0.9434
7.2857 11.4129 -2.8545 0.9462
6.2418 12.0176 -2.8549 0.9461
1.6562 13.4475 -2.8564 0.9461
0.4528 13.5430 -2.8567 0.9461
-1.9560 13.4113 -2.8573 0.9461
-4.2969 12.8343 -2.8533 0.9462
-5.7091 13.0570 -3.0043 0.9434
-6.8478 12.4957 -3.0040 0.9434
-9.9019 10.2385 -3.0028 0.9434
-12.2489 7.2551 -3.0013 0.9435
-12.8437 6.1349 -3.0007 0.9435
-14.1663 1.2659 -2.9984 0.9435
-13.1347 0.0000 -2.9979 0.9475
-13.0803 -1.1689 -2.9974 0.9475
-12.9221 -2.3280 -2.9969 0.9476
-12.3005 -4.5807 -2.9959 0.9476
-11.6864 -5.5821 -2.9560 0.9483
-8.9781 -9.2833 -2.9477 0.9484
-8.1208 -10.0512 -2.9493 0.9484
-4.1116 -12.2806 -2.9559 0.9483
-3.0044 -12.6067 -2.9580 0.9482
0.6240 -2.9040 -0.6779 0.9879
0.7993 -2.5768 -0.6158 0.9890
1.1512 -2.2165 -0.5701 0.9898
1.3328 -2.0879 -0.5654 0.9899
1.5367 -1.9912 -0.5741 0.9897
1.7728 -1.9167 -0.5959 0.9893
11.1362 -6.9357 -2.9944 0.9476
11.7175 -5.9211 -2.9965 0.9476
12.2001 -4.8556 -2.9970 0.9476
12.5861 -3.7511 -2.9976 0.9475
13.1132 0.8778 -2.9997 0.9475
12.9853 2.0418 -3.0002 0.9475
12.7542 3.1900 -3.0007 0.9475
12.4217 4.3133 -3.0012 0.9475
11.9904 5.4026 -3.0017 0.9475
11.4637 6.4494 -3.0022 0.9475
9.3562 9.2525 -3.0033 0.9474
6.2535 10.8314 -2.8546 0.9500
2.8111 6.0577 -1.5243 0.9730
4.2350 11.7713 -2.8553 0.9500
3.1708 12.1030 -2.8557 0.9500
-0.1394 12.5148 -2.8566 0.9499
-2.3565 12.2934 -2.8570 0.9499
-4.5512 11.8171 -2.8903 0.9494
-5.8041 11.8111 -3.0037 0.9474
-6.8316 11.2464 -3.0034 0.9474
-8.7153 9.8545 -3.0027 0.9475
-10.3215 8.1508 -3.0018 0.9475
-11.0042 7.1987 -3.0013 0.9475
-11.5994 6.1896 -3.0008 0.9475
-12.1022 5.1318 -3.0003 0.9475
-13.1229 0.5852 -2.9982 0.9475
-13.1205 -0.5850 -2.9976 0.9475
-12.8045 -2.9011 -2.9966 0.9476
-12.4933 -4.0286 -2.9961 0.9476
-9.3819 -8.8734 -2.9474 0.9484
-8.5568 -9.6754 -2.9481 0.9484
-7.6678 -10.4068 -2.9504 0.9483
-6.7141 -11.0529 -2.9517 0.9483
-4.6531 -12.0814 -2.9549 0.9483
-3.5617 -12.4559 -2.9569 0.9482
-0.1447 -12.9855 -2.9640 0.9481
0.5352 -3.1728 -0.7344 0.9869
0.8885 -2.4698 -0.5991 0.9893
1.0604 -2.2852 -0.5750 0.9897
1.2407 -2.1490 -0.5664 0.9899
1.9055 -1.8844 -0.6117 0.9891
11.4398 -6.4360 -2.9959 0.9476
12.7418 -3.1870 -2.9978 0.9475
13.1381 0.2928 -2.9994 0.9475
13.0623 1.4612 -3.0000 0.9475
12.8826 2.6185 -3.0005 0.9475
11.1658 6.9541 -3.0024 0.9475
9.7585 8.8260 -3.0032 0.9474
7.6320 9.8891 -2.8511 0.9500
6.7293 10.5413 -2.8544 0.9500
4.7548 11.5702 -2.8551 0.9500
2.6287 12.2329 -2.8558 0.9500
1.5296 12.4198 -2.8562 0.9500
0.4182 12.5079 -2.8564 0.9499
-0.6968 12.4967 -2.8567 0.9499
-2.9002 12.1698 -2.8555 0.9500
-3.9676 11.8505 -2.8524 0.9500
-5.2725 12.0585 -3.0039 0.9474
-6.3242 11.5402 -3.0036 0.9474
-7.3254 10.9303 -3.0032 0.9474
-8.2682 10.2336 -3.0029 0.9475
-9.1450 9.4559 -3.0025 0.9475
-9.9489 8.6031 -3.0020 0.9475
-10.6735 7.6823 -3.0016 0.9475
-11.3131 6.7008 -3.0011 0.9475
-12.3177 4.5872 -3.0001 0.9475
-12.6749 3.4720 -2.9995 0.9475
-12.9313 2.3297 -2.9990 0.9475
-13.0850 1.1693 -2.9985 0.9475
-11.9996 -2.1618 -2.9970 0.9510
-11.4227 -4.2538 -2.9961 0.9510
-9.7396 -7.0102 -2.9496 0.9518
-9.0770 -7.8492 -2.9496 0.9518
-5.7753 -10.5386 -2.9539 0.9517
-3.8205 -11.4112 -2.9579 0.9516
-2.7915 -11.7136 -2.9598 0.9516
-1.7391 -11.9241 -2.9620 0.9516
0.4031 -12.0603 -2.9661 0.9515
0.8012 -2.5830 -0.6647 0.9889
0.9766 -2.3764 -0.6315 0.9895
10.3378 -6.4385 -2.9936 0.9511
10.8799 -5.4979 -2.9963 0.9510
11.3292 -4.5089 -2.9971 0.9510
12.1239 -1.3563 -2.9986 0.9510
12.1985 -0.2718 -2.9991 0.9510
12.1763 0.8151 -2.9996 0.9510
12.0574 1.8959 -3.0001 0.9510
11.8427 2.9621 -3.0006 0.9510
10.6440 5.9882 -3.0019 0.9509
10.0701 6.9127 -3.0023 0.9509
8.6869 8.5907 -3.0030 0.9509
7.4877 8.8565 -2.8507 0.9534
6.6703 9.4886 -2.8509 0.9533
2.8110 6.0577 -1.6415 0.9729
3.9322 10.9299 -2.8551 0.9533
2.9442 11.2378 -2.8555 0.9533
1.9325 11.4565 -2.8558 0.9533
-0.1294 11.6198 -2.8563 0.9533
-3.1910 11.1596 -2.8530 0.9533
-6.3430 10.4419 -3.0031 0.9509
-7.2464 9.8349 -3.0027 0.9509
-8.0920 9.1498 -3.0024 0.9509
-9.5835 7.5680 -3.0016 0.9509
-10.2176 6.6841 -3.0011 0.9510
-10.7703 5.7472 -3.0007 0.9510
-11.6150 3.7453 -2.9997 0.9510
-11.9003 2.6962 -2.9992 0.9510
-12.0910 1.6261 -2.9987 0.9510
-12.1857 0.5434 -2.9982 0.9510
-12.0850 -1.6253 -2.9972 0.9510
-11.6017 -3.7410 -2.9963 0.9510
-11.2098 -4.7533 -2.9928 0.9511
-10.5889 -5.6504 -2.9501 0.9518
-7.9516 -8.9910 -2.9503 0.9518
-7.1218 -9.6657 -2.9511 0.9517
-5.3020 -10.7893 -2.9549 0.9517
-4.3237 -11.2262 -2.9570 0.9517
-3.3094 -11.5737 -2.9588 0.9516
-1.2066 -11.9943 -2.9631 0.9516
-0.1345 -12.0623 -2.9651 0.9515
0.5465 -3.2397 -0.8076 0.9866
0.7159 -2.7326 -0.6943 0.9884
1.4365 -2.0435 -0.6140 0.9898
1.6498 -1.9514 -0.6281 0.9895
1.9095 -1.8883 -0.6601 0.9890
10.0360 -6.8893 -2.9921 0.9511
10.6193 -5.9744 -2.9950 0.9510
11.5197 -4.0001 -2.9974 0.9510
11.8320 -2.9594 -2.9979 0.9510
12.0504 -1.8948 -2.9984 0.9510
12.1289 1.3568 -2.9999 0.9510
11.9619 2.4314 -3.0004 0.9510
11.3448 4.5151 -3.0013 0.9509
10.8995 5.5077 -3.0017 0.9509
10.3674 6.4569 -3.0021 0.9509
9.0605 8.1947 -3.0028 0.9509
7.9371 8.5815 -2.8732 0.9530
7.0860 9.1816 -2.8508 0.9534
6.2412 9.7766 -2.8510 0.9533
5.3532 10.3068 -2.8547 0.9533
3.4416 11.0948 -2.8553 0.9533
2.4408 11.3584 -2.8556 0.9533
1.4203 11.5318 -2.8559 0.9533
-0.6470 11.6030 -2.8564 0.9533
-2.6921 11.2963 -2.8544 0.9533
-4.8953 11.1958 -3.0035 0.9509
-5.8718 10.7147 -3.0032 0.9509
-8.4910 8.7797 -3.0022 0.9509
-9.2375 7.9880 -3.0018 0.9509
-9.9104 7.1331 -3.0014 0.9509
-10.5044 6.2218 -3.0009 0.9510
-11.0148 5.2613 -3.0004 0.9510
-11.4375 4.2594 -3.0000 0.9510
-12.0075 2.1633 -2.9990 0.9510
-12.1504 1.0858 -2.9985 0.9510
-11.3776 0.0000 -2.9980 0.9540
-11.3307 -1.0125 -2.9975 0.9540
-11.1940 -2.0167 -2.9971 0.9540
-10.9684 -3.0046 -2.9967 0.9540
-9.6393 -5.7094 -2.9521 0.9547
-8.4735 -7.3273 -2.9518 0.9547
-7.7883 -8.0530 -2.9520 0.9547
-7.0421 -8.7161 -2.9526 0.9547
-6.2402 -9.3110 -2.9535 0.9547
-5.3886 -9.8330 -2.9546 0.9547
-3.5636 -10.6439 -2.9577 0.9546
-0.6261 -11.2287 -2.9634 0.9545
1.3764 -11.1758 -2.9671 0.9545
0.9785 -2.3812 -0.6784 0.9894
1.1554 -2.2245 -0.6605 0.9897
1.3376 -2.0954 -0.6550 0.9898
1.5423 -1.9985 -0.6652 0.9896
2.5840 -1.9487 -0.8528 0.9867
10.5685 -4.2062 -2.9972 0.9540
10.9026 -3.2493 -2.9977 0.9540
11.3094 -1.2652 -2.9986 0.9540
11.2471 1.7685 -3.0000 0.9540
10.7584 3.7357 -3.0009 0.9540
9.9283 5.5856 -3.0017 0.9540
8.7827 7.2591 -3.0024 0.9540
6.9840 8.2607 -2.8504 0.9562
6.2215 8.8502 -2.8506 0.9562
2.8110 6.0576 -1.7597 0.9728
3.6679 10.1952 -2.8550 0.9562
2.7462 10.4823 -2.8553 0.9562
-1.0850 10.7855 -2.8563 0.9562
-2.0396 10.6403 -2.8548 0.9562
-2.9758 10.4069 -2.8521 0.9562
-4.0964 10.6360 -3.0033 0.9539
-5.9163 9.7396 -3.0028 0.9540
-6.7590 9.1734 -3.0025 0.9540
-7.5478 8.5344 -3.0021 0.9540
-8.9392 7.0592 -3.0014 0.9540
-9.5307 6.2347 -3.0010 0.9540
-10.4821 4.4448 -3.0001 0.9540
-10.8345 3.4937 -2.9996 0.9540
-11.2788 1.5168 -2.9987 0.9540
-11.3673 0.5069 -2.9982 0.9540
-11.3655 -0.5068 -2.9978 0.9540
-11.2735 -1.5161 -2.9973 0.9540
-10.8229 -3.4899 -2.9964 0.9540
-8.1389 -7.6977 -2.9519 0.9547
-6.6477 -9.0224 -2.9530 0.9547
-4.0327 -10.4709 -2.9566 0.9546
-3.0870 -10.7958 -2.9587 0.9546
-2.1152 -11.0349 -2.9606 0.9546
-1.1254 -11.1864 -2.9625 0.9546
-0.1253 -11.2487 -2.9642 0.9545
0.8769 -11.2218 -2.9660 0.9545
0.5594 -3.3166 -0.8863 0.9862
0.7183 -2.7418 -0.7469 0.9883
0.8921 -2.4798 -0.6944 0.9892
1.0643 -2.2935 -0.6662 0.9896
1.2452 -2.1567 -0.6562 0.9898
1.6531 -1.9553 -0.6747 0.9895
1.9135 -1.8923 -0.7091 0.9889
2.2769 -1.8819 -0.7784 0.9879
10.3685 -4.6719 -2.9967 0.9540
11.2410 -1.7675 -2.9984 0.9540
11.3555 -0.7602 -2.9989 0.9540
11.3798 0.2536 -2.9993 0.9540
10.9134 3.2525 -3.0007 0.9540
10.1666 5.1374 -3.0015 0.9540
9.6702 6.0227 -3.0019 0.9540
9.0969 6.8603 -3.0022 0.9540
8.4510 7.6435 -3.0026 0.9540
6.6093 8.5640 -2.8505 0.9562
3.2103 10.3490 -2.8551 0.9562
0.3622 10.8326 -2.8560 0.9562
-0.6035 10.8227 -2.8562 0.9562
-2.5104 10.5341 -2.8535 0.9562
-3.4348 10.2592 -2.8508 0.9562
-4.5659 10.4426 -3.0032 0.9539
-5.4768 9.9939 -3.0029 0.9540
-6.3440 9.4659 -3.0026 0.9540
-7.1605 8.8627 -3.0023 0.9540
-8.6164 7.4509 -3.0016 0.9540
-9.2441 6.6535 -3.0012 0.9540
-10.6689 3.9731 -2.9999 0.9540
-11.2009 2.0179 -2.9989 0.9540
-11.3343 1.0128 -2.9985 0.9540
-10.6557 0.0000 -2.9980 0.9567
-10.4839 -1.8888 -2.9972 0.9567
-10.2727 -2.8140 -2.9968 0.9567
-7.9409 -6.8668 -2.9537 0.9573
-7.2988 -7.5468 -2.9539 0.9573
-5.8475 -8.7250 -2.9552 0.9573
-4.2110 -9.6307 -2.9574 0.9573
-2.4391 -10.2349 -2.9603 0.9572
0.3522 -10.5353 -2.9658 0.9571
1.2894 -10.4695 -2.9679 0.9571
0.9805 -2.3860 -0.7258 0.9893
1.5452 -2.0022 -0.7116 0.9895
2.0972 -1.8968 -0.7956 0.9883
2.6348 -1.9870 -0.9285 0.9864
9.4994 -4.8003 -2.9946 0.9567
10.2108 -3.0431 -2.9978 0.9567
10.4427 -2.1226 -2.9982 0.9567
10.5917 -1.1848 -2.9986 0.9567
10.6370 0.7121 -2.9995 0.9567
10.5329 1.6562 -2.9999 0.9567
9.2976 5.2307 -3.0015 0.9566
8.7961 6.0382 -3.0018 0.9566
8.2247 6.7978 -3.0022 0.9566
7.5877 7.5036 -3.0025 0.9566
6.5638 7.7638 -2.8605 0.9586
5.8261 8.2877 -2.8503 0.9588
2.5718 9.8166 -2.8552 0.9587
1.6880 10.0074 -2.8554 0.9587
-1.0161 10.1002 -2.8561 0.9587
-3.8360 9.9600 -3.0030 0.9566
-7.7507 7.3305 -3.0016 0.9566
-8.3714 6.6108 -3.0012 0.9566
-8.9254 5.8387 -3.0008 0.9566
-9.8166 4.1626 -3.0000 0.9567
-10.1466 3.2719 -2.9996 0.9567
-10.3961 2.3554 -2.9991 0.9567
-10.5629 1.4206 -2.9987 0.9567
-10.6459 0.4747 -2.9983 0.9567
-9.8041 -4.1573 -2.9962 0.9567
-8.7857 -5.7473 -2.9538 0.9573
-8.2389 -6.5062 -2.9537 0.9573
-6.2294 -8.4546 -2.9547 0.9573
-5.4539 -8.9783 -2.9556 0.9573
-3.7786 -9.8110 -2.9580 0.9573
-2.8918 -10.1133 -2.9595 0.9572
-1.9813 -10.3362 -2.9611 0.9572
-1.0541 -10.4779 -2.9629 0.9572
-0.1174 -10.5369 -2.9648 0.9572
0.5732 -3.3981 -0.9696 0.9858
1.0662 -2.2977 -0.7127 0.9895
1.2474 -2.1607 -0.7020 0.9897
1.9212 -1.8999 -0.7602 0.9888
8.7641 -6.0162 -2.9909 0.9568
10.3370 -2.5855 -2.9980 0.9567
10.5276 -1.6554 -2.9984 0.9567
10.6574 0.2375 -2.9993 0.9567
10.4495 2.1239 -3.0001 0.9567
10.2203 3.0460 -3.0005 0.9567
9.5208 4.8111 -3.0013 0.9566
1.2406 10.0731 -2.8555 0.9587
-0.5651 10.1351 -2.8560 0.9587
-1.4645 10.0412 -2.8550 0.9587
-3.2164 9.6070 -2.8504 0.9588
-4.2758 9.7789 -3.0029 0.9566
-5.1288 9.3588 -3.0026 0.9566
-5.9409 8.8644 -3.0024 0.9566
-6.7056 8.2996 -3.0021 0.9566
-7.4169 7.6690 -3.0017 0.9566
-8.6570 6.2309 -3.0010 0.9566
-9.1760 5.4350 -3.0006 0.9567
-9.6221 4.5961 -3.0002 0.9567
-10.4899 1.8898 -2.9989 0.9567
-10.0143 0.0000 -2.9981 0.9590
-9.9732 -0.8912 -2.9977 0.9591
-9.3798 -3.4931 -2.9965 0.9591
-8.4944 -5.0313 -2.9557 0.9596
-7.4672 -6.4571 -2.9554 0.9596
-5.4982 -8.2039 -2.9567 0.9596
-3.1390 -9.3756 -2.9600 0.9596
-2.2932 -9.6225 -2.9615 0.9595
-1.4284 -9.7937 -2.9631 0.9595
-0.5514 -9.8878 -2.9648 0.9595
1.2121 -9.8416 -2.9687 0.9594
0.6490 -3.0202 -0.9248 0.9872
0.8143 -2.6250 -0.8228 0.9886
1.7960 -1.9418 -0.7919 0.9890
2.1157 -1.9135 -0.8540 0.9882
2.7025 -2.0381 -1.0134 0.9860
8.4820 -5.2827 -2.9916 0.9591
8.9253 -4.5102 -2.9938 0.9591
9.2981 -3.7006 -2.9960 0.9591
9.5963 -2.8600 -2.9978 0.9591
9.8141 -1.9948 -2.9982 0.9590
9.9540 -1.1135 -2.9986 0.9590
10.0150 -0.2232 -2.9990 0.9590
9.4682 3.2877 -3.0006 0.9590
7.1303 7.0513 -3.0022 0.9590
5.4749 7.7881 -2.8501 0.9610
4.7602 8.2450 -2.8502 0.9610
-0.1063 9.5382 -2.8557 0.9610
-1.7941 9.3595 -2.8531 0.9610
-3.6047 9.3596 -3.0027 0.9590
-4.4232 9.0010 -3.0025 0.9590
-5.2064 8.5709 -3.0023 0.9590
-7.2836 6.8888 -3.0014 0.9590
-7.8670 6.2125 -3.0010 0.9590
-8.3877 5.4870 -3.0007 0.9590
-9.2253 3.9119 -2.9999 0.9590
-9.5356 3.0748 -2.9995 0.9590
-9.9270 1.3350 -2.9987 0.9590
-10.0037 -0.4461 -2.9979 0.9591
-9.9229 -1.3345 -2.9975 0.9591
-9.7635 -2.2121 -2.9971 0.9591
-9.5267 -3.0719 -2.9967 0.9591
-9.2143 -3.9072 -2.9963 0.9591
-8.2615 -5.4044 -2.9555 0.9596
-5.8576 -7.9499 -2.9563 0.9596
-4.3579 -8.8680 -2.9581 0.9596
-3.5527 -9.2244 -2.9594 0.9596
-2.7189 -9.5084 -2.9607 0.9595
-1.8627 -9.7177 -2.9623 0.9595
-0.9910 -9.8505 -2.9639 0.9595
0.7722 -9.8825 -2.9677 0.9595
0.7309 -2.7897 -0.8634 0.9880
0.9005 -2.5030 -0.7964 0.9890
1.2508 -2.1664 -0.7489 0.9896
2.3342 -1.9293 -0.9066 0.9874
8.2350 -5.6531 -2.9904 0.9592
9.1207 -4.1096 -2.9949 0.9591
9.4570 -3.2838 -2.9971 0.9591
10.0157 0.2232 -2.9992 0.9590
9.9574 1.1139 -2.9996 0.9590
9.8200 1.9960 -3.0000 0.9590
9.6047 2.8625 -3.0004 0.9590
9.3129 3.7064 -3.0008 0.9590
8.0054 6.0372 -3.0018 0.9590
5.8162 7.5362 -2.8500 0.9610
4.3883 8.4491 -2.8503 0.9610
3.6247 8.8203 -2.8549 0.9610
2.8254 9.1082 -2.8550 0.9610
0.3187 9.5331 -2.8556 0.9610
-1.3759 9.4338 -2.8542 0.9610
-3.1142 9.3015 -2.9366 0.9599
-4.0180 9.1894 -3.0026 0.9590
-4.8196 8.7946 -3.0024 0.9590
-5.5828 8.3301 -3.0021 0.9590
-6.9699 7.2068 -3.0015 0.9590
-7.5829 6.5571 -3.0012 0.9590
-8.1354 5.8555 -3.0009 0.9590
-9.8583 1.7761 -2.9989 0.9590
-9.9759 0.8915 -2.9985 0.9590
-9.4403 0.0000 -2.9981 0.9612
-9.4017 -0.8402 -2.9977 0.9612
-9.1015 -2.4932 -2.9970 0.9612
-8.8425 -3.2929 -2.9966 0.9612
-8.4941 -4.0573 -2.9895 0.9613
-8.0117 -4.7453 -2.9572 0.9617
-7.5570 -5.4392 -2.9570 0.9617
-5.8526 -7.2438 -2.9575 0.9617
-4.4776 -8.1704 -2.9589 0.9617
-2.9601 -8.8417 -2.9612 0.9616
-2.1625 -9.0742 -2.9625 0.9616
0.3122 -9.3386 -2.9675 0.9615
0.9926 -2.4153 -0.8293 0.9891
1.1683 -2.2494 -0.8050 0.9894
1.3517 -2.1175 -0.7978 0.9895
1.5605 -2.0220 -0.8111 0.9893
7.9944 -4.9790 -2.9910 0.9612
8.7628 -3.4875 -2.9952 0.9612
9.2516 -1.8805 -2.9982 0.9612
9.4233 0.6308 -2.9994 0.9611
9.3309 1.4672 -2.9998 0.9611
9.1645 2.2922 -3.0001 0.9611
6.7211 6.6467 -3.0020 0.9611
6.1034 7.2191 -3.0022 0.9611
3.0433 8.4590 -2.8550 0.9630
1.4953 8.8651 -2.8552 0.9630
-0.8996 8.9428 -2.8544 0.9630
-2.4673 8.6287 -2.8502 0.9630
-3.3979 8.8224 -3.0025 0.9611
-4.9076 8.0790 -3.0021 0.9611
-5.6067 7.6095 -3.0018 0.9611
-6.2612 7.0796 -3.0015 0.9611
-7.4157 5.8561 -3.0009 0.9611
-7.9066 5.1722 -3.0006 0.9611
-8.3346 4.4475 -3.0002 0.9611
-8.9888 2.8985 -2.9995 0.9611
-9.2100 2.0867 -2.9991 0.9611
-9.4316 0.4206 -2.9983 0.9612
-9.2041 -2.0854 -2.9972 0.9612
-8.2360 -4.3949 -2.9647 0.9616
-7.7920 -5.0973 -2.9571 0.9617
-7.3071 -5.7703 -2.9570 0.9617
-5.5246 -7.4980 -2.9578 0.9617
-2.5640 -8.9668 -2.9618 0.9616
-0.9345 -9.2888 -2.9649 0.9616
-0.1041 -9.3404 -2.9666 0.9616
1.5556 -9.2224 -2.9703 0.9615
0.9068 -2.5206 -0.8507 0.9888
1.4551 -2.0699 -0.8035 0.9894
1.6762 -1.9826 -0.8245 0.9892
1.9491 -1.9275 -0.8706 0.9886
8.9124 -3.0947 -2.9962 0.9612
9.1580 -2.2906 -2.9980 0.9612
9.3268 -1.4666 -2.9984 0.9612
9.0538 2.6983 -3.0003 0.9611
8.7787 3.4938 -3.0007 0.9611
8.4338 4.2618 -3.0010 0.9611
8.0219 4.9961 -3.0013 0.9611
7.0103 6.3404 -3.0019 0.9611
6.4186 6.9398 -3.0021 0.9611
2.6634 8.5861 -2.8550 0.9630
-3.0016 8.9652 -3.0026 0.9611
-4.5430 8.2899 -3.0022 0.9611
-5.2624 7.8521 -3.0019 0.9611
-7.6688 5.5196 -3.0007 0.9611
-8.5239 4.0715 -3.0000 0.9611
-8.8514 3.2963 -2.9997 0.9611
-9.1085 2.4950 -2.9993 0.9611
-9.2932 1.6742 -2.9989 0.9611
-8.9235 -0.0000 -2.9981 0.9630
-8.8870 -0.7941 -2.9978 0.9630
-8.7800 -1.5818 -2.9974 0.9631
-8.6034 -2.3567 -2.9971 0.9631
-7.1465 -5.1437 -2.9584 0.9635
-5.5346 -6.8503 -2.9589 0.9635
-4.9039 -7.3171 -2.9594 0.9635
-2.7991 -8.3604 -2.9622 0.9635
-1.2736 -8.7323 -2.9649 0.9634
-0.4916 -8.8156 -2.9665 0.9634
0.2952 -8.8293 -2.9681 0.9634
1.0805 -8.7732 -2.9699 0.9634
0.6660 -3.0994 -1.0651 0.9867
1.3602 -2.1307 -0.8493 0.9894
1.5704 -2.0348 -0.8636 0.9892
7.9497 -4.0172 -2.9926 0.9631
8.2811 -3.2958 -2.9945 0.9631
8.9072 0.5963 -2.9994 0.9630
8.8198 1.3869 -2.9997 0.9630
8.4361 2.9293 -3.0004 0.9630
8.1428 3.6690 -3.0007 0.9630
6.8861 5.6915 -3.0016 0.9630
6.3527 6.2824 -3.0018 0.9630
4.2410 7.3456 -2.8498 0.9648
1.4135 8.3796 -2.8552 0.9648
0.6620 8.4725 -2.8553 0.9648
-2.3319 8.1552 -2.8498 0.9648
-3.9408 8.0193 -3.0021 0.9630
-5.2994 7.1924 -3.0016 0.9630
-7.0093 5.5352 -3.0008 0.9630
-7.4734 4.8889 -3.0005 0.9630
-7.8780 4.2038 -3.0001 0.9630
-8.7056 1.9724 -2.9991 0.9630
-8.8455 1.1896 -2.9987 0.9630
-8.9152 0.3975 -2.9983 0.9630
-8.8423 -1.1892 -2.9976 0.9631
-8.4894 -2.7375 -2.9969 0.9631
-8.2112 -3.4818 -2.9966 0.9631
-7.7917 -4.1578 -2.9673 0.9634
-6.3973 -6.0505 -2.9584 0.9635
-4.5736 -7.5291 -2.9598 0.9635
-0.8835 -8.7826 -2.9657 0.9634
0.6884 -8.8100 -2.9690 0.9634
0.9133 -2.5385 -0.9064 0.9887
1.0837 -2.3354 -0.8650 0.9892
1.4642 -2.0829 -0.8554 0.9893
1.6879 -1.9964 -0.8784 0.9890
1.9660 -1.9443 -0.9290 0.9884
7.7602 -4.3658 -2.9916 0.9631
8.1234 -3.6602 -2.9936 0.9631
8.4223 -2.9246 -2.9955 0.9631
8.8161 -1.3863 -2.9984 0.9630
8.9056 -0.5962 -2.9988 0.9630
8.9244 0.1989 -2.9992 0.9630
8.8723 0.9925 -2.9995 0.9630
8.5578 2.5505 -3.0002 0.9630
8.2977 3.3024 -3.0006 0.9630
6.6260 5.9929 -3.0017 0.9630
6.0668 6.5594 -3.0019 0.9630
5.4482 7.0594 -2.9961 0.9631
3.9097 7.5275 -2.8499 0.9648
3.2243 7.8458 -2.8500 0.9648
2.5175 8.1161 -2.8551 0.9648
1.0388 8.4344 -2.8552 0.9648
-0.4730 8.4829 -2.8545 0.9648
-1.9669 8.2535 -2.8507 0.9648
-2.8370 8.4737 -3.0023 0.9630
-3.5797 8.1871 -3.0022 0.9630
-4.2940 7.8355 -3.0020 0.9630
-4.9740 7.4217 -3.0017 0.9630
-5.6143 6.9489 -3.0015 0.9630
-6.7561 5.8423 -3.0009 0.9630
-7.6833 4.5508 -3.0003 0.9630
-8.0570 3.8485 -2.9999 0.9630
-8.8892 0.7943 -2.9985 0.9630
-8.3195 -1.4988 -2.9975 0.9648
-8.1522 -2.2331 -2.9972 0.9648
-7.9203 -2.9495 -2.9968 0.9648
-6.7744 -4.8759 -2.9596 0.9652
-5.8029 -6.0001 -2.9598 0.9652
-5.2464 -6.4935 -2.9601 0.9652
-4.6484 -6.9359 -2.9606 0.9652
-4.0136 -7.3239 -2.9613 0.9652
-2.6532 -7.9245 -2.9632 0.9652
-1.9381 -8.1324 -2.9644 0.9651
0.2798 -8.3679 -2.9688 0.9651
1.0066 -2.4493 -0.9390 0.9888
1.1832 -2.2780 -0.9102 0.9892
6.7284 -5.0741 -2.9882 0.9649
7.1580 -4.4581 -2.9901 0.9648
7.8449 -3.1222 -2.9939 0.9648
8.3569 1.3140 -2.9997 0.9647
8.2077 2.0529 -3.0000 0.9647
7.9933 2.7756 -3.0003 0.9647
7.3760 4.1496 -3.0009 0.9647
6.9780 4.7901 -3.0012 0.9647
5.4658 6.4649 -3.0019 0.9647
4.0182 6.9598 -2.8496 0.9665
2.8109 6.0573 -2.3678 0.9721
-0.0897 8.0491 -2.8543 0.9664
-3.0429 7.9007 -3.0021 0.9647
-4.3950 7.2351 -3.0017 0.9647
-5.0211 6.8147 -3.0015 0.9647
-6.1488 5.8154 -3.0010 0.9647
-6.6413 5.2446 -3.0007 0.9647
-7.0810 4.6322 -3.0004 0.9647
-7.7885 3.3026 -2.9997 0.9647
-8.0506 2.5960 -2.9994 0.9647
-8.2488 1.8689 -2.9990 0.9647
-8.3814 1.1272 -2.9987 0.9647
-8.4475 0.3767 -2.9983 0.9647
-8.4465 -0.3767 -2.9980 0.9648
-8.2441 -1.8679 -2.9973 0.9648
-6.5504 -5.1728 -2.9596 0.9652
-6.0642 -5.7354 -2.9597 0.9652
-4.9523 -6.7213 -2.9604 0.9652
-4.3353 -7.1369 -2.9610 0.9652
-3.6839 -7.4964 -2.9618 0.9652
-2.2979 -8.0364 -2.9638 0.9651
-0.8374 -8.3239 -2.9665 0.9651
-0.0932 -8.3697 -2.9680 0.9651
0.7510 -2.8667 -1.0508 0.9875
0.9199 -2.5570 -0.9636 0.9885
1.0907 -2.3505 -0.9188 0.9891
1.2743 -2.2072 -0.9037 0.9892
1.4736 -2.0962 -0.9086 0.9892
1.6998 -2.0106 -0.9336 0.9889
2.4548 -2.0290 -1.1293 0.9866
7.3519 -4.1361 -2.9911 0.9648
8.3525 -1.3134 -2.9981 0.9648
8.4383 -0.5649 -2.9988 0.9647
8.4560 0.1884 -2.9991 0.9647
8.2905 1.6851 -2.9998 0.9647
7.5531 3.8167 -3.0008 0.9647
6.2780 5.6781 -3.0015 0.9647
5.7481 6.2148 -3.0018 0.9647
5.1725 6.7022 -3.0020 0.9647
3.0588 7.4431 -2.8534 0.9664
0.9843 7.9919 -2.8552 0.9664
-0.4480 8.0352 -2.8536 0.9664
-4.0684 7.4239 -3.0018 0.9647
-5.3195 6.5840 -3.0013 0.9647
-5.8839 6.0839 -3.0011 0.9647
-6.4014 5.5355 -3.0008 0.9647
-7.2800 4.3119 -3.0002 0.9647
-7.6341 3.6465 -2.9999 0.9647
-7.9274 2.9522 -2.9995 0.9647
-8.1578 2.2346 -2.9992 0.9647
-7.9965 -0.7146 -2.9979 0.9663
-6.8342 -4.0479 -2.9660 0.9667
-6.4354 -4.6319 -2.9608 0.9667
-5.9976 -5.1863 -2.9608 0.9667
-3.8126 -6.9571 -2.9624 0.9667
-3.1791 -7.2709 -2.9632 0.9667
-1.8409 -7.7248 -2.9653 0.9667
-1.1466 -7.8613 -2.9666 0.9666
-0.4425 -7.9358 -2.9679 0.9666
1.0138 -2.4671 -0.9960 0.9887
1.5909 -2.0614 -0.9723 0.9889
1.8484 -1.9985 -1.0165 0.9884
2.2076 -1.9967 -1.1115 0.9874
6.3886 -4.8179 -2.9879 0.9664
7.1504 -3.6132 -2.9916 0.9664
7.4480 -2.9642 -2.9933 0.9664
7.6865 -2.2908 -2.9950 0.9663
7.9789 -0.8926 -2.9980 0.9663
8.0292 -0.1789 -2.9990 0.9663
8.0142 0.5365 -2.9993 0.9663
7.7937 1.9494 -2.9999 0.9663
7.5901 2.6356 -3.0002 0.9663
7.3261 3.3010 -3.0005 0.9663
7.0038 3.9403 -3.0008 0.9663
5.7154 5.6520 -3.0015 0.9663
5.1899 6.1387 -3.0017 0.9663
3.8154 6.6085 -2.8494 0.9679
2.8108 6.0572 -2.4935 0.9719
2.5866 7.1895 -2.8531 0.9679
1.9370 7.3935 -2.8540 0.9679
-0.0851 7.6404 -2.8532 0.9679
-1.4370 7.4969 -2.8504 0.9679
-4.7677 6.4708 -3.0013 0.9663
-5.8385 5.5221 -3.0008 0.9663
-6.3063 4.9800 -3.0006 0.9663
-6.7239 4.3985 -3.0003 0.9663
-7.0880 3.7823 -3.0000 0.9663
-7.3957 3.1361 -2.9997 0.9663
-7.8329 1.7747 -2.9990 0.9663
-8.0217 0.3577 -2.9984 0.9663
-7.9563 -1.0700 -2.9977 0.9663
-7.8286 -1.7737 -2.9974 0.9663
-7.0385 -3.7558 -2.9790 0.9665
-5.2533 -5.9400 -2.9611 0.9667
-4.7044 -6.3849 -2.9615 0.9667
-4.1183 -6.7796 -2.9620 0.9667
-3.4994 -7.1210 -2.9628 0.9667
-2.1828 -7.6336 -2.9647 0.9667
-1.4953 -7.8007 -2.9659 0.9667
0.6197 -7.9301 -2.9702 0.9666
1.3238 -7.8478 -2.9719 0.9666
0.7642 -2.9169 -1.1259 0.9872
0.9267 -2.5760 -1.0222 0.9884
1.0979 -2.3660 -0.9740 0.9889
1.2826 -2.2215 -0.9579 0.9891
1.4832 -2.1099 -0.9630 0.9890
1.7121 -2.0251 -0.9902 0.9887
2.0015 -1.9793 -1.0511 0.9881
2.5312 -2.0921 -1.2262 0.9861
6.5989 -4.5299 -2.9888 0.9664
6.9802 -3.9270 -2.9907 0.9664
7.3064 -3.2921 -2.9925 0.9664
7.7830 -1.9467 -2.9958 0.9663
8.0297 0.1789 -2.9991 0.9663
7.9828 0.8930 -2.9994 0.9663
7.8724 1.6001 -2.9998 0.9663
7.4655 2.9712 -3.0004 0.9663
7.1721 3.6242 -3.0007 0.9663
6.8217 4.2486 -3.0009 0.9663
6.4170 4.8393 -3.0012 0.9663
5.9612 5.3916 -3.0014 0.9663
3.5192 6.7755 -2.8510 0.9679
2.9037 7.0656 -2.8525 0.9679
-0.4253 7.6275 -2.8526 0.9679
-1.1020 7.5556 -2.8512 0.9679
-1.7690 7.4232 -2.8495 0.9679
-2.5523 7.6234 -3.0020 0.9663
-3.8631 7.0493 -3.0016 0.9663
-5.5870 5.7769 -3.0010 0.9663
-6.0785 5.2562 -3.0007 0.9663
-7.2490 3.4626 -2.9998 0.9663
-7.9037 1.4239 -2.9988 0.9663
-7.9982 0.7147 -2.9985 0.9663
-7.6082 -0.6799 -2.9979 0.9677
-7.5167 -1.3542 -2.9976 0.9677
-7.3656 -2.0176 -2.9973 0.9677
-6.8899 -3.2910 -2.9967 0.9677
-6.5071 -3.8542 -2.9682 0.9680
-5.7083 -4.9362 -2.9618 0.9681
-4.7434 -5.8710 -2.9623 0.9681
-4.2027 -6.2708 -2.9627 0.9681
-3.6287 -6.6214 -2.9634 0.9681
-3.0257 -6.9199 -2.9641 0.9681
-1.7520 -7.3517 -2.9661 0.9680
-1.0912 -7.4815 -2.9673 0.9680
-0.4211 -7.5522 -2.9686 0.9680
0.2529 -7.5634 -2.9701 0.9680
0.9255 -7.5147 -2.9716 0.9680
1.5916 -7.4065 -2.9732 0.9680
0.8587 -2.7682 -1.1375 0.9876
1.1988 -2.3080 -1.0207 0.9889
1.3867 -2.1723 -1.0115 0.9890
1.6016 -2.0752 -1.0288 0.9888
1.8645 -2.0159 -1.0777 0.9883
6.0778 -4.5835 -2.9876 0.9678
6.4655 -4.0267 -2.9894 0.9678
6.8021 -3.4373 -2.9911 0.9678
7.3117 -2.1791 -2.9944 0.9677
7.6382 -0.1702 -2.9985 0.9677
7.6249 0.5104 -2.9992 0.9677
7.5500 1.1872 -2.9996 0.9677
7.4151 1.8546 -2.9999 0.9677
6.9701 3.1406 -3.0004 0.9677
6.3039 4.3274 -3.0009 0.9677
5.8942 4.8717 -3.0012 0.9677
4.9377 5.8403 -3.0015 0.9677
4.3985 6.2569 -3.0017 0.9677
3.6302 6.2877 -2.8495 0.9693
2.8108 6.0572 -2.6208 0.9717
2.4601 6.8380 -2.8521 0.9693
1.8422 7.0317 -2.8529 0.9692
0.5663 7.2469 -2.8529 0.9692
-0.0810 7.2668 -2.8522 0.9693
-1.3669 7.1311 -2.8497 0.9693
-2.1028 7.3539 -3.0019 0.9677
-3.9703 6.5360 -3.0014 0.9677
-4.5360 6.1563 -3.0012 0.9677
-5.0655 5.7277 -3.0010 0.9677
-5.9999 4.7380 -3.0005 0.9677
-6.3971 4.1848 -3.0002 0.9677
-6.7436 3.5985 -2.9999 0.9677
-7.6321 0.3403 -2.9984 0.9677
-7.5700 -1.0180 -2.9977 0.9677
-6.7118 -3.5815 -2.9858 0.9678
-5.9225 -4.6770 -2.9618 0.9681
-5.4829 -5.1857 -2.9619 0.9681
-3.9196 -6.4525 -2.9630 0.9681
-3.3305 -6.7774 -2.9637 0.9681
-2.7148 -7.0489 -2.9646 0.9681
-2.0774 -7.2650 -2.9656 0.9681
1.2597 -7.4680 -2.9724 0.9680
0.9355 -2.6004 -1.0846 0.9882
1.1053 -2.3818 -1.0305 0.9888
1.4930 -2.1239 -1.0189 0.9889
2.0347 -2.0122 -1.1231 0.9878
6.2778 -4.3095 -2.9885 0.9678
6.6404 -3.7358 -2.9903 0.9678
7.2055 -2.5021 -2.9936 0.9678
7.6215 -0.5102 -2.9979 0.9677
7.5950 0.8496 -2.9994 0.9677
7.4900 1.5224 -2.9997 0.9677
6.1051 4.6041 -3.0010 0.9677
4.6727 6.0546 -3.0016 0.9677
3.3474 6.4448 -2.8502 0.9693
2.7618 6.7204 -2.8516 0.9693
2.1534 6.9419 -2.8526 0.9693
0.8886 7.2149 -2.8530 0.9692
-0.4045 7.2547 -2.8517 0.9693
-1.6873 7.0801 -2.8565 0.9692
-2.4282 7.2528 -3.0018 0.9677
-3.0640 7.0075 -3.0017 0.9677
-3.6753 6.7066 -3.0015 0.9677
-4.2574 6.3525 -3.0013 0.9677
-4.8056 5.9479 -3.0011 0.9677
-5.7831 5.0008 -3.0006 0.9677
-6.2047 4.4659 -3.0003 0.9677
-6.5769 3.8955 -3.0000 0.9677
-6.8969 3.2944 -2.9998 0.9677
-7.5199 1.3548 -2.9988 0.9677
-7.6098 0.6800 -2.9985 0.9677
-7.1644 -1.2907 -2.9976 0.9690
-7.0204 -1.9231 -2.9974 0.9690
-6.8207 -2.5401 -2.9971 0.9690
-6.5670 -3.1368 -2.9968 0.9690
-6.2059 -3.6758 -2.9701 0.9693
-5.8397 -4.2031 -2.9628 0.9694
-5.0022 -5.1722 -2.9629 0.9694
-4.5224 -5.5974 -2.9632 0.9694
-4.0069 -5.9787 -2.9637 0.9693
-3.4595 -6.3128 -2.9643 0.9693
-2.8846 -6.5973 -2.9650 0.9693
-2.2867 -6.8299 -2.9659 0.9693
-1.6703 -7.0087 -2.9669 0.9693
-1.0402 -7.1323 -2.9680 0.9693
0.2411 -7.2101 -2.9706 0.9693
0.8823 -7.1635 -2.9721 0.9693
1.5172 -7.0602 -2.9736 0.9692
0.8756 -2.8227 -1.2170 0.9873
1.2084 -2.3266 -1.0795 0.9887
2.3130 -2.0920 -1.2842 0.9866
6.4823 -3.2757 -2.9907 0.9691
6.7517 -2.6871 -2.9923 0.9691
6.9675 -2.0766 -2.9938 0.9690
7.2319 -0.8090 -2.9966 0.9690
7.1958 1.1315 -2.9995 0.9690
7.0672 1.7676 -2.9998 0.9690
6.6430 2.9932 -3.0003 0.9690
4.7059 5.5662 -3.0014 0.9690
3.4595 5.9921 -2.8491 0.9705
2.3440 6.5152 -2.8512 0.9705
1.7552 6.6995 -2.8518 0.9705
1.1520 6.8296 -2.8520 0.9705
0.5395 6.9045 -2.8518 0.9705
-2.6198 6.8022 -3.0016 0.9690
-3.7840 6.2293 -3.0013 0.9690
-5.2942 5.0071 -3.0006 0.9690
-5.7183 4.5157 -3.0004 0.9690
-6.0970 3.9885 -3.0001 0.9690
-6.4272 3.4297 -2.9998 0.9690
-6.7063 2.8437 -2.9996 0.9690
-7.1029 1.6093 -2.9990 0.9690
-7.2172 0.9706 -2.9987 0.9690
-7.2735 -0.3243 -2.9981 0.9690
-7.2151 -0.9703 -2.9978 0.9690
-3.7369 -6.1518 -2.9639 0.9693
-2.5883 -6.7203 -2.9654 0.9693
-1.9805 -6.9262 -2.9664 0.9693
-1.3566 -7.0775 -2.9674 0.9693
-0.7216 -7.1731 -2.9686 0.9693
-0.0803 -7.2120 -2.9699 0.9693
0.5622 -7.1939 -2.9714 0.9693
0.8099 -3.0913 -1.3159 0.9863
1.7467 -2.0660 -1.1140 0.9884
2.0748 -2.0519 -1.2016 0.9875
5.5904 -4.6205 -2.9865 0.9691
5.9828 -4.1070 -2.9882 0.9691
6.3282 -3.5602 -2.9899 0.9691
6.8664 -2.3843 -2.9931 0.9690
7.0548 -1.7645 -2.9945 0.9690
7.1872 -1.1301 -2.9959 0.9690
7.2623 -0.4862 -2.9972 0.9690
7.2795 0.1622 -2.9983 0.9690
7.1386 1.4510 -2.9997 0.9690
6.7695 2.6942 -3.0002 0.9690
5.4053 4.8888 -3.0011 0.9690
4.9490 5.3508 -3.0013 0.9690
3.1896 6.1410 -2.8495 0.9705
0.8466 6.8740 -2.8520 0.9705
0.2314 6.9211 -2.8516 0.9705
-0.3854 6.9123 -2.8508 0.9705
-0.9987 6.8479 -2.8497 0.9705
-1.6741 7.0249 -2.9737 0.9692
-2.9202 6.6786 -3.0015 0.9690
-3.5028 6.3918 -3.0014 0.9690
-4.0576 6.0543 -3.0012 0.9690
-5.9136 4.2563 -3.0002 0.9690
-6.2683 3.7128 -3.0000 0.9690
-6.8260 2.5421 -2.9994 0.9690
-7.1672 1.2912 -2.9988 0.9690
-7.2529 0.6481 -2.9985 0.9690
-6.9507 0.0000 -2.9982 0.9702
-6.8393 -1.2322 -2.9977 0.9702
-6.2692 -2.9945 -2.9969 0.9702
-5.9318 -3.5134 -2.9739 0.9704
-5.1969 -4.4940 -2.9637 0.9705
-4.7766 -4.9389 -2.9638 0.9705
-4.3184 -5.3450 -2.9641 0.9705
-3.8261 -5.7090 -2.9645 0.9705
-1.5949 -6.6923 -2.9676 0.9705
-0.9932 -6.8101 -2.9687 0.9705
-0.3833 -6.8743 -2.9699 0.9705
1.4485 -6.7407 -2.9740 0.9704
1.0512 -2.5578 -1.1929 0.9880
1.6386 -2.1233 -1.1569 0.9884
1.9239 -2.0802 -1.2222 0.9877
2.4046 -2.1748 -1.3986 0.9860
5.8814 -3.6630 -2.9888 0.9703
6.4443 -2.5648 -2.9919 0.9702
6.6502 -1.9820 -2.9933 0.9702
6.8033 -1.3828 -2.9947 0.9702
6.8692 1.0801 -2.9995 0.9702
6.3414 2.8573 -3.0003 0.9702
5.7352 3.9370 -3.0007 0.9702
4.4921 5.3133 -3.0013 0.9701
4.0016 5.6923 -3.0014 0.9701
3.4108 5.9077 -2.9426 0.9707
2.7805 5.9918 -2.8494 0.9716
2.2369 6.2176 -2.8503 0.9716
1.6750 6.3933 -2.8509 0.9716
-0.6612 6.5727 -2.8495 0.9716
-1.2776 6.6650 -2.9273 0.9709
-2.5008 6.4932 -3.0015 0.9701
-3.6121 5.9463 -3.0011 0.9701
-4.6086 5.2110 -3.0008 0.9702
-5.4587 4.3107 -3.0003 0.9702
-6.4019 2.7146 -2.9995 0.9702
-6.6175 2.1338 -2.9992 0.9702
-6.7805 1.5362 -2.9990 0.9702
-6.8897 0.9266 -2.9987 0.9702
-6.9442 0.3096 -2.9984 0.9702
-6.6132 -2.1325 -2.9973 0.9702
-6.3966 -2.7124 -2.9970 0.9702
-6.1246 -3.2682 -2.9945 0.9702
-5.3920 -4.2580 -2.9636 0.9705
-4.9917 -4.7211 -2.9637 0.9705
-3.0320 -6.1699 -2.9654 0.9705
-2.4715 -6.4169 -2.9662 0.9705
-1.8911 -6.6135 -2.9671 0.9705
-0.6890 -6.8490 -2.9693 0.9705
0.5367 -6.8686 -2.9719 0.9704
1.1465 -6.7968 -2.9733 0.9704
0.8589 -3.2783 -1.4618 0.9853
0.9659 -2.6847 -1.2307 0.9876
1.1329 -2.4413 -1.1609 0.9883
1.3179 -2.2827 -1.1370 0.9886
1.5254 -2.1700 -1.1442 0.9885
1.7738 -2.0981 -1.1851 0.9881
2.1172 -2.0938 -1.2844 0.9871
5.7108 -3.9203 -2.9880 0.9703
6.0403 -3.3982 -2.9896 0.9703
6.3221 -2.8486 -2.9911 0.9702
6.9312 -0.4640 -2.9965 0.9702
6.6648 1.9863 -2.9999 0.9702
6.4621 2.5718 -3.0001 0.9702
6.2081 3.1371 -3.0004 0.9702
5.9047 3.6775 -3.0006 0.9702
5.5543 4.1887 -3.0008 0.9701
4.7242 5.1078 -3.0012 0.9701
4.2511 5.5083 -3.0014 0.9701
3.7441 5.8651 -3.0015 0.9701
2.5113 6.1108 -2.8499 0.9716
1.3886 6.4619 -2.8510 0.9716
-0.3678 6.5967 -2.8499 0.9716
-0.9533 6.5359 -2.8492 0.9716
-1.6131 6.7690 -3.0016 0.9701
-2.2091 6.5983 -3.0015 0.9701
-3.8733 5.7793 -3.0011 0.9701
-4.3720 5.4113 -3.0009 0.9701
-5.9837 3.5442 -2.9999 0.9702
-6.7057 1.8369 -2.9991 0.9702
-6.9238 0.6187 -2.9985 0.9702
-6.6179 -0.5914 -2.9980 0.9713
-6.5384 -1.1779 -2.9977 0.9713
-6.4070 -1.7551 -2.9975 0.9713
-6.2249 -2.3182 -2.9972 0.9713
-5.9934 -2.8628 -2.9970 0.9713
-5.6798 -3.3641 -2.9786 0.9714
-5.3324 -3.8380 -2.9645 0.9716
-2.6339 -6.0238 -2.9665 0.9716
-1.5250 -6.3991 -2.9682 0.9715
-0.9497 -6.5117 -2.9693 0.9715
1.3849 -6.4448 -2.9744 0.9715
1.0680 -2.5988 -1.2678 0.9877
1.4352 -2.2482 -1.2035 0.9884
1.6621 -2.1537 -1.2275 0.9881
1.9558 -2.1146 -1.2997 0.9874
5.2853 -3.9858 -2.9869 0.9714
6.3565 -1.8944 -2.9928 0.9713
6.5027 -1.3217 -2.9941 0.9713
6.5972 -0.7380 -2.9953 0.9713
6.4493 1.6131 -2.9997 0.9712
6.2807 2.1809 -2.9999 0.9712
6.0621 2.7315 -3.0002 0.9712
5.7954 3.2605 -3.0004 0.9712
5.4826 3.7636 -3.0006 0.9712
4.7290 4.6766 -3.0010 0.9712
3.8253 5.4416 -3.0013 0.9712
3.3259 5.7607 -3.0014 0.9712
2.6578 5.7273 -2.8490 0.9727
2.1378 5.9422 -2.8494 0.9727
1.6007 6.1100 -2.8500 0.9727
1.0506 6.2286 -2.8501 0.9727
-0.6320 6.2824 -2.8491 0.9727
-1.8288 6.3956 -3.0014 0.9712
-2.3906 6.2072 -3.0013 0.9712
-2.9335 5.9695 -3.0012 0.9712
-3.9450 5.3542 -3.0009 0.9712
-4.4056 4.9815 -3.0007 0.9712
-5.5639 3.6397 -3.0000 0.9712
-5.8653 3.1298 -2.9997 0.9712
-6.1200 2.5951 -2.9995 0.9712
-6.5865 0.8858 -2.9987 0.9713
-6.6379 -0.2960 -2.9981 0.9713
-6.5847 -0.8855 -2.9979 0.9713
-6.3222 -2.0387 -2.9973 0.9713
-6.1152 -2.5931 -2.9971 0.9713
-5.5068 -3.6024 -2.9692 0.9715
-5.1561 -4.0717 -2.9645 0.9716
-4.7733 -4.5146 -2.9645 0.9716
-4.3528 -4.9218 -2.9647 0.9716
-3.8980 -5.2903 -2.9651 0.9716
-2.3632 -6.1360 -2.9669 0.9716
-1.8083 -6.3238 -2.9678 0.9715
-1.2386 -6.4618 -2.9688 0.9715
-0.6588 -6.5488 -2.9698 0.9715
1.0962 -6.4986 -2.9737 0.9715
1.6710 -6.3783 -2.9751 0.9715
1.3364 -2.3148 -1.2060 0.9883
1.5470 -2.2007 -1.2138 0.9883
2.1631 -2.1391 -1.3727 0.9867
5.1011 -4.2162 -2.9862 0.9714
5.4590 -3.7474 -2.9877 0.9714
6.0430 -2.7229 -2.9907 0.9713
6.6247 -0.4435 -2.9959 0.9713
6.6059 0.7390 -2.9993 0.9713
6.3713 1.8989 -2.9998 0.9712
6.1776 2.4586 -3.0001 0.9712
5.9347 2.9989 -3.0003 0.9712
5.3097 4.0042 -3.0007 0.9712
4.9325 4.4612 -3.0009 0.9712
4.0638 5.2656 -3.0012 0.9712
2.9946 5.7657 -2.9316 0.9719
2.4001 5.8403 -2.8491 0.9727
1.8712 6.0321 -2.8498 0.9727
1.3270 6.1755 -2.8501 0.9727
0.2110 6.3122 -2.8498 0.9727
-0.3516 6.3045 -2.8491 0.9727
-0.9354 6.4137 -2.9246 0.9720
-2.1118 6.3076 -3.0014 0.9712
-3.7027 5.5248 -3.0009 0.9712
-4.1795 5.1730 -3.0008 0.9712
-5.7203 3.3881 -2.9999 0.9712
-6.2293 2.3198 -2.9993 0.9713
-6.4105 1.7560 -2.9991 0.9713
-6.3607 0.0000 -2.9983 0.9723
-6.3349 -0.5661 -2.9980 0.9723
-6.2589 -1.1276 -2.9978 0.9723
-5.9588 -2.2191 -2.9973 0.9723
-5.4477 -3.2267 -2.9846 0.9724
-5.1069 -3.6757 -2.9660 0.9726
-3.9539 -4.8937 -2.9656 0.9726
-3.0245 -5.5190 -2.9665 0.9726
-1.9990 -5.9706 -2.9680 0.9725
-0.3509 -6.2929 -2.9709 0.9725
0.7711 -6.2606 -2.9734 0.9725
0.9807 -3.1613 -1.5602 0.9855
1.0856 -2.6417 -1.3463 0.9874
1.9972 -2.1594 -1.3865 0.9871
5.0589 -3.8151 -2.9868 0.9724
5.8956 -2.3464 -2.9911 0.9723
6.2235 -1.2650 -2.9936 0.9723
6.3539 -0.1416 -2.9958 0.9723
6.1734 1.5441 -2.9996 0.9723
6.0120 2.0876 -2.9999 0.9722
5.8028 2.6146 -3.0001 0.9722
5.5474 3.1209 -3.0003 0.9722
4.1104 4.8619 -3.0011 0.9722
3.6616 5.2086 -3.0012 0.9722
3.1835 5.5141 -3.0013 0.9722
0.4709 6.0259 -2.8491 0.9736
-0.0673 6.0436 -2.8490 0.9736
-0.6256 6.2190 -2.9463 0.9727
-1.1987 6.2535 -3.0014 0.9722
-2.2883 5.9415 -3.0012 0.9722
-3.3052 5.4411 -3.0009 0.9722
-5.6143 2.9959 -2.9997 0.9723
-5.8583 2.4841 -2.9994 0.9723
-6.0556 1.9527 -2.9992 0.9723
-6.2048 1.4058 -2.9989 0.9723
-6.3546 0.2833 -2.9984 0.9723
-6.3541 -0.2833 -2.9981 0.9723
-6.3031 -0.8477 -2.9979 0.9723
-6.2021 -1.4052 -2.9976 0.9723
-5.8538 -2.4822 -2.9972 0.9723
-5.2744 -3.4504 -2.9710 0.9725
-4.1677 -4.7125 -2.9655 0.9726
-3.7322 -5.0654 -2.9658 0.9726
-3.2670 -5.3782 -2.9663 0.9726
-2.7759 -5.6488 -2.9669 0.9726
-2.2627 -5.8749 -2.9676 0.9725
-1.7313 -6.0546 -2.9684 0.9725
-1.1859 -6.1867 -2.9693 0.9725
-0.6307 -6.2699 -2.9704 0.9725
1.0494 -6.2214 -2.9741 0.9725
1.0130 -2.8157 -1.4105 0.9869
1.1690 -2.5191 -1.3091 0.9878
1.3558 -2.3483 -1.2781 0.9881
1.8321 -2.1671 -1.3376 0.9875
4.8827 -4.0357 -2.9860 0.9724
5.9956 -2.0819 -2.9917 0.9723
6.3402 -0.4244 -2.9953 0.9723
6.3549 0.1416 -2.9963 0.9723
6.3233 0.7074 -2.9993 0.9723
6.2358 1.2675 -2.9995 0.9723
5.6807 2.8706 -3.0002 0.9722
5.0824 3.8329 -3.0006 0.9722
3.8899 5.0402 -3.0011 0.9722
2.3170 5.6381 -2.8733 0.9734
1.7906 5.7725 -2.8489 0.9736
1.2699 5.9096 -2.8492 0.9736
0.7389 5.9991 -2.8492 0.9736
-1.4761 6.1938 -3.0014 0.9722
-2.0214 6.0376 -3.0013 0.9722
-2.5507 5.8335 -3.0011 0.9722
-3.5442 5.2883 -3.0008 0.9722
-4.8145 4.1632 -3.0003 0.9722
-5.1656 3.7179 -3.0000 0.9722
-5.7420 2.7427 -2.9996 0.9723
-5.9628 2.2206 -2.9993 0.9723
-6.1363 1.6809 -2.9991 0.9723
-6.2610 1.1280 -2.9988 0.9723
-6.3360 0.5662 -2.9985 0.9723
-6.0959 0.0000 -2.9983 0.9732
-6.0712 -0.5425 -2.9980 0.9732
-5.9983 -1.0807 -2.9978 0.9732
-5.7108 -2.1267 -2.9973 0.9732
-5.4984 -2.6264 -2.9971 0.9732
-4.5613 -3.9443 -2.9660 0.9735
-3.7901 -4.6911 -2.9663 0.9735
-3.3580 -5.0105 -2.9667 0.9735
-2.8992 -5.2904 -2.9672 0.9735
-1.9161 -5.7232 -2.9686 0.9735
0.7391 -6.0007 -2.9738 0.9734
1.2708 -5.9137 -2.9751 0.9734
1.7929 -5.7797 -2.9764 0.9734
1.2795 -2.4634 -1.3653 0.9877
1.4777 -2.3148 -1.3507 0.9878
1.7168 -2.2245 -1.3821 0.9876
4.8480 -3.6561 -2.9866 0.9733
5.4245 -2.7411 -2.9894 0.9733
5.6495 -2.2485 -2.9907 0.9733
5.8296 -1.7374 -2.9920 0.9732
5.9635 -1.2121 -2.9931 0.9732
6.0882 -0.1357 -2.9953 0.9732
6.0240 0.9472 -2.9994 0.9732
5.7616 2.0006 -2.9998 0.9732
5.3163 2.9909 -3.0003 0.9732
5.0293 3.4524 -3.0005 0.9732
4.7024 3.8866 -3.0006 0.9732
3.5090 4.9916 -3.0011 0.9732
3.0509 5.2843 -3.0012 0.9732
0.9634 5.7114 -2.8489 0.9745
-0.0664 5.9626 -2.9329 0.9738
-3.6188 4.9115 -3.0007 0.9732
-4.0414 4.5696 -3.0005 0.9732
-4.4318 4.1915 -3.0003 0.9732
-4.7869 3.7802 -3.0001 0.9732
-5.3805 2.8711 -2.9996 0.9732
-6.0423 0.8126 -2.9987 0.9732
-6.0901 0.2716 -2.9984 0.9732
-6.0408 -0.8124 -2.9979 0.9732
-5.9440 -1.3467 -2.9977 0.9732
-4.3811 -4.1436 -2.9660 0.9735
-3.9952 -4.5174 -2.9662 0.9735
-3.1317 -5.1555 -2.9669 0.9735
-2.6609 -5.4148 -2.9675 0.9735
-2.1689 -5.6315 -2.9682 0.9735
-1.6595 -5.8037 -2.9690 0.9735
-1.1367 -5.9302 -2.9699 0.9734
-0.6046 -6.0098 -2.9709 0.9734
-0.0673 -6.0420 -2.9720 0.9734
1.5333 -5.8525 -2.9757 0.9734
1.0589 -2.9434 -1.5386 0.9862
1.1928 -2.5703 -1.3937 0.9874
1.3760 -2.3833 -1.3536 0.9878
1.5933 -2.2665 -1.3626 0.9877
1.8818 -2.2258 -1.4336 0.9871
4.6792 -3.8675 -2.9859 0.9733
5.2958 -2.9794 -2.9887 0.9733
5.5425 -2.4973 -2.9900 0.9733
5.7452 -1.9950 -2.9913 0.9733
6.0127 -0.9454 -2.9937 0.9732
6.0751 -0.4067 -2.9948 0.9732
5.9761 1.2147 -2.9995 0.9732
5.8447 1.7419 -2.9997 0.9732
5.4441 2.7510 -3.0002 0.9732
5.1780 3.2249 -3.0004 0.9732
4.8707 3.6732 -3.0006 0.9732
4.5247 4.0923 -3.0007 0.9732
4.1427 4.4791 -3.0009 0.9732
3.2832 5.1430 -3.0011 0.9732
2.3080 5.6162 -2.9865 0.9733
1.7384 5.6041 -2.8860 0.9742
1.2171 5.6639 -2.8494 0.9745
0.7092 5.7587 -2.8539 0.9745
0.1966 5.8803 -2.8939 0.9741
-0.8806 6.0382 -3.0013 0.9732
-1.9372 5.7861 -3.0012 0.9732
-2.4444 5.5904 -3.0010 0.9732
-3.3965 5.0680 -3.0008 0.9732
-4.2408 4.3850 -3.0004 0.9732
-5.7145 2.1281 -2.9993 0.9732
-6.0722 0.5426 -2.9985 0.9732
-5.8484 0.0000 -2.9983 0.9741
-5.7549 -1.0368 -2.9978 0.9741
-5.2753 -2.5198 -2.9972 0.9741
-4.7022 -3.3844 -2.9702 0.9743
-4.3771 -3.7850 -2.9666 0.9743
-4.0230 -4.1597 -2.9667 0.9743
-3.6371 -4.5016 -2.9670 0.9743
-3.2224 -4.8081 -2.9673 0.9743
-2.7821 -5.0766 -2.9678 0.9743
-1.3429 -5.6353 -2.9699 0.9743
-0.3227 -5.7879 -2.9719 0.9743
0.1938 -5.7957 -2.9730 0.9743
1.2193 -5.6741 -2.9754 0.9742
1.1564 -2.8139 -1.5597 0.9864
1.5164 -2.3754 -1.4448 0.9874
1.7753 -2.3003 -1.4897 0.9870
4.9469 -3.0810 -2.9878 0.9741
5.4195 -2.1569 -2.9904 0.9741
5.7205 -1.1627 -2.9927 0.9741
5.8034 -0.6492 -2.9938 0.9741
5.7794 0.9088 -2.9993 0.9740
5.3352 2.4039 -3.0000 0.9740
4.5113 3.7287 -3.0006 0.9740
4.1618 4.1157 -3.0007 0.9740
2.9269 5.0696 -3.0011 0.9740
2.4642 5.3101 -3.0012 0.9740
1.9818 5.5085 -3.0012 0.9740
0.9573 5.6751 -2.9506 0.9745
0.4527 5.7927 -2.9788 0.9742
-1.1021 5.7494 -3.0012 0.9740
-1.6094 5.6283 -3.0011 0.9740
-2.5816 5.2534 -3.0009 0.9740
-3.4718 4.7120 -3.0006 0.9740
-3.8772 4.3840 -3.0004 0.9740
-4.2517 4.0213 -3.0002 0.9740
-4.5925 3.6266 -3.0000 0.9740
-4.8967 3.2033 -2.9998 0.9740
-5.1620 2.7545 -2.9996 0.9740
-5.5677 1.7954 -2.9991 0.9740
-5.7050 1.2925 -2.9989 0.9740
-5.7969 0.7796 -2.9987 0.9741
-5.8428 0.2606 -2.9984 0.9741
-5.8424 -0.2605 -2.9982 0.9741
-5.7955 -0.7794 -2.9979 0.9741
-5.5647 -1.7944 -2.9975 0.9741
-4.5413 -3.5862 -2.9666 0.9743
-4.2042 -3.9763 -2.9667 0.9743
-3.8338 -4.3350 -2.9668 0.9743
-3.4331 -4.6594 -2.9671 0.9743
-3.0052 -4.9472 -2.9676 0.9743
-2.5534 -5.1960 -2.9681 0.9743
-2.0813 -5.4039 -2.9688 0.9743
-0.5801 -5.7667 -2.9714 0.9743
-0.0646 -5.7975 -2.9724 0.9743
0.4519 -5.7825 -2.9735 0.9743
1.4712 -5.6154 -2.9760 0.9742
1.9660 -5.4646 -2.9773 0.9742
1.4127 -2.4470 -1.4485 0.9874
1.6390 -2.3315 -1.4610 0.9873
1.9484 -2.3046 -1.5471 0.9865
4.8037 -3.2975 -2.9871 0.9741
5.0804 -2.8582 -2.9884 0.9741
5.7677 -0.9069 -2.9933 0.9741
5.8139 0.6504 -2.9992 0.9740
5.7334 1.1654 -2.9994 0.9740
5.6073 1.6712 -2.9997 0.9740
4.9676 3.0938 -3.0003 0.9740
4.6728 3.5239 -3.0005 0.9740
4.3408 3.9261 -3.0006 0.9740
3.9744 4.2971 -3.0008 0.9740
2.6982 5.1950 -3.0011 0.9740
2.2252 5.4147 -3.0012 0.9740
0.7058 5.7306 -2.9601 0.9744
0.1956 5.8510 -3.0013 0.9740
-0.3259 5.8451 -3.0013 0.9740
