ply
format ascii 1.0
element vertex 1587
property float32 x
property float32 y
property float32 z
property float32 I
end_header
-10.8627 -10.2739 -0.8708 0.9419
6.7011 -0.4486 -0.3912 0.9734
6.1960 0.4148 -0.4654 0.9754
-7.6956 -10.4445 -0.9722 0.9493
6.2940 0.1402 -0.4718 0.9751
6.4664 -0.1441 -0.5930 0.9744
6.7330 -0.4507 -0.6186 0.9733
6.1631 0.6894 -0.5685 0.9754
6.4793 -0.1444 -0.7030 0.9743
6.3493 1.5881 -0.7099 0.9740
-7.6956 -10.4445 -1.4072 0.9491
6.3162 0.1407 -0.6853 0.9749
6.1735 0.6906 -0.6738 0.9753
6.2280 1.2659 -0.6893 0.9748
6.5124 -0.1451 -0.8163 0.9741
-7.6956 -10.4446 -1.6258 0.9490
6.8215 -0.4566 -0.8568 0.9728
6.3406 0.1413 -0.7948 0.9748
6.6817 1.9913 -0.8737 0.9723
6.2709 0.4198 -0.8939 0.9749
6.3766 0.1421 -0.9072 0.9746
6.7679 2.0171 -1.0045 0.9719
6.3055 0.4221 -1.0063 0.9747
-7.6956 -10.4446 -2.0659 0.9488
6.4131 0.1429 -1.0215 0.9744
6.2602 0.7003 -1.0031 0.9748
6.3289 1.2864 -1.0284 0.9742
6.6902 -0.1491 -1.1800 0.9732
6.3567 0.4255 -1.1234 0.9745
6.5705 1.6434 -1.1942 0.9729
7.1491 -0.4786 -1.2634 0.9713
6.3902 1.2989 -1.1498 0.9739
7.2379 2.1571 -1.3317 0.9698
-9.2184 -11.4097 -2.8386 0.9420
-8.1315 -12.1330 -2.8265 0.9422
-5.8063 -13.2794 -2.8047 0.9427
-4.6498 -13.8883 -2.8343 0.9421
6.7896 -0.1513 -1.3142 0.9727
6.4247 0.4301 -1.2461 0.9741
6.6823 1.6714 -1.3330 0.9723
-9.7334 -11.0058 -2.8432 0.9419
-5.2014 -13.5050 -2.8006 0.9427
6.5497 0.1460 -1.2678 0.9737
6.3725 0.7129 -1.2409 0.9742
4.3565 14.0439 -2.8455 0.9419
3.0904 14.3814 -2.8466 0.9418
-14.2783 0.0000 -3.0101 0.9433
-14.2201 -1.2707 -3.0098 0.9433
-14.0488 -2.5310 -3.0094 0.9433
-13.3727 -4.9800 -3.0084 0.9433
-12.8737 -6.1492 -3.0077 0.9433
-10.9908 -7.9107 -2.8549 0.9461
-9.4188 -9.7390 -2.8563 0.9461
-8.5144 -10.5384 -2.8562 0.9461
-3.2332 -13.5669 -2.9403 0.9446
-0.7765 -13.9253 -2.9403 0.9446
0.4661 -13.9405 -2.9406 0.9446
1.7053 -13.8463 -2.9411 0.9446
4.1360 -13.3332 -2.9430 0.9445
7.5236 -11.7855 -2.9477 0.9444
8.5485 -11.0767 -2.9497 0.9444
10.3933 -9.4002 -2.9544 0.9443
11.1984 -8.4451 -2.9569 0.9443
12.5374 -6.3354 -2.9614 0.9442
13.0543 -5.1955 -2.9621 0.9442
13.4775 -4.0167 -2.9648 0.9441
14.0030 -1.5665 -2.9705 0.9440
6.9386 -0.1546 -1.4631 0.9720
6.8648 1.7170 -1.4918 0.9715
13.3791 4.6457 -2.9858 0.9437
10.0925 9.9807 -2.9924 0.9436
7.1040 12.3044 -2.9953 0.9436
3.4214 13.0592 -2.8461 0.9463
2.2462 13.3166 -2.8471 0.9463
1.0537 13.4850 -2.8516 0.9462
-0.1507 13.5304 -2.8526 0.9462
-1.3549 13.4686 -2.8538 0.9462
-2.5494 13.2998 -2.8549 0.9461
-3.7245 13.0252 -2.8560 0.9461
-7.0414 11.5917 -2.8593 0.9461
-12.5971 6.7220 -3.0102 0.9433
-13.9210 -3.1541 -3.0092 0.9433
-13.5826 -4.3798 -3.0087 0.9433
-13.1363 -5.5702 -3.0081 0.9433
-12.4070 -6.6205 -2.9647 0.9441
-11.3301 -7.4118 -2.8543 0.9462
-9.8425 -9.3090 -2.8561 0.9461
-8.9762 -10.1495 -2.8565 0.9461
-4.8328 -12.5480 -2.8348 0.9465
-2.6253 -13.6960 -2.9400 0.9446
-1.3960 -13.8767 -2.9403 0.9446
1.0867 -13.9071 -2.9408 0.9446
2.3207 -13.7584 -2.9415 0.9446
3.5373 -13.5016 -2.9425 0.9445
6.9889 -12.1052 -2.9468 0.9445
9.0368 -10.6888 -2.9508 0.9444
9.9601 -9.8497 -2.9531 0.9443
10.8063 -8.9317 -2.9556 0.9443
12.2401 -6.8864 -2.9608 0.9442
12.8091 -5.7713 -2.9618 0.9442
13.2789 -4.6110 -2.9634 0.9442
13.6495 -3.4140 -2.9662 0.9441
13.9126 -2.1876 -2.9691 0.9441
6.4388 0.7203 -1.3659 0.9739
13.5659 4.0430 -2.9843 0.9438
12.6566 6.3957 -2.9896 0.9437
12.0400 7.4986 -2.9903 0.9437
10.5255 9.5198 -2.9920 0.9436
7.6437 11.9737 -2.9948 0.9436
5.4034 13.1483 -2.9969 0.9435
2.8367 13.2010 -2.8466 0.9463
1.6531 13.4220 -2.8510 0.9462
0.4521 13.5209 -2.8521 0.9462
-0.7535 13.5129 -2.8532 0.9462
-1.9540 13.3975 -2.8543 0.9462
-5.4305 12.4198 -2.8577 0.9461
-6.5168 11.8917 -2.8588 0.9461
-8.5223 10.5481 -2.8589 0.9461
-9.4197 9.7399 -2.8566 0.9461
-10.7970 9.3366 -3.0092 0.9433
-11.5869 8.3397 -3.0097 0.9433
-12.2846 7.2762 -3.0100 0.9433
-12.8845 6.1544 -3.0103 0.9433
-13.3819 4.9835 -3.0104 0.9433
-14.2226 1.2709 -3.0104 0.9433
-13.1844 0.0000 -3.0093 0.9473
-13.1308 -1.1734 -3.0090 0.9473
-12.9727 -2.3371 -3.0086 0.9474
-12.7113 -3.4820 -3.0082 0.9474
-12.3488 -4.5987 -3.0076 0.9474
-11.3330 -6.7126 -3.0064 0.9474
-8.6907 -8.9861 -2.8533 0.9500
-7.8571 -9.7248 -2.8535 0.9500
-4.9991 -11.4332 -2.8481 0.9501
-4.1602 -12.4259 -2.9909 0.9477
0.4309 -12.8877 -2.9432 0.9485
2.7103 -12.6125 -2.9444 0.9484
3.8234 -12.3254 -2.9454 0.9484
4.9073 -11.9412 -2.9467 0.9484
6.9541 -10.8934 -2.9498 0.9484
7.9011 -10.2377 -2.9517 0.9483
10.3475 -7.8034 -2.9581 0.9482
11.0050 -6.8540 -2.9592 0.9482
11.5759 -5.8496 -2.9603 0.9482
12.0607 -4.8001 -2.9628 0.9481
6.6169 0.4430 -1.5136 0.9732
6.5735 1.0336 -1.5188 0.9731
12.3540 4.2898 -2.9849 0.9478
11.9341 5.3773 -2.9876 0.9477
6.5622 11.3660 -2.9956 0.9476
4.4458 12.3574 -2.9975 0.9475
3.1602 12.0623 -2.8461 0.9501
2.0747 12.2998 -2.8470 0.9501
-2.3547 12.2843 -2.8548 0.9500
-6.5029 10.7053 -2.8589 0.9499
-8.2888 9.3722 -2.8557 0.9500
-11.0323 7.2170 -3.0090 0.9473
-11.6320 6.2070 -3.0093 0.9473
-12.5495 4.0467 -3.0096 0.9473
-13.1718 0.5874 -3.0094 0.9473
-13.1708 -0.5873 -3.0091 0.9473
-13.0648 -1.7570 -3.0088 0.9474
-12.8548 -2.9125 -3.0084 0.9474
-12.1305 -5.1438 -3.0073 0.9474
-11.6221 -6.2017 -3.0067 0.9474
-10.9471 -7.1613 -2.9858 0.9477
-9.8082 -7.7454 -2.8525 0.9500
-9.0817 -8.5894 -2.8531 0.9500
-8.2822 -9.3649 -2.8535 0.9500
-6.4880 -10.6808 -2.8523 0.9500
-4.6288 -12.0184 -2.9395 0.9485
-2.4270 -12.6616 -2.9425 0.9485
1.0046 -12.8567 -2.9434 0.9485
4.3695 -12.1453 -2.9460 0.9484
6.4600 -11.1891 -2.9489 0.9484
8.3521 -9.8789 -2.9527 0.9483
9.2049 -9.1029 -2.9548 0.9483
9.9863 -8.2539 -2.9571 0.9482
11.3008 -6.3577 -2.9595 0.9482
12.6093 -3.1538 -2.9667 0.9481
12.8514 -2.0208 -2.9693 0.9480
6.7830 0.1512 -1.5486 0.9725
6.5518 0.7329 -1.5047 0.9733
6.7144 1.3648 -1.5639 0.9723
12.5270 3.7334 -2.9835 0.9478
11.6879 5.9061 -2.9889 0.9477
11.1232 6.9276 -2.9909 0.9477
8.9048 9.6278 -2.9933 0.9476
7.0609 11.0607 -2.9951 0.9476
6.0503 11.6489 -2.9960 0.9476
4.9911 12.1451 -2.9970 0.9476
1.5271 12.3993 -2.8515 0.9500
-0.6960 12.4816 -2.8533 0.9500
-1.8048 12.3747 -2.8543 0.9500
-2.9001 12.1694 -2.8554 0.9500
-3.9732 11.8673 -2.8564 0.9499
-6.9728 10.4041 -2.8587 0.9499
-9.9701 8.6215 -3.0084 0.9474
-11.3435 6.7188 -3.0091 0.9473
-11.8974 5.6829 -3.0094 0.9473
-12.7174 3.4837 -3.0096 0.9473
-12.9769 2.3379 -3.0096 0.9473
-10.5216 -6.2320 -3.0058 0.9509
-8.0634 -8.3375 -2.8510 0.9533
-7.2892 -9.0220 -2.8509 0.9533
-6.4563 -9.6334 -2.8505 0.9534
-3.8740 -11.5710 -2.9993 0.9510
0.4003 -11.9721 -2.9444 0.9519
1.4645 -11.8910 -2.9449 0.9518
3.5528 -11.4532 -2.9475 0.9518
4.5599 -11.0958 -2.9487 0.9518
6.4613 -10.1214 -2.9516 0.9517
8.1626 -8.8253 -2.9548 0.9517
8.9193 -8.0670 -2.9560 0.9517
9.6048 -7.2433 -2.9569 0.9517
11.2017 -4.4582 -2.9634 0.9516
11.8338 -2.4053 -2.9682 0.9515
6.7603 0.4525 -1.6654 0.9725
11.7674 2.9432 -2.9815 0.9513
11.4687 3.9824 -2.9841 0.9512
11.0781 4.9916 -2.9866 0.9512
10.5985 5.9626 -2.9891 0.9511
10.0335 6.8876 -2.9914 0.9511
8.6588 8.5628 -2.9933 0.9511
6.0939 10.5550 -2.9958 0.9510
5.1318 11.0587 -2.9967 0.9510
4.1284 11.4750 -2.9976 0.9510
2.9345 11.2008 -2.8461 0.9534
1.9265 11.4210 -2.8469 0.9534
0.9039 11.5678 -2.8520 0.9533
-2.1865 11.4066 -2.8548 0.9533
-4.1771 10.8455 -2.8567 0.9533
-5.1275 10.4341 -2.8576 0.9532
-6.0355 9.9358 -2.8575 0.9532
-6.8919 9.3537 -2.8558 0.9533
-8.8894 8.4075 -3.0075 0.9508
-9.6038 7.5840 -3.0079 0.9508
-10.2418 6.6999 -3.0082 0.9508
-11.6501 3.7567 -3.0088 0.9508
-11.9383 2.7049 -3.0088 0.9508
-12.2279 0.5453 -3.0086 0.9508
-12.2269 -0.5452 -3.0084 0.9508
-12.1287 -1.6311 -3.0081 0.9508
-11.9338 -2.7039 -3.0077 0.9508
-10.2324 -6.6937 -3.0055 0.9509
-9.5938 -7.5761 -3.0048 0.9509
-7.6837 -8.6881 -2.8509 0.9533
-6.8799 -9.3375 -2.8509 0.9533
-2.2554 -11.7662 -2.9448 0.9518
-1.1990 -11.9187 -2.9444 0.9519
0.9332 -11.9431 -2.9446 0.9519
8.5494 -8.4547 -2.9555 0.9517
9.2713 -7.6630 -2.9565 0.9517
9.9209 -6.8103 -2.9578 0.9516
10.9877 -4.9508 -2.9623 0.9516
11.3937 -3.9563 -2.9646 0.9515
11.9341 -1.8766 -2.9695 0.9515
12.0647 -0.8076 -2.9721 0.9514
6.9812 0.1556 -1.7164 0.9716
6.9557 1.4138 -1.7447 0.9712
10.8492 5.4824 -2.9879 0.9512
10.3264 6.4313 -2.9903 0.9511
9.0305 8.1675 -2.9929 0.9511
8.2698 8.9412 -2.9937 0.9511
7.4432 9.6444 -2.9945 0.9511
5.6185 10.8175 -2.9962 0.9510
4.6348 11.2781 -2.9971 0.9510
1.4160 11.4972 -2.8474 0.9534
0.3878 11.5983 -2.8525 0.9533
-2.6929 11.2998 -2.8553 0.9533
-3.6892 11.0190 -2.8562 0.9533
-4.6568 10.6504 -2.8572 0.9532
-7.2994 9.0345 -2.8549 0.9533
-8.5054 8.7945 -3.0073 0.9509
-9.2558 8.0038 -3.0077 0.9508
-10.5306 6.2373 -3.0084 0.9508
-11.0448 5.2757 -3.0086 0.9508
-11.4149 0.0000 -3.0078 0.9539
-11.0058 -3.0148 -3.0069 0.9539
-10.6922 -3.9818 -3.0064 0.9539
-10.2936 -4.9168 -3.0059 0.9539
-8.6234 -7.4570 -3.0040 0.9539
-6.9906 -8.6524 -2.9310 0.9550
-5.4049 -9.8626 -2.9635 0.9545
-0.6225 -11.1640 -2.9463 0.9548
0.3736 -11.1749 -2.9462 0.9548
1.3669 -11.0985 -2.9466 0.9548
2.3498 -10.9348 -2.9471 0.9548
4.2541 -10.3518 -2.9490 0.9548
7.6126 -8.2306 -2.9542 0.9547
8.3198 -7.5248 -2.9559 0.9547
8.9621 -6.7587 -2.9578 0.9546
10.0322 -5.0695 -2.9618 0.9546
10.7880 -3.2152 -2.9662 0.9545
6.9821 1.0979 -1.8624 0.9712
10.9751 2.7451 -2.9810 0.9543
10.6959 3.7140 -2.9835 0.9542
10.3311 4.6550 -2.9858 0.9542
9.8832 5.5602 -2.9881 0.9542
9.3559 6.4225 -2.9902 0.9541
8.0781 7.9886 -2.9936 0.9541
7.3368 8.6780 -2.9944 0.9541
6.5370 9.2990 -2.9951 0.9541
5.6849 9.8466 -2.9960 0.9541
4.7873 10.3163 -2.9968 0.9540
-2.0396 10.6402 -2.8547 0.9562
-2.9794 10.4197 -2.8556 0.9562
-3.8962 10.1164 -2.8565 0.9561
-5.6266 9.2626 -2.8557 0.9562
-6.4252 8.7203 -2.8542 0.9562
-7.5419 8.5278 -2.9998 0.9540
-8.9568 7.0731 -3.0073 0.9539
-9.5518 6.2485 -3.0076 0.9539
-10.0708 5.3740 -3.0078 0.9539
-10.5097 4.4565 -3.0080 0.9539
-10.8650 3.5035 -3.0081 0.9539
-11.3139 1.5216 -3.0080 0.9539
-11.4039 0.5085 -3.0079 0.9539
-11.3115 -1.5212 -3.0074 0.9539
-10.8598 -3.5018 -3.0066 0.9539
-10.0634 -5.3700 -3.0056 0.9539
-9.5436 -6.2431 -3.0050 0.9539
-8.2817 -7.8328 -3.0037 0.9539
-7.4800 -8.4577 -2.9751 0.9544
-4.0915 -10.6233 -2.9997 0.9540
-1.1192 -11.1255 -2.9464 0.9548
0.8711 -11.1477 -2.9464 0.9548
1.8601 -11.0275 -2.9468 0.9548
3.7878 -10.5283 -2.9483 0.9548
6.4438 -9.1658 -2.9523 0.9547
7.2363 -8.5592 -2.9534 0.9547
7.9739 -7.8856 -2.9550 0.9547
8.6494 -7.1489 -2.9568 0.9546
9.7930 -5.5094 -2.9608 0.9546
10.6301 -3.6912 -2.9651 0.9545
10.9247 -2.7324 -2.9673 0.9545
11.1337 -1.7507 -2.9698 0.9544
11.2548 -0.7534 -2.9723 0.9544
11.2867 0.2515 -2.9748 0.9544
11.0819 2.2525 -2.9798 0.9543
10.5240 4.1885 -2.9846 0.9542
10.1173 5.1125 -2.9870 0.9542
9.0636 6.8352 -2.9913 0.9541
8.4249 7.6199 -2.9933 0.9541
6.9439 8.9974 -2.9948 0.9541
6.1171 9.5823 -2.9955 0.9541
4.3236 10.5208 -2.9972 0.9540
3.1996 10.3146 -2.8457 0.9563
1.3208 10.7246 -2.8473 0.9563
-2.5119 10.5405 -2.8552 0.9562
-5.2097 9.5065 -2.8564 0.9561
-7.9325 8.2022 -3.0067 0.9539
-10.3005 4.9201 -3.0079 0.9539
-10.6980 3.9840 -3.0081 0.9539
-11.3702 1.0160 -3.0080 0.9539
-10.6451 -0.9512 -3.0070 0.9566
-10.3055 -2.8230 -3.0063 0.9566
-9.6388 -4.6041 -3.0054 0.9566
-8.6665 -6.2378 -3.0043 0.9566
-7.4200 -7.6722 -3.0030 0.9566
-6.7061 -8.3002 -3.0023 0.9566
-5.1256 -9.3531 -3.0008 0.9566
-2.4495 -10.2787 -2.9730 0.9570
-1.5123 -10.3691 -2.9483 0.9574
-0.5833 -10.4617 -2.9480 0.9574
2.2018 -10.2462 -2.9487 0.9574
3.9857 -9.6986 -2.9502 0.9574
5.6464 -8.8450 -2.9524 0.9573
7.1321 -7.7111 -2.9553 0.9573
7.7944 -7.0496 -2.9569 0.9573
8.3959 -6.3316 -2.9587 0.9572
8.9317 -5.5627 -2.9605 0.9572
9.3975 -4.7488 -2.9625 0.9572
9.7895 -3.8961 -2.9645 0.9572
10.1048 -3.0115 -2.9666 0.9571
10.3407 -2.1018 -2.9689 0.9571
10.5535 0.7065 -2.9759 0.9570
10.2771 2.5705 -2.9806 0.9569
9.2532 5.2058 -2.9872 0.9568
8.7591 6.0128 -2.9892 0.9568
8.2003 6.7777 -2.9933 0.9568
7.5662 7.4824 -2.9939 0.9567
6.1226 8.7094 -2.9954 0.9567
1.6849 9.9889 -2.8502 0.9588
-0.1130 10.1400 -2.8531 0.9587
-2.7903 9.7581 -2.8555 0.9587
-4.4761 9.1085 -2.8555 0.9587
-6.0143 8.1627 -2.8527 0.9587
-7.0777 8.0030 -3.0059 0.9566
-7.7631 7.3423 -3.0064 0.9566
-8.3868 6.6230 -3.0067 0.9566
-8.9438 5.8508 -3.0070 0.9566
-9.8408 4.1729 -3.0074 0.9566
-10.5937 1.4247 -3.0074 0.9566
-10.1689 -3.2790 -3.0061 0.9566
-9.8351 -4.1705 -3.0057 0.9566
-9.4233 -5.0284 -3.0052 0.9566
-7.7553 -7.3349 -3.0033 0.9566
-6.3289 -8.5897 -3.0019 0.9566
-5.5379 -9.1166 -3.0012 0.9566
-2.9302 -10.2477 -2.9988 0.9567
1.7430 -10.3332 -2.9484 0.9574
3.5491 -9.8650 -2.9498 0.9574
4.4145 -9.5131 -2.9507 0.9574
5.2457 -9.0858 -2.9518 0.9573
6.7797 -8.0191 -2.9545 0.9573
7.4705 -7.3878 -2.9561 0.9573
8.6723 -5.9532 -2.9596 0.9572
9.1736 -5.1610 -2.9615 0.9572
9.6030 -4.3269 -2.9635 0.9572
10.2328 -2.5594 -2.9678 0.9571
10.4281 -1.6397 -2.9701 0.9571
10.5409 -0.7056 -2.9724 0.9571
10.5157 1.1764 -2.9771 0.9570
10.3774 2.1093 -2.9794 0.9570
10.1563 3.0269 -2.9817 0.9569
9.8539 3.9218 -2.9840 0.9569
9.4726 4.7867 -2.9861 0.9569
7.8911 7.1371 -2.9936 0.9568
6.5037 8.4271 -2.9950 0.9567
5.7292 8.9747 -2.9957 0.9567
4.9089 9.4514 -2.9965 0.9567
2.9966 9.6601 -2.8457 0.9588
2.1255 9.8911 -2.8465 0.9588
-3.2226 9.6255 -2.8560 0.9587
-4.0667 9.3007 -2.8560 0.9587
-5.6462 8.4248 -2.8535 0.9587
-8.0830 6.9896 -3.0065 0.9566
-9.1960 5.4468 -3.0071 0.9566
-10.0171 3.7304 -3.0074 0.9566
-10.3095 2.8241 -3.0075 0.9566
-10.0431 0.0000 -3.0067 0.9589
-10.0025 -0.8938 -3.0065 0.9589
-9.8823 -1.7804 -3.0062 0.9589
-9.6835 -2.6526 -3.0059 0.9589
-9.4078 -3.5035 -3.0055 0.9589
-9.0573 -4.3263 -3.0050 0.9590
-6.9727 -7.2097 -3.0027 0.9590
-6.3019 -7.7999 -3.0021 0.9590
-4.8168 -8.7896 -3.0007 0.9590
-4.0144 -9.1811 -2.9999 0.9590
-2.3159 -9.7179 -2.9908 0.9591
-1.4242 -9.7651 -2.9544 0.9596
3.7474 -9.1187 -2.9515 0.9597
5.3086 -8.3157 -2.9536 0.9596
7.3274 -6.6272 -2.9578 0.9596
7.8925 -5.9520 -2.9594 0.9596
8.3959 -5.2290 -2.9612 0.9595
8.8334 -4.4637 -2.9630 0.9595
9.2018 -3.6622 -2.9650 0.9595
9.4979 -2.8307 -2.9671 0.9595
9.7192 -1.9755 -2.9692 0.9594
9.8637 -1.1034 -2.9714 0.9594
9.9301 -0.2213 -2.9736 0.9594
9.9177 0.6639 -2.9758 0.9593
9.4105 3.2677 -2.9823 0.9593
8.6939 4.8911 -2.9864 0.9592
8.2293 5.6491 -2.9883 0.9592
-1.7951 9.3647 -2.8547 0.9610
-3.4275 8.8992 -2.8550 0.9610
-4.2044 8.5558 -2.8540 0.9610
-4.9472 8.1442 -2.8528 0.9610
-5.8179 7.8961 -2.9363 0.9599
-7.8806 6.2232 -3.0062 0.9589
-8.4040 5.4976 -3.0065 0.9589
-9.5592 3.0825 -3.0069 0.9589
-10.0334 0.4474 -3.0068 0.9589
-9.9523 -1.3385 -3.0064 0.9589
-9.7927 -2.2187 -3.0060 0.9589
-9.5552 -3.0811 -3.0057 0.9589
-8.8548 -4.7251 -3.0048 0.9590
-7.8738 -6.2179 -3.0037 0.9590
-6.6438 -7.5123 -3.0024 0.9590
-3.6010 -9.3497 -2.9995 0.9590
-0.9862 -9.8031 -2.9497 0.9597
0.7675 -9.8225 -2.9496 0.9597
1.6389 -9.7161 -2.9499 0.9597
2.4976 -9.5331 -2.9503 0.9597
3.3370 -9.2753 -2.9511 0.9597
4.1505 -8.9441 -2.9520 0.9597
7.6174 -6.2959 -2.9586 0.9596
8.1522 -5.5961 -2.9603 0.9596
9.3591 -3.2498 -2.9660 0.9595
9.8011 -1.5412 -2.9703 0.9594
9.9338 0.2214 -2.9747 0.9594
9.7516 1.9821 -2.9791 0.9593
7.9828 6.0201 -2.9933 0.9591
6.7917 7.3431 -2.9945 0.9591
6.1126 7.9203 -2.9952 0.9591
5.3846 8.4348 -2.9959 0.9591
3.8056 9.2604 -2.9974 0.9591
2.8175 9.0827 -2.8470 0.9611
1.9987 9.3014 -2.8482 0.9611
-3.0281 9.0444 -2.8555 0.9610
-3.8198 8.7362 -2.8545 0.9610
-4.5804 8.3583 -2.8534 0.9610
-6.3086 7.8083 -3.0053 0.9590
-6.9796 7.2168 -3.0057 0.9589
-8.1504 5.8663 -3.0064 0.9589
-8.6408 5.1180 -3.0066 0.9589
-9.0626 4.3289 -3.0068 0.9589
-9.4123 3.5052 -3.0069 0.9589
-9.6871 2.6536 -3.0070 0.9589
-10.0037 0.8939 -3.0069 0.9589
-9.4660 0.0000 -3.0062 0.9611
-9.4277 -0.8425 -3.0060 0.9611
-9.3145 -1.6781 -3.0058 0.9611
-9.1272 -2.5002 -3.0054 0.9611
-8.5370 -4.0778 -3.0046 0.9611
-7.1527 -6.1851 -3.0031 0.9611
-5.9402 -7.3523 -3.0019 0.9611
-2.9981 -8.9550 -2.9991 0.9611
-2.1887 -9.1842 -2.9984 0.9612
0.3105 -9.2867 -2.9510 0.9618
1.9525 -9.0861 -2.9515 0.9617
5.0060 -7.8418 -2.9546 0.9617
8.3288 -4.2088 -2.9636 0.9616
8.6759 -3.4529 -2.9655 0.9616
9.2988 -1.0402 -2.9716 0.9615
9.3610 -0.2086 -2.9736 0.9615
9.2626 1.4565 -2.9778 0.9614
7.7650 5.3304 -2.9912 0.9612
7.2663 6.0058 -2.9939 0.9612
6.0888 7.2019 -2.9951 0.9612
3.1955 8.8820 -2.9978 0.9612
2.2714 8.6700 -2.8464 0.9631
1.4921 8.8458 -2.8490 0.9631
0.6994 8.9509 -2.8513 0.9630
-3.9616 8.0616 -2.8527 0.9630
-5.6120 7.6168 -3.0047 0.9611
-8.3513 4.4564 -3.0062 0.9611
-8.7152 3.6956 -3.0064 0.9610
-9.0098 2.9053 -3.0065 0.9610
-9.2327 2.0919 -3.0065 0.9610
-9.3821 1.2618 -3.0064 0.9610
-9.2300 -2.0913 -3.0056 0.9611
-9.0062 -2.9041 -3.0053 0.9611
-8.3463 -4.4537 -3.0044 0.9611
-7.4218 -5.8609 -3.0034 0.9611
-6.2625 -7.0812 -3.0022 0.9611
-3.3945 -8.8136 -2.9995 0.9611
3.9141 -8.4347 -2.9531 0.9617
4.6509 -8.0555 -2.9541 0.9617
5.3514 -7.6125 -2.9552 0.9617
6.6223 -6.5489 -2.9579 0.9617
7.1825 -5.9365 -2.9594 0.9616
7.6866 -5.2766 -2.9610 0.9616
8.1306 -4.5742 -2.9627 0.9616
8.5107 -3.8347 -2.9646 0.9616
8.8240 -3.0640 -2.9665 0.9616
9.0678 -2.2680 -2.9685 0.9615
9.2400 -1.4529 -2.9705 0.9615
9.3391 -0.6252 -2.9726 0.9615
9.3151 1.0421 -2.9768 0.9614
8.7266 3.4731 -2.9829 0.9613
6.4029 6.9228 -2.9948 0.9612
5.7626 7.4667 -2.9954 0.9612
4.3493 8.3739 -2.9967 0.9612
3.5876 8.7298 -2.9974 0.9612
1.0970 8.9074 -2.8502 0.9630
-2.8531 8.5218 -2.8541 0.9630
-4.3160 7.8757 -2.8521 0.9630
-5.9462 7.3598 -3.0049 0.9611
-7.1587 6.1904 -3.0056 0.9611
-7.6820 5.5292 -3.0059 0.9611
-8.5418 4.0801 -3.0063 0.9611
-8.8714 3.3038 -3.0064 0.9610
-9.3167 1.6785 -3.0065 0.9610
-9.4288 0.8426 -3.0064 0.9610
-8.9463 0.0000 -3.0058 0.9630
-8.9103 -0.7962 -3.0056 0.9630
-8.8033 -1.5860 -3.0054 0.9630
-8.0687 -3.8541 -3.0043 0.9630
-5.6146 -6.9493 -3.0017 0.9630
-4.9728 -7.4199 -3.0011 0.9630
-4.2917 -7.8314 -3.0004 0.9630
-3.5769 -8.1806 -2.9998 0.9630
-2.8340 -8.4646 -2.9991 0.9630
-1.2738 -8.7338 -2.9655 0.9634
0.2936 -8.7820 -2.9522 0.9636
1.0742 -8.7214 -2.9524 0.9636
2.6042 -8.3951 -2.9532 0.9636
3.3418 -8.1318 -2.9538 0.9636
4.0534 -7.8042 -2.9547 0.9636
5.3767 -6.9668 -2.9568 0.9635
6.5326 -5.9084 -2.9594 0.9635
7.0362 -5.3062 -2.9609 0.9635
7.4846 -4.6614 -2.9625 0.9635
7.8743 -3.9790 -2.9642 0.9635
8.4654 -2.5229 -2.9679 0.9634
8.8368 0.5916 -2.9756 0.9633
8.6032 2.1518 -2.9796 0.9633
7.3458 5.0426 -2.9936 0.9631
6.8690 5.6774 -2.9941 0.9631
5.1280 7.2947 -2.9959 0.9631
4.4593 7.7238 -2.9965 0.9631
3.7550 8.0918 -2.9972 0.9631
3.0205 8.3957 -2.9978 0.9630
0.6609 8.4576 -2.8503 0.9648
-0.8500 8.4492 -2.8531 0.9648
-1.5989 8.3412 -2.8535 0.9648
-2.3346 8.1648 -2.8532 0.9648
-4.5003 7.4085 -2.9124 0.9641
-5.3042 7.1989 -3.0043 0.9630
-7.4863 4.8973 -3.0056 0.9630
-8.5152 2.7458 -3.0060 0.9629
-8.8671 1.1925 -3.0060 0.9630
-8.9377 0.3985 -3.0059 0.9630
-8.8656 -1.1923 -3.0055 0.9630
-8.7235 -1.9765 -3.0052 0.9630
-7.0148 -5.5395 -3.0031 0.9630
-6.4927 -6.1407 -3.0026 0.9630
-5.9192 -6.6930 -3.0020 0.9630
-3.9382 -8.0140 -3.0001 0.9630
-3.2086 -8.3309 -2.9994 0.9630
-2.4538 -8.5815 -2.9988 0.9630
-1.6761 -8.7440 -2.9913 0.9631
-0.8812 -8.7593 -2.9578 0.9635
-0.0979 -8.7863 -2.9522 0.9636
2.2274 -8.5020 -2.9529 0.9636
6.7910 -5.6129 -2.9601 0.9635
7.2675 -4.9888 -2.9617 0.9635
7.6870 -4.3246 -2.9634 0.9635
8.3420 -2.8967 -2.9669 0.9634
8.5721 -2.1440 -2.9688 0.9634
8.7346 -1.3734 -2.9707 0.9634
8.8514 0.1973 -2.9747 0.9633
8.8046 0.9849 -2.9766 0.9633
8.6877 1.7658 -2.9786 0.9633
8.5015 2.5337 -2.9805 0.9633
7.9273 4.0059 -2.9842 0.9632
7.5437 4.6983 -2.9859 0.9632
5.4473 7.0583 -2.9956 0.9631
3.3912 8.2519 -2.9975 0.9631
2.6438 8.5229 -2.9982 0.9630
1.7803 8.2847 -2.8471 0.9649
-0.4727 8.4772 -2.8526 0.9648
-1.2257 8.4039 -2.8534 0.9648
-1.9688 8.2614 -2.8534 0.9648
-4.9779 7.4275 -3.0041 0.9630
-6.7659 5.8507 -3.0052 0.9630
-7.2604 5.2257 -3.0055 0.9630
-8.0729 3.8561 -3.0059 0.9630
-8.3844 3.1224 -3.0060 0.9630
-8.6292 2.3638 -3.0060 0.9629
-8.8052 1.5863 -3.0060 0.9629
-8.9113 0.7963 -3.0059 0.9630
-8.4759 0.0000 -3.0054 0.9647
-7.9402 -2.9570 -3.0044 0.9647
-6.8740 -4.9476 -3.0031 0.9647
-6.4052 -5.5388 -3.0026 0.9647
-5.3198 -6.5843 -3.0015 0.9647
-4.0664 -7.4203 -3.0003 0.9647
-2.6852 -8.0204 -2.9991 0.9647
-1.9603 -8.2258 -2.9984 0.9647
-1.2124 -8.3131 -2.9789 0.9650
-0.4642 -8.3246 -2.9564 0.9652
0.2783 -8.3244 -2.9534 0.9653
1.0182 -8.2670 -2.9535 0.9653
2.4685 -7.9576 -2.9543 0.9653
3.1676 -7.7079 -2.9549 0.9653
5.0962 -6.6033 -2.9577 0.9652
5.6660 -6.1260 -2.9589 0.9652
6.1915 -5.5999 -2.9602 0.9652
8.3843 -0.1868 -2.9737 0.9650
8.3729 0.5605 -2.9756 0.9650
8.1510 2.0387 -2.9793 0.9650
7.9420 2.7578 -2.9811 0.9649
7.3356 4.1270 -2.9845 0.9649
6.9610 4.7785 -2.9939 0.9648
6.0055 5.9390 -2.9949 0.9648
5.4541 6.4511 -2.9954 0.9648
4.8592 6.9123 -2.9960 0.9648
3.5580 7.6674 -2.9972 0.9648
1.3357 7.9184 -2.8474 0.9665
-0.0896 8.0391 -2.8507 0.9665
-0.8050 8.0023 -2.8518 0.9664
-1.5143 7.8999 -2.8522 0.9664
-2.2113 7.7332 -2.8520 0.9664
-4.3977 7.2397 -3.0036 0.9647
-5.6132 6.3469 -3.0044 0.9647
-6.1565 5.8228 -3.0047 0.9647
-6.6510 5.2522 -3.0050 0.9647
-7.0926 4.6398 -3.0053 0.9647
-8.2670 1.8730 -3.0056 0.9647
-8.4677 0.3776 -3.0055 0.9647
-8.3994 -1.1296 -3.0051 0.9647
-8.2648 -1.8725 -3.0049 0.9647
-8.0645 -2.6004 -3.0046 0.9647
-7.8001 -3.3075 -3.0042 0.9647
-7.0881 -4.6368 -3.0034 0.9647
-6.6462 -5.2484 -3.0029 0.9647
-6.1516 -5.8182 -3.0023 0.9647
-5.6083 -6.3414 -3.0018 0.9647
-5.0207 -6.8141 -3.0012 0.9647
-4.3934 -7.2325 -3.0006 0.9647
-1.5918 -8.3041 -2.9981 0.9648
-0.0928 -8.3285 -2.9534 0.9653
0.6489 -8.3039 -2.9534 0.9653
1.3855 -8.2138 -2.9536 0.9653
2.1114 -8.0589 -2.9540 0.9653
2.8208 -7.8405 -2.9546 0.9653
4.1684 -7.2199 -2.9561 0.9652
4.7961 -6.8225 -2.9571 0.9652
5.3864 -6.3710 -2.9582 0.9652
5.9345 -5.8688 -2.9595 0.9652
6.8877 -4.7281 -2.9623 0.9652
7.2851 -4.0985 -2.9639 0.9651
7.6252 -3.4358 -2.9656 0.9651
8.1232 -2.0317 -2.9691 0.9651
8.2768 -1.3015 -2.9709 0.9651
8.2312 1.6731 -2.9784 0.9650
8.0546 2.4005 -2.9802 0.9650
6.7418 5.0842 -2.9941 0.9648
6.2635 5.6650 -2.9946 0.9648
5.7355 6.2012 -2.9952 0.9648
5.1618 6.6883 -2.9957 0.9648
4.5469 7.1226 -2.9963 0.9648
3.2133 7.8191 -2.9975 0.9648
0.9819 7.9727 -2.8484 0.9665
0.2686 8.0332 -2.8500 0.9665
-0.4477 8.0289 -2.8513 0.9664
-1.1608 7.9592 -2.8521 0.9664
-1.8647 7.8245 -2.8522 0.9664
-2.5533 7.6262 -2.8517 0.9664
-4.7162 7.0371 -3.0038 0.9647
-5.3246 6.5903 -3.0042 0.9647
-5.8907 6.0910 -3.0046 0.9647
-6.4101 5.5430 -3.0049 0.9647
-6.8786 4.9510 -3.0052 0.9647
-7.2925 4.3193 -3.0054 0.9647
-7.6484 3.6533 -3.0055 0.9647
-8.3422 1.5029 -3.0056 0.9647
-8.0153 -0.7162 -3.0049 0.9662
-7.5392 -2.8076 -3.0041 0.9662
-6.9202 -4.0988 -3.0033 0.9662
-6.0819 -5.2592 -3.0024 0.9663
-5.0513 -6.2521 -3.0014 0.9663
-3.8613 -7.0460 -3.0002 0.9663
-2.5499 -7.6160 -2.9991 0.9663
-1.8615 -7.8112 -2.9985 0.9663
-0.4414 -7.9168 -2.9608 0.9667
0.2644 -7.9075 -2.9544 0.9668
2.3448 -7.5590 -2.9553 0.9668
3.0089 -7.3217 -2.9559 0.9668
3.6495 -7.0266 -2.9566 0.9668
4.2617 -6.6759 -2.9575 0.9667
5.8808 -5.3188 -2.9609 0.9667
7.3820 -2.9380 -2.9668 0.9666
7.6185 -2.2705 -2.9685 0.9666
7.7949 -1.5844 -2.9702 0.9666
7.9507 0.5323 -2.9755 0.9665
7.8764 1.2385 -2.9773 0.9665
7.2818 3.2810 -2.9824 0.9665
6.9676 3.9199 -2.9853 0.9664
6.6106 4.5379 -2.9941 0.9663
6.1814 5.1091 -2.9946 0.9663
5.1794 6.1262 -2.9956 0.9663
3.3788 7.2810 -2.9973 0.9663
2.7178 7.5544 -2.9979 0.9663
2.0351 7.7678 -2.9985 0.9663
1.2680 7.5172 -2.8467 0.9680
-0.7641 7.5956 -2.8506 0.9679
-1.4373 7.4985 -2.8510 0.9679
-2.0989 7.3404 -2.8509 0.9679
-2.7434 7.1231 -2.8503 0.9679
-4.1757 6.8742 -3.0034 0.9662
-5.3297 6.0264 -3.0041 0.9662
-6.3150 4.9869 -3.0047 0.9662
-6.7343 4.4054 -3.0049 0.9662
-7.1001 3.7887 -3.0051 0.9662
-7.9763 1.0727 -3.0052 0.9662
-8.0398 0.3585 -3.0052 0.9662
-8.0395 -0.3585 -3.0050 0.9662
-7.6572 -2.4691 -3.0043 0.9662
-7.4062 -3.1405 -3.0039 0.9662
-7.0964 -3.7867 -3.0035 0.9662
-6.3107 -4.9835 -3.0026 0.9662
-5.3253 -6.0214 -3.0016 0.9663
-4.7674 -6.4703 -3.0011 0.9663
-4.1718 -6.8676 -3.0005 0.9663
-3.5433 -7.2103 -2.9999 0.9663
-2.8869 -7.4956 -2.9994 0.9663
-2.2078 -7.7212 -2.9988 0.9663
-0.7959 -7.9118 -2.9693 0.9666
-0.0881 -7.9127 -2.9549 0.9668
1.3161 -7.8025 -2.9547 0.9668
2.0056 -7.6553 -2.9550 0.9668
3.9595 -6.8580 -2.9570 0.9668
5.1162 -6.0515 -2.9590 0.9667
5.6367 -5.5743 -2.9602 0.9667
6.1132 -5.0527 -2.9615 0.9667
6.5418 -4.4907 -2.9629 0.9667
7.2418 -3.2630 -2.9660 0.9667
7.9435 -0.5317 -2.9728 0.9666
7.9641 0.1775 -2.9746 0.9666
6.8057 4.2386 -2.9939 0.9663
5.9482 5.3798 -2.9948 0.9663
4.3178 6.7638 -2.9964 0.9663
3.6994 7.1226 -2.9970 0.9663
3.0514 7.4251 -2.9976 0.9663
1.6299 7.5850 -2.8970 0.9674
0.2550 7.6254 -2.8490 0.9679
-0.4249 7.6210 -2.8502 0.9679
-3.0577 6.9933 -2.8501 0.9679
-3.8650 7.0528 -3.0031 0.9662
-4.4781 6.6818 -3.0036 0.9662
-5.0557 6.2575 -3.0039 0.9662
-5.5932 5.7833 -3.0043 0.9662
-6.0863 5.2630 -3.0046 0.9662
-6.5311 4.7008 -3.0048 0.9662
-7.2619 3.4688 -3.0052 0.9662
-8.0160 0.7163 -3.0052 0.9662
-7.6252 -0.6814 -3.0046 0.9676
-7.5338 -1.3573 -3.0044 0.9676
-6.9054 -3.2984 -3.0035 0.9677
-6.5836 -3.8995 -3.0031 0.9677
-6.2095 -4.4693 -3.0027 0.9677
-5.7862 -5.0035 -3.0022 0.9677
-5.3170 -5.4978 -3.0017 0.9677
-2.4260 -7.2461 -2.9990 0.9677
-1.1024 -7.5585 -2.9979 0.9677
1.5822 -7.3631 -2.9558 0.9682
2.2316 -7.1941 -2.9562 0.9682
2.8636 -6.9682 -2.9568 0.9681
5.1216 -5.5374 -2.9603 0.9681
6.4109 -3.9928 -2.9642 0.9681
6.7442 -3.4080 -2.9657 0.9681
7.0244 -2.7956 -2.9672 0.9680
7.2492 -2.1605 -2.9688 0.9680
7.5644 0.5064 -2.9754 0.9679
7.4935 1.1783 -2.9771 0.9679
7.1738 2.4910 -2.9804 0.9679
6.9273 3.1213 -2.9820 0.9679
5.4264 5.3663 -2.9952 0.9677
4.9281 5.8290 -2.9957 0.9677
4.3905 6.2456 -2.9963 0.9677
3.8179 6.6127 -2.9968 0.9677
3.2147 6.9276 -2.9974 0.9677
0.5652 7.2329 -2.8474 0.9693
-0.7267 7.2239 -2.8495 0.9693
-1.3670 7.1316 -2.8499 0.9693
-2.6096 6.7757 -2.8497 0.9693
-5.0704 5.7332 -3.0038 0.9676
-5.5611 5.2597 -3.0041 0.9676
-6.0077 4.7442 -3.0044 0.9676
-6.4066 4.1910 -3.0046 0.9676
-6.7545 3.6044 -3.0048 0.9676
-7.0488 2.9890 -3.0049 0.9676
-7.2870 2.3498 -3.0049 0.9676
-7.5881 1.0205 -3.0049 0.9676
-7.2846 -2.3490 -3.0040 0.9676
-7.0459 -2.9877 -3.0037 0.9676
-6.7512 -3.6025 -3.0033 0.9677
-5.5571 -5.2559 -3.0020 0.9677
-4.5356 -6.1558 -3.0010 0.9677
-3.9690 -6.5339 -3.0004 0.9677
-2.7466 -7.1315 -2.9993 0.9677
-2.1006 -7.3463 -2.9987 0.9677
-0.7607 -7.5617 -2.9827 0.9679
0.5866 -7.5074 -2.9554 0.9682
1.2526 -7.4259 -2.9556 0.9682
1.9088 -7.2858 -2.9560 0.9682
2.5501 -7.0882 -2.9565 0.9681
3.7683 -6.5268 -2.9579 0.9681
4.3355 -6.1674 -2.9588 0.9681
5.3642 -5.3048 -2.9609 0.9681
5.8175 -4.8083 -2.9622 0.9681
6.2252 -4.2734 -2.9635 0.9681
6.5840 -3.7041 -2.9649 0.9681
7.1438 -2.4806 -2.9680 0.9680
7.3403 -1.8359 -2.9696 0.9680
7.4787 -1.1760 -2.9712 0.9680
7.5364 0.8431 -2.9763 0.9679
6.4757 4.0331 -2.9941 0.9677
6.0919 4.5941 -2.9945 0.9677
4.6639 6.0433 -2.9960 0.9677
4.1083 6.4355 -2.9965 0.9677
1.6052 7.4702 -2.9988 0.9677
0.8867 7.1994 -2.8469 0.9693
0.2425 7.2526 -2.8480 0.9693
-0.4042 7.2482 -2.8491 0.9693
-1.0479 7.1850 -2.8498 0.9693
-2.3051 6.8851 -2.8496 0.9693
-2.9912 6.8411 -2.9304 0.9684
-6.2133 4.4721 -3.0045 0.9676
-6.9085 3.3000 -3.0048 0.9676
-7.3845 2.0228 -3.0050 0.9676
-7.6259 0.6814 -3.0049 0.9676
-7.1798 -1.2935 -3.0041 0.9689
-7.0356 -1.9272 -3.0039 0.9689
-6.5811 -3.1435 -3.0032 0.9689
-5.5146 -4.7686 -3.0020 0.9690
-4.5802 -5.6690 -3.0011 0.9690
-3.5013 -6.3891 -3.0001 0.9690
-2.3122 -6.9062 -2.9990 0.9690
-1.0507 -7.2042 -2.9979 0.9690
-0.4020 -7.2101 -2.9736 0.9692
1.5085 -7.0199 -2.9566 0.9694
3.3113 -6.3754 -2.9582 0.9694
5.7457 -4.3330 -2.9633 0.9693
6.6957 -2.6648 -2.9675 0.9693
7.0694 -1.4369 -2.9706 0.9693
7.1731 -0.8024 -2.9722 0.9693
7.2095 0.4826 -2.9754 0.9692
7.1418 1.1230 -2.9770 0.9692
7.0172 1.7551 -2.9786 0.9692
6.6016 2.9746 -2.9816 0.9692
4.6972 5.5559 -2.9959 0.9690
4.1847 5.9529 -2.9964 0.9690
3.6389 6.3028 -2.9969 0.9690
3.0640 6.6029 -2.9974 0.9690
1.8455 7.0440 -2.9985 0.9690
1.2114 7.1816 -2.9990 0.9690
0.5437 6.9584 -2.8741 0.9703
-0.0771 6.9151 -2.8477 0.9705
-0.6924 6.8827 -2.8485 0.9705
-1.9022 6.6523 -2.8491 0.9705
-2.5777 6.6929 -2.9533 0.9695
-3.2158 6.5440 -3.0025 0.9690
-4.8323 5.4639 -3.0036 0.9689
-5.7255 4.5214 -3.0041 0.9689
-6.4372 3.4350 -3.0045 0.9689
-6.7176 2.8485 -3.0046 0.9689
-7.2315 0.9725 -3.0046 0.9689
-7.2892 0.3250 -3.0045 0.9689
-7.2889 -0.3250 -3.0044 0.9689
-6.9425 -2.2387 -3.0037 0.9689
-6.7150 -2.8474 -3.0034 0.9689
-6.4341 -3.4333 -3.0031 0.9689
-6.1022 -3.9919 -3.0027 0.9689
-5.7219 -4.5185 -3.0023 0.9690
-4.8286 -5.4598 -3.0013 0.9690
-4.3228 -5.8669 -3.0009 0.9690
-3.2130 -6.5382 -2.9998 0.9690
-2.6178 -6.7970 -2.9993 0.9690
-2.0021 -7.0017 -2.9987 0.9690
1.8198 -6.9461 -2.9568 0.9694
3.0236 -6.5158 -2.9579 0.9694
4.1332 -5.8796 -2.9595 0.9694
4.6417 -5.4902 -2.9605 0.9694
5.5458 -4.5837 -2.9627 0.9694
5.9343 -4.0737 -2.9640 0.9693
6.8095 -2.3645 -2.9683 0.9693
6.9965 -1.7500 -2.9698 0.9693
7.1283 -1.1208 -2.9714 0.9693
7.2036 -0.4822 -2.9730 0.9693
7.2219 0.1609 -2.9746 0.9692
6.9339 2.0665 -2.9793 0.9692
6.7259 2.6768 -2.9809 0.9692
5.3945 4.8791 -2.9952 0.9690
4.9396 5.3407 -2.9956 0.9690
4.4454 5.7601 -2.9961 0.9690
3.9158 6.1339 -2.9966 0.9690
2.7671 6.7334 -2.9977 0.9690
0.2311 6.9109 -2.8474 0.9705
-1.6038 6.7300 -2.8489 0.9705
-5.0711 5.2435 -3.0037 0.9689
-5.5182 4.7717 -3.0040 0.9689
-5.9214 4.2620 -3.0042 0.9689
-7.0375 1.9278 -3.0047 0.9689
-7.1811 1.2937 -3.0046 0.9689
-7.2676 0.6494 -3.0046 0.9689
-6.8534 -1.2347 -3.0039 0.9701
-6.5248 -2.4299 -3.0033 0.9701
-6.2820 -3.0006 -3.0030 0.9701
-5.9893 -3.5474 -3.0027 0.9701
-5.6490 -4.0659 -3.0023 0.9701
-5.2640 -4.5520 -3.0019 0.9701
-4.8372 -5.0017 -3.0014 0.9701
-4.3722 -5.4115 -3.0010 0.9701
-3.8726 -5.7783 -3.0005 0.9702
-3.3424 -6.0990 -3.0000 0.9702
-2.7858 -6.3712 -2.9995 0.9702
-2.2073 -6.5927 -2.9990 0.9702
-1.0030 -6.8772 -2.9979 0.9702
0.8380 -6.8041 -2.9572 0.9706
3.6920 -5.7834 -2.9597 0.9706
4.1933 -5.4335 -2.9606 0.9705
4.6618 -5.0403 -2.9616 0.9705
5.0938 -4.6071 -2.9627 0.9705
5.4858 -4.1371 -2.9638 0.9705
5.8348 -3.6339 -2.9651 0.9705
6.5968 -1.9661 -2.9693 0.9705
6.7490 -1.3718 -2.9707 0.9704
6.8478 -0.7660 -2.9723 0.9704
6.8923 -0.1536 -2.9738 0.9704
6.8822 0.4607 -2.9753 0.9704
6.8174 1.0720 -2.9769 0.9704
6.5258 2.2660 -2.9798 0.9704
6.0499 3.4037 -2.9943 0.9702
5.7237 3.9291 -2.9947 0.9702
4.9377 4.8830 -2.9955 0.9702
3.4739 6.0169 -2.9970 0.9702
2.3528 6.5398 -2.9980 0.9702
1.7617 6.7243 -2.9985 0.9702
-0.0748 6.7127 -2.8957 0.9712
-1.8720 6.5468 -2.9372 0.9708
-2.5012 6.4942 -3.0019 0.9701
-3.0697 6.2467 -3.0023 0.9701
-4.1296 5.6048 -3.0031 0.9701
-4.6126 5.2156 -3.0034 0.9701
-5.0589 4.7847 -3.0036 0.9701
-5.4652 4.3158 -3.0039 0.9701
-5.8280 3.8125 -3.0041 0.9701
-6.1445 3.2788 -3.0042 0.9701
-6.6288 2.1375 -3.0044 0.9701
-6.7928 1.5390 -3.0044 0.9701
-6.9027 0.9283 -3.0043 0.9701
-6.9577 0.3103 -3.0043 0.9701
-6.9575 -0.3102 -3.0041 0.9701
-6.9018 -0.9282 -3.0040 0.9701
-6.7914 -1.5387 -3.0037 0.9701
-6.1417 -3.2773 -3.0029 0.9701
-5.8249 -3.8105 -3.0025 0.9701
-5.0556 -4.7816 -3.0017 0.9701
-1.9112 -6.6839 -2.9987 0.9702
-0.6956 -6.9145 -2.9977 0.9702
0.5342 -6.8368 -2.9581 0.9706
1.1403 -6.7603 -2.9573 0.9706
1.7377 -6.6327 -2.9576 0.9706
3.4302 -5.9414 -2.9593 0.9706
3.9465 -5.6140 -2.9601 0.9705
4.4319 -5.2421 -2.9611 0.9705
4.8826 -4.8285 -2.9621 0.9705
6.2713 -2.8257 -2.9671 0.9705
6.5011 -2.2574 -2.9685 0.9705
6.6795 -1.6706 -2.9700 0.9705
6.8769 -0.4603 -2.9730 0.9704
6.8941 0.1536 -2.9746 0.9704
6.8566 0.7670 -2.9761 0.9704
6.7646 1.3750 -2.9776 0.9704
6.6187 1.9726 -2.9791 0.9704
6.1952 3.1306 -2.9942 0.9702
5.8927 3.6700 -2.9945 0.9702
5.5433 4.1804 -2.9949 0.9702
5.1500 4.6579 -2.9953 0.9702
4.2438 5.4989 -2.9962 0.9702
3.7382 5.8557 -2.9967 0.9702
2.0593 6.6386 -2.9982 0.9702
1.4605 6.7968 -2.9988 0.9702
0.2276 6.8084 -2.9385 0.9708
-0.3702 6.6383 -2.8679 0.9715
-2.2062 6.5895 -2.9975 0.9702
-3.3452 6.1041 -3.0025 0.9701
-5.2673 4.5548 -3.0038 0.9701
-5.6522 4.0682 -3.0040 0.9701
-5.9922 3.5492 -3.0041 0.9701
-6.5270 2.4307 -3.0043 0.9701
-6.6575 0.0000 -3.0040 0.9712
-6.6307 -0.5925 -3.0038 0.9712
-6.4197 -1.7585 -3.0034 0.9712
-6.2372 -2.3228 -3.0031 0.9712
-5.4001 -3.8867 -3.0021 0.9712
-4.6241 -4.7813 -3.0013 0.9712
-4.1796 -5.1732 -3.0009 0.9712
-3.7020 -5.5238 -3.0004 0.9712
-0.3696 -6.6280 -2.9953 0.9713
0.8013 -6.5063 -2.9579 0.9716
1.3773 -6.4096 -2.9582 0.9716
3.5303 -5.5301 -2.9604 0.9716
5.8683 -2.9654 -2.9668 0.9716
6.3069 -1.8796 -2.9695 0.9715
6.5466 -0.7323 -2.9723 0.9715
6.4031 1.6015 -2.9782 0.9715
6.2381 2.1661 -2.9796 0.9714
6.0403 2.7217 -2.9894 0.9713
5.1167 4.2291 -2.9953 0.9713
4.2870 5.0707 -2.9961 0.9713
3.3211 5.7523 -2.9970 0.9713
2.7963 6.0260 -2.9975 0.9713
1.6842 6.4284 -2.9985 0.9713
1.1055 6.5539 -2.9990 0.9713
0.5179 6.6274 -2.9995 0.9712
-1.2469 6.5047 -2.9885 0.9714
-1.8287 6.3954 -3.0013 0.9712
-2.9344 5.9714 -3.0022 0.9712
-3.4547 5.6872 -3.0025 0.9712
-4.8359 4.5738 -3.0034 0.9712
-5.2242 4.1255 -3.0036 0.9712
-5.8735 3.1342 -3.0040 0.9712
-6.1294 2.5991 -3.0041 0.9712
-6.3365 2.0433 -3.0041 0.9712
-6.5984 0.8874 -3.0041 0.9712
-6.6510 0.2966 -3.0040 0.9712
-6.6507 -0.2965 -3.0039 0.9712
-6.5975 -0.8873 -3.0037 0.9712
-6.3347 -2.0427 -3.0033 0.9712
-5.8710 -3.1329 -3.0027 0.9712
-2.9320 -5.9665 -2.9997 0.9712
-1.8271 -6.3898 -2.9987 0.9713
-0.6650 -6.6103 -2.9977 0.9713
0.5114 -6.5451 -2.9623 0.9716
1.0904 -6.4643 -2.9580 0.9716
1.6616 -6.3423 -2.9583 0.9716
3.2800 -5.6811 -2.9600 0.9716
3.7736 -5.3680 -2.9608 0.9716
4.2377 -5.0124 -2.9616 0.9716
5.0628 -4.1845 -2.9637 0.9716
5.4173 -3.7188 -2.9649 0.9716
6.2154 -2.1582 -2.9688 0.9715
6.5743 -0.4401 -2.9731 0.9715
6.5546 0.7333 -2.9760 0.9715
6.3269 1.8856 -2.9789 0.9714
6.1375 2.4426 -2.9806 0.9714
5.9229 2.9930 -2.9944 0.9713
4.9236 4.4531 -2.9955 0.9713
3.0618 5.8949 -2.9973 0.9713
2.5253 6.1450 -2.9978 0.9713
1.9687 6.3465 -2.9983 0.9713
0.8125 6.5972 -2.9992 0.9713
0.2221 6.6444 -2.9997 0.9712
-0.3689 6.6154 -2.9896 0.9713
-2.6654 6.0958 -3.0020 0.9712
-3.1978 5.8351 -3.0023 0.9712
-3.7048 5.5280 -3.0027 0.9712
-4.6272 4.7845 -3.0033 0.9712
-5.4030 3.8888 -3.0037 0.9712
-5.7280 3.3927 -3.0039 0.9712
-6.5523 1.1805 -3.0041 0.9712
-6.6313 0.5926 -3.0041 0.9712
-6.3467 -0.5671 -3.0036 0.9722
-5.7479 -2.7455 -3.0027 0.9722
-5.4801 -3.2459 -3.0023 0.9722
-4.8166 -4.1651 -3.0016 0.9722
-4.4262 -4.5767 -3.0012 0.9722
-4.0007 -4.9518 -3.0008 0.9722
-2.0198 -6.0330 -2.9989 0.9723
-1.4746 -6.1878 -2.9985 0.9723
-0.9179 -6.2935 -2.9980 0.9723
0.7681 -6.2364 -2.9619 0.9726
1.3188 -6.1369 -2.9588 0.9726
2.3866 -5.8075 -2.9597 0.9726
2.8946 -5.5731 -2.9602 0.9726
3.8388 -4.9741 -2.9617 0.9726
5.0216 -3.7870 -2.9647 0.9726
5.3408 -3.3263 -2.9659 0.9726
5.6180 -2.8389 -2.9671 0.9725
6.0376 -1.7994 -2.9697 0.9725
6.1766 -1.2554 -2.9710 0.9725
6.2668 -0.7010 -2.9724 0.9725
6.2977 0.4216 -2.9752 0.9725
6.2381 0.9809 -2.9766 0.9725
6.1289 1.5330 -2.9780 0.9724
5.7917 2.6096 -2.9944 0.9723
5.5370 3.1151 -2.9947 0.9723
5.2383 3.5959 -2.9950 0.9723
4.5189 4.4689 -2.9958 0.9723
4.1038 4.8540 -2.9962 0.9723
3.6560 5.2008 -2.9966 0.9723
3.1791 5.5063 -2.9971 0.9723
2.1531 5.9846 -2.9980 0.9723
1.6121 6.1535 -2.9985 0.9723
1.0582 6.2735 -2.9990 0.9723
-0.0709 6.3638 -2.9999 0.9722
-1.7504 6.1216 -3.0012 0.9722
-2.2886 5.9423 -3.0016 0.9722
-2.8088 5.7158 -3.0020 0.9722
-3.3068 5.4437 -3.0024 0.9722
-3.7786 5.1283 -3.0027 0.9722
-4.6288 4.3779 -3.0032 0.9722
-6.0650 1.9557 -3.0039 0.9722
-6.2151 1.4081 -3.0039 0.9722
-6.3157 0.8494 -3.0039 0.9722
-6.3658 -0.2838 -3.0037 0.9722
-6.2139 -1.4079 -3.0033 0.9722
-6.0634 -1.9552 -3.0031 0.9722
-5.8648 -2.4869 -3.0028 0.9722
-5.6196 -2.9987 -3.0025 0.9722
-5.3298 -3.4866 -3.0022 0.9722
-4.9977 -3.9467 -3.0018 0.9722
-4.6260 -4.3752 -3.0014 0.9722
-3.7759 -5.1247 -3.0006 0.9722
-3.3043 -5.4396 -3.0001 0.9722
-2.8066 -5.7112 -2.9997 0.9723
-2.2868 -5.9374 -2.9992 0.9723
-1.7490 -6.1165 -2.9987 0.9723
-1.1974 -6.2468 -2.9982 0.9723
-0.0707 -6.3459 -2.9915 0.9723
1.5909 -6.0724 -2.9590 0.9726
2.1254 -5.9075 -2.9594 0.9726
3.6129 -5.1395 -2.9613 0.9726
4.0572 -4.7989 -2.9622 0.9726
4.4696 -4.4201 -2.9631 0.9726
4.8470 -4.0062 -2.9642 0.9726
5.1863 -3.5602 -2.9653 0.9726
5.4848 -3.0857 -2.9665 0.9726
5.7401 -2.5863 -2.9677 0.9725
6.2278 -0.9793 -2.9717 0.9725
6.2932 -0.4213 -2.9731 0.9725
6.3087 0.1406 -2.9745 0.9725
6.1897 1.2581 -2.9773 0.9725
5.8808 2.3405 -2.9836 0.9724
5.6699 2.8652 -2.9945 0.9723
5.3930 3.3588 -2.9949 0.9723
5.0733 3.8259 -2.9952 0.9723
4.7132 4.2628 -2.9956 0.9723
4.3156 4.6660 -2.9960 0.9723
3.8838 5.0324 -2.9964 0.9723
3.4210 5.3589 -2.9969 0.9723
2.4174 5.8823 -2.9978 0.9723
1.8845 6.0751 -2.9983 0.9723
-0.3543 6.3548 -3.0001 0.9722
-0.9187 6.2990 -3.0006 0.9722
-1.4759 6.1931 -3.0010 0.9722
-4.4290 4.5796 -3.0031 0.9722
-5.4826 3.2474 -3.0037 0.9722
-5.9719 2.2240 -3.0039 0.9722
-6.2716 1.1299 -3.0039 0.9722
-6.3472 0.5672 -3.0038 0.9722
-6.1065 0.0000 -3.0035 0.9731
-6.0820 -0.5435 -3.0034 0.9731
-4.9535 -3.5653 -3.0018 0.9732
-4.6159 -3.9915 -3.0015 0.9732
-4.2418 -4.3860 -3.0011 0.9732
-3.8341 -4.7454 -3.0007 0.9732
-3.3960 -5.0671 -3.0003 0.9732
-2.9311 -5.3485 -2.9998 0.9732
-1.9357 -5.7818 -2.9989 0.9732
-0.8797 -6.0315 -2.9980 0.9732
0.2028 -6.0666 -2.9856 0.9733
1.2641 -5.8827 -2.9595 0.9735
2.7746 -5.3421 -2.9608 0.9735
3.6796 -4.7678 -2.9623 0.9735
4.0906 -4.4227 -2.9631 0.9735
4.4694 -4.0423 -2.9641 0.9735
5.1190 -3.1882 -2.9662 0.9735
5.3846 -2.7209 -2.9674 0.9735
5.7866 -1.7246 -2.9699 0.9734
5.9197 -1.2032 -2.9712 0.9734
6.0060 -0.6719 -2.9725 0.9734
6.0447 -0.1347 -2.9738 0.9734
6.0354 0.4040 -2.9752 0.9734
5.9782 0.9400 -2.9765 0.9734
5.8734 1.4691 -2.9779 0.9734
5.7268 1.9886 -2.9817 0.9733
5.5508 2.5011 -2.9946 0.9732
5.0205 3.4464 -2.9952 0.9732
4.3309 4.2830 -2.9959 0.9732
3.9331 4.6521 -2.9963 0.9732
3.5039 4.9844 -2.9967 0.9732
2.0635 5.7355 -2.9980 0.9732
1.5450 5.8973 -2.9985 0.9732
1.0142 6.0123 -2.9990 0.9732
-0.6106 6.0693 -3.0003 0.9732
-1.6775 5.8665 -3.0011 0.9732
-2.6917 5.4775 -3.0019 0.9732
-3.6210 4.9145 -3.0025 0.9732
-4.0445 4.5732 -3.0028 0.9732
-4.7919 3.7841 -3.0032 0.9731
-5.8121 1.8742 -3.0037 0.9731
-5.9559 1.3494 -3.0037 0.9731
-6.0523 0.8140 -3.0036 0.9731
-6.0516 -0.8139 -3.0033 0.9731
-5.3853 -2.8737 -3.0023 0.9732
-4.4332 -4.1929 -3.0013 0.9732
-3.1667 -5.2130 -3.0000 0.9732
-0.6101 -6.0643 -2.9978 0.9732
-0.0679 -6.0934 -2.9973 0.9732
0.4704 -6.0206 -2.9703 0.9734
1.5250 -5.8208 -2.9596 0.9735
2.5337 -5.4599 -2.9605 0.9735
3.0102 -5.2138 -2.9611 0.9735
4.2842 -4.2367 -2.9636 0.9735
4.6459 -3.8399 -2.9646 0.9735
4.9710 -3.4124 -2.9656 0.9735
5.2570 -2.9575 -2.9668 0.9735
5.5016 -2.4789 -2.9680 0.9735
5.9688 -0.9385 -2.9718 0.9734
6.0313 -0.4037 -2.9732 0.9734
6.0128 0.6726 -2.9759 0.9734
5.9317 1.2057 -2.9772 0.9734
5.8034 1.7296 -2.9785 0.9734
5.4342 2.7460 -2.9947 0.9732
4.5171 4.0855 -2.9957 0.9732
3.7222 4.8230 -2.9965 0.9732
1.8061 5.8222 -2.9983 0.9732
1.2809 5.9607 -2.9987 0.9732
-0.8804 6.0365 -3.0005 0.9732
-1.4144 5.9350 -3.0009 0.9732
-1.9373 5.7863 -3.0013 0.9732
-2.9332 5.3525 -3.0020 0.9732
-3.8365 4.7485 -3.0026 0.9732
-4.2443 4.3886 -3.0029 0.9732
-4.6184 3.9937 -3.0031 0.9731
-4.9559 3.5670 -3.0033 0.9731
-5.2540 3.1119 -3.0035 0.9731
-5.5103 2.6321 -3.0036 0.9731
-5.7228 2.1312 -3.0036 0.9731
-6.0100 1.0828 -3.0037 0.9731
-6.0824 0.5435 -3.0036 0.9731
-5.7648 -1.0386 -3.0030 0.9740
-5.6491 -1.5475 -3.0028 0.9740
-5.4885 -2.0439 -3.0026 0.9740
-5.2844 -2.5241 -3.0023 0.9740
-4.7521 -3.4204 -3.0017 0.9740
-4.4283 -3.8293 -3.0014 0.9740
-4.0694 -4.2077 -3.0010 0.9740
-2.8120 -5.1313 -2.9998 0.9740
-1.8571 -5.5470 -2.9989 0.9740
-0.8440 -5.7867 -2.9980 0.9741
-0.3255 -5.8380 -2.9976 0.9741
0.1951 -5.8370 -2.9941 0.9741
0.7077 -5.7459 -2.9680 0.9743
1.7108 -5.5152 -2.9604 0.9744
2.1953 -5.3418 -2.9608 0.9744
3.5308 -4.5750 -2.9627 0.9744
4.9117 -3.0590 -2.9665 0.9743
5.1664 -2.6107 -2.9677 0.9743
5.7623 -0.6446 -2.9726 0.9743
5.6347 1.4093 -2.9777 0.9742
5.3257 2.3997 -2.9947 0.9741
5.0915 2.8645 -2.9950 0.9741
3.7735 4.4633 -2.9964 0.9741
3.3617 4.7821 -2.9968 0.9741
2.9231 5.0631 -2.9972 0.9741
2.4612 5.3039 -2.9976 0.9741
0.4558 5.8327 -2.9994 0.9740
-0.0652 5.8510 -2.9998 0.9740
-0.5858 5.8228 -3.0002 0.9740
-1.1019 5.7483 -3.0006 0.9740
-2.1041 5.4632 -3.0014 0.9740
-2.5823 5.2549 -3.0017 0.9740
-3.4738 4.7147 -3.0023 0.9740
-4.9022 3.2069 -3.0032 0.9740
-5.3935 2.2870 -3.0034 0.9740
-5.5757 1.7979 -3.0034 0.9740
-5.7136 1.2945 -3.0035 0.9740
-5.8061 0.7808 -3.0034 0.9740
-5.8055 -0.7808 -3.0031 0.9740
-5.7126 -1.2943 -3.0029 0.9740
-5.1664 -2.7569 -3.0022 0.9740
-4.9000 -3.2054 -3.0019 0.9740
-4.5948 -3.6284 -3.0015 0.9740
-3.8777 -4.3846 -3.0008 0.9740
-2.5805 -5.2511 -2.9996 0.9740
-2.1025 -5.4591 -2.9991 0.9740
-1.1010 -5.7438 -2.9983 0.9741
-0.5853 -5.8181 -2.9978 0.9741
0.4529 -5.7960 -2.9805 0.9742
1.9549 -5.4339 -2.9606 0.9744
2.4312 -5.2392 -2.9611 0.9744
3.7316 -4.4138 -2.9631 0.9744
4.1109 -4.0653 -2.9640 0.9743
5.4716 -1.9000 -2.9694 0.9743
5.7266 -0.9004 -2.9719 0.9743
5.8005 0.1293 -2.9745 0.9743
5.7685 0.6453 -2.9758 0.9742
5.5713 1.6605 -2.9804 0.9742
4.6650 3.5181 -2.9955 0.9741
4.3339 3.9198 -2.9958 0.9741
3.9683 4.2905 -2.9962 0.9741
3.5712 4.6273 -2.9966 0.9741
2.6949 5.1886 -2.9974 0.9741
2.2227 5.4086 -2.9979 0.9741
1.2289 5.7187 -2.9987 0.9741
0.7151 5.8062 -2.9992 0.9740
-0.3258 5.8427 -3.0000 0.9740
-1.8585 5.5512 -3.0012 0.9740
-2.8140 5.1349 -3.0019 0.9740
-3.2602 4.8646 -3.0022 0.9740
-3.6806 4.5555 -3.0025 0.9740
-4.0718 4.2102 -3.0027 0.9740
-4.4306 3.8313 -3.0029 0.9740
-5.0403 2.9854 -3.0033 0.9740
-5.2862 2.5250 -3.0034 0.9740
-5.4901 2.0445 -3.0034 0.9740
-5.6029 -0.5007 -3.0030 0.9748
-5.5358 -0.9973 -3.0028 0.9748
-5.0745 -2.4239 -3.0022 0.9748
-4.5634 -3.2846 -3.0016 0.9748
-2.7004 -4.9277 -2.9997 0.9748
-2.2508 -5.1478 -2.9993 0.9748
-1.3021 -5.4637 -2.9985 0.9749
-0.3126 -5.6065 -2.9976 0.9749
2.1086 -5.1309 -2.9614 0.9752
2.5573 -4.9237 -2.9619 0.9752
2.9860 -4.6775 -2.9625 0.9752
3.3913 -4.3942 -2.9632 0.9751
3.7700 -4.0760 -2.9640 0.9751
4.1190 -3.7254 -2.9649 0.9751
4.4356 -3.3451 -2.9658 0.9751
4.9620 -2.5074 -2.9679 0.9751
5.1674 -2.0566 -2.9690 0.9751
5.3320 -1.5891 -2.9702 0.9751
5.5693 -0.1241 -2.9739 0.9751
5.5606 0.3722 -2.9751 0.9750
4.8898 2.7510 -2.9951 0.9749
4.3255 3.5751 -2.9958 0.9749
3.9906 3.9464 -2.9961 0.9749
2.8073 4.8623 -2.9973 0.9749
1.9012 5.2845 -2.9981 0.9749
0.9344 5.5394 -2.9989 0.9748
0.4377 5.6013 -2.9993 0.9748
-2.0206 5.2464 -3.0013 0.9748
-2.9194 4.8060 -3.0019 0.9748
-3.3359 4.5275 -3.0022 0.9748
-4.0864 3.8649 -3.0027 0.9748
-4.4145 3.4861 -3.0028 0.9748
-4.7075 3.0795 -3.0030 0.9748
-5.5755 0.7498 -3.0032 0.9748
-5.6198 -0.2506 -3.0031 0.9748
-5.4857 -1.2429 -3.0027 0.9748
-5.1777 -2.1955 -3.0023 0.9748
-4.7055 -3.0782 -3.0017 0.9748
-3.7238 -4.2105 -3.0007 0.9748
-3.3338 -4.5247 -3.0003 0.9748
-2.9175 -4.8028 -2.9999 0.9748
-2.4781 -5.0428 -2.9995 0.9748
-1.0573 -5.5160 -2.9983 0.9749
-0.5621 -5.5874 -2.9979 0.9749
0.9247 -5.4821 -2.9679 0.9751
1.8778 -5.2193 -2.9611 0.9752
2.3352 -5.0323 -2.9616 0.9752
2.7744 -4.8054 -2.9622 0.9752
3.1918 -4.5404 -2.9628 0.9751
3.5841 -4.2394 -2.9636 0.9751
3.9483 -3.9046 -2.9644 0.9751
4.2815 -3.5388 -2.9653 0.9751
4.5810 -3.1447 -2.9663 0.9751
4.8445 -2.7254 -2.9674 0.9751
5.0697 -2.2843 -2.9685 0.9751
5.2549 -1.8247 -2.9696 0.9751
5.3986 -1.3503 -2.9708 0.9751
5.5705 0.1241 -2.9745 0.9751
5.4647 1.1108 -2.9770 0.9750
5.3574 1.5967 -2.9843 0.9750
5.2121 2.0744 -2.9947 0.9749
4.4802 3.3787 -2.9956 0.9749
4.1622 3.7644 -2.9959 0.9749
3.8110 4.1205 -2.9963 0.9749
3.4296 4.4439 -2.9967 0.9749
3.0209 4.7321 -2.9971 0.9749
2.5880 4.9829 -2.9975 0.9749
2.1346 5.1942 -2.9979 0.9749
1.1801 5.4919 -2.9987 0.9749
-0.3129 5.6108 -3.0000 0.9748
-0.8111 5.5615 -3.0003 0.9748
-1.3031 5.4679 -3.0007 0.9748
-1.7848 5.3308 -3.0011 0.9748
-3.1307 4.6714 -3.0020 0.9748
-3.9101 4.0430 -3.0026 0.9748
-4.2547 3.6792 -3.0028 0.9748
-4.5655 3.2861 -3.0029 0.9748
-4.8401 2.8668 -3.0031 0.9748
-5.2720 1.9633 -3.0032 0.9748
-5.5366 0.9975 -3.0032 0.9748
-5.3852 -0.4812 -3.0028 0.9756
-5.3207 -0.9586 -3.0027 0.9756
-5.2140 -1.4283 -3.0025 0.9756
-4.3862 -3.1570 -3.0015 0.9756
-3.7561 -3.8838 -3.0008 0.9756
-3.3951 -4.2022 -3.0004 0.9756
-2.5956 -4.7364 -2.9997 0.9756
-1.7142 -5.1202 -2.9989 0.9756
-1.2516 -5.2517 -2.9985 0.9756
-0.7790 -5.3416 -2.9981 0.9756
-0.3005 -5.3890 -2.9977 0.9756
0.6576 -5.3396 -2.9880 0.9757
1.5803 -5.0945 -2.9625 0.9759
2.8706 -4.4967 -2.9629 0.9759
3.2601 -4.2243 -2.9636 0.9759
3.6241 -3.9184 -2.9644 0.9759
3.9596 -3.5813 -2.9652 0.9759
4.2640 -3.2156 -2.9661 0.9759
5.1254 -1.5275 -2.9704 0.9758
5.3532 -0.1193 -2.9739 0.9758
5.3447 0.3578 -2.9751 0.9758
5.2938 0.8324 -2.9763 0.9758
5.2087 1.3029 -2.9820 0.9757
4.7002 2.6443 -2.9953 0.9756
4.4467 3.0525 -2.9956 0.9756
4.1578 3.4365 -2.9959 0.9756
3.8358 3.7933 -2.9962 0.9756
3.1032 4.4144 -2.9969 0.9756
2.6984 4.6737 -2.9973 0.9756
1.8274 5.0794 -2.9981 0.9756
1.3683 5.2226 -2.9985 0.9756
0.8981 5.3244 -2.9989 0.9756
0.4207 5.3839 -2.9993 0.9756
-0.0602 5.4007 -2.9997 0.9756
-1.0170 5.3058 -3.0005 0.9756
-1.9421 5.0426 -3.0012 0.9756
-2.8060 4.6193 -3.0018 0.9756
-3.9276 3.7147 -3.0025 0.9756
-4.2429 3.3506 -3.0027 0.9756
-4.7702 2.5455 -3.0029 0.9756
-4.9779 2.1108 -3.0030 0.9756
-5.1462 1.6594 -3.0031 0.9756
-5.4016 0.2409 -3.0030 0.9756
-5.3583 -0.7206 -3.0028 0.9756
-4.9765 -2.1102 -3.0022 0.9756
-4.5227 -2.9586 -3.0016 0.9756
-4.2410 -3.3491 -3.0013 0.9756
-3.9256 -3.7128 -3.0010 0.9756
-3.2044 -4.3490 -3.0003 0.9756
-1.9408 -5.0391 -2.9991 0.9756
-1.4844 -5.1911 -2.9987 0.9756
-1.0163 -5.3019 -2.9983 0.9756
-0.5403 -5.3706 -2.9979 0.9756
-0.0601 -5.3967 -2.9975 0.9756
0.8907 -5.2805 -2.9742 0.9758
1.3532 -5.1650 -2.9655 0.9759
2.6671 -4.6196 -2.9626 0.9759
3.4455 -4.0754 -2.9640 0.9759
3.7956 -3.7536 -2.9648 0.9759
4.6569 -2.6199 -2.9676 0.9758
4.8733 -2.1958 -2.9687 0.9758
5.2864 -0.8312 -2.9721 0.9758
5.3415 -0.3576 -2.9733 0.9758
5.3543 0.1193 -2.9745 0.9758
5.3245 0.5957 -2.9757 0.9758
5.2550 1.0681 -2.9783 0.9758
5.1656 1.5395 -2.9936 0.9756
5.0101 1.9940 -2.9949 0.9756
4.3065 3.2477 -2.9957 0.9756
4.0008 3.6185 -2.9960 0.9756
3.6633 3.9607 -2.9964 0.9756
3.2966 4.2715 -2.9967 0.9756
2.9037 4.5485 -2.9971 0.9756
2.4876 4.7896 -2.9975 0.9756
1.5995 5.1561 -2.9983 0.9756
1.1343 5.2788 -2.9987 0.9756
0.1805 5.3976 -2.9995 0.9756
-0.3007 5.3930 -2.9999 0.9756
-2.1649 4.9513 -3.0013 0.9756
-2.5973 4.7395 -3.0016 0.9756
-3.0091 4.4899 -3.0019 0.9756
-3.3971 4.2046 -3.0022 0.9756
-4.0894 3.5362 -3.0026 0.9756
-4.6521 2.7555 -3.0029 0.9756
-5.0671 1.8870 -3.0031 0.9756
-5.1801 -0.4629 -3.0027 0.9763
-5.0154 -1.3739 -3.0023 0.9763
-4.4732 -2.6495 -3.0016 0.9763
-4.2192 -3.0368 -3.0013 0.9763
-3.9318 -3.4000 -3.0010 0.9763
-2.8929 -4.3164 -3.0000 0.9763
-2.0812 -4.7597 -2.9993 0.9763
-1.6491 -4.9255 -2.9989 0.9763
-0.7494 -5.1385 -2.9981 0.9763
0.6341 -5.1486 -2.9950 0.9763
1.9503 -4.7458 -2.9623 0.9766
2.3653 -4.5541 -2.9628 0.9766
2.7618 -4.3263 -2.9634 0.9766
3.4868 -3.7699 -2.9648 0.9766
3.8095 -3.4455 -2.9656 0.9766
4.1023 -3.0937 -2.9664 0.9765
4.3627 -2.7171 -2.9674 0.9765
4.5888 -2.3188 -2.9684 0.9765
5.1497 -0.1147 -2.9739 0.9765
5.1414 0.3442 -2.9750 0.9765
5.0949 0.8013 -2.9776 0.9765
5.0270 1.2574 -2.9918 0.9763
4.7298 2.1312 -2.9951 0.9763
4.5217 2.5439 -2.9954 0.9763
4.2777 2.9365 -2.9957 0.9763
3.9998 3.3059 -2.9960 0.9763
3.6901 3.6492 -2.9963 0.9763
3.3510 3.9636 -2.9966 0.9763
2.9853 4.2467 -2.9970 0.9763
2.5958 4.4960 -2.9974 0.9763
1.7579 4.8863 -2.9981 0.9763
1.3162 5.0240 -2.9985 0.9763
0.4047 5.1791 -2.9993 0.9763
-0.5201 5.1701 -3.0000 0.9763
-2.2928 4.6656 -3.0014 0.9763
-3.0842 4.1859 -3.0019 0.9763
-3.4448 3.8951 -3.0021 0.9763
-3.7781 3.5733 -3.0023 0.9763
-4.0814 3.2230 -3.0025 0.9763
-4.3523 2.8471 -3.0027 0.9763
-4.5885 2.4485 -3.0028 0.9763
-4.7884 2.0305 -3.0029 0.9763
-4.9502 1.5962 -3.0029 0.9763
-5.0726 1.1493 -3.0029 0.9763
-5.1959 0.2317 -3.0028 0.9763
-4.9491 -1.5959 -3.0022 0.9763
-4.7871 -2.0299 -3.0020 0.9763
-4.3505 -2.8460 -3.0015 0.9763
-3.7762 -3.5715 -3.0009 0.9763
-2.2913 -4.6626 -2.9994 0.9763
-1.4279 -4.9937 -2.9987 0.9763
-0.0578 -5.1915 -2.9975 0.9763
0.4044 -5.1754 -2.9972 0.9763
0.8600 -5.0981 -2.9850 0.9764
2.1599 -4.6546 -2.9626 0.9766
