ply
format ascii 1.0
element vertex 1587
property float32 x
property float32 y
property float32 z
property float32 I
end_header
2.9887 -1.5103 0.2509 0.9867
3.6491 -1.0875 0.2853 0.9848
2.4880 6.9155 0.5508 0.9710
2.5689 -2.5404 0.2707 0.9856
4.0717 -1.0184 0.3145 0.9833
2.6583 -2.0047 0.1939 0.9867
2.7921 -1.7389 0.1916 0.9869
3.2213 -1.2821 0.2019 0.9862
2.4880 6.9155 0.4281 0.9710
2.6106 -2.1577 0.1973 0.9865
2.7211 -1.8679 0.1922 0.9869
3.0840 -1.3896 0.1970 0.9865
3.9736 -0.9939 0.2386 0.9837
2.5443 -2.7509 0.1558 0.9851
2.5560 -2.3118 0.1433 0.9863
2.6440 -1.9939 0.1377 0.9868
2.7779 -1.7301 0.1361 0.9870
2.9574 -1.4944 0.1378 0.9868
3.5738 -1.0651 0.1551 0.9852
2.4880 6.9154 0.3056 0.9710
2.6170 -3.0954 0.1685 0.9839
2.5962 -2.1459 0.1401 0.9866
3.0664 -1.3816 0.1398 0.9866
3.3668 -1.1691 0.1482 0.9858
2.6298 -1.9832 0.0821 0.9869
2.9420 -1.4867 0.0822 0.9869
2.5191 -2.4912 0.0884 0.9859
2.8453 -1.6007 0.0814 0.9870
3.8596 -0.9654 0.0992 0.9842
2.5026 -2.7058 0.0306 0.9854
2.5243 -2.2831 0.0283 0.9865
2.6158 -1.9727 0.0272 0.9870
2.7499 -1.7127 0.0269 0.9871
2.9268 -1.4790 0.0273 0.9870
3.5213 -1.0494 0.0305 0.9854
2.4879 6.9154 0.0611 0.9710
2.5524 -3.0190 0.0329 0.9843
2.8308 -1.5926 0.0270 0.9871
3.8208 -0.9556 0.0327 0.9844
2.6019 -1.9622 -0.0271 0.9870
2.7362 -1.7041 -0.0268 0.9872
2.9118 -1.4714 -0.0271 0.9870
2.5213 -2.9822 -0.0325 0.9845
2.4870 -2.4595 -0.0291 0.9861
2.6663 -1.8303 -0.0269 0.9871
2.7266 -1.6982 -0.0801 0.9872
3.1351 -1.2478 -0.0841 0.9866
3.4804 -1.0373 -0.0906 0.9856
2.4769 -2.4495 -0.0869 0.9862
3.0032 -1.3532 -0.0821 0.9869
3.2826 -1.1399 -0.0867 0.9862
3.7613 -0.9407 -0.0967 0.9846
2.4936 -2.2554 -0.1398 0.9866
2.5880 -1.9517 -0.1348 0.9871
2.7222 -1.6954 -0.1333 0.9872
2.8967 -1.4638 -0.1349 0.9871
2.4940 -2.9499 -0.1606 0.9847
2.4718 -2.4444 -0.1445 0.9862
2.5405 -2.0998 -0.1370 0.9869
3.2753 -1.1373 -0.1442 0.9862
2.5836 -1.9484 -0.1885 0.9871
2.7178 -1.6927 -0.1865 0.9873
3.1234 -1.2431 -0.1958 0.9866
4.3214 -0.8784 -0.2568 0.9825
2.4842 -2.9383 -0.2241 0.9847
2.4667 -2.4394 -0.2021 0.9862
2.6484 -1.8180 -0.1871 0.9872
2.7134 -1.6899 -0.2396 0.9873
3.1176 -1.2408 -0.2515 0.9866
3.4562 -1.0301 -0.2703 0.9856
4.2475 -0.8633 -0.3248 0.9828
2.4879 6.9152 -0.5507 0.9710
2.4744 -2.9268 -0.2872 0.9847
2.4616 -2.4344 -0.2594 0.9862
2.5317 -2.0925 -0.2461 0.9869
2.6441 -1.8151 -0.2403 0.9872
2.7925 -1.5711 -0.2401 0.9872
2.9868 -1.3458 -0.2455 0.9869
2.4442 -2.6427 -0.3300 0.9856
2.4787 -2.2419 -0.3064 0.9867
2.5747 -1.9417 -0.2956 0.9871
2.5273 -2.0888 -0.3006 0.9869
2.7879 -1.5685 -0.2933 0.9872
2.9814 -1.3434 -0.2998 0.9870
2.6810 -3.4739 -0.4760 0.9825
2.4378 -2.6357 -0.3894 0.9857
2.5703 -1.9383 -0.3492 0.9871
2.8774 -1.4540 -0.3497 0.9871
3.1060 -1.2362 -0.3626 0.9866
4.2475 -0.8633 -0.4701 0.9827
2.4879 6.9152 -0.7971 0.9709
2.4618 -2.9119 -0.4136 0.9848
2.4515 -2.4243 -0.3740 0.9862
2.5228 -2.0852 -0.3550 0.9869
2.9759 -1.3409 -0.3540 0.9870
3.7076 -0.9273 -0.4145 0.9847
2.7075 -3.5082 -0.5553 0.9823
2.4427 -2.6411 -0.4508 0.9856
2.4724 -2.2362 -0.4178 0.9867
2.5667 -1.9356 -0.4029 0.9871
2.7004 -1.6818 -0.3987 0.9873
2.8737 -1.4521 -0.4035 0.9871
3.1046 -1.2356 -0.4187 0.9866
2.4879 6.9152 -0.9210 0.9708
2.4701 -2.9217 -0.4795 0.9847
2.9727 -1.3394 -0.4086 0.9869
3.7202 -0.9305 -0.4806 0.9847
2.5713 -1.9391 -0.4581 0.9871
2.8786 -1.4546 -0.4588 0.9871
3.1106 -1.2380 -0.4762 0.9866
3.4546 -1.0296 -0.5127 0.9855
4.4383 -0.9021 -0.6442 0.9819
2.4879 6.9151 -1.0453 0.9707
2.5250 -2.0869 -0.4659 0.9869
2.6360 -1.8095 -0.4548 0.9872
2.9783 -1.3420 -0.4646 0.9869
3.2549 -1.1302 -0.4901 0.9862
2.5759 -1.9426 -0.5137 0.9870
2.7095 -1.6875 -0.5083 0.9872
3.1167 -1.2404 -0.5342 0.9865
3.4632 -1.0321 -0.5754 0.9855
2.4878 6.9151 -1.1702 0.9707
2.5296 -2.0908 -0.5226 0.9868
2.7887 -1.5689 -0.5095 0.9871
2.9840 -1.3446 -0.5212 0.9868
2.4880 -2.2503 -0.5915 0.9865
3.4718 -1.0347 -0.6388 0.9854
2.4878 6.9151 -1.2958 0.9706
3.2703 -1.1356 -0.6104 0.9860
-14.1887 -3.8867 -2.8469 0.9418
-13.7909 -5.1358 -2.8478 0.9418
2.4702 -2.6707 -0.7040 0.9853
2.7188 -1.6933 -0.6198 0.9870
2.8939 -1.4623 -0.6275 0.9869
3.1291 -1.2454 -0.6517 0.9864
3.4805 -1.0373 -0.7028 0.9853
8.4677 12.0455 -2.8494 0.9418
2.4878 6.9150 -1.4222 0.9705
-14.0040 -4.5157 -2.8474 0.9418
-12.9769 -6.9247 -2.8464 0.9418
2.5179 -2.9782 -0.7547 0.9842
2.4740 -2.4465 -0.6733 0.9859
2.7984 -1.5744 -0.6214 0.9870
2.9956 -1.3498 -0.6358 0.9867
3.7779 -0.9449 -0.7536 0.9843
-14.1741 -1.2666 -3.0001 0.9435
-13.0347 -4.8542 -2.9323 0.9447
-12.2341 -7.2463 -2.9977 0.9435
-11.5363 -8.3033 -2.9966 0.9436
-10.5680 -9.1386 -2.9454 0.9445
-8.7742 -10.8599 -2.9434 0.9445
-7.7763 -11.6030 -2.9447 0.9445
-6.7143 -12.2521 -2.9454 0.9445
-4.4390 -13.2587 -2.9477 0.9444
-2.0202 -13.8512 -2.9510 0.9444
-0.7798 -13.9856 -2.9530 0.9443
0.4684 -14.0101 -2.9553 0.9443
4.1643 -13.4244 -2.9632 0.9442
5.3479 -13.0134 -2.9661 0.9441
6.4917 -12.4987 -2.9692 0.9441
7.5865 -11.8841 -2.9724 0.9440
8.6209 -11.1704 -2.9747 0.9440
2.4848 -2.6866 -0.7715 0.9852
2.4987 -2.2599 -0.7103 0.9863
2.5901 -1.9533 -0.6839 0.9868
2.7236 -1.6963 -0.6764 0.9870
13.9249 -2.8304 -2.9957 0.9436
14.1236 -1.5800 -2.9961 0.9436
14.0456 2.2086 -2.9975 0.9435
12.9693 5.8437 -2.9989 0.9435
10.9698 9.0668 -3.0003 0.9435
10.1208 10.0087 -3.0008 0.9435
9.1912 10.8714 -3.0012 0.9435
8.1306 11.5660 -2.9805 0.9438
6.7581 11.7053 -2.8495 0.9462
3.4305 13.0941 -2.8537 0.9462
2.2518 13.3497 -2.8541 0.9462
1.0548 13.4995 -2.8546 0.9462
-1.3558 13.4770 -2.8556 0.9461
-2.5503 13.3049 -2.8560 0.9461
-3.7250 13.0270 -2.8564 0.9461
-4.8690 12.6421 -2.8560 0.9461
-5.9684 12.1454 -2.8530 0.9462
-7.3977 12.1782 -3.0040 0.9434
-11.1800 8.8288 -3.0033 0.9434
-11.9204 7.7980 -3.0030 0.9434
-12.5659 6.7054 -3.0027 0.9434
-13.1114 5.5597 -3.0024 0.9434
-13.5525 4.3701 -3.0020 0.9435
-14.1088 1.8974 -3.0012 0.9435
-14.2197 0.6341 -3.0008 0.9435
-14.2175 -0.6340 -3.0003 0.9435
-13.8755 -3.1437 -2.9994 0.9435
-12.7455 -5.4046 -2.9186 0.9450
-9.2490 -10.4580 -2.9433 0.9445
-8.2831 -11.2420 -2.9439 0.9445
-7.2525 -11.9392 -2.9450 0.9445
-6.1628 -12.5410 -2.9459 0.9445
-3.8449 -13.4466 -2.9484 0.9444
-2.6343 -13.7432 -2.9501 0.9444
-1.4016 -13.9321 -2.9520 0.9444
-0.1561 -14.0117 -2.9541 0.9443
1.0925 -13.9810 -2.9565 0.9443
2.3345 -13.8403 -2.9590 0.9442
3.5604 -13.5900 -2.9617 0.9442
7.0457 -12.2037 -2.9708 0.9440
2.5560 -3.0232 -0.8346 0.9839
2.5437 -2.1024 -0.6957 0.9866
2.8034 -1.5772 -0.6781 0.9869
3.2861 -1.1410 -0.7333 0.9859
3.8230 -0.9562 -0.8308 0.9840
14.0382 -2.2074 -2.9959 0.9436
14.2113 0.3167 -2.9968 0.9435
14.1289 1.5806 -2.9972 0.9435
13.9344 2.8323 -2.9977 0.9435
12.6972 6.4162 -2.9992 0.9435
12.0776 7.5220 -2.9996 0.9435
9.6656 10.4504 -3.0010 0.9435
6.2303 11.9955 -2.8496 0.9462
5.1440 12.5172 -2.8530 0.9462
2.8440 13.2350 -2.8539 0.9462
1.6550 13.4379 -2.8544 0.9462
-0.7540 13.5229 -2.8553 0.9461
-1.9550 13.4042 -2.8558 0.9461
-3.1407 13.1790 -2.8562 0.9461
-4.3019 12.8490 -2.8566 0.9461
-5.4244 12.4060 -2.8545 0.9462
-6.4999 11.8609 -2.8514 0.9462
-7.9326 11.8364 -3.0039 0.9434
-8.9543 11.0829 -3.0038 0.9434
-9.9046 10.2413 -3.0036 0.9434
-10.7761 9.3184 -3.0034 0.9434
-12.2554 7.2589 -3.0029 0.9434
-12.8514 6.1386 -3.0025 0.9434
-14.0113 2.5242 -3.0014 0.9435
-14.1783 1.2670 -3.0010 0.9435
-13.1456 0.0000 -3.0004 0.9475
-12.9336 -2.3301 -2.9995 0.9475
-11.3005 -6.6933 -2.9977 0.9475
-10.6583 -7.6714 -2.9973 0.9475
-8.9734 -9.2784 -2.9461 0.9484
-8.1115 -10.0397 -2.9460 0.9484
-6.2067 -11.3257 -2.9477 0.9484
-4.1037 -12.2570 -2.9502 0.9483
-2.9979 -12.5796 -2.9516 0.9483
-0.7208 -12.9273 -2.9551 0.9483
0.4329 -12.9492 -2.9572 0.9482
1.5850 -12.8691 -2.9595 0.9482
2.7263 -12.6874 -2.9619 0.9481
3.8482 -12.4053 -2.9645 0.9481
7.0056 -10.9741 -2.9716 0.9480
7.9572 -10.3106 -2.9727 0.9480
2.5105 -2.2707 -0.7726 0.9862
2.9050 -1.4680 -0.7429 0.9867
3.1495 -1.2535 -0.7737 0.9862
12.8592 -2.6137 -2.9950 0.9476
13.1261 -0.2925 -2.9967 0.9476
12.7426 3.1872 -2.9980 0.9475
12.4102 4.3093 -2.9984 0.9475
11.4529 6.4433 -2.9993 0.9475
10.8356 7.4382 -2.9998 0.9475
10.1320 8.3743 -3.0002 0.9475
9.3477 9.2442 -3.0006 0.9475
6.2416 10.8108 -2.8492 0.9501
5.2552 11.3247 -2.8495 0.9501
2.4878 6.9150 -1.6773 0.9703
2.0799 12.3304 -2.8541 0.9500
0.9743 12.4685 -2.8545 0.9500
-1.2522 12.4474 -2.8554 0.9500
-3.4403 12.0315 -2.8562 0.9500
-4.4951 11.6711 -2.8546 0.9500
-6.8320 11.2470 -3.0036 0.9474
-7.8057 10.5939 -3.0035 0.9474
-8.7172 9.8567 -3.0033 0.9474
-10.3253 8.1538 -3.0029 0.9475
-11.6054 6.1929 -3.0024 0.9475
-12.1093 5.1348 -3.0021 0.9475
-12.5169 4.0362 -3.0017 0.9475
-12.8249 2.9057 -3.0014 0.9475
-13.1316 -0.5856 -3.0002 0.9475
-13.0255 -1.7518 -2.9997 0.9475
-10.9903 -7.1895 -2.9975 0.9475
-10.2011 -8.0557 -2.9668 0.9481
-6.7023 -11.0334 -2.9465 0.9484
-5.6975 -11.5941 -2.9485 0.9484
-4.6446 -12.0595 -2.9496 0.9484
-3.5544 -12.4305 -2.9509 0.9483
-2.4352 -12.7041 -2.9524 0.9483
1.0097 -12.9219 -2.9583 0.9482
4.3990 -12.2271 -2.9659 0.9481
6.5082 -11.2725 -2.9709 0.9480
7.4890 -10.6533 -2.9722 0.9480
2.5955 -3.0700 -0.9176 0.9836
2.6589 -1.8253 -0.7361 0.9869
2.8084 -1.5800 -0.7355 0.9869
3.0105 -1.3565 -0.7537 0.9865
3.3108 -1.1496 -0.7999 0.9857
3.8695 -0.9678 -0.9104 0.9838
11.7277 5.9263 -2.9991 0.9475
11.1553 6.9476 -2.9996 0.9475
9.7496 8.8179 -3.0004 0.9475
8.9272 9.6520 -3.0008 0.9475
5.7542 11.0788 -2.8494 0.9501
2.6269 12.2245 -2.8539 0.9500
1.5287 12.4118 -2.8543 0.9500
0.4179 12.5005 -2.8547 0.9500
-1.8056 12.3802 -2.8556 0.9500
-2.9007 12.1720 -2.8560 0.9500
-6.1243 11.1754 -2.9086 0.9491
-7.3261 10.9313 -3.0035 0.9474
-8.2696 10.2355 -3.0034 0.9474
-9.1473 9.4583 -3.0032 0.9474
-12.3253 4.5900 -3.0019 0.9475
-12.9408 2.3314 -3.0012 0.9475
-12.2061 -0.0000 -3.0003 0.9510
-12.1561 -1.0863 -2.9999 0.9510
-12.0095 -2.1636 -2.9995 0.9510
-11.0066 -5.2574 -2.9982 0.9510
-9.8974 -7.1237 -2.9974 0.9510
-7.5382 -9.3302 -2.9483 0.9518
-6.6782 -9.9645 -2.9485 0.9518
-5.7658 -10.5213 -2.9490 0.9518
-4.8081 -10.9964 -2.9500 0.9518
-3.8130 -11.3890 -2.9521 0.9517
-2.7857 -11.6894 -2.9537 0.9517
2.5328 -11.7866 -2.9633 0.9516
3.5746 -11.5236 -2.9657 0.9515
4.5888 -11.1661 -2.9674 0.9515
6.5020 -10.1852 -2.9702 0.9514
7.3891 -9.5744 -2.9727 0.9514
2.5334 -2.7391 -0.9171 0.9847
2.5286 -2.2870 -0.8380 0.9861
2.6113 -1.9693 -0.8039 0.9866
2.7430 -1.7084 -0.7943 0.9868
3.1705 -1.2618 -0.8388 0.9860
3.5579 -1.0603 -0.9125 0.9848
12.1149 -1.3553 -2.9964 0.9510
12.1665 0.8145 -2.9972 0.9510
12.0474 1.8944 -2.9976 0.9510
11.5238 4.0015 -2.9985 0.9510
11.1235 5.0120 -2.9989 0.9510
10.6347 5.9830 -2.9993 0.9510
10.0614 6.9067 -2.9997 0.9510
9.4079 7.7759 -3.0001 0.9510
8.6796 8.5835 -3.0005 0.9510
5.7954 10.0379 -2.8490 0.9534
4.8794 10.5149 -2.8493 0.9534
2.9423 11.2306 -2.8536 0.9533
-0.1294 11.6138 -2.8548 0.9533
-2.1871 11.4099 -2.8556 0.9533
-3.1943 11.1710 -2.8559 0.9533
-5.1151 10.4089 -2.8507 0.9534
-7.2473 9.8361 -3.0031 0.9509
-10.2219 6.6868 -3.0024 0.9509
-11.2435 4.7677 -3.0018 0.9509
-11.9081 2.6980 -3.0012 0.9510
-12.0995 1.6272 -3.0008 0.9510
-12.1948 0.5438 -3.0005 0.9510
-12.0948 -1.6266 -2.9997 0.9510
-11.9004 -2.6963 -2.9993 0.9510
-11.6116 -3.7442 -2.9988 0.9510
-10.2056 -6.6762 -2.9976 0.9510
-8.7155 -8.2430 -2.9487 0.9518
-6.2282 -10.2530 -2.9487 0.9518
-3.3029 -11.5510 -2.9530 0.9517
-2.2628 -11.8048 -2.9544 0.9517
-0.1341 -12.0331 -2.9579 0.9516
0.9381 -12.0055 -2.9599 0.9516
2.6366 -3.1186 -1.0038 0.9833
2.5673 -2.1219 -0.8187 0.9864
2.8241 -1.5888 -0.7965 0.9867
3.3378 -1.1590 -0.8685 0.9856
12.0376 -1.8928 -2.9952 0.9510
12.1900 0.2717 -2.9970 0.9510
12.1190 1.3557 -2.9974 0.9510
11.9519 2.4293 -2.9978 0.9510
11.6898 3.4839 -2.9983 0.9510
11.3349 4.5112 -2.9987 0.9510
10.8899 5.5029 -2.9991 0.9510
10.3583 6.4512 -2.9995 0.9510
9.0528 8.1878 -3.0003 0.9510
8.2892 8.9622 -3.0007 0.9510
7.4595 9.6655 -3.0010 0.9510
5.3428 10.2866 -2.8492 0.9534
3.4395 11.0879 -2.8535 0.9533
0.3881 11.6072 -2.8546 0.9533
-0.6467 11.5973 -2.8550 0.9533
-1.6765 11.4953 -2.8554 0.9533
-2.6934 11.3019 -2.8558 0.9533
-3.6871 11.0129 -2.8546 0.9533
-7.6781 9.5033 -3.0030 0.9509
-9.2404 7.9905 -3.0027 0.9509
-9.9142 7.1358 -3.0025 0.9509
-10.5092 6.2246 -3.0023 0.9509
-12.1592 1.0866 -3.0006 0.9510
-11.3392 -1.0133 -2.9998 0.9540
-10.9771 -3.0069 -2.9990 0.9540
-9.7888 -5.7979 -2.9979 0.9540
-8.4962 -7.3469 -2.9597 0.9546
-7.7844 -8.0491 -2.9506 0.9547
-7.0368 -8.7096 -2.9504 0.9547
-6.2339 -9.3016 -2.9505 0.9547
-5.3820 -9.8208 -2.9509 0.9547
-2.5988 -10.9051 -2.9540 0.9547
-1.6190 -11.1006 -2.9560 0.9547
-0.6249 -11.2079 -2.9579 0.9546
1.3738 -11.1547 -2.9615 0.9546
2.3626 -10.9944 -2.9632 0.9545
3.3335 -10.7461 -2.9647 0.9545
5.1923 -9.9969 -2.9683 0.9545
6.0662 -9.5026 -2.9706 0.9544
2.6274 -1.9814 -0.8671 0.9865
2.7590 -1.7183 -0.8565 0.9866
3.1920 -1.2704 -0.9053 0.9859
3.5950 -1.0714 -0.9885 0.9846
11.1309 -2.2625 -2.9930 0.9541
11.2968 -1.2637 -2.9953 0.9541
10.3762 4.6753 -2.9989 0.9540
8.0962 8.0066 -3.0004 0.9540
7.3523 8.6964 -3.0007 0.9540
5.4057 9.3630 -2.8488 0.9563
4.5513 9.8079 -2.8491 0.9563
2.4878 6.9149 -1.9364 0.9701
2.7447 10.4765 -2.8537 0.9562
1.8015 10.6802 -2.8540 0.9562
0.8439 10.7996 -2.8544 0.9562
-0.1207 10.8333 -2.8547 0.9562
-2.0401 10.6429 -2.8555 0.9562
-3.8904 10.1013 -2.8523 0.9562
-4.7946 9.7568 -2.8646 0.9560
-5.9165 9.7400 -3.0029 0.9540
-8.2786 7.8298 -3.0025 0.9540
-9.5344 6.2371 -3.0021 0.9540
-11.3751 0.5072 -3.0003 0.9540
-11.3739 -0.5073 -3.0000 0.9540
-11.1008 -2.5151 -2.9992 0.9540
-10.8315 -3.4927 -2.9988 0.9540
-10.4763 -4.4423 -2.9984 0.9540
-10.0380 -5.3565 -2.9980 0.9540
-9.5202 -6.2278 -2.9977 0.9540
-7.4179 -8.3876 -2.9505 0.9547
-6.6419 -9.0144 -2.9504 0.9547
-5.8136 -9.5704 -2.9506 0.9547
-4.9397 -10.0519 -2.9512 0.9547
-1.1232 -11.1653 -2.9569 0.9546
0.8753 -11.2015 -2.9606 0.9546
1.8699 -11.0857 -2.9623 0.9546
2.8507 -10.8812 -2.9640 0.9545
3.8097 -10.5893 -2.9654 0.9545
4.7399 -10.2143 -2.9672 0.9545
5.6346 -9.7595 -2.9695 0.9545
6.4861 -9.2266 -2.9718 0.9544
2.5835 -2.1353 -0.8832 0.9862
3.3654 -1.1686 -0.9387 0.9854
11.3461 -0.7595 -2.9964 0.9541
11.3715 0.2534 -2.9971 0.9540
11.3052 1.2647 -2.9975 0.9540
11.1492 2.2662 -2.9979 0.9540
9.0895 6.8547 -2.9998 0.9540
8.4444 7.6375 -3.0002 0.9540
6.9580 9.0158 -3.0009 0.9540
6.1286 9.6003 -3.0012 0.9540
3.2085 10.3433 -2.8536 0.9562
2.2754 10.5888 -2.8538 0.9562
1.3241 10.7505 -2.8542 0.9562
0.3620 10.8272 -2.8546 0.9562
-0.6032 10.8179 -2.8549 0.9562
-3.4380 10.2689 -2.8535 0.9562
-8.6189 7.4531 -3.0024 0.9540
-9.2475 6.6559 -3.0022 0.9540
-9.8024 5.8060 -3.0020 0.9540
-10.2794 4.9101 -3.0018 0.9540
-10.6746 3.9753 -3.0015 0.9540
-10.6193 -0.9490 -2.9997 0.9567
-10.2803 -2.8161 -2.9990 0.9567
-9.9877 -3.7194 -2.9986 0.9567
-8.6470 -6.2237 -2.9975 0.9567
-7.2949 -7.5429 -2.9524 0.9573
-6.5943 -8.1619 -2.9523 0.9573
-5.8418 -8.7166 -2.9523 0.9573
-5.0434 -9.2029 -2.9526 0.9573
-2.4348 -10.2170 -2.9551 0.9573
-1.5164 -10.3975 -2.9563 0.9573
-0.5853 -10.4961 -2.9577 0.9573
4.0080 -9.7530 -2.9667 0.9571
4.8637 -9.3643 -2.9689 0.9571
5.6820 -8.9008 -2.9711 0.9571
2.5861 -2.7960 -1.0716 0.9843
2.6439 -1.9939 -0.9317 0.9863
3.2140 -1.2791 -0.9733 0.9857
3.6380 -1.0842 -1.0681 0.9843
10.4215 -2.1183 -2.9921 0.9568
10.5764 -1.1831 -2.9943 0.9567
10.5253 1.6550 -2.9978 0.9567
9.7176 4.3786 -2.9988 0.9567
9.2904 5.2268 -2.9992 0.9567
8.2185 6.7928 -2.9999 0.9567
7.5821 7.4981 -3.0002 0.9567
6.1339 8.7255 -3.0009 0.9566
5.0623 8.7683 -2.8486 0.9588
4.2622 9.1848 -2.8489 0.9588
2.4878 6.9149 -2.0676 0.9699
2.5706 9.8119 -2.8538 0.9587
-0.1130 10.1454 -2.8547 0.9587
-1.0157 10.0963 -2.8550 0.9587
-2.7883 9.7513 -2.8535 0.9587
-4.7068 9.5781 -3.0027 0.9566
-6.3302 8.5914 -3.0025 0.9566
-8.9286 5.8409 -3.0019 0.9566
-10.3962 -2.3555 -2.9992 0.9567
-10.1441 -3.2710 -2.9988 0.9567
-9.4011 -5.0166 -2.9981 0.9567
-8.3527 -6.5960 -2.9945 0.9567
-7.6308 -7.2172 -2.9552 0.9573
-5.4480 -8.9686 -2.9525 0.9573
-4.6288 -9.4193 -2.9529 0.9573
-3.7730 -9.7964 -2.9536 0.9573
-2.8870 -10.0966 -2.9546 0.9573
-1.9777 -10.3174 -2.9557 0.9573
-0.1171 -10.5144 -2.9585 0.9572
0.8196 -10.4888 -2.9601 0.9572
5.2779 -9.1417 -2.9700 0.9571
6.0752 -8.6421 -2.9722 0.9571
2.6000 -2.1489 -0.9490 0.9861
2.7053 -1.8571 -0.9232 0.9865
3.0706 -1.3836 -0.9476 0.9861
10.5094 -1.6525 -2.9932 0.9568
10.6222 -0.7110 -2.9953 0.9567
9.0490 5.6357 -2.9994 0.9567
8.5124 6.4195 -2.9997 0.9567
5.7393 8.9905 -3.0010 0.9566
3.8490 9.3660 -2.8490 0.9588
3.0020 9.6772 -2.8507 0.9588
2.1310 9.9171 -2.8539 0.9587
1.2400 10.0682 -2.8542 0.9587
-2.3520 9.8694 -2.8546 0.9587
-4.0584 9.2818 -2.8502 0.9588
-8.0713 6.9795 -3.0022 0.9566
-8.6599 6.2330 -3.0020 0.9566
-9.1796 5.4371 -3.0018 0.9566
-9.6264 4.5981 -3.0016 0.9566
-10.4962 1.8910 -3.0007 0.9567
-10.0206 -0.0000 -3.0000 0.9590
-9.6613 -2.6465 -2.9990 0.9590
-9.3863 -3.4955 -2.9986 0.9590
-7.5063 -6.4910 -2.9709 0.9594
-6.2007 -7.6747 -2.9539 0.9596
-5.4932 -8.1964 -2.9540 0.9596
-4.7423 -8.6536 -2.9542 0.9596
-2.2893 -9.6062 -2.9565 0.9596
-0.5502 -9.8681 -2.9589 0.9596
1.2094 -9.8194 -2.9619 0.9595
2.0798 -9.6783 -2.9637 0.9595
3.7675 -9.1678 -2.9674 0.9595
4.5716 -8.8020 -2.9694 0.9594
5.3406 -8.3660 -2.9714 0.9594
6.0684 -7.8630 -2.9736 0.9594
2.6405 -2.8549 -1.1642 0.9839
2.5853 -2.3383 -1.0436 0.9856
2.6608 -2.0066 -0.9977 0.9862
2.7919 -1.7388 -0.9847 0.9864
2.9758 -1.5037 -0.9982 0.9862
3.2365 -1.2881 -1.0429 0.9856
9.7916 -1.9902 -2.9914 0.9591
9.9367 -1.1116 -2.9934 0.9591
10.0026 -0.2229 -2.9953 0.9591
7.1254 7.0465 -3.0001 0.9590
5.7643 8.1998 -3.0007 0.9590
1.5857 9.4006 -2.8541 0.9610
0.7427 9.5050 -2.8543 0.9610
-0.9545 9.4882 -2.8549 0.9610
-4.4231 9.0007 -3.0024 0.9590
-6.6434 7.5118 -3.0022 0.9590
-7.2853 6.8904 -3.0021 0.9590
-8.8452 4.7199 -3.0015 0.9590
-9.7753 2.2148 -3.0007 0.9590
-10.0112 0.4464 -3.0001 0.9590
-10.0101 -0.4464 -2.9998 0.9590
-9.9295 -1.3354 -2.9995 0.9590
-9.7702 -2.2137 -2.9991 0.9590
-9.5333 -3.0741 -2.9988 0.9590
-9.2208 -3.9100 -2.9985 0.9590
-7.1809 -6.7916 -2.9590 0.9596
-4.3524 -8.8569 -2.9544 0.9596
-3.5476 -9.2110 -2.9551 0.9596
-1.8594 -9.7005 -2.9570 0.9596
-0.9891 -9.8316 -2.9582 0.9596
-0.1101 -9.8852 -2.9596 0.9596
0.7705 -9.8608 -2.9611 0.9595
3.3543 -9.3235 -2.9664 0.9595
5.7100 -8.1227 -2.9725 0.9594
6.4149 -7.5876 -2.9746 0.9594
2.5785 -2.5500 -1.0857 0.9850
2.7216 -1.8683 -0.9883 0.9863
3.0915 -1.3930 -1.0152 0.9859
9.6898 -2.4236 -2.9903 0.9592
9.9796 -0.6680 -2.9944 0.9591
9.9508 1.1132 -2.9976 0.9591
9.8133 1.9946 -2.9980 0.9590
9.3062 3.7038 -2.9987 0.9590
7.9998 6.0329 -2.9997 0.9590
6.8048 7.3573 -3.0003 0.9590
6.1236 7.9345 -3.0006 0.9590
5.3935 8.4489 -3.0009 0.9590
2.8195 9.0893 -2.8491 0.9610
2.0028 9.3203 -2.8540 0.9610
1.1654 9.4621 -2.8542 0.9610
0.3186 9.5291 -2.8544 0.9610
-1.3763 9.4367 -2.8551 0.9610
-3.0240 9.0321 -2.8515 0.9610
-3.8135 8.7219 -2.8498 0.9610
-5.5831 8.3306 -3.0023 0.9590
-6.3023 7.8004 -3.0022 0.9590
-6.9712 7.2082 -3.0021 0.9590
-8.1380 5.8574 -3.0018 0.9590
-9.3942 3.4984 -3.0011 0.9590
-9.6674 2.6482 -3.0009 0.9590
-9.8638 1.7771 -3.0006 0.9590
-8.8483 -3.2952 -2.9986 0.9611
-7.6609 -5.5140 -2.9977 0.9612
-7.0984 -6.1383 -2.9803 0.9614
-6.4695 -6.6894 -2.9555 0.9617
-5.8482 -7.2384 -2.9553 0.9617
-5.1809 -7.7304 -2.9554 0.9617
-4.4726 -8.1615 -2.9557 0.9617
-3.7291 -8.5285 -2.9561 0.9617
-1.3445 -9.2188 -2.9587 0.9617
-0.5189 -9.3058 -2.9600 0.9616
0.3116 -9.3193 -2.9613 0.9616
1.1404 -9.2593 -2.9628 0.9616
1.9610 -9.1260 -2.9644 0.9616
2.7671 -8.9204 -2.9662 0.9616
4.3103 -8.2988 -2.9698 0.9615
5.0351 -7.8873 -2.9718 0.9615
5.7209 -7.4129 -2.9738 0.9615
2.6781 -2.0196 -1.0653 0.9860
2.9944 -1.5132 -1.0655 0.9860
3.2739 -1.3030 -1.1191 0.9853
9.2283 -1.8757 -2.9907 0.9612
9.3646 -1.0476 -2.9926 0.9612
9.4264 -0.2101 -2.9944 0.9612
9.4130 0.6301 -2.9961 0.9612
9.3244 1.4662 -2.9977 0.9612
9.1584 2.2907 -2.9982 0.9612
8.9192 3.0971 -2.9985 0.9611
8.6090 3.8790 -2.9988 0.9611
8.2305 4.6304 -2.9991 0.9611
5.4337 7.7295 -3.0006 0.9611
4.7245 8.1831 -3.0009 0.9611
2.4877 6.9148 -2.3338 0.9696
2.2774 8.6926 -2.8538 0.9630
1.4949 8.8620 -2.8542 0.9630
-1.6915 8.8244 -2.8535 0.9630
-2.4686 8.6333 -2.8517 0.9630
-4.1692 8.4842 -3.0022 0.9611
-4.9078 8.0793 -3.0022 0.9611
-5.6073 7.6102 -3.0021 0.9611
-7.9091 5.1739 -3.0015 0.9611
-8.9930 2.8999 -3.0009 0.9611
-9.2146 2.0878 -3.0006 0.9611
-9.3630 1.2592 -3.0003 0.9611
-9.4370 0.4208 -3.0000 0.9611
-9.4361 -0.4208 -2.9997 0.9611
-9.3602 -1.2589 -2.9994 0.9611
-9.2101 -2.0867 -2.9991 0.9611
-8.9868 -2.8979 -2.9988 0.9611
-8.6923 -3.6858 -2.9985 0.9612
-8.3288 -4.4444 -2.9981 0.9612
-7.8994 -5.1675 -2.9978 0.9612
-6.1649 -6.9708 -2.9554 0.9617
-5.5200 -7.4918 -2.9554 0.9617
-4.8315 -7.9538 -2.9555 0.9617
-4.1049 -8.3533 -2.9559 0.9617
-3.3457 -8.6871 -2.9564 0.9617
-0.9327 -9.2714 -2.9593 0.9616
0.7266 -9.2985 -2.9621 0.9616
2.3663 -9.0321 -2.9653 0.9616
2.6384 -2.1807 -1.0871 0.9857
2.7382 -1.8797 -1.0548 0.9862
3.1179 -1.4049 -1.0861 0.9857
3.4895 -1.2117 -1.1731 0.9846
9.1325 -2.2842 -2.9897 0.9613
9.3057 -1.4632 -2.9917 0.9612
9.4291 0.2101 -2.9953 0.9612
9.2509 1.8803 -2.9980 0.9612
8.4281 4.2589 -2.9990 0.9611
7.5410 5.6870 -2.9996 0.9611
7.0057 6.3362 -2.9999 0.9611
6.4145 6.9353 -3.0002 0.9611
3.4095 8.2966 -2.8487 0.9631
1.0986 8.9200 -2.8543 0.9630
-2.0823 8.7375 -2.8526 0.9630
-3.7674 8.6162 -2.9865 0.9613
-4.5430 8.2900 -3.0022 0.9611
-5.2628 7.8526 -3.0021 0.9611
-6.5712 6.7946 -3.0019 0.9611
-7.1496 6.1826 -3.0018 0.9611
-7.6710 5.5213 -3.0016 0.9611
-8.1315 4.8163 -3.0014 0.9611
-8.5273 4.0731 -3.0012 0.9611
-8.8553 3.2978 -3.0010 0.9611
-9.4094 0.8408 -3.0002 0.9611
-8.9285 0.0000 -2.9998 0.9630
-8.8922 -0.7946 -2.9995 0.9630
-8.7853 -1.5827 -2.9992 0.9630
-8.3638 -3.1147 -2.9986 0.9630
-7.6775 -4.5474 -2.9980 0.9630
-6.1208 -6.3288 -2.9581 0.9635
-4.8994 -7.3103 -2.9567 0.9635
-2.7951 -8.3486 -2.9580 0.9635
-1.2713 -8.7170 -2.9597 0.9635
1.8541 -8.6283 -2.9651 0.9634
2.6161 -8.4337 -2.9668 0.9634
3.3584 -8.1720 -2.9685 0.9634
4.0748 -7.8454 -2.9703 0.9634
4.7599 -7.4562 -2.9721 0.9634
2.6585 -2.4045 -1.2043 0.9850
3.0309 -1.5316 -1.1410 0.9858
3.3204 -1.3215 -1.2007 0.9850
8.8497 -0.9900 -2.9919 0.9631
8.9078 -0.1985 -2.9936 0.9631
8.8949 0.5954 -2.9952 0.9631
8.8109 1.3855 -2.9967 0.9631
8.1376 3.6666 -2.9988 0.9630
7.3600 5.0524 -2.9994 0.9630
6.8818 5.6880 -2.9997 0.9630
5.1359 7.3060 -3.0005 0.9630
4.4657 7.7347 -3.0008 0.9630
3.5687 7.6904 -2.8485 0.9649
2.4877 6.9148 -2.4690 0.9695
2.1519 8.2138 -2.8528 0.9648
1.4130 8.3768 -2.8542 0.9648
-0.0947 8.4956 -2.8545 0.9648
-0.8503 8.4519 -2.8540 0.9648
-2.3328 8.1583 -2.8509 0.9648
-3.0481 7.9143 -2.8494 0.9648
-7.0111 5.5366 -3.0015 0.9630
-7.8807 4.2053 -3.0012 0.9630
-8.8501 1.1902 -3.0002 0.9630
-8.9201 0.3978 -3.0000 0.9630
-8.9192 -0.3977 -2.9997 0.9630
-8.8475 -1.1899 -2.9994 0.9630
-8.2163 -3.4840 -2.9985 0.9630
-7.8728 -4.2011 -2.9982 0.9630
-7.4669 -4.8846 -2.9979 0.9630
-6.4114 -6.0638 -2.9649 0.9634
-5.8299 -6.5920 -2.9567 0.9635
-3.8818 -7.8993 -2.9572 0.9635
-0.8820 -8.7667 -2.9603 0.9635
-0.0982 -8.8140 -2.9615 0.9635
0.6869 -8.7918 -2.9629 0.9635
1.4675 -8.7001 -2.9644 0.9635
2.2372 -8.5395 -2.9659 0.9634
4.4217 -7.6585 -2.9712 0.9634
5.0889 -7.2391 -2.9730 0.9633
5.7168 -6.7619 -2.9750 0.9633
2.6767 -2.6470 -1.2648 0.9842
2.6729 -2.2092 -1.1651 0.9855
2.7682 -1.9002 -1.1281 0.9859
2.9252 -1.6457 -1.1277 0.9859
3.1609 -1.4242 -1.1648 0.9855
8.6308 -2.1587 -2.9891 0.9632
8.8876 -0.5949 -2.9928 0.9631
8.9102 0.1986 -2.9944 0.9631
8.8618 0.9913 -2.9960 0.9631
8.5524 2.5489 -2.9983 0.9630
8.2924 3.3003 -2.9986 0.9630
7.9665 4.0257 -2.9990 0.9630
7.1280 5.3755 -2.9995 0.9630
6.6219 5.9892 -2.9998 0.9630
4.8056 7.5278 -3.0006 0.9630
3.9177 7.5429 -2.8557 0.9648
3.2243 7.8459 -2.8500 0.9648
1.7844 8.3037 -2.8536 0.9648
1.0385 8.4318 -2.8544 0.9648
-2.6931 8.0437 -2.8500 0.9648
-3.5796 8.1867 -3.0020 0.9630
-4.2940 7.8355 -3.0020 0.9630
-5.6150 6.9497 -3.0019 0.9630
-6.7577 5.8436 -3.0016 0.9630
-7.2506 5.2186 -3.0015 0.9630
-7.6858 4.5523 -3.0013 0.9630
-8.0600 3.8499 -3.0011 0.9630
-8.3700 3.1170 -3.0009 0.9630
-8.6136 2.3595 -3.0006 0.9630
-8.7886 1.5834 -3.0004 0.9630
-8.8939 0.7948 -3.0001 0.9630
-8.4599 0.0000 -2.9998 0.9647
-8.3243 -1.4997 -2.9992 0.9647
-7.9250 -2.9513 -2.9986 0.9647
-6.3867 -5.5228 -2.9939 0.9648
-5.8062 -6.0036 -2.9615 0.9652
-4.6442 -6.9296 -2.9579 0.9652
-2.6495 -7.9136 -2.9591 0.9652
-1.2050 -8.2625 -2.9608 0.9652
-0.4650 -8.3398 -2.9618 0.9652
0.2792 -8.3515 -2.9630 0.9652
1.7572 -8.1774 -2.9658 0.9651
3.1826 -7.7445 -2.9689 0.9651
5.1248 -6.6405 -2.9743 0.9650
2.7475 -2.0720 -1.2202 0.9855
8.0750 -2.4066 -2.9877 0.9649
8.3836 -0.9378 -2.9912 0.9648
8.4384 -0.1880 -2.9929 0.9648
8.4259 0.5641 -2.9944 0.9648
8.3461 1.3124 -2.9958 0.9648
8.1997 2.0509 -2.9971 0.9648
7.3715 4.1471 -2.9991 0.9647
6.5206 5.3894 -2.9996 0.9647
5.4627 6.4613 -3.0002 0.9647
4.2312 7.3287 -3.0006 0.9647
1.3383 7.9338 -2.8530 0.9664
0.6269 8.0230 -2.8535 0.9664
-0.8053 8.0052 -2.8529 0.9664
-3.0044 7.8007 -2.9641 0.9651
-3.7337 7.5979 -3.0018 0.9647
-5.6080 6.3411 -3.0016 0.9647
-7.0831 4.6336 -3.0012 0.9647
-7.4669 3.9845 -3.0010 0.9647
-7.7914 3.3038 -3.0008 0.9647
-8.0540 2.5971 -3.0006 0.9647
-8.2525 1.8697 -3.0004 0.9647
-8.4511 -0.3768 -2.9996 0.9647
-8.3832 -1.1274 -2.9993 0.9647
-8.0490 -2.5955 -2.9988 0.9647
-7.4598 -3.9807 -2.9982 0.9648
-7.0753 -4.6284 -2.9979 0.9648
-6.0830 -5.7532 -2.9688 0.9651
-4.9481 -6.7157 -2.9579 0.9652
-3.6796 -7.4878 -2.9583 0.9652
-2.9991 -7.7869 -2.9588 0.9652
-2.2946 -8.0246 -2.9595 0.9652
-0.0931 -8.3539 -2.9624 0.9652
0.6511 -8.3327 -2.9637 0.9651
1.3909 -8.2455 -2.9650 0.9651
3.5255 -7.5972 -2.9698 0.9651
4.1902 -7.2575 -2.9715 0.9651
4.8224 -6.8600 -2.9734 0.9650
5.4173 -6.4076 -2.9752 0.9650
2.7342 -2.7039 -1.3635 0.9838
2.7087 -2.2389 -1.2461 0.9852
2.9618 -1.6663 -1.2050 0.9857
8.1767 -2.0451 -2.9886 0.9649
8.3311 -1.3100 -2.9904 0.9648
8.4405 0.1881 -2.9936 0.9648
8.3944 0.9391 -2.9951 0.9648
8.2812 1.6832 -2.9964 0.9648
8.1018 2.4146 -2.9977 0.9648
7.5485 3.8144 -2.9989 0.9647
6.7539 5.0934 -2.9995 0.9647
5.7448 6.2113 -3.0000 0.9647
5.1696 6.6985 -3.0003 0.9647
3.8747 7.4601 -2.9808 0.9650
3.0544 7.4325 -2.8493 0.9665
0.2689 8.0431 -2.8536 0.9664
-0.4480 8.0343 -2.8533 0.9664
-3.3915 7.7567 -3.0018 0.9647
-4.0684 7.4240 -3.0018 0.9647
-4.7130 7.0323 -3.0018 0.9647
-6.8698 4.9446 -3.0013 0.9647
-7.2822 4.3133 -3.0011 0.9647
-7.9306 2.9534 -3.0007 0.9647
-8.4270 0.7530 -3.0000 0.9647
-8.0332 0.0000 -2.9997 0.9663
-8.0006 -0.7149 -2.9994 0.9663
-7.7457 -2.1218 -2.9989 0.9663
-6.9081 -4.0916 -2.9981 0.9663
-6.0718 -5.2505 -2.9974 0.9663
-3.8085 -6.9497 -2.9592 0.9667
-3.1753 -7.2620 -2.9596 0.9667
-1.1447 -7.8484 -2.9617 0.9667
0.2652 -7.9327 -2.9638 0.9667
0.9706 -7.8809 -2.9650 0.9667
1.6690 -7.7668 -2.9664 0.9666
3.0227 -7.3553 -2.9694 0.9666
4.2838 -6.7104 -2.9728 0.9666
5.4122 -5.8516 -2.9764 0.9665
2.7499 -2.4872 -1.3846 0.9843
3.1089 -1.5710 -1.3007 0.9852
7.6669 -2.2849 -2.9873 0.9664
8.0111 -0.1785 -2.9922 0.9664
7.7840 1.9469 -2.9962 0.9663
6.6221 4.5458 -2.9993 0.9663
6.1918 5.1177 -2.9996 0.9663
5.7122 5.6489 -2.9998 0.9663
4.0177 6.9589 -3.0005 0.9663
3.2205 6.9399 -2.8569 0.9679
2.4877 6.9147 -2.7441 0.9691
-0.0851 7.6380 -2.8523 0.9679
-6.7257 4.3998 -3.0011 0.9663
-7.3983 3.1372 -3.0007 0.9663
-7.6477 2.4661 -3.0005 0.9663
-8.0256 0.3579 -2.9998 0.9663
-8.0249 -0.3578 -2.9996 0.9663
-7.9605 -1.0706 -2.9993 0.9663
-6.3002 -4.9752 -2.9977 0.9663
-5.7878 -5.4741 -2.9748 0.9666
-5.2496 -5.9358 -2.9590 0.9667
-4.1142 -6.7729 -2.9591 0.9667
-2.1797 -7.6227 -2.9605 0.9667
-0.7940 -7.8929 -2.9622 0.9667
1.3210 -7.8316 -2.9657 0.9667
2.6913 -7.4806 -2.9686 0.9666
3.3483 -7.2153 -2.9703 0.9666
4.5798 -6.5149 -2.9737 0.9666
5.1446 -6.0850 -2.9755 0.9665
2.9997 -1.6876 -1.2852 0.9854
3.2521 -1.4653 -1.3319 0.9849
7.9097 -1.2437 -2.9899 0.9664
7.9932 -0.5351 -2.9914 0.9664
7.1680 3.6221 -2.9989 0.9663
6.8177 4.2461 -2.9992 0.9663
2.8997 7.0561 -2.8486 0.9680
2.2614 7.2901 -2.8502 0.9679
1.6042 7.4656 -2.8514 0.9679
-1.1020 7.5560 -2.8513 0.9679
-2.4276 7.2508 -2.8552 0.9679
-3.8631 7.0493 -3.0016 0.9663
-5.0516 6.2524 -3.0015 0.9663
-5.5879 5.7778 -3.0014 0.9663
-6.0797 5.2573 -3.0013 0.9663
-6.5232 4.6951 -3.0012 0.9663
-7.2515 3.4637 -3.0008 0.9663
-7.5305 2.8044 -3.0006 0.9663
-7.7497 2.1229 -3.0004 0.9663
-7.9072 1.4246 -3.0002 0.9663
-8.0020 0.7151 -2.9999 0.9663
-7.5206 -1.3549 -2.9991 0.9677
-6.8936 -3.2928 -2.9984 0.9677
-6.1995 -4.4621 -2.9978 0.9677
-5.7773 -4.9958 -2.9976 0.9677
-4.1988 -6.2651 -2.9600 0.9681
-3.6248 -6.6144 -2.9602 0.9681
-2.3953 -7.1544 -2.9611 0.9681
-1.7494 -7.3408 -2.9618 0.9681
-1.0894 -7.4695 -2.9626 0.9681
-0.4204 -7.5392 -2.9635 0.9681
0.2524 -7.5494 -2.9646 0.9681
2.2409 -7.2239 -2.9684 0.9680
2.8764 -6.9993 -2.9699 0.9680
3.4898 -6.7190 -2.9715 0.9680
4.0762 -6.3853 -2.9731 0.9680
4.6310 -6.0005 -2.9748 0.9680
5.1496 -5.5677 -2.9765 0.9679
2.8294 -2.1338 -1.3908 0.9849
2.9467 -1.8352 -1.3624 0.9852
3.5591 -1.4165 -1.5034 0.9837
7.5715 -0.8470 -2.9901 0.9678
7.6206 -0.1698 -2.9916 0.9678
7.5366 1.1851 -2.9942 0.9677
7.4040 1.8519 -2.9954 0.9677
7.2173 2.5062 -2.9985 0.9677
6.6598 3.7468 -2.9990 0.9677
5.8910 4.8690 -2.9995 0.9677
4.9351 5.8373 -3.0000 0.9677
2.4571 6.8297 -2.8486 0.9693
1.8403 7.0243 -2.8499 0.9693
1.2081 7.1624 -2.8507 0.9693
-0.0809 7.2643 -2.8512 0.9693
-0.7271 7.2271 -2.8507 0.9693
-1.3670 7.1315 -2.8499 0.9693
-1.9957 6.9793 -2.8490 0.9693
-2.7487 7.1368 -3.0015 0.9677
-3.3730 6.8637 -3.0015 0.9677
-4.5363 6.1568 -3.0014 0.9677
-5.0662 5.7284 -3.0013 0.9677
-5.5558 5.2546 -3.0012 0.9677
-6.7456 3.5996 -3.0008 0.9677
-7.0388 2.9847 -3.0006 0.9677
-7.2761 2.3462 -3.0004 0.9677
-7.4555 1.6892 -3.0002 0.9677
-7.5757 1.0188 -3.0000 0.9677
-7.6357 0.3405 -2.9998 0.9677
-7.4525 -1.6885 -2.9990 0.9677
-7.2720 -2.3449 -2.9987 0.9677
-7.0338 -2.9826 -2.9985 0.9677
-6.7398 -3.5965 -2.9982 0.9677
-5.9943 -4.7337 -2.9977 0.9677
-4.9975 -5.6507 -2.9606 0.9681
-3.9157 -6.4461 -2.9601 0.9681
-1.4208 -7.4125 -2.9621 0.9681
3.7866 -6.5587 -2.9723 0.9680
4.3578 -6.1991 -2.9740 0.9680
5.3941 -5.3343 -2.9774 0.9679
7.1875 -2.4958 -2.9861 0.9678
7.6036 -0.5090 -2.9909 0.9678
7.0989 2.8253 -2.9986 0.9677
6.8198 3.4462 -2.9989 0.9677
6.4866 4.0399 -2.9992 0.9677
6.1018 4.6016 -2.9994 0.9677
2.7585 6.7125 -2.8482 0.9693
2.1509 6.9340 -2.8493 0.9693
0.8880 7.2098 -2.8510 0.9693
0.2428 7.2607 -2.8512 0.9693
-0.4044 7.2530 -2.8510 0.9693
-1.0481 7.1866 -2.8504 0.9693
-3.0639 7.0072 -3.0015 0.9677
-3.6753 6.7067 -3.0015 0.9677
-4.2576 6.3528 -3.0015 0.9677
-4.8060 5.9485 -3.0014 0.9677
-5.7842 5.0018 -3.0012 0.9677
-6.5787 3.8966 -3.0009 0.9677
-7.5230 1.3553 -3.0001 0.9677
-7.6132 0.6803 -2.9999 0.9677
-7.2844 0.0000 -2.9996 0.9690
-7.0239 -1.9240 -2.9989 0.9690
-6.2645 -3.7104 -2.9981 0.9690
-5.9089 -4.2529 -2.9979 0.9690
-5.0120 -5.1824 -2.9688 0.9693
-0.4008 -7.1874 -2.9643 0.9693
0.8806 -7.1498 -2.9664 0.9693
1.5141 -7.0460 -2.9676 0.9693
2.1362 -6.8863 -2.9690 0.9693
2.7419 -6.6721 -2.9704 0.9693
3.3266 -6.4047 -2.9719 0.9693
3.8854 -6.0864 -2.9734 0.9692
4.4141 -5.7195 -2.9750 0.9692
4.9084 -5.3069 -2.9767 0.9692
2.9729 -2.6889 -1.6506 0.9828
3.6961 -1.4710 -1.6381 0.9829
6.9508 -2.0715 -2.9866 0.9691
7.1112 -1.4454 -2.9881 0.9691
7.2152 -0.8071 -2.9896 0.9691
7.2618 -0.1618 -2.9910 0.9691
7.2505 0.4854 -2.9923 0.9691
7.0551 1.7646 -2.9946 0.9690
6.8789 2.3886 -2.9985 0.9690
6.6396 2.9917 -2.9988 0.9690
6.0049 4.1221 -2.9993 0.9690
5.6146 4.6406 -2.9995 0.9690
4.7036 5.5634 -2.9999 0.9690
3.6431 6.3101 -3.0004 0.9690
1.1511 6.8242 -2.8498 0.9705
0.5392 6.9004 -2.8501 0.9705
-1.3025 6.7951 -2.8490 0.9705
-1.9633 6.8660 -2.9406 0.9696
-3.7841 6.2294 -3.0013 0.9690
-4.3234 5.8678 -3.0013 0.9690
-4.8284 5.4596 -3.0012 0.9690
-6.4291 3.4307 -3.0007 0.9690
-6.7085 2.8447 -3.0005 0.9690
-6.9346 2.2362 -3.0003 0.9690
-7.1057 1.6099 -3.0001 0.9690
-7.2202 0.9711 -2.9999 0.9690
-7.2769 -0.3245 -2.9995 0.9690
-6.9309 -2.2349 -2.9987 0.9690
-6.7040 -2.8427 -2.9985 0.9690
-6.4238 -3.4278 -2.9982 0.9690
-6.0927 -3.9856 -2.9980 0.9690
-5.7133 -4.5118 -2.9978 0.9690
-4.7680 -5.3912 -2.9637 0.9693
-4.2652 -5.7888 -2.9609 0.9694
-3.7332 -6.1457 -2.9610 0.9694
-3.1717 -6.4542 -2.9613 0.9694
-0.7204 -7.1613 -2.9638 0.9693
-0.0802 -7.1994 -2.9647 0.9693
0.5611 -7.1805 -2.9658 0.9693
1.1984 -7.1049 -2.9670 0.9693
4.1538 -5.9089 -2.9742 0.9692
5.1413 -5.0844 -2.9775 0.9692
2.8932 -2.3913 -1.5456 0.9839
2.9423 -2.0198 -1.4696 0.9847
3.1128 -1.7512 -1.4707 0.9847
6.8498 -2.3785 -2.9858 0.9691
7.0380 -1.7603 -2.9874 0.9691
7.1704 -1.1275 -2.9889 0.9691
7.1254 1.4483 -2.9941 0.9690
6.9782 2.0797 -2.9984 0.9690
6.5000 3.2846 -2.9989 0.9690
6.1823 3.8504 -2.9991 0.9690
5.8156 4.3857 -2.9994 0.9690
4.9466 5.3482 -2.9998 0.9690
4.4513 5.7676 -3.0001 0.9690
3.3585 6.4663 -3.0005 0.9690
2.7177 6.6132 -2.9442 0.9695
0.8460 6.8692 -2.8500 0.9705
0.2313 6.9177 -2.8502 0.9705
-0.9987 6.8474 -2.8494 0.9705
-2.9200 6.6783 -3.0014 0.9690
-3.5028 6.3918 -3.0014 0.9690
-4.5805 5.6693 -3.0013 0.9690
-5.0667 5.2390 -3.0012 0.9690
-5.5127 4.7670 -3.0011 0.9690
-6.8284 2.5429 -3.0004 0.9690
-7.1701 1.2918 -3.0000 0.9690
-6.9256 -0.6189 -2.9993 0.9702
-6.8425 -1.2327 -2.9991 0.9702
-6.7051 -1.8367 -2.9989 0.9702
-6.5145 -2.4260 -2.9986 0.9702
-6.2722 -2.9960 -2.9984 0.9702
-5.6408 -4.0600 -2.9979 0.9702
-4.7918 -4.9547 -2.9732 0.9704
-4.3150 -5.3407 -2.9617 0.9705
-3.8226 -5.7037 -2.9618 0.9705
-1.5926 -6.6827 -2.9634 0.9705
-0.9917 -6.7996 -2.9641 0.9705
-0.3827 -6.8629 -2.9649 0.9705
0.8408 -6.8267 -2.9670 0.9705
2.0396 -6.5749 -2.9694 0.9705
2.6178 -6.3701 -2.9708 0.9704
3.1760 -6.1148 -2.9722 0.9704
3.7095 -5.8108 -2.9737 0.9704
5.1209 -4.6316 -2.9784 0.9704
2.9815 -2.2485 -1.6108 0.9839
3.0888 -1.9237 -1.5697 0.9843
3.3259 -1.6806 -1.6074 0.9839
6.4290 -2.5587 -2.9848 0.9703
6.6346 -1.9773 -2.9863 0.9703
6.9202 0.4633 -2.9917 0.9702
6.8541 1.0778 -2.9929 0.9702
6.5667 2.2802 -2.9985 0.9702
6.3382 2.8559 -2.9988 0.9702
5.7323 3.9350 -2.9992 0.9702
5.3597 4.4299 -2.9995 0.9702
3.9998 5.6898 -3.0001 0.9702
-0.0736 6.6048 -2.8492 0.9716
-0.6611 6.5713 -2.8489 0.9716
-1.9128 6.6896 -3.0013 0.9701
-4.1270 5.6013 -3.0012 0.9701
-4.6091 5.2116 -3.0011 0.9701
-5.8215 3.8083 -3.0008 0.9701
-6.4039 2.7155 -3.0004 0.9702
-6.8924 0.9270 -2.9999 0.9702
-6.9471 0.3098 -2.9997 0.9702
-6.9466 -0.3098 -2.9994 0.9702
-6.7806 -1.5363 -2.9990 0.9702
-6.6164 -2.1335 -2.9987 0.9702
-3.5648 -5.8684 -2.9618 0.9705
-2.4684 -6.4089 -2.9625 0.9705
-1.8885 -6.6044 -2.9630 0.9705
-1.2934 -6.7478 -2.9637 0.9705
-0.6879 -6.8380 -2.9645 0.9705
-0.0766 -6.8742 -2.9654 0.9705
1.7443 -6.6577 -2.9688 0.9705
2.3309 -6.4789 -2.9701 0.9705
3.4461 -5.9687 -2.9730 0.9704
3.9656 -5.6412 -2.9745 0.9704
3.0253 -2.5005 -1.6931 0.9830
3.0155 -2.0700 -1.5778 0.9842
3.1919 -1.7957 -1.5798 0.9842
6.5383 -2.2703 -2.9855 0.9703
6.8440 -1.0761 -2.9885 0.9703
6.9158 -0.4629 -2.9898 0.9703
6.6615 1.9854 -2.9984 0.9702
6.2049 3.1355 -2.9989 0.9702
5.5516 4.1866 -2.9993 0.9702
3.7425 5.8625 -3.0002 0.9702
2.6441 6.4339 -3.0005 0.9702
1.9643 6.3324 -2.8599 0.9715
-0.9531 6.5348 -2.8487 0.9716
-2.7874 6.3750 -3.0013 0.9701
-4.3724 5.4118 -3.0011 0.9701
-5.6462 4.0639 -3.0008 0.9701
-5.9853 3.5451 -3.0007 0.9702
-6.7081 1.8375 -3.0002 0.9702
-6.9266 0.6190 -2.9998 0.9702
-6.6476 0.0000 -2.9995 0.9712
-6.5413 -1.1785 -2.9991 0.9713
-6.2278 -2.3192 -2.9986 0.9713
-5.9962 -2.8641 -2.9984 0.9713
-5.7171 -3.3862 -2.9982 0.9713
-4.5898 -4.7458 -2.9791 0.9714
-3.6553 -5.4541 -2.9625 0.9716
-3.1555 -5.7581 -2.9627 0.9716
-2.6308 -6.0168 -2.9630 0.9716
-1.5228 -6.3901 -2.9641 0.9716
-0.3659 -6.5622 -2.9656 0.9716
0.8039 -6.5274 -2.9676 0.9716
1.3822 -6.4324 -2.9687 0.9715
1.9501 -6.2864 -2.9699 0.9715
2.5030 -6.0906 -2.9712 0.9715
3.0365 -5.8463 -2.9726 0.9715
3.5465 -5.5555 -2.9740 0.9715
4.8956 -4.4278 -2.9785 0.9714
3.1438 -2.3708 -1.7767 0.9829
3.2052 -1.9962 -1.7038 0.9836
6.3420 -1.8901 -2.9860 0.9714
6.5827 -0.7364 -2.9887 0.9714
6.6144 0.4428 -2.9912 0.9713
6.5512 1.0301 -2.9923 0.9713
6.4372 1.6101 -2.9940 0.9713
6.2777 2.1799 -2.9985 0.9713
5.4800 3.7618 -2.9992 0.9713
4.7269 4.6745 -2.9996 0.9712
3.3246 5.7583 -3.0002 0.9712
2.7990 6.0317 -3.0004 0.9712
1.6343 6.2382 -2.9098 0.9721
0.4918 6.2935 -2.8484 0.9727
-0.0703 6.3125 -2.8485 0.9727
-1.2412 6.4751 -2.9749 0.9715
-4.4061 4.9820 -3.0010 0.9712
-6.1218 2.5959 -3.0004 0.9712
-6.4844 1.4692 -3.0000 0.9712
-6.5890 0.8861 -2.9998 0.9712
-6.5875 -0.8859 -2.9992 0.9713
-6.4821 -1.4686 -2.9990 0.9713
-6.1180 -2.5943 -2.9985 0.9713
-5.8624 -3.1283 -2.9983 0.9713
-5.5603 -3.6374 -2.9981 0.9713
-4.8260 -4.5644 -2.9973 0.9713
-2.8960 -5.8932 -2.9629 0.9716
-1.8058 -6.3153 -2.9638 0.9716
-1.2368 -6.4523 -2.9644 0.9716
-0.6578 -6.5385 -2.9652 0.9716
-0.0732 -6.5730 -2.9660 0.9716
2.7724 -5.9744 -2.9719 0.9715
4.6923 -4.6403 -2.9777 0.9715
5.0893 -4.2064 -2.9792 0.9714
3.1368 -2.1533 -1.7168 0.9834
3.3250 -1.8706 -1.7214 0.9834
6.0290 -2.7165 -2.9838 0.9714
6.4214 -1.6061 -2.9867 0.9714
6.5419 -1.0287 -2.9881 0.9714
6.6104 -0.4425 -2.9894 0.9713
6.6263 0.1477 -2.9906 0.9713
6.4999 1.3212 -2.9928 0.9713
5.6419 3.5138 -2.9991 0.9713
4.9302 4.4591 -2.9995 0.9712
3.5777 5.6043 -3.0001 0.9712
1.9555 6.3038 -2.9781 0.9715
1.3320 6.1984 -2.8607 0.9726
0.2109 6.3093 -2.8484 0.9727
-3.7028 5.5250 -3.0011 0.9712
-4.1798 5.1734 -3.0010 0.9712
-5.0306 4.3501 -3.0008 0.9712
-5.3976 3.8849 -3.0007 0.9712
-5.7217 3.3889 -3.0006 0.9712
-6.0003 2.8661 -3.0004 0.9712
-6.2312 2.3205 -3.0003 0.9712
-6.4127 1.7566 -3.0001 0.9712
-6.2615 -1.1281 -2.9990 0.9723
-6.1358 -1.6808 -2.9988 0.9723
-5.4726 -3.2414 -2.9982 0.9723
-4.8105 -4.1598 -2.9978 0.9723
-2.5189 -5.7608 -2.9638 0.9726
-1.9964 -5.9630 -2.9642 0.9726
-1.4580 -6.1182 -2.9647 0.9726
1.3233 -6.1583 -2.9691 0.9725
1.8669 -6.0184 -2.9703 0.9725
2.3962 -5.8308 -2.9715 0.9725
3.3951 -5.3183 -2.9742 0.9725
4.2883 -4.6365 -2.9771 0.9725
4.6863 -4.2385 -2.9785 0.9724
6.0702 -1.8091 -2.9857 0.9724
6.3406 -0.1413 -2.9896 0.9723
6.3305 0.4238 -2.9907 0.9723
6.2698 0.9859 -2.9918 0.9723
6.0092 2.0866 -2.9985 0.9723
5.8001 2.6134 -2.9987 0.9723
5.5448 3.1195 -2.9990 0.9723
4.5246 4.4745 -2.9996 0.9723
3.6601 5.2065 -3.0000 0.9722
3.1823 5.5120 -3.0001 0.9722
2.6792 5.7736 -3.0003 0.9722
2.1548 5.9895 -3.0004 0.9722
1.6133 6.1578 -3.0006 0.9722
0.4809 6.1539 -2.9097 0.9731
-0.6313 6.2753 -2.9729 0.9725
-1.1985 6.2526 -3.0010 0.9722
-1.7503 6.1212 -3.0010 0.9722
-2.2882 5.9411 -3.0010 0.9722
-2.8079 5.7139 -3.0010 0.9722
-4.2175 4.7688 -3.0009 0.9722
-4.9959 3.9452 -3.0007 0.9722
-5.6157 2.9967 -3.0004 0.9722
-6.0575 1.9533 -3.0001 0.9722
-6.2069 1.4063 -2.9999 0.9722
-6.3071 0.8482 -2.9998 0.9723
-6.3058 -0.8481 -2.9992 0.9723
-6.0546 -1.9524 -2.9987 0.9723
-5.8564 -2.4833 -2.9985 0.9723
-5.3226 -3.4818 -2.9981 0.9723
-4.6202 -4.3698 -2.9977 0.9723
-3.7289 -5.0609 -2.9632 0.9726
-2.7729 -5.6426 -2.9636 0.9726
-1.7290 -6.0466 -2.9644 0.9726
-1.1842 -6.1777 -2.9651 0.9726
2.1336 -5.9305 -2.9709 0.9725
2.6541 -5.7195 -2.9722 0.9725
3.1541 -5.4630 -2.9735 0.9725
4.0766 -4.8218 -2.9763 0.9725
4.4917 -4.4420 -2.9778 0.9725
4.8717 -4.0265 -2.9792 0.9724
5.5138 -3.1020 -2.9822 0.9724
5.7708 -2.6002 -2.9836 0.9724
6.1462 -1.5372 -2.9864 0.9724
6.2613 -0.9845 -2.9877 0.9724
6.3268 -0.4235 -2.9890 0.9723
6.0960 1.8168 -2.9984 0.9723
5.9105 2.3523 -2.9986 0.9723
5.6781 2.8693 -2.9989 0.9723
5.4006 3.3635 -2.9991 0.9723
5.0801 3.8311 -2.9993 0.9723
2.9337 5.6484 -3.0002 0.9722
2.4194 5.8874 -3.0004 0.9722
1.3267 6.1739 -2.9767 0.9725
0.7571 6.1474 -2.9196 0.9730
0.2061 6.1640 -2.9072 0.9731
-0.9188 6.2998 -3.0010 0.9722
-1.4759 6.1931 -3.0010 0.9722
-2.0212 6.0372 -3.0010 0.9722
-3.5444 5.2886 -3.0010 0.9722
-4.0009 4.9520 -3.0009 0.9722
-5.7435 2.7435 -3.0004 0.9722
-5.9646 2.2212 -3.0002 0.9722
-6.2632 1.1284 -2.9999 0.9722
-6.0008 -1.0811 -2.9990 0.9732
-5.5008 -2.6275 -2.9984 0.9732
-4.9471 -3.5607 -2.9980 0.9732
-4.6103 -3.9866 -2.9978 0.9732
-4.2293 -4.3730 -2.9922 0.9732
-3.7921 -4.6936 -2.9679 0.9735
-2.8962 -5.2848 -2.9641 0.9735
-1.3976 -5.8647 -2.9654 0.9735
0.7378 -5.9901 -2.9685 0.9735
1.2684 -5.9028 -2.9696 0.9734
2.2967 -5.5887 -2.9719 0.9734
3.6964 -4.7896 -2.9758 0.9734
4.4913 -4.0621 -2.9786 0.9734
4.8373 -3.6480 -2.9800 0.9734
5.4125 -2.7351 -2.9828 0.9733
5.8170 -1.7336 -2.9855 0.9733
6.0758 -0.1354 -2.9892 0.9733
6.0660 0.4061 -2.9903 0.9733
6.0078 0.9447 -2.9913 0.9733
5.9138 1.4792 -2.9983 0.9732
5.7591 1.9998 -2.9985 0.9732
5.5586 2.5046 -2.9987 0.9732
5.3140 2.9896 -2.9989 0.9732
4.7004 3.8850 -2.9993 0.9732
2.5676 5.5331 -3.0002 0.9732
2.0651 5.7400 -3.0004 0.9732
1.0147 6.0156 -3.0006 0.9732
-0.0680 6.1006 -3.0008 0.9732
-1.1486 5.9921 -3.0009 0.9732
-1.6774 5.8662 -3.0009 0.9732
-2.6909 5.4758 -3.0009 0.9732
-4.0418 4.5701 -3.0008 0.9732
-4.4324 4.1921 -3.0007 0.9732
-4.7878 3.7808 -3.0006 0.9732
-5.3818 2.8718 -3.0004 0.9732
-5.6158 2.3813 -3.0002 0.9732
-5.8051 1.8719 -3.0001 0.9732
-6.0444 0.8129 -2.9997 0.9732
-6.0923 0.2717 -2.9995 0.9732
-6.0920 -0.2716 -2.9993 0.9732
-5.9465 -1.3473 -2.9989 0.9732
-5.8025 -1.8711 -2.9987 0.9732
-5.6126 -2.3800 -2.9985 0.9732
-5.3781 -2.8698 -2.9983 0.9732
-4.7834 -3.7774 -2.9979 0.9732
-4.4279 -4.1879 -2.9977 0.9732
-4.0043 -4.5278 -2.9730 0.9734
-2.1663 -5.6246 -2.9646 0.9735
-1.6573 -5.7960 -2.9651 0.9735
1.0040 -5.9523 -2.9691 0.9735
1.5304 -5.8415 -2.9701 0.9734
2.0450 -5.6843 -2.9713 0.9734
3.4786 -4.9484 -2.9751 0.9734
4.3048 -4.2571 -2.9779 0.9734
5.5303 -2.4918 -2.9835 0.9733
6.0000 -0.9434 -2.9874 0.9733
6.0626 -0.4058 -2.9886 0.9733
6.0769 0.1354 -2.9897 0.9733
5.8422 1.7412 -2.9984 0.9732
5.6644 2.2544 -2.9986 0.9732
5.4417 2.7498 -2.9988 0.9732
5.1757 3.2235 -2.9990 0.9732
4.8686 3.6716 -2.9992 0.9732
3.7263 4.8283 -2.9998 0.9732
3.2820 5.1411 -3.0000 0.9732
2.8115 5.4131 -3.0002 0.9732
1.2816 5.9643 -3.0006 0.9732
0.7457 6.0550 -3.0007 0.9732
-0.8805 6.0373 -3.0009 0.9732
-3.3967 5.0682 -3.0009 0.9732
-4.2413 4.3855 -3.0007 0.9732
-5.2486 3.1088 -3.0004 0.9732
-5.8826 1.6114 -3.0000 0.9732
-6.0744 0.5428 -2.9996 0.9732
-5.8505 0.0000 -2.9994 0.9740
-5.2775 -2.5208 -2.9984 0.9741
-4.7463 -3.4162 -2.9980 0.9741
-4.0615 -4.1996 -2.9951 0.9741
-2.7792 -5.0713 -2.9647 0.9743
-0.3222 -5.7789 -2.9673 0.9743
0.1935 -5.7862 -2.9681 0.9743
0.7079 -5.7478 -2.9690 0.9743
1.2171 -5.6639 -2.9700 0.9743
2.2037 -5.3623 -2.9722 0.9743
2.6733 -5.1470 -2.9734 0.9743
3.1221 -4.8907 -2.9746 0.9743
3.5465 -4.5954 -2.9759 0.9742
3.9432 -4.2634 -2.9773 0.9742
4.3090 -3.8972 -2.9786 0.9742
4.6409 -3.4998 -2.9799 0.9742
4.9362 -3.0743 -2.9813 0.9742
5.1925 -2.6239 -2.9826 0.9742
5.7915 -0.6479 -2.9876 0.9741
5.8284 -0.1299 -2.9888 0.9741
5.7629 0.9062 -2.9908 0.9741
4.8230 3.3108 -2.9991 0.9740
4.1601 4.1140 -2.9995 0.9740
3.7776 4.4682 -2.9997 0.9740
2.4633 5.3084 -3.0002 0.9740
1.9812 5.5068 -3.0003 0.9740
1.4832 5.6615 -3.0004 0.9740
0.9735 5.7712 -3.0005 0.9740
0.4560 5.8352 -3.0006 0.9740
-0.0652 5.8527 -3.0007 0.9740
-0.5859 5.8238 -3.0008 0.9740
-1.1019 5.7486 -3.0008 0.9740
-1.6092 5.6278 -3.0008 0.9740
-2.5815 5.2533 -3.0008 0.9740
-4.2523 4.0218 -3.0006 0.9740
-4.5932 3.6273 -3.0005 0.9740
-4.8977 3.2039 -3.0004 0.9740
-5.1632 2.7552 -3.0003 0.9740
-5.3877 2.2846 -3.0001 0.9740
-5.7068 1.2930 -2.9998 0.9740
-5.8449 0.2606 -2.9995 0.9740
-5.8446 -0.2606 -2.9993 0.9740
-5.7978 -0.7797 -2.9991 0.9740
-5.7050 -1.2926 -2.9989 0.9740
-5.3847 -2.2833 -2.9985 0.9741
-5.1598 -2.7533 -2.9983 0.9741
-4.8939 -3.2014 -2.9981 0.9741
-4.5892 -3.6241 -2.9979 0.9741
-3.8475 -4.3504 -2.9775 0.9742
-3.4309 -4.6564 -2.9652 0.9743
-2.5506 -5.1903 -2.9649 0.9743
-1.0892 -5.6824 -2.9662 0.9743
-0.5793 -5.7581 -2.9669 0.9743
-0.0645 -5.7883 -2.9677 0.9743
0.4511 -5.7727 -2.9685 0.9743
1.4684 -5.6050 -2.9705 0.9743
1.9622 -5.4541 -2.9716 0.9743
2.4408 -5.2599 -2.9728 0.9743
2.9005 -5.0238 -2.9740 0.9743
3.3376 -4.7478 -2.9753 0.9743
4.1302 -4.0844 -2.9779 0.9742
4.4793 -3.7023 -2.9793 0.9742
4.7932 -3.2904 -2.9806 0.9742
5.0694 -2.8520 -2.9820 0.9742
5.3054 -2.3905 -2.9833 0.9742
5.7558 -0.9050 -2.9871 0.9741
5.8157 -0.3893 -2.9882 0.9741
5.8294 0.1299 -2.9893 0.9741
5.7967 0.6485 -2.9903 0.9741
5.7193 1.1625 -2.9921 0.9741
5.6050 1.6705 -2.9984 0.9741
5.4345 2.1629 -2.9986 0.9741
4.9655 3.0926 -2.9990 0.9740
3.9728 4.2954 -2.9996 0.9740
3.5749 4.6322 -2.9998 0.9740
2.6973 5.1932 -3.0001 0.9740
0.7154 5.8090 -3.0006 0.9740
0.1956 5.8498 -3.0007 0.9740
-0.3259 5.8441 -3.0007 0.9740
-0.8447 5.7920 -3.0008 0.9740
-1.3569 5.6939 -3.0008 0.9740
-2.3450 5.3631 -3.0008 0.9740
-3.6784 4.5529 -3.0007 0.9740
-4.7502 3.4190 -3.0005 0.9740
-5.0354 2.9825 -3.0004 0.9740
-5.2807 2.5224 -3.0002 0.9740
-5.4839 2.0422 -3.0001 0.9740
-5.5287 -0.9961 -2.9990 0.9748
-5.4178 -1.4841 -2.9988 0.9749
-5.2639 -1.9603 -2.9986 0.9749
-4.5581 -3.2807 -2.9980 0.9749
-2.6695 -4.8712 -2.9653 0.9751
-2.2255 -5.0899 -2.9656 0.9751
-0.3095 -5.5506 -2.9678 0.9751
2.5675 -4.9432 -2.9736 0.9751
2.9985 -4.6970 -2.9748 0.9750
4.1381 -3.7427 -2.9786 0.9750
4.4568 -3.3610 -2.9799 0.9750
4.7403 -2.9523 -2.9812 0.9750
5.5612 -0.6221 -2.9873 0.9749
5.5873 0.3740 -2.9894 0.9749
5.4487 1.3628 -2.9983 0.9749
4.8960 2.7544 -2.9989 0.9748
4.6317 3.1795 -2.9991 0.9748
3.9950 3.9508 -2.9995 0.9748
3.6277 4.2909 -2.9996 0.9748
2.8098 4.8667 -3.0000 0.9748
2.3656 5.0977 -3.0001 0.9748
0.9348 5.5422 -3.0005 0.9748
0.4379 5.6036 -3.0005 0.9748
-0.0626 5.6204 -3.0006 0.9748
-1.0582 5.5205 -3.0007 0.9748
-1.5453 5.4044 -3.0007 0.9748
-2.4791 5.0448 -3.0007 0.9748
-3.3342 4.5252 -3.0007 0.9748
-3.7236 4.2104 -3.0006 0.9748
-4.0835 3.8622 -3.0005 0.9748
-4.4109 3.4833 -3.0004 0.9748
-5.1739 2.1939 -3.0001 0.9748
-5.3484 1.7246 -2.9999 0.9748
-5.6130 0.2503 -2.9995 0.9748
-5.5678 -0.7488 -2.9991 0.9748
-5.3461 -1.7239 -2.9987 0.9749
-5.1711 -2.1928 -2.9985 0.9749
-4.0798 -3.8586 -2.9978 0.9749
-3.7028 -4.1868 -2.9838 0.9750
-1.5276 -5.3422 -2.9662 0.9751
-1.0462 -5.4580 -2.9668 0.9751
-0.5564 -5.5306 -2.9674 0.9751
0.9253 -5.4857 -2.9699 0.9751
2.3442 -5.0517 -2.9731 0.9751
3.2054 -4.5597 -2.9755 0.9750
3.6000 -4.2581 -2.9767 0.9750
3.9664 -3.9225 -2.9780 0.9750
4.3017 -3.5554 -2.9793 0.9750
4.6031 -3.1598 -2.9806 0.9750
4.8682 -2.7388 -2.9819 0.9750
5.3827 1.6042 -2.9984 0.9749
5.2189 2.0771 -2.9986 0.9749
4.4856 3.3827 -2.9992 0.9748
4.1670 3.7688 -2.9994 0.9748
3.0237 4.7366 -2.9999 0.9748
2.5903 4.9871 -3.0000 0.9748
1.6651 5.3679 -3.0003 0.9748
0.6870 5.5784 -3.0005 0.9748
0.1878 5.6176 -3.0006 0.9748
-1.3030 5.4679 -3.0007 0.9748
-1.7846 5.3302 -3.0007 0.9748
-2.2519 5.1502 -3.0007 0.9748
-2.7013 4.9293 -3.0007 0.9748
-3.5324 4.3721 -3.0006 0.9748
-5.2663 1.9612 -3.0000 0.9748
-5.4197 1.4846 -2.9999 0.9748
-5.4003 0.0000 -2.9993 0.9756
-5.3786 -0.4806 -2.9992 0.9756
-5.2075 -1.4265 -2.9988 0.9756
-5.0596 -1.8842 -2.9986 0.9756
-4.8715 -2.3269 -2.9984 0.9756
-4.3812 -3.1534 -2.9981 0.9756
-3.7523 -3.8798 -2.9977 0.9756
-3.3647 -4.1646 -2.9736 0.9758
-2.9728 -4.4358 -2.9657 0.9759
-2.1395 -4.8933 -2.9661 0.9759
0.1786 -5.3427 -2.9690 0.9758
1.1237 -5.2295 -2.9707 0.9758
1.5853 -5.1104 -2.9717 0.9758
2.0345 -4.9508 -2.9728 0.9758
2.4680 -4.7518 -2.9739 0.9758
2.8823 -4.5150 -2.9750 0.9758
3.2740 -4.2422 -2.9762 0.9758
3.6401 -3.9356 -2.9774 0.9758
4.5562 -2.8376 -2.9812 0.9757
5.1503 -1.5349 -2.9848 0.9757
5.3787 -0.1199 -2.9881 0.9757
5.3698 0.3595 -2.9890 0.9757
5.3181 0.8362 -2.9899 0.9757
5.2373 1.3099 -2.9984 0.9756
5.1002 1.7710 -2.9985 0.9756
4.7060 2.6475 -2.9989 0.9756
4.4519 3.0561 -2.9991 0.9756
3.8400 3.7974 -2.9994 0.9756
3.4869 4.1244 -2.9996 0.9756
2.2737 4.8998 -3.0000 0.9756
1.8287 5.0829 -3.0002 0.9756
1.3691 5.2257 -3.0003 0.9756
-0.5408 5.3755 -3.0006 0.9756
-1.0171 5.3061 -3.0006 0.9756
-1.4853 5.1946 -3.0007 0.9756
-1.9418 5.0417 -3.0007 0.9756
-3.2047 4.3495 -3.0006 0.9756
-3.9250 3.7122 -3.0005 0.9756
-4.2397 3.3480 -3.0004 0.9756
-4.5207 2.9573 -3.0003 0.9756
-4.7658 2.5431 -3.0002 0.9756
-4.9730 2.1087 -3.0000 0.9756
-5.1407 1.6577 -2.9999 0.9756
-5.3526 0.7199 -2.9996 0.9756
-5.3948 -0.2405 -2.9992 0.9756
-5.1387 -1.6570 -2.9987 0.9756
-4.7629 -2.5415 -2.9983 0.9756
-4.2363 -3.3453 -2.9980 0.9756
-3.9215 -3.7089 -2.9978 0.9756
-2.3553 -4.7929 -2.9660 0.9759
-1.4685 -5.1358 -2.9667 0.9759
-1.0058 -5.2470 -2.9672 0.9759
1.3558 -5.1751 -2.9712 0.9758
1.8117 -5.0356 -2.9722 0.9758
