ply
format ascii 1.0
element vertex 1592
property float32 x
property float32 y
property float32 z
property float32 I
end_header
5.6657 8.0596 5.4716 0.9559
3.9148 8.4361 5.1653 0.9583
6.0912 7.8925 5.5371 0.9554
3.5102 8.5415 5.1289 0.9586
-9.1030 -9.4125 6.9903 0.9424
7.0523 7.6249 5.5446 0.9540
2.7155 8.7539 4.8929 0.9593
1.8986 8.8356 4.8245 0.9599
-4.2725 -5.2881 3.4853 0.9699
7.5965 7.5123 5.4772 0.9531
1.9014 8.8482 4.4514 0.9605
1.9013 8.8481 4.2660 0.9608
-4.5785 -6.2140 3.4827 0.9667
-5.7824 -9.5192 5.0256 0.9523
1.9013 8.8480 4.0835 0.9611
-4.7688 -6.4723 3.4679 0.9656
1.9013 8.8479 3.7266 0.9616
1.9013 8.8478 3.5518 0.9619
-5.1337 -7.6600 3.2697 0.9616
5.6024 7.9695 3.4542 0.9595
-5.3302 -7.9532 3.2168 0.9604
4.3080 8.2943 3.1402 0.9613
4.3405 8.3570 2.9907 0.9612
3.4902 8.4929 2.9161 0.9622
1.9012 8.8475 2.8740 0.9627
10.0029 6.8666 3.6324 0.9506
3.0902 8.5893 2.7328 0.9626
3.5160 8.5558 2.7693 0.9621
2.6964 8.6924 2.7247 0.9627
1.9012 8.8473 2.3845 0.9633
-5.7942 -9.5386 2.7433 0.9551
1.9012 8.8472 2.2243 0.9634
-6.0589 -9.9743 2.6637 0.9532
1.9011 8.8471 1.9077 0.9637
1.9011 8.8470 1.7511 0.9638
8.1214 1.2770 1.3091 0.9672
1.9011 8.8469 1.4409 0.9640
7.5606 1.8910 1.1085 0.9690
1.9011 8.8468 1.2871 0.9641
7.3105 1.1495 0.9274 0.9706
7.5206 0.8413 0.9483 0.9700
7.2384 1.4713 0.9256 0.9707
7.6022 2.2657 0.9941 0.9685
7.6943 0.5151 0.8364 0.9694
7.1554 1.1251 0.7857 0.9713
7.1156 1.7797 0.7956 0.9709
7.3327 0.8203 0.8003 0.9707
7.0895 1.4410 0.7847 0.9713
7.2829 2.1705 0.8243 0.9699
1.9010 8.8467 0.9815 0.9642
7.0464 1.1080 0.6539 0.9718
7.0000 1.7508 0.6615 0.9714
7.6610 2.6602 0.7435 0.9679
7.1236 2.1231 0.6815 0.9706
6.9570 1.0939 0.5278 0.9721
7.9585 0.1773 0.5966 0.9686
7.0978 0.7940 0.5352 0.9718
7.0007 2.0864 0.5474 0.9711
6.8930 1.0839 0.4064 0.9724
7.1559 2.4848 0.4412 0.9701
7.7299 0.1723 0.4503 0.9695
7.0250 0.7859 0.4117 0.9721
7.0483 2.4474 0.3102 0.9706
7.5839 0.1690 0.3154 0.9701
6.7665 1.3754 0.2871 0.9727
1.9010 8.8465 0.3762 0.9644
6.7917 1.0679 0.1715 0.9729
6.7225 1.6814 0.1728 0.9727
6.7279 1.3675 0.1712 0.9729
6.7898 2.0236 0.1767 0.9720
1.9010 8.8464 0.2257 0.9644
7.0763 0.4737 0.0589 0.9720
6.7574 1.0625 0.0569 0.9730
6.8790 0.7695 0.0575 0.9727
6.6936 1.3605 0.0568 0.9730
7.4837 2.9784 0.0669 0.9683
6.6493 1.6631 -0.0570 0.9730
6.8677 2.3847 -0.0604 0.9713
7.3570 0.1640 -0.0612 0.9710
6.8428 0.7655 -0.0572 0.9728
6.6596 1.3536 -0.0565 0.9732
7.3368 2.9200 -0.0656 0.9689
6.7121 1.0554 -0.1694 0.9732
6.6372 1.6601 -0.1706 0.9730
7.3350 0.1635 -0.1830 0.9711
6.8309 0.7642 -0.1714 0.9729
1.9009 8.8462 -0.2256 0.9644
8.2153 -0.1831 -0.3417 0.9676
6.6259 1.6572 -0.2840 0.9730
6.8325 2.3725 -0.3007 0.9715
6.8192 0.7628 -0.2853 0.9729
6.6787 1.9905 -0.2898 0.9725
7.2408 2.8817 -0.3240 0.9693
8.2316 -0.1834 -0.4796 0.9675
6.6903 1.0520 -0.3945 0.9732
6.8210 2.3685 -0.4205 0.9715
6.6264 1.3469 -0.3938 0.9733
6.6678 1.9872 -0.4052 0.9725
1.9009 8.8461 -0.5270 0.9644
7.0100 0.4693 -0.5265 0.9722
6.7003 1.0536 -0.5083 0.9732
6.8390 2.3747 -0.5425 0.9714
6.8192 0.7628 -0.5142 0.9729
6.6364 1.3489 -0.5075 0.9732
1.9009 8.8460 -0.6781 0.9644
6.7115 1.0553 -0.6228 0.9731
7.3452 0.1637 -0.6736 0.9709
7.3334 2.9186 -0.7236 0.9688
6.7226 1.0571 -0.7381 0.9730
6.6496 1.6632 -0.7435 0.9728
6.8906 2.3927 -0.7912 0.9711
7.3912 0.1647 -0.8019 0.9707
6.6587 1.3534 -0.7370 0.9730
6.7114 2.0002 -0.7596 0.9722
7.4933 2.9822 -0.8748 0.9681
1.9009 8.8459 -0.9814 0.9643
7.0877 0.4745 -0.8902 0.9718
6.6880 1.6728 -0.8639 0.9726
6.8826 0.7699 -0.8679 0.9725
6.6936 1.3605 -0.8560 0.9728
1.9009 8.8458 -1.1338 0.9642
7.1326 0.4775 -1.0168 0.9715
6.7938 1.0683 -0.9782 0.9726
6.7298 1.3679 -0.9768 0.9726
1.9008 8.8458 -1.2869 0.9641
7.1202 2.4724 -1.2002 0.9699
-9.5941 -10.8483 -2.3061 0.9430
7.6952 0.1715 -1.2257 0.9693
6.7742 1.3769 -1.1007 0.9724
7.3149 0.4897 -1.2927 0.9707
6.9073 1.0861 -1.2329 0.9720
6.8431 1.3909 -1.2313 0.9720
1.9008 8.8457 -1.5953 0.9639
-12.6400 -7.4866 -2.8429 0.9419
-10.2091 -10.5561 -2.8419 0.9419
-8.1274 -12.1268 -2.8251 0.9423
-6.9906 -12.7561 -2.8149 0.9425
-4.5870 -13.7005 -2.7959 0.9428
-12.2980 -8.0450 -2.8439 0.9419
-10.6869 -10.1076 -2.8466 0.9418
-9.5473 -10.7953 -2.7889 0.9430
-8.6707 -11.7679 -2.8287 0.9422
-7.5663 -12.4558 -2.8203 0.9424
-3.9673 -13.8743 -2.7925 0.9429
7.1370 0.7984 -1.3897 0.9712
7.0717 2.1076 -1.4280 0.9704
-14.2204 0.0000 -2.9979 0.9435
-13.3168 -4.9592 -2.9958 0.9436
-12.8204 -6.1238 -2.9953 0.9436
-10.9436 -7.8767 -2.8426 0.9464
-7.4973 -11.1868 -2.8391 0.9464
-6.4811 -11.8265 -2.8431 0.9464
-5.4079 -12.3682 -2.8458 0.9463
-4.2713 -12.7577 -2.8363 0.9465
-3.0947 -12.9860 -2.8144 0.9469
-0.7749 -13.8973 -2.9344 0.9447
0.4654 -13.9184 -2.9359 0.9447
5.3067 -12.9131 -2.9433 0.9445
6.4404 -12.4000 -2.9458 0.9445
7.5255 -11.7885 -2.9485 0.9444
8.5534 -11.0829 -2.9514 0.9444
10.4054 -9.4111 -2.9578 0.9443
11.2147 -8.4574 -2.9612 0.9442
12.5667 -6.3502 -2.9683 0.9441
13.5117 -4.0269 -2.9724 0.9440
14.0438 -1.5710 -2.9792 0.9439
14.1438 -0.3152 -2.9825 0.9438
7.0960 1.1158 -1.5144 0.9711
10.9800 9.0752 -3.0031 0.9434
10.1300 10.0178 -3.0035 0.9434
9.1992 10.8808 -3.0039 0.9434
7.1255 12.3418 -3.0044 0.9434
4.8249 13.4112 -3.0048 0.9434
3.4287 13.0872 -2.8522 0.9462
2.2503 13.3407 -2.8522 0.9462
1.0553 13.5054 -2.8559 0.9461
-1.3559 13.4782 -2.8558 0.9461
-3.7243 13.0245 -2.8559 0.9461
-4.8687 12.6414 -2.8559 0.9461
-7.0329 11.5778 -2.8559 0.9461
-8.0354 10.9058 -2.8558 0.9461
-8.9689 10.1413 -2.8541 0.9462
-9.8248 9.2923 -2.8509 0.9462
-11.9144 7.7940 -3.0015 0.9435
-12.5587 6.7015 -3.0010 0.9435
-13.8754 3.1438 -2.9994 0.9435
-14.0975 1.8959 -2.9988 0.9435
-14.2076 0.6335 -2.9982 0.9435
-14.0896 -1.8948 -2.9971 0.9435
-13.8626 -3.1408 -2.9966 0.9436
-13.5256 -4.3614 -2.9961 0.9436
-12.5339 -6.6883 -2.9951 0.9436
-11.3673 -7.4361 -2.8637 0.9460
-8.9431 -10.1121 -2.8459 0.9463
-5.9537 -12.1154 -2.8459 0.9463
-1.3931 -13.8473 -2.9340 0.9447
1.0851 -13.8870 -2.9366 0.9446
2.3181 -13.7426 -2.9381 0.9446
5.8791 -12.6692 -2.9445 0.9445
8.0471 -11.4471 -2.9499 0.9444
9.0433 -10.6964 -2.9529 0.9443
12.8415 -5.7862 -2.9694 0.9440
13.6856 -3.4230 -2.9741 0.9440
13.9519 -2.1938 -2.9775 0.9439
14.1078 -0.9444 -2.9809 0.9438
14.1515 0.3154 -2.9842 0.9438
7.0316 1.4292 -1.5127 0.9711
7.2489 2.1604 -1.5946 0.9696
13.2095 5.2573 -2.9973 0.9435
12.7014 6.4183 -3.0002 0.9435
12.0891 7.5292 -3.0025 0.9434
11.3726 8.5766 -3.0029 0.9434
8.7058 11.2804 -3.0040 0.9434
5.4175 13.1827 -3.0047 0.9434
1.6538 13.4277 -2.8522 0.9462
0.4526 13.5384 -2.8558 0.9461
-4.3008 12.8457 -2.8559 0.9461
-7.5417 11.2530 -2.8559 0.9461
-9.4065 9.7263 -2.8526 0.9462
-10.2244 8.8414 -2.8496 0.9462
-12.2488 7.2550 -3.0012 0.9435
-12.8437 6.1349 -3.0007 0.9435
-13.3363 4.9665 -3.0002 0.9435
-13.7229 3.7591 -2.9996 0.9435
-14.0004 2.5223 -2.9991 0.9435
-14.1666 1.2659 -2.9985 0.9435
-12.9226 -2.3281 -2.9970 0.9476
-12.3011 -4.5810 -2.9960 0.9476
-8.6602 -8.9546 -2.8433 0.9502
-7.8316 -9.6932 -2.8443 0.9502
-5.9915 -10.9330 -2.8455 0.9501
-4.9927 -11.4186 -2.8445 0.9502
-3.9534 -11.8082 -2.8422 0.9502
-3.0283 -12.7074 -2.9816 0.9478
-1.8622 -12.7682 -2.9451 0.9484
-0.7165 -12.8491 -2.9373 0.9486
0.4301 -12.8654 -2.9381 0.9486
5.9531 -11.4618 -2.9479 0.9484
6.9556 -10.8958 -2.9504 0.9483
10.3620 -7.8143 -2.9622 0.9481
12.9690 -1.4508 -2.9786 0.9479
7.2446 1.1392 -1.6739 0.9704
12.3920 4.3030 -2.9941 0.9476
11.9708 5.3938 -2.9968 0.9476
10.8427 7.4431 -3.0018 0.9475
10.1407 8.3815 -3.0028 0.9475
8.4958 10.0489 -3.0035 0.9474
6.5806 11.3980 -3.0040 0.9474
5.5403 11.9392 -3.0041 0.9474
4.4559 12.3855 -3.0043 0.9474
3.1664 12.0862 -2.8517 0.9500
2.0782 12.3203 -2.8518 0.9500
0.9747 12.4739 -2.8558 0.9500
-0.1394 12.5107 -2.8557 0.9500
-1.2523 12.4488 -2.8557 0.9500
-2.3554 12.2880 -2.8557 0.9500
-5.5182 11.2293 -2.8558 0.9500
-7.4202 10.0709 -2.8552 0.9500
-10.3213 8.1506 -3.0017 0.9475
-11.0041 7.1986 -3.0013 0.9475
-12.5088 4.0336 -2.9998 0.9475
-13.1232 0.5852 -2.9983 0.9475
-12.0839 -5.1240 -2.9958 0.9476
-11.5782 -6.1783 -2.9953 0.9476
-10.9808 -7.1833 -2.9949 0.9476
-9.9338 -7.8446 -2.8890 0.9494
-9.0487 -8.5582 -2.8427 0.9502
-8.2542 -9.3332 -2.8438 0.9502
-7.3931 -10.0339 -2.8447 0.9501
-6.4722 -10.6547 -2.8454 0.9501
-5.4979 -11.1878 -2.8452 0.9501
-4.4774 -11.6254 -2.8434 0.9502
-3.4219 -11.9671 -2.8409 0.9502
-2.4454 -12.7575 -2.9648 0.9481
2.1431 -12.7053 -2.9409 0.9485
3.2673 -12.4713 -2.9426 0.9485
5.4345 -11.7109 -2.9467 0.9484
8.3575 -9.8853 -2.9546 0.9483
9.9982 -8.2638 -2.9606 0.9482
10.7049 -7.3485 -2.9636 0.9481
11.3240 -6.3708 -2.9656 0.9481
11.8538 -5.3411 -2.9675 0.9481
12.6399 -3.1614 -2.9738 0.9479
7.6886 2.2915 -1.8312 0.9676
12.1937 4.8530 -2.9955 0.9476
11.7238 5.9243 -2.9981 0.9475
10.5033 7.9209 -3.0026 0.9475
7.0815 11.0931 -3.0038 0.9474
6.0665 11.6802 -3.0041 0.9474
5.0031 12.1744 -3.0042 0.9474
3.8998 12.5720 -3.0044 0.9474
1.9008 8.8455 -2.0650 0.9636
0.4181 12.5047 -2.8557 0.9500
-3.9723 11.8646 -2.8558 0.9500
-5.0125 11.4640 -2.8558 0.9500
-6.0130 10.9723 -2.8557 0.9500
-8.6833 8.9785 -2.8509 0.9500
-10.6733 7.6822 -3.0015 0.9475
-11.8625 5.6663 -3.0006 0.9475
-12.6750 3.4721 -2.9996 0.9475
-12.1971 -0.0000 -2.9980 0.9510
-11.4232 -4.2540 -2.9962 0.9510
-9.8894 -7.1180 -2.9950 0.9510
-8.1021 -8.3775 -2.8647 0.9531
-7.2674 -8.9949 -2.8424 0.9535
-6.4396 -9.6085 -2.8431 0.9535
-3.6698 -10.9610 -2.8412 0.9535
-2.8230 -11.8458 -2.9932 0.9511
-1.7339 -11.8883 -2.9531 0.9517
-0.6659 -11.9417 -2.9398 0.9519
0.3997 -11.9564 -2.9405 0.9519
1.4628 -11.8775 -2.9415 0.9519
2.5154 -11.7055 -2.9429 0.9519
3.5499 -11.4439 -2.9452 0.9518
7.3441 -9.5160 -2.9546 0.9517
8.1687 -8.8319 -2.9571 0.9517
8.9289 -8.0757 -2.9592 0.9516
10.2337 -6.3736 -2.9634 0.9516
11.2236 -4.4669 -2.9692 0.9515
11.5881 -3.4536 -2.9722 0.9514
12.1133 0.8109 -2.9841 0.9512
7.4838 1.1768 -1.8621 0.9693
7.5984 1.9005 -1.9252 0.9683
11.1097 5.0058 -2.9951 0.9510
9.4131 7.7802 -3.0018 0.9509
8.6863 8.5901 -3.0028 0.9509
7.8881 9.3301 -3.0031 0.9509
6.1098 10.5825 -3.0036 0.9509
5.1439 11.0850 -3.0038 0.9509
4.1371 11.4993 -3.0039 0.9509
2.9399 11.2214 -2.8513 0.9533
0.9051 11.5829 -2.8558 0.9533
-0.1295 11.6169 -2.8556 0.9533
-6.0316 9.9293 -2.8556 0.9533
-6.8860 9.3458 -2.8534 0.9533
-7.6835 8.6879 -2.8508 0.9534
-9.5833 7.5679 -3.0015 0.9509
-10.2175 6.6840 -3.0011 0.9510
-10.7702 5.7472 -3.0006 0.9510
-11.6150 3.7454 -2.9997 0.9510
-11.9004 2.6963 -2.9992 0.9510
-12.1860 0.5434 -2.9983 0.9510
-12.1840 -0.5433 -2.9978 0.9510
-11.8909 -2.6941 -2.9969 0.9510
-11.2215 -4.7583 -2.9960 0.9510
-10.7520 -5.7374 -2.9956 0.9510
-10.1974 -6.6708 -2.9952 0.9510
-8.6704 -8.2004 -2.9334 0.9520
-6.0058 -9.8868 -2.8434 0.9535
-4.1555 -10.7896 -2.8420 0.9535
-2.2875 -11.9334 -2.9866 0.9512
-1.1989 -11.9176 -2.9441 0.9519
3.0353 -11.5856 -2.9439 0.9519
7.7641 -9.1834 -2.9559 0.9517
9.9349 -6.8199 -2.9620 0.9516
10.5126 -5.9143 -2.9649 0.9515
11.0080 -4.9600 -2.9678 0.9515
11.7363 -2.9354 -2.9736 0.9514
11.9628 -1.8810 -2.9766 0.9513
12.0949 -0.8096 -2.9796 0.9513
12.0711 1.3504 -2.9856 0.9512
11.6625 3.4758 -2.9912 0.9511
11.3168 4.5040 -2.9939 0.9511
10.8800 5.4979 -2.9964 0.9510
9.0599 8.1942 -3.0027 0.9509
8.2955 8.9690 -3.0030 0.9509
6.5749 10.2995 -3.0035 0.9509
5.6325 10.8445 -3.0037 0.9509
3.6208 11.6724 -3.0039 0.9509
0.3882 11.6116 -2.8557 0.9533
-0.6468 11.5995 -2.8556 0.9533
-1.6766 11.4960 -2.8556 0.9533
-3.6884 11.0167 -2.8556 0.9533
-4.6543 10.6447 -2.8556 0.9533
-6.4656 9.6474 -2.8546 0.9533
-7.2922 9.0257 -2.8521 0.9533
-8.0594 8.3333 -2.8495 0.9534
-9.9103 7.1330 -3.0013 0.9509
-10.5043 6.2217 -3.0009 0.9510
-11.4375 4.2594 -3.0000 0.9510
-11.7694 3.2240 -2.9995 0.9510
-12.0077 2.1633 -2.9990 0.9510
-12.1506 1.0858 -2.9985 0.9510
-11.3311 -1.0125 -2.9976 0.9540
-11.1943 -2.0167 -2.9972 0.9540
-10.9688 -3.0047 -2.9968 0.9540
-10.6564 -3.9685 -2.9964 0.9541
-5.1830 -9.4577 -2.8418 0.9564
-4.3310 -9.9053 -2.8487 0.9563
-3.6070 -10.7734 -2.9937 0.9541
-2.6337 -11.0514 -2.9936 0.9541
-1.6280 -11.1624 -2.9724 0.9544
-0.6218 -11.1510 -2.9429 0.9549
1.3655 -11.0874 -2.9436 0.9548
4.2525 -10.3479 -2.9479 0.9548
6.0278 -9.4423 -2.9518 0.9547
6.8493 -8.8749 -2.9540 0.9547
8.3278 -7.5320 -2.9588 0.9546
9.5480 -5.9465 -2.9639 0.9545
11.0635 -2.2488 -2.9749 0.9544
11.2306 -1.2563 -2.9777 0.9543
11.3087 -0.2520 -2.9806 0.9543
11.2969 0.7563 -2.9834 0.9542
10.7241 3.7238 -2.9913 0.9541
10.3583 4.6673 -2.9937 0.9541
9.9092 5.5748 -2.9959 0.9541
9.3801 6.4391 -2.9980 0.9540
7.3574 8.7025 -3.0028 0.9540
6.5542 9.3235 -3.0030 0.9540
5.6988 9.8705 -3.0032 0.9539
4.7979 10.3392 -3.0034 0.9539
3.8587 10.7256 -3.0035 0.9539
1.7996 10.6691 -2.8510 0.9562
-1.0847 10.7824 -2.8555 0.9562
-2.0401 10.6432 -2.8555 0.9562
-2.9793 10.4194 -2.8555 0.9562
-6.4200 8.7133 -2.8519 0.9562
-7.1716 8.1084 -2.8522 0.9562
-8.2763 7.8276 -3.0017 0.9540
-10.4821 4.4448 -3.0001 0.9540
-10.8345 3.4937 -2.9996 0.9540
-11.2789 1.5169 -2.9988 0.9540
-11.0926 -2.5132 -2.9970 0.9540
-10.4684 -4.4390 -2.9962 0.9541
-8.9205 -7.0444 -2.9951 0.9541
-6.5076 -8.8322 -2.8908 0.9556
-3.9603 -10.2827 -2.9035 0.9554
-0.1244 -11.1658 -2.9424 0.9549
1.8584 -11.0175 -2.9441 0.9548
2.8330 -10.8134 -2.9455 0.9548
3.7862 -10.5239 -2.9471 0.9548
4.7107 -10.1513 -2.9488 0.9548
6.4448 -9.1678 -2.9529 0.9547
7.2407 -8.5643 -2.9551 0.9547
7.9806 -7.8922 -2.9575 0.9546
8.6587 -7.1566 -2.9600 0.9546
9.2694 -6.3631 -2.9626 0.9546
9.8078 -5.5178 -2.9653 0.9545
10.9473 -2.7381 -2.9735 0.9544
11.1581 -1.7545 -2.9763 0.9544
11.3141 0.2522 -2.9820 0.9543
11.2572 1.2593 -2.9848 0.9542
10.1440 5.1260 -2.9948 0.9541
9.6544 6.0128 -2.9970 0.9540
7.7375 8.3657 -3.0027 0.9540
4.3326 10.5428 -3.0035 0.9539
3.3772 10.8870 -3.0036 0.9539
1.3226 10.7387 -2.8510 0.9562
-0.6033 10.8201 -2.8555 0.9562
-3.4405 10.2763 -2.8555 0.9562
-4.3415 9.9294 -2.8555 0.9562
-7.8429 8.1095 -2.9727 0.9544
-8.6162 7.4507 -3.0015 0.9540
-9.7982 5.8035 -3.0007 0.9540
-10.9786 3.0074 -2.9994 0.9540
-10.6122 -0.9483 -2.9977 0.9567
-10.4842 -1.8888 -2.9973 0.9567
-10.2731 -2.8141 -2.9969 0.9567
-9.9805 -3.7168 -2.9965 0.9567
-9.6090 -4.5898 -2.9961 0.9567
-8.6410 -6.2194 -2.9955 0.9567
-8.0523 -6.9631 -2.9952 0.9567
-5.1016 -9.3092 -2.9867 0.9568
-4.2633 -9.7504 -2.9941 0.9567
-3.3784 -10.0907 -2.9940 0.9567
-2.4668 -10.3511 -2.9939 0.9567
0.3497 -10.4601 -2.9447 0.9574
4.8346 -9.3083 -2.9511 0.9574
7.8013 -7.0559 -2.9595 0.9572
8.9434 -5.5700 -2.9644 0.9572
10.1233 -3.0171 -2.9721 0.9571
10.3611 -2.1060 -2.9748 0.9570
10.4818 1.6482 -2.9853 0.9569
10.3020 2.5767 -2.9878 0.9568
10.0397 3.4862 -2.9902 0.9568
8.2242 6.7975 -3.0020 0.9566
7.5873 7.5032 -3.0023 0.9566
6.8899 8.1495 -3.0025 0.9566
3.6135 10.0438 -3.0032 0.9566
2.5680 9.8019 -2.8509 0.9588
1.6868 10.0001 -2.8533 0.9587
0.7907 10.1190 -2.8557 0.9587
-1.0159 10.0979 -2.8554 0.9587
-1.9106 9.9674 -2.8554 0.9587
-4.4747 9.1057 -2.8546 0.9587
-6.0097 8.1565 -2.8505 0.9588
-7.7505 7.3304 -3.0015 0.9566
-8.3712 6.6107 -3.0011 0.9566
-9.8165 4.1626 -3.0000 0.9567
-10.5631 1.4206 -2.9987 0.9567
-10.6461 0.4747 -2.9983 0.9567
-9.8045 -4.1575 -2.9963 0.9567
-8.3549 -6.5978 -2.9953 0.9567
-6.3133 -8.5685 -2.9945 0.9567
-5.5253 -9.0958 -2.9943 0.9567
-3.8246 -9.9304 -2.9940 0.9567
-2.9255 -10.2311 -2.9940 0.9567
-1.0533 -10.4698 -2.9606 0.9572
0.8154 -10.4355 -2.9450 0.9574
3.5477 -9.8611 -2.9486 0.9574
4.4138 -9.5115 -2.9502 0.9574
6.7835 -8.0235 -2.9562 0.9573
7.4763 -7.3935 -2.9584 0.9572
8.6827 -5.9604 -2.9632 0.9572
9.1865 -5.1682 -2.9656 0.9571
9.6183 -4.3338 -2.9682 0.9571
10.5403 1.1791 -2.9841 0.9569
9.8782 3.9315 -2.9913 0.9568
7.9136 7.1575 -3.0021 0.9566
6.5203 8.4486 -3.0027 0.9566
4.9196 9.4720 -3.0030 0.9566
1.9007 8.8452 -2.5455 0.9631
0.3392 10.1442 -2.8557 0.9587
-0.5651 10.1333 -2.8555 0.9587
-1.4647 10.0426 -2.8554 0.9587
-2.3527 9.8724 -2.8554 0.9587
-3.2221 9.6239 -2.8555 0.9587
-6.3646 7.8775 -2.8494 0.9588
-8.0689 6.9775 -3.0013 0.9566
-8.6569 6.2308 -3.0010 0.9566
-9.1759 5.4349 -3.0006 0.9567
-9.6220 4.5961 -3.0002 0.9567
-10.2817 2.8165 -2.9994 0.9567
-10.4901 1.8899 -2.9990 0.9567
-10.6151 0.9486 -2.9985 0.9567
-10.0145 0.0000 -2.9981 0.9590
-9.8533 -1.7751 -2.9974 0.9591
-9.3801 -3.4932 -2.9966 0.9591
-9.0309 -4.3137 -2.9963 0.9591
-8.1213 -5.8453 -2.9956 0.9591
-7.5681 -6.5443 -2.9954 0.9591
-6.9550 -7.1913 -2.9951 0.9591
-6.2868 -7.7813 -2.9949 0.9591
-3.1753 -9.4841 -2.9943 0.9591
-2.3185 -9.7288 -2.9942 0.9591
-1.4434 -9.8965 -2.9942 0.9591
0.3289 -9.8361 -2.9464 0.9597
1.2033 -9.7704 -2.9472 0.9597
3.7464 -9.1163 -2.9507 0.9597
4.5454 -8.7514 -2.9523 0.9597
5.3095 -8.3172 -2.9541 0.9596
6.7090 -7.2537 -2.9581 0.9596
7.3334 -6.6326 -2.9602 0.9596
8.4061 -5.2354 -2.9648 0.9595
9.5142 -2.8355 -2.9722 0.9594
9.8830 -1.1056 -2.9772 0.9593
9.9506 -0.2217 -2.9798 0.9593
9.9391 0.6654 -2.9822 0.9593
9.8484 1.5486 -2.9846 0.9592
9.4321 3.2752 -2.9892 0.9592
9.1095 4.1046 -2.9913 0.9591
8.2478 5.6618 -2.9950 0.9591
6.4746 7.6582 -3.0023 0.9590
4.2220 9.0983 -3.0028 0.9590
1.5849 9.3959 -2.8527 0.9610
0.7428 9.5066 -2.8547 0.9610
-0.1063 9.5377 -2.8556 0.9610
-2.6221 9.1701 -2.8554 0.9610
-3.4272 8.8984 -2.8548 0.9610
-4.2032 8.5532 -2.8531 0.9610
-4.9446 8.1399 -2.8513 0.9610
-5.6513 7.6699 -2.8522 0.9610
-7.2835 6.8887 -3.0013 0.9590
-7.8668 6.2124 -3.0010 0.9590
-8.8416 4.7180 -3.0003 0.9590
-9.7702 2.2136 -2.9991 0.9590
-9.9271 1.3351 -2.9987 0.9590
-10.0039 -0.4461 -2.9979 0.9591
-9.7638 -2.2121 -2.9972 0.9591
-9.5270 -3.0720 -2.9968 0.9591
-9.2146 -3.9073 -2.9965 0.9591
-8.8293 -4.7114 -2.9961 0.9591
-7.2687 -6.8747 -2.9952 0.9591
-5.9337 -8.0533 -2.9948 0.9591
-5.1931 -8.5489 -2.9946 0.9591
-4.4113 -8.9768 -2.9944 0.9591
-0.1098 -9.8517 -2.9496 0.9597
0.7668 -9.8129 -2.9468 0.9597
1.6376 -9.7086 -2.9476 0.9597
6.3770 -7.5427 -2.9570 0.9596
7.6244 -6.3017 -2.9613 0.9595
8.6344 -4.8576 -2.9660 0.9595
9.6352 -2.4099 -2.9734 0.9594
9.5651 2.8507 -2.9881 0.9592
8.9206 4.5078 -2.9923 0.9591
8.4894 5.2872 -2.9942 0.9591
7.9909 6.0263 -2.9963 0.9591
6.1272 7.9393 -3.0024 0.9590
5.3966 8.4537 -3.0026 0.9590
4.6230 8.9010 -3.0028 0.9590
3.8126 9.2775 -3.0029 0.9590
-1.3765 9.4378 -2.8554 0.9610
-2.2110 9.2778 -2.8554 0.9610
-4.5786 8.3548 -2.8522 0.9610
-5.3005 7.9089 -2.8503 0.9610
-7.5827 6.5570 -3.0012 0.9590
-8.1353 5.8554 -3.0008 0.9590
-8.6232 5.1075 -3.0005 0.9590
-9.3898 3.4968 -2.9997 0.9590
-9.6625 2.6468 -2.9993 0.9590
-9.8584 1.7761 -2.9989 0.9590
-9.4405 -0.0000 -2.9982 0.9612
-9.4019 -0.8401 -2.9978 0.9612
-9.2887 -1.6734 -2.9974 0.9612
-8.8428 -3.2931 -2.9967 0.9612
-8.5137 -4.0666 -2.9964 0.9612
-8.1171 -4.8077 -2.9961 0.9612
-7.1347 -6.1696 -2.9955 0.9612
-6.5567 -6.7796 -2.9953 0.9612
-5.9269 -7.3357 -2.9951 0.9612
-1.3608 -9.3300 -2.9944 0.9612
0.3103 -9.2800 -2.9488 0.9618
2.7527 -8.8740 -2.9507 0.9618
3.5332 -8.5975 -2.9520 0.9617
5.0069 -7.8431 -2.9551 0.9617
5.6885 -7.3708 -2.9569 0.9617
6.3261 -6.8397 -2.9588 0.9617
6.9145 -6.2537 -2.9609 0.9616
7.9254 -4.9360 -2.9652 0.9616
8.3397 -4.2142 -2.9675 0.9615
8.6886 -3.4580 -2.9699 0.9615
9.3159 -1.0421 -2.9770 0.9614
9.3678 0.6271 -2.9817 0.9614
9.2819 1.4595 -2.9840 0.9613
8.8888 3.0866 -2.9883 0.9613
8.5844 3.8680 -2.9903 0.9613
7.7719 5.3351 -2.9938 0.9612
7.2851 6.0213 -3.0016 0.9611
5.4367 7.7338 -3.0023 0.9611
4.7270 8.1875 -3.0025 0.9611
3.9797 8.5761 -3.0026 0.9611
2.2744 8.6815 -2.8502 0.9630
0.7000 8.9581 -2.8536 0.9630
-0.1002 8.9892 -2.8550 0.9630
-0.9000 8.9458 -2.8554 0.9630
-1.6926 8.8300 -2.8553 0.9630
-3.2291 8.3843 -2.8534 0.9630
-6.2610 7.0795 -3.0014 0.9611
-6.8656 6.4935 -3.0012 0.9611
-7.4156 5.8560 -3.0009 0.9611
-7.9065 5.1722 -3.0005 0.9611
-8.3345 4.4475 -3.0002 0.9611
-8.9889 2.8985 -2.9995 0.9611
-9.4318 0.4206 -2.9984 0.9612
-9.3546 -1.2581 -2.9976 0.9612
-9.2044 -2.0854 -2.9973 0.9612
-8.6869 -3.6835 -2.9966 0.9612
-8.3236 -4.4416 -2.9963 0.9612
-5.5940 -7.5922 -2.9950 0.9612
-4.8958 -8.0595 -2.9948 0.9612
-4.1588 -8.4629 -2.9947 0.9612
-3.3889 -8.7991 -2.9946 0.9612
-2.5922 -9.0656 -2.9945 0.9612
-0.9431 -9.3748 -2.9923 0.9612
0.7232 -9.2552 -2.9483 0.9618
1.5445 -9.1567 -2.9491 0.9618
2.3542 -8.9860 -2.9501 0.9618
3.1460 -8.7444 -2.9514 0.9617
3.9136 -8.4336 -2.9527 0.9617
4.6512 -8.0561 -2.9543 0.9617
5.3529 -7.6145 -2.9560 0.9617
6.6267 -6.5533 -2.9598 0.9616
7.1887 -5.9417 -2.9619 0.9616
8.1405 -4.5798 -2.9664 0.9616
8.5225 -3.8401 -2.9687 0.9615
8.8375 -3.0687 -2.9711 0.9615
9.0829 -2.2717 -2.9734 0.9615
9.3568 -0.6263 -2.9782 0.9614
9.3342 1.0442 -2.9829 0.9613
8.4063 4.2479 -2.9912 0.9612
4.3577 8.3901 -3.0025 0.9611
2.8013 9.0304 -3.0027 0.9611
1.0980 8.9154 -2.8528 0.9630
-1.2975 8.8967 -2.8553 0.9630
-3.5985 8.2299 -2.8526 0.9630
-4.3142 7.8725 -2.8510 0.9630
-4.9948 7.4527 -2.8493 0.9630
-7.1477 6.1809 -3.0010 0.9611
-7.6687 5.5196 -3.0007 0.9611
-8.1286 4.8146 -3.0004 0.9611
-8.5239 4.0715 -3.0000 0.9611
-8.8514 3.2963 -2.9997 0.9611
-9.1085 2.4951 -2.9993 0.9611
-9.4043 0.8404 -2.9985 0.9611
-8.9237 0.0000 -2.9982 0.9630
-8.8872 -0.7942 -2.9978 0.9630
-8.7803 -1.5818 -2.9975 0.9631
-8.6037 -2.3568 -2.9972 0.9631
-8.3589 -3.1129 -2.9968 0.9631
-7.6729 -4.5447 -2.9962 0.9631
-6.7444 -5.8321 -2.9957 0.9631
-4.9629 -7.4052 -2.9951 0.9631
-3.5710 -8.1671 -2.9948 0.9631
-1.2863 -8.8198 -2.9947 0.9631
1.0733 -8.7145 -2.9500 0.9636
3.3411 -8.1300 -2.9532 0.9636
4.0533 -7.8040 -2.9546 0.9636
4.7343 -7.4162 -2.9561 0.9636
5.3787 -6.9693 -2.9578 0.9635
5.9813 -6.4669 -2.9596 0.9635
6.5374 -5.9127 -2.9616 0.9635
7.4926 -4.6664 -2.9657 0.9634
8.2134 -3.2688 -2.9701 0.9634
8.6760 -1.7635 -2.9746 0.9633
8.8052 -0.9850 -2.9769 0.9633
8.7720 1.3793 -2.9834 0.9632
8.6203 2.1561 -2.9855 0.9632
8.3998 2.9168 -2.9875 0.9632
7.7589 4.3651 -2.9911 0.9631
7.3561 5.0497 -2.9978 0.9630
6.8858 5.6913 -3.0014 0.9630
6.3524 6.2821 -3.0017 0.9630
5.1386 7.3098 -3.0021 0.9630
3.7615 8.1059 -3.0024 0.9630
2.2252 8.4936 -2.9500 0.9636
0.6614 8.4642 -2.8525 0.9648
-0.0946 8.4929 -2.8536 0.9648
-1.5993 8.3434 -2.8543 0.9648
-2.3349 8.1655 -2.8534 0.9648
-5.9179 6.6915 -3.0013 0.9630
-6.4894 6.1376 -3.0010 0.9630
-7.0092 5.5351 -3.0007 0.9630
-7.4733 4.8888 -3.0004 0.9630
-7.8779 4.2038 -3.0001 0.9630
-8.4965 2.7398 -2.9994 0.9630
-8.7057 1.9725 -2.9991 0.9630
-8.8456 1.1896 -2.9987 0.9630
-8.8425 -1.1892 -2.9977 0.9631
-8.7006 -1.9713 -2.9973 0.9631
-8.2114 -3.4819 -2.9967 0.9631
-7.8682 -4.1986 -2.9964 0.9631
-7.4625 -4.8817 -2.9961 0.9631
-6.9978 -5.5261 -2.9958 0.9631
-6.4776 -6.1264 -2.9956 0.9631
-5.9062 -6.6782 -2.9954 0.9631
-3.9314 -8.0000 -2.9949 0.9631
-3.2036 -8.3179 -2.9948 0.9631
-1.6780 -8.7538 -2.9947 0.9631
0.6839 -8.7525 -2.9497 0.9636
1.4606 -8.6592 -2.9504 0.9636
2.2263 -8.4976 -2.9514 0.9636
5.0614 -7.1999 -2.9570 0.9635
5.6855 -6.7248 -2.9587 0.9635
6.2654 -6.1960 -2.9606 0.9635
7.2747 -4.9938 -2.9646 0.9635
8.5856 -2.1474 -2.9735 0.9633
8.7493 -1.3757 -2.9757 0.9633
8.5186 2.5388 -2.9865 0.9632
7.1322 5.3787 -3.0013 0.9630
6.6257 5.9926 -3.0016 0.9630
-0.4729 8.4815 -2.8541 0.9648
-2.6957 8.0517 -2.8528 0.9648
-4.0764 7.4385 -2.8499 0.9648
-4.8640 7.2577 -2.9354 0.9638
-6.7560 5.8422 -3.0009 0.9630
-8.3665 3.1158 -2.9996 0.9630
-8.8893 0.7944 -2.9985 0.9630
-8.4211 -0.7525 -2.9979 0.9648
-8.3198 -1.4989 -2.9976 0.9648
-8.1525 -2.2332 -2.9972 0.9648
-6.8579 -4.9360 -2.9961 0.9648
-5.3090 -6.5710 -2.9955 0.9648
-4.7028 -7.0171 -2.9953 0.9648
-3.3839 -7.7391 -2.9950 0.9648
-1.9580 -8.2160 -2.9949 0.9648
0.2789 -8.3418 -2.9595 0.9652
1.0174 -8.2607 -2.9513 0.9653
2.4675 -7.9543 -2.9531 0.9653
3.8419 -7.3970 -2.9556 0.9652
4.4873 -7.0292 -2.9570 0.9652
5.0979 -6.6055 -2.9586 0.9652
6.1957 -5.6037 -2.9622 0.9652
6.6742 -5.0332 -2.9641 0.9651
7.1005 -4.4222 -2.9661 0.9651
7.4711 -3.7753 -2.9682 0.9651
8.2207 -1.6709 -2.9745 0.9650
8.3879 0.5615 -2.9809 0.9650
8.3103 1.3068 -2.9829 0.9649
8.1664 2.0426 -2.9849 0.9649
7.6842 3.4623 -2.9885 0.9649
7.3496 4.1348 -2.9902 0.9648
6.0188 5.9521 -3.0015 0.9647
3.5639 7.6801 -3.0022 0.9647
2.1459 8.1907 -3.0023 0.9647
0.6265 8.0170 -2.8514 0.9664
-0.8054 8.0055 -2.8530 0.9664
-1.5147 7.9019 -2.8529 0.9664
-3.5444 7.2126 -2.8496 0.9665
-6.1486 5.8154 -3.0009 0.9647
-7.0810 4.6322 -3.0003 0.9647
-7.4644 3.9831 -3.0000 0.9647
-8.0506 2.5960 -2.9994 0.9647
-8.2488 1.8689 -2.9991 0.9647
-8.3815 1.1272 -2.9987 0.9647
-8.4476 0.3767 -2.9984 0.9647
-8.0445 -2.5940 -2.9971 0.9648
-7.4556 -3.9784 -2.9965 0.9648
-7.0713 -4.6258 -2.9962 0.9648
-6.6310 -5.2364 -2.9960 0.9648
-5.5967 -6.3282 -2.9956 0.9648
-3.0357 -7.8820 -2.9950 0.9648
-0.0935 -8.3944 -2.9767 0.9650
0.6491 -8.3073 -2.9546 0.9653
2.1103 -8.0550 -2.9526 0.9653
2.8199 -7.8380 -2.9537 0.9653
4.1686 -7.2203 -2.9563 0.9652
4.7973 -6.8242 -2.9578 0.9652
5.9381 -5.8723 -2.9613 0.9652
6.8941 -4.7325 -2.9651 0.9651
7.2929 -4.1029 -2.9671 0.9651
7.6345 -3.4399 -2.9692 0.9651
7.9160 -2.7487 -2.9713 0.9651
8.1352 -2.0347 -2.9735 0.9650
8.2899 -1.3035 -2.9756 0.9650
8.3791 -0.5609 -2.9778 0.9650
8.4017 0.1873 -2.9799 0.9650
8.3574 0.9350 -2.9819 0.9649
8.0698 2.4051 -2.9858 0.9649
7.5244 3.8023 -2.9894 0.9649
6.2777 5.6779 -3.0014 0.9647
5.7479 6.2146 -3.0016 0.9647
1.6974 7.8992 -2.8649 0.9663
0.9827 7.9794 -2.8507 0.9665
0.2687 8.0385 -2.8519 0.9664
-0.4479 8.0328 -2.8527 0.9664
-1.1612 7.9618 -2.8530 0.9664
-1.8650 7.8258 -2.8526 0.9664
-2.5532 7.6261 -2.8516 0.9664
-3.2204 7.3652 -2.8503 0.9665
-3.8616 7.0464 -2.8491 0.9665
-6.8679 4.9432 -3.0005 0.9647
-7.9274 2.9522 -2.9995 0.9647
-8.1578 2.2347 -2.9992 0.9647
-8.3234 1.4996 -2.9989 0.9647
-8.4229 0.7527 -2.9985 0.9647
-8.0293 0.0000 -2.9982 0.9663
-7.9966 -0.7146 -2.9979 0.9663
-7.7417 -2.1206 -2.9973 0.9663
-7.5214 -2.8010 -2.9970 0.9663
-7.2416 -3.4590 -2.9967 0.9663
-6.0690 -5.2480 -2.9960 0.9663
-5.0417 -6.2401 -2.9956 0.9663
-4.4660 -6.6637 -2.9955 0.9663
-3.2135 -7.3494 -2.9952 0.9663
-2.5465 -7.6060 -2.9951 0.9663
-1.8594 -7.8023 -2.9951 0.9663
-1.1576 -7.9368 -2.9950 0.9663
-0.4465 -8.0083 -2.9951 0.9663
0.2657 -7.9463 -2.9689 0.9666
5.8845 -5.3222 -2.9628 0.9667
6.3387 -4.7803 -2.9646 0.9667
7.0951 -3.5853 -2.9684 0.9666
7.3910 -2.9415 -2.9704 0.9666
7.6287 -2.2736 -2.9725 0.9666
7.8061 -1.5866 -2.9745 0.9666
7.8901 1.2407 -2.9825 0.9665
7.7532 1.9392 -2.9843 0.9665
7.5543 2.6232 -2.9861 0.9664
5.1897 6.1384 -3.0016 0.9663
4.6230 6.5764 -3.0017 0.9663
3.3841 7.2925 -3.0020 0.9663
2.7216 7.5649 -3.0021 0.9663
1.2728 7.5456 -2.8574 0.9679
-0.7644 7.5986 -2.8517 0.9679
-2.0991 7.3409 -2.8510 0.9679
-3.3676 6.8533 -2.8514 0.9679
-4.1730 6.8698 -3.0015 0.9663
-4.7676 6.4707 -3.0012 0.9663
-6.3062 4.9800 -3.0005 0.9663
-7.8329 1.7747 -2.9990 0.9663
-8.0209 -0.3577 -2.9981 0.9663
-7.9564 -1.0700 -2.9978 0.9663
-7.3889 -3.1331 -2.9969 0.9663
-7.0800 -3.7780 -2.9966 0.9663
-6.2970 -4.9726 -2.9961 0.9663
-5.8290 -5.5130 -2.9959 0.9663
-4.1646 -6.8559 -2.9954 0.9663
-3.5377 -7.1991 -2.9953 0.9663
-2.8828 -7.4851 -2.9952 0.9663
-2.2051 -7.7118 -2.9951 0.9663
-0.8029 -7.9805 -2.9950 0.9663
-0.0892 -8.0082 -2.9906 0.9664
0.6174 -7.9011 -2.9594 0.9667
1.3152 -7.7974 -2.9528 0.9668
2.6787 -7.4454 -2.9547 0.9668
4.5566 -6.4819 -2.9586 0.9667
5.1182 -6.0538 -2.9602 0.9667
5.6399 -5.5774 -2.9619 0.9667
6.1176 -5.0563 -2.9637 0.9667
6.5475 -4.4946 -2.9655 0.9667
6.9260 -3.8965 -2.9675 0.9666
7.5173 -2.6103 -2.9714 0.9666
7.7250 -1.9321 -2.9735 0.9666
7.9561 -0.5326 -2.9775 0.9665
7.4321 2.9579 -2.9869 0.9664
7.1432 3.6096 -2.9886 0.9664
6.8214 4.2484 -3.0008 0.9663
4.9112 6.3637 -3.0017 0.9663
4.3256 6.7759 -3.0018 0.9663
3.7055 7.1343 -3.0019 0.9663
0.2551 7.6302 -2.8508 0.9679
-1.1022 7.5571 -2.8518 0.9679
-1.7702 7.4281 -2.8514 0.9679
-2.4236 7.2389 -2.8506 0.9679
-6.5215 4.6939 -3.0004 0.9663
-7.2490 3.4626 -2.9998 0.9663
-7.5276 2.8033 -2.9995 0.9663
-7.7465 2.1220 -2.9992 0.9663
-7.9038 1.4239 -2.9989 0.9663
-7.3658 -2.0177 -2.9974 0.9677
-7.1564 -2.6650 -2.9971 0.9677
-6.8901 -3.2911 -2.9968 0.9677
-6.5693 -3.8910 -2.9966 0.9677
-6.1964 -4.4599 -2.9963 0.9677
-5.3068 -5.4871 -2.9959 0.9677
-4.2493 -6.3404 -2.9956 0.9677
-3.6680 -6.6932 -2.9955 0.9677
-1.7692 -7.4238 -2.9952 0.9677
-1.1014 -7.5518 -2.9952 0.9677
0.9217 -7.4837 -2.9593 0.9681
1.5814 -7.3591 -2.9542 0.9682
2.2308 -7.1913 -2.9551 0.9682
2.8630 -6.9667 -2.9561 0.9682
3.4731 -6.6870 -2.9573 0.9681
4.6080 -5.9708 -2.9601 0.9681
6.0318 -4.5488 -2.9650 0.9681
6.7511 -3.4115 -2.9687 0.9680
7.5367 -0.8431 -2.9764 0.9679
7.5058 1.1803 -2.9820 0.9679
7.1860 2.4953 -2.9855 0.9678
6.6494 3.7409 -2.9943 0.9677
6.3036 4.3272 -3.0008 0.9677
5.8939 4.8715 -3.0010 0.9677
5.4373 5.3771 -3.0012 0.9677
3.8241 6.6236 -3.0017 0.9677
3.2195 6.9379 -3.0018 0.9677
2.5893 7.1972 -3.0019 0.9677
1.9385 7.3992 -3.0020 0.9677
1.2655 7.5025 -2.9861 0.9678
0.5656 7.2382 -2.8494 0.9693
-0.0809 7.2616 -2.8501 0.9693
-0.7270 7.2267 -2.8506 0.9693
-1.3673 7.1331 -2.8505 0.9693
-1.9964 6.9818 -2.8500 0.9693
-2.6091 6.7743 -2.8491 0.9693
-3.9702 6.5359 -3.0013 0.9677
-5.5547 5.2536 -3.0007 0.9677
-7.0364 2.9837 -2.9996 0.9677
-7.4525 1.6885 -2.9990 0.9677
-7.5724 1.0184 -2.9987 0.9677
-7.4488 -1.6876 -2.9975 0.9677
-7.2683 -2.3437 -2.9972 0.9677
-5.5461 -5.2455 -2.9960 0.9677
-4.5277 -6.1450 -2.9957 0.9677
-3.9626 -6.5233 -2.9955 0.9677
-3.3661 -6.8498 -2.9954 0.9677
-2.0982 -7.3377 -2.9953 0.9677
-1.4367 -7.4953 -2.9952 0.9677
-0.7639 -7.5933 -2.9952 0.9677
-0.0850 -7.6312 -2.9952 0.9677
3.1711 -6.8336 -2.9567 0.9681
4.3364 -6.1686 -2.9594 0.9681
4.8707 -5.7611 -2.9609 0.9681
5.3670 -5.3076 -2.9625 0.9681
7.4892 -1.1776 -2.9754 0.9679
7.5487 0.8445 -2.9811 0.9679
7.4481 1.5139 -2.9829 0.9679
7.0696 2.8137 -2.9863 0.9678
6.7946 3.4335 -2.9878 0.9678
6.4899 4.0419 -3.0007 0.9677
6.1048 4.6039 -3.0009 0.9677
5.1925 5.6141 -3.0013 0.9677
4.1153 6.4465 -3.0017 0.9677
3.5253 6.7875 -3.0018 0.9677
2.9073 7.0746 -3.0019 0.9677
2.2661 7.3054 -3.0019 0.9677
1.6070 7.4783 -3.0020 0.9677
0.8966 7.2804 -2.8789 0.9690
-0.4043 7.2515 -2.8504 0.9693
-1.6836 7.0646 -2.8503 0.9693
-2.3051 6.8849 -2.8495 0.9693
-3.6752 6.7064 -3.0014 0.9677
-4.2573 6.3523 -3.0012 0.9677
-4.8055 5.9478 -3.0010 0.9677
-5.3154 5.4961 -3.0008 0.9677
-5.7830 5.0007 -3.0006 0.9677
-6.2046 4.4658 -3.0003 0.9677
-6.8968 3.2944 -2.9997 0.9677
-7.1620 2.6672 -2.9995 0.9677
-7.3702 2.0189 -2.9992 0.9677
-7.2812 0.0000 -2.9983 0.9690
-7.2516 -0.6480 -2.9980 0.9690
-7.1645 -1.2907 -2.9977 0.9690
-7.0206 -1.9231 -2.9974 0.9690
-6.8209 -2.5401 -2.9972 0.9690
-6.5672 -3.1369 -2.9969 0.9690
-6.2614 -3.7086 -2.9967 0.9690
-5.9061 -4.2509 -2.9965 0.9690
-4.5723 -5.6592 -2.9959 0.9690
-3.4961 -6.3796 -2.9956 0.9690
-1.6863 -7.0761 -2.9954 0.9690
-0.4050 -7.2629 -2.9954 0.9690
0.2430 -7.2673 -2.9942 0.9690
0.8796 -7.1419 -2.9631 0.9694
1.5077 -7.0161 -2.9551 0.9694
2.1268 -6.8561 -2.9559 0.9694
3.3111 -6.3750 -2.9581 0.9694
3.8670 -6.0576 -2.9593 0.9694
4.8845 -5.2811 -2.9622 0.9694
6.7030 -2.6677 -2.9707 0.9693
6.9181 -2.0618 -2.9726 0.9693
7.1830 -0.8035 -2.9763 0.9692
7.2204 0.4834 -2.9799 0.9692
7.1529 1.1248 -2.9816 0.9692
6.8477 2.3778 -2.9849 0.9691
6.6123 2.9794 -2.9864 0.9691
5.6173 4.6429 -3.0009 0.9690
5.1821 5.1247 -3.0011 0.9690
4.7057 5.5659 -3.0013 0.9690
4.1918 5.9630 -3.0014 0.9690
3.6446 6.3127 -3.0016 0.9690
3.0684 6.6123 -3.0017 0.9690
2.4677 6.8593 -3.0018 0.9690
1.8475 7.0518 -3.0018 0.9690
1.2125 7.1884 -3.0018 0.9690
0.5528 7.0742 -2.9219 0.9698
-0.6927 6.8852 -2.8495 0.9705
-1.9022 6.6523 -2.8491 0.9705
-2.5424 6.6012 -2.9129 0.9699
-4.3230 5.8672 -3.0010 0.9690
-4.8278 5.4588 -3.0008 0.9690
-5.2940 5.0071 -3.0006 0.9690
-6.7063 2.8438 -2.9996 0.9690
-7.1029 1.6093 -2.9990 0.9690
-7.2737 -0.3243 -2.9981 0.9690
-7.0996 -1.6086 -2.9976 0.9690
-6.7007 -2.8414 -2.9970 0.9690
-6.4207 -3.4262 -2.9968 0.9690
-6.0898 -3.9837 -2.9966 0.9690
-4.8200 -5.4500 -2.9960 0.9690
-4.3155 -5.8571 -2.9958 0.9690
-2.6145 -6.7884 -2.9955 0.9690
-1.9999 -6.9940 -2.9954 0.9690
-0.7281 -7.2376 -2.9954 0.9690
-0.0810 -7.2738 -2.9954 0.9690
0.5635 -7.2112 -2.9785 0.9692
3.5926 -6.2225 -2.9587 0.9694
4.6432 -5.4920 -2.9614 0.9694
5.1162 -5.0596 -2.9630 0.9694
5.5493 -4.5866 -2.9646 0.9693
6.2819 -3.5341 -2.9680 0.9693
6.5755 -2.9628 -2.9698 0.9693
7.2139 -0.4829 -2.9772 0.9692
7.2326 0.1612 -2.9790 0.9692
7.0977 1.4427 -2.9825 0.9692
4.9488 5.3507 -3.0012 0.9690
3.9221 6.1439 -3.0015 0.9690
2.1598 6.9625 -3.0018 0.9690
0.2317 6.9296 -2.8551 0.9705
-0.3852 6.9089 -2.8494 0.9705
-1.6041 6.7309 -2.8493 0.9705
-2.1972 6.5626 -2.8498 0.9705
-2.9201 6.6784 -3.0014 0.9690
-4.5799 5.6687 -3.0009 0.9690
-5.0659 5.2382 -3.0007 0.9690
-5.5116 4.7661 -3.0005 0.9690
-6.8260 2.5421 -2.9994 0.9690
-7.0245 1.9242 -2.9991 0.9690
-7.1672 1.2913 -2.9988 0.9690
-6.9226 -0.6186 -2.9980 0.9702
-6.7021 -1.8359 -2.9975 0.9702
-6.5115 -2.4249 -2.9972 0.9702
-5.6382 -4.0581 -2.9966 0.9702
-4.8288 -4.9929 -2.9962 0.9702
-4.3650 -5.4026 -2.9960 0.9702
-3.8666 -5.7694 -2.9959 0.9702
-3.3376 -6.0904 -2.9958 0.9702
-1.6099 -6.7553 -2.9955 0.9702
-0.3866 -6.9336 -2.9955 0.9702
1.4415 -6.7083 -2.9597 0.9706
2.6063 -6.3420 -2.9577 0.9706
3.1616 -6.0871 -2.9588 0.9706
4.1944 -5.4348 -2.9613 0.9705
4.6636 -5.0423 -2.9627 0.9705
5.4895 -4.1398 -2.9658 0.9705
5.8394 -3.6368 -2.9674 0.9705
6.3991 -2.5467 -2.9709 0.9704
6.8275 1.0736 -2.9813 0.9703
6.7084 1.6779 -2.9829 0.9703
6.5358 2.2695 -2.9844 0.9703
6.0622 3.4106 -3.0004 0.9702
5.3622 4.4320 -3.0008 0.9701
4.9467 4.8920 -3.0010 0.9701
2.9290 6.3119 -3.0015 0.9701
2.3557 6.5477 -3.0016 0.9701
1.7636 6.7315 -3.0017 0.9701
1.1574 6.8618 -3.0017 0.9701
-1.2499 6.5204 -2.8638 0.9715
-1.8598 6.5040 -2.9180 0.9710
-3.0686 6.2444 -3.0012 0.9701
-4.1267 5.6008 -3.0009 0.9701
-5.0536 4.7797 -3.0005 0.9702
-5.4586 4.3106 -3.0003 0.9702
-5.8201 3.8074 -3.0000 0.9702
-6.7806 1.5363 -2.9990 0.9702
-6.8897 0.9266 -2.9987 0.9702
-6.9436 -0.3096 -2.9981 0.9702
-6.8879 -0.9263 -2.9979 0.9702
-6.6134 -2.1325 -2.9974 0.9702
-5.8136 -3.8031 -2.9967 0.9702
-4.6014 -5.2029 -2.9961 0.9702
-3.6057 -5.9357 -2.9958 0.9702
-0.6951 -6.9095 -2.9955 0.9702
-0.0774 -6.9440 -2.9955 0.9702
1.7369 -6.6297 -2.9563 0.9706
3.9472 -5.6149 -2.9606 0.9705
4.4333 -5.2437 -2.9620 0.9705
4.8849 -4.8307 -2.9635 0.9705
5.6700 -3.8922 -2.9666 0.9705
5.9973 -3.3740 -2.9683 0.9705
6.6873 -1.6726 -2.9735 0.9704
6.8137 -1.0714 -2.9753 0.9704
6.9038 0.1539 -2.9787 0.9704
6.8666 0.7682 -2.9804 0.9703
6.4298 2.5590 -2.9851 0.9703
5.9045 3.6773 -3.0005 0.9702
5.5541 4.1886 -3.0007 0.9702
4.7240 5.1076 -3.0011 0.9701
4.2509 5.5081 -3.0012 0.9701
3.2072 6.1750 -3.0015 0.9701
1.4620 6.8034 -3.0017 0.9701
-0.9568 6.5605 -2.8598 0.9715
-1.5498 6.5033 -2.8838 0.9713
-3.3436 6.1014 -3.0012 0.9701
-4.8359 5.0003 -3.0006 0.9702
-5.9837 3.5442 -2.9999 0.9702
-6.2749 2.9973 -2.9996 0.9702
-6.5162 2.4267 -2.9994 0.9702
-6.7057 1.8369 -2.9991 0.9702
-6.9239 0.6187 -2.9986 0.9702
-6.5385 -1.1779 -2.9978 0.9713
-6.4072 -1.7551 -2.9975 0.9713
-6.2251 -2.3182 -2.9973 0.9713
-5.7145 -3.3847 -2.9968 0.9713
-5.3902 -3.8796 -2.9966 0.9713
-5.0232 -4.3437 -2.9965 0.9713
-4.6164 -4.7733 -2.9963 0.9713
-4.1730 -5.1650 -2.9961 0.9713
-3.1909 -5.8225 -2.9959 0.9713
-2.1078 -6.2957 -2.9957 0.9713
-0.3696 -6.6288 -2.9957 0.9713
1.9419 -6.2602 -2.9575 0.9716
3.0231 -5.8205 -2.9594 0.9716
4.0105 -5.1965 -2.9618 0.9716
4.8729 -4.4072 -2.9646 0.9716
6.4597 -1.3130 -2.9744 0.9715
6.5976 -0.1470 -2.9777 0.9715
6.5262 1.0262 -2.9809 0.9714
6.4123 1.6039 -2.9825 0.9714
6.0526 2.7272 -2.9955 0.9713
5.7952 3.2604 -3.0003 0.9712
4.7288 4.6765 -3.0009 0.9712
4.2941 5.0791 -3.0011 0.9712
3.8251 5.4414 -3.0012 0.9712
3.3258 5.7605 -3.0013 0.9712
2.8000 6.0338 -3.0014 0.9712
2.2519 6.2592 -3.0015 0.9712
1.6859 6.4349 -3.0015 0.9712
1.1064 6.5595 -3.0016 0.9712
-0.0741 6.6517 -3.0015 0.9712
-1.8287 6.3954 -3.0014 0.9712
-3.4529 5.6843 -3.0010 0.9712
-3.9449 5.3541 -3.0008 0.9712
-4.4055 4.9814 -3.0006 0.9712
-4.8311 4.5692 -3.0004 0.9712
-5.5639 3.6397 -3.0000 0.9712
-5.8653 3.1298 -2.9997 0.9712
-6.1200 2.5951 -2.9995 0.9712
-6.3262 2.0400 -2.9992 0.9713
-6.4821 1.4687 -2.9990 0.9713
-6.6386 0.2960 -2.9984 0.9713
-6.6380 -0.2960 -2.9982 0.9713
-6.5848 -0.8856 -2.9979 0.9713
-6.1154 -2.5931 -2.9972 0.9713
-5.8599 -3.1269 -2.9970 0.9713
-4.3991 -4.9741 -2.9962 0.9713
-3.9387 -5.3456 -2.9961 0.9713
-3.4471 -5.6747 -2.9959 0.9713
-2.9283 -5.9588 -2.9958 0.9713
-1.8253 -6.3833 -2.9957 0.9713
-1.2498 -6.5204 -2.9957 0.9713
-0.6645 -6.6057 -2.9957 0.9713
-0.0740 -6.6387 -2.9957 0.9713
0.5172 -6.6190 -2.9957 0.9713
1.6626 -6.3463 -2.9602 0.9716
2.7603 -5.9483 -2.9589 0.9716
4.2389 -5.0138 -2.9625 0.9716
4.6706 -4.6188 -2.9639 0.9716
5.4210 -3.7213 -2.9669 0.9716
5.7338 -3.2258 -2.9685 0.9715
6.3930 -1.5990 -2.9735 0.9715
6.5995 0.1471 -2.9785 0.9714
6.5637 0.7343 -2.9801 0.9714
6.3361 1.8884 -2.9832 0.9714
6.1491 2.4479 -2.9861 0.9714
5.9345 2.9989 -3.0002 0.9712
5.6444 3.5154 -3.0004 0.9712
5.3095 4.0041 -3.0006 0.9712
4.0637 5.2655 -3.0011 0.9712
3.0659 5.9030 -3.0014 0.9712
1.3975 6.5037 -3.0016 0.9712
0.2223 6.6484 -3.0016 0.9712
-0.3703 6.6418 -3.0015 0.9712
-0.9531 6.5349 -2.9798 0.9714
-2.1118 6.3075 -3.0013 0.9712
-3.7026 5.5247 -3.0009 0.9712
-4.6229 4.7801 -3.0005 0.9712
-5.0297 4.3493 -3.0003 0.9712
-5.9986 2.8653 -2.9996 0.9712
-6.2293 2.3198 -2.9993 0.9713
-6.3350 -0.5661 -2.9981 0.9723
-5.7373 -2.7405 -2.9971 0.9723
-5.4703 -3.2400 -2.9969 0.9723
-3.9947 -4.9443 -2.9962 0.9723
-3.5386 -5.2800 -2.9961 0.9723
-0.9172 -6.2888 -2.9958 0.9723
-0.3538 -6.3455 -2.9958 0.9723
0.2124 -6.3519 -2.9958 0.9723
0.7768 -6.3068 -2.9953 0.9723
2.3861 -5.8063 -2.9590 0.9726
2.8944 -5.5727 -2.9600 0.9726
3.8396 -4.9751 -2.9623 0.9726
4.2690 -4.6156 -2.9636 0.9726
4.6651 -4.2193 -2.9650 0.9726
5.6226 -2.8412 -2.9695 0.9725
6.0437 -1.8012 -2.9727 0.9725
6.3151 -0.1407 -2.9775 0.9725
6.3059 0.4221 -2.9791 0.9724
6.2465 0.9822 -2.9806 0.9724
2.1555 5.9913 -3.0014 0.9722
1.6137 6.1595 -3.0014 0.9722
1.0591 6.2787 -3.0014 0.9722
0.4960 6.3481 -3.0014 0.9722
-0.0709 6.3670 -3.0014 0.9722
-1.1987 6.2533 -3.0013 0.9722
-2.8079 5.7138 -3.0010 0.9722
-3.7761 5.1250 -3.0007 0.9722
-4.2170 4.7683 -3.0005 0.9722
-5.8582 2.4841 -2.9994 0.9723
-6.0556 1.9527 -2.9992 0.9723
-6.2048 1.4058 -2.9989 0.9723
-6.3048 0.8479 -2.9987 0.9723
-6.3032 -0.8477 -2.9979 0.9723
-6.2023 -1.4052 -2.9977 0.9723
-6.0521 -1.9516 -2.9975 0.9723
-5.3203 -3.4804 -2.9968 0.9723
-4.6184 -4.3680 -2.9965 0.9723
-4.2111 -4.7615 -2.9963 0.9723
-3.7704 -5.1172 -2.9962 0.9723
-2.8031 -5.7042 -2.9960 0.9723
-2.2843 -5.9309 -2.9959 0.9723
-1.7473 -6.1106 -2.9958 0.9723
0.4951 -6.3362 -2.9958 0.9723
1.0528 -6.2416 -2.9837 0.9724
3.6134 -5.1401 -2.9617 0.9726
4.0583 -4.8002 -2.9630 0.9726
4.4714 -4.4219 -2.9643 0.9726
4.8496 -4.0083 -2.9657 0.9726
5.4890 -3.0880 -2.9687 0.9725
5.9559 -2.0681 -2.9719 0.9725
6.1196 -1.5306 -2.9735 0.9725
6.0642 1.8074 -2.9828 0.9724
5.6806 2.8705 -3.0001 0.9722
5.4029 3.3650 -3.0004 0.9722
5.0823 3.8328 -3.0005 0.9722
4.7213 4.2701 -3.0007 0.9722
4.3227 4.6737 -3.0009 0.9722
3.8897 5.0401 -3.0010 0.9722
3.4258 5.3665 -3.0011 0.9722
2.4202 5.8893 -3.0013 0.9722
1.8865 6.0814 -3.0014 0.9722
1.3377 6.2253 -3.0014 0.9722
-1.4760 6.1936 -3.0013 0.9722
-2.0214 6.0375 -3.0012 0.9722
-3.5441 5.2882 -3.0008 0.9722
-4.0005 4.9515 -3.0006 0.9722
-4.4251 4.5755 -3.0004 0.9722
-4.8144 4.1632 -3.0002 0.9722
-5.1655 3.7179 -3.0000 0.9722
-5.4755 3.2432 -2.9998 0.9723
-6.2610 1.1280 -2.9988 0.9723
-5.9984 -1.0806 -2.9979 0.9732
-5.4986 -2.6264 -2.9972 0.9732
-5.2426 -3.1052 -2.9970 0.9732
-4.9451 -3.5593 -2.9968 0.9732
-4.6085 -3.9851 -2.9966 0.9732
-4.2352 -4.3792 -2.9965 0.9732
-3.8285 -4.7386 -2.9963 0.9732
-3.3914 -5.0603 -2.9962 0.9732
-2.9274 -5.3419 -2.9961 0.9732
-1.9338 -5.7760 -2.9960 0.9732
-0.8791 -6.0273 -2.9959 0.9732
-0.3391 -6.0816 -2.9959 0.9732
0.2035 -6.0877 -2.9959 0.9732
0.7446 -6.0455 -2.9960 0.9732
1.2732 -5.9249 -2.9807 0.9733
1.7859 -5.7566 -2.9646 0.9735
2.2872 -5.5657 -2.9596 0.9735
3.2400 -5.0754 -2.9617 0.9735
3.6803 -4.7687 -2.9628 0.9735
4.0919 -4.4241 -2.9641 0.9735
4.4714 -4.0441 -2.9654 0.9735
4.8158 -3.6318 -2.9668 0.9735
5.1225 -3.1903 -2.9682 0.9735
5.6126 -2.2337 -2.9712 0.9734
5.7922 -1.7262 -2.9727 0.9734
5.9259 -1.2045 -2.9743 0.9734
6.0127 -0.6726 -2.9758 0.9734
6.0518 -0.1348 -2.9774 0.9734
5.9858 0.9412 -2.9803 0.9734
5.7389 1.9927 -2.9881 0.9733
5.5609 2.5056 -3.0000 0.9732
5.3162 2.9908 -3.0002 0.9732
4.7022 3.8865 -3.0005 0.9732
4.3379 4.2899 -3.0007 0.9732
3.9390 4.6591 -3.0009 0.9732
3.5089 4.9914 -3.0010 0.9732
2.5684 5.5349 -3.0012 0.9732
2.0657 5.7417 -3.0012 0.9732
1.5464 5.9028 -3.0013 0.9732
0.4754 6.0835 -3.0013 0.9732
-0.0680 6.1017 -3.0013 0.9732
-0.6108 6.0713 -3.0013 0.9732
-1.6775 5.8665 -3.0011 0.9732
-4.0413 4.5696 -3.0004 0.9732
-4.4317 4.1915 -3.0003 0.9732
-5.1040 3.3389 -2.9998 0.9732
-5.6143 2.3807 -2.9994 0.9732
-5.9465 1.3473 -2.9989 0.9732
-6.0902 0.2716 -2.9984 0.9732
-5.9441 -1.3467 -2.9977 0.9732
-5.8002 -1.8703 -2.9975 0.9732
-4.7815 -3.7759 -2.9967 0.9732
-3.1626 -5.2063 -2.9962 0.9732
-0.0679 -6.0907 -2.9959 0.9732
1.5293 -5.8374 -2.9681 0.9735
4.2858 -4.2383 -2.9647 0.9735
4.9741 -3.4145 -2.9675 0.9735
5.2608 -2.9597 -2.9689 0.9735
5.7080 -1.9820 -2.9720 0.9734
5.9753 -0.9396 -2.9751 0.9734
6.0203 0.6735 -2.9796 0.9734
5.9394 1.2072 -2.9810 0.9733
5.6668 2.2554 -2.9999 0.9732
5.4439 2.7510 -3.0001 0.9732
5.1778 3.2248 -3.0003 0.9732
4.8705 3.6731 -3.0005 0.9732
4.5246 4.0922 -3.0006 0.9732
3.7277 4.8301 -3.0009 0.9732
2.8124 5.4149 -3.0011 0.9732
2.3193 5.6439 -3.0012 0.9732
1.2820 5.9659 -3.0013 0.9732
0.2039 6.0987 -3.0013 0.9732
-0.8806 6.0380 -3.0012 0.9732
-1.4145 5.9355 -3.0012 0.9732
-4.2407 4.3849 -3.0004 0.9732
-5.2475 3.1081 -2.9997 0.9732
-5.5029 2.6285 -2.9995 0.9732
-6.0003 1.0810 -2.9988 0.9732
-6.0723 0.5426 -2.9986 0.9732
-5.8248 -0.5205 -2.9981 0.9741
-5.7550 -1.0368 -2.9979 0.9741
-5.0299 -2.9792 -2.9971 0.9741
-4.7445 -3.4149 -2.9969 0.9741
-4.4215 -3.8234 -2.9967 0.9741
-2.8087 -5.1252 -2.9962 0.9741
-1.3548 -5.6848 -2.9960 0.9741
-0.3254 -5.8349 -2.9960 0.9741
0.7144 -5.8002 -2.9961 0.9741
1.2261 -5.7057 -2.9919 0.9741
2.1967 -5.3453 -2.9627 0.9744
4.2903 -3.8803 -2.9657 0.9743
4.6207 -3.4846 -2.9670 0.9743
4.9149 -3.0610 -2.9684 0.9743
5.1703 -2.6126 -2.9698 0.9743
5.5571 -1.6562 -2.9728 0.9743
5.7684 -0.6453 -2.9757 0.9742
5.8058 -0.1294 -2.9772 0.9742
5.7422 0.9029 -2.9801 0.9742
5.6441 1.4119 -2.9826 0.9742
5.3350 2.4038 -2.9999 0.9740
4.8249 3.3121 -3.0003 0.9740
3.7790 4.4698 -3.0008 0.9740
3.3663 4.7886 -3.0009 0.9740
2.9268 5.0694 -3.0010 0.9740
1.4836 5.6629 -3.0012 0.9740
0.4560 5.8363 -3.0012 0.9740
-0.0652 5.8537 -3.0012 0.9740
-1.1020 5.7492 -3.0011 0.9740
-2.1038 5.4624 -3.0009 0.9740
-3.0387 5.0024 -3.0007 0.9740
-4.5924 3.6266 -3.0000 0.9740
-5.5678 1.7954 -2.9991 0.9740
-5.7050 1.2926 -2.9989 0.9740
-5.8425 -0.2605 -2.9982 0.9741
-5.7956 -0.7794 -2.9980 0.9741
-5.7028 -1.2921 -2.9978 0.9741
-5.5648 -1.7944 -2.9976 0.9741
-4.5875 -3.6227 -2.9968 0.9741
-3.4669 -4.7053 -2.9964 0.9741
-3.0343 -4.9950 -2.9963 0.9741
0.9720 -5.7627 -2.9961 0.9741
1.4726 -5.6207 -2.9788 0.9742
1.9581 -5.4426 -2.9654 0.9743
2.4309 -5.2384 -2.9607 0.9744
2.8884 -5.0029 -2.9616 0.9744
3.3234 -4.7276 -2.9627 0.9744
3.7325 -4.4148 -2.9638 0.9743
4.7725 -3.2761 -2.9677 0.9743
5.7929 -0.3878 -2.9765 0.9742
5.5823 1.6637 -2.9863 0.9742
5.4366 2.1637 -2.9998 0.9740
4.9675 3.0938 -3.0002 0.9740
4.6727 3.5238 -3.0004 0.9740
4.3407 3.9260 -3.0005 0.9740
3.9743 4.2969 -3.0007 0.9740
3.5762 4.6339 -3.0008 0.9740
3.1497 4.9339 -3.0009 0.9740
2.6981 5.1949 -3.0010 0.9740
2.2251 5.4145 -3.0011 0.9740
0.7156 5.8102 -3.0012 0.9740
0.1956 5.8508 -3.0012 0.9740
-1.8584 5.5508 -3.0010 0.9740
-2.3450 5.3632 -3.0009 0.9740
-3.2585 4.8620 -3.0006 0.9740
-4.0685 4.2068 -3.0003 0.9740
-5.0343 2.9818 -2.9997 0.9740
-5.2794 2.5217 -2.9995 0.9740
-5.7567 1.0371 -2.9988 0.9740
-5.8257 0.5206 -2.9986 0.9741
-5.6165 0.0000 -2.9983 0.9749
-5.2619 -1.9595 -2.9975 0.9749
-5.0663 -2.4199 -2.9973 0.9749
-3.5276 -4.3661 -2.9965 0.9749
-2.2485 -5.1425 -2.9962 0.9749
0.1875 -5.6092 -2.9961 0.9749
1.6527 -5.3278 -2.9779 0.9750
2.1122 -5.1391 -2.9663 0.9751
2.5571 -4.9233 -2.9616 0.9752
2.9861 -4.6777 -2.9626 0.9752
4.1206 -3.7268 -2.9660 0.9751
4.7202 -2.9398 -2.9686 0.9751
5.4597 -1.1097 -2.9742 0.9751
5.5395 -0.6197 -2.9757 0.9750
5.5753 -0.1242 -2.9771 0.9750
5.5140 0.8671 -2.9798 0.9750
5.4248 1.3569 -2.9852 0.9750
5.1233 2.3085 -2.9999 0.9748
4.6334 3.1807 -3.0002 0.9748
4.3322 3.5807 -3.0004 0.9748
3.9965 3.9522 -3.0005 0.9748
2.8106 4.8682 -3.0009 0.9748
2.3663 5.0992 -3.0010 0.9748
-0.0626 5.6214 -3.0011 0.9748
-0.5627 5.5934 -3.0011 0.9748
-2.9181 4.8039 -3.0006 0.9748
-3.3340 4.5249 -3.0005 0.9748
-4.7024 3.0762 -2.9998 0.9748
-4.9572 2.6452 -2.9995 0.9748
-5.1726 2.1934 -2.9993 0.9748
-5.3469 1.7242 -2.9991 0.9748
-5.4787 1.2413 -2.9989 0.9748
-5.6112 0.2502 -2.9985 0.9749
-5.4767 -1.2408 -2.9978 0.9749
-5.3442 -1.7233 -2.9976 0.9749
-5.1692 -2.1919 -2.9974 0.9749
-4.6981 -3.0733 -2.9970 0.9749
-4.4057 -3.4791 -2.9969 0.9749
-4.0783 -3.8572 -2.9967 0.9749
-3.7186 -4.2047 -2.9966 0.9749
-2.9140 -4.7971 -2.9964 0.9749
-0.5618 -5.5842 -2.9961 0.9749
0.4372 -5.5954 -2.9962 0.9749
1.8823 -5.2320 -2.9683 0.9751
2.3371 -5.0362 -2.9639 0.9751
3.5849 -4.2403 -2.9642 0.9751
4.5836 -3.1464 -2.9680 0.9751
5.0735 -2.2860 -2.9707 0.9751
5.2593 -1.8262 -2.9721 0.9751
5.4036 -1.3515 -2.9735 0.9751
5.5051 -0.8656 -2.9750 0.9750
5.5766 0.1243 -2.9778 0.9750
5.5459 0.6204 -2.9791 0.9750
5.3803 1.6036 -2.9971 0.9749
4.1685 3.7702 -3.0005 0.9748
3.8165 4.1264 -3.0006 0.9748
3.4343 4.4499 -3.0007 0.9748
2.5910 4.9886 -3.0009 0.9748
2.1368 5.1996 -3.0010 0.9748
1.6655 5.3692 -3.0011 0.9748
1.1811 5.4962 -3.0011 0.9748
-0.3130 5.6130 -3.0011 0.9748
-0.8113 5.5627 -3.0010 0.9748
-1.3032 5.4683 -3.0010 0.9748
-1.7847 5.3305 -3.0009 0.9748
-3.1292 4.6690 -3.0005 0.9748
-3.5321 4.3718 -3.0004 0.9748
-3.9070 4.0398 -3.0002 0.9748
-5.0699 2.4217 -2.9994 0.9748
-5.4182 1.4842 -2.9990 0.9748
-5.5947 0.4999 -2.9986 0.9749
-5.3986 0.0000 -2.9984 0.9756
-5.3123 -0.9570 -2.9979 0.9756
-5.2057 -1.4260 -2.9977 0.9756
-4.8698 -2.3261 -2.9974 0.9756
-4.6431 -2.7501 -2.9972 0.9756
-4.3797 -3.1523 -2.9970 0.9756
-4.0815 -3.5294 -2.9969 0.9756
-3.0037 -4.4818 -2.9965 0.9756
1.1334 -5.2745 -2.9963 0.9756
2.4608 -4.7383 -2.9653 0.9759
2.8707 -4.4968 -2.9630 0.9759
3.2606 -4.2249 -2.9641 0.9759
3.9611 -3.5826 -2.9663 0.9759
4.5374 -2.8259 -2.9688 0.9758
4.7730 -2.4119 -2.9701 0.9758
5.3034 0.8339 -2.9817 0.9757
5.2328 1.3088 -2.9958 0.9756
5.1020 1.7717 -2.9996 0.9756
4.4535 3.0572 -3.0002 0.9756
4.1639 3.4416 -3.0003 0.9756
2.7015 4.6792 -3.0008 0.9756
1.8291 5.0842 -3.0009 0.9756
1.3694 5.2269 -3.0010 0.9756
0.8987 5.3281 -3.0010 0.9756
-1.4854 5.1948 -3.0008 0.9756
-1.9418 5.0419 -3.0007 0.9756
-2.3828 4.8489 -3.0006 0.9756
-2.8048 4.6174 -3.0005 0.9756
-3.2045 4.3492 -3.0004 0.9756
-3.5787 4.0465 -3.0002 0.9756
-4.5198 2.9568 -2.9997 0.9756
-5.1394 1.6572 -2.9991 0.9756
-5.3510 0.7197 -2.9987 0.9756
-5.3934 0.2405 -2.9985 0.9756
-5.3499 -0.7195 -2.9980 0.9756
-5.2642 -1.1927 -2.9978 0.9756
-5.1368 -1.6564 -2.9976 0.9756
-4.9687 -2.1069 -2.9974 0.9756
-4.7612 -2.5406 -2.9973 0.9756
-4.5159 -2.9542 -2.9971 0.9756
-4.2348 -3.3442 -2.9969 0.9756
-3.5745 -4.0417 -2.9967 0.9756
-2.8010 -4.6111 -2.9964 0.9756
-1.4832 -5.1869 -2.9962 0.9756
-1.0156 -5.2983 -2.9962 0.9756
-0.5400 -5.3676 -2.9962 0.9756
-0.0601 -5.3944 -2.9962 0.9756
0.8973 -5.3197 -2.9963 0.9756
1.3673 -5.2189 -2.9964 0.9756
3.0686 -4.3652 -2.9635 0.9759
3.4462 -4.0762 -2.9646 0.9759
3.7968 -3.7548 -2.9657 0.9759
4.1176 -3.4033 -2.9669 0.9759
4.6598 -2.6215 -2.9695 0.9758
5.0553 -1.7554 -2.9722 0.9758
5.1939 -1.2991 -2.9735 0.9758
5.2913 -0.8320 -2.9749 0.9758
5.3599 0.1195 -2.9776 0.9758
5.1757 1.5426 -2.9995 0.9756
5.0182 1.9972 -2.9997 0.9756
4.8208 2.4361 -2.9999 0.9756
4.5852 2.8557 -3.0001 0.9756
4.3130 3.2526 -3.0002 0.9756
4.0066 3.6238 -3.0004 0.9756
3.6683 3.9662 -3.0005 0.9756
3.3009 4.2771 -3.0007 0.9756
2.9072 4.5541 -3.0008 0.9756
2.4904 4.7949 -3.0008 0.9756
2.0538 4.9977 -3.0009 0.9756
1.6008 5.1607 -3.0010 0.9756
-0.3008 5.3950 -3.0010 0.9756
-0.7798 5.3467 -3.0009 0.9756
-2.1645 4.9503 -3.0007 0.9756
-3.0076 4.4878 -3.0005 0.9756
-3.3950 4.2020 -3.0003 0.9756
-4.3838 3.1553 -2.9998 0.9756
-4.8731 2.3277 -2.9994 0.9756
-5.3138 0.9574 -2.9988 0.9756
-5.1724 -0.4622 -2.9982 0.9763
-5.1104 -0.9207 -2.9980 0.9763
-5.0078 -1.3718 -2.9978 0.9763
