ply
format ascii 1.0
element vertex 1589
property float32 x
property float32 y
property float32 z
property float32 I
end_header
-0.0365 -3.2795 1.1629 0.9862
0.2518 -3.2221 1.1460 0.9864
-0.0337 -3.0221 1.0154 0.9873
0.2340 -2.9950 1.0093 0.9874
0.5322 -3.1554 1.0751 0.9866
-0.1656 -2.9693 0.9445 0.9876
0.3594 -2.9182 0.9338 0.9877
2.4904 5.3667 1.8789 0.9755
-0.0323 -2.9051 0.9227 0.9879
0.2253 -2.8827 0.9183 0.9879
-0.4518 -3.0976 0.9372 0.9870
0.0933 -2.7888 0.8354 0.9884
0.3464 -2.8122 0.8483 0.9882
0.6369 -2.9639 0.9076 0.9874
-0.2958 -2.9402 0.8847 0.9877
0.2174 -2.7822 0.8355 0.9884
0.0914 -2.7355 0.7701 0.9887
0.3389 -2.7517 0.7800 0.9885
2.4904 5.3666 1.6646 0.9757
-0.2858 -2.8409 0.8033 0.9882
-0.0306 -2.7467 0.7729 0.9887
0.2131 -2.7277 0.7698 0.9887
0.7849 -2.9961 0.8714 0.9872
-12.4718 2.2469 3.5655 0.9487
-0.1524 -2.7337 0.7214 0.9887
0.0898 -2.6847 0.7078 0.9890
0.5993 -2.7891 0.7517 0.9883
-0.5777 -3.0136 0.8085 0.9874
-0.0300 -2.6955 0.7103 0.9889
0.7557 -2.8847 0.7858 0.9877
-0.7526 -3.1582 0.7980 0.9867
-0.4092 -2.8057 0.6969 0.9884
0.3261 -2.6479 0.6558 0.9891
0.5862 -2.7281 0.6859 0.9886
2.4903 5.3665 1.4542 0.9759
-0.5594 -2.9186 0.7304 0.9878
-0.0295 -2.6466 0.6506 0.9892
0.2053 -2.6270 0.6477 0.9892
-0.7201 -3.0216 0.7090 0.9873
0.3202 -2.5994 0.5978 0.9893
0.5738 -2.6703 0.6234 0.9889
0.8888 -2.8653 0.6847 0.9878
-0.2691 -2.6745 0.6135 0.9890
0.2017 -2.5807 0.5908 0.9894
1.1300 -3.1409 0.7619 0.9864
-0.1445 -2.5920 0.5473 0.9894
2.4903 5.3665 1.2472 0.9761
-0.5319 -2.7748 0.5956 0.9885
-0.0286 -2.5664 0.5411 0.9896
-0.1429 -2.5638 0.4969 0.9896
0.5560 -2.5874 0.5121 0.9893
0.8446 -2.7228 0.5517 0.9885
0.1971 -2.5224 0.4896 0.9897
1.0297 -2.8620 0.5886 0.9877
-0.6659 -2.7942 0.5065 0.9884
-0.3814 -2.6153 0.4660 0.9893
-0.1414 -2.5363 0.4479 0.9897
0.8316 -2.6807 0.4949 0.9887
1.2714 -3.0937 0.5898 0.9865
-0.8473 -2.9633 0.5435 0.9876
-0.5163 -2.6935 0.4836 0.9889
-0.0280 -2.5142 0.4434 0.9898
0.4264 -2.5277 0.4520 0.9896
1.0066 -2.7979 0.5243 0.9880
-1.1330 -3.3841 0.5683 0.9856
-0.3768 -2.5836 0.4158 0.9895
0.0829 -2.4804 0.3952 0.9900
0.8190 -2.6401 0.4402 0.9889
-0.5097 -2.6590 0.4311 0.9891
0.4219 -2.5014 0.4039 0.9898
0.9904 -2.7530 0.4659 0.9882
-1.0517 -3.1412 0.4712 0.9867
-0.3728 -2.5558 0.3674 0.9896
-0.1385 -2.4836 0.3538 0.9900
0.0821 -2.4562 0.3495 0.9901
2.4903 5.3664 0.8415 0.9764
-0.8163 -2.8547 0.4223 0.9881
-0.2534 -2.5188 0.3601 0.9898
-0.0275 -2.4647 0.3506 0.9901
0.4176 -2.4758 0.3571 0.9899
0.6673 -2.5472 0.3745 0.9894
-0.6365 -2.6710 0.3441 0.9890
-0.3688 -2.5287 0.3202 0.9898
-0.1371 -2.4582 0.3085 0.9901
0.2999 -2.4346 0.3074 0.9902
0.5307 -2.4695 0.3165 0.9899
0.7969 -2.5690 0.3371 0.9892
1.1612 -2.8257 0.3828 0.9878
2.4903 5.3663 0.7414 0.9764
-0.4970 -2.5929 0.3309 0.9894
-0.0272 -2.4409 0.3059 0.9902
0.1894 -2.4244 0.3047 0.9902
-0.6285 -2.6371 0.2941 0.9892
-0.3650 -2.5023 0.2743 0.9899
0.0806 -2.4117 0.2617 0.9903
0.5250 -2.4431 0.2710 0.9900
0.7875 -2.5386 0.2883 0.9894
2.4903 5.3663 0.6417 0.9765
-0.7887 -2.7583 0.3112 0.9885
-0.4910 -2.5614 0.2829 0.9896
0.1878 -2.4038 0.2615 0.9903
0.4095 -2.4276 0.2670 0.9901
0.6520 -2.4886 0.2790 0.9897
-0.9661 -2.8857 0.2790 0.9879
-0.6225 -2.6123 0.2462 0.9893
0.2956 -2.3998 0.2217 0.9903
1.1105 -2.7024 0.2678 0.9883
2.4902 5.3663 0.5424 0.9765
-0.7772 -2.7179 0.2592 0.9887
-0.2469 -2.4540 0.2261 0.9901
-0.0268 -2.4072 0.2207 0.9904
0.4073 -2.4144 0.2245 0.9902
0.6474 -2.4711 0.2342 0.9898
1.3829 -2.9801 0.3012 0.9869
-0.3607 -2.4733 0.1873 0.9900
0.0798 -2.3868 0.1790 0.9905
0.5192 -2.4163 0.1852 0.9901
0.7760 -2.5015 0.1963 0.9895
-1.2762 -3.3136 0.2661 0.9859
-0.7702 -2.6937 0.2100 0.9888
-0.0267 -2.3947 0.1795 0.9904
0.1859 -2.3789 0.1788 0.9905
0.4051 -2.4014 0.1825 0.9903
0.6434 -2.4558 0.1902 0.9899
0.9264 -2.5749 0.2051 0.9891
-0.9419 -2.8133 0.1728 0.9882
-0.6141 -2.5770 0.1543 0.9894
-0.3587 -2.4594 0.1448 0.9901
0.5164 -2.4032 0.1432 0.9902
0.7711 -2.4857 0.1516 0.9896
2.4902 5.3662 0.3446 0.9766
-0.7634 -2.6699 0.1617 0.9889
-0.4808 -2.5080 0.1487 0.9898
-0.2442 -2.4270 0.1421 0.9903
-0.0265 -2.3824 0.1388 0.9905
0.6394 -2.4407 0.1470 0.9899
0.9190 -2.5545 0.1581 0.9892
1.3238 -2.8526 0.1832 0.9875
-0.6100 -2.5598 0.1094 0.9895
-0.3567 -2.4458 0.1028 0.9902
-0.1329 -2.3828 0.0992 0.9905
0.7662 -2.4701 0.1075 0.9897
2.4902 5.3662 0.2460 0.9766
-1.1811 -3.0666 0.1366 0.9869
-0.4776 -2.4919 0.1055 0.9899
-0.2428 -2.4137 0.1009 0.9903
-0.0264 -2.3702 0.0986 0.9906
0.1840 -2.3547 0.0982 0.9906
1.3071 -2.8167 0.1291 0.9876
-0.9245 -2.7615 0.0726 0.9884
-0.6060 -2.5428 0.0652 0.9896
-0.1321 -2.3701 0.0592 0.9905
0.7615 -2.4548 0.0641 0.9898
2.4902 5.3662 0.1475 0.9766
-1.1630 -3.0197 0.0807 0.9871
-0.0263 -2.3582 0.0588 0.9906
0.1831 -2.3428 0.0586 0.9906
0.6317 -2.4112 0.0622 0.9901
0.9047 -2.5146 0.0666 0.9894
1.2909 -2.7817 0.0765 0.9878
-0.9161 -2.7363 0.0240 0.9885
-0.6020 -2.5261 0.0216 0.9897
-0.1315 -2.3575 0.0196 0.9906
0.0782 -2.3386 0.0194 0.9907
2.4902 5.3662 0.0492 0.9766
-0.7438 -2.6013 0.0225 0.9892
-0.0261 -2.3463 0.0195 0.9907
0.3965 -2.3509 0.0198 0.9905
0.8977 -2.4952 0.0220 0.9894
1.2750 -2.7476 0.0252 0.9880
-0.9078 -2.7115 -0.0238 0.9886
-0.5981 -2.5096 -0.0214 0.9897
-0.3508 -2.4057 -0.0202 0.9903
-0.1308 -2.3450 -0.0195 0.9906
0.0778 -2.3269 -0.0194 0.9907
0.2864 -2.3253 -0.0195 0.9907
0.7521 -2.4246 -0.0211 0.9899
1.6076 -3.0952 -0.0290 0.9861
-1.1287 -2.9307 -0.0261 0.9875
-0.4686 -2.4448 -0.0207 0.9901
-0.2389 -2.3748 -0.0198 0.9905
0.1812 -2.3194 -0.0193 0.9907
0.6242 -2.3825 -0.0205 0.9902
0.8908 -2.4761 -0.0219 0.9895
1.2596 -2.7144 -0.0249 0.9881
-0.9013 -2.6922 -0.0708 0.9887
-0.5946 -2.4952 -0.0640 0.9898
0.0774 -2.3156 -0.0578 0.9908
0.2850 -2.3137 -0.0581 0.9907
0.5029 -2.3405 -0.0597 0.9905
0.7480 -2.4113 -0.0630 0.9899
1.5795 -3.0410 -0.0855 0.9864
2.4901 5.3661 -0.1475 0.9766
-0.7334 -2.5647 -0.0665 0.9894
-0.2377 -2.3627 -0.0592 0.9905
-0.0259 -2.3232 -0.0579 0.9907
0.1804 -2.3080 -0.0577 0.9908
0.6208 -2.3694 -0.0611 0.9902
0.8849 -2.4597 -0.0652 0.9896
1.2481 -2.6896 -0.0739 0.9882
-0.8987 -2.6843 -0.1177 0.9887
-0.5934 -2.4899 -0.1064 0.9898
0.2845 -2.3099 -0.0968 0.9907
0.7465 -2.4065 -0.1048 0.9900
1.0461 -2.5456 -0.1144 0.9890
2.4901 5.3661 -0.2460 0.9766
-1.1115 -2.8859 -0.1286 0.9877
-0.4650 -2.4257 -0.1027 0.9902
-0.2373 -2.3586 -0.0986 0.9906
0.3919 -2.3230 -0.0980 0.9906
0.6196 -2.3649 -0.1016 0.9903
0.8828 -2.4536 -0.1084 0.9896
-0.8961 -2.6765 -0.1644 0.9888
-0.1296 -2.3251 -0.1356 0.9907
0.0772 -2.3081 -0.1345 0.9908
0.2840 -2.3060 -0.1353 0.9907
0.5012 -2.3325 -0.1390 0.9905
2.4901 5.3661 -0.3445 0.9766
-1.1062 -2.8722 -0.1793 0.9877
-0.2369 -2.3545 -0.1378 0.9906
0.6184 -2.3603 -0.1421 0.9903
0.8806 -2.4476 -0.1515 0.9896
1.2383 -2.6686 -0.1713 0.9883
-0.8935 -2.6687 -0.2109 0.9888
-0.5909 -2.4794 -0.1910 0.9898
-0.3472 -2.3807 -0.1803 0.9904
-0.1294 -2.3211 -0.1742 0.9907
0.0770 -2.3043 -0.1728 0.9908
0.2835 -2.3022 -0.1738 0.9907
0.5004 -2.3285 -0.1785 0.9905
-1.1010 -2.8586 -0.2296 0.9878
0.3905 -2.3152 -0.1759 0.9906
0.6172 -2.3557 -0.1825 0.9903
1.2335 -2.6582 -0.2196 0.9883
-0.3466 -2.3765 -0.2202 0.9904
0.0769 -2.3006 -0.2110 0.9908
0.2831 -2.2983 -0.2123 0.9907
1.5256 -2.9372 -0.3034 0.9868
-0.7269 -2.5422 -0.2424 0.9894
-0.4621 -2.4109 -0.2251 0.9902
-0.2361 -2.3463 -0.2162 0.9906
0.3899 -2.3113 -0.2149 0.9906
1.2287 -2.6478 -0.2676 0.9883
-0.8883 -2.6531 -0.3035 0.9888
-0.5884 -2.4689 -0.2753 0.9898
-0.3460 -2.3723 -0.2600 0.9904
0.0768 -2.2969 -0.2493 0.9908
1.0352 -2.5191 -0.2954 0.9891
1.5126 -2.9123 -0.3559 0.9869
2.4901 5.3660 -0.6416 0.9765
-1.0906 -2.8316 -0.3291 0.9879
-0.4612 -2.4060 -0.2657 0.9902
-0.2356 -2.3423 -0.2553 0.9906
0.1789 -2.2894 -0.2491 0.9908
0.3892 -2.3073 -0.2538 0.9906
0.6148 -2.3466 -0.2631 0.9903
0.8745 -2.4308 -0.2802 0.9897
1.2239 -2.6375 -0.3154 0.9884
-0.8857 -2.6454 -0.3496 0.9888
-0.5871 -2.4637 -0.3174 0.9898
-0.1287 -2.3092 -0.2898 0.9907
0.0767 -2.2931 -0.2875 0.9908
0.7391 -2.3827 -0.3126 0.9900
1.5050 -2.8976 -0.4092 0.9869
2.4901 5.3660 -0.7413 0.9764
-1.0854 -2.8183 -0.3785 0.9879
-0.7237 -2.5310 -0.3299 0.9894
0.3885 -2.3034 -0.2927 0.9906
0.6136 -2.3421 -0.3034 0.9903
1.2192 -2.6273 -0.3630 0.9884
-0.5859 -2.4584 -0.3595 0.9898
-0.3447 -2.3639 -0.3398 0.9904
0.0766 -2.2894 -0.3258 0.9908
1.0298 -2.5059 -0.3854 0.9891
1.5198 -2.9262 -0.4690 0.9868
2.4901 5.3659 -0.8414 0.9764
-1.0868 -2.8218 -0.4301 0.9879
-0.2348 -2.3341 -0.3337 0.9906
0.1783 -2.2819 -0.3256 0.9908
0.3879 -2.2995 -0.3317 0.9906
0.6124 -2.3376 -0.3437 0.9903
-0.8856 -2.6451 -0.4442 0.9888
-0.5848 -2.4541 -0.4017 0.9898
-0.3441 -2.3596 -0.3797 0.9904
0.0764 -2.2856 -0.3642 0.9908
0.2812 -2.2829 -0.3663 0.9907
0.4961 -2.3085 -0.3760 0.9905
1.0311 -2.5090 -0.4319 0.9891
1.5351 -2.9555 -0.5303 0.9866
0.1780 -2.2782 -0.3639 0.9908
-0.8883 -2.6534 -0.4934 0.9887
-0.5862 -2.4596 -0.4458 0.9898
-0.1282 -2.2989 -0.4060 0.9907
0.7375 -2.3776 -0.4389 0.9899
1.0340 -2.5160 -0.4796 0.9890
1.5507 -2.9856 -0.5932 0.9864
2.4900 5.3659 -1.0431 0.9763
-1.0981 -2.8513 -0.5388 0.9877
-0.4588 -2.3938 -0.4298 0.9901
-0.2343 -2.3289 -0.4127 0.9905
0.1778 -2.2753 -0.4024 0.9908
0.3870 -2.2941 -0.4102 0.9906
0.6116 -2.3346 -0.4255 0.9902
0.8719 -2.4236 -0.4542 0.9896
1.2273 -2.6449 -0.5141 0.9882
-0.8912 -2.6617 -0.5432 0.9886
-0.5875 -2.4652 -0.4904 0.9897
-0.3449 -2.3645 -0.4624 0.9903
0.0765 -2.2867 -0.4428 0.9907
0.7391 -2.3826 -0.4828 0.9899
1.5667 -3.0165 -0.6578 0.9862
2.4900 5.3658 -1.1447 0.9762
-0.7254 -2.5368 -0.5106 0.9893
-0.2347 -2.3332 -0.4538 0.9905
-0.0256 -2.2943 -0.4440 0.9907
0.1781 -2.2792 -0.4424 0.9907
0.6129 -2.3394 -0.4680 0.9902
-13.5162 -3.7025 -2.9545 0.9443
-13.1112 -4.8827 -2.9496 0.9444
-12.6240 -6.0300 -2.9494 0.9444
-12.0384 -7.1304 -2.9497 0.9444
-11.3588 -8.1756 -2.9505 0.9444
-9.7418 -10.0729 -2.9542 0.9443
-8.8112 -10.9058 -2.9558 0.9443
-7.8104 -11.6539 -2.9576 0.9443
-5.6286 -12.8728 -2.9619 0.9442
-0.8940 -2.6702 -0.5937 0.9886
-0.3455 -2.3691 -0.5047 0.9903
-0.1287 -2.3073 -0.4872 0.9906
8.6755 -11.2412 -2.9936 0.9436
9.6511 -10.4347 -2.9965 0.9436
12.0688 -7.5165 -2.9975 0.9435
12.6913 -6.4132 -2.9978 0.9435
13.2131 -5.2587 -2.9981 0.9435
13.9392 -2.8333 -2.9988 0.9435
14.1376 -1.5815 -2.9991 0.9435
14.2238 -0.3170 -2.9994 0.9435
14.1971 0.9504 -2.9997 0.9435
13.8064 3.4533 -3.0003 0.9435
11.7373 8.0572 -3.0014 0.9435
8.7331 10.3296 -2.8517 0.9462
6.7649 11.7172 -2.8524 0.9462
4.5814 12.7341 -2.8531 0.9462
3.4302 13.0930 -2.8534 0.9462
1.0547 13.4969 -2.8541 0.9462
-1.3554 13.4730 -2.8547 0.9461
-2.5475 13.2904 -2.8529 0.9462
-3.7160 12.9956 -2.8495 0.9462
-5.1172 13.2867 -3.0017 0.9435
-8.4438 11.4601 -3.0010 0.9435
-9.4295 10.6621 -3.0007 0.9435
-10.3401 9.7796 -3.0005 0.9435
-11.1684 8.8196 -3.0002 0.9435
-12.5526 6.6983 -2.9995 0.9435
-13.5384 4.3656 -2.9989 0.9435
-13.8717 3.1429 -2.9986 0.9435
-14.0948 1.8956 -2.9982 0.9435
-14.0903 -1.8949 -2.9973 0.9435
-13.3165 -4.2940 -2.9497 0.9444
-12.8802 -5.4617 -2.9494 0.9444
-11.7100 -7.6604 -2.9500 0.9444
-10.9886 -8.6776 -2.9519 0.9444
-8.3192 -11.2908 -2.9567 0.9443
-6.1940 -12.6044 -2.9608 0.9442
-1.1099 -2.8817 -0.6510 0.9875
-0.7271 -2.5428 -0.5576 0.9892
-0.4609 -2.4043 -0.5161 0.9900
-0.0256 -2.2983 -0.4846 0.9906
0.3884 -2.3024 -0.4922 0.9905
0.6142 -2.3442 -0.5109 0.9901
0.8758 -2.4343 -0.5454 0.9895
7.0891 -12.2788 -2.9891 0.9437
8.1621 -11.6108 -2.9921 0.9436
10.9576 -9.0567 -2.9970 0.9435
11.7214 -8.0463 -2.9973 0.9435
12.3923 -6.9718 -2.9976 0.9435
13.7984 -3.4512 -2.9986 0.9435
14.1948 -0.9502 -2.9992 0.9435
14.2246 0.3170 -2.9996 0.9435
14.1414 1.5820 -2.9999 0.9435
13.6396 4.0650 -3.0005 0.9435
12.7050 6.4201 -3.0010 0.9435
12.0841 7.5261 -3.0013 0.9435
10.7894 8.1367 -2.8489 0.9463
9.1836 9.9292 -2.8513 0.9462
6.2366 12.0076 -2.8525 0.9462
4.0098 12.9264 -2.8532 0.9462
1.6548 13.4357 -2.8539 0.9462
0.4524 13.5312 -2.8542 0.9462
-1.9541 13.3984 -2.8545 0.9462
-3.1352 13.1560 -2.8512 0.9462
-5.7039 13.0451 -3.0016 0.9435
-6.8418 12.4848 -3.0014 0.9435
-12.2424 7.2512 -2.9997 0.9435
-12.8378 6.1322 -2.9994 0.9435
-13.7187 3.7579 -2.9987 0.9435
-14.1645 1.2657 -2.9981 0.9435
-13.0808 -1.1689 -2.9975 0.9475
-12.9237 -2.3283 -2.9972 0.9475
-12.1215 -4.5141 -2.9523 0.9483
-11.6711 -5.5748 -2.9521 0.9483
-9.7888 -8.4647 -2.9537 0.9483
-9.0025 -9.3085 -2.9557 0.9483
-8.1447 -10.0808 -2.9580 0.9482
-7.2197 -10.7725 -2.9599 0.9482
-0.3462 -2.3736 -0.5475 0.9902
0.0767 -2.2947 -0.5240 0.9906
0.2824 -2.2927 -0.5273 0.9906
0.4987 -2.3209 -0.5418 0.9903
1.0429 -2.5376 -0.6262 0.9888
6.0325 -11.6146 -2.9872 0.9477
7.0490 -11.0420 -2.9900 0.9477
8.0112 -10.3804 -2.9928 0.9476
8.9119 -9.6354 -2.9957 0.9476
10.4846 -7.9068 -2.9973 0.9475
11.1478 -6.9429 -2.9975 0.9475
12.8751 -2.6170 -2.9987 0.9475
13.0582 -1.4608 -2.9990 0.9475
13.1378 -0.2927 -2.9993 0.9475
13.1129 0.8778 -2.9996 0.9475
11.4591 6.4468 -3.0009 0.9475
9.6207 7.9517 -2.8488 0.9501
8.8753 8.7770 -2.8490 0.9501
2.4900 5.3658 -1.3502 0.9760
4.2316 11.7619 -2.8530 0.9500
3.1683 12.0932 -2.8533 0.9500
2.0796 12.3286 -2.8537 0.9500
-0.1393 12.5046 -2.8543 0.9500
-6.8263 11.2376 -3.0010 0.9475
-7.7988 10.5846 -3.0008 0.9475
-8.7092 9.8477 -3.0006 0.9475
-9.5503 9.0326 -3.0003 0.9475
-10.9985 7.1949 -2.9998 0.9475
-11.5941 6.1868 -2.9995 0.9475
-12.0975 5.1298 -2.9992 0.9475
-13.0190 1.7509 -2.9983 0.9475
-13.1206 -0.5850 -2.9977 0.9475
-12.3113 -3.9699 -2.9524 0.9483
-11.9080 -5.0494 -2.9522 0.9483
-11.4113 -6.0892 -2.9522 0.9483
-7.6901 -10.4371 -2.9590 0.9482
-1.1159 -2.8973 -0.7087 0.9873
-0.7288 -2.5489 -0.6051 0.9892
-0.4619 -2.4097 -0.5600 0.9900
-0.2356 -2.3420 -0.5372 0.9904
0.6154 -2.3491 -0.5543 0.9901
0.8779 -2.4403 -0.5919 0.9894
1.2434 -2.6795 -0.6742 0.9880
7.5373 -10.7220 -2.9914 0.9476
8.4697 -10.0180 -2.9942 0.9476
11.4466 -6.4397 -2.9977 0.9475
12.4095 -4.3090 -2.9983 0.9475
12.9795 -2.0409 -2.9989 0.9475
13.1110 -0.8777 -2.9992 0.9475
13.0615 1.4612 -2.9998 0.9475
12.8808 2.6181 -3.0001 0.9475
12.5978 3.7546 -3.0003 0.9475
12.2146 4.8613 -3.0006 0.9475
11.1609 6.9511 -3.0011 0.9475
10.4304 7.8659 -2.9817 0.9478
8.4757 9.1638 -2.8491 0.9501
7.6341 9.8918 -2.8519 0.9500
6.7240 10.5330 -2.8522 0.9500
5.7605 11.0910 -2.8525 0.9500
4.7511 11.5610 -2.8529 0.9500
3.7036 11.9394 -2.8532 0.9500
1.5284 12.4096 -2.8538 0.9500
-2.8953 12.1494 -2.8507 0.9500
-4.1750 12.4702 -3.0015 0.9475
-6.3191 11.5309 -3.0011 0.9475
-9.1389 9.4495 -3.0004 0.9475
-11.3075 6.6975 -2.9996 0.9475
-11.8576 5.6639 -2.9993 0.9475
-12.3134 4.5856 -2.9990 0.9475
-12.9287 2.3292 -2.9984 0.9475
-12.1469 -1.0854 -2.9976 0.9510
-11.6254 -3.1845 -2.9628 0.9516
-9.7574 -7.0230 -2.9550 0.9517
-9.0961 -7.8657 -2.9558 0.9517
-8.3628 -8.6470 -2.9568 0.9517
-7.5631 -9.3609 -2.9581 0.9516
-5.7916 -10.5684 -2.9622 0.9516
-4.8315 -11.0498 -2.9643 0.9515
0.0769 -2.2988 -0.5653 0.9906
1.0459 -2.5450 -0.6763 0.9887
5.6011 -10.7841 -2.9869 0.9512
7.4376 -9.6372 -2.9922 0.9511
8.2734 -8.9451 -2.9950 0.9510
9.0431 -8.1790 -2.9971 0.9510
10.8856 -5.5007 -2.9979 0.9510
11.9554 -2.4300 -2.9987 0.9510
12.1254 -1.3564 -2.9990 0.9510
11.8407 2.9616 -3.0001 0.9510
11.5311 4.0040 -3.0003 0.9510
11.1297 5.0149 -3.0006 0.9510
8.2408 8.1495 -2.8488 0.9534
7.4831 8.8510 -2.8489 0.9534
6.6731 9.4927 -2.8521 0.9533
5.8022 10.0498 -2.8524 0.9533
2.4900 5.3658 -1.4540 0.9759
3.9293 10.9216 -2.8530 0.9533
2.9419 11.2292 -2.8533 0.9533
0.9045 11.5752 -2.8539 0.9533
-2.1840 11.3940 -2.8516 0.9533
-5.3848 10.9578 -3.0011 0.9510
-6.3383 10.4343 -3.0009 0.9510
-7.2414 9.8281 -3.0007 0.9510
-8.8678 8.3871 -3.0002 0.9510
-11.2333 4.7633 -2.9991 0.9510
-11.8977 2.6957 -2.9986 0.9510
-12.0892 1.6259 -2.9983 0.9510
-12.1837 -0.5433 -2.9977 0.9510
-12.0859 -1.6254 -2.9975 0.9510
-11.8770 -2.6909 -2.9934 0.9511
-10.6047 -5.6588 -2.9545 0.9517
-9.4361 -7.4516 -2.9554 0.9517
-7.9709 -9.0128 -2.9574 0.9516
-6.2544 -10.2961 -2.9611 0.9516
-0.0257 -2.3064 -0.5670 0.9905
0.6168 -2.3541 -0.5982 0.9900
0.8804 -2.4470 -0.6392 0.9893
6.0786 -10.5285 -2.9882 0.9512
6.9977 -9.9543 -2.9909 0.9511
7.8631 -9.3005 -2.9936 0.9511
8.6675 -8.5715 -2.9963 0.9510
9.3989 -7.7684 -2.9972 0.9510
10.6292 -5.9799 -2.9978 0.9510
11.8348 -2.9601 -2.9986 0.9510
12.1744 -0.8150 -2.9992 0.9510
12.1997 0.2719 -2.9994 0.9510
12.1282 1.3567 -2.9997 0.9510
11.6975 3.4862 -3.0002 0.9510
10.8957 5.5059 -3.0007 0.9510
7.8698 8.5087 -2.8488 0.9534
6.2439 9.7808 -2.8522 0.9533
4.4117 10.7352 -2.8528 0.9533
2.4389 11.3497 -2.8534 0.9533
0.3880 11.6046 -2.8540 0.9533
-0.6465 11.5942 -2.8543 0.9533
-1.6751 11.4857 -2.8530 0.9533
-3.8766 11.5787 -3.0013 0.9509
-4.8915 11.1871 -3.0011 0.9510
-5.8674 10.7067 -3.0010 0.9510
-6.7966 10.1412 -3.0008 0.9510
-8.4857 8.7742 -3.0003 0.9510
-9.2322 7.9835 -3.0001 0.9510
-9.9054 7.1295 -2.9998 0.9510
-10.4996 6.2190 -2.9995 0.9510
-11.0105 5.2593 -2.9993 0.9510
-11.4338 4.2580 -2.9990 0.9510
-12.0054 2.1629 -2.9984 0.9510
-11.3773 0.0000 -2.9979 0.9540
-11.1951 -2.0169 -2.9974 0.9540
-9.6544 -5.7183 -2.9567 0.9546
-7.8057 -8.0710 -2.9586 0.9546
-7.0590 -8.7371 -2.9597 0.9546
-4.5068 -10.3072 -2.9642 0.9545
-0.9041 -2.7006 -0.7504 0.9883
-0.5929 -2.4881 -0.6740 0.9895
-0.3475 -2.3828 -0.6345 0.9901
-0.1294 -2.3203 -0.6123 0.9904
5.2244 -10.0588 -2.9867 0.9542
6.1041 -9.5620 -2.9892 0.9542
9.0823 -6.8493 -2.9974 0.9540
9.6567 -6.0142 -2.9977 0.9540
10.1545 -5.1313 -2.9979 0.9540
11.1523 -2.2668 -2.9987 0.9540
11.3795 -0.2536 -2.9992 0.9540
11.2461 1.7684 -2.9998 0.9540
10.7560 3.7349 -3.0002 0.9540
10.3817 4.6778 -3.0004 0.9540
9.9248 5.5836 -3.0006 0.9540
8.7333 7.2183 -2.9855 0.9542
6.2250 8.8552 -2.8522 0.9562
5.4126 9.3748 -2.8524 0.9562
-0.1206 10.8306 -2.8540 0.9562
-5.9122 9.7329 -3.0007 0.9540
-7.5432 8.5293 -3.0003 0.9540
-8.2718 7.8235 -3.0001 0.9540
-8.9346 7.0556 -2.9998 0.9540
-9.5264 6.2319 -2.9996 0.9540
-10.4786 4.4433 -2.9991 0.9540
-11.2772 1.5166 -2.9983 0.9540
-11.3655 -0.5068 -2.9978 0.9540
-11.0938 -2.5135 -2.9973 0.9540
-10.6799 -3.4438 -2.9568 0.9546
-10.3302 -4.3804 -2.9566 0.9546
-9.8993 -5.2824 -2.9566 0.9546
-9.3906 -6.1430 -2.9568 0.9546
-8.8079 -6.9555 -2.9573 0.9546
-8.1561 -7.7139 -2.9581 0.9546
-7.4397 -8.4122 -2.9591 0.9546
-5.8356 -9.6066 -2.9618 0.9546
-4.9600 -10.0933 -2.9634 0.9545
-1.1533 -2.9944 -0.8455 0.9868
-0.7324 -2.5614 -0.7020 0.9890
-0.4640 -2.4205 -0.6494 0.9899
-0.2365 -2.3509 -0.6226 0.9903
0.1794 -2.2953 -0.6067 0.9905
0.6181 -2.3592 -0.6426 0.9900
0.8828 -2.4538 -0.6871 0.9893
1.2665 -2.7292 -0.7928 0.9876
7.3336 -8.6742 -2.9931 0.9541
8.0833 -7.9938 -2.9956 0.9541
8.7678 -7.2468 -2.9973 0.9540
9.9154 -5.5783 -2.9978 0.9540
10.7493 -3.7325 -2.9983 0.9540
11.0398 -2.7612 -2.9986 0.9540
11.3800 0.2536 -2.9994 0.9540
11.3132 1.2656 -2.9996 0.9540
10.9113 3.2519 -3.0001 0.9540
10.5794 4.2105 -3.0003 0.9540
9.6665 6.0204 -3.0007 0.9540
9.0928 6.8572 -3.0009 0.9540
8.0176 7.2515 -2.8485 0.9563
7.3407 7.9367 -2.8487 0.9563
6.6054 8.5589 -2.8488 0.9563
5.8247 9.1242 -2.8524 0.9562
4.9898 9.6070 -2.8525 0.9562
4.1153 10.0140 -2.8528 0.9562
3.2080 10.3415 -2.8531 0.9562
1.3238 10.7485 -2.8536 0.9562
-0.6030 10.8149 -2.8541 0.9562
-6.3398 9.4596 -3.0006 0.9540
-7.9154 8.1845 -3.0002 0.9540
-8.6118 7.4469 -3.0000 0.9540
-9.2397 6.6504 -2.9997 0.9540
-9.7941 5.8011 -2.9995 0.9540
-10.2707 4.9059 -2.9992 0.9540
-10.6657 3.9720 -2.9990 0.9540
-11.3331 1.0127 -2.9982 0.9540
-10.6554 0.0000 -2.9980 0.9567
-10.6122 -0.9483 -2.9977 0.9567
-10.4849 -1.8889 -2.9975 0.9567
-9.0473 -5.3587 -2.9585 0.9572
-8.5353 -6.1433 -2.9588 0.9572
-7.9561 -6.8799 -2.9594 0.9572
-5.0626 -9.2380 -2.9639 0.9572
-0.3482 -2.3875 -0.6789 0.9900
1.0578 -2.5740 -0.7830 0.9885
4.8926 -9.4200 -2.9865 0.9569
6.4959 -8.4169 -2.9914 0.9568
7.2250 -7.8116 -2.9938 0.9567
7.8977 -7.1430 -2.9961 0.9567
8.5061 -6.4148 -2.9975 0.9567
9.0440 -5.6326 -2.9977 0.9567
10.2133 -3.0439 -2.9985 0.9567
10.4445 -2.1229 -2.9987 0.9567
10.5321 1.6561 -2.9997 0.9567
10.0730 3.4978 -3.0001 0.9567
9.7224 4.3807 -3.0003 0.9567
8.2210 6.7949 -3.0008 0.9566
7.1985 7.1188 -2.8485 0.9588
6.5366 7.7316 -2.8486 0.9588
5.8227 8.2829 -2.8487 0.9588
2.4900 5.3657 -1.6643 0.9757
3.4325 9.5412 -2.8529 0.9587
1.6869 10.0005 -2.8534 0.9587
0.7901 10.1118 -2.8537 0.9587
-0.1130 10.1428 -2.8539 0.9587
-1.9074 9.9507 -2.8507 0.9588
-2.7834 9.7341 -2.8485 0.9588
-4.7038 9.5720 -3.0007 0.9567
-7.0643 7.9877 -3.0002 0.9567
-9.4049 5.0186 -2.9993 0.9567
-9.8135 4.1613 -2.9991 0.9567
-10.1441 3.2710 -2.9988 0.9567
-10.5616 1.4204 -2.9983 0.9567
-10.6452 0.4747 -2.9981 0.9567
-10.5591 -1.4200 -2.9976 0.9567
-10.0167 -3.2300 -2.9612 0.9572
-9.2768 -4.9502 -2.9584 0.9572
-6.2444 -8.4749 -2.9618 0.9572
-1.1779 -3.0583 -0.9221 0.9865
-0.7353 -2.5713 -0.7525 0.9889
-0.2370 -2.3555 -0.6661 0.9902
0.3912 -2.3195 -0.6618 0.9903
0.6194 -2.3642 -0.6876 0.9899
1.2874 -2.7743 -0.8605 0.9874
5.3096 -9.1964 -2.9878 0.9568
6.1120 -8.6944 -2.9902 0.9568
6.8671 -8.1225 -2.9926 0.9568
10.5292 -1.6556 -2.9988 0.9567
10.6576 0.2375 -2.9993 0.9567
10.2185 3.0454 -3.0000 0.9567
9.9076 3.9431 -3.0002 0.9567
7.5094 6.7918 -2.8488 0.9588
6.8744 7.4325 -2.8485 0.9588
6.1858 8.0152 -2.8486 0.9588
3.8541 9.3784 -2.8528 0.9587
3.0043 9.6851 -2.8531 0.9587
2.1306 9.9150 -2.8533 0.9587
0.3389 10.1374 -2.8538 0.9587
-0.5647 10.1281 -2.8540 0.9587
-1.4628 10.0302 -2.8519 0.9588
-2.3477 9.8516 -2.8494 0.9588
-4.2728 9.7723 -3.0008 0.9566
-5.9371 8.8589 -3.0005 0.9567
-6.7016 8.2948 -3.0003 0.9567
-8.6531 6.2281 -2.9997 0.9567
-9.6187 4.5945 -2.9992 0.9567
-10.2793 2.8158 -2.9987 0.9567
-10.4883 1.8896 -2.9984 0.9567
-10.6140 0.9485 -2.9982 0.9567
-10.0140 0.0000 -2.9980 0.9590
-9.6013 -2.6300 -2.9803 0.9593
-9.2659 -3.4507 -2.9601 0.9596
-8.9217 -4.2615 -2.9600 0.9596
-8.5072 -5.0389 -2.9601 0.9596
-6.2189 -7.6972 -2.9625 0.9595
-4.7596 -8.6852 -2.9650 0.9595
-3.9697 -9.0789 -2.9665 0.9595
0.2845 -2.3098 -0.6967 0.9903
0.5025 -2.3386 -0.7161 0.9901
0.7504 -2.4189 -0.7582 0.9895
1.0688 -2.6006 -0.8418 0.9883
4.5980 -8.8527 -2.9865 0.9592
5.3718 -8.4148 -2.9888 0.9592
6.1041 -7.9093 -2.9911 0.9591
6.7889 -7.3401 -2.9933 0.9591
7.4207 -6.7116 -2.9955 0.9591
9.3050 -3.7033 -2.9982 0.9590
9.9963 0.6692 -2.9994 0.9590
9.8978 1.5564 -2.9996 0.9590
9.7207 2.4313 -2.9998 0.9590
9.1368 4.1169 -3.0002 0.9590
8.7346 4.9140 -3.0004 0.9590
7.7257 6.3855 -3.0007 0.9590
6.7648 6.6899 -2.8483 0.9611
5.4719 7.7839 -2.8485 0.9611
4.7642 8.2519 -2.8527 0.9610
2.4899 5.3657 -1.7709 0.9756
3.2260 8.9668 -2.8529 0.9610
1.5853 9.3982 -2.8534 0.9610
0.7426 9.5028 -2.8536 0.9610
-0.1062 9.5320 -2.8538 0.9610
-1.7923 9.3503 -2.8503 0.9610
-2.6276 9.1891 -2.8613 0.9609
-3.6024 9.3535 -3.0008 0.9590
-4.4204 8.9953 -3.0006 0.9590
-5.9447 8.0682 -3.0003 0.9590
-6.6387 7.5065 -3.0001 0.9590
-7.8634 6.2097 -2.9997 0.9590
-8.8386 4.7164 -2.9993 0.9590
-9.5333 3.0741 -2.9988 0.9590
-10.0037 -0.4461 -2.9979 0.9591
-8.2747 -5.4130 -2.9603 0.9596
-7.7611 -6.1289 -2.9607 0.9595
-6.5545 -7.4113 -2.9620 0.9595
-5.8710 -7.9681 -2.9631 0.9595
-5.1406 -8.4626 -2.9644 0.9595
-1.2798 -3.3228 -1.0660 0.9852
-0.7425 -2.5968 -0.8086 0.9888
-0.4662 -2.4323 -0.7414 0.9897
-0.0258 -2.3190 -0.6943 0.9904
0.1800 -2.3036 -0.6918 0.9904
0.6208 -2.3694 -0.7333 0.9898
0.8934 -2.4833 -0.7901 0.9890
1.3092 -2.8213 -0.9311 0.9871
5.7435 -8.1702 -2.9899 0.9592
6.4528 -7.6324 -2.9922 0.9591
8.2551 -5.6668 -2.9977 0.9591
8.7274 -4.9099 -2.9979 0.9591
9.4611 -3.2852 -2.9984 0.9590
9.7167 -2.4303 -2.9986 0.9590
9.9952 -0.6691 -2.9991 0.9590
10.0158 0.2232 -2.9993 0.9590
9.9570 1.1139 -2.9995 0.9590
9.6030 2.8620 -2.9999 0.9590
9.3108 3.7056 -3.0001 0.9590
8.5073 5.2984 -3.0005 0.9590
7.4278 6.7181 -2.9984 0.9590
6.4602 6.9848 -2.8484 0.9611
5.8131 7.5323 -2.8485 0.9611
5.1198 8.0200 -2.8486 0.9611
3.6221 8.8139 -2.8528 0.9610
2.0023 9.3179 -2.8533 0.9610
1.1651 9.4599 -2.8535 0.9610
-1.3745 9.4247 -2.8514 0.9610
-2.2061 9.2574 -2.8491 0.9610
-4.0154 9.1835 -3.0007 0.9590
-5.5795 8.3252 -3.0004 0.9590
-6.9663 7.2032 -3.0000 0.9590
-7.5793 6.5541 -2.9998 0.9590
-8.1320 5.8531 -2.9996 0.9590
-9.0396 4.3178 -2.9991 0.9590
-9.3873 3.4959 -2.9989 0.9590
-9.6604 2.6463 -2.9987 0.9590
-9.8569 1.7758 -2.9985 0.9590
-9.9750 0.8914 -2.9982 0.9590
-9.0742 -2.4857 -2.9880 0.9613
-8.4144 -4.0192 -2.9615 0.9616
-8.0235 -4.7523 -2.9616 0.9616
-7.0556 -6.1012 -2.9623 0.9616
-6.4860 -6.7065 -2.9630 0.9616
-5.8650 -7.2592 -2.9638 0.9616
-5.1974 -7.7550 -2.9648 0.9616
-4.4884 -8.1903 -2.9661 0.9616
-3.7433 -8.5612 -2.9675 0.9615
-0.3507 -2.4045 -0.7717 0.9899
-0.1302 -2.3344 -0.7425 0.9902
0.0774 -2.3155 -0.7358 0.9903
4.3343 -8.3451 -2.9864 0.9613
6.9940 -6.3257 -2.9949 0.9612
9.0483 -2.6967 -2.9985 0.9611
9.2530 -1.8808 -2.9987 0.9611
9.4412 -0.2104 -2.9991 0.9611
9.4232 0.6308 -2.9994 0.9611
9.3303 1.4671 -2.9996 0.9611
9.1633 2.2919 -2.9998 0.9611
8.9235 3.0986 -2.9999 0.9611
8.2336 4.6322 -3.0003 0.9611
7.7891 5.3469 -3.0004 0.9611
6.4358 6.3645 -2.8746 0.9627
5.7904 6.8489 -2.8483 0.9631
5.1580 7.3374 -2.8484 0.9631
2.4899 5.3657 -1.8786 0.9755
1.4944 8.8594 -2.8533 0.9630
-2.5528 8.9276 -2.9489 0.9618
-6.2580 7.0761 -3.0000 0.9611
-6.8626 6.4906 -2.9998 0.9611
-7.4125 5.8536 -2.9996 0.9611
-7.9036 5.1703 -2.9994 0.9611
-8.3318 4.4460 -2.9992 0.9611
-9.2084 2.0864 -2.9986 0.9611
-9.4311 0.4205 -2.9981 0.9612
-9.4304 -0.4205 -2.9979 0.9612
-9.3549 -1.2581 -2.9977 0.9612
-8.8926 -2.8675 -2.9673 0.9615
-7.8042 -5.1052 -2.9617 0.9616
-6.7775 -6.4101 -2.9626 0.9616
-6.1816 -6.9896 -2.9634 0.9616
-5.5367 -7.5144 -2.9643 0.9616
-4.8477 -7.9804 -2.9654 0.9616
-0.2383 -2.3685 -0.7560 0.9901
-0.0259 -2.3233 -0.7379 0.9903
0.1804 -2.3079 -0.7352 0.9903
0.3932 -2.3308 -0.7507 0.9901
1.3320 -2.8705 -1.0050 0.9868
5.4138 -7.7013 -2.9897 0.9613
7.2712 -6.0098 -2.9959 0.9612
7.7821 -5.3421 -2.9977 0.9612
8.6071 -3.8782 -2.9982 0.9612
8.9188 -3.0969 -2.9984 0.9612
9.1597 -2.2910 -2.9986 0.9611
9.3280 -1.4667 -2.9988 0.9611
9.4222 -0.6307 -2.9990 0.9611
9.2560 1.8814 -2.9997 0.9611
9.0524 2.6979 -2.9999 0.9611
8.4316 4.2607 -3.0002 0.9611
8.0193 4.9945 -3.0004 0.9611
5.4796 7.1002 -2.8483 0.9631
4.8261 7.5599 -2.8484 0.9631
4.1403 7.9716 -2.8528 0.9630
2.6616 8.5803 -2.8531 0.9630
1.8875 8.7837 -2.8532 0.9630
1.0983 8.9175 -2.8534 0.9630
-0.5002 8.9700 -2.8532 0.9630
-1.2956 8.8832 -2.8510 0.9630
-2.0795 8.7259 -2.8488 0.9631
-6.5668 6.7901 -2.9999 0.9611
-7.1447 6.1783 -2.9997 0.9611
-7.6657 5.5174 -2.9995 0.9611
-8.1258 4.8129 -2.9993 0.9611
-8.5213 4.0703 -2.9991 0.9611
-9.1067 2.4946 -2.9987 0.9611
-9.2919 1.6740 -2.9985 0.9612
-9.4033 0.8403 -2.9982 0.9612
-8.9233 0.0000 -2.9981 0.9630
-8.8873 -0.7942 -2.9979 0.9630
-8.7808 -1.5819 -2.9977 0.9631
-8.5928 -2.3538 -2.9934 0.9631
-8.2642 -3.0776 -2.9629 0.9635
-7.9572 -3.8008 -2.9628 0.9635
-7.1581 -5.1521 -2.9632 0.9635
-6.6721 -5.7696 -2.9636 0.9635
-5.5460 -6.8644 -2.9650 0.9634
-0.1310 -2.3497 -0.7907 0.9901
0.0779 -2.3290 -0.7829 0.9902
0.5079 -2.3638 -0.8123 0.9898
1.0917 -2.6564 -0.9649 0.9880
4.0969 -7.8880 -2.9864 0.9632
6.0476 -6.5386 -2.9925 0.9631
6.6099 -5.9783 -2.9944 0.9631
7.1202 -5.3696 -2.9963 0.9631
7.5739 -4.7171 -2.9979 0.9630
7.9642 -4.0245 -2.9981 0.9630
8.2914 -3.2999 -2.9983 0.9630
8.5528 -2.5490 -2.9985 0.9630
8.9242 -0.1989 -2.9991 0.9630
8.9071 0.5963 -2.9993 0.9630
8.8192 1.3868 -2.9995 0.9630
8.6613 2.1663 -2.9997 0.9630
8.1409 3.6682 -3.0000 0.9630
7.3623 5.0539 -3.0003 0.9630
4.8753 6.9353 -2.8483 0.9649
4.2388 7.3419 -2.8483 0.9649
2.4899 5.3656 -1.9874 0.9753
1.4125 8.3743 -2.8533 0.9648
-0.0946 8.4928 -2.8536 0.9648
-2.4553 8.5868 -3.0006 0.9630
-3.2097 8.3339 -3.0005 0.9630
-3.9386 8.0148 -3.0004 0.9630
-4.6361 7.6321 -3.0003 0.9630
-5.2967 7.1888 -3.0001 0.9630
-7.0065 5.5330 -2.9996 0.9630
-7.4707 4.8871 -2.9994 0.9630
-7.8755 4.2025 -2.9992 0.9630
-8.2177 3.4846 -2.9990 0.9630
-8.4947 2.7392 -2.9988 0.9630
-8.7042 1.9721 -2.9986 0.9630
-8.8445 1.1895 -2.9984 0.9630
-8.9147 0.3975 -2.9982 0.9630
-8.9141 -0.3975 -2.9980 0.9630
-8.1187 -3.4426 -2.9628 0.9635
-7.7800 -4.1515 -2.9628 0.9635
-5.8455 -6.6096 -2.9646 0.9635
-5.2355 -7.1057 -2.9655 0.9634
-0.7594 -2.6557 -0.9280 0.9884
0.1814 -2.3212 -0.7823 0.9902
0.3957 -2.3460 -0.7993 0.9900
5.7484 -6.7993 -2.9915 0.9631
6.3350 -6.2648 -2.9934 0.9631
8.1359 -3.6658 -2.9982 0.9630
8.4305 -2.9274 -2.9984 0.9630
8.6582 -2.1655 -2.9986 0.9630
8.8171 -1.3864 -2.9988 0.9630
8.9062 -0.5962 -2.9990 0.9630
8.9245 0.1989 -2.9992 0.9630
8.8720 0.9925 -2.9994 0.9630
8.2960 3.3017 -3.0000 0.9630
7.5800 4.7209 -3.0003 0.9630
7.1300 5.3771 -3.0004 0.9630
5.7560 6.2233 -2.8481 0.9649
3.9076 7.5235 -2.8484 0.9649
2.5159 8.1107 -2.8531 0.9648
1.7842 8.3028 -2.8533 0.9648
-0.4727 8.4773 -2.8526 0.9648
-1.2245 8.3956 -2.8506 0.9648
-2.8353 8.4688 -3.0006 0.9630
-3.5777 8.1825 -3.0005 0.9630
-4.9713 7.4178 -3.0002 0.9630
-6.2071 6.4181 -2.9999 0.9630
-8.3645 3.1150 -2.9989 0.9630
-8.6080 2.3580 -2.9987 0.9630
-8.7831 1.5824 -2.9985 0.9630
-8.8885 0.7943 -2.9983 0.9630
-8.4211 -0.7525 -2.9979 0.9648
-8.3202 -1.4989 -2.9977 0.9648
-8.1504 -2.2326 -2.9965 0.9648
-7.8378 -2.9188 -2.9656 0.9651
-7.5427 -3.6029 -2.9640 0.9651
-7.1923 -4.2600 -2.9641 0.9651
-6.7852 -4.8837 -2.9643 0.9651
-6.3245 -5.4690 -2.9648 0.9651
-3.3547 -7.6724 -2.9692 0.9651
-0.9703 -2.8983 -1.0838 0.9871
-0.6131 -2.5725 -0.9377 0.9888
-0.3555 -2.4378 -0.8735 0.9896
-0.1319 -2.3655 -0.8401 0.9900
0.0784 -2.3437 -0.8315 0.9901
0.2887 -2.3444 -0.8376 0.9900
0.5114 -2.3797 -0.8631 0.9897
1.1037 -2.6857 -1.0296 0.9878
5.1523 -6.6760 -2.9902 0.9648
5.7296 -6.1948 -2.9921 0.9648
6.7454 -5.0869 -2.9957 0.9648
8.1041 -2.4153 -2.9985 0.9647
8.2874 -1.6845 -2.9987 0.9647
8.4050 -0.9402 -2.9989 0.9647
8.3564 1.3140 -2.9995 0.9647
7.9919 2.7751 -2.9998 0.9647
7.3740 4.1486 -3.0001 0.9647
6.5222 5.3908 -3.0004 0.9647
4.6194 6.5712 -2.8482 0.9665
4.0163 6.9564 -2.8482 0.9665
2.7240 7.5715 -2.8532 0.9664
0.6269 8.0230 -2.8535 0.9664
-0.0896 8.0451 -2.8529 0.9664
-0.8048 8.0004 -2.8511 0.9665
-1.5127 7.8918 -2.8493 0.9665
-2.3264 8.1360 -3.0005 0.9647
-4.3927 7.2314 -3.0002 0.9647
-5.0187 6.8114 -3.0000 0.9647
-6.1462 5.8131 -2.9997 0.9647
-6.6388 5.2426 -2.9995 0.9647
-7.0787 4.6307 -2.9993 0.9647
-7.4622 3.9820 -2.9992 0.9647
-8.0490 2.5955 -2.9988 0.9647
-8.2475 1.8687 -2.9986 0.9647
-8.4471 0.3767 -2.9982 0.9648
-8.4465 -0.3766 -2.9980 0.9648
-8.3790 -1.1268 -2.9978 0.9648
-8.2449 -1.8680 -2.9976 0.9648
-7.9788 -2.5728 -2.9726 0.9650
-7.3748 -3.9353 -2.9640 0.9651
-6.9956 -4.5763 -2.9642 0.9651
-6.5613 -5.1814 -2.9645 0.9651
-6.0751 -5.7458 -2.9650 0.9651
-3.0103 -7.8159 -2.9699 0.9651
-0.4776 -2.4914 -0.8995 0.9893
-0.2415 -2.4006 -0.8555 0.9898
0.1825 -2.3358 -0.8308 0.9901
0.9208 -2.5594 -0.9645 0.9885
4.2124 -7.2961 -2.9873 0.9649
5.4463 -6.4419 -2.9912 0.9648
6.0018 -5.9353 -2.9930 0.9648
7.3689 -4.1456 -2.9980 0.9648
8.2039 -2.0519 -2.9986 0.9647
8.4388 -0.5649 -2.9990 0.9647
8.4562 0.1885 -2.9992 0.9647
8.2898 1.6850 -2.9995 0.9647
8.1074 2.4163 -2.9997 0.9647
7.8606 3.1284 -2.9999 0.9647
7.1821 4.4731 -3.0002 0.9647
6.2757 5.6760 -3.0004 0.9647
4.3221 6.7705 -2.8482 0.9665
0.2689 8.0432 -2.8536 0.9664
-1.1600 7.9540 -2.8502 0.9665
-3.3899 7.7529 -3.0004 0.9647
-4.0663 7.4201 -3.0002 0.9647
-5.3170 6.5809 -3.0000 0.9647
-7.2777 4.3106 -2.9993 0.9647
-7.6320 3.6455 -2.9991 0.9647
-7.9256 2.9516 -2.9989 0.9647
-8.3223 1.4993 -2.9985 0.9647
-8.4222 0.7526 -2.9983 0.9647
-7.4494 -2.7742 -2.9683 0.9666
-7.1651 -3.4225 -2.9651 0.9667
-6.8322 -4.0467 -2.9652 0.9667
-6.4454 -4.6391 -2.9654 0.9667
-5.5226 -5.7103 -2.9664 0.9667
-4.9936 -6.1806 -2.9671 0.9666
-4.4249 -6.6025 -2.9679 0.9666
-3.8210 -6.9724 -2.9689 0.9666
-0.6184 -2.5950 -0.9961 0.9887
0.5149 -2.3959 -0.9151 0.9896
0.7743 -2.4961 -0.9759 0.9889
1.1314 -2.7530 -1.1114 0.9874
4.3059 -6.7451 -2.9882 0.9664
7.8696 -1.5996 -2.9987 0.9663
7.7929 1.9491 -2.9996 0.9663
7.5889 2.6351 -2.9997 0.9663
7.3246 3.3003 -2.9999 0.9663
7.0021 3.9393 -3.0000 0.9663
4.3863 6.2397 -2.8481 0.9680
3.8137 6.6054 -2.8481 0.9680
2.4899 5.3656 -2.2088 0.9751
1.9366 7.3920 -2.8534 0.9679
0.5953 7.6178 -2.8532 0.9679
-0.0851 7.6375 -2.8521 0.9679
-0.7641 7.5955 -2.8505 0.9679
-1.4362 7.4928 -2.8488 0.9679
-2.2091 7.7256 -3.0004 0.9663
-4.1712 6.8667 -3.0001 0.9663
-4.7656 6.4679 -3.0000 0.9663
-5.8362 5.5199 -2.9997 0.9663
-6.3040 4.9782 -2.9995 0.9663
-6.7217 4.3972 -2.9993 0.9663
-7.9581 1.0703 -2.9984 0.9663
-8.0208 -0.3577 -2.9980 0.9663
-7.5889 -2.4471 -2.9775 0.9665
-7.0056 -3.7383 -2.9651 0.9667
-6.6454 -4.3472 -2.9653 0.9667
-6.2328 -4.9220 -2.9656 0.9667
-4.7140 -6.3978 -2.9675 0.9666
-3.5073 -7.1371 -2.9695 0.9666
-2.8592 -7.4239 -2.9707 0.9666
0.4010 -2.3774 -0.9003 0.9898
3.3653 -7.2521 -2.9854 0.9664
5.6985 -5.6354 -2.9927 0.9664
6.1810 -5.1087 -2.9944 0.9663
6.6148 -4.5408 -2.9960 0.9663
6.9964 -3.9361 -2.9976 0.9663
7.3205 -3.2984 -2.9982 0.9663
7.7903 -1.9485 -2.9986 0.9663
8.0298 0.1789 -2.9992 0.9663
7.8717 1.6000 -2.9995 0.9663
7.4642 2.9707 -2.9998 0.9663
7.1705 3.6234 -3.0000 0.9663
6.4150 4.8378 -3.0002 0.9663
5.4560 5.8989 -3.0004 0.9663
3.5156 6.7688 -2.8481 0.9680
0.9341 7.5844 -2.8535 0.9679
-0.4251 7.6241 -2.8513 0.9679
-2.5510 7.6194 -3.0004 0.9663
-3.2189 7.3618 -3.0003 0.9663
-5.0488 6.2490 -2.9999 0.9663
-5.5847 5.7745 -2.9997 0.9663
-6.0762 5.2543 -2.9996 0.9663
-6.9107 4.0932 -2.9992 0.9663
-7.2472 3.4617 -2.9990 0.9663
-7.6084 -0.6799 -2.9980 0.9677
-7.5173 -1.3543 -2.9978 0.9677
-7.0930 -2.6415 -2.9706 0.9680
-6.5026 -3.8515 -2.9661 0.9680
-5.7179 -4.9444 -2.9668 0.9680
-5.2560 -5.4347 -2.9673 0.9680
-3.6364 -6.6356 -2.9697 0.9680
-3.0325 -6.9355 -2.9708 0.9680
-2.4041 -7.1807 -2.9720 0.9680
-0.3606 -2.4728 -0.9808 0.9893
-0.1337 -2.3981 -0.9427 0.9897
0.2926 -2.3759 -0.9395 0.9898
0.5185 -2.4126 -0.9685 0.9895
0.7807 -2.5168 -1.0342 0.9887
4.0966 -6.4173 -2.9880 0.9678
5.1755 -5.5957 -2.9915 0.9678
5.6562 -5.1157 -2.9931 0.9678
6.4803 -4.0360 -2.9963 0.9677
7.0981 -2.8250 -2.9983 0.9677
7.4874 -1.5219 -2.9987 0.9677
7.5495 1.1871 -2.9994 0.9677
7.4143 1.8544 -2.9995 0.9677
6.3021 4.3262 -3.0001 0.9677
5.4356 5.3754 -3.0003 0.9677
4.8595 5.7479 -2.9540 0.9682
4.1732 5.9365 -2.8480 0.9693
3.6283 6.2845 -2.8480 0.9693
2.4899 5.3656 -2.3215 0.9749
1.8422 7.0318 -2.8529 0.9692
0.5662 7.2454 -2.8523 0.9693
-0.0809 7.2645 -2.8513 0.9693
-1.3663 7.1277 -2.8484 0.9693
-2.1017 7.3502 -3.0003 0.9677
-3.9685 6.5331 -3.0000 0.9677
-5.5527 5.2517 -2.9996 0.9677
-5.9978 4.7364 -2.9994 0.9677
-6.7418 3.5976 -2.9991 0.9677
-7.0348 2.9830 -2.9989 0.9677
-7.2720 2.3449 -2.9988 0.9677
-7.4514 1.6883 -2.9986 0.9677
-7.5703 -1.0181 -2.9979 0.9677
-7.2358 -2.3333 -2.9838 0.9679
-6.6676 -3.5579 -2.9661 0.9680
-6.3248 -4.1375 -2.9662 0.9680
-5.9320 -4.6845 -2.9665 0.9680
-5.0092 -5.6640 -2.9676 0.9680
-3.9278 -6.4660 -2.9692 0.9680
-3.3378 -6.7923 -2.9702 0.9680
-2.7211 -7.0651 -2.9714 0.9680
-0.7962 -2.7844 -1.1366 0.9876
-0.4857 -2.5337 -1.0125 0.9890
-0.2449 -2.4344 -0.9602 0.9895
0.1849 -2.3662 -0.9315 0.9899
3.8056 -6.5914 -2.9872 0.9678
4.9197 -5.8190 -2.9906 0.9678
5.4211 -5.3611 -2.9923 0.9678
5.8800 -4.8599 -2.9939 0.9678
6.9650 -3.1383 -2.9982 0.9677
7.4120 -1.8538 -2.9986 0.9677
7.6397 0.1703 -2.9991 0.9677
7.5947 0.8496 -2.9993 0.9677
7.4894 1.5223 -2.9995 0.9677
7.3245 2.1830 -2.9996 0.9677
6.8221 3.4474 -2.9999 0.9677
6.1033 4.6027 -3.0002 0.9677
3.9046 6.1165 -2.8480 0.9693
0.2428 7.2622 -2.8518 0.9693
-0.4044 7.2520 -2.8506 0.9693
-2.4270 7.2492 -3.0003 0.9677
-3.0625 7.0041 -3.0002 0.9677
-4.8036 5.9454 -2.9998 0.9677
-5.7810 4.9991 -2.9995 0.9677
-6.5750 3.8944 -2.9992 0.9677
-6.8952 3.2936 -2.9990 0.9677
-7.1605 2.6666 -2.9988 0.9677
-7.3690 2.0186 -2.9987 0.9677
-7.5190 1.3546 -2.9985 0.9677
-7.6093 0.6800 -2.9983 0.9677
-7.2810 0.0000 -2.9982 0.9690
-7.1648 -1.2908 -2.9978 0.9690
-7.0212 -1.9233 -2.9977 0.9690
-6.7648 -2.5192 -2.9725 0.9693
-6.5016 -3.1056 -2.9670 0.9693
-6.1996 -3.6720 -2.9671 0.9693
-5.4513 -4.7140 -2.9676 0.9693
-5.0110 -5.1813 -2.9681 0.9693
-2.8909 -6.6118 -2.9715 0.9693
0.2946 -2.3923 -0.9925 0.9896
0.5221 -2.4298 -1.0234 0.9893
3.3426 -6.4357 -2.9863 0.9691
4.4357 -5.7475 -2.9896 0.9691
4.9323 -5.3328 -2.9912 0.9691
5.8057 -4.3783 -2.9943 0.9690
6.4962 -3.2827 -2.9972 0.9690
6.7653 -2.6925 -2.9983 0.9690
6.9785 -2.0798 -2.9985 0.9690
7.1363 -1.4505 -2.9987 0.9690
7.2375 -0.8096 -2.9989 0.9690
7.2812 -0.1622 -2.9990 0.9690
7.2672 0.4865 -2.9992 0.9690
7.1954 1.1314 -2.9993 0.9690
7.0665 1.7675 -2.9995 0.9690
6.8815 2.3895 -2.9996 0.9690
6.6418 2.9927 -2.9998 0.9690
5.1806 5.1232 -3.0002 0.9690
4.7042 5.5641 -3.0003 0.9690
1.7552 6.6997 -2.8519 0.9705
1.1519 6.8292 -2.8518 0.9705
0.5394 6.9033 -2.8513 0.9705
-0.0771 6.9219 -2.8505 0.9705
-0.6926 6.8846 -2.8493 0.9705
-2.6186 6.7990 -3.0002 0.9690
-4.8259 5.4568 -2.9997 0.9690
-5.2922 5.0054 -2.9996 0.9690
-6.4256 3.4288 -2.9991 0.9690
-6.7049 2.8431 -2.9989 0.9690
-6.9310 2.2350 -2.9988 0.9690
-7.1020 1.6091 -2.9986 0.9690
-7.2166 0.9705 -2.9984 0.9690
-7.2739 0.3244 -2.9982 0.9690
-7.2154 -0.9704 -2.9979 0.9690
-7.1000 -1.6086 -2.9978 0.9690
-6.9107 -2.2284 -2.9900 0.9691
-6.6336 -2.8129 -2.9670 0.9693
-6.0300 -3.9446 -2.9671 0.9693
-5.6555 -4.4661 -2.9674 0.9693
-3.7445 -6.1644 -2.9700 0.9693
-0.4902 -2.5574 -1.0723 0.9888
0.6498 -2.4804 -1.0558 0.9890
5.9965 -4.1163 -2.9951 0.9690
6.3421 -3.5680 -2.9965 0.9690
6.6374 -2.9907 -2.9978 0.9690
6.8787 -2.3885 -2.9984 0.9690
7.2666 -0.4864 -2.9989 0.9690
7.2814 0.1623 -2.9991 0.9690
6.9809 2.0805 -2.9996 0.9690
6.7684 2.6938 -2.9997 0.9690
6.5020 3.2856 -2.9998 0.9690
6.1840 3.8515 -3.0000 0.9690
5.8170 4.3868 -3.0001 0.9690
5.4036 4.8872 -3.0002 0.9690
3.7214 5.8295 -2.8479 0.9705
3.1902 6.1422 -2.8500 0.9705
2.6318 6.4041 -2.8511 0.9705
2.0519 6.6146 -2.8518 0.9705
0.2314 6.9196 -2.8509 0.9705
-0.3853 6.9102 -2.8499 0.9705
-0.9983 6.8453 -2.8486 0.9705
-1.6543 6.9417 -2.9385 0.9696
-2.3132 6.9090 -3.0002 0.9690
-2.9188 6.6755 -3.0001 0.9690
-4.5782 5.6665 -2.9998 0.9690
-5.0641 5.2363 -2.9996 0.9690
-5.9117 4.2550 -2.9993 0.9690
-6.5718 3.1391 -2.9990 0.9690
-6.8247 2.5416 -2.9988 0.9690
-6.9506 0.0000 -2.9982 0.9702
-6.7026 -1.8360 -2.9977 0.9702
-6.4616 -2.4063 -2.9743 0.9704
-3.8336 -5.7201 -2.9703 0.9704
-3.3102 -6.0403 -2.9712 0.9704
-2.7604 -6.3131 -2.9721 0.9704
0.0804 -2.4063 -1.0385 0.9896
0.8045 -2.5933 -1.1712 0.9882
2.6300 -6.3998 -2.9846 0.9703
3.7271 -5.8383 -2.9878 0.9703
6.2003 -3.1331 -2.9966 0.9702
6.4572 -2.5699 -2.9979 0.9702
6.6618 -1.9854 -2.9985 0.9702
6.8124 -1.3847 -2.9987 0.9702
6.5691 2.2810 -2.9996 0.9702
6.3403 2.8568 -2.9997 0.9702
6.0611 3.4099 -2.9998 0.9702
5.7337 3.9360 -3.0000 0.9702
4.4906 5.3115 -3.0002 0.9702
3.7968 5.4010 -2.8478 0.9716
2.4899 5.3655 -2.5515 0.9746
1.6750 6.3936 -2.8510 0.9716
0.5148 6.5880 -2.8505 0.9716
-0.0736 6.6060 -2.8497 0.9716
-0.6610 6.5707 -2.8486 0.9716
-1.2445 6.4926 -2.8516 0.9716
-1.9121 6.6872 -3.0002 0.9702
-4.1251 5.5987 -2.9998 0.9702
-5.0520 4.7782 -2.9995 0.9702
-5.4570 4.3093 -2.9994 0.9702
-6.1339 3.2732 -2.9991 0.9702
-6.4006 2.7141 -2.9989 0.9702
-6.6164 2.1335 -2.9987 0.9702
-6.7797 1.5361 -2.9986 0.9702
-6.9435 -0.3096 -2.9981 0.9702
-6.8880 -0.9263 -2.9980 0.9702
-6.3370 -2.6871 -2.9691 0.9705
-6.0701 -3.2391 -2.9678 0.9705
-4.0840 -5.5429 -2.9699 0.9705
-3.5754 -5.8860 -2.9707 0.9704
-3.0383 -6.1828 -2.9716 0.9704
-0.4993 -2.6047 -1.1440 0.9885
-0.0269 -2.4151 -1.0419 0.9895
0.6598 -2.5184 -1.1230 0.9887
3.4624 -5.9970 -2.9870 0.9703
3.9845 -5.6680 -2.9886 0.9703
4.4755 -5.2936 -2.9902 0.9703
4.9314 -4.8768 -2.9917 0.9702
5.7235 -3.9290 -2.9946 0.9702
6.5665 -2.2801 -2.9984 0.9702
6.7438 -1.6867 -2.9986 0.9702
6.8675 -1.0799 -2.9988 0.9702
6.9509 0.1549 -2.9991 0.9702
6.8140 1.3850 -2.9994 0.9702
6.6640 1.9861 -2.9995 0.9702
5.9033 3.6766 -2.9999 0.9702
5.1582 4.6653 -3.0001 0.9702
4.2494 5.5061 -3.0002 0.9702
3.5528 5.5654 -2.8481 0.9716
3.0446 5.8620 -2.8493 0.9716
1.9581 6.3124 -2.8509 0.9716
0.8079 6.5592 -2.8507 0.9716
-0.3677 6.5950 -2.8492 0.9716
-0.9529 6.5333 -2.8480 0.9716
-1.6124 6.7659 -3.0002 0.9702
-2.2081 6.5953 -3.0001 0.9702
-4.3704 5.4092 -2.9997 0.9702
-5.6434 4.0619 -2.9993 0.9702
-5.9822 3.5433 -2.9991 0.9702
-6.2735 2.9966 -2.9990 0.9702
-6.8412 1.2325 -2.9985 0.9702
-6.6180 -0.5913 -2.9981 0.9713
-6.5388 -1.1780 -2.9979 0.9713
-6.4077 -1.7552 -2.9978 0.9713
-6.1846 -2.3031 -2.9778 0.9715
-5.9366 -2.8357 -2.9686 0.9715
-5.6608 -3.3529 -2.9687 0.9715
-4.9775 -4.3042 -2.9692 0.9715
-4.5754 -4.7309 -2.9697 0.9715
-3.6657 -5.4695 -2.9710 0.9715
-3.1652 -5.7757 -2.9718 0.9715
-2.6394 -6.0364 -2.9727 0.9715
-0.6641 -2.7867 -1.2926 0.9875
-0.3731 -2.5580 -1.1664 0.9887
-0.1374 -2.4635 -1.1133 0.9892
0.0813 -2.4309 -1.0975 0.9894
3.0505 -5.8732 -2.9862 0.9714
4.0476 -5.2446 -2.9892 0.9713
4.9181 -4.4482 -2.9922 0.9713
5.9264 -2.9948 -2.9961 0.9713
6.1719 -2.4563 -2.9973 0.9713
6.5126 -1.3237 -2.9987 0.9713
6.2799 2.1806 -2.9996 0.9712
5.7942 3.2598 -2.9998 0.9712
5.1248 4.2358 -3.0000 0.9712
4.7276 4.6752 -3.0001 0.9712
3.7440 5.3259 -2.9375 0.9718
3.1561 5.4665 -2.8482 0.9727
2.4898 5.3655 -2.6690 0.9744
1.0506 6.2285 -2.8501 0.9727
-1.2348 6.4422 -2.9597 0.9716
-2.9322 5.9670 -2.9999 0.9712
-4.8296 4.5678 -2.9995 0.9712
-5.8639 3.1291 -2.9990 0.9713
-6.3252 2.0396 -2.9987 0.9713
-6.4813 1.4685 -2.9986 0.9713
-6.5859 0.8857 -2.9984 0.9713
-6.6379 -0.2960 -2.9981 0.9713
-6.5849 -0.8856 -2.9980 0.9713
-6.3211 -2.0383 -2.9968 0.9713
-6.0625 -2.5708 -2.9713 0.9715
-5.8045 -3.0973 -2.9686 0.9715
-5.5060 -3.6018 -2.9688 0.9715
-5.1640 -4.0780 -2.9690 0.9715
-3.4188 -5.6282 -2.9714 0.9715
-2.3683 -6.1490 -2.9732 0.9715
-1.8122 -6.3378 -2.9743 0.9715
-0.2524 -2.5088 -1.1377 0.9890
-0.0272 -2.4410 -1.1015 0.9893
2.7851 -6.0017 -2.9854 0.9714
3.3099 -5.7329 -2.9870 0.9714
3.8090 -5.4183 -2.9885 0.9714
4.2782 -5.0603 -2.9900 0.9713
5.1126 -4.2257 -2.9929 0.9713
5.4709 -3.7555 -2.9942 0.9713
5.7860 -3.2551 -2.9955 0.9713
6.0552 -2.7283 -2.9967 0.9713
6.2764 -2.1794 -2.9979 0.9713
6.4470 -1.6125 -2.9986 0.9713
6.5653 -1.0323 -2.9988 0.9713
6.6450 0.1481 -2.9991 0.9713
4.0624 5.2638 -3.0002 0.9712
3.3960 5.3198 -2.8478 0.9727
1.8714 6.0328 -2.8500 0.9727
1.3271 6.1757 -2.8502 0.9727
0.2110 6.3113 -2.8494 0.9727
-0.9108 6.2452 -2.8477 0.9727
-2.1109 6.3049 -3.0001 0.9712
-2.6636 6.0918 -3.0000 0.9712
-4.1779 5.1711 -2.9997 0.9712
-4.6214 4.7785 -2.9995 0.9712
-5.0282 4.3480 -2.9994 0.9713
-5.7188 3.3873 -2.9991 0.9713
-5.9973 2.8647 -2.9990 0.9713
-6.2282 2.3194 -2.9988 0.9713
-6.4096 1.7558 -2.9987 0.9713
-6.5401 1.1783 -2.9985 0.9713
-6.6187 0.5914 -2.9984 0.9713
-6.3606 0.0000 -2.9982 0.9723
-6.3350 -0.5661 -2.9981 0.9723
-6.2592 -1.1277 -2.9979 0.9723
-5.9292 -2.2080 -2.9824 0.9724
-5.6841 -2.7151 -2.9693 0.9725
-5.4200 -3.2103 -2.9694 0.9725
-5.1131 -3.6802 -2.9696 0.9725
-4.3807 -4.5296 -2.9703 0.9725
-3.9609 -4.9025 -2.9709 0.9725
-3.0304 -5.5298 -2.9724 0.9725
-0.6884 -2.8888 -1.3998 0.9870
-0.3793 -2.6010 -1.2390 0.9884
0.5451 -2.5365 -1.2230 0.9886
0.8435 -2.7193 -1.3421 0.9875
2.4068 -5.8566 -2.9847 0.9724
2.9200 -5.6219 -2.9862 0.9724
4.3077 -4.6575 -2.9905 0.9723
4.7074 -4.2575 -2.9919 0.9723
6.2341 -1.2671 -2.9987 0.9723
6.3224 -0.7072 -2.9988 0.9723
6.2855 0.9883 -2.9992 0.9723
6.1729 1.5439 -2.9994 0.9723
5.8018 2.6142 -2.9996 0.9723
5.5463 3.1203 -2.9997 0.9723
5.2467 3.6017 -2.9998 0.9722
3.0206 5.2319 -2.8477 0.9736
1.0054 5.9605 -2.8493 0.9736
0.4708 6.0254 -2.8489 0.9736
-0.0673 6.0421 -2.8483 0.9736
-1.1982 6.2508 -3.0001 0.9722
-1.7497 6.1192 -3.0001 0.9722
-4.6230 4.3724 -2.9994 0.9723
-5.8571 2.4836 -2.9989 0.9723
-6.0547 1.9524 -2.9987 0.9723
-6.3544 0.2834 -2.9983 0.9723
-6.3541 -0.2833 -2.9981 0.9723
-6.2026 -1.4053 -2.9979 0.9723
-6.0527 -1.9517 -2.9977 0.9723
-5.5575 -2.9656 -2.9693 0.9725
-4.1749 -4.7207 -2.9706 0.9725
-3.7390 -5.0746 -2.9712 0.9725
-2.2674 -5.8871 -2.9738 0.9725
-0.0276 -2.4762 -1.1673 0.9891
0.1920 -2.4571 -1.1617 0.9892
0.4215 -2.4989 -1.1946 0.9889
3.1683 -5.4876 -2.9869 0.9724
4.0950 -4.8436 -2.9898 0.9723
4.5120 -4.4620 -2.9912 0.9723
5.5377 -3.1155 -2.9951 0.9723
5.7953 -2.6112 -2.9963 0.9723
6.3478 -0.4249 -2.9989 0.9723
6.2354 1.2674 -2.9993 0.9723
6.0981 1.8174 -2.9994 0.9723
5.9124 2.3531 -2.9996 0.9723
5.6797 2.8701 -2.9997 0.9723
5.4019 3.3643 -2.9998 0.9723
4.3215 4.6724 -3.0001 0.9722
3.8886 5.0386 -3.0001 0.9722
3.3118 5.1878 -2.9012 0.9732
2.2972 5.5900 -2.8488 0.9736
1.7909 5.7732 -2.8493 0.9736
1.2700 5.9099 -2.8494 0.9736
0.2020 6.0398 -2.8486 0.9736
-0.3363 6.0323 -2.8479 0.9736
-0.8957 6.1417 -2.9257 0.9729
-1.4754 6.1912 -3.0001 0.9722
-2.5496 5.8312 -2.9999 0.9722
-3.0584 5.5809 -2.9998 0.9722
-3.5429 5.2864 -2.9997 0.9723
-4.4237 4.5741 -2.9995 0.9723
-5.9618 2.2202 -2.9988 0.9723
-6.1355 1.6807 -2.9987 0.9723
-6.2604 1.1279 -2.9985 0.9723
-6.3356 0.5662 -2.9984 0.9723
-6.0713 -0.5425 -2.9981 0.9732
-5.9987 -1.0807 -2.9980 0.9732
-5.6928 -2.1200 -2.9879 0.9733
-5.4487 -2.6026 -2.9700 0.9734
-4.9013 -3.5277 -2.9703 0.9734
-4.5683 -3.9504 -2.9706 0.9734
-3.7968 -4.6993 -2.9715 0.9734
-3.3642 -5.0197 -2.9722 0.9734
-2.9048 -5.3006 -2.9729 0.9734
-1.9201 -5.7351 -2.9747 0.9734
-0.3868 -2.6518 -1.3181 0.9881
-0.1417 -2.5412 -1.2518 0.9887
0.5550 -2.5826 -1.2992 0.9883
2.7984 -5.3878 -2.9862 0.9733
3.7128 -4.8108 -2.9889 0.9733
4.1281 -4.4632 -2.9903 0.9733
4.5110 -4.0799 -2.9916 0.9733
4.8583 -3.6638 -2.9929 0.9732
5.1672 -3.2182 -2.9941 0.9732
5.4352 -2.7465 -2.9953 0.9732
5.6602 -2.2527 -2.9964 0.9732
5.8401 -1.7405 -2.9973 0.9732
6.0592 -0.6778 -2.9988 0.9732
6.0957 -0.1358 -2.9990 0.9732
6.0839 0.4073 -2.9991 0.9732
6.0238 0.9472 -2.9992 0.9732
5.9158 1.4797 -2.9994 0.9732
5.7609 2.0004 -2.9995 0.9732
5.5602 2.5053 -2.9996 0.9732
5.3153 2.9904 -2.9997 0.9732
4.7012 3.8856 -2.9999 0.9732
4.3368 4.2888 -3.0000 0.9732
3.9380 4.6579 -3.0000 0.9732
3.5078 4.9900 -3.0001 0.9732
2.9459 5.1024 -2.8979 0.9741
2.4372 5.2520 -2.8478 0.9745
1.9604 5.4492 -2.8484 0.9745
1.4678 5.6025 -2.8486 0.9745
0.9633 5.7108 -2.8486 0.9745
0.4511 5.7732 -2.8482 0.9745
-0.0645 5.7893 -2.8477 0.9745
-1.6768 5.8643 -3.0000 0.9732
-4.4304 4.1903 -2.9994 0.9732
-4.7856 3.7792 -2.9993 0.9732
-5.1028 3.3381 -2.9991 0.9732
-5.3794 2.8705 -2.9990 0.9732
-5.6133 2.3802 -2.9989 0.9732
-5.8026 1.8711 -2.9987 0.9732
-5.9458 1.3471 -2.9986 0.9732
-6.0899 0.2716 -2.9983 0.9732
-6.0896 -0.2715 -2.9982 0.9732
-6.0410 -0.8124 -2.9980 0.9732
-5.9444 -1.3468 -2.9979 0.9732
-5.8007 -1.8705 -2.9978 0.9732
-5.5683 -2.3611 -2.9748 0.9734
-4.7395 -3.7427 -2.9704 0.9734
-4.0020 -4.5251 -2.9712 0.9734
-3.5840 -4.8643 -2.9718 0.9734
-1.6630 -5.8160 -2.9753 0.9734
-0.5314 -2.7723 -1.3884 0.9875
-0.2605 -2.5897 -1.2802 0.9885
-0.0280 -2.5129 -1.2361 0.9889
0.1948 -2.4934 -1.2301 0.9889
0.4281 -2.5380 -1.2660 0.9886
2.0538 -5.7087 -2.9841 0.9733
3.0363 -5.2591 -2.9869 0.9733
3.4940 -4.9702 -2.9882 0.9733
3.9243 -4.6417 -2.9896 0.9733
4.3238 -4.2759 -2.9910 0.9733
5.0177 -3.4445 -2.9935 0.9732
5.3065 -2.9854 -2.9947 0.9732
5.5532 -2.5021 -2.9958 0.9732
5.9128 -1.4789 -2.9978 0.9732
6.0835 -0.4072 -2.9989 0.9732
5.6662 2.2551 -2.9995 0.9732
5.4432 2.7505 -2.9996 0.9732
4.8696 3.6723 -2.9998 0.9732
4.1415 4.4778 -3.0000 0.9732
3.7266 4.8287 -3.0001 0.9732
3.2821 5.1413 -3.0001 0.9732
2.6686 5.1380 -2.8477 0.9745
1.2168 5.6624 -2.8486 0.9745
-0.8803 6.0357 -3.0001 0.9732
-1.4140 5.9333 -3.0000 0.9732
-2.4434 5.5883 -2.9999 0.9732
-3.3953 5.0662 -2.9997 0.9732
-4.9491 3.5622 -2.9992 0.9732
-5.5017 2.6280 -2.9989 0.9732
-5.7136 2.1278 -2.9988 0.9732
-6.0719 0.5426 -2.9984 0.9732
-5.8248 -0.5205 -2.9981 0.9741
-5.6398 -1.5449 -2.9979 0.9741
-4.9856 -2.9530 -2.9707 0.9743
-4.3838 -3.7908 -2.9712 0.9743
-3.6433 -4.5094 -2.9721 0.9743
-3.2282 -4.8168 -2.9727 0.9743
-2.3242 -5.3156 -2.9743 0.9743
-1.8424 -5.5031 -2.9752 0.9743
-1.3458 -5.6471 -2.9762 0.9742
-0.1440 -2.5829 -1.3263 0.9884
0.3143 -2.5520 -1.3182 0.9885
1.7242 -5.5581 -2.9835 0.9742
2.2130 -5.3850 -2.9848 0.9742
2.6847 -5.1690 -2.9861 0.9742
3.1356 -4.9118 -2.9875 0.9741
3.5619 -4.6152 -2.9888 0.9741
4.3275 -3.9139 -2.9914 0.9741
4.6606 -3.5147 -2.9926 0.9741
5.4296 -2.1609 -2.9959 0.9741
5.6021 -1.6696 -2.9969 0.9741
5.8131 -0.6503 -2.9988 0.9740
5.8369 0.3907 -2.9991 0.9740
5.7791 0.9087 -2.9992 0.9740
5.6756 1.4196 -2.9993 0.9740
5.3343 2.4036 -2.9995 0.9740
4.1606 4.1146 -2.9999 0.9740
2.3423 5.0476 -2.8528 0.9753
0.9240 5.4776 -2.8479 0.9753
0.4327 5.5377 -2.8476 0.9753
