ply
format ascii 1.0
element vertex 1587
property float32 x
property float32 y
property float32 z
property float32 I
end_header
2.5025 5.3928 0.7450 0.9763
-0.5080 -2.6505 0.3382 0.9892
-0.2533 -2.5177 0.3171 0.9899
-0.0272 -2.4471 0.3067 0.9902
0.6457 -2.4645 0.3193 0.9898
-1.1262 -3.3637 0.3848 0.9858
-0.1370 -2.4574 0.2670 0.9901
0.2948 -2.3934 0.2616 0.9903
0.5196 -2.4181 0.2683 0.9901
0.7704 -2.4836 0.2821 0.9896
-0.2507 -2.4918 0.2716 0.9900
-0.0270 -2.4246 0.2630 0.9903
0.1877 -2.4022 0.2613 0.9904
0.4055 -2.4039 0.2644 0.9902
1.3052 -2.8126 0.3363 0.9876
0.0802 -2.3985 0.2200 0.9904
0.5168 -2.4048 0.2255 0.9902
1.0695 -2.6025 0.2580 0.9888
-0.4974 -2.5946 0.2422 0.9894
-0.2492 -2.4773 0.2283 0.9900
0.4033 -2.3908 0.2223 0.9903
0.6342 -2.4207 0.2294 0.9900
-0.6342 -2.6612 0.2050 0.9891
0.0798 -2.3861 0.1789 0.9905
0.2917 -2.3686 0.1788 0.9905
0.5139 -2.3916 0.1833 0.9902
1.0605 -2.5805 0.2091 0.9889
2.5025 5.3928 0.4455 0.9764
-0.8001 -2.7980 0.2181 0.9884
-0.4941 -2.5775 0.1967 0.9895
-0.2478 -2.4635 0.1855 0.9901
0.4011 -2.3779 0.1807 0.9904
0.6303 -2.4059 0.1864 0.9901
0.8978 -2.4955 0.1987 0.9894
1.2562 -2.7071 0.2236 0.9881
-1.0065 -3.0063 0.1846 0.9874
-0.6289 -2.6389 0.1580 0.9892
-0.3637 -2.4936 0.1468 0.9900
0.0794 -2.3738 0.1383 0.9905
0.2902 -2.3564 0.1383 0.9905
1.0516 -2.5590 0.1611 0.9890
-0.4908 -2.5607 0.1519 0.9896
0.1848 -2.3651 0.1382 0.9905
0.3989 -2.3652 0.1397 0.9904
1.2404 -2.6730 0.1716 0.9883
-0.9924 -2.9643 0.1300 0.9876
-0.6237 -2.6171 0.1119 0.9893
-0.1340 -2.4042 0.1001 0.9904
2.5025 5.3928 0.2472 0.9765
-0.7860 -2.7487 0.1189 0.9886
-0.4877 -2.5441 0.1077 0.9897
-0.2451 -2.4365 0.1018 0.9902
-0.0264 -2.3729 0.0987 0.9905
0.1839 -2.3530 0.0981 0.9906
0.6234 -2.3795 0.1023 0.9902
-0.1333 -2.3913 0.0597 0.9905
0.2873 -2.3325 0.0586 0.9906
0.5057 -2.3531 0.0600 0.9904
0.7456 -2.4034 0.0628 0.9900
2.5025 5.3928 0.1483 0.9765
-0.4845 -2.5277 0.0642 0.9898
-0.2438 -2.4232 0.0607 0.9903
-0.0263 -2.3604 0.0589 0.9906
0.3947 -2.3402 0.0592 0.9905
0.6200 -2.3665 0.0610 0.9903
0.8805 -2.4474 0.0649 0.9896
1.2153 -2.6189 0.0720 0.9885
-0.1326 -2.3785 0.0198 0.9905
0.2858 -2.3207 0.0194 0.9907
1.0260 -2.4967 0.0224 0.9893
1.4510 -2.7936 0.0262 0.9875
2.5026 5.3929 0.0494 0.9765
-0.4814 -2.5116 0.0213 0.9898
-0.2425 -2.4101 0.0201 0.9904
-0.0262 -2.3480 0.0195 0.9907
-0.3547 -2.4323 -0.0204 0.9902
0.2844 -2.3091 -0.0193 0.9907
0.7364 -2.3740 -0.0207 0.9901
-0.7658 -2.6781 -0.0232 0.9889
0.6133 -2.3411 -0.0201 0.9904
0.8694 -2.4164 -0.0213 0.9898
1.1946 -2.5743 -0.0236 0.9887
-0.9424 -2.8149 -0.0740 0.9882
-0.6073 -2.5484 -0.0653 0.9896
-0.1312 -2.3536 -0.0588 0.9906
0.0774 -2.3145 -0.0578 0.9908
0.2830 -2.2977 -0.0577 0.9908
0.7323 -2.3607 -0.0616 0.9902
1.4183 -2.7307 -0.0767 0.9878
-0.2399 -2.3846 -0.0598 0.9905
-0.0259 -2.3236 -0.0580 0.9907
0.3886 -2.3040 -0.0583 0.9907
0.6102 -2.3292 -0.0600 0.9904
1.1866 -2.5571 -0.0703 0.9888
-0.9384 -2.8029 -0.1229 0.9882
-0.3520 -2.4133 -0.1014 0.9903
0.0773 -2.3108 -0.0961 0.9908
0.2825 -2.2939 -0.0961 0.9908
0.4969 -2.3124 -0.0983 0.9906
1.0083 -2.4534 -0.1103 0.9894
2.5026 5.3929 -0.2472 0.9765
-0.7581 -2.6512 -0.1147 0.9890
-0.2395 -2.3804 -0.0995 0.9905
0.1799 -2.3023 -0.0960 0.9908
0.6092 -2.3252 -0.0999 0.9904
0.8627 -2.3980 -0.1060 0.9898
1.1833 -2.5499 -0.1169 0.9888
-0.6047 -2.5376 -0.1519 0.9896
-0.3513 -2.4085 -0.1418 0.9903
0.4961 -2.3084 -0.1375 0.9906
0.7294 -2.3513 -0.1434 0.9902
0.8609 -2.3931 -0.1481 0.9899
-0.6035 -2.5323 -0.1951 0.9896
-0.1305 -2.3415 -0.1757 0.9906
0.7279 -2.3466 -0.1841 0.9902
2.5026 5.3929 -0.4455 0.9764
-1.2149 -3.1545 -0.2533 0.9865
-0.4726 -2.4658 -0.1881 0.9900
0.1793 -2.2949 -0.1725 0.9908
0.3867 -2.2922 -0.1742 0.9907
0.6070 -2.3170 -0.1795 0.9904
-0.9264 -2.7672 -0.2675 0.9883
-0.6022 -2.5269 -0.2381 0.9896
-0.3500 -2.3995 -0.2223 0.9903
1.3940 -2.6839 -0.2773 0.9879
2.5026 5.3929 -0.5450 0.9764
-1.2017 -3.1201 -0.3065 0.9867
-0.7518 -2.6293 -0.2507 0.9891
-0.4717 -2.4607 -0.2297 0.9900
-0.2382 -2.3680 -0.2182 0.9905
-0.0257 -2.3079 -0.2116 0.9908
0.1790 -2.2911 -0.2107 0.9908
0.6060 -2.3129 -0.2192 0.9904
0.8574 -2.3832 -0.2322 0.9899
1.1734 -2.5287 -0.2556 0.9889
-0.6009 -2.5215 -0.2812 0.9896
0.0768 -2.2957 -0.2491 0.9908
0.2807 -2.2790 -0.2491 0.9908
0.4935 -2.2965 -0.2548 0.9906
0.7250 -2.3372 -0.2654 0.9902
0.9977 -2.4278 -0.2847 0.9895
-1.1887 -3.0864 -0.3587 0.9868
-0.7498 -2.6221 -0.2958 0.9891
-0.4707 -2.4557 -0.2712 0.9900
-0.2378 -2.3638 -0.2577 0.9905
-0.0257 -2.3041 -0.2499 0.9908
0.1787 -2.2874 -0.2489 0.9908
0.3853 -2.2844 -0.2513 0.9907
0.8556 -2.3782 -0.2741 0.9899
1.1702 -2.5217 -0.3015 0.9889
-0.9204 -2.7493 -0.3633 0.9884
-0.5996 -2.5162 -0.3241 0.9896
-0.1299 -2.3295 -0.2924 0.9906
0.0766 -2.2920 -0.2874 0.9908
0.2802 -2.2753 -0.2873 0.9908
0.4926 -2.2925 -0.2938 0.9906
0.7236 -2.3325 -0.3060 0.9902
1.3820 -2.6609 -0.3757 0.9880
-0.4697 -2.4507 -0.3127 0.9900
0.1785 -2.2836 -0.2870 0.9908
0.6038 -2.3048 -0.2986 0.9904
1.1669 -2.5146 -0.3474 0.9889
-0.9189 -2.7446 -0.4117 0.9884
-0.5983 -2.5108 -0.3671 0.9896
-0.3481 -2.3867 -0.3431 0.9903
2.5026 5.3930 -0.8456 0.9763
-1.1963 -3.1061 -0.4734 0.9866
-0.7456 -2.6077 -0.3858 0.9891
-0.4688 -2.4456 -0.3542 0.9900
-0.0256 -2.2965 -0.3267 0.9908
0.3840 -2.2766 -0.3284 0.9907
0.6028 -2.3007 -0.3383 0.9904
0.8521 -2.3684 -0.3580 0.9899
1.1637 -2.5076 -0.3932 0.9889
-0.3475 -2.3824 -0.3834 0.9903
-0.1294 -2.3214 -0.3702 0.9906
0.4909 -2.2846 -0.3721 0.9906
0.7206 -2.3231 -0.3873 0.9902
0.9920 -2.4138 -0.4156 0.9895
2.5026 5.3930 -0.9467 0.9762
-1.2127 -3.1487 -0.5373 0.9864
-0.4678 -2.4406 -0.3957 0.9900
-0.2365 -2.3514 -0.3763 0.9905
0.1779 -2.2762 -0.3636 0.9908
0.6017 -2.2967 -0.3781 0.9904
0.8505 -2.3640 -0.4001 0.9899
-0.9249 -2.7626 -0.5137 0.9882
-0.5990 -2.5136 -0.4556 0.9896
-0.3476 -2.3833 -0.4247 0.9903
0.0763 -2.2813 -0.4025 0.9908
0.2789 -2.2647 -0.4024 0.9908
0.9947 -2.4204 -0.4614 0.9894
1.3956 -2.6871 -0.5339 0.9878
-0.4686 -2.4448 -0.4389 0.9899
0.3829 -2.2702 -0.4060 0.9907
1.1698 -2.5209 -0.4900 0.9888
-0.9294 -2.7760 -0.5665 0.9881
-0.3482 -2.3878 -0.4670 0.9902
-0.1296 -2.3237 -0.4504 0.9906
0.0764 -2.2852 -0.4425 0.9907
0.2794 -2.2686 -0.4423 0.9907
0.4915 -2.2874 -0.4527 0.9905
0.9974 -2.4270 -0.5078 0.9894
10.3655 10.2506 -2.8211 0.9423
7.3093 12.6601 -2.8290 0.9422
2.5026 5.3930 -1.1505 0.9761
-0.1638 14.7041 -2.8457 0.9418
-4.0486 14.1589 -2.8498 0.9418
-1.2472 -3.2383 -0.6715 0.9860
-0.7509 -2.6262 -0.5286 0.9889
-0.4696 -2.4502 -0.4828 0.9899
-0.0255 -2.2937 -0.4439 0.9907
0.3836 -2.2743 -0.4463 0.9906
0.6028 -2.3009 -0.4603 0.9904
9.9079 10.7123 -2.8238 0.9423
8.9211 11.5595 -2.8257 0.9422
7.8629 12.3169 -2.8278 0.9422
4.3409 13.9939 -2.8354 0.9421
3.0812 14.3389 -2.8382 0.9420
0.4911 14.6889 -2.8441 0.9419
-0.8191 14.6903 -2.8472 0.9418
-14.3071 -1.2785 -3.0282 0.9430
-14.1370 -2.5469 -3.0283 0.9430
-13.6640 -3.7430 -2.9868 0.9437
-13.2458 -4.9328 -2.9798 0.9439
-12.1581 -7.2013 -2.9791 0.9439
-10.6935 -9.2470 -2.9804 0.9438
-8.8849 -10.9970 -2.9805 0.9438
-7.8712 -11.7447 -2.9807 0.9438
-0.3489 -2.3923 -0.5097 0.9902
0.0765 -2.2892 -0.4829 0.9907
0.4924 -2.2915 -0.4941 0.9905
0.7244 -2.3352 -0.5155 0.9901
1.0002 -2.4337 -0.5547 0.9893
1.4086 -2.7120 -0.6443 0.9876
9.6043 -10.3840 -2.9820 0.9438
12.5947 -6.3644 -2.9750 0.9439
13.1047 -5.2155 -2.9735 0.9440
14.0830 -0.3138 -2.9697 0.9440
13.9129 2.1877 -2.9692 0.9441
13.6633 3.4174 -2.9692 0.9441
12.2814 6.9094 -2.9708 0.9440
2.5026 5.3930 -1.2534 0.9760
3.4117 13.0224 -2.8380 0.9465
1.0507 13.4465 -2.8434 0.9464
-0.1504 13.5000 -2.8462 0.9463
-1.3527 13.4466 -2.8491 0.9463
-3.7157 12.9946 -2.8493 0.9462
-5.1215 13.2976 -3.0041 0.9434
-6.2901 12.7999 -3.0067 0.9434
-8.4738 11.5008 -3.0116 0.9433
-9.4711 10.7092 -3.0140 0.9432
-11.2358 8.8728 -3.0183 0.9432
-11.9885 7.8425 -3.0202 0.9431
-13.2035 5.5988 -3.0235 0.9431
-14.2297 1.9137 -3.0269 0.9430
-14.3469 0.6397 -3.0276 0.9430
-14.3491 -0.6399 -3.0281 0.9430
-14.2363 -1.9146 -3.0283 0.9430
-13.9564 -3.1621 -3.0169 0.9432
-13.4535 -4.3382 -2.9801 0.9439
-12.4672 -6.6527 -2.9791 0.9439
-11.8250 -7.7355 -2.9790 0.9439
-11.0937 -8.7606 -2.9801 0.9439
-8.3864 -11.3821 -2.9806 0.9438
-0.7532 -2.6342 -0.5776 0.9889
-0.2373 -2.3595 -0.4999 0.9904
-0.0256 -2.2977 -0.4844 0.9907
0.3843 -2.2784 -0.4871 0.9906
0.6039 -2.3052 -0.5024 0.9903
0.8560 -2.3794 -0.5331 0.9897
7.0701 -12.2458 -2.9811 0.9438
8.1330 -11.5693 -2.9814 0.9438
10.8932 -9.0035 -2.9794 0.9439
11.6439 -7.9931 -2.9775 0.9439
12.3020 -6.9210 -2.9758 0.9439
12.8624 -5.7955 -2.9742 0.9440
13.3211 -4.6256 -2.9728 0.9440
13.9203 -2.1888 -2.9707 0.9440
13.8017 2.8053 -2.9692 0.9441
13.4980 4.0229 -2.9693 0.9440
12.5753 6.3546 -2.9704 0.9440
11.9633 7.4508 -2.9712 0.9440
9.9292 8.9805 -2.8225 0.9467
7.2227 11.3141 -2.8298 0.9466
6.1917 11.9211 -2.8320 0.9466
3.9866 12.8517 -2.8367 0.9465
2.8295 13.1675 -2.8393 0.9464
0.4509 13.4865 -2.8448 0.9463
-4.5221 13.5067 -3.0028 0.9434
-6.8569 12.5123 -3.0080 0.9433
-8.9812 11.1162 -3.0128 0.9433
-9.9425 10.2805 -3.0151 0.9432
-12.3296 7.3029 -3.0211 0.9431
-12.9378 6.1799 -3.0227 0.9431
-13.8409 3.7914 -3.0254 0.9430
-13.2049 -1.1800 -3.0259 0.9471
-13.0479 -2.3507 -3.0260 0.9471
-12.6293 -3.4595 -2.9887 0.9477
-10.5940 -7.6251 -2.9792 0.9479
-9.0764 -9.3857 -2.9801 0.9478
-8.2080 -10.1592 -2.9810 0.9478
-0.6032 -2.5310 -0.5939 0.9894
0.0767 -2.2932 -0.5237 0.9906
0.2804 -2.2765 -0.5235 0.9906
0.7259 -2.3402 -0.5592 0.9900
7.0285 -11.0100 -2.9814 0.9478
8.8718 -9.5921 -2.9822 0.9478
9.6890 -8.7632 -2.9818 0.9478
10.4241 -7.8612 -2.9799 0.9478
11.0761 -6.8983 -2.9783 0.9479
11.6402 -5.8820 -2.9767 0.9479
12.9425 -1.4478 -2.9725 0.9480
13.0175 -0.2901 -2.9719 0.9480
12.9901 0.8696 -2.9715 0.9480
12.6297 3.1589 -2.9714 0.9480
12.2995 4.2709 -2.9717 0.9480
9.5357 7.8815 -2.8237 0.9505
8.0013 9.4638 -2.8286 0.9504
7.1322 10.1457 -2.8306 0.9504
6.2050 10.7474 -2.8325 0.9504
3.1525 12.0329 -2.8391 0.9502
0.9708 12.4230 -2.8441 0.9502
-1.2496 12.4212 -2.8494 0.9501
-3.4315 12.0008 -2.8489 0.9501
-6.8430 11.2651 -3.0084 0.9474
-9.5965 9.0764 -3.0148 0.9472
-10.3728 8.1914 -3.0167 0.9472
-11.0672 7.2399 -3.0185 0.9472
-12.1878 5.1681 -3.0215 0.9471
-12.6047 4.0645 -3.0228 0.9471
-13.2418 0.5905 -3.0254 0.9471
-12.9107 -2.9252 -3.0215 0.9471
-12.0203 -5.0970 -2.9800 0.9478
-11.5172 -6.1457 -2.9796 0.9478
-10.9234 -7.1458 -2.9793 0.9479
-10.2436 -8.0893 -2.9792 0.9479
-4.6952 -12.1907 -2.9817 0.9478
-0.4718 -2.4611 -0.5720 0.9898
-0.0256 -2.3017 -0.5254 0.9906
0.1785 -2.2848 -0.5231 0.9906
0.8579 -2.3846 -0.5784 0.9897
1.1802 -2.5433 -0.6399 0.9886
6.5308 -11.3116 -2.9812 0.9478
7.5124 -10.6866 -2.9815 0.9478
8.4349 -9.9768 -2.9819 0.9478
9.2913 -9.1884 -2.9825 0.9478
10.0666 -8.3202 -2.9808 0.9478
10.7608 -7.3869 -2.9791 0.9479
11.3694 -6.3963 -2.9775 0.9479
11.8879 -5.3564 -2.9760 0.9479
12.3122 -4.2753 -2.9748 0.9479
12.8667 -2.0232 -2.9728 0.9480
12.9928 -0.8697 -2.9722 0.9480
12.7576 2.5931 -2.9714 0.9480
11.0577 6.8868 -2.9733 0.9480
10.4043 7.8463 -2.9743 0.9479
8.4058 9.0882 -2.8255 0.9505
7.5748 9.8150 -2.8298 0.9504
6.6753 10.4567 -2.8315 0.9504
4.7224 11.4913 -2.8357 0.9503
3.6838 11.8756 -2.8379 0.9503
1.5225 12.3618 -2.8428 0.9502
0.4166 12.4595 -2.8454 0.9501
-1.8019 12.3552 -2.8498 0.9501
-2.8938 12.1431 -2.8492 0.9501
-4.1764 12.4742 -3.0025 0.9475
-7.3408 10.9532 -3.0095 0.9473
-8.2926 10.2638 -3.0117 0.9473
-9.1796 9.4917 -3.0138 0.9473
-9.9945 8.6426 -3.0158 0.9472
-11.9427 5.7046 -3.0209 0.9471
-12.4086 4.6210 -3.0222 0.9471
-12.2537 -1.0950 -3.0240 0.9506
-12.1080 -2.1813 -3.0240 0.9506
-11.7333 -3.2141 -2.9903 0.9511
-10.4305 -6.1780 -2.9798 0.9513
-8.4263 -8.7128 -2.9793 0.9513
-6.7496 -10.0711 -2.9800 0.9513
-5.8277 -10.6342 -2.9806 0.9513
-4.8587 -11.1121 -2.9810 0.9513
-0.3503 -2.4016 -0.5966 0.9901
-0.1303 -2.3366 -0.5752 0.9904
0.0768 -2.2972 -0.5650 0.9906
0.2809 -2.2805 -0.5648 0.9906
0.4942 -2.3000 -0.5782 0.9904
1.4283 -2.7499 -0.7617 0.9873
8.2388 -8.9077 -2.9824 0.9512
9.0005 -8.1405 -2.9830 0.9512
9.6838 -7.3029 -2.9813 0.9513
10.2900 -6.4086 -2.9797 0.9513
10.8144 -5.4647 -2.9783 0.9513
11.2531 -4.4786 -2.9770 0.9513
11.6028 -3.4580 -2.9759 0.9514
12.0255 -1.3452 -2.9743 0.9514
11.0314 4.9705 -2.9741 0.9514
9.9803 6.8511 -2.9755 0.9514
8.9542 7.4008 -2.8554 0.9533
8.1760 8.0854 -2.8264 0.9537
7.4272 8.7850 -2.8277 0.9537
6.6266 9.4265 -2.8323 0.9536
3.9085 10.8638 -2.8379 0.9536
0.9016 11.5380 -2.8447 0.9534
-1.1604 11.5349 -2.8496 0.9534
-2.1821 11.3839 -2.8491 0.9534
-3.1896 11.1549 -2.8517 0.9533
-5.3928 10.9741 -3.0055 0.9509
-6.3527 10.4580 -3.0077 0.9508
-7.2633 9.8579 -3.0098 0.9508
-8.9076 8.4248 -3.0136 0.9508
-10.8345 5.7815 -3.0186 0.9507
-11.3111 4.7963 -3.0199 0.9507
-11.6976 3.7720 -3.0210 0.9506
-11.9908 2.7168 -3.0220 0.9506
-12.2882 0.5480 -3.0234 0.9506
-12.2898 -0.5480 -3.0238 0.9506
-11.9975 -2.7183 -3.0237 0.9506
-11.1631 -4.7336 -2.9804 0.9513
-10.6960 -5.7075 -2.9800 0.9513
-9.5128 -7.5122 -2.9794 0.9513
-8.8062 -8.3288 -2.9793 0.9513
-8.0298 -9.0794 -2.9793 0.9513
-6.2950 -10.3630 -2.9804 0.9513
-4.3590 -11.3179 -2.9811 0.9513
-0.7579 -2.6505 -0.6776 0.9887
-0.2383 -2.3684 -0.5851 0.9902
-0.0257 -2.3059 -0.5668 0.9905
0.1789 -2.2888 -0.5643 0.9906
0.3857 -2.2867 -0.5700 0.9905
0.6062 -2.3138 -0.5879 0.9902
0.8598 -2.3899 -0.6243 0.9896
1.1837 -2.5509 -0.6912 0.9885
6.9761 -9.9236 -2.9816 0.9513
7.8331 -9.2650 -2.9822 0.9513
8.6282 -8.5326 -2.9827 0.9512
9.3515 -7.7292 -2.9821 0.9513
9.9968 -6.8624 -2.9805 0.9513
11.0447 -4.9765 -2.9776 0.9513
11.7435 -2.9372 -2.9755 0.9514
12.0216 1.3448 -2.9733 0.9514
11.8540 2.4095 -2.9733 0.9514
10.8001 5.4575 -2.9744 0.9514
10.2740 6.3987 -2.9751 0.9514
9.6667 7.2900 -2.9760 0.9514
6.2018 9.7150 -2.8330 0.9536
4.3870 10.6750 -2.8368 0.9536
3.4220 11.0313 -2.8390 0.9535
2.4284 11.3010 -2.8412 0.9535
-0.6451 11.5701 -2.8483 0.9534
-1.6730 11.4709 -2.8494 0.9534
-7.6978 9.5277 -3.0108 0.9508
-8.5208 8.8105 -3.0127 0.9508
-9.2768 8.0220 -3.0145 0.9507
-9.9596 7.1685 -3.0163 0.9507
-10.5636 6.2569 -3.0178 0.9507
-11.5158 4.2886 -3.0205 0.9506
-12.1016 2.1802 -3.0225 0.9506
-11.4685 0.0000 -3.0219 0.9537
-11.4240 -1.0208 -3.0222 0.9537
-11.2882 -2.0337 -3.0223 0.9537
-10.9625 -3.0029 -2.9950 0.9541
-9.7310 -5.7637 -2.9802 0.9543
-8.5534 -7.3964 -2.9796 0.9543
-7.8610 -8.1282 -2.9796 0.9543
-7.1062 -8.7954 -2.9795 0.9543
-6.2951 -9.3930 -2.9795 0.9543
-0.9579 -2.8611 -0.7950 0.9876
-0.6060 -2.5430 -0.6889 0.9892
-0.3510 -2.4068 -0.6409 0.9900
-0.1305 -2.3411 -0.6178 0.9903
0.7291 -2.3503 -0.6484 0.9899
1.0087 -2.4545 -0.6992 0.9891
1.4537 -2.7988 -0.8310 0.9870
6.9145 -8.9594 -2.9821 0.9543
7.6859 -8.3098 -2.9826 0.9543
8.3964 -7.5941 -2.9832 0.9542
10.0925 -5.1000 -2.9796 0.9543
10.8289 -3.2273 -2.9774 0.9543
11.2238 -1.2555 -2.9759 0.9544
11.2655 0.7542 -2.9751 0.9544
11.1532 1.7538 -2.9750 0.9544
10.9530 2.7396 -2.9750 0.9544
10.6665 3.7038 -2.9753 0.9544
9.8442 5.5383 -2.9763 0.9544
9.3146 6.3942 -2.9771 0.9543
6.9313 8.1984 -2.8289 0.9566
6.1840 8.7969 -2.8334 0.9565
3.6472 10.1375 -2.8389 0.9564
2.7324 10.4294 -2.8409 0.9564
0.8412 10.7649 -2.8452 0.9563
-0.1204 10.8056 -2.8475 0.9563
-1.0823 10.7588 -2.8492 0.9563
-4.0960 10.6351 -3.0030 0.9540
-5.0298 10.2353 -3.0050 0.9539
-5.9247 9.7535 -3.0071 0.9539
-6.7737 9.1934 -3.0090 0.9539
-7.5698 8.5593 -3.0109 0.9538
-10.1021 5.3907 -3.0172 0.9537
-10.5462 4.4720 -3.0184 0.9537
-10.9063 3.5168 -3.0195 0.9537
-11.1794 2.5329 -3.0204 0.9537
-11.3633 1.5282 -3.0212 0.9537
-11.4563 0.5108 -3.0217 0.9537
-11.3675 -1.5287 -3.0223 0.9537
-11.1863 -2.5345 -3.0223 0.9537
-9.9787 -5.3248 -2.9803 0.9543
-9.4641 -6.1911 -2.9800 0.9543
-8.8746 -7.0082 -2.9797 0.9543
-8.2153 -7.7700 -2.9796 0.9543
-6.7073 -9.1032 -2.9795 0.9543
-0.4739 -2.4724 -0.6633 0.9896
-0.2387 -2.3730 -0.6284 0.9902
0.3864 -2.2909 -0.6122 0.9904
0.6074 -2.3183 -0.6315 0.9901
0.8617 -2.3952 -0.6707 0.9895
1.1882 -2.5605 -0.7438 0.9884
6.5080 -9.2578 -2.9819 0.9543
7.3074 -8.6432 -2.9824 0.9543
8.0491 -7.9599 -2.9829 0.9543
10.3076 -4.6444 -2.9790 0.9543
10.6761 -3.7071 -2.9779 0.9543
11.2676 -0.7542 -2.9756 0.9544
11.2204 1.2552 -2.9750 0.9544
10.8204 3.2249 -2.9751 0.9544
9.5889 5.9721 -2.9766 0.9543
9.0219 6.8038 -2.9775 0.9543
7.9573 7.1970 -2.8271 0.9566
6.5607 8.5010 -2.8295 0.9566
5.7881 9.0669 -2.8345 0.9565
4.9609 9.5515 -2.8360 0.9565
4.0938 9.9616 -2.8379 0.9564
3.1931 10.2936 -2.8399 0.9564
2.2659 10.5446 -2.8419 0.9564
0.3610 10.7960 -2.8463 0.9563
-2.5060 10.5156 -2.8485 0.9563
-4.5673 10.4456 -3.0040 0.9539
-7.1788 8.8853 -3.0099 0.9538
-7.9459 8.2160 -3.0118 0.9538
-8.6505 7.4804 -3.0135 0.9538
-9.2869 6.6843 -3.0151 0.9538
-9.8498 5.8340 -3.0165 0.9537
-10.3344 4.9363 -3.0178 0.9537
-10.7369 3.9985 -3.0190 0.9537
-11.0538 3.0280 -3.0200 0.9537
-11.4212 1.0206 -3.0215 0.9537
-10.7353 0.0000 -3.0204 0.9564
-9.1145 -5.3985 -2.9805 0.9569
-8.5969 -6.1877 -2.9802 0.9569
-6.6557 -8.2379 -2.9797 0.9569
-5.8960 -8.7975 -2.9797 0.9569
-5.0896 -9.2874 -2.9797 0.9569
-0.9760 -2.9152 -0.8650 0.9873
-0.3518 -2.4122 -0.6859 0.9899
0.2819 -2.2887 -0.6488 0.9905
1.0130 -2.4651 -0.7499 0.9890
5.7027 -8.9331 -2.9819 0.9569
7.1985 -7.7829 -2.9828 0.9569
7.8639 -7.1125 -2.9833 0.9569
8.4662 -6.3846 -2.9834 0.9569
8.9967 -5.6032 -2.9821 0.9569
9.8399 -3.9162 -2.9797 0.9569
10.3723 -2.1082 -2.9780 0.9570
10.5165 -1.1764 -2.9773 0.9570
10.5778 -0.2357 -2.9769 0.9570
10.2630 2.5670 -2.9765 0.9570
9.9945 3.4705 -2.9767 0.9570
9.6472 4.3468 -2.9771 0.9570
8.7274 5.9911 -2.9784 0.9570
5.0404 8.7302 -2.8363 0.9590
2.5026 5.3931 -1.6728 0.9756
3.4168 9.4970 -2.8397 0.9589
1.6810 9.9660 -2.8436 0.9589
-0.1128 10.1210 -2.8478 0.9588
-1.0135 10.0748 -2.8489 0.9588
-2.7831 9.7331 -2.8482 0.9588
-4.7099 9.5844 -3.0046 0.9566
-5.5478 9.1328 -3.0065 0.9566
-6.3424 8.6080 -3.0083 0.9565
-7.0875 8.0140 -3.0101 0.9565
-7.7769 7.3554 -3.0117 0.9565
-9.4573 5.0466 -3.0160 0.9564
-9.8727 4.1864 -3.0172 0.9564
-10.7252 -0.4782 -3.0206 0.9564
-9.3464 -4.9874 -2.9806 0.9569
-8.3124 -6.5642 -2.9800 0.9569
-5.4983 -9.0514 -2.9797 0.9569
-4.6709 -9.5050 -2.9797 0.9569
-0.4750 -2.4781 -0.7099 0.9896
-0.2392 -2.3776 -0.6723 0.9901
-0.0258 -2.3146 -0.6513 0.9904
0.3872 -2.2951 -0.6549 0.9904
5.2987 -9.1776 -2.9817 0.9569
6.0954 -8.6709 -2.9821 0.9569
6.8441 -8.0952 -2.9826 0.9569
8.1737 -6.7557 -2.9835 0.9569
9.6574 -4.3514 -2.9802 0.9569
10.0029 -3.4734 -2.9792 0.9570
10.5575 -0.7067 -2.9771 0.9570
10.5135 1.1761 -2.9765 0.9570
10.3670 2.1072 -2.9765 0.9570
9.8306 3.9125 -2.9769 0.9570
8.9845 5.5956 -2.9780 0.9570
6.1466 7.9644 -2.8306 0.9591
2.9913 9.6430 -2.8406 0.9589
2.1226 9.8777 -2.8426 0.9589
-0.5637 10.1097 -2.8488 0.9588
-3.3871 10.1168 -3.0017 0.9566
-4.2769 9.7816 -3.0037 0.9566
-5.9509 8.8794 -3.0074 0.9566
-7.4395 7.6924 -3.0109 0.9565
-8.6945 6.2579 -3.0140 0.9565
-9.2211 5.4617 -3.0154 0.9564
-9.6746 4.6212 -3.0166 0.9564
-10.0512 3.7431 -3.0177 0.9564
-10.3476 2.8345 -3.0186 0.9564
-10.6912 0.9554 -3.0200 0.9564
-10.0845 0.0000 -3.0191 0.9588
-10.0453 -0.8976 -3.0194 0.9588
-9.9258 -1.7882 -3.0194 0.9588
-9.6913 -2.6547 -3.0083 0.9589
-8.9851 -4.2918 -2.9811 0.9593
-8.5666 -5.0740 -2.9808 0.9593
-8.0802 -5.8157 -2.9805 0.9593
-7.5298 -6.5113 -2.9802 0.9593
-6.9199 -7.1552 -2.9800 0.9593
-4.7835 -8.7288 -2.9799 0.9593
-0.9950 -2.9719 -0.9383 0.9870
-0.3526 -2.4176 -0.7315 0.9899
0.0772 -2.3096 -0.6918 0.9904
0.4971 -2.3131 -0.7083 0.9902
0.7324 -2.3608 -0.7400 0.9897
1.0233 -2.4901 -0.8060 0.9888
1.5561 -2.9961 -1.0107 0.9860
6.7654 -7.3147 -2.9829 0.9593
7.9577 -6.0012 -2.9839 0.9592
8.4578 -5.2676 -2.9830 0.9592
8.8896 -4.4921 -2.9819 0.9593
9.2510 -3.6818 -2.9808 0.9593
9.5391 -2.8429 -2.9799 0.9593
9.7518 -1.9821 -2.9792 0.9593
9.8875 -1.1061 -2.9786 0.9593
9.9246 0.6644 -2.9779 0.9593
9.6493 2.4135 -2.9778 0.9593
8.6721 4.8789 -2.9789 0.9593
7.6736 6.3424 -2.9804 0.9593
6.1050 7.2211 -2.8309 0.9613
5.4403 7.7390 -2.8321 0.9613
2.5027 5.3931 -1.7800 0.9755
3.2120 8.9278 -2.8405 0.9612
0.7406 9.4776 -2.8461 0.9611
-0.1060 9.5126 -2.8480 0.9611
-2.6275 9.1890 -2.8613 0.9609
-4.4258 9.0062 -3.0043 0.9590
-5.9594 8.0882 -3.0077 0.9589
-7.8967 6.2359 -3.0124 0.9589
-8.4241 5.5108 -3.0137 0.9588
-9.2748 3.9329 -3.0160 0.9588
-9.8309 2.2274 -3.0178 0.9588
-9.9923 1.3439 -3.0184 0.9588
-10.0739 0.4492 -3.0189 0.9588
-10.0750 -0.4492 -3.0193 0.9588
-9.9956 -1.3443 -3.0194 0.9588
-9.4965 -3.0622 -2.9872 0.9592
-8.7845 -4.6875 -2.9809 0.9593
-7.2321 -6.8400 -2.9801 0.9593
-6.5942 -7.4561 -2.9800 0.9593
-5.1676 -8.5071 -2.9799 0.9593
-4.3900 -8.9333 -2.9799 0.9593
-3.5775 -9.2887 -2.9800 0.9593
-0.7755 -2.7122 -0.8445 0.9883
-0.4770 -2.4884 -0.7585 0.9895
-0.2396 -2.3823 -0.7168 0.9901
-0.0258 -2.3190 -0.6943 0.9904
0.1798 -2.3012 -0.6910 0.9904
0.6097 -2.3272 -0.7202 0.9900
0.8683 -2.4134 -0.7679 0.9893
4.9801 -8.6257 -2.9819 0.9593
6.4324 -7.6083 -2.9827 0.9593
7.6818 -6.3492 -2.9837 0.9592
9.9262 -0.6644 -2.9784 0.9593
9.9448 0.2216 -2.9780 0.9593
8.4471 5.2609 -2.9792 0.9593
7.9473 5.9934 -2.9800 0.9593
7.3846 6.6790 -2.9809 0.9593
6.4194 6.9406 -2.8304 0.9613
5.0913 7.9754 -2.8327 0.9613
3.6054 8.7733 -2.8397 0.9612
2.8119 9.0647 -2.8414 0.9611
0.3178 9.5045 -2.8470 0.9611
-0.5297 9.5009 -2.8488 0.9610
-2.2052 9.2535 -2.8479 0.9611
-3.1830 9.5071 -3.0015 0.9590
-4.0190 9.1917 -3.0034 0.9590
-4.8240 8.8027 -3.0051 0.9590
-5.5916 8.3433 -3.0069 0.9589
-6.3155 7.8168 -3.0086 0.9589
-8.1685 5.8793 -3.0131 0.9588
-8.6630 5.1312 -3.0143 0.9588
-9.7207 2.6628 -3.0174 0.9588
-9.9215 1.7875 -3.0181 0.9588
-9.5027 -0.0000 -3.0179 0.9609
-9.4657 -0.8459 -3.0182 0.9609
-8.4708 -4.0462 -2.9813 0.9614
-7.6177 -5.4829 -2.9808 0.9614
-7.0989 -6.1387 -2.9805 0.9614
-6.5240 -6.7457 -2.9803 0.9614
-5.8973 -7.2992 -2.9802 0.9614
-5.2241 -7.7949 -2.9801 0.9614
-4.5096 -8.2290 -2.9801 0.9614
-3.7593 -8.5978 -2.9801 0.9614
-1.0149 -3.0315 -1.0153 0.9867
-0.6172 -2.5898 -0.8455 0.9889
-0.3549 -2.4334 -0.7810 0.9897
0.0774 -2.3139 -0.7353 0.9903
0.2829 -2.2971 -0.7350 0.9903
0.7379 -2.3787 -0.7910 0.9896
1.0339 -2.5159 -0.8639 0.9886
4.3277 -8.3324 -2.9819 0.9614
5.7380 -7.4350 -2.9827 0.9614
6.3779 -6.8957 -2.9831 0.9613
6.9674 -6.3016 -2.9835 0.9613
7.5018 -5.6573 -2.9840 0.9613
7.9754 -4.9671 -2.9839 0.9613
8.7236 -3.4719 -2.9818 0.9614
9.3243 -1.0430 -2.9797 0.9614
9.3788 -0.2090 -2.9793 0.9614
9.2662 1.4571 -2.9789 0.9614
8.8617 3.0771 -2.9792 0.9614
8.5537 3.8541 -2.9795 0.9614
7.7378 5.3117 -2.9807 0.9614
7.2362 5.9809 -2.9815 0.9614
6.5076 6.4355 -2.9066 0.9623
5.7568 6.8092 -2.8318 0.9633
5.1299 7.2975 -2.8329 0.9633
4.4620 7.7284 -2.8341 0.9632
2.5027 5.3931 -1.8882 0.9754
2.2686 8.6593 -2.8429 0.9631
1.4898 8.8322 -2.8446 0.9631
0.6982 8.9355 -2.8464 0.9631
-0.0999 8.9681 -2.8483 0.9631
-0.8977 8.9236 -2.8483 0.9631
-2.5582 8.9467 -2.9552 0.9617
-3.3976 8.8216 -3.0022 0.9611
-4.1716 8.4891 -3.0039 0.9611
-4.9134 8.0885 -3.0056 0.9611
-6.2762 7.0967 -3.0087 0.9610
-7.4420 5.8769 -3.0116 0.9610
-9.4927 0.4233 -3.0177 0.9609
-9.4937 -0.4233 -3.0181 0.9609
-9.4188 -1.2667 -3.0182 0.9609
-9.2687 -2.1000 -3.0182 0.9609
-8.9562 -2.8880 -2.9886 0.9613
-8.6431 -3.6650 -2.9815 0.9614
-6.8182 -6.4486 -2.9804 0.9614
-3.3726 -8.7568 -2.9802 0.9614
-0.0259 -2.3235 -0.7379 0.9903
0.3887 -2.3043 -0.7422 0.9902
0.6125 -2.3379 -0.7676 0.9899
4.6949 -8.1318 -2.9821 0.9614
5.4008 -7.6827 -2.9825 0.9614
6.6793 -6.6053 -2.9833 0.9613
8.1872 -4.6060 -2.9834 0.9613
8.8683 -3.0794 -2.9814 0.9614
9.1048 -2.2773 -2.9806 0.9614
9.2694 -1.4575 -2.9800 0.9614
9.3784 0.2090 -2.9792 0.9614
9.3220 1.0428 -2.9790 0.9614
9.1921 1.8683 -2.9789 0.9614
8.7163 3.4690 -2.9793 0.9614
8.3742 4.2317 -2.9798 0.9614
7.9658 4.9612 -2.9803 0.9614
5.4488 7.0602 -2.8323 0.9633
3.3998 8.2729 -2.8405 0.9632
2.6514 8.5472 -2.8421 0.9631
1.8812 8.7544 -2.8437 0.9631
0.2996 8.9607 -2.8474 0.9631
-2.0786 8.7224 -2.8477 0.9631
-3.7883 8.6640 -3.0031 0.9611
-4.5469 8.2971 -3.0048 0.9611
-5.2702 7.8637 -3.0064 0.9610
-5.9523 7.3673 -3.0080 0.9610
-6.5877 6.8117 -3.0095 0.9610
-7.1712 6.2012 -3.0109 0.9610
-7.6981 5.5408 -3.0122 0.9610
-9.3493 1.6844 -3.0170 0.9609
-8.9792 0.0000 -3.0168 0.9628
-8.8378 -1.5922 -3.0171 0.9628
-8.3203 -3.0985 -2.9829 0.9632
-7.6346 -4.5220 -2.9813 0.9632
-7.2012 -5.1831 -2.9810 0.9633
-6.7108 -5.8030 -2.9808 0.9633
-4.9385 -7.3687 -2.9804 0.9633
-4.2629 -7.7789 -2.9803 0.9633
-3.5537 -8.1274 -2.9803 0.9633
-2.8162 -8.4116 -2.9803 0.9633
-0.6229 -2.6137 -0.9027 0.9887
-0.3577 -2.4524 -0.8327 0.9896
0.0778 -2.3270 -0.7823 0.9902
0.2845 -2.3101 -0.7820 0.9902
0.5019 -2.3358 -0.8027 0.9900
0.7436 -2.3971 -0.8432 0.9895
1.0449 -2.5425 -0.9236 0.9885
6.5861 -5.9568 -2.9836 0.9632
7.9260 -4.0051 -2.9837 0.9632
8.5056 -2.5349 -2.9819 0.9632
8.8684 -0.1976 -2.9804 0.9633
8.3794 2.9097 -2.9802 0.9633
8.0881 3.6443 -2.9806 0.9633
6.3134 6.2435 -2.9833 0.9632
5.4431 6.4381 -2.8326 0.9650
4.8503 6.8996 -2.8336 0.9650
4.2186 7.3069 -2.8348 0.9650
1.4085 8.3500 -2.8451 0.9649
0.6601 8.4473 -2.8468 0.9649
-0.8485 8.4342 -2.8480 0.9649
-2.4551 8.5861 -3.0004 0.9630
-3.9428 8.0234 -3.0036 0.9630
-4.6437 7.6446 -3.0052 0.9630
-5.9314 6.7068 -3.0082 0.9629
-7.9121 4.2221 -3.0131 0.9629
-8.2592 3.5022 -3.0141 0.9629
-8.5405 2.7540 -3.0150 0.9628
-8.8999 -1.1969 -3.0171 0.9628
-8.1704 -3.4645 -2.9817 0.9632
-7.4252 -4.8574 -2.9811 0.9633
-5.8769 -6.6451 -2.9805 0.9633
-4.6053 -7.5813 -2.9803 0.9633
-3.1881 -8.2777 -2.9803 0.9633
-0.2423 -2.4081 -0.8132 0.9898
-0.0260 -2.3379 -0.7855 0.9902
0.1812 -2.3183 -0.7813 0.9902
0.3912 -2.3192 -0.7902 0.9901
0.8821 -2.4519 -0.8755 0.9891
4.4381 -7.6870 -2.9822 0.9632
5.1053 -7.2624 -2.9826 0.9632
5.7322 -6.7800 -2.9830 0.9632
6.3137 -6.2438 -2.9834 0.9632
6.8454 -5.6579 -2.9838 0.9632
7.3229 -5.0268 -2.9843 0.9632
8.0952 -3.6475 -2.9832 0.9632
8.3853 -2.9117 -2.9823 0.9632
8.7648 -1.3782 -2.9810 0.9633
8.8513 -0.5925 -2.9805 0.9633
8.5004 2.5334 -2.9801 0.9633
8.2419 3.2802 -2.9804 0.9633
7.9183 4.0013 -2.9808 0.9633
7.0863 5.3440 -2.9820 0.9632
6.5843 5.9552 -2.9828 0.9632
5.7235 6.1882 -2.8321 0.9651
5.1518 6.6754 -2.8331 0.9650
3.2146 7.8220 -2.8413 0.9649
1.7785 8.2766 -2.8443 0.9649
1.0354 8.4069 -2.8459 0.9649
0.2832 8.4709 -2.8476 0.9649
-1.9647 8.2441 -2.8474 0.9649
-2.8359 8.4705 -3.0012 0.9630
-4.2975 7.8418 -3.0044 0.9630
-4.9809 7.4321 -3.0060 0.9630
-6.2257 6.4374 -3.0089 0.9629
-7.7148 4.5695 -3.0126 0.9629
-8.0937 3.8660 -3.0136 0.9629
-8.6558 2.3711 -3.0153 0.9628
-8.8344 1.5916 -3.0160 0.9628
-8.9425 0.7991 -3.0165 0.9628
-8.4722 -0.7571 -3.0161 0.9645
-8.3713 -1.5082 -3.0161 0.9645
-7.5879 -3.6244 -2.9817 0.9649
-7.2345 -4.2850 -2.9815 0.9649
-6.8239 -4.9115 -2.9812 0.9649
-5.2829 -6.5387 -2.9807 0.9650
-4.6798 -6.9827 -2.9806 0.9650
-3.3675 -7.7016 -2.9805 0.9650
-2.6686 -7.9708 -2.9805 0.9650
-0.3605 -2.4719 -0.8858 0.9895
0.2863 -2.3247 -0.8305 0.9901
3.8766 -7.4638 -2.9822 0.9649
4.5261 -7.0899 -2.9826 0.9649
5.7128 -6.1766 -2.9833 0.9649
6.2407 -5.6444 -2.9837 0.9649
7.1446 -4.4497 -2.9845 0.9649
7.8178 -3.1114 -2.9836 0.9649
8.3568 -0.9348 -2.9817 0.9649
8.1558 2.0399 -2.9810 0.9649
7.9423 2.7579 -2.9812 0.9649
7.3294 4.1235 -2.9819 0.9649
6.4849 5.3599 -2.9832 0.9649
3.9981 6.9250 -2.8354 0.9666
2.7140 7.5437 -2.8427 0.9665
2.0328 7.7589 -2.8440 0.9665
1.3348 7.9132 -2.8455 0.9665
0.6255 8.0050 -2.8471 0.9665
-1.5117 7.8866 -2.8474 0.9665
-2.3262 8.1353 -3.0003 0.9647
-4.3996 7.2427 -3.0048 0.9647
-5.0291 6.8256 -3.0063 0.9647
-5.6193 6.3538 -3.0077 0.9646
-7.1069 4.6491 -3.0113 0.9646
-7.4951 3.9995 -3.0124 0.9646
-8.4279 1.1334 -3.0153 0.9646
-8.4964 0.3789 -3.0157 0.9645
-8.2958 -1.8796 -3.0161 0.9645
-6.5981 -5.2105 -2.9811 0.9649
-6.1077 -5.7766 -2.9809 0.9650
-5.5691 -6.2970 -2.9808 0.9650
-4.3640 -7.1842 -2.9806 0.9650
-3.7072 -7.5440 -2.9805 0.9650
-0.4887 -2.5494 -0.9204 0.9890
-0.0262 -2.3533 -0.8345 0.9901
0.1823 -2.3329 -0.8297 0.9901
1.2715 -2.7400 -1.0711 0.9873
4.2055 -7.2841 -2.9824 0.9649
4.8377 -6.8817 -2.9828 0.9649
6.4864 -5.3611 -2.9839 0.9649
6.9388 -4.7632 -2.9843 0.9649
7.9476 -2.7597 -2.9832 0.9649
8.3075 -1.3063 -2.9819 0.9649
8.3549 0.9347 -2.9810 0.9649
8.2384 1.6746 -2.9810 0.9649
8.0570 2.4013 -2.9811 0.9649
7.8119 3.1091 -2.9813 0.9649
7.5052 3.7925 -2.9817 0.9649
6.2406 5.6443 -2.9836 0.9649
4.3018 6.7387 -2.8348 0.9666
3.6864 7.0976 -2.8359 0.9666
3.0413 7.4007 -2.8371 0.9666
2.3758 7.6588 -2.8434 0.9665
0.9812 7.9670 -2.8463 0.9665
-0.4471 8.0189 -2.8478 0.9665
-1.1590 7.9466 -2.8476 0.9665
-2.6870 8.0257 -3.0010 0.9647
-4.0715 7.4297 -3.0041 0.9647
-5.3295 6.5964 -3.0070 0.9646
-5.8980 6.0986 -3.0083 0.9646
-6.4201 5.5517 -3.0096 0.9646
-7.6670 3.6622 -3.0128 0.9646
-8.0742 0.0000 -3.0150 0.9661
-8.0427 -0.7187 -3.0152 0.9661
-7.9469 -1.4317 -3.0153 0.9661
-7.7878 -2.1333 -3.0152 0.9661
-6.4803 -4.6642 -2.9814 0.9665
-5.0170 -6.2096 -2.9810 0.9665
-3.8363 -7.0003 -2.9808 0.9665
-3.1980 -7.3139 -2.9808 0.9665
-2.5343 -7.5696 -2.9808 0.9665
-0.3634 -2.4920 -0.9404 0.9893
0.0788 -2.3567 -0.8805 0.9900
0.5087 -2.3674 -0.9042 0.9897
1.0679 -2.5985 -1.0490 0.9881
4.8808 -6.3242 -2.9831 0.9665
5.4250 -5.8654 -2.9834 0.9665
7.1346 -3.6053 -2.9850 0.9664
7.4256 -2.9553 -2.9843 0.9665
7.6573 -2.2821 -2.9836 0.9665
7.9679 0.5334 -2.9819 0.9665
7.8885 1.2404 -2.9818 0.9665
7.7469 1.9377 -2.9819 0.9665
7.5441 2.6196 -2.9820 0.9665
6.9618 3.9167 -2.9828 0.9665
6.5868 4.5216 -2.9833 0.9665
3.7973 6.5771 -2.8359 0.9681
2.5776 7.1646 -2.8432 0.9680
1.9307 7.3694 -2.8447 0.9680
1.2677 7.5155 -2.8460 0.9680
-0.0849 7.6247 -2.8473 0.9680
-1.4353 7.4881 -2.8470 0.9680
-2.2089 7.7249 -3.0002 0.9663
-3.5470 7.2179 -3.0031 0.9662
-4.1773 6.8768 -3.0045 0.9662
-4.7750 6.4807 -3.0059 0.9662
-5.3352 6.0326 -3.0072 0.9662
-5.8533 5.5361 -3.0084 0.9662
-7.1155 3.7970 -3.0117 0.9661
-7.6802 2.4766 -3.0133 0.9661
-7.8718 1.7835 -3.0139 0.9661
-8.0007 1.0760 -3.0145 0.9661
-8.0658 0.3597 -3.0148 0.9661
-8.0665 -0.3597 -3.0151 0.9661
-7.3523 -3.1176 -2.9821 0.9665
-6.6819 -4.3711 -2.9815 0.9665
-6.2659 -4.9481 -2.9813 0.9665
-5.8003 -5.4858 -2.9812 0.9665
-5.2887 -5.9800 -2.9810 0.9665
-4.7353 -6.4267 -2.9809 0.9665
-0.2456 -2.4415 -0.9163 0.9896
-0.0264 -2.3691 -0.8847 0.9899
0.1835 -2.3478 -0.8794 0.9900
0.3964 -2.3501 -0.8899 0.9899
0.6251 -2.3859 -0.9210 0.9895
1.3289 -2.8638 -1.1789 0.9866
3.9937 -6.9172 -2.9826 0.9665
4.5940 -6.5350 -2.9829 0.9665
5.6813 -5.6183 -2.9836 0.9665
6.1596 -5.0910 -2.9840 0.9665
6.5891 -4.5231 -2.9844 0.9665
6.9665 -3.9192 -2.9848 0.9664
7.5489 -2.6212 -2.9839 0.9665
7.8909 -1.2408 -2.9827 0.9665
7.9689 -0.5334 -2.9823 0.9665
7.9839 0.1779 -2.9820 0.9665
7.8254 1.5906 -2.9818 0.9665
6.7810 4.2232 -2.9830 0.9665
5.9274 5.3610 -2.9844 0.9665
5.4283 5.8690 -2.9852 0.9664
4.6375 6.0091 -2.8344 0.9681
4.0857 6.4002 -2.8354 0.9681
3.5012 6.7410 -2.8364 0.9681
0.9319 7.5664 -2.8467 0.9680
0.2548 7.6207 -2.8472 0.9680
-0.4245 7.6134 -2.8473 0.9680
-1.1004 7.5450 -2.8472 0.9680
-3.2212 7.3670 -3.0024 0.9663
-4.4805 6.6854 -3.0052 0.9662
-6.0953 5.2708 -3.0090 0.9662
-6.5427 4.7092 -3.0101 0.9662
-6.9383 4.1096 -3.0112 0.9662
-8.0413 0.7186 -3.0147 0.9661
-7.6500 -0.6836 -3.0144 0.9675
-7.5589 -1.3618 -3.0144 0.9675
-7.4076 -2.0291 -3.0144 0.9675
-7.1340 -2.6567 -2.9877 0.9678
-6.5370 -3.8719 -2.9818 0.9679
-5.2808 -5.4603 -2.9813 0.9679
-4.7737 -5.9084 -2.9812 0.9679
-3.6503 -6.6608 -2.9810 0.9679
-2.4114 -7.2025 -2.9810 0.9679
-0.3665 -2.5126 -0.9966 0.9891
-0.1350 -2.4211 -0.9517 0.9896
0.5123 -2.3838 -0.9569 0.9896
4.0895 -6.4061 -2.9828 0.9679
4.6440 -6.0173 -2.9832 0.9679
5.1617 -5.5808 -2.9835 0.9679
5.6386 -5.0998 -2.9839 0.9679
6.0709 -4.5783 -2.9842 0.9679
7.0666 -2.8124 -2.9850 0.9678
7.5542 -0.8450 -2.9833 0.9679
7.1796 2.4931 -2.9828 0.9679
6.9299 3.1225 -2.9831 0.9679
6.2684 4.3031 -2.9841 0.9679
5.8618 4.8449 -2.9847 0.9678
5.4087 5.3488 -2.9854 0.9678
4.8975 5.7929 -2.9772 0.9679
4.1548 5.9103 -2.8354 0.9694
3.6135 6.2588 -2.8364 0.9694
2.5027 5.3931 -2.3334 0.9748
1.8368 7.0109 -2.8444 0.9693
1.2060 7.1495 -2.8456 0.9693
0.5650 7.2304 -2.8464 0.9693
-0.0808 7.2529 -2.8467 0.9693
-2.1016 7.3496 -3.0001 0.9677
-2.7486 7.1367 -3.0015 0.9677
-3.9741 6.5422 -3.0042 0.9676
-5.0753 5.7388 -3.0068 0.9676
-6.4182 4.1986 -3.0101 0.9676
-7.4876 1.6965 -3.0132 0.9675
-7.6102 1.0235 -3.0137 0.9675
-7.6121 -1.0237 -3.0144 0.9675
-6.3578 -4.1590 -2.9817 0.9679
-5.0322 -5.6900 -2.9812 0.9679
-4.5056 -6.1151 -2.9811 0.9679
-2.7299 -7.0879 -2.9810 0.9679
-0.8571 -2.9975 -1.2236 0.9867
-0.4970 -2.5931 -1.0362 0.9887
-0.0266 -2.3854 -0.9362 0.9898
0.1847 -2.3631 -0.9303 0.9899
0.3991 -2.3661 -0.9417 0.9897
0.6295 -2.4028 -0.9748 0.9894
3.7999 -6.5816 -2.9827 0.9679
4.3711 -6.2179 -2.9830 0.9679
4.9077 -5.8048 -2.9833 0.9679
5.4055 -5.3456 -2.9837 0.9679
5.8605 -4.8438 -2.9840 0.9679
6.6282 -3.7290 -2.9848 0.9678
6.9347 -3.1246 -2.9852 0.9678
7.5096 -1.1808 -2.9835 0.9679
7.5526 0.8449 -2.9827 0.9679
7.4474 1.5138 -2.9826 0.9679
7.2833 2.1707 -2.9827 0.9679
7.0618 2.8105 -2.9830 0.9679
6.4533 4.0192 -2.9838 0.9679
5.1658 5.5852 -2.9858 0.9678
4.4132 5.7184 -2.8349 0.9694
3.8880 6.0905 -2.8359 0.9694
2.7522 6.6971 -2.8417 0.9694
2.1467 6.9202 -2.8437 0.9693
1.5230 7.0874 -2.8451 0.9693
0.2424 7.2490 -2.8466 0.9693
-0.4038 7.2423 -2.8468 0.9693
-1.0468 7.1775 -2.8467 0.9693
-1.6818 7.0574 -2.8474 0.9693
-3.0645 7.0088 -3.0022 0.9677
-3.6779 6.7113 -3.0036 0.9676
-4.2625 6.3601 -3.0049 0.9676
-4.8137 5.9580 -3.0062 0.9676
-5.7983 5.0140 -3.0085 0.9676
-6.2238 4.4796 -3.0096 0.9676
-6.5999 3.9092 -3.0106 0.9676
-6.9237 3.3072 -3.0114 0.9676
-7.4039 2.0282 -3.0129 0.9676
-7.6487 0.6835 -3.0139 0.9675
-7.2027 -1.2976 -3.0137 0.9688
-6.8020 -2.5331 -2.9888 0.9691
-6.2308 -3.6905 -2.9820 0.9692
-5.8772 -4.2301 -2.9818 0.9692
-5.4770 -4.7361 -2.9816 0.9692
-5.0335 -5.2046 -2.9815 0.9692
-3.4793 -6.3489 -2.9812 0.9692
-2.2985 -6.8652 -2.9812 0.9692
-0.6635 -2.7843 -1.1786 0.9877
-0.3696 -2.5339 -1.0544 0.9890
0.0798 -2.3879 -0.9838 0.9897
0.5159 -2.4006 -1.0111 0.9894
0.7680 -2.4758 -1.0674 0.9888
3.8979 -6.1059 -2.9830 0.9691
4.4264 -5.7353 -2.9833 0.9691
4.9198 -5.3192 -2.9836 0.9691
5.7863 -4.3637 -2.9843 0.9691
6.7360 -2.6808 -2.9854 0.9691
6.9470 -2.0704 -2.9850 0.9691
7.2440 -0.1614 -2.9837 0.9691
7.2291 0.4840 -2.9835 0.9691
7.0287 1.7580 -2.9834 0.9691
6.6065 2.9768 -2.9838 0.9691
5.9758 4.1022 -2.9847 0.9691
5.5881 4.6187 -2.9853 0.9691
5.1561 5.0990 -2.9860 0.9691
4.6831 5.5392 -2.9869 0.9691
3.9606 5.6341 -2.8359 0.9706
2.5027 5.3932 -2.4483 0.9746
2.3367 6.4949 -2.8423 0.9706
0.5384 6.8897 -2.8457 0.9705
-0.0770 6.9114 -2.8461 0.9705
-3.2160 6.5444 -3.0027 0.9689
-3.7874 6.2349 -3.0040 0.9689
-4.3290 5.8754 -3.0052 0.9689
-5.3063 5.0187 -3.0075 0.9689
-5.7339 4.5280 -3.0086 0.9689
-6.1162 4.0010 -3.0095 0.9689
-6.4499 3.4418 -3.0104 0.9689
-6.9614 2.2447 -3.0119 0.9689
-7.3105 0.3260 -3.0133 0.9688
-7.1377 -1.6172 -3.0137 0.9688
-6.9555 -2.2429 -3.0094 0.9689
-6.0600 -3.9642 -2.9819 0.9692
-5.6827 -4.4876 -2.9817 0.9692
-5.2604 -4.9753 -2.9815 0.9692
-4.7965 -5.4235 -2.9814 0.9692
-0.0268 -2.4021 -0.9892 0.9897
0.9180 -2.5516 -1.1166 0.9883
3.6218 -6.2732 -2.9828 0.9692
6.3174 -3.5541 -2.9848 0.9691
7.1591 -1.1257 -2.9842 0.9691
7.2299 -0.4840 -2.9838 0.9691
7.2437 0.1614 -2.9836 0.9691
7.0999 1.4431 -2.9834 0.9691
6.7322 2.6794 -2.9837 0.9691
5.3775 4.8636 -2.9857 0.9691
3.1782 6.1190 -2.8393 0.9706
0.8446 6.8580 -2.8453 0.9706
0.2310 6.9075 -2.8460 0.9705
-0.9975 6.8397 -2.8463 0.9705
-2.9206 6.6797 -3.0020 0.9690
-4.0622 6.0612 -3.0046 0.9689
-5.0765 5.2491 -3.0069 0.9689
-5.5255 4.7782 -3.0080 0.9689
-6.5977 3.1515 -3.0108 0.9689
-6.8537 2.5524 -3.0116 0.9689
-7.0551 1.9326 -3.0122 0.9689
-6.9844 0.0000 -3.0128 0.9700
-6.9570 -0.6217 -3.0129 0.9700
-6.7366 -1.8453 -3.0129 0.9700
-5.9483 -3.5232 -2.9822 0.9703
-5.6107 -4.0383 -2.9820 0.9703
-5.2287 -4.5215 -2.9818 0.9703
-4.8053 -4.9687 -2.9816 0.9703
-4.3438 -5.3764 -2.9815 0.9703
-2.7689 -6.3327 -2.9814 0.9703
-0.3753 -2.5730 -1.1216 0.9887
0.2939 -2.3866 -1.0373 0.9896
0.5196 -2.4179 -1.0668 0.9893
0.7815 -2.5194 -1.1379 0.9886
3.1872 -6.1365 -2.9828 0.9703
3.7211 -5.8290 -2.9831 0.9703
4.2256 -5.4752 -2.9834 0.9703
4.6966 -5.0779 -2.9837 0.9703
5.8733 -3.6579 -2.9847 0.9703
6.4303 -2.5592 -2.9854 0.9703
6.6330 -1.9768 -2.9856 0.9703
6.8763 -0.7692 -2.9846 0.9703
6.7112 1.6786 -2.9841 0.9703
6.5355 2.2694 -2.9842 0.9703
6.3081 2.8423 -2.9845 0.9703
6.0308 3.3929 -2.9849 0.9703
5.7058 3.9168 -2.9853 0.9703
5.3356 4.4100 -2.9859 0.9703
4.9230 4.8685 -2.9866 0.9703
3.2897 5.6979 -2.8380 0.9717
2.2303 6.1991 -2.8418 0.9717
0.5138 6.5756 -2.8451 0.9717
-0.0735 6.5964 -2.8456 0.9717
-0.6603 6.5641 -2.8458 0.9717
-1.9120 6.6867 -2.9999 0.9702
-2.5006 6.4927 -3.0012 0.9701
-3.0698 6.2470 -3.0025 0.9701
-5.0647 4.7903 -3.0071 0.9701
-5.4728 4.3219 -3.0081 0.9701
-5.8376 3.8188 -3.0090 0.9701
-6.1560 3.2850 -3.0099 0.9701
-6.4256 2.7247 -3.0106 0.9701
-6.8096 1.5429 -3.0118 0.9700
-6.9771 0.3112 -3.0126 0.9700
-6.9777 -0.3111 -3.0129 0.9700
-6.9225 -0.9310 -3.0130 0.9700
-6.8122 -1.5434 -3.0130 0.9700
-6.0996 -3.2548 -2.9823 0.9703
-5.4251 -4.2842 -2.9819 0.9703
-4.5791 -5.1777 -2.9816 0.9703
-3.5883 -5.9072 -2.9814 0.9703
-3.0483 -6.2031 -2.9814 0.9703
-2.4841 -6.4497 -2.9814 0.9703
-1.9002 -6.6453 -2.9814 0.9703
-0.0269 -2.4192 -1.0436 0.9895
0.9400 -2.6129 -1.1978 0.9880
2.9106 -6.2721 -2.9827 0.9703
5.7042 -3.9157 -2.9845 0.9703
6.0308 -3.3928 -2.9848 0.9703
6.5383 -2.2703 -2.9855 0.9703
6.7139 -1.6792 -2.9853 0.9703
6.8357 -1.0748 -2.9848 0.9703
6.9165 0.1542 -2.9842 0.9703
6.7792 1.3780 -2.9841 0.9703
6.1756 3.1207 -2.9847 0.9703
5.8741 3.6584 -2.9851 0.9703
4.7019 5.0836 -2.9870 0.9703
4.2319 5.4834 -2.9878 0.9703
1.9524 6.2940 -2.8426 0.9717
-2.2084 6.5963 -3.0006 0.9702
-2.7880 6.3762 -3.0019 0.9701
-3.3458 6.1053 -3.0031 0.9701
-3.8775 5.7856 -3.0043 0.9701
-6.7336 1.8445 -3.0116 0.9700
-6.8722 1.2381 -3.0121 0.9700
-6.9560 0.6216 -3.0125 0.9700
-6.6756 0.0000 -3.0121 0.9711
-6.6494 -0.5942 -3.0123 0.9711
-6.4387 -1.7637 -3.0123 0.9711
-5.9644 -2.8490 -2.9825 0.9714
-5.3641 -3.8608 -2.9821 0.9714
-4.9989 -4.3227 -2.9819 0.9714
-4.1529 -5.1401 -2.9817 0.9714
-3.6788 -5.4892 -2.9816 0.9714
-3.1756 -5.7947 -2.9816 0.9714
-2.0979 -6.2659 -2.9816 0.9714
-0.7004 -2.9392 -1.3633 0.9868
-0.3822 -2.6204 -1.1949 0.9884
-0.1388 -2.4902 -1.1253 0.9891
0.0812 -2.4281 -1.0962 0.9894
0.5273 -2.4536 -1.1324 0.9890
0.7958 -2.5653 -1.2119 0.9883
3.5575 -5.5726 -2.9832 0.9714
4.4900 -4.8546 -2.9837 0.9714
4.9048 -4.4361 -2.9840 0.9714
5.2807 -3.9824 -2.9844 0.9714
5.6149 -3.4969 -2.9847 0.9714
5.9045 -2.9836 -2.9850 0.9714
6.1473 -2.4465 -2.9854 0.9714
6.4843 -1.3180 -2.9856 0.9714
6.5750 -0.7355 -2.9853 0.9714
6.6002 0.4418 -2.9848 0.9714
5.7665 3.2442 -2.9855 0.9714
4.2752 5.0568 -2.9879 0.9714
3.1447 5.4468 -2.8379 0.9728
2.1318 5.9254 -2.8414 0.9727
1.5967 6.0945 -2.8428 0.9727
0.4911 6.2849 -2.8445 0.9727
-0.0702 6.3048 -2.8450 0.9727
-1.2402 6.4701 -2.9726 0.9715
-2.9346 5.9717 -3.0023 0.9712
-3.4558 5.6890 -3.0035 0.9712
-3.9499 5.3609 -3.0046 0.9712
-4.8412 4.5788 -3.0067 0.9712
-5.5798 3.6501 -3.0086 0.9712
-6.3505 2.0478 -3.0107 0.9711
-6.6150 0.8897 -3.0117 0.9711
-6.6687 0.2974 -3.0120 0.9711
-6.6164 -0.8898 -3.0123 0.9711
-6.0930 -2.5837 -2.9862 0.9714
-5.8314 -3.1117 -2.9824 0.9714
-5.5309 -3.6181 -2.9822 0.9714
-5.1866 -4.0958 -2.9820 0.9714
-4.3778 -4.9501 -2.9818 0.9714
-3.9197 -5.3199 -2.9817 0.9714
-2.9143 -5.9304 -2.9816 0.9714
-0.5228 -2.7272 -1.2530 0.9879
-0.0272 -2.4466 -1.1040 0.9893
0.1890 -2.4185 -1.0946 0.9894
3.8024 -5.4089 -2.9833 0.9714
4.2691 -5.0495 -2.9836 0.9714
4.7021 -4.6500 -2.9839 0.9714
5.0978 -4.2134 -2.9842 0.9714
5.4532 -3.7434 -2.9845 0.9714
6.0319 -2.7178 -2.9852 0.9714
6.2505 -2.1704 -2.9855 0.9714
6.4196 -1.6056 -2.9859 0.9714
6.4822 1.3176 -2.9847 0.9714
5.6167 3.4981 -2.9857 0.9714
4.4957 4.8607 -2.9875 0.9714
3.3834 5.3000 -2.8372 0.9728
2.8999 5.5833 -2.8388 0.9728
0.7705 6.2561 -2.8442 0.9727
-0.9102 6.2406 -2.8457 0.9727
-1.5409 6.4660 -2.9993 0.9713
-2.1112 6.3058 -3.0005 0.9712
-2.6651 6.0953 -3.0017 0.9712
-6.0189 2.8750 -3.0097 0.9712
-6.4359 1.7630 -3.0110 0.9711
-6.5684 1.1834 -3.0115 0.9711
-6.6485 0.5941 -3.0119 0.9711
-6.3888 0.0000 -3.0115 0.9721
-6.2880 -1.1328 -3.0117 0.9721
-6.1621 -1.6880 -3.0117 0.9721
-5.9641 -2.2210 -2.9999 0.9722
-5.4438 -3.2244 -2.9824 0.9724
-5.1349 -3.6959 -2.9822 0.9724
-4.7853 -4.1380 -2.9821 0.9724
-4.3978 -4.5473 -2.9820 0.9724
-3.9755 -4.9205 -2.9819 0.9724
-3.5217 -5.2547 -2.9818 0.9724
-2.5341 -5.7957 -2.9817 0.9724
-1.4664 -6.1533 -2.9818 0.9724
-0.3895 -2.6704 -1.2721 0.9881
-0.1410 -2.5286 -1.1938 0.9889
2.9169 -5.6159 -2.9830 0.9724
3.4054 -5.3345 -2.9833 0.9724
3.8671 -5.0107 -2.9835 0.9724
4.2981 -4.6470 -2.9838 0.9724
4.6951 -4.2464 -2.9841 0.9724
5.6520 -2.8560 -2.9850 0.9724
6.0701 -1.8091 -2.9857 0.9724
6.2950 -0.7042 -2.9858 0.9724
6.3321 -0.1411 -2.9855 0.9724
6.3191 0.4230 -2.9854 0.9724
5.7748 2.6021 -2.9857 0.9724
5.5209 3.1060 -2.9860 0.9724
4.8843 4.0370 -2.9870 0.9724
4.5066 4.4567 -2.9876 0.9724
3.0103 5.2141 -2.8380 0.9737
2.0403 5.6712 -2.8410 0.9737
1.5281 5.8329 -2.8423 0.9737
0.4700 6.0150 -2.8440 0.9737
-1.1976 6.2477 -2.9986 0.9723
-1.7496 6.1187 -2.9998 0.9723
-3.7807 5.1312 -3.0043 0.9722
-4.6336 4.3825 -3.0064 0.9722
-5.8780 2.4925 -3.0096 0.9722
-6.2292 1.4114 -3.0107 0.9722
-6.3322 -0.8516 -3.0117 0.9721
-6.0807 -1.9608 -3.0116 0.9721
-5.5822 -2.9787 -2.9825 0.9724
-5.2946 -3.4636 -2.9823 0.9724
-4.9650 -3.9208 -2.9822 0.9724
-3.7523 -5.0927 -2.9818 0.9724
-0.5353 -2.7929 -1.3405 0.9875
-0.2593 -2.5773 -1.2210 0.9886
0.9916 -2.7563 -1.3808 0.9871
3.1643 -5.4806 -2.9831 0.9724
4.0866 -4.8336 -2.9837 0.9724
4.5011 -4.4512 -2.9840 0.9724
4.8799 -4.0333 -2.9843 0.9724
5.2200 -3.5833 -2.9846 0.9724
5.7739 -2.6016 -2.9852 0.9724
5.9832 -2.0776 -2.9855 0.9724
6.1450 -1.5370 -2.9858 0.9724
6.2577 -0.9840 -2.9860 0.9724
6.3198 -0.4230 -2.9857 0.9724
6.3319 0.1411 -2.9854 0.9724
6.2939 0.7041 -2.9853 0.9724
6.2062 1.2615 -2.9853 0.9724
5.8848 2.3421 -2.9855 0.9724
5.3775 3.3491 -2.9862 0.9724
4.3041 4.6535 -2.9879 0.9724
3.8738 5.0194 -2.9887 0.9724
3.3285 5.2141 -2.9159 0.9730
0.7374 5.9874 -2.8436 0.9737
0.2016 6.0305 -2.8442 0.9737
-0.3360 6.0254 -2.8446 0.9737
-1.4750 6.1894 -2.9992 0.9723
-2.0208 6.0359 -3.0004 0.9722
-3.5477 5.2936 -3.0038 0.9722
-5.1788 3.7275 -3.0077 0.9722
-5.7605 2.7516 -3.0093 0.9722
-5.9839 2.2284 -3.0099 0.9722
-6.1596 1.6873 -3.0105 0.9722
-6.3629 0.5686 -3.0113 0.9721
-5.7249 -2.1320 -3.0047 0.9731
-4.5863 -3.9659 -2.9822 0.9733
-4.2149 -4.3582 -2.9821 0.9733
-2.9135 -5.3165 -2.9819 0.9733
-1.9247 -5.7488 -2.9819 0.9733
-0.3971 -2.7230 -1.3535 0.9878
-0.1432 -2.5690 -1.2655 0.9886
0.5439 -2.5309 -1.2732 0.9885
2.7955 -5.3823 -2.9831 0.9733
3.2637 -5.1125 -2.9833 0.9733
3.7062 -4.8022 -2.9836 0.9733
4.4997 -4.0697 -2.9842 0.9733
5.9492 -1.2092 -2.9860 0.9733
6.0338 -0.6750 -2.9863 0.9733
5.9969 0.9430 -2.9858 0.9733
5.2920 2.9772 -2.9865 0.9733
4.3196 4.2717 -2.9881 0.9733
3.4954 4.9724 -2.9895 0.9733
1.9551 5.4343 -2.8406 0.9746
1.4643 5.5892 -2.8418 0.9746
0.9613 5.6992 -2.8428 0.9746
-1.1477 5.9876 -2.9986 0.9732
-1.6767 5.8639 -2.9998 0.9732
-2.1928 5.6935 -3.0009 0.9732
-2.6918 5.4777 -3.0020 0.9732
-3.6230 4.9171 -3.0041 0.9731
-4.4402 4.1996 -3.0060 0.9731
-4.7978 3.7888 -3.0069 0.9731
-5.1174 3.3477 -3.0077 0.9731
-5.3963 2.8796 -3.0085 0.9731
-5.6324 2.3884 -3.0091 0.9731
-5.8238 1.8779 -3.0097 0.9731
-5.9688 1.3524 -3.0102 0.9731
-6.0675 -0.8160 -3.0112 0.9731
-5.8264 -1.8788 -3.0111 0.9731
-5.5936 -2.3719 -2.9884 0.9733
-5.3500 -2.8548 -2.9826 0.9733
-5.0744 -3.3195 -2.9825 0.9733
-4.7585 -3.7578 -2.9823 0.9733
-3.5963 -4.8808 -2.9820 0.9733
-2.1789 -5.6574 -2.9819 0.9733
0.1945 -2.4893 -1.2281 0.9889
1.0700 -2.9740 -1.5546 0.9860
2.5529 -5.5013 -2.9830 0.9733
3.0326 -5.2526 -2.9832 0.9733
3.4884 -4.9623 -2.9835 0.9733
4.3137 -4.2659 -2.9840 0.9733
5.2891 -2.9756 -2.9849 0.9733
5.8891 -1.4729 -2.9858 0.9733
6.0330 0.6749 -2.9859 0.9733
5.9489 1.2092 -2.9858 0.9733
5.8178 1.7339 -2.9859 0.9733
4.8490 3.6568 -2.9872 0.9733
4.5052 4.0747 -2.9877 0.9733
4.1255 4.4604 -2.9884 0.9733
3.2709 5.1238 -2.9899 0.9733
2.6602 5.1219 -2.8387 0.9746
1.7115 5.5173 -2.8413 0.9746
0.7066 5.7371 -2.8431 0.9746
-1.4136 5.9316 -2.9992 0.9732
-2.4447 5.5912 -3.0014 0.9732
-3.3997 5.0728 -3.0036 0.9731
-4.6236 3.9982 -3.0065 0.9731
-4.9625 3.5718 -3.0073 0.9731
-6.0969 0.5448 -3.0107 0.9731
-5.7795 -1.0412 -3.0107 0.9739
-5.6638 -1.5515 -3.0106 0.9739
-5.2542 -2.5097 -2.9852 0.9742
-5.0057 -2.9649 -2.9827 0.9742
-3.2383 -4.8319 -2.9821 0.9742
-2.3303 -5.3294 -2.9820 0.9742
-1.8466 -5.5157 -2.9820 0.9742
-0.4122 -2.8266 -1.4644 0.9872
-0.1456 -2.6113 -1.3408 0.9883
0.3102 -2.5188 -1.3011 0.9887
2.2117 -5.3817 -2.9830 0.9742
3.1313 -4.9051 -2.9834 0.9742
3.9521 -4.2729 -2.9839 0.9742
4.9419 -3.0778 -2.9848 0.9742
5.1968 -2.6260 -2.9851 0.9742
5.4104 -2.1533 -2.9854 0.9742
5.5811 -1.6633 -2.9856 0.9742
5.8241 -0.1298 -2.9866 0.9742
5.6511 1.4134 -2.9864 0.9742
5.5030 1.9109 -2.9865 0.9742
5.3115 2.3933 -2.9867 0.9742
5.0779 2.8568 -2.9870 0.9742
3.7644 4.4525 -2.9891 0.9741
2.9168 5.0519 -2.9906 0.9741
2.3502 5.0645 -2.8623 0.9752
1.4046 5.3614 -2.8414 0.9754
-0.5852 5.8176 -2.9975 0.9741
-1.1011 5.7445 -2.9986 0.9741
-1.6086 5.6257 -2.9997 0.9740
-2.1037 5.4621 -3.0008 0.9740
-2.5824 5.2551 -3.0018 0.9740
-4.6025 3.6346 -3.0066 0.9740
-4.9090 3.2113 -3.0073 0.9740
-5.1766 2.7623 -3.0081 0.9740
-5.4030 2.2911 -3.0087 0.9740
-5.5865 1.8014 -3.0092 0.9740
-5.7255 1.2973 -3.0097 0.9740
-5.8190 0.7826 -3.0101 0.9740
-5.8661 0.2616 -3.0104 0.9740
-5.8201 -0.7827 -3.0107 0.9739
-5.5889 -1.8022 -3.0106 0.9739
-5.1330 -2.7390 -2.9827 0.9742
-3.8536 -4.3573 -2.9822 0.9742
-3.4504 -4.6829 -2.9821 0.9742
-3.0198 -4.9713 -2.9820 0.9742
-2.0905 -5.4279 -2.9820 0.9742
-0.2689 -2.6734 -1.3775 0.9880
-0.0286 -2.5633 -1.3142 0.9885
0.1975 -2.5271 -1.2995 0.9887
0.6944 -2.6503 -1.4046 0.9878
1.9697 -5.4747 -2.9829 0.9742
3.3469 -4.7609 -2.9835 0.9742
3.7576 -4.4445 -2.9838 0.9742
4.7997 -3.2948 -2.9846 0.9742
5.0744 -2.8548 -2.9849 0.9742
5.3089 -2.3920 -2.9852 0.9742
5.5012 -1.9102 -2.9855 0.9742
5.7539 -0.9047 -2.9861 0.9742
5.8239 0.1298 -2.9865 0.9742
5.5826 1.6638 -2.9864 0.9742
5.1999 2.6276 -2.9868 0.9742
4.6529 3.5089 -2.9877 0.9741
4.3228 3.9098 -2.9882 0.9741
3.9585 4.2799 -2.9888 0.9741
3.1385 4.9163 -2.9902 0.9741
2.1056 5.1236 -2.8399 0.9754
1.6418 5.2925 -2.8409 0.9754
0.1854 5.5459 -2.8448 0.9754
-0.3213 5.7620 -2.9586 0.9744
-1.3562 5.6908 -2.9992 0.9740
-1.8579 5.5495 -3.0002 0.9740
-2.3453 5.3640 -3.0013 0.9740
-2.8144 5.1357 -3.0024 0.9740
-3.2615 4.8665 -3.0034 0.9740
-3.6829 4.5583 -3.0043 0.9740
-4.0752 4.2138 -3.0053 0.9740
-4.4354 3.8354 -3.0061 0.9740
-5.2950 2.5293 -3.0084 0.9740
-5.6617 1.5509 -3.0095 0.9740
-5.6384 0.0000 -3.0100 0.9748
-5.6162 -0.5019 -3.0101 0.9748
-5.5494 -0.9997 -3.0102 0.9748
-5.4383 -1.4897 -3.0101 0.9748
-5.0478 -2.4111 -2.9864 0.9750
-4.2259 -3.6543 -2.9825 0.9750
-3.8837 -4.0158 -2.9823 0.9750
-3.5108 -4.3453 -2.9823 0.9750
-3.1100 -4.6405 -2.9822 0.9750
-2.6846 -4.8988 -2.9821 0.9750
-1.7735 -5.2971 -2.9821 0.9750
-1.2950 -5.4341 -2.9822 0.9750
0.3156 -2.5628 -1.3785 0.9884
0.5689 -2.6475 -1.4456 0.9878
2.1240 -5.1685 -2.9831 0.9750
3.4148 -4.4246 -2.9837 0.9750
3.7954 -4.1035 -2.9840 0.9750
4.4636 -3.3662 -2.9845 0.9750
4.9907 -2.5219 -2.9851 0.9750
5.1958 -2.0679 -2.9854 0.9750
5.3598 -1.5974 -2.9856 0.9750
5.5611 -0.6221 -2.9873 0.9749
5.5940 -0.1246 -2.9870 0.9749
5.5826 0.3737 -2.9869 0.9749
5.5271 0.8691 -2.9868 0.9749
4.6143 3.1676 -2.9879 0.9749
3.9809 3.9368 -2.9889 0.9749
3.2213 4.5823 -2.9902 0.9749
2.8014 4.8521 -2.9910 0.9749
2.3409 5.0445 -2.9688 0.9751
1.8245 5.0711 -2.8770 0.9759
1.3495 5.1509 -2.8425 0.9761
0.4232 5.4161 -2.9002 0.9757
-0.5621 5.5869 -2.9976 0.9749
-1.0574 5.5166 -2.9986 0.9749
-3.3375 4.5297 -3.0036 0.9748
-3.7286 4.2159 -3.0046 0.9748
-4.4195 3.4900 -3.0062 0.9748
-4.7137 3.0836 -3.0070 0.9748
-4.9706 2.6524 -3.0077 0.9748
-5.4976 1.2456 -3.0093 0.9748
-5.5874 0.7515 -3.0096 0.9748
-5.6326 0.2512 -3.0099 0.9748
-5.5884 -0.7515 -3.0102 0.9748
-5.1618 -2.1888 -2.9931 0.9749
-4.9296 -2.6305 -2.9828 0.9750
-4.6756 -3.0586 -2.9827 0.9750
-4.3846 -3.4625 -2.9825 0.9750
-4.0588 -3.8388 -2.9824 0.9750
-3.7009 -4.1847 -2.9823 0.9750
