ply
format ascii 1.0
element vertex 1584
property float32 x
property float32 y
property float32 z
property float32 I
end_header
1.0335 4.8093 0.5336 0.9804
-2.8017 -2.4227 0.3396 0.9852
-2.4173 -2.4995 0.3188 0.9861
-1.8884 -2.8177 0.3110 0.9865
-1.4928 -3.4141 0.3416 0.9851
-3.0749 -2.4283 0.3592 0.9844
-1.7792 -2.9290 0.3142 0.9863
-1.4235 -3.6960 0.3631 0.9842
1.0334 4.8093 0.4510 0.9804
-3.4358 -2.4730 0.3172 0.9832
-2.7667 -2.3925 0.2741 0.9854
-2.3957 -2.4771 0.2582 0.9863
-1.6629 -3.0344 0.2593 0.9862
-3.0216 -2.3861 0.2885 0.9847
-1.9886 -2.6989 0.2512 0.9866
-1.7644 -2.9047 0.2547 0.9865
-1.4011 -3.6379 0.2921 0.9845
-1.8644 -2.7818 0.1950 0.9867
-1.6537 -3.0175 0.2004 0.9863
-1.4642 -3.3486 0.2129 0.9855
-1.3401 -4.0027 0.2458 0.9832
-2.5492 -2.4111 0.2044 0.9860
-2.2354 -2.5276 0.1965 0.9866
-1.9784 -2.6851 0.1943 0.9867
-1.7549 -2.8889 0.1969 0.9865
-1.5559 -3.1661 0.2055 0.9860
1.0334 4.8092 0.2865 0.9805
-3.3070 -2.3803 0.1694 0.9838
-2.3685 -2.4490 0.1417 0.9865
-2.0907 -2.5877 0.1383 0.9868
-1.8549 -2.7676 0.1385 0.9868
-1.6446 -3.0010 0.1423 0.9864
-1.4546 -3.3267 0.1510 0.9856
-2.2238 -2.5145 0.1396 0.9867
-1.7454 -2.8733 0.1398 0.9866
-2.7094 -2.3429 0.0893 0.9858
-2.0800 -2.5744 0.0825 0.9868
-1.7360 -2.8579 0.0834 0.9867
-1.3635 -3.5404 0.0946 0.9849
1.0334 4.8091 0.1227 0.9805
-3.2284 -2.3236 0.0331 0.9842
-1.6267 -2.9684 0.0281 0.9866
-1.4358 -3.2838 0.0298 0.9858
-2.5054 -2.3696 0.0287 0.9863
-1.7268 -2.8427 0.0276 0.9868
-1.5268 -3.1069 0.0288 0.9862
-1.3522 -3.5110 0.0313 0.9851
1.0334 4.8091 0.0409 0.9805
-3.1971 -2.3011 -0.0327 0.9844
-2.3290 -2.4081 -0.0278 0.9867
-2.0590 -2.5484 -0.0272 0.9870
-1.8270 -2.7260 -0.0273 0.9870
-1.6180 -2.9524 -0.0280 0.9866
-1.2730 -3.8023 -0.0333 0.9841
-2.4911 -2.3561 -0.0285 0.9864
-1.9389 -2.6315 -0.0272 0.9870
-1.7176 -2.8276 -0.0275 0.9869
-1.5174 -3.0877 -0.0286 0.9863
-1.3411 -3.4822 -0.0310 0.9852
1.0334 4.8090 -0.0409 0.9805
-2.0524 -2.5402 -0.0814 0.9870
-1.6125 -2.9425 -0.0837 0.9867
-1.2647 -3.7774 -0.0993 0.9842
-2.8831 -2.2768 -0.0916 0.9854
-2.1827 -2.4680 -0.0822 0.9869
-1.5116 -3.0761 -0.0855 0.9864
1.0334 4.8090 -0.1227 0.9805
-2.3168 -2.3956 -0.1386 0.9867
-2.0490 -2.5361 -0.1356 0.9870
-1.6097 -2.9374 -0.1393 0.9867
-1.4183 -3.2438 -0.1472 0.9859
-1.2596 -3.7623 -0.1650 0.9842
-2.8765 -2.2716 -0.1524 0.9854
-2.4781 -2.3438 -0.1418 0.9864
-2.1792 -2.4640 -0.1368 0.9869
-1.5086 -3.0700 -0.1422 0.9864
-1.3314 -3.4569 -0.1540 0.9853
-2.6506 -2.2920 -0.2041 0.9861
-2.0457 -2.5319 -0.1896 0.9870
-1.8153 -2.7086 -0.1899 0.9870
-1.4154 -3.2371 -0.2058 0.9859
-1.2546 -3.7473 -0.2302 0.9843
-3.7267 -2.4379 -0.2594 0.9823
-2.8700 -2.2664 -0.2130 0.9855
-2.1756 -2.4599 -0.1913 0.9869
-1.7061 -2.8085 -0.1914 0.9869
-1.5057 -3.0639 -0.1988 0.9864
-1.3279 -3.4478 -0.2152 0.9853
1.0333 4.8088 -0.2865 0.9805
-3.1516 -2.2684 -0.2910 0.9845
-1.4125 -3.2305 -0.2642 0.9860
-1.2496 -3.7324 -0.2950 0.9843
-3.6710 -2.4014 -0.3287 0.9826
-2.8634 -2.2612 -0.2734 0.9855
-2.4690 -2.3352 -0.2547 0.9865
-2.1720 -2.4559 -0.2457 0.9869
-1.3244 -3.4388 -0.2762 0.9853
-2.3044 -2.3827 -0.3039 0.9868
-1.8095 -2.6999 -0.2980 0.9870
-1.2447 -3.7176 -0.3594 0.9844
-1.7003 -2.7990 -0.3002 0.9869
-1.3209 -3.4297 -0.3369 0.9853
1.0333 4.8087 -0.4509 0.9804
-3.1404 -2.2603 -0.4197 0.9846
-2.6332 -2.2770 -0.3776 0.9861
-2.3002 -2.3784 -0.3589 0.9868
-1.8066 -2.6956 -0.3520 0.9870
-1.5986 -2.9171 -0.3608 0.9867
-1.4067 -3.2173 -0.3809 0.9860
-1.2444 -3.7168 -0.4251 0.9844
-1.9173 -2.6022 -0.3506 0.9871
-1.4967 -3.0457 -0.3681 0.9864
-1.3178 -3.4216 -0.3977 0.9854
-3.1508 -2.2678 -0.4865 0.9845
-2.6362 -2.2796 -0.4367 0.9860
-2.2993 -2.3774 -0.4145 0.9868
-2.0338 -2.5173 -0.4056 0.9870
-1.8050 -2.6932 -0.4063 0.9870
-1.4084 -3.2212 -0.4406 0.9859
-1.2499 -3.7331 -0.4933 0.9843
-3.7586 -2.4588 -0.5628 0.9821
-2.8576 -2.2566 -0.4563 0.9854
-2.4605 -2.3271 -0.4244 0.9864
-2.1633 -2.4461 -0.4092 0.9869
-1.4970 -3.0463 -0.4254 0.9864
-1.3216 -3.4314 -0.4608 0.9853
1.0333 4.8086 -0.6164 0.9804
-2.6423 -2.2849 -0.4969 0.9860
-2.3036 -2.3820 -0.4713 0.9867
-2.0374 -2.5217 -0.4611 0.9870
-1.8081 -2.6978 -0.4619 0.9870
-1.4116 -3.2283 -0.5012 0.9859
-1.2554 -3.7496 -0.5624 0.9842
-2.8645 -2.2620 -0.5192 0.9854
-2.1671 -2.4504 -0.4653 0.9869
-1.6992 -2.7973 -0.4655 0.9869
-1.5002 -3.0529 -0.4838 0.9864
-1.3254 -3.4412 -0.5245 0.9852
1.0333 4.8086 -0.6996 0.9803
-3.1719 -2.2829 -0.6223 0.9843
-2.6484 -2.2902 -0.5575 0.9859
-2.8715 -2.2676 -0.5826 0.9853
-1.5035 -3.0595 -0.5428 0.9863
-3.1826 -2.2907 -0.6914 0.9842
-2.6547 -2.2956 -0.6188 0.9858
-1.8144 -2.7072 -0.5746 0.9869
-1.6071 -2.9326 -0.5897 0.9865
-1.4179 -3.2428 -0.6241 0.9857
-1.2667 -3.7834 -0.7035 0.9839
-2.4750 -2.3408 -0.6007 0.9863
-1.9254 -2.6131 -0.5723 0.9869
-1.7055 -2.8076 -0.5792 0.9867
-1.5067 -3.0661 -0.6024 0.9862
-1.3331 -3.4612 -0.6540 0.9850
1.0333 4.8085 -0.8672 0.9802
-3.2038 -2.3060 -0.7639 0.9840
-2.6609 -2.3010 -0.6808 0.9858
-2.3170 -2.3958 -0.6450 0.9865
-1.8175 -2.7120 -0.6318 0.9868
-1.4211 -3.2502 -0.6865 0.9857
-1.2801 -3.8235 -0.7803 0.9837
-2.8857 -2.2788 -0.7116 0.9851
-2.4799 -2.3455 -0.6605 0.9862
-1.9288 -2.6177 -0.6292 0.9868
-1.7086 -2.8128 -0.6369 0.9867
-1.5100 -3.0728 -0.6626 0.9861
1.0333 4.8084 -0.9518 0.9802
-3.4120 14.3176 -2.8483 0.9418
-13.8679 -1.2392 -2.9353 0.9447
-13.6827 -2.4650 -2.9310 0.9448
-11.9760 -7.0934 -2.9344 0.9447
-2.3215 -2.4004 -0.7040 0.9864
-2.0517 -2.5395 -0.6883 0.9867
-1.4259 -3.2612 -0.7504 0.9856
-1.3004 -3.8841 -0.8635 0.9834
-3.2639 -13.6962 -2.9683 0.9441
1.7318 -14.0611 -2.9868 0.9437
5.4132 -13.1724 -3.0023 0.9434
6.5694 -12.6484 -3.0048 0.9434
8.7215 -11.3008 -3.0094 0.9433
10.6022 -9.5892 -3.0138 0.9432
12.1500 -7.5671 -3.0176 0.9432
13.7388 -4.0946 -3.0223 0.9431
14.2574 -1.5950 -3.0245 0.9430
14.1803 2.2298 -3.0262 0.9430
13.0864 5.8964 -3.0260 0.9430
11.8719 6.6790 -2.8717 0.9458
11.2276 7.7073 -2.8710 0.9459
5.7223 12.3312 -2.8659 0.9459
4.5996 12.7848 -2.8644 0.9460
3.4415 13.1361 -2.8628 0.9460
2.2573 13.3823 -2.8611 0.9460
-1.3558 13.4775 -2.8557 0.9461
-2.5461 13.2827 -2.8512 0.9462
-7.3657 12.1256 -2.9910 0.9437
-9.3848 10.6116 -2.9865 0.9437
-13.0017 5.5132 -2.9773 0.9439
-13.7612 3.1179 -2.9747 0.9440
-14.0874 0.6282 -2.9728 0.9440
-13.2332 -4.2671 -2.9313 0.9447
-12.8045 -5.4296 -2.9321 0.9447
-1.9322 -2.6223 -0.6867 0.9868
-1.5134 -3.0796 -0.7234 0.9861
-3.8682 -13.5280 -2.9663 0.9441
-1.4120 -14.0351 -2.9738 0.9440
-0.1574 -14.1290 -2.9789 0.9439
2.3585 -13.9824 -2.9894 0.9437
4.8174 -13.3901 -3.0000 0.9435
5.9971 -12.9234 -3.0036 0.9434
11.0226 -9.1104 -3.0148 0.9432
11.7973 -8.0984 -3.0167 0.9432
13.5397 -4.7015 -3.0216 0.9431
14.1700 -2.2281 -3.0240 0.9430
14.2649 1.5958 -3.0261 0.9430
14.0674 2.8593 -3.0263 0.9430
13.7572 4.1001 -3.0264 0.9430
13.3369 5.3079 -3.0262 0.9430
12.6824 6.4087 -2.9957 0.9436
11.5613 7.2004 -2.8714 0.9458
10.8715 8.1986 -2.8706 0.9459
10.1008 9.1356 -2.8712 0.9458
9.2446 9.9951 -2.8703 0.9459
7.3201 11.4667 -2.8680 0.9459
4.0244 12.9734 -2.8636 0.9460
0.4531 13.5511 -2.8584 0.9461
-0.7543 13.5290 -2.8566 0.9461
-3.1322 13.1434 -2.8485 0.9463
-5.6906 13.0146 -2.9946 0.9436
-6.8209 12.4466 -2.9922 0.9436
-10.7042 9.2563 -2.9834 0.9438
-11.4782 8.2615 -2.9815 0.9438
-13.2312 4.9274 -2.9766 0.9439
-14.0472 1.2553 -2.9732 0.9440
-12.8374 -1.1471 -2.9417 0.9485
-12.4047 -3.3980 -2.9356 0.9486
-11.0772 -6.5610 -2.9385 0.9485
-3.2865 -2.3654 -0.9242 0.9835
-1.8255 -2.7239 -0.7484 0.9866
-1.3215 -3.9471 -0.9500 0.9831
-1.8796 -12.8871 -2.9725 0.9480
-0.7262 -13.0239 -2.9772 0.9479
6.0670 -11.6811 -3.0043 0.9474
8.9564 -9.6836 -3.0107 0.9473
11.2171 -6.9861 -3.0162 0.9472
12.2904 -4.8915 -3.0192 0.9472
12.9732 -2.6369 -3.0216 0.9471
13.1604 -1.4722 -3.0225 0.9471
13.2424 -0.2951 -3.0232 0.9471
13.2185 0.8849 -3.0238 0.9471
13.0887 2.0581 -3.0241 0.9471
12.8541 3.2150 -3.0242 0.9471
12.0791 5.4426 -3.0239 0.9471
10.9582 6.1649 -2.8698 0.9497
10.3636 7.1142 -2.8691 0.9497
8.9386 8.8396 -2.8693 0.9497
5.2835 11.3856 -2.8649 0.9498
3.1779 12.1297 -2.8620 0.9499
2.0845 12.3577 -2.8604 0.9499
-2.3517 12.2685 -2.8512 0.9500
-4.7177 12.2492 -2.9960 0.9476
-5.7849 11.7720 -2.9938 0.9476
-6.8048 11.2022 -2.9916 0.9476
-7.7693 10.5446 -2.9895 0.9477
-10.2590 8.1015 -2.9836 0.9478
-10.9331 7.1521 -2.9819 0.9478
-11.5201 6.1474 -2.9803 0.9478
-12.0158 5.0952 -2.9789 0.9479
-12.9205 1.7376 -2.9756 0.9479
-13.0205 0.5806 -2.9748 0.9479
-13.0027 -0.5798 -2.9707 0.9480
-12.7474 -1.7143 -2.9357 0.9486
-12.2418 -3.9475 -2.9358 0.9486
-11.8447 -5.0226 -2.9365 0.9486
-11.3553 -6.0594 -2.9377 0.9486
-2.9279 -2.3121 -0.8515 0.9848
-2.4987 -2.3632 -0.7850 0.9860
-2.1893 -2.4755 -0.7543 0.9865
-1.9368 -2.6287 -0.7453 0.9867
-1.7174 -2.8272 -0.7550 0.9865
-2.4499 -12.7807 -2.9702 0.9480
-1.3046 -12.9683 -2.9749 0.9479
-0.1454 -13.0538 -2.9796 0.9478
3.3248 -12.6905 -2.9943 0.9476
4.4483 -12.3644 -2.9992 0.9475
7.5780 -10.7799 -3.0075 0.9474
8.5133 -10.0696 -3.0096 0.9473
9.3820 -9.2781 -3.0116 0.9473
10.8917 -7.4768 -3.0153 0.9472
11.5203 -6.4812 -3.0170 0.9472
12.0575 -5.4329 -3.0185 0.9472
12.8406 -3.2116 -3.0211 0.9471
13.0799 -2.0567 -3.0221 0.9471
12.3102 4.8993 -3.0241 0.9471
10.6715 6.6463 -2.8695 0.9497
8.5347 9.2275 -2.8689 0.9497
6.7584 10.5867 -2.8667 0.9498
1.0332 4.8083 -1.1225 0.9800
-1.8044 12.3722 -2.8537 0.9500
-6.3012 11.4984 -2.9927 0.9476
-9.0962 9.4054 -2.9864 0.9477
-9.8910 8.5531 -2.9845 0.9478
-10.6066 7.6342 -2.9828 0.9478
-11.2378 6.6562 -2.9811 0.9478
-11.7796 5.6266 -2.9796 0.9478
-12.2281 4.5538 -2.9782 0.9479
-12.8321 2.3118 -2.9760 0.9479
-12.9833 1.1602 -2.9752 0.9479
-12.1083 -0.0000 -2.9762 0.9513
-10.7959 -5.1568 -2.9408 0.9519
-10.2985 -6.0998 -2.9421 0.9519
-3.3529 -2.4133 -1.0154 0.9831
-2.7123 -2.3454 -0.8814 0.9853
-1.8361 -2.7397 -0.8107 0.9865
-1.6302 -2.9748 -0.8338 0.9861
-1.4475 -3.3106 -0.8881 0.9852
-0.6745 -12.0970 -2.9781 0.9513
2.5570 -11.8994 -2.9916 0.9511
3.6115 -11.6422 -2.9962 0.9510
6.5803 -10.3079 -3.0059 0.9509
9.0869 -8.2187 -3.0116 0.9508
9.7880 -7.3814 -3.0133 0.9508
10.9528 -5.5347 -3.0164 0.9507
11.4070 -4.5399 -3.0177 0.9507
12.0400 -2.4472 -3.0199 0.9507
12.2135 -1.3663 -3.0208 0.9506
12.2670 0.8212 -3.0220 0.9506
12.1465 1.9099 -3.0223 0.9506
11.9288 2.9836 -3.0224 0.9506
9.6179 6.6023 -2.8675 0.9531
8.9897 7.4302 -2.8667 0.9531
4.9045 10.5689 -2.8639 0.9531
3.9426 10.9585 -2.8626 0.9532
2.9501 11.2605 -2.8612 0.9532
0.9059 11.5932 -2.8583 0.9532
-0.1295 11.6214 -2.8567 0.9533
-1.1626 11.5573 -2.8551 0.9533
-5.3724 10.9324 -2.9941 0.9511
-7.2160 9.7936 -2.9901 0.9511
-8.8271 8.3487 -2.9864 0.9512
-10.1562 6.6439 -2.9831 0.9512
-11.1628 4.7334 -2.9803 0.9513
-11.5352 3.7196 -2.9791 0.9513
-12.0974 0.5395 -2.9765 0.9513
-12.0953 -0.5393 -2.9760 0.9514
-11.8527 -1.5940 -2.9396 0.9519
-11.6631 -2.6425 -2.9395 0.9519
-11.0132 -4.6700 -2.9404 0.9519
-10.0194 -6.5544 -2.9429 0.9519
-2.5153 -2.3789 -0.8510 0.9858
-1.9480 -2.6439 -0.8072 0.9866
-2.2759 -11.8732 -2.9716 0.9514
-1.2119 -12.0461 -2.9759 0.9514
2.0228 -11.9923 -2.9893 0.9511
3.0869 -11.7826 -2.9939 0.9511
4.1297 -11.4787 -2.9985 0.9510
6.1125 -10.5872 -3.0049 0.9509
8.7092 -8.6127 -3.0107 0.9508
9.4468 -7.8080 -3.0125 0.9508
10.1098 -6.9400 -3.0141 0.9507
10.6928 -6.0157 -3.0157 0.9507
11.9171 -2.9807 -3.0195 0.9507
12.2905 0.2739 -3.0217 0.9506
11.7840 3.5120 -3.0224 0.9506
11.4240 4.5467 -3.0222 0.9506
9.9036 6.1680 -2.8678 0.9531
9.3131 7.0233 -2.8671 0.9531
8.6485 7.8220 -2.8663 0.9531
7.9217 8.5648 -2.8677 0.9531
7.1256 9.2329 -2.8667 0.9531
6.2733 9.8269 -2.8657 0.9531
5.3716 10.3421 -2.8645 0.9531
3.4497 11.1207 -2.8619 0.9532
0.3885 11.6188 -2.8575 0.9532
-0.6468 11.6009 -2.8559 0.9533
-1.6754 11.4876 -2.8535 0.9533
-2.6867 11.2741 -2.8488 0.9534
-6.7747 10.1086 -2.9911 0.9511
-7.6426 9.4595 -2.9892 0.9511
-10.9433 5.2272 -2.9810 0.9513
-11.6873 3.2015 -2.9786 0.9513
-11.9221 2.1479 -2.9776 0.9513
-12.0627 1.0779 -2.9768 0.9513
-11.3006 -0.0000 -2.9777 0.9543
-11.1664 -0.9978 -2.9541 0.9547
-10.7719 -2.9507 -2.9430 0.9549
-10.0822 -4.8159 -2.9442 0.9548
-2.7345 -2.3646 -0.9526 0.9852
-2.3616 -2.4419 -0.8951 0.9860
-1.6406 -2.9938 -0.8995 0.9860
-1.4587 -3.3362 -0.9594 0.9851
-3.5748 -10.6773 -2.9670 0.9545
0.3783 -11.3142 -2.9830 0.9543
3.3685 -10.8590 -2.9958 0.9541
4.3279 -10.5315 -3.0002 0.9540
5.2539 -10.1156 -3.0035 0.9539
6.1373 -9.6139 -3.0054 0.9539
6.9729 -9.0350 -3.0073 0.9539
8.4741 -7.6644 -3.0107 0.9538
9.1275 -6.8834 -3.0123 0.9538
11.2259 -2.2818 -3.0185 0.9537
11.3875 -1.2739 -3.0193 0.9537
11.4370 0.7656 -3.0204 0.9537
11.1216 2.7817 -3.0208 0.9537
10.8296 3.7604 -3.0207 0.9537
8.3818 6.9277 -2.8653 0.9560
2.7513 10.5018 -2.8606 0.9561
1.8049 10.6999 -2.8593 0.9561
-0.1208 10.8395 -2.8564 0.9561
-1.0845 10.7801 -2.8549 0.9562
-2.0369 10.6267 -2.8511 0.9562
-2.9701 10.3871 -2.8467 0.9563
-4.0869 10.6115 -2.9964 0.9541
-5.0120 10.1991 -2.9944 0.9541
-5.8961 9.7064 -2.9925 0.9541
-6.7325 9.1375 -2.9907 0.9541
-7.5147 8.4971 -2.9889 0.9542
-10.4173 4.4173 -2.9815 0.9543
-10.7651 3.4713 -2.9804 0.9543
-11.0277 2.4985 -2.9795 0.9543
-11.2904 0.5034 -2.9780 0.9543
-11.0694 -1.4887 -2.9431 0.9548
-10.2852 -4.3613 -2.9437 0.9548
-9.8595 -5.2612 -2.9447 0.9548
-9.3563 -6.1206 -2.9461 0.9548
-2.9891 -2.3605 -1.0036 0.9844
-2.2154 -2.5050 -0.8812 0.9863
-1.9594 -2.6593 -0.8704 0.9864
-1.5453 -3.1446 -0.9232 0.9856
-2.1239 -11.0799 -2.9727 0.9544
-0.1260 -11.3119 -2.9809 0.9543
0.8825 -11.2941 -2.9851 0.9542
3.8517 -10.7060 -2.9980 0.9540
4.7962 -10.3357 -3.0024 0.9540
7.3706 -8.7180 -3.0082 0.9539
8.1220 -8.0320 -3.0099 0.9538
8.8095 -7.2812 -3.0116 0.9538
10.4350 -4.7018 -3.0159 0.9538
10.8163 -3.7558 -3.0170 0.9537
11.1115 -2.7792 -3.0181 0.9537
11.3180 -1.7797 -3.0189 0.9537
11.4590 0.2554 -3.0202 0.9537
11.3922 1.2744 -3.0206 0.9537
11.2343 2.2835 -3.0208 0.9537
9.3547 5.8261 -2.9039 0.9554
8.6832 6.5483 -2.8657 0.9560
7.3865 7.9861 -2.8664 0.9560
6.6447 8.6097 -2.8657 0.9560
1.0332 4.8082 -1.2959 0.9799
-0.6033 10.8205 -2.8556 0.9562
-3.6113 10.7866 -2.9973 0.9540
-4.5541 10.4156 -2.9954 0.9541
-7.1308 8.8259 -2.9898 0.9541
-10.3047 -1.8565 -2.9460 0.9574
-10.0987 -2.7663 -2.9460 0.9574
-9.8137 -3.6547 -2.9464 0.9574
-9.0158 -5.3401 -2.9482 0.9574
-2.7573 -2.3843 -1.0256 0.9850
-1.4702 -3.3624 -1.0325 0.9849
-3.3495 -10.0043 -2.9683 0.9571
-2.4486 -10.2750 -2.9719 0.9571
0.3543 -10.5975 -2.9833 0.9569
4.0525 -9.8612 -2.9997 0.9567
4.9200 -9.4727 -3.0032 0.9566
6.5292 -8.4601 -3.0067 0.9566
7.9343 -7.1761 -3.0100 0.9565
8.5457 -6.4447 -3.0115 0.9565
9.0897 -5.6611 -3.0129 0.9565
9.9575 -3.9630 -3.0153 0.9564
10.6601 -1.1925 -3.0180 0.9564
10.7260 -0.2390 -3.0186 0.9564
10.7063 0.7167 -3.0190 0.9564
10.4109 2.6039 -3.0194 0.9564
9.7833 4.4082 -3.0191 0.9564
9.3510 5.2608 -3.0187 0.9564
8.3946 5.7625 -2.8648 0.9586
7.2361 7.1559 -2.8633 0.9586
6.5748 7.7767 -2.8652 0.9586
5.8549 8.3287 -2.8644 0.9586
5.0886 8.8138 -2.8634 0.9586
4.2824 9.2283 -2.8624 0.9586
2.5762 9.8333 -2.8601 0.9586
1.6900 10.0192 -2.8588 0.9587
0.7912 10.1252 -2.8575 0.9587
-4.6943 9.5527 -2.9947 0.9567
-5.5227 9.0916 -2.9929 0.9568
-6.3063 8.5590 -2.9912 0.9568
-7.0392 7.9594 -2.9896 0.9568
-8.8786 5.8081 -2.9851 0.9569
-9.7597 4.1385 -2.9826 0.9569
-9.6422 -4.0887 -2.9467 0.9574
-8.7710 -5.7377 -2.9489 0.9574
-3.0337 -2.3957 -1.0876 0.9841
-2.5496 -2.4114 -0.9874 0.9855
-2.2289 -2.5203 -0.9466 0.9861
-1.9711 -2.6751 -0.9349 0.9863
-2.9022 -10.1496 -2.9701 0.9571
-1.9897 -10.3803 -2.9737 0.9570
-0.1180 -10.5958 -2.9814 0.9569
2.6964 -10.2922 -2.9935 0.9568
3.6067 -10.0252 -2.9976 0.9567
5.3387 -9.2468 -3.0041 0.9566
6.1441 -8.7401 -3.0059 0.9566
7.6048 -7.5205 -3.0092 0.9565
8.2482 -6.8173 -3.0107 0.9565
8.8264 -6.0590 -3.0122 0.9565
10.5952 -1.6660 -3.0176 0.9564
10.7038 -0.7165 -3.0183 0.9564
10.6643 1.1930 -3.0192 0.9564
10.5164 2.1376 -3.0194 0.9564
9.5767 4.8393 -3.0189 0.9564
9.1066 5.6716 -3.0185 0.9564
8.1286 6.1301 -2.8645 0.9586
7.5488 6.8275 -2.8637 0.9586
6.9091 7.4700 -2.8629 0.9586
6.2212 8.0611 -2.8649 0.9586
5.4772 8.5798 -2.8639 0.9586
3.8663 9.4081 -2.8618 0.9586
1.2417 10.0822 -2.8581 0.9587
0.3393 10.1479 -2.8568 0.9587
-1.4635 10.0345 -2.8531 0.9587
-5.1137 9.3313 -2.9938 0.9567
-5.9205 8.8340 -2.9921 0.9568
-6.6795 8.2673 -2.9904 0.9568
-8.0310 6.9447 -2.9872 0.9568
-8.6130 6.1993 -2.9858 0.9569
-9.1265 5.4057 -2.9844 0.9569
-10.2190 2.7993 -2.9811 0.9569
-10.4247 1.8781 -2.9803 0.9569
-9.6932 -1.7463 -2.9487 0.9597
-9.4994 -2.6022 -2.9487 0.9597
-9.2313 -3.4377 -2.9491 0.9597
-8.0034 -5.7605 -2.9522 0.9597
-2.3935 -2.4749 -1.0308 0.9857
-1.6621 -3.0330 -1.0354 0.9857
-3.1491 -9.4059 -2.9696 0.9594
-0.5542 -9.9385 -2.9800 0.9593
3.8079 -9.2661 -2.9992 0.9590
5.4003 -8.4594 -3.0046 0.9590
8.9831 -4.5394 -3.0132 0.9588
9.8727 -2.0067 -3.0161 0.9588
10.0145 -1.1203 -3.0168 0.9588
10.0576 0.6733 -3.0178 0.9588
9.7800 2.4462 -3.0181 0.9588
9.5233 3.3069 -3.0181 0.9588
9.1906 4.1411 -3.0179 0.9588
8.7845 4.9420 -3.0175 0.9588
6.7980 6.7227 -2.8623 0.9609
6.1708 7.2988 -2.8614 0.9609
5.5012 7.8256 -2.8638 0.9608
4.7812 8.2812 -2.8628 0.9609
3.2348 8.9912 -2.8607 0.9609
2.4207 9.2398 -2.8596 0.9609
-0.1063 9.5386 -2.8558 0.9610
-0.9544 9.4869 -2.8545 0.9610
-2.6145 9.1437 -2.8471 0.9611
-3.5975 9.3407 -2.9966 0.9591
-4.4121 8.9783 -2.9950 0.9591
-5.1908 8.5452 -2.9933 0.9591
-5.9276 8.0450 -2.9917 0.9591
-6.6166 7.4816 -2.9901 0.9592
-7.2526 6.8595 -2.9886 0.9592
-8.7956 4.6935 -2.9847 0.9592
-9.1751 3.8906 -2.9836 0.9592
-9.7135 2.2008 -2.9818 0.9593
-9.9455 0.4435 -2.9805 0.9593
-9.9441 -0.4434 -2.9800 0.9593
-9.7752 -1.3146 -2.9528 0.9597
-9.3745 -3.0229 -2.9488 0.9597
-8.6941 -4.6393 -2.9502 0.9597
-8.2500 -5.3969 -2.9514 0.9597
-3.1081 -2.4544 -1.1857 0.9836
-2.2427 -2.5358 -1.0135 0.9860
-1.9830 -2.6913 -1.0008 0.9861
-1.5691 -3.1930 -1.0651 0.9853
-0.9957 -9.8979 -2.9782 0.9593
0.7769 -9.9425 -2.9857 0.9592
1.6609 -9.8466 -2.9895 0.9592
2.5340 -9.6722 -2.9934 0.9591
3.3892 -9.4204 -2.9973 0.9591
5.0167 -8.6892 -3.0038 0.9590
5.7733 -8.2127 -3.0055 0.9589
7.1454 -7.0663 -3.0086 0.9589
7.7497 -6.4053 -3.0100 0.9589
8.2928 -5.6927 -3.0114 0.9589
9.7722 -2.4442 -3.0157 0.9588
10.0554 -0.6732 -3.0171 0.9588
10.0770 0.2246 -3.0176 0.9588
10.0181 1.1207 -3.0179 0.9588
9.8792 2.0080 -3.0181 0.9588
9.6613 2.8794 -3.0181 0.9588
9.3663 3.7277 -3.0180 0.9588
8.9965 4.5461 -3.0177 0.9588
8.5549 5.3280 -3.0173 0.9588
5.8452 7.5737 -2.8641 0.9608
4.4067 8.4844 -2.8623 0.9609
3.6328 8.8398 -2.8612 0.9609
0.3188 9.5360 -2.8565 0.9609
-0.5310 9.5222 -2.8552 0.9610
-1.3753 9.4299 -2.8530 0.9610
-4.0089 9.1685 -2.9958 0.9591
-6.9416 7.1776 -2.9894 0.9592
-8.5795 5.0817 -2.9853 0.9592
-8.9942 4.2962 -2.9841 0.9592
-9.6072 2.6317 -2.9822 0.9593
-9.8007 1.7657 -2.9814 0.9593
-9.9168 0.8862 -2.9807 0.9593
-9.3873 0.0000 -2.9813 0.9614
-9.3435 -0.8349 -2.9792 0.9614
-9.1451 -1.6476 -2.9511 0.9618
-8.7092 -3.2433 -2.9515 0.9617
-7.5503 -5.4344 -2.9544 0.9617
-2.8402 -2.4560 -1.1925 0.9844
-1.8821 -2.8084 -1.0737 0.9859
-1.5195 -3.4752 -1.2046 0.9842
-2.1707 -9.1090 -2.9739 0.9615
-1.3529 -9.2764 -2.9772 0.9614
-0.5225 -9.3709 -2.9807 0.9614
0.3140 -9.3913 -2.9842 0.9613
1.1500 -9.3374 -2.9878 0.9613
1.9789 -9.2092 -2.9915 0.9612
3.5891 -8.7336 -2.9987 0.9611
4.3574 -8.3895 -3.0023 0.9611
5.7826 -7.4927 -3.0058 0.9611
6.4297 -6.9517 -3.0073 0.9610
8.8160 -3.5087 -3.0134 0.9610
9.0961 -2.7109 -3.0143 0.9609
9.3037 -1.8911 -3.0151 0.9609
9.4777 0.6345 -3.0167 0.9609
9.3843 1.4756 -3.0169 0.9609
9.2160 2.3051 -3.0170 0.9609
8.9742 3.1162 -3.0170 0.9609
8.6606 3.9023 -3.0168 0.9609
8.2780 4.6571 -3.0164 0.9609
5.8153 6.8784 -2.8605 0.9629
3.0488 8.4743 -2.8602 0.9629
-0.1002 8.9911 -2.8556 0.9630
-0.8996 8.9426 -2.8544 0.9630
-2.4648 8.6201 -2.8473 0.9631
-3.3914 8.8056 -2.9968 0.9612
-4.1595 8.4643 -2.9952 0.9612
-6.2384 7.0539 -2.9906 0.9613
-6.8383 6.4676 -2.9892 0.9613
-7.3835 5.8307 -2.9879 0.9613
-8.6517 3.6686 -2.9845 0.9613
-8.9411 2.8831 -2.9835 0.9613
-9.1598 2.0753 -2.9827 0.9614
-9.3787 0.4182 -2.9815 0.9614
-9.2266 -1.2409 -2.9566 0.9617
-8.8444 -2.8519 -2.9513 0.9617
-8.5569 -3.6285 -2.9518 0.9617
-8.2023 -4.3769 -2.9526 0.9617
-7.7831 -5.0915 -2.9537 0.9617
-1.9959 -2.7089 -1.0686 0.9860
-1.7759 -2.9236 -1.0864 0.9857
-1.5932 -3.2420 -1.1472 0.9850
-2.5731 -8.9983 -2.9723 0.9615
-0.1046 -9.3904 -2.9824 0.9614
0.7325 -9.3737 -2.9860 0.9613
2.3886 -9.1174 -2.9933 0.9612
3.1946 -8.8795 -2.9969 0.9612
3.9770 -8.5702 -3.0005 0.9611
6.7346 -6.6600 -3.0080 0.9610
7.8156 -5.3651 -3.0107 0.9610
8.9650 -3.1130 -3.0139 0.9610
9.3798 -1.4749 -3.0155 0.9609
9.4757 -0.6343 -3.0161 0.9609
9.4960 0.2116 -3.0165 0.9609
8.8262 3.5127 -3.0169 0.9609
8.0617 5.0209 -3.0162 0.9609
7.2263 5.4496 -2.8744 0.9627
6.1169 6.6135 -2.8610 0.9629
4.8501 7.5975 -2.8626 0.9629
2.6678 8.6001 -2.8597 0.9629
1.0332 4.8081 -1.5618 0.9796
0.3005 8.9886 -2.8562 0.9630
-1.2964 8.8889 -2.8528 0.9630
-2.8446 8.4963 -2.8455 0.9631
-3.7793 8.6435 -2.9960 0.9612
-4.5312 8.2684 -2.9944 0.9612
-5.2464 7.8283 -2.9928 0.9612
-5.9194 7.3266 -2.9913 0.9612
-6.5449 6.7674 -2.9899 0.9613
-8.0898 4.7916 -2.9861 0.9613
-8.4811 4.0511 -2.9850 0.9613
-8.8051 3.2790 -2.9840 0.9613
-9.2419 1.6650 -2.9824 0.9614
-8.8400 -0.7900 -2.9819 0.9632
-8.6507 -1.5585 -2.9533 0.9636
-8.4777 -2.3223 -2.9533 0.9636
-7.9343 -3.7899 -2.9543 0.9636
-7.5678 -4.4825 -2.9552 0.9636
-2.8904 -2.4994 -1.2838 0.9840
-2.1471 -2.6575 -1.1479 0.9857
-1.9049 -2.8422 -1.1496 0.9857
-1.5521 -3.5497 -1.3016 0.9838
-2.8082 -8.3876 -2.9718 0.9634
-2.0526 -8.6130 -2.9748 0.9633
-1.2792 -8.7708 -2.9780 0.9633
-0.4940 -8.8595 -2.9813 0.9632
0.2968 -8.8783 -2.9846 0.9632
1.8706 -8.7049 -2.9915 0.9631
3.3921 -8.2543 -2.9984 0.9630
4.8109 -7.5362 -3.0040 0.9630
5.4653 -7.0815 -3.0054 0.9630
6.0767 -6.5700 -3.0068 0.9629
6.6402 -6.0058 -3.0081 0.9629
7.6060 -4.7370 -3.0106 0.9629
8.9176 -0.9976 -3.0148 0.9628
8.9725 -0.1999 -3.0153 0.9628
8.9558 0.5995 -3.0157 0.9628
8.8675 1.3943 -3.0159 0.9628
8.4799 2.9445 -3.0160 0.9628
7.3983 5.0786 -3.0150 0.9628
6.5641 5.4254 -2.8612 0.9647
5.4954 6.4999 -2.8598 0.9647
4.8935 6.9611 -2.8589 0.9647
4.2587 7.3763 -2.8617 0.9647
3.5842 7.7237 -2.8608 0.9647
2.1564 8.2308 -2.8587 0.9647
0.6624 8.4762 -2.8566 0.9648
-0.8503 8.4525 -2.8542 0.9648
-1.5974 8.3337 -2.8510 0.9648
-2.3300 8.1485 -2.8475 0.9649
-3.2058 8.3237 -2.9969 0.9631
-3.9320 8.0013 -2.9954 0.9631
-4.6262 7.6158 -2.9939 0.9631
-5.8977 6.6686 -2.9911 0.9631
-6.4649 6.1145 -2.9897 0.9631
-6.9806 5.5125 -2.9885 0.9632
-7.4406 4.8674 -2.9873 0.9632
-8.4538 2.7260 -2.9844 0.9632
-8.6607 1.9622 -2.9836 0.9632
-8.7991 1.1834 -2.9830 0.9632
-8.8680 0.3954 -2.9824 0.9632
-8.5726 -1.9423 -2.9533 0.9636
-7.7587 -4.1402 -2.9547 0.9636
-7.3620 -4.8160 -2.9558 0.9636
-3.4152 -2.6970 -1.4621 0.9818
-2.2882 -2.5873 -1.1605 0.9855
-3.1775 -8.2502 -2.9704 0.9634
-1.6678 -8.7004 -2.9764 0.9633
-0.8877 -8.8238 -2.9796 0.9633
0.6924 -8.8613 -2.9863 0.9632
1.4801 -8.7745 -2.9897 0.9631
2.2578 -8.6179 -2.9932 0.9631
5.1431 -7.3162 -3.0047 0.9630
6.3647 -6.2942 -3.0075 0.9629
6.9026 -5.7052 -3.0088 0.9629
8.1738 -3.6829 -3.0121 0.9629
8.4717 -2.9417 -3.0131 0.9629
8.7023 -2.1766 -3.0139 0.9629
8.8635 -1.3937 -3.0146 0.9628
8.9540 -0.5994 -3.0151 0.9628
8.7968 1.7880 -3.0160 0.9628
8.6028 2.5639 -3.0160 0.9628
8.0109 4.0481 -3.0156 0.9628
7.6178 4.7444 -3.0153 0.9628
7.1641 5.4027 -3.0147 0.9628
6.3152 5.7118 -2.8609 0.9647
5.7803 6.2496 -2.8602 0.9647
5.1996 6.7373 -2.8593 0.9647
4.5778 7.1709 -2.8584 0.9647
3.2359 7.8742 -2.8603 0.9647
1.0395 8.4400 -2.8571 0.9648
-1.2254 8.4017 -2.8527 0.9648
-2.6891 8.0318 -2.8458 0.9649
-4.9597 7.4004 -2.9932 0.9631
-6.7295 5.8192 -2.9891 0.9632
-7.2178 5.1950 -2.9879 0.9632
-7.6486 4.5303 -2.9867 0.9632
-8.5657 2.3464 -2.9840 0.9632
-8.4129 0.0000 -2.9831 0.9649
-8.2074 -1.4786 -2.9570 0.9652
-7.8113 -2.9090 -2.9556 0.9652
-7.5229 -3.5934 -2.9562 0.9652
-7.1753 -4.2500 -2.9571 0.9652
-2.9518 -2.5525 -1.3837 0.9836
-2.1739 -2.6906 -1.2265 0.9854
-1.9284 -2.8773 -1.2282 0.9854
-1.7247 -3.1472 -1.2725 0.9849
-2.6617 -7.9503 -2.9729 0.9650
-1.2124 -8.3126 -2.9787 0.9650
-0.4682 -8.3962 -2.9818 0.9649
0.2813 -8.4135 -2.9850 0.9649
1.0301 -8.3641 -2.9882 0.9649
2.5023 -8.0665 -2.9947 0.9648
5.1779 -6.7092 -3.0051 0.9647
7.5788 -3.8298 -3.0110 0.9646
8.3281 -1.6928 -3.0134 0.9646
8.4993 -0.1894 -3.0145 0.9646
8.2491 2.0632 -3.0151 0.9646
7.7520 3.4929 -3.0149 0.9646
7.4096 4.1686 -3.0146 0.9646
7.0082 4.8108 -3.0142 0.9646
6.3926 5.2836 -2.9407 0.9654
4.6357 6.5943 -2.8582 0.9664
4.0290 6.9785 -2.8573 0.9664
3.3956 7.3174 -2.8604 0.9663
1.3403 7.9462 -2.8574 0.9664
0.6275 8.0309 -2.8563 0.9664
-1.5135 7.8959 -2.8508 0.9665
-2.2078 7.7210 -2.8475 0.9665
-2.9198 7.5813 -2.8807 0.9661
-5.0065 6.7949 -2.9928 0.9648
-5.5890 6.3196 -2.9915 0.9648
-6.1267 5.7946 -2.9902 0.9648
-6.6155 5.2242 -2.9890 0.9649
-7.0516 4.6129 -2.9879 0.9649
-7.4317 3.9657 -2.9869 0.9649
-8.2085 1.8598 -2.9844 0.9649
-8.3397 1.1216 -2.9838 0.9649
-8.1283 -1.8417 -2.9552 0.9652
-7.9326 -2.5579 -2.9554 0.9652
-7.6746 -3.2543 -2.9559 0.9652
-2.6815 -2.5361 -1.3087 0.9845
-2.0447 -2.7750 -1.2222 0.9855
-2.3060 -8.0648 -2.9743 0.9650
-1.5807 -8.2461 -2.9772 0.9650
-0.8413 -8.3626 -2.9802 0.9650
-0.0937 -8.4131 -2.9834 0.9649
2.1393 -8.1655 -2.9931 0.9648
2.8607 -7.9514 -2.9964 0.9648
4.2342 -7.3339 -3.0028 0.9647
4.8728 -6.9316 -3.0044 0.9647
5.4729 -6.4733 -3.0057 0.9647
6.0299 -5.9631 -3.0070 0.9646
6.5393 -5.4049 -3.0083 0.9646
7.3995 -4.1629 -3.0105 0.9646
7.7431 -3.4889 -3.0114 0.9646
8.4998 0.1894 -3.0147 0.9646
8.4500 0.9453 -3.0149 0.9646
8.3327 1.6937 -3.0151 0.9646
8.1490 2.4286 -3.0151 0.9646
7.5884 3.8346 -3.0148 0.9646
3.7188 7.1598 -2.8608 0.9663
3.0657 7.4600 -2.8599 0.9663
0.9849 7.9965 -2.8569 0.9664
-2.5480 7.6106 -2.8459 0.9665
-4.6999 7.0128 -2.9934 0.9648
-5.3031 6.5637 -2.9921 0.9648
-5.8637 6.0630 -2.9908 0.9648
-6.3775 5.5148 -2.9896 0.9649
-6.8404 4.9234 -2.9884 0.9649
-8.1184 2.2239 -2.9847 0.9649
-8.3807 0.7489 -2.9835 0.9649
-7.9908 0.0000 -2.9839 0.9665
-7.9584 -0.7112 -2.9836 0.9665
-7.4220 -2.7640 -2.9574 0.9667
-6.4334 -4.6305 -2.9599 0.9667
-3.1129 -2.6918 -1.5367 0.9826
-2.2017 -2.7250 -1.3082 0.9852
-1.7487 -3.1909 -1.3587 0.9846
-1.7068 -3.9036 -1.5909 0.9820
-2.5284 -7.5519 -2.9738 0.9666
-1.8479 -7.7540 -2.9765 0.9665
-1.1515 -7.8952 -2.9793 0.9665
-0.4446 -7.9742 -2.9823 0.9665
2.3760 -7.6595 -2.9946 0.9663
3.0514 -7.4252 -2.9977 0.9663
3.7040 -7.1314 -3.0007 0.9663
4.3280 -6.7797 -3.0035 0.9662
6.8409 -4.2606 -3.0094 0.9662
7.7302 -2.3038 -3.0120 0.9661
8.0195 -0.8971 -3.0132 0.9661
8.0535 0.5391 -3.0140 0.9661
7.8311 1.9587 -3.0143 0.9661
6.6531 4.5671 -3.0134 0.9661
5.4442 5.3839 -2.8591 0.9678
4.9422 5.8457 -2.8584 0.9678
4.4011 6.2606 -2.8576 0.9679
3.2214 6.9415 -2.8575 0.9679
2.5921 7.2048 -2.8592 0.9678
1.9399 7.4045 -2.8582 0.9678
1.2727 7.5451 -2.8572 0.9679
0.5959 7.6256 -2.8562 0.9679
-0.0852 7.6456 -2.8551 0.9679
-0.7648 7.6031 -2.8534 0.9679
-1.4370 7.4970 -2.8504 0.9679
-2.0963 7.3315 -2.8474 0.9680
-4.1632 6.8536 -2.9944 0.9663
-4.7546 6.4530 -2.9931 0.9664
-5.3079 6.0017 -2.9918 0.9664
-5.8187 5.5033 -2.9906 0.9664
-6.2830 4.9617 -2.9895 0.9664
-7.3634 3.1224 -2.9866 0.9664
-7.7965 1.7665 -2.9851 0.9664
-7.9825 -0.3559 -2.9837 0.9665
-7.8961 -1.0619 -2.9750 0.9666
-7.7233 -1.7499 -2.9571 0.9668
-7.5373 -2.4305 -2.9572 0.9668
-7.2921 -3.0921 -2.9576 0.9667
-6.6320 -4.3385 -2.9593 0.9667
-2.3470 -2.6538 -1.3229 0.9850
-2.0704 -2.8100 -1.3033 0.9852
-2.8610 -7.4285 -2.9725 0.9666
-2.1904 -7.6604 -2.9751 0.9666
-0.7990 -7.9425 -2.9808 0.9665
-0.0890 -7.9901 -2.9838 0.9665
1.3318 -7.8955 -2.9899 0.9664
2.0313 -7.7537 -2.9930 0.9664
3.3809 -7.2857 -2.9992 0.9663
4.0200 -6.9628 -3.0022 0.9663
4.6267 -6.5816 -3.0041 0.9662
5.1964 -6.1463 -3.0054 0.9662
5.7251 -5.6617 -3.0066 0.9662
8.0521 -0.5390 -3.0135 0.9661
8.0691 0.1798 -3.0138 0.9661
8.0218 0.8974 -3.0141 0.9661
7.7360 2.3056 -3.0143 0.9661
7.4998 2.9849 -3.0142 0.9661
6.8505 4.2665 -3.0136 0.9661
5.7200 5.1734 -2.8799 0.9676
5.1984 5.6204 -2.8588 0.9678
4.6763 6.0592 -2.8580 0.9678
2.9110 7.0834 -2.8597 0.9678
2.2683 7.3118 -2.8587 0.9678
1.0332 4.8079 -1.8363 0.9792
0.2555 7.6433 -2.8557 0.9679
-1.1022 7.5576 -2.8519 0.9679
-1.7686 7.4216 -2.8489 0.9679
-2.4196 7.2268 -2.8458 0.9680
-4.4634 6.6599 -2.9937 0.9663
-5.5689 5.7582 -2.9912 0.9664
-6.0569 5.2376 -2.9901 0.9664
-7.2180 3.4478 -2.9870 0.9664
-7.8667 1.4172 -2.9848 0.9664
-7.9602 0.7113 -2.9843 0.9665
-7.5738 -0.6768 -2.9843 0.9679
-7.4304 -1.3386 -2.9632 0.9681
-6.8045 -3.2502 -2.9596 0.9681
-5.7100 -4.9376 -2.9627 0.9681
-2.4063 -7.1872 -2.9747 0.9680
-1.7585 -7.3792 -2.9772 0.9679
2.2605 -7.2871 -2.9944 0.9677
4.6771 -6.0603 -3.0045 0.9676
6.1190 -4.6145 -3.0079 0.9676
6.5076 -4.0529 -3.0089 0.9676
6.8446 -3.4587 -3.0098 0.9676
7.3532 -2.1915 -3.0114 0.9676
7.6750 -0.1710 -3.0129 0.9676
7.6605 0.5128 -3.0133 0.9675
7.4489 1.8631 -3.0135 0.9675
6.6909 3.7642 -3.0130 0.9675
5.9157 4.8895 -3.0122 0.9676
5.1787 5.1213 -2.8585 0.9692
4.7012 5.5606 -2.8578 0.9692
0.5669 7.2551 -2.8561 0.9692
-1.3670 7.1319 -2.8500 0.9693
-3.9613 6.5212 -2.9946 0.9677
-4.5241 6.1402 -2.9933 0.9678
-5.0507 5.7109 -2.9922 0.9678
-5.5368 5.2367 -2.9910 0.9678
-6.3731 4.1691 -2.9889 0.9678
-6.7168 3.5842 -2.9880 0.9678
-7.0072 2.9713 -2.9872 0.9678
-7.2421 2.3353 -2.9864 0.9678
-7.4195 1.6810 -2.9858 0.9678
-7.5383 1.0138 -2.9852 0.9678
-7.5975 0.3388 -2.9848 0.9678
-7.5284 -1.0125 -2.9813 0.9679
-7.1753 -2.3137 -2.9589 0.9681
-6.3133 -4.1300 -2.9609 0.9681
-5.9229 -4.6773 -2.9620 0.9681
-2.8431 -2.6890 -1.5358 0.9833
-2.3908 -2.7033 -1.4164 0.9846
-2.7229 -7.0699 -2.9734 0.9680
-2.0846 -7.2904 -2.9759 0.9679
-0.7603 -7.5581 -2.9813 0.9679
0.5929 -7.5878 -2.9871 0.9678
1.2672 -7.5123 -2.9900 0.9678
1.9327 -7.3770 -2.9929 0.9678
2.5841 -7.1827 -2.9959 0.9677
3.2163 -6.9310 -2.9988 0.9677
5.4463 -5.3860 -3.0062 0.9676
5.9063 -4.8817 -3.0073 0.9676
6.3195 -4.3381 -3.0084 0.9676
7.6754 0.1711 -3.0131 0.9675
7.6303 0.8536 -3.0134 0.9675
7.5244 1.5294 -3.0135 0.9675
7.1338 2.8392 -3.0134 0.9675
6.8524 3.4626 -3.0132 0.9675
4.4483 5.7638 -2.8575 0.9692
3.9165 6.1351 -2.8567 0.9692
2.7649 6.7279 -2.8548 0.9692
1.0331 4.8078 -1.9300 0.9791
0.2431 7.2719 -2.8556 0.9692
-1.0485 7.1892 -2.8514 0.9693
-3.0587 6.9955 -2.9965 0.9677
-3.6676 6.6926 -2.9952 0.9677
-4.7922 5.9314 -2.9927 0.9678
-5.2990 5.4792 -2.9916 0.9678
-5.7635 4.9840 -2.9905 0.9678
-6.1821 4.4496 -2.9894 0.9678
-6.5515 3.8805 -2.9885 0.9678
-6.8689 3.2810 -2.9876 0.9678
-7.3381 2.0101 -2.9861 0.9678
-7.4864 1.3487 -2.9855 0.9678
-7.0879 -1.2770 -2.9657 0.9693
-6.4886 -3.0993 -2.9611 0.9694
-6.1886 -3.6655 -2.9618 0.9694
-5.8397 -4.2032 -2.9628 0.9694
-2.6599 -2.7504 -1.5755 0.9836
-2.2927 -2.8377 -1.5022 0.9843
-1.8568 -3.3882 -1.5910 0.9834
-2.8925 -6.6154 -2.9731 0.9692
-2.2940 -6.8520 -2.9754 0.9692
-1.6765 -7.0348 -2.9779 0.9692
-1.0446 -7.1622 -2.9805 0.9692
-0.4033 -7.2332 -2.9831 0.9691
0.2423 -7.2471 -2.9859 0.9691
0.8872 -7.2035 -2.9887 0.9691
2.1544 -6.9451 -2.9943 0.9690
2.7666 -6.7321 -2.9971 0.9690
3.9235 -6.1461 -3.0026 0.9689
4.9556 -5.3580 -3.0053 0.9689
6.2014 -3.8623 -3.0084 0.9689
7.2689 -0.8132 -3.0119 0.9689
7.2996 0.4887 -3.0126 0.9688
6.9117 2.4000 -3.0128 0.9688
4.4799 5.2989 -2.8573 0.9704
3.9895 5.6751 -2.8566 0.9704
3.4676 6.0060 -2.8558 0.9704
2.9184 6.2888 -2.8549 0.9705
2.3462 6.5214 -2.8539 0.9705
1.1540 6.8415 -2.8570 0.9704
0.5403 6.9147 -2.8560 0.9704
-0.0772 6.9312 -2.8543 0.9705
-0.6933 6.8913 -2.8521 0.9705
-2.6160 6.7923 -2.9972 0.9690
-3.2088 6.5298 -2.9960 0.9690
-3.7758 6.2158 -2.9948 0.9690
-4.3124 5.8528 -2.9936 0.9690
-4.8143 5.4436 -2.9925 0.9691
-5.6992 4.5006 -2.9904 0.9691
-6.4029 3.4167 -2.9885 0.9691
-6.9038 2.2262 -2.9870 0.9691
-7.2421 -0.3229 -2.9851 0.9691
-7.1841 -0.9662 -2.9849 0.9691
-7.0111 -1.5885 -2.9602 0.9694
-6.8423 -2.2063 -2.9604 0.9694
-6.6196 -2.8069 -2.9608 0.9694
-5.6478 -4.4600 -2.9634 0.9693
-2.4516 -2.7721 -1.5239 0.9841
-2.1530 -2.9221 -1.4946 0.9844
-1.9350 -3.1854 -1.5347 0.9840
-2.5960 -6.7403 -2.9743 0.9692
-1.9873 -6.9502 -2.9767 0.9692
-0.0807 -7.2473 -2.9845 0.9691
0.5652 -7.2325 -2.9873 0.9691
1.2078 -7.1601 -2.9901 0.9691
2.4628 -6.8454 -2.9957 0.9690
3.6442 -6.3119 -3.0012 0.9690
4.1949 -5.9673 -3.0036 0.9689
4.7112 -5.5724 -3.0048 0.9689
5.1903 -5.1329 -3.0059 0.9689
5.6286 -4.6521 -3.0069 0.9689
7.0938 -1.7742 -3.0111 0.9689
7.2249 -1.1361 -3.0116 0.9689
7.2709 0.8133 -3.0127 0.9688
7.1699 1.4573 -3.0128 0.9688
7.0118 2.0897 -3.0128 0.9688
6.7977 2.7054 -3.0127 0.9688
6.5295 3.2995 -3.0125 0.9688
6.2093 3.8672 -3.0122 0.9689
5.8396 4.4038 -3.0118 0.9689
5.4235 4.9053 -3.0112 0.9689
4.7121 5.0946 -2.8576 0.9704
3.1961 6.1535 -2.8553 0.9704
0.8481 6.8850 -2.8565 0.9704
-0.3858 6.9182 -2.8532 0.9705
-2.1938 6.5527 -2.8455 0.9705
-2.9154 6.6677 -2.9966 0.9690
-3.4958 6.3791 -2.9954 0.9690
-4.5679 5.6538 -2.9930 0.9690
-5.4940 4.7508 -2.9909 0.9691
-5.8931 4.2416 -2.9899 0.9691
-6.2452 3.6991 -2.9889 0.9691
-6.5479 3.1277 -2.9881 0.9691
-6.7985 2.5318 -2.9873 0.9691
-6.9953 1.9162 -2.9867 0.9691
-7.1368 1.2857 -2.9861 0.9691
-6.4348 -2.3963 -2.9619 0.9705
-6.1970 -2.9600 -2.9624 0.9705
-5.9104 -3.5007 -2.9631 0.9705
-5.5771 -4.0142 -2.9641 0.9705
-2.8191 -2.9149 -1.7492 0.9825
-2.3509 -2.9097 -1.6136 0.9838
-2.0836 -3.1090 -1.6144 0.9838
-1.6007 -6.7169 -2.9785 0.9704
-0.9974 -6.8383 -2.9810 0.9703
0.8469 -6.8768 -2.9888 0.9703
2.0566 -6.6296 -2.9942 0.9702
2.6408 -6.4260 -2.9968 0.9702
3.2051 -6.1709 -2.9995 0.9702
3.7448 -5.8662 -3.0021 0.9701
4.2548 -5.5130 -3.0040 0.9701
5.9191 -3.6864 -3.0079 0.9701
6.2255 -3.1459 -3.0088 0.9701
6.6878 -1.9932 -3.0102 0.9701
6.9376 -0.7761 -3.0113 0.9700
6.9669 0.4664 -3.0119 0.9700
6.8981 1.0847 -3.0121 0.9700
6.5966 2.2906 -3.0121 0.9700
6.0851 3.4234 -3.0118 0.9700
4.9622 4.9072 -3.0104 0.9701
4.2759 5.0575 -2.8568 0.9716
3.8078 5.4167 -2.8561 0.9716
3.3097 5.7325 -2.8553 0.9716
2.7855 6.0026 -2.8545 0.9716
1.6788 6.4077 -2.8573 0.9716
1.1015 6.5301 -2.8566 0.9716
0.5157 6.5992 -2.8553 0.9716
-0.0737 6.6147 -2.8535 0.9716
-1.2434 6.4867 -2.8490 0.9716
-2.4973 6.4842 -2.9973 0.9702
-3.0633 6.2337 -2.9961 0.9702
-3.6046 5.9341 -2.9950 0.9702
-4.1169 5.5876 -2.9938 0.9702
-5.8002 3.7944 -2.9898 0.9703
-6.1133 3.2622 -2.9890 0.9703
-6.8616 0.9228 -2.9864 0.9703
-6.9155 0.3084 -2.9860 0.9703
-6.9148 -0.3083 -2.9857 0.9703
-6.8595 -0.9225 -2.9855 0.9703
-6.5348 -2.1072 -2.9618 0.9705
-6.3221 -2.6808 -2.9622 0.9705
-6.0597 -3.2335 -2.9628 0.9705
-2.5295 -2.8602 -1.6470 0.9835
-2.2066 -2.9948 -1.6046 0.9839
-1.9984 -3.2898 -1.6604 0.9834
-3.0396 -6.1854 -2.9729 0.9704
-0.6920 -6.8789 -2.9822 0.9703
-0.0771 -6.9192 -2.9848 0.9703
0.5395 -6.9047 -2.9875 0.9703
1.1530 -6.8353 -2.9901 0.9703
1.7584 -6.7116 -2.9928 0.9702
2.3509 -6.5343 -2.9955 0.9702
3.4783 -6.0246 -3.0008 0.9701
4.0041 -5.6959 -3.0033 0.9701
4.9542 -4.8994 -3.0056 0.9701
5.3725 -4.4405 -3.0066 0.9701
5.7482 -3.9459 -3.0075 0.9701
6.3602 -2.8658 -3.0092 0.9701
6.7706 -1.6934 -3.0105 0.9701
6.8957 -1.0843 -3.0110 0.9700
6.9658 -0.4663 -3.0115 0.9700
6.8431 1.3909 -3.0122 0.9700
6.6921 1.9945 -3.0122 0.9700
6.2319 3.1491 -3.0119 0.9700
3.5623 5.5802 -2.8557 0.9716
2.5150 6.1198 -2.8540 0.9716
0.8093 6.5713 -2.8560 0.9716
-2.7832 6.3653 -2.9967 0.9702
-3.3374 6.0899 -2.9955 0.9702
-4.8224 4.9863 -2.9922 0.9702
-5.2453 4.5358 -2.9912 0.9702
-5.6264 4.0496 -2.9903 0.9703
-5.9627 3.5317 -2.9894 0.9703
-6.4911 2.4173 -2.9879 0.9703
-6.8141 1.2276 -2.9867 0.9703
-6.6186 0.0000 -2.9864 0.9714
-6.4944 -1.1700 -2.9775 0.9715
-6.3333 -1.7349 -2.9630 0.9716
-6.1543 -2.2919 -2.9632 0.9716
-5.6526 -3.3480 -2.9644 0.9716
-4.9728 -4.3001 -2.9664 0.9716
-2.4715 -3.0591 -1.7745 0.9829
-3.1662 -5.7775 -2.9727 0.9715
-2.0945 -6.2561 -2.9768 0.9715
-0.9536 -6.5384 -2.9814 0.9714
-0.3681 -6.6027 -2.9839 0.9714
0.2212 -6.6148 -2.9864 0.9714
2.5244 -6.1427 -2.9966 0.9713
3.0636 -5.8986 -2.9991 0.9713
4.0672 -5.2700 -3.0037 0.9712
5.3202 -4.0121 -3.0067 0.9712
5.9506 -3.0070 -3.0083 0.9712
6.1961 -2.4660 -3.0091 0.9712
6.3924 -1.9051 -3.0097 0.9712
6.5377 -1.3288 -3.0103 0.9711
6.6311 -0.7418 -3.0107 0.9711
6.6716 -0.1487 -3.0111 0.9711
6.5932 1.0367 -3.0115 0.9711
6.4749 1.6195 -3.0116 0.9711
6.0849 2.7417 -3.0114 0.9711
5.5013 3.7764 -3.0108 0.9711
5.1426 4.2504 -3.0104 0.9711
3.6397 5.1775 -2.8557 0.9726
1.0526 6.2404 -2.8556 0.9726
-0.0704 6.3218 -2.8527 0.9726
-0.6324 6.2861 -2.8507 0.9727
-1.1885 6.2001 -2.8485 0.9727
-3.4462 5.6732 -2.9951 0.9713
-3.9360 5.3421 -2.9940 0.9713
-5.2024 4.1083 -2.9911 0.9713
-6.3026 2.0323 -2.9880 0.9714
-6.4572 1.4630 -2.9875 0.9714
-6.5607 0.8823 -2.9870 0.9714
-6.6124 0.2949 -2.9866 0.9714
-6.5589 -0.8821 -2.9861 0.9714
-6.4106 -1.4524 -2.9659 0.9716
-5.1584 -4.0736 -2.9658 0.9716
-2.3117 -3.1374 -1.7584 0.9830
-3.4193 -5.6290 -2.9718 0.9715
-2.9066 -5.9148 -2.9737 0.9715
-1.8144 -6.3455 -2.9780 0.9715
-1.2434 -6.4868 -2.9803 0.9714
-0.6616 -6.5770 -2.9826 0.9714
0.5158 -6.6012 -2.9876 0.9714
1.6809 -6.4161 -2.9928 0.9713
2.2473 -6.2464 -2.9953 0.9713
2.7967 -6.0267 -2.9979 0.9713
3.3248 -5.7586 -3.0004 0.9712
3.8272 -5.4443 -3.0028 0.9712
4.2987 -5.0845 -3.0042 0.9712
5.4945 -3.7717 -3.0071 0.9712
5.8100 -3.2686 -3.0080 0.9712
6.3005 -2.1878 -3.0094 0.9712
6.5910 -1.0364 -3.0105 0.9711
6.6327 0.7420 -3.0115 0.9711
6.3963 1.9063 -3.0116 0.9711
5.3272 4.0174 -3.0106 0.9711
4.9477 4.4749 -3.0102 0.9711
2.4040 5.8497 -2.8537 0.9726
1.8756 6.0464 -2.8565 0.9726
1.0331 4.8076 -2.2188 0.9787
0.7734 6.2799 -2.8550 0.9726
0.2113 6.3206 -2.8536 0.9726
-1.4629 6.1385 -2.8474 0.9727
-2.6607 6.0853 -2.9968 0.9713
-3.6948 5.5131 -2.9946 0.9713
-4.6106 4.7673 -2.9925 0.9713
-5.3795 3.8719 -2.9906 0.9713
-5.7011 3.3767 -2.9898 0.9713
-6.2064 2.3113 -2.9883 0.9714
-6.3862 1.7494 -2.9877 0.9714
-6.5154 1.1738 -2.9872 0.9714
-6.3367 0.0000 -2.9870 0.9724
-6.3110 -0.5639 -2.9867 0.9724
-6.2290 -1.1222 -2.9835 0.9724
-6.0649 -1.6613 -2.9642 0.9726
-5.6756 -2.7110 -2.9649 0.9726
-4.7619 -4.1177 -2.9675 0.9725
-3.0316 -5.5320 -2.9735 0.9725
-2.0054 -5.9898 -2.9775 0.9725
-1.4654 -6.1489 -2.9796 0.9724
-0.9129 -6.2597 -2.9819 0.9724
0.2117 -6.3324 -2.9866 0.9724
0.7751 -6.2935 -2.9890 0.9723
1.3333 -6.2046 -2.9915 0.9723
1.8818 -6.0663 -2.9939 0.9723
3.4259 -5.3665 -3.0012 0.9722
4.3279 -4.6793 -3.0045 0.9722
4.7287 -4.2768 -3.0054 0.9722
5.4152 -3.3726 -3.0072 0.9722
5.6953 -2.8780 -3.0079 0.9722
6.1180 -1.8234 -3.0092 0.9722
6.2571 -1.2718 -3.0098 0.9722
6.3851 -0.1423 -3.0106 0.9722
6.3730 0.4266 -3.0108 0.9721
6.0343 2.0953 -3.0110 0.9721
5.5665 3.1316 -3.0106 0.9722
4.9218 4.0680 -3.0099 0.9722
4.1084 4.8595 -2.9996 0.9723
3.0279 5.2445 -2.8546 0.9736
2.5484 5.4917 -2.8538 0.9736
2.0489 5.6950 -2.8530 0.9736
-0.6052 6.0159 -2.8501 0.9736
-2.2854 5.9340 -2.9974 0.9723
-2.8035 5.7049 -2.9963 0.9723
-4.2068 4.7567 -2.9933 0.9723
-5.8380 2.4755 -2.9891 0.9723
-6.2812 0.8447 -2.9875 0.9724
-6.3307 0.2823 -2.9871 0.9724
-6.3301 -0.2823 -2.9868 0.9724
-5.9851 -1.9299 -2.9643 0.9726
-4.9397 -3.9008 -2.9669 0.9726
-4.1733 -4.7188 -2.9694 0.9725
-3.7386 -5.0741 -2.9709 0.9725
-0.6334 -6.2965 -2.9830 0.9724
-0.0705 -6.3329 -2.9854 0.9724
1.6090 -6.1416 -2.9927 0.9723
2.1510 -5.9789 -2.9952 0.9723
2.6768 -5.7684 -2.9976 0.9723
3.1822 -5.5117 -3.0000 0.9722
3.6629 -5.2106 -3.0023 0.9722
4.5328 -4.4826 -3.0050 0.9722
5.2588 -3.6100 -3.0068 0.9722
5.8185 -2.6217 -3.0083 0.9722
6.1937 -1.5492 -3.0095 0.9722
6.3080 -0.9919 -3.0100 0.9722
6.3721 -0.4266 -3.0104 0.9722
6.3854 0.1423 -3.0107 0.9722
6.3479 0.7101 -3.0109 0.9721
6.2597 1.2723 -3.0110 0.9721
5.9348 2.3620 -3.0110 0.9721
5.7007 2.8807 -3.0108 0.9722
5.4212 3.3763 -3.0105 0.9722
4.7353 4.2828 -3.0097 0.9722
4.3346 4.6865 -3.0091 0.9722
2.7909 5.3734 -2.8542 0.9736
1.7948 5.7859 -2.8555 0.9736
1.0331 4.8076 -2.3179 0.9785
-0.3367 6.0389 -2.8510 0.9736
-1.4001 5.8751 -2.8470 0.9736
-3.0543 5.5734 -2.9958 0.9723
-3.9914 4.9402 -2.9937 0.9723
-4.8010 4.1516 -2.9919 0.9723
-5.4580 3.2328 -2.9902 0.9723
-5.9419 2.2128 -2.9888 0.9724
-6.2378 1.1238 -2.9877 0.9724
-6.3122 0.5641 -2.9873 0.9724
-6.0493 -0.5405 -2.9872 0.9733
-5.8154 -1.5930 -2.9657 0.9735
-5.4413 -2.5991 -2.9660 0.9735
-5.1895 -3.0738 -2.9666 0.9735
-4.5651 -3.9476 -2.9685 0.9735
-4.1974 -4.3400 -2.9697 0.9734
-3.7962 -4.6986 -2.9710 0.9734
-3.3646 -5.0204 -2.9726 0.9734
-2.9061 -5.3030 -2.9743 0.9734
-1.4046 -5.8939 -2.9801 0.9734
-0.3378 -6.0585 -2.9845 0.9733
0.2029 -6.0691 -2.9868 0.9733
1.8034 -5.8136 -2.9938 0.9732
4.1474 -4.4841 -3.0043 0.9731
4.8796 -3.6799 -3.0060 0.9731
5.1891 -3.2318 -3.0068 0.9731
5.4575 -2.7578 -3.0075 0.9731
5.8624 -1.7472 -3.0088 0.9731
6.0464 0.9508 -3.0105 0.9731
5.7820 2.0077 -3.0105 0.9731
5.3338 3.0008 -3.0101 0.9731
5.0451 3.4632 -3.0098 0.9731
4.7162 3.8980 -3.0094 0.9731
4.3498 4.3016 -3.0090 0.9731
3.9490 4.6708 -3.0084 0.9731
3.3436 4.7563 -2.8596 0.9744
2.4421 5.2625 -2.8535 0.9745
1.9649 5.4614 -2.8548 0.9745
1.4708 5.6140 -2.8544 0.9745
0.9650 5.7212 -2.8537 0.9745
0.4518 5.7822 -2.8527 0.9745
-0.0646 5.7965 -2.8512 0.9745
-0.5799 5.7642 -2.8495 0.9745
-4.7736 3.7696 -2.9917 0.9733
-5.5957 2.3728 -2.9895 0.9733
-6.0206 0.8097 -2.9879 0.9733
-6.0675 -0.2705 -2.9873 0.9733
-6.0190 -0.8095 -2.9871 0.9733
-5.8898 -1.3344 -2.9703 0.9734
-5.5512 -2.3539 -2.9657 0.9735
-4.7356 -3.7397 -2.9679 0.9735
-4.3856 -4.1479 -2.9690 0.9735
-3.1385 -5.1667 -2.9734 0.9734
-2.1754 -5.6483 -2.9771 0.9734
-1.6651 -5.8234 -2.9791 0.9734
-0.6071 -6.0351 -2.9834 0.9733
1.0112 -5.9950 -2.9903 0.9733
2.0614 -5.7297 -2.9950 0.9732
2.5652 -5.5278 -2.9973 0.9732
3.0493 -5.2816 -2.9996 0.9732
3.9429 -4.6637 -3.0038 0.9731
4.3437 -4.2956 -3.0047 0.9731
5.0394 -3.4593 -3.0064 0.9731
5.3286 -2.9978 -3.0072 0.9731
5.5756 -2.5122 -3.0079 0.9731
6.1058 -0.4087 -3.0099 0.9731
6.1186 0.1363 -3.0102 0.9731
5.6868 2.2633 -3.0104 0.9731
5.1946 3.2352 -3.0100 0.9731
3.6963 4.7895 -2.9757 0.9734
0.7091 5.7575 -2.8533 0.9745
0.1938 5.7952 -2.8520 0.9745
-1.3417 5.6299 -2.8466 0.9745
-1.9351 5.7800 -2.9980 0.9732
-2.4410 5.5828 -2.9969 0.9732
-3.3899 5.0582 -2.9949 0.9732
-3.8254 4.7348 -2.9940 0.9732
-4.2304 4.3742 -2.9930 0.9732
-4.6015 3.9791 -2.9921 0.9732
-5.4851 2.6200 -2.9898 0.9733
-5.8604 1.6053 -2.9886 0.9733
-5.9790 1.0772 -2.9882 0.9733
-6.0504 0.5407 -2.9878 0.9733
-5.8046 -0.5187 -2.9877 0.9741
-5.5841 -1.5296 -2.9683 0.9743
-4.0281 -4.1651 -2.9705 0.9743
-3.6430 -4.5091 -2.9719 0.9743
-3.2288 -4.8178 -2.9733 0.9743
-2.7887 -5.0888 -2.9750 0.9743
-1.8445 -5.5094 -2.9786 0.9742
-0.8396 -5.7570 -2.9826 0.9742
0.7127 -5.7870 -2.9892 0.9741
1.7301 -5.5774 -2.9938 0.9741
2.2214 -5.4053 -2.9960 0.9741
3.1491 -4.9330 -3.0004 0.9740
3.5782 -4.6364 -3.0025 0.9740
4.3470 -3.9317 -3.0049 0.9740
5.8334 -0.6526 -3.0093 0.9740
5.8690 -0.1308 -3.0096 0.9740
5.7999 0.9120 -3.0100 0.9740
5.5464 1.9259 -3.0100 0.9740
5.1165 2.8785 -3.0097 0.9740
4.8395 3.3221 -3.0094 0.9740
3.3212 4.7245 -2.9607 0.9744
1.4107 5.3844 -2.8536 0.9753
0.4334 5.5459 -2.8519 0.9753
-0.5562 5.5291 -2.8489 0.9753
-1.0454 5.4541 -2.8471 0.9753
-3.0335 4.9939 -2.9956 0.9741
-4.2412 4.0114 -2.9928 0.9741
-4.5802 3.6169 -2.9920 0.9741
-5.1464 2.7462 -2.9905 0.9741
-5.3692 2.2768 -2.9899 0.9741
-5.6857 1.2882 -2.9888 0.9741
-5.8226 0.2597 -2.9880 0.9741
-5.8221 -0.2596 -2.9878 0.9741
-5.7756 -0.7767 -2.9876 0.9741
-5.5071 -1.7758 -2.9665 0.9743
-5.3277 -2.2592 -2.9668 0.9743
-4.5448 -3.5890 -2.9689 0.9743
-4.2088 -3.9807 -2.9699 0.9743
-3.4394 -4.6680 -2.9726 0.9743
-3.0118 -4.9582 -2.9741 0.9743
-2.5600 -5.2095 -2.9758 0.9742
-2.0875 -5.4200 -2.9776 0.9742
-1.0949 -5.7119 -2.9816 0.9742
-0.5826 -5.7907 -2.9837 0.9742
-0.0649 -5.8238 -2.9859 0.9742
0.9702 -5.7517 -2.9904 0.9741
1.9776 -5.4968 -2.9949 0.9741
2.4608 -5.3029 -2.9971 0.9741
3.7825 -4.4739 -3.0035 0.9740
4.1670 -4.1208 -3.0045 0.9740
4.5185 -3.7346 -3.0053 0.9740
4.8342 -3.3185 -3.0061 0.9740
5.6932 -1.4240 -3.0086 0.9740
5.7982 -0.9117 -3.0091 0.9740
5.8571 -0.3921 -3.0095 0.9740
5.8692 0.1308 -3.0097 0.9740
5.8347 0.6527 -3.0099 0.9740
5.7536 1.1695 -3.0100 0.9740
5.6267 1.6769 -3.0100 0.9740
4.6864 3.5342 -3.0092 0.9740
3.5844 4.6444 -3.0077 0.9740
2.9983 4.6964 -2.8565 0.9753
0.6802 5.5222 -2.8525 0.9753
0.1858 5.5585 -2.8513 0.9753
-0.3095 5.5500 -2.8498 0.9753
-0.8017 5.4971 -2.8480 0.9753
-1.2948 5.4333 -2.8635 0.9752
-1.8566 5.5453 -2.9980 0.9741
-3.2524 4.8530 -2.9951 0.9741
-4.4151 3.8179 -2.9924 0.9741
-5.2630 2.5139 -2.9902 0.9741
-5.4648 2.0351 -2.9896 0.9741
-5.6232 1.5403 -2.9890 0.9741
-5.7371 1.0336 -2.9886 0.9741
-5.5978 0.0000 -2.9883 0.9749
-5.5752 -0.4982 -2.9881 0.9749
-5.5085 -0.9924 -2.9880 0.9749
-5.3664 -1.4700 -2.9704 0.9751
-4.7845 -2.8338 -2.9686 0.9751
-4.5144 -3.2493 -2.9693 0.9751
-4.2086 -3.6393 -2.9703 0.9751
-2.2343 -5.1100 -2.9773 0.9750
-1.2945 -5.4319 -2.9810 0.9750
-0.8064 -5.5293 -2.9830 0.9750
0.1870 -5.5925 -2.9872 0.9749
0.6845 -5.5576 -2.9893 0.9749
1.1773 -5.4786 -2.9915 0.9749
1.6615 -5.3560 -2.9937 0.9749
2.1331 -5.1906 -2.9958 0.9749
3.4358 -4.4518 -3.0020 0.9748
3.8206 -4.1308 -3.0038 0.9748
4.1743 -3.7754 -3.0047 0.9748
5.0271 -2.5403 -3.0069 0.9748
5.2343 -2.0832 -3.0075 0.9748
5.3999 -1.6093 -3.0080 0.9748
5.5226 -1.1225 -3.0085 0.9748
5.6013 -0.6266 -3.0089 0.9748
5.6354 -0.1256 -3.0092 0.9748
5.5691 0.8757 -3.0095 0.9748
5.4691 1.3679 -3.0096 0.9748
5.1397 2.3158 -3.0094 0.9748
4.9128 2.7639 -3.0092 0.9748
4.6469 3.1899 -3.0090 0.9748
4.3440 3.5904 -3.0086 0.9748
4.0066 3.9622 -3.0081 0.9748
2.2495 4.8476 -2.8529 0.9761
1.8093 5.0290 -2.8532 0.9761
0.8887 5.2683 -2.8522 0.9761
0.4161 5.3246 -2.8512 0.9761
-0.5341 5.3088 -2.8484 0.9761
-1.0052 5.2442 -2.8505 0.9761
-2.9133 4.7960 -2.9957 0.9749
-3.7153 4.2010 -2.9939 0.9749
-4.0733 3.8525 -2.9931 0.9749
-4.3989 3.4738 -2.9923 0.9749
-4.9428 2.6376 -2.9908 0.9749
-5.1569 2.1867 -2.9902 0.9749
-5.4610 1.2373 -2.9892 0.9749
-5.5487 0.7462 -2.9888 0.9749
-5.5925 0.2494 -2.9885 0.9749
-5.4459 -1.2339 -2.9809 0.9750
-5.2904 -1.7059 -2.9674 0.9751
-5.1181 -2.1703 -2.9678 0.9751
-4.9054 -2.6176 -2.9682 0.9751
-4.6540 -3.0445 -2.9689 0.9751
-3.6881 -4.1702 -2.9720 0.9751
-2.8930 -4.7626 -2.9748 0.9750
-2.0050 -5.2060 -2.9782 0.9750
-1.0516 -5.4860 -2.9820 0.9750
-0.5595 -5.5616 -2.9840 0.9750
0.4361 -5.5806 -2.9882 0.9749
1.4207 -5.4227 -2.9926 0.9749
1.8991 -5.2786 -2.9947 0.9749
2.3631 -5.0922 -2.9969 0.9749
5.1358 -2.3141 -3.0072 0.9748
5.3224 -1.8481 -3.0077 0.9748
5.6025 0.6267 -3.0095 0.9748
5.2379 2.0846 -3.0095 0.9748
4.4999 3.3936 -3.0088 0.9748
3.8258 4.1364 -3.0079 0.9748
3.4418 4.4597 -3.0073 0.9748
0.1784 5.3367 -2.8506 0.9761
-1.7830 5.3254 -2.9980 0.9749
-2.6972 4.9218 -2.9961 0.9749
-3.1235 4.6608 -2.9952 0.9749
-3.5250 4.3630 -2.9943 0.9749
-4.2403 3.6668 -2.9927 0.9749
-4.5487 3.2740 -2.9919 0.9749
-4.8209 2.8555 -2.9912 0.9749
-5.0548 2.4145 -2.9905 0.9749
-5.4008 1.4794 -2.9894 0.9749
-5.5103 0.9927 -2.9890 0.9749
-5.5761 0.4983 -2.9886 0.9749
-5.1617 -1.4138 -2.9722 0.9758
-5.0088 -1.8653 -2.9685 0.9758
-4.8235 -2.3040 -2.9689 0.9758
-4.6002 -2.7247 -2.9694 0.9758
-3.3645 -4.1643 -2.9734 0.9758
-2.9819 -4.4493 -2.9747 0.9758
-2.5753 -4.6994 -2.9762 0.9758
-1.2444 -5.2219 -2.9814 0.9757
-0.2992 -5.3668 -2.9853 0.9757
0.1798 -5.3758 -2.9873 0.9757
0.6579 -5.3421 -2.9894 0.9757
2.4878 -4.7899 -2.9977 0.9756
2.9062 -4.5525 -2.9997 0.9756
3.6720 -3.9701 -3.0035 0.9756
4.0120 -3.6286 -3.0044 0.9756
4.3201 -3.2580 -3.0052 0.9755
4.5940 -2.8612 -3.0059 0.9755
5.1897 -1.5467 -3.0076 0.9755
5.3076 -1.0788 -3.0081 0.9755
5.4056 0.3619 -3.0090 0.9755
4.9396 2.2256 -3.0090 0.9755
4.4660 3.0657 -3.0086 0.9755
3.8507 3.8080 -3.0078 0.9755
3.1134 4.4288 -3.0067 0.9755
2.6593 4.6061 -2.9539 0.9760
2.1620 4.6591 -2.8527 0.9768
1.7387 4.8326 -2.8524 0.9768
0.8540 5.0625 -2.8514 0.9768
0.3999 5.1168 -2.8505 0.9768
-0.5132 5.1019 -2.8479 0.9768
-0.9980 5.2067 -2.9445 0.9760
-1.9398 5.0366 -2.9976 0.9756
-2.3796 4.8425 -2.9967 0.9756
-2.8004 4.6101 -2.9958 0.9756
-3.5714 4.0382 -2.9941 0.9756
-4.2285 3.3393 -2.9925 0.9756
-4.5079 2.9489 -2.9918 0.9757
-5.1238 1.6522 -2.9900 0.9757
-5.2497 1.1894 -2.9896 0.9757
-5.3340 0.7174 -2.9892 0.9757
-5.3757 -0.2397 -2.9886 0.9757
-5.3328 -0.7172 -2.9885 0.9757
-5.0867 -1.6402 -2.9684 0.9758
-4.7165 -2.5168 -2.9691 0.9758
-4.4747 -2.9272 -2.9698 0.9758
-4.1976 -3.3148 -2.9706 0.9758
