ply
format ascii 1.0
element vertex 1588
property float32 x
property float32 y
property float32 z
property float32 I
end_header
2.2153 5.3905 1.5357 0.9762
-0.1483 -2.6599 0.6548 0.9891
0.6312 -2.9376 0.7385 0.9877
-0.8614 -3.0126 0.7702 0.9872
-0.5285 -2.7572 0.6901 0.9885
0.2105 -2.6945 0.6643 0.9889
-1.0822 -3.2325 0.7781 0.9861
-0.1457 -2.6128 0.5973 0.9893
0.0877 -2.6233 0.5991 0.9893
0.3314 -2.6910 0.6188 0.9889
-0.5179 -2.7022 0.6280 0.9888
-0.2639 -2.6229 0.6017 0.9892
0.7978 -3.0452 0.7185 0.9872
-1.0137 -3.0278 0.6732 0.9870
-0.3810 -2.6124 0.5566 0.9893
-0.1438 -2.5783 0.5444 0.9895
0.3256 -2.6434 0.5615 0.9892
-0.8066 -2.8208 0.6185 0.9881
-0.0286 -2.5705 0.5420 0.9895
0.2037 -2.6072 0.5513 0.9894
0.4551 -2.6981 0.5768 0.9889
2.2150 5.3900 1.2285 0.9765
-0.3767 -2.5831 0.5052 0.9894
0.0856 -2.5608 0.4958 0.9896
0.9577 -3.0872 0.6255 0.9869
-0.7899 -2.7626 0.5560 0.9884
-0.5025 -2.6217 0.5166 0.9892
0.7459 -2.8469 0.5695 0.9881
-0.9560 -2.8554 0.5309 0.9878
-0.6290 -2.6394 0.4784 0.9890
0.3181 -2.5831 0.4589 0.9895
0.9263 -2.9860 0.5513 0.9874
-1.2184 -3.1635 0.5978 0.9863
-0.7789 -2.7239 0.4996 0.9886
-0.4969 -2.5922 0.4654 0.9893
0.1995 -2.5531 0.4516 0.9897
0.4443 -2.6341 0.4710 0.9892
2.2149 5.3896 1.0275 0.9766
-0.9379 -2.8015 0.4704 0.9881
-0.6207 -2.6047 0.4264 0.9892
-0.3685 -2.5269 0.4066 0.9897
0.0839 -2.5090 0.3997 0.9899
0.5717 -2.6602 0.4333 0.9890
0.9068 -2.9232 0.4874 0.9877
-1.1694 -3.0363 0.5181 0.9869
-0.7682 -2.6866 0.4449 0.9887
-0.4914 -2.5634 0.4156 0.9895
-0.0278 -2.4934 0.3971 0.9900
0.4392 -2.6039 0.4205 0.9894
2.2148 5.3895 0.9278 0.9767
-0.1381 -2.4759 0.3527 0.9900
0.0831 -2.4841 0.3535 0.9900
0.8882 -2.8632 0.4264 0.9880
-1.1314 -2.9375 0.4477 0.9874
-0.7578 -2.6504 0.3921 0.9889
-0.2498 -2.4834 0.3550 0.9900
0.1955 -2.5018 0.3569 0.9899
0.4343 -2.5746 0.3714 0.9895
1.1467 -3.1872 0.4818 0.9864
2.2148 5.3893 0.8288 0.9767
-0.6065 -2.5449 0.3278 0.9895
-0.1367 -2.4519 0.3077 0.9901
0.0822 -2.4598 0.3084 0.9901
0.5579 -2.5961 0.3328 0.9894
-0.7478 -2.6153 0.3409 0.9891
-0.2474 -2.4592 0.3097 0.9901
-0.0272 -2.4451 0.3064 0.9902
0.4295 -2.5460 0.3236 0.9896
0.7036 -2.6855 0.3479 0.9889
1.1018 -3.0625 0.4079 0.9870
-0.5999 -2.5173 0.2807 0.9896
-0.1355 -2.4306 0.2640 0.9903
0.0815 -2.4380 0.2646 0.9902
0.3046 -2.4727 0.2702 0.9900
0.5516 -2.5670 0.2848 0.9895
0.8538 -2.7524 0.3126 0.9885
2.2146 5.3890 0.6320 0.9768
-0.8818 -2.6337 0.2546 0.9889
-0.5959 -2.5005 0.2357 0.9897
0.5475 -2.5477 0.2389 0.9896
-0.4729 -2.4671 0.2303 0.9900
-0.0269 -2.4115 0.2211 0.9904
0.1908 -2.4412 0.2245 0.9902
1.0431 -2.8994 0.2825 0.9877
-1.3003 -2.9738 0.2432 0.9871
-0.8754 -2.6146 0.2066 0.9890
-0.5924 -2.4859 0.1915 0.9898
0.0807 -2.4124 0.1809 0.9904
0.3011 -2.4447 0.1846 0.9902
0.5441 -2.5323 0.1941 0.9897
0.8362 -2.6958 0.2115 0.9887
-1.0544 -2.7378 0.2199 0.9883
-0.0267 -2.3991 0.1798 0.9904
0.1898 -2.4283 0.1825 0.9903
0.6814 -2.6010 0.2015 0.9893
-1.2779 -2.9227 0.1858 0.9873
-0.8690 -2.5957 0.1594 0.9891
-0.3512 -2.4082 0.1417 0.9903
-0.1334 -2.3929 0.1396 0.9904
0.8298 -2.6751 0.1631 0.9888
1.3058 -3.1775 0.2001 0.9863
-1.0440 -2.7108 0.1692 0.9884
-0.4675 -2.4391 0.1446 0.9901
0.1887 -2.4156 0.1411 0.9903
0.4171 -2.4725 0.1460 0.9900
1.0184 -2.8306 0.1752 0.9880
2.2144 5.3885 0.3393 0.9769
-0.1327 -2.3807 0.0991 0.9905
0.0798 -2.3875 0.0993 0.9905
0.2979 -2.4189 0.1013 0.9903
0.8235 -2.6548 0.1156 0.9889
1.2786 -3.1113 0.1399 0.9866
-1.0338 -2.6844 0.1196 0.9885
-0.7163 -2.5050 0.1083 0.9896
-0.4649 -2.4253 0.1027 0.9902
-0.0264 -2.3746 0.0987 0.9905
0.1878 -2.4030 0.1002 0.9904
2.2144 5.3883 0.2422 0.9769
-1.2356 -2.8259 0.0769 0.9877
-0.8567 -2.5589 0.0673 0.9893
-0.5822 -2.4431 0.0626 0.9900
-0.3474 -2.3817 0.0600 0.9904
-0.1321 -2.3686 0.0592 0.9906
0.0794 -2.3753 0.0593 0.9905
0.2963 -2.4062 0.0605 0.9903
0.5345 -2.4873 0.0634 0.9899
0.8173 -2.6348 0.0688 0.9890
1.2526 -3.0480 0.0822 0.9869
-1.0239 -2.6585 0.0710 0.9887
-0.2389 -2.3747 0.0595 0.9905
-0.0263 -2.3626 0.0589 0.9906
0.1868 -2.3906 0.0598 0.9905
0.4123 -2.4440 0.0618 0.9901
0.6667 -2.5449 0.0656 0.9895
-1.2190 -2.7881 0.0253 0.9879
-0.8507 -2.5409 0.0223 0.9893
-0.5789 -2.4292 0.0208 0.9901
-0.1314 -2.3566 0.0196 0.9906
0.8112 -2.6152 0.0228 0.9891
1.2276 -2.9872 0.0268 0.9872
-0.4597 -2.3983 0.0203 0.9903
-0.2377 -2.3626 0.0197 0.9905
-0.0262 -2.3507 0.0195 0.9906
0.1858 -2.3783 0.0198 0.9905
-1.2066 -2.7597 -0.0250 0.9880
-0.5756 -2.4154 -0.0206 0.9901
-0.1307 -2.3448 -0.0195 0.9906
0.0786 -2.3512 -0.0196 0.9906
0.2933 -2.3814 -0.0199 0.9904
0.8052 -2.5958 -0.0226 0.9892
1.2036 -2.9288 -0.0263 0.9874
-0.7019 -2.4547 -0.0212 0.9898
-0.2365 -2.3507 -0.0196 0.9906
0.6573 -2.5090 -0.0216 0.9897
-1.1979 -2.7396 -0.0746 0.9881
-0.8399 -2.5087 -0.0660 0.9895
-0.5728 -2.4033 -0.0616 0.9902
-0.3421 -2.3454 -0.0591 0.9906
-0.1301 -2.3336 -0.0583 0.9907
0.0782 -2.3398 -0.0584 0.9907
0.2919 -2.3698 -0.0595 0.9905
0.8002 -2.5797 -0.0674 0.9893
1.1866 -2.8875 -0.0779 0.9876
-0.9972 -2.5892 -0.0692 0.9890
-0.4549 -2.3730 -0.0603 0.9904
0.4054 -2.4035 -0.0608 0.9903
0.9678 -2.6900 -0.0713 0.9886
-1.1939 -2.7306 -0.1239 0.9881
-0.8380 -2.5030 -0.1098 0.9895
-0.3415 -2.3416 -0.0984 0.9906
0.0781 -2.3360 -0.0972 0.9907
0.7983 -2.5736 -0.1120 0.9893
1.1804 -2.8724 -0.1291 0.9876
-1.5277 -3.1087 -0.1440 0.9862
-0.9941 -2.5812 -0.1150 0.9890
-0.6963 -2.4353 -0.1053 0.9899
-0.4540 -2.3688 -0.1003 0.9904
-0.0259 -2.3239 -0.0966 0.9907
0.1837 -2.3508 -0.0980 0.9906
0.9646 -2.6810 -0.1185 0.9887
2.2140 5.3874 -0.2422 0.9770
-1.1900 -2.7215 -0.1730 0.9882
-0.3409 -2.3377 -0.1376 0.9906
0.2909 -2.3619 -0.1386 0.9905
0.7964 -2.5675 -0.1566 0.9893
1.1761 -2.8620 -0.1802 0.9877
-0.6948 -2.4300 -0.1472 0.9899
-0.4532 -2.3645 -0.1402 0.9904
-0.0259 -2.3202 -0.1351 0.9907
0.1834 -2.3469 -0.1371 0.9906
0.4039 -2.3947 -0.1414 0.9903
0.6503 -2.4821 -0.1494 0.9898
0.9613 -2.6721 -0.1654 0.9887
2.2139 5.3873 -0.3392 0.9769
-0.5696 -2.3902 -0.1841 0.9902
0.5225 -2.4315 -0.1864 0.9901
-1.4791 -3.0099 -0.2513 0.9866
-0.2342 -2.3280 -0.1753 0.9907
-0.0258 -2.3164 -0.1736 0.9908
0.9581 -2.6632 -0.2121 0.9887
2.2139 5.3871 -0.4365 0.9769
-1.1821 -2.7036 -0.2705 0.9882
-0.3398 -2.3300 -0.2159 0.9906
1.1676 -2.8412 -0.2816 0.9877
-0.9854 -2.5587 -0.2514 0.9890
-0.6918 -2.4194 -0.2307 0.9899
0.1828 -2.3392 -0.2151 0.9906
2.2138 5.3869 -0.5339 0.9769
-0.5675 -2.3814 -0.2655 0.9902
-0.3393 -2.3262 -0.2550 0.9906
0.2894 -2.3501 -0.2568 0.9905
0.5205 -2.4224 -0.2687 0.9901
0.7908 -2.5492 -0.2895 0.9893
-1.4616 -2.9742 -0.3595 0.9868
-0.4508 -2.3518 -0.2597 0.9904
-0.2334 -2.3204 -0.2530 0.9907
-0.0257 -2.3089 -0.2505 0.9908
0.6459 -2.4654 -0.2764 0.9898
0.9518 -2.6454 -0.3049 0.9888
2.2137 5.3868 -0.6317 0.9768
-1.1743 -2.6858 -0.3673 0.9883
-0.8286 -2.4748 -0.3271 0.9895
-0.5665 -2.3770 -0.3062 0.9902
0.2890 -2.3462 -0.2962 0.9905
0.7889 -2.5431 -0.3337 0.9893
-0.9808 -2.5465 -0.3420 0.9891
-0.6888 -2.4089 -0.3140 0.9900
-0.2330 -2.3166 -0.2918 0.9907
-0.0257 -2.3052 -0.2889 0.9907
0.1822 -2.3314 -0.2931 0.9906
0.4010 -2.3772 -0.3021 0.9903
2.2136 5.3866 -0.7298 0.9768
-0.8267 -2.4692 -0.3704 0.9895
-0.3381 -2.3185 -0.3333 0.9906
-0.1286 -2.3071 -0.3287 0.9907
0.0773 -2.3131 -0.3292 0.9907
0.2885 -2.3422 -0.3357 0.9905
0.5186 -2.4132 -0.3511 0.9901
0.7870 -2.5371 -0.3778 0.9893
-0.9784 -2.5405 -0.3872 0.9891
-0.6873 -2.4036 -0.3556 0.9900
-0.4492 -2.3434 -0.3394 0.9904
-0.2327 -2.3127 -0.3306 0.9907
-0.0256 -2.3014 -0.3274 0.9907
0.1819 -2.3276 -0.3321 0.9906
0.6434 -2.4558 -0.3611 0.9898
2.2136 5.3864 -0.8283 0.9767
-0.8264 -2.4683 -0.4145 0.9895
-0.3376 -2.3146 -0.3725 0.9906
-0.1284 -2.3033 -0.3673 0.9907
0.0772 -2.3093 -0.3679 0.9907
0.2880 -2.3383 -0.3752 0.9905
0.5176 -2.4087 -0.3923 0.9901
0.7872 -2.5377 -0.4231 0.9893
1.1655 -2.8361 -0.4883 0.9877
-0.9800 -2.5445 -0.4342 0.9890
-0.6859 -2.3989 -0.3973 0.9899
-0.4484 -2.3391 -0.3793 0.9904
0.1816 -2.3237 -0.3711 0.9906
0.6425 -2.4523 -0.4037 0.9898
0.9487 -2.6370 -0.4463 0.9887
-0.5650 -2.3709 -0.4298 0.9901
0.0771 -2.3074 -0.4071 0.9907
0.5183 -2.4122 -0.4350 0.9900
0.7893 -2.5443 -0.4697 0.9892
-1.4988 -3.0500 -0.5992 0.9863
-0.9825 -2.5509 -0.4820 0.9890
-0.2321 -2.3074 -0.4089 0.9906
0.6438 -2.4574 -0.4479 0.9897
0.9522 -2.6467 -0.4960 0.9886
-1.1863 -2.7131 -0.5730 0.9880
-0.8304 -2.4801 -0.5061 0.9894
-0.5661 -2.3755 -0.4726 0.9901
-0.3380 -2.3178 -0.4533 0.9905
0.2885 -2.3420 -0.4566 0.9904
0.7913 -2.5509 -0.5169 0.9892
1.1750 -2.8593 -0.5982 0.9875
-4.0475 14.1551 -2.8491 0.9418
-1.5428 -3.1396 -0.6770 0.9858
-0.9849 -2.5573 -0.5303 0.9889
-0.6890 -2.4097 -0.4850 0.9898
-0.2325 -2.3115 -0.4496 0.9906
-0.0256 -2.2993 -0.4450 0.9907
0.1818 -2.3265 -0.4516 0.9905
0.4005 -2.3743 -0.4660 0.9902
0.6452 -2.4626 -0.4926 0.9897
-14.1221 0.0000 -2.9772 0.9439
-13.8929 -2.5029 -2.9760 0.9439
-13.4037 -3.6717 -2.9299 0.9448
-13.0227 -4.8497 -2.9296 0.9448
-11.9607 -7.0843 -2.9307 0.9448
-10.5320 -9.1073 -2.9354 0.9447
-7.7726 -11.5975 -2.9433 0.9445
-6.7172 -12.2573 -2.9467 0.9445
-1.1905 -2.7228 -0.6265 0.9879
0.2890 -2.3463 -0.4984 0.9904
0.5205 -2.4221 -0.5223 0.9899
0.7934 -2.5577 -0.5646 0.9891
8.7041 -11.2782 -3.0034 0.9434
10.5857 -9.5742 -3.0091 0.9433
11.4028 -8.5992 -3.0109 0.9433
12.7611 -6.4484 -3.0143 0.9432
13.2910 -5.2897 -3.0158 0.9432
14.0304 -2.8518 -3.0184 0.9432
14.2336 -1.5922 -3.0194 0.9431
13.9062 3.4782 -3.0220 0.9431
13.5423 4.7024 -3.0222 0.9431
13.0700 5.8890 -3.0222 0.9431
11.8165 8.1116 -3.0216 0.9431
10.4843 8.6655 -2.8675 0.9459
9.6690 9.5619 -2.8668 0.9459
8.7839 10.3896 -2.8682 0.9459
5.7214 12.3294 -2.8655 0.9460
4.5996 12.7847 -2.8644 0.9460
3.4419 13.1378 -2.8632 0.9460
2.2579 13.3859 -2.8619 0.9460
-0.1511 13.5609 -2.8591 0.9461
-1.3567 13.4866 -2.8576 0.9461
-2.5484 13.2949 -2.8539 0.9462
-3.7149 12.9918 -2.8487 0.9463
-7.3752 12.1412 -2.9948 0.9436
-9.3984 10.6270 -2.9908 0.9437
-11.1198 8.7812 -2.9871 0.9437
-11.8503 7.7521 -2.9854 0.9438
-12.4865 6.6630 -2.9837 0.9438
-13.0234 5.5224 -2.9822 0.9438
-13.4570 4.3393 -2.9808 0.9438
-13.7841 3.1231 -2.9796 0.9439
-14.0023 1.8831 -2.9785 0.9439
-14.1099 0.6292 -2.9776 0.9439
-12.7939 -5.4251 -2.9297 0.9448
-12.2623 -6.5434 -2.9302 0.9448
-10.9212 -8.6243 -2.9337 0.9447
-0.9875 -2.5641 -0.5793 0.9888
-0.6906 -2.4153 -0.5296 0.9898
-0.2329 -2.3155 -0.4906 0.9905
0.1821 -2.3307 -0.4928 0.9905
0.4013 -2.3790 -0.5086 0.9902
0.6466 -2.4681 -0.5379 0.9896
0.9594 -2.6667 -0.5975 0.9885
5.9726 -12.8706 -2.9913 0.9436
8.1866 -11.6456 -3.0011 0.9435
11.7779 -8.0851 -3.0118 0.9433
12.4578 -7.0087 -3.0135 0.9432
13.5166 -4.6935 -3.0165 0.9432
13.8867 -3.4733 -3.0178 0.9432
14.1461 -2.2244 -3.0189 0.9431
14.2927 -0.9568 -3.0199 0.9431
14.2427 1.5933 -3.0214 0.9431
14.0466 2.8551 -3.0218 0.9431
13.7380 4.0943 -3.0221 0.9431
13.3194 5.3010 -3.0222 0.9431
10.8610 8.1906 -2.8678 0.9459
10.0867 9.1229 -2.8672 0.9459
7.3176 11.4627 -2.8670 0.9459
6.2662 12.0645 -2.8660 0.9459
4.0246 12.9742 -2.8638 0.9460
2.8526 13.2751 -2.8625 0.9460
1.6590 13.4700 -2.8612 0.9460
0.4533 13.5576 -2.8598 0.9461
-1.9554 13.4073 -2.8564 0.9461
-3.1353 13.1563 -2.8513 0.9462
-6.8293 12.4619 -2.9959 0.9436
-7.9060 11.7966 -2.9938 0.9436
-8.9186 11.0387 -2.9918 0.9436
-9.8593 10.1945 -2.9899 0.9437
-11.4965 8.2747 -2.9862 0.9437
-12.1805 7.2146 -2.9845 0.9438
-12.7676 6.0986 -2.9830 0.9438
-13.6340 3.7348 -2.9802 0.9438
-14.0700 1.2573 -2.9781 0.9439
-13.0512 0.0000 -2.9788 0.9479
-11.0627 -6.5525 -2.9347 0.9486
-8.9551 -9.2595 -2.9401 0.9485
-7.1875 -10.7244 -2.9467 0.9484
-6.2110 -11.3336 -2.9498 0.9484
-0.8344 -2.4923 -0.5999 0.9893
-0.3392 -2.3261 -0.5365 0.9904
0.5216 -2.4271 -0.5666 0.9899
1.1871 -2.8887 -0.7128 0.9873
6.0442 -11.6372 -2.9930 0.9476
7.0666 -11.0697 -2.9975 0.9475
8.0356 -10.4121 -3.0019 0.9475
10.5290 -7.9403 -3.0100 0.9473
11.7822 -5.9538 -3.0131 0.9473
12.2711 -4.8838 -3.0145 0.9473
13.2225 -0.2946 -3.0187 0.9472
13.1992 0.8836 -3.0194 0.9472
12.8370 3.2108 -3.0202 0.9472
12.5010 4.3408 -3.0204 0.9472
11.5326 6.4882 -3.0202 0.9472
10.9081 7.4880 -3.0199 0.9472
7.2221 10.2736 -2.8663 0.9498
6.2772 10.8724 -2.8655 0.9498
0.9762 12.4920 -2.8599 0.9499
-0.1395 12.5235 -2.8586 0.9499
-1.2530 12.4554 -2.8572 0.9499
-2.3533 12.2770 -2.8532 0.9500
-3.4309 11.9987 -2.8484 0.9501
-5.7912 11.7848 -2.9970 0.9476
-6.8128 11.2155 -2.9951 0.9476
-7.7792 10.5580 -2.9933 0.9476
-8.6827 9.8177 -2.9914 0.9476
-10.2740 8.1133 -2.9880 0.9477
-10.9495 7.1628 -2.9864 0.9477
-11.5377 6.1567 -2.9849 0.9478
-12.0343 5.1030 -2.9835 0.9478
-12.7380 2.8861 -2.9811 0.9478
-12.9400 1.7403 -2.9801 0.9478
-13.0398 0.5815 -2.9792 0.9479
-13.0368 -0.5813 -2.9785 0.9479
-12.6096 -2.8569 -2.9510 0.9483
-12.2341 -3.9450 -2.9339 0.9486
-11.3422 -6.0524 -2.9343 0.9486
-10.0974 -7.9738 -2.9366 0.9486
-9.3533 -8.8463 -2.9384 0.9486
-8.5387 -9.6548 -2.9418 0.9485
-7.6541 -10.3882 -2.9451 0.9484
-6.7061 -11.0397 -2.9482 0.9484
-0.9908 -2.5727 -0.6292 0.9888
-0.4511 -2.3533 -0.5469 0.9902
-0.2334 -2.3197 -0.5321 0.9905
6.5616 -11.3650 -2.9953 0.9476
10.8752 -7.4654 -3.0108 0.9473
11.5025 -6.4712 -3.0123 0.9473
12.0386 -5.4243 -3.0138 0.9473
12.4791 -4.3332 -3.0151 0.9472
13.2240 0.2947 -3.0190 0.9472
13.1479 1.4708 -3.0196 0.9472
12.9667 2.6356 -3.0201 0.9472
11.8106 5.9682 -3.0203 0.9472
10.0630 7.5888 -2.8767 0.9496
8.5228 9.2147 -2.8649 0.9498
6.7563 10.5836 -2.8659 0.9498
5.7857 11.1395 -2.8650 0.9498
3.7163 11.9802 -2.8629 0.9498
1.5320 12.4389 -2.8605 0.9499
0.4186 12.5202 -2.8592 0.9499
-0.6971 12.5019 -2.8579 0.9499
-2.8954 12.1498 -2.8508 0.9500
-4.1728 12.4635 -2.9999 0.9475
-5.2622 12.0349 -2.9980 0.9475
-7.3034 10.8974 -2.9942 0.9476
-8.2392 10.1978 -2.9923 0.9476
-9.1087 9.4183 -2.9905 0.9477
-10.6223 7.6455 -2.9872 0.9477
-11.7977 5.6353 -2.9842 0.9478
-12.5992 3.4513 -2.9816 0.9478
-13.0027 1.1619 -2.9796 0.9478
-12.0743 -1.0790 -2.9797 0.9513
-10.2852 -6.0919 -2.9383 0.9520
-9.7054 -6.9855 -2.9393 0.9519
-7.5290 -9.3187 -2.9447 0.9519
-6.6757 -9.9608 -2.9474 0.9518
-1.1992 -2.7427 -0.7358 0.9877
-0.1292 -2.3175 -0.5705 0.9905
0.0777 -2.3238 -0.5715 0.9905
0.2900 -2.3549 -0.5832 0.9903
0.5227 -2.4322 -0.6115 0.9898
1.2107 -2.9461 -0.7829 0.9870
5.6113 -10.8036 -2.9924 0.9511
6.5597 -10.2757 -2.9965 0.9510
8.3011 -8.9751 -3.0050 0.9509
9.0748 -8.2076 -3.0076 0.9508
9.7744 -7.3712 -3.0092 0.9508
10.9370 -5.5267 -3.0120 0.9508
12.0225 -2.4437 -3.0156 0.9507
12.2722 -0.2735 -3.0173 0.9507
12.1307 1.9075 -3.0184 0.9507
11.6021 4.0287 -3.0188 0.9507
10.1239 6.9497 -3.0183 0.9507
8.2845 8.1927 -2.8639 0.9531
7.5205 8.8953 -2.8632 0.9532
6.7041 9.5366 -2.8654 0.9531
5.8270 10.0926 -2.8645 0.9531
4.9041 10.5680 -2.8637 0.9531
3.9427 10.9588 -2.8627 0.9532
0.9062 11.5976 -2.8594 0.9532
-0.1295 11.6272 -2.8581 0.9532
-1.1634 11.5644 -2.8569 0.9533
-2.1847 11.3977 -2.8525 0.9533
-3.1857 11.1410 -2.8482 0.9534
-5.3778 10.9435 -2.9972 0.9510
-7.2245 9.8051 -2.9937 0.9511
-8.0639 9.1181 -2.9920 0.9511
-9.5426 7.5357 -2.9887 0.9511
-11.1788 4.7402 -2.9846 0.9512
-11.5517 3.7249 -2.9834 0.9512
-12.0133 -1.6156 -2.9794 0.9513
-11.7539 -2.6631 -2.9623 0.9516
-11.3745 -3.6678 -2.9376 0.9520
-10.0050 -6.5450 -2.9387 0.9519
-9.3868 -7.4127 -2.9400 0.9519
-8.6947 -8.2234 -2.9416 0.9519
-7.9336 -8.9706 -2.9436 0.9519
-7.1092 -9.6487 -2.9459 0.9518
-6.2289 -10.2542 -2.9491 0.9518
-5.2976 -10.7802 -2.9524 0.9517
-0.9942 -2.5814 -0.6799 0.9887
-0.6939 -2.4267 -0.6204 0.9897
-0.4520 -2.3579 -0.5901 0.9902
-0.2338 -2.3238 -0.5741 0.9904
0.1828 -2.3391 -0.5767 0.9904
0.4029 -2.3887 -0.5954 0.9901
0.9668 -2.6872 -0.7020 0.9883
5.1208 -11.0351 -2.9902 0.9511
6.0912 -10.5503 -2.9945 0.9511
7.0160 -9.9803 -2.9987 0.9510
7.8876 -9.3295 -3.0029 0.9509
9.4339 -7.7973 -3.0084 0.9508
10.0956 -6.9302 -3.0099 0.9508
11.1747 -5.0351 -3.0127 0.9508
11.5833 -4.0221 -3.0139 0.9507
11.8997 -2.9763 -3.0150 0.9507
12.2463 -0.8198 -3.0169 0.9507
12.2736 0.2735 -3.0176 0.9507
12.2027 1.3651 -3.0181 0.9507
11.7698 3.5078 -3.0188 0.9507
10.9614 5.5391 -3.0188 0.9507
8.6422 7.8164 -2.8642 0.9531
7.9104 8.5526 -2.8635 0.9531
7.1227 9.2293 -2.8656 0.9531
2.2131 5.3854 -1.4311 0.9763
3.4500 11.1216 -2.8622 0.9532
2.4455 11.3803 -2.8611 0.9532
0.3886 11.6240 -2.8588 0.9532
-1.6761 11.4926 -2.8547 0.9533
-3.8746 11.5730 -2.9998 0.9510
-7.6519 9.4709 -2.9928 0.9511
-8.4598 8.7474 -2.9911 0.9511
-9.1998 7.9554 -2.9895 0.9511
-11.7040 3.2061 -2.9828 0.9512
-11.9390 2.1509 -2.9818 0.9513
-11.1322 -2.0056 -2.9806 0.9543
-10.7866 -2.9548 -2.9470 0.9548
-10.4587 -3.8949 -2.9408 0.9549
-9.0629 -6.5231 -2.9423 0.9549
-8.4500 -7.3070 -2.9436 0.9548
-7.7706 -8.0347 -2.9453 0.9548
-7.0294 -8.7004 -2.9473 0.9548
-6.2320 -9.2988 -2.9496 0.9548
-0.8386 -2.5048 -0.6960 0.9891
-0.3405 -2.3346 -0.6217 0.9903
-0.1295 -2.3217 -0.6127 0.9904
0.2906 -2.3592 -0.6264 0.9902
0.5238 -2.4374 -0.6569 0.9897
5.2333 -10.0760 -2.9918 0.9541
6.1176 -9.5831 -2.9958 0.9541
8.4635 -7.6548 -3.0070 0.9539
10.1992 -5.1539 -3.0111 0.9538
10.6217 -4.2273 -3.0123 0.9538
10.9598 -3.2664 -3.0134 0.9538
11.2107 -2.2787 -3.0144 0.9538
11.4226 0.7646 -3.0166 0.9537
10.4406 4.7043 -3.0175 0.9537
9.9800 5.6146 -3.0173 0.9537
9.4397 6.4800 -3.0170 0.9537
5.4341 9.4121 -2.8637 0.9560
3.6770 10.2202 -2.8620 0.9561
2.7518 10.5034 -2.8610 0.9561
-2.0376 10.6301 -2.8520 0.9562
-4.0904 10.6206 -2.9989 0.9540
-5.0167 10.2087 -2.9973 0.9540
-5.9022 9.7164 -2.9956 0.9541
-6.7399 9.1475 -2.9940 0.9541
-7.5234 8.5068 -2.9924 0.9541
-8.9036 7.0311 -2.9894 0.9542
-11.2179 1.5087 -2.9825 0.9543
-11.3026 -0.5040 -2.9812 0.9543
-11.0018 -2.4927 -2.9724 0.9544
-10.2750 -4.3570 -2.9408 0.9549
-9.3429 -6.1119 -2.9418 0.9549
-8.7650 -6.9216 -2.9429 0.9549
-8.1183 -7.6783 -2.9444 0.9548
-7.4074 -8.3756 -2.9463 0.9548
-0.6956 -2.4326 -0.6667 0.9896
-0.4529 -2.3626 -0.6339 0.9901
-0.2342 -2.3280 -0.6165 0.9904
-0.0258 -2.3156 -0.6102 0.9905
0.1831 -2.3434 -0.6194 0.9903
0.4038 -2.3937 -0.6396 0.9900
0.6516 -2.4872 -0.6775 0.9894
0.9733 -2.7052 -0.7576 0.9882
4.7762 -10.2923 -2.9898 0.9541
6.5428 -9.3073 -2.9978 0.9540
8.7983 -7.2720 -3.0077 0.9539
9.4151 -6.4631 -3.0092 0.9539
10.4208 -4.6954 -3.0118 0.9538
11.3781 1.2728 -3.0168 0.9537
11.2210 2.2808 -3.0172 0.9537
10.2205 5.1646 -3.0174 0.9537
8.0583 7.2883 -2.8630 0.9561
6.6352 8.5975 -2.8616 0.9561
3.2175 10.3722 -2.8615 0.9561
2.2807 10.6136 -2.8605 0.9561
0.3625 10.8416 -2.8583 0.9561
-1.5632 10.7180 -2.8541 0.9562
-9.2058 6.6259 -2.9887 0.9542
-10.6158 3.9534 -2.9849 0.9542
-10.9217 2.9918 -2.9839 0.9542
-10.5568 -0.9433 -2.9821 0.9569
-10.1161 -2.7711 -2.9511 0.9574
-9.4410 -4.5096 -2.9438 0.9575
-7.2834 -7.5310 -2.9477 0.9574
-6.5884 -8.1546 -2.9496 0.9574
-5.0460 -9.2078 -2.9542 0.9573
-1.2347 -2.8238 -0.8671 0.9873
-0.5718 -2.3995 -0.6940 0.9898
-0.3411 -2.3389 -0.6650 0.9902
-0.1297 -2.3260 -0.6554 0.9904
0.2911 -2.3637 -0.6701 0.9902
4.9005 -9.4353 -2.9914 0.9568
7.2463 -7.8346 -3.0026 0.9566
7.9242 -7.1670 -3.0062 0.9566
9.9448 -3.9579 -3.0115 0.9565
10.6468 -1.1910 -3.0142 0.9565
10.7129 -0.2387 -3.0149 0.9565
9.3429 5.2562 -3.0161 0.9564
8.8372 6.0664 -3.0159 0.9564
7.2319 7.1518 -2.8617 0.9586
6.5652 7.7653 -2.8610 0.9586
5.8464 8.3166 -2.8603 0.9586
4.2822 9.2280 -2.8623 0.9586
3.4429 9.5696 -2.8614 0.9586
1.6905 10.0218 -2.8595 0.9586
0.7915 10.1289 -2.8585 0.9587
-1.9080 9.9538 -2.8516 0.9588
-2.7829 9.7323 -2.8480 0.9588
-3.8308 9.9465 -2.9989 0.9567
-4.6985 9.5612 -2.9974 0.9567
-5.5280 9.1003 -2.9958 0.9567
-7.0469 7.9680 -2.9928 0.9568
-7.7244 7.3057 -2.9914 0.9568
-8.3402 6.5861 -2.9900 0.9568
-8.8894 5.8152 -2.9887 0.9568
-9.3678 4.9988 -2.9875 0.9568
-10.0984 3.2563 -2.9853 0.9569
-10.3449 2.3438 -2.9844 0.9569
-10.5912 0.4723 -2.9829 0.9569
-10.3239 -2.3391 -2.9783 0.9570
-9.9575 -3.2109 -2.9437 0.9575
-9.6322 -4.0844 -2.9437 0.9575
-6.9428 -7.8504 -2.9486 0.9574
-6.2208 -8.4430 -2.9506 0.9574
-4.6328 -9.4275 -2.9555 0.9573
-1.0088 -2.6193 -0.7897 0.9884
-0.6973 -2.4385 -0.7136 0.9895
-0.4538 -2.3673 -0.6782 0.9900
-0.0258 -2.3198 -0.6527 0.9904
0.6533 -2.4937 -0.7253 0.9893
0.9868 -2.7427 -0.8201 0.9880
6.1261 -8.7145 -2.9971 0.9567
7.5926 -7.5085 -3.0044 0.9566
8.8156 -6.0516 -3.0085 0.9565
9.3231 -5.2451 -3.0098 0.9565
9.7568 -4.3962 -3.0109 0.9565
10.1130 -3.5116 -3.0120 0.9565
10.5818 -1.6639 -3.0138 0.9565
10.7139 0.2388 -3.0152 0.9564
10.6519 1.1916 -3.0157 0.9564
9.9606 3.9643 -3.0163 0.9564
9.0991 5.6670 -3.0160 0.9564
8.5576 6.4536 -3.0157 0.9564
6.9054 7.4661 -2.8614 0.9586
6.2120 8.0491 -2.8607 0.9586
2.2130 5.3850 -1.6381 0.9761
2.1356 9.9383 -2.8600 0.9586
-0.5653 10.1382 -2.8569 0.9587
-4.2690 9.7635 -2.9981 0.9567
-9.1377 5.4123 -2.9881 0.9568
-9.5794 4.5757 -2.9869 0.9568
-9.9450 3.7036 -2.9858 0.9569
-10.4376 1.8804 -2.9840 0.9569
-10.5609 0.9437 -2.9832 0.9569
-9.8051 -1.7665 -2.9827 0.9593
-8.8803 -4.2417 -2.9463 0.9597
-7.9908 -5.7514 -2.9475 0.9597
-7.4499 -6.4422 -2.9486 0.9597
-6.8501 -7.0830 -2.9500 0.9597
-6.1960 -7.6689 -2.9516 0.9597
-5.4927 -8.1956 -2.9537 0.9596
-4.7450 -8.6586 -2.9559 0.9596
-1.2650 -2.8932 -0.9453 0.9869
-0.8488 -2.5353 -0.8004 0.9889
-0.3417 -2.3433 -0.7089 0.9902
-0.1299 -2.3302 -0.6987 0.9903
0.5266 -2.4506 -0.7504 0.9896
4.6050 -8.8663 -2.9911 0.9591
6.1186 -7.9281 -2.9982 0.9590
6.8078 -7.3605 -3.0016 0.9590
7.4441 -6.7328 -3.0050 0.9590
8.0200 -6.0482 -3.0073 0.9589
9.3437 -3.7187 -3.0107 0.9589
9.6406 -2.8732 -3.0117 0.9589
9.8609 -2.0043 -3.0125 0.9589
10.0027 -1.1190 -3.0133 0.9588
10.0647 -0.2243 -3.0139 0.9588
9.5143 3.3037 -3.0152 0.9588
9.1824 4.1374 -3.0152 0.9588
8.7773 4.9381 -3.0151 0.9588
8.3023 5.6992 -3.0148 0.9588
6.7943 6.7190 -2.8607 0.9609
5.4928 7.8136 -2.8594 0.9609
4.7808 8.2806 -2.8626 0.9609
3.2350 8.9919 -2.8609 0.9609
2.4211 9.2413 -2.8600 0.9609
1.5885 9.4171 -2.8591 0.9609
0.7437 9.5179 -2.8582 0.9609
-0.1063 9.5429 -2.8571 0.9609
-2.6152 9.1460 -2.8479 0.9611
-3.6002 9.3477 -2.9989 0.9590
-5.1955 8.5530 -2.9960 0.9591
-5.9333 8.0527 -2.9946 0.9591
-6.6234 7.4892 -2.9932 0.9591
-8.8059 4.6989 -2.9882 0.9592
-9.1858 3.8951 -2.9871 0.9592
-9.4930 3.0611 -2.9861 0.9592
-9.9550 -0.4439 -2.9833 0.9592
-9.8746 -1.3280 -2.9829 0.9593
-8.6830 -4.6334 -2.9465 0.9597
-8.2379 -5.3890 -2.9471 0.9597
-7.1571 -6.7691 -2.9492 0.9597
-6.5295 -7.3830 -2.9508 0.9597
-5.8502 -7.9400 -2.9526 0.9597
-0.4547 -2.3721 -0.7231 0.9900
-0.2351 -2.3366 -0.7031 0.9902
0.1838 -2.3522 -0.7064 0.9902
0.4055 -2.4037 -0.7298 0.9899
4.2030 -9.0572 -2.9893 0.9592
4.9984 -8.6575 -2.9929 0.9591
5.7560 -8.1880 -2.9964 0.9591
6.4695 -7.6521 -2.9999 0.9590
7.1329 -7.0539 -3.0033 0.9590
8.7599 -4.9283 -3.0091 0.9589
9.1671 -4.1305 -3.0102 0.9589
9.5016 -3.2993 -3.0112 0.9589
9.7605 -2.4412 -3.0121 0.9589
9.9417 -1.5633 -3.0129 0.9588
10.0072 1.1195 -3.0146 0.9588
9.6518 2.8766 -3.0152 0.9588
8.9889 4.5423 -3.0152 0.9588
7.2472 6.5547 -2.9255 0.9600
6.4876 7.0144 -2.8604 0.9609
5.1386 8.0495 -2.8590 0.9609
4.4067 8.4843 -2.8622 0.9609
1.1672 9.4769 -2.8586 0.9609
0.3190 9.5399 -2.8577 0.9609
-2.2063 9.2582 -2.8493 0.9610
-4.0121 9.1758 -2.9982 0.9590
-5.5700 8.3110 -2.9953 0.9591
-6.2846 7.7786 -2.9939 0.9591
-8.5894 5.0875 -2.9887 0.9592
-9.0048 4.3012 -2.9876 0.9592
-9.3487 3.4815 -2.9866 0.9592
-9.6185 2.6348 -2.9857 0.9592
-9.8121 1.7677 -2.9848 0.9592
-9.9282 0.8872 -2.9841 0.9592
-9.3585 -0.8363 -2.9840 0.9613
-9.2459 -1.6657 -2.9836 0.9613
-8.7002 -3.2400 -2.9484 0.9618
-8.3776 -4.0017 -2.9486 0.9618
-7.9894 -4.7321 -2.9490 0.9618
-7.0279 -6.0773 -2.9507 0.9618
-5.8447 -7.2341 -2.9536 0.9617
-4.4754 -8.1667 -2.9575 0.9617
-0.8563 -2.5578 -0.8566 0.9887
-0.5771 -2.4218 -0.7907 0.9896
-0.3429 -2.3512 -0.7546 0.9901
0.2928 -2.3774 -0.7607 0.9900
0.5304 -2.4684 -0.8018 0.9895
0.8196 -2.6422 -0.8786 0.9885
3.5755 -8.7005 -2.9874 0.9613
5.0730 -7.9467 -2.9942 0.9612
6.4156 -6.9366 -3.0007 0.9611
7.0149 -6.3446 -3.0039 0.9611
7.5591 -5.7006 -3.0068 0.9610
8.8060 -3.5047 -3.0100 0.9610
9.2932 -1.8889 -3.0117 0.9610
9.4850 -0.2114 -3.0130 0.9610
9.4677 0.6338 -3.0135 0.9610
9.3749 1.4742 -3.0139 0.9610
8.9661 3.1134 -3.0143 0.9609
7.3140 6.0452 -3.0135 0.9610
6.4030 6.3321 -2.8599 0.9629
5.1766 7.3638 -2.8587 0.9629
2.2820 8.7103 -2.8596 0.9629
1.4972 8.8761 -2.8587 0.9629
-0.1002 8.9951 -2.8569 0.9630
-2.4739 8.6517 -2.8578 0.9629
-3.3938 8.8119 -2.9989 0.9611
-6.2444 7.0607 -2.9935 0.9612
-8.9510 2.8863 -2.9868 0.9613
-9.1698 2.0776 -2.9860 0.9613
-9.3161 1.2529 -2.9853 0.9613
-9.3871 -0.4186 -2.9842 0.9613
-9.3114 -1.2522 -2.9838 0.9613
-8.5473 -3.6243 -2.9484 0.9618
-7.7715 -5.0839 -2.9493 0.9618
-7.2903 -5.7571 -2.9502 0.9618
-6.7516 -6.3856 -2.9513 0.9617
-6.1594 -6.9646 -2.9528 0.9617
-5.5183 -7.4895 -2.9545 0.9617
-4.1088 -8.3612 -2.9587 0.9617
-1.0342 -2.6853 -0.9139 0.9880
-0.7069 -2.4722 -0.8166 0.9893
0.4079 -2.4183 -0.7789 0.9898
0.6639 -2.5340 -0.8319 0.9891
3.9618 -8.5375 -2.9891 0.9613
4.7113 -8.1602 -2.9925 0.9612
6.0970 -7.2116 -2.9991 0.9611
7.8071 -5.3593 -3.0074 0.9610
8.9548 -3.1094 -3.0105 0.9610
9.3693 -1.4732 -3.0121 0.9610
9.4653 -0.6336 -3.0128 0.9610
9.4858 0.2114 -3.0133 0.9610
9.3003 1.8904 -3.0140 0.9610
8.8185 3.5097 -3.0143 0.9609
8.0559 5.0172 -3.0140 0.9610
2.2129 5.3847 -1.8489 0.9759
2.6682 8.6013 -2.8601 0.9629
1.1002 8.9326 -2.8583 0.9629
0.3007 8.9922 -2.8574 0.9629
-0.5006 8.9784 -2.8558 0.9630
-1.2962 8.8877 -2.8525 0.9630
-2.0797 8.7267 -2.8491 0.9630
-2.9986 8.9563 -2.9996 0.9611
-4.5349 8.2752 -2.9968 0.9612
-5.2511 7.8351 -2.9955 0.9612
-5.9249 7.3334 -2.9941 0.9612
-6.5513 6.7740 -2.9928 0.9612
-7.1253 6.1615 -2.9916 0.9612
-8.0986 4.7968 -2.9893 0.9613
-8.8148 3.2827 -2.9873 0.9613
-9.0694 2.4844 -2.9864 0.9613
-8.7420 -1.5749 -2.9845 0.9632
-8.5256 -2.3354 -2.9700 0.9634
-8.2295 -3.0647 -2.9505 0.9636
-7.9244 -3.7852 -2.9506 0.9636
-7.1304 -5.1321 -2.9517 0.9636
-6.6474 -5.7482 -2.9526 0.9636
-4.2325 -7.7234 -2.9590 0.9635
-3.5309 -8.0753 -2.9612 0.9635
-0.8641 -2.5809 -0.9144 0.9886
-0.5812 -2.4390 -0.8424 0.9895
0.0788 -2.3571 -0.7924 0.9901
3.3797 -8.2239 -2.9873 0.9632
4.1026 -7.8990 -2.9905 0.9631
5.4497 -7.0614 -2.9969 0.9631
6.6286 -5.9953 -3.0029 0.9630
7.1427 -5.3866 -3.0057 0.9630
7.5981 -4.7321 -3.0074 0.9629
8.3221 -3.3121 -3.0094 0.9629
8.7823 -1.7851 -3.0110 0.9629
8.9083 -0.9966 -3.0117 0.9629
8.9633 -0.1997 -3.0123 0.9629
8.9469 0.5989 -3.0127 0.9629
8.8591 1.3930 -3.0131 0.9629
8.7006 2.1762 -3.0133 0.9629
8.1772 3.6845 -3.0134 0.9629
7.8165 4.3975 -3.0133 0.9629
7.3935 5.0754 -3.0131 0.9629
4.2521 7.3648 -2.8573 0.9648
2.1568 8.2325 -2.8593 0.9647
1.4151 8.3892 -2.8584 0.9647
0.6626 8.4792 -2.8576 0.9647
-0.0947 8.5019 -2.8567 0.9648
-2.3879 8.3510 -2.9182 0.9640
-4.6300 7.6219 -2.9963 0.9631
-5.9030 6.6747 -2.9938 0.9631
-6.4711 6.1203 -2.9926 0.9631
-6.9875 5.5179 -2.9914 0.9631
-7.8496 4.1886 -2.9893 0.9632
-8.1886 3.4723 -2.9883 0.9632
-8.4627 2.7289 -2.9875 0.9632
-8.8081 1.1846 -2.9860 0.9632
-8.8754 -0.3958 -2.9850 0.9632
-8.8039 -1.1840 -2.9846 0.9632
-8.3703 -2.6991 -2.9549 0.9636
-7.7483 -4.1346 -2.9508 0.9636
-7.3510 -4.8088 -2.9513 0.9636
-6.8957 -5.4455 -2.9521 0.9636
-6.3860 -6.0398 -2.9532 0.9636
-5.8258 -6.5873 -2.9546 0.9636
-4.5708 -7.5246 -2.9580 0.9635
-1.0476 -2.7202 -0.9794 0.9878
-0.7130 -2.4935 -0.8714 0.9891
-0.4602 -2.4011 -0.8214 0.9897
-0.2372 -2.3578 -0.7962 0.9901
0.1855 -2.3744 -0.8002 0.9900
0.4108 -2.4357 -0.8299 0.9896
3.7447 -8.0696 -2.9889 0.9632
6.8924 -5.6967 -3.0043 0.9630
7.8027 -4.3897 -3.0080 0.9629
8.6930 -2.1742 -3.0106 0.9629
8.8541 -1.3922 -3.0114 0.9629
8.9640 0.1998 -3.0125 0.9629
8.9119 0.9969 -3.0129 0.9629
8.7886 1.7864 -3.0132 0.9629
8.5952 2.5617 -3.0134 0.9629
7.6126 4.7412 -3.0132 0.9629
7.1597 5.3994 -3.0129 0.9629
5.1977 6.7349 -2.8583 0.9647
2.2128 5.3845 -1.9559 0.9757
1.7877 8.3191 -2.8589 0.9647
-1.2251 8.3998 -2.8520 0.9648
-1.9656 8.2481 -2.8488 0.9649
-3.5750 8.1764 -2.9982 0.9630
-4.2868 7.8223 -2.9969 0.9631
-4.9638 7.4066 -2.9956 0.9631
-5.6010 6.9325 -2.9944 0.9631
-6.1933 6.4038 -2.9932 0.9631
-6.7360 5.8249 -2.9920 0.9631
-7.2250 5.2003 -2.9909 0.9631
-7.6565 4.5350 -2.9898 0.9631
-8.5747 2.3489 -2.9871 0.9632
-8.8513 0.7910 -2.9857 0.9632
-8.3862 -0.7494 -2.9855 0.9649
-8.2854 -1.4927 -2.9852 0.9649
-8.0988 -2.2185 -2.9775 0.9650
-7.5133 -3.5888 -2.9524 0.9653
-7.1650 -4.2438 -2.9528 0.9653
-5.7946 -5.9915 -2.9555 0.9652
-5.2408 -6.4866 -2.9569 0.9652
-4.0124 -7.3216 -2.9604 0.9652
-0.8721 -2.6047 -0.9740 0.9884
-0.5854 -2.4567 -0.8955 0.9893
-0.1319 -2.3650 -0.8399 0.9900
0.8359 -2.6946 -1.0004 0.9881
6.2790 -5.6790 -3.0020 0.9647
6.7656 -5.1022 -3.0047 0.9647
7.1983 -4.4832 -3.0070 0.9646
7.8840 -3.1378 -3.0088 0.9646
8.3197 -1.6910 -3.0104 0.9646
8.4390 -0.9440 -3.0110 0.9646
8.3921 1.3196 -3.0123 0.9646
8.2420 2.0615 -3.0125 0.9646
8.0261 2.7870 -3.0126 0.9646
5.2038 6.1551 -2.8580 0.9664
4.6343 6.5924 -2.8574 0.9664
3.3903 7.3059 -2.8559 0.9664
1.3407 7.9484 -2.8582 0.9664
-0.0897 8.0535 -2.8559 0.9664
-0.8054 8.0057 -2.8530 0.9664
-3.0396 7.8923 -2.9989 0.9647
-3.7285 7.5873 -2.9976 0.9648
-4.3872 7.2224 -2.9964 0.9648
-5.0106 6.8005 -2.9952 0.9648
-5.5938 6.3250 -2.9940 0.9648
-7.7604 3.2907 -2.9889 0.9649
-8.0202 2.5862 -2.9881 0.9649
-8.2166 1.8617 -2.9873 0.9649
-8.3479 1.1227 -2.9867 0.9649
-8.3441 -1.1222 -2.9853 0.9649
-8.2104 -1.8602 -2.9851 0.9649
-7.9392 -2.5601 -2.9579 0.9652
-7.6655 -3.2504 -2.9523 0.9653
-7.3464 -3.9201 -2.9526 0.9653
-6.5378 -5.1629 -2.9539 0.9653
-4.3331 -7.1333 -2.9595 0.9652
-1.0616 -2.7563 -1.0473 0.9875
-0.7193 -2.5154 -0.9277 0.9890
-0.4635 -2.4180 -0.8730 0.9896
-0.2387 -2.3728 -0.8456 0.9899
0.6764 -2.5817 -0.9463 0.9887
1.0536 -2.9286 -1.1036 0.9869
3.5480 -7.6458 -2.9888 0.9649
4.2188 -7.3071 -2.9918 0.9648
5.4583 -6.4561 -2.9978 0.9648
6.0170 -5.9504 -3.0006 0.9647
8.2351 -2.0597 -3.0100 0.9646
8.3877 -1.3189 -3.0107 0.9646
8.4917 0.1892 -3.0118 0.9646
7.5829 3.8318 -3.0126 0.9646
7.2114 4.4913 -3.0124 0.9646
6.7824 5.1148 -3.0121 0.9646
6.2994 5.6975 -3.0118 0.9646
5.4897 5.9353 -2.8667 0.9663
4.9239 6.3801 -2.8577 0.9664
4.3355 6.7915 -2.8570 0.9664
1.6937 7.8820 -2.8586 0.9664
0.9852 7.9990 -2.8578 0.9664
0.2692 8.0525 -2.8569 0.9664
-1.8623 7.8146 -2.8486 0.9665
-2.6856 8.0215 -2.9995 0.9647
-5.8689 6.0684 -2.9935 0.9648
-6.3833 5.5199 -2.9923 0.9648
-6.8469 4.9281 -2.9913 0.9648
-7.8981 2.9413 -2.9885 0.9649
-8.1265 2.2261 -2.9877 0.9649
-8.2904 1.4936 -2.9870 0.9649
-7.9652 -0.7118 -2.9862 0.9664
-7.8695 -1.4177 -2.9859 0.9664
-7.7032 -2.1101 -2.9824 0.9665
-7.1386 -3.4098 -2.9541 0.9668
-6.4231 -4.6231 -2.9551 0.9668
-5.9879 -5.1779 -2.9560 0.9668
-5.5053 -5.6924 -2.9571 0.9668
-3.8117 -6.9555 -2.9617 0.9667
-3.1796 -7.2720 -2.9637 0.9667
0.0798 -2.3877 -0.8921 0.9899
0.8444 -2.7221 -1.0643 0.9879
3.6909 -7.1062 -2.9901 0.9664
4.3129 -6.7560 -2.9930 0.9664
5.9609 -5.3913 -3.0012 0.9663
6.8336 -4.2560 -3.0062 0.9662
7.4853 -2.9791 -3.0083 0.9662
8.0119 -0.8963 -3.0104 0.9662
8.0612 -0.1796 -3.0109 0.9662
7.9672 1.2528 -3.0116 0.9661
7.6197 2.6458 -3.0119 0.9661
7.0296 3.9548 -3.0118 0.9661
5.7332 5.6697 -3.0109 0.9662
4.9404 5.8435 -2.8574 0.9679
3.8244 6.6241 -2.8562 0.9679
-0.7646 7.6004 -2.8524 0.9679
-1.4367 7.4949 -2.8496 0.9679
-2.2088 7.7246 -3.0000 0.9663
-4.1662 6.8585 -2.9965 0.9663
-4.7583 6.4580 -2.9954 0.9663
-5.3122 6.0066 -2.9943 0.9663
-6.2886 4.9661 -2.9921 0.9664
-7.0650 3.7700 -2.9902 0.9664
-7.6173 2.4563 -2.9886 0.9664
-7.9286 1.0663 -2.9873 0.9664
-7.9895 -0.3563 -2.9863 0.9664
-7.9252 -1.0658 -2.9860 0.9664
-7.7983 -1.7668 -2.9858 0.9664
-6.2116 -4.9053 -2.9555 0.9668
-5.7523 -5.4404 -2.9565 0.9668
-3.4992 -7.1207 -2.9627 0.9667
-1.0893 -2.8283 -1.1317 0.9871
-0.7257 -2.5380 -0.9857 0.9888
-0.4668 -2.4355 -0.9260 0.9895
-0.0264 -2.3730 -0.8861 0.9899
0.1880 -2.4056 -0.9010 0.9898
1.1302 -3.1414 -1.2466 0.9858
4.0057 -6.9381 -2.9916 0.9664
5.1821 -6.1295 -2.9972 0.9663
5.7123 -5.6490 -2.9999 0.9663
7.0184 -3.9485 -3.0070 0.9662
7.8185 -1.9555 -3.0094 0.9662
7.9038 1.6065 -3.0117 0.9661
7.4943 2.9827 -3.0119 0.9661
7.1990 3.6378 -3.0119 0.9661
5.9805 5.4090 -3.0111 0.9662
4.6748 6.0573 -2.8571 0.9679
4.1162 6.4479 -2.8565 0.9679
2.2126 5.3841 -2.1736 0.9755
-1.7682 7.4198 -2.8482 0.9680
-2.5502 7.6170 -2.9994 0.9663
-3.2168 7.3569 -2.9983 0.9663
-3.8573 7.0387 -2.9971 0.9663
-4.4667 6.6649 -2.9960 0.9663
-6.0622 5.2422 -2.9927 0.9664
-7.5013 2.7935 -2.9890 0.9664
-7.7183 2.1142 -2.9882 0.9664
-7.6111 0.0000 -2.9871 0.9678
-6.4804 -3.8383 -2.9560 0.9682
-6.1143 -4.4008 -2.9566 0.9681
-5.2404 -5.4185 -2.9585 0.9681
-4.2005 -6.2677 -2.9612 0.9681
-3.0263 -6.9214 -2.9648 0.9681
-0.3523 -2.4158 -0.9582 0.9896
-0.1336 -2.3959 -0.9418 0.9897
2.8931 -7.0399 -2.9872 0.9678
5.1867 -5.6078 -2.9980 0.9677
7.1207 -2.8340 -3.0079 0.9676
7.5138 -1.5272 -3.0092 0.9676
7.6214 -0.8526 -3.0098 0.9676
7.5787 1.1917 -3.0110 0.9676
5.9129 4.8871 -3.0107 0.9676
5.4537 5.3933 -3.0103 0.9676
4.1854 5.9538 -2.8563 0.9692
3.6381 6.3013 -2.8557 0.9692
3.0658 6.6066 -2.8584 0.9692
1.8458 7.0454 -2.8584 0.9692
0.5669 7.2547 -2.8559 0.9692
-0.0810 7.2714 -2.8540 0.9692
-0.7273 7.2295 -2.8517 0.9693
-2.7462 7.1304 -2.9989 0.9677
-3.3687 6.8551 -2.9977 0.9677
-3.9640 6.5257 -2.9966 0.9677
-4.5275 6.1447 -2.9955 0.9677
-5.0546 5.7153 -2.9945 0.9677
-7.6030 -0.3390 -2.9869 0.9678
-7.4211 -1.6814 -2.9864 0.9678
-7.1890 -2.3182 -2.9646 0.9681
-5.9129 -4.6694 -2.9570 0.9681
-5.4756 -5.1788 -2.9579 0.9681
-4.9949 -5.6478 -2.9591 0.9681
-4.4744 -6.0727 -2.9605 0.9681
-3.9183 -6.4503 -2.9620 0.9681
-1.1246 -2.9201 -1.2281 0.9866
-0.2418 -2.4041 -0.9483 0.9897
-0.0266 -2.3885 -0.9375 0.9898
0.1892 -2.4218 -0.9534 0.9896
0.4201 -2.4908 -0.9914 0.9892
0.6896 -2.6323 -1.0680 0.9884
5.4337 -5.3735 -2.9992 0.9677
5.8953 -4.8726 -3.0017 0.9677
6.3105 -4.3319 -3.0041 0.9676
7.2407 -2.5143 -3.0082 0.9676
7.5751 -1.1911 -3.0095 0.9676
7.6687 0.1709 -3.0105 0.9676
7.6240 0.8529 -3.0109 0.9676
7.5184 1.5282 -3.0111 0.9676
7.3529 2.1914 -3.0112 0.9676
7.1288 2.8372 -3.0113 0.9676
6.5124 4.0559 -3.0111 0.9676
6.1250 4.6191 -3.0108 0.9676
5.6889 5.1453 -3.0105 0.9676
3.9156 6.1337 -2.8560 0.9692
2.2125 5.3839 -2.2845 0.9753
2.1580 6.9567 -2.8587 0.9692
1.5299 7.1196 -2.8580 0.9692
0.8898 7.2242 -2.8567 0.9692
0.2431 7.2704 -2.8550 0.9692
-0.4047 7.2578 -2.8529 0.9692
-1.6822 7.0590 -2.8480 0.9693
-4.2500 6.3415 -2.9961 0.9677
-6.5572 3.8839 -2.9911 0.9678
-6.8750 3.2839 -2.9902 0.9678
-7.5820 0.6775 -2.9876 0.9678
-7.2555 0.0000 -2.9877 0.9691
-7.2258 -0.6457 -2.9873 0.9691
-6.7373 -2.5090 -2.9604 0.9694
-6.1794 -3.6601 -2.9574 0.9694
-5.8302 -4.1964 -2.9580 0.9694
-4.0051 -5.9761 -2.9624 0.9694
-3.4592 -6.3123 -2.9640 0.9693
-0.9153 -2.7339 -1.1872 0.9876
-0.5988 -2.5126 -1.0636 0.9889
-0.1345 -2.4121 -0.9948 0.9896
0.3029 -2.4591 -1.0203 0.9893
0.8967 -2.8907 -1.2463 0.9870
2.7574 -6.7096 -2.9871 0.9691
4.9426 -5.3438 -2.9974 0.9690
5.4029 -4.8867 -2.9998 0.9690
5.8209 -4.3897 -3.0021 0.9690
6.1930 -3.8570 -3.0043 0.9689
6.5161 -3.2927 -3.0063 0.9689
6.7858 -2.7007 -3.0074 0.9689
7.3073 -0.1628 -3.0098 0.9689
7.2937 0.4883 -3.0101 0.9689
7.2220 1.1356 -3.0104 0.9689
7.0927 1.7740 -3.0106 0.9689
6.9069 2.3983 -3.0107 0.9689
6.6660 3.0035 -3.0107 0.9689
6.3720 3.5848 -3.0106 0.9689
6.0272 4.1375 -3.0104 0.9689
5.1970 5.1394 -3.0097 0.9689
2.9209 6.2943 -2.8574 0.9704
2.3492 6.5297 -2.8575 0.9704
1.7585 6.7121 -2.8572 0.9704
1.1537 6.8397 -2.8563 0.9704
-0.0772 6.9282 -2.8531 0.9705
-0.6930 6.8887 -2.8510 0.9705
-1.3023 6.7941 -2.8486 0.9705
-2.0029 7.0045 -2.9999 0.9690
-2.6174 6.7960 -2.9988 0.9690
-3.2108 6.5338 -2.9978 0.9690
-5.2819 4.9956 -2.9937 0.9690
-6.0802 3.9775 -2.9919 0.9691
-6.4083 3.4196 -2.9910 0.9691
-6.6855 2.8349 -2.9903 0.9691
-6.9097 2.2281 -2.9895 0.9691
-7.0791 1.6039 -2.9889 0.9691
-6.8640 -2.2134 -2.9698 0.9693
-6.3359 -3.3810 -2.9572 0.9694
-6.0108 -3.9321 -2.9577 0.9694
-5.6382 -4.4524 -2.9584 0.9694
-5.2211 -4.9381 -2.9592 0.9694
-4.7627 -5.3852 -2.9604 0.9694
-3.7359 -6.1502 -2.9632 0.9694
-3.1755 -6.4620 -2.9649 0.9693
-0.4738 -2.4717 -1.0363 0.9892
-0.2435 -2.4204 -1.0017 0.9895
0.1905 -2.4384 -1.0072 0.9895
0.4234 -2.5101 -1.0482 0.9890
3.0549 -6.5830 -2.9884 0.9691
4.1810 -5.9475 -2.9936 0.9690
5.1778 -5.1204 -2.9986 0.9690
6.0129 -4.1276 -3.0032 0.9689
6.3609 -3.5786 -3.0053 0.9689
6.6579 -2.9999 -3.0070 0.9689
7.2187 -1.1351 -3.0090 0.9689
7.2923 -0.4881 -3.0095 0.9689
7.3078 0.1629 -3.0100 0.9689
7.2651 0.8127 -3.0103 0.9689
7.0068 2.0882 -3.0107 0.9689
6.5255 3.2975 -3.0107 0.9689
6.2058 3.8650 -3.0105 0.9689
5.8367 4.4017 -3.0103 0.9689
4.9626 5.3655 -3.0095 0.9689
3.7314 5.8451 -2.8555 0.9704
3.1981 6.1575 -2.8571 0.9704
2.2125 5.3837 -2.3968 0.9751
2.0559 6.6276 -2.8574 0.9704
1.4575 6.7828 -2.8568 0.9704
0.8477 6.8827 -2.8556 0.9704
0.2316 6.9271 -2.8540 0.9705
-0.3856 6.9154 -2.8521 0.9705
-0.9988 6.8483 -2.8498 0.9705
-1.6245 6.8166 -2.8855 0.9701
-2.3125 6.9071 -2.9994 0.9690
-2.9171 6.6715 -2.9983 0.9690
-3.4980 6.3831 -2.9973 0.9690
-4.0509 6.0444 -2.9962 0.9690
-5.4983 4.7546 -2.9932 0.9690
-5.8979 4.2451 -2.9923 0.9691
-6.2505 3.7022 -2.9914 0.9691
-6.5534 3.1303 -2.9906 0.9691
-6.8044 2.5340 -2.9899 0.9691
-7.2277 0.6459 -2.9881 0.9691
-6.9273 0.0000 -2.9882 0.9703
-6.8163 -1.2280 -2.9876 0.9703
-6.6796 -1.8297 -2.9874 0.9703
-6.4368 -2.3971 -2.9629 0.9705
-6.1886 -2.9560 -2.9584 0.9706
-5.9016 -3.4955 -2.9587 0.9706
-5.5680 -4.0076 -2.9593 0.9706
-5.1906 -4.4884 -2.9600 0.9705
-4.3156 -5.3414 -2.9621 0.9705
-3.8247 -5.7069 -2.9635 0.9705
-3.3033 -6.0278 -2.9650 0.9705
-2.7553 -6.3015 -2.9667 0.9705
-0.6081 -2.5518 -1.1316 0.9886
-0.3577 -2.4525 -1.0691 0.9893
0.5614 -2.6125 -1.1527 0.9884
0.9296 -2.9966 -1.3534 0.9864
2.6322 -6.4050 -2.9871 0.9703
4.7175 -5.1005 -2.9969 0.9702
5.1566 -4.6639 -2.9992 0.9702
5.9103 -3.6810 -3.0035 0.9701
6.2185 -3.1424 -3.0054 0.9701
6.8343 -1.3891 -3.0083 0.9701
6.9320 -0.7754 -3.0088 0.9701
6.9745 -0.1554 -3.0093 0.9701
6.8930 1.0839 -3.0099 0.9701
6.5922 2.2891 -3.0101 0.9701
6.3623 2.8667 -3.0101 0.9701
6.0817 3.4215 -3.0101 0.9701
5.3779 4.4450 -3.0096 0.9701
4.5034 5.3266 -3.0088 0.9701
3.3103 5.7337 -2.8559 0.9716
2.7873 6.0065 -2.8563 0.9716
2.2417 6.2309 -2.8564 0.9716
1.6780 6.4049 -2.8560 0.9716
1.1010 6.5268 -2.8552 0.9716
0.5154 6.5958 -2.8538 0.9716
-0.0737 6.6118 -2.8522 0.9716
-0.6614 6.5745 -2.8503 0.9716
-2.4986 6.4876 -2.9988 0.9702
-3.0651 6.2373 -2.9978 0.9702
-3.6069 5.9378 -2.9968 0.9702
-5.8049 3.7974 -2.9922 0.9702
-6.7588 1.5313 -2.9894 0.9703
-6.8670 0.9235 -2.9888 0.9703
-6.9209 0.3086 -2.9884 0.9703
-6.7546 -1.5304 -2.9875 0.9703
-6.0510 -3.2289 -2.9585 0.9706
-5.7404 -3.7552 -2.9590 0.9706
-5.3846 -4.2522 -2.9596 0.9706
-4.9862 -4.7159 -2.9605 0.9705
-3.5676 -5.8731 -2.9642 0.9705
-3.0324 -6.1707 -2.9658 0.9705
-2.4726 -6.4200 -2.9676 0.9705
2.3433 -6.5132 -2.9858 0.9703
3.4668 -6.0046 -2.9908 0.9702
5.3613 -4.4312 -3.0003 0.9702
5.7385 -3.9392 -3.0025 0.9701
6.3542 -2.8631 -3.0063 0.9701
6.8900 -1.0834 -3.0086 0.9701
6.9602 -0.4659 -3.0090 0.9701
6.9749 0.1554 -3.0094 0.9701
6.9341 0.7757 -3.0098 0.9701
6.6875 1.9931 -3.0101 0.9701
6.4837 2.5804 -3.0102 0.9701
6.2282 3.1472 -3.0101 0.9701
5.9231 3.6890 -3.0100 0.9701
5.5708 4.2012 -3.0098 0.9701
5.1743 4.6798 -3.0094 0.9701
4.7366 5.1211 -3.0090 0.9701
1.9618 6.3243 -2.8563 0.9716
0.8089 6.5679 -2.8545 0.9716
-2.2075 6.5936 -2.9993 0.9702
-2.7847 6.3688 -2.9983 0.9702
-4.3640 5.4014 -2.9953 0.9702
-4.8259 4.9899 -2.9944 0.9702
-6.2568 2.9886 -2.9910 0.9702
-6.4964 2.4193 -2.9903 0.9703
-6.6845 1.8311 -2.9896 0.9703
-6.8196 1.2287 -2.9891 0.9703
-6.9008 0.6167 -2.9886 0.9703
-6.6235 0.0000 -2.9886 0.9714
-6.5965 -0.5895 -2.9883 0.9714
-6.3867 -1.7495 -2.9879 0.9714
-6.1579 -2.2932 -2.9650 0.9716
-5.6441 -3.3430 -2.9599 0.9716
-4.9640 -4.2925 -2.9611 0.9716
-4.5637 -4.7188 -2.9621 0.9716
-4.1271 -5.1082 -2.9632 0.9716
-2.6348 -6.0259 -2.9675 0.9716
-0.6182 -2.5941 -1.2033 0.9884
-0.3632 -2.4905 -1.1357 0.9890
0.3105 -2.5215 -1.1463 0.9889
1.9598 -6.3177 -2.9846 0.9714
2.5163 -6.1231 -2.9870 0.9714
3.0538 -5.8795 -2.9894 0.9713
4.9288 -4.4578 -2.9986 0.9713
5.6487 -3.5181 -3.0027 0.9712
5.9431 -3.0032 -3.0046 0.9712
6.3872 -1.9036 -3.0073 0.9712
6.6665 -0.1486 -3.0088 0.9712
6.6540 0.4454 -3.0091 0.9712
6.5885 1.0360 -3.0094 0.9712
6.4705 1.6184 -3.0096 0.9712
6.3010 2.1879 -3.0096 0.9712
5.4986 3.7746 -3.0094 0.9712
5.1404 4.2486 -3.0091 0.9712
4.7413 4.6887 -3.0088 0.9712
4.3046 5.0914 -3.0084 0.9712
2.6637 5.7401 -2.8553 0.9726
2.1422 5.9545 -2.8553 0.9726
1.6035 6.1207 -2.8550 0.9726
0.4926 6.3035 -2.8529 0.9726
-0.0704 6.3189 -2.8514 0.9726
-0.6321 6.2836 -2.8496 0.9727
-2.9303 5.9629 -2.9979 0.9713
-3.9386 5.3454 -2.9960 0.9713
-4.3973 4.9722 -2.9950 0.9713
-6.1028 2.5878 -2.9910 0.9713
-6.6165 -0.2950 -2.9885 0.9714
-6.5634 -0.8827 -2.9882 0.9714
-6.4584 -1.4633 -2.9880 0.9714
-6.2907 -2.0285 -2.9824 0.9714
-4.7686 -4.5101 -2.9616 0.9716
-4.3497 -4.9183 -2.9626 0.9716
-3.8963 -5.2880 -2.9638 0.9716
-0.4868 -2.5397 -1.1668 0.9887
-0.2483 -2.4685 -1.1195 0.9892
-0.0273 -2.4479 -1.1046 0.9893
0.7362 -2.8100 -1.3107 0.9873
2.7877 -6.0073 -2.9882 0.9714
3.3140 -5.7399 -2.9906 0.9713
4.7236 -4.6712 -2.9975 0.9713
5.4846 -3.7650 -3.0017 0.9712
5.8017 -3.2640 -3.0037 0.9712
6.4663 -1.6173 -3.0076 0.9712
6.6528 -0.4454 -3.0086 0.9712
6.6669 0.1486 -3.0090 0.9712
6.6279 0.7414 -3.0093 0.9712
6.3921 1.9051 -3.0096 0.9712
6.1973 2.4665 -3.0097 0.9712
5.3248 4.0156 -3.0093 0.9712
4.0731 5.2777 -3.0081 0.9712
1.3292 6.1853 -2.8546 0.9726
0.7731 6.2767 -2.8536 0.9726
-0.9111 6.2473 -2.8487 0.9727
-3.1925 5.8255 -2.9974 0.9713
-3.6971 5.5165 -2.9964 0.9713
-4.6138 4.7706 -2.9946 0.9713
-5.7054 3.3793 -2.9921 0.9713
-6.3912 1.7507 -2.9900 0.9713
-6.5204 1.1747 -2.9895 0.9713
-6.5981 0.5896 -2.9890 0.9713
-6.2396 -1.1241 -2.9885 0.9724
-5.8993 -2.1969 -2.9674 0.9725
-5.6677 -2.7072 -2.9607 0.9726
-5.4048 -3.2012 -2.9610 0.9726
-5.0992 -3.6702 -2.9615 0.9726
-4.7534 -4.1104 -2.9622 0.9726
-4.3700 -4.5186 -2.9631 0.9726
-3.9519 -4.8913 -2.9641 0.9726
-3.5023 -5.2258 -2.9654 0.9726
-0.3690 -2.5304 -1.2054 0.9888
0.3157 -2.5635 -1.2175 0.9886
4.3156 -4.6660 -2.9960 0.9723
4.7171 -4.2664 -2.9981 0.9723
5.0815 -3.8322 -3.0001 0.9722
5.4059 -3.3668 -3.0020 0.9722
5.6875 -2.8740 -3.0038 0.9722
5.9239 -2.3577 -3.0054 0.9722
6.1133 -1.8220 -3.0069 0.9722
6.2524 -1.2708 -3.0075 0.9722
6.3805 -0.1422 -3.0084 0.9722
6.3685 0.4263 -3.0087 0.9722
6.3058 0.9915 -3.0089 0.9722
6.1929 1.5489 -3.0091 0.9722
5.8203 2.6225 -3.0092 0.9722
5.5636 3.1300 -3.0091 0.9722
5.2626 3.6126 -3.0089 0.9722
4.5379 4.4876 -3.0083 0.9722
2.5489 5.4928 -2.8544 0.9736
1.5345 5.8569 -2.8540 0.9736
1.0068 5.9686 -2.8532 0.9736
0.4714 6.0320 -2.8520 0.9736
-0.0674 6.0470 -2.8506 0.9736
-0.6050 6.0137 -2.8490 0.9736
-2.8050 5.7079 -2.9979 0.9723
-4.6151 4.3650 -2.9943 0.9723
-4.9839 3.9358 -2.9935 0.9723
-5.3131 3.4757 -2.9927 0.9723
-5.8423 2.4774 -2.9913 0.9723
-6.0384 1.9472 -2.9907 0.9723
-6.2858 0.8454 -2.9897 0.9723
-6.3352 0.2825 -2.9892 0.9723
-6.2837 -0.8451 -2.9886 0.9724
-6.1831 -1.4009 -2.9885 0.9724
-5.5417 -2.9571 -2.9609 0.9726
-5.2572 -3.4391 -2.9613 0.9726
-4.1651 -4.7095 -2.9636 0.9726
-3.2668 -5.3779 -2.9661 0.9726
-2.7766 -5.6501 -2.9675 0.9725
-0.7918 -2.7691 -1.3576 0.9873
-0.4948 -2.5815 -1.2390 0.9884
0.4438 -2.6308 -1.2576 0.9883
0.7645 -2.9182 -1.4220 0.9867
2.6684 -5.7502 -2.9882 0.9724
3.1721 -5.4941 -2.9904 0.9723
3.6512 -5.1939 -2.9927 0.9723
5.5522 -3.1236 -3.0029 0.9722
6.0246 -2.0920 -3.0062 0.9722
6.3674 -0.4262 -3.0082 0.9722
6.3435 0.7096 -3.0088 0.9722
6.1178 1.8233 -3.0091 0.9722
5.9313 2.3606 -3.0092 0.9722
5.4185 3.3747 -3.0090 0.9722
5.0963 3.8433 -3.0088 0.9722
4.7335 4.2812 -3.0085 0.9722
4.3332 4.6850 -3.0082 0.9722
3.2813 5.1400 -2.8745 0.9734
2.2122 5.3831 -2.7434 0.9746
0.7398 6.0064 -2.8526 0.9736
0.2021 6.0456 -2.8513 0.9736
-0.3366 6.0363 -2.8498 0.9736
-2.5483 5.8281 -2.9984 0.9723
-3.5391 5.2807 -2.9965 0.9723
-3.9939 4.9433 -2.9956 0.9723
-4.8043 4.1544 -2.9939 0.9723
-5.1536 3.7094 -2.9931 0.9723
-5.4620 3.2351 -2.9924 0.9723
-5.7268 2.7355 -2.9917 0.9723
-5.9463 2.2145 -2.9910 0.9723
-6.1186 1.6761 -2.9904 0.9723
-6.2424 1.1246 -2.9899 0.9723
-6.3168 0.5645 -2.9894 0.9723
-5.8607 -1.6054 -2.9888 0.9733
-5.4337 -2.5954 -2.9618 0.9735
-5.1815 -3.0690 -2.9621 0.9735
-4.8886 -3.5186 -2.9625 0.9735
-4.5571 -3.9406 -2.9632 0.9735
-4.1894 -4.3318 -2.9640 0.9735
-2.8996 -5.2911 -2.9676 0.9735
-2.4183 -5.5309 -2.9691 0.9735
-1.9175 -5.7273 -2.9707 0.9734
-0.3751 -2.5722 -1.2785 0.9885
0.0849 -2.5405 -1.2503 0.9887
0.6040 -2.8106 -1.4140 0.9873
1.7979 -5.7960 -2.9848 0.9733
3.2725 -5.1263 -2.9914 0.9733
3.7184 -4.8181 -2.9935 0.9732
4.5200 -4.0881 -2.9976 0.9732
5.6758 -2.2589 -3.0046 0.9731
6.1140 -0.1363 -3.0080 0.9731
6.1025 0.4085 -3.0083 0.9731
5.0428 3.4617 -3.0085 0.9731
4.7143 3.8965 -3.0083 0.9731
3.9478 4.6696 -3.0076 0.9731
3.5160 5.0016 -3.0071 0.9731
2.9172 5.0528 -2.8697 0.9743
2.4421 5.2625 -2.8535 0.9745
0.9646 5.7183 -2.8523 0.9745
-0.0645 5.7937 -2.8499 0.9745
-1.6767 5.8638 -2.9997 0.9732
-2.1913 5.6896 -2.9988 0.9732
-2.6882 5.4704 -2.9979 0.9732
-3.6134 4.9042 -2.9962 0.9732
-4.0344 4.5618 -2.9953 0.9732
-5.0923 3.3312 -2.9930 0.9732
-5.3673 2.8641 -2.9923 0.9732
-5.7877 1.8663 -2.9910 0.9733
-6.0249 0.8103 -2.9900 0.9733
-5.9266 -1.3428 -2.9889 0.9733
-5.7831 -1.8648 -2.9886 0.9733
-5.3128 -2.8350 -2.9619 0.9735
-3.9929 -4.5149 -2.9645 0.9735
-3.1317 -5.1554 -2.9669 0.9735
-2.6616 -5.4163 -2.9683 0.9735
-2.1701 -5.6347 -2.9699 0.9734
-0.8374 -2.9287 -1.4982 0.9865
-0.2557 -2.5421 -1.2567 0.9887
0.4517 -2.6776 -1.3356 0.9880
3.4988 -4.9772 -2.9924 0.9732
3.9308 -4.6493 -2.9945 0.9732
4.3319 -4.2839 -2.9966 0.9732
5.3198 -2.9929 -3.0022 0.9732
5.5681 -2.5088 -3.0039 0.9731
5.9303 -1.4833 -3.0067 0.9731
6.0401 -0.9498 -3.0073 0.9731
6.1015 -0.4084 -3.0078 0.9731
5.9942 1.2184 -3.0086 0.9731
5.6836 2.2620 -3.0087 0.9731
5.4596 2.7589 -3.0087 0.9731
4.5358 4.1024 -3.0081 0.9731
3.2648 5.1143 -2.9844 0.9733
2.2052 5.3661 -2.8535 0.9745
1.7187 5.5406 -2.8533 0.9745
0.7087 5.7546 -2.8518 0.9745
0.1937 5.7923 -2.8506 0.9745
-0.3225 5.7841 -2.8493 0.9745
-0.8796 6.0313 -2.9979 0.9732
-1.4140 5.9335 -3.0002 0.9732
-4.2331 4.3770 -2.9949 0.9732
-4.9395 3.5552 -2.9933 0.9732
-5.2351 3.1007 -2.9926 0.9732
-5.6994 2.1225 -2.9913 0.9733
-5.8645 1.6065 -2.9908 0.9733
-5.9833 1.0779 -2.9903 0.9733
-6.0546 0.5410 -2.9898 0.9733
-5.8319 0.0000 -2.9898 0.9741
-5.8082 -0.5190 -2.9896 0.9741
-5.2148 -2.4909 -2.9628 0.9744
-4.6916 -3.3768 -2.9635 0.9744
-4.0205 -4.1572 -2.9649 0.9743
-3.6357 -4.5000 -2.9659 0.9743
-2.7826 -5.0775 -2.9683 0.9743
-2.3207 -5.3076 -2.9698 0.9743
-1.8400 -5.4959 -2.9713 0.9743
-0.6747 -2.8311 -1.4921 0.9870
-0.3815 -2.6161 -1.3554 0.9882
-0.1432 -2.5690 -1.3191 0.9885
0.3270 -2.6547 -1.3713 0.9880
0.6365 -2.9620 -1.5532 0.9865
1.7250 -5.5607 -2.9848 0.9742
3.5671 -4.6220 -2.9932 0.9741
4.3358 -3.9215 -2.9971 0.9741
5.6178 -1.6743 -3.0052 0.9740
5.8294 -0.6521 -3.0072 0.9740
5.8651 -0.1307 -3.0076 0.9740
5.8540 0.3919 -3.0079 0.9740
4.1713 4.1251 -3.0076 0.9740
3.7871 4.4794 -3.0072 0.9740
2.9042 5.0303 -2.9778 0.9742
1.4100 5.3818 -2.8522 0.9753
-0.5854 5.8194 -2.9985 0.9741
-2.5791 5.2483 -2.9980 0.9741
-3.8708 4.3768 -2.9955 0.9741
-4.2439 4.0138 -2.9947 0.9741
-4.5831 3.6193 -2.9939 0.9741
-4.8859 3.1962 -2.9932 0.9741
-5.5533 1.7907 -2.9913 0.9741
-5.6896 1.2891 -2.9908 0.9741
-5.8264 0.2598 -2.9900 0.9741
-5.5493 -1.7894 -2.9892 0.9741
-4.2011 -3.9734 -2.9645 0.9743
-3.0053 -4.9474 -2.9677 0.9743
-2.5542 -5.1976 -2.9690 0.9743
-2.0825 -5.4071 -2.9705 0.9743
-0.0285 -2.5585 -1.3117 0.9886
0.2036 -2.6052 -1.3397 0.9883
0.4649 -2.7562 -1.4330 0.9875
1.4750 -5.6300 -2.9838 0.9742
1.9716 -5.4803 -2.9859 0.9742
2.9162 -5.0510 -2.9901 0.9741
3.3565 -4.7747 -2.9922 0.9741
3.7707 -4.4600 -2.9942 0.9741
4.5076 -3.7256 -2.9981 0.9741
4.8242 -3.3116 -2.9999 0.9740
5.3407 -2.4064 -3.0031 0.9740
5.6879 -1.4226 -3.0059 0.9740
5.7942 -0.9111 -3.0070 0.9740
5.8531 -0.3918 -3.0074 0.9740
5.8310 0.6523 -3.0080 0.9740
5.6235 1.6760 -3.0083 0.9740
5.4521 2.1699 -3.0083 0.9740
4.3511 3.9354 -3.0077 0.9740
3.1556 4.9431 -3.0065 0.9740
2.5976 5.0013 -2.8892 0.9750
2.1151 5.1467 -2.8527 0.9753
1.6484 5.3141 -2.8524 0.9753
0.6798 5.5194 -2.8510 0.9753
0.1858 5.5560 -2.8500 0.9753
-1.3566 5.6925 -3.0001 0.9740
-3.6725 4.5455 -2.9959 0.9741
-4.7392 3.4111 -2.9936 0.9741
-5.0229 2.9750 -2.9929 0.9741
-5.2666 2.5156 -2.9922 0.9741
