ply
format ascii 1.0
element vertex 1584
property float32 x
property float32 y
property float32 z
property float32 I
end_header
-3.5467 -3.6672 -0.2121 0.9798
-3.8063 -4.7112 -0.2518 0.9760
-0.4837 4.8088 -0.2010 0.9808
-4.3602 -2.3267 -0.2055 0.9804
-4.0037 -2.6191 -0.1989 0.9810
-3.7505 -2.9618 -0.1987 0.9810
-3.5576 -4.0227 -0.2233 0.9787
-0.6861 4.7041 -0.1977 0.9811
-4.5954 -2.1951 -0.2966 0.9798
-3.8639 -2.7811 -0.2773 0.9811
-3.5386 -3.6589 -0.2965 0.9798
-3.7498 -4.6412 -0.3475 0.9764
-0.4838 4.8093 -0.2815 0.9808
-4.3522 -2.3224 -0.2873 0.9804
-3.9971 -2.6148 -0.2782 0.9810
-3.7443 -2.9569 -0.2779 0.9811
-4.5854 -2.1903 -0.3808 0.9798
-3.6500 -3.1563 -0.3616 0.9808
-4.3442 -2.3182 -0.3690 0.9804
-3.9906 -2.6105 -0.3574 0.9811
-3.7381 -2.9520 -0.3569 0.9811
-3.5779 -3.3839 -0.3690 0.9804
-3.5377 -4.0002 -0.4002 0.9788
-4.1496 -2.4578 -0.4422 0.9808
-3.8585 -2.7772 -0.4358 0.9811
-3.5368 -3.6571 -0.4664 0.9798
-4.3481 -2.3202 -0.4518 0.9804
-3.9917 -2.6112 -0.4373 0.9810
-3.7390 -2.9527 -0.4368 0.9810
-3.5810 -3.3869 -0.4519 0.9804
-3.5494 -4.0134 -0.4912 0.9787
-0.6861 4.7040 -0.4358 0.9811
-5.7448 -2.1394 -0.6649 0.9756
-4.6039 -2.1991 -0.5534 0.9797
-4.1569 -2.4621 -0.5240 0.9807
-3.8650 -2.7819 -0.5165 0.9810
-4.9494 -2.0987 -0.5831 0.9786
-3.9986 -2.6157 -0.5183 0.9810
-3.7456 -2.9579 -0.5177 0.9810
-0.6860 4.7040 -0.5156 0.9811
-4.6145 -2.2042 -0.6409 0.9796
-4.1642 -2.4664 -0.6065 0.9807
-3.6647 -3.1690 -0.6071 0.9807
-0.4840 4.8116 -0.6060 0.9807
-4.0055 -2.6203 -0.5998 0.9809
-3.5731 -4.0402 -0.6759 0.9785
-3.8782 -2.7914 -0.6797 0.9809
-3.6713 -3.1747 -0.6904 0.9806
-4.0125 -2.6249 -0.6820 0.9808
-3.7588 -2.9683 -0.6812 0.9808
-3.6025 -3.4073 -0.7053 0.9802
-0.6860 4.7039 -0.6761 0.9810
-4.6591 -2.2255 -0.8222 0.9793
-3.8900 -2.7998 -0.7632 0.9808
-3.6205 -3.4242 -0.7935 0.9800
-3.6354 -4.1107 -0.8738 0.9780
-0.6860 4.7039 -0.7570 0.9809
-4.2105 -2.4939 -0.8629 0.9803
-3.7062 -3.2049 -0.8639 0.9803
-3.6184 -3.7414 -0.9178 0.9791
-0.4842 4.8134 -0.8530 0.9805
-4.4224 -2.3599 -0.8839 0.9798
-3.7924 -2.9948 -0.8521 0.9806
-0.6860 4.7038 -0.8382 0.9809
-4.7306 -2.2596 -1.0145 0.9789
-4.2347 -2.5082 -0.9525 0.9801
-3.9330 -2.8308 -0.9377 0.9805
-3.6477 -3.7717 -1.0154 0.9788
-0.4843 4.8140 -0.9363 0.9805
-2.7709 14.4558 -2.8484 0.9418
-4.4506 -2.3749 -0.9762 0.9797
-4.0711 -2.6631 -0.9414 0.9804
-3.8142 -3.0120 -0.9405 0.9804
-3.6679 -3.4691 -0.9770 0.9796
-3.7277 -4.2150 -1.0889 0.9773
-3.4091 14.3051 -2.8458 0.9418
-4.6595 13.9173 -2.8402 0.9420
-13.8822 -1.2405 -2.9383 0.9446
-13.7177 -2.4714 -2.9385 0.9446
-13.0703 -4.8674 -2.9403 0.9446
-4.2600 -2.5232 -1.0438 0.9800
-3.6922 -3.8177 -1.1197 0.9785
-8.8146 -10.9097 -2.9569 0.9443
-7.8194 -11.6672 -2.9610 0.9442
-6.7590 -12.3336 -2.9650 0.9441
-5.6425 -12.9048 -2.9693 0.9440
-0.7893 -14.1547 -2.9887 0.9437
1.7389 -14.1185 -2.9989 0.9435
2.9921 -13.9239 -3.0024 0.9434
4.2225 -13.6121 -3.0046 0.9434
6.5783 -12.6654 -3.0088 0.9433
7.6845 -12.0376 -3.0108 0.9433
8.7309 -11.3130 -3.0127 0.9433
9.7089 -10.4972 -3.0145 0.9432
12.1556 -7.5706 -3.0190 0.9431
12.7863 -6.4612 -3.0202 0.9431
13.7380 -4.0943 -3.0221 0.9431
14.0510 -2.8560 -3.0228 0.9431
14.2517 -1.5943 -3.0233 0.9431
14.3104 0.9580 -3.0237 0.9431
14.1678 2.2278 -3.0236 0.9431
13.9119 3.4796 -3.0232 0.9431
12.4520 5.6106 -2.8793 0.9457
11.8549 6.6695 -2.8676 0.9459
6.7866 11.7547 -2.8615 0.9460
5.7105 12.3058 -2.8600 0.9461
3.4344 13.1091 -2.8569 0.9461
-3.7088 12.9705 -2.8440 0.9463
-6.2535 12.7257 -2.9893 0.9437
-8.3999 11.4005 -2.9854 0.9438
-10.2763 9.7193 -2.9820 0.9438
-11.0950 8.7616 -2.9804 0.9438
-11.8253 7.7358 -2.9791 0.9439
-14.0945 0.6285 -2.9744 0.9440
-13.9258 -0.6210 -2.9388 0.9446
-13.8134 -1.8577 -2.9384 0.9446
-13.5954 -3.0803 -2.9388 0.9446
-4.4820 -2.3917 -1.0710 0.9794
-3.8364 -3.0296 -1.0306 0.9802
-3.6946 -3.4943 -1.0721 0.9794
-3.8682 -4.3739 -1.2310 0.9764
-6.2071 -12.6311 -2.9670 0.9441
-5.0660 -13.1535 -2.9716 0.9440
-3.8813 -13.5738 -2.9763 0.9439
-2.6621 -13.8882 -2.9812 0.9438
-1.4178 -14.0936 -2.9862 0.9437
-0.1581 -14.1879 -2.9913 0.9436
4.8264 -13.4153 -3.0057 0.9434
6.0055 -12.9415 -3.0078 0.9433
8.2157 -11.6870 -3.0117 0.9433
10.1697 -10.0571 -3.0153 0.9432
12.4834 -7.0230 -3.0196 0.9431
13.0638 -5.8863 -3.0208 0.9431
14.3094 -0.9579 -3.0235 0.9431
14.3388 0.3196 -3.0236 0.9431
14.2534 1.5945 -3.0236 0.9431
14.0539 2.8566 -3.0234 0.9431
13.3203 5.3014 -3.0224 0.9431
12.1421 6.1357 -2.8681 0.9459
11.5441 7.1897 -2.8671 0.9459
10.8575 8.1880 -2.8669 0.9459
10.0820 9.1187 -2.8659 0.9459
9.2268 9.9759 -2.8648 0.9460
7.3053 11.4435 -2.8622 0.9460
6.2547 12.0423 -2.8608 0.9460
5.1553 12.5447 -2.8593 0.9461
4.0161 12.9467 -2.8577 0.9461
1.6551 13.4383 -2.8545 0.9462
-0.7529 13.5030 -2.8511 0.9462
-0.6860 4.7038 -1.0021 0.9808
-5.6824 12.9960 -2.9903 0.9437
-7.8862 11.7670 -2.9863 0.9437
-10.6963 9.2495 -2.9812 0.9438
-12.7433 6.0870 -2.9773 0.9439
-13.6126 3.7289 -2.9755 0.9439
-13.8876 2.5020 -2.9749 0.9439
-14.0532 1.2558 -2.9745 0.9440
-13.0204 0.0000 -2.9718 0.9480
-12.6893 -2.2861 -2.9429 0.9485
-12.0898 -4.5023 -2.9446 0.9484
-4.8630 -2.3229 -1.2301 0.9781
-3.7884 -3.2759 -1.1431 0.9797
-8.1488 -10.0859 -2.9595 0.9482
-7.2276 -10.7844 -2.9631 0.9481
-6.2473 -11.3998 -2.9670 0.9481
-4.1387 -12.3618 -2.9754 0.9479
-3.0266 -12.7000 -2.9799 0.9478
1.6059 -13.0389 -2.9985 0.9475
2.7634 -12.8597 -3.0022 0.9475
7.0957 -11.1153 -3.0099 0.9473
8.0615 -10.4456 -3.0116 0.9473
11.2219 -6.9890 -3.0175 0.9472
11.8038 -5.9647 -3.0186 0.9472
12.2918 -4.8920 -3.0195 0.9472
12.9704 -2.6363 -3.0210 0.9471
13.2355 -0.2950 -3.0217 0.9471
13.2096 0.8843 -3.0217 0.9471
13.0780 2.0564 -3.0216 0.9471
12.5031 4.3416 -3.0209 0.9471
8.9228 8.8240 -2.8642 0.9498
8.0990 9.5795 -2.8632 0.9498
7.2112 10.2581 -2.8620 0.9499
6.2668 10.8544 -2.8607 0.9499
5.2734 11.3637 -2.8594 0.9499
4.2389 11.7822 -2.8579 0.9499
3.1718 12.1065 -2.8565 0.9499
2.0805 12.3343 -2.8550 0.9500
-5.7776 11.7570 -2.9900 0.9477
-10.2528 8.0966 -2.9818 0.9478
-11.5166 6.1455 -2.9794 0.9479
-12.0139 5.0943 -2.9784 0.9479
-12.9245 1.7382 -2.9765 0.9479
-13.0267 0.5809 -2.9762 0.9479
-12.7778 -1.7185 -2.9427 0.9485
-12.5760 -2.8493 -2.9431 0.9485
-11.8800 -5.0375 -2.9452 0.9484
-4.5373 -2.4212 -1.1738 0.9791
-4.1323 -2.7033 -1.1271 0.9799
-3.7416 -3.5388 -1.1755 0.9791
-8.5850 -9.7072 -2.9578 0.9482
-6.7444 -11.1028 -2.9651 0.9481
-2.4597 -12.8320 -2.9821 0.9478
5.5458 -11.9508 -3.0071 0.9474
7.5861 -10.7913 -3.0107 0.9473
8.5212 -10.0789 -3.0124 0.9473
9.3895 -9.2854 -3.0140 0.9473
10.1836 -8.4170 -3.0155 0.9472
10.8972 -7.4805 -3.0168 0.9472
12.0598 -5.4339 -3.0191 0.9472
12.4992 -4.3402 -3.0200 0.9472
12.8389 -3.2112 -3.0207 0.9471
13.0761 -2.0561 -3.0212 0.9471
13.2087 -0.8842 -3.0216 0.9471
12.9729 2.6369 -3.0215 0.9471
12.6852 3.7806 -3.0211 0.9471
10.6569 6.6372 -2.8655 0.9498
8.5193 9.2110 -2.8637 0.9498
5.7757 11.1202 -2.8600 0.9499
2.6286 12.2326 -2.8557 0.9500
1.5286 12.4114 -2.8542 0.9500
0.4176 12.4914 -2.8527 0.9500
-7.2865 10.8722 -2.9873 0.9477
-10.6009 7.6301 -2.9812 0.9478
-11.2335 6.6536 -2.9800 0.9478
-11.7769 5.6254 -2.9789 0.9479
-12.2272 4.5535 -2.9780 0.9479
-12.5808 3.4463 -2.9773 0.9479
-12.1144 0.0000 -2.9777 0.9513
-11.9396 -1.0669 -2.9464 0.9518
-11.5643 -3.1678 -2.9472 0.9518
-11.2402 -4.1859 -2.9482 0.9518
-4.3595 -2.5821 -1.2454 0.9793
-4.0328 -2.9026 -1.2213 0.9797
-3.8316 -3.3133 -1.2451 0.9794
-3.8208 -3.9507 -1.3509 0.9776
-7.5729 -9.3731 -2.9619 0.9516
-5.8047 -10.5923 -2.9689 0.9515
-3.8448 -11.4838 -2.9767 0.9513
-1.7527 -12.0173 -2.9851 0.9512
-0.6771 -12.1431 -2.9894 0.9511
0.4070 -12.1730 -2.9938 0.9511
6.5871 -10.3186 -3.0091 0.9508
7.4835 -9.6966 -3.0107 0.9508
8.3210 -8.9966 -3.0122 0.9508
10.4157 -6.4870 -3.0161 0.9507
11.7699 -3.5078 -3.0188 0.9507
12.2594 0.8207 -3.0201 0.9506
11.1970 5.0451 -3.0187 0.9507
10.1571 5.7142 -2.8646 0.9531
9.6052 6.5936 -2.8637 0.9531
7.5182 8.8926 -2.8623 0.9532
6.6943 9.5228 -2.8612 0.9532
1.9317 11.4522 -2.8547 0.9533
0.9043 11.5729 -2.8533 0.9533
-0.1292 11.6016 -2.8518 0.9533
-0.4845 4.8158 -1.1897 0.9803
-3.1829 11.1313 -2.8457 0.9534
-7.2091 9.7843 -2.9873 0.9512
-8.0472 9.0991 -2.9858 0.9512
-8.8209 8.3428 -2.9843 0.9512
-12.0078 1.6149 -2.9781 0.9513
-11.9975 -0.5350 -2.9519 0.9517
-11.6926 -2.6492 -2.9469 0.9518
-11.4134 -3.6803 -2.9477 0.9518
-3.9156 -3.0921 -1.2264 0.9797
-3.7902 -3.5847 -1.2823 0.9787
-7.1519 -9.7066 -2.9636 0.9516
-5.3305 -10.8472 -2.9708 0.9514
-4.3496 -11.2935 -2.9747 0.9514
-1.2165 -12.0922 -2.9873 0.9512
0.9496 -12.1517 -2.9960 0.9510
3.0961 -11.8178 -3.0028 0.9509
6.1192 -10.5988 -3.0082 0.9508
7.9100 -9.3560 -3.0115 0.9508
8.7156 -8.6191 -3.0129 0.9508
10.6962 -6.0176 -3.0166 0.9507
11.9157 -2.9803 -3.0191 0.9507
12.1356 -1.9082 -3.0196 0.9507
12.2837 0.2737 -3.0201 0.9506
12.2105 1.3660 -3.0201 0.9506
12.0398 2.4472 -3.0199 0.9507
11.7728 3.5087 -3.0195 0.9507
11.4119 4.5418 -3.0190 0.9507
10.7485 5.4314 -2.9601 0.9516
9.8910 6.1601 -2.8642 0.9531
9.3004 7.0138 -2.8632 0.9532
8.6410 7.8153 -2.8638 0.9531
5.3620 10.3236 -2.8594 0.9532
4.4199 10.7551 -2.8581 0.9532
1.4193 11.5240 -2.8540 0.9533
-0.6860 4.7037 -1.1684 0.9806
-2.6859 11.2708 -2.8480 0.9534
-4.6279 10.5843 -2.8394 0.9535
-6.7679 10.0984 -2.9881 0.9512
-8.4425 8.7295 -2.9850 0.9512
-9.8479 7.0881 -2.9824 0.9512
-10.4358 6.1811 -2.9813 0.9513
-10.9409 5.2261 -2.9803 0.9513
-11.6882 3.2017 -2.9788 0.9513
-11.9247 2.1483 -2.9783 0.9513
-11.1500 -0.9964 -2.9497 0.9547
-11.0178 -1.9850 -2.9499 0.9547
-10.7994 -2.9583 -2.9505 0.9547
-10.4965 -3.9089 -2.9514 0.9547
-4.4140 -2.6144 -1.3518 0.9790
-4.0771 -2.9345 -1.3237 0.9794
-3.9783 -4.1135 -1.5079 0.9766
-7.0692 -8.7497 -2.9640 0.9545
-4.5218 -10.3416 -2.9741 0.9544
-2.6232 -11.0075 -2.9817 0.9543
0.3797 -11.3555 -2.9939 0.9541
1.3908 -11.2926 -2.9981 0.9540
2.3933 -11.1374 -3.0017 0.9540
3.3770 -10.8865 -3.0034 0.9539
4.3350 -10.5486 -3.0051 0.9539
6.1433 -9.6232 -3.0084 0.9539
6.9789 -9.0428 -3.0099 0.9538
8.4794 -7.6692 -3.0126 0.9538
10.2154 -5.1621 -3.0159 0.9538
11.3838 -1.2735 -3.0183 0.9537
11.4304 0.7652 -3.0186 0.9537
11.3166 1.7795 -3.0186 0.9537
11.1124 2.7794 -3.0183 0.9537
10.8195 3.7569 -3.0179 0.9537
10.4402 4.7041 -3.0173 0.9537
9.4707 5.3281 -2.8633 0.9560
8.9563 6.1482 -2.8625 0.9561
8.3708 6.9187 -2.8616 0.9561
7.7244 7.6388 -2.8626 0.9561
5.4258 9.3979 -2.8594 0.9561
4.5660 9.8395 -2.8583 0.9561
2.7467 10.4840 -2.8558 0.9562
1.8018 10.6820 -2.8545 0.9562
0.8435 10.7949 -2.8531 0.9562
-0.1206 10.8221 -2.8518 0.9562
-2.0355 10.6192 -2.8491 0.9563
-3.8768 10.0660 -2.8423 0.9564
-5.0065 10.1879 -2.9911 0.9541
-6.7265 9.1294 -2.9880 0.9542
-8.2311 7.7849 -2.9853 0.9542
-9.4735 6.1973 -2.9830 0.9543
-9.9843 5.3278 -2.9820 0.9543
-11.0292 2.4989 -2.9799 0.9543
-11.2950 0.5037 -2.9792 0.9543
-11.2146 -0.5001 -2.9580 0.9546
-11.0947 -1.4921 -2.9498 0.9547
-10.3140 -4.3735 -2.9520 0.9547
-4.2254 -2.7641 -1.3305 0.9793
-3.9605 -3.1276 -1.3298 0.9793
-3.8520 -3.6432 -1.3971 0.9783
-7.4483 -8.4219 -2.9625 0.9546
-6.6760 -9.0607 -2.9656 0.9545
-3.1089 -10.8726 -2.9798 0.9543
-0.1265 -11.3532 -2.9917 0.9541
0.8858 -11.3353 -2.9960 0.9541
2.8879 -11.0229 -3.0026 0.9540
3.8597 -10.7283 -3.0043 0.9539
6.5675 -9.3424 -3.0091 0.9539
7.3766 -8.7250 -3.0106 0.9538
8.1276 -8.0375 -3.0120 0.9538
8.8144 -7.2853 -3.0132 0.9538
9.4315 -6.4744 -3.0144 0.9538
10.4367 -4.7026 -3.0163 0.9538
11.3152 -1.7792 -3.0182 0.9537
11.3849 1.2736 -3.0186 0.9537
11.2257 2.2817 -3.0185 0.9537
10.9769 3.2715 -3.0181 0.9537
10.6404 4.2348 -3.0176 0.9537
10.2192 5.1640 -3.0170 0.9537
8.0529 7.2834 -2.8611 0.9561
7.3751 7.9738 -2.8620 0.9561
6.6338 8.5956 -2.8610 0.9561
5.8402 9.1486 -2.8600 0.9561
5.0008 9.6283 -2.8588 0.9561
3.2117 10.3535 -2.8564 0.9561
1.3239 10.7491 -2.8538 0.9562
0.3618 10.8192 -2.8525 0.9562
-0.6860 4.7037 -1.2525 0.9805
-2.5060 10.5156 -2.8484 0.9563
-6.3148 9.4223 -2.9888 0.9542
-9.1897 6.6144 -2.9835 0.9542
-10.2102 4.8770 -2.9815 0.9543
-11.2618 1.0064 -2.9793 0.9543
-10.5928 0.0000 -2.9804 0.9569
-10.4558 -0.9343 -2.9535 0.9573
-10.3287 -1.8608 -2.9528 0.9573
-10.1239 -2.7732 -2.9534 0.9573
-4.5067 -2.6694 -1.4737 0.9785
-6.6249 -8.1996 -2.9659 0.9571
-2.4573 -10.3115 -2.9825 0.9569
-1.5317 -10.5026 -2.9862 0.9569
0.3556 -10.6354 -2.9940 0.9567
1.3025 -10.5755 -2.9980 0.9567
7.2653 -7.8552 -3.0105 0.9565
7.9389 -7.1803 -3.0117 0.9565
8.5497 -6.4476 -3.0129 0.9565
9.0928 -5.6630 -3.0139 0.9565
9.5636 -4.8327 -3.0148 0.9565
9.9584 -3.9633 -3.0156 0.9564
10.2738 -3.0619 -3.0162 0.9564
10.5073 -2.1357 -3.0167 0.9564
10.6569 -1.1922 -3.0171 0.9564
10.7215 -0.2389 -3.0173 0.9564
10.5939 1.6658 -3.0173 0.9564
10.4028 2.6019 -3.0171 0.9564
10.1287 3.5171 -3.0167 0.9564
9.7738 4.4039 -3.0162 0.9564
9.3410 5.2551 -3.0155 0.9564
8.3849 5.7559 -2.8615 0.9586
7.2268 7.1467 -2.8596 0.9586
6.5650 7.7650 -2.8609 0.9586
4.2756 9.2135 -2.8578 0.9587
3.4371 9.5537 -2.8567 0.9587
2.5721 9.8176 -2.8555 0.9587
0.7900 10.1094 -2.8530 0.9587
-0.4846 4.8170 -1.3621 0.9801
-1.9064 9.9458 -2.8492 0.9588
-2.7819 9.7290 -2.8470 0.9588
-4.4511 9.0579 -2.8396 0.9589
-5.5175 9.0831 -2.9901 0.9568
-7.7109 7.2929 -2.9861 0.9569
-8.3262 6.5751 -2.9850 0.9569
-9.3539 4.9914 -2.9830 0.9569
-9.7585 4.1380 -2.9823 0.9569
-10.0858 3.2523 -2.9816 0.9569
-10.5405 -0.4700 -2.9686 0.9571
-10.4009 -1.3988 -2.9527 0.9573
-9.9916 -3.2219 -2.9537 0.9573
-9.6685 -4.0998 -2.9548 0.9573
-4.8110 -2.5672 -1.5343 0.9776
-6.9803 -7.8927 -2.9645 0.9572
-6.2560 -8.4907 -2.9673 0.9571
-5.4811 -9.0231 -2.9704 0.9571
-4.6613 -9.4855 -2.9737 0.9570
-3.8029 -9.8741 -2.9771 0.9570
4.4965 -9.6897 -3.0055 0.9566
5.3438 -9.2557 -3.0070 0.9566
6.1494 -8.7476 -3.0085 0.9565
7.6096 -7.5253 -3.0111 0.9565
8.2525 -6.8209 -3.0123 0.9565
8.8300 -6.0614 -3.0134 0.9565
9.3375 -5.2531 -3.0144 0.9565
10.5089 2.1360 -3.0172 0.9564
10.2760 3.0626 -3.0169 0.9564
8.6468 5.3853 -2.8661 0.9586
8.1190 6.1228 -2.8611 0.9586
7.5393 6.8189 -2.8601 0.9586
6.2114 8.0484 -2.8604 0.9586
5.4685 8.5663 -2.8594 0.9586
4.6827 9.0157 -2.8583 0.9587
3.0075 9.6953 -2.8561 0.9587
2.1318 9.9204 -2.8549 0.9587
0.3388 10.1323 -2.8524 0.9587
-0.5641 10.1178 -2.8511 0.9588
-2.3471 9.8488 -2.8486 0.9588
-3.2104 9.5889 -2.8451 0.9589
-4.0457 9.2528 -2.8413 0.9589
-8.6093 6.1966 -2.9845 0.9569
-9.9319 3.6987 -2.9819 0.9569
-10.2197 2.7995 -2.9813 0.9569
-9.9588 0.0000 -2.9815 0.9593
-9.7154 -1.7503 -2.9554 0.9596
-9.5226 -2.6085 -2.9559 0.9596
-9.2552 -3.4467 -2.9567 0.9596
-8.9150 -4.2583 -2.9578 0.9596
-4.0529 -3.5047 -1.6041 0.9779
-5.5238 -8.2422 -2.9705 0.9594
-4.7731 -8.7098 -2.9734 0.9594
-2.3101 -9.6934 -2.9833 0.9592
-1.4398 -9.8723 -2.9868 0.9592
0.3342 -9.9956 -2.9942 0.9591
2.1062 -9.8014 -3.0013 0.9590
3.8145 -9.2820 -3.0044 0.9590
6.1398 -7.9555 -3.0085 0.9589
6.8263 -7.3805 -3.0098 0.9589
7.4590 -6.7463 -3.0110 0.9589
8.0327 -6.0578 -3.0120 0.9589
8.5428 -5.3205 -3.0130 0.9588
9.3556 -3.7235 -3.0146 0.9588
9.6519 -2.8765 -3.0152 0.9588
9.8711 -2.0064 -3.0156 0.9588
10.0723 -0.2244 -3.0162 0.9588
10.0525 0.6729 -3.0162 0.9588
9.9524 1.5650 -3.0162 0.9588
9.5155 3.3042 -3.0156 0.9588
7.8776 5.4076 -2.8606 0.9609
6.7898 6.7146 -2.8588 0.9609
6.1683 7.2958 -2.8602 0.9609
4.7739 8.2687 -2.8584 0.9609
2.4171 9.2257 -2.8552 0.9610
1.5857 9.4004 -2.8541 0.9610
-0.4846 4.8176 -1.4496 0.9800
-2.6149 9.1449 -2.8475 0.9611
-5.9229 8.0387 -2.9893 0.9592
-6.6121 7.4765 -2.9881 0.9592
-7.2484 6.8556 -2.9869 0.9592
-8.7935 4.6924 -2.9840 0.9592
-9.9491 0.4436 -2.9815 0.9593
-9.9388 -0.4432 -2.9784 0.9593
-9.3981 -3.0305 -2.9563 0.9596
-9.0941 -3.8562 -2.9572 0.9596
-5.0235 -2.6806 -1.7047 0.9765
-4.3845 -2.8682 -1.5686 0.9784
-4.1116 -3.2469 -1.5685 0.9784
-6.5642 -7.4223 -2.9664 0.9595
-5.8828 -7.9842 -2.9691 0.9594
-4.3826 -8.9184 -2.9750 0.9594
-2.7380 -9.5753 -2.9816 0.9593
-1.8771 -9.7925 -2.9850 0.9592
-0.9992 -9.9326 -2.9886 0.9592
-0.1113 -9.9944 -2.9923 0.9591
2.5414 -9.7003 -3.0021 0.9590
5.7780 -8.2193 -3.0079 0.9589
7.1497 -7.0705 -3.0104 0.9589
8.2960 -5.6949 -3.0125 0.9589
8.7726 -4.9353 -3.0134 0.9588
9.5132 -3.3033 -3.0149 0.9588
9.9513 -1.5648 -3.0158 0.9588
10.0725 0.2245 -3.0162 0.9588
10.0125 1.1201 -3.0162 0.9588
9.8725 2.0067 -3.0161 0.9588
8.3086 5.1746 -2.9304 0.9600
7.6278 5.7524 -2.8602 0.9609
5.1384 8.0492 -2.8589 0.9609
1.1651 9.4598 -2.8535 0.9610
-0.5302 9.5087 -2.8511 0.9610
-0.6860 4.7036 -1.4231 0.9803
-3.0178 9.0136 -2.8457 0.9611
-4.8019 8.7623 -2.9913 0.9591
-6.2738 7.7652 -2.9887 0.9592
-6.9372 7.1731 -2.9875 0.9592
-8.5770 5.0802 -2.9844 0.9592
-9.3371 3.4772 -2.9829 0.9593
-9.6078 2.6318 -2.9824 0.9593
-9.3910 0.0000 -2.9824 0.9614
-9.2906 -0.8302 -2.9623 0.9616
-8.9837 -2.4609 -2.9582 0.9617
-8.7313 -3.2516 -2.9590 0.9617
-4.7983 -2.8420 -1.7711 0.9769
-6.4947 -6.7155 -2.9670 0.9616
-5.2098 -7.7736 -2.9719 0.9615
-4.5014 -8.2141 -2.9747 0.9615
-3.7562 -8.5907 -2.9777 0.9614
-2.9798 -8.9002 -2.9808 0.9614
-1.3575 -9.3081 -2.9874 0.9613
-0.5243 -9.4027 -2.9908 0.9612
0.3151 -9.4231 -2.9943 0.9612
1.1539 -9.3686 -2.9978 0.9612
1.9854 -9.2391 -3.0012 0.9611
2.8012 -9.0301 -3.0026 0.9611
3.5954 -8.7490 -3.0040 0.9611
4.3619 -8.3981 -3.0054 0.9611
5.7867 -7.4981 -3.0080 0.9610
6.4337 -6.9560 -3.0092 0.9610
7.0298 -6.3581 -3.0102 0.9610
8.8167 -3.5090 -3.0137 0.9610
9.3023 -1.8908 -3.0147 0.9609
9.4347 -1.0554 -3.0150 0.9609
9.4918 -0.2115 -3.0152 0.9609
9.4731 0.6341 -3.0152 0.9609
9.3788 1.4748 -3.0152 0.9609
8.9671 3.1137 -3.0146 0.9609
8.6531 3.8989 -3.0142 0.9610
8.2701 4.6527 -3.0136 0.9610
5.8084 6.8702 -2.8571 0.9629
5.1769 7.3643 -2.8588 0.9629
4.4997 7.7937 -2.8580 0.9629
3.0444 8.4620 -2.8560 0.9630
1.4947 8.8611 -2.8539 0.9630
-2.4654 8.6222 -2.8480 0.9631
-5.5844 7.5792 -2.9899 0.9613
-7.3802 5.8281 -2.9866 0.9613
-7.8672 5.1465 -2.9856 0.9613
-8.6507 3.6682 -2.9841 0.9613
-9.1608 2.0756 -2.9831 0.9613
-9.2298 -1.2413 -2.9576 0.9617
-9.0836 -2.0581 -2.9579 0.9617
-8.5792 -3.6379 -2.9595 0.9616
-8.2247 -4.3888 -2.9607 0.9616
-4.5155 -2.9539 -1.7136 0.9776
-5.5485 -7.5305 -2.9706 0.9615
-3.3715 -8.7540 -2.9792 0.9614
-2.5817 -9.0290 -2.9824 0.9614
-1.7698 -9.2332 -2.9857 0.9613
0.7349 -9.4051 -2.9960 0.9612
6.1163 -7.2343 -3.0086 0.9610
6.7384 -6.6637 -3.0097 0.9610
7.3073 -6.0397 -3.0108 0.9610
7.8184 -5.3670 -3.0117 0.9610
8.6507 -3.8978 -3.0133 0.9610
8.9652 -3.1130 -3.0140 0.9610
9.3778 -1.4746 -3.0148 0.9609
9.4727 -0.6341 -3.0151 0.9609
9.4919 0.2115 -3.0152 0.9609
9.3036 1.8910 -3.0151 0.9609
8.8189 3.5098 -3.0144 0.9609
8.0538 5.0159 -3.0132 0.9610
6.6756 6.0377 -2.8586 0.9629
6.1097 6.6058 -2.8576 0.9629
5.5003 7.1270 -2.8591 0.9629
4.8433 7.5868 -2.8586 0.9629
1.8883 8.7874 -2.8544 0.9630
1.0983 8.9172 -2.8533 0.9630
0.3001 8.9760 -2.8522 0.9630
-4.2972 7.8414 -2.8397 0.9632
-5.9153 7.3215 -2.9893 0.9613
-7.6313 5.4927 -2.9861 0.9613
-8.4796 4.0504 -2.9845 0.9613
-8.8046 3.2789 -2.9838 0.9613
-9.2436 1.6653 -2.9829 0.9613
-9.3542 0.8359 -2.9826 0.9614
-8.6700 -1.5620 -2.9598 0.9635
-8.4977 -2.3278 -2.9603 0.9635
-7.9550 -3.7998 -2.9620 0.9635
-7.5885 -4.4946 -2.9633 0.9635
-2.8174 -8.4153 -2.9816 0.9632
-2.0594 -8.6415 -2.9847 0.9632
-0.4956 -8.8888 -2.9911 0.9631
1.0906 -8.8553 -2.9977 0.9631
1.8766 -8.7328 -3.0010 0.9630
2.6476 -8.5350 -3.0024 0.9630
3.3983 -8.2692 -3.0037 0.9630
4.8146 -7.5420 -3.0063 0.9629
7.1542 -5.3952 -3.0106 0.9629
7.6082 -4.7384 -3.0114 0.9629
8.0017 -4.0434 -3.0122 0.9629
8.7904 -1.7867 -3.0138 0.9629
8.9693 -0.1999 -3.0143 0.9629
8.8626 1.3936 -3.0143 0.9629
7.3713 5.0601 -3.0040 0.9630
6.5574 5.4198 -2.8583 0.9647
5.4892 6.4926 -2.8566 0.9648
1.4128 8.3754 -2.8537 0.9648
-0.4848 4.8188 -1.6272 0.9798
-2.3307 8.1509 -2.8483 0.9649
-3.7304 7.5911 -2.8418 0.9649
-5.2795 7.1654 -2.9903 0.9631
-5.8941 6.6646 -2.9892 0.9632
-6.4616 6.1113 -2.9882 0.9632
-7.4382 4.8659 -2.9864 0.9632
-7.8398 4.1834 -2.9856 0.9632
-8.6616 1.9625 -2.9839 0.9632
-8.8705 -0.3955 -2.9833 0.9632
-8.3865 -2.7043 -2.9606 0.9635
-7.7794 -4.1512 -2.9626 0.9635
-4.7668 -3.1183 -1.9138 0.9763
-6.4170 -6.0691 -2.9676 0.9634
-5.8555 -6.6209 -2.9697 0.9634
-5.2471 -7.1215 -2.9720 0.9634
-3.9082 -7.9530 -2.9773 0.9633
-2.4410 -8.5368 -2.9832 0.9632
-1.6733 -8.7293 -2.9863 0.9632
-0.8906 -8.8531 -2.9895 0.9631
-0.0992 -8.9069 -2.9928 0.9631
0.6947 -8.8902 -2.9961 0.9631
1.4849 -8.8028 -2.9994 0.9630
3.0259 -8.4105 -3.0031 0.9630
3.7641 -8.1113 -3.0044 0.9630
4.4730 -7.7474 -3.0057 0.9630
5.1469 -7.3215 -3.0069 0.9629
7.8127 -4.3953 -3.0118 0.9629
8.4719 -2.9417 -3.0131 0.9629
8.8617 -1.3934 -3.0140 0.9629
8.9513 -0.5992 -3.0142 0.9629
8.9695 0.1999 -3.0143 0.9628
8.9161 0.9974 -3.0143 0.9628
8.7915 1.7869 -3.0142 0.9629
8.3336 3.3167 -3.0135 0.9629
8.0041 4.0446 -3.0131 0.9629
7.6107 4.7400 -3.0124 0.9629
6.3086 5.7057 -2.8579 0.9647
5.1937 6.7296 -2.8561 0.9648
4.5774 7.1703 -2.8581 0.9647
3.2314 7.8632 -2.8563 0.9648
1.0381 8.4285 -2.8532 0.9648
-2.6899 8.0343 -2.8467 0.9649
-3.3904 7.7541 -2.8434 0.9649
-4.0625 7.4132 -2.8402 0.9650
-5.5924 6.9218 -2.9898 0.9631
-6.1840 6.3943 -2.9887 0.9632
-6.7263 5.8165 -2.9877 0.9632
-7.2151 5.1931 -2.9868 0.9632
-7.6466 4.5291 -2.9860 0.9632
-8.0174 3.8296 -2.9852 0.9632
-8.5662 2.3466 -2.9841 0.9632
-8.8446 0.7904 -2.9835 0.9632
-8.3612 -0.7471 -2.9766 0.9650
-8.2203 -1.4810 -2.9617 0.9652
-6.3317 -5.4752 -2.9681 0.9651
-3.3664 -7.6993 -2.9796 0.9650
-1.9517 -8.1898 -2.9853 0.9649
1.0334 -8.3905 -2.9977 0.9648
3.9058 -7.5200 -3.0047 0.9647
6.2937 -5.6923 -3.0090 0.9646
7.8926 -3.1412 -3.0121 0.9646
8.1422 -2.4266 -3.0126 0.9646
8.4454 -0.9447 -3.0133 0.9646
8.0270 2.7873 -3.0130 0.9646
7.7460 3.4902 -3.0125 0.9646
7.4033 4.1650 -3.0120 0.9646
6.2120 5.1343 -2.8577 0.9664
5.7288 5.6653 -2.8569 0.9664
5.2002 6.1509 -2.8560 0.9664
4.0290 6.9785 -2.8573 0.9664
2.0403 7.7877 -2.8546 0.9664
0.6268 8.0206 -2.8526 0.9664
-0.0896 8.0417 -2.8517 0.9664
-2.2084 7.7232 -2.8483 0.9665
-5.5858 6.3159 -2.9897 0.9648
-6.1237 5.7918 -2.9887 0.9649
-6.6129 5.2222 -2.9878 0.9649
-7.4302 3.9649 -2.9863 0.9649
-8.0123 2.5837 -2.9851 0.9649
-8.4076 0.3749 -2.9842 0.9649
-7.6938 -3.2625 -2.9633 0.9652
-7.3756 -3.9358 -2.9643 0.9651
-6.9992 -4.5786 -2.9657 0.9651
-5.5509 -6.2765 -2.9711 0.9651
-4.3569 -7.1724 -2.9757 0.9650
-3.7044 -7.5383 -2.9783 0.9650
-3.0216 -7.8452 -2.9810 0.9649
-1.5857 -8.2728 -2.9868 0.9649
4.8761 -6.9364 -3.0065 0.9647
5.4761 -6.4772 -3.0075 0.9646
6.0329 -5.9661 -3.0086 0.9646
6.5421 -5.4071 -3.0095 0.9646
6.9994 -4.8048 -3.0104 0.9646
7.7441 -3.4893 -3.0118 0.9646
8.2428 -2.0616 -3.0128 0.9646
8.3945 -1.3200 -3.0132 0.9646
8.4794 -0.5676 -3.0134 0.9646
8.3280 1.6927 -3.0134 0.9646
8.1436 2.4271 -3.0131 0.9646
7.5822 3.8314 -3.0123 0.9646
6.6184 4.9912 -2.9393 0.9654
4.9203 6.3753 -2.8556 0.9664
4.3318 6.7857 -2.8546 0.9664
3.0617 7.4502 -2.8561 0.9664
2.3856 7.6904 -2.8551 0.9664
1.6911 7.8696 -2.8541 0.9664
0.9836 7.9861 -2.8531 0.9664
0.2688 8.0391 -2.8521 0.9664
-2.5488 7.6131 -2.8468 0.9665
-3.2129 7.3480 -2.8437 0.9665
-3.8500 7.0254 -2.8406 0.9666
-4.6966 7.0079 -2.9913 0.9648
-5.2998 6.5596 -2.9902 0.9648
-5.8606 6.0598 -2.9892 0.9649
-6.3746 5.5124 -2.9883 0.9649
-6.8380 4.9217 -2.9874 0.9649
-7.5986 3.6296 -2.9859 0.9649
-8.3828 0.7491 -2.9843 0.9649
-7.9935 0.0000 -2.9849 0.9664
-7.9578 -0.7111 -2.9834 0.9665
-7.4398 -2.7706 -2.9645 0.9667
-6.4509 -4.6431 -2.9679 0.9666
-3.8326 -6.9937 -2.9779 0.9665
-3.1976 -7.3132 -2.9805 0.9665
-2.5363 -7.5755 -2.9831 0.9665
-0.4460 -7.9992 -2.9917 0.9664
0.2680 -8.0151 -2.9946 0.9663
0.9813 -7.9674 -2.9976 0.9663
1.6882 -7.8562 -3.0006 0.9663
2.3819 -7.6786 -3.0020 0.9663
4.3309 -6.7843 -3.0055 0.9662
5.9754 -5.4044 -3.0085 0.9662
6.4346 -4.8525 -3.0094 0.9662
6.8427 -4.2616 -3.0101 0.9662
7.1964 -3.6365 -3.0108 0.9662
7.4930 -2.9821 -3.0114 0.9662
7.7299 -2.3037 -3.0119 0.9661
7.9053 -1.6068 -3.0123 0.9661
8.0177 -0.8969 -3.0125 0.9661
8.0502 0.5389 -3.0128 0.9661
7.3538 3.3134 -3.0118 0.9661
7.0285 3.9542 -3.0114 0.9662
5.4390 5.3787 -2.8563 0.9679
4.9372 5.8398 -2.8555 0.9679
4.3965 6.2541 -2.8546 0.9679
3.8211 6.6183 -2.8537 0.9679
3.2196 6.9383 -2.8562 0.9679
2.5886 7.1952 -2.8554 0.9679
1.9374 7.3950 -2.8545 0.9679
-0.0851 7.6364 -2.8517 0.9679
-2.0969 7.3334 -2.8481 0.9680
-4.1602 6.8487 -2.9923 0.9664
-5.3050 5.9984 -2.9902 0.9664
-6.2807 4.9598 -2.9884 0.9664
-6.6954 4.3800 -2.9876 0.9664
-7.3627 3.1221 -2.9863 0.9664
-7.9855 -0.3561 -2.9848 0.9664
-7.8735 -1.0589 -2.9665 0.9666
-7.3100 -3.0997 -2.9649 0.9667
-7.0076 -3.7393 -2.9660 0.9667
-6.2393 -4.9271 -2.9687 0.9666
-5.2733 -5.9626 -2.9723 0.9666
-3.5187 -7.1604 -2.9792 0.9665
-2.8699 -7.4517 -2.9818 0.9665
-2.1973 -7.6845 -2.9845 0.9664
-1.5061 -7.8570 -2.9873 0.9664
-0.8015 -7.9675 -2.9902 0.9664
-0.0893 -8.0151 -2.9931 0.9664
0.6251 -7.9992 -2.9961 0.9663
1.3359 -7.9197 -2.9991 0.9663
2.7222 -7.5663 -3.0026 0.9662
4.0237 -6.9692 -3.0050 0.9662
4.6297 -6.5858 -3.0061 0.9662
5.1993 -6.1497 -3.0071 0.9662
5.7279 -5.6644 -3.0081 0.9662
6.2111 -5.1336 -3.0090 0.9662
7.0265 -3.9530 -3.0105 0.9662
7.8254 -1.9572 -3.0121 0.9661
8.0499 -0.5389 -3.0126 0.9661
7.9062 1.6070 -3.0126 0.9661
7.4946 2.9828 -3.0121 0.9661
6.8448 4.2629 -3.0111 0.9662
6.4368 4.8542 -3.0104 0.9662
5.6739 5.1317 -2.8567 0.9679
5.1932 5.6148 -2.8559 0.9679
4.1129 6.4426 -2.8542 0.9679
3.5219 6.7808 -2.8532 0.9679
2.9071 7.0740 -2.8559 0.9679
2.2653 7.3026 -2.8550 0.9679
1.6058 7.4727 -2.8541 0.9679
0.9340 7.5834 -2.8531 0.9679
-0.6860 4.7035 -1.7749 0.9799
-2.4203 7.2291 -2.8467 0.9680
-3.0510 6.9779 -2.8438 0.9680
-5.5660 5.7552 -2.9897 0.9664
-6.0543 5.2354 -2.9888 0.9664
-6.4945 4.6745 -2.9880 0.9664
-6.8831 4.0768 -2.9872 0.9664
-7.2170 3.4473 -2.9866 0.9664
-7.8678 1.4175 -2.9852 0.9664
-7.9621 0.7115 -2.9850 0.9664
-7.4351 -1.3395 -2.9651 0.9681
-6.8213 -3.2582 -2.9669 0.9680
-5.7257 -4.9512 -2.9708 0.9680
-5.2653 -5.4443 -2.9726 0.9680
-4.7629 -5.8952 -2.9745 0.9680
-4.2223 -6.3002 -2.9766 0.9679
-3.0431 -6.9599 -2.9812 0.9679
-1.7639 -7.4019 -2.9864 0.9678
-1.0991 -7.5364 -2.9891 0.9678
0.9336 -7.5803 -2.9975 0.9677
2.2661 -7.3052 -3.0019 0.9677
2.9085 -7.0773 -3.0030 0.9677
5.6843 -5.1411 -3.0080 0.9676
6.1210 -4.6161 -3.0089 0.9676
6.5092 -4.0539 -3.0096 0.9676
7.3530 -2.1914 -3.0113 0.9676
7.6727 -0.1710 -3.0120 0.9676
7.5814 1.1921 -3.0120 0.9676
7.2488 2.5171 -3.0116 0.9676
6.9951 3.1519 -3.0112 0.9676
6.3233 4.3407 -3.0102 0.9676
5.9106 4.8852 -3.0095 0.9676
5.1740 5.1166 -2.8559 0.9692
3.6351 6.2961 -2.8533 0.9692
3.0592 6.5924 -2.8523 0.9693
2.4628 6.8456 -2.8553 0.9692
1.2094 7.1693 -2.8535 0.9692
-1.3671 7.1319 -2.8500 0.9693
-2.6054 6.7649 -2.8452 0.9693
-3.1942 6.5000 -2.8424 0.9694
-3.9586 6.5168 -2.9926 0.9678
-5.0480 5.7079 -2.9906 0.9678
-6.7156 3.5836 -2.9875 0.9678
-7.5397 1.0140 -2.9858 0.9678
-7.4983 -1.0084 -2.9694 0.9680
-7.3685 -1.6695 -2.9652 0.9681
-7.1918 -2.3191 -2.9657 0.9681
-6.6705 -3.5595 -2.9674 0.9680
-5.9390 -4.6900 -2.9700 0.9680
-5.5010 -5.2028 -2.9717 0.9680
-3.3488 -6.8146 -2.9800 0.9679
-0.7627 -7.5814 -2.9905 0.9678
1.2710 -7.5348 -2.9990 0.9677
1.9381 -7.3975 -3.0013 0.9677
2.5898 -7.1984 -3.0025 0.9677
3.8279 -6.6301 -3.0047 0.9676
4.9461 -5.8503 -3.0067 0.9676
5.4489 -5.3885 -3.0076 0.9676
5.9085 -4.8835 -3.0085 0.9676
6.3214 -4.3393 -3.0092 0.9676
6.6840 -3.7604 -3.0099 0.9676
6.9936 -3.1511 -3.0105 0.9676
7.2475 -2.5166 -3.0110 0.9676
7.5807 -1.1920 -3.0118 0.9676
7.5206 1.5286 -3.0119 0.9676
7.3541 2.1918 -3.0117 0.9676
7.1291 2.8373 -3.0114 0.9676
6.8473 3.4601 -3.0110 0.9676
4.4440 5.7581 -2.8547 0.9692
1.5278 7.1095 -2.8540 0.9692
0.2429 7.2633 -2.8522 0.9693
-1.6828 7.0616 -2.8491 0.9693
-2.9029 6.6390 -2.8438 0.9693
-4.7895 5.9281 -2.9911 0.9678
-5.2965 5.4765 -2.9901 0.9678
-6.1801 4.4483 -2.9885 0.9678
-7.1314 2.6558 -2.9867 0.9678
-7.3384 2.0102 -2.9862 0.9678
-7.5771 0.6771 -2.9857 0.9678
-7.2518 0.0000 -2.9862 0.9691
-7.0908 -1.2775 -2.9669 0.9693
-6.9490 -1.9035 -2.9669 0.9693
-6.2042 -3.6748 -2.9693 0.9693
-5.0203 -5.1910 -2.9737 0.9692
-4.0256 -6.0066 -2.9775 0.9692
-3.4775 -6.3456 -2.9797 0.9692
-2.9011 -6.6351 -2.9820 0.9692
-2.3009 -6.8725 -2.9844 0.9691
0.2430 -7.2687 -2.9948 0.9690
1.5307 -7.1233 -3.0002 0.9690
2.1598 -6.9623 -3.0017 0.9690
2.7719 -6.7449 -3.0028 0.9689
4.4599 -5.7788 -3.0059 0.9689
4.9580 -5.3605 -3.0068 0.9689
5.4170 -4.8993 -3.0076 0.9689
5.8330 -4.3989 -3.0084 0.9689
6.7921 -2.7032 -3.0102 0.9689
7.1657 -1.4565 -3.0110 0.9689
7.3113 -0.1629 -3.0114 0.9689
7.2243 1.1360 -3.0114 0.9689
7.0942 1.7744 -3.0112 0.9689
6.0257 4.1364 -3.0096 0.9689
5.6325 4.6554 -3.0090 0.9689
2.3439 6.5150 -2.8511 0.9705
1.7568 6.7057 -2.8545 0.9705
1.1528 6.8333 -2.8536 0.9705
0.5397 6.9067 -2.8527 0.9705
-0.0771 6.9252 -2.8518 0.9705
-0.4850 4.8214 -1.9954 0.9793
-1.9010 6.6485 -2.8474 0.9705
-3.0444 6.1952 -2.8424 0.9706
-3.7733 6.2118 -2.9929 0.9690
-6.0737 3.9732 -2.9886 0.9691
-6.4018 3.4161 -2.9880 0.9691
-6.6793 2.8323 -2.9875 0.9691
-6.9038 2.2262 -2.9870 0.9691
-7.0737 1.6027 -2.9866 0.9691
-7.2447 0.3231 -2.9862 0.9691
-7.2445 -0.3230 -2.9861 0.9691
-7.0263 -1.5920 -2.9667 0.9693
-6.8579 -2.2114 -2.9671 0.9693
-6.6354 -2.8137 -2.9678 0.9693
-6.0356 -3.9483 -2.9699 0.9693
-3.1926 -6.4967 -2.9808 0.9692
-1.3661 -7.1269 -2.9881 0.9691
-0.7270 -7.2265 -2.9908 0.9691
1.2113 -7.1811 -2.9988 0.9690
1.8471 -7.0503 -3.0012 0.9690
3.0701 -6.6159 -3.0034 0.9689
3.6481 -6.3186 -3.0044 0.9689
4.1974 -5.9708 -3.0054 0.9689
4.7136 -5.5752 -3.0063 0.9689
5.1926 -5.1351 -3.0072 0.9689
6.3695 -3.5834 -3.0094 0.9689
7.2237 -1.1359 -3.0111 0.9689
7.3114 0.1629 -3.0114 0.9689
7.2679 0.8130 -3.0114 0.9689
7.1664 1.4566 -3.0113 0.9689
7.0078 2.0886 -3.0111 0.9689
5.8349 4.4003 -3.0093 0.9689
3.1930 6.1476 -2.8525 0.9705
1.4560 6.7761 -2.8539 0.9705
0.8470 6.8768 -2.8531 0.9705
0.2315 6.9228 -2.8523 0.9705
-0.6860 4.7034 -1.9573 0.9796
-1.6037 6.7294 -2.8486 0.9705
-2.7666 6.3275 -2.8437 0.9706
-3.3159 6.0508 -2.8412 0.9706
-4.0456 6.0366 -2.9924 0.9691
-5.4918 4.7490 -2.9897 0.9691
-5.8913 4.2403 -2.9890 0.9691
-6.7982 2.5317 -2.9872 0.9691
-7.1377 1.2859 -2.9865 0.9691
-7.2233 0.6455 -2.9863 0.9691
-6.8965 -0.6163 -2.9867 0.9703
-6.4496 -2.4019 -2.9688 0.9705
-6.2119 -2.9672 -2.9695 0.9705
-5.2135 -4.5083 -2.9731 0.9704
-4.3364 -5.3673 -2.9765 0.9704
-3.8440 -5.7356 -2.9784 0.9704
-2.7700 -6.3354 -2.9826 0.9703
-1.6054 -6.7367 -2.9873 0.9703
1.4612 -6.7996 -3.0000 0.9702
3.2096 -6.1794 -3.0036 0.9701
3.7480 -5.8711 -3.0046 0.9701
4.2570 -5.5159 -3.0055 0.9701
4.7324 -5.1166 -3.0064 0.9701
5.9204 -3.6872 -3.0086 0.9701
6.4828 -2.5801 -3.0097 0.9701
6.8392 -1.3901 -3.0105 0.9701
6.9644 0.4662 -3.0109 0.9701
6.0809 3.4211 -3.0097 0.9701
5.7513 3.9480 -3.0091 0.9701
5.3760 4.4434 -3.0085 0.9701
2.7829 5.9970 -2.8518 0.9716
1.6744 6.3912 -2.8499 0.9716
1.0986 6.5126 -2.8489 0.9716
0.5153 6.5937 -2.8529 0.9716
-0.4851 4.8221 -2.0905 0.9791
-1.2435 6.4872 -2.8493 0.9716
-1.8146 6.3459 -2.8471 0.9717
-2.3702 6.1542 -2.8447 0.9717
-3.6024 5.9304 -2.9931 0.9702
-4.5941 5.1946 -2.9913 0.9702
-5.0368 4.7638 -2.9905 0.9703
-5.4395 4.2955 -2.9898 0.9703
-5.7989 3.7935 -2.9891 0.9703
-6.1123 3.2617 -2.9885 0.9703
-6.7539 1.5302 -2.9872 0.9703
-6.9172 0.3085 -2.9868 0.9703
-6.8549 -0.9219 -2.9836 0.9703
-6.3370 -2.6871 -2.9691 0.9705
-5.4079 -4.2705 -2.9724 0.9704
-4.0943 -5.5569 -2.9774 0.9704
-3.5859 -5.9032 -2.9794 0.9704
-3.0484 -6.2033 -2.9815 0.9703
-2.4860 -6.4549 -2.9837 0.9703
-1.9032 -6.6558 -2.9861 0.9703
-0.0773 -6.9394 -2.9936 0.9702
1.1563 -6.8550 -2.9987 0.9702
1.7632 -6.7301 -3.0011 0.9701
2.3561 -6.5488 -3.0021 0.9701
2.9306 -6.3152 -3.0031 0.9701
3.4822 -6.0313 -3.0041 0.9701
4.9563 -4.9014 -3.0068 0.9701
6.0794 -3.4202 -3.0089 0.9701
6.3609 -2.8661 -3.0095 0.9701
6.5917 -2.2889 -3.0099 0.9701
6.9642 -0.4662 -3.0108 0.9701
6.9367 0.7760 -3.0109 0.9701
6.8399 1.3903 -3.0108 0.9701
6.6886 1.9934 -3.0106 0.9701
6.4839 2.5805 -3.0103 0.9701
6.2277 3.1470 -3.0099 0.9701
5.5692 4.1999 -3.0088 0.9701
5.1722 4.6779 -3.0082 0.9701
4.4936 4.8584 -2.8547 0.9716
3.5591 5.5751 -2.8531 0.9716
2.5126 6.1140 -2.8513 0.9716
0.8072 6.5539 -2.8484 0.9716
0.2210 6.6091 -2.8525 0.9716
-0.3680 6.6006 -2.8516 0.9716
-1.5307 6.4230 -2.8482 0.9716
-2.0946 6.2562 -2.8459 0.9717
-2.6409 6.0400 -2.8436 0.9717
-3.1657 5.7767 -2.8415 0.9717
-3.8624 5.7632 -2.9927 0.9702
-4.3587 5.3949 -2.9918 0.9702
-4.8203 4.9841 -2.9909 0.9702
-5.6248 4.0485 -2.9894 0.9703
-6.4908 2.4172 -2.9877 0.9703
-6.8150 1.2278 -2.9870 0.9703
-6.6204 0.0000 -2.9873 0.9714
-6.5941 -0.5892 -2.9872 0.9714
-6.4837 -1.1680 -2.9725 0.9715
-6.3471 -1.7386 -2.9694 0.9715
-5.9408 -2.8377 -2.9707 0.9715
-4.5846 -4.7404 -2.9757 0.9715
-4.1468 -5.1326 -2.9773 0.9715
-3.6758 -5.4846 -2.9792 0.9714
-3.1751 -5.7939 -2.9811 0.9714
-2.6487 -6.0577 -2.9832 0.9714
-2.1005 -6.2740 -2.9854 0.9714
-0.9563 -6.5572 -2.9901 0.9713
0.2218 -6.6337 -2.9949 0.9713
0.8120 -6.5931 -2.9974 0.9713
1.3968 -6.5000 -2.9999 0.9712
3.0681 -5.9070 -3.0034 0.9712
3.5828 -5.6123 -3.0044 0.9712
4.5236 -4.8909 -3.0061 0.9712
5.9514 -3.0073 -3.0087 0.9712
6.1964 -2.4661 -3.0092 0.9712
6.5371 -1.3287 -3.0099 0.9712
6.6699 -0.1486 -3.0103 0.9711
6.5905 1.0363 -3.0103 0.9711
6.4718 1.6187 -3.0101 0.9711
6.3016 2.1882 -3.0099 0.9712
6.0812 2.7400 -3.0096 0.9712
5.8123 3.2700 -3.0092 0.9712
5.4973 3.7737 -3.0087 0.9712
4.0836 4.8301 -2.8539 0.9726
3.1608 5.4747 -2.8524 0.9726
0.4917 6.2923 -2.8479 0.9727
-0.4852 4.8228 -2.1871 0.9790
-2.2657 5.8829 -2.8445 0.9727
-3.4441 5.6699 -2.9934 0.9713
-3.9340 5.3392 -2.9925 0.9713
-5.8441 3.1185 -2.9889 0.9713
-6.0975 2.5856 -2.9884 0.9714
-6.6139 0.2949 -2.9873 0.9714
-6.4178 -1.4541 -2.9692 0.9715
-6.0605 -2.5699 -2.9703 0.9715
-5.8094 -3.1000 -2.9712 0.9715
-5.5124 -3.6060 -2.9722 0.9715
-5.1717 -4.0840 -2.9735 0.9715
-4.7900 -4.5303 -2.9749 0.9715
-4.3701 -4.9413 -2.9765 0.9715
-3.9152 -5.3138 -2.9782 0.9715
-2.3770 -6.1719 -2.9843 0.9714
-1.8196 -6.3638 -2.9865 0.9714
-1.2470 -6.5056 -2.9889 0.9714
-0.0739 -6.6343 -2.9937 0.9713
0.5173 -6.6200 -2.9962 0.9713
1.1054 -6.5531 -2.9986 0.9713
2.2523 -6.2602 -3.0020 0.9712
2.8014 -6.0369 -3.0029 0.9712
3.3287 -5.7654 -3.0039 0.9712
4.3007 -5.0868 -3.0057 0.9712
4.7376 -4.6851 -3.0065 0.9712
5.4959 -3.7727 -3.0079 0.9712
6.5900 -1.0362 -3.0101 0.9711
6.6302 0.7417 -3.0103 0.9711
6.5377 1.3289 -3.0102 0.9711
6.1975 2.4665 -3.0098 0.9712
5.6605 3.5254 -3.0089 0.9712
4.3984 4.7555 -2.9229 0.9720
3.8639 5.0066 -2.8536 0.9726
3.4021 5.3292 -2.8528 0.9726
2.9134 5.6092 -2.8520 0.9726
0.7717 6.2653 -2.8483 0.9727
0.2112 6.3177 -2.8522 0.9726
-2.5245 5.7738 -2.8434 0.9727
-3.0728 5.6072 -2.8851 0.9723
-3.6928 5.5100 -2.9929 0.9713
-4.6086 4.7653 -2.9913 0.9713
-5.7000 3.3761 -2.9892 0.9713
-5.9767 2.8549 -2.9887 0.9714
-6.3383 0.0000 -2.9877 0.9724
-6.3131 -0.5641 -2.9877 0.9724
-6.2139 -1.1195 -2.9763 0.9725
-6.0780 -1.6649 -2.9706 0.9725
-5.6888 -2.7173 -2.9718 0.9725
-5.4261 -3.2138 -2.9727 0.9725
-5.1204 -3.6854 -2.9738 0.9725
-4.3898 -4.5390 -2.9765 0.9725
-2.5359 -5.7998 -2.9838 0.9724
-2.0110 -6.0067 -2.9859 0.9724
-1.4695 -6.1663 -2.9881 0.9724
-0.9155 -6.2774 -2.9903 0.9723
-0.3535 -6.3389 -2.9926 0.9723
0.2123 -6.3502 -2.9950 0.9723
0.7773 -6.3110 -2.9974 0.9723
1.3370 -6.2217 -2.9997 0.9723
2.4210 -5.8912 -3.0023 0.9722
2.9367 -5.6540 -3.0032 0.9722
3.8949 -5.0467 -3.0050 0.9722
4.3297 -4.6812 -3.0057 0.9722
5.4163 -3.3733 -3.0078 0.9722
5.6961 -2.8783 -3.0083 0.9722
5.9305 -2.3603 -3.0088 0.9722
6.1179 -1.8233 -3.0092 0.9722
6.3453 -0.7098 -3.0097 0.9722
5.5629 3.1296 -3.0087 0.9722
4.9182 4.0650 -3.0077 0.9722
4.5360 4.4857 -3.0071 0.9722
3.9851 4.7135 -2.9095 0.9731
3.0254 5.2401 -2.8521 0.9736
0.4707 6.0231 -2.8478 0.9736
-1.1375 5.9343 -2.8482 0.9736
-2.1686 5.6308 -2.8443 0.9737
-3.7661 5.1114 -2.9928 0.9723
-4.9789 3.9318 -2.9905 0.9723
-5.3080 3.4724 -2.9899 0.9723
-5.5950 2.9856 -2.9894 0.9723
-6.0339 1.9457 -2.9885 0.9724
-6.2822 0.8449 -2.9879 0.9724
-6.2818 -0.8448 -2.9878 0.9724
-6.1457 -1.3924 -2.9704 0.9725
-5.5629 -2.9685 -2.9722 0.9725
-4.5865 -4.3379 -2.9758 0.9725
-3.2830 -5.4046 -2.9808 0.9724
-2.7908 -5.6791 -2.9828 0.9724
-2.2758 -5.9090 -2.9848 0.9724
-1.7421 -6.0925 -2.9870 0.9724
-1.1938 -6.2280 -2.9892 0.9723
-0.6352 -6.3144 -2.9915 0.9723
-0.0707 -6.3508 -2.9938 0.9723
0.4952 -6.3369 -2.9962 0.9723
1.6134 -6.1583 -3.0009 0.9722
2.1559 -5.9922 -3.0018 0.9722
2.6815 -5.7783 -3.0028 0.9722
3.1861 -5.5184 -3.0037 0.9722
4.1164 -4.8688 -3.0054 0.9722
4.9168 -4.0638 -3.0068 0.9722
6.1933 -1.5491 -3.0093 0.9722
6.3072 -0.9917 -3.0096 0.9722
6.3708 -0.4265 -3.0097 0.9722
6.3836 0.1423 -3.0098 0.9722
6.3456 0.7099 -3.0098 0.9722
6.2570 1.2718 -3.0097 0.9722
6.1187 1.8236 -3.0095 0.9722
5.4176 3.3741 -3.0085 0.9722
4.3312 4.6828 -3.0068 0.9722
2.7886 5.3689 -2.8517 0.9736
2.2989 5.5941 -2.8509 0.9736
1.2699 5.9095 -2.8492 0.9736
0.7387 5.9971 -2.8483 0.9736
0.2022 6.0459 -2.8515 0.9736
-0.6860 4.7033 -2.2405 0.9792
-1.4003 5.8758 -2.8473 0.9736
-3.9894 4.9379 -2.9923 0.9723
-4.4121 4.5620 -2.9916 0.9723
-4.7994 4.1502 -2.9909 0.9723
-5.1486 3.7057 -2.9902 0.9723
-5.4569 3.2322 -2.9896 0.9723
-5.7220 2.7332 -2.9891 0.9723
-5.9416 2.2127 -2.9887 0.9724
-6.3134 0.5642 -2.9878 0.9724
-6.0754 0.0000 -2.9882 0.9733
-6.0512 -0.5407 -2.9882 0.9733
-5.9691 -1.0754 -2.9832 0.9733
-5.8270 -1.5962 -2.9716 0.9734
-5.6628 -2.1088 -2.9721 0.9734
-5.4538 -2.6051 -2.9728 0.9734
-5.2019 -3.0811 -2.9737 0.9734
-4.9087 -3.5331 -2.9747 0.9734
-4.5767 -3.9576 -2.9760 0.9734
-4.2082 -4.3512 -2.9774 0.9734
-3.3737 -5.0339 -2.9806 0.9733
-1.9276 -5.7574 -2.9863 0.9733
-1.4085 -5.9103 -2.9884 0.9733
-0.3387 -6.0753 -2.9928 0.9732
0.2035 -6.0859 -2.9951 0.9732
0.7449 -6.0482 -2.9973 0.9732
1.2813 -5.9624 -2.9996 0.9732
3.2862 -5.1478 -3.0039 0.9731
3.7324 -4.8361 -3.0047 0.9731
4.1491 -4.4859 -3.0055 0.9731
4.8809 -3.6808 -3.0068 0.9731
5.6828 -2.2617 -3.0084 0.9731
6.0802 -0.6802 -3.0092 0.9731
6.1169 -0.1363 -3.0093 0.9731
6.1048 0.4087 -3.0094 0.9731
6.0441 0.9504 -3.0093 0.9731
5.5771 2.5129 -3.0087 0.9731
5.0418 3.4610 -3.0079 0.9731
3.9459 4.6672 -3.0061 0.9731
3.3354 4.7447 -2.8526 0.9745
2.4401 5.2582 -2.8511 0.9745
0.4511 5.7722 -2.8477 0.9745
-0.0645 5.7947 -2.8503 0.9745
-0.4853 4.8242 -2.3848 0.9786
-1.0899 5.6862 -2.8477 0.9745
-2.5553 5.1999 -2.8497 0.9745
-3.1600 5.2022 -2.9938 0.9732
-4.0302 4.5571 -2.9922 0.9732
-4.4188 4.1793 -2.9915 0.9733
-4.7722 3.7686 -2.9909 0.9733
-5.5953 2.3726 -2.9893 0.9733
-5.9260 1.3426 -2.9886 0.9733
-6.0694 0.2706 -2.9882 0.9733
-5.8952 -1.3356 -2.9730 0.9734
-5.0603 -3.3103 -2.9742 0.9734
-4.3968 -4.1585 -2.9766 0.9734
-3.5935 -4.8772 -2.9797 0.9734
-2.6751 -5.4437 -2.9833 0.9733
-2.1814 -5.6639 -2.9853 0.9733
-1.1442 -5.9693 -2.9895 0.9733
-0.6088 -6.0519 -2.9917 0.9733
0.4746 -6.0731 -2.9962 0.9732
1.5462 -5.9016 -3.0007 0.9732
2.0660 -5.7425 -3.0017 0.9732
2.5697 -5.5375 -3.0026 0.9732
3.0532 -5.2883 -3.0035 0.9731
3.5128 -4.9969 -3.0043 0.9731
4.3453 -4.2971 -3.0058 0.9731
4.7116 -3.8942 -3.0065 0.9731
5.0405 -3.4601 -3.0071 0.9731
5.3294 -2.9983 -3.0077 0.9731
6.1046 -0.4087 -3.0093 0.9731
6.1169 0.1363 -3.0094 0.9731
5.9956 1.2187 -3.0093 0.9731
5.8630 1.7474 -3.0091 0.9731
5.4592 2.7587 -3.0085 0.9731
5.1913 3.2332 -3.0081 0.9731
4.5342 4.1010 -3.0070 0.9731
4.1504 4.4873 -3.0064 0.9731
3.6072 4.6740 -2.9039 0.9740
3.1204 4.8879 -2.8523 0.9745
2.2031 5.3609 -2.8507 0.9745
1.7167 5.5341 -2.8499 0.9745
-0.6859 4.7033 -2.3378 0.9790
-1.3418 5.6304 -2.8469 0.9745
-1.8364 5.4850 -2.8450 0.9745
-2.3157 5.2961 -2.8430 0.9746
-2.9256 5.3386 -2.9942 0.9732
-4.6001 3.9779 -2.9912 0.9733
-5.2304 3.0980 -2.9900 0.9733
-5.4845 2.6197 -2.9895 0.9733
-5.6950 2.1209 -2.9891 0.9733
-5.8606 1.6054 -2.9887 0.9733
-6.0514 0.5408 -2.9883 0.9733
-5.8063 -0.5188 -2.9886 0.9741
-5.7360 -1.0334 -2.9880 0.9741
-5.5923 -1.5319 -2.9726 0.9743
-5.4346 -2.0239 -2.9731 0.9743
-4.3921 -3.7980 -2.9768 0.9742
-3.6525 -4.5208 -2.9796 0.9742
-3.2374 -4.8306 -2.9812 0.9742
-2.3324 -5.3344 -2.9848 0.9742
-1.8496 -5.5244 -2.9867 0.9742
-1.3514 -5.6709 -2.9887 0.9741
-0.8419 -5.7727 -2.9908 0.9741
-0.3250 -5.8289 -2.9929 0.9741
0.1952 -5.8389 -2.9951 0.9741
0.7147 -5.8026 -2.9973 0.9741
1.2292 -5.7200 -2.9994 0.9740
2.2258 -5.4161 -3.0020 0.9740
2.6998 -5.1980 -3.0029 0.9740
3.5805 -4.6394 -3.0045 0.9740
4.9788 -3.1008 -3.0070 0.9740
5.2359 -2.6458 -3.0075 0.9740
5.4514 -2.1696 -3.0080 0.9740
5.7509 -1.1689 -3.0086 0.9740
5.8676 -0.1307 -3.0089 0.9740
5.8561 0.3920 -3.0089 0.9740
5.7979 0.9117 -3.0089 0.9740
5.5437 1.9250 -3.0086 0.9740
5.1135 2.8768 -3.0079 0.9740
4.8364 3.3200 -3.0075 0.9740
4.5210 3.7367 -3.0070 0.9740
4.1697 4.1235 -3.0064 0.9740
3.7853 4.4773 -3.0058 0.9740
2.7812 4.8172 -2.8517 0.9753
1.8821 5.2312 -2.8502 0.9753
-0.0619 5.5582 -2.8497 0.9753
-0.4854 4.8249 -2.4861 0.9784
-1.5260 5.3367 -2.8456 0.9754
-1.9936 5.1764 -2.8438 0.9754
-2.5313 5.1510 -2.9424 0.9745
-3.4632 4.7004 -2.9932 0.9741
-3.8670 4.3724 -2.9925 0.9741
-4.2398 4.0100 -2.9918 0.9741
-4.5789 3.6160 -2.9912 0.9741
-5.3688 2.2766 -2.9897 0.9741
-5.5495 1.7895 -2.9893 0.9741
-5.6861 1.2883 -2.9890 0.9741
-5.7778 0.7771 -2.9888 0.9741
-5.3396 -2.2642 -2.9734 0.9743
-4.8563 -3.1768 -2.9751 0.9743
-4.5560 -3.5978 -2.9762 0.9742
-4.2194 -3.9907 -2.9774 0.9742
-3.8493 -4.3525 -2.9788 0.9742
-3.0198 -4.9714 -2.9821 0.9742
-1.0979 -5.7275 -2.9898 0.9741
-0.5841 -5.8066 -2.9919 0.9741
0.4553 -5.8265 -2.9962 0.9741
0.9728 -5.7671 -2.9984 0.9741
4.5198 -3.7357 -3.0062 0.9740
4.8353 -3.3192 -3.0068 0.9740
5.1124 -2.8762 -3.0073 0.9740
5.3490 -2.4101 -3.0078 0.9740
5.6929 -1.4239 -3.0085 0.9740
5.7975 -0.9116 -3.0087 0.9740
5.8559 -0.3920 -3.0089 0.9740
5.8328 0.6525 -3.0089 0.9740
5.6242 1.6762 -3.0087 0.9740
4.9799 3.1015 -3.0077 0.9740
3.5817 4.6410 -3.0054 0.9740
2.5636 4.9357 -2.8513 0.9753
2.1135 5.1429 -2.8506 0.9753
0.6791 5.5138 -2.8481 0.9753
0.1858 5.5562 -2.8501 0.9753
-0.3094 5.5489 -2.8492 0.9753
-0.6859 4.7032 -2.4367 0.9789
-1.7616 5.2617 -2.8447 0.9754
-2.2216 5.0811 -2.8430 0.9754
-2.8070 5.1221 -2.9944 0.9741
-3.6686 4.5409 -2.9929 0.9741
-4.0574 4.1953 -2.9921 0.9741
-5.2624 2.5137 -2.9899 0.9741
-5.4645 2.0350 -2.9895 0.9741
-5.6234 1.5404 -2.9891 0.9741
-5.7377 1.0337 -2.9889 0.9741
-5.2207 -1.9442 -2.9740 0.9751
-5.0280 -2.4017 -2.9747 0.9751
-4.7956 -2.8404 -2.9755 0.9750
-3.1096 -4.6399 -2.9818 0.9750
-2.6858 -4.9010 -2.9835 0.9750
-2.2402 -5.1236 -2.9853 0.9750
-1.7764 -5.3060 -2.9871 0.9749
-1.2980 -5.4466 -2.9890 0.9749
-0.3121 -5.5980 -2.9931 0.9749
1.1804 -5.4930 -2.9993 0.9748
1.6656 -5.3692 -3.0011 0.9748
2.1374 -5.2011 -3.0019 0.9748
3.0274 -4.7422 -3.0035 0.9748
3.4383 -4.4551 -3.0042 0.9748
4.4960 -3.3906 -3.0062 0.9748
5.0277 -2.5406 -3.0072 0.9748
5.2345 -2.0833 -3.0076 0.9748
5.3998 -1.6093 -3.0079 0.9748
5.6004 -0.6265 -3.0084 0.9748
5.6230 0.3764 -3.0085 0.9748
5.5671 0.8754 -3.0085 0.9748
4.9101 2.7624 -3.0075 0.9748
4.0039 3.9595 -3.0061 0.9748
3.2371 4.6047 -3.0048 0.9748
2.2479 4.8439 -2.8508 0.9761
1.8073 5.0234 -2.8500 0.9761
0.4156 5.3180 -2.8476 0.9761
-0.0594 5.3366 -2.8491 0.9761
-0.4854 4.8256 -2.5891 0.9782
-1.0039 5.2372 -2.8467 0.9761
-1.9167 4.9766 -2.8470 0.9761
-2.4743 5.0351 -2.9950 0.9749
-3.7139 4.1994 -2.9927 0.9749
-4.6885 3.0671 -2.9909 0.9749
-5.5494 0.7463 -2.9892 0.9749
-5.5935 0.2494 -2.9891 0.9749
-5.5935 -0.2494 -2.9890 0.9749
-5.4408 -1.2327 -2.9781 0.9750
-5.3017 -1.7096 -2.9738 0.9751
-5.1294 -2.1751 -2.9743 0.9751
-4.9167 -2.6236 -2.9750 0.9750
-4.6650 -3.0517 -2.9759 0.9750
-4.0531 -3.8334 -2.9782 0.9750
-2.9006 -4.7751 -2.9826 0.9750
-2.4655 -5.0172 -2.9844 0.9750
-2.0104 -5.2199 -2.9862 0.9750
-1.0544 -5.5008 -2.9900 0.9749
-0.5610 -5.5766 -2.9921 0.9749
-0.0625 -5.6083 -2.9941 0.9749
0.4372 -5.5954 -2.9962 0.9749
0.9342 -5.5382 -2.9983 0.9749
1.9033 -5.2904 -3.0015 0.9748
2.3673 -5.1014 -3.0023 0.9748
2.8127 -4.8718 -3.0031 0.9748
3.2360 -4.6032 -3.0039 0.9748
3.6338 -4.2980 -3.0046 0.9748
4.3401 -3.5872 -3.0059 0.9748
4.9091 -2.7618 -3.0070 0.9748
5.1362 -2.3142 -3.0074 0.9748
5.3225 -1.8482 -3.0078 0.9748
5.5668 -0.8753 -3.0083 0.9748
5.6229 -0.3764 -3.0085 0.9748
5.5225 1.1225 -3.0084 0.9748
5.2353 2.0836 -3.0080 0.9748
2.4617 4.7396 -2.8511 0.9761
1.1212 5.2174 -2.8488 0.9761
-1.2359 5.1860 -2.8460 0.9761
-1.6916 5.0525 -2.8444 0.9761
-2.1502 4.9177 -2.8653 0.9760
-4.5477 3.2732 -2.9912 0.9749
-4.8201 2.8550 -2.9907 0.9749
-5.0543 2.4143 -2.9902 0.9749
-5.2485 1.9546 -2.9898 0.9749
-5.5108 0.9928 -2.9893 0.9749
-5.5770 0.4984 -2.9891 0.9749
-5.3611 -0.4791 -2.9894 0.9757
-5.0195 -1.8693 -2.9749 0.9758
-4.0562 -3.5076 -2.9783 0.9758
-3.3730 -4.1748 -2.9809 0.9757
-2.9895 -4.4607 -2.9824 0.9757
-2.1536 -4.9255 -2.9857 0.9757
-1.7077 -5.1007 -2.9875 0.9757
-1.2477 -5.2357 -2.9893 0.9757
-0.7773 -5.3294 -2.9913 0.9757
-0.3000 -5.3810 -2.9932 0.9756
0.1802 -5.3899 -2.9952 0.9756
1.1345 -5.2796 -2.9992 0.9756
1.6009 -5.1607 -3.0010 0.9756
2.0544 -4.9990 -3.0018 0.9756
4.0132 -3.6297 -3.0053 0.9755
4.3211 -3.2587 -3.0059 0.9755
4.8320 -2.4417 -3.0069 0.9755
5.4042 0.3618 -3.0081 0.9755
5.3504 0.8413 -3.0081 0.9755
5.2541 1.3141 -3.0080 0.9755
5.1160 1.7765 -3.0078 0.9755
4.9371 2.2246 -3.0075 0.9755
4.4634 3.0639 -3.0068 0.9755
2.1605 4.6557 -2.8506 0.9768
1.3001 4.9624 -2.8491 0.9768
0.3997 5.1144 -2.8492 0.9768
-0.0571 5.1284 -2.8485 0.9768
-0.9648 5.0332 -2.8463 0.9768
-1.8401 4.7779 -2.8437 0.9768
-2.3784 4.8400 -2.9951 0.9756
-3.1973 4.3394 -2.9937 0.9756
-3.9143 3.7022 -2.9923 0.9756
-4.2275 3.3384 -2.9918 0.9757
-4.5070 2.9484 -2.9912 0.9757
-5.3347 0.7175 -2.9896 0.9757
-5.3772 0.2398 -2.9894 0.9757
-5.3344 -0.7174 -2.9894 0.9757
-5.0974 -1.6437 -2.9747 0.9758
-4.9318 -2.0912 -2.9752 0.9758
-4.4852 -2.9341 -2.9767 0.9758
-3.8967 -3.6855 -2.9789 0.9758
-2.7886 -4.5907 -2.9832 0.9757
-1.4793 -5.1733 -2.9884 0.9757
-0.5393 -5.3605 -2.9922 0.9757
-0.0601 -5.3908 -2.9942 0.9756
0.4203 -5.3783 -2.9962 0.9756
1.3691 -5.2255 -3.0002 0.9756
3.4925 -4.1309 -3.0044 0.9756
4.1713 -3.4476 -3.0056 0.9755
4.4624 -3.0632 -3.0061 0.9755
5.1153 -1.7762 -3.0074 0.9755
5.2536 -1.3140 -3.0077 0.9755
5.3501 -0.8413 -3.0079 0.9755
5.4149 0.1207 -3.0081 0.9755
5.3075 1.0788 -3.0081 0.9755
5.0316 2.0025 -3.0077 0.9755
4.5958 2.8622 -3.0070 0.9755
4.3222 3.2595 -3.0066 0.9755
3.3056 4.2832 -3.0049 0.9755
2.9106 4.5594 -3.0043 0.9756
2.3685 4.5601 -2.8539 0.9768
1.9507 4.7467 -2.8502 0.9768
1.5201 4.9002 -2.8495 0.9768
0.6268 5.0894 -2.8480 0.9768
0.1714 5.1266 -2.8489 0.9768
-0.6859 4.7032 -2.6398 0.9785
-1.1877 4.9840 -2.8456 0.9768
-1.6257 4.8559 -2.8441 0.9768
-2.5913 4.7286 -2.9947 0.9756
-3.0012 4.4781 -2.9940 0.9756
-3.3870 4.1922 -2.9933 0.9756
-3.7459 3.8733 -2.9927 0.9756
-4.6335 2.7445 -2.9910 0.9757
-4.8587 2.3208 -2.9906 0.9757
-5.0454 1.8789 -2.9902 0.9757
-5.1921 1.4223 -2.9899 0.9757
-5.2976 0.9544 -2.9897 0.9757
-5.3612 0.4791 -2.9895 0.9757
-5.1578 -0.4609 -2.9897 0.9764
-4.9744 -1.3626 -2.9778 0.9765
-4.8300 -1.7987 -2.9757 0.9765
-4.6517 -2.2219 -2.9763 0.9765
-3.9029 -3.3750 -2.9790 0.9764
-3.5884 -3.7104 -2.9802 0.9764
-2.4842 -4.5332 -2.9845 0.9764
-1.6430 -4.9073 -2.9878 0.9764
-1.2004 -5.0371 -2.9896 0.9764
0.1734 -5.1850 -2.9953 0.9763
0.6346 -5.1523 -2.9972 0.9763
1.9762 -4.8088 -3.0017 0.9763
2.3970 -4.6149 -3.0024 0.9763
3.1788 -4.1188 -3.0038 0.9763
3.8603 -3.4913 -3.0051 0.9762
4.8390 -1.9259 -3.0069 0.9762
5.1047 -1.0376 -3.0075 0.9762
5.2083 -0.1161 -3.0078 0.9762
5.1980 0.3480 -3.0078 0.9762
5.1464 0.8092 -3.0078 0.9762
4.2932 2.9471 -3.0065 0.9762
4.0133 3.3171 -3.0061 0.9762
3.3604 3.9747 -3.0050 0.9762
2.0961 4.5169 -2.8749 0.9773
1.6710 4.6445 -2.8497 0.9775
0.8206 4.8646 -2.8483 0.9775
-0.0549 4.9325 -2.8479 0.9775
-0.9279 4.8411 -2.8459 0.9775
-1.3545 4.7370 -2.8445 0.9775
-1.8210 4.7282 -2.9253 0.9769
-2.6928 4.4329 -2.9945 0.9763
-3.7658 3.5617 -2.9926 0.9763
-4.0671 3.2118 -2.9920 0.9763
-4.5707 2.4390 -2.9911 0.9764
-4.7690 2.0222 -2.9907 0.9764
-4.9295 1.5896 -2.9904 0.9764
-5.1732 -0.2307 -2.9897 0.9764
-5.1322 -0.6902 -2.9898 0.9764
-5.0492 -1.1440 -2.9890 0.9764
-4.7455 -2.0123 -2.9760 0.9765
-4.5486 -2.4272 -2.9766 0.9765
-3.4203 -3.8674 -2.9808 0.9764
-3.0639 -4.1584 -2.9822 0.9764
-2.6830 -4.4168 -2.9837 0.9764
-2.2804 -4.6406 -2.9853 0.9764
-1.4231 -4.9771 -2.9887 0.9764
-0.5188 -5.1569 -2.9924 0.9763
1.7598 -4.8914 -3.0013 0.9763
2.6005 -4.5041 -3.0028 0.9763
3.3594 -3.9735 -3.0041 0.9763
4.9203 -1.7085 -3.0071 0.9762
5.0533 -1.2639 -3.0074 0.9762
