ply
format ascii 1.0
element vertex 1587
property float32 x
property float32 y
property float32 z
property float32 I
end_header
-0.4776 4.7481 -0.5980 0.9809
-4.9294 -2.0903 -0.6710 0.9786
-4.2158 -2.2496 -0.5988 0.9809
-3.5556 -2.8078 -0.5678 0.9819
-3.3571 -3.1752 -0.5791 0.9815
-0.2640 4.7353 -0.5943 0.9811
-4.0130 -2.3769 -0.6634 0.9813
-3.6851 -2.6524 -0.6458 0.9818
-3.2699 -4.0472 -0.7401 0.9792
-0.4777 4.7481 -0.6788 0.9809
-4.9633 -2.1046 -0.7668 0.9785
-0.2640 4.7352 -0.6746 0.9810
-4.5332 -2.1653 -0.8000 0.9799
-3.6914 -2.6569 -0.7242 0.9817
-3.4544 -2.9871 -0.7272 0.9817
-3.3035 -3.4158 -0.7567 0.9809
-0.4777 4.7482 -0.7599 0.9809
-3.2688 -3.6961 -0.7857 0.9802
-4.0452 -2.3959 -0.8290 0.9811
-3.4712 -3.0017 -0.8092 0.9815
-3.3476 -4.1433 -0.9392 0.9786
-0.4777 4.7483 -0.8415 0.9808
-3.8603 -2.5253 -0.8134 0.9814
-3.5836 -2.8299 -0.8052 0.9816
-0.2640 4.7349 -0.8362 0.9809
-4.0702 -2.4108 -0.9155 0.9809
-3.4913 -3.0190 -0.8932 0.9814
12.0724 8.2872 -2.8337 0.9421
10.4202 10.3047 -2.8360 0.9420
9.4661 11.1965 -2.8373 0.9420
8.4362 12.0006 -2.8387 0.9420
6.1816 13.3210 -2.8419 0.9419
4.9744 13.8266 -2.8436 0.9419
1.1469 14.6773 -2.8490 0.9418
-0.4777 4.7483 -0.9235 0.9807
-5.3824 -2.2824 -1.1314 0.9765
-3.8821 -2.5395 -0.8977 0.9813
-3.4076 -3.2229 -0.9077 0.9811
-3.3235 -3.7579 -0.9708 0.9798
12.4256 7.7387 -2.8328 0.9421
8.9601 11.6099 -2.8380 0.9420
7.8953 12.3678 -2.8395 0.9420
6.7670 13.0287 -2.8411 0.9419
4.3549 14.0388 -2.8445 0.9419
3.0900 14.3797 -2.8462 0.9418
1.7990 14.6069 -2.8481 0.9418
-14.2111 0.0000 -2.9960 0.9436
-13.2304 -4.9270 -2.9764 0.9439
-4.0957 -2.4259 -1.0036 0.9807
-3.7502 -2.6992 -0.9741 0.9813
-7.8800 -11.7577 -2.9840 0.9438
-6.8048 -12.4171 -2.9851 0.9438
-4.4980 -13.4348 -2.9869 0.9437
-3.2860 -13.7886 -2.9883 0.9437
-2.0467 -14.0335 -2.9898 0.9437
0.4744 -14.1887 -2.9929 0.9436
2.9849 -13.8906 -2.9953 0.9436
6.5404 -12.5925 -2.9915 0.9436
9.6242 -10.4056 -2.9882 0.9437
12.0211 -7.4867 -2.9856 0.9438
13.1527 -5.2346 -2.9844 0.9438
13.5644 -4.0426 -2.9839 0.9438
13.8689 -2.8190 -2.9836 0.9438
13.9802 2.1983 -2.9835 0.9438
13.7303 3.4342 -2.9838 0.9438
13.3719 4.6433 -2.9842 0.9438
11.7141 6.5903 -2.8336 0.9465
11.0838 7.6086 -2.8342 0.9465
9.5691 9.4631 -2.8372 0.9465
5.6758 12.2310 -2.8426 0.9464
2.2466 13.3185 -2.8475 0.9463
-0.1506 13.5219 -2.8508 0.9462
-0.4777 4.7484 -1.0061 0.9807
-2.5487 13.2964 -2.8542 0.9462
-3.7195 13.0080 -2.8523 0.9462
-5.1214 13.2974 -3.0041 0.9434
-6.2872 12.7941 -3.0053 0.9434
-8.4626 11.4857 -3.0077 0.9433
-9.4546 10.6905 -3.0087 0.9433
-13.1564 5.5788 -3.0127 0.9433
-13.6028 4.3864 -3.0132 0.9432
-13.9409 3.1586 -3.0135 0.9432
-14.1678 1.9054 -3.0138 0.9432
-14.1059 -0.6290 -2.9768 0.9439
-13.4362 -4.3326 -2.9763 0.9439
-3.9042 -2.5540 -0.9836 0.9811
-3.6234 -2.8614 -0.9733 0.9813
-3.3517 -3.7898 -1.0666 0.9795
-8.3940 -11.3925 -2.9833 0.9438
-7.3498 -12.0995 -2.9846 0.9438
-3.8960 -13.6252 -2.9876 0.9437
-2.6692 -13.9248 -2.9891 0.9437
-0.1581 -14.1921 -2.9922 0.9436
3.6000 -13.7409 -2.9946 0.9436
5.9741 -12.8739 -2.9921 0.9436
10.0765 -9.9649 -2.9877 0.9437
10.9202 -9.0258 -2.9868 0.9437
11.6770 -8.0158 -2.9860 0.9437
13.3718 -4.6432 -2.9841 0.9438
13.7302 -3.4341 -2.9838 0.9438
13.9801 -2.1983 -2.9835 0.9438
14.1196 -0.9452 -2.9834 0.9438
14.0638 1.5733 -2.9834 0.9438
11.9948 6.0612 -2.8333 0.9465
10.7389 8.0986 -2.8356 0.9465
6.2134 11.9629 -2.8419 0.9464
5.1267 12.4751 -2.8434 0.9464
1.6515 13.4093 -2.8483 0.9463
0.4518 13.5111 -2.8500 0.9462
-0.2640 4.7347 -0.9997 0.9808
-5.7098 13.0587 -3.0047 0.9434
-6.8522 12.5038 -3.0059 0.9434
-7.9410 11.8489 -3.0071 0.9434
-8.9674 11.0991 -3.0082 0.9433
-9.9231 10.2604 -3.0092 0.9433
-10.8003 9.3394 -3.0102 0.9433
-11.5920 8.3434 -3.0110 0.9433
-12.2916 7.2804 -3.0118 0.9433
-12.8936 6.1588 -3.0124 0.9433
-13.7856 3.7763 -3.0133 0.9432
-12.9944 -1.1612 -2.9777 0.9479
-12.5823 -3.4467 -2.9776 0.9479
-12.2263 -4.5532 -2.9778 0.9479
-4.7692 -2.2780 -1.2063 0.9785
-3.7716 -2.7146 -1.0606 0.9811
-7.2773 -10.8585 -2.9835 0.9478
-5.2411 -11.9866 -2.9860 0.9477
-3.0355 -12.7375 -2.9887 0.9477
-1.8906 -12.9632 -2.9901 0.9477
-0.7297 -13.0862 -2.9915 0.9476
0.4382 -13.1055 -2.9929 0.9476
3.8868 -12.5299 -2.9943 0.9476
6.0422 -11.6333 -2.9920 0.9476
7.0511 -11.0453 -2.9909 0.9477
8.0034 -10.3703 -2.9899 0.9477
8.8919 -9.6138 -2.9889 0.9477
9.7094 -8.7816 -2.9881 0.9477
11.1070 -6.9175 -2.9866 0.9477
11.6763 -5.9003 -2.9860 0.9477
12.1530 -4.8368 -2.9855 0.9477
12.8150 -2.6048 -2.9848 0.9478
12.9952 -1.4537 -2.9846 0.9478
13.0726 -0.2913 -2.9845 0.9478
12.6869 3.1732 -2.9849 0.9478
12.3556 4.2904 -2.9853 0.9478
11.9266 5.3739 -2.9857 0.9477
10.2409 7.0300 -2.8351 0.9503
9.5817 7.9194 -2.8372 0.9503
8.8419 8.7439 -2.8383 0.9503
8.0317 9.5000 -2.8394 0.9502
7.1574 10.1815 -2.8406 0.9502
6.2256 10.7831 -2.8419 0.9502
3.1603 12.0629 -2.8462 0.9501
0.9725 12.4456 -2.8493 0.9501
-0.1391 12.4897 -2.8509 0.9500
-0.4777 4.7485 -1.0893 0.9806
-2.3540 12.2807 -2.8540 0.9500
-3.4358 12.0159 -2.8525 0.9500
-4.4894 11.6565 -2.8510 0.9500
-5.8062 11.8154 -3.0048 0.9474
-6.8373 11.2558 -3.0059 0.9474
-9.5775 9.0583 -3.0088 0.9474
-12.1476 5.1511 -3.0116 0.9473
-12.8718 2.9164 -3.0124 0.9473
-13.0812 1.7593 -3.0126 0.9473
-13.0488 -0.5818 -2.9813 0.9478
-12.7232 -2.8827 -2.9776 0.9479
-12.0120 -5.0935 -2.9780 0.9479
-3.9268 -2.5688 -1.0710 0.9809
-3.6438 -2.8775 -1.0597 0.9811
-3.4508 -3.2638 -1.0841 0.9807
-5.7686 -11.7387 -2.9853 0.9478
-4.7029 -12.2109 -2.9866 0.9477
-2.4656 -12.8630 -2.9894 0.9477
-0.1460 -13.1089 -2.9922 0.9476
2.1826 -12.9394 -2.9951 0.9476
5.5190 -11.8931 -2.9926 0.9476
7.5348 -10.7184 -2.9904 0.9477
10.0896 -8.3392 -2.9877 0.9477
10.7891 -7.4063 -2.9869 0.9477
11.4029 -6.4152 -2.9863 0.9477
11.9264 -5.3738 -2.9857 0.9477
12.6869 -3.1732 -2.9849 0.9478
12.9179 -2.0312 -2.9846 0.9478
13.0468 -0.8734 -2.9845 0.9478
13.0727 0.2913 -2.9845 0.9478
12.1531 4.8369 -2.9855 0.9477
9.9188 7.4801 -2.8355 0.9503
9.2209 8.3398 -2.8377 0.9503
7.6022 9.8504 -2.8400 0.9502
6.6982 10.4926 -2.8412 0.9502
4.7363 11.5251 -2.8440 0.9502
3.6936 11.9070 -2.8455 0.9501
1.5256 12.3866 -2.8485 0.9501
-1.8041 12.3700 -2.8532 0.9500
-2.8980 12.1608 -2.8533 0.9500
-3.9665 11.8472 -2.8516 0.9500
-6.3280 11.5471 -3.0054 0.9474
-8.2808 10.2493 -3.0075 0.9474
-9.1631 9.4746 -3.0084 0.9474
-9.9729 8.6239 -3.0093 0.9473
-10.7036 7.7040 -3.0101 0.9473
-11.3495 6.7223 -3.0107 0.9473
-11.9051 5.6866 -3.0113 0.9473
-12.3660 4.6051 -3.0118 0.9473
-12.7284 3.4867 -3.0122 0.9473
-12.9894 2.3402 -3.0125 0.9473
-11.9271 -2.1487 -2.9789 0.9513
-11.6886 -3.2018 -2.9789 0.9513
-4.8831 -2.3325 -1.3302 0.9780
-4.1775 -2.4743 -1.1934 0.9802
-3.4482 -3.5654 -1.2192 0.9798
-7.6271 -9.4402 -2.9831 0.9512
-6.7590 -10.0851 -2.9842 0.9512
-5.8367 -10.6506 -2.9853 0.9512
-4.8675 -11.1323 -2.9865 0.9512
-2.8189 -11.8288 -2.9890 0.9511
1.4891 -12.0902 -2.9942 0.9511
3.6096 -11.6361 -2.9946 0.9511
4.6292 -11.2646 -2.9935 0.9511
5.6115 -10.8040 -2.9925 0.9511
6.5486 -10.2582 -2.9915 0.9511
7.4333 -9.6316 -2.9905 0.9511
9.0182 -8.1564 -2.9888 0.9511
9.7060 -7.3196 -2.9881 0.9512
10.3167 -6.4252 -2.9874 0.9512
10.8455 -5.4805 -2.9869 0.9512
11.2885 -4.4927 -2.9864 0.9512
12.0710 -1.3503 -2.9856 0.9512
12.1190 0.8113 -2.9855 0.9512
11.4768 3.9852 -2.9862 0.9512
10.0534 5.6560 -2.8353 0.9536
9.5121 6.5297 -2.8359 0.9536
8.2130 8.1220 -2.8392 0.9535
7.4602 8.8240 -2.8402 0.9535
4.8701 10.4948 -2.8438 0.9535
3.9185 10.8917 -2.8452 0.9534
2.9350 11.2027 -2.8465 0.9534
-3.1906 11.1583 -2.8526 0.9533
-4.1687 10.8239 -2.8510 0.9533
-7.2551 9.8467 -3.0064 0.9509
-8.8912 8.4093 -3.0081 0.9508
-10.2463 6.7028 -3.0096 0.9508
-11.9485 2.7072 -3.0114 0.9508
-12.1428 1.6331 -3.0116 0.9508
-12.2404 0.5458 -3.0117 0.9508
-12.0111 -1.6153 -2.9789 0.9513
-11.8195 -2.6779 -2.9789 0.9513
-11.5346 -3.7194 -2.9790 0.9513
-11.1587 -4.7317 -2.9792 0.9513
-3.9698 -2.5969 -1.1660 0.9806
-3.4905 -3.3013 -1.1809 0.9804
-7.2003 -9.7722 -2.9836 0.9512
-2.2897 -11.9453 -2.9896 0.9511
-1.2180 -12.1070 -2.9909 0.9511
2.0266 -12.0148 -2.9949 0.9510
4.1236 -11.4617 -2.9941 0.9511
5.1255 -11.0452 -2.9930 0.9511
6.9980 -9.9547 -2.9910 0.9511
7.8538 -9.2895 -2.9901 0.9511
9.3713 -7.7456 -2.9884 0.9512
11.0780 -4.9915 -2.9866 0.9512
11.4767 -3.9851 -2.9862 0.9512
11.7845 -2.9475 -2.9859 0.9512
9.7925 6.0988 -2.8356 0.9536
9.2128 6.9477 -2.8363 0.9536
8.5653 7.7469 -2.8387 0.9535
7.8444 8.4813 -2.8397 0.9535
7.0611 9.1494 -2.8408 0.9535
6.2213 9.7456 -2.8419 0.9535
3.4303 11.0581 -2.8459 0.9534
1.4167 11.5026 -2.8487 0.9534
-0.2640 4.7345 -1.1656 0.9807
-1.6751 11.4858 -2.8531 0.9533
-2.6912 11.2926 -2.8535 0.9533
-4.8958 11.1971 -3.0038 0.9509
-9.2582 8.0059 -3.0085 0.9508
-9.9364 7.1518 -3.0092 0.9508
-10.5358 6.2404 -3.0099 0.9508
-11.0514 5.2788 -3.0104 0.9508
-11.8155 3.2366 -3.0112 0.9508
-12.0577 2.1723 -3.0115 0.9508
-12.2038 1.0906 -3.0116 0.9508
-11.4262 0.0000 -3.0108 0.9538
-10.2064 -4.8752 -2.9804 0.9543
-3.8527 -2.7730 -1.2508 0.9806
-7.1163 -8.8079 -2.9837 0.9542
-4.5412 -10.3859 -2.9869 0.9542
-3.6001 -10.7530 -2.9880 0.9542
-2.6298 -11.0352 -2.9892 0.9542
-1.6379 -11.2300 -2.9904 0.9541
1.3891 -11.2783 -2.9943 0.9541
4.3187 -10.5091 -2.9939 0.9541
6.9352 -8.9862 -2.9910 0.9541
7.7054 -8.3310 -2.9902 0.9541
8.4142 -7.6102 -2.9895 0.9542
9.0561 -6.8295 -2.9888 0.9542
9.6261 -5.9951 -2.9882 0.9542
10.1196 -5.1137 -2.9876 0.9542
11.1072 -2.2576 -2.9866 0.9542
11.2634 -1.2600 -2.9864 0.9542
10.3367 4.6575 -2.9874 0.9542
9.4626 5.3236 -2.8609 0.9561
8.8752 6.0925 -2.8366 0.9564
8.2996 6.8598 -2.8372 0.9564
7.6637 7.5788 -2.8401 0.9564
6.2027 8.8235 -2.8420 0.9564
4.5437 9.7915 -2.8443 0.9563
1.7979 10.6585 -2.8482 0.9563
0.8425 10.7813 -2.8495 0.9563
-0.1205 10.8187 -2.8509 0.9562
-3.8890 10.0977 -2.8513 0.9562
-5.0279 10.2316 -3.0040 0.9539
-5.9205 9.7466 -3.0049 0.9539
-7.5592 8.5474 -3.0067 0.9539
-8.2921 7.8427 -3.0075 0.9539
-9.5556 6.2510 -3.0088 0.9539
-10.5161 4.4593 -3.0098 0.9538
-11.4148 0.5090 -3.0108 0.9538
-11.2084 -1.5074 -2.9800 0.9543
-10.7638 -3.4709 -2.9801 0.9543
-10.4129 -4.4155 -2.9803 0.9543
-3.5315 -3.3401 -1.2808 0.9801
-4.9984 -10.1714 -2.9863 0.9542
-2.1360 -11.1436 -2.9898 0.9541
-1.1362 -11.2941 -2.9910 0.9541
0.8851 -11.3264 -2.9936 0.9541
4.7818 -10.3045 -2.9934 0.9541
6.5290 -9.2876 -2.9915 0.9541
8.0678 -7.9784 -2.9898 0.9541
9.8826 -5.5598 -2.9879 0.9542
11.3082 -0.7570 -2.9864 0.9542
10.8632 3.2376 -2.9869 0.9542
10.5332 4.1921 -2.9872 0.9542
9.1369 5.6905 -2.8363 0.9565
7.9867 7.2235 -2.8376 0.9564
7.3195 7.9138 -2.8405 0.9564
4.9744 9.5773 -2.8437 0.9563
1.3216 10.7305 -2.8488 0.9563
0.3615 10.8107 -2.8502 0.9562
-0.2640 4.7344 -1.2495 0.9806
-1.5625 10.7137 -2.8529 0.9562
-2.5105 10.5344 -2.8535 0.9562
-3.4363 10.2636 -2.8520 0.9562
-4.3343 9.9129 -2.8508 0.9562
-7.1700 8.8744 -3.0063 0.9539
-7.9336 8.2033 -3.0071 0.9539
-9.2667 6.6698 -3.0085 0.9539
-10.3063 4.9229 -3.0096 0.9539
-10.7050 3.9866 -3.0100 0.9538
-11.2444 2.0258 -3.0106 0.9538
-10.6982 0.0000 -3.0100 0.9565
-10.5556 -0.9432 -2.9817 0.9569
-10.4271 -1.8785 -2.9810 0.9569
-10.2186 -2.7991 -2.9810 0.9569
-9.5617 -4.5672 -2.9814 0.9569
-3.6549 -3.1605 -1.3595 0.9801
-6.6660 -8.2505 -2.9843 0.9569
-5.1007 -9.3076 -2.9862 0.9569
-3.3720 -10.0716 -2.9883 0.9568
-2.4631 -10.3356 -2.9894 0.9568
-0.5920 -10.6170 -2.9918 0.9568
2.2369 -10.4096 -2.9957 0.9567
3.1539 -10.1673 -2.9951 0.9567
7.8817 -7.1286 -2.9900 0.9568
9.0171 -5.6159 -2.9888 0.9568
10.1762 -3.0328 -2.9876 0.9568
10.4049 -2.1149 -2.9873 0.9568
10.6143 -0.2365 -2.9871 0.9568
10.5933 0.7092 -2.9871 0.9568
10.3008 2.5764 -2.9875 0.9568
10.0316 3.4834 -2.9878 0.9568
9.2576 5.2083 -2.9886 0.9568
7.7744 6.4257 -2.8378 0.9590
5.0534 8.7528 -2.8436 0.9589
2.5646 9.7889 -2.8471 0.9588
1.6839 9.9827 -2.8484 0.9588
0.7890 10.0974 -2.8496 0.9588
-0.1129 10.1321 -2.8509 0.9588
-0.4777 4.7487 -1.3428 0.9804
-1.9092 9.9604 -2.8534 0.9587
-2.7877 9.7492 -2.8529 0.9587
-3.6425 9.4576 -2.8515 0.9588
-4.7083 9.5811 -3.0036 0.9566
-5.5440 9.1268 -3.0045 0.9566
-6.3361 8.5995 -3.0054 0.9566
-7.7644 7.3436 -3.0069 0.9566
-8.9472 5.8530 -3.0082 0.9565
-9.4343 5.0343 -3.0087 0.9565
-9.8464 4.1752 -3.0091 0.9565
-10.1801 3.2827 -3.0095 0.9565
-10.6876 0.4766 -3.0100 0.9565
-10.5005 -1.4121 -2.9810 0.9569
-9.7552 -4.1366 -2.9813 0.9569
-4.0624 -2.6575 -1.3658 0.9800
-3.7623 -2.9710 -1.3488 0.9803
-3.5813 -3.3872 -1.3869 0.9797
-3.8166 -9.9096 -2.9878 0.9568
-2.9205 -10.2137 -2.9889 0.9568
0.8289 -10.6080 -2.9937 0.9567
5.3185 -9.2119 -2.9928 0.9568
6.8637 -8.1184 -2.9911 0.9568
8.1905 -6.7696 -2.9897 0.9568
9.2575 -5.2082 -2.9886 0.9568
10.4885 -1.6492 -2.9873 0.9568
10.5933 -0.7091 -2.9871 0.9568
10.5513 1.1803 -2.9872 0.9568
10.4049 2.1149 -2.9874 0.9568
9.8671 3.9270 -2.9879 0.9568
9.4797 4.7903 -2.9884 0.9568
8.5589 5.3305 -2.8369 0.9590
8.0521 6.0724 -2.8375 0.9590
6.1716 7.9968 -2.8421 0.9589
5.4373 8.5174 -2.8431 0.9589
2.9975 9.6629 -2.8465 0.9588
2.1264 9.8956 -2.8477 0.9588
1.2378 10.0500 -2.8490 0.9588
-0.2640 4.7343 -1.3341 0.9805
-3.2184 9.6129 -2.8522 0.9588
-4.0592 9.2837 -2.8508 0.9588
-5.1312 9.3633 -3.0041 0.9566
-5.9459 8.8720 -3.0049 0.9566
-7.4287 7.6812 -3.0065 0.9566
-8.6768 6.2452 -3.0079 0.9565
-9.1999 5.4492 -3.0084 0.9565
-10.5281 1.8968 -3.0098 0.9565
-10.6556 0.9522 -3.0100 0.9565
-9.9307 -0.8874 -2.9849 0.9592
-9.3343 -3.4761 -2.9820 0.9593
-8.9886 -4.2935 -2.9822 0.9593
-6.2659 -7.7554 -2.9850 0.9592
-5.5523 -8.2846 -2.9858 0.9592
-4.7944 -8.7486 -2.9867 0.9592
-3.9979 -9.1435 -2.9876 0.9592
-2.3150 -9.7144 -2.9897 0.9592
-0.5564 -9.9786 -2.9920 0.9591
1.2226 -9.9271 -2.9944 0.9591
2.9642 -9.5558 -2.9953 0.9591
6.1059 -7.9116 -2.9919 0.9591
7.4085 -6.7005 -2.9905 0.9591
9.2749 -3.6913 -2.9886 0.9592
9.9775 -0.2223 -2.9878 0.9592
9.9578 0.6666 -2.9878 0.9592
9.8593 1.5503 -2.9879 0.9592
9.6828 2.4219 -2.9881 0.9592
7.8147 5.3645 -2.8377 0.9612
6.7425 6.6678 -2.8389 0.9612
6.1292 7.2497 -2.8421 0.9611
5.4615 7.7691 -2.8431 0.9611
4.7499 8.2271 -2.8441 0.9611
4.0003 8.6204 -2.8451 0.9611
3.2184 8.9457 -2.8462 0.9611
1.5826 9.3822 -2.8485 0.9611
-0.1061 9.5221 -2.8509 0.9610
-1.7942 9.3603 -2.8533 0.9610
-3.4235 8.8889 -2.8517 0.9610
-4.1995 8.5458 -2.8507 0.9610
-5.2096 8.5763 -3.0042 0.9590
-5.9539 8.0807 -3.0049 0.9590
-6.6511 7.5206 -3.0057 0.9589
-8.4069 5.4996 -3.0076 0.9589
-9.2516 3.9231 -3.0085 0.9589
-9.5651 3.0844 -3.0088 0.9589
-9.9618 1.3398 -3.0092 0.9589
-10.0418 0.4478 -3.0093 0.9589
-9.8712 -1.3275 -2.9819 0.9593
-9.7138 -2.2008 -2.9818 0.9593
-4.8290 -2.5768 -1.6387 0.9774
-5.9151 -8.0280 -2.9854 0.9592
-3.5873 -9.3141 -2.9881 0.9592
-2.7450 -9.5998 -2.9892 0.9592
-1.0002 -9.9419 -2.9914 0.9591
-0.1113 -9.9954 -2.9926 0.9591
1.6640 -9.8648 -2.9950 0.9591
3.3865 -9.4129 -2.9949 0.9591
4.2096 -9.0714 -2.9940 0.9591
6.4515 -7.6308 -2.9916 0.9591
7.1034 -7.0247 -2.9909 0.9591
7.6988 -6.3632 -2.9902 0.9592
8.2330 -5.6516 -2.9897 0.9592
8.7019 -4.8956 -2.9892 0.9592
9.6828 -2.4218 -2.9881 0.9592
9.9578 -0.6666 -2.9878 0.9592
9.9775 0.2224 -2.9878 0.9592
9.2750 3.6914 -2.9886 0.9592
8.3217 5.1828 -2.9350 0.9599
7.0320 6.3601 -2.8386 0.9612
6.4395 6.9623 -2.8392 0.9612
5.1108 8.0060 -2.8436 0.9611
4.3796 8.4321 -2.8446 0.9611
2.8173 9.0820 -2.8468 0.9611
0.3181 9.5154 -2.8503 0.9610
-0.2640 4.7342 -1.4195 0.9804
-3.0248 9.0347 -2.8524 0.9610
-3.8151 8.7255 -2.8510 0.9610
-6.3087 7.8084 -3.0053 0.9590
-6.9804 7.2177 -3.0060 0.9589
-9.0671 4.3310 -3.0083 0.9589
-9.4177 3.5072 -3.0087 0.9589
-9.8920 1.7822 -3.0092 0.9589
-10.0118 0.8947 -3.0093 0.9589
-9.4737 0.0000 -3.0087 0.9610
-9.3690 -0.8372 -2.9873 0.9613
-9.0579 -2.4812 -2.9826 0.9614
-8.8015 -3.2777 -2.9828 0.9613
-4.5506 -2.6954 -1.6797 0.9780
-4.0474 -2.9132 -1.5837 0.9793
-6.5339 -6.7560 -2.9849 0.9613
-5.9080 -7.3124 -2.9856 0.9613
-5.2350 -7.8112 -2.9863 0.9613
-3.7693 -8.6207 -2.9881 0.9613
-2.9881 -8.9249 -2.9890 0.9613
1.1526 -9.3582 -2.9945 0.9612
1.9817 -9.2221 -2.9957 0.9612
2.7945 -9.0086 -2.9955 0.9612
3.5843 -8.7217 -2.9946 0.9612
4.3451 -8.3658 -2.9938 0.9612
5.0711 -7.9438 -2.9931 0.9612
5.7566 -7.4591 -2.9923 0.9612
6.3962 -6.9155 -2.9916 0.9612
8.4015 -4.2454 -2.9895 0.9613
8.7449 -3.4804 -2.9891 0.9613
9.3517 -1.0461 -2.9885 0.9613
9.2960 1.4618 -2.9885 0.9613
9.1296 2.2835 -2.9887 0.9613
8.2047 4.6159 -2.9897 0.9613
7.4249 5.0969 -2.8602 0.9629
6.8898 5.6946 -2.8387 0.9632
6.3569 6.2865 -2.8393 0.9632
5.7734 6.8288 -2.8399 0.9632
5.1492 7.3247 -2.8435 0.9631
4.4784 7.7568 -2.8445 0.9631
2.2724 8.6736 -2.8476 0.9631
1.4920 8.8448 -2.8487 0.9631
0.6991 8.9460 -2.8498 0.9630
-0.1000 8.9763 -2.8509 0.9630
-2.4699 8.6377 -2.8531 0.9630
-3.2274 8.3799 -2.8519 0.9630
-3.9586 8.0557 -2.8506 0.9630
-4.9105 8.0838 -3.0038 0.9611
-5.6119 7.6166 -3.0046 0.9611
-7.4296 5.8671 -3.0065 0.9610
-7.9237 5.1835 -3.0071 0.9610
-9.0151 2.9070 -3.0082 0.9610
-9.3889 1.2627 -3.0086 0.9610
-9.4642 -0.4220 -3.0087 0.9610
-9.3078 -1.2518 -2.9826 0.9614
-9.1594 -2.0752 -2.9826 0.9614
-8.2872 -4.4221 -2.9832 0.9613
-3.9047 -3.0835 -1.5801 0.9793
-3.7604 -3.5566 -1.6438 0.9785
-6.2271 -7.0411 -2.9852 0.9613
-5.5771 -7.5692 -2.9859 0.9613
-4.1490 -8.4429 -2.9876 0.9613
-3.3821 -8.7815 -2.9886 0.9613
-2.5880 -9.0507 -2.9896 0.9613
-1.7728 -9.2483 -2.9906 0.9613
-0.9429 -9.3728 -2.9917 0.9612
0.7344 -9.3985 -2.9939 0.9612
2.3908 -9.1255 -2.9959 0.9612
3.9687 -8.5522 -2.9942 0.9612
4.7128 -8.1628 -2.9934 0.9612
6.6972 -6.6230 -2.9913 0.9612
7.2587 -5.9994 -2.9907 0.9612
7.7624 -5.3286 -2.9902 0.9613
8.2046 -4.6158 -2.9897 0.9613
8.5817 -3.8667 -2.9893 0.9613
9.3889 -0.6285 -2.9884 0.9613
9.4075 0.2097 -2.9884 0.9613
9.3517 1.0462 -2.9885 0.9613
9.0192 2.6880 -2.9888 0.9613
8.7450 3.4804 -2.9891 0.9613
8.4016 4.2455 -2.9895 0.9613
7.9915 4.9772 -2.9900 0.9613
6.6300 5.9964 -2.8390 0.9632
6.0712 6.5642 -2.8396 0.9632
3.4063 8.2887 -2.8460 0.9631
1.8841 8.7679 -2.8481 0.9631
1.0967 8.9043 -2.8492 0.9630
-2.0831 8.7409 -2.8537 0.9630
-4.5449 8.2934 -3.0034 0.9611
-5.2664 7.8580 -3.0042 0.9611
-5.9463 7.3599 -3.0049 0.9611
-7.6842 5.5308 -3.0068 0.9610
-8.1473 4.8257 -3.0073 0.9610
-8.8762 3.3056 -3.0081 0.9610
-9.4360 0.8432 -3.0087 0.9610
-8.8651 -0.7922 -2.9904 0.9631
-3.9370 -3.4045 -1.7487 0.9783
-5.5855 -6.9132 -2.9861 0.9632
-4.9492 -7.3847 -2.9868 0.9632
-4.2734 -7.7980 -2.9876 0.9632
-2.0633 -8.6579 -2.9904 0.9631
0.2977 -8.9046 -2.9935 0.9631
1.0895 -8.8460 -2.9946 0.9631
2.6417 -8.5158 -2.9957 0.9631
5.4420 -7.0514 -2.9927 0.9631
6.0467 -6.5376 -2.9920 0.9631
7.5550 -4.7053 -2.9904 0.9631
7.9427 -4.0136 -2.9900 0.9631
8.5268 -2.5412 -2.9894 0.9632
8.7185 -1.7721 -2.9892 0.9632
8.8940 -0.1982 -2.9890 0.9632
8.6312 2.1588 -2.9893 0.9632
7.3386 5.0376 -2.9907 0.9631
6.5135 5.3835 -2.8391 0.9650
6.0096 5.9430 -2.8397 0.9650
5.4580 6.4557 -2.8403 0.9650
4.8628 6.9174 -2.8409 0.9649
4.2335 7.3328 -2.8448 0.9649
3.5654 7.6832 -2.8458 0.9649
2.8684 7.9727 -2.8468 0.9649
2.1481 8.1992 -2.8478 0.9649
1.4103 8.3609 -2.8488 0.9649
0.6608 8.4564 -2.8498 0.9648
-2.3346 8.1647 -2.8531 0.9648
-5.9250 6.6995 -3.0049 0.9630
-7.4886 4.8989 -3.0066 0.9629
-7.8960 4.2135 -3.0070 0.9629
-8.2408 3.4944 -3.0074 0.9629
-8.5199 2.7473 -3.0077 0.9629
-8.7313 1.9783 -3.0079 0.9629
-8.9444 0.3988 -3.0081 0.9629
-8.4511 -2.7251 -2.9834 0.9632
-8.1755 -3.4667 -2.9836 0.9632
-7.8352 -4.1809 -2.9838 0.9632
-4.0203 -3.1748 -1.7211 0.9786
-3.9656 -3.7506 -1.8339 0.9772
-5.2726 -7.1560 -2.9865 0.9632
-4.6159 -7.5989 -2.9872 0.9632
-3.9224 -7.9818 -2.9880 0.9632
-3.1973 -8.3017 -2.9889 0.9632
-0.0992 -8.9075 -2.9929 0.9631
0.6942 -8.8841 -2.9940 0.9631
1.4827 -8.7902 -2.9951 0.9631
4.4552 -7.7166 -2.9937 0.9631
5.7501 -6.8012 -2.9923 0.9631
6.3313 -6.2612 -2.9917 0.9631
6.8622 -5.6717 -2.9911 0.9631
8.4055 -2.9187 -2.9895 0.9631
8.6312 -2.1588 -2.9892 0.9632
8.8764 -0.5942 -2.9890 0.9632
8.8940 0.1982 -2.9890 0.9632
8.8413 0.9891 -2.9890 0.9632
8.7186 1.7721 -2.9892 0.9632
8.5268 2.5413 -2.9894 0.9632
7.5551 4.7054 -2.9904 0.9631
6.7462 5.0876 -2.8389 0.9650
5.1655 6.6932 -2.8406 0.9650
4.5555 7.1360 -2.8445 0.9649
3.9036 7.5156 -2.8454 0.9649
3.2201 7.8357 -2.8463 0.9649
1.7811 8.2883 -2.8483 0.9649
-0.2640 4.7340 -1.5930 0.9802
-1.2253 8.4012 -2.8525 0.9648
-1.9689 8.2619 -2.8536 0.9648
-2.6954 8.0508 -2.8525 0.9648
-3.3998 7.7755 -2.8512 0.9648
-7.7000 4.5608 -3.0068 0.9629
-8.0764 3.8578 -3.0072 0.9629
-8.3887 3.1240 -3.0075 0.9629
-8.4197 -0.7524 -2.9974 0.9648
-8.1164 -2.2233 -2.9840 0.9649
-7.8866 -2.9370 -2.9841 0.9649
-7.5944 -3.6275 -2.9843 0.9649
-4.2676 -3.6904 -2.0006 0.9763
-5.2933 -6.5516 -2.9866 0.9649
-3.3769 -7.7231 -2.9889 0.9649
-2.6768 -7.9954 -2.9897 0.9648
-1.9552 -8.2044 -2.9906 0.9648
-0.4698 -8.4265 -2.9926 0.9648
1.0324 -8.3820 -2.9946 0.9648
1.7749 -8.2597 -2.9956 0.9648
2.5032 -8.0694 -2.9958 0.9648
6.7354 -5.0794 -2.9913 0.9648
7.1597 -4.4590 -2.9908 0.9648
7.5271 -3.8036 -2.9904 0.9648
8.4121 0.5631 -2.9895 0.9649
8.1797 2.0459 -2.9897 0.9648
7.9657 2.7660 -2.9900 0.9648
7.6887 3.4644 -2.9903 0.9648
7.3507 4.1355 -2.9906 0.9648
6.1725 5.1017 -2.8395 0.9666
5.6950 5.6319 -2.8400 0.9666
3.3786 7.2807 -2.8461 0.9665
2.7182 7.5552 -2.8471 0.9665
1.3364 7.9226 -2.8489 0.9665
-0.0896 8.0397 -2.8509 0.9665
-0.4778 4.7490 -1.6924 0.9799
-1.5147 7.9021 -2.8530 0.9664
-2.2119 7.7356 -2.8529 0.9664
-4.3972 7.2389 -3.0033 0.9647
-5.6135 6.3473 -3.0046 0.9647
-7.0947 4.6412 -3.0062 0.9647
-7.4807 3.9918 -3.0066 0.9647
-8.0716 2.6028 -3.0072 0.9646
-8.4737 0.3779 -3.0076 0.9646
-8.4737 -0.3778 -3.0076 0.9646
-8.3436 -1.1221 -2.9852 0.9649
-8.2073 -1.8595 -2.9840 0.9649
-7.4256 -3.9624 -2.9844 0.9649
-7.0442 -4.6081 -2.9848 0.9649
-4.3744 -7.2012 -2.9877 0.9649
-2.3184 -8.1079 -2.9902 0.9648
-1.5880 -8.2846 -2.9911 0.9648
-0.8446 -8.3958 -2.9921 0.9648
-0.0940 -8.4405 -2.9931 0.9648
0.6578 -8.4182 -2.9941 0.9648
1.4050 -8.3291 -2.9951 0.9648
2.1415 -8.1738 -2.9962 0.9648
2.8598 -7.9488 -2.9954 0.9648
3.5551 -7.6609 -2.9947 0.9648
4.8548 -6.9059 -2.9933 0.9648
5.4490 -6.4451 -2.9927 0.9648
5.9998 -5.9334 -2.9921 0.9648
6.5030 -5.3748 -2.9915 0.9648
6.9544 -4.7739 -2.9910 0.9648
7.3507 -4.1354 -2.9906 0.9648
7.6887 -3.4643 -2.9903 0.9648
7.9657 -2.7660 -2.9900 0.9648
8.1797 -2.0458 -2.9897 0.9648
8.4121 -0.5631 -2.9895 0.9649
8.2624 1.6794 -2.9897 0.9648
8.0807 2.4083 -2.9899 0.9648
7.1597 4.4591 -2.9908 0.9648
5.4390 5.8806 -2.8403 0.9666
4.8950 6.3426 -2.8409 0.9666
4.3120 6.7546 -2.8415 0.9666
3.6992 7.1221 -2.8457 0.9665
3.0516 7.4255 -2.8466 0.9665
1.6877 7.8539 -2.8485 0.9665
0.2686 8.0343 -2.8504 0.9665
-0.2639 4.7339 -1.6812 0.9801
-1.1610 7.9603 -2.8525 0.9664
-3.2212 7.3672 -2.8511 0.9665
-3.8668 7.0560 -2.8530 0.9664
-5.8912 6.0916 -3.0049 0.9647
-6.4112 5.5441 -3.0054 0.9647
-6.8804 4.9523 -3.0059 0.9647
-7.6515 3.6549 -3.0068 0.9647
-7.9473 2.9596 -3.0071 0.9646
-8.3473 1.5039 -3.0075 0.9646
-8.4483 0.7550 -3.0076 0.9646
-8.0533 0.0000 -3.0072 0.9662
-7.4904 -2.7895 -2.9847 0.9664
-7.2129 -3.4453 -2.9849 0.9664
-6.8783 -4.0740 -2.9851 0.9664
-6.4891 -4.6706 -2.9855 0.9664
-6.0486 -5.2304 -2.9859 0.9664
-5.5600 -5.7490 -2.9865 0.9664
-5.0272 -6.2222 -2.9870 0.9664
-4.4544 -6.6464 -2.9877 0.9664
-2.5421 -7.5930 -2.9900 0.9664
-1.8568 -7.7914 -2.9909 0.9664
-1.1563 -7.9282 -2.9918 0.9664
-0.4462 -8.0021 -2.9927 0.9664
0.9803 -7.9596 -2.9946 0.9663
1.6854 -7.8433 -2.9956 0.9663
2.3771 -7.6629 -2.9959 0.9663
3.6964 -7.1167 -2.9945 0.9663
4.3142 -6.7580 -2.9939 0.9663
7.1486 -3.6123 -2.9908 0.9664
8.0051 -0.1784 -2.9899 0.9664
7.9892 0.5348 -2.9899 0.9664
7.9102 1.2439 -2.9900 0.9664
7.7685 1.9430 -2.9902 0.9664
7.5653 2.6270 -2.9904 0.9664
6.6047 4.5339 -2.9914 0.9664
5.9634 4.9289 -2.8889 0.9675
4.3762 6.2252 -2.8414 0.9680
3.8056 6.5914 -2.8421 0.9680
3.2087 6.9145 -2.8464 0.9680
-0.4778 4.7491 -1.7823 0.9798
-1.4383 7.5037 -2.8530 0.9679
-3.3665 6.8506 -2.8503 0.9679
-5.8463 5.5294 -3.0048 0.9662
-6.3163 4.9880 -3.0053 0.9662
-7.4125 3.1432 -3.0065 0.9662
-7.6636 2.4712 -3.0068 0.9662
-7.8537 1.7794 -3.0070 0.9662
-7.9812 1.0734 -3.0071 0.9662
-8.0452 0.3588 -3.0072 0.9662
-7.9292 -1.0663 -2.9875 0.9664
-7.7950 -1.7661 -2.9845 0.9664
-6.6903 -4.3766 -2.9853 0.9664
-5.8101 -5.4951 -2.9862 0.9664
-4.1544 -6.8391 -2.9880 0.9664
-2.2017 -7.6998 -2.9904 0.9664
-1.5081 -7.8676 -2.9913 0.9664
-0.8021 -7.9730 -2.9922 0.9664
1.3341 -7.9093 -2.9951 0.9663
2.0335 -7.7617 -2.9961 0.9663
3.3760 -7.2751 -2.9949 0.9663
4.0093 -6.9442 -2.9942 0.9663
4.6104 -6.5584 -2.9936 0.9663
5.1748 -6.1208 -2.9929 0.9664
5.6980 -5.6349 -2.9924 0.9664
6.1759 -5.1044 -2.9919 0.9664
6.9810 -3.9274 -2.9910 0.9664
7.3021 -3.2901 -2.9907 0.9664
7.7684 -1.9430 -2.9902 0.9664
7.9101 -1.2438 -2.9900 0.9664
7.9892 -0.5348 -2.9899 0.9664
8.0051 0.1784 -2.9899 0.9664
7.6745 2.2873 -2.9903 0.9664
7.1487 3.6124 -2.9909 0.9664
6.7997 4.2349 -2.9912 0.9664
5.6409 5.1019 -2.8401 0.9680
4.6487 6.0235 -2.8412 0.9680
3.5086 6.7552 -2.8424 0.9680
2.8979 7.0518 -2.8469 0.9680
2.2596 7.2841 -2.8478 0.9680
1.6027 7.4586 -2.8487 0.9680
-2.4248 7.2425 -2.8520 0.9679
-3.0586 6.9952 -2.8509 0.9679
-4.4778 6.6813 -3.0034 0.9662
-7.2648 3.4701 -3.0063 0.9662
-7.5456 2.8100 -3.0066 0.9662
-7.9253 1.4279 -3.0070 0.9662
-8.0212 0.7168 -3.0071 0.9662
-7.6611 0.0000 -3.0068 0.9676
-7.4853 -1.3485 -2.9851 0.9678
-6.5453 -3.8768 -2.9856 0.9678
-6.1750 -4.4445 -2.9860 0.9678
-5.2908 -5.4706 -2.9869 0.9678
-4.7837 -5.9208 -2.9875 0.9678
-1.7667 -7.4136 -2.9911 0.9678
-1.1002 -7.5436 -2.9920 0.9678
0.9327 -7.5731 -2.9947 0.9677
2.2618 -7.2911 -2.9961 0.9677
2.9011 -7.0592 -2.9954 0.9677
4.1050 -6.4303 -2.9941 0.9678
5.6548 -5.1144 -2.9924 0.9678
6.0867 -4.5901 -2.9920 0.9678
6.8023 -3.4373 -2.9912 0.9678
7.5722 -0.8470 -2.9904 0.9678
7.6023 0.5089 -2.9904 0.9678
7.1988 2.4997 -2.9908 0.9678
6.6429 3.7373 -2.9914 0.9678
5.8766 4.8572 -2.9922 0.9678
5.1463 5.0893 -2.8406 0.9694
4.6738 5.5281 -2.8411 0.9694
4.1640 5.9233 -2.8417 0.9694
3.0491 6.5706 -2.8429 0.9694
2.4562 6.8271 -2.8476 0.9693
1.2076 7.1587 -2.8493 0.9693
-1.3684 7.1388 -2.8528 0.9692
-1.9978 6.9867 -2.8520 0.9693
-2.6108 6.7789 -2.8510 0.9693
-4.5393 6.1609 -3.0034 0.9677
-5.0706 5.7335 -3.0040 0.9676
-5.5618 5.2604 -3.0045 0.9676
-6.0089 4.7452 -3.0050 0.9676
-6.4082 4.1922 -3.0054 0.9676
-6.7568 3.6056 -3.0058 0.9676
-7.0516 2.9902 -3.0061 0.9676
-7.6534 0.3413 -3.0067 0.9676
-7.6534 -0.3413 -3.0067 0.9676
-7.5488 -1.0152 -2.9894 0.9678
-7.4178 -1.6807 -2.9851 0.9678
-7.0028 -2.9694 -2.9853 0.9678
-4.5157 -6.1287 -2.9878 0.9678
-3.9531 -6.5077 -2.9884 0.9678
-3.3590 -6.8354 -2.9891 0.9678
-2.0949 -7.3265 -2.9907 0.9678
-1.4349 -7.4860 -2.9915 0.9678
0.5944 -7.6059 -2.9942 0.9677
1.9347 -7.3847 -2.9961 0.9677
2.5840 -7.1823 -2.9957 0.9677
3.8148 -6.6074 -2.9944 0.9677
6.6428 -3.7372 -2.9914 0.9678
6.9483 -3.1307 -2.9911 0.9678
7.1988 -2.4996 -2.9908 0.9678
7.3922 -1.8489 -2.9906 0.9678
7.6023 -0.5089 -2.9904 0.9678
7.6174 0.1698 -2.9903 0.9678
6.0867 4.5902 -2.9920 0.9678
5.3897 4.8747 -2.8521 0.9693
4.4233 5.7314 -2.8414 0.9694
3.8964 6.1036 -2.8420 0.9694
2.7537 6.7006 -2.8432 0.9694
2.1500 6.9309 -2.8480 0.9693
0.2427 7.2593 -2.8507 0.9693
-0.2639 4.7336 -1.8607 0.9798
-1.0489 7.1921 -2.8525 0.9693
-1.6848 7.0698 -2.8524 0.9693
-2.3067 6.8897 -2.8515 0.9693
-2.9097 6.6547 -2.8505 0.9693
-3.5105 6.4059 -2.8669 0.9691
-4.8098 5.9531 -3.0037 0.9676
-5.3215 5.5024 -3.0043 0.9676
-6.2147 4.4732 -3.0052 0.9676
-6.9111 3.3012 -3.0060 0.9676
-7.1782 2.6732 -3.0062 0.9676
-7.3882 2.0239 -3.0065 0.9676
-7.5394 1.3583 -3.0066 0.9676
-7.6306 0.6819 -3.0067 0.9676
-6.7947 -2.5304 -2.9857 0.9691
-5.4866 -4.7444 -2.9868 0.9691
-4.5600 -5.6439 -2.9878 0.9691
-4.0403 -6.0286 -2.9884 0.9691
-2.9087 -6.6524 -2.9898 0.9691
-2.3057 -6.8867 -2.9905 0.9691
-1.6840 -7.0664 -2.9913 0.9691
0.2429 -7.2664 -2.9938 0.9690
1.5284 -7.1124 -2.9956 0.9690
2.7652 -6.7285 -2.9955 0.9690
3.3523 -6.4544 -2.9949 0.9690
3.9127 -6.1291 -2.9943 0.9690
4.4419 -5.7555 -2.9937 0.9690
6.1674 -3.8411 -2.9919 0.9691
6.7493 -2.6861 -2.9913 0.9691
6.9611 -2.0746 -2.9910 0.9691
7.2611 -0.1618 -2.9907 0.9691
7.1750 1.1282 -2.9908 0.9691
5.6016 4.6299 -2.9925 0.9691
4.9054 4.8511 -2.8409 0.9706
3.9690 5.6460 -2.8419 0.9706
2.9062 6.2628 -2.8430 0.9706
2.3378 6.4980 -2.8436 0.9706
1.7533 6.6923 -2.8488 0.9705
1.1510 6.8237 -2.8495 0.9705
0.5393 6.9010 -2.8504 0.9705
-0.4778 4.7493 -1.9655 0.9796
-1.3039 6.8024 -2.8521 0.9705
-1.9037 6.6578 -2.8514 0.9705
-2.4880 6.4600 -2.8506 0.9705
-3.0521 6.2109 -2.8496 0.9705
-4.3262 5.8715 -3.0032 0.9689
-4.8325 5.4642 -3.0037 0.9689
-5.7266 4.5222 -3.0047 0.9689
-6.4392 3.4361 -3.0055 0.9689
-6.7202 2.8496 -3.0058 0.9689
-6.9477 2.2404 -3.0060 0.9689
-7.2936 0.3253 -3.0064 0.9689
-7.2936 -0.3252 -3.0064 0.9689
-6.9006 -2.2251 -2.9856 0.9691
-6.3975 -3.4138 -2.9860 0.9691
-4.8064 -5.4347 -2.9876 0.9691
-4.3045 -5.8420 -2.9881 0.9691
-3.7682 -6.2033 -2.9887 0.9691
-2.6098 -6.7762 -2.9901 0.9691
-1.9968 -6.9834 -2.9909 0.9691
0.5665 -7.2494 -2.9943 0.9690
1.2099 -7.1724 -2.9952 0.9690
2.4629 -6.8458 -2.9959 0.9690
3.0618 -6.5980 -2.9952 0.9690
3.6362 -6.2980 -2.9946 0.9690
5.6015 -4.6298 -2.9925 0.9691
5.9906 -4.1123 -2.9921 0.9691
6.3320 -3.5623 -2.9917 0.9691
6.6233 -2.9843 -2.9914 0.9691
6.8620 -2.3827 -2.9911 0.9691
7.1750 -1.1282 -2.9908 0.9691
7.2467 -0.4851 -2.9907 0.9691
7.2611 0.1618 -2.9907 0.9691
6.9611 2.0747 -2.9911 0.9691
6.4841 3.2766 -2.9916 0.9691
6.1675 3.8411 -2.9919 0.9691
5.8019 4.3754 -2.9923 0.9691
4.2162 5.4631 -2.8416 0.9706
3.7139 5.8178 -2.8422 0.9706
3.1820 6.1264 -2.8427 0.9706
2.6247 6.3867 -2.8433 0.9706
-0.2639 4.7335 -1.9522 0.9797
-0.9997 6.8544 -2.8524 0.9705
-1.6054 6.7368 -2.8518 0.9705
-2.1981 6.5654 -2.8510 0.9705
-2.7729 6.3417 -2.8501 0.9705
-3.4436 6.2838 -2.9506 0.9695
-4.5838 5.6735 -3.0035 0.9689
-5.0715 5.2439 -3.0040 0.9689
-6.5863 3.1460 -3.0056 0.9689
-6.8407 2.5475 -3.0059 0.9689
-7.0408 1.9287 -3.0061 0.9689
-7.2718 0.6498 -3.0063 0.9689
-6.9410 -0.6202 -3.0060 0.9701
-6.8167 -1.2281 -2.9879 0.9703
-5.6199 -4.0450 -2.9868 0.9703
-4.8150 -4.9787 -2.9877 0.9703
-3.8574 -5.7556 -2.9887 0.9703
-3.3305 -6.0773 -2.9894 0.9703
-1.6077 -6.7461 -2.9915 0.9702
-0.3863 -6.9280 -2.9931 0.9702
0.2319 -6.9368 -2.9939 0.9702
3.7354 -5.8513 -2.9945 0.9702
4.2406 -5.4947 -2.9940 0.9702
4.7121 -5.0946 -2.9934 0.9702
5.1460 -4.6542 -2.9930 0.9702
5.8881 -3.6671 -2.9922 0.9702
6.6459 -1.9807 -2.9914 0.9702
6.8912 -0.7709 -2.9911 0.9702
6.9187 0.4632 -2.9911 0.9702
6.7274 1.6826 -2.9913 0.9702
6.0453 3.4010 -2.9920 0.9702
5.3479 4.4202 -2.9928 0.9702
4.2531 5.0306 -2.8416 0.9717
3.2950 5.7070 -2.8426 0.9717
2.2318 6.2033 -2.8437 0.9717
1.6712 6.3787 -2.8444 0.9717
0.5148 6.5885 -2.8507 0.9716
-0.0736 6.6100 -2.8514 0.9716
-0.4778 4.7494 -2.0590 0.9794
-1.8169 6.3544 -2.8509 0.9716
-2.9200 5.9421 -2.8560 0.9716
-3.6136 5.9489 -3.0024 0.9701
-4.1295 5.6047 -3.0030 0.9701
-4.6128 5.2158 -3.0035 0.9701
-5.8294 3.8134 -3.0048 0.9701
-6.4145 2.7200 -3.0054 0.9701
-6.6316 2.1384 -3.0057 0.9701
-6.9618 0.3105 -3.0060 0.9701
-6.9618 -0.3104 -3.0060 0.9701
-6.8924 -0.9269 -2.9999 0.9702
-6.5884 -2.1245 -2.9861 0.9703
-5.7942 -3.7904 -2.9867 0.9703
-5.0317 -4.7589 -2.9874 0.9703
-4.5888 -5.1887 -2.9879 0.9703
-4.1096 -5.5775 -2.9885 0.9703
-3.5975 -5.9223 -2.9890 0.9703
-3.0568 -6.2203 -2.9897 0.9703
-2.4916 -6.4692 -2.9904 0.9703
0.5408 -6.9205 -2.9943 0.9702
1.7603 -6.7188 -2.9960 0.9702
2.9230 -6.2988 -2.9954 0.9702
3.9920 -5.6786 -2.9942 0.9702
4.4808 -5.2999 -2.9937 0.9702
4.9339 -4.8792 -2.9932 0.9702
5.3478 -4.4200 -2.9928 0.9702
5.7192 -3.9260 -2.9924 0.9702
6.0453 -3.4010 -2.9920 0.9702
6.7274 -1.6826 -2.9913 0.9702
6.9187 -0.4631 -2.9911 0.9702
6.9324 0.1545 -2.9911 0.9702
6.8912 0.7709 -2.9911 0.9702
6.6460 1.9808 -2.9914 0.9702
6.4438 2.5646 -2.9916 0.9702
6.1905 3.1282 -2.9919 0.9702
5.5391 4.1773 -2.9926 0.9702
5.1460 4.6543 -2.9930 0.9702
3.5456 5.5541 -2.8423 0.9717
1.3855 6.4475 -2.8447 0.9717
0.8065 6.5486 -2.8461 0.9717
-0.9541 6.5418 -2.8517 0.9716
-2.6466 6.0530 -2.8497 0.9716
-4.8409 5.0055 -3.0037 0.9701
-5.2681 4.5555 -3.0042 0.9701
-5.6534 4.0691 -3.0046 0.9701
-5.9938 3.5502 -3.0050 0.9701
-6.5295 2.4317 -3.0055 0.9701
-6.6613 0.0000 -3.0057 0.9712
-5.3733 -3.8674 -2.9872 0.9714
-5.0083 -4.3309 -2.9876 0.9714
-4.6036 -4.7601 -2.9880 0.9714
-3.6880 -5.5028 -2.9890 0.9713
-3.1842 -5.8104 -2.9896 0.9713
-2.6549 -6.0721 -2.9903 0.9713
-2.1045 -6.2857 -2.9910 0.9713
-1.5370 -6.4496 -2.9917 0.9713
-0.9571 -6.5624 -2.9924 0.9713
-0.3693 -6.6233 -2.9932 0.9713
1.3948 -6.4908 -2.9956 0.9713
1.9675 -6.3425 -2.9964 0.9713
4.0542 -5.2532 -2.9942 0.9713
5.9186 -2.9908 -2.9922 0.9713
6.3541 -1.8937 -2.9917 0.9713
6.5886 -0.7370 -2.9914 0.9713
6.6280 -0.1477 -2.9914 0.9713
6.6149 0.4429 -2.9914 0.9713
6.5494 1.0299 -2.9915 0.9713
6.2637 2.1750 -2.9918 0.9713
6.0457 2.7241 -2.9920 0.9713
5.1129 4.2260 -2.9930 0.9713
4.7172 4.6650 -2.9935 0.9713
3.6226 5.1532 -2.8423 0.9727
3.1501 5.4562 -2.8428 0.9727
2.1336 5.9305 -2.8439 0.9727
1.5976 6.0981 -2.8444 0.9727
1.0488 6.2174 -2.8450 0.9727
-0.0704 6.3181 -2.8510 0.9727
-1.1894 6.2052 -2.8509 0.9727
-1.7367 6.0736 -2.8503 0.9727
-2.2698 5.8934 -2.8496 0.9727
-4.4094 4.9858 -3.0033 0.9712
-4.8364 4.5743 -3.0037 0.9712
-5.2251 4.1262 -3.0042 0.9712
-5.5723 3.6453 -3.0045 0.9712
-6.6546 0.2968 -3.0057 0.9712
-6.6546 -0.2967 -3.0057 0.9712
-6.4550 -1.4625 -2.9864 0.9714
-6.0938 -2.5839 -2.9866 0.9714
-4.3874 -4.9608 -2.9882 0.9714
-3.4395 -5.6622 -2.9893 0.9713
-2.9225 -5.9471 -2.9899 0.9713
-2.3821 -6.1850 -2.9906 0.9713
-1.8225 -6.3740 -2.9913 0.9713
-1.2483 -6.5125 -2.9920 0.9713
-0.6639 -6.5994 -2.9928 0.9713
-0.0739 -6.6340 -2.9936 0.9713
0.5170 -6.6161 -2.9944 0.9713
1.1041 -6.5456 -2.9952 0.9713
2.7945 -6.0219 -2.9955 0.9713
4.2839 -5.0669 -2.9939 0.9713
5.4680 -3.7536 -2.9926 0.9713
5.7798 -3.2516 -2.9923 0.9713
6.0457 -2.7240 -2.9920 0.9713
6.2636 -2.1749 -2.9918 0.9713
6.4320 -1.6087 -2.9916 0.9713
6.5494 -1.0298 -2.9915 0.9713
6.6149 -0.4428 -2.9914 0.9713
6.4971 1.3206 -2.9916 0.9713
6.1608 2.4520 -2.9919 0.9713
5.9186 2.9908 -2.9922 0.9713
5.6295 3.5061 -2.9925 0.9713
4.9200 4.4498 -2.9933 0.9713
4.3919 4.7484 -2.9185 0.9720
3.8482 4.9863 -2.8420 0.9727
3.3897 5.3099 -2.8425 0.9727
2.9042 5.5916 -2.8430 0.9727
0.7708 6.2586 -2.8453 0.9727
-0.9119 6.2524 -2.8510 0.9727
-1.4645 6.1455 -2.8506 0.9727
-2.0053 5.9895 -2.8500 0.9727
-3.7046 5.5277 -3.0025 0.9712
-4.6275 4.7848 -3.0035 0.9712
-5.4041 3.8896 -3.0043 0.9712
-5.7295 3.3936 -3.0047 0.9712
-6.0094 2.8705 -3.0050 0.9712
-6.2415 2.3244 -3.0052 0.9712
-6.4241 1.7597 -3.0054 0.9712
-6.6348 0.5929 -3.0057 0.9712
-6.3757 0.0000 -3.0054 0.9722
-6.3504 -0.5675 -3.0053 0.9722
-6.1112 -1.6740 -2.9868 0.9724
-4.7947 -4.1461 -2.9879 0.9724
-4.4072 -4.5570 -2.9883 0.9724
-3.0482 -5.5624 -2.9899 0.9723
-2.5416 -5.8128 -2.9905 0.9723
-2.0146 -6.0173 -2.9912 0.9723
-1.4713 -6.1741 -2.9918 0.9723
-0.9162 -6.2821 -2.9926 0.9723
-0.3535 -6.3402 -2.9933 0.9723
0.7766 -6.3057 -2.9948 0.9723
2.4159 -5.8786 -2.9959 0.9723
2.9290 -5.6392 -2.9954 0.9723
3.8811 -5.0288 -2.9943 0.9723
4.3126 -4.6627 -2.9939 0.9723
4.7098 -4.2597 -2.9935 0.9723
5.0696 -3.8232 -2.9931 0.9723
5.3892 -3.3564 -2.9927 0.9723
5.6660 -2.8631 -2.9924 0.9723
5.8978 -2.3473 -2.9922 0.9723
6.0829 -1.8129 -2.9920 0.9723
6.3326 0.4239 -2.9917 0.9723
6.2699 0.9859 -2.9918 0.9723
5.5331 3.1129 -2.9926 0.9723
4.8946 4.0455 -2.9933 0.9723
4.5158 4.4657 -2.9937 0.9723
3.9778 4.7050 -2.9042 0.9731
3.4679 4.9331 -2.8424 0.9737
3.0156 5.2231 -2.8429 0.9737
2.5392 5.4717 -2.8434 0.9737
2.0425 5.6771 -2.8440 0.9737
1.5294 5.8375 -2.8445 0.9737
0.4710 6.0271 -2.8497 0.9736
-0.0673 6.0463 -2.8503 0.9736
-0.4778 4.7495 -2.2501 0.9791
-1.6621 5.8128 -2.8498 0.9736
-4.6292 4.3784 -3.0035 0.9722
-5.0012 3.9495 -3.0039 0.9722
-5.3335 3.4891 -3.0043 0.9722
-6.2178 1.4088 -3.0052 0.9722
-6.3694 0.2841 -3.0054 0.9722
-6.3187 -0.8498 -3.0053 0.9722
-5.5909 -2.9834 -2.9872 0.9724
-5.3036 -3.4695 -2.9874 0.9724
-4.6055 -4.3558 -2.9881 0.9724
-4.2002 -4.7492 -2.9886 0.9724
-3.2927 -5.4205 -2.9896 0.9723
-2.2804 -5.9209 -2.9908 0.9723
-0.0707 -6.3505 -2.9937 0.9723
0.4949 -6.3332 -2.9944 0.9723
2.1518 -5.9810 -2.9962 0.9723
2.6751 -5.7646 -2.9956 0.9723
3.1770 -5.5026 -2.9951 0.9723
3.6535 -5.1971 -2.9946 0.9723
5.2346 -3.5933 -2.9929 0.9723
5.7876 -2.6077 -2.9923 0.9723
6.3326 -0.4239 -2.9917 0.9723
6.3075 0.7056 -2.9918 0.9723
5.8979 2.3473 -2.9922 0.9723
5.3892 3.3564 -2.9927 0.9723
5.0697 3.8233 -2.9931 0.9723
4.3127 4.6628 -2.9939 0.9723
3.6839 4.7733 -2.8422 0.9737
2.2931 5.5799 -2.8437 0.9737
1.7877 5.7630 -2.8442 0.9737
1.2679 5.9004 -2.8448 0.9737
-0.2639 4.7331 -2.2346 0.9793
-0.8727 5.9837 -2.8504 0.9736
-1.4016 5.8815 -2.8501 0.9736
-1.9192 5.7323 -2.8495 0.9736
-2.4212 5.5374 -2.8488 0.9736
-3.0604 5.5846 -3.0018 0.9722
-4.0035 4.9552 -3.0028 0.9722
-4.4292 4.5799 -3.0033 0.9722
-4.8200 4.1681 -3.0037 0.9722
-5.1725 3.7230 -3.0041 0.9722
-5.4840 3.2482 -3.0044 0.9722
-5.9740 2.2248 -3.0050 0.9722
-6.1487 1.6843 -3.0051 0.9722
-6.1097 0.0000 -3.0051 0.9731
-6.0854 -0.5437 -3.0051 0.9731
-5.4806 -2.6179 -2.9874 0.9733
-4.9305 -3.5487 -2.9879 0.9733
-4.2242 -4.3677 -2.9886 0.9733
-2.4359 -5.5712 -2.9907 0.9733
-1.4102 -5.9173 -2.9920 0.9732
-0.8781 -6.0208 -2.9927 0.9732
0.7443 -6.0432 -2.9949 0.9732
1.2796 -5.9545 -2.9956 0.9732
1.8049 -5.8184 -2.9963 0.9732
3.7197 -4.8197 -2.9945 0.9732
5.1652 -3.2169 -2.9930 0.9732
5.4305 -2.7441 -2.9927 0.9732
5.6528 -2.2497 -2.9924 0.9732
6.0455 -0.6763 -2.9920 0.9732
6.0816 -0.1355 -2.9920 0.9732
6.0695 0.4063 -2.9920 0.9732
5.7472 1.9957 -2.9924 0.9732
5.5472 2.4995 -2.9926 0.9732
5.3032 2.9835 -2.9928 0.9732
3.9305 4.6490 -2.9943 0.9732
2.8902 5.0059 -2.8430 0.9746
2.4336 5.2441 -2.8435 0.9746
1.9575 5.4409 -2.8440 0.9746
1.4657 5.5946 -2.8446 0.9745
-0.0645 5.7932 -2.8496 0.9745
-0.4778 4.7496 -2.3479 0.9789
-1.0907 5.6902 -2.8497 0.9745
-1.5926 5.5697 -2.8493 0.9745
-2.0816 5.4048 -2.8487 0.9745
-4.0446 4.5733 -3.0029 0.9732
-5.3889 2.8756 -3.0043 0.9731
-5.8143 1.8749 -3.0048 0.9731
-5.9583 1.3500 -3.0049 0.9731
-6.0551 0.8144 -3.0050 0.9731
-6.1036 0.2722 -3.0051 0.9731
-5.9257 -1.3425 -2.9884 0.9733
-5.5917 -2.3710 -2.9873 0.9733
-4.7677 -3.7650 -2.9881 0.9733
-3.6051 -4.8929 -2.9893 0.9733
-2.6814 -5.4566 -2.9904 0.9733
-1.6722 -5.8480 -2.9917 0.9733
-1.1453 -5.9750 -2.9923 0.9732
-0.0678 -6.0862 -2.9938 0.9732
0.4743 -6.0696 -2.9945 0.9732
1.0129 -6.0048 -2.9952 0.9732
3.5016 -4.9810 -2.9947 0.9732
3.9304 -4.6489 -2.9943 0.9732
4.3280 -4.2800 -2.9939 0.9732
5.0171 -3.4440 -2.9931 0.9732
5.5472 -2.4994 -2.9926 0.9732
5.7472 -1.9956 -2.9923 0.9732
5.9017 -1.4761 -2.9922 0.9732
6.0696 -0.4063 -2.9920 0.9732
6.0816 0.1356 -2.9920 0.9732
6.0455 0.6763 -2.9920 0.9732
5.8303 1.7376 -2.9923 0.9732
5.4306 2.7442 -2.9927 0.9732
4.5141 4.0827 -2.9937 0.9732
4.1334 4.4690 -2.9941 0.9732
3.5996 4.6641 -2.8978 0.9741
3.1100 4.8717 -2.8428 0.9746
2.1977 5.3478 -2.8438 0.9746
1.7133 5.5232 -2.8443 0.9746
0.7072 5.7417 -2.8454 0.9745
-0.2639 4.7330 -2.3316 0.9791
-0.8362 5.7333 -2.8498 0.9745
-3.3982 5.0704 -3.0022 0.9732
-3.8365 4.7486 -3.0027 0.9732
-4.6190 3.9943 -3.0035 0.9731
-5.8922 1.6140 -3.0049 0.9731
-6.0127 1.0833 -3.0050 0.9731
-6.0854 0.5438 -3.0051 0.9731
-5.8611 0.0000 -3.0048 0.9740
-5.6203 -1.5395 -2.9875 0.9741
-5.4611 -2.0337 -2.9876 0.9741
-5.2587 -2.5118 -2.9877 0.9741
-5.0146 -2.9701 -2.9879 0.9741
-4.7307 -3.4050 -2.9882 0.9741
-4.4094 -3.8129 -2.9885 0.9741
-4.0530 -4.1908 -2.9889 0.9741
-3.6645 -4.5355 -2.9893 0.9741
-3.2467 -4.8445 -2.9898 0.9741
-2.3372 -5.3453 -2.9909 0.9741
-1.3530 -5.6774 -2.9921 0.9741
-0.8425 -5.7765 -2.9928 0.9741
0.1952 -5.8371 -2.9942 0.9741
1.7316 -5.5821 -2.9963 0.9741
2.2214 -5.4055 -2.9961 0.9741
3.9658 -4.2877 -2.9943 0.9741
4.3311 -3.9172 -2.9939 0.9741
4.6620 -3.5157 -2.9935 0.9741
4.9559 -3.0865 -2.9932 0.9741
5.5940 -1.6672 -2.9925 0.9741
5.8005 -0.6489 -2.9923 0.9741
5.8352 -0.1300 -2.9923 0.9741
5.8236 0.3899 -2.9923 0.9741
5.5143 1.9148 -2.9926 0.9741
4.8137 3.3045 -2.9934 0.9741
4.5010 3.7202 -2.9937 0.9741
3.7711 4.4605 -2.9945 0.9741
3.2514 4.6252 -2.8985 0.9749
2.7729 4.8028 -2.8432 0.9754
1.4062 5.3675 -2.8446 0.9754
0.9231 5.4724 -2.8452 0.9754
-0.0619 5.5568 -2.8490 0.9753
-0.4778 4.7497 -2.4473 0.9788
-1.5277 5.3427 -2.8488 0.9753
-1.9968 5.1846 -2.8483 0.9753
-3.0399 5.0043 -3.0018 0.9740
-4.2558 4.0252 -3.0031 0.9740
-4.5977 3.6308 -3.0035 0.9740
-4.9032 3.2075 -3.0038 0.9740
-5.1697 2.7586 -3.0041 0.9740
-5.3952 2.2878 -3.0043 0.9740
-5.5777 1.7986 -3.0045 0.9740
-5.7159 1.2951 -3.0047 0.9740
-5.8553 0.2611 -3.0048 0.9740
-5.8087 -0.7812 -3.0048 0.9740
-5.6881 -1.2887 -2.9900 0.9741
-5.3652 -2.2750 -2.9877 0.9741
-4.8775 -3.1907 -2.9881 0.9741
-4.5746 -3.6125 -2.9884 0.9741
-4.2354 -4.0058 -2.9887 0.9741
-3.8626 -4.3675 -2.9891 0.9741
-2.0970 -5.4447 -2.9912 0.9741
-1.6044 -5.6109 -2.9918 0.9741
-0.5844 -5.8090 -2.9931 0.9741
-0.0650 -5.8393 -2.9938 0.9741
0.9718 -5.7610 -2.9952 0.9741
1.9786 -5.4996 -2.9964 0.9741
3.3596 -4.7790 -2.9949 0.9741
4.1525 -4.1065 -2.9941 0.9741
4.5010 -3.7201 -2.9937 0.9741
4.8137 -3.3044 -2.9933 0.9741
5.0882 -2.8625 -2.9931 0.9741
5.6626 -1.4163 -2.9924 0.9741
4.9559 3.0866 -2.9932 0.9741
4.6620 3.5158 -2.9935 0.9741
4.3311 3.9173 -2.9939 0.9741
3.9658 4.2878 -2.9943 0.9741
2.9839 4.6742 -2.8429 0.9754
2.5564 4.9220 -2.8434 0.9754
2.1086 5.1308 -2.8439 0.9754
1.1659 5.4253 -2.8449 0.9754
0.6785 5.5086 -2.8454 0.9754
0.1857 5.5536 -2.8488 0.9753
-0.2639 4.7329 -2.4302 0.9789
-1.7640 5.2688 -2.8485 0.9753
-4.4312 3.8318 -3.0033 0.9740
-4.7551 3.4226 -3.0036 0.9740
-5.2877 2.5258 -3.0042 0.9740
-5.4919 2.0453 -3.0044 0.9740
-5.6525 1.5484 -3.0046 0.9740
-5.8378 0.5217 -3.0048 0.9740
-5.6282 0.0000 -3.0046 0.9748
-5.6058 -0.5009 -3.0045 0.9748
-5.5388 -0.9978 -3.0045 0.9748
-5.3980 -1.4786 -2.9878 0.9749
-5.2451 -1.9533 -2.9879 0.9749
-4.8162 -2.8526 -2.9882 0.9749
-4.5436 -3.2702 -2.9885 0.9749
-4.2349 -3.6620 -2.9888 0.9749
-3.8926 -4.0249 -2.9892 0.9749
-3.5194 -4.3560 -2.9896 0.9749
-3.1182 -4.6527 -2.9900 0.9749
-2.6921 -4.9126 -2.9905 0.9749
-0.8091 -5.5476 -2.9929 0.9749
0.1874 -5.6056 -2.9942 0.9749
0.6858 -5.5680 -2.9949 0.9749
1.1789 -5.4861 -2.9956 0.9749
2.5866 -4.9800 -2.9957 0.9749
3.0191 -4.7292 -2.9953 0.9749
3.4275 -4.4411 -2.9948 0.9749
3.8087 -4.1178 -2.9944 0.9749
4.1596 -3.7620 -2.9940 0.9749
4.4774 -3.3765 -2.9937 0.9749
5.0042 -2.5287 -2.9931 0.9749
5.5377 0.8708 -2.9926 0.9749
5.2960 1.8390 -2.9928 0.9749
5.1117 2.3032 -2.9930 0.9749
4.8868 2.7493 -2.9933 0.9749
4.3228 3.5729 -2.9939 0.9749
2.6630 4.6125 -2.8433 0.9761
2.2423 4.8320 -2.8437 0.9761
1.8036 5.0132 -2.8442 0.9761
1.3505 5.1548 -2.8447 0.9761
0.8865 5.2554 -2.8452 0.9761
0.4156 5.3185 -2.8479 0.9761
-1.0045 5.2406 -2.8486 0.9761
-1.4668 5.1299 -2.8483 0.9761
-3.3358 4.5274 -3.0021 0.9748
-4.7084 3.0801 -3.0036 0.9748
-5.5779 0.7502 -3.0045 0.9748
-5.6226 -0.2507 -3.0046 0.9748
-5.5779 -0.7501 -3.0045 0.9748
-5.4650 -1.2382 -2.9914 0.9749
-5.1530 -2.1850 -2.9880 0.9749
-4.9383 -2.6351 -2.9881 0.9749
-3.3221 -4.5088 -2.9898 0.9749
-2.9081 -4.7873 -2.9903 0.9749
-2.4709 -5.0281 -2.9908 0.9749
-2.0139 -5.2290 -2.9914 0.9749
-1.5408 -5.3886 -2.9920 0.9749
-0.5612 -5.5787 -2.9932 0.9749
-0.0625 -5.6078 -2.9939 0.9749
0.9333 -5.5325 -2.9952 0.9749
1.4223 -5.4288 -2.9959 0.9749
1.9002 -5.2816 -2.9965 0.9749
3.2265 -4.5897 -2.9950 0.9749
4.6231 -3.1735 -2.9935 0.9749
4.8868 -2.7492 -2.9933 0.9749
5.2960 -1.8390 -2.9928 0.9749
5.4384 -1.3602 -2.9927 0.9749
5.5931 -0.3744 -2.9925 0.9749
5.6042 0.1249 -2.9925 0.9749
4.7597 2.9644 -2.9934 0.9749
4.4774 3.3766 -2.9937 0.9749
4.1596 3.7621 -2.9941 0.9749
3.4275 4.4412 -2.9949 0.9749
2.4551 4.7270 -2.8435 0.9761
-0.7701 5.2802 -2.8486 0.9761
-2.7020 4.9305 -3.0014 0.9748
-3.1305 4.6712 -3.0019 0.9748
-3.9103 4.0432 -3.0027 0.9748
-4.2551 3.6796 -3.0031 0.9748
-4.5663 3.2866 -3.0034 0.9748
-5.0776 2.4254 -3.0040 0.9748
-5.2737 1.9640 -3.0042 0.9748
-5.4278 1.4869 -3.0044 0.9748
-5.3879 -0.4814 -3.0043 0.9756
-5.0420 -1.8776 -2.9882 0.9757
-4.6297 -2.7422 -2.9885 0.9757
-4.3676 -3.1436 -2.9888 0.9757
-3.7419 -3.8690 -2.9894 0.9757
-3.3831 -4.1873 -2.9898 0.9757
-2.9974 -4.4724 -2.9903 0.9757
-1.7102 -5.1081 -2.9918 0.9757
-1.2490 -5.2411 -2.9924 0.9756
-0.7777 -5.3325 -2.9930 0.9756
-0.3001 -5.3817 -2.9936 0.9756
0.1802 -5.3882 -2.9943 0.9756
0.6592 -5.3520 -2.9949 0.9756
1.5984 -5.1526 -2.9962 0.9756
2.4863 -4.7869 -2.9958 0.9756
3.2946 -4.2689 -2.9950 0.9756
3.6611 -3.9583 -2.9946 0.9756
3.9984 -3.6163 -2.9942 0.9756
4.3039 -3.2457 -2.9939 0.9756
5.1644 -1.5391 -2.9930 0.9756
5.3871 -0.1200 -2.9927 0.9756
5.3765 0.3600 -2.9928 0.9756
5.2278 1.3076 -2.9929 0.9756
5.0909 1.7678 -2.9931 0.9756
4.9137 2.2140 -2.9933 0.9756
4.6975 2.6428 -2.9935 0.9756
4.4440 3.0507 -2.9938 0.9756
3.8336 3.7911 -2.9944 0.9756
3.4814 4.1178 -2.9948 0.9756
2.6281 4.5520 -2.9192 0.9762
2.1554 4.6446 -2.8438 0.9768
1.7337 4.8188 -2.8443 0.9768
-0.4778 4.7499 -2.6514 0.9784
-1.4097 4.9300 -2.8478 0.9768
-3.5813 4.0494 -3.0024 0.9756
-3.9279 3.7151 -3.0028 0.9756
-4.5254 2.9604 -3.0034 0.9756
-4.7713 2.5461 -3.0037 0.9756
-5.1478 1.6600 -3.0041 0.9756
-5.3610 0.7210 -3.0043 0.9756
-5.4040 -0.2410 -3.0043 0.9756
-5.3610 -0.7209 -3.0043 0.9756
-3.9103 -3.6983 -2.9892 0.9757
-2.3751 -4.8333 -2.9910 0.9757
-1.9359 -5.0264 -2.9915 0.9757
-1.0144 -5.2920 -2.9927 0.9756
-0.0600 -5.3903 -2.9940 0.9756
0.8970 -5.3179 -2.9953 0.9756
1.8265 -5.0768 -2.9965 0.9756
2.2708 -4.8932 -2.9961 0.9756
2.6968 -4.6710 -2.9956 0.9756
4.1553 -3.4344 -2.9941 0.9756
4.6974 -2.6427 -2.9935 0.9756
5.0909 -1.7677 -2.9931 0.9756
5.2278 -1.3075 -2.9929 0.9756
5.3871 0.1201 -2.9927 0.9756
5.3551 0.5991 -2.9928 0.9756
5.2807 1.0734 -2.9929 0.9756
5.1644 1.5392 -2.9930 0.9756
4.8104 2.4308 -2.9934 0.9756
4.5753 2.8496 -2.9936 0.9756
2.9021 4.5460 -2.9954 0.9756
1.0762 5.0081 -2.8450 0.9768
0.6266 5.0877 -2.8470 0.9768
-0.2639 4.7326 -2.6326 0.9785
-0.7400 5.0744 -2.8481 0.9768
-1.6279 4.8624 -2.8479 0.9768
-3.3971 4.2047 -3.0022 0.9756
-4.0898 3.5366 -3.0029 0.9756
-4.8802 2.3311 -3.0038 0.9756
-5.0686 1.8876 -3.0040 0.9756
-5.3235 0.9591 -3.0042 0.9756
-5.1207 -0.9225 -3.0040 0.9763
-4.8508 -1.8064 -2.9885 0.9764
-4.6709 -2.2311 -2.9886 0.9764
-4.2019 -3.0243 -2.9890 0.9764
-2.8836 -4.3027 -2.9905 0.9764
-2.4896 -4.5429 -2.9909 0.9764
-2.0757 -4.7473 -2.9914 0.9764
-1.6452 -4.9141 -2.9919 0.9763
0.6341 -5.1485 -2.9950 0.9763
1.5376 -4.9566 -2.9962 0.9763
1.9727 -4.8004 -2.9964 0.9763
2.3918 -4.6050 -2.9959 0.9763
2.7918 -4.3732 -2.9955 0.9763
3.1695 -4.1068 -2.9951 0.9763
3.5220 -3.8079 -2.9947 0.9763
3.8465 -3.4790 -2.9944 0.9763
4.4016 -2.7413 -2.9938 0.9763
4.6277 -2.3384 -2.9935 0.9763
4.9684 -1.4807 -2.9932 0.9763
5.1519 -0.5763 -2.9930 0.9763
5.1827 -0.1155 -2.9930 0.9763
5.1724 0.3463 -2.9930 0.9763
5.1212 0.8053 -2.9930 0.9763
5.0293 1.2579 -2.9931 0.9763
4.8977 1.7007 -2.9933 0.9763
4.7271 2.1299 -2.9935 0.9763
3.3492 3.9614 -2.9949 0.9763
2.9837 4.2443 -2.9953 0.9763
2.5944 4.4937 -2.9958 0.9763
2.0892 4.5020 -2.8655 0.9773
1.6678 4.6357 -2.8443 0.9775
1.2488 4.7665 -2.8448 0.9775
-0.0549 4.9314 -2.8473 0.9775
-1.3559 4.7422 -2.8476 0.9775
-1.8679 4.8499 -3.0005 0.9763
-2.2924 4.6651 -3.0010 0.9763
-3.0841 4.1859 -3.0019 0.9763
-4.3530 2.8477 -3.0032 0.9763
-4.5896 2.4491 -3.0035 0.9763
-4.7897 2.0310 -3.0037 0.9763
-4.9517 1.5967 -3.0039 0.9763
-5.0744 1.1497 -3.0040 0.9763
-5.1568 0.6936 -3.0041 0.9763
-5.1981 0.2318 -3.0041 0.9763
-5.1567 -0.6935 -3.0041 0.9763
-4.9263 -1.5885 -2.9884 0.9764
-4.0632 -3.2087 -2.9892 0.9764
-3.4307 -3.8791 -2.9898 0.9764
-3.0722 -4.1696 -2.9902 0.9764
-2.6893 -4.4272 -2.9907 0.9764
-2.2849 -4.6497 -2.9912 0.9764
-1.4248 -4.9830 -2.9922 0.9763
-0.9758 -5.0910 -2.9928 0.9763
-0.0578 -5.1854 -2.9940 0.9763
1.7570 -4.8837 -2.9965 0.9763
2.1845 -4.7073 -2.9962 0.9763
2.5944 -4.4936 -2.9957 0.9763
2.9836 -4.2442 -2.9953 0.9763
3.3491 -3.9613 -2.9949 0.9763
3.9975 -3.3040 -2.9942 0.9763
4.5191 -2.5424 -2.9937 0.9763
5.1827 0.1155 -2.9930 0.9763
4.9684 1.4808 -2.9932 0.9763
4.8172 1.9172 -2.9934 0.9763
4.6277 2.3385 -2.9936 0.9763
4.4016 2.7414 -2.9938 0.9763
4.1405 3.1225 -2.9941 0.9763
3.8466 3.4790 -2.9944 0.9763
3.5221 3.8080 -2.9948 0.9763
2.7918 4.3733 -2.9955 0.9763
1.8725 4.5564 -2.8441 0.9775
1.4598 4.7058 -2.8446 0.9775
1.0353 4.8178 -2.8450 0.9775
