ply
format ascii 1.0
element vertex 1584
property float32 x
property float32 y
property float32 z
property float32 I
end_header
1.8213 5.0623 1.4176 0.9780
-1.8098 -2.9794 0.9186 0.9857
-1.4027 -2.8545 0.8381 0.9869
-0.6418 -3.3483 0.8983 0.9860
-2.0302 -3.0293 0.8963 0.9851
-1.5379 -2.8063 0.7866 0.9869
-0.5064 -3.4724 0.8626 0.9856
1.8212 5.0621 1.3223 0.9781
-1.3730 -2.7941 0.7652 0.9873
-0.6186 -3.2275 0.8078 0.9866
1.5796 5.0922 1.3105 0.9783
-1.9183 -2.8623 0.7865 0.9860
-0.9566 -2.8572 0.6877 0.9877
-0.4871 -3.3399 0.7704 0.9862
1.8212 5.0619 1.2279 0.9782
-1.3479 -2.7429 0.6976 0.9875
-1.0784 -2.8001 0.6849 0.9878
-0.8365 -2.9254 0.6945 0.9876
-0.6043 -3.1529 0.7327 0.9869
1.5797 5.0926 1.2170 0.9784
-1.8598 -2.7750 0.7043 0.9864
-1.4765 -2.6944 0.6477 0.9875
-1.1887 -2.7187 0.6255 0.9879
-0.9399 -2.8075 0.6242 0.9880
-0.4728 -3.2418 0.6907 0.9867
1.8211 5.0618 1.1341 0.9782
-1.6452 -2.7084 0.6681 0.9871
-0.8209 -2.8711 0.6295 0.9879
-0.5908 -3.0821 0.6616 0.9873
-0.3552 -3.5306 0.7481 0.9856
-1.1687 -2.6730 0.5646 0.9882
-0.6936 -2.9106 0.5790 0.9879
-2.0901 -2.8367 0.6819 0.9857
-1.0427 -2.7074 0.5614 0.9882
-0.8062 -2.8197 0.5675 0.9881
-0.5779 -3.0149 0.5941 0.9876
1.5800 5.0934 1.0320 0.9785
-1.7710 -2.6425 0.5609 0.9872
-1.1566 -2.6454 0.5091 0.9883
-0.9151 -2.7334 0.5083 0.9884
-0.2065 -3.7044 0.6542 0.9850
1.8210 5.0614 0.9485 0.9784
-1.2868 -2.6185 0.5145 0.9882
-0.7975 -2.7891 0.5115 0.9883
-0.5686 -2.9667 0.5326 0.9878
-0.3320 -3.3001 0.5848 0.9866
1.5801 5.0938 0.9404 0.9786
-1.7459 -2.6050 0.4994 0.9874
-1.4124 -2.5773 0.4680 0.9882
-1.1449 -2.6185 0.4551 0.9885
-0.6777 -2.8440 0.4656 0.9882
-0.1965 -3.5244 0.5621 0.9858
1.8209 5.0613 0.8565 0.9784
-1.0218 -2.6531 0.4527 0.9886
-0.7892 -2.7599 0.4571 0.9884
-0.5621 -2.9327 0.4755 0.9880
-0.3254 -3.2350 0.5177 0.9869
-2.2308 -2.7611 0.5049 0.9858
-1.1334 -2.5923 0.4024 0.9886
-0.8970 -2.6792 0.4019 0.9886
-0.6705 -2.8136 0.4114 0.9884
-0.1911 -3.4271 0.4882 0.9862
-1.9272 -2.6157 0.4621 0.9870
-1.5491 -2.5502 0.4244 0.9880
-1.2607 -2.5654 0.4066 0.9885
-1.0117 -2.6269 0.4004 0.9887
-0.5560 -2.9007 0.4201 0.9881
-2.1753 -2.6924 0.4338 0.9861
-1.6981 -2.5337 0.3822 0.9878
-1.3814 -2.5207 0.3602 0.9885
-0.8882 -2.6531 0.3506 0.9888
-0.6634 -2.7840 0.3586 0.9885
-0.4356 -2.9871 0.3783 0.9879
-0.1873 -3.3585 0.4215 0.9865
1.8208 5.0610 0.6740 0.9786
-1.2481 -2.5399 0.3546 0.9887
-0.7736 -2.7057 0.3527 0.9887
-0.5500 -2.8695 0.3661 0.9883
-0.3146 -3.1276 0.3939 0.9874
1.5805 5.0950 0.6685 0.9787
-2.1316 -2.6383 0.3679 0.9864
-1.1113 -2.5417 0.3009 0.9889
-0.8797 -2.6276 0.3006 0.9889
-0.4302 -2.9500 0.3234 0.9881
-0.1840 -3.3000 0.3585 0.9868
-1.5147 -2.4936 0.3165 0.9883
-1.2358 -2.5149 0.3039 0.9888
-0.7662 -2.6795 0.3023 0.9888
-0.3106 -3.0871 0.3365 0.9876
1.5806 5.0954 0.5787 0.9788
-1.3528 -2.4686 0.2581 0.9888
-1.1020 -2.5204 0.2522 0.9890
-0.6504 -2.7295 0.2572 0.9888
-0.4250 -2.9138 0.2700 0.9882
-0.1808 -3.2437 0.2978 0.9870
1.8207 5.0606 0.4931 0.9786
-2.5433 -2.8758 0.3520 0.9847
-1.8470 -2.5068 0.2855 0.9876
-1.4982 -2.4664 0.2646 0.9885
-0.5388 -2.8108 0.2624 0.9886
-0.0399 -3.5840 0.3286 0.9857
1.5807 5.0958 0.4891 0.9788
-2.0550 -2.5435 0.2450 0.9870
-1.0962 -2.5071 0.2051 0.9891
1.8206 5.0605 0.4030 0.9787
-2.4172 -2.7332 0.2734 0.9855
-1.8285 -2.4818 0.2310 0.9877
-1.4892 -2.4516 0.2150 0.9886
-1.2185 -2.4796 0.2070 0.9890
-0.9791 -2.5422 0.2042 0.9891
-0.5357 -2.7947 0.2132 0.9887
-0.3041 -3.0226 0.2277 0.9879
-1.6312 -2.4340 0.1707 0.9883
-1.0904 -2.4939 0.1585 0.9892
-0.8634 -2.5789 0.1584 0.9892
-0.6431 -2.6989 0.1616 0.9889
-0.4192 -2.8744 0.1692 0.9884
-0.1769 -3.1724 0.1851 0.9873
-1.2120 -2.4664 0.1601 0.9890
-0.9740 -2.5291 0.1578 0.9892
-0.7518 -2.6293 0.1593 0.9891
-0.3020 -3.0017 0.1757 0.9880
-0.0383 -3.4388 0.2003 0.9863
-2.0129 -2.4915 0.1332 0.9873
-0.6396 -2.6839 0.1147 0.9890
-0.4164 -2.8554 0.1200 0.9885
-0.1753 -3.1437 0.1309 0.9875
-2.3206 -2.6239 0.1456 0.9861
-1.8016 -2.4451 0.1263 0.9879
-0.7479 -2.6157 0.1131 0.9892
-0.2999 -2.9812 0.1246 0.9881
-1.9926 -2.4663 0.0791 0.9874
-1.3222 -2.4127 0.0686 0.9891
-1.0791 -2.4680 0.0672 0.9893
-0.8546 -2.5525 0.0671 0.9893
-0.6361 -2.6691 0.0684 0.9891
1.8205 5.0600 0.1341 0.9787
-2.2797 -2.5777 0.0858 0.9863
-1.7884 -2.4272 0.0752 0.9880
-1.4630 -2.4085 0.0703 0.9888
-1.1994 -2.4406 0.0678 0.9892
-0.5266 -2.7474 0.0698 0.9889
-0.2979 -2.9609 0.0742 0.9882
1.5812 5.0973 0.1331 0.9789
-1.9743 -2.4436 0.0261 0.9875
-1.6020 -2.3904 0.0239 0.9886
-1.3152 -2.4000 0.0227 0.9891
-0.8502 -2.5395 0.0223 0.9893
-0.1722 -3.0881 0.0257 0.9877
-1.4545 -2.3946 0.0233 0.9889
-1.1931 -2.4279 0.0225 0.9892
-0.9592 -2.4905 0.0222 0.9894
-0.2958 -2.9410 0.0246 0.9882
-0.0368 -3.3054 0.0275 0.9869
1.5813 5.0977 0.0444 0.9789
-1.9593 -2.4252 -0.0259 0.9876
-1.5925 -2.3763 -0.0238 0.9886
-0.8459 -2.5266 -0.0221 0.9894
-0.6291 -2.6400 -0.0226 0.9892
1.8204 5.0597 -0.0447 0.9787
-1.7626 -2.3923 -0.0247 0.9882
-1.1869 -2.4154 -0.0224 0.9893
-0.9543 -2.4779 -0.0221 0.9894
-0.2939 -2.9212 -0.0244 0.9883
-0.0365 -3.2745 -0.0272 0.9870
-1.5841 -2.3636 -0.0710 0.9887
-1.0629 -2.4310 -0.0662 0.9894
-0.8419 -2.5147 -0.0661 0.9894
-0.6260 -2.6270 -0.0673 0.9893
0.1213 -3.6292 -0.0906 0.9856
1.8203 5.0595 -0.1341 0.9787
-2.2119 -2.5011 -0.0833 0.9867
-1.4385 -2.3682 -0.0691 0.9890
-0.7330 -2.5636 -0.0665 0.9894
-0.5182 -2.7037 -0.0687 0.9890
-0.2922 -2.9052 -0.0728 0.9884
-1.9422 -2.4039 -0.1285 0.9877
-1.5810 -2.3591 -0.1181 0.9887
-1.0611 -2.4269 -0.1101 0.9895
-0.8405 -2.5105 -0.1101 0.9895
1.8203 5.0594 -0.2236 0.9787
-2.2043 -2.4925 -0.1383 0.9868
-1.7475 -2.3718 -0.1225 0.9883
-1.4358 -2.3637 -0.1150 0.9890
-1.1792 -2.3997 -0.1112 0.9894
-0.9482 -2.4621 -0.1097 0.9895
-0.7318 -2.5594 -0.1107 0.9894
-0.5173 -2.6987 -0.1143 0.9891
-0.2916 -2.8988 -0.1211 0.9884
-0.0361 -3.2421 -0.1348 0.9871
1.5817 5.0989 -0.2220 0.9789
-2.7850 -2.8797 -0.2333 0.9841
-1.2975 -2.3677 -0.1573 0.9892
-0.8391 -2.5063 -0.1539 0.9895
-0.1685 -3.0225 -0.1763 0.9879
0.1200 -3.5896 -0.2092 0.9857
-1.7434 -2.3662 -0.1712 0.9883
-1.4331 -2.3592 -0.1608 0.9890
-1.1772 -2.3956 -0.1555 0.9894
-0.9467 -2.4580 -0.1534 0.9895
-0.7306 -2.5551 -0.1548 0.9894
1.5818 5.0992 -0.3110 0.9788
-1.9327 -2.3921 -0.2305 0.9877
-1.2953 -2.3637 -0.2020 0.9892
-0.6227 -2.6129 -0.2013 0.9893
-0.4037 -2.7678 -0.2096 0.9888
-0.1681 -3.0145 -0.2263 0.9880
-2.1891 -2.4753 -0.2476 0.9868
-1.7394 -2.3607 -0.2197 0.9883
-1.4304 -2.3548 -0.2065 0.9890
-1.1752 -2.3916 -0.1997 0.9894
-0.9451 -2.4539 -0.1971 0.9895
-0.5154 -2.6888 -0.2052 0.9891
1.5820 5.0996 -0.4001 0.9788
-2.6236 -2.7128 -0.3460 0.9850
-1.9279 -2.3863 -0.2812 0.9878
-1.5718 -2.3454 -0.2588 0.9887
-1.2931 -2.3596 -0.2467 0.9893
-0.8363 -2.4980 -0.2415 0.9895
-0.4029 -2.7627 -0.2560 0.9888
-0.1677 -3.0075 -0.2762 0.9880
1.8201 5.0589 -0.4929 0.9786
-1.4277 -2.3504 -0.2521 0.9890
-1.1732 -2.3875 -0.2439 0.9894
-0.7281 -2.5465 -0.2428 0.9894
-0.5144 -2.6839 -0.2505 0.9891
-0.0358 -3.2121 -0.2945 0.9872
1.5821 5.1000 -0.4895 0.9788
-2.5915 -2.6796 -0.4043 0.9851
-1.5688 -2.3409 -0.3057 0.9887
-1.0540 -2.4107 -0.2854 0.9895
-0.8349 -2.4938 -0.2853 0.9895
-0.6204 -2.6035 -0.2903 0.9893
-0.4021 -2.7575 -0.3023 0.9889
0.1182 -3.5348 -0.3836 0.9859
1.8200 5.0587 -0.5831 0.9786
-1.7313 -2.3497 -0.3166 0.9883
-1.4250 -2.3460 -0.2977 0.9890
-1.1712 -2.3834 -0.2881 0.9894
-0.9420 -2.4458 -0.2843 0.9895
-0.7269 -2.5422 -0.2868 0.9894
-0.0357 -3.2022 -0.3474 0.9872
-2.6286 -2.7179 -0.4738 0.9849
-1.9185 -2.3746 -0.3826 0.9878
-1.0523 -2.4067 -0.3292 0.9895
-1.1693 -2.3794 -0.3322 0.9894
-0.9404 -2.4417 -0.3279 0.9895
-0.2884 -2.8668 -0.3611 0.9885
-0.0355 -3.1923 -0.4001 0.9872
1.5823 5.1008 -0.6693 0.9787
-1.9188 -2.3750 -0.4343 0.9877
-1.5627 -2.3318 -0.3993 0.9887
-0.4006 -2.7471 -0.3949 0.9888
-2.1753 -2.4596 -0.4670 0.9868
-1.7244 -2.3404 -0.4135 0.9883
-1.4196 -2.3371 -0.3889 0.9890
-0.5116 -2.6691 -0.3866 0.9891
-0.0356 -3.2018 -0.4554 0.9871
1.5824 5.1012 -0.7597 0.9787
-1.5650 -2.3352 -0.4476 0.9887
-1.0498 -2.4009 -0.4173 0.9894
-0.8316 -2.4839 -0.4171 0.9894
-0.4011 -2.7507 -0.4426 0.9888
-0.1673 -3.0003 -0.4785 0.9879
-1.7286 -2.3461 -0.4640 0.9883
-0.7241 -2.5325 -0.4194 0.9894
-0.5119 -2.6706 -0.4330 0.9890
1.5826 5.1016 -0.8505 0.9786
-1.9287 -2.3873 -0.5412 0.9876
-1.2885 -2.3513 -0.4728 0.9892
-0.8330 -2.4880 -0.4626 0.9894
-0.4019 -2.7558 -0.4911 0.9888
0.1203 -3.5980 -0.6348 0.9855
-2.1916 -2.4781 -0.5833 0.9867
-1.7329 -2.3519 -0.5151 0.9882
-1.4232 -2.3430 -0.4834 0.9889
-1.1688 -2.3784 -0.4673 0.9893
-0.5128 -2.6755 -0.4803 0.9890
-0.2892 -2.8750 -0.5095 0.9883
-1.5713 -2.3446 -0.5462 0.9886
-1.0534 -2.4092 -0.5088 0.9893
-0.8344 -2.4922 -0.5086 0.9893
-0.6203 -2.6032 -0.5179 0.9892
-0.4027 -2.7610 -0.5400 0.9887
-0.1680 -3.0141 -0.5842 0.9878
0.1210 -3.6172 -0.7004 0.9854
10.3038 10.1896 -2.8043 0.9427
8.3522 11.8811 -2.8105 0.9425
7.2709 12.5935 -2.8141 0.9425
1.8197 5.0579 -1.0402 0.9783
2.4335 14.4265 -2.8312 0.9421
1.1417 14.6107 -2.8360 0.9420
-0.1635 14.6799 -2.8410 0.9419
-1.4720 14.6331 -2.8461 0.9418
-2.7714 14.4582 -2.8489 0.9418
-2.1999 -2.4875 -0.6426 0.9866
-1.7372 -2.3578 -0.5667 0.9881
-1.1708 -2.3825 -0.5137 0.9892
-0.9412 -2.4439 -0.5068 0.9894
-0.7266 -2.5411 -0.5115 0.9893
-0.5138 -2.6804 -0.5281 0.9889
-0.2899 -2.8814 -0.5604 0.9883
-0.0360 -3.2316 -0.6254 0.9869
12.2711 7.6425 -2.7976 0.9428
11.5496 8.7099 -2.7994 0.9428
10.7425 9.7159 -2.8030 0.9427
7.8196 12.2491 -2.8122 0.9425
6.7072 12.9136 -2.8160 0.9424
1.7899 14.5328 -2.8336 0.9421
0.4902 14.6597 -2.8385 0.9420
-0.8180 14.6710 -2.8435 0.9419
-14.4629 0.0000 -3.0491 0.9426
-13.7456 -3.7653 -3.0046 0.9434
-12.8571 -6.1413 -3.0039 0.9434
-12.2580 -7.2605 -3.0035 0.9434
-10.7796 -9.3215 -3.0044 0.9434
-9.9051 -10.2418 -3.0038 0.9434
-1.9389 -2.3998 -0.6504 0.9875
-1.5745 -2.3494 -0.5962 0.9885
-1.2931 -2.3596 -0.5673 0.9891
-0.8358 -2.4965 -0.5550 0.9893
-0.4034 -2.7662 -0.5894 0.9886
-0.1685 -3.0219 -0.6381 0.9877
0.1251 -3.7417 -0.7893 0.9848
1.7328 -14.0695 -2.9885 0.9437
6.5200 -12.5531 -2.9821 0.9438
8.6243 -11.1748 -2.9759 0.9439
9.5721 -10.3493 -2.9720 0.9440
12.5264 -6.3298 -2.9588 0.9442
13.7227 -2.7892 -2.9522 0.9444
13.9093 -1.5560 -2.9506 0.9444
13.9872 -0.3117 -2.9495 0.9444
13.9558 0.9342 -2.9487 0.9444
13.5674 3.3934 -2.9484 0.9444
13.2134 4.5882 -2.9488 0.9444
12.7560 5.7476 -2.9496 0.9444
10.9587 7.5227 -2.8023 0.9471
9.4712 9.3662 -2.8082 0.9470
8.6081 10.1816 -2.8108 0.9470
6.6814 11.5725 -2.8171 0.9468
1.8197 5.0578 -1.1332 0.9783
3.4005 12.9793 -2.8286 0.9466
2.2351 13.2504 -2.8329 0.9465
1.0485 13.4176 -2.8373 0.9465
-0.1501 13.4793 -2.8419 0.9464
-2.5438 13.2710 -2.8487 0.9463
-3.7165 12.9974 -2.8499 0.9462
-5.1264 13.3105 -3.0071 0.9434
-6.3001 12.8204 -3.0115 0.9433
-7.4269 12.2263 -3.0159 0.9432
-8.4976 11.5331 -3.0201 0.9431
-10.4353 9.8696 -3.0281 0.9430
-11.2859 8.9124 -3.0317 0.9429
-12.0478 7.8813 -3.0351 0.9428
-14.0891 3.1921 -3.0455 0.9427
-14.4462 0.6442 -3.0486 0.9426
-14.4505 -0.6444 -3.0495 0.9426
-13.9003 -3.1494 -3.0047 0.9434
-13.5634 -4.3737 -3.0044 0.9434
-11.9224 -7.7993 -3.0035 0.9434
-11.1847 -8.8325 -3.0045 0.9434
-2.2083 -2.4970 -0.7028 0.9865
-1.7415 -2.3636 -0.6190 0.9881
-1.1728 -2.3867 -0.5606 0.9892
-0.2905 -2.8878 -0.6119 0.9882
-0.0361 -3.2418 -0.6835 0.9868
1.1048 -14.1379 -2.9896 0.9437
2.3572 -13.9746 -2.9877 0.9437
3.5897 -13.7019 -2.9861 0.9437
4.7924 -13.3208 -2.9845 0.9438
7.0708 -12.2470 -2.9813 0.9438
8.1235 -11.5558 -2.9779 0.9439
10.8463 -8.9647 -2.9665 0.9441
11.5882 -7.9549 -2.9632 0.9442
12.2377 -6.8848 -2.9602 0.9442
12.7902 -5.7630 -2.9575 0.9443
13.2416 -4.5980 -2.9551 0.9443
13.5889 -3.3988 -2.9530 0.9443
13.8295 -2.1746 -2.9514 0.9444
13.9619 -0.9346 -2.9500 0.9444
13.9852 0.3117 -2.9491 0.9444
13.7049 2.7856 -2.9483 0.9444
12.9974 5.1728 -2.9491 0.9444
12.4896 6.3113 -2.9501 0.9444
10.6160 8.0058 -2.8031 0.9471
9.0486 9.7833 -2.8094 0.9470
8.1502 10.5605 -2.8123 0.9469
6.1631 11.8661 -2.8189 0.9468
5.0892 12.3838 -2.8226 0.9467
1.5829 5.1028 -1.1263 0.9784
1.6439 13.3471 -2.8351 0.9465
-0.7511 13.4702 -2.8442 0.9463
-4.5250 13.5155 -3.0048 0.9434
-6.8700 12.5362 -3.0137 0.9432
-7.9699 11.8919 -3.0180 0.9432
-10.8712 9.4008 -3.0299 0.9429
-11.6784 8.4056 -3.0335 0.9429
-12.3934 7.3407 -3.0367 0.9428
-14.2215 2.5621 -3.0464 0.9426
-13.3417 0.0000 -3.0451 0.9467
-13.2915 -1.1878 -3.0458 0.9467
-12.6910 -3.4764 -3.0034 0.9474
-12.3298 -4.5917 -3.0030 0.9474
-11.8704 -5.6700 -3.0026 0.9475
-10.6740 -7.6827 -3.0017 0.9475
-1.5778 -2.3542 -0.6468 0.9884
-1.0570 -2.4176 -0.6022 0.9892
-0.8372 -2.5008 -0.6019 0.9892
2.7493 -12.7942 -2.9869 0.9477
6.0228 -11.5960 -2.9824 0.9478
7.9705 -10.3277 -2.9776 0.9479
8.8474 -9.5657 -2.9740 0.9479
9.6526 -8.7302 -2.9706 0.9480
10.3802 -7.8281 -2.9674 0.9481
11.0248 -6.8663 -2.9645 0.9481
11.5818 -5.8525 -2.9618 0.9482
12.6900 -2.5794 -2.9556 0.9483
12.8631 -1.4390 -2.9542 0.9483
12.9068 0.8640 -2.9525 0.9483
12.7771 2.0091 -2.9521 0.9483
12.5477 3.1384 -2.9521 0.9483
12.2201 4.2433 -2.9525 0.9483
8.7514 8.6544 -2.8092 0.9508
7.9597 9.4147 -2.8139 0.9507
5.2065 11.2195 -2.8231 0.9505
2.0655 12.2451 -2.8343 0.9503
0.9688 12.3982 -2.8384 0.9503
-0.1387 12.4536 -2.8426 0.9502
-1.2485 12.4106 -2.8469 0.9501
-6.8569 11.2881 -3.0145 0.9473
-7.8446 10.6468 -3.0184 0.9472
-9.6314 9.1093 -3.0258 0.9471
-11.7319 6.2604 -3.0351 0.9469
-12.6762 4.0876 -3.0400 0.9468
-12.9979 2.9450 -3.0419 0.9468
-13.2153 1.7773 -3.0435 0.9468
-13.1213 -1.7646 -3.0218 0.9471
-9.5539 -9.0352 -3.0013 0.9475
-1.4317 -2.3570 -0.6294 0.9887
-1.1749 -2.3909 -0.6080 0.9891
-0.9445 -2.4522 -0.5998 0.9893
-0.5157 -2.6904 -0.6252 0.9888
-0.2912 -2.8944 -0.6639 0.9881
1.0202 -13.0562 -2.9891 0.9477
3.3157 -12.6559 -2.9861 0.9477
7.5073 -10.6792 -2.9795 0.9479
8.4175 -9.9563 -2.9758 0.9479
9.2593 -9.1567 -2.9723 0.9480
11.8261 -5.3286 -2.9606 0.9482
12.9120 -0.8644 -2.9537 0.9483
12.9338 0.2882 -2.9528 0.9483
12.3960 3.6944 -2.9523 0.9483
12.0203 4.7840 -2.9528 0.9483
11.5504 5.8366 -2.9538 0.9483
9.8169 7.4032 -2.8063 0.9508
9.1249 8.2530 -2.8082 0.9508
6.6439 10.4074 -2.8182 0.9506
5.6977 10.9699 -2.8214 0.9505
4.7044 11.4474 -2.8248 0.9505
1.5831 5.1032 -1.2195 0.9783
1.5191 12.3337 -2.8364 0.9503
-1.8008 12.3477 -2.8481 0.9501
-4.1789 12.4817 -3.0043 0.9474
-5.2805 12.0769 -3.0085 0.9474
-6.3430 11.5746 -3.0125 0.9473
-8.3163 10.2932 -3.0203 0.9472
-11.4362 6.7737 -3.0337 0.9469
-12.0044 5.7340 -3.0365 0.9469
-12.4770 4.6465 -3.0389 0.9468
-12.8499 3.5200 -3.0410 0.9468
-13.1198 2.3637 -3.0427 0.9468
-12.3282 -1.1016 -3.0424 0.9503
-11.7804 -3.2270 -3.0023 0.9509
-11.4452 -4.2622 -3.0020 0.9509
-11.0188 -5.2633 -3.0016 0.9509
-9.2321 -7.9833 -3.0000 0.9510
-8.4830 -8.7714 -2.9994 0.9510
-1.5810 -2.3591 -0.6980 0.9884
-0.8387 -2.5051 -0.6493 0.9892
-0.4050 -2.7769 -0.6898 0.9885
0.4064 -12.1557 -2.9895 0.9511
2.5529 -11.8801 -2.9868 0.9512
3.5985 -11.6004 -2.9854 0.9512
4.6146 -11.2289 -2.9840 0.9512
5.5933 -10.7689 -2.9827 0.9512
6.5271 -10.2245 -2.9816 0.9513
7.4049 -9.5948 -2.9791 0.9513
8.9691 -8.1120 -2.9725 0.9514
10.7639 -5.4393 -2.9644 0.9515
11.5417 -3.4398 -2.9603 0.9516
11.7956 -2.3976 -2.9586 0.9516
11.9569 -1.3376 -2.9573 0.9516
12.0245 -0.2680 -2.9564 0.9517
11.9980 0.8032 -2.9557 0.9517
11.3597 3.9445 -2.9557 0.9517
10.9661 4.9411 -2.9564 0.9517
10.4864 5.8995 -2.9574 0.9516
8.8117 7.2830 -2.8100 0.9540
8.1339 8.0437 -2.8118 0.9540
7.3985 8.7509 -2.8167 0.9539
6.5960 9.3829 -2.8192 0.9539
2.9199 11.1451 -2.8319 0.9537
1.9188 11.3754 -2.8356 0.9536
0.9000 11.5165 -2.8394 0.9535
-0.1288 11.5668 -2.8433 0.9535
-1.1594 11.5256 -2.8473 0.9534
-3.1870 11.1458 -2.8494 0.9534
-5.4002 10.9891 -3.0096 0.9508
-7.2808 9.8816 -3.0170 0.9507
-8.1408 9.2050 -3.0205 0.9506
-8.9376 8.4532 -3.0238 0.9506
-10.3153 6.7479 -3.0298 0.9505
-10.8844 5.8081 -3.0325 0.9505
-12.0570 2.7318 -3.0387 0.9504
-12.3609 0.5512 -3.0413 0.9503
-12.3640 -0.5513 -3.0421 0.9503
-12.2127 -1.6424 -3.0289 0.9505
-11.9129 -2.6991 -3.0024 0.9509
-9.5795 -7.5649 -3.0003 0.9510
-2.2519 -2.5463 -0.8355 0.9861
-1.7504 -2.3757 -0.7253 0.9879
-1.4346 -2.3617 -0.6792 0.9887
-1.1770 -2.3952 -0.6560 0.9891
3.0789 -11.7519 -2.9861 0.9512
5.1090 -11.0096 -2.9833 0.9512
6.0663 -10.5071 -2.9822 0.9513
6.9742 -9.9209 -2.9808 0.9513
10.5152 -5.9158 -2.9656 0.9515
10.9913 -4.9524 -2.9632 0.9516
11.3806 -3.9518 -2.9612 0.9516
11.8880 -1.8693 -2.9579 0.9516
12.0025 -0.8035 -2.9568 0.9517
11.1738 4.4471 -2.9560 0.9517
5.2948 10.1941 -2.8235 0.9538
0.3863 11.5531 -2.8413 0.9535
-0.6444 11.5576 -2.8453 0.9534
-1.6722 11.4655 -2.8480 0.9534
-3.8798 11.5886 -3.0039 0.9509
-4.9022 11.2116 -3.0077 0.9508
-5.8880 10.7443 -3.0115 0.9508
-6.8293 10.1901 -3.0152 0.9507
-7.7182 9.5530 -3.0188 0.9507
-9.3102 8.0508 -3.0254 0.9506
-10.6104 6.2846 -3.0312 0.9505
-11.1369 5.3196 -3.0337 0.9504
-11.5747 4.3105 -3.0359 0.9504
-11.9200 3.2652 -3.0379 0.9504
-10.6731 -3.9747 -3.0011 0.9540
-10.2756 -4.9083 -3.0007 0.9540
-9.2393 -6.6500 -2.9996 0.9540
-8.6092 -7.4447 -2.9991 0.9540
-7.9108 -8.1797 -2.9985 0.9540
-1.9702 -2.4385 -0.8261 0.9871
-1.5847 -2.3647 -0.7501 0.9883
-0.8402 -2.5095 -0.6973 0.9891
-0.6249 -2.6225 -0.7104 0.9889
-0.4059 -2.7831 -0.7411 0.9884
-0.1714 -3.0747 -0.8114 0.9873
0.3791 -11.3382 -2.9893 0.9542
1.3862 -11.2547 -2.9880 0.9542
4.3049 -10.4752 -2.9842 0.9542
6.0896 -9.5391 -2.9821 0.9543
6.9104 -8.9541 -2.9803 0.9543
10.7756 -3.2115 -2.9628 0.9546
11.2274 -0.2502 -2.9591 0.9546
11.0904 1.7439 -2.9582 0.9546
10.6067 3.6830 -2.9586 0.9546
10.2391 4.6135 -2.9592 0.9546
9.2657 6.3606 -2.9614 0.9546
7.5936 7.5094 -2.8141 0.9568
6.1578 8.7595 -2.8214 0.9567
5.3586 9.2814 -2.8240 0.9566
4.5159 9.7315 -2.8269 0.9566
0.8397 10.7460 -2.8402 0.9564
-0.1202 10.7920 -2.8439 0.9563
-2.0350 10.6167 -2.8484 0.9563
-2.9728 10.3966 -2.8493 0.9563
-4.0991 10.6432 -3.0053 0.9539
-5.0361 10.2483 -3.0089 0.9539
-5.9351 9.7707 -3.0124 0.9538
-7.5902 8.5824 -3.0190 0.9537
-8.3325 7.8808 -3.0221 0.9537
-9.0095 7.1148 -3.0250 0.9536
-11.2370 2.5460 -3.0360 0.9535
-11.4241 1.5364 -3.0374 0.9534
-11.5195 0.5137 -3.0384 0.9534
-11.1092 -2.5170 -3.0015 0.9540
-8.2682 -7.8200 -2.9988 0.9540
-1.7612 -2.3904 -0.7824 0.9878
-0.9477 -2.4608 -0.6948 0.9892
-0.7316 -2.5588 -0.7013 0.9891
-0.5177 -2.7007 -0.7246 0.9887
0.8836 -11.3077 -2.9887 0.9542
2.8721 -10.9624 -2.9861 0.9542
3.8347 -10.6587 -2.9848 0.9542
5.6596 -9.8027 -2.9826 0.9543
6.5074 -9.2569 -2.9816 0.9543
7.2985 -8.6328 -2.9788 0.9543
9.2932 -6.3794 -2.9702 0.9544
10.2611 -4.6234 -2.9656 0.9545
10.9051 -2.7275 -2.9620 0.9546
11.1575 1.2482 -2.9583 0.9546
11.0016 2.2362 -2.9582 0.9546
10.7596 3.2067 -2.9584 0.9546
10.4332 4.1523 -2.9589 0.9546
10.0248 5.0658 -2.9596 0.9546
9.5377 5.9401 -2.9607 0.9546
7.9180 7.1614 -2.8132 0.9568
6.5387 8.4725 -2.8200 0.9567
5.7641 9.0292 -2.8227 0.9567
4.0801 9.9283 -2.8284 0.9566
2.2604 10.5186 -2.8349 0.9565
-1.5598 10.6951 -2.8480 0.9563
-2.5063 10.5171 -2.8489 0.9563
-4.5719 10.4563 -3.0071 0.9539
-5.4909 10.0196 -3.0106 0.9538
-7.9691 8.2400 -3.0206 0.9537
-9.3217 6.7094 -3.0264 0.9536
-9.8904 5.8581 -3.0290 0.9536
-11.1095 3.0432 -3.0352 0.9535
-11.4833 1.0262 -3.0379 0.9534
-10.7503 -0.9607 -3.0367 0.9561
-9.9931 -3.7215 -3.0003 0.9567
-9.6210 -4.5956 -2.9999 0.9567
-7.4068 -7.6586 -2.9977 0.9567
-1.9930 -2.4668 -0.8923 0.9869
-1.0628 -2.4308 -0.7464 0.9890
-0.8417 -2.5142 -0.7460 0.9890
-0.4089 -2.8038 -0.7972 0.9883
-0.1733 -3.1079 -0.8758 0.9871
0.3550 -10.6179 -2.9891 0.9568
1.2981 -10.5400 -2.9879 0.9568
3.1438 -10.1348 -2.9855 0.9569
4.8876 -9.4103 -2.9835 0.9569
5.7039 -8.9350 -2.9825 0.9569
6.4743 -8.3890 -2.9815 0.9569
8.4371 -6.3627 -2.9732 0.9570
9.4171 -4.7587 -2.9686 0.9571
9.7969 -3.8991 -2.9667 0.9571
10.0993 -3.0099 -2.9650 0.9572
10.3222 -2.0981 -2.9636 0.9572
10.4640 -1.1706 -2.9625 0.9572
10.5006 0.7029 -2.9610 0.9572
10.2087 2.5533 -2.9608 0.9572
9.9420 3.4522 -2.9611 0.9572
9.1770 5.1629 -2.9626 0.9572
8.6845 5.9615 -2.9637 0.9572
7.7105 6.3728 -2.8145 0.9593
4.2317 9.1189 -2.8285 0.9591
-1.0130 10.0698 -2.8475 0.9588
-2.7840 9.7363 -2.8492 0.9588
-3.8384 9.9663 -3.0049 0.9566
-4.7155 9.5957 -3.0082 0.9565
-6.3557 8.6260 -3.0146 0.9565
-7.7997 7.3770 -3.0206 0.9564
-9.4953 5.0668 -3.0281 0.9563
-10.5154 2.3825 -3.0336 0.9562
-10.7792 0.4807 -3.0358 0.9562
-10.7817 -0.4808 -3.0365 0.9561
-10.6928 -1.4381 -3.0356 0.9562
-10.4012 -2.3566 -3.0006 0.9567
-10.1494 -3.2728 -3.0004 0.9567
-8.9205 -5.8355 -2.9992 0.9567
-2.3487 -2.6558 -0.9975 0.9854
-1.7767 -2.4114 -0.8427 0.9876
-0.5201 -2.7136 -0.7774 0.9886
-0.0377 -3.3872 -0.9531 0.9860
1.7660 -10.4696 -2.9873 0.9568
3.5916 -9.9829 -2.9850 0.9569
4.4643 -9.6203 -2.9840 0.9569
5.3011 -9.1817 -2.9830 0.9569
6.8382 -8.0883 -2.9800 0.9569
7.5237 -7.4404 -2.9771 0.9570
8.7086 -5.9781 -2.9720 0.9571
9.6165 -4.3330 -2.9676 0.9571
9.9580 -3.4578 -2.9658 0.9571
10.2209 -2.5564 -2.9643 0.9572
10.4033 -1.6358 -2.9630 0.9572
10.5041 -0.7031 -2.9620 0.9572
10.5224 0.2345 -2.9613 0.9572
9.7792 3.8920 -2.9613 0.9572
8.9395 5.5676 -2.9631 0.9572
6.7983 7.3502 -2.8170 0.9592
6.1214 7.9317 -2.8189 0.9592
3.8232 9.3030 -2.8299 0.9591
1.2336 10.0157 -2.8393 0.9589
-0.5631 10.1000 -2.8461 0.9588
-2.3471 9.8492 -2.8487 0.9588
-3.3887 10.1217 -3.0032 0.9566
-6.7370 8.3386 -3.0162 0.9564
-7.4599 7.7134 -3.0191 0.9564
-8.1243 7.0254 -3.0219 0.9564
-8.7250 6.2799 -3.0246 0.9563
-9.2567 5.4828 -3.0270 0.9563
-9.7150 4.6405 -3.0292 0.9562
-10.0959 3.7598 -3.0311 0.9562
-10.3963 2.8479 -3.0328 0.9562
-10.7455 0.9602 -3.0354 0.9562
-10.1339 0.0000 -3.0339 0.9586
-9.8938 -1.7825 -3.0097 0.9589
-9.6640 -2.6472 -2.9998 0.9590
-9.0397 -4.3179 -2.9992 0.9590
-8.6182 -5.1046 -2.9988 0.9590
-8.1283 -5.8504 -2.9983 0.9590
-6.9593 -7.1959 -2.9970 0.9591
-1.6073 -2.3984 -0.8644 0.9880
-0.6311 -2.6482 -0.8150 0.9887
1.2199 -9.9050 -2.9878 0.9592
2.0960 -9.7537 -2.9867 0.9592
6.0855 -7.8853 -2.9820 0.9593
6.7582 -7.3068 -2.9797 0.9593
7.3752 -6.6705 -2.9771 0.9593
7.9332 -5.9827 -2.9747 0.9594
8.4278 -5.2489 -2.9724 0.9594
9.2130 -3.6667 -2.9686 0.9594
9.4977 -2.8306 -2.9670 0.9595
9.8411 -1.1009 -2.9646 0.9595
9.8758 0.6611 -2.9632 0.9595
9.0260 4.0669 -2.9638 0.9595
8.6307 4.8555 -2.9647 0.9595
2.4003 9.1619 -2.8355 0.9612
-0.1058 9.5018 -2.8448 0.9611
-3.6068 9.3650 -3.0045 0.9590
-4.4307 9.0163 -3.0076 0.9589
-6.6750 7.5476 -3.0165 0.9588
-7.3269 6.9297 -3.0192 0.9588
-7.9213 6.2554 -3.0218 0.9587
-8.4532 5.5299 -3.0241 0.9587
-8.9183 4.7590 -3.0263 0.9587
-9.8754 2.2375 -3.0314 0.9586
-10.0392 1.3502 -3.0326 0.9586
-10.0455 -1.3510 -3.0345 0.9586
-9.7743 -2.2146 -3.0004 0.9590
-9.2236 -3.9112 -2.9994 0.9590
-8.8377 -4.7160 -2.9990 0.9590
-7.8589 -6.2061 -2.9980 0.9590
-7.2738 -6.8795 -2.9973 0.9591
-2.4305 -2.7482 -1.0984 0.9848
-1.7927 -2.4331 -0.9048 0.9875
-1.4551 -2.3955 -0.8391 0.9884
-0.5235 -2.7314 -0.8326 0.9885
-0.0385 -3.4532 -1.0339 0.9857
0.7776 -9.9514 -2.9883 0.9592
4.9825 -8.6299 -2.9833 0.9592
5.7291 -8.1497 -2.9824 0.9593
6.4289 -7.6041 -2.9811 0.9593
7.0738 -6.9954 -2.9784 0.9593
9.0432 -4.0746 -2.9695 0.9594
9.4852 2.8269 -2.9631 0.9595
9.1973 3.6604 -2.9635 0.9595
8.8371 4.4656 -2.9642 0.9595
8.4073 5.2361 -2.9652 0.9595
7.9112 5.9661 -2.9664 0.9595
6.9787 6.3118 -2.8171 0.9615
5.7562 7.4584 -2.8206 0.9614
5.0797 7.9571 -2.8262 0.9613
4.3550 8.3848 -2.8286 0.9613
1.5836 5.1048 -1.6001 0.9779
1.1596 9.4152 -2.8400 0.9612
-0.5293 9.4931 -2.8464 0.9611
-3.1844 9.5114 -3.0029 0.9590
-4.0226 9.1999 -3.0060 0.9589
-5.6014 8.3579 -3.0122 0.9589
-6.3292 7.8338 -3.0151 0.9588
-7.0078 7.2461 -3.0179 0.9588
-7.6316 6.5993 -3.0205 0.9587
-8.1954 5.8987 -3.0230 0.9587
-8.6944 5.1497 -3.0253 0.9587
-9.4819 3.5311 -3.0291 0.9586
-9.7636 2.6745 -3.0307 0.9586
-9.5465 0.0000 -3.0318 0.9607
-9.1081 -2.4950 -2.9992 0.9611
-8.5198 -4.0696 -2.9986 0.9611
-7.1384 -6.1729 -2.9971 0.9612
-6.5593 -6.7823 -2.9965 0.9612
-2.0464 -2.5328 -1.0341 0.9864
-1.0759 -2.4606 -0.8529 0.9888
-0.8519 -2.5446 -0.8522 0.9888
-0.6352 -2.6655 -0.8702 0.9886
-0.4153 -2.8479 -0.9140 0.9880
-0.1772 -3.1776 -1.0107 0.9867
4.3309 -8.3384 -2.9840 0.9613
6.3731 -6.8905 -2.9808 0.9614
7.4818 -5.6423 -2.9760 0.9614
7.9487 -4.9505 -2.9739 0.9615
8.3523 -4.2206 -2.9720 0.9615
8.9586 -2.6700 -2.9688 0.9615
9.2830 -1.0385 -2.9665 0.9616
9.3160 0.6236 -2.9652 0.9616
8.5143 3.8363 -2.9658 0.9616
8.1412 4.5802 -2.9666 0.9616
7.7039 5.2884 -2.9676 0.9615
7.2058 5.9557 -2.9689 0.9615
5.7351 6.7835 -2.8211 0.9634
5.1120 7.2718 -2.8229 0.9634
4.4539 7.7143 -2.8289 0.9633
1.8193 5.0568 -1.7067 0.9777
1.4870 8.8156 -2.8392 0.9632
0.6972 8.9222 -2.8422 0.9631
-1.6883 8.8080 -2.8482 0.9631
-2.4662 8.6249 -2.8489 0.9631
-3.3997 8.8272 -3.0041 0.9611
-4.9205 8.1003 -3.0100 0.9610
-7.4639 5.8942 -3.0204 0.9609
-7.9648 5.2103 -3.0227 0.9608
-8.7736 3.7204 -3.0265 0.9608
-9.0748 2.9262 -3.0281 0.9608
-9.3034 2.1079 -3.0295 0.9608
-9.2184 -2.0886 -3.0018 0.9611
-7.8996 -5.1677 -2.9979 0.9612
-7.4071 -5.8493 -2.9974 0.9612
-6.2500 -7.0670 -2.9962 0.9612
-1.1967 -2.4354 -0.8618 0.9887
-0.9607 -2.4944 -0.8489 0.9888
-0.7422 -2.5958 -0.8574 0.9887
-0.5271 -2.7497 -0.8892 0.9883
-0.3005 -2.9872 -0.9535 0.9875
-0.0398 -3.5787 -1.1366 0.9851
2.3831 -9.0963 -2.9863 0.9613
3.1823 -8.8453 -2.9854 0.9613
4.6973 -8.1360 -2.9836 0.9613
5.4013 -7.6834 -2.9827 0.9613
6.0621 -7.1703 -2.9819 0.9614
6.6709 -6.5969 -2.9795 0.9614
8.5295 -3.8432 -2.9711 0.9615
9.0667 -2.2677 -2.9681 0.9615
9.2290 -1.4512 -2.9670 0.9615
9.3187 -0.6238 -2.9661 0.9616
9.3352 0.2080 -2.9655 0.9616
8.6759 3.4529 -2.9655 0.9616
8.3360 4.2123 -2.9662 0.9616
7.9304 4.9391 -2.9671 0.9615
7.4622 5.6275 -2.9682 0.9615
6.5825 5.9535 -2.8187 0.9634
6.0298 6.5193 -2.8202 0.9634
4.7846 7.4949 -2.8239 0.9634
4.1074 7.9079 -2.8300 0.9633
3.3901 8.2493 -2.8324 0.9633
1.0934 8.8776 -2.8407 0.9632
0.2992 8.9491 -2.8437 0.9631
-2.0793 8.7251 -2.8486 0.9631
-5.9645 7.3824 -3.0141 0.9610
-6.6036 6.8282 -3.0168 0.9609
-7.1911 6.2184 -3.0192 0.9609
-7.7220 5.5580 -3.0216 0.9609
-8.1918 4.8521 -3.0237 0.9608
-8.5966 4.1063 -3.0256 0.9608
-8.9331 3.3267 -3.0274 0.9608
-9.1983 2.5197 -3.0289 0.9608
-9.3899 1.6917 -3.0301 0.9607
-8.9837 -0.8028 -3.0304 0.9627
-8.3630 -3.1144 -2.9983 0.9630
-8.0517 -3.8460 -2.9980 0.9630
-7.2402 -5.2112 -2.9972 0.9631
-6.1992 -6.4100 -2.9961 0.9631
-2.0887 -2.5853 -1.1167 0.9861
-0.1796 -3.2204 -1.0837 0.9865
3.3772 -8.2179 -2.9851 0.9632
4.7781 -7.4847 -2.9834 0.9632
5.4239 -7.0279 -2.9827 0.9632
7.0750 -5.3355 -2.9772 0.9633
7.8988 -3.9914 -2.9734 0.9633
8.8302 -0.1968 -2.9675 0.9634
8.7230 1.3716 -2.9668 0.9634
8.5664 2.1426 -2.9668 0.9634
8.0528 3.6284 -2.9676 0.9634
6.8149 5.6326 -2.9705 0.9634
5.9699 5.9037 -2.8209 0.9652
5.4237 6.4151 -2.8224 0.9652
3.5486 7.6471 -2.8324 0.9651
2.1402 8.1691 -2.8373 0.9650
1.4060 8.3349 -2.8399 0.9650
-0.0943 8.4689 -2.8456 0.9649
-0.8483 8.4324 -2.8474 0.9649
-1.5958 8.3255 -2.8481 0.9649
-3.9467 8.0313 -3.0066 0.9629
-7.0523 5.5692 -3.0192 0.9628
-7.5253 4.9228 -3.0213 0.9628
-8.2889 3.5148 -3.0250 0.9627
-8.5732 2.7645 -3.0265 0.9627
-8.7890 1.9913 -3.0278 0.9627
-8.7163 -1.9749 -3.0028 0.9630
-8.2155 -3.4837 -2.9982 0.9630
-7.8720 -4.2006 -2.9978 0.9630
-7.0003 -5.5281 -2.9969 0.9631
-5.9069 -6.6791 -2.9957 0.9631
-1.8260 -2.4782 -1.0342 0.9871
-1.2043 -2.4508 -0.9175 0.9885
-0.9666 -2.5097 -0.9036 0.9887
0.6929 -8.8671 -2.9883 0.9632
3.7394 -8.0581 -2.9847 0.9632
4.4405 -7.6912 -2.9839 0.9632
6.3078 -6.2379 -2.9806 0.9633
6.8328 -5.6474 -2.9783 0.9633
8.3537 -2.9007 -2.9711 0.9634
8.5749 -2.1447 -2.9698 0.9634
8.7286 -1.3725 -2.9687 0.9634
8.8136 -0.5900 -2.9678 0.9634
8.8294 0.1968 -2.9672 0.9634
8.7758 0.9817 -2.9669 0.9634
8.6532 1.7588 -2.9668 0.9634
8.2057 3.2658 -2.9673 0.9634
7.5004 4.6713 -2.9688 0.9634
6.3716 5.7627 -2.8864 0.9644
5.7025 6.1654 -2.8216 0.9652
3.8842 7.4784 -2.8313 0.9651
1.7750 8.2601 -2.8386 0.9650
1.0338 8.3933 -2.8413 0.9649
-1.9653 8.2471 -2.8485 0.9649
-2.8370 8.4738 -3.0024 0.9630
-3.5833 8.1954 -3.0052 0.9630
-6.2399 6.4521 -3.0157 0.9628
-7.7396 4.5842 -3.0223 0.9628
-8.4395 3.1429 -3.0258 0.9627
-8.8706 1.5981 -3.0284 0.9627
-8.5404 -0.0000 -3.0283 0.9644
-7.6280 -3.6436 -2.9975 0.9648
-7.2726 -4.3075 -2.9972 0.9648
-6.8593 -4.9370 -2.9967 0.9648
-2.1540 -2.6660 -1.2153 0.9856
-1.6434 -2.4522 -1.0467 0.9876
-0.4221 -2.8943 -1.0371 0.9877
-0.1841 -3.3017 -1.1726 0.9861
0.2817 -8.4240 -2.9887 0.9649
1.7698 -8.2358 -2.9870 0.9649
2.4951 -8.0433 -2.9861 0.9649
3.2002 -7.7872 -2.9853 0.9649
5.1398 -6.6598 -2.9830 0.9649
5.7109 -6.1745 -2.9823 0.9649
6.2338 -5.6381 -2.9804 0.9650
6.7063 -5.0575 -2.9783 0.9650
7.1253 -4.4377 -2.9764 0.9650
7.4876 -3.7837 -2.9747 0.9650
7.7906 -3.1006 -2.9732 0.9650
8.3235 -0.9311 -2.9698 0.9651
8.3535 0.5592 -2.9687 0.9651
8.2700 1.3004 -2.9684 0.9651
8.1214 2.0313 -2.9684 0.9651
7.9091 2.7463 -2.9687 0.9651
7.6344 3.4399 -2.9692 0.9651
7.2997 4.1067 -2.9699 0.9651
6.9074 4.7417 -2.9708 0.9651
6.4604 5.3397 -2.9720 0.9651
5.6608 5.5981 -2.8230 0.9668
4.5824 6.5185 -2.8253 0.9667
3.9866 6.9049 -2.8271 0.9667
1.3325 7.8995 -2.8406 0.9666
-0.8037 7.9895 -2.8473 0.9665
-3.7391 7.6088 -3.0062 0.9647
-4.4052 7.2521 -3.0087 0.9646
-5.6304 6.3665 -3.0137 0.9646
-6.6799 5.2751 -3.0181 0.9645
-7.1276 4.6627 -3.0201 0.9645
-7.5189 4.0122 -3.0219 0.9645
-7.8504 3.3289 -3.0236 0.9645
-8.3235 1.8859 -3.0262 0.9644
-8.4612 1.1379 -3.0272 0.9644
-8.5310 0.3804 -3.0280 0.9644
-8.5326 -0.3805 -3.0285 0.9644
-8.2609 -1.8717 -3.0034 0.9647
-7.7832 -3.3004 -2.9977 0.9648
-7.0729 -4.6269 -2.9969 0.9648
-1.8502 -2.5112 -1.1060 0.9868
-1.4868 -2.4476 -1.0155 0.9879
-0.9726 -2.5254 -0.9596 0.9886
-0.7515 -2.6284 -0.9693 0.9885
-0.0939 -8.4294 -2.9891 0.9649
3.5434 -7.6358 -2.9849 0.9649
4.2079 -7.2882 -2.9841 0.9649
5.4307 -6.4235 -2.9826 0.9649
6.4765 -5.3530 -2.9794 0.9650
8.1291 -2.0332 -2.9712 0.9651
8.2750 -1.3012 -2.9702 0.9651
8.3557 -0.5594 -2.9694 0.9651
8.3707 0.1865 -2.9689 0.9651
8.2037 1.6675 -2.9684 0.9651
8.0231 2.3911 -2.9685 0.9651
7.7794 3.0961 -2.9689 0.9651
6.6906 5.0456 -2.9714 0.9651
6.2176 5.6234 -2.9726 0.9650
5.4057 5.8445 -2.8229 0.9668
4.8668 6.3060 -2.8245 0.9668
4.2888 6.7182 -2.8262 0.9667
3.6763 7.0780 -2.8281 0.9667
1.5840 5.1061 -1.8957 0.9776
1.6823 7.8289 -2.8394 0.9666
0.2681 8.0178 -2.8446 0.9665
-0.4470 8.0162 -2.8468 0.9665
-2.6880 8.0287 -3.0022 0.9647
-3.3949 7.7645 -3.0048 0.9647
-4.0761 7.4380 -3.0075 0.9646
-5.9107 6.1117 -3.0148 0.9646
-6.4360 5.5655 -3.0170 0.9645
-7.6923 3.6743 -3.0228 0.9645
-7.9929 2.9766 -3.0243 0.9644
-8.2297 2.2543 -3.0256 0.9644
-8.4008 1.5135 -3.0268 0.9644
-8.1057 0.0000 -3.0268 0.9660
-7.7422 -2.1208 -2.9975 0.9663
-7.2423 -3.4594 -2.9971 0.9663
-6.9049 -4.0898 -2.9967 0.9663
-6.5126 -4.6875 -2.9963 0.9663
-6.0686 -5.2477 -2.9958 0.9663
-5.5764 -5.7660 -2.9953 0.9663
-2.2536 -2.7893 -1.3390 0.9848
-1.6669 -2.4873 -1.1181 0.9873
-1.3491 -2.4618 -1.0483 0.9881
-0.1889 -3.3883 -1.2672 0.9856
0.2675 -7.9993 -2.9887 0.9664
1.6806 -7.8208 -2.9871 0.9664
4.8812 -6.3247 -2.9832 0.9665
5.4235 -5.8638 -2.9826 0.9665
7.1130 -3.5943 -2.9759 0.9665
7.4010 -2.9455 -2.9744 0.9666
7.6305 -2.2741 -2.9732 0.9666
7.9533 -0.1772 -2.9706 0.9666
7.9364 0.5313 -2.9701 0.9666
7.7159 1.9299 -2.9699 0.9666
7.2531 3.2681 -2.9706 0.9666
6.9350 3.9016 -2.9713 0.9666
5.6111 5.5489 -2.9468 0.9669
3.7869 6.5590 -2.8281 0.9682
1.2656 7.5031 -2.8413 0.9680
0.5933 7.5925 -2.8438 0.9680
-0.0849 7.6211 -2.8460 0.9680
-2.0971 7.3341 -2.8484 0.9680
-4.1824 6.8853 -3.0082 0.9662
-5.3452 6.0440 -3.0129 0.9661
-5.8662 5.5482 -3.0151 0.9661
-6.3410 5.0075 -3.0171 0.9661
-6.7658 4.4260 -3.0190 0.9661
-7.1370 3.8084 -3.0207 0.9660
-7.7066 2.4851 -3.0236 0.9660
-7.9002 1.7900 -3.0248 0.9660
-8.0969 0.3611 -3.0265 0.9660
-8.0983 -0.3611 -3.0270 0.9660
-8.0347 -1.0806 -3.0273 0.9660
-7.3896 -3.1335 -2.9972 0.9663
-6.2968 -4.9726 -2.9961 0.9663
-0.9788 -2.5415 -1.0170 0.9884
-0.5381 -2.8073 -1.0674 0.9879
0.6234 -7.9783 -2.9883 0.9664
2.7069 -7.5240 -2.9858 0.9664
3.9960 -6.9213 -2.9843 0.9665
4.5951 -6.5366 -2.9836 0.9665
5.1575 -6.1003 -2.9829 0.9665
5.6788 -5.6158 -2.9823 0.9665
6.1520 -5.0847 -2.9803 0.9665
7.2642 -3.2731 -2.9751 0.9666
7.5232 -2.6123 -2.9738 0.9666
7.8615 -1.2362 -2.9716 0.9666
7.9383 -0.5314 -2.9709 0.9666
7.9527 0.1772 -2.9703 0.9666
7.9044 0.8842 -2.9700 0.9666
6.7553 4.2072 -2.9717 0.9666
5.9067 5.3422 -2.9739 0.9666
4.0740 6.3818 -2.8272 0.9682
3.4921 6.7233 -2.8290 0.9682
1.5841 5.1066 -1.9965 0.9774
0.9305 7.5552 -2.8425 0.9680
0.2546 7.6148 -2.8450 0.9680
-0.4244 7.6111 -2.8465 0.9680
-1.7681 7.4193 -2.8480 0.9680
-2.5523 7.6234 -3.0020 0.9663
-3.2234 7.3722 -3.0045 0.9662
-3.8700 7.0619 -3.0070 0.9662
-4.4868 6.6948 -3.0094 0.9662
-6.9583 4.1214 -3.0199 0.9661
-7.8112 2.1397 -3.0243 0.9660
-7.9734 1.4365 -3.0253 0.9660
-8.0719 0.7213 -3.0262 0.9660
-7.6789 -0.6862 -3.0258 0.9674
-7.5877 -1.3670 -3.0259 0.9674
-7.3694 -2.0187 -2.9989 0.9677
-7.1559 -2.6649 -2.9969 0.9677
-6.5687 -3.8907 -2.9963 0.9677
-5.3050 -5.4854 -2.9950 0.9677
-1.6995 -2.5358 -1.1980 0.9870
-0.8744 -2.6117 -1.0809 0.9882
-0.6552 -2.7496 -1.1093 0.9879
-0.4348 -2.9813 -1.1825 0.9871
0.2545 -7.6108 -2.9887 0.9678
0.9306 -7.5560 -2.9879 0.9678
2.2544 -7.2675 -2.9864 0.9678
2.8916 -7.0362 -2.9856 0.9678
3.5055 -6.7493 -2.9849 0.9678
4.0913 -6.4089 -2.9842 0.9679
5.1606 -5.5796 -2.9829 0.9679
5.6354 -5.0969 -2.9821 0.9679
6.0629 -4.5722 -2.9803 0.9679
6.4420 -4.0121 -2.9785 0.9679
6.7700 -3.4210 -2.9770 0.9679
7.0443 -2.8035 -2.9756 0.9679
7.4242 -1.5090 -2.9734 0.9680
7.5269 -0.8420 -2.9725 0.9680
7.5544 0.5057 -2.9715 0.9680
7.4789 1.1760 -2.9713 0.9680
7.3445 1.8370 -2.9713 0.9680
7.1524 2.4836 -2.9715 0.9680
6.9040 3.1108 -2.9720 0.9680
6.6012 3.7137 -2.9726 0.9680
5.3911 5.3313 -2.9757 0.9679
4.6486 5.4983 -2.8258 0.9695
3.0361 6.5425 -2.8307 0.9695
1.8340 6.9995 -2.8398 0.9694
1.2044 7.1403 -2.8420 0.9694
0.5646 7.2248 -2.8442 0.9693
-0.7259 7.2164 -2.8465 0.9693
-1.3658 7.1252 -2.8473 0.9693
-3.3773 6.8726 -3.0054 0.9676
-3.9787 6.5499 -3.0077 0.9676
-4.5493 6.1744 -3.0100 0.9676
-5.5798 5.2774 -3.0142 0.9675
-6.0312 4.7629 -3.0162 0.9675
-6.4351 4.2096 -3.0180 0.9675
-7.3293 2.3634 -3.0224 0.9675
-7.6373 1.0271 -3.0244 0.9674
-7.7002 0.3434 -3.0251 0.9674
-7.6410 -1.0276 -3.0259 0.9674
-7.4714 -1.6928 -3.0066 0.9676
-7.0297 -2.9809 -2.9968 0.9677
-6.7359 -3.5944 -2.9965 0.9677
-6.3884 -4.1792 -2.9961 0.9677
-5.9903 -4.7305 -2.9957 0.9677
-1.2307 -2.5044 -1.0952 0.9881
-0.9854 -2.5586 -1.0761 0.9883
-0.7625 -2.6666 -1.0885 0.9882
-0.3180 -3.1614 -1.2470 0.9864
-0.0848 -7.6156 -2.9891 0.9678
0.5932 -7.5909 -2.9883 0.9678
1.2661 -7.5060 -2.9875 0.9678
1.9287 -7.3616 -2.9867 0.9678
2.5756 -7.1589 -2.9860 0.9678
4.9075 -5.8045 -2.9832 0.9679
5.4035 -5.3436 -2.9826 0.9679
6.6125 -3.7201 -2.9777 0.9679
6.9140 -3.1153 -2.9763 0.9679
7.1607 -2.4865 -2.9750 0.9680
7.4830 -1.1766 -2.9729 0.9680
7.5561 -0.5058 -2.9722 0.9680
7.4190 1.5080 -2.9713 0.9680
7.2556 2.1624 -2.9714 0.9680
7.0351 2.7999 -2.9717 0.9680
6.4300 4.0046 -2.9730 0.9680
6.0500 4.5625 -2.9739 0.9680
4.9907 5.3958 -2.8846 0.9689
3.3235 6.3987 -2.8298 0.9695
2.7425 6.6734 -2.8317 0.9695
1.5208 7.0769 -2.8409 0.9694
0.2422 7.2446 -2.8449 0.9693
-0.4037 7.2404 -2.8460 0.9693
-1.0468 7.1780 -2.8470 0.9693
-1.6820 7.0582 -2.8477 0.9693
-3.0666 7.0135 -3.0042 0.9676
-3.6815 6.7180 -3.0066 0.9676
-4.8216 5.9678 -3.0111 0.9676
-5.8112 5.0252 -3.0152 0.9675
-6.6180 3.9199 -3.0188 0.9675
-6.9443 3.3170 -3.0204 0.9675
-7.2153 2.6870 -3.0218 0.9675
-7.5829 1.3661 -3.0240 0.9674
-7.2288 -1.3024 -3.0246 0.9687
-6.5657 -3.1362 -2.9963 0.9690
-6.2599 -3.7078 -2.9959 0.9690
-5.9043 -4.2497 -2.9956 0.9690
-1.1195 -2.5605 -1.1507 0.9880
-0.6647 -2.7892 -1.1807 0.9877
-0.4041 -7.2485 -2.9894 0.9691
0.8870 -7.2017 -2.9879 0.9691
2.1488 -6.9269 -2.9864 0.9691
2.7561 -6.7065 -2.9857 0.9691
3.3413 -6.4331 -2.9850 0.9691
3.8998 -6.1088 -2.9844 0.9691
5.3719 -4.8586 -2.9826 0.9692
6.4547 -3.2617 -2.9780 0.9692
6.7164 -2.6730 -2.9767 0.9692
6.9249 -2.0638 -2.9755 0.9692
7.2031 0.4822 -2.9727 0.9693
6.5830 2.9661 -2.9732 0.9692
3.9499 5.6187 -2.8282 0.9707
3.4360 5.9513 -2.8297 0.9707
2.8944 6.2372 -2.8314 0.9707
1.7479 6.6716 -2.8400 0.9706
-1.3015 6.7901 -2.8469 0.9705
-1.9014 6.6497 -2.8480 0.9705
-2.6208 6.8050 -3.0028 0.9689
-3.7916 6.2418 -3.0073 0.9689
-5.3168 5.0286 -3.0135 0.9688
-7.1582 1.6218 -3.0223 0.9687
-7.3360 0.3271 -3.0239 0.9687
-7.3371 -0.3272 -3.0243 0.9687
-7.2795 -0.9790 -3.0246 0.9687
-7.1312 -1.6157 -3.0109 0.9689
-6.9260 -2.2333 -2.9966 0.9690
-6.4192 -3.4254 -2.9961 0.9690
-6.0881 -3.9827 -2.9958 0.9690
-4.8174 -5.4472 -2.9944 0.9690
-1.9864 -2.6960 -1.3790 0.9856
-1.5451 -2.5437 -1.2255 0.9872
-0.9983 -2.5921 -1.1438 0.9881
-0.5536 -2.8882 -1.2110 0.9874
-0.3262 -3.2430 -1.3422 0.9860
1.8383 -7.0166 -2.9868 0.9691
3.0518 -6.5763 -2.9854 0.9691
3.6242 -6.2772 -2.9847 0.9691
4.1676 -5.9284 -2.9840 0.9691
4.6777 -5.5328 -2.9834 0.9691
5.5819 -4.6135 -2.9820 0.9692
6.3045 -3.5468 -2.9787 0.9692
6.8274 -2.3707 -2.9761 0.9692
7.0088 -1.7530 -2.9750 0.9692
7.1349 -1.1219 -2.9741 0.9692
6.9183 2.0618 -2.9726 0.9693
6.7080 2.6697 -2.9730 0.9693
6.4449 3.2567 -2.9735 0.9692
1.5844 5.1075 -2.2020 0.9771
1.4496 6.7455 -2.8411 0.9706
0.8440 6.8522 -2.8429 0.9706
-0.9976 6.8404 -2.8465 0.9705
-2.9225 6.6840 -3.0039 0.9689
-3.5084 6.4021 -3.0062 0.9689
-4.5945 5.6868 -3.0105 0.9689
-5.0859 5.2588 -3.0125 0.9688
-6.3057 3.7349 -3.0179 0.9688
-6.6163 3.1604 -3.0194 0.9688
-6.8744 2.5601 -3.0207 0.9688
-7.0777 1.9388 -3.0218 0.9688
-7.2244 1.3015 -3.0228 0.9687
-6.9809 -0.6238 -3.0233 0.9699
-6.8980 -1.2428 -3.0234 0.9699
-6.7091 -1.8378 -3.0006 0.9702
-6.5091 -2.4240 -2.9961 0.9702
-6.2670 -2.9935 -2.9959 0.9702
-5.9751 -3.5391 -2.9956 0.9702
-5.6357 -4.0564 -2.9952 0.9702
-5.2516 -4.5412 -2.9948 0.9702
-4.8258 -4.9899 -2.9944 0.9702
-4.3618 -5.3987 -2.9939 0.9702
-1.1349 -2.5956 -1.2220 0.9877
-0.8978 -2.6817 -1.2199 0.9878
-0.4509 -3.0916 -1.3477 0.9865
0.8468 -6.8749 -2.9880 0.9703
2.6311 -6.4024 -2.9859 0.9703
3.7230 -5.8320 -2.9846 0.9703
4.2265 -5.4763 -2.9839 0.9703
5.1286 -4.6385 -2.9828 0.9703
5.8648 -3.6526 -2.9803 0.9704
6.1636 -3.1146 -2.9789 0.9704
6.4137 -2.5526 -2.9776 0.9704
6.6129 -1.9709 -2.9765 0.9704
6.8537 -0.7667 -2.9748 0.9704
6.8102 1.0709 -2.9737 0.9704
6.2866 2.8326 -2.9743 0.9704
5.6873 3.9042 -2.9757 0.9704
5.3190 4.3962 -2.9766 0.9704
4.4229 5.2313 -2.9550 0.9706
3.7717 5.3653 -2.8290 0.9718
3.2809 5.6827 -2.8305 0.9718
1.8189 5.0557 -2.3177 0.9769
-0.0734 6.5939 -2.8445 0.9717
-1.2423 6.4810 -2.8465 0.9717
-1.8608 6.5076 -2.9196 0.9709
-2.5017 6.4957 -3.0026 0.9701
-4.1377 5.6158 -3.0089 0.9701
-5.8515 3.8279 -3.0162 0.9700
-6.1720 3.2935 -3.0177 0.9700
-6.6637 2.1488 -3.0202 0.9700
-6.8308 1.5477 -3.0212 0.9699
-6.9434 0.9338 -3.0221 0.9699
-7.0004 0.3122 -3.0227 0.9699
-7.0014 -0.3122 -3.0231 0.9699
-6.9464 -0.9342 -3.0234 0.9699
-5.4491 -4.3031 -2.9950 0.9702
-4.5984 -5.1995 -2.9941 0.9702
-4.1166 -5.5871 -2.9936 0.9702
-1.2647 -2.5737 -1.2370 0.9876
-1.0118 -2.6270 -1.2143 0.9878
-0.7831 -2.7387 -1.2287 0.9877
-0.5620 -2.9322 -1.2878 0.9871
-0.3426 -3.4055 -1.4764 0.9852
1.7549 -6.6983 -2.9869 0.9703
2.3436 -6.5140 -2.9862 0.9703
3.4599 -5.9927 -2.9849 0.9703
5.3297 -4.4050 -2.9826 0.9703
5.6977 -3.9112 -2.9811 0.9703
6.0202 -3.3869 -2.9796 0.9704
6.8136 -1.0714 -2.9752 0.9704
6.8930 0.1536 -2.9741 0.9704
5.8548 3.6464 -2.9753 0.9704
5.5086 4.1542 -2.9761 0.9704
4.6883 5.0689 -2.9784 0.9704
4.0060 5.1906 -2.8283 0.9718
3.5299 5.5294 -2.8297 0.9718
2.4990 6.0810 -2.8359 0.9718
1.5845 5.1079 -2.3069 0.9770
0.8055 6.5402 -2.8425 0.9717
0.2203 6.5892 -2.8439 0.9717
-1.5299 6.4200 -2.8469 0.9717
-2.2091 6.5983 -3.0015 0.9701
-2.7896 6.3801 -3.0037 0.9701
-4.3852 5.4277 -3.0099 0.9701
-4.8540 5.0191 -3.0119 0.9700
-5.2847 4.5699 -3.0137 0.9700
-5.6736 4.0837 -3.0154 0.9700
-6.0177 3.5643 -3.0170 0.9700
-6.3140 3.0160 -3.0184 0.9700
-6.5602 2.4431 -3.0197 0.9700
-6.7540 1.8501 -3.0208 0.9700
-6.8940 1.2420 -3.0217 0.9699
-6.9788 0.6237 -3.0224 0.9699
-6.6971 -0.0000 -3.0218 0.9710
-6.6712 -0.5961 -3.0222 0.9710
-6.5920 -1.1876 -3.0223 0.9710
-6.2219 -2.3171 -2.9958 0.9713
-5.9905 -2.8614 -2.9956 0.9713
-5.3871 -3.8775 -2.9949 0.9713
-5.0200 -4.3410 -2.9946 0.9713
-4.6130 -4.7699 -2.9941 0.9713
-4.1695 -5.1607 -2.9936 0.9713
-1.8462 -2.7547 -1.4963 0.9856
-1.4301 -2.6096 -1.3427 0.9870
-1.1510 -2.6324 -1.2964 0.9875
-0.6848 -2.8737 -1.3330 0.9871
-0.3688 -6.6148 -2.9893 0.9713
0.8095 -6.5724 -2.9880 0.9714
1.3909 -6.4728 -2.9873 0.9714
2.5154 -6.1209 -2.9860 0.9714
4.4898 -4.8543 -2.9836 0.9714
4.9032 -4.4347 -2.9831 0.9714
5.2776 -3.9800 -2.9826 0.9714
5.6081 -3.4928 -2.9811 0.9714
6.1333 -2.4410 -2.9785 0.9714
6.5544 -0.7332 -2.9759 0.9715
6.5924 -0.1469 -2.9753 0.9715
6.5785 0.4404 -2.9750 0.9715
6.5128 1.0241 -2.9748 0.9715
6.3958 1.5997 -2.9748 0.9715
6.2285 2.1627 -2.9750 0.9715
6.0120 2.7089 -2.9754 0.9715
5.7481 3.2338 -2.9759 0.9715
5.4389 3.7335 -2.9767 0.9715
4.2638 5.0432 -2.9799 0.9714
3.6067 5.1304 -2.8297 0.9729
1.5948 6.0871 -2.8393 0.9728
0.4908 6.2811 -2.8428 0.9727
-0.0702 6.3027 -2.8441 0.9727
-1.8280 6.3931 -3.0003 0.9712
-2.3915 6.2094 -3.0024 0.9712
-2.9367 5.9760 -3.0045 0.9712
-3.4593 5.6948 -3.0065 0.9712
-4.8500 4.5871 -3.0122 0.9711
-5.2420 4.1395 -3.0138 0.9711
-5.5925 3.6585 -3.0154 0.9711
-5.8987 3.1477 -3.0168 0.9711
-6.1581 2.6113 -3.0181 0.9711
-6.5280 1.4791 -3.0202 0.9711
-6.6354 0.8924 -3.0210 0.9710
-6.6899 0.2983 -3.0216 0.9710
-6.6382 -0.8928 -3.0223 0.9710
-6.1123 -2.5919 -2.9957 0.9713
-5.2087 -4.1133 -2.9948 0.9713
-4.8213 -4.5600 -2.9943 0.9713
-3.9351 -5.3408 -2.9934 0.9713
-1.2828 -2.6105 -1.3124 0.9873
-0.6632 -6.5925 -2.9897 0.9713
-0.0738 -6.6239 -2.9890 0.9713
0.5160 -6.6027 -2.9883 0.9714
1.1013 -6.5290 -2.9876 0.9714
3.8038 -5.4109 -2.9844 0.9714
4.2695 -5.0500 -2.9839 0.9714
5.4483 -3.7401 -2.9818 0.9714
6.4006 -1.6009 -2.9770 0.9715
6.5799 -0.4405 -2.9756 0.9715
6.5920 0.1469 -2.9751 0.9715
6.5521 0.7330 -2.9749 0.9715
6.3184 1.8831 -2.9749 0.9715
6.1263 2.4382 -2.9752 0.9715
4.8950 4.4273 -2.9781 0.9715
3.9455 5.1123 -2.9138 0.9721
2.8929 5.5697 -2.8319 0.9728
2.3890 5.8132 -2.8359 0.9728
1.5847 5.1084 -2.4133 0.9768
0.2106 6.2982 -2.8434 0.9727
-4.1915 5.1879 -3.0094 0.9712
-6.0344 2.8824 -3.0175 0.9711
-6.2695 2.3348 -3.0187 0.9711
-6.4547 1.7681 -3.0198 0.9711
-6.5883 1.1869 -3.0206 0.9711
-6.4085 0.0000 -3.0208 0.9721
-6.3837 -0.5705 -3.0211 0.9721
-6.1440 -1.6830 -3.0028 0.9722
-5.7337 -2.7388 -2.9953 0.9723
-4.8049 -4.1549 -2.9943 0.9723
-4.4154 -4.5655 -2.9939 0.9723
-3.5348 -5.2743 -2.9929 0.9723
-1.4670 -2.6770 -1.4389 0.9866
-0.7004 -2.9390 -1.4242 0.9867
-0.4899 -3.3589 -1.6000 0.9851
0.2119 -6.3367 -2.9886 0.9724
2.4079 -5.8593 -2.9861 0.9724
3.4073 -5.3374 -2.9849 0.9724
3.8681 -5.0120 -2.9843 0.9724
4.6939 -4.2454 -2.9833 0.9724
5.0524 -3.8102 -2.9829 0.9724
5.3696 -3.3442 -2.9818 0.9724
5.8726 -2.3372 -2.9794 0.9724
6.1901 -1.2582 -2.9775 0.9725
6.2761 -0.7021 -2.9768 0.9725
6.3125 -0.1407 -2.9763 0.9725
6.2993 0.4217 -2.9760 0.9725
6.2364 0.9806 -2.9758 0.9725
6.1244 1.5318 -2.9758 0.9725
5.5041 3.0965 -2.9769 0.9725
4.8704 4.0255 -2.9785 0.9724
4.0825 4.8288 -2.9807 0.9724
3.5180 5.0044 -2.8835 0.9733
-2.2891 5.9435 -3.0022 0.9722
-2.8108 5.7200 -3.0042 0.9722
-3.3109 5.4506 -3.0062 0.9722
-5.0166 3.9616 -3.0132 0.9721
-5.3520 3.5011 -3.0147 0.9721
-5.6449 3.0122 -3.0160 0.9721
-6.3521 -0.8543 -3.0212 0.9721
-6.2500 -1.4161 -3.0208 0.9721
-5.8503 -2.4807 -2.9954 0.9723
-5.6058 -2.9914 -2.9951 0.9723
-5.3168 -3.4781 -2.9948 0.9723
-4.6147 -4.3646 -2.9941 0.9723
-4.2073 -4.7573 -2.9936 0.9723
-1.6604 -2.7335 -1.5076 0.9860
-1.3048 -2.6552 -1.3946 0.9870
-0.8070 -2.8222 -1.3836 0.9871
0.4939 -6.3203 -2.9883 0.9724
1.6060 -6.1299 -2.9870 0.9724
2.1448 -5.9614 -2.9864 0.9724
2.6663 -5.7456 -2.9858 0.9724
4.0872 -4.8343 -2.9841 0.9724
4.5005 -4.4506 -2.9836 0.9724
5.7638 -2.5970 -2.9799 0.9724
6.1287 -1.5329 -2.9779 0.9724
6.3121 0.1407 -2.9761 0.9725
6.2740 0.7019 -2.9758 0.9725
6.0502 1.8032 -2.9759 0.9725
5.8662 2.3347 -2.9761 0.9725
5.6360 2.8480 -2.9766 0.9725
4.6870 4.2391 -2.9790 0.9724
4.2927 4.6412 -2.9801 0.9724
2.2868 5.5644 -2.8358 0.9737
0.7370 5.9832 -2.8416 0.9737
0.2016 6.0280 -2.8430 0.9737
-0.8711 5.9727 -2.8452 0.9737
-2.0213 6.0375 -3.0012 0.9722
-2.5524 5.8376 -3.0032 0.9722
-4.4402 4.5912 -3.0107 0.9722
-4.8339 4.1801 -3.0124 0.9721
-5.5039 3.2600 -3.0154 0.9721
-5.9996 2.2343 -3.0178 0.9721
-6.3046 1.1358 -3.0197 0.9721
-6.1160 -0.5465 -3.0202 0.9730
-6.0433 -1.0887 -3.0203 0.9730
-5.4945 -2.6245 -2.9950 0.9732
-4.9412 -3.5564 -2.9944 0.9732
-4.2312 -4.3751 -2.9936 0.9732
-3.3874 -5.0544 -2.9927 0.9732
-0.8773 -6.0151 -2.9899 0.9733
0.2031 -6.0729 -2.9886 0.9733
1.2761 -5.9382 -2.9874 0.9733
3.2656 -5.1155 -2.9850 0.9733
3.7073 -4.8036 -2.9845 0.9733
4.4988 -4.0689 -2.9835 0.9733
4.8424 -3.6518 -2.9831 0.9733
5.1472 -3.2057 -2.9825 0.9733
5.4099 -2.7337 -2.9813 0.9733
5.8048 -1.7300 -2.9792 0.9734
5.9341 -1.2061 -2.9784 0.9734
6.0165 -0.6731 -2.9777 0.9734
6.0516 -0.1348 -2.9772 0.9734
6.0389 0.4042 -2.9769 0.9734
5.8712 1.4685 -2.9767 0.9734
5.7176 1.9853 -2.9769 0.9734
5.2765 2.9685 -2.9778 0.9734
4.6689 3.8589 -2.9793 0.9734
4.3084 4.2606 -2.9803 0.9734
3.4875 4.9610 -2.9827 0.9733
2.4259 5.2276 -2.8346 0.9746
1.4628 5.5831 -2.8388 0.9746
0.9606 5.6947 -2.8405 0.9746
0.4502 5.7605 -2.8420 0.9746
-0.0644 5.7802 -2.8432 0.9746
-0.5788 5.7537 -2.8443 0.9746
-1.1063 5.7717 -2.8905 0.9741
-2.1937 5.6957 -3.0021 0.9732
-4.0533 4.5832 -3.0094 0.9731
-4.4476 4.2065 -3.0110 0.9731
-4.8068 3.7959 -3.0126 0.9731
-5.8389 1.8828 -3.0175 0.9730
-5.9851 1.3561 -3.0184 0.9730
-6.0835 0.8182 -3.0191 0.9730
-6.1332 0.2735 -3.0197 0.9730
-6.1340 -0.2735 -3.0201 0.9730
-6.0858 -0.8185 -3.0203 0.9730
-5.9888 -1.3569 -3.0203 0.9730
-5.8013 -1.8707 -2.9981 0.9732
-5.3719 -2.8666 -2.9949 0.9732
-5.0950 -3.3330 -2.9946 0.9732
-4.7776 -3.7728 -2.9942 0.9732
-1.3427 -2.7324 -1.4974 0.9865
-1.0674 -2.7713 -1.4607 0.9868
-0.6164 -3.2160 -1.6106 0.9855
-0.6084 -6.0477 -2.9896 0.9733
-0.0677 -6.0765 -2.9890 0.9733
0.4733 -6.0571 -2.9883 0.9733
1.0104 -5.9897 -2.9877 0.9733
2.0555 -5.7133 -2.9865 0.9733
2.5554 -5.5066 -2.9859 0.9733
3.4899 -4.9644 -2.9848 0.9733
4.9999 -3.4323 -2.9829 0.9733
5.2838 -2.9726 -2.9819 0.9733
5.5252 -2.4895 -2.9807 0.9733
5.7229 -1.9872 -2.9797 0.9734
5.9812 -0.9405 -2.9780 0.9734
6.0400 -0.4043 -2.9774 0.9734
6.0512 0.1349 -2.9770 0.9734
5.9308 1.2055 -2.9767 0.9734
5.6237 2.2382 -2.9771 0.9734
4.8355 3.6466 -2.9788 0.9734
4.4931 4.0637 -2.9798 0.9734
4.1150 4.4491 -2.9808 0.9733
3.7042 4.7996 -2.9820 0.9733
0.1932 5.7762 -2.8426 0.9746
-2.4460 5.5942 -3.0030 0.9732
-2.9360 5.3576 -3.0049 0.9731
-3.8440 4.7578 -3.0085 0.9731
-4.2546 4.3993 -3.0102 0.9731
-4.6318 4.0053 -3.0118 0.9731
-4.9723 3.5789 -3.0133 0.9731
-5.5329 2.6428 -3.0159 0.9730
-5.7483 2.1407 -3.0170 0.9730
-6.0403 1.0882 -3.0188 0.9730
-6.1145 0.5464 -3.0194 0.9730
-5.8888 -0.0000 -3.0190 0.9739
-5.8659 -0.5242 -3.0193 0.9739
-5.7962 -1.0442 -3.0194 0.9739
-5.2710 -2.5177 -2.9947 0.9741
-4.7402 -3.4118 -2.9942 0.9741
-3.2497 -4.8489 -2.9925 0.9741
-1.2366 -2.8283 -1.5825 0.9862
-0.3246 -5.8217 -2.9892 0.9741
1.2243 -5.6971 -2.9874 0.9741
2.2141 -5.3877 -2.9863 0.9742
3.1332 -4.9080 -2.9852 0.9742
3.5570 -4.6088 -2.9847 0.9742
3.9524 -4.2733 -2.9842 0.9742
4.3164 -3.9040 -2.9837 0.9742
5.4024 -2.1501 -2.9809 0.9742
5.5705 -1.6602 -2.9800 0.9742
5.7739 -0.6459 -2.9785 0.9742
5.8075 -0.1294 -2.9781 0.9742
5.7954 0.3879 -2.9777 0.9742
5.7375 0.9022 -2.9776 0.9742
5.4870 1.9053 -2.9778 0.9742
5.2962 2.3864 -2.9781 0.9742
5.0637 2.8488 -2.9786 0.9742
4.7911 3.2889 -2.9792 0.9742
4.1345 4.0886 -2.9810 0.9742
3.3466 4.7605 -2.9833 0.9742
2.7819 4.8183 -2.8524 0.9753
2.3274 5.0153 -2.8346 0.9755
0.9215 5.4628 -2.8402 0.9754
0.4318 5.5259 -2.8416 0.9754
-0.5552 5.5197 -2.8440 0.9754
-2.1045 5.4642 -3.0019 0.9740
-3.4795 4.7225 -3.0073 0.9740
-4.2662 4.0351 -3.0105 0.9739
-4.6107 3.6411 -3.0120 0.9739
-4.9187 3.2177 -3.0134 0.9739
-5.8348 0.7847 -3.0183 0.9739
-5.8825 0.2623 -3.0188 0.9739
-5.7439 -1.3014 -3.0194 0.9739
-5.1534 -2.7499 -2.9946 0.9741
-4.8877 -3.1974 -2.9943 0.9741
-4.2424 -4.0124 -2.9936 0.9741
-3.8679 -4.3735 -2.9932 0.9741
-3.4628 -4.6997 -2.9928 0.9741
