ply
format ascii 1.0
element vertex 1584
property float32 x
property float32 y
property float32 z
property float32 I
end_header
-1.3704 -2.7887 0.0258 0.9876
-1.9551 -2.4199 -0.0259 0.9876
-1.2600 -2.8816 -0.0261 0.9875
-0.8632 -3.6223 -0.0309 0.9852
-3.0516 -2.4098 -0.0323 0.9846
-2.1018 -2.3765 -0.0264 0.9874
-1.8216 -2.4723 -0.0255 0.9878
-1.3633 -2.7743 -0.0257 0.9877
-1.1572 -3.0046 -0.0268 0.9872
-0.9555 -3.3415 -0.0289 0.9862
-1.9472 -2.4100 -0.0773 0.9877
-1.4665 -2.6760 -0.0761 0.9879
1.2734 4.8603 -0.1253 0.9801
-1.8145 -2.4627 -0.0763 0.9878
-0.9509 -3.3256 -0.0863 0.9863
-0.8226 -4.2917 -0.1090 0.9827
-2.6767 -2.3147 -0.1471 0.9859
-0.8553 -3.5888 -0.1534 0.9853
1.2733 4.8603 -0.2089 0.9801
-3.0122 -2.3787 -0.1596 0.9848
-2.4405 -2.3082 -0.1397 0.9866
-2.0894 -2.3625 -0.1311 0.9875
-1.8115 -2.4586 -0.1270 0.9878
-1.5706 -2.5856 -0.1258 0.9880
-0.9487 -3.3179 -0.1435 0.9863
-0.8095 -4.2230 -0.1788 0.9829
-2.6692 -2.3081 -0.2055 0.9860
-2.9987 -2.3680 -0.2225 0.9848
-2.4353 -2.3032 -0.1952 0.9867
-2.0856 -2.3583 -0.1834 0.9875
-1.5680 -2.5813 -0.1759 0.9880
-1.1481 -2.9809 -0.1861 0.9873
-0.7967 -4.1563 -0.2465 0.9832
-2.2402 -2.3164 -0.2415 0.9872
-1.9369 -2.3973 -0.2310 0.9877
-1.0447 -3.1203 -0.2466 0.9869
-2.4300 -2.2983 -0.2506 0.9867
-1.1459 -2.9754 -0.2389 0.9873
-0.9443 -3.3024 -0.2574 0.9863
-0.7843 -4.0916 -0.3122 0.9834
-2.6541 -2.2951 -0.3217 0.9860
-1.9335 -2.3931 -0.2821 0.9877
-1.4568 -2.6583 -0.2779 0.9879
-1.0423 -3.1133 -0.3010 0.9869
1.2734 4.8603 -0.4606 0.9800
-2.9720 -2.3470 -0.3472 0.9849
-2.4247 -2.2933 -0.3060 0.9867
-1.5629 -2.5728 -0.2760 0.9880
-1.1438 -2.9698 -0.2918 0.9873
-0.9421 -3.2947 -0.3142 0.9863
-0.7722 -4.0287 -0.3761 0.9837
-2.6466 -2.2886 -0.3795 0.9860
-2.2309 -2.3067 -0.3481 0.9872
-1.2433 -2.8435 -0.3366 0.9876
-0.8444 -3.5433 -0.3951 0.9855
-2.9623 -2.3393 -0.4094 0.9849
-2.0744 -2.3456 -0.3396 0.9875
-1.5603 -2.5686 -0.3260 0.9880
-1.3467 -2.7405 -0.3312 0.9878
-0.9399 -3.2871 -0.3708 0.9863
-1.9267 -2.3847 -0.3842 0.9877
-1.0386 -3.1020 -0.4099 0.9869
-0.8468 -3.5534 -0.4578 0.9854
1.2733 4.8604 -0.6296 0.9799
-2.9765 -2.3505 -0.4753 0.9848
-1.5577 -2.5643 -0.3760 0.9880
-1.3445 -2.7359 -0.3820 0.9878
-0.9399 -3.2871 -0.4284 0.9863
-0.7916 -4.1297 -0.5269 0.9832
-2.6567 -2.2973 -0.4996 0.9859
-1.6769 -2.5021 -0.4284 0.9879
-1.4524 -2.6502 -0.4299 0.9879
-1.2423 -2.8413 -0.4411 0.9875
-1.0409 -3.1091 -0.4664 0.9868
1.2733 4.8604 -0.7147 0.9799
-2.9908 -2.3618 -0.5421 0.9847
-2.4228 -2.2914 -0.4743 0.9866
-1.3452 -2.7374 -0.4338 0.9878
-1.1415 -2.9639 -0.4518 0.9872
-0.9422 -3.2950 -0.4874 0.9862
-0.8070 -4.2099 -0.6097 0.9828
-2.6647 -2.3042 -0.5610 0.9858
-1.9315 -2.3907 -0.4894 0.9876
-1.6797 -2.5063 -0.4804 0.9879
-1.4549 -2.6548 -0.4821 0.9878
-3.0054 -2.3734 -0.6098 0.9846
-2.0772 -2.3487 -0.4993 0.9874
-1.8003 -2.4434 -0.4833 0.9878
-1.5605 -2.5690 -0.4786 0.9879
-0.9444 -3.3029 -0.5470 0.9862
-0.8230 -4.2936 -0.6961 0.9824
-1.6826 -2.5106 -0.5329 0.9878
-0.8553 -3.5891 -0.6506 0.9851
1.2734 4.8604 -0.8859 0.9798
-2.4338 -2.3019 -0.5907 0.9865
-1.3498 -2.7469 -0.5397 0.9876
-1.1459 -2.9754 -0.5622 0.9871
-2.6809 -2.3183 -0.6859 0.9857
-2.2460 -2.3223 -0.6252 0.9869
-1.6855 -2.5150 -0.5859 0.9877
-1.4599 -2.6640 -0.5879 0.9877
-1.2494 -2.8575 -0.6035 0.9874
-0.8582 -3.6013 -0.7164 0.9850
12.7715 7.1851 -2.8358 0.9420
11.3049 9.3437 -2.8382 0.9420
10.4318 10.3163 -2.8392 0.9420
9.4757 11.2079 -2.8402 0.9420
8.4439 12.0117 -2.8413 0.9419
6.1859 13.3303 -2.8439 0.9419
1.2734 4.8604 -0.9723 0.9797
2.4479 14.5124 -2.8481 0.9418
1.1472 14.6804 -2.8496 0.9418
-3.0385 -2.3995 -0.7492 0.9843
-2.4394 -2.3072 -0.6498 0.9864
-2.0850 -2.3576 -0.6091 0.9873
-1.1482 -2.9812 -0.6182 0.9871
9.9637 10.7727 -2.8397 0.9420
6.7721 13.0384 -2.8432 0.9419
5.5873 13.5958 -2.8445 0.9419
4.3571 14.0460 -2.8459 0.9418
1.7995 14.6109 -2.8488 0.9418
-14.0593 -1.2563 -2.9758 0.9439
-13.8527 -2.4957 -2.9674 0.9441
-13.5748 -3.7185 -2.9673 0.9441
-13.1901 -4.9120 -2.9673 0.9441
-2.6914 -2.3274 -0.7501 0.9856
-2.2510 -2.3275 -0.6826 0.9869
-1.9423 -2.4040 -0.6516 0.9874
-1.4624 -2.6687 -0.6415 0.9876
-1.2518 -2.8630 -0.6588 0.9873
-1.0507 -3.1383 -0.6977 0.9866
-0.8657 -3.6325 -0.7873 0.9849
-2.0425 -14.0044 -2.9836 0.9438
-0.7880 -14.1323 -2.9840 0.9438
1.7321 -14.0634 -2.9872 0.9437
2.9788 -13.8622 -2.9891 0.9437
4.2034 -13.5506 -2.9910 0.9437
6.5442 -12.5998 -2.9932 0.9436
7.6374 -11.9638 -2.9923 0.9436
9.6324 -10.4145 -2.9907 0.9437
10.5186 -9.5135 -2.9900 0.9437
11.3211 -8.5377 -2.9893 0.9437
12.0338 -7.4947 -2.9888 0.9437
13.1679 -5.2407 -2.9878 0.9437
13.5806 -4.0475 -2.9875 0.9437
14.0812 -1.5752 -2.9871 0.9437
13.3877 4.6487 -2.9877 0.9437
11.7269 6.5974 -2.8366 0.9465
10.3802 8.5794 -2.8391 0.9464
8.7009 10.2915 -2.8412 0.9464
6.7435 11.6801 -2.8433 0.9464
-0.1506 13.5232 -2.8511 0.9462
-1.3543 13.4626 -2.8525 0.9462
-2.5460 13.2823 -2.8512 0.9462
-5.1191 13.2915 -3.0027 0.9434
-7.3992 12.1808 -3.0046 0.9434
-8.4563 11.4771 -3.0054 0.9434
-9.4468 10.6817 -3.0062 0.9434
-10.3626 9.8009 -3.0070 0.9434
-11.1963 8.8417 -3.0077 0.9433
-12.5913 6.7190 -3.0088 0.9433
-13.1413 5.5724 -3.0092 0.9433
-13.9240 3.1548 -3.0099 0.9433
-14.2640 -0.6360 -3.0101 0.9433
-13.9508 -1.8762 -2.9676 0.9441
-12.4206 -6.6278 -2.9680 0.9441
-2.4451 -2.3125 -0.7095 0.9863
-1.8096 -2.4561 -0.6432 0.9876
-1.1505 -2.9871 -0.6748 0.9870
-0.9514 -3.3273 -0.7296 0.9860
1.1035 -14.1221 -2.9863 0.9437
2.3576 -13.9767 -2.9882 0.9437
7.0979 -12.2939 -2.9928 0.9436
8.1616 -11.6100 -2.9919 0.9436
10.9307 -9.0345 -2.9896 0.9437
11.6890 -8.0241 -2.9890 0.9437
12.3546 -6.9506 -2.9885 0.9437
12.9223 -5.8225 -2.9880 0.9437
13.3875 -4.6487 -2.9877 0.9437
13.7468 -3.4383 -2.9874 0.9437
13.9974 -2.2010 -2.9872 0.9437
14.0812 1.5752 -2.9871 0.9437
13.8859 2.8224 -2.9873 0.9437
13.1681 5.2408 -2.9879 0.9437
12.6511 6.3929 -2.9883 0.9437
11.4223 7.1139 -2.8369 0.9465
10.7459 8.1038 -2.8374 0.9465
9.1492 9.8920 -2.8407 0.9464
8.2354 10.6708 -2.8417 0.9464
5.1298 12.4826 -2.8451 0.9463
4.0002 12.8954 -2.8464 0.9463
0.4518 13.5132 -2.8504 0.9462
-0.7531 13.5063 -2.8518 0.9462
-1.9525 13.3878 -2.8523 0.9462
-4.5212 13.5041 -3.0023 0.9434
-10.7902 9.3306 -3.0073 0.9434
-11.5803 8.3350 -3.0080 0.9433
-13.7691 3.7717 -3.0097 0.9433
-12.1904 -4.5397 -2.9691 0.9480
-11.7387 -5.6071 -2.9692 0.9480
-11.1952 -6.6309 -2.9698 0.9480
-10.5631 -7.6029 -2.9705 0.9480
-2.2561 -2.3328 -0.7407 0.9868
-1.9460 -2.4086 -0.7067 0.9874
-1.6914 -2.5237 -0.6934 0.9876
-1.2543 -2.8686 -0.7146 0.9872
-1.0548 -3.1506 -0.7583 0.9865
1.5999 -12.9900 -2.9873 0.9477
2.7513 -12.8036 -2.9890 0.9477
3.8822 -12.5152 -2.9908 0.9477
4.9836 -12.1269 -2.9925 0.9476
8.0091 -10.3777 -2.9920 0.9476
9.7178 -8.7892 -2.9906 0.9477
12.5474 -3.7396 -2.9884 0.9477
13.0877 -0.2917 -2.9879 0.9477
12.9326 2.0336 -2.9881 0.9477
8.0390 9.5086 -2.8420 0.9502
6.2301 10.7908 -2.8440 0.9502
-0.1391 12.4911 -2.8512 0.9500
-2.3515 12.2678 -2.8510 0.9500
-5.8033 11.8094 -3.0033 0.9474
-11.0269 7.2135 -3.0075 0.9474
-12.1348 5.1456 -3.0084 0.9474
-13.0663 1.7572 -3.0092 0.9473
-12.8933 -1.7340 -2.9693 0.9480
-12.3804 -3.9921 -2.9690 0.9480
-11.4783 -6.1250 -2.9695 0.9480
-2.0930 -2.3666 -0.7211 0.9871
-1.8128 -2.4604 -0.6975 0.9875
-1.5713 -2.5868 -0.6908 0.9877
-1.1528 -2.9930 -0.7321 0.9869
-2.4590 -12.8285 -2.9813 0.9478
-1.3082 -13.0037 -2.9830 0.9478
1.0193 -13.0446 -2.9864 0.9477
3.3199 -12.6720 -2.9899 0.9477
4.4372 -12.3334 -2.9916 0.9476
5.5204 -11.8962 -2.9933 0.9476
8.4624 -10.0094 -2.9917 0.9476
9.3176 -9.2143 -2.9910 0.9477
11.9390 -5.3795 -2.9888 0.9477
12.9326 -2.0336 -2.9880 0.9477
13.0877 0.2917 -2.9879 0.9477
12.8296 2.6077 -2.9881 0.9477
12.1662 4.8420 -2.9887 0.9477
10.5530 6.5725 -2.8376 0.9503
9.2299 8.3479 -2.8405 0.9502
8.4533 9.1396 -2.8415 0.9502
7.6087 9.8589 -2.8424 0.9502
2.6215 12.1995 -2.8480 0.9501
0.4173 12.4821 -2.8505 0.9500
-4.1756 12.4721 -3.0020 0.9475
-5.2707 12.0545 -3.0029 0.9475
-6.3245 11.5408 -3.0037 0.9474
-7.3286 10.9350 -3.0045 0.9474
-9.1558 9.4670 -3.0060 0.9474
-9.9642 8.6164 -3.0067 0.9474
-10.6937 7.6969 -3.0072 0.9474
-11.3383 6.7157 -3.0078 0.9474
-12.3527 4.6002 -3.0086 0.9474
-12.7143 3.4828 -3.0089 0.9473
-12.9748 2.3375 -3.0091 0.9473
-12.1083 -1.0820 -2.9881 0.9512
-11.8943 -2.1429 -2.9707 0.9514
-11.3255 -4.2176 -2.9706 0.9514
-10.9058 -5.2093 -2.9707 0.9514
-9.8128 -7.0627 -2.9718 0.9514
-2.7487 -2.3769 -0.8932 0.9851
-2.2728 -2.3501 -0.8036 0.9866
-1.9529 -2.4171 -0.7638 0.9873
-1.6952 -2.5294 -0.7485 0.9875
-1.0633 -3.1759 -0.8232 0.9863
-0.8922 -3.7440 -0.9460 0.9843
-0.6759 -12.1216 -2.9841 0.9512
3.6047 -11.6204 -2.9906 0.9511
4.6273 -11.2598 -2.9923 0.9511
7.4382 -9.6380 -2.9925 0.9511
8.2647 -8.9357 -2.9918 0.9511
10.3261 -6.4311 -2.9901 0.9511
10.8559 -5.4857 -2.9897 0.9511
11.2997 -4.4972 -2.9894 0.9511
11.6541 -3.4733 -2.9891 0.9511
12.0119 1.8888 -2.9888 0.9511
11.4884 3.9892 -2.9892 0.9511
11.0889 4.9964 -2.9896 0.9511
10.6016 5.9644 -2.9900 0.9511
7.4667 8.8316 -2.8427 0.9535
6.6531 9.4641 -2.8436 0.9535
3.9205 10.8972 -2.8466 0.9534
1.2734 4.8604 -1.2350 0.9795
1.9278 11.4288 -2.8489 0.9534
-1.1615 11.5463 -2.8524 0.9533
-3.1865 11.1440 -2.8490 0.9534
-5.3882 10.9647 -3.0029 0.9509
-8.0995 9.1583 -3.0051 0.9509
-8.8843 8.4028 -3.0058 0.9509
-9.5988 7.5801 -3.0064 0.9509
-10.2371 6.6969 -3.0069 0.9509
-11.6471 3.7557 -3.0080 0.9508
-12.1300 1.6313 -3.0084 0.9508
-12.2274 0.5452 -3.0085 0.9508
-12.2274 -0.5452 -3.0085 0.9508
-11.9858 -1.6119 -2.9726 0.9514
-10.6634 -5.6902 -2.9709 0.9514
-2.1030 -2.3779 -0.7803 0.9870
-1.8175 -2.4668 -0.7531 0.9875
-1.5746 -2.5921 -0.7455 0.9876
-1.3611 -2.7698 -0.7586 0.9874
-1.1596 -3.0108 -0.7930 0.9868
-0.9676 -3.3840 -0.8651 0.9856
-2.2837 -11.9141 -2.9818 0.9513
0.9465 -12.1133 -2.9865 0.9512
3.0826 -11.7663 -2.9898 0.9511
5.1258 -11.0458 -2.9931 0.9511
7.0023 -9.9609 -2.9928 0.9511
9.3792 -7.7520 -2.9909 0.9511
10.6015 -5.9643 -2.9899 0.9511
11.0888 -4.9964 -2.9895 0.9511
11.4883 -3.9892 -2.9892 0.9511
12.0119 -1.8888 -2.9888 0.9511
12.1319 -0.8121 -2.9887 0.9511
11.9162 2.4221 -2.9889 0.9511
11.2998 4.4972 -2.9894 0.9511
8.5668 7.7482 -2.8392 0.9535
7.8516 8.4891 -2.8423 0.9535
7.0669 9.1569 -2.8431 0.9535
5.3350 10.2717 -2.8450 0.9534
3.4318 11.0632 -2.8472 0.9534
0.3875 11.5909 -2.8506 0.9534
-2.6878 11.2787 -2.8499 0.9534
-3.8771 11.5803 -3.0017 0.9509
-5.8721 10.7151 -3.0033 0.9509
-6.8041 10.1525 -3.0041 0.9509
-8.5003 8.7893 -3.0055 0.9509
-9.2507 7.9994 -3.0061 0.9509
-10.5261 6.2347 -3.0071 0.9509
-11.4677 4.2706 -3.0079 0.9508
-11.8033 3.2333 -3.0081 0.9508
-12.1908 1.0894 -3.0084 0.9508
-11.4148 0.0000 -3.0078 0.9539
-11.3300 -1.0125 -2.9974 0.9540
-10.8777 -2.9797 -2.9719 0.9544
-10.1777 -4.8615 -2.9721 0.9544
-9.7056 -5.7487 -2.9724 0.9544
-9.1569 -6.5907 -2.9728 0.9544
-2.7786 -2.4027 -0.9679 0.9849
-1.4773 -2.6958 -0.8100 0.9874
-1.0720 -3.2018 -0.8897 0.9861
-0.9110 -3.8226 -1.0355 0.9839
-1.6337 -11.2018 -2.9829 0.9543
4.3162 -10.5030 -2.9921 0.9541
6.1130 -9.5759 -2.9936 0.9541
7.7107 -8.3367 -2.9923 0.9541
8.4205 -7.6159 -2.9917 0.9541
9.0633 -6.8350 -2.9912 0.9541
9.6342 -6.0003 -2.9907 0.9541
10.8735 -3.2406 -2.9897 0.9542
11.3419 -0.2527 -2.9893 0.9542
11.2075 1.7623 -2.9895 0.9542
10.3461 4.6617 -2.9902 0.9541
8.8826 6.0975 -2.8390 0.9564
7.6634 7.5785 -2.8399 0.9564
5.3985 9.3504 -2.8450 0.9563
4.5464 9.7971 -2.8460 0.9563
3.6576 10.1665 -2.8470 0.9563
1.2734 4.8604 -1.3239 0.9794
1.7984 10.6617 -2.8491 0.9563
0.8427 10.7836 -2.8502 0.9562
-2.0367 10.6255 -2.8508 0.9562
-4.0945 10.6312 -3.0019 0.9540
-5.0257 10.2271 -3.0027 0.9540
-5.9175 9.7416 -3.0034 0.9539
-6.7626 9.1783 -3.0041 0.9539
-8.9524 7.0697 -3.0058 0.9539
-9.5477 6.2458 -3.0063 0.9539
-10.0671 5.3720 -3.0067 0.9539
-10.5065 4.4552 -3.0071 0.9539
-10.8624 3.5027 -3.0074 0.9539
-11.1319 2.5221 -3.0076 0.9539
-11.4035 -0.5085 -3.0078 0.9539
-11.1936 -1.5054 -2.9761 0.9544
-10.9998 -2.4922 -2.9719 0.9544
-9.9515 -5.3103 -2.9722 0.9544
-9.4406 -6.1757 -2.9726 0.9544
-8.8552 -6.9929 -2.9732 0.9544
-2.4959 -2.3606 -0.9052 0.9859
-2.1166 -2.3933 -0.8419 0.9869
-1.8282 -2.4813 -0.8121 0.9873
-1.5838 -2.6073 -0.8038 0.9875
-2.1306 -11.1153 -2.9822 0.9543
-1.1334 -11.2662 -2.9836 0.9542
1.8862 -11.1822 -2.9881 0.9542
3.8430 -10.6819 -2.9913 0.9541
6.5328 -9.2930 -2.9932 0.9541
7.3324 -8.6728 -2.9926 0.9541
8.0736 -7.9842 -2.9920 0.9541
9.3581 -6.4240 -2.9909 0.9541
10.3460 -4.6617 -2.9901 0.9541
11.0067 -2.7529 -2.9896 0.9542
11.2746 1.2612 -2.9894 0.9542
10.8736 3.2407 -2.9897 0.9542
10.5429 4.1960 -2.9900 0.9541
10.1288 5.1183 -2.9903 0.9541
8.6028 6.4877 -2.8392 0.9564
7.3250 7.9197 -2.8426 0.9564
6.5936 8.5436 -2.8437 0.9563
4.9774 9.5833 -2.8455 0.9563
3.2017 10.3212 -2.8475 0.9563
1.3220 10.7333 -2.8496 0.9563
-2.5072 10.5209 -2.8499 0.9562
-3.6164 10.8016 -3.0015 0.9540
-5.4770 9.9943 -3.0030 0.9540
-6.3463 9.4694 -3.0037 0.9539
-7.9281 8.1976 -3.0050 0.9539
-8.6279 7.4608 -3.0056 0.9539
-9.2593 6.6644 -3.0061 0.9539
-10.2971 4.9185 -3.0069 0.9539
-11.2334 2.0238 -3.0077 0.9539
-11.3694 1.0160 -3.0078 0.9539
-10.6330 -0.9502 -3.0036 0.9566
-10.3998 -1.8736 -2.9732 0.9570
-10.1914 -2.7917 -2.9730 0.9570
-9.5355 -4.5547 -2.9732 0.9570
-9.0931 -5.3859 -2.9735 0.9570
-8.5789 -6.1747 -2.9739 0.9570
-2.3080 -2.3864 -0.9341 0.9863
-1.7152 -2.5592 -0.8668 0.9873
-1.4862 -2.7119 -0.8701 0.9872
-1.2764 -2.9192 -0.8964 0.9868
-1.0809 -3.2284 -0.9579 0.9860
-0.9483 -3.9790 -1.1509 0.9831
2.2318 -10.3861 -2.9889 0.9568
3.1490 -10.1515 -2.9905 0.9568
4.9041 -9.4422 -2.9936 0.9568
5.7257 -8.9691 -2.9939 0.9567
6.4999 -8.4221 -2.9932 0.9568
10.1853 -3.0356 -2.9903 0.9568
10.4145 -2.1168 -2.9901 0.9568
10.5611 -1.1815 -2.9900 0.9568
10.6242 -0.2368 -2.9899 0.9568
10.0405 3.4864 -2.9904 0.9568
9.6912 4.3666 -2.9907 0.9568
8.4935 5.8304 -2.8986 0.9581
6.5254 7.7183 -2.8437 0.9589
5.8145 8.2713 -2.8447 0.9589
3.4258 9.5223 -2.8473 0.9588
1.2734 4.8604 -1.4137 0.9793
1.6844 9.9857 -2.8492 0.9588
-1.0147 10.0869 -2.8523 0.9587
-4.7064 9.5772 -3.0024 0.9566
-6.3327 8.5948 -3.0037 0.9566
-7.7592 7.3386 -3.0049 0.9566
-8.3830 6.6200 -3.0054 0.9566
-9.4266 5.0302 -3.0062 0.9566
-9.8379 4.1717 -3.0065 0.9566
-10.5927 1.4246 -3.0071 0.9566
-10.3058 -2.3350 -2.9731 0.9570
-10.0569 -3.2429 -2.9730 0.9570
-8.8448 -5.7860 -2.9737 0.9570
-8.2961 -6.5513 -2.9742 0.9570
-2.5161 -2.3797 -0.9744 0.9857
-2.1305 -2.4090 -0.9048 0.9867
-1.8391 -2.4960 -0.8723 0.9872
-1.5932 -2.6228 -0.8634 0.9873
-1.3775 -2.8031 -0.8788 0.9871
-0.9900 -3.4621 -1.0131 0.9851
-0.1182 -10.6097 -2.9853 0.9569
0.8270 -10.5831 -2.9867 0.9568
1.7665 -10.4725 -2.9881 0.9568
3.5991 -10.0038 -2.9912 0.9568
5.3210 -9.2163 -2.9942 0.9567
7.5623 -7.4785 -2.9924 0.9568
9.2651 -5.2125 -2.9910 0.9568
9.6912 -4.3666 -2.9907 0.9568
10.3101 -2.5787 -2.9902 0.9568
10.4982 -1.6508 -2.9900 0.9568
10.6242 0.2368 -2.9899 0.9568
9.8756 3.9304 -2.9905 0.9568
6.1762 8.0026 -2.8441 0.9589
3.8460 9.3586 -2.8468 0.9588
2.9988 9.6670 -2.8477 0.9588
2.1272 9.8990 -2.8487 0.9588
0.3386 10.1266 -2.8508 0.9588
-1.4627 10.0289 -2.8515 0.9588
-2.3481 9.8531 -2.8499 0.9588
-3.3866 10.1155 -3.0013 0.9566
-4.2746 9.7762 -3.0020 0.9566
-5.9429 8.8674 -3.0034 0.9566
-6.7099 8.3050 -3.0040 0.9566
-7.4239 7.6763 -3.0046 0.9566
-9.6418 4.6055 -3.0064 0.9566
-10.0145 3.7295 -3.0067 0.9566
-10.3075 2.8235 -3.0069 0.9566
-10.6458 0.9513 -3.0072 0.9566
-9.3096 -3.4669 -2.9741 0.9594
-8.5486 -5.0634 -2.9745 0.9594
-2.3262 -2.4053 -1.0018 0.9861
-1.9907 -2.4639 -0.9483 0.9869
-1.2850 -2.9389 -0.9603 0.9867
-1.0900 -3.2557 -1.0279 0.9858
-1.4382 -9.8613 -2.9835 0.9592
-0.5551 -9.9545 -2.9848 0.9592
0.3333 -9.9688 -2.9861 0.9592
2.0975 -9.7611 -2.9890 0.9592
2.9595 -9.5404 -2.9905 0.9592
6.1092 -7.9159 -2.9936 0.9591
6.7883 -7.3394 -2.9930 0.9591
7.9795 -6.0176 -2.9921 0.9591
8.9177 -4.5063 -2.9913 0.9591
9.2825 -3.6943 -2.9910 0.9591
9.5737 -2.8533 -2.9908 0.9591
9.7891 -1.9897 -2.9906 0.9591
9.9270 -1.1105 -2.9905 0.9591
9.9665 0.6672 -2.9905 0.9592
9.8679 1.5516 -2.9905 0.9591
9.1092 4.1044 -2.9912 0.9591
8.2391 5.6558 -2.9919 0.9591
6.7467 6.6720 -2.8407 0.9612
6.1272 7.2472 -2.8412 0.9611
4.7529 8.2323 -2.8459 0.9611
4.0025 8.6251 -2.8467 0.9611
0.7417 9.4919 -2.8503 0.9610
-0.1061 9.5235 -2.8513 0.9610
-3.6033 9.3558 -3.0015 0.9590
-5.9508 8.0765 -3.0034 0.9590
-7.2911 6.8959 -3.0045 0.9590
-7.8772 6.2206 -3.0050 0.9590
-8.4008 5.4956 -3.0054 0.9590
-8.8577 4.7266 -3.0057 0.9589
-9.5572 3.0818 -3.0063 0.9589
-9.1461 -3.8783 -2.9742 0.9594
-8.3151 -5.4395 -2.9747 0.9594
-7.7992 -6.1589 -2.9752 0.9594
-2.5387 -2.4011 -1.0461 0.9855
-1.8502 -2.5111 -0.9338 0.9871
-1.6028 -2.6386 -0.9243 0.9872
-1.3860 -2.8203 -0.9408 0.9870
-1.1835 -3.0728 -0.9858 0.9863
-0.9977 -9.9177 -2.9841 0.9592
2.5309 -9.6604 -2.9897 0.9592
3.3823 -9.4014 -2.9912 0.9591
5.0005 -8.6611 -2.9941 0.9591
6.4552 -7.6352 -2.9933 0.9591
7.7040 -6.3676 -2.9923 0.9591
9.1091 -4.1044 -2.9911 0.9591
9.4375 -3.2770 -2.9909 0.9591
9.8678 -1.5517 -2.9905 0.9591
9.9863 0.2225 -2.9904 0.9592
9.9270 1.1105 -2.9905 0.9591
8.4823 5.2828 -2.9917 0.9591
7.5740 5.7118 -2.8400 0.9612
7.0366 6.3642 -2.8405 0.9612
6.4434 6.9665 -2.8409 0.9612
5.1143 8.0115 -2.8455 0.9611
1.9992 9.3036 -2.8489 0.9610
1.1636 9.4478 -2.8499 0.9610
-0.5303 9.5109 -2.8518 0.9610
-1.3745 9.4247 -2.8514 0.9610
-4.0170 9.1870 -3.0018 0.9590
-5.5846 8.3328 -3.0031 0.9590
-6.3053 7.8042 -3.0037 0.9590
-6.9761 7.2133 -3.0042 0.9590
-7.5917 6.5648 -3.0047 0.9590
-8.1471 5.8639 -3.0052 0.9590
-8.6378 5.1162 -3.0056 0.9589
-9.4100 3.5044 -3.0062 0.9589
-9.6853 2.6531 -3.0064 0.9589
-10.0031 0.8939 -3.0067 0.9589
-9.4282 -0.8425 -3.0062 0.9611
-9.0348 -2.4749 -2.9750 0.9614
-8.4533 -4.0378 -2.9752 0.9614
-8.0611 -4.7746 -2.9754 0.9614
-7.6051 -5.4738 -2.9758 0.9614
-2.0039 -2.4803 -1.0127 0.9867
-1.5044 -2.7452 -0.9942 0.9869
-1.1034 -3.2956 -1.1037 0.9855
-2.1771 -9.1356 -2.9826 0.9614
4.3441 -8.3640 -2.9932 0.9612
6.3998 -6.9194 -2.9933 0.9612
6.9892 -6.3214 -2.9929 0.9612
7.5230 -5.6734 -2.9924 0.9612
8.4077 -4.2486 -2.9917 0.9612
8.7517 -3.4831 -2.9914 0.9612
9.3594 -1.0470 -2.9909 0.9612
9.4153 -0.2098 -2.9909 0.9612
9.3967 0.6290 -2.9909 0.9612
9.3037 1.4629 -2.9910 0.9612
9.1370 2.2853 -2.9911 0.9612
8.8979 3.0897 -2.9913 0.9612
8.5883 3.8697 -2.9916 0.9612
8.2106 4.6192 -2.9919 0.9612
6.8942 5.6982 -2.8406 0.9632
6.3607 6.2902 -2.8410 0.9632
5.7766 6.8325 -2.8415 0.9631
3.7735 8.1317 -2.8470 0.9631
3.0356 8.4376 -2.8478 0.9631
1.2734 4.8604 -1.5957 0.9791
1.4924 8.8475 -2.8495 0.9630
-0.1000 8.9777 -2.8513 0.9630
-0.8989 8.9353 -2.8520 0.9630
-1.6897 8.8152 -2.8505 0.9630
-4.1689 8.4835 -3.0020 0.9611
-6.8724 6.4999 -3.0041 0.9611
-7.4248 5.8633 -3.0046 0.9611
-7.9182 5.1799 -3.0050 0.9611
-8.7130 3.6947 -3.0056 0.9611
-9.0080 2.9047 -3.0059 0.9611
-9.3812 1.2617 -3.0062 0.9611
-9.1362 -2.0700 -2.9751 0.9614
-8.9156 -2.8749 -2.9750 0.9614
-1.6126 -2.6548 -0.9865 0.9870
-1.3946 -2.8379 -1.0042 0.9868
-1.7683 -9.2254 -2.9832 0.9613
-0.9406 -9.3500 -2.9844 0.9613
1.5651 -9.2787 -2.9884 0.9613
2.3859 -9.1067 -2.9898 0.9613
4.7136 -8.1641 -2.9939 0.9612
6.0858 -7.1983 -2.9936 0.9612
6.7012 -6.6269 -2.9931 0.9612
7.2633 -6.0033 -2.9926 0.9612
8.5882 -3.8697 -2.9916 0.9612
9.1369 -2.2853 -2.9911 0.9612
9.4153 0.2098 -2.9909 0.9612
9.2295 1.8759 -2.9911 0.9612
7.9971 4.9807 -2.9921 0.9612
6.6341 6.0001 -2.8408 0.9632
4.8219 7.5533 -2.8459 0.9631
4.1315 7.9545 -2.8467 0.9631
1.8848 8.7708 -2.8491 0.9630
0.3000 8.9717 -2.8509 0.9630
-1.2957 8.8841 -2.8513 0.9630
-2.0802 8.7289 -2.8498 0.9630
-2.8475 8.5052 -2.8485 0.9631
-4.5431 8.2902 -3.0023 0.9611
-7.6791 5.5271 -3.0048 0.9611
-8.8693 3.3030 -3.0058 0.9611
-9.1288 2.5006 -3.0060 0.9611
-9.3156 1.6783 -3.0061 0.9611
-8.3004 -3.0911 -2.9759 0.9633
-7.6217 -4.5144 -2.9763 0.9633
-7.1905 -5.1754 -2.9766 0.9633
-6.7024 -5.7958 -2.9771 0.9633
-2.3834 -2.4644 -1.1519 0.9856
-1.7468 -2.6065 -1.0542 0.9868
-1.5139 -2.7625 -1.0584 0.9868
-1.3059 -2.9866 -1.0952 0.9863
-1.1229 -3.3538 -1.1883 0.9852
-1.2818 -8.7889 -2.9842 0.9632
-0.4947 -8.8717 -2.9854 0.9632
0.2970 -8.8842 -2.9866 0.9632
2.6371 -8.5010 -2.9905 0.9631
3.3847 -8.2362 -2.9918 0.9631
5.4446 -7.0548 -2.9941 0.9631
6.0500 -6.5412 -2.9936 0.9631
6.6072 -5.9758 -2.9932 0.9631
7.5601 -4.7085 -2.9924 0.9631
8.2735 -3.2928 -2.9918 0.9631
8.5332 -2.5432 -2.9916 0.9631
8.7252 -1.7735 -2.9915 0.9631
8.9010 -0.1984 -2.9913 0.9631
8.7954 1.3830 -2.9914 0.9631
8.6378 2.1604 -2.9915 0.9631
8.4117 2.9209 -2.9917 0.9631
8.1190 3.6583 -2.9920 0.9631
7.7620 4.3668 -2.9923 0.9631
5.4607 6.4590 -2.8417 0.9649
4.8650 6.9206 -2.8422 0.9649
4.2362 7.3373 -2.8466 0.9649
1.4108 8.3634 -2.8497 0.9648
0.6610 8.4583 -2.8505 0.9648
-0.0945 8.4862 -2.8514 0.9648
-1.5972 8.3323 -2.8505 0.9648
-2.3313 8.1530 -2.8491 0.9649
-5.9220 6.6961 -3.0034 0.9630
-7.0174 5.5417 -3.0043 0.9630
-7.4838 4.8957 -3.0046 0.9630
-8.2349 3.4919 -3.0052 0.9630
-8.6384 -1.9572 -2.9759 0.9633
-8.4297 -2.7182 -2.9759 0.9633
-7.8149 -4.1702 -2.9761 0.9633
-7.4135 -4.8497 -2.9764 0.9633
-6.9534 -5.4910 -2.9768 0.9633
-1.4034 -2.8559 -1.0691 0.9867
-1.6718 -8.7214 -2.9836 0.9632
-0.8892 -8.8390 -2.9847 0.9632
0.6926 -8.8640 -2.9872 0.9632
1.4795 -8.7709 -2.9885 0.9632
2.2553 -8.6082 -2.9898 0.9631
5.1254 -7.2910 -2.9944 0.9631
5.7530 -6.8047 -2.9939 0.9631
6.3349 -6.2647 -2.9934 0.9631
6.8663 -5.6752 -2.9930 0.9631
7.7619 -4.3668 -2.9922 0.9631
8.4117 -2.9209 -2.9917 0.9631
8.6377 -2.1604 -2.9915 0.9631
8.9010 0.1983 -2.9913 0.9631
8.7253 1.7735 -2.9915 0.9631
8.5332 2.5431 -2.9916 0.9631
8.2736 3.2928 -2.9918 0.9631
7.9484 4.0165 -2.9921 0.9631
7.5602 4.7085 -2.9924 0.9631
7.1119 5.3634 -2.9928 0.9631
6.2714 5.6722 -2.8411 0.9649
5.7426 6.2088 -2.8415 0.9649
4.5523 7.1310 -2.8425 0.9649
3.9056 7.5198 -2.8470 0.9649
2.5118 8.0973 -2.8484 0.9649
-0.4725 8.4748 -2.8518 0.9648
-3.5789 8.1852 -3.0015 0.9630
-4.9753 7.4238 -3.0026 0.9630
-5.6173 6.9526 -3.0031 0.9630
-6.2149 6.4261 -3.0036 0.9630
-7.2578 5.2239 -3.0045 0.9630
-7.6949 4.5577 -3.0048 0.9630
-8.0708 3.8551 -3.0051 0.9630
-8.3826 3.1217 -3.0054 0.9630
-8.8043 1.5862 -3.0057 0.9630
-8.4758 0.0000 -3.0054 0.9647
-8.4421 -0.7544 -3.0054 0.9647
-8.0964 -2.2178 -2.9766 0.9650
-7.8669 -2.9296 -2.9766 0.9650
-7.2237 -4.2786 -2.9770 0.9650
-6.8150 -4.9051 -2.9773 0.9650
-6.3523 -5.4930 -2.9778 0.9650
-1.3242 -3.0284 -1.1720 0.9861
-1.1433 -3.4147 -1.2769 0.9848
-1.2147 -8.3287 -2.9845 0.9649
-0.4688 -8.4070 -2.9856 0.9649
0.2815 -8.4186 -2.9868 0.9649
1.0301 -8.3635 -2.9880 0.9649
1.7711 -8.2420 -2.9892 0.9649
2.4987 -8.0550 -2.9905 0.9648
3.2070 -7.8039 -2.9917 0.9648
4.5436 -7.1174 -2.9941 0.9648
5.1594 -6.6852 -2.9943 0.9648
6.2611 -5.6628 -2.9934 0.9648
6.7394 -5.0824 -2.9931 0.9648
7.5321 -3.8062 -2.9924 0.9648
7.8404 -3.1204 -2.9922 0.9648
8.0864 -2.4100 -2.9920 0.9648
8.3850 -0.9380 -2.9917 0.9648
8.4184 0.5636 -2.9917 0.9648
8.3350 1.3106 -2.9918 0.9648
7.9714 2.7679 -2.9921 0.9648
7.6939 3.4667 -2.9923 0.9648
6.9588 4.7769 -2.9929 0.9648
6.5068 5.3780 -2.9933 0.9648
5.6980 5.6349 -2.8415 0.9666
4.0088 6.9434 -2.8429 0.9665
3.3806 7.2849 -2.8477 0.9665
2.7194 7.5587 -2.8484 0.9665
1.3368 7.9251 -2.8498 0.9665
-0.0896 8.0411 -2.8514 0.9664
-0.8049 8.0015 -2.8515 0.9664
-1.5133 7.8946 -2.8503 0.9665
-3.7334 7.5973 -3.0016 0.9647
-6.1541 5.8205 -3.0036 0.9647
-8.0660 2.6009 -3.0051 0.9647
-7.0262 -4.5963 -2.9772 0.9650
-6.5901 -5.2042 -2.9775 0.9650
-2.2110 -2.5000 -1.1834 0.9859
-1.8949 -2.5718 -1.1327 0.9865
-1.6398 -2.6994 -1.1199 0.9867
-1.4211 -2.8917 -1.1425 0.9864
-1.2274 -3.1868 -1.2109 0.9856
-2.3127 -8.0881 -2.9829 0.9649
-0.8426 -8.3761 -2.9850 0.9649
0.6563 -8.3994 -2.9874 0.9649
1.4019 -8.3110 -2.9886 0.9649
4.8568 -6.9090 -2.9946 0.9648
6.9587 -4.7769 -2.9929 0.9648
7.3555 -4.1381 -2.9926 0.9648
7.6939 -3.4667 -2.9923 0.9648
7.9713 -2.7679 -2.9921 0.9648
8.4351 0.1880 -2.9917 0.9648
8.3850 0.9380 -2.9917 0.9648
8.2685 1.6807 -2.9918 0.9648
8.0865 2.4100 -2.9920 0.9648
7.8404 3.1204 -2.9922 0.9648
5.9429 5.3751 -2.8413 0.9666
5.4417 5.8835 -2.8417 0.9666
4.8972 6.3455 -2.8422 0.9666
4.3137 6.7573 -2.8427 0.9665
3.0529 7.4290 -2.8480 0.9665
0.9826 7.9779 -2.8502 0.9665
-1.8630 7.8175 -2.8496 0.9665
-3.3910 7.7554 -3.0013 0.9647
-4.7139 7.0338 -3.0024 0.9647
-5.3222 6.5874 -3.0029 0.9647
-6.8763 4.9493 -3.0041 0.9647
-8.0476 0.0000 -3.0051 0.9662
-8.0156 -0.7163 -3.0051 0.9662
-7.8610 -1.4162 -2.9827 0.9665
-7.6900 -2.1065 -2.9773 0.9665
-7.1950 -3.4367 -2.9775 0.9665
-6.4728 -4.6589 -2.9780 0.9665
-2.0745 -2.5676 -1.2326 0.9860
-1.5506 -2.8295 -1.2048 0.9863
-1.3432 -3.0720 -1.2520 0.9858
-1.1536 -7.9096 -2.9848 0.9664
0.9782 -7.9422 -2.9881 0.9664
1.6819 -7.8267 -2.9893 0.9664
2.3727 -7.6489 -2.9905 0.9664
5.4445 -5.8865 -2.9941 0.9663
6.4003 -4.8266 -2.9933 0.9664
7.4459 -2.9634 -2.9925 0.9664
7.6796 -2.2888 -2.9923 0.9664
7.8525 -1.5961 -2.9922 0.9664
7.9157 1.2447 -2.9921 0.9664
7.5703 2.6287 -2.9924 0.9664
6.9854 3.9299 -2.9929 0.9664
6.1793 5.1073 -2.9935 0.9663
5.4112 5.3512 -2.8418 0.9680
4.3780 6.2277 -2.8426 0.9680
1.2695 7.5261 -2.8500 0.9679
-1.4368 7.4957 -2.8499 0.9679
-2.0973 7.3349 -2.8487 0.9680
-2.8884 7.4995 -3.0009 0.9663
-4.1737 6.8709 -3.0020 0.9663
-5.3275 6.0239 -3.0029 0.9662
-6.7322 4.4040 -3.0040 0.9662
-7.4078 3.1412 -3.0046 0.9662
-7.9757 1.0726 -3.0050 0.9662
-8.0396 0.3585 -3.0051 0.9662
-8.0396 -0.3585 -3.0051 0.9662
-7.9702 -1.0719 -3.0030 0.9662
-6.6735 -4.3656 -2.9778 0.9665
-2.8197 -2.6668 -1.4492 0.9836
-2.2442 -2.5375 -1.2650 0.9856
-1.4394 -2.9290 -1.2186 0.9862
-1.5045 -7.8490 -2.9843 0.9665
-0.8002 -7.9546 -2.9853 0.9664
-0.0891 -7.9972 -2.9864 0.9664
0.6233 -7.9764 -2.9875 0.9664
1.3313 -7.8923 -2.9887 0.9664
2.0292 -7.7455 -2.9899 0.9664
4.6119 -6.5605 -2.9945 0.9663
6.1792 -5.1073 -2.9935 0.9663
6.6085 -4.5365 -2.9932 0.9664
7.5703 -2.6287 -2.9924 0.9664
7.9157 -1.2447 -2.9921 0.9664
8.0108 0.1785 -2.9920 0.9664
7.8525 1.5961 -2.9922 0.9664
7.6797 2.2888 -2.9923 0.9664
7.4460 2.9634 -2.9925 0.9664
7.1532 3.6147 -2.9927 0.9664
6.4003 4.8267 -2.9934 0.9664
5.8434 5.2850 -2.9420 0.9669
3.5097 6.7574 -2.8433 0.9680
2.8995 7.0553 -2.8483 0.9680
2.2604 7.2870 -2.8490 0.9679
0.9331 7.5761 -2.8504 0.9679
0.2552 7.6311 -2.8511 0.9679
-0.4251 7.6247 -2.8516 0.9679
-1.7689 7.4227 -2.8493 0.9679
-2.4215 7.2328 -2.8481 0.9680
-3.2199 7.3640 -3.0012 0.9663
-3.8632 7.0495 -3.0017 0.9663
-4.4760 6.6787 -3.0022 0.9663
-5.0535 6.2548 -3.0027 0.9662
-6.5290 4.6993 -3.0039 0.9662
-6.9221 4.1000 -3.0042 0.9662
-7.2602 3.4679 -3.0044 0.9662
-7.5406 2.8082 -3.0047 0.9662
-7.7611 2.1260 -3.0049 0.9662
-7.9199 1.4268 -3.0050 0.9662
-8.0156 0.7163 -3.0051 0.9662
-7.6255 -0.6814 -3.0047 0.9676
-7.1106 -2.6480 -2.9780 0.9679
-6.8470 -3.2705 -2.9781 0.9679
-6.5292 -3.8672 -2.9783 0.9679
-2.1039 -2.6040 -1.3139 0.9857
-1.8110 -2.7022 -1.2767 0.9861
-1.3630 -3.1173 -1.3353 0.9855
0.9307 -7.5568 -2.9882 0.9678
1.6002 -7.4467 -2.9893 0.9678
2.2575 -7.2775 -2.9905 0.9678
4.1045 -6.4296 -2.9938 0.9678
4.6620 -6.0407 -2.9947 0.9677
6.4739 -4.0320 -2.9933 0.9678
7.0850 -2.8198 -2.9928 0.9678
7.4719 -1.5187 -2.9925 0.9678
7.5772 -0.8476 -2.9924 0.9678
7.5321 1.1844 -2.9924 0.9678
7.3971 1.8501 -2.9925 0.9678
7.2034 2.5013 -2.9927 0.9678
6.9527 3.1327 -2.9929 0.9678
6.2882 4.3166 -2.9935 0.9678
5.2290 5.1710 -2.8862 0.9689
4.6758 5.5306 -2.8424 0.9694
1.2734 4.8604 -1.9719 0.9786
1.2079 7.1611 -2.8502 0.9693
0.5659 7.2420 -2.8509 0.9693
-0.0809 7.2644 -2.8512 0.9693
-3.9708 6.5369 -3.0018 0.9677
-4.5376 6.1585 -3.0022 0.9677
-6.0058 4.7427 -3.0034 0.9677
-6.4047 4.1898 -3.0038 0.9676
-6.7528 3.6035 -3.0040 0.9676
-7.0474 2.9884 -3.0043 0.9676
-7.4664 1.6917 -3.0046 0.9676
-7.6484 0.3410 -3.0048 0.9676
-7.4016 -1.6770 -2.9785 0.9679
-7.2215 -2.3287 -2.9779 0.9679
-6.9857 -2.9622 -2.9780 0.9679
-6.6947 -3.5724 -2.9782 0.9679
-6.3508 -4.1545 -2.9784 0.9679
-5.5150 -5.2160 -2.9792 0.9679
-1.9438 -2.6382 -1.2861 0.9860
-2.0900 -7.3092 -2.9836 0.9679
-0.0848 -7.6093 -2.9866 0.9678
0.5930 -7.5894 -2.9877 0.9678
1.9307 -7.3694 -2.9899 0.9678
2.5799 -7.1710 -2.9910 0.9678
3.2092 -6.9155 -2.9921 0.9678
4.3877 -6.2415 -2.9943 0.9677
4.9261 -5.8266 -2.9945 0.9677
5.4245 -5.3643 -2.9941 0.9677
6.6467 -3.7394 -2.9931 0.9678
6.9526 -3.1327 -2.9929 0.9678
7.5321 -1.1844 -2.9924 0.9678
7.6074 -0.5093 -2.9924 0.9678
7.3075 2.1778 -2.9926 0.9678
7.0851 2.8198 -2.9928 0.9678
6.4739 4.0320 -2.9933 0.9678
4.4251 5.7338 -2.8426 0.9694
3.8978 6.1058 -2.8430 0.9694
3.3394 6.4295 -2.8435 0.9693
2.1510 6.9339 -2.8493 0.9693
1.5256 7.0994 -2.8499 0.9693
0.8879 7.2087 -2.8506 0.9693
0.2428 7.2609 -2.8513 0.9693
-4.8078 5.9507 -3.0025 0.9677
-5.3190 5.4999 -3.0029 0.9677
-6.2114 4.4707 -3.0036 0.9676
-7.3834 2.0225 -3.0045 0.9676
-7.5345 1.3574 -3.0047 0.9676
-7.6256 0.6814 -3.0047 0.9676
-7.2672 -0.6494 -3.0044 0.9689
-6.9763 -1.9110 -2.9785 0.9692
-6.7785 -2.5244 -2.9785 0.9692
-6.2242 -3.6866 -2.9789 0.9692
-5.4732 -4.7328 -2.9795 0.9692
-2.6582 -2.7485 -1.5745 0.9836
-2.1424 -2.6517 -1.4038 0.9854
-1.8350 -2.7380 -1.3573 0.9858
-1.3940 -3.1881 -1.4328 0.9851
-2.3003 -6.8705 -2.9835 0.9691
-1.6801 -7.0500 -2.9844 0.9691
-0.4037 -7.2409 -2.9863 0.9691
0.2424 -7.2505 -2.9873 0.9691
0.8871 -7.2027 -2.9883 0.9691
1.5252 -7.0976 -2.9894 0.9691
2.7614 -6.7196 -2.9915 0.9691
4.9378 -5.3387 -2.9945 0.9690
5.3927 -4.8774 -2.9942 0.9690
6.4878 -3.2784 -2.9933 0.9690
7.1222 -1.4477 -2.9928 0.9690
7.2226 -0.8080 -2.9927 0.9691
7.2658 -0.1619 -2.9926 0.9691
7.2514 0.4854 -2.9927 0.9691
7.1796 1.1289 -2.9927 0.9690
7.0508 1.7635 -2.9928 0.9690
6.6272 2.9861 -2.9932 0.9690
5.9938 4.1145 -2.9937 0.9690
5.6044 4.6321 -2.9940 0.9690
5.1705 5.1132 -2.9944 0.9690
3.9705 5.6481 -2.8429 0.9706
2.9070 6.2645 -2.8438 0.9706
1.2734 4.8604 -2.0690 0.9785
1.1515 6.8259 -2.8505 0.9705
0.5394 6.9022 -2.8509 0.9705
-0.6928 6.8862 -2.8499 0.9705
-1.3025 6.7951 -2.8490 0.9705
-3.2144 6.5411 -3.0012 0.9690
-3.7844 6.2300 -3.0016 0.9690
-4.8304 5.4619 -3.0025 0.9690
-5.2980 5.0109 -3.0029 0.9689
-5.7237 4.5200 -3.0032 0.9689
-6.1039 3.9930 -3.0035 0.9689
-6.4356 3.4342 -3.0038 0.9689
-6.7162 2.8480 -3.0040 0.9689
-7.2890 -0.3250 -3.0045 0.9689
-7.2310 -0.9725 -3.0044 0.9689
-7.0598 -1.5996 -2.9808 0.9692
-6.8842 -2.2199 -2.9785 0.9692
-1.4840 -3.0198 -1.3855 0.9856
-1.3232 -3.4355 -1.5160 0.9842
-1.9922 -6.9671 -2.9839 0.9691
-1.3646 -7.1190 -2.9848 0.9691
-0.0808 -7.2529 -2.9868 0.9691
0.5653 -7.2338 -2.9878 0.9691
1.8402 -7.0239 -2.9899 0.9691
3.0586 -6.5910 -2.9921 0.9691
3.6343 -6.2949 -2.9931 0.9690
4.6954 -5.5537 -2.9947 0.9690
5.1704 -5.1131 -2.9943 0.9690
5.6043 -4.6321 -2.9940 0.9690
5.9937 -4.1145 -2.9937 0.9690
6.6271 -2.9861 -2.9932 0.9690
6.8662 -2.3842 -2.9930 0.9690
7.0508 -1.7635 -2.9928 0.9690
7.2514 -0.4854 -2.9927 0.9691
7.2658 0.1619 -2.9926 0.9691
7.2226 0.8080 -2.9927 0.9691
6.9654 2.0759 -2.9929 0.9690
6.7534 2.6878 -2.9931 0.9690
6.1708 3.8432 -2.9935 0.9690
5.3928 4.8775 -2.9942 0.9690
4.6968 5.0780 -2.8483 0.9705
2.6253 6.3883 -2.8440 0.9706
2.0502 6.6092 -2.8495 0.9705
1.4542 6.7672 -2.8502 0.9705
0.8464 6.8712 -2.8508 0.9705
-0.3853 6.9110 -2.8502 0.9705
-2.2022 6.5776 -2.8563 0.9704
-5.0693 5.2416 -3.0027 0.9689
-5.5163 4.7702 -3.0030 0.9689
-6.2760 3.7173 -3.0037 0.9689
-6.8367 2.5461 -3.0041 0.9689
-7.2673 0.6494 -3.0044 0.9689
-6.9368 -0.6199 -3.0042 0.9701
-6.8359 -1.2315 -2.9962 0.9702
-6.2321 -2.9768 -2.9792 0.9704
-5.2256 -4.5188 -2.9800 0.9704
-4.8034 -4.9667 -2.9805 0.9703
-2.2023 -2.7258 -1.5116 0.9849
-1.8770 -2.8006 -1.4543 0.9854
-1.6304 -2.9751 -1.4634 0.9853
-1.6040 -6.7307 -2.9846 0.9703
-0.9989 -6.8488 -2.9855 0.9703
-0.3854 -6.9127 -2.9865 0.9703
1.4560 -6.7756 -2.9894 0.9703
2.0540 -6.6214 -2.9905 0.9703
3.1976 -6.1565 -2.9925 0.9702
3.7341 -5.8494 -2.9935 0.9702
4.2413 -5.4956 -2.9944 0.9702
5.1483 -4.6564 -2.9944 0.9702
6.1938 -3.1299 -2.9935 0.9702
6.6499 -1.9819 -2.9931 0.9702
6.7996 -1.3821 -2.9930 0.9702
6.9367 -0.1546 -2.9929 0.9702
6.3269 2.8508 -2.9934 0.9702
6.0486 3.4029 -2.9936 0.9702
5.3504 4.4222 -2.9942 0.9702
4.9361 4.8814 -2.9946 0.9702
3.2960 5.7088 -2.8435 0.9717
2.7752 5.9804 -2.8439 0.9717
-0.0736 6.6062 -2.8498 0.9716
-0.6612 6.5723 -2.8493 0.9716
-2.5001 6.4914 -3.0006 0.9702
-4.6109 5.2137 -3.0023 0.9701
-5.4635 4.3146 -3.0030 0.9701
-5.8264 3.8115 -3.0033 0.9701
-6.1431 3.2781 -3.0035 0.9701
-6.6278 2.1372 -3.0039 0.9701
-6.9576 -0.3102 -3.0042 0.9701
-6.9022 -0.9282 -3.0041 0.9701
-6.7435 -1.5279 -2.9826 0.9703
-6.5730 -2.1195 -2.9791 0.9704
-6.3584 -2.6962 -2.9791 0.9704
-6.0935 -3.2516 -2.9793 0.9704
-5.7803 -3.7813 -2.9795 0.9704
-5.0195 -4.7474 -2.9802 0.9704
-2.4333 -2.7514 -1.5844 0.9841
-1.7422 -2.8680 -1.4475 0.9855
-1.5262 -3.1057 -1.4927 0.9850
-1.4121 -3.6665 -1.6948 0.9830
-1.3028 -6.7965 -2.9851 0.9703
-0.6929 -6.8876 -2.9860 0.9703
0.5396 -6.9058 -2.9879 0.9703
1.1525 -6.8326 -2.9889 0.9703
1.7567 -6.7052 -2.9899 0.9703
3.4693 -6.0089 -2.9930 0.9702
3.9916 -5.6782 -2.9940 0.9702
4.4826 -5.3020 -2.9949 0.9702
5.3504 -4.4222 -2.9942 0.9702
6.0485 -3.4028 -2.9936 0.9702
6.3269 -2.8508 -2.9934 0.9702
6.5551 -2.2762 -2.9932 0.9702
6.8543 -1.0778 -2.9930 0.9702
6.9229 -0.4634 -2.9929 0.9702
6.4475 2.5660 -2.9933 0.9702
6.1939 3.1299 -2.9935 0.9702
5.8912 3.6691 -2.9938 0.9702
4.6633 5.0419 -2.9625 0.9705
4.0267 5.2175 -2.8429 0.9717
3.5468 5.5559 -2.8433 0.9717
1.9567 6.3078 -2.8488 0.9716
0.8077 6.5577 -2.8501 0.9716
0.2208 6.6034 -2.8500 0.9716
-0.3678 6.5958 -2.8496 0.9716
-0.9532 6.5355 -2.8490 0.9716
-1.5306 6.4229 -2.8481 0.9716
-3.3438 6.1016 -3.0013 0.9701
-3.8741 5.7806 -3.0017 0.9701
-4.3738 5.4136 -3.0021 0.9701
-4.8389 5.0034 -3.0025 0.9701
-6.2833 3.0013 -3.0037 0.9701
-6.8540 1.2348 -3.0041 0.9701
-6.9368 0.6199 -3.0042 0.9701
-6.6574 0.0000 -3.0040 0.9712
-5.3605 -3.8583 -2.9801 0.9714
-4.9964 -4.3206 -2.9805 0.9714
-4.5927 -4.7488 -2.9809 0.9714
-1.6733 -3.0534 -1.5711 0.9848
-1.5151 -3.4651 -1.7064 0.9835
-2.0996 -6.2712 -2.9841 0.9714
-0.9550 -6.5479 -2.9858 0.9714
0.8096 -6.5736 -2.9885 0.9714
1.3920 -6.4775 -2.9895 0.9713
3.0568 -5.8854 -2.9924 0.9713
3.5696 -5.5917 -2.9933 0.9713
5.9217 -2.9924 -2.9937 0.9713
6.3577 -1.8948 -2.9934 0.9713
6.5008 -1.3213 -2.9933 0.9713
6.6319 -0.1478 -2.9932 0.9713
6.5532 1.0304 -2.9932 0.9713
6.4357 1.6097 -2.9933 0.9713
6.0489 2.7255 -2.9936 0.9713
5.7828 3.2533 -2.9939 0.9713
5.4707 3.7554 -2.9941 0.9713
3.6238 5.1549 -2.8432 0.9727
3.1511 5.4578 -2.8436 0.9727
1.2734 4.8604 -2.2671 0.9782
-1.1883 6.1991 -2.8481 0.9727
-2.9333 5.9690 -3.0009 0.9712
-3.9462 5.3558 -3.0018 0.9712
-5.5696 3.6435 -3.0031 0.9712
-5.8723 3.1336 -3.0033 0.9712
-6.3356 2.0430 -3.0037 0.9712
-6.4500 -1.4614 -2.9841 0.9714
-6.2847 -2.0265 -2.9796 0.9714
-5.1836 -4.0934 -2.9803 0.9714
-4.7993 -4.5392 -2.9807 0.9714
-2.6856 -3.0367 -1.8292 0.9824
-2.0791 -2.8218 -1.5815 0.9847
-1.8184 -6.3594 -2.9845 0.9714
-1.2455 -6.4979 -2.9853 0.9714
-0.6624 -6.5849 -2.9862 0.9714
-0.0737 -6.6197 -2.9871 0.9714
1.1018 -6.5320 -2.9890 0.9713
1.6794 -6.4101 -2.9900 0.9713
3.8158 -5.4280 -2.9938 0.9713
4.7191 -4.6668 -2.9947 0.9713
5.1152 -4.2278 -2.9944 0.9713
5.7827 -3.2533 -2.9938 0.9713
6.2671 -2.1762 -2.9935 0.9713
6.4356 -1.6096 -2.9933 0.9713
6.5532 -1.0304 -2.9932 0.9713
6.6319 0.1478 -2.9932 0.9713
6.5009 1.3213 -2.9933 0.9713
6.3577 1.8948 -2.9934 0.9713
6.1642 2.4533 -2.9935 0.9713
5.9217 2.9924 -2.9937 0.9713
5.2983 3.9956 -2.9943 0.9713
4.5069 4.8727 -2.9949 0.9713
3.3908 5.3116 -2.8434 0.9727
1.8702 6.0288 -2.8482 0.9727
0.2110 6.3112 -2.8493 0.9727
-0.3515 6.3042 -2.8490 0.9727
-0.9110 6.2467 -2.8484 0.9727
-3.1964 5.8328 -3.0012 0.9712
-3.7034 5.5259 -3.0016 0.9712
-4.1811 5.1750 -3.0020 0.9712
-4.6257 4.7829 -3.0023 0.9712
-5.4016 3.8878 -3.0029 0.9712
-5.7266 3.3919 -3.0032 0.9712
-6.4205 1.7588 -3.0038 0.9712
-6.5518 1.1804 -3.0039 0.9712
-6.6310 0.5926 -3.0039 0.9712
-6.3722 0.0000 -3.0037 0.9722
-6.2705 -1.1297 -3.0034 0.9722
-6.0992 -1.6707 -2.9808 0.9724
-5.4399 -3.2221 -2.9803 0.9724
-1.9966 -2.9792 -1.6905 0.9843
-2.0100 -6.0036 -2.9844 0.9724
-1.4680 -6.1603 -2.9851 0.9724
-0.9142 -6.2682 -2.9860 0.9724
0.2118 -6.3347 -2.9877 0.9724
0.7750 -6.2926 -2.9886 0.9724
1.3325 -6.2006 -2.9895 0.9723
2.9260 -5.6335 -2.9923 0.9723
3.4168 -5.3523 -2.9932 0.9723
3.8808 -5.0285 -2.9941 0.9723
4.3142 -4.6644 -2.9950 0.9723
5.6688 -2.8646 -2.9939 0.9723
6.2233 -1.2649 -2.9935 0.9723
6.3110 -0.7060 -2.9934 0.9723
6.3488 -0.1415 -2.9934 0.9723
6.3362 0.4241 -2.9934 0.9723
6.2734 0.9864 -2.9935 0.9723
5.7906 2.6091 -2.9939 0.9723
5.5358 3.1144 -2.9941 0.9723
5.2371 3.5950 -2.9943 0.9723
4.5176 4.4675 -2.9949 0.9723
3.4690 4.9347 -2.8433 0.9737
3.0164 5.2245 -2.8437 0.9737
2.0447 5.6832 -2.8470 0.9736
1.2734 4.8604 -2.3684 0.9780
1.0052 5.9589 -2.8485 0.9736
-0.0673 6.0427 -2.8486 0.9736
-1.1372 5.9329 -2.8476 0.9736
-1.7036 5.9578 -2.9209 0.9730
-2.2877 5.9399 -3.0004 0.9722
-3.7772 5.1265 -3.0016 0.9722
-4.2190 4.7705 -3.0020 0.9722
-4.9990 3.9478 -3.0026 0.9722
-5.6207 2.9993 -3.0031 0.9722
-6.0642 1.9555 -3.0035 0.9722
-6.3153 0.8493 -3.0037 0.9722
-6.3659 -0.2838 -3.0037 0.9722
-6.3153 -0.8493 -3.0037 0.9722
-6.0169 -1.9402 -2.9800 0.9724
-5.2912 -3.4614 -2.9804 0.9724
-4.5947 -4.3456 -2.9811 0.9724
-4.1903 -4.7381 -2.9815 0.9724
-1.8504 -3.0462 -1.6801 0.9844
-1.6686 -3.3956 -1.7834 0.9834
-1.7408 -6.0880 -2.9847 0.9724
-0.6341 -6.3036 -2.9864 0.9724
-0.0706 -6.3369 -2.9873 0.9724
1.0547 -6.2528 -2.9891 0.9723
1.6076 -6.1360 -2.9900 0.9723
2.6717 -5.7574 -2.9919 0.9723
4.5175 -4.4675 -2.9949 0.9723
4.8967 -4.0473 -2.9946 0.9723
5.2371 -3.5950 -2.9943 0.9723
5.7906 -2.6091 -2.9938 0.9723
6.1609 -1.5409 -2.9935 0.9723
6.2734 -0.9864 -2.9935 0.9723
6.3362 -0.4242 -2.9934 0.9723
6.3488 0.1415 -2.9934 0.9723
6.2233 1.2649 -2.9935 0.9723
6.0863 1.8139 -2.9936 0.9723
5.6689 2.8646 -2.9940 0.9723
5.0720 3.8249 -2.9944 0.9723
4.7119 4.2616 -2.9947 0.9723
4.3143 4.6646 -2.9951 0.9723
2.7809 5.3541 -2.8439 0.9737
2.2936 5.5811 -2.8443 0.9737
1.7898 5.7697 -2.8476 0.9736
1.2695 5.9077 -2.8483 0.9736
0.2020 6.0399 -2.8487 0.9736
-0.3364 6.0333 -2.8484 0.9736
-2.5502 5.8325 -3.0006 0.9722
-4.0021 4.9535 -3.0018 0.9722
-4.4276 4.5781 -3.0022 0.9722
-5.1702 3.7213 -3.0028 0.9722
-5.7490 2.7461 -3.0032 0.9722
-5.9709 2.2236 -3.0034 0.9722
-6.1454 1.6834 -3.0035 0.9722
-6.2711 1.1298 -3.0036 0.9722
-6.0822 -0.5435 -3.0035 0.9731
-6.0096 -1.0827 -3.0034 0.9731
-5.8487 -1.6021 -2.9827 0.9733
-5.6787 -2.1147 -2.9805 0.9733
-5.2142 -3.0884 -2.9807 0.9733
-4.9190 -3.5405 -2.9810 0.9733
-4.5849 -3.9647 -2.9813 0.9733
-4.2143 -4.3576 -2.9817 0.9733
-2.2052 -3.2904 -1.9482 0.9825
-2.9149 -5.3190 -2.9833 0.9733
-2.4304 -5.5585 -2.9839 0.9733
-1.9265 -5.7542 -2.9846 0.9733
-1.4070 -5.9042 -2.9854 0.9733
-0.8762 -6.0077 -2.9861 0.9733
-0.3381 -6.0635 -2.9870 0.9733
0.7428 -6.0308 -2.9887 0.9733
1.2770 -5.9425 -2.9896 0.9733
4.8610 -3.6659 -2.9946 0.9732
5.1676 -3.2184 -2.9943 0.9732
5.6556 -2.2509 -2.9939 0.9732
5.9646 -1.2124 -2.9937 0.9732
6.0487 -0.6767 -2.9936 0.9732
6.0728 0.4065 -2.9936 0.9732
5.9048 1.4769 -2.9938 0.9732
5.7502 1.9967 -2.9939 0.9732
5.5499 2.5007 -2.9940 0.9732
5.3057 2.9849 -2.9942 0.9732
5.0193 3.4456 -2.9945 0.9732
4.3297 4.2817 -2.9950 0.9732
3.9318 4.6506 -2.9954 0.9732
3.3708 4.7950 -2.8829 0.9742
2.4341 5.2454 -2.8442 0.9746
0.9631 5.7095 -2.8479 0.9745
0.4511 5.7729 -2.8481 0.9745
-1.0897 5.6850 -2.8471 0.9745
-2.1924 5.6925 -3.0003 0.9732
-3.1678 5.2149 -3.0011 0.9732
-4.7907 3.7832 -3.0024 0.9732
-5.3864 2.8743 -3.0029 0.9732
-5.9553 1.3493 -3.0034 0.9731
-6.0519 0.8139 -3.0035 0.9731
-6.1004 0.2720 -3.0035 0.9731
-6.1004 -0.2720 -3.0035 0.9731
-6.0519 -0.8139 -3.0035 0.9731
-5.9287 -1.3433 -2.9900 0.9733
-5.7672 -1.8597 -2.9805 0.9733
-5.3464 -2.8529 -2.9806 0.9733
-4.0163 -4.5413 -2.9819 0.9733
-3.5968 -4.8816 -2.9824 0.9733
-2.6753 -5.4441 -2.9836 0.9733
-1.1428 -5.9619 -2.9857 0.9733
-0.6078 -6.0415 -2.9866 0.9733
0.4733 -6.0570 -2.9882 0.9733
3.0422 -5.2693 -2.9927 0.9732
3.5002 -4.9790 -2.9935 0.9732
3.9305 -4.6491 -2.9944 0.9732
5.5499 -2.5007 -2.9940 0.9732
5.7501 -1.9967 -2.9939 0.9732
6.0126 -0.9454 -2.9937 0.9732
6.0849 0.1356 -2.9936 0.9732
5.8332 1.7385 -2.9938 0.9732
5.6556 2.2509 -2.9940 0.9732
5.4332 2.7455 -2.9941 0.9732
4.1349 4.4706 -2.9952 0.9732
3.1109 4.8731 -2.8436 0.9746
2.6652 5.1314 -2.8440 0.9746
2.1994 5.3519 -2.8460 0.9745
1.7149 5.5284 -2.8470 0.9745
-0.3223 5.7810 -2.8478 0.9745
-1.3486 5.6589 -2.8613 0.9744
-1.9365 5.7841 -3.0001 0.9732
-2.9321 5.3505 -3.0009 0.9732
-3.3972 5.0689 -3.0013 0.9732
-3.8353 4.7470 -3.0017 0.9732
-4.2432 4.3873 -3.0020 0.9732
-4.9547 3.5662 -3.0026 0.9732
-5.2528 3.1113 -3.0028 0.9732
-5.7220 2.1309 -3.0032 0.9731
-5.8892 1.6132 -3.0033 0.9731
-6.0096 1.0827 -3.0034 0.9731
-5.2468 -2.5062 -2.9810 0.9742
-3.6561 -4.5252 -2.9825 0.9742
-3.2393 -4.8334 -2.9830 0.9742
-2.3319 -5.3333 -2.9842 0.9742
-1.8484 -5.5210 -2.9849 0.9742
-0.8407 -5.7640 -2.9863 0.9742
0.1948 -5.8249 -2.9879 0.9741
2.2179 -5.3968 -2.9913 0.9741
2.6902 -5.1795 -2.9922 0.9741
3.5679 -4.6230 -2.9938 0.9741
4.9580 -3.0879 -2.9945 0.9741
5.7228 -1.1632 -2.9939 0.9741
5.8382 -0.1301 -2.9938 0.9741
5.8267 0.3900 -2.9938 0.9741
5.5170 1.9157 -2.9941 0.9741
5.3249 2.3993 -2.9942 0.9741
5.0905 2.8639 -2.9944 0.9741
4.8158 3.3059 -2.9946 0.9741
4.5029 3.7217 -2.9949 0.9741
3.7724 4.4620 -2.9955 0.9741
3.3542 4.7713 -2.9900 0.9741
2.7736 4.8041 -2.8439 0.9754
0.4327 5.5374 -2.8475 0.9753
-0.0619 5.5538 -2.8474 0.9753
-0.5559 5.5256 -2.8471 0.9753
-1.0454 5.4540 -2.8470 0.9753
-1.6087 5.6260 -2.9999 0.9740
-2.1033 5.4612 -3.0003 0.9740
-3.0390 5.0030 -3.0010 0.9740
-3.4727 4.7132 -3.0014 0.9740
-4.2543 4.0237 -3.0020 0.9740
-4.5959 3.6294 -3.0023 0.9740
-4.9011 3.2062 -3.0025 0.9740
-5.1674 2.7574 -3.0027 0.9740
-5.7131 1.2944 -3.0032 0.9740
-5.8058 0.7808 -3.0033 0.9740
-5.8523 -0.2609 -3.0033 0.9740
-5.8058 -0.7808 -3.0033 0.9740
-5.6985 -1.2911 -2.9955 0.9741
-5.5338 -1.7844 -2.9809 0.9742
-5.3531 -2.2699 -2.9809 0.9742
-5.1301 -2.7375 -2.9810 0.9742
-4.8664 -3.1834 -2.9812 0.9742
-4.5641 -3.6042 -2.9815 0.9742
-4.2257 -3.9966 -2.9819 0.9742
-2.5669 -5.2236 -2.9839 0.9742
-2.0923 -5.4325 -2.9845 0.9742
-0.5831 -5.7965 -2.9867 0.9742
1.4781 -5.6419 -2.9900 0.9741
2.4564 -5.2934 -2.9917 0.9741
3.7708 -4.4600 -2.9942 0.9741
4.1538 -4.1078 -2.9950 0.9741
4.5028 -3.7217 -2.9949 0.9741
5.3249 -2.3993 -2.9942 0.9741
5.8266 -0.3901 -2.9938 0.9741
5.8382 0.1301 -2.9938 0.9741
4.9581 3.0879 -2.9945 0.9741
3.9672 4.2893 -2.9953 0.9741
3.0162 4.7248 -2.8738 0.9751
2.5570 4.9231 -2.8441 0.9754
2.1098 5.1338 -2.8455 0.9754
1.6450 5.3029 -2.8464 0.9754
1.1667 5.4295 -2.8471 0.9753
0.6789 5.5125 -2.8474 0.9753
0.1856 5.5512 -2.8475 0.9753
-0.3092 5.5453 -2.8473 0.9753
-1.3410 5.6270 -2.9656 0.9743
-2.3447 5.3624 -3.0005 0.9740
-2.8130 5.1331 -3.0008 0.9740
-4.0706 4.2090 -3.0019 0.9740
-4.7532 3.4212 -3.0024 0.9740
-5.0393 2.9848 -3.0026 0.9740
-5.6497 1.5476 -3.0031 0.9740
-5.8349 0.5214 -3.0033 0.9740
-5.6254 -0.0000 -3.0031 0.9748
-5.5362 -0.9974 -3.0030 0.9748
-5.3936 -1.4775 -2.9855 0.9750
-5.2334 -1.9489 -2.9813 0.9750
-4.8053 -2.8462 -2.9815 0.9750
-4.5333 -3.2628 -2.9817 0.9750
-4.2253 -3.6537 -2.9820 0.9750
-3.1112 -4.6422 -2.9833 0.9750
-2.6861 -4.9016 -2.9838 0.9750
-1.7752 -5.3024 -2.9851 0.9750
-1.2965 -5.4406 -2.9858 0.9750
-0.8073 -5.5358 -2.9865 0.9750
-0.3115 -5.5871 -2.9872 0.9749
0.1871 -5.5941 -2.9880 0.9749
0.6844 -5.5567 -2.9888 0.9749
1.1766 -5.4752 -2.9896 0.9749
2.1299 -5.1827 -2.9913 0.9749
2.5834 -4.9739 -2.9921 0.9749
4.1611 -3.7635 -2.9952 0.9749
4.4792 -3.3779 -2.9949 0.9749
5.2114 -2.0741 -2.9943 0.9749
5.3751 -1.6019 -2.9942 0.9749
5.4962 -1.1171 -2.9941 0.9749
5.5959 0.3746 -2.9940 0.9749
5.2985 1.8399 -2.9943 0.9749
5.1140 2.3042 -2.9944 0.9749
4.3245 3.5742 -2.9950 0.9749
3.2275 4.5911 -2.9959 0.9749
2.6899 4.6590 -2.8720 0.9759
2.2429 4.8334 -2.8446 0.9761
1.2734 4.8604 -2.6823 0.9775
0.8870 5.2583 -2.8467 0.9761
0.4155 5.3167 -2.8469 0.9761
-0.5337 5.3055 -2.8466 0.9761
-1.5449 5.4027 -2.9998 0.9748
-2.0199 5.2445 -3.0002 0.9748
-4.0853 3.8639 -3.0019 0.9748
-4.4134 3.4852 -3.0021 0.9748
-4.7065 3.0788 -3.0024 0.9748
-5.1785 2.1959 -3.0028 0.9748
-5.6199 0.2506 -3.0031 0.9748
-5.6198 -0.2506 -3.0031 0.9748
-5.4809 -1.2418 -3.0001 0.9748
-4.9272 -2.6292 -2.9814 0.9750
-4.3836 -3.4617 -2.9819 0.9750
-4.0586 -3.8385 -2.9822 0.9750
-2.9016 -4.7766 -2.9836 0.9750
-0.5600 -5.5669 -2.9869 0.9749
-0.0623 -5.5961 -2.9876 0.9749
0.9314 -5.5214 -2.9892 0.9749
1.4195 -5.4181 -2.9900 0.9749
3.2246 -4.5871 -2.9933 0.9749
3.6210 -4.2829 -2.9941 0.9749
3.9888 -3.9446 -2.9948 0.9749
4.3244 -3.5742 -2.9950 0.9749
4.6250 -3.1749 -2.9948 0.9749
4.8889 -2.7504 -2.9946 0.9749
5.1140 -2.3043 -2.9944 0.9749
5.2985 -1.8399 -2.9942 0.9749
5.4410 -1.3609 -2.9941 0.9749
5.5404 -0.8712 -2.9940 0.9749
5.5959 -0.3746 -2.9940 0.9749
5.6070 0.1249 -2.9940 0.9749
5.5737 0.6235 -2.9940 0.9749
5.4962 1.1172 -2.9941 0.9749
5.2114 2.0741 -2.9943 0.9749
4.7617 2.9656 -2.9947 0.9749
3.8100 4.1193 -2.9955 0.9749
3.4286 4.4425 -2.9958 0.9749
2.4557 4.7280 -2.8442 0.9761
2.0258 4.9294 -2.8451 0.9761
1.5795 5.0917 -2.8459 0.9761
1.1203 5.2132 -2.8465 0.9761
-1.3026 5.4658 -2.9996 0.9748
-1.7841 5.3289 -3.0000 0.9748
-2.2516 5.1496 -3.0004 0.9748
-2.7013 4.9294 -3.0008 0.9748
-3.1297 4.6699 -3.0011 0.9748
-4.2536 3.6782 -3.0020 0.9748
-5.0754 2.4243 -3.0027 0.9748
-5.2713 1.9630 -3.0028 0.9748
-5.4253 1.4862 -3.0030 0.9748
-5.3210 -0.9586 -3.0029 0.9756
-5.1880 -1.4212 -2.9876 0.9757
-3.7335 -3.8604 -2.9827 0.9757
-3.3755 -4.1779 -2.9831 0.9757
-2.9907 -4.4625 -2.9836 0.9757
-2.5821 -4.7118 -2.9841 0.9757
-1.2463 -5.2298 -2.9859 0.9757
-0.7761 -5.3212 -2.9866 0.9757
0.1798 -5.3772 -2.9881 0.9757
1.1309 -5.2628 -2.9897 0.9757
2.8995 -4.5420 -2.9928 0.9756
3.2931 -4.2670 -2.9936 0.9756
4.3055 -3.2470 -2.9950 0.9756
5.0095 -1.9937 -2.9945 0.9756
5.2832 -1.0739 -2.9943 0.9756
5.3897 -0.1201 -2.9942 0.9756
5.3257 0.8374 -2.9942 0.9756
5.2302 1.3082 -2.9943 0.9756
5.0932 1.7685 -2.9944 0.9756
4.6994 2.6439 -2.9947 0.9756
4.4458 3.0519 -2.9949 0.9756
4.1568 3.4357 -2.9952 0.9756
3.8349 3.7923 -2.9954 0.9756
3.1023 4.4131 -2.9960 0.9756
2.1558 4.6456 -2.8444 0.9768
1.2734 4.8604 -2.7906 0.9773
0.8524 5.0533 -2.8462 0.9768
-1.0167 5.3039 -2.9994 0.9756
-1.9414 5.0409 -3.0001 0.9756
-3.2052 4.3504 -3.0012 0.9756
-3.5802 4.0482 -3.0015 0.9756
-3.9266 3.7138 -3.0017 0.9756
-4.2420 3.3499 -3.0020 0.9756
-4.5236 2.9592 -3.0022 0.9756
-5.2730 1.1947 -3.0028 0.9756
-4.9425 -2.0958 -2.9816 0.9757
-4.7365 -2.5275 -2.9818 0.9757
-4.2140 -3.3277 -2.9822 0.9757
-3.9015 -3.6900 -2.9825 0.9757
-2.7892 -4.5916 -2.9838 0.9757
-2.3699 -4.8226 -2.9844 0.9757
-1.0122 -5.2807 -2.9863 0.9757
-0.5383 -5.3511 -2.9870 0.9757
0.4192 -5.3645 -2.9885 0.9757
1.3644 -5.2079 -2.9901 0.9757
2.6940 -4.6661 -2.9924 0.9756
4.4458 -3.0518 -2.9949 0.9756
5.0932 -1.7686 -2.9944 0.9756
4.8124 2.4318 -2.9946 0.9756
4.3056 3.2470 -2.9951 0.9756
3.9998 3.6176 -2.9953 0.9756
3.6623 3.9596 -2.9956 0.9756
3.2957 4.2703 -2.9959 0.9756
2.9028 4.5472 -2.9962 0.9756
1.9469 4.7374 -2.8446 0.9768
1.5179 4.8933 -2.8454 0.9768
1.0766 5.0100 -2.8460 0.9768
0.1713 5.1222 -2.8464 0.9768
-0.7627 5.2296 -2.9352 0.9761
-1.7148 5.1220 -3.0000 0.9756
-2.1642 4.9497 -3.0003 0.9756
-3.3961 4.2034 -3.0013 0.9756
-4.0883 3.5354 -3.0019 0.9756
-4.3871 3.1577 -3.0021 0.9756
-4.6511 2.7549 -3.0023 0.9756
-4.8781 2.3301 -3.0025 0.9756
-5.1803 -0.4629 -3.0027 0.9763
-4.9973 -1.3689 -2.9915 0.9764
-4.4442 -2.6323 -2.9822 0.9764
-3.5918 -3.7139 -2.9830 0.9764
-2.8773 -4.2932 -2.9838 0.9764
-1.6417 -4.9035 -2.9855 0.9764
-1.1990 -5.0312 -2.9861 0.9764
-0.2881 -5.1664 -2.9875 0.9764
0.1729 -5.1728 -2.9882 0.9764
1.0879 -5.0627 -2.9897 0.9764
1.5346 -4.9471 -2.9905 0.9764
3.1677 -4.1046 -2.9934 0.9763
3.5213 -3.8072 -2.9941 0.9763
3.8471 -3.4795 -2.9948 0.9763
4.1420 -3.1236 -2.9952 0.9763
4.4033 -2.7424 -2.9950 0.9763
5.1542 -0.5766 -2.9944 0.9763
5.1748 0.3464 -2.9943 0.9763
5.1235 0.8056 -2.9944 0.9763
5.0316 1.2585 -2.9945 0.9763
4.8998 1.7014 -2.9946 0.9763
4.7292 2.1308 -2.9947 0.9763
4.5209 2.5434 -2.9949 0.9763
3.6892 3.6483 -2.9956 0.9763
1.6681 4.6364 -2.8448 0.9775
1.2490 4.7673 -2.8453 0.9775
0.8198 4.8603 -2.8457 0.9775
0.3840 4.9143 -2.8459 0.9775
-0.0549 4.9295 -2.8462 0.9775
-1.8676 4.8491 -3.0001 0.9763
