ply
format ascii 1.0
element vertex 1584
property float32 x
property float32 y
property float32 z
property float32 I
end_header
-1.3911 -3.6120 0.6163 0.9844
1.0481 4.8773 0.7944 0.9800
-2.4573 -2.5409 0.5028 0.9858
-2.1313 -2.6379 0.4824 0.9864
-1.3139 -3.9244 0.5886 0.9834
1.2777 4.8770 0.7172 0.9798
-2.2870 -2.5860 0.4910 0.9861
-1.9959 -2.7089 0.4786 0.9865
-1.7531 -2.8859 0.4803 0.9864
-1.5397 -3.1332 0.4966 0.9860
1.0481 4.8773 0.7096 0.9800
-2.4298 -2.5124 0.4380 0.9860
-1.4272 -3.2641 0.4464 0.9857
-3.4298 -2.7085 0.5477 0.9825
-1.7360 -2.8579 0.4190 0.9866
-1.5233 -3.0998 0.4328 0.9862
1.0480 4.8772 0.6251 0.9801
-2.8590 -2.4723 0.4100 0.9849
-2.0900 -2.5869 0.3607 0.9867
1.2778 4.8775 0.5470 0.9799
-2.6060 -2.4647 0.3891 0.9857
-2.2390 -2.5317 0.3666 0.9865
-1.9575 -2.6568 0.3580 0.9868
-2.8110 -2.4308 0.3407 0.9852
-2.3784 -2.4592 0.3136 0.9864
-2.0701 -2.5622 0.3020 0.9869
-1.5925 -2.9061 0.3038 0.9868
-1.2221 -3.6503 0.3529 0.9847
1.2779 4.8777 0.4623 0.9799
-1.7031 -2.8037 0.3007 0.9869
-1.4917 -3.0354 0.3101 0.9865
-1.2998 -3.3747 0.3315 0.9856
-2.7653 -2.3912 0.2740 0.9854
-2.0551 -2.5437 0.2451 0.9870
-1.8030 -2.6903 0.2427 0.9871
-1.2019 -3.5899 0.2837 0.9849
1.2779 4.8779 0.3778 0.9800
-2.5443 -2.4064 0.2624 0.9861
-1.2843 -3.3346 0.2678 0.9858
-2.7413 -2.3705 0.2111 0.9856
-2.3439 -2.4236 0.1964 0.9866
-2.0444 -2.5304 0.1895 0.9871
-1.7937 -2.6765 0.1877 0.9872
-1.5713 -2.8673 0.1904 0.9870
-1.3688 -3.1306 0.1990 0.9864
1.2780 4.8781 0.2937 0.9800
-3.0425 -2.4026 0.2258 0.9846
-2.1855 -2.4711 0.1921 0.9869
-1.6822 -2.7693 0.1887 0.9871
-1.4707 -2.9928 0.1942 0.9867
-1.2756 -3.3119 0.2067 0.9859
1.0480 4.8768 0.2905 0.9802
-2.3305 -2.4098 0.1394 0.9867
-2.0339 -2.5174 0.1346 0.9871
-1.1792 -3.5221 0.1544 0.9852
-2.5100 -2.3740 0.1436 0.9863
-1.9056 -2.5863 0.1336 0.9872
-1.6736 -2.7551 0.1340 0.9872
-1.4625 -2.9761 0.1379 0.9868
1.0479 4.8767 0.2074 0.9802
-2.7032 -2.3375 0.0891 0.9858
-2.3173 -2.3961 0.0831 0.9868
-1.5542 -2.8361 0.0807 0.9871
-1.1688 -3.4911 0.0918 0.9854
1.2781 4.8786 0.1258 0.9800
-2.9855 -2.3576 0.0949 0.9849
-1.8959 -2.5731 0.0797 0.9873
-1.6650 -2.7410 0.0800 0.9872
-1.2585 -3.2675 0.0873 0.9861
-1.0982 -3.8405 0.0996 0.9841
1.0479 4.8767 0.1244 0.9802
-2.6845 -2.3214 0.0295 0.9859
-2.3043 -2.3826 0.0275 0.9868
-1.5458 -2.8207 0.0267 0.9872
-1.1587 -3.4607 0.0303 0.9855
-2.9578 -2.3358 0.0313 0.9850
-2.4767 -2.3425 0.0283 0.9865
-2.1493 -2.4302 0.0270 0.9871
-1.8863 -2.5601 0.0264 0.9874
-1.6566 -2.7272 0.0265 0.9873
-1.4464 -2.9433 0.0273 0.9870
-1.2501 -3.2458 0.0289 0.9862
1.0479 4.8765 0.0415 0.9802
-2.6661 -2.3054 -0.0293 0.9860
-1.3352 -3.0538 -0.0277 0.9868
1.2782 4.8790 -0.0419 0.9800
-2.1375 -2.4169 -0.0268 0.9872
-1.4384 -2.9271 -0.0271 0.9870
-1.2418 -3.2244 -0.0287 0.9863
-1.0682 -3.7358 -0.0323 0.9846
-2.2831 -2.3607 -0.0819 0.9869
-1.3304 -3.0426 -0.0828 0.9868
1.2783 4.8792 -0.1257 0.9800
-2.1297 -2.4082 -0.0802 0.9872
-1.8704 -2.5385 -0.0786 0.9875
-1.6426 -2.7041 -0.0789 0.9874
-1.4332 -2.9165 -0.0810 0.9871
-1.0601 -3.7075 -0.0962 0.9847
1.0479 4.8764 -0.1244 0.9802
-2.6493 -2.2909 -0.1456 0.9861
-2.2790 -2.3564 -0.1363 0.9870
-1.9928 -2.4665 -0.1318 0.9874
-1.5295 -2.7911 -0.1323 0.9873
-2.9069 -2.2956 -0.1540 0.9853
-2.1260 -2.4039 -0.1334 0.9872
-1.6400 -2.6997 -0.1313 0.9874
-1.4307 -2.9113 -0.1349 0.9871
-1.2341 -3.2042 -0.1428 0.9863
1.0478 4.8763 -0.2074 0.9802
-2.6434 -2.2858 -0.2035 0.9861
-2.2749 -2.3522 -0.1906 0.9870
-1.9895 -2.4625 -0.1844 0.9874
-1.7461 -2.6054 -0.1827 0.9875
-1.5270 -2.7865 -0.1851 0.9873
-2.4398 -2.3076 -0.1956 0.9866
-1.6373 -2.6953 -0.1837 0.9874
-1.2314 -3.1974 -0.1996 0.9864
1.0478 4.8762 -0.2905 0.9802
-2.2707 -2.3480 -0.2448 0.9870
-1.9863 -2.4584 -0.2369 0.9874
1.2784 4.8798 -0.3780 0.9800
-2.8897 -2.2820 -0.2759 0.9853
-2.4346 -2.3027 -0.2511 0.9866
-1.6346 -2.6910 -0.2360 0.9874
-1.2289 -3.1906 -0.2562 0.9864
-1.0478 -3.6645 -0.2856 0.9848
-3.2531 -2.3414 -0.3675 0.9840
-2.6317 -2.2757 -0.3190 0.9861
-1.7405 -2.5970 -0.2866 0.9875
1.2785 4.8800 -0.4624 0.9799
-2.4295 -2.2978 -0.3066 0.9867
-2.1147 -2.3911 -0.2926 0.9873
-1.8583 -2.5221 -0.2872 0.9875
-1.6320 -2.6866 -0.2882 0.9875
-1.4231 -2.8959 -0.2958 0.9871
-3.2568 -2.3441 -0.4352 0.9840
-2.6259 -2.2707 -0.3765 0.9861
-2.2625 -2.3394 -0.3530 0.9870
-1.9798 -2.4504 -0.3417 0.9874
-1.7377 -2.5927 -0.3385 0.9875
-1.5195 -2.7728 -0.3430 0.9874
-1.3184 -3.0153 -0.3570 0.9868
-2.1110 -2.3869 -0.3456 0.9873
-1.8552 -2.5179 -0.3392 0.9875
-1.6293 -2.6822 -0.3404 0.9875
1.0478 4.8759 -0.5409 0.9801
-1.5171 -2.7682 -0.3956 0.9874
-1.1291 -3.3724 -0.4457 0.9858
1.2786 4.8805 -0.6321 0.9799
-2.8824 -2.2762 -0.4603 0.9853
-2.4234 -2.2921 -0.4180 0.9866
-2.1077 -2.3833 -0.3987 0.9873
-1.8522 -2.5138 -0.3913 0.9875
-1.4187 -2.8871 -0.4031 0.9871
1.0478 4.8758 -0.6250 0.9801
-2.6344 -2.2780 -0.4954 0.9860
-1.9798 -2.4504 -0.4481 0.9874
-1.7372 -2.5921 -0.4438 0.9875
-1.3200 -3.0188 -0.4686 0.9868
1.2787 4.8807 -0.7176 0.9798
-2.1116 -2.3877 -0.4534 0.9872
-1.0499 -3.6716 -0.5432 0.9847
-3.3088 -2.3815 -0.6492 0.9836
-1.9832 -2.4547 -0.5025 0.9873
-1.7402 -2.5966 -0.4977 0.9874
-1.3225 -3.0247 -0.5257 0.9867
-1.1359 -3.3927 -0.5697 0.9856
-2.9006 -2.2906 -0.5885 0.9851
-1.8581 -2.5218 -0.4988 0.9874
-1.4241 -2.8980 -0.5142 0.9870
-1.0543 -3.6871 -0.6107 0.9846
1.0477 4.8757 -0.7941 0.9800
-3.3266 -2.3944 -0.7227 0.9835
-1.5250 -2.7827 -0.5595 0.9872
1.2788 4.8811 -0.8897 0.9797
-2.9099 -2.2979 -0.6538 0.9851
-2.4399 -2.3076 -0.5922 0.9865
-2.1196 -2.3967 -0.5642 0.9871
-1.8613 -2.5262 -0.5533 0.9873
-1.6348 -2.6913 -0.5552 0.9873
-1.4268 -2.9035 -0.5704 0.9869
-1.2323 -3.1995 -0.6046 0.9862
-1.0595 -3.7052 -0.6795 0.9845
-3.3833 -2.4352 -0.8067 0.9832
-2.2778 -2.3552 -0.6341 0.9867
-1.9902 -2.4633 -0.6128 0.9872
-1.1428 -3.4135 -0.6966 0.9854
1.2788 4.8813 -0.9765 0.9797
-2.9192 -2.3053 -0.7198 0.9850
-1.8646 -2.5307 -0.6083 0.9873
-1.4296 -2.9091 -0.6273 0.9869
-3.4123 14.3188 -2.8485 0.9418
-13.7193 -2.4717 -2.9389 0.9446
-13.4448 -3.6829 -2.9389 0.9446
-12.5847 -6.0112 -2.9402 0.9446
-12.0056 -7.1109 -2.9417 0.9446
-3.6005 -2.5915 -0.9352 0.9820
-2.2822 -2.3598 -0.6921 0.9867
-1.7494 -2.6102 -0.6624 0.9872
-1.5304 -2.7926 -0.6714 0.9871
-3.2674 -13.7106 -2.9714 0.9440
0.4726 -14.1372 -2.9821 0.9438
2.9808 -13.8715 -2.9911 0.9437
4.2100 -13.5717 -2.9957 0.9436
5.4094 -13.1629 -3.0002 0.9435
6.5640 -12.6379 -3.0023 0.9434
7.6669 -12.0101 -3.0039 0.9434
9.6850 -10.4713 -3.0070 0.9434
10.5837 -9.5724 -3.0085 0.9433
11.3990 -8.5964 -3.0099 0.9433
12.1241 -7.5510 -3.0112 0.9433
13.7033 -4.0840 -3.0145 0.9432
14.0164 -2.8490 -3.0154 0.9432
14.2178 -1.5905 -3.0161 0.9432
14.3057 -0.3188 -3.0167 0.9432
13.8858 3.4730 -3.0176 0.9432
13.5215 4.6952 -3.0176 0.9432
9.6589 9.5519 -2.8638 0.9460
8.7687 10.3716 -2.8633 0.9460
7.8090 11.1084 -2.8626 0.9460
6.7875 11.7563 -2.8619 0.9460
4.5928 12.7658 -2.8602 0.9460
1.2789 4.8816 -1.0638 0.9796
2.2550 13.3686 -2.8582 0.9461
-1.3555 13.4737 -2.8549 0.9461
-2.5459 13.2819 -2.8511 0.9462
-5.1097 13.2670 -2.9972 0.9435
-6.2668 12.7525 -2.9956 0.9436
-8.4195 11.4271 -2.9923 0.9436
-9.3983 10.6269 -2.9908 0.9437
-10.3018 9.7433 -2.9893 0.9437
-11.8553 7.7554 -2.9866 0.9437
-13.0324 5.5262 -2.9843 0.9438
-14.0171 1.8851 -2.9817 0.9438
-14.1263 0.6299 -2.9811 0.9438
-14.1022 -0.6288 -2.9760 0.9439
-13.5953 -3.0803 -2.9388 0.9446
-13.2681 -4.2784 -2.9390 0.9446
-12.8375 -5.4436 -2.9397 0.9446
-12.3073 -6.5674 -2.9409 0.9446
-2.9458 -2.3263 -0.7913 0.9848
-2.4511 -2.3183 -0.7113 0.9863
-2.1277 -2.4058 -0.6771 0.9870
-1.8679 -2.5351 -0.6639 0.9872
-1.6406 -2.7008 -0.6662 0.9872
-1.0856 -3.7967 -0.8325 0.9840
-1.4130 -14.0458 -2.9761 0.9439
1.1028 -14.1128 -2.9843 0.9438
2.3581 -13.9798 -2.9889 0.9437
4.8140 -13.3808 -2.9979 0.9435
5.9928 -12.9142 -3.0014 0.9435
9.2066 -10.8896 -3.0063 0.9434
10.1443 -10.0319 -3.0078 0.9433
11.0022 -9.0936 -3.0092 0.9433
11.7732 -8.0819 -3.0106 0.9433
12.4510 -7.0049 -3.0118 0.9433
13.0301 -5.8711 -3.0130 0.9433
13.5056 -4.6897 -3.0140 0.9432
14.1312 -2.2220 -3.0157 0.9432
14.2235 1.5911 -3.0173 0.9432
14.0264 2.8510 -3.0175 0.9432
13.7174 4.0882 -3.0176 0.9432
13.2987 5.2928 -3.0175 0.9432
11.5298 7.1808 -2.8636 0.9460
10.8430 8.1771 -2.8631 0.9460
10.0757 9.1129 -2.8641 0.9460
9.2230 9.9718 -2.8636 0.9460
5.1577 12.5505 -2.8606 0.9460
1.0477 4.8754 -1.0513 0.9798
1.6570 13.4533 -2.8577 0.9461
-3.1324 13.1442 -2.8487 0.9463
-7.9042 11.7939 -2.9931 0.9436
-9.8599 10.1951 -2.9901 0.9437
-10.7230 9.2726 -2.9886 0.9437
-12.1865 7.2181 -2.9860 0.9437
-12.7756 6.1024 -2.9848 0.9438
-13.2633 4.9394 -2.9838 0.9438
-13.6461 3.7380 -2.9828 0.9438
-13.0658 0.0000 -2.9822 0.9478
-12.8760 -1.1506 -2.9506 0.9483
-12.4350 -3.4063 -2.9428 0.9485
-12.0840 -4.5001 -2.9431 0.9485
-11.6385 -5.5592 -2.9439 0.9485
-11.1024 -6.5760 -2.9452 0.9484
-10.4790 -7.5423 -2.9469 0.9484
-2.2892 -2.3671 -0.7516 0.9866
-1.5332 -2.7977 -0.7281 0.9870
-1.3352 -3.0536 -0.7607 0.9864
-3.0170 -12.6600 -2.9705 0.9480
-1.8807 -12.8952 -2.9744 0.9479
0.4366 -13.0601 -2.9825 0.9478
2.7531 -12.8117 -2.9909 0.9477
4.9949 -12.1544 -2.9993 0.9475
8.0438 -10.4226 -3.0050 0.9474
9.7733 -8.8395 -3.0077 0.9474
10.5258 -7.9379 -3.0090 0.9473
11.1951 -6.9724 -3.0102 0.9473
11.7756 -5.9505 -3.0114 0.9473
12.2626 -4.8804 -3.0124 0.9473
13.1266 -1.4684 -3.0148 0.9472
13.1832 0.8825 -3.0157 0.9472
12.8196 3.2064 -3.0161 0.9472
12.4833 4.3347 -3.0161 0.9472
12.0474 5.4283 -3.0160 0.9472
10.3380 7.0966 -2.8620 0.9499
7.2108 10.2574 -2.8618 0.9499
6.2677 10.8559 -2.8611 0.9499
1.2790 4.8818 -1.1519 0.9795
-0.1394 12.5108 -2.8557 0.9500
-6.8109 11.2123 -2.9943 0.9476
-7.7780 10.5565 -2.9928 0.9476
-9.5176 9.0017 -2.9900 0.9477
-10.2766 8.1154 -2.9888 0.9477
-11.5436 6.1599 -2.9864 0.9477
-12.4448 4.0129 -2.9845 0.9478
-13.0538 0.5821 -2.9824 0.9478
-13.0519 -0.5820 -2.9820 0.9478
-12.2715 -3.9571 -2.9429 0.9485
-11.8729 -5.0345 -2.9435 0.9485
-11.3816 -6.0734 -2.9445 0.9484
-10.8014 -7.0659 -2.9460 0.9484
-2.1318 -2.4105 -0.7345 0.9869
-1.8712 -2.5396 -0.7200 0.9871
-1.6435 -2.7056 -0.7225 0.9871
-1.4357 -2.9216 -0.7430 0.9867
-1.2464 -3.2362 -0.7915 0.9859
-2.4517 -12.7902 -2.9724 0.9480
-0.1455 -13.0575 -2.9805 0.9478
1.0187 -13.0368 -2.9846 0.9478
4.4454 -12.3564 -2.9972 0.9475
5.5350 -11.9276 -3.0012 0.9475
7.5696 -10.7680 -3.0042 0.9474
8.5021 -10.0564 -3.0057 0.9474
10.8713 -7.4627 -3.0097 0.9473
11.4967 -6.4680 -3.0108 0.9473
12.0311 -5.4209 -3.0119 0.9473
12.4698 -4.3300 -3.0129 0.9473
12.8093 -3.2038 -3.0137 0.9473
13.0468 -2.0515 -3.0144 0.9473
13.2086 0.2944 -3.0155 0.9472
13.1315 1.4690 -3.0159 0.9472
12.6641 3.7743 -3.0161 0.9472
12.2776 4.8864 -3.0161 0.9472
11.7932 5.9593 -3.0159 0.9472
10.6447 6.6296 -2.8623 0.9498
10.0108 7.5495 -2.8618 0.9499
7.6614 9.9271 -2.8621 0.9499
6.7459 10.5672 -2.8615 0.9499
5.7771 11.1229 -2.8607 0.9499
4.7629 11.5897 -2.8599 0.9499
3.7113 11.9641 -2.8591 0.9499
1.5302 12.4244 -2.8572 0.9499
-4.1703 12.4560 -2.9981 0.9475
-5.2597 12.0292 -2.9966 0.9476
-6.3063 11.5075 -2.9950 0.9476
-8.2386 10.1970 -2.9921 0.9476
-9.1092 9.4189 -2.9907 0.9477
-10.6257 7.6479 -2.9881 0.9477
-11.2599 6.6692 -2.9870 0.9477
-11.8045 5.6386 -2.9859 0.9477
-12.6095 3.4541 -2.9840 0.9478
-13.0161 1.1631 -2.9827 0.9478
-12.1373 0.0000 -2.9833 0.9512
-11.9816 -1.0707 -2.9568 0.9517
-11.5602 -3.1667 -2.9462 0.9518
-11.2338 -4.1835 -2.9465 0.9518
-10.3201 -6.1126 -2.9483 0.9518
-9.7402 -7.0106 -2.9498 0.9518
-1.5417 -2.8132 -0.7885 0.9869
-1.3439 -3.0736 -0.8245 0.9863
-1.1737 -3.5058 -0.9087 0.9849
-1.7470 -11.9782 -2.9754 0.9514
0.4055 -12.1290 -2.9830 0.9512
2.5562 -11.8959 -2.9908 0.9511
5.6289 -10.8376 -3.0018 0.9509
6.5742 -10.2984 -3.0032 0.9509
7.4681 -9.6767 -3.0045 0.9509
8.3034 -8.9776 -3.0058 0.9509
9.0733 -8.2064 -3.0071 0.9509
10.3926 -6.4726 -3.0094 0.9508
10.9312 -5.5238 -3.0105 0.9508
12.1844 -1.3631 -3.0136 0.9508
12.1162 1.9052 -3.0147 0.9507
11.8990 2.9761 -3.0149 0.9507
11.5869 4.0234 -3.0149 0.9507
10.6886 6.0133 -3.0145 0.9507
8.2790 8.1872 -2.8620 0.9532
7.5165 8.8905 -2.8616 0.9532
1.2790 4.8820 -1.2405 0.9794
1.9335 11.4625 -2.8573 0.9532
-4.3828 11.3797 -2.9974 0.9510
-5.3758 10.9393 -2.9960 0.9510
-6.3251 10.4126 -2.9946 0.9511
-8.8397 8.3605 -2.9907 0.9511
-10.1740 6.6555 -2.9883 0.9512
-12.1261 0.5407 -2.9836 0.9512
-12.1245 -0.5406 -2.9832 0.9512
-11.4082 -3.6787 -2.9463 0.9518
-11.0374 -4.6803 -2.9468 0.9518
-10.5802 -5.6457 -2.9477 0.9518
-10.0401 -6.5679 -2.9490 0.9518
-3.0123 -2.3787 -0.9434 0.9843
-2.4837 -2.3490 -0.8403 0.9860
-2.1451 -2.4255 -0.7959 0.9868
-1.6514 -2.7186 -0.7818 0.9870
-1.4449 -2.9403 -0.8053 0.9866
-1.1255 -3.9360 -1.0062 0.9833
-2.2775 -11.8812 -2.9736 0.9514
-1.2124 -12.0517 -2.9773 0.9513
-0.1351 -12.1272 -2.9810 0.9513
2.0225 -11.9901 -2.9888 0.9511
4.1271 -11.4715 -2.9966 0.9510
6.1075 -10.5785 -3.0025 0.9509
7.8935 -9.3365 -3.0052 0.9509
8.6969 -8.6006 -3.0065 0.9509
9.4318 -7.7956 -3.0077 0.9508
10.0921 -6.9279 -3.0089 0.9508
10.6725 -6.0042 -3.0099 0.9508
11.8902 -2.9739 -3.0126 0.9508
11.7547 3.5033 -3.0149 0.9507
11.3960 4.5355 -3.0148 0.9507
8.6300 7.8053 -2.8601 0.9532
7.9059 8.5477 -2.8619 0.9532
7.1124 9.2157 -2.8614 0.9532
5.3633 10.3261 -2.8601 0.9532
1.0476 4.8752 -1.2257 0.9797
1.4207 11.5354 -2.8568 0.9533
0.3883 11.6123 -2.8559 0.9533
-1.6751 11.4854 -2.8530 0.9533
-2.6868 11.2744 -2.8489 0.9534
-3.8725 11.5665 -2.9981 0.9510
-5.8564 10.6865 -2.9953 0.9510
-7.6514 9.4702 -2.9926 0.9511
-8.4602 8.7478 -2.9913 0.9511
-9.2014 7.9568 -2.9901 0.9511
-10.4585 6.1946 -2.9878 0.9512
-10.9647 5.2374 -2.9868 0.9512
-11.3839 4.2394 -2.9859 0.9512
-11.7129 3.2085 -2.9851 0.9512
-11.9492 2.1528 -2.9844 0.9512
-12.0910 1.0805 -2.9838 0.9512
-11.2113 -1.0018 -2.9660 0.9545
-11.0149 -1.9844 -2.9491 0.9548
-10.7945 -2.9569 -2.9491 0.9548
-10.4897 -3.9064 -2.9495 0.9548
-10.1026 -4.8256 -2.9501 0.9547
-9.6361 -5.7075 -2.9511 0.9547
-2.7262 -2.3574 -0.9497 0.9852
-1.1865 -3.5438 -0.9847 0.9847
-1.6301 -11.1769 -2.9763 0.9544
-0.6296 -11.2909 -2.9798 0.9543
1.3856 -11.2507 -2.9870 0.9542
5.2504 -10.1089 -3.0015 0.9540
6.1320 -9.6056 -3.0029 0.9540
7.7444 -8.3732 -3.0054 0.9539
9.1133 -6.8726 -3.0076 0.9539
9.6921 -6.0363 -3.0087 0.9539
10.1942 -5.1514 -3.0097 0.9539
10.6154 -4.2248 -3.0105 0.9538
11.2018 -2.2769 -3.0120 0.9538
11.3621 -1.2711 -3.0126 0.9538
11.4320 -0.2547 -3.0131 0.9538
11.2982 1.7766 -3.0137 0.9538
11.0957 2.7752 -3.0138 0.9538
10.8046 3.7518 -3.0138 0.9538
9.9670 5.6074 -3.0134 0.9538
8.9482 6.1425 -2.8599 0.9561
8.3646 6.9135 -2.8595 0.9561
7.7146 7.6291 -2.8589 0.9561
7.0102 8.2916 -2.8610 0.9561
6.2430 8.8808 -2.8605 0.9561
0.8444 10.8060 -2.8561 0.9562
-2.9704 10.3883 -2.8470 0.9563
-4.0885 10.6156 -2.9975 0.9540
-5.0150 10.2051 -2.9962 0.9541
-5.9008 9.7140 -2.9949 0.9541
-6.7391 9.1464 -2.9936 0.9541
-8.2474 7.8003 -2.9912 0.9541
-9.4928 6.2099 -2.9890 0.9542
-11.0507 2.5038 -2.9857 0.9542
-11.2275 1.5100 -2.9851 0.9542
-11.3154 0.5046 -2.9846 0.9542
-11.1001 -1.4928 -2.9512 0.9547
-10.9154 -2.4731 -2.9491 0.9548
-10.6525 -3.4350 -2.9493 0.9548
-9.8791 -5.2716 -2.9506 0.9547
-3.0470 -2.4062 -1.0230 0.9841
-2.5033 -2.3676 -0.9079 0.9858
-2.1589 -2.4411 -0.8587 0.9866
-1.8909 -2.5664 -0.8400 0.9869
-1.4542 -2.9593 -0.8688 0.9865
-1.2034 -4.2086 -1.1534 0.9821
-2.1252 -11.0868 -2.9746 0.9544
0.8825 -11.2944 -2.9851 0.9542
2.8782 -10.9858 -2.9925 0.9541
3.8494 -10.6996 -2.9962 0.9541
4.7924 -10.3274 -3.0000 0.9540
5.6968 -9.8671 -3.0022 0.9540
7.3622 -8.7081 -3.0047 0.9539
8.1113 -8.0215 -3.0060 0.9539
9.4120 -6.4610 -3.0082 0.9539
9.9530 -5.5995 -3.0092 0.9539
10.4151 -4.6928 -3.0101 0.9538
11.0880 -2.7733 -3.0117 0.9538
11.2932 -1.7758 -3.0123 0.9538
11.4327 0.2548 -3.0133 0.9538
11.2081 2.2781 -3.0137 0.9538
10.6266 4.2293 -3.0137 0.9538
8.6650 6.5346 -2.8597 0.9561
8.0476 7.2786 -2.8592 0.9561
7.3728 7.9714 -2.8611 0.9561
6.6331 8.5948 -2.8607 0.9561
5.8407 9.1492 -2.8602 0.9561
4.1240 10.0352 -2.8589 0.9561
3.2137 10.3598 -2.8581 0.9561
1.0476 4.8751 -1.3139 0.9796
1.3252 10.7593 -2.8565 0.9561
0.3621 10.8312 -2.8556 0.9562
-0.6031 10.8170 -2.8547 0.9562
-4.5564 10.4207 -2.9969 0.9540
-5.4634 9.9694 -2.9955 0.9541
-6.3263 9.4395 -2.9942 0.9541
-7.8932 8.1615 -2.9918 0.9541
-8.5850 7.4237 -2.9906 0.9541
-10.2309 4.8869 -2.9876 0.9542
-11.1501 2.0088 -2.9854 0.9542
-10.5358 -0.9415 -2.9761 0.9570
-10.1185 -2.7717 -2.9518 0.9573
-9.8326 -3.6617 -2.9521 0.9573
-9.4696 -4.5233 -2.9527 0.9573
-9.0323 -5.3498 -2.9536 0.9573
-8.5237 -6.1350 -2.9548 0.9573
-2.7501 -2.3781 -1.0229 0.9850
-1.5614 -2.8493 -0.9141 0.9866
-2.4503 -10.2818 -2.9739 0.9570
-1.5271 -10.4703 -2.9770 0.9570
-0.5897 -10.5763 -2.9803 0.9569
1.2977 -10.5370 -2.9871 0.9568
2.2331 -10.3920 -2.9906 0.9568
4.0498 -9.8547 -2.9977 0.9567
4.9166 -9.4662 -3.0012 0.9566
5.7423 -8.9952 -3.0026 0.9566
7.2519 -7.8407 -3.0049 0.9566
7.9238 -7.1667 -3.0060 0.9566
8.5333 -6.4352 -3.0071 0.9566
10.2543 -3.0561 -3.0105 0.9565
10.4879 -2.1318 -3.0112 0.9565
10.6379 -1.1900 -3.0117 0.9565
10.3882 2.5983 -3.0128 0.9565
10.1157 3.5125 -3.0128 0.9565
8.3778 5.7510 -2.8591 0.9587
7.2230 7.1429 -2.8581 0.9587
-1.0154 10.0932 -2.8541 0.9587
-2.7821 9.7296 -2.8472 0.9588
-5.5267 9.0982 -2.9951 0.9567
-7.0468 7.9679 -2.9928 0.9568
-8.8921 5.8170 -2.9896 0.9568
-9.7769 4.1458 -2.9879 0.9568
-10.1046 3.2583 -2.9871 0.9568
-10.3522 2.3455 -2.9865 0.9569
-10.5179 1.4145 -2.9859 0.9569
-10.6005 0.4727 -2.9855 0.9569
-10.4116 -1.4002 -2.9558 0.9573
-8.7867 -5.7479 -2.9542 0.9573
-3.1339 -2.4748 -1.1235 0.9835
-2.1730 -2.4571 -0.9229 0.9865
-1.9022 -2.5817 -0.9023 0.9868
-1.6711 -2.7510 -0.9056 0.9867
-1.4638 -2.9787 -0.9338 0.9863
-1.9909 -10.3863 -2.9754 0.9570
-1.0597 -10.5337 -2.9787 0.9570
-0.1181 -10.5979 -2.9820 0.9569
0.8266 -10.5783 -2.9854 0.9569
6.1385 -8.7322 -3.0032 0.9566
6.8941 -8.1544 -3.0044 0.9566
7.5953 -7.5112 -3.0055 0.9566
8.2367 -6.8078 -3.0066 0.9566
9.3193 -5.2430 -3.0085 0.9565
9.7518 -4.3940 -3.0094 0.9565
10.3814 -2.5966 -3.0109 0.9565
10.6812 -0.7150 -3.0119 0.9565
10.7038 0.2385 -3.0123 0.9565
10.6411 1.1904 -3.0126 0.9565
10.2622 3.0584 -3.0128 0.9565
9.5566 4.8292 -3.0126 0.9565
9.0880 5.6600 -3.0123 0.9565
8.1127 6.1180 -2.8589 0.9587
7.5347 6.8147 -2.8584 0.9587
6.2112 8.0480 -2.8603 0.9586
3.8617 9.3969 -2.8584 0.9587
3.0093 9.7009 -2.8577 0.9587
0.3391 10.1430 -2.8554 0.9587
-0.5648 10.1299 -2.8545 0.9587
-1.4632 10.0326 -2.8526 0.9587
-3.2226 9.6250 -2.8560 0.9587
-4.2674 9.7597 -2.9970 0.9567
-8.6256 6.2083 -2.9901 0.9568
-9.5839 4.5778 -2.9883 0.9568
-10.2385 2.8046 -2.9868 0.9568
-10.4454 1.8818 -2.9862 0.9569
-9.9240 -0.8868 -2.9829 0.9593
-9.7111 -1.7495 -2.9541 0.9596
-9.5168 -2.6069 -2.9541 0.9596
-2.3508 -2.4307 -1.0124 0.9860
-2.0439 -2.5298 -0.9737 0.9865
-1.7919 -2.6738 -0.9636 0.9867
-1.3754 -3.1456 -1.0278 0.9858
-1.2269 -3.6645 -1.1569 0.9840
-2.3034 -9.6657 -2.9747 0.9594
-0.5543 -9.9412 -2.9808 0.9593
0.3330 -9.9617 -2.9840 0.9592
1.2197 -9.9034 -2.9873 0.9592
2.9629 -9.5515 -2.9940 0.9591
5.3961 -8.4530 -3.0024 0.9590
6.1294 -7.9421 -3.0035 0.9590
6.8144 -7.3677 -3.0046 0.9590
7.4457 -6.7343 -3.0056 0.9589
9.3387 -3.7167 -3.0091 0.9589
9.9948 -1.1181 -3.0109 0.9589
10.0561 -0.2241 -3.0113 0.9589
10.0372 0.6719 -3.0117 0.9589
9.9382 1.5627 -3.0119 0.9589
9.5040 3.3001 -3.0120 0.9589
8.7674 4.9324 -3.0116 0.9589
4.7748 8.2701 -2.8589 0.9609
3.2314 8.9818 -2.8577 0.9609
1.5869 9.4078 -2.8563 0.9609
-0.1062 9.5350 -2.8548 0.9610
-1.7926 9.3519 -2.8507 0.9610
-2.6148 9.1444 -2.8474 0.9611
-3.5987 9.3438 -2.9977 0.9591
-6.6233 7.4891 -2.9931 0.9591
-7.8409 6.1919 -2.9911 0.9591
-8.3583 5.4678 -2.9902 0.9592
-8.8093 4.7008 -2.9893 0.9592
-9.1903 3.8970 -2.9885 0.9592
-9.4985 3.0629 -2.9878 0.9592
-9.7314 2.2049 -2.9872 0.9592
-9.8873 1.3297 -2.9867 0.9592
-9.0861 -3.8528 -2.9546 0.9596
-8.2638 -5.4059 -2.9564 0.9596
-3.2774 -2.5882 -1.2503 0.9827
-2.1875 -2.4734 -0.9885 0.9863
-1.9138 -2.5974 -0.9659 0.9866
-1.6812 -2.7677 -0.9695 0.9866
-1.2878 -3.3438 -1.0727 0.9851
-2.7304 -9.5488 -2.9733 0.9594
-1.8715 -9.7635 -2.9762 0.9593
-0.1110 -9.9612 -2.9824 0.9593
0.7769 -9.9424 -2.9856 0.9592
1.6606 -9.8447 -2.9890 0.9592
5.0133 -8.6833 -3.0018 0.9590
5.7684 -8.2058 -3.0029 0.9590
7.1371 -7.0581 -3.0051 0.9590
8.2809 -5.6845 -3.0070 0.9589
9.1627 -4.1285 -3.0087 0.9589
9.7540 -2.4397 -3.0101 0.9589
10.0566 0.2241 -3.0115 0.9589
9.9976 1.1184 -3.0118 0.9589
9.3474 3.7202 -3.0119 0.9589
8.9787 4.5372 -3.0118 0.9589
7.6222 5.7482 -2.8581 0.9609
7.0793 6.4028 -2.8577 0.9609
5.8357 7.5615 -2.8596 0.9609
5.1390 8.0501 -2.8593 0.9609
4.4011 8.4737 -2.8586 0.9609
2.8277 9.1157 -2.8574 0.9609
1.0475 4.8749 -1.4928 0.9794
1.1661 9.4680 -2.8559 0.9610
0.3187 9.5316 -2.8552 0.9610
-2.2061 9.2573 -2.8491 0.9610
-5.5691 8.3097 -2.9948 0.9591
-6.2843 7.7781 -2.9937 0.9591
-9.0087 4.3031 -2.9889 0.9592
-9.3537 3.4834 -2.9882 0.9592
-9.6244 2.6364 -2.9875 0.9592
-9.8190 1.7690 -2.9869 0.9592
-9.3666 -0.8370 -2.9865 0.9613
-8.4017 -4.0132 -2.9570 0.9617
-8.0133 -4.7463 -2.9578 0.9617
-2.8618 -2.4747 -1.2015 0.9842
-2.3708 -2.4514 -1.0831 0.9858
-1.3915 -3.1825 -1.1031 0.9855
-1.2656 -3.7803 -1.2660 0.9834
-1.3535 -9.2801 -2.9784 0.9614
-0.5227 -9.3731 -2.9814 0.9614
0.3140 -9.3919 -2.9844 0.9613
1.1499 -9.3364 -2.9875 0.9613
1.9784 -9.2067 -2.9906 0.9612
3.5869 -8.7283 -2.9969 0.9612
6.4231 -6.9446 -3.0042 0.9611
8.0370 -5.0055 -3.0070 0.9610
9.0805 -2.7063 -3.0092 0.9610
9.4595 0.6332 -3.0109 0.9610
9.1982 2.3006 -3.0112 0.9610
8.6443 3.8949 -3.0111 0.9610
7.8155 5.3650 -3.0106 0.9610
6.9347 5.7316 -2.8572 0.9629
3.7881 8.1631 -2.8580 0.9629
3.0458 8.4660 -2.8574 0.9629
0.7004 8.9635 -2.8553 0.9630
-4.1615 8.4684 -2.9966 0.9612
-5.5930 7.5909 -2.9945 0.9612
-6.2444 7.0606 -2.9935 0.9612
-7.3926 5.8378 -2.9915 0.9612
-7.8805 5.1552 -2.9907 0.9612
-8.3058 4.4321 -2.9899 0.9613
-8.6652 3.6744 -2.9891 0.9613
-8.9558 2.8879 -2.9885 0.9613
-9.1756 2.0789 -2.9879 0.9613
-9.3959 0.4190 -2.9870 0.9613
-9.2458 -1.2435 -2.9628 0.9616
-9.0782 -2.0568 -2.9562 0.9617
-8.8595 -2.8568 -2.9563 0.9617
-8.5712 -3.6345 -2.9567 0.9617
-7.7953 -5.0994 -2.9583 0.9617
-2.5814 -2.4415 -1.1284 0.9852
-2.2023 -2.4901 -1.0557 0.9861
-1.9256 -2.6134 -1.0309 0.9865
-1.6916 -2.7848 -1.0348 0.9864
-1.3092 -3.3994 -1.1569 0.9848
-2.5747 -9.0041 -2.9742 0.9615
-0.9392 -9.3358 -2.9799 0.9614
-0.1047 -9.3918 -2.9829 0.9613
3.1929 -8.8748 -2.9954 0.9612
3.9742 -8.5643 -2.9985 0.9611
6.1064 -7.2226 -3.0037 0.9611
8.6359 -3.8911 -3.0082 0.9610
9.3627 -1.4722 -3.0100 0.9610
9.4580 -0.6331 -3.0104 0.9610
9.4222 1.0540 -3.0110 0.9610
8.4619 4.2760 -3.0110 0.9610
6.6719 6.0344 -2.8570 0.9629
4.1484 7.9871 -2.8583 0.9629
3.4203 8.3228 -2.8577 0.9629
2.6654 8.5923 -2.8571 0.9629
1.0475 4.8748 -1.5835 0.9793
-2.0797 8.7268 -2.8491 0.9630
-4.5338 8.2731 -2.9961 0.9612
-5.2502 7.8339 -2.9950 0.9612
-6.5516 6.7743 -2.9930 0.9612
-7.1263 6.1623 -2.9920 0.9612
-9.3686 0.8372 -2.9872 0.9613
-8.6682 -1.5617 -2.9593 0.9635
-2.9317 -2.5351 -1.3022 0.9838
-1.8189 -2.7139 -1.0977 0.9863
-1.6000 -2.9196 -1.1186 0.9860
-1.3416 -4.0072 -1.4198 0.9823
-2.0537 -8.6175 -2.9764 0.9633
-1.2797 -8.7740 -2.9791 0.9633
3.3901 -8.2495 -2.9966 0.9631
6.6329 -5.9992 -3.0048 0.9630
7.5958 -4.7307 -3.0065 0.9629
7.9887 -4.0369 -3.0073 0.9629
8.3182 -3.3106 -3.0080 0.9629
8.7768 -1.7840 -3.0091 0.9629
8.9021 -0.9959 -3.0096 0.9629
8.8513 1.3918 -3.0104 0.9629
8.6926 2.1742 -3.0105 0.9629
8.4646 2.9392 -3.0105 0.9629
7.8086 4.3930 -3.0102 0.9629
6.5535 5.4167 -2.8566 0.9648
6.0445 5.9776 -2.8562 0.9648
4.8870 6.9519 -2.8551 0.9648
3.5804 7.7155 -2.8578 0.9647
1.2793 4.8832 -1.6960 0.9789
1.4138 8.3816 -2.8558 0.9648
-0.0946 8.4953 -2.8545 0.9648
-1.5973 8.3328 -2.8507 0.9648
-2.3301 8.1490 -2.8476 0.9649
-3.2068 8.3262 -2.9978 0.9630
-3.9338 8.0050 -2.9967 0.9631
-4.6291 7.6205 -2.9957 0.9631
-5.9030 6.6746 -2.9937 0.9631
-7.8523 4.1901 -2.9903 0.9631
-8.1921 3.4738 -2.9896 0.9631
-8.4670 2.7303 -2.9890 0.9632
-8.8825 -0.3961 -2.9873 0.9632
-8.5866 -1.9455 -2.9581 0.9635
-8.1070 -3.4377 -2.9586 0.9635
-7.3729 -4.8231 -2.9601 0.9635
-6.9170 -5.4623 -2.9612 0.9635
-1.7076 -2.8111 -1.1051 0.9862
-2.4344 -8.5137 -2.9751 0.9633
-0.8879 -8.8264 -2.9805 0.9633
0.6924 -8.8611 -2.9862 0.9632
1.4798 -8.7729 -2.9892 0.9632
2.2570 -8.6150 -2.9922 0.9631
3.0178 -8.3882 -2.9951 0.9631
4.4659 -7.7353 -3.0010 0.9630
7.3765 -5.0637 -3.0061 0.9629
8.4583 -2.9371 -3.0083 0.9629
8.6878 -2.1730 -3.0089 0.9629
8.9382 -0.5983 -3.0098 0.9629
8.9569 0.1996 -3.0101 0.9629
8.7807 1.7847 -3.0105 0.9629
7.9968 4.0410 -3.0103 0.9629
6.3053 5.7028 -2.8564 0.9648
5.7718 6.2403 -2.8559 0.9648
5.1924 6.7280 -2.8554 0.9648
4.5720 7.1619 -2.8548 0.9648
3.2328 7.8664 -2.8574 0.9647
1.0475 4.8747 -1.6752 0.9792
1.0389 8.4352 -2.8555 0.9648
0.2839 8.4922 -2.8548 0.9648
-0.4729 8.4816 -2.8541 0.9648
-1.2251 8.4001 -2.8522 0.9648
-2.6894 8.0329 -2.8461 0.9649
-3.5739 8.1737 -2.9973 0.9631
-4.2857 7.8204 -2.9962 0.9631
-5.6007 6.9320 -2.9942 0.9631
-6.1935 6.4040 -2.9933 0.9631
-6.7368 5.8256 -2.9924 0.9631
-8.3378 3.1051 -2.9893 0.9632
-8.7531 1.5769 -2.9882 0.9632
-8.8574 0.7915 -2.9878 0.9632
-8.4268 -0.0000 -2.9880 0.9649
-8.3927 -0.7500 -2.9878 0.9649
-8.2230 -1.4814 -2.9627 0.9652
-8.0506 -2.2053 -2.9598 0.9652
-7.8230 -2.9133 -2.9600 0.9652
-7.5339 -3.5987 -2.9605 0.9652
-6.7804 -4.8802 -2.9622 0.9652
-2.4374 -2.5202 -1.2432 0.9852
-2.1031 -2.6030 -1.1866 0.9859
-1.6215 -2.9589 -1.1964 0.9858
-1.4378 -3.2884 -1.2726 0.9849
-2.6634 -7.9553 -2.9747 0.9650
-1.9464 -8.1674 -2.9772 0.9650
-1.2128 -8.3154 -2.9797 0.9650
1.0300 -8.3632 -2.9879 0.9649
1.7720 -8.2461 -2.9907 0.9648
2.5012 -8.0632 -2.9935 0.9648
3.2120 -7.8159 -2.9963 0.9648
3.8985 -7.5059 -2.9991 0.9647
4.5552 -7.1356 -3.0018 0.9647
5.1738 -6.7040 -3.0027 0.9647
6.2842 -5.6838 -3.0045 0.9647
7.5684 -3.8245 -3.0068 0.9647
8.1299 -2.4230 -3.0081 0.9646
8.3147 -1.6900 -3.0086 0.9646
8.4334 -0.9434 -3.0090 0.9646
8.4849 -0.1891 -3.0094 0.9646
6.9970 4.8032 -3.0094 0.9646
6.4628 5.3417 -2.9730 0.9650
4.0244 6.9705 -2.8540 0.9664
2.7276 7.5815 -2.8570 0.9664
0.6273 8.0272 -2.8550 0.9664
-0.0897 8.0493 -2.8544 0.9664
-1.5133 7.8951 -2.8505 0.9665
-3.0386 7.8895 -2.9978 0.9648
-5.5938 6.3249 -2.9940 0.9648
-6.1327 5.8003 -2.9931 0.9648
-7.4414 3.9708 -2.9908 0.9648
-7.7635 3.2920 -2.9901 0.9648
-8.0242 2.5874 -2.9895 0.9649
-8.2212 1.8627 -2.9890 0.9649
-8.3531 1.1234 -2.9886 0.9649
-8.4189 0.3754 -2.9882 0.9649
-8.3189 -1.1188 -2.9763 0.9650
-7.9446 -2.5618 -2.9599 0.9652
-6.9898 -4.5725 -2.9617 0.9652
-1.3679 -3.5516 -1.3495 0.9840
-2.3073 -8.0693 -2.9759 0.9650
0.6561 -8.3968 -2.9865 0.9649
1.4022 -8.3129 -2.9893 0.9649
2.1385 -8.1628 -2.9921 0.9648
3.5586 -7.6686 -2.9977 0.9648
4.2309 -7.3282 -3.0004 0.9647
6.0239 -5.9572 -3.0041 0.9647
6.5321 -5.3989 -3.0049 0.9647
6.9886 -4.7974 -3.0057 0.9647
7.3897 -4.1574 -3.0065 0.9647
8.2305 -2.0586 -3.0083 0.9646
8.3824 -1.3181 -3.0088 0.9646
8.4676 -0.5668 -3.0092 0.9646
8.4853 0.1891 -3.0095 0.9646
8.4354 0.9436 -3.0097 0.9646
8.3183 1.6907 -3.0099 0.9646
7.8867 3.1388 -3.0099 0.9646
6.7757 5.1098 -3.0092 0.9646
5.9734 5.4026 -2.8559 0.9664
5.4679 5.9119 -2.8554 0.9664
4.9192 6.3739 -2.8549 0.9664
2.3869 7.6945 -2.8566 0.9664
1.0475 4.8746 -1.7679 0.9791
0.9843 7.9922 -2.8553 0.9664
-0.4481 8.0364 -2.8540 0.9664
-1.1607 7.9586 -2.8519 0.9664
-1.8626 7.8160 -2.8490 0.9665
-2.5483 7.6115 -2.8462 0.9665
-3.3865 7.7450 -2.9973 0.9648
-4.7030 7.0173 -2.9954 0.9648
-5.3073 6.5689 -2.9945 0.9648
-5.8691 6.0686 -2.9936 0.9648
-6.3841 5.5205 -2.9927 0.9648
-7.2580 4.2989 -2.9911 0.9648
-8.1307 2.2272 -2.9893 0.9649
-8.2953 1.4945 -2.9888 0.9649
-8.0035 -0.0000 -2.9886 0.9664
-7.8160 -1.4081 -2.9656 0.9667
-7.4325 -2.7679 -2.9616 0.9667
-6.8267 -4.0434 -2.9627 0.9667
-6.0057 -5.1933 -2.9648 0.9667
-2.4759 -2.5601 -1.3299 0.9849
-2.1300 -2.6364 -1.2656 0.9856
-1.8645 -2.7820 -1.2506 0.9858
-2.5299 -7.5563 -2.9755 0.9665
0.9781 -7.9420 -2.9880 0.9664
1.6826 -7.8304 -2.9907 0.9664
3.0498 -7.4212 -2.9960 0.9663
3.7014 -7.1266 -2.9987 0.9663
4.3248 -6.7747 -3.0012 0.9663
5.4613 -5.9047 -3.0034 0.9662
5.9668 -5.3967 -3.0042 0.9662
7.4821 -2.9779 -3.0070 0.9662
7.7189 -2.3005 -3.0076 0.9662
8.0068 -0.8957 -3.0085 0.9662
8.0557 -0.1795 -3.0088 0.9662
7.9609 1.2518 -3.0092 0.9662
7.6131 2.6436 -3.0093 0.9662
6.6431 4.5602 -3.0088 0.9662
5.4368 5.3765 -2.8552 0.9679
4.9359 5.8381 -2.8547 0.9679
4.3958 6.2531 -2.8542 0.9679
3.8210 6.6182 -2.8536 0.9679
3.2161 6.9304 -2.8530 0.9679
1.2795 4.8836 -1.8852 0.9787
1.2720 7.5407 -2.8556 0.9679
-0.0851 7.6434 -2.8543 0.9679
-2.8854 7.4919 -2.9979 0.9663
-4.7578 6.4574 -2.9951 0.9663
-5.3122 6.0066 -2.9942 0.9663
-6.7050 4.3862 -2.9919 0.9664
-7.0672 3.7712 -2.9912 0.9664
-7.8080 1.7690 -2.9895 0.9664
-7.9959 0.3565 -2.9887 0.9664
-7.9197 -1.0651 -2.9839 0.9665
-7.7345 -1.7524 -2.9613 0.9667
-7.5481 -2.4339 -2.9614 0.9667
-7.3024 -3.0965 -2.9618 0.9667
-6.2299 -4.9197 -2.9642 0.9667
-2.7329 -2.5848 -1.4046 0.9841
-2.2924 -2.5921 -1.2921 0.9853
-2.1916 -7.6644 -2.9767 0.9665
-1.5019 -7.8353 -2.9791 0.9665
-0.7993 -7.9445 -2.9815 0.9665
-0.0890 -7.9910 -2.9841 0.9665
2.0307 -7.7512 -2.9920 0.9664
2.7150 -7.5464 -2.9947 0.9663
3.3788 -7.2812 -2.9974 0.9663
4.6236 -6.5771 -3.0021 0.9663
5.1921 -6.1413 -3.0030 0.9662
7.3413 -3.3078 -3.0067 0.9662
7.9585 -1.2514 -3.0083 0.9662
8.0393 -0.5382 -3.0087 0.9662
8.0087 0.8959 -3.0092 0.9662
7.8975 1.6052 -3.0093 0.9662
7.4877 2.9800 -3.0093 0.9662
7.1925 3.6345 -3.0092 0.9662
6.8399 4.2600 -3.0090 0.9662
6.4330 4.8513 -3.0087 0.9662
5.7745 5.2227 -2.9074 0.9673
2.2665 7.3062 -2.8565 0.9679
1.0475 4.8746 -1.8618 0.9789
0.9347 7.5891 -2.8553 0.9679
-1.1020 7.5562 -2.8514 0.9679
-1.7686 7.4213 -2.8488 0.9679
-2.4198 7.2277 -2.8461 0.9680
-3.2158 7.3547 -2.9974 0.9663
-3.8565 7.0371 -2.9965 0.9663
-6.0629 5.2428 -2.9930 0.9664
-6.8929 4.0827 -2.9915 0.9664
-7.2274 3.4522 -2.9909 0.9664
-7.7221 2.1153 -2.9897 0.9664
-7.9725 0.7124 -2.9889 0.9664
-7.6160 -0.0000 -2.9891 0.9678
-7.4426 -1.3409 -2.9681 0.9680
-7.2808 -1.9944 -2.9628 0.9681
-6.4981 -3.8488 -2.9641 0.9681
-6.1316 -4.4132 -2.9650 0.9681
-2.1580 -2.6710 -1.3477 0.9854
-1.8886 -2.8180 -1.3314 0.9855
-2.4076 -7.1911 -2.9763 0.9679
-1.7593 -7.3824 -2.9785 0.9679
0.2542 -7.6031 -2.9857 0.9678
1.6009 -7.4502 -2.9907 0.9678
3.5213 -6.7796 -2.9983 0.9677
4.1141 -6.4446 -3.0008 0.9677
4.6738 -6.0560 -3.0023 0.9677
5.6766 -5.1342 -3.0040 0.9676
6.1125 -4.6097 -3.0047 0.9676
7.1178 -2.8328 -3.0066 0.9676
7.6168 -0.8521 -3.0080 0.9676
7.6632 -0.1708 -3.0083 0.9676
7.4372 1.8602 -3.0088 0.9676
7.2421 2.5147 -3.0088 0.9676
6.6810 3.7587 -3.0086 0.9676
6.3194 4.3380 -3.0083 0.9676
5.1833 5.1260 -2.8611 0.9692
3.6350 6.2960 -2.8533 0.9692
1.2795 4.8839 -1.9814 0.9785
1.2102 7.1743 -2.8555 0.9692
0.5667 7.2521 -2.8549 0.9692
-0.7274 7.2305 -2.8521 0.9693
-1.3669 7.1312 -2.8497 0.9693
-2.7454 7.1281 -2.9979 0.9677
-3.3679 6.8535 -2.9970 0.9677
-3.9634 6.5246 -2.9961 0.9677
-4.5271 6.1442 -2.9953 0.9677
-5.9847 4.7261 -2.9929 0.9678
-6.3801 4.1737 -2.9922 0.9678
-6.7248 3.5885 -2.9915 0.9678
-7.0161 2.9751 -2.9909 0.9678
-7.4299 1.6834 -2.9899 0.9678
-7.5492 1.0153 -2.9895 0.9678
-7.6088 0.3393 -2.9892 0.9678
-7.5444 -1.0146 -2.9876 0.9678
-7.1850 -2.3169 -2.9629 0.9681
-6.3211 -4.1351 -2.9645 0.9681
-2.8705 -2.7149 -1.5507 0.9832
-2.3290 -2.6335 -1.3798 0.9850
-2.0181 -2.7389 -1.3352 0.9855
-1.5748 -3.2047 -1.4014 0.9848
-2.7246 -7.0742 -2.9752 0.9680
-2.0856 -7.2939 -2.9774 0.9679
-1.4292 -7.4563 -2.9796 0.9679
-0.7605 -7.5599 -2.9820 0.9679
0.5929 -7.5874 -2.9869 0.9678
1.2669 -7.5109 -2.9895 0.9678
1.9321 -7.3746 -2.9920 0.9678
4.9396 -5.8426 -3.0028 0.9677
5.9004 -4.8768 -3.0043 0.9676
6.6747 -3.7551 -3.0057 0.9676
6.9839 -3.1468 -3.0064 0.9676
7.6635 0.1708 -3.0085 0.9676
7.6184 0.8523 -3.0087 0.9676
7.5126 1.5270 -3.0088 0.9676
7.3470 2.1896 -3.0088 0.9676
6.8420 3.4574 -3.0087 0.9676
6.5067 4.0524 -3.0085 0.9676
6.1196 4.6150 -3.0082 0.9676
5.6839 5.1408 -3.0078 0.9676
4.9386 5.3396 -2.8546 0.9692
1.0474 4.8744 -1.9567 0.9788
0.2430 7.2693 -2.8546 0.9692
-1.6825 7.0602 -2.8485 0.9693
-3.0597 6.9977 -2.9975 0.9677
-3.6693 6.6956 -2.9966 0.9677
-4.7956 5.9356 -2.9949 0.9677
-5.3034 5.4837 -2.9941 0.9678
-6.5591 3.8849 -2.9919 0.9678
-7.4970 1.3507 -2.9897 0.9678
-7.5865 0.6779 -2.9894 0.9678
-7.2600 0.0000 -2.9895 0.9691
-7.2307 -0.6461 -2.9893 0.9691
-7.1030 -1.2797 -2.9720 0.9693
-5.8464 -4.2080 -2.9662 0.9693
-5.4506 -4.7133 -2.9672 0.9693
-2.6327 -2.7222 -1.5594 0.9838
-2.2054 -2.7296 -1.4450 0.9849
-1.9253 -2.8727 -1.4240 0.9852
-1.7105 -3.1213 -1.4657 0.9847
-1.5781 -3.6093 -1.6221 0.9831
-1.0449 -7.1642 -2.9813 0.9692
0.8871 -7.2026 -2.9883 0.9691
1.5259 -7.1008 -2.9907 0.9691
2.1536 -6.9425 -2.9932 0.9690
3.9205 -6.1414 -3.0003 0.9690
4.9517 -5.3537 -3.0030 0.9689
5.8253 -4.3931 -3.0044 0.9689
6.1946 -3.8581 -3.0051 0.9689
6.5148 -3.2920 -3.0057 0.9689
6.9977 -2.0856 -3.0068 0.9689
7.1566 -1.4546 -3.0072 0.9689
7.2586 -0.8120 -3.0076 0.9689
7.0874 1.7727 -3.0083 0.9689
6.6606 3.0011 -3.0083 0.9689
6.3667 3.5818 -3.0081 0.9689
6.0222 4.1340 -3.0079 0.9689
5.1460 5.0890 -2.9802 0.9692
4.4747 5.2927 -2.8539 0.9705
2.9158 6.2833 -2.8523 0.9705
2.3444 6.5164 -2.8517 0.9705
1.2796 4.8841 -2.0791 0.9784
1.1535 6.8380 -2.8555 0.9704
0.5402 6.9120 -2.8549 0.9705
-0.6931 6.8898 -2.8514 0.9705
-5.2823 4.9959 -2.9939 0.9690
-6.9125 2.2290 -2.9908 0.9691
-7.1963 0.9678 -2.9900 0.9691
-7.2525 -0.3234 -2.9894 0.9691
-7.1945 -0.9676 -2.9892 0.9691
-6.8511 -2.2092 -2.9642 0.9693
-6.0272 -3.9428 -2.9658 0.9693
-5.2362 -4.9524 -2.9678 0.9693
-2.0586 -2.7939 -1.4290 0.9851
-1.9882 -6.9534 -2.9780 0.9692
-0.7250 -7.2064 -2.9824 0.9692
-0.0808 -7.2479 -2.9847 0.9691
1.8414 -7.0287 -2.9920 0.9691
4.7077 -5.5683 -3.0026 0.9689
5.6232 -4.6477 -3.0041 0.9689
6.6556 -2.9989 -3.0060 0.9689
7.0842 -1.7719 -3.0070 0.9689
7.2147 -1.1345 -3.0074 0.9689
7.3030 0.1627 -3.0080 0.9689
7.2600 0.8121 -3.0082 0.9689
7.1592 1.4552 -3.0083 0.9689
7.0014 2.0866 -3.0083 0.9689
6.2006 3.8618 -3.0080 0.9689
5.4166 4.8990 -3.0074 0.9689
4.2341 5.4863 -2.8537 0.9705
3.1931 6.1478 -2.8526 0.9705
2.6327 6.4062 -2.8520 0.9705
2.0516 6.6136 -2.8514 0.9705
0.8477 6.8818 -2.8552 0.9705
0.2316 6.9274 -2.8542 0.9705
-0.3856 6.9162 -2.8524 0.9705
-0.9990 6.8496 -2.8504 0.9705
-2.1942 6.5538 -2.8460 0.9705
-2.9163 6.6697 -2.9975 0.9690
-3.4974 6.3819 -2.9967 0.9690
-4.0504 6.0436 -2.9958 0.9690
-5.4989 4.7551 -2.9935 0.9690
-5.8989 4.2458 -2.9928 0.9690
-6.2520 3.7031 -2.9922 0.9691
-6.5555 3.1313 -2.9916 0.9691
-7.1464 1.2875 -2.9901 0.9691
-6.9314 0.0000 -2.9899 0.9703
-6.6301 -1.8162 -2.9653 0.9705
-5.5832 -4.0185 -2.9673 0.9705
-2.2643 -2.8026 -1.5542 0.9844
-1.9734 -2.9445 -1.5290 0.9847
-2.7637 -6.3207 -2.9757 0.9704
-1.6013 -6.7194 -2.9796 0.9704
-0.9976 -6.8401 -2.9817 0.9703
0.2313 -6.9188 -2.9862 0.9703
0.8469 -6.8760 -2.9884 0.9703
1.4566 -6.7786 -2.9908 0.9702
2.0558 -6.6272 -2.9931 0.9702
4.2520 -5.5095 -3.0020 0.9701
4.7267 -5.1104 -3.0028 0.9701
5.5605 -4.1933 -3.0042 0.9701
5.9129 -3.6826 -3.0048 0.9701
6.4746 -2.5768 -3.0059 0.9701
6.6793 -1.9907 -3.0064 0.9701
6.8309 -1.3884 -3.0068 0.9701
6.9570 0.4657 -3.0077 0.9701
6.8883 1.0831 -3.0078 0.9701
6.7647 1.6919 -3.0079 0.9701
5.7481 3.9458 -3.0075 0.9701
5.3735 4.4413 -3.0072 0.9701
4.2711 5.0519 -2.8536 0.9716
3.3066 5.7272 -2.8526 0.9716
-0.6615 6.5756 -2.8507 0.9716
-1.2433 6.4861 -2.8488 0.9716
-1.8143 6.3449 -2.8466 0.9717
-3.0644 6.2360 -2.9972 0.9702
-4.1194 5.5909 -2.9956 0.9702
-6.1199 3.2657 -2.9922 0.9702
-6.3851 2.7075 -2.9916 0.9702
-6.7619 1.5320 -2.9907 0.9702
-6.9243 -0.3088 -2.9898 0.9703
-6.7101 -1.5203 -2.9678 0.9705
-6.3297 -2.6840 -2.9657 0.9705
-5.7558 -3.7653 -2.9669 0.9705
-5.3995 -4.2640 -2.9678 0.9705
-5.0004 -4.7293 -2.9689 0.9705
-1.8560 -3.0554 -1.5421 0.9845
-1.6883 -3.4356 -1.6512 0.9835
-2.4801 -6.4396 -2.9766 0.9704
-1.8984 -6.6391 -2.9786 0.9704
-1.3008 -6.7864 -2.9807 0.9703
-0.6922 -6.8802 -2.9828 0.9703
1.1528 -6.8341 -2.9896 0.9703
2.3499 -6.5315 -2.9942 0.9702
2.9241 -6.3013 -2.9965 0.9702
6.7618 -1.6913 -3.0066 0.9701
6.9295 0.7752 -3.0078 0.9701
5.9184 3.6860 -3.0076 0.9701
5.1701 4.6760 -3.0070 0.9701
4.6221 4.9973 -2.9363 0.9708
3.0479 5.8682 -2.8524 0.9716
2.5130 6.1149 -2.8518 0.9716
-0.3680 6.6006 -2.8516 0.9716
-3.3387 6.0924 -2.9968 0.9702
-3.8667 5.7695 -2.9960 0.9702
-4.8260 4.9901 -2.9945 0.9702
-5.2498 4.5396 -2.9938 0.9702
-5.9689 3.5354 -2.9925 0.9702
-6.2587 2.9895 -2.9919 0.9702
-6.8230 1.2292 -2.9905 0.9703
-6.9045 0.6170 -2.9902 0.9703
-6.6272 0.0000 -2.9903 0.9713
-6.5095 -1.1727 -2.9845 0.9714
-6.1614 -2.2945 -2.9666 0.9716
-5.3393 -3.8430 -2.9684 0.9715
-4.9777 -4.3044 -2.9693 0.9715
-2.3569 -2.9172 -1.6922 0.9837
-2.0288 -3.0272 -1.6443 0.9841
-2.0955 -6.2589 -2.9782 0.9715
-1.5311 -6.4247 -2.9801 0.9714
-0.9538 -6.5399 -2.9821 0.9714
-0.3682 -6.6035 -2.9842 0.9714
0.2211 -6.6148 -2.9864 0.9714
0.8096 -6.5737 -2.9886 0.9714
2.5232 -6.1398 -2.9952 0.9713
4.9364 -4.4647 -3.0033 0.9712
5.3153 -4.0085 -3.0039 0.9712
6.1890 -2.4632 -3.0056 0.9712
6.3846 -1.9028 -3.0061 0.9712
6.5295 -1.3272 -3.0065 0.9712
6.6224 -0.7408 -3.0068 0.9712
6.6627 -0.1485 -3.0071 0.9712
6.6499 0.4451 -3.0073 0.9712
6.4661 1.6173 -3.0075 0.9712
6.2965 2.1864 -3.0075 0.9712
6.0768 2.7381 -3.0074 0.9712
5.4944 3.7716 -3.0071 0.9712
5.1364 4.2453 -3.0068 0.9712
4.7376 4.6851 -3.0065 0.9712
4.1548 4.9143 -2.9037 0.9722
2.6604 5.7331 -2.8518 0.9726
2.1392 5.9459 -2.8512 0.9727
0.4926 6.3039 -2.8531 0.9726
-0.0704 6.3197 -2.8517 0.9726
-0.6322 6.2848 -2.8501 0.9727
-1.7343 6.0651 -2.8464 0.9727
-2.3880 6.2003 -2.9980 0.9713
-2.9296 5.9616 -2.9972 0.9713
-3.4477 5.6757 -2.9965 0.9713
-3.9383 5.3450 -2.9957 0.9713
-5.2069 4.1118 -2.9937 0.9713
-5.8511 3.1222 -2.9925 0.9713
-6.1047 2.5886 -2.9920 0.9713
-6.3099 2.0347 -2.9915 0.9713
-6.6209 0.2952 -2.9904 0.9713
-6.6204 -0.2952 -2.9902 0.9713
-6.4196 -1.4545 -2.9701 0.9715
-5.8018 -3.0959 -2.9673 0.9716
-5.1636 -4.0777 -2.9688 0.9715
-2.9084 -5.9184 -2.9755 0.9715
-1.2438 -6.4887 -2.9811 0.9714
-0.6618 -6.5782 -2.9832 0.9714
-0.0737 -6.6157 -2.9853 0.9714
1.1021 -6.5335 -2.9897 0.9713
2.2463 -6.2438 -2.9941 0.9713
3.3226 -5.7549 -2.9984 0.9713
4.2958 -5.0811 -3.0022 0.9712
5.1309 -4.2408 -3.0036 0.9712
5.4892 -3.7681 -3.0042 0.9712
5.8039 -3.2653 -3.0048 0.9712
6.0726 -2.7362 -3.0054 0.9712
6.2931 -2.1852 -3.0058 0.9712
6.6492 -0.4451 -3.0069 0.9712
6.6630 0.1485 -3.0072 0.9712
6.5317 1.3276 -3.0075 0.9712
6.1928 2.4647 -3.0075 0.9712
5.3207 4.0125 -3.0069 0.9712
4.9419 4.4697 -3.0066 0.9712
3.4018 5.3288 -2.8526 0.9726
2.9135 5.6094 -2.8521 0.9726
2.4022 5.8453 -2.8515 0.9726
1.8743 6.0423 -2.8546 0.9726
0.7731 6.2769 -2.8536 0.9726
-3.1919 5.8245 -2.9969 0.9713
-4.1719 5.1637 -2.9954 0.9713
-6.2135 2.3139 -2.9917 0.9713
-6.3446 0.0000 -2.9907 0.9723
-6.2396 -1.1241 -2.9886 0.9724
-6.0717 -1.6632 -2.9675 0.9725
-5.8999 -2.1971 -2.9677 0.9725
-5.6816 -2.7139 -2.9680 0.9725
-5.1127 -3.6799 -2.9693 0.9725
-4.3821 -4.5310 -2.9713 0.9725
-3.9630 -4.9051 -2.9725 0.9725
-2.1466 -3.2030 -1.8175 0.9831
-2.0062 -5.9923 -2.9788 0.9724
-1.4658 -6.1509 -2.9806 0.9724
-0.3525 -6.3217 -2.9845 0.9724
3.4235 -5.3629 -2.9991 0.9723
3.8899 -5.0402 -3.0011 0.9722
4.7250 -4.2735 -3.0031 0.9722
5.0876 -3.8368 -3.0037 0.9722
5.9237 -2.3576 -3.0053 0.9722
6.1109 -1.8212 -3.0057 0.9722
6.2495 -1.2703 -3.0061 0.9722
6.3385 -0.7091 -3.0065 0.9722
6.3770 -0.1421 -3.0067 0.9722
6.3648 0.4261 -3.0069 0.9722
6.3019 0.9909 -3.0070 0.9722
5.5596 3.1278 -3.0069 0.9722
4.1169 4.8694 -3.0057 0.9722
3.4859 4.9591 -2.8575 0.9736
1.2798 4.8849 -2.3803 0.9779
-1.6677 5.8323 -2.8594 0.9735
-2.2859 5.9352 -2.9980 0.9723
-2.8044 5.7068 -2.9973 0.9723
-3.3004 5.4332 -2.9966 0.9723
-3.7700 5.1166 -2.9959 0.9723
-4.6154 4.3652 -2.9945 0.9723
-4.9845 3.9362 -2.9939 0.9723
-5.8442 2.4781 -2.9922 0.9723
-6.2874 -0.8456 -2.9904 0.9723
-6.1493 -1.3933 -2.9721 0.9725
-5.9917 -1.9321 -2.9676 0.9725
-5.7965 -2.4579 -2.9678 0.9725
-5.5556 -2.9646 -2.9683 0.9725
-5.2708 -3.4480 -2.9689 0.9725
-4.5787 -4.3305 -2.9707 0.9725
-4.1767 -4.7227 -2.9719 0.9725
-2.3011 -3.1230 -1.8286 0.9830
-2.2705 -5.8953 -2.9779 0.9725
-1.7378 -6.0776 -2.9797 0.9724
-1.1908 -6.2121 -2.9816 0.9724
-0.6336 -6.2976 -2.9835 0.9724
0.4938 -6.3188 -2.9876 0.9724
1.0550 -6.2542 -2.9897 0.9723
1.6086 -6.1398 -2.9918 0.9723
2.1502 -5.9765 -2.9940 0.9723
2.6754 -5.7654 -2.9961 0.9723
3.1802 -5.5082 -2.9981 0.9723
4.5294 -4.4793 -3.0027 0.9722
4.9112 -4.0592 -3.0034 0.9722
5.8123 -2.6189 -3.0051 0.9722
6.0233 -2.0915 -3.0055 0.9722
6.1864 -1.5473 -3.0059 0.9722
6.3003 -0.9907 -3.0063 0.9722
6.3641 -0.4260 -3.0066 0.9722
6.3772 0.1421 -3.0068 0.9722
6.3396 0.7092 -3.0070 0.9722
6.2516 1.2707 -3.0071 0.9722
5.9272 2.3590 -3.0071 0.9722
5.0925 3.8405 -3.0066 0.9722
4.7300 4.2780 -3.0063 0.9722
3.7341 4.8383 -2.8809 0.9733
1.7936 5.7821 -2.8537 0.9736
1.0474 4.8740 -2.3499 0.9782
0.7398 6.0066 -2.8528 0.9736
-0.3366 6.0373 -2.8503 0.9736
-3.0554 5.5755 -2.9969 0.9723
-3.5387 5.2801 -2.9962 0.9723
-4.8047 4.1548 -2.9942 0.9723
-5.9483 2.2152 -2.9920 0.9723
-6.1210 1.6767 -2.9916 0.9723
-6.2452 1.1251 -2.9912 0.9723
-6.3199 0.5648 -2.9909 0.9723
-6.0566 -0.5412 -2.9908 0.9733
-5.9842 -1.0781 -2.9907 0.9733
-5.8233 -1.5952 -2.9697 0.9734
-5.6561 -2.1064 -2.9686 0.9735
-5.4468 -2.6017 -2.9690 0.9735
-5.1946 -3.0768 -2.9695 0.9734
-4.2008 -4.3436 -2.9721 0.9734
-2.9078 -5.3061 -2.9760 0.9734
-2.4253 -5.5468 -2.9776 0.9734
-1.9230 -5.7438 -2.9793 0.9734
-0.3379 -6.0590 -2.9848 0.9733
0.2029 -6.0690 -2.9868 0.9733
0.7428 -6.0310 -2.9888 0.9733
1.2775 -5.9449 -2.9908 0.9733
1.8028 -5.8116 -2.9928 0.9732
2.8084 -5.4071 -2.9968 0.9732
4.5280 -4.0953 -3.0029 0.9732
4.8755 -3.6768 -3.0035 0.9731
5.1843 -3.2288 -3.0040 0.9731
5.6766 -2.2592 -3.0050 0.9731
5.8559 -1.7452 -3.0055 0.9731
5.9887 -1.2173 -3.0058 0.9731
6.0739 -0.6795 -3.0061 0.9731
6.1108 -0.1362 -3.0064 0.9731
6.0388 0.9495 -3.0067 0.9731
5.9304 1.4833 -3.0068 0.9731
5.3275 2.9972 -3.0066 0.9731
4.7110 3.8937 -3.0061 0.9731
4.3453 4.2971 -3.0058 0.9731
3.9451 4.6662 -3.0054 0.9731
2.8991 5.0213 -2.8519 0.9745
1.9636 5.4577 -2.8529 0.9745
0.9646 5.7184 -2.8523 0.9745
-0.0645 5.7948 -2.8504 0.9745
-1.6566 5.7933 -2.9637 0.9735
-3.1631 5.2071 -2.9967 0.9732
-4.0344 4.5618 -2.9953 0.9732
-5.0932 3.3318 -2.9935 0.9732
-5.6014 2.3752 -2.9925 0.9732
-5.7897 1.8669 -2.9921 0.9732
-6.0753 0.2709 -2.9911 0.9733
-6.0263 -0.8105 -2.9908 0.9733
-5.8998 -1.3367 -2.9754 0.9734
-5.7441 -1.8523 -2.9685 0.9735
-5.5570 -2.3564 -2.9688 0.9735
-5.3260 -2.8420 -2.9692 0.9734
-4.7399 -3.7431 -2.9706 0.9734
-2.1764 -5.6509 -2.9784 0.9734
-1.6658 -5.8255 -2.9801 0.9734
-1.1414 -5.9542 -2.9819 0.9733
1.0111 -5.9939 -2.9898 0.9733
2.0606 -5.7274 -2.9938 0.9732
3.0475 -5.2784 -2.9978 0.9732
4.7064 -3.8899 -3.0032 0.9731
5.0349 -3.4562 -3.0038 0.9731
5.3235 -2.9950 -3.0043 0.9731
5.5698 -2.5097 -3.0048 0.9731
5.7720 -2.0042 -3.0053 0.9731
6.0985 -0.4083 -3.0063 0.9731
6.0750 0.6796 -3.0066 0.9731
5.9906 1.2176 -3.0067 0.9731
5.8585 1.7460 -3.0068 0.9731
5.1885 3.2315 -3.0065 0.9731
4.8800 3.6801 -3.0063 0.9731
3.7153 4.8140 -2.9909 0.9733
2.6723 5.1451 -2.8516 0.9745
1.7185 5.5398 -2.8529 0.9745
1.0473 4.8739 -2.4520 0.9780
0.7088 5.7550 -2.8520 0.9745
-0.3225 5.7847 -2.8497 0.9745
-1.3417 5.6300 -2.8467 0.9745
-2.4417 5.5843 -2.9977 0.9732
-2.9283 5.3435 -2.9970 0.9732
-3.8276 4.7375 -2.9956 0.9732
-4.2332 4.3770 -2.9950 0.9732
-4.9402 3.5557 -2.9938 0.9732
-5.2361 3.1013 -2.9932 0.9732
-5.4904 2.6225 -2.9927 0.9732
-5.7012 2.1231 -2.9923 0.9732
-6.0574 0.5413 -2.9912 0.9733
-5.8113 -0.5193 -2.9912 0.9741
-5.7418 -1.0344 -2.9911 0.9741
-4.3848 -3.7917 -2.9719 0.9743
-3.6457 -4.5123 -2.9740 0.9743
-3.2309 -4.8209 -2.9752 0.9743
-2.3272 -5.3225 -2.9781 0.9742
-1.3481 -5.6571 -2.9814 0.9742
-0.3242 -5.8135 -2.9851 0.9742
0.7126 -5.7863 -2.9889 0.9741
1.7295 -5.5755 -2.9928 0.9741
2.6942 -5.1872 -2.9966 0.9741
3.1471 -4.9299 -2.9985 0.9741
4.3439 -3.9288 -3.0027 0.9740
4.9735 -3.0975 -3.0038 0.9740
5.2303 -2.6430 -3.0043 0.9740
5.7450 -1.1677 -3.0055 0.9740
5.8621 -0.1306 -3.0061 0.9740
5.8508 0.3916 -3.0063 0.9740
5.6890 1.4229 -3.0064 0.9740
5.5398 1.9236 -3.0064 0.9740
5.1106 2.8752 -3.0062 0.9740
4.8342 3.3184 -3.0061 0.9740
4.5192 3.7353 -3.0058 0.9740
4.1684 4.1222 -3.0055 0.9740
3.7846 4.4764 -3.0052 0.9740
3.3355 4.7449 -2.9734 0.9743
2.3410 5.0447 -2.8512 0.9753
1.8833 5.2348 -2.8521 0.9753
1.2799 4.8854 -2.5891 0.9776
0.4332 5.5438 -2.8508 0.9753
-0.0619 5.5582 -2.8497 0.9753
-0.5561 5.5280 -2.8484 0.9753
-1.0454 5.4540 -2.8470 0.9753
-3.4666 4.7049 -2.9961 0.9741
-3.8708 4.3768 -2.9954 0.9741
-4.8867 3.1968 -2.9937 0.9741
-5.1510 2.7487 -2.9932 0.9741
-5.3744 2.2789 -2.9928 0.9741
-5.5551 1.7913 -2.9923 0.9741
-5.6918 1.2896 -2.9920 0.9741
-5.7823 -0.7776 -2.9911 0.9741
-5.6701 -1.2847 -2.9806 0.9742
-4.5487 -3.5921 -2.9715 0.9743
-3.8423 -4.3446 -2.9734 0.9743
-3.4417 -4.6712 -2.9746 0.9743
-3.0137 -4.9611 -2.9759 0.9742
0.4540 -5.8104 -2.9879 0.9741
1.4790 -5.6452 -2.9918 0.9741
2.4596 -5.3004 -2.9957 0.9741
2.9235 -5.0636 -2.9975 0.9741
4.5150 -3.7318 -3.0030 0.9740
4.8301 -3.3157 -3.0036 0.9740
5.1070 -2.8731 -3.0041 0.9740
5.6870 -1.4224 -3.0054 0.9740
5.7917 -0.9107 -3.0057 0.9740
5.8277 0.6519 -3.0063 0.9740
5.6200 1.6749 -3.0064 0.9740
4.6813 3.5304 -3.0059 0.9740
3.9805 4.3036 -3.0054 0.9740
3.0044 4.7064 -2.8625 0.9752
1.6482 5.3134 -2.8521 0.9753
-0.3094 5.5487 -2.8491 0.9753
-1.3171 5.5269 -2.9128 0.9748
-2.3425 5.3576 -2.9978 0.9741
-3.2539 4.8552 -2.9964 0.9741
-4.0614 4.1995 -2.9951 0.9741
-4.4183 3.8206 -2.9945 0.9741
-5.0239 2.9756 -2.9935 0.9741
-5.4702 2.0371 -2.9925 0.9741
-5.6291 1.5420 -2.9922 0.9741
-5.7433 1.0347 -2.9918 0.9741
-5.6039 0.0000 -2.9916 0.9749
-5.5814 -0.4988 -2.9915 0.9749
-5.5147 -0.9935 -2.9914 0.9749
-5.3726 -1.4717 -2.9738 0.9751
-4.5182 -3.2520 -2.9718 0.9751
-4.2120 -3.6423 -2.9726 0.9751
-3.8723 -4.0040 -2.9736 0.9751
-1.2949 -5.4334 -2.9818 0.9750
-0.3113 -5.5834 -2.9853 0.9750
0.6844 -5.5570 -2.9890 0.9749
1.6609 -5.3542 -2.9927 0.9749
2.1322 -5.1884 -2.9946 0.9749
3.0220 -4.7339 -2.9982 0.9749
3.8178 -4.1278 -3.0016 0.9748
4.1714 -3.7728 -3.0026 0.9748
4.7759 -2.9745 -3.0036 0.9748
5.0225 -2.5380 -3.0041 0.9748
5.3944 -1.6077 -3.0049 0.9748
5.5951 -0.6259 -3.0055 0.9748
5.6182 0.3761 -3.0060 0.9748
5.4628 1.3663 -3.0061 0.9748
4.9075 2.7609 -3.0059 0.9748
4.3396 3.5868 -3.0055 0.9748
4.0027 3.9584 -3.0053 0.9748
3.2367 4.6043 -3.0045 0.9748
2.6813 4.6441 -2.8628 0.9760
2.2482 4.8448 -2.8513 0.9761
1.2800 4.8857 -2.6962 0.9774
0.4159 5.3226 -2.8501 0.9761
-0.5340 5.3078 -2.8478 0.9761
-1.0201 5.3217 -2.8927 0.9757
-2.0185 5.2408 -2.9981 0.9749
-2.9144 4.7978 -2.9968 0.9749
-3.7174 4.2033 -2.9956 0.9749
-4.0760 3.8550 -2.9950 0.9749
-4.6932 3.0702 -2.9939 0.9749
-4.9471 2.6398 -2.9934 0.9749
-5.1616 2.1887 -2.9930 0.9749
-5.3352 1.7204 -2.9926 0.9749
-5.4666 1.2386 -2.9923 0.9749
-5.5982 -0.2496 -2.9915 0.9749
-5.5535 -0.7469 -2.9914 0.9749
-5.1229 -2.1723 -2.9705 0.9751
-4.9099 -2.6200 -2.9709 0.9751
-4.3695 -3.4505 -2.9722 0.9751
-3.6908 -4.1732 -2.9741 0.9751
-3.3059 -4.4869 -2.9753 0.9750
-1.5352 -5.3688 -2.9810 0.9750
-0.0623 -5.5934 -2.9862 0.9750
0.4360 -5.5802 -2.9880 0.9749
1.8983 -5.2766 -2.9936 0.9749
2.8073 -4.8623 -2.9973 0.9749
3.2308 -4.5959 -2.9991 0.9748
3.6291 -4.2925 -3.0008 0.9748
3.9988 -3.9545 -3.0023 0.9748
4.6383 -3.1840 -3.0034 0.9748
4.9041 -2.7590 -3.0039 0.9748
5.6292 0.1254 -3.0059 0.9748
5.5960 0.6260 -3.0060 0.9748
5.5182 1.1216 -3.0061 0.9748
5.3966 1.6083 -3.0061 0.9748
5.0257 2.5396 -3.0060 0.9748
4.7795 2.9767 -3.0059 0.9748
4.4953 3.3900 -3.0057 0.9748
4.1753 3.7763 -3.0054 0.9748
3.4388 4.4558 -3.0047 0.9748
2.4617 4.7397 -2.8512 0.9761
2.0303 4.9403 -2.8514 0.9761
0.6527 5.2996 -2.8505 0.9761
0.1784 5.3350 -2.8496 0.9761
-0.2970 5.3275 -2.8485 0.9761
-2.6981 4.9234 -2.9971 0.9749
-3.1250 4.6627 -2.9965 0.9749
-3.5268 4.3652 -2.9959 0.9749
-3.9005 4.0332 -2.9953 0.9749
-4.2433 3.6693 -2.9947 0.9749
-5.0594 2.4167 -2.9932 0.9749
-5.2536 1.9565 -2.9928 0.9749
-5.5821 0.4988 -2.9918 0.9749
-5.3869 0.0000 -2.9919 0.9757
-5.1670 -1.4154 -2.9755 0.9758
-4.6041 -2.7270 -2.9720 0.9758
-4.3440 -3.1266 -2.9726 0.9758
-4.0495 -3.5017 -2.9734 0.9758
-3.7229 -3.8495 -2.9743 0.9758
