ply
format ascii 1.0
element vertex 1583
property float32 x
property float32 y
property float32 z
property float32 I
end_header
-10.4433 5.5727 3.5438 0.9518
-0.0527 4.7323 1.3315 0.9805
0.1602 4.7904 1.3486 0.9803
-12.7597 5.4106 3.6520 0.9443
-0.0527 4.7323 1.1633 0.9807
0.1601 4.7904 1.1781 0.9805
-3.8944 -3.3676 1.1751 0.9791
-4.1019 -3.2392 1.1930 0.9788
-3.8017 -3.5956 1.1943 0.9788
0.1601 4.7903 1.0940 0.9805
-4.1400 -2.9798 1.0754 0.9794
-3.5542 -3.6750 1.0778 0.9793
-3.8735 -3.0588 1.0405 0.9800
-3.5899 -3.3953 1.0417 0.9800
0.1601 4.7903 1.0105 0.9806
-3.9777 -2.8630 0.9484 0.9802
-3.4140 -3.5301 0.9504 0.9802
-4.3196 -2.8258 0.9989 0.9792
-3.4837 -3.2949 0.9279 0.9807
-3.8600 -2.7783 0.8386 0.9809
-0.0527 4.7323 0.8345 0.9810
-4.1325 -2.7034 0.8707 0.9801
-3.6666 -2.8955 0.8238 0.9812
0.1602 4.7902 0.8451 0.9807
-4.3831 -2.5962 0.8112 0.9796
-3.7921 -2.7294 0.7440 0.9813
-3.4562 -2.9887 0.7276 0.9817
-3.2184 -3.9834 0.8155 0.9795
-4.0315 -2.6373 0.7671 0.9807
-3.6070 -2.8484 0.7319 0.9816
0.1602 4.7902 0.7632 0.9808
-4.2662 -2.5269 0.7053 0.9802
-3.1951 -3.3038 0.6537 0.9816
-3.1244 -3.8671 0.7071 0.9801
-0.0527 4.7323 0.6731 0.9811
-3.5496 -2.8031 0.6433 0.9819
-3.2866 -3.1084 0.6434 0.9819
-4.1577 -2.4626 0.6056 0.9807
-3.6664 -2.6389 0.5661 0.9820
-3.3531 -2.8996 0.5555 0.9823
-3.1432 -3.2500 0.5666 0.9819
-3.0456 -3.7696 0.6073 0.9807
-4.6589 -2.4861 0.6618 0.9789
-3.8735 -2.5339 0.5801 0.9815
-3.4979 -2.7623 0.5585 0.9822
-3.2388 -3.0632 0.5586 0.9822
-3.1710 -4.3038 0.6699 0.9787
-4.0806 -2.4170 0.5144 0.9811
-3.6285 -2.6116 0.4849 0.9822
-3.3211 -2.8718 0.4762 0.9825
-3.1108 -3.2166 0.4854 0.9822
-2.9892 -3.6998 0.5159 0.9810
-0.0527 4.7324 0.5133 0.9811
-3.8250 -2.5022 0.4958 0.9818
-3.4643 -2.7357 0.4788 0.9824
-3.2076 -3.0337 0.4789 0.9824
-3.0334 -3.4299 0.4967 0.9817
0.1602 4.7901 0.5199 0.9809
-3.0792 -3.1839 0.4061 0.9824
-0.0527 4.7324 0.4339 0.9812
-4.3831 -2.3389 0.4555 0.9802
-3.7800 -2.4728 0.4141 0.9820
-3.4313 -2.7097 0.4008 0.9826
-2.9612 -4.0189 0.4577 0.9801
0.1602 4.7900 0.4394 0.9809
-3.5555 -2.5591 0.3283 0.9826
-3.0484 -3.1520 0.3286 0.9826
-2.9118 -3.6040 0.3472 0.9816
-0.0527 4.7324 0.3547 0.9812
-4.3075 -2.2986 0.3659 0.9806
-3.3992 -2.6843 0.3246 0.9828
-2.9028 -3.9397 0.3667 0.9806
-4.8356 -2.3098 0.3121 0.9788
-3.5238 -2.5363 0.2529 0.9828
-3.2329 -2.7956 0.2489 0.9830
-0.0527 4.7324 0.2757 0.9812
-3.7056 -2.4241 0.2579 0.9824
-2.8587 -3.8799 0.2807 0.9809
-4.6749 -2.2330 0.2154 0.9795
-3.5044 -2.5223 0.1795 0.9829
-2.8596 -3.5393 0.1892 0.9819
-2.9135 -4.3472 0.2176 0.9793
-0.0527 4.7324 0.1968 0.9812
-3.6848 -2.4105 0.1831 0.9825
-3.3541 -2.6487 0.1777 0.9830
-2.9189 -3.3005 0.1832 0.9825
-2.8326 -3.8444 0.1986 0.9811
-3.8839 -2.3004 0.1126 0.9821
-3.2000 -2.7671 0.1055 0.9832
-2.9883 -3.0899 0.1072 0.9829
-2.8411 -3.5165 0.1127 0.9821
-2.8579 -4.2643 0.1280 0.9797
-0.0527 4.7324 0.1180 0.9812
-4.1675 -2.2239 0.1178 0.9813
-3.6643 -2.3970 0.1092 0.9826
-4.5564 -2.1764 0.0420 0.9800
-3.8589 -2.2856 0.0373 0.9822
-3.4663 -2.4949 0.0355 0.9831
-3.1838 -2.7531 0.0350 0.9833
-2.8227 -4.2118 0.0421 0.9799
-0.0527 4.7324 0.0393 0.9812
-4.1332 -2.2055 0.0389 0.9814
-3.0741 -2.9075 0.0352 0.9832
-2.8866 -3.2640 0.0362 0.9827
0.1602 4.7899 0.0398 0.9810
-3.8342 -2.2710 -0.0370 0.9823
-3.1678 -2.7393 -0.0348 0.9834
-0.0527 4.7325 -0.0393 0.9812
-4.0994 -2.1875 -0.0386 0.9816
-3.6239 -2.3706 -0.0360 0.9828
-3.0585 -2.8928 -0.0350 0.9833
-2.8707 -3.2460 -0.0360 0.9828
-3.1590 -2.7317 -0.1042 0.9834
-2.7958 -3.4604 -0.1109 0.9824
-2.7729 -4.1376 -0.1242 0.9803
-4.0828 -2.1786 -0.1154 0.9817
-3.2940 -2.6012 -0.1047 0.9833
-2.8624 -3.2366 -0.1078 0.9829
-2.7526 -3.7358 -0.1157 0.9816
-4.4568 -2.1288 -0.2054 0.9804
-3.8136 -2.2588 -0.1843 0.9824
-3.4314 -2.4697 -0.1758 0.9832
-3.1539 -2.7272 -0.1734 0.9834
-2.9423 -3.0422 -0.1760 0.9832
-3.0451 -2.8800 -0.1743 0.9834
-2.8573 -3.2308 -0.1793 0.9829
-2.7453 -3.7260 -0.1924 0.9816
-4.4390 -2.1203 -0.2865 0.9805
-3.8057 -2.2541 -0.2576 0.9824
-3.1487 -2.7228 -0.2424 0.9835
-0.0527 4.7325 -0.2757 0.9812
-3.2831 -2.5927 -0.2437 0.9834
0.1601 4.7897 -0.2791 0.9810
-4.4214 -2.1119 -0.3672 0.9805
-3.4194 -2.4611 -0.3157 0.9832
-4.0504 -2.1613 -0.3440 0.9818
-3.2778 -2.5884 -0.3130 0.9834
-3.0351 -2.8706 -0.3131 0.9834
-3.7909 -2.2454 -0.4039 0.9825
-3.4134 -2.4568 -0.3856 0.9832
-2.9268 -3.0263 -0.3860 0.9832
-2.7736 -3.4329 -0.4046 0.9824
-2.7433 -4.0933 -0.4517 0.9804
-0.0527 4.7325 -0.4339 0.9812
-4.0455 -2.1587 -0.4204 0.9818
-3.5875 -2.3468 -0.3930 0.9829
-3.0301 -2.8658 -0.3824 0.9834
-2.7279 -3.7023 -0.4216 0.9817
0.1601 4.7897 -0.4393 0.9809
-3.7990 -2.2501 -0.4789 0.9824
-3.4171 -2.4595 -0.4567 0.9832
-3.1408 -2.7159 -0.4504 0.9834
-2.9301 -3.0297 -0.4572 0.9832
-2.7794 -3.4401 -0.4797 0.9824
-4.0566 -2.1646 -0.4987 0.9817
-3.5928 -2.3503 -0.4657 0.9829
-3.2752 -2.5864 -0.4527 0.9833
-3.0327 -2.8683 -0.4528 0.9833
-3.8071 -2.2550 -0.5545 0.9823
-3.1461 -2.7205 -0.5212 0.9834
-2.9354 -3.0351 -0.5291 0.9831
-2.7854 -3.4475 -0.5554 0.9823
-3.2807 -2.5907 -0.5239 0.9833
-2.8516 -3.2243 -0.5394 0.9828
-2.7427 -3.7224 -0.5794 0.9815
-4.4814 -2.1406 -0.7064 0.9801
-3.1514 -2.7251 -0.5926 0.9833
-2.9407 -3.0406 -0.6017 0.9831
-2.7913 -3.4548 -0.6317 0.9822
-3.0430 -2.8780 -0.5957 0.9832
-2.8568 -3.2303 -0.6134 0.9827
-2.7503 -3.7326 -0.6595 0.9814
0.1601 4.7895 -0.6816 0.9808
-3.8236 -2.2647 -0.7076 0.9822
-2.9460 -3.0462 -0.6748 0.9830
-2.7973 -3.4623 -0.7088 0.9821
-2.8071 -4.1884 -0.8029 0.9798
-4.0905 -2.1827 -0.7383 0.9814
-3.0482 -2.8830 -0.6681 0.9831
-2.7579 -3.7430 -0.7403 0.9813
-4.5945 -2.1946 -0.8978 0.9795
-3.8427 -2.2760 -0.7875 0.9820
-3.4434 -2.4784 -0.7481 0.9829
-3.1621 -2.7344 -0.7371 0.9832
-2.8475 -4.2488 -0.9019 0.9794
-0.0527 4.7326 -0.8345 0.9810
-3.6240 -2.3707 -0.7636 0.9826
-2.7830 -3.7772 -0.8273 0.9811
-3.8702 -2.2923 -0.8705 0.9818
-3.4640 -2.4932 -0.8259 0.9828
-3.1790 -2.7490 -0.8133 0.9830
-2.8315 -3.5045 -0.8719 0.9818
-2.9091 -4.3407 -1.0112 0.9789
13.3936 6.0348 -2.8428 0.9419
11.3297 9.3643 -2.8445 0.9419
10.4534 10.3375 -2.8450 0.9419
6.1943 13.3484 -2.8477 0.9418
3.7315 14.2429 -2.8493 0.9418
-0.0527 4.7326 -0.9159 0.9809
-4.1662 -2.2231 -0.9138 0.9809
-3.6461 -2.3852 -0.8432 0.9824
-3.3160 -2.6186 -0.8177 0.9829
-2.8089 -3.8123 -0.9164 0.9809
13.1119 6.6258 -2.8430 0.9419
12.4712 7.7671 -2.8432 0.9419
11.7346 8.8495 -2.8442 0.9419
8.9852 11.6425 -2.8460 0.9418
3.0937 14.3970 -2.8497 0.9418
0.1601 4.7894 -0.9274 0.9807
-14.2006 0.0000 -2.9938 0.9436
-13.8365 -2.4928 -2.9640 0.9441
-13.1777 -4.9074 -2.9645 0.9441
-3.8983 -2.3090 -0.9552 0.9816
-2.9882 -3.0898 -0.9062 0.9826
-7.8599 -11.7278 -2.9764 0.9439
-5.6632 -12.9520 -2.9802 0.9439
-3.2808 -13.7668 -2.9836 0.9438
-0.7892 -14.1540 -2.9886 0.9437
0.4741 -14.1802 -2.9911 0.9436
8.6812 -11.2486 -2.9955 0.9436
10.5366 -9.5298 -2.9951 0.9436
11.3424 -8.5537 -2.9949 0.9436
12.0581 -7.5099 -2.9948 0.9436
12.6783 -6.4066 -2.9947 0.9436
13.1979 -5.2526 -2.9946 0.9436
13.6128 -4.0570 -2.9946 0.9436
13.9198 -2.8293 -2.9946 0.9436
14.1165 -1.5792 -2.9946 0.9436
14.2012 -0.3165 -2.9946 0.9436
14.1734 0.9488 -2.9947 0.9436
13.7818 3.4471 -2.9950 0.9436
13.4211 4.6603 -2.9952 0.9436
11.7545 6.6130 -2.8433 0.9464
11.1202 7.6336 -2.8436 0.9464
10.4020 8.5975 -2.8450 0.9463
9.5972 9.4909 -2.8455 0.9463
7.7656 11.0466 -2.8467 0.9463
6.7530 11.6966 -2.8473 0.9463
5.6865 12.2541 -2.8480 0.9463
4.5744 12.7147 -2.8487 0.9463
3.4254 13.0747 -2.8494 0.9462
2.2487 13.3311 -2.8502 0.9462
1.0535 13.4818 -2.8509 0.9462
-0.0527 4.7326 -0.9978 0.9808
-1.3543 13.4620 -2.8524 0.9462
-2.5469 13.2872 -2.8522 0.9462
-3.7157 12.9947 -2.8493 0.9462
-5.1158 13.2828 -3.0008 0.9435
-6.2783 12.7760 -3.0011 0.9435
-9.4329 10.6660 -3.0018 0.9435
-11.1760 8.8256 -3.0022 0.9434
-11.9177 7.7963 -3.0023 0.9434
-13.1121 5.5600 -3.0025 0.9434
-13.5551 4.3710 -3.0026 0.9434
-13.8905 3.1472 -3.0026 0.9434
-14.2281 0.6344 -3.0026 0.9434
-14.0616 -0.6270 -2.9674 0.9441
-13.7120 -3.1067 -2.9640 0.9441
-13.3823 -4.3152 -2.9643 0.9441
-12.9477 -5.4903 -2.9649 0.9441
-4.2059 -2.2443 -1.0050 0.9807
-3.3346 -2.6333 -0.8958 0.9828
-2.8354 -3.8483 -1.0077 0.9806
-6.2327 -12.6832 -2.9793 0.9439
-5.0820 -13.1950 -2.9809 0.9438
-3.8892 -13.6014 -2.9824 0.9438
-2.6654 -13.9050 -2.9848 0.9438
-0.1580 -14.1812 -2.9899 0.9437
1.1058 -14.1511 -2.9924 0.9436
2.3630 -14.0085 -2.9950 0.9436
4.8117 -13.3742 -2.9965 0.9436
7.1054 -12.3068 -2.9959 0.9436
9.1733 -10.8503 -2.9954 0.9436
10.1020 -9.9900 -2.9952 0.9436
12.3805 -6.9651 -2.9948 0.9436
12.9509 -5.8354 -2.9947 0.9436
13.4186 -4.6594 -2.9946 0.9436
14.0320 -2.2064 -2.9946 0.9436
14.2014 0.3165 -2.9947 0.9436
14.1173 1.5793 -2.9948 0.9436
12.0370 6.0826 -2.8432 0.9464
8.2491 10.6886 -2.8464 0.9463
7.2666 11.3829 -2.8470 0.9463
0.1601 4.7894 -1.0103 0.9806
-3.1347 13.1539 -2.8508 0.9462
-5.7027 13.0424 -3.0009 0.9435
-6.8415 12.4842 -3.0012 0.9435
-11.5583 8.3192 -3.0023 0.9434
-12.2535 7.2577 -3.0024 0.9434
-13.3469 4.9704 -3.0026 0.9434
-13.1472 0.0000 -3.0008 0.9475
-12.7902 -2.3043 -2.9663 0.9481
-12.5350 -3.4337 -2.9664 0.9481
-12.1811 -4.5363 -2.9668 0.9481
-11.7313 -5.6035 -2.9674 0.9481
-3.5063 -2.5237 -0.9860 0.9824
-3.0065 -3.1087 -0.9871 0.9824
-6.2699 -11.4411 -2.9778 0.9479
-5.2303 -11.9620 -2.9798 0.9478
-1.8884 -12.9477 -2.9865 0.9477
0.4379 -13.0979 -2.9912 0.9477
1.6032 -13.0173 -2.9936 0.9476
3.8900 -12.5402 -2.9968 0.9476
6.0507 -11.6497 -2.9962 0.9476
7.0630 -11.0640 -2.9960 0.9476
9.7332 -8.8031 -2.9954 0.9476
11.7116 -5.9181 -2.9950 0.9476
12.5749 -3.7477 -2.9949 0.9476
13.0402 -1.4588 -2.9949 0.9476
12.7309 3.1842 -2.9953 0.9476
10.8580 6.1086 -2.8435 0.9502
10.2720 7.0514 -2.8438 0.9502
9.6168 7.9428 -2.8455 0.9501
8.8659 8.7677 -2.8460 0.9501
8.0518 9.5237 -2.8465 0.9501
7.1736 10.2046 -2.8470 0.9501
5.2529 11.3196 -2.8483 0.9501
-1.2508 12.4340 -2.8523 0.9500
-3.4325 12.0041 -2.8497 0.9501
-4.7250 12.2681 -3.0006 0.9475
-8.7121 9.8510 -3.0016 0.9475
-9.5549 9.0370 -3.0018 0.9475
-11.0069 7.2004 -3.0021 0.9475
-11.6045 6.1924 -3.0022 0.9475
-12.1099 5.1351 -3.0022 0.9475
-12.8288 2.9066 -3.0023 0.9475
-13.0365 1.7533 -3.0023 0.9475
-12.6751 -2.8718 -2.9663 0.9481
-12.3702 -3.9889 -2.9666 0.9481
-11.9680 -5.0749 -2.9670 0.9481
-4.2589 -2.2726 -1.1018 0.9804
-3.6916 -2.4150 -1.0069 0.9821
-3.3537 -2.6484 -0.9754 0.9826
-2.9244 -3.3067 -1.0075 0.9821
-6.7711 -11.1468 -2.9768 0.9479
-4.6939 -12.1875 -2.9809 0.9478
-3.5932 -12.5661 -2.9831 0.9478
-2.4623 -12.8457 -2.9853 0.9478
-0.1459 -13.0992 -2.9900 0.9477
2.1824 -12.9380 -2.9947 0.9476
3.3277 -12.7017 -2.9969 0.9476
4.4446 -12.3539 -2.9966 0.9476
6.5634 -11.3681 -2.9961 0.9476
10.1154 -8.3606 -2.9953 0.9476
11.9635 -5.3904 -2.9950 0.9476
12.3956 -4.3042 -2.9949 0.9476
12.9622 -2.0382 -2.9949 0.9476
13.0923 -0.8764 -2.9949 0.9476
13.1186 0.2924 -2.9950 0.9476
13.0409 1.4589 -2.9951 0.9476
12.8598 2.6139 -2.9952 0.9476
12.5768 3.7483 -2.9953 0.9476
12.1939 4.8531 -2.9955 0.9476
10.5755 6.5865 -2.8437 0.9502
9.2469 8.3633 -2.8457 0.9501
7.6203 9.8739 -2.8468 0.9501
6.7126 10.5151 -2.8473 0.9501
3.6985 11.9228 -2.8492 0.9501
2.6233 12.2076 -2.8499 0.9501
-0.6956 12.4759 -2.8520 0.9500
-2.8957 12.1507 -2.8510 0.9500
-3.9620 11.8338 -2.8483 0.9501
-5.2670 12.0461 -3.0008 0.9475
-7.3206 10.9231 -3.0013 0.9475
-9.1426 9.4534 -3.0017 0.9475
-9.9483 8.6026 -3.0018 0.9475
-11.8690 5.6694 -3.0022 0.9475
-12.9455 2.3323 -3.0023 0.9475
-13.1016 1.1708 -3.0023 0.9475
-12.2130 0.0000 -3.0020 0.9509
-11.6474 -3.1906 -2.9684 0.9515
-11.3185 -4.2151 -2.9687 0.9515
-3.9750 -2.3544 -1.1356 0.9812
-3.0253 -3.1281 -1.0696 0.9822
-2.9080 -3.5993 -1.1374 0.9811
-4.8581 -11.1107 -2.9807 0.9513
-1.7537 -12.0244 -2.9869 0.9512
0.4067 -12.1626 -2.9912 0.9511
1.4887 -12.0870 -2.9934 0.9511
3.6123 -11.6450 -2.9969 0.9510
4.6341 -11.2763 -2.9966 0.9510
5.6189 -10.8182 -2.9964 0.9510
6.5589 -10.2744 -2.9962 0.9510
10.3440 -6.4423 -2.9953 0.9510
10.8760 -5.4959 -2.9953 0.9510
11.3218 -4.5059 -2.9952 0.9510
11.9411 -2.4271 -2.9951 0.9510
11.5130 3.9978 -2.9956 0.9510
11.1121 5.0069 -2.9958 0.9510
10.0832 5.6727 -2.8437 0.9535
9.5389 6.5481 -2.8439 0.9535
8.9189 7.3717 -2.8442 0.9535
7.4776 8.8446 -2.8468 0.9534
5.7931 10.0340 -2.8479 0.9534
2.9382 11.2150 -2.8497 0.9534
1.9288 11.4346 -2.8503 0.9534
-0.0527 4.7326 -1.1633 0.9807
-2.1846 11.3972 -2.8524 0.9533
-3.1876 11.1479 -2.8500 0.9534
-6.3385 10.4346 -3.0010 0.9510
-7.2426 9.8298 -3.0012 0.9510
-8.8718 8.3909 -3.0015 0.9509
-11.2440 4.7679 -3.0020 0.9509
-11.6239 3.7482 -3.0020 0.9509
-11.9114 2.6988 -3.0020 0.9509
-12.0934 -0.5392 -2.9755 0.9514
-11.9683 -1.6096 -2.9683 0.9515
-11.7777 -2.6684 -2.9683 0.9515
-11.1204 -4.7155 -2.9690 0.9515
-3.7205 -2.4338 -1.0928 0.9819
-3.3731 -2.6637 -1.0565 0.9825
-2.9474 -3.3327 -1.0936 0.9818
-3.3372 -11.6710 -2.9837 0.9512
-2.2868 -11.9300 -2.9858 0.9512
-0.1355 -12.1641 -2.9901 0.9511
2.0264 -12.0130 -2.9945 0.9511
3.0900 -11.7942 -2.9968 0.9510
4.1273 -11.4720 -2.9968 0.9510
5.1316 -11.0582 -2.9965 0.9510
6.0949 -10.5568 -2.9963 0.9510
7.0099 -9.9717 -2.9961 0.9510
9.3936 -7.7640 -2.9955 0.9510
10.0469 -6.8968 -2.9954 0.9510
10.6206 -5.9750 -2.9953 0.9510
11.1099 -5.0059 -2.9952 0.9510
11.5112 -3.9971 -2.9952 0.9510
11.8212 -2.9567 -2.9951 0.9510
12.1827 0.2715 -2.9952 0.9510
10.8784 5.4971 -2.9959 0.9510
7.8635 8.5020 -2.8466 0.9534
7.0768 9.1697 -2.8471 0.9534
5.3409 10.2831 -2.8482 0.9534
3.4345 11.0718 -2.8494 0.9534
2.4360 11.3360 -2.8500 0.9534
1.4176 11.5104 -2.8506 0.9534
-0.6459 11.5846 -2.8519 0.9533
-1.6748 11.4837 -2.8525 0.9533
-2.6890 11.2836 -2.8512 0.9533
-4.8906 11.1851 -3.0006 0.9510
-5.8672 10.7063 -3.0008 0.9510
-6.7973 10.1423 -3.0011 0.9510
-8.4890 8.7775 -3.0015 0.9509
-11.0203 5.2640 -3.0019 0.9509
-12.0198 2.1655 -3.0020 0.9509
-12.1647 1.0871 -3.0020 0.9509
-11.3918 0.0000 -3.0017 0.9540
-11.2270 -1.0032 -2.9701 0.9544
-11.0928 -1.9984 -2.9700 0.9544
-10.8714 -2.9780 -2.9701 0.9544
-10.5643 -3.9342 -2.9705 0.9544
-10.1739 -4.8597 -2.9710 0.9544
-4.0332 -2.3889 -1.2352 0.9808
-3.5703 -2.5697 -1.1591 0.9820
-2.9504 -3.6517 -1.2371 0.9808
-5.4344 -9.9165 -2.9796 0.9543
-1.6361 -11.2179 -2.9872 0.9542
-0.6316 -11.3266 -2.9892 0.9542
5.2417 -10.0920 -2.9965 0.9540
6.9470 -9.0015 -2.9961 0.9541
7.7202 -8.3470 -2.9960 0.9541
11.1399 -2.2643 -2.9954 0.9541
11.2972 -1.2638 -2.9954 0.9541
11.3651 -0.2533 -2.9954 0.9541
11.0291 2.7586 -2.9957 0.9541
9.6393 5.4230 -2.9143 0.9553
8.8986 6.1086 -2.8441 0.9563
8.3202 6.8768 -2.8443 0.9563
7.6810 7.5960 -2.8465 0.9563
6.9760 8.2513 -2.8471 0.9563
6.2150 8.8409 -2.8476 0.9563
3.6605 10.1745 -2.8492 0.9563
2.7409 10.4621 -2.8498 0.9562
0.8429 10.7867 -2.8510 0.9562
-0.0527 4.7326 -1.2471 0.9806
-1.0834 10.7698 -2.8522 0.9562
-2.0379 10.6319 -2.8525 0.9562
-3.8845 10.0859 -2.8479 0.9563
-5.0223 10.2201 -3.0006 0.9540
-9.5327 6.2360 -3.0016 0.9540
-10.8422 3.4962 -3.0018 0.9540
-11.1104 2.5173 -3.0018 0.9540
-11.2903 1.5184 -3.0018 0.9540
-11.3806 0.5075 -3.0018 0.9540
-11.3072 -0.5042 -2.9824 0.9543
-10.7284 -3.4595 -2.9703 0.9544
-3.7661 -2.4637 -1.1858 0.9816
-3.4078 -2.6911 -1.1442 0.9822
-3.1555 -2.9844 -1.1445 0.9822
-3.0205 -4.0995 -1.3418 0.9792
-5.8690 -9.6618 -2.9788 0.9543
-4.9887 -10.1517 -2.9805 0.9543
-2.1335 -11.1301 -2.9862 0.9542
-1.1351 -11.2834 -2.9882 0.9542
-0.1264 -11.3474 -2.9902 0.9541
2.8822 -11.0013 -2.9967 0.9540
4.7871 -10.3159 -2.9967 0.9540
5.6858 -9.8481 -2.9964 0.9540
8.0842 -7.9946 -2.9959 0.9541
10.3644 -4.6700 -2.9954 0.9541
11.0280 -2.7583 -2.9954 0.9541
11.2297 -1.7658 -2.9954 0.9541
10.8955 3.2472 -2.9958 0.9541
10.5638 4.2043 -2.9959 0.9541
8.0059 7.2409 -2.8444 0.9563
5.8155 9.1098 -2.8479 0.9563
4.9825 9.5930 -2.8484 0.9563
4.1097 10.0004 -2.8489 0.9563
2.2724 10.5748 -2.8501 0.9562
1.3225 10.7374 -2.8507 0.9562
0.1601 4.7893 -1.2627 0.9804
-2.5085 10.5263 -2.8514 0.9562
-4.5619 10.4332 -3.0005 0.9540
-6.3403 9.4605 -3.0009 0.9540
-8.6159 7.4505 -3.0014 0.9540
-9.2453 6.6544 -3.0015 0.9540
-9.8012 5.8053 -3.0016 0.9540
-10.6757 3.9757 -3.0018 0.9540
-11.2115 2.0199 -3.0018 0.9540
-11.3467 1.0140 -3.0018 0.9540
-10.6681 0.0000 -3.0015 0.9566
-10.5286 -0.9408 -2.9741 0.9570
-9.8989 -3.6864 -2.9720 0.9571
-9.5330 -4.5535 -2.9724 0.9571
-4.0999 -2.4284 -1.3407 0.9804
-3.3019 -2.8553 -1.2282 0.9820
-5.8943 -8.7949 -2.9788 0.9570
-5.0908 -9.2895 -2.9804 0.9569
-3.3669 -10.0564 -2.9838 0.9569
-2.4599 -10.3224 -2.9856 0.9569
-1.5324 -10.5070 -2.9875 0.9568
-0.5915 -10.6085 -2.9894 0.9568
2.2368 -10.4091 -2.9955 0.9567
4.0487 -9.8521 -2.9969 0.9567
7.8974 -7.1427 -2.9960 0.9567
9.8924 -3.9371 -2.9956 0.9567
10.6445 -0.2372 -2.9956 0.9567
10.6236 0.7112 -2.9957 0.9567
10.5184 1.6539 -2.9958 0.9567
10.3298 2.5837 -2.9959 0.9567
10.0593 3.4930 -2.9960 0.9567
9.7090 4.3747 -2.9962 0.9567
9.2816 5.2217 -2.9963 0.9567
2.5671 9.7984 -2.8499 0.9588
0.7894 10.1022 -2.8510 0.9588
-1.0146 10.0861 -2.8521 0.9588
-2.7852 9.7407 -2.8504 0.9588
-3.6385 9.4471 -2.8483 0.9588
-5.5369 9.1151 -3.0007 0.9567
-6.3266 8.5866 -3.0008 0.9566
-8.3716 6.6110 -3.0013 0.9566
-8.9271 5.8399 -3.0014 0.9566
-9.8216 4.1647 -3.0015 0.9566
-10.4046 2.3574 -3.0016 0.9566
-10.6576 0.4752 -3.0016 0.9566
-10.6260 -0.4738 -2.9927 0.9568
-10.4674 -1.4077 -2.9716 0.9571
-10.3006 -2.3338 -2.9716 0.9571
-10.0527 -3.2416 -2.9718 0.9571
-9.7255 -4.1240 -2.9722 0.9571
-9.3216 -4.9742 -2.9727 0.9570
-3.8190 -2.4982 -1.2840 0.9812
-3.0293 -3.4253 -1.2866 0.9812
-6.2786 -8.5214 -2.9781 0.9570
-5.4981 -9.0511 -2.9796 0.9569
-4.6732 -9.5097 -2.9812 0.9569
-3.8104 -9.8935 -2.9829 0.9569
-2.9164 -10.1995 -2.9847 0.9569
-1.9983 -10.4250 -2.9865 0.9569
-1.0632 -10.5681 -2.9884 0.9568
0.8286 -10.6034 -2.9924 0.9568
2.6992 -10.3026 -2.9965 0.9567
4.4835 -9.6616 -2.9968 0.9567
5.3252 -9.2236 -2.9966 0.9567
9.7073 -4.3739 -2.9956 0.9567
10.0579 -3.4925 -2.9956 0.9567
10.3288 -2.5834 -2.9956 0.9567
10.5177 -1.6538 -2.9956 0.9567
10.5815 1.1837 -2.9957 0.9567
9.5047 4.8029 -2.9962 0.9567
8.5806 5.3440 -2.8441 0.9589
7.4981 6.7817 -2.8445 0.9589
6.1837 8.0124 -2.8476 0.9588
4.6666 8.9848 -2.8486 0.9588
3.8491 9.3662 -2.8491 0.9588
3.0007 9.6734 -2.8496 0.9588
2.1283 9.9040 -2.8502 0.9588
-0.5643 10.1203 -2.8518 0.9588
-1.4631 10.0318 -2.8524 0.9587
-4.2721 9.7707 -3.0003 0.9567
-8.6580 6.2317 -3.0013 0.9566
-9.6262 4.5981 -3.0015 0.9566
-10.2892 2.8185 -3.0016 0.9566
-10.4993 1.8916 -3.0016 0.9566
-10.6259 0.9496 -3.0016 0.9566
-10.0252 0.0000 -3.0014 0.9590
-9.9053 -0.8851 -2.9773 0.9593
-9.7729 -1.7607 -2.9729 0.9594
-9.5778 -2.6236 -2.9730 0.9594
-9.3071 -3.4660 -2.9733 0.9594
-3.6591 -2.6336 -1.3497 0.9814
-3.3398 -2.8880 -1.3218 0.9817
-3.1373 -3.2439 -1.3510 0.9813
-3.1017 -3.8391 -1.4776 0.9796
-5.5410 -8.2676 -2.9797 0.9593
-4.7854 -8.7323 -2.9811 0.9593
-2.3122 -9.7024 -2.9860 0.9592
-0.5560 -9.9708 -2.9897 0.9592
1.2223 -9.9241 -2.9935 0.9591
2.9661 -9.5618 -2.9972 0.9591
4.6139 -8.8832 -2.9968 0.9591
6.7957 -7.3474 -2.9963 0.9591
8.9313 -4.5132 -2.9959 0.9591
9.5897 -2.8580 -2.9958 0.9591
9.9446 -1.1125 -2.9958 0.9591
10.0042 -0.2229 -2.9958 0.9591
9.8857 1.5544 -2.9959 0.9591
9.7085 2.4282 -2.9960 0.9591
7.8328 5.3769 -2.8443 0.9611
7.3236 6.0531 -2.8445 0.9611
6.7563 6.6814 -2.8447 0.9611
6.1405 7.2630 -2.8474 0.9611
5.4711 7.7827 -2.8481 0.9611
4.0057 8.6321 -2.8490 0.9610
2.4126 9.2088 -2.8500 0.9610
0.7419 9.4941 -2.8510 0.9610
-0.0527 4.7327 -1.4170 0.9804
-0.9535 9.4787 -2.8520 0.9610
-2.6177 9.1549 -2.8506 0.9610
-3.4198 8.8793 -2.8486 0.9610
-5.2033 8.5660 -3.0005 0.9590
-6.6404 7.5085 -3.0009 0.9590
-7.2827 6.8880 -3.0010 0.9590
-7.8672 6.2127 -3.0011 0.9590
-8.3892 5.4880 -3.0012 0.9590
-8.8446 4.7196 -3.0013 0.9590
-9.2296 3.9138 -3.0014 0.9590
-9.5416 3.0768 -3.0014 0.9590
-9.7776 2.2153 -3.0014 0.9590
-9.9360 1.3363 -3.0014 0.9590
-9.6849 -2.1943 -2.9730 0.9594
-9.4518 -3.0478 -2.9732 0.9594
-9.1441 -3.8774 -2.9735 0.9594
-8.7642 -4.6767 -2.9740 0.9594
-3.4861 -2.7530 -1.3299 0.9816
-3.2279 -3.0530 -1.3301 0.9816
-2.7413 -9.5869 -2.9852 0.9592
-0.9993 -9.9330 -2.9888 0.9592
2.5366 -9.6820 -2.9964 0.9591
5.0048 -8.6686 -2.9967 0.9591
5.7562 -8.1883 -2.9965 0.9591
6.4618 -7.6430 -2.9963 0.9591
7.7138 -6.3756 -2.9961 0.9591
8.2504 -5.6636 -2.9960 0.9591
8.7215 -4.9066 -2.9959 0.9591
9.8851 -1.5543 -2.9958 0.9591
9.9843 -0.6683 -2.9958 0.9591
9.9450 1.1125 -2.9959 0.9591
9.8068 1.9933 -2.9960 0.9591
8.9329 4.5140 -2.9964 0.9591
6.4522 6.9760 -2.8448 0.9611
5.8118 7.5306 -2.8478 0.9611
3.6175 8.8027 -2.8492 0.9610
2.8202 9.0913 -2.8497 0.9610
0.1601 4.7892 -1.4346 0.9802
-4.8164 8.7889 -3.0004 0.9590
-5.5799 8.3259 -3.0006 0.9590
-6.2992 7.7967 -3.0008 0.9590
-9.0462 4.3210 -3.0013 0.9590
-9.3950 3.4988 -3.0014 0.9590
-9.6692 2.6487 -3.0014 0.9590
-9.3456 -0.8351 -2.9799 0.9614
-8.7772 -3.2687 -2.9745 0.9615
-8.4526 -4.0375 -2.9749 0.9614
-3.7330 -2.6869 -1.4607 0.9809
-3.2505 -4.0232 -1.6426 0.9785
-2.9839 -8.9125 -2.9849 0.9613
-1.3579 -9.3107 -2.9882 0.9613
-0.5241 -9.4001 -2.9900 0.9613
0.3148 -9.4151 -2.9918 0.9612
1.1522 -9.3554 -2.9936 0.9612
1.9815 -9.2213 -2.9954 0.9612
4.3495 -8.3743 -2.9969 0.9612
5.0773 -7.9535 -2.9967 0.9612
6.9972 -6.3286 -2.9963 0.9612
8.0079 -4.9873 -2.9961 0.9612
8.4198 -4.2547 -2.9960 0.9612
9.0405 -2.6944 -2.9959 0.9612
9.4313 -0.2102 -2.9960 0.9612
9.4127 0.6301 -2.9960 0.9612
8.9127 3.0948 -2.9963 0.9612
8.2235 4.6265 -2.9966 0.9612
7.5216 5.1633 -2.8974 0.9624
6.3692 6.2986 -2.8448 0.9631
5.7837 6.8410 -2.8450 0.9631
4.4850 7.7682 -2.8487 0.9631
2.2744 8.6811 -2.8500 0.9630
1.4929 8.8506 -2.8505 0.9630
0.6994 8.9499 -2.8510 0.9630
-0.8989 8.9352 -2.8520 0.9630
-3.2241 8.3712 -2.8489 0.9631
-4.9049 8.0746 -3.0004 0.9611
-6.2596 7.0778 -3.0007 0.9611
-7.9079 5.1731 -3.0011 0.9611
-8.7003 3.6892 -3.0012 0.9611
-9.2166 2.0882 -3.0013 0.9611
-9.3659 1.2596 -3.0013 0.9611
-9.2814 -1.2482 -2.9742 0.9615
-9.1335 -2.0694 -2.9742 0.9615
-3.9864 -2.6077 -1.5128 0.9802
-3.5443 -2.7989 -1.4343 0.9812
-3.2818 -3.1039 -1.4346 0.9812
-3.3771 -8.7684 -2.9841 0.9613
-2.5846 -9.0390 -2.9857 0.9613
-1.7708 -9.2383 -2.9874 0.9613
-0.9421 -9.3647 -2.9891 0.9613
0.7341 -9.3946 -2.9927 0.9612
1.5683 -9.2976 -2.9945 0.9612
2.3911 -9.1266 -2.9963 0.9612
5.4264 -7.7192 -2.9966 0.9612
6.7085 -6.6341 -2.9963 0.9612
7.2720 -6.0105 -2.9962 0.9612
7.7779 -5.3392 -2.9961 0.9612
8.2220 -4.6256 -2.9960 0.9612
8.6009 -3.8754 -2.9960 0.9612
8.9116 -3.0944 -2.9959 0.9612
9.1516 -2.2889 -2.9959 0.9612
9.3190 -1.4653 -2.9959 0.9612
9.3754 1.0488 -2.9961 0.9612
9.2451 1.8792 -2.9961 0.9612
8.4212 4.2554 -2.9965 0.9612
8.0094 4.9883 -2.9967 0.9612
6.0825 6.5763 -2.8449 0.9631
5.4734 7.0921 -2.8451 0.9631
4.8263 7.5603 -2.8486 0.9631
4.1348 7.9608 -2.8489 0.9631
3.4103 8.2985 -2.8493 0.9630
2.6586 8.5705 -2.8498 0.9630
1.8855 8.7746 -2.8503 0.9630
1.0973 8.9091 -2.8508 0.9630
0.1601 4.7892 -1.5218 0.9801
-0.4999 8.9656 -2.8518 0.9630
-4.5402 8.2849 -3.0003 0.9611
-5.2599 7.8483 -3.0005 0.9611
-5.9379 7.3494 -3.0007 0.9611
-7.1475 6.1807 -3.0009 0.9611
-8.1306 4.8158 -3.0011 0.9611
-8.5272 4.0731 -3.0012 0.9611
-8.8560 3.2980 -3.0012 0.9611
-9.1145 2.4967 -3.0013 0.9611
-9.4127 0.8411 -3.0012 0.9611
-8.9322 0.0000 -3.0011 0.9630
-8.7151 -1.5701 -2.9753 0.9633
-8.5411 -2.3396 -2.9754 0.9633
-7.6225 -4.5148 -2.9765 0.9633
-3.8191 -2.7488 -1.5810 0.9803
-3.4633 -2.9948 -1.5383 0.9809
-5.5742 -6.8993 -2.9801 0.9633
-4.9400 -7.3710 -2.9813 0.9632
-4.2662 -7.7848 -2.9826 0.9632
-3.5580 -8.1374 -2.9839 0.9632
-2.8210 -8.4259 -2.9854 0.9632
-2.0609 -8.6480 -2.9870 0.9632
-1.2837 -8.8019 -2.9886 0.9632
1.0892 -8.8433 -2.9936 0.9631
1.8730 -8.7162 -2.9954 0.9631
2.6429 -8.5198 -2.9971 0.9631
7.5697 -4.7144 -2.9962 0.9631
7.9591 -4.0219 -2.9961 0.9631
8.5459 -2.5469 -2.9961 0.9631
8.7387 -1.7762 -2.9961 0.9631
8.8621 -0.9914 -2.9961 0.9631
8.1315 3.6639 -2.9966 0.9631
7.3538 5.0481 -2.9969 0.9631
6.0206 5.9539 -2.8449 0.9649
5.4671 6.4665 -2.8451 0.9649
4.8702 6.9279 -2.8453 0.9649
3.5698 7.6926 -2.8493 0.9648
2.1499 8.2060 -2.8501 0.9648
0.6611 8.4599 -2.8510 0.9648
-0.0527 4.7327 -1.5902 0.9802
-0.8496 8.4458 -2.8520 0.9648
-2.3328 8.1583 -2.8509 0.9648
-3.0477 7.9132 -2.8491 0.9649
-3.9383 8.0141 -3.0001 0.9630
-5.9165 6.6900 -3.0006 0.9630
-7.0095 5.5354 -3.0009 0.9630
-8.9234 0.3979 -3.0011 0.9630
-8.9232 -0.3979 -3.0010 0.9630
-8.7771 -1.1804 -2.9755 0.9633
-8.4286 -2.7179 -2.9755 0.9633
-8.1542 -3.4576 -2.9758 0.9633
-7.8153 -4.1704 -2.9763 0.9633
-3.6187 -2.8577 -1.5492 0.9807
-3.3507 -3.1691 -1.5495 0.9807
-3.2578 -3.6837 -1.6522 0.9795
-5.2623 -7.1421 -2.9807 0.9633
-4.6077 -7.5853 -2.9819 0.9632
-2.4435 -8.5454 -2.9862 0.9632
-1.6741 -8.7336 -2.9878 0.9632
-0.0992 -8.9019 -2.9911 0.9631
0.6939 -8.8804 -2.9928 0.9631
2.2601 -8.6266 -2.9962 0.9631
3.7549 -8.0915 -2.9971 0.9631
5.1295 -7.2968 -2.9967 0.9631
6.8741 -5.6816 -2.9964 0.9631
7.3523 -5.0471 -2.9963 0.9631
7.7721 -4.3725 -2.9962 0.9631
8.6509 -2.1637 -2.9961 0.9631
8.8091 -1.3851 -2.9961 0.9631
8.9154 0.1987 -2.9961 0.9631
8.5468 2.5472 -2.9964 0.9631
8.2865 3.2979 -2.9965 0.9631
7.9604 4.0226 -2.9966 0.9631
5.7496 6.2164 -2.8450 0.9649
5.1738 6.7039 -2.8452 0.9649
1.7823 8.2943 -2.8503 0.9648
0.1601 4.7892 -1.6099 0.9800
-1.2251 8.4003 -2.8522 0.9648
-1.9677 8.2567 -2.8518 0.9648
-3.3961 7.7671 -2.8482 0.9649
-4.9717 7.4183 -3.0004 0.9630
-5.6125 6.9467 -3.0005 0.9630
-6.2088 6.4199 -3.0007 0.9630
-6.7558 5.8420 -3.0008 0.9630
-7.2492 5.2177 -3.0009 0.9630
-7.6851 4.5519 -3.0010 0.9630
-8.3707 3.1173 -3.0011 0.9630
-8.7908 1.5838 -3.0011 0.9630
-8.4632 0.0000 -3.0009 0.9647
-8.4085 -0.7514 -2.9934 0.9648
-8.2606 -1.4882 -2.9763 0.9650
-3.5493 -3.0692 -1.6638 0.9803
-5.2831 -6.5389 -2.9808 0.9650
-4.6819 -6.9858 -2.9819 0.9649
-3.3719 -7.7118 -2.9845 0.9649
-2.6734 -7.9851 -2.9859 0.9649
-1.2165 -8.3409 -2.9889 0.9649
-0.4695 -8.4205 -2.9904 0.9648
1.0320 -8.3794 -2.9937 0.9648
2.5041 -8.0724 -2.9969 0.9648
4.5478 -7.1240 -2.9969 0.9648
6.2675 -5.6686 -2.9965 0.9648
7.1729 -4.4673 -2.9963 0.9648
8.2805 -1.6831 -2.9962 0.9648
8.4479 -0.1882 -2.9962 0.9648
8.4312 0.5644 -2.9963 0.9648
7.7051 3.4718 -2.9967 0.9648
7.3659 4.1440 -2.9968 0.9648
5.7048 5.6417 -2.8449 0.9665
5.1804 6.1274 -2.8451 0.9665
4.0175 6.9584 -2.8491 0.9665
3.3825 7.2892 -2.8494 0.9665
2.7208 7.5626 -2.8498 0.9665
2.0372 7.7758 -2.8502 0.9665
0.6264 8.0161 -2.8511 0.9665
-1.5144 7.9005 -2.8524 0.9664
-2.2103 7.7299 -2.8508 0.9665
-2.8878 7.4980 -2.8490 0.9665
-3.5419 7.2075 -2.8476 0.9665
-5.0193 6.8122 -3.0004 0.9647
-7.7916 3.3040 -3.0009 0.9647
-8.4547 -0.3770 -3.0009 0.9647
-8.1862 -1.8547 -2.9763 0.9650
-7.9891 -2.5761 -2.9765 0.9650
-7.0278 -4.5973 -2.9778 0.9650
-5.5681 -6.2960 -2.9803 0.9650
-3.7113 -7.5523 -2.9838 0.9649
-2.3156 -8.0982 -2.9866 0.9649
-0.8439 -8.3890 -2.9897 0.9648
-0.0940 -8.4353 -2.9912 0.9648
0.6576 -8.4148 -2.9929 0.9648
2.1414 -8.1737 -2.9961 0.9648
3.5579 -7.6672 -2.9972 0.9648
4.2260 -7.3197 -2.9970 0.9648
4.8605 -6.9142 -2.9968 0.9648
6.9668 -4.7825 -2.9964 0.9648
7.3647 -4.1433 -2.9963 0.9648
7.7041 -3.4713 -2.9963 0.9648
8.3473 -1.3125 -2.9962 0.9648
8.4311 -0.5644 -2.9962 0.9648
8.3978 0.9395 -2.9963 0.9648
7.5430 3.8116 -2.9967 0.9648
7.1742 4.4681 -2.9969 0.9648
5.9503 5.3818 -2.8449 0.9665
5.4480 5.8904 -2.8450 0.9665
4.9024 6.3523 -2.8452 0.9665
3.7037 7.1310 -2.8493 0.9665
1.6889 7.8593 -2.8504 0.9665
-0.4477 8.0299 -2.8517 0.9664
-1.1608 7.9595 -2.8522 0.9664
-2.5517 7.6215 -2.8499 0.9665
-4.0662 7.4199 -3.0001 0.9647
-5.3179 6.5820 -3.0004 0.9647
-5.8828 6.0828 -3.0006 0.9647
-6.4011 5.5353 -3.0007 0.9647
-6.8686 4.9438 -3.0008 0.9647
-7.6367 3.6478 -3.0009 0.9647
-7.9311 2.9536 -3.0010 0.9647
-8.1626 2.2360 -3.0010 0.9647
-8.3292 1.5006 -3.0010 0.9647
-8.4297 0.7533 -3.0010 0.9647
-7.8466 -1.4136 -2.9772 0.9665
-7.6899 -2.1064 -2.9773 0.9665
-6.4749 -4.6603 -2.9789 0.9665
-5.5490 -5.7376 -2.9805 0.9665
-5.0179 -6.2107 -2.9815 0.9665
-3.8401 -7.0073 -2.9837 0.9665
-2.5390 -7.5837 -2.9863 0.9664
-1.8548 -7.7832 -2.9877 0.9664
-1.1553 -7.9212 -2.9892 0.9664
-0.4459 -7.9966 -2.9906 0.9664
0.2678 -8.0086 -2.9922 0.9664
1.6852 -7.8423 -2.9953 0.9663
2.3778 -7.6651 -2.9968 0.9663
3.0511 -7.4243 -2.9973 0.9663
4.3186 -6.7650 -2.9970 0.9663
4.9034 -6.3535 -2.9969 0.9663
5.4492 -5.8916 -2.9967 0.9663
6.8115 -4.2423 -2.9965 0.9663
7.1619 -3.6191 -2.9964 0.9663
7.4555 -2.9672 -2.9964 0.9663
7.9745 -0.8921 -2.9963 0.9663
8.0223 -0.1788 -2.9964 0.9663
8.0065 0.5360 -2.9964 0.9663
7.9272 1.2465 -2.9965 0.9663
6.6170 4.5423 -2.9970 0.9663
4.9193 5.8186 -2.8452 0.9680
3.8102 6.5995 -2.8455 0.9680
1.9346 7.3842 -2.8504 0.9679
-0.0527 4.7327 -1.7674 0.9800
-2.0987 7.3395 -2.8505 0.9679
-2.7421 7.1196 -2.8489 0.9679
-3.3632 6.8440 -2.8475 0.9680
-4.1712 6.8668 -3.0001 0.9663
-4.7661 6.4686 -3.0003 0.9663
-6.3064 4.9802 -3.0006 0.9663
-6.7249 4.3992 -3.0007 0.9663
-7.8377 1.7758 -3.0009 0.9663
-7.9646 1.0712 -3.0009 0.9663
-8.0283 0.3580 -3.0008 0.9663
-8.0282 -0.3580 -3.0008 0.9663
-7.9117 -1.0640 -2.9810 0.9665
-7.5886 -2.4470 -2.9774 0.9665
-7.3414 -3.1130 -2.9777 0.9665
-7.0362 -3.7546 -2.9781 0.9665
-3.8800 -3.0639 -1.8461 0.9791
-5.2887 -5.9800 -2.9810 0.9665
-4.1476 -6.8279 -2.9831 0.9665
-3.5249 -7.1728 -2.9844 0.9665
-2.8737 -7.4613 -2.9856 0.9664
-2.1992 -7.6910 -2.9870 0.9664
-1.5066 -7.8599 -2.9884 0.9664
-0.8015 -7.9668 -2.9899 0.9664
0.6244 -7.9908 -2.9929 0.9664
1.3338 -7.9076 -2.9945 0.9663
3.3787 -7.2808 -2.9972 0.9663
4.0131 -6.9509 -2.9971 0.9663
6.6159 -4.5415 -2.9965 0.9663
6.9937 -3.9346 -2.9964 0.9663
7.3160 -3.2964 -2.9964 0.9663
7.5803 -2.6321 -2.9963 0.9663
7.7844 -1.9470 -2.9963 0.9663
7.9268 -1.2464 -2.9963 0.9663
8.0063 -0.5359 -2.9963 0.9663
8.0224 0.1788 -2.9964 0.9663
7.8639 1.5984 -2.9965 0.9663
7.6907 2.2921 -2.9966 0.9663
7.4564 2.9676 -2.9967 0.9663
6.4083 4.8327 -2.9971 0.9663
4.1003 6.4229 -2.8454 0.9680
3.5125 6.7628 -2.8456 0.9680
2.9009 7.0590 -2.8498 0.9679
1.6038 7.4635 -2.8506 0.9679
0.1601 4.7891 -1.7893 0.9797
-1.1023 7.5583 -2.8522 0.9679
-1.7701 7.4278 -2.8513 0.9679
-5.5861 5.7760 -3.0005 0.9663
-7.5310 2.8046 -3.0008 0.9663
-7.7508 2.1232 -3.0009 0.9663
-7.9090 1.4249 -3.0009 0.9663
-8.0044 0.7153 -3.0008 0.9663
-7.6456 0.0000 -3.0007 0.9677
-7.6152 -0.6805 -3.0007 0.9677
-7.4676 -1.3453 -2.9780 0.9679
-7.3184 -2.0047 -2.9781 0.9679
-7.1115 -2.6483 -2.9783 0.9679
-6.5310 -3.8683 -2.9791 0.9679
-5.7441 -4.9671 -2.9804 0.9679
-3.0474 -6.9697 -2.9855 0.9678
-2.4160 -7.2163 -2.9867 0.9678
-1.7649 -7.4060 -2.9880 0.9678
4.1090 -6.4367 -2.9971 0.9677
4.6654 -6.0451 -2.9969 0.9677
5.1847 -5.6057 -2.9968 0.9677
6.4810 -4.0363 -2.9966 0.9677
7.0937 -2.8232 -2.9965 0.9677
7.6330 -0.1701 -2.9965 0.9677
7.6180 0.5100 -2.9965 0.9677
5.8865 4.8653 -2.9972 0.9677
5.1544 5.0973 -2.8451 0.9693
3.6252 6.2790 -2.8456 0.9693
2.4584 6.8333 -2.8501 0.9693
0.5660 7.2429 -2.8513 0.9693
-0.0527 4.7327 -1.8576 0.9799
-1.9965 6.9822 -2.8501 0.9693
-2.6086 6.7732 -2.8486 0.9693
-3.1998 6.5115 -2.8475 0.9693
-3.9685 6.5332 -3.0001 0.9677
-4.5345 6.1543 -3.0002 0.9677
-5.0645 5.7265 -3.0003 0.9677
-5.9999 4.7382 -3.0005 0.9677
-6.3980 4.1854 -3.0006 0.9677
-7.2768 2.3465 -3.0007 0.9677
-7.4568 1.6895 -3.0007 0.9677
-7.5775 1.0191 -3.0007 0.9677
-7.6381 0.3406 -3.0007 0.9677
-7.6380 -0.3405 -3.0007 0.9677
-7.5327 -1.0130 -2.9830 0.9679
-6.9868 -2.9627 -2.9785 0.9679
-6.6963 -3.5732 -2.9789 0.9679
-5.9590 -4.7057 -2.9800 0.9679
-5.5179 -5.2188 -2.9808 0.9679
-5.0329 -5.6908 -2.9817 0.9679
-3.9469 -6.4975 -2.9837 0.9679
-3.3542 -6.8256 -2.9848 0.9678
-2.7345 -7.1000 -2.9861 0.9678
-2.0926 -7.3184 -2.9874 0.9678
-0.0849 -7.6219 -2.9916 0.9678
1.2691 -7.5236 -2.9945 0.9677
1.9346 -7.3844 -2.9960 0.9677
4.3916 -6.2471 -2.9970 0.9677
4.9300 -5.8312 -2.9969 0.9677
5.4292 -5.3691 -2.9968 0.9677
5.8854 -4.8644 -2.9967 0.9677
7.2124 -2.5044 -2.9964 0.9677
7.5421 -1.1859 -2.9964 0.9677
7.6178 -0.5099 -2.9965 0.9677
7.6330 0.1701 -2.9965 0.9677
7.4822 1.5208 -2.9966 0.9677
7.3174 2.1808 -2.9967 0.9677
6.0972 4.5981 -2.9972 0.9677
5.4266 4.9081 -2.8717 0.9690
4.9223 5.3219 -2.8451 0.9693
3.9012 6.1111 -2.8455 0.9693
2.7562 6.7068 -2.8458 0.9693
2.1517 6.9365 -2.8504 0.9693
1.5260 7.1013 -2.8507 0.9693
-0.4045 7.2552 -2.8519 0.9693
-1.0487 7.1909 -2.8521 0.9693
-1.6839 7.0659 -2.8508 0.9693
-2.3049 6.8845 -2.8494 0.9693
-4.2558 6.3500 -3.0001 0.9677
-4.8042 5.9463 -3.0003 0.9677
-5.3146 5.4953 -3.0004 0.9677
-6.2051 4.4662 -3.0006 0.9677
-6.8990 3.2954 -3.0007 0.9677
-7.3741 2.0200 -3.0007 0.9677
-7.6154 0.6805 -3.0007 0.9677
-7.2869 0.0000 -3.0006 0.9690
-7.2578 -0.6485 -3.0006 0.9690
-7.1215 -1.2830 -2.9797 0.9692
-6.9770 -1.9112 -2.9789 0.9692
-6.5288 -3.1185 -2.9794 0.9692
-5.4760 -4.7353 -2.9811 0.9692
-5.0341 -5.2052 -2.9818 0.9692
-4.0339 -6.0190 -2.9837 0.9691
-3.4834 -6.3564 -2.9847 0.9691
-2.9049 -6.6437 -2.9859 0.9691
-1.6823 -7.0594 -2.9883 0.9691
-1.0478 -7.1843 -2.9897 0.9691
0.8887 -7.2158 -2.9938 0.9690
1.5281 -7.1114 -2.9952 0.9690
2.1561 -6.9504 -2.9966 0.9690
2.7669 -6.7328 -2.9974 0.9690
3.3550 -6.4595 -2.9973 0.9690
3.9164 -6.1350 -2.9971 0.9690
4.4468 -5.7618 -2.9970 0.9690
5.3975 -4.8817 -2.9968 0.9690
6.1772 -3.8472 -2.9967 0.9690
6.7613 -2.6909 -2.9966 0.9690
6.9739 -2.0784 -2.9965 0.9690
7.1312 -1.4495 -2.9965 0.9690
7.2320 -0.8090 -2.9965 0.9690
7.2610 0.4861 -2.9966 0.9690
7.1890 1.1304 -2.9967 0.9690
7.0601 1.7659 -2.9967 0.9690
6.8751 2.3873 -2.9968 0.9690
6.6355 2.9898 -2.9969 0.9690
4.9153 4.8607 -2.8465 0.9705
3.9739 5.6530 -2.8454 0.9706
2.9090 6.2688 -2.8458 0.9705
1.7546 6.6970 -2.8508 0.9705
1.1516 6.8273 -2.8510 0.9705
0.5394 6.9035 -2.8514 0.9705
-2.4860 6.4549 -2.8483 0.9705
-6.0978 3.9890 -3.0005 0.9690
-6.4288 3.4305 -3.0006 0.9690
-7.1069 1.6102 -3.0006 0.9690
-6.6608 -2.8244 -2.9792 0.9692
-5.2603 -4.9751 -2.9814 0.9692
-4.2973 -5.8324 -2.9832 0.9691
-3.7624 -6.1938 -2.9842 0.9691
-3.1974 -6.5065 -2.9853 0.9691
-1.9947 -6.9760 -2.9877 0.9691
-1.3665 -7.1289 -2.9890 0.9691
-0.7269 -7.2254 -2.9903 0.9691
0.5663 -7.2465 -2.9931 0.9690
1.2095 -7.1707 -2.9945 0.9690
1.8439 -7.0379 -2.9959 0.9690
3.0640 -6.6027 -2.9973 0.9690
4.6989 -5.5579 -2.9970 0.9690
5.1748 -5.1174 -2.9969 0.9690
5.6095 -4.6364 -2.9968 0.9690
5.9998 -4.1186 -2.9967 0.9690
6.3424 -3.5682 -2.9966 0.9690
6.6347 -2.9894 -2.9966 0.9690
6.8744 -2.3870 -2.9965 0.9690
7.1887 -1.1303 -2.9965 0.9690
7.2321 0.8090 -2.9966 0.9690
6.9745 2.0786 -2.9968 0.9690
6.4959 3.2825 -2.9970 0.9690
6.1782 3.8478 -2.9971 0.9690
5.8114 4.3826 -2.9972 0.9690
5.3967 4.8811 -2.9964 0.9690
4.6916 5.0725 -2.8452 0.9706
4.2217 5.4702 -2.8453 0.9706
2.6270 6.3923 -2.8458 0.9705
2.0477 6.6012 -2.8460 0.9705
1.4545 6.7687 -2.8508 0.9705
0.1601 4.7890 -1.9731 0.9795
-0.3856 6.9152 -2.8520 0.9705
-0.9993 6.8521 -2.8514 0.9705
-2.1966 6.5608 -2.8490 0.9705
-2.7704 6.3361 -2.8476 0.9705
-3.5011 6.3888 -2.9999 0.9690
-4.0561 6.0521 -3.0001 0.9690
-4.5788 5.6673 -3.0002 0.9690
-5.0653 5.2375 -3.0003 0.9690
-5.5115 4.7660 -3.0004 0.9690
-5.9140 4.2567 -3.0005 0.9690
-6.2695 3.7135 -3.0005 0.9690
-6.5753 3.1408 -3.0006 0.9690
-6.8288 2.5431 -3.0006 0.9690
-7.0281 1.9252 -3.0006 0.9690
-7.1715 1.2920 -3.0006 0.9690
-6.9560 0.0000 -3.0005 0.9702
-6.8035 -1.2257 -2.9820 0.9703
-6.4735 -2.4108 -2.9798 0.9704
-6.2339 -2.9777 -2.9801 0.9704
-5.9450 -3.5212 -2.9805 0.9703
-5.6090 -4.0371 -2.9810 0.9703
-5.2285 -4.5213 -2.9817 0.9703
-2.7735 -6.3431 -2.9863 0.9703
-2.1987 -6.5673 -2.9874 0.9703
-1.0003 -6.8587 -2.9899 0.9703
0.2318 -6.9334 -2.9925 0.9702
0.8484 -6.8884 -2.9938 0.9702
1.4588 -6.7886 -2.9952 0.9702
2.0581 -6.6348 -2.9965 0.9702
3.2028 -6.1665 -2.9973 0.9702
5.1527 -4.6603 -2.9969 0.9702
5.5469 -4.1831 -2.9968 0.9702
6.2004 -3.1332 -2.9967 0.9702
6.6576 -1.9842 -2.9966 0.9702
6.9453 -0.1548 -2.9967 0.9702
6.9316 0.4640 -2.9967 0.9702
6.7398 1.6858 -2.9968 0.9702
6.3345 2.8542 -2.9970 0.9702
4.8776 4.8236 -2.9591 0.9706
4.2587 5.0372 -2.8453 0.9717
3.2985 5.7131 -2.8456 0.9717
2.7770 5.9843 -2.8458 0.9717
1.6722 6.3826 -2.8461 0.9717
0.5150 6.5908 -2.8516 0.9716
-0.0527 4.7328 -2.0416 0.9796
-2.3729 6.1612 -2.8480 0.9716
-3.0576 6.2221 -2.9905 0.9703
-3.6106 5.9439 -2.9999 0.9702
-5.0533 4.7794 -3.0003 0.9702
-6.4040 2.7155 -3.0005 0.9702
-6.6204 2.1348 -3.0005 0.9702
-6.8940 0.9271 -3.0005 0.9702
-6.8823 -0.9256 -2.9954 0.9702
-5.7827 -3.7829 -2.9807 0.9703
-5.4241 -4.2834 -2.9813 0.9703
-5.0225 -4.7503 -2.9820 0.9703
-4.5810 -5.1798 -2.9828 0.9703
-4.1030 -5.5687 -2.9837 0.9703
-3.5922 -5.9137 -2.9847 0.9703
-2.4886 -6.4616 -2.9868 0.9703
-1.9044 -6.6600 -2.9880 0.9703
-1.3046 -6.8059 -2.9892 0.9703
1.1547 -6.8453 -2.9945 0.9702
1.7601 -6.7183 -2.9958 0.9702
3.4742 -6.0175 -2.9973 0.9702
3.9959 -5.6842 -2.9971 0.9702
5.3551 -4.4261 -2.9968 0.9702
6.3338 -2.8538 -2.9967 0.9702
6.5626 -2.2788 -2.9966 0.9702
6.7394 -1.6856 -2.9966 0.9702
6.8627 -1.0791 -2.9966 0.9702
6.9315 -0.4640 -2.9966 0.9702
6.9041 0.7723 -2.9967 0.9702
6.4553 2.5692 -2.9970 0.9702
6.2012 3.1336 -2.9971 0.9702
5.5478 4.1838 -2.9973 0.9702
4.4787 4.8423 -2.8452 0.9717
1.3862 6.4510 -2.8462 0.9717
0.8080 6.5594 -2.8508 0.9716
-1.5315 6.4266 -2.8498 0.9716
-2.6444 6.0480 -2.8473 0.9717
-3.3422 6.0988 -2.9999 0.9702
-4.3709 5.4100 -3.0001 0.9702
-4.8353 4.9996 -3.0002 0.9702
-6.7089 1.8378 -3.0006 0.9702
-6.8458 1.2333 -3.0006 0.9702
-6.9284 0.6191 -3.0005 0.9702
-6.6496 0.0000 -3.0004 0.9712
-6.5081 -1.1725 -2.9839 0.9714
-6.1899 -2.3052 -2.9804 0.9714
-5.9608 -2.8472 -2.9807 0.9714
-4.9993 -4.3231 -2.9822 0.9714
-4.5958 -4.7520 -2.9829 0.9714
-4.1557 -5.1436 -2.9837 0.9714
-2.6517 -6.0646 -2.9866 0.9714
-2.1022 -6.2789 -2.9877 0.9714
-1.5356 -6.4436 -2.9889 0.9713
0.2216 -6.6285 -2.9926 0.9713
3.0619 -5.8952 -2.9974 0.9713
4.0583 -5.2585 -2.9972 0.9713
4.9260 -4.4553 -2.9970 0.9713
5.3029 -3.9991 -2.9969 0.9713
5.9277 -2.9954 -2.9968 0.9713
6.1707 -2.4559 -2.9967 0.9713
6.3648 -1.8969 -2.9967 0.9713
6.6002 -0.7383 -2.9967 0.9713
6.6398 -0.1479 -2.9967 0.9713
6.6267 0.4436 -2.9968 0.9713
6.5611 1.0317 -2.9968 0.9713
6.2745 2.1788 -2.9970 0.9713
5.7892 3.2569 -2.9972 0.9713
4.7236 4.6713 -2.9976 0.9713
4.0713 4.8155 -2.8453 0.9727
3.6267 5.1591 -2.8455 0.9727
2.1352 5.9349 -2.8459 0.9727
1.5986 6.1017 -2.8461 0.9727
1.0492 6.2201 -2.8463 0.9727
-0.6323 6.2859 -2.8506 0.9727
-1.1890 6.2028 -2.8498 0.9727
-1.7357 6.0702 -2.8487 0.9727
-2.2682 5.8892 -2.8476 0.9727
-2.9321 5.9666 -2.9998 0.9712
-3.9438 5.3526 -3.0000 0.9712
-4.4047 4.9806 -3.0001 0.9712
-4.8307 4.5689 -3.0002 0.9712
-5.2183 4.1209 -3.0003 0.9712
-5.5645 3.6402 -3.0003 0.9712
-6.3288 2.0408 -3.0005 0.9712
-6.4853 1.4694 -3.0005 0.9712
-6.5904 0.8863 -3.0005 0.9712
-6.6430 0.2962 -3.0004 0.9712
-6.6429 -0.2962 -3.0004 0.9712
-6.4414 -1.4594 -2.9802 0.9714
-6.2863 -2.0271 -2.9803 0.9714
-6.0814 -2.5787 -2.9805 0.9714
-5.5293 -3.6171 -2.9813 0.9714
-5.1864 -4.0957 -2.9819 0.9714
-4.8023 -4.5420 -2.9826 0.9714
-2.9187 -5.9395 -2.9861 0.9714
-2.3793 -6.1779 -2.9872 0.9714
-1.8207 -6.3675 -2.9883 0.9714
-1.2472 -6.5069 -2.9895 0.9713
-0.0738 -6.6304 -2.9919 0.9713
1.1039 -6.5440 -2.9945 0.9713
1.6826 -6.4225 -2.9958 0.9713
2.2486 -6.2499 -2.9970 0.9713
2.7963 -6.0258 -2.9975 0.9713
3.3214 -5.7528 -2.9973 0.9713
3.8201 -5.4341 -2.9972 0.9713
4.2884 -5.0724 -2.9971 0.9713
4.7228 -4.6704 -2.9970 0.9713
5.1195 -4.2314 -2.9969 0.9713
5.7884 -3.2565 -2.9968 0.9713
6.0552 -2.7283 -2.9968 0.9713
6.6266 -0.4436 -2.9967 0.9713
6.6399 0.1480 -2.9968 0.9713
6.6004 0.7384 -2.9968 0.9713
6.1713 2.4561 -2.9970 0.9713
5.9284 2.9958 -2.9971 0.9713
5.6384 3.5117 -2.9972 0.9713
4.9269 4.4561 -2.9975 0.9713
2.3974 5.8337 -2.8459 0.9727
1.8688 6.0243 -2.8460 0.9727
1.3252 6.1670 -2.8462 0.9727
0.7724 6.2711 -2.8510 0.9727
-0.3517 6.3085 -2.8509 0.9727
-1.4638 6.1426 -2.8493 0.9727
-2.0040 5.9857 -2.8482 0.9727
-2.5280 5.7816 -2.8472 0.9727
-4.1784 5.1717 -3.0000 0.9712
-4.6224 4.7795 -3.0001 0.9712
-5.7212 3.3887 -3.0004 0.9712
-6.2316 2.3207 -3.0004 0.9712
-6.3651 0.0000 -3.0003 0.9722
-6.3397 -0.5665 -3.0003 0.9722
-6.2353 -1.1234 -2.9865 0.9724
-6.0990 -1.6707 -2.9808 0.9724
-5.7070 -2.7260 -2.9813 0.9724
-5.1347 -3.6958 -2.9822 0.9724
-4.7863 -4.1389 -2.9827 0.9724
-3.9786 -4.9244 -2.9842 0.9724
-3.0443 -5.5551 -2.9860 0.9724
-2.0125 -6.0110 -2.9880 0.9724
-1.4700 -6.1685 -2.9891 0.9723
-0.9155 -6.2773 -2.9903 0.9723
-0.3533 -6.3363 -2.9914 0.9723
0.2122 -6.3452 -2.9926 0.9723
0.7764 -6.3037 -2.9939 0.9723
1.3349 -6.2121 -2.9951 0.9723
1.8833 -6.0712 -2.9963 0.9723
2.9310 -5.6431 -2.9974 0.9723
5.9070 -2.3509 -2.9968 0.9723
6.0927 -1.8158 -2.9968 0.9723
6.2301 -1.2663 -2.9968 0.9723
6.3181 -0.7068 -2.9968 0.9723
6.3435 0.4247 -2.9969 0.9723
6.1679 1.5427 -2.9970 0.9723
6.0063 2.0856 -2.9971 0.9723
5.5417 3.1177 -2.9972 0.9723
3.0185 5.2281 -2.8457 0.9737
1.0043 5.9541 -2.8463 0.9737
-0.0527 4.7328 -2.2311 0.9793
-1.1379 5.9364 -2.8492 0.9736
-4.2163 4.7675 -3.0000 0.9722
-4.6240 4.3734 -3.0001 0.9722
-4.9950 3.9446 -3.0002 0.9722
-5.3264 3.4844 -3.0003 0.9722
-5.6155 2.9965 -3.0003 0.9722
-5.8600 2.4849 -3.0004 0.9722
-6.2078 1.4065 -3.0004 0.9722
-6.3083 0.8484 -3.0004 0.9722
-6.3587 -0.2835 -3.0003 0.9722
-6.3081 -0.8483 -3.0003 0.9722
-5.8225 -2.4689 -2.9811 0.9724
-5.2938 -3.4631 -2.9819 0.9724
-4.5977 -4.3485 -2.9831 0.9724
-3.7558 -5.0974 -2.9846 0.9724
-3.2882 -5.4131 -2.9855 0.9724
-2.7942 -5.6861 -2.9865 0.9724
-2.2778 -5.9143 -2.9875 0.9724
-1.7430 -6.0957 -2.9886 0.9724
-1.1940 -6.2290 -2.9897 0.9723
-0.6351 -6.3130 -2.9908 0.9723
1.6107 -6.1477 -2.9957 0.9723
3.1794 -5.5069 -2.9974 0.9723
4.1051 -4.8555 -2.9972 0.9723
5.2417 -3.5982 -2.9969 0.9723
5.5410 -3.1173 -2.9969 0.9723
6.0058 -2.0854 -2.9968 0.9723
6.1676 -1.5426 -2.9968 0.9723
6.3434 -0.4246 -2.9968 0.9723
6.3183 0.7068 -2.9969 0.9723
5.9075 2.3512 -2.9971 0.9723
5.6750 2.8677 -2.9972 0.9723
5.0770 3.8287 -2.9974 0.9723
4.3181 4.6687 -2.9977 0.9723
3.6881 4.7788 -2.8455 0.9737
3.2483 5.0884 -2.8456 0.9737
2.2949 5.5842 -2.8459 0.9737
1.7888 5.7667 -2.8460 0.9737
1.2686 5.9033 -2.8462 0.9737
0.7392 6.0014 -2.8503 0.9736
0.1601 4.7889 -2.2586 0.9790
-1.4010 5.8789 -2.8488 0.9736
-2.4534 5.6112 -2.8868 0.9733
-3.0583 5.5808 -2.9998 0.9723
-3.5430 5.2866 -2.9999 0.9722
-3.9996 4.9505 -3.0000 0.9722
-5.1659 3.7182 -3.0002 0.9722
-5.4764 3.2437 -3.0003 0.9722
-5.7435 2.7434 -3.0003 0.9722
-5.9649 2.2214 -3.0004 0.9722
-6.2643 1.1286 -3.0004 0.9722
-6.0999 0.0000 -3.0003 0.9732
-5.6807 -2.1155 -2.9816 0.9733
-5.4704 -2.6130 -2.9818 0.9733
-4.9218 -3.5425 -2.9827 0.9733
-4.2174 -4.3608 -2.9839 0.9733
-2.4332 -5.5648 -2.9873 0.9733
-1.9288 -5.7612 -2.9883 0.9733
-1.4089 -5.9121 -2.9893 0.9733
-0.8774 -6.0162 -2.9904 0.9733
-0.3386 -6.0728 -2.9916 0.9733
0.2033 -6.0812 -2.9927 0.9732
2.3164 -5.6367 -2.9974 0.9732
2.8090 -5.4083 -2.9975 0.9732
3.2791 -5.1366 -2.9974 0.9732
4.8650 -3.6688 -2.9970 0.9732
5.4382 -2.7480 -2.9969 0.9732
5.9709 -1.2136 -2.9969 0.9732
6.0552 -0.6774 -2.9969 0.9732
6.0795 0.4070 -2.9969 0.9732
6.0193 0.9465 -2.9970 0.9732
5.7564 1.9988 -2.9971 0.9732
5.3111 2.9880 -2.9973 0.9732
4.6975 3.8826 -2.9975 0.9732
0.9636 5.7125 -2.8494 0.9745
-0.0527 4.7328 -2.3280 0.9791
-0.5798 5.7640 -2.8494 0.9745
-1.0903 5.6882 -2.8487 0.9745
-2.0804 5.4017 -2.8471 0.9745
-3.6180 4.9102 -2.9999 0.9732
-4.0406 4.5689 -3.0000 0.9732
-5.1046 3.3393 -3.0002 0.9732
-5.3816 2.8717 -3.0002 0.9732
-6.0455 0.8131 -3.0003 0.9732
-6.0938 -0.2717 -3.0003 0.9732
-6.0454 -0.8130 -3.0002 0.9732
-5.5811 -2.3666 -2.9817 0.9733
-5.3489 -2.8542 -2.9820 0.9733
-4.4070 -4.1681 -2.9835 0.9733
-4.0195 -4.5449 -2.9842 0.9733
-3.5999 -4.8859 -2.9850 0.9733
-1.1444 -5.9701 -2.9899 0.9733
-0.6087 -6.0505 -2.9910 0.9733
-0.0677 -6.0830 -2.9921 0.9732
1.5436 -5.8917 -2.9957 0.9732
2.0626 -5.7331 -2.9968 0.9732
3.9343 -4.6535 -2.9972 0.9732
5.0236 -3.4484 -2.9970 0.9732
5.5552 -2.5030 -2.9969 0.9732
5.7559 -1.9986 -2.9969 0.9732
6.0794 -0.4070 -2.9969 0.9732
6.0916 0.1358 -2.9969 0.9732
5.8396 1.7404 -2.9971 0.9732
5.4388 2.7483 -2.9972 0.9732
4.8657 3.6694 -2.9975 0.9732
4.1384 4.4743 -2.9977 0.9732
3.6089 4.6762 -2.9053 0.9740
2.6668 5.1345 -2.8458 0.9745
1.7143 5.5266 -2.8460 0.9745
0.7082 5.7502 -2.8496 0.9745
0.1601 4.7888 -2.3567 0.9789
-0.3225 5.7846 -2.8496 0.9745
-2.4361 5.5716 -2.9909 0.9733
-3.3955 5.0664 -2.9998 0.9732
-3.8331 4.7443 -2.9999 0.9732
-4.6138 3.9897 -3.0001 0.9732
-5.5042 2.6292 -3.0003 0.9732
-5.7164 2.1288 -3.0003 0.9732
-5.8833 1.6116 -3.0003 0.9732
-5.8521 0.0000 -3.0002 0.9740
-5.0058 -2.9649 -2.9827 0.9742
-4.4022 -3.8067 -2.9837 0.9742
-4.0468 -4.1844 -2.9843 0.9742
-3.6592 -4.5290 -2.9850 0.9742
-2.7997 -5.1088 -2.9866 0.9742
-1.8507 -5.5278 -2.9885 0.9741
-1.3518 -5.6725 -2.9895 0.9741
-0.8418 -5.7723 -2.9906 0.9741
-0.3249 -5.8264 -2.9917 0.9741
0.1951 -5.8344 -2.9928 0.9741
2.6950 -5.1888 -2.9975 0.9741
3.5721 -4.6284 -2.9973 0.9741
3.9697 -4.2920 -2.9972 0.9741
4.3358 -3.9215 -2.9972 0.9741
4.9622 -3.0905 -2.9970 0.9741
5.6022 -1.6696 -2.9969 0.9741
5.7286 -1.1644 -2.9969 0.9741
5.8444 -0.1302 -2.9970 0.9741
5.8328 0.3905 -2.9970 0.9741
5.7750 0.9081 -2.9970 0.9741
5.6714 1.4185 -2.9971 0.9741
5.3303 2.4017 -2.9973 0.9741
5.0955 2.8667 -2.9973 0.9741
4.5068 3.7250 -2.9976 0.9741
4.1576 4.1115 -2.9977 0.9741
3.7753 4.4654 -2.9978 0.9741
3.2568 4.6328 -2.9033 0.9749
2.7754 4.8071 -2.8457 0.9754
1.8793 5.2235 -2.8460 0.9754
0.9243 5.4794 -2.8488 0.9753
0.4330 5.5405 -2.8491 0.9753
-0.5562 5.5289 -2.8488 0.9753
-1.5269 5.3401 -2.8474 0.9753
-2.0283 5.2664 -2.8932 0.9750
-3.8765 4.3833 -2.9999 0.9740
-4.2514 4.0210 -3.0000 0.9740
-4.5925 3.6267 -3.0001 0.9740
-5.7075 1.2932 -3.0002 0.9740
-5.8463 0.2607 -3.0002 0.9740
-5.8463 -0.2607 -3.0002 0.9740
-5.6780 -1.2865 -2.9848 0.9742
-5.5359 -1.7851 -2.9820 0.9742
-5.3554 -2.2709 -2.9822 0.9742
-5.1325 -2.7388 -2.9825 0.9742
-4.5670 -3.6065 -2.9834 0.9742
-4.2287 -3.9995 -2.9840 0.9742
-3.8568 -4.3610 -2.9847 0.9742
-3.4542 -4.6881 -2.9854 0.9742
-2.5697 -5.2292 -2.9871 0.9741
-2.0947 -5.4389 -2.9880 0.9741
-1.6029 -5.6056 -2.9890 0.9741
-1.0980 -5.7280 -2.9901 0.9741
0.4549 -5.8210 -2.9934 0.9741
1.4809 -5.6524 -2.9956 0.9741
2.9234 -5.0635 -2.9975 0.9741
3.7746 -4.4646 -2.9973 0.9741
4.5062 -3.7244 -2.9971 0.9741
5.3298 -2.4015 -2.9970 0.9741
5.5223 -1.9175 -2.9969 0.9741
5.6711 -1.4184 -2.9969 0.9741
5.7748 -0.9080 -2.9969 0.9741
5.8444 0.1303 -2.9970 0.9741
5.7289 1.1645 -2.9971 0.9741
5.6026 1.6698 -2.9971 0.9741
5.2181 2.6368 -2.9973 0.9741
3.9704 4.2927 -2.9977 0.9741
2.5586 4.9261 -2.8458 0.9754
1.1664 5.4278 -2.8462 0.9754
0.1601 4.7888 -2.4564 0.9787
-0.3094 5.5486 -2.8490 0.9753
-1.2877 5.4036 -2.8478 0.9753
-1.7671 5.2782 -2.8536 0.9753
-2.3439 5.3608 -2.9996 0.9740
-3.2576 4.8606 -2.9998 0.9740
-4.0680 4.2063 -3.0000 0.9740
-4.4263 3.8277 -3.0000 0.9740
-4.7496 3.4186 -3.0001 0.9740
-5.0351 2.9823 -3.0002 0.9740
-5.6199 0.0000 -3.0001 0.9748
-5.0418 -2.4082 -2.9828 0.9750
-4.8080 -2.8478 -2.9832 0.9750
-3.8868 -4.0189 -2.9847 0.9750
-3.5145 -4.3499 -2.9854 0.9750
-3.1141 -4.6466 -2.9861 0.9750
-2.6889 -4.9067 -2.9870 0.9749
-0.8085 -5.5437 -2.9908 0.9749
1.1787 -5.4851 -2.9950 0.9749
1.6628 -5.3603 -2.9961 0.9749
2.1341 -5.1929 -2.9972 0.9749
3.0213 -4.7327 -2.9975 0.9749
3.8123 -4.1218 -2.9973 0.9749
4.7655 -2.9680 -2.9971 0.9749
5.0107 -2.5320 -2.9971 0.9749
5.5015 -1.1182 -2.9970 0.9749
5.5792 -0.6241 -2.9970 0.9749
5.6127 -0.1251 -2.9970 0.9749
5.6016 0.3750 -2.9971 0.9749
5.5461 0.8721 -2.9971 0.9749
5.4466 1.3623 -2.9972 0.9749
4.6292 3.1778 -2.9975 0.9749
4.3281 3.5773 -2.9976 0.9749
3.2296 4.5942 -2.9980 0.9749
2.6653 4.6165 -2.8457 0.9761
2.2440 4.8356 -2.8459 0.9761
-0.0527 4.7328 -2.5267 0.9788
-1.0042 5.2390 -2.8477 0.9761
-1.4662 5.1275 -2.8470 0.9761
-2.0156 5.2335 -2.9939 0.9749
-2.4781 5.0428 -2.9996 0.9748
-4.0827 3.8614 -2.9999 0.9748
-5.3487 1.7248 -3.0002 0.9748
-5.4810 1.2419 -3.0002 0.9748
-5.5698 0.7491 -3.0002 0.9748
-5.6143 -0.2503 -3.0001 0.9748
-5.5696 -0.7490 -3.0001 0.9748
-5.3172 -1.7146 -2.9825 0.9750
-5.1438 -2.1812 -2.9827 0.9750
-4.9298 -2.6306 -2.9830 0.9750
-4.3865 -3.4640 -2.9838 0.9750
-3.3176 -4.5027 -2.9858 0.9750
-2.9044 -4.7814 -2.9865 0.9750
-2.4680 -5.0223 -2.9874 0.9749
-2.0118 -5.2236 -2.9883 0.9749
-1.5394 -5.3837 -2.9892 0.9749
0.4368 -5.5902 -2.9934 0.9749
0.9330 -5.5312 -2.9945 0.9749
1.4221 -5.4281 -2.9956 0.9749
2.3637 -5.0935 -2.9976 0.9749
3.2291 -4.5934 -2.9974 0.9749
3.6250 -4.2876 -2.9973 0.9749
5.4462 -1.3622 -2.9970 0.9749
