ply
format ascii 1.0
element vertex 1585
property float32 x
property float32 y
property float32 z
property float32 I
end_header
-0.6765 -2.3657 -0.3083 0.9901
-0.4616 -2.4081 -0.3073 0.9902
0.2188 -2.7994 -0.3519 0.9887
0.5369 -3.1828 -0.4045 0.9871
-1.6663 -2.4862 -0.4257 0.9880
-0.7837 -2.3408 -0.3511 0.9901
-0.5678 -2.3827 -0.3484 0.9902
-0.1413 -2.5344 -0.3610 0.9898
0.0897 -2.6843 -0.3820 0.9892
0.3618 -2.9376 -0.4210 0.9881
1.8577 5.1637 -0.7806 0.9781
-1.4580 -2.4003 -0.3995 0.9887
-1.1494 -2.3390 -0.3707 0.9895
-0.2504 -2.4890 -0.3558 0.9899
-0.0291 -2.6073 -0.3709 0.9895
-1.6715 -2.4940 -0.4781 0.9879
-1.2992 -2.3707 -0.4305 0.9891
-0.5669 -2.3788 -0.3894 0.9901
-0.1411 -2.5310 -0.4037 0.9898
0.0898 -2.6861 -0.4280 0.9892
1.8577 5.1636 -0.8738 0.9780
-0.6742 -2.3580 -0.3905 0.9901
-0.0290 -2.6063 -0.4150 0.9895
0.2188 -2.8001 -0.4472 0.9887
0.5414 -3.2097 -0.5183 0.9869
-1.3021 -2.3761 -0.4777 0.9891
-0.7835 -2.3403 -0.4352 0.9900
-0.5675 -2.3814 -0.4317 0.9901
-0.1414 -2.5361 -0.4479 0.9897
0.0900 -2.6918 -0.4749 0.9891
1.8577 5.1635 -0.9676 0.9780
-1.1515 -2.3434 -0.4604 0.9895
-0.9006 -2.3382 -0.4418 0.9899
-0.2504 -2.4893 -0.4412 0.9899
-0.0291 -2.6116 -0.4605 0.9894
0.5437 -3.2234 -0.5764 0.9868
-1.3051 -2.3814 -0.5255 0.9890
-1.0250 -2.3443 -0.4951 0.9896
-0.3573 -2.4499 -0.4791 0.9900
-0.1417 -2.5412 -0.4925 0.9897
1.8576 5.1634 -1.0619 0.9779
-1.9874 -2.6973 -0.6484 0.9864
-1.4683 -2.4172 -0.5473 0.9885
-1.1541 -2.3485 -0.5064 0.9894
-0.2509 -2.4938 -0.4850 0.9898
0.2200 -2.8151 -0.5464 0.9886
-14.1294 0.0000 -2.9788 0.9439
-14.0713 -1.2574 -2.9783 0.9439
-13.4205 -3.6762 -2.9335 0.9447
-13.0405 -4.8563 -2.9336 0.9447
-12.5588 -5.9988 -2.9342 0.9447
-11.9799 -7.0957 -2.9354 0.9447
-11.3078 -8.1388 -2.9372 0.9446
-9.7057 -10.0356 -2.9433 0.9445
-0.1420 -2.5464 -0.5377 0.9896
0.0904 -2.7034 -0.5702 0.9890
0.3659 -2.9710 -0.6311 0.9878
2.9742 -13.8409 -2.9845 0.9438
4.2010 -13.5428 -2.9893 0.9437
6.5562 -12.6230 -2.9987 0.9435
8.7129 -11.2896 -3.0065 0.9434
9.6887 -10.4753 -3.0082 0.9433
11.4045 -8.6005 -3.0113 0.9433
12.7605 -6.4482 -3.0141 0.9432
13.2891 -5.2890 -3.0153 0.9432
13.7121 -4.0866 -3.0164 0.9432
14.0257 -2.8508 -3.0174 0.9432
14.3158 -0.3190 -3.0188 0.9431
14.2896 0.9566 -3.0193 0.9431
14.1492 2.2249 -3.0196 0.9431
13.8957 3.4755 -3.0197 0.9431
13.0584 5.8838 -3.0195 0.9431
12.4814 7.0219 -3.0192 0.9431
9.6656 9.5585 -2.8658 0.9459
8.7741 10.3780 -2.8650 0.9460
7.8133 11.1146 -2.8642 0.9460
6.7909 11.7622 -2.8633 0.9460
5.7151 12.3156 -2.8623 0.9460
1.8576 5.1633 -1.1568 0.9778
2.2556 13.3719 -2.8589 0.9461
1.0560 13.5137 -2.8576 0.9461
-1.3555 13.4744 -2.8550 0.9461
-2.5462 13.2835 -2.8514 0.9462
-3.7119 12.9814 -2.8464 0.9463
-5.1091 13.2654 -2.9968 0.9435
-7.3711 12.1346 -2.9932 0.9436
-10.2975 9.7393 -2.9881 0.9437
-11.1178 8.7796 -2.9866 0.9437
-14.0078 1.8839 -2.9797 0.9439
-14.1143 -0.6294 -2.9785 0.9439
-14.0006 -1.8829 -2.9782 0.9439
-13.5714 -3.0749 -2.9336 0.9447
-13.2434 -4.2704 -2.9335 0.9447
-12.8121 -5.4328 -2.9338 0.9447
-12.2814 -6.5535 -2.9347 0.9447
-11.6549 -7.6242 -2.9361 0.9447
-10.9407 -8.6398 -2.9390 0.9446
-10.1387 -9.5891 -2.9420 0.9445
-9.2533 -10.4629 -2.9447 0.9445
-0.9039 -2.3469 -0.5302 0.9898
-0.6774 -2.3691 -0.5195 0.9900
-0.4622 -2.4114 -0.5176 0.9900
-0.0292 -2.6225 -0.5529 0.9893
0.2206 -2.8227 -0.5969 0.9885
0.5484 -3.2514 -0.6951 0.9866
3.5907 -13.7056 -2.9869 0.9437
5.9828 -12.8925 -2.9964 0.9436
7.1175 -12.3279 -3.0010 0.9435
8.1989 -11.6631 -3.0056 0.9434
9.2098 -10.8934 -3.0073 0.9434
12.4579 -7.0087 -3.0135 0.9432
13.5140 -4.6926 -3.0159 0.9432
13.8827 -3.4723 -3.0169 0.9432
14.1408 -2.2235 -3.0178 0.9432
14.2859 -0.9563 -3.0185 0.9431
14.3170 0.3191 -3.0191 0.9431
14.0365 2.8530 -3.0197 0.9431
13.3081 5.2965 -3.0196 0.9431
12.7827 6.4594 -3.0194 0.9431
12.1552 7.5704 -3.0189 0.9431
10.8500 8.1824 -2.8649 0.9460
8.3019 10.7571 -2.8646 0.9460
7.3093 11.4498 -2.8638 0.9460
5.1598 12.5557 -2.8618 0.9460
1.6573 13.4562 -2.8583 0.9461
0.4529 13.5443 -2.8570 0.9461
-0.7541 13.5246 -2.8557 0.9461
-1.9536 13.3954 -2.8539 0.9462
-5.6932 13.0206 -2.9959 0.9436
-7.9020 11.7906 -2.9923 0.9436
-8.9149 11.0341 -2.9906 0.9437
-10.7184 9.2685 -2.9873 0.9437
-11.4950 8.2736 -2.9858 0.9437
-12.1801 7.2143 -2.9844 0.9438
-12.7208 -2.2918 -2.9502 0.9483
-12.4132 -3.4003 -2.9376 0.9486
-12.0617 -4.4918 -2.9377 0.9486
-11.6159 -5.5485 -2.9382 0.9486
-11.0795 -6.5624 -2.9391 0.9485
-10.4567 -7.5263 -2.9406 0.9485
-9.7514 -8.4323 -2.9424 0.9485
-8.9703 -9.2753 -2.9451 0.9484
-1.6929 -2.5260 -0.6940 0.9876
-1.3111 -2.3924 -0.6227 0.9889
-1.0289 -2.3532 -0.5862 0.9895
-0.5705 -2.3939 -0.5617 0.9900
-0.3586 -2.4588 -0.5671 0.9899
-0.1423 -2.5516 -0.5833 0.9896
0.0906 -2.7092 -0.6187 0.9889
0.3673 -2.9824 -0.6858 0.9877
2.7472 -12.7846 -2.9846 0.9478
3.8799 -12.5077 -2.9890 0.9477
4.9850 -12.1305 -2.9934 0.9476
7.0771 -11.0860 -3.0019 0.9475
8.0462 -10.4258 -3.0059 0.9474
8.9469 -9.6733 -3.0074 0.9474
10.5305 -7.9414 -3.0104 0.9473
11.2005 -6.9758 -3.0117 0.9473
12.6596 -3.7730 -3.0151 0.9472
12.9489 -2.6320 -3.0159 0.9472
13.1349 -1.4693 -3.0167 0.9472
13.2162 -0.2945 -3.0173 0.9472
12.8281 3.2085 -3.0181 0.9472
10.5921 7.2711 -2.9324 0.9487
9.6692 7.9918 -2.8632 0.9498
8.9173 8.8185 -2.8625 0.9498
8.1015 9.5826 -2.8641 0.9498
7.2146 10.2628 -2.8633 0.9498
1.8576 5.1633 -1.2524 0.9777
3.1751 12.1193 -2.8595 0.9499
0.9752 12.4803 -2.8572 0.9499
-0.1394 12.5123 -2.8560 0.9500
-1.2520 12.4450 -2.8548 0.9500
-2.3515 12.2678 -2.8510 0.9500
-4.7193 12.2533 -2.9970 0.9476
-5.7879 11.7780 -2.9953 0.9476
-10.2723 8.1119 -2.9875 0.9477
-10.9486 7.1622 -2.9861 0.9477
-11.5378 6.1568 -2.9849 0.9478
-12.0355 5.1035 -2.9838 0.9478
-12.4377 4.0107 -2.9828 0.9478
-12.7416 2.8869 -2.9819 0.9478
-13.0456 0.5817 -2.9805 0.9478
-13.0436 -0.5816 -2.9801 0.9478
-12.9386 -1.7400 -2.9797 0.9478
-12.2494 -3.9499 -2.9376 0.9486
-11.8504 -5.0250 -2.9379 0.9486
-11.3587 -6.0612 -2.9386 0.9485
-9.3694 -8.8615 -2.9435 0.9485
-8.5533 -9.6714 -2.9469 0.9484
-1.4759 -2.4297 -0.6488 0.9884
-0.9056 -2.3513 -0.5751 0.9897
-0.6786 -2.3733 -0.5634 0.9899
-0.4630 -2.4157 -0.5614 0.9900
-0.2518 -2.5030 -0.5742 0.9897
0.2212 -2.8304 -0.6480 0.9884
0.5562 -3.2974 -0.7632 0.9864
5.5245 -11.9050 -2.9955 0.9476
6.5716 -11.3823 -2.9998 0.9475
7.5693 -10.7675 -3.0041 0.9474
8.5049 -10.0596 -3.0067 0.9474
9.3713 -9.2675 -3.0082 0.9474
11.5025 -6.4712 -3.0123 0.9473
12.0376 -5.4239 -3.0135 0.9473
12.8170 -3.2057 -3.0155 0.9472
13.0549 -2.0528 -3.0163 0.9472
13.1887 -0.8829 -3.0170 0.9472
13.2172 0.2946 -3.0175 0.9472
13.1401 1.4700 -3.0179 0.9472
12.9581 2.6338 -3.0181 0.9472
12.2856 4.8896 -3.0180 0.9472
9.3025 8.4136 -2.8628 0.9498
8.5209 9.2127 -2.8642 0.9498
7.6656 9.9326 -2.8637 0.9498
6.7493 10.5725 -2.8629 0.9498
0.4182 12.5087 -2.8566 0.9499
-0.6965 12.4910 -2.8554 0.9500
-1.8042 12.3703 -2.8533 0.9500
-4.1700 12.4549 -2.9978 0.9475
-5.2589 12.0275 -2.9961 0.9476
-6.3050 11.5052 -2.9945 0.9476
-7.3000 10.8924 -2.9928 0.9476
-10.6210 7.6446 -2.9868 0.9477
-11.2544 6.6660 -2.9855 0.9477
-11.7983 5.6356 -2.9843 0.9478
-12.2487 4.5615 -2.9833 0.9478
-12.6021 3.4521 -2.9823 0.9478
-12.8558 2.3161 -2.9815 0.9478
-11.5404 -3.1612 -2.9411 0.9519
-11.2136 -4.1760 -2.9412 0.9519
-9.7202 -6.9962 -2.9438 0.9519
-8.3362 -8.6196 -2.9475 0.9518
-7.5419 -9.3347 -2.9498 0.9518
-1.7016 -2.5390 -0.7513 0.9875
-1.3141 -2.3980 -0.6721 0.9888
-1.0309 -2.3578 -0.6325 0.9895
-0.3592 -2.4633 -0.6119 0.9898
0.0908 -2.7152 -0.6678 0.9889
0.3690 -2.9956 -0.7419 0.9876
2.5510 -11.8717 -2.9847 0.9512
3.6025 -11.6133 -2.9887 0.9511
6.5693 -10.2906 -3.0009 0.9510
7.4692 -9.6781 -3.0049 0.9509
8.3061 -8.9805 -3.0068 0.9509
9.0767 -8.2094 -3.0082 0.9508
10.9365 -5.5265 -3.0119 0.9508
11.3889 -4.5327 -3.0130 0.9508
12.0191 -2.4430 -3.0147 0.9507
12.1916 -1.3638 -3.0154 0.9507
12.2668 -0.2734 -3.0159 0.9507
12.1236 1.9064 -3.0166 0.9507
11.9063 2.9780 -3.0167 0.9507
11.5940 4.0259 -3.0167 0.9507
11.1890 5.0415 -3.0165 0.9507
8.2770 8.1853 -2.8613 0.9532
6.6974 9.5272 -2.8625 0.9532
1.9339 11.4652 -2.8580 0.9532
0.9055 11.5875 -2.8569 0.9533
-1.1625 11.5553 -2.8546 0.9533
-2.1833 11.3903 -2.8507 0.9534
-3.1837 11.1340 -2.8464 0.9534
-5.3749 10.9376 -2.9955 0.9510
-6.3238 10.4104 -2.9940 0.9511
-8.0614 9.1152 -2.9910 0.9511
-10.1696 6.6527 -2.9870 0.9512
-11.1798 4.7406 -2.9848 0.9512
-11.5537 3.7256 -2.9839 0.9512
-12.0251 1.6172 -2.9824 0.9513
-12.1173 -0.5403 -2.9814 0.9513
-11.6812 -2.6466 -2.9440 0.9519
-11.3881 -3.6722 -2.9411 0.9519
-11.0171 -4.6716 -2.9414 0.9519
-9.4015 -7.4243 -2.9446 0.9519
-7.9470 -8.9858 -2.9486 0.9518
-2.1311 -2.8924 -0.8831 0.9853
-0.9073 -2.3558 -0.6205 0.9897
-0.4639 -2.4201 -0.6057 0.9899
0.2218 -2.8383 -0.6998 0.9883
0.5753 -3.4105 -0.8502 0.9859
3.0795 -11.7543 -2.9867 0.9512
7.0260 -9.9945 -3.0029 0.9509
7.8959 -9.3394 -3.0061 0.9509
8.7000 -8.6036 -3.0075 0.9508
9.4355 -7.7987 -3.0089 0.9508
10.0965 -6.9308 -3.0102 0.9508
11.1738 -5.0347 -3.0125 0.9508
11.5814 -4.0215 -3.0134 0.9508
11.8968 -2.9756 -3.0143 0.9507
12.2414 -0.8195 -3.0157 0.9507
12.0270 2.4446 -3.0167 0.9507
10.4154 6.4868 -3.0160 0.9507
7.9031 8.5447 -2.8609 0.9532
7.1162 9.2207 -2.8629 0.9532
6.2655 9.8148 -2.8621 0.9532
5.3656 10.3306 -2.8613 0.9532
0.3883 11.6141 -2.8563 0.9533
-1.6750 11.4848 -2.8528 0.9533
-2.6865 11.2732 -2.8486 0.9534
-4.8836 11.1691 -2.9963 0.9510
-6.7795 10.1158 -2.9932 0.9511
-8.4574 8.7449 -2.9903 0.9511
-10.4538 6.1918 -2.9865 0.9512
-11.7066 3.2068 -2.9835 0.9512
-11.9425 2.1516 -2.9827 0.9512
-11.3197 0.0000 -2.9827 0.9543
-11.0927 -1.9984 -2.9700 0.9544
-10.7765 -2.9520 -2.9442 0.9548
-9.0760 -6.5325 -2.9466 0.9548
-1.0330 -2.3624 -0.6794 0.9894
-0.7905 -2.3611 -0.6561 0.9898
-0.5725 -2.4025 -0.6508 0.9898
-0.3599 -2.4679 -0.6572 0.9897
-0.1429 -2.5622 -0.6762 0.9894
0.0910 -2.7213 -0.7174 0.9888
0.3742 -3.0384 -0.8067 0.9874
2.3797 -11.0744 -2.9847 0.9542
4.3165 -10.5036 -2.9923 0.9541
5.2410 -10.0907 -2.9962 0.9541
6.1262 -9.5966 -3.0000 0.9540
6.9648 -9.0245 -3.0038 0.9539
7.7468 -8.3757 -3.0063 0.9539
8.4652 -7.6563 -3.0076 0.9539
10.1989 -5.1537 -3.0110 0.9538
10.6205 -4.2269 -3.0120 0.9538
11.4384 -0.2549 -3.0148 0.9538
11.4171 0.7643 -3.0151 0.9538
11.3047 1.7776 -3.0154 0.9538
11.1020 2.7768 -3.0155 0.9538
10.8108 3.7539 -3.0155 0.9538
10.4332 4.7010 -3.0153 0.9538
9.9725 5.6104 -3.0151 0.9538
9.4322 6.4749 -3.0146 0.9538
8.3688 6.9170 -2.8609 0.9561
7.7183 7.6327 -2.8603 0.9561
7.0064 8.2873 -2.8595 0.9561
6.2462 8.8854 -2.8619 0.9561
0.8445 10.8079 -2.8566 0.9561
-0.1207 10.8363 -2.8555 0.9562
-2.9698 10.3861 -2.8464 0.9563
-4.0882 10.6146 -2.9972 0.9540
-5.0142 10.2036 -2.9957 0.9541
-6.7375 9.1442 -2.9929 0.9541
-8.2446 7.7977 -2.9902 0.9541
-8.9023 7.0301 -2.9890 0.9542
-9.4890 6.2074 -2.9878 0.9542
-10.0002 5.3363 -2.9867 0.9542
-11.2215 1.5091 -2.9835 0.9542
-11.3092 0.5043 -2.9830 0.9543
-11.3077 -0.5042 -2.9825 0.9543
-11.2169 -1.5085 -2.9823 0.9543
-10.6343 -3.4291 -2.9442 0.9548
-9.3561 -6.1205 -2.9460 0.9548
-8.1310 -7.6902 -2.9490 0.9548
-7.4193 -8.3892 -2.9510 0.9547
-1.4885 -2.4504 -0.7555 0.9882
-1.1644 -2.3696 -0.6957 0.9891
-0.9091 -2.3604 -0.6665 0.9896
-0.4647 -2.4245 -0.6505 0.9898
0.5959 -3.5328 -0.9440 0.9853
2.8725 -10.9643 -2.9866 0.9542
3.8419 -10.6787 -2.9904 0.9541
6.5517 -9.3200 -3.0019 0.9540
10.4201 -4.6950 -3.0115 0.9538
11.0938 -2.7747 -3.0133 0.9538
11.2993 -1.7767 -3.0139 0.9538
11.4147 -0.7641 -3.0145 0.9538
11.3722 1.2722 -3.0153 0.9538
11.2146 2.2795 -3.0155 0.9538
9.7120 6.0487 -3.0149 0.9538
5.8433 9.1535 -2.8615 0.9561
5.0041 9.6346 -2.8607 0.9561
1.3254 10.7615 -2.8571 0.9561
0.3622 10.8329 -2.8561 0.9562
-3.6121 10.7889 -2.9980 0.9540
-4.5558 10.4194 -2.9965 0.9540
-5.4624 9.9677 -2.9950 0.9541
-7.1365 8.8329 -2.9922 0.9541
-8.5820 7.4212 -2.9896 0.9542
-10.2263 4.8847 -2.9862 0.9542
-10.9239 2.9924 -2.9845 0.9542
-11.1442 2.0078 -2.9838 0.9542
-10.6049 0.0000 -2.9837 0.9569
-10.5616 -0.9438 -2.9834 0.9569
-10.4177 -1.8768 -2.9783 0.9570
-10.1019 -2.7672 -2.9470 0.9574
-9.0156 -5.3399 -2.9481 0.9574
-8.5075 -6.1233 -2.9492 0.9574
-7.2945 -7.5424 -2.9522 0.9573
-1.3256 -2.4188 -0.7760 0.9886
-1.0350 -2.3671 -0.7269 0.9893
-0.7919 -2.3654 -0.7018 0.9897
0.3797 -3.0829 -0.8739 0.9872
2.2287 -10.3717 -2.9848 0.9569
3.1468 -10.1442 -2.9883 0.9568
4.0421 -9.8359 -2.9920 0.9568
4.9075 -9.4486 -2.9956 0.9567
5.7359 -8.9852 -2.9992 0.9567
6.5205 -8.4489 -3.0028 0.9566
7.9264 -7.1691 -3.0070 0.9566
9.9437 -3.9575 -3.0112 0.9565
10.4931 -2.1328 -3.0127 0.9565
10.7088 -0.2386 -3.0137 0.9565
10.5835 1.6642 -3.0143 0.9565
10.1211 3.5144 -3.0144 0.9565
9.7676 4.4011 -3.0143 0.9565
9.3363 5.2525 -3.0140 0.9565
8.8307 6.0619 -3.0136 0.9565
5.8486 8.3198 -2.8613 0.9586
5.0836 8.8050 -2.8606 0.9586
4.2785 9.2200 -2.8598 0.9586
1.8575 5.1629 -1.5438 0.9775
2.5745 9.8268 -2.8581 0.9587
1.6891 10.0138 -2.8572 0.9587
-2.7813 9.7270 -2.8464 0.9588
-4.6963 9.5566 -2.9959 0.9567
-5.5257 9.0966 -2.9946 0.9567
-6.3106 8.5649 -2.9933 0.9568
-8.8888 5.8148 -2.9885 0.9568
-10.1000 3.2568 -2.9858 0.9569
-10.5127 1.4138 -2.9844 0.9569
-10.5951 0.4725 -2.9839 0.9569
-10.5087 -1.4133 -2.9833 0.9569
-9.9686 -3.2145 -2.9470 0.9574
-9.6438 -4.0893 -2.9472 0.9574
-6.9536 -7.8625 -2.9532 0.9573
-6.2307 -8.4563 -2.9553 0.9573
-1.5045 -2.4767 -0.8153 0.9880
-1.1680 -2.3769 -0.7451 0.9891
-0.9108 -2.3650 -0.7130 0.9895
-0.2532 -2.5171 -0.7118 0.9895
-0.0295 -2.6465 -0.7446 0.9891
0.2249 -2.8779 -0.8122 0.9881
5.3268 -9.2262 -2.9974 0.9567
6.1341 -8.7259 -3.0010 0.9566
6.8944 -8.1548 -3.0045 0.9566
9.3232 -5.2451 -3.0098 0.9565
9.7561 -4.3959 -3.0107 0.9565
10.6867 -0.7154 -3.0135 0.9565
9.5615 4.8317 -3.0142 0.9565
9.0925 5.6629 -3.0138 0.9565
8.5512 6.4487 -3.0134 0.9565
7.5382 6.8179 -2.8597 0.9586
6.8999 7.4601 -2.8591 0.9587
6.2069 8.0425 -2.8583 0.9587
5.4716 8.5712 -2.8610 0.9586
4.6857 9.0215 -2.8602 0.9586
2.1339 9.9302 -2.8577 0.9587
1.2412 10.0774 -2.8568 0.9587
-0.5649 10.1310 -2.8548 0.9587
-1.4629 10.0305 -2.8520 0.9588
-3.3829 10.1043 -2.9980 0.9567
-5.1162 9.3358 -2.9953 0.9567
-7.3912 7.6425 -2.9914 0.9568
-8.0389 6.9515 -2.9902 0.9568
-8.6225 6.2061 -2.9890 0.9568
-9.5798 4.5759 -2.9870 0.9568
-9.9461 3.7040 -2.9862 0.9569
-10.5643 0.9440 -2.9842 0.9569
-9.9288 -0.8872 -2.9843 0.9592
-9.5016 -2.6027 -2.9494 0.9597
-8.8909 -4.2468 -2.9498 0.9597
-8.0015 -5.7591 -2.9515 0.9597
-7.4603 -6.4512 -2.9527 0.9597
-6.8601 -7.0933 -2.9542 0.9596
-1.7664 -2.6357 -0.9499 0.9868
-1.3363 -2.4384 -0.8325 0.9885
-1.0408 -2.3803 -0.7778 0.9892
-0.7941 -2.3720 -0.7489 0.9896
-0.1440 -2.5818 -0.7741 0.9893
0.0921 -2.7559 -0.8255 0.9886
2.0946 -9.7474 -2.9848 0.9592
3.7984 -9.2429 -2.9917 0.9591
5.3893 -8.4423 -2.9985 0.9590
6.8156 -7.3690 -3.0051 0.9590
8.9721 -4.5338 -3.0096 0.9589
9.8586 -2.0038 -3.0118 0.9589
10.0610 -0.2242 -3.0128 0.9589
10.0422 0.6722 -3.0132 0.9588
9.9432 1.5635 -3.0134 0.9588
9.1767 4.1349 -3.0133 0.9588
8.7715 4.9348 -3.0131 0.9588
8.2965 5.6953 -3.0127 0.9589
6.7893 6.7140 -2.8586 0.9609
4.7768 8.2735 -2.8601 0.9609
4.0204 8.6637 -2.8594 0.9609
1.8575 5.1629 -1.6426 0.9774
0.7432 9.5109 -2.8561 0.9609
-0.1062 9.5363 -2.8551 0.9610
-0.9540 9.4832 -2.8534 0.9610
-1.7921 9.3492 -2.8499 0.9610
-2.6139 9.1413 -2.8464 0.9611
-4.4138 8.9818 -2.9961 0.9591
-7.2590 6.8655 -2.9912 0.9591
-7.8384 6.1899 -2.9901 0.9592
-9.4943 3.0615 -2.9865 0.9592
-9.8826 1.3291 -2.9853 0.9592
-9.9589 -0.4441 -2.9845 0.9592
-9.8791 -1.3286 -2.9842 0.9592
-9.3762 -3.0234 -2.9494 0.9597
-9.0706 -3.8463 -2.9496 0.9597
-8.6938 -4.6391 -2.9501 0.9597
-7.1673 -6.7788 -2.9534 0.9596
-5.8591 -7.9520 -2.9571 0.9596
-1.5210 -2.5039 -0.8771 0.9878
-0.6839 -2.3919 -0.7448 0.9897
-0.2542 -2.5266 -0.7602 0.9895
-0.0297 -2.6657 -0.7981 0.9889
1.6574 -9.8255 -2.9831 0.9592
3.3809 -9.3975 -2.9900 0.9592
5.7633 -8.1984 -3.0002 0.9590
6.4771 -7.6612 -3.0035 0.9590
7.7421 -6.3990 -3.0071 0.9589
8.2838 -5.6865 -3.0081 0.9589
9.5003 -3.2988 -3.0108 0.9589
10.0027 1.1190 -3.0133 0.9588
9.8639 2.0049 -3.0134 0.9588
9.3521 3.7220 -3.0134 0.9588
8.9831 4.5394 -3.0132 0.9588
8.5425 5.3203 -3.0129 0.9588
8.0340 6.0587 -3.0125 0.9589
7.0823 6.4056 -2.8589 0.9609
6.4827 7.0090 -2.8583 0.9609
5.8317 7.5564 -2.8576 0.9609
4.4030 8.4772 -2.8598 0.9609
2.8286 9.1184 -2.8582 0.9609
2.0052 9.3313 -2.8574 0.9609
0.3188 9.5331 -2.8556 0.9610
-0.5308 9.5205 -2.8547 0.9610
-1.3747 9.4256 -2.8517 0.9610
-2.2054 9.2544 -2.8482 0.9611
-3.1793 9.4961 -2.9981 0.9590
-4.0101 9.1714 -2.9967 0.9591
-4.8085 8.7744 -2.9955 0.9591
-5.5680 8.3081 -2.9942 0.9591
-7.5562 6.5341 -2.9907 0.9591
-8.1050 5.8336 -2.9896 0.9592
-8.5892 5.0874 -2.9886 0.9592
-9.0051 4.3014 -2.9877 0.9592
-9.8145 1.7682 -2.9856 0.9592
-9.4005 0.0000 -2.9854 0.9613
-9.2501 -1.6665 -2.9850 0.9613
-8.9676 -2.4565 -2.9529 0.9617
-8.3874 -4.0063 -2.9520 0.9617
-7.9992 -4.7380 -2.9526 0.9617
-7.5481 -5.4328 -2.9535 0.9617
-7.0374 -6.0855 -2.9547 0.9617
-6.4710 -6.6910 -2.9562 0.9617
-1.8011 -2.6874 -1.0274 0.9865
-1.3473 -2.4586 -0.8904 0.9883
-0.7990 -2.3866 -0.7993 0.9895
-0.3639 -2.4953 -0.8008 0.9895
-0.1450 -2.6003 -0.8271 0.9891
4.3464 -8.3683 -2.9947 0.9612
5.7734 -7.4808 -3.0011 0.9611
6.4228 -6.9443 -3.0041 0.9611
7.5598 -5.7012 -3.0071 0.9610
8.4561 -4.2730 -3.0089 0.9610
8.8052 -3.5044 -3.0097 0.9610
9.0843 -2.7074 -3.0104 0.9610
9.4240 -1.0542 -3.0116 0.9610
9.4640 0.6335 -3.0123 0.9610
8.2665 4.6507 -3.0123 0.9610
6.3985 6.3276 -2.8579 0.9629
5.8087 6.8705 -2.8573 0.9629
5.1728 7.3584 -2.8566 0.9630
4.5024 7.7984 -2.8598 0.9629
1.8574 5.1628 -1.7425 0.9772
0.7006 8.9651 -2.8558 0.9630
-0.8992 8.9384 -2.8530 0.9630
-1.6892 8.8127 -2.8497 0.9630
-3.3922 8.8077 -2.9975 0.9612
-4.1610 8.4674 -2.9963 0.9612
-4.8961 8.0602 -2.9951 0.9612
-5.5919 7.5894 -2.9939 0.9612
-8.3028 4.4306 -2.9888 0.9613
-8.6618 3.6729 -2.9880 0.9613
-8.9522 2.8867 -2.9872 0.9613
-9.3906 -0.4187 -2.9853 0.9613
-9.0952 -2.0607 -2.9617 0.9616
-8.5569 -3.6284 -2.9518 0.9617
-8.2014 -4.3764 -2.9523 0.9617
-7.7813 -5.0903 -2.9530 0.9617
-7.3000 -5.7647 -2.9541 0.9617
-6.7609 -6.3944 -2.9554 0.9617
-6.1682 -6.9745 -2.9570 0.9617
-5.5264 -7.5004 -2.9588 0.9617
-1.5381 -2.5320 -0.9409 0.9876
-0.6881 -2.4065 -0.7949 0.9896
2.3833 -9.0970 -2.9866 0.9613
3.1870 -8.8585 -2.9898 0.9613
3.9671 -8.5490 -2.9931 0.9612
4.7174 -8.1707 -2.9963 0.9612
6.1040 -7.2199 -3.0026 0.9611
6.7290 -6.6545 -3.0055 0.9611
7.2971 -6.0313 -3.0066 0.9610
7.8076 -5.3596 -3.0076 0.9610
8.6392 -3.8927 -3.0093 0.9610
8.9537 -3.1090 -3.0101 0.9610
9.1969 -2.3003 -3.0108 0.9610
9.3669 -1.4729 -3.0113 0.9610
9.4267 1.0545 -3.0124 0.9610
9.0909 2.7094 -3.0126 0.9610
8.0507 5.0140 -3.0121 0.9610
6.7452 6.1007 -2.8884 0.9625
5.4962 7.1216 -2.8569 0.9629
4.8393 7.5806 -2.8562 0.9630
4.1501 7.9903 -2.8594 0.9629
3.4215 8.3258 -2.8587 0.9629
1.0994 8.9263 -2.8563 0.9630
-0.5004 8.9744 -2.8545 0.9630
-1.2957 8.8843 -2.8514 0.9630
-2.0790 8.7237 -2.8481 0.9631
-3.7804 8.6461 -2.9969 0.9612
-4.5331 8.2719 -2.9956 0.9612
-7.6417 5.5002 -2.9901 0.9613
-8.0984 4.7967 -2.9892 0.9613
-8.4908 4.0557 -2.9884 0.9613
-8.8158 3.2830 -2.9876 0.9613
-9.0709 2.4848 -2.9869 0.9613
-8.8879 0.0000 -2.9862 0.9632
-8.7458 -1.5756 -2.9857 0.9632
-8.4873 -2.3249 -2.9566 0.9635
-7.1393 -5.1385 -2.9554 0.9636
-5.5357 -6.8516 -2.9595 0.9635
-1.8664 -2.7849 -1.1264 0.9860
-1.3586 -2.4793 -0.9499 0.9881
-1.0550 -2.4128 -0.8848 0.9889
-0.8040 -2.4015 -0.8509 0.9894
-0.5819 -2.4418 -0.8434 0.9895
-0.3662 -2.5113 -0.8527 0.9893
2.6350 -8.4946 -2.9882 0.9632
5.4559 -7.0695 -3.0003 0.9630
6.6347 -6.0008 -3.0057 0.9630
7.1448 -5.3882 -3.0066 0.9629
7.5983 -4.7323 -3.0075 0.9629
7.9916 -4.0383 -3.0084 0.9629
8.5851 -2.5586 -3.0098 0.9629
8.9059 -0.9963 -3.0109 0.9629
8.6965 2.1751 -3.0119 0.9629
8.4683 2.9405 -3.0119 0.9629
8.1727 3.6824 -3.0117 0.9629
7.8119 4.3949 -3.0115 0.9629
7.3889 5.0722 -3.0112 0.9629
6.9072 5.7090 -3.0108 0.9629
5.4894 6.4929 -2.8567 0.9648
4.8886 6.9542 -2.8560 0.9648
4.2492 7.3598 -2.8553 0.9648
1.8574 5.1627 -1.8434 0.9771
2.1553 8.2266 -2.8573 0.9648
1.4141 8.3834 -2.8565 0.9648
0.6621 8.4736 -2.8557 0.9648
-0.0946 8.4965 -2.8548 0.9648
-0.8498 8.4478 -2.8526 0.9648
-3.9333 8.0041 -2.9964 0.9631
-4.6283 7.6193 -2.9953 0.9631
-7.8496 4.1887 -2.9893 0.9632
-8.4638 2.7292 -2.9879 0.9632
-8.6714 1.9647 -2.9873 0.9632
-8.8795 0.3960 -2.9863 0.9632
-8.8786 -0.3959 -2.9860 0.9632
-8.0937 -3.4320 -2.9537 0.9636
-7.7573 -4.1394 -2.9542 0.9636
-5.8338 -6.5963 -2.9586 0.9635
-1.1960 -2.4338 -0.9111 0.9886
-0.9268 -2.4064 -0.8664 0.9892
-0.6924 -2.4215 -0.8462 0.9894
-0.4725 -2.4650 -0.8433 0.9895
-0.2575 -2.5593 -0.8642 0.9892
-0.0301 -2.7057 -0.9091 0.9886
0.2316 -2.9641 -0.9989 0.9875
5.1331 -7.3019 -2.9989 0.9630
5.7682 -6.8227 -3.0018 0.9630
6.3585 -6.2881 -3.0046 0.9630
6.8966 -5.7002 -3.0062 0.9629
7.3789 -5.0653 -3.0071 0.9629
8.1646 -3.6788 -3.0088 0.9629
8.8520 -1.3919 -3.0106 0.9629
8.9083 0.9965 -3.0117 0.9629
8.7846 1.7856 -3.0118 0.9629
8.0003 4.0427 -3.0116 0.9629
7.6080 4.7383 -3.0114 0.9629
7.1552 5.3960 -3.0110 0.9629
5.7738 6.2426 -2.8570 0.9648
5.1942 6.7303 -2.8564 0.9648
4.5734 7.1641 -2.8557 0.9648
3.9226 7.5523 -2.8593 0.9647
1.0391 8.4369 -2.8561 0.9648
-0.4729 8.4818 -2.8542 0.9648
-1.2246 8.3970 -2.8511 0.9648
-4.2851 7.8194 -2.9958 0.9631
-4.9623 7.4042 -2.9947 0.9631
-6.1920 6.4025 -2.9926 0.9631
-7.2244 5.1998 -2.9906 0.9631
-7.6563 4.5348 -2.9897 0.9631
-8.0274 3.8343 -2.9889 0.9632
-8.3347 3.1039 -2.9882 0.9632
-8.3892 -0.7496 -2.9866 0.9649
-7.8107 -2.9087 -2.9554 0.9652
-6.7686 -4.8717 -2.9571 0.9652
-6.3104 -5.4568 -2.9581 0.9652
-5.8022 -5.9994 -2.9594 0.9652
-5.2479 -6.4954 -2.9609 0.9652
-1.3703 -2.5005 -1.0111 0.9880
-0.8092 -2.4169 -0.9037 0.9892
-0.3686 -2.5276 -0.9058 0.9892
-0.1471 -2.6388 -0.9371 0.9888
0.0947 -2.8313 -1.0045 0.9880
0.4251 -3.4515 -1.2331 0.9853
4.5477 -7.1239 -2.9969 0.9648
5.1685 -6.6971 -2.9997 0.9647
5.7493 -6.2161 -3.0024 0.9647
6.7690 -5.1047 -3.0062 0.9647
7.5710 -3.8258 -3.0079 0.9646
7.8833 -3.1375 -3.0086 0.9646
8.1330 -2.4239 -3.0092 0.9646
8.4368 -0.9438 -3.0102 0.9646
8.4884 -0.1892 -3.0106 0.9646
8.2383 2.0605 -3.0112 0.9646
8.0222 2.7856 -3.0112 0.9646
7.4004 4.1634 -3.0108 0.9646
6.9997 4.8050 -3.0105 0.9646
6.5434 5.4083 -3.0101 0.9646
4.6313 6.5881 -2.8555 0.9664
1.8573 5.1626 -1.9454 0.9770
2.0421 7.7946 -2.8571 0.9664
1.3399 7.9432 -2.8563 0.9664
-0.8051 8.0033 -2.8522 0.9664
-1.5127 7.8918 -2.8493 0.9665
-2.2069 7.7179 -2.8464 0.9665
-3.0384 7.8889 -2.9976 0.9648
-3.7271 7.5844 -2.9965 0.9648
-4.3858 7.2200 -2.9954 0.9648
-6.6210 5.2285 -2.9915 0.9648
-7.0580 4.6172 -2.9906 0.9648
-7.4390 3.9696 -2.9898 0.9648
-8.0212 2.5866 -2.9884 0.9649
-8.3498 1.1229 -2.9874 0.9649
-8.4155 0.3753 -2.9870 0.9649
-8.4146 -0.3752 -2.9867 0.9649
-8.3473 -1.1226 -2.9865 0.9649
-7.6736 -3.2539 -2.9555 0.9652
-7.3547 -3.9246 -2.9559 0.9652
-6.9778 -4.5647 -2.9566 0.9652
-6.5459 -5.1692 -2.9576 0.9652
-6.0623 -5.7337 -2.9587 0.9652
-1.5769 -2.5960 -1.0770 0.9872
-0.6968 -2.4368 -0.8987 0.9893
-0.4755 -2.4809 -0.8957 0.9893
-0.2592 -2.5762 -0.9181 0.9891
-0.0304 -2.7265 -0.9668 0.9885
0.2340 -2.9947 -1.0651 0.9873
2.1347 -8.1481 -2.9867 0.9649
2.8542 -7.9335 -2.9896 0.9648
3.5525 -7.6554 -2.9926 0.9648
4.2239 -7.3159 -2.9954 0.9648
4.8629 -6.9175 -2.9983 0.9648
5.4642 -6.4631 -3.0010 0.9647
6.0232 -5.9564 -3.0037 0.9647
8.0162 -2.7835 -3.0089 0.9646
8.4711 -0.5671 -3.0104 0.9646
8.4889 0.1892 -3.0108 0.9646
8.1383 2.4255 -3.0112 0.9646
7.2072 4.4887 -3.0107 0.9646
5.4698 5.9139 -2.8564 0.9664
4.3327 6.7871 -2.8552 0.9664
3.7105 7.1439 -2.8544 0.9664
1.6926 7.8767 -2.8567 0.9664
0.9845 7.9939 -2.8559 0.9664
0.2691 8.0476 -2.8551 0.9664
-0.4480 8.0351 -2.8535 0.9664
-1.1603 7.9555 -2.8507 0.9665
-1.8618 7.8126 -2.8478 0.9665
-2.6844 8.0179 -2.9982 0.9648
-3.3862 7.7443 -2.9971 0.9648
-4.0605 7.4095 -2.9960 0.9648
-4.7022 7.0162 -2.9949 0.9648
-5.8677 6.0672 -2.9929 0.9648
-6.3825 5.5192 -2.9919 0.9648
-6.8463 4.9277 -2.9910 0.9648
-7.2557 4.2976 -2.9902 0.9648
-7.6074 3.6338 -2.9894 0.9649
-8.3909 0.7498 -2.9872 0.9649
-8.0004 0.0000 -2.9874 0.9664
-7.9680 -0.7120 -2.9872 0.9664
-6.8153 -4.0367 -2.9578 0.9667
-5.5123 -5.6997 -2.9608 0.9667
-4.4190 -6.5936 -2.9639 0.9667
-1.0699 -2.4469 -0.9972 0.9887
-0.8147 -2.4334 -0.9582 0.9891
-0.5894 -2.4731 -0.9493 0.9892
-0.3711 -2.5445 -0.9602 0.9891
-0.1483 -2.6589 -0.9944 0.9887
0.0956 -2.8599 -1.0685 0.9879
0.9764 -7.9276 -2.9826 0.9665
2.3709 -7.6430 -2.9882 0.9664
3.0446 -7.4085 -2.9909 0.9664
3.6953 -7.1147 -2.9937 0.9663
4.3178 -6.7637 -2.9964 0.9663
4.9070 -6.3582 -2.9991 0.9663
5.9666 -5.3965 -3.0041 0.9662
6.4269 -4.8468 -3.0058 0.9662
6.8347 -4.2567 -3.0066 0.9662
7.7217 -2.3013 -3.0087 0.9662
8.0100 -0.8960 -3.0097 0.9662
8.0589 -0.1796 -3.0100 0.9662
8.0436 0.5384 -3.0103 0.9662
7.8213 1.9563 -3.0105 0.9662
7.6162 2.6446 -3.0105 0.9662
7.3503 3.3119 -3.0104 0.9662
7.0259 3.9527 -3.0102 0.9662
6.2123 5.1347 -3.0096 0.9662
5.7298 5.6663 -3.0091 0.9662
4.9374 5.8400 -2.8556 0.9679
4.3971 6.2550 -2.8550 0.9679
1.2723 7.5425 -2.8562 0.9679
0.5957 7.6237 -2.8555 0.9679
-0.0851 7.6427 -2.8540 0.9679
-0.7644 7.5982 -2.8516 0.9679
-1.4363 7.4931 -2.8489 0.9679
-4.1649 6.8564 -2.9956 0.9663
-5.3111 6.0054 -2.9936 0.9663
-6.7031 4.3850 -2.9910 0.9664
-7.3708 3.1255 -2.9896 0.9664
-7.6182 2.4566 -2.9889 0.9664
-7.8052 1.7684 -2.9884 0.9664
-7.9304 1.0665 -2.9879 0.9664
-7.9928 0.3564 -2.9876 0.9664
-7.9281 -1.0662 -2.9871 0.9664
-7.7900 -1.7650 -2.9826 0.9665
-6.9876 -3.7287 -2.9575 0.9667
-6.6296 -4.3368 -2.9582 0.9667
-5.7595 -5.4473 -2.9602 0.9667
-5.2542 -5.9410 -2.9615 0.9667
-4.7070 -6.3884 -2.9631 0.9667
-1.6177 -2.6632 -1.1635 0.9868
-1.2160 -2.4744 -1.0295 0.9883
-0.2609 -2.5935 -0.9733 0.9889
1.3292 -7.8799 -2.9840 0.9665
2.7103 -7.5333 -2.9895 0.9664
3.3731 -7.2689 -2.9923 0.9664
4.0104 -6.9462 -2.9951 0.9663
5.1876 -6.1359 -3.0004 0.9663
5.7180 -5.6546 -3.0029 0.9662
6.2036 -5.1273 -3.0053 0.9662
6.6374 -4.5563 -3.0062 0.9662
7.3438 -3.3089 -3.0077 0.9662
7.8172 -1.9552 -3.0090 0.9662
7.9615 -1.2519 -3.0094 0.9662
8.0424 -0.5384 -3.0099 0.9662
7.1952 3.6359 -3.0103 0.9662
5.2151 5.6385 -2.8679 0.9677
4.1136 6.4439 -2.8547 0.9679
2.9045 7.0676 -2.8533 0.9679
1.6072 7.4793 -2.8566 0.9679
0.9349 7.5907 -2.8559 0.9679
-2.5491 7.6138 -2.9982 0.9663
-3.2155 7.3541 -2.9971 0.9663
-3.8560 7.0363 -2.9961 0.9663
-4.4655 6.6629 -2.9951 0.9663
-5.0391 6.2370 -2.9941 0.9663
-6.8909 4.0815 -2.9906 0.9664
-7.2251 3.4511 -2.9899 0.9664
-7.5019 2.7938 -2.9892 0.9664
-7.7193 2.1146 -2.9887 0.9664
-7.9695 0.7122 -2.9877 0.9664
-7.5824 -0.6776 -2.9877 0.9678
-7.2858 -1.9958 -2.9648 0.9681
-6.1213 -4.4058 -2.9600 0.9681
-5.7067 -4.9347 -2.9610 0.9681
-0.5932 -2.4893 -1.0043 0.9891
-0.3736 -2.5617 -1.0160 0.9889
-0.1494 -2.6795 -1.0533 0.9885
0.0976 -2.9207 -1.1469 0.9875
0.9291 -7.5433 -2.9829 0.9679
1.5982 -7.4371 -2.9855 0.9678
2.2557 -7.2718 -2.9881 0.9678
3.5155 -6.7685 -2.9934 0.9678
5.1919 -5.6134 -3.0010 0.9677
5.6754 -5.1330 -3.0033 0.9677
6.8382 -3.4555 -3.0070 0.9676
7.3455 -2.1892 -3.0082 0.9676
7.6196 -0.8524 -3.0091 0.9676
7.6661 -0.1708 -3.0095 0.9676
7.6515 0.5122 -3.0097 0.9676
7.2449 2.5157 -3.0100 0.9676
6.3217 4.3396 -3.0094 0.9676
5.9096 4.8844 -3.0090 0.9676
5.4506 5.3902 -3.0086 0.9676
1.8573 5.1624 -2.1532 0.9767
1.8450 7.0419 -2.8570 0.9692
1.2105 7.1761 -2.8562 0.9692
0.5667 7.2523 -2.8550 0.9692
-0.7271 7.2276 -2.8509 0.9693
-1.9938 6.9728 -2.8463 0.9693
-3.3676 6.8528 -2.9967 0.9677
-3.9628 6.5237 -2.9957 0.9677
-4.5263 6.1432 -2.9948 0.9677
-5.5405 5.2402 -2.9930 0.9678
-5.9832 4.7249 -2.9922 0.9678
-6.3784 4.1726 -2.9914 0.9678
-6.7228 3.5874 -2.9907 0.9678
-7.2493 2.3376 -2.9894 0.9678
-7.4274 1.6828 -2.9889 0.9678
-7.5445 -1.0146 -2.9877 0.9678
-7.4202 -1.6812 -2.9860 0.9678
-6.6516 -3.5494 -2.9590 0.9681
-6.3106 -4.1282 -2.9596 0.9681
-5.9198 -4.6748 -2.9605 0.9681
-5.4822 -5.1850 -2.9615 0.9681
-4.4802 -6.0806 -2.9643 0.9681
-1.6613 -2.7348 -1.2559 0.9863
-1.2309 -2.5047 -1.0953 0.9881
-0.7059 -2.4687 -1.0077 0.9890
-0.4819 -2.5140 -1.0046 0.9891
-0.2627 -2.6113 -1.0301 0.9888
1.9287 -7.3618 -2.9868 0.9678
3.2091 -6.9154 -2.9921 0.9678
3.8152 -6.6081 -2.9947 0.9677
4.9347 -5.8368 -2.9998 0.9677
5.4390 -5.3787 -3.0022 0.9677
6.6767 -3.7562 -3.0066 0.9676
7.2400 -2.5140 -3.0079 0.9676
7.6505 -0.5121 -3.0093 0.9676
7.6664 0.1709 -3.0096 0.9676
7.6214 0.8526 -3.0098 0.9676
7.5155 1.5276 -3.0099 0.9676
7.1256 2.8359 -3.0099 0.9676
6.8445 3.4587 -3.0098 0.9676
6.5090 4.0539 -3.0095 0.9676
4.4443 5.7586 -2.8549 0.9692
3.9133 6.1301 -2.8543 0.9692
3.3514 6.4526 -2.8536 0.9692
2.1570 6.9536 -2.8574 0.9692
1.5291 7.1160 -2.8566 0.9692
0.2430 7.2682 -2.8541 0.9692
-1.0479 7.1850 -2.8498 0.9693
-3.0595 6.9972 -2.9972 0.9677
-3.6689 6.6949 -2.9962 0.9677
-4.2489 6.3397 -2.9953 0.9677
-6.5571 3.8838 -2.9910 0.9678
-6.8752 3.2840 -2.9903 0.9678
-7.1387 2.6585 -2.9897 0.9678
-7.3456 2.0122 -2.9892 0.9678
-7.4944 1.3502 -2.9887 0.9678
-7.5838 0.6777 -2.9883 0.9678
-7.2574 0.0000 -2.9885 0.9691
-7.2281 -0.6459 -2.9882 0.9691
-6.7359 -2.5085 -2.9598 0.9694
-6.4865 -3.0984 -2.9601 0.9694
-6.1860 -3.6640 -2.9606 0.9694
-5.8368 -4.2010 -2.9613 0.9694
-5.4414 -4.7053 -2.9622 0.9694
-5.0029 -5.1729 -2.9633 0.9693
-1.4411 -2.6296 -1.2348 0.9871
-0.5972 -2.5059 -1.0608 0.9889
-0.3765 -2.5814 -1.0742 0.9888
0.0998 -2.9850 -1.2298 0.9872
1.5233 -7.0886 -2.9856 0.9691
3.3503 -6.4506 -2.9931 0.9690
4.9474 -5.3491 -3.0003 0.9690
5.8259 -4.3935 -3.0047 0.9689
6.1963 -3.8591 -3.0059 0.9689
7.0000 -2.0862 -3.0078 0.9689
7.1590 -1.4551 -3.0082 0.9689
7.2611 -0.8123 -3.0086 0.9689
7.3054 -0.1628 -3.0090 0.9689
6.6630 3.0022 -3.0093 0.9689
5.1942 5.1367 -3.0081 0.9689
4.5935 5.4333 -2.9297 0.9697
3.9862 5.6705 -2.8542 0.9705
3.4650 6.0015 -2.8536 0.9705
1.1533 6.8375 -2.8553 0.9704
0.5400 6.9097 -2.8540 0.9705
-0.0771 6.9263 -2.8523 0.9705
-0.6928 6.8871 -2.8503 0.9705
-1.3021 6.7927 -2.8480 0.9705
-1.9546 6.8358 -2.9277 0.9697
-2.6165 6.7935 -2.9978 0.9690
-3.2097 6.5316 -2.9968 0.9690
-3.7772 6.2181 -2.9959 0.9690
-4.8170 5.4467 -2.9941 0.9690
-6.0800 3.9774 -2.9917 0.9691
-6.6860 2.8351 -2.9904 0.9691
-7.0801 1.6042 -2.9894 0.9691
-7.1938 0.9675 -2.9889 0.9691
-7.1919 -0.9672 -2.9882 0.9691
-6.8462 -2.2076 -2.9621 0.9694
-6.6177 -2.8062 -2.9599 0.9694
-6.3425 -3.3845 -2.9603 0.9694
-4.7685 -5.3918 -2.9640 0.9693
-4.2717 -5.7976 -2.9654 0.9693
-1.7506 -2.8820 -1.3885 0.9855
-1.2530 -2.5498 -1.1699 0.9878
-0.9562 -2.4826 -1.0955 0.9886
-0.7106 -2.4852 -1.0644 0.9889
-0.2652 -2.6363 -1.0910 0.9886
0.2561 -3.2775 -1.3537 0.9859
1.2055 -7.1465 -2.9843 0.9691
1.8383 -7.0167 -2.9869 0.9691
2.4576 -6.8310 -2.9894 0.9691
3.6359 -6.2975 -2.9944 0.9690
4.1854 -5.9538 -2.9968 0.9690
4.7024 -5.5620 -2.9992 0.9690
6.0175 -4.1308 -3.0055 0.9689
6.3628 -3.5796 -3.0063 0.9689
6.6576 -2.9998 -3.0069 0.9689
7.2905 -0.4880 -3.0088 0.9689
7.2627 0.8125 -3.0093 0.9689
6.7902 2.7024 -3.0094 0.9689
6.2027 3.8631 -3.0090 0.9689
5.8337 4.3994 -3.0087 0.9689
4.9598 5.3625 -3.0079 0.9689
3.7293 5.8418 -2.8539 0.9705
1.4570 6.7804 -2.8558 0.9704
0.8474 6.8806 -2.8547 0.9705
-0.9986 6.8467 -2.8492 0.9705
-1.6027 6.7252 -2.8469 0.9705
-2.9160 6.6692 -2.9973 0.9690
-4.0498 6.0428 -2.9954 0.9690
-4.5702 5.6566 -2.9945 0.9690
-6.5536 3.1304 -2.9907 0.9691
-6.8049 2.5342 -2.9901 0.9691
-7.1441 1.2871 -2.9891 0.9691
-6.9292 0.0000 -2.9889 0.9703
-6.6526 -1.8223 -2.9754 0.9704
-6.1948 -2.9590 -2.9613 0.9705
-5.9077 -3.4992 -2.9618 0.9705
-0.8388 -2.5053 -1.1396 0.9886
0.1021 -3.0531 -1.3177 0.9868
0.8454 -6.8642 -2.9833 0.9703
2.6352 -6.4124 -2.9905 0.9703
4.7220 -5.1054 -2.9998 0.9702
5.9144 -3.6835 -3.0056 0.9701
6.6814 -1.9913 -3.0073 0.9701
6.9305 -0.7753 -3.0082 0.9701
6.9727 -0.1554 -3.0085 0.9701
6.9594 0.4659 -3.0087 0.9701
6.7671 1.6925 -3.0089 0.9701
6.5896 2.2881 -3.0089 0.9701
6.3595 2.8655 -3.0088 0.9701
6.0789 3.4200 -3.0087 0.9701
5.7499 3.9471 -3.0084 0.9701
5.3752 4.4427 -3.0081 0.9701
4.9578 4.9029 -3.0077 0.9701
4.5010 5.3238 -3.0072 0.9701
1.8572 5.1622 -2.3665 0.9764
-0.0736 6.6101 -2.8515 0.9716
-0.6613 6.5730 -2.8496 0.9716
-1.2427 6.4834 -2.8476 0.9717
-1.9112 6.6839 -2.9987 0.9702
-3.0642 6.2354 -2.9969 0.9702
-3.6059 5.9362 -2.9960 0.9702
-4.5987 5.1998 -2.9943 0.9702
-6.1183 3.2648 -2.9914 0.9702
-6.3833 2.7067 -2.9908 0.9702
-6.9225 0.3087 -2.9891 0.9703
-6.9220 -0.3086 -2.9888 0.9703
-6.5411 -2.1092 -2.9646 0.9705
-6.0572 -3.2322 -2.9616 0.9705
-5.7466 -3.7593 -2.9621 0.9705
-5.3906 -4.2569 -2.9629 0.9705
-4.0792 -5.5363 -2.9664 0.9705
-0.9704 -2.5195 -1.1646 0.9883
-0.7201 -2.5185 -1.1299 0.9887
-0.4916 -2.5647 -1.1264 0.9887
-0.0320 -2.8714 -1.2387 0.9876
1.1508 -6.8225 -2.9845 0.9703
1.7549 -6.6983 -2.9869 0.9703
2.3460 -6.5208 -2.9893 0.9703
2.9194 -6.2912 -2.9917 0.9702
3.4705 -6.0111 -2.9941 0.9702
3.9949 -5.6828 -2.9964 0.9702
4.9465 -4.8917 -3.0009 0.9701
6.3547 -2.8633 -3.0065 0.9701
6.5855 -2.2867 -3.0071 0.9701
6.8887 -1.0832 -3.0080 0.9701
6.8357 1.3894 -3.0089 0.9701
6.4810 2.5794 -3.0089 0.9701
6.2254 3.1459 -3.0088 0.9701
5.9203 3.6872 -3.0086 0.9701
4.7341 5.1184 -3.0075 0.9701
3.0486 5.8695 -2.8530 0.9716
2.5160 6.1223 -2.8552 0.9716
1.9611 6.3219 -2.8552 0.9716
0.2210 6.6087 -2.8523 0.9716
-0.3679 6.5982 -2.8506 0.9716
-0.9531 6.5347 -2.8486 0.9716
-1.5299 6.4197 -2.8467 0.9717
-2.2067 6.5911 -2.9983 0.9702
-3.3384 6.0918 -2.9965 0.9702
-5.2486 4.5387 -2.9931 0.9702
-5.6304 4.0525 -2.9924 0.9702
-5.9674 3.5345 -2.9917 0.9702
-6.2570 2.9887 -2.9911 0.9702
-6.4969 2.4195 -2.9905 0.9703
-6.6853 1.8313 -2.9900 0.9703
-6.8208 1.2288 -2.9896 0.9703
-6.5984 -0.5896 -2.9892 0.9713
-6.5194 -1.1745 -2.9890 0.9713
-5.6499 -3.3464 -2.9630 0.9716
-4.9695 -4.2973 -2.9644 0.9716
-4.5689 -4.7242 -2.9655 0.9716
-4.1319 -5.1142 -2.9667 0.9716
-3.6621 -5.4642 -2.9680 0.9715
-1.5529 -2.8337 -1.4580 0.9859
-1.1272 -2.5780 -1.2696 0.9877
-0.8513 -2.5428 -1.2100 0.9883
-0.6133 -2.5736 -1.1938 0.9885
-0.1566 -2.8089 -1.2694 0.9877
1.9620 -6.3249 -2.9881 0.9714
3.5715 -5.5946 -2.9949 0.9713
4.0582 -5.2584 -2.9971 0.9713
4.5133 -4.8798 -2.9992 0.9713
4.9331 -4.4617 -3.0013 0.9712
6.1907 -2.4639 -3.0065 0.9712
6.3865 -1.9034 -3.0070 0.9712
6.6246 -0.7411 -3.0078 0.9712
6.6649 -0.1485 -3.0081 0.9712
6.6522 0.4453 -3.0083 0.9712
6.5865 1.0357 -3.0084 0.9712
6.4683 1.6178 -3.0085 0.9712
6.2986 2.1871 -3.0085 0.9712
5.8105 3.2690 -3.0082 0.9712
5.4961 3.7728 -3.0080 0.9712
4.7390 4.6864 -3.0073 0.9712
3.1614 5.4758 -2.8530 0.9726
2.6626 5.7378 -2.8542 0.9726
1.6030 6.1187 -2.8540 0.9726
0.4924 6.3019 -2.8522 0.9726
-0.0704 6.3174 -2.8507 0.9727
-0.6320 6.2823 -2.8490 0.9727
-1.1879 6.1971 -2.8471 0.9727
-1.8271 6.3897 -2.9987 0.9713
-2.3879 6.2000 -2.9978 0.9713
-2.9294 5.9611 -2.9970 0.9713
-3.4474 5.6751 -2.9961 0.9713
-3.9377 5.3443 -2.9953 0.9713
-4.3966 4.9713 -2.9945 0.9713
-4.8204 4.5591 -2.9937 0.9713
-5.8496 3.1214 -2.9917 0.9713
-6.3081 2.0341 -2.9906 0.9713
-6.4631 1.4644 -2.9902 0.9713
-6.5669 0.8832 -2.9898 0.9713
-6.6183 -0.2951 -2.9893 0.9713
-6.4606 -1.4638 -2.9890 0.9713
-6.0443 -2.5630 -2.9624 0.9716
-5.1552 -4.0711 -2.9640 0.9716
-3.9009 -5.2943 -2.9673 0.9716
-1.3008 -2.6472 -1.3309 0.9871
0.5149 -6.5896 -2.9824 0.9714
1.1002 -6.5225 -2.9847 0.9714
1.6777 -6.4036 -2.9869 0.9714
2.2427 -6.2337 -2.9892 0.9713
2.7908 -6.0139 -2.9915 0.9713
3.3175 -5.7460 -2.9938 0.9713
3.8186 -5.4320 -2.9960 0.9713
4.2900 -5.0742 -2.9982 0.9713
4.7279 -4.6755 -3.0003 0.9712
5.1286 -4.2389 -3.0023 0.9712
6.0743 -2.7369 -3.0062 0.9712
6.4655 -1.6171 -3.0072 0.9712
6.6651 0.1485 -3.0082 0.9712
6.6259 0.7412 -3.0084 0.9712
6.3898 1.9044 -3.0085 0.9712
6.1948 2.4655 -3.0085 0.9712
5.9505 3.0070 -3.0083 0.9712
4.9433 4.4710 -3.0075 0.9712
4.5251 4.8925 -3.0071 0.9712
4.0563 5.2558 -2.9956 0.9713
3.4026 5.3300 -2.8533 0.9726
2.9154 5.6131 -2.8540 0.9726
1.8741 6.0416 -2.8542 0.9726
0.7729 6.2751 -2.8528 0.9726
-1.4968 6.2808 -2.9134 0.9721
-2.1096 6.3011 -2.9983 0.9713
-2.6613 6.0866 -2.9974 0.9713
-3.1916 5.8239 -2.9966 0.9713
-5.3831 3.8745 -2.9927 0.9713
-5.7053 3.3793 -2.9920 0.9713
-5.9824 2.8575 -2.9914 0.9713
-6.2117 2.3133 -2.9909 0.9713
-6.3919 1.7510 -2.9904 0.9713
-6.5215 1.1749 -2.9900 0.9713
-6.3426 0.0000 -2.9898 0.9723
-6.2415 -1.1245 -2.9894 0.9723
-4.3749 -4.5236 -2.9664 0.9726
-1.1486 -2.6269 -1.3515 0.9874
-0.8645 -2.5821 -1.2835 0.9880
-0.6221 -2.6106 -1.2650 0.9882
-0.3931 -2.6953 -1.2839 0.9880
0.2114 -6.3217 -2.9816 0.9724
1.3308 -6.1930 -2.9859 0.9724
1.8781 -6.0544 -2.9881 0.9724
2.4113 -5.8676 -2.9903 0.9723
2.9261 -5.6338 -2.9925 0.9723
3.4184 -5.3548 -2.9946 0.9723
4.3196 -4.6703 -2.9988 0.9723
4.7212 -4.2701 -3.0007 0.9722
5.0857 -3.8353 -3.0026 0.9722
5.4100 -3.3694 -3.0043 0.9722
5.6909 -2.8757 -3.0056 0.9722
5.9253 -2.3582 -3.0061 0.9722
6.2514 -1.2706 -3.0070 0.9722
6.3790 -0.1421 -3.0077 0.9722
6.3668 0.4262 -3.0079 0.9722
5.8179 2.6215 -3.0080 0.9722
5.2603 3.6110 -3.0076 0.9722
4.1179 4.8707 -3.0065 0.9722
3.0262 5.2415 -2.8530 0.9736
2.5480 5.4908 -2.8533 0.9736
1.8571 5.1620 -2.5859 0.9760
1.5340 5.8551 -2.8531 0.9736
1.0065 5.9670 -2.8524 0.9736
0.4712 6.0306 -2.8514 0.9736
-1.1442 5.9694 -2.8651 0.9735
-2.2858 5.9349 -2.9979 0.9723
-2.8042 5.7063 -2.9971 0.9723
-3.7695 5.1160 -2.9955 0.9723
-4.2088 4.7590 -2.9947 0.9723
-5.3128 3.4755 -2.9926 0.9723
-5.8426 2.4775 -2.9915 0.9723
-6.0390 1.9473 -2.9910 0.9723
-6.1875 1.4019 -2.9905 0.9723
-6.2869 0.8455 -2.9902 0.9723
-6.3366 0.2825 -2.9899 0.9723
-6.3361 -0.2825 -2.9897 0.9723
-6.2855 -0.8453 -2.9895 0.9723
-6.1851 -1.4014 -2.9894 0.9723
-5.5471 -2.9600 -2.9638 0.9726
-5.2626 -3.4426 -2.9643 0.9726
-4.9365 -3.8983 -2.9650 0.9726
-1.3423 -2.7314 -1.4346 0.9866
-1.0008 -2.5985 -1.3126 0.9878
-0.5060 -2.6397 -1.2669 0.9882
-0.0337 -3.0204 -1.4238 0.9867
1.0532 -6.2438 -2.9848 0.9724
1.6060 -6.1298 -2.9870 0.9724
2.1467 -5.9669 -2.9892 0.9723
2.6713 -5.7564 -2.9914 0.9723
3.1753 -5.4998 -2.9936 0.9723
4.9083 -4.0568 -3.0016 0.9722
5.5562 -3.1259 -3.0051 0.9722
5.8139 -2.6196 -3.0059 0.9722
6.0250 -2.0921 -3.0064 0.9722
6.1882 -1.5478 -3.0068 0.9722
6.3661 -0.4261 -3.0075 0.9722
6.3416 0.7094 -3.0080 0.9722
6.1156 1.8226 -3.0081 0.9722
5.9291 2.3597 -3.0080 0.9722
5.4162 3.3732 -3.0077 0.9722
5.0940 3.8416 -3.0075 0.9722
4.3311 4.6827 -3.0067 0.9722
3.2567 5.1015 -2.8530 0.9736
2.7899 5.3715 -2.8532 0.9736
2.3009 5.5990 -2.8534 0.9736
1.2715 5.9171 -2.8528 0.9736
0.2021 6.0442 -2.8507 0.9736
-0.3365 6.0351 -2.8492 0.9736
-0.8718 5.9776 -2.8475 0.9736
-1.4750 6.1892 -2.9991 0.9723
-3.5383 5.2795 -2.9958 0.9723
-4.8038 4.1540 -2.9936 0.9723
-5.4618 3.2351 -2.9923 0.9723
-5.7270 2.7356 -2.9917 0.9723
-5.9467 2.2146 -2.9912 0.9723
-6.1193 1.6762 -2.9908 0.9723
-6.0548 -0.5411 -2.9899 0.9733
-5.9824 -1.0778 -2.9898 0.9733
-5.8611 -1.6055 -2.9890 0.9733
-5.6519 -2.1048 -2.9664 0.9735
-5.4387 -2.5979 -2.9646 0.9735
-5.1867 -3.0721 -2.9650 0.9735
-4.8936 -3.5222 -2.9656 0.9735
-2.9029 -5.2972 -2.9710 0.9734
-1.1903 -2.7224 -1.4614 0.9868
-0.8783 -2.6232 -1.3606 0.9877
-0.6313 -2.6492 -1.3395 0.9879
-0.3991 -2.7368 -1.3604 0.9877
-0.1645 -2.9495 -1.4530 0.9869
0.2026 -6.0590 -2.9818 0.9733
2.3108 -5.6231 -2.9902 0.9733
4.1392 -4.4752 -2.9983 0.9732
4.8729 -3.6749 -3.0019 0.9732
5.1836 -3.2283 -3.0036 0.9731
5.4531 -2.7556 -3.0051 0.9731
5.8575 -1.7457 -3.0063 0.9731
5.9905 -1.2176 -3.0067 0.9731
5.9322 1.4838 -3.0077 0.9731
5.7766 2.0059 -3.0077 0.9731
5.5750 2.5120 -3.0076 0.9731
5.3291 2.9981 -3.0074 0.9731
5.0407 3.4602 -3.0072 0.9731
4.7123 3.8948 -3.0069 0.9731
3.9460 4.6674 -3.0062 0.9731
3.5144 4.9993 -3.0057 0.9731
0.9643 5.7169 -2.8516 0.9745
0.4515 5.7780 -2.8506 0.9745
-0.0645 5.7926 -2.8493 0.9745
-1.1382 5.9377 -2.9737 0.9734
-2.1906 5.6878 -2.9979 0.9732
-3.6127 4.9032 -2.9956 0.9732
-4.0338 4.5611 -2.9949 0.9732
-5.3673 2.8641 -2.9923 0.9732
-6.0259 0.8104 -2.9905 0.9733
-6.0735 0.2708 -2.9902 0.9733
-6.0731 -0.2708 -2.9900 0.9733
-6.0246 -0.8102 -2.9899 0.9733
-5.9284 -1.3432 -2.9898 0.9733
-5.7507 -1.8544 -2.9719 0.9734
-5.5488 -2.3529 -2.9644 0.9735
-5.0451 -3.3004 -2.9653 0.9735
-4.3823 -4.1447 -2.9668 0.9735
-3.9974 -4.5199 -2.9678 0.9735
-3.1353 -5.1614 -2.9703 0.9734
-1.0217 -2.6527 -1.3982 0.9874
-0.7518 -2.6291 -1.3449 0.9879
-0.2825 -2.8084 -1.3883 0.9875
1.0094 -5.9841 -2.9849 0.9733
1.5391 -5.8747 -2.9870 0.9733
2.5599 -5.5165 -2.9912 0.9733
3.0429 -5.2704 -2.9933 0.9732
4.3358 -4.2877 -2.9992 0.9732
5.0332 -3.4551 -3.0028 0.9732
6.0391 -0.9496 -3.0069 0.9731
5.9924 1.2180 -3.0077 0.9731
5.8603 1.7466 -3.0077 0.9731
5.4575 2.7578 -3.0075 0.9731
5.1900 3.2324 -3.0073 0.9731
4.5338 4.1006 -3.0068 0.9731
4.1503 4.4873 -3.0064 0.9731
3.7339 4.8381 -3.0059 0.9731
3.1961 5.0066 -2.9215 0.9739
2.6730 5.1465 -2.8524 0.9745
1.2182 5.6690 -2.8520 0.9745
0.7086 5.7532 -2.8511 0.9745
0.1936 5.7911 -2.8500 0.9745
-0.3224 5.7825 -2.8486 0.9745
-0.8379 5.7453 -2.8557 0.9745
-1.4135 5.9314 -2.9991 0.9732
-2.4415 5.5839 -2.9975 0.9732
-3.3911 5.0599 -2.9960 0.9732
-4.2325 4.3763 -2.9945 0.9732
-4.6041 3.9814 -2.9938 0.9732
-4.9391 3.5550 -2.9932 0.9732
-5.2350 3.1006 -2.9926 0.9732
-5.4891 2.6219 -2.9920 0.9732
-5.6997 2.1226 -2.9915 0.9733
-6.0557 0.5411 -2.9904 0.9733
-4.6964 -3.3802 -2.9665 0.9743
-4.3779 -3.7857 -2.9672 0.9743
-3.6397 -4.5050 -2.9692 0.9743
-3.2257 -4.8130 -2.9704 0.9743
-0.9052 -2.7038 -1.4618 0.9873
-0.6465 -2.7129 -1.4298 0.9875
-0.4108 -2.8167 -1.4593 0.9873
-0.1708 -3.0624 -1.5724 0.9863
1.7268 -5.5667 -2.9881 0.9741
2.2169 -5.3946 -2.9901 0.9741
2.6901 -5.1793 -2.9921 0.9741
3.5705 -4.6264 -2.9960 0.9741
4.6742 -3.5250 -3.0014 0.9740
5.2305 -2.6431 -3.0044 0.9740
5.6191 -1.6747 -3.0060 0.9740
5.7466 -1.1680 -3.0064 0.9740
5.8284 -0.6520 -3.0067 0.9740
5.8638 -0.1307 -3.0069 0.9740
5.8525 0.3918 -3.0071 0.9740
5.6907 1.4234 -3.0073 0.9740
5.3480 2.4097 -3.0072 0.9740
5.1121 2.8760 -3.0071 0.9740
4.5204 3.7362 -3.0066 0.9740
0.4331 5.5420 -2.8499 0.9753
-0.0619 5.5562 -2.8486 0.9753
-1.6081 5.6238 -2.9987 0.9741
-2.5784 5.2469 -2.9972 0.9741
-3.0344 4.9954 -2.9964 0.9741
-4.2434 4.0134 -2.9943 0.9741
-4.8858 3.1961 -2.9931 0.9741
-5.1498 2.7481 -2.9926 0.9741
-5.6903 1.2893 -2.9912 0.9741
-5.8276 0.2598 -2.9906 0.9741
-5.8272 -0.2598 -2.9904 0.9741
-5.6883 -1.2888 -2.9902 0.9741
-5.3252 -2.2581 -2.9654 0.9743
-5.1036 -2.7234 -2.9657 0.9743
-4.2056 -3.9776 -2.9676 0.9743
-3.0087 -4.9530 -2.9710 0.9743
-0.7707 -2.6953 -1.4372 0.9875
-0.5267 -2.7476 -1.4342 0.9875
-0.2928 -2.9110 -1.4999 0.9869
-0.0648 -5.8144 -2.9811 0.9742
0.9685 -5.7414 -2.9850 0.9742
1.4766 -5.6362 -2.9870 0.9741
2.4559 -5.2922 -2.9911 0.9741
2.9191 -5.0560 -2.9931 0.9741
3.7742 -4.4641 -2.9969 0.9741
4.1591 -4.1130 -2.9988 0.9740
4.8279 -3.3142 -3.0022 0.9740
5.3442 -2.4080 -3.0051 0.9740
5.6885 -1.4228 -3.0062 0.9740
5.8519 -0.3917 -3.0068 0.9740
5.8294 0.6521 -3.0072 0.9740
5.6216 1.6754 -3.0073 0.9740
5.4501 2.1691 -3.0073 0.9740
5.2353 2.6455 -3.0072 0.9740
4.9787 3.1008 -3.0070 0.9740
4.6826 3.5313 -3.0067 0.9740
4.3493 3.9337 -3.0064 0.9740
3.9814 4.3046 -3.0061 0.9740
3.1541 4.9409 -3.0052 0.9740
2.1144 5.1451 -2.8518 0.9753
-0.3093 5.5468 -2.8481 0.9753
-1.3561 5.6906 -2.9991 0.9740
-1.8568 5.5459 -2.9983 0.9741
-3.2536 4.8546 -2.9961 0.9741
-4.0608 4.1989 -2.9947 0.9741
-4.4175 3.8200 -2.9940 0.9741
-4.7390 3.4109 -2.9934 0.9741
-5.2667 2.5157 -2.9923 0.9741
-5.6276 1.5416 -2.9914 0.9741
-5.4028 -1.4800 -2.9905 0.9749
-4.7816 -2.8321 -2.9668 0.9751
-4.5114 -3.2471 -2.9673 0.9751
-4.2054 -3.6366 -2.9680 0.9751
-3.4963 -4.3274 -2.9699 0.9751
-2.2317 -5.1039 -2.9738 0.9751
-0.9360 -2.7957 -1.5739 0.9867
-0.6664 -2.7964 -1.5347 0.9870
0.1867 -5.5833 -2.9823 0.9750
0.6833 -5.5480 -2.9842 0.9750
1.1752 -5.4688 -2.9861 0.9750
2.5833 -4.9736 -2.9919 0.9749
4.1667 -3.7685 -2.9992 0.9748
5.2301 -2.0815 -3.0050 0.9748
5.5966 -0.6261 -3.0064 0.9748
5.5642 0.8749 -3.0069 0.9748
5.4644 1.3668 -3.0070 0.9748
5.3210 1.8477 -3.0070 0.9748
5.1353 2.3139 -3.0069 0.9748
4.6432 3.1874 -3.0066 0.9748
4.3407 3.5877 -3.0063 0.9748
4.0037 3.9593 -3.0060 0.9748
3.6349 4.2994 -3.0056 0.9748
3.2374 4.6052 -3.0051 0.9748
2.8142 4.8743 -3.0047 0.9748
0.8880 5.2644 -2.8501 0.9761
0.4158 5.3209 -2.8492 0.9761
-2.9142 4.7974 -2.9965 0.9749
-3.3288 4.5179 -2.9958 0.9749
-3.7169 4.2028 -2.9952 0.9749
-4.0753 3.8544 -2.9945 0.9749
-5.1604 2.1882 -2.9923 0.9749
-5.3339 1.7200 -2.9919 0.9749
-5.5531 0.7468 -2.9912 0.9749
-5.5970 0.2496 -2.9909 0.9749
-5.5967 -0.2496 -2.9907 0.9749
-5.4634 -1.2378 -2.9905 0.9749
-5.3161 -1.7142 -2.9819 0.9750
-4.9026 -2.6161 -2.9666 0.9751
-4.6511 -3.0426 -2.9670 0.9751
-3.3006 -4.4796 -2.9705 0.9751
-2.4562 -4.9982 -2.9731 0.9751
-1.0926 -2.8369 -1.6229 0.9863
-0.7946 -2.7787 -1.5429 0.9870
-0.5434 -2.8350 -1.5410 0.9870
-0.3041 -3.0233 -1.6221 0.9863
0.4353 -5.5712 -2.9832 0.9750
1.8954 -5.2685 -2.9890 0.9749
2.3584 -5.0821 -2.9910 0.9749
2.8032 -4.8552 -2.9929 0.9749
3.9935 -3.9493 -2.9983 0.9749
5.1311 -2.3120 -3.0044 0.9748
5.6308 0.1255 -3.0067 0.9748
5.3981 1.6088 -3.0070 0.9748
4.7807 2.9775 -3.0067 0.9748
4.1763 3.7773 -3.0061 0.9748
3.8231 4.1335 -3.0058 0.9748
3.4396 4.4568 -3.0054 0.9748
2.0301 4.9400 -2.8512 0.9761
-0.3018 5.4126 -2.8939 0.9757
-0.8110 5.5604 -2.9998 0.9748
-2.2496 5.1449 -2.9976 0.9749
-2.6979 4.9230 -2.9969 0.9749
-3.1246 4.6622 -2.9962 0.9749
-4.2425 3.6687 -2.9942 0.9749
-4.5514 3.2758 -2.9936 0.9749
-4.8240 2.8572 -2.9931 0.9749
-5.2524 1.9560 -2.9921 0.9749
-5.4049 1.4806 -2.9917 0.9749
-5.5146 0.9935 -2.9913 0.9749
-5.5806 0.4987 -2.9910 0.9749
-5.3639 -0.4793 -2.9909 0.9757
-5.1937 -1.4227 -2.9908 0.9757
-4.8208 -2.3027 -2.9672 0.9759
-4.5973 -2.7230 -2.9676 0.9758
-4.0433 -3.4964 -2.9688 0.9758
-3.7171 -3.8434 -2.9696 0.9758
-0.9984 -2.9821 -1.7466 0.9857
-0.6920 -2.9039 -1.6580 0.9864
-0.4489 -3.0782 -1.7277 0.9859
-0.2988 -5.3585 -2.9807 0.9757
0.1794 -5.3670 -2.9825 0.9757
0.6568 -5.3330 -2.9843 0.9757
1.5940 -5.1385 -2.9880 0.9757
2.0463 -4.9793 -2.9899 0.9757
2.4829 -4.7804 -2.9918 0.9757
3.6641 -3.9616 -2.9971 0.9756
4.0044 -3.6217 -2.9987 0.9756
4.3131 -3.2527 -3.0003 0.9756
4.8260 -2.4387 -3.0031 0.9756
5.3789 -0.6017 -3.0061 0.9755
5.4011 0.3616 -3.0065 0.9755
5.3477 0.8409 -3.0066 0.9755
5.2518 1.3136 -3.0067 0.9755
5.1140 1.7758 -3.0066 0.9755
4.9355 2.2238 -3.0066 0.9755
4.1718 3.4481 -3.0060 0.9755
3.4936 4.1322 -3.0053 0.9755
2.2342 4.8146 -2.9479 0.9760
1.3006 4.9642 -2.8502 0.9768
0.3996 5.1140 -2.8489 0.9768
-0.5407 5.3746 -3.0001 0.9756
-1.0167 5.3039 -2.9994 0.9756
-1.4844 5.1912 -2.9987 0.9756
-2.8011 4.6113 -2.9966 0.9756
-3.1998 4.3428 -2.9959 0.9756
-3.5728 4.0399 -2.9953 0.9756
-3.9174 3.7050 -2.9947 0.9756
-4.5105 2.9507 -2.9935 0.9756
-4.7544 2.5370 -2.9930 0.9756
-4.9606 2.1035 -2.9926 0.9756
-5.1274 1.6534 -2.9921 0.9757
-5.3804 0.2399 -2.9912 0.9757
-5.2519 -1.1899 -2.9908 0.9757
-4.9200 -2.0863 -2.9681 0.9758
-4.7137 -2.5153 -2.9674 0.9759
-4.4718 -2.9253 -2.9678 0.9758
-3.8841 -3.6735 -2.9692 0.9758
-3.1733 -4.3068 -2.9711 0.9758
-2.7785 -4.5740 -2.9723 0.9758
-2.3614 -4.8052 -2.9736 0.9758
-1.9252 -4.9987 -2.9750 0.9758
-0.5370 -5.3383 -2.9798 0.9757
-0.0598 -5.3681 -2.9816 0.9757
0.4185 -5.3553 -2.9834 0.9757
1.3631 -5.2027 -2.9871 0.9757
1.8218 -5.0639 -2.9890 0.9757
2.2668 -4.8847 -2.9908 0.9757
3.1007 -4.4108 -2.9945 0.9756
3.4830 -4.1197 -2.9962 0.9756
3.8381 -3.7955 -2.9979 0.9756
4.1629 -3.4407 -2.9995 0.9756
4.7116 -2.6507 -3.0025 0.9756
5.2499 -1.3131 -3.0056 0.9755
5.3465 -0.8407 -3.0059 0.9755
5.4117 0.1206 -3.0064 0.9755
5.3050 1.0783 -3.0066 0.9755
5.1880 1.5462 -3.0067 0.9755
5.0298 2.0018 -3.0066 0.9755
4.3215 3.2590 -3.0061 0.9755
3.6744 3.9727 -3.0055 0.9755
2.9110 4.5600 -3.0047 0.9756
1.9780 4.8131 -2.8901 0.9765
1.5206 4.9018 -2.8504 0.9768
1.0780 5.0167 -2.8499 0.9768
0.6271 5.0917 -2.8493 0.9768
0.1731 5.1767 -2.8767 0.9766
-2.5932 4.7321 -2.9970 0.9756
-3.0035 4.4815 -2.9963 0.9756
-4.0782 3.5265 -2.9944 0.9756
-4.3750 3.1489 -2.9938 0.9756
-5.0490 1.8803 -2.9923 0.9756
-5.1957 1.4232 -2.9920 0.9757
-5.3011 0.9550 -2.9916 0.9757
-5.3646 0.4794 -2.9913 0.9757
-5.1812 0.0000 -2.9914 0.9764
-5.0987 -0.9186 -2.9911 0.9764
-4.9967 -1.3687 -2.9911 0.9764
-4.4236 -2.6201 -2.9683 0.9765
-3.5766 -3.6981 -2.9703 0.9765
-3.2342 -4.0031 -2.9713 0.9765
-2.8662 -4.2766 -2.9723 0.9765
-2.0642 -4.7210 -2.9748 0.9765
-1.6366 -4.8883 -2.9762 0.9765
0.1726 -5.1633 -2.9827 0.9764
