ply
format ascii 1.0
element vertex 1585
property float32 x
property float32 y
property float32 z
property float32 I
end_header
0.3066 -2.4895 0.0208 0.9900
0.8936 -2.8808 0.0251 0.9880
-0.6899 -2.4125 0.0209 0.9900
-0.4552 -2.3750 0.0201 0.9904
-0.0267 -2.3953 0.0199 0.9905
0.1912 -2.4471 0.0204 0.9902
0.7105 -2.7118 0.0233 0.9888
1.1843 -3.2919 0.0291 0.9861
2.1693 5.2787 0.0474 0.9774
-1.6280 -2.9706 -0.0282 0.9865
-0.5647 -2.3694 -0.0202 0.9903
-0.3440 -2.3582 -0.0198 0.9905
-0.1320 -2.3669 -0.0197 0.9906
0.0802 -2.3998 -0.0200 0.9904
0.3049 -2.4755 -0.0207 0.9901
0.5589 -2.6008 -0.0221 0.9894
0.8848 -2.8524 -0.0248 0.9881
-0.9553 -2.4804 -0.0221 0.9894
-0.4529 -2.3628 -0.0200 0.9904
-0.2368 -2.3538 -0.0197 0.9906
0.7045 -2.6891 -0.0231 0.9889
1.1392 -3.1665 -0.0280 0.9866
2.1692 5.2786 -0.0474 0.9774
-1.6072 -2.9327 -0.0834 0.9867
-1.1108 -2.5404 -0.0691 0.9890
-0.8093 -2.4173 -0.0636 0.9899
-0.5618 -2.3574 -0.0604 0.9904
-0.3423 -2.3471 -0.0592 0.9906
-0.1313 -2.3558 -0.0588 0.9906
0.0799 -2.3885 -0.0596 0.9905
0.5556 -2.5856 -0.0660 0.9895
0.8782 -2.8310 -0.0739 0.9882
-0.6824 -2.3866 -0.0619 0.9901
-0.4508 -2.3517 -0.0597 0.9905
-0.0264 -2.3720 -0.0592 0.9906
0.1892 -2.4215 -0.0606 0.9903
1.1257 -3.1290 -0.0829 0.9868
-1.1081 -2.5342 -0.1150 0.9890
-0.5608 -2.3531 -0.1006 0.9904
-0.3418 -2.3433 -0.0985 0.9906
0.5544 -2.5799 -0.1097 0.9895
0.8754 -2.8220 -0.1229 0.9882
-0.6812 -2.3822 -0.1030 0.9901
-0.4500 -2.3478 -0.0994 0.9905
-0.2353 -2.3388 -0.0977 0.9906
-0.0264 -2.3681 -0.0985 0.9906
0.1889 -2.4172 -0.1008 0.9903
0.4220 -2.5019 -0.1055 0.9899
0.6988 -2.6672 -0.1146 0.9890
1.1195 -3.1115 -0.1375 0.9868
-1.1053 -2.5280 -0.1607 0.9890
-0.3412 -2.3395 -0.1377 0.9906
0.0796 -2.3806 -0.1387 0.9905
-0.4493 -2.3439 -0.1390 0.9905
-0.0263 -2.3643 -0.1377 0.9906
0.1885 -2.4129 -0.1410 0.9903
1.1132 -3.0942 -0.1915 0.9869
2.1691 5.2782 -0.3324 0.9774
-1.5749 -2.8739 -0.2456 0.9869
-1.1026 -2.5218 -0.2063 0.9890
-0.8047 -2.4035 -0.1899 0.9899
-0.5587 -2.3446 -0.1806 0.9904
-0.1307 -2.3444 -0.1760 0.9906
0.0795 -2.3767 -0.1782 0.9905
0.5520 -2.5686 -0.1969 0.9895
-0.9431 -2.4487 -0.1966 0.9895
-0.6786 -2.3733 -0.1850 0.9901
0.1882 -2.4087 -0.1811 0.9904
2.1691 5.2781 -0.4276 0.9774
-1.5644 -2.8547 -0.2984 0.9870
-1.0999 -2.5156 -0.2517 0.9890
0.0793 -2.3729 -0.2177 0.9905
0.3012 -2.4454 -0.2259 0.9902
0.8672 -2.7955 -0.2683 0.9883
-0.9409 -2.4429 -0.2400 0.9895
-0.2341 -2.3274 -0.2144 0.9906
0.4197 -2.4881 -0.2313 0.9899
0.6940 -2.6489 -0.2510 0.9891
-0.8016 -2.3943 -0.2739 0.9899
-0.5568 -2.3366 -0.2605 0.9904
-0.3395 -2.3279 -0.2552 0.9906
0.5495 -2.5573 -0.2837 0.9895
0.8644 -2.7867 -0.3165 0.9883
-0.9387 -2.4372 -0.2833 0.9895
-0.4471 -2.3322 -0.2576 0.9905
-0.2338 -2.3236 -0.2533 0.9906
-0.0262 -2.3528 -0.2552 0.9906
0.4189 -2.4835 -0.2732 0.9899
1.0949 -3.0432 -0.3508 0.9871
-1.0945 -2.5033 -0.3424 0.9890
-0.8001 -2.3897 -0.3158 0.9899
-0.5559 -2.3327 -0.3005 0.9904
-0.1301 -2.3330 -0.2928 0.9906
0.0791 -2.3651 -0.2966 0.9905
0.5483 -2.5517 -0.3271 0.9895
0.8617 -2.7779 -0.3645 0.9883
-1.2819 -2.6087 -0.3643 0.9884
-0.9365 -2.4315 -0.3265 0.9896
-0.6748 -2.3601 -0.3076 0.9902
-0.4463 -2.3284 -0.2971 0.9905
-0.2334 -2.3198 -0.2922 0.9906
0.4181 -2.4789 -0.3150 0.9899
0.6908 -2.6368 -0.3416 0.9891
1.0899 -3.0295 -0.4035 0.9871
-1.5587 -2.8442 -0.4613 0.9870
-0.7985 -2.3851 -0.3578 0.9899
-0.3384 -2.3202 -0.3335 0.9906
0.2996 -2.4321 -0.3486 0.9901
0.8607 -2.7745 -0.4132 0.9883
-0.9343 -2.4258 -0.3698 0.9896
-0.6736 -2.3556 -0.3485 0.9902
-0.4456 -2.3245 -0.3366 0.9905
-0.2330 -2.3160 -0.3311 0.9906
0.1869 -2.3917 -0.3412 0.9904
-0.7973 -2.3814 -0.3999 0.9899
-0.5540 -2.3248 -0.3806 0.9904
-0.3378 -2.3164 -0.3728 0.9906
-0.1297 -2.3254 -0.3709 0.9906
0.2990 -2.4277 -0.3895 0.9901
0.5468 -2.5447 -0.4145 0.9895
-1.2856 -2.6160 -0.4642 0.9883
-0.2326 -2.3122 -0.3700 0.9906
-0.0261 -2.3413 -0.3728 0.9906
1.1038 -3.0681 -0.5192 0.9869
-1.0966 -2.5080 -0.4827 0.9889
-0.7989 -2.3863 -0.4437 0.9898
-0.3377 -2.3157 -0.4126 0.9905
0.0788 -2.3570 -0.4158 0.9905
0.2994 -2.4306 -0.4318 0.9901
0.5481 -2.5508 -0.4600 0.9895
0.8667 -2.7939 -0.5158 0.9882
-0.6732 -2.3544 -0.4318 0.9901
-0.4448 -2.3206 -0.4166 0.9904
-0.2325 -2.3108 -0.4095 0.9906
-0.0261 -2.3405 -0.4127 0.9905
0.6918 -2.6407 -0.4813 0.9890
2.1687 5.2773 -1.0060 0.9771
-1.5939 -2.9085 -0.6418 0.9866
-1.0995 -2.5146 -0.5311 0.9889
-0.8006 -2.3911 -0.4880 0.9898
-0.5553 -2.3300 -0.4635 0.9903
0.5495 -2.5570 -0.5061 0.9894
0.8698 -2.8038 -0.5681 0.9881
-1.2952 -2.6357 -0.5683 0.9881
-0.0261 -2.3446 -0.4537 0.9905
0.1870 -2.3931 -0.4645 0.9903
0.4183 -2.4798 -0.4867 0.9898
0.6936 -2.6474 -0.5296 0.9889
-13.3813 -3.6655 -2.9250 0.9449
-13.0012 -4.8417 -2.9248 0.9449
-11.9421 -7.0733 -2.9261 0.9448
-11.2710 -8.1123 -2.9276 0.9448
-10.5171 -9.0945 -2.9312 0.9447
-9.6745 -10.0033 -2.9338 0.9447
-1.6061 -2.9308 -0.7046 0.9864
-0.8022 -2.3961 -0.5327 0.9897
-0.5563 -2.3342 -0.5059 0.9902
-0.3389 -2.3238 -0.4951 0.9904
0.3006 -2.4402 -0.5183 0.9900
0.5508 -2.5632 -0.5527 0.9893
5.3919 -13.1204 -2.9905 0.9437
6.5501 -12.6113 -2.9959 0.9436
7.6603 -11.9996 -3.0013 0.9435
11.4162 -8.6093 -3.0144 0.9432
12.1457 -7.5644 -3.0166 0.9432
13.3112 -5.2977 -3.0204 0.9431
13.7375 -4.0942 -3.0220 0.9431
14.0542 -2.8566 -3.0235 0.9431
14.3491 -0.3197 -3.0258 0.9430
14.1853 2.2306 -3.0273 0.9430
13.9323 3.4847 -3.0277 0.9430
13.5676 4.7112 -3.0278 0.9430
13.0941 5.9000 -3.0278 0.9430
12.5158 7.0413 -3.0275 0.9430
11.6133 7.9721 -2.9697 0.9440
10.5021 8.6802 -2.8724 0.9458
9.6847 9.5774 -2.8715 0.9458
8.7971 10.4053 -2.8726 0.9458
4.6044 12.7981 -2.8674 0.9459
3.4451 13.1496 -2.8658 0.9459
2.2596 13.3960 -2.8640 0.9460
1.0577 13.5354 -2.8622 0.9460
-0.1511 13.5669 -2.8603 0.9460
-3.7146 12.9909 -2.8485 0.9463
-5.1116 13.2719 -2.9983 0.9435
-9.3905 10.6180 -2.9883 0.9437
-11.1074 8.7714 -2.9838 0.9438
-13.0044 5.5143 -2.9779 0.9439
-13.9785 1.8799 -2.9735 0.9440
-14.0811 -0.6279 -2.9715 0.9440
-13.9663 -1.8783 -2.9709 0.9440
-13.5672 -3.0739 -2.9327 0.9447
-13.2040 -4.2577 -2.9248 0.9449
-10.9054 -8.6118 -2.9295 0.9448
-9.2237 -10.4294 -2.9352 0.9447
-1.3001 -2.6457 -0.6215 0.9880
-0.9409 -2.4431 -0.5519 0.9894
-0.6759 -2.3638 -0.5183 0.9900
-0.4464 -2.3289 -0.4999 0.9904
-0.2333 -2.3190 -0.4914 0.9905
-0.0262 -2.3487 -0.4952 0.9904
0.1874 -2.3977 -0.5070 0.9902
5.9764 -12.8789 -2.9932 0.9436
7.1118 -12.3180 -2.9986 0.9435
8.1944 -11.6567 -3.0039 0.9434
9.2139 -10.8982 -3.0086 0.9433
10.1553 -10.0428 -3.0110 0.9433
13.5378 -4.7008 -3.0212 0.9431
13.9097 -3.4790 -3.0228 0.9431
14.1706 -2.2282 -3.0241 0.9430
14.3182 -0.9584 -3.0253 0.9430
12.1887 7.5912 -3.0272 0.9430
10.1034 9.1380 -2.8720 0.9458
9.2536 10.0049 -2.8731 0.9458
8.3234 10.7849 -2.8720 0.9458
7.3275 11.4783 -2.8709 0.9459
6.2739 12.0794 -2.8696 0.9459
4.0286 12.9868 -2.8666 0.9459
2.8550 13.2861 -2.8649 0.9460
1.6601 13.4792 -2.8631 0.9460
-0.7551 13.5421 -2.8594 0.9461
-5.6953 13.0254 -2.9970 0.9435
-7.9011 11.7893 -2.9920 0.9436
-9.8503 10.1852 -2.9871 0.9437
-11.4830 8.2650 -2.9827 0.9438
-12.1647 7.2052 -2.9807 0.9438
-13.2334 4.9281 -2.9770 0.9439
-13.6124 3.7288 -2.9755 0.9439
-13.8838 2.5013 -2.9741 0.9440
-14.0457 1.2552 -2.9729 0.9440
-12.9750 -1.1594 -2.9733 0.9480
-12.3793 -3.3910 -2.9296 0.9487
-12.0277 -4.4792 -2.9294 0.9487
-10.4257 -7.5039 -2.9319 0.9487
-9.7224 -8.4072 -2.9337 0.9486
-8.9441 -9.2480 -2.9365 0.9486
-8.0954 -10.0198 -2.9401 0.9485
-0.8039 -2.4010 -0.5779 0.9897
0.0792 -2.3696 -0.5412 0.9903
0.3011 -2.4451 -0.5623 0.9899
0.8760 -2.8241 -0.6749 0.9879
4.9795 -12.1169 -2.9900 0.9477
8.0435 -10.4223 -3.0049 0.9474
9.7844 -8.8495 -3.0112 0.9473
10.5405 -7.9490 -3.0132 0.9473
11.7977 -5.9616 -3.0170 0.9472
12.2883 -4.8906 -3.0187 0.9472
13.1614 -1.4723 -3.0227 0.9471
13.2446 -0.2951 -3.0237 0.9471
13.0929 2.0588 -3.0251 0.9471
12.8593 3.2163 -3.0255 0.9471
12.5226 4.3484 -3.0256 0.9471
7.2315 10.2870 -2.8700 0.9497
6.2847 10.8855 -2.8689 0.9497
5.2886 11.3966 -2.8676 0.9498
4.2512 11.8164 -2.8662 0.9498
2.0865 12.3696 -2.8632 0.9498
0.9767 12.4989 -2.8615 0.9499
-1.2533 12.4586 -2.8579 0.9499
-3.4308 11.9981 -2.8482 0.9501
-4.7214 12.2589 -2.9984 0.9475
-6.8094 11.2099 -2.9936 0.9476
-10.2634 8.1049 -2.9849 0.9478
-12.4176 4.0042 -2.9779 0.9479
-13.0188 0.5806 -2.9744 0.9479
-13.0152 -0.5803 -2.9736 0.9480
-12.9093 -1.7361 -2.9730 0.9480
-12.5568 -2.8450 -2.9386 0.9485
-12.2154 -3.9389 -2.9294 0.9487
-10.7468 -7.0302 -2.9311 0.9487
-10.0840 -7.9632 -2.9327 0.9486
-8.5284 -9.6434 -2.9383 0.9486
-6.6998 -11.0293 -2.9454 0.9484
-1.3051 -2.6559 -0.6754 0.9879
-0.9433 -2.4493 -0.5991 0.9893
0.1877 -2.4024 -0.5500 0.9902
0.6971 -2.6610 -0.6279 0.9888
1.1409 -3.1711 -0.7692 0.9863
5.5189 -11.8930 -2.9925 0.9476
6.5665 -11.3735 -2.9975 0.9475
10.1725 -8.4078 -3.0122 0.9473
10.8877 -7.4740 -3.0142 0.9473
11.5170 -6.4793 -3.0161 0.9472
12.4972 -4.3395 -3.0195 0.9472
13.0803 -2.0568 -3.0222 0.9471
13.2162 -0.8847 -3.0233 0.9471
13.2464 0.2952 -3.0241 0.9471
11.8306 5.9783 -3.0254 0.9471
11.2501 7.0067 -3.0250 0.9471
6.7648 10.5969 -2.8695 0.9497
5.7923 11.1522 -2.8683 0.9497
2.6362 12.2678 -2.8640 0.9498
0.4188 12.5262 -2.8606 0.9499
-0.6973 12.5060 -2.8588 0.9499
-2.8955 12.1502 -2.8509 0.9500
-4.1723 12.4620 -2.9995 0.9475
-5.2607 12.0316 -2.9972 0.9475
-8.2334 10.1906 -2.9902 0.9477
-9.1010 9.4104 -2.9880 0.9477
-9.8955 8.5570 -2.9859 0.9477
-11.2412 6.6582 -2.9820 0.9478
-12.9821 1.1601 -2.9749 0.9479
-12.1063 0.0000 -2.9757 0.9514
-11.5151 -3.1543 -2.9347 0.9520
-11.1839 -4.1649 -2.9334 0.9520
-10.2716 -6.0839 -2.9344 0.9520
-9.6932 -6.9767 -2.9356 0.9520
-9.0389 -7.8162 -2.9372 0.9520
-8.3132 -8.5957 -2.9393 0.9519
-0.5583 -2.3428 -0.5920 0.9901
-0.3401 -2.3322 -0.5793 0.9903
0.0794 -2.3739 -0.5838 0.9903
0.3017 -2.4500 -0.6068 0.9899
5.6149 -10.8105 -2.9943 0.9511
6.5649 -10.2836 -2.9989 0.9510
8.3098 -8.9845 -3.0081 0.9508
9.0829 -8.2150 -3.0103 0.9508
11.4052 -4.5392 -3.0173 0.9507
11.7695 -3.5077 -3.0187 0.9507
12.2144 -1.3664 -3.0210 0.9506
12.2698 0.8214 -3.0227 0.9506
12.1501 1.9105 -3.0232 0.9506
11.9332 2.9847 -3.0235 0.9506
11.6207 4.0352 -3.0237 0.9506
11.2153 5.0534 -3.0236 0.9506
10.7200 6.0310 -3.0234 0.9506
10.1392 6.9602 -3.0229 0.9506
8.9958 7.4352 -2.8687 0.9531
8.2960 8.2041 -2.8679 0.9531
4.9090 10.5786 -2.8665 0.9531
3.9462 10.9686 -2.8653 0.9531
2.9528 11.2709 -2.8639 0.9531
1.9369 11.4830 -2.8624 0.9532
-0.1296 11.6316 -2.8592 0.9532
-1.1637 11.5672 -2.8576 0.9532
-2.1850 11.3990 -2.8529 0.9533
-8.0581 9.1115 -2.9898 0.9511
-8.8312 8.3525 -2.9878 0.9512
-9.5335 7.5285 -2.9859 0.9512
-10.1596 6.6461 -2.9841 0.9512
-11.5364 3.7200 -2.9794 0.9513
-12.0036 1.6144 -2.9771 0.9513
-12.0959 0.5394 -2.9761 0.9513
-12.0929 -0.5392 -2.9754 0.9514
-11.6900 -2.6486 -2.9462 0.9518
-11.3584 -3.6626 -2.9335 0.9520
-9.3753 -7.4036 -2.9363 0.9520
-8.6846 -8.2138 -2.9382 0.9520
-7.9251 -8.9610 -2.9404 0.9519
-7.1023 -9.6393 -2.9430 0.9519
-6.2231 -10.2445 -2.9463 0.9518
-0.9457 -2.4556 -0.6468 0.9892
0.1881 -2.4071 -0.5935 0.9901
4.1142 -11.4357 -2.9873 0.9512
7.0220 -9.9889 -3.0012 0.9509
8.7051 -8.6086 -3.0093 0.9508
10.1063 -6.9376 -3.0131 0.9508
11.5989 -4.0275 -3.0180 0.9507
11.9166 -2.9805 -3.0193 0.9507
12.1393 -1.9088 -3.0205 0.9506
12.2651 -0.8210 -3.0215 0.9506
12.2928 0.2740 -3.0223 0.9506
12.2222 1.3673 -3.0230 0.9506
10.9786 5.5478 -3.0235 0.9506
10.4400 6.5021 -3.0232 0.9506
9.6792 7.2995 -2.9799 0.9513
7.9210 8.5641 -2.8674 0.9531
7.1322 9.2415 -2.8694 0.9531
6.2790 9.8358 -2.8683 0.9531
5.3765 10.3516 -2.8671 0.9531
1.4231 11.5548 -2.8616 0.9532
0.3888 11.6292 -2.8600 0.9532
-1.6764 11.4946 -2.8553 0.9533
-3.8742 11.5717 -2.9995 0.9510
-5.8559 10.6857 -2.9951 0.9510
-7.6469 9.4647 -2.9908 0.9511
-8.4532 8.7405 -2.9888 0.9511
-9.1915 7.9483 -2.9868 0.9512
-9.8563 7.0942 -2.9850 0.9512
-10.4425 6.1851 -2.9832 0.9512
-11.3618 4.2312 -2.9801 0.9513
-10.4452 -3.8898 -2.9370 0.9549
-10.0584 -4.8045 -2.9372 0.9549
-9.0523 -6.5154 -2.9389 0.9549
-7.7626 -8.0264 -2.9423 0.9549
-6.2266 -9.2908 -2.9471 0.9548
-1.1113 -2.5417 -0.7310 0.9886
-0.8073 -2.4112 -0.6700 0.9895
-0.5594 -2.3473 -0.6358 0.9901
-0.3408 -2.3365 -0.6222 0.9903
0.3024 -2.4550 -0.6518 0.9898
0.5549 -2.5825 -0.6960 0.9891
0.8890 -2.8657 -0.7906 0.9877
5.2365 -10.0821 -2.9936 0.9541
6.1222 -9.5902 -2.9980 0.9540
6.9616 -9.0204 -3.0024 0.9540
9.1243 -6.8809 -3.0113 0.9538
10.6347 -4.2325 -3.0160 0.9538
10.9740 -3.2706 -3.0173 0.9537
11.4596 -0.2553 -3.0204 0.9537
11.1254 2.7827 -3.0219 0.9537
10.8341 3.7620 -3.0220 0.9537
10.4560 4.7113 -3.0219 0.9537
9.9944 5.6228 -3.0217 0.9537
9.4530 6.4891 -3.0213 0.9537
8.3871 6.9321 -2.8672 0.9560
6.2589 8.9035 -2.8677 0.9560
5.4397 9.4218 -2.8667 0.9560
4.5777 9.8647 -2.8656 0.9560
3.6800 10.2287 -2.8644 0.9560
2.7537 10.5109 -2.8631 0.9560
-2.9714 10.3917 -2.8480 0.9563
-5.0152 10.2057 -2.9964 0.9541
-5.8997 9.7122 -2.9943 0.9541
-6.7362 9.1425 -2.9923 0.9541
-7.5183 8.5011 -2.9904 0.9541
-9.9893 5.3305 -2.9835 0.9542
-11.0280 2.4987 -2.9795 0.9543
-11.2864 -0.5032 -2.9769 0.9543
-10.2618 -4.3513 -2.9370 0.9549
-9.8353 -5.2482 -2.9375 0.9549
-9.3318 -6.1045 -2.9383 0.9549
-8.1097 -7.6700 -2.9413 0.9549
-7.4000 -8.3673 -2.9433 0.9548
-6.6314 -9.0001 -2.9458 0.9548
-5.8093 -9.5634 -2.9485 0.9548
-1.3271 -2.7006 -0.7929 0.9876
-0.0263 -2.3614 -0.6223 0.9903
0.4218 -2.5003 -0.6681 0.9896
3.8376 -10.6668 -2.9871 0.9542
4.7787 -10.2979 -2.9914 0.9541
5.6847 -9.8461 -2.9958 0.9541
6.5481 -9.3148 -3.0002 0.9540
7.3618 -8.7076 -3.0046 0.9539
8.1184 -8.0284 -3.0086 0.9539
8.8061 -7.2784 -3.0104 0.9538
9.4244 -6.4695 -3.0121 0.9538
9.9683 -5.6080 -3.0138 0.9538
10.8151 -3.7554 -3.0167 0.9537
11.1110 -2.7790 -3.0179 0.9537
11.4354 -0.7655 -3.0200 0.9537
11.3950 1.2747 -3.0213 0.9537
10.6557 4.2409 -3.0220 0.9537
10.2355 5.1722 -3.0218 0.9537
9.7334 6.0621 -3.0215 0.9537
9.1537 6.9032 -3.0210 0.9537
8.0690 7.2980 -2.8668 0.9560
6.6502 8.6168 -2.8681 0.9560
5.8551 9.1719 -2.8673 0.9560
5.0136 9.6529 -2.8662 0.9560
3.2200 10.3802 -2.8638 0.9560
2.2823 10.6207 -2.8624 0.9561
1.3272 10.7763 -2.8610 0.9561
-1.5634 10.7199 -2.8546 0.9562
-2.5074 10.5217 -2.8501 0.9562
-3.6139 10.7942 -2.9994 0.9540
-7.1345 8.8304 -2.9914 0.9541
-7.8871 8.1552 -2.9895 0.9542
-10.2143 4.8790 -2.9827 0.9543
-11.1263 2.0045 -2.9790 0.9543
-9.7926 -3.6468 -2.9401 0.9575
-9.4300 -4.5043 -2.9403 0.9575
-8.4864 -6.1081 -2.9419 0.9575
-7.9126 -6.8423 -2.9432 0.9575
-5.8361 -8.7080 -2.9494 0.9574
-5.0424 -9.2013 -2.9521 0.9573
-1.1210 -2.5637 -0.7873 0.9884
-0.8090 -2.4163 -0.7170 0.9895
-0.5605 -2.3521 -0.6803 0.9900
-0.3414 -2.3408 -0.6656 0.9902
-0.1310 -2.3492 -0.6620 0.9903
0.0797 -2.3827 -0.6708 0.9901
0.3030 -2.4600 -0.6974 0.9898
0.9005 -2.9029 -0.8551 0.9875
5.7322 -8.9794 -2.9973 0.9567
6.5176 -8.4451 -3.0014 0.9566
7.9312 -7.1733 -3.0088 0.9565
8.5430 -6.4425 -3.0105 0.9565
9.0872 -5.6596 -3.0121 0.9565
9.9561 -3.9624 -3.0149 0.9564
10.2735 -3.0618 -3.0161 0.9564
10.6608 -1.1926 -3.0182 0.9564
10.7275 -0.2390 -3.0190 0.9564
10.7084 0.7169 -3.0196 0.9564
10.6037 1.6674 -3.0201 0.9564
8.8488 6.0744 -3.0198 0.9564
7.2407 7.1605 -2.8651 0.9586
6.5727 7.7742 -2.8643 0.9586
5.0930 8.8213 -2.8659 0.9586
4.2860 9.2360 -2.8648 0.9586
3.4455 9.5771 -2.8636 0.9586
2.5784 9.8416 -2.8624 0.9586
-0.1132 10.1587 -2.8584 0.9587
-1.0161 10.1001 -2.8561 0.9587
-2.7827 9.7319 -2.8479 0.9588
-4.6972 9.5585 -2.9965 0.9567
-5.5258 9.0967 -2.9946 0.9567
-6.3096 8.5634 -2.9927 0.9568
-9.3583 4.9938 -2.9844 0.9569
-9.7612 4.1391 -2.9831 0.9569
-10.0867 3.2526 -2.9818 0.9569
-10.3323 2.3410 -2.9807 0.9569
-10.5750 -0.4715 -2.9783 0.9570
-10.4893 -1.4107 -2.9778 0.9570
-10.2791 -2.3289 -2.9654 0.9571
-9.9454 -3.2070 -2.9401 0.9575
-9.6207 -4.0795 -2.9401 0.9575
-7.6020 -7.1899 -2.9440 0.9575
-5.4448 -8.9633 -2.9507 0.9574
-1.3460 -2.7390 -0.8586 0.9874
-0.9516 -2.4707 -0.7449 0.9891
-0.6815 -2.3833 -0.6974 0.9898
0.4226 -2.5056 -0.7149 0.9895
5.3229 -9.2194 -2.9952 0.9567
6.1308 -8.7211 -2.9994 0.9567
8.2452 -6.8148 -3.0097 0.9565
8.8238 -6.0572 -3.0113 0.9565
10.5955 -1.6660 -3.0177 0.9564
10.7048 -0.7166 -3.0186 0.9564
10.7286 0.2391 -3.0193 0.9564
10.2882 3.0662 -3.0205 0.9564
9.1113 5.6746 -3.0200 0.9564
8.5687 6.4620 -3.0196 0.9564
7.5534 6.8317 -2.8655 0.9586
6.2188 8.0580 -2.8638 0.9586
4.6941 9.0377 -2.8653 0.9586
2.1369 9.9444 -2.8618 0.9586
-0.5654 10.1410 -2.8577 0.9587
-3.3845 10.1090 -2.9994 0.9567
-4.2681 9.7614 -2.9975 0.9567
-5.1167 9.3368 -2.9956 0.9567
-8.0340 6.9473 -2.9883 0.9568
-9.1288 5.4071 -2.9852 0.9569
-9.5693 4.5709 -2.9838 0.9569
-10.2196 2.7995 -2.9813 0.9569
-9.9120 -0.8857 -2.9793 0.9593
-9.7925 -1.7642 -2.9789 0.9593
-7.9827 -5.7456 -2.9445 0.9598
-6.8440 -7.0766 -2.9473 0.9597
-4.7419 -8.6529 -2.9540 0.9596
-1.1316 -2.5881 -0.8457 0.9883
-0.8131 -2.4287 -0.7668 0.9894
-0.3420 -2.3452 -0.7095 0.9902
0.5615 -2.6131 -0.8002 0.9889
0.9125 -2.9414 -0.9220 0.9872
4.6076 -8.8713 -2.9928 0.9591
5.3860 -8.4370 -2.9967 0.9591
7.4514 -6.7394 -3.0079 0.9589
8.0267 -6.0532 -3.0098 0.9589
8.5379 -5.3174 -3.0113 0.9589
8.9814 -4.5385 -3.0127 0.9589
10.0151 -1.1203 -3.0170 0.9588
10.0775 -0.2246 -3.0178 0.9588
9.7830 2.4469 -3.0191 0.9588
8.3126 5.7063 -3.0186 0.9588
7.7703 6.4224 -3.0180 0.9588
5.4983 7.8215 -2.8623 0.9609
4.0270 8.6779 -2.8641 0.9608
3.2374 8.9984 -2.8630 0.9609
2.4226 9.2471 -2.8618 0.9609
0.7441 9.5219 -2.8593 0.9609
-0.1063 9.5459 -2.8580 0.9609
-0.9547 9.4899 -2.8554 0.9610
-1.7931 9.3544 -2.8515 0.9610
-3.5996 9.3463 -2.9984 0.9590
-7.2554 6.8622 -2.9898 0.9592
-7.8333 6.1859 -2.9882 0.9592
-8.3486 5.4614 -2.9867 0.9592
-9.1764 3.8912 -2.9840 0.9592
-9.4826 3.0578 -2.9829 0.9593
-9.7137 2.2009 -2.9818 0.9593
-9.8681 1.3271 -2.9809 0.9593
-9.8620 -1.3263 -2.9791 0.9593
-8.6737 -4.6284 -2.9433 0.9598
-8.2293 -5.3834 -2.9440 0.9598
-5.1204 -8.4294 -2.9527 0.9597
-1.3655 -2.7788 -0.9269 0.9872
-0.9601 -2.4930 -0.7998 0.9889
-0.4506 -2.3505 -0.7165 0.9901
-0.0264 -2.3701 -0.7096 0.9902
3.3774 -9.3876 -2.9868 0.9592
5.0015 -8.6629 -2.9947 0.9591
5.7602 -8.1940 -2.9986 0.9590
6.4749 -7.6584 -3.0024 0.9590
7.1396 -7.0604 -3.0061 0.9589
7.7471 -6.4031 -3.0090 0.9589
9.1766 -4.1348 -3.0133 0.9588
9.5121 -3.3029 -3.0145 0.9588
10.0563 -0.6731 -3.0174 0.9588
10.0786 0.2246 -3.0181 0.9588
10.0203 1.1210 -3.0186 0.9588
9.8819 2.0086 -3.0189 0.9588
9.3700 3.7292 -3.0192 0.9588
8.5591 5.3307 -3.0188 0.9588
8.0495 6.0704 -3.0183 0.9588
6.4948 7.0221 -2.8636 0.9608
5.1479 8.0639 -2.8641 0.9608
1.1677 9.4814 -2.8600 0.9609
0.3191 9.5434 -2.8587 0.9609
-0.5313 9.5294 -2.8573 0.9609
-4.0112 9.1739 -2.9975 0.9591
-4.8089 8.7753 -2.9957 0.9591
-5.5676 8.3075 -2.9940 0.9591
-6.2813 7.7744 -2.9922 0.9591
-6.9444 7.1805 -2.9906 0.9591
-8.0990 5.8293 -2.9874 0.9592
-8.9959 4.2970 -2.9846 0.9592
-9.8006 1.7657 -2.9813 0.9593
-9.9161 0.8861 -2.9805 0.9593
-9.2347 -1.6637 -2.9800 0.9614
-8.9670 -2.4563 -2.9527 0.9617
-8.6910 -3.2365 -2.9453 0.9618
-7.9815 -4.7274 -2.9461 0.9618
-7.0216 -6.0718 -2.9481 0.9618
-5.1772 -7.7250 -2.9534 0.9617
0.3059 -2.4835 -0.7947 0.9896
0.5665 -2.6360 -0.8563 0.9887
0.9317 -3.0033 -0.9987 0.9869
3.5771 -8.7043 -2.9887 0.9613
5.0763 -7.9518 -2.9961 0.9612
6.4211 -6.9424 -3.0033 0.9611
7.5650 -5.7050 -3.0091 0.9610
9.4964 -0.2116 -3.0167 0.9609
9.3865 1.4760 -3.0176 0.9609
9.2187 2.3058 -3.0179 0.9609
7.3222 6.0520 -3.0169 0.9609
5.8187 6.8825 -2.8622 0.9629
3.7954 8.1787 -2.8635 0.9629
3.0512 8.4810 -2.8624 0.9629
2.2834 8.7155 -2.8613 0.9629
1.4980 8.8805 -2.8602 0.9629
0.7013 8.9749 -2.8590 0.9629
-0.1002 8.9977 -2.8577 0.9629
-0.8998 8.9441 -2.8548 0.9630
-1.6901 8.8170 -2.8511 0.9630
-3.3933 8.8106 -2.9985 0.9612
-4.1617 8.4688 -2.9968 0.9612
-4.8962 8.0603 -2.9951 0.9612
-5.5911 7.5883 -2.9934 0.9612
-6.8407 6.4699 -2.9903 0.9613
-7.8718 5.1495 -2.9874 0.9613
-8.2953 4.4265 -2.9861 0.9613
-8.6529 3.6692 -2.9849 0.9613
-9.3056 1.2515 -2.9819 0.9614
-9.3778 0.4182 -2.9812 0.9614
-9.3760 -0.4181 -2.9806 0.9614
-9.3002 -1.2507 -2.9802 0.9614
-9.1457 -2.0721 -2.9781 0.9614
-8.8266 -2.8462 -2.9453 0.9618
-7.7640 -5.0789 -2.9464 0.9618
-1.3859 -2.8203 -0.9980 0.9869
-0.6883 -2.4070 -0.7951 0.9895
-0.2361 -2.3468 -0.7491 0.9901
-0.0265 -2.3782 -0.7553 0.9901
0.1903 -2.4352 -0.7757 0.9898
0.4281 -2.5382 -0.8175 0.9893
3.1838 -8.8494 -2.9868 0.9613
6.1019 -7.2173 -3.0015 0.9611
6.7278 -6.6533 -3.0050 0.9611
8.9642 -3.1127 -3.0136 0.9610
9.4974 0.2117 -3.0170 0.9609
9.4423 1.0563 -3.0174 0.9609
9.3119 1.8927 -3.0178 0.9609
9.1070 2.7142 -3.0180 0.9609
8.8294 3.5140 -3.0180 0.9609
7.5852 5.7203 -3.0172 0.9609
7.0447 6.3715 -3.0166 0.9609
6.1204 6.6173 -2.8626 0.9629
5.5056 7.1338 -2.8618 0.9629
4.8472 7.5930 -2.8609 0.9629
1.8925 8.8068 -2.8607 0.9629
1.1007 8.9366 -2.8596 0.9629
-0.5008 8.9810 -2.8566 0.9630
-1.2965 8.8893 -2.8530 0.9630
-2.0798 8.7273 -2.8493 0.9630
-5.9220 7.3297 -2.9926 0.9612
-7.1203 6.1572 -2.9895 0.9613
-8.4825 4.0518 -2.9855 0.9613
-9.3509 0.8356 -2.9816 0.9614
-8.8751 0.0000 -2.9819 0.9632
-8.8384 -0.7898 -2.9814 0.9632
-8.4918 -2.3261 -2.9582 0.9635
-7.9167 -3.7815 -2.9477 0.9637
-7.1240 -5.1275 -2.9491 0.9636
-4.2301 -7.7190 -2.9573 0.9635
-1.1539 -2.6391 -0.9678 0.9879
-0.5688 -2.3869 -0.8244 0.9897
-0.1325 -2.3753 -0.7993 0.9900
0.0806 -2.4117 -0.8108 0.9899
0.9620 -3.1012 -1.0909 0.9864
3.3811 -8.2273 -2.9886 0.9632
4.1048 -7.9031 -2.9921 0.9631
4.7975 -7.5151 -2.9956 0.9631
5.4536 -7.0664 -2.9990 0.9630
6.0676 -6.5602 -3.0024 0.9630
7.1494 -5.3916 -3.0086 0.9629
7.9989 -4.0420 -3.0111 0.9629
8.5951 -2.5615 -3.0133 0.9629
8.7916 -1.7869 -3.0142 0.9629
8.9181 -0.9976 -3.0150 0.9628
8.9735 -0.1999 -3.0157 0.9628
8.9572 0.5997 -3.0162 0.9628
8.8695 1.3947 -3.0166 0.9628
8.4826 2.9455 -3.0169 0.9628
7.8254 4.4025 -3.0167 0.9628
7.4017 5.0810 -3.0164 0.9628
3.5870 7.7299 -2.8631 0.9647
2.8837 8.0155 -2.8620 0.9647
1.4158 8.3932 -2.8598 0.9647
0.6629 8.4824 -2.8586 0.9647
-0.0947 8.5042 -2.8574 0.9647
-1.5973 8.3333 -2.8508 0.9648
-4.6284 7.6194 -2.9953 0.9631
-5.9000 6.6712 -2.9922 0.9631
-7.4423 4.8686 -2.9880 0.9632
-8.6609 1.9623 -2.9837 0.9632
-8.7988 1.1833 -2.9828 0.9632
-8.8655 -0.3953 -2.9816 0.9632
-8.7939 -1.1826 -2.9812 0.9633
-8.3551 -2.6942 -2.9496 0.9636
-8.0770 -3.4249 -2.9476 0.9637
-6.8897 -5.4408 -2.9496 0.9636
-6.3808 -6.0349 -2.9508 0.9636
-0.6932 -2.4244 -0.8472 0.9894
-0.4553 -2.3755 -0.8127 0.9898
-0.2376 -2.3615 -0.7974 0.9900
-0.0267 -2.3931 -0.8041 0.9900
0.1916 -2.4520 -0.8264 0.9897
0.4318 -2.5599 -0.8722 0.9891
0.7328 -2.7969 -0.9714 0.9879
3.7464 -8.0733 -2.9903 0.9631
4.4553 -7.7169 -2.9938 0.9631
5.1305 -7.2982 -2.9973 0.9631
5.7662 -6.8202 -3.0007 0.9630
7.3842 -5.0689 -3.0092 0.9629
7.8093 -4.3934 -3.0105 0.9629
8.1726 -3.6824 -3.0117 0.9629
8.4710 -2.9414 -3.0128 0.9629
8.8637 -1.3937 -3.0146 0.9628
8.6053 2.5647 -3.0169 0.9628
8.3430 3.3205 -3.0169 0.9628
8.0141 4.0497 -3.0168 0.9628
7.6211 4.7465 -3.0166 0.9628
6.6567 6.0207 -3.0156 0.9628
3.9223 7.5518 -2.8591 0.9647
1.7886 8.3234 -2.8603 0.9647
0.2843 8.5018 -2.8580 0.9647
-1.2253 8.4013 -2.8525 0.9648
-2.8341 8.4651 -2.9993 0.9630
-4.9619 7.4037 -2.9945 0.9631
-5.5983 6.9291 -2.9930 0.9631
-7.2197 5.1964 -2.9887 0.9632
-8.0200 3.8308 -2.9862 0.9632
-8.3260 3.1007 -2.9851 0.9632
-8.5661 2.3465 -2.9841 0.9632
-8.8417 0.7901 -2.9825 0.9632
-8.2765 -1.4910 -2.9820 0.9649
-6.7547 -4.8617 -2.9510 0.9653
-6.2974 -5.4456 -2.9521 0.9653
-5.7903 -5.9871 -2.9534 0.9653
-4.0102 -7.3177 -2.9589 0.9652
-1.1702 -2.6764 -1.0358 0.9877
-0.3476 -2.3834 -0.8541 0.9898
-0.1333 -2.3904 -0.8489 0.9899
0.0812 -2.4273 -0.8612 0.9897
0.3103 -2.5191 -0.9000 0.9893
6.7719 -5.1069 -3.0075 0.9646
7.2039 -4.4866 -3.0093 0.9646
8.1420 -2.4265 -3.0125 0.9646
8.3281 -1.6927 -3.0134 0.9646
8.4478 -0.9450 -3.0142 0.9646
8.4847 0.5680 -3.0153 0.9646
8.4015 1.3211 -3.0157 0.9645
8.0350 2.7901 -3.0160 0.9645
7.7547 3.4941 -3.0159 0.9645
7.4125 4.1702 -3.0158 0.9645
7.0112 4.8129 -3.0155 0.9646
4.0313 6.9825 -2.8589 0.9664
2.7321 7.5939 -2.8616 0.9663
2.0446 7.8041 -2.8606 0.9663
1.3413 7.9519 -2.8595 0.9664
0.6280 8.0366 -2.8583 0.9664
-0.0897 8.0562 -2.8568 0.9664
-0.8055 8.0076 -2.8537 0.9664
-1.5133 7.8951 -2.8504 0.9665
-2.2161 7.7503 -2.8583 0.9664
-3.0393 7.8913 -2.9985 0.9647
-3.7276 7.5856 -2.9970 0.9648
-4.3858 7.2201 -2.9955 0.9648
-6.6173 5.2257 -2.9898 0.9648
-7.0532 4.6140 -2.9886 0.9649
-7.4329 3.9664 -2.9874 0.9649
-7.7537 3.2879 -2.9863 0.9649
-8.0129 2.5838 -2.9853 0.9649
-8.2086 1.8598 -2.9844 0.9649
-8.4029 -0.3747 -2.9825 0.9649
-8.3351 -1.1209 -2.9821 0.9649
-7.6584 -3.2474 -2.9496 0.9653
-5.5193 -6.2407 -2.9541 0.9653
-3.6817 -7.4919 -2.9600 0.9652
-0.9874 -2.5637 -0.9741 0.9884
-0.6984 -2.4423 -0.9007 0.9893
-0.0268 -2.4084 -0.8540 0.9898
0.1930 -2.4692 -0.8782 0.9895
0.4356 -2.5822 -0.9285 0.9889
2.8515 -7.9260 -2.9868 0.9649
3.5496 -7.6493 -2.9901 0.9648
4.2211 -7.3111 -2.9935 0.9648
5.4623 -6.4608 -3.0000 0.9647
6.0219 -5.9552 -3.0031 0.9647
6.9955 -4.8021 -3.0087 0.9646
7.3981 -4.1621 -3.0099 0.9646
7.7421 -3.4884 -3.0110 0.9646
8.2432 -2.0617 -3.0130 0.9646
8.4515 0.9455 -3.0155 0.9646
8.3347 1.6941 -3.0158 0.9645
7.9028 3.1453 -3.0160 0.9645
7.5912 3.8360 -3.0159 0.9645
7.2190 4.4961 -3.0156 0.9645
4.9283 6.3857 -2.8602 0.9663
3.7157 7.1539 -2.8584 0.9664
2.1682 5.2759 -2.0226 0.9761
2.3906 7.7066 -2.8611 0.9663
1.6946 7.8858 -2.8600 0.9663
0.9856 8.0022 -2.8589 0.9664
0.2693 8.0550 -2.8578 0.9664
-1.1608 7.9592 -2.8521 0.9664
-4.0609 7.4101 -2.9962 0.9648
-4.7019 7.0158 -2.9947 0.9648
-5.3051 6.5663 -2.9933 0.9648
-5.8657 6.0652 -2.9918 0.9648
-6.3794 5.5165 -2.9905 0.9648
-6.8421 4.9247 -2.9892 0.9649
-7.8911 2.9387 -2.9858 0.9649
-8.1188 2.2240 -2.9849 0.9649
-8.2822 1.4921 -2.9840 0.9649
-8.3802 0.7489 -2.9833 0.9649
-7.6773 -2.1030 -2.9724 0.9666
-5.9834 -5.1740 -2.9538 0.9668
-5.5015 -5.6885 -2.9550 0.9668
-4.9759 -6.1587 -2.9565 0.9668
-4.4106 -6.5810 -2.9583 0.9667
-3.8098 -6.9521 -2.9603 0.9667
-1.2001 -2.7447 -1.1186 0.9873
-0.8379 -2.5028 -0.9856 0.9888
-0.5771 -2.4217 -0.9296 0.9894
0.0817 -2.4432 -0.9128 0.9896
0.3125 -2.5376 -0.9547 0.9891
3.0420 -7.4022 -2.9884 0.9664
4.9049 -6.3554 -2.9978 0.9663
5.9658 -5.3957 -3.0037 0.9662
7.7298 -2.3037 -3.0118 0.9661
8.0547 0.5392 -3.0144 0.9661
7.9757 1.2541 -3.0148 0.9661
7.6277 2.6487 -3.0151 0.9661
7.3616 3.3170 -3.0151 0.9661
7.0368 3.9588 -3.0149 0.9661
6.6558 4.5690 -3.0146 0.9661
6.2219 5.1426 -3.0142 0.9661
3.8273 6.6290 -2.8583 0.9678
3.2210 6.9411 -2.8573 0.9679
-0.0852 7.6475 -2.8558 0.9679
-0.7648 7.6020 -2.8530 0.9679
-1.4368 7.4959 -2.8500 0.9679
-2.8861 7.4935 -2.9985 0.9663
-3.5399 7.2034 -2.9971 0.9663
-4.1650 6.8565 -2.9956 0.9663
-4.7564 6.4555 -2.9942 0.9663
-5.3097 6.0038 -2.9929 0.9664
-5.8204 5.5050 -2.9915 0.9664
-7.3643 3.1228 -2.9869 0.9664
-7.6106 2.4542 -2.9860 0.9664
-7.7967 1.7665 -2.9852 0.9664
-7.9814 -0.3559 -2.9833 0.9665
-7.9171 -1.0647 -2.9829 0.9665
-7.7902 -1.7650 -2.9827 0.9665
-7.2769 -3.0857 -2.9515 0.9668
-6.9741 -3.7215 -2.9518 0.9668
-6.6166 -4.3283 -2.9524 0.9668
-5.7482 -5.4366 -2.9544 0.9668
-4.6980 -6.3761 -2.9574 0.9667
-4.1144 -6.7732 -2.9592 0.9667
-0.4613 -2.4068 -0.9151 0.9896
-0.2406 -2.3920 -0.8977 0.9898
0.4394 -2.6051 -0.9865 0.9888
2.7078 -7.5264 -2.9868 0.9664
3.3705 -7.2632 -2.9900 0.9664
4.0078 -6.9417 -2.9931 0.9664
4.6146 -6.5643 -2.9962 0.9663
5.1858 -6.1337 -2.9993 0.9663
7.3503 -3.3118 -3.0104 0.9662
7.6183 -2.6453 -3.0114 0.9662
7.8258 -1.9573 -3.0123 0.9661
7.9710 -1.2534 -3.0130 0.9661
8.0701 0.1799 -3.0142 0.9661
7.9122 1.6083 -3.0149 0.9661
7.2064 3.6416 -3.0150 0.9661
6.4453 4.8606 -3.0144 0.9661
3.5276 6.7918 -2.8578 0.9679
2.2699 7.3175 -2.8609 0.9678
0.9358 7.5982 -2.8587 0.9678
0.2557 7.6471 -2.8571 0.9679
-1.1021 7.5565 -2.8515 0.9679
-1.7683 7.4204 -2.8484 0.9680
-4.4652 6.6626 -2.9949 0.9663
-5.0381 6.2358 -2.9935 0.9663
-5.5707 5.7601 -2.9922 0.9664
-6.0586 5.2391 -2.9909 0.9664
-6.8860 4.0786 -2.9885 0.9664
-7.2191 3.4483 -2.9874 0.9664
-7.7113 2.1124 -2.9856 0.9664
-7.8667 1.4173 -2.9848 0.9664
-7.6038 0.0000 -2.9843 0.9679
-7.4816 -1.3478 -2.9836 0.9679
-7.3204 -2.0053 -2.9789 0.9679
-7.0513 -2.6259 -2.9531 0.9682
-6.4753 -3.8353 -2.9537 0.9682
-6.1097 -4.3975 -2.9544 0.9682
-5.6959 -4.9254 -2.9554 0.9682
-4.7366 -5.8625 -2.9580 0.9681
-4.1983 -6.2643 -2.9597 0.9681
-0.8446 -2.5226 -1.0441 0.9886
-0.5814 -2.4398 -0.9844 0.9893
-0.3522 -2.4150 -0.9579 0.9896
-0.1350 -2.4217 -0.9519 0.9896
0.3149 -2.5566 -1.0110 0.9890
2.2536 -7.2648 -2.9853 0.9678
2.8942 -7.0425 -2.9883 0.9678
3.5131 -6.7638 -2.9913 0.9678
4.1052 -6.4307 -2.9943 0.9677
5.1904 -5.6117 -3.0001 0.9677
5.6745 -5.1322 -3.0028 0.9677
6.1141 -4.6108 -3.0055 0.9676
6.5056 -4.0517 -3.0079 0.9676
7.3528 -2.1913 -3.0112 0.9676
7.5206 -1.5286 -3.0120 0.9676
7.6757 -0.1710 -3.0132 0.9675
7.5864 1.1929 -3.0140 0.9675
7.2554 2.5194 -3.0143 0.9675
7.0023 3.1551 -3.0143 0.9675
6.6933 3.7656 -3.0141 0.9675
5.9183 4.8916 -3.0134 0.9675
4.7396 5.6061 -2.8812 0.9689
3.0640 6.6028 -2.8568 0.9692
1.8468 7.0492 -2.8600 0.9692
-0.0810 7.2736 -2.8548 0.9692
-0.7274 7.2310 -2.8523 0.9693
-2.1014 7.3491 -2.9999 0.9677
-2.7459 7.1296 -2.9985 0.9677
-3.9629 6.5238 -2.9958 0.9677
-5.0523 5.7128 -2.9931 0.9678
-5.5384 5.2383 -2.9919 0.9678
-5.9803 4.7226 -2.9907 0.9678
-7.0080 2.9717 -2.9875 0.9678
-7.2425 2.3354 -2.9866 0.9678
-7.5381 1.0138 -2.9851 0.9678
-7.5969 0.3388 -2.9845 0.9679
-7.5957 -0.3387 -2.9841 0.9679
-7.5345 -1.0133 -2.9837 0.9679
-7.1751 -2.3137 -2.9589 0.9681
-6.2987 -4.1204 -2.9540 0.9682
-5.9086 -4.6660 -2.9549 0.9682
-5.4719 -5.1752 -2.9559 0.9682
-4.9917 -5.6442 -2.9572 0.9681
-4.4719 -6.0693 -2.9588 0.9681
-1.0129 -2.6300 -1.1061 0.9880
-0.7090 -2.4796 -1.0122 0.9890
-0.4645 -2.4230 -0.9683 0.9895
-0.0272 -2.4401 -0.9578 0.9896
0.1958 -2.5051 -0.9862 0.9893
0.4434 -2.6288 -1.0463 0.9886
2.5763 -7.1608 -2.9868 0.9678
3.2067 -6.9101 -2.9898 0.9678
4.3898 -6.2445 -2.9958 0.9677
5.4377 -5.3775 -3.0015 0.9677
7.2469 -2.5164 -3.0108 0.9676
7.5821 -1.1922 -3.0123 0.9676
7.6598 -0.5127 -3.0130 0.9676
7.6763 0.1711 -3.0135 0.9675
7.5260 1.5298 -3.0141 0.9675
7.3604 2.1936 -3.0143 0.9675
6.8546 3.4638 -3.0142 0.9675
6.5186 4.0599 -3.0140 0.9675
6.1307 4.6234 -3.0136 0.9675
4.4504 5.7666 -2.8588 0.9692
3.9185 6.1382 -2.8581 0.9692
-1.6823 7.0592 -2.8481 0.9693
-2.4261 7.2465 -2.9992 0.9677
-4.2486 6.3394 -2.9951 0.9677
-4.7939 5.9335 -2.9938 0.9678
-5.7651 4.9853 -2.9913 0.9678
-6.1835 4.4506 -2.9901 0.9678
-6.5527 3.8812 -2.9890 0.9678
-7.3384 2.0102 -2.9862 0.9678
-7.5750 0.6769 -2.9848 0.9678
-7.2489 0.0000 -2.9850 0.9691
-7.2192 -0.6451 -2.9846 0.9691
-7.1324 -1.2849 -2.9843 0.9691
-6.9852 -1.9134 -2.9824 0.9692
-6.4750 -3.0928 -2.9548 0.9694
-5.4315 -4.6967 -2.9568 0.9694
-4.9938 -5.1635 -2.9580 0.9694
-1.2864 -2.9421 -1.3223 0.9862
-0.3546 -2.4315 -1.0118 0.9894
-0.1359 -2.4380 -1.0055 0.9895
0.0828 -2.4763 -1.0203 0.9893
0.3174 -2.5767 -1.0690 0.9888
2.1479 -6.9243 -2.9853 0.9691
2.7584 -6.7121 -2.9882 0.9691
3.3481 -6.4462 -2.9911 0.9691
3.9122 -6.1284 -2.9939 0.9690
4.4463 -5.7612 -2.9967 0.9690
4.9459 -5.3475 -2.9995 0.9690
5.4070 -4.8903 -3.0021 0.9690
5.8256 -4.3933 -3.0046 0.9689
6.1984 -3.8604 -3.0069 0.9689
7.1665 -1.4566 -3.0114 0.9689
7.0995 1.7757 -3.0135 0.9688
6.9135 2.4006 -3.0136 0.9688
6.6723 3.0064 -3.0135 0.9688
6.0327 4.1412 -3.0131 0.9688
5.2013 5.1437 -3.0122 0.9689
3.9914 5.6778 -2.8579 0.9704
2.3506 6.5335 -2.8592 0.9704
1.1542 6.8428 -2.8575 0.9704
-0.0772 6.9302 -2.8539 0.9705
-2.6171 6.7953 -2.9985 0.9690
-3.2102 6.5325 -2.9972 0.9690
-4.3138 5.8548 -2.9946 0.9690
-5.2793 4.9931 -2.9922 0.9691
-6.0764 3.9750 -2.9900 0.9691
-6.6806 2.8328 -2.9880 0.9691
-6.9042 2.2263 -2.9872 0.9691
-7.0732 1.6026 -2.9864 0.9691
-7.1861 0.9664 -2.9858 0.9691
-7.0679 -1.6013 -2.9842 0.9691
-6.8453 -2.2073 -2.9617 0.9694
-6.6061 -2.8012 -2.9547 0.9694
-6.3312 -3.3784 -2.9550 0.9694
-5.6344 -4.4494 -2.9563 0.9694
-4.2641 -5.7872 -2.9601 0.9694
-1.0348 -2.6869 -1.1856 0.9876
-0.7150 -2.5007 -1.0710 0.9888
-0.4676 -2.4397 -1.0229 0.9893
-0.2439 -2.4241 -1.0032 0.9895
2.4555 -6.8250 -2.9868 0.9691
3.0561 -6.5857 -2.9897 0.9691
3.6336 -6.2936 -2.9925 0.9691
4.1833 -5.9508 -2.9953 0.9690
5.1815 -5.1241 -3.0008 0.9690
5.6218 -4.6466 -3.0033 0.9689
6.6629 -3.0021 -3.0093 0.9689
6.9057 -2.3979 -3.0102 0.9689
7.2251 -1.1360 -3.0117 0.9689
7.2989 -0.4886 -3.0123 0.9689
7.1713 1.4576 -3.0134 0.9688
7.0135 2.0903 -3.0136 0.9688
6.7997 2.7062 -3.0136 0.9688
6.2115 3.8686 -3.0133 0.9688
5.4258 4.9073 -3.0125 0.9688
4.9666 5.3698 -3.0120 0.9689
3.7340 5.8493 -2.8575 0.9704
2.1680 5.2755 -2.3486 0.9756
1.4583 6.7861 -2.8582 0.9704
-1.6033 6.7279 -2.8480 0.9705
-4.5694 5.6557 -2.9940 0.9690
-5.0526 5.2244 -2.9928 0.9690
-5.4954 4.7521 -2.9916 0.9691
-6.2464 3.6998 -2.9895 0.9691
-6.5487 3.1281 -2.9885 0.9691
-6.9956 1.9163 -2.9868 0.9691
-7.1367 1.2858 -2.9861 0.9691
-6.8930 -0.6159 -2.9852 0.9703
-5.8975 -3.4931 -2.9567 0.9706
-4.7692 -4.9313 -2.9593 0.9706
-3.8230 -5.7042 -2.9621 0.9705
-0.8754 -2.6148 -1.1895 0.9881
-0.3571 -2.4488 -1.0675 0.9893
0.0835 -2.4964 -1.0775 0.9892
2.6332 -6.4073 -2.9881 0.9703
3.1959 -6.1532 -2.9909 0.9702
3.7343 -5.8496 -2.9936 0.9702
4.7206 -5.1038 -2.9989 0.9702
5.1604 -4.6673 -3.0014 0.9701
5.5597 -4.1928 -3.0038 0.9701
6.4818 -2.5797 -3.0093 0.9701
6.8399 -1.3903 -3.0108 0.9701
6.9379 -0.7761 -3.0114 0.9700
6.9678 0.4664 -3.0123 0.9700
6.8993 1.0849 -3.0126 0.9700
6.7758 1.6947 -3.0128 0.9700
6.3680 2.8693 -3.0129 0.9700
6.0871 3.4246 -3.0127 0.9700
4.5067 5.3306 -3.0111 0.9700
3.3113 5.7353 -2.8567 0.9716
2.7890 6.0102 -2.8581 0.9715
2.2430 6.2344 -2.8580 0.9715
-0.0737 6.6136 -2.8530 0.9716
-0.6615 6.5758 -2.8508 0.9716
-1.2432 6.4856 -2.8485 0.9716
-2.4984 6.4869 -2.9985 0.9702
-3.0646 6.2362 -2.9973 0.9702
-3.6059 5.9362 -2.9960 0.9702
-4.1183 5.5894 -2.9948 0.9702
-6.3784 2.7047 -2.9885 0.9703
-6.7486 -1.5290 -2.9848 0.9703
-6.5454 -2.1106 -2.9666 0.9705
-6.3093 -2.6754 -2.9562 0.9706
-6.0468 -3.2266 -2.9564 0.9706
-5.7366 -3.7526 -2.9570 0.9706
-5.3812 -4.2494 -2.9577 0.9706
-4.9832 -4.7131 -2.9587 0.9706
-3.0312 -6.1684 -2.9647 0.9705
-1.0580 -2.7471 -1.2698 0.9873
-0.7267 -2.5415 -1.1402 0.9886
-0.2455 -2.4408 -1.0582 0.9894
-0.0275 -2.4737 -1.0671 0.9893
0.1996 -2.5543 -1.1052 0.9889
2.9173 -6.2866 -2.9895 0.9703
3.4684 -6.0075 -2.9923 0.9702
3.9929 -5.6800 -2.9949 0.9702
4.9453 -4.8905 -3.0001 0.9702
5.3653 -4.4345 -3.0026 0.9701
6.7704 -1.6934 -3.0104 0.9701
6.9663 -0.4663 -3.0117 0.9700
6.9812 0.1556 -3.0121 0.9700
6.8444 1.3912 -3.0127 0.9700
6.6937 1.9949 -3.0129 0.9700
6.2338 3.1501 -3.0128 0.9700
5.9283 3.6922 -3.0126 0.9700
5.5755 4.2048 -3.0123 0.9700
5.1785 4.6837 -3.0119 0.9700
4.7402 5.1251 -3.0114 0.9700
4.1636 5.3949 -2.9396 0.9707
3.0539 5.8798 -2.8580 0.9715
1.9629 6.3276 -2.8578 0.9716
0.2211 6.6126 -2.8540 0.9716
-0.3681 6.6013 -2.8520 0.9716
-2.2074 6.5932 -2.9992 0.9702
-5.9637 3.5323 -2.9899 0.9703
-6.6793 1.8297 -2.9873 0.9703
-6.5909 -0.5889 -2.9858 0.9714
-6.5118 -1.1731 -2.9855 0.9714
-6.1506 -2.2905 -2.9614 0.9716
-5.6404 -3.3408 -2.9580 0.9716
-4.5612 -4.7162 -2.9604 0.9716
-3.6560 -5.4551 -2.9631 0.9716
-3.1577 -5.7621 -2.9648 0.9716
-2.6339 -6.0239 -2.9666 0.9716
-0.8945 -2.6717 -1.2713 0.9877
-0.6027 -2.5292 -1.1732 0.9887
0.0847 -2.5347 -1.1444 0.9889
0.6380 -2.9691 -1.3703 0.9868
3.0551 -5.8820 -2.9907 0.9713
3.5696 -5.5916 -2.9933 0.9713
4.5120 -4.8783 -2.9983 0.9713
4.9322 -4.4609 -3.0007 0.9712
5.3137 -4.0072 -3.0030 0.9712
5.6533 -3.5209 -3.0052 0.9712
5.9483 -3.0058 -3.0072 0.9712
6.1956 -2.4658 -3.0088 0.9712
6.3921 -1.9050 -3.0096 0.9712
6.6314 -0.7418 -3.0108 0.9711
6.6598 0.4458 -3.0117 0.9711
6.5943 1.0369 -3.0120 0.9711
6.3065 2.1899 -3.0123 0.9711
6.0865 2.7425 -3.0122 0.9711
5.5031 3.7777 -3.0119 0.9711
5.1444 4.2520 -3.0115 0.9711
4.7449 4.6923 -3.0111 0.9711
4.3076 5.0951 -3.0105 0.9711
2.6653 5.7435 -2.8570 0.9726
1.6043 6.1236 -2.8563 0.9726
1.0525 6.2399 -2.8553 0.9726
0.4927 6.3056 -2.8539 0.9726
-0.0704 6.3206 -2.8521 0.9726
-0.6322 6.2848 -2.8501 0.9727
-1.1994 6.2572 -2.8747 0.9724
-1.8277 6.3920 -2.9997 0.9712
-2.3884 6.2015 -2.9985 0.9713
-3.4474 5.6752 -2.9962 0.9713
-3.9373 5.3438 -2.9950 0.9713
-4.3956 4.9702 -2.9939 0.9713
-4.8188 4.5576 -2.9928 0.9713
-5.2035 4.1092 -2.9917 0.9713
-5.5467 3.6286 -2.9907 0.9713
-5.8459 3.1195 -2.9898 0.9713
-6.0986 2.5861 -2.9890 0.9713
-6.5606 0.8824 -2.9869 0.9714
-6.6110 -0.2948 -2.9860 0.9714
-6.0344 -2.5588 -2.9575 0.9716
-5.4865 -3.5891 -2.9582 0.9716
-5.1465 -4.0641 -2.9590 0.9716
-4.7658 -4.5075 -2.9599 0.9716
-4.3474 -4.9157 -2.9610 0.9716
-3.8944 -5.2856 -2.9624 0.9716
-0.7389 -2.5842 -1.2128 0.9883
2.2408 -6.2285 -2.9868 0.9714
2.7888 -6.0096 -2.9894 0.9713
3.3155 -5.7426 -2.9920 0.9713
4.2884 -5.0723 -2.9971 0.9713
5.4889 -3.7679 -3.0041 0.9712
5.8066 -3.2667 -3.0062 0.9712
6.0782 -2.7387 -3.0081 0.9712
6.3001 -2.1876 -3.0092 0.9712
6.5418 1.3297 -3.0121 0.9711
6.3978 1.9068 -3.0123 0.9711
5.9582 3.0108 -3.0122 0.9711
4.9496 4.4766 -3.0113 0.9711
4.0760 5.2814 -3.0102 0.9711
3.4065 5.3362 -2.8566 0.9726
2.1678 5.2752 -2.5734 0.9753
1.8757 6.0468 -2.8567 0.9726
1.3297 6.1881 -2.8559 0.9726
-0.9112 6.2480 -2.8490 0.9727
-1.5415 6.4683 -3.0003 0.9712
-2.6618 6.0877 -2.9979 0.9713
-3.1918 5.8243 -2.9968 0.9713
-4.6118 4.7686 -2.9933 0.9713
-5.3805 3.8727 -2.9912 0.9713
-5.7020 3.3773 -2.9903 0.9713
-6.3864 1.7495 -2.9878 0.9714
-6.3361 0.0000 -2.9867 0.9724
-6.3102 -0.5638 -2.9864 0.9724
-6.1095 -1.6735 -2.9860 0.9724
-5.8919 -2.1941 -2.9636 0.9726
-5.6640 -2.7054 -2.9588 0.9726
-3.9500 -4.8890 -2.9628 0.9726
-3.0236 -5.5174 -2.9657 0.9726
-2.5220 -5.7680 -2.9674 0.9725
-0.9147 -2.7320 -1.3581 0.9873
-0.3675 -2.5201 -1.2005 0.9888
-0.1407 -2.5233 -1.1913 0.9889
0.3332 -2.7051 -1.2848 0.9880
2.4095 -5.8631 -2.9880 0.9724
2.9242 -5.6301 -2.9905 0.9723
4.3183 -4.6688 -2.9978 0.9723
4.7203 -4.2692 -3.0001 0.9722
5.0853 -3.8350 -3.0023 0.9722
5.4101 -3.3694 -3.0044 0.9722
5.6922 -2.8764 -3.0063 0.9722
5.9291 -2.3597 -3.0081 0.9722
6.2571 -1.2718 -3.0098 0.9722
6.3467 -0.7100 -3.0103 0.9722
6.3738 0.4267 -3.0112 0.9721
6.1981 1.5503 -3.0116 0.9721
6.0357 2.0958 -3.0117 0.9721
5.8251 2.6247 -3.0117 0.9721
4.5412 4.4909 -3.0105 0.9722
4.1227 4.8764 -3.0100 0.9722
3.6617 5.2088 -3.0013 0.9722
2.5504 5.4960 -2.8560 0.9736
2.0510 5.7008 -2.8558 0.9736
0.4715 6.0340 -2.8530 0.9736
-0.6051 6.0147 -2.8495 0.9736
-1.1928 6.2230 -2.9868 0.9724
-1.7495 6.1185 -2.9997 0.9723
-2.8045 5.7070 -2.9974 0.9723
-3.7691 5.1155 -2.9952 0.9723
-4.6131 4.3630 -2.9930 0.9723
-5.3101 3.4738 -2.9911 0.9723
-5.5966 2.9865 -2.9902 0.9723
-5.8386 2.4758 -2.9894 0.9723
-6.0343 1.9458 -2.9886 0.9724
-6.3303 0.2823 -2.9869 0.9724
-6.3294 -0.2822 -2.9865 0.9724
-6.0140 -1.9392 -2.9786 0.9724
-5.7787 -2.4504 -2.9587 0.9726
-5.2540 -3.4370 -2.9595 0.9726
-4.5638 -4.3164 -2.9610 0.9726
-3.7292 -5.0612 -2.9634 0.9726
-2.7756 -5.6482 -2.9666 0.9726
-0.2524 -2.5088 -1.1885 0.9889
-0.0283 -2.5452 -1.1998 0.9888
0.2061 -2.6371 -1.2469 0.9884
2.1450 -5.9621 -2.9868 0.9724
3.1735 -5.4966 -2.9918 0.9723
3.6531 -5.1965 -2.9942 0.9723
4.9076 -4.0562 -3.0012 0.9722
5.2529 -3.6059 -3.0033 0.9722
5.5567 -3.1261 -3.0053 0.9722
5.8164 -2.6207 -3.0072 0.9722
6.0297 -2.0937 -3.0088 0.9722
6.1936 -1.5491 -3.0094 0.9722
6.3082 -0.9919 -3.0101 0.9722
6.3861 0.1423 -3.0110 0.9721
6.3488 0.7102 -3.0113 0.9721
6.2608 1.2726 -3.0115 0.9721
5.9363 2.3626 -3.0117 0.9721
5.7023 2.8815 -3.0116 0.9721
5.1002 3.8463 -3.0111 0.9721
4.7371 4.2844 -3.0108 0.9722
2.7927 5.3768 -2.8560 0.9736
0.7400 6.0086 -2.8537 0.9736
0.2022 6.0474 -2.8522 0.9736
-0.3367 6.0377 -2.8504 0.9736
-1.4755 6.1916 -3.0003 0.9722
-2.5480 5.8274 -2.9980 0.9723
-5.9423 2.2130 -2.9890 0.9723
-6.1143 1.6749 -2.9883 0.9724
-6.0733 0.0000 -2.9872 0.9733
-6.0486 -0.5405 -2.9869 0.9733
-5.9760 -1.0766 -2.9866 0.9733
-4.8858 -3.5166 -2.9609 0.9735
-3.3562 -5.0077 -2.9651 0.9735
-2.8986 -5.2892 -2.9666 0.9735
-2.4177 -5.5293 -2.9682 0.9735
-0.9594 -2.8656 -1.4864 0.9866
-0.6235 -2.6163 -1.3229 0.9881
-0.3731 -2.5583 -1.2716 0.9885
-0.1428 -2.5609 -1.2615 0.9886
1.7984 -5.7975 -2.9856 0.9733
2.3091 -5.6189 -2.9880 0.9733
3.2740 -5.1287 -2.9928 0.9732
4.1379 -4.4738 -2.9974 0.9732
4.8725 -3.6745 -3.0016 0.9732
5.1836 -3.2284 -3.0036 0.9731
5.4537 -2.7559 -3.0055 0.9731
5.8622 -1.7471 -3.0087 0.9731
6.0814 -0.6803 -3.0098 0.9731
6.1188 -0.1363 -3.0103 0.9731
6.1074 0.4088 -3.0107 0.9731
5.9390 1.4855 -3.0111 0.9731
5.3353 3.0016 -3.0110 0.9731
4.3514 4.3032 -3.0100 0.9731
3.9504 4.6726 -3.0095 0.9731
2.4434 5.2654 -2.8551 0.9745
1.9649 5.4616 -2.8549 0.9745
0.9649 5.7205 -2.8534 0.9745
-0.5817 5.7823 -2.8584 0.9744
-1.1485 5.9919 -3.0008 0.9732
-1.6767 5.8637 -2.9997 0.9732
-2.1911 5.6891 -2.9986 0.9732
-2.6878 5.4695 -2.9975 0.9732
-3.1628 5.2067 -2.9964 0.9732
-4.0330 4.5602 -2.9943 0.9732
-4.4214 4.1817 -2.9933 0.9732
-4.7745 3.7704 -2.9923 0.9732
-5.3642 2.8625 -2.9906 0.9733
-5.5962 2.3730 -2.9898 0.9733
-5.7838 1.8651 -2.9891 0.9733
-5.9256 1.3426 -2.9884 0.9733
-6.0205 0.8097 -2.9879 0.9733
-6.0677 0.2706 -2.9874 0.9733
-6.0182 -0.8093 -2.9867 0.9733
-5.5430 -2.3504 -2.9613 0.9735
-5.0371 -3.2951 -2.9606 0.9735
-3.1305 -5.1535 -2.9658 0.9735
-0.2562 -2.5464 -1.2588 0.9887
-0.0288 -2.5834 -1.2707 0.9885
0.2096 -2.6816 -1.3230 0.9881
0.4998 -2.9631 -1.4780 0.9867
1.5377 -5.8694 -2.9843 0.9733
3.5006 -4.9797 -2.9939 0.9732
3.9330 -4.6519 -2.9962 0.9732
4.3347 -4.2866 -2.9985 0.9732
5.0330 -3.4549 -3.0026 0.9732
5.5727 -2.5109 -3.0063 0.9731
5.7772 -2.0060 -3.0079 0.9731
5.9349 -1.4844 -3.0090 0.9731
6.0446 -0.9504 -3.0096 0.9731
6.1192 0.1364 -3.0105 0.9731
6.0834 0.6806 -3.0108 0.9731
5.9991 1.2194 -3.0110 0.9731
5.6881 2.2638 -3.0112 0.9731
5.4639 2.7611 -3.0111 0.9731
5.1962 3.2362 -3.0109 0.9731
4.5391 4.1054 -3.0103 0.9731
4.1550 4.4924 -3.0098 0.9731
3.7380 4.8435 -3.0092 0.9731
1.2190 5.6729 -2.8539 0.9745
-0.3225 5.7850 -2.8498 0.9745
-0.8686 5.9557 -2.9603 0.9735
-1.4141 5.9337 -3.0002 0.9732
-1.9358 5.7821 -2.9991 0.9732
-2.4419 5.5848 -2.9980 0.9732
-2.9282 5.3434 -2.9969 0.9732
-3.3910 5.0597 -2.9958 0.9732
-4.9370 3.5534 -2.9918 0.9732
-5.2321 3.0990 -2.9910 0.9733
-5.4857 2.6203 -2.9902 0.9733
-6.0501 0.5407 -2.9876 0.9733
-5.8039 -0.5186 -2.9873 0.9741
-5.7343 -1.0330 -2.9871 0.9741
-5.6193 -1.5393 -2.9870 0.9742
-5.4279 -2.0214 -2.9694 0.9743
-5.2117 -2.4894 -2.9610 0.9744
-4.6891 -3.3750 -2.9619 0.9744
-3.6342 -4.4981 -2.9647 0.9743
-2.3201 -5.3061 -2.9690 0.9743
-1.8397 -5.4948 -2.9707 0.9743
-0.3790 -2.5983 -1.3462 0.9883
2.2153 -5.3907 -2.9879 0.9741
3.1409 -4.9200 -2.9925 0.9741
4.3385 -3.9239 -2.9990 0.9740
4.6737 -3.5246 -3.0010 0.9740
4.9720 -3.0966 -3.0029 0.9740
5.2309 -2.6433 -3.0047 0.9740
5.4484 -2.1684 -3.0063 0.9740
5.7514 -1.1690 -3.0089 0.9740
5.8584 0.3922 -3.0102 0.9740
5.8008 0.9122 -3.0104 0.9740
5.6969 1.4249 -3.0106 0.9739
5.1179 2.8793 -3.0105 0.9739
4.8409 3.3231 -3.0103 0.9740
4.1741 4.1279 -3.0096 0.9740
2.3436 5.0504 -2.8543 0.9753
1.8845 5.2382 -2.8540 0.9753
1.4106 5.3841 -2.8534 0.9753
0.9255 5.4866 -2.8525 0.9753
-0.0619 5.5591 -2.8501 0.9753
-1.1019 5.7484 -3.0007 0.9740
-1.6086 5.6256 -2.9996 0.9740
-2.1021 5.4581 -2.9986 0.9741
-3.4658 4.7039 -2.9955 0.9741
-4.2422 4.0123 -2.9935 0.9741
-5.1470 2.7465 -2.9909 0.9741
-5.6858 1.2883 -2.9888 0.9741
-5.8223 0.2597 -2.9879 0.9741
-5.6824 -1.2874 -2.9870 0.9742
-5.5433 -1.7875 -2.9860 0.9742
-5.3221 -2.2567 -2.9636 0.9743
-5.0959 -2.7192 -2.9612 0.9744
-4.1991 -3.9715 -2.9631 0.9744
-3.4309 -4.6565 -2.9653 0.9743
-2.5534 -5.1961 -2.9682 0.9743
-2.0820 -5.4058 -2.9698 0.9743
-0.5009 -2.6132 -1.3641 0.9881
-0.2601 -2.5857 -1.3323 0.9884
1.9722 -5.4819 -2.9868 0.9742
2.4542 -5.2887 -2.9891 0.9741
2.9174 -5.0531 -2.9914 0.9741
3.3582 -4.7770 -2.9936 0.9741
3.7728 -4.4625 -2.9958 0.9741
4.1580 -4.1119 -2.9980 0.9741
5.6929 -1.4239 -3.0085 0.9740
5.8698 0.1308 -3.0100 0.9740
5.8354 0.6528 -3.0103 0.9740
5.7546 1.1697 -3.0105 0.9739
5.6278 1.6773 -3.0106 0.9739
5.4562 2.1716 -3.0106 0.9739
5.2412 2.6485 -3.0106 0.9739
4.6879 3.5353 -3.0101 0.9740
4.3541 3.9381 -3.0098 0.9740
3.1573 4.9459 -3.0082 0.9740
2.5780 4.9636 -2.8674 0.9752
0.6800 5.5213 -2.8520 0.9753
0.1858 5.5573 -2.8506 0.9753
-0.3129 5.6109 -2.8810 0.9751
-0.8449 5.7928 -3.0012 0.9740
-1.8572 5.5473 -2.9991 0.9740
-2.3428 5.3581 -2.9980 0.9741
-3.6713 4.5441 -2.9949 0.9741
-4.0599 4.1979 -2.9940 0.9741
-4.7370 3.4095 -2.9921 0.9741
-5.4651 2.0353 -2.9898 0.9741
-5.6234 1.5404 -2.9891 0.9741
-5.5973 0.0000 -2.9881 0.9749
-5.5077 -0.9922 -2.9876 0.9749
-4.7745 -2.8279 -2.9624 0.9752
-4.5046 -3.2422 -2.9629 0.9751
-3.4911 -4.3210 -2.9655 0.9751
-3.0939 -4.6165 -2.9668 0.9751
-2.6720 -4.8758 -2.9681 0.9751
-2.2286 -5.0969 -2.9697 0.9751
-0.6641 -2.7867 -1.5293 0.9871
-0.3893 -2.6693 -1.4401 0.9878
-0.1485 -2.6637 -1.4242 0.9880
0.3737 -3.0342 -1.6320 0.9862
1.1741 -5.4638 -2.9834 0.9750
2.1274 -5.1768 -2.9879 0.9749
3.0161 -4.7245 -2.9923 0.9749
3.4270 -4.4405 -2.9944 0.9749
4.1658 -3.7677 -2.9985 0.9749
4.7738 -2.9731 -3.0023 0.9748
5.0223 -2.5378 -3.0040 0.9748
5.6358 -0.1255 -3.0094 0.9748
5.6252 0.3766 -3.0097 0.9748
5.5699 0.8758 -3.0100 0.9748
5.4701 1.3682 -3.0101 0.9748
5.1409 2.3164 -3.0101 0.9748
4.9141 2.7647 -3.0100 0.9748
4.0079 3.9636 -3.0091 0.9748
3.6387 4.3039 -3.0087 0.9748
2.2881 4.9307 -2.9018 0.9757
0.4160 5.3241 -2.8509 0.9761
-0.5628 5.5944 -3.0016 0.9748
-1.5447 5.4024 -2.9996 0.9748
-2.9142 4.7974 -2.9966 0.9749
-4.0742 3.8534 -2.9937 0.9749
-4.6901 3.0682 -2.9920 0.9749
-4.9433 2.6379 -2.9912 0.9749
-5.1573 2.1869 -2.9905 0.9749
-5.4610 1.2373 -2.9892 0.9749
-5.5915 -0.2493 -2.9879 0.9749
-5.4579 -1.2366 -2.9875 0.9749
-5.3260 -1.7174 -2.9874 0.9749
-4.0338 -3.8151 -2.9640 0.9751
-3.6794 -4.1604 -2.9650 0.9751
-2.8859 -4.7508 -2.9674 0.9751
-0.8446 -2.9538 -1.6401 0.9862
-0.2664 -2.6481 -1.4208 0.9880
0.9292 -5.5087 -2.9823 0.9750
1.4169 -5.4081 -2.9845 0.9750
2.3568 -5.0787 -2.9890 0.9749
2.8016 -4.8524 -2.9912 0.9749
3.6227 -4.2850 -2.9955 0.9749
3.9925 -3.9482 -2.9975 0.9749
5.1317 -2.3122 -3.0048 0.9748
5.4655 -1.3670 -3.0076 0.9748
5.5676 -0.8754 -3.0087 0.9748
5.6031 0.6268 -3.0098 0.9748
5.4038 1.6105 -3.0102 0.9748
4.7859 2.9807 -3.0099 0.9748
4.5013 3.3946 -3.0097 0.9748
3.8271 4.1378 -3.0089 0.9748
3.4431 4.4613 -3.0084 0.9748
3.0317 4.7491 -3.0078 0.9748
2.5662 4.9408 -2.9722 0.9751
0.6529 5.3011 -2.8513 0.9761
-2.2499 5.1456 -2.9981 0.9749
-3.5259 4.3641 -2.9951 0.9749
-4.2412 3.6675 -2.9933 0.9749
-4.5495 3.2746 -2.9924 0.9749
-5.0553 2.4148 -2.9908 0.9749
-5.2490 1.9547 -2.9901 0.9749
-5.5102 0.9927 -2.9890 0.9749
-5.5758 0.4983 -2.9885 0.9749
-5.3809 0.0000 -2.9885 0.9757
-5.3590 -0.4789 -2.9882 0.9757
-5.1886 -1.4213 -2.9879 0.9757
-5.0275 -1.8722 -2.9796 0.9758
-3.7117 -3.8379 -2.9653 0.9759
-3.3566 -4.1544 -2.9664 0.9759
-0.4023 -2.7584 -1.5482 0.9873
-0.1534 -2.7506 -1.5300 0.9875
0.6562 -5.3279 -2.9815 0.9757
1.1286 -5.2520 -2.9836 0.9757
1.5927 -5.1344 -2.9857 0.9757
2.0449 -4.9758 -2.9878 0.9757
2.4814 -4.7775 -2.9899 0.9757
2.8988 -4.5408 -2.9921 0.9757
3.2937 -4.2678 -2.9941 0.9756
3.6630 -3.9603 -2.9961 0.9756
4.3126 -3.2522 -2.9999 0.9756
5.1872 -1.5459 -3.0062 0.9755
5.2570 1.3149 -3.0097 0.9755
5.1192 1.7776 -3.0097 0.9755
4.7227 2.6570 -3.0096 0.9755
4.1761 3.4517 -3.0091 0.9755
3.4971 4.1363 -3.0083 0.9755
1.3094 4.9979 -2.8695 0.9766
0.8604 5.1008 -2.8730 0.9766
-0.0602 5.4056 -3.0024 0.9756
-0.5409 5.3771 -3.0015 0.9756
-1.0170 5.3059 -3.0005 0.9756
-1.4848 5.1927 -2.9996 0.9756
-3.5722 4.0392 -2.9948 0.9756
-3.9164 3.7041 -2.9939 0.9756
-4.2293 3.3398 -2.9930 0.9756
-4.7520 2.5358 -2.9915 0.9757
-4.9577 2.1023 -2.9908 0.9757
-5.1240 1.6523 -2.9902 0.9757
-5.3339 0.7174 -2.9891 0.9757
-5.3321 -0.7171 -2.9881 0.9757
-5.2468 -1.1888 -2.9879 0.9757
-5.1201 -1.6510 -2.9879 0.9757
-4.9191 -2.0858 -2.9675 0.9758
-4.7069 -2.5117 -2.9631 0.9759
-4.4653 -2.9211 -2.9635 0.9759
-3.5376 -4.0001 -2.9658 0.9759
-2.7746 -4.5676 -2.9682 0.9758
-2.3581 -4.7987 -2.9696 0.9758
-1.9227 -4.9921 -2.9711 0.9758
-0.0310 -2.7819 -1.5451 0.9874
0.2365 -3.0270 -1.6863 0.9862
1.3619 -5.1984 -2.9846 0.9757
1.8205 -5.0601 -2.9867 0.9757
2.2653 -4.8815 -2.9889 0.9757
2.6927 -4.6638 -2.9910 0.9757
3.0993 -4.4087 -2.9931 0.9756
3.4817 -4.1182 -2.9951 0.9756
4.7116 -2.6507 -3.0025 0.9756
4.9314 -2.2219 -3.0041 0.9756
5.1120 -1.7750 -3.0055 0.9755
