ply
format ascii 1.0
element vertex 1585
property float32 x
property float32 y
property float32 z
property float32 I
end_header
-2.0608 4.7132 2.2189 0.9778
-2.0608 4.7131 2.1182 0.9780
-2.0607 4.7129 1.8239 0.9784
-2.0606 4.7127 1.4471 0.9789
-1.8612 4.8324 1.3645 0.9788
-12.4927 5.9672 3.6481 0.9443
-1.8613 4.8327 1.2729 0.9789
-2.0605 4.7125 1.2642 0.9790
-1.8614 4.8330 1.1821 0.9790
-2.0605 4.7125 1.1739 0.9791
-1.8615 4.8333 1.0919 0.9790
-2.0605 4.7124 1.0843 0.9792
-2.0604 4.7124 0.9953 0.9793
-1.8618 4.8340 0.9134 0.9792
-6.4670 -3.4509 1.2925 0.9707
-2.0604 4.7123 0.9069 0.9793
-6.2732 -2.9964 1.1070 0.9722
-6.0050 -3.5568 1.1114 0.9721
-2.0604 4.7122 0.8190 0.9794
-6.0790 -2.9037 0.9582 0.9731
-5.8134 -3.4433 0.9610 0.9731
-6.3786 -2.7048 0.9855 0.9724
-5.8477 -3.8254 0.9939 0.9722
-2.0604 4.7122 0.7315 0.9794
-5.9351 -2.8350 0.8243 0.9738
-5.6730 -3.3601 0.8263 0.9738
-5.8883 -4.2381 0.9092 0.9712
-5.7662 -3.0770 0.8190 0.9740
-5.6590 -3.7020 0.8474 0.9731
-6.4526 -2.4030 0.7469 0.9727
-5.5815 -3.3059 0.7036 0.9742
-5.6442 -4.0625 0.7543 0.9724
-6.0806 -2.5784 0.7164 0.9738
-5.6789 -3.0304 0.6982 0.9744
-5.5542 -3.6334 0.7199 0.9736
-5.7505 -2.7468 0.5842 0.9747
-7.1628 -2.3097 0.6900 0.9702
-5.9727 -2.5327 0.5948 0.9743
-5.6970 -2.7212 0.4731 0.9750
-5.4408 -3.2226 0.4739 0.9750
-5.4204 -3.9014 0.5005 0.9736
-1.8625 4.8358 0.3883 0.9794
-6.7358 -2.1720 0.5304 0.9720
-5.9070 -2.5048 0.4808 0.9746
-5.5436 -2.9582 0.4709 0.9751
-5.3886 -3.5250 0.4825 0.9745
-5.6889 -4.4925 0.5432 0.9713
-2.0603 4.7120 0.3854 0.9796
-6.1300 -2.2828 0.3810 0.9741
-5.6446 -2.6962 0.3643 0.9752
-5.3905 -3.1929 0.3649 0.9752
-5.3455 -3.8475 0.3836 0.9740
-1.8626 4.8361 0.3018 0.9794
-6.6042 -2.1296 0.4042 0.9726
-5.8491 -2.4802 0.3700 0.9749
-5.4927 -2.9310 0.3626 0.9754
-5.5222 -4.3609 0.4098 0.9722
-2.0602 4.7119 0.2995 0.9796
-6.0661 -2.2590 0.2691 0.9744
-5.3462 -3.1666 0.2584 0.9754
-5.2835 -3.8028 0.2707 0.9743
-6.4829 -2.0905 0.2832 0.9731
-2.0602 4.7119 0.2138 0.9796
-6.0288 -2.2451 0.1604 0.9746
-5.5701 -2.6606 0.1539 0.9756
-5.3190 -3.1505 0.1542 0.9756
-5.2504 -3.7790 0.1613 0.9744
-5.4207 -2.8926 0.1532 0.9757
-5.3550 -4.2288 0.1702 0.9731
-5.2921 -3.1345 0.0511 0.9757
-1.8629 4.8370 0.0431 0.9795
-6.3602 -2.0509 0.0555 0.9736
-5.2295 -3.4210 0.0519 0.9753
-5.2983 -4.1841 0.0561 0.9734
-2.0602 4.7117 0.0427 0.9796
-5.5152 -2.6344 -0.0508 0.9758
-5.2663 -3.1193 -0.0509 0.9758
-5.1868 -3.7332 -0.0531 0.9748
-1.8630 4.8373 -0.0431 0.9795
-6.3154 -2.0365 -0.0552 0.9738
-5.3673 -2.8641 -0.0506 0.9760
-5.2541 -4.1491 -0.0556 0.9736
-2.0602 4.7117 -0.0427 0.9796
-5.9458 -2.2142 -0.1582 0.9749
-5.2578 -3.1142 -0.1524 0.9758
-5.1765 -3.7258 -0.1591 0.9748
-1.8632 4.8376 -0.1293 0.9795
-5.6961 -2.4153 -0.1543 0.9755
-2.0601 4.7116 -0.1282 0.9796
-6.9846 -1.9133 -0.3011 0.9714
-5.9342 -2.2099 -0.2633 0.9750
-5.2494 -3.1092 -0.2537 0.9759
-5.1662 -3.7184 -0.2647 0.9748
-5.1843 -3.3915 -0.2576 0.9755
-2.0601 4.7116 -0.2138 0.9796
-6.9690 -1.9090 -0.4208 0.9715
-5.2409 -3.1042 -0.3548 0.9759
-5.1560 -3.7111 -0.3700 0.9749
-6.2695 -2.0217 -0.3837 0.9740
-5.3415 -2.8503 -0.3526 0.9760
-5.1754 -3.3856 -0.3602 0.9755
-2.0601 4.7115 -0.2995 0.9796
-5.9306 -2.2086 -0.4743 0.9749
-6.2848 -2.0266 -0.4949 0.9739
-5.3445 -2.8519 -0.4540 0.9760
-5.1800 -3.3886 -0.4639 0.9755
-5.2286 -4.1290 -0.4993 0.9736
-2.0600 4.7115 -0.3853 0.9796
-5.9428 -2.2131 -0.5814 0.9748
-5.1742 -3.7242 -0.5845 0.9747
-6.3008 -2.0318 -0.6069 0.9738
-5.1895 -3.3948 -0.5685 0.9754
-2.0600 4.7114 -0.4714 0.9796
-5.9550 -2.2177 -0.6893 0.9748
-5.2622 -3.1168 -0.6634 0.9757
-5.1852 -3.7321 -0.6930 0.9746
-6.3170 -2.0370 -0.7199 0.9736
-5.3627 -2.8616 -0.6593 0.9758
-5.1990 -3.4011 -0.6739 0.9753
-5.2566 -4.1511 -0.7265 0.9734
-5.5276 -2.6403 -0.7677 0.9756
-5.2122 -3.7515 -0.8048 0.9744
-6.3667 -2.0530 -0.8383 0.9734
-5.3784 -2.8700 -0.7640 0.9757
-5.2186 -3.4138 -0.7815 0.9752
-5.3097 -4.1931 -0.8479 0.9731
-2.0600 4.7113 -0.6444 0.9795
-6.0241 -2.2434 -0.9143 0.9744
-5.3072 -3.1435 -0.8774 0.9754
-5.2475 -3.7770 -0.9196 0.9742
-1.8640 4.8397 -0.7377 0.9793
-5.2491 -3.4338 -0.8922 0.9750
-5.3731 -4.2431 -0.9738 0.9727
-2.0600 4.7112 -0.7314 0.9794
-6.0644 -2.2584 -1.0305 0.9741
-5.5880 -2.6692 -0.9861 0.9752
-5.2835 -3.8029 -1.0366 0.9740
-1.8641 4.8400 -0.8259 0.9792
-5.7894 -2.4549 -1.0013 0.9749
-5.2802 -3.4542 -1.0047 0.9748
-2.0599 4.7112 -0.8188 0.9794
-5.3756 -3.1840 -1.1017 0.9749
-5.3523 -3.8524 -1.1628 0.9736
-5.8385 -2.4757 -1.1182 0.9746
-2.0599 4.7111 -0.9066 0.9793
-5.4315 -3.2171 -1.2216 0.9746
-5.4391 -3.9148 -1.2969 0.9731
-2.7721 14.4620 -2.8496 0.9418
-4.0448 14.1457 -2.8472 0.9418
-5.3862 -3.5235 -1.2455 0.9741
-3.4123 14.3187 -2.8485 0.9418
-4.6660 13.9369 -2.8442 0.9419
-13.8819 -1.2405 -2.9382 0.9446
-13.7172 -2.4713 -2.9384 0.9446
-5.7466 -2.7449 -1.3426 0.9743
-5.4899 -3.2517 -1.3452 0.9743
-5.5653 -4.0057 -1.4456 0.9724
-9.7383 -10.0693 -2.9532 0.9443
-7.8195 -11.6675 -2.9611 0.9442
-6.7601 -12.3355 -2.9655 0.9441
-4.4802 -13.3817 -2.9750 0.9439
-3.2770 -13.7509 -2.9801 0.9439
0.4749 -14.2029 -2.9959 0.9436
1.7386 -14.1162 -2.9985 0.9435
2.9906 -13.9172 -3.0010 0.9435
4.2211 -13.6073 -3.0035 0.9434
5.4199 -13.1886 -3.0060 0.9434
7.6847 -12.0379 -3.0109 0.9433
8.7323 -11.3147 -3.0131 0.9432
11.4344 -8.6231 -3.0192 0.9431
12.1635 -7.5755 -3.0210 0.9431
12.7961 -6.4661 -3.0225 0.9431
13.3268 -5.3039 -3.0239 0.9431
13.7513 -4.0983 -3.0251 0.9430
14.0659 -2.8590 -3.0260 0.9430
14.3559 -0.3199 -3.0273 0.9430
14.3288 0.9592 -3.0275 0.9430
14.1868 2.2308 -3.0276 0.9430
13.5639 4.7099 -3.0270 0.9430
10.4935 8.6731 -2.8701 0.9459
9.6761 9.5689 -2.8689 0.9459
8.7821 10.3876 -2.8677 0.9459
7.8189 11.1225 -2.8663 0.9459
2.2546 13.3660 -2.8576 0.9461
-1.3539 13.4588 -2.8517 0.9462
-8.3990 11.3992 -2.9851 0.9438
-9.3735 10.5988 -2.9829 0.9438
-10.2726 9.7159 -2.9809 0.9438
-11.8182 7.7311 -2.9773 0.9439
-12.9890 5.5078 -2.9744 0.9440
-13.9689 1.8787 -2.9714 0.9440
-13.9238 -0.6209 -2.9383 0.9446
-13.8130 -1.8577 -2.9383 0.9446
-13.2706 -4.2792 -2.9396 0.9446
-5.5898 -2.9828 -1.3357 0.9744
-10.9748 -8.6667 -2.9482 0.9444
-10.1711 -9.6198 -2.9514 0.9444
-9.2859 -10.4997 -2.9550 0.9443
-7.2973 -12.0131 -2.9632 0.9442
-6.2086 -12.6342 -2.9678 0.9441
-5.0677 -13.1579 -2.9726 0.9440
-2.6635 -13.8953 -2.9827 0.9438
-1.4187 -14.1022 -2.9880 0.9437
3.6092 -13.7760 -3.0023 0.9434
4.8250 -13.4114 -3.0048 0.9434
6.0045 -12.9394 -3.0073 0.9434
7.1380 -12.3635 -3.0097 0.9433
8.2165 -11.6881 -3.0120 0.9433
9.2310 -10.9185 -3.0142 0.9432
11.8106 -8.1075 -3.0201 0.9431
12.4922 -7.0280 -3.0218 0.9431
13.0745 -5.8910 -3.0232 0.9431
11.5609 7.2002 -2.8713 0.9458
10.0948 9.1302 -2.8695 0.9459
9.2383 9.9883 -2.8683 0.9459
4.0200 12.9590 -2.8604 0.9460
0.4525 13.5334 -2.8547 0.9461
-9.8329 10.1672 -2.9819 0.9438
-13.2187 4.9227 -2.9737 0.9440
-14.0373 1.2544 -2.9711 0.9440
-12.8424 -1.1476 -2.9429 0.9485
-12.6900 -2.2862 -2.9430 0.9485
-12.4386 -3.4073 -2.9436 0.9485
-6.5549 -2.4411 -1.5965 0.9717
-5.5898 -3.3108 -1.4828 0.9737
-5.7785 -4.1592 -1.6250 0.9712
-9.7874 -8.4635 -2.9533 0.9483
-8.1501 -10.0875 -2.9600 0.9482
-6.2490 -11.4031 -2.9679 0.9480
-5.2169 -11.9313 -2.9722 0.9480
-4.1405 -12.3671 -2.9767 0.9479
-0.7296 -13.0850 -2.9912 0.9477
1.6059 -13.0387 -2.9985 0.9475
2.7622 -12.8541 -3.0008 0.9475
6.0740 -11.6945 -3.0077 0.9474
9.7999 -8.8635 -3.0159 0.9472
11.2286 -6.9932 -3.0193 0.9472
12.3016 -4.8959 -3.0220 0.9471
12.6931 -3.7829 -3.0230 0.9471
12.9832 -2.6390 -3.0239 0.9471
13.2253 0.8853 -3.0253 0.9471
12.5195 4.3472 -3.0248 0.9471
11.6793 5.2625 -2.9238 0.9488
7.2190 10.2692 -2.8651 0.9498
6.2733 10.8656 -2.8636 0.9498
4.2427 11.7928 -2.8605 0.9499
3.1744 12.1165 -2.8588 0.9499
-1.2505 12.4310 -2.8516 0.9500
-3.4304 11.9967 -2.8479 0.9501
-1.8646 4.8413 -1.1841 0.9789
-5.4862 11.1641 -2.8392 0.9502
-6.7970 11.1895 -2.9882 0.9477
-7.7605 10.5327 -2.9861 0.9477
-8.6614 9.7937 -2.9841 0.9478
-12.4058 4.0004 -2.9751 0.9479
-12.7087 2.8794 -2.9742 0.9479
-12.9115 1.7364 -2.9735 0.9480
-13.0126 0.5803 -2.9730 0.9480
-12.5766 -2.8495 -2.9433 0.9485
-12.2764 -3.9587 -2.9441 0.9485
-6.1068 -2.5895 -1.5140 0.9732
-5.5830 -3.6522 -1.5227 0.9730
-8.5862 -9.7086 -2.9582 0.9482
-7.6975 -10.4472 -2.9619 0.9482
-5.7390 -11.6785 -2.9700 0.9480
-4.6837 -12.1611 -2.9744 0.9479
-2.4611 -12.8393 -2.9838 0.9478
2.1860 -12.9593 -2.9997 0.9475
3.3334 -12.7233 -3.0020 0.9475
4.4560 -12.3857 -3.0043 0.9474
6.5913 -11.4165 -3.0088 0.9474
8.5230 -10.0810 -3.0131 0.9473
10.1880 -8.4206 -3.0168 0.9472
10.9031 -7.4845 -3.0185 0.9472
11.5318 -6.4877 -3.0200 0.9472
12.0689 -5.4379 -3.0213 0.9471
13.0894 -2.0582 -3.0243 0.9471
13.2232 -0.8852 -3.0249 0.9471
12.7016 3.7855 -3.0251 0.9471
12.3123 4.9002 -3.0246 0.9471
10.6712 6.6461 -2.8694 0.9497
10.0362 7.5686 -2.8690 0.9497
9.3195 8.4290 -2.8681 0.9498
6.7528 10.5780 -2.8644 0.9498
4.7652 11.5954 -2.8613 0.9499
3.7121 11.9666 -2.8597 0.9499
2.6307 12.2422 -2.8580 0.9499
1.5297 12.4200 -2.8562 0.9500
-1.8025 12.3589 -2.8507 0.9500
-2.8934 12.1416 -2.8488 0.9501
-2.0598 4.7109 -1.1735 0.9791
-6.2941 11.4854 -2.9893 0.9477
-9.0862 9.3951 -2.9832 0.9478
-11.2267 6.6496 -2.9782 0.9479
-11.7686 5.6214 -2.9768 0.9479
-12.2174 4.5498 -2.9756 0.9479
-12.5697 3.4432 -2.9746 0.9479
-12.8228 2.3101 -2.9738 0.9479
-11.7996 -2.1258 -2.9470 0.9518
-11.5658 -3.1682 -2.9476 0.9518
-11.2416 -4.1864 -2.9486 0.9518
-5.7013 -3.3769 -1.6287 0.9731
-9.7536 -7.0202 -2.9538 0.9517
-8.3699 -8.6544 -2.9593 0.9516
-5.8067 -10.5960 -2.9699 0.9514
-0.6776 -12.1521 -2.9916 0.9511
0.4073 -12.1833 -2.9963 0.9510
3.6195 -11.6682 -3.0029 0.9509
6.5873 -10.3188 -3.0091 0.9508
7.4845 -9.6979 -3.0111 0.9508
8.3230 -8.9988 -3.0129 0.9508
9.0962 -8.2271 -3.0147 0.9507
9.7976 -7.3887 -3.0163 0.9507
12.1512 1.9107 -3.0235 0.9506
11.9324 2.9845 -3.0233 0.9506
10.1697 5.7213 -2.8681 0.9531
9.6171 6.6018 -2.8673 0.9531
8.9916 7.4317 -2.8673 0.9531
8.2915 8.1997 -2.8663 0.9531
7.5260 8.9017 -2.8652 0.9531
6.7010 9.5322 -2.8640 0.9531
5.8233 10.0862 -2.8627 0.9532
2.9471 11.2487 -2.8583 0.9532
-1.1612 11.5428 -2.8515 0.9533
-2.1826 11.3868 -2.8498 0.9534
-8.8182 8.3402 -2.9834 0.9512
-9.5204 7.5182 -2.9818 0.9513
-10.6924 5.7057 -2.9790 0.9513
-11.1534 4.7295 -2.9778 0.9513
-11.5262 3.7167 -2.9768 0.9513
-11.9965 1.6134 -2.9753 0.9514
-11.9900 -0.5346 -2.9501 0.9518
-11.8821 -1.5980 -2.9469 0.9518
-11.6941 -2.6496 -2.9473 0.9518
-6.2728 -2.6599 -1.6747 0.9723
-5.7848 -3.0868 -1.6117 0.9734
-5.7451 -3.7583 -1.6875 0.9721
-9.4351 -7.4508 -2.9551 0.9517
-8.7426 -8.2687 -2.9578 0.9516
-7.9804 -9.0235 -2.9609 0.9516
-7.1538 -9.7091 -2.9643 0.9515
-6.2689 -10.3201 -2.9680 0.9515
-4.3516 -11.2986 -2.9760 0.9514
-3.3334 -11.6578 -2.9803 0.9513
-2.2860 -11.9260 -2.9848 0.9512
0.9500 -12.1575 -2.9974 0.9510
2.0298 -12.0334 -2.9996 0.9510
3.0950 -11.8136 -3.0018 0.9509
7.0428 -10.0185 -3.0101 0.9508
7.9115 -9.3578 -3.0120 0.9508
8.7182 -8.6216 -3.0138 0.9507
10.1196 -6.9467 -3.0171 0.9507
11.2008 -5.0468 -3.0197 0.9507
11.6097 -4.0313 -3.0208 0.9506
11.9260 -2.9829 -3.0217 0.9506
12.1471 -1.9100 -3.0224 0.9506
12.2711 -0.8214 -3.0230 0.9506
12.2969 0.2740 -3.0233 0.9506
12.2243 1.3675 -3.0235 0.9506
11.7870 3.5129 -3.0232 0.9506
11.4259 4.5474 -3.0227 0.9506
9.9033 6.1678 -2.8677 0.9531
6.2683 9.8190 -2.8634 0.9531
2.4424 11.3657 -2.8574 0.9532
1.4202 11.5313 -2.8558 0.9533
-0.6460 11.5866 -2.8524 0.9533
-2.0598 4.7109 -1.2638 0.9790
-5.5496 10.1268 -2.8384 0.9535
-8.4404 8.7273 -2.9843 0.9512
-9.1784 7.9370 -2.9826 0.9512
-11.3510 4.2272 -2.9773 0.9513
-11.6785 3.1991 -2.9763 0.9513
-11.9140 2.1464 -2.9756 0.9514
-12.0554 1.0773 -2.9750 0.9514
-11.2951 0.0000 -2.9763 0.9544
-11.1526 -0.9966 -2.9504 0.9547
-6.1644 -2.9445 -1.8001 0.9721
-5.4200 -9.8902 -2.9717 0.9544
-4.5239 -10.3464 -2.9755 0.9544
-3.5898 -10.7222 -2.9794 0.9543
-2.6248 -11.0142 -2.9835 0.9542
-0.6322 -11.3379 -2.9922 0.9541
0.3800 -11.3655 -2.9965 0.9540
1.3910 -11.2943 -2.9985 0.9540
2.3924 -11.1332 -3.0006 0.9540
3.3761 -10.8834 -3.0026 0.9540
6.1434 -9.6234 -3.0084 0.9539
6.9798 -9.0439 -3.0103 0.9538
7.7615 -8.3916 -3.0120 0.9538
9.1359 -6.8897 -3.0151 0.9538
9.7173 -6.0520 -3.0165 0.9537
10.2216 -5.1652 -3.0177 0.9537
10.6446 -4.2365 -3.0188 0.9537
10.9828 -3.2732 -3.0198 0.9537
11.3943 -1.2746 -3.0211 0.9537
11.3287 1.7814 -3.0218 0.9537
11.1247 2.7825 -3.0217 0.9537
7.7317 7.6461 -2.8653 0.9560
7.0180 8.3009 -2.8642 0.9560
6.2489 8.8891 -2.8631 0.9560
5.4306 9.4060 -2.8619 0.9561
4.5697 9.8475 -2.8606 0.9561
1.8030 10.6886 -2.8562 0.9562
-0.1206 10.8270 -2.8531 0.9562
-2.0361 10.6221 -2.8499 0.9562
-2.9717 10.3929 -2.8483 0.9563
-1.8648 4.8419 -1.3672 0.9788
-4.7567 9.6798 -2.8419 0.9564
-6.7259 9.1286 -2.9878 0.9542
-9.4690 6.1944 -2.9815 0.9543
-9.9786 5.3248 -2.9803 0.9543
-8.8101 -6.9573 -2.9580 0.9546
-8.1628 -7.7204 -2.9606 0.9546
-4.9771 -10.1281 -2.9736 0.9544
-4.0611 -10.5446 -2.9774 0.9543
-3.1107 -10.8788 -2.9815 0.9543
-2.1331 -11.1281 -2.9856 0.9542
-1.1358 -11.2901 -2.9900 0.9541
-0.1266 -11.3632 -2.9944 0.9541
1.8934 -11.2249 -2.9995 0.9540
5.7068 -9.8845 -3.0075 0.9539
6.5680 -9.3431 -3.0094 0.9539
7.3779 -8.7266 -3.0111 0.9538
8.1299 -8.0398 -3.0128 0.9538
9.9794 -5.6143 -3.0171 0.9537
10.8245 -3.7587 -3.0193 0.9537
11.1192 -2.7811 -3.0202 0.9537
11.3251 -1.7808 -3.0208 0.9537
11.4646 0.2555 -3.0217 0.9537
11.3968 1.2749 -3.0218 0.9537
10.6526 4.2396 -3.0211 0.9537
10.2210 5.1649 -3.0176 0.9537
8.6822 6.5476 -2.8654 0.9560
7.3822 7.9815 -2.8648 0.9560
6.6400 8.6036 -2.8637 0.9560
5.0051 9.6364 -2.8613 0.9561
4.1255 10.0389 -2.8599 0.9561
3.2141 10.3611 -2.8585 0.9561
2.2779 10.6005 -2.8570 0.9561
-1.5613 10.7053 -2.8507 0.9562
-2.5065 10.5179 -2.8491 0.9563
-3.4308 10.2473 -2.8475 0.9563
-2.0598 4.7108 -1.3548 0.9790
-7.8759 8.1437 -2.9852 0.9542
-8.5650 7.4065 -2.9837 0.9542
-9.1858 6.6115 -2.9822 0.9543
-10.5936 3.9451 -2.9787 0.9543
-10.8996 2.9857 -2.9778 0.9543
-10.5833 0.0000 -2.9777 0.9570
-9.8423 -3.6653 -2.9550 0.9573
-9.4809 -4.5286 -2.9562 0.9573
-9.0449 -5.3573 -2.9577 0.9573
-6.6275 -8.2030 -2.9671 0.9571
-5.8772 -8.7693 -2.9702 0.9571
-1.5330 -10.5108 -2.9886 0.9568
2.2405 -10.4262 -3.0004 0.9567
3.1616 -10.1918 -3.0023 0.9566
4.9246 -9.4815 -3.0060 0.9566
5.7523 -9.0109 -3.0078 0.9566
6.5352 -8.4679 -3.0095 0.9565
9.0972 -5.6658 -3.0154 0.9564
10.2812 -3.0641 -3.0184 0.9564
10.7313 -0.2391 -3.0201 0.9564
10.4136 2.6046 -3.0202 0.9564
9.0617 5.0980 -2.9253 0.9577
7.8454 6.4844 -2.8637 0.9586
7.2371 7.1569 -2.8637 0.9586
5.0846 8.8068 -2.8612 0.9586
4.2788 9.2205 -2.8600 0.9586
1.6883 10.0090 -2.8559 0.9587
-1.0144 10.0837 -2.8514 0.9588
-2.7833 9.7338 -2.8484 0.9588
-4.4566 9.0691 -2.8431 0.9589
-5.2391 8.6247 -2.8393 0.9589
-7.0328 7.9522 -2.9869 0.9568
-7.7088 7.2909 -2.9853 0.9569
-9.3490 4.9888 -2.9815 0.9569
-9.7525 4.1354 -2.9804 0.9569
-10.3256 2.3395 -2.9788 0.9570
-10.5733 0.4715 -2.9778 0.9570
-10.2391 -2.3199 -2.9538 0.9573
-9.9942 -3.2227 -2.9545 0.9573
-6.5562 -3.4985 -2.0908 0.9696
-8.8000 -5.7567 -2.9586 0.9572
-7.6512 -7.2365 -2.9630 0.9572
-5.4837 -9.0274 -2.9718 0.9571
-3.8052 -9.8799 -2.9788 0.9570
-2.9144 -10.1924 -2.9826 0.9569
-1.9983 -10.4251 -2.9866 0.9569
-1.0639 -10.5759 -2.9906 0.9568
-0.1186 -10.6433 -2.9948 0.9567
0.8300 -10.6217 -2.9976 0.9567
1.7732 -10.5123 -2.9995 0.9567
2.7036 -10.3193 -3.0014 0.9566
5.3436 -9.2555 -3.0069 0.9566
6.1498 -8.7482 -3.0087 0.9565
8.2554 -6.8233 -3.0134 0.9565
9.7767 -4.4051 -3.0171 0.9564
10.1331 -3.5186 -3.0180 0.9564
10.6014 -1.6670 -3.0194 0.9564
10.7318 0.2392 -3.0202 0.9564
10.5196 2.1382 -3.0203 0.9564
10.2868 3.0658 -3.0201 0.9564
9.9718 3.9687 -3.0197 0.9564
9.5773 4.8396 -3.0191 0.9564
8.6435 5.3833 -2.8650 0.9586
8.1277 6.1294 -2.8642 0.9586
7.5474 6.8262 -2.8632 0.9586
6.9116 7.4727 -2.8639 0.9586
6.2168 8.0553 -2.8629 0.9586
4.6863 9.0227 -2.8606 0.9586
3.8629 9.3998 -2.8593 0.9587
0.3390 10.1369 -2.8537 0.9587
-0.5644 10.1215 -2.8522 0.9588
-1.4622 10.0258 -2.8507 0.9588
-2.3475 9.8507 -2.8492 0.9588
-8.0240 6.9386 -2.9846 0.9569
-9.5602 4.5666 -2.9809 0.9569
-9.9255 3.6963 -2.9800 0.9569
-10.2123 2.7975 -2.9792 0.9570
-10.5425 0.9421 -2.9780 0.9570
-9.9503 -0.0000 -2.9789 0.9593
-9.8408 -0.8794 -2.9579 0.9596
-9.7186 -1.7509 -2.9564 0.9596
-9.5257 -2.6093 -2.9569 0.9596
-9.2581 -3.4478 -2.9577 0.9596
-8.9179 -4.2597 -2.9588 0.9596
-8.0301 -5.7797 -2.9620 0.9595
-7.4891 -6.4760 -2.9641 0.9595
-6.2327 -7.7142 -2.9691 0.9594
-5.5267 -8.2463 -2.9720 0.9594
-4.7757 -8.7146 -2.9751 0.9594
-3.1621 -9.4449 -2.9819 0.9593
1.2243 -9.9407 -2.9986 0.9590
2.1056 -9.7982 -3.0003 0.9590
2.9710 -9.5776 -3.0021 0.9590
3.8139 -9.2806 -3.0039 0.9590
5.4050 -8.4668 -3.0073 0.9589
6.1404 -7.9564 -3.0089 0.9589
8.0357 -6.0600 -3.0131 0.9588
8.5466 -5.3229 -3.0144 0.9588
9.3614 -3.7257 -3.0164 0.9588
9.6584 -2.8785 -3.0172 0.9588
9.8785 -2.0079 -3.0179 0.9588
10.0197 -1.1209 -3.0184 0.9588
10.0809 -0.2246 -3.0188 0.9588
9.9618 1.5664 -3.0190 0.9588
9.5250 3.3074 -3.0186 0.9588
8.7846 4.9421 -3.0176 0.9588
7.8856 5.4132 -2.8635 0.9609
7.3703 6.0917 -2.8627 0.9609
6.7966 6.7213 -2.8617 0.9609
5.4971 7.8197 -2.8616 0.9609
4.7775 8.2748 -2.8605 0.9609
4.0204 8.6637 -2.8594 0.9609
2.4185 9.2311 -2.8569 0.9609
-0.9533 9.4765 -2.8514 0.9610
-1.7921 9.3493 -2.8500 0.9610
-1.8651 4.8426 -1.5536 0.9786
-4.1898 8.5260 -2.8441 0.9611
-6.6110 7.4752 -2.9876 0.9592
-7.2466 6.8538 -2.9861 0.9592
-8.3399 5.4558 -2.9836 0.9592
-9.4757 3.0555 -2.9807 0.9593
-9.7079 2.1995 -2.9800 0.9593
-9.8633 1.3265 -2.9795 0.9593
-9.7866 -1.3162 -2.9563 0.9596
-9.6316 -2.1822 -2.9566 0.9596
-9.0970 -3.8575 -2.9582 0.9596
-8.2770 -5.4146 -2.9611 0.9595
-7.7673 -6.1338 -2.9630 0.9595
-7.1959 -6.8059 -2.9652 0.9595
-4.3852 -8.9236 -2.9767 0.9593
-3.5776 -9.2891 -2.9801 0.9593
-2.7399 -9.5821 -2.9837 0.9592
-0.1114 -10.0037 -2.9951 0.9591
0.7801 -9.9824 -2.9977 0.9591
1.6664 -9.8793 -2.9994 0.9590
2.5407 -9.6976 -3.0012 0.9590
3.3957 -9.4385 -3.0030 0.9590
5.7784 -8.2198 -3.0081 0.9589
6.4904 -7.6769 -3.0096 0.9589
9.1847 -4.1384 -3.0159 0.9588
9.5194 -3.3055 -3.0168 0.9588
9.7782 -2.4457 -3.0176 0.9588
9.9591 -1.5660 -3.0182 0.9588
10.0604 -0.6735 -3.0186 0.9588
10.0217 1.1211 -3.0190 0.9588
9.8820 2.0086 -3.0190 0.9588
8.9970 4.5464 -3.0179 0.9588
8.1200 5.0571 -2.8639 0.9608
5.1424 8.0553 -2.8611 0.9609
4.4032 8.4777 -2.8600 0.9609
2.0044 9.3275 -2.8562 0.9609
0.3185 9.5260 -2.8535 0.9610
-1.3742 9.4222 -2.8507 0.9610
-2.2062 9.2579 -2.8493 0.9610
-2.0597 4.7107 -1.5392 0.9788
-6.9357 7.1716 -2.9868 0.9592
-8.9877 4.2932 -2.9820 0.9593
-9.3314 3.4751 -2.9811 0.9593
-9.7952 1.7647 -2.9797 0.9593
-9.3835 0.0000 -2.9801 0.9614
-9.1692 -1.6519 -2.9589 0.9617
-8.4134 -4.0187 -2.9611 0.9616
-8.0260 -4.7538 -2.9625 0.9616
-7.5754 -5.4524 -2.9642 0.9616
-7.0646 -6.1091 -2.9661 0.9616
-5.2127 -7.7779 -2.9736 0.9615
-4.5041 -8.2190 -2.9765 0.9614
-1.3587 -9.3159 -2.9899 0.9613
-0.5248 -9.4113 -2.9935 0.9612
2.8005 -9.0280 -3.0019 0.9611
4.3616 -8.3976 -3.0052 0.9611
5.7873 -7.4989 -3.0083 0.9610
6.4349 -6.9573 -3.0097 0.9610
7.0317 -6.3598 -3.0111 0.9610
7.5730 -5.7111 -3.0123 0.9610
8.0543 -5.0163 -3.0135 0.9610
8.4717 -4.2809 -3.0145 0.9609
8.8218 -3.5110 -3.0154 0.9609
9.3088 -1.8921 -3.0168 0.9609
9.4419 -1.0562 -3.0173 0.9609
9.4812 0.6347 -3.0178 0.9609
9.3872 1.4761 -3.0178 0.9609
8.9756 3.1167 -3.0175 0.9609
5.8137 6.8765 -2.8598 0.9629
4.5028 7.7989 -2.8600 0.9629
3.7894 8.1656 -2.8589 0.9629
-0.8987 8.9331 -2.8513 0.9630
-2.4660 8.6242 -2.8487 0.9631
-1.8652 4.8429 -1.6482 0.9785
-3.9506 8.0393 -2.8448 0.9631
-4.6446 7.6462 -2.8412 0.9631
-6.2334 7.0482 -2.9882 0.9613
-6.8329 6.4625 -2.9869 0.9613
-7.8641 5.1445 -2.9845 0.9613
-8.6460 3.6662 -2.9825 0.9614
-8.9357 2.8814 -2.9817 0.9614
-9.1547 2.0742 -2.9811 0.9614
-9.3013 1.2509 -2.9806 0.9614
-9.3746 0.4180 -2.9802 0.9614
-9.2334 -1.2417 -2.9588 0.9617
-8.8695 -2.8600 -2.9597 0.9616
-6.7879 -6.4200 -2.9672 0.9615
-4.8633 -8.0062 -2.9750 0.9614
-3.3738 -8.7600 -2.9812 0.9614
-1.7713 -9.2406 -2.9881 0.9613
-0.9429 -9.3729 -2.9917 0.9612
-0.1051 -9.4311 -2.9954 0.9612
0.7354 -9.4104 -2.9977 0.9612
3.2009 -8.8967 -3.0028 0.9611
3.9821 -8.5812 -3.0044 0.9611
4.7326 -8.1971 -3.0060 0.9611
5.4462 -7.7473 -3.0075 0.9610
6.1172 -7.2354 -3.0090 0.9610
6.7400 -6.6653 -3.0104 0.9610
7.3096 -6.0415 -3.0117 0.9610
8.6554 -3.8999 -3.0150 0.9609
9.2144 -2.3047 -3.0165 0.9609
9.4998 0.2117 -3.0177 0.9609
9.3120 1.8927 -3.0178 0.9609
9.1060 2.7139 -3.0176 0.9609
8.4782 4.2842 -3.0168 0.9609
7.1955 5.4263 -2.8621 0.9629
6.6819 6.0434 -2.8613 0.9629
3.4211 8.3246 -2.8583 0.9629
2.6655 8.5925 -2.8571 0.9629
0.3002 8.9795 -2.8533 0.9630
-0.4999 8.9664 -2.8520 0.9630
-2.0597 4.7106 -1.6328 0.9787
-4.3021 7.8504 -2.8430 0.9631
-4.9775 7.4270 -2.8394 0.9632
-5.9146 7.3206 -2.9889 0.9613
-7.1125 6.1504 -2.9862 0.9613
-7.6286 5.4908 -2.9850 0.9613
-8.7995 3.2770 -2.9821 0.9614
-9.2371 1.6642 -2.9808 0.9614
-9.3472 0.8353 -2.9804 0.9614
-8.8727 0.0000 -2.9811 0.9633
-8.6737 -1.5626 -2.9611 0.9635
-8.2623 -3.0769 -2.9622 0.9635
-7.9584 -3.8014 -2.9633 0.9635
-2.0610 -8.6484 -2.9871 0.9632
1.0910 -8.8579 -2.9986 0.9630
1.8760 -8.7303 -3.0002 0.9630
3.3978 -8.2680 -3.0033 0.9630
4.1223 -7.9368 -3.0049 0.9630
4.8147 -7.5421 -3.0063 0.9629
5.4695 -7.0870 -3.0078 0.9629
6.0813 -6.5750 -3.0091 0.9629
6.6452 -6.0102 -3.0104 0.9629
8.3362 -3.3177 -3.0145 0.9628
8.7962 -1.7879 -3.0158 0.9628
8.8700 1.3948 -3.0168 0.9628
7.8223 4.4007 -3.0155 0.9628
7.2099 4.9493 -2.9382 0.9638
6.5633 5.4247 -2.8609 0.9647
5.4940 6.4983 -2.8590 0.9647
4.8919 6.9589 -2.8579 0.9647
4.2556 7.3708 -2.8596 0.9647
3.5813 7.7173 -2.8585 0.9647
2.8790 8.0023 -2.8573 0.9647
2.1545 8.2235 -2.8562 0.9648
0.6617 8.4681 -2.8538 0.9648
-0.0945 8.4897 -2.8526 0.9648
-0.8494 8.4438 -2.8513 0.9648
-1.8653 4.8432 -1.7438 0.9783
-3.7348 7.6001 -2.8452 0.9649
-4.3911 7.2288 -2.8417 0.9649
-5.8932 6.6636 -2.9888 0.9632
-8.1750 3.4665 -2.9834 0.9632
-8.4490 2.7245 -2.9827 0.9632
-8.6562 1.9612 -2.9820 0.9632
-8.7949 1.1828 -2.9816 0.9632
-8.8637 -0.3952 -2.9810 0.9633
-7.7827 -4.1530 -2.9639 0.9635
-7.3858 -4.8316 -2.9653 0.9634
-5.8586 -6.6244 -2.9712 0.9634
-3.1902 -8.2832 -2.9823 0.9632
-2.4429 -8.5433 -2.9855 0.9632
-0.8914 -8.8610 -2.9922 0.9631
-0.0993 -8.9155 -2.9956 0.9631
2.2637 -8.6403 -3.0010 0.9630
3.0253 -8.4090 -3.0025 0.9630
3.7637 -8.1105 -3.0041 0.9630
4.4729 -7.7472 -3.0056 0.9630
5.1472 -7.3219 -3.0071 0.9629
5.7811 -6.8379 -3.0085 0.9629
6.3696 -6.2989 -3.0098 0.9629
6.9077 -5.7094 -3.0110 0.9629
7.3913 -5.0738 -3.0121 0.9629
7.8162 -4.3973 -3.0132 0.9629
8.4768 -2.9434 -3.0149 0.9628
8.6044 2.5644 -3.0166 0.9628
5.1981 6.7353 -2.8585 0.9647
3.9222 7.5516 -2.8590 0.9647
1.7857 8.3096 -2.8556 0.9648
1.0385 8.4320 -2.8544 0.9648
-0.4725 8.4752 -2.8519 0.9648
-1.9660 8.2498 -2.8494 0.9648
-2.0597 4.7106 -1.7273 0.9785
-4.7060 7.0218 -2.8400 0.9650
-5.5918 6.9210 -2.9895 0.9632
-6.1829 6.3930 -2.9881 0.9632
-7.2127 5.1914 -2.9858 0.9632
-7.6434 4.5272 -2.9847 0.9632
-8.3202 3.0985 -2.9830 0.9632
-8.5610 2.3451 -2.9823 0.9632
-8.7342 1.5736 -2.9818 0.9632
-8.4098 0.0000 -2.9820 0.9649
-8.3657 -0.7475 -2.9782 0.9650
-8.0607 -2.2080 -2.9635 0.9652
-7.8340 -2.9174 -2.9642 0.9651
-7.5457 -3.6043 -2.9652 0.9651
-7.1979 -4.2633 -2.9664 0.9651
-6.3349 -5.4780 -2.9697 0.9651
-5.8261 -6.0242 -2.9717 0.9651
-5.2707 -6.5237 -2.9739 0.9650
-4.6730 -6.9726 -2.9763 0.9650
-4.0374 -7.3674 -2.9789 0.9650
-1.2173 -8.3468 -2.9910 0.9648
-0.4701 -8.4312 -2.9942 0.9648
1.0337 -8.3931 -2.9986 0.9647
3.2193 -7.8336 -3.0031 0.9647
4.5615 -7.1454 -3.0059 0.9647
6.7796 -5.1127 -3.0109 0.9646
7.5836 -3.8321 -3.0128 0.9646
8.1469 -2.4280 -3.0143 0.9646
8.4511 -0.9454 -3.0153 0.9646
8.4020 1.3212 -3.0158 0.9645
8.2508 2.0637 -3.0157 0.9645
7.4097 4.1686 -3.0146 0.9646
5.7336 5.6701 -2.8593 0.9664
5.2045 6.1559 -2.8584 0.9664
4.6343 6.5923 -2.8573 0.9664
4.0312 6.9821 -2.8587 0.9664
3.3930 7.3116 -2.8582 0.9664
-2.2089 7.7250 -2.8490 0.9665
-3.5390 7.2017 -2.8453 0.9665
-6.1224 5.7905 -2.9881 0.9649
-6.6110 5.2207 -2.9870 0.9649
-7.4270 3.9632 -2.9850 0.9649
-7.7482 3.2855 -2.9842 0.9649
-8.0080 2.5822 -2.9835 0.9649
-8.2044 1.8589 -2.9829 0.9649
-8.3360 1.1211 -2.9825 0.9649
-8.2840 -1.1140 -2.9638 0.9651
-7.9552 -2.5652 -2.9638 0.9651
-7.6974 -3.2640 -2.9646 0.9651
-6.5707 -5.1888 -2.9687 0.9651
-6.0866 -5.7567 -2.9706 0.9651
-5.5540 -6.2800 -2.9727 0.9650
-3.0238 -7.8510 -2.9832 0.9649
-2.3153 -8.0971 -2.9862 0.9649
-1.5871 -8.2798 -2.9894 0.9649
-0.0941 -8.4484 -2.9959 0.9648
2.1448 -8.1867 -3.0009 0.9647
5.4769 -6.4780 -3.0079 0.9646
6.0342 -5.9673 -3.0092 0.9646
6.5439 -5.4086 -3.0104 0.9646
7.4042 -4.1655 -3.0124 0.9646
7.7478 -3.4910 -3.0133 0.9646
8.4001 -1.3208 -3.0151 0.9646
8.4853 -0.5680 -3.0155 0.9646
8.4525 0.9456 -3.0158 0.9645
8.1504 2.4291 -3.0156 0.9645
7.5887 3.8347 -3.0149 0.9646
7.2159 4.4941 -3.0143 0.9646
4.9242 6.3805 -2.8579 0.9664
-1.1602 7.9554 -2.8507 0.9665
-2.5503 7.6174 -2.8484 0.9665
-2.0596 4.7105 -1.8230 0.9784
-3.8541 7.0328 -2.8437 0.9665
-4.4597 6.6544 -2.8405 0.9666
-5.2992 6.5590 -2.9899 0.9648
-5.8595 6.0587 -2.9887 0.9649
-6.3730 5.5110 -2.9875 0.9649
-7.2442 4.2908 -2.9855 0.9649
-7.5951 3.6279 -2.9846 0.9649
-8.2784 1.4914 -2.9827 0.9649
-7.9881 0.0000 -2.9828 0.9665
-7.9561 -0.7110 -2.9827 0.9665
-7.4435 -2.7720 -2.9660 0.9667
-7.1695 -3.4246 -2.9669 0.9666
-6.4544 -4.6456 -2.9695 0.9666
-6.0187 -5.2046 -2.9712 0.9666
-5.5351 -5.7232 -2.9731 0.9666
-4.4392 -6.6238 -2.9775 0.9665
-3.2000 -7.3186 -2.9827 0.9665
-2.5383 -7.5815 -2.9855 0.9664
-1.8553 -7.7849 -2.9884 0.9664
-0.4464 -8.0069 -2.9945 0.9663
0.2682 -8.0219 -2.9972 0.9663
1.6879 -7.8548 -3.0000 0.9663
2.3815 -7.6771 -3.0015 0.9663
3.0567 -7.4381 -3.0029 0.9662
3.7083 -7.1398 -3.0042 0.9662
4.3310 -6.7844 -3.0056 0.9662
4.9198 -6.3747 -3.0069 0.9662
6.4365 -4.8540 -3.0103 0.9662
6.8452 -4.2632 -3.0113 0.9662
7.1995 -3.6381 -3.0121 0.9661
7.7342 -2.3050 -3.0135 0.9661
7.9100 -1.6078 -3.0141 0.9661
8.0228 -0.8975 -3.0145 0.9661
8.0717 -0.1799 -3.0148 0.9661
8.0560 0.5393 -3.0149 0.9661
7.9762 1.2542 -3.0150 0.9661
7.6266 2.6483 -3.0146 0.9661
5.4433 5.3830 -2.8586 0.9678
4.9411 5.8443 -2.8577 0.9679
1.2716 7.5383 -2.8547 0.9679
-0.0851 7.6384 -2.8524 0.9679
-2.0976 7.3360 -2.8491 0.9679
-3.3605 6.8385 -2.8452 0.9680
-3.9517 6.5054 -2.8422 0.9680
-4.5102 6.1213 -2.8392 0.9681
-5.3042 5.9977 -2.9898 0.9664
-6.2789 4.9585 -2.9876 0.9664
-6.6932 4.3785 -2.9866 0.9664
-7.7929 1.7656 -2.9837 0.9665
-7.9805 0.3559 -2.9830 0.9665
-7.9800 -0.3558 -2.9828 0.9665
-7.7444 -1.7546 -2.9651 0.9667
-7.3137 -3.1013 -2.9664 0.9666
-7.0111 -3.7412 -2.9675 0.9666
-6.6532 -4.3523 -2.9688 0.9666
-5.7826 -5.4692 -2.9721 0.9666
-5.2764 -5.9662 -2.9741 0.9666
-3.5212 -7.1656 -2.9813 0.9665
-2.8721 -7.4574 -2.9841 0.9665
-1.5074 -7.8638 -2.9899 0.9664
-0.8023 -7.9750 -2.9930 0.9664
-0.0894 -8.0231 -2.9961 0.9663
0.6254 -8.0039 -2.9979 0.9663
2.0366 -7.7737 -3.0007 0.9663
2.7217 -7.5651 -3.0022 0.9663
3.3858 -7.2962 -3.0036 0.9662
4.0236 -6.9691 -3.0049 0.9662
4.6300 -6.5862 -3.0062 0.9662
5.2000 -6.1505 -3.0075 0.9662
6.2128 -5.1350 -3.0098 0.9662
7.0293 -3.9546 -3.0117 0.9661
7.3554 -3.3142 -3.0125 0.9661
7.6230 -2.6470 -3.0132 0.9661
7.9744 -1.2539 -3.0143 0.9661
7.9123 1.6083 -3.0149 0.9661
7.5006 2.9852 -3.0145 0.9661
7.2042 3.6404 -3.0141 0.9661
4.1159 6.4474 -2.8563 0.9679
3.5244 6.7855 -2.8552 0.9679
2.9085 7.0773 -2.8572 0.9679
2.2663 7.3058 -2.8563 0.9679
0.9343 7.5860 -2.8541 0.9679
0.2553 7.6361 -2.8530 0.9679
-0.4252 7.6255 -2.8519 0.9679
-2.0596 4.7104 -1.9197 0.9783
-4.2353 6.3195 -2.8407 0.9680
-5.0328 6.2292 -2.9904 0.9664
-5.5651 5.7543 -2.9892 0.9664
-6.4925 4.6730 -2.9871 0.9664
-6.8805 4.0754 -2.9861 0.9664
-7.7072 2.1112 -2.9840 0.9665
-7.2912 -1.9973 -2.9670 0.9680
-6.8250 -3.2600 -2.9685 0.9680
-5.7290 -4.9541 -2.9726 0.9680
-5.2686 -5.4477 -2.9744 0.9680
-4.7660 -5.8990 -2.9764 0.9679
-3.0454 -6.9651 -2.9835 0.9679
-2.4156 -7.2150 -2.9862 0.9678
-1.7655 -7.4083 -2.9890 0.9678
-1.1002 -7.5433 -2.9918 0.9678
0.2552 -7.6326 -2.9972 0.9677
0.9339 -7.5830 -2.9986 0.9677
1.6059 -7.4732 -3.0000 0.9677
2.9081 -7.0764 -3.0027 0.9677
5.2034 -5.6259 -3.0076 0.9676
5.6856 -5.1423 -3.0087 0.9676
6.1228 -4.6174 -3.0097 0.9676
6.5114 -4.0553 -3.0106 0.9676
7.1310 -2.8380 -3.0122 0.9676
7.3568 -2.1925 -3.0128 0.9676
7.6313 -0.8537 -3.0137 0.9675
7.6628 0.5130 -3.0142 0.9675
7.4503 1.8635 -3.0141 0.9675
7.2543 2.5190 -3.0139 0.9675
6.6910 3.7643 -3.0131 0.9675
4.7002 5.5594 -2.8572 0.9692
4.1854 5.9538 -2.8563 0.9692
1.8439 7.0382 -2.8555 0.9692
1.2098 7.1717 -2.8544 0.9692
0.5664 7.2486 -2.8535 0.9692
-0.0809 7.2675 -2.8525 0.9693
-0.7272 7.2288 -2.8514 0.9693
-1.9959 6.9802 -2.8493 0.9693
-1.8657 4.8442 -2.0374 0.9779
-3.7598 6.1895 -2.8423 0.9694
-4.2915 5.8245 -2.8394 0.9694
-5.5333 5.2334 -2.9891 0.9678
-5.9751 4.7185 -2.9881 0.9678
-6.3694 4.1667 -2.9872 0.9678
-6.7130 3.5822 -2.9863 0.9678
-7.0035 2.9698 -2.9856 0.9678
-7.2385 2.3341 -2.9850 0.9678
-7.4162 1.6803 -2.9844 0.9679
-7.5944 -0.3386 -2.9835 0.9679
-7.5037 -1.0091 -2.9715 0.9680
-7.1957 -2.3203 -2.9673 0.9680
-6.6742 -3.5614 -2.9690 0.9680
-3.9417 -6.4889 -2.9798 0.9679
-3.3512 -6.8197 -2.9822 0.9679
-2.7334 -7.0970 -2.9848 0.9678
-1.4344 -7.4831 -2.9904 0.9678
-0.0850 -7.6339 -2.9963 0.9677
3.2212 -6.9414 -3.0033 0.9677
3.8278 -6.6300 -3.0046 0.9676
4.9467 -5.8510 -3.0071 0.9676
5.4499 -5.3895 -3.0082 0.9676
5.9100 -4.8847 -3.0092 0.9676
6.3234 -4.3407 -3.0102 0.9676
6.9967 -3.1525 -3.0119 0.9676
7.2511 -2.5178 -3.0125 0.9676
7.4478 -1.8628 -3.0131 0.9675
7.5852 -1.1927 -3.0135 0.9675
7.6621 -0.5129 -3.0139 0.9675
7.6779 0.1711 -3.0141 0.9675
7.5261 1.5297 -3.0142 0.9675
7.3597 2.1934 -3.0140 0.9675
7.1346 2.8395 -3.0137 0.9675
6.8526 3.4628 -3.0133 0.9675
6.5161 4.0583 -3.0128 0.9676
5.4015 4.8854 -2.8584 0.9692
4.9439 5.3453 -2.8576 0.9692
4.4472 5.7624 -2.8567 0.9692
3.9153 6.1333 -2.8558 0.9692
2.7638 6.7252 -2.8536 0.9692
2.1560 6.9503 -2.8560 0.9692
0.8890 7.2175 -2.8541 0.9692
-1.6832 7.0634 -2.8498 0.9693
-2.3045 6.8833 -2.8489 0.9693
-2.0596 4.7104 -2.0177 0.9782
-4.0298 6.0129 -2.8408 0.9694
-5.2956 5.4757 -2.9897 0.9678
-7.1281 2.6545 -2.9853 0.9678
-7.3346 2.0092 -2.9847 0.9678
-7.5726 0.6767 -2.9839 0.9679
-7.2473 0.0000 -2.9843 0.9691
-7.2183 -0.6450 -2.9842 0.9691
-6.7571 -2.5164 -2.9691 0.9693
-5.4627 -4.7238 -2.9739 0.9692
-4.5442 -5.6244 -2.9775 0.9692
-3.4801 -6.3503 -2.9819 0.9692
-2.3028 -6.8782 -2.9868 0.9691
-0.4049 -7.2621 -2.9950 0.9690
2.1594 -6.9611 -3.0012 0.9690
2.7716 -6.7442 -3.0025 0.9690
3.9266 -6.1509 -3.0049 0.9689
4.4603 -5.7793 -3.0061 0.9689
4.9587 -5.3613 -3.0072 0.9689
6.2049 -3.8645 -3.0101 0.9689
6.5260 -3.2977 -3.0109 0.9689
6.7952 -2.7044 -3.0116 0.9689
7.0103 -2.0892 -3.0122 0.9689
7.1695 -1.4573 -3.0126 0.9688
7.3159 -0.1630 -3.0133 0.9688
7.3017 0.4888 -3.0134 0.9688
6.9125 2.4003 -3.0132 0.9688
6.6708 3.0057 -3.0128 0.9688
6.0302 4.1395 -3.0119 0.9689
5.6366 4.6588 -3.0112 0.9689
4.4790 5.2977 -2.8567 0.9704
3.4665 6.0041 -2.8549 0.9705
1.7551 6.6991 -2.8516 0.9705
-1.9026 6.6535 -2.8496 0.9705
-3.5835 5.8992 -2.8423 0.9706
-4.0906 5.5519 -2.8397 0.9706
-4.8113 5.4403 -2.9906 0.9691
-5.2746 4.9887 -2.9896 0.9691
-6.0718 3.9720 -2.9877 0.9691
-6.3995 3.4149 -2.9869 0.9691
-6.6765 2.8311 -2.9862 0.9691
-6.9005 2.2251 -2.9856 0.9691
-7.0700 1.6019 -2.9851 0.9691
-7.1836 0.9661 -2.9847 0.9691
-7.2400 -0.3228 -2.9843 0.9691
-7.0304 -1.5929 -2.9684 0.9693
-6.6392 -2.8153 -2.9695 0.9693
-5.2484 -4.9639 -2.9747 0.9692
-4.7886 -5.4146 -2.9765 0.9692
-4.2906 -5.8233 -2.9785 0.9692
-3.7580 -6.1866 -2.9807 0.9692
-3.1950 -6.5017 -2.9831 0.9691
-2.6058 -6.7658 -2.9855 0.9691
-1.3673 -7.1333 -2.9908 0.9691
-0.7277 -7.2334 -2.9936 0.9690
-0.0810 -7.2764 -2.9965 0.9690
0.5672 -7.2583 -2.9980 0.9690
1.8468 -7.0489 -3.0006 0.9690
3.0699 -6.6154 -3.0031 0.9689
4.1976 -5.9711 -3.0055 0.9689
6.3718 -3.5847 -3.0105 0.9689
6.6672 -3.0041 -3.0112 0.9689
6.9096 -2.3992 -3.0119 0.9689
7.0970 -1.7750 -3.0124 0.9688
7.3011 -0.4887 -3.0132 0.9688
7.0129 2.0901 -3.0133 0.9688
6.5298 3.2996 -3.0126 0.9688
5.3043 4.7975 -2.9451 0.9695
3.7312 5.8447 -2.8553 0.9704
3.1950 6.1515 -2.8544 0.9705
2.6339 6.4091 -2.8533 0.9705
1.4566 6.7782 -2.8548 0.9705
0.2315 6.9244 -2.8529 0.9705
-0.3856 6.9151 -2.8519 0.9705
-0.9992 6.8510 -2.8510 0.9705
-3.8409 5.7310 -2.8409 0.9706
-4.5651 5.6503 -2.9912 0.9691
-5.0480 5.2196 -2.9901 0.9691
-5.4907 4.7480 -2.9891 0.9691
-5.8897 4.2392 -2.9882 0.9691
-6.2418 3.6971 -2.9873 0.9691
-6.5445 3.1261 -2.9866 0.9691
-6.7952 2.5306 -2.9859 0.9691
-7.1339 1.2852 -2.9849 0.9691
-7.2191 0.6451 -2.9846 0.9691
-6.9199 0.0000 -2.9850 0.9703
-6.7804 -1.2215 -2.9718 0.9704
-6.6405 -1.8190 -2.9700 0.9705
-5.5950 -4.0270 -2.9736 0.9704
-4.7973 -4.9604 -2.9767 0.9704
-4.3394 -5.3710 -2.9785 0.9704
-3.3230 -6.0638 -2.9827 0.9703
-2.7723 -6.3404 -2.9850 0.9703
-1.6068 -6.7427 -2.9900 0.9703
-0.3866 -6.9330 -2.9953 0.9702
0.2322 -6.9448 -2.9974 0.9702
2.0613 -6.6449 -3.0011 0.9701
3.2094 -6.1792 -3.0035 0.9701
4.2573 -5.5164 -3.0058 0.9701
4.7331 -5.1173 -3.0068 0.9701
5.1715 -4.6773 -3.0078 0.9701
5.5690 -4.1997 -3.0087 0.9701
5.9223 -3.6884 -3.0096 0.9701
6.2287 -3.1475 -3.0103 0.9701
6.8427 -1.3908 -3.0120 0.9700
6.9402 -0.7764 -3.0124 0.9700
6.9823 -0.1556 -3.0126 0.9700
6.9688 0.4665 -3.0128 0.9700
6.5974 2.2909 -3.0125 0.9700
6.0852 3.4235 -3.0118 0.9700
4.8166 4.7632 -2.9221 0.9709
3.3087 5.7309 -2.8545 0.9716
2.2386 6.2223 -2.8525 0.9716
1.6753 6.3945 -2.8514 0.9716
-1.2430 6.4846 -2.8481 0.9716
-1.8159 6.3508 -2.8492 0.9716
-2.9085 5.9188 -2.8447 0.9717
-3.9054 5.3005 -2.8400 0.9717
-4.5935 5.1940 -2.9910 0.9702
-5.0359 4.7630 -2.9900 0.9703
-6.1102 3.2605 -2.9875 0.9703
-6.3747 2.7031 -2.9868 0.9703
-6.5887 2.1246 -2.9862 0.9703
-6.8579 -0.9223 -2.9849 0.9703
-6.7145 -1.5213 -2.9698 0.9705
-6.0782 -3.2434 -2.9718 0.9704
-5.0121 -4.7404 -2.9758 0.9704
-4.0972 -5.5608 -2.9795 0.9704
-3.5885 -5.9076 -2.9816 0.9703
-3.0508 -6.2082 -2.9838 0.9703
-2.4881 -6.4602 -2.9862 0.9703
-0.0774 -6.9465 -2.9966 0.9702
1.1565 -6.8562 -2.9992 0.9702
1.7629 -6.7288 -3.0005 0.9702
2.3558 -6.5479 -3.0017 0.9701
2.9304 -6.3147 -3.0029 0.9701
3.4821 -6.0312 -3.0041 0.9701
4.9572 -4.9022 -3.0073 0.9701
5.3756 -4.4430 -3.0083 0.9701
5.7513 -3.9480 -3.0092 0.9701
6.3634 -2.8672 -3.0107 0.9701
6.5947 -2.2899 -3.0113 0.9700
6.8983 -1.0847 -3.0122 0.9700
6.9682 -0.4665 -3.0125 0.9700
6.9825 0.1556 -3.0127 0.9700
6.8444 1.3912 -3.0128 0.9700
6.6931 1.9948 -3.0126 0.9700
6.4885 2.5824 -3.0124 0.9700
6.2321 3.1492 -3.0120 0.9700
5.9262 3.6909 -3.0115 0.9700
4.4966 4.8617 -2.8566 0.9716
4.0449 5.2412 -2.8558 0.9716
3.5613 5.5787 -2.8549 0.9716
3.0496 5.8716 -2.8540 0.9716
2.5140 6.1175 -2.8530 0.9716
1.3885 6.4615 -2.8508 0.9716
0.2206 6.6054 -2.8509 0.9716
-0.3681 6.6017 -2.8521 0.9716
-2.0963 6.2613 -2.8482 0.9716
-3.6666 5.4710 -2.8410 0.9717
-4.3584 5.3945 -2.9915 0.9702
-5.2423 4.5332 -2.9895 0.9703
-5.6233 4.0474 -2.9886 0.9703
-6.6762 1.8288 -2.9859 0.9703
-6.8115 1.2272 -2.9855 0.9703
-6.5902 -0.5889 -2.9855 0.9714
-6.3511 -1.7398 -2.9713 0.9715
-5.9446 -2.8395 -2.9726 0.9715
-5.3508 -3.8513 -2.9747 0.9715
-4.1498 -5.1363 -2.9795 0.9714
-2.6508 -6.0627 -2.9857 0.9714
-1.5364 -6.4469 -2.9904 0.9713
-0.3696 -6.6284 -2.9955 0.9713
0.2220 -6.6393 -2.9974 0.9713
1.3967 -6.4999 -2.9998 0.9712
4.9432 -4.4708 -3.0074 0.9712
5.3230 -4.0143 -3.0083 0.9712
6.1989 -2.4671 -3.0104 0.9711
6.3951 -1.9059 -3.0110 0.9711
6.6334 -0.7421 -3.0118 0.9711
6.6607 0.4459 -3.0121 0.9711
6.5946 1.0370 -3.0122 0.9711
6.3057 2.1896 -3.0119 0.9711
6.0852 2.7419 -3.0116 0.9711
5.8163 3.2722 -3.0112 0.9711
5.1421 4.2501 -3.0101 0.9711
4.7424 4.6898 -3.0094 0.9712
4.0862 4.8332 -2.8558 0.9726
3.1627 5.4779 -2.8541 0.9726
2.1399 5.9479 -2.8522 0.9726
-0.0703 6.3112 -2.8479 0.9727
-0.6315 6.2774 -2.8468 0.9727
-1.7356 6.0700 -2.8486 0.9727
-1.8661 4.8453 -2.3428 0.9775
-2.7803 5.6578 -2.8445 0.9727
-3.2701 5.3834 -2.8421 0.9727
-4.3919 4.9660 -2.9913 0.9713
-4.8149 4.5540 -2.9904 0.9713
-5.8422 3.1175 -2.9880 0.9714
-6.0952 2.5846 -2.9873 0.9714
-6.2999 2.0314 -2.9867 0.9714
-6.4547 1.4624 -2.9863 0.9714
-6.5584 0.8820 -2.9859 0.9714
-6.6103 0.2948 -2.9857 0.9714
-6.6100 -0.2948 -2.9855 0.9714
-6.2678 -2.0211 -2.9715 0.9715
-6.0643 -2.5715 -2.9722 0.9715
-5.8131 -3.1020 -2.9730 0.9715
-5.5159 -3.6083 -2.9741 0.9715
-4.3731 -4.9448 -2.9786 0.9714
-2.9172 -5.9364 -2.9845 0.9714
-1.8213 -6.3695 -2.9892 0.9713
-1.2482 -6.5116 -2.9917 0.9713
-0.6642 -6.6025 -2.9942 0.9713
-0.0740 -6.6412 -2.9968 0.9713
0.5177 -6.6241 -2.9980 0.9713
1.1056 -6.5543 -2.9992 0.9713
1.6853 -6.4325 -3.0004 0.9712
2.2520 -6.2594 -3.0016 0.9712
3.3287 -5.7653 -3.0039 0.9712
3.8299 -5.4481 -3.0049 0.9712
4.3011 -5.0874 -3.0060 0.9712
4.7384 -4.6859 -3.0069 0.9712
5.4974 -3.7737 -3.0087 0.9712
5.8129 -3.2703 -3.0095 0.9712
6.0823 -2.7405 -3.0101 0.9711
6.4741 -1.6193 -3.0112 0.9711
6.5934 -1.0368 -3.0116 0.9711
6.6738 0.1487 -3.0121 0.9711
6.6343 0.7422 -3.0122 0.9711
6.2017 2.4682 -3.0118 0.9711
5.9567 3.0100 -3.0114 0.9711
5.3269 4.0172 -3.0104 0.9711
4.9471 4.4744 -3.0098 0.9712
3.4041 5.3324 -2.8546 0.9726
2.9151 5.6125 -2.8537 0.9726
2.4032 5.8477 -2.8527 0.9726
1.8725 6.0362 -2.8517 0.9726
0.7720 6.2679 -2.8496 0.9727
0.2110 6.3093 -2.8485 0.9727
-0.3513 6.3005 -2.8473 0.9727
-1.4639 6.1431 -2.8495 0.9727
-2.0036 5.9846 -2.8477 0.9727
-2.0595 4.7102 -2.3196 0.9777
-3.5052 5.2302 -2.8409 0.9727
-4.1670 5.1576 -2.9918 0.9713
-4.6080 4.7647 -2.9908 0.9713
-5.3766 3.8699 -2.9891 0.9713
-5.6982 3.3751 -2.9883 0.9714
-5.9746 2.8539 -2.9876 0.9714
-6.2037 2.3103 -2.9870 0.9714
-6.5130 1.1734 -2.9861 0.9714
-6.5909 0.5890 -2.9858 0.9714
-6.3349 0.0000 -2.9861 0.9724
-6.3096 -0.5638 -2.9860 0.9724
-6.2279 -1.1220 -2.9830 0.9724
-6.0820 -1.6660 -2.9725 0.9725
-5.6926 -2.7191 -2.9738 0.9725
-5.4297 -3.2160 -2.9747 0.9725
-4.3929 -4.5423 -2.9787 0.9724
-3.5221 -5.2554 -2.9822 0.9724
-2.5380 -5.8046 -2.9863 0.9724
0.2125 -6.3554 -2.9975 0.9723
0.7776 -6.3137 -2.9986 0.9723
1.3370 -6.2218 -2.9998 0.9723
3.4293 -5.3719 -3.0042 0.9722
5.4179 -3.3743 -3.0086 0.9722
5.6980 -2.8793 -3.0093 0.9722
6.2595 -1.2723 -3.0109 0.9721
6.3746 0.4267 -3.0116 0.9721
6.3114 0.9924 -3.0116 0.9721
6.0349 2.0956 -3.0113 0.9721
5.5665 3.1317 -3.0107 0.9722
5.2649 3.6141 -3.0102 0.9722
4.5388 4.4885 -3.0090 0.9722
3.9741 4.7005 -2.9015 0.9731
3.4828 4.9543 -2.8546 0.9736
3.0271 5.2430 -2.8538 0.9736
2.5476 5.4900 -2.8529 0.9736
1.0057 5.9618 -2.8499 0.9736
0.4708 6.0254 -2.8489 0.9736
-1.1380 5.9371 -2.8496 0.9736
-1.6611 5.8092 -2.8481 0.9736
-2.6611 5.4153 -2.8442 0.9737
-3.7469 5.0854 -2.9776 0.9725
-4.2045 4.7541 -2.9916 0.9723
-5.3066 3.4715 -2.9891 0.9723
-6.2782 -0.8443 -2.9860 0.9724
-6.1509 -1.3935 -2.9727 0.9725
-6.0022 -1.9354 -2.9727 0.9725
-5.5666 -2.9704 -2.9742 0.9725
-5.2820 -3.4553 -2.9752 0.9725
-4.1874 -4.7348 -2.9795 0.9724
-1.7437 -6.0980 -2.9897 0.9723
-1.1949 -6.2339 -2.9920 0.9723
3.6658 -5.2147 -3.0047 0.9722
4.1168 -4.8693 -3.0057 0.9722
4.5352 -4.4850 -3.0066 0.9722
5.2615 -3.6118 -3.0083 0.9722
5.5635 -3.1299 -3.0090 0.9722
5.8212 -2.6229 -3.0097 0.9722
6.0327 -2.0947 -3.0102 0.9722
6.1962 -1.5497 -3.0107 0.9722
6.3493 0.7103 -3.0116 0.9721
6.1225 1.8247 -3.0114 0.9721
5.9353 2.3622 -3.0112 0.9721
5.7009 2.8808 -3.0109 0.9721
5.4211 3.3763 -3.0104 0.9722
5.0982 3.8447 -3.0099 0.9722
4.7348 4.2824 -3.0093 0.9722
4.3339 4.6857 -3.0086 0.9722
3.7005 4.7949 -2.8550 0.9736
2.7901 5.3719 -2.8533 0.9736
2.3002 5.5971 -2.8524 0.9736
1.2705 5.9121 -2.8505 0.9736
0.2019 6.0393 -2.8484 0.9736
-0.3363 6.0310 -2.8473 0.9736
-1.9176 5.7277 -2.8472 0.9736
-2.0595 4.7101 -2.4232 0.9775
-2.8986 5.2893 -2.8431 0.9737
-3.3554 5.0067 -2.8410 0.9737
-3.9892 4.9375 -2.9921 0.9723
-4.7985 4.1495 -2.9903 0.9723
-5.1474 3.7049 -2.9895 0.9723
-5.4553 3.2312 -2.9888 0.9724
-5.9393 2.2119 -2.9875 0.9724
-6.2356 1.1234 -2.9866 0.9724
-6.3102 0.5639 -2.9863 0.9724
-6.0722 0.0000 -2.9867 0.9733
-6.0480 -0.5404 -2.9866 0.9733
-5.9758 -1.0766 -2.9866 0.9733
-5.8310 -1.5973 -2.9737 0.9734
-5.2054 -3.0832 -2.9757 0.9734
-4.9121 -3.5356 -2.9768 0.9734
-4.5799 -3.9604 -2.9781 0.9734
-4.2113 -4.3545 -2.9796 0.9734
-3.8091 -4.7146 -2.9812 0.9733
-2.9164 -5.3218 -2.9848 0.9733
-1.4098 -5.9158 -2.9912 0.9733
-0.3391 -6.0815 -2.9959 0.9732
0.7453 -6.0509 -2.9986 0.9732
1.2813 -5.9627 -2.9997 0.9732
1.8076 -5.8271 -3.0008 0.9732
2.3199 -5.6451 -3.0019 0.9732
3.2863 -5.1478 -3.0039 0.9731
4.5337 -4.1005 -3.0067 0.9731
4.8820 -3.6817 -3.0075 0.9731
5.4600 -2.7590 -3.0089 0.9731
5.9978 -1.2191 -3.0104 0.9731
6.1200 -0.1364 -3.0109 0.9731
6.1081 0.4089 -3.0110 0.9731
6.0475 0.9509 -3.0111 0.9731
5.7827 2.0080 -3.0108 0.9731
4.7158 3.8977 -3.0092 0.9731
4.3493 4.3011 -3.0086 0.9731
3.3374 4.7474 -2.8543 0.9745
2.9007 5.0242 -2.8535 0.9745
1.4689 5.6067 -2.8508 0.9745
0.4512 5.7743 -2.8488 0.9745
-0.0645 5.7895 -2.8478 0.9745
-1.0904 5.6887 -2.8489 0.9745
-1.5916 5.5663 -2.8475 0.9745
-1.8664 4.8460 -2.5542 0.9771
-3.6094 4.8987 -2.9929 0.9732
-4.0298 4.5567 -2.9919 0.9732
-4.4181 4.1787 -2.9911 0.9733
-4.7712 3.7678 -2.9903 0.9733
-5.3611 2.8608 -2.9888 0.9733
-5.5934 2.3718 -2.9882 0.9733
-5.7813 1.8642 -2.9877 0.9733
-5.9234 1.3421 -2.9873 0.9733
-6.0187 0.8095 -2.9870 0.9733
-5.9002 -1.3368 -2.9755 0.9734
-5.7545 -1.8556 -2.9739 0.9734
-5.5676 -2.3608 -2.9745 0.9734
-5.3368 -2.8478 -2.9753 0.9734
-5.0638 -3.3126 -2.9763 0.9734
-4.4000 -4.1615 -2.9788 0.9734
-4.0142 -4.5390 -2.9803 0.9734
-3.5963 -4.8810 -2.9820 0.9733
-3.1496 -5.1849 -2.9839 0.9733
-2.6773 -5.4482 -2.9858 0.9733
-1.6713 -5.8449 -2.9901 0.9733
-0.6094 -6.0580 -2.9947 0.9732
-0.0679 -6.0929 -2.9970 0.9732
2.0658 -5.7418 -3.0013 0.9732
3.0532 -5.2883 -3.0034 0.9731
3.5129 -4.9971 -3.0044 0.9731
3.9450 -4.6661 -3.0054 0.9731
4.7125 -3.8950 -3.0071 0.9731
5.3311 -2.9992 -3.0086 0.9731
5.5780 -2.5133 -3.0092 0.9731
5.7806 -2.0072 -3.0097 0.9731
6.1077 -0.4089 -3.0108 0.9731
6.1202 0.1364 -3.0110 0.9731
6.0839 0.6806 -3.0111 0.9731
5.9992 1.2194 -3.0110 0.9731
5.8666 1.7484 -3.0109 0.9731
5.6872 2.2635 -3.0107 0.9731
5.4627 2.7604 -3.0104 0.9731
4.8852 3.6841 -3.0095 0.9731
3.1221 4.8907 -2.8539 0.9745
2.6737 5.1477 -2.8530 0.9745
2.2042 5.3636 -2.8522 0.9745
1.2175 5.6656 -2.8503 0.9745
0.7081 5.7495 -2.8493 0.9745
-0.8351 5.7261 -2.8462 0.9745
-1.3424 5.6331 -2.8483 0.9745
-2.0594 4.7100 -2.5284 0.9773
-2.7777 5.0687 -2.8429 0.9746
-4.2282 4.3720 -2.9915 0.9733
-5.6930 2.1201 -2.9880 0.9733
-5.9770 1.0768 -2.9871 0.9733
-6.0485 0.5405 -2.9869 0.9733
-5.8266 0.0000 -2.9872 0.9741
-5.5962 -1.5329 -2.9747 0.9743
-5.4384 -2.0253 -2.9752 0.9743
-4.7142 -3.3931 -2.9778 0.9742
-4.3953 -3.8008 -2.9790 0.9742
-3.6554 -4.5243 -2.9819 0.9742
-3.2400 -4.8344 -2.9836 0.9742
-2.7986 -5.1068 -2.9855 0.9742
-2.3344 -5.3391 -2.9874 0.9741
-1.8512 -5.5294 -2.9894 0.9741
-1.3527 -5.6763 -2.9916 0.9741
2.2256 -5.4156 -3.0017 0.9740
2.6997 -5.1978 -3.0028 0.9740
3.5808 -4.6397 -3.0047 0.9740
3.9807 -4.3039 -3.0055 0.9740
4.3492 -3.9336 -3.0064 0.9740
4.6832 -3.5318 -3.0071 0.9740
4.9802 -3.1017 -3.0078 0.9740
5.2376 -2.6466 -3.0085 0.9740
5.4533 -2.1704 -3.0090 0.9740
5.8353 -0.6528 -3.0102 0.9740
5.8010 0.9122 -3.0106 0.9739
5.1166 2.8785 -3.0097 0.9740
3.2639 4.6429 -2.9096 0.9748
1.4092 5.3788 -2.8506 0.9753
-0.5558 5.5249 -2.8467 0.9753
-1.0459 5.4565 -2.8483 0.9753
-2.4463 4.9781 -2.8436 0.9754
-2.8779 4.7377 -2.8419 0.9754
-3.4631 4.7002 -2.9931 0.9741
-3.8666 4.3720 -2.9922 0.9741
-4.5780 3.6152 -2.9906 0.9741
-5.1441 2.7450 -2.9892 0.9741
-5.6838 1.2878 -2.9878 0.9741
-5.7752 0.7767 -2.9875 0.9741
-5.8210 0.2596 -2.9872 0.9741
-5.8208 -0.2596 -2.9871 0.9741
-5.6671 -1.2840 -2.9790 0.9742
-5.3434 -2.2658 -2.9755 0.9742
-4.5593 -3.6004 -2.9784 0.9742
-3.8523 -4.3558 -2.9811 0.9742
-3.4512 -4.6840 -2.9828 0.9742
-3.0223 -4.9755 -2.9845 0.9742
-2.5691 -5.2280 -2.9864 0.9742
-1.6037 -5.6084 -2.9905 0.9741
-1.0989 -5.7330 -2.9927 0.9741
-0.5847 -5.8124 -2.9949 0.9741
0.4556 -5.8303 -2.9981 0.9741
0.9731 -5.7686 -2.9992 0.9740
1.4832 -5.6611 -3.0002 0.9740
2.9290 -5.0732 -3.0032 0.9740
3.3700 -4.7939 -3.0042 0.9740
3.7845 -4.4763 -3.0051 0.9740
4.1691 -4.1228 -3.0060 0.9740
5.1140 -2.8770 -3.0082 0.9740
5.3508 -2.4109 -3.0088 0.9740
5.5451 -1.9254 -3.0093 0.9740
5.8001 -0.9120 -3.0101 0.9740
5.8359 0.6529 -3.0106 0.9739
5.7546 1.1697 -3.0105 0.9739
5.4554 2.1712 -3.0102 0.9740
5.2400 2.6479 -3.0099 0.9740
4.9829 3.1034 -3.0095 0.9740
4.3522 3.9363 -3.0085 0.9740
3.9837 4.3072 -3.0078 0.9740
3.5837 4.6436 -3.0071 0.9740
2.9950 4.6916 -2.8536 0.9753
2.5649 4.9382 -2.8528 0.9753
2.1146 5.1454 -2.8519 0.9753
1.6477 5.3115 -2.8510 0.9753
1.1680 5.4353 -2.8501 0.9753
0.6794 5.5159 -2.8492 0.9753
-0.3092 5.5451 -2.8472 0.9753
-3.1887 4.7579 -2.9364 0.9746
-3.6685 4.5406 -2.9927 0.9741
-4.4130 3.8161 -2.9910 0.9741
-4.7339 3.4073 -2.9902 0.9741
-5.2608 2.5129 -2.9889 0.9741
-5.4626 2.0343 -2.9884 0.9741
-5.7352 1.0333 -2.9876 0.9741
-5.5740 -0.4981 -2.9875 0.9749
-5.5076 -0.9922 -2.9875 0.9749
-5.3775 -1.4730 -2.9765 0.9750
-4.7991 -2.8425 -2.9776 0.9750
-4.5286 -3.2595 -2.9787 0.9750
-4.2221 -3.6510 -2.9798 0.9750
-2.6881 -4.9052 -2.9860 0.9750
-2.2422 -5.1282 -2.9879 0.9749
-1.7781 -5.3109 -2.9899 0.9749
-1.2992 -5.4518 -2.9919 0.9749
-0.8094 -5.5497 -2.9940 0.9749
0.6866 -5.5750 -2.9986 0.9749
1.6654 -5.3684 -3.0006 0.9748
2.1373 -5.2007 -3.0016 0.9748
4.4970 -3.3913 -3.0068 0.9748
5.6029 -0.6268 -3.0097 0.9748
5.6369 -0.1256 -3.0099 0.9748
5.5701 0.8759 -3.0101 0.9748
5.4699 1.3681 -3.0100 0.9748
5.3261 1.8494 -3.0099 0.9748
5.1400 2.3160 -3.0096 0.9748
4.9129 2.7639 -3.0093 0.9748
4.6468 3.1898 -3.0089 0.9748
4.0061 3.9617 -3.0078 0.9748
3.2388 4.6072 -3.0064 0.9748
2.6721 4.6281 -2.8529 0.9761
2.2489 4.8463 -2.8521 0.9761
1.8081 5.0257 -2.8513 0.9761
1.3532 5.1651 -2.8504 0.9761
-0.0594 5.3339 -2.8477 0.9761
-0.5337 5.3057 -2.8467 0.9761
-1.0042 5.2391 -2.8478 0.9761
-1.8667 4.8468 -2.7727 0.9767
-2.7922 4.5966 -2.8711 0.9759
-3.3260 4.5142 -2.9933 0.9749
-4.0714 3.8508 -2.9917 0.9749
-4.3969 3.4722 -2.9909 0.9749
-4.6874 3.0664 -2.9902 0.9749
-4.9407 2.6365 -2.9896 0.9749
-5.1548 2.1859 -2.9891 0.9749
-5.3281 1.7181 -2.9886 0.9749
-5.4592 1.2369 -2.9882 0.9749
-5.5470 0.7460 -2.9879 0.9749
-5.5910 0.2493 -2.9877 0.9749
-5.5908 -0.2493 -2.9876 0.9749
-5.5463 -0.7459 -2.9875 0.9749
-5.3055 -1.7108 -2.9759 0.9750
-4.6684 -3.0540 -2.9781 0.9750
-4.3797 -3.4586 -2.9792 0.9750
-3.3150 -4.4992 -2.9834 0.9750
-2.4677 -5.0216 -2.9870 0.9749
-2.0122 -5.2247 -2.9889 0.9749
-1.5403 -5.3866 -2.9909 0.9749
-0.5616 -5.5823 -2.9951 0.9749
-0.0625 -5.6139 -2.9971 0.9749
0.9345 -5.5398 -2.9991 0.9748
1.9031 -5.2898 -3.0011 0.9748
3.2361 -4.6034 -3.0040 0.9748
3.6341 -4.2984 -3.0049 0.9748
4.0033 -3.9590 -3.0057 0.9748
4.3409 -3.5879 -3.0064 0.9748
4.9105 -2.7626 -3.0078 0.9748
5.1379 -2.3150 -3.0084 0.9748
5.4686 -1.3678 -3.0093 0.9748
5.6255 -0.3766 -3.0099 0.9748
5.6370 0.1256 -3.0100 0.9748
5.6036 0.6269 -3.0101 0.9748
5.5255 1.1231 -3.0101 0.9748
5.4034 1.6104 -3.0099 0.9748
5.2383 2.0848 -3.0097 0.9748
4.7846 2.9799 -3.0091 0.9748
4.4997 3.3934 -3.0086 0.9748
3.8253 4.1359 -3.0075 0.9748
2.9463 4.6153 -2.9231 0.9755
2.4675 4.7506 -2.8578 0.9760
1.5822 5.1005 -2.8509 0.9761
0.1783 5.3322 -2.8481 0.9761
-0.2969 5.3251 -2.8472 0.9761
-0.7694 5.2758 -2.8462 0.9761
-1.6924 5.0550 -2.8458 0.9761
-2.0594 4.7099 -2.7442 0.9770
-2.5589 4.6694 -2.8425 0.9761
-3.1221 4.6585 -2.9938 0.9749
-3.8964 4.0289 -2.9921 0.9749
-4.2384 3.6651 -2.9913 0.9749
-4.5467 3.2725 -2.9906 0.9749
-4.8189 2.8542 -2.9899 0.9749
-5.0528 2.4136 -2.9893 0.9749
-5.2467 1.9539 -2.9888 0.9749
-5.5085 0.9924 -2.9880 0.9749
-5.2946 -0.9539 -2.9880 0.9757
-5.0233 -1.8707 -2.9771 0.9758
-4.8378 -2.3108 -2.9777 0.9758
-4.0594 -3.5103 -2.9806 0.9757
-3.7324 -3.8593 -2.9819 0.9757
-3.3757 -4.1782 -2.9833 0.9757
-2.5843 -4.7157 -2.9866 0.9757
-2.1556 -4.9299 -2.9884 0.9757
-1.7093 -5.1055 -2.9903 0.9757
-0.7780 -5.3348 -2.9943 0.9756
-0.3003 -5.3866 -2.9964 0.9756
0.1804 -5.3944 -2.9977 0.9756
0.6600 -5.3586 -2.9986 0.9756
1.6007 -5.1600 -3.0006 0.9756
2.4917 -4.7974 -3.0024 0.9756
4.5960 -2.8624 -3.0071 0.9755
4.8334 -2.4424 -3.0077 0.9755
5.1916 -1.5472 -3.0087 0.9755
5.4174 -0.1207 -3.0095 0.9755
5.4068 0.3620 -3.0096 0.9755
