ply
format ascii 1.0
element vertex 1583
property float32 x
property float32 y
property float32 z
property float32 I
end_header
-1.5741 4.7017 0.4546 0.9803
-4.7932 -4.1448 0.4749 0.9749
-1.3675 4.7826 0.3728 0.9802
-5.5923 -2.3714 0.4552 0.9759
-5.1048 -2.7240 0.4336 0.9771
-4.7302 -3.7354 0.4517 0.9761
-1.5741 4.7016 0.3716 0.9803
-5.2522 -2.5087 0.3390 0.9769
-1.3676 4.7827 0.2897 0.9803
-5.5197 -2.3405 0.3492 0.9763
-5.0560 -2.6979 0.3338 0.9773
-4.6748 -3.6916 0.3469 0.9764
-4.6706 -3.3617 0.2393 0.9772
-5.0176 -2.6775 0.2365 0.9775
-4.6287 -3.6553 0.2452 0.9767
-4.9300 -4.6628 0.2821 0.9732
-1.5741 4.7016 0.2062 0.9803
-5.7835 -2.1538 0.1539 0.9756
-4.6188 -3.9941 0.1523 0.9759
-1.3676 4.7830 0.1241 0.9803
-4.9911 -2.6633 0.1411 0.9776
-4.5990 -3.6318 0.1461 0.9768
-1.5741 4.7015 0.1236 0.9804
-5.7367 -2.1364 0.0509 0.9758
-5.1533 -2.4615 0.0475 0.9774
-4.5812 -3.9616 0.0503 0.9761
-6.4008 -2.0640 0.0559 0.9735
-5.3991 -2.2894 0.0487 0.9768
-4.7054 -3.0781 0.0467 0.9778
-4.7965 -2.8410 -0.0463 0.9779
-1.3677 4.7832 -0.0413 0.9803
-5.3670 -2.2758 -0.0485 0.9770
-4.9391 -2.6356 -0.0465 0.9779
-4.6815 -3.0625 -0.0465 0.9779
-4.5408 -3.5858 -0.0481 0.9771
-4.6847 -4.4308 -0.0536 0.9745
-5.6821 -2.1161 -0.1512 0.9760
-4.7884 -2.8361 -0.1388 0.9780
-4.5856 -3.3005 -0.1409 0.9776
-4.5326 -3.9195 -0.1494 0.9763
-1.3678 4.7833 -0.1241 0.9803
-6.2691 -2.0215 -0.1643 0.9740
-5.3567 -2.2714 -0.1451 0.9770
-4.9305 -2.6310 -0.1394 0.9779
-4.6735 -3.0572 -0.1393 0.9779
-4.5313 -3.5784 -0.1440 0.9772
-1.5740 4.7014 -0.1236 0.9804
-5.6687 -2.1111 -0.2515 0.9761
-5.1084 -2.4401 -0.2354 0.9776
-4.5776 -3.2947 -0.2345 0.9777
-4.5210 -3.9095 -0.2485 0.9764
-1.3678 4.7835 -0.2069 0.9803
-6.2362 -2.0109 -0.2724 0.9741
-5.3464 -2.2671 -0.2415 0.9770
-4.9222 -2.6266 -0.2320 0.9779
-4.6483 -4.3964 -0.2660 0.9747
-1.5740 4.7014 -0.2061 0.9803
-5.6553 -2.1061 -0.3515 0.9761
-4.7730 -2.8271 -0.3231 0.9780
-4.5695 -3.2890 -0.3279 0.9777
-1.3678 4.7836 -0.2898 0.9803
-6.2036 -2.0004 -0.3796 0.9742
-5.3361 -2.2627 -0.3376 0.9770
-4.9139 -2.6222 -0.3244 0.9779
-4.5138 -3.5645 -0.3350 0.9772
-4.6303 -4.3793 -0.3712 0.9748
-1.5740 4.7013 -0.2888 0.9803
-5.6589 -2.1074 -0.4525 0.9761
-4.5130 -3.9025 -0.4471 0.9764
-1.3679 4.7837 -0.3729 0.9802
-5.3355 -2.2624 -0.4343 0.9770
-4.9106 -2.6203 -0.4171 0.9779
-4.6551 -3.0452 -0.4169 0.9779
-4.6427 -4.3910 -0.4789 0.9747
-4.7776 -2.8298 -0.5091 0.9779
-4.5754 -3.2931 -0.5168 0.9776
-4.5234 -3.9115 -0.5482 0.9763
-1.3679 4.7839 -0.4561 0.9802
-6.2669 -2.0208 -0.6037 0.9739
-4.9192 -2.6249 -0.5112 0.9779
-4.5213 -3.5704 -0.5282 0.9771
-1.5740 4.7013 -0.4545 0.9803
-5.6869 -2.1179 -0.6582 0.9759
-4.7857 -2.8346 -0.6033 0.9779
-4.5839 -3.2993 -0.6126 0.9775
-6.3019 -2.0321 -0.7182 0.9737
-5.3570 -2.2715 -0.6311 0.9769
-4.6711 -3.0557 -0.6054 0.9778
-4.5311 -3.5781 -0.6262 0.9770
-5.7107 -2.1267 -0.7637 0.9757
-5.1247 -2.4479 -0.7117 0.9774
-4.7938 -2.8394 -0.6982 0.9778
-4.5925 -3.3055 -0.7091 0.9774
-4.5543 -3.9383 -0.7545 0.9760
-4.6792 -3.0610 -0.7007 0.9777
-4.7331 -4.4765 -0.8164 0.9741
-5.7566 -2.1438 -0.8737 0.9755
-5.1500 -2.4599 -0.8118 0.9772
-4.6153 -3.3219 -0.8088 0.9773
-4.5953 -3.9737 -0.8641 0.9758
-4.9584 -2.6459 -0.7994 0.9775
-4.8166 -4.5555 -0.9430 0.9736
-1.5740 4.7012 -0.7052 0.9802
-5.8151 -2.1656 -0.9881 0.9752
-4.8396 -2.8665 -0.8957 0.9775
-4.6430 -3.3418 -0.9109 0.9771
-4.6371 -4.0099 -0.9762 0.9755
-1.3680 4.7844 -0.7924 0.9800
-4.9865 -2.6609 -0.9000 0.9774
-5.9030 -2.1983 -1.1107 0.9747
-5.2099 -2.4886 -1.0181 0.9768
-4.8662 -2.8822 -0.9972 0.9773
-4.6711 -3.3620 -1.0148 0.9769
-4.6904 -4.0559 -1.0934 0.9751
-4.7515 -3.1083 -1.0012 0.9772
-4.6356 -3.6607 -1.0415 0.9763
-1.5740 4.7012 -0.8742 0.9801
-5.2593 -2.5122 -1.1279 0.9765
-2.7708 14.4550 -2.8482 0.9418
-1.3681 4.7846 -0.9630 0.9799
-5.5478 -2.3525 -1.1661 0.9757
-5.0554 -2.6977 -1.1089 0.9769
-1.5739 4.7011 -0.9594 0.9800
-13.8949 -1.2416 -2.9410 0.9446
-13.7305 -2.4737 -2.9413 0.9446
-13.4591 -3.6868 -2.9420 0.9446
-6.2673 -2.3340 -1.4099 0.9730
-5.3243 -2.5432 -1.2439 0.9762
-4.7683 -3.4320 -1.2386 0.9763
-4.8808 -4.2206 -1.3603 0.9740
-9.7470 -10.0783 -2.9558 0.9443
-7.8255 -11.6765 -2.9634 0.9442
-5.6476 -12.9164 -2.9720 0.9440
-4.4825 -13.3886 -2.9766 0.9439
-2.0443 -14.0168 -2.9863 0.9437
-0.7899 -14.1668 -2.9913 0.9436
1.7396 -14.1242 -3.0002 0.9435
2.9919 -13.9233 -3.0023 0.9434
6.5777 -12.6644 -3.0086 0.9433
7.6838 -12.0364 -3.0105 0.9433
9.7078 -10.4959 -3.0141 0.9432
10.6092 -9.5954 -3.0157 0.9432
12.1538 -7.5694 -3.0186 0.9431
13.3132 -5.2985 -3.0208 0.9431
13.7358 -4.0937 -3.0216 0.9431
14.0487 -2.8555 -3.0223 0.9431
14.2494 -1.5940 -3.0228 0.9431
14.3080 0.9578 -3.0232 0.9431
14.1654 2.2274 -3.0230 0.9431
13.9096 3.4790 -3.0227 0.9431
12.4032 5.5886 -2.8680 0.9459
11.2105 7.6956 -2.8667 0.9459
9.6619 9.5548 -2.8647 0.9460
8.7696 10.3727 -2.8636 0.9460
5.7096 12.3038 -2.8596 0.9461
3.4340 13.1073 -2.8565 0.9461
2.2525 13.3535 -2.8550 0.9461
-1.3682 4.7847 -1.0491 0.9799
-4.8437 12.5763 -2.8412 0.9464
-8.4008 11.4017 -2.9857 0.9437
-9.3767 10.6025 -2.9839 0.9438
-11.8269 7.7368 -2.9795 0.9439
-13.4368 4.3328 -2.9764 0.9439
-13.7659 3.1189 -2.9757 0.9439
-13.9864 1.8810 -2.9752 0.9439
-13.9366 -0.6214 -2.9410 0.9446
-13.8262 -1.8594 -2.9411 0.9446
-13.6080 -3.0832 -2.9416 0.9446
-5.6331 -2.3886 -1.2899 0.9753
-5.1107 -2.7272 -1.2212 0.9766
-4.7575 -3.7570 -1.2780 0.9755
-9.2939 -10.5088 -2.9576 0.9443
-8.3323 -11.3087 -2.9614 0.9442
-7.3027 -12.0219 -2.9654 0.9441
-6.2127 -12.6425 -2.9697 0.9440
-5.0705 -13.1653 -2.9742 0.9440
-3.8847 -13.5858 -2.9790 0.9439
-2.6645 -13.9003 -2.9838 0.9438
-1.4190 -14.1057 -2.9888 0.9437
-0.1582 -14.1999 -2.9938 0.9436
1.1082 -14.1816 -2.9989 0.9435
2.3679 -14.0378 -3.0012 0.9435
3.6105 -13.7811 -3.0034 0.9434
6.0051 -12.9405 -3.0075 0.9433
7.1377 -12.3628 -3.0095 0.9433
8.2149 -11.6859 -3.0114 0.9433
11.8020 -8.1016 -3.0179 0.9432
12.4815 -7.0220 -3.0192 0.9431
13.0618 -5.8853 -3.0203 0.9431
13.5379 -4.7009 -3.0212 0.9431
14.3070 -0.9577 -3.0229 0.9431
14.3363 0.3195 -3.0231 0.9431
14.2510 1.5942 -3.0231 0.9431
13.7398 4.0949 -3.0225 0.9431
13.3182 5.3005 -3.0219 0.9431
12.1403 6.1348 -2.8676 0.9459
10.0798 9.1166 -2.8652 0.9460
9.2248 9.9738 -2.8642 0.9460
6.2536 12.0403 -2.8603 0.9460
2.8459 13.2436 -2.8558 0.9461
1.6549 13.4368 -2.8541 0.9462
-0.7528 13.5019 -2.8509 0.9462
-3.1313 13.1394 -2.8476 0.9463
-5.3944 12.3374 -2.8387 0.9464
-10.6976 9.2506 -2.9815 0.9438
-11.4731 8.2579 -2.9801 0.9439
-12.7452 6.0879 -2.9777 0.9439
-13.6147 3.7295 -2.9760 0.9439
-14.0555 1.2560 -2.9750 0.9439
-13.0250 0.0000 -2.9729 0.9480
-12.8531 -1.1485 -2.9453 0.9484
-12.4496 -3.4103 -2.9462 0.9484
-4.8246 -3.4725 -1.3568 0.9759
-9.7956 -8.4706 -2.9558 0.9483
-9.0121 -9.3184 -2.9588 0.9482
-7.2341 -10.7941 -2.9658 0.9481
-6.2528 -11.4100 -2.9697 0.9480
-5.2196 -11.9376 -2.9738 0.9479
-4.1424 -12.3726 -2.9780 0.9479
-1.8887 -12.9499 -2.9870 0.9477
-0.7297 -13.0868 -2.9916 0.9476
3.8994 -12.5705 -3.0040 0.9474
5.0060 -12.1814 -3.0059 0.9474
7.0951 -11.1143 -3.0096 0.9473
10.5495 -7.9558 -3.0158 0.9472
11.2204 -6.9881 -3.0171 0.9472
11.8021 -5.9639 -3.0182 0.9472
12.2899 -4.8913 -3.0191 0.9472
12.8399 3.2115 -3.0209 0.9471
12.5012 4.3409 -3.0204 0.9472
10.3476 7.1032 -2.8647 0.9498
7.2099 10.2562 -2.8614 0.9499
4.2383 11.7804 -2.8575 0.9499
-1.2499 12.4245 -2.8501 0.9501
-2.3495 12.2575 -2.8486 0.9501
-7.7620 10.5347 -2.9867 0.9477
-8.6642 9.7968 -2.9851 0.9478
-10.9294 7.1497 -2.9809 0.9478
-11.5181 6.1463 -2.9798 0.9478
-12.4179 4.0043 -2.9781 0.9479
-12.7225 2.8825 -2.9774 0.9479
-12.9265 1.7385 -2.9770 0.9479
-13.0286 0.5810 -2.9767 0.9479
-12.9034 -0.5754 -2.9480 0.9484
-12.7895 -1.7200 -2.9454 0.9484
-12.5875 -2.8519 -2.9458 0.9484
-12.2873 -3.9621 -2.9467 0.9484
-5.1677 -2.7575 -1.3369 0.9763
-4.8395 -3.8217 -1.4075 0.9750
-9.4133 -8.9030 -2.9573 0.9482
-8.5928 -9.7160 -2.9605 0.9482
-6.7504 -11.1128 -2.9677 0.9481
-5.7422 -11.6851 -2.9717 0.9480
-3.5897 -12.5541 -2.9802 0.9478
-2.4618 -12.8431 -2.9847 0.9478
-1.3110 -13.0312 -2.9893 0.9477
-0.1461 -13.1166 -2.9940 0.9476
1.0235 -13.0980 -2.9986 0.9475
2.1870 -12.9653 -3.0011 0.9475
6.5910 -11.4159 -3.0087 0.9474
8.5204 -10.0779 -3.0121 0.9473
11.5227 -6.4826 -3.0176 0.9472
12.8370 -3.2107 -3.0202 0.9472
13.0741 -2.0558 -3.0207 0.9471
13.1549 1.4716 -3.0213 0.9471
12.9709 2.6365 -3.0211 0.9471
12.6833 3.7800 -3.0207 0.9471
12.2943 4.8930 -3.0202 0.9472
11.2071 5.6632 -2.8660 0.9498
10.6555 6.6363 -2.8652 0.9498
9.3067 8.4174 -2.8641 0.9498
8.5176 9.2091 -2.8631 0.9498
7.6612 9.9269 -2.8620 0.9499
6.7444 10.5649 -2.8608 0.9499
5.7747 11.1183 -2.8596 0.9499
4.7600 11.5828 -2.8582 0.9499
1.5284 12.4100 -2.8539 0.9500
-0.6954 12.4712 -2.8509 0.9500
-1.8017 12.3532 -2.8494 0.9501
-2.8925 12.1374 -2.8479 0.9501
-1.5739 4.7010 -1.1315 0.9799
-6.2941 11.4853 -2.9893 0.9477
-7.2871 10.8731 -2.9875 0.9477
-9.0897 9.3987 -2.9843 0.9478
-9.8853 8.5482 -2.9829 0.9478
-11.2349 6.6545 -2.9804 0.9478
-12.2289 4.5541 -2.9784 0.9479
-12.8371 2.3127 -2.9772 0.9479
-12.9904 1.1608 -2.9768 0.9479
-11.9502 -1.0679 -2.9491 0.9518
-11.8087 -2.1274 -2.9493 0.9518
-11.2504 -4.1897 -2.9509 0.9518
-5.0856 -3.0122 -1.4529 0.9759
-2.8137 -11.8069 -2.9834 0.9512
-1.7542 -12.0274 -2.9876 0.9512
-0.6776 -12.1533 -2.9919 0.9511
0.4073 -12.1830 -2.9963 0.9510
1.4919 -12.1134 -3.0000 0.9510
2.5657 -11.9399 -3.0018 0.9509
6.5866 -10.3178 -3.0088 0.9508
8.3202 -8.9957 -3.0119 0.9508
9.7920 -7.3845 -3.0146 0.9507
11.4066 -4.5397 -3.0176 0.9507
12.2076 -1.3656 -3.0193 0.9507
12.2576 0.8206 -3.0197 0.9507
12.1355 1.9082 -3.0196 0.9507
11.9166 2.9805 -3.0193 0.9507
9.6041 6.5928 -2.8634 0.9531
8.9785 7.4201 -2.8628 0.9532
7.5168 8.8909 -2.8617 0.9532
6.6931 9.5211 -2.8607 0.9532
5.8168 10.0750 -2.8595 0.9532
4.8949 10.5482 -2.8583 0.9532
3.9349 10.9372 -2.8570 0.9533
1.9315 11.4508 -2.8544 0.9533
-0.1292 11.6005 -2.8516 0.9533
-1.1606 11.5373 -2.8502 0.9534
-2.1818 11.3826 -2.8488 0.9534
-1.3682 4.7850 -1.2233 0.9797
-6.3135 10.3935 -2.9891 0.9511
-7.2097 9.7851 -2.9875 0.9512
-8.8218 8.3437 -2.9846 0.9512
-10.1531 6.6419 -2.9822 0.9513
-10.7003 5.7099 -2.9812 0.9513
-11.1627 4.7334 -2.9803 0.9513
-11.5368 3.7201 -2.9795 0.9513
-12.0094 1.6151 -2.9785 0.9513
-12.1044 0.5398 -2.9782 0.9513
-12.0061 -0.5354 -2.9540 0.9517
-11.8910 -1.5992 -2.9491 0.9518
-11.7032 -2.6516 -2.9496 0.9518
-11.4238 -3.6837 -2.9504 0.9518
-5.2577 -2.8056 -1.4648 0.9758
-4.9753 -3.9290 -1.5583 0.9742
-8.7489 -8.2746 -2.9600 0.9516
-7.9858 -9.0296 -2.9630 0.9516
-6.2725 -10.3259 -2.9697 0.9515
-4.3534 -11.3033 -2.9773 0.9513
-3.3346 -11.6617 -2.9813 0.9513
-2.2866 -11.9289 -2.9855 0.9512
-1.2175 -12.1023 -2.9898 0.9511
0.9503 -12.1619 -2.9985 0.9510
2.0307 -12.0386 -3.0009 0.9510
3.0960 -11.8173 -3.0027 0.9509
4.1380 -11.5017 -3.0045 0.9509
5.1483 -11.0943 -3.0063 0.9509
7.9093 -9.3551 -3.0112 0.9508
8.7147 -8.6182 -3.0126 0.9508
9.4514 -7.8118 -3.0140 0.9507
10.1133 -6.9423 -3.0152 0.9507
11.1915 -5.0426 -3.0172 0.9507
11.5990 -4.0276 -3.0180 0.9507
11.9140 -2.9799 -3.0187 0.9507
12.2569 -0.8205 -3.0195 0.9507
12.2819 0.2737 -3.0196 0.9507
11.7712 3.5082 -3.0191 0.9507
10.6184 5.3657 -2.9243 0.9522
9.8897 6.1594 -2.8638 0.9531
9.2993 7.0130 -2.8629 0.9532
7.9067 8.5487 -2.8622 0.9532
7.1120 9.2152 -2.8612 0.9532
4.4192 10.7535 -2.8577 0.9532
2.4403 11.3561 -2.8550 0.9533
-0.6457 11.5804 -2.8509 0.9533
-1.6730 11.4713 -2.8495 0.9534
-5.8459 10.6674 -2.9899 0.9511
-6.7684 10.0992 -2.9883 0.9512
-7.6365 9.4518 -2.9868 0.9512
-9.1828 7.9407 -2.9840 0.9512
-10.4370 6.1819 -2.9817 0.9513
-10.9423 5.2267 -2.9807 0.9513
-11.6898 3.2022 -2.9792 0.9513
-11.1599 -0.9973 -2.9524 0.9547
-11.0276 -1.9867 -2.9526 0.9547
-10.8091 -2.9609 -2.9531 0.9547
-10.5060 -3.9125 -2.9541 0.9547
-5.6468 -2.6972 -1.6490 0.9744
-5.1799 -3.0680 -1.5863 0.9754
-5.0255 -3.6171 -1.6316 0.9747
-6.2746 -9.3623 -2.9698 0.9544
-4.5257 -10.3505 -2.9767 0.9543
-2.6254 -11.0168 -2.9842 0.9542
-1.6366 -11.2215 -2.9882 0.9542
2.3932 -11.1370 -3.0016 0.9540
4.3348 -10.5481 -3.0050 0.9539
5.2592 -10.1258 -3.0066 0.9539
7.7591 -8.3889 -3.0110 0.9538
9.7112 -6.0481 -3.0146 0.9538
10.2141 -5.1614 -3.0155 0.9538
10.6359 -4.2330 -3.0164 0.9538
11.2224 -2.2810 -3.0176 0.9537
11.3823 -1.2733 -3.0179 0.9537
11.4513 -0.2552 -3.0182 0.9537
11.4288 0.7651 -3.0182 0.9537
11.3151 1.7792 -3.0182 0.9537
11.1109 2.7791 -3.0179 0.9537
10.4389 4.7036 -3.0170 0.9537
9.4696 5.3275 -2.8630 0.9561
8.9553 6.1475 -2.8622 0.9561
8.3700 6.9180 -2.8613 0.9561
7.7228 7.6372 -2.8620 0.9561
3.6700 10.2010 -2.8566 0.9561
2.7463 10.4826 -2.8554 0.9562
1.8016 10.6807 -2.8541 0.9562
-0.1205 10.8211 -2.8515 0.9562
-6.7271 9.1301 -2.9883 0.9542
-8.8886 7.0192 -2.9844 0.9542
-9.4746 6.1980 -2.9833 0.9542
-9.9854 5.3284 -2.9823 0.9543
-11.2965 0.5037 -2.9796 0.9543
-11.2243 -0.5005 -2.9605 0.9546
-11.1046 -1.4934 -2.9524 0.9547
-10.6680 -3.4400 -2.9536 0.9547
-5.0668 -3.3145 -1.5954 0.9753
-8.1680 -7.7252 -2.9624 0.9546
-6.6818 -9.0686 -2.9682 0.9545
-3.1116 -10.8819 -2.9823 0.9543
-2.1335 -11.1301 -2.9862 0.9542
0.8865 -11.3450 -2.9985 0.9540
1.8942 -11.2294 -3.0007 0.9540
2.8878 -11.0225 -3.0025 0.9540
4.8017 -10.3473 -3.0058 0.9539
5.7066 -9.8841 -3.0074 0.9539
6.5670 -9.3417 -3.0089 0.9539
8.1268 -8.0367 -3.0117 0.9538
8.8135 -7.2845 -3.0129 0.9538
9.4304 -6.4736 -3.0141 0.9538
10.4354 -4.7020 -3.0160 0.9538
11.3136 -1.7790 -3.0178 0.9537
11.4515 0.2552 -3.0182 0.9537
11.3833 1.2734 -3.0182 0.9537
11.2242 2.2814 -3.0181 0.9537
7.3737 7.9723 -2.8615 0.9561
6.6326 8.5941 -2.8605 0.9561
5.8392 9.1470 -2.8595 0.9561
3.2113 10.3521 -2.8560 0.9562
1.3238 10.7479 -2.8535 0.9562
0.3617 10.8182 -2.8522 0.9562
-2.5058 10.5149 -2.8483 0.9563
-5.1774 9.4476 -2.8388 0.9564
-10.9093 2.9884 -2.9805 0.9543
-11.2632 1.0065 -2.9797 0.9543
-10.4641 -0.9351 -2.9559 0.9573
-5.2571 -3.7839 -1.8224 0.9734
-6.6308 -8.2070 -2.9686 0.9571
-5.0809 -9.2715 -2.9746 0.9570
-3.3642 -10.0484 -2.9814 0.9569
-2.4595 -10.3205 -2.9851 0.9569
-1.5331 -10.5117 -2.9888 0.9568
-0.5922 -10.6200 -2.9927 0.9568
0.3559 -10.6444 -2.9966 0.9567
1.3033 -10.5820 -2.9998 0.9567
2.2412 -10.4296 -3.0014 0.9566
3.1623 -10.1941 -3.0030 0.9566
5.7518 -9.0100 -3.0075 0.9566
7.9382 -7.1796 -3.0115 0.9565
9.0918 -5.6624 -3.0136 0.9565
9.5625 -4.8321 -3.0145 0.9565
10.2725 -3.0615 -3.0159 0.9564
10.6991 0.7162 -3.0170 0.9564
10.5926 1.6656 -3.0169 0.9564
10.4016 2.6016 -3.0167 0.9564
9.7727 4.4033 -3.0158 0.9564
9.2986 5.2313 -3.0018 0.9566
7.2261 7.1461 -2.8594 0.9586
6.5637 7.7636 -2.8604 0.9586
5.8447 8.3142 -2.8594 0.9586
5.0797 8.7983 -2.8584 0.9587
4.2749 9.2121 -2.8574 0.9587
0.7899 10.1083 -2.8527 0.9587
-1.0140 10.0795 -2.8503 0.9588
-1.9063 9.9450 -2.8490 0.9588
-1.3683 4.7854 -1.4004 0.9795
-3.6348 9.4377 -2.8455 0.9588
-5.2374 8.6221 -2.8384 0.9589
-7.7116 7.2936 -2.9864 0.9569
-8.3270 6.5758 -2.9853 0.9569
-8.8762 5.8066 -2.9843 0.9569
-10.5007 1.4122 -2.9810 0.9569
-10.5838 0.4720 -2.9808 0.9569
-10.5535 -0.4706 -2.9722 0.9571
-10.4101 -1.4000 -2.9553 0.9573
-10.2454 -2.3213 -2.9557 0.9573
-9.6772 -4.1035 -2.9574 0.9573
-5.2221 -3.4161 -1.7557 0.9744
-8.2632 -6.5254 -2.9624 0.9572
-7.6555 -7.2405 -2.9647 0.9572
-6.9866 -7.8999 -2.9672 0.9571
-6.2616 -8.4983 -2.9700 0.9571
-5.4860 -9.0311 -2.9730 0.9570
-3.8062 -9.8827 -2.9797 0.9569
-1.0640 -10.5763 -2.9907 0.9568
2.7043 -10.3221 -3.0022 0.9566
3.6142 -10.0458 -3.0038 0.9566
6.9061 -8.1686 -3.0096 0.9565
7.6089 -7.5246 -3.0109 0.9565
8.8291 -6.0608 -3.0131 0.9565
10.3996 -2.6011 -3.0161 0.9564
10.6986 -0.7162 -3.0168 0.9564
10.7204 0.2389 -3.0170 0.9564
10.6565 1.1921 -3.0170 0.9564
10.2748 3.0622 -3.0165 0.9564
9.9600 3.9640 -3.0161 0.9564
8.1182 6.1222 -2.8608 0.9586
6.2103 8.0469 -2.8599 0.9586
5.4676 8.5649 -2.8589 0.9587
4.6819 9.0143 -2.8579 0.9587
3.8596 9.3916 -2.8568 0.9587
2.1315 9.9191 -2.8545 0.9587
0.3388 10.1313 -2.8521 0.9588
-2.3469 9.8481 -2.8484 0.9588
-1.5739 4.7009 -1.3948 0.9796
-6.6748 8.2615 -2.9883 0.9568
-7.3805 7.6314 -2.9870 0.9568
-8.0273 6.9415 -2.9858 0.9569
-9.1247 5.4046 -2.9838 0.9569
-9.9331 3.6991 -2.9823 0.9569
-10.2209 2.7998 -2.9817 0.9569
-10.5527 0.9430 -2.9809 0.9569
-9.8509 -0.8802 -2.9608 0.9595
-9.7239 -1.7518 -2.9580 0.9596
-9.5310 -2.6108 -2.9585 0.9596
-9.2634 -3.4497 -2.9593 0.9596
-8.0344 -5.7828 -2.9636 0.9595
-6.8917 -7.1260 -2.9679 0.9595
-6.2354 -7.7176 -2.9704 0.9594
-5.5288 -8.2495 -2.9731 0.9594
-4.7773 -8.7175 -2.9761 0.9593
-3.1628 -9.4467 -2.9825 0.9593
-1.4411 -9.8808 -2.9894 0.9592
0.3345 -10.0040 -2.9967 0.9591
1.2248 -9.9447 -2.9997 0.9590
2.1061 -9.8012 -3.0013 0.9590
3.8143 -9.2816 -3.0042 0.9590
4.6275 -8.9095 -3.0056 0.9589
6.1393 -7.9549 -3.0083 0.9589
6.8258 -7.3799 -3.0095 0.9589
8.5419 -5.3199 -3.0127 0.9589
8.9840 -4.5398 -3.0135 0.9588
9.6508 -2.8762 -3.0148 0.9588
10.0105 -1.1199 -3.0156 0.9588
10.0711 -0.2244 -3.0158 0.9588
9.9513 1.5648 -3.0158 0.9588
9.5144 3.3038 -3.0153 0.9588
9.1812 4.1368 -3.0148 0.9588
7.8768 5.4071 -2.8603 0.9609
7.3622 6.0850 -2.8595 0.9609
6.1670 7.2943 -2.8596 0.9609
5.4919 7.8123 -2.8589 0.9609
4.0170 8.6563 -2.8570 0.9609
3.2294 8.9762 -2.8559 0.9610
2.4167 9.2245 -2.8548 0.9610
0.7423 9.4994 -2.8526 0.9610
-0.9530 9.4728 -2.8503 0.9610
-1.7916 9.3466 -2.8491 0.9610
-3.4169 8.8719 -2.8463 0.9611
-5.9233 8.0392 -2.9895 0.9592
-7.2491 6.8562 -2.9872 0.9592
-7.8278 6.1816 -2.9861 0.9592
-8.3442 5.4586 -2.9851 0.9592
-8.7944 4.6929 -2.9843 0.9592
-9.1750 3.8906 -2.9836 0.9592
-9.4829 3.0579 -2.9829 0.9593
-9.7158 2.2013 -2.9825 0.9593
-9.7919 -1.3168 -2.9579 0.9596
-9.4064 -3.0332 -2.9589 0.9596
-5.5632 -3.6393 -1.9902 0.9726
-7.7714 -6.1370 -2.9646 0.9595
-7.1995 -6.8092 -2.9667 0.9595
-6.5701 -7.4290 -2.9691 0.9594
-5.8880 -7.9913 -2.9717 0.9594
-5.1583 -8.4918 -2.9746 0.9594
-3.5785 -9.2913 -2.9808 0.9593
-1.0001 -9.9411 -2.9912 0.9591
-0.1114 -10.0029 -2.9949 0.9591
0.7803 -9.9853 -2.9985 0.9590
1.6670 -9.8828 -3.0005 0.9590
2.5413 -9.7000 -3.0020 0.9590
3.3963 -9.4400 -3.0035 0.9590
5.7776 -8.2187 -3.0077 0.9589
6.4889 -7.6751 -3.0089 0.9589
7.1491 -7.0699 -3.0101 0.9589
8.2952 -5.6943 -3.0122 0.9589
8.7716 -4.9348 -3.0131 0.9588
9.1784 -4.1356 -3.0139 0.9588
9.7701 -2.4437 -3.0151 0.9588
10.0508 -0.6728 -3.0157 0.9588
10.0113 1.1199 -3.0159 0.9588
9.8714 2.0065 -3.0157 0.9588
9.6528 2.8768 -3.0154 0.9588
9.3571 3.7241 -3.0150 0.9588
8.9869 4.5413 -3.0145 0.9588
7.6271 5.7518 -2.8599 0.9609
7.0827 6.4060 -2.8591 0.9609
6.4823 7.0086 -2.8581 0.9609
5.1375 8.0478 -2.8584 0.9609
4.3994 8.4703 -2.8575 0.9609
2.8258 9.1095 -2.8554 0.9610
2.0030 9.3212 -2.8543 0.9610
0.3183 9.5211 -2.8520 0.9610
-0.5301 9.5078 -2.8509 0.9610
-1.3737 9.4191 -2.8497 0.9610
-1.5739 4.7009 -1.4841 0.9795
-3.8064 8.7055 -2.8445 0.9611
-4.5606 8.3221 -2.8411 0.9612
-5.5605 8.2969 -2.9902 0.9592
-6.2742 7.7658 -2.9889 0.9592
-8.0940 5.8258 -2.9856 0.9592
-8.5778 5.0807 -2.9847 0.9592
-9.8036 1.7662 -2.9823 0.9593
-9.2983 -0.8309 -2.9648 0.9616
-8.9916 -2.4630 -2.9608 0.9616
-8.7390 -3.2544 -2.9616 0.9616
-7.0679 -6.1118 -2.9675 0.9615
-6.5005 -6.7215 -2.9696 0.9615
-5.8811 -7.2792 -2.9720 0.9615
-3.7595 -8.5982 -2.9803 0.9614
-2.9824 -8.9080 -2.9834 0.9613
-2.1801 -9.1479 -2.9866 0.9613
-1.3587 -9.3161 -2.9899 0.9613
-0.5247 -9.4107 -2.9934 0.9612
1.1546 -9.3745 -2.9997 0.9611
2.8011 -9.0297 -3.0025 0.9611
3.5953 -8.7486 -3.0039 0.9611
4.3616 -8.3977 -3.0052 0.9611
5.0940 -7.9795 -3.0065 0.9610
6.4332 -6.9554 -3.0089 0.9610
8.8158 -3.5086 -3.0133 0.9610
9.0948 -2.7105 -3.0139 0.9610
9.3013 -1.8905 -3.0143 0.9609
9.4336 -1.0553 -3.0147 0.9609
9.3778 1.4746 -3.0148 0.9609
8.9662 3.1134 -3.0143 0.9609
8.6522 3.8985 -3.0139 0.9610
7.4232 5.0958 -2.8595 0.9629
6.3985 6.3276 -2.8579 0.9629
5.8080 6.8697 -2.8569 0.9629
3.0440 8.4608 -2.8556 0.9630
1.4945 8.8601 -2.8536 0.9630
0.6997 8.9545 -2.8525 0.9630
-0.8983 8.9299 -2.8503 0.9630
-1.6889 8.8112 -2.8492 0.9630
-1.3685 4.7861 -1.5809 0.9793
-4.6430 7.6435 -2.8402 0.9632
-5.5848 7.5798 -2.9901 0.9613
-6.2348 7.0499 -2.9889 0.9613
-6.8351 6.4646 -2.9878 0.9613
-7.3809 5.8286 -2.9868 0.9613
-7.8680 5.1470 -2.9859 0.9613
-8.6516 3.6686 -2.9844 0.9613
-8.9420 2.8835 -2.9838 0.9613
-9.0916 -2.0599 -2.9605 0.9616
-8.8740 -2.8615 -2.9611 0.9616
-8.5867 -3.6411 -2.9621 0.9616
-8.2320 -4.3927 -2.9633 0.9616
-7.3307 -5.7890 -2.9665 0.9616
-5.5534 -7.5371 -2.9733 0.9615
-4.8649 -8.0087 -2.9759 0.9614
-4.1367 -8.4180 -2.9788 0.9614
-3.3745 -8.7617 -2.9818 0.9614
-2.5840 -9.0369 -2.9850 0.9613
-0.1050 -9.4302 -2.9951 0.9612
0.7356 -9.4130 -2.9985 0.9611
3.9824 -8.5817 -3.0046 0.9611
5.4455 -7.7463 -3.0072 0.9610
6.1158 -7.2337 -3.0084 0.9610
7.3067 -6.0391 -3.0105 0.9610
7.8177 -5.3665 -3.0114 0.9610
8.6498 -3.8974 -3.0130 0.9610
9.2072 -2.3029 -3.0141 0.9610
9.4716 -0.6340 -3.0148 0.9609
9.4344 1.0554 -3.0149 0.9609
9.0965 2.7111 -3.0145 0.9609
8.4692 4.2797 -3.0136 0.9610
7.1879 5.4207 -2.8591 0.9629
6.1093 6.6053 -2.8574 0.9629
4.1467 7.9837 -2.8571 0.9629
-0.4997 8.9628 -2.8509 0.9630
-1.2950 8.8793 -2.8498 0.9630
-2.0794 8.7255 -2.8487 0.9631
-3.5891 8.2085 -2.8452 0.9631
-4.3004 7.8473 -2.8419 0.9631
-6.5415 6.7639 -2.9883 0.9613
-7.1150 6.1527 -2.9873 0.9613
-7.6320 5.4932 -2.9864 0.9613
-8.4805 4.0508 -2.9848 0.9613
-8.8055 3.2792 -2.9841 0.9613
-8.8804 0.0000 -2.9836 0.9632
-8.8107 -0.7873 -2.9721 0.9634
-8.6774 -1.5633 -2.9624 0.9635
-8.5051 -2.3298 -2.9628 0.9635
-8.2660 -3.0783 -2.9636 0.9635
-7.9620 -3.8031 -2.9646 0.9635
-6.6846 -5.7804 -2.9692 0.9634
-6.1478 -6.3568 -2.9712 0.9634
-5.5618 -6.8839 -2.9734 0.9633
-4.9311 -7.3577 -2.9759 0.9633
-0.4961 -8.8963 -2.9936 0.9631
0.2980 -8.9149 -2.9969 0.9631
1.0913 -8.8610 -2.9996 0.9630
3.3981 -8.2688 -3.0036 0.9630
4.1223 -7.9369 -3.0049 0.9630
4.8143 -7.5415 -3.0061 0.9629
6.0798 -6.5734 -3.0084 0.9629
6.6430 -6.0082 -3.0094 0.9629
7.1536 -5.3948 -3.0103 0.9629
8.5944 -2.5614 -3.0131 0.9629
8.7895 -1.7865 -3.0135 0.9629
8.9507 0.5992 -3.0140 0.9629
8.8617 1.3935 -3.0139 0.9629
8.4728 2.9421 -3.0135 0.9629
8.1762 3.6840 -3.0130 0.9629
6.5569 5.4194 -2.8581 0.9647
6.0468 5.9798 -2.8573 0.9648
4.8876 6.9526 -2.8554 0.9648
1.4126 8.3745 -2.8534 0.9648
-1.5965 8.3290 -2.8493 0.9648
-4.3897 7.2265 -2.8408 0.9649
-5.8945 6.6650 -2.9894 0.9632
-6.9782 5.5107 -2.9875 0.9632
-7.4389 4.8663 -2.9866 0.9632
-7.8405 4.1838 -2.9859 0.9632
-8.1800 3.4686 -2.9852 0.9632
-8.4547 2.7263 -2.9847 0.9632
-8.8714 -0.3956 -2.9836 0.9632
-8.3938 -2.7067 -2.9632 0.9635
-8.1220 -3.4440 -2.9641 0.9635
-7.7862 -4.1548 -2.9652 0.9634
-6.9333 -5.4752 -2.9683 0.9634
-5.8607 -6.6268 -2.9723 0.9634
-3.9116 -7.9600 -2.9799 0.9633
-3.1907 -8.2845 -2.9827 0.9632
0.6953 -8.8976 -2.9986 0.9630
4.4727 -7.7469 -3.0055 0.9630
5.7799 -6.8365 -3.0078 0.9629
6.3677 -6.2971 -3.0089 0.9629
6.9051 -5.7072 -3.0099 0.9629
7.3879 -5.0715 -3.0107 0.9629
8.1740 -3.6830 -3.0122 0.9629
8.9685 0.1999 -3.0140 0.9629
8.9151 0.9973 -3.0140 0.9629
8.5960 2.5619 -3.0136 0.9629
5.7735 6.2423 -2.8568 0.9648
4.5764 7.1689 -2.8576 0.9647
3.9192 7.5458 -2.8568 0.9648
1.7846 8.3047 -2.8539 0.9648
1.0380 8.4276 -2.8529 0.9648
-1.5738 4.7008 -1.6656 0.9793
-3.3930 7.7601 -2.8456 0.9649
-4.0657 7.4190 -2.8424 0.9649
-5.5927 6.9222 -2.9900 0.9631
-6.7268 5.8170 -2.9879 0.9632
-7.2157 5.1936 -2.9870 0.9632
-7.6473 4.5295 -2.9862 0.9632
-8.3256 3.1005 -2.9849 0.9632
-8.5671 2.3468 -2.9844 0.9632
-8.7408 1.5747 -2.9840 0.9632
-8.3755 -0.7484 -2.9817 0.9649
-8.2274 -1.4822 -2.9643 0.9651
-7.5487 -3.6057 -2.9664 0.9651
-7.2008 -4.2650 -2.9676 0.9651
-6.3372 -5.4800 -2.9707 0.9651
-5.8281 -6.0262 -2.9726 0.9650
-4.6742 -6.9744 -2.9771 0.9650
-3.3693 -7.7059 -2.9822 0.9649
-2.6726 -7.9827 -2.9850 0.9649
-1.9534 -8.1968 -2.9879 0.9649
-0.4701 -8.4303 -2.9939 0.9648
0.2824 -8.4474 -2.9970 0.9648
2.5085 -8.0864 -3.0021 0.9647
3.9056 -7.5196 -3.0046 0.9647
4.5612 -7.1449 -3.0057 0.9647
7.2068 -4.4884 -3.0105 0.9646
8.3261 -1.6923 -3.0127 0.9646
8.4789 0.5676 -3.0132 0.9646
8.3945 1.3200 -3.0131 0.9646
8.2432 2.0618 -3.0130 0.9646
8.0262 2.7870 -3.0127 0.9646
7.0012 4.8060 -3.0112 0.9646
6.2115 5.1339 -2.8574 0.9664
4.0283 6.9772 -2.8567 0.9664
3.3904 7.3062 -2.8560 0.9664
2.0400 7.7867 -2.8543 0.9664
0.6267 8.0197 -2.8523 0.9664
-0.0896 8.0409 -2.8514 0.9664
-0.8046 7.9983 -2.8504 0.9665
-1.5128 7.8923 -2.8494 0.9665
-2.8859 7.4932 -2.8472 0.9665
-4.1600 6.8483 -2.8412 0.9666
-5.0035 6.7908 -2.9910 0.9648
-6.1242 5.7922 -2.9889 0.9649
-6.6134 5.2226 -2.9881 0.9649
-7.4308 3.9652 -2.9865 0.9649
-8.2101 1.8602 -2.9850 0.9649
-8.3422 1.1219 -2.9847 0.9649
-8.2898 -1.1149 -2.9659 0.9651
-7.7005 -3.2653 -2.9658 0.9651
-7.3821 -3.9392 -2.9669 0.9651
-7.0053 -4.5826 -2.9683 0.9651
-5.5557 -6.2820 -2.9737 0.9650
-4.3607 -7.1787 -2.9783 0.9650
-3.7076 -7.5448 -2.9809 0.9650
-0.8447 -8.3967 -2.9924 0.9648
-0.0941 -8.4472 -2.9955 0.9648
1.4073 -8.3433 -3.0002 0.9647
3.5661 -7.6846 -3.0040 0.9647
4.2375 -7.3396 -3.0051 0.9647
6.5415 -5.4067 -3.0093 0.9646
6.9988 -4.8044 -3.0101 0.9646
7.4005 -4.1634 -3.0109 0.9646
7.7433 -3.4889 -3.0115 0.9646
8.0246 -2.7864 -3.0121 0.9646
8.3937 -1.3198 -3.0129 0.9646
8.4957 0.1893 -3.0132 0.9646
8.3272 1.6926 -3.0131 0.9646
8.1428 2.4268 -3.0128 0.9646
7.8936 3.1416 -3.0125 0.9646
7.5815 3.8311 -3.0120 0.9646
6.6117 4.9861 -2.9363 0.9655
5.4695 5.9136 -2.8563 0.9664
1.6909 7.8686 -2.8538 0.9664
0.9835 7.9852 -2.8528 0.9664
0.2688 8.0383 -2.8518 0.9664
-0.4476 8.0276 -2.8509 0.9665
-1.1599 7.9532 -2.8499 0.9665
-3.8528 7.0305 -2.8427 0.9665
-5.3001 6.5600 -2.9904 0.9648
-5.8610 6.0602 -2.9894 0.9649
-6.3751 5.5128 -2.9885 0.9649
-6.8385 4.9221 -2.9876 0.9649
-7.2476 4.2928 -2.9869 0.9649
-7.8907 2.9385 -2.9856 0.9649
-8.1196 2.2242 -2.9852 0.9649
-8.2844 1.4925 -2.9848 0.9649
-8.3836 0.7492 -2.9846 0.9649
-7.9942 0.0000 -2.9851 0.9664
-7.8171 -1.4083 -2.9660 0.9667
-7.6618 -2.0988 -2.9664 0.9666
-7.4462 -2.7730 -2.9671 0.9666
-7.1721 -3.4258 -2.9680 0.9666
-6.4565 -4.6471 -2.9705 0.9666
-3.8359 -6.9997 -2.9805 0.9665
-3.2004 -7.3195 -2.9830 0.9665
-2.5385 -7.5820 -2.9857 0.9664
-1.8553 -7.7850 -2.9884 0.9664
-1.1561 -7.9267 -2.9913 0.9664
-0.4464 -8.0059 -2.9941 0.9663
0.9819 -7.9726 -2.9995 0.9663
1.6883 -7.8567 -3.0008 0.9663
2.3818 -7.6783 -3.0020 0.9663
3.7084 -7.1399 -3.0043 0.9662
4.3307 -6.7839 -3.0054 0.9662
4.9190 -6.3737 -3.0064 0.9662
5.9750 -5.4040 -3.0083 0.9662
7.1958 -3.6362 -3.0106 0.9662
7.7292 -2.3035 -3.0116 0.9661
8.0653 -0.1797 -3.0124 0.9661
7.3531 3.3132 -3.0116 0.9662
7.0279 3.9539 -3.0111 0.9662
5.9682 4.9329 -2.8913 0.9675
5.4386 5.3783 -2.8562 0.9679
4.3963 6.2537 -2.8545 0.9679
2.5882 7.1942 -2.8549 0.9679
1.9372 7.3940 -2.8542 0.9679
1.2709 7.5346 -2.8532 0.9679
-0.0850 7.6356 -2.8514 0.9679
-1.3688 4.7871 -1.8592 0.9790
-2.7403 7.1150 -2.8471 0.9680
-3.3594 6.8362 -2.8443 0.9680
-3.9506 6.5036 -2.8414 0.9680
-4.7519 6.4493 -2.9914 0.9664
-6.2811 4.9602 -2.9886 0.9664
-7.3634 3.1224 -2.9866 0.9664
-7.7980 1.7668 -2.9857 0.9664
-7.9236 1.0656 -2.9854 0.9664
-7.9865 0.3562 -2.9852 0.9664
-7.8808 -1.0599 -2.9693 0.9666
-6.6555 -4.3538 -2.9698 0.9666
-4.7291 -6.4184 -2.9770 0.9665
-4.1423 -6.8191 -2.9793 0.9665
-3.5217 -7.1666 -2.9818 0.9665
-2.8724 -7.4580 -2.9843 0.9665
-0.8022 -7.9742 -2.9927 0.9664
0.6256 -8.0058 -2.9986 0.9663
2.7221 -7.5661 -3.0025 0.9663
3.3860 -7.2966 -3.0037 0.9662
4.0235 -6.9688 -3.0048 0.9662
6.6446 -4.5613 -3.0095 0.9662
7.3514 -3.3123 -3.0109 0.9662
7.6184 -2.6453 -3.0114 0.9662
8.0491 -0.5388 -3.0124 0.9661
7.4939 2.9825 -3.0118 0.9661
7.1977 3.6371 -3.0114 0.9662
6.8442 4.2626 -3.0108 0.9662
6.4363 4.8538 -3.0102 0.9662
5.6735 5.1314 -2.8565 0.9679
5.1929 5.6145 -2.8558 0.9679
2.2650 7.3016 -2.8546 0.9679
1.6056 7.4717 -2.8537 0.9679
-0.4250 7.6230 -2.8509 0.9679
-1.1015 7.5525 -2.8500 0.9679
-1.7688 7.4222 -2.8492 0.9679
-3.0530 6.9825 -2.8457 0.9680
-3.6588 6.6765 -2.8429 0.9680
-6.0548 5.2358 -2.9890 0.9664
-6.4950 4.6748 -2.9882 0.9664
-6.8836 4.0772 -2.9875 0.9664
-7.2177 3.4476 -2.9868 0.9664
-7.4945 2.7910 -2.9863 0.9664
-7.8686 1.4176 -2.9855 0.9664
-7.9629 0.7116 -2.9853 0.9664
-7.5774 -0.6771 -2.9858 0.9678
-7.4414 -1.3406 -2.9676 0.9680
-6.1458 -4.4235 -2.9719 0.9680
-5.7306 -4.9554 -2.9734 0.9680
-5.2699 -5.4490 -2.9751 0.9680
-4.2259 -6.3056 -2.9791 0.9679
-3.0457 -6.9658 -2.9838 0.9679
-2.4157 -7.2153 -2.9863 0.9678
-1.7654 -7.4081 -2.9889 0.9678
-0.4247 -7.6177 -2.9944 0.9677
0.9342 -7.5853 -2.9995 0.9677
1.6063 -7.4749 -3.0007 0.9677
2.9083 -7.0770 -3.0029 0.9677
4.6796 -6.0635 -3.0060 0.9676
5.2023 -5.6247 -3.0070 0.9676
5.6839 -5.1408 -3.0078 0.9676
6.1205 -4.6157 -3.0086 0.9676
6.5087 -4.0536 -3.0094 0.9676
7.1271 -2.8365 -3.0105 0.9676
7.3523 -2.1912 -3.0110 0.9676
7.5191 -1.5283 -3.0113 0.9676
7.6259 -0.8531 -3.0116 0.9676
7.6568 0.5126 -3.0118 0.9676
7.4441 1.8619 -3.0116 0.9676
6.6853 3.7611 -3.0105 0.9676
5.1736 5.1163 -2.8557 0.9692
4.6964 5.5550 -2.8549 0.9692
4.1822 5.9492 -2.8541 0.9692
-0.7270 7.2268 -2.8506 0.9693
-1.3689 4.7875 -1.9543 0.9788
-3.1962 6.5040 -2.8442 0.9693
-3.7589 6.1880 -2.8416 0.9694
-4.5217 6.1369 -2.9917 0.9678
-5.0483 5.7083 -2.9908 0.9678
-5.9770 4.7201 -2.9891 0.9678
-6.3719 4.1683 -2.9884 0.9678
-7.2427 2.3355 -2.9867 0.9678
-7.4209 1.6814 -2.9863 0.9678
-7.5404 1.0141 -2.9860 0.9678
-7.6003 0.3389 -2.9859 0.9678
-7.3747 -1.6709 -2.9677 0.9680
-7.1980 -2.3210 -2.9682 0.9680
-6.9646 -2.9532 -2.9690 0.9680
-6.6763 -3.5626 -2.9700 0.9680
-6.3353 -4.1443 -2.9712 0.9680
-4.5010 -6.1089 -2.9781 0.9679
-3.9423 -6.4900 -2.9803 0.9679
-2.7335 -7.0975 -2.9850 0.9678
-1.4344 -7.4828 -2.9903 0.9678
0.5952 -7.6170 -2.9986 0.9677
3.2213 -6.9417 -3.0035 0.9677
3.8277 -6.6298 -3.0045 0.9676
5.4485 -5.3881 -3.0074 0.9676
5.9081 -4.8831 -3.0082 0.9676
7.5800 -1.1919 -3.0115 0.9676
7.6264 0.8531 -3.0118 0.9676
7.3535 2.1916 -3.0115 0.9676
7.1285 2.8371 -3.0112 0.9676
6.8468 3.4598 -3.0107 0.9676
4.9399 5.3410 -2.8553 0.9692
4.4437 5.7579 -2.8545 0.9692
3.3503 6.4505 -2.8527 0.9692
2.7620 6.7208 -2.8518 0.9693
1.5276 7.1085 -2.8536 0.9692
0.8885 7.2143 -2.8528 0.9692
-1.6830 7.0622 -2.8493 0.9693
-2.9046 6.6430 -2.8455 0.9693
-4.0289 6.0116 -2.8402 0.9694
-5.2968 5.4769 -2.9903 0.9678
-6.1806 4.4486 -2.9887 0.9678
-6.8684 3.2808 -2.9874 0.9678
-7.1320 2.6560 -2.9869 0.9678
-7.3390 2.0104 -2.9865 0.9678
-7.2236 -0.6455 -2.9864 0.9691
-5.8600 -4.2178 -2.9731 0.9692
-5.4641 -4.7250 -2.9746 0.9692
-4.5450 -5.6255 -2.9781 0.9692
-2.9036 -6.6407 -2.9845 0.9691
-1.6829 -7.0618 -2.9894 0.9691
0.8904 -7.2295 -2.9995 0.9690
1.5309 -7.1242 -3.0006 0.9690
2.7718 -6.7447 -3.0027 0.9689
3.9264 -6.1505 -3.0047 0.9689
5.4166 -4.8990 -3.0074 0.9689
5.8326 -4.3986 -3.0082 0.9689
6.2024 -3.8629 -3.0089 0.9689
6.7916 -2.7030 -3.0100 0.9689
7.0062 -2.0880 -3.0104 0.9689
7.2963 0.4885 -3.0112 0.9689
7.2237 1.1359 -3.0111 0.9689
6.9069 2.3984 -3.0107 0.9689
6.6653 3.0033 -3.0104 0.9689
6.0253 4.1361 -3.0094 0.9689
5.6321 4.6550 -3.0088 0.9689
4.9302 4.8756 -2.8552 0.9705
4.4756 5.2937 -2.8545 0.9705
3.9855 5.6695 -2.8537 0.9705
3.4641 5.9999 -2.8529 0.9705
2.3439 6.5149 -2.8510 0.9705
1.7541 6.6953 -2.8500 0.9705
1.1526 6.8322 -2.8531 0.9705
0.5397 6.9058 -2.8524 0.9705
-0.6930 6.8881 -2.8507 0.9705
-2.4845 6.4508 -2.8465 0.9705
-3.0461 6.1987 -2.8441 0.9706
-4.3101 5.8497 -2.9920 0.9691
-4.8122 5.4412 -2.9911 0.9691
-5.2760 4.9900 -2.9903 0.9691
-5.6977 4.4994 -2.9895 0.9691
-6.4023 3.4164 -2.9882 0.9691
-6.6798 2.8325 -2.9877 0.9691
-6.9044 2.2264 -2.9872 0.9691
-7.0743 1.6028 -2.9869 0.9691
-7.2451 -0.3230 -2.9864 0.9691
-7.1777 -0.9653 -2.9823 0.9692
-7.0323 -1.5933 -2.9692 0.9693
-6.8637 -2.2132 -2.9697 0.9693
-2.6059 -6.7661 -2.9857 0.9691
-1.9950 -6.9769 -2.9881 0.9691
-0.7276 -7.2325 -2.9933 0.9690
-0.0811 -7.2750 -2.9959 0.9690
0.5673 -7.2598 -2.9986 0.9690
1.2118 -7.1840 -3.0000 0.9690
2.4681 -6.8602 -3.0022 0.9690
3.0700 -6.6156 -3.0032 0.9689
4.7133 -5.5749 -3.0061 0.9689
6.0235 -4.1349 -3.0085 0.9689
6.3690 -3.5831 -3.0092 0.9689
6.6638 -3.0026 -3.0097 0.9689
7.2231 -1.1358 -3.0109 0.9689
7.2960 -0.4884 -3.0111 0.9689
7.3108 0.1629 -3.0112 0.9689
7.2672 0.8130 -3.0112 0.9689
7.1658 1.4565 -3.0111 0.9689
6.7929 2.7035 -3.0106 0.9689
6.2041 3.8640 -3.0097 0.9689
5.3721 4.8588 -2.9827 0.9692
4.7075 5.0897 -2.8549 0.9705
4.2347 5.4871 -2.8541 0.9705
3.7285 5.8406 -2.8533 0.9705
3.1929 6.1473 -2.8524 0.9705
2.0510 6.6117 -2.8505 0.9705
0.2315 6.9220 -2.8519 0.9705
-0.3855 6.9131 -2.8511 0.9705
-1.6042 6.7317 -2.8496 0.9705
-2.7682 6.3310 -2.8453 0.9706
-5.4922 4.7494 -2.9899 0.9691
-6.2444 3.6986 -2.9885 0.9691
-6.5475 3.1275 -2.9879 0.9691
-6.7988 2.5319 -2.9875 0.9691
-6.9962 1.9165 -2.9870 0.9691
-7.1383 1.2860 -2.9867 0.9691
-7.2239 0.6455 -2.9865 0.9691
-6.9246 0.0000 -2.9870 0.9703
-6.6421 -1.8195 -2.9707 0.9704
-5.5963 -4.0279 -2.9743 0.9704
-4.3401 -5.3719 -2.9790 0.9704
-3.8472 -5.7405 -2.9809 0.9703
-3.3233 -6.0643 -2.9829 0.9703
-2.1987 -6.5673 -2.9874 0.9703
-1.6068 -6.7423 -2.9898 0.9703
-0.3865 -6.9318 -2.9948 0.9702
0.2322 -6.9446 -2.9973 0.9702
1.4614 -6.8007 -3.0005 0.9702
2.6458 -6.4382 -3.0025 0.9701
3.7478 -5.8708 -3.0045 0.9701
4.2568 -5.5156 -3.0054 0.9701
6.2259 -3.1460 -3.0090 0.9701
6.6871 -1.9929 -3.0099 0.9701
6.8386 -1.3900 -3.0102 0.9701
6.9776 -0.1555 -3.0106 0.9701
6.8946 1.0841 -3.0106 0.9701
6.7704 1.6934 -3.0104 0.9701
6.5923 2.2891 -3.0102 0.9701
6.3617 2.8664 -3.0099 0.9701
5.3757 4.4431 -3.0083 0.9701
4.8699 4.8160 -2.9544 0.9706
4.2719 5.0528 -2.8541 0.9716
3.3065 5.7270 -2.8526 0.9716
-0.6615 6.5761 -2.8510 0.9716
-1.3692 4.7882 -2.1482 0.9785
-2.3715 6.1574 -2.8462 0.9717
-2.9077 5.9171 -2.8439 0.9717
-3.4200 5.6302 -2.8416 0.9717
-5.0371 4.7641 -2.9907 0.9702
-5.4398 4.2958 -2.9900 0.9703
-6.5921 2.1257 -2.9878 0.9703
-6.7544 1.5304 -2.9874 0.9703
-6.8632 0.9230 -2.9872 0.9703
-6.8628 -0.9229 -2.9870 0.9703
-6.5551 -2.1137 -2.9710 0.9704
-4.5738 -5.1716 -2.9781 0.9704
-3.5889 -5.9082 -2.9819 0.9703
-3.0510 -6.2086 -2.9840 0.9703
-2.4881 -6.4603 -2.9863 0.9703
-0.6946 -6.9049 -2.9935 0.9702
-0.0774 -6.9451 -2.9960 0.9702
0.5416 -6.9304 -2.9986 0.9702
3.4821 -6.0310 -3.0040 0.9701
4.9560 -4.9011 -3.0066 0.9701
5.3739 -4.4417 -3.0074 0.9701
6.0790 -3.4199 -3.0087 0.9701
6.7696 -1.6932 -3.0101 0.9701
6.8940 -1.0840 -3.0103 0.9701
6.9636 -0.4662 -3.0105 0.9701
6.9777 0.1555 -3.0106 0.9701
6.9361 0.7759 -3.0106 0.9701
6.8393 1.3902 -3.0105 0.9701
6.6880 1.9933 -3.0103 0.9701
6.4834 2.5804 -3.0100 0.9701
5.1718 4.6777 -3.0080 0.9701
4.4933 4.8581 -2.8545 0.9716
4.0421 5.2374 -2.8538 0.9716
3.5589 5.5749 -2.8530 0.9716
3.0477 5.8678 -2.8521 0.9716
1.9578 6.3112 -2.8503 0.9716
1.3878 6.4582 -2.8494 0.9716
-1.5312 6.4255 -2.8493 0.9716
-2.6424 6.0433 -2.8451 0.9717
-3.1671 5.7793 -2.8428 0.9717
-4.8205 4.9844 -2.9911 0.9702
-5.2436 4.5344 -2.9903 0.9703
-5.9619 3.5313 -2.9890 0.9703
-6.2514 2.9861 -2.9884 0.9703
-6.4913 2.4174 -2.9880 0.9703
-6.8156 1.2279 -2.9873 0.9703
-6.5946 -0.5893 -2.9875 0.9714
-6.3524 -1.7401 -2.9719 0.9715
-6.1735 -2.2990 -2.9725 0.9715
-5.6713 -3.3591 -2.9742 0.9715
-4.9900 -4.3150 -2.9767 0.9715
-4.5885 -4.7445 -2.9782 0.9715
-4.1503 -5.1369 -2.9799 0.9714
-3.6789 -5.4893 -2.9817 0.9714
-2.6509 -6.0628 -2.9857 0.9714
-2.1023 -6.2793 -2.9879 0.9714
-0.3695 -6.6272 -2.9949 0.9713
0.8126 -6.5975 -2.9994 0.9713
1.3970 -6.5012 -3.0004 0.9712
2.5292 -6.1545 -3.0024 0.9712
3.0679 -5.9068 -3.0033 0.9712
4.0690 -5.2724 -3.0051 0.9712
4.9420 -4.4697 -3.0067 0.9712
5.6586 -3.5242 -3.0080 0.9712
5.9510 -3.0071 -3.0085 0.9712
6.1960 -2.4659 -3.0090 0.9712
6.3917 -1.9049 -3.0094 0.9712
6.5365 -1.3286 -3.0097 0.9712
6.5900 1.0362 -3.0100 0.9711
6.3011 2.1880 -3.0097 0.9712
6.0807 2.7399 -3.0094 0.9712
5.8119 3.2697 -3.0090 0.9712
5.1383 4.2470 -3.0079 0.9712
4.7390 4.6864 -3.0073 0.9712
3.1607 5.4745 -2.8523 0.9726
2.6601 5.7324 -2.8515 0.9726
1.6006 6.1094 -2.8497 0.9727
1.0502 6.2257 -2.8488 0.9727
0.4917 6.2923 -2.8478 0.9727
-0.0703 6.3090 -2.8469 0.9727
-0.6324 6.2862 -2.8507 0.9727
-1.1889 6.2022 -2.8495 0.9727
-1.3692 4.7886 -2.2473 0.9784
-2.7796 5.6564 -2.8438 0.9727
-3.9342 5.3395 -2.9926 0.9713
-4.3926 4.9668 -2.9918 0.9713
-4.8160 4.5550 -2.9910 0.9713
-5.8445 3.1188 -2.9891 0.9713
-6.3030 2.0325 -2.9882 0.9714
-6.5623 0.8826 -2.9877 0.9714
-6.2691 -2.0215 -2.9722 0.9715
-5.8143 -3.1026 -2.9737 0.9715
-5.5171 -3.6091 -2.9747 0.9715
-5.1761 -4.0875 -2.9760 0.9715
-3.9185 -5.3183 -2.9807 0.9714
-3.4318 -5.6495 -2.9826 0.9714
-2.9173 -5.9366 -2.9847 0.9714
-2.3791 -6.1771 -2.9868 0.9714
-0.6641 -6.6014 -2.9937 0.9713
1.6855 -6.4335 -3.0009 0.9712
2.2522 -6.2600 -3.0019 0.9712
4.3005 -5.0866 -3.0055 0.9712
4.7374 -4.6848 -3.0063 0.9712
5.1368 -4.2456 -3.0070 0.9712
5.4955 -3.7724 -3.0077 0.9712
5.8106 -3.2689 -3.0083 0.9712
6.0795 -2.7393 -3.0088 0.9712
6.3001 -2.1876 -3.0092 0.9712
6.5895 -1.0361 -3.0098 0.9712
6.6694 0.1486 -3.0101 0.9711
6.6297 0.7417 -3.0101 0.9711
6.3926 1.9052 -3.0098 0.9712
4.9435 4.4712 -3.0076 0.9712
3.4019 5.3290 -2.8527 0.9726
2.9133 5.6090 -2.8519 0.9726
1.3267 6.1737 -2.8493 0.9727
-1.4635 6.1414 -2.8487 0.9727
-2.5258 5.7768 -2.8448 0.9727
-3.5513 5.2990 -2.8783 0.9724
-4.1675 5.1582 -2.9922 0.9713
-4.6088 4.7656 -2.9914 0.9713
-5.3783 3.8711 -2.9900 0.9713
-5.7003 3.3764 -2.9894 0.9713
-5.9772 2.8551 -2.9889 0.9713
-6.3869 1.7496 -2.9881 0.9714
-6.3136 -0.5642 -2.9879 0.9724
-6.2291 -1.1222 -2.9835 0.9724
-5.9116 -2.2015 -2.9736 0.9725
-5.6936 -2.7196 -2.9743 0.9725
-5.4306 -3.2166 -2.9752 0.9725
-4.7781 -4.1318 -2.9776 0.9725
-4.3935 -4.5429 -2.9791 0.9724
-3.9739 -4.9185 -2.9807 0.9724
-3.5224 -5.2558 -2.9824 0.9724
-3.0425 -5.5520 -2.9843 0.9724
-2.5380 -5.8046 -2.9863 0.9724
-2.0127 -6.0117 -2.9884 0.9724
-1.4707 -6.1714 -2.9905 0.9723
-0.9163 -6.2826 -2.9928 0.9723
0.2125 -6.3553 -2.9974 0.9723
0.7778 -6.3153 -2.9994 0.9723
1.3373 -6.2230 -3.0003 0.9722
2.9365 -5.6538 -3.0031 0.9722
3.4291 -5.3716 -3.0040 0.9722
4.7301 -4.2781 -3.0063 0.9722
5.6956 -2.8781 -3.0081 0.9722
6.2560 -1.2716 -3.0092 0.9722
6.3448 -0.7098 -3.0094 0.9722
6.3705 0.4265 -3.0096 0.9722
6.1936 1.5491 -3.0094 0.9722
6.0307 2.0941 -3.0092 0.9722
5.8198 2.6223 -3.0089 0.9722
5.5626 3.1294 -3.0085 0.9722
5.2611 3.6116 -3.0081 0.9722
4.9179 4.0648 -3.0075 0.9722
4.5357 4.4855 -3.0069 0.9722
3.4805 4.9511 -2.8528 0.9736
2.0471 5.6900 -2.8504 0.9736
1.5321 5.8479 -2.8496 0.9736
1.0052 5.9592 -2.8487 0.9736
0.4707 6.0231 -2.8478 0.9736
-0.0673 6.0391 -2.8469 0.9736
-1.1378 5.9357 -2.8489 0.9736
-1.3694 4.7890 -2.3479 0.9782
-3.7662 5.1116 -2.9929 0.9723
-4.9792 3.9321 -2.9907 0.9723
-5.5954 2.9858 -2.9895 0.9723
-5.8380 2.4756 -2.9891 0.9723
-6.2826 0.8450 -2.9881 0.9724
-6.3326 0.2824 -2.9880 0.9724
-6.1526 -1.3939 -2.9736 0.9725
-6.0033 -1.9358 -2.9733 0.9725
-5.8084 -2.4629 -2.9739 0.9725
-5.5676 -2.9710 -2.9747 0.9725
-4.9563 -3.9139 -2.9769 0.9725
-4.5904 -4.3416 -2.9783 0.9724
-4.1879 -4.7353 -2.9798 0.9724
-3.2858 -5.4092 -2.9833 0.9724
-2.2777 -5.9139 -2.9873 0.9724
-1.1948 -6.2331 -2.9917 0.9723
-0.6357 -6.3196 -2.9939 0.9723
-0.0708 -6.3560 -2.9963 0.9723
0.4956 -6.3420 -2.9986 0.9723
1.0585 -6.2754 -2.9999 0.9722
1.6134 -6.1582 -3.0008 0.9722
2.6814 -5.7782 -3.0027 0.9722
3.6655 -5.2142 -3.0044 0.9722
4.1161 -4.8686 -3.0052 0.9722
4.5343 -4.4840 -3.0060 0.9722
5.5613 -3.1287 -3.0078 0.9722
6.3703 -0.4264 -3.0095 0.9722
6.2566 1.2717 -3.0095 0.9722
5.9311 2.3606 -3.0091 0.9722
5.6968 2.8787 -3.0087 0.9722
5.4172 3.3739 -3.0083 0.9722
4.3309 4.6825 -3.0066 0.9722
1.2699 5.9094 -2.8491 0.9736
0.7386 5.9971 -2.8482 0.9736
0.2019 6.0371 -2.8473 0.9736
-1.4007 5.8776 -2.8482 0.9736
-2.4176 5.5292 -2.8446 0.9737
-2.8980 5.2883 -2.8425 0.9737
-3.9896 4.9381 -2.9925 0.9723
-4.4122 4.5622 -2.9917 0.9723
-5.1489 3.7060 -2.9904 0.9723
-5.7223 2.7333 -2.9893 0.9723
-6.1147 1.6750 -2.9885 0.9724
-6.2390 1.1240 -2.9883 0.9724
-6.3138 0.5642 -2.9881 0.9724
-6.0758 0.0000 -2.9884 0.9733
-6.0516 -0.5408 -2.9884 0.9733
-5.9796 -1.0772 -2.9885 0.9733
-5.8319 -1.5975 -2.9741 0.9734
-5.2062 -3.0836 -2.9762 0.9734
-4.9129 -3.5361 -2.9773 0.9734
-4.5805 -3.9609 -2.9785 0.9734
-4.2118 -4.3549 -2.9799 0.9734
-3.8094 -4.7149 -2.9814 0.9733
-3.3765 -5.0381 -2.9831 0.9733
-2.9164 -5.3219 -2.9849 0.9733
-2.4328 -5.5639 -2.9868 0.9733
-1.9292 -5.7622 -2.9888 0.9733
-1.4097 -5.9152 -2.9909 0.9733
0.2037 -6.0908 -2.9975 0.9732
2.3200 -5.6454 -3.0021 0.9732
2.8141 -5.4181 -3.0029 0.9732
3.2861 -5.1475 -3.0038 0.9731
4.5327 -4.0995 -3.0060 0.9731
4.8806 -3.6806 -3.0066 0.9731
5.1898 -3.2322 -3.0072 0.9731
5.6824 -2.2615 -3.0081 0.9731
5.8619 -1.7470 -3.0085 0.9731
5.9947 -1.2185 -3.0088 0.9731
6.1164 -0.1363 -3.0091 0.9731
6.1043 0.4087 -3.0092 0.9731
6.0436 0.9503 -3.0091 0.9731
5.5767 2.5127 -3.0085 0.9731
5.3302 2.9987 -3.0081 0.9731
5.0414 3.4608 -3.0077 0.9731
2.8991 5.0213 -2.8518 0.9745
1.9618 5.4528 -2.8503 0.9745
1.4682 5.6041 -2.8494 0.9745
-1.0902 5.6874 -2.8483 0.9745
-2.0790 5.3981 -2.8452 0.9745
-2.5496 5.1882 -2.8433 0.9746
-2.9996 4.9380 -2.8418 0.9746
-3.6097 4.8992 -2.9931 0.9732
-4.0304 4.5573 -2.9924 0.9732
-4.4190 4.1795 -2.9917 0.9733
-5.3631 2.8619 -2.9899 0.9733
-5.9264 1.3428 -2.9888 0.9733
-5.9014 -1.3371 -2.9762 0.9734
-5.7554 -1.8558 -2.9743 0.9734
-5.0646 -3.3131 -2.9767 0.9734
-4.7514 -3.7521 -2.9778 0.9734
-4.0146 -4.5394 -2.9806 0.9733
-3.5966 -4.8813 -2.9822 0.9733
-2.6773 -5.4482 -2.9858 0.9733
-2.1832 -5.6686 -2.9878 0.9733
-1.1452 -5.9742 -2.9920 0.9732
-0.0679 -6.0916 -2.9964 0.9732
1.0144 -6.0140 -2.9998 0.9732
1.5462 -5.9016 -3.0007 0.9732
2.5696 -5.5373 -3.0025 0.9732
3.5126 -4.9967 -3.0042 0.9731
3.9444 -4.6654 -3.0049 0.9731
4.7113 -3.8940 -3.0063 0.9731
5.0402 -3.4599 -3.0069 0.9731
5.3291 -2.9981 -3.0075 0.9731
5.5757 -2.5122 -3.0079 0.9731
6.0800 0.6802 -3.0091 0.9731
5.9952 1.2186 -3.0091 0.9731
5.8626 1.7473 -3.0089 0.9731
5.4589 2.7585 -3.0083 0.9731
4.8819 3.6816 -3.0074 0.9731
4.5340 4.1008 -3.0069 0.9731
4.1502 4.4871 -3.0063 0.9731
3.1202 4.8878 -2.8522 0.9745
2.6721 5.1448 -2.8514 0.9745
2.2030 5.3607 -2.8507 0.9745
1.7166 5.5340 -2.8498 0.9745
0.7079 5.7473 -2.8482 0.9745
0.1934 5.7857 -2.8473 0.9745
-0.3222 5.7781 -2.8464 0.9745
-0.8359 5.7315 -2.8489 0.9745
-1.5737 4.7005 -2.4381 0.9781
-2.7772 5.0678 -2.8424 0.9746
-3.8239 4.7329 -2.9927 0.9732
-5.2307 3.0982 -2.9902 0.9733
-5.4848 2.6199 -2.9897 0.9733
-5.8610 1.6055 -2.9889 0.9733
-6.0519 0.5408 -2.9885 0.9733
-5.8299 0.0000 -2.9888 0.9741
-5.8067 -0.5189 -2.9888 0.9741
-5.7376 -1.0337 -2.9889 0.9741
-5.5969 -1.5331 -2.9751 0.9743
-5.4392 -2.0255 -2.9756 0.9742
-5.2384 -2.5022 -2.9763 0.9742
-4.0418 -4.1792 -2.9806 0.9742
-3.6556 -4.5246 -2.9821 0.9742
-2.7986 -5.1067 -2.9854 0.9742
-1.8511 -5.5290 -2.9892 0.9741
0.1954 -5.8436 -2.9975 0.9741
0.7152 -5.8065 -2.9993 0.9740
1.2295 -5.7215 -3.0002 0.9740
2.2257 -5.4160 -3.0019 0.9740
3.5804 -4.6392 -3.0043 0.9740
4.3482 -3.9327 -3.0057 0.9740
4.9785 -3.1006 -3.0069 0.9740
5.6231 -1.6758 -3.0081 0.9740
5.8556 0.3920 -3.0087 0.9740
5.1132 2.8766 -3.0077 0.9740
4.5208 3.7365 -3.0068 0.9740
3.7852 4.4771 -3.0056 0.9740
2.7811 4.8170 -2.8516 0.9753
2.3407 5.0442 -2.8509 0.9753
1.4085 5.3764 -2.8493 0.9753
0.9242 5.4788 -2.8485 0.9753
0.4327 5.5377 -2.8477 0.9753
-0.0618 5.5526 -2.8468 0.9753
-0.5562 5.5288 -2.8488 0.9753
-1.0457 5.4554 -2.8477 0.9753
-1.3696 4.7898 -2.5540 0.9779
-2.9624 4.8767 -2.9253 0.9747
-3.4634 4.7006 -2.9934 0.9741
-4.2400 4.0102 -2.9920 0.9741
-4.5792 3.6161 -2.9913 0.9741
-5.3691 2.2767 -2.9899 0.9741
-5.5498 1.7896 -2.9895 0.9741
-5.6865 1.2884 -2.9892 0.9741
-5.7782 0.7771 -2.9890 0.9741
-5.8242 0.2597 -2.9889 0.9741
-5.8241 -0.2597 -2.9888 0.9741
-5.5235 -1.7811 -2.9753 0.9743
-5.3441 -2.2661 -2.9759 0.9742
-4.8604 -3.1795 -2.9776 0.9742
-2.0949 -5.4392 -2.9882 0.9741
-1.6035 -5.6078 -2.9902 0.9741
-0.0651 -5.8444 -2.9965 0.9741
0.9732 -5.7698 -2.9998 0.9740
1.9820 -5.5090 -3.0015 0.9740
2.4651 -5.3122 -3.0024 0.9740
2.9290 -5.0731 -3.0032 0.9740
3.3698 -4.7935 -3.0039 0.9740
4.5196 -3.7355 -3.0060 0.9740
5.3486 -2.4100 -3.0076 0.9740
5.5426 -1.9246 -3.0079 0.9740
5.6925 -1.4237 -3.0083 0.9740
5.7971 -0.9115 -3.0085 0.9740
5.8673 0.1308 -3.0087 0.9740
5.6238 1.6761 -3.0085 0.9740
5.4519 2.1698 -3.0082 0.9740
5.2366 2.6462 -3.0079 0.9740
4.9796 3.1014 -3.0075 0.9740
4.6831 3.5317 -3.0071 0.9740
4.3494 3.9338 -3.0065 0.9740
3.9813 4.3045 -3.0060 0.9740
3.5816 4.6408 -3.0053 0.9740
2.9933 4.6889 -2.8519 0.9753
2.5635 4.9355 -2.8512 0.9753
1.1675 5.4330 -2.8489 0.9753
-0.3091 5.5435 -2.8464 0.9754
-0.8018 5.4976 -2.8483 0.9753
-1.2874 5.4022 -2.8471 0.9753
-1.5737 4.7005 -2.5413 0.9780
-3.2510 4.8509 -2.9937 0.9741
-3.6689 4.5411 -2.9930 0.9741
-4.4140 3.8169 -2.9916 0.9741
-5.4649 2.0352 -2.9897 0.9741
-5.6237 1.5405 -2.9893 0.9741
-5.8070 0.5189 -2.9889 0.9741
-5.5108 -0.9928 -2.9893 0.9749
-5.2250 -1.9458 -2.9765 0.9750
-4.7996 -2.8428 -2.9780 0.9750
-4.2225 -3.6513 -2.9801 0.9750
-3.5113 -4.3461 -2.9828 0.9750
-3.1122 -4.6438 -2.9843 0.9750
-2.2421 -5.1279 -2.9877 0.9749
-1.7779 -5.3104 -2.9896 0.9749
0.1876 -5.6120 -2.9976 0.9749
1.1807 -5.4944 -3.0001 0.9748
1.6655 -5.3691 -3.0010 0.9748
3.8219 -4.1321 -3.0048 0.9748
4.4958 -3.3904 -3.0060 0.9748
5.0273 -2.5404 -3.0070 0.9748
5.2342 -2.0831 -3.0074 0.9748
5.5217 -1.1223 -3.0080 0.9748
5.6227 0.3764 -3.0083 0.9748
5.5668 0.8754 -3.0083 0.9748
5.4665 1.3673 -3.0082 0.9748
5.3228 1.8483 -3.0080 0.9748
4.0037 3.9594 -3.0060 0.9748
2.6750 4.6329 -2.8558 0.9760
2.2478 4.8438 -2.8507 0.9761
1.3526 5.1629 -2.8492 0.9761
0.8875 5.2613 -2.8484 0.9761
-0.0594 5.3324 -2.8468 0.9761
-0.5340 5.3085 -2.8482 0.9761
-1.3697 4.7902 -2.6597 0.9777
-1.9150 4.9723 -2.8445 0.9761
-2.9120 4.7938 -2.9943 0.9749
-3.7140 4.1995 -2.9929 0.9749
-4.3980 3.4731 -2.9916 0.9749
-5.1568 2.1867 -2.9902 0.9749
-5.4617 1.2375 -2.9896 0.9749
-5.5939 0.2495 -2.9893 0.9749
-5.5494 -0.7463 -2.9892 0.9749
-4.9207 -2.6258 -2.9775 0.9750
-4.6689 -3.0543 -2.9784 0.9750
-4.3801 -3.4589 -2.9795 0.9750
-4.0565 -3.8366 -2.9807 0.9750
-3.7006 -4.1843 -2.9820 0.9750
-3.3151 -4.4993 -2.9835 0.9750
-2.9030 -4.7791 -2.9851 0.9750
-2.4676 -5.0214 -2.9868 0.9750
-2.0121 -5.2242 -2.9886 0.9749
-1.5401 -5.3860 -2.9905 0.9749
-1.0553 -5.5053 -2.9925 0.9749
-0.5615 -5.5812 -2.9945 0.9749
1.4245 -5.4372 -3.0006 0.9748
1.9033 -5.2903 -3.0014 0.9748
2.3673 -5.1012 -3.0022 0.9748
4.0026 -3.9582 -3.0051 0.9748
4.3399 -3.5870 -3.0057 0.9748
4.6428 -3.1871 -3.0063 0.9748
5.1359 -2.3141 -3.0072 0.9748
5.3221 -1.8480 -3.0076 0.9748
5.4660 -1.3671 -3.0079 0.9748
5.5664 -0.8752 -3.0081 0.9748
5.6338 0.1256 -3.0083 0.9748
5.5222 1.1224 -3.0082 0.9748
5.4001 1.6094 -3.0081 0.9748
3.8230 4.1334 -3.0057 0.9748
2.9597 4.6363 -2.9364 0.9754
2.4616 4.7394 -2.8510 0.9761
1.1212 5.2173 -2.8488 0.9761
0.6522 5.2949 -2.8480 0.9761
-0.7698 5.2786 -2.8477 0.9761
-1.2361 5.1871 -2.8466 0.9761
-1.5737 4.7004 -2.6462 0.9778
-2.5719 4.6932 -2.8570 0.9760
-3.8970 4.0295 -2.9925 0.9749
-4.5479 3.2734 -2.9914 0.9749
-4.8204 2.8551 -2.9908 0.9749
-5.0546 2.4144 -2.9904 0.9749
-5.2488 1.9547 -2.9900 0.9749
-5.4014 1.4796 -2.9897 0.9749
-5.5774 0.4984 -2.9893 0.9749
-5.3614 -0.4791 -2.9896 0.9757
-5.2976 -0.9544 -2.9896 0.9757
-5.0237 -1.8708 -2.9774 0.9758
-4.6146 -2.7332 -2.9788 0.9758
-4.3544 -3.1341 -2.9797 0.9758
-2.1554 -4.9296 -2.9881 0.9757
-1.7091 -5.1049 -2.9899 0.9757
-0.3003 -5.3853 -2.9956 0.9756
0.6601 -5.3597 -2.9993 0.9756
1.1349 -5.2812 -3.0001 0.9756
1.6008 -5.1606 -3.0009 0.9756
2.9096 -4.5578 -3.0032 0.9756
3.6733 -3.9715 -3.0045 0.9756
4.5946 -2.8615 -3.0062 0.9755
5.0305 -2.0021 -3.0071 0.9755
5.3068 -1.0787 -3.0076 0.9755
5.4145 -0.1206 -3.0079 0.9755
5.4038 0.3618 -3.0080 0.9755
5.3501 0.8413 -3.0079 0.9755
5.2538 1.3141 -3.0078 0.9755
5.1157 1.7764 -3.0076 0.9755
4.9368 2.2245 -3.0074 0.9755
4.4632 3.0638 -3.0066 0.9755
4.1721 3.4483 -3.0062 0.9755
3.8480 3.8053 -3.0057 0.9755
2.6584 4.6044 -2.9529 0.9760
2.1604 4.6556 -2.8505 0.9768
1.7370 4.8282 -2.8498 0.9768
-0.0571 5.1254 -2.8468 0.9768
-0.5132 5.1015 -2.8476 0.9768
-1.8405 4.7788 -2.8442 0.9768
-2.2576 4.5941 -2.8430 0.9769
-2.7992 4.6081 -2.9945 0.9756
-3.1974 4.3396 -2.9938 0.9756
-3.5702 4.0369 -2.9931 0.9756
-4.2277 3.3386 -2.9919 0.9757
-4.5073 2.9486 -2.9914 0.9757
-4.9572 2.1021 -2.9905 0.9757
-5.2504 1.1896 -2.9899 0.9757
-5.3351 0.7175 -2.9897 0.9757
-5.3775 0.2398 -2.9896 0.9757
-5.3774 -0.2398 -2.9896 0.9757
-5.2499 -1.1895 -2.9897 0.9757
-4.7311 -2.5246 -2.9783 0.9758
