# .PCD v0.7 - Point Cloud Data file format
VERSION 0.7
FIELDS x y z
SIZE 4 4 4
TYPE F F F
COUNT 1 1 1
WIDTH 200
HEIGHT 1
VIEWPOINT 0 0 0 1 0 0 0
POINTS 200
DATA ascii
5.6451998 -0.1258 0.61250001
5.3593998 -0.1194 0.49149999
5.5132999 -0.86690003 0.51169997
5.5144 0.1229 0.50569999
5.6079998 -1.1399 0.4289
5.1641998 -0.57770002 0.38940001
5.1750998 -0.1153 0.38789999
5.5267 0.37 0.41510001
5.1395001 -0.3441 0.38600001
5.2804999 0.1177 0.39579999
5.2946 -1.0762 0.31470001
5.0510998 -0.565 0.296
5.0558 -0.1127 0.29449999
5.1285 -0.8064 0.30239999
5.0296001 -0.33669999 0.29359999
5.8580999 0.65530002 0.34330001
5.0156999 -0.78869998 0.2111
5.4624 0.611 0.22849999
5.0327001 -1.023 0.12809999
4.8622999 -0.54390001 0.122
4.8765998 -0.1087 0.1216
5.0702 0.33939999 0.1267
5.2909999 -1.3234 0.13600001
4.9137001 -0.7726 0.124
4.9474001 0.1102 0.1234
5.2914 0.59189999 0.1328
4.8106999 -0.1072 0.039999999
4.9835 0.33360001 0.041499998
4.8456998 -0.76200002 0.040800001
4.8747001 0.1086 0.0405
5.1752 0.57889998 0.043299999
5.4442 -1.6224999 -0.047200002
4.8997002 0.32800001 -0.040800001
5.4070001 0.8502 -0.045499999
5.0370002 -1.2598 -0.043200001
4.7191 -0.3159 -0.039299998
4.8041 0.1071 -0.039900001
5.0640001 0.56650001 -0.042399999
4.6768999 -0.52319998 -0.1174
4.6954999 -0.1046 -0.1171
4.9442 -1.2366 -0.12710001
4.6652999 -0.3123 -0.1166
4.7375002 -0.96289998 -0.20100001
4.6552 -0.1037 -0.1936
4.7859998 0.3204 -0.19939999
5.1676998 0.81260002 -0.2175
4.6719999 -0.73460001 -0.19660001
4.6255002 -0.3096 -0.1928
4.9302001 0.55150002 -0.20630001
5.0423002 -1.5028 -0.3064
4.6942 -0.95420003 -0.27900001
4.5995998 -0.51450002 -0.2696
4.7396998 0.31729999 -0.27669999
4.8189001 -1.2053 -0.28929999
4.6325002 -0.72839999 -0.27309999
4.8761001 0.54549998 -0.28580001
5.6904001 1.1566 -0.3382
4.6525002 -0.94569999 -0.3558
4.5618 -0.51029998 -0.34400001
4.5766001 -0.102 -0.34310001
4.6954002 0.3143 -0.3527
4.7736001 -1.194 -0.36880001
4.5935998 -0.72229999 -0.34850001
4.823 0.5395 -0.3637
4.9267001 -1.4683 -0.47130001
4.6128001 -0.93760002 -0.43149999
4.5258999 -0.50629997 -0.41749999
4.5458999 -0.1013 -0.41690001
4.9837999 0.78359997 -0.46250001
4.5553002 -0.71630001 -0.42269999
4.5174999 -0.30239999 -0.41510001
4.7904 0.5359 -0.44190001
4.5050998 -0.50400001 -0.49169999
4.5240002 -0.1008 -0.49079999
4.9450998 0.77759999 -0.54299998
5.3722 -1.8654 -0.61680001
4.6917 -1.1734999 -0.52460003
4.5321999 -0.71259999 -0.49759999
4.4969001 -0.301 -0.48890001
4.5650001 0.1017 -0.49529999
4.5021 -0.1003 -0.5643
4.9068999 0.77160001 -0.6225
4.6693001 -1.1679 -0.60320002
4.5409002 0.1012 -0.56919998
4.7308998 0.52920002 -0.5966
5.2379999 1.0647 -0.66979998
4.4639001 -0.49939999 -0.63889998
4.4804001 -0.099799998 -0.63739997
5.2213001 -1.813 -0.78619999
4.6471 -1.1623 -0.68129998
4.4559999 -0.2983 -0.63520002
4.7950001 -1.4291 -0.7967
4.5215001 -0.91909999 -0.73470002
4.4435 -0.4971 -0.71200001
4.4587998 -0.099399999 -0.71020001
4.8544002 0.7633 -0.78250003
5.1745 -1.7968 -0.87220001
4.6248999 -1.1568 -0.75910002
4.6849999 0.52410001 -0.7507
5.1698999 1.0508 -0.84009999
4.5047002 -0.9156 -0.81050003
4.4317002 -0.49579999 -0.7863
4.4516001 -0.099200003 -0.78509998
4.5653 0.30559999 -0.80680001
4.8425002 0.76139998 -0.86440003
5.1283002 -1.7808 -0.95719999
4.6047001 -1.1517 -0.8369
4.4573002 -0.70090002 -0.7956
4.4267001 -0.29629999 -0.7823
4.6752 0.523 -0.82950002
5.1539998 1.0476 -0.92739999
4.5 -0.91469997 -0.88859999
4.4257998 -0.49509999 -0.86180001
4.4446998 -0.099100001 -0.8603
4.5570002 0.30500001 -0.88380003
4.8305998 0.75959998 -0.94630003
5.1409001 -1.7851 -1.0531
4.4527001 -0.70020002 -0.87230003
4.4208999 -0.29589999 -0.8574
4.6654 0.5219 -0.90850002
5.1381998 1.0444 -1.0147001
4.4956999 -0.9138 -0.96719998
4.5486002 0.30450001 -0.96109998
4.8186002 0.75770003 -1.0283
4.4481001 -0.69940001 -0.94929999
4.6554999 0.52079999 -0.98760003
5.1331 1.0433 -1.1043
4.7694001 -1.4214 -1.1359
4.4141002 -0.49380001 -1.0138
4.4306998 -0.098700002 -1.0115
4.5402002 0.3039 -1.0386
4.5957999 -1.1495 -1.0813
4.4092002 -0.29519999 -1.0086
4.4092002 -0.49329999 -1.0906
4.4305 -0.098700002 -1.0893
4.5489001 0.30450001 -1.1206
4.8418002 0.76130003 -1.2047
4.4389 -0.69800001 -1.1045001
4.4068999 -0.29499999 -1.0856
4.5043998 -0.9156 -1.2112
4.4187999 -0.49430001 -1.1716
4.4390001 -0.098899998 -1.17
4.8571 0.76370001 -1.2956001
4.6076999 -1.1525 -1.2515
4.4502001 -0.69980001 -1.187
4.4165001 -0.29570001 -1.1663001
4.6736999 0.52280003 -1.2392
4.4477 -0.099100001 -1.2517
4.8727002 0.76620001 -1.3878
4.4625001 -0.70169997 -1.271
4.4850001 0.0999 -1.2622
4.6845002 0.52399999 -1.3262
5.3257999 1.0825 -1.5290999
4.4383998 -0.49649999 -1.3371
4.4563999 -0.099299997 -1.3345
4.9212999 0.77380002 -1.4914
4.4359999 -0.29699999 -1.331
4.4938998 0.1001 -1.3457
5.5275002 1.1235 -1.6887
4.4706998 -0.099600002 -1.4202
4.9735999 0.78210002 -1.599
4.6792998 -1.1704 -1.5319
4.4875998 -0.70560002 -1.4427
4.4473 -0.29769999 -1.4155
4.5138001 0.1006 -1.4339
4.7424002 0.53049999 -1.5154999
5.0560002 -1.5069 -1.7726001
4.5970001 -0.93440002 -1.5761
4.6370001 0.31040001 -1.5614001
4.5194001 -0.71069998 -1.5371
4.4770002 -0.29969999 -1.5075999
4.6415 -0.94340003 -1.6795
4.5086999 -0.50440001 -1.6087
4.5289998 -0.1009 -1.6063
5.1739998 0.8136 -1.8572
4.5545998 -0.71619999 -1.6348
4.5074 -0.3017 -1.6019
4.5755 0.102 -1.6228
4.8235002 0.53960001 -1.721
4.6873999 -0.95279998 -1.7861
4.5591998 -0.1016 -1.7029001
4.7202001 0.31600001 -1.7665
5.4187999 0.85210001 -2.0483
4.5387001 -0.30379999 -1.6986001
4.7620001 -0.96789998 -1.9072
4.6142001 -0.1028 -1.8114001
4.6451001 -0.73040003 -1.8455
4.5888 -0.30720001 -1.8049999
4.6671 -0.52209997 -1.9338
4.6774001 -0.1042 -1.9265
4.73 -0.74370003 -1.9717
4.7445998 0.1057 -1.9542
5.2284002 0.58490002 -2.1664
5.0588002 -1.0283 -2.2268
4.7543998 -0.1059 -2.0513
4.8488998 0.1081 -2.0920999
4.8814001 -0.54610002 -2.2163
5.0102 -0.78780001 -2.2885001
5.1048999 -0.1138 -2.4068999
5.0405998 -0.33739999 -2.3813
