# .PCD v0.7 - Point Cloud Data file format
VERSION 0.7
FIELDS x y z
SIZE 4 4 4
TYPE F F F
COUNT 1 1 1
WIDTH 165
HEIGHT 1
VIEWPOINT 0 0 0 1 0 0 0
POINTS 165
DATA ascii
6.1059999 -0.13609999 0.55989999
6.1767998 0.41350001 0.5675
6.0282001 0.13429999 0.5528
5.8091998 -0.1295 0.43540001
6.2337999 0.98030001 0.36750001
5.7357001 -0.384 0.3348
5.7785001 0.64639997 0.3387
5.5911002 -0.3743 0.233
5.4840999 0.1222 0.2281
5.6297998 -0.62980002 0.14129999
5.6677999 0.89120001 0.14309999
5.3727002 0.1197 0.134
5.4860001 0.61369997 0.13770001
5.4998999 -0.6153 0.046
5.3221998 0.3563 0.044300001
5.7676001 -0.90689999 0.048500001
5.3783998 -0.36000001 0.044799998
5.2997999 0.1181 0.044100001
5.3959999 0.60360003 0.0451
5.2490001 -0.117 -0.0436
5.2459002 0.35120001 -0.043699998
5.4503002 0.85699999 -0.045899998
5.6286001 -0.88499999 -0.047400001
5.2298002 0.1165 -0.043499999
5.3172998 0.5948 -0.044500001
5.9380002 -1.2069 -0.15109999
5.3653998 0.84369999 -0.1355
5.2374001 -0.3506 -0.1309
5.1615 0.115 -0.1288
5.2456002 0.58679998 -0.13160001
5.5829 1.1348 -0.14210001
5.2653999 -0.58899999 -0.2203
5.1315999 -0.1143 -0.21340001
5.3066001 0.8344 -0.2234
6.0358 1.5096999 -0.25870001
5.1781998 -0.3466 -0.2158
5.0899 -0.1134 -0.2965
5.0900998 0.34079999 -0.29710001
5.8098998 1.4532 -0.3488
5.369 -0.84420002 -0.31659999
5.1357999 -0.34380001 -0.29980001
5.1479001 0.57590002 -0.3017
5.5858002 -1.1354001 -0.42719999
5.1740999 -0.57880002 -0.39019999
5.0488 -0.1125 -0.3784
5.1925001 0.81650001 -0.39390001
5.1002002 0.57050002 -0.38460001
5.3551002 1.0885 -0.4095
5.5141001 -1.1208 -0.51590002
5.1297998 -0.57389998 -0.47319999
5.0082998 -0.1116 -0.45930001
5.6224999 1.4062999 -0.53130001
5.2733998 -0.82920003 -0.4894
4.9903002 0.1112 -0.4576
5.4552999 -1.1088001 -0.6038
5.0950999 -0.56999999 -0.55610001
4.9875998 0.3339 -0.54220003
5.1219001 0.80540001 -0.56239998
5.5608001 1.3908 -0.62169999
5.2282 -0.82209998 -0.57410002
5.0243001 -0.33629999 -0.54619998
5.4200001 -1.1016999 -0.69309998
5.5001998 1.3757 -0.7105
5.2048001 -0.81840003 -0.66030002
5.0025001 -0.33489999 -0.62830001
5.0105 0.56050003 -0.6318
5.3941998 -1.0964 -0.78289998
4.9397001 -0.1101 -0.70279998
5.0588002 0.79549998 -0.72839999
5.4552002 1.3644 -0.79979998
4.9808002 -0.33340001 -0.70999998
4.9194002 0.1096 -0.69989997
4.9839001 0.5575 -0.71329999
5.1960001 1.0561 -0.75419998
4.9176002 -0.1096 -0.78329998
4.9208999 0.3294 -0.78530002
5.0443001 0.79320002 -0.81309998
5.4377999 1.3601 -0.8926
5.8899999 -1.4732 -0.96679997
4.8968 0.1091 -0.77990001
5.1847 1.0538 -0.84249997
5.3432002 -1.0861 -0.96139997
5.0138998 -0.56089997 -0.88959998
4.9087 -0.1094 -0.86580002
4.9134998 0.32890001 -0.86830002
5.0337 0.79149997 -0.89850003
5.4204998 1.3557 -0.98519999
5.848 -1.4627 -1.0628999
5.1394 -0.80809999 -0.9174
4.948 -0.3312 -0.87440002
4.8906002 0.109 -0.86260003
4.9580002 0.5546 -0.87970001
5.1733999 1.0515 -0.93089998
5.0117998 -0.5607 -0.97589999
4.9060001 0.32839999 -0.9515
5.4031 1.3514 -1.0778
5.1371002 -0.80779999 -1.0063
4.9436002 -0.33090001 -0.95880002
5.1620002 1.0492001 -1.0194
5.0096002 -0.56040001 -1.0627
4.8965998 -0.1091 -1.0326
4.9401999 0.55260003 -1.048
5.3494 -1.0872999 -1.2459
5.0074 -0.56019998 -1.15
4.8941002 0.3276 -1.1195
5.0194998 0.78930002 -1.1597
5.4429998 1.3614 -1.2806
6.1258998 -1.5322 -1.4413
4.9347 -0.3303 -1.1288
4.8726001 0.1086 -1.1124001
5.1675 1.0504 -1.2036
5.3724999 -1.092 -1.3475
4.8965001 -0.1091 -1.2039
5.138 -0.80790001 -1.2783999
4.9400001 -0.33070001 -1.217
4.882 0.1088 -1.2003
5.1794 1.0528001 -1.2991
5.4229002 -1.1022 -1.4582
5.033 -0.56300002 -1.3345
5.5186 1.3803 -1.499
4.9593 0.55479997 -1.3149
5.1914001 1.0552 -1.3959
4.9187999 -0.1096 -1.3843
4.9682002 -0.3326 -1.401
5.5331001 -1.1246001 -1.6904
4.9302001 -0.1099 -1.4764
4.9415002 0.3308 -1.4827
5.0956998 0.80129999 -1.5443
5.7319002 1.4335999 -1.7689
5.2262998 -0.82179999 -1.5839
5.2818999 1.0736001 -1.6136
5.6884999 -1.1562001 -1.8435
5.1135998 -0.57209998 -1.6341
4.9733 0.33289999 -1.5829999
5.1357002 0.8075 -1.6511
4.9506001 0.1103 -1.5726
5.3365002 1.0847 -1.7295001
5.1622 -0.57749999 -1.7452
4.9952002 -0.1113 -1.6787
5.0058999 0.3351 -1.6857001
5.1785998 0.8143 -1.7613
5.0545998 -0.33840001 -1.7021
4.9843001 0.1111 -1.675
5.4337001 1.1044 -1.863
5.2122998 -0.58310002 -1.8597
5.0327001 -0.1121 -1.785
5.263 0.8276 -1.8891
5.0943999 -0.34099999 -1.8104
5.1188002 0.57260001 -1.8264
5.5679002 1.1317 -2.0146999
5.3049002 -0.5934 -1.9933
5.0978999 -0.1136 -1.9040999
5.1117001 0.34220001 -1.913
5.3512998 0.84149998 -2.0228
5.1620002 -0.34549999 -1.9319
5.0832 0.1133 -1.8986
5.1914001 0.58069998 -1.9506
5.4323001 -0.60769999 -2.1452999
5.1746998 -0.1153 -2.0314
5.5208998 0.86809999 -2.1933999
5.2767 0.59030002 -2.0839
5.6877999 -0.63630003 -2.3566999
5.4240999 0.60680002 -2.2474999
5.4566002 0.3653 -2.359
5.3933001 0.1202 -2.3269999
