# .PCD v0.7 - Point Cloud Data file format
VERSION 0.7
FIELDS x y z
SIZE 4 4 4
TYPE F F F
COUNT 1 1 1
WIDTH 235
HEIGHT 1
VIEWPOINT 0 0 0 1 0 0 0
POINTS 235
DATA ascii
4.9454999 -1.0052 0.63239998
5.2252998 -0.58459997 0.65890002
4.9843001 -0.78369999 0.63230002
4.8842001 -0.54640001 0.53310001
4.7684002 -0.74980003 0.52359998
4.6844001 -1.3961 0.4481
4.5746999 -0.92989999 0.428
4.6174002 -0.72610003 0.4285
4.8731999 -0.32620001 0.44780001
4.9914999 -0.1112 0.37419999
4.6869998 -1.6275001 0.37180001
4.4844999 -1.1217 0.34639999
4.5153999 -0.70999998 0.3425
4.4359002 -1.3221 0.2696
4.4919 -0.5025 0.2633
4.8168001 -0.1073 0.28060001
4.5545998 -1.5815001 0.28080001
4.3867998 -1.0972 0.26339999
4.6588001 -1.8541 0.2085
4.3383002 -1.2929 0.1882
4.3060999 -0.87529999 0.18269999
4.4175 -0.49419999 0.1848
4.4296999 -1.5382 0.19499999
4.3076 -1.0774 0.1846
4.9942999 0.1113 0.2077
4.4952998 -1.7891001 0.1207
4.2744002 -1.2739 0.1112
4.3526001 -0.4869 0.1092
4.6012998 -0.1025 0.1148
4.3993001 -1.7509 0.039299998
4.1896 -0.85159999 0.035500001
4.2895999 -0.4799 0.0359
4.7585001 -2.1441 0.043400001
4.2694998 -1.4825 0.037599999
4.1903 -1.0481 0.0359
4.3786001 -0.2931 0.036499999
4.2332001 -0.4736 -0.035399999
4.4516001 -0.099200003 -0.037
5.0181999 0.33590001 -0.0418
4.2010002 -1.4586999 -0.037
4.1341 -1.034 -0.035399999
4.1771998 -0.65679997 -0.035100002
4.3203001 -0.28920001 -0.035999998
4.6448998 0.1035 -0.038600001
4.1062999 -1.2237999 -0.1069
4.4039001 -0.098099999 -0.1099
4.2796998 -0.28650001 -0.107
4.0647001 -0.82620001 -0.1725
4.1556001 -0.46489999 -0.17389999
4.3716002 -1.9697 -0.19939999
4.1086001 -1.4267 -0.18080001
4.1052999 -0.6455 -0.1728
4.2399001 -0.28380001 -0.1767
4.5222001 0.1008 -0.1881
4.1557002 -1.6539 -0.26050001
4.0335999 -1.2021 -0.24510001
4.3112998 -0.096100003 -0.25119999
4.7165999 0.31569999 -0.2753
4.0714002 -1.4137 -0.25099999
4.0258999 -1.0069 -0.24169999
4.0702 -0.63999999 -0.23999999
4.2006998 -0.28119999 -0.24519999
4.4636002 0.0995 -0.25999999
4.1135001 -1.6371 -0.33180001
3.9981 -1.1916 -0.31259999
3.9967999 -0.81239998 -0.30559999
4.0346999 -1.401 -0.32010001
3.9919 -0.99849999 -0.30840001
4.408 0.098200001 -0.33039999
4.5352001 -2.2916999 -0.46579999
4.0721002 -1.6207 -0.40180001
3.9660001 -1.182 -0.37940001
4.6044002 0.3082 -0.42309999
4.2082 -1.8961 -0.42320001
3.9986 -1.3885 -0.3881
4.0110002 -0.63069999 -0.37220001
4.0453 -1.61 -0.47229999
4.0349998 -0.45140001 -0.4404
4.2143002 -0.093900003 -0.45719999
4.5696998 0.30590001 -0.49680001
3.9914999 -0.62769997 -0.43830001
4.1162 -0.2755 -0.44749999
4.3530002 0.097000003 -0.47229999
4.4130001 -2.23 -0.6196
4.1893001 -0.093400002 -0.52509999
4.5353999 0.30360001 -0.56959999
3.9261 -0.98199999 -0.5072
3.9721 -0.62459999 -0.50389999
4.3263998 0.0964 -0.54229999
4.9067998 0.54890001 -0.61870003
3.9154 -0.79579997 -0.56830001
3.9947 -0.44690001 -0.57169998
4.1171999 -1.8551 -0.64230001
3.9396 -1.368 -0.59320003
4.8491001 0.5424 -0.69400001
4.3428001 -2.1945 -0.7748
3.9821 -1.5848 -0.6825
3.8970001 -0.79210001 -0.63319999
4.1417999 -0.092299998 -0.65969998
4.0925002 -1.844 -0.7148
3.9337001 -0.61849999 -0.63410002
4.2789998 0.095399998 -0.68150002
4.3083 -2.1770999 -0.85119998
3.9621999 -1.5769 -0.75190002
3.8752999 -1.155 -0.713
3.9660001 -0.44369999 -0.70370001
3.8752999 -0.96920002 -0.7044
3.9226 -0.61680001 -0.70020002
4.0434999 -0.27070001 -0.71460003
4.3079 -2.1768999 -0.93400002
3.9586 -1.5755 -0.82450002
3.8706 -1.1536 -0.7816
3.8794999 -0.78850001 -0.76609999
4.1255999 -0.092 -0.79860002
4.0658998 -1.832 -0.86299998
3.8984001 -1.3537 -0.79860002
4.0362 -0.27020001 -0.78280002
4.2616 0.094999999 -0.82489997
4.7976999 0.53670001 -0.93419999
4.3126001 -2.1793001 -1.0187
3.9549999 -1.574 -0.89740002
3.9532001 -0.44220001 -0.83859998
4.0646 -1.8314 -0.93989998
3.8936 -1.352 -0.8689
3.9100001 -0.61479998 -0.8344
4.0289998 -0.26969999 -0.8513
4.2529001 0.094800003 -0.89679998
3.9512999 -1.5726 -0.97070003
3.8683 -0.7863 -0.90100002
3.9467001 -0.44150001 -0.90640002
4.0633001 -1.8308001 -1.0172
3.8585 -0.96509999 -0.90780002
4.0216999 -0.2692 -0.92000002
3.8564 -1.1494 -0.98909998
3.8627 -0.78509998 -0.96890002
3.9403 -0.44080001 -0.97460002
4.1051002 -0.091499999 -1.0093
3.8838 -1.3486 -1.0106
3.8973 -0.6128 -0.96969998
4.2459002 0.094599999 -1.0439
4.8169999 0.53890002 -1.1914001
3.8557999 -1.1492 -1.0602
3.9439001 -0.44119999 -1.0457
4.4664001 0.29899999 -1.1795
3.8517001 -0.96340001 -1.0462
4.0215001 -0.2692 -1.062
4.8762999 0.54549998 -1.2929
3.9654 -1.5782 -1.2007999
3.8708 -0.78680003 -1.1114
4.4812002 0.30000001 -1.2636
4.0970001 -1.846 -1.2643
3.8938 -1.3521 -1.1597
3.8598001 -0.96539998 -1.1194
4.0292001 -0.26969999 -1.1362
4.9377999 0.55239999 -1.3979
4.5830998 -2.316 -1.5373
3.8764 -1.1553 -1.211
3.8789999 -0.78850001 -1.1851
3.9588001 -0.4429 -1.1926
4.1331 -0.092100002 -1.2377
4.1217999 -1.8572 -1.3535
3.8680999 -0.96749997 -1.1937
3.9131 -0.6153 -1.1859
4.0370002 -0.2703 -1.2113
4.2758999 0.095299996 -1.2804
5.0911999 0.56950003 -1.5337
3.8868999 -1.1584001 -1.2881
3.8873 -0.79009998 -1.2598
4.1427002 -0.092299998 -1.316
4.5386 0.30379999 -1.4446
3.9152 -1.3595001 -1.3162
3.8764 -0.96960002 -1.2690001
4.2916002 0.095600002 -1.3633
3.8975999 -1.1616 -1.3664
3.8958001 -0.79180002 -1.3357
3.9763 -0.44479999 -1.3443
4.1697001 -0.092900001 -1.4013
4.6058002 0.30829999 -1.551
3.8849001 -0.97170001 -1.3455
3.9282 -0.61769998 -1.336
4.0609002 -0.2719 -1.3674001
4.0553999 -1.614 -1.5477
3.9236 -1.1693 -1.4517
3.9184 -0.79640001 -1.4177999
4.2027998 -0.093699999 -1.4906
4.2853999 -1.9309 -1.6667
3.9644001 -1.3766 -1.4881001
3.9066999 -0.97710001 -1.4279
4.0886002 -0.2737 -1.4529999
4.3713999 0.097400002 -1.5504
4.1118002 -1.6365 -1.6525
3.9546001 -1.1786 -1.5409
3.9451001 -0.80190003 -1.5033
4.8151002 0.32229999 -1.802
4.0040002 -1.3904001 -1.5827
3.9779999 -0.62550002 -1.5037
4.4180002 0.098499998 -1.6501
4.1722002 -1.6605 -1.7624
3.9865 -1.1881 -1.6325999
4.0552001 -0.45370001 -1.6015
4.2761002 -0.095299996 -1.6787
4.0448999 -1.4045 -1.6805
3.9611001 -0.99070001 -1.6025
4.2789998 -1.7029999 -1.8964
4.0229001 -1.199 -1.7286
4.0012002 -0.81330001 -1.6813
4.092 -0.4578 -1.6955
4.1009002 -1.424 -1.7876
4.0349998 -0.63450003 -1.682
4.1963 -0.2809 -1.7318
4.6055002 0.1026 -1.8969001
4.4650998 -1.7771 -2.073
4.0882001 -1.2184 -1.8401
4.0579 -0.82480001 -1.7862
4.4252 -0.0986 -1.9093
4.1844001 -1.4529999 -1.9107
4.0906 -0.64319998 -1.7862
4.2586999 -0.28510001 -1.8411
4.1603999 -1.2399 -1.9588
4.2119002 -0.47119999 -1.9123
4.2893 -1.4894 -2.0488
4.1171999 -1.0298001 -1.915
4.1486001 -0.6523 -1.8949
4.3239002 -0.2895 -1.9554
4.3098998 -0.48210001 -2.0441999
4.8702002 -0.1085 -2.2962
4.6039 -1.5986 -2.2973001
4.2042999 -1.0516 -2.0429001
4.4808998 -1.3354 -2.2997
4.3154001 -0.87720001 -2.1659999
4.4426999 -0.49700001 -2.1988001
4.3438001 -1.0864 -2.2023001
4.7056999 -0.315 -2.3197
4.6957998 -1.1745 -2.4816
4.5777001 -0.7198 -2.3757
