# .PCD v0.7 - Point Cloud Data file format
VERSION 0.7
FIELDS x y z
SIZE 4 4 4
TYPE F F F
COUNT 1 1 1
WIDTH 110
HEIGHT 1
VIEWPOINT 0 0 0 1 0 0 0
POINTS 110
DATA ascii
6.7072001 0.449 0.61629999
6.6787 0.7471 0.61610001
6.3305998 0.42379999 0.47549999
6.4025002 1.0067 0.48570001
6.1273999 0.4102 0.35769999
6.0861001 0.68080002 0.3567
6.3038001 -0.14049999 0.2622
5.9923 0.40110001 0.24969999
6.0008998 0.9436 0.25260001
6.7196999 1.6806999 0.28799999
6.0941 0.1358 0.25350001
5.9618001 0.66689998 0.2494
6.1549001 -0.1371 0.15350001
5.8758001 0.3933 0.1469
6.2479 1.5627 0.16060001
6.5468001 -0.43830001 0.1636
5.9713001 0.1331 0.149
5.9765 1.2148 0.1521
6.0195999 -0.13410001 0.050000001
5.7849002 0.90960002 0.048700001
5.8748999 1.1941 0.049800001
6.1767001 -0.41350001 -0.0515
6.4889002 1.9339 -0.056299999
5.8470001 -0.1303 -0.1459
5.6431999 0.37779999 -0.141
5.6128001 0.6279 -0.1408
5.6932998 1.1572 -0.14489999
5.7667999 1.4424 -0.2472
5.6564999 0.1261 -0.2352
5.5658998 0.62260002 -0.23289999
5.6356001 1.1454999 -0.23909999
6.0669999 1.8082 -0.26320001
5.5479999 0.3714 -0.32390001
5.5254998 0.8689 -0.3258
5.9077001 -0.3955 -0.34490001
5.5197001 0.61750001 -0.32350001
5.8529 -0.39179999 -0.43959999
5.5679002 0.1241 -0.4174
5.4741998 0.6124 -0.41280001
5.5332999 1.1247 -0.42309999
5.4678001 0.366 -0.50239998
5.4478998 0.8567 -0.50559998
5.5254002 0.1231 -0.50669998
5.4411001 0.60869998 -0.50190002
5.8193998 1.7344 -0.55669999
5.4224 0.85259998 -0.59539998
6.3558998 2.207 -0.72979999
5.4157 0.60579997 -0.59109998
5.7730999 1.7206 -0.6534
5.5771999 -0.1243 -0.69910002
5.3969998 0.84859997 -0.6846
5.5548 -0.1238 -0.79030001
5.7136998 -0.38249999 -0.81449997
5.9612002 -0.66689998 -0.95520002
5.5342999 -0.1233 -0.88150001
5.3667998 0.84390002 -0.86510003
6.1866999 2.1482999 -1.0429
5.6901002 -0.3809 -0.90810001
5.3557 0.59909999 -0.8581
5.698 1.6982 -0.94679999
5.5334001 -0.1233 -0.97589999
5.6862998 -0.38060001 -1.0049
5.3483 0.59829998 -0.94889998
5.4067001 1.099 -0.97280002
5.6831002 1.6937 -1.0456001
5.5324998 -0.1233 -1.0709
6.2350998 2.1651001 -1.2773
5.4342999 0.1211 -1.0519
5.3407998 0.59750003 -1.04
5.5316 -0.1233 -1.1664
5.3516002 0.84149998 -1.1421
5.5053 1.377 -1.1964
5.6935 -0.3811 -1.2029999
5.4306002 0.121 -1.1452
5.3351002 0.59680003 -1.1317
5.4029999 1.0982 -1.1623
5.7034998 1.6998 -1.2546999
5.5405002 -0.1235 -1.2649
5.3628001 0.84329998 -1.2391
5.5179 1.3801 -1.2982
5.7059002 -0.382 -1.3052
5.4390001 0.1212 -1.2417001
5.414 1.1005 -1.261
5.3901 0.3608 -1.3279001
5.3741999 0.84509999 -1.3372
5.5306001 1.3832999 -1.4013
5.3597002 0.59960002 -1.3256
5.4252 1.1027 -1.3608
5.7530999 1.7146 -1.4756
5.5668001 1.3924 -1.512
5.3727002 0.60100001 -1.4245
5.4442 1.1066 -1.4639
5.4184999 0.852 -1.5433
5.6104999 1.4033 -1.6272
5.454 0.85759997 -1.6529
5.6553001 1.4145 -1.7453001
5.5187998 1.1217999 -1.686
6.0523 1.8038 -1.8907
5.4991002 0.36809999 -1.7503
5.7438998 1.4367 -1.8803999
5.5783 0.1243 -1.772
5.4734998 0.61229998 -1.7491
5.5716 1.1325001 -1.8056
5.5598998 0.8743 -1.891
5.5327001 0.6189 -1.8705
5.6492 1.1483001 -1.9368
5.7386999 1.1664 -2.0764999
5.7302999 0.3836 -2.1445
5.7508998 0.90429997 -2.1738
5.7037001 0.63810003 -2.1431
