# .PCD v0.7 - Point Cloud Data file format
VERSION 0.7
FIELDS x y z
SIZE 4 4 4
TYPE F F F
COUNT 1 1 1
WIDTH 131
HEIGHT 1
VIEWPOINT 0 0 0 1 0 0 0
POINTS 131
DATA ascii
6.3699002 0.71259999 0.2665
6.9917002 -0.1558 0.1744
6.2048001 0.4154 0.1551
6.2094002 0.97640002 0.1568
6.1577001 0.68879998 0.15449999
6.4254999 -0.1432 0.053399999
6.0314999 0.40380001 0.0502
6.0324998 0.94859999 0.050799999
5.9970999 0.67089999 0.0502
6.1675 1.2536 0.052299999
5.9187999 0.3962 -0.0493
5.9060001 0.92869997 -0.049699999
6.8109999 -0.45590001 -0.056699999
6.0198002 0.13420001 -0.050000001
6.0804 -0.1355 -0.1517
5.8102002 0.38890001 -0.1452
5.7943001 0.91109997 -0.1463
6.0776 1.5201 -0.15620001
5.9056001 0.13160001 -0.1473
5.8800001 1.1952 -0.1496
5.9582 -0.1328 -0.24779999
5.7138 0.89840001 -0.2405
5.9519 1.4887 -0.25510001
6.2405 -0.41769999 -0.26010001
5.8126998 0.1296 -0.24169999
5.6999998 0.6376 -0.2385
5.6626 0.37909999 -0.33050001
5.8311 1.4585 -0.35010001
6.1181002 -0.4095 -0.35710001
5.7407999 0.1279 -0.3344
5.6283002 0.62959999 -0.3299
5.6925001 1.1571 -0.33829999
6.5022001 -0.7274 -0.4903
5.8004999 -0.1292 -0.4348
5.5945001 0.37450001 -0.42019999
5.7487001 1.4378999 -0.44409999
5.6244001 1.1432 -0.43009999
5.7298002 -0.1277 -0.52539998
5.9303999 -0.39700001 -0.5449
5.5728998 1.1327 -0.52139997
5.6831002 -0.1266 -0.61659998
5.4713998 0.86040002 -0.60079998
5.6258998 1.4071 -0.62900001
5.8691001 -0.39289999 -0.63800001
5.5221 1.1224 -0.61119998
5.4267001 0.85329998 -0.68839997
6.3453002 2.2033 -0.84170002
5.8157001 -0.38929999 -0.73040003
5.5278001 0.1232 -0.6929
5.4253998 0.60689998 -0.68409997
5.4748998 1.1128 -0.7001
5.3987002 0.84890002 -0.7773
5.4861999 0.1223 -0.78049999
5.3923998 0.60320002 -0.77179998
6.0148001 -0.67290002 -0.96380001
5.401 0.36160001 -0.86199999
5.5068002 1.3774 -0.90390003
6.0953002 2.1164999 -1.0274
5.7256999 -0.38330001 -0.9138
5.4636998 0.1218 -0.87019998
5.4172001 1.1011 -0.88029999
5.6791 1.6926 -0.9436
5.9882002 -0.6699 -1.0625
5.4726 1.3688 -0.99470001
5.7023001 -0.38170001 -1.0077
5.3422999 0.59759998 -0.9479
5.9615998 -0.66689998 -1.1609
5.3249998 0.8373 -1.0431
5.4568 1.3649 -1.0885
5.4189 0.1208 -1.0489
5.3175001 0.59490001 -1.0354
5.3408999 0.35749999 -1.1285
5.4025002 0.1204 -1.1392
5.6117001 1.6725 -1.2345001
5.9429002 -0.66479999 -1.3649
5.3351002 0.3572 -1.2204
5.3099999 0.83499998 -1.2269
5.9938002 2.0813 -1.4482
5.6585002 -0.3788 -1.2944
5.3987999 0.1203 -1.2325
5.3003001 0.59289998 -1.2173001
5.3498998 1.0874 -1.2460001
5.5967999 1.6681 -1.3329999
5.4980998 -0.1225 -1.3518
5.3294001 0.35679999 -1.3128999
6.0626001 2.1052001 -1.5775
5.2946 0.5923 -1.3095
5.3404002 1.0855 -1.3395
5.9689999 -0.66769999 -1.5826
5.3235002 0.35640001 -1.4059
5.3021002 0.8337 -1.4143
5.3913002 0.1202 -1.4209
5.3467002 1.0868 -1.4377
6.0089998 -0.67220002 -1.7012
5.3136001 0.8355 -1.5134
5.6844001 -0.38049999 -1.6029
5.4004998 0.1204 -1.5197999
5.5314999 -0.1233 -1.6564
5.3464999 0.35789999 -1.6042
5.3252001 0.83740002 -1.6138
5.4172001 0.1207 -1.6222
5.3161998 0.59469998 -1.6015
5.3695002 1.0914 -1.6404001
5.6852999 1.6944 -1.7761
6.164 -0.68949997 -1.9698
5.5079999 1.3777 -1.8031
5.3295999 0.59619999 -1.7032
5.7467999 1.7127 -1.9044
6.4331999 -0.71960002 -2.1749001
5.3727999 0.8448 -1.8273
5.8056998 -0.38859999 -1.955
5.4594998 0.1217 -1.8348
5.3590002 0.5995 -1.8117
5.4299998 1.1037 -1.8617001
5.4240999 0.36309999 -1.9276
5.6101999 1.4032 -2.0506001
5.5036998 0.1227 -1.952
6.0271001 1.7963001 -2.23
5.7012 -0.12710001 -2.1294
5.4682999 0.36610001 -2.0465
5.4528999 0.8574 -2.0611999
6.0123 -0.4025 -2.2500999
5.5492001 0.1237 -2.0725999
5.5065999 0.616 -2.1747
5.6169 1.1417 -2.2495
5.6255002 0.3766 -2.3217001
5.6086998 0.88190001 -2.3378999
5.7354999 0.1278 -2.3624001
5.7406998 1.1668 -2.4122
5.9672999 0.39950001 -2.6986001
6.0513 0.9515 -2.7639999
