# .PCD v0.7 - Point Cloud Data file format
VERSION 0.7
FIELDS x y z
SIZE 4 4 4
TYPE F F F
COUNT 1 1 1
WIDTH 480
HEIGHT 1
VIEWPOINT 0 0 0 1 0 0 0
POINTS 480
DATA ascii
1.4456 -2.7832999 1.0537
1.5923001 -2.4942999 0.93980002
1.4521 -2.5151 0.92229998
1.1061 -2.6916001 0.87120003
1.2905999 -2.4848001 0.83819997
1.5197999 -2.3808 0.84560001
1.8549 -2.4033999 0.90890002
1.1941 -2.5732 0.84930003
1.3999 -2.4245999 0.83819997
1.2495 -2.4057 0.76270002
1.4744999 -2.3097 0.77100003
1.7632999 -2.2846999 0.81199998
1.3585 -2.3529 0.76440001
1.9929 -2.3571999 0.86849999
0.8714 -2.8092 0.77499998
1.2114 -2.3322001 0.6925
1.4321001 -2.2434001 0.70130002
1.7092 -2.2147 0.73720002
2.2275 -2.4082999 0.86440003
0.9472 -2.6329 0.73729998
1.1199 -2.4133999 0.70099998
1.3198 -2.2859001 0.69550002
1.1896 -2.2904 0.63440001
1.3994 -2.1921999 0.63929999
1.6588 -2.1494 0.6674
0.7701 -2.9393001 0.74690002
0.92189997 -2.5623 0.66930002
1.5166 -2.1573999 0.64819998
1.8282 -2.1624 0.69599998
0.9896 -2.4080999 0.59420002
1.1706001 -2.2537 0.57959998
1.3769 -2.1568 0.58399999
1.9722 -2.1322999 0.66289997
0.74059999 -2.8268001 0.667
0.90240002 -2.5083001 0.60839999
1.0801001 -2.3276 0.58569998
1.4918 -2.1222 0.59210002
1.7676001 -2.0906999 0.62489998
0.6444 -2.9988 0.64660001
1.1523 -2.2184999 0.52700001
1.3552001 -2.1229 0.53100002
1.5946 -2.0660999 0.55019999
1.9056 -2.0603001 0.59170002
0.884 -2.457 0.55049998
1.0618 -2.2881 0.53179997
0.62220001 -2.8954999 0.57309997
0.7852 -2.5311999 0.51289999
1.5691 -2.0332 0.49700001
1.8702 -2.0221 0.53299999
0.69859999 -2.6665001 0.5334
1.0441999 -2.2502 0.48010001
1.2339 -2.1372001 0.47760001
1.4452 -2.0558 0.48629999
0.60399997 -2.8106999 0.50690001
0.7694 -2.4802999 0.45789999
1.5447 -2.0014999 0.44580001
1.8365 -1.9856 0.47690001
2.3376999 -2.1143999 0.55580002
0.85149997 -2.3666 0.44350001
1.0273 -2.2138 0.4303
1.2154 -2.1050999 0.42860001
1.6725 -1.9782 0.45680001
2.026 -2.0035 0.50239998
0.58770001 -2.7351 0.44549999
0.93059999 -2.2644999 0.38980001
1.5211 -1.971 0.3964
1.8042001 -1.9507 0.42309999
2.2407999 -2.0267 0.48109999
0.5086 -3.0153999 0.4869
0.67269999 -2.5675001 0.4226
1.0163 -2.1900001 0.3845
1.9808 -1.9588 0.4436
0.92150003 -2.2423 0.3448
1.2845 -2.0121 0.33950001
1.7732 -1.9171 0.3714
0.48969999 -2.9029 0.41870001
0.83410001 -2.3183 0.3504
1.3877 -1.974 0.3432
1.9447 -1.9232 0.389
0.91259998 -2.2205999 0.30090001
1.2732 -1.9944 0.2965
1.4877 -1.9277 0.30509999
0.48120001 -2.8527999 0.3626
0.65640002 -2.5053 0.32460001
0.82590002 -2.2955999 0.3057
1.6043 -1.8976001 0.3114
2.5156 -2.0792 0.40900001
0.55970001 -2.6046 0.289
0.73250002 -2.3613 0.26820001
0.90390003 -2.1995001 0.2579
1.077 -2.0734999 0.2534
1.4747 -1.9108 0.26179999
1.7276 -1.8679 0.27599999
0.47310001 -2.8046 0.30849999
0.8179 -2.2732999 0.26210001
0.98750001 -2.128 0.2545
1.3638 -1.9401 0.2572
1.59 -1.8806 0.26710001
1.882 -1.8612 0.28709999
2.4217 -2.0016 0.34079999
0.37670001 -3.0583999 0.2825
0.89539999 -2.1788001 0.21600001
1.0678 -2.0558 0.2124
1.7113 -1.8502001 0.23100001
0.46520001 -2.7581999 0.25639999
0.64099997 -2.4466 0.23190001
0.97829998 -2.1083 0.2131
1.1593 -2.0079999 0.21259999
1.3523 -1.9236 0.2156
2.3348 -1.9298 0.27770001
0.3664 -2.9746001 0.2246
0.54509997 -2.5364001 0.1944
0.71609998 -2.3085999 0.1811
0.88709998 -2.1586001 0.1749
1.2407 -1.9436001 0.1728
0.6336 -2.4184 0.1873
0.80239999 -2.2304001 0.1776
0.96939999 -2.0889001 0.1726
1.341 -1.9075 0.17470001
1.5623 -1.8479 0.1813
2.2648001 -1.8719 0.2202
0.35659999 -2.8954999 0.1699
0.70829999 -2.2832 0.1392
0.87889999 -2.1387 0.1347
1.2304 -1.9273 0.1332
1.4373 -1.8624001 0.13699999
2.0055001 -1.8139 0.1575
0.45039999 -2.6702001 0.1577
1.1399 -1.9744 0.1328
1.8276 -1.8074 0.1497
2.2349 -1.8472 0.1689
0.3502 -2.8434999 0.1191
0.53500003 -2.4895999 0.1059
1.2201999 -1.9112999 0.094300002
2.6119001 -1.9697 0.13600001
0.44589999 -2.6435001 0.1115
0.62230003 -2.3752999 0.1021
0.79030001 -2.1966 0.097099997
1.1305 -1.9581 0.093999997
1.8103 -1.7902 0.1059
2.2076001 -1.8247 0.1191
0.53149998 -2.4735 0.063100003
0.70069999 -2.2588999 0.059
0.8689 -2.1143999 0.057
1.0376 -1.9977 0.0561
1.2132 -1.9005001 0.056200001
1.6492 -1.7831 0.060600001
1.9604 -1.7731 0.065899998
2.5344999 -1.9112999 0.0792
0.25099999 -3.2121999 0.080399998
0.78619999 -2.1854 0.0579
1.5228 -1.8012 0.058800001
2.1810999 -1.8027 0.070600003
0.34380001 -2.7916999 0.023399999
0.69709998 -2.2472999 0.0196
1.4071 -1.8232 0.019099999
2.4893 -1.8772 0.025900001
0.24519999 -3.1372001 0.0262
0.43830001 -2.5983 0.0219
0.6146 -2.3459001 0.020199999
0.7823 -2.1744001 0.019200001
0.94550002 -2.0374 0.0187
1.3044 -1.8555 0.0189
1.7766 -1.7569 0.0208
0.3407 -2.7665 -0.0232
0.6936 -2.2358 -0.0195
0.86040002 -2.0934999 -0.0188
1.0285 -1.9802001 -0.0185
1.6276 -1.7596999 -0.0199
1.9174 -1.7342 -0.021500001
0.24150001 -3.0903001 -0.025800001
0.4346 -2.5762999 -0.0217
0.61080003 -2.3313999 -0.02
0.94129997 -2.0285001 -0.0186
1.1155 -1.9321001 -0.0185
1.7644 -1.7448 -0.0206
2.1299 -1.7604001 -0.023
0.33770001 -2.7416999 -0.068899997
0.52139997 -2.4263999 -0.061900001
0.85610002 -2.0832 -0.056200001
1.1974 -1.8756 -0.055500001
1.3953 -1.8079 -0.057
1.6207 -1.7522 -0.059500001
2.4036 -1.8126 -0.075099997
0.60710001 -2.3171 -0.059700001
0.93720001 -2.0195999 -0.055500001
1.7566 -1.7371 -0.0616
2.1078999 -1.7422 -0.0682
0.33469999 -2.7174001 -0.1138
1.6138 -1.7448 -0.098800004
2.3701 -1.7873 -0.1234
0.42739999 -2.5334001 -0.1068
0.60339999 -2.303 -0.098999999
0.93309999 -2.0107999 -0.092200004
1.2883 -1.8326 -0.093099996
1.4938999 -1.767 -0.096199997
1.7489001 -1.7295001 -0.1023
2.0973001 -1.7335 -0.1131
1.0152 -1.9545 -0.1283
1.187 -1.8594 -0.1285
1.8895 -1.709 -0.14839999
0.23109999 -2.9576001 -0.1728
0.42379999 -2.5125 -0.14839999
0.76679999 -2.1314001 -0.1319
1.4876 -1.7595 -0.13420001
0.67970002 -2.191 -0.1719
0.84359998 -2.0529001 -0.1663
1.1818 -1.8513 -0.1646
1.6001 -1.7301 -0.17659999
1.8807 -1.701 -0.19
0.59609997 -2.2753 -0.1763
1.0963 -1.8988 -0.16429999
1.2778 -1.8177 -0.1665
1.7336 -1.7144001 -0.18269999
2.0764999 -1.7162 -0.20190001
0.32890001 -2.6702001 -0.2466
1.1767 -1.8433 -0.2005
1.3722 -1.778 -0.2059
1.5934 -1.7227 -0.21510001
1.8719 -1.693 -0.2314
0.22840001 -2.9233999 -0.26879999
0.42039999 -2.4921 -0.2317
0.5941 -2.2676001 -0.2149
0.75929999 -2.1106 -0.20559999
0.92110002 -1.9848 -0.2006
1.726 -1.7069 -0.2225
2.0662 -1.7077 -0.2457
0.50950003 -2.3708999 -0.26300001
1.1717 -1.8354 -0.2362
1.5867 -1.7155 -0.25350001
1.8631001 -1.6851 -0.27250001
2.3118999 -1.7435 -0.3141
0.59289998 -2.2632 -0.2538
0.91839999 -1.9791 -0.2366
1.4687999 -1.7373 -0.24680001
1.7185 -1.6993999 -0.26210001
0.50849998 -2.3662 -0.30329999
0.67510003 -2.1761999 -0.28549999
0.83639997 -2.0352001 -0.2757
1.1688 -1.8309 -0.27219999
1.8545001 -1.6772 -0.31330001
2.2976999 -1.7328 -0.36059999
0.75709999 -2.1045001 -0.28029999
1.4626 -1.73 -0.28389999
0.32609999 -2.6473 -0.37940001
0.50749999 -2.3613999 -0.34349999
0.67409998 -2.1729 -0.32359999
1.0003999 -1.9261 -0.3087
1.3599 -1.7621 -0.31659999
1.5764 -1.7043999 -0.33019999
1.8458 -1.6694 -0.354
2.2836001 -1.7221 -0.4068
0.59069997 -2.2544999 -0.33149999
0.75599998 -2.1013999 -0.3177
0.91640002 -1.9748 -0.30970001
1.084 -1.8775001 -0.30840001
1.4603 -1.7273 -0.32170001
0.3251 -2.6396999 -0.4235
0.50639999 -2.3566999 -0.3838
1.1667 -1.8276 -0.34529999
1.359 -1.7609 -0.35420001
1.576 -1.704 -0.3696
1.8467 -1.6702 -0.39649999
2.2778001 -1.7178 -0.45429999
0.41690001 -2.4714 -0.39910001
0.91540003 -1.9727 -0.34630001
1.2616 -1.7947 -0.3493
1.4593 -1.726 -0.3599
2.0335 -1.6808 -0.4201
0.67199999 -2.1665001 -0.40000001
1.1659 -1.8263 -0.38209999
2.2836001 -1.7221 -0.5043
0.2234 -2.8587999 -0.50559998
0.41600001 -2.4662001 -0.44100001
0.58840001 -2.2456999 -0.40939999
0.9145 -1.9706 -0.3831
1.0817 -1.8735 -0.38150001
1.4582 -1.7247 -0.39820001
1.7043 -1.6854 -0.4226
0.671 -2.1631999 -0.43830001
0.83160001 -2.0235 -0.42340001
1.1651 -1.825 -0.419
1.5753 -1.7031 -0.449
0.91350001 -1.9684 -0.4199
1.4571 -1.7235 -0.43669999
1.7039 -1.6849999 -0.4637
2.036 -1.6828001 -0.51120001
0.50330001 -2.3424001 -0.50510001
0.67000002 -2.1600001 -0.47679999
0.83039999 -2.0206001 -0.4605
1.1641999 -1.8237 -0.45609999
1.5749 -1.7028 -0.48899999
1.8499 -1.6732 -0.52590001
0.2251 -2.8800001 -0.60900003
0.58609998 -2.237 -0.48750001
0.75160003 -2.0890999 -0.46810001
0.91250002 -1.9663 -0.45699999
1.0793 -1.8694 -0.4551
1.456 -1.7222 -0.4754
1.7034 -1.6846 -0.50510001
0.50340003 -2.3422999 -0.54680002
0.995 -1.9157 -0.49270001
1.1634001 -1.8225 -0.49349999
1.851 -1.6741 -0.56959999
2.3015001 -1.7357 -0.65789998
0.4154 -2.4628999 -0.57010001
0.58490002 -2.2325001 -0.52679998
0.91149998 -1.9641 -0.49419999
1.258 -1.7896 -0.4993
0.32609999 -2.6475 -0.65570003
0.50459999 -2.3482001 -0.59039998
0.66890001 -2.1564 -0.55489999
0.9939 -1.9136 -0.52999997
1.354 -1.7545 -0.54470003
1.5741 -1.7019 -0.56980002
1.8521 -1.6751 -0.61379999
0.4165 -2.4693999 -0.61549997
1.2571 -1.7882 -0.53729999
1.4539 -1.7196 -0.5535
1.7026 -1.6837 -0.58859998
2.0399001 -1.686 -0.6505
0.3272 -2.6566 -0.70529997
0.50590003 -2.3541999 -0.63450003
0.67049998 -2.1612999 -0.59630001
0.82810003 -2.0151 -0.57410002
0.9928 -1.9114 -0.5675
1.353 -1.7532001 -0.58350003
1.8532 -1.6762 -0.6584
2.3139 -1.745 -0.76370001
0.41760001 -2.4758999 -0.66159999
0.90979999 -1.9605 -0.56950003
1.0757 -1.8631999 -0.56690001
1.2562 -1.7869 -0.57560003
1.4529999 -1.7186 -0.59299999
0.5072 -2.3601999 -0.67919999
0.82999998 -2.0197001 -0.61440003
1.5733 -1.7011 -0.65189999
1.8544 -1.6772 -0.70349997
0.2304 -2.9488001 -0.83219999
0.4188 -2.4825001 -0.70829999
0.58880001 -2.2474999 -0.65369999
0.912 -1.9654 -0.60960001
1.0765001 -1.8645999 -0.60579997
1.2558 -1.7862999 -0.61440003
1.4526 -1.7182 -0.63300002
2.0444 -1.6897 -0.74620003
0.32949999 -2.6752 -0.80699998
0.50849998 -2.3663001 -0.72460002
0.8319 -2.0243001 -0.6552
1.3559999 -1.757 -0.6645
1.5789 -1.7071 -0.69620001
2.3622 -1.7814 -0.8858
0.4199 -2.4892001 -0.75569999
0.59030002 -2.2530999 -0.69730002
0.75419998 -2.0964 -0.667
1.0792 -1.8692 -0.6462
1.2596 -1.7917 -0.65570003
1.4577 -1.7242 -0.676
1.7081 -1.6892 -0.71920002
0.50980002 -2.3724999 -0.77069998
0.67519999 -2.1767001 -0.7238
0.83380002 -2.0288999 -0.69669998
0.99949998 -1.9243 -0.6886
1.1691 -1.8313 -0.69
1.3602 -1.7625 -0.70700002
2.4035001 -1.8126 -0.95599997
0.2385 -3.0518 -0.97210002
0.421 -2.4960001 -0.8039
1.0819 -1.8738 -0.68720001
0.83579999 -2.0337 -0.73869997
1.1727 -1.837 -0.73220003
1.5926 -1.7219 -0.78799999
1.8917 -1.7108999 -0.85699999
0.2485 -3.1802001 -1.0717
0.59329998 -2.2646 -0.78649998
0.75779998 -2.1063001 -0.75209999
0.91890001 -1.9802001 -0.7335
1.47 -1.7387 -0.76499999
1.7234 -1.7043 -0.8143
0.33899999 -2.7521999 -0.98329997
0.5126 -2.3852 -0.86510003
0.6785 -2.1874001 -0.81209999
0.83770001 -2.0385001 -0.78149998
1.0046 -1.9341 -0.77280003
2.5901 -1.9533 -1.1503
0.42570001 -2.5237 -0.90750003
0.5948 -2.2704 -0.83219999
0.92129999 -1.9854 -0.77609998
1.4763 -1.7460999 -0.81080002
1.7313 -1.7121 -0.86339998
2.1224999 -1.7543 -0.97640002
0.34349999 -2.7886 -1.0492001
1.0072 -1.9392 -0.81599998
1.1801 -1.8485 -0.81889999
1.9183 -1.735 -0.96579999
0.43090001 -2.5545001 -0.96740001
0.59689999 -2.2781999 -0.87940001
1.4827 -1.7537 -0.85750002
0.3486 -2.8303001 -1.1192
0.5219 -2.4286001 -0.97490001
0.68379998 -2.2042 -0.90579998
0.84179997 -2.0483999 -0.86919999
1.0099 -1.9443001 -0.8599
1.1838 -1.8545001 -0.8635
0.60219997 -2.2986 -0.93260002
0.76340002 -2.1217999 -0.88499999
1.0931 -1.8933001 -0.85799998
1.2796 -1.8202 -0.8732
1.7515 -1.7321 -0.96679997
2.1801 -1.8019 -1.11
0.35789999 -2.9058001 -1.2056
0.68919998 -2.2219 -0.95789999
0.84570003 -2.0579 -0.91619998
1.6216 -1.7533 -0.98339999
0.76910001 -2.1375999 -0.93550003
0.9289 -2.0016999 -0.90869999
1.2838 -1.8262 -0.9192
2.2449 -1.8554 -1.1993001
0.69489998 -2.2400999 -1.0117
0.85229999 -2.0741 -0.9673
1.9851 -1.7954 -1.1545
0.44769999 -2.6543 -1.1611
1.2898999 -1.8349 -0.96749997
1.5062 -1.7815 -1.0063
1.7894 -1.7695 -1.0855
0.70069999 -2.2588999 -1.0671999
1.4014 -1.8158 -1.035
1.6539 -1.7882 -1.0991
0.61919999 -2.3636 -1.1025
0.7816 -2.1724 -1.0417
0.9436 -2.0334001 -1.0115
1.1102999 -1.9231 -1.0019
1.3013 -1.8511 -1.021
1.5229 -1.8013 -1.0644
1.8185 -1.7984 -1.154
0.54540002 -2.5381999 -1.2237
1.215 -1.9032 -1.0644
1.416 -1.8347 -1.0925
1.6734999 -1.8092999 -1.1617
0.7881 -2.1905999 -1.0974
0.95130002 -2.0501001 -1.0653
1.1193 -1.9385999 -1.0552
1.3131 -1.8679 -1.0763
1.5404 -1.8219 -1.1246001
1.8492 -1.8286999 -1.2259001
0.87360001 -2.1257999 -1.1303999
1.2262 -1.9208 -1.1208
1.4321001 -1.8557 -1.1529
1.6949 -1.8325 -1.2277
2.1637001 -1.957 -1.4349
0.63489997 -2.4233 -1.2322
0.95929998 -2.0671999 -1.1209
1.1295 -1.9563 -1.1111
1.8814 -1.8605 -1.3013999
0.5747 -2.6743 -1.4023
0.72399998 -2.3340001 -1.2528
0.88120002 -2.1442001 -1.1885
1.2377 -1.9389 -1.1793
1.7237 -1.8636 -1.3013999
0.64920002 -2.4779999 -1.3133
0.96749997 -2.085 -1.1784
1.1401 -1.9746 -1.1689
1.9171 -1.8958 -1.3822
0.73820001 -2.3796 -1.3301001
0.89279997 -2.1724 -1.2538
1.2498 -1.9577 -1.2399
1.4664 -1.9001 -1.2812999
1.7668 -1.9102 -1.3890001
0.81730002 -2.2716999 -1.2888
0.977 -2.1052999 -1.239
1.151 -1.9936 -1.2289
1.5969 -1.8888 -1.3204
0.75319999 -2.428 -1.4119
0.90969998 -2.2135999 -1.3292
1.0797 -2.0788 -1.301
1.8319 -1.9806 -1.4984
1.1002001 -2.1182001 -1.3781
1.5355 -1.9895 -1.451
0.85039997 -2.3636999 -1.4503
1.4017 -1.994 -1.4072
