# .PCD v0.7 - Point Cloud Data file format
VERSION 0.7
FIELDS x y z
SIZE 4 4 4
TYPE F F F
COUNT 1 1 1
WIDTH 271
HEIGHT 1
VIEWPOINT 0 0 0 1 0 0 0
POINTS 271
DATA ascii
4.6417999 -1.3834 0.77130002
4.2962999 -1.2804 0.63770002
4.5658002 -0.92799997 0.6627
4.1455002 -1.6499 0.55909997
4.3329 -0.88069999 0.55409998
4.1011 -1.424 0.54400003
4.6148 -0.7256 0.58539999
3.9899001 -1.5879 0.46579999
4.1887002 -0.85140002 0.46360001
4.8197999 -0.53920001 0.52600002
4.0816002 -1.0209 0.45640001
4.3683 -0.68690002 0.47960001
3.8899 -1.5481 0.3838
3.9252 -1.1698 0.37549999
4.0872998 -0.8308 0.38240001
3.9460001 -1.778 0.39680001
3.9842999 -0.99650002 0.37650001
4.2459998 -0.66769999 0.39399999
3.8002999 -1.5125 0.30649999
3.8411 -1.1447001 0.30039999
4.3463001 -0.4862 0.32769999
3.8441999 -1.7321 0.31600001
3.8032999 -1.3206 0.3017
3.8964 -0.97460002 0.301
4.1306 -0.64950001 0.3134
3.7372999 -1.4874001 0.2343
3.7864001 -1.1284 0.23010001
3.9326999 -0.79939997 0.23370001
4.2280998 -0.47299999 0.24779999
4.0688 -2.2890999 0.2719
3.7613001 -1.6948 0.2403
4.0549002 -0.6376 0.23909999
4.5360999 -0.3037 0.26480001
3.7571001 -1.8985 0.175
3.6833999 -1.4658999 0.1648
3.8743999 -0.78750002 0.1644
4.1420999 -0.46340001 0.1733
3.9021001 -2.1953001 0.18619999
3.7019999 -1.668 0.1688
3.6945 -1.2829 0.1626
3.7835 -0.94630003 0.1622
3.9870999 -0.62699997 0.16779999
3.6877999 -1.8635 0.103
3.6312001 -1.4452 0.097499996
3.6817999 -1.0973001 0.095799997
3.8178999 -0.77600002 0.097199999
3.6427 -1.2649 0.096199997
3.7312 -0.93330002 0.095899999
4.3011999 -0.2879 0.1075
4.0040002 -0.4479 0.033500001
4.5746999 -0.102 0.037999999
3.723 -2.0945001 0.035500001
3.5934 -1.2478 0.031599998
3.6844001 -0.92150003 0.031599998
3.8615 -0.60720003 0.032499999
3.8515 -2.3987 -0.037700001
3.572 -1.8049999 -0.033300001
3.5460999 -1.4112999 -0.0317
3.6026001 -1.0737 -0.031199999
3.961 -0.44310001 -0.033100002
4.4489002 -0.099100001 -0.037
3.5471001 -1.5983 -0.032299999
3.5617001 -1.2368 -0.031300001
3.6521001 -0.91350001 -0.031300001
3.8218 -0.60100001 -0.032200001
4.1472001 -0.27759999 -0.034499999
3.7625 -2.3433001 -0.1105
3.5371001 -1.7874 -0.098800004
3.5146999 -1.3988 -0.094300002
3.5713 -1.0644 -0.092900001
4.3692999 -0.0973 -0.109
3.6083 -2.03 -0.1032
3.5135 -1.5831 -0.096100003
3.6204 -0.90549999 -0.093099996
4.0942001 -0.27410001 -0.1023
3.7066 -2.3085001 -0.1816
3.5028999 -1.7701 -0.16320001
3.8787999 -0.4339 -0.16230001
4.2925 -0.095700003 -0.1785
3.5676 -2.0071001 -0.17020001
3.7502 -0.58969998 -0.1578
4.0425 -0.27059999 -0.16850001
3.6522999 -2.2746 -0.25060001
3.4693 -1.7531 -0.2264
3.6313 -0.73809999 -0.2158
3.839 -0.42950001 -0.22499999
4.2182002 -0.093999997 -0.2457
3.5276999 -1.9847 -0.2357
3.5583999 -0.88999999 -0.21359999
3.7158999 -0.58429998 -0.2191
3.9920001 -0.26719999 -0.233
3.5994 -2.2416999 -0.31779999
3.4363 -1.7365 -0.28850001
3.4237001 -1.3626 -0.27610001
3.4826 -1.0379 -0.2723
3.6029 -0.73229998 -0.2755
3.8051 -0.42570001 -0.28690001
4.1655002 -0.092799999 -0.31220001
3.4412 -1.1949 -0.273
3.5313001 -0.88319999 -0.2728
3.6868999 -0.57969999 -0.27970001
3.9488001 -0.26429999 -0.29660001
3.5506001 -2.2112999 -0.38350001
3.4129 -1.7246 -0.3506
3.5843 -0.72860003 -0.3353
3.783 -0.42320001 -0.34900001
4.1353998 -0.092200004 -0.37920001
3.3959999 -1.5301 -0.34150001
3.5141001 -0.87889999 -0.3321
3.5256 -2.1956999 -0.45050001
3.5659001 -0.72479999 -0.39469999
3.4375 -1.9339 -0.4278
3.408 -1.1834 -0.39129999
3.6485 -0.57370001 -0.40059999
3.3773999 -1.7067 -0.47420001
3.4319 -1.0228 -0.4488
3.5476 -0.72109997 -0.45370001
3.4175999 -1.9227 -0.4914
3.3915 -1.1777 -0.4499
3.4798999 -0.87040001 -0.44949999
3.6294999 -0.57069999 -0.46039999
3.8715999 -0.25920001 -0.48629999
4.4018998 0.098099999 -0.55180001
3.3598001 -1.6978 -0.53539997
3.4152 -1.0178 -0.50690001
3.7177999 -0.41589999 -0.53210002
3.3445001 -1.507 -0.52179998
3.3750999 -1.1720001 -0.50819999
3.6106 -0.56770003 -0.51990002
4.3593998 0.097099997 -0.62019998
3.4521 -2.1500001 -0.6476
3.3422999 -1.689 -0.59630001
3.3401999 -1.3293999 -0.57249999
4.0237002 -0.089599997 -0.64090002
3.3783 -1.9006 -0.61720002
3.3589001 -1.1663001 -0.56620002
3.4460001 -0.86189997 -0.56559998
4.3297 0.096500002 -0.68959999
3.5021999 -0.7119 -0.63020003
3.6893001 -0.4127 -0.65460002
3.3629999 -1.892 -0.68040001
3.3148999 -1.4936 -0.64109999
3.4363999 -0.85949999 -0.62459999
3.5836999 -0.56349999 -0.6397
3.8202 -0.25569999 -0.67510003
4.3199 0.096299998 -0.76190001
3.3241 -1.6797 -0.72070003
3.3826001 -1.0081 -0.68300003
3.4960999 -0.71060002 -0.6904
3.6278999 -2.4904001 -0.85149997
3.3591001 -1.8898 -0.74580002
3.3104 -1.4916 -0.7026
3.3427999 -1.1607 -0.68480003
3.5774 -0.5625 -0.7008
3.8129001 -0.25529999 -0.73949999
4.3101001 0.096100003 -0.83429998
3.4287 -2.1354001 -0.85159999
3.3194001 -1.6774 -0.7841
3.49 -0.7094 -0.75080001
3.6754999 -0.41119999 -0.77969998
3.6303999 -2.4921 -0.92830002
3.3552001 -1.8875999 -0.81160003
3.4252 -0.8567 -0.74430001
3.4263999 -2.1340001 -0.92129999
3.3146999 -1.675 -0.8477
3.3131001 -1.3186001 -0.81389999
3.4839001 -0.70810002 -0.8114
3.6684999 -0.4104 -0.84249997
3.9902999 -0.0889 -0.91100001
3.3327 -1.1572 -0.80519998
3.4196 -0.85530001 -0.80449998
3.5648 -0.56050003 -0.82359999
3.7981 -0.25420001 -0.86879998
4.2904 0.095600002 -0.9795
3.3080001 -1.3164999 -0.87510002
3.3659 -1.0032001 -0.86330003
3.4777999 -0.7069 -0.87230003
3.6616001 -0.40959999 -0.90560001
3.3473001 -1.8831 -0.94400001
3.2967 -1.4854 -0.88880002
3.4138999 -0.85390002 -0.86500001
3.5583999 -0.55949998 -0.8854
4.3039999 0.095899999 -1.0582
3.4284 -2.1352 -1.0642999
3.3604 -1.0015 -0.92390001
3.6670001 -2.5172 -1.1720001
3.2921 -1.4833 -0.9515
3.4082 -0.85250002 -0.92570001
3.556 -0.55919999 -0.94849998
4.3284001 0.096500002 -1.1408
3.4796 -0.70719999 -0.99900001
4.0131998 -0.089400001 -1.1294
3.2983999 -1.4862 -1.0179
3.414 -0.85390002 -0.99010003
4.3534002 0.097000003 -1.2252001
3.4719999 -2.1624 -1.2246
3.3141 -1.319 -1.0678999
3.6800001 -0.41170001 -1.1086
4.0268998 -0.089699998 -1.2059
3.7814 -2.5957999 -1.3731
3.3336999 -1.1576 -1.0565
3.5697999 -0.56129998 -1.0819
3.3311 -1.6833 -1.1853
3.3211 -1.3218 -1.1352
3.6886001 -0.41260001 -1.1788
3.3836 -1.9036 -1.233
3.4268 -0.85710001 -1.1217999
3.5768001 -0.56239998 -1.1499
3.8262999 -0.2561 -1.2179
4.5144 0.1006 -1.4341
3.3282001 -1.3246 -1.2035
3.4998 -0.71139997 -1.1999
4.0741 -0.090800002 -1.3692
3.5839 -0.5636 -1.2189
3.8406999 -0.25709999 -1.2933
3.5723 -2.2248001 -1.4922
3.5069001 -0.71280003 -1.2689
4.1392002 -0.092200004 -1.4681
3.3341 -1.5023 -1.2967
3.5957999 -0.5654 -1.2907
3.8801 -0.2597 -1.3789001
3.6494 -2.2729001 -1.6054
3.408 -1.0157 -1.3279001
3.7488 -0.41940001 -1.4086
3.3585999 -1.5132999 -1.3756
3.4595001 -0.8653 -1.3316
3.9208 -0.26249999 -1.4673001
3.4157 -1.726 -1.502
3.3778999 -1.3444 -1.4269
3.5550001 -0.72259998 -1.4238
4.2939 -0.095700003 -1.6856
3.3861001 -1.5257 -1.4576
3.3965001 -1.1794 -1.4111
3.4823999 -0.87099999 -1.4088
3.6459 -0.5733 -1.4485
3.4535 -1.0292 -1.4839
3.5799999 -0.7277 -1.5043
3.8110001 -0.42629999 -1.5791
4.5734 -0.1019 -1.8837
3.5538001 -1.9993 -1.6791
3.6719999 -0.57740003 -1.5306
3.8659 -0.4325 -1.678
3.6609001 -2.0596001 -1.8119
3.4439001 -1.5517 -1.6294
4.1124001 -0.2753 -1.7779
3.5789001 -1.8085001 -1.8092999
3.5151 -1.0476 -1.655
3.6561 -0.74309999 -1.6834
3.8394001 -2.1600001 -1.9878
3.4849 -1.2101001 -1.6646
3.5713 -0.8933 -1.6611
3.7677 -0.59240001 -1.7209001
4.2451 -0.28420001 -1.9198
3.5658 -1.0627 -1.7539001
4.0240002 -0.45019999 -1.9086
3.5376 -1.2284 -1.7652
3.6231 -0.90619999 -1.7604001
3.8343999 -0.60290003 -1.8296
3.9243 -1.983 -2.1626
4.2202001 -0.47209999 -2.0887001
3.6477001 -1.6436 -1.9679
3.928 -0.61769998 -1.9558001
3.7091 -1.4762 -2.0466001
3.7038 -1.1038001 -1.9814
3.8864999 -0.79000002 -2.0332
3.8239999 -1.723 -2.1503
3.7695999 -0.9429 -1.9921
4.0776 -0.64120001 -2.1161001
3.8794 -1.544 -2.2290001
3.8185999 -1.1381 -2.1271
4.0913 -1.2193 -2.3710999
