# .PCD v0.7 - Point Cloud Data file format
VERSION 0.7
FIELDS x y z
SIZE 4 4 4
TYPE F F F
COUNT 1 1 1
WIDTH 385
HEIGHT 1
VIEWPOINT 0 0 0 1 0 0 0
POINTS 385
DATA ascii
-1.3805 -3.1573999 1.419
-1.0698 -3.1953001 1.3875999
-0.84280002 -3.5362999 1.497
-1.7763 -3.2413001 1.4506
-1.3108 -2.9979999 1.2842
-0.77880001 -3.2679 1.3185
-0.99519998 -2.9725001 1.1705
-0.74620003 -3.1312001 1.202
-0.72899997 -3.0592 1.1151
-0.495 -3.3938999 1.2162
-1.3884 -2.8253 1.1162
-0.84820002 -2.9665 1.094
-0.6099 -3.1819 1.1488
-1.5289 -2.7897999 1.0689
-0.9501 -2.8378 1.0055
-0.71289998 -2.9913001 1.0332
-1.7277 -2.8443 1.1181
-1.3618 -2.7711 1.0374
-0.82969999 -2.9017999 1.0140001
-0.59579998 -3.1082001 1.0633
-1.9517 -2.9122 1.1134
-1.4971 -2.7319 0.98930001
-1.6902 -2.7825 1.0339
-1.3401 -2.7270999 0.96499997
-0.81709999 -2.8576 0.94389999
-0.34299999 -3.4094999 1.0883
-1.8871 -2.8158 1.0148
-1.1765 -2.6908 0.87919998
-0.45410001 -3.1136 0.94199997
-0.57190001 -2.9833 0.90939999
-0.9138 -2.7293999 0.80980003
-0.44639999 -3.0608001 0.87029999
-1.6209 -2.6684 0.87840003
-0.79799998 -2.7908001 0.81669998
-0.56510001 -2.9481001 0.84460002
-0.32530001 -3.2334001 0.91430002
-1.4298 -2.6091001 0.78399998
-1.1477 -2.6249001 0.75489998
-0.4411 -3.0244 0.80540001
-0.19050001 -3.4168999 0.90170002
-2.059 -2.7945001 0.91460001
-1.0242 -2.6594 0.75089997
-0.78890002 -2.7588999 0.7561
-0.31889999 -3.1705999 0.83969998
-1.7678 -2.6378 0.78049999
-1.1398 -2.6068001 0.69929999
-0.89340001 -2.6686001 0.69169998
-0.43599999 -2.9892001 0.74250001
-0.185 -3.3180001 0.8168
-2.0183001 -2.7392001 0.83630002
-1.5766 -2.5955 0.74650002
-1.2721 -2.5887001 0.70899999
-1.0158 -2.6373999 0.6947
-0.78009999 -2.7281001 0.69739997
-0.31490001 -3.1299 0.77319998
-1.7471 -2.6068001 0.71630001
-0.88819999 -2.6529 0.63849998
-0.65930003 -2.7665 0.64910001
-0.43099999 -2.9549999 0.68159997
-1.9815 -2.6893001 0.76239997
-1.2616 -2.5673001 0.65289998
-0.54610002 -2.8492 0.66210002
-0.0405 -3.6338 0.8294
-2.2979 -2.8441 0.77079999
-1.7269 -2.5767 0.65390003
-1.1245 -2.5718 0.59179997
-0.65539998 -2.7502 0.59600002
-1.9463 -2.6415 0.69169998
-1.5434 -2.5408001 0.62669998
-1.2513 -2.5462999 0.59810001
-1.0022 -2.6022 0.58789998
-0.54170001 -2.8259001 0.60659999
-0.039099999 -3.5125999 0.74059999
-1.7074 -2.5476 0.59350002
-0.87800002 -2.6224 0.5352
-0.6516 -2.7342 0.54390001
-0.1776 -3.1854999 0.61739999
-1.5304 -2.5193999 0.57050002
-1.2413 -2.5258999 0.54460001
-0.99559999 -2.5850999 0.53609997
-0.76560003 -2.6777 0.53890002
-0.30329999 -3.0153999 0.58649999
-0.0385 -3.4549 0.66860002
-1.6884 -2.5193 0.53469998
-1.3712 -2.5021 0.50309998
-1.1098 -2.5381999 0.4885
-0.64780003 -2.7184999 0.4928
-0.42070001 -2.885 0.51410002
-0.1754 -3.1457 0.55549997
-1.2323999 -2.5079 0.49270001
-0.9892 -2.5683999 0.4853
-0.76130003 -2.6624 0.4883
-0.30129999 -2.9951 0.53079998
-2.1419001 -2.6510999 0.54269999
-1.6785001 -2.5046 0.48010001
-1.363 -2.4872 0.45159999
-1.1027 -2.5218999 0.43830001
-0.41850001 -2.8692 0.46169999
-0.1741 -3.1229 0.49810001
0.1345 -4.0222998 0.64090002
-1.2252001 -2.4932001 0.44240001
-0.53289998 -2.7804 0.4508
-0.29960001 -2.9786 0.47670001
-0.037300002 -3.3461001 0.53289998
-2.1222 -2.6268001 0.48030001
-1.0987999 -2.513 0.3901
-0.86330003 -2.5787001 0.38679999
-1.8644 -2.5302999 0.447
-1.5046999 -2.4770999 0.41229999
-1.222 -2.4865999 0.39410001
-0.75279999 -2.6327 0.38949999
-0.29800001 -2.9624 0.4235
-0.036899999 -3.3099 0.47080001
-2.1029999 -2.6029 0.41929999
-1.3532 -2.4693 0.3529
-1.0959001 -2.5065 0.34279999
0.1219 -3.6447999 0.45699999
-2.5446999 -2.8773999 0.48140001
-1.854 -2.5162001 0.3917
-1.4992 -2.4679999 0.3619
-0.97530001 -2.5323999 0.34009999
-0.74940002 -2.6206999 0.3416
-0.52740002 -2.7513001 0.3511
-0.29640001 -2.9463999 0.37110001
-0.036600001 -3.2887001 0.41209999
-2.0841999 -2.5796001 0.35969999
-1.3484 -2.4605 0.30430001
-1.0931 -2.5000999 0.296
-0.85960001 -2.5674 0.29370001
-0.4118 -2.8234 0.30950001
-0.17120001 -3.0704999 0.33360001
0.1205 -3.6038001 0.39109999
-2.4809 -2.8053 0.40619999
-0.97289997 -2.526 0.29359999
-0.52469999 -2.7375 0.30230001
-2.0658 -2.5567999 0.30129999
-1.3436 -2.4518001 0.2563
-1.0904 -2.4937 0.24950001
-0.4102 -2.8124001 0.2606
-0.17030001 -3.0534999 0.28040001
0.1194 -3.5720999 0.32769999
-1.8336999 -2.4886999 0.2834
-1.2125 -2.4674001 0.252
-0.97039998 -2.5195999 0.2475
-0.74659997 -2.6110001 0.249
-2.0481 -2.5349 0.24420001
-1.6346999 -2.4391999 0.2201
-1.0876 -2.4874001 0.2034
-0.85640001 -2.5580001 0.2022
-0.40959999 -2.8087001 0.21269999
-0.1693 -3.0367 0.2279
-2.4008 -2.7147 0.27160001
-1.4829 -2.4412 0.2141
-1.2094001 -2.4611001 0.20550001
-0.74519998 -2.6062 0.2031
-0.035999998 -3.2270999 0.2419
-0.63200003 -2.6519001 0.15880001
-0.169 -3.0309999 0.1768
-1.2064 -2.4549 0.1593
-0.9655 -2.507 0.1565
-0.7439 -2.6015 0.1576
-0.035700001 -3.2072001 0.1868
-2.0409 -2.5260999 0.13500001
-0.85329998 -2.5487001 0.1118
-0.63120002 -2.6485 0.1132
-0.4086 -2.8013999 0.1177
-0.1689 -3.0287001 0.1261
0.1164 -3.4807999 0.14480001
-2.3775001 -2.6882999 0.14920001
-1.8184 -2.4679 0.1275
-1.2033 -2.4487 0.1134
-0.96329999 -2.5011001 0.1114
-0.52200001 -2.7235 0.1153
-1.3311 -2.4288001 0.0691
-0.85180002 -2.5441 0.0669
-0.6304 -2.6452999 0.0678
-0.40799999 -2.7978001 0.070500001
0.1162 -3.4753001 0.0867
-1.8174 -2.4665999 0.076399997
-1.4766001 -2.4309001 0.070900001
-0.96149999 -2.4965999 0.066699997
-0.035700001 -3.2038 0.079899997
-2.0337999 -2.5172 0.026900001
-1.3313 -2.4293001 0.023
-0.62959999 -2.6419001 0.022600001
-0.4075 -2.7941999 0.023499999
-0.16859999 -3.0243001 0.0252
-0.73979998 -2.5873001 0.022399999
-2.0302 -2.5129001 -0.026900001
-1.6313 -2.4342 -0.0244
-1.082 -2.4747 -0.022399999
-0.852 -2.5446999 -0.022299999
-0.62910002 -2.6398001 -0.022600001
0.1166 -3.4860001 -0.028999999
-2.3434 -2.6496999 -0.0294
-1.8154 -2.4639001 -0.0254
-1.2052 -2.4525001 -0.022700001
-0.96340001 -2.5014999 -0.022299999
-0.5201 -2.7132001 -0.023
-0.2915 -2.8973 -0.0242
-0.035700001 -3.2040999 -0.0266
-1.3327 -2.4317999 -0.069200002
-0.85320002 -2.5483 -0.067000002
-0.6304 -2.6454999 -0.0678
-0.40650001 -2.7872 -0.070200004
-0.1684 -3.0199001 -0.075400002
0.1167 -3.4914 -0.087099999
-2.3476 -2.6545 -0.088399999
-1.8145 -2.4626 -0.076300003
-1.4776 -2.4324 -0.071000002
-1.2062 -2.4545 -0.0682
-0.96469998 -2.5050001 -0.0669
-0.74110001 -2.5918 -0.067199998
-0.035700001 -3.2042999 -0.079899997
-1.3336999 -2.4338 -0.1154
-0.85439998 -2.5518 -0.1119
-0.1683 -3.0176001 -0.1257
0.1169 -3.4967999 -0.1455
-1.4779 -2.4330001 -0.1184
-1.2071 -2.4565001 -0.1138
-0.7421 -2.5954001 -0.1122
-1.0846 -2.4806001 -0.1577
-0.8556 -2.5553999 -0.15700001
-0.63319999 -2.6570001 -0.1591
-0.40830001 -2.7997 -0.1648
0.1171 -3.5021999 -0.2041
-1.2081 -2.4584999 -0.1595
-0.7432 -2.5991001 -0.1574
-0.52270001 -2.7270999 -0.1617
-0.29260001 -2.9085 -0.17030001
-0.035799999 -3.2097001 -0.18700001
-1.3358999 -2.4377999 -0.20829999
-0.85680002 -2.5590999 -0.2022
-0.63459998 -2.6628001 -0.2051
-0.16940001 -3.0376 -0.228
-0.96880001 -2.5156 -0.20200001
-0.0359 -3.2281001 -0.2419
-0.17020001 -3.0525999 -0.28029999
0.1192 -3.5662999 -0.32710001
-2.4360001 -2.7544 -0.3371
-1.4871 -2.4481001 -0.2626
-0.29460001 -2.9286001 -0.26980001
-2.0769999 -2.5706999 -0.3585
-1.6544 -2.4686 -0.32229999
-1.3465 -2.4570999 -0.3039
-0.8592 -2.5664001 -0.29359999
-0.4122 -2.8264 -0.3098
0.1205 -3.6052001 -0.39129999
-2.4734001 -2.7967 -0.405
-1.8451999 -2.5043001 -0.33739999
-1.4935 -2.4586 -0.31200001
-1.2158999 -2.4744 -0.29899999
-0.9716 -2.5227001 -0.29319999
-0.52630001 -2.7454 -0.30320001
-0.2956 -2.9388001 -0.3204
-2.0888 -2.5854001 -0.4165
-1.6618 -2.4796 -0.3741
-0.86189997 -2.5743999 -0.34020001
-0.4136 -2.836 -0.3592
-0.17209999 -3.0862999 -0.3874
0.1227 -3.6707001 -0.4603
-2.5543001 -2.8882 -0.48320001
-1.4999 -2.4691999 -0.36210001
-1.2213 -2.4854 -0.347
-0.97640002 -2.5351 -0.34040001
-0.7475 -2.6140001 -0.3407
-0.52740002 -2.7516 -0.3511
-0.2967 -2.9491 -0.3714
-0.036600001 -3.2848001 -0.41170001
-2.1157 -2.6187 -0.47889999
-1.3588001 -2.4795001 -0.40220001
-0.86619997 -2.5871999 -0.3881
-0.6415 -2.6919999 -0.39359999
-0.41499999 -2.8457 -0.40900001
-1.5065 -2.48 -0.4127
-1.2268 -2.4965999 -0.39570001
-0.29769999 -2.9596 -0.42309999
-0.036800001 -3.3043001 -0.47
-1.1038001 -2.5244999 -0.43869999
-0.64539999 -2.7084 -0.4434
-0.4179 -2.8652999 -0.46110001
0.13070001 -3.9073999 -0.6225
-1.8791 -2.5502999 -0.50440001
-0.98619998 -2.5606 -0.43689999
-0.75569999 -2.6427 -0.4377
-0.2994 -2.9762001 -0.4763
-0.037099998 -3.3320999 -0.53060001
-1.3714 -2.5025001 -0.50319999
-0.875 -2.6134 -0.486
-0.1763 -3.1621001 -0.55839998
-1.238 -2.5193 -0.495
-0.53549999 -2.7936001 -0.50160003
-1.3779 -2.5143001 -0.55479997
-0.87949997 -2.6269 -0.53609997
-0.42469999 -2.9121001 -0.56950003
-0.1785 -3.2007 -0.62040001
-1.9243 -2.6117001 -0.62779999
-1.5329 -2.5236001 -0.57139999
-0.3044 -3.0265 -0.58859998
-0.038699999 -3.4727001 -0.67210001
-2.2780001 -2.8196001 -0.76419997
-1.7255 -2.5747001 -0.6534
-1.1195 -2.5603001 -0.5891
-0.88410002 -2.6405001 -0.58710003
-0.65759999 -2.7593 -0.59799999
-1.948 -2.6438999 -0.69230002
-1.5484 -2.549 -0.62870002
-1.2515 -2.5467999 -0.59820002
-1.0015 -2.6003001 -0.58749998
-0.54229999 -2.8292999 -0.60729998
-0.3071 -3.0525 -0.64679998
-2.4539001 -3.0372 -0.89120001
-1.7438999 -2.6020999 -0.71490002
-1.4047 -2.5632999 -0.66720003
-0.88870001 -2.6545 -0.63889998
-0.66180003 -2.777 -0.6516
-0.43189999 -2.9611001 -0.68300003
-1.9725 -2.6770999 -0.759
-1.5642 -2.575 -0.68769997
-0.31060001 -3.0874 -0.70819998
-0.0405 -3.6368999 -0.83020002
-1.1404999 -2.6085 -0.69980001
-0.66610003 -2.7950001 -0.7062
-0.4355 -2.9865 -0.74180001
-0.18539999 -3.3241999 -0.81840003
-2.0179 -2.7388 -0.8362
-1.5805 -2.6019001 -0.74830002
-1.2759 -2.5962999 -0.71109998
-1.0179 -2.6428001 -0.6961
-0.31439999 -3.1252 -0.77200001
-1.7929 -2.6752999 -0.84859997
-1.4332 -2.6152 -0.78579998
-1.1524 -2.6356001 -0.75800002
-0.67400002 -2.8281 -0.76609999
-0.1912 -3.4282 -0.90469998
-1.5973001 -2.6294999 -0.8107
-1.2886 -2.6222 -0.76990002
-1.0283999 -2.6701 -0.75389999
-0.7899 -2.7623999 -0.75709999
-0.55830002 -2.9124999 -0.78140002
-1.1646 -2.6635001 -0.8179
-0.6821 -2.8622999 -0.82789999
-2.1585 -2.9296 -1.0238
-1.3017 -2.6487999 -0.83039999
-0.79930001 -2.7955 -0.81800002
-0.56669998 -2.9563 -0.84689999
-1.885 -2.8125999 -1.0137
-1.4726 -2.6870999 -0.9174
-1.1772 -2.6923001 -0.87970001
-0.92540002 -2.7641001 -0.87269998
-0.69059998 -2.8978 -0.89179999
-0.2148 -3.8519001 -1.155
-1.6576 -2.7288001 -0.95590001
-1.3158 -2.6775 -0.89319998
-1.96 -2.9245999 -1.1181
-1.693 -2.7869999 -1.0355999
-1.3406 -2.7281001 -0.96539998
-1.0619 -2.7571001 -0.93830001
-0.81919998 -2.8650999 -0.94639999
-0.58459997 -3.0495 -0.98610002
-1.5311 -2.7939999 -1.0705
-1.2178 -2.7852001 -1.0213
-1.7391 -2.8629999 -1.1255
-0.83179998 -2.9089999 -1.0166
-1.5707 -2.8663001 -1.159
-1.2424001 -2.8415999 -1.0997
-0.73119998 -3.0683999 -1.1185
-1.8209 -2.9974999 -1.2436
-1.3941 -2.8369 -1.1208
-0.61150002 -3.1902001 -1.1518
-1.6411999 -2.9948001 -1.2752
-1.2684 -2.901 -1.1823
-0.75220001 -3.1565001 -1.2117
-1.4376 -2.9254999 -1.2172
-0.87010002 -3.0431001 -1.1819
-1.8235 -3.3275001 -1.4892
-1.0249 -3.0613999 -1.267
-1.4981 -3.0487001 -1.3332
-1.1612 -3.0149 -1.268
-0.89520001 -3.1306 -1.2779
-0.68800002 -3.5895 -1.4344
-1.3807 -3.1578 -1.4191999
-1.0735 -3.2065001 -1.3924
-0.84680003 -3.5534 -1.5042
-0.94910002 -3.3190999 -1.4215
