# .PCD v0.7 - Point Cloud Data file format
VERSION 0.7
FIELDS x y z
SIZE 4 4 4
TYPE F F F
COUNT 1 1 1
WIDTH 440
HEIGHT 1
VIEWPOINT 0 0 0 1 0 0 0
POINTS 440
DATA ascii
2.1041999 -2.4888 0.917
1.9091001 -2.4737 0.82340002
2.0785 -2.2472999 0.80659997
2.3622 -2.1364999 0.83929998
1.88 -2.6744001 0.86140001
1.9795001 -2.3413999 0.80790001
2.6136 -2.1602001 0.89349997
1.7534 -2.7467 0.801
1.847 -2.3931999 0.74309999
1.9213001 -2.2725 0.73150003
2.1257999 -2.1022999 0.7349
1.7891999 -2.3183999 0.66839999
2.5438001 -1.9184 0.72719997
1.7232 -2.4512999 0.6839
2.0653999 -2.0425 0.66299999
1.6174001 -2.5337 0.63370001
1.7375 -2.2513001 0.5995
1.9074 -2.0623 0.59219998
2.1336 -1.9298 0.60650003
1.5867 -2.7483001 0.66900003
1.6702 -2.3759 0.61229998
1.8181 -2.1503999 0.59369999
2.0086999 -1.9865 0.59560001
2.7279999 -1.8727 0.69760001
1.5739 -2.4655001 0.56599998
1.7066 -2.2114 0.5406
1.8764 -2.0287001 0.53479999
2.0869999 -1.8877 0.54460001
2.3833001 -1.7974 0.57770002
1.5283 -2.6472001 0.59149998
1.7884001 -2.1154001 0.53609997
1.9728 -1.9509 0.53689998
1.6770999 -2.1731 0.484
1.8466001 -1.9965 0.4795
2.0536001 -1.8573999 0.48820001
2.1710999 -1.7944 0.4966
1.4201 -2.7342999 0.49059999
1.5131 -2.3703001 0.44780001
1.6487 -2.1363001 0.42969999
2.0214 -1.8282 0.43399999
2.2846999 -1.723 0.45570001
2.6949999 -1.6785001 0.50559998
1.5821 -2.2505 0.43810001
2.4507999 -1.6824 0.4734
1.3813 -2.6594 0.4262
1.9903001 -1.8001 0.38170001
2.6285 -1.6371 0.4404
1.3686 -2.9491999 0.46239999
1.5554 -2.2125001 0.3847
1.7061 -2.0179 0.3759
1.8825001 -1.8617001 0.3766
3.0666001 -1.7253 0.50050002
1.3516999 -2.6026001 0.36750001
1.4622999 -2.2907 0.34060001
1.9603 -1.773 0.3312
1.3266 -2.8587999 0.39489999
2.0696001 -1.7106 0.33649999
2.3615 -1.6210999 0.359
2.8833001 -1.6221 0.41460001
1.4471 -2.2669001 0.29170001
1.5843 -2.0529001 0.28130001
1.9365 -1.7515 0.2832
2.5184 -1.5685 0.32179999
1.2873 -2.7741001 0.3317
1.3832999 -2.3959999 0.3001
1.5153 -2.1556001 0.28580001
1.8354 -1.8151 0.28
2.3213999 -1.5936 0.30540001
2.7943001 -1.5721 0.34779999
1.2484 -3.0378001 0.30109999
1.4323 -2.2435999 0.244
1.5698 -2.0341001 0.23559999
1.7309999 -1.8716 0.23370001
2.1461 -1.6184 0.2464
2.4670999 -1.5365 0.2665
1.265 -2.7260001 0.2755
1.3665 -2.3668001 0.25049999
1.5001 -2.1338999 0.23909999
2.2852001 -1.5687 0.25409999
2.711 -1.5252 0.2852
1.2122999 -2.9498999 0.23899999
1.2957 -2.4947 0.21070001
1.5556 -2.0156 0.1908
1.7154 -1.8547 0.1893
1.9018 -1.7201 0.19220001
1.3501 -2.3383999 0.2023
1.4852 -2.1127999 0.1935
2.0033 -1.6558 0.1948
1.1907001 -2.8973 0.1824
1.2798001 -2.464 0.1617
1.4036 -2.1987 0.15189999
1.5417 -1.9976 0.147
1.7002 -1.8383 0.14579999
1.885 -1.7049 0.148
2.1050999 -1.5876 0.15360001
1.6212 -1.9176 0.1462
1.7871 -1.7674 0.1464
1.9854 -1.641 0.15000001
2.6045001 -1.4653 0.17399999
1.2643 -2.4342 0.114
1.3898 -2.177 0.1074
1.528 -1.9799 0.104
1.6853 -1.8221 0.1032
2.0852001 -1.5726 0.1086
2.3731 -1.478 0.1162
2.8677001 -1.4491 0.1336
1.2249 -3.4047 0.1504
1.3203 -2.2867999 0.1098
1.4564 -2.0718 0.1053
1.6069 -1.9007 0.1035
1.5146 -1.9625 0.061799999
1.6706001 -1.8062 0.0614
1.1903 -2.5651 0.070500001
1.3071001 -2.2639999 0.065200001
1.4425 -2.052 0.0625
1.7565 -1.7371 0.0616
1.9505 -1.6121 0.063100003
2.1970999 -1.5082 0.066500001
2.543 -1.4306999 0.072800003
1.1306 -2.7511001 0.024700001
1.2367001 -2.3810999 0.022299999
1.5029 -1.9474 0.020400001
1.8364 -1.6609 0.0206
2.0467 -1.5434999 0.021299999
2.7760999 -1.4029 0.025800001
1.1773 -2.5371001 0.0232
1.2966 -2.2456999 0.021600001
1.5797 -1.8685 0.020300001
1.7416 -1.7223001 0.020400001
1.9335001 -1.5980999 0.0208
2.1761999 -1.4938999 0.0219
1.1202 -2.7260001 -0.024499999
1.648 -1.7818 -0.020199999
1.8243999 -1.6501 -0.020400001
2.0280001 -1.5294 -0.0211
2.2953999 -1.4296 -0.022500001
2.7325001 -1.3808 -0.0254
1.4233 -2.0246 -0.0206
1.7319 -1.7128 -0.020199999
2.1558001 -1.4798 -0.0217
2.4844999 -1.3978 -0.023700001
3.2291999 -1.455 -0.0294
1.6401 -1.7733001 -0.060199998
1.0763 -2.9916 -0.079300001
1.1612999 -2.5025001 -0.068800002
1.4157 -2.0139 -0.0614
1.9098001 -1.5785 -0.061799999
2.1412001 -1.4699 -0.064800002
3.1317999 -1.4111 -0.085699998
1.1002001 -2.6770999 -0.1203
1.2126 -2.3347001 -0.1094
1.4813 -1.9194 -0.1008
1.6323 -1.7648 -0.1
1.8075 -1.6348 -0.1013
2.2613001 -1.4084001 -0.1108
1.1533999 -2.4856 -0.1139
1.2752 -2.2088001 -0.106
1.9009 -1.5711 -0.1025
3.04 -1.3698 -0.13860001
1.0904 -2.6533 -0.1671
1.2048 -2.3196001 -0.1522
1.3358999 -2.0927 -0.1446
1.4742 -1.9102 -0.14049999
1.7992001 -1.6273 -0.14129999
2.6347001 -1.3314 -0.1719
1.0454 -2.9058001 -0.17990001
1.2683001 -2.1967001 -0.1477
1.4009 -1.9928 -0.1419
1.5497 -1.8329999 -0.1398
2.1204 -1.4556 -0.1498
2.425 -1.3643 -0.1621
2.9705999 -1.3385 -0.18979999
1.0808001 -2.6299 -0.2131
1.4672 -1.9011 -0.18000001
1.7909 -1.6198 -0.18099999
1.9893 -1.5002 -0.1867
1.0355 -2.8782001 -0.22920001
1.138 -2.4521999 -0.2026
1.2614 -2.1847999 -0.1891
1.5424 -1.8243001 -0.17900001
1.7005 -1.6817 -0.17919999
2.9387 -1.3241 -0.24150001
1.0697 -3.4484999 -0.331
1.4602 -1.8921 -0.2191
1.7826999 -1.6124001 -0.22040001
1.9799 -1.4931 -0.2273
1.0257 -2.8510001 -0.27779999
1.1303999 -2.4359 -0.2462
1.2545 -2.1729 -0.23
1.5351 -1.8157001 -0.21799999
1.6928 -1.674 -0.2183
1.8745 -1.5493 -0.223
2.0998001 -1.4414999 -0.2335
1.3147 -2.0595 -0.26499999
1.4533 -1.883 -0.25799999
1.6016999 -1.7318 -0.2559
1.7746 -1.605 -0.2595
1.9706 -1.4861 -0.26769999
2.2155001 -1.3798 -0.28310001
2.5818 -1.3046 -0.31380001
1.0182 -2.8303001 -0.3263
1.1228 -2.4196999 -0.28929999
1.2477 -2.1610999 -0.27070001
1.3791 -1.9617 -0.26010001
1.5278 -1.8071001 -0.25670001
1.6851 -1.6665 -0.25709999
1.8658 -1.5422 -0.2626
2.0897 -1.4345 -0.27489999
2.3850999 -1.3418 -0.29679999
2.8838 -1.2994 -0.34310001
1.0601 -2.5795 -0.3495
1.3092 -2.0509 -0.30489999
1.4464 -1.8741 -0.2967
1.7665 -1.5977 -0.2985
1.9613 -1.4791 -0.30779999
1.0153 -2.8220999 -0.3759
1.2433 -2.1536 -0.3116
1.6775 -1.6589 -0.29570001
1.8572 -1.535 -0.3019
2.0796001 -1.4276 -0.3161
2.372 -1.3345 -0.34110001
2.8627 -1.2898999 -0.3935
1.5894001 -1.7185 -0.333
1.952 -1.4721 -0.34779999
2.5473001 -1.2872 -0.40599999
1.2412 -2.1498001 -0.3531
1.517 -1.7943 -0.33419999
2.0695 -1.4207 -0.35699999
2.359 -1.3271 -0.38499999
1.0037 -3.2356 -0.53939998
1.173 -2.2585001 -0.40529999
1.5871 -1.716 -0.37220001
1.9492 -1.47 -0.3888
2.1877 -1.3625 -0.4104
2.5357001 -1.2812999 -0.4524
1.0095 -2.8059001 -0.47479999
1.239 -2.1459999 -0.3946
1.3678 -1.9457 -0.37869999
2.0653 -1.4177001 -0.3989
2.8236001 -1.2723 -0.4932
1.0516 -2.5588 -0.4878
1.1706001 -2.2537999 -0.44780001
1.5848 -1.7135 -0.41159999
2.1854999 -1.3611 -0.454
2.5362 -1.2816 -0.5011
1.2368 -2.1422 -0.43619999
1.3656 -1.9426 -0.41870001
1.5125999 -1.7891001 -0.4131
2.8243999 -1.2726001 -0.54619998
0.99110001 -3.1949 -0.6473
1.0487 -2.552 -0.53390002
1.1681 -2.2491 -0.49039999
1.3002 -2.0367 -0.46759999
2.1831999 -1.3597 -0.49770001
1.1104 -2.3929999 -0.51050001
1.2345999 -2.1382999 -0.47780001
1.3636 -1.9397 -0.45879999
1.8419 -1.5223 -0.46239999
2.8250999 -1.2729 -0.59960002
0.991 -3.1947 -0.70520002
1.2979 -2.0332 -0.50849998
1.5802 -1.7085 -0.49059999
1.9434 -1.4656 -0.51319999
2.1816001 -1.3587 -0.54180002
1.2323999 -2.1345 -0.51959997
1.3615 -1.9368 -0.4991
1.6636 -1.6452 -0.49329999
2.059 -1.4134001 -0.52649999
2.3467 -1.3202 -0.56760001
1.1632 -2.2395999 -0.57599998
1.2956001 -2.0295999 -0.54960001
1.4332 -1.8571 -0.53539997
1.5779001 -1.706 -0.53039998
1.9414999 -1.4642 -0.55500001
2.1803 -1.3579 -0.58630002
1.1056 -2.3824999 -0.5995
1.3595001 -1.9339 -0.53960001
1.8372 -1.5185 -0.54400003
2.3452001 -1.3194 -0.6142
2.8264999 -1.2736 -0.7076
1.0455 -2.5441999 -0.67610002
1.1607 -2.2348001 -0.61900002
1.2933 -2.026 -0.59079999
1.7463 -1.5795 -0.57880002
1.9395 -1.4627 -0.59710002
1.0051 -2.7937 -0.72979999
1.1045001 -2.3801 -0.64490002
1.6595 -1.6411 -0.57370001
2.0546999 -1.4105 -0.61260003
2.8320999 -1.2761 -0.76349998
1.291 -2.0223999 -0.6322
1.5732 -1.7009 -0.61049998
1.7441 -1.5774 -0.6196
1.0092 -2.8051 -0.78549999
1.3554 -1.928 -0.62099999
1.5014 -1.7759 -0.6128
2.0525999 -1.409 -0.65600002
2.3422 -1.3177 -0.70810002
1.2934999 -2.0262001 -0.67640001
1.7418 -1.5754 -0.66079998
2.1763 -1.3554 -0.72140002
2.5453 -1.2862 -0.80239999
1.2299 -2.1303 -0.69209999
1.8301001 -1.5125999 -0.66799998
2.0504 -1.4075 -0.6997
2.3408999 -1.317 -0.75569999
2.8794 -1.2974 -0.88859999
1.2962 -2.0304999 -0.72119999
1.4315 -1.8548 -0.70139998
1.5735 -1.7013 -0.69379997
1.744 -1.5774 -0.704
2.1842 -1.3602999 -0.77039999
1.1131999 -2.3989999 -0.79180002
1.2326 -2.1349001 -0.73799998
1.832 -1.5142 -0.71160001
2.0545001 -1.4103 -0.74599999
2.3520999 -1.3233 -0.80800003
1.0617 -2.5836 -0.88709998
1.1712 -2.2550001 -0.80699998
1.299 -2.0349 -0.76670003
1.5768 -1.7048 -0.73750001
1.9449 -1.4667 -0.77359998
2.5871999 -1.3074 -0.9206
1.0219001 -2.8404 -0.9587
1.6618 -1.6434 -0.74220002
1.8364 -1.5179 -0.75669998
2.0611 -1.4148 -0.79390001
2.3635001 -1.3297 -0.86129999
1.0659 -2.5938001 -0.94220001
1.5806 -1.7089 -0.78210002
1.7524 -1.585 -0.79390001
2.2046001 -1.373 -0.87260002
2.6089001 -1.3184 -0.98210001
1.0355999 -2.8785 -1.0278
1.5092 -1.7851 -0.78539997
2.0678 -1.4194 -0.8427
2.3750999 -1.3362 -0.9156
1.3047 -2.0438001 -0.85979998
1.4406 -1.8667001 -0.83609998
1.5844001 -1.7130001 -0.82740003
1.7568001 -1.5889 -0.83990002
1.9572999 -1.4761 -0.86930001
2.2151 -1.3796 -0.9253
2.6313 -1.3297 -1.0454
1.1224 -2.4188001 -0.94550002
1.2408 -2.1492 -0.87989998
1.3679 -1.9457999 -0.8434
1.6698 -1.6514 -0.83270001
1.8459001 -1.5257 -0.84920001
2.3870001 -1.3429 -0.97119999
1.3076 -2.0483 -0.90740001
1.5883 -1.7172 -0.87349999
2.2258 -1.3863 -0.97920001
2.6544001 -1.3413 -1.1105
1.5156 -1.7927001 -0.87660003
1.674 -1.6554 -0.87910002
1.8518 -1.5305001 -0.89709997
2.0815001 -1.4289 -0.94279999
1.1892 -2.2897 -1.0125999
1.3105 -2.0529001 -0.95590001
1.5922 -1.7215 -0.92030001
1.7656 -1.5969 -0.93430001
2.2368 -1.3931 -1.0342
1.1221 -3.1189001 -1.3009
1.1399 -2.4563 -1.0628
1.2473 -2.1603999 -0.97899997
1.3739001 -1.9545 -0.93760002
1.5190001 -1.7967 -0.92339998
1.6782 -1.6596 -0.92629999
2.0885999 -1.4337 -0.99430001
1.119 -2.7228 -1.2122
1.2004 -2.3111999 -1.0724
1.3178 -2.0644 -1.0085
1.4502 -1.8791 -0.9774
1.5963 -1.7259001 -0.96810001
1.7701 -1.601 -0.98280001
2.2511001 -1.4021 -1.0921
2.7751999 -1.4024 -1.2804
1.257 -2.1773 -1.0353
1.8638999 -1.5405999 -0.9957
2.4409001 -1.3733 -1.1533
1.1355 -2.763 -1.2886
2.2797999 -1.4198999 -1.1585
2.9119 -1.4715 -1.4073
1.1628 -2.5058 -1.1916
1.3882999 -1.9749 -1.0413001
1.8742 -1.5491 -1.0488
2.1131001 -1.4506 -1.1056
1.1714 -2.8505001 -1.3904999
1.4706 -1.9055001 -1.0861
2.3096001 -1.4384 -1.2277
1.1749001 -2.5318 -1.2594
1.2775 -2.2126999 -1.1529
1.3987 -1.9895999 -1.0974
1.5417 -1.8235 -1.0774
1.7029001 -1.6841 -1.0807
1.8914 -1.5633 -1.1072
2.5429001 -1.4306 -1.3164999
1.262 -3.0708001 -1.5650001
1.4816999 -1.9198999 -1.1432
1.6288 -1.7611001 -1.1308
1.806 -1.6335 -1.1479
2.0281999 -1.5296 -1.1974
1.1966 -2.5785 -1.34
1.4094 -2.0049 -1.1552
1.5533 -1.8372 -1.1339999
1.9092 -1.5779999 -1.1676
2.5983 -1.4618 -1.4053
1.2562 -2.4186001 -1.3404
1.4931999 -1.9348 -1.2021
1.642 -1.7753 -1.1894
1.2371 -2.6658001 -1.4455
1.2993 -2.2504001 -1.2781
1.4204 -2.0206001 -1.2148
1.5652 -1.8513 -1.1924
1.9276 -1.5932 -1.23
2.1917 -1.5046 -1.3076
2.7012999 -1.5197001 -1.5245
1.3738 -2.152 -1.3089
1.505 -1.9502 -1.2629
1.8362 -1.6607 -1.2693
1.2812001 -2.7607999 -1.5604
1.3192 -2.2850001 -1.3527
1.4319 -2.0369 -1.2765
1.3164999 -2.5346999 -1.5247
1.3993 -2.1919 -1.3882999
1.6697 -1.8052 -1.3127
2.0978999 -1.5821 -1.4026999
1.347 -2.3331001 -1.4382
1.7598 -1.7403001 -1.3212
1.9674 -1.6260999 -1.3626
1.3709 -2.6394999 -1.6519001
1.4262 -2.2342 -1.4721
1.5469 -2.0044 -1.4062001
1.6966 -1.8344001 -1.3877
2.1475999 -1.6196001 -1.4938999
1.479 -2.1040001 -1.4284
1.788 -1.7682 -1.3966
1.427 -2.4716001 -1.6477
1.646 -1.9469 -1.4719
