# .PCD v0.7 - Point Cloud Data file format
VERSION 0.7
FIELDS x y z
SIZE 4 4 4
TYPE F F F
COUNT 1 1 1
WIDTH 313
HEIGHT 1
VIEWPOINT 0 0 0 1 0 0 0
POINTS 313
DATA ascii
3.987 -1.7964 0.84630001
3.6559 -1.6473 0.70709997
3.5139 -2.1884999 0.65920001
3.5933001 -1.4301 0.61580002
4.0338998 -1.2022001 0.67030001
3.4916 -1.5732 0.60979998
3.3455999 -1.6906 0.53320003
3.4946001 -1.3908 0.53500003
3.7897 -1.1295 0.5625
3.4848001 -2.3922 0.60119998
3.4043 -1.5339 0.53109998
3.6148 -1.2552 0.54430002
3.2646 -1.6497 0.45840001
3.4079001 -1.3563 0.4596
3.6817 -1.0973001 0.48140001
3.2958 -2.2623999 0.50099999
3.5150001 -1.2205 0.46630001
3.9309001 -0.98320001 0.50779998
3.3301001 -2.5114 0.4524
3.5801001 -1.067 0.4052
4.1901999 -0.85170001 0.46380001
3.1572001 -1.7762001 0.39289999
3.2462001 -1.4627 0.38620001
3.4273 -1.1901 0.3935
3.7938001 -0.94889998 0.4242
3.0818 -1.9193 0.3328
3.141 -1.5872 0.32260001
3.5046 -1.0445 0.3353
3.9748001 -0.80790001 0.37180001
3.1982 -1.441 0.32159999
3.3713 -1.1706001 0.3272
3.675 -0.9192 0.34729999
3.0933001 -2.3327999 0.29030001
3.0337 -1.8894 0.2678
3.8327999 -0.77899998 0.2931
3.3206 -1.153 0.26339999
3.0244999 -2.2809 0.22059999
2.9872 -1.8604 0.205
3.0509 -1.5417 0.1991
3.1801 -1.2657 0.19930001
3.3901 -1.0104001 0.206
2.9907 -2.053 0.2113
3.0102999 -1.6936001 0.20119999
3.1066999 -1.3997999 0.19850001
3.2715001 -1.136 0.2017
4.1252999 -0.6487 0.2432
2.9588001 -2.2313001 0.1541
2.9421999 -1.8324 0.1441
3.0079 -1.5199 0.1401
3.1343999 -1.2474999 0.14030001
3.3357 -0.99419999 0.14470001
3.6777999 -0.7475 0.156
3.0504 -2.5211999 0.1645
2.9393001 -2.0177 0.14820001
2.9658 -1.6684999 0.1415
3.2239001 -1.1195 0.1419
3.4756 -0.86930001 0.149
2.9052999 -1.8094 0.0854
3.1013999 -1.2343 0.0832
3.2922001 -0.98119998 0.085699998
2.9814 -2.4642 0.096500002
2.8931 -1.9859999 0.087499999
3.1881001 -1.107 0.084200002
3.4242001 -0.85640001 0.088
3.8831999 -0.61059999 0.097999997
3.0967 -2.8008001 0.034699999
2.8778999 -1.7924 0.028200001
2.95 -1.4907 0.0275
3.0732999 -1.2230999 0.0275
3.5583999 -0.72329998 0.030200001
4.3315001 -0.48460001 0.036200002
2.9242001 -2.4168999 0.031500001
3.7936001 -0.59649998 0.0319
3.0167 -2.7284 -0.033799998
2.924 -1.4776 -0.0272
3.0458 -1.2122 -0.0272
3.2274001 -0.9619 -0.028000001
3.1303 -1.087 -0.0275
3.733 -0.58700001 -0.031399999
2.8103001 -2.1192999 -0.087800004
2.8248 -1.7593 -0.082999997
2.8985 -1.4647 -0.081
3.0188 -1.2014 -0.081
3.4742 -0.7062 -0.088399999
4.0408001 -0.45199999 -0.1014
2.8471999 -2.3533001 -0.092100002
3.1022 -1.0772001 -0.081900001
2.7806001 -2.0969999 -0.14480001
2.7988999 -1.7431999 -0.1371
3.9503 -0.44190001 -0.1653
2.7751999 -1.9051 -0.14
2.8264 -1.5901 -0.1348
3.2885001 -0.82249999 -0.1409
3.6317999 -0.5711 -0.1529
2.8492 -2.5769 -0.2238
2.7516 -2.0750999 -0.2007
2.7735 -1.7273999 -0.1903
3.1357999 -0.9346 -0.19059999
3.8848 -0.4346 -0.2277
2.7472 -1.8859 -0.19410001
2.9035001 -1.3083 -0.1855
3.0488 -1.0587 -0.18799999
3.2560999 -0.81440002 -0.1955
3.5876999 -0.56419998 -0.2115
2.7591 -1.7184 -0.2436
2.8359001 -1.433 -0.23810001
2.9528 -1.1752 -0.23819999
3.8317001 -0.42860001 -0.28889999
2.7307 -1.8745 -0.2482
2.7878001 -1.5684 -0.2397
2.8893001 -1.3018 -0.2375
3.2377999 -0.80980003 -0.25009999
2.7830999 -2.5172 -0.34400001
2.7165999 -2.0487001 -0.31189999
2.7449999 -1.7096 -0.2965
3.7993 -0.42500001 -0.35049999
2.7155001 -1.8641 -0.30199999
2.8750999 -1.2955 -0.28909999
3.0181 -1.048 -0.2929
3.5339999 -0.5557 -0.32800001
2.7632999 -2.4992001 -0.4041
2.7011001 -2.0369999 -0.3669
3.0855 -0.91960001 -0.34920001
3.7672 -0.42140001 -0.41119999
2.8610001 -1.2891001 -0.34040001
3.003 -1.0427999 -0.3448
3.2023001 -0.80089998 -0.35800001
3.5107999 -0.5521 -0.38550001
4.3989 -0.29449999 -0.47819999
2.7435999 -2.4814999 -0.46360001
2.6856 -2.0253 -0.4215
3.069 -0.91469997 -0.40130001
3.3069999 -0.67220002 -0.42289999
2.6925001 -2.2254 -0.4377
2.6868 -1.8444 -0.4084
2.7458 -1.5448 -0.39480001
2.7242 -2.4639001 -0.52249998
2.6703 -2.0137 -0.47569999
2.7030001 -1.6835001 -0.45289999
3.2876999 -0.66829997 -0.4772
3.7044001 -0.41440001 -0.5302
2.8645 -2.8327 -0.57300001
2.6728001 -1.8348 -0.46110001
2.7320001 -1.5369999 -0.44589999
2.9728999 -1.0323 -0.44760001
3.1672001 -0.79220003 -0.46439999
4.1641002 -0.27880001 -0.59359998
2.7049 -2.4463999 -0.5808
2.8801 -1.1463 -0.49360001
3.6754 -0.41119999 -0.58890003
2.8364999 -2.8051 -0.63520002
2.6566 -2.1956999 -0.54879999
2.6589 -1.8252 -0.51359999
4.1127 -0.2753 -0.65640002
2.6986001 -2.4407001 -0.64160001
2.6823001 -1.6705 -0.55720001
3.0304 -0.90319997 -0.55760002
3.2628 -0.66320002 -0.58710003
2.8297999 -2.7983999 -0.70169997
2.6522 -1.8206 -0.56720001
2.9509001 -1.0247 -0.55080003
3.1431 -0.78609997 -0.57130003
4.1069999 -0.27489999 -0.72579998
2.6441 -1.994 -0.64090002
2.7553999 -1.3923 -0.59740001
2.8682001 -1.1415 -0.59740001
3.0253 -0.90170002 -0.61089998
3.2571001 -0.662 -0.64319998
3.6629 -0.40970001 -0.71329999
2.826 -2.7946 -0.76910001
2.6461999 -2.1870999 -0.66439998
2.8076 -1.265 -0.5959
2.9459 -1.0229 -0.60350001
3.4305999 -0.53939998 -0.67199999
2.6396999 -1.9907 -0.69700003
2.6735001 -1.6651 -0.66399997
2.7507999 -1.3901 -0.6498
2.8635001 -1.1396 -0.64969999
3.0202 -0.90009999 -0.66439998
2.6421001 -2.1838 -0.72259998
2.6434 -1.8146 -0.67589998
2.7025001 -1.5204 -0.65369999
2.8029001 -1.2629 -0.64810002
3.1322999 -0.7834 -0.6807
3.4245 -0.53850001 -0.73079997
2.6854 -2.4288001 -0.82639998
2.6354001 -1.9874001 -0.75340003
2.7463 -1.3877 -0.70230001
2.8587 -1.1377 -0.70230001
3.2456 -0.65969998 -0.75590003
3.6503 -0.4084 -0.83840001
2.638 -2.1803999 -0.78119999
2.7983 -1.2609 -0.70050001
2.9360001 -1.0195 -0.7094
3.1269 -0.78210002 -0.73570001
2.681 -2.4249001 -0.88849998
2.7416999 -1.3854001 -0.75510001
2.8539 -1.1358 -0.755
3.6440001 -0.40759999 -0.90130001
2.6340001 -2.177 -0.83990002
2.6345 -1.8085001 -0.78539997
2.6937001 -1.5154999 -0.7597
4.0945001 -0.27410001 -1.0087
2.6817999 -2.4254999 -0.95279998
2.6602001 -1.6568 -0.8258
2.8546 -2.823 -1.0579
2.6298001 -2.1736 -0.89899999
2.6300001 -1.8054 -0.84060001
2.789 -1.2567 -0.80599999
3.1159999 -0.77939999 -0.84640002
3.4099 -0.53619999 -0.9095
4.1766 -0.27959999 -1.103
2.6933 -2.4360001 -1.0218
2.6306 -1.9838001 -0.92699999
3.0046 -0.8955 -0.88209999
2.6306 -1.8058 -0.89770001
2.7862999 -1.2555 -0.8599
3.1191001 -0.78009999 -0.90460002
3.4212999 -0.53799999 -0.97439998
2.7051001 -2.4466 -1.0919
3.2509999 -0.66079998 -0.9932
2.9668 -2.9339001 -1.2491
2.651 -2.1910999 -1.0297
2.6930001 -1.515 -0.92500001
2.9303 -1.0175 -0.92869997
3.4328001 -0.53979999 -1.0404
2.6705999 -1.6633 -0.99919999
2.7447 -1.387 -0.97670001
2.8577001 -1.1373 -0.97680002
3.0181 -0.89950001 -1.0002
2.6436 -1.8147 -1.0183001
2.6986001 -1.5182 -0.98329997
2.9360001 -1.0195 -0.98710001
3.1338 -0.78380001 -1.0259
2.6763 -1.6668 -1.0592999
2.7499001 -1.3896 -1.0352
2.8633001 -1.1395 -1.0354
3.0251999 -0.9016 -1.0606
3.2725 -0.6652 -1.122
2.6508999 -1.8197 -1.0803
2.7042999 -1.5214 -1.0425
2.9418001 -1.0215 -1.0463001
3.1413 -0.78570002 -1.0879
3.4566 -0.54350001 -1.1756001
2.6822 -1.6705 -1.1204
3.0323999 -0.90369999 -1.122
3.7888999 -0.42379999 -1.3519
2.6847999 -2.2190001 -1.2351
2.6582999 -1.8248 -1.1433001
2.8073001 -1.2649 -1.0918
2.9477 -1.0235 -1.1064
3.1489999 -0.78759998 -1.151
3.4698999 -0.5456 -1.2455
2.6731 -2.0158999 -1.2502
2.7605 -1.395 -1.155
2.8745999 -1.1441 -1.1553
2.6658001 -1.83 -1.2074
2.7158999 -1.528 -1.1636
2.8127999 -1.2674 -1.152
3.1587 -0.79000002 -1.2158
3.5065 -0.55140001 -1.3254
3.0599 -0.912 -1.2531
4.0331998 -0.45120001 -1.5928
2.7465999 -2.2701001 -1.3985
2.6877999 -1.8451 -1.2795
2.8234 -1.2721 -1.2154
3.1839001 -0.79629999 -1.2881
2.7216001 -2.0525 -1.4037
2.7232001 -1.696 -1.321
2.7897999 -1.4098001 -1.2871
3.3748 -0.68589997 -1.4181
3.2097001 -0.8028 -1.3624001
3.6159999 -0.5686 -1.5073
2.9267001 -1.1648 -1.3588001
2.7360001 -1.8781 -1.4315
2.8617001 -1.2894 -1.3539
3.0098 -1.0451 -1.3744
3.2363999 -0.80949998 -1.4391
2.7646 -1.7218 -1.4696
3.1347001 -0.93430001 -1.4759001
2.9237001 -2.4165001 -1.7115
2.7894001 -1.5693001 -1.4441
2.8817 -1.2984 -1.4262
3.845 -0.60460001 -1.7563
2.7907 -1.7381001 -1.5498
2.8489001 -1.4396 -1.5046
3.1703 -0.94489998 -1.5594
3.1126001 -2.5725999 -1.9035
2.8109 -1.5814 -1.5203
2.9354999 -2.2137001 -1.8084
2.8872001 -1.459 -1.5911
3.2263 -0.96149999 -1.6558
2.8548 -1.6061 -1.6111
3.3900001 -0.84789997 -1.7187001
3.1357999 -2.3648 -2.0136001
3.0585999 -1.2173001 -1.6877
3.2853 -0.97909999 -1.7575001
2.9166 -2.0021999 -1.8137
2.902 -1.6325999 -1.7071
2.9856 -1.3451999 -1.6788
3.1515999 -1.0943 -1.7104
3.1084001 -1.2371 -1.786
3.3650999 -1.0029 -1.8745
3.0525 -2.0954001 -1.9765
3.0328 -1.3665 -1.7758
3.2035999 -1.1124001 -1.8104
3.0857 -1.9218 -2.0190001
3.1954 -1.2717 -1.9101
3.5188999 -1.0487 -2.0393
3.1104 -1.4015 -1.8947999
3.3180001 -1.1521 -1.9507999
3.1645 -1.5991 -2.0471001
3.3085001 -1.3168 -2.0559001
