# .PCD v0.7 - Point Cloud Data file format
VERSION 0.7
FIELDS x y z
SIZE 4 4 4
TYPE F F F
COUNT 1 1 1
WIDTH 511
HEIGHT 1
VIEWPOINT 0 0 0 1 0 0 0
POINTS 511
DATA ascii
0.76749998 -2.9296999 1.1309
1.1334 -2.7579999 1.0573
0.57489997 -2.6754 0.91939998
0.4682 -2.7757001 0.94569999
0.68790001 -2.6257999 0.912
0.34169999 -2.7746 0.88779998
0.55589998 -2.5869 0.84030002
1.3808 -2.6586001 0.95139998
0.45070001 -2.6716001 0.86049998
0.66659999 -2.5444 0.83530003
0.89969999 -2.5007999 0.84399998
1.1785001 -2.5395999 0.88910002
0.5399 -2.5123 0.76929998
0.435 -2.579 0.78299999
0.87419999 -2.4298999 0.77310002
1.5839 -2.7434001 0.94840002
0.97140002 -2.3638999 0.7191
1.2651 -2.4356999 0.77219999
0.21269999 -2.7221 0.76819998
0.85369998 -2.3729999 0.70950001
0.52179998 -2.4282 0.65439999
0.95499998 -2.3238001 0.662
1.6752 -2.6242001 0.82029998
0.091499999 -2.7374001 0.67320001
0.30939999 -2.5118999 0.6221
0.5133 -2.3887999 0.6006
0.7177 -2.3136001 0.59539998
0.94029999 -2.2881 0.60799998
1.5865 -2.4853001 0.72469997
-0.032900002 -2.9525001 0.72579998
0.2031 -2.5987 0.64069998
0.41029999 -2.4326 0.60640001
0.8276 -2.3004 0.60089999
1.0635999 -2.2920001 0.62110001
0.089100003 -2.6657 0.60879999
0.70709997 -2.2795 0.54470003
0.92619997 -2.2537 0.55610001
1.1815 -2.2746999 0.58499998
1.5262001 -2.3908 0.64740002
-0.031599998 -2.8336 0.64679998
0.1991 -2.5481 0.58340001
0.60509998 -2.3097999 0.54500002
0.81529999 -2.2663 0.54970002
1.3307 -2.3048 0.6074
-0.17 -3.0486 0.6437
0.29809999 -2.4203 0.51410002
0.91250002 -2.2205 0.5061
1.1631 -2.2393 0.53200001
0.1954 -2.5 0.52869999
0.59579998 -2.2742 0.49559999
0.8035 -2.2333 0.50040001
1.7634 -2.5085001 0.64639997
0.4923 -2.2911999 0.4535
0.68839997 -2.2193 0.4497
1.4601001 -2.2873001 0.52509999
0.19310001 -2.4717 0.47979999
0.39379999 -2.3348 0.45820001
0.58920002 -2.2486999 0.4499
0.29159999 -2.3676 0.4206
0.48789999 -2.2702999 0.4095
0.88919997 -2.1636 0.41249999
1.1283 -2.1724 0.4316
1.4342 -2.2465999 0.47
-0.0296 -2.6586001 0.46880001
0.58380002 -2.2284999 0.40619999
1.0014 -2.158 0.41949999
1.2635 -2.1884 0.4456
-0.15449999 -2.7704999 0.44190001
0.8818 -2.1457 0.36939999
1.1136 -2.1440001 0.3847
1.4092 -2.2075 0.417
0.18889999 -2.4173999 0.38609999
0.3867 -2.2923999 0.37020001
1.6041 -2.2818 0.44409999
-0.1521 -2.7274001 0.38850001
0.082599998 -2.4697001 0.3515
0.28549999 -2.3178999 0.33219999
0.87459999 -2.1282001 0.32730001
1.1043 -2.1262 0.34079999
1.3853 -2.1700001 0.3662
1.8414 -2.3859999 0.4287
-0.30180001 -3.0004001 0.4289
-0.0287 -2.5803001 0.36700001
0.1869 -2.3914001 0.34119999
0.57359999 -2.1894 0.32190001
0.7723 -2.1468 0.32449999
0.98470002 -2.1219001 0.33270001
1.2304 -2.1310999 0.34999999
1.5678999 -2.2302999 0.38780001
-0.1498 -2.6859 0.3371
0.081699997 -2.4426999 0.30630001
0.28259999 -2.2946 0.2897
0.47510001 -2.2107999 0.2834
0.86750001 -2.1110001 0.28600001
1.0953 -2.1087999 0.2978
1.3688 -2.1443 0.3188
1.7968 -2.3282001 0.36849999
-0.0283 -2.5431001 0.31869999
0.76620001 -2.1296 0.2836
0.97680002 -2.1048999 0.29080001
1.2201 -2.1131999 0.30579999
-0.14749999 -2.6457 0.28740001
0.080799997 -2.4164 0.2622
0.47099999 -2.1918001 0.2432
0.66109997 -2.1313 0.242
1.0864 -2.0918 0.25569999
-0.28729999 -2.8555 0.31130001
-0.027899999 -2.5071001 0.27200001
0.3766 -2.2325001 0.2456
0.56379998 -2.152 0.2413
1.5216 -2.1645999 0.287
0.079999998 -2.3922 0.2194
0.27770001 -2.2546 0.20829999
0.8538 -2.0776 0.2059
1.0778 -2.075 0.21439999
1.3444 -2.1059999 0.2291
1.7218 -2.2309999 0.25839999
-0.28049999 -2.7886 0.25690001
0.75419998 -2.0962999 0.2042
0.96149999 -2.072 0.2094
1.2 -2.0785 0.22
-0.4526 -3.1029999 0.235
0.2762 -2.2428999 0.1693
0.46360001 -2.1573999 0.1654
0.65090001 -2.0985 0.1647
0.84719998 -2.0615001 0.167
1.3326 -2.0875001 0.1856
1.7021 -2.2054 0.2088
-0.0274 -2.4575 0.1842
0.18009999 -2.3043001 0.1732
0.5546 -2.1169 0.164
0.95410001 -2.056 0.1699
1.1903 -2.0616 0.17839999
1.4935 -2.1245 0.1946
2.0381 -2.4107001 0.2366
-0.43939999 -3.0125999 0.17730001
0.079099998 -2.3649001 0.13779999
0.27500001 -2.2327001 0.131
0.64740002 -2.0871999 0.12729999
0.84060001 -2.0455 0.1288
1.321 -2.0692 0.14300001
-0.2735 -2.7184999 0.1591
-0.14210001 -2.5476 0.1061
0.2737 -2.2227001 0.093099996
0.45950001 -2.1384001 0.090899996
0.64499998 -2.0792 0.090499997
0.83660001 -2.0358 0.091499999
1.0527 -2.0267 0.094999999
1.3096 -2.0513999 0.1012
1.664 -2.1561999 0.1132
0.1781 -2.2788999 0.094999999
0.7403 -2.0576 0.090899996
1.4665 -2.0861001 0.106
-0.42640001 -2.9233999 0.073700003
-0.1409 -2.5278001 0.063100003
0.64249998 -2.0713 0.054099999
0.83340001 -2.0279 0.054699998
1.0476 -2.017 0.056699999
1.6457 -2.1324 0.067199998
-0.26840001 -2.6679001 0.0669
-0.026900001 -2.4145999 0.060199998
0.36610001 -2.1703999 0.054900002
0.54830003 -2.0927999 0.0539
0.93730003 -2.0197999 0.055500001
1.1628 -2.0141001 0.057999998
1.9159 -2.2660999 0.074000001
-0.4208 -2.8850999 0.0242
0.077699997 -2.3253 0.019300001
0.27129999 -2.2028999 0.0184
0.45550001 -2.1198001 0.017999999
0.6401 -2.0634999 0.017999999
0.83020002 -2.0202 0.018200001
1.6277 -2.1091001 0.0221
0.36449999 -2.1608 0.018200001
0.54619998 -2.0848999 0.017899999
0.73460001 -2.0420001 0.017999999
0.93400002 -2.0127001 0.0184
1.883 -2.2272999 0.0242
-0.1388 -2.4890001 -0.0207
0.077299997 -2.3124001 -0.019200001
0.63770002 -2.0557001 -0.017899999
0.82709998 -2.0125 -0.018100001
1.0401 -2.0027001 -0.0188
1.2861 -2.0146999 -0.0199
-0.264 -2.6245999 -0.0219
-0.0266 -2.3870001 -0.0198
0.1752 -2.2420001 -0.0187
0.36289999 -2.1514001 -0.018100001
1.8514 -2.1898 -0.023800001
0.076899998 -2.2995999 -0.057399999
0.26890001 -2.1833999 -0.054900002
0.45159999 -2.1015 -0.053599998
1.2816 -2.0077 -0.0594
-0.0264 -2.3734 -0.0592
0.72909999 -2.0265999 -0.0537
0.92750001 -1.9987 -0.054900002
1.1502 -1.9922 -0.057399999
1.4286 -2.0322001 -0.061900001
-0.4082 -2.7988 -0.1176
0.076499999 -2.2869999 -0.095100001
0.26769999 -2.1738 -0.0911
0.44960001 -2.0925 -0.089000002
0.82080001 -1.9973 -0.0898
1.0328 -1.9885 -0.093199998
1.2772 -2.0007 -0.098700002
1.5982 -2.0709 -0.1088
-0.26069999 -2.5919001 -0.1083
0.1733 -2.2181001 -0.092500001
0.35969999 -2.1327 -0.089900002
0.92430001 -1.9918 -0.091300003
1.4234 -2.0248001 -0.1029
1.8212 -2.1542001 -0.1173
-0.40650001 -2.7871001 -0.164
0.076200001 -2.2790999 -0.1328
0.26660001 -2.1643 -0.127
0.63059998 -2.0327001 -0.124
1.2727 -1.9937 -0.13779999
1.5923001 -2.0632 -0.15180001
-0.26010001 -2.5854001 -0.1513
-0.0262 -2.3554001 -0.1372
0.1725 -2.2075 -0.12899999
0.5381 -2.0539 -0.1237
0.72359997 -2.0114 -0.1245
0.92110002 -1.9849 -0.1274
1.1418999 -1.9779 -0.133
1.4182 -2.0174 -0.1436
1.8139 -2.1454999 -0.1636
-0.4048 -2.7753999 -0.2102
0.076099999 -2.2756 -0.1706
0.26609999 -2.1602001 -0.1631
0.44580001 -2.0746 -0.15899999
0.62819999 -2.0251999 -0.15889999
1.5864 -2.0555999 -0.1946
2.3308001 -2.52 -0.2572
-0.62550002 -3.263 -0.249
-0.0262 -2.3515999 -0.1762
0.35699999 -2.1166999 -0.1609
0.53609997 -2.0462 -0.1585
0.7209 -2.0039001 -0.1596
0.91790003 -1.9780999 -0.16339999
1.4131 -2.0102 -0.1841
1.8067 -2.1370001 -0.2097
-0.40310001 -2.7637999 -0.2561
-0.13590001 -2.4375 -0.2238
0.075999998 -2.2721 -0.2084
0.2658 -2.1580999 -0.19930001
0.44530001 -2.0722001 -0.1943
0.62620002 -2.0186 -0.1938
1.0219001 -1.9675 -0.2033
1.5806 -2.0480001 -0.23720001
2.3106999 -2.4983001 -0.31200001
-0.2588 -2.5723 -0.237
-0.0262 -2.3478 -0.21529999
0.17209999 -2.2028999 -0.2026
0.3567 -2.1145999 -0.19660001
0.53500003 -2.0422001 -0.1935
0.71820003 -1.9964 -0.1945
1.408 -2.0028999 -0.2245
0.26550001 -2.1559999 -0.23559999
0.44490001 -2.0703001 -0.2297
1.0183001 -1.9606 -0.2396
1.5747 -2.0404 -0.27959999
-0.6128 -3.1968999 -0.3531
0.7173 -1.9938999 -0.2298
0.0757 -2.2650001 -0.28400001
0.26530001 -2.1538 -0.27200001
0.62559998 -2.0165999 -0.26460001
1.017 -1.9581 -0.27649999
1.2552 -1.9662 -0.29229999
2.2715001 -2.4559 -0.4192
-0.25749999 -2.5592 -0.32229999
0.5345 -2.0402999 -0.26429999
0.71700001 -1.9929 -0.26539999
0.91170001 -1.9646 -0.2714
-0.398 -2.7291999 -0.39230001
0.075599998 -2.2614999 -0.32179999
0.80989999 -1.9708 -0.30309999
1.5648 -2.0274999 -0.36430001
-0.026000001 -2.3364999 -0.33239999
0.3556 -2.1085 -0.30410001
0.53430003 -2.0393 -0.29980001
0.91170001 -1.9646 -0.30809999
1.7781 -2.1032 -0.3917
-0.39809999 -2.7297001 -0.4393
-0.1346 -2.4142001 -0.38499999
0.2647 -2.1496 -0.34490001
0.62489998 -2.0146 -0.33590001
1.0171 -1.9583 -0.35139999
2.2537 -2.4367001 -0.52850002
-0.61809999 -3.2244999 -0.52280003
-0.25619999 -2.5462 -0.4075
-0.026000001 -2.3327 -0.37149999
0.1714 -2.194 -0.3504
0.35530001 -2.1064 -0.34020001
0.53399998 -2.0381999 -0.3355
0.91170001 -1.9647 -0.34490001
1.1267999 -1.9516 -0.35879999
1.3974 -1.9878 -0.38690001
1.7802 -2.1056001 -0.4391
0.075400002 -2.2544 -0.39770001
0.44310001 -2.0623 -0.37189999
0.81 -1.971 -0.3757
1.0171 -1.9583 -0.38909999
1.2578 -1.9703 -0.4122
1.572 -2.0369999 -0.45370001
-0.25639999 -2.5483999 -0.45159999
-0.025900001 -2.329 -0.41069999
0.35499999 -2.1043 -0.37630001
0.53369999 -2.0372 -0.37130001
0.91170001 -1.9648 -0.38190001
1.3986 -1.9895 -0.42879999
1.7871 -2.1138 -0.48809999
-0.1345 -2.4129 -0.4677
0.075199999 -2.2507999 -0.43579999
0.4427 -2.0602 -0.40779999
0.6243 -2.0125999 -0.40779999
0.81 -1.9711 -0.41240001
0.17110001 -2.1896 -0.42500001
0.35460001 -2.1022 -0.41260001
0.5334 -2.0362 -0.4073
0.91180003 -1.9649 -0.4192
1.1282001 -1.9541 -0.4366
1.3997999 -1.9912 -0.47099999
-0.40380001 -2.7683001 -0.5898
-0.1349 -2.4200001 -0.51099998
0.075300001 -2.2512 -0.47490001
0.264 -2.1431 -0.45519999
0.62400001 -2.0116 -0.44400001
0.81 -1.9711 -0.44929999
1.0172 -1.9585 -0.46529999
1.2599 -1.9736 -0.49360001
0.1709 -2.1873 -0.46250001
0.53320003 -2.0352001 -0.44350001
0.71520001 -1.9879 -0.4454
1.401 -1.993 -0.51359999
0.075499997 -2.2571001 -0.51550001
0.62370002 -2.0106001 -0.48050001
0.81010002 -1.9712 -0.48640001
1.0173 -1.9586 -0.50370002
1.261 -1.9753 -0.53490001
1.5833 -2.0515001 -0.59149998
-0.25889999 -2.5732999 -0.59030002
-0.0261 -2.3387001 -0.53380001
0.17129999 -2.1917 -0.5018
0.35389999 -2.0980999 -0.48559999
0.53289998 -2.0341001 -0.4799
1.13 -1.9572001 -0.5158
-0.1358 -2.4349999 -0.5995
0.0757 -2.2632 -0.55659997
0.2647 -2.1487999 -0.53219998
0.62339997 -2.0095 -0.51719999
-0.2597 -2.5818 -0.63779998
-0.0261 -2.3450999 -0.5765
0.3545 -2.1017001 -0.52389997
0.53259999 -2.0330999 -0.51660001
0.71439999 -1.9859 -0.51880002
0.91189998 -1.9651 -0.53250003
0.075900003 -2.2693 -0.59829998
0.44369999 -2.0648999 -0.55650002
0.62419999 -2.0122001 -0.55510002
0.81010002 -1.9713 -0.56160003
1.0173 -1.9586999 -0.58160001
1.591 -2.0615001 -0.68620002
-0.0262 -2.3517001 -0.61970001
0.17219999 -2.2038 -0.58249998
0.35550001 -2.1073999 -0.56309998
0.91189998 -1.9651 -0.57090002
1.4048001 -1.9983 -0.6437
-0.1366 -2.4505 -0.69050002
0.44510001 -2.0713 -0.59609997
0.81300002 -1.9783 -0.60180002
1.2663 -1.9836 -0.66210002
-0.0263 -2.3584001 -0.66360003
0.1727 -2.21 -0.62370002
1.1349 -1.9657 -0.63859999
1.8709 -2.2128999 -0.81529999
-0.42449999 -2.9107001 -0.88059998
-0.1371 -2.4584 -0.73710001
0.076300003 -2.2818 -0.68349999
0.2669 -2.1666999 -0.65359998
0.62809998 -2.0248001 -0.6347
0.81620002 -1.9861 -0.64289999
1.0236 -1.9708 -0.6649
1.6154 -2.0931001 -0.79149997
-0.2633 -2.6171999 -0.78750002
0.1732 -2.2163 -0.66549999
0.53740001 -2.0511999 -0.63480002
1.1413 -1.9766999 -0.68330002
1.4212 -2.0216 -0.73979998
-0.43290001 -2.9679 -0.95249999
0.076499999 -2.2881 -0.72710001
0.2676 -2.1728001 -0.69529998
0.4479 -2.0845001 -0.6771
0.63010001 -2.0311999 -0.67540002
1.0279 -1.979 -0.70819998
1.2812001 -2.007 -0.75620002
1.6313 -2.1136999 -0.84799999
-0.0264 -2.372 -0.75330001
0.1737 -2.2227001 -0.708
0.35839999 -2.1248 -0.68430001
0.53909999 -2.0576999 -0.67549998
0.72130001 -2.0049 -0.6767
0.92180002 -1.9865 -0.69550002
1.4342999 -2.0402999 -0.792
0.44940001 -2.0912001 -0.71869999
0.63209999 -2.0378001 -0.71679997
1.6477 -2.1350999 -0.90609998
-0.2696 -2.6803 -0.90509999
-0.0265 -2.3831 -0.80070001
0.1742 -2.2291 -0.75120002
0.54079998 -2.0644 -0.71700001
1.1545 -1.9996001 -0.77579999
2.1013999 -2.4855001 -1.0936
0.2692 -2.1854 -0.78079998
0.4508 -2.0980999 -0.76090002
0.82620001 -2.0105 -0.77069998
1.0366 -1.9958 -0.7974
1.6694 -2.1631 -0.96890002
-0.273 -2.7135 -0.96700001
-0.026799999 -2.405 -0.85280001
0.36039999 -2.1368999 -0.76840001
0.077799998 -2.3276999 -0.86970001
0.4524 -2.1050999 -0.80400002
0.63630003 -2.0511999 -0.80190003
0.82969999 -2.0188999 -0.81510001
1.0412 -2.0048001 -0.84350002
1.3049999 -2.0441999 -0.90560001
1.7015001 -2.2047999 -1.04
-0.027000001 -2.4275 -0.90649998
0.1759 -2.2504001 -0.84289998
0.54439998 -2.0780001 -0.8021
0.72899997 -2.0263 -0.80409998
0.93349999 -2.0116999 -0.82810003
1.1683 -2.0236001 -0.8725
1.476 -2.0996001 -0.95840001
-0.1443 -2.5880001 -1.0173
0.63840002 -2.0581 -0.84570003
1.0474 -2.0165999 -0.8919
-0.28420001 -2.8247001 -1.1142
-0.0273 -2.4507 -0.9619
0.54619998 -2.085 -0.8459
0.73210001 -2.0348001 -0.84869999
0.9375 -2.0204 -0.87419999
1.1755 -2.036 -0.92269999
1.4908 -2.1206999 -1.0174
0.27450001 -2.2291 -0.92479998
0.45770001 -2.1301 -0.89719999
0.64160001 -2.0682001 -0.89170003
0.8369 -2.0362999 -0.9066
1.8250999 -2.3648 -1.2301
-0.2992 -2.9744999 -1.2309999
-0.0276 -2.4747 -1.0191
0.3664 -2.1724 -0.90719998
-0.1498 -2.6867001 -1.1607
0.27689999 -2.2484 -0.97719997
0.64719999 -2.0862 -0.94220001
0.84490001 -2.056 -0.95880002
0.74269998 -2.0643001 -0.94630003
0.95050001 -2.0483 -0.97409999
1.1991 -2.0768001 -1.0344
0.4659 -2.1681001 -1.0006
1.3785 -2.1594 -1.156
-0.0283 -2.5411999 -1.1467
0.5596 -2.1359 -0.99629998
0.75019997 -2.0854001 -1
0.9605 -2.0697999 -1.0296
1.6004 -2.2765999 -1.2557
0.082099997 -2.4572001 -1.1589
0.4702 -2.188 -1.0549001
0.86269999 -2.0992999 -1.0698
1.0959001 -2.1099 -1.1207
1.4084001 -2.2061999 -1.2338001
-0.028999999 -2.5987 -1.2251
0.1838 -2.3518 -1.112
0.3761 -2.2293999 -1.0657001
0.56470001 -2.1554999 -1.0503
0.9709 -2.0920999 -1.0872
1.2333 -2.1361001 -1.1627001
1.6706001 -2.3764999 -1.3693
0.083999999 -2.5118999 -1.2362
0.47459999 -2.2086999 -1.1111
1.1115 -2.1401 -1.1861
1.4400001 -2.2557001 -1.3163
-0.0298 -2.6736 -1.3151
0.1868 -2.3901 -1.1792001
0.56999999 -2.1756999 -1.1062
0.98180002 -2.1156001 -1.1472
1.2516 -2.1677999 -1.2312
0.47920001 -2.23 -1.1694
1.5111001 -2.3671 -1.4397
-0.030999999 -2.7853 -1.428
0.19050001 -2.438 -1.2537
0.57550001 -2.1967001 -1.1641999
0.89399999 -2.1754 -1.2556
0.1945 -2.4893999 -1.3329999
0.39210001 -2.3241999 -1.2582999
0.58459997 -2.2314 -1.2314
0.093599997 -2.7999001 -1.5559
0.30219999 -2.4533999 -1.3729
0.49829999 -2.3192 -1.3175
0.69559997 -2.2423999 -1.304
0.91460001 -2.2254 -1.3363
1.1894 -2.29 -1.4332
1.0443 -2.2504001 -1.3779
0.31099999 -2.5255001 -1.4691
0.50889999 -2.3683 -1.3986
0.7119 -2.2948999 -1.3872
0.9382 -2.2829001 -1.425
0.2112 -2.7026 -1.5651
0.60890001 -2.3243001 -1.3872
1.0765001 -2.3199 -1.4766001
