# .PCD v0.7 - Point Cloud Data file format
VERSION 0.7
FIELDS x y z
SIZE 4 4 4
TYPE F F F
COUNT 1 1 1
WIDTH 492
HEIGHT 1
VIEWPOINT 0 0 0 1 0 0 0
POINTS 492
DATA ascii
0.096600004 -2.8896999 1.1348
-0.0328 -2.9451001 1.1559
0.2255 -2.8861001 1.1362
0.51029998 -3.0250001 1.204
-0.1602 -2.8736999 1.0747
0.63700002 -2.9642 1.1321
-0.30340001 -3.016 1.1319
-0.031199999 -2.8025999 1.0466
0.2149 -2.7500999 1.0301
0.4765 -2.8248 1.0697
0.32910001 -2.6722 0.95469999
0.59429997 -2.7658 1.0031
-0.030099999 -2.7068999 0.95990002
0.2086 -2.6691 0.94929999
0.45789999 -2.7142999 0.97600001
-0.1487 -2.6659999 0.89709997
0.31979999 -2.5962 0.87889999
0.57730001 -2.6866 0.92330003
-0.27599999 -2.7441001 0.92659998
0.72960001 -2.7849 0.9673
-0.4041 -2.7708001 0.88929999
-0.1455 -2.6101 0.83020002
0.085000001 -2.5429001 0.80800003
-0.26789999 -2.6633999 0.85009998
-0.0286 -2.5645001 0.81449997
0.43309999 -2.5678999 0.82700002
-0.39430001 -2.7037001 0.81800002
0.30689999 -2.4916999 0.75160003
0.54650003 -2.5434 0.77880001
-0.2626 -2.6099999 0.78530002
-0.028100001 -2.5188 0.75410002
0.19499999 -2.4949 0.74919999
-0.70910001 -2.9754 0.86059999
-0.38510001 -2.6403 0.7507
0.082400002 -2.4656 0.69410002
-0.25780001 -2.563 0.72469997
-0.0276 -2.4751999 0.6965
0.192 -2.4572001 0.69349998
0.41800001 -2.4779999 0.70709997
1.0185 -2.8310001 0.84649998
-0.68220001 -2.8627 0.7755
-0.37630001 -2.5804 0.68709999
0.081200004 -2.4293001 0.64050001
0.2983 -2.4217 0.64289999
-0.51429999 -2.6833 0.71990001
-0.25330001 -2.5179999 0.66680002
0.1892 -2.421 0.63990003
0.41209999 -2.4428999 0.65280002
0.65820003 -2.5121 0.68430001
-0.65750003 -2.7592001 0.6972
0.2942 -2.3886001 0.5916
0.78689998 -2.5367999 0.65280002
-0.5025 -2.6214001 0.65609998
0.64840001 -2.4749999 0.62889999
0.94749999 -2.6335001 0.68790001
-0.36379999 -2.4942 0.57529998
0.29030001 -2.3566999 0.542
0.77509999 -2.4988 0.59710002
1.1295 -2.7485001 0.67820001
-0.8283 -2.8970001 0.68769997
-0.49470001 -2.5808001 0.59979999
-0.2464 -2.4493001 0.56190002
-0.0265 -2.3789999 0.54299998
0.1839 -2.3533001 0.5388
0.63910002 -2.4393001 0.57560003
0.93080002 -2.5871999 0.62760001
-0.3601 -2.4690001 0.52600002
0.078500003 -2.3464999 0.495
0.50819999 -2.365 0.50999999
-0.8089 -2.8288 0.62029999
-0.244 -2.4251001 0.51380002
-0.0263 -2.3594 0.49739999
0.1824 -2.3341 0.49360001
0.63010001 -2.4049001 0.52410001
0.9149 -2.5429001 0.5697
0.077799998 -2.3275001 0.45070001
0.28529999 -2.3166001 0.4517
0.75279999 -2.4268999 0.49169999
1.0785 -2.6243 0.54909998
-0.79210001 -2.7702 0.55760002
-0.48190001 -2.5139999 0.49540001
-0.24160001 -2.4015999 0.46709999
-0.0261 -2.3403001 0.45289999
0.62129998 -2.3715999 0.47440001
0.89960003 -2.5004001 0.51419997
1.3376 -2.8824 0.61489999
-0.61320001 -2.5732 0.4664
-0.35299999 -2.4205999 0.43130001
-0.025900001 -2.3216 0.40939999
0.38980001 -2.3106999 0.41319999
0.61580002 -2.3504 0.42840001
-0.97070003 -2.8993001 0.4869
-0.34959999 -2.3973 0.3858
0.0766 -2.2909 0.36500001
0.49540001 -2.3052001 0.37549999
0.73629999 -2.3736999 0.39579999
-0.76090002 -2.6610999 0.44069999
-0.237 -2.3563001 0.37709999
-0.025699999 -2.3032 0.36680001
0.1781 -2.2788999 0.36399999
0.61129999 -2.3332 0.38409999
-0.34630001 -2.3745 0.34130001
-0.12809999 -2.2979 0.3274
0.075999998 -2.2730999 0.32350001
0.49169999 -2.2883999 0.33289999
1.0242 -2.4923999 0.38330001
-0.74629998 -2.6101 0.38609999
-0.2348 -2.3343999 0.3337
-0.0254 -2.2853 0.3251
0.1767 -2.2613001 0.32260001
0.60680002 -2.3162999 0.34060001
0.86409998 -2.4017 0.36300001
1.2361 -2.6637001 0.41769999
-0.3432 -2.3532 0.29800001
-0.12710001 -2.2801001 0.28619999
0.075400002 -2.2557001 0.28279999
0.27720001 -2.2509 0.28420001
0.48820001 -2.2718999 0.29120001
0.72539997 -2.3385999 0.30680001
1.015 -2.4698999 0.3346
-0.45950001 -2.3971 0.30590001
-0.0253 -2.2677 0.28420001
0.38139999 -2.2611001 0.28740001
0.60250002 -2.2997 0.29789999
0.85720003 -2.3824999 0.31729999
-0.3416 -2.3418 0.25670001
0.074900001 -2.2386999 0.243
0.2753 -2.2351999 0.24429999
0.7202 -2.3216 0.26359999
1.0066 -2.4493999 0.2872
1.5138 -2.9145 0.35620001
-0.73070002 -2.5555 0.28830001
-0.45719999 -2.3852 0.26339999
-0.2314 -2.3006999 0.25080001
-0.0251 -2.2523999 0.24429999
0.17399999 -2.2270999 0.2423
0.37869999 -2.2451999 0.24699999
0.59820002 -2.2834001 0.25600001
0.85039997 -2.3638 0.27250001
-0.58329999 -2.4477999 0.2307
-0.126 -2.2593999 0.2075
0.074500002 -2.2290001 0.2045
0.27340001 -2.2198 0.205
0.4813 -2.2397001 0.20999999
0.99830002 -2.4293001 0.24079999
1.4414999 -2.7753 0.28670001
-1.1704 -3.039 0.29859999
-0.72570002 -2.5378001 0.242
-0.45500001 -2.3735001 0.2216
-0.2304 -2.2899001 0.211
-0.025 -2.244 0.2057
0.3761 -2.2296 0.20730001
0.84380001 -2.3454001 0.22849999
1.1777 -2.5378001 0.25650001
-0.57950002 -2.4317 0.1873
-0.33829999 -2.3196001 0.17569999
-0.12549999 -2.2509999 0.169
0.27250001 -2.2124 0.167
0.4779 -2.2241001 0.1705
0.99019998 -2.4096 0.1952
-0.45269999 -2.362 0.1802
-0.22930001 -2.2793 0.1717
-0.024900001 -2.2358 0.16760001
0.3741 -2.2176001 0.16850001
0.58990002 -2.2516999 0.1744
0.83740002 -2.3275001 0.18539999
1.1658 -2.5121 0.2075
-0.8836 -2.6393001 0.1621
-0.33669999 -2.3087001 0.13590001
-0.125 -2.2427001 0.13079999
0.27169999 -2.2056 0.1294
0.47620001 -2.2161 0.132
0.70480001 -2.2722001 0.13860001
0.98229998 -2.3903 0.1505
-1.1197 -2.9073 0.1815
-0.024800001 -2.2276001 0.12970001
0.17200001 -2.2005999 0.1286
0.37290001 -2.2107999 0.13060001
0.58649999 -2.2385001 0.1348
0.8312 -2.3104999 0.14300001
1.1540999 -2.487 0.15970001
-0.57200003 -2.4003999 0.1026
-0.3351 -2.2979 0.096600004
-0.1246 -2.2344999 0.093099996
0.073700003 -2.2047999 0.091700003
0.27079999 -2.1989 0.092100002
1.3767 -2.6507001 0.1242
-1.0961 -2.8459001 0.1268
-0.44839999 -2.3392999 0.098999999
-0.024700001 -2.2195001 0.092299998
0.58490002 -2.2323999 0.096000001
1.1427 -2.4624 0.1129
-0.86559999 -2.5855 0.068000004
-0.56840003 -2.3850999 0.061099999
0.073399998 -2.1968 0.0548
0.27000001 -2.1921999 0.055100001
0.47330001 -2.2024 0.056200001
1.3619 -2.6222 0.073700003
-0.4463 -2.3281 0.059099998
-0.2262 -2.2481999 0.056299999
-0.024599999 -2.2114 0.055199999
0.1709 -2.1873 0.054699998
0.58329999 -2.2263999 0.057399999
-0.85750002 -2.5613999 0.022399999
-0.56480002 -2.3699999 0.020199999
-0.1237 -2.2182 0.0185
0.4718 -2.1956 0.0187
0.96469998 -2.3475001 0.0211
-0.7015 -2.4533 0.021199999
-0.44420001 -2.3171 0.0196
0.36950001 -2.1905 0.0185
0.82029998 -2.28 0.020099999
-0.56199998 -2.3583 -0.020199999
-0.33050001 -2.2662001 -0.018999999
0.47040001 -2.1888001 -0.0186
0.69580001 -2.2430999 -0.0195
0.9623 -2.3415999 -0.021
-1.0579 -2.7469001 -0.024499999
-0.44209999 -2.3062 -0.0195
-0.024499999 -2.1954999 -0.018200001
0.81830001 -2.2744999 -0.020099999
-0.1228 -2.2021999 -0.055
0.072700001 -2.1733999 -0.054200001
0.69389999 -2.237 -0.058400001
0.95990002 -2.3357 -0.063000001
1.3314 -2.5632999 -0.071999997
-0.69809997 -2.4412999 -0.063299999
-0.44139999 -2.3029001 -0.058499999
-0.0244 -2.1877 -0.0546
0.57859999 -2.2086 -0.056899998
0.81639999 -2.2691 -0.0601
1.1179 -2.4091001 -0.066200003
-0.84969997 -2.5379 -0.1113
0.2667 -2.1659 -0.090700001
0.69199997 -2.2309 -0.097099997
0.95749998 -2.3299 -0.1047
-0.69690001 -2.4370999 -0.1054
-0.44100001 -2.3008001 -0.097400002
0.1689 -2.1612 -0.090099998
-0.55919999 -2.3466001 -0.14049999
-0.32890001 -2.2551999 -0.1327
0.266 -2.1594999 -0.1267
0.9551 -2.3239999 -0.1463
1.325 -2.5511 -0.1674
-0.69559997 -2.4328001 -0.14740001
-0.44060001 -2.2987001 -0.1363
-0.2229 -2.2154 -0.12970001
0.16850001 -2.1557 -0.1259
0.36500001 -2.1640999 -0.1278
0.57560003 -2.1968999 -0.1323
1.1127 -2.3978 -0.154
-0.32859999 -2.2532001 -0.1706
-0.1225 -2.1966 -0.1649
0.072300002 -2.1615 -0.1621
0.26570001 -2.1575999 -0.1629
-0.2228 -2.2147 -0.16680001
-0.0243 -2.1789 -0.16329999
0.16850001 -2.1561999 -0.1621
1.1102999 -2.3924999 -0.19769999
-0.55769998 -2.3401999 -0.22050001
0.2658 -2.1582 -0.19930001
0.46520001 -2.1645999 -0.20299999
1.3187 -2.539 -0.26230001
-1.0404 -2.7012999 -0.26539999
-0.0242 -2.1782999 -0.1997
0.16850001 -2.1568 -0.1983
1.1078 -2.3873 -0.2413
-0.84170002 -2.5142 -0.28760001
-0.55720001 -2.3380001 -0.26069999
-0.1224 -2.1953001 -0.2385
0.26589999 -2.1587 -0.2359
0.9479 -2.3066001 -0.2705
-1.0391999 -2.6981001 -0.3136
-0.69199997 -2.4201 -0.273
-0.2227 -2.2133 -0.2413
-0.0242 -2.1775999 -0.2362
0.3644 -2.1601 -0.2376
0.57359999 -2.1895001 -0.2455
0.80800003 -2.2458 -0.25889999
-0.84140003 -2.5132999 -0.3321
-0.32769999 -2.2472 -0.28459999
-0.1224 -2.1946001 -0.27540001
0.0722 -2.1594999 -0.27079999
0.266 -2.1593001 -0.2726
0.46599999 -2.1687 -0.278
1.3125 -2.5269001 -0.35679999
-0.43900001 -2.2902999 -0.2922
-0.2226 -2.2126 -0.27869999
0.16859999 -2.1579001 -0.2712
0.36449999 -2.1607001 -0.2746
0.57419997 -2.1917 -0.28389999
-0.55610001 -2.3334999 -0.34119999
-0.1223 -2.1939001 -0.3125
0.266 -2.1598001 -0.30950001
0.46650001 -2.1708 -0.31580001
1.3183 -2.5381 -0.4068
-1.0487 -2.723 -0.41499999
-0.4386 -2.2881 -0.33140001
-0.2225 -2.2119999 -0.31619999
0.16869999 -2.1585 -0.30790001
0.8114 -2.2551999 -0.3409
-0.84750003 -2.5313001 -0.4251
-0.1223 -2.1932001 -0.34979999
0.0722 -2.1582 -0.3439
0.26609999 -2.1603999 -0.3466
0.68870002 -2.2200999 -0.37009999
1.3245 -2.5501001 -0.4576
-1.0536 -2.7356 -0.4668
-0.4382 -2.286 -0.37059999
-0.2225 -2.2112999 -0.35389999
0.81309998 -2.2599001 -0.38240001
1.1159 -2.4045999 -0.42210001
-0.8506 -2.5404999 -0.47240001
-0.1223 -2.1925001 -0.3872
0.68940002 -2.2224 -0.41029999
1.3313 -2.5632 -0.50929999
0.36480001 -2.1624 -0.3867
0.57590002 -2.1981001 -0.4007
1.1208 -2.4152999 -0.46950001
-0.85369998 -2.5497999 -0.52039999
-0.32820001 -2.2507 -0.4402
-0.1223 -2.1928 -0.42500001
0.46779999 -2.1772001 -0.43090001
0.69010001 -2.2246001 -0.45070001
1.3454 -2.5903001 -0.56489998
-0.6983 -2.4421 -0.49149999
-0.4409 -2.3002 -0.45320001
-0.0242 -2.1742001 -0.4208
0.36489999 -2.1630001 -0.42449999
0.5765 -2.2003 -0.4402
0.81650001 -2.2695999 -0.4668
1.1258 -2.4261 -0.5176
-0.32929999 -2.2577 -0.48100001
-0.1227 -2.2 -0.46450001
0.9601 -2.3364 -0.53250003
1.3599 -2.6182001 -0.62199998
-0.7008 -2.4507 -0.53740001
0.1688 -2.1607001 -0.4569
0.36500001 -2.1635001 -0.46259999
0.81830001 -2.2744999 -0.50959998
1.1309 -2.437 -0.56639999
-0.1231 -2.2074001 -0.50459999
0.26660001 -2.1647 -0.49779999
0.69150001 -2.2293 -0.5327
0.96240002 -2.3417001 -0.57789999
-1.0894001 -2.8285 -0.6918
-0.0243 -2.1853001 -0.49880001
1.1361001 -2.4481001 -0.616
-0.33140001 -2.2720001 -0.56440002
0.072800003 -2.1768 -0.53530002
0.47029999 -2.1888001 -0.5503
0.96460003 -2.3471 -0.62370002
1.393 -2.6819999 -0.74290001
-1.1266 -2.9251001 -0.7705
-0.4452 -2.3225999 -0.58130002
-0.2251 -2.2377999 -0.5528
0.17 -2.1747999 -0.53619999
0.36629999 -2.1717 -0.5413
0.579 -2.21 -0.56160003
0.82190001 -2.2844999 -0.59680003
1.1413 -2.4593999 -0.66640002
-0.87970001 -2.6276 -0.73019999
0.2687 -2.1817999 -0.57920003
0.97149998 -2.3638999 -0.67339998
-0.7087 -2.4784999 -0.67930001
-0.44670001 -2.3303001 -0.62519997
-0.024499999 -2.1998999 -0.57969999
1.155 -2.4888 -0.72299999
-0.3335 -2.2867 -0.65020001
-0.1243 -2.23 -0.62840003
0.26980001 -2.1905999 -0.62099999
0.70109999 -2.2602 -0.66579998
-0.44819999 -2.3381 -0.66979998
-0.22669999 -2.2534001 -0.6372
0.36950001 -2.1905 -0.625
0.5851 -2.2332001 -0.64950001
-0.90810001 -2.7124 -0.8563
-0.57560003 -2.4154999 -0.74339998
-0.3346 -2.2941999 -0.69410002
0.4777 -2.2228 -0.6807
0.70630002 -2.2769001 -0.7137
0.9903 -2.4096999 -0.77999997
-0.44999999 -2.3476 -0.71560001
-0.22750001 -2.2614999 -0.68049997
-0.024700001 -2.2151 -0.66320002
0.3714 -2.2018001 -0.66850001
0.58819997 -2.2451 -0.69480002
0.84060001 -2.3364 -0.74339998
1.1851 -2.5539 -0.84289998
-0.92320001 -2.7574999 -0.9235
-0.3362 -2.3053999 -0.73989999
-0.1252 -2.2458 -0.71429998
0.48019999 -2.2346001 -0.72589999
1.0026 -2.4396 -0.83770001
-0.73269999 -2.5625999 -0.84649998
-0.45410001 -2.3691001 -0.76609999
-0.22830001 -2.2695999 -0.72439998
-0.024800001 -2.2228 -0.70599997
0.1727 -2.2100999 -0.704
0.37329999 -2.2132001 -0.71280003
0.59140003 -2.2572999 -0.74110001
-0.94639999 -2.8269 -1.0016
-0.33930001 -2.3262 -0.78979999
-0.1257 -2.2537999 -0.75840002
0.074299999 -2.2212 -0.74669999
0.27320001 -2.2177999 -0.75080001
0.48280001 -2.2467 -0.77209997
0.71710002 -2.3116 -0.8132
-0.74129999 -2.5925 -0.9059
-0.45840001 -2.3913 -0.81809998
-0.2298 -2.2846 -0.77149999
0.1734 -2.2193999 -0.74790001
0.37529999 -2.2249999 -0.75809997
0.85390002 -2.3735001 -0.84750003
1.2323 -2.6554999 -0.98360002
-1.0088 -3.0132 -1.1267
-0.59350002 -2.4904001 -0.90780002
0.48539999 -2.2590001 -0.8193
0.7227 -2.3296001 -0.86489999
-0.75019997 -2.6235001 -0.96749997
-0.23190001 -2.3050001 -0.82139999
0.59799999 -2.2823999 -0.83660001
0.86080003 -2.3927 -0.90170002
-0.60030001 -2.5190001 -0.96689999
-0.1279 -2.2934999 -0.85780001
0.075300001 -2.2511001 -0.84100002
0.48820001 -2.2716999 -0.86760002
0.72839999 -2.3480999 -0.91799998
1.0484999 -2.5515001 -1.0301
-0.76639998 -2.6803999 -1.041
-0.4673 -2.4377999 -0.92690003
-0.0252 -2.263 -0.84509999
-0.12899999 -2.3145001 -0.90979999
0.075999998 -2.2728 -0.89249998
0.49360001 -2.2969 -0.92210001
0.7396 -2.3841 -0.97970003
-0.79040003 -2.7643001 -1.1284
-0.0254 -2.2834001 -0.8962
0.1771 -2.2667 -0.89230001
0.3838 -2.2753 -0.90560001
0.88389999 -2.4568999 -1.0247999
-0.3524 -2.4163001 -1.0055
0.49950001 -2.3243001 -0.97899997
-0.82459998 -2.8838 -1.2351
0.1789 -2.2890999 -0.94550002
0.3883 -2.302 -0.96130002
0.90619999 -2.5188999 -1.1023
-0.13150001 -2.3585 -1.0190001
0.50559998 -2.3527999 -1.038
0.76419997 -2.4633999 -1.1126
-0.025900001 -2.3261001 -1.0035
0.39300001 -2.3296001 -1.0191
0.6275 -2.3951001 -1.068
-0.36480001 -2.5014999 -1.1407
-0.1328 -2.3817 -1.0763
0.078299999 -2.3426001 -1.0576
0.28780001 -2.3364999 -1.0622
-0.2445 -2.4305 -1.1022
0.18260001 -2.3362 -1.0574
0.63789999 -2.4347999 -1.1357
0.95550001 -2.6557 -1.2735
-0.1353 -2.4275 -1.146
0.29139999 -2.3657 -1.1235
-0.5108 -2.6651001 -1.2790999
0.18449999 -2.3611 -1.1163
0.64880002 -2.4765 -1.2068
1.0413001 -2.8943 -1.4499
-0.38139999 -2.6148 -1.2997
0.080799997 -2.4168999 -1.1894
0.2967 -2.4092 -1.1939
0.83829999 -2.7024 -1.3917
-0.25459999 -2.5309 -1.2510999
-0.027100001 -2.4333999 -1.1969
0.18780001 -2.4030001 -1.1855
0.41010001 -2.4315 -1.2128
0.66729999 -2.5471001 -1.2951
0.30399999 -2.4686999 -1.2752
-0.0277 -2.4858999 -1.2745
-0.14489999 -2.5982001 -1.3892
0.084399998 -2.5237 -1.348
0.31189999 -2.5322001 -1.362
0.5668 -2.6375 -1.4402
-0.2719 -2.7024 -1.45
-0.0283 -2.5416 -1.3569
0.73040003 -2.7880001 -1.5386
-0.1521 -2.7281001 -1.5175
0.32100001 -2.6059 -1.4582
-0.2924 -2.9066999 -1.6224999
0.44940001 -2.664 -1.5005
0.34220001 -2.7781999 -1.6161
-0.031099999 -2.7888999 -1.6102999
0.49439999 -2.9308 -1.716
