# .PCD v0.7 - Point Cloud Data file format
VERSION 0.7
FIELDS x y z
SIZE 4 4 4
TYPE F F F
COUNT 1 1 1
WIDTH 451
HEIGHT 1
VIEWPOINT 0 0 0 1 0 0 0
POINTS 451
DATA ascii
-0.7536 -3.1623001 1.3387001
-0.43759999 -3.0006001 1.2487
-0.1734 -3.1099 1.2826
-0.57929999 -3.0222001 1.2672
-0.3039 -3.0204999 1.2501
-0.41679999 -2.8576 1.1334
-0.86430001 -3.0225999 1.2338001
-0.54820001 -2.8599999 1.1429
-0.28850001 -2.8683 1.1314
-0.0339 -3.046 1.1955
-1.0175 -3.0392001 1.1968
-0.6681 -2.8034 1.0762
-0.40439999 -2.7727001 1.0463001
-0.15809999 -2.8357 1.0605
-0.28080001 -2.7913001 1.0476
-0.154 -2.7616 0.98070002
-0.78960001 -2.7616 1.0185
-0.031399999 -2.8224001 1.0008
-0.6311 -2.6484001 0.91469997
-0.15009999 -2.6919999 0.9059
0.094999999 -2.8406999 0.95499998
0.40599999 -3.296 1.1158
-0.76969999 -2.6919 0.94069999
-0.26710001 -2.6551001 0.89660001
-0.0306 -2.7509 0.92430001
0.2318 -2.9665999 0.99980003
-0.90090001 -2.691 0.9012
-0.62110001 -2.6061001 0.85079998
-0.37830001 -2.5936 0.83240002
-0.14749999 -2.6447999 0.84130001
-0.75449997 -2.6386001 0.87159997
0.2252 -2.882 0.9181
-1.2687 -2.9017 0.94809997
-0.88300002 -2.6375 0.83270001
-0.37290001 -2.5569999 0.77359998
-0.1454 -2.6084001 0.78210002
0.36489999 -2.9626 0.89359999
-1.0484999 -2.7223001 0.87339997
-0.74000001 -2.5878999 0.80580002
-0.2597 -2.582 0.77689999
-0.0295 -2.6505001 0.79360002
-0.866 -2.5867 0.76749998
0.089500003 -2.6758001 0.75330001
0.35460001 -2.8794999 0.81629997
-1.0197001 -2.6477001 0.79830003
-0.72619998 -2.5395999 0.7432
-0.48320001 -2.5208001 0.72219998
-0.25619999 -2.5474 0.72039998
-0.029100001 -2.6157 0.736
-0.59320003 -2.4893 0.67430001
-0.36320001 -2.4900999 0.6631
0.088299997 -2.6406 0.69620001
0.34720001 -2.8187001 0.74830002
-1.4572999 -2.9655001 0.8707
-0.2529 -2.5141001 0.66579998
-0.0288 -2.5820999 0.68040001
0.21170001 -2.7084999 0.7159
-1.1588 -2.6503 0.71100003
0.087200001 -2.6066999 0.64109999
0.34220001 -2.7783999 0.68809998
0.713 -3.3182001 0.83420002
-0.98549998 -2.5589001 0.67400002
-0.0284 -2.5497 0.6268
0.2088 -2.6714001 0.65859997
-0.58289999 -2.4461 0.57389998
-0.3567 -2.4454999 0.56410003
0.33739999 -2.7395999 0.63
0.66900003 -3.1134 0.72680002
-0.97460002 -2.5306001 0.6189
-0.24779999 -2.4628999 0.565
-1.7085 -3.1177001 0.74949998
-1.1231 -2.5685 0.59100002
-0.8233 -2.4591 0.5467
-0.57810003 -2.4259 0.52579999
-0.1373 -2.4633 0.5201
0.085100003 -2.5439 0.53659999
0.3328 -2.7021 0.574
-1.3193001 -2.6847 0.63059998
-0.6961 -2.4342999 0.53380001
-0.24600001 -2.4454999 0.51819998
-0.027799999 -2.4992001 0.52689999
0.47589999 -2.8213 0.60320002
-0.35170001 -2.4114001 0.4716
-0.1364 -2.4460001 0.47409999
0.0845 -2.5271001 0.48930001
0.63840002 -2.971 0.58810002
-1.2982 -2.6417 0.56959999
-0.95370001 -2.4763 0.51349998
-0.69029999 -2.4143 0.48590001
-0.24429999 -2.4284999 0.47229999
0.4682 -2.7757001 0.54470003
-1.5344 -2.8 0.56300002
-0.56879997 -2.3870001 0.43270001
0.083899997 -2.5105 0.4429
-0.68470001 -2.3945999 0.43920001
-0.4562 -2.3799 0.42730001
-0.0275 -2.467 0.435
-0.56440002 -2.3680999 0.38769999
-0.1345 -2.4126 0.38479999
0.083400004 -2.4942999 0.39739999
0.6171 -2.8715999 0.4677
-1.2582999 -2.5604999 0.45429999
-0.93400002 -2.425 0.4138
-0.241 -2.3954 0.38339999
0.19859999 -2.5409 0.40580001
-1.4657 -2.6745 0.43380001
-1.0728 -2.4535999 0.3809
-0.56 -2.3497 0.3436
0.082900003 -2.4784 0.3527
0.60820001 -2.8304 0.4118
-1.2471 -2.5376999 0.40220001
-0.67460001 -2.3592 0.34900001
0.1973 -2.5246999 0.36019999
0.81440002 -3.1085 0.4571
-1.4454 -2.6375 0.37689999
0.60360003 -2.8089001 0.36000001
-1.2372 -2.5177 0.3515
-0.027000001 -2.4208 0.30340001
0.31650001 -2.5699999 0.2809
-1.2276 -2.4981 0.3019
-0.91839999 -2.3845 0.27720001
-0.66960001 -2.3415999 0.2642
-0.44639999 -2.329 0.2572
-0.2368 -2.3536 0.25659999
-0.026799999 -2.4059999 0.26100001
0.44749999 -2.6526999 0.29179999
0.78359997 -2.9909 0.33539999
-0.78439999 -2.3429999 0.2265
-0.3405 -2.3346 0.2163
0.081299998 -2.4321001 0.22310001
-1.7311 -2.8497 0.3057
-1.2181 -2.4788001 0.25319999
-0.66710001 -2.3329 0.22239999
-0.4452 -2.3224001 0.2168
-0.2361 -2.3469 0.21619999
-0.026699999 -2.3959999 0.21969999
0.77590001 -2.9616001 0.2807
-1.406 -2.5655999 0.2192
-0.78149998 -2.3341999 0.18449999
-0.33950001 -2.3281 0.1763
0.081100002 -2.4256001 0.18189999
0.59030002 -2.7467999 0.2105
-1.6948 -2.79 0.2446
-1.2088 -2.4598999 0.2054
-0.9091 -2.3605001 0.18960001
-0.44389999 -2.3158 0.1767
-0.0266 -2.3906 0.17919999
-1.0448999 -2.3898001 0.15189999
-0.77859998 -2.3255999 0.1428
-0.33860001 -2.3215001 0.1366
-0.1311 -2.3513999 0.1372
0.080899999 -2.4200001 0.141
0.31119999 -2.5269001 0.14830001
1.0526 -3.3931999 0.2069
-1.67 -2.7492001 0.1874
-0.90460002 -2.3487 0.14659999
-0.66219997 -2.3159001 0.14030001
-0.2348 -2.3336999 0.1366
-1.3844 -2.5262001 0.1198
-0.13079999 -2.3461001 0.0977
0.31060001 -2.5222001 0.1057
1.0319 -3.3262999 0.14480001
-1.6533999 -2.7218001 0.13240001
-1.1908 -2.4231 0.1123
-0.90009999 -2.3371 0.1041
-0.44139999 -2.3029001 0.097499996
-0.2341 -2.3271999 0.097199999
0.192 -2.4565001 0.1025
-1.0354 -2.3680999 0.064499997
-0.33669999 -2.3085999 0.058200002
-0.1305 -2.3408999 0.058499999
0.080499999 -2.4089999 0.0601
0.31009999 -2.5174999 0.063299999
1.0118999 -3.2621 0.085199997
-0.65740001 -2.2990999 0.059599999
-0.0264 -2.3745 0.0592
0.43650001 -2.5874 0.065399997
-1.0346 -2.3662 0.021500001
-0.33579999 -2.3020999 0.019300001
-0.1302 -2.3357 0.019400001
0.080399998 -2.4035001 0.02
-1.6395 -2.6989999 0.0262
-1.1862 -2.4138999 0.022399999
-0.23280001 -2.3141999 0.019300001
-0.0264 -2.3692 0.0197
0.1913 -2.4477 0.020400001
0.74510002 -2.8441 0.0244
-1.3764 -2.5116999 -0.023800001
-0.77090001 -2.3025 -0.020199999
-0.3348 -2.2958 -0.019300001
-0.12989999 -2.3306 -0.019400001
0.080200002 -2.398 -0.0199
0.57859999 -2.6926999 -0.0229
0.98199999 -3.1657 -0.0275
-0.89359999 -2.3202 -0.0207
-0.2322 -2.3079 -0.019300001
0.1909 -2.4433 -0.020400001
0.4348 -2.5776 -0.0217
0.74470001 -2.8422999 -0.0244
-1.0329 -2.3622999 -0.064300001
-0.77079999 -2.3022001 -0.0605
-0.33430001 -2.2923 -0.057799999
0.079999998 -2.3926001 -0.059700001
0.30840001 -2.5037 -0.062899999
0.57779998 -2.6889 -0.068599999
0.9835 -3.1705 -0.082800001
-1.6259 -2.6767001 -0.078100003
-1.1842 -2.4096999 -0.067000002
-0.89289999 -2.3183999 -0.061999999
0.19059999 -2.4389999 -0.061000001
0.74419999 -2.8405001 -0.073200002
-1.3712 -2.5021 -0.1186
0.079800002 -2.3872001 -0.099299997
0.30779999 -2.4991 -0.1047
-0.89219999 -2.3164999 -0.1032
-0.43799999 -2.2850001 -0.096699998
-0.2315 -2.3017001 -0.096199997
0.1903 -2.4346001 -0.1015
0.74370003 -2.8387001 -0.122
-1.3685 -2.4972999 -0.16590001
-1.0312001 -2.3584001 -0.1499
-0.3346 -2.2944 -0.13500001
0.30720001 -2.4944999 -0.1464
-0.65439999 -2.2887001 -0.13860001
-0.4382 -2.286 -0.1356
-0.0262 -2.3548999 -0.1372
0.1899 -2.4303 -0.142
0.74330002 -2.8369 -0.1708
-1.3659 -2.4925001 -0.213
-0.7705 -2.3013 -0.18189999
-0.3348 -2.2953999 -0.17380001
-0.12980001 -2.3283 -0.17479999
0.3071 -2.493 -0.1882
0.98809999 -3.1853001 -0.2499
-1.6184 -2.6643 -0.23360001
-1.1811 -2.4036 -0.2007
-0.8915 -2.3148999 -0.1859
-0.65429997 -2.2883999 -0.17839999
-0.4384 -2.2869999 -0.1745
-0.2318 -2.3038001 -0.1735
-0.0262 -2.3575001 -0.1767
-1.3699 -2.4997001 -0.2613
-1.0295 -2.3545001 -0.23559999
-0.77039999 -2.3010001 -0.2225
-0.33489999 -2.2965 -0.2128
-0.13 -2.3309 -0.214
0.57539999 -2.6775 -0.2511
-1.6287 -2.6812 -0.28760001
-0.4386 -2.2881 -0.21359999
-0.23190001 -2.3048 -0.2124
-0.0263 -2.3601 -0.2164
0.19059999 -2.4386001 -0.2242
-1.0293 -2.3541999 -0.27869999
-0.3351 -2.2974999 -0.2518
0.079999998 -2.3928001 -0.2597
0.30829999 -2.5034001 -0.27360001
0.57749999 -2.6875999 -0.29820001
0.99239999 -3.1991999 -0.3633
-1.1842 -2.4098001 -0.29120001
-0.65420002 -2.2878001 -0.2581
-0.0263 -2.3627999 -0.2563
0.43419999 -2.5739999 -0.28310001
0.74589998 -2.8469999 -0.31920001
-1.0332 -2.3629 -0.32319999
-0.33520001 -2.2986 -0.2911
0.0801 -2.3954999 -0.30039999
0.57969999 -2.6977999 -0.34580001
1.011 -3.2590001 -0.4276
-1.1888 -2.4191 -0.3378
-0.8926 -2.3176999 -0.31119999
-0.43900001 -2.2902 -0.2922
0.1913 -2.4486001 -0.30779999
0.43579999 -2.5833001 -0.3283
0.75120002 -2.8673 -0.3714
-1.3882 -2.5330999 -0.4109
-0.7723 -2.3067999 -0.34599999
-0.54400003 -2.2828 -0.33379999
-0.33539999 -2.2995999 -0.33059999
-0.1304 -2.3387001 -0.33320001
0.080200002 -2.3982 -0.34130001
0.5819 -2.7081001 -0.39399999
1.0303 -3.3213 -0.4946
-1.6605999 -2.7337 -0.45500001
-0.89600003 -2.3264 -0.35460001
-0.65429997 -2.2883 -0.33849999
-0.43920001 -2.2913001 -0.33180001
-0.2324 -2.3099999 -0.33019999
-0.0264 -2.3680999 -0.3369
0.1917 -2.4535999 -0.35010001
0.4373 -2.5927 -0.37400001
-0.54530001 -2.2881 -0.37459999
-0.3355 -2.3006999 -0.37020001
0.080300003 -2.4014001 -0.38260001
-1.6716 -2.7519 -0.51270002
-1.1981 -2.4381001 -0.43259999
-0.8994 -2.3352001 -0.3985
-0.65670002 -2.2966001 -0.38029999
-0.43939999 -2.2923 -0.37169999
0.1921 -2.4586999 -0.39269999
0.43889999 -2.6022 -0.42019999
-0.77810001 -2.3239999 -0.4321
0.58649999 -2.7291 -0.49219999
-1.7035 -2.8044 -0.57859999
-0.90280002 -2.3441999 -0.4429
-0.6591 -2.3048999 -0.42269999
-0.0264 -2.3735001 -0.41850001
0.1925 -2.4638 -0.43579999
0.44049999 -2.6118 -0.46700001
-0.78100002 -2.3327999 -0.4761
-0.1311 -2.3515 -0.4558
0.3116 -2.5302 -0.49329999
0.58880001 -2.7399001 -0.54229999
-0.90630001 -2.3533001 -0.48800001
-0.0265 -2.3776 -0.4601
0.1929 -2.4690001 -0.47929999
0.44220001 -2.6215 -0.51450002
0.77350003 -2.9521999 -0.59060001
-1.4285001 -2.6066 -0.62660003
-0.78399998 -2.3417001 -0.52060002
0.081100002 -2.4242001 -0.51139998
0.31259999 -2.5385001 -0.53920001
-0.90990001 -2.3624001 -0.53369999
-0.66399997 -2.3220999 -0.50919998
-0.4447 -2.3202 -0.498
0.1938 -2.4796 -0.5244
0.44400001 -2.6322 -0.56279999
-1.0571001 -2.4177001 -0.60229999
-0.787 -2.3506999 -0.56580001
-0.55430001 -2.3259001 -0.54570001
-0.34040001 -2.3338001 -0.53829998
0.31470001 -2.5555 -0.58770001
0.59789997 -2.7823 -0.64950001
-0.91350001 -2.3717999 -0.5801
-0.44659999 -2.3297999 -0.54140002
-0.026699999 -2.4012001 -0.54809999
0.79259998 -3.0251 -0.71380001
-1.4689 -2.6803999 -0.75129998
-1.0673 -2.4409001 -0.6548
-0.3418 -2.3434999 -0.58209997
-0.1331 -2.3864 -0.58749998
0.082099997 -2.4554 -0.60390002
0.31690001 -2.5732 -0.63730001
-0.91710001 -2.3812001 -0.62720001
-0.66900003 -2.3397 -0.59810001
-0.2374 -2.3603001 -0.58310002
-0.026900001 -2.4133 -0.59320003
0.4526 -2.6831999 -0.66890001
0.82359999 -3.1436 -0.79879999
-0.55900002 -2.3457 -0.6354
-0.1337 -2.3985 -0.63300002
0.31990001 -2.5975001 -0.68959999
-0.92549998 -2.4031 -0.67860001
-0.45030001 -2.3494 -0.6304
-0.2386 -2.3722 -0.62819999
0.19760001 -2.5293 -0.66850001
0.4571 -2.7098 -0.72409999
-1.5397 -2.8096001 -0.90140003
-0.80129999 -2.3933001 -0.7101
-0.5614 -2.3559 -0.6814
-0.34470001 -2.3634 -0.67199999
-0.1344 -2.4108 -0.67930001
0.32300001 -2.6224 -0.74339998
-1.2691 -2.5824001 -0.8096
-0.93440002 -2.4261 -0.73150003
-0.67570001 -2.3629 -0.69150001
-0.23980001 -2.3842001 -0.6742
-0.0272 -2.4382 -0.68599999
0.46169999 -2.7372 -0.78100002
-1.1016999 -2.5197001 -0.8233
-0.34619999 -2.3736999 -0.71820003
0.083700001 -2.5048001 -0.75029999
0.32620001 -2.6480999 -0.79879999
0.63880002 -2.9726 -0.91030002
-0.94349998 -2.4497001 -0.7859
-0.68190002 -2.3847001 -0.74260002
-0.2411 -2.3965001 -0.72109997
0.20039999 -2.5641999 -0.76999998
-1.1138999 -2.5476 -0.88309997
-0.81669998 -2.4391999 -0.81690001
-0.34889999 -2.3926001 -0.76789999
-0.1358 -2.4363999 -0.77499998
0.084299996 -2.5220001 -0.80140001
0.65249997 -3.0366001 -0.98640001
-1.3207 -2.6875999 -0.95099998
-0.95289999 -2.4741001 -0.84200001
-0.68830001 -2.4071 -0.79509997
-0.45910001 -2.395 -0.7744
-0.2428 -2.4133999 -0.77029997
-0.0275 -2.4651999 -0.78299999
0.2018 -2.5822999 -0.82260001
0.47139999 -2.7944 -0.89999998
-1.1323 -2.5896001 -0.94959998
-0.8247 -2.4633 -0.87279999
-0.35249999 -2.4166999 -0.82059997
0.70120001 -3.2632999 -1.1215
-0.96259999 -2.4992001 -0.8998
-0.69489998 -2.4302001 -0.84920001
-1.159 -2.6508 -1.0259
-0.58279997 -2.4453001 -0.89139998
-0.35620001 -2.4426999 -0.87529999
0.34079999 -2.7671001 -0.98860002
-0.97549999 -2.5328 -0.96240002
-0.46799999 -2.4416001 -0.88150001
-0.248 -2.4653001 -0.8786
-0.028100001 -2.5258 -0.89569998
0.207 -2.6486001 -0.94199997
-1.1874 -2.7156 -1.1066999
-0.5887 -2.4700999 -0.94819999
0.3475 -2.8215001 -1.0616
-0.4727 -2.4660001 -0.93760002
-0.2507 -2.4925001 -0.93540001
0.21080001 -2.6982 -1.0106
0.51450002 -3.0499001 -1.155
-1.2224 -2.7958 -1.1976
-0.59490001 -2.4962001 -1.0071
-0.3642 -2.4974999 -0.99059999
0.088799998 -2.6563001 -1.0431
-1.0211999 -2.6515 -1.1151
-0.7202 -2.5188 -1.0282
-0.2536 -2.5207 -0.99430001
-0.028899999 -2.5953 -1.0186
0.2149 -2.7504001 -1.0827
-0.8804 -2.6296 -1.1418999
-0.60650003 -2.5452001 -1.0774
0.090099998 -2.6949999 -1.1104
0.36849999 -2.9916999 -1.2413
-0.48460001 -2.5280001 -1.0599
-0.25650001 -2.55 -1.0553
-0.029300001 -2.6322 -1.084
-0.89950001 -2.6868 -1.2222
-0.61879998 -2.5967 -1.1515
-0.37650001 -2.5813 -1.1253
-0.1464 -2.625 -1.1341
0.092200004 -2.7584 -1.1905
-0.49419999 -2.5783 -1.1324
-0.93839997 -2.8029001 -1.3336999
-0.6318 -2.6512001 -1.2298
0.095700003 -2.8613 -1.2918
-0.50440001 -2.6315 -1.209
0.2385 -3.0524001 -1.3815
-0.99589998 -2.9744999 -1.4786
-0.65039998 -2.7291999 -1.3225
-0.15440001 -2.7685001 -1.3071001
-0.27329999 -2.7170999 -1.2873
-0.031599998 -2.8348 -1.3363
-0.4077 -2.7952001 -1.3894
-0.15979999 -2.8657999 -1.4117
-0.28200001 -2.8027999 -1.3855
-0.4287 -2.9393001 -1.5228
-0.1717 -3.0792 -1.5811
-0.56470001 -2.9461999 -1.5379
