# .PCD v0.7 - Point Cloud Data file format
VERSION 0.7
FIELDS x y z
SIZE 4 4 4
TYPE F F F
COUNT 1 1 1
WIDTH 395
HEIGHT 1
VIEWPOINT 0 0 0 1 0 0 0
POINTS 395
DATA ascii
2.9077001 -2.1928 0.8312
3.109 -1.9363 0.83600003
2.8896999 -2.3884001 0.85570002
2.7309999 -2.47 0.77630001
2.9444001 -1.8338 0.7313
2.8262 -1.9401 0.7227
2.5827999 -2.336 0.67390001
2.6657 -2.0102999 0.64609998
2.8452001 -1.772 0.64859998
3.1670001 -1.6004 0.68669999
2.6277001 -2.5985 0.71520001
2.6027999 -2.1513 0.65350002
2.7416999 -1.8821 0.64349997
2.5035 -2.2642 0.5952
2.5943999 -1.9565001 0.57300001
2.7702 -1.7253 0.57539999
3.0525 -1.5425 0.6031
2.5043001 -2.4765 0.62099999
2.6700001 -1.8328 0.57099998
2.8971 -1.6299 0.58609998
2.6993999 -1.6812 0.50639999
2.4100001 -2.3833001 0.53969997
2.4660001 -2.0381999 0.50940001
2.6022999 -1.7864 0.50260001
3.1787 -1.4322 0.55519998
2.3550999 -2.5462999 0.49329999
2.3745 -2.1475999 0.45539999
2.4834001 -1.8728 0.44240001
2.6496 -1.6501 0.44400001
2.8882 -1.4595 0.4603
2.3419001 -2.316 0.46849999
3.0737 -1.3849 0.4795
2.2936001 -2.4798 0.4233
2.3333001 -2.1103001 0.39430001
2.609 -1.6249 0.38519999
2.3387001 -2.7662001 0.45390001
2.3833001 -1.9698 0.38749999
2.5190001 -1.7292 0.3829
2.9985001 -1.3511 0.41209999
3.7513001 -1.3026 0.49759999
2.2442999 -2.4265001 0.3585
2.4075999 -1.8156 0.32710001
2.5699 -1.6005 0.32839999
2.7945001 -1.4121 0.3396
2.2599001 -2.2349 0.34470001
2.3466001 -1.9395 0.33019999
2.668 -1.501 0.33199999
2.9421999 -1.3257 0.34999999
3.4403999 -1.1946 0.39500001
2.2553999 -2.0399001 0.27880001
2.3715999 -1.7885 0.2723
2.7500999 -1.3897001 0.2825
3.0773001 -1.2247 0.30360001
2.2026 -2.6052999 0.31279999
2.2212 -2.1966 0.28639999
2.3111 -1.9102 0.27489999
2.8882999 -1.3013999 0.2904
3.3508999 -1.1635 0.32519999
2.1522999 -2.3269999 0.2375
2.3388 -1.7637 0.21950001
3.0195 -1.2017 0.24349999
2.184 -2.1598001 0.23019999
2.2785001 -1.8832 0.22149999
2.4112999 -1.6553 0.2192
3.267 -1.1344 0.25920001
2.197 -1.987 0.1725
2.3171999 -1.7474 0.169
2.6740999 -1.3513 0.1745
2.1134 -2.4997001 0.19059999
2.1594 -2.1354001 0.1769
2.3894999 -1.6403 0.1688
2.5597 -1.4401 0.17110001
2.7936001 -1.2587 0.1785
2.1013999 -2.7228 0.14300001
2.4503 -1.5261 0.12
2.6487 -1.3384 0.1234
3.4435999 -1.0263 0.1494
2.0862999 -2.4676001 0.1344
2.5358 -1.4266 0.121
2.7665 -1.2465 0.12620001
3.1182001 -1.0827 0.1372
2.0648999 -2.6754999 0.084299996
2.1557 -1.9497 0.072499998
2.2751999 -1.7158 0.071099997
2.8943 -1.1519001 0.077699997
3.3497 -0.99830002 0.087200001
2.1717 -3.0892 0.0942
2.0599 -2.4365001 0.079599999
2.1154001 -2.0919001 0.074199997
2.2160001 -1.8316 0.071699999
2.3471999 -1.6112 0.071000002
2.5123999 -1.4134001 0.071900003
2.7398 -1.2345001 0.074900001
3.0754001 -1.0678999 0.081200004
2.1359999 -1.9319 0.0239
2.4072001 -1.4992 0.023600001
2.8629999 -1.1395 0.025599999
2.0940001 -2.0708001 0.024499999
2.1960001 -1.8150001 0.023700001
2.4893999 -1.4005001 0.023700001
2.7137001 -1.2227 0.024700001
2.033 -2.1981001 -0.024900001
2.2348001 -1.6853 -0.0233
2.5753 -1.3013 -0.024
2.0460999 -2.9105999 -0.0296
2.0092001 -2.3764 -0.025900001
2.1763 -1.7988 -0.023499999
2.3064001 -1.5833 -0.0233
2.4669001 -1.3878 -0.023499999
3.0014 -1.0422 -0.0264
3.7492001 -0.93769997 -0.032099999
2.0123999 -2.1758001 -0.073899999
2.2151 -1.6705 -0.069200002
2.5517001 -1.2894 -0.0713
3.2077999 -0.95599997 -0.083499998
2.0095 -2.8585 -0.087099999
1.9847 -2.3475001 -0.076700002
2.1570001 -1.7828 -0.069799997
2.4453001 -1.3757 -0.07
3.6150999 -0.90420002 -0.092900001
1.9527 -2.5301001 -0.1329
1.9992 -2.1615 -0.1224
2.0862999 -1.8868999 -0.117
2.773 -1.1036 -0.1241
1.9766001 -2.8117001 -0.1429
1.9681 -2.3278999 -0.1268
2.0402 -2.0174999 -0.1193
2.1452 -1.7731 -0.1157
2.2737 -1.5608 -0.1147
2.4296 -1.3668 -0.1159
2.2007999 -3.4474001 -0.23819999
1.9391 -2.5125 -0.1849
2.0757 -1.8774 -0.163
2.1919999 -1.653 -0.15989999
2.52 -1.2733999 -0.1644
2.7574 -1.0974 -0.17290001
1.9583 -2.7857001 -0.1983
1.9551001 -2.3124001 -0.17640001
2.1345 -1.7642 -0.1613
2.2627001 -1.5532 -0.15989999
2.4177001 -1.3602 -0.16159999
2.6271999 -1.1837 -0.16779999
2.9145 -1.012 -0.1797
2.0622001 -3.2304001 -0.2872
1.9766001 -2.1371 -0.2182
2.1810999 -1.6449 -0.20469999
2.5072999 -1.267 -0.2105
2.7420001 -1.0912 -0.2212
1.9403 -2.7600999 -0.25279999
1.9421 -2.2971001 -0.2254
2.1238 -1.7553 -0.20649999
2.2518001 -1.5457 -0.20469999
2.4059 -1.3535 -0.2069
2.8975999 -1.0061001 -0.2299
3.4156001 -0.85430002 -0.26390001
2.0297 -3.1794 -0.34580001
1.9124 -2.4779 -0.287
1.9655 -2.125 -0.26539999
2.0548 -1.8585 -0.25400001
2.3171999 -1.4432 -0.25029999
2.4947 -1.2606 -0.2563
3.0831001 -0.9188 -0.2949
1.9225 -2.7348001 -0.30649999
2.0065999 -1.9844 -0.25870001
2.2409 -1.5383 -0.2492
2.6004 -1.1717 -0.2615
3.3821001 -0.8459 -0.31959999
1.998 -3.1299 -0.40279999
2.0445001 -1.8491 -0.29899999
2.306 -1.4362 -0.2947
1.9167 -2.2671001 -0.322
1.9956 -1.9735 -0.3044
2.1027 -1.7379 -0.29589999
3.3492 -0.83770001 -0.37450001
1.9673001 -3.0817001 -0.45820001
1.9435 -2.1012001 -0.35870001
2.0342 -1.8398 -0.34369999
2.1489999 -1.6206 -0.3373
2.2948999 -1.4293 -0.33880001
2.4698999 -1.2481 -0.3468
2.6965001 -1.0732 -0.3637
3.0407 -0.90619999 -0.3976
1.8878 -2.6854999 -0.41139999
1.9040999 -2.2521999 -0.3696
1.9847 -1.9627 -0.34979999
2.0922 -1.7292 -0.34020001
2.2195001 -1.5236 -0.33739999
2.3710001 -1.3339 -0.3409
2.5739 -1.1597 -0.3538
2.8477001 -0.98879999 -0.37779999
3.3168001 -0.82959998 -0.4285
1.9446 -3.0460999 -0.514
1.8744 -2.4288001 -0.4364
2.1384001 -1.6126 -0.38100001
2.2839 -1.4224 -0.3827
2.4576001 -1.2419 -0.3917
2.6816001 -1.0671999 -0.41049999
1.8738 -2.6654999 -0.46340001
1.9737999 -1.9519 -0.39480001
2.2088001 -1.5163 -0.3811
2.8313 -0.9831 -0.42629999
3.2849 -0.82160002 -0.48159999
1.9394 -3.0381 -0.57389998
1.8706 -2.4238 -0.48750001
1.9282 -2.0847001 -0.4522
2.1312001 -1.6072 -0.4251
2.4470999 -1.2366 -0.4366
3.0006001 -0.89429998 -0.49860001
1.8696001 -2.6596 -0.51770002
1.9686 -1.9468 -0.4409
1.9342999 -3.03 -0.63389999
1.8668 -2.4189 -0.5388
1.9247 -2.0810001 -0.4998
2.1277001 -1.6046 -0.46990001
2.6647 -1.0605 -0.50569999
2.9972999 -0.8933 -0.55150002
2.0718999 -1.7125 -0.47400001
2.1975999 -1.5086 -0.47
2.3464999 -1.3200999 -0.4747
2.5455999 -1.147 -0.4923
2.8125 -0.97659999 -0.52499998
1.9291 -3.0218999 -0.69379997
1.863 -2.414 -0.59009999
1.9212 -2.0771999 -0.54750001
2.1242001 -1.602 -0.51490003
2.6612 -1.0591 -0.55430001
2.0685 -1.7096 -0.51929998
2.1942 -1.5062 -0.51499999
2.5418 -1.1453 -0.5395
3.2523 -0.81339997 -0.64880002
1.924 -3.0137999 -0.75379997
1.8592 -2.4089999 -0.6415
1.9177001 -2.0734 -0.59539998
2.0081999 -1.8163 -0.57080001
2.1206999 -1.5993 -0.56
2.4363999 -1.2311 -0.57550001
1.9582 -1.9364001 -0.58060002
2.0651 -1.7068 -0.56480002
3.2509999 -0.81309998 -0.70649999
1.9188 -3.0058 -0.81389999
1.9141999 -2.0696001 -0.64340001
2.0048001 -1.8132 -0.61699998
2.4328001 -1.2293 -0.6221
2.654 -1.0562 -0.65200001
2.9872 -0.89029998 -0.71149999
2.0616 -1.704 -0.61049998
2.3355 -1.3139 -0.61159998
2.8006999 -0.97250003 -0.6767
3.2497001 -0.81279999 -0.76459998
1.9306 -3.0243001 -0.88190001
1.8515 -2.3991001 -0.74489999
2.0014 -1.8102 -0.66329998
2.1136999 -1.594 -0.65069997
2.2574999 -1.406 -0.65369999
2.4291999 -1.2275 -0.66900003
2.6503 -1.0548 -0.70109999
2.9837999 -0.88929999 -0.76529998
1.8485 -2.6294999 -0.79009998
1.8697 -2.2114 -0.71179998
1.9511 -1.9295 -0.67449999
2.1839001 -1.4992 -0.65109998
2.3317001 -1.3118 -0.65759999
2.5302999 -1.1401 -0.68220001
3.2485001 -0.8125 -0.82309997
1.9523 -3.0581999 -0.95599997
1.8525 -2.4003 -0.79890001
1.9071 -2.0618999 -0.74010003
2.9804001 -0.88819999 -0.81950003
1.8576 -2.6424 -0.85110003
2.1805 -1.4967999 -0.69690001
2.7927001 -0.96969998 -0.77899998
1.9095 -2.0645001 -0.79119998
1.9964 -1.8056 -0.75739998
2.2502999 -1.4015 -0.74589998
2.4217999 -1.2237999 -0.76349998
2.6447999 -1.0526 -0.80089998
2.9895 -0.89099997 -0.87769997
1.8723 -2.2145 -0.81590003
2.0517001 -1.6957999 -0.7489
2.5225999 -1.1366 -0.77850002
2.7936001 -0.97000003 -0.83200002
1.9977 -3.1294 -1.1115
1.8641 -2.4154 -0.91339999
2.0002999 -1.8091 -0.80739999
2.1101 -1.5913 -0.79119998
2.6533 -1.056 -0.8549
1.8766 -2.6695001 -0.97689998
2.0557001 -1.699 -0.79839998
2.1801 -1.4966 -0.79170001
3.3150001 -0.82910001 -1.023
1.8701 -2.4231 -0.97210002
1.9182 -2.0739 -0.89719999
2.0042 -1.8127 -0.85820001
2.1141 -1.5943 -0.8409
2.4322 -1.229 -0.86540002
2.6619 -1.0594 -0.90990001
3.0211 -0.90039998 -1.0010999
1.8864 -2.6833999 -1.0417
1.8836 -2.2279 -0.92659998
2.3336999 -1.3128999 -0.85039997
1.8760999 -2.4309001 -1.0317
1.9226 -2.0787001 -0.95130002
2.0081999 -1.8163 -0.90969998
2.2623 -1.4089 -0.89539999
2.438 -1.232 -0.91780001
2.6707001 -1.0628999 -0.96579999
3.0373001 -0.9052 -1.0648
1.8964 -2.6977 -1.1079
1.8895 -2.2348001 -0.98329997
1.9608001 -1.9391 -0.92650002
2.0637 -1.7057 -0.89950001
2.1888001 -1.5025001 -0.89200002
2.0122001 -1.8199 -0.96200001
2.1224 -1.6006 -0.94260001
2.4439001 -1.2349 -0.9709
3.0539999 -0.9102 -1.13
1.9167 -2.7265 -1.1818
1.9653 -1.9435 -0.98009998
2.5469999 -1.1476001 -0.99059999
1.897 -2.4579 -1.1594
2.0163 -1.8236001 -1.0152
2.1266999 -1.6038001 -0.9946
2.4498999 -1.238 -1.025
2.6887 -1.0700999 -1.0806
3.0736001 -0.91600001 -1.1976
1.9698 -1.948 -1.0345
2.1977 -1.5087 -0.99540001
2.5534 -1.1505001 -1.0458
1.9412 -2.0987 -1.122
2.2763 -1.4177001 -1.0525
2.4560001 -1.2411 -1.08
2.6982 -1.0739 -1.1398
3.119 -0.9296 -1.2773
2.0011001 -2.8464999 -1.3656
1.9202 -2.2711999 -1.1673
2.0762 -1.716 -1.0571001
1.9457999 -2.5211999 -1.3114001
2.0316 -1.8374 -1.128
2.2832999 -1.4220001 -1.1076
2.4677999 -1.247 -1.1386
3.1847999 -0.94919997 -1.3684
1.9401 -2.2946999 -1.2374001
1.9902 -1.9682 -1.1526
1.9730999 -2.1331999 -1.2535
2.0460999 -1.8506 -1.1901
2.2993 -1.432 -1.1684
2.7525001 -1.0954 -1.2779
2.0062001 -1.984 -1.2171
2.0999 -1.7356 -1.1751
2.3836 -1.341 -1.1797
2.599 -1.1711 -1.2296
2.0221 -2.6199999 -1.4933
2.0611 -1.8641 -1.2539001
2.1684 -1.6353 -1.2255
2.3158 -1.4423 -1.2309999
2.7809999 -1.1068 -1.3506
3.3929999 -1.0112 -1.5975
1.9819 -2.3441999 -1.3851
2.0227001 -2.0002999 -1.2836
2.115 -1.7481 -1.2381001
2.2405 -1.538 -1.2262
2.0999999 -2.721 -1.6202
2.0764999 -1.878 -1.3197
2.1842999 -1.6472 -1.2896
2.5281 -1.2775 -1.3352
2.8106 -1.1186 -1.4259
2.0123999 -2.3801999 -1.4692
2.0397 -2.0171001 -1.3522
2.1306 -1.761 -1.303
2.2567999 -1.5492001 -1.2904
2.6517999 -1.1948 -1.3710001
3.0438001 -1.0569 -1.5188
2.8529999 -1.1354001 -1.5103
2.0585999 -2.0358 -1.424
2.1466999 -1.7743 -1.3698
2.2737 -1.5608 -1.3565
3.1580999 -1.0966001 -1.6443
2.5826001 -1.3049999 -1.4835
2.0964999 -2.0732 -1.5116
2.1696 -1.7932 -1.443
3.3643999 -1.1682 -1.8257999
2.1575 -1.9514 -1.553
2.2558999 -1.7012 -1.5084
2.4084001 -1.5 -1.5147001
2.6296 -1.3288 -1.5728
3.0366001 -1.2085 -1.7447
2.1364 -2.1127999 -1.604
2.5118001 -1.4131 -1.5386
2.1988001 -1.9887 -1.6466
2.2938001 -1.7298 -1.5956
2.4487 -1.5251 -1.6022
2.2428 -1.8537 -1.6160001
2.2564001 -2.0408001 -1.7565
2.7650001 -1.3972 -1.7886
3.0485001 -1.3736 -1.9305
