# .PCD v0.7 - Point Cloud Data file format
VERSION 0.7
FIELDS x y z
SIZE 4 4 4
TYPE F F F
COUNT 1 1 1
WIDTH 156
HEIGHT 1
VIEWPOINT 0 0 0 1 0 0 0
POINTS 156
DATA ascii
-5.0524001 -2.9925001 2.3046999
-5.0169001 -2.6770999 2.1234
-4.6665001 -3.0527 2.0822001
-4.6643 -2.7627001 1.9222
-4.4744 -3.2205 1.9548
-4.8576999 -2.5920999 1.9524
-4.4865999 -3.5431001 2.0271001
-5.0095 -2.3928001 1.8652
-4.5830002 -2.7145 1.7896
-4.3772998 -3.1506 1.812
-4.5089002 -3.8989999 2.0028
-4.7557998 -2.5378001 1.8111
-4.6736999 -2.494 1.6824
-4.3909998 -2.8724 1.6664
-4.2761998 -3.3769 1.7305
-4.842 -2.3127999 1.6065
-4.4629002 -2.6434 1.5529
-4.2335 -3.6609001 1.6756001
-5.1445999 -2.1815 1.6729
-4.6279998 -2.4696 1.5704
-4.211 -3.3254001 1.6064
-5.5383 -2.0625 1.6628
-4.7845001 -2.2853999 1.4918
-4.4257002 -2.6214001 1.4471999
-4.2200999 -3.0374 1.4629
-5.0615001 -2.1463001 1.5468
-4.5834999 -2.4458001 1.4617
-4.3067002 -2.8174 1.448
-4.1637001 -3.2880001 1.4927
-4.3894 -2.5998001 1.3443
-4.1875 -3.0139999 1.3595001
-5.0019999 -2.1210001 1.4316
-4.2714 -2.7941999 1.345
-4.1567001 -2.9918001 1.2589
-4.9590001 -2.1027999 1.324
-4.5250001 -2.4145999 1.2607
-4.1437001 -2.9825001 1.1653
-4.0479002 -3.5004001 1.2214
-4.9190998 -2.0859001 1.2194999
-4.5043998 -2.4036 1.1653
-4.2316999 -2.7681999 1.1542
-4.0774999 -3.22 1.1859
-4.0985999 -3.8764 1.2876
-4.6567998 -2.2244 1.0880001
-4.3404002 -2.5708001 1.0635
-4.1307998 -2.9732001 1.073
-4.3923001 -4.5416002 1.332
-4.4842 -2.3928001 1.0714999
-4.2182002 -2.7593999 1.0626
-4.0565 -3.8366001 1.1770999
-4.2528 -4.3973999 1.1838
-5.8188 -1.8763 1.1831
-4.8859 -2.0718 1.027
-4.2052999 -2.7509999 0.97250003
-4.0425 -3.8234 1.0768
-4.6473999 -2.2198999 0.90820003
-4.1107998 -2.9588001 0.89310002
-5.7460999 -1.8529 1.0646
-4.8779998 -2.0685 0.93419999
-4.4719 -2.3863001 0.8937
-4.2051001 -2.7507999 0.88599998
-4.0434999 -3.1931 0.90850002
-5.1721001 -1.9261 0.87879997
-4.0022998 -3.461 0.84259999
-4.8701 -2.0651 0.8423
-4.4686999 -2.3845999 0.80659997
-4.2070999 -2.7521999 0.80049998
-4.0447001 -3.1940999 0.82069999
-4.0176001 -3.7997999 0.88059998
-4.3281002 -2.5636001 0.7155
-4.1559 -4.2972002 0.85030001
-4.8704 -2.0652001 0.75239998
-4.4656 -2.3829 0.71990001
-4.2090998 -2.7535 0.71539998
-4.0166998 -3.7988999 0.78640002
-5.1863999 -1.9313999 0.69349998
-4.1609001 -4.3023 0.75
-5.6817002 -1.8321 0.74809998
-4.882 -2.0701001 0.6645
-5.1968002 -1.9353 0.60149997
-4.3446002 -2.5734 0.54769999
-4.1227999 -2.9674001 0.551
-4.1775999 -4.3196001 0.65179998
-4.8937001 -2.0750999 0.57660002
-4.0570998 -3.2038 0.5607
-4.9053998 -2.0801001 0.4885
-4.4966002 -2.3994999 0.4673
-5.2462001 -1.9536999 0.41949999
-4.6939998 -2.2421 0.38980001
-4.1559 -2.9912 0.38370001
-4.2437 -4.388 0.45750001
-5.8080001 -1.8728 0.45730001
-4.2551999 -2.7836001 0.3811
-4.0725999 -3.8519001 0.4201
-5.2848001 -1.9681 0.3285
-4.7244 -2.2567 0.30489999
-4.1745 -3.0046 0.29960001
-5.8882999 -1.8987 0.3603
-4.5345001 -2.4196999 0.2994
-4.2711 -2.7939999 0.29730001
-4.1100001 -3.2456 0.30500001
-5.3238001 -1.9826 0.2362
-4.7550998 -2.2713001 0.2191
-4.1971002 -3.0209 0.215
-4.1033001 -3.5481999 0.2256
-4.5647998 -2.4359 0.21510001
-4.1286998 -3.2604001 0.21870001
-4.1360002 -3.9117999 0.2367
-4.7862 -2.2862 0.1323
-4.4467001 -2.6338 0.12890001
-4.2318001 -3.0459001 0.13
-4.1352 -3.5757999 0.1363
-5.0275002 -2.1317999 0.1362
-4.1609001 -3.2858 0.1322
-4.8253002 -2.3048999 0.044399999
-4.4766002 -2.6515 0.043200001
-5.0857 -2.1565001 0.045899998
-4.6266999 -2.4689 0.0436
-4.3601999 -2.8522999 0.043299999
-4.8794999 -2.3306999 -0.0449
-4.5137 -2.6735001 -0.0436
-4.2318001 -3.6593001 -0.046500001
-4.2435002 -3.3510001 -0.0449
-4.3304 -4.0956998 -0.0495
-5.7101998 -2.1264999 -0.152
-4.9348998 -2.3571999 -0.1364
-4.3505998 -3.1314001 -0.1337
-4.2886 -3.7084999 -0.14139999
-5.2108002 -2.2096 -0.1411
-4.4426999 -2.9063001 -0.13240001
-4.6156998 -2.7339001 -0.22310001
-4.3779998 -3.7858 -0.24070001
-5.3115001 -2.2523 -0.23989999
-4.4956002 -2.9409001 -0.2234
-4.3607001 -3.4435999 -0.23100001
-4.6718998 -4.4187002 -0.2674
-4.6764002 -2.7697999 -0.31659999
-4.4682002 -3.2160001 -0.3206
-4.4727001 -3.8677001 -0.34439999
-5.4345002 -2.3045001 -0.34380001
-4.8554001 -2.5908999 -0.32049999
-4.5499001 -2.9763999 -0.31670001
-5.1862998 -2.4772999 -0.4307
-4.7634001 -2.8213 -0.4149
-4.5446 -3.2709999 -0.41960001
-4.6399002 -4.0123 -0.45969999
-4.6301999 -3.0288999 -0.41460001
-4.5172 -3.5671999 -0.43130001
-5.0468001 -2.6931 -0.5244
-4.7266998 -3.0920999 -0.51779997
-4.664 -3.6831 -0.54479998
-4.7884998 -3.4466 -0.63990003
-4.8525 -3.1744001 -0.62900001
-4.8899002 -3.8615 -0.67580003
-5.1701002 -3.0623 -0.75300002
-5.0258999 -3.6175001 -0.77600002
