# .PCD v0.7 - Point Cloud Data file format
VERSION 0.7
FIELDS x y z
SIZE 4 4 4
TYPE F F F
COUNT 1 1 1
WIDTH 174
HEIGHT 1
VIEWPOINT 0 0 0 1 0 0 0
POINTS 174
DATA ascii
-4.6946998 -3.0711999 2.2018001
-4.1771998 -3.2987001 2.089
-4.7528 -2.8151 2.0627
-4.1391001 -2.9791 1.9043
-3.9209001 -3.3906 1.9356
-4.3450999 -2.8424001 1.9388
-4.0019002 -3.1603 1.9040999
-3.9791 -3.7634001 2.0451
-4.4926 -2.661 1.8515
-4.0360999 -2.9051001 1.7632999
-4.2244 -2.7635 1.79
-3.8949001 -3.0757999 1.7598
-3.7822001 -3.5771999 1.8459001
-4.7484002 -2.5337999 1.8083
-4.1356001 -2.7054 1.6604
-3.8317001 -3.0258999 1.6404001
-4.2761998 -2.5328 1.5784
-3.8999 -2.8069999 1.526
-3.6731999 -3.1763999 1.5422
-4.0641999 -2.6587 1.5424
-3.6077001 -3.4122 1.577
-4.2241998 -2.5020001 1.4698
-3.8613999 -2.7793 1.4243
-3.6247001 -3.1343999 1.4346
-3.5278001 -3.6477001 1.5192
-3.6113 -4.0833998 1.632
-4.8154001 -2.3002 1.5015
-4.1739998 -2.4723001 1.3649
-3.595 -3.1087 1.3372
-3.4700999 -3.5880001 1.4044
-3.9779999 -2.6022999 1.3374
-3.7000999 -2.9219 1.3265001
-3.5134001 -3.323 1.3606
-4.1346998 -2.4489999 1.2663
-3.7878001 -2.7263 1.2297
-4.3751998 -2.3347001 1.3067
-3.6687 -2.8972001 1.2318
-3.4846001 -3.2957001 1.2638
-3.4375 -3.8868001 1.3672
-4.6609001 -2.2263999 1.2696
-4.3379998 -2.3148999 1.2086
-3.9247999 -2.5675001 1.1528
-3.6454 -2.8787999 1.1418
-3.4565001 -3.2692001 1.1694
-4.6006999 -2.1975999 1.1637
-3.7518001 -2.7004001 1.0551
-3.5251 -3.0483 1.0637
-3.3814001 -3.4964001 1.1102
-3.4849999 -4.3133998 1.2657
-4.3017998 -2.2955 1.1129
-3.6314001 -2.8677001 1.0561
-3.4347999 -3.2486 1.0791
-3.3713 -3.812 1.1615
-3.5135 -3.0383 0.97920001
-3.4198999 -4.2329001 1.1472
-3.8882999 -2.5436001 0.9795
-3.6177001 -2.8569 0.97180003
-4.5457001 -2.1712999 0.97490001
-3.5020001 -3.0283 0.89590001
-3.3546 -3.4686999 0.93379998
-4.9832001 -2.1131001 1.0475
-3.4119 -3.227 0.90880001
-3.3262 -3.7609999 0.9716
-3.7209001 -2.6782 0.80839998
-3.4907 -3.0185001 0.81370002
-3.3443 -3.4579999 0.84820002
-4.2536001 -2.2697999 0.85009998
-3.8706 -2.5321 0.81559998
-3.3157001 -3.7491 0.88249999
-3.3341 -3.4475 0.76370001
-4.2460999 -2.2658 0.76639998
-3.3053999 -3.7375 0.79449999
-3.4918001 -3.0195 0.6566
-4.8979998 -2.0769999 0.75669998
-4.2386999 -2.2618999 0.68339998
-3.8638999 -2.5276999 0.65670002
-3.3993001 -3.2151 0.66549999
-3.2953999 -3.7262001 0.70749998
-4.5116 -2.155 0.62660003
-3.493 -3.0204999 0.57870001
-3.3366001 -3.45 0.60149997
-4.9032998 -2.0792 0.6674
-3.8606 -2.5255001 0.57810003
-3.5934 -2.8376999 0.57380003
-4.5191998 -2.1587 0.54320002
-3.4942 -3.0215001 0.5011
-3.3397 -3.4532001 0.52109998
-4.2512999 -2.2686 0.52270001
-3.4054 -3.2207999 0.50840002
-3.3062 -3.7384 0.5413
-4.5267 -2.1623001 0.45989999
-3.5005 -3.027 0.42429999
-4.9137998 -2.0836 0.48930001
-4.2603002 -2.2734001 0.4427
-3.6026001 -2.845 0.4208
-3.3116 -3.7444999 0.45829999
-4.5342999 -2.1659 0.3766
-3.7448001 -2.6954 0.34580001
-3.5132 -3.0380001 0.34810001
-4.2693 -2.2781999 0.3626
-3.8878 -2.5432999 0.34810001
-4.0686002 -2.4099 0.27540001
-3.7560999 -2.7035 0.26949999
-3.526 -3.0490999 0.27149999
-4.9762001 -2.1101 0.31479999
-4.2849998 -2.2866001 0.28290001
-3.8975 -2.5497 0.27129999
-3.6270001 -2.8642001 0.2692
-3.4384999 -3.2521 0.2757
-3.3348 -3.7707 0.29319999
-3.5388999 -3.0602 0.1945
-4.3116999 -2.3008001 0.2032
-3.9126 -2.5595 0.1944
-3.6401 -2.8745999 0.1929
-3.454 -3.2667999 0.19769999
-3.355 -3.7936001 0.2106
-4.1174002 -2.4388001 0.1193
-3.5518 -3.0713999 0.1171
-3.6587999 -2.8894 0.1163
-3.4697001 -3.2816 0.1191
-3.3777001 -3.8192 0.12710001
-4.6584001 -2.2251 0.0429
-4.1430998 -2.454 0.039999999
-3.5771999 -3.0934 0.039299998
-3.4937999 -4.3243999 0.0462
-5.1535001 -2.1853001 0.046500001
-3.6851001 -2.9101 0.039000001
-4.7199001 -2.2546 -0.043499999
-3.559 -4.4050999 -0.0471
-5.2976999 -2.2465 -0.047800001
-4.4025998 -2.3494 -0.041499998
-3.9851 -2.6070001 -0.0396
-4.7831998 -2.2846999 -0.1322
-4.2107 -2.494 -0.122
-3.8652999 -2.7821 -0.1188
-3.6296999 -3.1387999 -0.1197
-3.5018001 -3.6208999 -0.1256
-3.7320001 -4.6192002 -0.1481
-4.0144 -2.6261001 -0.1196
-3.7386999 -2.9525001 -0.1188
-3.5007999 -3.9584999 -0.1318
-4.8481002 -2.3158 -0.2234
-4.2568998 -2.5214 -0.2057
-3.9037001 -2.8097 -0.2
-3.5399001 -3.6603 -0.21170001
-4.5054002 -2.4042001 -0.2123
-3.7715001 -2.9784 -0.1998
-3.5839 -3.3896 -0.2051
-3.5534 -4.0179 -0.223
-4.9751 -2.3764 -0.3211
-4.3042002 -2.5494001 -0.29139999
-3.9468999 -2.8408 -0.2832
-3.7067001 -3.2053001 -0.2854
-3.586 -3.7079 -0.30039999
-4.3638 -2.5848 -0.38010001
-3.7574999 -3.2493 -0.3723
-4.1489 -2.7140999 -0.37149999
-3.8622999 -3.05 -0.36880001
-4.0444002 -2.911 -0.45680001
-3.8099 -3.2946 -0.46180001
-3.7375 -3.8645999 -0.49290001
-4.2175999 -2.7591 -0.4621
-3.9094999 -3.0873001 -0.4567
-4.5263 -2.6809001 -0.57059997
-3.8807001 -3.3557999 -0.55650002
-4.9183998 -2.6245999 -0.60470003
-4.2944999 -2.8092999 -0.55659997
-4.6677999 -2.7648001 -0.67989999
-4.1929998 -3.0179999 -0.64740002
-4.3843002 -2.8680999 -0.65649998
-4.0591998 -3.2054999 -0.64819998
-3.9270999 -3.7142999 -0.67739999
-4.8702998 -2.8847001 -0.80510002
-4.2660999 -3.6889999 -0.89810002
