# .PCD v0.7 - Point Cloud Data file format
VERSION 0.7
FIELDS x y z
SIZE 4 4 4
TYPE F F F
COUNT 1 1 1
WIDTH 254
HEIGHT 1
VIEWPOINT 0 0 0 1 0 0 0
POINTS 254
DATA ascii
-2.6947 -3.3353 1.6828001
-2.8656001 -3.2402999 1.6977
-2.9572001 -3.0578001 1.5884
-2.378 -3.5481999 1.595
-2.47 -3.3522999 1.5549001
-2.5393 -3.1429 1.4327
-2.6939001 -3.0460999 1.4419
-2.2318001 -3.6740999 1.5243
-3.3185 -2.8696001 1.474
-2.4914 -3.0836999 1.332
-3.0183001 -2.8546 1.3958
-2.6364999 -2.9811001 1.3371
-2.3624001 -3.2063 1.3381
-2.7625999 -2.8564999 1.262
-2.4516001 -3.0343001 1.2388999
-2.2162001 -3.3069 1.2643
-2.9656999 -2.8048999 1.2964
-2.5957999 -2.9351001 1.2444
-3.1561 -2.7291999 1.2492
-2.7288001 -2.8216 1.1752
-2.4259 -3.0026 1.1557
-2.1826999 -3.2569001 1.1738
-3.5214 -2.7808001 1.3433
-2.9201 -2.7618001 1.2033
-2.5645001 -2.8998001 1.1589
-2.2943001 -3.1138 1.1579
-2.1617 -3.2255001 1.0925
-1.9245 -3.9161999 1.2277
-3.9054 -2.8109 1.2679
-3.056 -2.6426001 1.0646
-2.6661999 -2.7567999 1.0106
-2.3770001 -2.9419999 0.99659997
-2.1413 -3.1949999 1.0135
-1.9445 -3.5483 1.0662
-2.8399999 -2.6860001 1.03
-2.5081999 -2.8361001 0.99760002
-2.2513001 -3.0555 1.0001
-2.0388 -3.3563001 1.0348001
-3.7091999 -2.6696999 1.1233
-2.6493001 -2.7393999 0.93669999
-2.3578999 -2.9184999 0.92220002
-2.1214001 -3.1654 0.93660003
-1.9258 -3.5142 0.98500001
-3.2957001 -2.6026001 1.0322
-2.8171999 -2.6645 0.95310003
-2.2307 -3.0276 0.92439997
-2.0197999 -3.325 0.95630002
-3.6317 -2.6140001 1.0213
-2.346 -2.9037001 0.852
-2.1054001 -3.1414001 0.86309999
-1.8338 -3.7316 0.949
-3.5579 -2.5608001 0.9242
-2.9800999 -2.5771 0.83060002
-2.3343 -2.8892 0.78299999
-2.0961001 -3.1277001 0.7938
-1.7664 -4.0398002 0.92949998
-3.2174001 -2.5408001 0.86430001
-2.7818999 -2.6310999 0.80720001
-2.4679 -2.7904999 0.78539997
-2.2104001 -3 0.78560001
-3.4960999 -2.5164001 0.83359998
-2.9560001 -2.5562 0.75629997
-2.6008999 -2.6893001 0.72399998
-2.3227 -2.8749001 0.71520001
-1.7437 -3.9879999 0.8423
-3.1830001 -2.5136001 0.78490001
-2.4556999 -2.7767 0.7173
-1.9819 -3.2625999 0.73869997
-3.4765 -2.5023 0.75529999
-2.9454999 -2.5471001 0.68660003
-2.3113999 -2.8608999 0.64850003
-2.0781 -3.1008 0.65820003
-1.8737 -3.4189999 0.6875
-2.1916001 -2.9744999 0.65149999
-1.974 -3.2497001 0.67040002
-3.4572999 -2.4884 0.67830002
-2.9359 -2.5387001 0.61799997
-2.5831001 -2.671 0.59170002
-2.3038001 -2.8515 0.5837
-1.8662 -3.4052999 0.61830002
-1.7126 -3.9168999 0.6807
-3.1578 -2.4937 0.64069998
-2.4396999 -2.7586 0.58639997
-2.1824 -2.9619999 0.58590001
-1.9663 -3.237 0.6031
-1.7818 -3.6259999 0.6433
-3.4384 -2.4748001 0.60259998
-2.0632 -3.0785999 0.52710003
-1.8587 -3.3917999 0.55010003
-1.705 -3.8994999 0.60540003
-3.9242001 -2.5671 0.667
-3.1472001 -2.4854 0.5704
-2.7437 -2.595 0.53710002
-2.4367001 -2.7551999 0.52319998
-1.7747999 -3.6115999 0.57239997
-3.4196999 -2.4614 0.528
-2.9168999 -2.5223999 0.4833
-2.2981 -2.8445001 0.45829999
-2.062 -3.0767 0.4641
-1.8518 -3.3791001 0.48289999
-3.8576 -2.5236001 0.57770002
-3.1368001 -2.4770999 0.50089997
-2.7379999 -2.5896001 0.47229999
-2.4335999 -2.7518001 0.46039999
-2.1791 -2.9575 0.46039999
-1.7678 -3.5973001 0.50230002
-3.4114001 -2.4554 0.45590001
-2.9077001 -2.5144 0.41690001
-2.2953 -2.8408999 0.3962
-1.6901 -3.8654001 0.4576
-3.8480999 -2.5172999 0.49880001
-3.1283 -2.4704001 0.43239999
-2.1777999 -2.9558001 0.39820001
-1.7631 -3.5878999 0.43360001
-3.4124 -2.4561 0.38550001
-2.9071 -2.5139 0.3524
-2.5643001 -2.6515 0.3382
-2.2925 -2.8374 0.3344
-2.0594001 -3.0729001 0.3391
-1.687 -3.8583 0.38600001
-3.1314001 -2.4728999 0.36579999
-2.7295001 -2.5816 0.34439999
-2.4275999 -2.7449999 0.33590001
-3.4133999 -2.4568 0.3152
-2.5680001 -2.6552999 0.27680001
-1.6897 -3.8645 0.3161
-3.1345 -2.4753001 0.29929999
-2.7337 -2.5855 0.28200001
-1.7654001 -3.5925 0.30000001
-3.4143 -2.4575 0.245
-2.5732 -2.6607001 0.2156
-2.2952001 -2.8408999 0.21269999
-1.6924 -3.8706999 0.24600001
-3.8364 -2.5097001 0.26699999
-3.1377001 -2.4777999 0.23289999
-2.1760001 -2.9533 0.2137
-2.9189999 -2.5242 0.1605
-2.5783999 -2.6661 0.1542
-2.0623 -3.0771999 0.154
-1.6950999 -3.8769 0.1759
-3.8438001 -2.5144999 0.191
-3.1408 -2.4802999 0.1664
-2.437 -2.7556 0.153
-2.1817 -2.9611001 0.1529
-1.666 -4.3256001 0.1927
-3.4279001 -2.4672999 0.1053
-2.9235001 -2.5280001 0.0964
-2.3073001 -2.8557999 0.091600001
-2.0694001 -3.0878 0.092699997
-1.8615 -3.3968999 0.096600004
-1.6978 -3.8831 0.1057
-3.8763001 -2.5358 0.1155
-3.1438999 -2.4827001 0.0999
-2.4419999 -2.7612 0.091899998
-2.1875 -2.9689 0.092
-1.9647 -3.2344 0.094400004
-2.9317 -2.5351 0.032200001
-2.3134 -2.8633001 0.0306
-2.0764999 -3.0984001 0.030999999
-1.8703001 -3.4129 0.032299999
-2.7502 -2.6011 0.031500001
-2.9475 -2.5488 -0.032400001
-2.3195 -2.8708 -0.0307
-1.8792 -3.4291 -0.032499999
-3.9428999 -2.5794001 -0.0392
-3.1779001 -2.5095999 -0.0337
-2.7622001 -2.6124001 -0.031599998
-2.4519 -2.7723999 -0.0308
-1.9785 -3.2571001 -0.0317
-3.4928999 -2.5141001 -0.1073
-2.9635 -2.5627 -0.0977
-2.3268001 -2.8800001 -0.092299998
-1.8881 -3.4454 -0.097999997
-4.0118999 -2.6245 -0.1196
-2.4625001 -2.7844 -0.092699997
-2.2049 -2.9926 -0.092699997
-1.9855 -3.2686 -0.095399998
-1.7686 -4.592 -0.1227
-2.9798 -2.5767 -0.1638
-2.3411 -2.8975999 -0.1549
-2.0997 -3.1329 -0.1568
-1.8971 -3.4619 -0.16410001
-1.7429 -3.9861 -0.18089999
-2.7916 -2.6403 -0.15979999
-3.5658 -2.5664999 -0.2559
-2.3556001 -2.9156001 -0.2183
-2.115 -3.1557 -0.22130001
-1.9091001 -3.4837 -0.2314
-2.8066001 -2.6545 -0.22499999
-2.49 -2.8155 -0.2189
-2.2296 -3.0260999 -0.2189
-2.0053 -3.3011999 -0.22499999
-1.8207 -3.7049 -0.2404
-2.3703001 -2.9338 -0.28259999
-2.1305001 -3.1789999 -0.2868
-1.7941 -4.1033001 -0.33559999
-3.2718 -2.5836999 -0.31240001
-2.2435999 -3.0451 -0.2834
-1.8437999 -3.7519 -0.31330001
-2.671 -2.7618999 -0.3522
-2.1463001 -3.2026 -0.35339999
-1.9455 -3.5501001 -0.37110001
-1.8326 -4.1912999 -0.41940001
-3.3101001 -2.6138999 -0.3867
-2.5181 -2.8473001 -0.34850001
-3.7691 -2.7128999 -0.50370002
-3.0826001 -2.6657 -0.442
-2.6984999 -2.7902 -0.421
-2.1624 -3.2265999 -0.42129999
-1.9643 -3.5843 -0.44330001
-2.5383 -2.8701 -0.4156
-2.2721 -3.0838001 -0.41549999
-1.8929 -3.852 -0.4655
-3.9381001 -2.8345001 -0.60799998
-2.1810999 -3.2544 -0.491
-2.2938001 -3.1131001 -0.48460001
-2.0747001 -3.4154 -0.50080001
-2.0150001 -3.6768999 -0.59640002
-3.4796 -2.7478001 -0.63059998
-2.9375999 -2.7783999 -0.5751
-3.2256 -2.7892001 -0.67900002
-2.0581999 -3.7558 -0.68199998
-3.576 -2.8239999 -0.7256
-2.9818001 -2.8202 -0.65350002
-2.6192999 -2.9618001 -0.62959999
-2.352 -3.1921 -0.63139999
-2.0297 -4.1304002 -0.73280001
-2.8329 -2.9291999 -0.71850002
-2.5099001 -3.1066 -0.70420003
-2.1036 -3.8385 -0.77179998
-2.3824999 -3.2335 -0.70819998
-2.1733999 -3.5780001 -0.73820001
-2.8848 -2.9828 -0.80299997
-2.5548999 -3.1622 -0.78670001
-2.3052001 -3.4396 -0.80129999
-3.096 -2.9282 -0.8247
-2.7053001 -3.0589001 -0.7902
-2.4235001 -3.2892001 -0.7906
-2.2119999 -3.6414001 -0.82450002
-3.5443001 -3.0648999 -0.9878
-2.9389 -3.0388 -0.89120001
-2.6038001 -3.2228 -0.87349999
-2.2860999 -4.1715002 -1.0028
-2.7574 -3.1178 -0.8775
-2.4754 -3.3596001 -0.87980002
-2.2836001 -3.7593 -0.92729998
-2.6551001 -3.2862999 -0.96429998
-2.4286001 -3.6236999 -0.9957
-2.8246 -3.1939001 -0.97320002
-2.5299001 -3.4337001 -0.97350001
-3.1400001 -3.2467999 -1.1102
-2.6192 -3.5548999 -1.0854
-2.8852999 -3.5711999 -1.2098
-3.0957 -3.5004001 -1.2313
