# .PCD v0.7 - Point Cloud Data file format
VERSION 0.7
FIELDS x y z
SIZE 4 4 4
TYPE F F F
COUNT 1 1 1
WIDTH 135
HEIGHT 1
VIEWPOINT 0 0 0 1 0 0 0
POINTS 135
DATA ascii
-5.0366998 -2.9833 2.0757
-5.7867999 -2.155 2.0747001
-4.9317999 -2.9210999 1.9258
-5.0283999 -2.6833 1.9148999
-4.895 -3.2021999 1.9653
-4.8607001 -2.8789999 1.7941
-4.8446002 -3.4869001 1.8956
-5.2943001 -2.2449999 1.8263
-5.0409002 -2.4079001 1.6725
-4.8000998 -2.8432 1.6702
-4.7645001 -3.4293001 1.7575001
-5.2312002 -2.2183001 1.7011
-5.4200001 -2.0184 1.6273
-4.6898999 -3.3756001 1.6258
-5.8396001 -1.8831 1.7263
-4.7024999 -3.0762 1.581
-4.8042998 -3.7939 1.7224
-5.3691001 -1.9995 1.5096999
-5.7265 -1.8466001 1.5854
-5.1280999 -2.1745 1.4677
-4.8218002 -2.573 1.4401
-4.6673999 -3.0532999 1.4696
-5.3365002 -1.9874001 1.3997
-4.6145 -3.3213 1.3975
-4.8000002 -2.5613 1.3372999
-4.6329999 -3.0308001 1.3608
-4.6708999 -3.6886001 1.4629
-4.9092999 -2.345 1.2418
-4.5834999 -3.299 1.289
-4.8871002 -4.2259998 1.4747
-5.6178002 -1.8115 1.3472
-4.783 -2.5523 1.2374001
-4.6258998 -3.6530001 1.3454
-5.2803001 -1.9664 1.1878999
-4.5714998 -3.2904 1.1874
-4.7817998 -4.1350002 1.3327
-5.5848999 -1.8009 1.2371
-4.5966001 -3.6299 1.2348
-6.0560999 -1.6589 1.2151
-5.2725 -1.9635 1.0888
-4.6587 -2.7593999 1.0477999
-5.0573001 -2.1445 1.063
-4.5833001 -3.6194 1.1302
-4.8875999 -2.3346 0.9551
-4.6595998 -2.7599001 0.95490003
-4.7213998 -4.0826998 1.1006
-5.5528002 -1.7905999 1.0288
-4.5872998 -3.0009 0.9666
-6.0032001 -1.6445 0.99119997
-4.7030001 -4.0668998 0.99010003
-5.5384998 -1.786 0.92659998
-4.7557001 -2.5376999 0.85839999
-4.5922999 -3.0041001 0.87379998
-4.5622001 -3.6027999 0.92570001
-5.2645998 -1.9606 0.79909998
-4.5598998 -3.2821 0.79909998
-4.7006998 -4.0648999 0.88389999
-5.5507002 -1.7898999 0.82950002
-4.5731001 -3.6113999 0.82880002
-6.0247002 -1.6504 0.78280002
-4.9036999 -2.3422999 0.68099999
-4.6693001 -2.7657001 0.68010002
-4.5674 -3.2874 0.70520002
-4.7178998 -4.0797 0.7816
-4.6022 -3.0106001 0.68919998
-4.5840001 -3.6199999 0.73199999
-6.0376 -1.6539 0.67900002
-4.9198999 -2.3501 0.59140003
-4.6872001 -2.7762001 0.5909
-4.5778999 -3.2950001 0.61180001
-4.7350998 -4.0946002 0.67900002
-5.0840001 -2.1558001 0.59899998
-4.5949001 -3.6285999 0.63510001
-6.0955 -1.6698 0.5794
-5.3065 -1.9762 0.51910001
-4.9361 -2.3578 0.50150001
-4.7049999 -2.7867999 0.50129998
-5.0988002 -2.1621001 0.50770003
-4.8035998 -2.5632999 0.49919999
-4.6385002 -3.0344 0.50819999
-5.3425002 -1.9895999 0.42719999
-4.9555001 -2.3671 0.41159999
-4.6293001 -3.332 0.42739999
-4.8074002 -4.1571002 0.4763
-5.6457 -1.8205 0.4445
-5.1251998 -2.1733 0.4172
-4.6595001 -3.0481 0.41729999
-4.7465 -2.8113999 0.3213
-4.6553001 -3.3506999 0.33410001
-4.8934999 -4.2315998 0.3768
-5.6886001 -1.8343 0.34810001
-5.1592002 -2.1877 0.32640001
-4.8527999 -2.5895 0.3204
-4.6808 -3.062 0.3258
-5.4159002 -2.017 0.2403
-4.7821002 -2.8325 0.23109999
-4.6922002 -3.3771999 0.2404
-4.9846001 -4.3104 0.27399999
-5.7419 -1.8516001 0.2509
-5.1936002 -2.2023001 0.23459999
-5.0577002 -2.4159 0.1398
-4.8214998 -2.8557999 0.1398
-4.7391 -3.411 0.14560001
-5.8246002 -1.8782001 0.15260001
-5.2316999 -2.2184999 0.1417
-4.9242001 -2.6277001 0.1392
-4.7891002 -3.7818999 0.1522
-5.1071 -2.4395001 0.046999998
-4.8615999 -2.8794999 0.046999998
-4.7869 -3.4454 0.048999999
-5.9096999 -1.9057 0.051600002
-4.9657001 -2.6498001 0.046799999
-4.7978001 -3.1386001 0.047699999
-4.869 -3.845 0.051600002
-5.1647 -2.467 -0.047600001
-5.3513999 -2.2692001 -0.048300002
-5.0240002 -2.6809001 -0.0473
-4.9854999 -2.9530001 -0.1445
-4.9454999 -3.5596001 -0.152
-6.2223001 -2.0065 -0.163
-5.4197001 -2.2981999 -0.1468
-5.0837998 -2.7128 -0.1437
-4.9322 -3.2265 -0.147
-5.1206002 -4.0437002 -0.1627
-5.3058 -2.5344 -0.2445
-5.5191998 -2.3404 -0.2493
-5.0091 -3.2767999 -0.2489
-5.6226001 -2.3842001 -0.35569999
-5.2484002 -2.8006999 -0.34650001
-5.2575002 -3.1140001 -0.45789999
-5.7905998 -2.4554999 -0.47139999
-5.2544999 -3.4373 -0.47049999
-5.434 -3.2186 -0.579
-6.0504999 -2.5657001 -0.60250002
-5.5113001 -2.9409001 -0.57270002
