# .PCD v0.7 - Point Cloud Data file format
VERSION 0.7
FIELDS x y z
SIZE 4 4 4
TYPE F F F
COUNT 1 1 1
WIDTH 189
HEIGHT 1
VIEWPOINT 0 0 0 1 0 0 0
POINTS 189
DATA ascii
-3.3354001 -3.4488001 1.883
-3.3469 -3.7844 1.9828
-3.9401 -2.8359001 1.7214
-3.4252999 -2.9619999 1.6057
-3.1313 -3.2377 1.5971
-3.6327 -2.8687 1.6413
-3.2634001 -3.0864999 1.5927
-3.7939 -2.7307 1.5705
-3.3531001 -2.8994999 1.4894
-3.5390999 -2.7948 1.5151
-3.2038 -3.0301001 1.4816
-3.2974 -2.8513999 1.3845
-3.0267 -3.1296 1.3827
-2.8527999 -3.5309999 1.4417
-2.9238999 -3.3060999 1.4017
-2.8153 -3.8209 1.5073
-2.9932001 -3.095 1.289
-3.9558001 -2.5876999 1.4152
-3.6027 -2.5931001 1.2489001
-3.23 -2.793 1.2014
-2.7697999 -3.4282 1.24
-2.7198 -4.0581999 1.3745
-3.4008999 -2.6856999 1.2193
-2.8552999 -3.2286 1.2127
-4.1803999 -2.4760001 1.2802
-3.1982999 -2.7656 1.1141
-3.8124001 -2.4939001 1.2004
-3.3656001 -2.6578 1.13
-2.8306 -3.2005999 1.1259
-4.1188998 -2.4396 1.1767
-3.5332999 -2.5431001 1.0700001
-3.1817999 -2.7514 1.0339
-2.7214 -3.3683 1.0644
-3.0367999 -2.8721001 1.0274
-4.0664001 -2.4085 1.0786999
-3.5112 -2.5272 0.9874
-3.1663001 -2.7379999 0.95539999
-3.7476001 -2.4516001 1.0221
-3.3243001 -2.6250999 0.96679997
-4.0156002 -2.3784001 0.98390001
-3.4895999 -2.5116999 0.90640002
-3.151 -2.7248001 0.87819999
-4.5451999 -2.4252999 1.0861
-3.7163999 -2.4312 0.93620002
-3.3041999 -2.6092999 0.8876
-3.9835 -2.3594 0.89590001
-3.4721 -2.4990001 0.82789999
-2.8801 -2.9779999 0.8017
-2.5413001 -3.7918999 0.88340002
-3.2846 -2.5938001 0.80989999
-3.9619999 -2.3466001 0.81190002
-3.1276 -2.7045 0.72909999
-2.8687 -2.9662001 0.72759998
-2.6675999 -3.3018 0.74849999
-4.4152999 -2.3561001 0.88239998
-2.7607 -3.1215 0.73479998
-3.1243 -2.7017 0.6577
-2.6580999 -3.2899001 0.6735
-4.369 -2.3313 0.78860003
-3.6716001 -2.4017999 0.69859999
-3.2735 -2.5850999 0.66420001
-2.9839001 -2.8222001 0.65399998
-2.7519 -3.1117001 0.66149998
-3.9217 -2.3227999 0.64829999
-3.1208999 -2.6988001 0.5869
-2.5134001 -3.7502999 0.64209998
-4.3238001 -2.3073001 0.69709998
-3.27 -2.5822001 0.59259999
-2.9826 -2.8209 0.58389997
-2.7523 -3.1120999 0.5909
-3.4454999 -2.4798999 0.53200001
-3.1177001 -2.6959 0.5165
-4.3048 -2.2971001 0.61150002
-2.5729001 -3.4919 0.54350001
-2.4883001 -4.0963001 0.6006
-3.4454 -2.4798 0.46039999
-2.5093999 -3.7442999 0.48890001
-3.6519001 -2.3889999 0.47330001
-3.2637999 -2.5774 0.45109999
-2.9800999 -2.8185 0.44490001
-2.4814 -4.0848999 0.51840001
-3.9245999 -2.3245001 0.41819999
-3.4516001 -2.4842 0.3899
-3.1173999 -2.6956999 0.37779999
-2.8589001 -2.9560001 0.377
-2.6545999 -3.2857001 0.38730001
-4.3027 -2.2959001 0.44710001
-3.6566 -2.392 0.40059999
-3.2711999 -2.5833001 0.38209999
-2.7535 -3.1134 0.38100001
-2.4883001 -4.0963001 0.43939999
-3.9298999 -2.3276999 0.3423
-3.1243999 -2.7018001 0.30950001
-2.8636999 -2.961 0.3087
-2.655 -3.2860999 0.31659999
-2.5171001 -3.7558 0.33880001
-3.2787001 -2.5890999 0.31310001
-2.5787001 -3.4998 0.3258
-3.4639001 -2.4932001 0.24860001
-2.6609001 -3.2934 0.2466
-2.5209999 -3.7614999 0.26370001
-3.2860999 -2.595 0.2439
-2.9969001 -2.8343999 0.2402
-2.5811 -3.5030999 0.2534
-3.9546001 -2.3422999 0.1911
-3.4700999 -2.4976001 0.1778
-3.1385 -2.7139001 0.1725
-2.6726 -3.3078001 0.1768
-2.5304999 -3.7758 0.189
-3.2934999 -2.6008999 0.1745
-3.0053 -2.8422999 0.17200001
-2.7744999 -3.1371 0.1741
-2.5931001 -3.5193 0.18179999
-2.5093 -4.1308999 0.20100001
-3.9791 -2.3568001 0.1153
-3.4848001 -2.5081999 0.1071
-3.1454999 -2.72 0.1037
-2.8878 -2.9858999 0.1036
-2.6846001 -3.3227999 0.1065
-3.6968999 -2.4184 0.1102
-2.7842 -3.1482 0.1048
-2.6050999 -3.5355999 0.1095
-2.5311 -4.1668 0.1216
-4.0039001 -2.3715 0.038699999
-2.8958001 -2.9942999 0.034600001
-3.7186 -2.4326 0.036899999
-3.3215001 -2.6229 0.0352
-3.0232 -2.8592999 0.034600001
-2.7941 -3.1593001 0.035100002
-2.9124999 -3.0114 -0.0348
-2.7090001 -3.3529999 -0.035799999
-2.5792 -3.8485 -0.0385
-3.7406001 -2.447 -0.0372
-3.3408999 -2.6382999 -0.035399999
-2.5806999 -4.2484002 -0.041299999
-3.1959 -2.7636001 -0.1054
-2.9333 -3.0329001 -0.1052
-2.7296 -3.3784001 -0.1083
-2.5959001 -3.8733001 -0.1163
-4.619 -2.4647999 -0.13060001
-2.6147001 -4.3044 -0.1256
-3.5681 -2.5681 -0.18279999
-3.2147999 -2.7799001 -0.1767
-2.9544001 -3.0548 -0.1767
-2.7535 -3.4080999 -0.1822
-2.6259999 -3.9182 -0.1961
-3.3806 -2.6696 -0.17910001
-2.8464999 -3.2186 -0.1787
-4.1870999 -2.48 -0.2834
-3.6064999 -2.5957999 -0.2588
-2.9758 -3.0769999 -0.2493
-2.7780001 -3.4382999 -0.25749999
-3.8480999 -2.5172999 -0.2678
-3.1005001 -2.9324 -0.24860001
-2.8673999 -3.2421999 -0.25209999
-2.7735 -4.5658002 -0.31110001
-3.2702999 -2.8278999 -0.324
-2.9986 -3.1005001 -0.32319999
-2.7142 -4.0499001 -0.36539999
-3.8952999 -2.5481999 -0.3488
-3.4449 -2.7204001 -0.32890001
-3.1273999 -2.9577999 -0.32260001
-2.8887 -3.2662001 -0.32679999
-2.7362001 -3.7135999 -0.3457
-3.3062 -2.859 -0.4007
-3.0346 -3.1378 -0.40020001
-2.8340001 -3.5076001 -0.41339999
-3.1616001 -2.9902 -0.3989
-2.9195001 -3.3011 -0.40400001
-4.0366001 -2.6406 -0.52319998
-3.5193999 -2.7792001 -0.48640001
-2.9607999 -3.3478 -0.48480001
-2.8239 -3.8326001 -0.51639998
-3.8097999 -2.7421 -0.58819997
-3.1171999 -4.6513 -0.70169997
-3.5759001 -2.8239 -0.57099998
-3.0039001 -3.3965001 -0.56819999
-2.8819001 -3.9114001 -0.60879999
-3.4463 -2.9800999 -0.648
-3.1566999 -3.2639999 -0.64590001
-2.9758 -3.6831999 -0.6735
-3.6407001 -2.875 -0.65979999
-2.9621999 -4.0204 -0.71030003
-3.2198999 -3.3294001 -0.73750001
-3.3471 -3.1657 -0.73360002
-3.1373999 -4.2581 -0.84219998
-3.1712 -3.925 -0.8897
-3.5315001 -3.3399999 -0.94069999
-3.3306 -3.766 -0.97289997
