# .PCD v0.7 - Point Cloud Data file format
VERSION 0.7
FIELDS x y z
SIZE 4 4 4
TYPE F F F
COUNT 1 1 1
WIDTH 273
HEIGHT 1
VIEWPOINT 0 0 0 1 0 0 0
POINTS 273
DATA ascii
-2.5606999 -3.1694 1.5215
-2.0567 -3.0688 1.3795
-1.5129 -3.4598999 1.4101
-2.257 -3.0632 1.4208
-2.1845 -2.9649 1.3059
-1.581 -3.2172999 1.2711
-2.2873001 -2.8310001 1.1559
-1.9270999 -2.8754001 1.0993
-1.2011 -3.5875001 1.2015001
-1.781 -2.9319 1.0894001
-1.2979 -3.3697 1.1468
-2.8341 -2.9303999 1.2205
-2.2464001 -2.7804 1.0700999
-1.903 -2.8396001 1.0233999
-1.502 -3.0564001 1.0196
-2.7361 -2.8290999 1.1073999
-2.2121 -2.7379999 0.99040002
-1.8798 -2.8048999 0.94999999
-1.609 -2.9361 0.94199997
-1.3694 -3.132 0.96179998
-1.7377 -2.8606 0.94169998
-1.5921 -2.9051001 0.87290001
-1.3554 -3.0999 0.8915
-1.4699 -2.9912 0.87819999
-1.2422 -3.2254 0.91079998
-2.165 -2.6796 0.84680003
-1.1232001 -3.3547001 0.8696
-2.3599 -2.6684 0.87559998
-1.0176001 -3.5588 0.90979999
-2.576 -2.6635001 0.84570003
-2.3329 -2.6379001 0.80379999
-1.0052 -3.5151999 0.83450001
-2.5455999 -2.6321001 0.77200001
-2.1294999 -2.6357 0.71439999
-1.8207999 -2.7169001 0.68949997
-1.5595 -2.8457999 0.68409997
-0.89340001 -3.7490001 0.8125
-2.8694 -2.7139001 0.8326
-1.6825 -2.7697999 0.6832
-0.99309999 -3.473 0.7615
-2.1124001 -2.6145 0.6505
-1.8094 -2.6998999 0.62900001
-0.88169998 -3.7 0.73610002
-2.2923 -2.5919001 0.66960001
-1.9519 -2.6491001 0.63679999
-1.6736 -2.7551999 0.62379998
-2.4955001 -2.5804 0.63300002
-2.0968001 -2.5952001 0.58829999
-1.7983 -2.6831999 0.56950003
-1.9397 -2.6324999 0.57660002
-1.6648999 -2.7407999 0.56550002
-1.1952 -3.1031001 0.58639997
-2.0896001 -2.5862999 0.52950001
-1.79 -2.6709001 0.51200002
-1.5353 -2.8015001 0.50870001
-1.0813 -3.2296 0.54229999
-0.86299998 -3.6210999 0.59280002
-2.2695999 -2.5662999 0.54549998
-1.9335999 -2.6243 0.51910001
-1.1895 -3.0883999 0.52700001
-3.191 -2.7593 0.60000002
-2.4688001 -2.5527999 0.50510001
-2.0825 -2.5776 0.47130001
-1.7859 -2.6647999 0.45629999
-1.5299 -2.7916999 0.45280001
-1.0764 -3.2149999 0.4822
-0.85869998 -3.6031001 0.52689999
-2.2616999 -2.5573001 0.48559999
-1.6536 -2.7221999 0.45300001
-1.1839 -3.0739 0.46849999
-0.96450001 -3.3729999 0.49900001
-3.1243 -2.7017 0.5176
-2.4558001 -2.5393 0.4427
-1.7819 -2.6587 0.40110001
-1.5276 -2.7874999 0.39829999
-1.2929 -2.9568999 0.40439999
-0.8545 -3.5855 0.4619
-2.7088001 -2.562 0.46720001
-2.2539001 -2.5485001 0.42629999
-1.6511 -2.7179999 0.3985
-2.4430001 -2.526 0.38119999
-1.2917 -2.9542 0.3497
-2.6939001 -2.5478001 0.40220001
-1.9203 -2.6062 0.3511
-1.4045 -2.8580999 0.34540001
-3.0495 -2.6370001 0.3696
-1.7739 -2.6468 0.29210001
-1.523 -2.7790999 0.29049999
-0.84619999 -3.5508001 0.33469999
-2.2385001 -2.5309999 0.3098
-1.916 -2.6003001 0.29609999
-1.4033 -2.8556001 0.29170001
-1.1748 -3.0502999 0.29969999
-2.4287 -2.5112 0.26179999
-1.5207 -2.7750001 0.23710001
-1.2894 -2.9489999 0.2412
-1.0659 -3.1837001 0.2516
-0.84350002 -3.5393 0.27270001
-2.6829 -2.5374999 0.27669999
-1.6437 -2.7058001 0.23729999
-0.73970002 -3.8592 0.29449999
-3.0404 -2.6292 0.2341
-2.4284999 -2.5109999 0.2035
-2.0599 -2.5495999 0.1909
-1.5185 -2.7709 0.184
-1.2883 -2.9463 0.1873
-1.0656 -3.1828001 0.1955
-1.6411999 -2.7018001 0.1841
-3.036 -2.6252999 0.16689999
-1.2871 -2.9438 0.1336
-1.0653 -3.1819 0.13950001
-2.6822 -2.5367999 0.15350001
-1.9128 -2.5961001 0.13410001
-1.6414 -2.7021 0.13150001
-1.3996 -2.8480999 0.1319
-0.9533 -3.3339 0.1442
-0.73809999 -3.8506999 0.163
-2.4314001 -2.5141001 0.087200001
-2.0648 -2.5555999 0.081900001
-1.286 -2.9412 0.0801
-1.0650001 -3.181 0.083700001
-0.84460002 -3.5441 0.090899996
-2.6817999 -2.5364001 0.092100002
-2.2388 -2.5315001 0.084299996
-1.173 -3.0457001 0.0814
-0.73940003 -3.8571999 0.097900003
-2.0673001 -2.5587001 0.0273
-0.84500003 -3.5457001 0.030300001
-2.6814001 -2.536 0.0307
-1.9173 -2.6020999 0.026900001
-1.4037 -2.8564 0.0265
-1.174 -3.0483 0.027100001
-0.74059999 -3.8636999 0.032699998
-3.0599 -2.6459 -0.033599999
-2.4344001 -2.5172 -0.029100001
-2.0697 -2.5617001 -0.0274
-1.2917 -2.9542999 -0.026799999
-1.0673 -3.1879001 -0.027899999
-2.6905999 -2.5446999 -0.0308
-2.2414999 -2.5344999 -0.028100001
-3.0813999 -2.6645999 -0.1016
-2.0722001 -2.5646999 -0.082199998
-1.2948999 -2.9614999 -0.080600001
-2.2453001 -2.5388 -0.0845
-1.6528 -2.7207999 -0.079400003
-1.182 -3.069 -0.082000002
-0.95999998 -3.3573999 -0.087099999
-0.74309999 -3.8766999 -0.098399997
-3.1034 -2.6835999 -0.1706
-2.4579999 -2.5415001 -0.147
-2.0795 -2.5738001 -0.1376
-1.0748 -3.2102001 -0.1408
-0.85280001 -3.5783999 -0.153
-2.7200999 -2.5725999 -0.1557
-2.2562001 -2.5511 -0.1416
-1.9242001 -2.6115999 -0.1349
-1.6557 -2.7256 -0.13259999
-1.1861 -3.0795 -0.1372
-0.96490002 -3.3743999 -0.1459
-2.4704001 -2.5544 -0.207
-1.5319 -2.7953 -0.1857
-1.3013 -2.9762001 -0.1892
-0.85960001 -3.6071999 -0.21600001
-2.7351 -2.5868001 -0.2193
-1.6586 -2.7302999 -0.18610001
-1.1901 -3.0901 -0.1929
-0.9698 -3.3917 -0.20550001
-2.1001 -2.5992999 -0.25040001
-1.7983 -2.6833 -0.2421
-1.5372 -2.8050001 -0.2397
-0.86659998 -3.6364999 -0.28009999
-2.7504001 -2.6013 -0.28369999
-2.2781999 -2.576 -0.2577
-1.9428999 -2.6368999 -0.2455
-1.6668 -2.7439001 -0.2406
-1.4209 -2.8914001 -0.2414
-1.1943001 -3.1008 -0.249
-0.77399999 -4.0380001 -0.30809999
-2.4956999 -2.5804999 -0.32910001
-1.8079 -2.6975 -0.29769999
-1.5464 -2.8218999 -0.29499999
-1.3099 -2.9956999 -0.29969999
-0.87370002 -3.6663001 -0.34549999
-2.7751999 -2.6247001 -0.3502
-1.9524 -2.6498001 -0.30180001
-1.429 -2.908 -0.29699999
-1.1985 -3.1117001 -0.3057
-2.5151 -2.6006 -0.3924
-2.1212001 -2.6254001 -0.36610001
-1.8175 -2.7119 -0.35409999
-1.5558 -2.839 -0.3511
-1.3178999 -3.0142 -0.35679999
-1.962 -2.6629 -0.35879999
-1.4378 -2.9258001 -0.3536
-1.2076 -3.1352999 -0.3644
-2.5427001 -2.6291001 -0.45829999
-1.8273 -2.7265999 -0.4113
-1.1033 -3.2953 -0.4355
-0.89499998 -3.7557001 -0.48379999
-1.9718 -2.6761999 -0.41659999
-1.6935 -2.7878001 -0.40880001
-1.4467 -2.9439001 -0.4111
-2.1519001 -2.6633999 -0.48699999
-1.5750999 -2.8742001 -0.46619999
-1.1145999 -3.3292 -0.49939999
-0.90960002 -3.8169999 -0.55809999
-2.3450999 -2.6515999 -0.50349998
-1.9835 -2.6919999 -0.4756
-1.7026 -2.8029001 -0.46650001
-1.4557 -2.9623001 -0.46950001
-2.6073 -2.6959 -0.59719998
-2.1736 -2.6903 -0.55070001
-1.8523 -2.7637 -0.5298
-1.585 -2.8922 -0.52520001
-1.3475 -3.0817001 -0.53560001
-0.9253 -3.8827 -0.63559997
-2.9807999 -2.8192 -0.65329999
-1.4649 -2.9809999 -0.52890003
-1.2359999 -3.2091999 -0.54759997
-2.6461999 -2.7361 -0.67119998
-2.1959 -2.7179 -0.61610001
-1.8710999 -2.7918999 -0.59259999
-1.5992 -2.9181001 -0.58670002
-1.1382 -3.3996 -0.63209999
-0.95359999 -4.0015001 -0.72530001
-2.3965001 -2.7098 -0.63789999
-2.0230999 -2.7456999 -0.60140002
-1.7295001 -2.8471 -0.58740002
-1.4752001 -3.0020001 -0.5898
-1.2459 -3.2348001 -0.61119998
-1.0335 -3.6145 -0.66289997
-2.7142 -2.8064001 -0.75550002
-2.2188001 -2.7462001 -0.6832
-1.6171 -2.9509001 -0.6512
-1.3746001 -3.1436999 -0.66399997
-2.0437 -2.7737 -0.66670001
-1.2595 -3.2702999 -0.67820001
-1.0537 -3.6849 -0.74169999
-2.7862 -2.8808999 -0.84490001
-1.9104 -2.8505001 -0.7234
-1.5091 -3.0708001 -0.72130001
-1.277 -3.3157001 -0.74910003
-1.0825 -3.7858 -0.8301
-2.9030001 -3.0016 -0.95310003
-1.1961 -3.5725999 -0.8599
-2.5285001 -2.8591001 -0.87110001
-2.0948 -2.8429999 -0.80599999
-1.7842 -2.9372001 -0.78439999
-1.2997 -3.3745 -0.82539999
-2.3329 -2.8875 -0.91240001
-1.965 -2.9319999 -0.86760002
-1.2251 -3.6593001 -0.94849998
-1.8083 -2.9768 -0.85610002
-2.3803999 -2.9463 -0.99809998
-2.0020001 -2.9870999 -0.94749999
-1.7072999 -3.1155 -0.93610001
-1.4593 -3.3374 -0.9598
-1.2727 -3.8013 -1.0563
-2.1747 -2.9514999 -0.96600002
-1.8441 -3.0358 -0.93599999
-1.5779001 -3.2109001 -0.94270003
-2.0407 -3.0450001 -1.0312999
-1.4971 -3.4240999 -1.0515
-1.8819 -3.0980999 -1.0199
-1.6155 -3.2874999 -1.0306
-1.7793 -3.2467 -1.1084
-1.545 -3.5335 -1.1546
-1.6554 -3.3685999 -1.1237
-1.4645 -3.8025999 -1.2199
-1.8482 -3.3724999 -1.2213
-2.0016 -3.2950001 -1.2244
-1.719 -3.4979999 -1.2378
-1.9457 -3.5504999 -1.3602999
