# .PCD v0.7 - Point Cloud Data file format
VERSION 0.7
FIELDS x y z
SIZE 4 4 4
TYPE F F F
COUNT 1 1 1
WIDTH 99
HEIGHT 1
VIEWPOINT 0 0 0 1 0 0 0
POINTS 99
DATA ascii
3.2400999 -7.8843002 2.2460999
2.4504001 -7.8992 2.0329001
3.9997001 -7.7007999 1.9806
2.1098001 -8.0531998 1.9001
2.6868 -7.4681001 1.8115
1.8693 -8.6991997 1.8758
2.3376999 -7.5359998 1.6634001
2.9741001 -7.2371001 1.6495
3.8366001 -7.3867998 1.7548
2.0618 -7.8698001 1.7151
1.7683001 -8.2291002 1.6288
2.9373 -7.1476002 1.4954
3.7498 -7.2196999 1.5743999
2.0236001 -7.7238998 1.5452
2.6085999 -7.2508001 1.4912
3.3062 -7.1247001 1.52
2.2809 -7.3529 1.3575
2.9070001 -7.0739002 1.3485
2.5822999 -7.1775999 1.345
4.302 -7.4513001 1.5171
2.2614 -7.2901001 1.2154
2.8835001 -7.0165 1.2079999
2.2490001 -7.2501001 1.0797
2.868 -6.9787002 1.0732
3.6191001 -6.9681001 1.1168
1.4647 -8.6833 1.2525001
1.9629 -7.4924002 1.1016999
4.1364999 -7.1645999 1.1767
1.6753 -7.796 0.9993
2.2368 -7.2105999 0.9461
2.8527 -6.9415998 0.94050002
3.2009001 -6.8976998 0.95289999
4.0948 -7.0924001 1.0263
2.8439 -6.9201002 0.81150001
1.9433 -7.4173999 0.83170003
3.1894 -6.8730001 0.82179999
1.6617 -7.7326999 0.72509998
3.5723 -6.8778 0.7105
2.5225 -7.0114999 0.68309999
3.1838 -6.8610001 0.69340003
2.8343999 -6.8971 0.55879998
1.9361 -7.3899999 0.57249999
4.0311999 -6.9822001 0.60420001
1.6567 -7.7094998 0.45930001
2.8346 -6.8975 0.43430001
1.3941 -8.2648001 0.48820001
1.9356 -7.3878999 0.44479999
3.1779001 -6.8483 0.43970001
2.2255001 -7.1743002 0.3123
2.8392 -6.9088001 0.31060001
2.5227001 -7.0118999 0.3098
3.1833999 -6.8600001 0.31439999
2.8438001 -6.9200001 0.1866
3.5771999 -6.8874002 0.1935
4.9122 -7.6947999 0.2277
1.9425 -7.4145999 0.1911
2.5267999 -7.0233002 0.18610001
3.1888001 -6.8716998 0.18889999
1.6695 -7.7694001 0.066
2.2356999 -7.2073998 0.062700003
2.8520999 -6.9401002 0.062399998
1.413 -8.3771 0.070600003
1.9486001 -7.4379001 0.063900001
2.5341001 -7.0437002 0.062199999
3.1984 -6.8923001 0.063199997
2.2472 -7.2444 -0.063000001
3.6101999 -6.9509001 -0.065099999
1.4297 -8.4758997 -0.071400002
1.9595 -7.4794002 -0.064300001
1.6953 -7.8892999 -0.20119999
2.881 -7.0103998 -0.189
3.6322 -6.9931998 -0.1965
2.5597 -7.1149001 -0.1886
4.1440001 -7.1777 -0.2067
2.2743001 -7.3318 -0.31920001
1.9859999 -7.5806999 -0.3258
3.2553999 -7.0152001 -0.32159999
3.7135999 -7.1501002 -0.4693
2.0090001 -7.6682 -0.46169999
2.3190999 -7.4761 -0.58660001
3.7614999 -7.2420998 -0.61159998
2.0325 -7.7579999 -0.60100001
2.6245 -7.2948999 -0.58099997
3.3239999 -7.1630001 -0.59179997
1.8293 -8.5127001 -0.79820001
2.3541 -7.5890002 -0.72839999
2.9969001 -7.2926002 -0.72280002
3.8397999 -7.3930001 -0.76370001
2.6605 -7.3951001 -0.72049999
3.3778999 -7.2793002 -0.73570001
2.3929999 -7.7143998 -0.8761
3.4370999 -7.4067001 -0.88569999
2.4507999 -7.9006 -1.0366
2.7593 -7.6696 -1.0214
3.5288999 -7.6044998 -1.0506001
2.5364001 -8.1766005 -1.2177
3.2033 -7.7947998 -1.1987
3.483 -8.4754 -1.4591
3.0143001 -8.3785 -1.4179
