# .PCD v0.7 - Point Cloud Data file format
VERSION 0.7
FIELDS x y z
SIZE 4 4 4
TYPE F F F
COUNT 1 1 1
WIDTH 118
HEIGHT 1
VIEWPOINT 0 0 0 1 0 0 0
POINTS 118
DATA ascii
0.88309997 -7.1703 1.9036
1.525 -7.0969 1.9127001
0.57789999 -7.3955998 1.9547
1.1952 -7.0857 1.8934
1.9085 -7.2845998 1.9843
0.25369999 -7.5881 1.8662
1.4959 -6.9614 1.7502
0.56370002 -7.2145 1.7787
1.1734999 -6.9573002 1.7343
0.2462 -7.3646002 1.6819
1.4692 -6.8372998 1.5962
2.2221 -7.1634002 1.7119
0.55250001 -7.0710001 1.6188
1.8128999 -6.9197998 1.6327
0.84289998 -6.8439002 1.4536999
1.4532 -6.7624998 1.4582
1.1423 -6.7722001 1.4479001
2.1413 -6.9029002 1.3986
1.1306 -6.7026 1.3154
1.7667 -6.7434001 1.349
2.6454 -7.3529 1.5122
0.23559999 -7.0468001 1.2431999
2.1108 -6.8045998 1.2562
-0.082599998 -7.4173999 1.308
1.1223 -6.6536999 1.1898
1.7493 -6.6771002 1.2171
0.2339 -6.9972 1.1148
1.418 -6.599 1.0748
-0.081699997 -7.3319001 1.1676
1.1162 -6.6176 1.0686001
2.5318999 -7.0376 1.191
-0.080899999 -7.2655001 1.0335
2.5051999 -6.9633999 1.0526
0.81559998 -6.6226001 0.8362
2.0667 -6.6623001 0.87410003
-0.080200002 -7.2006001 0.90240002
-0.43149999 -7.7389998 0.84069997
0.2304 -6.8926001 0.74800003
2.0625 -6.6490002 0.75510001
-0.079999998 -7.1766 0.77850002
1.1045001 -6.5479002 0.72030002
-0.42969999 -7.7066002 0.7076
0.23 -6.8779001 0.63090003
1.3997999 -6.5141001 0.61080003
2.0583999 -6.6357999 0.63700002
3.1094999 -7.5665002 0.75
-0.079700001 -7.1568999 0.65619999
-0.42789999 -7.6746001 0.57599998
2.0544 -6.6227002 0.51959997
3.0644 -7.4569001 0.60420001
-0.079499997 -7.1373 0.53490001
1.1009001 -6.5268998 0.49599999
2.4523001 -6.8161998 0.54290003
0.81290001 -6.6002998 0.38730001
0.52410001 -6.7069998 0.39179999
1.1027 -6.5374999 0.38609999
1.7129 -6.5381999 0.3937
2.4542 -6.8214998 0.42219999
-0.42930001 -7.6995001 0.3206
0.8143 -6.6111999 0.27700001
2.0610001 -6.6438999 0.28920001
-0.079800002 -7.1641002 0.29789999
0.52499998 -6.7189999 0.2802
0.2308 -6.9024 0.17219999
0.52600002 -6.7309999 0.1684
1.1063 -6.5588002 0.16590001
1.7187999 -6.5606999 0.1691
2.4693 -6.8635001 0.18189999
1.4093 -6.5584998 0.055799998
2.0725999 -6.6816001 0.0581
1.725 -6.5840998 0.056600001
0.82249999 -6.6782999 -0.0559
1.4167 -6.5928998 -0.056000002
2.086 -6.7247 -0.058499999
0.53079998 -6.7923999 -0.056600001
1.1156 -6.6135001 -0.0557
2.5067999 -6.9677 -0.061500002
1.4242001 -6.6278 -0.1691
0.53369999 -6.8302999 -0.1709
1.1212 -6.6469998 -0.1681
1.7452 -6.6613998 -0.1717
2.5309 -7.0348001 -0.1864
0.23649999 -7.0746002 -0.29429999
0.83149999 -6.7515998 -0.28279999
2.1187999 -6.8304 -0.2974
0.53710002 -6.8740001 -0.28670001
1.1275001 -6.6845002 -0.28189999
1.4464 -6.7308998 -0.40099999
2.1461999 -6.9187999 -0.4219
0.54259998 -6.9435 -0.40560001
1.7758 -6.7782001 -0.40810001
0.2422 -7.2437 -0.5431
0.84719998 -6.8786998 -0.5194
1.4604 -6.796 -0.52090001
1.1483999 -6.8081999 -0.51740003
1.795 -6.8513999 -0.53079998
0.85640001 -6.9537001 -0.64230001
1.4768 -6.8726001 -0.6444
2.2126 -7.1328001 -0.6846
-0.088600002 -7.9559999 -0.72939998
0.55489999 -7.1009998 -0.653
1.1605999 -6.8803 -0.6397
1.8187 -6.9421 -0.65789998
0.2516 -7.5240002 -0.81660002
0.8696 -7.0605001 -0.77160001
1.5001 -6.9809999 -0.77450001
1.178 -6.9840002 -0.76819998
0.88319999 -7.1708999 -0.90539998
1.5242 -7.0932002 -0.90920001
2.3827 -7.6812 -1.0078
1.1961 -7.0911999 -0.9012
0.5927 -7.5848999 -1.0821
1.2248 -7.2609 -1.0474
1.9545 -7.4601002 -1.0969
1.6210999 -7.5439 -1.2287
0.62650001 -8.0178003 -1.2806
1.2621 -7.4823999 -1.2083
1.3519 -8.0146999 -1.4332
