# .PCD v0.7 - Point Cloud Data file format
VERSION 0.7
FIELDS x y z
SIZE 4 4 4
TYPE F F F
COUNT 1 1 1
WIDTH 75
HEIGHT 1
VIEWPOINT 0 0 0 1 0 0 0
POINTS 75
DATA ascii
5.3887 -8.4412003 2.2858
5.6501002 -8.0374002 2.0711999
5.0328999 -7.8839002 1.8101
6.1943998 -8.0263996 1.962
4.3232002 -8.3235998 1.6538
5.9419999 -7.6992998 1.7149
4.1415 -8.9246998 1.7349
4.6072998 -7.9801002 1.6248
5.3724999 -7.6424999 1.6472
4.8941998 -7.6666999 1.4484
4.0430002 -8.7123003 1.5294
5.7417002 -7.4397001 1.3367
4.5086999 -7.8091998 1.2826
4.1859999 -8.0593996 1.1381
5.6803002 -7.3600998 1.1651
3.9381001 -8.4863997 1.1724
4.4791002 -7.7579002 1.1226
6.3590999 -7.5215998 1.2343
3.7593999 -9.1478996 1.0728
4.7893 -7.5022998 0.96539998
4.4548998 -7.7160001 0.96640003
6.2873001 -7.4366002 1.0563
3.7135999 -9.0366001 0.89569998
4.7701001 -7.4721999 0.81269997
5.6036 -7.2607999 0.84079999
3.8872001 -8.3766003 0.8466
4.4366999 -7.6845002 0.81349999
6.2276001 -7.3660002 0.88429999
4.1342001 -7.9597998 0.67220002
4.7620001 -7.4596 0.66320002
5.5927 -7.2466998 0.68599999
3.8787 -8.3584003 0.69050002
5.1423998 -7.3151999 0.67009997
3.6805 -8.9558001 0.56389999
4.1265001 -7.9450002 0.52139997
4.7540002 -7.447 0.51459998
5.5819001 -7.2326002 0.53210002
4.4214001 -7.6581001 0.51499999
6.1855001 -7.3161998 0.55800003
3.6791 -8.9526997 0.4025
4.1293001 -7.9503002 0.3725
4.7575002 -7.4524999 0.36759999
5.5840998 -7.2356 0.38
6.184 -7.3144999 0.39829999
4.1364999 -7.9640999 0.2238
5.5946002 -7.2491999 0.22840001
4.4319 -7.6761999 0.221
5.1452999 -7.3193002 0.22310001
3.7061 -9.0181999 0.081
4.7739 -7.4783001 0.073700003
5.6444998 -7.3137999 -0.076800004
4.4628 -7.7298002 -0.074199997
4.1904998 -8.0682001 -0.22669999
4.822 -7.5535002 -0.2235
3.9384 -8.4870996 -0.2333
4.4856 -7.7693 -0.2237
5.2093 -7.4102998 -0.22589999
6.3371 -7.4955001 -0.2448
3.8980999 -9.4854002 -0.42640001
4.2247 -8.1338997 -0.3811
5.7406998 -7.4384999 -0.39070001
3.9769001 -8.5698996 -0.3928
4.9013 -7.6777 -0.53049999
4.5606999 -7.8994002 -0.53130001
5.303 -7.5437002 -0.53710002
4.3204002 -8.3183002 -0.70240003
4.9549999 -7.7618999 -0.69010001
5.9063001 -7.6529999 -0.7245
4.6118002 -7.9878998 -0.69120002
6.0570998 -7.8483 -0.90890002
4.507 -8.6775999 -1.0606
5.5879998 -7.9491 -1.0539
4.7212 -9.0899 -1.2836
5.27 -8.2552004 -1.2273
5.8119001 -8.2676001 -1.2664
