# .PCD v0.7 - Point Cloud Data file format
VERSION 0.7
FIELDS x y z
SIZE 4 4 4
TYPE F F F
COUNT 1 1 1
WIDTH 86
HEIGHT 1
VIEWPOINT 0 0 0 1 0 0 0
POINTS 86
DATA ascii
3.2880001 -8.0008001 2.1262
3.1322999 -7.6220002 1.7373
3.4651 -7.467 1.7354
2.7862999 -7.7445002 1.5927
4.2304001 -7.3273001 1.6373
2.4858 -8.0135002 1.4794
3.7407999 -7.2023001 1.431
4.7733998 -7.4773002 1.5642
3.3764999 -7.2761998 1.4144
3.7007999 -7.1252999 1.2785
3.3427 -7.2031999 1.2645
2.4329 -7.8428998 1.168
3.0042 -7.3104 1.1242
3.6768999 -7.0791998 1.1346
4.5925002 -7.1940999 1.214
3.3238001 -7.1626 1.1231
2.4170001 -7.7916999 1.0223
2.9881001 -7.2711 0.98509997
3.6559 -7.0388999 0.99400002
2.4017 -7.7421999 0.87919998
2.9749 -7.2389998 0.84890002
4.5187001 -7.0784001 0.9109
2.1466 -8.1934996 0.91869998
3.2914 -7.0928001 0.84810001
2.3966999 -7.7262998 0.74159998
3.6315 -6.9917998 0.72229999
4.5022998 -7.0527 0.76709998
2.1382999 -8.1618996 0.77350003
2.6747 -7.4345002 0.72430003
3.2859001 -7.0809002 0.71560001
4.0240002 -6.9698 0.7378
4.4910998 -7.0351 0.62550002
3.2804 -7.0689998 0.58399999
2.3887 -7.7003002 0.46959999
2.9628 -7.2096 0.454
2.6675999 -7.4145999 0.45899999
2.3933001 -7.7153001 0.33590001
3.6280999 -6.9854002 0.32730001
4.4917002 -7.0360999 0.34709999
2.1329999 -8.1414003 0.34990001
2.6722 -7.4274001 0.32820001
3.2834001 -7.0756001 0.32429999
4.0186 -6.9604001 0.33419999
2.398 -7.7304001 0.2018
2.9725001 -7.2329998 0.19499999
3.6343999 -6.9974999 0.19660001
2.1380999 -8.1611004 0.2104
5.2396998 -7.4535999 0.2272
2.9802001 -7.2518001 0.065200001
2.6840999 -7.4604001 0.065899998
4.0386 -6.9949999 0.067100003
5.2786002 -7.5088 0.076300003
2.4198999 -7.8010001 -0.067900002
4.5528002 -7.1318002 -0.070299998
2.6984999 -7.5005002 -0.066200003
3.3139 -7.1413002 -0.065399997
2.4347 -7.8488002 -0.2049
3.0104001 -7.3253999 -0.19750001
2.1847999 -8.3392 -0.215
2.7130001 -7.5409002 -0.1999
4.0881 -7.0808001 -0.20389999
2.4558001 -7.9166999 -0.34459999
3.7105 -7.1441002 -0.33469999
4.6471 -7.2795 -0.35910001
2.4833 -8.0054998 -0.48820001
3.0589001 -7.4432998 -0.46869999
4.7333999 -7.4147 -0.51239997
2.2591 -8.6229 -0.51920003
2.7598 -7.6708999 -0.47479999
3.3843 -7.2930002 -0.46830001
4.1690001 -7.2209001 -0.48559999
2.5192001 -8.1211996 -0.6372
4.8509002 -7.5988002 -0.67559999
2.5745001 -8.2994003 -0.79659998
3.132 -7.6212001 -0.7554
3.8432 -7.3994002 -0.76440001
4.3081999 -7.4619999 -0.7899
3.1794 -7.7367001 -0.9073
3.5174999 -7.5801001 -0.90640002
4.0172 -7.7343998 -1.0922
2.9669001 -8.2466002 -1.0983
4.6812 -8.1080999 -1.1733
3.3657 -8.1899996 -1.2594
4.2103 -8.1062002 -1.2992001
3.1396 -8.7266998 -1.3191
3.7174001 -8.0108004 -1.2561001
