# .PCD v0.7 - Point Cloud Data file format
VERSION 0.7
FIELDS x y z
SIZE 4 4 4
TYPE F F F
COUNT 1 1 1
WIDTH 65
HEIGHT 1
VIEWPOINT 0 0 0 1 0 0 0
POINTS 65
DATA ascii
4.6732998 -8.0944004 2.1333001
4.9663 -7.7796001 1.9457999
5.6108999 -7.9815998 2.0569
3.7251999 -9.0647001 1.8965
4.8662 -7.6227999 1.7501
4.4672999 -7.7375998 1.729
3.5885999 -8.7322998 1.6647
4.0770998 -7.8498001 1.5597
3.7934 -8.1745996 1.589
5.2691002 -7.4954 1.6155
3.5185001 -8.5619001 1.474
4.7379999 -7.4218998 1.4021
5.8639002 -7.598 1.5283
5.1993999 -7.3962002 1.4396
3.467 -8.4364996 1.2973
3.9998 -7.7010999 1.2343
3.7118001 -7.9987998 1.2543
4.6691999 -7.3141999 1.0874
3.2923 -9.1512003 1.2187001
5.0997 -7.2544999 1.1113
3.4158001 -8.3118 0.97469997
5.6215 -7.2839999 0.99800003
4.632 -7.2557998 0.78920001
3.2107999 -8.9245005 0.86949998
4.2695999 -7.3951001 0.78280002
4.6241002 -7.2435002 0.64399999
5.5699 -7.2171001 0.6832
3.1977999 -8.8885002 0.70789999
4.2624998 -7.3829002 0.63889998
3.9349999 -7.5762 0.49720001
4.6174998 -7.2332001 0.4998
3.1849999 -8.8529997 0.54799998
3.6438999 -7.8525 0.50419998
4.257 -7.3734002 0.49590001
6.4928999 -7.6798 0.58569998
3.3924 -8.2550001 0.37110001
5.5661001 -7.2121 0.3788
3.1916001 -8.8712997 0.39199999
3.6507001 -7.8670001 0.36059999
5.0430002 -7.1736999 0.3646
3.3998001 -8.2728996 0.22310001
3.9482 -7.6016998 0.21359999
5.5812001 -7.2318001 0.2278
3.4117999 -8.3021002 0.074600004
3.9596 -7.6236 0.071400002
4.6465001 -7.2786002 0.071800001
5.6058998 -7.2637 0.076300003
3.4345 -8.3575001 -0.075099997
4.6707001 -7.3165002 -0.072099999
4.0008001 -7.7030001 -0.2165
4.3263998 -7.4935999 -0.2158
5.1279001 -7.2944999 -0.22239999
4.7343001 -7.4162002 -0.36579999
5.7841001 -7.4947 -0.39359999
4.4011002 -7.6229 -0.51270002
3.6257 -8.8226995 -0.7148
6.2031002 -8.0375996 -0.76090002
3.8341 -8.2622995 -0.68260002
5.3301001 -7.5822001 -0.69459999
4.1831002 -8.0539999 -0.83200002
4.9208002 -7.7083998 -0.83840001
5.4403 -7.7389002 -0.86729997
4.6066999 -7.9790001 -0.9993
4.3940001 -8.4598999 -1.1946
5.0355 -8.7217999 -1.4325
