# .PCD v0.7 - Point Cloud Data file format
VERSION 0.7
FIELDS x y z
SIZE 4 4 4
TYPE F F F
COUNT 1 1 1
WIDTH 74
HEIGHT 1
VIEWPOINT 0 0 0 1 0 0 0
POINTS 74
DATA ascii
4.9611001 -8.5929003 1.9201
4.5896001 -8.8366003 1.7558
4.8081999 -8.3281002 1.6956
5.5767999 -7.9331002 1.7099
6.0096998 -7.7870002 1.5663
5.4586 -7.7649002 1.5114
4.3727999 -8.4191999 1.3494
5.8765001 -7.6145 1.3681
4.6465998 -8.0481005 1.3218
4.3200002 -8.3176003 1.1745
4.1226001 -8.8841 1.2273999
4.6009002 -7.9689999 1.1531
6.5174999 -7.7089 1.265
4.8866 -7.6546998 0.98500001
5.7249999 -7.4180999 1.0164
4.5583 -7.8951998 0.98890001
4.2491002 -8.1809998 0.84509999
4.8611002 -7.6146998 0.82819998
5.2381001 -7.4513001 0.83499998
3.9156001 -9.5279999 0.77200001
4.8358998 -7.5753002 0.6735
3.9883001 -8.5944996 0.70999998
5.2097998 -7.4109998 0.6789
6.2375002 -7.3778 0.72399998
3.8487 -9.3653002 0.58969998
4.2114 -8.1083002 0.53219998
4.4979 -7.7905002 0.52389997
6.1968002 -7.3295999 0.55900002
4.8151002 -7.5427999 0.3721
3.9582 -8.5296001 0.391
4.4903998 -7.7775002 0.3734
6.1787 -7.3081002 0.39789999
3.8092999 -9.2693005 0.2499
4.1974001 -8.0815001 0.2271
4.4844999 -7.7673001 0.2237
5.1787 -7.3667998 0.2246
6.1609998 -7.2872 0.23800001
3.8216 -9.2992001 0.0836
4.8168998 -7.5454001 0.0744
3.9586999 -8.5306997 0.078199998
4.4919 -7.7802 0.074699998
5.1875 -7.3793998 0.075000003
6.1788001 -7.3083 0.079499997
4.2125001 -8.1104002 -0.075999998
4.8246999 -7.5577998 -0.074500002
5.6349001 -7.3014002 -0.076700002
5.1964002 -7.3919001 -0.075099997
6.1968002 -7.3295999 -0.079800002
3.8994999 -9.4889002 -0.25580001
4.2280998 -8.1405001 -0.2288
5.6573 -7.3304 -0.2309
4.5145998 -7.8195 -0.2252
6.2360001 -7.3759999 -0.24089999
3.9964001 -9.7247 -0.43720001
4.2518001 -8.1861 -0.38350001
4.8653998 -7.6215 -0.37599999
5.6908998 -7.3738999 -0.38730001
4.5379 -7.8599 -0.37740001
4.2774 -8.2355003 -0.54049999
4.8908 -7.6612 -0.52939999
4.0581999 -8.7451 -0.56150001
5.2715001 -7.4987998 -0.53390002
6.3643999 -7.5279002 -0.57410002
5.3225999 -7.5714002 -0.6936
4.1964998 -9.0432997 -0.91399997
5.3748002 -7.6457 -0.85680002
4.4549999 -8.5774002 -1.0484
5.0535998 -7.9162998 -1.0187
4.3652 -9.4067001 -1.1248
4.5588999 -8.7775002 -1.2395
5.1363001 -8.0458002 -1.1962
4.8091002 -9.2592001 -1.484
4.9294 -8.5379 -1.4023
5.7227001 -8.1406002 -1.4154
