# .PCD v0.7 - Point Cloud Data file format
VERSION 0.7
FIELDS x y z
SIZE 4 4 4
TYPE F F F
COUNT 1 1 1
WIDTH 93
HEIGHT 1
VIEWPOINT 0 0 0 1 0 0 0
POINTS 93
DATA ascii
3.9458001 -8.5030003 2.3041
3.7588999 -8.1000996 2.0381999
4.5156999 -7.8214002 2.0613
3.3873 -8.2425003 1.8787
3.9909999 -7.6841002 1.8254
4.9151001 -7.6993999 1.9256999
4.3889999 -7.6019001 1.8506
3.3199999 -8.0785999 1.6902
4.7846999 -7.4951 1.7208
3.5992999 -7.7563 1.6547
3.2690001 -7.9547 1.5165
3.8771999 -7.4650002 1.4832
4.6974001 -7.3583999 1.5393
5.3534999 -7.6153998 1.6414
3.2311001 -7.8624001 1.3536
4.6375999 -7.2646999 1.3724
3.5177 -7.5805001 1.3307
4.2027001 -7.2793002 1.3385
2.7797999 -8.9612999 1.3345
3.2011001 -7.7895999 1.1979001
4.5876002 -7.1862998 1.2127
2.9444001 -8.1842003 1.2371
4.1683998 -7.2198 1.1858
5.1269002 -7.2932 1.268
2.7214999 -8.7730999 1.1511
2.9226 -8.1234999 1.0819
3.4712999 -7.4804001 1.0334001
3.1621001 -7.6945 0.9023
3.7704 -7.2593002 0.88730001
4.5276999 -7.0925002 0.9127
3.4523001 -7.4394002 0.88959998
5.0377998 -7.1662998 0.95020002
2.6682999 -8.6018 0.82569999
3.1547 -7.6764998 0.76090002
3.7637999 -7.2466002 0.74860001
5.8095999 -7.5276999 0.87169999
3.4459 -7.4257002 0.75050002
5.0120001 -7.1297002 0.79900002
2.6601 -8.5752001 0.6728
3.7576001 -7.2346001 0.61089998
4.5075002 -7.0608001 0.62779999
3.4402001 -7.4133 0.61250001
4.1083002 -7.1157999 0.61580002
2.6519001 -8.5488997 0.52130002
3.1447001 -7.6522002 0.48190001
3.7532001 -7.2262001 0.4743
5.7304001 -7.4250998 0.54629999
4.1030002 -7.1065998 0.4779
4.9857998 -7.0924001 0.50489998
2.6570001 -8.5653 0.37290001
3.1501 -7.6652999 0.34459999
3.7593 -7.2378998 0.3391
5.7424998 -7.4407001 0.3908
2.8833001 -8.0143995 0.35409999
3.4416001 -7.4165001 0.34
4.9966002 -7.1078 0.36129999
4.5162001 -7.0746002 0.2093
2.8896999 -8.0320997 0.2129
4.5285001 -7.0938001 0.069899999
5.8305998 -7.5549998 0.079300001
2.8993001 -8.0587997 0.071199998
2.7009001 -8.7068005 -0.075800002
3.1824999 -7.7441001 -0.069600001
4.5560999 -7.1370001 -0.0704
6.1234002 -7.9342999 -0.083300002
4.1483002 -7.1851001 -0.068999998
2.7374001 -8.8247004 -0.2304
3.201 -7.7891002 -0.20999999
3.813 -7.3413 -0.20630001
3.4925001 -7.5261002 -0.2069
4.1697001 -7.2221999 -0.208
5.1087999 -7.2673001 -0.22149999
3.2281001 -7.8551002 -0.3531
4.6278 -7.2493 -0.3576
2.9705 -8.2566996 -0.36489999
3.5186999 -7.5826001 -0.34760001
4.2023001 -7.2786002 -0.3495
3.2621 -7.9379001 -0.4998
3.0083001 -8.3615999 -0.5176
3.5520999 -7.6546998 -0.49149999
4.2442002 -7.3512001 -0.49439999
3.9140999 -7.5359998 -0.63639998
3.0604 -8.5065002 -0.67750001
3.5892 -7.7344999 -0.639
4.2912998 -7.4327002 -0.64319998
3.1431 -8.7363997 -0.85119998
3.6443999 -7.8534999 -0.79369998
3.4312999 -8.3495998 -0.97909999
4.9787998 -7.7992001 -1.0036
4.4429002 -7.6953001 -0.96380001
4.1382999 -7.9677 -1.1251
4.5623999 -7.9022999 -1.1435
4.3004999 -8.2799997 -1.3271
