# .PCD v0.7 - Point Cloud Data file format
VERSION 0.7
FIELDS x y z
SIZE 4 4 4
TYPE F F F
COUNT 1 1 1
WIDTH 120
HEIGHT 1
VIEWPOINT 0 0 0 1 0 0 0
POINTS 120
DATA ascii
0.25150001 -7.5222001 2.2533
0.9199 -7.4692001 2.253
0.57410002 -7.3471999 2.2063
-0.082800001 -7.4330001 2.0915
1.2352 -7.3228002 2.0894001
-0.43439999 -7.7911 2.0560999
1.6296 -7.5836 2.0439
-0.079499997 -7.1370001 1.8807
1.1848 -7.0243001 1.8771
-0.40709999 -7.3017001 1.7975
0.2282 -6.8260999 1.6788
0.8348 -6.7781 1.6786
1.536 -7.1482 1.7970999
1.1604 -6.8793998 1.7148
-0.3962 -7.1062999 1.6245
0.22490001 -6.7270002 1.5362999
0.82300001 -6.6819 1.5366
1.4929 -6.9474001 1.6219
-0.076399997 -6.8541002 1.5645
1.1402 -6.7598 1.5647
0.2225 -6.6535001 1.4035
1.471 -6.8455 1.4761
-0.74970001 -7.4527001 1.5791
-0.075400002 -6.7698998 1.4273
0.51599997 -6.6037998 1.3965
1.8994 -7.2498002 1.58
-0.38409999 -6.8881998 1.3351001
0.2201 -6.5820999 1.2745
0.80559999 -6.5411 1.2754
1.4509 -6.7519002 1.3364
-0.074500002 -6.6890998 1.2945
-0.074000001 -6.6427002 1.1714
0.5079 -6.4991999 1.1495
1.1057 -6.5553002 1.1722
1.4255 -6.6336999 1.0804
-0.71109998 -7.0679998 1.1312
-0.073600002 -6.6046 1.0518
0.50510001 -6.4639001 1.0324
1.8020999 -6.8786998 1.1323
-1.1362 -7.7905002 1.1198
0.2163 -6.4685998 0.9206
0.792 -6.4303999 0.92159998
1.4155 -6.5872998 0.95829999
2.3220999 -7.4856 1.1148
-0.7051 -7.0089998 1.002
-0.073200002 -6.5671 0.93409997
1.0925 -6.4769001 0.93430001
-1.1041 -7.5706 0.95880002
-0.37369999 -6.7027001 0.84130001
0.2157 -6.4506001 0.80879998
0.78979999 -6.4127002 0.80970001
1.4086 -6.5549998 0.84020001
-0.69999999 -6.9583998 0.87639999
-0.072899997 -6.5457001 0.82029998
1.0888 -6.4548001 0.82029998
-1.0917 -7.4853001 0.82050002
-0.373 -6.6894002 0.72670001
0.21529999 -6.4394002 0.69889998
0.78850001 -6.4018002 0.69959998
2.2321999 -7.1957998 0.81720001
-0.072800003 -6.5342002 0.70880002
1.7658 -6.7399998 0.75569999
-1.0858999 -7.4456 0.68980002
0.78710002 -6.3909001 0.59030002
1.4025 -6.5268002 0.61199999
2.2227001 -7.1652002 0.68779999
-0.69660002 -6.9246001 0.63800001
-0.072700001 -6.5226998 0.59799999
1.7609 -6.7213998 0.63700002
-0.37149999 -6.6630001 0.50010002
0.78619999 -6.3836002 0.48199999
-0.69499999 -6.908 0.52029997
-0.0726 -6.5137 0.48820001
-1.0803 -7.4071999 0.43599999
0.78750002 -6.3941998 0.3752
2.2135 -7.1357002 0.43509999
-0.69599998 -6.9184999 0.405
-0.072700001 -6.5249 0.38010001
1.7592 -6.7147002 0.4043
-1.0857 -7.4443998 0.31279999
-0.37290001 -6.6886001 0.27849999
1.4054 -6.5402002 0.27810001
2.2226 -7.1648998 0.31189999
-0.072800003 -6.5359998 0.27180001
1.7639 -6.7328 0.28940001
-0.37369999 -6.7013998 0.1674
0.79009998 -6.4154 0.1612
-0.072899997 -6.5472002 0.16329999
1.0891 -6.4563999 0.16329999
1.7687 -6.7508998 0.17399999
-1.101 -7.5489001 0.0634
0.79290003 -6.4375 0.0539
-0.073200002 -6.5703001 0.0546
1.7778 -6.7856002 0.0583
-1.1183 -7.6679001 -0.064400002
0.2177 -6.5100999 -0.054099999
2.2999001 -7.4141998 -0.064499997
-0.70749998 -7.0331001 -0.058699999
-0.073600002 -6.6051002 -0.054900002
0.50559998 -6.4699001 -0.0539
-0.37959999 -6.8079 -0.17
0.21879999 -6.5443001 -0.16329999
0.801 -6.5039001 -0.16339999
-0.074000001 -6.6403999 -0.1656
0.50809997 -6.5026002 -0.1627
-0.38690001 -6.9383001 -0.40470001
0.81300002 -6.6006999 -0.38730001
-0.73460001 -7.3016 -0.42739999
-0.3919 -7.0285001 -0.52749997
0.2243 -6.7076998 -0.50300002
0.82059997 -6.6630001 -0.50309998
1.4782 -6.8787999 -0.5273
0.52029997 -6.6581998 -0.50050002
1.1349 -6.7279 -0.51130003
-0.39809999 -7.1399002 -0.65560001
-0.77590001 -7.7128 -0.71069998
-0.40669999 -7.2941999 -0.7924
0.8416 -6.8332 -0.74680001
0.53320003 -6.8237 -0.74239999
0.2393 -7.1560998 -1.0184
