# .PCD v0.7 - Point Cloud Data file format
VERSION 0.7
FIELDS x y z
SIZE 4 4 4
TYPE F F F
COUNT 1 1 1
WIDTH 70
HEIGHT 1
VIEWPOINT 0 0 0 1 0 0 0
POINTS 70
DATA ascii
5.3814998 -8.4300003 2.2827001
5.1831999 -8.1191998 2.0307
4.8512001 -8.4025002 2.0455
5.6331 -8.0130997 2.0650001
4.4891 -8.6430998 1.8846999
5.0724001 -7.9457002 1.8243001
4.7368999 -8.2046003 1.8334
5.4829001 -7.7995 1.845
4.9889998 -7.8151999 1.6349
4.2774 -9.2174997 1.7918
4.9394002 -7.7374001 1.4617
5.8123999 -7.5313001 1.5149
4.6092 -7.9833999 1.4679
5.7385001 -7.4355998 1.3358999
4.0764999 -8.7846003 1.3775001
4.2533002 -8.1890001 1.1564
5.6946998 -7.3789001 1.168
4.5374999 -7.8590999 1.1372
4.8388 -7.5798001 0.97539997
3.9951999 -8.6094999 1.0295
4.5131998 -7.8171 0.97909999
5.2135 -7.4162998 0.98329997
6.2522998 -7.3951998 1.0504
5.6353998 -7.3018999 0.84560001
6.2010002 -7.3346 0.88050002
3.8322001 -9.3250999 0.75550002
4.8158998 -7.5440001 0.67070001
6.1827002 -7.3129001 0.71759999
5.6136999 -7.2739 0.5352
6.1645002 -7.2912998 0.55610001
4.204 -8.0941 0.37920001
5.6227002 -7.2855 0.3827
3.9572001 -8.5274 0.39089999
4.4912 -7.7789001 0.37349999
6.1750002 -7.3038001 0.39770001
3.8376999 -9.3386002 0.2518
4.2115002 -8.1085997 0.2279
3.9661 -8.5466995 0.235
5.1954002 -7.3906002 0.2253
6.1928 -7.3249002 0.2392
3.8752 -9.4296999 0.084700003
4.5121002 -7.8151999 0.075000003
5.2114 -7.4131999 0.075300001
4.2483001 -8.1794004 -0.0766
5.6852999 -7.3667002 -0.077299997
4.8873 -7.6557999 -0.2265
5.7188001 -7.4101 -0.2334
5.2665 -7.4917002 -0.22840001
6.3367 -7.4951 -0.2448
4.3132 -8.3044004 -0.38909999
4.9295998 -7.7220998 -0.3809
5.7796998 -7.4889002 -0.3933
4.5988002 -7.9653001 -0.38240001
5.3144999 -7.5598998 -0.38420001
4.9748001 -7.7929001 -0.53850001
5.8516998 -7.5822001 -0.55779999
4.1613998 -8.9674997 -0.5758
4.4349999 -8.5388002 -0.72109997
5.0391002 -7.8937001 -0.70179999
5.9611001 -7.724 -0.73119998
4.2907 -9.2461996 -0.76389998
4.7030001 -8.1457996 -0.70490003
5.4390001 -7.7371001 -0.7087
4.5191998 -8.7010002 -0.89889997
5.1136999 -8.0105 -0.87129998
6.1027002 -7.9074998 -0.91570002
4.7740002 -8.2686996 -0.87529999
5.5271001 -7.8624001 -0.8811
5.0769 -8.7934999 -1.2724
5.9347 -8.4421997 -1.2932
