# .PCD v0.7 - Point Cloud Data file format
VERSION 0.7
FIELDS x y z
SIZE 4 4 4
TYPE F F F
COUNT 1 1 1
WIDTH 107
HEIGHT 1
VIEWPOINT 0 0 0 1 0 0 0
POINTS 107
DATA ascii
1.7941999 -8.3495998 2.2502999
2.2802999 -7.3509998 1.8918
1.6336 -7.6023002 1.7747999
2.9786 -7.2480001 1.7886
1.9273 -7.3565998 1.7358
2.5818 -7.1760998 1.7407
1.6011 -7.4509001 1.6066999
1.8959 -7.2365999 1.5771
2.5394001 -7.0584002 1.5814
3.4037001 -7.3347998 1.7047
2.1831 -7.0376 1.4259
1.8757 -7.1595998 1.4323
3.3206999 -7.1559 1.5266
1.5637 -7.2768998 1.3124
2.1610999 -6.9665999 1.2861
1.2794 -7.5848999 1.3563
2.4865 -6.9113002 1.2951
3.2697001 -7.046 1.3696001
0.98329997 -7.9836001 1.2809
1.5513 -7.2189002 1.1758
2.1478 -6.9239001 1.1544
1.2648 -7.4984999 1.2108999
2.4700999 -6.8656998 1.1619
3.2316 -6.9639001 1.2225
0.97259998 -7.8972998 1.1318001
2.1363001 -6.8867002 1.0256
3.7335999 -7.1884999 1.1521
1.8338 -6.9994001 1.0292
3.2084 -6.914 1.0841
2.1249001 -6.8502002 0.89880002
1.8237 -6.9608998 0.90179998
3.1856999 -6.8649998 0.94840002
1.5283 -7.112 0.78899997
2.1208 -6.8369002 0.77640003
2.7814 -6.7683001 0.79369998
1.8199 -6.9464002 0.77890003
3.1719 -6.8351998 0.81730002
1.5254 -7.0984998 0.6656
1.239 -7.3452001 0.68290001
1.8167 -6.9345002 0.65719998
2.4335999 -6.7644 0.6591
0.9501 -7.7140999 0.58249998
2.7711 -6.7431002 0.54629999
3.6357999 -7.0001998 0.59109998
0.67979997 -8.6996002 0.65390003
2.4295001 -6.7529001 0.53780001
3.158 -6.8053002 0.56220001
2.7723 -6.7459002 0.42480001
3.6317999 -6.9924002 0.4589
1.2368 -7.3319998 0.43309999
1.8148 -6.9271002 0.41710001
2.431 -6.757 0.41819999
3.158 -6.8052001 0.43700001
0.95209998 -7.7301002 0.3238
1.5261 -7.1018 0.30199999
1.2391 -7.3459001 0.3098
2.4349999 -6.7681999 0.29910001
3.1647 -6.8197999 0.31259999
0.95480001 -7.7525001 0.1948
1.5289 -7.1149001 0.1815
2.1221001 -6.8408999 0.1786
2.7823999 -6.7705002 0.1825
3.6521001 -7.0314999 0.19760001
1.2414 -7.3597002 0.18610001
1.8209 -6.9503002 0.17919999
2.4391 -6.7795 0.1797
0.95959997 -7.7909999 0.065200001
2.7916 -6.7930002 0.061000001
1.8266 -6.9720998 0.059900001
2.4466 -6.8004999 0.0601
3.1835001 -6.8603001 0.062899999
0.96820003 -7.8611002 -0.065800004
1.5429 -7.1799002 -0.061000001
3.7042 -7.1318998 -0.066799998
1.5517 -7.2212 -0.1842
1.8457 -7.0448999 -0.1816
2.4719999 -6.8710999 -0.1821
1.5631 -7.2742 -0.30939999
3.8183 -7.3515 -0.34439999
1.2747 -7.5570998 -0.31869999
2.4881001 -6.9159002 -0.30559999
1.0118001 -8.2154999 -0.48210001
2.8731 -6.9913998 -0.4402
1.2905999 -7.6514001 -0.45190001
1.8753 -7.158 -0.43099999
2.5114999 -6.9808998 -0.4321
1.0420001 -8.4605999 -0.63880002
1.5961 -7.4278002 -0.5693
2.2035 -7.1036 -0.55739999
1.307 -7.7481999 -0.58890003
2.2311001 -7.1925001 -0.6904
2.9474001 -7.1719999 -0.71090001
1.3333 -7.9040999 -0.7349
3.4259 -7.3825002 -0.74610001
1.6481 -7.6697998 -0.85089999
2.2646999 -7.3007002 -0.82910001
1.9479001 -7.4352002 -0.8337
1.6899 -7.8643999 -1.008
1.9867001 -7.5833001 -0.9824
2.6624999 -7.4006 -0.98559999
1.7545 -8.1646996 -1.1878
2.3645999 -7.6227002 -1.1352
3.2497001 -7.9075999 -1.216
2.0380001 -7.7788 -1.1438
2.7363999 -7.6059999 -1.1497
2.4632001 -7.9404998 -1.3239
2.8943 -8.0448999 -1.3614
