# .PCD v0.7 - Point Cloud Data file format
VERSION 0.7
FIELDS x y z
SIZE 4 4 4
TYPE F F F
COUNT 1 1 1
WIDTH 121
HEIGHT 1
VIEWPOINT 0 0 0 1 0 0 0
POINTS 121
DATA ascii
0.2386 -7.1357999 2.1375
0.58780003 -7.5218 2.2586999
-0.73199999 -7.2763 2.0574999
0.55070001 -7.0475001 1.9888999
-0.37940001 -6.8035002 1.7955
0.2256 -6.7490001 1.7794
0.87550002 -7.1089001 1.8874
-0.70300001 -6.9881001 1.8507
0.53530002 -6.8498001 1.8104
-1.0463001 -7.1739998 1.7819999
-0.37189999 -6.6689 1.6418
0.22149999 -6.6259999 1.6296
-0.68660003 -6.8246002 1.6859
-0.073700003 -6.6114001 1.6252
1.2783 -7.5781002 1.8890001
-1.015 -6.9594002 1.6052001
-0.36700001 -6.5812998 1.5045
0.83530003 -6.7817998 1.5596
-0.67430001 -6.7027001 1.5376
-0.072800003 -6.5356998 1.4918
0.51749998 -6.6231999 1.5163
1.2061 -7.1501999 1.655
0.2167 -6.4801002 1.3669
0.82450002 -6.6942 1.4219
-1.4227999 -7.4225001 1.5933
-0.66619998 -6.6219001 1.4031
-0.071999997 -6.4668002 1.3634
0.51169997 -6.5489001 1.3849
-0.98329997 -6.7424002 1.3186001
0.81400001 -6.6093998 1.2887
-1.3781 -7.1896 1.4166
-0.97409999 -6.6785998 1.1901
0.21340001 -6.3834 1.1262
0.80769998 -6.5581002 1.1651
-0.071000002 -6.3709002 1.1234
0.50330001 -6.4408002 1.1392
1.1433001 -6.7776999 1.212
-0.9673 -6.6322999 1.0673
1.5368 -7.1515999 1.1648
-1.3291 -6.9338002 1.1242
-0.96069998 -6.5868001 0.94679999
1.1246001 -6.6669002 0.96170002
-0.35260001 -6.3239002 0.79369998
0.21070001 -6.3017998 0.7902
0.79439998 -6.4498 0.81440002
1.5009 -6.9844999 0.89520001
-1.3072 -6.8195 0.87010002
-0.64490002 -6.4101 0.80729997
-0.070100002 -6.2897 0.78829998
0.49630001 -6.3512998 0.79839998
-1.7838 -7.4851999 0.83459997
0.79280001 -6.4368 0.70349997
-1.3037 -6.8010998 0.7511
-0.6437 -6.3983998 0.69749999
-0.069899999 -6.2790999 0.68110001
1.1152 -6.6115999 0.72729999
-0.95240003 -6.5304999 0.60500002
-0.35139999 -6.3024998 0.57870001
0.20999999 -6.2807002 0.57609999
0.79119998 -6.4239001 0.5934
-0.069799997 -6.2686 0.5747
1.1125 -6.5952001 0.61320001
0.2098 -6.276 0.47060001
1.4845001 -6.9085002 0.52950001
-0.069799997 -6.2642002 0.46950001
0.4941 -6.3228002 0.47530001
-0.9526 -6.5317001 0.3845
-0.35170001 -6.3077998 0.368
0.2102 -6.2863002 0.36629999
-0.069899999 -6.2744002 0.3655
0.49489999 -6.3337002 0.37
-0.95459998 -6.5451002 0.27500001
-0.35229999 -6.3182001 0.2631
0.2105 -6.2965999 0.26199999
-0.07 -6.2846999 0.2613
0.49579999 -6.3446999 0.26460001
1.1151 -6.6107001 0.27869999
-1.7811 -7.4738002 0.19159999
-0.3529 -6.3285999 0.15809999
-0.070100002 -6.2950001 0.15700001
0.49669999 -6.3557 0.15899999
1.1178 -6.6266999 0.16760001
-0.9605 -6.5858002 0.055300001
-0.35409999 -6.3508 0.052900001
-0.6476 -6.4372001 0.053800002
-0.0704 -6.3171 0.052499998
-0.9666 -6.6276002 -0.0557
0.8028 -6.5179 -0.0546
-1.323 -6.9022002 -0.058400001
-0.070699997 -6.3491001 -0.0528
-0.97280002 -6.6700001 -0.1681
0.2138 -6.3931999 -0.1595
-0.071099997 -6.3814998 -0.1592
0.50379997 -6.4477 -0.1613
-0.97979999 -6.7178001 -0.2823
-0.35960001 -6.4498 -0.26859999
0.2149 -6.4263 -0.2674
-0.65859997 -6.5465999 -0.27360001
-0.071500003 -6.4145002 -0.2667
0.50669998 -6.4837999 -0.27039999
0.2168 -6.4854999 -0.3779
-0.072099999 -6.4735999 -0.37709999
-1.0052 -6.8919001 -0.5219
-0.36660001 -6.5743999 -0.49340001
0.2189 -6.5458999 -0.49079999
-0.67199999 -6.6796999 -0.50309998
0.51670003 -6.6118002 -0.49700001
-1.0224 -7.0103002 -0.64950001
-0.37029999 -6.6406002 -0.60970002
0.8416 -6.8334999 -0.63120002
-0.68019998 -6.7613001 -0.62300003
0.5219 -6.6788001 -0.6142
-0.37630001 -6.7480001 -0.7331
-0.074600004 -6.6936998 -0.72610003
0.53030002 -6.7865 -0.73830003
0.2277 -6.8094001 -0.8538
-0.0757 -6.7972999 -0.85189998
-0.077299997 -6.9372001 -0.98680001
-0.40220001 -7.2129998 -1.1504
-0.079300001 -7.1163001 -1.1332
0.57029998 -7.2985001 -1.1657
