# .PCD v0.7 - Point Cloud Data file format
VERSION 0.7
FIELDS x y z
SIZE 4 4 4
TYPE F F F
COUNT 1 1 1
WIDTH 139
HEIGHT 1
VIEWPOINT 0 0 0 1 0 0 0
POINTS 139
DATA ascii
-3.6842999 -6.7228999 2.2951
-3.3631001 -6.8436999 2.2829001
-3.1944001 -6.5002999 2.0378001
-2.8620999 -6.5458999 1.8825001
-3.7335999 -6.1464 1.895
-2.6754 -6.9464002 1.9614
-4.0686002 -6.0709 1.7963001
-2.8051 -6.4155002 1.7211
-2.4942999 -7.4499998 1.9311
-2.596 -6.7403998 1.7754
-3.2785001 -5.9825001 1.5571001
-2.3736 -7.0896001 1.7064
-3.9078 -5.8308001 1.4798
-3.2433 -5.9182 1.4227
-4.3926001 -5.9617 1.5612
-3.5492001 -5.8428001 1.4412
-2.9744999 -6.053 1.4218
-2.7005999 -6.1764998 1.3045
-4.3080001 -5.8469 1.4054
-3.5112 -5.7803001 1.3088
-2.4761 -6.4291 1.3332
-5.0511999 -6.2519999 1.4172
-2.6815 -6.1325998 1.1802
-2.2449999 -6.7054 1.2467999
-3.4856 -5.7382002 1.1838
-2.9252 -5.9524999 1.1695
-3.8006001 -5.6708999 1.0871
-3.1716001 -5.7874999 1.0509
-2.6664 -6.0983 1.0598
-3.4660001 -5.7058001 1.0631
-2.9093001 -5.9203 1.0504
-2.4387 -6.3319001 1.0805
-3.7771001 -5.6357999 0.96499997
-3.1545999 -5.7564001 0.93370003
-4.1750002 -5.6662998 1.0010999
-3.4466 -5.6739998 0.9443
-2.4238 -6.2930999 0.95920002
-2.0286 -7.0946002 1.0496
-3.76 -5.6104002 0.84640002
-3.1451001 -5.7391 0.82010001
-2.6427 -6.0440998 0.82669997
-2.198 -6.5651999 0.86760002
-4.1468 -5.6280999 0.8761
-2.885 -5.8709002 0.8197
-2.0088 -7.0253 0.91570002
-3.7528 -5.5995998 0.73119998
-3.1398001 -5.7294998 0.7087
-2.1931 -6.5503998 0.7493
-4.1371999 -5.6150999 0.75650001
-2.4087999 -6.2543001 0.727
-3.7456999 -5.5889001 0.61680001
-3.1345999 -5.7199998 0.59799999
-2.6336999 -6.0233998 0.6027
-2.1882 -6.5356998 0.63190001
-4.1278 -5.6022 0.63800001
-3.4229 -5.6349001 0.60439998
-2.8754001 -5.8513999 0.5977
-1.9943 -6.9745998 0.66500002
-3.1307001 -5.7128 0.48820001
-2.6299 -6.0148001 0.4919
-2.1833 -6.5212002 0.51539999
-4.1184001 -5.5895 0.52029997
-3.4177999 -5.6265001 0.49329999
-2.3998001 -6.2308998 0.50040001
-4.6212001 -5.7198 0.42829999
-3.7453001 -5.5883002 0.39179999
-4.1244998 -5.5978999 0.405
-3.4236 -5.6360998 0.38409999
-2.8764999 -5.8534999 0.37990001
-1.9903001 -6.9604001 0.42160001
-4.6350002 -5.7368002 0.30669999
-3.1408999 -5.7314 0.27169999
-2.1917 -6.5461998 0.287
-3.4294 -5.6455998 0.27469999
-2.4087 -6.2540002 0.27869999
-4.6487999 -5.7539001 0.18449999
-3.7593 -5.6092 0.1684
-2.8859 -5.8726001 0.16320001
-2.4131 -6.2656002 0.1674
-2.0018001 -7.0008998 0.1816
-4.6782999 -5.7904 0.061900001
-3.1566999 -5.7602 0.0546
-2.6524 -6.0661001 0.055
-2.8956001 -5.8924999 0.0546
-2.4222 -6.289 0.056000002
-3.7952001 -5.6629 -0.056699999
-3.1724999 -5.7891998 -0.054900002
-2.9102001 -5.9221001 -0.0548
-2.4360001 -6.3249998 -0.056299999
-2.0308001 -7.1020002 -0.0614
-4.8079 -5.9509001 -0.1908
-3.8173001 -5.6957998 -0.171
-3.1886001 -5.8185 -0.1655
-2.6801 -6.1294999 -0.16680001
-4.2189002 -5.7259998 -0.17739999
-3.4834001 -5.7343998 -0.1673
-2.9249001 -5.9520998 -0.1654
-2.45 -6.3614001 -0.17
-2.0504 -7.1705999 -0.186
-2.2546 -6.7340999 -0.29530001
-4.2550001 -5.7750001 -0.2983
-2.4662001 -6.4033999 -0.28529999
-2.0864 -7.2967 -0.31560001
-3.8836 -5.7947998 -0.40630001
-3.2358 -5.9046998 -0.39219999
-3.5372 -5.823 -0.39680001
-2.9681001 -6.0398998 -0.39199999
-2.1382999 -7.4780002 -0.45300001
-3.9265001 -5.8586998 -0.52850002
-2.7472 -6.2831001 -0.51389998
-2.3148 -6.9137998 -0.54640001
-4.3903999 -5.9587002 -0.55470002
-3.5711999 -5.8790002 -0.51550001
-2.9955001 -6.0956998 -0.509
-3.9862001 -5.9478002 -0.65640002
-3.3010001 -6.0235 -0.62970001
-2.777 -6.3511 -0.63550001
-2.3643 -7.0619001 -0.68269998
-4.4906001 -6.0946999 -0.69400001
-3.0260999 -6.1578999 -0.62900001
-4.0678 -6.0696001 -0.79250002
-3.3520999 -6.1167998 -0.75660002
-2.8203001 -6.4502001 -0.76359999
-2.4301 -7.2582998 -0.83020002
-4.6703 -6.3386998 -0.85399997
-3.6742001 -6.0486002 -0.7676
-3.0716 -6.2505999 -0.7554
-4.1612 -6.2089 -0.93669999
-2.8684001 -6.5602999 -0.8973
-3.7383001 -6.1539998 -0.9023
-3.1187 -6.3463998 -0.88609999
-4.3491998 -6.4893999 -1.1112
-2.9458001 -6.7371998 -1.0459
-3.8419001 -6.3246002 -1.0526
-3.191 -6.4934001 -1.0290999
-3.5892999 -6.5496001 -1.1892999
-4.0016999 -6.5876999 -1.2273999
-3.8410001 -7.0089998 -1.4093
-3.4916 -7.1052999 -1.396
