# .PCD v0.7 - Point Cloud Data file format
VERSION 0.7
FIELDS x y z
SIZE 4 4 4
TYPE F F F
COUNT 1 1 1
WIDTH 147
HEIGHT 1
VIEWPOINT 0 0 0 1 0 0 0
POINTS 147
DATA ascii
-1.3265001 -6.9204001 2.1096001
-2.1902001 -6.5419002 1.941
-2.6589999 -6.9038 2.0815001
-1.8544 -6.4851999 1.8978
-1.819 -6.3615999 1.7434
-0.96600002 -6.6237001 1.6453
-1.7867 -6.2486 1.5975
-1.2306 -6.4198999 1.6066999
-0.70270002 -6.9846001 1.7255
-2.8403001 -6.4959998 1.6181999
-2.069 -6.1795998 1.4874001
-0.95209998 -6.5279999 1.5057
-2.4101 -6.2577 1.5305001
-0.6864 -6.8225999 1.5651
-2.7853 -6.3701 1.4657
-1.471 -6.1725001 1.3377
-0.9404 -6.4478998 1.3737
-2.3764 -6.1703 1.3940001
-1.7484 -6.1146002 1.3407
-2.734 -6.2528 1.3206
-1.4586999 -6.1210999 1.2177
-0.92989999 -6.3758001 1.2469
-1.7334 -6.0619998 1.2201
-1.1927 -6.2223001 1.2261
-2.0118999 -6.0092001 1.1174001
-0.92400002 -6.3351998 1.1289001
-0.3874 -6.9471002 1.2269
-3.2312 -6.5752001 1.2918
-1.7237 -6.0279999 1.1055
-0.66000003 -6.5606999 1.1627001
-2.6824999 -6.1350999 1.0662
-2.0006001 -5.9755998 1.0034
-1.4428999 -6.0545998 0.99110001
-0.38330001 -6.8737998 1.0963
-3.1756999 -6.4622998 1.1466
-2.3178 -6.0180001 1.0269001
-1.1792001 -6.1518002 0.99739999
-0.65530002 -6.5134001 1.0424
-2.6629 -6.0903001 0.9454
-1.4356 -6.0240998 0.88080001
-3.1294 -6.368 1.0092
-2.3037 -5.9812999 0.91170001
-1.7053 -5.9636998 0.8822
-0.086800002 -7.7957001 1.1089
-2.6508999 -6.0627999 0.82920003
-1.4332 -6.0139999 0.7748
-3.0901 -6.2880998 0.87800002
-1.1708 -6.1078 0.77929997
-0.64889997 -6.4503999 0.81239998
-0.90869999 -6.2304001 0.68290001
-3.0809 -6.2694001 0.75770003
-1.6993999 -5.9432998 0.67049998
-0.6476 -6.4376001 0.70179999
-0.082199998 -7.3773999 0.8003
-2.6389999 -6.0356002 0.60390002
-0.90710002 -6.2195001 0.57620001
-0.37509999 -6.7263999 0.61760002
-1.9780999 -5.9082999 0.46689999
-1.4279 -5.9916 0.46160001
-0.90640002 -6.2147999 0.4707
-2.2865 -5.9368 0.47679999
-1.6957999 -5.9306002 0.4623
-0.6455 -6.4164 0.4833
-0.081299998 -7.3002 0.54710001
-2.6398001 -6.0373001 0.3838
-1.4302 -6.0012999 0.35929999
-0.90799999 -6.2254 0.3664
-0.375 -6.7251 0.39230001
-3.0685999 -6.2442999 0.4052
-2.2907 -5.9477 0.3712
-1.6986001 -5.9404998 0.3599
-0.0814 -7.3088002 0.42570001
-1.9847 -5.9281001 0.2599
-0.3759 -6.7409 0.2807
-1.1701 -6.1041002 0.25839999
-0.648 -6.4411998 0.2692
-2.6512001 -6.0636001 0.16500001
-1.9881001 -5.9380002 0.15620001
-1.4349 -6.0208998 0.15440001
-0.3768 -6.7568002 0.1688
-3.0861001 -6.2800999 0.1745
-2.2992001 -5.9696002 0.1595
-1.7043 -5.9601998 0.15459999
-0.64920002 -6.4535999 0.1618
-0.082199998 -7.3828001 0.1841
-2.6631 -6.0906 0.055199999
-0.9149 -6.2732 0.052700002
-0.37850001 -6.7888999 0.056499999
-1.7105 -5.9819002 0.0517
-1.1763999 -6.1370001 0.051899999
-0.65179998 -6.4794998 0.054099999
-0.082999997 -7.4509001 0.061900001
-2.0056 -5.9905 -0.052499998
-0.92019999 -6.3095999 -0.052999999
-3.1466999 -6.4033999 -0.059300002
-2.3213 -6.027 -0.0537
-1.7193 -6.0125999 -0.052000001
-0.65570003 -6.5181999 -0.054400001
-2.0163 -6.0223999 -0.1584
-1.4545 -6.1036 -0.1565
-0.92559999 -6.3464999 -0.15989999
-0.38569999 -6.9176002 -0.1728
-3.1875 -6.4863 -0.1802
-1.7280999 -6.0436001 -0.1568
-1.1888 -6.2017002 -0.1575
-0.6602 -6.5620999 -0.1645
-2.721 -6.223 -0.28240001
-2.0278001 -6.0566001 -0.2656
-1.462 -6.1346002 -0.2622
-2.3487 -6.0983 -0.27169999
-1.7371 -6.0749998 -0.26269999
-2.0483999 -6.1181002 -0.37580001
-1.4752001 -6.1901999 -0.37059999
-0.9411 -6.4524002 -0.37979999
-0.3969 -7.118 -0.4152
-3.3694 -6.8565001 -0.44499999
-1.2064 -6.2937999 -0.3732
-0.67369998 -6.697 -0.39199999
-2.8067 -6.4191999 -0.52499998
-1.4888999 -6.2474999 -0.4813
-0.95120001 -6.5216999 -0.4939
-0.405 -7.263 -0.54509997
-0.6825 -6.7841001 -0.51099998
-2.0908999 -6.2452998 -0.6038
-0.96149999 -6.5928001 -0.61080003
-0.4206 -7.5433998 -0.69260001
-1.7867 -6.2484002 -0.59579998
-1.2299 -6.4165001 -0.59899998
-0.6925 -6.8836002 -0.63429999
-2.1254001 -6.3481998 -0.72610003
-1.5243 -6.3961 -0.71319997
-0.97850001 -6.7089 -0.73540002
-1.8128999 -6.3400998 -0.71520001
-2.1619 -6.4572001 -0.85329998
-0.99610001 -6.8297 -0.86489999
-2.5334001 -6.5777998 -0.88330001
-1.2686 -6.6181002 -0.84450001
-2.2121999 -6.6075001 -0.99110001
-1.0247 -7.0261002 -1.0099
-2.6329 -6.8362999 -1.0420001
-1.8781 -6.5682001 -0.97170001
-2.2822001 -6.8165998 -1.1447001
-1.6179 -6.7888999 -1.1113
-1.0669 -7.3151002 -1.1772
-1.9273 -6.7403002 -1.1163
-1.3311 -6.9443998 -1.1259
-1.3988 -7.2975998 -1.3102
