# .PCD v0.7 - Point Cloud Data file format
VERSION 0.7
FIELDS x y z
SIZE 4 4 4
TYPE F F F
COUNT 1 1 1
WIDTH 104
HEIGHT 1
VIEWPOINT 0 0 0 1 0 0 0
POINTS 104
DATA ascii
-3.6752999 -6.7066002 2.1517
-3.5462999 -6.4710999 1.9444
-4.0271001 -6.0088 1.778
-3.4714 -6.3344998 1.7755001
-3.2639 -6.6417999 1.819
-4.7814002 -5.9180002 1.7365
-3.9514999 -5.8959999 1.62
-3.4092 -6.2210999 1.6192
-3.1935999 -6.4987998 1.6526999
-4.6676998 -5.7772999 1.5658
-3.9063001 -5.8287001 1.4792
-3.372 -6.1532001 1.4792
-4.2407999 -5.7557001 1.5072
-3.6222 -5.9629002 1.4709001
-4.5953999 -5.6877999 1.415
-2.9233 -6.6856999 1.4121
-3.5848999 -5.9015999 1.3363
-3.1150999 -6.3390999 1.3669
-4.5306001 -5.6076002 1.2711999
-3.8316 -5.7171001 1.2135
-2.8854001 -6.5991001 1.27
-2.7439001 -7.1244001 1.3462
-3.2911 -6.0054002 1.0905
-2.8650999 -6.5527 1.1388
-2.7005999 -7.0118999 1.1964999
-4.4700999 -5.5327001 1.0117
-3.2732 -5.9727998 0.96880001
-4.9454002 -5.5918999 1.0618
-4.1023998 -5.5678 0.98369998
-3.0485001 -6.2034998 0.98320001
-3.7748001 -5.6324 0.84969997
-3.2598 -5.9484 0.85000002
-4.9013 -5.5419998 0.9271
-3.5043001 -5.7688999 0.8459
-5.7126002 -5.9067998 0.89130002
-4.4329 -5.4867001 0.7651
-3.2543001 -5.9383998 0.73449999
-4.0756001 -5.5314999 0.74529999
-3.0283 -6.1624999 0.74479997
-2.6429999 -6.8624001 0.79759997
-5.6313 -5.8227 0.74260002
-3.7621 -5.6135001 0.61949998
-3.2488 -5.9284 0.61979997
-4.0683999 -5.5216999 0.62879997
-3.4926 -5.7497001 0.61680001
-3.0229001 -6.1513 0.62840003
-5.598 -5.7881999 0.60339999
-3.7558999 -5.6041002 0.50559998
-3.2434001 -5.9184999 0.50580001
-2.8097 -6.4260001 0.52560002
-3.0174 -6.1402998 0.51270002
-3.7616 -5.6127 0.3935
-3.2483001 -5.9274001 0.3937
-4.8597002 -5.4949999 0.42730001
-4.0668001 -5.5194998 0.39930001
-3.0216999 -6.1490002 0.39899999
-3.7677 -5.6219001 0.2814
-2.8188 -6.4467001 0.29260001
-4.8716002 -5.5084 0.30579999
-3.4981 -5.7586002 0.2802
-3.0271001 -6.1599002 0.2854
-4.4375 -5.4924002 0.1761
-5.8074002 -6.0047998 0.069399998
-4.4545002 -5.5132999 0.058899999
-3.7864001 -5.6496 0.056499999
-3.2697999 -5.9667001 0.056499999
-2.5915999 -7.7406001 0.0678
-4.0949998 -5.5577998 0.057399999
-3.043 -6.1924 0.057300001
-2.6568 -6.8980999 0.0614
-4.4816999 -5.5471001 -0.059300002
-4.9466 -5.5932002 -0.062100001
-4.1170998 -5.5876999 -0.057700001
-3.0597 -6.2262998 -0.057700001
-2.678 -6.9531999 -0.061900001
-4.5093002 -5.5812001 -0.1789
-4.9965 -5.6496 -0.1881
-3.5510001 -5.8456998 -0.1706
-3.0766001 -6.2606001 -0.17399999
-2.6995001 -7.0091 -0.1873
-3.5718 -5.8799 -0.2861
-2.7328 -7.0955 -0.31619999
-4.6022 -5.6961999 -0.42649999
-3.8845 -5.796 -0.4064
-5.1585999 -5.8329 -0.4535
-3.6045001 -5.9338999 -0.40439999
-3.1276 -6.3645 -0.41299999
-3.3854001 -6.1774998 -0.52789998
-3.638 -5.9889002 -0.52509999
-3.1592 -6.4288001 -0.53680003
-3.4238 -6.2477002 -0.65310001
-3.0204999 -6.908 -0.69120002
-4.3123999 -5.8529 -0.66649997
-3.6782999 -6.0553999 -0.64950001
-4.0320001 -6.0162001 -0.78560001
-3.4761 -6.3431001 -0.78460002
-5.0949998 -6.3060999 -1.016
-3.2226 -7.3702002 -1.008
-4.4821 -6.0832 -0.94690001
-4.2083998 -6.2793002 -1.0752
-4.6345 -6.2901001 -1.1113
-3.8862 -6.3976002 -1.0647
-4.3673 -6.5165 -1.2492
-3.7656 -6.8713002 -1.2477
