# .PCD v0.7 - Point Cloud Data file format
VERSION 0.7
FIELDS x y z
SIZE 4 4 4
TYPE F F F
COUNT 1 1 1
WIDTH 126
HEIGHT 1
VIEWPOINT 0 0 0 1 0 0 0
POINTS 126
DATA ascii
-4.9657998 -6.1462998 2.0820999
-4.3302999 -6.4612002 2.0495
-4.5970001 -6.2391 2.0421
-4.1563001 -6.8422999 2.1094999
-4.8080001 -5.9509001 1.8805
-3.9579 -7.2223001 2.0243001
-5.2712998 -5.9604001 1.9558001
-4.7138 -5.8343 1.712
-4.1328001 -6.1666002 1.6943001
-3.7848001 -6.9063001 1.7975
-4.3943 -5.9640002 1.6908
-3.9236 -6.4590998 1.7249
-4.6374998 -5.7399001 1.5556999
-4.0748 -6.0801001 1.5431
-5.0162001 -5.6718998 1.5963
-3.7729001 -7.6777 1.8035001
-4.5858002 -5.6759 1.4121
-4.0328999 -6.0174999 1.4018
-4.9496999 -5.5967002 1.4459
-4.2873998 -5.8189998 1.3987
-3.8134999 -6.2778001 1.4214
-3.5462 -7.2163 1.556
-4.5384002 -5.6171999 1.2733001
-3.9923999 -5.9570999 1.2645
-3.5878999 -6.5469999 1.3164001
-3.4744 -7.0702 1.3891
-5.2809 -5.4604001 1.2096
-4.5121002 -5.5847998 1.1433001
-3.9707 -5.9246998 1.1357
-6.0065999 -5.6810002 1.3164999
-4.8540001 -5.4885001 1.1667
-4.2209001 -5.7287002 1.1331
-3.4135001 -6.9461999 1.2323999
-3.9493999 -5.8929 1.0089999
-3.5352001 -6.4510002 1.0463001
-4.198 -5.6975999 1.0066
-3.7281001 -6.1373 1.0214
-4.4632001 -5.5242 0.88999999
-3.9291999 -5.8627 0.88440001
-3.513 -6.4103999 0.91600001
-3.3441 -7.6482 1.0461
-5.8094001 -5.4945998 1.0021
-4.1766 -5.6684999 0.88239998
-3.3571999 -6.8318 0.95389998
-4.4555998 -5.5148001 0.76899999
-3.9226 -5.8529 0.76419997
-3.2873001 -7.5183001 0.88999999
-5.7470002 -5.4355001 0.85799998
-4.7849998 -5.4105 0.7834
-4.1696 -5.6589999 0.76239997
-3.7003 -6.0915999 0.77310002
-3.3410001 -6.7988 0.82169998
-4.448 -5.5054002 0.64889997
-4.1627002 -5.6496 0.64340001
-3.3331001 -6.7825999 0.69279999
-5.1629 -5.3383999 0.55650002
-4.4404998 -5.4960999 0.52950001
-3.2537999 -7.4417 0.60869998
-5.7020001 -5.3929 0.58819997
-4.7673998 -5.3906002 0.53930002
-4.1557999 -5.6402998 0.52499998
-3.6874001 -6.0704002 0.5323
-3.3252001 -6.7665 0.565
-5.1641002 -5.3396001 0.43259999
-4.4443998 -5.5008998 0.41190001
-3.9131999 -5.8390002 0.40939999
-3.2446001 -7.4205999 0.47170001
-5.6950002 -5.3863001 0.45649999
-4.1598001 -5.6458001 0.4084
-3.3250999 -6.7663002 0.4391
-4.4517999 -5.5100002 0.29449999
-3.9196 -5.8484998 0.29269999
-5.7165999 -5.4067001 0.3272
-3.9260001 -5.8579998 0.1759
-5.7382998 -5.4273 0.197
-3.3406 -6.7978001 0.18889999
-3.5174 -6.4184999 0.060800001
-3.3031001 -7.5545001 0.068499997
-5.7758002 -5.4628 0.066100001
-4.8042002 -5.4320998 0.0603
-4.1866002 -5.6820998 0.058699999
-4.4963999 -5.5653 -0.059500001
-3.9582 -5.9060998 -0.059099998
-3.3629 -7.6911001 -0.069799997
-4.2080002 -5.7111001 -0.059
-3.3787 -6.8754001 -0.063699998
-4.5197001 -5.5941 -0.1794
-3.9783001 -5.9361 -0.17820001
-4.2296 -5.7403998 -0.1778
-5.3322001 -5.5134001 -0.31889999
-4.5486999 -5.6300001 -0.30090001
-4.0032001 -5.9731998 -0.29899999
-3.5869 -6.5451999 -0.31029999
-4.2561998 -5.7765999 -0.2983
-3.4481001 -7.0166001 -0.3251
-5.4109998 -5.5949998 -0.4533
-4.0398998 -6.0279999 -0.4226
-3.6257 -6.6160998 -0.43939999
-4.9460001 -5.5925999 -0.4348
-4.2957001 -5.8302002 -0.42179999
-3.5074999 -7.1374998 -0.4632
-5.4924998 -5.6792002 -0.59210002
-4.6374998 -5.7399001 -0.55299997
-4.0774002 -6.0839 -0.54879999
-3.6723001 -6.7010002 -0.57260001
-4.336 -5.8849001 -0.5478
-3.8534 -6.3435998 -0.55620003
-5.6401 -5.8319001 -0.74379998
-4.7006001 -5.8179998 -0.6857
-3.7411001 -6.8267002 -0.7137
-5.0872998 -5.7522998 -0.704
-3.7249999 -7.5801001 -0.77429998
-5.8839002 -6.0839 -0.91799998
-4.7782998 -5.9141998 -0.8247
-5.1858001 -5.8635998 -0.84909999
-4.4566002 -6.0486002 -0.81489998
-3.9763999 -6.546 -0.8308
-4.8771 -6.0365 -0.97250003
-3.9721 -7.2480998 -1.0358
-4.5381999 -6.1592999 -0.95880002
-4.0658002 -6.6932001 -0.98140001
-4.3811002 -6.5370002 -1.1193
-5.7660999 -6.5198002 -1.238
-4.6525998 -6.3146 -1.1156
-4.1891999 -6.8964 -1.1477
-4.566 -6.8130002 -1.306
