# .PCD v0.7 - Point Cloud Data file format
VERSION 0.7
FIELDS x y z
SIZE 4 4 4
TYPE F F F
COUNT 1 1 1
WIDTH 112
HEIGHT 1
VIEWPOINT 0 0 0 1 0 0 0
POINTS 112
DATA ascii
-0.99629998 -6.8309999 2.0667
-1.3071001 -6.8189001 2.0785999
-0.96560001 -6.6206999 1.8825001
-0.39089999 -7.0103998 1.9755
-2.0334001 -7.1111002 2.0809
-0.67729998 -6.7329001 1.9039
-1.5556 -6.5276999 1.7682
-0.37920001 -6.8010001 1.7948
-1.2407 -6.4727001 1.7366
-2.3556001 -7.0356998 1.8237
-1.5251 -6.3997002 1.6171
-0.37040001 -6.6430998 1.6354001
-1.8709 -6.5427999 1.6727
-0.0779 -6.9906998 1.7184
-1.5072 -6.3246002 1.484
-0.36559999 -6.5562 1.4987
-1.8394001 -6.4327998 1.5271
-1.2063 -6.2933998 1.4626
-0.64410001 -6.4022002 1.4686
-0.075900003 -6.8123002 1.5549999
-1.4903001 -6.2536998 1.3552999
-0.36140001 -6.4805999 1.3684
0.2411 -7.2103 1.5209
-1.8156 -6.3495002 1.3923
-1.1937 -6.2272 1.3367
-0.6372 -6.3341999 1.3421
-2.1645999 -6.4653001 1.3194
-1.4761 -6.1938 1.2322
-0.3576 -6.4134002 1.243
-1.7929 -6.2701998 1.262
-2.1401 -6.3920999 1.1885999
-1.4674 -6.1574001 1.1161
-0.89929998 -6.1659002 1.0987
0.23109999 -6.9130001 1.2196
-1.7809 -6.2282 1.1422
-1.1772 -6.1412001 1.1026
-0.073299997 -6.5763001 1.1596
-2.1224 -6.3390999 1.0645
-0.8944 -6.1321001 0.98680001
0.2291 -6.8512001 1.0915999
-0.62470001 -6.2101998 0.9939
-0.072800003 -6.5307002 1.04
-2.105 -6.2873001 0.94309998
-1.4505 -6.0868001 0.88999999
-0.88990003 -6.1018 0.87709999
-0.3513 -6.2996998 0.89740002
0.227 -6.7907 0.96640003
-1.7575999 -6.1465998 0.90930003
-1.1648 -6.0769 0.88010001
-0.62150002 -6.1778998 0.88319999
-0.88840002 -6.0914998 0.77139997
-0.35049999 -6.2863998 0.78899997
0.2256 -6.7469001 0.84600002
-1.7527 -6.1296 0.79890001
-0.62040001 -6.1673002 0.77679998
0.57639998 -7.3764 0.92720002
-2.0892999 -6.2405 0.71380001
-0.34990001 -6.2750001 0.68169999
0.22499999 -6.7287998 0.73030001
-0.61940002 -6.1568999 0.67119998
-0.071900003 -6.4500999 0.6997
-2.0841 -6.2248998 0.60180002
-2.5021999 -6.4969001 0.6383
-0.071699999 -6.4366002 0.59009999
-0.34900001 -6.2588 0.4698
0.2238 -6.6929998 0.50190002
-0.61809999 -6.1436 0.46270001
-0.071599998 -6.4277 0.4817
-0.88660002 -6.0788999 0.35780001
-0.34959999 -6.2698998 0.36570001
-1.7472 -6.1104002 0.37020001
-1.1604 -6.0537 0.359
-0.61909997 -6.1538 0.36019999
-0.071800001 -6.4408998 0.3752
0.56370002 -7.2136002 0.42140001
-2.0899 -6.2421999 0.2737
-0.3502 -6.2810998 0.26159999
0.22490001 -6.7272 0.27990001
-1.1623 -6.0636001 0.25670001
-0.071900003 -6.4541001 0.26840001
-1.4493999 -6.0820999 0.1559
-0.88950002 -6.0988002 0.15369999
-0.35089999 -6.2923002 0.15719999
-2.5160999 -6.5328999 0.17460001
-1.7541 -6.1343002 0.1591
-0.072099999 -6.4674001 0.1613
-1.4549 -6.1048002 0.052200001
-0.3522 -6.3161998 0.0526
-2.5327001 -6.5759001 0.058600001
-0.072400004 -6.4949999 0.054000001
0.57749999 -7.3905001 0.0616
-2.1210999 -6.3354001 -0.055500001
-0.35409999 -6.3509002 -0.052900001
-1.1743 -6.1261001 -0.051800001
-0.62650001 -6.2279 -0.052000001
-0.072800003 -6.5362 -0.054299999
0.58999997 -7.5503001 -0.062899999
-2.1371 -6.3832998 -0.1679
-0.90179998 -6.1831999 -0.1558
-0.35609999 -6.3860002 -0.1595
0.2304 -6.8901 -0.1719
-1.1803 -6.1573 -0.15629999
-0.62980002 -6.2599001 -0.1569
-1.4785 -6.2041998 -0.26519999
-0.073799998 -6.6233001 -0.27540001
-1.8142999 -6.3448 -0.38440001
-0.92320001 -6.3298001 -0.47940001
-1.8347 -6.4162002 -0.50010002
-1.2082 -6.3031998 -0.48100001
-0.64480001 -6.4098001 -0.48280001
-0.94520003 -6.4805999 -0.71039999
-0.078500003 -7.0481 -0.76450002
