# .PCD v0.7 - Point Cloud Data file format
VERSION 0.7
FIELDS x y z
SIZE 4 4 4
TYPE F F F
COUNT 1 1 1
WIDTH 107
HEIGHT 1
VIEWPOINT 0 0 0 1 0 0 0
POINTS 107
DATA ascii
-3.5840001 -6.54 2.0983
-3.1324 -6.3743 1.9983
-3.4249001 -6.2495999 1.8778
-2.2158 -6.6181002 1.839
-2.4626999 -6.3943 1.8055
-3.3440001 -6.1020999 1.7104
-2.1717 -6.4864001 1.6813999
-2.9876001 -6.0795002 1.665
-2.9449 -5.9928002 1.524
-2.1154001 -6.3183999 1.4047
-3.6373999 -5.9878998 1.477
-2.9136 -5.9289999 1.3927
-2.3620999 -6.1329999 1.3855
-1.8828 -6.5844002 1.4438
-3.2047 -5.8477998 1.2904
-2.0922 -6.2491002 1.2753
-2.3383999 -6.0714998 1.2591
-1.8591 -6.5015998 1.3085999
-2.5846 -5.9110999 1.1375999
-1.619 -6.7937002 1.2315
-3.5488 -5.8421001 1.2053
-3.9825001 -5.9422998 1.1391
-3.1631999 -5.7721 1.0481
-3.5239999 -5.8011999 1.0808001
-1.8312 -6.4040999 1.0606
-1.5928 -6.6838002 0.97729999
-2.3004 -5.9727001 0.91039997
-1.8193001 -6.3625998 0.94129997
-3.9140999 -5.8401999 0.88099998
-2.0497 -6.1220999 0.80909997
-1.3702 -7.1479998 0.91210002
-3.1285999 -5.7090001 0.70609999
-2.0460999 -6.1113 0.699
-4.6362 -6.2923002 0.84780002
-3.4755001 -5.7214999 0.72610003
-2.2911999 -5.9489002 0.69150001
-1.8085999 -6.3250999 0.71359998
-3.8928001 -5.8084998 0.64099997
-2.0425 -6.1005001 0.5898
-1.575 -6.6089001 0.62290001
-2.2874 -5.9390001 0.58350003
-2.0402 -6.0936999 0.48159999
-4.5661998 -6.1973 0.57690001
-2.2853 -5.9337001 0.4765
-1.3543 -7.0651002 0.53909999
-3.8887999 -5.8024998 0.4068
-3.1243999 -5.7012 0.37869999
-2.5441999 -5.8186998 0.36989999
-2.0437 -6.1041999 0.37490001
-4.5605001 -6.1896 0.44780001
-3.4682 -5.7094002 0.38909999
-2.2890999 -5.9433999 0.37090001
-3.8989999 -5.8176999 0.29120001
-1.5782 -6.6223998 0.28310001
-2.2927999 -5.9531002 0.26530001
-1.582 -6.6382999 0.17020001
-4.6257 -6.2781 0.1945
-3.4825001 -5.7329998 0.1673
-2.2965 -5.9629002 0.1594
-1.365 -7.1212001 0.18080001
-3.1472001 -5.7428999 0.054400001
-2.0581999 -6.1476002 0.0539
-3.4971001 -5.7571001 0.056000002
-1.8199 -6.3646002 0.055
-1.3736 -7.1658001 0.060600001
-3.5195 -5.7939 -0.056299999
-2.3162 -6.0138001 -0.053599998
-1.8309 -6.4029002 -0.055399999
-3.9939001 -5.9594002 -0.1789
-3.1821001 -5.8066001 -0.16509999
-2.0803001 -6.2136002 -0.16339999
-1.6133 -6.7695999 -0.1736
-3.5422001 -5.8312001 -0.1701
-2.8697 -5.8396001 -0.16230001
-1.842 -6.4418998 -0.1671
-4.0496998 -6.0425 -0.30250001
-3.2014999 -5.842 -0.27700001
-1.6276 -6.8298001 -0.29190001
-2.3404 -6.0767002 -0.27079999
-4.1350999 -6.1698999 -0.43259999
-3.2337 -5.9008002 -0.3919
-2.6255 -6.0047998 -0.38170001
-2.9122 -5.9260998 -0.38460001
-1.8749 -6.5570998 -0.39719999
-4.2318001 -6.3143001 -0.56959999
-3.2667 -5.9608998 -0.50940001
-2.1335001 -6.3723998 -0.5036
-2.9396 -5.9819002 -0.49950001
-2.3838999 -6.1897001 -0.4971
-1.8959 -6.6304002 -0.51679999
-3.3066001 -6.0338001 -0.63080001
-3.7258 -6.1334 -0.65789998
-2.7161 -6.2118001 -0.73540002
-3.0183001 -6.1420002 -0.74229997
-2.4432001 -6.3435001 -0.73729998
-1.9603 -6.8557 -0.77340001
-3.9656 -6.5282001 -0.95719999
-2.4807999 -6.4412999 -0.86500001
-2.0046999 -7.0110002 -0.9138
-3.5436001 -6.4661999 -1.0488
-2.8176 -6.4439001 -1.0003999
-2.2892001 -6.8376002 -1.0256
-3.1422999 -6.3944001 -1.0134
-2.5353 -6.5826998 -1.0033
-2.6038001 -6.7606001 -1.1536
-3.0242 -6.9166002 -1.3311
-2.7327001 -7.0953999 -1.3407
