# .PCD v0.7 - Point Cloud Data file format
VERSION 0.7
FIELDS x y z
SIZE 4 4 4
TYPE F F F
COUNT 1 1 1
WIDTH 120
HEIGHT 1
VIEWPOINT 0 0 0 1 0 0 0
POINTS 120
DATA ascii
-2.5594001 -6.6452999 2.1319001
-1.9578 -6.8469 2.132
-2.1607001 -6.4535999 1.9148
-2.7571001 -6.3056002 1.8134
-3.1902001 -6.4919 1.906
-2.4168999 -6.2754002 1.772
-1.8491 -6.4668002 1.7723
-2.6968 -6.1677999 1.6546
-2.082 -6.2188001 1.612
-2.3708 -6.1556001 1.6214
-1.8149 -6.3470998 1.6227
-3.5852001 -6.5422001 1.7027
-2.6563001 -6.0750999 1.5132999
-2.0599 -6.1525998 1.4809
-1.079 -7.3979001 1.7064
-3.0263 -6.1582999 1.5661
-2.3432 -6.0839 1.488
-1.7941999 -6.2747998 1.4895999
-1.2934 -6.7476001 1.5681
-3.4568 -6.3077998 1.5164
-1.5219001 -6.3860002 1.3839999
-1.0371 -7.1110001 1.515
-2.9812 -6.0665002 1.425
-1.7751 -6.2080002 1.3612
-1.2755001 -6.6542001 1.4284
-3.3821001 -6.1715999 1.3619
-1.0177 -6.9779 1.3645999
-2.9439001 -5.9906001 1.2917
-3.3292 -6.0749998 1.2215
-2.5831001 -5.9078002 1.1368999
-1.4960001 -6.2774 1.1379
-2.9212 -5.9443998 1.1679
-2.2823 -5.9260001 1.1197
-1.7487 -6.1156998 1.1216
-2.5683 -5.8737998 1.0208
-1.9983 -5.9685001 1.0023
-1.487 -6.2396998 1.0214
-0.99309999 -6.8095002 1.0958
-3.9358001 -6.4791999 1.2072001
-1.4782 -6.2027001 0.90700001
-0.9842 -6.7479 0.97000003
-2.8834 -5.8674998 0.92989999
-1.2302999 -6.4180999 0.92949998
-0.7432 -7.3871999 1.056
-1.9842 -5.9266 0.78320003
-1.4746 -6.1876998 0.79710001
-3.7885001 -6.2368002 0.9145
-0.73229998 -7.2789998 0.91680002
-3.7595999 -6.1891999 0.78549999
-2.5388 -5.8063002 0.58099997
-1.9776 -5.9068999 0.5711
-1.4692 -6.165 0.58099997
-0.97219998 -6.6659002 0.61760002
-2.862 -5.8239002 0.59490001
-2.2460001 -5.8316998 0.5729
-1.2205 -6.3670001 0.59429997
-2.5365 -5.8011999 0.4745
-2.8578999 -5.8157001 0.48559999
-1.7194 -6.0131998 0.46869999
-0.72180003 -7.1750998 0.54040003
-2.5409 -5.8112001 0.36939999
-1.9797 -5.9130998 0.36320001
-0.972 -6.6645999 0.39230001
-3.7334001 -6.1459999 0.4188
-1.7223001 -6.0230999 0.36489999
-0.72280002 -7.1848001 0.4206
-2.5453 -5.8211999 0.2642
-1.4730999 -6.1813998 0.2642
-0.97460002 -6.6823001 0.28080001
-2.869 -5.8382001 0.2705
-0.72570002 -7.2136998 0.30149999
-3.2551999 -5.9398999 0.1689
-1.9862 -5.9324002 0.156
-3.7653 -6.1985998 0.18089999
-2.8745999 -5.8495998 0.16249999
-2.559 -5.8527002 0.053100001
-1.9931999 -5.9534001 0.052200001
-3.8018999 -6.2588 0.060899999
-2.8862 -5.8731999 0.054400001
-2.2636001 -5.8773999 0.052299999
-3.2946999 -6.0121002 -0.057
-2.0032001 -5.9833999 -0.0524
-0.99049997 -6.7914 -0.057
-2.9035001 -5.9084001 -0.054699998
-2.2751 -5.9071002 -0.0526
-1.7431 -6.0959001 -0.052700002
-1.2395 -6.4663 -0.054699998
-0.74419999 -7.3976002 -0.061799999
-2.5864999 -5.9154 -0.161
-3.9273 -6.4653001 -0.1886
-1.752 -6.1272998 -0.15889999
-0.76200002 -7.5746999 -0.1899
-1.5066 -6.3221998 -0.27020001
-1.0086 -6.9154 -0.2906
-2.9403999 -5.9835 -0.27720001
-1.7612 -6.1595001 -0.26640001
-3.4077001 -6.2182002 -0.41299999
-2.0422001 -6.0998001 -0.37470001
-1.024 -7.0212998 -0.41330001
-2.9726 -6.0490999 -0.3926
-1.7776999 -6.2168999 -0.3766
-2.0611 -6.1563001 -0.48649999
-2.3436 -6.0851002 -0.4887
-3.5613 -6.4984999 -0.67940003
-2.0804 -6.2140002 -0.60079998
-1.5537 -6.5195999 -0.61440003
-1.3039 -6.8021998 -0.63499999
-1.5797 -6.6286998 -0.73909998
-2.4031 -6.2396002 -0.7252
-2.1433001 -6.4015999 -0.84600002
-1.8676 -6.5314002 -0.8513
-2.8515 -6.5215001 -1.0124
-2.1861999 -6.5299001 -0.9795
-1.652 -6.9322 -1.0136
-3.3782001 -6.8744998 -1.0895
-2.4942999 -6.4763999 -0.98710001
-1.9066 -6.6677999 -0.98640001
-1.4421 -7.5235 -1.0896
-2.2421999 -6.697 -1.1246001
-2.5615001 -6.6508999 -1.1349
