ply
format ascii 1.0
element vertex 1590
property float32 x
property float32 y
property float32 z
property float32 I
end_header
-13.6458 3.7380 -2.4948 0.9442
-12.8433 -1.1477 -2.4953 0.9488
-12.0859 -4.5008 -2.4958 0.9488
-11.6384 -5.5592 -2.4960 0.9488
-11.0984 -6.5736 -2.4962 0.9488
-10.4704 -7.5362 -2.4965 0.9488
-8.9706 -9.2755 -2.4971 0.9488
-8.1105 -10.0385 -2.4974 0.9488
-6.2039 -11.3207 -2.4982 0.9488
-5.1725 -11.8298 -2.4986 0.9488
-2.9940 -12.5635 -2.4993 0.9487
-1.8642 -12.7822 -2.4997 0.9487
2.7155 -12.6370 -2.5013 0.9487
3.8301 -12.3470 -2.5017 0.9487
6.9588 -10.9008 -2.5027 0.9487
7.9023 -10.2394 -2.5030 0.9487
9.5945 -8.6778 -2.5035 0.9487
10.9828 -6.8401 -2.5039 0.9487
12.0228 -4.7849 -2.5041 0.9486
12.8603 -1.4386 -2.5042 0.9486
12.9371 -0.2882 -2.5042 0.9486
12.0030 1.8874 -2.3513 0.9517
11.7867 2.9481 -2.3512 0.9517
11.0756 4.9904 -2.3508 0.9517
10.5864 5.9558 -2.3506 0.9517
7.8385 9.2715 -2.3495 0.9517
6.0687 10.5113 -2.3488 0.9518
5.1083 11.0081 -2.3485 0.9518
4.1076 11.4173 -2.3481 0.9518
3.0746 11.7357 -2.3477 0.9518
2.0175 11.9609 -2.3473 0.9518
0.9448 12.0910 -2.3470 0.9518
-2.2821 11.9054 -2.3458 0.9518
-3.3321 11.6533 -2.3455 0.9518
-4.3555 11.3088 -2.3452 0.9518
-6.2900 10.3547 -2.3445 0.9518
-8.0244 9.0733 -2.3440 0.9518
-7.6192 7.2062 -2.0294 0.9582
-9.5043 7.5055 -2.3436 0.9519
-10.1339 6.6293 -2.3434 0.9519
-10.6830 5.7007 -2.3433 0.9519
-12.2718 3.9572 -2.4952 0.9488
-12.8811 0.5744 -2.4952 0.9488
-12.8815 -0.5744 -2.4953 0.9488
-12.7797 -1.7187 -2.4954 0.9488
-11.3797 -6.0724 -2.4961 0.9488
-8.5490 -9.6665 -2.4973 0.9488
-7.6558 -10.3905 -2.4976 0.9488
-5.6939 -11.5867 -2.4984 0.9488
-4.6408 -12.0494 -2.4987 0.9488
-1.2931 -12.8536 -2.5000 0.9487
1.0067 -12.8833 -2.5007 0.9487
2.1497 -12.7445 -2.5011 0.9487
3.2760 -12.5045 -2.5015 0.9487
4.3766 -12.1650 -2.5019 0.9487
7.4380 -10.5806 -2.5028 0.9487
8.3511 -9.8777 -2.5031 0.9487
11.7974 -5.3156 -2.5041 0.9486
12.5537 -3.1399 -2.5042 0.9486
12.9115 -0.8643 -2.5042 0.9486
11.6433 3.4701 -2.3511 0.9517
10.3101 6.4212 -2.3505 0.9517
9.6966 7.3125 -2.3502 0.9517
9.0061 8.1456 -2.3500 0.9517
6.5314 10.2313 -2.3490 0.9517
5.5940 10.7704 -2.3486 0.9518
4.6125 11.2238 -2.3483 0.9518
1.4826 12.0379 -2.3471 0.9518
0.4052 12.1201 -2.3468 0.9518
-2.8099 11.7911 -2.3457 0.9518
-3.8477 11.4924 -2.3453 0.9518
-6.7446 10.0637 -2.3444 0.9518
-7.3042 7.5525 -2.0332 0.9581
-9.1609 7.9217 -2.3437 0.9519
-10.4188 6.1711 -2.3433 0.9519
-11.6355 5.5578 -2.4954 0.9488
-12.0835 4.5000 -2.4953 0.9488
-12.6895 2.2862 -2.4952 0.9488
-11.8376 0.0000 -2.4956 0.9528
-11.7910 -1.0536 -2.4957 0.9528
-11.6509 -2.0990 -2.4958 0.9528
-11.0955 -4.1320 -2.4961 0.9528
-10.6845 -5.1035 -2.4963 0.9527
-9.6122 -6.9184 -2.4967 0.9527
-8.9592 -7.7473 -2.4970 0.9527
-7.4454 -9.2153 -2.4976 0.9527
-3.7633 -11.2405 -2.4990 0.9527
-2.7483 -11.5325 -2.4994 0.9527
-1.7112 -11.7331 -2.4997 0.9527
3.5155 -11.3330 -2.5015 0.9527
4.5109 -10.9765 -2.5019 0.9526
7.2530 -9.3980 -2.5027 0.9526
8.0615 -8.7160 -2.5030 0.9526
8.8060 -7.9646 -2.5032 0.9526
10.5994 -5.3561 -2.5037 0.9526
11.0345 -4.3916 -2.5037 0.9526
11.3818 -3.3921 -2.5038 0.9526
11.6387 -2.3656 -2.5038 0.9526
11.8736 -0.2646 -2.5038 0.9526
11.8497 0.7933 -2.5037 0.9526
10.5335 3.6577 -2.3507 0.9554
10.1653 4.5803 -2.3506 0.9554
9.7165 5.4664 -2.3504 0.9554
9.1905 6.3089 -2.3501 0.9555
6.4079 9.1154 -2.3490 0.9555
5.5704 9.6482 -2.3487 0.9555
4.6889 10.1043 -2.3484 0.9555
2.8222 10.7724 -2.3477 0.9555
0.8673 11.0988 -2.3470 0.9555
-0.1240 11.1303 -2.3466 0.9555
-1.1140 11.0735 -2.3463 0.9555
-3.0589 10.6976 -2.3456 0.9555
-3.9984 10.3815 -2.3453 0.9555
-4.9059 9.9832 -2.3450 0.9555
-5.7743 9.5058 -2.3448 0.9556
-7.3667 8.3296 -2.3443 0.9556
-7.5892 7.1778 -2.2022 0.9582
-9.3034 6.0860 -2.3437 0.9556
-10.1584 5.4207 -2.4274 0.9540
-10.8986 4.6214 -2.4957 0.9528
-11.2663 3.6329 -2.4956 0.9528
-11.8257 0.5273 -2.4956 0.9528
-11.5461 -2.6160 -2.4958 0.9528
-10.9008 -4.6223 -2.4962 0.9528
-10.4470 -5.5746 -2.4964 0.9527
-8.6057 -8.1392 -2.4972 0.9527
-7.8481 -8.8739 -2.4975 0.9527
-7.0280 -9.5384 -2.4978 0.9527
-6.1519 -10.1275 -2.4981 0.9527
-3.2591 -11.3978 -2.4992 0.9527
-1.1870 -11.7986 -2.4999 0.9527
0.9241 -11.8255 -2.5007 0.9527
3.0070 -11.4776 -2.5014 0.9527
4.0171 -11.1659 -2.5017 0.9526
8.4421 -8.3486 -2.5031 0.9526
9.7901 -6.7205 -2.5034 0.9526
10.8277 -4.8787 -2.5037 0.9526
11.2193 -3.8957 -2.5038 0.9526
11.7326 -1.8448 -2.5039 0.9526
11.8735 0.2646 -2.5038 0.9526
10.3597 4.1231 -2.3506 0.9554
8.8999 6.7117 -2.3500 0.9555
7.5671 8.1815 -2.3495 0.9555
6.8080 8.8214 -2.3492 0.9555
5.9950 9.3911 -2.3488 0.9555
5.1347 9.8861 -2.3485 0.9555
4.2338 10.3024 -2.3482 0.9555
0.3720 11.1256 -2.3468 0.9555
-0.6197 11.1130 -2.3465 0.9555
-1.6061 11.0121 -2.3461 0.9555
-2.5795 10.8240 -2.3458 0.9555
-3.5322 10.5500 -2.3455 0.9555
-5.3454 9.7542 -2.3449 0.9555
-6.1917 9.2387 -2.3446 0.9556
-6.9887 8.6500 -2.3444 0.9556
-7.2845 7.5321 -2.2090 0.9581
-8.4101 7.2725 -2.3440 0.9556
-9.0234 6.4946 -2.3438 0.9556
-10.6821 5.1024 -2.4957 0.9528
-11.0935 4.1313 -2.4956 0.9528
-11.6498 2.0988 -2.4955 0.9528
-10.9353 0.0000 -2.4959 0.9561
-10.8922 -0.9733 -2.4960 0.9561
-10.5480 -2.8894 -2.4962 0.9561
-8.8792 -6.3908 -2.4970 0.9561
-8.2760 -7.1565 -2.4972 0.9561
-7.6070 -7.8655 -2.4975 0.9561
-6.0933 -9.0918 -2.4981 0.9561
-3.4761 -10.3826 -2.4991 0.9561
-1.5806 -10.8374 -2.4997 0.9561
1.3393 -10.8744 -2.5008 0.9560
3.2470 -10.4672 -2.5014 0.9560
4.1662 -10.1379 -2.5017 0.9560
5.8990 -9.2406 -2.5022 0.9560
7.4454 -8.0498 -2.5027 0.9560
8.1329 -7.3558 -2.5029 0.9560
8.7560 -6.6032 -2.5031 0.9560
9.7890 -4.9466 -2.5033 0.9560
10.1908 -4.0558 -2.5034 0.9560
10.5116 -3.1328 -2.5035 0.9560
10.7489 -2.1848 -2.5035 0.9560
9.7283 3.3780 -2.3505 0.9586
8.9739 5.0486 -2.3501 0.9586
8.4881 5.8268 -2.3499 0.9586
5.9184 8.4190 -2.3489 0.9587
5.1449 8.9113 -2.3486 0.9587
4.3308 9.3326 -2.3483 0.9587
1.7106 10.1411 -2.3473 0.9587
0.8011 10.2517 -2.3470 0.9587
-0.1145 10.2809 -2.3467 0.9587
-1.0290 10.2285 -2.3464 0.9587
-2.8255 9.8815 -2.3458 0.9587
-3.6934 9.5896 -2.3455 0.9587
-4.5317 9.2218 -2.3452 0.9587
-6.0937 8.2705 -2.3447 0.9587
-6.8050 7.6946 -2.3445 0.9587
-8.5942 5.6221 -2.3440 0.9587
-10.4076 3.3560 -2.4959 0.9561
-10.6648 2.4163 -2.4959 0.9561
-10.9246 -0.4871 -2.4959 0.9561
-10.6660 -2.4166 -2.4961 0.9561
-10.0697 -4.2699 -2.4964 0.9561
-9.1546 -5.9887 -2.4969 0.9561
-7.9494 -7.5185 -2.4974 0.9561
-6.4919 -8.8108 -2.4979 0.9561
-5.6826 -9.3548 -2.4982 0.9561
-4.8280 -9.8247 -2.4986 0.9561
-3.0104 -10.5279 -2.4992 0.9561
0.8535 -10.9225 -2.5006 0.9560
1.8225 -10.8046 -2.5009 0.9560
4.6140 -9.9428 -2.5018 0.9560
6.3051 -8.9691 -2.5024 0.9560
7.0791 -8.3731 -2.5026 0.9560
7.7969 -7.7105 -2.5028 0.9560
8.4528 -6.9864 -2.5030 0.9560
10.9657 0.2444 -2.5035 0.9560
9.8694 2.9414 -2.3505 0.9586
9.5678 3.8079 -2.3504 0.9586
9.1902 4.6440 -2.3502 0.9586
8.7397 5.4431 -2.3500 0.9586
8.2197 6.1988 -2.3498 0.9586
6.9890 7.5564 -2.3493 0.9586
6.2879 8.1475 -2.3490 0.9587
3.9105 9.5156 -2.3481 0.9587
3.0476 9.8246 -2.3478 0.9587
2.1608 10.0555 -2.3475 0.9587
1.2570 10.2065 -2.3472 0.9587
-0.5724 10.2649 -2.3465 0.9587
-1.4835 10.1719 -2.3462 0.9587
-4.1166 9.4150 -2.3453 0.9587
-4.9377 9.0102 -2.3451 0.9587
-6.4558 7.9904 -2.3446 0.9587
-7.1407 7.3835 -2.3444 0.9587
-7.7689 6.7181 -2.3442 0.9587
-8.3355 5.9995 -2.3441 0.9587
-8.8359 5.2336 -2.3439 0.9587
-10.2479 3.8164 -2.4959 0.9561
-10.5467 2.8890 -2.4959 0.9561
-10.7618 1.9389 -2.4959 0.9561
-10.8917 0.9733 -2.4959 0.9561
-10.1153 -0.9039 -2.4962 0.9590
-9.9951 -1.8007 -2.4963 0.9590
-9.7956 -2.6833 -2.4965 0.9590
-9.5184 -3.5447 -2.4966 0.9590
-9.1658 -4.3781 -2.4968 0.9590
-5.6583 -8.4428 -2.4982 0.9590
-4.8850 -8.9139 -2.4985 0.9590
-4.0727 -9.3145 -2.4988 0.9590
-3.2279 -9.6412 -2.4991 0.9590
-1.4677 -10.0634 -2.4997 0.9590
-0.5663 -10.1553 -2.5001 0.9590
0.3399 -10.1667 -2.5004 0.9590
2.1376 -9.9478 -2.5010 0.9590
3.0149 -9.7192 -2.5013 0.9590
3.8684 -9.4133 -2.5015 0.9589
5.4773 -8.5800 -2.5021 0.9589
6.9130 -7.4742 -2.5025 0.9589
8.1298 -6.1309 -2.5028 0.9589
8.6437 -5.3833 -2.5030 0.9589
9.0889 -4.5928 -2.5031 0.9589
9.4619 -3.7657 -2.5032 0.9589
9.7598 -2.9087 -2.5032 0.9589
9.9800 -2.0285 -2.5033 0.9589
10.1815 -0.2269 -2.5032 0.9589
10.1610 0.6802 -2.5032 0.9589
9.0326 3.1365 -2.3502 0.9614
8.7170 3.9277 -2.3501 0.9614
8.3322 4.6876 -2.3499 0.9614
7.8812 5.4102 -2.3497 0.9614
7.3677 6.0896 -2.3495 0.9614
5.4954 7.8173 -2.3488 0.9614
4.7772 8.2745 -2.3485 0.9614
3.2337 8.9882 -2.3479 0.9614
2.4205 9.2392 -2.3476 0.9614
0.7439 9.5195 -2.3470 0.9614
-0.9555 9.4982 -2.3464 0.9614
-1.7969 9.3743 -2.3462 0.9614
-2.6238 9.1761 -2.3459 0.9615
-3.4298 8.9052 -2.3456 0.9615
-6.9299 6.5543 -2.3445 0.9615
-8.9601 4.7813 -2.4963 0.9590
-9.3497 3.9647 -2.4962 0.9590
-9.6653 3.1167 -2.4962 0.9590
-10.0646 1.3536 -2.4961 0.9590
-10.1452 0.4524 -2.4962 0.9590
-10.0652 -1.3536 -2.4963 0.9590
-9.9051 -2.2442 -2.4964 0.9590
-9.6666 -3.1171 -2.4965 0.9590
-6.7320 -7.6120 -2.4978 0.9590
-6.0285 -8.1819 -2.4981 0.9590
-4.4833 -9.1233 -2.4986 0.9590
-3.6540 -9.4872 -2.4989 0.9590
-2.7954 -9.7761 -2.4993 0.9590
-0.1133 -10.1711 -2.5002 0.9590
0.7925 -10.1421 -2.5005 0.9590
3.4451 -9.5757 -2.5014 0.9589
5.0894 -8.8150 -2.5019 0.9589
5.8543 -8.3278 -2.5022 0.9589
8.3951 -5.7629 -2.5029 0.9589
8.8751 -4.9930 -2.5030 0.9589
9.8797 -2.4711 -2.5032 0.9589
10.0605 -1.5819 -2.5033 0.9589
10.1814 0.2269 -2.5032 0.9589
10.1205 1.1321 -2.5031 0.9589
9.1636 2.7310 -2.3503 0.9614
8.8836 3.5356 -2.3502 0.9614
7.6321 5.7556 -2.3496 0.9614
6.4894 7.0162 -2.3491 0.9614
5.8385 7.5652 -2.3489 0.9614
5.1414 8.0539 -2.3486 0.9614
3.6311 8.8357 -2.3481 0.9614
2.0064 9.3372 -2.3475 0.9614
0.3190 9.5426 -2.3469 0.9614
-0.5315 9.5320 -2.3466 0.9614
-2.2126 9.2844 -2.3460 0.9614
-3.0298 9.0496 -2.3457 0.9615
-3.8228 8.7431 -2.3455 0.9615
-4.5854 8.3672 -2.3452 0.9615
-7.7409 5.5716 -2.3443 0.9615
-8.6887 5.1463 -2.4822 0.9593
-9.1640 4.3773 -2.4963 0.9590
-9.9943 1.8006 -2.4961 0.9590
-9.4741 0.0000 -2.4964 0.9616
-8.8798 -3.3069 -2.4968 0.9616
-8.5507 -4.0844 -2.4970 0.9616
-7.1696 -6.1998 -2.4976 0.9616
-6.5899 -6.8139 -2.4978 0.9615
-5.9579 -7.3741 -2.4980 0.9615
-3.7992 -8.6890 -2.4989 0.9615
-3.0111 -8.9937 -2.4991 0.9615
-2.1989 -9.2271 -2.4994 0.9615
0.3171 -9.4836 -2.5003 0.9615
1.1600 -9.4188 -2.5006 0.9615
3.6084 -8.7805 -2.5014 0.9615
5.1090 -8.0031 -2.5019 0.9615
5.8016 -7.5173 -2.5021 0.9615
6.4481 -6.9716 -2.5023 0.9615
7.0435 -6.3705 -2.5025 0.9615
8.0623 -5.0212 -2.5028 0.9615
8.4776 -4.2839 -2.5029 0.9615
8.8255 -3.5125 -2.5029 0.9615
9.1033 -2.7130 -2.5030 0.9615
9.3087 -1.8921 -2.5030 0.9615
9.4776 0.6345 -2.5029 0.9615
13.8219 3.4571 -3.7543 0.9428
8.1308 3.6636 -2.3499 0.9638
7.7719 4.3724 -2.3497 0.9638
6.8724 5.6802 -2.3494 0.9638
5.7553 6.8074 -2.3489 0.9638
2.2579 8.6184 -2.3476 0.9638
1.4817 8.7842 -2.3473 0.9638
-2.4477 8.5601 -2.3460 0.9638
-3.1995 8.3074 -2.3457 0.9638
-3.9258 7.9888 -2.3455 0.9638
-5.2791 7.1649 -2.3451 0.9639
-5.8954 6.6661 -2.3449 0.9639
-8.7225 3.6987 -2.4965 0.9616
-9.0169 2.9076 -2.4964 0.9616
-9.2397 2.0935 -2.4964 0.9616
-9.3894 1.2628 -2.4964 0.9616
-9.4646 0.4221 -2.4964 0.9616
-8.3606 -4.4613 -2.4970 0.9616
-7.4383 -5.8739 -2.4974 0.9616
-6.8866 -6.5133 -2.4977 0.9615
-4.9226 -8.1037 -2.4984 0.9615
-3.4086 -8.8501 -2.4990 0.9615
-2.6076 -9.1195 -2.4993 0.9615
-1.7858 -9.3165 -2.4996 0.9615
1.5785 -9.3583 -2.5008 0.9615
2.4055 -9.1817 -2.5010 0.9615
3.9962 -8.6115 -2.5015 0.9615
4.7472 -8.2224 -2.5018 0.9615
5.4607 -7.7679 -2.5020 0.9615
7.8305 -5.3753 -2.5027 0.9615
8.6602 -3.9021 -2.5029 0.9615
9.2152 -2.3048 -2.5030 0.9615
9.3838 -1.4755 -2.5030 0.9615
9.4778 -0.6344 -2.5030 0.9615
9.4398 1.0560 -2.5029 0.9615
13.9625 2.8380 -3.7544 0.9428
7.9592 4.0220 -2.3498 0.9638
7.5691 4.7141 -2.3496 0.9638
6.6122 5.9804 -2.3492 0.9638
4.7958 7.5126 -2.3485 0.9638
2.6398 8.5098 -2.3477 0.9638
1.8716 8.7100 -2.3475 0.9638
1.0889 8.8409 -2.3472 0.9638
0.2976 8.9017 -2.3469 0.9638
-0.4958 8.8918 -2.3466 0.9638
-1.2851 8.8114 -2.3464 0.9638
-3.5662 8.1562 -2.3456 0.9638
-4.2776 7.8056 -2.3454 0.9639
-5.5928 6.9223 -2.3450 0.9639
-6.1863 6.3966 -2.3448 0.9639
-9.1374 2.5030 -2.4964 0.9616
-9.3238 1.6798 -2.4964 0.9616
-5.0319 0.0000 -1.4158 0.9793
-3.7284 -0.6717 -1.0659 0.9844
-3.7904 -1.0383 -1.1057 0.9838
-7.6369 -4.5233 -2.4973 0.9638
-7.2045 -5.1855 -2.4975 0.9638
-6.1720 -6.3818 -2.4979 0.9638
-5.5800 -6.9064 -2.4981 0.9638
-4.2679 -7.7879 -2.4986 0.9638
-2.8201 -8.4230 -2.4992 0.9638
-2.0594 -8.6416 -2.4995 0.9638
-0.4947 -8.8718 -2.5000 0.9638
1.0864 -8.8208 -2.5006 0.9637
1.8674 -8.6900 -2.5008 0.9637
2.6337 -8.4902 -2.5011 0.9637
3.3792 -8.2229 -2.5013 0.9637
4.0981 -7.8902 -2.5015 0.9637
4.7845 -7.4948 -2.5018 0.9637
6.0385 -6.5287 -2.5021 0.9637
7.1012 -5.3553 -2.5024 0.9637
8.2647 -3.2893 -2.5027 0.9637
8.5249 -2.5407 -2.5028 0.9637
8.8754 0.5942 -2.5027 0.9637
8.7870 1.3817 -2.5027 0.9637
6.8843 4.7258 -2.3494 0.9659
6.4359 5.3194 -2.3492 0.9659
5.9364 5.8706 -2.3490 0.9659
4.1732 7.2283 -2.3483 0.9659
3.5130 7.5703 -2.3481 0.9659
2.8249 7.8520 -2.3478 0.9659
1.3877 8.2267 -2.3473 0.9659
-1.5699 8.1902 -2.3463 0.9659
-2.2924 8.0171 -2.3461 0.9659
-2.9966 7.7805 -2.3458 0.9659
-3.6769 7.4822 -2.3456 0.9660
-4.3278 7.1246 -2.3454 0.9660
-4.9444 6.7106 -2.3452 0.9660
-6.5403 5.1648 -2.3447 0.9660
-7.4265 4.8582 -2.4969 0.9638
-8.4453 2.7233 -2.4966 0.9638
-8.6541 1.9608 -2.4966 0.9638
-8.7942 1.1827 -2.4966 0.9638
-4.2110 -0.1878 -1.1860 0.9826
-3.7659 -0.8532 -1.0864 0.9841
-8.4463 -2.7236 -2.4969 0.9638
-8.1708 -3.4647 -2.4971 0.9638
-7.4281 -4.8592 -2.4974 0.9638
-4.6104 -7.5897 -2.4985 0.9638
-2.4422 -8.5408 -2.4993 0.9638
-1.6725 -8.7252 -2.4996 0.9638
-0.0990 -8.8855 -2.5001 0.9637
0.6923 -8.8600 -2.5004 0.9637
3.0094 -8.3649 -2.5012 0.9637
5.7415 -6.7910 -2.5021 0.9637
6.3235 -6.2534 -2.5022 0.9637
6.8554 -5.6662 -2.5024 0.9637
8.1099 -3.6541 -2.5027 0.9637
8.4031 -2.9179 -2.5028 0.9637
8.6296 -2.1584 -2.5028 0.9637
8.7875 -1.3817 -2.5028 0.9637
8.8756 -0.5941 -2.5028 0.9637
8.8931 0.1982 -2.5028 0.9637
8.8400 0.9889 -2.5027 0.9637
8.0042 2.3855 -2.3499 0.9659
7.0883 4.4146 -2.3495 0.9659
6.6667 5.0276 -2.3493 0.9659
6.1923 5.6006 -2.3491 0.9659
5.1002 6.6086 -2.3487 0.9659
3.8469 7.4066 -2.3482 0.9659
2.4722 7.9696 -2.3477 0.9659
-1.9331 8.1117 -2.3462 0.9659
-4.0063 7.3107 -2.3455 0.9660
-4.6407 6.9245 -2.3453 0.9660
-5.7941 5.9911 -2.3450 0.9660
-6.7637 4.8682 -2.3447 0.9660
-7.6354 4.5224 -2.4968 0.9638
-8.0073 3.8248 -2.4967 0.9638
-8.3157 3.0968 -2.4966 0.9638
-8.7328 1.5733 -2.4966 0.9638
-8.8382 0.7898 -2.4966 0.9638
-3.9677 0.0000 -1.1878 0.9836
-3.5918 -0.3210 -1.0796 0.9851
-3.4798 -0.6269 -1.0586 0.9853
-7.8166 -2.9109 -2.4971 0.9658
-7.1775 -4.2512 -2.4974 0.9658
-6.7711 -4.8735 -2.4976 0.9658
-5.2443 -6.4909 -2.4982 0.9658
-2.6503 -7.9160 -2.4992 0.9657
-1.9354 -8.1213 -2.4995 0.9657
-0.4649 -8.3376 -2.5000 0.9657
1.0210 -8.2896 -2.5005 0.9657
1.7549 -8.1666 -2.5007 0.9657
3.1757 -7.7275 -2.5012 0.9657
3.8512 -7.4149 -2.5014 0.9657
5.1057 -6.6156 -2.5018 0.9657
5.6746 -6.1353 -2.5020 0.9657
7.4604 -3.7699 -2.5025 0.9657
7.7666 -3.0910 -2.5025 0.9657
8.1918 -1.6650 -2.5026 0.9657
8.3075 -0.9293 -2.5026 0.9657
8.3404 0.5583 -2.5025 0.9657
8.2574 1.2985 -2.5025 0.9657
12.1636 3.0423 -3.7537 0.9490
7.1554 3.2241 -2.3496 0.9678
6.8396 3.8479 -2.3494 0.9678
6.4695 4.4411 -2.3493 0.9678
6.0481 4.9989 -2.3491 0.9678
5.5787 5.5170 -2.3489 0.9678
1.3041 7.7314 -2.3473 0.9678
-0.0873 7.8385 -2.3468 0.9678
-1.4754 7.6972 -2.3464 0.9678
-2.1545 7.5347 -2.3461 0.9678
-2.8163 7.3123 -2.3459 0.9678
-3.4556 7.0321 -2.3457 0.9678
-4.6470 6.3069 -2.3453 0.9678
-5.1895 5.8679 -2.3452 0.9678
-7.3583 3.9265 -2.4969 0.9658
-7.9375 2.5595 -2.4968 0.9658
-8.2654 1.1116 -2.4968 0.9658
-4.8506 0.2163 -1.4536 0.9799
-3.6646 -0.1634 -1.0982 0.9848
-3.4642 -0.7849 -1.0634 0.9853
-7.9383 -2.5598 -2.4971 0.9658
-7.3595 -3.9271 -2.4974 0.9658
-6.0618 -5.7332 -2.4979 0.9658
-5.5280 -6.2505 -2.4981 0.9658
-4.3329 -7.1329 -2.4986 0.9658
-3.0002 -7.7897 -2.4991 0.9657
-2.2952 -8.0267 -2.4993 0.9657
0.6506 -8.3264 -2.5004 0.9657
2.8282 -7.8610 -2.5011 0.9657
4.1778 -7.2362 -2.5015 0.9657
5.3955 -6.3818 -2.5019 0.9657
5.9425 -5.8766 -2.5021 0.9657
6.4423 -5.3247 -2.5022 0.9657
6.8910 -4.7304 -2.5023 0.9657
7.2850 -4.0984 -2.5024 0.9657
7.8967 -2.7420 -2.5026 0.9657
8.1095 -2.0283 -2.5026 0.9657
8.3406 -0.5583 -2.5026 0.9657
8.3072 0.9293 -2.5025 0.9657
12.0158 3.5811 -3.7536 0.9490
6.2650 4.7247 -2.3492 0.9678
5.8192 5.2632 -2.3490 0.9678
5.3272 5.7597 -2.3488 0.9678
4.2208 6.6118 -2.3484 0.9678
3.6152 6.9606 -2.3482 0.9678
2.3233 7.4897 -2.3477 0.9678
0.2620 7.8350 -2.3470 0.9678
-1.8168 7.6235 -2.3462 0.9678
-2.4879 7.4309 -2.3460 0.9678
-3.1391 7.1793 -2.3458 0.9678
-3.7653 6.8708 -2.3456 0.9678
-5.4456 5.6307 -2.3451 0.9678
-6.6485 4.7854 -2.4524 0.9664
-7.1762 4.2505 -2.4970 0.9658
-8.0435 2.2034 -2.4968 0.9658
-3.7563 0.0000 -1.1929 0.9844
-7.3690 -2.7443 -2.4973 0.9675
-7.0959 -3.3894 -2.4974 0.9675
-6.7664 -4.0077 -2.4976 0.9675
-6.3833 -4.5944 -2.4977 0.9675
-5.9495 -5.1447 -2.4979 0.9675
-5.4684 -5.6542 -2.4981 0.9675
-4.9438 -6.1190 -2.4983 0.9675
-4.3799 -6.5353 -2.4985 0.9675
-3.1524 -7.2097 -2.4990 0.9675
-2.4984 -7.4624 -2.4992 0.9675
-1.8245 -7.6559 -2.4995 0.9675
-1.1360 -7.7887 -2.4997 0.9675
-0.4382 -7.8596 -2.5000 0.9675
0.2631 -7.8682 -2.5002 0.9675
2.3331 -7.5212 -2.5009 0.9675
2.9935 -7.2843 -2.5011 0.9675
3.6303 -6.9895 -2.5013 0.9675
4.2383 -6.6392 -2.5015 0.9675
4.8128 -6.2360 -2.5017 0.9675
6.2904 -4.7438 -2.5021 0.9675
6.6879 -4.1653 -2.5022 0.9675
7.0323 -3.5536 -2.5023 0.9675
7.3209 -2.9136 -2.5024 0.9675
7.5513 -2.2505 -2.5024 0.9675
7.8308 -0.8760 -2.5024 0.9675
7.8776 -0.1755 -2.5024 0.9675
7.8618 0.5263 -2.5024 0.9675
6.4472 3.6272 -2.3493 0.9694
6.0984 4.1863 -2.3492 0.9694
4.7746 5.6475 -2.3486 0.9694
4.2526 6.0495 -2.3484 0.9694
3.6970 6.4034 -2.3482 0.9694
3.1121 6.7064 -2.3480 0.9694
2.5026 6.9561 -2.3478 0.9695
1.8734 7.1506 -2.3475 0.9695
0.5757 7.3680 -2.3471 0.9695
-0.0823 7.3893 -2.3469 0.9695
-1.3909 7.2562 -2.3464 0.9695
-2.0310 7.1030 -2.3462 0.9695
-3.2577 6.6292 -2.3458 0.9695
-4.8923 5.5318 -2.3453 0.9695
-5.3649 5.0741 -2.3452 0.9695
-5.9056 4.6637 -2.3898 0.9689
-6.5802 4.3046 -2.4972 0.9675
-7.2386 3.0695 -2.4970 0.9675
-7.6680 1.7373 -2.4969 0.9675
-4.3818 0.1954 -1.3930 0.9818
-3.4557 -0.1541 -1.0986 0.9856
-6.5814 -4.3053 -2.4977 0.9675
-5.2113 -5.8925 -2.4982 0.9675
-4.0847 -6.7243 -2.4986 0.9675
-1.4817 -7.7299 -2.4996 0.9675
-0.7879 -7.8319 -2.4998 0.9675
-0.0877 -7.8717 -2.5001 0.9675
1.3096 -7.7640 -2.5006 0.9675
1.9957 -7.6173 -2.5008 0.9675
2.6660 -7.4101 -2.5010 0.9675
3.9382 -6.8211 -2.5014 0.9675
4.5300 -6.4440 -2.5016 0.9675
5.6015 -5.5394 -2.5019 0.9675
6.0727 -5.0192 -2.5021 0.9675
7.1838 -3.2368 -2.5024 0.9675
11.3263 3.3756 -3.7534 0.9516
6.8737 2.7357 -2.3495 0.9694
6.2790 3.9106 -2.3492 0.9694
3.9787 6.2326 -2.3483 0.9694
3.4079 6.5614 -2.3481 0.9694
1.5529 7.2266 -2.3474 0.9695
0.2469 7.3860 -2.3470 0.9695
-0.4114 7.3779 -2.3467 0.9695
-1.0663 7.3113 -2.3465 0.9695
-1.7127 7.1867 -2.3463 0.9695
-2.9593 6.7680 -2.3459 0.9695
-4.6411 5.7444 -2.3454 0.9695
-5.5855 4.8300 -2.3451 0.9695
-6.7652 4.0071 -2.4971 0.9675
-7.0948 3.3889 -2.4971 0.9675
-7.3681 2.7440 -2.4970 0.9675
-7.8311 0.6998 -2.4969 0.9675
-3.6184 0.0000 -1.2157 0.9848
-3.1483 -0.5672 -1.0748 0.9866
-6.0340 -4.3430 -2.4978 0.9691
-5.1691 -5.3448 -2.4982 0.9691
-3.5743 -6.5222 -2.4988 0.9691
-2.3616 -7.0538 -2.4993 0.9691
-1.0737 -7.3621 -2.4997 0.9691
-0.4142 -7.4292 -2.5000 0.9691
0.9097 -7.3863 -2.5004 0.9691
2.8295 -6.8853 -2.5010 0.9691
3.4314 -6.6066 -2.5012 0.9691
4.5490 -5.8943 -2.5016 0.9691
5.0559 -5.4664 -2.5017 0.9691
5.9456 -4.4838 -2.5020 0.9691
6.6469 -3.3588 -2.5022 0.9691
6.9196 -2.7539 -2.5022 0.9691
7.3569 1.1568 -2.5022 0.9691
6.0939 3.4284 -2.3492 0.9709
5.7642 3.9569 -2.3491 0.9709
5.3888 4.4539 -2.3489 0.9709
4.5130 5.3381 -2.3486 0.9709
4.0197 5.7180 -2.3484 0.9709
3.4945 6.0527 -2.3482 0.9709
2.3655 6.5751 -2.3477 0.9709
1.7708 6.7590 -2.3475 0.9709
1.1620 6.8891 -2.3473 0.9709
-0.0778 6.9847 -2.3469 0.9710
-1.3148 6.8590 -2.3465 0.9710
-4.1411 5.6204 -2.3456 0.9710
-5.0714 4.7965 -2.3453 0.9710
-6.2202 4.0691 -2.4973 0.9691
-6.5574 3.4992 -2.4972 0.9691
-7.2485 1.6423 -2.4971 0.9691
-7.3659 0.9906 -2.4971 0.9691
-6.8435 -2.9019 -2.4975 0.9691
-6.2213 -4.0698 -2.4978 0.9691
-5.8348 -4.6077 -2.4979 0.9691
-3.8611 -6.3562 -2.4987 0.9691
-2.6734 -6.9413 -2.4991 0.9691
-2.0452 -7.1523 -2.4994 0.9691
-1.4006 -7.3067 -2.4996 0.9691
-0.7448 -7.4030 -2.4998 0.9691
-0.0829 -7.4406 -2.5001 0.9691
0.5797 -7.4191 -2.5003 0.9691
1.8863 -7.2000 -2.5007 0.9691
4.8072 -5.6860 -2.5017 0.9691
5.7398 -4.7441 -2.5019 0.9691
6.1396 -4.2146 -2.5020 0.9691
6.4906 -3.6515 -2.5021 0.9691
7.0355 -2.4430 -2.5023 0.9691
7.4310 -0.4974 -2.5023 0.9691
7.4457 0.1660 -2.5023 0.9691
7.4013 0.8280 -2.5022 0.9691
10.7056 3.1906 -3.7532 0.9540
6.4970 2.5858 -2.3494 0.9709
6.2407 3.1536 -2.3493 0.9709
5.9349 3.6963 -2.3491 0.9709
5.1848 4.6894 -2.3488 0.9709
2.6562 6.4636 -2.3479 0.9709
2.0702 6.6737 -2.3476 0.9709
1.4678 6.8308 -2.3474 0.9709
0.2334 6.9816 -2.3470 0.9710
-0.3889 6.9740 -2.3468 0.9710
-1.0079 6.9111 -2.3466 0.9710
-2.7973 6.3976 -2.3460 0.9710
-5.2856 4.5707 -2.3478 0.9709
-6.3952 3.7879 -2.4973 0.9691
-6.7067 3.2035 -2.4972 0.9691
-6.9651 2.5938 -2.4971 0.9691
-7.1682 1.9636 -2.4971 0.9691
-7.3145 1.3178 -2.4971 0.9691
-3.0930 -0.2764 -1.1011 0.9869
-3.0442 -0.5484 -1.0968 0.9870
-3.0314 -1.1289 -1.1470 0.9864
-5.3290 -4.6082 -2.4981 0.9705
-3.9231 -5.8536 -2.4987 0.9705
-2.8235 -6.4575 -2.4991 0.9705
-2.2377 -6.6838 -2.4993 0.9705
-1.6341 -6.8570 -2.4995 0.9705
-1.0174 -6.9759 -2.4997 0.9705
0.2356 -7.0470 -2.5002 0.9705
0.8620 -6.9987 -2.5004 0.9705
1.4816 -6.8947 -2.5006 0.9705
3.2512 -6.2597 -2.5012 0.9705
3.7958 -5.9459 -2.5013 0.9705
4.3102 -5.5848 -2.5015 0.9705
4.7904 -5.1793 -2.5016 0.9705
5.2327 -4.7327 -2.5018 0.9705
5.6334 -4.2483 -2.5019 0.9705
5.9894 -3.7302 -2.5020 0.9705
6.5562 -2.6093 -2.5021 0.9705
7.0128 -0.7845 -2.5022 0.9705
7.0548 -0.1572 -2.5021 0.9705
7.0406 0.4713 -2.5021 0.9705
6.9706 1.0961 -2.5020 0.9705
6.8451 1.7121 -2.5020 0.9705
6.6653 2.3145 -2.5019 0.9705
6.0404 2.7217 -2.3492 0.9723
4.7097 4.6575 -2.3487 0.9723
2.7873 6.0064 -2.3479 0.9723
2.2414 6.2301 -2.3477 0.9723
1.6778 6.4044 -2.3475 0.9723
0.5157 6.5992 -2.3471 0.9723
-0.0737 6.6183 -2.3469 0.9723
-1.8192 6.3621 -2.3463 0.9723
-2.3780 6.1744 -2.3461 0.9723
-3.4346 5.6542 -2.3458 0.9723
-5.5278 4.3652 -2.4975 0.9705
-6.7029 2.1614 -2.4973 0.9706
-6.8686 1.5563 -2.4972 0.9706
-6.9798 0.9387 -2.4972 0.9706
-3.1623 -0.1410 -1.1224 0.9867
-3.0595 -0.4114 -1.0946 0.9870
-3.0241 -0.6852 -1.0995 0.9869
-6.4848 -2.7498 -2.4976 0.9705
-6.2146 -3.3162 -2.4977 0.9705
-5.1186 -4.8411 -2.4982 0.9705
-4.6678 -5.2779 -2.4984 0.9705
-4.1798 -5.6728 -2.4986 0.9705
-3.6586 -6.0228 -2.4988 0.9705
-3.1082 -6.3251 -2.4990 0.9705
-1.3271 -6.9233 -2.4996 0.9705
-0.7057 -7.0146 -2.4998 0.9705
0.5493 -7.0298 -2.5003 0.9705
1.1729 -6.9536 -2.5005 0.9705
1.7873 -6.8221 -2.5007 0.9705
2.3876 -6.6365 -2.5009 0.9705
2.9691 -6.3981 -2.5011 0.9705
5.0165 -4.9610 -2.5017 0.9705
5.4384 -4.4950 -2.5018 0.9705
6.1497 -3.4598 -2.5020 0.9705
6.6660 -2.3147 -2.5021 0.9705
7.0408 -0.4713 -2.5022 0.9705
7.0547 0.1572 -2.5021 0.9705
6.7620 2.0153 -2.5019 0.9705
5.2890 3.9886 -2.3489 0.9723
4.4973 4.8625 -2.3486 0.9723
4.0464 5.2431 -2.3484 0.9723
2.5168 6.1243 -2.3478 0.9723
1.9616 6.3235 -2.3476 0.9723
1.3908 6.4724 -2.3474 0.9723
0.8092 6.5699 -2.3472 0.9723
0.2212 6.6153 -2.3470 0.9723
-1.5340 6.4370 -2.3464 0.9723
-2.1007 6.2745 -2.3462 0.9723
-3.1794 5.8018 -2.3459 0.9723
-4.5984 4.7547 -2.3454 0.9723
-5.7166 4.1146 -2.4975 0.9706
-6.3552 3.0356 -2.4973 0.9706
-6.6000 2.4579 -2.4973 0.9706
-6.7925 1.8607 -2.4972 0.9706
-7.0147 0.6269 -2.4972 0.9706
-2.9455 -0.5306 -1.1176 0.9873
-2.9169 -0.7990 -1.1293 0.9872
-2.9238 -1.0888 -1.1650 0.9868
-6.0358 -2.8831 -2.4978 0.9718
-5.0605 -4.3760 -2.4982 0.9718
-4.6513 -4.8093 -2.4983 0.9718
-3.7254 -5.5587 -2.4987 0.9718
-3.2161 -5.8686 -2.4989 0.9718
-2.6812 -6.1321 -2.4991 0.9718
-2.1250 -6.3469 -2.4993 0.9718
0.2237 -6.6916 -2.5001 0.9718
1.4069 -6.5470 -2.5005 0.9718
3.0872 -5.9440 -2.5011 0.9718
3.6043 -5.6460 -2.5012 0.9718
4.9687 -4.4939 -2.5017 0.9718
5.3492 -4.0339 -2.5018 0.9718
6.2254 -2.4776 -2.5020 0.9718
6.4213 -1.9137 -2.5020 0.9718
6.6854 0.4476 -2.5020 0.9718
6.6189 1.0408 -2.5019 0.9718
6.4998 1.6257 -2.5018 0.9718
6.3290 2.1977 -2.5018 0.9718
5.7431 2.5877 -2.3522 0.9735
5.1860 3.5600 -2.3489 0.9735
3.1441 5.4458 -2.3481 0.9735
2.1284 5.9160 -2.3477 0.9735
1.5933 6.0815 -2.3475 0.9735
-0.6291 6.2530 -2.3467 0.9735
-1.1830 6.1718 -2.3465 0.9735
-3.2616 5.3693 -2.3459 0.9735
-4.6964 4.4418 -2.4138 0.9728
-5.2493 4.1454 -2.4976 0.9718
-5.9007 3.1488 -2.4975 0.9718
-6.3653 2.0526 -2.4974 0.9718
-6.5226 1.4779 -2.4974 0.9718
-6.6283 0.8914 -2.4974 0.9718
-2.9640 -0.3986 -1.1167 0.9873
-2.9258 -0.6629 -1.1202 0.9873
-5.9016 -3.1491 -2.4978 0.9718
-5.5981 -3.6621 -2.4980 0.9718
-5.2503 -4.1461 -2.4981 0.9718
-4.8607 -4.5972 -2.4983 0.9718
-4.4326 -5.0120 -2.4984 0.9718
-3.9692 -5.3870 -2.4986 0.9718
-3.4742 -5.7193 -2.4988 0.9718
-1.8402 -6.4355 -2.4994 0.9718
-0.0746 -6.6947 -2.5000 0.9718
1.1138 -6.6029 -2.5004 0.9718
2.8193 -6.0754 -2.5010 0.9718
3.3491 -5.8007 -2.5012 0.9718
3.8523 -5.4800 -2.5013 0.9718
5.5237 -3.7918 -2.5018 0.9718
5.8394 -3.2852 -2.5019 0.9718
6.3297 -2.1979 -2.5020 0.9718
6.5002 -1.6258 -2.5020 0.9718
6.6855 -0.4475 -2.5020 0.9718
6.6987 0.1493 -2.5020 0.9718
6.6587 0.7449 -2.5020 0.9718
6.2025 2.4686 -2.4928 0.9719
5.3396 3.3256 -2.3490 0.9735
3.3837 5.3005 -2.3482 0.9735
2.3899 5.8155 -2.3478 0.9735
1.3207 6.1461 -2.3474 0.9735
0.7684 6.2387 -2.3472 0.9735
0.2100 6.2818 -2.3470 0.9735
-1.9948 5.9583 -2.3463 0.9735
-3.4974 5.2185 -2.3458 0.9735
-3.9478 4.8862 -2.3457 0.9735
-5.4287 3.9073 -2.4976 0.9718
-6.0351 2.8827 -2.4974 0.9718
-4.2614 0.3808 -1.5976 0.9819
-2.8518 -0.5138 -1.1373 0.9876
-2.8313 -0.7755 -1.1521 0.9875
-5.1661 -3.7183 -2.4981 0.9730
-4.8149 -4.1636 -2.4983 0.9730
-4.4255 -4.5759 -2.4984 0.9730
-4.0009 -4.9520 -2.4986 0.9730
-3.0600 -5.5837 -2.4989 0.9730
-0.9192 -6.3025 -2.4997 0.9730
1.3385 -6.2289 -2.5005 0.9730
2.4221 -5.8938 -2.5009 0.9730
3.4291 -5.3716 -2.5012 0.9730
5.0892 -3.8379 -2.5017 0.9730
5.4108 -3.3699 -2.5017 0.9730
5.6894 -2.8749 -2.5018 0.9730
6.1092 -1.8207 -2.5019 0.9730
6.2471 -1.2697 -2.5019 0.9730
6.3353 -0.7087 -2.5019 0.9730
6.3732 -0.1420 -2.5019 0.9730
6.2971 0.9902 -2.5018 0.9730
6.1838 1.5467 -2.5017 0.9730
6.0214 2.0909 -2.5017 0.9730
5.6971 2.5670 -2.4524 0.9735
5.2162 2.9346 -2.3489 0.9746
4.9340 3.3870 -2.3488 0.9746
4.6127 3.8125 -2.3487 0.9746
2.9914 5.1812 -2.3480 0.9746
2.0250 5.6287 -2.3477 0.9746
1.5159 5.7861 -2.3475 0.9746
0.4659 5.9622 -2.3471 0.9746
-1.1256 5.8721 -2.3466 0.9746
-2.6364 5.3650 -2.3461 0.9746
-3.1033 5.1087 -2.3459 0.9746
-4.6239 4.3733 -2.4979 0.9730
-4.9946 3.9442 -2.4977 0.9730
-5.6144 2.9959 -2.4976 0.9730
-6.0564 1.9530 -2.4975 0.9730
-3.6457 0.1626 -1.4322 0.9844
-2.8734 -0.3864 -1.1379 0.9876
-2.8326 -0.6418 -1.1399 0.9876
-5.6152 -2.9963 -2.4979 0.9730
-4.9955 -3.9449 -2.4982 0.9730
-3.3055 -5.4417 -2.4988 0.9730
-2.2887 -5.9424 -2.4992 0.9730
-0.6376 -6.3374 -2.4998 0.9730
-0.0710 -6.3695 -2.5000 0.9730
1.0597 -6.2821 -2.5004 0.9730
1.6147 -6.1634 -2.5006 0.9730
4.1149 -4.8671 -2.5014 0.9730
4.5319 -4.4817 -2.5015 0.9730
4.9131 -4.0607 -2.5016 0.9730
5.8119 -2.6187 -2.5018 0.9730
6.1843 -1.5468 -2.5019 0.9730
6.2974 -0.9902 -2.5019 0.9730
6.3605 -0.4257 -2.5019 0.9730
6.3731 0.1421 -2.5019 0.9730
6.2467 1.2697 -2.5018 0.9730
5.3418 2.6994 -2.3490 0.9746
4.7781 3.6034 -2.3487 0.9746
4.4382 4.0141 -2.3486 0.9746
3.2193 5.0430 -2.3481 0.9746
2.7575 5.3091 -2.3480 0.9746
1.7722 5.7130 -2.3476 0.9746
1.2566 5.8476 -2.3474 0.9746
-0.3329 5.9704 -2.3468 0.9746
-0.8629 5.9167 -2.3467 0.9746
-2.3949 5.4772 -2.3462 0.9746
-3.7562 4.6491 -2.3457 0.9746
-4.2186 4.3621 -2.3816 0.9743
-4.8140 4.1629 -2.4978 0.9730
-5.1652 3.7177 -2.4977 0.9730
-5.9634 2.2208 -2.4975 0.9730
-6.1374 1.6812 -2.4975 0.9730
-4.1297 0.3690 -1.6273 0.9823
-3.1614 0.0000 -1.3018 0.9864
-2.8130 -0.2513 -1.1629 0.9879
-5.2196 -3.0916 -2.4981 0.9741
-4.9240 -3.5440 -2.4982 0.9741
-2.4314 -5.5608 -2.4992 0.9741
-1.9270 -5.7556 -2.4993 0.9741
-0.3380 -6.0615 -2.4999 0.9741
0.2029 -6.0680 -2.5001 0.9741
1.2757 -5.9368 -2.5005 0.9741
1.7992 -5.8001 -2.5006 0.9741
3.7111 -4.8086 -2.5012 0.9741
4.5054 -4.0748 -2.5015 0.9741
4.8503 -3.6578 -2.5016 0.9741
5.1568 -3.2117 -2.5017 0.9741
5.6448 -2.2466 -2.5018 0.9741
5.8225 -1.7352 -2.5018 0.9741
5.9539 -1.2102 -2.5018 0.9741
6.0379 -0.6754 -2.5018 0.9741
6.0740 -0.1353 -2.5018 0.9741
6.0619 0.4058 -2.5018 0.9741
5.8936 1.4741 -2.5016 0.9741
5.7389 1.9928 -2.5016 0.9741
4.9714 2.7969 -2.3489 0.9756
4.7025 3.2281 -2.3487 0.9756
4.3963 3.6336 -2.3486 0.9756
4.0552 4.0103 -2.3485 0.9756
3.6819 4.3550 -2.3483 0.9756
3.2795 4.6651 -2.3482 0.9756
2.8510 4.9381 -2.3480 0.9756
0.4440 5.6827 -2.3471 0.9756
-0.0635 5.6992 -2.3470 0.9756
-1.0728 5.5968 -2.3466 0.9756
-2.9578 4.8693 -2.3460 0.9757
-4.4072 4.1683 -2.4979 0.9741
-5.3513 2.8555 -2.4977 0.9741
-5.7726 1.8615 -2.4976 0.9741
-6.0112 0.8085 -2.4976 0.9741
-3.5093 0.1565 -1.4465 0.9849
-2.9337 -0.1308 -1.2093 0.9874
-2.7775 -0.8956 -1.2017 0.9875
-2.8016 -1.1880 -1.2531 0.9869
-5.0768 -3.3211 -2.4981 0.9741
-4.7613 -3.7600 -2.4983 0.9741
-4.4080 -4.1691 -2.4984 0.9741
-4.0197 -4.5451 -2.4986 0.9741
-3.5995 -4.8852 -2.4987 0.9741
-2.6766 -5.4468 -2.4991 0.9741
-1.6687 -5.8359 -2.4994 0.9741
-1.1428 -5.9617 -2.4996 0.9741
-0.6077 -6.0402 -2.4998 0.9741
1.5390 -5.8742 -2.5005 0.9741
2.0559 -5.7143 -2.5007 0.9741
2.5565 -5.5090 -2.5009 0.9741
3.0368 -5.2600 -2.5010 0.9741
3.9218 -4.6387 -2.5013 0.9741
5.0086 -3.4382 -2.5016 0.9741
5.5391 -2.4958 -2.5017 0.9741
6.0019 -0.9437 -2.5018 0.9741
6.0740 0.1354 -2.5018 0.9741
6.0378 0.6755 -2.5017 0.9741
5.8220 1.7352 -2.5016 0.9741
5.6443 2.2464 -2.5015 0.9741
5.2501 2.6530 -2.4222 0.9749
4.8417 3.0155 -2.3488 0.9756
4.5539 3.4343 -2.3487 0.9756
3.0683 4.8064 -2.3481 0.9756
2.6281 5.0601 -2.3479 0.9756
2.1672 5.2735 -2.3478 0.9756
1.1976 5.5734 -2.3474 0.9756
-1.3210 5.5433 -2.3465 0.9757
-1.8090 5.4033 -2.3464 0.9757
-2.2826 5.2205 -2.3462 0.9757
-2.7381 4.9963 -2.3461 0.9757
-4.1958 4.3384 -2.4853 0.9742
-5.6840 2.1168 -2.4976 0.9741
-5.8498 1.6025 -2.4976 0.9741
-3.0794 0.0000 -1.3283 0.9867
-2.7539 -0.2461 -1.1927 0.9880
-2.7300 -1.3040 -1.3050 0.9869
-2.7884 -1.6516 -1.3980 0.9860
-3.6404 -4.5057 -2.4987 0.9751
-3.2251 -4.8121 -2.4988 0.9751
-2.7842 -5.0805 -2.4990 0.9751
-2.3211 -5.3085 -2.4992 0.9751
-0.8363 -5.7343 -2.4997 0.9751
-0.3226 -5.7864 -2.4999 0.9751
1.7175 -5.5367 -2.5006 0.9751
2.2036 -5.3622 -2.5007 0.9751
2.6723 -5.1451 -2.5009 0.9751
4.3008 -3.8898 -2.5014 0.9751
4.9226 -3.0658 -2.5016 0.9751
5.1761 -2.6156 -2.5016 0.9751
5.3885 -2.1445 -2.5017 0.9751
5.5580 -1.6564 -2.5017 0.9751
5.6834 -1.1552 -2.5017 0.9751
5.7982 -0.1292 -2.5017 0.9751
5.6260 1.4072 -2.5016 0.9751
4.8505 2.7289 -2.4007 0.9760
4.1966 3.4687 -2.3486 0.9766
3.8710 3.8282 -2.3484 0.9766
3.1306 4.4533 -2.3481 0.9766
1.8424 5.1211 -2.3476 0.9766
-0.0606 5.4406 -2.3470 0.9766
-0.5446 5.4132 -2.3468 0.9766
-1.0241 5.3429 -2.3466 0.9766
-3.2260 4.3784 -2.3459 0.9766
-3.7745 4.2679 -2.4577 0.9755
-4.2073 3.9793 -2.4980 0.9751
-5.1087 2.7261 -2.4978 0.9751
-5.3309 2.2605 -2.4977 0.9751
-5.6471 1.2795 -2.4977 0.9751
-5.7386 0.7718 -2.4977 0.9751
-3.3811 0.1508 -1.4599 0.9854
-2.7402 -0.3685 -1.1926 0.9880
-2.7166 -0.8760 -1.2313 0.9876
-5.1093 -2.7264 -2.4981 0.9751
-3.8374 -4.3390 -2.4986 0.9751
-3.4362 -4.6636 -2.4988 0.9751
-3.0076 -4.9512 -2.4989 0.9751
-2.5552 -5.1996 -2.4991 0.9751
-0.0646 -5.7953 -2.5000 0.9751
0.9641 -5.7157 -2.5003 0.9751
2.4404 -5.2589 -2.5008 0.9751
2.8990 -5.0211 -2.5010 0.9751
3.3345 -4.7434 -2.5011 0.9751
5.2875 -2.3824 -2.5017 0.9751
5.6263 -1.4072 -2.5017 0.9751
5.7293 -0.9008 -2.5017 0.9751
5.7867 -0.3873 -2.5017 0.9751
5.7981 0.1292 -2.5017 0.9751
5.7635 0.6448 -2.5016 0.9751
5.5576 1.6563 -2.5015 0.9751
5.3879 2.1444 -2.5014 0.9751
5.1755 2.6153 -2.5013 0.9751
4.6219 2.8785 -2.3487 0.9766
4.0379 3.6520 -2.3485 0.9766
3.3260 4.3096 -2.3482 0.9766
2.9290 4.5882 -2.3481 0.9766
1.1433 5.3204 -2.3474 0.9766
-0.3029 5.4323 -2.3469 0.9766
-0.7851 5.3834 -2.3467 0.9766
-1.2611 5.2918 -2.3466 0.9766
-3.0278 4.5179 -2.3460 0.9766
-3.4219 4.2353 -2.3487 0.9766
-4.3803 3.7879 -2.4980 0.9751
-4.6999 3.3828 -2.4979 0.9751
-4.9822 2.9510 -2.4978 0.9751
-5.4263 2.0208 -2.4977 0.9751
-5.5845 1.5298 -2.4977 0.9751
-5.6985 1.0266 -2.4977 0.9751
-3.8265 0.3420 -1.6572 0.9834
-2.6607 -0.9908 -1.2811 0.9876
-2.6666 -1.2737 -1.3334 0.9871
-3.8496 -3.9804 -2.4986 0.9760
-3.4802 -4.3075 -2.4987 0.9760
-3.0832 -4.6005 -2.4989 0.9760
-2.6617 -4.8569 -2.4990 0.9760
-1.7586 -5.2526 -2.4994 0.9760
-1.2842 -5.3886 -2.4995 0.9760
-0.7995 -5.4819 -2.4997 0.9760
-0.3084 -5.5317 -2.4999 0.9760
2.5546 -4.9186 -2.5008 0.9760
3.3866 -4.3881 -2.5011 0.9760
3.7639 -4.0695 -2.5012 0.9760
4.1113 -3.7185 -2.5013 0.9760
4.4261 -3.3379 -2.5014 0.9760
4.7058 -2.9308 -2.5015 0.9760
4.9481 -2.5004 -2.5015 0.9760
5.3132 -1.5835 -2.5016 0.9760
5.5098 -0.6164 -2.5016 0.9760
5.5317 0.3703 -2.5016 0.9760
5.4767 0.8612 -2.5015 0.9760
5.0541 2.2773 -2.5013 0.9760
4.8257 2.7149 -2.4984 0.9760
4.2913 2.9458 -2.3486 0.9774
4.0118 3.3159 -2.3485 0.9774
3.7006 3.6596 -2.3484 0.9774
2.9927 4.2572 -2.3481 0.9774
2.6018 4.5065 -2.3479 0.9774
2.1902 4.7198 -2.3478 0.9774
1.7613 4.8957 -2.3476 0.9774
-0.0579 5.2012 -2.3470 0.9774
-0.9791 5.1078 -2.3467 0.9774
-1.4297 5.0001 -2.3465 0.9774
-2.2933 4.6668 -2.3462 0.9774
-2.6994 4.4439 -2.3461 0.9774
-4.0223 3.8043 -2.4981 0.9760
-5.0965 2.1611 -2.4978 0.9760
-5.3988 1.2232 -2.4978 0.9760
-3.2609 0.1454 -1.4728 0.9858
-4.8845 -2.6064 -2.4981 0.9760
-4.0230 -3.8048 -2.4985 0.9760
-3.6685 -4.1481 -2.4987 0.9760
-3.2850 -4.4584 -2.4988 0.9760
-2.8753 -4.7333 -2.4990 0.9760
-1.9908 -5.1689 -2.4993 0.9760
-1.5229 -5.3259 -2.4995 0.9760
-0.5545 -5.5123 -2.4998 0.9760
0.9217 -5.4641 -2.5003 0.9760
1.8761 -5.2147 -2.5006 0.9760
3.1877 -4.5346 -2.5010 0.9760
4.8318 -2.7183 -2.5015 0.9760
5.2374 -1.8186 -2.5016 0.9760
5.3785 -1.3452 -2.5016 0.9760
5.4769 -0.8612 -2.5016 0.9760
5.5318 -0.3703 -2.5016 0.9760
5.4328 1.1043 -2.5015 0.9760
5.1506 2.0499 -2.5014 0.9760
4.9476 2.5001 -2.5013 0.9760
4.4898 2.7963 -2.3867 0.9771
3.1795 4.1198 -2.3482 0.9774
1.9777 4.8126 -2.3477 0.9774
1.5414 4.9691 -2.3476 0.9774
1.0930 5.0863 -2.3474 0.9774
0.6359 5.1630 -2.3472 0.9774
0.1738 5.1988 -2.3471 0.9774
-0.2896 5.1932 -2.3469 0.9774
-0.7506 5.1465 -2.3467 0.9774
-1.2056 5.0589 -2.3466 0.9774
-1.6510 4.9313 -2.3464 0.9774
-2.0832 4.7644 -2.3463 0.9774
-2.4989 4.5599 -2.3462 0.9774
-3.8489 3.9797 -2.4981 0.9760
-4.4932 3.2340 -2.4980 0.9760
-4.7631 2.8212 -2.4979 0.9760
-5.1876 1.9319 -2.4978 0.9760
-5.4479 0.9815 -2.4978 0.9760
-3.7666 0.3366 -1.7063 0.9835
-2.9112 0.0000 -1.3723 0.9872
-2.6212 -0.4722 -1.2555 0.9883
-2.6016 -0.7126 -1.2715 0.9881
-2.6023 -0.9691 -1.3090 0.9878
-2.6052 -1.2444 -1.3609 0.9873
-2.6596 -1.5753 -1.4571 0.9864
-3.6850 -3.8103 -2.4986 0.9768
-3.3314 -4.1233 -2.4988 0.9768
-1.6834 -5.0280 -2.4994 0.9768
-1.2293 -5.1582 -2.4996 0.9768
-0.2953 -5.2951 -2.4999 0.9768
0.6484 -5.2643 -2.5002 0.9768
1.1144 -5.1860 -2.5004 0.9768
2.4453 -4.7081 -2.5008 0.9768
2.8548 -4.4720 -2.5009 0.9768
3.6028 -3.8954 -2.5012 0.9768
4.2367 -3.1951 -2.5013 0.9768
4.5044 -2.8053 -2.5014 0.9768
4.9307 -1.9623 -2.5015 0.9768
5.0858 -1.5157 -2.5015 0.9768
5.2740 -0.5900 -2.5015 0.9768
5.3055 -0.1182 -2.5015 0.9768
5.2950 0.3545 -2.5015 0.9768
5.2423 0.8243 -2.5015 0.9768
5.0128 1.7407 -2.5013 0.9768
4.6245 2.6017 -2.5011 0.9768
4.1615 2.8567 -2.3793 0.9779
3.5423 3.5030 -2.3483 0.9782
0.8283 4.9103 -2.3473 0.9782
0.3879 4.9642 -2.3472 0.9782
-0.0555 4.9787 -2.3470 0.9782
-1.7891 4.6452 -2.3464 0.9782
-2.1953 4.4673 -2.3463 0.9782
-2.5840 4.2539 -2.3462 0.9782
-3.0535 4.1443 -2.4265 0.9775
-4.6753 2.4948 -2.4979 0.9768
-4.8787 2.0687 -2.4979 0.9768
-5.1680 1.1710 -2.4978 0.9768
-5.2517 0.7063 -2.4978 0.9768
-2.7082 -0.1207 -1.2778 0.9881
-2.6352 -0.3544 -1.2533 0.9883
-2.5994 -0.8382 -1.2874 0.9880
-2.5902 -1.3822 -1.3839 0.9871
-4.4353 -2.9014 -2.4983 0.9768
-4.1597 -3.2848 -2.4984 0.9768
-3.8510 -3.6422 -2.4986 0.9768
-3.5117 -3.9707 -2.4987 0.9768
-3.1445 -4.2678 -2.4988 0.9768
-2.7524 -4.5310 -2.4990 0.9768
-2.3383 -4.7583 -2.4991 0.9768
-0.9983 -5.2080 -2.4996 0.9768
-0.5308 -5.2765 -2.4998 0.9768
-0.0591 -5.3032 -2.5000 0.9768
0.8822 -5.2303 -2.5003 0.9768
1.7958 -4.9916 -2.5006 0.9768
2.6527 -4.5946 -2.5009 0.9768
3.0513 -4.3405 -2.5010 0.9768
3.7729 -3.7311 -2.5012 0.9768
4.0901 -3.3805 -2.5013 0.9768
4.3749 -3.0032 -2.5014 0.9768
4.6250 -2.6019 -2.5014 0.9768
4.8383 -2.1800 -2.5015 0.9768
5.2950 -0.3544 -2.5015 0.9768
5.3055 0.1183 -2.5015 0.9768
4.9302 1.9622 -2.5013 0.9768
4.7358 2.3931 -2.5012 0.9768
3.9779 2.9999 -2.3485 0.9782
3.6949 3.3419 -2.3484 0.9782
1.4755 4.7566 -2.3475 0.9782
1.0462 4.8688 -2.3474 0.9782
0.6087 4.9422 -2.3472 0.9782
0.1664 4.9764 -2.3471 0.9782
-0.2772 4.9712 -2.3469 0.9782
-0.7185 4.9264 -2.3468 0.9782
-1.1541 4.8427 -2.3466 0.9782
-1.9942 4.5608 -2.3464 0.9782
-3.6844 3.8096 -2.4982 0.9768
-4.3012 3.0958 -2.4980 0.9768
-4.5595 2.7006 -2.4980 0.9768
-4.9659 1.8494 -2.4979 0.9768
-5.1108 1.4000 -2.4978 0.9768
-2.5903 -0.2315 -1.2791 0.9885
-2.5698 -0.4630 -1.2843 0.9884
-2.5499 -0.6985 -1.3004 0.9883
-2.5453 -0.9479 -1.3359 0.9880
-4.3703 -2.5885 -2.4983 0.9776
-4.1228 -2.9674 -2.4984 0.9776
-3.8425 -3.3227 -2.4985 0.9776
-3.5317 -3.6517 -2.4987 0.9776
-2.8285 -4.2205 -2.4989 0.9776
-1.6133 -4.8187 -2.4994 0.9776
-1.1781 -4.9434 -2.4996 0.9776
1.0680 -4.9700 -2.5003 0.9776
1.5062 -4.8555 -2.5005 0.9776
2.3435 -4.5120 -2.5008 0.9776
3.1067 -4.0254 -2.5010 0.9776
3.4528 -3.7330 -2.5011 0.9776
3.7715 -3.4110 -2.5012 0.9776
4.0602 -3.0619 -2.5013 0.9776
4.8739 -1.4526 -2.5015 0.9776
5.0543 -0.5654 -2.5015 0.9776
5.0845 -0.1133 -2.5015 0.9776
5.0239 0.7900 -2.5014 0.9776
4.8040 1.6681 -2.5013 0.9776
3.6802 3.0418 -2.3484 0.9789
3.3947 3.3571 -2.3483 0.9789
2.7454 3.9054 -2.3480 0.9789
2.3868 4.1340 -2.3479 0.9789
1.2096 4.6169 -2.3475 0.9789
0.3718 4.7576 -2.3472 0.9790
-0.0532 4.7715 -2.3470 0.9790
-0.4776 4.7475 -2.3469 0.9790
-0.8982 4.6859 -2.3467 0.9790
-1.7146 4.4519 -2.3465 0.9790
-2.1039 4.2814 -2.3463 0.9790
-3.0131 4.0895 -2.4984 0.9776
-3.3650 3.8049 -2.4983 0.9776
-3.6901 3.4902 -2.4982 0.9776
-4.2502 2.7804 -2.4981 0.9776
-4.9530 1.1222 -2.4979 0.9776
-5.0333 0.6769 -2.4979 0.9776
-3.0630 0.1366 -1.5081 0.9864
-2.5845 -0.3476 -1.2826 0.9884
-3.6907 -3.4906 -2.4986 0.9776
-2.6378 -4.3424 -2.4990 0.9776
-2.2410 -4.5602 -2.4992 0.9776
-1.8263 -4.7419 -2.4993 0.9776
-1.3971 -4.8859 -2.4995 0.9776
-0.9567 -4.9912 -2.4996 0.9776
-0.0566 -5.0824 -2.5000 0.9776
0.8455 -5.0125 -2.5003 0.9776
1.2884 -4.9176 -2.5004 0.9776
2.1401 -4.6118 -2.5007 0.9776
3.2830 -3.8831 -2.5010 0.9776
3.9197 -3.2397 -2.5012 0.9776
4.4323 -2.4935 -2.5014 0.9776
4.6367 -2.0892 -2.5014 0.9776
4.8043 -1.6682 -2.5014 0.9776
5.0241 -0.7899 -2.5015 0.9776
5.0845 0.1133 -2.5014 0.9776
5.0541 0.5654 -2.5014 0.9776
4.9837 1.0130 -2.5014 0.9776
4.8736 1.4525 -2.5013 0.9776
4.7248 1.8804 -2.5012 0.9776
4.3163 2.6882 -2.5010 0.9776
2.9167 3.7793 -2.3481 0.9789
2.2002 4.2361 -2.3478 0.9789
1.8143 4.4148 -2.3477 0.9789
1.4141 4.5585 -2.3475 0.9789
0.5833 4.7364 -2.3472 0.9790
0.1595 4.7693 -2.3471 0.9790
-1.5146 4.5240 -2.3465 0.9790
-1.9112 4.3710 -2.3464 0.9790
-2.7404 4.0890 -2.4211 0.9783
-3.1922 3.9511 -2.4984 0.9776
-3.8419 3.3223 -2.4982 0.9776
-4.1222 2.9670 -2.4981 0.9776
-4.3698 2.5883 -2.4980 0.9776
-4.7593 1.7724 -2.4979 0.9776
-3.6334 0.3247 -1.7942 0.9839
-2.4879 -1.1884 -1.4135 0.9877
-3.6865 -3.1879 -2.4986 0.9783
-3.3883 -3.5035 -2.4987 0.9783
-2.3427 -4.2748 -2.4991 0.9783
0.1629 -4.8737 -2.5000 0.9783
0.5961 -4.8402 -2.5002 0.9783
1.0246 -4.7682 -2.5003 0.9783
2.2483 -4.3288 -2.5007 0.9783
2.9805 -3.8619 -2.5009 0.9783
3.3125 -3.5814 -2.5010 0.9783
3.6182 -3.2725 -2.5011 0.9783
4.1414 -2.5792 -2.5013 0.9783
4.3546 -2.2004 -2.5013 0.9783
4.5332 -1.8042 -2.5014 0.9783
4.6759 -1.3935 -2.5014 0.9783
4.7814 -0.9718 -2.5014 0.9783
4.8489 -0.5424 -2.5014 0.9783
4.8198 0.7579 -2.5013 0.9783
4.7331 1.1838 -2.5013 0.9783
4.4479 2.0042 -2.5011 0.9783
4.2518 2.3920 -2.5010 0.9783
4.0219 2.7608 -2.5009 0.9783
3.5817 2.9604 -2.3822 0.9793
2.9571 3.4977 -2.3481 0.9796
2.6339 3.7468 -2.3480 0.9796
2.2898 3.9662 -2.3479 0.9796
1.5502 4.3088 -2.3476 0.9796
-0.4582 4.5548 -2.3469 0.9796
-1.2584 4.4009 -2.3466 0.9796
-2.0185 4.1076 -2.3464 0.9796
-2.4524 4.0371 -2.4217 0.9790
-3.5404 3.3485 -2.4983 0.9783
-3.8243 3.0200 -2.4982 0.9783
-4.0778 2.6675 -2.4981 0.9783
-4.2989 2.2940 -2.4981 0.9783
-2.9775 0.1328 -1.5280 0.9867
-2.5877 -0.1154 -1.3280 0.9884
-2.4881 -0.8023 -1.3403 0.9883
-2.4879 -1.0550 -1.3854 0.9879
-4.0783 -2.6679 -2.4984 0.9783
-3.8248 -3.0204 -2.4985 0.9783
-3.5409 -3.3489 -2.4987 0.9783
-2.8913 -3.9241 -2.4989 0.9783
-2.5307 -4.1661 -2.4990 0.9783
-2.1500 -4.3751 -2.4992 0.9783
-0.4881 -4.8515 -2.4998 0.9783
-0.0543 -4.8760 -2.4999 0.9783
0.8112 -4.8089 -2.5002 0.9783
1.2360 -4.7179 -2.5004 0.9783
1.6511 -4.5894 -2.5005 0.9783
2.0532 -4.4245 -2.5006 0.9783
2.4390 -4.2244 -2.5008 0.9783
2.8054 -3.9907 -2.5009 0.9783
3.4688 -3.4304 -2.5011 0.9783
3.7605 -3.1081 -2.5012 0.9783
4.0223 -2.7611 -2.5012 0.9783
4.2522 -2.3922 -2.5013 0.9783
4.4483 -2.0043 -2.5013 0.9783
4.8199 -0.7579 -2.5014 0.9783
4.8488 0.5425 -2.5013 0.9783
4.5329 1.8040 -2.5012 0.9783
3.8422 2.8975 -2.4671 0.9786
3.3972 3.0726 -2.3483 0.9796
1.7406 4.2356 -2.3477 0.9796
0.5597 4.5441 -2.3472 0.9796
0.1530 4.5756 -2.3471 0.9796
-1.0611 4.4527 -2.3467 0.9796
-1.4532 4.3403 -2.3465 0.9796
-2.2013 4.0169 -2.3483 0.9796
-3.3878 3.5030 -2.4983 0.9783
-3.9550 2.8466 -2.4982 0.9783
-4.1925 2.4833 -2.4981 0.9783
-4.6994 1.2873 -2.4980 0.9783
-3.5463 0.3169 -1.8253 0.9841
-2.6714 0.0000 -1.4261 0.9880
-2.4716 -0.4453 -1.3407 0.9887
-2.4501 -0.6711 -1.3561 0.9885
-2.4352 -0.9069 -1.3872 0.9883
-2.3944 -1.4182 -1.4856 0.9875
-3.7986 -2.7341 -2.4985 0.9790
-3.5404 -3.0615 -2.4986 0.9790
-2.2498 -4.1053 -2.4991 0.9790
-1.4864 -4.4397 -2.4994 0.9790
-1.0854 -4.5546 -2.4996 0.9790
0.5725 -4.6482 -2.5001 0.9790
0.9840 -4.5790 -2.5003 0.9790
3.1810 -3.4393 -2.5010 0.9790
3.4746 -3.1427 -2.5011 0.9790
4.4903 -1.3382 -2.5013 0.9790
4.6843 -0.1044 -2.5013 0.9790
4.6750 0.3130 -2.5013 0.9790
4.6285 0.7278 -2.5013 0.9790
4.5453 1.1369 -2.5012 0.9790
4.0830 2.2971 -2.5010 0.9790
3.8623 2.6513 -2.5009 0.9790
3.5653 2.9469 -2.4693 0.9792
2.8398 3.3589 -2.3481 0.9803
2.5294 3.5982 -2.3480 0.9803
2.1990 3.8088 -2.3478 0.9803
1.1144 4.2537 -2.3474 0.9803
0.7313 4.3358 -2.3473 0.9803
-1.2085 4.2264 -2.3466 0.9803
-2.4299 4.0003 -2.4986 0.9790
-2.7762 3.7679 -2.4985 0.9790
-3.1005 3.5058 -2.4984 0.9790
-3.9161 2.5619 -2.4982 0.9790
-4.3081 1.8269 -2.4981 0.9790
-2.8952 0.1291 -1.5471 0.9869
-2.5303 -0.1128 -1.3521 0.9886
-2.4861 -0.3343 -1.3391 0.9887
-2.4353 -0.7853 -1.3660 0.9885
-2.4151 -1.2887 -1.4613 0.9877
-3.1009 -3.5063 -2.4988 0.9790
-1.6827 -4.3689 -2.4993 0.9790
-0.8815 -4.5986 -2.4996 0.9790
-0.4687 -4.6591 -2.4998 0.9790
-0.0522 -4.6826 -2.4999 0.9790
0.7790 -4.6182 -2.5002 0.9790
1.5856 -4.4073 -2.5005 0.9790
1.9717 -4.2489 -2.5006 0.9790
2.3422 -4.0568 -2.5007 0.9790
3.8627 -2.6515 -2.5012 0.9790
4.2718 -1.9248 -2.5013 0.9790
4.5455 -1.1369 -2.5013 0.9790
4.6286 -0.7278 -2.5013 0.9790
4.6750 -0.3129 -2.5013 0.9790
4.6564 0.5209 -2.5013 0.9790
4.5914 0.9333 -2.5012 0.9790
4.1814 2.1130 -2.5010 0.9790
3.9766 2.4766 -2.5009 0.9790
3.7402 2.8206 -2.5008 0.9790
3.3226 3.0051 -2.3916 0.9799
2.9925 3.2354 -2.3527 0.9802
2.6873 3.4820 -2.3480 0.9803
0.9238 4.2990 -2.3474 0.9803
0.5375 4.3639 -2.3472 0.9803
-0.2448 4.3896 -2.3470 0.9803
-0.6344 4.3501 -2.3468 0.9803
-1.0191 4.2761 -2.3467 0.9803
-2.1855 3.9881 -2.4277 0.9796
-2.6057 3.8879 -2.4986 0.9790
-3.2535 3.3641 -2.4984 0.9790
-3.5399 3.0611 -2.4983 0.9790
-4.0263 2.3848 -2.4982 0.9790
-4.5131 1.2363 -2.4981 0.9790
-4.6052 0.8297 -2.4981 0.9790
-3.5314 0.3156 -1.8927 0.9841
-2.5975 0.0000 -1.4427 0.9882
-2.4347 -0.2176 -1.3576 0.9889
-2.4018 -0.6579 -1.3831 0.9887
-2.3823 -0.8872 -1.4119 0.9884
-2.3733 -1.1337 -1.4608 0.9880
-3.4030 -2.9427 -2.4987 0.9796
-3.1278 -3.2340 -2.4988 0.9796
-1.4287 -4.2674 -2.4994 0.9796
-1.0433 -4.3779 -2.4996 0.9796
-0.6496 -4.4536 -2.4997 0.9796
0.1504 -4.4987 -2.5000 0.9796
0.5503 -4.4677 -2.5001 0.9796
1.3338 -4.2998 -2.5004 0.9796
2.0753 -3.9956 -2.5006 0.9796
3.3397 -3.0206 -2.5010 0.9796
4.0194 -2.0311 -2.5012 0.9796
4.1843 -1.6653 -2.5012 0.9796
4.4133 -0.8970 -2.5013 0.9796
4.4488 0.6996 -2.5012 0.9796
4.2541 1.4772 -2.5011 0.9796
4.1056 1.8499 -2.5010 0.9796
3.4706 2.8686 -2.5007 0.9796
3.0801 3.0460 -2.4059 0.9804
2.4312 3.4585 -2.3479 0.9808
1.7793 3.8344 -2.3477 0.9808
1.4309 3.9773 -2.3476 0.9808
0.7030 4.1675 -2.3473 0.9808
0.3292 4.2133 -2.3472 0.9808
-0.0471 4.2256 -2.3470 0.9809
-0.4230 4.2045 -2.3469 0.9809
-0.7955 4.1499 -2.3468 0.9809
-2.3357 3.8451 -2.4987 0.9796
-2.9802 3.3698 -2.4985 0.9796
-3.5302 2.7878 -2.4983 0.9796
-3.7643 2.4625 -2.4983 0.9796
-3.9684 2.1176 -2.4982 0.9796
-4.1411 1.7560 -2.4982 0.9796
-4.2809 1.3804 -2.4981 0.9796
-4.4578 0.5995 -2.4981 0.9796
-2.5020 0.1116 -1.3910 0.9886
-2.3600 -1.2593 -1.4857 0.9878
-2.2661 -1.4824 -1.5039 0.9877
-2.9806 -3.3702 -2.4988 0.9796
-2.6690 -3.6223 -2.4990 0.9796
-0.8473 -4.4201 -2.4996 0.9796
-0.4505 -4.4783 -2.4998 0.9796
-0.0501 -4.5008 -2.4999 0.9796
0.7488 -4.4389 -2.5002 0.9796
1.1409 -4.3549 -2.5003 0.9796
1.5241 -4.2363 -2.5005 0.9796
1.8952 -4.0840 -2.5006 0.9796
2.9072 -3.4386 -2.5009 0.9796
3.2018 -3.1663 -2.5010 0.9796
3.7127 -2.5486 -2.5011 0.9796
3.9249 -2.2081 -2.5012 0.9796
4.2543 -1.4772 -2.5012 0.9796
4.4489 -0.6995 -2.5013 0.9796
4.4935 -0.3008 -2.5013 0.9796
4.5024 0.1004 -2.5012 0.9796
4.4756 0.5007 -2.5012 0.9796
4.4132 0.8970 -2.5012 0.9796
4.1840 1.6652 -2.5010 0.9796
4.0190 2.0309 -2.5010 0.9796
3.8222 2.3805 -2.5009 0.9796
2.8723 3.1055 -2.3494 0.9808
2.5829 3.3468 -2.3480 0.9808
1.2523 4.0370 -2.3475 0.9808
0.8879 4.1322 -2.3474 0.9808
0.1412 4.2237 -2.3471 0.9808
-0.2353 4.2192 -2.3470 0.9809
-0.6098 4.1814 -2.3469 0.9809
-1.3443 4.0148 -2.3514 0.9808
-2.5046 3.7372 -2.4986 0.9796
-2.8272 3.4993 -2.4985 0.9796
-3.6509 2.6277 -2.4983 0.9796
-3.8702 2.2923 -2.4982 0.9796
-4.0588 1.9387 -2.4982 0.9796
-4.3381 1.1884 -2.4981 0.9796
-4.4266 0.7975 -2.4981 0.9796
-2.3780 -0.4284 -1.3951 0.9889
-2.2443 -1.3293 -1.5060 0.9880
-2.1928 -1.5783 -1.5599 0.9876
-3.2737 -2.8309 -2.4987 0.9802
-3.0089 -3.1111 -2.4988 0.9802
-2.0803 -3.7960 -2.4992 0.9802
-1.7343 -3.9664 -2.4993 0.9802
-1.0036 -4.2114 -2.4996 0.9802
0.1447 -4.3277 -2.5000 0.9802
0.5293 -4.2978 -2.5001 0.9802
1.2831 -4.1363 -2.5004 0.9802
2.3306 -3.6508 -2.5007 0.9802
2.6464 -3.4290 -2.5008 0.9802
2.9412 -3.1800 -2.5009 0.9802
3.6772 -2.2901 -2.5011 0.9802
3.8665 -1.9538 -2.5011 0.9802
4.1517 -1.2373 -2.5012 0.9802
4.2454 -0.8629 -2.5012 0.9802
4.3311 -0.0965 -2.5012 0.9802
4.3225 0.2894 -2.5012 0.9802
4.2795 0.6729 -2.5011 0.9802
4.2025 1.0512 -2.5011 0.9802
3.7752 2.1239 -2.5009 0.9802
3.5711 2.4514 -2.5008 0.9802
3.3386 2.7594 -2.5007 0.9802
3.0666 3.0326 -2.4900 0.9803
2.6472 3.1311 -2.3672 0.9812
2.3387 3.3269 -2.3479 0.9814
2.0332 3.5217 -2.3478 0.9814
1.7116 3.6885 -2.3477 0.9814
1.0304 3.9332 -2.3474 0.9814
0.6762 4.0090 -2.3473 0.9814
0.3167 4.0531 -2.3472 0.9814
-0.7652 3.9921 -2.3468 0.9814
-1.1175 3.9080 -2.3467 0.9814
-1.4903 3.8695 -2.3940 0.9810
-1.9089 3.8844 -2.4988 0.9802
-2.8669 3.2417 -2.4985 0.9802
-3.3961 2.6819 -2.4984 0.9802
-3.8176 2.0371 -2.4983 0.9802
-2.4294 0.1083 -1.4040 0.9888
-2.3397 -0.7545 -1.4193 0.9887
-2.3269 -0.9867 -1.4592 0.9884
-2.1940 -1.4352 -1.5137 0.9880
-3.3965 -2.6821 -2.4987 0.9802
-2.2473 -3.6995 -2.4991 0.9802
-0.8151 -4.2521 -2.4996 0.9802
-0.4334 -4.3080 -2.4998 0.9802
