ply
format ascii 1.0
element vertex 1591
property float32 x
property float32 y
property float32 z
property float32 I
end_header
9.2756 7.6665 -2.3287 0.9522
6.0169 10.4215 -2.3287 0.9522
5.0654 10.9157 -2.3287 0.9522
4.0738 11.3232 -2.3287 0.9522
2.0016 11.8661 -2.3287 0.9522
-2.2654 11.8186 -2.3287 0.9522
-4.3250 11.2297 -2.3287 0.9522
-6.2475 10.2850 -2.3287 0.9522
-8.7428 8.2689 -2.3287 0.9522
-9.4441 7.4579 -2.3287 0.9522
-12.2025 3.9349 -2.4811 0.9491
-12.5043 2.8332 -2.4811 0.9491
-12.8085 -0.5711 -2.4811 0.9491
-12.5043 -2.8331 -2.4811 0.9491
-11.8039 -5.0053 -2.4811 0.9491
-11.3116 -6.0360 -2.4811 0.9491
-10.7294 -7.0188 -2.4811 0.9491
-10.0621 -7.9459 -2.4811 0.9491
-9.3149 -8.8100 -2.4811 0.9491
-8.4938 -9.6040 -2.4811 0.9491
-5.6547 -11.5069 -2.4811 0.9491
-4.6081 -11.9645 -2.4811 0.9491
-3.5249 -12.3272 -2.4811 0.9491
-1.2834 -12.7569 -2.4811 0.9491
0.9988 -12.7823 -2.4811 0.9491
2.1326 -12.6426 -2.4811 0.9491
4.3404 -12.0642 -2.4811 0.9491
5.3969 -11.6300 -2.4811 0.9491
6.4106 -11.1035 -2.4811 0.9491
7.3735 -10.4888 -2.4811 0.9491
8.2778 -9.7909 -2.4811 0.9491
9.1164 -9.0153 -2.4811 0.9491
11.1743 -6.2865 -2.4811 0.9491
12.1119 -4.2057 -2.4811 0.9491
12.4381 -3.1110 -2.4811 0.9491
12.6656 -1.9915 -2.4811 0.9491
12.7926 -0.8563 -2.4811 0.9491
12.8181 0.2857 -2.4811 0.9491
11.7926 2.3970 -2.3287 0.9522
11.5325 3.4371 -2.3287 0.9522
11.1808 4.4499 -2.3287 0.9522
10.7403 5.4274 -2.3287 0.9522
9.6079 7.2457 -2.3287 0.9522
8.9249 8.0721 -2.3287 0.9522
8.1710 8.8344 -2.3287 0.9522
6.4751 10.1432 -2.3287 0.9522
5.5467 10.6792 -2.3287 0.9522
2.5282 11.7652 -2.3287 0.9522
1.4710 11.9435 -2.3287 0.9522
-0.6699 12.0151 -2.3287 0.9522
-2.7897 11.7060 -2.3287 0.9522
-5.7832 10.5530 -2.3287 0.9522
-6.6995 9.9964 -2.3287 0.9522
-8.3658 8.6502 -2.3287 0.9522
-9.1025 7.8712 -2.3287 0.9522
-9.7669 7.0298 -2.3287 0.9522
-10.3538 6.1327 -2.3287 0.9522
-11.5692 5.5262 -2.4811 0.9491
-12.3657 3.3874 -2.4811 0.9491
-11.7690 0.0000 -2.4811 0.9530
-10.1261 -5.9977 -2.4811 0.9530
-8.9022 -7.6980 -2.4811 0.9530
-8.1817 -8.4598 -2.4811 0.9530
-7.3963 -9.1545 -2.4811 0.9530
-6.5521 -9.7764 -2.4811 0.9530
-5.6560 -10.3208 -2.4811 0.9530
-4.7149 -10.7833 -2.4811 0.9530
-2.7283 -11.4484 -2.4811 0.9530
-1.6985 -11.6458 -2.4811 0.9530
-0.6552 -11.7508 -2.4811 0.9530
0.3933 -11.7624 -2.4811 0.9530
2.4726 -11.5063 -2.4811 0.9530
3.4869 -11.2406 -2.4811 0.9530
5.4246 -10.4443 -2.4811 0.9530
7.1905 -9.3170 -2.4811 0.9530
8.7285 -7.8944 -2.4811 0.9530
9.9900 -6.2218 -2.4811 0.9530
10.5041 -5.3079 -2.4811 0.9530
10.9348 -4.3519 -2.4811 0.9530
11.2788 -3.3614 -2.4811 0.9530
11.5332 -2.3442 -2.4811 0.9530
11.6961 -1.3084 -2.4811 0.9530
11.7661 -0.2621 -2.4811 0.9530
11.7428 0.7862 -2.4811 0.9530
10.7160 2.6803 -2.3287 0.9558
10.4350 3.6235 -2.3287 0.9558
10.0710 4.5379 -2.3287 0.9558
9.6272 5.4162 -2.3287 0.9558
8.5143 7.0373 -2.3287 0.9558
7.8542 7.7672 -2.3287 0.9558
7.1317 8.4354 -2.3287 0.9558
5.5231 9.5663 -2.3287 0.9558
3.7394 10.3940 -2.3287 0.9558
-0.1231 11.0455 -2.3287 0.9558
-1.1057 10.9907 -2.3287 0.9558
-2.0795 10.8487 -2.3287 0.9558
-3.9701 10.3081 -2.3287 0.9558
-4.8718 9.9138 -2.3287 0.9558
-5.2983 7.1909 -1.8830 0.9641
-8.0253 7.5903 -2.3287 0.9558
-9.2439 6.0472 -2.3287 0.9558
-11.2011 3.6119 -2.4811 0.9530
-11.4781 2.6006 -2.4811 0.9530
-11.7573 0.5243 -2.4811 0.9530
-11.7573 -0.5243 -2.4811 0.9530
-10.8352 -4.5945 -2.4811 0.9530
-9.8489 -6.4428 -2.4811 0.9530
-8.5505 -8.0870 -2.4811 0.9530
-2.2156 -11.5586 -2.4811 0.9530
-1.1780 -11.7099 -2.4811 0.9530
1.9575 -11.6051 -2.4811 0.9530
2.9827 -11.3848 -2.4811 0.9530
6.7683 -9.6280 -2.4811 0.9530
7.5984 -8.9874 -2.4811 0.9530
8.3682 -8.2754 -2.4811 0.9530
9.0715 -7.4978 -2.4811 0.9530
10.2572 -5.7706 -2.4811 0.9530
11.1178 -3.8605 -2.4811 0.9530
11.6262 -1.8281 -2.4811 0.9530
11.7661 0.2622 -2.4811 0.9530
10.2632 4.0847 -2.3287 0.9558
8.1924 7.4096 -2.3287 0.9558
7.5004 8.1094 -2.3287 0.9558
5.0915 9.8028 -2.3287 0.9558
4.1988 10.2171 -2.3287 0.9558
2.3207 10.7997 -2.3287 0.9558
-3.5069 10.4747 -2.3287 0.9558
-4.4253 10.1210 -2.3287 0.9558
-5.5436 6.8615 -1.8597 0.9646
-8.3554 7.2253 -2.3287 0.9558
-8.9654 6.4529 -2.3287 0.9558
-9.5041 5.6294 -2.3287 0.9558
-10.6197 5.0726 -2.4811 0.9530
-11.3509 3.1094 -2.4811 0.9530
-11.5826 2.0867 -2.4811 0.9530
-10.8706 0.0000 -2.4811 0.9564
-10.8275 -0.9675 -2.4811 0.9564
-10.4844 -2.8719 -2.4811 0.9564
-9.3531 -5.5398 -2.4811 0.9564
-8.8229 -6.3503 -2.4811 0.9564
-7.5572 -7.8140 -2.4811 0.9564
-6.8317 -8.4556 -2.4811 0.9564
-6.0519 -9.0301 -2.4811 0.9564
-3.4512 -10.3081 -2.4811 0.9564
-2.5200 -10.5744 -2.4811 0.9564
-1.5688 -10.7568 -2.4811 0.9564
0.3633 -10.8645 -2.4811 0.9564
2.2838 -10.6280 -2.4811 0.9564
3.2207 -10.3825 -2.4811 0.9564
4.1320 -10.0546 -2.4811 0.9564
5.8493 -9.1627 -2.4811 0.9564
6.6416 -8.6057 -2.4811 0.9564
8.0622 -7.2918 -2.4811 0.9564
9.2274 -5.7468 -2.4811 0.9564
10.4178 -3.1048 -2.4811 0.9564
10.8032 -1.2085 -2.4811 0.9564
10.8679 -0.2421 -2.4811 0.9564
9.8980 2.4757 -2.3287 0.9590
9.6384 3.3468 -2.3287 0.9590
5.8677 8.3469 -2.3287 0.9590
5.1015 8.8360 -2.3287 0.9590
4.2948 9.2550 -2.3287 0.9590
2.5858 9.8698 -2.3287 0.9590
1.6970 10.0608 -2.3287 0.9590
-0.1137 10.2023 -2.3287 0.9590
-1.0213 10.1517 -2.3287 0.9590
-4.4999 9.1570 -2.3287 0.9590
-6.7592 7.6428 -2.3287 0.9590
-7.4126 7.0109 -2.3287 0.9590
-8.0072 6.3233 -2.3287 0.9590
-9.5906 5.1177 -2.4811 0.9564
-10.3460 3.3362 -2.4811 0.9564
-10.6019 2.4021 -2.4811 0.9564
-10.7736 1.4489 -2.4811 0.9564
-10.8598 -0.4842 -2.4811 0.9564
-10.3460 -3.3361 -2.4811 0.9564
-10.0080 -4.2437 -2.4811 0.9564
-9.5906 -5.1177 -2.4811 0.9564
-8.5312 -6.7370 -2.4811 0.9564
-7.2016 -8.1429 -2.4811 0.9564
-6.4482 -8.7515 -2.4811 0.9564
-4.7944 -9.7562 -2.4811 0.9564
-3.9070 -10.1442 -2.4811 0.9564
-2.9886 -10.4517 -2.4811 0.9564
-2.0465 -10.6762 -2.4811 0.9564
-1.0881 -10.8160 -2.4811 0.9564
0.8469 -10.8375 -2.4811 0.9564
2.7550 -10.5156 -2.4811 0.9564
3.6800 -10.2287 -2.4811 0.9564
7.0184 -8.3013 -2.4811 0.9564
7.7294 -7.6437 -2.4811 0.9564
10.5458 -2.6376 -2.4811 0.9564
10.7387 -1.6885 -2.4811 0.9564
10.8679 0.2422 -2.4811 0.9564
9.9985 2.0323 -2.3287 0.9590
9.7779 2.9142 -2.3287 0.9590
8.1461 6.1433 -2.3287 0.9590
7.5670 6.8440 -2.3287 0.9590
4.7028 9.0545 -2.3287 0.9590
3.8782 9.4371 -2.3287 0.9590
2.1435 9.9753 -2.3287 0.9590
-0.5680 10.1871 -2.3287 0.9590
-1.4725 10.0961 -2.3287 0.9590
-2.3652 9.9250 -2.3287 0.9590
-4.0875 9.3484 -2.3287 0.9590
-4.9033 8.9475 -2.3287 0.9590
-7.0930 7.3341 -2.3287 0.9590
-7.7176 6.6737 -2.3287 0.9590
-8.7885 5.2055 -2.3314 0.9590
-9.8090 4.6854 -2.4811 0.9564
-10.6984 1.9274 -2.4811 0.9564
-10.0942 0.0000 -2.4811 0.9593
-10.0541 -0.8984 -2.4811 0.9593
-9.9342 -1.7897 -2.4811 0.9593
-9.1084 -4.3507 -2.4811 0.9593
-8.1927 -5.8967 -2.4811 0.9593
-7.6353 -6.6025 -2.4811 0.9593
-7.0174 -7.2559 -2.4811 0.9593
-6.3437 -7.8517 -2.4811 0.9593
-4.8511 -8.8520 -2.4811 0.9593
-4.0439 -9.2487 -2.4811 0.9593
-3.2047 -9.5719 -2.4811 0.9593
-2.3400 -9.8192 -2.4811 0.9593
-1.4568 -9.9885 -2.4811 0.9593
-0.5620 -10.0784 -2.4811 0.9593
0.3373 -10.0885 -2.4811 0.9593
2.1207 -9.8688 -2.4811 0.9593
6.1672 -7.9910 -2.4811 0.9593
6.8540 -7.4104 -2.4811 0.9593
7.4864 -6.7710 -2.4811 0.9593
9.0092 -4.5525 -2.4811 0.9593
9.8919 -2.0106 -2.4811 0.9593
10.0316 -1.1221 -2.4811 0.9593
10.0917 -0.2248 -2.4811 0.9593
10.0716 0.6743 -2.4811 0.9593
8.9499 3.1078 -2.3287 0.9617
8.2571 4.6454 -2.3287 0.9617
7.8109 5.3619 -2.3287 0.9617
7.3026 6.0358 -2.3287 0.9617
6.7365 6.6619 -2.3287 0.9617
3.2073 8.9148 -2.3287 0.9617
2.4011 9.1649 -2.3287 0.9617
1.5758 9.3422 -2.3287 0.9617
-0.1055 9.4736 -2.3287 0.9617
-0.9483 9.4266 -2.3287 0.9617
-3.4051 8.8411 -2.3287 0.9617
-4.1785 8.5030 -2.3287 0.9617
-4.9187 8.0973 -2.3287 0.9617
-5.2661 7.1473 -2.1822 0.9641
-6.2764 7.0969 -2.3287 0.9617
-6.8832 6.5101 -2.3287 0.9617
-7.4353 5.8717 -2.3287 0.9617
-10.0041 1.3455 -2.4811 0.9593
-10.0841 0.4497 -2.4811 0.9593
-10.0041 -1.3454 -2.4811 0.9593
-9.6070 -3.0979 -2.4811 0.9593
-8.9056 -4.7521 -2.4811 0.9593
-7.3336 -6.9361 -2.4811 0.9593
-6.6872 -7.5613 -2.4811 0.9593
-5.9876 -8.1265 -2.4811 0.9593
-4.4519 -9.0593 -2.4811 0.9593
-2.7751 -9.7051 -2.4811 0.9593
-1.9003 -9.9137 -2.4811 0.9593
1.6790 -9.9535 -2.4811 0.9593
3.4172 -9.4981 -2.4811 0.9593
4.2490 -9.1563 -2.4811 0.9593
5.8051 -8.2579 -2.4811 0.9593
6.5171 -7.7084 -2.4811 0.9593
7.1773 -7.0977 -2.4811 0.9593
8.3221 -5.7127 -2.4811 0.9593
8.7975 -4.9493 -2.4811 0.9593
9.2031 -4.1467 -2.4811 0.9593
9.5356 -3.3111 -2.4811 0.9593
9.7925 -2.4492 -2.4811 0.9593
10.0716 -0.6742 -2.4811 0.9593
10.0316 1.1222 -2.4811 0.9593
8.8026 3.5034 -2.3287 0.9617
8.4559 4.2730 -2.3287 0.9617
7.5643 5.7046 -2.3287 0.9617
5.7884 7.5003 -2.3287 0.9617
5.0979 7.9857 -2.3287 0.9617
3.6012 8.7631 -2.3287 0.9617
1.1581 9.4032 -2.3287 0.9617
0.3166 9.4689 -2.3287 0.9617
-1.3673 9.3750 -2.3287 0.9617
-5.2745 7.8702 -2.3287 0.9617
-5.5067 6.8157 -2.1538 0.9646
-7.6895 5.5346 -2.3287 0.9617
-8.6850 5.1442 -2.4811 0.9593
-9.4595 3.5228 -2.4811 0.9593
-9.7355 2.6668 -2.4811 0.9593
-9.4161 0.0000 -2.4811 0.9618
-9.3787 -0.8380 -2.4811 0.9618
-9.0815 -2.4876 -2.4811 0.9618
-8.4966 -4.0584 -2.4811 0.9618
-7.6424 -5.5006 -2.4811 0.9618
-7.1224 -6.1590 -2.4811 0.9618
-6.5460 -6.7685 -2.4811 0.9618
-5.9176 -7.3242 -2.4811 0.9618
-4.5252 -8.2574 -2.4811 0.9618
-1.3589 -9.3175 -2.4811 0.9618
-0.5242 -9.4014 -2.4811 0.9618
1.1510 -9.3454 -2.4811 0.9618
3.5792 -8.7093 -2.4811 0.9618
4.3401 -8.3562 -2.4811 0.9618
7.5179 -5.6695 -2.4811 0.9618
7.9927 -4.9779 -2.4811 0.9618
8.4040 -4.2467 -2.4811 0.9618
8.7487 -3.4819 -2.4811 0.9618
9.4138 -0.2097 -2.4811 0.9618
8.0576 3.6306 -2.3287 0.9641
7.2862 5.0017 -2.3287 0.9641
6.8121 5.6304 -2.3287 0.9641
6.2839 6.2143 -2.3287 0.9641
5.7059 6.7490 -2.3287 0.9641
2.2398 8.5492 -2.3287 0.9641
1.4700 8.7146 -2.3287 0.9641
0.6885 8.8109 -2.3287 0.9641
-2.4297 8.4972 -2.3287 0.9641
-3.1763 8.2472 -2.3287 0.9641
-3.8978 7.9318 -2.3287 0.9641
-5.8548 6.6202 -2.3287 0.9641
-6.9358 5.4772 -2.3287 0.9641
-8.6689 3.6760 -2.4811 0.9618
-8.9617 2.8898 -2.4811 0.9618
-9.1833 2.0807 -2.4811 0.9618
-9.4067 -0.4194 -2.4811 0.9618
-9.3321 -1.2550 -2.4811 0.9618
-9.1833 -2.0806 -2.4811 0.9618
-8.9617 -2.8898 -2.4811 0.9618
-8.6689 -3.6759 -2.4811 0.9618
-8.3073 -4.4329 -2.4811 0.9618
-7.8798 -5.1547 -2.4811 0.9618
-7.3897 -5.8356 -2.4811 0.9618
-6.8410 -6.4702 -2.4811 0.9618
-6.2380 -7.0533 -2.4811 0.9618
-5.5854 -7.5806 -2.4811 0.9618
-4.8885 -8.0476 -2.4811 0.9618
-4.1529 -8.4508 -2.4811 0.9618
-3.3842 -8.7869 -2.4811 0.9618
0.7336 -9.3875 -2.4811 0.9618
2.3864 -9.1087 -2.4811 0.9618
7.2579 -5.9988 -2.4811 0.9618
7.7630 -5.3289 -2.4811 0.9618
8.2065 -4.6169 -2.4811 0.9618
8.5849 -3.8681 -2.4811 0.9618
9.1347 -2.2847 -2.4811 0.9618
9.3951 -0.6289 -2.4811 0.9618
9.4138 0.2098 -2.4811 0.9618
13.8762 2.8204 -3.7311 0.9431
8.4696 2.5243 -2.3287 0.9641
8.2113 3.2681 -2.3287 0.9641
7.5018 4.6722 -2.3287 0.9641
7.0562 5.3213 -2.3287 0.9641
6.0009 6.4881 -2.3287 0.9641
5.3996 6.9965 -2.3287 0.9641
4.0735 7.8430 -2.3287 0.9641
3.3593 8.1744 -2.3287 0.9641
1.8567 8.6405 -2.3287 0.9641
1.0803 8.7715 -2.3287 0.9641
0.2953 8.8328 -2.3287 0.9641
-0.4920 8.8240 -2.3287 0.9641
-1.2755 8.7452 -2.3287 0.9641
-2.0488 8.5970 -2.3287 0.9641
-4.2472 7.7503 -2.3287 0.9641
-4.9202 7.3415 -2.3287 0.9641
-5.4882 6.7928 -2.3011 0.9645
-6.1439 6.3528 -2.3287 0.9641
-6.6850 5.7808 -2.3287 0.9641
-7.1729 5.1628 -2.3287 0.9641
-8.1016 4.7987 -2.4811 0.9618
-9.0815 2.4877 -2.4811 0.9618
-9.3787 0.8381 -2.4811 0.9618
-5.0319 0.0000 -1.4157 0.9793
-8.2641 -3.0775 -2.4811 0.9640
-7.5875 -4.4940 -2.4811 0.9640
-7.1573 -5.1515 -2.4811 0.9640
-6.1306 -6.3389 -2.4811 0.9640
-4.9095 -7.3254 -2.4811 0.9640
-3.5329 -8.0799 -2.4811 0.9640
-2.7997 -8.3622 -2.4811 0.9640
-2.0443 -8.5782 -2.4811 0.9640
0.2947 -8.8135 -2.4811 0.9640
3.3520 -8.1566 -2.4811 0.9640
4.0647 -7.8259 -2.4811 0.9640
4.7451 -7.4330 -2.4811 0.9640
5.3878 -6.9812 -2.4811 0.9640
5.9878 -6.4739 -2.4811 0.9640
7.4855 -4.6620 -2.4811 0.9640
7.8707 -3.9772 -2.4811 0.9640
8.1935 -3.2609 -2.4811 0.9640
8.6418 -1.7565 -2.4811 0.9640
8.8163 -0.1964 -2.4811 0.9640
8.7988 0.5891 -2.4811 0.9640
8.7115 1.3698 -2.4811 0.9640
7.8189 2.7150 -2.3287 0.9662
6.8238 4.6843 -2.3287 0.9662
6.3798 5.2731 -2.3287 0.9662
5.8851 5.8200 -2.3287 0.9662
4.7600 6.7712 -2.3287 0.9662
4.1384 7.1680 -2.3287 0.9662
3.4840 7.5079 -2.3287 0.9662
2.0976 8.0067 -2.3287 0.9662
1.3767 8.1616 -2.3287 0.9662
-0.0922 8.2764 -2.3287 0.9662
-0.8285 8.2354 -2.3287 0.9662
-2.9748 7.7238 -2.3287 0.9662
-4.2971 7.0740 -2.3287 0.9662
-5.4833 6.2001 -2.3287 0.9662
-6.0133 5.6874 -2.3287 0.9662
-7.3797 4.8276 -2.4811 0.9640
-7.7801 4.1517 -2.4811 0.9640
-8.6005 1.9487 -2.4811 0.9640
-8.8098 0.3929 -2.4811 0.9640
-4.2110 -0.1878 -1.1860 0.9826
-3.7396 -0.5029 -1.0616 0.9844
-3.7659 -0.8532 -1.0864 0.9841
-8.3930 -2.7063 -2.4811 0.9640
-8.1188 -3.4426 -2.4811 0.9640
-7.7801 -4.1515 -2.4811 0.9640
-7.3797 -4.8276 -2.4811 0.9640
-5.8421 -6.6057 -2.4811 0.9640
-5.2310 -7.0995 -2.4811 0.9640
-4.5783 -7.5369 -2.4811 0.9640
-3.8893 -7.9145 -2.4811 0.9640
-3.1694 -8.2292 -2.4811 0.9640
-2.4244 -8.4786 -2.4811 0.9640
-0.8827 -8.7742 -2.4811 0.9640
-0.0982 -8.8179 -2.4811 0.9640
0.6870 -8.7917 -2.4811 0.9640
2.9853 -8.2978 -2.4811 0.9640
3.7120 -7.9992 -2.4811 0.9640
4.4093 -7.6370 -2.4811 0.9640
5.0715 -7.2143 -2.4811 0.9640
6.2703 -6.2008 -2.4811 0.9640
7.6857 -4.3239 -2.4811 0.9640
8.3306 -2.8926 -2.4811 0.9640
8.5550 -2.1397 -2.4811 0.9640
8.7115 -1.3697 -2.4811 0.9640
8.8163 0.1965 -2.4811 0.9640
8.7639 0.9804 -2.4811 0.9640
8.6418 1.7566 -2.4811 0.9640
7.9420 2.3669 -2.3316 0.9662
6.6083 4.9836 -2.3287 0.9662
6.1386 5.5521 -2.3287 0.9662
5.6200 6.0763 -2.3287 0.9662
5.0569 6.5525 -2.3287 0.9662
3.8150 7.3452 -2.3287 0.9662
2.4522 7.9053 -2.3287 0.9662
1.0117 8.2148 -2.3287 0.9662
0.2766 8.2723 -2.3287 0.9662
-0.4608 8.2640 -2.3287 0.9662
-1.1945 8.1903 -2.3287 0.9662
-1.9187 8.0514 -2.3287 0.9662
-2.6277 7.8487 -2.3287 0.9662
-3.9777 7.2584 -2.3287 0.9662
-6.7206 4.8372 -2.3297 0.9662
-7.9573 3.8010 -2.4811 0.9640
-8.2641 3.0776 -2.4811 0.9640
-8.5052 2.3299 -2.4811 0.9640
-8.6788 1.5636 -2.4811 0.9640
-8.7835 0.7849 -2.4811 0.9640
-3.9677 0.0000 -1.1878 0.9836
-3.4798 -0.6269 -1.0586 0.9853
-3.4925 -0.9567 -1.0841 0.9850
-7.7665 -2.8922 -2.4811 0.9660
-7.1307 -4.2235 -2.4811 0.9660
-6.7264 -4.8414 -2.4811 0.9660
-5.7615 -5.9573 -2.4811 0.9660
-5.2084 -6.4464 -2.4811 0.9660
-4.6139 -6.8845 -2.4811 0.9660
-1.9212 -8.0618 -2.4811 0.9660
-0.4614 -8.2747 -2.4811 0.9660
1.0131 -8.2254 -2.4811 0.9660
1.7411 -8.1026 -2.4811 0.9660
2.4554 -7.9155 -2.4811 0.9660
3.8200 -7.3547 -2.4811 0.9660
5.0635 -6.5609 -2.4811 0.9660
5.6273 -6.0841 -2.4811 0.9660
6.6169 -4.9900 -2.4811 0.9660
7.0348 -4.3813 -2.4811 0.9660
8.2362 -0.9213 -2.4811 0.9660
8.2855 -0.1846 -2.4811 0.9660
8.2691 0.5536 -2.4811 0.9660
8.1870 1.2874 -2.4811 0.9660
7.3482 2.5516 -2.3287 0.9680
7.0919 3.1955 -2.3287 0.9680
6.7793 3.8140 -2.3287 0.9680
5.5308 5.4696 -2.3287 0.9680
3.2743 7.0559 -2.3287 0.9680
1.9714 7.5247 -2.3287 0.9680
1.2938 7.6702 -2.3287 0.9680
-0.0867 7.7781 -2.3287 0.9680
-0.7786 7.7396 -2.3287 0.9680
-3.4306 6.9812 -2.3287 0.9680
-4.0384 6.6481 -2.3287 0.9680
-4.6141 6.2623 -2.3287 0.9680
-6.1046 4.8208 -2.3287 0.9680
-6.9354 4.5370 -2.4811 0.9660
-7.6300 3.2354 -2.4811 0.9660
-7.8877 2.5435 -2.4811 0.9660
-3.4642 -0.7849 -1.0634 0.9853
-7.8877 -2.5434 -2.4811 0.9660
-5.4904 -6.2080 -2.4811 0.9660
-4.9160 -6.6721 -2.4811 0.9660
-2.9786 -7.7338 -2.4811 0.9660
-2.2785 -7.9682 -2.4811 0.9660
-1.5602 -8.1394 -2.4811 0.9660
-0.8296 -8.2460 -2.4811 0.9660
-0.0923 -8.2870 -2.4811 0.9660
1.3785 -8.1721 -2.4811 0.9660
2.8056 -7.7982 -2.4811 0.9660
4.1438 -7.1772 -2.4811 0.9660
4.7662 -6.7799 -2.4811 0.9660
5.8928 -5.8275 -2.4811 0.9660
7.2230 -4.0636 -2.4811 0.9660
7.5560 -3.4045 -2.4811 0.9660
7.8290 -2.7185 -2.4811 0.9660
8.0399 -2.0109 -2.4811 0.9660
8.1870 -1.2873 -2.4811 0.9660
6.9425 3.5082 -2.3287 0.9680
6.6027 4.1123 -2.3287 0.9680
5.7690 5.2178 -2.3287 0.9680
5.2817 5.7105 -2.3287 0.9680
4.7525 6.1580 -2.3287 0.9680
4.1855 6.5565 -2.3287 0.9680
2.9567 7.1947 -2.3287 0.9680
2.3046 7.4293 -2.3287 0.9680
1.6342 7.6050 -2.3287 0.9680
-3.1163 7.1271 -2.3287 0.9680
-3.7382 6.8214 -2.3287 0.9680
-4.8885 6.0506 -2.3287 0.9680
-7.7665 2.8923 -2.4811 0.9660
-3.7563 0.0000 -1.1929 0.9844
-3.3867 -0.3026 -1.0798 0.9858
-7.3213 -2.7264 -2.4811 0.9677
-6.3409 -4.5639 -2.4811 0.9677
-5.9095 -5.1101 -2.4811 0.9677
-5.4312 -5.6158 -2.4811 0.9677
-4.9098 -6.0769 -2.4811 0.9677
-4.3495 -6.4898 -2.4811 0.9677
-3.1299 -7.1582 -2.4811 0.9677
-2.4803 -7.4083 -2.4811 0.9677
-1.8111 -7.5997 -2.4811 0.9677
0.2611 -7.8082 -2.4811 0.9677
0.9550 -7.7539 -2.4811 0.9677
2.3147 -7.4617 -2.4811 0.9677
2.9696 -7.2261 -2.4811 0.9677
5.3048 -5.7354 -2.4811 0.9677
6.2376 -4.7040 -2.4811 0.9677
6.6316 -4.1301 -2.4811 0.9677
6.9729 -3.5235 -2.4811 0.9677
7.6560 -1.5561 -2.4811 0.9677
7.7641 -0.8685 -2.4811 0.9677
7.8106 -0.1740 -2.4811 0.9677
7.5791 1.8957 -2.4811 0.9677
6.9269 2.4054 -2.3287 0.9697
6.3907 3.5954 -2.3287 0.9697
5.6520 4.6715 -2.3287 0.9697
5.2138 5.1561 -2.3287 0.9697
4.7342 5.5997 -2.3287 0.9697
4.2170 5.9988 -2.3287 0.9697
3.0866 6.6514 -2.3287 0.9697
2.4823 6.8998 -2.3287 0.9697
-1.3804 7.2016 -2.3287 0.9697
-2.0159 7.0502 -2.3287 0.9697
-3.8069 6.2671 -2.3287 0.9697
-7.1926 3.0500 -2.4811 0.9677
-7.4355 2.3977 -2.4811 0.9677
-4.3818 0.1954 -1.3930 0.9818
-6.5379 -4.2768 -2.4811 0.9677
-5.1757 -5.8522 -2.4811 0.9677
-2.1478 -7.5114 -2.4811 0.9677
-0.7820 -7.7733 -2.4811 0.9677
-0.0870 -7.8120 -2.4811 0.9677
0.6086 -7.7888 -2.4811 0.9677
1.2995 -7.7037 -2.4811 0.9677
3.2886 -7.0867 -2.4811 0.9677
4.4930 -6.3913 -2.4811 0.9677
5.0440 -5.9660 -2.4811 0.9677
5.5550 -5.4934 -2.4811 0.9677
6.0219 -4.9772 -2.4811 0.9677
6.4410 -4.4214 -2.4811 0.9677
7.3803 -2.5627 -2.4811 0.9677
7.8106 0.1741 -2.4811 0.9677
7.7641 0.8686 -2.4811 0.9677
7.6560 1.5562 -2.4811 0.9677
7.4871 2.2314 -2.4811 0.9677
6.5445 3.3071 -2.3287 0.9697
6.2242 3.8765 -2.3287 0.9697
5.4383 4.9187 -2.3287 0.9697
4.9789 5.3832 -2.3287 0.9697
3.3798 6.5073 -2.3287 0.9697
2.7872 6.7823 -2.3287 0.9697
1.5405 7.1690 -2.3287 0.9697
0.8963 7.2777 -2.3287 0.9697
-1.0582 7.2560 -2.3287 0.9697
-2.3280 6.9534 -2.3287 0.9697
-3.5239 6.4304 -2.3287 0.9697
-4.0823 6.0913 -2.3287 0.9697
-4.6082 5.7037 -2.3287 0.9697
-6.3409 4.5639 -2.4811 0.9677
-7.5350 2.0641 -2.4811 0.9677
-7.6888 1.3852 -2.4811 0.9677
-3.2019 -0.2861 -1.0801 0.9865
-3.1349 -0.8587 -1.0921 0.9864
-4.1113 -6.1345 -2.4811 0.9693
-3.5490 -6.4760 -2.4811 0.9693
-2.9585 -6.7662 -2.4811 0.9693
-2.3445 -7.0027 -2.4811 0.9693
-0.4111 -7.3733 -2.4811 0.9693
3.4038 -6.5535 -2.4811 0.9693
4.5119 -5.8461 -2.4811 0.9693
5.4769 -4.9535 -2.4811 0.9693
6.5910 -3.3305 -2.4811 0.9693
6.8613 -2.7307 -2.4811 0.9693
7.2368 -1.4709 -2.4811 0.9693
7.1641 1.7919 -2.4811 0.9693
6.8482 2.3780 -2.4356 0.9699
6.3193 2.8474 -2.3287 0.9712
6.0408 3.3986 -2.3287 0.9712
5.7143 3.9227 -2.3287 0.9712
4.4750 5.2930 -2.3287 0.9712
3.9861 5.6703 -2.3287 0.9712
3.4656 6.0026 -2.3287 0.9712
2.9176 6.2872 -2.3287 0.9712
1.7566 6.7049 -2.3287 0.9712
1.1529 6.8346 -2.3287 0.9712
0.5400 6.9102 -2.3287 0.9712
-0.0772 6.9308 -2.3287 0.9712
-1.9055 6.6641 -2.3287 0.9712
-3.5984 5.9239 -2.3287 0.9712
-5.7955 4.5767 -2.4811 0.9693
-6.1799 4.0427 -2.4811 0.9693
-6.5152 3.4767 -2.4811 0.9693
-6.7988 2.8830 -2.4811 0.9693
-7.0284 2.2664 -2.4811 0.9693
-4.1559 0.1853 -1.3977 0.9826
-3.2675 -0.1457 -1.0989 0.9863
-3.1639 -0.4255 -1.0726 0.9866
-3.1355 -0.7104 -1.0802 0.9865
-3.1418 -1.0131 -1.1091 0.9862
-6.1799 -4.0427 -2.4811 0.9693
-4.8923 -5.5317 -2.4811 0.9693
-4.3805 -5.9452 -2.4811 0.9693
-3.8339 -6.3115 -2.4811 0.9693
-3.2570 -6.6277 -2.4811 0.9693
-2.0302 -7.1002 -2.4811 0.9693
-1.3902 -7.2527 -2.4811 0.9693
-0.7392 -7.3476 -2.4811 0.9693
1.2283 -7.2819 -2.4811 0.9693
2.5000 -6.9487 -2.4811 0.9693
3.1085 -6.6986 -2.4811 0.9693
3.6924 -6.3953 -2.4811 0.9693
4.2470 -6.0413 -2.4811 0.9693
5.2508 -5.1926 -2.4811 0.9693
6.0883 -4.1794 -2.4811 0.9693
6.4361 -3.6208 -2.4811 0.9693
6.7329 -3.0336 -2.4811 0.9693
6.9762 -2.4223 -2.4811 0.9693
7.1641 -1.7918 -2.4811 0.9693
7.2951 -1.1471 -2.4811 0.9693
7.3829 0.1646 -2.4811 0.9693
7.2368 1.4710 -2.4811 0.9693
7.0771 2.1093 -2.4811 0.9693
6.1862 3.1261 -2.3287 0.9712
5.5339 4.1734 -2.3287 0.9712
5.1405 4.6494 -2.3287 0.9712
3.7295 5.8423 -2.3287 0.9712
3.1947 6.1510 -2.3287 0.9712
2.6346 6.4110 -2.3287 0.9712
2.0535 6.6200 -2.3287 0.9712
0.8473 6.8792 -2.3287 0.9712
0.2316 6.9273 -2.3287 0.9712
-0.3859 6.9204 -2.3287 0.9712
-1.0003 6.8587 -2.3287 0.9712
-2.2005 6.5726 -2.3287 0.9712
-2.7768 6.3507 -2.3287 0.9712
-3.3310 6.0783 -2.3287 0.9712
-5.9937 4.3140 -2.4811 0.9693
-6.3538 3.7635 -2.4811 0.9693
-6.9204 2.5773 -2.4811 0.9693
-7.1224 1.9511 -2.4811 0.9693
-7.3554 0.6573 -2.4811 0.9693
-3.4902 0.0000 -1.2376 0.9853
-3.0930 -0.2764 -1.1011 0.9869
-3.0442 -0.5484 -1.0968 0.9870
-3.0229 -0.8280 -1.1114 0.9868
-5.6792 -4.0876 -2.4811 0.9707
-5.2928 -4.5769 -2.4811 0.9707
-4.8645 -5.0298 -2.4811 0.9707
-4.3975 -5.4428 -2.4811 0.9707
-3.8956 -5.8126 -2.4811 0.9707
-3.3628 -6.1362 -2.4811 0.9707
-2.2215 -6.6352 -2.4811 0.9707
0.8553 -6.9448 -2.4811 0.9707
1.4701 -6.8411 -2.4811 0.9707
3.2252 -6.2096 -2.4811 0.9707
4.2751 -5.5394 -2.4811 0.9707
4.7512 -5.1369 -2.4811 0.9707
5.1896 -4.6936 -2.4811 0.9707
5.5867 -4.2131 -2.4811 0.9707
6.7058 -1.9985 -2.4811 0.9707
6.8571 -1.3937 -2.4811 0.9707
6.9539 -0.7779 -2.4811 0.9707
6.9817 0.4674 -2.4811 0.9707
6.9124 1.0870 -2.4811 0.9707
6.7882 1.6979 -2.4811 0.9707
6.6101 2.2953 -2.4811 0.9707
5.0622 4.1841 -2.3287 0.9725
4.6697 4.6180 -2.3287 0.9725
3.7769 5.3728 -2.3287 0.9725
3.2837 5.6877 -2.3287 0.9725
2.7645 5.9574 -2.3287 0.9725
2.2233 6.1798 -2.3287 0.9725
1.0924 6.4761 -2.3287 0.9725
-0.0732 6.5671 -2.3287 0.9725
-1.2364 6.4501 -2.3287 0.9725
-1.8056 6.3145 -2.3287 0.9725
-2.8965 5.8943 -2.3287 0.9725
-3.4096 5.6131 -2.3287 0.9725
-5.8557 3.8306 -2.4811 0.9707
-6.4421 2.7317 -2.4811 0.9707
-6.6596 2.1475 -2.4811 0.9707
-6.8243 1.5462 -2.4811 0.9707
-6.9349 0.9327 -2.4811 0.9707
-3.9464 0.1760 -1.4007 0.9834
-3.0595 -0.4114 -1.0946 0.9870
-6.1734 -3.2942 -2.4811 0.9707
-5.4915 -4.3365 -2.4811 0.9707
-4.6356 -5.2415 -2.4811 0.9707
-3.6328 -5.9804 -2.4811 0.9707
-2.5149 -6.5297 -2.4811 0.9707
-1.9237 -6.7276 -2.4811 0.9707
-0.7004 -6.9621 -2.4811 0.9707
-0.0779 -6.9968 -2.4811 0.9707
2.3688 -6.5841 -2.4811 0.9707
3.4987 -6.0598 -2.4811 0.9707
4.0241 -5.7243 -2.4811 0.9707
5.3935 -4.4578 -2.4811 0.9707
5.7689 -3.9601 -2.4811 0.9707
6.0984 -3.4309 -2.4811 0.9707
6.3796 -2.8745 -2.4811 0.9707
6.6101 -2.2953 -2.4811 0.9707
6.9124 -1.0869 -2.4811 0.9707
6.9956 0.1560 -2.4811 0.9707
6.8571 1.3938 -2.4811 0.9707
6.7058 1.9986 -2.4811 0.9707
5.5747 3.4720 -2.3287 0.9725
5.2436 3.9544 -2.3287 0.9725
4.4594 4.8215 -2.3287 0.9725
4.0125 5.1993 -2.3287 0.9725
3.5339 5.5357 -2.3287 0.9725
2.4964 6.0746 -2.3287 0.9725
1.3798 6.4210 -2.3287 0.9725
0.2195 6.5639 -2.3287 0.9725
-2.6311 6.0175 -2.3287 0.9725
-3.1562 5.7594 -2.3287 0.9725
-4.1274 5.1085 -2.3287 0.9725
-4.5657 4.7209 -2.3287 0.9725
-6.0205 3.5660 -2.4811 0.9707
-6.3140 3.0160 -2.4811 0.9707
-6.9695 0.6229 -2.4811 0.9707
-3.3741 0.0000 -1.2599 0.9857
-2.9455 -0.5306 -1.1176 0.9873
-2.9238 -1.0888 -1.1650 0.9868
-5.9957 -2.8638 -2.4811 0.9720
-5.3929 -3.8815 -2.4811 0.9720
-5.0260 -4.3461 -2.4811 0.9720
-4.6192 -4.7762 -2.4811 0.9720
-3.6992 -5.5195 -2.4811 0.9720
-2.1095 -6.3007 -2.4811 0.9720
-1.5403 -6.4635 -2.4811 0.9720
-0.3699 -6.6342 -2.4811 0.9720
0.2220 -6.6408 -2.4811 0.9720
0.8122 -6.5947 -2.4811 0.9720
1.3960 -6.4962 -2.4811 0.9720
1.9686 -6.3462 -2.4811 0.9720
3.5753 -5.6006 -2.4811 0.9720
4.5117 -4.8779 -2.4811 0.9720
4.9279 -4.4570 -2.4811 0.9720
5.9304 -2.9967 -2.4811 0.9720
6.1736 -2.4570 -2.4811 0.9720
6.3678 -1.8978 -2.4811 0.9720
6.5114 -1.3234 -2.4811 0.9720
6.6034 -0.7387 -2.4811 0.9720
6.6429 -0.1480 -2.4811 0.9720
6.5639 1.0321 -2.4811 0.9720
6.4460 1.6123 -2.4811 0.9720
6.2769 2.1796 -2.4811 0.9720
5.7483 2.5901 -2.3543 0.9734
5.1416 3.5295 -2.3287 0.9737
4.4343 4.3852 -2.3287 0.9737
4.0264 4.7625 -2.3287 0.9737
2.6251 5.6570 -2.3287 0.9737
2.1112 5.8682 -2.3287 0.9737
1.0373 6.1496 -2.3287 0.9737
0.4858 6.2175 -2.3287 0.9737
-0.0695 6.2361 -2.3287 0.9737
-1.7145 5.9962 -2.3287 0.9737
-2.7505 5.5971 -2.3287 0.9737
-5.5604 3.6375 -2.4811 0.9720
-5.8621 3.1282 -2.4811 0.9720
-6.1173 2.5940 -2.4811 0.9720
-6.3239 2.0392 -2.4811 0.9720
-6.5853 0.8856 -2.4811 0.9720
-3.7910 0.1690 -1.4170 0.9839
-3.0832 -0.1375 -1.1525 0.9869
-2.9640 -0.3986 -1.1167 0.9873
-5.5604 -3.6374 -2.4811 0.9720
-5.2146 -4.1179 -2.4811 0.9720
-4.8274 -4.5657 -2.4811 0.9720
-4.4019 -4.9772 -2.4811 0.9720
-3.9414 -5.3493 -2.4811 0.9720
-1.8267 -6.3884 -2.4811 0.9720
-0.6651 -6.6111 -2.4811 0.9720
-0.0740 -6.6441 -2.4811 0.9720
0.5176 -6.6243 -2.4811 0.9720
1.1052 -6.5519 -2.4811 0.9720
2.2494 -6.2522 -2.4811 0.9720
3.3223 -5.7543 -2.4811 0.9720
4.2899 -5.0741 -2.4811 0.9720
5.1216 -4.2331 -2.4811 0.9720
5.7910 -3.2579 -2.4811 0.9720
6.0580 -2.7296 -2.4811 0.9720
6.4460 -1.6122 -2.4811 0.9720
6.6297 -0.4438 -2.4811 0.9720
6.6429 0.1481 -2.4811 0.9720
6.5114 1.3235 -2.4811 0.9720
6.3678 1.8978 -2.4811 0.9720
5.2937 3.2970 -2.3287 0.9737
4.6252 4.1833 -2.3287 0.9737
4.2346 4.5784 -2.3287 0.9737
3.8103 4.9371 -2.3287 0.9737
3.3557 5.2566 -2.3287 0.9737
2.8745 5.5344 -2.3287 0.9737
1.8477 5.9564 -2.3287 0.9737
0.2084 6.2329 -2.3287 0.9737
-0.3472 6.2268 -2.3287 0.9737
-0.9000 6.1712 -2.3287 0.9737
-1.4457 6.0666 -2.3287 0.9737
-2.4984 5.7141 -2.3287 0.9737
-3.4720 5.1806 -2.3287 0.9737
-5.0260 4.3462 -2.4811 0.9720
-5.3929 3.8816 -2.4811 0.9720
-6.2268 2.3189 -2.4811 0.9720
-4.2614 0.3808 -1.5976 0.9819
-3.2641 0.0000 -1.2811 0.9861
-2.8518 -0.5138 -1.1373 0.9876
-2.8313 -0.7756 -1.1521 0.9875
-2.8528 -1.0624 -1.1947 0.9870
-5.7045 -2.7248 -2.4811 0.9732
-5.4393 -3.2217 -2.4811 0.9732
-4.7819 -4.1350 -2.4811 0.9732
-4.3949 -4.5443 -2.4811 0.9732
-3.0382 -5.5439 -2.4811 0.9732
-2.0071 -5.9948 -2.4811 0.9732
-1.4655 -6.1496 -2.4811 0.9732
-0.3519 -6.3120 -2.4811 0.9732
1.3282 -6.1807 -2.4811 0.9732
1.8730 -6.0380 -2.4811 0.9732
2.4030 -5.8473 -2.4811 0.9732
2.9139 -5.6102 -2.4811 0.9732
3.8625 -5.0047 -2.4811 0.9732
4.2926 -4.6410 -2.4811 0.9732
5.0474 -3.8064 -2.4811 0.9732
5.3662 -3.3420 -2.4811 0.9732
5.6424 -2.8512 -2.4811 0.9732
5.8738 -2.3377 -2.4811 0.9732
6.2827 -0.7028 -2.4811 0.9732
6.3077 0.4223 -2.4811 0.9732
6.2451 0.9820 -2.4811 0.9732
5.7165 2.5757 -2.4608 0.9734
5.1713 2.9094 -2.3287 0.9748
4.5736 3.7802 -2.3287 0.9748
3.8309 4.5312 -2.3287 0.9748
2.9668 5.1387 -2.3287 0.9748
1.5038 5.7398 -2.3287 0.9748
0.9869 5.8509 -2.3287 0.9748
0.4622 5.9155 -2.3287 0.9748
-0.0661 5.9332 -2.3287 0.9748
-0.5939 5.9038 -2.3287 0.9748
-1.1170 5.8275 -2.3287 0.9748
-1.6313 5.7049 -2.3287 0.9748
-2.1326 5.5371 -2.3287 0.9748
-2.6169 5.3253 -2.3287 0.9748
-3.0805 5.0713 -2.3287 0.9748
-3.5197 4.7770 -2.3287 0.9748
-4.5930 4.3441 -2.4811 0.9732
-5.2904 3.4609 -2.4811 0.9732
-5.5774 2.9763 -2.4811 0.9732
-6.0168 1.9402 -2.4811 0.9732
-6.2654 0.8427 -2.4811 0.9732
-3.0071 -0.1341 -1.1814 0.9871
-2.8403 -0.9159 -1.1712 0.9873
-5.5774 -2.9762 -2.4811 0.9732
-4.9614 -3.9179 -2.4811 0.9732
-4.5930 -4.3440 -2.4811 0.9732
-4.1881 -4.7355 -2.4811 0.9732
-3.7500 -5.0895 -2.4811 0.9732
-3.2821 -5.4031 -2.4811 0.9732
-2.7882 -5.6737 -2.4811 0.9732
-2.2721 -5.8994 -2.4811 0.9732
-1.1901 -6.2088 -2.4811 0.9732
-0.0704 -6.3214 -2.4811 0.9732
0.4925 -6.3026 -2.4811 0.9732
1.6022 -6.1154 -2.4811 0.9732
3.6357 -5.1718 -2.4811 0.9732
4.4951 -4.4452 -2.4811 0.9732
5.2120 -3.5778 -2.4811 0.9732
5.7638 -2.5970 -2.4811 0.9732
5.9721 -2.0737 -2.4811 0.9732
6.3077 -0.4222 -2.4811 0.9732
6.3203 0.1409 -2.4811 0.9732
6.2827 0.7029 -2.4811 0.9732
5.8737 2.3377 -2.4811 0.9732
5.3067 2.6816 -2.3335 0.9748
4.4006 3.9802 -2.3287 0.9748
3.6252 4.6974 -2.3287 0.9748
3.1927 5.0014 -2.3287 0.9748
2.7349 5.2657 -2.3287 0.9748
1.7580 5.6672 -2.3287 0.9748
0.7253 5.8891 -2.3287 0.9748
-0.3303 5.9244 -2.3287 0.9748
-1.3755 5.7720 -2.3287 0.9748
-2.8515 5.2035 -2.3287 0.9748
-3.3034 4.9290 -2.3287 0.9748
-5.4393 3.2218 -2.4811 0.9732
-5.7045 2.7248 -2.4811 0.9732
-5.9244 2.2063 -2.4811 0.9732
-6.2217 1.1209 -2.4811 0.9732
-4.1297 0.3690 -1.6273 0.9823
-2.7831 -0.5014 -1.1645 0.9878
-4.8904 -3.5198 -2.4811 0.9743
-4.5577 -3.9411 -2.4811 0.9743
-3.7867 -4.6868 -2.4811 0.9743
-3.3545 -5.0052 -2.4811 0.9743
-2.8957 -5.2839 -2.4811 0.9743
-2.4139 -5.5207 -2.4811 0.9743
-1.9129 -5.7136 -2.4811 0.9743
-0.8696 -5.9623 -2.4811 0.9743
-0.3354 -6.0160 -2.4811 0.9743
1.2659 -5.8909 -2.4811 0.9743
1.7852 -5.7548 -2.4811 0.9743
2.7773 -5.3471 -2.4811 0.9743
4.0913 -4.4234 -2.4811 0.9743
4.8108 -3.6279 -2.4811 0.9743
5.1146 -3.1853 -2.4811 0.9743
5.3778 -2.7175 -2.4811 0.9743
5.7744 -1.7209 -2.4811 0.9743
5.9047 -1.2001 -2.4811 0.9743
5.9880 -0.6698 -2.4811 0.9743
6.0239 -0.1342 -2.4811 0.9743
4.3591 3.6029 -2.3287 0.9758
3.2523 4.6266 -2.3287 0.9758
2.8276 4.8977 -2.3287 0.9758
2.3805 5.1299 -2.3287 0.9758
1.9145 5.3214 -2.3287 0.9758
1.4333 5.4707 -2.3287 0.9758
0.4406 5.6381 -2.3287 0.9758
-0.0630 5.6550 -2.3287 0.9758
-1.0646 5.5542 -2.3287 0.9758
-2.9361 4.8335 -2.3287 0.9758
-3.3546 4.5530 -2.3287 0.9758
-3.8001 4.2968 -2.3620 0.9755
-4.7287 3.7343 -2.4811 0.9743
-5.0423 3.2986 -2.4811 0.9743
-5.3159 2.8367 -2.4811 0.9743
-5.7346 1.8492 -2.4811 0.9743
-5.8764 1.3315 -2.4811 0.9743
-3.5093 0.1565 -1.4465 0.9849
-2.7946 -0.3758 -1.1611 0.9879
-2.8016 -1.1879 -1.2531 0.9869
-5.3159 -2.8366 -2.4811 0.9743
-4.7287 -3.7342 -2.4811 0.9743
-4.3776 -4.1403 -2.4811 0.9743
-3.5741 -4.8508 -2.4811 0.9743
-3.1282 -5.1497 -2.4811 0.9743
-2.6574 -5.4077 -2.4811 0.9743
-2.1656 -5.6227 -2.4811 0.9743
-1.1343 -5.9176 -2.4811 0.9743
-0.6031 -5.9951 -2.4811 0.9743
-0.0671 -6.0250 -2.4811 0.9743
0.4694 -6.0071 -2.4811 0.9743
1.5270 -5.8286 -2.4811 0.9743
2.0398 -5.6696 -2.4811 0.9743
4.2843 -4.2368 -2.4811 0.9743
4.9676 -3.4100 -2.4811 0.9743
5.2514 -2.9544 -2.4811 0.9743
5.4935 -2.4752 -2.4811 0.9743
5.8453 -1.4620 -2.4811 0.9743
5.9523 -0.9359 -2.4811 0.9743
5.9047 1.2002 -2.4811 0.9743
5.7744 1.7210 -2.4811 0.9743
5.5983 2.2281 -2.4811 0.9743
4.8004 2.9898 -2.3287 0.9758
4.5153 3.4052 -2.3287 0.9758
4.1943 3.7935 -2.3287 0.9758
3.8400 4.1518 -2.3287 0.9758
3.4552 4.4771 -2.3287 0.9758
2.6067 5.0188 -2.3287 0.9758
1.1881 5.5291 -2.3287 0.9758
0.1890 5.6522 -2.3287 0.9758
-0.8162 5.5962 -2.3287 0.9758
-2.2656 5.1817 -2.3287 0.9758
-2.7178 4.9595 -2.3287 0.9758
-3.1484 4.6979 -2.3287 0.9758
-4.8904 3.5199 -2.4811 0.9743
-5.4370 2.5971 -2.4811 0.9743
-5.6465 2.1029 -2.4811 0.9743
-5.9299 1.0684 -2.4811 0.9743
-3.9772 0.3554 -1.6443 0.9829
-2.7539 -0.2461 -1.1927 0.9880
-2.7092 -0.7421 -1.2117 0.9878
-2.7209 -1.0132 -1.2524 0.9874
-4.6684 -3.3601 -2.4811 0.9753
-4.3508 -3.7623 -2.4811 0.9753
-3.6148 -4.4741 -2.4811 0.9753
-2.7643 -5.0441 -2.4811 0.9753
-0.3202 -5.7429 -2.4811 0.9753
0.7031 -5.7088 -2.4811 0.9753
1.2084 -5.6235 -2.4811 0.9753
1.7042 -5.4937 -2.4811 0.9753
2.1864 -5.3202 -2.4811 0.9753
2.6512 -5.1045 -2.4811 0.9753
3.5143 -4.5535 -2.4811 0.9753
3.9056 -4.2227 -2.4811 0.9753
4.2659 -3.8583 -2.4811 0.9753
4.8824 -3.0408 -2.4811 0.9753
5.1337 -2.5941 -2.4811 0.9753
5.3442 -2.1269 -2.4811 0.9753
5.7391 0.3843 -2.4811 0.9753
5.6821 0.8935 -2.4811 0.9753
5.4337 1.8868 -2.4811 0.9753
3.8386 3.7961 -2.3287 0.9768
3.4855 4.1227 -2.3287 0.9768
3.1047 4.4166 -2.3287 0.9768
2.6993 4.6754 -2.3287 0.9768
1.8276 5.0799 -2.3287 0.9768
1.3682 5.2224 -2.3287 0.9768
0.8980 5.3235 -2.3287 0.9768
-0.0601 5.3983 -2.3287 0.9768
-1.0163 5.3022 -2.3287 0.9768
-2.3810 4.8453 -2.3287 0.9768
-2.8028 4.6141 -2.3287 0.9768
-3.2024 4.3463 -2.3287 0.9768
-4.5141 3.5648 -2.4811 0.9753
-5.0746 2.7079 -2.4811 0.9753
-5.7006 0.7667 -2.4811 0.9753
-2.7402 -0.3685 -1.1926 0.9880
-2.7200 -0.6162 -1.2030 0.9879
-2.7166 -0.8760 -1.2313 0.9876
-2.7334 -1.1590 -1.2807 0.9871
-3.8105 -4.3086 -2.4811 0.9753
-2.5368 -5.1623 -2.4811 0.9753
-2.0673 -5.3676 -2.4811 0.9753
-1.5813 -5.5303 -2.4811 0.9753
-1.0828 -5.6490 -2.4811 0.9753
0.4481 -5.7344 -2.4811 0.9753
0.9567 -5.6718 -2.4811 0.9753
1.9472 -5.4123 -2.4811 0.9753
2.4212 -5.2175 -2.4811 0.9753
2.8760 -4.9812 -2.4811 0.9753
3.3079 -4.7055 -2.4811 0.9753
4.4336 -3.6644 -2.4811 0.9753
4.7421 -3.2552 -2.4811 0.9753
5.2442 -2.3629 -2.4811 0.9753
5.4337 -1.8867 -2.4811 0.9753
5.5800 -1.3956 -2.4811 0.9753
5.6821 -0.8934 -2.4811 0.9753
5.7505 0.1282 -2.4811 0.9753
5.7163 0.6395 -2.4811 0.9753
5.6367 1.1457 -2.4811 0.9753
5.5123 1.6429 -2.4811 0.9753
5.3442 2.1270 -2.4811 0.9753
4.5826 2.8541 -2.3287 0.9768
4.3103 3.2506 -2.3287 0.9768
4.0039 3.6214 -2.3287 0.9768
3.6657 3.9634 -2.3287 0.9768
3.2984 4.2739 -2.3287 0.9768
2.9049 4.5505 -2.3287 0.9768
2.4884 4.7910 -2.3287 0.9768
2.0521 4.9935 -2.3287 0.9768
1.1342 5.2782 -2.3287 0.9768
0.6599 5.3582 -2.3287 0.9768
0.1804 5.3957 -2.3287 0.9768
-1.7140 5.1194 -2.3287 0.9768
-3.4188 4.2315 -2.3466 0.9766
-3.9987 4.1347 -2.4811 0.9753
-4.3508 3.7624 -2.4811 0.9753
-4.6684 3.3602 -2.4811 0.9753
-5.1902 2.4792 -2.4811 0.9753
-5.6608 1.0199 -2.4811 0.9753
-3.8265 0.3419 -1.6572 0.9834
-4.1593 -3.5967 -2.4811 0.9762
-2.6426 -4.8221 -2.4811 0.9762
-1.7457 -5.2142 -2.4811 0.9762
-0.7936 -5.4412 -2.4811 0.9762
-0.3061 -5.4902 -2.4811 0.9762
2.5345 -4.8798 -2.4811 0.9762
2.9588 -4.6348 -2.4811 0.9762
3.3596 -4.3531 -2.4811 0.9762
3.7337 -4.0368 -2.4811 0.9762
4.3903 -3.3108 -2.4811 0.9762
4.6676 -2.9069 -2.4811 0.9762
5.1090 -2.0333 -2.4811 0.9762
5.4647 -0.6113 -2.4811 0.9762
5.4974 -0.1225 -2.4811 0.9762
5.4865 0.3673 -2.4811 0.9762
5.4320 0.8542 -2.4811 0.9762
5.1945 1.8038 -2.4811 0.9762
4.2550 2.9209 -2.3287 0.9776
2.5805 4.4696 -2.3287 0.9776
2.1725 4.6816 -2.3287 0.9776
0.8584 5.0892 -2.3287 0.9776
0.4021 5.1454 -2.3287 0.9776
-0.0575 5.1607 -2.3287 0.9776
-0.5166 5.1351 -2.3287 0.9776
-0.9716 5.0688 -2.3287 0.9776
-1.8549 4.8162 -2.3287 0.9776
-2.6794 4.4110 -2.3287 0.9776
-3.6428 4.1191 -2.4811 0.9762
-3.9950 3.7785 -2.4811 0.9762
-5.4497 0.7329 -2.4811 0.9762
-2.6870 -0.3613 -1.2234 0.9882
-2.6659 -0.6040 -1.2334 0.9881
-2.6574 -0.8569 -1.2599 0.9878
-2.6675 -1.1311 -1.3074 0.9874
-4.6016 -3.0102 -2.4811 0.9762
-3.9950 -3.7784 -2.4811 0.9762
-2.4252 -4.9351 -2.4811 0.9762
-1.9763 -5.1313 -2.4811 0.9762
-1.5117 -5.2869 -2.4811 0.9762
-0.5504 -5.4711 -2.4811 0.9762
-0.0612 -5.4984 -2.4811 0.9762
0.9146 -5.4221 -2.4811 0.9762
1.3936 -5.3192 -2.4811 0.9762
1.8615 -5.1741 -2.4811 0.9762
4.2384 -3.5031 -2.4811 0.9762
4.7924 -2.6961 -2.4811 0.9762
5.1945 -1.8037 -2.4811 0.9762
5.4320 -0.8541 -2.4811 0.9762
5.4865 -0.3672 -2.4811 0.9762
5.4647 0.6113 -2.4811 0.9762
5.3886 1.0953 -2.4811 0.9762
4.5040 2.8052 -2.3942 0.9770
4.1206 3.1075 -2.3287 0.9776
3.8277 3.4620 -2.3287 0.9776
3.5044 3.7889 -2.3287 0.9776
3.1532 4.0858 -2.3287 0.9776
2.3788 4.5801 -2.3287 0.9776
1.9618 4.7737 -2.3287 0.9776
1.0843 5.0459 -2.3287 0.9776
-0.7448 5.1071 -2.3287 0.9776
-2.0676 4.7288 -2.3287 0.9776
-2.8733 4.2873 -2.3287 0.9776
-3.8227 3.9527 -2.4811 0.9762
-4.1593 3.5968 -2.4811 0.9762
-5.1530 1.9191 -2.4811 0.9762
-5.3034 1.4528 -2.4811 0.9762
-2.9112 0.0000 -1.3723 0.9872
-2.6448 -0.2363 -1.2517 0.9883
-2.6023 -0.9691 -1.3090 0.9878
-2.6596 -1.5753 -1.4571 0.9864
-3.9815 -3.4429 -2.4811 0.9770
-3.6592 -3.7836 -2.4811 0.9770
-3.3079 -4.0942 -2.4811 0.9770
-2.5296 -4.6159 -2.4811 0.9770
-1.2202 -5.1202 -2.4811 0.9770
-0.7596 -5.2085 -2.4811 0.9770
0.6434 -5.2241 -2.4811 0.9770
1.1058 -5.1461 -2.4811 0.9770
2.8323 -4.4366 -2.4811 0.9770
3.2159 -4.1669 -2.4811 0.9770
3.9038 -3.5307 -2.4811 0.9770
4.2025 -3.1692 -2.4811 0.9770
4.6979 -2.3739 -2.4811 0.9770
5.0444 -1.5033 -2.4811 0.9770
5.1581 -1.0484 -2.4811 0.9770
5.2623 -0.1172 -2.4811 0.9770
5.2519 0.3516 -2.4811 0.9770
5.1997 0.8176 -2.4811 0.9770
5.1063 1.2772 -2.4811 0.9770
4.7990 2.1623 -2.4811 0.9770
4.5875 2.5809 -2.4811 0.9770
4.1744 2.8656 -2.3867 0.9779
3.8080 3.1474 -2.3287 0.9784
2.8412 4.0416 -2.3287 0.9784
2.0796 4.4814 -2.3287 0.9784
1.6724 4.6487 -2.3287 0.9784
1.2520 4.7790 -2.3287 0.9784
0.8217 4.8715 -2.3287 0.9784
-0.0550 4.9400 -2.3287 0.9784
-2.1789 4.4339 -2.3287 0.9784
-2.5649 4.2224 -2.3287 0.9784
-3.8241 3.6169 -2.4811 0.9770
-4.1309 3.2622 -2.4811 0.9770
-4.4048 2.8816 -2.4811 0.9770
-4.8459 2.0549 -2.4811 0.9770
-5.0096 1.6154 -2.4811 0.9770
-3.1522 0.1406 -1.4873 0.9861
-2.7082 -0.1207 -1.2778 0.9881
-2.5902 -1.3822 -1.3839 0.9871
-3.4870 -3.9428 -2.4811 0.9770
-3.1223 -4.2375 -2.4811 0.9770
-2.7327 -4.4986 -2.4811 0.9770
-2.3215 -4.7240 -2.4811 0.9770
-1.4471 -5.0607 -2.4811 0.9770
-0.5269 -5.2371 -2.4811 0.9770
-0.0586 -5.2633 -2.4811 0.9770
2.6318 -4.5584 -2.4811 0.9770
3.3983 -4.0195 -2.4811 0.9770
4.0572 -3.3533 -2.4811 0.9770
4.3395 -2.9789 -2.4811 0.9770
4.5875 -2.5808 -2.4811 0.9770
4.7990 -2.1623 -2.4811 0.9770
4.9724 -1.7266 -2.4811 0.9770
5.1063 -1.2771 -2.4811 0.9770
5.1997 -0.8176 -2.4811 0.9770
5.2310 0.5852 -2.4811 0.9770
4.6979 2.3740 -2.4811 0.9770
4.4679 2.7827 -2.4811 0.9770
3.9444 2.9746 -2.3287 0.9784
3.6640 3.3139 -2.3287 0.9784
2.2771 4.3843 -2.3287 0.9784
1.4637 4.7185 -2.3287 0.9784
0.6039 4.9033 -2.3287 0.9784
0.1651 4.9376 -2.3287 0.9784
-0.2750 4.9327 -2.3287 0.9784
-1.1453 4.8057 -2.3287 0.9784
-1.5684 4.6847 -2.3287 0.9784
-3.9815 3.4430 -2.4811 0.9770
-4.5288 2.6824 -2.4811 0.9770
-4.7496 2.2687 -2.4811 0.9770
-4.9327 1.8370 -2.4811 0.9770
-5.0766 1.3907 -2.4811 0.9770
-2.5698 -0.4630 -1.2843 0.9884
-2.5453 -0.9479 -1.3359 0.9880
-2.5457 -1.2160 -1.3876 0.9875
-3.8157 -3.2995 -2.4811 0.9778
-3.1702 -3.9238 -2.4811 0.9778
-2.0209 -4.6220 -2.4811 0.9778
-1.6015 -4.7835 -2.4811 0.9778
-1.1694 -4.9070 -2.4811 0.9778
0.1686 -5.0416 -2.4811 0.9778
0.6166 -5.0066 -2.4811 0.9778
1.9175 -4.6658 -2.4811 0.9778
4.0276 -3.0373 -2.4811 0.9778
4.2819 -2.6667 -2.4811 0.9778
4.6869 -1.8653 -2.4811 0.9778
4.8343 -1.4407 -2.4811 0.9778
4.9434 -1.0047 -2.4811 0.9778
5.0132 -0.5608 -2.4811 0.9778
5.0432 -0.1123 -2.4811 0.9778
4.9832 0.7836 -2.4811 0.9778
4.5992 2.0724 -2.4811 0.9778
4.3965 2.4734 -2.4811 0.9778
3.6495 3.0164 -2.3287 0.9791
3.0568 3.6156 -2.3287 0.9791
2.7229 3.8734 -2.3287 0.9791
2.3673 4.1003 -2.3287 0.9791
1.9930 4.2948 -2.3287 0.9791
1.1999 4.5801 -2.3287 0.9791
0.3689 4.7203 -2.3287 0.9791
-0.8913 4.6500 -2.3287 0.9791
-1.3017 4.5522 -2.3287 0.9791
-1.7017 4.4183 -2.3287 0.9791
-2.0881 4.2493 -2.3287 0.9791
-2.4700 4.0663 -2.3401 0.9790
-2.9923 4.0612 -2.4811 0.9778
-3.9589 3.1264 -2.4811 0.9778
-4.2214 2.7616 -2.4811 0.9778
-4.9995 0.6724 -2.4811 0.9778
-3.0630 0.1366 -1.5081 0.9864
-2.5616 -0.5804 -1.2919 0.9884
-2.5430 -0.8200 -1.3142 0.9882
-4.2214 -2.7615 -2.4811 0.9778
-2.9923 -4.0611 -2.4811 0.9778
-1.8130 -4.7073 -2.4811 0.9778
-1.3868 -4.8501 -2.4811 0.9778
-0.9497 -4.9542 -2.4811 0.9778
-0.5049 -5.0191 -2.4811 0.9778
0.3930 -5.0291 -2.4811 0.9778
0.8390 -4.9742 -2.4811 0.9778
1.2784 -4.8797 -2.4811 0.9778
1.7077 -4.7466 -2.4811 0.9778
2.1234 -4.5757 -2.4811 0.9778
2.5222 -4.3686 -2.4811 0.9778
2.9011 -4.1268 -2.4811 0.9778
3.2569 -3.8522 -2.4811 0.9778
3.8883 -3.2137 -2.4811 0.9778
4.1589 -2.8548 -2.4811 0.9778
4.3965 -2.4734 -2.4811 0.9778
4.5992 -2.0722 -2.4811 0.9778
4.7654 -1.6546 -2.4811 0.9778
5.0332 -0.3369 -2.4811 0.9778
5.0432 0.1124 -2.4811 0.9778
5.0132 0.5608 -2.4811 0.9778
4.9434 1.0048 -2.4811 0.9778
4.5023 2.2751 -2.4811 0.9778
4.2819 2.6669 -2.4811 0.9778
3.8719 2.9200 -2.3852 0.9786
3.5114 3.1759 -2.3287 0.9791
2.8927 3.7482 -2.3287 0.9791
2.5476 3.9908 -2.3287 0.9791
2.1823 4.2017 -2.3287 0.9791
0.9947 4.6290 -2.3287 0.9791
0.5788 4.6992 -2.3287 0.9791
0.1582 4.7320 -2.3287 0.9791
-0.6833 4.6851 -2.3287 0.9791
-1.5031 4.4897 -2.3287 0.9791
-1.8968 4.3381 -2.3287 0.9791
-2.7452 4.0962 -2.4253 0.9783
-3.5069 3.6261 -2.4811 0.9778
-3.8157 3.2996 -2.4811 0.9778
-4.3403 2.5708 -2.4811 0.9778
-4.5519 2.1743 -2.4811 0.9778
-4.7273 1.7605 -2.4811 0.9778
-2.5199 -0.4540 -1.3126 0.9886
-2.4994 -0.6847 -1.3286 0.9884
-2.4521 -1.4524 -1.4611 0.9873
-3.9280 -2.8271 -2.4811 0.9785
-3.3645 -3.4788 -2.4811 0.9785
-3.0415 -3.7645 -2.4811 0.9785
-2.3258 -4.2441 -2.4811 0.9785
-1.9389 -4.4343 -2.4811 0.9785
-1.5365 -4.5893 -2.4811 0.9785
0.1617 -4.8369 -2.4811 0.9785
0.5916 -4.8033 -2.4811 0.9785
1.4339 -4.6223 -2.4811 0.9785
2.6041 -4.0793 -2.4811 0.9785
2.9569 -3.8313 -2.4811 0.9785
3.2862 -3.5529 -2.4811 0.9785
4.3195 -2.1827 -2.4811 0.9785
4.4966 -1.7896 -2.4811 0.9785
4.7427 -0.9639 -2.4811 0.9785
4.8097 -0.5380 -2.4811 0.9785
4.8385 -0.1078 -2.4811 0.9785
4.4124 1.9882 -2.4811 0.9785
4.2180 2.3730 -2.4811 0.9785
3.9900 2.7390 -2.4811 0.9785
3.2298 3.1940 -2.3287 0.9798
2.9327 3.4688 -2.3287 0.9798
2.6123 3.7161 -2.3287 0.9798
2.2712 3.9339 -2.3287 0.9798
1.5377 4.2742 -2.3287 0.9798
1.1512 4.3941 -2.3287 0.9798
0.7555 4.4791 -2.3287 0.9798
0.3539 4.5286 -2.3287 0.9798
-0.4547 4.5196 -2.3287 0.9798
-0.8551 4.4612 -2.3287 0.9798
-2.4568 4.0445 -2.4260 0.9790
-2.8708 3.8963 -2.4811 0.9785
-3.7982 2.9994 -2.4811 0.9785
-4.2698 2.2785 -2.4811 0.9785
-4.4556 1.8894 -2.4811 0.9785
-4.6061 1.4853 -2.4811 0.9785
-2.9775 0.1328 -1.5280 0.9867
-2.5877 -0.1154 -1.3280 0.9884
-2.5350 -0.3409 -1.3113 0.9886
-2.4881 -0.8023 -1.3403 0.9883
-2.4879 -1.0550 -1.3854 0.9879
-3.7981 -2.9993 -2.4811 0.9785
-3.5161 -3.3255 -2.4811 0.9785
-3.2062 -3.6252 -2.4811 0.9785
-2.8708 -3.8962 -2.4811 0.9785
-2.1345 -4.3435 -2.4811 0.9785
-1.3305 -4.6531 -2.4811 0.9785
-0.9111 -4.7531 -2.4811 0.9785
-0.0539 -4.8393 -2.4811 0.9785
0.3770 -4.8249 -2.4811 0.9785
1.6384 -4.5539 -2.4811 0.9785
2.4198 -4.1912 -2.4811 0.9785
2.7833 -3.9592 -2.4811 0.9785
3.1246 -3.6958 -2.4811 0.9785
3.4412 -3.4030 -2.4811 0.9785
3.9900 -2.7390 -2.4811 0.9785
4.4124 -1.9881 -2.4811 0.9785
4.5719 -1.5875 -2.4811 0.9785
4.6950 -1.1742 -2.4811 0.9785
4.7809 -0.7517 -2.4811 0.9785
4.8288 -0.3232 -2.4811 0.9785
4.7427 0.9640 -2.4811 0.9785
4.4966 1.7897 -2.4811 0.9785
4.1081 2.5586 -2.4811 0.9785
3.8538 2.9063 -2.4746 0.9785
3.3688 3.0470 -2.3287 0.9798
2.7752 3.5961 -2.3287 0.9798
2.4442 3.8288 -2.3287 0.9798
1.7266 4.2015 -2.3287 0.9798
0.9543 4.4411 -2.3287 0.9798
0.5553 4.5084 -2.3287 0.9798
-0.6556 4.4949 -2.3287 0.9798
-2.1994 4.0135 -2.3463 0.9796
-2.6944 4.0203 -2.4811 0.9785
-3.9280 2.8272 -2.4811 0.9785
-4.5354 1.6890 -2.4811 0.9785
-4.6677 1.2787 -2.4811 0.9785
-4.7630 0.8581 -2.4811 0.9785
-2.6714 0.0000 -1.4261 0.9880
-2.4501 -0.6711 -1.3561 0.9885
-2.4352 -0.9069 -1.3872 0.9883
-2.4292 -1.1603 -1.4371 0.9879
-2.3944 -1.4182 -1.4856 0.9875
-3.7722 -2.7150 -2.4811 0.9791
-3.2310 -3.3408 -2.4811 0.9791
-2.9209 -3.6152 -2.4811 0.9791
-2.5875 -3.8608 -2.4811 0.9791
-2.2336 -4.0758 -2.4811 0.9791
-1.8620 -4.2584 -2.4811 0.9791
-1.4756 -4.4072 -2.4811 0.9791
-0.6707 -4.5990 -2.4811 0.9791
0.5681 -4.6128 -2.4811 0.9791
0.9764 -4.5439 -2.4811 0.9791
1.7666 -4.2988 -2.4811 0.9791
2.1422 -4.1245 -2.4811 0.9791
3.1558 -3.4120 -2.4811 0.9791
3.4470 -3.1176 -2.4811 0.9791
3.7108 -2.7984 -2.4811 0.9791
4.6189 -0.5167 -2.4811 0.9791
4.6466 -0.1035 -2.4811 0.9791
4.2374 1.9093 -2.4811 0.9791
3.8318 2.6304 -2.4811 0.9791
3.1087 3.0743 -2.3340 0.9804
2.8164 3.3312 -2.3287 0.9804
1.8362 3.9570 -2.3287 0.9804
1.4767 4.1047 -2.3287 0.9804
1.1055 4.2198 -2.3287 0.9804
0.7256 4.3015 -2.3287 0.9804
0.3398 4.3490 -2.3287 0.9804
-0.4366 4.3404 -2.3287 0.9804
-0.8212 4.2843 -2.3287 0.9804
-1.9490 3.9662 -2.3592 0.9802
-3.0790 3.4815 -2.4811 0.9791
-4.1004 2.1881 -2.4811 0.9791
-4.4234 1.4264 -2.4811 0.9791
-4.5328 1.0271 -2.4811 0.9791
-2.8952 0.1291 -1.5471 0.9869
-2.5303 -0.1128 -1.3521 0.9886
-2.4353 -0.7853 -1.3660 0.9885
-2.4330 -1.0317 -1.4108 0.9881
-2.4151 -1.2887 -1.4613 0.9877
-2.4322 -1.5911 -1.5516 0.9869
-3.6475 -2.8804 -2.4811 0.9791
-2.7569 -3.7417 -2.4811 0.9791
-1.6704 -4.3371 -2.4811 0.9791
-0.8750 -4.5646 -2.4811 0.9791
0.3621 -4.6335 -2.4811 0.9791
0.7731 -4.5829 -2.4811 0.9791
1.1779 -4.4959 -2.4811 0.9791
1.9564 -4.2158 -2.4811 0.9791
2.3238 -4.0250 -2.4811 0.9791
2.6729 -3.8022 -2.4811 0.9791
3.8318 -2.6303 -2.4811 0.9791
4.0507 -2.2788 -2.4811 0.9791
4.3905 -1.5245 -2.4811 0.9791
4.6373 -0.3104 -2.4811 0.9791
4.6466 0.1036 -2.4811 0.9791
4.5546 0.9258 -2.4811 0.9791
4.4541 1.3275 -2.4811 0.9791
4.3183 1.7187 -2.4811 0.9791
3.9451 2.4571 -2.4811 0.9791
3.7108 2.7985 -2.4811 0.9791
2.6652 3.4534 -2.3287 0.9804
2.3472 3.6769 -2.3287 0.9804
2.0107 3.8712 -2.3287 0.9804
1.6581 4.0348 -2.3287 0.9804
0.9165 4.2649 -2.3287 0.9804
0.5332 4.3296 -2.3287 0.9804
0.1458 4.3598 -2.3287 0.9804
-0.6296 4.3166 -2.3287 0.9804
-1.0112 4.2434 -2.3287 0.9804
-1.7476 3.9969 -2.3287 0.9804
-2.5875 3.8609 -2.4811 0.9791
-2.9209 3.6152 -2.4811 0.9791
-3.2310 3.3409 -2.4811 0.9791
-3.7722 2.7151 -2.4811 0.9791
-3.9989 2.3686 -2.4811 0.9791
-4.1938 2.0033 -2.4811 0.9791
-4.3555 1.6221 -2.4811 0.9791
-4.4826 1.2279 -2.4811 0.9791
-4.5741 0.8241 -2.4811 0.9791
-3.5313 0.3156 -1.8927 0.9841
-2.4243 -0.4368 -1.3681 0.9888
-2.3823 -0.8872 -1.4119 0.9884
-2.3176 -1.3727 -1.4960 0.9878
-2.4871 -3.7110 -2.4811 0.9798
-2.1469 -3.9176 -2.4811 0.9798
-1.7897 -4.0931 -2.4811 0.9798
-1.4183 -4.2362 -2.4811 0.9798
-0.2487 -4.4604 -2.4811 0.9798
0.1493 -4.4648 -2.4811 0.9798
0.9385 -4.3676 -2.4811 0.9798
2.4038 -3.7654 -2.4811 0.9798
2.7294 -3.5365 -2.4811 0.9798
3.0334 -3.2796 -2.4811 0.9798
3.3132 -2.9966 -2.4811 0.9798
3.9872 -2.0148 -2.4811 0.9798
4.2813 -1.2759 -2.4811 0.9798
4.3778 -0.8898 -2.4811 0.9798
4.4396 -0.4966 -2.4811 0.9798
4.4662 -0.0995 -2.4811 0.9798
4.4131 0.6940 -2.4811 0.9798
4.3338 1.0840 -2.4811 0.9798
3.8935 2.1905 -2.4811 0.9798
3.6831 2.5283 -2.4811 0.9798
3.0890 3.0548 -2.4128 0.9803
2.4114 3.4302 -2.3287 0.9810
1.7650 3.8034 -2.3287 0.9810
1.4194 3.9454 -2.3287 0.9810
0.6974 4.1346 -2.3287 0.9810
0.3267 4.1803 -2.3287 0.9810
-0.4197 4.1719 -2.3287 0.9810
-0.7893 4.1180 -2.3287 0.9810
-1.1527 4.0314 -2.3287 0.9810
-1.5070 3.9128 -2.3287 0.9810
-1.9405 3.9488 -2.4436 0.9801
-2.6499 3.5966 -2.4811 0.9798
-2.9595 3.3464 -2.4811 0.9798
-3.2456 3.0697 -2.4811 0.9798
-3.5060 2.7687 -2.4811 0.9798
-4.1129 1.7440 -2.4811 0.9798
-4.4275 0.5955 -2.4811 0.9798
-2.4745 -0.1103 -1.3757 0.9887
-2.3793 -1.0089 -1.4353 0.9882
-2.6499 -3.5965 -2.4811 0.9798
-2.3193 -3.8181 -2.4811 0.9798
-1.9703 -4.0093 -2.4811 0.9798
-1.6056 -4.1688 -2.4811 0.9798
-1.2282 -4.2952 -2.4811 0.9798
-0.0498 -4.4670 -2.4811 0.9798
0.7431 -4.4051 -2.4811 0.9798
1.8805 -4.0523 -2.4811 0.9798
2.5692 -3.6546 -2.4811 0.9798
3.4434 -2.8460 -2.4811 0.9798
3.8935 -2.1904 -2.4811 0.9798
4.2202 -1.4654 -2.4811 0.9798
4.3338 -1.0839 -2.4811 0.9798
4.4131 -0.6939 -2.4811 0.9798
4.4574 -0.2984 -2.4811 0.9798
4.4397 0.4967 -2.4811 0.9798
4.3778 0.8899 -2.4811 0.9798
3.9872 2.0148 -2.4811 0.9798
2.8723 3.1055 -2.3494 0.9808
2.5675 3.3264 -2.3337 0.9810
1.9326 3.7210 -2.3287 0.9810
1.2423 4.0047 -2.3287 0.9810
0.5125 4.1616 -2.3287 0.9810
-0.9720 4.0788 -2.3287 0.9810
-2.4871 3.7110 -2.4811 0.9798
-3.1057 3.2112 -2.4811 0.9798
-3.3791 2.9221 -2.4811 0.9798
-3.6258 2.6097 -2.4811 0.9798
-3.8437 2.2767 -2.4811 0.9798
-4.0311 1.9255 -2.4811 0.9798
-4.3966 0.7921 -2.4811 0.9798
-2.5383 0.2268 -1.4154 0.9884
-2.3852 -0.2131 -1.3826 0.9890
-2.3545 -0.6450 -1.4095 0.9888
-2.3307 -0.8679 -1.4359 0.9886
-3.2507 -2.8109 -2.4811 0.9803
-2.7008 -3.3427 -2.4811 0.9803
-1.3644 -4.0751 -2.4811 0.9803
-0.6202 -4.2524 -2.4811 0.9803
-0.2393 -4.2908 -2.4811 0.9803
0.9029 -4.2015 -2.4811 0.9803
2.3124 -3.6223 -2.4811 0.9803
2.6256 -3.4021 -2.4811 0.9803
2.9180 -3.1549 -2.4811 0.9803
3.4312 -2.5875 -2.4811 0.9803
3.6478 -2.2719 -2.4811 0.9803
3.9929 -1.5891 -2.4811 0.9803
4.2114 -0.8559 -2.4811 0.9803
4.2964 -0.0957 -2.4811 0.9803
4.2453 0.6676 -2.4811 0.9803
4.1691 1.0428 -2.4811 0.9803
3.7454 2.1072 -2.4811 0.9803
3.0556 3.0218 -2.4811 0.9803
2.3197 3.2998 -2.3287 0.9815
2.0168 3.4932 -2.3287 0.9815
1.6978 3.6588 -2.3287 0.9815
0.6709 3.9774 -2.3287 0.9815
0.3142 4.0213 -2.3287 0.9815
-0.4037 4.0133 -2.3287 0.9815
-1.4933 3.8772 -2.3988 0.9810
-2.2311 3.6730 -2.4811 0.9803
-2.5492 3.4598 -2.4811 0.9803
-2.8470 3.2192 -2.4811 0.9803
-3.5963 2.3526 -2.4811 0.9803
-4.1912 0.9496 -2.4811 0.9803
-4.2591 0.5728 -2.4811 0.9803
