ply
format ascii 1.0
element vertex 1590
property float32 x
property float32 y
property float32 z
property float32 I
end_header
1.5771 -12.8052 -2.4968 0.9488
2.7103 -12.6126 -2.4965 0.9488
4.9025 -11.9297 -2.4959 0.9488
5.9443 -11.4448 -2.4957 0.9488
8.7545 -9.4653 -2.4951 0.9488
10.2927 -7.7621 -2.4947 0.9488
11.5049 -5.8137 -2.4945 0.9488
11.9763 -4.7664 -2.4944 0.9488
12.3528 -3.6815 -2.4944 0.9488
12.6314 -2.5674 -2.4944 0.9488
12.8098 -1.4330 -2.4944 0.9488
11.7430 2.9371 -2.3425 0.9519
11.4356 3.9709 -2.3426 0.9519
9.9824 6.8525 -2.3431 0.9519
9.3337 7.7145 -2.3433 0.9519
0.9443 12.0847 -2.3457 0.9518
-0.1351 12.1222 -2.3460 0.9518
-2.2828 11.9090 -2.3466 0.9518
-3.3340 11.6599 -2.3468 0.9518
-5.3497 10.8863 -2.3473 0.9518
-7.1964 9.7671 -2.3477 0.9518
-8.0378 9.0885 -2.3479 0.9518
-10.1552 6.6433 -2.3484 0.9518
-12.6055 2.8561 -2.5012 0.9487
-12.9117 -0.5758 -2.5011 0.9487
-12.8088 -1.7226 -2.5011 0.9487
-12.2993 -3.9660 -2.5008 0.9487
-11.8967 -5.0446 -2.5007 0.9487
-10.8121 -7.0729 -2.5003 0.9487
-10.1388 -8.0065 -2.5001 0.9487
-8.5569 -9.6754 -2.4996 0.9487
-4.6401 -12.0479 -2.4984 0.9488
-3.5490 -12.4116 -2.4981 0.9488
-1.2918 -12.8410 -2.4975 0.9488
2.1459 -12.7215 -2.4966 0.9488
3.2693 -12.4786 -2.4963 0.9488
6.4479 -11.1681 -2.4956 0.9488
8.3245 -9.8462 -2.4951 0.9488
9.1672 -9.0656 -2.4950 0.9488
9.9370 -8.2131 -2.4948 0.9488
11.7523 -5.2953 -2.4945 0.9488
12.1766 -4.2282 -2.4944 0.9488
12.7332 -2.0022 -2.4944 0.9488
12.8868 0.2872 -2.4944 0.9488
11.6008 3.4574 -2.3425 0.9519
11.2477 4.4765 -2.3427 0.9519
10.2773 6.4008 -2.3430 0.9519
8.2234 8.8910 -2.3437 0.9519
5.5841 10.7513 -2.3445 0.9518
4.6055 11.2070 -2.3447 0.9518
3.5902 11.5738 -2.3450 0.9518
0.4051 12.1155 -2.3459 0.9518
-0.6750 12.1049 -2.3462 0.9518
-1.7499 11.9982 -2.3464 0.9518
-2.8111 11.7962 -2.3467 0.9518
-5.8296 10.6377 -2.3474 0.9518
-8.4350 8.7217 -2.3480 0.9518
-8.7392 7.5571 -2.2358 0.9540
-11.6623 5.5707 -2.5011 0.9487
-12.1121 4.5106 -2.5012 0.9487
-12.7202 2.2917 -2.5012 0.9487
-12.8736 1.1504 -2.5012 0.9487
-11.8627 0.0000 -2.5009 0.9527
-10.7019 -5.1119 -2.5003 0.9527
-10.2037 -6.0436 -2.5002 0.9527
-9.6245 -6.9273 -2.5000 0.9527
-8.2424 -8.5225 -2.4995 0.9527
-7.4504 -9.2214 -2.4993 0.9527
-1.7098 -11.7234 -2.4977 0.9527
2.4880 -11.5779 -2.4966 0.9527
6.3697 -9.9780 -2.4957 0.9528
7.2320 -9.3708 -2.4955 0.9528
9.4490 -7.1258 -2.4950 0.9528
10.0452 -6.2562 -2.4949 0.9528
10.5618 -5.3371 -2.4948 0.9528
10.9946 -4.3757 -2.4947 0.9528
11.3403 -3.3797 -2.4947 0.9528
10.1326 4.5656 -2.3430 0.9556
9.6867 5.4496 -2.3431 0.9556
7.9047 7.8171 -2.3437 0.9556
7.1782 8.4904 -2.3439 0.9556
6.3947 9.0965 -2.3442 0.9556
5.5602 9.6306 -2.3444 0.9556
4.6815 10.0883 -2.3447 0.9556
-0.1240 11.1271 -2.3460 0.9555
-3.0603 10.7024 -2.3467 0.9555
-4.0011 10.3886 -2.3469 0.9555
-4.9103 9.9922 -2.3472 0.9555
-5.7807 9.5163 -2.3474 0.9555
-8.0912 7.6526 -2.3479 0.9555
-8.7407 6.9025 -2.3480 0.9555
-9.3208 6.0974 -2.3481 0.9555
-10.1766 5.4304 -2.4318 0.9539
-10.9213 4.6311 -2.5009 0.9527
-11.8510 0.5285 -2.5009 0.9527
-11.8508 -0.5284 -2.5009 0.9527
-11.7563 -1.5810 -2.5008 0.9527
-11.5685 -2.6210 -2.5007 0.9527
-11.2888 -3.6402 -2.5006 0.9527
-10.9193 -4.6302 -2.5004 0.9527
-9.9240 -6.4920 -2.5001 0.9527
-8.6142 -8.1473 -2.4996 0.9527
-7.8542 -8.8808 -2.4994 0.9527
-7.0319 -9.5437 -2.4992 0.9527
-6.1539 -10.1307 -2.4989 0.9527
-5.2272 -10.6370 -2.4986 0.9527
-4.2592 -11.0589 -2.4984 0.9527
-0.1320 -11.8447 -2.4973 0.9527
6.8076 -9.6840 -2.4956 0.9528
9.1224 -7.5398 -2.4951 0.9528
9.7568 -6.6976 -2.4949 0.9528
10.3138 -5.8024 -2.4948 0.9528
10.7889 -4.8612 -2.4947 0.9528
11.4795 -2.8712 -2.4947 0.9528
11.6895 -1.8381 -2.4947 0.9528
11.8305 0.2637 -2.4947 0.9528
10.8895 2.2134 -2.3427 0.9556
10.6498 3.1740 -2.3428 0.9556
8.8749 6.6929 -2.3434 0.9556
7.5489 8.1618 -2.3438 0.9556
5.9834 9.3729 -2.3443 0.9556
5.1260 9.8692 -2.3445 0.9556
-0.6195 11.1112 -2.3461 0.9555
-1.6062 11.0131 -2.3463 0.9555
-2.5803 10.8276 -2.3466 0.9555
-5.3508 9.7639 -2.3473 0.9555
-6.1991 9.2497 -2.3475 0.9555
-6.9983 8.6620 -2.3476 0.9555
-8.4243 7.2848 -2.3479 0.9555
-9.0397 6.5064 -2.3481 0.9555
-10.7040 5.1129 -2.5008 0.9527
-11.4414 3.1342 -2.5009 0.9527
-10.9123 -0.9751 -2.5006 0.9560
-10.7819 -1.9424 -2.5005 0.9560
-10.5658 -2.8942 -2.5004 0.9560
-10.2657 -3.8230 -2.5003 0.9561
-7.6128 -7.8715 -2.4994 0.9561
-6.8813 -8.5171 -2.4992 0.9561
-6.0954 -9.0949 -2.4989 0.9561
-5.2612 -9.6004 -2.4987 0.9561
-4.3854 -10.0296 -2.4985 0.9561
-0.6092 -10.9250 -2.4974 0.9561
0.3656 -10.9347 -2.4972 0.9561
2.2981 -10.6945 -2.4967 0.9561
4.1571 -10.1157 -2.4962 0.9561
5.8839 -9.2169 -2.4958 0.9561
6.6804 -8.6560 -2.4956 0.9561
7.4238 -8.0265 -2.4955 0.9561
8.1083 -7.3335 -2.4953 0.9561
8.7284 -6.5824 -2.4952 0.9561
9.7565 -4.9301 -2.4950 0.9561
10.1563 -4.0421 -2.4950 0.9561
10.7118 -2.1772 -2.4949 0.9561
10.8631 -1.2152 -2.4949 0.9561
10.9283 -0.2435 -2.4949 0.9561
10.9068 0.7302 -2.4950 0.9561
9.6975 3.3674 -2.3430 0.9588
9.3598 4.2174 -2.3432 0.9588
8.9479 5.0340 -2.3433 0.9588
7.3016 7.2208 -2.3438 0.9587
5.1359 8.8957 -2.3445 0.9587
4.3242 9.3184 -2.3447 0.9587
3.4780 9.6673 -2.3450 0.9587
1.7092 10.1329 -2.3454 0.9587
-1.9353 10.0964 -2.3464 0.9587
-2.8265 9.8850 -2.3466 0.9587
-3.6955 9.5951 -2.3468 0.9587
-4.5352 9.2289 -2.3470 0.9587
-5.3390 8.7893 -2.3472 0.9587
-6.1006 8.2798 -2.3474 0.9587
-6.8138 7.7045 -2.3475 0.9587
-7.4729 7.0679 -2.3477 0.9587
-8.0728 6.3750 -2.3478 0.9587
-9.6656 5.1578 -2.5006 0.9560
-10.4275 3.3624 -2.5007 0.9560
-10.8585 1.4604 -2.5007 0.9560
-10.9451 -0.4880 -2.5006 0.9560
-10.6845 -2.4208 -2.5005 0.9560
-9.1658 -5.9960 -2.4999 0.9561
-8.5951 -6.7875 -2.4997 0.9561
-7.9562 -7.5249 -2.4995 0.9561
-6.4948 -8.8148 -2.4991 0.9561
-5.6839 -9.3570 -2.4988 0.9561
-4.8281 -9.8248 -2.4986 0.9561
-3.9340 -10.2145 -2.4983 0.9561
-3.0090 -10.5230 -2.4981 0.9561
-1.0953 -10.8875 -2.4976 0.9561
-0.1219 -10.9407 -2.4973 0.9561
0.8523 -10.9070 -2.4970 0.9561
1.8195 -10.7868 -2.4968 0.9561
2.7721 -10.5810 -2.4966 0.9561
3.7025 -10.2914 -2.4963 0.9561
4.6034 -9.9201 -2.4961 0.9561
5.4677 -9.4702 -2.4959 0.9561
6.2884 -8.9453 -2.4957 0.9561
7.0591 -8.3495 -2.4956 0.9561
8.4267 -6.9648 -2.4953 0.9561
9.9663 -4.4906 -2.4950 0.9561
10.3262 -3.5856 -2.4949 0.9561
10.6042 -2.6523 -2.4949 0.9561
10.9284 0.2436 -2.4950 0.9561
10.0591 2.0446 -2.3429 0.9588
9.5381 3.7961 -2.3431 0.9588
8.7150 5.4278 -2.3434 0.9588
8.1979 6.1824 -2.3436 0.9587
7.6157 6.8880 -2.3437 0.9587
6.9730 7.5392 -2.3439 0.9587
5.5268 8.6577 -2.3444 0.9587
3.9050 9.5023 -2.3448 0.9587
1.2562 10.1996 -2.3456 0.9587
0.3434 10.2719 -2.3458 0.9587
-3.2642 9.7497 -2.3467 0.9587
-6.4636 8.0001 -2.3475 0.9587
-8.3489 6.0092 -2.3479 0.9587
-10.5670 2.8946 -2.5007 0.9560
-10.1727 0.0000 -2.5004 0.9590
-10.1321 -0.9054 -2.5004 0.9590
-9.8104 -2.6873 -2.5002 0.9590
-9.5318 -3.5497 -2.5001 0.9590
-8.7504 -5.1829 -2.4998 0.9590
-8.2538 -5.9407 -2.4997 0.9590
-4.8853 -8.9145 -2.4986 0.9590
-3.2267 -9.6376 -2.4982 0.9590
-2.3559 -9.8856 -2.4979 0.9590
-1.4665 -10.0551 -2.4977 0.9590
0.3395 -10.1538 -2.4972 0.9590
3.0092 -9.7008 -2.4965 0.9590
3.8604 -9.3937 -2.4963 0.9590
5.4639 -8.5591 -2.4960 0.9590
7.5297 -6.8102 -2.4955 0.9590
9.0603 -4.5784 -2.4952 0.9590
9.4316 -3.7537 -2.4952 0.9590
10.0881 -1.1285 -2.4951 0.9590
9.2477 2.3130 -2.3431 0.9615
9.0055 3.1271 -2.3432 0.9615
8.6919 3.9164 -2.3433 0.9615
6.7804 6.7054 -2.3439 0.9615
6.1572 7.2828 -2.3441 0.9615
4.7692 8.2606 -2.3445 0.9615
4.0154 8.6530 -2.3448 0.9615
2.4181 9.2297 -2.3452 0.9615
0.7434 9.5140 -2.3457 0.9615
-0.1063 9.5433 -2.3459 0.9615
-0.9554 9.4969 -2.3461 0.9614
-1.7970 9.3750 -2.3463 0.9614
-2.6245 9.1786 -2.3465 0.9614
-3.4314 8.9094 -2.3467 0.9614
-4.2110 8.5693 -2.3469 0.9614
-5.6645 7.6879 -2.3472 0.9614
-6.3267 7.1537 -2.3474 0.9614
-6.9387 6.5626 -2.3475 0.9614
-7.4956 5.9193 -2.3476 0.9614
-7.9930 5.2289 -2.3477 0.9614
-8.9746 4.7890 -2.5004 0.9590
-9.3654 3.9713 -2.5004 0.9590
-10.0821 1.3559 -2.5005 0.9590
-10.0816 -1.3558 -2.5004 0.9590
-9.3640 -3.9707 -2.5000 0.9590
-8.9729 -4.7881 -2.4999 0.9590
-8.5106 -5.5674 -2.4997 0.9590
-7.9807 -6.3023 -2.4996 0.9590
-2.7940 -9.7713 -2.4981 0.9590
-1.9131 -9.9803 -2.4978 0.9590
0.7914 -10.1282 -2.4971 0.9590
2.5742 -9.8256 -2.4966 0.9590
3.4382 -9.5567 -2.4964 0.9590
5.8396 -8.3069 -2.4959 0.9590
7.8254 -6.4679 -2.4954 0.9590
8.3697 -5.7454 -2.4953 0.9590
8.8475 -4.9775 -2.4952 0.9590
10.1284 -0.6780 -2.4951 0.9590
10.1487 0.2262 -2.4952 0.9590
10.0885 1.1286 -2.4952 0.9590
8.5090 4.2998 -2.3434 0.9615
8.0930 5.0404 -2.3435 0.9615
7.6128 5.7411 -2.3437 0.9615
5.8269 7.5502 -2.3442 0.9615
5.1322 8.0395 -2.3444 0.9615
3.6262 8.8238 -2.3449 0.9615
1.1665 9.4710 -2.3455 0.9615
0.3189 9.5381 -2.3458 0.9615
-1.3776 9.4453 -2.3462 0.9614
-2.2130 9.2861 -2.3464 0.9614
-3.8250 8.7480 -2.3468 0.9614
-5.3162 7.9324 -2.3472 0.9614
-6.0016 7.4282 -2.3473 0.9614
-6.6393 6.8650 -2.3475 0.9614
-7.2243 6.2471 -2.3476 0.9614
-7.7520 5.5796 -2.3477 0.9614
-8.6977 5.1517 -2.4848 0.9592
-9.1791 4.3845 -2.5004 0.9590
-9.8114 2.6876 -2.5005 0.9590
-10.0117 1.8037 -2.5005 0.9590
-10.1325 0.9055 -2.5005 0.9590
-9.4508 -0.8445 -2.5002 0.9615
-9.1508 -2.5066 -2.5001 0.9615
-8.8910 -3.3110 -2.5000 0.9615
-8.5606 -4.0890 -2.4998 0.9615
-8.1622 -4.8345 -2.4997 0.9615
-7.1748 -6.2042 -2.4994 0.9615
-6.5936 -6.8177 -2.4992 0.9615
-4.5570 -8.3154 -2.4986 0.9615
-1.3680 -9.3797 -2.4977 0.9615
-0.5277 -9.4634 -2.4975 0.9616
1.1584 -9.4053 -2.4970 0.9616
3.6012 -8.7630 -2.4964 0.9616
7.0243 -6.3531 -2.4957 0.9616
8.0388 -5.0066 -2.4955 0.9616
9.4675 -0.2110 -2.4953 0.9616
9.4489 0.6326 -2.4954 0.9616
8.4011 2.9172 -2.3433 0.9639
7.3331 5.0339 -2.3437 0.9639
6.3252 6.2552 -2.3440 0.9639
5.7438 6.7938 -2.3442 0.9639
3.7458 8.0720 -2.3448 0.9639
3.0127 8.3741 -2.3450 0.9639
-1.6763 8.7450 -2.3463 0.9638
-2.4481 8.5618 -2.3464 0.9638
-3.2007 8.3106 -2.3466 0.9638
-5.9014 6.6728 -2.3473 0.9638
-6.9917 5.5213 -2.3475 0.9638
-7.5958 4.9690 -2.3917 0.9631
-8.3711 4.4670 -2.5002 0.9615
-9.0309 2.9121 -2.5003 0.9615
-9.4042 1.2647 -2.5003 0.9615
-9.4792 -0.4227 -2.5002 0.9615
-9.4037 -1.2646 -2.5002 0.9615
-9.2535 -2.0966 -2.5001 0.9615
-8.7344 -3.7037 -2.4999 0.9615
-7.9385 -5.1931 -2.4996 0.9615
-6.2831 -7.1044 -2.4991 0.9615
-5.6254 -7.6349 -2.4989 0.9615
-4.9231 -8.1045 -2.4987 0.9615
-4.1819 -8.5098 -2.4985 0.9615
-3.4076 -8.8475 -2.4983 0.9615
-1.7845 -9.3098 -2.4978 0.9615
-0.9487 -9.4309 -2.4976 0.9616
-0.1056 -9.4771 -2.4974 0.9616
0.7383 -9.4480 -2.4971 0.9616
3.9878 -8.5936 -2.4963 0.9616
4.7366 -8.2039 -2.4962 0.9616
5.4476 -7.7493 -2.4960 0.9616
6.7345 -6.6599 -2.4957 0.9616
7.3002 -6.0337 -2.4956 0.9616
7.8079 -5.3598 -2.4955 0.9616
8.6341 -3.8903 -2.4954 0.9616
9.1868 -2.2978 -2.4953 0.9616
9.3548 -1.4710 -2.4953 0.9616
9.4487 -0.6325 -2.4953 0.9616
9.4676 0.2110 -2.4953 0.9616
13.9251 2.8304 -3.7443 0.9429
8.5225 2.5400 -2.3433 0.9639
8.2630 3.2886 -2.3434 0.9639
7.9379 4.0112 -2.3435 0.9639
7.5498 4.7021 -2.3437 0.9639
7.1018 5.3557 -2.3438 0.9639
5.4357 7.0433 -2.3443 0.9639
4.7876 7.4997 -2.3445 0.9639
1.8700 8.7021 -2.3453 0.9639
1.0881 8.8347 -2.3455 0.9638
0.2975 8.8973 -2.3457 0.9638
-0.4957 8.8893 -2.3460 0.9638
-1.2850 8.8106 -2.3462 0.9638
-2.0643 8.6620 -2.3464 0.9638
-4.2803 7.8107 -2.3469 0.9638
-4.9589 7.3992 -2.3470 0.9638
-5.5981 6.9289 -2.3472 0.9638
-6.1929 6.4035 -2.3473 0.9638
-8.5619 4.0897 -2.5002 0.9615
-9.1517 2.5069 -2.5003 0.9615
-9.4511 0.8446 -2.5003 0.9615
-3.9277 -0.3510 -1.1095 0.9837
-3.7904 -1.0383 -1.1057 0.9838
-8.3262 -3.1007 -2.4998 0.9638
-7.6438 -4.5274 -2.4996 0.9638
-7.2101 -5.1895 -2.4994 0.9638
-6.7191 -5.8103 -2.4993 0.9638
-6.1749 -6.3848 -2.4991 0.9638
-5.5817 -6.9086 -2.4989 0.9638
-3.5573 -8.1358 -2.4983 0.9638
0.2966 -8.8709 -2.4973 0.9638
1.0849 -8.8086 -2.4971 0.9638
1.8645 -8.6764 -2.4969 0.9638
2.6291 -8.4754 -2.4967 0.9638
3.3728 -8.2072 -2.4965 0.9638
4.0896 -7.8738 -2.4963 0.9638
4.7739 -7.4781 -2.4962 0.9638
5.4202 -7.0231 -2.4960 0.9638
6.5789 -5.9503 -2.4958 0.9638
7.0821 -5.3408 -2.4957 0.9638
8.4999 -2.5332 -2.4955 0.9638
8.8498 0.5925 -2.4955 0.9638
8.7622 1.3778 -2.4956 0.9638
7.8684 2.7322 -2.3435 0.9660
7.5943 3.4218 -2.3436 0.9660
7.2600 4.0844 -2.3437 0.9660
5.9240 5.8584 -2.3441 0.9660
5.3795 6.3629 -2.3443 0.9660
4.7921 6.8169 -2.3445 0.9660
2.1125 8.0633 -2.3452 0.9660
0.6495 8.3115 -2.3456 0.9660
-0.0929 8.3371 -2.3458 0.9659
-2.2927 8.0182 -2.3464 0.9659
-3.6786 7.4857 -2.3467 0.9659
-4.9482 6.7157 -2.3470 0.9659
-5.5266 6.2490 -2.3471 0.9659
-6.0611 5.7326 -2.3473 0.9659
-8.8772 0.3959 -2.5001 0.9637
-4.2110 -0.1878 -1.1860 0.9826
-3.7396 -0.5029 -1.0616 0.9844
-7.8381 -4.1825 -2.4996 0.9638
-7.4343 -4.8633 -2.4995 0.9638
-5.8842 -6.6533 -2.4990 0.9638
-1.6713 -8.7190 -2.4978 0.9638
-0.8885 -8.8324 -2.4976 0.9638
3.0039 -8.3495 -2.4966 0.9638
5.1021 -7.2578 -2.4961 0.9638
5.7275 -6.7745 -2.4960 0.9638
7.3129 -5.0199 -2.4956 0.9638
8.0866 -3.6436 -2.4955 0.9638
8.6043 -2.1521 -2.4954 0.9638
8.7617 -1.3777 -2.4954 0.9638
13.0421 2.6509 -3.7445 0.9462
7.9821 2.3789 -2.3434 0.9660
7.7390 3.0801 -2.3435 0.9660
5.6574 6.1167 -2.3442 0.9660
5.0909 6.5964 -2.3444 0.9660
4.4839 7.0239 -2.3446 0.9660
3.1680 7.7089 -2.3449 0.9660
1.7513 8.1498 -2.3453 0.9660
0.2786 8.3326 -2.3457 0.9659
-0.4642 8.3250 -2.3459 0.9659
-2.6477 7.9084 -2.3465 0.9659
-3.3413 7.6419 -2.3466 0.9659
-4.0085 7.3147 -2.3468 0.9659
-4.6439 6.9293 -2.3469 0.9659
-8.0180 3.8299 -2.5001 0.9638
-8.3273 3.1011 -2.5001 0.9637
-3.9677 0.0000 -1.1878 0.9836
-3.5918 -0.3210 -1.0796 0.9851
-3.4798 -0.6269 -1.0586 0.9853
-3.4925 -0.9567 -1.0841 0.9850
-7.5338 -3.5986 -2.4996 0.9657
-6.7757 -4.8768 -2.4993 0.9657
-5.8030 -6.0002 -2.4990 0.9657
-4.6465 -6.9331 -2.4987 0.9658
-4.0107 -7.3186 -2.4985 0.9658
-3.3431 -7.6460 -2.4983 0.9658
-2.6491 -7.9125 -2.4981 0.9658
-1.9342 -8.1163 -2.4979 0.9658
-1.2040 -8.2556 -2.4977 0.9658
-0.4644 -8.3293 -2.4975 0.9658
0.2787 -8.3370 -2.4973 0.9658
1.7522 -8.1542 -2.4969 0.9658
2.4709 -7.9653 -2.4968 0.9658
4.4866 -7.0282 -2.4963 0.9658
6.1831 -5.5923 -2.4959 0.9658
8.1688 -1.6604 -2.4956 0.9658
8.3174 0.5568 -2.4957 0.9658
8.2351 1.2949 -2.4957 0.9658
7.1374 3.2160 -2.3437 0.9678
6.4548 4.4310 -2.3439 0.9678
6.0351 4.9882 -2.3441 0.9678
5.5676 5.5059 -2.3442 0.9678
5.0557 5.9800 -2.3444 0.9678
4.5037 6.4067 -2.3445 0.9678
3.2969 7.1047 -2.3449 0.9678
2.6517 7.3706 -2.3451 0.9678
1.3031 7.7252 -2.3454 0.9678
0.6104 7.8111 -2.3456 0.9678
-0.0873 7.8350 -2.3458 0.9678
-1.4753 7.6966 -2.3462 0.9678
-3.4570 7.0348 -2.3466 0.9678
-4.0697 6.6996 -2.3468 0.9678
-4.6501 6.3112 -2.3469 0.9678
-6.1531 4.8591 -2.3472 0.9678
-6.9877 4.5712 -2.4998 0.9657
-7.6878 3.2599 -2.5000 0.9657
-8.2761 1.1131 -2.5000 0.9657
-3.6646 -0.1634 -1.0982 0.9848
-3.5144 -0.4727 -1.0616 0.9853
-7.6869 -3.2595 -2.4996 0.9657
-6.0647 -5.7360 -2.4991 0.9657
-4.9509 -6.7195 -2.4988 0.9658
-3.6806 -7.4897 -2.4984 0.9658
-2.9991 -7.7870 -2.4982 0.9658
-2.2939 -8.0224 -2.4980 0.9658
-0.8351 -8.3007 -2.4976 0.9658
-0.0929 -8.3414 -2.4974 0.9658
1.3873 -8.2245 -2.4970 0.9658
3.5102 -7.5642 -2.4965 0.9658
4.1692 -7.2213 -2.4964 0.9658
5.3829 -6.3669 -2.4961 0.9658
5.9280 -5.8623 -2.4960 0.9658
6.4260 -5.3112 -2.4959 0.9658
7.2654 -4.0874 -2.4957 0.9658
7.8747 -2.7344 -2.4956 0.9658
8.2347 -1.2948 -2.4956 0.9658
8.2845 0.9268 -2.4957 0.9658
7.2734 2.8948 -2.3436 0.9678
6.9872 3.5308 -2.3437 0.9678
6.6456 4.1389 -2.3439 0.9678
5.8071 5.2522 -2.3441 0.9678
3.6100 6.9506 -2.3448 0.9678
2.3208 7.4817 -2.3451 0.9678
0.9577 7.7759 -2.3455 0.9678
0.2618 7.8309 -2.3457 0.9678
-0.4362 7.8237 -2.3459 0.9678
-1.1309 7.7544 -2.3461 0.9678
-2.4883 7.4321 -2.3464 0.9678
-3.7671 6.8740 -2.3467 0.9678
-4.3642 6.5119 -2.3468 0.9678
-4.9267 6.0979 -2.3470 0.9678
-5.4502 5.6354 -2.3471 0.9678
-7.8255 2.9143 -2.5000 0.9657
-8.0539 2.2062 -2.5000 0.9657
-8.3174 0.7433 -2.5000 0.9657
-3.2843 -0.5917 -1.0598 0.9861
-3.2540 -0.8914 -1.0715 0.9859
-7.3758 -2.7467 -2.4996 0.9675
-7.1017 -3.3922 -2.4995 0.9675
-6.3871 -4.5971 -2.4992 0.9675
-5.9523 -5.1471 -2.4991 0.9675
-4.3801 -6.5355 -2.4986 0.9675
-3.1515 -7.2076 -2.4983 0.9675
-2.4973 -7.4590 -2.4981 0.9675
-1.8233 -7.6510 -2.4979 0.9675
-1.1350 -7.7824 -2.4977 0.9675
1.6518 -7.6870 -2.4970 0.9675
2.9882 -7.2713 -2.4967 0.9675
4.2296 -6.6255 -2.4964 0.9675
6.6709 -4.1546 -2.4959 0.9676
7.0140 -3.5443 -2.4958 0.9676
7.3015 -2.9059 -2.4957 0.9676
7.5311 -2.2445 -2.4957 0.9676
7.8566 -0.1750 -2.4957 0.9676
7.7634 1.2208 -2.4958 0.9676
11.4396 2.8612 -3.7449 0.9517
11.1399 3.8682 -3.7451 0.9517
6.4323 3.6187 -2.3439 0.9695
5.6894 4.7024 -2.3441 0.9695
5.2486 5.1904 -2.3443 0.9695
4.7661 5.6373 -2.3444 0.9695
2.4997 6.9481 -2.3451 0.9695
1.8715 7.1436 -2.3453 0.9695
1.2284 7.2824 -2.3454 0.9695
0.5754 7.3633 -2.3456 0.9695
-0.0823 7.3859 -2.3458 0.9695
-1.3907 7.2553 -2.3461 0.9695
-4.3834 5.9492 -2.3468 0.9695
-5.3692 5.0782 -2.3470 0.9695
-5.9035 4.6620 -2.3890 0.9689
-6.9444 3.7057 -2.4998 0.9675
-7.2468 3.0729 -2.4998 0.9675
-7.4916 2.4158 -2.4999 0.9675
-4.3818 0.1954 -1.3930 0.9818
-3.3189 -0.4464 -1.0635 0.9860
-3.2591 -0.7384 -1.0613 0.9861
-5.7169 -5.4070 -2.4990 0.9675
-4.6670 -6.3341 -2.4987 0.9675
-4.0845 -6.7240 -2.4985 0.9675
-2.1624 -7.5625 -2.4980 0.9675
-1.4806 -7.7244 -2.4978 0.9675
-0.0876 -7.8633 -2.4974 0.9675
1.3078 -7.7532 -2.4971 0.9675
3.9304 -6.8075 -2.4964 0.9675
5.5884 -5.5265 -2.4961 0.9676
6.4793 -4.4477 -2.4959 0.9676
6.8493 -3.8533 -2.4958 0.9676
7.4237 -2.5778 -2.4957 0.9676
7.6236 -1.9068 -2.4957 0.9676
7.8566 0.1751 -2.4958 0.9676
7.7014 1.5654 -2.4959 0.9676
11.3009 3.3680 -3.7450 0.9517
6.8568 2.7290 -2.3437 0.9695
6.2649 3.9018 -2.3439 0.9695
5.8930 4.4441 -2.3441 0.9695
4.5104 5.8442 -2.3445 0.9695
3.9726 6.2229 -2.3447 0.9695
2.8067 6.8296 -2.3450 0.9695
2.1878 7.0529 -2.3452 0.9695
1.5515 7.2201 -2.3453 0.9695
0.2468 7.3819 -2.3457 0.9695
-0.4112 7.3751 -2.3459 0.9695
-1.0661 7.3098 -2.3460 0.9695
-1.7126 7.1864 -2.3462 0.9695
-4.1139 6.1384 -2.3468 0.9695
-5.1376 5.3122 -2.3470 0.9695
-5.5902 4.8341 -2.3471 0.9695
-7.5918 2.0796 -2.4999 0.9675
-7.7468 1.3957 -2.4999 0.9675
-7.8403 0.7006 -2.4999 0.9675
-3.6184 0.0000 -1.2157 0.9848
-6.7126 -3.2063 -2.4994 0.9691
-6.4003 -3.7909 -2.4993 0.9691
-6.0372 -4.3453 -2.4992 0.9691
-5.6262 -4.8651 -2.4990 0.9691
-5.1705 -5.3463 -2.4989 0.9691
-4.6739 -5.7849 -2.4987 0.9691
-4.1402 -6.1776 -2.4986 0.9691
-2.9789 -6.8128 -2.4982 0.9691
-2.3605 -7.0505 -2.4981 0.9691
-1.7235 -7.2321 -2.4979 0.9691
-1.0729 -7.3562 -2.4977 0.9691
-0.4138 -7.4220 -2.4975 0.9691
0.9085 -7.3768 -2.4972 0.9691
4.5395 -5.8819 -2.4963 0.9691
6.3059 -3.9273 -2.4960 0.9691
6.6303 -3.3504 -2.4959 0.9691
6.9020 -2.7469 -2.4959 0.9691
7.1190 -2.1217 -2.4958 0.9691
7.2796 -1.4796 -2.4958 0.9691
7.4267 -0.1655 -2.4958 0.9691
7.4120 0.4962 -2.4959 0.9691
7.2070 1.8026 -2.4960 0.9691
10.5303 3.6565 -3.7452 0.9541
5.7520 3.9485 -2.3441 0.9710
4.9613 4.9063 -2.3443 0.9710
4.0133 5.7090 -2.3446 0.9710
3.4894 6.0439 -2.3448 0.9710
2.9379 6.3309 -2.3449 0.9710
1.7691 6.7524 -2.3453 0.9710
-0.6989 6.9472 -2.3459 0.9710
-1.3145 6.8579 -2.3461 0.9710
-1.9198 6.7141 -2.3462 0.9710
-2.5099 6.5170 -2.3464 0.9710
-3.0802 6.2681 -2.3465 0.9710
-4.1432 5.6232 -2.3467 0.9710
-4.6275 5.2324 -2.3469 0.9710
-5.0750 4.8000 -2.3469 0.9710
-7.0811 2.2834 -2.4998 0.9691
-7.2563 1.6441 -2.4998 0.9691
-3.1639 -0.4255 -1.0726 0.9866
-3.1355 -0.7104 -1.0802 0.9865
-3.1417 -1.0131 -1.1091 0.9862
-6.5630 -3.5021 -2.4993 0.9691
-6.2249 -4.0721 -2.4992 0.9691
-5.8375 -4.6098 -2.4991 0.9691
-4.9271 -5.5711 -2.4988 0.9691
-4.4114 -5.9872 -2.4987 0.9691
-3.8607 -6.3557 -2.4985 0.9691
-2.6723 -6.9385 -2.4982 0.9691
-0.7441 -7.3965 -2.4976 0.9691
1.2362 -7.3287 -2.4971 0.9691
1.8835 -7.1892 -2.4970 0.9691
2.5157 -6.9926 -2.4968 0.9691
3.1279 -6.7405 -2.4967 0.9691
3.7153 -6.4350 -2.4965 0.9691
4.2730 -6.0785 -2.4964 0.9691
5.2826 -5.2240 -2.4962 0.9691
6.1247 -4.2044 -2.4960 0.9691
6.4745 -3.6425 -2.4959 0.9691
7.0175 -2.4367 -2.4958 0.9691
7.2065 -1.8024 -2.4958 0.9691
7.3383 -1.1539 -2.4958 0.9691
7.4119 -0.4961 -2.4958 0.9691
7.3827 0.8259 -2.4959 0.9691
10.6826 3.1837 -3.7452 0.9541
10.3572 4.1220 -3.7453 0.9541
6.2265 3.1464 -2.3439 0.9710
5.9220 3.6883 -2.3440 0.9710
5.5705 4.2010 -2.3441 0.9710
5.1748 4.6804 -2.3443 0.9710
4.7379 5.1226 -2.3444 0.9710
3.2169 6.1935 -2.3449 0.9710
2.6530 6.4557 -2.3450 0.9710
1.4666 6.8248 -2.3453 0.9710
0.2333 6.9777 -2.3457 0.9710
-1.0077 6.9094 -2.3460 0.9710
-3.3565 6.1248 -2.3466 0.9710
-3.8885 5.8021 -2.3467 0.9710
-6.0382 4.3460 -2.4996 0.9691
-6.4012 3.7915 -2.4996 0.9691
-6.7134 3.2068 -2.4997 0.9691
-6.9723 2.5965 -2.4997 0.9691
-7.4106 0.6622 -2.4998 0.9691
-3.4902 0.0000 -1.2376 0.9853
-3.0229 -0.8281 -1.1114 0.9868
-6.0643 -3.5919 -2.4992 0.9705
-4.8991 -5.0656 -2.4988 0.9705
-4.4286 -5.4813 -2.4987 0.9705
-3.3861 -6.1789 -2.4984 0.9705
-2.2366 -6.6805 -2.4981 0.9705
-1.0166 -6.9703 -2.4977 0.9705
-0.3921 -7.0327 -2.4976 0.9705
3.2454 -6.2485 -2.4966 0.9706
3.7885 -5.9345 -2.4965 0.9706
5.9752 -3.7214 -2.4961 0.9706
6.7458 -2.0105 -2.4959 0.9706
6.9954 -0.7825 -2.4959 0.9706
7.0373 -0.1568 -2.4960 0.9706
6.0269 2.7156 -2.3440 0.9723
5.7615 3.2414 -2.3440 0.9723
5.4504 3.7415 -2.3442 0.9723
2.2389 6.2232 -2.3451 0.9723
-1.2455 6.4980 -2.3460 0.9723
-2.3782 6.1749 -2.3463 0.9723
-3.9257 5.3280 -2.3467 0.9723
-4.3845 4.9577 -2.3468 0.9723
-4.8086 4.5479 -2.3469 0.9723
-5.8990 3.8590 -2.4995 0.9705
-6.4900 2.7520 -2.4996 0.9705
-6.9866 0.9396 -2.4997 0.9705
-3.9464 0.1760 -1.4007 0.9834
-3.0241 -0.6852 -1.0995 0.9869
-3.0191 -0.9735 -1.1248 0.9866
-6.4893 -2.7517 -2.4994 0.9705
-6.2184 -3.3182 -2.4993 0.9705
-5.8981 -3.8583 -2.4991 0.9705
-5.1201 -4.8425 -2.4989 0.9705
-2.5321 -6.5745 -2.4981 0.9705
-1.3261 -6.9183 -2.4978 0.9705
-0.7050 -7.0084 -2.4976 0.9705
0.5487 -7.0215 -2.4973 0.9706
1.1714 -6.9443 -2.4972 0.9706
3.5204 -6.0975 -2.4966 0.9706
4.5454 -5.3762 -2.4964 0.9706
5.4262 -4.4848 -2.4962 0.9706
5.8036 -3.9839 -2.4961 0.9706
6.4178 -2.8917 -2.4960 0.9706
6.6496 -2.3089 -2.4959 0.9706
6.8286 -1.7079 -2.4959 0.9706
6.9536 -1.0934 -2.4959 0.9706
7.0233 -0.4701 -2.4959 0.9706
7.0374 0.1568 -2.4960 0.9706
6.8983 1.4022 -2.4961 0.9706
10.1225 3.0168 -3.7453 0.9562
5.9000 2.9815 -2.3440 0.9723
5.6115 3.4949 -2.3441 0.9723
5.2784 3.9806 -2.3442 0.9723
4.9034 4.4349 -2.3443 0.9723
4.4895 4.8539 -2.3445 0.9723
3.5581 5.5737 -2.3447 0.9723
1.3896 6.4667 -2.3453 0.9723
0.2211 6.6115 -2.3457 0.9723
-0.9548 6.5468 -2.3460 0.9723
-2.1007 6.2746 -2.3462 0.9723
-3.1803 5.8033 -2.3465 0.9723
-3.6844 5.4975 -2.3466 0.9723
-4.6011 4.7576 -2.3468 0.9723
-5.7212 4.1179 -2.4995 0.9705
-6.3609 3.0384 -2.4996 0.9705
-6.6062 2.4602 -2.4996 0.9705
-3.3741 0.0000 -1.2599 0.9857
-2.9455 -0.5307 -1.1176 0.9873
-2.9169 -0.7990 -1.1293 0.9872
-2.9238 -1.0888 -1.1650 0.9868
-6.0394 -2.8848 -2.4992 0.9718
-5.7584 -3.4107 -2.4991 0.9718
-5.0620 -4.3772 -2.4989 0.9718
-4.6520 -4.8101 -2.4988 0.9718
-4.2052 -5.2049 -2.4986 0.9718
-3.7251 -5.5582 -2.4985 0.9718
-0.9653 -6.6189 -2.4977 0.9718
-0.3724 -6.6781 -2.4976 0.9718
0.2235 -6.6844 -2.4974 0.9718
0.8175 -6.6375 -2.4973 0.9718
1.4050 -6.5380 -2.4971 0.9719
1.9812 -6.3867 -2.4970 0.9719
2.5416 -6.1846 -2.4968 0.9719
3.0818 -5.9336 -2.4967 0.9719
4.0847 -5.2926 -2.4965 0.9719
5.3373 -4.0250 -2.4962 0.9719
5.9661 -3.0148 -2.4961 0.9719
6.2107 -2.4718 -2.4961 0.9719
6.6828 -0.1489 -2.4960 0.9719
6.6035 1.0384 -2.4961 0.9719
6.4850 1.6221 -2.4962 0.9719
9.1453 4.1206 -3.7456 0.9581
4.8392 3.9997 -2.3443 0.9735
4.4642 4.4147 -2.3444 0.9735
3.6111 5.1369 -2.3447 0.9735
3.1398 5.4382 -2.3448 0.9735
2.1261 5.9095 -2.3451 0.9735
1.0447 6.1936 -2.3454 0.9735
-0.0700 6.2815 -2.3457 0.9735
-0.6288 6.2507 -2.3459 0.9735
-1.1827 6.1703 -2.3460 0.9735
-1.7273 6.0409 -2.3461 0.9735
-2.2583 5.8635 -2.3463 0.9735
-5.6014 3.6643 -2.4994 0.9718
-6.1626 2.6132 -2.4995 0.9718
-6.3708 2.0544 -2.4996 0.9718
-6.5284 1.4792 -2.4996 0.9718
-6.6341 0.8922 -2.4996 0.9718
-2.9640 -0.3986 -1.1167 0.9873
-2.9258 -0.6629 -1.1202 0.9873
-2.9106 -0.9386 -1.1419 0.9870
-6.1620 -2.6129 -2.4993 0.9718
-5.6006 -3.6637 -2.4991 0.9718
-5.2521 -4.1475 -2.4990 0.9718
-4.8618 -4.5983 -2.4988 0.9718
-3.9691 -5.3869 -2.4986 0.9718
-2.9507 -6.0046 -2.4983 0.9718
-2.4044 -6.2429 -2.4981 0.9718
-0.6695 -6.6551 -2.4976 0.9718
1.6948 -6.4688 -2.4970 0.9719
3.3430 -5.7903 -2.4966 0.9719
3.8450 -5.4695 -2.4965 0.9719
4.7534 -4.7007 -2.4963 0.9719
5.5112 -3.7832 -2.4962 0.9719
5.8259 -3.2776 -2.4961 0.9719
6.0944 -2.7460 -2.4961 0.9719
6.4846 -1.6219 -2.4960 0.9719
6.6033 -1.0383 -2.4960 0.9719
6.6828 0.1490 -2.4961 0.9719
9.3196 3.7091 -3.7455 0.9581
5.6027 2.8312 -2.3441 0.9736
5.3287 3.3188 -2.3442 0.9736
5.0124 3.7801 -2.3443 0.9736
4.6563 4.2114 -2.3444 0.9735
4.2632 4.6094 -2.3445 0.9735
3.8363 4.9708 -2.3446 0.9735
3.3788 5.2928 -2.3448 0.9735
2.8945 5.5729 -2.3449 0.9735
2.3871 5.8087 -2.3451 0.9735
1.8608 5.9985 -2.3452 0.9735
1.3196 6.1407 -2.3453 0.9735
-3.0199 5.5106 -2.3464 0.9735
-3.9494 4.8883 -2.3467 0.9735
-4.3690 4.5176 -2.3468 0.9735
-5.0628 4.3780 -2.4993 0.9718
-6.2729 2.3361 -2.4995 0.9718
-6.5878 1.1869 -2.4996 0.9718
-2.9005 -0.2592 -1.1429 0.9876
-2.8518 -0.5138 -1.1373 0.9876
-5.4786 -3.2450 -2.4991 0.9730
-4.0009 -4.9520 -2.4986 0.9730
-3.5441 -5.2882 -2.4985 0.9730
-3.0592 -5.5823 -2.4983 0.9730
-2.5501 -5.8321 -2.4982 0.9730
-2.0207 -6.0356 -2.4980 0.9730
-1.4754 -6.1911 -2.4979 0.9730
-0.9185 -6.2975 -2.4977 0.9730
-0.3543 -6.3538 -2.4976 0.9730
0.7778 -6.3153 -2.4973 0.9730
1.3367 -6.2206 -2.4971 0.9730
2.9322 -5.6455 -2.4968 0.9730
3.4229 -5.3619 -2.4966 0.9730
3.8864 -5.0358 -2.4965 0.9730
4.3190 -4.6697 -2.4964 0.9730
6.0951 -1.8165 -2.4961 0.9730
6.3206 -0.7070 -2.4961 0.9730
6.3585 -0.1417 -2.4961 0.9730
6.2830 0.9880 -2.4962 0.9730
6.1703 1.5433 -2.4963 0.9730
9.0156 3.1305 -3.7456 0.9598
8.7014 3.9207 -3.7457 0.9598
5.2056 2.9286 -2.3442 0.9747
4.6043 3.8056 -2.3444 0.9747
4.2475 4.2004 -2.3445 0.9747
2.9873 5.1742 -2.3449 0.9747
2.5151 5.4198 -2.3450 0.9747
1.5145 5.7806 -2.3453 0.9746
0.4656 5.9582 -2.3456 0.9746
-0.5983 5.9471 -2.3458 0.9746
-1.1253 5.8706 -2.3460 0.9746
-2.1486 5.5787 -2.3462 0.9746
-4.6264 4.3757 -2.4992 0.9730
-5.3292 3.4863 -2.4994 0.9730
-5.6185 2.9981 -2.4994 0.9730
-5.8631 2.4862 -2.4994 0.9730
-6.0612 1.9545 -2.4995 0.9730
-6.2111 1.4073 -2.4995 0.9730
-6.3118 0.8489 -2.4995 0.9730
-2.8326 -0.6418 -1.1399 0.9876
-2.8403 -0.9159 -1.1712 0.9873
-2.8717 -1.2177 -1.2242 0.9867
-5.6178 -2.9977 -2.4991 0.9730
-4.9969 -3.9460 -2.4989 0.9730
-4.6256 -4.3749 -2.4988 0.9730
-1.1981 -6.2505 -2.4978 0.9730
-0.0709 -6.3631 -2.4975 0.9730
1.0583 -6.2742 -2.4972 0.9730
1.6125 -6.1547 -2.4971 0.9730
2.1538 -5.9865 -2.4969 0.9730
2.6779 -5.7707 -2.4968 0.9730
4.1068 -4.8575 -2.4965 0.9730
4.9027 -4.0521 -2.4963 0.9730
5.2437 -3.5996 -2.4963 0.9730
5.7987 -2.6127 -2.4962 0.9730
6.1699 -1.5432 -2.4961 0.9730
6.3458 -0.4248 -2.4961 0.9730
6.2329 1.2669 -2.4962 0.9730
6.0955 1.8167 -2.4963 0.9730
8.8673 3.5291 -3.7457 0.9598
5.3308 2.6938 -2.3441 0.9747
4.7691 3.5966 -2.3443 0.9747
4.4303 4.0070 -2.3444 0.9747
3.6500 4.7295 -2.3447 0.9747
2.2712 5.5267 -2.3451 0.9747
-0.8626 5.9147 -2.3459 0.9746
-1.3857 5.8148 -2.3460 0.9746
-3.3285 4.9666 -2.3465 0.9746
-3.7575 4.6508 -2.3466 0.9746
-4.2135 4.3567 -2.3787 0.9743
-4.8168 4.1653 -2.4993 0.9730
-5.1686 3.7201 -2.4993 0.9730
-5.4793 3.2454 -2.4994 0.9730
-5.7465 2.7449 -2.4994 0.9730
-6.1423 1.6826 -2.4995 0.9730
-6.2677 1.1292 -2.4995 0.9730
-3.1614 0.0000 -1.3018 0.9864
-2.8130 -0.2514 -1.1629 0.9879
-2.7695 -0.7587 -1.1825 0.9877
-2.7842 -1.0369 -1.2234 0.9872
-5.4763 -2.6158 -2.4991 0.9741
-5.2216 -3.0927 -2.4990 0.9741
-3.8133 -4.7197 -2.4986 0.9741
-3.3779 -5.0401 -2.4984 0.9741
-2.9157 -5.3205 -2.4983 0.9741
-1.9259 -5.7525 -2.4980 0.9741
-1.4062 -5.9008 -2.4979 0.9741
-0.8754 -6.0021 -2.4977 0.9741
0.2027 -6.0616 -2.4974 0.9741
1.7966 -5.7917 -2.4970 0.9741
2.3049 -5.6085 -2.4969 0.9741
2.7948 -5.3809 -2.4968 0.9741
4.8403 -3.6502 -2.4964 0.9741
5.1458 -3.2048 -2.4963 0.9741
5.4105 -2.7340 -2.4963 0.9741
5.9405 -1.2074 -2.4962 0.9741
6.0244 -0.6739 -2.4962 0.9741
6.0485 0.4049 -2.4962 0.9741
5.9886 0.9417 -2.4963 0.9741
5.8811 1.4710 -2.4963 0.9741
5.7270 1.9887 -2.4964 0.9741
4.9616 2.7914 -2.3442 0.9757
4.0484 4.0036 -2.3445 0.9757
3.6762 4.3482 -2.3446 0.9757
3.2747 4.6584 -2.3448 0.9757
2.8473 4.9316 -2.3449 0.9757
2.3972 5.1657 -2.3450 0.9757
1.4434 5.5095 -2.3453 0.9757
0.9474 5.6165 -2.3454 0.9757
-0.0635 5.6961 -2.3457 0.9757
-0.5702 5.6682 -2.3458 0.9757
-1.5663 5.4778 -2.3461 0.9757
-2.5130 5.1138 -2.3463 0.9757
-2.9583 4.8701 -2.3464 0.9757
-3.3802 4.5876 -2.3465 0.9757
-3.7923 4.2881 -2.3572 0.9755
-4.4093 4.1703 -2.4991 0.9741
-6.0156 0.8091 -2.4994 0.9741
-3.5093 0.1565 -1.4465 0.9849
-2.7756 -0.6289 -1.1719 0.9878
-2.7775 -0.8956 -1.2017 0.9875
-2.8016 -1.1879 -1.2531 0.9869
-5.3543 -2.8571 -2.4991 0.9741
-5.0785 -3.3222 -2.4990 0.9741
-4.7625 -3.7609 -2.4989 0.9741
-3.5991 -4.8848 -2.4985 0.9741
-3.1499 -5.1854 -2.4984 0.9741
-2.6757 -5.4449 -2.4982 0.9741
-2.1804 -5.6612 -2.4981 0.9741
-0.0676 -6.0648 -2.4975 0.9741
0.4725 -6.0464 -2.4974 0.9741
1.0087 -5.9800 -2.4972 0.9741
2.0528 -5.7058 -2.4970 0.9741
2.5524 -5.5002 -2.4969 0.9741
3.4868 -4.9600 -2.4966 0.9741
5.8808 -1.4709 -2.4962 0.9741
5.9883 -0.9416 -2.4962 0.9741
6.0605 0.1351 -2.4962 0.9741
5.9407 1.2075 -2.4963 0.9741
8.4517 3.3637 -3.7458 0.9614
4.5456 3.4280 -2.3444 0.9757
3.4789 4.5078 -2.3447 0.9757
2.6248 5.0537 -2.3450 0.9757
2.1647 5.2675 -2.3451 0.9757
1.6874 5.4396 -2.3452 0.9757
0.6963 5.6533 -2.3455 0.9757
0.1903 5.6931 -2.3456 0.9757
-0.8222 5.6373 -2.3459 0.9757
-1.3207 5.5420 -2.3460 0.9757
-1.8088 5.4028 -2.3461 0.9757
-2.2827 5.2206 -2.3462 0.9757
-2.7384 4.9969 -2.3463 0.9757
-4.5908 3.9698 -2.4992 0.9741
-4.9261 3.5456 -2.4993 0.9741
-5.8541 1.6036 -2.4994 0.9741
-3.9772 0.3554 -1.6443 0.9829
-2.7539 -0.2461 -1.1927 0.9880
-2.7209 -1.0133 -1.2524 0.9874
-2.7299 -1.3040 -1.3050 0.9869
-2.7884 -1.6516 -1.3980 0.9860
-4.3817 -3.7890 -2.4988 0.9751
-3.6402 -4.5054 -2.4985 0.9751
-3.2245 -4.8113 -2.4984 0.9751
-2.7834 -5.0790 -2.4983 0.9751
-2.3201 -5.3063 -2.4981 0.9751
-1.8385 -5.4914 -2.4980 0.9751
-1.3424 -5.6329 -2.4979 0.9751
-0.3223 -5.7811 -2.4976 0.9751
0.7077 -5.7460 -2.4973 0.9751
1.2163 -5.6599 -2.4972 0.9751
1.7151 -5.5290 -2.4971 0.9751
3.5362 -4.5820 -2.4967 0.9751
3.9299 -4.2489 -2.4966 0.9751
4.2923 -3.8821 -2.4965 0.9751
5.3769 -2.1399 -2.4963 0.9751
5.7511 -0.6434 -2.4963 0.9751
5.7856 -0.1289 -2.4963 0.9751
5.7742 0.3865 -2.4963 0.9751
5.6144 1.4043 -2.4964 0.9751
5.4672 1.8985 -2.4965 0.9751
5.2767 2.3776 -2.4965 0.9751
4.8225 2.7131 -2.3868 0.9762
4.4807 3.0759 -2.3444 0.9766
4.1894 3.4626 -2.3445 0.9766
2.7181 4.7079 -2.3449 0.9766
2.2884 4.9313 -2.3450 0.9766
1.8405 5.1157 -2.3452 0.9766
-0.5443 5.4109 -2.3458 0.9766
-1.0238 5.3412 -2.3459 0.9766
-1.4952 5.2292 -2.3460 0.9766
-2.3989 4.8817 -2.3463 0.9766
-2.8240 4.6490 -2.3464 0.9766
-3.2267 4.3794 -2.3464 0.9766
-3.7691 4.2618 -2.4541 0.9755
-4.5469 3.5907 -2.4992 0.9751
-4.8485 3.1718 -2.4992 0.9751
-5.3343 2.2620 -2.4993 0.9751
-5.5145 1.7782 -2.4993 0.9751
-5.6509 1.2803 -2.4993 0.9751
-2.8614 -0.1276 -1.2355 0.9876
-2.7402 -0.3685 -1.1926 0.9880
-2.7166 -0.8760 -1.2313 0.9876
-4.8479 -3.1714 -2.4989 0.9751
-4.2085 -3.9803 -2.4987 0.9751
-3.4357 -4.6630 -2.4985 0.9751
-3.0069 -4.9501 -2.4983 0.9751
-2.5543 -5.1978 -2.4982 0.9751
-2.0814 -5.4042 -2.4981 0.9751
-1.0901 -5.6870 -2.4978 0.9751
-0.0645 -5.7896 -2.4975 0.9751
0.9629 -5.7087 -2.4973 0.9751
1.9597 -5.4469 -2.4970 0.9751
2.8941 -5.0127 -2.4968 0.9751
3.3287 -4.7350 -2.4967 0.9751
3.7368 -4.4198 -2.4966 0.9751
4.4609 -3.6870 -2.4965 0.9751
4.7713 -3.2753 -2.4964 0.9751
5.2762 -2.3773 -2.4963 0.9751
5.4668 -1.8982 -2.4963 0.9751
5.6141 -1.4041 -2.4963 0.9751
5.7741 -0.3865 -2.4963 0.9751
5.7856 0.1290 -2.4963 0.9751
5.7513 0.6434 -2.4963 0.9751
5.6713 1.1527 -2.4964 0.9751
5.5463 1.6530 -2.4964 0.9751
5.1657 2.6103 -2.4966 0.9751
3.6907 3.9904 -2.3446 0.9766
3.3211 4.3032 -2.3447 0.9766
2.9250 4.5820 -2.3449 0.9766
2.5057 4.8244 -2.3450 0.9766
2.0665 5.0285 -2.3451 0.9766
1.6108 5.1928 -2.3452 0.9766
0.6647 5.3967 -2.3455 0.9766
-0.3027 5.4296 -2.3457 0.9766
-1.2608 5.2904 -2.3460 0.9766
-1.7267 5.1575 -2.3461 0.9766
-2.1790 4.9836 -2.3462 0.9766
-2.6140 4.7701 -2.3463 0.9766
-4.0276 4.1645 -2.4990 0.9751
-5.2282 2.4973 -2.4993 0.9751
-5.4298 2.0221 -2.4993 0.9751
-5.5882 1.5308 -2.4993 0.9751
-3.8265 0.3419 -1.6572 0.9834
-2.7005 -0.2413 -1.2234 0.9882
-2.6738 -0.4817 -1.2259 0.9881
-2.6607 -0.9909 -1.2811 0.9876
-3.8496 -3.9805 -2.4986 0.9760
-1.2833 -5.3850 -2.4979 0.9760
-0.7989 -5.4776 -2.4977 0.9760
-0.3082 -5.5267 -2.4976 0.9760
0.1850 -5.5319 -2.4975 0.9760
0.6766 -5.4932 -2.4974 0.9760
1.1627 -5.4109 -2.4972 0.9760
1.6396 -5.2857 -2.4971 0.9760
2.1035 -5.1185 -2.4970 0.9760
2.5506 -4.9108 -2.4969 0.9760
2.9775 -4.6641 -2.4968 0.9760
3.7570 -4.0620 -2.4966 0.9760
4.1035 -3.7114 -2.4965 0.9760
4.6963 -2.9248 -2.4964 0.9760
5.3020 -1.5801 -2.4963 0.9760
5.5311 -0.1232 -2.4963 0.9760
5.5202 0.3696 -2.4964 0.9760
5.3674 1.3425 -2.4965 0.9760
5.2267 1.8149 -2.4965 0.9760
3.6947 3.6538 -2.3446 0.9775
2.5985 4.5007 -2.3449 0.9775
1.7595 4.8906 -2.3452 0.9774
-0.0579 5.1982 -2.3457 0.9774
-1.4294 4.9990 -2.3460 0.9774
-1.8687 4.8521 -2.3461 0.9774
-3.6690 4.1486 -2.4990 0.9760
-4.0238 3.8057 -2.4990 0.9760
-4.6350 3.0321 -2.4991 0.9760
-5.0993 2.1623 -2.4992 0.9760
-5.2716 1.6999 -2.4993 0.9760
-5.4895 0.7383 -2.4993 0.9760
-3.2608 0.1454 -1.4728 0.9858
-2.7833 -0.1241 -1.2571 0.9878
-2.6659 -0.6040 -1.2334 0.9881
-4.8861 -2.6073 -2.4989 0.9760
-4.3461 -3.4321 -2.4988 0.9760
-4.0232 -3.8051 -2.4987 0.9760
-3.6684 -4.1479 -2.4986 0.9760
-3.2845 -4.4577 -2.4984 0.9760
-1.9898 -5.1663 -2.4981 0.9760
-1.5220 -5.3227 -2.4979 0.9760
-0.0617 -5.5348 -2.4975 0.9760
1.8734 -5.2072 -2.4971 0.9760
2.3294 -5.0196 -2.4969 0.9760
3.1822 -4.5268 -2.4967 0.9760
3.9342 -3.8905 -2.4966 0.9760
4.2647 -3.5248 -2.4965 0.9760
4.8219 -2.7128 -2.4964 0.9760
5.0441 -2.2728 -2.4964 0.9760
5.4653 -0.8593 -2.4963 0.9760
5.5201 -0.3695 -2.4963 0.9760
5.4983 0.6151 -2.4964 0.9760
5.3023 1.5803 -2.4965 0.9760
4.4647 2.7807 -2.3733 0.9772
3.8537 3.4854 -2.3446 0.9775
3.5283 3.8148 -2.3447 0.9775
2.7963 4.3803 -2.3449 0.9775
2.3955 4.6121 -2.3450 0.9775
1.5399 4.9642 -2.3452 0.9774
0.1737 5.1955 -2.3456 0.9774
-0.2894 5.1906 -2.3457 0.9774
-0.7503 5.1445 -2.3458 0.9774
-1.2053 5.0576 -2.3460 0.9774
-1.6507 4.9305 -2.3461 0.9774
-2.4989 4.5600 -2.3463 0.9774
-3.8502 3.9811 -2.4990 0.9760
-4.1894 3.6227 -2.4991 0.9760
-4.7655 2.8226 -2.4992 0.9760
-4.9979 2.3873 -2.4992 0.9760
-5.1906 1.9330 -2.4992 0.9760
-5.3421 1.4634 -2.4993 0.9760
-5.4512 0.9821 -2.4993 0.9760
-2.6023 -0.9691 -1.3090 0.9878
-2.6052 -1.2444 -1.3609 0.9873
-2.6596 -1.5753 -1.4571 0.9864
-4.0096 -3.4672 -2.4987 0.9768
-3.3310 -4.1229 -2.4985 0.9768
-2.9507 -4.4028 -2.4984 0.9768
-1.2284 -5.1547 -2.4979 0.9768
0.6476 -5.2583 -2.4974 0.9768
1.1130 -5.1796 -2.4973 0.9768
2.0136 -4.8997 -2.4970 0.9768
3.5964 -3.8884 -2.4967 0.9769
4.4956 -2.7998 -2.4965 0.9769
4.7269 -2.3886 -2.4964 0.9769
5.0754 -1.5126 -2.4964 0.9769
5.2631 -0.5887 -2.4964 0.9769
5.2842 0.3537 -2.4964 0.9769
5.1380 1.2851 -2.4965 0.9769
5.0033 1.7373 -2.4966 0.9769
4.8289 2.1759 -2.4966 0.9769
4.6163 2.5971 -2.4967 0.9768
4.1389 2.8412 -2.3664 0.9780
3.8338 3.1688 -2.3445 0.9782
3.5367 3.4976 -2.3446 0.9782
3.2115 3.7986 -2.3447 0.9782
2.8608 4.0696 -2.3448 0.9782
2.0941 4.5128 -2.3451 0.9782
1.6842 4.6814 -2.3452 0.9782
0.3876 4.9608 -2.3455 0.9782
-0.0554 4.9759 -2.3456 0.9782
-0.9369 4.8877 -2.3459 0.9782
-1.3682 4.7851 -2.3460 0.9782
-1.7888 4.6446 -2.3461 0.9782
-2.1952 4.4671 -2.3462 0.9782
-2.5842 4.2542 -2.3463 0.9782
-3.0480 4.1368 -2.4221 0.9775
-3.5120 3.9711 -2.4989 0.9768
-3.8516 3.6429 -2.4990 0.9768
-4.4367 2.9023 -2.4991 0.9768
-4.6775 2.4960 -2.4991 0.9768
-2.5994 -0.8382 -1.2874 0.9880
-2.5902 -1.3822 -1.3839 0.9871
-4.1601 -3.2852 -2.4987 0.9768
-3.8511 -3.6423 -2.4986 0.9768
-3.1440 -4.2670 -2.4984 0.9768
-1.4569 -5.0950 -2.4979 0.9768
0.4128 -5.2821 -2.4974 0.9768
0.8812 -5.2241 -2.4973 0.9768
2.2298 -4.8050 -2.4970 0.9768
2.6485 -4.5873 -2.4969 0.9768
3.0462 -4.3332 -2.4968 0.9768
3.7660 -3.7242 -2.4966 0.9769
4.0824 -3.3742 -2.4966 0.9769
4.6158 -2.5968 -2.4965 0.9769
5.2317 -0.8226 -2.4964 0.9769
5.2842 -0.3537 -2.4964 0.9769
5.2947 0.1180 -2.4964 0.9769
4.9210 1.9586 -2.4966 0.9769
4.7273 2.3888 -2.4967 0.9769
4.4427 2.7670 -2.4672 0.9771
3.9711 2.9948 -2.3445 0.9782
3.6889 3.3365 -2.3446 0.9782
3.3775 3.6517 -2.3447 0.9782
3.0392 3.9380 -2.3448 0.9782
1.8911 4.6016 -2.3451 0.9782
1.0453 4.8645 -2.3454 0.9782
0.6082 4.9385 -2.3455 0.9782
-0.2770 4.9686 -2.3457 0.9782
-0.7182 4.9245 -2.3458 0.9782
-1.1537 4.8412 -2.3459 0.9782
-1.9940 4.5604 -2.3461 0.9782
-2.7712 4.1349 -2.3463 0.9782
-3.3316 4.1236 -2.4989 0.9768
-3.6855 3.8108 -2.4989 0.9768
-4.0101 3.4677 -2.4990 0.9768
-4.3029 3.0971 -2.4991 0.9768
-4.5616 2.7019 -2.4991 0.9768
-4.9685 1.8503 -2.4992 0.9768
-5.1135 1.4008 -2.4992 0.9768
-5.2179 0.9401 -2.4992 0.9768
-2.5457 -1.2160 -1.3876 0.9875
-4.3712 -2.5890 -2.4988 0.9776
-3.8426 -3.3228 -2.4986 0.9776
-3.1923 -3.9511 -2.4984 0.9776
-2.4410 -4.4542 -2.4982 0.9776
-1.1773 -4.9401 -2.4979 0.9776
0.6207 -5.0394 -2.4974 0.9776
1.9298 -4.6958 -2.4971 0.9776
2.3400 -4.5052 -2.4970 0.9776
2.7316 -4.2789 -2.4969 0.9776
3.4467 -3.7265 -2.4967 0.9776
3.7646 -3.4048 -2.4966 0.9776
4.0526 -3.0562 -2.4966 0.9776
4.5302 -2.2891 -2.4965 0.9776
4.8642 -1.4496 -2.4965 0.9776
5.0441 -0.5643 -2.4965 0.9776
5.0744 -0.1131 -2.4965 0.9776
5.0141 0.7885 -2.4965 0.9776
4.7951 1.6651 -2.4966 0.9776
4.6280 2.0853 -2.4967 0.9776
4.4241 2.4890 -2.4968 0.9776
4.1191 2.8277 -2.4574 0.9780
3.3895 3.3520 -2.3447 0.9790
3.0778 3.6405 -2.3448 0.9790
2.7417 3.9002 -2.3449 0.9790
2.3838 4.1289 -2.3450 0.9790
1.6141 4.4865 -2.3452 0.9790
1.2085 4.6126 -2.3453 0.9790
0.3715 4.7543 -2.3455 0.9790
-0.0531 4.7687 -2.3456 0.9790
-1.3113 4.5859 -2.3460 0.9790
-1.7143 4.4511 -2.3461 0.9790
-2.4765 4.0770 -2.3462 0.9790
-3.3657 3.8057 -2.4989 0.9776
-3.6912 3.4911 -2.4989 0.9776
-3.9874 3.1488 -2.4990 0.9776
-4.4826 2.3921 -2.4991 0.9776
-4.6778 1.9836 -2.4991 0.9776
-4.8358 1.5594 -2.4991 0.9776
-4.9555 1.1228 -2.4991 0.9776
-5.0357 0.6772 -2.4991 0.9776
-2.6467 -0.1180 -1.3031 0.9883
-2.5441 -1.0788 -1.3592 0.9878
-4.2514 -2.7811 -2.4988 0.9776
-3.6907 -3.4906 -2.4986 0.9776
-3.0131 -4.0894 -2.4984 0.9776
-1.8254 -4.7394 -2.4980 0.9776
-1.3962 -4.8829 -2.4979 0.9776
-0.9560 -4.9875 -2.4978 0.9776
-0.0566 -5.0775 -2.4976 0.9776
0.8445 -5.0066 -2.4973 0.9776
1.7187 -4.7772 -2.4971 0.9776
2.9194 -4.1529 -2.4968 0.9776
3.2773 -3.8764 -2.4968 0.9776
3.9125 -3.2337 -2.4966 0.9776
4.4237 -2.4887 -2.4965 0.9776
4.9239 -1.2315 -2.4965 0.9776
5.0744 0.1131 -2.4965 0.9776
5.0442 0.5643 -2.4965 0.9776
4.9741 1.0110 -2.4965 0.9776
4.7162 1.8770 -2.4967 0.9776
4.5306 2.2894 -2.4967 0.9776
2.5653 4.0185 -2.3449 0.9790
1.8124 4.4101 -2.3451 0.9790
1.4127 4.5541 -2.3452 0.9790
0.5829 4.7329 -2.3455 0.9790
-0.2655 4.7617 -2.3457 0.9790
-0.6883 4.7194 -2.3458 0.9790
-1.5143 4.5230 -2.3460 0.9790
-2.2924 4.1832 -2.3462 0.9790
-2.7350 4.0810 -2.4163 0.9783
-3.5320 3.6521 -2.4989 0.9776
-3.8431 3.3233 -2.4990 0.9776
-4.1237 2.9681 -2.4990 0.9776
-4.3716 2.5893 -2.4991 0.9776
-4.7615 1.7733 -2.4991 0.9776
-5.0006 0.9009 -2.4991 0.9776
-3.6334 0.3246 -1.7942 0.9839
-2.5372 -0.2267 -1.3059 0.9886
-2.5199 -0.4540 -1.3126 0.9886
-2.4994 -0.6847 -1.3286 0.9884
-2.4879 -1.1884 -1.4135 0.9877
-3.9558 -2.8472 -2.4987 0.9783
-3.0627 -3.7907 -2.4984 0.9783
-2.7130 -4.0480 -2.4983 0.9783
-1.9521 -4.4646 -2.4981 0.9783
-1.5469 -4.6204 -2.4980 0.9783
0.5955 -4.8348 -2.4974 0.9783
1.8514 -4.5051 -2.4971 0.9783
2.2450 -4.3223 -2.4970 0.9783
3.8882 -2.9322 -2.4966 0.9783
4.5245 -1.8007 -2.4965 0.9783
4.6668 -1.3908 -2.4965 0.9783
4.7720 -0.9699 -2.4965 0.9783
4.8394 -0.5413 -2.4965 0.9783
4.8588 0.3253 -2.4965 0.9783
4.8107 0.7565 -2.4966 0.9783
4.6005 1.5975 -2.4967 0.9783
4.2446 2.3880 -2.4968 0.9783
3.5632 2.9451 -2.3700 0.9794
2.9529 3.4927 -2.3448 0.9797
2.6304 3.7419 -2.3449 0.9797
1.9255 4.1493 -2.3451 0.9796
1.5486 4.3044 -2.3452 0.9796
0.7609 4.5112 -2.3454 0.9796
0.3564 4.5612 -2.3455 0.9796
-0.8614 4.4939 -2.3458 0.9796
-1.2580 4.3996 -2.3459 0.9796
-2.8911 3.9239 -2.4987 0.9783
-3.2290 3.6511 -2.4988 0.9783
-4.3005 2.2949 -2.4990 0.9783
-4.4878 1.9030 -2.4991 0.9783
-4.6394 1.4960 -2.4991 0.9783
-4.7541 1.0772 -2.4991 0.9783
-2.9775 0.1328 -1.5280 0.9867
-2.5350 -0.3409 -1.3113 0.9886
-4.0787 -2.6682 -2.4987 0.9783
-3.2285 -3.6506 -2.4985 0.9783
-2.8907 -3.9233 -2.4984 0.9783
-2.5299 -4.1648 -2.4983 0.9783
-2.1491 -4.3733 -2.4981 0.9783
-0.4877 -4.8474 -2.4977 0.9783
-0.0543 -4.8714 -2.4976 0.9783
0.3795 -4.8567 -2.4975 0.9783
0.8102 -4.8034 -2.4974 0.9783
1.2345 -4.7120 -2.4972 0.9783
1.6489 -4.5832 -2.4971 0.9783
2.8009 -3.9843 -2.4969 0.9783
3.1443 -3.7191 -2.4968 0.9783
3.4628 -3.4244 -2.4967 0.9783
3.7537 -3.1025 -2.4967 0.9783
4.0149 -2.7561 -2.4966 0.9783
4.2442 -2.3877 -2.4966 0.9783
4.4398 -2.0004 -2.4965 0.9783
4.6002 -1.5973 -2.4965 0.9783
4.8105 -0.7564 -2.4965 0.9783
4.8685 0.1085 -2.4965 0.9783
4.7722 0.9700 -2.4966 0.9783
4.5248 1.8008 -2.4967 0.9783
4.3467 2.1965 -2.4968 0.9783
4.1341 2.5747 -2.4968 0.9783
1.7388 4.2311 -2.3451 0.9796
0.9611 4.4727 -2.3454 0.9796
0.1529 4.5727 -2.3456 0.9796
-0.2547 4.5683 -2.3457 0.9796
-0.6603 4.5278 -2.3458 0.9796
-1.0608 4.4512 -2.3459 0.9796
-1.4528 4.3393 -2.3460 0.9796
-1.8333 4.1929 -2.3461 0.9796
-3.0631 3.7913 -2.4988 0.9783
-3.3885 3.5037 -2.4988 0.9783
-4.1940 2.4842 -2.4990 0.9783
-4.3985 2.1010 -2.4990 0.9783
-4.5681 1.7012 -2.4991 0.9783
-4.7014 1.2879 -2.4991 0.9783
-2.6714 -0.0000 -1.4261 0.9880
-2.4853 -0.2221 -1.3321 0.9887
-2.4501 -0.6711 -1.3561 0.9885
-2.4352 -0.9069 -1.3872 0.9883
-2.4292 -1.1603 -1.4371 0.9879
-3.5403 -3.0614 -2.4986 0.9790
-1.8747 -4.2875 -2.4981 0.9790
-1.4856 -4.4371 -2.4980 0.9790
-0.6752 -4.6298 -2.4977 0.9790
-0.2605 -4.6713 -2.4976 0.9790
0.1563 -4.6758 -2.4975 0.9790
2.1560 -4.1510 -2.4970 0.9790
2.8576 -3.7027 -2.4969 0.9790
3.4686 -3.1372 -2.4967 0.9790
4.3451 -1.7293 -2.4966 0.9790
4.4818 -1.3357 -2.4966 0.9790
4.6754 -0.1042 -2.4966 0.9790
4.6199 0.7265 -2.4966 0.9790
4.0763 2.2933 -2.4968 0.9790
3.5470 2.9318 -2.4566 0.9794
2.8358 3.3542 -2.3448 0.9803
2.1964 3.8042 -2.3450 0.9803
1.8491 3.9847 -2.3451 0.9803
1.1134 4.2498 -2.3453 0.9803
0.3423 4.3803 -2.3455 0.9803
-0.0489 4.3936 -2.3456 0.9803
-0.4398 4.3720 -2.3457 0.9803
-0.8272 4.3157 -2.3458 0.9803
-3.1009 3.5063 -2.4988 0.9790
-3.4007 3.2164 -2.4988 0.9790
-3.6736 2.9011 -2.4989 0.9790
-4.1299 2.2038 -2.4990 0.9790
-4.6394 0.6240 -2.4990 0.9790
-2.8952 0.1291 -1.5471 0.9869
-2.5303 -0.1128 -1.3521 0.9886
-2.4861 -0.3344 -1.3391 0.9887
-2.4621 -0.5578 -1.3477 0.9886
-2.4353 -0.7853 -1.3660 0.9885
-2.4151 -1.2887 -1.4613 0.9877
-2.4322 -1.5911 -1.5516 0.9869
-3.4003 -3.2160 -2.4985 0.9790
-2.4296 -3.9996 -2.4982 0.9790
-2.0639 -4.1998 -2.4981 0.9790
-0.8808 -4.5952 -2.4978 0.9790
0.3645 -4.6640 -2.4975 0.9790
1.1855 -4.5252 -2.4973 0.9790
1.5835 -4.4015 -2.4972 0.9790
1.9690 -4.2429 -2.4971 0.9790
2.3387 -4.0507 -2.4970 0.9790
3.0197 -3.5716 -2.4968 0.9790
3.3255 -3.2886 -2.4968 0.9790
3.6049 -2.9795 -2.4967 0.9790
3.8557 -2.6468 -2.4967 0.9790
4.2638 -1.9211 -2.4966 0.9790
4.4178 -1.5340 -2.4966 0.9790
4.6755 0.1042 -2.4966 0.9790
4.6477 0.5200 -2.4966 0.9790
4.4820 1.3358 -2.4967 0.9790
4.3454 1.7295 -2.4967 0.9790
2.9824 3.2245 -2.3448 0.9803
-0.2446 4.3871 -2.3457 0.9803
-1.0187 4.2746 -2.3459 0.9803
-1.7606 4.0266 -2.3460 0.9803
-2.1806 3.9791 -2.4223 0.9796
-2.6058 3.8881 -2.4987 0.9790
-2.9416 3.6408 -2.4987 0.9790
-3.7992 2.7346 -2.4989 0.9790
-4.0276 2.3855 -2.4990 0.9790
-4.3869 1.6337 -2.4990 0.9790
-4.6070 0.8300 -2.4990 0.9790
-3.5313 0.3155 -1.8927 0.9841
-2.5975 0.0000 -1.4427 0.9882
-2.4347 -0.2176 -1.3576 0.9889
-2.4018 -0.6579 -1.3831 0.9887
-2.3823 -0.8872 -1.4119 0.9884
-3.6514 -2.6281 -2.4986 0.9796
-3.4028 -2.9425 -2.4985 0.9796
-3.1273 -3.2336 -2.4985 0.9796
-2.5043 -3.7366 -2.4983 0.9796
-2.1616 -3.9445 -2.4982 0.9796
-1.8019 -4.1211 -2.4981 0.9796
-1.4279 -4.2649 -2.4980 0.9796
-1.0426 -4.3749 -2.4979 0.9796
-0.6490 -4.4501 -2.4977 0.9796
-0.2504 -4.4901 -2.4976 0.9796
0.1503 -4.4943 -2.4975 0.9796
0.9447 -4.3961 -2.4973 0.9796
1.7090 -4.1587 -2.4971 0.9796
2.7468 -3.5590 -2.4969 0.9796
3.3341 -3.0155 -2.4968 0.9796
3.8158 -2.3764 -2.4967 0.9796
4.1766 -1.6622 -2.4966 0.9796
4.3079 -1.2839 -2.4966 0.9796
4.4051 -0.8954 -2.4966 0.9796
4.4673 -0.4997 -2.4966 0.9796
4.4941 -0.1001 -2.4966 0.9796
4.4852 0.3003 -2.4966 0.9796
4.4407 0.6983 -2.4967 0.9796
4.2467 1.4747 -2.4968 0.9796
4.0987 1.8468 -2.4968 0.9796
3.7065 2.5444 -2.4970 0.9796
3.4654 2.8643 -2.4970 0.9796
3.0650 3.0311 -2.3941 0.9805
2.7258 3.2241 -2.3448 0.9809
1.7774 3.8302 -2.3451 0.9809
1.4295 3.9733 -2.3452 0.9809
1.0702 4.0849 -2.3453 0.9809
-0.0470 4.2231 -2.3456 0.9809
-0.4227 4.2023 -2.3457 0.9809
-0.7951 4.1481 -2.3458 0.9809
-1.5181 3.9418 -2.3460 0.9809
-2.9805 3.3702 -2.4987 0.9796
-3.5310 2.7884 -2.4989 0.9796
-4.3882 0.9943 -2.4990 0.9796
-4.4593 0.5997 -2.4990 0.9796
-2.4745 -0.1104 -1.3757 0.9887
-2.4351 -0.3275 -1.3646 0.9888
-3.2683 -3.0911 -2.4985 0.9796
-2.9801 -3.3697 -2.4984 0.9796
-2.6683 -3.6214 -2.4983 0.9796
-1.2365 -4.3242 -2.4979 0.9796
-0.8466 -4.4169 -2.4978 0.9796
-0.0501 -4.4967 -2.4976 0.9796
0.3503 -4.4830 -2.4975 0.9796
0.7479 -4.4339 -2.4974 0.9796
1.5221 -4.2307 -2.4972 0.9796
2.2480 -3.8936 -2.4970 0.9796
2.5855 -3.6779 -2.4969 0.9796
2.9025 -3.4331 -2.4969 0.9796
3.7062 -2.5441 -2.4967 0.9796
4.0984 -1.8466 -2.4966 0.9796
4.2465 -1.4745 -2.4966 0.9796
4.3609 -1.0907 -2.4966 0.9796
4.4406 -0.6982 -2.4966 0.9796
4.4852 -0.3002 -2.4966 0.9796
4.4674 0.4998 -2.4967 0.9796
4.4053 0.8954 -2.4967 0.9796
4.1769 1.6623 -2.4968 0.9796
2.5795 3.3424 -2.3449 0.9809
2.2719 3.5589 -2.3450 0.9809
1.9462 3.7471 -2.3451 0.9809
1.6050 3.9056 -2.3452 0.9809
0.8872 4.1286 -2.3454 0.9809
0.1411 4.2209 -2.3456 0.9809
-0.2351 4.2169 -2.3457 0.9809
-0.6095 4.1794 -2.3458 0.9809
-0.9791 4.1087 -2.3458 0.9809
-1.3410 4.0054 -2.3459 0.9809
-2.1620 3.9451 -2.4985 0.9796
-3.1277 3.2340 -2.4988 0.9796
-3.4032 2.9429 -2.4988 0.9796
-3.8712 2.2929 -2.4989 0.9796
-4.4282 0.7978 -2.4990 0.9796
-2.5383 0.2268 -1.4154 0.9884
-2.5326 -0.0000 -1.4622 0.9884
-2.3780 -0.4284 -1.3951 0.9889
-2.3307 -0.8680 -1.4359 0.9886
-2.3203 -1.1083 -1.4846 0.9882
-2.1929 -1.5783 -1.5599 0.9876
-3.0084 -3.1106 -2.4984 0.9802
-2.4090 -3.5945 -2.4983 0.9802
-1.0029 -4.2085 -2.4979 0.9802
-0.6244 -4.2809 -2.4978 0.9802
0.5288 -4.2932 -2.4975 0.9802
0.9088 -4.2290 -2.4974 0.9802
1.2815 -4.1312 -2.4973 0.9802
1.6441 -4.0006 -2.4972 0.9802
2.3272 -3.6454 -2.4970 0.9802
2.9365 -3.1749 -2.4969 0.9802
3.2074 -2.9008 -2.4968 0.9802
3.4528 -2.6038 -2.4968 0.9802
3.8596 -1.9503 -2.4967 0.9802
4.0178 -1.5990 -2.4967 0.9802
4.2377 -0.8613 -2.4966 0.9802
3.5656 2.4477 -2.4970 0.9802
3.3337 2.7554 -2.4971 0.9802
3.0516 3.0178 -2.4778 0.9804
1.0295 3.9296 -2.3453 0.9814
0.6757 4.0058 -2.3454 0.9814
0.3165 4.0502 -2.3455 0.9814
-0.4067 4.0425 -2.3457 0.9814
-2.5671 3.4842 -2.4986 0.9802
-3.3967 2.6823 -2.4988 0.9802
-3.6220 2.3694 -2.4989 0.9802
-3.8185 2.0377 -2.4989 0.9802
-3.9848 1.6897 -2.4989 0.9802
-4.2213 0.9564 -2.4989 0.9802
-4.2897 0.5769 -2.4989 0.9802
-2.3269 -0.9867 -1.4592 0.9884
-2.2904 -1.2222 -1.4988 0.9881
-3.3963 -2.6820 -2.4986 0.9802
-2.8668 -3.2415 -2.4984 0.9802
-2.5668 -3.4836 -2.4983 0.9802
-1.9083 -3.8833 -2.4981 0.9802
-0.0482 -4.3257 -2.4976 0.9802
0.3370 -4.3126 -2.4975 0.9802
0.7195 -4.2654 -2.4974 0.9802
1.4642 -4.0699 -2.4972 0.9802
2.1625 -3.7455 -2.4971 0.9802
2.4872 -3.5381 -2.4970 0.9802
2.7922 -3.3026 -2.4969 0.9802
3.0750 -3.0409 -2.4968 0.9802
3.3334 -2.7550 -2.4968 0.9802
3.5653 -2.4474 -2.4967 0.9802
3.7689 -2.1204 -2.4967 0.9802
4.2718 -0.6717 -2.4966 0.9802
4.2976 0.4808 -2.4967 0.9802
4.1444 1.2352 -2.4968 0.9802
3.2077 2.9012 -2.4971 0.9802
2.8383 3.0687 -2.4133 0.9809
2.1855 3.4236 -2.3450 0.9814
1.8722 3.6046 -2.3451 0.9814
