ply
format ascii 1.0
element vertex 1587
property float32 x
property float32 y
property float32 z
property float32 I
end_header
-12.5190 -6.6803 -2.5020 0.9440
-11.1330 -8.7916 -2.5013 0.9440
-10.3046 -9.7460 -2.5009 0.9440
-9.3946 -10.6227 -2.5005 0.9440
-8.4103 -11.4146 -2.5000 0.9440
-5.0928 -13.2230 -2.4985 0.9441
-2.6665 -13.9106 -2.4975 0.9441
-0.1577 -14.1570 -2.4964 0.9441
1.1027 -14.1119 -2.4959 0.9441
2.3540 -13.9548 -2.4954 0.9441
4.7890 -13.3114 -2.4944 0.9442
8.1315 -11.5672 -2.4932 0.9442
12.3161 -6.9289 -2.4917 0.9442
13.7072 -3.4284 -2.4914 0.9442
14.0979 -0.9437 -2.4914 0.9442
14.1264 0.3148 -2.4915 0.9442
13.1860 1.4751 -2.3395 0.9475
13.0032 2.6430 -2.3397 0.9475
12.7174 3.7902 -2.3399 0.9475
12.3309 4.9076 -2.3401 0.9475
11.8465 5.9863 -2.3404 0.9475
11.2682 7.0179 -2.3407 0.9475
9.8483 8.9073 -2.3414 0.9475
9.0180 9.7502 -2.3418 0.9475
5.0522 12.2938 -2.3436 0.9474
1.6257 13.2001 -2.3451 0.9474
-0.7408 13.2848 -2.3461 0.9474
-1.9206 13.1689 -2.3466 0.9474
-6.4005 11.6794 -2.3484 0.9473
-9.2628 9.5776 -2.3494 0.9473
-10.0797 8.7163 -2.3497 0.9473
-10.8166 7.7854 -2.3499 0.9473
-11.4676 6.7923 -2.3501 0.9473
-12.1162 5.7874 -2.3676 0.9469
-14.1403 1.2636 -2.5033 0.9440
-12.9325 0.0000 -2.5027 0.9487
-12.4709 -3.4161 -2.5022 0.9487
-12.1163 -4.5122 -2.5020 0.9487
-11.6654 -5.5721 -2.5018 0.9487
-11.1218 -6.5875 -2.5015 0.9487
-9.7749 -8.4527 -2.5008 0.9487
-8.9824 -9.2878 -2.5004 0.9487
-8.1188 -10.0487 -2.5000 0.9487
-6.2063 -11.3250 -2.4991 0.9487
-5.1727 -11.8303 -2.4987 0.9488
-2.9921 -12.5552 -2.4977 0.9488
-0.7183 -12.8818 -2.4967 0.9488
0.4310 -12.8922 -2.4963 0.9488
5.9404 -11.4374 -2.4941 0.9488
6.9338 -10.8616 -2.4937 0.9489
7.8720 -10.2000 -2.4934 0.9489
8.7475 -9.4577 -2.4930 0.9489
11.4940 -5.8082 -2.4922 0.9489
12.3407 -3.6779 -2.4919 0.9489
12.7971 -1.4316 -2.4919 0.9489
11.7318 2.9343 -2.3402 0.9519
11.0277 4.9688 -2.3407 0.9519
8.6048 8.5095 -2.3419 0.9519
7.8145 9.2431 -2.3423 0.9519
6.9620 9.9036 -2.3427 0.9519
6.0540 10.4858 -2.3431 0.9519
-1.2136 12.0632 -2.3462 0.9518
-3.3344 11.6611 -2.3471 0.9518
-4.3598 11.3200 -2.3475 0.9518
-5.3509 10.8888 -2.3479 0.9518
-7.1989 9.7704 -2.3486 0.9518
-10.1604 6.6467 -2.3496 0.9517
-11.9059 5.0486 -2.5026 0.9487
-12.3084 3.9690 -2.5027 0.9487
-12.8175 1.7237 -2.5027 0.9487
-12.9198 0.5761 -2.5027 0.9487
-12.9194 -0.5761 -2.5026 0.9487
-11.4049 -6.0858 -2.5016 0.9487
-9.3880 -8.8791 -2.5006 0.9487
-7.6624 -10.3996 -2.4998 0.9487
-5.6951 -11.5892 -2.4989 0.9487
-3.5487 -12.4107 -2.4979 0.9488
-2.4296 -12.6748 -2.4975 0.9488
-1.2915 -12.8383 -2.4970 0.9488
2.1450 -12.7161 -2.4956 0.9488
3.2676 -12.4725 -2.4951 0.9488
8.3180 -9.8385 -2.4932 0.9489
9.9284 -8.2061 -2.4926 0.9489
10.6184 -7.2891 -2.4924 0.9489
12.1648 -4.2241 -2.4920 0.9489
12.4922 -3.1245 -2.4919 0.9489
12.8742 0.2869 -2.4920 0.9489
11.2375 4.4724 -2.3406 0.9519
10.2688 6.3954 -2.3411 0.9519
9.6601 7.2850 -2.3414 0.9519
8.9747 8.1171 -2.3417 0.9519
8.2179 8.8850 -2.3421 0.9519
6.5145 10.2048 -2.3429 0.9519
5.5814 10.7461 -2.3433 0.9519
4.6036 11.2023 -2.3438 0.9519
3.5890 11.5698 -2.3442 0.9518
0.4050 12.1139 -2.3456 0.9518
-0.6749 12.1041 -2.3460 0.9518
-2.8114 11.7971 -2.3469 0.9518
-3.8509 11.5020 -2.3473 0.9518
-4.8602 11.1155 -2.3477 0.9518
-5.8311 10.6404 -2.3480 0.9518
-9.1826 7.9405 -2.3493 0.9517
-9.8539 7.0924 -2.3495 0.9517
-12.1192 4.5133 -2.5026 0.9487
-12.8815 1.1511 -2.5027 0.9487
-11.8215 -1.0564 -2.5021 0.9526
-11.4455 -3.1353 -2.5018 0.9526
-11.1202 -4.1412 -2.5016 0.9526
-10.2077 -6.0460 -2.5011 0.9527
-9.6279 -6.9297 -2.5008 0.9527
-8.2444 -8.5246 -2.5002 0.9527
-7.4518 -9.2232 -2.4998 0.9527
-3.7620 -11.2364 -2.4981 0.9527
-2.7465 -11.5247 -2.4977 0.9527
-0.6594 -11.8249 -2.4968 0.9527
0.3957 -11.8345 -2.4963 0.9527
1.4472 -11.7503 -2.4959 0.9528
5.4535 -10.4999 -2.4943 0.9528
6.3655 -9.9714 -2.4940 0.9528
7.2268 -9.3641 -2.4937 0.9528
8.0307 -8.6827 -2.4934 0.9528
9.4411 -7.1199 -2.4929 0.9528
10.9847 -4.3718 -2.4925 0.9528
11.3299 -3.3767 -2.4924 0.9528
11.5853 -2.3548 -2.4924 0.9528
11.7489 -1.3143 -2.4924 0.9528
11.8195 -0.2634 -2.4924 0.9528
10.4890 3.6422 -2.3408 0.9556
10.1241 4.5617 -2.3410 0.9556
9.6789 5.4453 -2.3413 0.9556
7.1739 8.4853 -2.3425 0.9556
5.5575 9.6259 -2.3433 0.9556
4.6795 10.0840 -2.3437 0.9556
0.8667 11.0909 -2.3453 0.9555
-1.1139 11.0727 -2.3461 0.9555
-3.0605 10.7033 -2.3469 0.9555
-4.0016 10.3901 -2.3473 0.9555
-5.7821 9.5187 -2.3479 0.9555
-8.0943 7.6556 -2.3488 0.9555
-8.7444 6.9054 -2.3490 0.9555
-9.3250 6.1002 -2.3492 0.9555
-10.9269 4.6334 -2.5022 0.9526
-11.2963 3.6426 -2.5022 0.9526
-11.7634 1.5820 -2.5023 0.9526
-11.7624 -1.5819 -2.5021 0.9526
-11.5743 -2.6224 -2.5019 0.9526
-11.2941 -3.6419 -2.5017 0.9526
-10.9242 -4.6323 -2.5015 0.9527
-10.4674 -5.5856 -2.5013 0.9527
-9.3090 -7.3512 -2.5007 0.9527
-4.2592 -11.0587 -2.4983 0.9527
-2.2302 -11.6346 -2.4974 0.9527
-1.1856 -11.7848 -2.4970 0.9527
-0.1319 -11.8414 -2.4966 0.9527
1.9690 -11.6732 -2.4957 0.9528
4.0062 -11.1355 -2.4949 0.9528
4.9807 -10.7331 -2.4945 0.9528
5.9154 -10.2458 -2.4942 0.9528
6.8030 -9.6773 -2.4938 0.9528
7.6364 -9.0323 -2.4935 0.9528
9.1150 -7.5338 -2.4930 0.9528
11.1684 -3.8781 -2.4924 0.9528
11.4690 -2.8686 -2.4924 0.9528
10.3168 4.1060 -2.3409 0.9556
8.8684 6.6880 -2.3417 0.9556
8.2390 7.4518 -2.3420 0.9556
7.5442 8.1567 -2.3423 0.9556
6.7893 8.7971 -2.3427 0.9556
5.9803 9.3680 -2.3431 0.9556
5.1236 9.8647 -2.3435 0.9556
4.2260 10.2833 -2.3439 0.9556
3.2945 10.6205 -2.3443 0.9556
1.3597 11.0403 -2.3451 0.9555
0.3718 11.1195 -2.3455 0.9555
-1.6062 11.0130 -2.3463 0.9555
-3.5346 10.5572 -2.3471 0.9555
-5.3520 9.7661 -2.3478 0.9555
-6.2008 9.2523 -2.3481 0.9555
-7.7449 8.0081 -2.3487 0.9555
-8.4277 7.2878 -2.3489 0.9555
-9.0437 6.5093 -2.3491 0.9555
-9.5879 5.6789 -2.3493 0.9555
-11.1227 4.1421 -2.5022 0.9526
-11.4475 3.1358 -2.5023 0.9526
-11.8222 1.0564 -2.5023 0.9526
-10.5704 -2.8955 -2.5015 0.9560
-10.2699 -3.8246 -2.5013 0.9560
-9.8879 -4.7230 -2.5011 0.9560
-9.4273 -5.5838 -2.5008 0.9560
-8.8919 -6.4000 -2.5006 0.9560
-8.2860 -7.1652 -2.5003 0.9561
-6.0960 -9.0959 -2.4992 0.9561
-5.2615 -9.6010 -2.4988 0.9561
-4.3854 -10.0296 -2.4985 0.9561
-3.4747 -10.3785 -2.4980 0.9561
-2.5368 -10.6448 -2.4976 0.9561
-1.5790 -10.8266 -2.4972 0.9561
0.3655 -10.9314 -2.4964 0.9561
4.1549 -10.1104 -2.4949 0.9561
5.0376 -9.6992 -2.4946 0.9561
7.4185 -8.0208 -2.4937 0.9562
8.1022 -7.3280 -2.4935 0.9562
9.2717 -5.7745 -2.4931 0.9562
10.1477 -4.0387 -2.4928 0.9562
10.4666 -3.1194 -2.4928 0.9562
10.7025 -2.1754 -2.4927 0.9562
10.8537 -1.2142 -2.4927 0.9562
10.9188 -0.2433 -2.4928 0.9562
9.3525 4.2140 -2.3413 0.9588
8.4588 5.8067 -2.3418 0.9588
7.9094 6.5373 -2.3421 0.9588
7.2971 7.2162 -2.3424 0.9588
5.1335 8.8915 -2.3434 0.9588
3.4768 9.6639 -2.3441 0.9587
0.8005 10.2441 -2.3453 0.9587
-0.1145 10.2763 -2.3457 0.9587
-3.6959 9.5962 -2.3471 0.9587
-4.5359 9.2304 -2.3474 0.9587
-5.3402 8.7912 -2.3477 0.9587
-6.1022 8.2820 -2.3480 0.9587
-6.8159 7.7068 -2.3483 0.9587
-8.0758 6.3774 -2.3487 0.9587
-8.6120 5.6337 -2.3489 0.9587
-9.6699 5.1600 -2.5017 0.9560
-10.0913 4.2791 -2.5018 0.9560
-10.4324 3.3640 -2.5019 0.9560
-10.6906 2.4222 -2.5019 0.9560
-10.9506 0.4883 -2.5019 0.9560
-10.9503 -0.4883 -2.5018 0.9560
-10.4305 -3.3634 -2.5014 0.9560
-9.6672 -5.1586 -2.5010 0.9560
-9.1687 -5.9979 -2.5007 0.9560
-8.5975 -6.7894 -2.5004 0.9560
-7.9581 -7.5267 -2.5001 0.9561
-7.2556 -8.2040 -2.4998 0.9561
-5.6844 -9.3578 -2.4990 0.9561
-3.9339 -10.2142 -2.4983 0.9561
-3.0087 -10.5221 -2.4978 0.9561
-0.1219 -10.9378 -2.4966 0.9561
0.8520 -10.9034 -2.4962 0.9561
1.8188 -10.7826 -2.4958 0.9561
3.7007 -10.2862 -2.4951 0.9561
4.6009 -9.9146 -2.4947 0.9561
5.4644 -9.4645 -2.4944 0.9562
7.0542 -8.3438 -2.4938 0.9562
7.7681 -7.6821 -2.4936 0.9562
9.0056 -6.1820 -2.4932 0.9562
9.5195 -5.3556 -2.4930 0.9562
9.9579 -4.4868 -2.4929 0.9562
10.3173 -3.5826 -2.4928 0.9562
10.5950 -2.6500 -2.4927 0.9562
10.7888 -1.6964 -2.4927 0.9562
10.8971 -0.7295 -2.4927 0.9562
10.9190 0.2433 -2.4928 0.9562
9.5305 3.7931 -2.3412 0.9588
7.6108 6.8836 -2.3422 0.9588
4.7327 9.1121 -2.3436 0.9587
3.9035 9.4987 -2.3439 0.9587
2.1582 10.0435 -2.3447 0.9587
1.2559 10.1974 -2.3451 0.9587
-1.4835 10.1718 -2.3462 0.9587
-3.2645 9.7506 -2.3469 0.9587
-4.9429 9.0198 -2.3476 0.9587
-5.7269 8.5451 -2.3479 0.9587
-7.1528 7.3959 -2.3484 0.9587
-7.7834 6.7305 -2.3486 0.9587
-9.8904 4.7243 -2.5017 0.9560
-10.5720 2.8960 -2.5019 0.9560
-10.7879 1.9435 -2.5019 0.9560
-10.9180 0.9756 -2.5019 0.9560
-10.1364 -0.9058 -2.5014 0.9589
-10.0151 -1.8043 -2.5013 0.9589
-9.8142 -2.6884 -2.5012 0.9590
-8.2561 -5.9424 -2.5003 0.9590
-7.6935 -6.6528 -2.5000 0.9590
-7.0700 -7.3103 -2.4997 0.9590
-5.6603 -8.4459 -2.4991 0.9590
-4.8855 -8.9148 -2.4987 0.9590
-4.0720 -9.3129 -2.4984 0.9590
-2.3556 -9.8844 -2.4976 0.9590
-0.5655 -10.1423 -2.4969 0.9590
1.2413 -10.0789 -2.4961 0.9590
2.1332 -9.9270 -2.4958 0.9590
3.0078 -9.6964 -2.4954 0.9590
3.8584 -9.3889 -2.4951 0.9591
4.6782 -9.0071 -2.4948 0.9591
5.4607 -8.5540 -2.4945 0.9591
8.0996 -6.1082 -2.4935 0.9591
8.6105 -5.3627 -2.4934 0.9591
9.4241 -3.7507 -2.4932 0.9591
9.7203 -2.8969 -2.4931 0.9591
9.9394 -2.0203 -2.4931 0.9591
10.0798 -1.1276 -2.4931 0.9591
10.1204 0.6775 -2.4932 0.9591
8.6854 3.9135 -2.3416 0.9615
8.3034 4.6714 -2.3418 0.9615
6.7764 6.7013 -2.3426 0.9615
4.7671 8.2568 -2.3435 0.9615
4.0138 8.6496 -2.3438 0.9615
2.4174 9.2270 -2.3445 0.9615
1.5867 9.4070 -2.3449 0.9615
-2.6246 9.1790 -2.3466 0.9614
-3.4317 8.9102 -2.3469 0.9614
-6.3284 7.1556 -2.3480 0.9614
-7.4981 5.9212 -2.3484 0.9614
-7.9959 5.2307 -2.3486 0.9614
-9.3693 3.9729 -2.5015 0.9589
-9.9257 2.2488 -2.5016 0.9589
-10.1671 0.4534 -2.5016 0.9589
-10.1669 -0.4534 -2.5015 0.9589
-10.0858 -1.3564 -2.5014 0.9589
-9.9245 -2.2486 -2.5013 0.9590
-9.6844 -3.1228 -2.5011 0.9590
-9.3673 -3.9721 -2.5009 0.9590
-8.9758 -4.7896 -2.5007 0.9590
-8.5130 -5.5690 -2.5005 0.9590
-7.9827 -6.3039 -2.5002 0.9590
-7.3891 -6.9886 -2.4999 0.9590
-6.7369 -7.6175 -2.4996 0.9590
-3.6528 -9.4844 -2.4982 0.9590
-1.9128 -9.9788 -2.4974 0.9590
-1.0169 -10.1079 -2.4970 0.9590
-0.1131 -10.1567 -2.4967 0.9590
5.0745 -8.7892 -2.4946 0.9591
6.5510 -7.7486 -2.4941 0.9591
7.2140 -7.1341 -2.4938 0.9591
7.8197 -6.4632 -2.4936 0.9591
8.8406 -4.9736 -2.4933 0.9591
9.2478 -4.1669 -2.4932 0.9591
9.8396 -2.4610 -2.4931 0.9591
10.0195 -1.5755 -2.4931 0.9591
9.1285 2.7206 -2.3413 0.9615
8.8508 3.5225 -2.3415 0.9615
8.5028 4.2967 -2.3417 0.9615
7.0678 6.3924 -2.3424 0.9615
5.8239 7.5462 -2.3430 0.9615
1.1662 9.4690 -2.3451 0.9615
0.3189 9.5367 -2.3454 0.9615
-0.5313 9.5286 -2.3458 0.9615
-1.3775 9.4449 -2.3461 0.9614
-3.8254 8.7490 -2.3471 0.9614
-4.5895 8.3748 -2.3474 0.9614
-5.3173 7.9340 -2.3476 0.9614
-6.0030 7.4301 -2.3479 0.9614
-6.6412 6.8669 -2.3481 0.9614
-7.2266 6.2491 -2.3483 0.9614
-8.6850 5.1441 -2.4811 0.9593
-9.5371 3.5517 -2.5015 0.9589
-9.8156 2.6888 -2.5016 0.9589
-10.1369 0.9058 -2.5016 0.9589
-9.4924 0.0000 -2.5012 0.9615
-9.3413 -1.6829 -2.5011 0.9615
-8.5631 -4.0903 -2.5006 0.9615
-8.1644 -4.8358 -2.5004 0.9615
-6.5946 -6.8188 -2.4996 0.9615
-5.9608 -7.3778 -2.4993 0.9615
-5.2799 -7.8781 -2.4990 0.9615
-3.7984 -8.6871 -2.4983 0.9615
-2.1973 -9.2203 -2.4976 0.9616
-1.3677 -9.3780 -2.4972 0.9616
-0.5275 -9.4611 -2.4969 0.9616
0.3166 -9.4692 -2.4965 0.9616
1.1580 -9.4022 -2.4962 0.9616
1.9900 -9.2606 -2.4959 0.9616
3.5995 -8.7588 -2.4952 0.9616
5.0942 -7.9800 -2.4947 0.9616
7.0196 -6.3488 -2.4940 0.9616
7.5563 -5.6984 -2.4938 0.9616
8.0330 -5.0030 -2.4936 0.9616
8.7920 -3.4991 -2.4934 0.9616
9.0683 -2.7027 -2.4934 0.9616
9.4602 -0.2108 -2.4934 0.9616
13.7761 3.4457 -3.7418 0.9430
8.1027 3.6509 -2.3418 0.9639
7.3283 5.0306 -2.3422 0.9639
6.8522 5.6635 -2.3425 0.9639
5.7408 6.7903 -2.3430 0.9639
4.4470 7.7025 -2.3436 0.9639
3.7443 8.0688 -2.3439 0.9639
3.0117 8.3712 -2.3442 0.9639
-0.8911 8.8580 -2.3459 0.9638
-1.6762 8.7448 -2.3462 0.9638
-2.4482 8.5620 -2.3465 0.9638
-3.2010 8.3112 -2.3468 0.9638
-4.6249 7.6137 -2.3473 0.9638
-5.2848 7.1726 -2.3476 0.9638
-5.9028 6.6744 -2.3478 0.9638
-6.4739 6.1230 -2.3480 0.9638
-6.9937 5.5229 -2.3482 0.9638
-9.0343 2.9132 -2.5013 0.9615
-9.2579 2.0976 -2.5013 0.9615
-9.4079 1.2653 -2.5013 0.9615
-9.4828 -0.4229 -2.5012 0.9615
-9.4072 -1.2651 -2.5011 0.9615
-9.2568 -2.0973 -2.5010 0.9615
-9.0329 -2.9127 -2.5009 0.9615
-8.7372 -3.7049 -2.5007 0.9615
-8.3721 -4.4675 -2.5005 0.9615
-7.9405 -5.1945 -2.5002 0.9615
-7.4459 -5.8800 -2.5000 0.9615
-6.8923 -6.5187 -2.4997 0.9615
-6.2840 -7.1054 -2.4994 0.9615
-5.6259 -7.6355 -2.4991 0.9615
-3.4074 -8.8471 -2.4981 0.9615
-2.6061 -9.1140 -2.4978 0.9615
-1.7843 -9.3084 -2.4974 0.9616
-0.1056 -9.4746 -2.4967 0.9616
1.5756 -9.3406 -2.4960 0.9616
3.2059 -8.9110 -2.4954 0.9616
3.9858 -8.5892 -2.4951 0.9616
5.4444 -7.7447 -2.4945 0.9616
6.1115 -7.2287 -2.4943 0.9616
7.8024 -5.3560 -2.4937 0.9616
8.6276 -3.8874 -2.4935 0.9616
9.1797 -2.2960 -2.4934 0.9616
9.4043 1.0520 -2.4935 0.9616
13.9155 2.8285 -3.7417 0.9430
8.5162 2.5381 -2.3416 0.9639
8.2570 3.2862 -2.3417 0.9639
7.9324 4.0084 -2.3419 0.9639
7.5448 4.6989 -2.3421 0.9639
7.0973 5.3523 -2.3423 0.9639
1.0879 8.8329 -2.3451 0.9639
0.2974 8.8959 -2.3454 0.9639
-1.2849 8.8102 -2.3460 0.9638
-2.0643 8.6620 -2.3464 0.9638
-2.8274 8.4450 -2.3467 0.9638
-4.9598 7.4005 -2.3475 0.9638
-5.5993 6.9304 -2.3477 0.9638
-6.1945 6.4051 -2.3479 0.9638
-6.7405 5.8287 -2.3481 0.9638
-7.2331 5.2060 -2.3483 0.9638
-8.5650 4.0912 -2.5011 0.9615
-8.8955 3.3127 -2.5012 0.9615
-9.1552 2.5079 -2.5013 0.9615
-9.3422 1.6831 -2.5013 0.9615
-9.4549 0.8449 -2.5013 0.9615
-5.0319 -0.0000 -1.4157 0.9793
-3.9277 -0.3510 -1.1095 0.9837
-3.7284 -0.6717 -1.0659 0.9844
-3.7904 -1.0383 -1.1057 0.9838
-8.3287 -3.1017 -2.5006 0.9637
-8.0190 -3.8304 -2.5004 0.9637
-7.6457 -4.5285 -2.5002 0.9637
-6.1758 -6.3857 -2.4994 0.9638
-5.5823 -6.9092 -2.4992 0.9638
-4.9446 -7.3778 -2.4989 0.9638
-4.2677 -7.7877 -2.4986 0.9638
-2.8186 -8.4188 -2.4979 0.9638
-1.2809 -8.7828 -2.4972 0.9638
-0.4941 -8.8608 -2.4969 0.9638
1.8637 -8.6731 -2.4960 0.9638
3.3712 -8.2034 -2.4954 0.9638
5.4170 -7.0191 -2.4946 0.9638
6.0198 -6.5085 -2.4944 0.9638
6.5747 -5.9464 -2.4942 0.9638
7.0773 -5.3373 -2.4940 0.9638
7.5239 -4.6859 -2.4939 0.9638
7.9107 -3.9974 -2.4938 0.9638
8.6852 -1.7653 -2.4936 0.9638
8.8433 0.5920 -2.4937 0.9638
7.5891 3.4195 -2.3420 0.9660
7.2552 4.0817 -2.3422 0.9660
6.4178 5.3044 -2.3426 0.9660
5.3767 6.3596 -2.3431 0.9660
4.7899 6.8138 -2.3434 0.9660
3.5068 7.5569 -2.3440 0.9660
2.8206 7.8401 -2.3443 0.9660
2.1119 8.0611 -2.3446 0.9660
1.3862 8.2182 -2.3449 0.9660
-0.8345 8.2957 -2.3458 0.9659
-1.5698 8.1895 -2.3461 0.9659
-2.2927 8.0183 -2.3464 0.9659
-4.3311 7.1300 -2.3472 0.9659
-5.5277 6.2503 -2.3476 0.9659
-6.5493 5.1719 -2.3480 0.9659
-7.4380 4.8657 -2.5007 0.9637
-7.8419 4.1846 -2.5008 0.9637
-8.4601 2.7280 -2.5010 0.9637
-8.6695 1.9643 -2.5010 0.9637
-8.8803 0.3960 -2.5010 0.9637
-4.2110 -0.1878 -1.1860 0.9826
-3.7396 -0.5029 -1.0616 0.9844
-3.7659 -0.8533 -1.0864 0.9841
-8.4589 -2.7276 -2.5006 0.9637
-7.4360 -4.8644 -2.5001 0.9638
-6.9729 -5.5064 -2.4998 0.9638
-6.4544 -6.1046 -2.4996 0.9638
-4.6107 -7.5903 -2.4987 0.9638
-1.6710 -8.7176 -2.4974 0.9638
-0.0989 -8.8735 -2.4968 0.9638
1.4756 -8.7481 -2.4961 0.9638
3.7331 -8.0446 -2.4952 0.9638
5.7241 -6.7705 -2.4945 0.9638
6.3035 -6.2336 -2.4943 0.9638
6.8328 -5.6474 -2.4941 0.9638
8.3725 -2.9073 -2.4936 0.9638
8.7552 -1.3767 -2.4936 0.9638
7.9764 2.3772 -2.3418 0.9660
7.7337 3.0779 -2.3419 0.9660
7.4296 3.7543 -2.3421 0.9660
7.0665 4.4011 -2.3423 0.9660
6.1754 5.5853 -2.3427 0.9660
5.6544 6.1135 -2.3430 0.9660
5.0884 6.5932 -2.3432 0.9660
3.1669 7.7062 -2.3441 0.9660
2.4687 7.9585 -2.3444 0.9660
-0.4641 8.3241 -2.3457 0.9660
-1.2033 8.2508 -2.3460 0.9659
-2.6478 7.9086 -2.3465 0.9659
-3.3416 7.6425 -2.3468 0.9659
-4.0090 7.3155 -2.3471 0.9659
-4.6447 6.9304 -2.3473 0.9659
-6.3122 5.4584 -2.3479 0.9659
-8.0207 3.8312 -2.5009 0.9637
-8.3301 3.1022 -2.5010 0.9637
-8.7484 1.5761 -2.5010 0.9637
-8.8539 0.7912 -2.5010 0.9637
-3.9677 -0.0000 -1.1878 0.9836
-3.4925 -0.9567 -1.0841 0.9850
-7.8267 -2.9147 -2.5004 0.9657
-7.5357 -3.5995 -2.5002 0.9657
-7.1849 -4.2556 -2.5000 0.9657
-6.7770 -4.8778 -2.4998 0.9657
-5.8037 -6.0010 -2.4993 0.9657
-5.2460 -6.4930 -2.4990 0.9657
-4.6467 -6.9334 -2.4988 0.9658
-4.0107 -7.3186 -2.4985 0.9658
-2.6489 -7.9118 -2.4979 0.9658
-1.9339 -8.1152 -2.4976 0.9658
1.0193 -8.2758 -2.4963 0.9658
1.7516 -8.1513 -2.4960 0.9658
2.4699 -7.9621 -2.4957 0.9658
3.1684 -7.7098 -2.4955 0.9658
6.6518 -5.0163 -2.4942 0.9658
7.0715 -4.4042 -2.4941 0.9658
7.7397 -3.0804 -2.4939 0.9658
7.9830 -2.3792 -2.4938 0.9658
8.1630 -1.6592 -2.4938 0.9658
8.3280 -0.1856 -2.4938 0.9658
8.3116 0.5564 -2.4939 0.9658
8.2294 1.2940 -2.4940 0.9658
12.1272 3.0332 -3.7425 0.9491
7.3901 2.5661 -2.3420 0.9679
6.8189 3.8362 -2.3423 0.9679
5.0533 5.9770 -2.3432 0.9678
3.9143 6.7798 -2.3437 0.9678
3.2957 7.1022 -2.3440 0.9678
1.9848 7.5758 -2.3446 0.9678
-0.0873 7.8340 -2.3455 0.9678
-0.7843 7.7960 -2.3458 0.9678
-1.4752 7.6962 -2.3460 0.9678
-2.8171 7.3144 -2.3466 0.9678
-3.4573 7.0353 -2.3468 0.9678
-4.0701 6.7004 -2.3470 0.9678
-4.6508 6.3121 -2.3473 0.9678
-5.1945 5.8736 -2.3475 0.9678
-5.6971 5.3883 -2.3476 0.9678
-7.9501 2.5636 -2.5008 0.9657
-8.1468 1.8458 -2.5008 0.9657
-3.4642 -0.7849 -1.0634 0.9853
-7.9490 -2.5632 -2.5004 0.9657
-7.6888 -3.2603 -2.5003 0.9657
-7.3676 -3.9314 -2.5001 0.9657
-6.9879 -4.5713 -2.4999 0.9657
-6.5527 -5.1746 -2.4997 0.9657
-4.9512 -6.7199 -2.4989 0.9657
-4.3330 -7.1331 -2.4986 0.9658
-2.9989 -7.7865 -2.4980 0.9658
-1.5704 -8.1928 -2.4974 0.9658
-0.8349 -8.2990 -2.4971 0.9658
0.6496 -8.3135 -2.4965 0.9658
1.3868 -8.2217 -2.4962 0.9658
2.8220 -7.8437 -2.4956 0.9658
3.5085 -7.5606 -2.4953 0.9658
4.1671 -7.2176 -2.4951 0.9658
5.9244 -5.8587 -2.4945 0.9658
6.4219 -5.3079 -2.4943 0.9658
7.5950 -3.4221 -2.4939 0.9658
8.0810 -2.0212 -2.4938 0.9658
8.2288 -1.2939 -2.4938 0.9658
8.3114 -0.5563 -2.4938 0.9658
8.3280 0.1856 -2.4939 0.9658
8.2787 0.9262 -2.4939 0.9658
6.9828 3.5286 -2.3423 0.9679
6.2476 4.7115 -2.3426 0.9679
5.8039 5.2494 -2.3429 0.9679
5.3142 5.7457 -2.3431 0.9678
4.7823 6.1965 -2.3433 0.9678
3.6086 6.9479 -2.3439 0.9678
2.9763 7.2423 -2.3442 0.9678
2.3201 7.4794 -2.3445 0.9678
0.2618 7.8296 -2.3453 0.9678
-1.8167 7.6233 -2.3462 0.9678
-2.4883 7.4322 -2.3464 0.9678
-4.3648 6.5127 -2.3472 0.9678
-4.9275 6.0989 -2.3474 0.9678
-5.4513 5.6365 -2.3475 0.9678
-5.9317 5.1294 -2.3477 0.9678
-7.1865 4.2566 -2.5006 0.9657
-7.8279 2.9152 -2.5008 0.9657
-3.3867 -0.3027 -1.0798 0.9858
-3.2843 -0.5917 -1.0598 0.9861
-7.1033 -3.3929 -2.5000 0.9675
-6.7726 -4.0114 -2.4998 0.9675
-5.4707 -5.6567 -2.4992 0.9675
-4.9451 -6.1206 -2.4989 0.9675
-3.7807 -6.8989 -2.4984 0.9675
-2.4970 -7.4582 -2.4978 0.9675
-0.4377 -7.8502 -2.4970 0.9675
0.2627 -7.8571 -2.4967 0.9675
0.9609 -7.8016 -2.4964 0.9675
1.6512 -7.6843 -2.4961 0.9676
2.3284 -7.5060 -2.4958 0.9676
4.2275 -6.6222 -2.4951 0.9676
4.7997 -6.2191 -2.4949 0.9676
5.3338 -5.7668 -2.4947 0.9676
5.8255 -5.2688 -2.4945 0.9676
6.2709 -4.7291 -2.4944 0.9676
7.0094 -3.5420 -2.4942 0.9676
7.8044 -0.8730 -2.4940 0.9676
7.7583 1.2199 -2.4942 0.9676
11.1336 3.8660 -3.7430 0.9517
6.7244 3.0299 -2.3423 0.9695
6.0815 4.1747 -2.3427 0.9695
5.2459 5.1878 -2.3431 0.9695
4.7638 5.6346 -2.3433 0.9695
2.4990 6.9459 -2.3443 0.9695
0.5753 7.3620 -2.3452 0.9695
-0.0823 7.3848 -2.3454 0.9695
-1.3906 7.2549 -2.3460 0.9695
-2.0311 7.1030 -2.3462 0.9695
-2.6555 6.8948 -2.3465 0.9695
-4.3839 5.9499 -2.3471 0.9695
-5.3702 5.0791 -2.3475 0.9695
-5.8967 4.6566 -2.3862 0.9690
-6.5885 4.3100 -2.5003 0.9675
-6.9462 3.7066 -2.5004 0.9675
-7.2488 3.0738 -2.5005 0.9675
-7.6792 1.7399 -2.5006 0.9675
-4.3818 0.1954 -1.3930 0.9818
-3.3189 -0.4463 -1.0635 0.9860
-3.2591 -0.7384 -1.0613 0.9861
-3.2827 -1.0586 -1.0954 0.9856
-6.5869 -4.3090 -2.4997 0.9675
-5.7176 -5.4076 -2.4993 0.9675
-4.0845 -6.7240 -2.4985 0.9675
-2.8270 -7.3400 -2.4980 0.9675
-0.7870 -7.8233 -2.4971 0.9675
1.9918 -7.6026 -2.4960 0.9676
2.6603 -7.3944 -2.4957 0.9676
3.3076 -7.1276 -2.4955 0.9676
3.9284 -6.8043 -2.4952 0.9676
5.5852 -5.5233 -2.4946 0.9676
7.1602 -3.2262 -2.4941 0.9676
7.4187 -2.5760 -2.4941 0.9676
7.6184 -1.9055 -2.4940 0.9676
7.8356 -0.5246 -2.4940 0.9676
7.8513 0.1750 -2.4941 0.9676
11.2944 3.3661 -3.7429 0.9517
6.8525 2.7272 -2.3423 0.9695
6.2612 3.8995 -2.3426 0.9695
5.8898 4.4417 -2.3428 0.9695
5.0098 5.4166 -2.3432 0.9695
2.8057 6.8273 -2.3442 0.9695
2.1872 7.0508 -2.3445 0.9695
0.2468 7.3807 -2.3453 0.9695
-1.0660 7.3092 -2.3458 0.9695
-1.7125 7.1861 -2.3461 0.9695
-3.5513 6.4803 -2.3468 0.9695
-4.1144 6.1390 -2.3470 0.9695
-5.1385 5.3131 -2.3474 0.9695
-5.5913 4.8350 -2.3476 0.9695
-6.3898 4.5990 -2.5003 0.9675
-6.7741 4.0123 -2.5004 0.9675
-7.1046 3.3936 -2.5005 0.9675
-7.3786 2.7478 -2.5006 0.9675
-7.5940 2.0802 -2.5006 0.9675
-7.8426 0.7008 -2.5006 0.9675
-3.2019 -0.2861 -1.0801 0.9865
-3.1483 -0.5672 -1.0748 0.9866
-6.4014 -3.7915 -2.4997 0.9691
-5.1710 -5.3467 -2.4991 0.9691
-1.0727 -7.3549 -2.4973 0.9691
-0.4138 -7.4204 -2.4970 0.9691
0.9083 -7.3746 -2.4964 0.9691
2.8235 -6.8704 -2.4957 0.9691
4.5371 -5.8789 -2.4950 0.9691
5.0420 -5.4513 -2.4949 0.9692
5.5068 -4.9806 -2.4947 0.9692
6.3020 -3.9249 -2.4944 0.9692
6.6261 -3.3483 -2.4943 0.9692
6.8976 -2.7452 -2.4943 0.9692
7.1144 -2.1204 -2.4942 0.9692
10.5246 3.6546 -3.7432 0.9541
6.3566 2.8641 -2.3425 0.9710
6.0768 3.4187 -2.3426 0.9710
4.9589 4.9039 -2.3432 0.9710
4.5031 5.3263 -2.3434 0.9710
3.4881 6.0416 -2.3439 0.9710
2.3621 6.5657 -2.3444 0.9710
1.1608 6.8820 -2.3449 0.9710
-0.0778 6.9803 -2.3454 0.9710
-1.3145 6.8575 -2.3459 0.9710
-1.9198 6.7139 -2.3462 0.9710
-3.6264 5.9698 -2.3468 0.9710
-4.1437 5.6238 -2.3470 0.9710
-5.0758 4.8007 -2.3473 0.9709
-6.5654 3.5034 -2.5003 0.9691
-6.8514 2.9053 -2.5003 0.9691
-7.2582 1.6445 -2.5004 0.9691
-4.1559 0.1853 -1.3977 0.9826
-3.2675 -0.1457 -1.0989 0.9863
-3.1639 -0.4255 -1.0726 0.9866
-3.1355 -0.7104 -1.0802 0.9865
-3.1418 -1.0131 -1.1091 0.9862
-5.4042 -5.1113 -2.4992 0.9691
-4.9274 -5.5715 -2.4990 0.9691
-2.0438 -7.1475 -2.4977 0.9691
-1.3993 -7.3002 -2.4974 0.9691
-0.7439 -7.3950 -2.4971 0.9691
-0.0828 -7.4310 -2.4968 0.9691
0.5789 -7.4081 -2.4966 0.9691
2.5147 -6.9897 -2.4958 0.9691
5.2797 -5.2212 -2.4948 0.9692
6.4705 -3.6402 -2.4944 0.9692
7.3335 -1.1531 -2.4942 0.9692
7.4071 -0.4959 -2.4942 0.9692
7.4219 0.1654 -2.4942 0.9692
10.6767 3.1820 -3.7431 0.9541
5.5675 4.1987 -2.3429 0.9710
4.7357 5.1202 -2.3433 0.9710
3.7536 5.8799 -2.3438 0.9710
2.6521 6.4536 -2.3442 0.9710
1.4662 6.8231 -2.3448 0.9710
0.8532 6.9273 -2.3450 0.9710
-0.3887 6.9703 -2.3455 0.9710
-1.0076 6.9088 -2.3458 0.9710
-2.2171 6.6221 -2.3463 0.9710
-2.7979 6.3991 -2.3465 0.9710
-4.8568 5.0219 -2.3473 0.9710
-6.0395 4.3470 -2.5001 0.9691
-6.4027 3.7923 -2.5002 0.9691
-6.9741 2.5972 -2.5004 0.9691
-7.3243 1.3195 -2.5004 0.9691
-3.0930 -0.2764 -1.1011 0.9869
-3.0229 -0.8281 -1.1114 0.9868
-6.3613 -3.0386 -2.4997 0.9705
-6.0652 -3.5925 -2.4996 0.9705
-5.3314 -4.6102 -2.4992 0.9705
-4.4287 -5.4815 -2.4988 0.9705
-3.9229 -5.8534 -2.4985 0.9705
-2.8224 -6.4549 -2.4980 0.9705
-2.2364 -6.6798 -2.4978 0.9705
0.8606 -6.9878 -2.4965 0.9706
2.0855 -6.7231 -2.4960 0.9706
2.6754 -6.5102 -2.4958 0.9706
3.2439 -6.2457 -2.4955 0.9706
4.2993 -5.5707 -2.4952 0.9706
5.2182 -4.7196 -2.4948 0.9706
5.6172 -4.2362 -2.4947 0.9706
5.9717 -3.7192 -2.4946 0.9706
6.2788 -3.1728 -2.4945 0.9706
6.5361 -2.6013 -2.4944 0.9706
6.8936 -1.4012 -2.4944 0.9706
6.9910 -0.7820 -2.4944 0.9706
7.0329 -0.1567 -2.4944 0.9706
7.0191 0.4699 -2.4944 0.9706
6.8250 1.7070 -2.4946 0.9706
6.0234 2.7140 -2.3426 0.9724
5.7583 3.2395 -2.3427 0.9723
5.4475 3.7395 -2.3429 0.9723
4.6989 4.6468 -2.3433 0.9723
3.8012 5.4073 -2.3437 0.9723
3.3052 5.7247 -2.3439 0.9723
1.6758 6.3965 -2.3446 0.9723
0.5152 6.5936 -2.3451 0.9723
-0.0737 6.6140 -2.3454 0.9723
-1.2455 6.4975 -2.3459 0.9723
-4.8093 4.5486 -2.3472 0.9723
-5.9002 3.8597 -2.5000 0.9705
-6.4915 2.7526 -2.5002 0.9705
-6.7109 2.1640 -2.5002 0.9705
-6.8769 1.5581 -2.5003 0.9705
-6.4905 -2.7522 -2.4998 0.9705
-6.2194 -3.3188 -2.4997 0.9705
-5.8990 -3.8589 -2.4995 0.9705
-5.1205 -4.8429 -2.4991 0.9705
-4.6687 -5.2790 -2.4989 0.9705
-3.6581 -6.0220 -2.4984 0.9705
-2.5319 -6.5739 -2.4979 0.9705
-0.0784 -7.0412 -2.4969 0.9706
1.1710 -6.9421 -2.4964 0.9706
1.7841 -6.8097 -2.4961 0.9706
5.4231 -4.4823 -2.4948 0.9706
5.8002 -3.9816 -2.4946 0.9706
6.4138 -2.8899 -2.4945 0.9706
6.6454 -2.3075 -2.4944 0.9706
6.8244 -1.7069 -2.4944 0.9706
6.9492 -1.0927 -2.4944 0.9706
7.0330 0.1568 -2.4944 0.9706
5.8967 2.9797 -2.3427 0.9724
5.6084 3.4929 -2.3428 0.9723
4.9010 4.4327 -2.3432 0.9723
4.0381 5.2323 -2.3436 0.9723
2.5130 6.1151 -2.3443 0.9723
-0.9547 6.5462 -2.3457 0.9723
-3.1804 5.8036 -2.3466 0.9723
-3.6847 5.4979 -2.3468 0.9723
-4.6017 4.7582 -2.3471 0.9723
-5.2311 4.5235 -2.4522 0.9711
-6.8006 1.8629 -2.5003 0.9705
-6.9395 1.2502 -2.5003 0.9705
-3.3741 0.0000 -1.2599 0.9857
-2.9938 -0.2675 -1.1224 0.9872
-2.9169 -0.7990 -1.1293 0.9872
-2.9238 -1.0888 -1.1650 0.9868
-5.7592 -3.4112 -2.4995 0.9718
-5.0624 -4.3776 -2.4991 0.9718
-4.6523 -4.8104 -2.4989 0.9718
-4.2053 -5.2050 -2.4987 0.9718
-3.7250 -5.5581 -2.4985 0.9718
-3.2152 -5.8671 -2.4982 0.9718
-1.5505 -6.5062 -2.4975 0.9718
-0.9652 -6.6177 -2.4973 0.9718
1.4045 -6.5359 -2.4963 0.9719
2.5406 -6.1822 -2.4958 0.9719
4.9554 -4.4819 -2.4950 0.9719
5.9626 -3.0130 -2.4946 0.9719
6.4021 -1.9080 -2.4945 0.9719
6.5465 -1.3306 -2.4945 0.9719
6.6656 0.4462 -2.4946 0.9719
6.5996 1.0378 -2.4946 0.9719
6.4813 1.6211 -2.4947 0.9719
4.8368 3.9977 -2.3432 0.9736
4.4621 4.4127 -2.3434 0.9736
4.0520 4.7927 -2.3436 0.9736
3.1386 5.4362 -2.3440 0.9736
2.6425 5.6945 -2.3442 0.9736
1.0445 6.1922 -2.3449 0.9735
0.4893 6.2612 -2.3451 0.9735
-0.0700 6.2805 -2.3454 0.9735
-0.6288 6.2500 -2.3456 0.9735
-2.2583 5.8634 -2.3462 0.9735
-3.7280 5.0596 -2.3468 0.9735
-4.6871 4.4330 -2.4090 0.9728
-5.2538 4.1488 -2.4998 0.9718
-5.6024 3.6649 -2.4999 0.9718
-5.9066 3.1519 -2.5000 0.9718
-2.9258 -0.6629 -1.1202 0.9873
-6.1630 -2.6134 -2.4997 0.9718
-5.6013 -3.6642 -2.4994 0.9718
-4.8622 -4.5986 -2.4990 0.9718
-4.4332 -5.0127 -2.4988 0.9718
-3.9691 -5.3869 -2.4986 0.9718
-3.4736 -5.7183 -2.4984 0.9718
-0.6694 -6.6538 -2.4971 0.9719
-0.0745 -6.6863 -2.4969 0.9719
0.5208 -6.6657 -2.4966 0.9719
1.1120 -6.5923 -2.4964 0.9719
1.6942 -6.4665 -2.4962 0.9719
2.8134 -6.0626 -2.4957 0.9719
3.8431 -5.4669 -2.4953 0.9719
4.7509 -4.6983 -2.4950 0.9719
5.1500 -4.2566 -2.4949 0.9719
5.8226 -3.2757 -2.4947 0.9719
6.0908 -2.7444 -2.4946 0.9719
6.6788 0.1488 -2.4946 0.9719
6.5469 1.3307 -2.4947 0.9719
5.5997 2.8296 -2.3428 0.9736
4.2613 4.6073 -2.3435 0.9736
2.8935 5.5709 -2.3441 0.9736
2.3864 5.8069 -2.3443 0.9735
1.3192 6.1392 -2.3448 0.9735
0.7677 6.2329 -2.3450 0.9735
0.2099 6.2771 -2.3452 0.9735
-0.3497 6.2715 -2.3455 0.9735
-1.4564 6.1113 -2.3459 0.9735
-1.9947 5.9579 -2.3461 0.9735
-2.5173 5.7573 -2.3463 0.9735
-5.4335 3.9108 -2.4998 0.9718
-6.4574 1.7689 -2.5001 0.9718
-4.2614 0.3808 -1.5976 0.9819
-3.2641 -0.0000 -1.2811 0.9861
-2.8518 -0.5138 -1.1373 0.9876
-2.8528 -1.0624 -1.1947 0.9870
-5.7467 -2.7450 -2.4995 0.9730
-5.4793 -3.2454 -2.4994 0.9730
-5.1683 -3.7199 -2.4992 0.9730
-4.8164 -4.1649 -2.4990 0.9730
-4.4262 -4.5767 -2.4988 0.9730
-3.5441 -5.2881 -2.4984 0.9730
-2.5498 -5.8316 -2.4980 0.9730
-2.0205 -6.0349 -2.4977 0.9730
-1.4752 -6.1902 -2.4975 0.9730
-0.3542 -6.3524 -2.4970 0.9730
0.2126 -6.3581 -2.4968 0.9730
0.7776 -6.3135 -2.4966 0.9730
1.3363 -6.2186 -2.4963 0.9730
2.9310 -5.6432 -2.4957 0.9730
3.8846 -5.0334 -2.4954 0.9730
5.3958 -3.3606 -2.4948 0.9731
5.9059 -2.3505 -2.4947 0.9731
6.2289 -1.2661 -2.4946 0.9731
6.3547 -0.1416 -2.4947 0.9731
6.3422 0.4245 -2.4947 0.9731
9.0112 3.1290 -3.7438 0.9598
8.6974 3.9188 -3.7440 0.9598
4.2456 4.1986 -2.3434 0.9747
3.8553 4.5601 -2.3436 0.9747
3.4344 4.8856 -2.3438 0.9747
0.9938 5.8915 -2.3449 0.9747
0.4655 5.9571 -2.3451 0.9747
-0.5982 5.9464 -2.3456 0.9746
-1.1252 5.8701 -2.3458 0.9746
-1.6433 5.7471 -2.3460 0.9746
-2.1485 5.5785 -2.3462 0.9746
-2.6367 5.3656 -2.3464 0.9746
-3.1041 5.1100 -2.3465 0.9746
-3.5468 4.8138 -2.3467 0.9746
-4.6270 4.3762 -2.4995 0.9730
-5.3301 3.4868 -2.4998 0.9730
-6.0624 1.9549 -2.5000 0.9730
-6.2124 1.4075 -2.5000 0.9730
-3.6457 0.1626 -1.4322 0.9844
-3.0071 -0.1341 -1.1814 0.9871
-2.8717 -1.2177 -1.2242 0.9867
-5.3291 -3.4861 -2.4993 0.9730
-4.9973 -3.9463 -2.4991 0.9730
-4.6259 -4.3752 -2.4989 0.9730
-3.3048 -5.4405 -2.4983 0.9730
-1.7496 -6.1186 -2.4976 0.9730
-0.0709 -6.3616 -2.4969 0.9730
0.4956 -6.3421 -2.4967 0.9730
1.6119 -6.1526 -2.4962 0.9730
3.6566 -5.2016 -2.4954 0.9730
4.5204 -4.4703 -2.4951 0.9731
4.9001 -4.0501 -2.4950 0.9731
5.5401 -3.1168 -2.4948 0.9731
5.7954 -2.6112 -2.4947 0.9731
6.0047 -2.0850 -2.4947 0.9731
6.1663 -1.5423 -2.4947 0.9731
6.2791 -0.9873 -2.4946 0.9731
6.3171 0.7067 -2.4947 0.9731
6.2293 1.2662 -2.4948 0.9731
6.0921 1.8156 -2.4949 0.9731
8.8631 3.5274 -3.7439 0.9598
8.5144 4.3025 -3.7441 0.9598
4.7668 3.5948 -2.3432 0.9747
4.4282 4.0051 -2.3433 0.9747
3.2135 5.0339 -2.3439 0.9747
1.7699 5.7057 -2.3446 0.9747
0.7304 5.9302 -2.3450 0.9747
0.1997 5.9722 -2.3452 0.9746
-1.3856 5.8144 -2.3459 0.9746
-3.3287 4.9668 -2.3466 0.9746
-3.7578 4.6511 -2.3468 0.9746
-5.1694 3.7207 -2.4997 0.9730
-5.7476 2.7454 -2.4999 0.9730
-5.9692 2.2230 -2.4999 0.9730
-6.1435 1.6829 -2.5000 0.9730
-4.1298 0.3690 -1.6273 0.9823
-3.1614 0.0000 -1.3018 0.9864
-2.7831 -0.5014 -1.1645 0.9878
-2.7695 -0.7587 -1.1825 0.9877
-2.7842 -1.0369 -1.2234 0.9872
-4.9258 -3.5454 -2.4991 0.9741
-4.5904 -3.9694 -2.4989 0.9741
-3.8133 -4.7197 -2.4986 0.9741
-2.4302 -5.5581 -2.4979 0.9741
0.2026 -6.0601 -2.4968 0.9741
0.7411 -6.0175 -2.4966 0.9741
1.2737 -5.9271 -2.4964 0.9741
1.7960 -5.7897 -2.4962 0.9741
3.2611 -5.1084 -2.4956 0.9741
4.1146 -4.4487 -2.4953 0.9741
4.4940 -4.0646 -2.4952 0.9741
5.4076 -2.7326 -2.4949 0.9741
5.9371 -1.2068 -2.4948 0.9741
5.9852 0.9412 -2.4949 0.9741
5.8779 1.4702 -2.4950 0.9741
5.7240 1.9876 -2.4951 0.9741
4.6914 3.2205 -2.3432 0.9757
4.0466 4.0018 -2.3435 0.9757
3.2735 4.6566 -2.3439 0.9757
2.8462 4.9298 -2.3441 0.9757
1.4431 5.5081 -2.3447 0.9757
0.9472 5.6152 -2.3449 0.9757
0.4437 5.6777 -2.3451 0.9757
-0.0635 5.6952 -2.3453 0.9757
-0.5702 5.6674 -2.3455 0.9757
-1.0724 5.5947 -2.3457 0.9757
-2.5130 5.1138 -2.3463 0.9757
-3.3803 4.5879 -2.3466 0.9756
-3.7901 4.2856 -2.3559 0.9756
-4.7638 3.7619 -2.4995 0.9741
-5.0799 3.3231 -2.4996 0.9741
-5.3557 2.8579 -2.4997 0.9741
-5.5890 2.3699 -2.4998 0.9741
-5.9208 1.3414 -2.4999 0.9741
-6.0167 0.8092 -2.4999 0.9741
-3.5093 0.1565 -1.4465 0.9849
-2.7756 -0.6289 -1.1719 0.9878
-2.7775 -0.8956 -1.2017 0.9875
-4.7628 -3.7612 -2.4990 0.9741
-3.1498 -5.1853 -2.4983 0.9741
-2.6755 -5.4446 -2.4981 0.9741
-2.1801 -5.6606 -2.4978 0.9741
-1.1417 -5.9564 -2.4974 0.9741
0.4724 -6.0447 -2.4967 0.9741
1.5364 -5.8642 -2.4963 0.9741
2.0521 -5.7037 -2.4961 0.9741
3.0304 -5.2488 -2.4957 0.9741
3.4853 -4.9579 -2.4955 0.9741
3.9125 -4.6277 -2.4954 0.9741
4.3086 -4.2609 -2.4952 0.9741
4.6705 -3.8603 -2.4951 0.9741
4.9954 -3.4291 -2.4950 0.9741
5.8774 -1.4700 -2.4948 0.9741
5.9849 -0.9411 -2.4948 0.9741
6.0450 -0.4047 -2.4948 0.9741
6.0571 0.1350 -2.4948 0.9741
5.9375 1.2069 -2.4949 0.9741
8.1155 4.1009 -3.7442 0.9614
4.5434 3.4263 -2.3433 0.9757
3.8645 4.1782 -2.3436 0.9757
3.0629 4.7980 -2.3440 0.9757
2.6239 5.0520 -2.3442 0.9757
2.1641 5.2659 -2.3444 0.9757
1.6869 5.4381 -2.3446 0.9757
1.1963 5.5672 -2.3448 0.9757
0.6961 5.6521 -2.3450 0.9757
0.1903 5.6921 -2.3452 0.9757
-0.8221 5.6366 -2.3456 0.9757
-2.2826 5.2205 -2.3462 0.9757
-2.7384 4.9970 -2.3464 0.9757
-3.1725 4.7337 -2.3465 0.9757
-4.1867 4.3290 -2.4799 0.9743
-4.5914 3.9703 -2.4995 0.9741
-5.2230 3.0936 -2.4997 0.9741
-5.6890 2.1187 -2.4998 0.9741
-5.9747 1.0764 -2.4999 0.9741
-3.9772 0.3554 -1.6443 0.9829
-2.7539 -0.2461 -1.1927 0.9880
-2.7092 -0.7421 -1.2117 0.9878
-2.7209 -1.0133 -1.2524 0.9874
-2.7300 -1.3040 -1.3050 0.9869
-4.7021 -3.3843 -2.4990 0.9751
-4.0270 -4.1639 -2.4987 0.9751
-3.6401 -4.5054 -2.4985 0.9751
-3.2244 -4.8112 -2.4983 0.9751
-2.3199 -5.3058 -2.4979 0.9751
-0.3223 -5.7798 -2.4971 0.9751
0.7075 -5.7444 -2.4966 0.9751
1.7145 -5.5271 -2.4962 0.9751
2.1995 -5.3521 -2.4960 0.9751
2.6669 -5.1348 -2.4959 0.9751
3.1132 -4.8767 -2.4957 0.9751
3.5346 -4.5800 -2.4955 0.9751
3.9280 -4.2469 -2.4954 0.9751
4.2902 -3.8803 -2.4953 0.9751
5.7824 -0.1288 -2.4949 0.9751
5.6114 1.4035 -2.4951 0.9751
5.4644 1.8974 -2.4952 0.9751
7.9139 3.5658 -3.7443 0.9629
7.5655 4.2563 -3.7445 0.9629
4.4786 3.0744 -2.3433 0.9766
3.5080 4.1493 -2.3437 0.9766
2.7171 4.7062 -2.3441 0.9766
0.9042 5.3604 -2.3449 0.9766
-0.0606 5.4367 -2.3453 0.9766
-0.5443 5.4102 -2.3455 0.9766
-1.9547 5.0754 -2.3461 0.9766
-2.3989 4.8816 -2.3462 0.9766
-4.2095 3.9814 -2.4993 0.9751
-4.5474 3.5910 -2.4994 0.9751
-5.1124 2.7281 -2.4996 0.9751
-5.3351 2.2623 -2.4997 0.9751
-5.5153 1.7785 -2.4997 0.9751
-5.7433 0.7724 -2.4997 0.9751
-3.3812 0.1508 -1.4599 0.9854
-2.8614 -0.1276 -1.2355 0.9876
-2.7402 -0.3685 -1.1926 0.9880
-2.7200 -0.6163 -1.2030 0.9879
-2.7166 -0.8760 -1.2313 0.9876
-3.8374 -4.3390 -2.4986 0.9751
-2.5541 -5.1974 -2.4980 0.9751
-2.0812 -5.4036 -2.4978 0.9751
-1.5918 -5.5670 -2.4976 0.9751
-1.0899 -5.6861 -2.4974 0.9751
-0.0645 -5.7882 -2.4969 0.9751
0.4509 -5.7705 -2.4967 0.9751
1.4667 -5.5982 -2.4963 0.9751
1.9590 -5.4450 -2.4961 0.9751
2.8929 -5.0107 -2.4958 0.9751
3.3272 -4.7330 -2.4956 0.9751
4.7688 -3.2736 -2.4951 0.9751
5.0411 -2.8361 -2.4950 0.9751
5.2734 -2.3761 -2.4950 0.9751
5.6110 -1.4034 -2.4949 0.9751
5.7136 -0.8984 -2.4949 0.9751
5.7481 0.6430 -2.4950 0.9751
5.5434 1.6521 -2.4951 0.9751
4.6110 2.8717 -2.3432 0.9766
4.3374 3.2710 -2.3433 0.9766
3.6892 3.9887 -2.3437 0.9766
2.5049 4.8228 -2.3442 0.9766
2.0659 5.0270 -2.3444 0.9766
1.6104 5.1913 -2.3446 0.9766
-0.7848 5.3808 -2.3456 0.9766
-1.7266 5.1572 -2.3460 0.9766
-2.1790 4.9834 -2.3462 0.9766
-2.6141 4.7701 -2.3463 0.9766
-3.0284 4.5188 -2.3465 0.9766
-3.4187 4.2315 -2.3466 0.9766
-4.0279 4.1648 -2.4993 0.9751
-4.3828 3.7900 -2.4994 0.9751
-4.9857 2.9530 -2.4996 0.9751
-5.2289 2.4977 -2.4996 0.9751
-5.5891 1.5310 -2.4997 0.9751
-3.8266 0.3419 -1.6572 0.9834
-2.6738 -0.4817 -1.2259 0.9881
-2.6546 -0.7272 -1.2419 0.9880
-2.6607 -0.9909 -1.2811 0.9876
-3.8497 -3.9805 -2.4986 0.9760
-3.0825 -4.5993 -2.4983 0.9760
-2.2178 -5.0722 -2.4979 0.9760
-1.7574 -5.2490 -2.4977 0.9760
0.6764 -5.4917 -2.4967 0.9760
1.1624 -5.4093 -2.4965 0.9760
2.5496 -4.9089 -2.4959 0.9760
4.4153 -3.3297 -2.4953 0.9760
4.6939 -2.9234 -2.4952 0.9760
4.9354 -2.4939 -2.4951 0.9760
5.2992 -1.5793 -2.4950 0.9760
5.5281 -0.1232 -2.4950 0.9760
5.3646 1.3418 -2.4952 0.9760
4.2816 2.9392 -2.3433 0.9775
2.9875 4.2497 -2.3440 0.9775
1.7590 4.8892 -2.3445 0.9775
1.3169 5.0267 -2.3447 0.9775
0.8644 5.1245 -2.3449 0.9775
0.4049 5.1815 -2.3451 0.9775
-1.4293 4.9986 -2.3458 0.9774
-1.8687 4.8519 -2.3460 0.9774
-2.2933 4.6666 -2.3462 0.9774
-2.6997 4.4443 -2.3463 0.9774
-3.6692 4.1488 -2.4991 0.9760
-4.3471 3.4329 -2.4993 0.9760
-4.6356 3.0324 -2.4994 0.9760
-4.8872 2.6079 -2.4995 0.9760
-5.2724 1.7001 -2.4996 0.9760
-5.4028 1.2241 -2.4996 0.9760
-5.4903 0.7384 -2.4996 0.9760
-3.2609 0.1454 -1.4728 0.9858
-2.6659 -0.6040 -1.2334 0.9881
-2.6574 -0.8569 -1.2599 0.9878
-4.8865 -2.6075 -2.4992 0.9760
-4.3463 -3.4322 -2.4989 0.9760
-3.6684 -4.1479 -2.4986 0.9760
-3.2844 -4.4576 -2.4984 0.9760
-2.4416 -4.9686 -2.4980 0.9760
-1.9896 -5.1658 -2.4978 0.9760
-1.5218 -5.3219 -2.4976 0.9760
0.4311 -5.5166 -2.4968 0.9760
1.4021 -5.3519 -2.4964 0.9760
3.1809 -4.5248 -2.4957 0.9760
3.5708 -4.2235 -2.4955 0.9760
4.8194 -2.7114 -2.4951 0.9760
5.3642 -1.3417 -2.4950 0.9760
5.5171 -0.3693 -2.4950 0.9760
5.4954 0.6147 -2.4951 0.9760
5.1382 2.0450 -2.4953 0.9760
3.8520 3.4839 -2.3436 0.9775
3.5269 3.8132 -2.3437 0.9775
3.1737 4.1123 -2.3439 0.9775
2.3947 4.6105 -2.3442 0.9775
-0.7502 5.1439 -2.3456 0.9774
-1.2052 5.0571 -2.3458 0.9774
-1.6506 4.9301 -2.3459 0.9774
-2.0830 4.7640 -2.3461 0.9774
-2.4989 4.5600 -2.3463 0.9774
-3.8505 3.9814 -2.4992 0.9760
-4.1898 3.6230 -2.4993 0.9760
-4.7661 2.8229 -2.4995 0.9760
-5.1914 1.9333 -2.4996 0.9760
-5.4520 0.9822 -2.4996 0.9760
-3.7667 0.3366 -1.7064 0.9835
-2.9112 0.0000 -1.3723 0.9872
-2.6016 -0.7127 -1.2715 0.9881
-2.6023 -0.9691 -1.3090 0.9878
-2.6596 -1.5753 -1.4571 0.9864
-4.0097 -3.4673 -2.4987 0.9768
-3.3310 -4.1228 -2.4984 0.9768
-2.9506 -4.4025 -2.4982 0.9768
-2.5468 -4.6474 -2.4981 0.9768
-0.7646 -5.2424 -2.4973 0.9768
-0.2949 -5.2892 -2.4971 0.9768
0.1770 -5.2941 -2.4969 0.9768
0.6474 -5.2569 -2.4967 0.9769
1.5690 -5.0580 -2.4963 0.9769
2.0128 -4.8979 -2.4961 0.9769
2.4406 -4.6991 -2.4960 0.9769
2.8490 -4.4629 -2.4958 0.9769
3.2348 -4.1914 -2.4957 0.9769
4.4934 -2.7985 -2.4953 0.9769
4.9181 -1.9574 -2.4951 0.9769
5.2919 -0.1179 -2.4951 0.9769
5.2815 0.3536 -2.4951 0.9769
5.2292 0.8223 -2.4952 0.9769
5.1354 1.2845 -2.4953 0.9769
5.0009 1.7365 -2.4954 0.9769
4.6141 2.5959 -2.4956 0.9769
4.1390 2.8412 -2.3665 0.9780
3.8322 3.1673 -2.3435 0.9783
3.2103 3.7971 -2.3438 0.9783
2.8598 4.0681 -2.3440 0.9783
2.0935 4.5113 -2.3443 0.9782
1.6838 4.6801 -2.3445 0.9782
0.3876 4.9599 -2.3451 0.9782
-0.0554 4.9750 -2.3453 0.9782
-0.4980 4.9508 -2.3455 0.9782
-0.9368 4.8872 -2.3456 0.9782
-1.3682 4.7847 -2.3458 0.9782
-1.7887 4.6443 -2.3460 0.9782
-2.1951 4.4670 -2.3461 0.9782
-3.0455 4.1334 -2.4201 0.9776
-3.8519 3.6431 -2.4992 0.9768
-4.1610 3.2859 -2.4993 0.9768
-4.4371 2.9026 -2.4993 0.9768
-4.6780 2.4963 -2.4994 0.9768
-2.6352 -0.3544 -1.2533 0.9883
-2.6131 -0.5921 -1.2630 0.9882
-2.5994 -0.8382 -1.2874 0.9880
-2.5902 -1.3822 -1.3839 0.9871
-4.1603 -3.2853 -2.4988 0.9768
-3.8511 -3.6424 -2.4987 0.9768
-3.5114 -3.9704 -2.4985 0.9768
-3.1439 -4.2669 -2.4983 0.9768
-1.9045 -4.9448 -2.4978 0.9768
-1.4567 -5.0943 -2.4976 0.9768
-0.9974 -5.2033 -2.4974 0.9768
-0.0590 -5.2969 -2.4970 0.9768
1.7927 -4.9829 -2.4962 0.9769
2.2290 -4.8033 -2.4961 0.9769
3.4182 -4.0430 -2.4956 0.9769
3.7643 -3.7226 -2.4955 0.9769
4.3643 -2.9959 -2.4953 0.9769
5.0004 -1.7363 -2.4951 0.9769
5.2920 0.1179 -2.4951 0.9769
5.2606 0.5885 -2.4952 0.9769
5.1874 1.0544 -2.4952 0.9769
5.0732 1.5120 -2.4953 0.9769
4.9186 1.9575 -2.4954 0.9769
7.0901 3.5828 -3.7446 0.9655
3.9693 2.9934 -2.3435 0.9783
3.3761 3.6502 -2.3438 0.9783
1.8905 4.6003 -2.3444 0.9782
1.0451 4.8634 -2.3448 0.9782
0.6081 4.9375 -2.3450 0.9782
0.1662 4.9724 -2.3452 0.9782
-0.7181 4.9238 -2.3455 0.9782
-1.1536 4.8408 -2.3457 0.9782
-1.9939 4.5602 -2.3460 0.9782
-4.0104 3.4680 -2.4992 0.9768
-4.3034 3.0974 -2.4993 0.9768
-4.9692 1.8505 -2.4995 0.9768
-2.8280 0.0000 -1.3909 0.9875
-2.5698 -0.4630 -1.2843 0.9884
-2.5453 -0.9479 -1.3359 0.9880
-4.1234 -2.9678 -2.4988 0.9776
-3.5314 -3.6515 -2.4985 0.9776
-3.1922 -3.9511 -2.4984 0.9776
-2.8277 -4.2192 -2.4982 0.9776
-1.6122 -4.8153 -2.4977 0.9776
-1.1771 -4.9393 -2.4975 0.9776
-0.7327 -5.0241 -2.4973 0.9776
-0.2826 -5.0690 -2.4971 0.9776
0.6205 -5.0381 -2.4967 0.9776
1.0664 -4.9625 -2.4965 0.9776
1.5037 -4.8475 -2.4964 0.9776
2.3391 -4.5035 -2.4960 0.9776
4.0507 -3.0548 -2.4954 0.9776
4.3064 -2.6821 -2.4953 0.9776
5.0618 0.3388 -2.4952 0.9776
5.0116 0.7880 -2.4953 0.9776
4.4222 2.4879 -2.4956 0.9776
4.1192 2.8277 -2.4575 0.9780
3.0767 3.6391 -2.3439 0.9790
2.7407 3.8987 -2.3440 0.9790
2.3830 4.1275 -2.3442 0.9790
2.0063 4.3236 -2.3444 0.9790
1.6137 4.4853 -2.3445 0.9790
1.2081 4.6114 -2.3447 0.9790
-0.0531 4.7679 -2.3453 0.9790
-0.8978 4.6836 -2.3456 0.9790
-3.0136 4.0901 -2.4988 0.9776
-4.4831 2.3923 -2.4993 0.9776
-4.9560 1.1229 -2.4994 0.9776
-5.0363 0.6773 -2.4994 0.9776
-3.0631 0.1366 -1.5081 0.9864
-2.5616 -0.5804 -1.2919 0.9884
-2.5430 -0.8200 -1.3142 0.9882
-2.5441 -1.0788 -1.3592 0.9878
-2.5301 -1.3501 -1.4105 0.9873
-3.0129 -4.0892 -2.4983 0.9776
-2.2399 -4.5580 -2.4979 0.9776
-1.3960 -4.8822 -2.4976 0.9776
-0.5082 -5.0516 -2.4972 0.9776
0.3955 -5.0609 -2.4968 0.9776
2.5373 -4.3947 -2.4960 0.9776
2.9182 -4.1512 -2.4958 0.9776
3.2760 -3.8748 -2.4957 0.9776
3.6076 -3.5677 -2.4956 0.9776
4.4216 -2.4875 -2.4953 0.9776
4.6253 -2.0841 -2.4953 0.9776
5.0114 -0.7880 -2.4952 0.9776
5.0718 0.1130 -2.4952 0.9776
4.3071 2.6825 -2.4957 0.9776
2.9116 3.7727 -2.3440 0.9790
2.5644 4.0171 -2.3441 0.9790
1.8118 4.4088 -2.3445 0.9790
1.0016 4.6609 -2.3448 0.9790
-0.6882 4.7188 -2.3455 0.9790
-1.5142 4.5227 -2.3458 0.9790
-2.2924 4.1830 -2.3461 0.9790
-3.1929 3.9519 -2.4989 0.9776
-3.5321 3.6522 -2.4990 0.9776
-3.8433 3.3235 -2.4991 0.9776
-4.1241 2.9683 -2.4992 0.9776
-4.3720 2.5896 -2.4993 0.9776
-4.5853 2.1902 -2.4994 0.9776
-5.0012 0.9010 -2.4994 0.9776
-2.7481 0.0000 -1.4089 0.9877
-2.4879 -1.1884 -1.4135 0.9877
-2.4521 -1.4524 -1.4611 0.9873
-3.3880 -3.5032 -2.4985 0.9783
-2.7128 -4.0479 -2.4982 0.9783
-2.3416 -4.2730 -2.4980 0.9783
-1.9519 -4.4641 -2.4978 0.9783
-1.5467 -4.6198 -2.4976 0.9783
-0.2712 -4.8632 -2.4971 0.9783
0.1627 -4.8677 -2.4969 0.9783
1.8508 -4.5036 -2.4962 0.9784
2.2442 -4.3208 -2.4961 0.9784
2.9744 -3.8540 -2.4958 0.9784
3.3054 -3.5738 -2.4957 0.9784
3.6102 -3.2653 -2.4956 0.9784
4.3442 -2.1952 -2.4954 0.9784
4.6645 -1.3902 -2.4953 0.9784
4.8370 -0.5411 -2.4953 0.9784
4.8660 -0.1084 -2.4953 0.9784
4.8564 0.3251 -2.4953 0.9784
4.7221 1.1811 -2.4954 0.9784
4.5983 1.5967 -2.4955 0.9784
4.4381 1.9997 -2.4956 0.9784
4.2427 2.3869 -2.4957 0.9784
2.9518 3.4914 -2.3439 0.9797
2.6295 3.7405 -2.3441 0.9797
2.2863 3.9600 -2.3442 0.9797
1.1591 4.4243 -2.3447 0.9797
-0.4579 4.5519 -2.3454 0.9796
-0.8613 4.4934 -2.3456 0.9796
-1.2579 4.3992 -2.3457 0.9796
-1.6446 4.2700 -2.3459 0.9796
-2.4454 4.0256 -2.4148 0.9791
-2.8912 3.9239 -2.4988 0.9783
-3.2291 3.6512 -2.4989 0.9783
-3.5414 3.3495 -2.4990 0.9783
-3.8256 3.0211 -2.4991 0.9783
-4.0795 2.6687 -2.4992 0.9783
-4.3009 2.2950 -2.4992 0.9783
-4.4882 1.9031 -2.4993 0.9783
-4.7547 1.0772 -2.4994 0.9783
-2.9775 0.1328 -1.5280 0.9867
-2.5877 -0.1154 -1.3280 0.9884
-2.5350 -0.3409 -1.3113 0.9886
-2.4879 -1.0550 -1.3854 0.9879
-2.4717 -1.3190 -1.4363 0.9875
-4.0789 -2.6683 -2.4988 0.9783
-3.8250 -3.0206 -2.4987 0.9783
-3.2285 -3.6505 -2.4984 0.9783
-2.8906 -3.9231 -2.4982 0.9783
-2.5297 -4.1645 -2.4981 0.9783
-2.1489 -4.3729 -2.4979 0.9783
-1.3393 -4.6839 -2.4975 0.9783
-0.9171 -4.7842 -2.4974 0.9783
0.3794 -4.8554 -2.4968 0.9783
1.6484 -4.5817 -2.4963 0.9784
3.4613 -3.4229 -2.4956 0.9784
4.4377 -1.9995 -2.4953 0.9784
4.5979 -1.5966 -2.4953 0.9784
4.7218 -1.1810 -2.4953 0.9784
4.8563 -0.3251 -2.4953 0.9784
4.8661 0.1085 -2.4953 0.9784
4.8372 0.5411 -2.4953 0.9784
4.7699 0.9695 -2.4954 0.9784
4.6648 1.3903 -2.4955 0.9784
4.1323 2.5736 -2.4958 0.9784
3.8219 2.8822 -2.4541 0.9787
3.1043 3.3563 -2.3439 0.9797
2.4604 3.8541 -2.3442 0.9797
1.7383 4.2298 -2.3445 0.9797
1.3550 4.3681 -2.3446 0.9797
0.9609 4.4716 -2.3448 0.9797
-0.2547 4.5676 -2.3453 0.9796
-1.4527 4.3389 -2.3458 0.9796
-1.8332 4.1927 -2.3460 0.9796
-2.1991 4.0131 -2.3461 0.9796
-2.7134 4.0487 -2.4987 0.9783
-3.0632 3.7914 -2.4988 0.9783
-3.9565 2.8477 -2.4991 0.9783
-4.7019 1.2880 -2.4993 0.9783
-3.5464 0.3169 -1.8254 0.9841
-2.6714 0.0000 -1.4261 0.9880
-2.4352 -0.9069 -1.3872 0.9883
-3.5403 -3.0614 -2.4986 0.9790
-2.9410 -3.6401 -2.4983 0.9790
-2.6052 -3.8872 -2.4981 0.9790
-2.2487 -4.1035 -2.4980 0.9790
-1.8745 -4.2870 -2.4978 0.9790
-1.0845 -4.5508 -2.4975 0.9790
-0.6751 -4.6289 -2.4973 0.9790
0.1563 -4.6747 -2.4969 0.9790
0.5717 -4.6419 -2.4968 0.9790
1.3855 -4.4664 -2.4964 0.9790
2.1552 -4.1495 -2.4961 0.9790
3.1744 -3.4321 -2.4958 0.9790
3.4671 -3.1358 -2.4957 0.9790
3.7324 -2.8147 -2.4956 0.9790
3.9680 -2.4713 -2.4955 0.9790
4.1721 -2.1083 -2.4954 0.9790
4.5806 -0.9311 -2.4954 0.9790
4.6453 -0.5196 -2.4954 0.9790
4.5349 1.1343 -2.4955 0.9790
4.4161 1.5335 -2.4956 0.9790
4.0746 2.2923 -2.4958 0.9790
3.5469 2.9316 -2.4565 0.9794
2.5252 3.5922 -2.3441 0.9803
2.1956 3.8030 -2.3443 0.9803
1.4868 4.1326 -2.3446 0.9803
1.1131 4.2488 -2.3447 0.9803
0.7306 4.3313 -2.3449 0.9803
0.3422 4.3794 -2.3451 0.9803
-0.4398 4.3713 -2.3454 0.9803
-0.8271 4.3151 -2.3455 0.9803
-1.5793 4.1006 -2.3458 0.9803
-1.9431 3.9541 -2.3520 0.9802
-2.4299 4.0002 -2.4986 0.9790
-2.7764 3.7682 -2.4987 0.9790
-3.1010 3.5063 -2.4988 0.9790
-3.4009 3.2166 -2.4989 0.9790
-3.9176 2.5628 -2.4991 0.9790
-4.3101 1.8277 -2.4992 0.9790
-4.4557 1.4368 -2.4993 0.9790
-4.6399 0.6240 -2.4993 0.9790
-2.8952 0.1291 -1.5471 0.9869
-2.4861 -0.3343 -1.3391 0.9887
-2.4353 -0.7853 -1.3660 0.9885
-2.4330 -1.0317 -1.4108 0.9881
-2.4151 -1.2887 -1.4613 0.9877
-2.4322 -1.5911 -1.5516 0.9869
-3.4003 -3.2160 -2.4985 0.9790
-3.1004 -3.5056 -2.4984 0.9790
-2.7759 -3.7674 -2.4982 0.9790
-2.4294 -3.9993 -2.4980 0.9790
-2.0636 -4.1994 -2.4979 0.9790
-0.0521 -4.6771 -2.4970 0.9790
0.3644 -4.6629 -2.4968 0.9790
0.7779 -4.6116 -2.4967 0.9790
1.1852 -4.5238 -2.4965 0.9790
1.5830 -4.4001 -2.4964 0.9790
1.9683 -4.2415 -2.4962 0.9790
3.3241 -3.2873 -2.4957 0.9790
3.6033 -2.9783 -2.4956 0.9790
4.0740 -2.2920 -2.4955 0.9790
4.2618 -1.9203 -2.4954 0.9790
4.5346 -1.1342 -2.4954 0.9790
4.6176 -0.7260 -2.4953 0.9790
4.6639 -0.3122 -2.4954 0.9790
4.6732 0.1041 -2.4954 0.9790
4.6455 0.5197 -2.4954 0.9790
4.3435 1.7287 -2.4956 0.9790
4.1725 2.1085 -2.4957 0.9790
3.7329 2.8151 -2.4960 0.9790
2.9812 3.2233 -2.3439 0.9803
2.6827 3.4761 -2.3440 0.9803
2.3628 3.7013 -2.3442 0.9803
2.0241 3.8971 -2.3443 0.9803
1.6693 4.0621 -2.3445 0.9803
1.3013 4.1948 -2.3447 0.9803
0.1468 4.3905 -2.3451 0.9803
-0.2446 4.3865 -2.3453 0.9803
-0.6341 4.3476 -2.3455 0.9803
-1.0186 4.2741 -2.3456 0.9803
-1.3950 4.1668 -2.3458 0.9803
-2.9416 3.6409 -2.4988 0.9790
-3.7995 2.7347 -2.4991 0.9790
-4.0279 2.3857 -2.4991 0.9790
-4.2243 2.0178 -2.4992 0.9790
-2.5976 0.0000 -1.4427 0.9882
-2.4347 -0.2176 -1.3576 0.9889
-2.4018 -0.6579 -1.3831 0.9887
-2.3176 -1.3727 -1.4960 0.9878
-3.6514 -2.6281 -2.4986 0.9796
-2.8269 -3.4988 -2.4982 0.9796
-2.5041 -3.7363 -2.4981 0.9796
-1.0424 -4.3742 -2.4974 0.9796
-0.6489 -4.4493 -2.4973 0.9796
-0.2503 -4.4891 -2.4971 0.9796
0.1502 -4.4933 -2.4969 0.9796
1.3317 -4.2931 -2.4965 0.9796
2.0716 -3.9886 -2.4962 0.9796
2.4182 -3.7881 -2.4961 0.9796
3.0513 -3.2990 -2.4958 0.9796
3.8141 -2.3754 -2.4956 0.9797
4.0103 -2.0265 -2.4955 0.9797
4.1747 -1.6615 -2.4955 0.9797
4.4920 -0.1001 -2.4954 0.9797
4.4387 0.6979 -2.4955 0.9797
4.3591 1.0903 -2.4956 0.9797
4.2448 1.4740 -2.4957 0.9796
4.0969 1.8460 -2.4957 0.9796
3.9165 2.2034 -2.4958 0.9796
3.7050 2.5434 -2.4959 0.9796
3.4641 2.8632 -2.4961 0.9796
2.7248 3.2229 -2.3440 0.9809
2.4273 3.4529 -2.3441 0.9809
1.7769 3.8290 -2.3444 0.9809
1.4291 3.9722 -2.3446 0.9809
0.7023 4.1632 -2.3449 0.9809
-0.0470 4.2224 -2.3452 0.9809
-0.7950 4.1476 -2.3455 0.9809
-1.1611 4.0607 -2.3457 0.9809
-1.9309 3.9292 -2.4315 0.9802
-2.9806 3.3702 -2.4988 0.9796
-3.7654 2.4632 -2.4990 0.9796
-3.9698 2.1184 -2.4991 0.9796
-4.3886 0.9943 -2.4992 0.9796
-2.3793 -1.0089 -1.4353 0.9882
-2.3600 -1.2593 -1.4857 0.9878
-3.5306 -2.7881 -2.4986 0.9796
-2.6681 -3.6212 -2.4982 0.9796
-2.3351 -3.8441 -2.4980 0.9796
-1.9835 -4.0364 -2.4979 0.9796
-1.6163 -4.1967 -2.4977 0.9796
-1.2363 -4.3236 -2.4975 0.9796
-0.8465 -4.4162 -2.4974 0.9796
-0.4501 -4.4737 -2.4972 0.9796
0.3502 -4.4820 -2.4969 0.9796
1.5216 -4.2294 -2.4964 0.9796
2.2471 -3.8922 -2.4961 0.9796
3.1952 -3.1597 -2.4958 0.9796
3.4636 -2.8627 -2.4957 0.9796
4.0965 -1.8458 -2.4955 0.9797
4.2445 -1.4738 -2.4955 0.9797
4.4385 -0.6979 -2.4954 0.9797
4.4830 -0.3001 -2.4954 0.9797
4.3062 1.2834 -2.4956 0.9797
4.1750 1.6616 -2.4957 0.9796
3.8146 2.3757 -2.4959 0.9796
3.5881 2.7059 -2.4960 0.9796
1.9456 3.7459 -2.3444 0.9809
0.1411 4.2201 -2.3451 0.9809
-0.2351 4.2162 -2.3453 0.9809
-0.6095 4.1788 -2.3454 0.9809
-1.3409 4.0051 -2.3457 0.9809
-1.7057 3.9010 -2.3647 0.9807
-2.1619 3.9450 -2.4985 0.9796
-2.5046 3.7371 -2.4986 0.9796
-2.8274 3.4995 -2.4987 0.9796
-3.4034 2.9430 -2.4989 0.9796
-4.0603 1.9395 -2.4991 0.9796
-4.2169 1.5704 -2.4992 0.9796
-4.3399 1.1888 -2.4992 0.9796
-2.5383 0.2268 -1.4154 0.9884
-2.5326 -0.0000 -1.4622 0.9884
-2.3852 -0.2132 -1.3826 0.9890
-2.3545 -0.6450 -1.4095 0.9888
-2.3307 -0.8680 -1.4359 0.9886
-2.3203 -1.1083 -1.4846 0.9882
-2.1928 -1.5783 -1.5599 0.9876
-3.0083 -3.1105 -2.4983 0.9802
-2.7193 -3.3658 -2.4982 0.9802
-2.4088 -3.5942 -2.4981 0.9802
-2.0792 -3.7941 -2.4979 0.9802
