ply
format ascii 1.0
element vertex 1587
property float32 x
property float32 y
property float32 z
property float32 I
end_header
13.2853 5.9861 -2.3203 0.9427
11.2318 9.2833 -2.3203 0.9427
9.4079 11.1277 -2.3203 0.9427
7.2858 12.6195 -2.3203 0.9427
4.9329 13.7113 -2.3203 0.9427
3.6930 14.0960 -2.3203 0.9427
2.4237 14.3687 -2.3203 0.9427
1.1352 14.5274 -2.3203 0.9427
-1.4585 14.4985 -2.3203 0.9427
-4.0061 14.0102 -2.3203 0.9427
-6.4267 13.0779 -2.3203 0.9427
-9.6534 10.9154 -2.3203 0.9427
-10.5866 10.0128 -2.3203 0.9427
-11.4358 9.0308 -2.3203 0.9427
-12.1942 7.9771 -2.3203 0.9427
14.4813 1.6200 -2.3203 0.9427
14.2797 2.9025 -2.3203 0.9427
13.9647 4.1620 -2.3203 0.9427
13.5388 5.3883 -2.3203 0.9427
13.0055 6.5720 -2.3203 0.9427
12.3689 7.7035 -2.3203 0.9427
11.6342 8.7738 -2.3203 0.9427
10.8071 9.7745 -2.3203 0.9427
9.8942 10.6976 -2.3203 0.9427
7.8407 12.2824 -2.3203 0.9427
6.7164 12.9315 -2.3203 0.9427
5.5388 13.4780 -2.3203 0.9427
4.3172 13.9175 -2.3203 0.9427
3.0614 14.2465 -2.3203 0.9427
1.7812 14.4624 -2.3203 0.9427
-2.1030 14.4191 -2.3203 0.9427
-4.6262 13.8178 -2.3203 0.9427
-7.0028 12.7787 -2.3203 0.9427
-12.5375 7.4260 -2.3203 0.9427
-13.1486 6.2806 -2.3203 0.9427
-14.0236 0.0000 -2.4727 0.9446
-13.9679 -1.2481 -2.4727 0.9446
-13.8014 -2.4864 -2.4727 0.9446
-13.5253 -3.7050 -2.4727 0.9446
-12.0659 -7.1466 -2.4727 0.9446
-9.7491 -10.0805 -2.4727 0.9446
-8.8132 -10.9082 -2.4727 0.9446
-7.8073 -11.6493 -2.4727 0.9446
-5.6181 -12.8490 -2.4727 0.9446
-3.2509 -13.6415 -2.4727 0.9446
-0.7807 -14.0018 -2.4727 0.9446
0.4686 -14.0157 -2.4727 0.9446
5.3305 -12.9710 -2.4727 0.9446
7.5459 -11.8203 -2.4727 0.9446
8.5680 -11.1018 -2.4727 0.9446
9.5221 -10.2951 -2.4727 0.9446
10.4006 -9.4068 -2.4727 0.9446
12.5163 -6.3247 -2.4727 0.9446
13.0296 -5.1856 -2.4727 0.9446
13.9367 -1.5590 -2.4727 0.9446
14.0201 -0.3124 -2.4727 0.9446
12.9996 2.0441 -2.3203 0.9480
12.7660 3.1930 -2.3203 0.9480
12.4312 4.3167 -2.3203 0.9480
11.9976 5.4059 -2.3203 0.9480
11.4689 6.4523 -2.3203 0.9480
10.8491 7.4475 -2.3203 0.9480
10.1431 8.3836 -2.3203 0.9480
8.4960 10.0491 -2.3203 0.9480
6.5796 11.3963 -2.3203 0.9480
5.5392 11.9367 -2.3203 0.9480
3.3350 12.7297 -2.3203 0.9480
2.1888 12.9760 -2.3203 0.9480
1.0252 13.1193 -2.3203 0.9480
-1.3172 13.0932 -2.3203 0.9480
-3.6178 12.6522 -2.3203 0.9480
-4.7295 12.2800 -2.3203 0.9480
-6.8319 11.2469 -2.3203 0.9480
-7.8058 10.5942 -2.3203 0.9480
-11.6098 6.1952 -2.3203 0.9480
-12.9108 5.4747 -2.4727 0.9446
-13.3468 4.3038 -2.4727 0.9446
-13.8985 1.8692 -2.4727 0.9446
-14.0097 0.6247 -2.4727 0.9446
-13.8985 -1.8691 -2.4727 0.9446
-13.6769 -3.0987 -2.4727 0.9446
-13.3468 -4.3038 -2.4727 0.9446
-12.9108 -5.4746 -2.4727 0.9446
-12.3723 -6.6020 -2.4727 0.9446
-11.7356 -7.6770 -2.4727 0.9446
-11.0057 -8.6911 -2.4727 0.9446
-10.1885 -9.6362 -2.4727 0.9446
-9.2904 -10.5047 -2.4727 0.9446
-8.3185 -11.2899 -2.4727 0.9446
-7.2806 -11.9855 -2.4727 0.9446
-6.1850 -12.5859 -2.4727 0.9446
-1.4037 -13.9531 -2.4727 0.9446
-0.1562 -14.0227 -2.4727 0.9446
3.5541 -13.5657 -2.4727 0.9446
4.7474 -13.1956 -2.4727 0.9446
5.9030 -12.7206 -2.4727 0.9446
8.0649 -11.4724 -2.4727 0.9446
11.5616 -7.9365 -2.4727 0.9446
12.2222 -6.8760 -2.4727 0.9446
12.7857 -5.7609 -2.4727 0.9446
13.2477 -4.6000 -2.4727 0.9446
13.6045 -3.4027 -2.4727 0.9446
13.8534 -2.1783 -2.4727 0.9446
13.9923 -0.9366 -2.4727 0.9446
14.0201 0.3125 -2.4727 0.9446
13.0777 1.4630 -2.3203 0.9480
12.8956 2.6212 -2.3203 0.9480
12.2265 4.8661 -2.3203 0.9480
11.1701 6.9568 -2.3203 0.9480
9.7596 8.8271 -2.3203 0.9480
8.9352 9.6607 -2.3203 0.9480
7.0808 11.0919 -2.3203 0.9480
6.0654 11.6781 -2.3203 0.9480
5.0020 12.1716 -2.3203 0.9480
3.8988 12.5685 -2.3203 0.9480
2.7646 12.8656 -2.3203 0.9480
-0.7326 13.1389 -2.3203 0.9480
-1.8991 13.0216 -2.3203 0.9480
-5.2719 12.0571 -2.3203 0.9480
-6.3241 11.5401 -2.3203 0.9480
-5.6164 6.9516 -1.5758 0.9644
-9.9538 8.6074 -2.3203 0.9480
-11.3223 6.7062 -2.3203 0.9480
-13.5253 3.7050 -2.4727 0.9446
-12.5754 -2.2655 -2.4727 0.9493
-12.3238 -3.3758 -2.4727 0.9493
-11.9744 -4.4593 -2.4727 0.9493
-9.6653 -8.3579 -2.4727 0.9493
-6.1408 -11.2055 -2.4727 0.9493
-5.1191 -11.7076 -2.4727 0.9493
-2.9621 -12.4297 -2.4727 0.9493
0.4270 -12.7706 -2.4727 0.9493
2.6845 -12.4926 -2.4727 0.9493
3.7858 -12.2041 -2.4727 0.9493
5.8896 -11.3395 -2.4727 0.9493
6.8755 -10.7703 -2.4727 0.9493
7.8068 -10.1156 -2.4727 0.9493
8.6762 -9.3806 -2.4727 0.9493
9.4767 -8.5711 -2.4727 0.9493
10.8463 -6.7550 -2.4727 0.9493
12.2455 -3.6495 -2.4727 0.9493
12.5218 -2.5451 -2.4727 0.9493
12.7746 -0.2846 -2.4727 0.9493
11.3268 3.9331 -2.3203 0.9523
10.4500 5.8791 -2.3203 0.9523
9.8853 6.7859 -2.3203 0.9523
6.8956 9.8092 -2.3203 0.9523
5.9951 10.3839 -2.3203 0.9523
4.0591 11.2824 -2.3203 0.9523
0.9341 11.9539 -2.3203 0.9523
-5.2882 10.7612 -2.3203 0.9523
-6.2250 10.2478 -2.3203 0.9523
-7.9433 8.9817 -2.3203 0.9523
-10.5784 5.6448 -2.3203 0.9523
-11.7639 4.9884 -2.4727 0.9493
-12.4620 2.8236 -2.4727 0.9493
-12.6638 1.7032 -2.4727 0.9493
-12.7651 0.5692 -2.4727 0.9493
-12.7651 -0.5692 -2.4727 0.9493
-12.6638 -1.7031 -2.4727 0.9493
-12.4620 -2.8235 -2.4727 0.9493
-11.7639 -4.9883 -2.4727 0.9493
-11.2732 -6.0155 -2.4727 0.9493
-10.6931 -6.9950 -2.4727 0.9493
-10.0280 -7.9190 -2.4727 0.9493
-7.5795 -10.2870 -2.4727 0.9493
-5.6355 -11.4679 -2.4727 0.9493
-4.5924 -11.9240 -2.4727 0.9493
-2.4055 -12.5493 -2.4727 0.9493
-1.2790 -12.7136 -2.4727 0.9493
-0.1423 -12.7770 -2.4727 0.9493
2.1253 -12.5998 -2.4727 0.9493
4.3257 -12.0233 -2.4727 0.9493
5.3786 -11.5906 -2.4727 0.9493
7.3485 -10.4533 -2.4727 0.9493
11.6498 -5.2491 -2.4727 0.9493
12.0708 -4.1914 -2.4727 0.9493
12.7493 -0.8534 -2.4727 0.9493
12.7747 0.2847 -2.4727 0.9493
11.7500 2.3884 -2.3203 0.9523
11.1404 4.4338 -2.3203 0.9523
10.7016 5.4078 -2.3203 0.9523
9.5732 7.2195 -2.3203 0.9523
7.3257 9.4922 -2.3203 0.9523
6.4518 10.1066 -2.3203 0.9523
5.5266 10.6407 -2.3203 0.9523
3.5524 11.4520 -2.3203 0.9523
-0.6675 11.9717 -2.3203 0.9523
-1.7304 11.8648 -2.3203 0.9523
-3.8067 11.3700 -2.3203 0.9523
-5.7623 10.5149 -2.3203 0.9523
-8.3356 8.6189 -2.3203 0.9523
-9.0696 7.8429 -2.3203 0.9523
-10.3165 6.1105 -2.3203 0.9523
-12.3238 3.3759 -2.4727 0.9493
-12.5754 2.2656 -2.4727 0.9493
-12.7271 1.1373 -2.4727 0.9493
-11.7292 0.0000 -2.4727 0.9532
-11.5433 -2.0796 -2.4727 0.9532
-11.3124 -3.0987 -2.4727 0.9532
-10.5837 -5.0554 -2.4727 0.9532
-10.0918 -5.9773 -2.4727 0.9532
-9.5197 -6.8518 -2.4727 0.9532
-8.8721 -7.6720 -2.4727 0.9532
-7.3712 -9.1235 -2.4727 0.9532
-6.5299 -9.7433 -2.4727 0.9532
-2.7190 -11.4096 -2.4727 0.9532
-1.6927 -11.6063 -2.4727 0.9532
-0.6530 -11.7109 -2.4727 0.9532
1.4338 -11.6412 -2.4727 0.9532
3.4751 -11.2025 -2.4727 0.9532
4.4584 -10.8487 -2.4727 0.9532
6.3113 -9.8864 -2.4727 0.9532
7.1661 -9.2854 -2.4727 0.9532
7.9642 -8.6107 -2.4727 0.9532
9.3647 -7.0622 -2.4727 0.9532
9.9561 -6.2007 -2.4727 0.9532
10.4685 -5.2899 -2.4727 0.9532
11.2406 -3.3500 -2.4727 0.9532
11.4941 -2.3363 -2.4727 0.9532
11.6565 -1.3039 -2.4727 0.9532
11.7262 -0.2612 -2.4727 0.9532
11.7030 0.7835 -2.4727 0.9532
10.3973 3.6104 -2.3203 0.9560
9.5924 5.3966 -2.3203 0.9560
7.8258 7.7392 -2.3203 0.9560
7.1060 8.4050 -2.3203 0.9560
6.3297 9.0041 -2.3203 0.9560
5.5031 9.5317 -2.3203 0.9560
4.6329 9.9837 -2.3203 0.9560
2.7894 10.6470 -2.3203 0.9560
1.8307 10.8530 -2.3203 0.9560
-1.1017 10.9510 -2.3203 0.9560
-3.0259 10.5822 -2.3203 0.9560
-7.2914 8.2446 -2.3203 0.9560
-7.9963 7.5629 -2.3203 0.9560
-8.6377 6.8212 -2.3203 0.9560
-9.2105 6.0253 -2.3203 0.9560
-10.7984 4.5790 -2.4727 0.9532
-11.6245 1.5634 -2.4727 0.9532
-11.4392 -2.5917 -2.4727 0.9532
-9.2050 -7.2691 -2.4727 0.9532
-7.7703 -8.7860 -2.4727 0.9532
-6.9575 -9.4428 -2.4727 0.9532
-6.0894 -10.0245 -2.4727 0.9532
-3.2246 -11.2772 -2.4727 0.9532
-2.2081 -11.5194 -2.4727 0.9532
-0.1307 -11.7284 -2.4727 0.9532
0.9138 -11.6935 -2.4727 0.9532
1.9509 -11.5657 -2.4727 0.9532
2.9726 -11.3462 -2.4727 0.9532
5.8646 -10.1577 -2.4727 0.9532
6.7454 -9.5954 -2.4727 0.9532
7.5727 -8.9570 -2.4727 0.9532
8.3398 -8.2474 -2.4727 0.9532
9.0408 -7.4724 -2.4727 0.9532
9.6700 -6.6380 -2.4727 0.9532
10.2225 -5.7510 -2.4727 0.9532
10.6938 -4.8183 -2.4727 0.9532
11.0802 -3.8474 -2.4727 0.9532
11.3786 -2.8460 -2.4727 0.9532
11.5868 -1.8219 -2.4727 0.9532
11.7262 0.2613 -2.4727 0.9532
10.7857 2.1923 -2.3203 0.9560
10.5478 3.1436 -2.3203 0.9560
10.2261 4.0700 -2.3203 0.9560
9.8233 4.9639 -2.3203 0.9560
9.3425 5.8186 -2.3203 0.9560
7.4733 8.0801 -2.3203 0.9560
5.9223 9.2771 -2.3203 0.9560
4.1836 10.1802 -2.3203 0.9560
1.3454 10.9237 -2.3203 0.9560
-1.5884 10.8911 -2.3203 0.9560
-2.5515 10.7065 -2.3203 0.9560
-4.4093 10.0844 -2.3203 0.9560
-5.2894 9.6519 -2.3203 0.9560
-6.1275 9.1429 -2.3203 0.9560
-7.6515 7.9116 -2.3203 0.9560
-8.9330 6.4296 -2.3203 0.9560
-10.5837 5.0555 -2.4727 0.9532
-10.9917 4.0934 -2.4727 0.9532
-11.5433 2.0796 -2.4727 0.9532
-10.7908 -0.9642 -2.4727 0.9565
-10.6621 -1.9208 -2.4727 0.9565
-9.7758 -4.6695 -2.4727 0.9565
-8.7930 -6.3288 -2.4727 0.9565
-7.5315 -7.7875 -2.4727 0.9565
-5.2065 -9.5007 -2.4727 0.9565
-2.5115 -10.5386 -2.4727 0.9565
-1.5635 -10.7203 -2.4727 0.9565
-0.6031 -10.8169 -2.4727 0.9565
1.3243 -10.7525 -2.4727 0.9565
2.2761 -10.5919 -2.4727 0.9565
4.1180 -10.0205 -2.4727 0.9565
4.9936 -9.6143 -2.4727 0.9565
6.6191 -8.5766 -2.4727 0.9565
8.0349 -7.2671 -2.4727 0.9565
8.6498 -6.5231 -2.4727 0.9565
10.0659 -4.0061 -2.4727 0.9565
10.3825 -3.0943 -2.4727 0.9565
10.7666 -1.2044 -2.4727 0.9565
10.8311 -0.2413 -2.4727 0.9565
9.8623 2.4667 -2.3203 0.9591
9.6036 3.3348 -2.3203 0.9591
9.2686 4.1763 -2.3203 0.9591
8.8602 4.9847 -2.3203 0.9591
4.2793 9.2216 -2.3203 0.9591
2.5764 9.8342 -2.3203 0.9591
-1.9138 9.9843 -2.3203 0.9591
-2.7949 9.7744 -2.3203 0.9591
-3.6538 9.4868 -2.3203 0.9591
-4.4836 9.1239 -2.3203 0.9591
-5.2779 8.6887 -2.3203 0.9591
-5.2814 7.1679 -2.0322 0.9641
-6.7348 7.6152 -2.3203 0.9591
-7.9783 6.3004 -2.3203 0.9591
-9.9741 4.2295 -2.4727 0.9565
-10.3110 3.3249 -2.4727 0.9565
-10.5660 2.3940 -2.4727 0.9565
-10.7371 -1.4440 -2.4727 0.9565
-10.5660 -2.3939 -2.4727 0.9565
-10.3110 -3.3248 -2.4727 0.9565
-9.9741 -4.2294 -2.4727 0.9565
-9.5581 -5.1003 -2.4727 0.9565
-8.5023 -6.7142 -2.4727 0.9565
-7.8710 -7.4443 -2.4727 0.9565
-5.6246 -9.2593 -2.4727 0.9565
-4.7781 -9.7231 -2.4727 0.9565
-1.0844 -10.7793 -2.4727 0.9565
-0.1207 -10.8330 -2.4727 0.9565
0.8440 -10.8008 -2.4727 0.9565
2.7457 -10.4801 -2.4727 0.9565
3.6676 -10.1940 -2.4727 0.9565
4.5603 -9.8272 -2.4727 0.9565
5.4169 -9.3823 -2.4727 0.9565
6.2305 -8.8629 -2.4727 0.9565
8.3506 -6.9020 -2.4727 0.9565
9.4421 -5.3120 -2.4727 0.9565
9.8774 -4.4505 -2.4727 0.9565
10.5100 -2.6287 -2.4727 0.9565
10.8096 -0.7236 -2.4727 0.9565
10.7666 1.2045 -2.4727 0.9565
9.7426 2.9036 -2.3203 0.9591
8.1167 6.1212 -2.3203 0.9591
6.2112 8.0480 -2.3203 0.9591
3.8642 9.4030 -2.3203 0.9591
3.0120 9.7097 -2.3203 0.9591
0.3397 10.1604 -2.3203 0.9591
-1.4672 10.0597 -2.3203 0.9591
-3.2275 9.6402 -2.3203 0.9591
-4.8856 8.9152 -2.3203 0.9591
-5.6597 8.4450 -2.3203 0.9591
-7.0674 7.3077 -2.3203 0.9591
-8.2511 5.9388 -2.3203 0.9591
-10.1526 3.7809 -2.4727 0.9565
-10.4488 2.8623 -2.4727 0.9565
-10.7908 0.9643 -2.4727 0.9565
-10.0200 -0.8953 -2.4727 0.9594
-9.7025 -2.6578 -2.4727 0.9594
-9.4274 -3.5108 -2.4727 0.9594
-9.0776 -4.3359 -2.4727 0.9594
-8.1649 -5.8768 -2.4727 0.9594
-6.3222 -7.8251 -2.4727 0.9594
-4.8346 -8.8220 -2.4727 0.9594
-4.0302 -9.2173 -2.4727 0.9594
-3.1938 -9.5395 -2.4727 0.9594
-0.5601 -10.0443 -2.4727 0.9594
0.3362 -10.0543 -2.4727 0.9594
1.2297 -9.9845 -2.4727 0.9594
2.9805 -9.6082 -2.4727 0.9594
3.8239 -9.3048 -2.4727 0.9594
4.6369 -8.9276 -2.4727 0.9594
8.0320 -6.0572 -2.4727 0.9594
8.9787 -4.5371 -2.4727 0.9594
9.6409 -2.8733 -2.4727 0.9594
9.8584 -2.0038 -2.4727 0.9594
10.0375 0.6720 -2.4727 0.9594
8.9176 3.0966 -2.3203 0.9619
8.6066 3.8780 -2.3203 0.9619
8.2273 4.6287 -2.3203 0.9619
7.7827 5.3426 -2.3203 0.9619
6.7121 6.6378 -2.3203 0.9619
4.7200 8.1753 -2.3203 0.9619
3.9736 8.5629 -2.3203 0.9619
3.1957 8.8826 -2.3203 0.9619
1.5701 9.3085 -2.3203 0.9619
-0.1052 9.4394 -2.3203 0.9619
-0.9449 9.3926 -2.3203 0.9619
-2.5952 9.0762 -2.3203 0.9619
-4.9009 8.0681 -2.3203 0.9619
-5.2653 7.1461 -2.1818 0.9641
-6.8583 6.4866 -2.3203 0.9619
-9.9702 1.3409 -2.4727 0.9594
-9.9702 -1.3408 -2.4727 0.9594
-9.8113 -2.2229 -2.4727 0.9594
-9.5745 -3.0874 -2.4727 0.9594
-9.2617 -3.9273 -2.4727 0.9594
-8.8754 -4.7360 -2.4727 0.9594
-8.4186 -5.5072 -2.4727 0.9594
-6.6645 -7.5356 -2.4727 0.9594
-4.4368 -9.0286 -2.4727 0.9594
-3.6156 -9.3877 -2.4727 0.9594
-2.7657 -9.6723 -2.4727 0.9594
-1.8938 -9.8800 -2.4727 0.9594
-1.0070 -10.0094 -2.4727 0.9594
0.7837 -10.0294 -2.4727 0.9594
2.5495 -9.7315 -2.4727 0.9594
3.4056 -9.4659 -2.4727 0.9594
4.2346 -9.1253 -2.4727 0.9594
5.7855 -8.2299 -2.4727 0.9594
7.1530 -7.0737 -2.4727 0.9594
7.7542 -6.4090 -2.4727 0.9594
8.7677 -4.9326 -2.4727 0.9594
9.1719 -4.1326 -2.4727 0.9594
8.4253 4.2575 -2.3203 0.9619
7.5370 5.6839 -2.3203 0.9619
7.0012 6.3322 -2.3203 0.9619
6.4098 6.9302 -2.3203 0.9619
3.5882 8.7314 -2.3203 0.9619
2.7968 9.0162 -2.3203 0.9619
1.1539 9.3692 -2.3203 0.9619
0.3154 9.4347 -2.3203 0.9619
-0.5255 9.4253 -2.3203 0.9619
-2.1884 9.1829 -2.3203 0.9619
-4.5367 8.2784 -2.3203 0.9619
-6.5626 6.7857 -2.3203 0.9619
-7.1405 6.1746 -2.3203 0.9619
-9.0776 4.3360 -2.4727 0.9594
-9.4275 3.5109 -2.4727 0.9594
-9.7025 2.6578 -2.4727 0.9594
-9.9006 1.7837 -2.4727 0.9594
-9.3842 0.0000 -2.4727 0.9619
-8.7942 -3.2749 -2.4727 0.9619
-8.0742 -4.7823 -2.4727 0.9619
-7.6165 -5.4819 -2.4727 0.9619
-6.5238 -6.7456 -2.4727 0.9619
-5.8975 -7.2994 -2.4727 0.9619
-3.7595 -8.5982 -2.4727 0.9619
-2.1754 -9.1285 -2.4727 0.9619
-1.3543 -9.2859 -2.4727 0.9619
1.1471 -9.3138 -2.4727 0.9619
1.9715 -9.1747 -2.4727 0.9619
2.7803 -8.9628 -2.4727 0.9619
3.5670 -8.6798 -2.4727 0.9619
4.3254 -8.3279 -2.4727 0.9619
5.7334 -7.4290 -2.4727 0.9619
7.9656 -4.9610 -2.4727 0.9619
8.3756 -4.2323 -2.4727 0.9619
8.7190 -3.4700 -2.4727 0.9619
8.9933 -2.6802 -2.4727 0.9619
9.3260 -1.0432 -2.4727 0.9619
9.3819 -0.2090 -2.4727 0.9619
9.2703 1.4577 -2.4727 0.9619
8.3186 2.8886 -2.3203 0.9642
7.6746 4.3177 -2.3203 0.9642
7.2599 4.9837 -2.3203 0.9642
6.2612 6.1919 -2.3203 0.9642
5.6853 6.7246 -2.3203 0.9642
5.0642 7.2040 -2.3203 0.9642
4.4029 7.6261 -2.3203 0.9642
2.9810 8.2859 -2.3203 0.9642
1.4647 8.6832 -2.3203 0.9642
0.6860 8.7791 -2.3203 0.9642
-0.0981 8.8053 -2.3203 0.9642
-1.6577 8.6484 -2.3203 0.9642
-2.4209 8.4665 -2.3203 0.9642
-4.5717 7.5261 -2.3203 0.9642
-5.8337 6.5963 -2.3203 0.9642
-6.9108 5.4575 -2.3203 0.9642
-9.1522 2.0737 -2.4727 0.9619
-9.3005 1.2508 -2.4727 0.9619
-9.3749 0.4181 -2.4727 0.9619
-7.8531 -5.1372 -2.4727 0.9619
-6.8178 -6.4482 -2.4727 0.9619
-6.2169 -7.0295 -2.4727 0.9619
-5.5665 -7.5549 -2.4727 0.9619
-4.1388 -8.4221 -2.4727 0.9619
-3.3728 -8.7571 -2.4727 0.9619
-2.5799 -9.0226 -2.4727 0.9619
-1.7666 -9.2164 -2.4727 0.9619
0.7311 -9.3556 -2.4727 0.9619
1.5609 -9.2534 -2.4727 0.9619
3.1768 -8.8301 -2.4727 0.9619
3.9501 -8.5123 -2.4727 0.9619
4.6921 -8.1269 -2.4727 0.9619
6.0587 -7.1662 -2.4727 0.9619
8.1787 -4.6012 -2.4727 0.9619
8.5558 -3.8550 -2.4727 0.9619
8.8650 -3.0782 -2.4727 0.9619
9.3819 0.2091 -2.4727 0.9619
8.4390 2.5152 -2.3203 0.9642
7.8594 3.9715 -2.3203 0.9642
7.4747 4.6553 -2.3203 0.9642
7.0307 5.3021 -2.3203 0.9642
6.5309 5.9068 -2.3203 0.9642
3.3472 8.1449 -2.3203 0.9642
1.8500 8.6093 -2.3203 0.9642
1.0764 8.7398 -2.3203 0.9642
-1.2708 8.7137 -2.3203 0.9642
-2.0414 8.5660 -2.3203 0.9642
-5.4802 6.7829 -2.2977 0.9646
-6.1217 6.3298 -2.3203 0.9642
-7.1471 5.1442 -2.3203 0.9642
-8.0742 4.7824 -2.4727 0.9619
-8.4678 4.0448 -2.4727 0.9619
-5.0319 0.0000 -1.4157 0.9793
-3.9277 -0.3510 -1.1095 0.9837
-7.5617 -4.4788 -2.4727 0.9641
-7.1331 -5.1340 -2.4727 0.9641
-6.6478 -5.7486 -2.4727 0.9641
-6.1098 -6.3174 -2.4727 0.9641
-5.5232 -6.8362 -2.4727 0.9641
-4.8929 -7.3006 -2.4727 0.9641
-4.2237 -7.7072 -2.4727 0.9641
-3.5209 -8.0525 -2.4727 0.9641
-2.7902 -8.3339 -2.4727 0.9641
-2.0374 -8.5492 -2.4727 0.9641
-1.2684 -8.6966 -2.4727 0.9641
-0.4893 -8.7749 -2.4727 0.9641
0.2937 -8.7837 -2.4727 0.9641
3.3406 -8.1289 -2.4727 0.9641
5.3696 -6.9575 -2.4727 0.9641
7.0170 -5.2917 -2.4727 0.9641
7.4601 -4.6461 -2.4727 0.9641
8.4225 -2.5102 -2.4727 0.9641
8.6820 1.3652 -2.4727 0.9641
7.7907 2.7053 -2.3203 0.9663
7.1876 4.0437 -2.3203 0.9663
5.8639 5.7989 -2.3203 0.9663
4.7428 6.7468 -2.3203 0.9663
2.7918 7.7601 -2.3203 0.9663
1.3717 8.1321 -2.3203 0.9663
-0.0919 8.2465 -2.3203 0.9663
-0.8255 8.2056 -2.3203 0.9663
-2.2673 7.9292 -2.3203 0.9663
-3.6372 7.4016 -2.3203 0.9663
-4.2816 7.0485 -2.3203 0.9663
-5.4635 6.1777 -2.3203 0.9663
-6.4722 5.1111 -2.3203 0.9663
-7.7538 4.1376 -2.4727 0.9641
-8.0912 3.4310 -2.4727 0.9641
-8.3645 2.6973 -2.4727 0.9641
-8.5714 1.9421 -2.4727 0.9641
-8.7102 1.1714 -2.4727 0.9641
-3.7396 -0.5029 -1.0616 0.9844
-8.0913 -3.4310 -2.4727 0.9641
-6.8973 -5.4467 -2.4727 0.9641
-6.3851 -6.0390 -2.4727 0.9641
-5.8223 -6.5833 -2.4727 0.9641
-5.2132 -7.0754 -2.4727 0.9641
-3.8761 -7.8876 -2.4727 0.9641
-3.1587 -8.2014 -2.4727 0.9641
-1.6545 -8.6314 -2.4727 0.9641
0.6847 -8.7619 -2.4727 0.9641
2.2273 -8.5017 -2.4727 0.9641
3.6995 -7.9720 -2.4727 0.9641
5.6742 -6.7114 -2.4727 0.9641
6.2490 -6.1797 -2.4727 0.9641
6.7743 -5.5990 -2.4727 0.9641
7.6597 -4.3092 -2.4727 0.9641
8.0128 -3.6104 -2.4727 0.9641
8.3024 -2.8829 -2.4727 0.9641
8.7690 -0.5870 -2.4727 0.9641
8.7865 0.1959 -2.4727 0.9641
8.7342 0.9771 -2.4727 0.9641
7.9034 2.3555 -2.3203 0.9663
6.5845 4.9656 -2.3203 0.9663
3.1348 7.6280 -2.3203 0.9663
2.4434 7.8767 -2.3203 0.9663
1.7326 8.0629 -2.3203 0.9663
0.2756 8.2424 -2.3203 0.9663
-1.1902 8.1607 -2.3203 0.9663
-2.6182 7.8204 -2.3203 0.9663
-4.5913 6.8508 -2.3203 0.9663
-5.7332 5.9282 -2.3203 0.9663
-6.2381 5.3944 -2.3203 0.9663
-7.9304 3.7881 -2.4727 0.9641
-8.4764 2.3220 -2.4727 0.9641
-8.6494 1.5583 -2.4727 0.9641
-3.5918 -0.3210 -1.0796 0.9851
-7.7402 -2.8824 -2.4727 0.9661
-7.4529 -3.5599 -2.4727 0.9661
-6.7036 -4.8249 -2.4727 0.9661
-6.2476 -5.4025 -2.4727 0.9661
-4.5983 -6.8611 -2.4727 0.9661
-3.9694 -7.2431 -2.4727 0.9661
-3.3089 -7.5677 -2.4727 0.9661
-2.6222 -7.8321 -2.4727 0.9661
0.2760 -8.2549 -2.4727 0.9661
1.0096 -8.1976 -2.4727 0.9661
1.7352 -8.0751 -2.4727 0.9661
3.1395 -7.6396 -2.4727 0.9661
3.8070 -7.3298 -2.4727 0.9661
6.1257 -5.5403 -2.4727 0.9661
7.0110 -4.3664 -2.4727 0.9661
7.3718 -3.7251 -2.4727 0.9661
7.6741 -3.0542 -2.4727 0.9661
7.9155 -2.3590 -2.4727 0.9661
8.0940 -1.6451 -2.4727 0.9661
8.2083 -0.9182 -2.4727 0.9661
8.2575 -0.1839 -2.4727 0.9661
8.1593 1.2830 -2.4727 0.9661
7.3216 2.5424 -2.3203 0.9682
7.0663 3.1840 -2.3203 0.9682
6.7549 3.8003 -2.3203 0.9682
6.3898 4.3864 -2.3203 0.9682
4.4573 6.3406 -2.3203 0.9682
3.2624 7.0304 -2.3203 0.9682
2.6238 7.2929 -2.3203 0.9682
1.9642 7.4975 -2.3203 0.9682
1.2891 7.6425 -2.3203 0.9682
0.6038 7.7270 -2.3203 0.9682
-0.7758 7.7116 -2.3203 0.9682
-1.4591 7.6119 -2.3203 0.9682
-2.1308 7.4519 -2.3203 0.9682
-2.7856 7.2326 -2.3203 0.9682
-5.1345 5.8057 -2.3203 0.9682
-7.8609 2.5349 -2.4727 0.9661
-8.0553 1.8252 -2.4727 0.9661
-3.4642 -0.7849 -1.0634 0.9853
-7.8609 -2.5348 -2.4727 0.9661
-7.6041 -3.2244 -2.4727 0.9661
-7.2869 -3.8884 -2.4727 0.9661
-6.9119 -4.5215 -2.4727 0.9661
-6.0007 -5.6754 -2.4727 0.9661
-5.4718 -6.1870 -2.4727 0.9661
-4.8994 -6.6495 -2.4727 0.9661
-4.2881 -7.0591 -2.4727 0.9661
-2.2707 -7.9412 -2.4727 0.9661
-1.5549 -8.1118 -2.4727 0.9661
-0.0920 -8.2590 -2.4727 0.9661
0.6435 -8.2344 -2.4727 0.9661
1.3738 -8.1444 -2.4727 0.9661
2.0932 -7.9898 -2.4727 0.9661
2.7961 -7.7718 -2.4727 0.9661
4.7500 -6.7569 -2.4727 0.9661
5.3326 -6.3073 -2.4727 0.9661
6.8095 -4.6744 -2.4727 0.9661
7.1985 -4.0498 -2.4727 0.9661
7.5304 -3.3930 -2.4727 0.9661
8.0127 -2.0041 -2.4727 0.9661
8.2411 -0.5516 -2.4727 0.9661
8.2575 0.1841 -2.4727 0.9661
8.0940 1.6452 -2.4727 0.9661
7.5784 2.2586 -2.3674 0.9675
6.9174 3.4956 -2.3203 0.9682
6.5789 4.0974 -2.3203 0.9682
4.7353 6.1357 -2.3203 0.9682
4.1704 6.5328 -2.3203 0.9682
3.5724 6.8781 -2.3203 0.9682
2.2963 7.4025 -2.3203 0.9682
1.6283 7.5775 -2.3203 0.9682
0.9474 7.6924 -2.3203 0.9682
0.2590 7.7462 -2.3203 0.9682
-0.4315 7.7385 -2.3203 0.9682
-3.7247 6.7968 -2.3203 0.9682
-4.3149 6.4383 -2.3203 0.9682
-4.8708 6.0287 -2.3203 0.9682
-5.3881 5.5713 -2.3203 0.9682
-5.8625 5.0696 -2.3203 0.9682
-7.4529 3.5600 -2.4727 0.9661
-7.7402 2.8825 -2.4727 0.9661
-7.9660 2.1822 -2.4727 0.9661
-3.7563 0.0000 -1.1929 0.9844
-3.3867 -0.3026 -1.0798 0.9858
-7.0257 -3.3558 -2.4727 0.9679
-6.6991 -3.9679 -2.4727 0.9679
-6.3194 -4.5484 -2.4727 0.9679
-4.8932 -6.0563 -2.4727 0.9679
-4.3347 -6.4678 -2.4727 0.9679
-3.1193 -7.1339 -2.4727 0.9679
-2.4719 -7.3832 -2.4727 0.9679
-1.8050 -7.5739 -2.4727 0.9679
-0.4335 -7.7739 -2.4727 0.9679
0.2602 -7.7817 -2.4727 0.9679
0.9518 -7.7276 -2.4727 0.9679
2.3068 -7.4365 -2.4727 0.9679
2.9596 -7.2016 -2.4727 0.9679
3.5888 -6.9096 -2.4727 0.9679
5.7746 -5.2227 -2.4727 0.9679
6.6091 -4.1161 -2.4727 0.9679
6.9492 -3.5116 -2.4727 0.9679
7.4617 -2.2238 -2.4727 0.9679
7.7378 -0.8656 -2.4727 0.9679
7.7841 -0.1734 -2.4727 0.9679
7.7687 0.5201 -2.4727 0.9679
7.6916 1.2095 -2.4727 0.9679
6.3677 3.5824 -2.3203 0.9698
5.6316 4.6547 -2.3203 0.9698
4.7171 5.5794 -2.3203 0.9698
3.0754 6.6274 -2.3203 0.9698
2.4734 6.8749 -2.3203 0.9698
1.8517 7.0677 -2.3203 0.9698
1.2152 7.2045 -2.3203 0.9698
-0.7313 7.2695 -2.3203 0.9698
-3.7932 6.2445 -2.3203 0.9698
-5.3081 5.0204 -2.3203 0.9698
-5.9101 4.6672 -2.3916 0.9689
-6.5157 4.2624 -2.4727 0.9679
-6.8693 3.6656 -2.4727 0.9679
-7.4103 2.3896 -2.4727 0.9679
-7.5936 1.7205 -2.4727 0.9679
-7.7166 1.0378 -2.4727 0.9679
-3.4557 -0.1541 -1.0986 0.9856
-3.3189 -0.4463 -1.0635 0.9860
-3.2827 -1.0585 -1.0954 0.9856
-7.1682 -3.0396 -2.4727 0.9679
-6.5157 -4.2624 -2.4727 0.9679
-6.1105 -4.8254 -2.4727 0.9679
-5.1581 -5.8323 -2.4727 0.9679
-4.0423 -6.6545 -2.4727 0.9679
-3.4340 -6.9879 -2.4727 0.9679
-2.7984 -7.2658 -2.4727 0.9679
-0.7793 -7.7469 -2.4727 0.9679
-0.0867 -7.7855 -2.4727 0.9679
0.6066 -7.7623 -2.4727 0.9679
1.9733 -7.5318 -2.4727 0.9679
3.8930 -6.7429 -2.4727 0.9679
5.0269 -5.9458 -2.4727 0.9679
6.7859 -3.8176 -2.4727 0.9679
7.0987 -3.1985 -2.4727 0.9679
7.3553 -2.5540 -2.4727 0.9679
7.5534 -1.8892 -2.4727 0.9679
7.7378 0.8657 -2.4727 0.9679
7.6301 1.5509 -2.4727 0.9679
6.2018 3.8626 -2.3203 0.9698
5.8334 4.3992 -2.3203 0.9698
5.4187 4.9009 -2.3203 0.9698
4.4639 5.7840 -2.3203 0.9698
3.3676 6.4839 -2.3203 0.9698
2.1647 6.9782 -2.3203 0.9698
1.5350 7.1432 -2.3203 0.9698
0.8931 7.2515 -2.3203 0.9698
0.2441 7.3022 -2.3203 0.9698
-0.4068 7.2949 -2.3203 0.9698
-2.9270 6.6943 -2.3203 0.9698
-4.5916 5.6832 -2.3203 0.9698
-5.0792 5.2519 -2.3203 0.9698
-6.6992 3.9679 -2.4727 0.9679
-7.0257 3.3560 -2.4727 0.9679
-7.5094 2.0571 -2.4727 0.9679
-7.7552 0.6930 -2.4727 0.9679
-3.6184 0.0000 -1.2157 0.9848
-3.2019 -0.2861 -1.0801 0.9865
-3.1483 -0.5672 -1.0748 0.9866
-6.8970 -2.5684 -2.4727 0.9694
-5.9734 -4.2993 -2.4727 0.9694
-5.1164 -5.2903 -2.4727 0.9694
-4.6252 -5.7247 -2.4727 0.9694
-3.5369 -6.4541 -2.4727 0.9694
-2.3366 -6.9789 -2.4727 0.9694
-1.7061 -7.1592 -2.4727 0.9694
-1.0621 -7.2826 -2.4727 0.9694
-0.4097 -7.3482 -2.4727 0.9694
0.2459 -7.3556 -2.4727 0.9694
0.8997 -7.3045 -2.4727 0.9694
1.5462 -7.1954 -2.4727 0.9694
2.1805 -7.0293 -2.4727 0.9694
2.7975 -6.8073 -2.4727 0.9694
4.9973 -5.4030 -2.4727 0.9694
5.4584 -4.9367 -2.4727 0.9694
7.0532 -2.1020 -2.4727 0.9694
7.2123 -1.4659 -2.4727 0.9694
7.3579 -0.1639 -2.4727 0.9694
7.3433 0.4916 -2.4727 0.9694
7.2704 1.1432 -2.4727 0.9694
6.0190 3.3863 -2.3203 0.9713
4.9105 4.8561 -2.3203 0.9713
2.9070 6.2646 -2.3203 0.9713
1.7503 6.6807 -2.3203 0.9713
0.5380 6.8852 -2.3203 0.9713
-0.0769 6.9058 -2.3203 0.9713
-2.4821 6.4447 -2.3203 0.9713
-3.5855 5.9025 -2.3203 0.9713
-4.0966 5.5600 -2.3203 0.9713
-4.5752 5.1733 -2.3203 0.9713
-5.0175 4.7455 -2.3203 0.9713
-6.1590 4.0290 -2.4727 0.9694
-4.1559 0.1853 -1.3977 0.9826
-3.1639 -0.4255 -1.0726 0.9866
-3.1355 -0.7104 -1.0802 0.9865
-3.1418 -1.0131 -1.1091 0.9862
-6.4931 -3.4648 -2.4727 0.9694
-6.1589 -4.0290 -2.4727 0.9694
-5.3470 -5.0571 -2.4727 0.9694
-3.8209 -6.2901 -2.4727 0.9694
-0.0820 -7.3593 -2.4727 0.9694
0.5734 -7.3373 -2.4727 0.9694
1.2242 -7.2571 -2.4727 0.9694
2.4915 -6.9251 -2.4727 0.9694
3.0980 -6.6759 -2.4727 0.9694
4.2326 -6.0208 -2.4727 0.9694
4.7517 -5.6202 -2.4727 0.9694
5.2330 -5.1750 -2.4727 0.9694
5.6729 -4.6887 -2.4727 0.9694
7.1398 -1.7857 -2.4727 0.9694
7.3579 0.1640 -2.4727 0.9694
7.3141 0.8182 -2.4727 0.9694
7.2123 1.4660 -2.4727 0.9694
6.1639 3.1147 -2.3203 0.9713
5.5139 4.1583 -2.3203 0.9713
5.1220 4.6326 -2.3203 0.9713
4.6893 5.0700 -2.3203 0.9713
4.2194 5.4673 -2.3203 0.9713
3.7161 5.8212 -2.3203 0.9713
3.1832 6.1288 -2.3203 0.9713
2.6251 6.3878 -2.3203 0.9713
0.8442 6.8544 -2.3203 0.9713
-1.6010 6.7180 -2.3203 0.9713
-2.1926 6.5489 -2.3203 0.9713
-2.7667 6.3278 -2.3203 0.9713
-3.3190 6.0564 -2.3203 0.9713
-4.3402 5.3720 -2.3203 0.9713
-4.8011 4.9643 -2.3203 0.9713
-5.2765 4.5629 -2.3437 0.9710
-5.9734 4.2994 -2.4727 0.9694
-7.0982 1.9444 -2.4727 0.9694
-7.2431 1.3049 -2.4727 0.9694
-3.0442 -0.5484 -1.0968 0.9870
-3.0314 -1.1289 -1.1470 0.9864
-6.2926 -3.0056 -2.4727 0.9708
-6.0001 -3.5538 -2.4727 0.9708
-5.2749 -4.5613 -2.4727 0.9708
-4.8480 -5.0127 -2.4727 0.9708
-4.3826 -5.4244 -2.4727 0.9708
-3.3514 -6.1154 -2.4727 0.9708
-2.7938 -6.3895 -2.4727 0.9708
-2.2140 -6.6128 -2.4727 0.9708
-1.6166 -6.7836 -2.4727 0.9708
-1.0064 -6.9005 -2.4727 0.9708
-0.3882 -6.9627 -2.4727 0.9708
1.4651 -6.8179 -2.4727 0.9708
2.6507 -6.4501 -2.4727 0.9708
3.2143 -6.1886 -2.4727 0.9708
4.2607 -5.5206 -2.4727 0.9708
5.1720 -4.6777 -2.4727 0.9708
6.2241 -3.1451 -2.4727 0.9708
6.4793 -2.5787 -2.4727 0.9708
6.6831 -1.9918 -2.4727 0.9708
6.9304 -0.7753 -2.4727 0.9708
6.9580 0.4659 -2.4727 0.9708
6.8889 1.0833 -2.4727 0.9708
6.7652 1.6921 -2.4727 0.9708
6.5877 2.2875 -2.4727 0.9708
5.3950 3.7035 -2.3203 0.9726
5.0439 4.1689 -2.3203 0.9726
4.2249 4.9972 -2.3203 0.9726
3.2719 5.6671 -2.3203 0.9726
2.7545 5.9359 -2.3203 0.9726
-0.6550 6.5110 -2.3203 0.9726
-1.2319 6.4268 -2.3203 0.9726
-1.7990 6.2917 -2.3203 0.9726
-2.3519 6.1066 -2.3203 0.9726
-2.8861 5.8730 -2.3203 0.9726
-3.3973 5.5928 -2.3203 0.9726
-3.8816 5.2683 -2.3203 0.9726
-4.3351 4.9018 -2.3203 0.9726
-4.7542 4.4965 -2.3203 0.9726
-5.4729 4.3219 -2.4727 0.9708
-6.1524 3.2831 -2.4727 0.9708
-6.4202 2.7225 -2.4727 0.9708
-6.6371 2.1402 -2.4727 0.9708
-6.8012 1.5410 -2.4727 0.9708
-6.9114 0.9295 -2.4727 0.9708
-3.1623 -0.1410 -1.1224 0.9867
-3.0191 -0.9735 -1.1248 0.9866
-6.4202 -2.7224 -2.4727 0.9708
-6.1524 -3.2830 -2.4727 0.9708
-5.4729 -4.3218 -2.4727 0.9708
-4.6199 -5.2237 -2.4727 0.9708
-4.1366 -5.6142 -2.4727 0.9708
-3.0756 -6.2587 -2.4727 0.9708
-2.5064 -6.5076 -2.4727 0.9708
-1.9172 -6.7048 -2.4727 0.9708
-0.6980 -6.9385 -2.4727 0.9708
0.5433 -6.9524 -2.4727 0.9708
1.1599 -6.8764 -2.4727 0.9708
2.3608 -6.5618 -2.4727 0.9708
3.4868 -6.0392 -2.4727 0.9708
4.0105 -5.7050 -2.4727 0.9708
4.5024 -5.3254 -2.4727 0.9708
6.0778 -3.4192 -2.4727 0.9708
6.8889 -1.0832 -2.4727 0.9708
5.8405 2.9514 -2.3203 0.9726
5.5546 3.4595 -2.3203 0.9726
4.4433 4.8040 -2.3203 0.9726
3.9981 5.1805 -2.3203 0.9726
3.5211 5.5157 -2.3203 0.9726
2.4874 6.0527 -2.3203 0.9726
0.2187 6.5402 -2.3203 0.9726
-0.9444 6.4753 -2.3203 0.9726
-2.0775 6.2053 -2.3203 0.9726
-2.6216 5.9957 -2.3203 0.9726
-3.6431 5.4360 -2.3203 0.9726
-4.5492 4.7039 -2.3203 0.9726
-5.6600 4.0738 -2.4727 0.9708
-6.5351 2.4337 -2.4727 0.9708
-6.8631 1.2365 -2.4727 0.9708
-2.9938 -0.2675 -1.1224 0.9872
-2.9455 -0.5306 -1.1176 0.9873
-2.9169 -0.7990 -1.1293 0.9872
-5.6976 -3.3746 -2.4727 0.9721
-5.3746 -3.8684 -2.4727 0.9721
-4.1616 -5.1509 -2.4727 0.9721
-3.6867 -5.5009 -2.4727 0.9721
-2.6529 -6.0674 -2.4727 0.9721
-1.5351 -6.4416 -2.4727 0.9721
-0.3687 -6.6117 -2.4727 0.9721
0.8095 -6.5723 -2.4727 0.9721
1.3912 -6.4742 -2.4727 0.9721
2.5171 -6.1250 -2.4727 0.9721
3.0523 -5.8766 -2.4727 0.9721
3.5632 -5.5816 -2.4727 0.9721
4.0459 -5.2423 -2.4727 0.9721
4.4964 -4.8614 -2.4727 0.9721
4.9112 -4.4419 -2.4727 0.9721
5.6210 -3.5007 -2.4727 0.9721
5.9103 -2.9865 -2.4727 0.9721
6.3462 -1.8913 -2.4727 0.9721
6.6072 0.4423 -2.4727 0.9721
6.5416 1.0287 -2.4727 0.9721
4.4183 4.3694 -2.3203 0.9738
3.1069 5.3814 -2.3203 0.9738
1.5748 6.0111 -2.3203 0.9738
1.0336 6.1274 -2.3203 0.9738
0.4841 6.1950 -2.3203 0.9738
-0.0692 6.2136 -2.3203 0.9738
-1.1698 6.1028 -2.3203 0.9738
-1.7083 5.9745 -2.3203 0.9738
-2.7406 5.5769 -2.3203 0.9738
-3.2261 5.3109 -2.3203 0.9738
-3.6860 5.0027 -2.3203 0.9738
-4.7010 4.4462 -2.4162 0.9728
-5.1970 4.1040 -2.4727 0.9721
-5.5416 3.6252 -2.4727 0.9721
-5.8423 3.1176 -2.4727 0.9721
-6.4583 1.4633 -2.4727 0.9721
-6.5629 0.8827 -2.4727 0.9721
-3.7910 0.1690 -1.4170 0.9839
-2.9640 -0.3986 -1.1167 0.9873
-2.9258 -0.6629 -1.1202 0.9873
-6.0966 -2.5851 -2.4727 0.9721
-5.8423 -3.1175 -2.4727 0.9721
-5.5416 -3.6251 -2.4727 0.9721
-5.1970 -4.1040 -2.4727 0.9721
-4.8110 -4.5502 -2.4727 0.9721
-2.3800 -6.1795 -2.4727 0.9721
-0.6628 -6.5887 -2.4727 0.9721
0.5159 -6.6019 -2.4727 0.9721
1.6783 -6.4058 -2.4727 0.9721
2.2417 -6.2310 -2.4727 0.9721
3.3110 -5.7348 -2.4727 0.9721
4.2754 -5.0569 -2.4727 0.9721
5.1042 -4.2187 -2.4727 0.9721
6.0375 -2.7203 -2.4727 0.9721
6.2556 -2.1722 -2.4727 0.9721
6.4241 -1.6067 -2.4727 0.9721
6.5417 -1.0286 -2.4727 0.9721
6.6072 -0.4422 -2.4727 0.9721
6.5810 0.7362 -2.4727 0.9721
6.3462 1.8914 -2.4727 0.9721
6.1527 2.4488 -2.4727 0.9721
5.2746 3.2851 -2.3203 0.9738
4.6086 4.1682 -2.3203 0.9738
4.2193 4.5619 -2.3203 0.9738
3.3436 5.2377 -2.3203 0.9738
2.3620 5.7475 -2.3203 0.9738
1.8410 5.9349 -2.3203 0.9738
-0.3459 6.2043 -2.3203 0.9738
-1.9728 5.8925 -2.3203 0.9738
-3.9051 4.8335 -2.3203 0.9738
-4.3198 4.4668 -2.3203 0.9738
-5.0090 4.3315 -2.4727 0.9721
-5.3746 3.8685 -2.4727 0.9721
-5.6976 3.3747 -2.4727 0.9721
-5.9753 2.8542 -2.4727 0.9721
-6.2057 2.3111 -2.4727 0.9721
-6.3867 1.7496 -2.4727 0.9721
-4.2614 0.3808 -1.5976 0.9819
-2.8518 -0.5138 -1.1373 0.9876
-2.8313 -0.7756 -1.1521 0.9875
-2.8528 -1.0624 -1.1947 0.9870
-5.4209 -3.2108 -2.4727 0.9733
-4.7657 -4.1211 -2.4727 0.9733
-3.5076 -5.2337 -2.4727 0.9733
-1.4606 -6.1287 -2.4727 0.9733
1.3237 -6.1598 -2.4727 0.9733
2.3949 -5.8275 -2.4727 0.9733
3.3902 -5.3105 -2.4727 0.9733
4.2780 -4.6253 -2.4727 0.9733
5.0303 -3.7935 -2.4727 0.9733
5.6233 -2.8415 -2.4727 0.9733
5.8539 -2.3297 -2.4727 0.9733
6.1742 -1.2549 -2.4727 0.9733
6.2614 -0.7004 -2.4727 0.9733
6.2989 -0.1403 -2.4727 0.9733
6.2864 0.4209 -2.4727 0.9733
5.7143 2.5747 -2.4598 0.9734
4.8742 3.3460 -2.3203 0.9749
4.2037 4.1572 -2.3203 0.9749
3.4000 4.8367 -2.3203 0.9749
2.9561 5.1201 -2.3203 0.9749
2.4886 5.3629 -2.3203 0.9749
1.4983 5.7192 -2.3203 0.9749
0.9834 5.8298 -2.3203 0.9749
-0.0659 5.9118 -2.3203 0.9749
-1.6254 5.6843 -2.3203 0.9749
-2.1249 5.5171 -2.3203 0.9749
-3.5069 4.7597 -2.3203 0.9749
-3.9167 4.4287 -2.3203 0.9749
-4.5774 4.3293 -2.4727 0.9733
-4.9446 3.9047 -2.4727 0.9733
-5.2725 3.4491 -2.4727 0.9733
-5.9964 1.9336 -2.4727 0.9733
-6.1447 1.3922 -2.4727 0.9733
-6.2442 0.8398 -2.4727 0.9733
-3.6456 0.1626 -1.4322 0.9844
-5.5585 -2.9661 -2.4727 0.9733
-4.5774 -4.3293 -2.4727 0.9733
-4.1739 -4.7195 -2.4727 0.9733
-3.7373 -5.0722 -2.4727 0.9733
-1.7321 -6.0576 -2.4727 0.9733
-1.1861 -6.1878 -2.4727 0.9733
-0.6306 -6.2687 -2.4727 0.9733
-0.0702 -6.3000 -2.4727 0.9733
1.0479 -6.2127 -2.4727 0.9733
3.1502 -5.4563 -2.4727 0.9733
4.0677 -4.8113 -2.4727 0.9733
4.4798 -4.4301 -2.4727 0.9733
4.8564 -4.0138 -2.4727 0.9733
5.1943 -3.5657 -2.4727 0.9733
6.2240 -0.9786 -2.4727 0.9733
6.2989 0.1404 -2.4727 0.9733
6.2614 0.7005 -2.4727 0.9733
6.0380 1.7996 -2.4727 0.9733
5.2992 2.6778 -2.3302 0.9748
4.7203 3.5598 -2.3203 0.9749
4.3847 3.9658 -2.3203 0.9749
4.0144 4.3403 -2.3203 0.9749
3.6121 4.6804 -2.3203 0.9749
3.1812 4.9833 -2.3203 0.9749
2.7251 5.2467 -2.3203 0.9749
1.2421 5.7802 -2.3203 0.9749
0.1976 5.9089 -2.3203 0.9749
-0.3291 5.9030 -2.3203 0.9749
-0.8532 5.8503 -2.3203 0.9749
-1.3705 5.7511 -2.3203 0.9749
-1.8770 5.6063 -2.3203 0.9749
-2.3685 5.4170 -2.3203 0.9749
-3.7155 4.5988 -2.3203 0.9749
-4.7657 4.1211 -2.4727 0.9733
-5.1136 3.6806 -2.4727 0.9733
-5.6852 2.7156 -2.4727 0.9733
-5.9043 2.1988 -2.4727 0.9733
-6.0766 1.6646 -2.4727 0.9733
-3.1614 0.0000 -1.3018 0.9864
-2.8130 -0.2513 -1.1629 0.9879
-2.7831 -0.5014 -1.1645 0.9878
-2.7695 -0.7587 -1.1825 0.9877
-2.7842 -1.0368 -1.2234 0.9872
-5.4186 -2.5882 -2.4727 0.9744
-4.8738 -3.5079 -2.4727 0.9744
-4.5422 -3.9278 -2.4727 0.9744
-4.1746 -4.3165 -2.4727 0.9744
-3.3431 -4.9882 -2.4727 0.9744
-2.8859 -5.2660 -2.4727 0.9744
-2.4057 -5.5020 -2.4727 0.9744
-1.9065 -5.6942 -2.4727 0.9744
-1.3921 -5.8413 -2.4727 0.9744
-0.3343 -5.9956 -2.4727 0.9744
0.2007 -6.0016 -2.4727 0.9744
0.7340 -5.9599 -2.4727 0.9744
1.7791 -5.7353 -2.4727 0.9744
2.2826 -5.5542 -2.4727 0.9744
3.2312 -5.0615 -2.4727 0.9744
4.0774 -4.4084 -2.4727 0.9744
4.7945 -3.6156 -2.4727 0.9744
5.7548 -1.7151 -2.4727 0.9744
5.8847 -1.1960 -2.4727 0.9744
5.9678 -0.6675 -2.4727 0.9744
6.0035 -0.1337 -2.4727 0.9744
5.9916 0.4011 -2.4727 0.9744
5.9321 0.9328 -2.4727 0.9744
5.4749 2.4669 -2.4727 0.9744
4.9111 2.7629 -2.3203 0.9759
4.3434 3.5899 -2.3203 0.9759
4.0066 3.9622 -2.3203 0.9759
3.6380 4.3031 -2.3203 0.9759
3.2406 4.6099 -2.3203 0.9759
2.8174 4.8800 -2.3203 0.9759
2.3719 5.1114 -2.3203 0.9759
1.9076 5.3022 -2.3203 0.9759
1.4281 5.4510 -2.3203 0.9759
0.9372 5.5564 -2.3203 0.9759
0.4390 5.6178 -2.3203 0.9759
-0.0628 5.6346 -2.3203 0.9759
-0.5640 5.6067 -2.3203 0.9759
-1.0608 5.5342 -2.3203 0.9759
-2.4852 5.0573 -2.3203 0.9759
-2.9255 4.8160 -2.3203 0.9759
-3.3425 4.5365 -2.3203 0.9759
-4.3627 4.1263 -2.4727 0.9744
-4.7127 3.7216 -2.4727 0.9744
-5.2979 2.8271 -2.4727 0.9744
-5.5285 2.3443 -2.4727 0.9744
-5.7152 1.8429 -2.4727 0.9744
-5.8565 1.3270 -2.4727 0.9744
-3.5093 0.1565 -1.4465 0.9849
-2.7946 -0.3758 -1.1611 0.9879
-2.7756 -0.6288 -1.1719 0.9878
-2.7775 -0.8956 -1.2017 0.9875
-4.7127 -3.7215 -2.4727 0.9744
-4.3627 -4.1262 -2.4727 0.9744
-3.9782 -4.4982 -2.4727 0.9744
-3.5620 -4.8344 -2.4727 0.9744
-2.6484 -5.3894 -2.4727 0.9744
-1.6509 -5.7735 -2.4727 0.9744
-1.1305 -5.8976 -2.4727 0.9744
-0.6011 -5.9748 -2.4727 0.9744
-0.0669 -6.0046 -2.4727 0.9744
2.5277 -5.4470 -2.4727 0.9744
3.0025 -5.2004 -2.4727 0.9744
4.6286 -3.8256 -2.4727 0.9744
4.9508 -3.3985 -2.4727 0.9744
5.6727 -1.9697 -2.4727 0.9744
5.8255 -1.4570 -2.4727 0.9744
5.7548 1.7152 -2.4727 0.9744
5.5793 2.2206 -2.4727 0.9744
5.2654 2.6608 -2.4293 0.9748
4.1791 3.7798 -2.3203 0.9759
3.8261 4.1368 -2.3203 0.9759
3.4427 4.4609 -2.3203 0.9759
3.0320 4.7496 -2.3203 0.9759
1.6695 5.3819 -2.3203 0.9759
1.1838 5.5092 -2.3203 0.9759
0.6888 5.5927 -2.3203 0.9759
-0.3137 5.6262 -2.3203 0.9759
-1.3063 5.4814 -2.3203 0.9759
-2.2574 5.1630 -2.3203 0.9759
-3.1371 4.6809 -2.3203 0.9759
-3.5413 4.3831 -2.3203 0.9759
-4.1746 4.3166 -2.4727 0.9744
-4.5422 3.9279 -2.4727 0.9744
-4.8738 3.5080 -2.4727 0.9744
-5.9098 1.0647 -2.4727 0.9744
-2.7539 -0.2461 -1.1927 0.9880
-2.7092 -0.7421 -1.2117 0.9878
-2.7299 -1.3040 -1.3050 0.9869
-4.6526 -3.3487 -2.4727 0.9753
-3.1914 -4.7619 -2.4727 0.9753
0.1916 -5.7292 -2.4727 0.9753
2.6422 -5.0872 -2.4727 0.9753
3.0845 -4.8318 -2.4727 0.9753
3.5024 -4.5381 -2.4727 0.9753
3.8924 -4.2083 -2.4727 0.9753
4.2515 -3.8452 -2.4727 0.9753
4.5769 -3.4515 -2.4727 0.9753
5.3261 -2.1197 -2.4727 0.9753
5.6629 0.8905 -2.4727 0.9753
5.5611 1.3910 -2.4727 0.9753
5.4153 1.8804 -2.4727 0.9753
4.8643 2.7366 -2.4075 0.9760
4.4348 3.0444 -2.3203 0.9768
4.1462 3.4270 -2.3203 0.9768
2.2643 4.8794 -2.3203 0.9768
0.8947 5.3043 -2.3203 0.9768
0.4191 5.3629 -2.3203 0.9768
-0.0599 5.3788 -2.3203 0.9768
-0.5384 5.3522 -2.3203 0.9768
-1.9333 5.0198 -2.3203 0.9768
-2.7927 4.5975 -2.3203 0.9768
-4.1648 3.9390 -2.4727 0.9753
-5.0574 2.6988 -2.4727 0.9753
-5.4558 1.7593 -2.4727 0.9753
-5.5907 1.2667 -2.4727 0.9753
-5.6813 0.7641 -2.4727 0.9753
-2.7200 -0.6162 -1.2030 0.9879
-2.7166 -0.8760 -1.2313 0.9876
-2.7334 -1.1590 -1.2807 0.9871
-5.0574 -2.6987 -2.4727 0.9753
-4.7972 -3.1381 -2.4727 0.9753
-4.1648 -3.9390 -2.4727 0.9753
-3.7976 -4.2940 -2.4727 0.9753
-3.4004 -4.6150 -2.4727 0.9753
-2.0603 -5.3494 -2.4727 0.9753
0.4466 -5.7150 -2.4727 0.9753
2.8662 -4.9644 -2.4727 0.9753
3.7010 -4.3775 -2.4727 0.9753
4.4186 -3.6520 -2.4727 0.9753
4.7261 -3.2442 -2.4727 0.9753
4.9961 -2.8107 -2.4727 0.9753
5.2264 -2.3549 -2.4727 0.9753
5.6629 -0.8904 -2.4727 0.9753
5.7197 -0.3828 -2.4727 0.9753
5.7310 0.1278 -2.4727 0.9753
4.5660 2.8438 -2.3203 0.9768
3.6525 3.9490 -2.3203 0.9768
3.2865 4.2585 -2.3203 0.9768
2.8944 4.5341 -2.3203 0.9768
1.5937 5.1377 -2.3203 0.9768
1.1301 5.2591 -2.3203 0.9768
0.1798 5.3762 -2.3203 0.9768
-0.2995 5.3708 -2.3203 0.9768
-1.2470 5.2327 -2.3203 0.9768
-1.7078 5.1009 -2.3203 0.9768
-2.1550 4.9286 -2.3203 0.9768
-2.5851 4.7173 -2.3203 0.9768
-2.9947 4.4685 -2.3203 0.9768
-3.4175 4.2299 -2.3457 0.9766
-3.9852 4.1207 -2.4727 0.9753
-5.1726 2.4708 -2.4727 0.9753
-5.6416 1.0164 -2.4727 0.9753
-2.6666 -1.2737 -1.3334 0.9871
-2.6867 -1.5913 -1.4090 0.9864
-4.1452 -3.5845 -2.4727 0.9762
-2.6337 -4.8058 -2.4727 0.9762
-2.1955 -5.0211 -2.4727 0.9762
-1.7398 -5.1966 -2.4727 0.9762
-0.7909 -5.4227 -2.4727 0.9762
0.1831 -5.4771 -2.4727 0.9762
0.6699 -5.4390 -2.4727 0.9762
2.0831 -5.0687 -2.4727 0.9762
3.3482 -4.3383 -2.4727 0.9762
4.8911 -2.4715 -2.4727 0.9762
5.3703 -1.0915 -2.4727 0.9762
5.4462 -0.6092 -2.4727 0.9762
5.4136 0.8513 -2.4727 0.9762
4.9964 2.2513 -2.4727 0.9762
4.2396 2.9104 -2.3203 0.9777
3.9637 3.2762 -2.3203 0.9777
3.3201 3.9271 -2.3203 0.9777
2.9574 4.2070 -2.3203 0.9777
1.3033 4.9746 -2.3203 0.9777
0.8553 5.0708 -2.3203 0.9777
0.4006 5.1268 -2.3203 0.9777
-0.0573 5.1421 -2.3203 0.9777
-0.5147 5.1166 -2.3203 0.9777
-0.9681 5.0505 -2.3203 0.9777
-1.4138 4.9443 -2.3203 0.9777
-1.8482 4.7988 -2.3203 0.9777
-2.2680 4.6153 -2.3203 0.9777
-2.6698 4.3951 -2.3203 0.9777
-3.9815 3.7657 -2.4727 0.9762
-4.3008 3.3964 -2.4727 0.9762
-4.5860 3.0001 -2.4727 0.9762
-4.8348 2.5800 -2.4727 0.9762
-5.3447 1.2110 -2.4727 0.9762
-5.4313 0.7305 -2.4727 0.9762
-3.2609 0.1454 -1.4728 0.9858
-2.6870 -0.3613 -1.2234 0.9882
-2.6574 -0.8569 -1.2599 0.9878
-2.6675 -1.1311 -1.3074 0.9874
-4.5860 -3.0000 -2.4727 0.9762
-3.9815 -3.7656 -2.4727 0.9762
-3.6305 -4.1050 -2.4727 0.9762
-3.2507 -4.4119 -2.4727 0.9762
-1.9696 -5.1139 -2.4727 0.9762
0.9115 -5.4038 -2.4727 0.9762
2.3068 -4.9709 -2.4727 0.9762
3.1516 -4.4832 -2.4727 0.9762
3.5381 -4.1849 -2.4727 0.9762
3.8966 -3.8533 -2.4727 0.9762
4.7762 -2.6870 -2.4727 0.9762
5.1769 -1.7976 -2.4727 0.9762
5.4788 0.1221 -2.4727 0.9762
5.4462 0.6093 -2.4727 0.9762
5.2519 1.5653 -2.4727 0.9762
4.8911 2.4717 -2.4727 0.9762
4.5023 2.8041 -2.3933 0.9770
3.8139 3.4495 -2.3203 0.9777
3.4917 3.7752 -2.3203 0.9777
2.7670 4.3345 -2.3203 0.9777
1.9547 4.7565 -2.3203 0.9777
1.5236 4.9116 -2.3203 0.9777
1.0804 5.0277 -2.3203 0.9777
0.6286 5.1039 -2.3203 0.9777
-0.2863 5.1345 -2.3203 0.9777
-1.1921 5.0023 -2.3203 0.9777
-2.8629 4.2718 -2.3203 0.9777
-3.8098 3.9393 -2.4727 0.9762
-4.1452 3.5846 -2.4727 0.9762
-4.7151 2.7928 -2.4727 0.9762
-5.3933 0.9717 -2.4727 0.9762
-3.7666 0.3366 -1.7063 0.9835
-2.9112 0.0000 -1.3723 0.9872
-2.6212 -0.4722 -1.2555 0.9883
-3.9680 -3.4312 -2.4727 0.9771
-3.6468 -3.7708 -2.4727 0.9771
-3.2967 -4.0804 -2.4727 0.9771
-2.9205 -4.3576 -2.4727 0.9771
-2.5210 -4.6002 -2.4727 0.9771
-1.2161 -5.1029 -2.4727 0.9771
-0.7571 -5.1908 -2.4727 0.9771
-0.2920 -5.2376 -2.4727 0.9771
0.1753 -5.2428 -2.4727 0.9771
1.1021 -5.1287 -2.4727 0.9771
1.9940 -4.8520 -2.4727 0.9771
2.8227 -4.4216 -2.4727 0.9771
3.2050 -4.1528 -2.4727 0.9771
3.8905 -3.5187 -2.4727 0.9771
4.4528 -2.7732 -2.4727 0.9771
4.6820 -2.3659 -2.4727 0.9771
5.1407 -1.0448 -2.4727 0.9771
5.2133 -0.5831 -2.4727 0.9771
5.2445 -0.1168 -2.4727 0.9771
5.2341 0.3504 -2.4727 0.9771
5.0890 1.2729 -2.4727 0.9771
4.9555 1.7208 -2.4727 0.9771
4.7827 2.1550 -2.4727 0.9771
4.5719 2.5721 -2.4727 0.9771
3.7942 3.1360 -2.3203 0.9785
3.5001 3.4613 -2.3203 0.9785
2.8309 4.0270 -2.3203 0.9785
2.0720 4.4652 -2.3203 0.9785
1.2475 4.7618 -2.3203 0.9785
0.8188 4.8539 -2.3203 0.9785
0.3835 4.9075 -2.3203 0.9785
-0.4927 4.8978 -2.3203 0.9785
-0.9267 4.8345 -2.3203 0.9785
-1.3533 4.7328 -2.3203 0.9785
-1.7692 4.5936 -2.3203 0.9785
-2.1710 4.4179 -2.3203 0.9785
-2.5556 4.2071 -2.3203 0.9785
-3.0575 4.1497 -2.4297 0.9775
-3.4752 3.9296 -2.4727 0.9771
-4.1169 3.2511 -2.4727 0.9771
-4.6281 2.4697 -2.4727 0.9771
-4.9926 1.6099 -2.4727 0.9771
-5.1990 0.6993 -2.4727 0.9771
-3.1522 0.1406 -1.4873 0.9861
-2.7082 -0.1207 -1.2778 0.9881
-2.6352 -0.3544 -1.2533 0.9883
-2.6131 -0.5920 -1.2630 0.9882
-2.5994 -0.8382 -1.2874 0.9880
-2.5902 -1.3822 -1.3839 0.9871
-4.3899 -2.8717 -2.4727 0.9771
-3.8112 -3.6046 -2.4727 0.9771
-3.4752 -3.9295 -2.4727 0.9771
-3.1117 -4.2232 -2.4727 0.9771
-2.7234 -4.4834 -2.4727 0.9771
-2.3136 -4.7080 -2.4727 0.9771
-1.8854 -4.8952 -2.4727 0.9771
-1.4422 -5.0436 -2.4727 0.9771
-0.0584 -5.2454 -2.4727 0.9771
0.8725 -5.1726 -2.4727 0.9771
1.7758 -4.9360 -2.4727 0.9771
2.2081 -4.7583 -2.4727 0.9771
2.6229 -4.5429 -2.4727 0.9771
3.0168 -4.2915 -2.4727 0.9771
3.3868 -4.0059 -2.4727 0.9771
3.7299 -3.6886 -2.4727 0.9771
4.0434 -3.3419 -2.4727 0.9771
4.3248 -2.9688 -2.4727 0.9771
5.1821 -0.8148 -2.4727 0.9771
5.2445 0.1169 -2.4727 0.9771
5.0273 1.4983 -2.4727 0.9771
4.8740 1.9398 -2.4727 0.9771
4.4528 2.7733 -2.4727 0.9771
3.9301 2.9639 -2.3203 0.9785
3.6508 3.3020 -2.3203 0.9785
3.3424 3.6138 -2.3203 0.9785
1.8711 4.5530 -2.3203 0.9785
1.4584 4.7015 -2.3203 0.9785
1.0342 4.8126 -2.3203 0.9785
0.6017 4.8856 -2.3203 0.9785
-1.1411 4.7884 -2.3203 0.9785
-1.5628 4.6678 -2.3203 0.9785
-1.9720 4.5102 -2.3203 0.9785
-2.3656 4.3168 -2.3203 0.9785
-2.7575 4.1145 -2.3348 0.9783
-4.5135 2.6734 -2.4727 0.9771
-4.9160 1.8308 -2.4727 0.9771
-3.7077 0.3313 -1.7547 0.9837
-2.8280 0.0000 -1.3909 0.9875
-2.5698 -0.4630 -1.2843 0.9884
-2.5499 -0.6985 -1.3004 0.9883
-3.1595 -3.9105 -2.4727 0.9778
-1.5961 -4.7672 -2.4727 0.9778
-0.2799 -5.0196 -2.4727 0.9778
0.1680 -5.0245 -2.4727 0.9778
1.4895 -4.8016 -2.4727 0.9778
1.9110 -4.6500 -2.4727 0.9778
2.7051 -4.2375 -2.4727 0.9778
3.4136 -3.6907 -2.4727 0.9778
4.0139 -3.0270 -2.4727 0.9778
4.4870 -2.2673 -2.4727 0.9778
4.9266 -1.0013 -2.4727 0.9778
4.9962 -0.5588 -2.4727 0.9778
5.0161 0.3358 -2.4727 0.9778
4.7492 1.6492 -2.4727 0.9778
4.5836 2.0653 -2.4727 0.9778
4.3816 2.4651 -2.4727 0.9778
4.1448 2.8453 -2.4727 0.9778
3.6363 3.0055 -2.3203 0.9792
3.3543 3.3172 -2.3203 0.9792
1.9858 4.2793 -2.3203 0.9792
1.5970 4.4390 -2.3203 0.9792
1.1956 4.5636 -2.3203 0.9792
0.7847 4.6519 -2.3203 0.9792
-0.0526 4.7173 -2.3203 0.9792
-0.4722 4.6939 -2.3203 0.9792
-1.2970 4.5358 -2.3203 0.9792
-1.6955 4.4023 -2.3203 0.9792
-2.0806 4.2340 -2.3203 0.9792
-2.4671 4.0614 -2.3373 0.9790
-3.3305 3.7659 -2.4727 0.9778
-3.6525 3.4546 -2.4727 0.9778
-4.2071 2.7522 -2.4727 0.9778
-4.6284 1.9627 -2.4727 0.9778
-2.5845 -0.3476 -1.2826 0.9884
-4.2071 -2.7521 -2.4727 0.9778
-3.6525 -3.4545 -2.4727 0.9778
-2.9821 -4.0474 -2.4727 0.9778
-2.6101 -4.2967 -2.4727 0.9778
-0.5032 -5.0021 -2.4727 0.9778
-0.0560 -5.0270 -2.4727 0.9778
1.7019 -4.7305 -2.4727 0.9778
2.1162 -4.5602 -2.4727 0.9778
2.5137 -4.3538 -2.4727 0.9778
3.5746 -3.5350 -2.4727 0.9778
3.8751 -3.2028 -2.4727 0.9778
4.1448 -2.8452 -2.4727 0.9778
4.3816 -2.4650 -2.4727 0.9778
4.8771 -1.2198 -2.4727 0.9778
4.9664 -0.7809 -2.4727 0.9778
5.0162 -0.3357 -2.4727 0.9778
5.0261 0.1121 -2.4727 0.9778
4.4870 2.2674 -2.4727 0.9778
4.2674 2.6578 -2.4727 0.9778
3.4988 3.1645 -2.3203 0.9792
3.2032 3.4633 -2.3203 0.9792
2.8823 3.7347 -2.3203 0.9792
2.1744 4.1866 -2.3203 0.9792
1.7932 4.3635 -2.3203 0.9792
1.3977 4.5058 -2.3203 0.9792
0.9911 4.6123 -2.3203 0.9792
-1.4977 4.4735 -2.3203 0.9792
-1.8899 4.3224 -2.3203 0.9792
-2.2671 4.1371 -2.3203 0.9792
-2.7442 4.0946 -2.4244 0.9783
-3.1595 3.9106 -2.4727 0.9778
-3.8028 3.2884 -2.4727 0.9778
-4.7113 1.7545 -2.4727 0.9778
-4.8487 1.3282 -2.4727 0.9778
-4.9477 0.8914 -2.4727 0.9778
-2.5372 -0.2267 -1.3059 0.9886
-2.4994 -0.6847 -1.3286 0.9884
-2.4879 -1.1884 -1.4135 0.9877
-2.4521 -1.4524 -1.4611 0.9873
-3.3531 -3.4670 -2.4727 0.9786
-3.0312 -3.7517 -2.4727 0.9786
-2.6852 -4.0066 -2.4727 0.9786
-2.3180 -4.2297 -2.4727 0.9786
-1.9323 -4.4192 -2.4727 0.9786
-1.1181 -4.6918 -2.4727 0.9786
-0.6961 -4.7727 -2.4727 0.9786
-0.2685 -4.8157 -2.4727 0.9786
0.1612 -4.8205 -2.4727 0.9786
0.5896 -4.7871 -2.4727 0.9786
1.4290 -4.6066 -2.4727 0.9786
3.5772 -3.2353 -2.4727 0.9786
3.8509 -2.9041 -2.4727 0.9786
4.3048 -2.1753 -2.4727 0.9786
4.8125 0.3222 -2.4727 0.9786
4.7647 0.7493 -2.4727 0.9786
3.9765 2.7297 -2.4727 0.9786
2.2630 3.9196 -2.3203 0.9799
1.9051 4.1055 -2.3203 0.9799
0.7528 4.4630 -2.3203 0.9799
-0.0504 4.5257 -2.3203 0.9799
-1.2443 4.3516 -2.3203 0.9799
-1.6267 4.2236 -2.3203 0.9799
-1.9961 4.0621 -2.3203 0.9799
-3.7853 2.9892 -2.4727 0.9786
-4.0363 2.6405 -2.4727 0.9786
-4.2553 2.2707 -2.4727 0.9786
-4.4405 1.8830 -2.4727 0.9786
-4.5905 1.4803 -2.4727 0.9786
-4.7802 0.6429 -2.4727 0.9786
-2.9775 0.1328 -1.5280 0.9867
-2.5350 -0.3409 -1.3113 0.9886
-2.4881 -0.8023 -1.3403 0.9883
-2.4879 -1.0550 -1.3854 0.9879
-2.4717 -1.3189 -1.4363 0.9875
-4.0363 -2.6404 -2.4727 0.9786
-3.7853 -2.9892 -2.4727 0.9786
-3.5042 -3.3142 -2.4727 0.9786
-3.1953 -3.6129 -2.4727 0.9786
-2.8611 -3.8830 -2.4727 0.9786
-1.3260 -4.6374 -2.4727 0.9786
-0.0537 -4.8229 -2.4727 0.9786
0.3758 -4.8085 -2.4727 0.9786
0.8023 -4.7560 -2.4727 0.9786
1.2224 -4.6657 -2.4727 0.9786
1.6328 -4.5384 -2.4727 0.9786
2.4116 -4.1770 -2.4727 0.9786
3.1140 -3.6832 -2.4727 0.9786
3.4295 -3.3915 -2.4727 0.9786
3.9765 -2.7297 -2.4727 0.9786
4.6791 -1.1703 -2.4727 0.9786
4.7647 -0.7492 -2.4727 0.9786
4.8221 0.1075 -2.4727 0.9786
4.7934 0.5363 -2.4727 0.9786
4.6223 1.3777 -2.4727 0.9786
4.4814 1.7836 -2.4727 0.9786
4.3049 2.1754 -2.4727 0.9786
3.8509 2.9041 -2.4727 0.9786
3.0732 3.3227 -2.3203 0.9799
2.7652 3.5831 -2.3203 0.9799
2.0861 4.0166 -2.3203 0.9799
1.3409 4.3228 -2.3203 0.9799
0.1512 4.5235 -2.3203 0.9799
-0.2520 4.5190 -2.3203 0.9799
-1.0492 4.4027 -2.3203 0.9799
-4.1499 2.4580 -2.4727 0.9786
-4.3522 2.0789 -2.4727 0.9786
-4.6519 1.2743 -2.4727 0.9786
-4.7468 0.8552 -2.4727 0.9786
-2.6714 0.0000 -1.4261 0.9880
-2.4352 -0.9069 -1.3872 0.9883
-2.4292 -1.1603 -1.4371 0.9879
-3.5037 -3.0297 -2.4727 0.9792
-2.9110 -3.6029 -2.4727 0.9792
-2.5787 -3.8477 -2.4727 0.9792
-2.2260 -4.0620 -2.4727 0.9792
-1.8557 -4.2439 -2.4727 0.9792
-1.0738 -4.5057 -2.4727 0.9792
0.5662 -4.5972 -2.4727 0.9792
0.9731 -4.5285 -2.4727 0.9792
1.7607 -4.2842 -2.4727 0.9792
2.1350 -4.1105 -2.4727 0.9792
2.4924 -3.9042 -2.4727 0.9792
2.8300 -3.6668 -2.4727 0.9792
3.1451 -3.4004 -2.4727 0.9792
3.6982 -2.7889 -2.4727 0.9792
3.9318 -2.4487 -2.4727 0.9792
4.1341 -2.0890 -2.4727 0.9792
4.6032 -0.5149 -2.4727 0.9792
4.5757 0.7195 -2.4727 0.9792
4.3757 1.5194 -2.4727 0.9792
4.2231 1.9029 -2.4727 0.9792
4.0369 2.2712 -2.4727 0.9792
2.8062 3.3192 -2.3203 0.9805
2.1732 3.7642 -2.3203 0.9805
0.3386 4.3333 -2.3203 0.9805
-0.0484 4.3463 -2.3203 0.9805
-0.4351 4.3246 -2.3203 0.9805
-1.1949 4.1790 -2.3203 0.9805
-2.7476 3.7291 -2.4727 0.9792
-3.0686 3.4697 -2.4727 0.9792
-3.8762 2.5357 -2.4727 0.9792
-4.2644 1.8083 -2.4727 0.9792
-4.4084 1.4216 -2.4727 0.9792
-4.5175 1.0235 -2.4727 0.9792
-2.5303 -0.1128 -1.3521 0.9886
-2.4621 -0.5578 -1.3477 0.9886
-2.4353 -0.7853 -1.3660 0.9885
-2.4330 -1.0317 -1.4108 0.9881
-2.4322 -1.5911 -1.5516 0.9869
-3.6351 -2.8706 -2.4727 0.9792
-3.3652 -3.1828 -2.4727 0.9792
-3.0686 -3.4696 -2.4727 0.9792
-2.7476 -3.7290 -2.4727 0.9792
-0.8720 -4.5491 -2.4727 0.9792
-0.4636 -4.6086 -2.4727 0.9792
1.1739 -4.4807 -2.4727 0.9792
1.9498 -4.2016 -2.4727 0.9792
2.3160 -4.0114 -2.4727 0.9792
2.6638 -3.7893 -2.4727 0.9792
2.9905 -3.5371 -2.4727 0.9792
3.2935 -3.2570 -2.4727 0.9792
3.8188 -2.6214 -2.4727 0.9792
4.0369 -2.2711 -2.4727 0.9792
4.2231 -1.9028 -2.4727 0.9792
4.3757 -1.5194 -2.4727 0.9792
4.5757 -0.7195 -2.4727 0.9792
4.6308 0.1032 -2.4727 0.9792
4.6032 0.5150 -2.4727 0.9792
4.5391 0.9226 -2.4727 0.9792
4.4390 1.3230 -2.4727 0.9792
3.9318 2.4488 -2.4727 0.9792
3.6982 2.7890 -2.4727 0.9792
2.6556 3.4410 -2.3203 0.9805
1.2878 4.1513 -2.3203 0.9805
0.1452 4.3441 -2.3203 0.9805
-0.6273 4.3010 -2.3203 0.9805
-1.0076 4.2281 -2.3203 0.9805
