ply
format ascii 1.0
element vertex 1588
property float32 x
property float32 y
property float32 z
property float32 I
end_header
1.5112 -7.0324 0.4189 0.9716
2.1030 -6.7793 0.4134 0.9720
2.7689 -6.7377 0.4243 0.9712
3.6540 -7.0352 0.4617 0.9687
0.6425 -8.2223 0.4804 0.9675
1.8017 -6.8771 0.4141 0.9719
2.4222 -6.7327 0.4167 0.9717
3.1632 -6.8166 0.4377 0.9703
0.9359 -7.5986 0.3183 0.9698
2.7739 -6.7500 0.3034 0.9712
14.2011 3.5519 0.6087 0.9431
1.2258 -7.2672 0.3064 0.9709
1.5163 -7.0563 0.1800 0.9715
2.1098 -6.8013 0.1776 0.9719
2.7790 -6.7622 0.1823 0.9712
0.6485 -8.2989 0.2076 0.9672
1.8076 -6.8994 0.1779 0.9719
1.5210 -7.0782 0.0602 0.9715
14.1991 3.5514 0.1216 0.9431
0.6533 -8.3603 0.0697 0.9670
1.2323 -7.3055 0.0616 0.9708
2.4377 -6.7758 0.0598 0.9716
3.1886 -6.8712 0.0630 0.9702
-8.7162 7.5371 0.0958 0.9550
1.5290 -7.1154 -0.0605 0.9713
2.8038 -6.8226 -0.0613 0.9709
3.7521 -7.2242 -0.0677 0.9680
1.2395 -7.3483 -0.0619 0.9706
2.4503 -6.8108 -0.0602 0.9715
3.2098 -6.9169 -0.0634 0.9700
-8.7155 7.5366 -0.0958 0.9550
0.9579 -7.7779 -0.1954 0.9691
2.1375 -6.8907 -0.1799 0.9715
3.7988 -7.3140 -0.2055 0.9676
14.1970 3.5509 -0.3650 0.9431
3.2312 -6.9631 -0.1914 0.9698
2.1507 -6.9334 -0.3018 0.9714
3.8942 -7.4977 -0.3513 0.9667
1.8427 -7.0337 -0.3023 0.9713
2.4789 -6.8901 -0.3045 0.9711
3.2637 -7.0331 -0.3224 0.9694
-8.7142 7.5355 -0.4790 0.9549
0.9862 -8.0073 -0.4699 0.9682
1.5622 -7.2700 -0.4331 0.9706
2.8693 -6.9819 -0.4397 0.9702
1.2720 -7.5410 -0.4454 0.9698
-8.7136 7.5349 -0.6709 0.9549
14.1939 3.5501 -1.0965 0.9430
1.2881 -7.6364 -0.5804 0.9694
1.8777 -7.1670 -0.5552 0.9707
-8.7129 7.5343 -0.8632 0.9548
1.6018 -7.4541 -0.6990 0.9698
2.9517 -7.1827 -0.7119 0.9693
1.3122 -7.7792 -0.7233 0.9688
1.9017 -7.2588 -0.6879 0.9703
3.4551 -7.4455 -0.7525 0.9676
-8.7123 7.5338 -1.0559 0.9548
2.2508 -7.2558 -0.8240 0.9699
3.0097 -7.3237 -0.8588 0.9686
14.1919 3.5496 -1.5868 0.9428
2.6027 -7.2342 -0.8339 0.9695
3.6232 -7.8077 -0.9336 0.9660
1.6667 -7.7561 -0.9941 0.9685
3.1009 -7.5455 -1.0223 0.9676
1.9686 -7.5142 -0.9734 0.9692
2.6580 -7.3881 -0.9839 0.9688
-8.7109 7.5326 -1.4432 0.9546
1.7195 -8.0020 -1.1642 0.9675
2.3510 -7.5788 -1.1287 0.9684
2.0194 -7.7079 -1.1333 0.9683
2.7318 -7.5932 -1.1478 0.9679
-8.6856 7.5107 -1.6332 0.9547
2.4490 -7.8947 -1.3162 0.9671
14.6158 2.2982 -2.3560 0.9418
14.0432 3.5124 -2.3051 0.9431
13.4836 6.0755 -2.3550 0.9419
9.5373 11.2808 -2.3523 0.9419
7.3818 12.7857 -2.3509 0.9420
6.2126 13.3879 -2.3502 0.9420
4.9948 13.8834 -2.3495 0.9420
3.7381 14.2684 -2.3487 0.9420
1.1483 14.6957 -2.3472 0.9420
-0.1642 14.7349 -2.3465 0.9421
-1.4745 14.6573 -2.3458 0.9421
-5.2899 13.7348 -2.3437 0.9421
-8.7241 11.8404 -2.3419 0.9422
-11.5358 9.1097 -2.3406 0.9422
2.9259 -8.1326 -1.3763 0.9656
14.1765 4.2251 -2.3555 0.9418
13.7421 5.4692 -2.3552 0.9419
13.1984 6.6695 -2.3548 0.9419
12.5499 7.8162 -2.3543 0.9419
11.8018 8.9002 -2.3538 0.9419
10.9601 9.9129 -2.3532 0.9419
10.0317 10.8462 -2.3526 0.9419
7.9452 12.4460 -2.3513 0.9419
6.8039 13.0999 -2.3506 0.9420
5.6092 13.6493 -2.3498 0.9420
3.0983 14.4184 -2.3483 0.9420
-0.8203 14.7107 -2.3461 0.9421
-2.1257 14.5748 -2.3454 0.9421
-3.4135 14.3235 -2.3447 0.9421
-7.0706 12.9022 -2.3428 0.9421
-8.1889 12.2187 -2.3422 0.9422
-10.2213 10.5687 -2.3412 0.9422
-8.5929 7.4305 -1.8089 0.9550
-11.9293 8.5862 -2.3405 0.9422
-12.6445 7.4894 -2.3402 0.9422
-14.1352 -0.0000 -2.4924 0.9442
-13.9133 -2.5066 -2.4928 0.9442
-13.2516 -4.9349 -2.4934 0.9442
-12.7617 -6.0957 -2.4938 0.9442
-12.1707 -7.2087 -2.4942 0.9442
-11.4830 -8.2650 -2.4947 0.9442
-3.2865 -13.7909 -2.4998 0.9440
-0.7897 -14.1633 -2.5013 0.9440
1.7350 -14.0869 -2.5027 0.9440
2.9827 -13.8804 -2.5034 0.9440
4.2074 -13.5634 -2.5040 0.9440
6.5488 -12.6087 -2.5052 0.9439
7.6467 -11.9784 -2.5058 0.9439
13.6333 -4.0632 -2.5084 0.9439
13.9412 -2.8337 -2.5085 0.9439
14.2223 -0.3169 -2.5084 0.9439
13.1948 2.0748 -2.3552 0.9472
12.1732 5.4850 -2.3543 0.9472
11.6347 6.5456 -2.3539 0.9472
11.0038 7.5537 -2.3534 0.9472
10.2857 8.5014 -2.3529 0.9472
9.4861 9.3810 -2.3524 0.9473
8.6114 10.1856 -2.3518 0.9473
6.6655 11.5450 -2.3506 0.9473
5.6100 12.0892 -2.3500 0.9473
4.5104 12.5370 -2.3493 0.9473
3.3757 12.8850 -2.3486 0.9473
2.2148 13.1305 -2.3480 0.9474
1.0371 13.2717 -2.3473 0.9474
-0.1483 13.3076 -2.3466 0.9474
-1.3317 13.2378 -2.3460 0.9474
-2.5040 13.0632 -2.3453 0.9474
-4.7780 12.4058 -2.3441 0.9474
-5.8618 11.9284 -2.3435 0.9474
-10.4208 8.2293 -2.3413 0.9475
-11.1105 7.2682 -2.3410 0.9475
-13.0142 5.5185 -2.4925 0.9442
-13.4530 4.3380 -2.4924 0.9442
-14.0085 1.8840 -2.4923 0.9442
-14.1216 -0.6297 -2.4925 0.9442
-14.0105 -1.8842 -2.4927 0.9442
-13.7885 -3.1241 -2.4929 0.9442
-13.4573 -4.3394 -2.4932 0.9442
-11.1046 -8.7692 -2.4950 0.9441
-10.2823 -9.7249 -2.4955 0.9441
-8.3992 -11.3995 -2.4967 0.9441
-7.3532 -12.1050 -2.4974 0.9441
-3.8971 -13.6289 -2.4995 0.9441
-2.6693 -13.9257 -2.5002 0.9440
-1.4197 -14.1121 -2.5009 0.9440
1.1056 -14.1482 -2.5023 0.9440
7.1048 -12.3058 -2.5055 0.9439
8.1736 -11.6271 -2.5061 0.9439
11.7252 -8.0488 -2.5077 0.9439
12.3964 -6.9741 -2.5080 0.9439
12.9690 -5.8436 -2.5082 0.9439
14.1943 -0.9502 -2.5084 0.9439
13.2747 1.4850 -2.3553 0.9472
12.7984 3.8143 -2.3548 0.9472
11.9158 6.0213 -2.3541 0.9472
11.3305 7.0567 -2.3537 0.9472
10.6553 8.0356 -2.3532 0.9472
7.1742 11.2382 -2.3509 0.9473
5.0652 12.3254 -2.3497 0.9473
3.9469 12.7237 -2.3490 0.9473
1.6275 13.2143 -2.3476 0.9474
-3.0830 12.9369 -2.3450 0.9474
-5.3253 12.1791 -2.3438 0.9474
-7.3970 11.0370 -2.3428 0.9475
-9.2332 9.5470 -2.3419 0.9475
-13.9106 2.5061 -2.4923 0.9442
-14.0786 1.2580 -2.4923 0.9442
-12.8832 -0.0000 -2.4931 0.9489
-12.4283 -3.4045 -2.4937 0.9489
-12.0774 -4.4977 -2.4940 0.9488
-11.0919 -6.5697 -2.4948 0.9488
-10.4650 -7.5323 -2.4952 0.9488
-9.7550 -8.4354 -2.4957 0.9488
-8.9673 -9.2722 -2.4962 0.9488
-5.1725 -11.8299 -2.4986 0.9488
-2.9946 -12.5661 -2.4999 0.9487
-0.7196 -12.9048 -2.5012 0.9487
0.4320 -12.9210 -2.5018 0.9487
2.7174 -12.6460 -2.5031 0.9487
6.9661 -10.9122 -2.5053 0.9486
7.9112 -10.2508 -2.5058 0.9486
10.3430 -7.8000 -2.5069 0.9486
10.9974 -6.8493 -2.5072 0.9486
11.5644 -5.8438 -2.5074 0.9486
12.0394 -4.7916 -2.5076 0.9486
12.6991 -2.5812 -2.5077 0.9486
12.8784 -1.4406 -2.5077 0.9486
12.9552 -0.2887 -2.5077 0.9486
11.8023 2.9520 -2.3543 0.9516
11.4914 3.9903 -2.3540 0.9516
11.0892 4.9965 -2.3537 0.9517
10.5988 5.9628 -2.3534 0.9517
9.3702 7.7447 -2.3525 0.9517
8.6419 8.5462 -2.3520 0.9517
5.1112 11.0144 -2.3498 0.9517
4.1095 11.4227 -2.3492 0.9517
3.0758 11.7401 -2.3486 0.9518
-2.2818 11.9039 -2.3456 0.9518
-3.3314 11.6508 -2.3450 0.9518
-5.3420 10.8706 -2.3439 0.9518
-6.2870 10.3499 -2.3435 0.9519
-8.0196 9.0679 -2.3426 0.9519
-8.7935 8.3168 -2.3422 0.9519
-11.8614 5.0296 -2.4932 0.9489
-12.2613 3.9538 -2.4931 0.9489
-12.7677 1.7171 -2.4930 0.9489
-12.8701 0.5739 -2.4931 0.9489
-12.8707 -0.5739 -2.4932 0.9489
-12.7694 -1.7173 -2.4934 0.9489
-12.5670 -2.8473 -2.4936 0.9489
-11.8659 -5.0315 -2.4942 0.9488
-11.3726 -6.0686 -2.4945 0.9488
-10.7892 -7.0580 -2.4950 0.9488
-10.1201 -7.9917 -2.4954 0.9488
-9.3705 -8.8626 -2.4959 0.9488
-8.5463 -9.6635 -2.4965 0.9488
-5.6937 -11.5863 -2.4983 0.9488
1.0073 -12.8905 -2.5021 0.9487
2.1512 -12.7529 -2.5028 0.9487
4.3803 -12.1753 -2.5040 0.9486
7.4460 -10.5921 -2.5055 0.9486
8.3607 -9.8891 -2.5060 0.9486
9.2092 -9.1072 -2.5064 0.9486
9.9846 -8.2525 -2.5068 0.9486
11.2921 -6.3529 -2.5073 0.9486
11.8137 -5.3230 -2.5075 0.9486
12.9296 -0.8655 -2.5077 0.9486
12.9549 0.2887 -2.5076 0.9486
11.6585 3.4746 -2.3542 0.9516
10.8548 5.4852 -2.3536 0.9517
10.3218 6.4284 -2.3532 0.9517
9.7069 7.3203 -2.3527 0.9517
6.5361 10.2387 -2.3507 0.9517
5.5975 10.7771 -2.3501 0.9517
3.5962 11.5929 -2.3489 0.9518
1.4829 12.0405 -2.3477 0.9518
0.4053 12.1216 -2.3471 0.9518
-0.6750 12.1064 -2.3464 0.9518
-1.7495 11.9952 -2.3459 0.9518
-7.6083 9.4169 -2.3428 0.9519
-8.4149 8.7009 -2.3424 0.9519
-9.8216 7.0692 -2.3418 0.9519
-10.4107 6.1663 -2.3415 0.9519
-11.6259 5.5532 -2.4933 0.9489
-12.4251 3.4036 -2.4931 0.9489
-12.6785 2.2841 -2.4930 0.9489
-11.7823 -1.0529 -2.4938 0.9528
-11.6427 -2.0975 -2.4940 0.9528
-11.4108 -3.1257 -2.4942 0.9528
-10.6784 -5.1006 -2.4948 0.9528
-9.6078 -6.9153 -2.4956 0.9528
-7.4437 -9.2132 -2.4971 0.9527
-6.5955 -9.8412 -2.4976 0.9527
-3.7638 -11.2419 -2.4993 0.9527
-2.7489 -11.5350 -2.4999 0.9527
-1.7118 -11.7367 -2.5005 0.9527
1.4509 -11.7803 -2.5023 0.9526
2.4942 -11.6071 -2.5029 0.9526
6.3934 -10.0150 -2.5049 0.9526
7.2606 -9.4078 -2.5053 0.9526
11.0487 -4.3973 -2.5070 0.9526
11.3967 -3.3966 -2.5071 0.9525
11.8186 -1.3221 -2.5071 0.9525
11.8891 -0.2649 -2.5071 0.9525
11.8649 0.7942 -2.5070 0.9526
10.8313 2.7091 -2.3538 0.9554
10.1770 4.5855 -2.3533 0.9554
9.7271 5.4724 -2.3529 0.9554
7.2005 8.5168 -2.3512 0.9554
5.5739 9.6543 -2.3502 0.9555
1.8525 10.9822 -2.3480 0.9555
-0.1240 11.1313 -2.3468 0.9555
-5.7720 9.5019 -2.3438 0.9556
-7.3628 8.3252 -2.3430 0.9556
-8.7199 6.8860 -2.3424 0.9556
-9.2972 6.0820 -2.3422 0.9556
-10.1729 5.4284 -2.4309 0.9540
-10.8905 4.6179 -2.4938 0.9528
-11.7227 1.5765 -2.4936 0.9528
-11.8167 0.5269 -2.4937 0.9528
-11.8172 -0.5269 -2.4938 0.9528
-11.7241 -1.5768 -2.4939 0.9528
-11.5382 -2.6142 -2.4941 0.9528
-11.2608 -3.6311 -2.4944 0.9528
-9.2910 -7.3370 -2.4958 0.9528
-8.6027 -8.1364 -2.4963 0.9527
-7.0266 -9.5367 -2.4973 0.9527
-5.2268 -10.6362 -2.4984 0.9527
0.9246 -11.8319 -2.5020 0.9526
3.0091 -11.4857 -2.5031 0.9526
4.0203 -11.1747 -2.5037 0.9526
5.0000 -10.7747 -2.5042 0.9526
5.9403 -10.2890 -2.5047 0.9526
6.8337 -9.7212 -2.5051 0.9526
7.6731 -9.0758 -2.5055 0.9526
9.1633 -7.5736 -2.5062 0.9526
11.7480 -1.8473 -2.5071 0.9525
8.9087 6.7184 -2.3523 0.9554
5.1377 9.8919 -2.3499 0.9555
3.3009 10.6411 -2.3488 0.9555
2.3401 10.8901 -2.3483 0.9555
1.3612 11.0525 -2.3477 0.9555
0.3720 11.1271 -2.3471 0.9555
-2.5791 10.8225 -2.3455 0.9555
-3.5314 10.5477 -2.3450 0.9555
-4.4553 10.1895 -2.3445 0.9556
-6.9852 8.6456 -2.3432 0.9556
-8.4050 7.2680 -2.3426 0.9556
-9.5585 5.6615 -2.3421 0.9556
-11.0851 4.1281 -2.4937 0.9528
-11.6408 2.0972 -2.4936 0.9528
-11.7814 1.0528 -2.4936 0.9528
-10.9279 -0.0000 -2.4942 0.9562
-10.8850 -0.9727 -2.4943 0.9562
-8.2732 -7.1541 -2.4964 0.9561
-7.6049 -7.8635 -2.4968 0.9561
-6.0926 -9.0908 -2.4978 0.9561
-5.2604 -9.5989 -2.4983 0.9561
-3.4766 -10.3840 -2.4994 0.9561
-2.5391 -10.6546 -2.4999 0.9561
-1.5811 -10.8407 -2.5005 0.9560
3.2493 -10.4748 -2.5032 0.9560
5.0569 -9.7364 -2.5041 0.9560
7.4531 -8.0582 -2.5053 0.9560
8.7659 -6.6107 -2.5059 0.9560
9.3203 -5.8048 -2.5062 0.9559
9.8008 -4.9526 -2.5063 0.9559
10.5246 -3.1366 -2.5066 0.9559
10.7622 -2.1875 -2.5066 0.9559
10.9141 -1.2209 -2.5066 0.9559
10.9792 -0.2447 -2.5066 0.9559
10.9570 0.7335 -2.5065 0.9559
10.0026 2.5018 -2.3534 0.9586
9.7393 3.3818 -2.3531 0.9586
8.4964 5.8324 -2.3522 0.9586
7.9423 6.5645 -2.3518 0.9586
5.1480 8.9167 -2.3500 0.9586
3.4840 9.6841 -2.3490 0.9587
2.6077 9.9535 -2.3485 0.9587
0.8012 10.2536 -2.3474 0.9587
-1.0290 10.2287 -2.3464 0.9587
-2.8251 9.8801 -2.3454 0.9587
-5.3321 8.7778 -2.3441 0.9587
-6.0912 8.2670 -2.3438 0.9587
-7.4584 7.0541 -2.3431 0.9588
-8.0557 6.3615 -2.3428 0.9588
-10.0611 4.2663 -2.4943 0.9562
-10.4005 3.3537 -2.4942 0.9562
-10.6575 2.4146 -2.4941 0.9562
-10.9169 0.4868 -2.4942 0.9562
-10.8312 -1.4567 -2.4944 0.9562
-10.6594 -2.4151 -2.4946 0.9561
-10.4031 -3.3546 -2.4948 0.9561
-10.0644 -4.2677 -2.4951 0.9561
-7.9470 -7.5162 -2.4966 0.9561
-7.2478 -8.1952 -2.4971 0.9561
-6.4908 -8.8095 -2.4975 0.9561
-5.6822 -9.3541 -2.4981 0.9561
-3.0109 -10.5297 -2.4997 0.9561
-0.1221 -10.9584 -2.5013 0.9560
2.7792 -10.6080 -2.5029 0.9560
4.6178 -9.9511 -2.5039 0.9560
5.4861 -9.5022 -2.5043 0.9560
6.3112 -8.9777 -2.5048 0.9560
7.0862 -8.3816 -2.5051 0.9560
10.0120 -4.5112 -2.5064 0.9559
10.3742 -3.6023 -2.5065 0.9559
10.8490 -1.7059 -2.5066 0.9559
10.9790 0.2447 -2.5065 0.9559
9.5784 3.8121 -2.3530 0.9586
9.2000 4.6490 -2.3527 0.9586
8.7484 5.4486 -2.3524 0.9586
8.2275 6.2047 -2.3520 0.9586
6.9946 7.5625 -2.3512 0.9586
6.2925 8.1534 -2.3507 0.9586
5.5407 8.6794 -2.3503 0.9586
4.7452 9.1362 -2.3498 0.9586
3.9124 9.5203 -2.3493 0.9586
3.0489 9.8286 -2.3488 0.9587
1.2573 10.2089 -2.3477 0.9587
-2.3824 9.9972 -2.3457 0.9587
-5.7173 8.5308 -2.3439 0.9587
-7.1372 7.3798 -2.3433 0.9588
-7.7647 6.7144 -2.3430 0.9588
-8.3306 5.9960 -2.3427 0.9588
-8.8305 5.2303 -2.3425 0.9588
-9.8614 4.7104 -2.4944 0.9562
-10.2409 3.8138 -2.4943 0.9562
-10.5394 2.8870 -2.4942 0.9562
-10.1492 0.0000 -2.4947 0.9591
-9.7903 -2.6818 -2.4951 0.9590
-9.1616 -4.3762 -2.4956 0.9590
-8.7368 -5.1748 -2.4959 0.9590
-7.6831 -6.6439 -2.4967 0.9590
-6.3856 -7.9035 -2.4975 0.9590
-5.6578 -8.4421 -2.4980 0.9590
-4.8849 -8.9139 -2.4985 0.9590
-1.4681 -10.0664 -2.5005 0.9590
-0.5665 -10.1592 -2.5010 0.9590
0.3401 -10.1713 -2.5015 0.9589
1.2443 -10.1028 -2.5020 0.9589
3.0170 -9.7258 -2.5030 0.9589
3.8714 -9.4204 -2.5034 0.9589
4.6953 -9.0400 -2.5039 0.9589
5.4821 -8.5876 -2.5043 0.9589
6.2256 -8.0668 -2.5046 0.9589
6.9198 -7.4816 -2.5050 0.9589
9.4728 -3.7701 -2.5060 0.9589
9.7711 -2.9121 -2.5061 0.9589
9.9917 -2.0309 -2.5062 0.9589
10.1328 -1.1335 -2.5062 0.9589
10.1932 -0.2271 -2.5061 0.9589
10.1726 0.6810 -2.5060 0.9589
9.2866 2.3227 -2.3530 0.9613
9.0422 3.1398 -2.3528 0.9613
8.7259 3.9317 -2.3525 0.9613
7.3741 6.0949 -2.3515 0.9614
6.1746 7.3033 -2.3507 0.9614
5.4990 7.8225 -2.3503 0.9614
4.7800 8.2793 -2.3499 0.9614
3.2351 8.9921 -2.3489 0.9614
0.7440 9.5214 -2.3475 0.9614
-0.1064 9.5479 -2.3470 0.9614
-2.6235 9.1751 -2.3456 0.9615
-3.4291 8.9036 -2.3452 0.9615
-4.9518 8.1518 -2.3444 0.9615
-5.6568 7.6775 -2.3441 0.9615
-6.3169 7.1426 -2.3437 0.9615
-6.9267 6.5512 -2.3435 0.9615
-9.3441 3.9623 -2.4947 0.9591
-9.6593 3.1147 -2.4946 0.9591
-9.8980 2.2426 -2.4946 0.9591
-10.0583 1.3527 -2.4946 0.9591
-10.1389 0.4521 -2.4946 0.9591
-10.1393 -0.4521 -2.4947 0.9591
-10.0593 -1.3529 -2.4948 0.9591
-9.8997 -2.2429 -2.4950 0.9591
-8.9581 -4.7802 -2.4958 0.9590
-8.4982 -5.5593 -2.4961 0.9590
-7.9709 -6.2946 -2.4965 0.9590
-7.3801 -6.9801 -2.4969 0.9590
-6.7307 -7.6106 -2.4973 0.9590
-5.2767 -8.6866 -2.4982 0.9590
-4.4834 -9.1235 -2.4987 0.9590
-3.6543 -9.4883 -2.4992 0.9590
-0.1134 -10.1754 -2.5013 0.9590
0.7929 -10.1471 -2.5018 0.9589
1.6932 -10.0383 -2.5023 0.9589
3.4475 -9.5826 -2.5032 0.9589
5.0937 -8.8225 -2.5041 0.9589
5.8596 -8.3354 -2.5044 0.9589
6.5792 -7.7819 -2.5048 0.9589
7.2466 -7.1664 -2.5051 0.9589
7.8566 -6.4937 -2.5054 0.9589
8.8850 -4.9986 -2.5058 0.9589
9.2952 -4.1882 -2.5060 0.9589
9.8912 -2.4740 -2.5062 0.9589
10.0723 -1.5838 -2.5062 0.9589
10.1931 0.2271 -2.5061 0.9589
10.1319 1.1334 -2.5060 0.9589
8.8929 3.5393 -2.3526 0.9613
8.5416 4.3163 -2.3524 0.9613
7.6389 5.7608 -2.3517 0.9614
7.0947 6.4168 -2.3513 0.9614
6.4944 7.0217 -2.3510 0.9614
5.8426 7.5704 -2.3505 0.9614
4.4061 8.4832 -2.3496 0.9614
2.8310 9.1263 -2.3487 0.9614
2.0071 9.3402 -2.3482 0.9614
0.3191 9.5441 -2.3472 0.9614
-0.5315 9.5327 -2.3468 0.9614
-3.8220 8.7412 -2.3450 0.9615
-4.5841 8.3649 -2.3446 0.9615
-5.3096 7.9225 -2.3442 0.9615
-5.9928 7.4174 -2.3439 0.9615
-6.6284 6.8537 -2.3436 0.9615
-7.2112 6.2358 -2.3433 0.9615
-7.7369 5.5686 -2.3431 0.9615
-9.5111 3.5420 -2.4947 0.9591
-9.9880 1.7994 -2.4946 0.9591
-10.1086 0.9033 -2.4946 0.9591
-9.4688 0.0000 -2.4950 0.9616
-9.1340 -2.5020 -2.4955 0.9616
-8.5473 -4.0827 -2.4959 0.9616
-8.1509 -4.8278 -2.4962 0.9616
-7.6899 -5.5348 -2.4966 0.9616
-6.5886 -6.8126 -2.4973 0.9616
-5.9571 -7.3732 -2.4977 0.9615
-4.5570 -8.3155 -2.4986 0.9615
-3.7995 -8.6897 -2.4990 0.9615
-3.0116 -8.9951 -2.4995 0.9615
-2.1994 -9.2292 -2.5000 0.9615
-1.3695 -9.3902 -2.5005 0.9615
-0.5284 -9.4766 -2.5010 0.9615
0.3172 -9.4878 -2.5014 0.9615
1.1606 -9.4237 -2.5019 0.9615
2.8141 -9.0719 -2.5028 0.9615
8.0708 -5.0265 -2.5054 0.9614
8.4867 -4.2885 -2.5055 0.9614
8.8351 -3.5163 -2.5057 0.9614
9.1133 -2.7161 -2.5057 0.9614
9.5071 -0.2118 -2.5057 0.9614
9.4878 0.6352 -2.5056 0.9614
8.4337 2.9285 -2.3524 0.9637
8.1387 3.6671 -2.3522 0.9637
7.3578 5.0509 -2.3516 0.9638
5.7593 6.8122 -2.3506 0.9638
5.1293 7.2965 -2.3502 0.9638
3.7530 8.0874 -2.3493 0.9638
1.4821 8.7866 -2.3480 0.9638
-0.0992 8.9068 -2.3471 0.9638
-1.6762 8.7448 -2.3462 0.9638
-3.1990 8.3062 -2.3454 0.9639
-5.2774 7.1626 -2.3443 0.9639
-5.8933 6.6636 -2.3440 0.9639
-6.4622 6.1119 -2.3438 0.9639
-7.5949 4.9684 -2.3914 0.9632
-8.3546 4.4581 -2.4952 0.9616
-8.7178 3.6966 -2.4951 0.9616
-9.0118 2.9060 -2.4950 0.9616
-9.2345 2.0923 -2.4950 0.9616
-9.4593 0.4218 -2.4950 0.9616
-9.4596 -0.4218 -2.4951 0.9616
-8.3574 -4.4596 -2.4961 0.9616
-7.4362 -5.8723 -2.4967 0.9616
-5.6232 -7.6319 -2.4979 0.9615
-4.9225 -8.1035 -2.4984 0.9615
-4.1825 -8.5110 -2.4988 0.9615
-3.4090 -8.8512 -2.4993 0.9615
-0.9499 -9.4427 -2.5007 0.9615
0.7396 -9.4651 -2.5017 0.9615
1.5794 -9.3635 -2.5021 0.9615
2.4070 -9.1874 -2.5026 0.9615
3.2157 -8.9383 -2.5030 0.9615
4.7511 -8.2291 -2.5038 0.9615
6.1365 -7.2583 -2.5045 0.9614
7.3279 -6.0566 -2.5051 0.9614
8.6695 -3.9063 -2.5056 0.9614
9.5069 0.2118 -2.5057 0.9614
13.9760 2.8407 -3.7580 0.9427
8.5561 2.5500 -2.3525 0.9637
8.2944 3.3011 -2.3523 0.9637
7.5760 4.7184 -2.3518 0.9638
5.4497 7.0614 -2.3504 0.9638
1.8722 8.7127 -2.3482 0.9638
1.0891 8.8430 -2.3477 0.9638
0.2977 8.9032 -2.3473 0.9638
-0.4959 8.8926 -2.3468 0.9638
-2.0639 8.6606 -2.3460 0.9638
-2.8261 8.4411 -2.3456 0.9638
-3.5656 8.1547 -2.3452 0.9639
-4.9535 7.3911 -2.3445 0.9639
-8.1480 4.8261 -2.4953 0.9616
-8.5446 4.0814 -2.4952 0.9616
-9.1322 2.5016 -2.4950 0.9616
-9.3185 1.6788 -2.4950 0.9616
-9.4310 0.8428 -2.4950 0.9616
-3.9277 -0.3510 -1.1095 0.9837
-3.7904 -1.0383 -1.1057 0.9838
-8.3135 -3.0960 -2.4960 0.9638
-8.0057 -3.8240 -2.4962 0.9638
-7.2025 -5.1841 -2.4968 0.9638
-6.7134 -5.8053 -2.4971 0.9638
-4.9434 -7.3761 -2.4983 0.9638
-4.2680 -7.7881 -2.4987 0.9638
-1.2826 -8.7942 -2.5005 0.9637
1.0869 -8.8253 -2.5018 0.9637
3.3816 -8.2286 -2.5030 0.9637
4.1012 -7.8962 -2.5034 0.9637
5.4377 -7.0458 -2.5041 0.9637
6.0439 -6.5346 -2.5044 0.9637
7.1081 -5.3605 -2.5049 0.9637
7.5576 -4.7069 -2.5051 0.9637
8.2733 -3.2927 -2.5053 0.9637
8.7264 -1.7737 -2.5054 0.9637
8.8496 -0.9900 -2.5054 0.9637
8.9025 -0.1984 -2.5054 0.9637
8.7959 1.3831 -2.5052 0.9637
12.9553 3.2403 -3.7573 0.9460
7.2847 4.0983 -2.3517 0.9659
4.1755 7.2323 -2.3496 0.9659
3.5147 7.5739 -2.3492 0.9659
2.8261 7.8553 -2.3488 0.9659
2.1153 8.0742 -2.3484 0.9659
0.6500 8.3183 -2.3475 0.9659
-0.0929 8.3417 -2.3471 0.9659
-0.8349 8.2988 -2.3467 0.9659
-3.6762 7.4809 -2.3452 0.9660
-4.9430 6.7087 -2.3446 0.9660
-6.0528 5.7247 -2.3440 0.9660
-7.8254 4.1757 -2.4956 0.9638
-4.2110 -0.1878 -1.1860 0.9826
-3.7396 -0.5029 -1.0616 0.9844
-8.4428 -2.7225 -2.4959 0.9638
-8.1677 -3.4634 -2.4961 0.9638
-7.8278 -4.1771 -2.4964 0.9638
-7.4259 -4.8578 -2.4966 0.9638
-6.4486 -6.0991 -2.4973 0.9638
-5.8811 -6.6498 -2.4977 0.9638
-5.2667 -7.1480 -2.4981 0.9638
-4.6103 -7.5896 -2.4985 0.9638
-3.9172 -7.9712 -2.4989 0.9638
-3.1927 -8.2897 -2.4994 0.9638
-1.6729 -8.7275 -2.5002 0.9637
1.4791 -8.7688 -2.5020 0.9637
2.2541 -8.6038 -2.5024 0.9637
5.7465 -6.7970 -2.5042 0.9637
8.1182 -3.6579 -2.5053 0.9637
8.6387 -2.1607 -2.5054 0.9637
8.7968 -1.3832 -2.5054 0.9637
8.8849 -0.5948 -2.5054 0.9637
8.0121 2.3879 -2.3522 0.9659
7.4604 3.7699 -2.3518 0.9659
7.0944 4.4184 -2.3515 0.9659
6.6722 5.0318 -2.3512 0.9659
5.6727 6.1333 -2.3506 0.9659
5.1035 6.6128 -2.3502 0.9659
4.4940 7.0397 -2.3498 0.9659
3.1735 7.7223 -2.3490 0.9659
2.4731 7.9726 -2.3486 0.9659
1.0200 8.2819 -2.3478 0.9659
-0.4644 8.3285 -2.3469 0.9659
-1.2036 8.2527 -2.3465 0.9659
-2.6469 7.9059 -2.3457 0.9659
-4.6395 6.9227 -2.3447 0.9660
-5.7921 5.9889 -2.3441 0.9660
-6.7609 4.8662 -2.3437 0.9660
-8.0034 3.8229 -2.4955 0.9638
-8.3116 3.0953 -2.4954 0.9638
-8.8337 0.7894 -2.4953 0.9638
-3.9676 0.0000 -1.1878 0.9836
-3.4925 -0.9567 -1.0841 0.9850
-7.5245 -3.5942 -2.4965 0.9658
-6.3097 -5.4563 -2.4973 0.9658
-5.2438 -6.4904 -2.4980 0.9658
-0.4651 -8.3406 -2.5009 0.9657
1.7559 -8.1712 -2.5021 0.9657
2.4766 -7.9837 -2.5025 0.9657
3.8540 -7.4202 -2.5032 0.9657
5.1098 -6.6210 -2.5039 0.9657
5.6795 -6.1406 -2.5041 0.9657
6.2041 -5.6113 -2.5044 0.9657
8.0190 -2.3899 -2.5051 0.9657
8.2001 -1.6667 -2.5051 0.9657
8.3486 0.5589 -2.5050 0.9657
7.1618 3.2269 -2.3517 0.9677
6.0527 5.0027 -2.3509 0.9677
5.5827 5.5209 -2.3506 0.9677
5.0684 5.9950 -2.3502 0.9678
3.9240 6.7965 -2.3495 0.9678
1.9880 7.5880 -2.3484 0.9678
1.3045 7.7335 -2.3480 0.9678
-0.0873 7.8397 -2.3472 0.9678
-0.7846 7.7995 -2.3468 0.9678
-1.4755 7.6974 -2.3464 0.9678
-3.4551 7.0309 -2.3454 0.9678
-4.0667 6.6946 -2.3450 0.9678
-4.6458 6.3054 -2.3448 0.9678
-5.6890 5.3806 -2.3443 0.9678
-7.3551 3.9248 -2.4959 0.9658
-7.6749 3.2544 -2.4957 0.9658
-8.2616 1.1111 -2.4956 0.9658
-4.8506 0.2163 -1.4536 0.9799
-3.4642 -0.7849 -1.0634 0.9853
-6.9794 -4.5657 -2.4969 0.9658
-5.5273 -6.2499 -2.4978 0.9658
-4.9499 -6.7180 -2.4982 0.9658
-4.3329 -7.1330 -2.4986 0.9658
-3.6815 -7.4916 -2.4990 0.9657
-2.2956 -8.0283 -2.4998 0.9657
-1.5722 -8.2021 -2.5003 0.9657
-0.8361 -8.3109 -2.5007 0.9657
1.3900 -8.2406 -2.5019 0.9657
2.1183 -8.0854 -2.5023 0.9657
3.5194 -7.5840 -2.5031 0.9657
4.8095 -6.8417 -2.5037 0.9657
5.4000 -6.3871 -2.5040 0.9657
5.9477 -5.8818 -2.5043 0.9657
7.6286 -3.4373 -2.5050 0.9657
7.9045 -2.7448 -2.5051 0.9657
8.2662 -1.2998 -2.5051 0.9657
8.3654 0.1864 -2.5051 0.9657
12.2980 2.4996 -3.7570 0.9490
7.0106 3.5426 -2.3516 0.9677
6.6667 4.1521 -2.3513 0.9677
6.2700 4.7284 -2.3510 0.9677
5.8235 5.2670 -2.3507 0.9677
4.7960 6.2144 -2.3501 0.9678
2.9824 7.2572 -2.3490 0.9678
2.3242 7.4925 -2.3486 0.9678
-0.4365 7.8273 -2.3470 0.9678
-1.1312 7.7562 -2.3466 0.9678
-2.4877 7.4304 -2.3459 0.9678
-3.1387 7.1784 -2.3455 0.9678
-4.9218 6.0918 -2.3446 0.9678
-5.4439 5.6289 -2.3444 0.9678
-6.6484 4.7853 -2.4524 0.9664
-7.8121 2.9093 -2.4957 0.9658
-8.0398 2.2023 -2.4956 0.9658
-3.7562 0.0000 -1.1929 0.9844
-3.3867 -0.3026 -1.0798 0.9858
-3.2540 -0.8914 -1.0715 0.9859
-7.0938 -3.3884 -2.4967 0.9675
-6.7647 -4.0068 -2.4969 0.9675
-6.3819 -4.5935 -2.4972 0.9675
-5.9485 -5.1438 -2.4975 0.9675
-1.8249 -7.6577 -2.5001 0.9675
-1.1363 -7.7909 -2.5005 0.9675
1.6552 -7.7025 -2.5020 0.9675
2.9955 -7.2890 -2.5027 0.9675
3.6328 -6.9944 -2.5031 0.9675
4.2415 -6.6442 -2.5034 0.9675
4.8165 -6.2410 -2.5037 0.9675
5.3535 -5.7881 -2.5039 0.9675
5.8479 -5.2891 -2.5042 0.9674
6.6940 -4.1691 -2.5045 0.9674
7.0389 -3.5570 -2.5047 0.9674
7.3279 -2.9164 -2.5048 0.9674
7.5586 -2.2527 -2.5048 0.9674
7.7292 -1.5710 -2.5049 0.9674
7.8383 -0.8769 -2.5049 0.9674
7.8692 0.5268 -2.5047 0.9674
7.7908 1.2251 -2.5046 0.9674
6.7506 3.0417 -2.3515 0.9694
6.4525 3.6301 -2.3513 0.9694
5.2623 5.2041 -2.3504 0.9694
4.2551 6.0530 -2.3498 0.9694
3.1135 6.7095 -2.3491 0.9694
1.8740 7.1530 -2.3483 0.9694
-0.7397 7.3526 -2.3469 0.9695
-1.3909 7.2565 -2.3465 0.9695
-2.0310 7.1029 -2.3462 0.9695
-3.8338 6.3113 -2.3452 0.9695
-4.3799 5.9444 -2.3449 0.9695
-5.9037 4.6621 -2.3891 0.9689
-7.4799 2.4119 -2.4959 0.9676
-7.7889 1.0475 -2.4959 0.9676
-4.3818 0.1954 -1.3930 0.9818
-3.4557 -0.1541 -1.0986 0.9856
-3.3189 -0.4464 -1.0635 0.9860
-3.2591 -0.7384 -1.0613 0.9861
-3.2827 -1.0586 -1.0954 0.9856
-7.2374 -3.0689 -2.4966 0.9675
-6.5799 -4.3043 -2.4971 0.9675
-6.1713 -4.8735 -2.4974 0.9675
-5.2108 -5.8919 -2.4980 0.9675
-4.0847 -6.7244 -2.4987 0.9675
-2.8286 -7.3444 -2.4995 0.9675
-2.1641 -7.5682 -2.4999 0.9675
-1.4821 -7.7320 -2.5003 0.9675
-0.0877 -7.8748 -2.5011 0.9675
1.3103 -7.7680 -2.5018 0.9675
2.6676 -7.4147 -2.5026 0.9675
3.3174 -7.1488 -2.5029 0.9675
3.9410 -6.8261 -2.5032 0.9675
4.5335 -6.4490 -2.5035 0.9675
6.0780 -5.0236 -2.5043 0.9674
7.6515 -1.9138 -2.5048 0.9674
7.7915 -1.2252 -2.5049 0.9674
7.8378 0.8768 -2.5047 0.9674
11.3354 3.3782 -3.7564 0.9516
6.8797 2.7381 -2.3516 0.9694
6.6081 3.3392 -2.3514 0.9694
6.2841 3.9138 -2.3511 0.9694
5.9101 4.4570 -2.3509 0.9694
5.4893 4.9648 -2.3506 0.9694
4.5208 5.8578 -2.3500 0.9694
2.1910 7.0630 -2.3485 0.9694
1.5534 7.2288 -2.3482 0.9694
-0.4114 7.3788 -2.3470 0.9695
-1.0664 7.3118 -2.3467 0.9695
-1.7127 7.1868 -2.3463 0.9695
-4.1109 6.1340 -2.3451 0.9695
-4.6401 5.7431 -2.3448 0.9695
-5.1323 5.3068 -2.3446 0.9695
-6.3797 4.5919 -2.4963 0.9675
-7.0920 3.3875 -2.4961 0.9676
-7.3651 2.7428 -2.4960 0.9676
-7.7345 1.3934 -2.4959 0.9676
-3.6184 -0.0000 -1.2157 0.9848
-3.2019 -0.2861 -1.0801 0.9865
-3.1483 -0.5672 -1.0748 0.9866
-6.0329 -4.3422 -2.4974 0.9691
-4.1402 -6.1777 -2.4986 0.9691
-2.3621 -7.0551 -2.4997 0.9691
-1.7250 -7.2384 -2.5001 0.9691
-1.0741 -7.3644 -2.5005 0.9691
-0.4144 -7.4318 -2.5008 0.9691
0.2488 -7.4403 -2.5012 0.9691
0.9101 -7.3897 -2.5016 0.9691
1.5645 -7.2804 -2.5019 0.9691
2.8313 -6.8896 -2.5026 0.9691
4.0090 -6.2799 -2.5032 0.9691
5.5272 -4.9991 -2.5039 0.9690
5.9507 -4.4876 -2.5041 0.9690
6.3269 -3.9404 -2.5043 0.9690
6.6529 -3.3618 -2.5044 0.9690
7.3052 -1.4848 -2.5046 0.9690
7.4526 -0.1661 -2.5046 0.9690
7.4376 0.4979 -2.5045 0.9690
7.3635 1.1579 -2.5044 0.9690
6.0987 3.4311 -2.3511 0.9709
4.5158 5.3413 -2.3500 0.9709
3.4963 6.0557 -2.3494 0.9709
1.7714 6.7613 -2.3483 0.9709
0.5443 6.9661 -2.3476 0.9709
-0.0778 6.9859 -2.3473 0.9709
-0.6992 6.9502 -2.3469 0.9710
-1.9199 6.7142 -2.3463 0.9710
-3.0791 6.2657 -2.3456 0.9710
-4.1403 5.6193 -2.3451 0.9710
-4.6236 5.2279 -2.3449 0.9710
-5.0701 4.7953 -2.3447 0.9710
-7.2457 1.6417 -2.4961 0.9691
-7.3631 0.9902 -2.4961 0.9691
-3.2675 -0.1457 -1.0989 0.9863
-3.1418 -1.0131 -1.1091 0.9862
-6.5568 -3.4988 -2.4970 0.9691
-6.2200 -4.0690 -2.4973 0.9691
-5.4012 -5.1085 -2.4978 0.9691
-4.4110 -5.9867 -2.4985 0.9691
-3.8612 -6.3564 -2.4988 0.9691
-3.2806 -6.6758 -2.4992 0.9691
-2.6738 -6.9423 -2.4995 0.9691
-2.0456 -7.1539 -2.4999 0.9691
-0.7450 -7.4054 -2.5006 0.9691
-0.0829 -7.4434 -2.5010 0.9691
0.5800 -7.4224 -2.5014 0.9691
1.2385 -7.3424 -2.5018 0.9691
2.5214 -7.0084 -2.5024 0.9691
3.7250 -6.4519 -2.5031 0.9691
4.8110 -5.6904 -2.5036 0.9690
5.7447 -4.7481 -2.5040 0.9690
6.4963 -3.6548 -2.5044 0.9690
6.7962 -3.0622 -2.5045 0.9690
7.0420 -2.4452 -2.5046 0.9690
7.4079 0.8287 -2.5045 0.9690
6.5025 2.5879 -2.3514 0.9709
6.2458 3.1561 -2.3512 0.9709
5.9395 3.6991 -2.3510 0.9709
5.5861 4.2127 -2.3507 0.9709
5.1884 4.6927 -2.3504 0.9709
3.2228 6.2050 -2.3492 0.9709
2.6573 6.4663 -2.3489 0.9709
2.0709 6.6761 -2.3485 0.9709
1.4683 6.8329 -2.3481 0.9709
-0.3889 6.9749 -2.3471 0.9710
-1.0080 6.9116 -2.3467 0.9710
-4.8516 5.0166 -2.3448 0.9710
-5.2831 4.5684 -2.3466 0.9710
-6.0309 4.3408 -2.4966 0.9691
-6.7043 3.2024 -2.4963 0.9691
-6.9625 2.5929 -2.4962 0.9691
-7.1654 1.9628 -2.4962 0.9691
-7.3116 1.3173 -2.4961 0.9691
-7.3999 0.6613 -2.4961 0.9691
-3.4902 -0.0000 -1.2376 0.9853
-3.0930 -0.2764 -1.1011 0.9869
-3.0229 -0.8281 -1.1114 0.9868
-6.3545 -3.0353 -2.4971 0.9706
-6.0597 -3.5891 -2.4973 0.9706
-4.8977 -5.0642 -2.4981 0.9705
-3.3870 -6.1806 -2.4990 0.9705
-2.8239 -6.4584 -2.4994 0.9705
-1.6345 -6.8587 -2.5001 0.9705
-1.0177 -6.9779 -2.5005 0.9705
0.8624 -7.0018 -2.5015 0.9705
1.4823 -6.8982 -2.5018 0.9705
3.7984 -5.9501 -2.5031 0.9705
4.3133 -5.5889 -2.5033 0.9705
5.2369 -4.7365 -2.5038 0.9705
5.6380 -4.2519 -2.5039 0.9705
5.9945 -3.7334 -2.5041 0.9705
6.7686 -2.0172 -2.5044 0.9705
6.9213 -1.4068 -2.5044 0.9705
7.0610 -0.1574 -2.5043 0.9705
6.9766 1.0970 -2.5042 0.9705
6.8509 1.7135 -2.5041 0.9705
5.1094 4.2230 -2.3504 0.9723
4.7127 4.6605 -2.3502 0.9723
3.8108 5.4209 -2.3496 0.9723
2.7885 6.0091 -2.3490 0.9723
2.2423 6.2325 -2.3486 0.9723
1.6784 6.4065 -2.3483 0.9723
0.5158 6.6006 -2.3476 0.9723
-0.6625 6.5856 -2.3470 0.9723
-2.9177 5.9373 -2.3458 0.9723
-3.4342 5.6535 -2.3455 0.9723
-3.9233 5.3248 -2.3453 0.9723
-4.8044 4.5440 -2.3448 0.9723
-5.5262 4.3640 -2.4968 0.9706
-5.8923 3.8546 -2.4967 0.9706
-6.2117 3.3147 -2.4966 0.9706
-6.4818 2.7485 -2.4965 0.9706
-6.9774 0.9384 -2.4964 0.9706
-3.1623 -0.1410 -1.1224 0.9867
-3.0241 -0.6852 -1.0995 0.9869
-3.0191 -0.9736 -1.1248 0.9866
-6.4832 -2.7491 -2.4970 0.9706
-6.2133 -3.3155 -2.4972 0.9706
-5.1181 -4.8407 -2.4979 0.9705
-4.1798 -5.6729 -2.4986 0.9705
-3.6587 -6.0231 -2.4989 0.9705
-3.1086 -6.3257 -2.4992 0.9705
-1.3274 -6.9252 -2.5003 0.9705
-0.7059 -7.0168 -2.5006 0.9705
1.1735 -6.9569 -2.5017 0.9705
3.5294 -6.1130 -2.5029 0.9705
5.4428 -4.4987 -2.5038 0.9705
6.6719 -2.3167 -2.5043 0.9705
6.8518 -1.7138 -2.5044 0.9705
6.9771 -1.0971 -2.5044 0.9705
7.0609 0.1574 -2.5043 0.9705
6.9206 1.4067 -2.5041 0.9705
5.9177 2.9903 -2.3510 0.9723
5.6275 3.5048 -2.3508 0.9723
5.2927 3.9914 -2.3506 0.9723
3.5653 5.5849 -2.3494 0.9723
2.5179 6.1269 -2.3488 0.9723
1.3913 6.4744 -2.3481 0.9723
0.8094 6.5716 -2.3478 0.9723
-0.3685 6.6091 -2.3471 0.9723
-2.1007 6.2744 -2.3462 0.9723
-2.6505 6.0618 -2.3459 0.9723
-3.6824 5.4946 -2.3454 0.9723
-4.1564 5.1445 -2.3451 0.9723
-4.5974 4.7537 -2.3449 0.9723
-5.7150 4.1134 -2.4968 0.9706
-6.0580 3.5882 -2.4966 0.9706
-6.5977 2.4571 -2.4964 0.9706
-6.7901 1.8600 -2.4964 0.9706
-7.0123 0.6266 -2.4964 0.9706
-3.3741 0.0000 -1.2599 0.9857
-2.9455 -0.5307 -1.1176 0.9873
-2.9169 -0.7990 -1.1293 0.9872
-2.9238 -1.0888 -1.1650 0.9868
-5.4288 -3.9074 -2.4977 0.9718
-5.0600 -4.3756 -2.4979 0.9718
-4.6510 -4.8091 -2.4982 0.9718
-4.2050 -5.2046 -2.4985 0.9718
-3.2164 -5.8691 -2.4991 0.9718
-1.5521 -6.5129 -2.5001 0.9718
-0.9664 -6.6262 -2.5004 0.9718
1.9852 -6.3998 -2.5021 0.9718
3.6067 -5.6498 -2.5029 0.9718
4.0956 -5.3069 -2.5032 0.9718
5.3534 -4.0372 -2.5038 0.9718
5.9850 -3.0244 -2.5040 0.9718
6.5719 -1.3358 -2.5042 0.9718
6.7045 -0.1494 -2.5041 0.9718
6.6910 0.4479 -2.5041 0.9718
6.6243 1.0416 -2.5040 0.9718
6.5050 1.6270 -2.5039 0.9718
9.1686 4.1312 -3.7551 0.9580
5.1897 3.5625 -2.3505 0.9735
4.8515 4.0099 -2.3503 0.9735
4.0628 4.8055 -2.3498 0.9735
3.6185 5.1474 -2.3495 0.9735
3.1456 5.4484 -2.3492 0.9735
1.0459 6.2003 -2.3480 0.9735
0.4898 6.2679 -2.3477 0.9735
-0.6291 6.2538 -2.3470 0.9735
-4.6926 4.4382 -2.4118 0.9728
-5.2480 4.1443 -2.4970 0.9719
-5.5957 3.6606 -2.4969 0.9719
-5.8990 3.1478 -2.4968 0.9719
-6.1555 2.6102 -2.4967 0.9719
-6.3633 2.0519 -2.4966 0.9719
-6.5206 1.4773 -2.4966 0.9719
-6.6262 0.8911 -2.4966 0.9719
-3.7910 0.1690 -1.4170 0.9839
-3.0832 -0.1375 -1.1525 0.9869
-2.9106 -0.9386 -1.1419 0.9870
-6.1568 -2.6107 -2.4972 0.9719
-5.9004 -3.1486 -2.4973 0.9718
-4.8603 -4.5969 -2.4981 0.9718
-3.9692 -5.3871 -2.4986 0.9718
-2.9519 -6.0070 -2.4993 0.9718
-1.8406 -6.4369 -2.4999 0.9718
-0.6703 -6.6631 -2.5006 0.9718
-0.0746 -6.6972 -2.5010 0.9718
0.5219 -6.6781 -2.5013 0.9718
1.1143 -6.6061 -2.5016 0.9718
1.6981 -6.4814 -2.5019 0.9718
2.2685 -6.3054 -2.5022 0.9718
2.8210 -6.0791 -2.5025 0.9718
3.3513 -5.8046 -2.5028 0.9718
3.8550 -5.4838 -2.5030 0.9718
4.7670 -4.7142 -2.5035 0.9718
5.5281 -3.7948 -2.5038 0.9718
6.1139 -2.7548 -2.5041 0.9718
6.3350 -2.1998 -2.5041 0.9718
6.6248 -1.0417 -2.5042 0.9718
6.7044 0.1494 -2.5041 0.9718
6.6643 0.7455 -2.5040 0.9718
6.5712 1.3357 -2.5039 0.9718
9.3438 3.7187 -3.7553 0.9580
5.3435 3.3279 -2.3507 0.9735
4.6678 4.2218 -2.3502 0.9735
3.3854 5.3032 -2.3494 0.9735
2.8996 5.5828 -2.3491 0.9735
2.3909 5.8179 -2.3488 0.9735
0.2101 6.2831 -2.3475 0.9735
-2.5170 5.7564 -2.3460 0.9735
-3.9471 4.8854 -2.3453 0.9735
-4.3659 4.5144 -2.3451 0.9735
-6.0333 2.8819 -2.4967 0.9719
-6.2656 2.3333 -2.4966 0.9719
-6.4483 1.7664 -2.4966 0.9719
-6.5799 1.1854 -2.4966 0.9719
-4.2614 0.3808 -1.5976 0.9819
-3.2641 0.0000 -1.2811 0.9861
-2.9005 -0.2592 -1.1429 0.9876
-2.8518 -0.5138 -1.1373 0.9876
-2.8528 -1.0624 -1.1947 0.9870
-4.8145 -4.1633 -2.4981 0.9730
-3.5447 -5.2890 -2.4989 0.9730
-2.0222 -6.0399 -2.4998 0.9730
-1.4767 -6.1967 -2.5001 0.9730
0.2129 -6.3691 -2.5011 0.9730
0.7791 -6.3257 -2.5014 0.9730
1.8888 -6.0888 -2.5020 0.9730
2.4235 -5.8972 -2.5023 0.9730
4.3308 -4.6824 -2.5032 0.9730
5.6940 -2.8773 -2.5038 0.9730
5.9277 -2.3592 -2.5039 0.9730
6.2522 -1.2708 -2.5040 0.9730
6.3405 -0.7093 -2.5040 0.9730
6.3784 -0.1421 -2.5040 0.9730
6.3656 0.4262 -2.5039 0.9730
6.3022 0.9910 -2.5038 0.9730
6.1887 1.5479 -2.5037 0.9730
5.6684 2.5540 -2.4401 0.9736
5.2199 2.9367 -2.3506 0.9746
3.8653 4.5720 -2.3497 0.9746
3.4427 4.8973 -2.3494 0.9746
2.9928 5.1836 -2.3492 0.9746
0.4660 5.9636 -2.3477 0.9746
-0.5986 5.9502 -2.3471 0.9746
-1.1257 5.8726 -2.3468 0.9746
-2.1486 5.5786 -2.3462 0.9746
-3.9645 4.4828 -2.3487 0.9746
-4.9935 3.9433 -2.4972 0.9730
-5.3243 3.4830 -2.4970 0.9730
-5.6129 2.9952 -2.4969 0.9730
-5.8570 2.4836 -2.4968 0.9730
-6.2044 1.4057 -2.4967 0.9730
-3.6456 0.1625 -1.4322 0.9844
-3.0071 -0.1341 -1.1814 0.9871
-2.8734 -0.3864 -1.1379 0.9876
-2.8326 -0.6418 -1.1399 0.9876
-5.6142 -2.9958 -2.4975 0.9730
-3.3058 -5.4420 -2.4990 0.9730
-2.8086 -5.7154 -2.4993 0.9730
-1.1993 -6.2567 -2.5003 0.9730
0.4965 -6.3537 -2.5012 0.9730
1.0602 -6.2851 -2.5016 0.9730
1.6156 -6.1665 -2.5019 0.9730
3.1884 -5.5224 -2.5027 0.9730
3.6676 -5.2172 -2.5029 0.9730
4.1178 -4.8705 -2.5031 0.9730
5.2593 -3.6103 -2.5037 0.9730
5.8166 -2.6208 -2.5039 0.9730
6.0270 -2.0928 -2.5040 0.9730
6.3658 -0.4261 -2.5040 0.9730
6.2516 1.2707 -2.5038 0.9730
6.1134 1.8220 -2.5036 0.9730
8.8895 3.5379 -3.7550 0.9597
5.3458 2.7013 -2.3507 0.9746
4.0654 4.3954 -2.3498 0.9746
0.1999 5.9780 -2.3475 0.9746
-0.3330 5.9713 -2.3472 0.9746
-1.3861 5.8162 -2.3466 0.9746
-2.3948 5.4771 -2.3461 0.9746
-2.8725 5.2417 -2.3459 0.9746
-3.3273 4.9647 -2.3456 0.9746
-3.7557 4.6484 -2.3454 0.9746
-4.2144 4.3576 -2.3792 0.9743
-5.4741 3.2423 -2.4970 0.9730
-5.7407 2.7421 -2.4969 0.9730
-6.2608 1.1279 -2.4967 0.9730
-4.1297 0.3690 -1.6273 0.9823
-3.1614 -0.0000 -1.3018 0.9864
-2.8130 -0.2514 -1.1629 0.9879
-2.7831 -0.5014 -1.1645 0.9878
-5.4729 -2.6142 -2.4975 0.9741
-4.5889 -3.9682 -2.4982 0.9741
-4.2179 -4.3613 -2.4984 0.9741
-3.8134 -4.7199 -2.4987 0.9741
-2.4318 -5.5616 -2.4995 0.9741
-1.9273 -5.7567 -2.4998 0.9741
-0.8763 -6.0087 -2.5004 0.9741
-0.3381 -6.0636 -2.5007 0.9741
1.2763 -5.9396 -2.5016 0.9741
2.3097 -5.6204 -2.5022 0.9741
4.5086 -4.0778 -2.5033 0.9740
4.8540 -3.6605 -2.5034 0.9740
5.1608 -3.2142 -2.5036 0.9740
5.4266 -2.7422 -2.5037 0.9740
5.9586 -1.2112 -2.5038 0.9740
6.0428 -0.6760 -2.5038 0.9740
6.0789 -0.1354 -2.5038 0.9740
4.9749 2.7988 -2.3505 0.9756
4.0576 4.0126 -2.3499 0.9756
3.6840 4.3574 -2.3496 0.9756
2.4010 5.1741 -2.3488 0.9756
1.9307 5.3666 -2.3485 0.9756
1.4453 5.5165 -2.3483 0.9756
0.9484 5.6226 -2.3480 0.9756
-0.0635 5.7002 -2.3474 0.9756
-1.0729 5.5973 -2.3468 0.9756
-2.0479 5.3172 -2.3463 0.9757
-3.3789 4.5860 -2.3456 0.9757
-3.7924 4.2881 -2.3572 0.9755
-5.5827 2.3673 -2.4970 0.9741
-5.7711 1.8610 -2.4969 0.9741
-5.9138 1.3399 -2.4969 0.9741
-2.9337 -0.1308 -1.2092 0.9874
-2.7947 -0.3759 -1.1611 0.9879
-2.7775 -0.8956 -1.2017 0.9875
-2.8016 -1.1880 -1.2531 0.9869
-5.3512 -2.8555 -2.4976 0.9741
-5.0762 -3.3207 -2.4978 0.9741
-4.7609 -3.7597 -2.4980 0.9741
-3.5996 -4.8854 -2.4988 0.9741
-3.1508 -5.1870 -2.4991 0.9741
-2.1817 -5.6648 -2.4997 0.9741
-1.1431 -5.9633 -2.5003 0.9741
0.4732 -6.0557 -2.5012 0.9741
2.0570 -5.7174 -2.5021 0.9741
2.5580 -5.5122 -2.5023 0.9741
3.0387 -5.2632 -2.5026 0.9741
3.4954 -4.9723 -2.5028 0.9741
4.3223 -4.2745 -2.5032 0.9740
4.6860 -3.8730 -2.5034 0.9740
5.5435 -2.4978 -2.5037 0.9740
5.8988 -1.4754 -2.5038 0.9740
6.0669 -0.4062 -2.5038 0.9740
6.0425 0.6760 -2.5037 0.9740
5.9581 1.2110 -2.5036 0.9740
5.8264 1.7364 -2.5035 0.9740
8.4722 3.3718 -3.7548 0.9613
4.5569 3.4365 -2.3502 0.9756
4.2325 3.8281 -2.3500 0.9756
3.8746 4.1892 -2.3497 0.9756
2.6293 5.0623 -2.3490 0.9756
1.6897 5.4470 -2.3484 0.9756
0.1905 5.6977 -2.3475 0.9756
-0.3174 5.6914 -2.3473 0.9756
-1.8091 5.4035 -2.3464 0.9757
-2.2826 5.2204 -2.3462 0.9757
-2.7379 4.9961 -2.3460 0.9757
-3.5797 4.4307 -2.3455 0.9757
-4.1915 4.3340 -2.4827 0.9743
-4.9222 3.5428 -2.4973 0.9741
-5.2177 3.0904 -2.4971 0.9741
-5.4718 2.6137 -2.4970 0.9741
-5.9676 1.0751 -2.4969 0.9741
-3.0794 0.0000 -1.3283 0.9867
-2.7278 -0.4914 -1.1956 0.9880
-2.7884 -1.6516 -1.3980 0.9860
-4.7002 -3.3830 -2.4980 0.9751
-4.3809 -3.7883 -2.4983 0.9751
-3.6405 -4.5059 -2.4987 0.9751
-3.2253 -4.8125 -2.4990 0.9751
-2.7845 -5.0811 -2.4993 0.9751
-2.3215 -5.3093 -2.4996 0.9751
-0.8366 -5.7360 -2.5004 0.9751
-0.3228 -5.7884 -2.5007 0.9751
0.7088 -5.7552 -2.5013 0.9751
1.2184 -5.6699 -2.5016 0.9751
1.7184 -5.5396 -2.5019 0.9751
2.2048 -5.3652 -2.5021 0.9750
2.6739 -5.1481 -2.5024 0.9750
3.5449 -4.5933 -2.5028 0.9750
4.3038 -3.8925 -2.5032 0.9750
4.6334 -3.4942 -2.5033 0.9750
5.3926 -2.1462 -2.5036 0.9750
5.6879 -1.1561 -2.5037 0.9750
5.8027 -0.1293 -2.5036 0.9750
5.7333 0.9015 -2.5035 0.9750
5.4821 1.9036 -2.5033 0.9750
5.2906 2.3838 -2.5031 0.9750
4.8277 2.7160 -2.3894 0.9762
4.4919 3.0835 -2.3502 0.9765
3.5167 4.1596 -2.3496 0.9766
2.2920 4.9392 -2.3488 0.9766
1.8431 5.1230 -2.3485 0.9766
1.3797 5.2661 -2.3482 0.9766
-0.0606 5.4416 -2.3474 0.9766
-0.5447 5.4140 -2.3471 0.9766
-1.0242 5.3434 -2.3469 0.9766
-1.9550 5.0761 -2.3464 0.9766
-2.3988 4.8815 -2.3462 0.9766
-3.7700 4.2628 -2.4548 0.9755
-4.2067 3.9787 -2.4976 0.9751
-4.5438 3.5882 -2.4975 0.9751
-5.3297 2.2600 -2.4972 0.9751
-5.5096 1.7766 -2.4971 0.9751
-5.6458 1.2792 -2.4971 0.9751
-5.7372 0.7716 -2.4971 0.9751
-3.3811 0.1507 -1.4599 0.9854
-2.7334 -1.1591 -1.2807 0.9871
-5.1086 -2.7260 -2.4978 0.9751
-4.5451 -3.5892 -2.4981 0.9751
-3.0079 -4.9517 -2.4991 0.9751
-1.5934 -5.5723 -2.5000 0.9751
-1.0912 -5.6927 -2.5003 0.9751
-0.5803 -5.7679 -2.5006 0.9751
-0.0646 -5.7973 -2.5009 0.9751
0.4517 -5.7807 -2.5012 0.9751
3.3367 -4.7464 -2.5027 0.9750
4.7846 -3.2845 -2.5034 0.9750
5.2916 -2.3843 -2.5036 0.9750
5.7337 -0.9016 -2.5037 0.9750
5.8026 0.1293 -2.5036 0.9750
5.7679 0.6453 -2.5035 0.9750
5.6874 1.1560 -2.5035 0.9750
5.5616 1.6576 -2.5033 0.9750
5.1790 2.6171 -2.5030 0.9750
4.6250 2.8805 -2.3503 0.9765
4.0403 3.6542 -2.3499 0.9765
3.3277 4.3118 -2.3494 0.9766
2.9304 4.5904 -2.3492 0.9766
1.6130 5.1997 -2.3484 0.9766
1.1436 5.3220 -2.3481 0.9766
0.1818 5.4392 -2.3476 0.9766
-0.3029 5.4332 -2.3473 0.9766
-2.1791 4.9837 -2.3463 0.9766
-2.6138 4.7695 -2.3460 0.9766
-4.6990 3.3822 -2.4974 0.9751
-5.2238 2.4952 -2.4972 0.9751
-5.4250 2.0203 -2.4971 0.9751
-3.8265 0.3419 -1.6572 0.9834
-2.6738 -0.4817 -1.2259 0.9881
-2.6546 -0.7272 -1.2419 0.9880
-2.6607 -0.9909 -1.2811 0.9876
-2.6666 -1.2737 -1.3334 0.9871
-4.4935 -3.2343 -2.4981 0.9760
-3.0834 -4.6008 -2.4991 0.9760
-2.6620 -4.8575 -2.4993 0.9760
-1.7589 -5.2537 -2.4999 0.9760
-0.7997 -5.4835 -2.5004 0.9760
0.1852 -5.5397 -2.5010 0.9760
1.1647 -5.4202 -2.5015 0.9760
1.6427 -5.2956 -2.5018 0.9760
2.1077 -5.1289 -2.5020 0.9760
2.5561 -4.9214 -2.5023 0.9760
3.7664 -4.0722 -2.5029 0.9760
4.4293 -3.3403 -2.5032 0.9759
4.7092 -2.9329 -2.5033 0.9759
4.9518 -2.5022 -2.5034 0.9759
5.3172 -1.5847 -2.5035 0.9759
5.5469 -0.1236 -2.5035 0.9759
5.2406 1.8197 -2.5031 0.9759
5.0575 2.2788 -2.5030 0.9760
4.2940 2.9477 -2.3501 0.9774
3.3618 3.9763 -2.3495 0.9774
2.9942 4.2593 -2.3492 0.9774
2.6030 4.5085 -2.3490 0.9774
2.1911 4.7218 -2.3488 0.9774
1.3189 5.0343 -2.3482 0.9774
-0.5207 5.1758 -2.3472 0.9774
-1.4298 5.0004 -2.3467 0.9774
-1.8690 4.8528 -2.3465 0.9774
-2.2933 4.6668 -2.3462 0.9774
-2.6994 4.4437 -2.3460 0.9774
-3.0839 4.1855 -2.3458 0.9774
-4.3441 3.4304 -2.4976 0.9760
-4.8830 2.6057 -2.4974 0.9760
-5.3976 1.2229 -2.4972 0.9760
-5.4850 0.7377 -2.4972 0.9760
-3.2609 0.1454 -1.4728 0.9858
-2.7833 -0.1241 -1.2571 0.9878
-2.6659 -0.6040 -1.2334 0.9881
-2.6574 -0.8569 -1.2599 0.9878
-2.6675 -1.1311 -1.3074 0.9874
-4.8840 -2.6062 -2.4979 0.9760
-4.3452 -3.4314 -2.4982 0.9760
-2.8756 -4.7338 -2.4992 0.9760
-0.5547 -5.5140 -2.5006 0.9760
0.4318 -5.5262 -2.5011 0.9760
0.9221 -5.4664 -2.5014 0.9760
1.4051 -5.3633 -2.5017 0.9760
1.8771 -5.2174 -2.5019 0.9760
2.3342 -5.0301 -2.5022 0.9760
2.7729 -4.8029 -2.5024 0.9760
3.5811 -4.2358 -2.5028 0.9760
4.8353 -2.7203 -2.5033 0.9759
5.0584 -2.2792 -2.5034 0.9759
5.3826 -1.3463 -2.5035 0.9759
5.4810 -0.8618 -2.5035 0.9759
5.5360 -0.3706 -2.5035 0.9759
5.5137 0.6168 -2.5034 0.9759
5.1542 2.0513 -2.5031 0.9760
4.4694 2.7836 -2.3758 0.9772
3.8623 3.4933 -2.3498 0.9774
3.1812 4.1219 -2.3494 0.9774
2.8014 4.3883 -2.3491 0.9774
2.3994 4.6197 -2.3489 0.9774
1.5420 4.9709 -2.3484 0.9774
1.0933 5.0878 -2.3481 0.9774
0.6360 5.1643 -2.3478 0.9774
0.1739 5.1999 -2.3476 0.9774
-0.2896 5.1941 -2.3473 0.9774
-0.7507 5.1471 -2.3471 0.9774
-2.0832 4.7645 -2.3463 0.9774
-3.3917 4.1979 -2.4351 0.9766
-3.8484 3.9792 -2.4978 0.9760
-4.1871 3.6207 -2.4977 0.9760
-4.4925 3.2335 -2.4975 0.9760
-5.1865 1.9315 -2.4973 0.9760
-5.3378 1.4622 -2.4972 0.9760
-5.4467 0.9812 -2.4972 0.9760
-3.7666 0.3366 -1.7063 0.9835
-2.6016 -0.7127 -1.2715 0.9881
-2.6052 -1.2444 -1.3609 0.9873
-4.3015 -3.0961 -2.4982 0.9768
-4.0092 -3.4669 -2.4984 0.9768
-3.6850 -3.8103 -2.4987 0.9768
-2.9516 -4.4041 -2.4991 0.9768
-2.1244 -4.8587 -2.4996 0.9768
-0.7655 -5.2490 -2.5004 0.9768
-0.2953 -5.2969 -2.5007 0.9768
0.1773 -5.3027 -2.5010 0.9768
0.6486 -5.2664 -2.5012 0.9768
1.1149 -5.1883 -2.5015 0.9768
1.5724 -5.0690 -2.5017 0.9768
2.0175 -4.9094 -2.5020 0.9768
2.4467 -4.7107 -2.5022 0.9768
2.8565 -4.4746 -2.5024 0.9768
3.2437 -4.2030 -2.5026 0.9768
3.9380 -3.5617 -2.5029 0.9768
4.2396 -3.1973 -2.5031 0.9768
4.5076 -2.8073 -2.5032 0.9768
5.0895 -1.5168 -2.5034 0.9768
5.2779 -0.5904 -2.5034 0.9768
5.3094 -0.1183 -2.5034 0.9768
5.2988 0.3547 -2.5033 0.9768
5.2460 0.8249 -2.5032 0.9768
5.1516 1.2885 -2.5031 0.9768
5.0162 1.7418 -2.5030 0.9768
3.8424 3.1759 -2.3498 0.9782
3.5442 3.5049 -2.3496 0.9782
1.6866 4.6880 -2.3485 0.9782
1.2625 4.8190 -2.3482 0.9782
-0.4984 4.9545 -2.3472 0.9782
-0.9373 4.8899 -2.3470 0.9782
-1.3687 4.7866 -2.3467 0.9782
-2.5840 4.2538 -2.3461 0.9782
-3.0490 4.1381 -2.4229 0.9775
-3.5108 3.9697 -2.4980 0.9768
-4.1585 3.2839 -2.4977 0.9768
-4.8777 2.0684 -2.4974 0.9768
-5.2507 0.7062 -2.4973 0.9768
-2.6352 -0.3544 -1.2533 0.9883
-2.5994 -0.8382 -1.2874 0.9880
-2.6038 -1.1041 -1.3332 0.9876
-4.1595 -3.2847 -2.4983 0.9768
-3.5118 -3.9709 -2.4988 0.9768
-2.3386 -4.7590 -2.4995 0.9768
-1.9060 -4.9488 -2.4998 0.9768
-0.5310 -5.2782 -2.5006 0.9768
-0.0591 -5.3050 -2.5008 0.9768
0.4134 -5.2898 -2.5011 0.9768
0.8826 -5.2326 -2.5014 0.9768
1.3450 -5.1338 -2.5016 0.9768
2.2343 -4.8149 -2.5021 0.9768
3.0531 -4.3431 -2.5025 0.9768
4.0929 -3.3829 -2.5030 0.9768
4.3780 -3.0053 -2.5031 0.9768
4.8418 -2.1816 -2.5033 0.9768
5.2040 1.0578 -2.5032 0.9768
5.0890 1.5167 -2.5031 0.9768
4.4474 2.7699 -2.4697 0.9771
3.6970 3.3437 -2.3497 0.9782
3.0450 3.9455 -2.3493 0.9782
2.6815 4.2005 -2.3491 0.9782
2.2968 4.4221 -2.3488 0.9782
1.0465 4.8702 -2.3481 0.9782
0.1664 4.9775 -2.3476 0.9782
-0.2772 4.9720 -2.3473 0.9782
-1.5805 4.7207 -2.3466 0.9782
-1.9942 4.5609 -2.3464 0.9782
-2.7707 4.1343 -2.3460 0.9782
-3.3306 4.1223 -2.4981 0.9768
-3.6840 3.8092 -2.4979 0.9768
-4.0082 3.4660 -2.4978 0.9768
-4.5588 2.7001 -2.4975 0.9768
-4.9650 1.8490 -2.4974 0.9768
-5.1098 1.3997 -2.4974 0.9768
-5.2141 0.9393 -2.4973 0.9768
-3.7077 0.3313 -1.7547 0.9837
-2.5903 -0.2315 -1.2791 0.9885
-2.5499 -0.6985 -1.3004 0.9883
-2.5457 -1.2160 -1.3876 0.9875
-4.3700 -2.5884 -2.4982 0.9776
-3.5317 -3.6518 -2.4987 0.9776
-3.1930 -3.9520 -2.4989 0.9776
-1.1784 -4.9447 -2.5002 0.9776
-0.2831 -5.0763 -2.5007 0.9776
0.1699 -5.0819 -2.5009 0.9776
0.6216 -5.0471 -2.5012 0.9776
1.0685 -4.9722 -2.5014 0.9776
2.3448 -4.5145 -2.5021 0.9776
3.4549 -3.7354 -2.5027 0.9776
4.0629 -3.0640 -2.5029 0.9776
4.9875 -1.0137 -2.5033 0.9776
5.0579 -0.5658 -2.5033 0.9776
5.0881 -0.1134 -2.5032 0.9776
5.0779 0.3399 -2.5032 0.9776
5.0274 0.7905 -2.5031 0.9776
4.8072 1.6692 -2.5029 0.9776
4.4345 2.4948 -2.5026 0.9776
4.1232 2.8305 -2.4599 0.9780
3.0839 3.6476 -2.3494 0.9789
2.3878 4.1358 -2.3489 0.9789
1.6164 4.4928 -2.3485 0.9789
1.2099 4.6184 -2.3482 0.9789
0.7940 4.7072 -2.3480 0.9789
0.3719 4.7587 -2.3477 0.9789
-0.0532 4.7724 -2.3475 0.9789
-0.4777 4.7483 -2.3472 0.9790
-0.8983 4.6864 -2.3470 0.9790
-1.7147 4.4521 -2.3466 0.9790
-3.3647 3.8046 -2.4981 0.9776
-3.9855 3.1473 -2.4978 0.9776
-4.2496 2.7800 -2.4977 0.9776
-4.8327 1.5584 -2.4975 0.9776
-5.0324 0.6768 -2.4975 0.9776
-2.5430 -0.8200 -1.3142 0.9882
-2.5301 -1.3501 -1.4105 0.9873
-4.2505 -2.7806 -2.4982 0.9776
-3.3657 -3.8056 -2.4988 0.9776
-3.0139 -4.0904 -2.4991 0.9776
-2.6381 -4.3429 -2.4993 0.9776
-1.8266 -4.7428 -2.4998 0.9776
-0.0566 -5.0841 -2.5008 0.9776
0.3961 -5.0695 -2.5011 0.9776
1.2890 -4.9199 -2.5016 0.9776
1.7219 -4.7861 -2.5018 0.9776
2.1412 -4.6143 -2.5020 0.9776
2.5436 -4.4057 -2.5022 0.9776
3.6180 -3.5779 -2.5027 0.9776
4.1955 -2.8800 -2.5030 0.9776
4.8078 -1.6694 -2.5032 0.9776
4.9373 -1.2349 -2.5033 0.9776
5.0781 -0.3399 -2.5033 0.9776
5.0881 0.1134 -2.5032 0.9776
5.0577 0.5658 -2.5032 0.9776
4.9871 1.0137 -2.5031 0.9776
4.8769 1.4535 -2.5030 0.9776
4.5414 2.2949 -2.5027 0.9776
3.2434 3.5067 -2.3495 0.9789
2.9182 3.7812 -2.3492 0.9789
2.5698 4.0256 -2.3490 0.9789
2.2011 4.2379 -2.3488 0.9789
1.8150 4.4165 -2.3486 0.9789
1.4146 4.5601 -2.3483 0.9789
1.0030 4.6674 -2.3481 0.9789
0.5835 4.7377 -2.3478 0.9789
0.1595 4.7703 -2.3476 0.9789
-0.6887 4.7220 -2.3471 0.9790
-1.9112 4.3711 -2.3465 0.9790
-2.2925 4.1833 -2.3463 0.9790
-2.7360 4.0824 -2.4172 0.9783
-3.8415 3.3218 -2.4979 0.9776
-4.3692 2.5879 -2.4977 0.9776
-4.7585 1.7721 -2.4975 0.9776
-4.8973 1.3415 -2.4975 0.9776
-4.9972 0.9003 -2.4975 0.9776
-3.6334 0.3247 -1.7942 0.9839
-2.7481 -0.0000 -1.4089 0.9877
-2.5199 -0.4540 -1.3126 0.9886
-2.4895 -0.9271 -1.3619 0.9881
-3.9553 -2.8469 -2.4984 0.9783
-3.6865 -3.1879 -2.4986 0.9783
-3.0634 -3.7916 -2.4990 0.9783
-2.7140 -4.0496 -2.4992 0.9783
-1.9534 -4.4674 -2.4997 0.9783
-1.5481 -4.6241 -2.4999 0.9783
-1.1305 -4.7439 -2.5002 0.9783
0.1630 -4.8755 -2.5009 0.9783
1.0251 -4.7703 -2.5014 0.9783
1.4457 -4.6605 -2.5016 0.9783
2.2495 -4.3311 -2.5020 0.9783
2.9822 -3.8642 -2.5024 0.9783
3.8978 -2.9395 -2.5028 0.9783
4.3576 -2.2020 -2.5030 0.9783
4.5364 -1.8054 -2.5031 0.9783
4.8523 -0.5428 -2.5031 0.9783
4.8813 -0.1088 -2.5031 0.9783
4.8715 0.3261 -2.5031 0.9783
4.8230 0.7584 -2.5030 0.9783
4.6118 1.6014 -2.5028 0.9783
4.2543 2.3934 -2.5025 0.9783
3.5667 2.9479 -2.3723 0.9794
3.2586 3.2225 -2.3495 0.9796
2.9586 3.4994 -2.3493 0.9796
2.6351 3.7485 -2.3491 0.9796
1.1608 4.4308 -2.3482 0.9796
0.7618 4.5161 -2.3480 0.9796
-0.4583 4.5555 -2.3473 0.9796
-0.8619 4.4963 -2.3471 0.9796
-2.0186 4.1077 -2.3464 0.9796
-3.5401 3.3482 -2.4981 0.9783
-4.0773 2.6672 -2.4978 0.9783
-4.2983 2.2937 -2.4977 0.9783
-4.4853 1.9019 -2.4977 0.9783
-4.6367 1.4951 -2.4976 0.9783
-4.7513 1.0765 -2.4976 0.9783
-4.8283 0.6494 -2.4976 0.9783
-2.9775 0.1327 -1.5280 0.9867
-2.5350 -0.3409 -1.3113 0.9886
-2.5113 -0.5690 -1.3201 0.9885
-2.4881 -0.8023 -1.3403 0.9883
-2.4717 -1.3190 -1.4363 0.9875
-2.8916 -3.9245 -2.4991 0.9783
-1.7525 -4.5502 -2.4998 0.9783
-0.9181 -4.7898 -2.5003 0.9783
-0.0543 -4.8777 -2.5008 0.9783
0.3801 -4.8636 -2.5010 0.9783
2.4403 -4.2267 -2.5021 0.9783
2.8070 -3.9930 -2.5023 0.9783
3.4710 -3.4325 -2.5026 0.9783
3.7629 -3.1101 -2.5028 0.9783
4.0250 -2.7630 -2.5029 0.9783
4.2551 -2.3939 -2.5030 0.9783
4.7367 -1.1847 -2.5031 0.9783
4.8717 -0.3261 -2.5031 0.9783
4.7844 0.9725 -2.5030 0.9783
4.5358 1.8052 -2.5027 0.9783
4.1433 2.5805 -2.5025 0.9783
2.4654 3.8620 -2.3490 0.9796
1.7413 4.2372 -2.3485 0.9796
0.5598 4.5453 -2.3479 0.9796
-0.2549 4.5716 -2.3474 0.9796
-0.6607 4.5304 -2.3472 0.9796
-1.0612 4.4532 -2.3469 0.9796
-1.4533 4.3406 -2.3467 0.9796
-1.8337 4.1937 -2.3465 0.9796
-2.7132 4.0483 -2.4985 0.9783
-3.0625 3.7905 -2.4983 0.9783
-3.3875 3.5027 -2.4981 0.9783
-2.6714 -0.0000 -1.4261 0.9880
-2.3944 -1.4182 -1.4856 0.9875
-3.2541 -3.3647 -2.4989 0.9790
-2.9420 -3.6413 -2.4991 0.9790
-2.6064 -3.8890 -2.4993 0.9790
-2.2501 -4.1059 -2.4995 0.9790
-1.8759 -4.2903 -2.4997 0.9790
-1.4867 -4.4407 -2.4999 0.9790
-1.0857 -4.5558 -2.5002 0.9790
0.1565 -4.6821 -2.5009 0.9790
0.9844 -4.5810 -2.5014 0.9790
1.3883 -4.4755 -2.5016 0.9790
1.7813 -4.3346 -2.5018 0.9790
2.1602 -4.1592 -2.5020 0.9790
3.7431 -2.8228 -2.5027 0.9790
4.1846 -2.1146 -2.5029 0.9790
4.5948 -0.9340 -2.5030 0.9790
4.6875 -0.1045 -2.5030 0.9790
4.6315 0.7282 -2.5029 0.9790
4.5482 1.1376 -2.5028 0.9790
4.4287 1.5378 -2.5027 0.9790
4.2740 1.9258 -2.5026 0.9790
3.8644 2.6528 -2.5023 0.9790
3.5505 2.9345 -2.4590 0.9793
2.8412 3.3606 -2.3492 0.9802
2.5306 3.5998 -2.3490 0.9802
2.1999 3.8104 -2.3488 0.9802
1.8519 3.9907 -2.3486 0.9802
1.4892 4.1393 -2.3484 0.9803
1.1148 4.2550 -2.3482 0.9803
0.7315 4.3370 -2.3480 0.9803
