ply
format ascii 1.0
element vertex 1589
property float32 x
property float32 y
property float32 z
property float32 I
end_header
12.3894 -6.9701 -2.5066 0.9439
12.9622 -5.8405 -2.5069 0.9439
13.4318 -4.6640 -2.5071 0.9439
13.7943 -3.4502 -2.5072 0.9439
14.1875 -0.9497 -2.5072 0.9439
14.2150 0.3168 -2.5071 0.9439
13.2664 1.4841 -2.3538 0.9472
12.7895 3.8117 -2.3532 0.9472
12.3972 4.9340 -2.3527 0.9472
11.3207 7.0506 -2.3516 0.9473
9.0476 9.7822 -2.3495 0.9473
7.1648 11.2235 -2.3479 0.9474
6.1352 11.8123 -2.3470 0.9474
5.0575 12.3068 -2.3461 0.9474
2.7932 12.9983 -2.3443 0.9474
0.4439 13.2770 -2.3424 0.9475
-3.0761 12.9077 -2.3397 0.9475
-5.3122 12.1493 -2.3381 0.9476
-10.7451 7.7339 -2.3344 0.9476
-13.5928 3.7235 -2.4851 0.9444
-13.8699 2.4988 -2.4850 0.9444
-12.8469 0.0000 -2.4861 0.9490
-12.7968 -1.1435 -2.4863 0.9490
-11.6000 -5.5408 -2.4878 0.9490
-10.4386 -7.5133 -2.4889 0.9489
-9.7311 -8.4148 -2.4896 0.9489
-8.9460 -9.2501 -2.4903 0.9489
-4.0923 -12.2229 -2.4944 0.9488
-1.8616 -12.7641 -2.4962 0.9488
-0.7184 -12.8837 -2.4971 0.9488
0.4313 -12.9012 -2.4980 0.9488
2.7138 -12.6291 -2.4998 0.9487
4.9132 -11.9556 -2.5014 0.9487
5.9596 -11.4743 -2.5021 0.9487
6.9592 -10.9014 -2.5028 0.9487
8.7862 -9.4995 -2.5041 0.9486
10.3354 -7.7943 -2.5051 0.9486
10.9898 -6.8445 -2.5055 0.9486
11.5569 -5.8400 -2.5058 0.9486
12.0320 -4.7886 -2.5060 0.9486
12.4112 -3.6989 -2.5062 0.9486
12.6916 -2.5797 -2.5063 0.9486
12.9475 -0.2885 -2.5062 0.9486
11.7932 2.9497 -2.3525 0.9517
11.4820 3.9870 -2.3521 0.9517
11.0795 4.9922 -2.3517 0.9517
10.5890 5.9573 -2.3512 0.9517
10.0144 6.8745 -2.3506 0.9517
9.3603 7.7365 -2.3500 0.9517
8.6321 8.5365 -2.3494 0.9517
7.8357 9.2681 -2.3486 0.9518
5.1036 10.9980 -2.3463 0.9518
4.1030 11.4046 -2.3455 0.9518
3.0706 11.7203 -2.3446 0.9518
0.9432 12.0703 -2.3429 0.9519
-0.1348 12.1020 -2.3421 0.9519
-1.2110 12.0377 -2.3413 0.9519
-2.2768 11.8781 -2.3405 0.9519
-3.3239 11.6244 -2.3397 0.9519
-4.3439 11.2788 -2.3389 0.9520
-6.2712 10.3237 -2.3375 0.9520
-5.3300 7.2339 -1.7388 0.9641
-8.7695 8.2941 -2.3359 0.9520
-9.4711 7.4793 -2.3354 0.9520
-12.2269 3.9427 -2.4861 0.9490
-12.5288 2.8387 -2.4860 0.9490
-12.7317 1.7123 -2.4860 0.9490
-12.7338 -1.7125 -2.4864 0.9490
-12.5323 -2.8394 -2.4867 0.9490
-11.8342 -5.0181 -2.4875 0.9490
-11.3429 -6.0527 -2.4880 0.9490
-10.7616 -7.0399 -2.4886 0.9490
-10.0949 -7.9718 -2.4892 0.9489
-9.3479 -8.8412 -2.4899 0.9489
-8.5264 -9.6409 -2.4906 0.9489
-7.6368 -10.3648 -2.4914 0.9489
-6.6862 -11.0070 -2.4922 0.9489
-5.6819 -11.5623 -2.4931 0.9489
-4.6319 -12.0264 -2.4940 0.9488
-1.2914 -12.8367 -2.4967 0.9488
-0.1438 -12.9053 -2.4976 0.9488
1.0058 -12.8715 -2.4985 0.9488
2.1482 -12.7353 -2.4993 0.9487
4.3751 -12.1607 -2.5010 0.9487
6.4658 -11.1991 -2.5025 0.9487
9.2017 -9.0997 -2.5044 0.9486
9.9771 -8.2462 -2.5049 0.9486
10.6732 -7.3267 -2.5053 0.9486
11.2846 -6.3486 -2.5056 0.9486
11.8062 -5.3196 -2.5059 0.9486
12.5639 -3.1424 -2.5062 0.9486
12.9220 -0.8650 -2.5062 0.9486
12.9471 0.2886 -2.5061 0.9486
11.2920 4.4941 -2.3519 0.9517
10.8450 5.4803 -2.3514 0.9517
10.3119 6.4223 -2.3509 0.9517
8.2421 8.9112 -2.3490 0.9517
7.4139 9.6065 -2.3483 0.9518
4.6078 11.2125 -2.3459 0.9518
3.5903 11.5740 -2.3451 0.9518
2.5450 11.8433 -2.3442 0.9518
1.4802 12.0185 -2.3434 0.9519
-2.8032 11.7629 -2.3401 0.9519
-6.7239 10.0328 -2.3372 0.9520
-9.1294 7.8945 -2.3356 0.9520
-10.3811 6.1487 -2.3349 0.9520
-11.5937 5.5379 -2.4864 0.9490
-12.6427 2.2777 -2.4860 0.9490
-11.7504 -1.0500 -2.4871 0.9529
-11.6114 -2.0919 -2.4873 0.9529
-11.3805 -3.1174 -2.4876 0.9529
-11.0596 -4.1186 -2.4880 0.9529
-10.6509 -5.0875 -2.4884 0.9529
-9.5842 -6.8983 -2.4895 0.9529
-8.9344 -7.7258 -2.4901 0.9529
-8.2134 -8.4926 -2.4908 0.9529
-5.6829 -10.3700 -2.4929 0.9528
-2.7439 -11.5141 -2.4954 0.9528
2.4908 -11.5912 -2.4995 0.9527
3.5137 -11.3270 -2.5002 0.9527
4.5092 -10.9725 -2.5009 0.9527
5.4694 -10.5305 -2.5016 0.9526
6.3867 -10.0045 -2.5023 0.9526
8.8086 -7.9669 -2.5039 0.9526
9.4844 -7.1525 -2.5043 0.9526
11.0409 -4.3942 -2.5052 0.9526
11.6461 -2.3671 -2.5054 0.9526
10.8220 2.7068 -2.3518 0.9554
10.5366 3.6587 -2.3514 0.9554
10.1674 4.5812 -2.3510 0.9554
9.7174 5.4669 -2.3506 0.9554
8.5902 7.1000 -2.3495 0.9555
7.1914 8.5060 -2.3482 0.9555
6.4039 9.1097 -2.3475 0.9555
2.8185 10.7581 -2.3446 0.9556
-0.1238 11.1095 -2.3422 0.9556
-2.0902 10.9044 -2.3407 0.9556
-4.8925 9.9560 -2.3387 0.9557
-5.3106 7.2076 -1.8874 0.9641
-7.3437 8.3037 -2.3370 0.9557
-8.0520 7.6155 -2.3365 0.9557
-9.2717 6.0653 -2.3357 0.9557
-11.2272 3.6203 -2.4869 0.9529
-11.5044 2.6066 -2.4868 0.9529
-11.6907 1.5723 -2.4868 0.9529
-11.7851 -0.5255 -2.4870 0.9529
-11.6925 -1.5725 -2.4872 0.9529
-11.2312 -3.6215 -2.4878 0.9529
-10.8660 -4.6076 -2.4882 0.9529
-10.4147 -5.5574 -2.4887 0.9529
-9.8809 -6.4637 -2.4892 0.9529
-7.8280 -8.8513 -2.4911 0.9528
-6.1382 -10.1049 -2.4926 0.9528
-4.2520 -11.0402 -2.4941 0.9528
-3.2536 -11.3785 -2.4950 0.9528
-2.2287 -11.6268 -2.4958 0.9528
-1.1854 -11.7829 -2.4966 0.9527
-0.1320 -11.8456 -2.4974 0.9527
1.9717 -11.6889 -2.4991 0.9527
4.0154 -11.1609 -2.5006 0.9527
4.9942 -10.7622 -2.5013 0.9527
5.9339 -10.2778 -2.5020 0.9526
6.8268 -9.7113 -2.5026 0.9526
9.1556 -7.5673 -2.5041 0.9526
9.7943 -6.7234 -2.5045 0.9526
10.3552 -5.8258 -2.5049 0.9526
10.8338 -4.8814 -2.5051 0.9526
11.5290 -2.8836 -2.5054 0.9526
11.8576 -0.7937 -2.5054 0.9526
11.8806 0.2648 -2.5053 0.9526
10.6899 3.1859 -2.3516 0.9554
10.3623 4.1241 -2.3512 0.9554
8.8990 6.7111 -2.3498 0.9555
8.2643 7.4747 -2.3492 0.9555
6.8043 8.8166 -2.3479 0.9555
5.9908 9.3845 -2.3472 0.9555
5.1302 9.8774 -2.3465 0.9555
4.2293 10.2915 -2.3457 0.9555
3.2955 10.6236 -2.3449 0.9555
2.3361 10.8711 -2.3442 0.9556
-0.6184 11.0911 -2.3418 0.9556
-1.6026 10.9885 -2.3411 0.9556
-2.5735 10.7988 -2.3404 0.9556
-5.3305 9.7269 -2.3384 0.9557
-6.1735 9.2115 -2.3378 0.9557
-8.3825 7.2486 -2.3363 0.9557
-9.5320 5.6459 -2.3356 0.9557
-11.0551 4.1170 -2.4870 0.9529
-11.3770 3.1165 -2.4869 0.9529
-10.8990 0.0000 -2.4876 0.9563
-10.8564 -0.9701 -2.4878 0.9563
-9.8402 -4.7003 -2.4890 0.9562
-9.3845 -5.5584 -2.4895 0.9562
-7.5877 -7.8455 -2.4912 0.9562
-6.0796 -9.0714 -2.4925 0.9562
-3.4700 -10.3644 -2.4947 0.9561
-2.5345 -10.6354 -2.4954 0.9561
1.3381 -10.8644 -2.4985 0.9561
2.3004 -10.7053 -2.4992 0.9561
3.2450 -10.4610 -2.4999 0.9561
4.1644 -10.1334 -2.5006 0.9560
8.7582 -6.6048 -2.5037 0.9560
9.3125 -5.7999 -2.5040 0.9560
9.7928 -4.9485 -2.5043 0.9560
10.9709 -0.2444 -2.5046 0.9560
10.9485 0.7329 -2.5045 0.9560
9.7298 3.3786 -2.3508 0.9586
9.3890 4.2305 -2.3505 0.9586
8.9736 5.0485 -2.3500 0.9586
8.4869 5.8259 -2.3496 0.9586
7.9329 6.5568 -2.3491 0.9587
7.3161 7.2351 -2.3485 0.9587
5.9143 8.4132 -2.3473 0.9587
4.3264 9.3232 -2.3459 0.9587
1.7080 10.1257 -2.3438 0.9587
0.7997 10.2344 -2.3431 0.9588
-0.1143 10.2619 -2.3423 0.9588
-1.9308 10.0730 -2.3410 0.9588
-2.8189 9.8584 -2.3403 0.9588
-3.6842 9.5658 -2.3397 0.9588
-5.2946 7.1858 -2.0372 0.9640
-7.4391 7.0358 -2.3370 0.9589
-8.5661 5.6037 -2.3363 0.9589
-9.6170 5.1318 -2.4880 0.9563
-10.0347 4.2551 -2.4878 0.9563
-10.8885 -0.4855 -2.4877 0.9563
-10.8028 -1.4528 -2.4879 0.9563
-10.3764 -3.3459 -2.4884 0.9563
-10.0389 -4.2569 -2.4888 0.9562
-9.6219 -5.1344 -2.4892 0.9562
-7.9286 -7.4988 -2.4909 0.9562
-4.8183 -9.8050 -2.4936 0.9562
-3.0053 -10.5103 -2.4950 0.9561
-0.1219 -10.9409 -2.4973 0.9561
0.8527 -10.9116 -2.4981 0.9561
1.8210 -10.7956 -2.4988 0.9561
2.7754 -10.5937 -2.4996 0.9561
3.7083 -10.3075 -2.5002 0.9561
7.0791 -8.3732 -2.5026 0.9560
7.7978 -7.7114 -2.5031 0.9560
8.4546 -6.9879 -2.5035 0.9560
9.0443 -6.2085 -2.5039 0.9560
10.0040 -4.5076 -2.5044 0.9560
10.3662 -3.5995 -2.5046 0.9560
10.8407 -1.7046 -2.5047 0.9560
10.9493 -0.7329 -2.5047 0.9560
10.9706 0.2445 -2.5046 0.9560
10.0952 2.0520 -2.3513 0.9586
9.8713 2.9420 -2.3510 0.9586
9.1904 4.6441 -2.3503 0.9586
8.7389 5.4427 -2.3498 0.9586
8.2181 6.1976 -2.3493 0.9586
6.2841 8.1425 -2.3476 0.9587
4.7381 9.1226 -2.3463 0.9587
3.9062 9.5053 -2.3456 0.9587
3.0438 9.8122 -2.3448 0.9587
1.2550 10.1902 -2.3434 0.9588
0.3430 10.2583 -2.3427 0.9588
-0.5713 10.2450 -2.3420 0.9588
-1.4804 10.1505 -2.3413 0.9588
-3.2548 9.7217 -2.3400 0.9588
-4.1061 9.3909 -2.3393 0.9588
-8.3085 5.9801 -2.3365 0.9589
-8.8067 5.2162 -2.3362 0.9589
-10.2140 3.8037 -2.4877 0.9563
-10.5115 2.8794 -2.4876 0.9563
-10.7259 1.9324 -2.4875 0.9563
-10.8553 0.9701 -2.4875 0.9563
-10.1230 0.0000 -2.4882 0.9592
-10.0834 -0.9011 -2.4884 0.9592
-9.4900 -3.5341 -2.4891 0.9591
-7.6655 -6.6286 -2.4909 0.9591
-7.0467 -7.2862 -2.4915 0.9591
-6.3717 -7.8864 -2.4921 0.9591
-4.0650 -9.2969 -2.4941 0.9591
-3.2223 -9.6245 -2.4948 0.9591
-2.3535 -9.8759 -2.4955 0.9590
-1.4656 -10.0490 -2.4962 0.9590
-0.5655 -10.1425 -2.4969 0.9590
3.8664 -9.4084 -2.5003 0.9590
8.1308 -6.1317 -2.5032 0.9589
8.6454 -5.3844 -2.5035 0.9589
9.0912 -4.5940 -2.5037 0.9589
9.4647 -3.7669 -2.5039 0.9589
9.7629 -2.9096 -2.5040 0.9589
9.9834 -2.0292 -2.5041 0.9589
10.1244 -1.1326 -2.5041 0.9589
9.2774 2.3204 -2.3506 0.9614
8.7166 3.9275 -2.3500 0.9614
6.7926 6.7173 -2.3481 0.9614
5.4913 7.8115 -2.3470 0.9614
3.2298 8.9774 -2.3451 0.9615
2.4173 9.2266 -2.3444 0.9615
1.5860 9.4025 -2.3438 0.9615
0.7426 9.5036 -2.3431 0.9615
-0.9536 9.4794 -2.3418 0.9615
-1.7931 9.3543 -2.3411 0.9615
-2.6178 9.1552 -2.3405 0.9615
-4.1976 8.5418 -2.3394 0.9616
-5.2785 7.1641 -2.1873 0.9640
-6.3012 7.1248 -2.3379 0.9616
-8.9322 4.7664 -2.4886 0.9592
-9.6345 3.1067 -2.4882 0.9592
-9.8724 2.2368 -2.4881 0.9592
-10.0323 1.3492 -2.4881 0.9592
-10.1127 0.4510 -2.4882 0.9592
-9.3238 -3.9536 -2.4893 0.9591
-8.9364 -4.7686 -2.4897 0.9591
-7.9524 -6.2799 -2.4907 0.9591
-4.4745 -9.1054 -2.4937 0.9591
-3.6473 -9.4701 -2.4944 0.9591
-2.7908 -9.7598 -2.4951 0.9590
-1.9115 -9.9724 -2.4958 0.9590
-1.0167 -10.1058 -2.4965 0.9590
-0.1132 -10.1591 -2.4973 0.9590
0.7917 -10.1317 -2.4980 0.9590
1.6908 -10.0237 -2.4986 0.9590
4.2822 -9.2279 -2.5006 0.9590
5.8531 -8.3262 -2.5017 0.9589
7.2394 -7.1591 -2.5026 0.9589
7.8491 -6.4874 -2.5030 0.9589
8.3965 -5.7638 -2.5033 0.9589
8.8771 -4.9942 -2.5036 0.9589
9.2872 -4.1846 -2.5038 0.9589
9.6234 -3.3416 -2.5040 0.9589
9.8830 -2.4719 -2.5041 0.9589
10.0639 -1.5825 -2.5041 0.9589
10.1647 -0.6804 -2.5041 0.9589
10.1233 1.1325 -2.5038 0.9589
8.1132 5.0530 -2.3494 0.9614
7.6298 5.7539 -2.3489 0.9614
5.1372 8.0473 -2.3467 0.9614
4.3994 8.4703 -2.3461 0.9614
2.8263 9.1111 -2.3448 0.9615
1.1654 9.4624 -2.3434 0.9615
0.3185 9.5259 -2.3428 0.9615
-5.5076 6.8169 -2.1541 0.9645
-6.6117 6.8365 -2.3377 0.9616
-8.6960 5.1507 -2.4843 0.9592
-9.4867 3.5329 -2.4883 0.9592
-9.7631 2.6744 -2.4882 0.9592
-10.0825 0.9010 -2.4881 0.9592
-9.2965 -1.6748 -2.4891 0.9617
-9.1115 -2.4959 -2.4893 0.9617
-8.8542 -3.2973 -2.4896 0.9617
-8.5268 -4.0729 -2.4900 0.9617
-8.1317 -4.8164 -2.4904 0.9617
-7.1516 -6.1842 -2.4913 0.9616
-5.9444 -7.3574 -2.4924 0.9616
-4.5479 -8.2988 -2.4936 0.9616
-2.1955 -9.2126 -2.4955 0.9616
-1.3672 -9.3740 -2.4962 0.9616
1.1589 -9.4095 -2.4981 0.9615
4.3740 -8.4215 -2.5005 0.9615
8.8271 -3.5131 -2.5034 0.9615
9.1052 -2.7136 -2.5035 0.9615
9.4793 0.6346 -2.5034 0.9615
14.0841 2.2147 -3.7568 0.9427
8.4245 2.9253 -2.3499 0.9638
7.3489 5.0447 -2.3488 0.9638
5.7514 6.8029 -2.3473 0.9638
5.1219 7.2860 -2.3468 0.9638
1.4795 8.7709 -2.3438 0.9639
-0.8896 8.8431 -2.3419 0.9639
-1.6727 8.7266 -2.3413 0.9639
-2.4422 8.5410 -2.3407 0.9639
-3.1920 8.2878 -2.3402 0.9639
-4.6088 7.5872 -2.3392 0.9639
-5.8789 6.6474 -2.3383 0.9640
-7.6005 4.9721 -2.3932 0.9631
-8.3339 4.4471 -2.4891 0.9617
-8.6960 3.6874 -2.4889 0.9617
-9.2112 2.0870 -2.4887 0.9617
-9.3604 1.2588 -2.4887 0.9617
-9.4354 0.4207 -2.4887 0.9617
-9.2131 -2.0874 -2.4892 0.9617
-8.3375 -4.4490 -2.4902 0.9617
-7.9098 -5.1743 -2.4906 0.9617
-7.4192 -5.8589 -2.4910 0.9616
-6.8697 -6.4973 -2.4916 0.9616
-5.6114 -7.6158 -2.4927 0.9616
-4.9124 -8.0870 -2.4933 0.9616
-4.1742 -8.4942 -2.4939 0.9616
-0.1056 -9.4763 -2.4972 0.9616
0.7385 -9.4506 -2.4978 0.9615
1.5771 -9.3497 -2.4985 0.9615
3.2114 -8.9263 -2.4997 0.9615
6.7519 -6.6771 -2.5022 0.9615
7.3204 -6.0505 -2.5025 0.9615
7.8309 -5.3756 -2.5028 0.9615
8.2791 -4.6578 -2.5031 0.9615
8.9751 -3.1165 -2.5034 0.9615
9.2172 -2.3054 -2.5035 0.9615
9.4799 -0.6346 -2.5035 0.9615
9.4413 1.0562 -2.5033 0.9615
8.5470 2.5473 -2.3500 0.9638
8.2853 3.2975 -2.3497 0.9638
7.9577 4.0212 -2.3494 0.9638
7.1162 5.3666 -2.3486 0.9638
6.6090 5.9775 -2.3481 0.9638
6.0494 6.5406 -2.3476 0.9638
4.1036 7.9008 -2.3459 0.9638
3.3832 8.2326 -2.3453 0.9639
2.6363 8.4988 -2.3447 0.9639
0.2971 8.8863 -2.3428 0.9639
-0.4949 8.8751 -2.3422 0.9639
-1.2825 8.7936 -2.3416 0.9639
-2.8199 8.4227 -2.3405 0.9639
-3.5576 8.1364 -2.3399 0.9639
-4.2667 7.7858 -2.3394 0.9639
-4.9418 7.3737 -2.3389 0.9639
-5.4891 6.7940 -2.3015 0.9645
-8.1279 4.8142 -2.4892 0.9617
-8.5234 4.0713 -2.4890 0.9617
-8.8513 3.2963 -2.4888 0.9617
-9.4072 0.8406 -2.4887 0.9617
-5.0319 0.0000 -1.4157 0.9793
-3.7284 -0.6717 -1.0659 0.9844
-8.2936 -3.0886 -2.4900 0.9639
-7.6168 -4.5114 -2.4907 0.9639
-6.6985 -5.7924 -2.4916 0.9639
-6.1576 -6.3669 -2.4921 0.9639
-4.2595 -7.7726 -2.4937 0.9638
-2.8153 -8.4088 -2.4949 0.9638
0.2966 -8.8714 -2.4974 0.9638
1.0853 -8.8119 -2.4980 0.9638
1.8657 -8.6823 -2.4986 0.9638
2.6317 -8.4838 -2.4992 0.9638
4.7826 -7.4917 -2.5007 0.9637
5.4313 -7.0376 -2.5012 0.9637
6.0372 -6.5273 -2.5016 0.9637
7.9393 -4.0119 -2.5028 0.9637
8.2654 -3.2895 -2.5029 0.9637
8.5257 -2.5409 -2.5030 0.9637
8.8414 -0.9890 -2.5031 0.9637
8.8760 0.5942 -2.5029 0.9637
8.4079 2.1030 -2.4385 0.9646
7.6124 3.4300 -2.3492 0.9659
7.2759 4.0933 -2.3488 0.9659
6.8816 4.7239 -2.3485 0.9659
5.9327 5.8670 -2.3476 0.9659
3.5091 7.5618 -2.3455 0.9660
2.1117 8.0603 -2.3443 0.9660
1.3856 8.2142 -2.3438 0.9660
-0.0928 8.3256 -2.3426 0.9660
-0.8332 8.2823 -2.3420 0.9660
-1.5667 8.1733 -2.3415 0.9660
-2.2874 7.9996 -2.3409 0.9660
-2.9897 7.7625 -2.3404 0.9660
-6.0380 5.7107 -2.3383 0.9661
-7.8064 4.1656 -2.4895 0.9639
-8.1456 3.4540 -2.4893 0.9639
-8.4202 2.7152 -2.4892 0.9639
-8.6283 1.9549 -2.4891 0.9639
-8.7680 1.1792 -2.4891 0.9639
-8.8383 0.3941 -2.4892 0.9639
-8.1483 -3.4552 -2.4902 0.9639
-6.4345 -6.0856 -2.4918 0.9639
-5.2557 -7.1331 -2.4929 0.9639
-3.9095 -7.9556 -2.4940 0.9638
-3.1867 -8.2740 -2.4946 0.9638
-1.6700 -8.7122 -2.4959 0.9638
-0.8881 -8.8285 -2.4965 0.9638
-0.0989 -8.8746 -2.4971 0.9638
3.0074 -8.3591 -2.4995 0.9638
3.7402 -8.0599 -2.5000 0.9638
5.1120 -7.2719 -2.5010 0.9637
5.7399 -6.7892 -2.5014 0.9637
7.3327 -5.0336 -2.5024 0.9637
8.1104 -3.6544 -2.5028 0.9637
8.6306 -2.1586 -2.5031 0.9637
8.8405 0.9890 -2.5028 0.9637
7.7582 3.0877 -2.3493 0.9659
7.4516 3.7655 -2.3490 0.9659
6.6637 5.0254 -2.3483 0.9659
4.4872 7.0291 -2.3463 0.9659
1.7503 8.1454 -2.3440 0.9660
1.0181 8.2667 -2.3435 0.9660
-1.2012 8.2360 -2.3417 0.9660
-2.6412 7.8888 -2.3407 0.9660
-3.3321 7.6208 -2.3402 0.9660
-3.9964 7.2925 -2.3397 0.9660
-4.6287 6.9066 -2.3392 0.9660
-5.2242 6.4661 -2.3388 0.9660
-5.7780 5.9745 -2.3385 0.9661
-6.2860 5.4357 -2.3381 0.9661
-7.6134 4.5094 -2.4896 0.9639
-8.2911 3.0877 -2.4893 0.9639
-8.5327 2.3373 -2.4892 0.9639
-8.8118 0.7874 -2.4891 0.9639
-3.9676 0.0000 -1.1878 0.9836
-3.5918 -0.3210 -1.0796 0.9851
-3.4925 -0.9567 -1.0841 0.9850
-7.5071 -3.5858 -2.4907 0.9659
-7.1591 -4.2404 -2.4910 0.9659
-6.7544 -4.8615 -2.4914 0.9658
-5.7875 -5.9842 -2.4923 0.9658
-5.2329 -6.4768 -2.4928 0.9658
-2.6458 -7.9027 -2.4950 0.9658
-1.9324 -8.1088 -2.4956 0.9658
-0.4643 -8.3268 -2.4968 0.9658
1.0199 -8.2810 -2.4979 0.9658
1.7533 -8.1592 -2.4985 0.9658
3.1735 -7.7222 -2.4995 0.9657
5.1037 -6.6131 -2.5009 0.9657
6.1972 -5.6050 -2.5016 0.9657
7.4601 -3.7697 -2.5024 0.9657
7.7665 -3.0910 -2.5025 0.9657
8.0111 -2.3876 -2.5026 0.9657
8.3077 -0.9294 -2.5027 0.9657
8.3572 -0.1862 -2.5026 0.9657
8.2570 1.2984 -2.5023 0.9657
8.1080 2.0279 -2.5021 0.9657
7.4125 2.5739 -2.3491 0.9678
6.0447 4.9961 -2.3478 0.9678
5.5750 5.5132 -2.3473 0.9678
4.5073 6.4118 -2.3464 0.9678
3.9179 6.7861 -2.3459 0.9678
2.6515 7.3699 -2.3448 0.9678
-2.8099 7.2958 -2.3406 0.9679
-3.4474 7.0154 -2.3401 0.9679
-4.0574 6.6795 -2.3397 0.9679
-5.1757 5.8523 -2.3389 0.9679
-5.6753 5.3677 -2.3386 0.9679
-7.3375 3.9154 -2.4899 0.9659
-7.6564 3.2466 -2.4897 0.9659
-8.1102 1.8375 -2.4896 0.9659
-8.2415 1.1084 -2.4895 0.9659
-3.6646 -0.1634 -1.0982 0.9848
-3.5144 -0.4726 -1.0616 0.9853
-3.4642 -0.7849 -1.0634 0.9853
-7.3404 -3.9169 -2.4909 0.9659
-6.9637 -4.5554 -2.4912 0.9659
-6.5316 -5.1580 -2.4916 0.9658
-5.5157 -6.2366 -2.4926 0.9658
-4.9397 -6.7041 -2.4931 0.9658
-3.6743 -7.4770 -2.4942 0.9658
-2.2914 -8.0137 -2.4953 0.9658
1.3879 -8.2283 -2.4982 0.9658
2.8261 -7.8552 -2.4993 0.9657
4.1757 -7.2325 -2.5002 0.9657
4.8037 -6.8333 -2.5007 0.9657
5.9410 -5.8751 -2.5014 0.9657
6.8902 -4.7298 -2.5020 0.9657
7.6209 -3.4338 -2.5024 0.9657
8.3571 0.1863 -2.5026 0.9657
8.1906 1.6648 -2.5023 0.9657
7.2901 2.9014 -2.3490 0.9678
7.0020 3.5383 -2.3487 0.9678
6.6583 4.1469 -2.3484 0.9678
4.7890 6.2053 -2.3466 0.9678
3.6114 6.9531 -2.3456 0.9678
2.9775 7.2453 -2.3451 0.9678
2.3203 7.4798 -2.3446 0.9678
0.9569 7.7691 -2.3435 0.9678
0.2615 7.8216 -2.3429 0.9679
-0.4356 7.8120 -2.3424 0.9679
-1.1289 7.7405 -2.3419 0.9679
-3.1318 7.1627 -2.3404 0.9679
-3.7562 6.8542 -2.3399 0.9679
-4.9103 6.0775 -2.3391 0.9679
-6.6575 4.7918 -2.4557 0.9663
-7.1561 4.2386 -2.4900 0.9659
-7.7932 2.9023 -2.4897 0.9659
-8.1839 1.4744 -2.4895 0.9659
-8.2827 0.7402 -2.4896 0.9659
-3.3867 -0.3026 -1.0798 0.9858
-3.2843 -0.5917 -1.0598 0.9861
-3.2540 -0.8914 -1.0715 0.9859
-7.3496 -2.7370 -2.4907 0.9676
-6.3679 -4.5833 -2.4917 0.9676
-5.4562 -5.6416 -2.4925 0.9676
-4.9333 -6.1060 -2.4930 0.9676
-4.3711 -6.5221 -2.4935 0.9676
-3.7740 -6.8867 -2.4940 0.9676
-2.4942 -7.4499 -2.4951 0.9676
-0.4377 -7.8494 -2.4967 0.9675
0.2628 -7.8589 -2.4973 0.9675
1.6527 -7.6910 -2.4983 0.9675
2.3312 -7.5150 -2.4988 0.9675
3.6280 -6.9852 -2.4998 0.9675
4.8106 -6.2333 -2.5006 0.9675
5.3471 -5.7812 -2.5010 0.9675
6.2890 -4.7427 -2.5016 0.9675
6.6868 -4.1645 -2.5018 0.9675
7.0314 -3.5531 -2.5020 0.9675
7.7212 -1.5694 -2.5023 0.9675
7.7826 1.2238 -2.5020 0.9675
7.6422 1.9115 -2.5018 0.9675
6.9867 2.4261 -2.3488 0.9694
6.7423 3.0379 -2.3486 0.9694
5.6976 4.7092 -2.3475 0.9695
4.2487 6.0439 -2.3462 0.9695
3.1085 6.6987 -2.3453 0.9695
2.4994 6.9473 -2.3448 0.9695
1.8707 7.1406 -2.3443 0.9695
-0.0822 7.3762 -2.3427 0.9695
-1.3881 7.2417 -2.3417 0.9695
-2.0267 7.0880 -2.3412 0.9695
-4.3698 5.9308 -2.3396 0.9696
-5.9146 4.6708 -2.3935 0.9689
-6.5624 4.2930 -2.4905 0.9676
-6.9179 3.6915 -2.4903 0.9676
-7.2186 3.0610 -2.4901 0.9676
-4.3818 0.1954 -1.3930 0.9818
-3.4557 -0.1541 -1.0986 0.9856
-3.3189 -0.4463 -1.0635 0.9860
-3.2827 -1.0586 -1.0954 0.9856
-6.9205 -3.6929 -2.4912 0.9676
-5.7016 -5.3925 -2.4923 0.9676
-5.1999 -5.8796 -2.4928 0.9676
-4.6569 -6.3203 -2.4932 0.9676
-3.4639 -7.0487 -2.4943 0.9676
-2.1601 -7.5544 -2.4953 0.9676
-0.0876 -7.8619 -2.4970 0.9675
0.6126 -7.8402 -2.4975 0.9675
1.3083 -7.7562 -2.4981 0.9675
1.9939 -7.6106 -2.4986 0.9675
2.6639 -7.4044 -2.4991 0.9675
3.9359 -6.8172 -2.5000 0.9675
6.4943 -4.4581 -2.5017 0.9675
6.8659 -3.8627 -2.5019 0.9675
7.1830 -3.2364 -2.5021 0.9675
7.6436 -1.9118 -2.5023 0.9675
7.8296 0.8759 -2.5021 0.9675
7.7200 1.5692 -2.5019 0.9675
7.5392 2.2470 -2.4984 0.9675
6.8713 2.7347 -2.3487 0.9694
5.9022 4.4511 -2.3477 0.9695
5.0178 5.4252 -2.3469 0.9695
4.5142 5.8492 -2.3465 0.9695
3.9748 6.2265 -2.3460 0.9695
3.4042 6.5542 -2.3455 0.9695
2.8067 6.8297 -2.3450 0.9695
2.1872 7.0509 -2.3445 0.9695
-0.4106 7.3645 -2.3425 0.9695
-1.7092 7.1719 -2.3415 0.9695
-2.9525 6.7527 -2.3406 0.9695
-3.5412 6.4619 -2.3401 0.9695
-4.1016 6.1200 -2.3398 0.9696
-5.1202 5.2943 -2.3391 0.9696
-5.5704 4.8170 -2.3388 0.9696
-6.3650 4.5812 -2.4906 0.9676
-6.7469 3.9962 -2.4904 0.9676
-7.0753 3.3796 -2.4902 0.9676
-7.3476 2.7363 -2.4900 0.9676
-7.5617 2.0714 -2.4900 0.9676
-7.7160 1.3901 -2.4899 0.9676
-7.8091 0.6978 -2.4899 0.9676
-3.1349 -0.8587 -1.0921 0.9864
-6.3806 -3.7792 -2.4916 0.9692
-6.0198 -4.3327 -2.4919 0.9692
-5.6111 -4.8521 -2.4923 0.9692
-5.1578 -5.3331 -2.4927 0.9692
-3.5675 -6.5099 -2.4941 0.9692
-2.9745 -6.8029 -2.4946 0.9692
-2.3577 -7.0421 -2.4951 0.9691
-1.7219 -7.2255 -2.4956 0.9691
-1.0722 -7.3517 -2.4962 0.9691
0.2484 -7.4284 -2.4972 0.9691
0.9087 -7.3783 -2.4977 0.9691
1.5621 -7.2695 -2.4982 0.9691
2.8274 -6.8800 -2.4991 0.9691
4.5468 -5.8914 -2.5003 0.9691
6.9185 -2.7535 -2.5018 0.9691
7.2974 -1.4833 -2.5019 0.9691
7.4005 -0.8279 -2.5019 0.9691
7.4447 -0.1659 -2.5019 0.9691
7.4296 0.4974 -2.5018 0.9691
7.2228 1.8065 -2.5015 0.9691
6.8554 2.3805 -2.4382 0.9698
6.0908 3.4266 -2.3480 0.9709
5.7608 3.9546 -2.3477 0.9709
4.5091 5.3335 -2.3465 0.9710
4.0158 5.7126 -2.3461 0.9710
2.9382 6.3316 -2.3452 0.9710
2.3625 6.5667 -2.3447 0.9710
1.1603 6.8787 -2.3437 0.9710
0.5433 6.9532 -2.3433 0.9710
-0.6978 6.9365 -2.3423 0.9710
-4.1309 5.6066 -2.3398 0.9710
-6.2039 4.0584 -2.4908 0.9692
-7.2287 1.6378 -2.4903 0.9692
-4.1559 0.1853 -1.3977 0.9826
-3.2675 -0.1457 -1.0989 0.9863
-3.1639 -0.4255 -1.0726 0.9866
-3.1355 -0.7104 -1.0802 0.9865
-6.8262 -2.8945 -2.4911 0.9692
-6.5422 -3.4910 -2.4914 0.9692
-4.9155 -5.5581 -2.4930 0.9692
-2.6688 -6.9294 -2.4949 0.9692
-2.0419 -7.1409 -2.4954 0.9691
-0.0828 -7.4313 -2.4969 0.9691
0.5791 -7.4107 -2.4975 0.9691
1.2366 -7.3312 -2.4980 0.9691
1.8846 -7.1935 -2.4984 0.9691
4.8050 -5.6834 -2.5005 0.9691
6.4891 -3.6507 -2.5016 0.9691
6.7888 -3.0588 -2.5017 0.9691
7.0344 -2.4426 -2.5019 0.9691
7.3563 -1.1567 -2.5020 0.9691
7.4300 -0.4974 -2.5019 0.9691
7.3999 0.8278 -2.5017 0.9691
7.2964 1.4831 -2.5016 0.9691
6.4943 2.5847 -2.3484 0.9709
5.5785 4.2070 -2.3475 0.9709
4.7427 5.1277 -2.3467 0.9710
3.7570 5.8853 -2.3459 0.9710
2.6529 6.4556 -2.3450 0.9710
0.8526 6.9228 -2.3435 0.9710
-0.3882 6.9614 -2.3425 0.9710
-1.6156 6.7796 -2.3416 0.9710
-2.2122 6.6076 -2.3412 0.9710
-2.7911 6.3833 -2.3407 0.9710
-3.8774 5.7854 -2.3400 0.9710
-6.6887 3.1950 -2.4905 0.9692
-7.1486 1.9583 -2.4903 0.9692
-7.3825 0.6597 -2.4903 0.9692
-3.4902 0.0000 -1.2376 0.9853
-3.0229 -0.8281 -1.1114 0.9868
-6.3404 -3.0286 -2.4915 0.9706
-6.0464 -3.5813 -2.4918 0.9706
-5.7044 -4.1058 -2.4922 0.9706
-5.3171 -4.5979 -2.4925 0.9706
-4.4191 -5.4695 -2.4933 0.9706
-3.9154 -5.8422 -2.4938 0.9706
-3.3805 -6.1686 -2.4942 0.9706
-1.6316 -6.8465 -2.4957 0.9706
-0.3920 -7.0301 -2.4967 0.9706
0.2353 -7.0384 -2.4971 0.9706
2.0877 -6.7300 -2.4985 0.9705
2.6789 -6.5186 -2.4990 0.9705
4.3078 -5.5818 -2.5001 0.9705
5.2305 -4.7307 -2.5007 0.9705
5.6314 -4.2469 -2.5010 0.9705
5.9876 -3.7291 -2.5012 0.9705
6.5547 -2.6087 -2.5015 0.9705
6.9137 -1.4053 -2.5016 0.9705
7.0532 -0.1571 -2.5016 0.9705
7.0390 0.4712 -2.5015 0.9705
6.6630 2.3137 -2.5010 0.9705
5.7706 3.2465 -2.3478 0.9723
5.4581 3.7468 -2.3475 0.9723
4.7059 4.6538 -2.3468 0.9723
2.7839 5.9992 -2.3451 0.9723
1.6755 6.3953 -2.3442 0.9723
0.5148 6.5884 -2.3433 0.9723
-1.8154 6.3490 -2.3415 0.9724
-3.4266 5.6410 -2.3403 0.9724
-3.9145 5.3129 -2.3400 0.9724
-4.3713 4.9427 -2.3397 0.9724
-4.7933 4.5335 -2.3394 0.9724
-5.5139 4.3543 -2.4913 0.9706
-5.8790 3.8459 -2.4910 0.9706
-6.1975 3.3071 -2.4909 0.9706
-3.9464 0.1760 -1.4007 0.9834
-3.1623 -0.1410 -1.1224 0.9867
-3.0191 -0.9735 -1.1248 0.9866
-6.1996 -3.3082 -2.4917 0.9706
-5.5162 -4.3561 -2.4923 0.9706
-5.1074 -4.8306 -2.4927 0.9706
-4.1714 -5.6614 -2.4935 0.9706
-3.6516 -6.0113 -2.4940 0.9706
-1.3251 -6.9131 -2.4959 0.9706
0.5487 -7.0217 -2.4974 0.9706
1.7856 -6.8157 -2.4983 0.9705
2.3856 -6.6309 -2.4988 0.9705
4.5525 -5.3847 -2.5003 0.9705
5.4364 -4.4933 -2.5009 0.9705
5.8153 -3.9919 -2.5011 0.9705
6.1480 -3.4588 -2.5013 0.9705
6.4318 -2.8980 -2.5014 0.9705
6.6645 -2.3141 -2.5016 0.9705
6.8442 -1.7118 -2.5016 0.9705
6.9695 -1.0959 -2.5016 0.9705
7.0108 0.7843 -2.5014 0.9705
6.9128 1.4051 -2.5013 0.9705
6.7597 2.0146 -2.5011 0.9705
6.2672 2.4943 -2.3918 0.9718
5.9099 2.9864 -2.3479 0.9723
5.6199 3.5001 -2.3476 0.9723
5.2854 3.9859 -2.3473 0.9723
4.9089 4.4398 -2.3470 0.9723
4.0426 5.2381 -2.3462 0.9723
2.5137 6.1167 -2.3449 0.9723
1.3888 6.4630 -2.3440 0.9723
0.8079 6.5596 -2.3435 0.9723
-0.3678 6.5963 -2.3426 0.9724
-0.9533 6.5362 -2.3421 0.9724
-1.5309 6.4242 -2.3417 0.9724
-2.0963 6.2613 -2.3413 0.9724
-2.6448 6.0488 -2.3409 0.9724
-4.1470 5.1329 -2.3398 0.9724
-6.0443 3.5801 -2.4910 0.9706
-6.5825 2.4514 -2.4907 0.9706
-2.9455 -0.5306 -1.1176 0.9873
-6.0213 -2.8762 -2.4918 0.9719
-4.6414 -4.7992 -2.4931 0.9719
-4.1965 -5.1941 -2.4935 0.9719
-3.7182 -5.5479 -2.4939 0.9719
-3.2102 -5.8579 -2.4943 0.9719
-1.5494 -6.5014 -2.4957 0.9719
-0.9647 -6.6147 -2.4962 0.9719
-0.3722 -6.6756 -2.4966 0.9719
0.2235 -6.6835 -2.4971 0.9719
1.9823 -6.3904 -2.4984 0.9718
2.5437 -6.1896 -2.4988 0.9718
3.0849 -5.9396 -2.4992 0.9718
4.0903 -5.3000 -2.4999 0.9718
4.9664 -4.4918 -2.5005 0.9718
5.6851 -3.5407 -2.5009 0.9718
6.6571 -0.7447 -2.5014 0.9718
6.6969 -0.1492 -2.5013 0.9718
6.6834 0.4474 -2.5012 0.9718
6.6167 1.0404 -2.5011 0.9718
6.4974 1.6251 -2.5009 0.9718
6.3265 2.1968 -2.5007 0.9718
4.8446 4.0042 -2.3470 0.9735
4.4683 4.4189 -2.3466 0.9735
4.0567 4.7983 -2.3463 0.9735
3.6129 5.1395 -2.3459 0.9735
2.6435 5.6966 -2.3450 0.9735
2.1256 5.9082 -2.3446 0.9735
1.5910 6.0728 -2.3442 0.9736
1.0440 6.1891 -2.3437 0.9736
-0.6279 6.2416 -2.3424 0.9736
-1.1807 6.1598 -2.3420 0.9736
-1.7240 6.0292 -2.3416 0.9736
-2.2534 5.8509 -2.3412 0.9736
-2.7648 5.6262 -2.3409 0.9736
-4.1513 4.6939 -2.3399 0.9736
-4.7050 4.4499 -2.4182 0.9727
-5.2364 4.1352 -2.4915 0.9719
-5.5832 3.6524 -2.4913 0.9719
-6.1416 2.6043 -2.4910 0.9719
-6.3488 2.0472 -2.4909 0.9719
-6.5057 1.4740 -2.4909 0.9719
-6.6110 0.8891 -2.4908 0.9719
-3.7910 0.1690 -1.4170 0.9839
-2.9640 -0.3986 -1.1167 0.9873
-6.1432 -2.6049 -2.4916 0.9719
-5.8876 -3.1417 -2.4919 0.9719
-5.2385 -4.1368 -2.4925 0.9719
-4.4234 -5.0016 -2.4933 0.9719
-3.4677 -5.7086 -2.4941 0.9719
-1.8373 -6.4253 -2.4955 0.9719
-1.2583 -6.5646 -2.4959 0.9719
-0.6692 -6.6518 -2.4964 0.9719
1.1126 -6.5959 -2.4978 0.9718
1.6955 -6.4718 -2.4982 0.9718
2.2652 -6.2963 -2.4986 0.9718
2.8171 -6.0706 -2.4990 0.9718
3.3467 -5.7967 -2.4994 0.9718
5.1618 -4.2663 -2.5006 0.9718
6.1069 -2.7516 -2.5012 0.9718
6.6837 -0.4474 -2.5013 0.9718
6.6968 0.1493 -2.5013 0.9718
6.4183 1.9129 -2.5008 0.9718
5.6114 2.8356 -2.3477 0.9735
5.3361 3.3234 -2.3474 0.9735
5.0185 3.7847 -2.3471 0.9735
4.6611 4.2157 -2.3468 0.9735
4.2667 4.6132 -2.3464 0.9735
3.3801 5.2948 -2.3457 0.9735
2.8949 5.5737 -2.3453 0.9735
2.3869 5.8082 -2.3448 0.9735
1.8601 5.9964 -2.3444 0.9735
-0.3493 6.2639 -2.3426 0.9736
-0.9052 6.2069 -2.3422 0.9736
-3.4893 5.2064 -2.3403 0.9736
-4.3560 4.5041 -2.3398 0.9736
-5.4152 3.8976 -2.4914 0.9719
-6.0196 2.8753 -2.4911 0.9719
-6.2514 2.3280 -2.4909 0.9719
-6.4336 1.7624 -2.4909 0.9719
-4.2614 0.3808 -1.5976 0.9819
-3.2641 0.0000 -1.2811 0.9861
-2.9005 -0.2592 -1.1429 0.9876
-2.8518 -0.5138 -1.1373 0.9876
-2.8528 -1.0624 -1.1947 0.9870
-5.7294 -2.7367 -2.4920 0.9731
-2.0185 -6.0289 -2.4953 0.9731
-1.4741 -6.1857 -2.4957 0.9730
-0.9179 -6.2935 -2.4962 0.9730
-0.3541 -6.3513 -2.4966 0.9730
2.9350 -5.6508 -2.4991 0.9730
3.4267 -5.3679 -2.4994 0.9730
3.8914 -5.0422 -2.4997 0.9730
4.7248 -4.2733 -2.5003 0.9730
5.0869 -3.8362 -2.5005 0.9730
5.4085 -3.3684 -2.5007 0.9730
5.6872 -2.8739 -2.5009 0.9730
6.1071 -1.8201 -2.5011 0.9730
6.2450 -1.2694 -2.5011 0.9730
6.3332 -0.7084 -2.5011 0.9730
6.3582 0.4256 -2.5010 0.9730
6.2948 0.9898 -2.5009 0.9730
4.9304 3.3846 -2.3471 0.9746
4.2511 4.2040 -2.3465 0.9746
2.5150 5.4198 -2.3450 0.9747
2.0223 5.6212 -2.3446 0.9747
0.9933 5.8886 -2.3437 0.9747
-3.0963 5.0972 -2.3407 0.9747
-3.5372 4.8008 -2.3404 0.9747
-4.9826 3.9347 -2.4917 0.9731
-5.6004 2.9885 -2.4914 0.9731
-6.0411 1.9480 -2.4912 0.9731
-6.2906 0.8460 -2.4911 0.9731
-3.0071 -0.1341 -1.1814 0.9871
-2.8734 -0.3864 -1.1379 0.9876
-2.8326 -0.6418 -1.1399 0.9876
-2.8717 -1.2177 -1.2242 0.9867
-5.6021 -2.9894 -2.4921 0.9731
-5.3144 -3.4765 -2.4924 0.9731
-4.6150 -4.3648 -2.4930 0.9731
-4.2088 -4.7590 -2.4934 0.9731
-3.7691 -5.1154 -2.4938 0.9731
-1.7481 -6.1134 -2.4955 0.9730
-0.6367 -6.3287 -2.4964 0.9730
0.4957 -6.3435 -2.4973 0.9730
1.0585 -6.2753 -2.4977 0.9730
2.6801 -5.7754 -2.4989 0.9730
5.8097 -2.6178 -2.5009 0.9730
6.0199 -2.0903 -2.5010 0.9730
6.1822 -1.5462 -2.5011 0.9730
6.2954 -0.9899 -2.5011 0.9730
6.3584 -0.4256 -2.5011 0.9730
6.2442 1.2692 -2.5008 0.9730
6.1061 1.8198 -2.5006 0.9730
5.9193 2.3559 -2.5004 0.9730
5.0766 3.1618 -2.3472 0.9746
3.6520 4.7321 -2.3459 0.9746
2.2709 5.5260 -2.3448 0.9747
1.2547 5.8390 -2.3439 0.9747
0.7299 5.9264 -2.3435 0.9747
-0.3323 5.9598 -2.3427 0.9747
-1.8941 5.6575 -2.3415 0.9747
-2.8663 5.2304 -2.3408 0.9747
-3.3200 4.9539 -2.3405 0.9747
-4.2268 4.3705 -2.3862 0.9742
-4.8026 4.1529 -2.4918 0.9731
-5.1527 3.7087 -2.4916 0.9731
-5.7278 2.7360 -2.4913 0.9731
-5.9484 2.2152 -2.4912 0.9731
-6.1218 1.6769 -2.4911 0.9731
-2.7831 -0.5014 -1.1645 0.9878
-2.7695 -0.7587 -1.1825 0.9877
-5.2078 -3.0846 -2.4924 0.9742
-4.5795 -3.9600 -2.4930 0.9742
-4.2094 -4.3525 -2.4934 0.9741
-3.8059 -4.7105 -2.4937 0.9741
-3.3720 -5.0313 -2.4941 0.9741
-2.9112 -5.3123 -2.4945 0.9741
-2.4273 -5.5513 -2.4949 0.9741
-0.8748 -5.9984 -2.4961 0.9741
0.2026 -6.0605 -2.4970 0.9741
2.3064 -5.6123 -2.4986 0.9741
2.7972 -5.3855 -2.4989 0.9741
3.2658 -5.1158 -2.4993 0.9741
3.7087 -4.8054 -2.4996 0.9741
4.5029 -4.0726 -2.5001 0.9741
4.8479 -3.6559 -2.5003 0.9741
5.4200 -2.7389 -2.5006 0.9741
5.6426 -2.2457 -2.5008 0.9741
5.9516 -1.2097 -2.5009 0.9741
6.0356 -0.6752 -2.5009 0.9741
6.0594 0.4057 -2.5008 0.9741
5.8909 1.4734 -2.5005 0.9741
5.5354 2.4942 -2.5001 0.9741
4.6989 3.2256 -2.3469 0.9756
4.3926 3.6306 -2.3467 0.9756
4.0515 4.0066 -2.3463 0.9757
3.6783 4.3507 -2.3460 0.9757
3.2760 4.6602 -2.3457 0.9757
2.8478 4.9325 -2.3453 0.9757
2.3970 5.1655 -2.3449 0.9757
0.9467 5.6124 -2.3437 0.9757
-0.0634 5.6895 -2.3429 0.9757
-0.5694 5.6602 -2.3426 0.9757
-1.5635 5.4679 -2.3418 0.9757
-2.0436 5.3062 -2.3414 0.9757
-2.9513 4.8584 -2.3408 0.9757
-3.3716 4.5759 -2.3405 0.9757
-3.8019 4.2990 -2.3632 0.9755
-4.7493 3.7505 -2.4919 0.9742
-5.3383 2.8487 -2.4916 0.9742
-5.5704 2.3621 -2.4915 0.9742
-2.7946 -0.3758 -1.1611 0.9879
-2.7775 -0.8956 -1.2017 0.9875
-2.8016 -1.1879 -1.2531 0.9869
-5.3398 -2.8494 -2.4923 0.9742
-4.7511 -3.7518 -2.4929 0.9742
-3.5925 -4.8758 -2.4939 0.9741
-3.1448 -5.1770 -2.4943 0.9741
-2.6719 -5.4372 -2.4947 0.9741
-2.1777 -5.6544 -2.4951 0.9741
-1.6661 -5.8268 -2.4955 0.9741
-1.1411 -5.9529 -2.4959 0.9741
-0.6068 -6.0319 -2.4964 0.9741
0.4724 -6.0459 -2.4972 0.9741
1.0089 -5.9809 -2.4976 0.9741
1.5374 -5.8683 -2.4980 0.9741
2.5543 -5.5044 -2.4988 0.9741
4.3168 -4.2689 -2.5000 0.9741
4.6800 -3.8681 -2.5002 0.9741
5.0061 -3.4365 -2.5004 0.9741
5.7371 -1.9921 -2.5008 0.9741
5.8918 -1.4736 -2.5009 0.9741
6.0597 -0.4056 -2.5009 0.9741
6.0716 0.1353 -2.5008 0.9741
6.0352 0.6752 -2.5007 0.9741
5.9509 1.2096 -2.5006 0.9741
5.6413 2.2452 -2.5002 0.9741
5.2726 2.6643 -2.4326 0.9748
4.8382 3.0133 -2.3471 0.9756
4.5503 3.4316 -2.3468 0.9756
4.2263 3.8224 -2.3465 0.9757
3.8687 4.1828 -2.3462 0.9757
3.4806 4.5099 -2.3458 0.9757
3.0649 4.8011 -2.3455 0.9757
2.6250 5.0540 -2.3451 0.9757
1.1959 5.5652 -2.3439 0.9757
0.1901 5.6871 -2.3431 0.9757
-0.3167 5.6805 -2.3427 0.9757
-0.8209 5.6288 -2.3424 0.9757
-1.3185 5.5325 -2.3420 0.9757
-4.5777 3.9585 -2.4920 0.9742
-4.9115 3.5351 -2.4918 0.9742
-5.2062 3.0837 -2.4917 0.9742
-5.4597 2.6079 -2.4915 0.9742
-5.6700 2.1115 -2.4914 0.9742
-5.8352 1.5984 -2.4914 0.9742
-5.9543 1.0727 -2.4913 0.9742
-2.7300 -1.3040 -1.3050 0.9869
-2.7884 -1.6516 -1.3980 0.9860
-4.6905 -3.3760 -2.4929 0.9751
-3.6333 -4.4970 -2.4938 0.9751
-2.3172 -5.2995 -2.4949 0.9751
-1.8366 -5.4856 -2.4953 0.9751
-1.3413 -5.6281 -2.4957 0.9751
-0.8351 -5.7261 -2.4961 0.9751
-0.3222 -5.7787 -2.4966 0.9751
0.7077 -5.7461 -2.4973 0.9751
1.2165 -5.6611 -2.4977 0.9751
1.7158 -5.5312 -2.4981 0.9751
2.2016 -5.3573 -2.4985 0.9751
3.1174 -4.8834 -2.4991 0.9751
3.5401 -4.5870 -2.4994 0.9751
3.9348 -4.2542 -2.4997 0.9751
4.6275 -3.4898 -2.5001 0.9751
5.7956 -0.1291 -2.5006 0.9751
5.7263 0.9004 -2.5004 0.9751
5.4752 1.9012 -2.5001 0.9751
5.2838 2.3808 -2.4999 0.9751
4.8708 2.7403 -2.4107 0.9759
4.4854 3.0790 -2.3468 0.9766
3.5112 4.1531 -2.3459 0.9766
3.1272 4.4485 -2.3456 0.9766
2.7184 4.7085 -2.3452 0.9766
0.4232 5.4160 -2.3434 0.9766
-0.5436 5.4035 -2.3426 0.9766
-1.4926 5.2199 -2.3419 0.9766
-2.3938 4.8712 -2.3412 0.9766
-3.2188 4.3686 -2.3407 0.9766
-4.1978 3.9703 -2.4923 0.9751
-4.8344 3.1625 -2.4919 0.9751
-5.0964 2.7196 -2.4918 0.9751
-5.4974 1.7727 -2.4916 0.9752
-5.6333 1.2764 -2.4916 0.9752
-5.0978 -2.7203 -2.4925 0.9751
-4.8359 -3.1635 -2.4927 0.9751
-3.8298 -4.3304 -2.4936 0.9751
-3.4296 -4.6547 -2.4940 0.9751
-3.0021 -4.9422 -2.4944 0.9751
-2.5507 -5.1906 -2.4947 0.9751
-1.5905 -5.5624 -2.4955 0.9751
-1.0893 -5.6828 -2.4959 0.9751
-0.5793 -5.7581 -2.4963 0.9751
-0.0645 -5.7878 -2.4968 0.9751
0.9630 -5.7093 -2.4975 0.9751
1.9607 -5.4497 -2.4983 0.9751
3.3321 -4.7399 -2.4993 0.9751
4.1206 -4.0749 -2.4998 0.9751
5.7268 -0.9005 -2.5007 0.9751
5.7842 -0.3872 -2.5006 0.9751
5.7956 0.1292 -2.5006 0.9751
5.7609 0.6445 -2.5005 0.9751
5.6804 1.1546 -2.5004 0.9751
5.3849 2.1432 -2.5000 0.9751
4.6183 2.8763 -2.3469 0.9766
4.3435 3.2756 -2.3467 0.9766
4.0342 3.6487 -2.3464 0.9766
3.6930 3.9929 -2.3461 0.9766
3.3225 4.3051 -2.3457 0.9766
2.9257 4.5830 -2.3454 0.9766
2.0661 5.0276 -2.3447 0.9766
1.6102 5.1907 -2.3443 0.9766
1.1416 5.3126 -2.3439 0.9766
-0.3024 5.4228 -2.3428 0.9766
-0.7837 5.3735 -2.3424 0.9766
-1.2587 5.2816 -2.3421 0.9766
-2.6082 4.7594 -2.3411 0.9766
-4.0169 4.1535 -2.4925 0.9751
-4.3703 3.7792 -2.4922 0.9751
-4.6889 3.3749 -2.4920 0.9751
-4.9704 2.9440 -2.4919 0.9751
-5.2124 2.4898 -2.4917 0.9751
-5.4131 2.0159 -2.4916 0.9752
-2.9980 0.0000 -1.3528 0.9869
-2.6738 -0.4817 -1.2259 0.9881
-2.6546 -0.7272 -1.2419 0.9880
-2.6607 -0.9909 -1.2811 0.9876
-2.6666 -1.2737 -1.3334 0.9871
-4.4843 -3.2276 -2.4930 0.9760
-4.1797 -3.6143 -2.4933 0.9760
-3.4735 -4.2992 -2.4939 0.9760
-3.0775 -4.5919 -2.4943 0.9760
-2.6570 -4.8483 -2.4946 0.9760
-2.2152 -5.0663 -2.4950 0.9760
-1.2822 -5.3805 -2.4958 0.9760
0.6765 -5.4930 -2.4973 0.9760
1.6402 -5.2876 -2.4980 0.9760
2.1046 -5.1213 -2.4984 0.9760
2.9801 -4.6682 -2.4990 0.9760
3.7613 -4.0667 -2.4995 0.9760
4.1088 -3.7161 -2.4997 0.9760
4.7032 -2.9292 -2.5001 0.9760
4.9455 -2.4991 -2.5002 0.9760
5.5401 -0.1234 -2.5004 0.9760
5.5290 0.3701 -2.5003 0.9760
5.4738 0.8608 -2.5002 0.9760
5.3752 1.3445 -2.5001 0.9760
5.2339 1.8174 -2.4999 0.9760
5.0509 2.2759 -2.4997 0.9760
4.2877 2.9434 -2.3467 0.9774
4.0083 3.3129 -2.3464 0.9774
2.9894 4.2526 -2.3455 0.9774
2.5987 4.5011 -2.3452 0.9775
2.1875 4.7138 -2.3448 0.9775
0.8640 5.1219 -2.3437 0.9775
0.4046 5.1777 -2.3434 0.9775
-0.0578 5.1923 -2.3430 0.9775
-0.5197 5.1658 -2.3427 0.9775
-0.9773 5.0983 -2.3423 0.9775
-1.4269 4.9904 -2.3420 0.9775
-1.8652 4.8429 -2.3416 0.9775
-2.2885 4.6570 -2.3413 0.9775
-2.6936 4.4343 -2.3411 0.9775
-3.0823 4.1833 -2.3446 0.9775
-3.6599 4.1383 -2.4927 0.9760
-4.3348 3.4232 -2.4923 0.9761
-4.6220 3.0236 -2.4921 0.9761
-2.7833 -0.1241 -1.2571 0.9878
-2.6870 -0.3614 -1.2234 0.9882
-2.6574 -0.8569 -1.2599 0.9878
-2.6675 -1.1311 -1.3074 0.9874
-4.8737 -2.6007 -2.4926 0.9760
-4.6234 -3.0245 -2.4929 0.9760
-4.3363 -3.4243 -2.4931 0.9760
-4.0148 -3.7971 -2.4934 0.9760
-2.4385 -4.9622 -2.4948 0.9760
-1.5205 -5.3176 -2.4956 0.9760
-1.0414 -5.4327 -2.4959 0.9760
-0.5538 -5.5046 -2.4963 0.9760
-0.0616 -5.5329 -2.4967 0.9760
0.4311 -5.5173 -2.4971 0.9760
1.4030 -5.3551 -2.4978 0.9760
2.7690 -4.7960 -2.4988 0.9760
3.1852 -4.5310 -2.4991 0.9760
3.5763 -4.2300 -2.4994 0.9760
3.9390 -3.8953 -2.4996 0.9760
4.2704 -3.5296 -2.4998 0.9760
4.8292 -2.7168 -2.5002 0.9760
5.0521 -2.2764 -2.5003 0.9760
5.2348 -1.8177 -2.5004 0.9760
5.3759 -1.3446 -2.5004 0.9760
5.4743 -0.8608 -2.5005 0.9760
5.5400 0.1235 -2.5004 0.9760
5.4299 1.1037 -2.5002 0.9760
4.5082 2.8077 -2.3964 0.9770
3.5303 3.8169 -2.3460 0.9774
2.7968 4.3812 -2.3453 0.9774
1.9751 4.8062 -2.3446 0.9775
1.5393 4.9622 -2.3443 0.9775
0.1735 5.1902 -2.3432 0.9775
-0.2891 5.1842 -2.3428 0.9775
-0.7492 5.1371 -2.3425 0.9775
-2.4936 4.5502 -2.3412 0.9775
-2.8883 4.3096 -2.3409 0.9775
-3.4035 4.2126 -2.4437 0.9765
-4.9834 2.3804 -2.4919 0.9761
-5.1752 1.9273 -2.4918 0.9761
-5.3261 1.4590 -2.4918 0.9761
-3.7666 0.3366 -1.7063 0.9835
-2.6212 -0.4722 -1.2555 0.9883
-2.6016 -0.7127 -1.2715 0.9881
-4.2927 -3.0897 -2.4931 0.9769
-4.0011 -3.4599 -2.4934 0.9769
-3.6777 -3.8028 -2.4937 0.9769
-3.3251 -4.1155 -2.4940 0.9769
-2.9460 -4.3957 -2.4943 0.9769
-2.1205 -4.8497 -2.4950 0.9769
-1.6807 -5.0199 -2.4954 0.9769
0.6476 -5.2580 -2.4972 0.9768
1.1132 -5.1802 -2.4976 0.9768
1.5700 -5.0613 -2.4979 0.9768
3.2392 -4.1971 -2.4991 0.9768
3.6003 -3.8926 -2.4994 0.9768
4.5018 -2.8037 -2.4999 0.9768
4.7337 -2.3921 -2.5001 0.9768
4.9280 -1.9613 -2.5002 0.9768
5.1979 -1.0565 -2.5003 0.9768
5.2713 -0.5897 -2.5003 0.9768
5.2921 0.3543 -2.5002 0.9768
5.2394 0.8238 -2.5001 0.9768
4.8346 2.1784 -2.4996 0.9768
4.1781 2.8681 -2.3889 0.9778
3.8366 3.1711 -2.3463 0.9782
3.5388 3.4996 -2.3460 0.9782
3.2129 3.8002 -2.3457 0.9782
2.8615 4.0705 -2.3454 0.9782
2.0939 4.5121 -2.3448 0.9782
1.6837 4.6799 -2.3444 0.9782
0.8270 4.9029 -2.3437 0.9783
0.3873 4.9563 -2.3434 0.9783
-0.0554 4.9703 -2.3430 0.9783
-0.4975 4.9449 -2.3427 0.9783
-1.7855 4.6359 -2.3417 0.9783
-2.1907 4.4581 -2.3414 0.9783
-3.5035 3.9615 -2.4929 0.9769
-3.8419 3.6337 -2.4927 0.9769
-4.8673 2.0639 -2.4921 0.9769
-5.1558 1.1682 -2.4919 0.9769
-2.7082 -0.1207 -1.2778 0.9881
-2.6352 -0.3544 -1.2533 0.9883
-2.5994 -0.8382 -1.2874 0.9880
-4.1511 -3.2780 -2.4933 0.9769
-3.8433 -3.6349 -2.4936 0.9769
-2.3343 -4.7501 -2.4949 0.9769
-1.9025 -4.9398 -2.4952 0.9769
-0.0590 -5.2963 -2.4967 0.9768
0.4127 -5.2813 -2.4971 0.9768
1.7941 -4.9867 -2.4981 0.9768
2.2311 -4.8078 -2.4984 0.9768
3.0489 -4.3371 -2.4990 0.9768
3.4231 -4.0489 -2.4992 0.9768
4.0875 -3.3784 -2.4997 0.9768
4.8357 -2.1788 -2.5001 0.9768
5.1456 -1.2870 -2.5002 0.9768
5.2923 -0.3542 -2.5002 0.9768
5.3027 0.1182 -2.5002 0.9768
5.2710 0.5896 -2.5001 0.9768
5.1973 1.0564 -2.5000 0.9768
4.4860 2.7939 -2.4911 0.9769
3.9743 2.9972 -2.3464 0.9782
3.3792 3.6536 -2.3459 0.9782
3.0402 3.9393 -2.3456 0.9782
2.6771 4.1937 -2.3453 0.9782
2.2929 4.4147 -2.3449 0.9782
-1.1519 4.8335 -2.3422 0.9783
-1.5773 4.7112 -2.3419 0.9783
-2.3870 4.3557 -2.3413 0.9783
-3.9998 3.4587 -2.4926 0.9769
-4.2914 3.0888 -2.4924 0.9769
-4.5490 2.6944 -2.4922 0.9769
-4.7706 2.2787 -2.4921 0.9769
-5.2027 0.9373 -2.4919 0.9769
-3.7077 0.3313 -1.7547 0.9837
-2.8279 0.0000 -1.3909 0.9875
-2.5698 -0.4630 -1.2843 0.9884
-2.5499 -0.6985 -1.3004 0.9883
-2.5453 -0.9479 -1.3359 0.9880
-2.5457 -1.2160 -1.3876 0.9875
-4.3610 -2.5830 -2.4930 0.9777
-4.1142 -2.9612 -2.4933 0.9777
-3.8347 -3.3160 -2.4935 0.9777
-2.8234 -4.2128 -2.4944 0.9776
-1.6107 -4.8110 -2.4954 0.9776
-1.1763 -4.9360 -2.4958 0.9776
-0.7324 -5.0218 -2.4961 0.9776
0.6206 -5.0390 -2.4972 0.9776
1.5046 -4.8504 -2.4979 0.9776
1.9306 -4.6979 -2.4982 0.9776
2.3414 -4.5079 -2.4985 0.9776
2.7336 -4.2821 -2.4987 0.9776
3.1042 -4.0222 -2.4990 0.9776
4.0576 -3.0599 -2.4996 0.9776
4.7225 -1.8795 -2.5000 0.9776
4.8712 -1.4517 -2.5001 0.9776
4.9811 -1.0124 -2.5001 0.9776
5.0714 0.3395 -2.5000 0.9776
5.0209 0.7895 -2.4999 0.9776
4.9305 1.2332 -2.4998 0.9776
4.6331 2.0876 -2.4994 0.9776
4.4285 2.4914 -2.4992 0.9776
4.1582 2.8544 -2.4807 0.9778
3.3913 3.3537 -2.3459 0.9790
2.3839 4.1290 -2.3450 0.9790
2.0066 4.3242 -2.3447 0.9790
1.6136 4.4850 -2.3444 0.9790
0.3712 4.7500 -2.3434 0.9790
-0.0531 4.7635 -2.3431 0.9790
-0.4768 4.7392 -2.3427 0.9790
-0.8966 4.6773 -2.3424 0.9790
-1.7112 4.4431 -2.3418 0.9790
-2.4752 4.0748 -2.3450 0.9790
-3.0069 4.0810 -2.4933 0.9777
-3.3579 3.7968 -2.4930 0.9777
-4.2407 2.7742 -2.4925 0.9777
-4.4705 2.3856 -2.4923 0.9777
-4.6649 1.9781 -2.4922 0.9777
-4.8223 1.5550 -2.4922 0.9777
-4.9415 1.1196 -2.4921 0.9777
-5.0216 0.6754 -2.4921 0.9777
-3.0630 0.1366 -1.5081 0.9864
-2.6467 -0.1180 -1.3031 0.9883
-2.5845 -0.3476 -1.2826 0.9884
-2.5616 -0.5804 -1.2919 0.9884
-2.5430 -0.8200 -1.3142 0.9882
-3.6834 -3.4837 -2.4937 0.9777
-3.3591 -3.7982 -2.4939 0.9777
-2.2372 -4.5525 -2.4949 0.9776
-0.9553 -4.9838 -2.4960 0.9776
-0.0565 -5.0757 -2.4967 0.9776
0.8445 -5.0067 -2.4974 0.9776
1.2870 -4.9123 -2.4977 0.9776
1.7193 -4.7789 -2.4980 0.9776
2.9218 -4.1563 -2.4989 0.9776
3.2804 -3.8801 -2.4991 0.9776
3.6131 -3.5730 -2.4993 0.9776
3.9171 -3.2375 -2.4995 0.9776
4.8016 -1.6673 -2.5000 0.9776
5.0716 -0.3395 -2.5001 0.9776
5.0816 0.1133 -2.5000 0.9776
4.7216 1.8792 -2.4995 0.9776
4.5353 2.2918 -2.4993 0.9776
3.8753 2.9225 -2.3874 0.9786
3.2384 3.5013 -2.3458 0.9790
2.9135 3.7752 -2.3455 0.9790
2.5656 4.0190 -2.3452 0.9790
2.1974 4.2308 -2.3449 0.9790
1.4121 4.5521 -2.3442 0.9790
0.1592 4.7614 -2.3432 0.9790
-0.2652 4.7560 -2.3429 0.9790
-0.6873 4.7129 -2.3426 0.9790
-1.1039 4.6324 -2.3423 0.9790
-1.5117 4.5152 -2.3420 0.9790
-1.9073 4.3622 -2.3417 0.9790
-2.2877 4.1746 -2.3414 0.9790
-2.7467 4.0985 -2.4267 0.9782
-3.1855 3.9428 -2.4931 0.9777
-3.8335 3.3150 -2.4927 0.9777
-4.3599 2.5824 -2.4924 0.9777
-4.5723 2.1840 -2.4923 0.9777
-4.7483 1.7683 -2.4922 0.9777
-4.9865 0.8984 -2.4921 0.9777
-3.6334 0.3247 -1.7942 0.9839
-2.5372 -0.2267 -1.3059 0.9886
-2.5199 -0.4540 -1.3126 0.9886
-2.4895 -0.9271 -1.3619 0.9881
-3.3818 -3.4967 -2.4939 0.9784
-2.7089 -4.0419 -2.4945 0.9784
-2.3386 -4.2675 -2.4948 0.9784
-1.1286 -4.7356 -2.4958 0.9784
-0.7027 -4.8179 -2.4961 0.9784
-0.2711 -4.8620 -2.4965 0.9783
0.5954 -4.8344 -2.4971 0.9783
1.0235 -4.7628 -2.4975 0.9783
1.8522 -4.5069 -2.4981 0.9783
2.2462 -4.3247 -2.4984 0.9783
3.3099 -3.5787 -2.4991 0.9783
3.6156 -3.2701 -2.4993 0.9783
4.1387 -2.5775 -2.4996 0.9783
4.3519 -2.1991 -2.4997 0.9783
4.6731 -1.3927 -2.4999 0.9783
4.7786 -0.9713 -2.4999 0.9783
4.8461 -0.5421 -2.4999 0.9783
4.8167 0.7574 -2.4997 0.9783
4.2485 2.3902 -2.4991 0.9783
3.5955 2.9718 -2.3914 0.9793
3.2535 3.2174 -2.3458 0.9796
2.6309 3.7425 -2.3453 0.9796
2.2870 3.9612 -2.3450 0.9796
1.5480 4.3029 -2.3444 0.9797
1.1588 4.4230 -2.3440 0.9797
-0.0509 4.5701 -2.3431 0.9797
-0.8602 4.4875 -2.3425 0.9797
-1.2560 4.3926 -2.3422 0.9797
-1.6418 4.2628 -2.3419 0.9797
-2.8849 3.9155 -2.4934 0.9784
-3.2217 3.6428 -2.4931 0.9784
-4.2893 2.2888 -2.4925 0.9784
-4.4758 1.8979 -2.4924 0.9784
-4.8180 0.6479 -2.4923 0.9784
-2.9775 0.1328 -1.5280 0.9867
-2.5113 -0.5690 -1.3201 0.9885
-2.4881 -0.8023 -1.3403 0.9883
-2.4879 -1.0550 -1.3854 0.9879
-1.3383 -4.6803 -2.4956 0.9784
-0.9165 -4.7815 -2.4960 0.9784
-0.4874 -4.8447 -2.4963 0.9784
-0.0542 -4.8696 -2.4966 0.9783
0.3794 -4.8557 -2.4970 0.9783
1.2347 -4.7127 -2.4976 0.9783
1.6494 -4.5847 -2.4979 0.9783
2.4368 -4.2206 -2.4985 0.9783
3.1471 -3.7224 -2.4990 0.9783
3.4662 -3.4278 -2.4992 0.9783
3.7578 -3.1059 -2.4994 0.9783
4.0196 -2.7593 -2.4996 0.9783
4.2495 -2.3907 -2.4997 0.9783
4.4456 -2.0031 -2.4998 0.9783
4.6064 -1.5995 -2.4999 0.9783
4.7305 -1.1832 -2.4999 0.9783
4.8171 -0.7574 -2.4999 0.9783
4.8654 -0.3257 -2.4999 0.9783
4.6725 1.3926 -2.4996 0.9783
4.5297 1.8028 -2.4994 0.9783
4.3509 2.1986 -2.4992 0.9783
3.1067 3.3590 -2.3457 0.9796
2.7951 3.6218 -2.3454 0.9796
2.1082 4.0589 -2.3448 0.9797
1.7383 4.2299 -2.3445 0.9797
0.9605 4.4699 -2.3439 0.9797
0.5588 4.5370 -2.3436 0.9797
-0.2544 4.5630 -2.3429 0.9797
-0.6595 4.5217 -2.3426 0.9797
-1.0592 4.4444 -2.3423 0.9797
-1.4503 4.3320 -2.3420 0.9797
-2.2034 4.0208 -2.3506 0.9796
-2.7078 4.0403 -2.4935 0.9784
-3.6780 3.1805 -2.4928 0.9784
-3.9462 2.8404 -2.4927 0.9784
-4.3869 2.0954 -2.4924 0.9784
-4.6887 1.2844 -2.4923 0.9784
-3.5463 0.3169 -1.8253 0.9841
-2.6714 0.0000 -1.4261 0.9880
-2.4853 -0.2221 -1.3321 0.9887
-2.4292 -1.1603 -1.4371 0.9879
-2.3944 -1.4182 -1.4856 0.9875
-3.5334 -3.0554 -2.4937 0.9790
-2.9363 -3.6343 -2.4943 0.9790
-2.6015 -3.8817 -2.4945 0.9790
-1.4841 -4.4327 -2.4955 0.9790
-0.6748 -4.6268 -2.4961 0.9790
0.1563 -4.6744 -2.4968 0.9790
0.5718 -4.6425 -2.4971 0.9790
1.7786 -4.3280 -2.4980 0.9790
2.1570 -4.1530 -2.4983 0.9790
2.8598 -3.7055 -2.4988 0.9790
3.7380 -2.8189 -2.4993 0.9790
4.4875 -1.3374 -2.4997 0.9790
4.5888 -0.9327 -2.4998 0.9790
4.6254 0.7273 -2.4996 0.9790
4.4227 1.5358 -2.4993 0.9790
4.2682 1.9232 -2.4992 0.9790
4.0798 2.2952 -2.4990 0.9790
2.8366 3.3552 -2.3455 0.9803
2.5264 3.5939 -2.3452 0.9803
1.8487 3.9839 -2.3446 0.9803
1.4866 4.1322 -2.3443 0.9803
-0.0489 4.3889 -2.3431 0.9803
-0.4393 4.3665 -2.3428 0.9803
-0.8261 4.3096 -2.3425 0.9803
-1.9502 3.9686 -2.3606 0.9801
-2.4252 3.9924 -2.4937 0.9790
-2.7706 3.7603 -2.4935 0.9790
-3.0940 3.4985 -2.4933 0.9790
-3.3929 3.2090 -2.4931 0.9790
-3.6648 2.8941 -2.4929 0.9790
-4.1194 2.1982 -2.4926 0.9791
-4.2985 1.8228 -2.4925 0.9791
-4.6272 0.6223 -2.4924 0.9791
-2.5303 -0.1128 -1.3521 0.9886
-2.4151 -1.2887 -1.4613 0.9877
-3.6658 -2.8948 -2.4936 0.9790
-3.3940 -3.2100 -2.4938 0.9790
-0.8802 -4.5919 -2.4960 0.9790
-0.4681 -4.6526 -2.4963 0.9790
-0.0521 -4.6764 -2.4966 0.9790
0.3644 -4.6631 -2.4969 0.9790
0.7781 -4.6127 -2.4973 0.9790
2.3400 -4.0530 -2.4984 0.9790
2.6917 -3.8290 -2.4987 0.9790
3.0221 -3.5746 -2.4989 0.9790
3.8600 -2.6497 -2.4994 0.9790
4.6258 -0.7273 -2.4998 0.9790
4.6813 0.1043 -2.4997 0.9790
4.6533 0.5206 -2.4996 0.9790
4.4869 1.3372 -2.4994 0.9790
4.3498 1.7312 -2.4993 0.9790
4.1781 2.1113 -2.4991 0.9790
3.9733 2.4746 -2.4989 0.9790
2.3637 3.7027 -2.3451 0.9803
0.9224 4.2926 -2.3439 0.9803
0.5366 4.3571 -2.3436 0.9803
-0.6333 4.3424 -2.3427 0.9803
-1.7574 4.0194 -2.3418 0.9803
-2.1908 3.9978 -2.4336 0.9795
-3.5323 3.0545 -2.4930 0.9790
-3.7899 2.7278 -2.4928 0.9790
-4.0175 2.3796 -2.4927 0.9791
-4.3754 1.6294 -2.4925 0.9791
-4.5030 1.2335 -2.4924 0.9791
-4.5948 0.8278 -2.4924 0.9791
-3.5313 0.3156 -1.8926 0.9841
-2.5975 0.0000 -1.4427 0.9882
-2.4347 -0.2176 -1.3576 0.9889
-2.4243 -0.4368 -1.3681 0.9888
-2.4018 -0.6579 -1.3831 0.9887
-2.3823 -0.8872 -1.4119 0.9884
-2.3176 -1.3727 -1.4960 0.9878
-3.6440 -2.6228 -2.4936 0.9797
-3.3964 -2.9370 -2.4938 0.9797
-3.1218 -3.2279 -2.4941 0.9797
-2.8224 -3.4934 -2.4943 0.9797
-1.7998 -4.1163 -2.4952 0.9797
-1.4265 -4.2607 -2.4955 0.9797
-1.0417 -4.3713 -2.4958 0.9796
-0.6486 -4.4473 -2.4961 0.9796
0.5496 -4.4623 -2.4971 0.9796
0.9447 -4.3962 -2.4974 0.9796
1.3324 -4.2952 -2.4977 0.9796
1.7096 -4.1599 -2.4979 0.9796
2.4206 -3.7917 -2.4984 0.9796
2.7487 -3.5615 -2.4987 0.9796
3.3371 -3.0183 -2.4991 0.9796
3.8199 -2.3790 -2.4994 0.9796
4.0166 -2.0297 -2.4995 0.9796
4.4104 -0.8964 -2.4996 0.9796
4.4995 -0.1003 -2.4996 0.9796
4.4904 0.3006 -2.4995 0.9796
4.4457 0.6991 -2.4995 0.9796
4.1024 1.8485 -2.4991 0.9796
3.7091 2.5461 -2.4987 0.9796
3.4674 2.8659 -2.4984 0.9796
3.0916 3.0574 -2.4149 0.9803
2.7265 3.2249 -2.3454 0.9809
2.4283 3.4544 -2.3452 0.9809
1.7770 3.8293 -2.3446 0.9809
-1.1594 4.0549 -2.3423 0.9809
-1.5156 3.9351 -2.3420 0.9809
-2.6632 3.6146 -2.4936 0.9797
-3.2614 3.0846 -2.4932 0.9797
-3.7561 2.4572 -2.4929 0.9797
-3.9597 2.1130 -2.4928 0.9797
-4.1320 1.7521 -2.4927 0.9797
-4.2714 1.3774 -2.4926 0.9797
-4.4479 0.5982 -2.4926 0.9797
-2.5020 0.1116 -1.3910 0.9886
-2.4745 -0.1103 -1.3757 0.9887
-2.4351 -0.3275 -1.3646 0.9888
-2.4139 -0.5469 -1.3747 0.9887
-2.3870 -0.7697 -1.3929 0.9886
-2.2661 -1.4824 -1.5039 0.9877
-3.2624 -3.0855 -2.4939 0.9797
-2.9751 -3.3640 -2.4942 0.9797
-2.6642 -3.6158 -2.4945 0.9797
-1.9813 -4.0318 -2.4950 0.9797
-1.2354 -4.3203 -2.4957 0.9796
-0.8460 -4.4137 -2.4960 0.9796
-0.0501 -4.4949 -2.4966 0.9796
0.3502 -4.4821 -2.4969 0.9796
1.1397 -4.3500 -2.4975 0.9796
1.5225 -4.2318 -2.4978 0.9796
2.9047 -3.4357 -2.4988 0.9796
3.1993 -3.1638 -2.4990 0.9796
3.4684 -2.8667 -2.4991 0.9796
3.7100 -2.5468 -2.4993 0.9796
4.1031 -1.8488 -2.4995 0.9796
4.3661 -1.0920 -2.4996 0.9796
4.4460 -0.6991 -2.4996 0.9796
4.4906 -0.3006 -2.4996 0.9796
4.4994 0.1003 -2.4996 0.9796
4.4101 0.8964 -2.4994 0.9796
4.0158 2.0293 -2.4990 0.9796
3.8190 2.3785 -2.4988 0.9796
3.3203 3.0030 -2.4865 0.9797
2.5799 3.3430 -2.3453 0.9809
2.2719 3.5589 -2.3450 0.9809
1.6045 3.9044 -2.3445 0.9809
1.2505 4.0312 -2.3442 0.9809
0.8866 4.1260 -2.3439 0.9809
0.5158 4.1880 -2.3436 0.9809
0.1410 4.2168 -2.3433 0.9809
-0.2349 4.2121 -2.3430 0.9809
-0.6088 4.1739 -2.3427 0.9809
-0.9777 4.1027 -2.3424 0.9809
-1.3388 3.9990 -2.3422 0.9809
