ply
format ascii 1.0
element vertex 1587
property float32 x
property float32 y
property float32 z
property float32 I
end_header
14.5254 1.6250 -2.3274 0.9425
14.3232 2.9113 -2.3274 0.9425
14.0072 4.1746 -2.3274 0.9425
8.9299 11.5709 -2.3274 0.9425
0.4884 14.6079 -2.3274 0.9425
-0.8137 14.5934 -2.3274 0.9425
-3.3883 14.2179 -2.3274 0.9425
-5.8555 13.3919 -2.3274 0.9425
-7.0242 12.8176 -2.3274 0.9425
-5.6428 6.9841 -1.4298 0.9643
-10.1609 10.5064 -2.3274 0.9425
-11.8628 8.5383 -2.3274 0.9425
-12.5756 7.4486 -2.3274 0.9425
-14.0637 0.0000 -2.4798 0.9445
-14.0079 -1.2517 -2.4798 0.9445
-13.8408 -2.4935 -2.4798 0.9445
-13.1794 -4.9080 -2.4798 0.9445
-12.6903 -6.0616 -2.4798 0.9445
-12.1004 -7.1671 -2.4798 0.9445
-11.4145 -8.2156 -2.4798 0.9445
-10.6379 -9.1989 -2.4798 0.9445
-9.7770 -10.1093 -2.4798 0.9445
-8.8384 -10.9393 -2.4798 0.9445
-6.7587 -12.3331 -2.4798 0.9445
-4.4649 -13.3360 -2.4798 0.9445
1.7191 -13.9581 -2.4798 0.9445
4.1667 -13.4322 -2.4798 0.9445
5.3457 -13.0080 -2.4798 0.9445
6.4823 -12.4806 -2.4798 0.9445
7.5674 -11.8541 -2.4798 0.9445
9.5493 -10.3246 -2.4798 0.9445
11.2286 -8.4678 -2.4798 0.9445
11.9377 -7.4349 -2.4798 0.9445
13.4778 -4.0168 -2.4798 0.9445
13.7819 -2.8012 -2.4798 0.9445
13.9765 -1.5635 -2.4798 0.9445
11.5038 6.4720 -2.3274 0.9478
10.8821 7.4702 -2.3274 0.9478
8.5219 10.0798 -2.3274 0.9478
7.5909 10.7982 -2.3274 0.9478
6.5997 11.4310 -2.3274 0.9478
3.3452 12.7685 -2.3274 0.9478
1.0283 13.1593 -2.3274 0.9478
-2.4849 12.9634 -2.3274 0.9478
-4.7439 12.3175 -2.3274 0.9478
-5.8215 11.8463 -2.3274 0.9478
-6.8527 11.2812 -2.3274 0.9478
-7.8296 10.6265 -2.3274 0.9478
-9.5896 9.0699 -2.3274 0.9478
-10.3589 8.1803 -2.3274 0.9478
-11.0458 7.2259 -2.3274 0.9478
-12.9477 5.4904 -2.4798 0.9445
-13.3850 4.3162 -2.4798 0.9445
-13.7160 3.1077 -2.4798 0.9445
-13.7160 -3.1076 -2.4798 0.9445
-13.3850 -4.3161 -2.4798 0.9445
-11.0372 -8.7159 -2.4798 0.9445
-9.3169 -10.5347 -2.4798 0.9445
-8.3423 -11.3222 -2.4798 0.9445
-6.2026 -12.6219 -2.4798 0.9445
-5.0546 -13.1239 -2.4798 0.9445
-3.8664 -13.5217 -2.4798 0.9445
-2.6475 -13.8122 -2.4798 0.9445
-1.4077 -13.9930 -2.4798 0.9445
1.0956 -14.0209 -2.4798 0.9445
5.9199 -12.7570 -2.4798 0.9445
8.0880 -11.5052 -2.4798 0.9445
9.9998 -9.8889 -2.4798 0.9445
11.5947 -7.9593 -2.4798 0.9445
13.2855 -4.6132 -2.4798 0.9445
13.8930 -2.1845 -2.4798 0.9445
14.0323 -0.9393 -2.4798 0.9445
14.0602 0.3133 -2.4798 0.9445
12.6495 3.7700 -2.3274 0.9478
12.2638 4.8809 -2.3274 0.9478
11.7807 5.9531 -2.3274 0.9478
9.7893 8.8540 -2.3274 0.9478
5.0172 12.2087 -2.3274 0.9478
-4.1905 12.5165 -2.3274 0.9478
-10.7130 7.7108 -2.3274 0.9478
-11.3568 6.7266 -2.3274 0.9478
-12.1038 5.7816 -2.3652 0.9470
-13.1794 4.9081 -2.4798 0.9445
-13.5640 3.7156 -2.4798 0.9445
-13.8408 2.4936 -2.4798 0.9445
-14.0079 1.2518 -2.4798 0.9445
-12.8143 0.0000 -2.4798 0.9491
-12.6113 -2.2720 -2.4798 0.9491
-12.3590 -3.3854 -2.4798 0.9491
-12.0087 -4.4720 -2.4798 0.9491
-11.0255 -6.5304 -2.4798 0.9491
-10.4005 -7.4858 -2.4798 0.9491
-8.9084 -9.2112 -2.4798 0.9491
-8.0532 -9.9676 -2.4798 0.9491
-7.1341 -10.6448 -2.4798 0.9491
-5.1337 -11.7410 -2.4798 0.9491
0.4282 -12.8071 -2.4798 0.9491
2.6922 -12.5283 -2.4798 0.9491
5.9064 -11.3719 -2.4798 0.9491
6.8952 -10.8011 -2.4798 0.9491
7.8292 -10.1445 -2.4798 0.9491
9.5038 -8.5956 -2.4798 0.9491
10.2311 -7.7156 -2.4798 0.9491
10.8773 -6.7744 -2.4798 0.9491
11.9060 -4.7385 -2.4798 0.9491
12.2805 -3.6599 -2.4798 0.9491
12.7349 -1.4246 -2.4798 0.9491
12.8112 -0.2854 -2.4798 0.9491
11.8808 1.8682 -2.3274 0.9522
11.6674 2.9183 -2.3274 0.9522
11.3614 3.9452 -2.3274 0.9522
10.9651 4.9407 -2.3274 0.9522
10.4819 5.8971 -2.3274 0.9522
9.9154 6.8066 -2.3274 0.9522
8.5515 8.4568 -2.3274 0.9522
7.7649 9.1844 -2.3274 0.9522
6.0134 10.4156 -2.3274 0.9522
4.0714 11.3168 -2.3274 0.9522
2.0004 11.8593 -2.3274 0.9522
-1.2038 11.9664 -2.3274 0.9522
-3.3064 11.5634 -2.3274 0.9522
-6.2440 10.2790 -2.3274 0.9522
-5.3142 7.2126 -1.7337 0.9642
-7.9675 9.0091 -2.3274 0.9522
-9.4386 7.4536 -2.3274 0.9522
-10.0646 6.5840 -2.3274 0.9522
-11.7975 5.0026 -2.4798 0.9491
-12.8016 0.5709 -2.4798 0.9491
-12.8016 -0.5708 -2.4798 0.9491
-12.7000 -1.7079 -2.4798 0.9491
-11.7975 -5.0025 -2.4798 0.9491
-10.7236 -7.0150 -2.4798 0.9491
-7.6012 -10.3164 -2.4798 0.9491
0.9983 -12.7753 -2.4798 0.9491
2.1314 -12.6358 -2.4798 0.9491
3.2476 -12.3960 -2.4798 0.9491
5.3940 -11.6237 -2.4798 0.9491
8.2733 -9.7856 -2.4798 0.9491
10.5647 -7.2522 -2.4798 0.9491
11.1682 -6.2831 -2.4798 0.9491
12.1053 -4.2034 -2.4798 0.9491
12.4314 -3.1092 -2.4798 0.9491
11.7858 2.3956 -2.3274 0.9522
11.5258 3.4351 -2.3274 0.9522
11.1743 4.4473 -2.3274 0.9522
10.2088 6.3581 -2.3274 0.9522
8.1663 8.8293 -2.3274 0.9522
2.5267 11.7585 -2.3274 0.9522
0.4019 12.0201 -2.3274 0.9522
-3.8183 11.4046 -2.3274 0.9522
-5.7799 10.5470 -2.3274 0.9522
-6.6956 9.9907 -2.3274 0.9522
-11.5630 5.5232 -2.4798 0.9491
-12.0086 4.4721 -2.4798 0.9491
-12.3590 3.3855 -2.4798 0.9491
-11.7160 -1.0469 -2.4798 0.9531
-11.3447 -3.1076 -2.4798 0.9531
-10.6140 -5.0698 -2.4798 0.9531
-10.1206 -5.9944 -2.4798 0.9531
-8.1773 -8.4553 -2.4798 0.9531
-6.5486 -9.7711 -2.4798 0.9531
-5.6529 -10.3152 -2.4798 0.9531
-3.7344 -11.1541 -2.4798 0.9531
-2.7268 -11.4422 -2.4798 0.9531
-1.6976 -11.6395 -2.4798 0.9531
-0.6549 -11.7444 -2.4798 0.9531
0.3931 -11.7561 -2.4798 0.9531
7.1866 -9.3120 -2.4798 0.9531
7.9869 -8.6353 -2.4798 0.9531
9.3915 -7.0824 -2.4798 0.9531
10.4984 -5.3050 -2.4798 0.9531
11.2727 -3.3596 -2.4798 0.9531
11.7598 -0.2620 -2.4798 0.9531
10.7099 2.6788 -2.3274 0.9559
10.4290 3.6214 -2.3274 0.9559
10.0652 4.5353 -2.3274 0.9559
9.1017 6.2480 -2.3274 0.9559
7.8497 7.7627 -2.3274 0.9559
6.3489 9.0315 -2.3274 0.9559
3.7373 10.3880 -2.3274 0.9559
2.7979 10.6794 -2.3274 0.9559
0.8600 11.0063 -2.3274 0.9559
-3.0351 10.6144 -2.3274 0.9559
-4.8690 9.9081 -2.3274 0.9559
-8.0207 7.5860 -2.3274 0.9559
-8.6640 6.8419 -2.3274 0.9559
-10.1611 5.4221 -2.4281 0.9540
-10.3776 -5.5376 -2.4798 0.9531
-9.8435 -6.4393 -2.4798 0.9531
-6.9774 -9.4697 -2.4798 0.9531
-6.1068 -10.0532 -2.4798 0.9531
-5.1878 -10.5568 -2.4798 0.9531
-4.2276 -10.9767 -2.4798 0.9531
-3.2338 -11.3094 -2.4798 0.9531
-2.2144 -11.5523 -2.4798 0.9531
-0.1310 -11.7619 -2.4798 0.9531
1.9565 -11.5988 -2.4798 0.9531
2.9811 -11.3786 -2.4798 0.9531
3.9820 -11.0681 -2.4798 0.9531
5.8813 -10.1867 -2.4798 0.9531
6.7647 -9.6228 -2.4798 0.9531
9.0666 -7.4937 -2.4798 0.9531
11.1118 -3.8584 -2.4798 0.9531
11.6199 -1.8271 -2.4798 0.9531
10.5799 3.1532 -2.3274 0.9559
9.8532 4.9791 -2.3274 0.9559
9.3710 5.8363 -2.3274 0.9559
7.4961 8.1047 -2.3274 0.9559
4.1963 10.2112 -2.3274 0.9559
3.2708 10.5442 -2.3274 0.9559
2.3194 10.7935 -2.3274 0.9559
1.3495 10.9570 -2.3274 0.9559
-0.6146 11.0227 -2.3274 0.9559
-3.5049 10.4687 -2.3274 0.9559
-5.3055 9.6814 -2.3274 0.9559
-8.9602 6.4492 -2.3274 0.9559
-9.4986 5.6261 -2.3274 0.9559
-10.8647 0.0001 -2.4798 0.9564
-10.6926 -1.9263 -2.4798 0.9564
-10.4787 -2.8704 -2.4798 0.9564
-10.1816 -3.7916 -2.4798 0.9564
-9.8037 -4.6828 -2.4798 0.9564
-8.8181 -6.3469 -2.4798 0.9564
-7.5531 -7.8098 -2.4798 0.9564
-6.8280 -8.4511 -2.4798 0.9564
-4.3526 -9.9547 -2.4798 0.9564
-3.4493 -10.3026 -2.4798 0.9564
-2.5187 -10.5687 -2.4798 0.9564
-1.5680 -10.7509 -2.4798 0.9564
0.3631 -10.8586 -2.4798 0.9564
1.3281 -10.7832 -2.4798 0.9564
2.2826 -10.6222 -2.4798 0.9564
5.0078 -9.6418 -2.4798 0.9564
6.6380 -8.6011 -2.4798 0.9564
7.3772 -7.9761 -2.4798 0.9564
9.2224 -5.7437 -2.4798 0.9564
9.6970 -4.9001 -2.4798 0.9564
10.0946 -4.0176 -2.4798 0.9564
10.6470 -2.1641 -2.4798 0.9564
10.7974 -1.2078 -2.4798 0.9564
10.8620 -0.2420 -2.4798 0.9564
9.8923 2.4743 -2.3274 0.9590
9.2969 4.1890 -2.3274 0.9590
8.8871 4.9999 -2.3274 0.9590
7.8598 6.4964 -2.3274 0.9590
6.5835 7.7870 -2.3274 0.9590
5.0985 8.8309 -2.3274 0.9590
4.2923 9.2497 -2.3274 0.9590
3.4520 9.5950 -2.3274 0.9590
2.5843 9.8642 -2.3274 0.9590
1.6961 10.0550 -2.3274 0.9590
0.7944 10.1661 -2.3274 0.9590
-1.0207 10.1459 -2.3274 0.9590
-4.4973 9.1517 -2.3274 0.9590
-9.5854 5.1150 -2.4798 0.9564
-10.0026 4.2415 -2.4798 0.9564
-10.7678 1.4481 -2.4798 0.9564
-10.8540 -0.4840 -2.4798 0.9564
-10.5962 -2.4007 -2.4798 0.9564
-10.3404 -3.3343 -2.4798 0.9564
-10.0026 -4.2414 -2.4798 0.9564
-9.5854 -5.1149 -2.4798 0.9564
-7.8935 -7.4655 -2.4798 0.9564
-7.1977 -8.1385 -2.4798 0.9564
-6.4447 -8.7468 -2.4798 0.9564
-3.9049 -10.1387 -2.4798 0.9564
-2.0454 -10.6704 -2.4798 0.9564
-0.1210 -10.8640 -2.4798 0.9564
5.4324 -9.4091 -2.4798 0.9564
7.0146 -8.2968 -2.4798 0.9564
7.7252 -7.6396 -2.4798 0.9564
8.9573 -6.1488 -2.4798 0.9564
9.4691 -5.3272 -2.4798 0.9564
10.2636 -3.5638 -2.4798 0.9564
10.5401 -2.6362 -2.4798 0.9564
10.8405 -0.7256 -2.4798 0.9564
10.8620 0.2421 -2.4798 0.9564
10.7974 1.2079 -2.4798 0.9564
9.9927 2.0312 -2.3274 0.9590
9.7723 2.9125 -2.3274 0.9590
9.4743 3.7707 -2.3274 0.9590
7.5626 6.8400 -2.3274 0.9590
6.9238 7.4860 -2.3274 0.9590
5.4868 8.5950 -2.3274 0.9590
4.7001 9.0493 -2.3274 0.9590
3.0211 9.7393 -2.3274 0.9590
0.3407 10.1913 -2.3274 0.9590
-3.2374 9.6695 -2.3274 0.9590
-4.0851 9.3430 -2.3274 0.9590
-7.0889 7.3299 -2.3274 0.9590
-7.7132 6.6699 -2.3274 0.9590
-8.2762 5.9569 -2.3274 0.9590
-8.7865 5.2043 -2.3308 0.9590
-9.8037 4.6829 -2.4798 0.9564
-10.6926 1.9264 -2.4798 0.9564
-10.0887 0.0000 -2.4798 0.9593
-9.9289 -1.7887 -2.4798 0.9593
-9.7303 -2.6654 -2.4798 0.9593
-8.6803 -5.1414 -2.4798 0.9593
-7.0136 -7.2520 -2.4798 0.9593
-5.6167 -8.3806 -2.4798 0.9593
-4.8484 -8.8473 -2.4798 0.9593
-4.0418 -9.2437 -2.4798 0.9593
-3.2030 -9.5667 -2.4798 0.9593
-2.3388 -9.8138 -2.4798 0.9593
-1.4560 -9.9830 -2.4798 0.9593
0.3371 -10.0830 -2.4798 0.9593
2.1195 -9.8635 -2.4798 0.9593
2.9890 -9.6357 -2.4798 0.9593
3.8348 -9.3314 -2.4798 0.9593
4.6501 -8.9531 -2.4798 0.9593
6.1639 -7.9867 -2.4798 0.9593
7.4823 -6.7673 -2.4798 0.9593
8.0550 -6.0745 -2.4798 0.9593
8.5637 -5.3334 -2.4798 0.9593
9.0044 -4.5501 -2.4798 0.9593
9.3736 -3.7306 -2.4798 0.9593
10.0862 -0.2247 -2.4798 0.9593
9.1857 2.2976 -2.3274 0.9617
8.9448 3.1060 -2.3274 0.9617
8.6328 3.8898 -2.3274 0.9617
8.2524 4.6427 -2.3274 0.9617
7.2985 6.0324 -2.3274 0.9617
5.4454 7.7463 -2.3274 0.9617
4.7343 8.2002 -2.3274 0.9617
3.9857 8.5890 -2.3274 0.9617
3.2054 8.9097 -2.3274 0.9617
2.3997 9.1596 -2.3274 0.9617
1.5749 9.3368 -2.3274 0.9617
-0.9478 9.4212 -2.3274 0.9617
-2.6032 9.1039 -2.3274 0.9617
-4.1761 8.4981 -2.3274 0.9617
-5.2660 7.1471 -2.1821 0.9641
-6.2728 7.0928 -2.3274 0.9617
-7.4310 5.8683 -2.3274 0.9617
-7.9238 5.1836 -2.3274 0.9617
-8.9008 4.7496 -2.4798 0.9593
-9.2882 3.9386 -2.4798 0.9593
-9.6019 3.0962 -2.4798 0.9593
-9.9987 1.3447 -2.4798 0.9593
-10.0787 -0.4494 -2.4798 0.9593
-9.9987 -1.3447 -2.4798 0.9593
-9.8393 -2.2293 -2.4798 0.9593
-9.2882 -3.9385 -2.4798 0.9593
-8.9008 -4.7496 -2.4798 0.9593
-5.9844 -8.1221 -2.4798 0.9593
-4.4495 -9.0545 -2.4798 0.9593
-3.6260 -9.4146 -2.4798 0.9593
-1.8993 -9.9083 -2.4798 0.9593
-1.0098 -10.0380 -2.4798 0.9593
2.5568 -9.7593 -2.4798 0.9593
3.4153 -9.4930 -2.4798 0.9593
5.8020 -8.2534 -2.4798 0.9593
6.5136 -7.7042 -2.4798 0.9593
7.1734 -7.0939 -2.4798 0.9593
7.7764 -6.4273 -2.4798 0.9593
8.7927 -4.9467 -2.4798 0.9593
9.1981 -4.1444 -2.4798 0.9593
9.5305 -3.3093 -2.4798 0.9593
9.7872 -2.4479 -2.4798 0.9593
9.9663 -1.5671 -2.4798 0.9593
10.0662 -0.6738 -2.4798 0.9593
10.0862 0.2248 -2.4798 0.9593
10.0262 1.1217 -2.4798 0.9593
8.7976 3.5014 -2.3274 0.9617
8.0374 5.0057 -2.3274 0.9617
7.5599 5.7012 -2.3274 0.9617
7.0225 6.3515 -2.3274 0.9617
6.4293 6.9513 -2.3274 0.9617
5.7851 7.4960 -2.3274 0.9617
5.0949 7.9811 -2.3274 0.9617
4.3644 8.4029 -2.3274 0.9617
2.8053 9.0436 -2.3274 0.9617
1.9893 9.2574 -2.3274 0.9617
1.1574 9.3978 -2.3274 0.9617
-0.5271 9.4541 -2.3274 0.9617
-2.1950 9.2108 -2.3274 0.9617
-3.0061 8.9788 -2.3274 0.9617
-4.5505 8.3036 -2.3274 0.9617
-10.0487 0.8980 -2.4798 0.9593
-9.2619 -1.6686 -2.4798 0.9618
-9.0766 -2.4863 -2.4798 0.9618
-8.8193 -3.2843 -2.4798 0.9618
-7.6382 -5.4976 -2.4798 0.9618
-7.1186 -6.1556 -2.4798 0.9618
-5.2394 -7.8177 -2.4798 0.9618
-4.5228 -8.2529 -2.4798 0.9618
-3.7702 -8.6227 -2.4798 0.9618
0.3145 -9.4057 -2.4798 0.9618
4.3378 -8.3517 -2.4798 0.9618
5.0639 -7.9324 -2.4798 0.9618
6.3901 -6.9089 -2.4798 0.9618
7.9884 -4.9752 -2.4798 0.9618
8.7440 -3.4799 -2.4798 0.9618
9.3527 -1.0462 -2.4798 0.9618
9.3900 0.6286 -2.4798 0.9618
8.5686 2.1432 -2.3274 0.9641
8.0529 3.6285 -2.3274 0.9641
6.2803 6.2108 -2.3274 0.9641
5.0796 7.2259 -2.3274 0.9641
4.4163 7.6493 -2.3274 0.9641
3.7180 8.0121 -2.3274 0.9641
1.4691 8.7096 -2.3274 0.9641
0.6881 8.8059 -2.3274 0.9641
-0.0984 8.8321 -2.3274 0.9641
-1.6628 8.6748 -2.3274 0.9641
-3.1745 8.2425 -2.3274 0.9641
-5.2356 7.1059 -2.3258 0.9641
-5.8515 6.6164 -2.3274 0.9641
-6.4171 6.0694 -2.3274 0.9641
-6.9319 5.4741 -2.3274 0.9641
-7.5978 4.9703 -2.3923 0.9631
-8.3029 4.4306 -2.4798 0.9618
-8.6642 3.6740 -2.4798 0.9618
-8.9569 2.8883 -2.4798 0.9618
-9.4017 0.4193 -2.4798 0.9618
-9.1784 -2.0795 -2.4798 0.9618
-8.6642 -3.6739 -2.4798 0.9618
-3.3824 -8.7822 -2.4798 0.9618
-1.7717 -9.2427 -2.4798 0.9618
-0.1048 -9.4104 -2.4798 0.9618
3.9614 -8.5366 -2.4798 0.9618
4.7055 -8.1502 -2.4798 0.9618
5.4123 -7.6990 -2.4798 0.9618
6.6916 -6.6174 -2.4798 0.9618
7.7588 -5.3261 -2.4798 0.9618
8.2021 -4.6144 -2.4798 0.9618
8.8903 -3.0870 -2.4798 0.9618
9.1298 -2.2835 -2.4798 0.9618
9.2968 -1.4618 -2.4798 0.9618
9.3900 -0.6286 -2.4798 0.9618
7.8833 3.9837 -2.3274 0.9641
7.0521 5.3183 -2.3274 0.9641
6.5508 5.9248 -2.3274 0.9641
5.9974 6.4844 -2.3274 0.9641
4.7527 7.4450 -2.3274 0.9641
2.6169 8.4361 -2.3274 0.9641
1.8557 8.6356 -2.3274 0.9641
-1.2747 8.7402 -2.3274 0.9641
-2.0476 8.5921 -2.3274 0.9641
-3.5385 8.0929 -2.3274 0.9641
-4.2448 7.7458 -2.3274 0.9641
-5.4880 6.7926 -2.3010 0.9645
-6.1404 6.3492 -2.3274 0.9641
-6.6811 5.7774 -2.3274 0.9641
-8.0972 4.7961 -2.4798 0.9618
-8.4920 4.0563 -2.4798 0.9618
-8.8193 3.2844 -2.4798 0.9618
-9.3737 0.8377 -2.4798 0.9618
-5.0319 0.0000 -1.4157 0.9793
-3.9277 -0.3510 -1.1095 0.9837
-3.7284 -0.6717 -1.0659 0.9844
-3.7904 -1.0383 -1.1057 0.9838
-8.2596 -3.0759 -2.4798 0.9640
-6.6668 -5.7650 -2.4798 0.9640
-6.1273 -6.3355 -2.4798 0.9640
-4.9068 -7.3215 -2.4798 0.9640
-3.5310 -8.0755 -2.4798 0.9640
-2.7982 -8.3577 -2.4798 0.9640
-1.2720 -8.7214 -2.4798 0.9640
-0.4907 -8.8001 -2.4798 0.9640
1.0774 -8.7476 -2.4798 0.9640
2.6113 -8.4180 -2.4798 0.9640
5.9846 -6.4704 -2.4798 0.9640
7.4814 -4.6595 -2.4798 0.9640
7.8665 -3.9750 -2.4798 0.9640
8.4466 -2.5173 -2.4798 0.9640
8.7941 0.5887 -2.4798 0.9640
8.7068 1.3691 -2.4798 0.9640
8.3980 2.1005 -2.4356 0.9647
7.5419 3.3982 -2.3274 0.9662
5.8817 5.8166 -2.3274 0.9662
3.4820 7.5036 -2.3274 0.9662
2.8003 7.7837 -2.3274 0.9662
2.0964 8.0021 -2.3274 0.9662
1.3759 8.1569 -2.3274 0.9662
0.6444 8.2470 -2.3274 0.9662
-0.0922 8.2716 -2.3274 0.9662
-0.8280 8.2306 -2.3274 0.9662
-1.5573 8.1242 -2.3274 0.9662
-2.2742 7.9534 -2.3274 0.9662
-2.9730 7.7194 -2.3274 0.9662
-3.6483 7.4242 -2.3274 0.9662
-4.2946 7.0700 -2.3274 0.9662
-6.0099 5.6841 -2.3274 0.9662
-6.4919 5.1267 -2.3274 0.9662
-7.7759 4.1494 -2.4798 0.9640
-8.1144 3.4409 -2.4798 0.9640
-8.3884 2.7050 -2.4798 0.9640
-8.5959 1.9476 -2.4798 0.9640
-8.8050 0.3927 -2.4798 0.9640
-3.7396 -0.5029 -1.0616 0.9844
-3.7659 -0.8532 -1.0864 0.9841
-7.3757 -4.8249 -2.4798 0.9640
-5.8389 -6.6021 -2.4798 0.9640
-5.2281 -7.0956 -2.4798 0.9640
-4.5758 -7.5328 -2.4798 0.9640
-3.8872 -7.9102 -2.4798 0.9640
-2.4231 -8.4741 -2.4798 0.9640
1.4660 -8.6909 -2.4798 0.9640
2.9837 -8.2933 -2.4798 0.9640
5.0688 -7.2104 -2.4798 0.9640
5.6904 -6.7306 -2.4798 0.9640
8.7068 -1.3690 -2.4798 0.9640
8.7941 -0.5887 -2.4798 0.9640
8.7591 0.9799 -2.4798 0.9640
7.9401 2.3664 -2.3311 0.9662
7.6858 3.0589 -2.3274 0.9662
7.0216 4.3732 -2.3274 0.9662
6.1350 5.5488 -2.3274 0.9662
5.6168 6.0729 -2.3274 0.9662
5.0540 6.5487 -2.3274 0.9662
4.4511 6.9725 -2.3274 0.9662
3.1443 7.6512 -2.3274 0.9662
2.4508 7.9007 -2.3274 0.9662
1.7379 8.0875 -2.3274 0.9662
-0.4605 8.2593 -2.3274 0.9662
-1.9176 8.0468 -2.3274 0.9662
-2.6262 7.8441 -2.3274 0.9662
-3.3140 7.5793 -2.3274 0.9662
-3.9754 7.2543 -2.3274 0.9662
-4.6053 6.8716 -2.3274 0.9662
-5.1986 6.4344 -2.3274 0.9662
-6.2571 5.4108 -2.3274 0.9662
-6.7191 4.8361 -2.3292 0.9662
-7.5834 4.4917 -2.4798 0.9640
-8.5006 2.3286 -2.4798 0.9640
-8.7788 0.7845 -2.4798 0.9640
-3.9677 0.0000 -1.1878 0.9836
-3.5918 -0.3210 -1.0796 0.9851
-3.4798 -0.6269 -1.0586 0.9853
-3.4925 -0.9567 -1.0841 0.9850
-7.1268 -4.2212 -2.4798 0.9660
-4.6114 -6.8807 -2.4798 0.9660
-3.9807 -7.2638 -2.4798 0.9660
-3.3184 -7.5893 -2.4798 0.9660
-1.9202 -8.0574 -2.4798 0.9660
-1.1954 -8.1964 -2.4798 0.9660
-0.4611 -8.2702 -2.4798 0.9660
1.0125 -8.2210 -2.4798 0.9660
2.4541 -7.9112 -2.4798 0.9660
3.1485 -7.6614 -2.4798 0.9660
5.6243 -6.0809 -2.4798 0.9660
6.6133 -4.9873 -2.4798 0.9660
7.0310 -4.3789 -2.4798 0.9660
7.3928 -3.7357 -2.4798 0.9660
7.6960 -3.0629 -2.4798 0.9660
8.1171 -1.6498 -2.4798 0.9660
8.2318 -0.9208 -2.4798 0.9660
8.2811 -0.1845 -2.4798 0.9660
8.2646 0.5533 -2.4798 0.9660
8.1826 1.2867 -2.4798 0.9660
8.0356 2.0099 -2.4798 0.9660
6.7754 3.8118 -2.3274 0.9681
6.4093 4.3997 -2.3274 0.9681
5.0192 5.9368 -2.3274 0.9681
4.4708 6.3599 -2.3274 0.9681
3.8870 6.7326 -2.3274 0.9681
1.9702 7.5203 -2.3274 0.9681
-0.0866 7.7736 -2.3274 0.9681
-1.4635 7.6351 -2.3274 0.9681
-2.1373 7.4746 -2.3274 0.9681
-2.7941 7.2546 -2.3274 0.9681
-4.0361 6.6443 -2.3274 0.9681
-6.1011 4.8180 -2.3274 0.9681
-6.9317 4.5345 -2.4798 0.9660
-7.3078 3.8996 -2.4798 0.9660
-7.6259 3.2337 -2.4798 0.9660
-7.8834 2.5421 -2.4798 0.9660
-4.8506 0.2163 -1.4536 0.9799
-3.5144 -0.4726 -1.0616 0.9853
-7.8834 -2.5420 -2.4798 0.9660
-7.6259 -3.2336 -2.4798 0.9660
-6.9317 -4.5345 -2.4798 0.9660
-4.3003 -7.0793 -2.4798 0.9660
-3.6532 -7.4340 -2.4798 0.9660
-2.9770 -7.7296 -2.4798 0.9660
0.6453 -8.2579 -2.4798 0.9660
1.3777 -8.1677 -2.4798 0.9660
4.7636 -6.7763 -2.4798 0.9660
5.3478 -6.3254 -2.4798 0.9660
5.8896 -5.8243 -2.4798 0.9660
7.8248 -2.7170 -2.4798 0.9660
8.2646 -0.5532 -2.4798 0.9660
8.2811 0.1846 -2.4798 0.9660
8.2318 0.9209 -2.4798 0.9660
7.5809 2.2594 -2.3682 0.9675
7.2230 2.8747 -2.3274 0.9681
6.9385 3.5062 -2.3274 0.9681
5.2786 5.7072 -2.3274 0.9681
4.1831 6.5528 -2.3274 0.9681
2.3033 7.4251 -2.3274 0.9681
1.6333 7.6006 -2.3274 0.9681
0.9503 7.7158 -2.3274 0.9681
-0.4328 7.7621 -2.3274 0.9681
-1.1219 7.6927 -2.3274 0.9681
-2.4681 7.3720 -2.3274 0.9681
-4.3280 6.4579 -2.3274 0.9681
-4.8856 6.0471 -2.3274 0.9681
-5.4045 5.5883 -2.3274 0.9681
-6.6548 4.7899 -2.4547 0.9663
-7.4742 3.5702 -2.4798 0.9660
-7.7623 2.8907 -2.4798 0.9660
-7.9888 2.1884 -2.4798 0.9660
-8.2502 0.7373 -2.4798 0.9660
-3.3867 -0.3026 -1.0798 0.9858
-3.2843 -0.5917 -1.0598 0.9861
-3.2540 -0.8913 -1.0715 0.9859
-7.3174 -2.7250 -2.4798 0.9678
-6.7183 -3.9792 -2.4798 0.9678
-6.3375 -4.5614 -2.4798 0.9678
-5.9063 -5.1074 -2.4798 0.9678
-5.4283 -5.6128 -2.4798 0.9678
-4.9072 -6.0736 -2.4798 0.9678
-1.8101 -7.5956 -2.4798 0.9678
-0.4347 -7.7962 -2.4798 0.9678
0.9545 -7.7497 -2.4798 0.9678
1.6405 -7.6340 -2.4798 0.9678
5.3019 -5.7323 -2.4798 0.9678
5.7911 -5.2377 -2.4798 0.9678
6.2343 -4.7014 -2.4798 0.9678
7.2549 -2.8873 -2.4798 0.9678
7.4831 -2.2301 -2.4798 0.9678
7.6519 -1.5553 -2.4798 0.9678
7.7599 -0.8680 -2.4798 0.9678
7.8064 -0.1739 -2.4798 0.9678
7.7909 0.5216 -2.4798 0.9678
7.7136 1.2129 -2.4798 0.9678
7.5750 1.8946 -2.4798 0.9678
6.9230 2.4040 -2.3274 0.9697
6.6815 3.0106 -2.3274 0.9697
6.3871 3.5934 -2.3274 0.9697
6.0419 4.1476 -2.3274 0.9697
5.6488 4.6689 -2.3274 0.9697
4.7315 5.5964 -2.3274 0.9697
2.4809 6.8958 -2.3274 0.9697
-0.0816 7.3281 -2.3274 0.9697
-0.7335 7.2917 -2.3274 0.9697
-2.6339 6.8388 -2.3274 0.9697
-3.2321 6.5772 -2.3274 0.9697
-4.3471 5.9000 -2.3274 0.9697
-6.5344 4.2746 -2.4798 0.9678
-6.8889 3.6761 -2.4798 0.9678
-7.1887 3.0483 -2.4798 0.9678
-7.4315 2.3964 -2.4798 0.9678
-3.3189 -0.4463 -1.0635 0.9860
-3.2827 -1.0585 -1.0954 0.9856
-6.5344 -4.2746 -2.4798 0.9678
-5.6729 -5.3654 -2.4798 0.9678
-5.1729 -5.8490 -2.4798 0.9678
-3.4438 -7.0078 -2.4798 0.9678
-2.1467 -7.5074 -2.4798 0.9678
-1.4700 -7.6687 -2.4798 0.9678
-0.0870 -7.8078 -2.4798 0.9678
1.2988 -7.6995 -2.4798 0.9678
2.6434 -7.3472 -2.4798 0.9678
3.2868 -7.0828 -2.4798 0.9678
4.4905 -6.3879 -2.4798 0.9678
5.0413 -5.9628 -2.4798 0.9678
7.7909 -0.5215 -2.4798 0.9678
7.8064 0.1740 -2.4798 0.9678
7.7599 0.8681 -2.4798 0.9678
7.4831 2.2303 -2.4798 0.9678
5.8511 4.4126 -2.3274 0.9697
4.4775 5.8017 -2.3274 0.9697
3.3779 6.5036 -2.3274 0.9697
2.7856 6.7784 -2.3274 0.9697
1.5396 7.1649 -2.3274 0.9697
0.8958 7.2735 -2.3274 0.9697
0.2449 7.3244 -2.3274 0.9697
-1.6989 7.1289 -2.3274 0.9697
-2.9359 6.7147 -2.3274 0.9697
-3.5219 6.4267 -2.3274 0.9697
-4.0799 6.0878 -2.3274 0.9697
-5.0947 5.2679 -2.3274 0.9697
-5.5433 4.7936 -2.3274 0.9697
-6.3375 4.5615 -2.4798 0.9678
-7.0458 3.3655 -2.4798 0.9678
-7.7773 0.6950 -2.4798 0.9678
-3.6184 0.0000 -1.2157 0.9848
-6.6600 -3.1812 -2.4798 0.9693
-6.3504 -3.7613 -2.4798 0.9693
-5.5829 -4.8277 -2.4798 0.9693
-4.6385 -5.7411 -2.4798 0.9693
-4.1091 -6.1311 -2.4798 0.9693
-3.5471 -6.4725 -2.4798 0.9693
-2.3432 -6.9989 -2.4798 0.9693
-1.7110 -7.1797 -2.4798 0.9693
-1.0652 -7.3035 -2.4798 0.9693
0.2466 -7.3766 -2.4798 0.9693
0.9022 -7.3254 -2.4798 0.9693
1.5506 -7.2160 -2.4798 0.9693
2.1867 -7.0493 -2.4798 0.9693
3.4020 -6.5499 -2.4798 0.9693
3.9715 -6.2211 -2.4798 0.9693
4.5094 -5.8430 -2.4798 0.9693
6.2651 -3.9019 -2.4798 0.9693
6.5875 -3.3288 -2.4798 0.9693
6.8576 -2.7292 -2.4798 0.9693
7.2329 -1.4701 -2.4798 0.9693
7.3350 -0.8205 -2.4798 0.9693
7.3643 0.4930 -2.4798 0.9693
7.2912 1.1465 -2.4798 0.9693
7.1602 1.7909 -2.4798 0.9693
6.0373 3.3966 -2.3274 0.9712
4.9255 4.8709 -2.3274 0.9712
3.9838 5.6671 -2.3274 0.9712
3.4636 5.9991 -2.3274 0.9712
1.7556 6.7011 -2.3274 0.9712
-0.0772 6.9268 -2.3274 0.9712
-0.6934 6.8924 -2.3274 0.9712
-1.9044 6.6603 -2.3274 0.9712
-2.4897 6.4643 -2.3274 0.9712
-4.5891 5.1890 -2.3274 0.9712
-5.0327 4.7600 -2.3274 0.9712
-7.0246 2.2652 -2.4798 0.9693
-7.1983 1.6310 -2.4798 0.9693
-7.3149 0.9838 -2.4798 0.9693
-3.1639 -0.4255 -1.0726 0.9866
-3.1355 -0.7104 -1.0802 0.9865
-6.5117 -3.4747 -2.4798 0.9693
-5.7924 -4.5742 -2.4798 0.9693
-4.8896 -5.5287 -2.4798 0.9693
-3.8319 -6.3081 -2.4798 0.9693
-3.2552 -6.6241 -2.4798 0.9693
-2.0291 -7.0963 -2.4798 0.9693
-1.3895 -7.2487 -2.4798 0.9693
-0.7388 -7.3437 -2.4798 0.9693
-0.0822 -7.3803 -2.4798 0.9693
0.5750 -7.3583 -2.4798 0.9693
1.2276 -7.2779 -2.4798 0.9693
3.1068 -6.6950 -2.4798 0.9693
4.7652 -5.6363 -2.4798 0.9693
5.2480 -5.1898 -2.4798 0.9693
6.4326 -3.6189 -2.4798 0.9693
6.9724 -2.4210 -2.4798 0.9693
7.2912 -1.1464 -2.4798 0.9693
7.3643 -0.4929 -2.4798 0.9693
7.3789 0.1645 -2.4798 0.9693
7.3350 0.8206 -2.4798 0.9693
7.0733 2.1081 -2.4798 0.9693
6.4362 2.5616 -2.3274 0.9712
6.1826 3.1243 -2.3274 0.9712
5.8800 3.6622 -2.3274 0.9712
4.2323 5.4840 -2.3274 0.9712
3.1929 6.1475 -2.3274 0.9712
2.6331 6.4072 -2.3274 0.9712
2.0524 6.6162 -2.3274 0.9712
1.4553 6.7726 -2.3274 0.9712
0.8468 6.8753 -2.3274 0.9712
-0.3857 6.9165 -2.3274 0.9712
-2.1992 6.5688 -2.3274 0.9712
-3.8565 5.7544 -2.3274 0.9712
-4.3534 5.3883 -2.3274 0.9712
-4.8157 4.9795 -2.3274 0.9712
-6.9167 2.5758 -2.4798 0.9693
-7.1185 1.9500 -2.4798 0.9693
-7.2638 1.3087 -2.4798 0.9693
-7.3515 0.6570 -2.4798 0.9693
-3.4902 0.0000 -1.2376 0.9853
-3.0442 -0.5484 -1.0968 0.9870
-5.2900 -4.5744 -2.4798 0.9708
-4.3951 -5.4399 -2.4798 0.9708
-3.3610 -6.1329 -2.4798 0.9708
-2.8017 -6.4077 -2.4798 0.9708
-2.2203 -6.6317 -2.4798 0.9708
-1.0093 -6.9203 -2.4798 0.9708
-0.3893 -6.9826 -2.4798 0.9708
0.2337 -6.9896 -2.4798 0.9708
0.8549 -6.9410 -2.4798 0.9708
2.6583 -6.4686 -2.4798 0.9708
3.2235 -6.2063 -2.4798 0.9708
4.2728 -5.5364 -2.4798 0.9708
4.7486 -5.1341 -2.4798 0.9708
5.1868 -4.6911 -2.4798 0.9708
5.5837 -4.2108 -2.4798 0.9708
5.9363 -3.6971 -2.4798 0.9708
6.4978 -2.5860 -2.4798 0.9708
6.8534 -1.3930 -2.4798 0.9708
6.9502 -0.7775 -2.4798 0.9708
6.9779 0.4672 -2.4798 0.9708
6.7845 1.6970 -2.4798 0.9708
5.7206 3.2184 -2.3274 0.9725
5.4114 3.7148 -2.3274 0.9725
5.0593 4.1816 -2.3274 0.9725
4.2377 5.0124 -2.3274 0.9725
3.2819 5.6844 -2.3274 0.9725
2.7629 5.9539 -2.3274 0.9725
1.6635 6.3495 -2.3274 0.9725
1.0917 6.4723 -2.3274 0.9725
-1.2357 6.4464 -2.3274 0.9725
-1.8045 6.3108 -2.3274 0.9725
-4.7687 4.5103 -2.3274 0.9725
-5.4885 4.3343 -2.4798 0.9708
-5.8525 3.8286 -2.4798 0.9708
-6.9311 0.9322 -2.4798 0.9708
-3.9464 0.1760 -1.4007 0.9834
-3.1623 -0.1410 -1.1224 0.9867
-3.0595 -0.4114 -1.0946 0.9870
-3.0191 -0.9735 -1.1248 0.9866
-6.4386 -2.7302 -2.4798 0.9708
-5.4885 -4.3342 -2.4798 0.9708
-5.0810 -4.8055 -2.4798 0.9708
-4.6331 -5.2387 -2.4798 0.9708
-4.1484 -5.6302 -2.4798 0.9708
-3.6308 -5.9771 -2.4798 0.9708
-3.0844 -6.2766 -2.4798 0.9708
-0.7000 -6.9584 -2.4798 0.9708
1.7724 -6.7652 -2.4798 0.9708
2.3675 -6.5805 -2.4798 0.9708
2.9438 -6.3437 -2.4798 0.9708
3.4968 -6.0565 -2.4798 0.9708
4.5152 -5.3406 -2.4798 0.9708
5.3906 -4.4554 -2.4798 0.9708
6.0951 -3.4290 -2.4798 0.9708
6.9502 0.7775 -2.4798 0.9708
6.7022 1.9975 -2.4798 0.9708
5.8583 2.9603 -2.3274 0.9725
4.8680 4.4029 -2.3274 0.9725
4.0102 5.1962 -2.3274 0.9725
0.8023 6.5146 -2.3274 0.9725
-1.5216 6.3850 -2.3274 0.9725
-2.0838 6.2242 -2.3274 0.9725
-3.1544 5.7561 -2.3274 0.9725
-4.1250 5.1056 -2.3274 0.9725
-4.5630 4.7182 -2.3274 0.9725
-6.7450 1.8477 -2.4798 0.9708
-6.9658 0.6225 -2.4798 0.9708
-2.9938 -0.2675 -1.1224 0.9872
-2.9455 -0.5306 -1.1176 0.9873
-2.9169 -0.7990 -1.1293 0.9872
-2.9238 -1.0888 -1.1650 0.9868
-5.7139 -3.3843 -2.4798 0.9720
-5.0233 -4.3438 -2.4798 0.9720
-3.6972 -5.5166 -2.4798 0.9720
-3.1915 -5.8238 -2.4798 0.9720
-2.1084 -6.2973 -2.4798 0.9720
-0.9584 -6.5713 -2.4798 0.9720
-0.3697 -6.6306 -2.4798 0.9720
1.9676 -6.3428 -2.4798 0.9720
2.5243 -6.1424 -2.4798 0.9720
3.0610 -5.8934 -2.4798 0.9720
4.9253 -4.4546 -2.4798 0.9720
5.6371 -3.5107 -2.4798 0.9720
6.5079 -1.3227 -2.4798 0.9720
6.6261 0.4436 -2.4798 0.9720
6.2735 2.1784 -2.4798 0.9720
5.4322 3.0561 -2.3274 0.9737
5.1386 3.5275 -2.3274 0.9737
4.0241 4.7598 -2.3274 0.9737
3.5845 5.0990 -2.3274 0.9737
2.6236 5.6538 -2.3274 0.9737
1.5796 6.0294 -2.3274 0.9737
0.4856 6.2139 -2.3274 0.9737
-0.6239 6.2016 -2.3274 0.9737
-2.2401 5.8164 -2.3274 0.9737
-2.7489 5.5939 -2.3274 0.9737
-3.2359 5.3271 -2.3274 0.9737
-3.6972 5.0179 -2.3274 0.9737
-4.1291 4.6689 -2.3274 0.9737
-5.8590 3.1265 -2.4798 0.9720
-2.9640 -0.3986 -1.1167 0.9873
-6.1140 -2.5925 -2.4798 0.9720
-4.3995 -4.9746 -2.4798 0.9720
-3.4478 -5.6758 -2.4798 0.9720
-2.9289 -5.9602 -2.4798 0.9720
-1.2502 -6.5222 -2.4798 0.9720
1.1046 -6.5484 -2.4798 0.9720
1.6831 -6.4241 -2.4798 0.9720
3.8192 -5.4328 -2.4798 0.9720
4.2876 -5.0713 -2.4798 0.9720
5.1188 -4.2308 -2.4798 0.9720
5.7879 -3.2561 -2.4798 0.9720
6.0547 -2.7281 -2.4798 0.9720
6.2735 -2.1783 -2.4798 0.9720
6.5603 -1.0315 -2.4798 0.9720
6.5998 0.7383 -2.4798 0.9720
6.1702 2.4558 -2.4798 0.9720
5.2906 3.2951 -2.3274 0.9737
4.6226 4.1809 -2.3274 0.9737
4.2321 4.5757 -2.3274 0.9737
3.8081 4.9343 -2.3274 0.9737
2.8729 5.5313 -2.3274 0.9737
1.3095 6.0938 -2.3274 0.9737
-0.8995 6.1676 -2.3274 0.9737
-1.4449 6.0631 -2.3274 0.9737
-2.4970 5.7108 -2.3274 0.9737
-2.9954 5.4659 -2.3274 0.9737
-3.9170 4.8482 -2.3274 0.9737
-4.3330 4.4803 -2.3274 0.9737
-5.3900 3.8795 -2.4798 0.9720
-6.4050 1.7545 -2.4798 0.9720
-4.2614 0.3808 -1.5976 0.9819
-3.2641 0.0000 -1.2811 0.9861
-2.9005 -0.2592 -1.1429 0.9876
-2.8313 -0.7756 -1.1521 0.9875
-5.7014 -2.7233 -2.4798 0.9732
-5.4364 -3.2200 -2.4798 0.9732
-5.1282 -3.6911 -2.4798 0.9732
-3.9708 -4.9147 -2.4798 0.9732
-3.5176 -5.2486 -2.4798 0.9732
-2.5313 -5.7892 -2.4798 0.9732
0.2111 -6.3148 -2.4798 0.9732
0.7724 -6.2710 -2.4798 0.9732
1.3275 -6.1774 -2.4798 0.9732
1.8720 -6.0347 -2.4798 0.9732
2.4017 -5.8441 -2.4798 0.9732
2.9123 -5.6072 -2.4798 0.9732
4.2903 -4.6385 -2.4798 0.9732
4.6861 -4.2383 -2.4798 0.9732
5.3633 -3.3402 -2.4798 0.9732
6.1918 -1.2585 -2.4798 0.9732
6.2793 -0.7024 -2.4798 0.9732
6.3169 -0.1407 -2.4798 0.9732
6.3043 0.4221 -2.4798 0.9732
6.2417 0.9815 -2.4798 0.9732
5.1684 2.9077 -2.3274 0.9748
4.5709 3.7780 -2.3274 0.9748
4.2165 4.1699 -2.3274 0.9748
2.9651 5.1357 -2.3274 0.9748
2.0075 5.5801 -2.3274 0.9748
1.5029 5.7366 -2.3274 0.9748
0.4620 5.9121 -2.3274 0.9748
-0.0661 5.9298 -2.3274 0.9748
-0.5936 5.9004 -2.3274 0.9748
-1.1164 5.8241 -2.3274 0.9748
-2.6154 5.3223 -2.3274 0.9748
-3.0787 5.0684 -2.3274 0.9748
-4.5905 4.3417 -2.4798 0.9732
-5.2876 3.4590 -2.4798 0.9732
-5.8171 2.4667 -2.4798 0.9732
-6.0135 1.9392 -2.4798 0.9732
-6.1623 1.3962 -2.4798 0.9732
-2.8403 -0.9159 -1.1712 0.9873
-2.8717 -1.2177 -1.2242 0.9867
-4.9587 -3.9158 -2.4798 0.9732
-4.1858 -4.7330 -2.4798 0.9732
-3.7480 -5.0868 -2.4798 0.9732
-3.2803 -5.4001 -2.4798 0.9732
-1.7371 -6.0749 -2.4798 0.9732
-0.6324 -6.2867 -2.4798 0.9732
1.0509 -6.2304 -2.4798 0.9732
1.6013 -6.1121 -2.4798 0.9732
2.6597 -5.7314 -2.4798 0.9732
3.1592 -5.4719 -2.4798 0.9732
3.6337 -5.1690 -2.4798 0.9732
4.0794 -4.8251 -2.4798 0.9732
4.4926 -4.4428 -2.4798 0.9732
4.8702 -4.0253 -2.4798 0.9732
5.5068 -3.0980 -2.4798 0.9732
6.1296 -1.5331 -2.4798 0.9732
6.2417 -0.9814 -2.4798 0.9732
6.3043 -0.4220 -2.4798 0.9732
5.8706 2.3365 -2.4798 0.9732
5.0337 3.1351 -2.3274 0.9748
4.7347 3.5706 -2.3274 0.9748
3.6231 4.6947 -2.3274 0.9748
3.1909 4.9985 -2.3274 0.9748
1.7570 5.6639 -2.3274 0.9748
0.7249 5.8857 -2.3274 0.9748
0.1982 5.9269 -2.3274 0.9748
-0.3301 5.9210 -2.3274 0.9748
-1.3747 5.7687 -2.3274 0.9748
-1.8827 5.6234 -2.3274 0.9748
-2.3757 5.4335 -2.3274 0.9748
-4.2246 4.3682 -2.3850 0.9742
-5.1282 3.6911 -2.4798 0.9732
-5.4364 3.2200 -2.4798 0.9732
-5.7014 2.7234 -2.4798 0.9732
-5.9212 2.2051 -2.4798 0.9732
-6.0939 1.6693 -2.4798 0.9732
-2.7842 -1.0368 -1.2234 0.9872
-4.5552 -3.9390 -2.4798 0.9743
-4.1865 -4.3288 -2.4798 0.9743
-3.7846 -4.6843 -2.4798 0.9743
-2.8941 -5.2811 -2.4798 0.9743
-1.9119 -5.7105 -2.4798 0.9743
-1.3960 -5.8580 -2.4798 0.9743
0.2012 -6.0187 -2.4798 0.9743
0.7361 -5.9769 -2.4798 0.9743
1.2652 -5.8877 -2.4798 0.9743
2.7758 -5.3442 -2.4798 0.9743
3.2404 -5.0760 -2.4798 0.9743
4.0891 -4.4210 -2.4798 0.9743
4.4663 -4.0395 -2.4798 0.9743
5.1118 -3.1836 -2.4798 0.9743
5.5953 -2.2268 -2.4798 0.9743
5.7713 -1.7200 -2.4798 0.9743
6.0207 -0.1341 -2.4798 0.9743
6.0087 0.4023 -2.4798 0.9743
5.9491 0.9355 -2.4798 0.9743
5.8422 1.4613 -2.4798 0.9743
5.6889 1.9754 -2.4798 0.9743
5.4905 2.4740 -2.4798 0.9743
4.3566 3.6008 -2.3274 0.9758
4.0188 3.9743 -2.3274 0.9758
3.6491 4.3162 -2.3274 0.9758
3.2505 4.6239 -2.3274 0.9758
2.8260 4.8948 -2.3274 0.9758
0.4403 5.6349 -2.3274 0.9758
-0.0630 5.6517 -2.3274 0.9758
-0.5657 5.6237 -2.3274 0.9758
-1.0640 5.5510 -2.3274 0.9758
-2.4928 5.0727 -2.3274 0.9758
-2.9344 4.8307 -2.3274 0.9758
-3.3527 4.5503 -2.3274 0.9758
-3.7998 4.2966 -2.3619 0.9755
-4.3752 4.1381 -2.4798 0.9743
-4.7262 3.7323 -2.4798 0.9743
-5.0396 3.2968 -2.4798 0.9743
-5.3130 2.8352 -2.4798 0.9743
-5.5443 2.3510 -2.4798 0.9743
-5.7315 1.8482 -2.4798 0.9743
-5.8733 1.3307 -2.4798 0.9743
-5.9684 0.8027 -2.4798 0.9743
-2.8016 -1.1879 -1.2531 0.9869
-5.0396 -3.2967 -2.4798 0.9743
-4.3752 -4.1380 -2.4798 0.9743
-3.9896 -4.5110 -2.4798 0.9743
-3.1265 -5.1469 -2.4798 0.9743
-2.6560 -5.4048 -2.4798 0.9743
-2.1644 -5.6197 -2.4798 0.9743
-1.6556 -5.7901 -2.4798 0.9743
-1.1337 -5.9144 -2.4798 0.9743
-0.6028 -5.9919 -2.4798 0.9743
-0.0671 -6.0217 -2.4798 0.9743
1.0017 -5.9382 -2.4798 0.9743
1.5262 -5.8255 -2.4798 0.9743
2.0387 -5.6665 -2.4798 0.9743
2.5349 -5.4626 -2.4798 0.9743
3.0111 -5.2153 -2.4798 0.9743
3.4633 -4.9266 -2.4798 0.9743
3.8881 -4.5988 -2.4798 0.9743
4.6419 -3.8365 -2.4798 0.9743
5.2485 -2.9528 -2.4798 0.9743
5.6889 -1.9754 -2.4798 0.9743
5.9490 -0.9354 -2.4798 0.9743
6.0087 -0.4022 -2.4798 0.9743
6.0206 0.1342 -2.4798 0.9743
5.9015 1.1996 -2.4798 0.9743
5.5953 2.2269 -2.4798 0.9743
1.6746 5.3983 -2.3274 0.9758
1.1875 5.5260 -2.3274 0.9758
0.6909 5.6097 -2.3274 0.9758
-0.3147 5.6433 -2.3274 0.9758
-0.8157 5.5929 -2.3274 0.9758
-1.3103 5.4981 -2.3274 0.9758
-1.7944 5.3597 -2.3274 0.9758
-2.2643 5.1787 -2.3274 0.9758
-2.7163 4.9566 -2.3274 0.9758
-3.1466 4.6952 -2.3274 0.9758
-4.5552 3.9391 -2.4798 0.9743
-5.1815 3.0690 -2.4798 0.9743
-5.4340 2.5957 -2.4798 0.9743
-5.6435 2.1017 -2.4798 0.9743
-2.7278 -0.4914 -1.1956 0.9880
-2.7209 -1.0132 -1.2524 0.9874
-2.7884 -1.6516 -1.3980 0.9860
-3.9965 -4.1323 -2.4798 0.9753
-2.3031 -5.2673 -2.4798 0.9753
-1.3327 -5.5922 -2.4798 0.9753
-0.8297 -5.6886 -2.4798 0.9753
0.1921 -5.7456 -2.4798 0.9753
0.7027 -5.7057 -2.4798 0.9753
1.2078 -5.6205 -2.4798 0.9753
1.7032 -5.4907 -2.4798 0.9753
2.1852 -5.3173 -2.4798 0.9753
2.6498 -5.1017 -2.4798 0.9753
3.9035 -4.2204 -2.4798 0.9753
4.8798 -3.0391 -2.4798 0.9753
5.3414 -2.1258 -2.4798 0.9753
5.6336 -1.1451 -2.4798 0.9753
5.7132 -0.6391 -2.4798 0.9753
5.7474 -0.1280 -2.4798 0.9753
5.7360 0.3840 -2.4798 0.9753
4.1589 3.4374 -2.3274 0.9768
3.1030 4.4141 -2.3274 0.9768
0.8974 5.3204 -2.3274 0.9768
-0.0601 5.3952 -2.3274 0.9768
-1.9392 5.0350 -2.3274 0.9768
-2.3796 4.8425 -2.3274 0.9768
-2.8012 4.6114 -2.3274 0.9768
-4.1767 3.9503 -2.4798 0.9753
-5.0719 2.7065 -2.4798 0.9753
-5.6067 1.2704 -2.4798 0.9753
-2.7200 -0.6162 -1.2030 0.9879
-2.7166 -0.8760 -1.2313 0.9876
-5.0719 -2.7064 -2.4798 0.9753
-4.8109 -3.1471 -2.4798 0.9753
-4.1767 -3.9503 -2.4798 0.9753
-3.8085 -4.3063 -2.4798 0.9753
-3.4101 -4.6282 -2.4798 0.9753
-2.9846 -4.9133 -2.4798 0.9753
-2.0662 -5.3647 -2.4798 0.9753
-1.5805 -5.5272 -2.4798 0.9753
-0.5754 -5.7199 -2.4798 0.9753
-0.0640 -5.7485 -2.4798 0.9753
0.9562 -5.6687 -2.4798 0.9753
1.4570 -5.5611 -2.4798 0.9753
3.3061 -4.7030 -2.4798 0.9753
4.0876 -4.0423 -2.4798 0.9753
5.2414 -2.3616 -2.4798 0.9753
5.4307 -1.8857 -2.4798 0.9753
5.7360 -0.3839 -2.4798 0.9753
5.7474 0.1281 -2.4798 0.9753
5.7132 0.6392 -2.4798 0.9753
5.6336 1.1451 -2.4798 0.9753
4.3079 3.2488 -2.3274 0.9768
3.2965 4.2715 -2.3274 0.9768
2.4869 4.7882 -2.3274 0.9768
1.5986 5.1533 -2.3274 0.9768
0.1803 5.3926 -2.3274 0.9768
-0.3004 5.3872 -2.3274 0.9768
-1.2508 5.2486 -2.3274 0.9768
-2.5930 4.7317 -2.3274 0.9768
-3.4186 4.2313 -2.3464 0.9766
-3.9965 4.1325 -2.4798 0.9753
-5.3874 2.0063 -2.4798 0.9753
-5.6578 1.0193 -2.4798 0.9753
-3.8265 0.3419 -1.6572 0.9834
-2.9980 0.0000 -1.3528 0.9869
-2.6738 -0.4817 -1.2259 0.9881
-2.6546 -0.7271 -1.2419 0.9880
-2.6666 -1.2737 -1.3334 0.9871
-2.6867 -1.5913 -1.4090 0.9864
-4.1571 -3.5947 -2.4798 0.9762
-3.8206 -3.9505 -2.4798 0.9762
-3.4539 -4.2749 -2.4798 0.9762
-2.6412 -4.8195 -2.4798 0.9762
-1.2740 -5.3460 -2.4798 0.9762
-0.7931 -5.4382 -2.4798 0.9762
-0.3060 -5.4872 -2.4798 0.9762
1.1546 -5.3731 -2.4798 0.9762
2.0890 -5.0832 -2.4798 0.9762
2.5332 -4.8772 -2.4798 0.9762
2.9572 -4.6323 -2.4798 0.9762
3.3578 -4.3507 -2.4798 0.9762
3.7317 -4.0346 -2.4798 0.9762
4.0760 -3.6864 -2.4798 0.9762
4.3879 -3.3091 -2.4798 0.9762
4.6650 -2.9054 -2.4798 0.9762
5.1063 -2.0322 -2.4798 0.9762
5.3857 -1.0946 -2.4798 0.9762
5.4617 -0.6109 -2.4798 0.9762
5.0107 2.2577 -2.4798 0.9762
4.2525 2.9192 -2.3274 0.9776
3.9758 3.2862 -2.3274 0.9776
2.5790 4.4671 -2.3274 0.9776
1.7461 4.8535 -2.3274 0.9776
0.8579 5.0862 -2.3274 0.9776
0.4018 5.1424 -2.3274 0.9776
-1.8538 4.8134 -2.3274 0.9776
-2.2749 4.6293 -2.3274 0.9776
-3.9928 3.7765 -2.4798 0.9762
-4.5991 3.0087 -2.4798 0.9762
-5.0597 2.1455 -2.4798 0.9762
-5.3600 1.2144 -2.4798 0.9762
-5.4468 0.7326 -2.4798 0.9762
-3.2609 0.1454 -1.4728 0.9858
-2.7833 -0.1241 -1.2571 0.9878
-2.6659 -0.6040 -1.2334 0.9881
-2.6574 -0.8569 -1.2599 0.9878
-2.6675 -1.1311 -1.3074 0.9874
-4.8487 -2.5873 -2.4798 0.9762
-4.3131 -3.4060 -2.4798 0.9762
-3.6409 -4.1168 -2.4798 0.9762
-3.2600 -4.4245 -2.4798 0.9762
-2.8533 -4.6971 -2.4798 0.9762
-1.9752 -5.1285 -2.4798 0.9762
-1.5109 -5.2840 -2.4798 0.9762
-0.5501 -5.4682 -2.4798 0.9762
0.9141 -5.4192 -2.4798 0.9762
1.3928 -5.3163 -2.4798 0.9762
1.8605 -5.1713 -2.4798 0.9762
2.3134 -4.9851 -2.4798 0.9762
2.7479 -4.7595 -2.4798 0.9762
3.1606 -4.4960 -2.4798 0.9762
3.9077 -3.8644 -2.4798 0.9762
4.5310 -3.1103 -2.4798 0.9762
4.7898 -2.6947 -2.4798 0.9762
5.0107 -2.2576 -2.4798 0.9762
5.1917 -1.8027 -2.4798 0.9762
5.4835 -0.3670 -2.4798 0.9762
5.4945 0.1225 -2.4798 0.9762
5.3857 1.0947 -2.4798 0.9762
5.1063 2.0323 -2.4798 0.9762
4.9051 2.4787 -2.4798 0.9762
4.5038 2.8050 -2.3941 0.9770
4.1183 3.1058 -2.3274 0.9776
3.8255 3.4600 -2.3274 0.9776
3.5024 3.7867 -2.3274 0.9776
2.7755 4.3477 -2.3274 0.9776
1.9606 4.7710 -2.3274 0.9776
1.0837 5.0430 -2.3274 0.9776
0.6305 5.1194 -2.3274 0.9776
0.1724 5.1552 -2.3274 0.9776
-0.2872 5.1501 -2.3274 0.9776
-1.1957 5.0176 -2.3274 0.9776
-1.6376 4.8913 -2.3274 0.9776
-2.8716 4.2848 -2.3274 0.9776
-3.4016 4.2102 -2.4422 0.9765
-4.7286 2.8008 -2.4798 0.9762
-4.9591 2.3688 -2.4798 0.9762
-5.4087 0.9745 -2.4798 0.9762
-2.9112 0.0000 -1.3723 0.9872
-2.6212 -0.4722 -1.2555 0.9883
-2.6023 -0.9691 -1.3090 0.9878
-4.2698 -3.0732 -2.4798 0.9770
-3.9793 -3.4410 -2.4798 0.9770
-3.6572 -3.7815 -2.4798 0.9770
-2.9288 -4.3701 -2.4798 0.9770
-1.2195 -5.1174 -2.4798 0.9770
-0.7592 -5.2056 -2.4798 0.9770
-0.2929 -5.2526 -2.4798 0.9770
1.5586 -5.0245 -2.4798 0.9770
1.9997 -4.8659 -2.4798 0.9770
2.4248 -4.6686 -2.4798 0.9770
2.8307 -4.4342 -2.4798 0.9770
3.2142 -4.1647 -2.4798 0.9770
3.5721 -3.8621 -2.4798 0.9770
5.1554 -1.0478 -2.4798 0.9770
5.2282 -0.5848 -2.4798 0.9770
5.2595 -0.1171 -2.4798 0.9770
5.1969 0.8172 -2.4798 0.9770
4.7964 2.1612 -2.4798 0.9770
4.1741 2.8654 -2.3866 0.9779
3.5107 3.4719 -2.3274 0.9784
3.1878 3.7705 -2.3274 0.9784
2.4687 4.2760 -2.3274 0.9784
2.0784 4.4788 -2.3274 0.9784
1.6715 4.6460 -2.3274 0.9784
1.2513 4.7763 -2.3274 0.9784
-0.0550 4.9372 -2.3274 0.9784
-0.9295 4.8492 -2.3274 0.9784
-1.3574 4.7472 -2.3274 0.9784
-2.1776 4.4313 -2.3274 0.9784
-2.5634 4.2200 -2.3274 0.9784
-4.4024 2.8800 -2.4798 0.9770
-4.6413 2.4767 -2.4798 0.9770
-4.8433 2.0538 -2.4798 0.9770
-5.0069 1.6146 -2.4798 0.9770
-5.2138 0.7012 -2.4798 0.9770
-3.1522 0.1406 -1.4873 0.9861
-2.6131 -0.5920 -1.2630 0.9882
-2.5994 -0.8382 -1.2874 0.9880
-2.6038 -1.1041 -1.3332 0.9876
-2.5902 -1.3822 -1.3839 0.9871
-4.4024 -2.8799 -2.4798 0.9770
-4.1286 -3.2603 -2.4798 0.9770
-3.8221 -3.6148 -2.4798 0.9770
-3.4852 -3.9407 -2.4798 0.9770
-3.1206 -4.2352 -2.4798 0.9770
-2.3202 -4.7214 -2.4798 0.9770
-1.8908 -4.9092 -2.4798 0.9770
-0.9904 -5.1666 -2.4798 0.9770
-0.0586 -5.2604 -2.4798 0.9770
0.4098 -5.2447 -2.4798 0.9770
0.8750 -5.1874 -2.4798 0.9770
1.3333 -5.0890 -2.4798 0.9770
2.2145 -4.7719 -2.4798 0.9770
2.6304 -4.5559 -2.4798 0.9770
3.7406 -3.6991 -2.4798 0.9770
4.9697 -1.7256 -2.4798 0.9770
5.1036 -1.2764 -2.4798 0.9770
5.1969 -0.8171 -2.4798 0.9770
5.2490 -0.3513 -2.4798 0.9770
5.2282 0.5849 -2.4798 0.9770
5.0416 1.5026 -2.4798 0.9770
4.6953 2.3727 -2.4798 0.9770
3.9421 2.9729 -2.3274 0.9784
3.3526 3.6248 -2.3274 0.9784
2.2758 4.3817 -2.3274 0.9784
0.6036 4.9005 -2.3274 0.9784
-0.7126 4.8858 -2.3274 0.9784
-1.1446 4.8030 -2.3274 0.9784
-1.5675 4.6821 -2.3274 0.9784
-2.3729 4.3299 -2.3274 0.9784
-2.7608 4.1195 -2.3376 0.9783
-4.2698 3.0732 -2.4798 0.9770
-2.8280 0.0000 -1.3909 0.9875
-2.5903 -0.2315 -1.2791 0.9885
-2.5698 -0.4630 -1.2843 0.9884
-2.5499 -0.6985 -1.3004 0.9883
-2.5457 -1.2160 -1.3876 0.9875
-3.8136 -3.2977 -2.4798 0.9778
-3.1685 -3.9217 -2.4798 0.9778
-2.4230 -4.4213 -2.4798 0.9778
-2.0198 -4.6194 -2.4798 0.9778
-1.6006 -4.7808 -2.4798 0.9778
-1.1688 -4.9044 -2.4798 0.9778
-0.7276 -4.9889 -2.4798 0.9778
0.6163 -5.0039 -2.4798 0.9778
1.9164 -4.6633 -2.4798 0.9778
2.3239 -4.4742 -2.4798 0.9778
2.7129 -4.2496 -2.4798 0.9778
3.0804 -3.9913 -2.4798 0.9778
3.4234 -3.7013 -2.4798 0.9778
3.7392 -3.3819 -2.4798 0.9778
4.0254 -3.0357 -2.4798 0.9778
4.8317 -1.4399 -2.4798 0.9778
5.0105 -0.5604 -2.4798 0.9778
5.0405 -0.1123 -2.4798 0.9778
5.0305 0.3368 -2.4798 0.9778
4.9805 0.7832 -2.4798 0.9778
4.5967 2.0712 -2.4798 0.9778
4.3941 2.4721 -2.4798 0.9778
4.1541 2.8517 -2.4783 0.9778
3.6474 3.0146 -2.3274 0.9791
3.3645 3.3273 -2.3274 0.9791
3.0550 3.6136 -2.3274 0.9791
2.3660 4.0980 -2.3274 0.9791
1.9918 4.2923 -2.3274 0.9791
1.1992 4.5774 -2.3274 0.9791
0.3686 4.7176 -2.3274 0.9791
-0.4736 4.7082 -2.3274 0.9791
-0.8908 4.6473 -2.3274 0.9791
-1.7007 4.4158 -2.3274 0.9791
-2.0869 4.2469 -2.3274 0.9791
-2.4695 4.0654 -2.3395 0.9790
-3.3401 3.7767 -2.4798 0.9778
-4.4481 2.3736 -2.4798 0.9778
-4.9171 1.1141 -2.4798 0.9778
-2.5430 -0.8200 -1.3142 0.9882
-2.5441 -1.0788 -1.3592 0.9878
-2.5301 -1.3501 -1.4105 0.9873
-4.2192 -2.7600 -2.4798 0.9778
-3.9568 -3.1246 -2.4798 0.9778
-3.6629 -3.4643 -2.4798 0.9778
-3.3401 -3.7766 -2.4798 0.9778
-2.9907 -4.0589 -2.4798 0.9778
-2.2236 -4.5249 -2.4798 0.9778
-1.8120 -4.7048 -2.4798 0.9778
0.3928 -5.0264 -2.4798 0.9778
0.8386 -4.9715 -2.4798 0.9778
1.2778 -4.8771 -2.4798 0.9778
1.7068 -4.7440 -2.4798 0.9778
2.5209 -4.3662 -2.4798 0.9778
3.2551 -3.8501 -2.4798 0.9778
3.5849 -3.5451 -2.4798 0.9778
4.5967 -2.0711 -2.4798 0.9778
4.7628 -1.6538 -2.4798 0.9778
4.8911 -1.2233 -2.4798 0.9778
4.9806 -0.7831 -2.4798 0.9778
5.0105 0.5605 -2.4798 0.9778
4.8317 1.4400 -2.4798 0.9778
4.4999 2.2739 -2.4798 0.9778
4.2796 2.6654 -2.4798 0.9778
3.8716 2.9198 -2.3851 0.9786
3.2130 3.4739 -2.3274 0.9791
2.1811 4.1993 -2.3274 0.9791
1.7986 4.3768 -2.3274 0.9791
0.9941 4.6263 -2.3274 0.9791
0.5784 4.6965 -2.3274 0.9791
0.1581 4.7293 -2.3274 0.9791
-0.2634 4.7246 -2.3274 0.9791
-0.6829 4.6824 -2.3274 0.9791
-1.0969 4.6030 -2.3274 0.9791
-1.8957 4.3356 -2.3274 0.9791
-3.1685 3.9218 -2.4798 0.9778
-4.0920 2.9453 -2.4798 0.9778
-4.5494 2.1731 -2.4798 0.9778
-4.7247 1.7596 -2.4798 0.9778
-4.8626 1.3320 -2.4798 0.9778
-3.6334 0.3247 -1.7942 0.9839
-2.4879 -1.1884 -1.4135 0.9877
-2.4521 -1.4524 -1.4611 0.9873
-3.9259 -2.8256 -2.4798 0.9785
-3.6588 -3.1639 -2.4798 0.9785
-3.3627 -3.4769 -2.4798 0.9785
-3.0399 -3.7624 -2.4798 0.9785
-1.9378 -4.4319 -2.4798 0.9785
-1.1213 -4.7053 -2.4798 0.9785
-0.2693 -4.8295 -2.4798 0.9785
0.1616 -4.8343 -2.4798 0.9785
0.5913 -4.8007 -2.4798 0.9785
1.0162 -4.7290 -2.4798 0.9785
1.8386 -4.4739 -2.4798 0.9785
2.9553 -3.8292 -2.4798 0.9785
3.5874 -3.2446 -2.4798 0.9785
3.8620 -2.9124 -2.4798 0.9785
4.1058 -2.5571 -2.4798 0.9785
4.3172 -2.1815 -2.4798 0.9785
4.4942 -1.7886 -2.4798 0.9785
4.7401 -0.9634 -2.4798 0.9785
4.8071 -0.5377 -2.4798 0.9785
4.6925 1.1737 -2.4798 0.9785
2.9310 3.4669 -2.3274 0.9798
1.9110 4.1180 -2.3274 0.9798
1.5368 4.2718 -2.3274 0.9798
1.1505 4.3916 -2.3274 0.9798
0.7551 4.4766 -2.3274 0.9798
0.3537 4.5260 -2.3274 0.9798
-0.4544 4.5170 -2.3274 0.9798
-1.2481 4.3649 -2.3274 0.9798
-2.0022 4.0744 -2.3274 0.9798
-2.4566 4.0442 -2.4259 0.9790
-3.5142 3.3238 -2.4798 0.9785
-3.7961 2.9978 -2.4798 0.9785
-4.0478 2.6480 -2.4798 0.9785
-4.2675 2.2772 -2.4798 0.9785
-4.4532 1.8884 -2.4798 0.9785
-4.6036 1.4845 -2.4798 0.9785
-4.7939 0.6448 -2.4798 0.9785
-2.9775 0.1328 -1.5280 0.9867
-2.5113 -0.5690 -1.3201 0.9885
-2.4881 -0.8023 -1.3403 0.9883
-2.4879 -1.0550 -1.3854 0.9879
-2.4717 -1.3189 -1.4363 0.9875
-4.0479 -2.6480 -2.4798 0.9785
-3.7961 -2.9977 -2.4798 0.9785
-3.5142 -3.3237 -2.4798 0.9785
-3.2044 -3.6233 -2.4798 0.9785
-2.1333 -4.3411 -2.4798 0.9785
-0.9106 -4.7505 -2.4798 0.9785
0.8045 -4.7696 -2.4798 0.9785
1.2259 -4.6791 -2.4798 0.9785
1.6375 -4.5514 -2.4798 0.9785
3.4393 -3.4012 -2.4798 0.9785
3.9879 -2.7375 -2.4798 0.9785
4.2157 -2.3717 -2.4798 0.9785
4.4100 -1.9870 -2.4798 0.9785
4.6925 -1.1737 -2.4798 0.9785
4.8262 -0.3230 -2.4798 0.9785
4.7401 0.9635 -2.4798 0.9785
4.6356 1.3816 -2.4798 0.9785
4.1058 2.5572 -2.4798 0.9785
3.3669 3.0453 -2.3274 0.9798
3.0825 3.3328 -2.3274 0.9798
2.7737 3.5940 -2.3274 0.9798
2.0925 4.0288 -2.3274 0.9798
1.3450 4.3360 -2.3274 0.9798
0.1517 4.5373 -2.3274 0.9798
-0.6552 4.4923 -2.3274 0.9798
-1.0524 4.4162 -2.3274 0.9798
-1.4413 4.3049 -2.3274 0.9798
-2.6929 4.0182 -2.4798 0.9785
-3.0399 3.7625 -2.4798 0.9785
-3.6588 3.1639 -2.4798 0.9785
-3.9259 2.8257 -2.4798 0.9785
-4.3647 2.0849 -2.4798 0.9785
-4.5329 1.6881 -2.4798 0.9785
-2.6714 0.0000 -1.4261 0.9880
-2.4853 -0.2221 -1.3321 0.9887
-2.4716 -0.4453 -1.3407 0.9887
-2.4292 -1.1603 -1.4371 0.9879
-3.2293 -3.3390 -2.4798 0.9792
-2.9193 -3.6132 -2.4798 0.9792
-1.8610 -4.2561 -2.4798 0.9792
-0.6704 -4.5965 -2.4798 0.9792
-0.2586 -4.6379 -2.4798 0.9792
0.1552 -4.6426 -2.4798 0.9792
0.5678 -4.6103 -2.4798 0.9792
0.9759 -4.5415 -2.4798 0.9792
1.3763 -4.4366 -2.4798 0.9792
2.4995 -3.9153 -2.4798 0.9792
2.8381 -3.6774 -2.4798 0.9792
3.1541 -3.4101 -2.4798 0.9792
3.4451 -3.1159 -2.4798 0.9792
3.7088 -2.7969 -2.4798 0.9792
3.9430 -2.4557 -2.4798 0.9792
4.3159 -1.7177 -2.4798 0.9792
4.4517 -1.3267 -2.4798 0.9792
4.5521 -0.9252 -2.4798 0.9792
4.6440 -0.1035 -2.4798 0.9792
4.5064 1.1271 -2.4798 0.9792
4.3882 1.5238 -2.4798 0.9792
4.2351 1.9083 -2.4798 0.9792
4.0485 2.2777 -2.4798 0.9792
3.1080 3.0736 -2.3335 0.9804
2.1799 3.7757 -2.3274 0.9804
1.8352 3.9547 -2.3274 0.9804
1.4759 4.1023 -2.3274 0.9804
1.1049 4.2174 -2.3274 0.9804
-1.1986 4.1917 -2.3274 0.9804
-1.5669 4.0684 -2.3274 0.9804
-1.9489 3.9660 -2.3590 0.9802
-3.0773 3.4796 -2.4798 0.9792
-3.3748 3.1919 -2.4798 0.9792
-3.8873 2.5430 -2.4798 0.9792
-2.8952 0.1291 -1.5471 0.9869
-2.5303 -0.1128 -1.3521 0.9886
-2.4621 -0.5578 -1.3477 0.9886
-2.4330 -1.0317 -1.4108 0.9881
-2.4151 -1.2887 -1.4613 0.9877
-3.6455 -2.8788 -2.4798 0.9792
-3.3748 -3.1919 -2.4798 0.9792
-3.0774 -3.4796 -2.4798 0.9792
-2.4116 -3.9701 -2.4798 0.9792
-2.0487 -4.1689 -2.4798 0.9792
-1.2771 -4.4662 -2.4798 0.9792
-0.8745 -4.5621 -2.4798 0.9792
-0.4650 -4.6218 -2.4798 0.9792
-0.0517 -4.6449 -2.4798 0.9792
1.1773 -4.4935 -2.4798 0.9792
1.9553 -4.2136 -2.4798 0.9792
2.6714 -3.8001 -2.4798 0.9792
2.9991 -3.5473 -2.4798 0.9792
3.3029 -3.2663 -2.4798 0.9792
3.8297 -2.6289 -2.4798 0.9792
4.6348 -0.3102 -2.4798 0.9792
4.6164 0.5165 -2.4798 0.9792
4.4517 1.3268 -2.4798 0.9792
4.1459 2.0951 -2.4798 0.9792
3.7088 2.7970 -2.4798 0.9792
2.9603 3.2007 -2.3274 0.9804
1.6572 4.0325 -2.3274 0.9804
1.2917 4.1640 -2.3274 0.9804
0.9159 4.2624 -2.3274 0.9804
0.1457 4.3573 -2.3274 0.9804
-0.2427 4.3530 -2.3274 0.9804
-1.7466 3.9946 -2.3274 0.9804
-2.1894 3.9953 -2.4321 0.9796
-3.2293 3.3391 -2.4798 0.9792
-3.5137 3.0384 -2.4798 0.9792
-3.7702 2.7137 -2.4798 0.9792
-3.9967 2.3673 -2.4798 0.9792
-4.4801 1.2273 -2.4798 0.9792
-2.5975 0.0000 -1.4427 0.9882
-2.4243 -0.4368 -1.3681 0.9888
-2.3176 -1.3727 -1.4960 0.9878
-3.6239 -2.6083 -2.4798 0.9798
-3.3773 -2.9205 -2.4798 0.9798
-2.1458 -3.9155 -2.4798 0.9798
-1.7887 -4.0909 -2.4798 0.9798
-1.0351 -4.3433 -2.4798 0.9798
0.1492 -4.4624 -2.4798 0.9798
1.3229 -4.2644 -2.4798 0.9798
1.6972 -4.1297 -2.4798 0.9798
2.0580 -3.9623 -2.4798 0.9798
2.4025 -3.7634 -2.4798 0.9798
3.3114 -2.9950 -2.4798 0.9798
3.7900 -2.3604 -2.4798 0.9798
4.1485 -1.6510 -2.4798 0.9798
4.4373 -0.4963 -2.4798 0.9798
4.4550 0.2983 -2.4798 0.9798
4.3315 1.0834 -2.4798 0.9798
4.2179 1.4646 -2.4798 0.9798
2.0953 3.6291 -2.3274 0.9810
1.7639 3.8012 -2.3274 0.9810
0.3265 4.1779 -2.3274 0.9810
-0.0467 4.1903 -2.3274 0.9810
-0.4195 4.1695 -2.3274 0.9810
-1.1521 4.0291 -2.3274 0.9810
-1.5061 3.9105 -2.3274 0.9810
-1.9404 3.9486 -2.4435 0.9801
-2.9579 3.3446 -2.4798 0.9798
-3.5041 2.7671 -2.4798 0.9798
-3.7365 2.4443 -2.4798 0.9798
-4.1106 1.7431 -2.4798 0.9798
-4.4251 0.5952 -2.4798 0.9798
-2.5020 0.1116 -1.3910 0.9886
-2.3870 -0.7697 -1.3929 0.9886
-2.3793 -1.0089 -1.4353 0.9882
-2.2661 -1.4824 -1.5039 0.9877
-3.5041 -2.7671 -2.4798 0.9798
-2.9579 -3.3446 -2.4798 0.9798
-1.9692 -4.0072 -2.4798 0.9798
-1.6047 -4.1665 -2.4798 0.9798
-0.8406 -4.3851 -2.4798 0.9798
-0.4469 -4.4425 -2.4798 0.9798
0.3478 -4.4513 -2.4798 0.9798
1.1316 -4.3191 -2.4798 0.9798
1.5115 -4.2013 -2.4798 0.9798
1.8795 -4.0500 -2.4798 0.9798
2.8827 -3.4096 -2.4798 0.9798
3.1747 -3.1395 -2.4798 0.9798
3.4416 -2.8445 -2.4798 0.9798
3.6811 -2.5268 -2.4798 0.9798
3.8914 -2.1892 -2.4798 0.9798
4.2179 -1.4646 -2.4798 0.9798
4.3315 -1.0833 -2.4798 0.9798
4.4638 0.0995 -2.4798 0.9798
4.2789 1.2753 -2.4798 0.9798
4.1484 1.6511 -2.4798 0.9798
3.3114 2.9950 -2.4798 0.9798
2.8721 3.1053 -2.3493 0.9808
2.5603 3.3175 -2.3274 0.9810
1.9315 3.7189 -2.3274 0.9810
1.5929 3.8760 -2.3274 0.9810
1.2416 4.0025 -2.3274 0.9810
0.1400 4.1882 -2.3274 0.9810
-0.2333 4.1841 -2.3274 0.9810
-0.9714 4.0764 -2.3274 0.9810
-2.8060 3.4731 -2.4798 0.9798
-3.1040 3.2095 -2.4798 0.9798
-4.0289 1.9245 -2.4798 0.9798
-4.3063 1.1796 -2.4798 0.9798
