ply
format ascii 1.0
element vertex 1586
property float32 x
property float32 y
property float32 z
property float32 I
end_header
-0.0736 -6.6051 -0.0549 0.9739
0.5056 -6.4699 -0.0539 0.9744
-0.3796 -6.8079 -0.1700 0.9731
0.2188 -6.5443 -0.1633 0.9741
0.8010 -6.5039 -0.1634 0.9741
2.3573 -7.5994 -0.1984 0.9687
-0.0740 -6.6404 -0.1656 0.9738
0.5081 -6.5026 -0.1627 0.9742
-0.3822 -6.8545 -0.2854 0.9729
0.2200 -6.5809 -0.2738 0.9740
-0.0744 -6.6790 -0.2777 0.9736
1.1120 -6.5926 -0.2780 0.9736
1.8264 -6.9713 -0.2996 0.9716
-0.3869 -6.9383 -0.4047 0.9725
0.8130 -6.6007 -0.3873 0.9737
-0.7346 -7.3016 -0.4274 0.9710
1.8547 -7.0793 -0.4262 0.9711
-0.3919 -7.0285 -0.5275 0.9722
0.2243 -6.7077 -0.5030 0.9734
0.8206 -6.6630 -0.5031 0.9734
1.4782 -6.8788 -0.5273 0.9722
0.5203 -6.6582 -0.5005 0.9736
1.1349 -6.7279 -0.5113 0.9730
1.8927 -7.2243 -0.5597 0.9705
-0.3981 -7.1399 -0.6556 0.9717
0.8288 -6.7297 -0.6216 0.9731
1.4997 -6.9792 -0.6544 0.9717
-0.7759 -7.7128 -0.7107 0.9693
1.1478 -6.8048 -0.6327 0.9727
-0.4067 -7.2942 -0.7924 0.9710
0.8416 -6.8332 -0.7468 0.9727
0.5332 -6.8237 -0.7424 0.9728
-0.4190 -7.5153 -0.9432 0.9701
0.2338 -6.9931 -0.8768 0.9722
0.8548 -6.9403 -0.8763 0.9722
-0.0797 -7.1499 -0.8961 0.9716
0.5414 -6.9284 -0.8709 0.9724
0.2393 -7.1561 -1.0184 0.9715
0.8742 -7.0979 -1.0172 0.9715
12.3387 3.6773 -1.8313 0.9493
-10.8266 7.7925 -1.8973 0.9475
14.3351 3.5855 -2.3530 0.9419
12.1762 8.3586 -2.3518 0.9419
11.3820 9.4075 -2.3514 0.9419
8.4873 12.0734 -2.3500 0.9420
7.3775 12.7782 -2.3495 0.9420
4.9927 13.8776 -2.3485 0.9420
1.1482 14.6935 -2.3469 0.9421
-0.1642 14.7340 -2.3463 0.9421
-1.4746 14.6577 -2.3458 0.9421
-4.0483 14.1579 -2.3448 0.9421
-5.2913 13.7387 -2.3443 0.9421
-9.7466 11.0207 -2.3427 0.9422
-10.6874 10.1082 -2.3424 0.9422
-11.5433 9.1157 -2.3421 0.9422
-0.0860 -7.7240 -1.2300 0.9692
14.6869 1.6430 -2.3533 0.9419
12.2801 3.6598 -2.0404 0.9494
9.0176 11.6845 -2.3503 0.9420
1.8018 14.6294 -2.3471 0.9420
0.4924 14.7283 -2.3466 0.9421
-0.8202 14.7104 -2.3461 0.9421
-7.0733 12.9072 -2.3437 0.9421
-11.1264 9.6214 -2.3423 0.9422
-14.1451 0.0000 -2.4942 0.9442
-14.0896 -1.2590 -2.4943 0.9442
-13.2595 -4.9379 -2.4949 0.9442
-12.1769 -7.2123 -2.4955 0.9441
-10.7083 -9.2598 -2.4962 0.9441
-8.8999 -11.0155 -2.4971 0.9441
-4.4996 -13.4394 -2.4990 0.9441
-2.0462 -14.0301 -2.5001 0.9440
-0.7895 -14.1595 -2.5006 0.9440
0.9629 -7.8185 -1.3890 0.9685
4.2049 -13.5554 -2.5025 0.9440
6.5440 -12.5995 -2.5034 0.9440
7.6407 -11.9689 -2.5038 0.9440
10.5355 -9.5288 -2.5048 0.9439
13.2026 -5.2545 -2.5056 0.9439
13.9257 -2.8305 -2.5057 0.9439
13.1805 2.0726 -2.3526 0.9472
12.9427 3.2372 -2.3525 0.9473
12.1951 4.2346 -2.2763 0.9489
10.9941 7.5471 -2.3514 0.9473
9.4788 9.3738 -2.3506 0.9473
6.6618 11.5387 -2.3493 0.9473
2.2143 13.1274 -2.3474 0.9474
1.0369 13.2697 -2.3469 0.9474
-5.8635 11.9320 -2.3442 0.9474
-6.9012 11.3609 -2.3439 0.9474
-7.8838 10.7000 -2.3435 0.9474
-8.8036 9.9545 -2.3432 0.9475
-9.6535 9.1303 -2.3429 0.9475
-10.3414 8.1665 -2.3235 0.9479
-11.1173 7.2726 -2.3425 0.9475
-11.7196 6.2538 -2.3423 0.9475
-13.0229 5.5222 -2.4942 0.9442
-13.7950 3.1255 -2.4941 0.9442
-14.1308 0.6302 -2.4941 0.9442
-14.1313 -0.6301 -2.4942 0.9442
-13.7975 -3.1260 -2.4945 0.9442
-13.4656 -4.3421 -2.4947 0.9442
-13.0271 -5.5239 -2.4950 0.9441
-12.4852 -6.6623 -2.4953 0.9441
-11.8443 -7.7482 -2.4956 0.9441
-11.1093 -8.7729 -2.4960 0.9441
-9.3810 -10.6072 -2.4969 0.9441
-7.3543 -12.1069 -2.4978 0.9441
-6.2488 -12.7159 -2.4983 0.9441
-5.0932 -13.2243 -2.4988 0.9441
2.3600 -13.9909 -2.5018 0.9440
3.5966 -13.7280 -2.5023 0.9440
4.8051 -13.3558 -2.5028 0.9440
5.9758 -12.8774 -2.5032 0.9440
7.0994 -12.2965 -2.5036 0.9440
9.1698 -10.8460 -2.5044 0.9439
10.1000 -9.9881 -2.5047 0.9439
11.7133 -8.0407 -2.5052 0.9439
12.9551 -5.8373 -2.5055 0.9439
14.1786 -0.9491 -2.5057 0.9439
14.2063 0.3167 -2.5056 0.9439
13.2602 1.4834 -2.3527 0.9472
12.3940 4.9327 -2.3521 0.9473
11.9043 6.0155 -2.3518 0.9473
9.8878 8.9430 -2.3508 0.9473
9.0510 9.7859 -2.3504 0.9473
6.1406 11.8228 -2.3491 0.9473
2.7972 13.0171 -2.3477 0.9474
0.4447 13.3013 -2.3467 0.9474
-0.7408 13.2854 -2.3462 0.9474
-1.9199 13.1641 -2.3457 0.9474
-3.0834 12.9385 -2.3453 0.9474
-4.2220 12.6104 -2.3448 0.9474
-10.0501 8.6907 -2.3428 0.9475
-10.7081 7.7072 -2.3263 0.9478
-11.4298 6.7699 -2.3424 0.9475
-12.0854 5.7728 -2.3616 0.9471
-13.6421 3.7370 -2.4941 0.9442
-13.9204 2.5079 -2.4941 0.9442
-12.8911 0.0000 -2.4947 0.9488
-12.0838 -4.5000 -2.4953 0.9488
-11.0969 -6.5727 -2.4959 0.9488
-10.4692 -7.5352 -2.4962 0.9488
-8.9699 -9.2748 -2.4969 0.9488
-7.1857 -10.7218 -2.4977 0.9488
-0.7194 -12.9013 -2.5005 0.9487
2.7161 -12.6398 -2.5019 0.9487
3.8310 -12.3500 -2.5023 0.9487
4.9159 -11.9620 -2.5027 0.9487
6.9610 -10.9041 -2.5035 0.9487
7.9049 -10.2426 -2.5038 0.9487
8.7863 -9.4996 -2.5041 0.9486
9.5979 -8.6808 -2.5044 0.9486
12.4060 -3.6974 -2.5051 0.9486
12.6860 -2.5785 -2.5052 0.9486
12.8651 -1.4391 -2.5052 0.9486
12.9419 -0.2884 -2.5051 0.9486
12.0073 1.8881 -2.3522 0.9517
11.7908 2.9491 -2.3520 0.9517
11.4805 3.9865 -2.3518 0.9517
11.0790 4.9920 -2.3516 0.9517
10.0160 6.8756 -2.3510 0.9517
6.9824 9.9327 -2.3496 0.9517
6.0696 10.5129 -2.3492 0.9517
4.1080 11.4183 -2.3483 0.9518
2.0176 11.9612 -2.3474 0.9518
-0.1351 12.1249 -2.3465 0.9518
-2.2819 11.9046 -2.3457 0.9518
-4.3550 11.3075 -2.3449 0.9518
-6.2890 10.3531 -2.3442 0.9518
-8.7975 8.3206 -2.3433 0.9519
-10.1316 6.6278 -2.3429 0.9519
-10.6806 5.6994 -2.3427 0.9519
-12.2689 3.9562 -2.4946 0.9488
-12.7757 1.7182 -2.4946 0.9488
-12.8781 0.5743 -2.4946 0.9488
-12.8786 -0.5743 -2.4947 0.9488
-12.7770 -1.7183 -2.4948 0.9488
-12.2717 -3.9571 -2.4952 0.9488
-10.1238 -7.9947 -2.4964 0.9488
-8.5485 -9.6659 -2.4971 0.9488
-6.7015 -11.0322 -2.4980 0.9488
-3.5507 -12.4175 -2.4993 0.9487
-2.4318 -12.6867 -2.4998 0.9487
-0.1440 -12.9217 -2.5007 0.9487
1.0069 -12.8856 -2.5012 0.9487
2.1502 -12.7472 -2.5017 0.9487
3.2768 -12.5074 -2.5021 0.9487
4.3778 -12.1681 -2.5025 0.9487
7.4403 -10.5840 -2.5036 0.9487
9.9756 -8.2450 -2.5045 0.9486
10.6708 -7.3250 -2.5047 0.9486
11.2812 -6.3467 -2.5049 0.9486
12.9417 0.2885 -2.5051 0.9486
10.3130 6.4230 -2.3512 0.9517
9.6991 7.3145 -2.3509 0.9517
9.0083 8.1475 -2.3505 0.9517
8.2461 8.9156 -2.3501 0.9517
6.5325 10.2329 -2.3494 0.9517
5.5948 10.7719 -2.3489 0.9517
3.5949 11.5889 -2.3481 0.9518
0.4052 12.1201 -2.3468 0.9518
-0.6750 12.1058 -2.3463 0.9518
-2.8097 11.7901 -2.3455 0.9518
-4.8540 11.1014 -2.3447 0.9518
-6.7434 10.0620 -2.3440 0.9518
-8.4186 8.7047 -2.3434 0.9519
-9.1590 7.9201 -2.3432 0.9519
-9.8267 7.0728 -2.3430 0.9519
-11.6327 5.5566 -2.4948 0.9488
-12.4328 3.4057 -2.4946 0.9488
-12.6865 2.2856 -2.4946 0.9488
-12.8397 1.1473 -2.4946 0.9488
-11.7887 -1.0534 -2.4952 0.9528
-11.6487 -2.0986 -2.4953 0.9528
-11.4165 -3.1273 -2.4955 0.9528
-10.1875 -6.0340 -2.4962 0.9528
-9.6111 -6.9177 -2.4965 0.9527
-8.9585 -7.7467 -2.4968 0.9527
-7.4451 -9.2149 -2.4975 0.9527
-6.5964 -9.8426 -2.4979 0.9527
-5.6951 -10.3922 -2.4983 0.9527
-4.7483 -10.8597 -2.4987 0.9527
-3.7636 -11.2412 -2.4992 0.9527
-2.7486 -11.5335 -2.4996 0.9527
-1.7114 -11.7344 -2.5000 0.9527
-0.6603 -11.8422 -2.5005 0.9527
5.4721 -10.5356 -2.5028 0.9526
8.0641 -8.7187 -2.5038 0.9526
9.4839 -7.1521 -2.5042 0.9526
10.0836 -6.2801 -2.5044 0.9526
11.0384 -4.3932 -2.5046 0.9526
11.8072 -1.3208 -2.5047 0.9526
11.8537 0.7936 -2.5046 0.9526
10.8214 2.7066 -2.3516 0.9554
10.5367 3.6588 -2.3515 0.9554
10.1683 4.5816 -2.3512 0.9554
7.9262 7.8384 -2.3501 0.9555
7.1960 8.5115 -2.3498 0.9555
6.4089 9.1169 -2.3494 0.9555
4.6894 10.1054 -2.3486 0.9555
3.7707 10.4809 -2.3482 0.9555
1.8520 10.9797 -2.3474 0.9555
0.8673 11.0990 -2.3470 0.9555
-0.1240 11.1302 -2.3466 0.9555
-2.0948 10.9282 -2.3458 0.9555
-3.0586 10.6967 -2.3455 0.9555
-5.7735 9.5045 -2.3444 0.9556
-6.5957 8.9518 -2.3442 0.9556
-8.0767 7.6389 -2.3437 0.9556
-9.3016 6.0848 -2.3433 0.9556
-10.1374 5.4096 -2.4224 0.9541
-10.8962 4.6204 -2.4951 0.9528
-11.5423 2.6152 -2.4950 0.9528
-11.7292 1.5775 -2.4950 0.9528
-11.8233 0.5272 -2.4951 0.9528
-11.7303 -1.5775 -2.4952 0.9528
-11.2663 -3.6329 -2.4956 0.9528
-10.8992 -4.6216 -2.4958 0.9528
-9.9092 -6.4822 -2.4963 0.9527
-9.2940 -7.3394 -2.4966 0.9527
-8.6051 -8.1386 -2.4970 0.9527
-7.0278 -9.5382 -2.4977 0.9527
-5.2270 -10.6366 -2.4985 0.9527
-4.2602 -11.0614 -2.4989 0.9527
0.9242 -11.8276 -2.5011 0.9527
1.9736 -11.7003 -2.5015 0.9527
4.0181 -11.1685 -2.5023 0.9526
4.9970 -10.7681 -2.5027 0.9526
5.9364 -10.2821 -2.5030 0.9526
8.4449 -8.3513 -2.5039 0.9526
9.1555 -7.5672 -2.5041 0.9526
9.7935 -6.7228 -2.5043 0.9526
10.8315 -4.8804 -2.5046 0.9526
11.2233 -3.8971 -2.5047 0.9526
11.5258 -2.8828 -2.5047 0.9526
11.8543 -0.7935 -2.5047 0.9526
11.8775 0.2647 -2.5046 0.9526
10.9316 2.2220 -2.3517 0.9554
10.6897 3.1859 -2.3516 0.9554
10.3628 4.1244 -2.3514 0.9554
8.2681 7.4781 -2.3503 0.9554
7.5686 8.1831 -2.3499 0.9555
5.9960 9.3926 -2.3492 0.9555
3.2998 10.6376 -2.3480 0.9555
2.3395 10.8872 -2.3476 0.9555
0.3720 11.1257 -2.3468 0.9555
-0.6196 11.1127 -2.3464 0.9555
-2.5793 10.8232 -2.3456 0.9555
-3.5318 10.5490 -2.3453 0.9555
-4.4561 10.1913 -2.3449 0.9555
-5.3447 9.7529 -2.3446 0.9556
-6.9875 8.6486 -2.3440 0.9556
-7.7287 7.9915 -2.3438 0.9556
-8.4085 7.2712 -2.3435 0.9556
-9.0216 6.4934 -2.3434 0.9556
-11.0911 4.1304 -2.4951 0.9528
-10.9333 0.0000 -2.4955 0.9561
-10.5464 -2.8889 -2.4958 0.9561
-9.4109 -5.5740 -2.4965 0.9561
-8.8784 -6.3902 -2.4967 0.9561
-6.0932 -9.0917 -2.4981 0.9561
-4.3860 -10.0311 -2.4988 0.9561
-2.5388 -10.6532 -2.4996 0.9561
-0.6099 -10.9380 -2.5004 0.9560
0.3661 -10.9506 -2.5008 0.9560
2.3026 -10.7155 -2.5016 0.9560
3.2477 -10.4695 -2.5019 0.9560
5.0539 -9.7304 -2.5026 0.9560
5.9006 -9.2431 -2.5029 0.9560
6.7006 -8.6822 -2.5032 0.9560
7.4476 -8.0522 -2.5035 0.9560
8.1355 -7.3580 -2.5037 0.9560
8.7588 -6.6053 -2.5039 0.9560
9.7923 -4.9483 -2.5042 0.9560
10.1942 -4.0572 -2.5043 0.9560
10.9043 -1.2198 -2.5044 0.9560
10.9694 -0.2444 -2.5043 0.9560
9.9939 2.4997 -2.3513 0.9586
9.7311 3.3790 -2.3511 0.9586
8.4902 5.8282 -2.3505 0.9586
7.9368 6.5600 -2.3502 0.9586
5.9193 8.4204 -2.3492 0.9586
5.1456 8.9125 -2.3489 0.9587
4.3313 9.3337 -2.3485 0.9587
3.4828 9.6806 -2.3482 0.9587
-1.0290 10.2282 -2.3463 0.9587
-2.8253 9.8809 -2.3456 0.9587
-3.6930 9.5888 -2.3453 0.9587
-4.5312 9.2208 -2.3450 0.9587
-5.3333 8.7798 -2.3447 0.9587
-6.0929 8.2694 -2.3444 0.9587
-6.8040 7.6934 -2.3442 0.9587
-8.5927 5.6211 -2.3436 0.9587
-10.0659 4.2683 -2.4955 0.9561
-10.4056 3.3554 -2.4954 0.9561
-10.8355 1.4573 -2.4954 0.9561
-10.9223 0.4871 -2.4954 0.9561
-10.0684 -4.2694 -2.4961 0.9561
-9.6493 -5.1490 -2.4963 0.9561
-8.5854 -6.7798 -2.4969 0.9561
-7.9489 -7.5179 -2.4972 0.9561
-6.4917 -8.8106 -2.4979 0.9561
-5.6826 -9.3548 -2.4983 0.9561
-3.9351 -10.2173 -2.4990 0.9561
-3.0106 -10.5287 -2.4994 0.9561
1.8229 -10.8066 -2.5014 0.9560
2.7779 -10.6031 -2.5018 0.9560
4.6151 -9.9453 -2.5025 0.9560
5.4827 -9.4962 -2.5028 0.9560
7.7992 -7.7128 -2.5036 0.9560
9.5619 -5.3794 -2.5041 0.9560
10.0032 -4.5072 -2.5042 0.9560
10.8392 -1.7043 -2.5044 0.9560
10.9477 -0.7328 -2.5043 0.9560
10.9692 0.2445 -2.5043 0.9560
10.0957 2.0521 -2.3514 0.9586
6.9903 7.5579 -2.3497 0.9586
6.2890 8.1489 -2.3494 0.9586
3.9109 9.5166 -2.3484 0.9587
2.1609 10.0561 -2.3476 0.9587
-0.5723 10.2648 -2.3465 0.9587
-3.2624 9.7445 -2.3454 0.9587
-4.9372 9.0092 -2.3448 0.9587
-6.4548 7.9893 -2.3443 0.9587
-7.7676 6.7170 -2.3438 0.9587
-8.3340 5.9985 -2.3437 0.9587
-8.8343 5.2326 -2.3435 0.9587
-9.8660 4.7126 -2.4955 0.9561
-10.2459 3.8157 -2.4955 0.9561
-10.1537 0.0000 -2.4958 0.9590
-9.7942 -2.6829 -2.4961 0.9590
-9.5172 -3.5442 -2.4963 0.9590
-9.1647 -4.3776 -2.4965 0.9590
-8.7395 -5.1764 -2.4967 0.9590
-6.3865 -7.9046 -2.4979 0.9590
-5.6583 -8.4428 -2.4982 0.9590
-4.8851 -8.9141 -2.4985 0.9590
-3.2281 -9.6418 -2.4993 0.9590
-1.4679 -10.0644 -2.5000 0.9590
-0.5663 -10.1566 -2.5004 0.9590
1.2438 -10.0990 -2.5011 0.9590
2.1380 -9.9496 -2.5015 0.9589
4.6925 -9.0347 -2.5024 0.9589
5.4787 -8.5822 -2.5027 0.9589
6.2215 -8.0613 -2.5030 0.9589
6.9149 -7.4763 -2.5032 0.9589
8.1322 -6.1328 -2.5036 0.9589
10.1846 -0.2269 -2.5040 0.9589
9.2790 2.3209 -2.3510 0.9614
7.3693 6.0909 -2.3500 0.9614
6.1711 7.2992 -2.3494 0.9614
5.4962 7.8185 -2.3491 0.9614
3.2340 8.9890 -2.3481 0.9614
2.4207 9.2398 -2.3478 0.9614
1.5885 9.4171 -2.3474 0.9614
-0.1064 9.5468 -2.3467 0.9614
-0.9555 9.4980 -2.3464 0.9614
-2.6237 9.1756 -2.3457 0.9615
-3.4295 8.9045 -2.3454 0.9615
-6.3186 7.1446 -2.3444 0.9615
-8.9585 4.7804 -2.4959 0.9590
-9.3481 3.9640 -2.4958 0.9590
-9.9024 2.2436 -2.4957 0.9590
-10.0628 1.3533 -2.4957 0.9590
-10.1437 -0.4523 -2.4958 0.9590
-10.0636 -1.3534 -2.4959 0.9590
-9.6653 -3.1166 -2.4962 0.9590
-9.3503 -3.9648 -2.4964 0.9590
-8.9610 -4.7817 -2.4966 0.9590
-8.5007 -5.5609 -2.4968 0.9590
-7.9729 -6.2961 -2.4971 0.9590
-6.7318 -7.6118 -2.4977 0.9590
-5.2770 -8.6870 -2.4984 0.9590
-4.4835 -9.1235 -2.4987 0.9590
-2.7956 -9.7768 -2.4994 0.9590
-1.0181 -10.1205 -2.5002 0.9590
1.6926 -10.0343 -2.5013 0.9590
3.4458 -9.5778 -2.5020 0.9589
4.2852 -9.2343 -2.5023 0.9589
8.3976 -5.7646 -2.5037 0.9589
9.2876 -4.1847 -2.5039 0.9589
10.0637 -1.5824 -2.5040 0.9589
10.1235 1.1325 -2.5039 0.9589
8.8860 3.5366 -2.3508 0.9614
8.5352 4.3131 -2.3506 0.9614
8.1167 5.0551 -2.3504 0.9614
5.1421 8.0550 -2.3490 0.9614
4.4042 8.4796 -2.3486 0.9614
3.6314 8.8366 -2.3483 0.9614
2.8301 9.1234 -2.3479 0.9614
1.1673 9.4779 -2.3473 0.9614
-0.5315 9.5319 -2.3466 0.9614
-1.3776 9.4454 -2.3462 0.9614
-3.0296 9.0490 -2.3456 0.9615
-3.8225 8.7424 -2.3453 0.9615
-5.3108 7.9243 -2.3447 0.9615
-6.6303 6.8558 -2.3443 0.9615
-8.6679 5.1340 -2.4762 0.9594
-9.7927 2.6825 -2.4957 0.9590
-9.3232 -1.6796 -2.4962 0.9616
-8.8788 -3.3064 -2.4965 0.9616
-8.5499 -4.0839 -2.4967 0.9616
-8.1532 -4.8291 -2.4969 0.9616
-7.6917 -5.5361 -2.4972 0.9616
-7.1692 -6.1994 -2.4974 0.9616
-5.9578 -7.3740 -2.4980 0.9615
-4.5571 -8.3156 -2.4986 0.9615
-1.3692 -9.3883 -2.5000 0.9615
1.1602 -9.4203 -2.5010 0.9615
1.9943 -9.2809 -2.5013 0.9615
3.6092 -8.7824 -2.5020 0.9615
8.4801 -4.2852 -2.5036 0.9615
9.3115 -1.8926 -2.5038 0.9615
9.4430 -1.0563 -2.5038 0.9615
9.4994 -0.2116 -2.5037 0.9615
9.4803 0.6347 -2.5036 0.9615
13.8254 3.4579 -3.7552 0.9428
8.1328 3.6645 -2.3505 0.9638
7.7737 4.3734 -2.3503 0.9638
7.3529 5.0475 -2.3501 0.9638
6.8738 5.6814 -2.3498 0.9638
5.7562 6.8086 -2.3493 0.9638
5.1268 7.2929 -2.3490 0.9638
3.0167 8.3850 -2.3481 0.9638
2.2581 8.6190 -2.3478 0.9638
1.4818 8.7846 -2.3474 0.9638
0.6939 8.8804 -2.3471 0.9638
-0.0992 8.9057 -2.3468 0.9638
-0.8914 8.8603 -2.3465 0.9638
-1.6762 8.7446 -2.3462 0.9638
-3.1993 8.3068 -2.3456 0.9638
-3.9255 7.9882 -2.3453 0.9639
-4.6204 7.6063 -2.3451 0.9639
-5.8947 6.6653 -2.3446 0.9639
-6.4640 6.1137 -2.3444 0.9639
-6.9820 5.5137 -2.3442 0.9639
-7.5721 4.9535 -2.3843 0.9633
-8.3577 4.4598 -2.4962 0.9616
-8.7211 3.6981 -2.4961 0.9616
-9.2383 2.0932 -2.4960 0.9616
-9.4631 0.4220 -2.4960 0.9616
-9.4634 -0.4220 -2.4961 0.9616
-9.3886 -1.2626 -2.4962 0.9616
-9.2394 -2.0933 -2.4963 0.9616
-9.0169 -2.9075 -2.4964 0.9616
-8.7230 -3.6989 -2.4966 0.9616
-7.4378 -5.8736 -2.4973 0.9616
-6.8863 -6.5129 -2.4976 0.9616
-6.2800 -7.1009 -2.4978 0.9615
-5.6237 -7.6326 -2.4982 0.9615
-4.9227 -8.1038 -2.4985 0.9615
-4.1824 -8.5109 -2.4988 0.9615
-3.4088 -8.8506 -2.4991 0.9615
-1.7860 -9.3173 -2.4998 0.9615
0.7394 -9.4620 -2.5009 0.9615
1.5788 -9.3599 -2.5012 0.9615
2.4060 -9.1834 -2.5015 0.9615
3.2142 -8.9339 -2.5018 0.9615
3.9971 -8.6134 -2.5021 0.9615
5.4621 -7.7698 -2.5026 0.9615
6.7544 -6.6795 -2.5031 0.9615
7.3226 -6.0522 -2.5033 0.9615
8.2806 -4.6586 -2.5035 0.9615
8.6627 -3.9032 -2.5036 0.9615
8.9760 -3.1168 -2.5037 0.9615
9.2180 -2.3055 -2.5038 0.9615
9.4806 -0.6346 -2.5037 0.9615
9.4424 1.0563 -2.5036 0.9615
13.9660 2.8387 -3.7553 0.9428
7.5708 4.7152 -2.3502 0.9638
7.1204 5.3698 -2.3500 0.9638
5.4469 7.0578 -2.3492 0.9638
4.1082 7.9097 -2.3486 0.9638
1.8718 8.7104 -2.3476 0.9638
0.2976 8.9019 -2.3469 0.9638
-1.2851 8.8112 -2.3463 0.9638
-2.0639 8.6608 -2.3460 0.9638
-2.8263 8.4416 -2.3457 0.9638
-4.2772 7.8050 -2.3452 0.9639
-4.9544 7.3925 -2.3449 0.9639
-8.1509 4.8278 -2.4962 0.9616
-9.1359 2.5026 -2.4960 0.9616
-3.9277 -0.3510 -1.1095 0.9837
-8.3160 -3.0969 -2.4967 0.9638
-8.0079 -3.8250 -2.4969 0.9638
-7.2041 -5.1852 -2.4973 0.9638
-6.7146 -5.8063 -2.4976 0.9638
-4.9437 -7.3764 -2.4984 0.9638
-4.2680 -7.7881 -2.4987 0.9638
-3.5583 -8.1381 -2.4990 0.9638
-2.8202 -8.4236 -2.4993 0.9638
-1.2823 -8.7924 -2.5000 0.9638
0.2970 -8.8828 -2.5006 0.9637
1.0866 -8.8222 -2.5009 0.9637
3.3799 -8.2246 -2.5018 0.9637
4.0990 -7.8920 -2.5021 0.9637
4.7856 -7.4965 -2.5023 0.9637
5.4344 -7.0415 -2.5026 0.9637
7.1032 -5.3567 -2.5031 0.9637
8.2671 -3.2902 -2.5034 0.9637
8.8428 -0.9892 -2.5035 0.9637
8.8957 -0.1982 -2.5035 0.9637
8.8778 0.5943 -2.5034 0.9637
8.7893 1.3821 -2.5033 0.9637
12.9467 3.2382 -3.7549 0.9461
7.2798 4.0956 -2.3501 0.9659
6.8858 4.7268 -2.3499 0.9659
5.9374 5.8717 -2.3494 0.9659
5.3907 6.3761 -2.3492 0.9659
4.8012 6.8298 -2.3489 0.9659
4.1738 7.2292 -2.3486 0.9659
3.5133 7.5711 -2.3483 0.9659
2.1147 8.0720 -2.3477 0.9659
1.3877 8.2271 -2.3474 0.9659
-0.0929 8.3406 -2.3468 0.9659
-0.8348 8.2982 -2.3465 0.9659
-1.5699 8.1900 -2.3462 0.9659
-2.2923 8.0168 -2.3460 0.9659
-2.9964 7.7801 -2.3457 0.9659
-4.3275 7.1240 -2.3452 0.9660
-4.9439 6.7099 -2.3450 0.9660
-6.0543 5.7262 -2.3446 0.9660
-6.5395 5.1642 -2.3445 0.9660
-8.1684 3.4637 -2.4963 0.9638
-8.4441 2.7229 -2.4963 0.9638
-8.7930 1.1826 -2.4962 0.9638
-4.2110 -0.1878 -1.1860 0.9826
-3.7396 -0.5029 -1.0616 0.9844
-3.7659 -0.8532 -1.0864 0.9841
-7.8299 -4.1781 -2.4970 0.9638
-6.9663 -5.5012 -2.4975 0.9638
-6.4496 -6.1000 -2.4977 0.9638
-4.6104 -7.5898 -2.4986 0.9638
-3.9171 -7.9710 -2.4989 0.9638
-0.8895 -8.8414 -2.5001 0.9637
-0.0990 -8.8866 -2.5005 0.9637
1.4786 -8.7656 -2.5011 0.9637
2.2532 -8.6002 -2.5014 0.9637
3.0100 -8.3665 -2.5017 0.9637
3.7432 -8.0663 -2.5020 0.9637
4.4467 -7.7019 -2.5022 0.9637
6.3252 -6.2551 -2.5029 0.9637
7.3350 -5.0351 -2.5032 0.9637
7.7544 -4.3625 -2.5033 0.9637
8.4056 -2.9187 -2.5035 0.9637
8.7900 -1.3821 -2.5035 0.9637
8.8956 0.1983 -2.5034 0.9637
13.0785 2.6583 -3.7550 0.9461
8.0063 2.3862 -2.3505 0.9659
7.0898 4.4156 -2.3500 0.9659
6.6681 5.0287 -2.3498 0.9659
5.6697 6.1300 -2.3493 0.9659
5.1010 6.6096 -2.3490 0.9659
3.8473 7.4075 -2.3485 0.9659
2.4724 7.9702 -2.3479 0.9659
1.0198 8.2802 -2.3473 0.9659
0.2787 8.3370 -2.3470 0.9659
-1.9330 8.1114 -2.3461 0.9659
-4.6403 6.9238 -2.3451 0.9660
-5.2377 6.4828 -2.3449 0.9660
-6.3031 5.4506 -2.3445 0.9660
-6.7628 4.8676 -2.3444 0.9660
-8.3145 3.0964 -2.4963 0.9638
-8.5569 2.3440 -2.4962 0.9638
-8.8370 0.7897 -2.4962 0.9638
-3.9676 0.0000 -1.1878 0.9836
-3.5918 -0.3210 -1.0796 0.9851
-3.4798 -0.6269 -1.0586 0.9853
-7.8159 -2.9106 -2.4969 0.9658
-7.5263 -3.5950 -2.4971 0.9658
-7.1770 -4.2510 -2.4973 0.9658
-6.3107 -5.4570 -2.4977 0.9658
-4.6462 -6.9326 -2.4985 0.9658
-4.0112 -7.3194 -2.4988 0.9658
-3.3442 -7.6483 -2.4991 0.9657
-2.6505 -7.9165 -2.4994 0.9657
-1.2051 -8.2631 -2.5000 0.9657
0.2791 -8.3478 -2.5006 0.9657
1.0211 -8.2909 -2.5009 0.9657
1.7552 -8.1680 -2.5012 0.9657
2.4755 -7.9802 -2.5014 0.9657
3.8520 -7.4164 -2.5020 0.9657
5.1069 -6.6171 -2.5024 0.9657
5.6760 -6.1368 -2.5026 0.9657
6.2001 -5.6077 -2.5028 0.9657
6.6750 -5.0338 -2.5029 0.9657
7.0969 -4.4200 -2.5031 0.9657
7.4625 -3.7709 -2.5032 0.9657
8.0132 -2.3881 -2.5033 0.9657
8.1940 -1.6655 -2.5033 0.9657
8.3594 -0.1863 -2.5033 0.9657
8.3426 0.5585 -2.5032 0.9657
8.2595 1.2988 -2.5031 0.9657
7.4161 2.5752 -2.3503 0.9678
7.1570 3.2248 -2.3501 0.9678
5.0659 5.9920 -2.3491 0.9678
4.5120 6.4184 -2.3488 0.9678
3.9224 6.7938 -2.3486 0.9678
1.3042 7.7318 -2.3474 0.9678
-0.0873 7.8386 -2.3469 0.9678
-2.1544 7.5345 -2.3461 0.9678
-2.8161 7.3120 -2.3458 0.9678
-4.0672 6.6955 -2.3453 0.9678
-4.6466 6.3064 -2.3451 0.9678
-5.1890 5.8673 -2.3449 0.9678
-5.6902 5.3818 -2.3448 0.9678
-6.9790 4.5655 -2.4967 0.9658
-7.6773 3.2555 -2.4965 0.9658
-7.9364 2.5592 -2.4965 0.9658
-8.1326 1.8426 -2.4965 0.9658
-4.8506 0.2163 -1.4536 0.9799
-3.5144 -0.4726 -1.0616 0.9853
-3.4642 -0.7849 -1.0634 0.9853
-7.3590 -3.9268 -2.4972 0.9658
-6.9808 -4.5666 -2.4974 0.9658
-6.5472 -5.1703 -2.4976 0.9658
-6.0616 -5.7330 -2.4978 0.9658
-5.5279 -6.2504 -2.4981 0.9658
-4.9501 -6.7183 -2.4984 0.9658
-3.0003 -7.7902 -2.4992 0.9657
-2.2953 -8.0272 -2.4995 0.9657
-1.5719 -8.2007 -2.4998 0.9657
-0.8359 -8.3090 -2.5001 0.9657
-0.0930 -8.3515 -2.5004 0.9657
0.6507 -8.3276 -2.5007 0.9657
3.5176 -7.5803 -2.5018 0.9657
4.8068 -6.8378 -2.5023 0.9657
5.9440 -5.8780 -2.5027 0.9657
6.4440 -5.3261 -2.5029 0.9657
6.8928 -4.7316 -2.5030 0.9657
7.8988 -2.7427 -2.5033 0.9657
8.1117 -2.0288 -2.5033 0.9657
8.2601 -1.2988 -2.5033 0.9657
8.3429 -0.5584 -2.5033 0.9657
8.3093 0.9296 -2.5032 0.9657
12.0184 3.5819 -3.7545 0.9490
7.2938 2.9029 -2.3502 0.9678
7.0060 3.5403 -2.3500 0.9678
6.2663 4.7257 -2.3497 0.9678
5.8202 5.2641 -2.3494 0.9678
4.7937 6.2114 -2.3490 0.9678
3.6156 6.9613 -2.3484 0.9678
2.3235 7.4904 -2.3479 0.9678
1.6474 7.6665 -2.3476 0.9678
0.9584 7.7817 -2.3473 0.9678
0.2620 7.8352 -2.3470 0.9678
-2.4878 7.4306 -2.3459 0.9678
-3.7650 6.8704 -2.3454 0.9678
-4.9227 6.0929 -2.3450 0.9678
-5.4450 5.6301 -2.3449 0.9678
-5.9241 5.1228 -2.3447 0.9678
-6.6297 4.7718 -2.4454 0.9665
-7.1753 4.2500 -2.4967 0.9658
-7.8146 2.9102 -2.4965 0.9658
-8.0425 2.2031 -2.4965 0.9658
-3.3867 -0.3026 -1.0798 0.9858
-3.2540 -0.8914 -1.0715 0.9859
-6.3830 -4.5942 -2.4976 0.9675
-5.9493 -5.1445 -2.4978 0.9675
-5.4683 -5.6541 -2.4981 0.9675
-4.9438 -6.1190 -2.4983 0.9675
-4.3800 -6.5354 -2.4986 0.9675
-3.1525 -7.2100 -2.4991 0.9675
-2.4986 -7.4629 -2.4994 0.9675
-1.8246 -7.6564 -2.4997 0.9675
-0.4383 -7.8605 -2.5003 0.9675
0.2631 -7.8692 -2.5005 0.9675
0.9626 -7.8154 -2.5008 0.9675
2.3335 -7.5225 -2.5014 0.9675
3.6310 -6.9909 -2.5018 0.9675
4.2392 -6.6406 -2.5021 0.9675
6.2920 -4.7450 -2.5028 0.9675
7.3228 -2.9144 -2.5030 0.9675
7.7237 -1.5699 -2.5031 0.9675
7.8328 -0.8762 -2.5031 0.9675
11.1667 3.8775 -3.7541 0.9516
6.7463 3.0397 -2.3500 0.9694
6.4485 3.6279 -2.3498 0.9694
6.0996 4.1871 -2.3496 0.9694
5.2596 5.2014 -2.3492 0.9694
4.2532 6.0503 -2.3487 0.9694
3.6974 6.4042 -2.3485 0.9694
3.1124 6.7071 -2.3482 0.9694
2.5028 6.9567 -2.3480 0.9694
1.8735 7.1511 -2.3477 0.9695
0.5758 7.3683 -2.3472 0.9695
-3.8342 6.3121 -2.3455 0.9695
-4.3805 5.9452 -2.3453 0.9695
-4.8919 5.5313 -2.3451 0.9695
-5.3644 5.0736 -2.3449 0.9695
-6.5794 4.3041 -2.4969 0.9675
-7.2378 3.0691 -2.4967 0.9675
-7.4821 2.4127 -2.4967 0.9675
-7.7912 1.0478 -2.4966 0.9675
-3.3189 -0.4463 -1.0635 0.9860
-3.2591 -0.7384 -1.0613 0.9861
-3.2827 -1.0586 -1.0954 0.9856
-7.2391 -3.0696 -2.4972 0.9675
-6.9376 -3.7020 -2.4973 0.9675
-6.5810 -4.3051 -2.4975 0.9675
-6.1723 -4.8741 -2.4977 0.9675
-5.2112 -5.8924 -2.4982 0.9675
-4.6665 -6.3334 -2.4984 0.9675
-4.0847 -6.7244 -2.4987 0.9675
-2.8284 -7.3437 -2.4993 0.9675
-2.1638 -7.5671 -2.4995 0.9675
-0.7880 -7.8327 -2.5001 0.9675
1.9960 -7.6186 -2.5012 0.9675
3.3159 -7.1454 -2.5017 0.9675
3.9390 -6.8226 -2.5020 0.9675
4.5310 -6.4454 -2.5022 0.9675
5.6029 -5.5408 -2.5025 0.9675
6.0742 -5.0204 -2.5027 0.9675
6.8687 -3.8643 -2.5029 0.9675
7.1856 -3.2377 -2.5030 0.9675
7.4455 -2.5853 -2.5031 0.9675
7.6461 -1.9124 -2.5031 0.9675
7.7860 -1.2242 -2.5031 0.9675
7.8640 -0.5264 -2.5031 0.9675
7.8324 0.8762 -2.5030 0.9675
6.8752 2.7363 -2.3500 0.9694
6.6040 3.3372 -2.3499 0.9694
6.2803 3.9114 -2.3497 0.9694
5.9067 4.4545 -2.3495 0.9694
5.4863 4.9621 -2.3493 0.9694
0.9035 7.3357 -2.3473 0.9695
0.2469 7.3862 -2.3470 0.9695
-0.4114 7.3780 -2.3468 0.9695
-1.0663 7.3113 -2.3465 0.9695
-1.7126 7.1866 -2.3463 0.9695
-2.3452 7.0049 -2.3460 0.9695
-3.5494 6.4769 -2.3456 0.9695
-5.1332 5.3078 -2.3450 0.9695
-6.3813 4.5930 -2.4970 0.9675
-6.7645 4.0067 -2.4968 0.9675
-7.3672 2.7436 -2.4967 0.9675
-7.5821 2.0770 -2.4967 0.9675
-7.7368 1.3939 -2.4966 0.9675
-7.8302 0.6997 -2.4967 0.9675
-3.6184 0.0000 -1.2157 0.9848
-3.2019 -0.2861 -1.0801 0.9865
-3.1483 -0.5672 -1.0748 0.9866
-3.1349 -0.8587 -1.0921 0.9864
-6.9653 -2.5939 -2.4972 0.9691
-6.0338 -4.3428 -2.4977 0.9691
-5.6237 -4.8630 -2.4979 0.9691
-4.1403 -6.1777 -2.4986 0.9691
-2.9800 -6.8153 -2.4992 0.9691
-2.3618 -7.0543 -2.4994 0.9691
-1.0738 -7.3628 -2.5000 0.9691
0.9099 -7.3873 -2.5008 0.9691
2.8301 -6.8865 -2.5015 0.9691
3.4321 -6.6079 -2.5017 0.9691
5.0571 -5.4676 -2.5023 0.9691
5.9470 -4.4849 -2.5026 0.9691
6.3229 -3.9379 -2.5027 0.9691
6.6485 -3.3596 -2.5028 0.9691
6.9214 -2.7546 -2.5029 0.9691
7.3003 -1.4838 -2.5029 0.9691
7.4034 -0.8282 -2.5029 0.9691
7.4476 -0.1659 -2.5029 0.9691
7.3587 1.1571 -2.5028 0.9691
6.0951 3.4291 -2.3497 0.9709
5.3897 4.4547 -2.3493 0.9709
4.0202 5.7188 -2.3487 0.9709
3.4949 6.0533 -2.3484 0.9709
2.9419 6.3397 -2.3482 0.9709
1.1621 6.8895 -2.3474 0.9709
-0.0778 6.9849 -2.3469 0.9710
-0.6991 6.9495 -2.3467 0.9710
-1.9198 6.7141 -2.3462 0.9710
-2.5095 6.5159 -2.3460 0.9710
-3.6244 5.9667 -2.3456 0.9710
-5.0709 4.7961 -2.3451 0.9710
-5.8330 4.6063 -2.4972 0.9691
-6.5567 3.4988 -2.4970 0.9691
-6.8419 2.9013 -2.4969 0.9691
-7.0729 2.2807 -2.4968 0.9691
-7.2477 1.6422 -2.4968 0.9691
-7.3651 0.9905 -2.4968 0.9691
-4.1559 0.1853 -1.3977 0.9826
-3.2675 -0.1457 -1.0989 0.9863
-3.1639 -0.4255 -1.0726 0.9866
-3.1355 -0.7104 -1.0802 0.9865
-3.1418 -1.0131 -1.1091 0.9862
-6.8431 -2.9017 -2.4973 0.9691
-5.8346 -4.6074 -2.4978 0.9691
-5.4018 -5.1089 -2.4981 0.9691
-4.9260 -5.5699 -2.4983 0.9691
-4.4112 -5.9868 -2.4985 0.9691
-3.8612 -6.3563 -2.4988 0.9691
-3.2804 -6.6754 -2.4990 0.9691
-1.4007 -7.3073 -2.4998 0.9691
-0.7448 -7.4038 -2.5001 0.9691
-0.0829 -7.4415 -2.5004 0.9691
2.5204 -7.0054 -2.5014 0.9691
3.1342 -6.7539 -2.5016 0.9691
3.7232 -6.4487 -2.5018 0.9691
4.8083 -5.6872 -2.5022 0.9691
6.4922 -3.6524 -2.5028 0.9691
7.3592 -1.1571 -2.5029 0.9691
7.4475 0.1660 -2.5029 0.9691
7.2997 1.4837 -2.5027 0.9691
10.7076 3.1912 -3.7540 0.9539
6.2420 3.1543 -2.3498 0.9709
5.5830 4.2104 -2.3494 0.9709
5.1857 4.6902 -2.3492 0.9709
3.2216 6.2027 -2.3483 0.9709
2.6565 6.4641 -2.3481 0.9709
2.0704 6.6742 -2.3478 0.9709
1.4679 6.8313 -2.3476 0.9709
0.8540 6.9340 -2.3473 0.9709
0.2334 6.9818 -2.3471 0.9710
-1.6189 6.7933 -2.3463 0.9710
-2.7972 6.3974 -2.3459 0.9710
-3.3552 6.1225 -2.3457 0.9710
-4.3869 5.4297 -2.3453 0.9710
-4.8524 5.0174 -2.3451 0.9710
-5.2795 4.5653 -2.3450 0.9710
-6.0323 4.3418 -2.4971 0.9691
-6.3945 3.7875 -2.4970 0.9691
-6.7060 3.2032 -2.4969 0.9691
-7.3137 1.3176 -2.4968 0.9691
-3.0930 -0.2764 -1.1011 0.9869
-3.0229 -0.8281 -1.1114 0.9868
-6.3557 -3.0358 -2.4975 0.9705
-6.0606 -3.5897 -2.4977 0.9705
-5.7175 -4.1152 -2.4979 0.9705
-4.4282 -5.4808 -2.4985 0.9705
-3.3869 -6.1803 -2.4989 0.9705
-1.6342 -6.8576 -2.4997 0.9705
-0.3925 -7.0401 -2.5002 0.9705
2.0899 -6.7371 -2.5012 0.9705
2.6815 -6.5249 -2.5014 0.9705
3.2519 -6.2609 -2.5016 0.9705
3.7965 -5.9471 -2.5018 0.9705
5.6347 -4.2493 -2.5024 0.9705
5.9908 -3.7311 -2.5026 0.9705
6.5578 -2.6099 -2.5027 0.9705
6.7642 -2.0159 -2.5027 0.9705
7.0145 -0.7846 -2.5028 0.9705
6.8466 1.7125 -2.5025 0.9705
10.0003 3.4725 -3.7537 0.9561
6.0417 2.7223 -2.3497 0.9723
5.1067 4.2208 -2.3492 0.9723
4.7104 4.6583 -2.3490 0.9723
4.2767 5.0586 -2.3488 0.9723
3.3115 5.7356 -2.3484 0.9723
1.6780 6.4048 -2.3477 0.9723
0.5157 6.5995 -2.3472 0.9723
-0.0737 6.6185 -2.3470 0.9723
-1.2458 6.4993 -2.3465 0.9723
-1.8191 6.3620 -2.3463 0.9723
-2.9178 5.9376 -2.3459 0.9723
-3.4344 5.6539 -2.3457 0.9723
-4.3818 4.9547 -2.3453 0.9723
-5.8936 3.8554 -2.4972 0.9706
-6.4834 2.7492 -2.4971 0.9706
-6.8679 1.5561 -2.4970 0.9706
-6.9791 0.9387 -2.4970 0.9706
-3.9464 0.1760 -1.4007 0.9834
-3.1623 -0.1410 -1.1224 0.9867
-3.0595 -0.4114 -1.0946 0.9870
-3.0241 -0.6852 -1.0995 0.9869
-3.0191 -0.9735 -1.1248 0.9866
-5.8949 -3.8562 -2.4978 0.9705
-5.5287 -4.3659 -2.4980 0.9705
-5.1185 -4.8411 -2.4982 0.9705
-4.1798 -5.6729 -2.4986 0.9705
-3.1084 -6.3253 -2.4991 0.9705
-1.9380 -6.7776 -2.4996 0.9705
-0.0785 -7.0510 -2.5003 0.9705
0.5494 -7.0307 -2.5006 0.9705
1.1731 -6.9546 -2.5008 0.9705
2.3880 -6.6376 -2.5013 0.9705
2.9696 -6.3993 -2.5015 0.9705
3.5277 -6.1101 -2.5017 0.9705
4.0578 -5.7723 -2.5019 0.9705
4.5558 -5.3886 -2.5021 0.9705
5.8185 -3.9941 -2.5025 0.9705
6.1512 -3.4605 -2.5026 0.9705
6.8473 -1.7126 -2.5028 0.9705
6.9726 -1.0963 -2.5028 0.9705
7.0425 -0.4714 -2.5027 0.9705
7.0563 0.1573 -2.5027 0.9705
7.0142 0.7847 -2.5026 0.9705
6.9163 1.4058 -2.5026 0.9705
10.1452 3.0236 -3.7537 0.9561
5.6244 3.5029 -2.3495 0.9723
4.9134 4.4440 -2.3491 0.9723
4.4980 4.8632 -2.3489 0.9723
3.5638 5.5827 -2.3485 0.9723
3.0525 5.8771 -2.3483 0.9723
2.5171 6.1249 -2.3480 0.9723
1.3909 6.4728 -2.3476 0.9723
0.8092 6.5703 -2.3473 0.9723
0.2212 6.6156 -2.3471 0.9723
-0.9551 6.5486 -2.3466 0.9723
-2.1006 6.2744 -2.3462 0.9723
-3.6827 5.4951 -2.3456 0.9723
-5.7161 4.1142 -2.4973 0.9706
-6.0593 3.5890 -2.4972 0.9706
-6.5993 2.4577 -2.4970 0.9706
-6.7918 1.8605 -2.4970 0.9706
-6.9304 1.2486 -2.4970 0.9706
-7.0140 0.6268 -2.4970 0.9706
-2.9938 -0.2675 -1.1224 0.9872
-2.9169 -0.7990 -1.1293 0.9872
-2.9238 -1.0888 -1.1650 0.9868
-6.0355 -2.8829 -2.4976 0.9718
-5.7553 -3.4089 -2.4978 0.9718
-5.4294 -3.9078 -2.4980 0.9718
-5.0604 -4.3759 -2.4981 0.9718
-4.6512 -4.8093 -2.4983 0.9718
-3.2162 -5.8688 -2.4990 0.9718
-2.1251 -6.3473 -2.4995 0.9718
-1.5519 -6.5119 -2.4997 0.9718
-0.9662 -6.6248 -2.5000 0.9718
-0.3728 -6.6852 -2.5002 0.9718
1.4071 -6.5480 -2.5009 0.9718
1.9845 -6.3973 -2.5011 0.9718
4.5497 -4.9191 -2.5021 0.9718
4.9698 -4.4948 -2.5022 0.9718
6.2269 -2.4782 -2.5026 0.9718
6.4228 -1.9142 -2.5026 0.9718
6.6869 0.4477 -2.5025 0.9718
6.6203 1.0410 -2.5025 0.9718
6.5011 1.6261 -2.5024 0.9718
9.1640 4.1291 -3.7533 0.9580
4.4728 4.4233 -2.3490 0.9735
3.1444 5.4464 -2.3483 0.9735
2.6470 5.7041 -2.3481 0.9735
0.4897 6.2668 -2.3472 0.9735
-0.0700 6.2849 -2.3470 0.9735
-1.7275 6.0414 -2.3463 0.9735
-2.2581 5.8631 -2.3461 0.9735
-2.7708 5.6385 -2.3459 0.9735
-4.6810 4.4274 -2.4059 0.9729
-5.2489 4.1450 -2.4974 0.9718
-6.5220 1.4777 -2.4971 0.9719
-2.9106 -0.9385 -1.1419 0.9870
-6.1578 -2.6111 -2.4976 0.9718
-5.9013 -3.1490 -2.4977 0.9718
-5.5979 -3.6620 -2.4979 0.9718
-5.2502 -4.1460 -2.4980 0.9718
-3.9692 -5.3870 -2.4987 0.9718
-1.8403 -6.4360 -2.4996 0.9718
-1.2603 -6.5748 -2.4998 0.9718
-0.6702 -6.6616 -2.5001 0.9718
1.1139 -6.6038 -2.5008 0.9718
2.2676 -6.3028 -2.5012 0.9718
3.3497 -5.8019 -2.5016 0.9718
4.3259 -5.1167 -2.5020 0.9718
4.7645 -4.7116 -2.5021 0.9718
6.1102 -2.7531 -2.5025 0.9718
6.5017 -1.6262 -2.5026 0.9718
6.6207 -1.0410 -2.5026 0.9718
6.7002 0.1494 -2.5026 0.9718
6.6602 0.7451 -2.5025 0.9718
5.3406 3.3262 -2.3494 0.9735
4.2711 4.6179 -2.3489 0.9735
3.3841 5.3011 -2.3484 0.9735
1.8628 6.0052 -2.3478 0.9735
1.3208 6.1465 -2.3476 0.9735
0.2100 6.2821 -2.3471 0.9735
-0.3499 6.2753 -2.3469 0.9735
-0.9069 6.2186 -2.3467 0.9735
-1.4567 6.1126 -2.3464 0.9735
-1.9948 5.9582 -2.3462 0.9735
-2.5170 5.7565 -2.3460 0.9735
-5.0592 4.3749 -2.4975 0.9718
-5.4282 3.9070 -2.4974 0.9718
-4.2614 0.3808 -1.5976 0.9819
-3.2641 0.0000 -1.2811 0.9861
-2.8313 -0.7756 -1.1521 0.9875
-5.7427 -2.7430 -2.4977 0.9730
-5.1660 -3.7182 -2.4981 0.9730
-4.0010 -4.9520 -2.4986 0.9730
-3.5446 -5.2889 -2.4988 0.9730
-2.5512 -5.8346 -2.4993 0.9730
-0.9193 -6.3030 -2.5000 0.9730
0.2129 -6.3674 -2.5004 0.9730
0.7789 -6.3237 -2.5006 0.9730
1.3387 -6.2298 -2.5009 0.9730
1.8881 -6.0864 -2.5011 0.9730
3.4298 -5.3726 -2.5016 0.9730
3.8946 -5.0463 -2.5018 0.9730
4.7282 -4.2763 -2.5021 0.9730
5.4120 -3.3706 -2.5023 0.9730
5.9241 -2.3577 -2.5024 0.9730
6.1106 -1.8211 -2.5025 0.9730
6.3746 -0.1420 -2.5025 0.9730
4.9349 3.3876 -2.3492 0.9746
4.6134 3.8131 -2.3491 0.9746
3.8637 4.5700 -2.3487 0.9746
3.4413 4.8954 -2.3485 0.9746
2.0252 5.6291 -2.3479 0.9746
1.5160 5.7865 -2.3477 0.9746
0.4659 5.9625 -2.3472 0.9746
-0.0666 5.9797 -2.3470 0.9746
-0.5985 5.9496 -2.3468 0.9746
-1.1256 5.8721 -2.3466 0.9746
-4.6236 4.3730 -2.4977 0.9730
-6.2056 1.4061 -2.4973 0.9730
-6.3061 0.8481 -2.4973 0.9730
-3.6456 0.1626 -1.4322 0.9844
-2.8717 -1.2177 -1.2242 0.9867
-5.6149 -2.9962 -2.4978 0.9730
-5.3263 -3.4842 -2.4980 0.9730
-4.9954 -3.9448 -2.4981 0.9730
-4.6248 -4.3740 -2.4983 0.9730
-4.2174 -4.7687 -2.4985 0.9730
-3.3056 -5.4418 -2.4989 0.9730
-2.8084 -5.7149 -2.4991 0.9730
-1.7510 -6.1235 -2.4996 0.9730
-1.1991 -6.2555 -2.4998 0.9730
-0.6376 -6.3380 -2.5001 0.9730
1.0598 -6.2830 -2.5008 0.9730
1.6150 -6.1643 -2.5010 0.9730
2.6828 -5.7812 -2.5014 0.9730
3.6658 -5.2147 -2.5017 0.9730
4.5329 -4.4826 -2.5020 0.9730
5.2563 -3.6082 -2.5023 0.9730
5.5568 -3.1262 -2.5023 0.9730
5.8132 -2.6192 -2.5024 0.9730
6.1857 -1.5471 -2.5025 0.9730
6.3619 -0.4259 -2.5025 0.9730
6.2480 1.2700 -2.5023 0.9730
8.8852 3.5362 -3.7532 0.9597
8.5347 4.3128 -3.7530 0.9597
5.0810 3.1645 -2.3493 0.9746
4.4388 4.0147 -2.3490 0.9746
4.0636 4.3935 -2.3488 0.9746
3.6561 4.7374 -2.3486 0.9746
3.2197 5.0436 -2.3484 0.9746
2.7578 5.3097 -2.3482 0.9746
2.2740 5.5336 -2.3480 0.9746
0.7311 5.9361 -2.3473 0.9746
0.1998 5.9771 -2.3471 0.9746
-1.3860 5.8159 -2.3465 0.9746
-1.8980 5.6690 -2.3463 0.9746
-2.8726 5.2419 -2.3459 0.9746
-3.3275 4.9650 -2.3458 0.9746
-3.7560 4.6488 -2.3456 0.9746
-4.2044 4.3474 -2.3736 0.9743
-4.8137 4.1626 -2.4976 0.9730
-5.4750 3.2429 -2.4974 0.9730
-5.7418 2.7426 -2.4974 0.9730
-5.9629 2.2206 -2.4973 0.9730
-6.1368 1.6811 -2.4973 0.9730
-3.1614 -0.0000 -1.3018 0.9864
-2.8130 -0.2514 -1.1629 0.9879
-5.4736 -2.6145 -2.4978 0.9741
-3.3785 -5.0410 -2.4989 0.9741
-2.9166 -5.3221 -2.4991 0.9741
-2.4315 -5.5611 -2.4993 0.9741
-1.4073 -5.9051 -2.4997 0.9741
-0.3380 -6.0621 -2.5002 0.9741
0.2029 -6.0687 -2.5004 0.9741
0.7423 -6.0271 -2.5006 0.9741
2.7999 -5.3907 -2.5014 0.9741
3.2688 -5.1205 -2.5016 0.9741
3.7119 -4.8096 -2.5017 0.9741
4.1254 -4.4603 -2.5019 0.9741
4.5063 -4.0756 -2.5020 0.9741
5.1579 -3.2124 -2.5022 0.9741
5.4235 -2.7406 -2.5023 0.9741
5.6461 -2.2471 -2.5023 0.9741
5.8237 -1.7356 -2.5023 0.9741
5.9551 -1.2104 -2.5024 0.9741
6.0392 -0.6756 -2.5024 0.9741
6.0632 0.4059 -2.5023 0.9741
5.8948 1.4744 -2.5021 0.9741
5.7399 1.9932 -2.5020 0.9741
8.3094 3.7441 -3.7529 0.9613
7.9428 4.4685 -3.7527 0.9613
4.7033 3.2287 -2.3491 0.9756
4.0558 4.0108 -2.3488 0.9756
3.6824 4.3556 -2.3486 0.9756
2.8513 4.9387 -2.3483 0.9756
1.9302 5.3651 -2.3479 0.9756
0.9482 5.6213 -2.3474 0.9756
0.4441 5.6829 -2.3472 0.9756
-0.0635 5.6994 -2.3470 0.9756
-0.5705 5.6706 -2.3468 0.9756
-1.0728 5.5969 -2.3466 0.9756
-1.5666 5.4787 -2.3464 0.9757
-2.9577 4.8691 -2.3459 0.9757
-3.7866 4.2816 -2.3537 0.9756
-4.4070 4.1681 -2.4978 0.9741
-4.7602 3.7592 -2.4977 0.9741
-5.0757 3.3204 -2.4976 0.9741
-5.3509 2.8554 -2.4975 0.9741
-5.9149 1.3402 -2.4974 0.9741
-6.0107 0.8084 -2.4974 0.9741
-2.7946 -0.3758 -1.1611 0.9879
-2.7756 -0.6288 -1.1719 0.9878
-5.3518 -2.8558 -2.4979 0.9741
-5.0767 -3.3210 -2.4981 0.9741
-4.4080 -4.1690 -2.4984 0.9741
-3.5995 -4.8853 -2.4988 0.9741
-2.1815 -5.6641 -2.4994 0.9741
-1.6688 -5.8363 -2.4996 0.9741
-0.6077 -6.0408 -2.5001 0.9741
-0.0676 -6.0714 -2.5003 0.9741
0.4731 -6.0539 -2.5005 0.9741
1.0101 -5.9883 -2.5007 0.9741
1.5392 -5.8751 -2.5009 0.9741
2.0562 -5.7152 -2.5011 0.9741
2.5569 -5.5100 -2.5013 0.9741
3.9225 -4.6396 -2.5018 0.9741
4.3201 -4.2722 -2.5019 0.9741
4.6835 -3.8709 -2.5020 0.9741
5.2960 -2.9795 -2.5022 0.9741
5.7406 -1.9933 -2.5023 0.9741
6.0032 -0.9439 -2.5024 0.9741
6.0633 -0.4059 -2.5023 0.9741
8.4681 3.3703 -3.7530 0.9613
8.1342 4.1104 -3.7529 0.9613
4.8426 3.0160 -2.3492 0.9756
4.2306 3.8264 -2.3489 0.9756
3.0686 4.8070 -2.3484 0.9756
1.1977 5.5738 -2.3475 0.9756
0.1905 5.6968 -2.3471 0.9756
-0.3173 5.6907 -2.3469 0.9756
-0.8225 5.6393 -2.3467 0.9756
-1.3210 5.5433 -2.3465 0.9757
-1.8090 5.4033 -2.3463 0.9757
-2.2826 5.2204 -2.3462 0.9757
-3.5800 4.4310 -2.3457 0.9757
-4.1816 4.3238 -2.4769 0.9743
-4.9229 3.5433 -2.4976 0.9741
-5.2185 3.0910 -2.4975 0.9741
-5.4728 2.6142 -2.4975 0.9741
-5.8494 1.6023 -2.4974 0.9741
-5.9687 1.0754 -2.4974 0.9741
-3.0794 0.0000 -1.3283 0.9867
-2.7539 -0.2461 -1.1927 0.9880
-2.7278 -0.4914 -1.1956 0.9880
-2.7092 -0.7421 -1.2117 0.9878
-2.7209 -1.0133 -1.2524 0.9874
-4.0267 -4.1636 -2.4985 0.9751
-3.2252 -4.8123 -2.4989 0.9751
-2.3212 -5.3087 -2.4993 0.9751
-1.3434 -5.6371 -2.4997 0.9751
0.1937 -5.7932 -2.5004 0.9751
0.7086 -5.7535 -2.5006 0.9751
2.6728 -5.1460 -2.5013 0.9751
4.9236 -3.0664 -2.5021 0.9750
5.7649 -0.6449 -2.5022 0.9750
5.7302 0.9011 -2.5021 0.9750
5.6270 1.4074 -2.5020 0.9750
7.5820 4.2656 -3.7526 0.9628
4.4897 3.0820 -2.3491 0.9766
4.1973 3.4692 -2.3489 0.9766
3.5152 4.1578 -2.3486 0.9766
3.1310 4.4539 -2.3484 0.9766
2.7219 4.7145 -2.3482 0.9766
2.2913 4.9376 -2.3480 0.9766
-1.4955 5.2302 -2.3465 0.9766
-2.3988 4.8814 -2.3461 0.9766
-2.8236 4.6483 -2.3460 0.9766
-3.2259 4.3782 -2.3458 0.9766
-3.7614 4.2531 -2.4492 0.9756
-4.8456 3.1699 -2.4977 0.9751
-5.3305 2.2604 -2.4976 0.9751
-2.8614 -0.1276 -1.2355 0.9876
-2.7200 -0.6163 -1.2030 0.9879
-5.1091 -2.7263 -2.4980 0.9751
-4.8464 -3.1704 -2.4981 0.9751
-4.2081 -3.9800 -2.4985 0.9751
-3.8374 -4.3390 -2.4986 0.9751
-3.4362 -4.6637 -2.4988 0.9751
-3.0077 -4.9514 -2.4990 0.9751
-1.5931 -5.5715 -2.4996 0.9751
-1.0910 -5.6916 -2.4998 0.9751
0.4516 -5.7791 -2.5005 0.9751
0.9643 -5.7164 -2.5007 0.9751
1.4693 -5.6083 -2.5009 0.9751
1.9628 -5.4557 -2.5011 0.9751
2.8995 -5.0220 -2.5014 0.9751
4.1239 -4.0782 -2.5018 0.9751
4.4707 -3.6951 -2.5019 0.9750
5.0554 -2.8441 -2.5021 0.9750
5.4798 -1.9028 -2.5022 0.9750
5.7305 -0.9011 -2.5022 0.9750
5.7993 0.1293 -2.5022 0.9750
5.7647 0.6449 -2.5021 0.9750
5.6842 1.1554 -2.5021 0.9750
5.5587 1.6567 -2.5020 0.9750
5.3889 2.1448 -2.5019 0.9750
7.3843 4.5989 -3.7525 0.9628
4.0384 3.6526 -2.3488 0.9766
3.6971 3.9973 -2.3487 0.9766
2.9293 4.5887 -2.3483 0.9766
1.1434 5.3208 -2.3475 0.9766
0.6652 5.4010 -2.3473 0.9766
0.1818 5.4383 -2.3471 0.9766
-2.6138 4.7696 -2.3461 0.9766
-3.4177 4.2301 -2.3458 0.9766
-4.0258 4.1627 -2.4979 0.9751
-4.6996 3.3826 -2.4977 0.9751
-5.2246 2.4956 -2.4976 0.9751
-5.4259 2.0206 -2.4975 0.9751
-5.6981 1.0266 -2.4975 0.9751
-3.8264 0.3419 -1.6571 0.9834
-2.7005 -0.2413 -1.2234 0.9882
-2.6738 -0.4817 -1.2259 0.9881
-4.4938 -3.2344 -2.4983 0.9760
-3.8496 -3.9804 -2.4986 0.9760
-3.4803 -4.3076 -2.4988 0.9760
-2.6618 -4.8571 -2.4991 0.9760
-1.7587 -5.2529 -2.4995 0.9760
-1.2843 -5.3890 -2.4997 0.9760
0.6774 -5.5002 -2.5005 0.9760
1.1644 -5.4185 -2.5007 0.9760
1.6421 -5.2937 -2.5009 0.9760
2.5551 -4.9194 -2.5013 0.9760
2.9830 -4.6727 -2.5014 0.9760
3.3872 -4.3889 -2.5016 0.9760
4.1121 -3.7192 -2.5018 0.9760
5.1522 -2.0505 -2.5021 0.9760
5.3143 -1.5838 -2.5021 0.9760
5.4342 -1.1045 -2.5021 0.9760
5.5109 -0.6165 -2.5021 0.9760
5.5439 -0.1235 -2.5021 0.9760
5.5328 0.3704 -2.5021 0.9760
5.3792 1.3454 -2.5019 0.9760
5.2379 1.8188 -2.5018 0.9760
7.2481 4.0777 -3.7525 0.9642
6.8560 4.7064 -3.7523 0.9642
4.0125 3.3164 -2.3488 0.9774
3.3604 3.9747 -2.3485 0.9774
2.9931 4.2578 -2.3484 0.9774
2.6021 4.5069 -2.3482 0.9774
2.1904 4.7203 -2.3480 0.9774
1.3186 5.0331 -2.3476 0.9774
-0.9791 5.1079 -2.3467 0.9774
-1.4297 5.0001 -2.3465 0.9774
-2.6994 4.4438 -2.3461 0.9774
-3.0840 4.1857 -2.3459 0.9774
-4.8837 2.6060 -2.4977 0.9760
-5.3984 1.2232 -2.4976 0.9760
-2.6659 -0.6040 -1.2334 0.9881
-4.8844 -2.6064 -2.4981 0.9760
-4.0230 -3.8049 -2.4985 0.9760
-3.6686 -4.1481 -2.4987 0.9760
-1.9909 -5.1691 -2.4994 0.9760
-1.5230 -5.3263 -2.4996 0.9760
-0.0617 -5.5407 -2.5002 0.9760
3.5795 -4.2337 -2.5016 0.9760
3.9423 -3.8986 -2.5017 0.9760
4.5714 -3.1381 -2.5019 0.9760
5.3796 -1.3455 -2.5021 0.9760
5.4780 -0.8613 -2.5021 0.9760
5.5107 0.6165 -2.5020 0.9760
5.4339 1.1045 -2.5020 0.9760
5.1516 2.0503 -2.5018 0.9760
4.1563 3.1345 -2.3489 0.9774
3.8606 3.4918 -2.3488 0.9774
3.1799 4.1204 -2.3485 0.9774
2.8004 4.3867 -2.3483 0.9774
2.3986 4.6182 -2.3481 0.9774
1.9779 4.8130 -2.3479 0.9774
1.5416 4.9696 -2.3477 0.9774
0.1738 5.1990 -2.3472 0.9774
-0.7506 5.1466 -2.3468 0.9774
-1.6510 4.9313 -2.3464 0.9774
-2.0832 4.7644 -2.3463 0.9774
-2.4988 4.5598 -2.3461 0.9774
-3.3842 4.1887 -2.4298 0.9766
-3.8487 3.9796 -2.4980 0.9760
-4.4930 3.2338 -2.4978 0.9760
-4.7628 2.8211 -2.4977 0.9760
-4.9949 2.3859 -2.4977 0.9760
-5.1873 1.9318 -2.4976 0.9760
-5.3386 1.4625 -2.4976 0.9760
-2.9112 0.0000 -1.3723 0.9872
-2.6212 -0.4722 -1.2555 0.9883
-2.6016 -0.7126 -1.2715 0.9881
-2.6023 -0.9691 -1.3090 0.9878
-4.3017 -3.0962 -2.4984 0.9768
-4.0093 -3.4670 -2.4985 0.9768
-3.6850 -3.8103 -2.4987 0.9768
-3.3315 -4.1234 -2.4988 0.9768
-2.1242 -4.8581 -2.4994 0.9768
-1.2294 -5.1586 -2.4997 0.9768
0.1773 -5.3013 -2.5003 0.9768
0.6484 -5.2649 -2.5005 0.9768
1.1146 -5.1866 -2.5007 0.9768
1.5719 -5.0672 -2.5009 0.9768
2.0168 -4.9076 -2.5010 0.9768
3.2423 -4.2011 -2.5015 0.9768
4.2375 -3.1956 -2.5018 0.9768
4.7373 -2.3938 -2.5020 0.9768
5.2016 -1.0573 -2.5020 0.9768
5.2750 -0.5901 -2.5020 0.9768
5.2960 0.3546 -2.5020 0.9768
5.2433 0.8245 -2.5019 0.9768
4.8386 2.1802 -2.5017 0.9768
6.9379 3.9032 -3.7524 0.9654
6.5626 4.5050 -3.7522 0.9654
3.5428 3.5035 -2.3486 0.9782
2.8650 4.0756 -2.3483 0.9782
0.8283 4.9107 -2.3474 0.9782
0.3879 4.9645 -2.3473 0.9782
-0.0555 4.9790 -2.3471 0.9782
-1.3686 4.7863 -2.3466 0.9782
-1.7890 4.6452 -2.3464 0.9782
-3.0424 4.1292 -2.4177 0.9776
-4.1589 3.2842 -2.4980 0.9768
-4.4345 2.9010 -2.4979 0.9768
-4.8784 2.0686 -2.4977 0.9768
-5.1677 1.1709 -2.4977 0.9768
-2.7082 -0.1207 -1.2778 0.9881
-2.6352 -0.3544 -1.2533 0.9883
-2.6131 -0.5921 -1.2630 0.9882
-2.5994 -0.8382 -1.2874 0.9880
-3.8510 -3.6422 -2.4986 0.9768
-3.1446 -4.2679 -2.4989 0.9768
-2.7525 -4.5312 -2.4991 0.9768
-1.9057 -4.9481 -2.4995 0.9768
-0.9984 -5.2084 -2.4998 0.9768
1.7961 -4.9924 -2.5010 0.9768
2.6532 -4.5953 -2.5013 0.9768
3.0518 -4.3412 -2.5014 0.9768
3.4263 -4.0526 -2.5015 0.9768
4.0909 -3.3812 -2.5018 0.9768
4.3757 -3.0038 -2.5019 0.9768
4.8393 -2.1804 -2.5020 0.9768
5.1493 -1.2879 -2.5020 0.9768
5.3065 0.1183 -2.5020 0.9768
5.2749 0.5901 -2.5020 0.9768
5.2013 1.0572 -2.5019 0.9768
4.9311 1.9626 -2.5017 0.9768
7.1050 3.5903 -3.7525 0.9654
6.7569 4.2083 -3.7523 0.9654
6.3552 4.7927 -3.7521 0.9654
3.3830 3.6577 -2.3486 0.9782
3.0439 3.9440 -2.3484 0.9782
1.8933 4.6071 -2.3479 0.9782
1.4756 4.7570 -2.3477 0.9782
1.0463 4.8691 -2.3475 0.9782
0.1664 4.9767 -2.3472 0.9782
-0.2772 4.9713 -2.3470 0.9782
-1.1541 4.8427 -2.3467 0.9782
-1.5804 4.7204 -2.3465 0.9782
-1.9941 4.5607 -2.3463 0.9782
-2.3920 4.3649 -2.3462 0.9782
-2.7709 4.1344 -2.3460 0.9782
-3.3307 4.1225 -2.4982 0.9768
-4.0085 3.4663 -2.4980 0.9768
-4.9656 1.8493 -2.4977 0.9768
-5.1105 1.3999 -2.4977 0.9768
-3.7076 0.3313 -1.7547 0.9837
-2.5903 -0.2315 -1.2791 0.9885
-2.5698 -0.4629 -1.2843 0.9884
-2.5499 -0.6985 -1.3004 0.9883
-2.5453 -0.9479 -1.3359 0.9880
-2.5457 -1.2160 -1.3876 0.9875
-4.3703 -2.5885 -2.4983 0.9776
-4.1227 -2.9673 -2.4984 0.9776
-3.5317 -3.6517 -2.4987 0.9776
-3.1929 -3.9518 -2.4989 0.9776
-2.4419 -4.4559 -2.4992 0.9776
-2.0358 -4.6559 -2.4994 0.9776
-0.7335 -5.0294 -2.4999 0.9776
-0.2830 -5.0751 -2.5001 0.9776
0.1699 -5.0805 -2.5003 0.9776
0.6214 -5.0456 -2.5005 0.9776
3.1072 -4.0261 -2.5014 0.9776
3.4534 -3.7337 -2.5015 0.9776
3.7721 -3.4117 -2.5016 0.9776
4.3176 -2.6890 -2.5018 0.9776
4.5399 -2.2941 -2.5019 0.9776
4.8749 -1.4528 -2.5019 0.9776
5.0855 -0.1133 -2.5019 0.9776
5.0753 0.3398 -2.5019 0.9776
5.0248 0.7901 -2.5018 0.9776
4.8048 1.6684 -2.5017 0.9776
6.2892 4.3173 -3.7521 0.9666
3.6808 3.0423 -2.3487 0.9789
2.3870 4.1345 -2.3481 0.9789
1.6159 4.4915 -2.3478 0.9789
0.7938 4.7062 -2.3474 0.9789
-0.0532 4.7717 -2.3471 0.9790
-0.8982 4.6860 -2.3468 0.9790
-1.7146 4.4519 -2.3465 0.9790
-2.1039 4.2814 -2.3463 0.9790
-2.4765 4.0769 -2.3462 0.9790
-3.3649 3.8047 -2.4982 0.9776
-3.9858 3.1476 -2.4980 0.9776
-4.6754 1.9826 -2.4978 0.9776
-4.9528 1.1222 -2.4978 0.9776
-5.0330 0.6769 -2.4978 0.9776
-2.6467 -0.1180 -1.3031 0.9883
-2.5845 -0.3476 -1.2826 0.9884
-2.5616 -0.5804 -1.2919 0.9884
-3.9866 -3.1481 -2.4985 0.9776
-3.6907 -3.4906 -2.4986 0.9776
-3.3656 -3.8055 -2.4988 0.9776
-3.0137 -4.0903 -2.4989 0.9776
-2.6379 -4.3426 -2.4991 0.9776
-1.8264 -4.7421 -2.4995 0.9776
-0.0566 -5.0829 -2.5002 0.9776
0.8456 -5.0131 -2.5006 0.9776
1.7213 -4.7844 -2.5009 0.9776
2.1404 -4.6125 -2.5011 0.9776
2.5426 -4.4039 -2.5012 0.9776
4.1934 -2.8786 -2.5018 0.9776
4.4331 -2.4940 -2.5018 0.9776
4.8053 -1.6685 -2.5019 0.9776
4.9348 -1.2342 -2.5019 0.9776
5.0250 -0.7901 -2.5020 0.9776
5.0754 -0.3397 -2.5019 0.9776
5.0854 0.1134 -2.5019 0.9776
5.0551 0.5655 -2.5019 0.9776
4.9846 1.0132 -2.5018 0.9776
4.8744 1.4528 -2.5017 0.9776
4.7256 1.8808 -2.5016 0.9776
6.4754 4.0330 -3.7522 0.9666
3.5415 3.2031 -2.3487 0.9789
3.2421 3.5054 -2.3485 0.9789
2.9171 3.7798 -2.3484 0.9789
2.2004 4.2365 -2.3480 0.9789
1.4142 4.5589 -2.3477 0.9789
0.1595 4.7695 -2.3472 0.9790
-0.2657 4.7644 -2.3470 0.9790
-0.6886 4.7215 -2.3468 0.9790
-1.9112 4.3709 -2.3464 0.9790
-3.8417 3.3221 -2.4981 0.9776
-4.7591 1.7723 -2.4978 0.9776
-4.8979 1.3417 -2.4978 0.9776
-4.9978 0.9004 -2.4978 0.9776
-2.7481 0.0000 -1.4089 0.9877
-2.5372 -0.2267 -1.3059 0.9886
-2.5199 -0.4540 -1.3126 0.9886
-2.4994 -0.6847 -1.3286 0.9884
-3.9554 -2.8469 -2.4985 0.9783
-3.3884 -3.5035 -2.4988 0.9783
-2.3428 -4.2750 -2.4992 0.9783
-1.5479 -4.6233 -2.4996 0.9783
-1.1303 -4.7431 -2.4998 0.9783
0.5962 -4.8407 -2.5005 0.9783
1.0248 -4.7688 -2.5006 0.9783
1.4452 -4.6589 -2.5008 0.9783
2.6252 -4.1123 -2.5012 0.9783
2.9810 -3.8625 -2.5014 0.9783
3.6189 -3.2731 -2.5016 0.9783
4.1421 -2.5797 -2.5017 0.9783
4.3554 -2.2009 -2.5018 0.9783
4.7823 -0.9720 -2.5019 0.9783
4.8691 0.3260 -2.5018 0.9783
4.6096 1.6006 -2.5016 0.9783
4.4487 2.0045 -2.5015 0.9783
3.5635 2.9453 -2.3701 0.9794
3.2573 3.2212 -2.3485 0.9796
2.6342 3.7472 -2.3483 0.9796
1.9278 4.1544 -2.3479 0.9796
1.5503 4.3092 -2.3478 0.9796
1.1605 4.4297 -2.3476 0.9796
-0.0510 4.5780 -2.3471 0.9796
-0.4582 4.5549 -2.3470 0.9796
-0.8618 4.4958 -2.3468 0.9796
-2.0185 4.1076 -2.3464 0.9796
-2.4431 4.0220 -2.4125 0.9791
-2.8908 3.9234 -2.4984 0.9783
-3.2283 3.6504 -2.4983 0.9783
-3.5403 3.3484 -2.4982 0.9783
-3.8241 3.0199 -2.4981 0.9783
-4.0776 2.6675 -2.4980 0.9783
-4.2987 2.2939 -2.4980 0.9783
-4.7518 1.0767 -2.4979 0.9783
-2.5113 -0.5690 -1.3201 0.9885
-2.4881 -0.8023 -1.3403 0.9883
-2.4879 -1.0550 -1.3854 0.9879
-2.4717 -1.3189 -1.4363 0.9875
-4.0782 -2.6678 -2.4984 0.9783
-3.8248 -3.0204 -2.4985 0.9783
-2.8914 -3.9243 -2.4990 0.9783
-2.5308 -4.1663 -2.4991 0.9783
-2.1501 -4.3753 -2.4993 0.9783
-1.3405 -4.6879 -2.4997 0.9783
-0.9180 -4.7889 -2.4998 0.9783
0.3800 -4.8623 -2.5004 0.9783
0.8113 -4.8095 -2.5005 0.9783
1.2362 -4.7186 -2.5007 0.9783
1.6514 -4.5901 -2.5009 0.9783
2.8059 -3.9913 -2.5013 0.9783
3.7612 -3.1087 -2.5016 0.9783
4.0231 -2.7616 -2.5017 0.9783
4.2530 -2.3927 -2.5018 0.9783
4.4492 -2.0046 -2.5018 0.9783
4.6100 -1.6007 -2.5018 0.9783
4.8208 -0.7580 -2.5019 0.9783
4.8788 0.1088 -2.5018 0.9783
4.5336 1.8044 -2.5016 0.9783
6.2124 3.8692 -3.7521 0.9676
3.3976 3.0730 -2.3486 0.9796
2.7986 3.6263 -2.3483 0.9796
1.7408 4.2360 -2.3479 0.9796
1.3568 4.3738 -2.3477 0.9796
0.9620 4.4769 -2.3475 0.9796
0.5597 4.5444 -2.3474 0.9796
0.1530 4.5759 -2.3472 0.9796
-0.2549 4.5710 -2.3470 0.9796
-1.0611 4.4528 -2.3467 0.9796
-1.4531 4.3404 -2.3466 0.9796
-1.8336 4.1936 -2.3464 0.9796
-2.1995 4.0135 -2.3463 0.9796
-3.3877 3.5029 -2.4982 0.9783
-2.6714 0.0000 -1.4261 0.9880
-2.4853 -0.2221 -1.3321 0.9887
-2.3944 -1.4182 -1.4856 0.9875
-3.5404 -3.0615 -2.4987 0.9790
-3.2540 -3.3646 -2.4988 0.9790
-2.9418 -3.6411 -2.4989 0.9790
-2.6062 -3.8887 -2.4991 0.9790
-2.2499 -4.1055 -2.4993 0.9790
-1.4865 -4.4400 -2.4996 0.9790
0.5725 -4.6487 -2.5004 0.9790
1.3879 -4.4741 -2.5008 0.9790
1.7807 -4.3330 -2.5009 0.9790
2.1594 -4.1576 -2.5010 0.9790
2.8627 -3.7092 -2.5013 0.9790
3.1816 -3.4399 -2.5014 0.9790
3.4753 -3.1431 -2.5015 0.9790
3.9777 -2.4773 -2.5017 0.9790
4.3541 -1.7329 -2.5018 0.9790
4.5460 1.1371 -2.5016 0.9790
4.2721 1.9249 -2.5015 0.9790
3.1280 3.0934 -2.3485 0.9803
2.8401 3.3593 -2.3484 0.9803
2.1992 3.8092 -2.3481 0.9803
1.8513 3.9896 -2.3479 0.9803
1.1145 4.2540 -2.3476 0.9803
0.7314 4.3361 -2.3474 0.9803
0.3425 4.3836 -2.3473 0.9803
-0.0490 4.3964 -2.3471 0.9803
-0.4401 4.3743 -2.3470 0.9803
-1.9421 3.9521 -2.3508 0.9802
-3.1004 3.5057 -2.4984 0.9790
-3.4000 3.2157 -2.4983 0.9790
-3.6725 2.9002 -2.4982 0.9790
-4.1283 2.2030 -2.4980 0.9790
