ply
format ascii 1.0
element vertex 1587
property float32 x
property float32 y
property float32 z
property float32 I
end_header
4.5782 -7.9297 -0.6862 0.9639
5.3545 -7.6168 -0.6977 0.9633
4.3517 -8.3785 -0.8655 0.9628
4.1487 -8.9402 -0.9036 0.9612
4.6468 -8.0484 -0.8520 0.9634
-5.6923 7.0455 -0.8304 0.9643
5.1014 -7.9912 -1.0283 0.9626
5.5754 -7.9311 -1.0516 0.9617
4.6321 -8.9184 -1.2594 0.9603
5.2411 -8.2100 -1.2206 0.9615
5.8199 -8.2788 -1.2682 0.9600
-5.6921 7.0452 -1.1350 0.9641
5.1897 -8.9888 -1.4763 0.9589
-5.6920 7.0451 -1.2883 0.9641
3.7541 14.3294 -2.3588 0.9418
2.4595 14.5808 -2.3546 0.9419
-0.1641 14.7338 -2.3463 0.9421
-5.2612 13.6603 -2.3310 0.9424
-6.4467 13.1187 -2.3276 0.9425
-8.6477 11.7368 -2.3214 0.9427
-9.6469 10.9079 -2.3188 0.9427
-10.5686 9.9958 -2.3164 0.9428
-12.8048 6.8329 -2.3111 0.9429
3.1093 14.4696 -2.3567 0.9418
1.8059 14.6629 -2.3525 0.9419
-0.8196 14.6992 -2.3443 0.9421
-2.1211 14.5432 -2.3403 0.9422
-3.4014 14.2731 -2.3364 0.9423
-5.8601 13.4024 -2.3292 0.9425
-7.0198 12.8094 -2.3259 0.9426
-8.1213 12.1179 -2.3229 0.9426
-5.6920 7.0450 -1.4422 0.9640
-10.1179 10.4619 -2.3175 0.9428
-13.9718 0.0000 -2.4636 0.9448
-13.7616 -2.4793 -2.4656 0.9448
-13.4946 -3.6965 -2.4671 0.9448
-13.1216 -4.8865 -2.4689 0.9447
-12.6455 -6.0402 -2.4710 0.9447
-12.0694 -7.1487 -2.4734 0.9446
-11.3975 -8.2034 -2.4761 0.9446
-10.6347 -9.1961 -2.4790 0.9445
-9.7864 -10.1190 -2.4822 0.9444
-7.8590 -11.7264 -2.4891 0.9443
-4.5022 -13.4475 -2.5005 0.9440
-0.7933 -14.2272 -2.5125 0.9438
3.0076 -13.9964 -2.5243 0.9435
4.2477 -13.6932 -2.5280 0.9434
6.6264 -12.7580 -2.5349 0.9433
7.7452 -12.1326 -2.5381 0.9432
9.7951 -10.5903 -2.5436 0.9431
10.7088 -9.6854 -2.5460 0.9430
11.5376 -8.7009 -2.5480 0.9430
12.2746 -7.6446 -2.5498 0.9430
13.4482 -5.3522 -2.5522 0.9429
13.8749 -4.1352 -2.5529 0.9429
14.3895 -1.6097 -2.5531 0.9429
13.4214 2.1104 -2.3956 0.9463
13.1725 3.2947 -2.3942 0.9463
12.8176 4.4508 -2.3925 0.9464
12.3601 5.5693 -2.3904 0.9464
10.4158 8.6089 -2.3827 0.9466
8.7014 10.2921 -2.3764 0.9467
-0.1483 13.3105 -2.3471 0.9474
-1.3303 13.2239 -2.3435 0.9474
-2.4983 13.0332 -2.3399 0.9475
-4.7559 12.3485 -2.3333 0.9477
-6.8524 11.2806 -2.3273 0.9478
-8.7248 9.8654 -2.3222 0.9479
-9.5594 9.0413 -2.3201 0.9480
-11.5845 6.1817 -2.3153 0.9481
-12.8656 5.4556 -2.4641 0.9448
-13.2963 4.2875 -2.4634 0.9448
-13.6231 3.0866 -2.4630 0.9448
-13.8437 1.8618 -2.4630 0.9448
-13.9563 0.6223 -2.4633 0.9448
-13.9601 -0.6225 -2.4640 0.9448
-13.6415 -3.0907 -2.4663 0.9448
-13.3212 -4.2955 -2.4680 0.9447
-12.8963 -5.4685 -2.4699 0.9447
-12.3697 -6.6006 -2.4722 0.9446
-11.0272 -8.7080 -2.4776 0.9445
-10.2208 -9.6668 -2.4806 0.9445
-9.3321 -10.5520 -2.4839 0.9444
-8.3675 -11.3564 -2.4873 0.9443
3.6308 -13.8588 -2.5262 0.9435
6.0475 -13.0320 -2.5333 0.9433
7.1927 -12.4580 -2.5365 0.9432
9.3089 -11.0105 -2.5423 0.9431
11.9180 -8.1812 -2.5490 0.9430
12.6066 -7.0923 -2.5505 0.9429
13.6754 -4.7485 -2.5526 0.9429
14.4712 0.3226 -2.5523 0.9429
13.3104 2.7055 -2.3950 0.9463
12.6015 5.0153 -2.3915 0.9464
10.0156 9.0586 -2.3812 0.9466
9.1575 9.9011 -2.3781 0.9467
8.2284 10.6620 -2.3747 0.9468
2.8077 13.0662 -2.3565 0.9472
1.6310 13.2430 -2.3527 0.9472
0.4452 13.3144 -2.3490 0.9473
-1.9166 13.1414 -2.3417 0.9475
-3.0741 12.8995 -2.3382 0.9476
-4.2040 12.5567 -2.3349 0.9476
-5.2977 12.1162 -2.3317 0.9477
-7.3438 10.9578 -2.3259 0.9478
-5.6819 7.0326 -1.5942 0.9639
-9.1513 9.4623 -2.3211 0.9479
-13.4729 3.6906 -2.4632 0.9448
-13.9135 1.2434 -2.4631 0.9448
-12.7503 0.0000 -2.4674 0.9494
-12.7037 -1.1352 -2.4682 0.9494
-12.5577 -2.2623 -2.4693 0.9493
-11.9722 -4.4585 -2.4723 0.9493
-11.5369 -5.5107 -2.4742 0.9492
-11.0104 -6.5214 -2.4764 0.9492
-8.9250 -9.2283 -2.4844 0.9490
-8.0781 -9.9983 -2.4875 0.9490
-7.1654 -10.6915 -2.4907 0.9489
-6.1938 -11.3021 -2.4941 0.9488
-5.1704 -11.8250 -2.4976 0.9488
-3.0005 -12.5906 -2.5047 0.9486
-0.7227 -12.9609 -2.5121 0.9485
2.7388 -12.7454 -2.5228 0.9483
3.8675 -12.4677 -2.5261 0.9482
4.9682 -12.0894 -2.5294 0.9481
7.0495 -11.0428 -2.5353 0.9480
10.4975 -7.9165 -2.5444 0.9478
11.1673 -6.9551 -2.5459 0.9478
11.7479 -5.9364 -2.5472 0.9478
12.9080 -2.6236 -2.5490 0.9477
13.1663 -0.2934 -2.5486 0.9478
11.6624 4.0497 -2.3891 0.9509
11.2470 5.0677 -2.3872 0.9510
10.1513 6.9685 -2.3828 0.9511
8.7353 8.6386 -2.3774 0.9512
7.0473 10.0250 -2.3714 0.9513
6.1188 10.5981 -2.3682 0.9514
2.0238 11.9981 -2.3546 0.9516
-0.1352 12.1316 -2.3478 0.9518
-1.2127 12.0543 -2.3445 0.9518
-2.2776 11.8821 -2.3413 0.9519
-4.3369 11.2606 -2.3352 0.9520
-7.1337 9.6820 -2.3273 0.9522
-8.7216 8.2489 -2.3231 0.9523
-9.4142 7.4344 -2.3214 0.9523
-10.5712 5.6410 -2.3188 0.9524
-12.1340 3.9128 -2.4672 0.9494
-12.6337 1.6991 -2.4669 0.9494
-12.7363 0.5679 -2.4672 0.9494
-12.4477 -2.8202 -2.4699 0.9493
-12.1547 -3.9194 -2.4714 0.9493
-11.2848 -6.0217 -2.4753 0.9492
-10.7141 -7.0088 -2.4776 0.9492
-10.0581 -7.9428 -2.4802 0.9491
-6.6865 -11.0075 -2.4924 0.9489
-3.5558 -12.4354 -2.5029 0.9487
-2.4384 -12.7210 -2.5066 0.9486
-1.2984 -12.9064 -2.5102 0.9485
-0.1447 -12.9896 -2.5139 0.9485
1.0135 -12.9695 -2.5175 0.9484
3.3061 -12.6192 -2.5245 0.9482
4.4219 -12.2909 -2.5278 0.9482
6.5469 -11.3396 -2.5339 0.9481
8.4714 -10.0200 -2.5392 0.9479
10.1309 -8.3733 -2.5435 0.9479
11.4691 -6.4524 -2.5466 0.9478
12.4406 -4.3198 -2.5485 0.9478
13.0122 -2.0460 -2.5490 0.9477
13.1646 0.2934 -2.5482 0.9478
11.8354 3.5273 -2.3899 0.9509
11.0054 5.5613 -2.3862 0.9510
10.4569 6.5126 -2.3840 0.9510
8.3367 9.0136 -2.3760 0.9512
7.4919 9.7075 -2.3730 0.9513
6.5893 10.3221 -2.3698 0.9513
5.6367 10.8526 -2.3665 0.9514
3.6128 11.6467 -2.3598 0.9515
2.5582 11.9047 -2.3564 0.9516
-0.6750 12.1049 -2.3461 0.9518
-1.7472 11.9800 -2.3429 0.9519
-3.8334 11.4499 -2.3366 0.9520
-5.7888 10.5633 -2.3310 0.9521
-5.6173 6.9526 -1.7297 0.9642
-8.3489 8.6328 -2.3241 0.9522
-9.0769 7.8492 -2.3222 0.9523
-11.5093 5.4976 -2.4683 0.9494
-11.9491 4.4499 -2.4675 0.9494
-12.6974 1.1347 -2.4670 0.9494
-10.1170 -5.9923 -2.4789 0.9531
-9.5521 -6.8752 -2.4812 0.9530
-6.5809 -9.8194 -2.4921 0.9528
-3.7673 -11.2522 -2.5016 0.9526
-2.7545 -11.5582 -2.5050 0.9526
-1.7171 -11.7733 -2.5083 0.9525
0.3986 -11.9229 -2.5150 0.9524
2.5128 -11.6934 -2.5215 0.9523
4.5572 -11.0892 -2.5275 0.9522
6.4650 -10.1272 -2.5330 0.9521
8.9341 -8.0804 -2.5396 0.9519
10.2379 -6.3762 -2.5427 0.9519
10.7696 -5.4421 -2.5439 0.9519
11.9993 -1.3423 -2.5455 0.9518
12.0423 0.8062 -2.5444 0.9519
10.9873 2.7481 -2.3877 0.9548
9.8498 5.5415 -2.3826 0.9549
9.3091 6.3904 -2.3805 0.9549
7.2668 8.5953 -2.3729 0.9550
4.7202 10.1718 -2.3641 0.9552
1.8577 11.0135 -2.3547 0.9554
-0.1241 11.1387 -2.3484 0.9555
-1.1135 11.0690 -2.3453 0.9555
-3.9837 10.3436 -2.3368 0.9557
-5.7422 9.4530 -2.3318 0.9558
-7.3139 8.2700 -2.3275 0.9559
-8.0147 7.5803 -2.3257 0.9559
-11.1528 3.5963 -2.4705 0.9532
-11.6122 1.5617 -2.4701 0.9532
-11.7091 -0.5221 -2.4710 0.9532
-11.6201 -1.5627 -2.4718 0.9532
-11.4401 -2.5920 -2.4729 0.9532
-11.1703 -3.6019 -2.4743 0.9532
-10.8126 -4.5849 -2.4760 0.9531
-10.3695 -5.5333 -2.4779 0.9531
-9.2409 -7.2974 -2.4824 0.9530
-7.0076 -9.5108 -2.4906 0.9529
-6.1408 -10.1090 -2.4936 0.9528
-0.1328 -11.9210 -2.5133 0.9524
0.9300 -11.9012 -2.5167 0.9524
4.0563 -11.2746 -2.5261 0.9522
8.5621 -8.4672 -2.5386 0.9520
10.5143 -5.9152 -2.5433 0.9519
11.9280 -1.8755 -2.5455 0.9518
12.0680 0.2690 -2.5448 0.9519
11.1017 2.2566 -2.3883 0.9547
10.8508 3.2339 -2.3870 0.9548
10.5129 4.1841 -2.3854 0.9548
9.5890 5.9721 -2.3816 0.9549
7.6469 8.2678 -2.3742 0.9550
5.1720 9.9579 -2.3656 0.9552
4.2596 10.3652 -2.3625 0.9552
3.3158 10.6890 -2.3594 0.9553
2.3481 10.9271 -2.3562 0.9553
1.3644 11.0779 -2.3531 0.9554
0.3725 11.1405 -2.3499 0.9555
-2.5741 10.8014 -2.3409 0.9556
-4.4381 10.1502 -2.3355 0.9557
-5.3181 9.7044 -2.3329 0.9558
-7.6720 7.9328 -2.3266 0.9559
-8.3415 7.2132 -2.3249 0.9559
-8.9448 6.4381 -2.3234 0.9559
-9.4773 5.6135 -2.3222 0.9560
-10.9827 4.0900 -2.4707 0.9532
-11.3011 3.0957 -2.4703 0.9532
-10.6717 -1.9226 -2.4750 0.9565
-10.4632 -2.8661 -2.4761 0.9565
-10.1723 -3.7882 -2.4775 0.9564
-9.8013 -4.6817 -2.4792 0.9564
-9.3528 -5.5396 -2.4811 0.9564
-8.8300 -6.3554 -2.4831 0.9563
-8.2368 -7.1226 -2.4854 0.9563
-6.8573 -8.4874 -2.4905 0.9562
-6.0814 -9.0741 -2.4932 0.9562
-4.3864 -10.0318 -2.4990 0.9561
-0.6126 -10.9858 -2.5113 0.9559
1.3482 -10.9469 -2.5174 0.9558
3.2754 -10.5587 -2.5232 0.9557
4.2067 -10.2363 -2.5260 0.9556
7.5422 -8.1545 -2.5353 0.9554
8.2440 -7.4562 -2.5371 0.9554
9.9364 -5.0211 -2.5410 0.9554
10.3471 -4.1180 -2.5418 0.9553
10.9165 -2.2189 -2.5426 0.9553
11.1104 0.7438 -2.5416 0.9553
9.8663 3.4260 -2.3838 0.9581
9.5159 4.2877 -2.3822 0.9581
8.0250 6.6329 -2.3763 0.9582
7.3955 7.3136 -2.3740 0.9582
6.7082 7.9345 -2.3715 0.9583
5.9688 8.4907 -2.3689 0.9583
4.3586 9.3925 -2.3633 0.9584
3.5011 9.7314 -2.3605 0.9585
0.8027 10.2725 -2.3518 0.9586
-2.8194 9.8600 -2.3407 0.9588
-7.4099 7.0083 -2.3279 0.9590
-9.5652 5.1042 -2.4746 0.9565
-10.5668 2.3942 -2.4729 0.9565
-10.7379 1.4441 -2.4729 0.9565
-10.8272 -0.4828 -2.4737 0.9565
-10.7446 -1.4450 -2.4745 0.9565
-10.5778 -2.3966 -2.4755 0.9565
-10.3279 -3.3303 -2.4768 0.9565
-9.5865 -5.1155 -2.4801 0.9564
-8.5419 -6.7454 -2.4842 0.9563
-7.9151 -7.4861 -2.4866 0.9563
-7.2248 -8.1691 -2.4891 0.9562
-5.6743 -9.3412 -2.4946 0.9561
-2.0675 -10.7861 -2.5067 0.9559
-0.1226 -11.0089 -2.5129 0.9558
1.8356 -10.8824 -2.5189 0.9557
2.8002 -10.6881 -2.5218 0.9557
3.7445 -10.4080 -2.5246 0.9556
4.6609 -10.0440 -2.5273 0.9556
5.5419 -9.5988 -2.5298 0.9555
6.3802 -9.0758 -2.5321 0.9555
7.1687 -8.4791 -2.5343 0.9555
9.7010 -5.4577 -2.5405 0.9554
11.1341 0.2482 -2.5419 0.9553
10.0120 2.9839 -2.3845 0.9580
9.3121 4.7056 -2.3814 0.9581
8.8493 5.5115 -2.3795 0.9581
7.7178 6.9804 -2.3752 0.9582
7.0587 7.6319 -2.3727 0.9582
6.3446 8.2210 -2.3702 0.9583
5.5814 8.7432 -2.3675 0.9583
1.2603 10.2328 -2.3532 0.9586
-0.5726 10.2690 -2.3475 0.9587
-1.4825 10.1652 -2.3447 0.9587
-2.3787 9.9814 -2.3420 0.9588
-4.1018 9.3812 -2.3369 0.9589
-4.9157 8.9700 -2.3346 0.9589
-5.6893 8.4890 -2.3325 0.9589
-5.5864 6.9144 -2.0289 0.9642
-7.0928 7.3340 -2.3287 0.9590
-8.7780 5.1993 -2.3286 0.9590
-10.1556 3.7820 -2.4735 0.9565
-10.4501 2.8626 -2.4730 0.9565
-10.6628 1.9211 -2.4729 0.9565
-10.7920 0.9644 -2.4730 0.9565
-10.0724 0.0000 -2.4758 0.9594
-9.9186 -1.7869 -2.4772 0.9593
-9.4538 -3.5206 -2.4796 0.9593
-9.1085 -4.3507 -2.4812 0.9593
-5.6493 -8.4293 -2.4942 0.9591
-4.8818 -8.9081 -2.4969 0.9590
-3.2322 -9.6540 -2.5024 0.9589
-1.4726 -10.0972 -2.5082 0.9588
4.7387 -9.1236 -2.5270 0.9585
5.5369 -8.6733 -2.5293 0.9585
6.2920 -8.1528 -2.5314 0.9585
6.9979 -7.5660 -2.5332 0.9584
9.2179 -4.6579 -2.5386 0.9584
9.9024 -2.9512 -2.5398 0.9583
10.1266 -2.0583 -2.5400 0.9583
10.3296 -0.2302 -2.5397 0.9583
10.3068 0.6900 -2.5391 0.9583
9.4050 2.3524 -2.3830 0.9609
8.8289 3.9781 -2.3803 0.9609
7.4470 6.1551 -2.3748 0.9610
6.2259 7.3641 -2.3703 0.9611
4.8115 8.3338 -2.3653 0.9611
3.2504 9.0348 -2.3601 0.9612
1.5934 9.4462 -2.3547 0.9613
0.7454 9.5396 -2.3520 0.9614
-1.7954 9.3663 -2.3441 0.9615
-3.4205 8.8813 -2.3393 0.9616
-4.1935 8.5335 -2.3371 0.9616
-4.9319 8.1191 -2.3350 0.9616
-5.6304 7.6416 -2.3331 0.9617
-6.1024 6.9001 -2.2642 0.9628
-7.4343 5.8708 -2.3284 0.9617
-7.9234 5.1833 -2.3273 0.9618
-8.8903 4.7441 -2.4769 0.9593
-9.2744 3.9327 -2.4761 0.9594
-9.8217 2.2253 -2.4754 0.9594
-9.9807 1.3423 -2.4753 0.9594
-10.0615 0.4487 -2.4756 0.9594
-10.0635 -0.4487 -2.4761 0.9594
-9.9865 -1.3430 -2.4768 0.9593
-8.9087 -4.7538 -2.4820 0.9593
-8.4565 -5.5319 -2.4839 0.9592
-7.9370 -6.2677 -2.4859 0.9592
-5.2709 -8.6771 -2.4955 0.9590
-4.4826 -9.1217 -2.4982 0.9590
-3.6570 -9.4951 -2.5010 0.9590
-1.9199 -10.0158 -2.5067 0.9589
-1.0220 -10.1587 -2.5096 0.9588
-0.1139 -10.2210 -2.5125 0.9588
0.7972 -10.2020 -2.5153 0.9587
2.5991 -9.9206 -2.5208 0.9586
3.4753 -9.6598 -2.5234 0.9586
4.3256 -9.3213 -2.5259 0.9586
5.9202 -8.4216 -2.5303 0.9585
6.6515 -7.8674 -2.5323 0.9585
7.3305 -7.2493 -2.5341 0.9584
7.9516 -6.5721 -2.5357 0.9584
9.4177 -4.2434 -2.5390 0.9583
9.7603 -3.3891 -2.5396 0.9583
10.2083 -1.6051 -2.5400 0.9583
10.3099 -0.6901 -2.5398 0.9583
10.3286 0.2302 -2.5394 0.9583
8.6400 4.3661 -2.3795 0.9609
6.5510 7.0829 -2.3715 0.9610
5.8887 7.6303 -2.3691 0.9611
5.1808 8.1156 -2.3666 0.9611
3.6517 8.8860 -2.3614 0.9612
2.8431 9.1654 -2.3587 0.9612
0.3196 9.5579 -2.3506 0.9614
-0.5318 9.5377 -2.3480 0.9614
-1.3771 9.4421 -2.3454 0.9615
-3.8109 8.7159 -2.3382 0.9616
-5.2865 7.8881 -2.3340 0.9616
-5.5704 6.8946 -2.1787 0.9641
-6.5914 6.8155 -2.3305 0.9617
-8.6718 5.1364 -2.4774 0.9593
-9.0913 4.3426 -2.4765 0.9593
-9.4393 3.5153 -2.4758 0.9594
-9.7132 2.6608 -2.4755 0.9594
-9.9109 1.7855 -2.4753 0.9594
-10.0309 0.8964 -2.4754 0.9594
-9.4037 0.0000 -2.4779 0.9618
-9.2598 -1.6682 -2.4792 0.9618
-9.0783 -2.4868 -2.4803 0.9618
-8.8253 -3.2865 -2.4815 0.9618
-8.5026 -4.0613 -2.4829 0.9618
-8.1127 -4.8051 -2.4845 0.9617
-7.6584 -5.5121 -2.4863 0.9617
-6.5705 -6.7938 -2.4904 0.9617
-5.9451 -7.3583 -2.4927 0.9616
-2.2042 -9.2491 -2.5054 0.9614
-1.3737 -9.4187 -2.5081 0.9614
-0.5305 -9.5138 -2.5108 0.9614
0.3187 -9.5333 -2.5135 0.9613
1.1672 -9.4770 -2.5161 0.9613
2.0081 -9.3450 -2.5186 0.9612
3.6402 -8.8578 -2.5235 0.9612
4.4180 -8.5063 -2.5257 0.9611
5.1619 -8.0859 -2.5278 0.9611
5.8656 -7.6002 -2.5297 0.9611
6.5233 -7.0529 -2.5315 0.9610
7.1296 -6.4483 -2.5330 0.9610
7.6793 -5.7912 -2.5344 0.9610
8.1680 -5.0870 -2.5355 0.9610
8.5914 -4.3414 -2.5365 0.9610
9.2292 -2.7506 -2.5376 0.9609
9.4381 -1.9183 -2.5378 0.9609
9.5712 -1.0707 -2.5377 0.9609
9.6274 -0.2145 -2.5375 0.9609
9.6063 0.6431 -2.5369 0.9610
14.2483 2.2404 -3.8006 0.9421
8.5321 2.9627 -2.3799 0.9633
7.8621 4.4232 -2.3770 0.9634
7.4318 5.1017 -2.3753 0.9634
6.9428 5.7384 -2.3734 0.9634
6.3990 6.3282 -2.3714 0.9635
5.8051 6.8664 -2.3692 0.9635
4.4870 7.7717 -2.3646 0.9636
3.0316 8.4266 -2.3597 0.9636
1.4864 8.8118 -2.3547 0.9637
0.6954 8.8996 -2.3522 0.9637
-0.0993 8.9167 -2.3497 0.9638
-1.6753 8.7398 -2.3449 0.9639
-4.6032 7.5780 -2.3363 0.9640
-5.2554 7.1328 -2.3345 0.9640
-5.8653 6.6321 -2.3329 0.9640
-6.4283 6.0799 -2.3315 0.9641
-6.9401 5.4806 -2.3302 0.9641
-8.2999 4.4290 -2.4789 0.9618
-8.6587 3.6716 -2.4782 0.9618
-8.9493 2.8858 -2.4777 0.9619
-9.3936 0.4189 -2.4777 0.9619
-8.9606 -2.8894 -2.4808 0.9618
-8.6725 -3.6774 -2.4822 0.9618
-8.3159 -4.4374 -2.4837 0.9618
-7.8934 -5.1636 -2.4854 0.9617
-7.4081 -5.8501 -2.4873 0.9617
-6.2641 -7.0829 -2.4915 0.9616
-5.6141 -7.6195 -2.4939 0.9616
-4.1825 -8.5111 -2.4988 0.9615
-3.4119 -8.8587 -2.5014 0.9615
-2.6126 -9.1369 -2.5041 0.9615
-0.1062 -9.5331 -2.5121 0.9613
0.7435 -9.5147 -2.5148 0.9613
2.4236 -9.2508 -2.5199 0.9612
4.0330 -8.6908 -2.5246 0.9611
4.7946 -8.3045 -2.5268 0.9611
6.2006 -7.3340 -2.5306 0.9611
6.8332 -6.7574 -2.5323 0.9610
7.4118 -6.1260 -2.5338 0.9610
7.9316 -5.4447 -2.5350 0.9610
8.3881 -4.7190 -2.5360 0.9610
9.3430 -2.3368 -2.5377 0.9609
9.5142 -1.4960 -2.5378 0.9609
9.6090 -0.6432 -2.5376 0.9609
9.5667 1.0702 -2.5366 0.9610
14.1317 2.8724 -3.7998 0.9421
8.6578 2.5803 -2.3805 0.9633
8.0540 4.0699 -2.3778 0.9634
7.6546 4.7673 -2.3762 0.9634
7.1944 5.4256 -2.3744 0.9634
6.6775 6.0395 -2.3724 0.9634
6.1081 6.6040 -2.3703 0.9635
4.8311 7.5679 -2.3658 0.9635
1.8784 8.7415 -2.3560 0.9637
0.2981 8.9170 -2.3509 0.9638
-0.4962 8.8987 -2.3485 0.9638
-2.0619 8.6522 -2.3437 0.9639
-3.5566 8.1343 -2.3393 0.9639
-4.2628 7.7787 -2.3373 0.9640
-6.6909 5.7859 -2.3308 0.9641
-7.1756 5.1647 -2.3296 0.9641
-8.0958 4.7952 -2.4793 0.9618
-8.4876 4.0542 -2.4785 0.9618
-8.8127 3.2819 -2.4779 0.9618
-9.0685 2.4841 -2.4776 0.9619
-9.2531 1.6671 -2.4774 0.9619
-3.9277 -0.3510 -1.1095 0.9837
-3.7904 -1.0383 -1.1057 0.9838
-5.5699 -6.8939 -2.4936 0.9638
-4.2671 -7.7864 -2.4982 0.9638
-3.5605 -8.1431 -2.5006 0.9637
-2.8244 -8.4360 -2.5030 0.9637
-2.0644 -8.6626 -2.5055 0.9637
-1.2865 -8.8208 -2.5080 0.9636
-0.4968 -8.9092 -2.5106 0.9636
1.0929 -8.8736 -2.5155 0.9635
3.4078 -8.2923 -2.5224 0.9634
4.1357 -7.9627 -2.5245 0.9634
5.4902 -7.1138 -2.5283 0.9633
8.6368 -2.5740 -2.5356 0.9632
8.9899 0.6018 -2.5350 0.9633
8.8981 1.3992 -2.5343 0.9633
8.4214 2.1064 -2.4424 0.9646
7.9852 2.7728 -2.3783 0.9655
7.3587 4.1400 -2.3756 0.9655
6.4989 5.3715 -2.3722 0.9656
5.9902 5.9239 -2.3703 0.9656
5.4346 6.4281 -2.3683 0.9656
4.2011 7.2766 -2.3640 0.9657
2.8389 7.8908 -2.3594 0.9658
1.3920 8.2525 -2.3547 0.9658
-0.0930 8.3520 -2.3500 0.9659
-0.8352 8.3024 -2.3477 0.9659
-3.6670 7.4622 -2.3393 0.9660
-4.9246 6.6837 -2.3358 0.9661
-5.4963 6.2148 -2.3343 0.9661
-6.5040 5.1362 -2.3317 0.9661
-7.7787 4.1509 -2.4807 0.9640
-8.7334 1.1746 -2.4793 0.9640
-7.7928 -4.1583 -2.4852 0.9640
-6.4310 -6.0823 -2.4905 0.9639
-5.8689 -6.6361 -2.4925 0.9639
-5.2596 -7.1383 -2.4947 0.9638
-4.6076 -7.5851 -2.4970 0.9638
-3.9179 -7.9725 -2.4994 0.9638
-3.1958 -8.2978 -2.5018 0.9637
-2.4470 -8.5577 -2.5043 0.9637
-1.6773 -8.7503 -2.5068 0.9637
-0.8927 -8.8738 -2.5093 0.9636
-0.0994 -8.9269 -2.5118 0.9636
1.4878 -8.8203 -2.5167 0.9635
3.0337 -8.4322 -2.5213 0.9634
3.7754 -8.1357 -2.5235 0.9634
6.3955 -6.3246 -2.5307 0.9633
6.9368 -5.7333 -2.5321 0.9633
8.2144 -3.7012 -2.5349 0.9633
8.5130 -2.9560 -2.5355 0.9632
8.9035 -1.4000 -2.5358 0.9632
8.9922 -0.6019 -2.5357 0.9632
9.0087 0.2008 -2.5353 0.9632
8.9530 1.0016 -2.5347 0.9633
8.1028 2.4149 -2.3789 0.9655
7.8518 3.1250 -2.3777 0.9655
7.5382 3.8093 -2.3763 0.9655
5.7180 6.1823 -2.3693 0.9656
3.8709 7.4529 -2.3629 0.9657
3.1891 7.7603 -2.3606 0.9657
2.4833 8.0054 -2.3582 0.9658
1.7592 8.1865 -2.3559 0.9658
0.2792 8.3520 -2.3512 0.9659
-1.2037 8.2530 -2.3466 0.9659
-1.9316 8.1055 -2.3444 0.9660
-3.9942 7.2885 -2.3384 0.9661
-5.2157 6.4556 -2.3350 0.9661
-5.7660 5.9620 -2.3336 0.9661
-6.7248 4.8403 -2.3312 0.9662
-7.5873 4.4940 -2.4811 0.9640
-8.4993 2.3283 -2.4794 0.9640
-8.7774 0.7844 -2.4794 0.9640
-3.5918 -0.3209 -1.0796 0.9851
-3.4798 -0.6269 -1.0586 0.9853
-3.4925 -0.9567 -1.0841 0.9850
-7.4923 -3.5787 -2.4858 0.9659
-6.7473 -4.8563 -2.4888 0.9659
-5.2363 -6.4810 -2.4944 0.9658
-4.0111 -7.3192 -2.4987 0.9658
-3.3467 -7.6541 -2.5010 0.9657
-1.9402 -8.1414 -2.5056 0.9657
0.2805 -8.3883 -2.5127 0.9656
1.7665 -8.2205 -2.5173 0.9655
3.2014 -7.7902 -2.5215 0.9654
3.8851 -7.4802 -2.5235 0.9654
4.5388 -7.1099 -2.5253 0.9654
5.7349 -6.2004 -2.5286 0.9653
6.7502 -5.0905 -2.5311 0.9653
7.1793 -4.4713 -2.5321 0.9653
8.1113 -2.4174 -2.5339 0.9653
8.2949 -1.6860 -2.5341 0.9653
8.4430 0.5652 -2.5333 0.9653
7.5000 2.6043 -2.3769 0.9674
7.2348 3.2599 -2.3757 0.9674
6.9120 3.8887 -2.3743 0.9674
6.5343 4.4856 -2.3728 0.9674
6.1049 5.0459 -2.3712 0.9675
5.6274 5.5651 -2.3694 0.9675
5.1057 6.0390 -2.3675 0.9675
4.5441 6.4641 -2.3655 0.9675
2.6676 7.4149 -2.3591 0.9676
-2.8117 7.3004 -2.3421 0.9679
-3.4476 7.0157 -2.3403 0.9679
-4.6304 6.2844 -2.3370 0.9679
-5.6646 5.3576 -2.3342 0.9680
-6.1160 4.8298 -2.3331 0.9680
-6.9409 4.5405 -2.4831 0.9660
-7.8879 2.5436 -2.4812 0.9660
-8.0823 1.8312 -2.4810 0.9660
-8.2132 1.1046 -2.4810 0.9660
-4.8506 0.2163 -1.4536 0.9799
-3.5144 -0.4726 -1.0616 0.9853
-3.4642 -0.7849 -1.0634 0.9853
-7.6423 -3.2406 -2.4851 0.9659
-7.3275 -3.9101 -2.4865 0.9659
-6.5265 -5.1538 -2.4897 0.9659
-6.0462 -5.7185 -2.4915 0.9658
-4.9444 -6.7106 -2.4955 0.9658
-2.2999 -8.0431 -2.5045 0.9657
-0.8389 -8.3391 -2.5092 0.9656
2.8501 -7.9219 -2.5205 0.9655
3.5467 -7.6429 -2.5225 0.9654
4.2161 -7.3024 -2.5244 0.9654
4.8527 -6.9030 -2.5262 0.9654
5.4513 -6.4478 -2.5278 0.9654
6.0071 -5.9405 -2.5293 0.9653
6.5153 -5.3850 -2.5305 0.9653
6.9717 -4.7858 -2.5316 0.9653
7.3727 -4.1478 -2.5326 0.9653
7.7147 -3.4761 -2.5333 0.9653
8.2113 -2.0537 -2.5340 0.9653
8.4451 -0.5653 -2.5339 0.9653
8.4084 0.9407 -2.5330 0.9653
5.8719 5.3109 -2.3703 0.9675
4.8296 6.2579 -2.3665 0.9675
3.6371 7.0028 -2.3624 0.9676
2.9967 7.2921 -2.3602 0.9676
1.6532 7.6934 -2.3558 0.9677
0.9610 7.8027 -2.3536 0.9677
-0.4369 7.8348 -2.3492 0.9678
-3.1329 7.1651 -2.3412 0.9679
-4.3473 6.4866 -2.3377 0.9679
-5.4218 5.6061 -2.3349 0.9680
-5.8962 5.0987 -2.3337 0.9680
-6.6521 4.7879 -2.4537 0.9664
-7.4807 3.5733 -2.4819 0.9660
-7.7674 2.8927 -2.4814 0.9660
-7.9930 2.1896 -2.4811 0.9660
-8.2544 0.7376 -2.4811 0.9660
-3.2843 -0.5917 -1.0598 0.9861
-7.0663 -3.3752 -2.4870 0.9677
-6.7415 -3.9930 -2.4884 0.9677
-5.9342 -5.1315 -2.4915 0.9676
-5.4578 -5.6433 -2.4933 0.9676
-4.3775 -6.5316 -2.4971 0.9675
-3.1553 -7.2164 -2.5013 0.9675
-2.5027 -7.4751 -2.5035 0.9675
-1.8290 -7.6750 -2.5057 0.9674
-0.4400 -7.8917 -2.5102 0.9674
3.6611 -7.0488 -2.5225 0.9672
4.2769 -6.6996 -2.5243 0.9672
5.9051 -5.3408 -2.5286 0.9671
6.3598 -4.7961 -2.5297 0.9671
7.1142 -3.5949 -2.5314 0.9671
7.4076 -2.9481 -2.5320 0.9671
7.8146 -1.5883 -2.5325 0.9671
7.9248 -0.8865 -2.5325 0.9671
7.9715 -0.1776 -2.5323 0.9671
6.5127 3.6640 -2.3732 0.9691
3.1293 6.7435 -2.3610 0.9693
1.8808 7.1788 -2.3568 0.9693
-0.0824 7.4010 -2.3506 0.9694
-0.7402 7.3579 -2.3485 0.9694
-1.3910 7.2567 -2.3466 0.9695
-2.0297 7.0983 -2.3446 0.9695
-2.6513 6.8841 -2.3428 0.9695
-3.2511 6.6159 -2.3411 0.9695
-4.3668 5.9268 -2.3380 0.9696
-4.8742 5.5114 -2.3366 0.9696
-5.3426 5.0530 -2.3354 0.9696
-6.8997 3.6818 -2.4837 0.9677
-7.1983 3.0524 -2.4831 0.9677
-7.7470 1.0419 -2.4825 0.9677
-3.4557 -0.1541 -1.0986 0.9856
-3.2591 -0.7384 -1.0613 0.9861
-3.2828 -1.0585 -1.0954 0.9856
-7.2079 -3.0563 -2.4864 0.9677
-6.9108 -3.6877 -2.4877 0.9677
-5.7017 -5.3926 -2.4924 0.9676
-4.6623 -6.3276 -2.4961 0.9676
-4.0839 -6.7229 -2.4982 0.9675
-3.4722 -7.0656 -2.5003 0.9675
-2.8320 -7.3530 -2.5024 0.9675
0.6166 -7.8903 -2.5135 0.9673
2.0092 -7.6688 -2.5177 0.9673
2.6859 -7.4655 -2.5197 0.9673
3.3422 -7.2023 -2.5216 0.9672
3.9728 -6.8811 -2.5234 0.9672
4.5725 -6.5045 -2.5251 0.9672
5.1365 -6.0754 -2.5266 0.9672
5.6599 -5.5971 -2.5280 0.9671
6.1385 -5.0736 -2.5292 0.9671
6.9460 -3.9078 -2.5311 0.9671
7.9218 0.8862 -2.5315 0.9671
7.8092 1.5873 -2.5308 0.9671
7.5503 2.2503 -2.5021 0.9675
6.9484 2.7654 -2.3751 0.9691
6.3412 3.9494 -2.3725 0.9691
5.5333 5.0046 -2.3694 0.9692
4.5514 5.8975 -2.3659 0.9692
0.2474 7.4005 -2.3516 0.9694
-2.3429 6.9981 -2.3437 0.9695
-2.9543 6.7566 -2.3419 0.9695
-3.5414 6.4623 -2.3403 0.9695
-4.6251 5.7246 -2.3373 0.9696
-6.3505 4.5709 -2.4849 0.9677
-7.0559 3.3704 -2.4834 0.9677
-7.3265 2.7285 -2.4829 0.9677
-7.7859 0.6958 -2.4826 0.9677
-3.2019 -0.2861 -1.0801 0.9865
-3.1483 -0.5672 -1.0748 0.9866
-6.9368 -2.5833 -2.4870 0.9692
-6.0170 -4.3307 -2.4908 0.9692
-5.6112 -4.8521 -2.4924 0.9692
-5.1605 -5.3359 -2.4940 0.9692
-4.6684 -5.7781 -2.4958 0.9691
-3.5754 -6.5243 -2.4996 0.9691
-1.0773 -7.3863 -2.5079 0.9690
-0.4159 -7.4591 -2.5100 0.9690
0.2498 -7.4727 -2.5121 0.9689
0.9147 -7.4269 -2.5142 0.9689
2.2205 -7.1582 -2.5181 0.9689
3.4595 -6.6606 -2.5217 0.9688
5.1054 -5.5198 -2.5262 0.9688
5.5791 -5.0460 -2.5274 0.9688
6.0086 -4.5313 -2.5285 0.9687
6.9982 -2.7852 -2.5306 0.9687
7.4867 -0.8375 -2.5311 0.9687
7.5309 -0.1678 -2.5309 0.9687
7.4383 1.1697 -2.5299 0.9687
7.3025 1.8265 -2.5291 0.9687
6.8647 2.3837 -2.4415 0.9698
6.4405 2.9020 -2.3734 0.9706
5.4358 4.4928 -2.3694 0.9707
4.0470 5.7570 -2.3644 0.9707
2.9575 6.3733 -2.3606 0.9708
1.7777 6.7854 -2.3567 0.9708
0.5455 6.9814 -2.3528 0.9709
-0.0779 6.9964 -2.3508 0.9709
-1.9190 6.7112 -2.3452 0.9710
-2.5069 6.5090 -2.3435 0.9710
-3.0741 6.2556 -2.3418 0.9710
-4.6092 5.2118 -2.3376 0.9711
-5.0523 4.7785 -2.3365 0.9711
-5.8083 4.5868 -2.4866 0.9693
-6.1913 4.0501 -2.4857 0.9693
-6.5252 3.4820 -2.4850 0.9693
-7.2100 1.6336 -2.4838 0.9693
-3.1639 -0.4255 -1.0726 0.9866
-3.1355 -0.7104 -1.0802 0.9865
-6.2022 -4.0573 -2.4901 0.9692
-4.4080 -5.9826 -2.4967 0.9691
-0.7475 -7.4301 -2.5090 0.9690
-0.0833 -7.4733 -2.5111 0.9690
1.2452 -7.3817 -2.5152 0.9689
1.8987 -7.2473 -2.5171 0.9689
3.1582 -6.8057 -2.5208 0.9688
4.3205 -6.1459 -2.5241 0.9688
5.3475 -5.2883 -2.5268 0.9688
6.2056 -4.2599 -2.5290 0.9687
6.5623 -3.6918 -2.5298 0.9687
7.5164 -0.5031 -2.5310 0.9687
7.3778 1.4996 -2.5295 0.9687
7.2125 2.1496 -2.5286 0.9687
5.9915 3.7316 -2.3715 0.9707
4.7836 5.1720 -2.3670 0.9707
3.2398 6.2377 -2.3616 0.9708
2.0791 6.7023 -2.3577 0.9708
1.4730 6.8550 -2.3557 0.9708
0.2339 6.9958 -2.3518 0.9709
-0.3894 6.9831 -2.3498 0.9709
-1.0085 6.9152 -2.3479 0.9709
-1.6187 6.7926 -2.3461 0.9710
-2.2152 6.6166 -2.3443 0.9710
-2.7933 6.3886 -2.3426 0.9710
-3.3486 6.1105 -2.3411 0.9710
-4.3737 5.4134 -2.3382 0.9711
-4.8356 5.0000 -2.3370 0.9711
-5.2827 4.5681 -2.3465 0.9710
-6.0057 4.3227 -2.4861 0.9693
-6.6731 3.1875 -2.4847 0.9693
-7.2756 1.3108 -2.4838 0.9693
-3.4902 0.0000 -1.2376 0.9853
-3.0930 -0.2764 -1.1011 0.9869
-3.0442 -0.5484 -1.0968 0.9870
-3.0229 -0.8280 -1.1114 0.9868
-2.8268 -6.4650 -2.5020 0.9705
-0.3941 -7.0673 -2.5099 0.9704
0.8666 -7.0362 -2.5138 0.9704
2.1035 -6.7811 -2.5175 0.9703
2.7006 -6.5715 -2.5193 0.9703
3.2770 -6.3092 -2.5209 0.9703
4.3488 -5.6349 -2.5239 0.9702
4.8356 -5.2281 -2.5252 0.9702
6.0522 -3.7693 -2.5282 0.9702
6.8371 -2.0376 -2.5297 0.9702
6.9918 -1.4211 -2.5299 0.9702
7.1323 -0.1589 -2.5296 0.9702
6.9162 1.7299 -2.5279 0.9702
6.7323 2.3378 -2.5270 0.9702
5.8284 3.2790 -2.3713 0.9720
5.5105 3.7828 -2.3700 0.9720
4.3071 5.0945 -2.3655 0.9721
3.3308 5.7692 -2.3621 0.9721
2.8020 6.0381 -2.3603 0.9721
2.2517 6.2587 -2.3585 0.9722
1.6844 6.4292 -2.3566 0.9722
1.1046 6.5483 -2.3547 0.9722
0.5169 6.6154 -2.3529 0.9722
-0.0739 6.6299 -2.3510 0.9723
-2.9136 5.9291 -2.3425 0.9724
-3.4277 5.6428 -2.3411 0.9724
-4.7892 4.5296 -2.3374 0.9724
-5.8691 3.8394 -2.4868 0.9707
-6.8351 1.5487 -2.4851 0.9707
-3.9464 0.1760 -1.4007 0.9834
-5.5164 -4.3562 -2.4924 0.9706
-4.6625 -5.2719 -2.4956 0.9706
-4.1777 -5.6699 -2.4973 0.9706
-1.9421 -6.7920 -2.5049 0.9705
-1.3310 -6.9434 -2.5069 0.9704
-0.7082 -7.0399 -2.5089 0.9704
-0.0789 -7.0806 -2.5109 0.9704
1.1796 -6.9933 -2.5148 0.9703
2.4044 -6.6830 -2.5184 0.9703
2.9917 -6.4468 -2.5201 0.9703
4.0924 -5.8214 -2.5232 0.9703
4.5968 -5.4370 -2.5246 0.9702
5.8774 -4.0346 -2.5278 0.9702
6.2150 -3.4964 -2.5286 0.9702
6.5031 -2.9301 -2.5292 0.9702
7.0481 -1.1082 -2.5299 0.9702
7.1318 0.1590 -2.5295 0.9702
7.0880 0.7930 -2.5290 0.9702
6.9874 1.4203 -2.5283 0.9702
6.8311 2.0359 -2.5275 0.9702
6.2751 2.4975 -2.3948 0.9717
5.9702 3.0169 -2.3719 0.9720
5.6751 3.5345 -2.3707 0.9720
5.3350 4.0233 -2.3693 0.9720
4.9527 4.4795 -2.3679 0.9721
4.5314 4.8993 -2.3663 0.9721
3.5858 5.6171 -2.3630 0.9721
3.0693 5.9096 -2.3612 0.9721
2.5292 6.1546 -2.3594 0.9722
1.9699 6.3503 -2.3575 0.9722
0.8114 6.5884 -2.3538 0.9722
-0.3690 6.6175 -2.3501 0.9723
-0.9558 6.5534 -2.3483 0.9723
-2.0995 6.2709 -2.3449 0.9723
-4.5837 4.7396 -2.3379 0.9724
-5.2462 4.5366 -2.4593 0.9710
-5.6931 4.0977 -2.4872 0.9707
-6.3259 3.0217 -2.4858 0.9707
-6.7595 1.8517 -2.4851 0.9707
-6.9807 0.6238 -2.4851 0.9707
-3.3740 0.0000 -1.2599 0.9857
-6.0171 -2.8741 -2.4900 0.9719
-5.4175 -3.8992 -2.4925 0.9719
-5.0517 -4.3684 -2.4939 0.9719
-4.6457 -4.8036 -2.4954 0.9719
-4.2024 -5.2014 -2.4970 0.9719
-3.7253 -5.5585 -2.4986 0.9718
-2.6845 -6.1397 -2.5022 0.9718
-0.9693 -6.6457 -2.5079 0.9717
-0.3742 -6.7106 -2.5097 0.9717
0.2248 -6.7224 -2.5116 0.9717
1.4152 -6.5855 -2.5153 0.9716
2.5638 -6.2387 -2.5187 0.9716
3.6338 -5.6921 -2.5217 0.9716
5.4017 -4.0736 -2.5264 0.9715
6.0419 -3.0531 -2.5278 0.9715
6.6363 -1.3488 -2.5287 0.9715
6.7697 -0.1508 -2.5285 0.9715
6.5648 1.6420 -2.5269 0.9715
5.2310 3.5909 -2.3692 0.9733
4.5062 4.4563 -2.3665 0.9733
4.0891 4.8366 -2.3650 0.9733
3.6399 5.1779 -2.3634 0.9733
2.6604 5.7330 -2.3600 0.9734
2.1380 5.9427 -2.3583 0.9734
-0.6298 6.2604 -2.3495 0.9735
-2.2567 5.8594 -2.3446 0.9735
-2.7675 5.6317 -2.3431 0.9736
-3.2558 5.3599 -2.3418 0.9736
-3.7180 5.0461 -2.3405 0.9736
-4.1503 4.6928 -2.3393 0.9736
-6.1309 2.5998 -2.4867 0.9720
-6.3371 2.0435 -2.4863 0.9720
-6.5986 0.8875 -2.4862 0.9720
-3.7910 0.1691 -1.4170 0.9839
-2.9106 -0.9385 -1.1419 0.9870
-6.1379 -2.6027 -2.4895 0.9719
-5.8844 -3.1400 -2.4906 0.9719
-5.5843 -3.6531 -2.4918 0.9719
-5.2398 -4.1378 -2.4931 0.9719
-2.9543 -6.0118 -2.5013 0.9718
-2.4093 -6.2555 -2.5031 0.9718
-1.2639 -6.5934 -2.5069 0.9717
-0.6725 -6.6848 -2.5088 0.9717
0.5242 -6.7082 -2.5126 0.9717
2.8401 -6.1203 -2.5195 0.9716
3.3756 -5.8467 -2.5210 0.9716
3.8848 -5.5262 -2.5224 0.9716
4.3635 -5.1611 -2.5237 0.9716
4.8078 -4.7545 -2.5249 0.9715
5.2140 -4.3094 -2.5259 0.9715
5.8992 -3.3188 -2.5275 0.9715
6.3966 -2.2211 -2.5285 0.9715
6.7565 -0.4522 -2.5286 0.9715
6.6324 1.3481 -2.5272 0.9715
6.2383 2.4829 -2.5072 0.9717
5.6671 2.8637 -2.3710 0.9733
5.3871 3.3552 -2.3699 0.9733
4.7017 4.2525 -2.3672 0.9733
4.3019 4.6512 -2.3658 0.9733
2.9142 5.6109 -2.3609 0.9734
2.4015 5.8437 -2.3592 0.9734
1.3253 6.1677 -2.3556 0.9734
0.7705 6.2564 -2.3538 0.9734
0.2105 6.2954 -2.3521 0.9735
-1.4570 6.1141 -2.3470 0.9735
-3.0147 5.5012 -2.3424 0.9736
-3.4904 5.2081 -2.3411 0.9736
-5.0422 4.3602 -2.4891 0.9719
-6.5524 1.1805 -2.4861 0.9720
-4.2613 0.3808 -1.5976 0.9819
-3.2641 0.0000 -1.2810 0.9861
-2.9005 -0.2592 -1.1429 0.9876
-2.8518 -0.5138 -1.1373 0.9876
-2.8313 -0.7756 -1.1521 0.9875
-2.8528 -1.0624 -1.1947 0.9870
-5.7268 -2.7354 -2.4909 0.9731
-5.1559 -3.7110 -2.4932 0.9731
-3.0622 -5.5877 -2.5007 0.9730
-2.5544 -5.8421 -2.5025 0.9730
-2.0257 -6.0505 -2.5042 0.9730
-1.4802 -6.2113 -2.5060 0.9729
-0.9222 -6.3229 -2.5078 0.9729
0.7828 -6.3554 -2.5132 0.9729
2.9591 -5.6971 -2.5196 0.9728
3.4563 -5.4142 -2.5210 0.9728
3.9265 -5.0877 -2.5223 0.9728
5.1375 -3.8743 -2.5254 0.9727
5.9829 -2.3811 -2.5272 0.9727
6.1718 -1.8393 -2.5275 0.9727
6.3114 -1.2828 -2.5277 0.9727
6.4004 -0.7160 -2.5276 0.9727
6.4246 0.4301 -2.5271 0.9727
6.2436 1.5617 -2.5259 0.9727
6.0778 2.1105 -2.5251 0.9727
5.2622 2.9605 -2.3697 0.9744
4.9755 3.4155 -2.3685 0.9744
4.6493 3.8428 -2.3673 0.9744
4.2863 4.2389 -2.3659 0.9744
3.4625 4.9256 -2.3630 0.9745
2.5309 5.4540 -2.3598 0.9745
2.0340 5.6537 -2.3581 0.9745
0.9979 5.9163 -2.3547 0.9745
0.4671 5.9773 -2.3531 0.9746
-0.0667 5.9909 -2.3514 0.9746
-0.5993 5.9570 -2.3497 0.9746
-1.6438 5.7487 -2.3466 0.9746
-2.6337 5.3595 -2.3437 0.9747
-3.5385 4.8025 -2.3412 0.9747
-3.9500 4.4664 -2.3401 0.9747
-4.9782 3.9313 -2.4896 0.9731
-5.5932 2.9847 -2.4882 0.9731
-5.8355 2.4745 -2.4877 0.9731
-6.0318 1.9451 -2.4874 0.9731
-6.2807 0.8447 -2.4872 0.9731
-3.6456 0.1626 -1.4322 0.9844
-2.8403 -0.9159 -1.1712 0.9873
-5.6005 -2.9885 -2.4914 0.9731
-4.2143 -4.7652 -2.4967 0.9730
-3.7759 -5.1246 -2.4983 0.9730
-3.3069 -5.4439 -2.4999 0.9730
-2.2924 -5.9522 -2.5033 0.9730
-1.7548 -6.1370 -2.5051 0.9729
-0.6398 -6.3600 -2.5087 0.9729
-0.0713 -6.3963 -2.5105 0.9729
0.4987 -6.3818 -2.5123 0.9729
1.6245 -6.2006 -2.5157 0.9728
2.7016 -5.8216 -2.5189 0.9728
4.1503 -4.9089 -2.5229 0.9728
4.5727 -4.5220 -2.5240 0.9727
4.9590 -4.0986 -2.5250 0.9727
6.0834 -2.1123 -2.5274 0.9727
6.4258 -0.4301 -2.5276 0.9727
6.4378 0.1435 -2.5273 0.9727
6.3078 1.2822 -2.5263 0.9727
6.1669 1.8380 -2.5255 0.9727
5.9767 2.3787 -2.5246 0.9727
4.4722 4.0449 -2.3666 0.9744
4.0920 4.4243 -2.3652 0.9744
3.6797 4.7680 -2.3638 0.9745
3.2386 5.0732 -2.3622 0.9745
2.7723 5.3377 -2.3606 0.9745
2.2847 5.5594 -2.3590 0.9745
1.7795 5.7367 -2.3573 0.9745
1.2610 5.8680 -2.3556 0.9745
0.7331 5.9527 -2.3539 0.9746
-1.3865 5.8180 -2.3473 0.9746
-1.8976 5.6679 -2.3458 0.9746
-2.3931 5.4731 -2.3444 0.9747
-2.8690 5.2354 -2.3430 0.9747
-3.7480 4.6390 -2.3406 0.9747
-4.2250 4.3687 -2.3852 0.9742
-5.9395 2.2120 -2.4875 0.9731
-6.1122 1.6744 -2.4872 0.9731
-6.2368 1.1237 -2.4872 0.9731
-4.1297 0.3690 -1.6273 0.9823
-2.8130 -0.2513 -1.1629 0.9879
-2.7695 -0.7586 -1.1825 0.9877
-4.9154 -3.5379 -2.4938 0.9741
-2.4349 -5.5686 -2.5027 0.9741
-1.4108 -5.9201 -2.5061 0.9740
-0.3393 -6.0848 -2.5095 0.9740
0.2038 -6.0950 -2.5112 0.9740
0.7460 -6.0567 -2.5129 0.9739
1.2829 -5.9701 -2.5145 0.9739
1.8103 -5.8359 -2.5161 0.9739
2.3240 -5.6550 -2.5176 0.9739
3.2934 -5.1590 -2.5204 0.9739
3.7413 -4.8478 -2.5216 0.9739
4.8949 -3.6914 -2.5246 0.9738
5.2056 -3.2420 -2.5253 0.9738
5.4747 -2.7665 -2.5259 0.9738
5.7002 -2.2686 -2.5263 0.9738
6.0979 -0.6821 -2.5267 0.9738
6.1340 -0.1367 -2.5265 0.9738
6.0591 0.9528 -2.5257 0.9738
5.9487 1.4879 -2.5250 0.9738
5.7909 2.0108 -2.5243 0.9738
4.7408 3.2545 -2.3679 0.9754
4.4301 3.6616 -2.3667 0.9754
3.7066 4.3842 -2.3640 0.9755
3.2996 4.6938 -2.3626 0.9755
2.4120 5.1978 -2.3596 0.9755
1.9385 5.3882 -2.3580 0.9755
1.4503 5.5356 -2.3564 0.9755
0.9511 5.6388 -2.3548 0.9756
0.4452 5.6972 -2.3531 0.9756
-0.0636 5.7103 -2.3515 0.9756
-0.5712 5.6782 -2.3500 0.9756
-1.5669 5.4800 -2.3470 0.9756
-2.9540 4.8630 -2.3430 0.9757
-3.3734 4.5785 -2.3418 0.9757
-4.3954 4.1572 -2.4913 0.9742
-4.7463 3.7482 -2.4904 0.9742
-5.0596 3.3099 -2.4896 0.9742
-5.3328 2.8457 -2.4890 0.9742
-5.7511 1.8545 -2.4883 0.9742
-5.8930 1.3352 -2.4881 0.9742
-5.9884 0.8054 -2.4881 0.9742
-2.9337 -0.1308 -1.2092 0.9874
-2.7946 -0.3758 -1.1611 0.9879
-2.7756 -0.6289 -1.1719 0.9878
-2.7775 -0.8956 -1.2017 0.9875
-2.8016 -1.1879 -1.2531 0.9869
-5.3394 -2.8492 -2.4921 0.9742
-4.7541 -3.7542 -2.4945 0.9741
-4.4034 -4.1647 -2.4958 0.9741
-4.0175 -4.5426 -2.4972 0.9741
-3.1523 -5.1893 -2.5002 0.9741
-2.1851 -5.6735 -2.5035 0.9740
-1.6726 -5.8494 -2.5052 0.9740
-1.1461 -5.9791 -2.5069 0.9740
-0.0679 -6.0960 -2.5104 0.9740
0.4753 -6.0819 -2.5121 0.9740
1.5481 -5.9089 -2.5153 0.9739
2.0691 -5.7512 -2.5169 0.9739
3.0595 -5.2992 -2.5197 0.9739
3.5208 -5.0084 -2.5210 0.9739
4.3569 -4.3086 -2.5232 0.9738
4.7249 -3.9051 -2.5241 0.9738
5.0553 -3.4702 -2.5249 0.9738
5.5930 -2.5201 -2.5261 0.9738
5.7960 -2.0126 -2.5265 0.9738
5.9526 -1.4888 -2.5267 0.9738
6.0616 -0.9531 -2.5267 0.9738
6.1221 -0.4098 -2.5266 0.9738
6.0099 1.2216 -2.5254 0.9738
5.8757 1.7512 -2.5247 0.9738
4.5900 3.4615 -2.3673 0.9754
4.2615 3.8543 -2.3661 0.9755
3.8993 4.2160 -2.3647 0.9755
3.0863 4.8346 -2.3619 0.9755
2.6420 5.0869 -2.3603 0.9755
1.2018 5.5928 -2.3556 0.9756
0.6988 5.6737 -2.3539 0.9756
-0.3178 5.6999 -2.3508 0.9756
-0.8233 5.6453 -2.3492 0.9756
-1.3217 5.5460 -2.3477 0.9756
-1.8089 5.4031 -2.3463 0.9757
-2.2813 5.2176 -2.3449 0.9757
-2.7352 4.9910 -2.3436 0.9757
-4.5754 3.9566 -2.4908 0.9742
-5.4537 2.6051 -2.4888 0.9742
-5.6631 2.1090 -2.4884 0.9742
-5.8278 1.5964 -2.4882 0.9742
-5.9465 1.0714 -2.4881 0.9742
-3.9772 0.3554 -1.6443 0.9829
-3.0794 0.0000 -1.3283 0.9867
-2.7539 -0.2461 -1.1927 0.9880
-2.7209 -1.0132 -1.2524 0.9874
-2.7299 -1.3040 -1.3050 0.9869
-2.7884 -1.6516 -1.3980 0.9860
-4.6934 -3.3781 -2.4944 0.9751
-4.3763 -3.7842 -2.4956 0.9751
-4.0242 -4.1610 -2.4970 0.9751
-2.7868 -5.0852 -2.5013 0.9751
-1.8433 -5.5057 -2.5045 0.9750
-1.3468 -5.6515 -2.5061 0.9750
-0.3239 -5.8084 -2.5094 0.9750
0.1945 -5.8179 -2.5110 0.9750
0.7120 -5.7812 -2.5126 0.9749
1.7279 -5.5701 -2.5157 0.9749
2.2181 -5.3973 -2.5171 0.9749
3.5706 -4.6266 -2.5209 0.9749
3.9699 -4.2922 -2.5220 0.9749
4.3378 -3.9233 -2.5229 0.9748
4.6713 -3.5228 -2.5238 0.9748
4.9677 -3.0939 -2.5245 0.9748
5.2245 -2.6400 -2.5250 0.9748
5.4396 -2.1649 -2.5254 0.9748
5.8192 -0.6509 -2.5258 0.9748
5.8536 -0.1304 -2.5256 0.9748
5.8412 0.3911 -2.5253 0.9748
5.7822 0.9093 -2.5248 0.9748
5.6769 1.4199 -2.5242 0.9748
5.3318 2.4024 -2.5226 0.9748
4.8758 2.7431 -2.4132 0.9759
4.5246 3.1059 -2.3673 0.9764
3.5377 4.1845 -2.3636 0.9764
3.1494 4.4801 -2.3623 0.9764
1.8504 5.1433 -2.3578 0.9765
1.3844 5.2842 -2.3563 0.9765
0.4250 5.4388 -2.3532 0.9765
-0.5454 5.4210 -2.3502 0.9765
-1.0250 5.3477 -2.3487 0.9766
-1.4960 5.2321 -2.3473 0.9766
-1.9547 5.0753 -2.3460 0.9766
-3.7809 4.2752 -2.4619 0.9754
-4.5323 3.5792 -2.4911 0.9752
-4.8315 3.1607 -2.4904 0.9752
-5.0925 2.7175 -2.4899 0.9752
-5.6275 1.2751 -2.4890 0.9752
-5.7186 0.7691 -2.4890 0.9752
-2.8614 -0.1276 -1.2355 0.9876
-2.7402 -0.3685 -1.1926 0.9880
-2.7166 -0.8760 -1.2313 0.9876
-4.8382 -3.1650 -2.4939 0.9751
-4.5394 -3.5847 -2.4950 0.9751
-4.2044 -3.9765 -2.4963 0.9751
-3.8359 -4.3372 -2.4976 0.9751
-3.4366 -4.6641 -2.4991 0.9751
-3.0096 -4.9544 -2.5006 0.9751
-2.5583 -5.2059 -2.5021 0.9750
-1.5967 -5.5841 -2.5053 0.9750
-1.0941 -5.7078 -2.5070 0.9750
-0.0648 -5.8190 -2.5102 0.9750
0.9692 -5.7456 -2.5134 0.9749
1.4776 -5.6399 -2.5149 0.9749
1.9749 -5.4893 -2.5164 0.9749
2.4570 -5.2946 -2.5178 0.9749
2.9200 -5.0575 -2.5191 0.9749
3.3602 -4.7799 -2.5204 0.9749
3.7740 -4.4638 -2.5215 0.9749
5.7844 -0.9095 -2.5258 0.9748
5.4345 2.1629 -2.5231 0.9748
4.6595 2.9020 -2.3678 0.9764
4.3807 3.3037 -2.3667 0.9764
4.0672 3.6786 -2.3656 0.9764
3.7217 4.0239 -2.3643 0.9764
3.3468 4.3367 -2.3629 0.9764
2.9458 4.6146 -2.3615 0.9764
1.1473 5.3389 -2.3555 0.9765
0.1822 5.4506 -2.3525 0.9765
-0.3034 5.4417 -2.3509 0.9765
-1.2619 5.2951 -2.3480 0.9766
-3.0239 4.5120 -2.3429 0.9766
-3.4242 4.2383 -2.3503 0.9765
-4.3691 3.7781 -2.4915 0.9752
-4.9669 2.9419 -2.4901 0.9752
-5.4079 2.0139 -2.4893 0.9752
-5.6786 1.0231 -2.4890 0.9752
-3.8264 0.3420 -1.6571 0.9834
-2.6546 -0.7272 -1.2419 0.9880
-4.1845 -3.6185 -2.4962 0.9760
-3.8478 -3.9785 -2.4974 0.9760
-3.4802 -4.3075 -2.4987 0.9760
-2.6644 -4.8618 -2.5016 0.9760
-2.2224 -5.0827 -2.5031 0.9760
0.1859 -5.5615 -2.5109 0.9759
0.6806 -5.5262 -2.5124 0.9759
1.1705 -5.4470 -2.5139 0.9758
1.6516 -5.3242 -2.5153 0.9758
2.1201 -5.1589 -2.5167 0.9758
2.5722 -4.9522 -2.5180 0.9758
3.0042 -4.7060 -2.5192 0.9758
4.7476 -2.9568 -2.5237 0.9758
4.9930 -2.5230 -2.5242 0.9757
5.1986 -2.0689 -2.5246 0.9757
5.3626 -1.5982 -2.5249 0.9757
5.5612 -0.6221 -2.5250 0.9757
5.4254 1.3570 -2.5235 0.9758
5.2817 1.8340 -2.5228 0.9758
3.7260 3.6848 -2.3645 0.9773
2.2008 4.7427 -2.3591 0.9773
1.7689 4.9167 -2.3577 0.9773
1.3234 5.0515 -2.3562 0.9773
0.8680 5.1460 -2.3548 0.9774
0.4063 5.1996 -2.3533 0.9774
-0.0581 5.2119 -2.3518 0.9774
-0.9800 5.1129 -2.3490 0.9774
-1.4304 5.0025 -2.3477 0.9774
-1.8690 4.8527 -2.3464 0.9774
-2.6970 4.4399 -2.3440 0.9775
-3.6611 4.1397 -2.4936 0.9760
-4.0135 3.7960 -2.4926 0.9760
-4.3341 3.4226 -2.4918 0.9761
-5.4687 0.7355 -2.4898 0.9761
-3.2608 0.1454 -1.4728 0.9858
-2.7833 -0.1241 -1.2571 0.9878
-2.6870 -0.3613 -1.2234 0.9882
-4.8753 -2.6015 -2.4934 0.9760
-4.6263 -3.0264 -2.4945 0.9760
-4.0202 -3.8022 -2.4968 0.9760
-3.2858 -4.4595 -2.4994 0.9760
-2.8775 -4.7370 -2.5008 0.9760
-2.4459 -4.9772 -2.5023 0.9760
-1.9944 -5.1783 -2.5038 0.9759
-1.5265 -5.3386 -2.5054 0.9759
-1.0459 -5.4566 -2.5070 0.9759
-0.0620 -5.5626 -2.5101 0.9759
1.4124 -5.3910 -2.5146 0.9758
1.8877 -5.2468 -2.5160 0.9758
2.3484 -5.0606 -2.5174 0.9758
3.2116 -4.5685 -2.5198 0.9758
3.6070 -4.2663 -2.5209 0.9758
4.3094 -3.5618 -2.5227 0.9758
4.6106 -3.1650 -2.5234 0.9758
5.2859 -1.8354 -2.5248 0.9757
5.4287 -1.3577 -2.5250 0.9757
5.5281 -0.8692 -2.5250 0.9757
5.5833 -0.3737 -2.5249 0.9757
5.5938 0.1247 -2.5247 0.9757
5.4812 1.1141 -2.5238 0.9758
4.1869 3.1575 -2.3662 0.9772
3.8874 3.5160 -2.3651 0.9773
2.4106 4.6413 -2.3599 0.9773
1.9868 4.8345 -2.3584 0.9773
1.5476 4.9891 -2.3570 0.9773
1.0967 5.1038 -2.3555 0.9774
-0.7515 5.1530 -2.3497 0.9774
-1.2065 5.0627 -2.3483 0.9774
-1.6514 4.9324 -2.3470 0.9774
-2.0827 4.7633 -2.3457 0.9774
-2.4971 4.5568 -2.3446 0.9775
-2.8914 4.3144 -2.3435 0.9775
-3.4025 4.2114 -2.4429 0.9765
-3.8411 3.9717 -2.4931 0.9760
-4.4816 3.2257 -2.4915 0.9761
-5.3220 1.4579 -2.4898 0.9761
-5.4304 0.9784 -2.4898 0.9761
-3.7665 0.3366 -1.7063 0.9835
-2.9111 0.0000 -1.3722 0.9872
-2.6016 -0.7127 -1.2715 0.9881
-2.6052 -1.2444 -1.3609 0.9873
-2.6596 -1.5753 -1.4571 0.9864
-4.0063 -3.4644 -2.4966 0.9769
-2.9532 -4.4064 -2.5004 0.9768
-2.5507 -4.6544 -2.5018 0.9768
-1.2325 -5.1720 -2.5062 0.9768
-0.2964 -5.3149 -2.5092 0.9767
2.4617 -4.7396 -2.5175 0.9767
3.2660 -4.2318 -2.5198 0.9766
3.9674 -3.5883 -2.5216 0.9766
4.5433 -2.8295 -2.5230 0.9766
4.7781 -2.4144 -2.5235 0.9766
4.9748 -1.9799 -2.5239 0.9766
5.2477 -1.0666 -2.5242 0.9766
5.3533 -0.1192 -2.5240 0.9766
5.2881 0.8316 -2.5233 0.9766
3.5660 3.5266 -2.3641 0.9781
3.2364 3.8280 -2.3629 0.9781
2.5036 4.3365 -2.3603 0.9781
1.6931 4.7062 -2.3576 0.9781
1.2668 4.8353 -2.3562 0.9781
0.8309 4.9260 -2.3548 0.9782
0.3889 4.9774 -2.3534 0.9782
-0.4991 4.9616 -2.3506 0.9782
-0.9382 4.8947 -2.3493 0.9782
-1.7893 4.6458 -2.3467 0.9782
-2.5822 4.2509 -2.3445 0.9782
-3.5053 3.9635 -2.4941 0.9769
-3.8428 3.6346 -2.4933 0.9769
-4.1498 3.2771 -2.4925 0.9769
-4.4238 2.8940 -2.4919 0.9769
-5.0288 1.6216 -2.4907 0.9769
-5.2363 0.7043 -2.4905 0.9769
-3.1521 0.1406 -1.4873 0.9861
-2.7082 -0.1207 -1.2778 0.9881
-2.6352 -0.3544 -1.2533 0.9883
-2.6131 -0.5921 -1.2630 0.9882
-2.6038 -1.1041 -1.3332 0.9876
-2.5902 -1.3822 -1.3839 0.9871
-3.1457 -4.2693 -2.4998 0.9768
-2.7547 -4.5348 -2.5011 0.9768
-1.4613 -5.1104 -2.5055 0.9768
-0.5327 -5.2948 -2.5085 0.9767
-0.0593 -5.3244 -2.5100 0.9767
1.3518 -5.1597 -2.5143 0.9767
1.8067 -5.0216 -2.5156 0.9767
2.2476 -4.8434 -2.5169 0.9767
2.6710 -4.6263 -2.5181 0.9767
3.0736 -4.3722 -2.5192 0.9766
4.1240 -3.4085 -2.5220 0.9766
4.4122 -3.0288 -2.5227 0.9766
4.6653 -2.6246 -2.5233 0.9766
4.8813 -2.1994 -2.5237 0.9766
5.0583 -1.7564 -2.5240 0.9766
5.1949 -1.2993 -2.5242 0.9766
5.2900 -0.8318 -2.5242 0.9766
5.3429 -0.3577 -2.5241 0.9766
5.3530 0.1193 -2.5239 0.9766
5.2453 1.0662 -2.5231 0.9766
5.1283 1.5284 -2.5224 0.9766
4.9705 1.9782 -2.5217 0.9766
4.7731 2.4120 -2.5209 0.9766
4.4903 2.7966 -2.4936 0.9769
4.0070 3.0219 -2.3657 0.9781
1.0498 4.8855 -2.3555 0.9781
0.1668 4.9883 -2.3527 0.9782
-0.2777 4.9804 -2.3513 0.9782
-0.7195 4.9331 -2.3499 0.9782
-1.1550 4.8467 -2.3486 0.9782
-1.9940 4.5604 -2.3461 0.9782
-2.7684 4.1307 -2.3440 0.9783
-4.0003 3.4592 -2.4929 0.9769
-5.0959 1.3959 -2.4906 0.9769
-3.7076 0.3313 -1.7546 0.9837
-2.8279 0.0000 -1.3909 0.9875
-2.5903 -0.2315 -1.2791 0.9885
-2.5453 -0.9479 -1.3359 0.9880
-2.5457 -1.2160 -1.3876 0.9875
-4.3646 -2.5851 -2.4950 0.9776
-4.1187 -2.9645 -2.4960 0.9776
-3.8402 -3.3207 -2.4971 0.9776
-3.5310 -3.6510 -2.4982 0.9776
-2.8305 -4.2234 -2.5007 0.9776
-2.4447 -4.4610 -2.5021 0.9776
-2.0391 -4.6634 -2.5034 0.9776
-1.6168 -4.8291 -2.5048 0.9776
-1.1812 -4.9567 -2.5063 0.9775
0.6243 -5.0688 -2.5120 0.9775
1.0735 -4.9959 -2.5133 0.9775
3.1293 -4.0548 -2.5192 0.9774
3.8014 -3.4380 -2.5210 0.9774
4.3530 -2.7110 -2.5223 0.9774
4.9167 -1.4653 -2.5234 0.9774
5.1290 -0.1143 -2.5233 0.9774
4.8428 1.6817 -2.5215 0.9774
4.4650 2.5120 -2.5198 0.9774
4.1620 2.8571 -2.4830 0.9777
3.4170 3.3792 -2.3637 0.9788
3.1012 3.6681 -2.3625 0.9788
1.6226 4.5101 -2.3575 0.9789
1.2140 4.6339 -2.3561 0.9789
0.3728 4.7703 -2.3534 0.9789
-0.0533 4.7818 -2.3521 0.9789
-0.4784 4.7554 -2.3508 0.9789
-0.8993 4.6914 -2.3495 0.9789
-1.3126 4.5904 -2.3483 0.9789
-3.0097 4.0849 -2.4956 0.9776
-3.3601 3.7994 -2.4947 0.9776
-3.9780 3.1414 -2.4931 0.9777
-4.2407 2.7742 -2.4925 0.9777
-4.6638 1.9777 -2.4916 0.9777
-4.8208 1.5546 -2.4913 0.9777
-5.0197 0.6751 -2.4912 0.9777
-2.6467 -0.1180 -1.3031 0.9883
-2.5430 -0.8200 -1.3142 0.9882
-4.2459 -2.7775 -2.4955 0.9776
-3.9834 -3.1456 -2.4965 0.9776
-3.6893 -3.4893 -2.4976 0.9776
-3.0151 -4.0921 -2.5001 0.9776
-2.2442 -4.5667 -2.5027 0.9776
-1.8298 -4.7510 -2.5041 0.9776
2.5594 -4.4329 -2.5177 0.9774
4.2274 -2.9019 -2.5220 0.9774
4.8464 -1.6828 -2.5233 0.9774
5.0684 -0.7969 -2.5235 0.9774
5.0975 0.5703 -2.5229 0.9774
4.9136 1.4644 -2.5218 0.9774
4.5733 2.3111 -2.5203 0.9774
4.3479 2.7079 -2.5194 0.9774
3.8787 2.9251 -2.3894 0.9786
3.5650 3.2244 -2.3642 0.9788
3.2623 3.5272 -2.3631 0.9788
2.5826 4.0456 -2.3607 0.9788
2.2111 4.2571 -2.3594 0.9788
1.8224 4.4346 -2.3581 0.9789
1.0061 4.6821 -2.3554 0.9789
-1.1071 4.6454 -2.3489 0.9789
-1.5154 4.5262 -2.3477 0.9789
-1.9112 4.3712 -2.3465 0.9790
-2.7462 4.0977 -2.4262 0.9783
-3.1881 3.9460 -2.4951 0.9776
-3.8346 3.3160 -2.4935 0.9777
-4.1134 2.9607 -2.4928 0.9777
-4.3596 2.5823 -2.4922 0.9777
-4.7470 1.7678 -2.4915 0.9777
-4.8851 1.3382 -2.4913 0.9777
-4.9847 0.8980 -2.4912 0.9777
-2.7481 0.0000 -1.4089 0.9877
-2.4994 -0.6846 -1.3286 0.9884
-2.4521 -1.4524 -1.4611 0.9873
-3.9522 -2.8446 -2.4965 0.9783
-3.6849 -3.1864 -2.4975 0.9783
-3.3881 -3.5033 -2.4986 0.9783
-3.0643 -3.7927 -2.4998 0.9783
-1.1333 -4.7555 -2.5063 0.9783
0.1636 -4.8940 -2.5104 0.9782
1.0299 -4.7925 -2.5131 0.9782
1.4531 -4.6842 -2.5144 0.9782
1.8651 -4.5384 -2.5156 0.9782
2.6426 -4.1395 -2.5178 0.9782
3.3372 -3.6081 -2.5196 0.9782
3.6462 -3.2978 -2.5204 0.9781
3.9263 -2.9609 -2.5211 0.9781
4.3909 -2.2188 -2.5222 0.9781
4.9195 -0.1096 -2.5227 0.9781
4.9092 0.3287 -2.5224 0.9781
4.8597 0.7642 -2.5220 0.9781
4.7714 1.1935 -2.5215 0.9781
4.6451 1.6130 -2.5209 0.9781
2.9749 3.5187 -2.3622 0.9795
2.6486 3.7677 -2.3611 0.9795
1.5566 4.3267 -2.3574 0.9795
1.1647 4.4457 -2.3561 0.9796
0.7640 4.5292 -2.3548 0.9796
-0.4590 4.5627 -2.3509 0.9796
-0.8628 4.5013 -2.3497 0.9796
-1.2594 4.4045 -2.3485 0.9796
-1.6456 4.2729 -2.3474 0.9796
-2.0185 4.1075 -2.3463 0.9796
-2.4578 4.0462 -2.4271 0.9789
-2.8881 3.9198 -2.4961 0.9784
-3.2243 3.6459 -2.4952 0.9784
-4.0695 2.6622 -2.4931 0.9784
-4.4755 1.8978 -2.4922 0.9784
-4.7404 1.0741 -2.4919 0.9784
-4.8172 0.6479 -2.4919 0.9784
-2.5350 -0.3409 -1.3113 0.9886
-2.5113 -0.5690 -1.3201 0.9885
-2.4879 -1.0550 -1.3854 0.9879
-2.4717 -1.3190 -1.4363 0.9875
-2.5333 -4.1704 -2.5016 0.9783
-1.7556 -4.5583 -2.5043 0.9783
-1.3437 -4.6990 -2.5056 0.9783
-0.9206 -4.8026 -2.5070 0.9783
-0.0545 -4.8951 -2.5098 0.9782
0.8151 -4.8324 -2.5124 0.9782
1.2426 -4.7431 -2.5137 0.9782
1.6607 -4.6159 -2.5150 0.9782
2.0659 -4.4519 -2.5161 0.9782
3.1726 -3.7525 -2.5192 0.9782
3.7900 -3.1325 -2.5208 0.9781
4.4858 -2.0211 -2.5224 0.9781
4.7739 -1.1940 -2.5228 0.9781
4.9192 0.1097 -2.5226 0.9781
4.8204 0.9798 -2.5218 0.9781
4.5680 1.8180 -2.5205 0.9781
3.8606 2.9115 -2.4790 0.9785
3.4197 3.0929 -2.3639 0.9795
3.1294 3.3835 -2.3628 0.9795
2.8145 3.6469 -2.3617 0.9795
0.9652 4.4919 -2.3554 0.9796
0.5613 4.5575 -2.3541 0.9796
0.1534 4.5868 -2.3528 0.9796
-0.2554 4.5798 -2.3516 0.9796
-0.6616 4.5365 -2.3503 0.9796
-1.0622 4.4573 -2.3491 0.9796
-1.4540 4.3429 -2.3479 0.9796
-2.2046 4.0229 -2.3518 0.9796
-2.7111 4.0453 -2.4966 0.9783
-3.3830 3.4980 -2.4948 0.9784
-3.6798 3.1821 -2.4940 0.9784
-3.9474 2.8412 -2.4934 0.9784
-4.1837 2.4780 -2.4928 0.9784
-4.6879 1.2842 -2.4919 0.9784
-4.7835 0.8619 -2.4918 0.9784
-2.4853 -0.2221 -1.3321 0.9887
-2.4716 -0.4453 -1.3407 0.9887
-2.4501 -0.6711 -1.3561 0.9885
-2.3944 -1.4182 -1.4856 0.9875
-3.7961 -2.7322 -2.4969 0.9790
-3.5393 -3.0605 -2.4979 0.9790
-3.2542 -3.3648 -2.4989 0.9790
-2.9431 -3.6427 -2.5000 0.9790
-2.6084 -3.8921 -2.5012 0.9790
-1.8789 -4.2971 -2.5037 0.9790
-1.0884 -4.5670 -2.5063 0.9789
-0.6779 -4.6482 -2.5077 0.9789
0.1571 -4.6997 -2.5103 0.9789
0.5751 -4.6694 -2.5116 0.9789
1.3953 -4.4979 -2.5141 0.9789
1.7909 -4.3579 -2.5152 0.9789
2.1726 -4.1830 -2.5163 0.9789
2.8821 -3.7344 -2.5183 0.9788
3.5008 -3.1663 -2.5199 0.9788
3.7698 -2.8429 -2.5206 0.9788
4.0087 -2.4966 -2.5211 0.9788
4.2158 -2.1303 -2.5216 0.9788
4.3892 -1.7468 -2.5219 0.9788
4.6300 -0.9410 -2.5222 0.9788
4.7133 0.3156 -2.5218 0.9788
4.6658 0.7337 -2.5214 0.9788
4.5811 1.1459 -2.5209 0.9788
4.4599 1.5487 -2.5203 0.9788
4.1122 2.3135 -2.5188 0.9788
3.8886 2.6694 -2.5179 0.9788
3.5821 2.9607 -2.4809 0.9791
3.1473 3.1125 -2.3630 0.9801
2.8565 3.3787 -2.3619 0.9801
2.5433 3.6179 -2.3608 0.9801
2.2101 3.8280 -2.3597 0.9802
1.8597 4.0075 -2.3585 0.9802
1.1185 4.2693 -2.3560 0.9802
0.3435 4.3953 -2.3535 0.9802
-0.0491 4.4061 -2.3523 0.9802
-0.4408 4.3820 -2.3511 0.9802
-2.4288 3.9985 -2.4975 0.9790
-2.7740 3.7650 -2.4965 0.9790
-3.6667 2.8957 -2.4942 0.9790
-4.1203 2.1987 -2.4932 0.9790
-4.2991 1.8230 -2.4928 0.9790
-4.6272 0.6223 -2.4925 0.9791
-2.5303 -0.1128 -1.3521 0.9886
-2.4861 -0.3343 -1.3391 0.9887
-2.4353 -0.7853 -1.3660 0.9885
-2.4330 -1.0317 -1.4108 0.9881
-3.6714 -2.8992 -2.4974 0.9790
-3.1018 -3.5072 -2.4995 0.9790
-2.7786 -3.7711 -2.5006 0.9790
-2.0679 -4.2081 -2.5031 0.9790
-1.6861 -4.3777 -2.5044 0.9790
-1.2904 -4.5128 -2.5057 0.9789
-0.8841 -4.6121 -2.5070 0.9789
-0.0524 -4.7008 -2.5097 0.9789
0.7827 -4.6404 -2.5122 0.9789
1.5946 -4.4323 -2.5147 0.9789
2.7124 -3.8584 -2.5178 0.9788
3.0462 -3.6030 -2.5187 0.9788
3.8931 -2.6724 -2.5209 0.9788
4.1164 -2.3158 -2.5214 0.9788
4.3068 -1.9405 -2.5218 0.9788
4.4629 -1.5496 -2.5220 0.9788
4.5834 -1.1463 -2.5222 0.9788
4.6673 -0.7339 -2.5222 0.9788
4.7140 -0.3155 -2.5222 0.9788
4.6943 0.5252 -2.5216 0.9788
4.6281 0.9407 -2.5212 0.9788
4.3859 1.7456 -2.5200 0.9788
4.2119 2.1284 -2.5193 0.9788
4.0044 2.4940 -2.5184 0.9788
3.7651 2.8395 -2.5175 0.9788
3.0049 3.2488 -2.3625 0.9801
2.7025 3.5018 -2.3614 0.9801
