ply
format ascii 1.0
element vertex 1588
property float32 x
property float32 y
property float32 z
property float32 I
end_header
3.1047 14.4480 -2.3532 0.9419
-3.4080 14.3006 -2.3409 0.9422
-4.6628 13.9272 -2.3387 0.9422
-7.0458 12.8570 -2.3346 0.9423
-11.0590 9.5632 -2.3281 0.9425
-11.8603 8.5366 -2.3269 0.9425
-14.0535 0.0000 -2.4780 0.9445
-14.0006 -1.2511 -2.4785 0.9445
-13.8377 -2.4930 -2.4792 0.9445
-13.5659 -3.7161 -2.4802 0.9445
-12.7044 -6.0684 -2.4826 0.9444
-12.1210 -7.1793 -2.4840 0.9444
-11.4414 -8.2350 -2.4856 0.9444
-8.8796 -10.9904 -2.4914 0.9442
-0.7918 -14.1996 -2.5077 0.9439
0.4757 -14.2274 -2.5101 0.9438
1.7417 -14.1419 -2.5124 0.9438
2.9963 -13.9434 -2.5147 0.9437
4.2291 -13.6334 -2.5169 0.9437
6.5902 -12.6884 -2.5211 0.9436
7.6991 -12.0605 -2.5230 0.9435
8.7480 -11.3351 -2.5247 0.9435
11.4509 -8.6355 -2.5289 0.9434
12.1790 -7.5851 -2.5299 0.9434
13.7602 -4.1010 -2.5318 0.9433
14.0716 -2.8601 -2.5319 0.9433
14.3540 -0.3199 -2.5316 0.9434
13.3140 2.0936 -2.3765 0.9467
13.0702 3.2691 -2.3756 0.9467
12.7218 4.4175 -2.3746 0.9468
12.2719 5.5295 -2.3734 0.9468
11.0834 7.6083 -2.3704 0.9469
10.3548 8.5585 -2.3688 0.9469
7.7069 10.9633 -2.3630 0.9470
3.3837 12.9154 -2.3542 0.9472
-0.1483 13.3120 -2.3474 0.9474
-1.3313 13.2336 -2.3452 0.9474
-2.5016 13.0506 -2.3431 0.9475
-5.8458 11.8959 -2.3371 0.9476
-6.8762 11.3199 -2.3354 0.9476
-6.3261 7.1530 -1.6838 0.9620
-11.6486 6.2159 -2.3281 0.9478
-13.7041 3.1049 -2.4776 0.9445
-14.0409 -0.6261 -2.4782 0.9445
-13.7153 -3.1074 -2.4797 0.9445
-13.3898 -4.3176 -2.4807 0.9445
-12.9586 -5.4949 -2.4819 0.9444
-11.7929 -7.7146 -2.4848 0.9444
-10.2529 -9.6971 -2.4884 0.9443
-9.3565 -10.5796 -2.4903 0.9442
-7.3451 -12.0917 -2.4946 0.9442
-5.0942 -13.2269 -2.4993 0.9441
-3.9004 -13.6408 -2.5016 0.9440
-1.4228 -14.1435 -2.5065 0.9439
2.3711 -14.0567 -2.5136 0.9437
4.8343 -13.4372 -2.5180 0.9436
6.0161 -12.9643 -2.5201 0.9436
8.2316 -11.7096 -2.5239 0.9435
9.2473 -10.9377 -2.5255 0.9435
10.1901 -10.0772 -2.5270 0.9435
13.0873 -5.8969 -2.5311 0.9434
13.5629 -4.7096 -2.5316 0.9434
13.9299 -3.4841 -2.5319 0.9433
14.3528 0.3199 -2.5314 0.9434
13.3961 1.4986 -2.3768 0.9467
12.5093 4.9786 -2.3740 0.9468
12.0100 6.0689 -2.3727 0.9468
11.4151 7.1094 -2.3712 0.9468
9.9596 9.0079 -2.3679 0.9469
9.1111 9.8508 -2.3660 0.9470
8.1912 10.6137 -2.3640 0.9470
6.1686 11.8766 -2.3598 0.9471
5.0823 12.3669 -2.3576 0.9471
3.9576 12.7580 -2.3553 0.9472
-3.0791 12.9205 -2.3420 0.9475
-5.3122 12.1493 -2.3381 0.9476
-7.3711 10.9984 -2.3346 0.9476
-8.3152 10.2919 -2.3330 0.9477
-9.1928 9.5053 -2.3316 0.9477
-10.7219 7.7172 -2.3293 0.9478
-12.1248 5.7916 -2.3693 0.9469
-13.1701 4.9047 -2.4781 0.9445
-13.9960 1.2507 -2.4777 0.9445
-12.8171 0.0000 -2.4803 0.9491
-12.7686 -1.1410 -2.4808 0.9491
-12.6197 -2.2735 -2.4815 0.9491
-12.0256 -4.4784 -2.4833 0.9491
-7.1764 -10.7079 -2.4945 0.9488
-2.9984 -12.5818 -2.5030 0.9487
1.5866 -12.8819 -2.5117 0.9485
3.8518 -12.4168 -2.5158 0.9484
4.9454 -12.0339 -2.5178 0.9484
6.0012 -11.5544 -2.5196 0.9483
10.4247 -7.8616 -2.5267 0.9482
11.6611 -5.8926 -2.5284 0.9482
12.1420 -4.8324 -2.5289 0.9481
12.8091 -2.6035 -2.5295 0.9481
11.5819 4.0217 -2.3726 0.9513
11.1727 5.0342 -2.3715 0.9513
9.4290 7.7933 -2.3673 0.9514
8.6919 8.5956 -2.3656 0.9514
7.8865 9.3282 -2.3639 0.9515
7.0194 9.9853 -2.3620 0.9515
4.1216 11.4561 -2.3561 0.9516
0.9460 12.1060 -2.3499 0.9517
-0.1352 12.1316 -2.3478 0.9518
-1.2133 12.0611 -2.3458 0.9518
-10.0798 6.5939 -2.3309 0.9521
-10.6234 5.6688 -2.3302 0.9521
-11.8013 5.0042 -2.4806 0.9491
-12.1979 3.9333 -2.4802 0.9491
-12.4986 2.8319 -2.4800 0.9491
-12.8035 0.5709 -2.4802 0.9491
-12.5079 -2.8339 -2.4819 0.9491
-11.3297 -6.0457 -2.4851 0.9490
-10.0903 -7.9682 -2.4881 0.9490
-9.3474 -8.8407 -2.4898 0.9489
-4.6426 -12.0541 -2.4997 0.9487
-3.5543 -12.4303 -2.5019 0.9487
-0.1444 -12.9617 -2.5085 0.9486
2.1597 -12.8038 -2.5128 0.9485
4.4028 -12.2377 -2.5168 0.9484
5.4786 -11.8060 -2.5187 0.9484
7.4952 -10.6621 -2.5221 0.9483
9.2775 -9.1746 -2.5250 0.9482
10.0620 -8.3164 -2.5262 0.9482
10.7666 -7.3908 -2.5272 0.9482
11.3855 -6.4054 -2.5280 0.9482
12.3462 -4.2870 -2.5292 0.9481
12.9124 -2.0304 -2.5295 0.9481
13.0411 -0.8729 -2.5293 0.9481
12.0214 2.4435 -2.3739 0.9512
11.7519 3.5025 -2.3731 0.9513
11.3886 4.5326 -2.3720 0.9513
10.9346 5.5255 -2.3709 0.9513
9.7701 7.3680 -2.3681 0.9514
8.2973 8.9710 -2.3648 0.9514
5.6190 10.8184 -2.3591 0.9515
3.6056 11.6232 -2.3550 0.9516
0.4056 12.1308 -2.3488 0.9518
-2.8066 11.7771 -2.3429 0.9519
-3.8407 11.4716 -2.3411 0.9519
-7.5820 9.3844 -2.3347 0.9520
-8.3826 8.6676 -2.3334 0.9521
-10.3618 6.1374 -2.3305 0.9521
-11.5679 5.5256 -2.4809 0.9491
-11.7745 0.0000 -2.4823 0.9530
-11.7298 -1.0482 -2.4827 0.9530
-11.3644 -3.1130 -2.4841 0.9530
-10.1514 -6.0127 -2.4873 0.9529
-9.5812 -6.8961 -2.4887 0.9529
-8.9347 -7.7262 -2.4902 0.9529
-8.2169 -8.4962 -2.4918 0.9528
-7.4332 -9.2001 -2.4935 0.9528
-4.7491 -10.8614 -2.4991 0.9527
-2.7524 -11.5498 -2.5031 0.9526
-1.7149 -11.7584 -2.5051 0.9526
0.3977 -11.8952 -2.5092 0.9525
3.5343 -11.3935 -2.5149 0.9524
5.5060 -10.6009 -2.5184 0.9523
11.1366 -4.4322 -2.5269 0.9522
11.7482 -2.3879 -2.5274 0.9522
11.9140 -1.3328 -2.5274 0.9522
11.9586 0.8006 -2.5267 0.9522
10.6237 3.6890 -2.3709 0.9551
9.7924 5.5091 -2.3687 0.9551
9.2582 6.3554 -2.3674 0.9551
8.6506 7.1500 -2.3660 0.9552
7.9748 7.8865 -2.3645 0.9552
7.2363 8.5591 -2.3629 0.9552
5.5958 9.6923 -2.3594 0.9553
3.7828 10.5145 -2.3557 0.9553
2.8297 10.8007 -2.3538 0.9554
1.8556 11.0008 -2.3519 0.9554
-0.1241 11.1376 -2.3482 0.9555
-3.9912 10.3629 -2.3411 0.9556
-5.7579 9.4788 -2.3381 0.9557
-6.5749 8.9235 -2.3368 0.9557
-8.0448 7.6088 -2.3344 0.9557
-8.6865 6.8597 -2.3335 0.9558
-9.2594 6.0572 -2.3326 0.9558
-10.1743 5.4292 -2.4312 0.9540
-11.2058 3.6134 -2.4822 0.9530
-11.6680 1.5692 -2.4820 0.9530
-11.7637 -0.5245 -2.4825 0.9530
-11.6728 -1.5698 -2.4830 0.9530
-11.4899 -2.6033 -2.4837 0.9530
-10.8544 -4.6027 -2.4856 0.9529
-9.8761 -6.4606 -2.4880 0.9529
-8.5844 -8.1191 -2.4910 0.9528
-6.1473 -10.1198 -2.4962 0.9527
-5.2262 -10.6349 -2.4981 0.9527
-3.2629 -11.4111 -2.5021 0.9526
-2.2361 -11.6656 -2.5041 0.9526
-0.1325 -11.8964 -2.5082 0.9525
0.9276 -11.8704 -2.5101 0.9525
4.0398 -11.2288 -2.5158 0.9524
5.9747 -10.3484 -2.5192 0.9523
6.8761 -9.7814 -2.5207 0.9523
10.4430 -5.8751 -2.5261 0.9522
10.9271 -4.9235 -2.5267 0.9522
11.3238 -3.9321 -2.5271 0.9522
11.6300 -2.9088 -2.5273 0.9522
11.8430 -1.8622 -2.5274 0.9522
11.9611 -0.8006 -2.5273 0.9522
11.9834 0.2671 -2.5270 0.9522
11.0264 2.2412 -2.3721 0.9550
10.4467 4.1577 -2.3704 0.9551
9.5347 5.9383 -2.3681 0.9551
7.6130 8.2311 -2.3637 0.9552
6.0243 9.4370 -2.3603 0.9553
4.2491 10.3396 -2.3567 0.9553
3.3093 10.6682 -2.3548 0.9554
-0.6199 11.1167 -2.3472 0.9555
-3.5268 10.5342 -2.3420 0.9556
-4.4474 10.1714 -2.3403 0.9556
-6.1726 9.2102 -2.3374 0.9557
-6.9640 8.6194 -2.3361 0.9557
-7.6997 7.9614 -2.3350 0.9557
-8.9819 6.4648 -2.3330 0.9558
-11.5864 2.0874 -2.4820 0.9530
-11.7266 1.0479 -2.4820 0.9530
-10.8830 0.0000 -2.4840 0.9563
-10.8416 -0.9688 -2.4844 0.9563
-10.5034 -2.8771 -2.4856 0.9563
-10.2091 -3.8019 -2.4865 0.9563
-5.2592 -9.5968 -2.4977 0.9561
-1.5840 -10.8606 -2.5051 0.9560
1.3446 -10.9172 -2.5106 0.9559
4.1896 -10.1948 -2.5157 0.9558
5.0835 -9.7875 -2.5173 0.9558
5.9379 -9.3015 -2.5187 0.9557
7.5006 -8.1096 -2.5213 0.9557
8.1962 -7.4130 -2.5224 0.9557
9.3871 -5.8463 -2.5241 0.9556
10.8438 -2.2041 -2.5256 0.9556
10.9968 -1.2302 -2.5256 0.9556
9.4610 4.2630 -2.3685 0.9583
9.0400 5.0858 -2.3674 0.9583
8.5472 5.8673 -2.3662 0.9584
7.9866 6.6011 -2.3649 0.9584
6.6815 7.9029 -2.3621 0.9584
5.9477 8.4607 -2.3605 0.9585
4.3472 9.3680 -2.3572 0.9585
3.4936 9.7106 -2.3555 0.9585
2.6135 9.9756 -2.3537 0.9586
1.7140 10.1611 -2.3520 0.9586
-0.1146 10.2887 -2.3485 0.9587
-3.6878 9.5753 -2.3420 0.9588
-4.5226 9.2033 -2.3405 0.9588
-6.2659 7.0849 -2.1588 0.9619
-7.4350 7.0320 -2.3358 0.9589
-8.0283 6.3399 -2.3349 0.9589
-8.5579 5.5984 -2.3341 0.9589
-10.0204 4.2490 -2.4842 0.9563
-10.3574 3.3398 -2.4839 0.9563
-10.7847 1.4504 -2.4837 0.9563
-10.8730 -0.4848 -2.4842 0.9563
-10.3665 -3.3427 -2.4861 0.9563
-9.6173 -5.1319 -2.4881 0.9563
-9.1268 -5.9705 -2.4893 0.9562
-8.5637 -6.7627 -2.4906 0.9562
-5.6795 -9.3497 -2.4969 0.9561
-4.8281 -9.8250 -2.4986 0.9561
-1.0990 -10.9244 -2.5060 0.9560
-0.1224 -10.9871 -2.5079 0.9559
1.8302 -10.8504 -2.5115 0.9559
2.7906 -10.6518 -2.5133 0.9558
4.6411 -10.0012 -2.5165 0.9558
7.1303 -8.4337 -2.5207 0.9557
7.8562 -7.7691 -2.5218 0.9557
9.1160 -6.2577 -2.5237 0.9556
9.6395 -5.4230 -2.5244 0.9556
10.7347 -2.6849 -2.5256 0.9556
10.9312 -1.7188 -2.5256 0.9556
10.1780 2.0688 -2.3706 0.9583
9.9505 2.9656 -2.3698 0.9583
9.6435 3.8381 -2.3690 0.9583
9.2597 4.6792 -2.3680 0.9583
8.2751 6.2405 -2.3656 0.9584
7.6824 6.9483 -2.3643 0.9584
6.3208 8.1900 -2.3613 0.9584
5.5629 8.7142 -2.3597 0.9585
4.7619 9.1683 -2.3580 0.9585
3.9242 9.5488 -2.3563 0.9585
3.0564 9.8530 -2.3546 0.9586
2.1657 10.0784 -2.3528 0.9586
0.3440 10.2874 -2.3493 0.9586
-5.7041 8.5111 -2.3385 0.9588
-6.4357 7.9656 -2.3373 0.9589
-7.7393 6.6925 -2.3353 0.9589
-8.3013 5.9750 -2.3345 0.9589
-8.8002 5.2124 -2.3345 0.9589
-9.8220 4.6916 -2.4844 0.9563
-10.4954 2.8750 -2.4838 0.9563
-10.8388 0.9686 -2.4837 0.9563
-10.0730 -0.9001 -2.4858 0.9592
-9.7584 -2.6731 -2.4870 0.9592
-9.4848 -3.5322 -2.4878 0.9592
-9.1362 -4.3640 -2.4887 0.9592
-8.7152 -5.1620 -2.4898 0.9591
-7.6694 -6.6320 -2.4922 0.9591
-7.0526 -7.2923 -2.4936 0.9591
-6.3793 -7.8958 -2.4951 0.9591
-3.2311 -9.6508 -2.5016 0.9589
-1.4708 -10.0846 -2.5050 0.9589
-0.5678 -10.1826 -2.5068 0.9589
2.1469 -9.9909 -2.5118 0.9588
3.0296 -9.7663 -2.5134 0.9588
5.5116 -8.6337 -2.5177 0.9587
6.2612 -8.1129 -2.5190 0.9587
8.1919 -6.1778 -2.5220 0.9586
9.5396 -3.7966 -2.5237 0.9586
10.2438 0.6858 -2.5236 0.9586
9.3496 2.3385 -2.3689 0.9611
9.1015 3.1604 -2.3682 0.9611
8.7809 3.9565 -2.3673 0.9611
7.4133 6.1272 -2.3640 0.9612
5.5214 7.8543 -2.3599 0.9612
4.0361 8.6975 -2.3568 0.9613
3.2437 9.0161 -2.3552 0.9613
2.4267 9.2627 -2.3536 0.9613
0.7449 9.5330 -2.3503 0.9614
-0.1065 9.5549 -2.3487 0.9614
-0.9558 9.5011 -2.3471 0.9614
-3.4255 8.8941 -2.3427 0.9615
-4.2011 8.5490 -2.3413 0.9615
-6.9073 6.5329 -2.3369 0.9616
-7.9686 5.2129 -2.3406 0.9615
-10.0203 1.3476 -2.4852 0.9592
-10.1023 -0.4504 -2.4856 0.9592
-9.8664 -2.2354 -2.4866 0.9592
-9.6311 -3.1056 -2.4874 0.9592
-9.3197 -3.9519 -2.4882 0.9592
-8.4786 -5.5464 -2.4903 0.9591
-7.9552 -6.2821 -2.4916 0.9591
-6.7227 -7.6015 -2.4943 0.9591
-5.2749 -8.6838 -2.4974 0.9590
-4.4841 -9.1247 -2.4990 0.9590
1.6992 -10.0733 -2.5110 0.9588
2.5907 -9.8885 -2.5126 0.9588
3.4627 -9.6246 -2.5142 0.9587
5.1201 -8.8683 -2.5171 0.9587
5.8922 -8.3817 -2.5183 0.9587
6.6179 -7.8277 -2.5195 0.9587
7.2914 -7.2106 -2.5206 0.9586
7.9072 -6.5355 -2.5215 0.9586
8.4602 -5.8076 -2.5223 0.9586
9.3602 -4.2175 -2.5235 0.9586
9.6999 -3.3681 -2.5239 0.9586
9.9619 -2.4916 -2.5241 0.9586
10.2456 -0.6859 -2.5240 0.9586
10.2021 1.1413 -2.5233 0.9586
9.2348 2.7523 -2.3686 0.9611
8.9501 3.5621 -2.3678 0.9611
8.5942 4.3429 -2.3668 0.9611
8.1699 5.0883 -2.3658 0.9611
7.1310 6.4496 -2.3634 0.9612
5.1644 8.0900 -2.3591 0.9612
4.4210 8.5119 -2.3576 0.9613
3.6434 8.8657 -2.3560 0.9613
2.8379 9.1485 -2.3544 0.9613
1.1693 9.4936 -2.3512 0.9614
-2.2115 9.2798 -2.3449 0.9615
-3.8172 8.7301 -2.3420 0.9615
-5.2989 7.9065 -2.3395 0.9616
-6.6108 6.8355 -2.3374 0.9616
-7.7125 5.5512 -2.3357 0.9616
-8.7019 5.1542 -2.4860 0.9592
-10.0706 0.8999 -2.4852 0.9592
-9.2908 -1.6738 -2.4875 0.9617
-9.1072 -2.4947 -2.4882 0.9617
-8.8516 -3.2964 -2.4889 0.9617
-8.5261 -4.0726 -2.4898 0.9617
-8.1330 -4.8171 -2.4908 0.9617
-6.5808 -6.8045 -2.4943 0.9616
-5.2760 -7.8723 -2.4971 0.9616
-3.8012 -8.6936 -2.5002 0.9615
-2.2024 -9.2417 -2.5034 0.9615
-0.5296 -9.4980 -2.5066 0.9614
2.0023 -9.3179 -2.5113 0.9613
2.8254 -9.1081 -2.5128 0.9613
5.1395 -8.0508 -2.5168 0.9613
5.8383 -7.5649 -2.5180 0.9612
6.4912 -7.0182 -2.5190 0.9612
7.0927 -6.4150 -2.5200 0.9612
8.5424 -4.3167 -2.5220 0.9612
8.8942 -3.5398 -2.5224 0.9612
9.1749 -2.7344 -2.5227 0.9612
9.3823 -1.9071 -2.5228 0.9612
9.5147 -1.0643 -2.5228 0.9612
9.5710 -0.2133 -2.5226 0.9612
9.5508 0.6394 -2.5223 0.9612
14.1728 2.2286 -3.7804 0.9424
13.9150 3.4804 -3.7795 0.9424
8.4862 2.9468 -2.3671 0.9635
6.9129 5.7137 -2.3632 0.9636
5.7842 6.8416 -2.3607 0.9636
4.4743 7.7497 -2.3580 0.9637
3.0256 8.4097 -2.3550 0.9637
0.6949 8.8930 -2.3505 0.9638
-0.0993 8.9139 -2.3490 0.9638
-1.6761 8.7442 -2.3460 0.9638
-2.4463 8.5552 -2.3447 0.9639
-3.9201 7.9772 -2.3421 0.9639
-4.6122 7.5928 -2.3409 0.9639
-5.2673 7.1488 -2.3398 0.9639
-6.9609 5.4970 -2.3372 0.9640
-7.6034 4.9739 -2.3941 0.9631
-8.3281 4.4440 -2.4873 0.9617
-9.2030 2.0851 -2.4865 0.9617
-9.4274 0.4204 -2.4866 0.9617
-8.9883 -2.8983 -2.4885 0.9617
-8.6975 -3.6880 -2.4893 0.9617
-6.8756 -6.5029 -2.4937 0.9616
-3.4113 -8.8571 -2.5010 0.9615
-2.6111 -9.1314 -2.5026 0.9615
-1.7891 -9.3337 -2.5042 0.9615
-0.1060 -9.5152 -2.5074 0.9614
3.2292 -8.9758 -2.5135 0.9613
5.4943 -7.8158 -2.5174 0.9613
6.7987 -6.7234 -2.5195 0.9612
7.3727 -6.0937 -2.5204 0.9612
8.3408 -4.6924 -2.5217 0.9612
9.2879 -2.3231 -2.5227 0.9612
9.5120 1.0641 -2.5220 0.9612
14.0580 2.8574 -3.7800 0.9424
8.6104 2.5662 -2.3675 0.9635
8.3452 3.3213 -2.3667 0.9635
8.0135 4.0494 -2.3658 0.9635
7.6181 4.7446 -2.3649 0.9636
7.1624 5.4014 -2.3638 0.9636
5.4722 7.0905 -2.3601 0.9636
4.8165 7.5450 -2.3587 0.9636
3.3983 8.2692 -2.3558 0.9637
2.6471 8.5334 -2.3543 0.9637
1.0907 8.8561 -2.3512 0.9638
0.2980 8.9123 -2.3497 0.9638
-1.2853 8.8128 -2.3468 0.9638
-2.0634 8.6583 -2.3453 0.9639
-2.8242 8.4354 -2.3440 0.9639
-3.5618 8.1460 -2.3427 0.9639
-4.2705 7.7926 -2.3415 0.9639
-4.9447 7.3780 -2.3403 0.9639
-5.5793 6.9056 -2.3393 0.9639
-6.7102 5.8026 -2.3375 0.9640
-7.1978 5.1807 -2.3368 0.9640
-8.5170 4.0682 -2.4871 0.9617
-8.8440 3.2936 -2.4867 0.9617
-9.1012 2.4931 -2.4865 0.9617
-9.2867 1.6731 -2.4864 0.9617
-9.3990 0.8399 -2.4865 0.9617
-3.7284 -0.6717 -1.0659 0.9844
-3.7904 -1.0383 -1.1057 0.9838
-8.2932 -3.0884 -2.4899 0.9639
-6.7044 -5.7975 -2.4938 0.9638
-6.1647 -6.3743 -2.4950 0.9638
-3.5604 -8.1428 -2.5005 0.9637
-2.0627 -8.6554 -2.5035 0.9637
1.0903 -8.8522 -2.5095 0.9636
5.4660 -7.0824 -2.5171 0.9635
6.0770 -6.5704 -2.5181 0.9635
6.6400 -6.0055 -2.5190 0.9635
8.3259 -3.3136 -2.5213 0.9634
8.5887 -2.5596 -2.5215 0.9634
8.7828 -1.7851 -2.5216 0.9634
8.9067 -0.9963 -2.5216 0.9634
13.0264 3.2581 -3.7779 0.9457
7.9444 2.7586 -2.3661 0.9657
7.6649 3.4537 -2.3654 0.9657
7.3244 4.1207 -2.3645 0.9657
6.9258 4.7543 -2.3636 0.9657
6.4723 5.3495 -2.3625 0.9657
5.9676 5.9015 -2.3614 0.9657
4.8216 6.8589 -2.3589 0.9658
4.1897 7.2568 -2.3576 0.9658
3.5251 7.5964 -2.3562 0.9658
1.3904 8.2430 -2.3520 0.9659
0.6508 8.3290 -2.3506 0.9659
-1.5700 8.1906 -2.3464 0.9659
-2.2915 8.0139 -2.3451 0.9660
-3.6723 7.4729 -2.3427 0.9660
-4.3208 7.1130 -2.3416 0.9660
-4.9346 6.6973 -2.3406 0.9660
-5.5089 6.2290 -2.3397 0.9660
-6.0393 5.7120 -2.3388 0.9660
-6.5218 5.1502 -2.3381 0.9661
-7.4029 4.8428 -2.4889 0.9639
-7.8029 4.1638 -2.4884 0.9639
-8.1412 3.4522 -2.4880 0.9639
-8.7625 1.1785 -2.4876 0.9639
-8.8331 0.3939 -2.4877 0.9639
-3.7396 -0.5029 -1.0616 0.9844
-3.7659 -0.8532 -1.0864 0.9841
-8.1486 -3.4553 -2.4903 0.9639
-7.8115 -4.1683 -2.4911 0.9639
-6.4410 -6.0918 -2.4944 0.9638
-2.4455 -8.5523 -2.5027 0.9637
-0.0993 -8.9107 -2.5072 0.9636
0.6946 -8.8894 -2.5087 0.9636
3.0236 -8.4042 -2.5130 0.9636
4.4702 -7.7426 -2.5155 0.9635
6.3648 -6.2943 -2.5185 0.9635
6.9020 -5.7046 -2.5194 0.9635
7.3844 -5.0691 -2.5201 0.9635
8.8536 -1.3922 -2.5216 0.9634
8.9590 0.1997 -2.5213 0.9634
8.0606 2.4023 -2.3665 0.9657
7.8125 3.1093 -2.3658 0.9657
7.1322 4.4420 -2.3641 0.9657
6.7057 5.0570 -2.3630 0.9657
5.1238 6.6391 -2.3595 0.9658
4.5101 7.0649 -2.3582 0.9658
2.4790 7.9914 -2.3541 0.9658
1.0215 8.2943 -2.3513 0.9659
0.2791 8.3472 -2.3499 0.9659
-0.4647 8.3340 -2.3485 0.9659
-1.2039 8.2547 -2.3471 0.9659
-1.9328 8.1102 -2.3458 0.9659
-2.6455 7.9017 -2.3445 0.9660
-3.3366 7.6310 -2.3433 0.9660
-4.0006 7.3001 -2.3421 0.9660
-5.7799 5.9764 -2.3392 0.9660
-6.2868 5.4364 -2.3384 0.9661
-8.2864 3.0859 -2.4879 0.9639
-8.5275 2.3359 -2.4876 0.9639
-8.7013 1.5676 -2.4876 0.9639
-3.9677 -0.0000 -1.1878 0.9836
-3.5918 -0.3210 -1.0796 0.9851
-7.7966 -2.9035 -2.4908 0.9659
-7.5096 -3.5870 -2.4915 0.9658
-7.1630 -4.2426 -2.4924 0.9658
-5.7949 -5.9919 -2.4955 0.9658
-5.2411 -6.4870 -2.4968 0.9658
-4.6453 -6.9313 -2.4980 0.9658
-4.0121 -7.3211 -2.4993 0.9657
0.2799 -8.3718 -2.5078 0.9656
1.0245 -8.3183 -2.5092 0.9656
4.5209 -7.0818 -2.5153 0.9655
5.1353 -6.6540 -2.5164 0.9655
6.2381 -5.6420 -2.5181 0.9655
8.0683 -2.4046 -2.5205 0.9655
8.3671 -0.9360 -2.5206 0.9655
8.3143 1.3074 -2.5197 0.9655
12.2375 3.0607 -3.7765 0.9487
7.4635 2.5916 -2.3653 0.9675
6.8813 3.8714 -2.3638 0.9676
6.5069 4.4668 -2.3629 0.9676
6.0810 5.0261 -2.3619 0.9676
5.6070 5.5449 -2.3608 0.9676
3.9369 6.8189 -2.3572 0.9677
3.3125 7.1384 -2.3560 0.9677
2.6626 7.4007 -2.3547 0.9677
-0.0874 7.8468 -2.3493 0.9678
-1.4757 7.6986 -2.3468 0.9678
-2.1539 7.5328 -2.3455 0.9678
-2.8144 7.3075 -2.3444 0.9678
-4.0618 6.6866 -2.3422 0.9679
-5.6777 5.3700 -2.3396 0.9679
-6.9598 4.5529 -2.4899 0.9659
-7.6541 3.2456 -2.4890 0.9659
-7.9118 2.5512 -2.4887 0.9659
-4.8506 0.2163 -1.4536 0.9799
-3.5144 -0.4726 -1.0616 0.9853
-3.4642 -0.7849 -1.0634 0.9853
-7.6607 -3.2484 -2.4911 0.9659
-6.9682 -4.5583 -2.4929 0.9658
-6.0547 -5.7265 -2.4950 0.9658
-4.9482 -6.7157 -2.4974 0.9658
-2.2983 -8.0378 -2.5028 0.9657
-1.5747 -8.2152 -2.5042 0.9657
-0.0933 -8.3737 -2.5071 0.9656
1.3944 -8.2667 -2.5098 0.9656
2.8410 -7.8966 -2.5124 0.9656
5.4277 -6.4198 -2.5168 0.9655
5.9796 -5.9133 -2.5177 0.9655
7.3351 -4.1267 -2.5197 0.9655
7.6746 -3.4580 -2.5201 0.9655
7.9528 -2.7615 -2.5204 0.9655
8.3650 0.9358 -2.5199 0.9655
7.5807 2.2593 -2.3682 0.9675
7.3395 2.9211 -2.3649 0.9676
6.7008 4.1733 -2.3633 0.9676
5.8498 5.2908 -2.3614 0.9676
4.8144 6.2382 -2.3591 0.9676
3.6282 6.9856 -2.3566 0.9677
2.9904 7.2768 -2.3553 0.9677
2.3296 7.5099 -2.3540 0.9677
0.2623 7.8451 -2.3500 0.9678
-0.4368 7.8330 -2.3487 0.9678
-1.8167 7.6232 -2.3461 0.9678
-2.4867 7.4275 -2.3449 0.9678
-3.1364 7.1732 -2.3438 0.9678
-3.7607 6.8624 -2.3427 0.9679
-5.4337 5.6184 -2.3400 0.9679
-6.6583 4.7924 -2.4560 0.9663
-7.5025 3.5837 -2.4892 0.9659
-7.7906 2.9013 -2.4889 0.9659
-8.0173 2.1962 -2.4887 0.9659
-8.1808 1.4739 -2.4886 0.9659
-8.2797 0.7399 -2.4886 0.9659
-3.7563 -0.0000 -1.1929 0.9844
-3.2843 -0.5917 -1.0598 0.9861
-7.0812 -3.3824 -2.4923 0.9676
-6.3737 -4.5875 -2.4940 0.9676
-5.9425 -5.1387 -2.4950 0.9676
-4.9416 -6.1163 -2.4972 0.9675
-4.3797 -6.5349 -2.4984 0.9675
-3.7825 -6.9023 -2.4996 0.9675
-3.1548 -7.2153 -2.5009 0.9675
-2.5014 -7.4713 -2.5022 0.9675
-1.8275 -7.6684 -2.5036 0.9675
0.9657 -7.8406 -2.5089 0.9674
1.6605 -7.7275 -2.5102 0.9674
3.0072 -7.3177 -2.5126 0.9673
6.7315 -4.1924 -2.5185 0.9673
7.3705 -2.9334 -2.5193 0.9673
7.6030 -2.2659 -2.5196 0.9673
7.7748 -1.5803 -2.5196 0.9673
7.6927 1.9241 -2.5183 0.9673
6.7862 3.0578 -2.3639 0.9692
5.7311 4.7369 -2.3613 0.9693
3.7108 6.4272 -2.3570 0.9693
1.8779 7.1679 -2.3533 0.9694
-0.7401 7.3570 -2.3483 0.9694
-1.3913 7.2582 -2.3471 0.9695
-2.0308 7.1021 -2.3459 0.9695
-2.6536 6.8899 -2.3448 0.9695
-3.2549 6.6235 -2.3438 0.9695
-3.8299 6.3048 -2.3428 0.9695
-4.8834 5.5218 -2.3411 0.9695
-5.3539 5.0637 -2.3403 0.9695
-5.9142 4.6704 -2.3933 0.9689
-7.2179 3.0607 -2.4899 0.9676
-7.4610 2.4059 -2.4896 0.9676
-7.6451 1.7322 -2.4895 0.9676
-7.7689 1.0448 -2.4895 0.9676
-3.4557 -0.1541 -1.0986 0.9856
-7.2238 -3.0631 -2.4919 0.9676
-6.9246 -3.6950 -2.4927 0.9676
-5.7089 -5.3994 -2.4955 0.9676
-5.2079 -5.8887 -2.4966 0.9675
-4.6653 -6.3318 -2.4978 0.9675
-4.0852 -6.7252 -2.4990 0.9675
-0.7897 -7.8499 -2.5056 0.9674
-0.0879 -7.8932 -2.5069 0.9674
0.6153 -7.8738 -2.5082 0.9674
1.3143 -7.7918 -2.5095 0.9674
2.0036 -7.6477 -2.5108 0.9674
2.6776 -7.4426 -2.5120 0.9673
4.5546 -6.4790 -2.5152 0.9673
5.6351 -5.5727 -2.5169 0.9673
6.5374 -4.4876 -2.5183 0.9673
7.4943 -2.6022 -2.5195 0.9673
7.8375 -1.2324 -2.5197 0.9673
7.9158 -0.5299 -2.5196 0.9673
7.9309 0.1768 -2.5194 0.9673
7.8827 0.8818 -2.5190 0.9673
7.7716 1.5797 -2.5186 0.9673
6.6422 3.3565 -2.3635 0.9692
5.9376 4.4778 -2.3618 0.9693
5.5132 4.9864 -2.3608 0.9693
5.0453 5.4549 -2.3598 0.9693
3.9944 6.2571 -2.3575 0.9693
3.4199 6.5845 -2.3564 0.9693
0.9050 7.3484 -2.3514 0.9694
-0.4118 7.3846 -2.3489 0.9694
-1.0668 7.3149 -2.3477 0.9695
-2.9572 6.7634 -2.3443 0.9695
-4.6334 5.7348 -2.3415 0.9695
-7.8079 0.6977 -2.4895 0.9676
-3.6184 -0.0000 -1.2157 0.9848
-3.1483 -0.5672 -1.0748 0.9866
-3.1349 -0.8588 -1.0921 0.9864
-6.9514 -2.5887 -2.4922 0.9692
-6.6952 -3.1980 -2.4929 0.9692
-6.3860 -3.7824 -2.4937 0.9692
-6.0261 -4.3373 -2.4946 0.9692
-2.9823 -6.8207 -2.5011 0.9691
-2.3646 -7.0626 -2.5024 0.9691
0.9127 -7.4106 -2.5086 0.9690
1.5694 -7.3034 -2.5098 0.9690
3.4477 -6.6381 -2.5132 0.9689
4.5735 -5.9260 -2.5151 0.9689
5.0845 -5.4972 -2.5159 0.9689
5.5552 -5.0244 -2.5166 0.9689
5.9819 -4.5111 -2.5172 0.9689
6.6895 -3.3804 -2.5182 0.9689
6.9647 -2.7719 -2.5185 0.9689
7.1843 -2.1412 -2.5187 0.9689
7.3467 -1.4932 -2.5188 0.9689
7.4503 -0.8334 -2.5188 0.9689
7.4789 0.5007 -2.5184 0.9689
7.4036 1.1642 -2.5180 0.9689
6.4128 2.8895 -2.3632 0.9708
5.7952 3.9781 -2.3617 0.9708
4.9941 4.9388 -2.3599 0.9708
4.0358 5.7410 -2.3578 0.9708
1.7750 6.7753 -2.3532 0.9709
-0.0779 6.9929 -2.3496 0.9709
-0.6997 6.9548 -2.3485 0.9709
-1.3153 6.8616 -2.3473 0.9709
-2.5087 6.5138 -2.3452 0.9710
-3.0772 6.2620 -2.3442 0.9710
-3.6209 5.9609 -2.3433 0.9710
-4.1356 5.6129 -2.3424 0.9710
-5.0621 4.7877 -2.3410 0.9710
-5.8209 4.5968 -2.4920 0.9692
-6.8249 2.8940 -2.4907 0.9692
-7.0547 2.2749 -2.4904 0.9692
-7.2288 1.6379 -2.4903 0.9692
-4.1559 0.1853 -1.3977 0.9826
-3.1639 -0.4255 -1.0726 0.9866
-3.1355 -0.7104 -1.0802 0.9865
-3.1418 -1.0131 -1.1091 0.9862
-6.5471 -3.4937 -2.4933 0.9692
-5.8280 -4.6023 -2.4950 0.9691
-5.3973 -5.1047 -2.4960 0.9691
-4.9236 -5.5672 -2.4970 0.9691
-3.2824 -6.6794 -2.5005 0.9691
-2.6762 -6.9485 -2.5017 0.9691
-0.0831 -7.4606 -2.5068 0.9690
1.2422 -7.3643 -2.5093 0.9690
1.8936 -7.2280 -2.5104 0.9690
2.5306 -7.0339 -2.5116 0.9689
3.1480 -6.7837 -2.5127 0.9689
4.3042 -6.1228 -2.5146 0.9689
6.8339 -3.0792 -2.5184 0.9689
7.0816 -2.4590 -2.5186 0.9689
7.4059 -1.1645 -2.5188 0.9689
7.4942 0.1670 -2.5185 0.9689
7.1803 2.1399 -2.5173 0.9689
6.2768 3.1718 -2.3629 0.9708
4.2885 5.5568 -2.3583 0.9708
2.6643 6.4831 -2.3550 0.9709
2.0756 6.6912 -2.3538 0.9709
1.4711 6.8459 -2.3526 0.9709
0.2338 6.9912 -2.3502 0.9709
-2.2165 6.6205 -2.3457 0.9710
-2.7958 6.3942 -2.3447 0.9710
-3.3524 6.1174 -2.3437 0.9710
-3.8821 5.7926 -2.3429 0.9710
-5.2874 4.5722 -2.3485 0.9709
-6.3797 3.7787 -2.4912 0.9692
-6.6896 3.1954 -2.4908 0.9692
-3.0930 -0.2764 -1.1011 0.9869
-3.0442 -0.5484 -1.0968 0.9870
-3.0229 -0.8281 -1.1114 0.9868
-3.0314 -1.1289 -1.1470 0.9864
-6.3455 -3.0310 -2.4935 0.9706
-5.7111 -4.1106 -2.4951 0.9706
-4.8954 -5.0618 -2.4969 0.9706
-4.4273 -5.4797 -2.4980 0.9705
-2.8260 -6.4633 -2.5013 0.9705
-2.2406 -6.6923 -2.5025 0.9705
-1.6368 -6.8684 -2.5037 0.9705
-1.0195 -6.9902 -2.5049 0.9705
-0.3935 -7.0566 -2.5061 0.9705
0.2363 -7.0670 -2.5073 0.9704
1.4869 -6.9195 -2.5096 0.9704
3.2663 -6.2887 -2.5127 0.9704
4.8166 -5.2076 -2.5153 0.9703
6.0256 -3.7527 -2.5171 0.9703
6.8053 -2.0282 -2.5180 0.9703
7.0992 -0.1582 -2.5179 0.9703
7.0845 0.4743 -2.5177 0.9703
6.8860 1.7223 -2.5169 0.9703
6.0749 2.7372 -2.3626 0.9721
5.4899 3.7686 -2.3612 0.9721
3.8236 5.4391 -2.3575 0.9722
2.7961 6.0254 -2.3554 0.9722
1.6819 6.4196 -2.3531 0.9722
0.5165 6.6098 -2.3509 0.9723
-0.0738 6.6263 -2.3498 0.9723
-0.6630 6.5904 -2.3487 0.9723
-2.3775 6.1729 -2.3456 0.9723
-2.9163 5.9345 -2.3446 0.9723
-3.4316 5.6492 -2.3438 0.9723
-3.9195 5.3196 -2.3429 0.9723
-4.3760 4.9480 -2.3422 0.9724
-5.5169 4.3567 -2.4927 0.9706
-5.8816 3.8476 -2.4921 0.9706
-6.1997 3.3082 -2.4917 0.9706
-6.4687 2.7429 -2.4914 0.9706
-6.6865 2.1562 -2.4912 0.9706
-6.9626 0.9364 -2.4911 0.9706
-3.9464 0.1760 -1.4007 0.9834
-3.0595 -0.4115 -1.0946 0.9870
-3.0191 -0.9735 -1.1248 0.9866
-6.4733 -2.7449 -2.4932 0.9706
-6.2051 -3.3111 -2.4939 0.9706
-5.8876 -3.8514 -2.4947 0.9706
-5.1150 -4.8378 -2.4964 0.9706
-4.6660 -5.2759 -2.4974 0.9706
-3.6598 -6.0248 -2.4996 0.9705
-3.1104 -6.3295 -2.5007 0.9705
-2.5359 -6.5843 -2.5019 0.9705
-0.0787 -7.0688 -2.5067 0.9704
0.5510 -7.0511 -2.5078 0.9704
1.1769 -6.9773 -2.5090 0.9704
3.5438 -6.1381 -2.5132 0.9704
4.0775 -5.8004 -2.5141 0.9704
4.5791 -5.4162 -2.5149 0.9703
5.4699 -4.5209 -2.5163 0.9703
5.8518 -4.0170 -2.5168 0.9703
6.1873 -3.4809 -2.5173 0.9703
6.4734 -2.9168 -2.5176 0.9703
6.8891 -1.7231 -2.5180 0.9703
7.0853 -0.4743 -2.5180 0.9703
7.0989 0.1582 -2.5178 0.9703
7.0558 0.7893 -2.5175 0.9703
6.2460 2.4858 -2.3837 0.9719
5.9461 3.0047 -2.3623 0.9721
5.6533 3.5209 -2.3616 0.9721
3.5767 5.6028 -2.3570 0.9722
3.0624 5.8962 -2.3559 0.9722
1.9666 6.3398 -2.3537 0.9722
0.8106 6.5818 -2.3514 0.9722
0.2215 6.6247 -2.3503 0.9723
-0.3688 6.6149 -2.3492 0.9723
-0.9557 6.5528 -2.3481 0.9723
-1.5345 6.4389 -2.3471 0.9723
-3.6792 5.4898 -2.3433 0.9723
-4.5914 4.7475 -2.3419 0.9724
-5.2479 4.5380 -2.4601 0.9710
-5.7049 4.1062 -2.4924 0.9706
-6.0466 3.5814 -2.4919 0.9706
-6.3404 3.0286 -2.4915 0.9706
-6.7758 1.8561 -2.4911 0.9706
-6.9139 1.2456 -2.4910 0.9706
-6.9975 0.6253 -2.4911 0.9706
-3.3741 0.0000 -1.2599 0.9857
-2.9938 -0.2675 -1.1224 0.9872
-5.4242 -3.9041 -2.4956 0.9719
-5.0569 -4.3729 -2.4964 0.9719
-4.6493 -4.8073 -2.4973 0.9718
-3.2180 -5.8721 -2.5004 0.9718
-2.1277 -6.3552 -2.5026 0.9718
-0.9681 -6.6378 -2.5048 0.9718
0.2244 -6.7104 -2.5071 0.9717
0.8211 -6.6667 -2.5082 0.9717
1.4118 -6.5700 -2.5093 0.9717
1.9918 -6.4209 -2.5104 0.9717
3.1011 -5.9706 -2.5123 0.9717
4.1134 -5.3298 -2.5140 0.9717
4.9959 -4.5186 -2.5154 0.9716
5.7203 -3.5626 -2.5164 0.9716
6.6065 -1.3428 -2.5174 0.9716
6.6997 -0.7495 -2.5174 0.9716
6.7395 -0.1502 -2.5172 0.9716
6.7255 0.4503 -2.5170 0.9716
6.5372 1.6351 -2.5163 0.9716
6.3644 2.2100 -2.5157 0.9716
5.7672 2.5987 -2.3621 0.9734
5.5116 3.1008 -2.3614 0.9734
4.4921 4.4423 -2.3591 0.9734
4.0773 4.8227 -2.3582 0.9734
3.6304 5.1643 -2.3572 0.9734
2.1342 5.9322 -2.3541 0.9734
1.5970 6.0959 -2.3531 0.9735
-0.0701 6.2926 -2.3499 0.9735
-0.6296 6.2586 -2.3488 0.9735
-1.7278 6.0427 -2.3468 0.9735
-2.2579 5.8626 -2.3459 0.9735
-3.7226 5.0524 -2.3434 0.9736
-4.7030 4.4481 -2.4172 0.9727
-5.8886 3.1423 -2.4924 0.9719
-3.7910 0.1690 -1.4170 0.9839
-6.1484 -2.6071 -2.4938 0.9719
-5.8935 -3.1448 -2.4944 0.9719
-5.5919 -3.6580 -2.4952 0.9719
-5.2458 -4.1425 -2.4960 0.9719
-4.8580 -4.5946 -2.4968 0.9719
-4.4314 -5.0106 -2.4978 0.9718
-3.9694 -5.3873 -2.4988 0.9718
-3.4756 -5.7216 -2.4998 0.9718
-0.0748 -6.7121 -2.5066 0.9717
0.5232 -6.6952 -2.5077 0.9717
1.1175 -6.6249 -2.5088 0.9717
1.7034 -6.5020 -2.5098 0.9717
2.8315 -6.1017 -2.5118 0.9717
5.1929 -4.2920 -2.5157 0.9716
5.8738 -3.3046 -2.5166 0.9716
6.1455 -2.7690 -2.5170 0.9716
6.3681 -2.2113 -2.5172 0.9716
6.6597 -1.0472 -2.5174 0.9716
6.7263 -0.4503 -2.5173 0.9716
6.6984 0.7494 -2.5169 0.9716
6.6041 1.3424 -2.5165 0.9716
5.6451 2.8526 -2.3618 0.9734
5.3672 3.3427 -2.3611 0.9734
1.8674 6.0200 -2.3536 0.9734
0.2103 6.2909 -2.3504 0.9735
-0.3503 6.2819 -2.3493 0.9735
-0.9076 6.2230 -2.3483 0.9735
-3.0175 5.5062 -2.3446 0.9735
-3.4944 5.2140 -2.3438 0.9736
-4.3609 4.5092 -2.3424 0.9736
-5.0511 4.3679 -2.4935 0.9719
-5.7432 3.4018 -2.4925 0.9719
-6.4359 1.7630 -2.4918 0.9719
-4.2614 0.3808 -1.5976 0.9819
-2.9005 -0.2592 -1.1429 0.9876
-2.8518 -0.5138 -1.1373 0.9876
-2.8528 -1.0624 -1.1947 0.9870
-5.7354 -2.7396 -2.4946 0.9731
-5.4702 -3.2400 -2.4952 0.9731
-5.1617 -3.7151 -2.4960 0.9730
-4.8121 -4.1612 -2.4968 0.9730
-4.0009 -4.9520 -2.4986 0.9730
-2.5535 -5.8401 -2.5016 0.9730
-0.3555 -6.3751 -2.5059 0.9729
1.3431 -6.2503 -2.5091 0.9729
1.8949 -6.1084 -2.5101 0.9729
2.4319 -5.9177 -2.5110 0.9729
3.9129 -5.0700 -2.5135 0.9729
4.3498 -4.7029 -2.5142 0.9728
4.7523 -4.2982 -2.5149 0.9728
5.4413 -3.3888 -2.5159 0.9728
5.9574 -2.3710 -2.5165 0.9728
6.1452 -1.8314 -2.5167 0.9728
6.2841 -1.2772 -2.5167 0.9728
6.4106 -0.1428 -2.5166 0.9728
6.3331 0.9958 -2.5161 0.9728
6.0540 2.1022 -2.5152 0.9728
5.2429 2.9496 -2.3610 0.9745
4.9582 3.4036 -2.3603 0.9745
4.6341 3.8302 -2.3595 0.9745
3.8788 4.5879 -2.3579 0.9745
3.4537 4.9130 -2.3570 0.9745
0.4667 5.9721 -2.3510 0.9746
-0.5991 5.9551 -2.3490 0.9746
-1.6441 5.7498 -2.3471 0.9746
-2.1485 5.5786 -2.3462 0.9746
-3.1014 5.1057 -2.3446 0.9747
-3.5424 4.8079 -2.3438 0.9747
-4.6174 4.3671 -2.4943 0.9731
-5.3164 3.4779 -2.4933 0.9731
-5.6040 2.9904 -2.4929 0.9731
-5.8472 2.4795 -2.4927 0.9731
-6.2937 0.8464 -2.4923 0.9731
-3.0071 -0.1341 -1.1814 0.9871
-2.8734 -0.3864 -1.1379 0.9876
-2.8326 -0.6418 -1.1399 0.9876
-2.8403 -0.9159 -1.1712 0.9873
-2.8717 -1.2177 -1.2242 0.9867
-5.3213 -3.4810 -2.4956 0.9730
-4.2168 -4.7679 -2.4981 0.9730
-3.7771 -5.1263 -2.4991 0.9730
-2.8106 -5.7193 -2.5011 0.9730
-2.2913 -5.9493 -2.5021 0.9730
0.4977 -6.3696 -2.5075 0.9729
1.0631 -6.3027 -2.5086 0.9729
2.1655 -6.0191 -2.5105 0.9729
3.2007 -5.5437 -2.5123 0.9729
3.6826 -5.2385 -2.5131 0.9729
4.1354 -4.8914 -2.5139 0.9729
4.5556 -4.5051 -2.5146 0.9728
5.8456 -2.6339 -2.5164 0.9728
6.3347 -0.9961 -2.5167 0.9728
6.3981 -0.4283 -2.5167 0.9728
6.4104 0.1429 -2.5165 0.9728
6.1423 1.8306 -2.5154 0.9728
5.1056 3.1798 -2.3607 0.9745
3.6699 4.7552 -2.3574 0.9745
2.2804 5.5490 -2.3545 0.9746
1.7767 5.7275 -2.3535 0.9746
0.2001 5.9856 -2.3505 0.9746
-2.3945 5.4763 -2.3458 0.9746
-3.3253 4.9617 -2.3442 0.9747
-4.2246 4.3682 -2.3850 0.9742
-4.8068 4.1566 -2.4941 0.9731
-5.1566 3.7115 -2.4935 0.9731
-5.4656 3.2373 -2.4931 0.9731
-5.7313 2.7376 -2.4928 0.9731
-5.9516 2.2164 -2.4925 0.9731
-6.1249 1.6778 -2.4924 0.9731
-6.2498 1.1260 -2.4923 0.9731
-4.1298 0.3690 -1.6273 0.9823
-3.1614 -0.0000 -1.3018 0.9864
-2.7695 -0.7587 -1.1825 0.9877
-5.2146 -3.0886 -2.4957 0.9741
-4.5871 -3.9666 -2.4972 0.9741
-4.2172 -4.3606 -2.4980 0.9741
-3.3797 -5.0429 -2.4998 0.9741
-2.4339 -5.5665 -2.5017 0.9741
-1.4095 -5.9147 -2.5038 0.9740
-0.3388 -6.0759 -2.5058 0.9740
0.2034 -6.0845 -2.5069 0.9740
1.8058 -5.8213 -2.5098 0.9740
2.8113 -5.4127 -2.5116 0.9740
3.7287 -4.8314 -2.5131 0.9739
4.1451 -4.4816 -2.5138 0.9739
5.1850 -3.2292 -2.5153 0.9739
5.6768 -2.2593 -2.5159 0.9739
5.8557 -1.7452 -2.5161 0.9739
5.9880 -1.2171 -2.5162 0.9739
6.0725 -0.6793 -2.5161 0.9739
6.1086 -0.1361 -2.5160 0.9739
6.0348 0.9489 -2.5155 0.9739
5.9255 1.4821 -2.5152 0.9739
5.5666 2.5082 -2.5141 0.9739
4.9962 2.8108 -2.3606 0.9755
4.7249 3.2435 -2.3599 0.9755
4.4161 3.6500 -2.3592 0.9755
4.0724 4.0272 -2.3584 0.9755
2.4073 5.1875 -2.3549 0.9756
0.4448 5.6921 -2.3510 0.9756
-0.0636 5.7068 -2.3501 0.9756
-1.0735 5.6006 -2.3482 0.9756
-2.0480 5.3176 -2.3465 0.9757
-3.3769 4.5831 -2.3442 0.9757
-4.4017 4.1631 -2.4948 0.9741
-5.0681 3.3154 -2.4938 0.9741
-5.3423 2.8507 -2.4935 0.9741
-6.0000 0.8070 -2.4929 0.9742
-2.9337 -0.1308 -1.2093 0.9874
-2.7756 -0.6289 -1.1719 0.9878
-2.7775 -0.8956 -1.2017 0.9875
-5.3463 -2.8529 -2.4954 0.9741
-4.4066 -4.1677 -2.4976 0.9741
-4.0195 -4.5449 -2.4984 0.9741
-3.1523 -5.1894 -2.5003 0.9741
-2.1840 -5.6706 -2.5022 0.9741
-1.1449 -5.9729 -2.5043 0.9740
-0.6090 -6.0536 -2.5053 0.9740
-0.0678 -6.0863 -2.5064 0.9740
2.0637 -5.7362 -2.5103 0.9740
3.5093 -4.9920 -2.5127 0.9739
4.3411 -4.2930 -2.5141 0.9739
4.7071 -3.8904 -2.5146 0.9739
5.0356 -3.4567 -2.5151 0.9739
5.3241 -2.9953 -2.5155 0.9739
5.5702 -2.5098 -2.5158 0.9739
6.0363 -0.9491 -2.5162 0.9739
6.0966 -0.4081 -2.5161 0.9739
6.1084 0.1362 -2.5159 0.9739
6.0714 0.6792 -2.5157 0.9739
4.5750 3.4502 -2.3596 0.9755
4.2484 3.8425 -2.3588 0.9755
3.0790 4.8232 -2.3563 0.9756
2.6365 5.0761 -2.3554 0.9756
0.6981 5.6678 -2.3515 0.9756
-0.3177 5.6971 -2.3496 0.9756
-1.3217 5.5462 -2.3478 0.9756
-3.1698 4.7297 -2.3446 0.9757
-4.2017 4.3445 -2.4888 0.9742
-4.5823 3.9625 -2.4945 0.9741
-4.9158 3.5382 -2.4941 0.9741
-5.2104 3.0862 -2.4936 0.9741
-2.7539 -0.2461 -1.1927 0.9880
-2.7278 -0.4914 -1.1956 0.9880
-2.7092 -0.7421 -1.2117 0.9878
-2.7300 -1.3040 -1.3050 0.9869
-4.0263 -4.1632 -2.4983 0.9751
-1.8421 -5.5020 -2.5028 0.9750
-1.3456 -5.6464 -2.5038 0.9750
1.7237 -5.5566 -2.5096 0.9750
2.2122 -5.3830 -2.5104 0.9750
2.6834 -5.1664 -2.5112 0.9750
3.1335 -4.9085 -2.5120 0.9750
3.5590 -4.6114 -2.5127 0.9749
3.9563 -4.2775 -2.5133 0.9749
4.6540 -3.5097 -2.5144 0.9749
4.9487 -3.0821 -2.5148 0.9749
5.4180 -2.1563 -2.5154 0.9749
5.7150 -1.1616 -2.5156 0.9749
5.7957 -0.6484 -2.5156 0.9749
5.8181 0.3895 -2.5153 0.9749
5.7597 0.9057 -2.5150 0.9749
5.5061 1.9120 -2.5142 0.9749
2.2979 4.9518 -2.3548 0.9765
1.8473 5.1347 -2.3539 0.9765
1.3824 5.2767 -2.3529 0.9765
0.9069 5.3766 -2.3520 0.9765
-0.5451 5.4189 -2.3493 0.9766
-1.4962 5.2325 -2.3475 0.9766
-1.9553 5.0768 -2.3467 0.9766
-2.3986 4.8810 -2.3460 0.9766
-3.2241 4.3758 -2.3446 0.9766
-3.7798 4.2739 -2.4611 0.9755
-4.2027 3.9749 -2.4953 0.9751
-4.5389 3.5844 -2.4948 0.9751
-4.8391 3.1656 -2.4943 0.9751
-3.3811 0.1508 -1.4599 0.9854
-2.8614 -0.1276 -1.2355 0.9876
-2.7402 -0.3685 -1.1926 0.9880
-2.7200 -0.6163 -1.2030 0.9879
-2.7166 -0.8760 -1.2313 0.9876
-5.1045 -2.7238 -2.4958 0.9751
-4.8431 -3.1682 -2.4964 0.9751
-4.2071 -3.9790 -2.4979 0.9751
-3.0095 -4.9543 -2.5004 0.9751
-2.0850 -5.4135 -2.5023 0.9750
-1.5955 -5.5797 -2.5033 0.9750
-1.0929 -5.7018 -2.5043 0.9750
-0.5813 -5.7787 -2.5053 0.9750
0.4528 -5.7948 -2.5072 0.9750
1.9698 -5.4753 -2.5100 0.9750
4.1434 -4.0975 -2.5136 0.9749
4.4926 -3.7132 -2.5142 0.9749
4.8061 -3.2992 -2.5146 0.9749
5.3164 -2.3954 -2.5153 0.9749
5.6576 -1.4150 -2.5156 0.9749
5.8300 0.1299 -2.5154 0.9749
5.7947 0.6483 -2.5152 0.9749
5.7133 1.1613 -2.5149 0.9749
5.5863 1.6649 -2.5145 0.9749
5.4150 2.1551 -2.5140 0.9749
5.2005 2.6279 -2.5134 0.9749
4.6438 2.8922 -2.3599 0.9764
4.3667 3.2931 -2.3592 0.9765
4.0551 3.6677 -2.3585 0.9765
2.9390 4.6040 -2.3561 0.9765
2.5167 4.8455 -2.3552 0.9765
2.0746 5.0483 -2.3543 0.9765
0.1821 5.4463 -2.3506 0.9765
-0.7858 5.3882 -2.3488 0.9766
-1.2618 5.2949 -2.3480 0.9766
-1.7275 5.1598 -2.3471 0.9766
-2.1791 4.9838 -2.3463 0.9766
-3.0264 4.5157 -2.3449 0.9766
-3.4243 4.2383 -2.3504 0.9765
-4.0219 4.1586 -2.4955 0.9751
-4.9749 2.9467 -2.4941 0.9751
-5.2168 2.4919 -2.4938 0.9751
-5.4174 2.0175 -2.4936 0.9751
-5.5751 1.5272 -2.4935 0.9751
-2.9980 -0.0000 -1.3528 0.9869
-2.6738 -0.4817 -1.2259 0.9881
-2.6546 -0.7272 -1.2419 0.9880
-2.6666 -1.2737 -1.3334 0.9871
-2.6867 -1.5914 -1.4090 0.9864
-4.4916 -3.2329 -2.4971 0.9760
-3.8495 -3.9804 -2.4985 0.9760
-3.4811 -4.3086 -2.4993 0.9760
-3.0848 -4.6029 -2.5002 0.9760
-2.6638 -4.8609 -2.5011 0.9760
-1.7611 -5.2600 -2.5029 0.9760
-1.2864 -5.3979 -2.5038 0.9759
-0.8011 -5.4930 -2.5048 0.9759
-0.3092 -5.5446 -2.5057 0.9759
0.6793 -5.5157 -2.5076 0.9759
1.1680 -5.4353 -2.5085 0.9759
1.6477 -5.3115 -2.5093 0.9759
2.1146 -5.1455 -2.5102 0.9759
4.1314 -3.7366 -2.5135 0.9759
4.4484 -3.3547 -2.5140 0.9758
4.7301 -2.9459 -2.5144 0.9758
5.1786 -2.0610 -2.5149 0.9758
5.5395 -0.6197 -2.5151 0.9758
5.5725 -0.1242 -2.5150 0.9758
5.5610 0.3723 -2.5148 0.9758
5.5052 0.8657 -2.5146 0.9758
5.4056 1.3521 -2.5142 0.9758
5.2629 1.8275 -2.5138 0.9758
5.0783 2.2882 -2.5133 0.9759
4.8313 2.7181 -2.5013 0.9760
4.0291 3.3301 -2.3586 0.9773
1.7660 4.9086 -2.3538 0.9774
1.3216 5.0444 -2.3529 0.9774
0.4059 5.1948 -2.3511 0.9774
-0.0580 5.2084 -2.3503 0.9774
-0.5212 5.1807 -2.3494 0.9774
-1.4304 5.0026 -2.3477 0.9774
-2.2933 4.6667 -2.3462 0.9774
-2.6988 4.4428 -2.3455 0.9774
-4.3398 3.4272 -2.4952 0.9760
-4.6269 3.0268 -2.4948 0.9760
-5.0891 2.1579 -2.4942 0.9760
-5.3905 1.2213 -2.4939 0.9760
-3.2609 0.1454 -1.4728 0.9858
-2.6870 -0.3614 -1.2234 0.9882
-2.6659 -0.6040 -1.2334 0.9881
-4.8806 -2.6044 -2.4961 0.9760
-4.6306 -3.0292 -2.4968 0.9760
-4.0224 -3.8044 -2.4982 0.9760
-3.6690 -4.1485 -2.4989 0.9760
-2.8772 -4.7365 -2.5006 0.9760
-1.5253 -5.3343 -2.5034 0.9759
0.4329 -5.5395 -2.5071 0.9759
0.9245 -5.4809 -2.5080 0.9759
1.4092 -5.3788 -2.5089 0.9759
1.8830 -5.2337 -2.5098 0.9759
2.3421 -5.0470 -2.5106 0.9759
2.7828 -4.8200 -2.5113 0.9759
3.2017 -4.5544 -2.5120 0.9759
4.2941 -3.5492 -2.5137 0.9758
5.0814 -2.2896 -2.5148 0.9758
5.4075 -1.3525 -2.5151 0.9758
5.5065 -0.8658 -2.5151 0.9758
5.5616 -0.3723 -2.5151 0.9758
5.5386 0.6196 -2.5147 0.9758
5.4608 1.1100 -2.5144 0.9758
5.3395 1.5914 -2.5140 0.9758
4.9708 2.5119 -2.5130 0.9759
4.1740 3.1478 -2.3589 0.9773
3.1911 4.1349 -2.3567 0.9773
2.4058 4.6319 -2.3551 0.9774
1.9832 4.8259 -2.3542 0.9774
-0.2899 5.1997 -2.3498 0.9774
-2.8936 4.3176 -2.3452 0.9774
-4.7568 2.8175 -2.4946 0.9760
-5.1799 1.9291 -2.4941 0.9760
-5.3308 1.4603 -2.4940 0.9760
-5.4395 0.9800 -2.4939 0.9760
-3.7666 0.3366 -1.7063 0.9835
-2.6212 -0.4722 -1.2555 0.9883
-2.6016 -0.7127 -1.2715 0.9881
-2.6023 -0.9691 -1.3090 0.9878
-2.6052 -1.2444 -1.3609 0.9873
-4.3001 -3.0950 -2.4974 0.9768
-3.3325 -4.1247 -2.4996 0.9768
-1.6858 -5.0352 -2.5030 0.9768
-0.7669 -5.2581 -2.5048 0.9768
0.6502 -5.2795 -2.5075 0.9768
1.1179 -5.2025 -2.5083 0.9767
2.0240 -4.9249 -2.5099 0.9767
2.4550 -4.7267 -2.5107 0.9767
3.2559 -4.2188 -2.5120 0.9767
3.6193 -3.9132 -2.5126 0.9767
3.9541 -3.5762 -2.5131 0.9767
4.5270 -2.8194 -2.5139 0.9767
4.7605 -2.4056 -2.5142 0.9767
4.9562 -1.9725 -2.5145 0.9767
5.2279 -1.0626 -2.5147 0.9767
5.3222 0.3563 -2.5144 0.9767
5.2689 0.8285 -2.5141 0.9767
5.1735 1.2940 -2.5138 0.9767
4.8604 2.1900 -2.5129 0.9767
3.2282 3.8183 -2.3569 0.9781
1.2650 4.8286 -2.3529 0.9782
0.8299 4.9202 -2.3520 0.9782
0.3886 4.9728 -2.3512 0.9782
-0.9380 4.8936 -2.3487 0.9782
-1.3694 4.7891 -2.3479 0.9782
-2.1955 4.4676 -2.3465 0.9782
-2.5836 4.2533 -2.3458 0.9782
-4.1549 3.2811 -2.4956 0.9769
-4.6695 2.4918 -2.4949 0.9769
-4.8723 2.0661 -2.4946 0.9769
-5.0365 1.6241 -2.4945 0.9769
-5.1609 1.1693 -2.4944 0.9769
-2.7082 -0.1208 -1.2778 0.9881
-2.5994 -0.8382 -1.2874 0.9880
-2.6038 -1.1041 -1.3332 0.9876
-2.5902 -1.3822 -1.3839 0.9871
-4.4331 -2.9000 -2.4971 0.9768
-4.1585 -3.2839 -2.4977 0.9768
-3.8508 -3.6420 -2.4984 0.9768
-3.5124 -3.9715 -2.4992 0.9768
-2.7543 -4.5343 -2.5008 0.9768
-2.3406 -4.7630 -2.5016 0.9768
-1.9081 -4.9542 -2.5025 0.9768
-1.0002 -5.2178 -2.5043 0.9768
0.8849 -5.2462 -2.5079 0.9767
1.8023 -5.0095 -2.5095 0.9767
2.6635 -4.6133 -2.5110 0.9767
4.3966 -3.0181 -2.5138 0.9767
4.8632 -2.1912 -2.5144 0.9767
5.0393 -1.7498 -2.5146 0.9767
5.1753 -1.2944 -2.5147 0.9767
5.2700 -0.8286 -2.5147 0.9767
5.3227 -0.3563 -2.5146 0.9767
5.2264 1.0623 -2.5140 0.9767
4.7575 2.4041 -2.5127 0.9767
3.7100 3.3555 -2.3580 0.9781
3.3956 3.6713 -2.3573 0.9781
3.0544 3.9577 -2.3565 0.9781
2.6891 4.2125 -2.3558 0.9781
1.8983 4.6194 -2.3541 0.9782
1.0485 4.8792 -2.3524 0.9782
0.1666 4.9842 -2.3508 0.9782
-0.7192 4.9313 -2.3491 0.9782
-3.6816 3.8067 -2.4963 0.9769
-4.0050 3.4632 -2.4958 0.9769
-4.2966 3.0925 -2.4954 0.9769
-5.1037 1.3981 -2.4944 0.9769
-2.8280 0.0000 -1.3909 0.9875
-2.5457 -1.2160 -1.3876 0.9875
-4.3682 -2.5873 -2.4971 0.9776
-4.1215 -2.9665 -2.4977 0.9776
-2.8304 -4.2232 -2.5005 0.9776
-2.4440 -4.4597 -2.5014 0.9776
-1.6156 -4.8257 -2.5030 0.9776
-1.1801 -4.9520 -2.5039 0.9776
-0.7349 -5.0391 -2.5048 0.9776
1.5113 -4.8720 -2.5089 0.9775
2.3526 -4.5295 -2.5104 0.9775
3.4682 -3.7497 -2.5123 0.9775
3.7889 -3.4269 -2.5128 0.9775
4.3378 -2.7016 -2.5135 0.9775
4.5616 -2.3051 -2.5138 0.9775
4.7491 -1.8901 -2.5141 0.9775
4.8987 -1.4600 -2.5142 0.9775
5.0094 -1.0182 -2.5143 0.9775
5.0998 0.3414 -2.5140 0.9775
5.0487 0.7939 -2.5137 0.9775
4.9574 1.2399 -2.5134 0.9775
4.8266 1.6760 -2.5130 0.9775
4.4512 2.5043 -2.5120 0.9775
4.1464 2.8464 -2.4738 0.9778
3.4079 3.3702 -2.3574 0.9789
3.0935 3.6590 -2.3567 0.9789
2.7547 3.9187 -2.3560 0.9789
0.3724 4.7658 -2.3512 0.9789
-0.8990 4.6901 -2.3488 0.9789
-1.3125 4.5900 -2.3481 0.9789
-2.4765 4.0767 -2.3461 0.9790
-3.0119 4.0879 -2.4975 0.9776
-3.3631 3.8027 -2.4969 0.9776
-3.6874 3.4876 -2.4964 0.9776
-4.4758 2.3884 -2.4953 0.9776
-3.0630 0.1366 -1.5081 0.9864
-2.6467 -0.1180 -1.3031 0.9883
-2.5616 -0.5804 -1.2919 0.9884
-2.5430 -0.8200 -1.3142 0.9882
-2.5441 -1.0788 -1.3592 0.9878
-4.2491 -2.7796 -2.4974 0.9776
-3.6908 -3.4908 -2.4987 0.9776
-3.0152 -4.0922 -2.5002 0.9776
-2.6398 -4.3457 -2.5009 0.9776
-2.2433 -4.5650 -2.5018 0.9776
-1.8287 -4.7481 -2.5026 0.9776
-1.3993 -4.8937 -2.5035 0.9776
-0.9585 -5.0005 -2.5043 0.9776
-0.0568 -5.0948 -2.5061 0.9775
0.3971 -5.0813 -2.5069 0.9775
0.8480 -5.0275 -2.5077 0.9775
1.2926 -4.9337 -2.5085 0.9775
2.1481 -4.6291 -2.5101 0.9775
2.5523 -4.4208 -2.5107 0.9775
2.9364 -4.1771 -2.5114 0.9775
3.6321 -3.5919 -2.5125 0.9775
4.4542 -2.5058 -2.5137 0.9775
4.9590 -1.2403 -2.5142 0.9775
5.1003 -0.3414 -2.5142 0.9775
5.0793 0.5682 -2.5139 0.9775
4.8968 1.4594 -2.5132 0.9775
4.3348 2.6997 -2.5118 0.9775
3.5551 3.2155 -2.3577 0.9789
3.2539 3.5181 -2.3571 0.9789
2.5770 4.0368 -2.3556 0.9789
2.2068 4.2488 -2.3548 0.9789
0.5844 4.7453 -2.3516 0.9789
-1.1069 4.6447 -2.3485 0.9789
-1.5154 4.5263 -2.3477 0.9789
-2.2971 4.1917 -2.3510 0.9789
-4.1183 2.9642 -2.4957 0.9776
-4.3652 2.5855 -2.4954 0.9776
-4.5775 2.1865 -2.4951 0.9776
-4.7536 1.7703 -2.4949 0.9776
-4.9918 0.8993 -2.4948 0.9776
-3.6334 0.3247 -1.7942 0.9839
-2.7481 -0.0000 -1.4089 0.9877
-2.5372 -0.2267 -1.3059 0.9886
-2.4895 -0.9271 -1.3619 0.9881
-3.3890 -3.5042 -2.4993 0.9783
-1.5501 -4.6299 -2.5031 0.9783
-1.1322 -4.7510 -2.5039 0.9783
-0.7051 -4.8345 -2.5048 0.9783
-0.2721 -4.8797 -2.5056 0.9783
0.1634 -4.8862 -2.5064 0.9783
1.8606 -4.5275 -2.5095 0.9782
3.3269 -3.5970 -2.5119 0.9782
3.6346 -3.2873 -2.5124 0.9782
4.1611 -2.5915 -2.5132 0.9782
4.3757 -2.2111 -2.5135 0.9782
4.5556 -1.8130 -2.5137 0.9782
4.6991 -1.4004 -2.5138 0.9782
4.8730 -0.5451 -2.5138 0.9782
4.9020 -0.1092 -2.5138 0.9782
4.8430 0.7615 -2.5134 0.9782
4.7554 1.1894 -2.5130 0.9782
4.4677 2.0131 -2.5122 0.9782
4.0383 2.7722 -2.5112 0.9782
3.2692 3.2330 -2.3572 0.9795
2.9677 3.5102 -2.3565 0.9796
2.6427 3.7593 -2.3558 0.9796
1.9331 4.1657 -2.3543 0.9796
1.5541 4.3198 -2.3536 0.9796
1.1631 4.4395 -2.3528 0.9796
0.7631 4.5239 -2.3520 0.9796
0.3573 4.5723 -2.3512 0.9796
-0.0511 4.5845 -2.3505 0.9796
-0.4588 4.5603 -2.3497 0.9796
-0.8626 4.4999 -2.3490 0.9796
-1.2593 4.4040 -2.3483 0.9796
-2.0190 4.1086 -2.3469 0.9796
-2.4557 4.0426 -2.4249 0.9790
-3.5382 3.3464 -2.4967 0.9783
-3.8213 3.0177 -2.4963 0.9784
-4.0742 2.6652 -2.4959 0.9784
-4.2947 2.2917 -2.4956 0.9784
-4.8236 0.6487 -2.4952 0.9784
-2.5877 -0.1154 -1.3280 0.9884
-2.5350 -0.3410 -1.3113 0.9886
-4.0770 -2.6671 -2.4977 0.9783
-2.8930 -3.9264 -2.5003 0.9783
-2.1523 -4.3798 -2.5019 0.9783
-0.0544 -4.8878 -2.5060 0.9783
0.3809 -4.8748 -2.5068 0.9783
0.8136 -4.8231 -2.5076 0.9783
2.0607 -4.4407 -2.5098 0.9782
3.4842 -3.4456 -2.5122 0.9782
3.7777 -3.1224 -2.5126 0.9782
4.2727 -2.4037 -2.5133 0.9782
4.6319 -1.6084 -2.5137 0.9782
4.8924 -0.3275 -2.5138 0.9782
4.9019 0.1092 -2.5137 0.9782
4.8040 0.9764 -2.5132 0.9782
4.5534 1.8122 -2.5125 0.9782
4.3732 2.2099 -2.5120 0.9782
2.4722 3.8727 -2.3555 0.9796
2.1171 4.0761 -2.3547 0.9796
1.7453 4.2470 -2.3540 0.9796
0.9640 4.4862 -2.3524 0.9796
-0.2552 4.5770 -2.3501 0.9796
-0.6613 4.5346 -2.3493 0.9796
-1.4540 4.3428 -2.3479 0.9796
-2.2034 4.0207 -2.3505 0.9796
-2.7127 4.0477 -2.4980 0.9783
-3.9517 2.8443 -2.4961 0.9784
-4.1886 2.4810 -2.4958 0.9784
-4.6942 1.2859 -2.4952 0.9784
-4.7899 0.8630 -2.4952 0.9784
-2.6714 -0.0000 -1.4261 0.9880
-2.4853 -0.2221 -1.3321 0.9887
-2.4352 -0.9069 -1.3872 0.9883
-2.4292 -1.1604 -1.4371 0.9879
-3.7982 -2.7337 -2.4982 0.9790
-3.5406 -3.0617 -2.4988 0.9790
-3.2549 -3.3655 -2.4995 0.9790
-2.9432 -3.6429 -2.5001 0.9790
-2.2520 -4.1094 -2.5016 0.9790
-1.8779 -4.2948 -2.5024 0.9790
-1.0873 -4.5626 -2.5039 0.9790
-0.6771 -4.6428 -2.5047 0.9790
-0.2613 -4.6861 -2.5055 0.9789
0.1569 -4.6922 -2.5063 0.9789
0.9870 -4.5929 -2.5079 0.9789
2.1671 -4.1724 -2.5099 0.9789
2.8739 -3.7238 -2.5111 0.9789
3.4900 -3.1565 -2.5121 0.9789
3.7577 -2.8338 -2.5125 0.9789
3.9955 -2.4884 -2.5128 0.9789
4.2016 -2.1231 -2.5131 0.9789
4.3742 -1.7409 -2.5133 0.9789
4.6139 -0.9378 -2.5135 0.9789
4.6791 -0.5234 -2.5135 0.9789
4.7069 -0.1049 -2.5134 0.9789
4.6973 0.3145 -2.5132 0.9789
4.6502 0.7312 -2.5130 0.9789
4.5662 1.1421 -2.5127 0.9789
4.4458 1.5437 -2.5123 0.9789
4.2900 1.9330 -2.5119 0.9789
4.1001 2.3067 -2.5114 0.9789
3.8778 2.6619 -2.5109 0.9789
2.5377 3.6100 -2.3557 0.9802
1.8563 4.0003 -2.3543 0.9802
1.4925 4.1484 -2.3535 0.9802
1.1170 4.2634 -2.3528 0.9802
0.7328 4.3445 -2.3520 0.9802
0.3431 4.3911 -2.3513 0.9802
-0.0490 4.4028 -2.3505 0.9802
-0.4406 4.3796 -2.3498 0.9802
-0.8284 4.3217 -2.3491 0.9802
-1.2094 4.2296 -2.3484 0.9803
-1.5806 4.1040 -2.3478 0.9803
-1.9492 3.9664 -2.3593 0.9802
-2.7757 3.7672 -2.4980 0.9790
-3.0993 3.5045 -2.4975 0.9790
-3.3983 3.2141 -2.4970 0.9790
-3.6703 2.8984 -2.4966 0.9790
-3.9131 2.5599 -2.4963 0.9790
-4.5591 1.0330 -2.4956 0.9790
-4.6330 0.6231 -2.4956 0.9790
-2.4861 -0.3343 -1.3391 0.9887
-2.4353 -0.7853 -1.3660 0.9885
-2.4330 -1.0317 -1.4108 0.9881
-2.4151 -1.2887 -1.4613 0.9877
-2.4322 -1.5911 -1.5516 0.9869
-2.0670 -4.2062 -2.5020 0.9790
-1.6850 -4.3749 -2.5028 0.9790
-1.2893 -4.5089 -2.5035 0.9790
-0.0523 -4.6938 -2.5059 0.9789
0.3658 -4.6813 -2.5067 0.9789
0.7813 -4.6316 -2.5075 0.9789
1.1907 -4.5450 -2.5082 0.9789
2.3511 -4.0722 -2.5103 0.9789
2.7049 -3.8477 -2.5108 0.9789
3.0373 -3.5925 -2.5114 0.9789
4.5675 -1.1424 -2.5135 0.9789
4.6511 -0.7313 -2.5135 0.9789
4.7068 0.1049 -2.5133 0.9789
4.5104 1.3443 -2.5125 0.9789
4.3722 1.7401 -2.5121 0.9789
3.3266 3.0087 -2.3945 0.9799
2.6964 3.4938 -2.3560 0.9802
2.0330 3.9142 -2.3546 0.9802
1.6760 4.0784 -2.3539 0.9802
0.9258 4.3082 -2.3524 0.9802
0.1472 4.4013 -2.3509 0.9802
-0.2451 4.3955 -2.3502 0.9802
-1.7616 4.0289 -2.3474 0.9803
-2.1884 3.9934 -2.4310 0.9796
-2.6054 3.8875 -2.4983 0.9790
-2.9404 3.6394 -2.4977 0.9790
-3.5378 3.0593 -2.4968 0.9790
-3.7954 2.7318 -2.4964 0.9790
-4.0230 2.3829 -2.4961 0.9790
-4.2187 2.0151 -2.4959 0.9790
-4.3810 1.6315 -2.4957 0.9790
-4.5086 1.2351 -2.4956 0.9790
-4.6006 0.8288 -2.4955 0.9790
-3.5314 0.3155 -1.8927 0.9841
-2.4018 -0.6579 -1.3831 0.9887
-2.3823 -0.8872 -1.4119 0.9884
-2.3176 -1.3727 -1.4960 0.9878
-3.4035 -2.9431 -2.4990 0.9796
-3.1288 -3.2352 -2.4997 0.9796
-2.8292 -3.5017 -2.5003 0.9796
-2.5070 -3.7407 -2.5010 0.9796
-2.1647 -3.9501 -2.5017 0.9796
-1.8051 -4.1283 -2.5024 0.9796
-0.6508 -4.4626 -2.5047 0.9796
-0.2511 -4.5042 -2.5055 0.9796
0.1508 -4.5100 -2.5063 0.9796
1.3381 -4.3137 -2.5084 0.9795
2.0828 -4.0101 -2.5097 0.9795
2.4321 -3.8097 -2.5103 0.9795
2.7621 -3.5789 -2.5109 0.9795
3.0703 -3.3196 -2.5114 0.9795
3.3542 -3.0336 -2.5118 0.9795
4.0380 -2.0405 -2.5128 0.9795
4.3364 -1.2924 -2.5131 0.9795
4.5236 -0.1008 -2.5130 0.9795
4.5144 0.3022 -2.5129 0.9795
4.4692 0.7028 -2.5127 0.9795
4.2727 1.4837 -2.5120 0.9795
3.0838 3.0497 -2.4088 0.9804
1.7842 3.8449 -2.3542 0.9808
1.0736 4.0979 -2.3528 0.9808
0.7044 4.1759 -2.3520 0.9808
0.3298 4.2207 -2.3513 0.9808
-0.4235 4.2098 -2.3499 0.9808
-1.9394 3.9465 -2.4422 0.9801
-2.6682 3.6214 -2.4983 0.9796
-3.7617 2.4609 -2.4966 0.9796
-3.9654 2.1160 -2.4963 0.9796
-4.4538 0.5990 -2.4959 0.9796
-2.4351 -0.3275 -1.3646 0.9888
-2.3870 -0.7697 -1.3929 0.9886
-2.3793 -1.0089 -1.4353 0.9882
-2.2661 -1.4824 -1.5039 0.9877
-3.5308 -2.7883 -2.4988 0.9796
-3.2694 -3.0922 -2.4993 0.9796
-2.3382 -3.8492 -2.5013 0.9796
-1.9869 -4.0432 -2.5021 0.9796
-1.6196 -4.2053 -2.5028 0.9796
-1.2393 -4.3340 -2.5036 0.9796
-0.8489 -4.4285 -2.5043 0.9796
0.7509 -4.4516 -2.5074 0.9796
1.1445 -4.3684 -2.5081 0.9795
1.9019 -4.0984 -2.5094 0.9795
2.9191 -3.4527 -2.5111 0.9795
3.4862 -2.8814 -2.5120 0.9795
3.7294 -2.5600 -2.5124 0.9795
4.1251 -1.8586 -2.5129 0.9795
4.5235 0.1008 -2.5130 0.9795
4.4963 0.5030 -2.5128 0.9795
4.4332 0.9011 -2.5125 0.9795
4.0358 2.0394 -2.5114 0.9795
3.8375 2.3901 -2.5109 0.9795
3.3117 2.9953 -2.4800 0.9798
2.8809 3.1149 -2.3565 0.9808
1.9540 3.7622 -2.3545 0.9808
1.6109 3.9200 -2.3538 0.9808
0.8898 4.1410 -2.3524 0.9808
0.5176 4.2025 -2.3517 0.9808
0.1414 4.2306 -2.3510 0.9808
-0.2356 4.2251 -2.3502 0.9808
-0.9804 4.1140 -2.3489 0.9808
-1.3461 4.0192 -2.3540 0.9808
-1.7133 3.9185 -2.3753 0.9806
-2.5045 3.7370 -2.4985 0.9796
-4.0555 1.9372 -2.4962 0.9796
-4.4227 0.7968 -2.4959 0.9796
