ply
format ascii 1.0
element vertex 1589
property float32 x
property float32 y
property float32 z
property float32 I
end_header
5.0972 10.9841 -2.3433 0.9519
4.1002 11.3966 -2.3438 0.9519
3.0702 11.7188 -2.3443 0.9518
0.9442 12.0827 -2.3453 0.9518
-1.2136 12.0637 -2.3463 0.9518
-3.3347 11.6621 -2.3473 0.9518
-4.3602 11.3211 -2.3477 0.9518
-5.3515 10.8900 -2.3481 0.9518
-6.3006 10.3722 -2.3485 0.9518
-9.5293 7.5253 -2.3498 0.9517
-10.7144 5.7174 -2.3502 0.9517
-12.6155 2.8583 -2.5032 0.9487
-12.8198 1.7241 -2.5032 0.9487
-12.9217 -0.5762 -2.5031 0.9487
-10.8177 -7.0766 -2.5016 0.9487
-10.1433 -8.0101 -2.5012 0.9487
-9.3886 -8.8797 -2.5008 0.9487
-7.6626 -10.3997 -2.4998 0.9487
-6.7052 -11.0384 -2.4993 0.9487
-5.6950 -11.5890 -2.4988 0.9488
-1.2914 -12.8369 -2.4967 0.9488
-0.1437 -12.8981 -2.4962 0.9488
1.0047 -12.8571 -2.4957 0.9488
6.4420 -11.1579 -2.4933 0.9489
7.4084 -10.5386 -2.4929 0.9489
8.3158 -9.8360 -2.4925 0.9489
9.1571 -9.0556 -2.4922 0.9489
9.9256 -8.2037 -2.4919 0.9489
12.1612 -4.2228 -2.4912 0.9489
12.4884 -3.1236 -2.4912 0.9489
11.2347 4.4713 -2.3400 0.9519
9.6582 7.2836 -2.3409 0.9519
7.3946 9.5815 -2.3422 0.9519
6.5138 10.2036 -2.3426 0.9519
2.5454 11.8452 -2.3446 0.9518
0.4050 12.1140 -2.3456 0.9518
-1.7500 11.9989 -2.3466 0.9518
-3.8512 11.5030 -2.3475 0.9518
-4.8607 11.1167 -2.3479 0.9518
-5.8318 10.6418 -2.3483 0.9518
-6.7570 10.0821 -2.3487 0.9518
-7.6286 9.4420 -2.3491 0.9517
-8.4399 8.7268 -2.3494 0.9517
-8.8024 7.6117 -2.2520 0.9537
-10.4487 6.1888 -2.3501 0.9517
-11.6711 5.5748 -2.5030 0.9487
-12.1215 4.5141 -2.5031 0.9487
-12.4756 3.4174 -2.5032 0.9487
-11.8233 -1.0565 -2.5025 0.9526
-11.6816 -2.1046 -2.5024 0.9526
-11.4471 -3.1357 -2.5022 0.9526
-11.1215 -4.1417 -2.5019 0.9526
-10.7076 -5.1146 -2.5017 0.9526
-10.2086 -6.0466 -2.5014 0.9527
-9.6286 -6.9303 -2.5010 0.9527
-8.9722 -7.7586 -2.5007 0.9527
-8.2448 -8.5250 -2.5003 0.9527
-7.4520 -9.2235 -2.4998 0.9527
-6.6003 -9.8484 -2.4994 0.9527
-4.7478 -10.8586 -2.4985 0.9527
-3.7618 -11.2359 -2.4980 0.9527
-2.7463 -11.5238 -2.4975 0.9527
-0.6593 -11.8235 -2.4965 0.9527
3.5058 -11.3017 -2.4946 0.9528
5.4523 -10.4976 -2.4938 0.9528
8.7685 -7.9306 -2.4925 0.9528
11.3267 -3.3757 -2.4917 0.9528
11.5821 -2.3542 -2.4917 0.9528
11.8163 -0.2633 -2.4917 0.9528
11.7933 0.7895 -2.4918 0.9528
10.7681 2.6933 -2.3401 0.9556
10.4865 3.6413 -2.3403 0.9556
10.1219 4.5607 -2.3405 0.9556
9.1552 6.2847 -2.3411 0.9556
7.1728 8.4841 -2.3422 0.9556
6.3904 9.0904 -2.3426 0.9556
3.7638 10.4616 -2.3439 0.9556
2.8183 10.7572 -2.3444 0.9556
0.8666 11.0908 -2.3453 0.9555
-2.0955 10.9320 -2.3466 0.9555
-4.0020 10.3909 -2.3475 0.9555
-4.9118 9.9952 -2.3479 0.9555
-5.7828 9.5198 -2.3482 0.9555
-6.6081 8.9686 -2.3486 0.9555
-7.3811 8.3459 -2.3489 0.9555
-8.0955 7.6567 -2.3491 0.9555
-9.3265 6.1012 -2.3496 0.9555
-11.2982 3.6432 -2.5027 0.9526
-11.5779 2.6232 -2.5027 0.9526
-11.7654 1.5823 -2.5027 0.9526
-11.8593 0.5288 -2.5027 0.9526
-11.8589 -0.5288 -2.5026 0.9526
-11.7642 -1.5821 -2.5024 0.9526
-10.9254 -4.6328 -2.5018 0.9526
-8.6170 -8.1499 -2.5005 0.9527
-7.8562 -8.8831 -2.5000 0.9527
-7.0331 -9.5454 -2.4996 0.9527
-3.2572 -11.3912 -2.4977 0.9527
-2.2300 -11.6336 -2.4972 0.9527
-1.1854 -11.7836 -2.4967 0.9527
-0.1319 -11.8400 -2.4963 0.9527
1.9687 -11.6713 -2.4953 0.9528
2.9992 -11.4477 -2.4949 0.9528
4.0055 -11.1334 -2.4944 0.9528
4.9797 -10.7309 -2.4940 0.9528
7.6345 -9.0301 -2.4929 0.9528
9.7459 -6.6902 -2.4921 0.9528
11.4658 -2.8678 -2.4917 0.9528
11.6755 -1.8358 -2.4917 0.9528
11.7927 -0.7894 -2.4917 0.9528
10.8769 2.2108 -2.3400 0.9556
10.3145 4.1051 -2.3404 0.9556
9.4254 5.8702 -2.3409 0.9556
8.8668 6.6867 -2.3413 0.9556
6.7884 8.7959 -2.3424 0.9556
5.9796 9.3669 -2.3428 0.9556
3.2943 10.6199 -2.3441 0.9556
1.3597 11.0401 -2.3451 0.9555
-0.6195 11.1106 -2.3460 0.9555
-1.6063 11.0135 -2.3464 0.9555
-5.3525 9.7672 -2.3480 0.9555
-6.2016 9.2534 -2.3484 0.9555
-9.0451 6.5103 -2.3495 0.9555
-9.5894 5.6798 -2.3496 0.9555
-10.7112 5.1163 -2.5025 0.9526
-11.1246 4.1429 -2.5026 0.9526
-11.8241 1.0566 -2.5027 0.9526
-10.9629 0.0000 -2.5022 0.9560
-10.9190 -0.9757 -2.5021 0.9560
-10.7882 -1.9436 -2.5020 0.9560
-9.8888 -4.7235 -2.5013 0.9560
-9.4281 -5.5843 -2.5010 0.9560
-8.8925 -6.4005 -2.5007 0.9560
-8.2864 -7.1656 -2.5004 0.9560
-7.6147 -7.8735 -2.5000 0.9561
-6.8826 -8.5187 -2.4996 0.9561
-6.0961 -9.0960 -2.4992 0.9561
-5.2614 -9.6008 -2.4988 0.9561
-4.3852 -10.0292 -2.4984 0.9561
-3.4745 -10.3779 -2.4979 0.9561
-1.5789 -10.8256 -2.4970 0.9561
1.3366 -10.8522 -2.4957 0.9561
4.1542 -10.1085 -2.4944 0.9562
5.8789 -9.2091 -2.4937 0.9562
8.7194 -6.5756 -2.4926 0.9562
9.7458 -4.9248 -2.4923 0.9562
10.6997 -2.1748 -2.4921 0.9562
10.9161 -0.2432 -2.4921 0.9562
9.3505 4.2131 -2.3408 0.9588
8.9394 5.0292 -2.3411 0.9588
8.4573 5.8056 -2.3414 0.9588
7.9081 6.5362 -2.3417 0.9588
7.2960 7.2152 -2.3420 0.9588
2.6032 9.9362 -2.3444 0.9587
-1.0289 10.2273 -2.3461 0.9587
-2.8269 9.8862 -2.3469 0.9587
-3.6962 9.5969 -2.3473 0.9587
-4.5363 9.2312 -2.3476 0.9587
-6.1029 8.2829 -2.3483 0.9587
-7.4765 7.0712 -2.3488 0.9587
-8.0769 6.3783 -2.3490 0.9587
-9.6714 5.1608 -2.5020 0.9560
-10.0928 4.2797 -2.5022 0.9560
-10.8654 1.4612 -2.5023 0.9560
-10.6905 -2.4222 -2.5019 0.9560
-10.4317 -3.3638 -2.5017 0.9560
-8.5980 -6.7898 -2.5006 0.9560
-7.2558 -8.2042 -2.4998 0.9561
-3.9337 -10.2137 -2.4981 0.9561
-3.0085 -10.5214 -2.4977 0.9561
-1.0950 -10.8841 -2.4968 0.9561
2.7704 -10.5746 -2.4950 0.9561
4.6000 -9.9127 -2.4942 0.9562
5.4632 -9.4625 -2.4939 0.9562
6.2829 -8.9376 -2.4936 0.9562
8.4182 -6.9578 -2.4927 0.9562
9.9553 -4.4856 -2.4922 0.9562
10.5923 -2.6493 -2.4921 0.9562
10.0482 2.0424 -2.3403 0.9588
9.5284 3.7922 -2.3407 0.9588
8.7070 5.4228 -2.3412 0.9588
8.1908 6.1770 -2.3415 0.9588
7.6096 6.8825 -2.3418 0.9588
6.9679 7.5336 -2.3422 0.9588
6.2707 8.1251 -2.3426 0.9588
3.9032 9.4980 -2.3438 0.9587
2.1581 10.0431 -2.3446 0.9587
0.3434 10.2704 -2.3455 0.9587
-1.4836 10.1722 -2.3463 0.9587
-2.3835 10.0015 -2.3467 0.9587
-4.9434 9.0206 -2.3478 0.9587
-5.7275 8.5460 -2.3481 0.9587
-6.4662 8.0033 -2.3484 0.9587
-8.3534 6.0124 -2.3491 0.9587
-8.8560 5.2454 -2.3493 0.9586
-10.7896 1.9438 -2.5023 0.9560
-10.1784 0.0000 -2.5018 0.9589
-10.1376 -0.9059 -2.5018 0.9589
-9.5362 -3.5513 -2.5013 0.9590
-9.1814 -4.3856 -2.5010 0.9590
-8.7537 -5.1848 -2.5008 0.9590
-8.2565 -5.9427 -2.5005 0.9590
-7.6939 -6.6531 -2.5002 0.9590
-6.3905 -7.9096 -2.4995 0.9590
-5.6603 -8.4458 -2.4991 0.9590
-4.8854 -8.9146 -2.4987 0.9590
-4.0719 -9.3126 -2.4983 0.9590
-3.2263 -9.6364 -2.4979 0.9590
-0.5655 -10.1413 -2.4966 0.9590
2.1329 -9.9255 -2.4954 0.9590
3.8577 -9.3872 -2.4946 0.9591
4.6773 -9.0054 -2.4943 0.9591
5.4596 -8.5522 -2.4940 0.9591
6.1983 -8.0314 -2.4937 0.9591
6.8878 -7.4471 -2.4934 0.9591
7.5226 -6.8038 -2.4932 0.9591
8.0977 -6.1067 -2.4930 0.9591
8.6085 -5.3614 -2.4928 0.9591
9.0510 -4.5737 -2.4926 0.9591
9.4218 -3.7498 -2.4925 0.9591
9.7179 -2.8962 -2.4925 0.9591
10.1181 0.6773 -2.4926 0.9591
9.2383 2.3107 -2.3407 0.9615
8.6837 3.9127 -2.3411 0.9615
8.3018 4.6705 -2.3413 0.9615
7.8541 5.3915 -2.3416 0.9615
7.3439 6.0699 -2.3419 0.9615
6.7754 6.7004 -2.3422 0.9615
6.1530 7.2778 -2.3426 0.9615
5.4817 7.7978 -2.3429 0.9615
4.0135 8.6489 -2.3436 0.9615
3.2283 8.9733 -2.3440 0.9615
1.5867 9.4067 -2.3448 0.9615
-0.9553 9.4964 -2.3460 0.9614
-1.7971 9.3752 -2.3464 0.9614
-2.6248 9.1795 -2.3467 0.9614
-6.3291 7.1564 -2.3483 0.9614
-7.9970 5.2314 -2.3489 0.9614
-8.9793 4.7915 -2.5017 0.9589
-9.3706 3.9735 -2.5018 0.9589
-10.0879 1.3567 -2.5019 0.9589
-10.1684 0.4534 -2.5019 0.9589
-10.0870 -1.3566 -2.5017 0.9589
-9.9256 -2.2488 -2.5015 0.9589
-9.3681 -3.9724 -2.5011 0.9590
-8.9765 -4.7900 -2.5009 0.9590
-8.5136 -5.5693 -2.5006 0.9590
-7.3893 -6.9888 -2.5000 0.9590
-6.7370 -7.6177 -2.4996 0.9590
-6.0314 -8.1859 -2.4993 0.9590
-4.4830 -9.1227 -2.4985 0.9590
-2.7936 -9.7697 -2.4977 0.9590
-0.1131 -10.1556 -2.4964 0.9590
2.5727 -9.8199 -2.4952 0.9590
3.4360 -9.5505 -2.4948 0.9591
4.2718 -9.2054 -2.4945 0.9591
5.0735 -8.7875 -2.4941 0.9591
5.8348 -8.3000 -2.4938 0.9591
6.5496 -7.7469 -2.4935 0.9591
8.3614 -5.7397 -2.4929 0.9591
9.2455 -4.1658 -2.4926 0.9591
10.0171 -1.5751 -2.4924 0.9591
10.1176 -0.6773 -2.4925 0.9591
10.0781 1.1274 -2.4926 0.9591
8.8489 3.5218 -2.3410 0.9615
8.0860 5.0360 -2.3415 0.9615
6.4707 6.9960 -2.3424 0.9615
5.8232 7.5453 -2.3427 0.9615
4.3945 8.4609 -2.3435 0.9615
2.8256 9.1090 -2.3442 0.9615
-3.8257 8.7496 -2.3473 0.9614
-4.5899 8.3755 -2.3476 0.9614
-5.3178 7.9348 -2.3479 0.9614
-6.6419 6.8677 -2.3484 0.9614
-7.7557 5.5822 -2.3488 0.9614
-8.6982 5.1519 -2.4849 0.9592
-9.1841 4.3869 -2.5018 0.9589
-9.8170 2.6891 -2.5019 0.9589
-9.4555 -0.8449 -2.5014 0.9615
-9.3423 -1.6831 -2.5013 0.9615
-8.8946 -3.3124 -2.5010 0.9615
-8.5638 -4.0906 -2.5008 0.9615
-8.1649 -4.8361 -2.5005 0.9615
-7.7012 -5.5430 -2.5003 0.9615
-7.1765 -6.2057 -2.5000 0.9615
-6.5948 -6.8190 -2.4996 0.9615
-5.9609 -7.3779 -2.4993 0.9615
-2.1972 -9.2197 -2.4974 0.9616
-1.3676 -9.3772 -2.4970 0.9616
0.3166 -9.4681 -2.4962 0.9616
1.1578 -9.4009 -2.4959 0.9616
1.9897 -9.2592 -2.4955 0.9616
2.8055 -9.0441 -2.4951 0.9616
4.3634 -8.4011 -2.4945 0.9616
5.7825 -7.4926 -2.4939 0.9616
6.4258 -6.9475 -2.4937 0.9616
7.0180 -6.3474 -2.4934 0.9616
8.4440 -4.2670 -2.4929 0.9616
9.4396 0.6319 -2.4929 0.9616
13.7736 3.4450 -3.7411 0.9430
8.3932 2.9145 -2.3412 0.9639
7.7449 4.3572 -2.3416 0.9639
7.3271 5.0298 -2.3418 0.9639
6.8512 5.6626 -2.3421 0.9639
6.3208 6.2507 -2.3424 0.9639
5.7401 6.7894 -2.3427 0.9639
5.1137 7.2744 -2.3430 0.9639
4.4466 7.7018 -2.3434 0.9639
3.7440 8.0682 -2.3437 0.9639
1.4801 8.7748 -2.3448 0.9639
-0.0992 8.9010 -2.3456 0.9638
-2.4483 8.5624 -2.3466 0.9638
-3.2012 8.3116 -2.3469 0.9638
-3.9287 7.9948 -2.3472 0.9638
-4.6253 7.6143 -2.3475 0.9638
-6.4746 6.1237 -2.3483 0.9638
-8.7400 3.7061 -2.5015 0.9615
-9.2591 2.0978 -2.5016 0.9615
-9.4090 1.2654 -2.5016 0.9615
-9.4842 0.4229 -2.5016 0.9615
-9.4839 -0.4229 -2.5015 0.9615
-9.4082 -1.2653 -2.5014 0.9615
-9.0337 -2.9130 -2.5011 0.9615
-8.7379 -3.7052 -2.5009 0.9615
-6.8925 -6.5188 -2.4998 0.9615
-1.7841 -9.3077 -2.4972 0.9616
-0.9485 -9.4280 -2.4968 0.9616
-0.1055 -9.4736 -2.4964 0.9616
0.7380 -9.4439 -2.4961 0.9616
1.5754 -9.3393 -2.4957 0.9616
2.4000 -9.1607 -2.4953 0.9616
3.9851 -8.5877 -2.4946 0.9616
4.7331 -8.1979 -2.4943 0.9616
5.4433 -7.7432 -2.4940 0.9616
6.1102 -7.2272 -2.4938 0.9616
6.7286 -6.6541 -2.4935 0.9616
7.2935 -6.0282 -2.4933 0.9616
7.8006 -5.3548 -2.4932 0.9616
9.3454 -1.4695 -2.4928 0.9616
9.4392 -0.6319 -2.4928 0.9616
9.4022 1.0518 -2.4929 0.9616
8.2554 3.2856 -2.3413 0.9639
7.9309 4.0077 -2.3415 0.9639
7.0962 5.3515 -2.3420 0.9639
6.5925 5.9626 -2.3422 0.9639
4.0994 7.8928 -2.3435 0.9639
3.3812 8.2276 -2.3439 0.9639
1.0879 8.8327 -2.3450 0.9639
0.2974 8.8959 -2.3454 0.9639
-0.4956 8.8884 -2.3457 0.9638
-2.8275 8.4454 -2.3468 0.9638
-3.5685 8.1613 -2.3471 0.9638
-5.5999 6.9310 -2.3479 0.9638
-8.1675 4.8376 -2.5013 0.9615
-8.8966 3.3131 -2.5015 0.9615
-9.3433 1.6833 -2.5016 0.9615
-9.4560 0.8450 -2.5016 0.9615
-8.3293 -3.1019 -2.5007 0.9637
-8.0195 -3.8306 -2.5005 0.9637
-6.7205 -5.8115 -2.4998 0.9638
-5.5823 -6.9093 -2.4992 0.9638
-4.2676 -7.7875 -2.4985 0.9638
-2.0577 -8.6345 -2.4974 0.9638
-1.2808 -8.7821 -2.4970 0.9638
-0.4940 -8.8599 -2.4967 0.9638
1.0844 -8.8046 -2.4959 0.9638
1.8635 -8.6719 -2.4956 0.9638
2.6276 -8.4705 -2.4953 0.9638
4.0868 -7.8685 -2.4946 0.9638
4.7704 -7.4727 -2.4944 0.9638
5.4160 -7.0177 -2.4941 0.9638
6.0185 -6.5072 -2.4939 0.9638
7.9090 -3.9966 -2.4932 0.9638
8.4918 -2.5308 -2.4931 0.9638
8.6832 -1.7649 -2.4930 0.9639
8.8059 -0.9851 -2.4930 0.9639
8.8588 -0.1974 -2.4931 0.9638
8.8414 0.5919 -2.4932 0.9638
8.7540 1.3765 -2.4933 0.9638
7.5878 3.4189 -2.3416 0.9660
6.4168 5.3037 -2.3423 0.9660
5.9200 5.8544 -2.3425 0.9660
5.3761 6.3588 -2.3428 0.9660
3.5065 7.5563 -2.3438 0.9660
2.8205 7.8396 -2.3441 0.9660
1.3862 8.2179 -2.3448 0.9660
0.6493 8.3099 -2.3452 0.9660
-1.5698 8.1897 -2.3462 0.9659
-2.9978 7.7837 -2.3468 0.9659
-3.6792 7.4869 -2.3471 0.9659
-4.3314 7.1305 -2.3474 0.9659
-4.9494 6.7174 -2.3476 0.9659
-6.0631 5.7345 -2.3480 0.9659
-7.4388 4.8662 -2.5010 0.9637
-8.4611 2.7284 -2.5013 0.9637
-8.6705 1.9645 -2.5013 0.9637
-4.2110 -0.1878 -1.1860 0.9826
-3.7396 -0.5029 -1.0616 0.9844
-3.7659 -0.8532 -1.0864 0.9841
-8.4596 -2.7279 -2.5008 0.9637
-8.1826 -3.4697 -2.5006 0.9637
-7.8406 -4.1839 -2.5004 0.9637
-5.8849 -6.6542 -2.4993 0.9638
-5.2686 -7.1506 -2.4990 0.9638
-4.6106 -7.5901 -2.4987 0.9638
-3.9162 -7.9693 -2.4983 0.9638
-3.1909 -8.2850 -2.4980 0.9638
-2.4405 -8.5349 -2.4976 0.9638
-1.6709 -8.7170 -2.4972 0.9638
-0.8883 -8.8297 -2.4969 0.9638
-0.0988 -8.8725 -2.4965 0.9638
3.0021 -8.3445 -2.4951 0.9638
6.3022 -6.2324 -2.4938 0.9638
6.8313 -5.6462 -2.4936 0.9638
7.7233 -4.3450 -2.4933 0.9638
8.0790 -3.6402 -2.4932 0.9638
8.7533 -1.3764 -2.4930 0.9639
8.8589 0.1974 -2.4931 0.9638
8.8065 0.9851 -2.4932 0.9638
13.0313 2.6487 -3.7414 0.9462
7.9749 2.3767 -2.3413 0.9660
7.7322 3.0774 -2.3415 0.9660
6.6463 5.0122 -2.3421 0.9660
6.1745 5.5845 -2.3424 0.9660
5.6537 6.1127 -2.3427 0.9660
3.8394 7.3921 -2.3436 0.9660
3.1667 7.7056 -2.3440 0.9660
2.4686 7.9580 -2.3443 0.9660
1.0188 8.2721 -2.3450 0.9660
-0.4641 8.3241 -2.3457 0.9660
-1.2034 8.2509 -2.3460 0.9659
-2.6479 7.9090 -2.3466 0.9659
-3.3418 7.6429 -2.3469 0.9659
-4.0093 7.3160 -2.3472 0.9659
-8.3311 3.1025 -2.5013 0.9637
-8.5743 2.3487 -2.5013 0.9637
-8.7494 1.5763 -2.5013 0.9637
-3.5918 -0.3210 -1.0796 0.9851
-3.4798 -0.6269 -1.0586 0.9853
-3.4925 -0.9567 -1.0841 0.9850
-7.5361 -3.5997 -2.5003 0.9657
-7.1852 -4.2558 -2.5001 0.9657
-5.8037 -6.0010 -2.4993 0.9657
-5.2459 -6.4930 -2.4990 0.9657
-4.6466 -6.9333 -2.4987 0.9658
-4.0106 -7.3184 -2.4984 0.9658
-1.9338 -8.1146 -2.4974 0.9658
-0.4643 -8.3266 -2.4967 0.9658
1.0191 -8.2748 -2.4960 0.9658
1.7514 -8.1502 -2.4957 0.9658
3.1679 -7.7086 -2.4951 0.9658
3.8410 -7.3952 -2.4948 0.9658
5.0903 -6.5957 -2.4943 0.9658
7.7381 -3.0797 -2.4934 0.9658
8.1613 -1.6589 -2.4933 0.9658
8.2766 -0.9258 -2.4933 0.9658
8.3100 0.5563 -2.4934 0.9658
8.2278 1.2938 -2.4935 0.9658
7.3887 2.5656 -2.3416 0.9679
6.8178 3.8356 -2.3420 0.9679
6.0309 4.9847 -2.3424 0.9679
5.5639 5.5023 -2.3427 0.9679
4.5013 6.4031 -2.3432 0.9678
3.9140 6.7792 -2.3435 0.9678
3.2955 7.1016 -2.3438 0.9678
1.9847 7.5755 -2.3445 0.9678
1.3027 7.7231 -2.3448 0.9678
-0.0873 7.8339 -2.3455 0.9678
-0.7843 7.7961 -2.3458 0.9678
-1.4753 7.6964 -2.3461 0.9678
-2.1547 7.5355 -2.3464 0.9678
-4.0704 6.7008 -2.3472 0.9678
-4.6511 6.3125 -2.3474 0.9678
-5.6976 5.3888 -2.3478 0.9678
-7.9509 2.5638 -2.5010 0.9657
-8.1476 1.8460 -2.5011 0.9657
-8.2796 1.1135 -2.5011 0.9657
-7.9496 -2.5634 -2.5006 0.9657
-7.6893 -3.2606 -2.5004 0.9657
-7.3680 -3.9317 -2.5002 0.9657
-4.9512 -6.7198 -2.4989 0.9657
-2.9988 -7.7861 -2.4979 0.9658
-2.2935 -8.0210 -2.4976 0.9658
-1.5703 -8.1921 -2.4972 0.9658
-0.8348 -8.2983 -2.4969 0.9658
0.6496 -8.3125 -2.4962 0.9658
1.3866 -8.2206 -2.4959 0.9658
4.7917 -6.8162 -2.4944 0.9658
7.2590 -4.0838 -2.4935 0.9658
8.0793 -2.0208 -2.4933 0.9658
8.2271 -1.2937 -2.4933 0.9658
8.3264 0.1855 -2.4934 0.9658
8.2771 0.9259 -2.4935 0.9658
11.9784 3.5699 -3.7420 0.9491
7.2673 2.8923 -2.3417 0.9679
6.9816 3.5279 -2.3419 0.9679
6.2466 4.7108 -2.3423 0.9679
5.3136 5.7450 -2.3428 0.9679
0.9575 7.7740 -2.3450 0.9678
0.2618 7.8295 -2.3453 0.9678
-1.1309 7.7539 -2.3459 0.9678
-2.4884 7.4325 -2.3465 0.9678
-3.1404 7.1823 -2.3468 0.9678
-3.7676 6.8751 -2.3471 0.9678
-4.3651 6.5132 -2.3473 0.9678
-4.9279 6.0994 -2.3475 0.9678
-5.4517 5.6370 -2.3477 0.9678
-6.6486 4.7854 -2.4524 0.9664
-7.1872 4.2570 -2.5008 0.9657
-8.3210 0.7436 -2.5011 0.9657
-3.7562 -0.0000 -1.1929 0.9844
-3.2540 -0.8914 -1.0715 0.9859
-6.7729 -4.0116 -2.5000 0.9675
-6.3884 -4.5981 -2.4997 0.9675
-5.9532 -5.1479 -2.4995 0.9675
-4.9450 -6.1205 -2.4989 0.9675
-4.3801 -6.5356 -2.4986 0.9675
-3.7806 -6.8987 -2.4983 0.9675
-3.1512 -7.2069 -2.4980 0.9675
-2.4969 -7.4578 -2.4977 0.9675
-1.8230 -7.6494 -2.4974 0.9675
-1.1347 -7.7803 -2.4971 0.9675
-0.4377 -7.8494 -2.4967 0.9675
0.2627 -7.8562 -2.4964 0.9675
0.9607 -7.8007 -2.4961 0.9676
4.7988 -6.2180 -2.4945 0.9676
5.8244 -5.2678 -2.4941 0.9676
6.2697 -4.7282 -2.4939 0.9676
6.6653 -4.1512 -2.4938 0.9676
7.2952 -2.9034 -2.4936 0.9676
7.8028 -0.8729 -2.4935 0.9676
7.8497 -0.1749 -2.4936 0.9676
7.8343 0.5245 -2.4936 0.9676
7.7568 1.2197 -2.4937 0.9676
11.1318 3.8654 -3.7424 0.9517
5.6855 4.6992 -2.3426 0.9695
4.2434 6.0363 -2.3433 0.9695
3.6897 6.3908 -2.3436 0.9695
3.1067 6.6947 -2.3439 0.9695
2.4988 6.9455 -2.3442 0.9695
1.2280 7.2804 -2.3448 0.9695
0.5753 7.3618 -2.3451 0.9695
-0.0823 7.3847 -2.3454 0.9695
-2.0311 7.1032 -2.3463 0.9695
-3.2591 6.6321 -2.3468 0.9695
-3.8368 6.3163 -2.3471 0.9695
-4.3842 5.9503 -2.3473 0.9695
-5.9033 4.6618 -2.3889 0.9689
-6.9469 3.7070 -2.5007 0.9675
-7.2495 3.0741 -2.5008 0.9675
-7.4945 2.4167 -2.5008 0.9675
-7.6799 1.7401 -2.5008 0.9675
-7.8043 1.0496 -2.5008 0.9675
-3.4557 -0.1541 -1.0986 0.9856
-3.2591 -0.7384 -1.0613 0.9861
-3.2827 -1.0585 -1.0954 0.9856
-6.9452 -3.7061 -2.5001 0.9675
-6.5872 -4.3091 -2.4998 0.9675
-6.1769 -4.8779 -2.4996 0.9675
-5.7176 -5.4077 -2.4994 0.9675
-2.8268 -7.3396 -2.4979 0.9675
-2.1620 -7.5612 -2.4975 0.9675
-0.7870 -7.8226 -2.4969 0.9675
-0.0876 -7.8606 -2.4966 0.9675
1.3072 -7.7496 -2.4959 0.9676
2.6599 -7.3934 -2.4953 0.9676
3.3070 -7.1265 -2.4951 0.9676
6.8435 -3.8501 -2.4937 0.9676
7.1587 -3.2255 -2.4936 0.9676
7.6169 -1.9051 -2.4935 0.9676
7.8340 -0.5244 -2.4935 0.9676
7.8033 0.8729 -2.4937 0.9676
11.2927 3.3655 -3.7423 0.9517
6.8513 2.7268 -2.3419 0.9695
6.5819 3.3260 -2.3420 0.9695
6.2602 3.8989 -2.3422 0.9695
5.4708 4.9480 -2.3427 0.9695
2.8055 6.8269 -2.3441 0.9695
1.5511 7.2180 -2.3447 0.9695
0.9026 7.3284 -2.3450 0.9695
0.2468 7.3806 -2.3453 0.9695
-0.4112 7.3742 -2.3456 0.9695
-1.0660 7.3093 -2.3459 0.9695
-1.7126 7.1862 -2.3462 0.9695
-4.6451 5.7494 -2.3474 0.9695
-5.5918 4.8354 -2.3477 0.9695
-6.3903 4.5995 -2.5005 0.9675
-6.7747 4.0127 -2.5006 0.9675
-7.7498 1.3962 -2.5008 0.9675
-3.2019 -0.2861 -1.0801 0.9865
-3.1483 -0.5672 -1.0748 0.9866
-6.7142 -3.2071 -2.5000 0.9691
-6.0382 -4.3460 -2.4996 0.9691
-3.5735 -6.5208 -2.4983 0.9691
-0.4137 -7.4197 -2.4968 0.9691
1.5607 -7.2628 -2.4959 0.9691
3.4229 -6.5903 -2.4951 0.9691
3.9955 -6.2589 -2.4948 0.9692
4.5363 -5.8779 -2.4946 0.9692
5.5058 -4.9797 -2.4942 0.9692
5.9268 -4.4696 -2.4941 0.9692
6.3008 -3.9241 -2.4940 0.9692
6.6248 -3.3476 -2.4939 0.9692
6.8963 -2.7446 -2.4938 0.9692
7.1130 -2.1199 -2.4937 0.9692
7.2734 -1.4784 -2.4937 0.9692
7.3762 -0.8252 -2.4937 0.9692
7.4204 -0.1654 -2.4938 0.9692
7.4059 0.4958 -2.4938 0.9692
7.3326 1.1530 -2.4939 0.9692
10.5231 3.6540 -3.7426 0.9541
6.0759 3.4182 -2.3423 0.9710
5.7480 3.9458 -2.3425 0.9710
4.9583 4.9033 -2.3429 0.9710
3.4878 6.0411 -2.3437 0.9710
2.9366 6.3283 -2.3439 0.9710
2.3620 6.5653 -2.3442 0.9710
1.7685 6.7503 -2.3445 0.9710
1.1608 6.8818 -2.3448 0.9710
0.5438 6.9586 -2.3451 0.9710
-0.0778 6.9803 -2.3454 0.9710
-1.3145 6.8575 -2.3459 0.9710
-1.9198 6.7141 -2.3462 0.9710
-2.5101 6.5172 -2.3465 0.9710
-3.0805 6.2686 -2.3467 0.9710
-3.6266 5.9701 -2.3469 0.9710
-4.6284 5.2334 -2.3473 0.9709
-5.8401 4.6119 -2.5002 0.9691
-6.8520 2.9055 -2.5006 0.9691
-3.1639 -0.4255 -1.0726 0.9866
-3.1418 -1.0131 -1.1091 0.9862
-6.5644 -3.5029 -2.4999 0.9691
-6.2261 -4.0729 -2.4997 0.9691
-5.4043 -5.1113 -2.4992 0.9691
-4.4115 -5.9873 -2.4987 0.9691
-3.2793 -6.6731 -2.4981 0.9691
-2.6720 -6.9376 -2.4978 0.9691
-1.3992 -7.2997 -2.4972 0.9691
-0.7439 -7.3943 -2.4969 0.9691
-0.0828 -7.4303 -2.4966 0.9691
2.5144 -6.9888 -2.4954 0.9691
3.1261 -6.7365 -2.4952 0.9691
3.7129 -6.4309 -2.4949 0.9692
4.7935 -5.6697 -2.4945 0.9692
5.7220 -4.7294 -2.4942 0.9692
6.4692 -3.6395 -2.4939 0.9692
6.7672 -3.0492 -2.4938 0.9692
7.0116 -2.4347 -2.4938 0.9692
7.4056 -0.4957 -2.4937 0.9692
7.4205 0.1654 -2.4938 0.9692
10.3502 4.1193 -3.7428 0.9541
6.2219 3.1440 -2.3422 0.9710
5.5668 4.1981 -2.3426 0.9710
5.1715 4.6774 -2.3428 0.9710
4.7352 5.1196 -2.3430 0.9710
4.2611 5.5213 -2.3433 0.9710
2.6520 6.4532 -2.3441 0.9710
0.8532 6.9271 -2.3450 0.9710
0.2332 6.9763 -2.3452 0.9710
-1.6187 6.7925 -2.3461 0.9710
-2.2171 6.6222 -2.3463 0.9710
-3.3568 6.1255 -2.3468 0.9710
-4.3905 5.4342 -2.3472 0.9710
-4.8571 5.0222 -2.3474 0.9709
-5.2852 4.5703 -2.3476 0.9709
-6.4032 3.7926 -2.5004 0.9691
-6.9747 2.5974 -2.5006 0.9691
-7.3249 1.3196 -2.5006 0.9691
-7.4132 0.6624 -2.5006 0.9691
-3.4902 0.0000 -1.2376 0.9853
-3.0930 -0.2764 -1.1011 0.9869
-3.0442 -0.5485 -1.0968 0.9870
-3.0314 -1.1289 -1.1470 0.9864
-4.8995 -5.0661 -2.4990 0.9705
-3.9228 -5.8533 -2.4985 0.9705
-2.8222 -6.4546 -2.4979 0.9705
-1.6327 -6.8512 -2.4974 0.9706
-1.0163 -6.9685 -2.4971 0.9706
-0.3920 -7.0304 -2.4968 0.9706
0.2353 -7.0366 -2.4965 0.9706
0.8605 -6.9870 -2.4962 0.9706
2.0853 -6.7222 -2.4957 0.9706
2.6750 -6.5093 -2.4954 0.9706
3.7861 -5.9308 -2.4949 0.9706
4.2986 -5.5698 -2.4947 0.9706
4.7769 -5.1647 -2.4946 0.9706
6.8923 -1.4009 -2.4939 0.9706
7.0316 -0.1567 -2.4939 0.9706
6.0224 2.7136 -2.3422 0.9724
5.7574 3.2391 -2.3424 0.9724
4.2666 5.0465 -2.3432 0.9723
2.2381 6.2209 -2.3443 0.9723
1.0999 6.5207 -2.3448 0.9723
0.5152 6.5935 -2.3451 0.9723
-0.6621 6.5819 -2.3456 0.9723
-2.3783 6.1751 -2.3464 0.9723
-3.4361 5.6566 -2.3468 0.9723
-3.9263 5.3288 -2.3470 0.9723
-4.3853 4.9585 -2.3472 0.9723
-6.4920 2.7529 -2.5004 0.9705
-6.7114 2.1641 -2.5004 0.9705
-3.1623 -0.1410 -1.1224 0.9867
-3.0595 -0.4115 -1.0946 0.9870
-6.4908 -2.7524 -2.4999 0.9705
-5.5318 -4.3684 -2.4994 0.9705
-5.1205 -4.8430 -2.4991 0.9705
-3.6580 -6.0219 -2.4984 0.9705
-3.1071 -6.3229 -2.4981 0.9705
-2.5318 -6.5736 -2.4978 0.9705
-0.7048 -7.0064 -2.4969 0.9706
0.5485 -7.0187 -2.4963 0.9706
1.1709 -6.9413 -2.4961 0.9706
1.7838 -6.8088 -2.4958 0.9706
6.1302 -3.4488 -2.4941 0.9706
6.4126 -2.8894 -2.4940 0.9706
6.8231 -1.7066 -2.4939 0.9706
6.9479 -1.0925 -2.4939 0.9706
7.0176 -0.4698 -2.4939 0.9706
7.0317 0.1567 -2.4940 0.9706
6.8930 1.4011 -2.4941 0.9706
4.0377 5.2318 -2.3434 0.9723
1.9589 6.3148 -2.3444 0.9723
0.8084 6.5636 -2.3449 0.9723
-2.1007 6.2746 -2.3463 0.9723
-2.6511 6.0633 -2.3465 0.9723
-3.6848 5.4982 -2.3469 0.9723
-4.1599 5.1488 -2.3471 0.9723
-5.2365 4.5281 -2.4547 0.9710
-6.0669 3.5934 -2.5003 0.9705
-6.6083 2.4610 -2.5004 0.9705
-6.8012 1.8631 -2.5005 0.9705
-6.9401 1.2503 -2.5005 0.9705
-3.3741 -0.0000 -1.2599 0.9857
-2.9455 -0.5306 -1.1176 0.9873
-2.9238 -1.0888 -1.1650 0.9868
-6.0405 -2.8853 -2.4997 0.9718
-5.4325 -3.9100 -2.4993 0.9718
-3.7250 -5.5580 -2.4984 0.9718
-3.2151 -5.8669 -2.4982 0.9718
-2.1235 -6.3426 -2.4976 0.9718
-1.5504 -6.5057 -2.4973 0.9718
0.2234 -6.6820 -2.4965 0.9719
1.4043 -6.5351 -2.4960 0.9719
1.9802 -6.3835 -2.4957 0.9719
2.5403 -6.1814 -2.4955 0.9719
4.5363 -4.9046 -2.4947 0.9719
5.3334 -4.0221 -2.4944 0.9719
6.4009 -1.9077 -2.4941 0.9719
6.5453 -1.3304 -2.4941 0.9719
6.6377 -0.7425 -2.4941 0.9719
6.6645 0.4461 -2.4942 0.9719
6.5985 1.0376 -2.4942 0.9719
9.1397 4.1182 -3.7433 0.9581
4.4616 4.4122 -2.3431 0.9736
3.1383 5.4358 -2.3438 0.9736
2.6424 5.6941 -2.3440 0.9736
1.5912 6.0737 -2.3445 0.9735
-0.6288 6.2499 -2.3456 0.9735
-1.7273 6.0407 -2.3461 0.9735
-2.7715 5.6398 -2.3465 0.9735
-4.1640 4.7083 -2.3471 0.9735
-4.6915 4.4373 -2.4113 0.9728
-5.6028 3.6652 -2.5001 0.9718
-5.9070 3.1521 -2.5001 0.9718
-6.1643 2.6139 -2.5002 0.9718
-6.3726 2.0549 -2.5003 0.9718
-3.7910 0.1690 -1.4170 0.9839
-3.0832 -0.1375 -1.1525 0.9869
-2.9640 -0.3986 -1.1167 0.9873
-5.6015 -3.6643 -2.4994 0.9718
-4.4332 -5.0127 -2.4988 0.9718
-3.9691 -5.3869 -2.4986 0.9718
-2.4041 -6.2421 -2.4978 0.9718
-0.6693 -6.6532 -2.4969 0.9719
-0.0745 -6.6857 -2.4967 0.9719
1.6940 -6.4657 -2.4959 0.9719
3.8425 -5.4661 -2.4950 0.9719
5.1491 -4.2558 -2.4945 0.9719
5.5072 -3.7804 -2.4943 0.9719
5.8216 -3.2752 -2.4942 0.9719
6.0897 -2.7439 -2.4942 0.9719
6.3097 -2.1909 -2.4941 0.9719
6.4795 -1.6206 -2.4941 0.9719
6.5981 -1.0375 -2.4941 0.9719
6.6381 0.7426 -2.4942 0.9719
6.4018 1.9079 -2.4944 0.9719
9.3138 3.7068 -3.7432 0.9581
5.5988 2.8292 -2.3424 0.9736
5.0093 3.7777 -2.3428 0.9736
2.3862 5.8065 -2.3442 0.9736
1.3192 6.1390 -2.3447 0.9735
0.7676 6.2327 -2.3449 0.9735
0.2099 6.2770 -2.3452 0.9735
-0.3497 6.2714 -2.3455 0.9735
-1.4564 6.1113 -2.3459 0.9735
-1.9948 5.9581 -2.3462 0.9735
-2.5174 5.7574 -2.3464 0.9735
-3.0201 5.5110 -2.3466 0.9735
-3.4989 5.2207 -2.3468 0.9735
-3.9500 4.8890 -2.3470 0.9735
-4.3698 4.5183 -2.3472 0.9735
-5.0639 4.3789 -2.4999 0.9718
-5.7607 3.4121 -2.5001 0.9718
-6.0417 2.8859 -2.5002 0.9718
-6.5897 1.1872 -2.5003 0.9718
-3.2641 -0.0000 -1.2811 0.9861
-2.9005 -0.2592 -1.1429 0.9876
-2.8518 -0.5138 -1.1373 0.9876
-2.8313 -0.7756 -1.1521 0.9875
-2.8528 -1.0624 -1.1947 0.9870
-5.7469 -2.7451 -2.4996 0.9730
-5.4794 -3.2455 -2.4994 0.9730
-5.1684 -3.7200 -2.4992 0.9730
-4.8164 -4.1649 -2.4990 0.9730
-4.4262 -4.5767 -2.4988 0.9730
-4.0009 -4.9520 -2.4986 0.9730
-3.0589 -5.5819 -2.4981 0.9730
-2.5497 -5.8314 -2.4979 0.9730
-1.4751 -6.1898 -2.4973 0.9730
-0.9182 -6.2958 -2.4971 0.9730
1.3361 -6.2179 -2.4960 0.9730
1.8841 -6.0737 -2.4958 0.9730
2.9306 -5.6424 -2.4954 0.9730
3.8840 -5.0326 -2.4950 0.9731
5.6724 -2.8664 -2.4943 0.9731
6.0905 -1.8151 -2.4942 0.9731
6.2278 -1.2659 -2.4942 0.9731
6.3158 -0.7065 -2.4942 0.9731
6.2784 0.9872 -2.4944 0.9731
9.0101 3.1287 -3.7433 0.9598
4.9214 3.3783 -2.3428 0.9747
3.8549 4.5597 -2.3434 0.9747
3.4341 4.8851 -2.3436 0.9747
2.9860 5.1719 -2.3438 0.9747
2.0221 5.6205 -2.3443 0.9747
0.9937 5.8913 -2.3448 0.9747
-0.5982 5.9464 -2.3455 0.9746
-3.1042 5.1102 -2.3466 0.9746
-3.5470 4.8139 -2.3468 0.9746
-3.9646 4.4829 -2.3488 0.9746
-4.9987 3.9474 -2.4998 0.9730
-5.8646 2.4868 -2.5001 0.9730
-6.0628 1.9550 -2.5001 0.9730
-6.2128 1.4077 -2.5001 0.9730
-3.6456 0.1626 -1.4322 0.9844
-5.6187 -2.9982 -2.4995 0.9730
-5.3292 -3.4862 -2.4993 0.9730
-3.7762 -5.1251 -2.4985 0.9730
-3.3047 -5.4403 -2.4982 0.9730
-2.8071 -5.7123 -2.4980 0.9730
-1.1978 -6.2490 -2.4972 0.9730
-0.6368 -6.3302 -2.4969 0.9730
1.6117 -6.1519 -2.4959 0.9730
2.1527 -5.9835 -2.4957 0.9730
3.1789 -5.5060 -2.4953 0.9731
3.6561 -5.2008 -2.4951 0.9731
5.5391 -3.1163 -2.4944 0.9731
6.0036 -2.0846 -2.4942 0.9731
6.1652 -1.5421 -2.4942 0.9731
6.3537 0.1416 -2.4943 0.9731
6.3161 0.7066 -2.4943 0.9731
6.2283 1.2660 -2.4944 0.9731
5.0668 3.1556 -2.3427 0.9747
4.7662 3.5944 -2.3429 0.9747
3.2133 5.0335 -2.3437 0.9747
1.2551 5.8409 -2.3447 0.9747
0.7303 5.9300 -2.3449 0.9747
0.1997 5.9721 -2.3452 0.9747
-0.8625 5.9141 -2.3457 0.9746
-1.3856 5.8144 -2.3459 0.9746
-2.8733 5.2432 -2.3465 0.9746
-3.3289 4.9671 -2.3467 0.9746
-3.7580 4.6513 -2.3469 0.9746
-4.2132 4.3564 -2.3786 0.9743
-4.8177 4.1661 -2.4997 0.9730
-5.1697 3.7209 -2.4999 0.9730
-5.7479 2.7456 -2.5000 0.9730
-6.1439 1.6830 -2.5001 0.9730
-3.1614 -0.0000 -1.3018 0.9864
-2.7695 -0.7587 -1.1825 0.9877
-2.7842 -1.0369 -1.2234 0.9872
-5.4771 -2.6162 -2.4995 0.9741
-4.5904 -3.9695 -2.4990 0.9741
-3.3777 -5.0399 -2.4983 0.9741
-2.9154 -5.3200 -2.4981 0.9741
-2.4301 -5.5579 -2.4978 0.9741
-1.9256 -5.7515 -2.4976 0.9741
-1.4059 -5.8995 -2.4973 0.9741
-0.8752 -6.0006 -2.4971 0.9741
0.2026 -6.0595 -2.4966 0.9741
0.7410 -6.0168 -2.4963 0.9741
1.7958 -5.7890 -2.4959 0.9741
2.3037 -5.6057 -2.4957 0.9741
4.1140 -4.4480 -2.4949 0.9741
4.4933 -4.0639 -2.4948 0.9741
5.1422 -3.2026 -2.4945 0.9741
5.8052 -1.7301 -2.4944 0.9741
5.9361 -1.2065 -2.4943 0.9741
6.0441 0.4046 -2.4944 0.9741
5.9843 0.9410 -2.4945 0.9741
5.7231 1.9873 -2.4947 0.9741
4.9584 2.7896 -2.3427 0.9757
4.3859 3.6250 -2.3431 0.9757
4.0462 4.0014 -2.3432 0.9757
3.2732 4.6562 -2.3437 0.9757
2.8460 4.9295 -2.3439 0.9757
1.9273 5.3570 -2.3443 0.9757
-0.0634 5.6951 -2.3453 0.9757
-0.5701 5.6674 -2.3455 0.9757
-1.0724 5.5947 -2.3457 0.9757
-2.0477 5.3169 -2.3462 0.9757
-2.9585 4.8703 -2.3465 0.9757
-3.7923 4.2880 -2.3572 0.9755
-4.7640 3.7621 -2.4997 0.9741
-5.5893 2.3701 -2.4999 0.9741
-5.9211 1.3415 -2.5000 0.9741
-6.0170 0.8092 -2.5000 0.9741
-2.7946 -0.3758 -1.1611 0.9879
-2.7756 -0.6289 -1.1719 0.9878
-2.8016 -1.1880 -1.2531 0.9869
-4.7629 -3.7612 -2.4991 0.9741
-4.4088 -4.1698 -2.4989 0.9741
-4.0199 -4.5453 -2.4986 0.9741
-2.6754 -5.4444 -2.4980 0.9741
-2.1800 -5.6603 -2.4977 0.9741
-1.6674 -5.8313 -2.4975 0.9741
-1.1417 -5.9560 -2.4972 0.9741
-0.0675 -6.0628 -2.4967 0.9741
1.0083 -5.9776 -2.4962 0.9741
3.0299 -5.2480 -2.4954 0.9741
3.4848 -4.9571 -2.4952 0.9741
3.9119 -4.6270 -2.4950 0.9741
4.9945 -3.4285 -2.4946 0.9741
5.2797 -2.9703 -2.4945 0.9741
5.8765 -1.4698 -2.4944 0.9741
5.9839 -0.9409 -2.4943 0.9741
6.0561 0.1350 -2.4944 0.9741
5.9366 1.2066 -2.4945 0.9741
5.2171 2.6363 -2.4070 0.9750
4.2202 3.8170 -2.3432 0.9757
3.8641 4.1778 -2.3433 0.9757
3.0626 4.7975 -2.3438 0.9757
2.6237 5.0516 -2.3440 0.9757
2.1639 5.2656 -2.3442 0.9757
0.1903 5.6920 -2.3452 0.9757
-0.3171 5.6869 -2.3454 0.9757
-0.8221 5.6366 -2.3456 0.9757
-1.3206 5.5416 -2.3458 0.9757
-1.8088 5.4026 -2.3461 0.9757
-2.7385 4.9971 -2.3464 0.9757
-3.5816 4.4330 -2.3468 0.9756
-4.1903 4.3328 -2.4821 0.9743
-4.9270 3.5462 -2.4997 0.9741
-5.2233 3.0938 -2.4998 0.9741
-5.4781 2.6167 -2.4999 0.9741
-5.8555 1.6040 -2.5000 0.9741
-3.0794 -0.0000 -1.3283 0.9867
-2.7539 -0.2461 -1.1927 0.9880
-2.7092 -0.7421 -1.2117 0.9878
-2.7209 -1.0133 -1.2524 0.9874
-2.7299 -1.3040 -1.3050 0.9869
-4.7021 -3.3844 -2.4991 0.9751
-4.3819 -3.7892 -2.4989 0.9751
-4.0270 -4.1638 -2.4987 0.9751
-3.6401 -4.5054 -2.4985 0.9751
-3.2243 -4.8111 -2.4983 0.9751
-1.8382 -5.4904 -2.4976 0.9751
-1.3421 -5.6317 -2.4973 0.9751
-0.3222 -5.7794 -2.4968 0.9751
0.1934 -5.7846 -2.4966 0.9751
1.2157 -5.6576 -2.4961 0.9751
1.7143 -5.5264 -2.4959 0.9751
2.1992 -5.3515 -2.4957 0.9751
4.6176 -3.4823 -2.4948 0.9751
5.5420 -1.6517 -2.4945 0.9751
5.6670 -1.1519 -2.4945 0.9751
5.7470 -0.6429 -2.4945 0.9751
5.7815 -0.1288 -2.4945 0.9751
5.7701 0.3863 -2.4946 0.9751
5.6106 1.4033 -2.4947 0.9751
5.4636 1.8972 -2.4948 0.9751
4.8210 2.7123 -2.3861 0.9762
3.5076 4.1488 -2.3435 0.9766
3.1247 4.4449 -2.3437 0.9766
2.7169 4.7058 -2.3439 0.9766
2.2875 4.9294 -2.3441 0.9766
1.3775 5.2579 -2.3446 0.9766
0.4235 5.4199 -2.3450 0.9766
-0.0606 5.4366 -2.3453 0.9766
-1.0237 5.3407 -2.3457 0.9766
-1.4951 5.2288 -2.3459 0.9766
-1.9548 5.0755 -2.3461 0.9766
-2.8241 4.6491 -2.3465 0.9766
-3.2269 4.3796 -2.3466 0.9766
-3.7688 4.2614 -2.4539 0.9755
-4.2097 3.9815 -2.4994 0.9751
-4.5476 3.5912 -2.4996 0.9751
-3.3811 0.1508 -1.4599 0.9854
-2.7402 -0.3685 -1.1926 0.9880
-2.7200 -0.6163 -1.2030 0.9879
-2.7166 -0.8760 -1.2313 0.9876
-2.7334 -1.1591 -1.2807 0.9871
-3.4356 -4.6629 -2.4984 0.9751
-3.0067 -4.9497 -2.4981 0.9751
-2.5540 -5.1972 -2.4979 0.9751
-2.0811 -5.4034 -2.4977 0.9751
-1.0898 -5.6856 -2.4972 0.9751
-0.0645 -5.7877 -2.4967 0.9751
0.9625 -5.7064 -2.4963 0.9751
1.4665 -5.5976 -2.4960 0.9751
1.9587 -5.4444 -2.4958 0.9751
2.4353 -5.2480 -2.4956 0.9751
2.8925 -5.0100 -2.4954 0.9751
4.1126 -4.0670 -2.4950 0.9751
4.7681 -3.2731 -2.4947 0.9751
5.4629 -1.8970 -2.4945 0.9751
5.6101 -1.4032 -2.4945 0.9751
5.7700 -0.3862 -2.4945 0.9751
5.7473 0.6429 -2.4946 0.9751
5.6674 1.1520 -2.4947 0.9751
5.3738 2.1387 -2.4949 0.9751
4.6104 2.8714 -2.3429 0.9766
4.0288 3.6439 -2.3432 0.9766
2.9237 4.5799 -2.3438 0.9766
2.5047 4.8224 -2.3440 0.9766
1.1420 5.3143 -2.3447 0.9766
0.1817 5.4336 -2.3451 0.9766
-0.3027 5.4287 -2.3454 0.9766
-0.7848 5.3808 -2.3456 0.9766
-1.2607 5.2900 -2.3458 0.9766
-2.1790 4.9835 -2.3462 0.9766
-2.6141 4.7702 -2.3464 0.9766
-3.0285 4.5189 -2.3465 0.9766
-4.0281 4.1650 -2.4994 0.9751
-4.9860 2.9532 -2.4997 0.9751
-5.5894 1.5311 -2.4999 0.9751
-5.7035 1.0275 -2.4999 0.9751
-3.8265 0.3419 -1.6572 0.9834
-2.9980 0.0000 -1.3528 0.9869
-2.7005 -0.2413 -1.2234 0.9882
-2.6738 -0.4817 -1.2259 0.9881
-2.6546 -0.7272 -1.2419 0.9880
-2.6607 -0.9909 -1.2811 0.9876
-2.6867 -1.5913 -1.4090 0.9864
-4.4950 -3.2353 -2.4990 0.9760
-4.1889 -3.6223 -2.4988 0.9760
-3.8496 -3.9805 -2.4986 0.9760
-3.4798 -4.3070 -2.4984 0.9760
-2.6606 -4.8549 -2.4980 0.9760
-0.3081 -5.5250 -2.4969 0.9760
1.1623 -5.4087 -2.4962 0.9760
2.5493 -4.9083 -2.4956 0.9760
2.9758 -4.6615 -2.4954 0.9760
3.3787 -4.3779 -2.4953 0.9760
3.7547 -4.0596 -2.4951 0.9760
4.1009 -3.7091 -2.4950 0.9760
4.6932 -2.9229 -2.4948 0.9760
5.1368 -2.0444 -2.4946 0.9760
5.2983 -1.5791 -2.4946 0.9760
5.4943 -0.6146 -2.4946 0.9760
5.5164 0.3693 -2.4947 0.9760
5.3639 1.3416 -2.4948 0.9760
5.0415 2.2716 -2.4950 0.9760
4.2811 2.9388 -2.3431 0.9775
3.6927 3.6518 -2.3434 0.9775
2.1868 4.7125 -2.3442 0.9775
1.7589 4.8889 -2.3444 0.9775
0.4049 5.1813 -2.3450 0.9775
-0.0579 5.1973 -2.3452 0.9774
-0.5203 5.1719 -2.3454 0.9774
-1.8687 4.8519 -2.3460 0.9774
-2.6997 4.4444 -2.3464 0.9774
-3.6693 4.1490 -2.4992 0.9760
-4.3473 3.4330 -2.4995 0.9760
-4.8874 2.6080 -2.4996 0.9760
-5.1003 2.1627 -2.4997 0.9760
-5.4906 0.7384 -2.4998 0.9760
-2.7833 -0.1241 -1.2571 0.9878
-2.6574 -0.8569 -1.2599 0.9878
-2.6675 -1.1311 -1.3074 0.9874
-4.8866 -2.6076 -2.4992 0.9760
-4.6348 -3.0320 -2.4991 0.9760
-4.3463 -3.4322 -2.4989 0.9760
-4.0233 -3.8052 -2.4987 0.9760
-3.2843 -4.4575 -2.4983 0.9760
-2.8743 -4.7317 -2.4981 0.9760
-1.9895 -5.1655 -2.4977 0.9760
-1.0419 -5.4354 -2.4972 0.9760
-0.5539 -5.5061 -2.4970 0.9760
-0.0616 -5.5330 -2.4967 0.9760
0.4310 -5.5161 -2.4965 0.9760
0.9202 -5.4553 -2.4963 0.9760
1.8726 -5.2048 -2.4959 0.9760
2.3282 -5.0171 -2.4957 0.9760
2.7653 -4.7897 -2.4955 0.9760
3.1804 -4.5242 -2.4953 0.9760
3.9317 -3.8882 -2.4950 0.9760
4.2620 -3.5226 -2.4949 0.9760
4.8187 -2.7109 -2.4947 0.9760
5.2228 -1.8135 -2.4946 0.9760
5.5273 0.1232 -2.4946 0.9760
4.9354 2.4940 -2.4951 0.9760
4.1461 3.1267 -2.3431 0.9775
3.8516 3.4836 -2.3433 0.9775
3.1734 4.1119 -2.3437 0.9775
2.3945 4.6102 -2.3441 0.9775
1.9748 4.8055 -2.3443 0.9775
1.5394 4.9626 -2.3445 0.9775
0.1737 5.1944 -2.3451 0.9775
-0.2894 5.1897 -2.3453 0.9774
-0.7502 5.1439 -2.3455 0.9774
-1.2052 5.0571 -2.3457 0.9774
-1.6506 4.9302 -2.3459 0.9774
-2.0830 4.7641 -2.3461 0.9774
-2.8951 4.3199 -2.3465 0.9774
-3.8506 3.9815 -2.4993 0.9760
-4.4960 3.2360 -2.4995 0.9760
-4.9988 2.3878 -2.4997 0.9760
-3.7666 0.3366 -1.7063 0.9835
-2.6016 -0.7127 -1.2715 0.9881
-2.6596 -1.5753 -1.4571 0.9864
-4.3027 -3.0969 -2.4989 0.9768
-3.6849 -3.8102 -2.4986 0.9768
-3.3309 -4.1227 -2.4984 0.9768
-2.1228 -4.8550 -2.4977 0.9768
-0.7645 -5.2420 -2.4971 0.9768
-0.2949 -5.2887 -2.4969 0.9768
0.1770 -5.2936 -2.4967 0.9769
0.6474 -5.2563 -2.4964 0.9769
1.1126 -5.1774 -2.4962 0.9769
1.5688 -5.0574 -2.4960 0.9769
2.0126 -4.8974 -2.4958 0.9769
2.4403 -4.6985 -2.4957 0.9769
3.9257 -3.5506 -2.4951 0.9769
4.4927 -2.7981 -2.4949 0.9769
4.9174 -1.9571 -2.4948 0.9769
5.0720 -1.5116 -2.4947 0.9769
5.2596 -0.5884 -2.4947 0.9769
5.2911 -0.1179 -2.4947 0.9769
5.2807 0.3535 -2.4948 0.9769
5.2284 0.8221 -2.4948 0.9769
5.0002 1.7363 -2.4950 0.9769
4.8260 2.1745 -2.4951 0.9769
4.1377 2.8404 -2.3657 0.9781
3.8317 3.1670 -2.3433 0.9783
2.0933 4.5110 -2.3442 0.9782
1.6837 4.6798 -2.3444 0.9782
1.2606 4.8115 -2.3446 0.9782
0.8274 4.9051 -2.3448 0.9782
-0.0554 4.9749 -2.3452 0.9782
-0.9368 4.8871 -2.3456 0.9782
-2.1952 4.4670 -2.3462 0.9782
-2.5842 4.2542 -2.3463 0.9782
-3.0477 4.1363 -2.4219 0.9775
-3.8520 3.6432 -2.4992 0.9768
-4.1612 3.2861 -2.4994 0.9768
-4.6782 2.4964 -2.4995 0.9768
-5.0469 1.6274 -2.4996 0.9768
-3.1522 0.1405 -1.4873 0.9861
-2.6131 -0.5921 -1.2630 0.9882
-2.5902 -1.3822 -1.3839 0.9871
-4.4365 -2.9022 -2.4990 0.9768
-3.8511 -3.6423 -2.4986 0.9768
-3.5114 -3.9704 -2.4985 0.9768
-0.5302 -5.2706 -2.4970 0.9768
-0.0590 -5.2964 -2.4968 0.9768
0.4126 -5.2802 -2.4965 0.9769
0.8809 -5.2221 -2.4963 0.9769
1.7925 -4.9824 -2.4959 0.9769
2.2287 -4.8027 -2.4958 0.9769
3.4177 -4.0424 -2.4953 0.9769
3.7637 -3.7220 -2.4951 0.9769
4.0799 -3.3721 -2.4950 0.9769
4.6128 -2.5951 -2.4948 0.9769
4.8253 -2.1742 -2.4948 0.9769
4.9996 -1.7360 -2.4947 0.9769
5.1342 -1.2841 -2.4947 0.9769
5.2281 -0.8221 -2.4947 0.9769
5.2912 0.1179 -2.4948 0.9769
5.0725 1.5118 -2.4950 0.9769
4.9180 1.9574 -2.4951 0.9769
4.7245 2.3874 -2.4952 0.9769
4.4414 2.7662 -2.4664 0.9771
3.9689 2.9931 -2.3432 0.9783
3.3758 3.6499 -2.3435 0.9783
3.0378 3.9362 -2.3437 0.9783
2.2921 4.4131 -2.3441 0.9782
1.8904 4.6000 -2.3443 0.9782
1.4736 4.7504 -2.3445 0.9782
0.1662 4.9722 -2.3451 0.9782
-0.2770 4.9677 -2.3453 0.9782
-0.7181 4.9238 -2.3455 0.9782
-1.1536 4.8407 -2.3457 0.9782
-2.3920 4.3649 -2.3462 0.9782
-2.7713 4.1350 -2.3464 0.9782
-3.3318 4.1238 -2.4990 0.9768
-3.6858 3.8111 -2.4992 0.9768
-4.0106 3.4681 -2.4993 0.9768
-4.7849 2.2855 -2.4996 0.9768
-4.9694 1.8506 -2.4996 0.9768
-5.1144 1.4010 -2.4996 0.9768
-3.7077 0.3313 -1.7547 0.9837
-2.5903 -0.2315 -1.2791 0.9885
-2.5457 -1.2160 -1.3876 0.9875
-4.3714 -2.5892 -2.4990 0.9776
-4.1234 -2.9678 -2.4988 0.9776
-3.5314 -3.6514 -2.4985 0.9776
-3.1922 -3.9510 -2.4983 0.9776
-2.8276 -4.2191 -2.4981 0.9776
-2.4407 -4.4537 -2.4979 0.9776
-2.0344 -4.6529 -2.4977 0.9776
-1.6121 -4.8150 -2.4975 0.9776
-0.7327 -5.0237 -2.4971 0.9776
0.1696 -5.0732 -2.4967 0.9776
1.9289 -4.6936 -2.4959 0.9776
2.7301 -4.2766 -2.4956 0.9776
3.0997 -4.0164 -2.4954 0.9776
3.4447 -3.7244 -2.4953 0.9776
3.7624 -3.4029 -2.4952 0.9776
4.0502 -3.0544 -2.4951 0.9776
4.7128 -1.8756 -2.4949 0.9776
4.7922 1.6640 -2.4951 0.9776
4.4216 2.4876 -2.4953 0.9776
4.1179 2.8268 -2.4567 0.9780
3.3878 3.3503 -2.3435 0.9790
3.0764 3.6388 -2.3437 0.9790
2.7405 3.8984 -2.3438 0.9790
2.0062 4.3233 -2.3442 0.9790
1.6136 4.4850 -2.3444 0.9790
-0.4773 4.7445 -2.3454 0.9790
-0.8978 4.6836 -2.3456 0.9790
-1.7142 4.4509 -2.3459 0.9790
-2.1037 4.2809 -2.3461 0.9790
-2.4766 4.0770 -2.3462 0.9790
-4.4833 2.3923 -2.4994 0.9776
-4.6785 1.9838 -2.4995 0.9776
-4.9563 1.1229 -2.4995 0.9776
-5.0365 0.6773 -2.4995 0.9776
-2.6467 -0.1180 -1.3031 0.9883
-2.5845 -0.3476 -1.2826 0.9884
-2.5616 -0.5804 -1.2919 0.9884
-2.5441 -1.0788 -1.3592 0.9878
-2.5301 -1.3501 -1.4105 0.9873
-4.2516 -2.7813 -2.4989 0.9776
-3.6907 -3.4906 -2.4986 0.9776
-3.3651 -3.8050 -2.4984 0.9776
-2.6368 -4.3407 -2.4980 0.9776
-2.2398 -4.5578 -2.4978 0.9776
-1.8251 -4.7387 -2.4976 0.9776
-1.3959 -4.8819 -2.4974 0.9776
-0.5082 -5.0512 -2.4970 0.9776
-0.0565 -5.0759 -2.4968 0.9776
0.3954 -5.0604 -2.4966 0.9776
1.2862 -4.9093 -2.4962 0.9776
1.7179 -4.7750 -2.4960 0.9776
2.1359 -4.6029 -2.4958 0.9776
2.5370 -4.3942 -2.4956 0.9776
2.9178 -4.1507 -2.4955 0.9776
3.2755 -3.8743 -2.4954 0.9776
3.6072 -3.5672 -2.4952 0.9776
4.4209 -2.4872 -2.4949 0.9776
4.7917 -1.6639 -2.4948 0.9776
5.0107 -0.7879 -2.4948 0.9776
5.0610 -0.3388 -2.4948 0.9776
4.8615 1.4489 -2.4951 0.9776
4.5279 2.2881 -2.4953 0.9776
4.3066 2.6822 -2.4954 0.9776
3.8387 2.8949 -2.3648 0.9788
3.5336 3.1959 -2.3434 0.9790
3.2353 3.4980 -2.3436 0.9790
2.9113 3.7723 -2.3437 0.9790
1.8117 4.4085 -2.3443 0.9790
1.4123 4.5527 -2.3445 0.9790
1.0015 4.6607 -2.3447 0.9790
0.5828 4.7317 -2.3449 0.9790
0.1593 4.7652 -2.3451 0.9790
-0.2655 4.7609 -2.3453 0.9790
-1.5142 4.5226 -2.3458 0.9790
-1.9109 4.3702 -2.3460 0.9790
-2.2924 4.1831 -2.3462 0.9790
-2.7347 4.0805 -2.4161 0.9783
-3.1930 3.9520 -2.4990 0.9776
-3.5323 3.6523 -2.4991 0.9776
-4.1242 2.9685 -2.4993 0.9776
-4.7623 1.7735 -2.4995 0.9776
-4.9013 1.3426 -2.4995 0.9776
-5.0014 0.9010 -2.4995 0.9776
-3.6334 0.3246 -1.7942 0.9839
-2.7481 0.0000 -1.4089 0.9877
-2.4521 -1.4524 -1.4611 0.9873
-3.6865 -3.1879 -2.4986 0.9783
-3.3879 -3.5031 -2.4984 0.9783
-3.0625 -3.7905 -2.4983 0.9783
-2.3415 -4.2728 -2.4979 0.9783
-1.5466 -4.6195 -2.4975 0.9783
-0.7029 -4.8198 -2.4971 0.9783
1.8506 -4.5031 -2.4960 0.9784
2.2439 -4.3203 -2.4958 0.9784
2.6193 -4.1031 -2.4956 0.9784
3.3050 -3.5733 -2.4954 0.9784
3.8858 -2.9304 -2.4951 0.9784
4.1311 -2.5729 -2.4951 0.9784
4.3436 -2.1949 -2.4950 0.9784
4.5216 -1.7996 -2.4949 0.9784
4.6638 -1.3899 -2.4949 0.9784
4.8653 -0.1084 -2.4949 0.9784
4.5978 1.5965 -2.4952 0.9784
2.9515 3.4911 -2.3437 0.9797
2.6293 3.7402 -2.3439 0.9797
1.9248 4.1478 -2.3442 0.9797
0.7607 4.5100 -2.3448 0.9797
-0.8613 4.4933 -2.3455 0.9796
-2.0182 4.1070 -2.3460 0.9796
-2.4469 4.0281 -2.4163 0.9790
-2.8912 3.9240 -2.4988 0.9783
-3.5415 3.3496 -2.4991 0.9783
-3.8258 3.0212 -2.4992 0.9783
-4.3011 2.2951 -2.4993 0.9783
-2.5877 -0.1154 -1.3280 0.9884
-2.5113 -0.5690 -1.3201 0.9885
-2.4881 -0.8023 -1.3403 0.9883
-2.4879 -1.0550 -1.3854 0.9879
-2.4717 -1.3189 -1.4363 0.9875
-3.2284 -3.6504 -2.4984 0.9783
-2.5297 -4.1644 -2.4980 0.9783
-1.7509 -4.5462 -2.4976 0.9783
-0.9170 -4.7838 -2.4972 0.9783
-0.0543 -4.8699 -2.4968 0.9783
0.3794 -4.8550 -2.4966 0.9783
0.8099 -4.8016 -2.4964 0.9783
1.2340 -4.7101 -2.4962 0.9784
2.4340 -4.2158 -2.4957 0.9784
2.7995 -3.9823 -2.4956 0.9784
3.1426 -3.7171 -2.4954 0.9784
3.4608 -3.4224 -2.4953 0.9784
4.5973 -1.5963 -2.4949 0.9784
4.8074 -0.7559 -2.4949 0.9784
4.8654 0.1084 -2.4949 0.9784
4.8365 0.5410 -2.4950 0.9784
4.6642 1.3901 -2.4951 0.9784
4.5222 1.7998 -2.4952 0.9784
4.3442 2.1953 -2.4954 0.9784
3.3902 3.0662 -2.3435 0.9797
3.1040 3.3560 -2.3436 0.9797
2.7932 3.6192 -2.3438 0.9797
1.3549 4.3678 -2.3445 0.9797
0.5591 4.5396 -2.3449 0.9797
-0.2547 4.5675 -2.3453 0.9796
-0.6603 4.5271 -2.3455 0.9796
-1.4527 4.3389 -2.3458 0.9796
-2.1993 4.0131 -2.3461 0.9796
-2.7135 4.0488 -2.4988 0.9783
-3.0633 3.7914 -2.4989 0.9783
-3.6873 3.1886 -2.4991 0.9783
-3.9566 2.8478 -2.4992 0.9783
-4.1945 2.4844 -2.4993 0.9783
-4.7021 1.2880 -2.4994 0.9783
-4.7981 0.8644 -2.4994 0.9783
-3.5463 0.3169 -1.8253 0.9841
-2.6714 -0.0000 -1.4261 0.9880
-2.4716 -0.4453 -1.3407 0.9887
-2.4501 -0.6712 -1.3561 0.9885
-2.4292 -1.1603 -1.4371 0.9879
-2.3944 -1.4182 -1.4856 0.9875
-3.2535 -3.3641 -2.4984 0.9790
-2.6051 -3.8871 -2.4981 0.9790
-2.2486 -4.1032 -2.4979 0.9790
-1.8744 -4.2868 -2.4977 0.9790
-1.4853 -4.4363 -2.4975 0.9790
0.5717 -4.6414 -2.4965 0.9790
1.7772 -4.3246 -2.4960 0.9790
2.1549 -4.1490 -2.4958 0.9790
2.8561 -3.7007 -2.4956 0.9790
3.1740 -3.4316 -2.4954 0.9790
4.1715 -2.1079 -2.4951 0.9790
4.3424 -1.7282 -2.4950 0.9790
4.4790 -1.3349 -2.4950 0.9790
4.6633 0.3122 -2.4951 0.9790
4.6171 0.7260 -2.4951 0.9790
4.2617 1.9202 -2.4954 0.9790
4.0741 2.2921 -2.4955 0.9790
3.8541 2.6457 -2.4956 0.9790
3.5461 2.9310 -2.4560 0.9794
3.1214 3.0869 -2.3436 0.9803
2.8345 3.3527 -2.3438 0.9803
2.5251 3.5919 -2.3439 0.9803
1.8484 3.9833 -2.3443 0.9803
1.4867 4.1323 -2.3444 0.9803
1.1131 4.2486 -2.3446 0.9803
0.7306 4.3311 -2.3448 0.9803
0.3422 4.3793 -2.3450 0.9803
-0.4397 4.3712 -2.3453 0.9803
-3.4010 3.2166 -2.4990 0.9790
-3.6739 2.9012 -2.4991 0.9790
-4.3102 1.8277 -2.4993 0.9790
-4.4558 1.4369 -2.4993 0.9790
-4.5661 1.0345 -2.4994 0.9790
-4.6400 0.6240 -2.4994 0.9790
-2.4861 -0.3344 -1.3391 0.9887
-2.4621 -0.5579 -1.3477 0.9886
-2.4353 -0.7853 -1.3660 0.9885
-2.4330 -1.0317 -1.4108 0.9881
-2.4151 -1.2887 -1.4613 0.9877
-2.4322 -1.5911 -1.5516 0.9869
-3.6732 -2.9007 -2.4986 0.9790
-3.4002 -3.2160 -2.4985 0.9790
-3.1003 -3.5056 -2.4983 0.9790
-2.7758 -3.7674 -2.4981 0.9790
-2.4293 -3.9992 -2.4980 0.9790
-2.0636 -4.1992 -2.4978 0.9790
-1.2861 -4.4979 -2.4974 0.9790
-0.8806 -4.5941 -2.4972 0.9790
-0.4682 -4.6539 -2.4970 0.9790
-0.0521 -4.6768 -2.4968 0.9790
0.3643 -4.6625 -2.4966 0.9790
0.7778 -4.6112 -2.4964 0.9790
1.1851 -4.5234 -2.4963 0.9790
1.9680 -4.2410 -2.4959 0.9790
2.6885 -3.8244 -2.4956 0.9790
3.0180 -3.5697 -2.4955 0.9790
3.6028 -2.9778 -2.4953 0.9790
3.8534 -2.6452 -2.4952 0.9790
4.4151 -1.5331 -2.4950 0.9790
4.6169 -0.7259 -2.4950 0.9790
4.6632 -0.3122 -2.4950 0.9790
4.6448 0.5196 -2.4951 0.9790
4.5803 0.9310 -2.4951 0.9790
4.3429 1.7285 -2.4953 0.9790
4.1721 2.1082 -2.4954 0.9790
3.7325 2.8148 -2.4957 0.9790
3.3051 2.9893 -2.3790 0.9800
2.9810 3.2230 -2.3437 0.9803
2.6824 3.4758 -2.3438 0.9803
2.0240 3.8968 -2.3442 0.9803
1.6692 4.0619 -2.3443 0.9803
1.3012 4.1946 -2.3445 0.9803
0.9227 4.2941 -2.3447 0.9803
0.5369 4.3595 -2.3449 0.9803
0.1468 4.3903 -2.3451 0.9803
-1.7605 4.0264 -2.3459 0.9803
-2.6058 3.8881 -2.4987 0.9790
-3.2542 3.3648 -2.4989 0.9790
-3.7996 2.7348 -2.4991 0.9790
-4.0280 2.3858 -2.4992 0.9790
-4.3874 1.6339 -2.4993 0.9790
-4.6076 0.8301 -2.4994 0.9790
-3.5314 0.3155 -1.8927 0.9841
-2.5975 0.0000 -1.4427 0.9882
-2.4347 -0.2176 -1.3576 0.9889
-2.4243 -0.4368 -1.3681 0.9888
-2.4018 -0.6579 -1.3831 0.9887
-2.3733 -1.1337 -1.4608 0.9880
-2.3176 -1.3727 -1.4960 0.9878
-3.4028 -2.9425 -2.4985 0.9796
-3.1272 -3.2335 -2.4983 0.9796
-1.4276 -4.2641 -2.4975 0.9796
-1.0424 -4.3739 -2.4973 0.9796
-0.6489 -4.4490 -2.4971 0.9796
0.5495 -4.4614 -2.4966 0.9796
0.9443 -4.3945 -2.4964 0.9796
1.3316 -4.2927 -2.4962 0.9796
2.0714 -3.9881 -2.4959 0.9796
3.0509 -3.2986 -2.4955 0.9797
3.8136 -2.3751 -2.4952 0.9797
4.0097 -2.0262 -2.4952 0.9797
4.4024 -0.8948 -2.4951 0.9797
4.4381 0.6979 -2.4952 0.9797
3.9161 2.2031 -2.4956 0.9797
3.4638 2.8629 -2.4958 0.9796
2.1103 3.6552 -2.3441 0.9809
1.7767 3.8287 -2.3443 0.9809
1.4290 3.9720 -2.3444 0.9809
0.7022 4.1630 -2.3448 0.9809
-0.7950 4.1476 -2.3455 0.9809
-1.5180 3.9414 -2.3458 0.9809
-1.9319 3.9314 -2.4329 0.9802
-3.2689 3.0917 -2.4989 0.9796
-3.7655 2.4633 -2.4991 0.9796
-4.4598 0.5998 -2.4993 0.9796
-2.5020 0.1116 -1.3910 0.9886
-2.4745 -0.1104 -1.3757 0.9887
-2.4351 -0.3275 -1.3646 0.9888
-2.3870 -0.7697 -1.3929 0.9886
-2.3600 -1.2593 -1.4857 0.9878
-3.2682 -3.0911 -2.4984 0.9796
-2.3350 -3.8439 -2.4979 0.9796
-1.6162 -4.1964 -2.4976 0.9796
-0.8464 -4.4158 -2.4972 0.9796
-0.4500 -4.4733 -2.4970 0.9796
0.3502 -4.4816 -2.4966 0.9796
0.7476 -4.4323 -2.4965 0.9796
1.5215 -4.2290 -2.4961 0.9796
1.8917 -4.0765 -2.4960 0.9796
4.2439 -1.4736 -2.4951 0.9797
4.3582 -1.0901 -2.4951 0.9797
4.4824 -0.3001 -2.4951 0.9797
4.4647 0.4994 -2.4952 0.9797
4.3057 1.2832 -2.4953 0.9797
4.1745 1.6615 -2.4954 0.9797
4.0103 2.0265 -2.4955 0.9797
3.2904 2.9760 -2.4640 0.9799
1.9455 3.7457 -2.3442 0.9809
1.6045 3.9043 -2.3444 0.9809
1.2507 4.0319 -2.3445 0.9809
0.8869 4.1275 -2.3447 0.9809
0.5161 4.1903 -2.3449 0.9809
0.1411 4.2200 -2.3451 0.9809
-1.3409 4.0050 -2.3457 0.9809
-2.8275 3.4996 -2.4988 0.9796
-3.4034 2.9431 -2.4990 0.9796
-3.6520 2.6286 -2.4991 0.9796
-4.0604 1.9395 -2.4992 0.9796
-4.2170 1.5704 -2.4992 0.9796
-4.3401 1.1889 -2.4993 0.9796
-2.5383 0.2268 -1.4154 0.9884
-2.5326 0.0000 -1.4622 0.9884
-2.3852 -0.2131 -1.3826 0.9890
-2.3780 -0.4284 -1.3951 0.9889
-2.3307 -0.8680 -1.4359 0.9886
-2.3203 -1.1083 -1.4846 0.9882
-2.2443 -1.3293 -1.5060 0.9880
-2.1929 -1.5783 -1.5599 0.9876
-3.0082 -3.1105 -2.4983 0.9802
-1.7331 -3.9637 -2.4976 0.9802
-1.3733 -4.1019 -2.4975 0.9802
-1.0027 -4.2076 -2.4973 0.9802
-0.6242 -4.2798 -2.4971 0.9802
-0.2408 -4.3181 -2.4969 0.9802
0.1445 -4.3221 -2.4968 0.9802
1.6434 -3.9988 -2.4961 0.9802
1.9926 -3.8365 -2.4959 0.9802
2.6410 -3.4220 -2.4957 0.9802
3.2056 -2.8993 -2.4955 0.9802
3.4508 -2.6024 -2.4954 0.9802
3.8574 -1.9492 -2.4952 0.9802
4.0155 -1.5981 -2.4952 0.9802
4.2351 -0.8608 -2.4952 0.9802
4.2950 -0.4804 -2.4952 0.9802
4.3207 -0.0963 -2.4952 0.9802
4.2695 0.6714 -2.4953 0.9802
4.1929 1.0487 -2.4953 0.9802
3.7673 2.1194 -2.4956 0.9802
2.6352 3.1172 -2.3567 0.9813
2.3348 3.3213 -2.3440 0.9814
2.0301 3.5162 -2.3441 0.9814
1.7092 3.6832 -2.3443 0.9814
1.3747 3.8210 -2.3445 0.9814
0.6755 4.0047 -2.3448 0.9814
-0.7648 3.9898 -2.3455 0.9814
-2.2467 3.6986 -2.4985 0.9802
-2.5671 3.4841 -2.4986 0.9802
-2.8672 3.2420 -2.4988 0.9802
-3.6222 2.3696 -2.4990 0.9802
-3.8189 2.0379 -2.4991 0.9802
-3.9852 1.6899 -2.4991 0.9802
-4.1198 1.3285 -2.4992 0.9802
-4.2901 0.5770 -2.4992 0.9802
-2.4200 -0.1079 -1.3986 0.9889
-2.3854 -0.3208 -1.3896 0.9889
-2.3668 -0.5362 -1.4011 0.9889
-2.3269 -0.9867 -1.4592 0.9884
-2.2904 -1.2222 -1.4988 0.9881
-2.1940 -1.4353 -1.5137 0.9880
-3.3963 -2.6820 -2.4985 0.9802
-1.5548 -4.0368 -2.4976 0.9802
-0.8143 -4.2479 -2.4972 0.9802
0.3369 -4.3112 -2.4967 0.9802
1.4636 -4.0682 -2.4962 0.9802
1.8198 -3.9216 -2.4960 0.9802
2.7908 -3.3009 -2.4956 0.9802
3.7667 -2.1191 -2.4953 0.9802
3.9403 -1.7754 -2.4952 0.9802
4.1926 -1.0486 -2.4952 0.9802
4.3121 -0.2887 -2.4952 0.9802
4.3207 0.0963 -2.4952 0.9802
4.2951 0.4805 -2.4952 0.9802
4.1421 1.2345 -2.4954 0.9802
4.0159 1.5983 -2.4955 0.9802
3.4514 2.6029 -2.4958 0.9802
2.4804 3.2139 -2.3439 0.9814
2.1846 3.4222 -2.3441 0.9814
0.4965 4.0310 -2.3449 0.9814
-0.2261 4.0557 -2.3452 0.9814
-0.5863 4.0198 -2.3454 0.9814
-0.9418 3.9519 -2.3455 0.9814
-1.2899 3.8527 -2.3457 0.9814
-1.6992 3.8861 -2.4487 0.9806
-2.4093 3.5950 -2.4986 0.9802
-3.9059 1.8657 -2.4991 0.9802
