ply
format ascii 1.0
element vertex 1589
property float32 x
property float32 y
property float32 z
property float32 I
end_header
7.6409 10.8694 -2.3427 0.9475
6.6444 11.5085 -2.3432 0.9475
4.5004 12.5090 -2.3441 0.9474
3.3698 12.8625 -2.3445 0.9474
-1.3320 13.2403 -2.3464 0.9474
-4.7853 12.4248 -2.3477 0.9474
-5.8732 11.9515 -2.3481 0.9473
-7.9015 10.7241 -2.3488 0.9473
-8.8259 9.9796 -2.3491 0.9473
-10.0638 7.9473 -2.2611 0.9492
-11.7582 6.2744 -2.3500 0.9473
-13.5099 4.3564 -2.5029 0.9440
-13.8443 3.1367 -2.5030 0.9440
-12.5178 -6.6797 -2.5018 0.9440
-11.1321 -8.7909 -2.5011 0.9440
-10.3039 -9.7453 -2.5007 0.9440
-7.3593 -12.1150 -2.4994 0.9441
-3.8948 -13.6209 -2.4980 0.9441
-1.4175 -14.0900 -2.4970 0.9441
-0.1577 -14.1574 -2.4965 0.9441
4.7894 -13.3124 -2.4946 0.9442
9.1286 -10.7973 -2.4931 0.9442
10.0522 -9.9408 -2.4928 0.9442
10.8959 -9.0057 -2.4925 0.9442
12.8851 -5.8058 -2.4920 0.9442
13.3502 -4.6357 -2.4919 0.9442
13.9602 -2.1952 -2.4918 0.9442
13.1883 1.4754 -2.3400 0.9475
12.4273 3.7037 -2.2865 0.9487
11.8484 5.9873 -2.3408 0.9475
11.2699 7.0190 -2.3411 0.9475
10.6019 7.9953 -2.3414 0.9475
9.8497 8.9085 -2.3418 0.9475
9.0192 9.7515 -2.3421 0.9475
8.1169 10.5173 -2.3425 0.9475
7.1498 11.2000 -2.3430 0.9475
5.0527 12.2949 -2.3439 0.9474
3.9391 12.6984 -2.3443 0.9474
2.7938 13.0011 -2.3448 0.9474
1.6258 13.2008 -2.3452 0.9474
-1.9207 13.1691 -2.3466 0.9474
-5.3345 12.2003 -2.3479 0.9474
-7.4155 11.0646 -2.3486 0.9473
-8.3720 10.3622 -2.3490 0.9473
-9.2622 9.5771 -2.3492 0.9473
-10.6810 7.6877 -2.3205 0.9480
-11.4666 6.7917 -2.3499 0.9473
-12.1000 5.7797 -2.3645 0.9470
-13.9703 2.5169 -2.5030 0.9440
-14.1388 1.2635 -2.5030 0.9440
-12.7252 -2.2926 -2.5022 0.9487
-12.4697 -3.4158 -2.5020 0.9487
-12.1152 -4.5117 -2.5018 0.9487
-11.1209 -6.5870 -2.5013 0.9487
-8.9819 -9.2872 -2.5003 0.9487
-7.1907 -10.7292 -2.4995 0.9487
-6.2061 -11.3247 -2.4990 0.9487
-5.1726 -11.8301 -2.4986 0.9488
-2.9921 -12.5552 -2.4977 0.9488
-1.8624 -12.7694 -2.4973 0.9488
1.5766 -12.8009 -2.4959 0.9488
2.7092 -12.6076 -2.4955 0.9488
3.8200 -12.3144 -2.4951 0.9488
4.9001 -11.9236 -2.4947 0.9488
5.9410 -11.4384 -2.4943 0.9488
7.8728 -10.2012 -2.4936 0.9489
9.5547 -8.6417 -2.4931 0.9489
10.9337 -6.8096 -2.4927 0.9489
12.3426 -3.6785 -2.4923 0.9489
12.7991 -1.4318 -2.4923 0.9489
11.7337 2.9348 -2.3406 0.9519
11.0293 4.9696 -2.3410 0.9519
10.5444 5.9322 -2.3413 0.9519
9.9758 6.8479 -2.3416 0.9519
2.0155 11.9490 -2.3450 0.9518
-0.1351 12.1214 -2.3459 0.9518
-1.2136 12.0635 -2.3463 0.9518
-2.2829 11.9096 -2.3467 0.9518
-3.3344 11.6612 -2.3471 0.9518
-8.0406 9.0916 -2.3487 0.9518
-9.5271 7.5234 -2.3492 0.9517
-10.1597 6.6462 -2.3494 0.9517
-12.3073 3.9686 -2.5025 0.9487
-12.8162 1.7236 -2.5025 0.9487
-12.9186 0.5761 -2.5025 0.9487
-12.9182 -0.5761 -2.5024 0.9487
-12.8150 -1.7235 -2.5023 0.9487
-12.6100 -2.8570 -2.5021 0.9487
-12.3047 -3.9678 -2.5019 0.9487
-10.1418 -8.0089 -2.5008 0.9487
-9.3874 -8.8786 -2.5004 0.9487
-7.6621 -10.3991 -2.4997 0.9487
-5.6950 -11.5889 -2.4988 0.9488
-4.6401 -12.0477 -2.4984 0.9488
-3.5487 -12.4106 -2.4979 0.9488
-1.2916 -12.8385 -2.4970 0.9488
-0.1437 -12.9002 -2.4966 0.9488
1.0049 -12.8595 -2.4961 0.9488
3.2679 -12.4733 -2.4953 0.9488
5.4260 -11.6926 -2.4945 0.9488
6.4442 -11.1616 -2.4941 0.9488
9.9297 -8.2071 -2.4930 0.9489
12.4941 -3.1250 -2.4923 0.9489
12.8503 -0.8602 -2.4923 0.9489
11.8523 2.4091 -2.3405 0.9519
10.7976 5.4562 -2.3412 0.9519
10.2703 6.3964 -2.3414 0.9519
7.3965 9.5839 -2.3428 0.9519
3.5892 11.5706 -2.3444 0.9518
2.5456 11.8463 -2.3448 0.9518
-1.7499 11.9984 -2.3465 0.9518
-2.8114 11.7971 -2.3469 0.9518
-3.8509 11.5020 -2.3473 0.9518
-7.6271 9.4402 -2.3486 0.9518
-8.4381 8.7249 -2.3489 0.9518
-9.8532 7.0919 -2.3493 0.9517
-10.4460 6.1872 -2.3495 0.9517
-12.1181 4.5129 -2.5024 0.9487
-12.4721 3.4165 -2.5025 0.9487
-12.8802 1.1510 -2.5025 0.9487
-11.8680 -0.0000 -2.5020 0.9526
-11.8205 -1.0563 -2.5019 0.9526
-11.6790 -2.1041 -2.5018 0.9526
-11.1193 -4.1409 -2.5014 0.9527
-10.7056 -5.1136 -2.5012 0.9527
-10.2069 -6.0456 -2.5010 0.9527
-8.2440 -8.5242 -2.5000 0.9527
-2.7465 -11.5247 -2.4977 0.9527
-0.6594 -11.8251 -2.4969 0.9527
1.4473 -11.7509 -2.4960 0.9528
4.4983 -10.9460 -2.4949 0.9528
9.4423 -7.1208 -2.4932 0.9528
10.5539 -5.3331 -2.4929 0.9528
11.5870 -2.3552 -2.4927 0.9528
11.8212 -0.2634 -2.4928 0.9528
10.4905 3.6427 -2.3412 0.9556
10.1256 4.5624 -2.3414 0.9556
8.5633 7.0778 -2.3421 0.9556
7.9004 7.8129 -2.3424 0.9556
7.1747 8.4862 -2.3428 0.9556
5.5580 9.6267 -2.3435 0.9556
4.6799 10.0848 -2.3438 0.9556
0.8667 11.0914 -2.3454 0.9555
-0.1240 11.1263 -2.3458 0.9555
-1.1139 11.0729 -2.3462 0.9555
-2.0954 10.9316 -2.3465 0.9555
-3.0605 10.7033 -2.3469 0.9555
-4.0016 10.3900 -2.3473 0.9555
-4.9112 9.9940 -2.3476 0.9555
-5.7820 9.5184 -2.3479 0.9555
-6.6070 8.9671 -2.3482 0.9555
-8.7439 6.9050 -2.3489 0.9555
-9.3245 6.0997 -2.3490 0.9555
-10.1464 5.4143 -2.4246 0.9541
-10.9261 4.6330 -2.5020 0.9526
-11.2954 3.6423 -2.5020 0.9526
-11.5749 2.6225 -2.5021 0.9526
-11.7624 1.5819 -2.5021 0.9526
-11.8564 0.5287 -2.5020 0.9526
-11.8560 -0.5287 -2.5020 0.9526
-11.7614 -1.5818 -2.5019 0.9526
-11.5733 -2.6221 -2.5017 0.9526
-11.2932 -3.6416 -2.5015 0.9527
-10.9233 -4.6319 -2.5013 0.9527
-9.3085 -7.3508 -2.5005 0.9527
-7.8555 -8.8824 -2.4999 0.9527
-5.2273 -10.6373 -2.4987 0.9527
-3.2574 -11.3919 -2.4979 0.9527
-2.2302 -11.6347 -2.4975 0.9527
0.9224 -11.8046 -2.4962 0.9527
4.9811 -10.7340 -2.4947 0.9528
7.6372 -9.0333 -2.4938 0.9528
9.1161 -7.5346 -2.4933 0.9528
9.7498 -6.6929 -2.4931 0.9528
10.3062 -5.7981 -2.4930 0.9528
10.7808 -4.8576 -2.4929 0.9528
11.1700 -3.8786 -2.4928 0.9528
11.4706 -2.8690 -2.4927 0.9528
11.7977 -0.7897 -2.4927 0.9528
11.8214 0.2634 -2.4928 0.9528
10.6420 3.1716 -2.3411 0.9556
10.3183 4.1066 -2.3413 0.9556
8.2400 7.4527 -2.3423 0.9556
7.5450 8.1576 -2.3426 0.9556
6.7900 8.7980 -2.3429 0.9556
5.1241 9.8656 -2.3437 0.9556
4.2263 10.2841 -2.3440 0.9556
3.2947 10.6212 -2.3444 0.9556
-1.6062 11.0132 -2.3464 0.9555
-2.5805 10.8282 -2.3467 0.9555
-3.5345 10.5571 -2.3471 0.9555
-4.4608 10.2021 -2.3474 0.9555
-6.2006 9.2520 -2.3480 0.9555
-7.0003 8.6644 -2.3483 0.9555
-9.5872 5.6785 -2.3491 0.9555
-10.7086 5.1151 -2.5019 0.9526
-11.1218 4.1418 -2.5020 0.9526
-11.4466 3.1356 -2.5021 0.9526
-11.8212 1.0564 -2.5021 0.9526
-10.9166 -0.9755 -2.5016 0.9560
-10.7860 -1.9432 -2.5015 0.9560
-9.4267 -5.5835 -2.5007 0.9560
-8.8914 -6.3997 -2.5004 0.9560
-8.2856 -7.1648 -2.5001 0.9561
-6.8822 -8.5182 -2.4995 0.9561
-6.0959 -9.0957 -2.4992 0.9561
-2.5368 -10.6449 -2.4977 0.9561
0.3655 -10.9318 -2.4965 0.9561
2.2973 -10.6907 -2.4958 0.9561
3.2392 -10.4423 -2.4954 0.9561
6.6766 -8.6511 -2.4942 0.9562
7.4193 -8.0217 -2.4940 0.9562
10.1490 -4.0392 -2.4932 0.9562
10.4680 -3.1198 -2.4931 0.9562
10.7040 -2.1757 -2.4931 0.9562
10.8552 -1.2143 -2.4931 0.9562
10.9204 -0.2434 -2.4931 0.9562
10.8990 0.7296 -2.4932 0.9562
9.6909 3.3651 -2.3414 0.9588
7.2979 7.2170 -2.3426 0.9588
5.9042 8.3988 -2.3433 0.9588
4.3228 9.3153 -2.3439 0.9587
3.4770 9.6646 -2.3443 0.9587
2.6034 9.9372 -2.3446 0.9587
1.7089 10.1311 -2.3450 0.9587
0.8005 10.2445 -2.3454 0.9587
-0.1145 10.2767 -2.3457 0.9587
-1.0289 10.2272 -2.3461 0.9587
-2.8267 9.8856 -2.3468 0.9587
-5.3401 8.7910 -2.3477 0.9587
-6.1020 8.2817 -2.3479 0.9587
-7.4751 7.0700 -2.3484 0.9587
-9.6693 5.1597 -2.5015 0.9560
-10.4317 3.3638 -2.5017 0.9560
-10.6898 2.4220 -2.5017 0.9560
-10.9497 0.4882 -2.5017 0.9560
-10.8621 -1.4608 -2.5015 0.9560
-10.6884 -2.4217 -2.5014 0.9560
-9.1682 -5.9976 -2.5006 0.9560
-8.5970 -6.7890 -2.5003 0.9561
-7.9577 -7.5264 -2.5000 0.9561
-7.2553 -8.2037 -2.4997 0.9561
-6.4955 -8.8157 -2.4993 0.9561
-5.6842 -9.3575 -2.4990 0.9561
-4.8281 -9.8249 -2.4986 0.9561
-3.0087 -10.5221 -2.4979 0.9561
-2.0599 -10.7465 -2.4975 0.9561
-1.0951 -10.8855 -2.4971 0.9561
1.8189 -10.7832 -2.4960 0.9561
2.7710 -10.5770 -2.4956 0.9561
3.7009 -10.2869 -2.4953 0.9561
5.4648 -9.4654 -2.4946 0.9561
6.2849 -8.9404 -2.4943 0.9562
7.0550 -8.3446 -2.4941 0.9562
9.9592 -4.4874 -2.4932 0.9562
10.7903 -1.6967 -2.4931 0.9562
10.8986 -0.7296 -2.4931 0.9562
10.0520 2.0431 -2.3412 0.9588
9.8309 2.9299 -2.3414 0.9588
9.5318 3.7936 -2.3415 0.9588
8.1932 6.1788 -2.3422 0.9588
6.9696 7.5355 -2.3428 0.9588
3.9038 9.4994 -2.3441 0.9587
2.1583 10.0441 -2.3448 0.9587
1.2560 10.1979 -2.3452 0.9587
-0.5722 10.2622 -2.3459 0.9587
-1.4835 10.1720 -2.3463 0.9587
-2.3834 10.0010 -2.3466 0.9587
-4.1199 9.4226 -2.3472 0.9587
-4.9429 9.0196 -2.3475 0.9587
-5.7267 8.5448 -2.3478 0.9587
-7.1525 7.3956 -2.3483 0.9587
-7.7830 6.7302 -2.3485 0.9587
-9.8898 4.7240 -2.5016 0.9560
-10.2713 3.8251 -2.5016 0.9560
-10.5712 2.8958 -2.5017 0.9560
-10.1357 -0.9057 -2.5013 0.9590
-10.0144 -1.8042 -2.5012 0.9590
-9.1801 -4.3849 -2.5007 0.9590
-8.7526 -5.1842 -2.5004 0.9590
-7.0697 -7.3100 -2.4997 0.9590
-6.3903 -7.9093 -2.4993 0.9590
-4.8854 -8.9147 -2.4987 0.9590
-3.2265 -9.6369 -2.4980 0.9590
3.0080 -9.6970 -2.4956 0.9590
3.8587 -9.3896 -2.4953 0.9590
4.6786 -9.0079 -2.4950 0.9591
7.5252 -6.8061 -2.4940 0.9591
9.4253 -3.7512 -2.4935 0.9591
9.9407 -2.0205 -2.4934 0.9591
10.1416 -0.2260 -2.4934 0.9591
8.9997 3.1251 -2.3417 0.9615
7.3459 6.0716 -2.3425 0.9615
6.7771 6.7020 -2.3428 0.9615
5.4828 7.7994 -2.3434 0.9615
4.7675 8.2575 -2.3437 0.9615
4.0141 8.6503 -2.3440 0.9615
3.2288 8.9745 -2.3443 0.9615
1.5868 9.4074 -2.3450 0.9615
-0.9553 9.4964 -2.3460 0.9614
-1.7970 9.3750 -2.3463 0.9614
-4.9583 8.1624 -2.3475 0.9614
-5.6657 7.6895 -2.3477 0.9614
-6.9405 6.5643 -2.3481 0.9614
-7.4978 5.9210 -2.3483 0.9614
-7.9955 5.2304 -2.3485 0.9614
-8.9776 4.7906 -2.5012 0.9590
-9.6854 3.1231 -2.5014 0.9589
-10.1661 -0.4533 -2.5013 0.9589
-9.9238 -2.2484 -2.5011 0.9590
-8.5126 -5.5687 -2.5003 0.9590
-7.9823 -6.3036 -2.5001 0.9590
-3.6528 -9.4843 -2.4982 0.9590
-1.0169 -10.1081 -2.4971 0.9590
0.7912 -10.1254 -2.4964 0.9590
1.6890 -10.0134 -2.4961 0.9590
2.5732 -9.8220 -2.4957 0.9590
3.4368 -9.5528 -2.4954 0.9590
5.0749 -8.7900 -2.4948 0.9591
5.8365 -8.3025 -2.4946 0.9591
7.8206 -6.4639 -2.4939 0.9591
8.3643 -5.7418 -2.4937 0.9591
8.8417 -4.9742 -2.4936 0.9591
9.5829 -3.3275 -2.4934 0.9591
10.0208 -1.5757 -2.4934 0.9591
10.1214 -0.6775 -2.4934 0.9591
10.1417 0.2260 -2.4935 0.9591
10.0817 1.1278 -2.4935 0.9591
9.1297 2.7209 -2.3416 0.9615
8.8519 3.5230 -2.3418 0.9615
8.0884 5.0375 -2.3422 0.9615
7.6087 5.7380 -2.3424 0.9615
7.0685 6.3931 -2.3427 0.9615
5.8244 7.5469 -2.3432 0.9615
3.6251 8.8211 -2.3442 0.9615
2.8260 9.1100 -2.3445 0.9615
2.0042 9.3267 -2.3448 0.9615
1.1663 9.4694 -2.3452 0.9615
-0.5313 9.5289 -2.3458 0.9615
-3.0312 9.0536 -2.3468 0.9614
-3.8254 8.7489 -2.3471 0.9614
-4.5895 8.3747 -2.3473 0.9614
-5.3172 7.9338 -2.3476 0.9614
-6.6409 6.8667 -2.3480 0.9614
-7.2263 6.2488 -2.3482 0.9614
-7.7544 5.5812 -2.3484 0.9614
-9.1823 4.3860 -2.5013 0.9590
-9.8150 2.6886 -2.5014 0.9589
-10.1362 0.9058 -2.5014 0.9589
-9.4918 -0.0000 -2.5011 0.9615
-9.1534 -2.5074 -2.5008 0.9615
-8.8934 -3.3119 -2.5006 0.9615
-6.5944 -6.8186 -2.4995 0.9615
-5.9607 -7.3776 -2.4992 0.9615
-3.7984 -8.6870 -2.4983 0.9615
-0.5276 -9.4614 -2.4970 0.9616
2.8061 -9.0461 -2.4957 0.9616
3.5997 -8.7594 -2.4954 0.9616
6.4278 -6.9496 -2.4944 0.9616
7.0203 -6.3495 -2.4942 0.9616
8.0339 -5.0035 -2.4939 0.9616
8.4470 -4.2684 -2.4938 0.9616
9.0694 -2.7030 -2.4937 0.9616
9.2739 -1.8850 -2.4937 0.9616
9.4049 -1.0521 -2.4937 0.9616
9.4614 -0.2108 -2.4937 0.9616
13.7776 3.4460 -3.7423 0.9429
8.1037 3.6514 -2.3421 0.9639
7.3292 5.0312 -2.3425 0.9639
6.3223 6.2522 -2.3430 0.9639
5.7414 6.7909 -2.3432 0.9639
5.1147 7.2758 -2.3435 0.9639
3.0119 8.3718 -2.3444 0.9639
2.2551 8.6078 -2.3447 0.9639
1.4802 8.7755 -2.3450 0.9639
0.6934 8.8736 -2.3453 0.9639
-0.0992 8.9012 -2.3456 0.9638
-0.8911 8.8583 -2.3459 0.9638
-2.4482 8.5621 -2.3465 0.9638
-3.2010 8.3112 -2.3468 0.9638
-3.9284 7.9942 -2.3471 0.9638
-5.9026 6.6741 -2.3477 0.9638
-6.4737 6.1228 -2.3479 0.9638
-8.7385 3.7055 -2.5010 0.9615
-9.0338 2.9130 -2.5011 0.9615
-9.2573 2.0974 -2.5011 0.9615
-9.4825 0.4228 -2.5011 0.9615
-9.4822 -0.4228 -2.5011 0.9615
-9.4067 -1.2651 -2.5010 0.9615
-8.3717 -4.4673 -2.5003 0.9615
-7.4456 -5.8797 -2.4999 0.9615
-6.8920 -6.5184 -2.4996 0.9615
-5.6258 -7.6354 -2.4991 0.9615
-4.9233 -8.1048 -2.4988 0.9615
-3.4074 -8.8471 -2.4981 0.9615
-2.6061 -9.1140 -2.4978 0.9615
-0.1055 -9.4749 -2.4968 0.9616
0.7381 -9.4455 -2.4965 0.9616
1.5756 -9.3411 -2.4961 0.9616
2.4005 -9.1626 -2.4958 0.9616
3.9861 -8.5898 -2.4953 0.9616
4.7343 -8.2001 -2.4950 0.9616
5.4449 -7.7454 -2.4947 0.9616
6.7307 -6.6562 -2.4943 0.9616
8.2486 -4.6406 -2.4939 0.9616
8.6286 -3.8878 -2.4938 0.9616
9.3487 -1.4700 -2.4937 0.9616
9.4615 0.2109 -2.4937 0.9616
13.9171 2.8288 -3.7422 0.9429
8.2580 3.2866 -2.3420 0.9639
7.9333 4.0089 -2.3422 0.9639
7.5457 4.6995 -2.3424 0.9639
5.4335 7.0403 -2.3434 0.9639
1.8696 8.7002 -2.3449 0.9639
1.0879 8.8333 -2.3452 0.9639
-0.4956 8.8886 -2.3458 0.9638
-2.0643 8.6621 -2.3464 0.9638
-2.8274 8.4450 -2.3467 0.9638
-4.2809 7.8116 -2.3472 0.9638
-4.9597 7.4004 -2.3474 0.9638
-8.5646 4.0910 -2.5010 0.9615
-8.8950 3.3125 -2.5011 0.9615
-9.4543 0.8448 -2.5011 0.9615
-5.0319 0.0000 -1.4158 0.9793
-3.9277 -0.3510 -1.1095 0.9837
-3.7284 -0.6717 -1.0659 0.9844
-7.2113 -5.1904 -2.4998 0.9638
-6.7201 -5.8111 -2.4996 0.9638
-4.2677 -7.7876 -2.4985 0.9638
-3.5572 -8.1355 -2.4982 0.9638
-1.2810 -8.7830 -2.4973 0.9638
-0.4941 -8.8611 -2.4970 0.9638
0.2965 -8.8688 -2.4967 0.9638
2.6281 -8.4723 -2.4958 0.9638
3.3714 -8.2039 -2.4955 0.9638
4.7717 -7.4746 -2.4950 0.9638
6.0203 -6.5091 -2.4946 0.9638
6.5753 -5.9470 -2.4944 0.9638
7.0781 -5.3378 -2.4943 0.9638
7.9116 -3.9979 -2.4940 0.9638
8.2358 -3.2778 -2.4940 0.9638
8.4947 -2.5317 -2.4939 0.9638
8.8089 -0.9854 -2.4939 0.9638
8.8617 -0.1974 -2.4939 0.9638
7.8638 2.7306 -2.3421 0.9660
7.5900 3.4199 -2.3423 0.9660
6.8645 4.7122 -2.3426 0.9660
4.7903 6.8143 -2.3436 0.9660
4.1653 7.2145 -2.3439 0.9660
3.5071 7.5575 -2.3441 0.9660
2.8208 7.8406 -2.3444 0.9660
2.1120 8.0615 -2.3447 0.9660
1.3863 8.2186 -2.3450 0.9660
-0.0929 8.3362 -2.3456 0.9660
-0.8346 8.2959 -2.3459 0.9659
-2.2928 8.0183 -2.3464 0.9659
-2.9977 7.7833 -2.3467 0.9659
-3.6789 7.4864 -2.3469 0.9659
-4.3311 7.1299 -2.3472 0.9659
-6.0624 5.7337 -2.3477 0.9659
-6.5491 5.1717 -2.3479 0.9659
-7.4376 4.8655 -2.5006 0.9637
-7.8415 4.1844 -2.5007 0.9637
-8.4597 2.7279 -2.5009 0.9637
-8.6690 1.9642 -2.5009 0.9637
-4.2110 -0.1878 -1.1860 0.9826
-8.1816 -3.4693 -2.5003 0.9637
-7.8398 -4.1834 -2.5002 0.9637
-6.4542 -6.1044 -2.4995 0.9638
-5.8847 -6.6539 -2.4992 0.9638
-5.2685 -7.1505 -2.4990 0.9638
-0.0989 -8.8737 -2.4968 0.9638
1.4757 -8.7485 -2.4962 0.9638
3.7333 -8.0451 -2.4954 0.9638
4.4341 -7.6801 -2.4951 0.9638
5.0997 -7.2543 -2.4949 0.9638
5.7246 -6.7711 -2.4947 0.9638
6.8335 -5.6480 -2.4943 0.9638
7.7258 -4.3465 -2.4941 0.9638
8.0817 -3.6414 -2.4940 0.9638
8.8441 -0.5920 -2.4939 0.9638
8.8618 0.1975 -2.4940 0.9638
8.8094 0.9855 -2.4940 0.9638
13.0350 2.6495 -3.7425 0.9462
7.9774 2.3775 -2.3420 0.9660
7.7346 3.0783 -2.3422 0.9660
7.4304 3.7548 -2.3424 0.9660
6.6481 5.0136 -2.3427 0.9660
6.1760 5.5859 -2.3430 0.9660
3.1671 7.7067 -2.3443 0.9660
2.4689 7.9589 -2.3446 0.9660
1.0189 8.2727 -2.3452 0.9660
0.2786 8.3316 -2.3454 0.9660
-1.9332 8.1121 -2.3463 0.9659
-2.6478 7.9087 -2.3466 0.9659
-4.0090 7.3154 -2.3470 0.9659
-4.6446 6.9303 -2.3473 0.9659
-5.2434 6.4899 -2.3475 0.9659
-5.8007 5.9979 -2.3477 0.9659
-6.3120 5.4582 -2.3478 0.9659
-6.7732 4.8750 -2.3480 0.9659
-8.3297 3.1020 -2.5008 0.9637
-8.7479 1.5760 -2.5009 0.9637
-8.8534 0.7912 -2.5009 0.9637
-3.4798 -0.6269 -1.0586 0.9853
-7.8263 -2.9146 -2.5002 0.9657
-7.5354 -3.5993 -2.5001 0.9657
-6.7768 -4.8776 -2.4997 0.9657
-6.3152 -5.4610 -2.4995 0.9657
-5.2458 -6.4929 -2.4990 0.9657
-3.3430 -7.6456 -2.4982 0.9658
-2.6489 -7.9119 -2.4979 0.9658
-1.2039 -8.2543 -2.4973 0.9658
-0.4643 -8.3277 -2.4970 0.9658
0.2787 -8.3350 -2.4967 0.9658
4.4846 -7.0250 -2.4952 0.9658
5.6582 -6.1176 -2.4948 0.9658
6.6524 -5.0168 -2.4945 0.9658
7.4359 -3.7575 -2.4942 0.9658
7.9839 -2.3795 -2.4941 0.9658
8.1639 -1.6594 -2.4941 0.9658
8.3289 -0.1856 -2.4941 0.9658
12.1284 3.0335 -3.7429 0.9491
7.1336 3.2142 -2.3424 0.9679
6.8197 3.8367 -2.3426 0.9679
6.4516 4.4288 -2.3428 0.9679
6.0323 4.9859 -2.3430 0.9679
5.5651 5.5035 -2.3432 0.9678
5.0537 5.9776 -2.3434 0.9678
3.2960 7.1026 -2.3442 0.9678
2.6510 7.3687 -2.3445 0.9678
1.9849 7.5763 -2.3447 0.9678
1.3028 7.7237 -2.3450 0.9678
-0.7843 7.7962 -2.3458 0.9678
-1.4753 7.6964 -2.3461 0.9678
-2.8171 7.3144 -2.3466 0.9678
-5.6970 5.3881 -2.3476 0.9678
-6.1685 4.8712 -2.3531 0.9677
-7.9497 2.5635 -2.5007 0.9657
-8.1464 1.8457 -2.5007 0.9657
-8.2784 1.1133 -2.5007 0.9657
-3.5144 -0.4727 -1.0616 0.9853
-7.6885 -3.2602 -2.5002 0.9657
-5.5302 -6.2530 -2.4991 0.9657
-4.3329 -7.1330 -2.4986 0.9658
-2.9989 -7.7864 -2.4980 0.9658
1.3869 -8.2221 -2.4963 0.9658
2.1130 -8.0651 -2.4960 0.9658
2.8221 -7.8442 -2.4958 0.9658
3.5088 -7.5611 -2.4955 0.9658
4.1674 -7.2181 -2.4953 0.9658
5.9249 -5.8593 -2.4947 0.9658
7.2613 -4.0851 -2.4943 0.9658
7.5958 -3.4225 -2.4942 0.9658
7.8701 -2.7328 -2.4941 0.9658
8.0819 -2.0214 -2.4941 0.9658
8.3123 -0.5564 -2.4941 0.9658
8.3290 0.1856 -2.4942 0.9658
8.2797 0.9262 -2.4942 0.9658
11.9816 3.5709 -3.7430 0.9491
7.2694 2.8932 -2.3424 0.9679
6.9835 3.5290 -2.3425 0.9679
6.6422 4.1368 -2.3427 0.9679
6.2482 4.7120 -2.3429 0.9679
5.3147 5.7462 -2.3433 0.9678
4.7827 6.1971 -2.3435 0.9678
3.6089 6.9484 -2.3441 0.9678
2.9765 7.2428 -2.3443 0.9678
2.3203 7.4798 -2.3446 0.9678
0.2618 7.8299 -2.3454 0.9678
-0.4362 7.8230 -2.3457 0.9678
-1.1309 7.7540 -2.3460 0.9678
-1.8168 7.6234 -2.3462 0.9678
-3.1403 7.1820 -2.3467 0.9678
-3.7674 6.8747 -2.3469 0.9678
-4.9275 6.0988 -2.3473 0.9678
-5.4511 5.6364 -2.3475 0.9678
-6.6338 4.7747 -2.4470 0.9664
-7.1862 4.2564 -2.5005 0.9657
-7.5368 3.6000 -2.5006 0.9657
-8.0561 2.2068 -2.5007 0.9657
-8.3197 0.7434 -2.5007 0.9657
-3.2843 -0.5917 -1.0598 0.9861
-7.3772 -2.7473 -2.5001 0.9675
-7.1030 -3.3928 -2.4999 0.9675
-5.4706 -5.6566 -2.4991 0.9675
-4.9450 -6.1205 -2.4989 0.9675
-1.8231 -7.6501 -2.4976 0.9675
0.2627 -7.8573 -2.4968 0.9675
0.9609 -7.8019 -2.4965 0.9675
2.3285 -7.5064 -2.4960 0.9676
3.6218 -6.9733 -2.4955 0.9676
4.8001 -6.2196 -2.4951 0.9676
5.3342 -5.7673 -2.4949 0.9676
5.8260 -5.2693 -2.4948 0.9676
6.2715 -4.7296 -2.4946 0.9676
7.6966 -1.5644 -2.4943 0.9676
7.8053 -0.8732 -2.4943 0.9676
7.8521 -0.1750 -2.4943 0.9676
7.7591 1.2201 -2.4945 0.9676
6.7251 3.0302 -2.3426 0.9695
6.4291 3.6169 -2.3427 0.9695
6.0821 4.1751 -2.3429 0.9695
5.6868 4.7003 -2.3431 0.9695
3.6903 6.3918 -2.3440 0.9695
1.8711 7.1420 -2.3447 0.9695
1.2282 7.2810 -2.3450 0.9695
0.5753 7.3622 -2.3453 0.9695
-0.0823 7.3851 -2.3455 0.9695
-1.3907 7.2550 -2.3460 0.9695
-2.0311 7.1031 -2.3463 0.9695
-3.2589 6.6318 -2.3467 0.9695
-5.3701 5.0790 -2.3474 0.9695
-6.9460 3.7065 -2.5003 0.9675
-7.2485 3.0736 -2.5004 0.9675
-3.4557 -0.1541 -1.0986 0.9856
-3.3189 -0.4464 -1.0635 0.9860
-3.2827 -1.0586 -1.0954 0.9856
-6.9446 -3.7057 -2.4998 0.9675
-6.1766 -4.8776 -2.4995 0.9675
-5.7174 -5.4075 -2.4993 0.9675
-4.0845 -6.7239 -2.4985 0.9675
-2.8270 -7.3400 -2.4980 0.9675
-0.7871 -7.8235 -2.4972 0.9675
-0.0876 -7.8617 -2.4969 0.9675
0.6124 -7.8374 -2.4966 0.9675
1.3074 -7.7510 -2.4964 0.9675
1.9919 -7.6030 -2.4961 0.9676
3.9287 -6.8047 -2.4954 0.9676
4.5184 -6.4275 -2.4952 0.9676
6.0548 -5.0044 -2.4947 0.9676
6.4758 -4.4454 -2.4946 0.9676
6.8455 -3.8512 -2.4945 0.9676
7.4195 -2.5763 -2.4943 0.9676
7.6193 -1.9057 -2.4943 0.9676
7.7586 -1.2200 -2.4943 0.9676
7.8365 -0.5246 -2.4943 0.9676
7.6972 1.5645 -2.4945 0.9676
6.8532 2.7275 -2.3425 0.9695
6.2618 3.8999 -2.3428 0.9695
5.8903 4.4421 -2.3430 0.9695
5.0103 5.4171 -2.3434 0.9695
4.5087 5.8420 -2.3436 0.9695
3.9712 6.2208 -2.3439 0.9695
2.8059 6.8278 -2.3444 0.9695
2.1873 7.0512 -2.3446 0.9695
1.5512 7.2187 -2.3449 0.9695
0.9026 7.3289 -2.3451 0.9695
-0.4112 7.3745 -2.3456 0.9695
-1.0660 7.3094 -2.3459 0.9695
-2.3456 7.0060 -2.3464 0.9695
-2.9602 6.7700 -2.3466 0.9695
-3.5513 6.4803 -2.3468 0.9695
-4.1143 6.1390 -2.3470 0.9695
-4.6447 5.7489 -2.3472 0.9695
-5.1383 5.3130 -2.3474 0.9695
-5.5912 4.8349 -2.3475 0.9695
-6.3896 4.5989 -2.5002 0.9675
-7.1043 3.3934 -2.5004 0.9675
-7.5937 2.0801 -2.5005 0.9675
-7.7488 1.3960 -2.5005 0.9675
-7.8422 0.7008 -2.5005 0.9675
-3.6184 0.0000 -1.2157 0.9848
-3.2019 -0.2861 -1.0801 0.9865
-3.1349 -0.8588 -1.0921 0.9864
-6.9729 -2.5967 -2.4999 0.9691
-6.7137 -3.2068 -2.4998 0.9691
-6.0379 -4.3458 -2.4994 0.9691
-5.6267 -4.8656 -2.4993 0.9691
-4.6740 -5.7851 -2.4988 0.9691
-4.1402 -6.1776 -2.4986 0.9691
-3.5736 -6.5210 -2.4983 0.9691
-0.4138 -7.4206 -2.4971 0.9691
0.2483 -7.4272 -2.4968 0.9691
0.9083 -7.3748 -2.4965 0.9691
1.5609 -7.2640 -2.4963 0.9691
3.4237 -6.5917 -2.4956 0.9691
5.0424 -5.4518 -2.4951 0.9691
6.3026 -3.9253 -2.4947 0.9692
6.6267 -3.3486 -2.4946 0.9692
7.2756 -1.4788 -2.4945 0.9692
7.4226 -0.1654 -2.4945 0.9692
7.3347 1.1533 -2.4946 0.9692
6.0774 3.4191 -2.3429 0.9710
5.7494 3.9467 -2.3430 0.9710
4.9593 4.9043 -2.3434 0.9710
4.0119 5.7070 -2.3438 0.9710
3.4883 6.0420 -2.3440 0.9710
2.9370 6.3291 -2.3443 0.9710
-0.0778 6.9805 -2.3455 0.9710
-0.6988 6.9467 -2.3457 0.9710
-1.3145 6.8575 -2.3460 0.9710
-1.9198 6.7140 -2.3462 0.9710
-3.0804 6.2683 -2.3466 0.9710
-3.6264 5.9698 -2.3468 0.9710
-4.1436 5.6238 -2.3470 0.9710
-4.6280 5.2330 -2.3471 0.9710
-6.2271 4.0736 -2.5001 0.9691
-6.8511 2.9051 -2.5003 0.9691
-7.2579 1.6444 -2.5003 0.9691
-7.3755 0.9919 -2.5003 0.9691
-3.2675 -0.1457 -1.0989 0.9863
-6.2257 -4.0727 -2.4995 0.9691
-5.4041 -5.1112 -2.4992 0.9691
-4.9273 -5.5714 -2.4989 0.9691
-3.8607 -6.3556 -2.4985 0.9691
-2.0438 -7.1476 -2.4977 0.9691
-0.7440 -7.3952 -2.4972 0.9691
0.5789 -7.4084 -2.4967 0.9691
3.1268 -6.7380 -2.4957 0.9691
4.7947 -5.6712 -2.4951 0.9691
5.7236 -4.7306 -2.4948 0.9692
6.1216 -4.2022 -2.4947 0.9692
6.7692 -3.0500 -2.4945 0.9692
7.2025 -1.8015 -2.4945 0.9692
7.3343 -1.1533 -2.4945 0.9692
7.4078 -0.4959 -2.4945 0.9692
7.4227 0.1654 -2.4945 0.9692
7.3787 0.8254 -2.4946 0.9692
10.3526 4.1202 -3.7436 0.9541
6.2235 3.1448 -2.3428 0.9710
5.9193 3.6865 -2.3429 0.9710
5.5680 4.1991 -2.3431 0.9710
5.1726 4.6784 -2.3433 0.9710
4.2619 5.5223 -2.3437 0.9710
3.2159 6.1917 -2.3442 0.9710
2.6523 6.4540 -2.3444 0.9710
2.0675 6.6651 -2.3446 0.9710
0.8532 6.9276 -2.3451 0.9710
-2.7980 6.3991 -2.3465 0.9710
-3.3567 6.1252 -2.3467 0.9710
-3.8888 5.8026 -2.3469 0.9710
-4.8567 5.0218 -2.3472 0.9710
-6.4025 3.7922 -2.5001 0.9691
-7.1774 1.9661 -2.5003 0.9691
-7.3239 1.3195 -2.5003 0.9691
-3.0229 -0.8281 -1.1114 0.9868
-6.3611 -3.0384 -2.4997 0.9705
-6.0650 -3.5923 -2.4995 0.9705
-5.7208 -4.1176 -2.4993 0.9705
-5.3313 -4.6101 -2.4992 0.9705
-4.8994 -5.0660 -2.4990 0.9705
-0.3921 -7.0313 -2.4971 0.9706
0.8607 -6.9880 -2.4966 0.9706
1.4791 -6.8830 -2.4964 0.9706
3.2442 -6.2461 -2.4957 0.9706
3.7869 -5.9321 -2.4955 0.9706
5.2186 -4.7200 -2.4950 0.9706
5.6177 -4.2365 -2.4949 0.9706
5.9723 -3.7196 -2.4948 0.9706
6.9503 1.0929 -2.4948 0.9706
5.7588 3.2398 -2.3430 0.9723
5.4479 3.7398 -2.3431 0.9723
4.2673 5.0474 -2.3437 0.9723
3.8015 5.4077 -2.3439 0.9723
3.3054 5.7251 -2.3441 0.9723
2.7830 5.9971 -2.3443 0.9723
2.2384 6.2217 -2.3445 0.9723
1.6759 6.3968 -2.3448 0.9723
1.1000 6.5212 -2.3450 0.9723
0.5153 6.5939 -2.3452 0.9723
-0.0737 6.6143 -2.3455 0.9723
-1.8190 6.3616 -2.3461 0.9723
-2.9186 5.9393 -2.3465 0.9723
-4.3850 4.9582 -2.3470 0.9723
-4.8092 4.5485 -2.3472 0.9723
-5.5328 4.3693 -2.4998 0.9705
-5.9000 3.8596 -2.4999 0.9705
-6.2204 3.3193 -2.5000 0.9705
-6.8767 1.5580 -2.5002 0.9705
-3.9464 0.1760 -1.4007 0.9834
-3.1623 -0.1410 -1.1224 0.9867
-3.0241 -0.6852 -1.0995 0.9869
-3.0191 -0.9735 -1.1248 0.9866
-5.5316 -4.3682 -2.4993 0.9705
-4.6687 -5.2789 -2.4989 0.9705
-2.5319 -6.5739 -2.4979 0.9705
-1.9365 -6.7725 -2.4977 0.9705
-1.3259 -6.9173 -2.4974 0.9706
-0.0784 -7.0414 -2.4969 0.9706
0.5485 -7.0198 -2.4967 0.9706
2.3830 -6.6236 -2.4960 0.9706
2.9628 -6.3847 -2.4958 0.9706
3.5190 -6.0952 -2.4956 0.9706
4.5433 -5.3739 -2.4953 0.9706
5.4236 -4.4827 -2.4950 0.9706
5.8008 -3.9820 -2.4949 0.9706
6.4145 -2.8902 -2.4947 0.9706
6.8251 -1.7071 -2.4946 0.9706
6.9499 -1.0928 -2.4946 0.9706
6.9920 0.7822 -2.4947 0.9706
6.8948 1.4014 -2.4948 0.9706
10.1180 3.0155 -3.7437 0.9562
5.6089 3.4933 -2.3430 0.9723
5.2761 3.9789 -2.3432 0.9723
4.9014 4.4331 -2.3434 0.9723
4.4878 4.8521 -2.3436 0.9723
3.5570 5.5719 -2.3440 0.9723
2.5132 6.1154 -2.3444 0.9723
1.9591 6.3155 -2.3447 0.9723
0.2210 6.6106 -2.3454 0.9723
-0.3683 6.6047 -2.3456 0.9723
-1.5338 6.4360 -2.3460 0.9723
-3.1805 5.8036 -2.3466 0.9723
-3.6847 5.4979 -2.3468 0.9723
-4.1597 5.1485 -2.3470 0.9723
-5.2266 4.5196 -2.4501 0.9711
-6.0662 3.5930 -2.5000 0.9705
-6.6075 2.4607 -2.5001 0.9705
-2.9938 -0.2675 -1.1224 0.9872
-2.9455 -0.5307 -1.1176 0.9873
-5.7590 -3.4111 -2.4994 0.9718
-5.4322 -3.9099 -2.4992 0.9718
-4.6523 -4.8104 -2.4989 0.9718
-4.2053 -5.2050 -2.4987 0.9718
-2.1237 -6.3431 -2.4978 0.9718
0.2234 -6.6829 -2.4969 0.9719
0.8173 -6.6359 -2.4966 0.9719
2.5408 -6.1826 -2.4960 0.9719
3.5962 -5.6333 -2.4956 0.9719
5.3348 -4.0232 -2.4950 0.9719
6.5471 -1.3308 -2.4948 0.9719
6.6396 -0.7428 -2.4948 0.9719
6.6003 1.0379 -2.4949 0.9719
9.4715 3.2889 -3.7439 0.9581
5.4687 3.0767 -2.3431 0.9736
4.8372 3.9981 -2.3434 0.9736
4.0523 4.7931 -2.3437 0.9736
3.6099 5.1352 -2.3439 0.9736
3.1388 5.4366 -2.3441 0.9736
2.1255 5.9080 -2.3446 0.9735
1.0445 6.1925 -2.3450 0.9735
-1.7273 6.0407 -2.3461 0.9735
-3.2626 5.3710 -2.3466 0.9735
-5.6023 3.6648 -2.4998 0.9718
-5.9065 3.1518 -2.4999 0.9718
-6.5296 1.4794 -2.5000 0.9718
-6.6354 0.8924 -2.5000 0.9718
-2.9640 -0.3986 -1.1167 0.9873
-6.1628 -2.6133 -2.4996 0.9718
-5.2525 -4.1478 -2.4992 0.9718
-3.4736 -5.7183 -2.4984 0.9718
-2.4042 -6.2424 -2.4979 0.9718
-0.6694 -6.6539 -2.4972 0.9718
1.1120 -6.5926 -2.4965 0.9719
1.6942 -6.4669 -2.4963 0.9719
2.2629 -6.2899 -2.4961 0.9719
2.8135 -6.0630 -2.4959 0.9719
4.3145 -5.1032 -2.4954 0.9719
4.7513 -4.6987 -2.4952 0.9719
5.5086 -3.7814 -2.4950 0.9719
5.8231 -3.2760 -2.4949 0.9719
6.0914 -2.7446 -2.4948 0.9719
6.3114 -2.1916 -2.4948 0.9719
6.4813 -1.6211 -2.4948 0.9719
6.5999 -1.0378 -2.4948 0.9719
6.6398 0.7428 -2.4949 0.9719
9.3159 3.7077 -3.7440 0.9581
5.6002 2.8299 -2.3430 0.9736
4.2616 4.6076 -2.3436 0.9736
3.8349 4.9691 -2.3438 0.9736
3.3777 5.2911 -2.3440 0.9736
2.8936 5.5713 -2.3442 0.9736
-0.3497 6.2717 -2.3456 0.9735
-0.9066 6.2162 -2.3458 0.9735
-1.9948 5.9580 -2.3462 0.9735
-2.5173 5.7573 -2.3464 0.9735
-3.0200 5.5108 -2.3465 0.9735
-3.4988 5.2205 -2.3467 0.9735
-3.9498 4.8887 -2.3469 0.9735
-5.0635 4.3786 -2.4997 0.9718
-5.7601 3.4117 -2.4999 0.9718
-6.2741 2.3365 -2.5000 0.9718
-6.5891 1.1871 -2.5000 0.9718
-4.2614 0.3808 -1.5976 0.9819
-3.2641 -0.0000 -1.2811 0.9861
-2.8518 -0.5138 -1.1373 0.9876
-5.4791 -3.2453 -2.4993 0.9730
-5.1682 -3.7199 -2.4992 0.9730
-3.5440 -5.2881 -2.4984 0.9730
-3.0591 -5.5821 -2.4982 0.9730
-2.5499 -5.8317 -2.4980 0.9730
-2.0205 -6.0349 -2.4978 0.9730
-0.9183 -6.2965 -2.4973 0.9730
-0.3542 -6.3527 -2.4971 0.9730
0.2126 -6.3584 -2.4969 0.9730
1.3364 -6.2189 -2.4965 0.9730
3.8849 -5.0338 -2.4955 0.9730
4.3172 -4.6677 -2.4954 0.9730
4.7153 -4.2647 -2.4953 0.9730
5.6739 -2.8671 -2.4950 0.9731
6.3175 -0.7067 -2.4949 0.9731
6.1674 1.5426 -2.4951 0.9731
8.6981 3.9191 -3.7443 0.9598
5.2034 2.9274 -2.3432 0.9747
4.9224 3.3791 -2.3433 0.9747
4.6025 3.8040 -2.3435 0.9747
3.4347 4.8859 -2.3440 0.9747
2.9864 5.1727 -2.3442 0.9747
2.5144 5.4184 -2.3444 0.9747
0.9938 5.8918 -2.3450 0.9747
-0.5982 5.9465 -2.3456 0.9746
-1.6434 5.7472 -2.3460 0.9746
-2.1486 5.5786 -2.3462 0.9746
-4.6269 4.3761 -2.4995 0.9730
-4.9983 3.9471 -2.4996 0.9730
-5.8641 2.4866 -2.4998 0.9730
-6.0622 1.9548 -2.4999 0.9730
-6.2122 1.4075 -2.4999 0.9730
-2.8734 -0.3864 -1.1379 0.9876
-2.8403 -0.9159 -1.1712 0.9873
-4.9972 -3.9462 -2.4991 0.9730
-4.6258 -4.3751 -2.4989 0.9730
-3.7762 -5.1252 -2.4985 0.9730
-3.3048 -5.4405 -2.4983 0.9730
-2.8072 -5.7126 -2.4981 0.9730
-1.7496 -6.1187 -2.4977 0.9730
-1.1979 -6.2496 -2.4974 0.9730
-0.6369 -6.3309 -2.4972 0.9730
-0.0709 -6.3618 -2.4970 0.9730
1.0580 -6.2725 -2.4966 0.9730
1.6120 -6.1529 -2.4963 0.9730
2.1531 -5.9846 -2.4961 0.9730
2.6770 -5.7687 -2.4960 0.9730
5.5406 -3.1171 -2.4950 0.9731
6.0052 -2.0852 -2.4949 0.9731
6.3427 -0.4246 -2.4949 0.9731
6.3554 0.1417 -2.4949 0.9731
6.3177 0.7067 -2.4950 0.9731
6.2299 1.2663 -2.4951 0.9731
6.0927 1.8158 -2.4951 0.9731
8.5151 4.3029 -3.7444 0.9598
5.0679 3.1563 -2.3432 0.9747
4.4286 4.0054 -2.3435 0.9747
4.0548 4.3840 -2.3437 0.9747
3.2138 5.0343 -2.3441 0.9747
2.7532 5.3008 -2.3443 0.9747
2.2706 5.5253 -2.3445 0.9747
0.7304 5.9304 -2.3451 0.9747
0.1997 5.9725 -2.3453 0.9746
-0.8626 5.9143 -2.3457 0.9746
-1.8978 5.6685 -2.3461 0.9746
-2.3950 5.4775 -2.3463 0.9746
-2.8732 5.2430 -2.3465 0.9746
-3.7578 4.6511 -2.3468 0.9746
-4.2063 4.3493 -2.3746 0.9743
-5.4801 3.2459 -2.4997 0.9730
-5.7474 2.7453 -2.4998 0.9730
-5.9691 2.2229 -2.4999 0.9730
-6.2687 1.1294 -2.4999 0.9730
-3.1614 -0.0000 -1.3018 0.9864
-2.7831 -0.5014 -1.1645 0.9878
-5.2220 -3.0930 -2.4992 0.9741
-4.9257 -3.5453 -2.4991 0.9741
-4.5903 -3.9694 -2.4989 0.9741
-4.2185 -4.3619 -2.4987 0.9741
-3.8133 -4.7197 -2.4986 0.9741
-2.9156 -5.3202 -2.4982 0.9741
-1.9257 -5.7519 -2.4978 0.9741
-1.4060 -5.9000 -2.4975 0.9741
1.2737 -5.9274 -2.4965 0.9741
2.3041 -5.6068 -2.4961 0.9741
2.7938 -5.3790 -2.4959 0.9741
3.7028 -4.7979 -2.4956 0.9741
4.1149 -4.4490 -2.4955 0.9741
4.4944 -4.0649 -2.4954 0.9741
5.1435 -3.2034 -2.4952 0.9741
5.4080 -2.7328 -2.4951 0.9741
5.6297 -2.2405 -2.4950 0.9741
5.9376 -1.2069 -2.4950 0.9741
5.8784 1.4703 -2.4952 0.9741
8.2906 3.7356 -3.7444 0.9614
7.9255 4.4589 -3.7446 0.9614
4.3868 3.6257 -2.3435 0.9757
3.2737 4.6569 -2.3440 0.9757
2.8464 4.9302 -2.3442 0.9757
1.9275 5.3576 -2.3446 0.9757
1.4431 5.5084 -2.3448 0.9757
-0.0635 5.6954 -2.3454 0.9757
-1.5663 5.4776 -2.3460 0.9757
-2.0477 5.3168 -2.3461 0.9757
-2.9584 4.8702 -2.3465 0.9757
-4.4098 4.1707 -2.4994 0.9741
-5.3556 2.8579 -2.4997 0.9741
-5.5888 2.3699 -2.4997 0.9741
-5.9206 1.3414 -2.4998 0.9741
-3.5093 0.1565 -1.4465 0.9849
-2.9337 -0.1308 -1.2093 0.9874
-2.7947 -0.3759 -1.1611 0.9879
-2.7756 -0.6289 -1.1719 0.9878
-2.7775 -0.8956 -1.2017 0.9875
-2.8016 -1.1880 -1.2531 0.9869
-4.7627 -3.7611 -2.4990 0.9741
-3.5991 -4.8847 -2.4985 0.9741
-2.1802 -5.6606 -2.4979 0.9741
-1.6675 -5.8317 -2.4976 0.9741
-1.1418 -5.9565 -2.4974 0.9741
-0.0676 -6.0636 -2.4970 0.9741
0.4724 -6.0450 -2.4968 0.9741
1.5364 -5.8645 -2.4964 0.9741
2.0522 -5.7040 -2.4962 0.9741
2.5515 -5.4984 -2.4960 0.9741
3.9128 -4.6280 -2.4956 0.9741
4.3089 -4.2612 -2.4954 0.9741
5.2810 -2.9710 -2.4951 0.9741
5.5243 -2.4891 -2.4951 0.9741
5.7239 -1.9875 -2.4950 0.9741
5.8780 -1.4702 -2.4950 0.9741
6.0455 -0.4047 -2.4950 0.9741
6.0576 0.1350 -2.4950 0.9741
4.8304 3.0084 -2.3433 0.9757
4.5438 3.4266 -2.3435 0.9757
4.2210 3.8177 -2.3436 0.9757
3.8648 4.1785 -2.3438 0.9757
3.4778 4.5062 -2.3439 0.9757
3.0631 4.7983 -2.3441 0.9757
2.6241 5.0523 -2.3443 0.9757
2.1642 5.2662 -2.3445 0.9757
0.6961 5.6523 -2.3451 0.9757
0.1903 5.6923 -2.3453 0.9757
-0.3171 5.6872 -2.3455 0.9757
-1.3207 5.5417 -2.3459 0.9757
-1.8088 5.4026 -2.3461 0.9757
-2.2826 5.2205 -2.3462 0.9757
-4.5913 3.9703 -2.4994 0.9741
-5.4776 2.6165 -2.4997 0.9741
-5.6889 2.1186 -2.4997 0.9741
-3.9772 0.3554 -1.6443 0.9829
-3.0794 0.0000 -1.3283 0.9867
-2.7539 -0.2461 -1.1927 0.9880
-2.7278 -0.4914 -1.1956 0.9880
-2.7209 -1.0133 -1.2524 0.9874
-2.7300 -1.3040 -1.3050 0.9869
-4.7020 -3.3843 -2.4990 0.9751
-4.3819 -3.7892 -2.4988 0.9751
-3.6401 -4.5054 -2.4985 0.9751
-2.7832 -5.0787 -2.4981 0.9751
-1.8383 -5.4908 -2.4977 0.9751
-1.3422 -5.6322 -2.4975 0.9751
-0.8355 -5.7289 -2.4973 0.9751
-0.3223 -5.7800 -2.4971 0.9751
0.1934 -5.7853 -2.4969 0.9751
2.6671 -5.1351 -2.4960 0.9751
3.1134 -4.8770 -2.4958 0.9751
3.9283 -4.2472 -2.4956 0.9751
4.6187 -3.4832 -2.4954 0.9751
5.1628 -2.6089 -2.4952 0.9751
5.5434 -1.6521 -2.4951 0.9751
5.7485 -0.6430 -2.4951 0.9751
5.7829 -0.1289 -2.4951 0.9751
5.7715 0.3864 -2.4952 0.9751
5.7144 0.8985 -2.4952 0.9751
5.4649 1.8976 -2.4954 0.9751
7.9145 3.5662 -3.7445 0.9629
7.5661 4.2566 -3.7447 0.9629
3.8633 3.8206 -2.3437 0.9766
3.5082 4.1495 -2.3439 0.9766
3.1252 4.4456 -2.3441 0.9766
2.7173 4.7065 -2.3443 0.9766
2.2878 4.9301 -2.3444 0.9766
1.8401 5.1145 -2.3446 0.9766
-0.0606 5.4369 -2.3454 0.9766
-0.5443 5.4103 -2.3456 0.9766
-1.4952 5.2289 -2.3459 0.9766
-1.9548 5.0754 -2.3461 0.9766
-2.3989 4.8816 -2.3463 0.9766
-3.7630 4.2549 -2.4502 0.9756
-4.2095 3.9813 -2.4993 0.9751
-5.5152 1.7784 -2.4997 0.9751
-3.3811 0.1508 -1.4599 0.9854
-2.7200 -0.6163 -1.2030 0.9879
-4.8483 -3.1716 -2.4991 0.9751
-4.5465 -3.5903 -2.4989 0.9751
-3.4357 -4.6630 -2.4984 0.9751
-2.0812 -5.4037 -2.4978 0.9751
-1.5919 -5.5671 -2.4976 0.9751
-1.0899 -5.6862 -2.4974 0.9751
-0.5795 -5.7602 -2.4972 0.9751
0.4509 -5.7707 -2.4968 0.9751
1.4667 -5.5985 -2.4964 0.9751
1.9591 -5.4453 -2.4963 0.9751
2.8931 -5.0110 -2.4959 0.9751
3.3274 -4.7333 -2.4958 0.9751
4.1135 -4.0679 -2.4955 0.9751
4.7692 -3.2739 -2.4953 0.9751
5.0415 -2.8363 -2.4952 0.9751
5.4643 -1.8974 -2.4951 0.9751
5.7714 -0.3863 -2.4951 0.9751
5.7487 0.6431 -2.4952 0.9751
5.6688 1.1522 -2.4953 0.9751
5.5439 1.6523 -2.4953 0.9751
5.3750 2.1392 -2.4954 0.9751
7.7480 3.9153 -3.7446 0.9629
4.0296 3.6445 -2.3437 0.9766
3.6894 3.9890 -2.3438 0.9766
2.9241 4.5806 -2.3442 0.9766
1.6105 5.1916 -2.3447 0.9766
0.6646 5.3958 -2.3451 0.9766
0.1817 5.4340 -2.3453 0.9766
-0.3027 5.4290 -2.3455 0.9766
-1.2607 5.2901 -2.3458 0.9766
-1.7267 5.1573 -2.3460 0.9766
-2.6141 4.7701 -2.3463 0.9766
-4.0279 4.1648 -2.4992 0.9751
-4.3828 3.7899 -2.4994 0.9751
-4.7029 3.3849 -2.4995 0.9751
-4.9857 2.9530 -2.4995 0.9751
-5.4305 2.0223 -2.4996 0.9751
-5.7031 1.0274 -2.4997 0.9751
-3.8266 0.3420 -1.6572 0.9834
-2.6546 -0.7272 -1.2419 0.9880
-2.6666 -1.2737 -1.3334 0.9871
-2.6867 -1.5914 -1.4090 0.9864
-4.4949 -3.2353 -2.4989 0.9760
-4.1889 -3.6223 -2.4988 0.9760
-2.6607 -4.8551 -2.4981 0.9760
0.6764 -5.4919 -2.4968 0.9760
1.1624 -5.4095 -2.4966 0.9760
2.9764 -4.6625 -2.4959 0.9760
3.3794 -4.3788 -2.4958 0.9760
4.1019 -3.7099 -2.4955 0.9760
4.6943 -2.9237 -2.4954 0.9760
4.9358 -2.4942 -2.4953 0.9760
5.2996 -1.5795 -2.4952 0.9760
5.5177 0.3694 -2.4953 0.9760
5.4631 0.8590 -2.4953 0.9760
5.3651 1.3419 -2.4954 0.9760
5.2245 1.8142 -2.4955 0.9760
7.2333 4.0694 -3.7448 0.9642
2.9877 4.2500 -2.3441 0.9775
2.5977 4.4994 -2.3443 0.9775
1.3170 5.0270 -2.3448 0.9775
0.8644 5.1246 -2.3450 0.9775
-0.0579 5.1975 -2.3454 0.9774
-0.5203 5.1722 -2.3455 0.9774
-0.9787 5.1057 -2.3457 0.9774
-1.4293 4.9987 -2.3459 0.9774
-1.8687 4.8520 -2.3460 0.9774
-2.6997 4.4443 -2.3463 0.9774
-3.0848 4.1866 -2.3465 0.9774
-3.6692 4.1488 -2.4991 0.9760
-4.0241 3.8060 -2.4992 0.9760
-4.3470 3.4329 -2.4993 0.9760
-4.6355 3.0324 -2.4994 0.9760
-5.1000 2.1626 -2.4995 0.9760
-5.2723 1.7001 -2.4996 0.9760
-5.4027 1.2241 -2.4996 0.9760
-5.4902 0.7384 -2.4996 0.9760
-2.7833 -0.1241 -1.2571 0.9878
-2.6871 -0.3614 -1.2234 0.9882
-2.6675 -1.1311 -1.3074 0.9874
-4.6347 -3.0319 -2.4990 0.9760
-2.8744 -4.7319 -2.4982 0.9760
-2.4417 -4.9686 -2.4980 0.9760
-1.9896 -5.1658 -2.4978 0.9760
-1.5218 -5.3220 -2.4976 0.9760
-1.0420 -5.4359 -2.4974 0.9760
-0.5540 -5.5066 -2.4972 0.9760
-0.0616 -5.5337 -2.4970 0.9760
1.4022 -5.3521 -2.4965 0.9760
1.8729 -5.2057 -2.4963 0.9760
3.1811 -4.5251 -2.4958 0.9760
3.5710 -4.2238 -2.4957 0.9760
4.2630 -3.5235 -2.4955 0.9760
4.8198 -2.7116 -2.4953 0.9760
5.5176 -0.3694 -2.4952 0.9760
5.4959 0.6148 -2.4953 0.9760
5.4195 1.1016 -2.4954 0.9760
5.1386 2.0451 -2.4955 0.9760
7.0450 4.3877 -3.7449 0.9642
4.1469 3.1273 -2.3436 0.9775
3.8523 3.4842 -2.3437 0.9775
3.5271 3.8135 -2.3439 0.9775
2.7955 4.3791 -2.3442 0.9775
2.3948 4.6108 -2.3444 0.9775
0.6353 5.1583 -2.3451 0.9775
-1.2052 5.0572 -2.3458 0.9774
-2.0830 4.7641 -2.3461 0.9774
-2.8951 4.3198 -2.3464 0.9774
-3.3855 4.1902 -2.4307 0.9766
-3.8505 3.9814 -2.4992 0.9760
-4.1897 3.6230 -2.4993 0.9760
-4.4957 3.2359 -2.4994 0.9760
-4.9985 2.3876 -2.4995 0.9760
-5.1913 1.9332 -2.4995 0.9760
-5.4519 0.9822 -2.4996 0.9760
-2.9112 -0.0000 -1.3723 0.9872
-2.6448 -0.2363 -1.2517 0.9883
-2.6212 -0.4722 -1.2555 0.9883
-2.6016 -0.7127 -1.2715 0.9881
-2.6023 -0.9691 -1.3090 0.9878
-4.3026 -3.0968 -2.4989 0.9768
-2.9506 -4.4026 -2.4982 0.9768
-2.5469 -4.6474 -2.4981 0.9768
0.1770 -5.2942 -2.4970 0.9768
1.1127 -5.1782 -2.4966 0.9769
1.5691 -5.0583 -2.4964 0.9769
3.2350 -4.1917 -2.4958 0.9769
3.5950 -3.8869 -2.4957 0.9769
3.9266 -3.5513 -2.4956 0.9769
4.2269 -3.1876 -2.4955 0.9769
4.9185 -1.9575 -2.4953 0.9769
5.0732 -1.5120 -2.4953 0.9769
5.1876 -1.0544 -2.4953 0.9769
5.2608 -0.5885 -2.4953 0.9769
5.2820 0.3536 -2.4954 0.9769
5.2296 0.8223 -2.4954 0.9769
5.0013 1.7366 -2.4956 0.9769
6.9242 3.8955 -3.7450 0.9655
6.5503 4.4965 -3.7451 0.9655
2.8599 4.0683 -2.3442 0.9782
2.4867 4.3071 -2.3443 0.9782
2.0936 4.5116 -2.3445 0.9782
-0.4981 4.9509 -2.3455 0.9782
-0.9368 4.8873 -2.3457 0.9782
-1.3682 4.7848 -2.3458 0.9782
-3.0435 4.1307 -2.4185 0.9776
-3.8519 3.6431 -2.4991 0.9768
-4.1610 3.2859 -2.4992 0.9768
-4.4371 2.9026 -2.4993 0.9768
-4.8817 2.0700 -2.4994 0.9768
-5.2552 0.7068 -2.4995 0.9768
-2.6352 -0.3544 -1.2533 0.9883
-2.6038 -1.1041 -1.3332 0.9876
-4.4364 -2.9021 -2.4989 0.9768
-3.1439 -4.2669 -2.4983 0.9768
-2.7514 -4.5295 -2.4982 0.9768
-2.3372 -4.7561 -2.4980 0.9768
-0.5303 -5.2712 -2.4972 0.9768
1.7928 -4.9832 -2.4964 0.9769
2.2291 -4.8035 -2.4962 0.9769
2.6476 -4.5858 -2.4961 0.9769
3.0451 -4.3317 -2.4959 0.9769
3.4184 -4.0433 -2.4958 0.9769
4.6139 -2.5957 -2.4954 0.9769
4.8265 -2.1747 -2.4954 0.9769
5.2294 -0.8223 -2.4953 0.9769
5.2818 -0.3536 -2.4953 0.9769
5.2610 0.5885 -2.4954 0.9769
5.1879 1.0545 -2.4954 0.9769
4.9190 1.9578 -2.4956 0.9769
7.0907 3.5831 -3.7449 0.9655
6.7439 4.2002 -3.7450 0.9655
3.9696 2.9936 -2.3436 0.9783
3.6876 3.3353 -2.3438 0.9783
3.0382 3.9368 -2.3441 0.9782
2.2924 4.4137 -2.3444 0.9782
1.8906 4.6005 -2.3446 0.9782
1.4737 4.7509 -2.3447 0.9782
1.0451 4.8636 -2.3449 0.9782
-0.7181 4.9240 -2.3456 0.9782
-1.1536 4.8409 -2.3458 0.9782
-2.7712 4.1349 -2.3463 0.9782
-3.6857 3.8110 -2.4991 0.9768
-4.0104 3.4680 -2.4992 0.9768
-4.7846 2.2854 -2.4994 0.9768
-4.9691 1.8505 -2.4995 0.9768
-5.1141 1.4009 -2.4995 0.9768
-5.2185 0.9402 -2.4995 0.9768
-2.8280 -0.0000 -1.3909 0.9875
-2.5453 -0.9479 -1.3359 0.9880
-2.5457 -1.2160 -1.3876 0.9875
-4.1234 -2.9678 -2.4988 0.9776
-3.1922 -3.9511 -2.4984 0.9776
-2.8277 -4.2192 -2.4982 0.9776
-2.4408 -4.4539 -2.4980 0.9776
-2.0346 -4.6531 -2.4979 0.9776
-1.1771 -4.9394 -2.4975 0.9776
-0.2826 -5.0691 -2.4972 0.9776
0.6205 -5.0382 -2.4968 0.9776
1.0664 -4.9627 -2.4966 0.9776
1.5038 -4.8477 -2.4965 0.9776
3.1004 -4.0172 -2.4959 0.9776
4.0510 -3.0550 -2.4956 0.9776
4.7139 -1.8761 -2.4954 0.9776
5.0420 -0.5640 -2.4954 0.9776
5.0121 0.7881 -2.4955 0.9776
4.6262 2.0845 -2.4957 0.9776
6.6360 3.7334 -3.7451 0.9666
6.2777 4.3094 -3.7452 0.9666
3.6730 3.0358 -2.3438 0.9790
3.0769 3.6394 -2.3440 0.9790
2.7409 3.8990 -2.3442 0.9790
2.3832 4.1278 -2.3443 0.9790
-0.4773 4.7447 -2.3455 0.9790
-0.8978 4.6837 -2.3457 0.9790
-1.3112 4.5856 -2.3458 0.9790
-1.7142 4.4509 -2.3460 0.9790
-2.1037 4.2809 -2.3461 0.9790
-2.4764 4.0769 -2.3462 0.9790
-4.2522 2.7817 -2.4992 0.9776
-4.4830 2.3922 -2.4993 0.9776
-4.8363 1.5595 -2.4994 0.9776
-4.9560 1.1229 -2.4994 0.9776
-5.0362 0.6773 -2.4994 0.9776
-2.6467 -0.1180 -1.3031 0.9883
-2.5845 -0.3476 -1.2826 0.9884
-2.5441 -1.0788 -1.3592 0.9878
-2.5301 -1.3501 -1.4105 0.9873
-4.2516 -2.7812 -2.4989 0.9776
-3.6907 -3.4906 -2.4986 0.9776
-3.0130 -4.0892 -2.4983 0.9776
-2.6369 -4.3409 -2.4981 0.9776
-2.2399 -4.5580 -2.4980 0.9776
-0.0566 -5.0765 -2.4971 0.9776
1.2864 -4.9101 -2.4966 0.9776
2.5374 -4.3950 -2.4961 0.9776
2.9184 -4.1515 -2.4960 0.9776
3.6079 -3.5679 -2.4957 0.9776
3.9110 -3.2325 -2.4957 0.9776
4.1830 -2.8715 -2.4956 0.9776
4.9218 -1.2310 -2.4954 0.9776
5.0621 -0.3389 -2.4954 0.9776
5.0722 0.1130 -2.4954 0.9776
4.9720 1.0106 -2.4955 0.9776
4.7144 1.8762 -2.4957 0.9776
6.4633 4.0254 -3.7451 0.9666
3.8397 2.8957 -2.3654 0.9788
3.5342 3.1965 -2.3438 0.9790
3.2359 3.4986 -2.3440 0.9790
2.5646 4.0174 -2.3443 0.9790
1.8119 4.4090 -2.3446 0.9790
1.4124 4.5531 -2.3447 0.9790
1.0016 4.6611 -2.3449 0.9790
-0.2655 4.7611 -2.3454 0.9790
-1.1056 4.6393 -2.3457 0.9790
-1.5142 4.5227 -2.3459 0.9790
-2.7312 4.0752 -2.4129 0.9784
-3.5321 3.6522 -2.4990 0.9776
-3.8433 3.3235 -2.4991 0.9776
-4.3720 2.5896 -2.4993 0.9776
-4.7620 1.7734 -2.4994 0.9776
-4.9010 1.3425 -2.4994 0.9776
-5.0011 0.9010 -2.4994 0.9776
-3.6334 0.3247 -1.7942 0.9839
-2.5199 -0.4540 -1.3127 0.9886
-2.4994 -0.6847 -1.3286 0.9884
-2.4895 -0.9271 -1.3619 0.9881
-2.4879 -1.1884 -1.4135 0.9877
-3.9559 -2.8473 -2.4987 0.9783
-3.6865 -3.1879 -2.4986 0.9783
-3.0626 -3.7906 -2.4983 0.9783
-2.7129 -4.0479 -2.4982 0.9783
-1.9519 -4.4642 -2.4979 0.9783
-1.5467 -4.6199 -2.4977 0.9783
-1.1293 -4.7389 -2.4975 0.9783
0.5953 -4.8337 -2.4968 0.9783
1.0231 -4.7612 -2.4967 0.9783
1.8509 -4.5038 -2.4964 0.9783
2.2443 -4.3210 -2.4962 0.9784
2.6198 -4.1039 -2.4961 0.9784
2.9746 -3.8542 -2.4960 0.9784
4.3446 -2.1954 -2.4956 0.9784
4.6649 -1.3903 -2.4955 0.9784
4.8374 -0.5411 -2.4955 0.9784
4.8664 -0.1084 -2.4955 0.9784
6.3668 3.5819 -3.7452 0.9677
4.0139 2.7554 -2.4960 0.9784
2.9520 3.4916 -2.3441 0.9797
1.9250 4.1483 -2.3445 0.9797
1.5483 4.3035 -2.3447 0.9797
1.1592 4.4245 -2.3448 0.9797
0.7608 4.5104 -2.3450 0.9796
-0.8613 4.4935 -2.3456 0.9796
-1.2579 4.3993 -2.3458 0.9796
-2.0183 4.1071 -2.3461 0.9796
-2.4439 4.0232 -2.4133 0.9791
-2.8912 3.9240 -2.4988 0.9783
-3.2291 3.6512 -2.4989 0.9783
-4.3009 2.2950 -2.4992 0.9783
-4.4882 1.9031 -2.4993 0.9783
-2.5877 -0.1154 -1.3280 0.9884
-2.5350 -0.3409 -1.3113 0.9886
-2.4881 -0.8023 -1.3403 0.9883
-2.4879 -1.0550 -1.3854 0.9879
-2.4717 -1.3189 -1.4363 0.9875
-4.0789 -2.6683 -2.4988 0.9783
-3.8250 -3.0206 -2.4987 0.9783
-2.8906 -3.9231 -2.4983 0.9783
-2.1489 -4.3730 -2.4979 0.9783
-1.3394 -4.6840 -2.4976 0.9783
-0.9171 -4.7843 -2.4974 0.9783
-0.4876 -4.8466 -2.4973 0.9783
1.6485 -4.5820 -2.4964 0.9783
2.8000 -3.9830 -2.4960 0.9784
3.1432 -3.7178 -2.4959 0.9784
3.4615 -3.4231 -2.4958 0.9784
3.7523 -3.1013 -2.4957 0.9784
4.2425 -2.3868 -2.4956 0.9784
4.5983 -1.5967 -2.4955 0.9784
4.7221 -1.1811 -2.4955 0.9784
4.8085 -0.7561 -2.4955 0.9784
4.8665 0.1085 -2.4955 0.9784
4.7703 0.9696 -2.4956 0.9784
4.6652 1.3904 -2.4957 0.9784
4.5231 1.8001 -2.4958 0.9784
4.3451 2.1957 -2.4958 0.9784
6.2010 3.8621 -3.7452 0.9677
3.8219 2.8822 -2.4541 0.9787
3.3908 3.0668 -2.3439 0.9797
2.7936 3.6198 -2.3441 0.9797
2.4605 3.8543 -2.3443 0.9797
2.1078 4.0582 -2.3444 0.9797
1.7384 4.2301 -2.3446 0.9797
0.9609 4.4719 -2.3449 0.9796
0.5591 4.5399 -2.3451 0.9796
0.1529 4.5720 -2.3452 0.9796
-0.2547 4.5678 -2.3454 0.9796
-0.6603 4.5273 -2.3456 0.9796
-1.8332 4.1928 -2.3460 0.9796
-2.7135 4.0487 -2.4987 0.9783
-3.0632 3.7913 -2.4988 0.9783
-3.3886 3.5038 -2.4989 0.9783
-3.6872 3.1884 -2.4990 0.9783
-4.7019 1.2880 -2.4993 0.9783
-4.7979 0.8644 -2.4993 0.9783
-3.5464 0.3169 -1.8254 0.9841
-2.4352 -0.9069 -1.3872 0.9883
-2.3944 -1.4182 -1.4856 0.9875
-3.5403 -3.0614 -2.4986 0.9790
-3.2536 -3.3642 -2.4984 0.9790
-2.9410 -3.6402 -2.4983 0.9790
-2.6052 -3.8873 -2.4981 0.9790
-2.2488 -4.1035 -2.4980 0.9790
-1.8745 -4.2871 -2.4978 0.9790
-1.4854 -4.4366 -2.4977 0.9790
0.9826 -4.5724 -2.4967 0.9790
1.3856 -4.4666 -2.4966 0.9790
2.1553 -4.1497 -2.4963 0.9790
2.5160 -3.9412 -2.4961 0.9790
3.9682 -2.4714 -2.4957 0.9790
4.4800 -1.3352 -2.4956 0.9790
4.5810 -0.9311 -2.4955 0.9790
4.6457 -0.5197 -2.4955 0.9790
4.6181 0.7262 -2.4956 0.9790
4.4164 1.5336 -2.4958 0.9790
4.2626 1.9206 -2.4959 0.9790
4.0749 2.2925 -2.4960 0.9790
3.8548 2.6462 -2.4961 0.9790
3.5469 2.9315 -2.4565 0.9794
3.1220 3.0874 -2.3440 0.9803
2.8350 3.3532 -2.3441 0.9803
2.5254 3.5924 -2.3443 0.9803
2.1958 3.8032 -2.3444 0.9803
1.1132 4.2490 -2.3448 0.9803
-1.2080 4.2248 -2.3457 0.9803
-1.5794 4.1007 -2.3459 0.9803
-1.9424 3.9526 -2.3511 0.9802
-2.7765 3.7683 -2.4987 0.9790
-3.4009 3.2165 -2.4989 0.9790
-3.6738 2.9012 -2.4990 0.9790
-3.9175 2.5627 -2.4991 0.9790
-4.1302 2.2039 -2.4991 0.9790
-4.4556 1.4368 -2.4992 0.9790
-4.5659 1.0345 -2.4992 0.9790
-2.8952 0.1291 -1.5471 0.9869
-2.4861 -0.3344 -1.3391 0.9887
-2.4353 -0.7853 -1.3660 0.9885
-2.7759 -3.7675 -2.4982 0.9790
-1.6816 -4.3662 -2.4978 0.9790
-1.2862 -4.4982 -2.4976 0.9790
-0.8807 -4.5946 -2.4974 0.9790
-0.4682 -4.6544 -2.4973 0.9790
0.7779 -4.6118 -2.4968 0.9790
1.1852 -4.5240 -2.4966 0.9790
1.9684 -4.2417 -2.4963 0.9790
3.0186 -3.5704 -2.4960 0.9790
3.3243 -3.2875 -2.4959 0.9790
3.6036 -2.9784 -2.4958 0.9790
4.0743 -2.2922 -2.4957 0.9790
4.4161 -1.5334 -2.4956 0.9790
4.5350 -1.1342 -2.4955 0.9790
4.6643 -0.3122 -2.4956 0.9790
4.6736 0.1042 -2.4956 0.9790
4.4803 1.3353 -2.4957 0.9790
4.3438 1.7288 -2.4958 0.9790
4.1728 2.1087 -2.4959 0.9790
3.9688 2.4718 -2.4960 0.9790
3.3055 2.9897 -2.3793 0.9800
2.6829 3.4763 -2.3442 0.9803
2.0242 3.8973 -2.3445 0.9803
-0.2446 4.3866 -2.3454 0.9803
-0.6341 4.3477 -2.3455 0.9803
-1.0186 4.2742 -2.3457 0.9803
-1.3951 4.1669 -2.3458 0.9803
-2.6058 3.8881 -2.4987 0.9790
-2.9416 3.6409 -2.4988 0.9790
-3.5408 3.0619 -2.4990 0.9790
-4.0279 2.3857 -2.4991 0.9790
-4.2243 2.0178 -2.4992 0.9790
-2.5976 0.0000 -1.4427 0.9882
-2.4347 -0.2176 -1.3576 0.9889
-2.4018 -0.6579 -1.3831 0.9887
-2.3176 -1.3727 -1.4960 0.9878
-3.4028 -2.9425 -2.4985 0.9796
-3.1272 -3.2335 -2.4984 0.9796
-2.5041 -3.7364 -2.4981 0.9796
-0.2503 -4.4892 -2.4972 0.9796
0.1502 -4.4934 -2.4970 0.9796
0.9444 -4.3951 -2.4967 0.9796
1.3318 -4.2933 -2.4966 0.9796
1.7085 -4.1575 -2.4964 0.9796
2.0717 -3.9887 -2.4963 0.9796
2.4184 -3.7883 -2.4962 0.9796
3.3329 -3.0144 -2.4959 0.9796
3.5879 -2.7057 -2.4958 0.9796
4.0106 -2.0266 -2.4957 0.9796
4.1750 -1.6616 -2.4957 0.9796
4.3062 -1.2834 -2.4956 0.9797
4.4655 -0.4996 -2.4956 0.9797
4.4835 0.3001 -2.4957 0.9796
4.4390 0.6980 -2.4957 0.9796
4.3594 1.0903 -2.4958 0.9796
4.0972 1.8462 -2.4959 0.9796
3.7053 2.5436 -2.4961 0.9796
3.4643 2.8634 -2.4962 0.9796
3.0645 3.0306 -2.3937 0.9805
1.7769 3.8292 -2.3446 0.9809
1.0700 4.0841 -2.3449 0.9809
0.7023 4.1634 -2.3450 0.9809
-0.4227 4.2018 -2.3454 0.9809
-0.7951 4.1477 -2.3456 0.9809
-1.1611 4.0607 -2.3457 0.9809
-1.5180 3.9415 -2.3458 0.9809
-1.9298 3.9271 -2.4302 0.9802
-2.3356 3.8449 -2.4986 0.9796
-2.9806 3.3702 -2.4988 0.9796
-3.2688 3.0916 -2.4989 0.9796
-3.5311 2.7885 -2.4990 0.9796
-3.7654 2.4632 -2.4990 0.9796
-2.5021 0.1116 -1.3910 0.9886
-2.4745 -0.1104 -1.3757 0.9887
-2.4139 -0.5469 -1.3747 0.9887
-2.3870 -0.7697 -1.3929 0.9886
-2.3600 -1.2593 -1.4857 0.9878
-2.2661 -1.4824 -1.5039 0.9877
-3.5306 -2.7881 -2.4986 0.9796
-2.9800 -3.3696 -2.4983 0.9796
-2.6681 -3.6212 -2.4982 0.9796
-2.3351 -3.8441 -2.4980 0.9796
-1.9836 -4.0365 -2.4979 0.9796
-0.8465 -4.4162 -2.4974 0.9796
-0.4501 -4.4738 -2.4973 0.9796
0.3502 -4.4821 -2.4970 0.9796
0.7477 -4.4329 -2.4968 0.9796
3.7048 -2.5432 -2.4958 0.9796
4.0968 -1.8459 -2.4957 0.9796
4.4389 -0.6980 -2.4956 0.9797
4.4923 0.1001 -2.4956 0.9796
4.4657 0.4996 -2.4957 0.9796
4.3065 1.2835 -2.4958 0.9796
4.1753 1.6618 -2.4959 0.9796
3.5884 2.7062 -2.4962 0.9796
3.2908 2.9763 -2.4643 0.9799
2.8658 3.0985 -2.3441 0.9809
2.5788 3.3414 -2.3442 0.9809
1.6046 3.9047 -2.3446 0.9809
0.1411 4.2203 -2.3452 0.9809
-0.2351 4.2163 -2.3454 0.9809
-0.9791 4.1083 -2.3456 0.9809
-1.3409 4.0051 -2.3458 0.9809
-1.7048 3.8989 -2.3634 0.9807
-2.1619 3.9450 -2.4985 0.9796
-2.8274 3.4995 -2.4987 0.9796
-3.1278 3.2341 -2.4988 0.9796
-4.0603 1.9395 -2.4991 0.9796
-4.3399 1.1888 -2.4992 0.9796
-4.4285 0.7979 -2.4992 0.9796
-2.5383 0.2268 -1.4154 0.9884
-2.3852 -0.2132 -1.3826 0.9890
-2.3780 -0.4284 -1.3951 0.9889
-2.3545 -0.6450 -1.4095 0.9888
-1.7332 -3.9640 -2.4978 0.9802
-0.6243 -4.2803 -2.4973 0.9802
-0.2408 -4.3185 -2.4972 0.9802
0.9085 -4.2280 -2.4968 0.9802
1.2812 -4.1301 -2.4966 0.9802
1.6436 -3.9995 -2.4965 0.9802
2.3265 -3.6443 -2.4962 0.9802
2.6415 -3.4226 -2.4961 0.9802
2.9355 -3.1738 -2.4960 0.9802
3.2062 -2.8999 -2.4959 0.9802
3.4515 -2.6029 -2.4959 0.9802
4.2703 0.6715 -2.4958 0.9802
3.7679 2.1198 -2.4961 0.9802
3.5645 2.4469 -2.4962 0.9802
3.0510 3.0173 -2.4774 0.9804
2.6356 3.1173 -2.3568 0.9813
2.3352 3.3218 -2.3443 0.9814
