ply
format ascii 1.0
element vertex 1588
property float32 x
property float32 y
property float32 z
property float32 I
end_header
1.0376 13.2789 -2.3486 0.9473
-2.5021 13.0535 -2.3436 0.9474
-3.6516 12.7704 -2.3420 0.9475
-4.7707 12.3868 -2.3405 0.9475
-7.8605 10.6683 -2.3366 0.9476
-6.4727 7.3188 -1.7228 0.9611
-10.3866 8.2022 -2.3336 0.9477
-13.7317 3.1112 -2.4826 0.9444
-13.9542 1.8767 -2.4827 0.9444
-14.0668 0.6272 -2.4828 0.9444
-14.0687 -0.6274 -2.4832 0.9444
-13.9598 -1.8774 -2.4837 0.9444
-13.7409 -3.1132 -2.4843 0.9444
-11.0807 -8.7504 -2.4896 0.9443
-10.2638 -9.7074 -2.4910 0.9442
-9.3648 -10.5889 -2.4925 0.9442
-7.3486 -12.0974 -2.4958 0.9441
-5.0944 -13.2273 -2.4993 0.9441
-2.6723 -13.9412 -2.5030 0.9440
-1.4219 -14.1341 -2.5048 0.9439
-0.1584 -14.2149 -2.5066 0.9439
2.3679 -14.0376 -2.5102 0.9438
4.8257 -13.4132 -2.5135 0.9437
6.0041 -12.9385 -2.5151 0.9437
7.1360 -12.3598 -2.5165 0.9437
11.0212 -9.1092 -2.5212 0.9436
11.7921 -8.0948 -2.5220 0.9436
13.0466 -5.8785 -2.5232 0.9435
13.5200 -4.6946 -2.5236 0.9435
14.1394 -2.2233 -2.5238 0.9435
14.2804 -0.9560 -2.5237 0.9435
14.3071 0.3189 -2.5233 0.9435
12.8700 3.8357 -2.3680 0.9469
11.9765 6.0520 -2.3661 0.9470
11.3849 7.0906 -2.3650 0.9470
10.7030 8.0715 -2.3637 0.9470
9.9365 8.9871 -2.3624 0.9470
8.1755 10.5932 -2.3595 0.9471
7.1953 11.2713 -2.3579 0.9471
6.1593 11.8588 -2.3562 0.9472
5.0757 12.3511 -2.3546 0.9472
3.9534 12.7447 -2.3529 0.9472
2.8013 13.0364 -2.3511 0.9473
1.6287 13.2243 -2.3494 0.9473
-5.3161 12.1583 -2.3398 0.9475
-6.3734 11.6301 -2.3384 0.9476
-8.3259 10.3051 -2.3360 0.9476
-10.7399 7.7302 -2.3333 0.9477
-13.1960 4.9143 -2.4829 0.9444
-13.8566 2.4964 -2.4826 0.9444
-12.7908 -1.1430 -2.4851 0.9490
-12.3914 -3.3943 -2.4863 0.9490
-12.0439 -4.4852 -2.4871 0.9490
-8.0999 -10.0254 -2.4942 0.9488
-7.1798 -10.7130 -2.4957 0.9488
-6.2016 -11.3165 -2.4972 0.9488
-5.1731 -11.8312 -2.4988 0.9488
-4.1022 -12.2527 -2.5005 0.9487
-2.9974 -12.5776 -2.5021 0.9487
-1.8673 -12.8029 -2.5038 0.9487
-0.7208 -12.9270 -2.5055 0.9486
4.9366 -12.0126 -2.5133 0.9485
5.9895 -11.5318 -2.5147 0.9484
6.9957 -10.9585 -2.5160 0.9484
7.9470 -10.2972 -2.5171 0.9484
8.8357 -9.5531 -2.5182 0.9484
9.6546 -8.7320 -2.5191 0.9483
11.6279 -5.8759 -2.5212 0.9483
12.9510 -1.4488 -2.5219 0.9483
13.0276 -0.2903 -2.5217 0.9483
12.0848 1.9003 -2.3674 0.9514
11.8647 2.9676 -2.3668 0.9514
11.1431 5.0209 -2.3652 0.9514
10.6476 5.9903 -2.3642 0.9514
10.0676 6.9111 -2.3631 0.9515
8.6738 8.5778 -2.3607 0.9515
7.8715 9.3104 -2.3594 0.9515
3.0801 11.7565 -2.3519 0.9517
0.9455 12.1003 -2.3487 0.9518
-0.1351 12.1284 -2.3472 0.9518
-3.3283 11.6398 -2.3428 0.9519
-5.3333 10.8530 -2.3401 0.9519
-6.2749 10.3299 -2.3389 0.9520
-7.1660 9.7258 -2.3378 0.9520
-6.4548 7.2986 -1.8855 0.9611
-8.7697 8.2944 -2.3359 0.9520
-10.0952 6.6040 -2.3345 0.9520
-12.5209 2.8369 -2.4844 0.9490
-11.8342 -5.0181 -2.4875 0.9490
-8.5360 -9.6518 -2.4935 0.9489
-7.6476 -10.3793 -2.4949 0.9488
-6.6975 -11.0256 -2.4965 0.9488
-5.6932 -11.5852 -2.4980 0.9488
-2.4349 -12.7029 -2.5030 0.9487
-1.2955 -12.8777 -2.5047 0.9486
-0.1443 -12.9505 -2.5063 0.9486
1.0096 -12.9204 -2.5079 0.9486
3.2886 -12.5524 -2.5111 0.9485
5.4684 -11.7841 -2.5140 0.9484
8.3997 -9.9352 -2.5177 0.9484
10.0357 -8.2947 -2.5196 0.9483
10.7373 -7.3707 -2.5203 0.9483
11.3535 -6.3873 -2.5209 0.9483
12.8739 -2.0243 -2.5219 0.9483
13.0023 -0.8704 -2.5218 0.9483
13.0267 0.2903 -2.5215 0.9483
11.9867 2.4364 -2.3671 0.9514
6.5544 10.2672 -2.3572 0.9516
5.6110 10.8030 -2.3557 0.9516
3.6019 11.6115 -2.3527 0.9517
2.5524 11.8781 -2.3511 0.9517
-0.6751 12.1064 -2.3464 0.9518
-2.8073 11.7800 -2.3435 0.9519
-3.8424 11.4766 -2.3421 0.9519
-4.8459 11.0828 -2.3408 0.9519
-6.8543 7.0873 -1.9080 0.9606
-9.7923 7.0481 -2.3348 0.9520
-10.3781 6.1470 -2.3342 0.9520
-11.5874 5.5348 -2.4850 0.9490
-12.3824 3.3919 -2.4845 0.9490
-11.7480 -1.0498 -2.4866 0.9529
-11.0612 -4.1193 -2.4884 0.9529
-10.1629 -6.0195 -2.4902 0.9529
-8.9425 -7.7329 -2.4924 0.9528
-8.2228 -8.5023 -2.4936 0.9528
-7.4373 -9.2053 -2.4949 0.9528
-6.5921 -9.8362 -2.4963 0.9527
-5.6938 -10.3898 -2.4977 0.9527
-3.7659 -11.2481 -2.5007 0.9527
-0.6616 -11.8651 -2.5053 0.9526
0.3973 -11.8841 -2.5068 0.9526
2.5010 -11.6389 -2.5097 0.9525
3.5290 -11.3764 -2.5111 0.9525
4.5300 -11.0230 -2.5125 0.9524
6.4188 -10.0549 -2.5149 0.9524
7.2914 -9.4478 -2.5160 0.9524
8.1066 -8.7647 -2.5169 0.9524
9.5383 -7.1931 -2.5186 0.9523
11.4567 -3.4145 -2.5203 0.9523
11.9258 0.7984 -2.5198 0.9523
10.8848 2.7225 -2.3654 0.9552
9.7692 5.4961 -2.3631 0.9552
8.6324 7.1349 -2.3610 0.9553
7.2233 8.5437 -2.3586 0.9553
2.8272 10.7912 -2.3518 0.9554
0.8680 11.1079 -2.3489 0.9555
-0.1240 11.1344 -2.3475 0.9555
-1.1139 11.0725 -2.3461 0.9555
-2.0938 10.9231 -2.3447 0.9556
-3.0560 10.6875 -2.3434 0.9556
-3.9930 10.3675 -2.3422 0.9556
-5.7623 9.4860 -2.3399 0.9556
-6.5808 8.9316 -2.3389 0.9557
-6.4369 7.2783 -2.0484 0.9611
-8.0541 7.6176 -2.3371 0.9557
-9.2719 6.0654 -2.3358 0.9557
-10.1612 5.4222 -2.4281 0.9540
-10.8578 4.6041 -2.4863 0.9529
-11.2234 3.6191 -2.4861 0.9529
-11.5004 2.6056 -2.4860 0.9529
-11.7822 -0.5254 -2.4864 0.9529
-11.5068 -2.6071 -2.4873 0.9529
-10.8685 -4.6087 -2.4888 0.9529
-9.2759 -7.3251 -2.4918 0.9528
-8.5913 -8.1256 -2.4930 0.9528
-7.8379 -8.8625 -2.4942 0.9528
-1.1891 -11.8202 -2.5045 0.9526
0.9266 -11.8581 -2.5075 0.9525
1.9795 -11.7354 -2.5090 0.9525
3.0179 -11.5192 -2.5104 0.9525
4.0334 -11.2109 -2.5118 0.9525
6.8619 -9.7611 -2.5154 0.9524
8.4905 -8.3964 -2.5174 0.9524
10.4156 -5.8597 -2.5195 0.9523
10.8977 -4.9102 -2.5199 0.9523
11.8100 -1.8571 -2.5204 0.9523
10.9967 2.2352 -2.3657 0.9552
9.5127 5.9246 -2.3626 0.9552
8.9437 6.7448 -2.3616 0.9552
7.5987 8.2156 -2.3593 0.9553
6.0151 9.4224 -2.3567 0.9553
2.3429 10.9031 -2.3511 0.9554
1.3624 11.0616 -2.3496 0.9555
-2.5776 10.8160 -2.3441 0.9556
-3.5281 10.5379 -2.3428 0.9556
-4.4497 10.1767 -2.3416 0.9556
-5.3352 9.7355 -2.3404 0.9556
-6.8289 7.0611 -2.0709 0.9606
-8.9936 6.4732 -2.3361 0.9557
-10.6427 5.0836 -2.4865 0.9529
-11.0515 4.1157 -2.4862 0.9529
-10.8566 -0.9702 -2.4878 0.9563
-10.7291 -1.9329 -2.4883 0.9563
-10.5168 -2.8809 -2.4888 0.9562
-9.8451 -4.7026 -2.4903 0.9562
-9.3908 -5.5622 -2.4912 0.9562
-8.8619 -6.3784 -2.4921 0.9562
-8.2626 -7.1449 -2.4932 0.9562
-7.5973 -7.8556 -2.4943 0.9562
-4.3872 -10.0337 -2.4995 0.9561
-3.4786 -10.3902 -2.5009 0.9560
-0.6110 -10.9586 -2.5051 0.9560
1.3431 -10.9054 -2.5079 0.9559
2.3097 -10.7482 -2.5092 0.9559
7.4845 -8.0922 -2.5159 0.9558
8.8060 -6.6409 -2.5174 0.9558
9.8480 -4.9764 -2.5184 0.9557
10.9681 -1.2270 -2.5190 0.9557
11.0330 -0.2458 -2.5188 0.9557
11.0098 0.7371 -2.5185 0.9557
10.0491 2.5135 -2.3643 0.9584
9.4389 4.2529 -2.3630 0.9584
7.9707 6.5880 -2.3602 0.9585
7.3494 7.2680 -2.3592 0.9585
2.6112 9.9671 -2.3517 0.9586
0.8018 10.2605 -2.3490 0.9587
-1.0290 10.2288 -2.3464 0.9587
-1.9343 10.0912 -2.3452 0.9587
-2.8234 9.8739 -2.3440 0.9587
-3.6892 9.5787 -2.3428 0.9588
-5.3242 8.7649 -2.3407 0.9588
-6.0808 8.2529 -2.3398 0.9588
-6.4190 7.2580 -2.2115 0.9610
-8.0373 6.3470 -2.3375 0.9589
-8.5683 5.6051 -2.3369 0.9589
-9.6169 5.1318 -2.4880 0.9563
-10.3720 3.3445 -2.4874 0.9563
-10.8002 1.4525 -2.4873 0.9563
-10.8872 0.4855 -2.4874 0.9563
-10.8035 -1.4529 -2.4880 0.9563
-10.3794 -3.3469 -2.4891 0.9562
-10.0432 -4.2587 -2.4899 0.9562
-9.1354 -5.9761 -2.4916 0.9562
-8.5708 -6.7682 -2.4926 0.9562
-7.9379 -7.5076 -2.4937 0.9562
-7.2415 -8.1881 -2.4949 0.9561
-5.6808 -9.3518 -2.4975 0.9561
-4.8285 -9.8256 -2.4988 0.9561
-3.9369 -10.2220 -2.5002 0.9561
-2.0645 -10.7702 -2.5030 0.9560
-1.0983 -10.9174 -2.5044 0.9560
0.8558 -10.9514 -2.5072 0.9559
1.8281 -10.8376 -2.5086 0.9559
2.7869 -10.6374 -2.5099 0.9559
4.6333 -9.9846 -2.5123 0.9558
6.3357 -9.0126 -2.5145 0.9558
7.8389 -7.7520 -2.5163 0.9558
9.0941 -6.2428 -2.5177 0.9558
9.6157 -5.4097 -2.5182 0.9557
10.4253 -3.6200 -2.5189 0.9557
10.7067 -2.6779 -2.5190 0.9557
10.9027 -1.7144 -2.5190 0.9557
11.0115 -0.7371 -2.5189 0.9557
11.0324 0.2459 -2.5187 0.9557
9.6205 3.8289 -2.3633 0.9584
9.2385 4.6684 -2.3626 0.9584
8.7831 5.4702 -2.3617 0.9584
5.5548 8.7014 -2.3562 0.9585
4.7557 9.1564 -2.3550 0.9586
1.2584 10.2175 -2.3497 0.9586
-1.4833 10.1701 -2.3458 0.9587
-3.2596 9.7359 -2.3434 0.9588
-4.9296 8.9953 -2.3412 0.9588
-5.7082 8.5173 -2.3402 0.9588
-6.8036 7.0349 -2.2337 0.9606
-7.7476 6.6996 -2.3378 0.9588
-10.5103 2.8791 -2.4873 0.9563
-10.7247 1.9321 -2.4872 0.9563
-10.0856 -0.9013 -2.4889 0.9591
-9.7696 -2.6762 -2.4898 0.9591
-9.1453 -4.3683 -2.4912 0.9591
-8.7230 -5.1667 -2.4920 0.9591
-7.6746 -6.6364 -2.4939 0.9591
-6.3819 -7.8989 -2.4961 0.9590
-5.6562 -8.4396 -2.4972 0.9590
-4.0742 -9.3180 -2.4997 0.9590
-2.3600 -9.9030 -2.5023 0.9589
-1.4700 -10.0791 -2.5037 0.9589
0.3407 -10.1907 -2.5063 0.9589
1.2470 -10.1250 -2.5075 0.9588
2.1443 -9.9788 -2.5088 0.9588
3.8832 -9.4493 -2.5111 0.9588
5.5017 -8.6182 -2.5132 0.9588
6.2492 -8.0973 -2.5141 0.9587
7.5906 -6.8653 -2.5157 0.9587
8.1737 -6.1640 -2.5163 0.9587
8.6917 -5.4132 -2.5169 0.9587
9.8167 -2.9257 -2.5178 0.9587
10.0384 -2.0404 -2.5179 0.9587
10.1800 -1.1388 -2.5179 0.9587
9.3274 2.3329 -2.3633 0.9612
9.0806 3.1531 -2.3627 0.9612
7.3992 6.1157 -2.3595 0.9612
6.8227 6.7471 -2.3586 0.9612
4.7910 8.2983 -2.3552 0.9613
2.4247 9.2549 -2.3516 0.9614
1.5905 9.4290 -2.3504 0.9614
0.7445 9.5281 -2.3491 0.9614
-0.1064 9.5516 -2.3479 0.9614
-1.7965 9.3720 -2.3456 0.9615
-2.6222 9.1705 -2.3444 0.9615
-4.2029 8.5527 -2.3424 0.9615
-4.9454 8.1413 -2.3414 0.9615
-6.3061 7.1304 -2.3397 0.9615
-6.9136 6.5388 -2.3390 0.9616
-8.9339 4.7673 -2.4890 0.9591
-9.6354 3.1070 -2.4885 0.9592
-9.8733 2.2370 -2.4884 0.9592
-10.1151 -0.4510 -2.4887 0.9592
-10.0362 -1.3497 -2.4891 0.9591
-9.3294 -3.9560 -2.4908 0.9591
-8.9430 -4.7721 -2.4916 0.9591
-8.4857 -5.5511 -2.4924 0.9591
-7.9610 -6.2867 -2.4934 0.9591
-5.2759 -8.6853 -2.4979 0.9590
-4.4841 -9.1249 -2.4991 0.9590
-2.7981 -9.7855 -2.5017 0.9589
-1.0198 -10.1372 -2.5043 0.9589
-0.1136 -10.1931 -2.5056 0.9589
3.4577 -9.6107 -2.5105 0.9588
4.3012 -9.2689 -2.5117 0.9588
5.1113 -8.8530 -2.5127 0.9588
5.8812 -8.3661 -2.5137 0.9588
6.6048 -7.8122 -2.5146 0.9587
7.8900 -6.5212 -2.5160 0.9587
9.3379 -4.2074 -2.5175 0.9587
10.2399 0.2282 -2.5176 0.9587
9.2132 2.7458 -2.3630 0.9612
8.1530 5.0778 -2.3609 0.9612
6.5139 7.0428 -2.3580 0.9613
5.8585 7.5912 -2.3570 0.9613
5.1572 8.0786 -2.3558 0.9613
3.6394 8.8560 -2.3535 0.9613
2.8353 9.1401 -2.3522 0.9613
2.0095 9.3513 -2.3510 0.9614
-1.3775 9.4451 -2.3461 0.9614
-3.0274 9.0425 -2.3439 0.9615
-6.6164 6.8414 -2.3394 0.9616
-7.7205 5.5570 -2.3381 0.9616
-8.6924 5.1486 -2.4833 0.9592
-9.4481 0.0000 -2.4896 0.9617
-9.4117 -0.8410 -2.4899 0.9617
-9.1166 -2.4973 -2.4907 0.9617
-8.8602 -3.2996 -2.4913 0.9616
-8.5337 -4.0762 -2.4920 0.9616
-7.6807 -5.5282 -2.4936 0.9616
-5.9543 -7.3697 -2.4965 0.9616
-5.2770 -7.8739 -2.4976 0.9615
-3.0135 -9.0010 -2.5012 0.9615
-0.5292 -9.4913 -2.5048 0.9614
5.1307 -8.0371 -2.5125 0.9613
6.4787 -7.0046 -2.5142 0.9613
7.6219 -5.7479 -2.5154 0.9613
8.1048 -5.0477 -2.5159 0.9613
8.8738 -3.5317 -2.5166 0.9613
9.3604 -1.9026 -2.5169 0.9613
9.4924 -1.0619 -2.5169 0.9613
13.8868 3.4733 -3.7719 0.9425
8.4677 2.9403 -2.3619 0.9636
8.1702 3.6814 -2.3613 0.9636
6.9005 5.7034 -2.3589 0.9636
5.1421 7.3147 -2.3560 0.9637
4.4686 7.7398 -2.3549 0.9637
3.7602 8.1030 -2.3538 0.9637
1.4836 8.7957 -2.3504 0.9638
-0.8916 8.8623 -2.3470 0.9638
-1.6760 8.7437 -2.3459 0.9638
-2.4465 8.5560 -2.3449 0.9639
-3.9215 7.9800 -2.3429 0.9639
-4.6145 7.5964 -2.3420 0.9639
-5.2704 7.1531 -2.3412 0.9639
-6.9671 5.5019 -2.3392 0.9639
-7.5963 4.9692 -2.3919 0.9631
-8.3369 4.4487 -2.4900 0.9617
-8.9917 2.8995 -2.4895 0.9617
-9.2137 2.0876 -2.4894 0.9617
-9.3630 1.2592 -2.4894 0.9617
-9.4384 0.4209 -2.4895 0.9617
-9.2179 -2.0885 -2.4905 0.9617
-8.9973 -2.9012 -2.4910 0.9617
-8.3448 -4.4529 -2.4923 0.9616
-6.8792 -6.5063 -2.4950 0.9616
-6.2753 -7.0956 -2.4960 0.9616
-5.6213 -7.6293 -2.4971 0.9616
-3.4107 -8.8557 -2.5006 0.9615
-2.6102 -9.1285 -2.5018 0.9615
-0.1059 -9.5077 -2.5054 0.9614
1.5830 -9.3847 -2.5078 0.9614
4.0114 -8.6443 -2.5111 0.9613
4.7667 -8.2562 -2.5121 0.9613
5.4846 -7.8019 -2.5130 0.9613
6.1593 -7.2852 -2.5138 0.9613
7.3574 -6.0811 -2.5152 0.9613
8.3223 -4.6820 -2.5162 0.9613
8.7072 -3.9233 -2.5165 0.9613
9.0227 -3.1330 -2.5167 0.9613
9.2662 -2.3176 -2.5169 0.9613
9.4358 -1.4837 -2.5169 0.9613
9.5301 -0.6379 -2.5168 0.9613
9.5483 0.2128 -2.5166 0.9613
14.0292 2.8516 -3.7723 0.9425
8.5913 2.5605 -2.3622 0.9636
7.6031 4.7353 -2.3602 0.9636
7.1490 5.3913 -2.3594 0.9636
6.6383 6.0040 -2.3585 0.9637
6.0751 6.5683 -2.3575 0.9637
5.4640 7.0799 -2.3565 0.9637
4.8100 7.5348 -2.3555 0.9637
2.6447 8.5257 -2.3521 0.9637
1.8745 8.7230 -2.3510 0.9638
1.0901 8.8509 -2.3498 0.9638
-0.4960 8.8953 -2.3476 0.9638
-2.0634 8.6584 -2.3454 0.9639
-3.5628 8.1484 -2.3434 0.9639
-4.9474 7.3821 -2.3416 0.9639
-5.5829 6.9101 -2.3408 0.9639
-6.1740 6.3839 -2.3401 0.9639
-7.2045 5.1855 -2.3390 0.9639
-8.8539 3.2973 -2.4895 0.9617
-9.2975 1.6751 -2.4893 0.9617
-9.4100 0.8409 -2.4894 0.9617
-3.9277 -0.3510 -1.1095 0.9837
-3.7284 -0.6717 -1.0659 0.9844
-8.3004 -3.0911 -2.4920 0.9639
-7.9943 -3.8186 -2.4927 0.9639
-7.6249 -4.5162 -2.4934 0.9638
-6.7078 -5.8004 -2.4950 0.9638
-6.1672 -6.3768 -2.4960 0.9638
-5.5773 -6.9031 -2.4969 0.9638
-4.9428 -7.3752 -2.4980 0.9638
-4.2686 -7.7892 -2.4990 0.9638
-3.5599 -8.1418 -2.5002 0.9637
-2.0618 -8.6518 -2.5024 0.9637
-0.4956 -8.8885 -2.5047 0.9637
1.0892 -8.8435 -2.5070 0.9637
1.8728 -8.7152 -2.5080 0.9636
2.6421 -8.5174 -2.5091 0.9636
3.3911 -8.2517 -2.5101 0.9636
6.0658 -6.5582 -2.5134 0.9636
7.1359 -5.3814 -2.5147 0.9635
7.5880 -4.7258 -2.5151 0.9635
7.9797 -4.0323 -2.5155 0.9635
8.3078 -3.3064 -2.5158 0.9635
8.5697 -2.5540 -2.5159 0.9635
8.7632 -1.7812 -2.5160 0.9635
8.9210 0.5972 -2.5156 0.9635
7.9279 2.7529 -2.3612 0.9657
7.6495 3.4467 -2.3606 0.9657
7.3103 4.1128 -2.3600 0.9657
6.9131 4.7456 -2.3592 0.9658
6.4611 5.3403 -2.3584 0.9658
5.9579 5.8919 -2.3576 0.9658
3.5212 7.5881 -2.3536 0.9658
2.8306 7.8678 -2.3526 0.9659
0.6505 8.3247 -2.3493 0.9659
-0.8350 8.3007 -2.3472 0.9659
-1.5699 8.1899 -2.3462 0.9659
-2.9946 7.7754 -2.3443 0.9660
-5.5124 6.2330 -2.3411 0.9660
-6.5269 5.1543 -2.3400 0.9660
-8.1494 3.4556 -2.4905 0.9639
-8.6320 1.9557 -2.4902 0.9639
-8.7718 1.1797 -2.4902 0.9639
-8.8424 0.3943 -2.4903 0.9639
-4.2110 -0.1878 -1.1860 0.9826
-3.7396 -0.5029 -1.0616 0.9844
-3.7659 -0.8532 -1.0864 0.9841
-8.1554 -3.4582 -2.4923 0.9639
-7.4173 -4.8522 -2.4938 0.9638
-6.9583 -5.4949 -2.4946 0.9638
-6.4439 -6.0946 -2.4955 0.9638
-2.4447 -8.5495 -2.5019 0.9637
-0.8909 -8.8555 -2.5041 0.9637
1.4824 -8.7881 -2.5075 0.9636
2.2596 -8.6249 -2.5086 0.9636
3.0196 -8.3930 -2.5096 0.9636
3.7560 -8.0940 -2.5106 0.9636
6.3527 -6.2823 -2.5138 0.9636
6.8884 -5.6934 -2.5144 0.9635
7.3693 -5.0587 -2.5149 0.9635
7.7916 -4.3835 -2.5153 0.9635
8.1519 -3.6730 -2.5156 0.9635
8.4472 -2.9332 -2.5159 0.9635
8.6751 -2.1698 -2.5160 0.9635
8.9221 -0.5972 -2.5159 0.9635
8.8850 0.9940 -2.5154 0.9635
13.1346 2.6697 -3.7710 0.9458
7.7964 3.1029 -2.3609 0.9657
7.4873 3.7835 -2.3603 0.9657
7.1188 4.4336 -2.3596 0.9658
6.6937 5.0480 -2.3588 0.9658
6.2156 5.6217 -2.3580 0.9658
3.8566 7.4254 -2.3541 0.9658
3.1790 7.7357 -2.3531 0.9658
1.0209 8.2894 -2.3499 0.9659
-0.4646 8.3314 -2.3477 0.9659
-1.9327 8.1101 -2.3457 0.9659
-2.6458 7.9026 -2.3448 0.9660
-3.3374 7.6328 -2.3438 0.9660
-4.6345 6.9152 -2.3422 0.9660
-5.7838 5.9804 -2.3408 0.9660
-6.7494 4.8579 -2.3397 0.9660
-7.6175 4.5119 -2.4910 0.9639
-7.9878 3.8154 -2.4906 0.9639
-8.2949 3.0891 -2.4904 0.9639
-8.8158 0.7878 -2.4903 0.9639
-3.5918 -0.3210 -1.0796 0.9851
-7.8027 -2.9057 -2.4927 0.9658
-7.1675 -4.2453 -2.4940 0.9658
-6.7632 -4.8679 -2.4947 0.9658
-5.7969 -5.9939 -2.4964 0.9658
-5.2423 -6.4885 -2.4973 0.9658
-2.6526 -7.9229 -2.5014 0.9657
-1.9377 -8.1311 -2.5025 0.9657
-1.2069 -8.2749 -2.5035 0.9657
0.2797 -8.3649 -2.5057 0.9657
1.0235 -8.3103 -2.5067 0.9656
2.4827 -8.0035 -2.5087 0.9656
3.1864 -7.7537 -2.5097 0.9656
3.8652 -7.4419 -2.5105 0.9656
4.5138 -7.0706 -2.5114 0.9656
5.6992 -6.1619 -2.5128 0.9656
6.2265 -5.6315 -2.5134 0.9656
6.7044 -5.0560 -2.5140 0.9655
7.1291 -4.4400 -2.5144 0.9655
7.4970 -3.7884 -2.5147 0.9655
7.8052 -3.1064 -2.5150 0.9655
8.0513 -2.3995 -2.5152 0.9655
8.2971 1.3047 -2.5145 0.9655
12.2152 3.0552 -3.7696 0.9488
6.4955 4.4589 -2.3587 0.9676
4.5245 6.4363 -2.3554 0.9677
2.6601 7.3938 -2.3525 0.9677
0.6114 7.8238 -2.3494 0.9678
-0.0874 7.8438 -2.3484 0.9678
-1.4755 7.6977 -2.3465 0.9678
-2.1539 7.5328 -2.3456 0.9678
-2.8148 7.3085 -2.3447 0.9678
-3.4529 7.0264 -2.3438 0.9678
-4.6410 6.2988 -2.3423 0.9679
-5.1818 5.8591 -2.3417 0.9679
-6.1357 4.8453 -2.3406 0.9679
-8.1148 1.8386 -2.4910 0.9659
-3.6646 -0.1634 -1.0982 0.9848
-3.5144 -0.4727 -1.0616 0.9853
-3.4642 -0.7849 -1.0634 0.9853
-7.3485 -3.9213 -2.4936 0.9658
-6.9723 -4.5611 -2.4943 0.9658
-6.5407 -5.1651 -2.4951 0.9658
-4.9490 -6.7169 -2.4978 0.9658
-4.3333 -7.1335 -2.4988 0.9658
-3.0023 -7.7953 -2.5009 0.9657
-0.0932 -8.3673 -2.5052 0.9657
2.8373 -7.8864 -2.5092 0.9656
3.5293 -7.6054 -2.5101 0.9656
4.1936 -7.2635 -2.5110 0.9656
5.4183 -6.4088 -2.5125 0.9656
5.9688 -5.9026 -2.5131 0.9656
7.3203 -4.1183 -2.5146 0.9655
8.1503 -2.0385 -2.5152 0.9655
8.3985 0.1872 -2.5150 0.9655
12.3402 2.5083 -3.7700 0.9488
7.5815 2.2596 -2.3684 0.9675
7.3251 2.9153 -2.3603 0.9676
6.6886 4.1657 -2.3591 0.9676
6.2894 4.7431 -2.3583 0.9676
5.8403 5.2823 -2.3576 0.9677
4.8077 6.2295 -2.3558 0.9677
4.2325 6.6301 -2.3549 0.9677
2.3276 7.5034 -2.3519 0.9677
0.9595 7.7904 -2.3499 0.9678
-1.1314 7.7573 -2.3470 0.9678
-1.8166 7.6228 -2.3460 0.9678
-3.1370 7.1745 -2.3442 0.9678
-3.7618 6.8645 -2.3434 0.9678
-4.3565 6.5003 -2.3427 0.9679
-4.9163 6.0850 -2.3420 0.9679
-5.4369 5.6218 -2.3414 0.9679
-5.9144 5.1143 -2.3408 0.9679
-6.6529 4.7885 -2.4540 0.9664
-7.7979 2.9039 -2.4912 0.9659
-8.2876 0.7406 -2.4910 0.9659
-3.2843 -0.5917 -1.0598 0.9861
-7.0857 -3.3846 -2.4939 0.9676
-5.4654 -5.6512 -2.4968 0.9675
-4.9425 -6.1173 -2.4976 0.9675
-4.3800 -6.5354 -2.4986 0.9675
-3.7823 -6.9019 -2.4995 0.9675
-3.1543 -7.2140 -2.5005 0.9675
-2.5007 -7.4691 -2.5015 0.9675
-1.8267 -7.6651 -2.5025 0.9675
-1.1377 -7.8004 -2.5035 0.9675
-0.4390 -7.8739 -2.5045 0.9674
0.2636 -7.8849 -2.5055 0.9674
0.9648 -7.8333 -2.5065 0.9674
2.3401 -7.5437 -2.5084 0.9674
5.3713 -5.8073 -2.5123 0.9673
5.8682 -5.3074 -2.5128 0.9673
6.7187 -4.1844 -2.5137 0.9673
7.0654 -3.5703 -2.5141 0.9673
7.3558 -2.9275 -2.5143 0.9673
7.5876 -2.2614 -2.5145 0.9673
7.7590 -1.5771 -2.5145 0.9673
7.9152 -0.1764 -2.5144 0.9673
7.8988 0.5288 -2.5142 0.9673
7.6778 1.9204 -2.5135 0.9673
6.7736 3.0521 -2.3595 0.9693
5.2765 5.2181 -2.3568 0.9693
4.2647 6.0667 -2.3551 0.9694
3.7064 6.4197 -2.3542 0.9694
3.1191 6.7215 -2.3533 0.9694
2.5075 6.9697 -2.3523 0.9694
1.8764 7.1623 -2.3514 0.9694
0.5763 7.3755 -2.3495 0.9694
-0.7399 7.3550 -2.3476 0.9695
-2.0307 7.1019 -2.3458 0.9695
-3.8310 6.3067 -2.3435 0.9695
-4.3759 5.9390 -2.3428 0.9695
-4.8858 5.5245 -2.3422 0.9695
-6.9233 3.6944 -2.4922 0.9676
-7.2239 3.0632 -2.4919 0.9676
-7.7757 1.0457 -2.4917 0.9676
-3.2827 -1.0586 -1.0954 0.9856
-6.9288 -3.6973 -2.4942 0.9676
-6.5739 -4.3005 -2.4948 0.9676
-6.1669 -4.8699 -2.4956 0.9676
-5.7108 -5.4012 -2.4964 0.9675
-5.2092 -5.8901 -2.4972 0.9675
-4.6659 -6.3326 -2.4981 0.9675
-2.1659 -7.5746 -2.5020 0.9675
-1.4837 -7.7404 -2.5030 0.9675
0.6147 -7.8669 -2.5060 0.9674
3.3264 -7.1683 -2.5097 0.9674
4.5475 -6.4689 -2.5113 0.9674
5.1066 -6.0401 -2.5119 0.9673
5.6253 -5.5630 -2.5126 0.9673
7.2178 -3.2522 -2.5142 0.9673
7.4792 -2.5970 -2.5144 0.9673
7.8215 -1.2299 -2.5145 0.9673
7.9149 0.1764 -2.5143 0.9673
7.7564 1.5765 -2.5137 0.9673
7.5196 2.2411 -2.4919 0.9676
6.9036 2.7476 -2.3597 0.9693
6.6301 3.3504 -2.3592 0.9693
6.3039 3.9261 -2.3586 0.9693
5.0380 5.4470 -2.3564 0.9693
3.9895 6.2495 -2.3547 0.9694
2.1941 7.0730 -2.3519 0.9694
1.5552 7.2373 -2.3509 0.9694
0.9045 7.3440 -2.3500 0.9694
0.2472 7.3924 -2.3490 0.9694
-0.4116 7.3821 -2.3481 0.9694
-1.7127 7.1866 -2.3463 0.9695
-2.3447 7.0031 -2.3454 0.9695
-2.9576 6.7643 -2.3446 0.9695
-4.1075 6.1289 -2.3431 0.9695
-5.1265 5.3007 -2.3419 0.9695
-5.5767 4.8223 -2.3414 0.9695
-6.3705 4.5852 -2.4927 0.9676
-7.0806 3.3821 -2.4920 0.9676
-7.3529 2.7383 -2.4918 0.9676
-7.5670 2.0728 -2.4917 0.9676
-3.2019 -0.2861 -1.0801 0.9865
-6.6991 -3.1999 -2.4944 0.9692
-6.0286 -4.3391 -2.4956 0.9691
-5.1669 -5.3425 -2.4971 0.9691
-4.6724 -5.7831 -2.4979 0.9691
-4.1405 -6.1781 -2.4988 0.9691
2.2117 -7.1298 -2.5081 0.9690
2.8385 -6.9070 -2.5089 0.9690
4.0206 -6.2981 -2.5105 0.9690
4.5664 -5.9168 -2.5111 0.9690
6.6769 -3.3739 -2.5135 0.9689
6.9513 -2.7665 -2.5137 0.9689
7.1704 -2.1370 -2.5138 0.9689
7.4645 0.4997 -2.5135 0.9689
6.1178 3.4419 -2.3584 0.9708
5.7857 3.9717 -2.3578 0.9708
5.4077 4.4696 -2.3572 0.9708
3.5032 6.0677 -2.3540 0.9709
1.7737 6.7700 -2.3514 0.9709
-0.0779 6.9900 -2.3487 0.9709
-1.3150 6.8604 -2.3469 0.9710
-1.9197 6.7138 -2.3461 0.9710
-3.0777 6.2629 -2.3446 0.9710
-4.1370 5.6148 -2.3432 0.9710
-5.0646 4.7901 -2.3421 0.9710
-6.2097 4.0622 -2.4931 0.9692
-7.0602 2.2766 -2.4924 0.9692
-7.2346 1.6392 -2.4923 0.9692
-7.3518 0.9887 -2.4923 0.9692
-4.1559 0.1853 -1.3977 0.9826
-3.1639 -0.4255 -1.0726 0.9866
-3.1355 -0.7104 -1.0802 0.9865
-3.1418 -1.0131 -1.1091 0.9862
-6.8342 -2.8980 -2.4941 0.9692
-6.5506 -3.4955 -2.4946 0.9692
-6.2151 -4.0657 -2.4953 0.9691
-5.8302 -4.6040 -2.4960 0.9691
-4.4109 -5.9865 -2.4984 0.9691
-3.8619 -6.3576 -2.4992 0.9691
-2.0473 -7.1600 -2.5020 0.9691
-0.7460 -7.4153 -2.5040 0.9690
1.2410 -7.3571 -2.5068 0.9690
2.5275 -7.0254 -2.5085 0.9690
4.2977 -6.1136 -2.5108 0.9690
5.7642 -4.7642 -2.5125 0.9689
6.5196 -3.6679 -2.5133 0.9689
7.0679 -2.4542 -2.5138 0.9689
7.3914 -1.1623 -2.5139 0.9689
7.4797 0.1667 -2.5137 0.9689
7.1671 2.1360 -2.5127 0.9689
6.2658 3.1663 -2.3587 0.9708
5.9577 3.7105 -2.3581 0.9708
4.2829 5.5495 -2.3553 0.9709
3.7707 5.9067 -2.3544 0.9709
3.2288 6.2166 -2.3536 0.9709
2.0739 6.6855 -2.3518 0.9709
-2.2165 6.6204 -2.3457 0.9710
-2.7961 6.3948 -2.3449 0.9710
-3.3531 6.1187 -2.3442 0.9710
-3.8833 5.7943 -2.3436 0.9710
-4.3825 5.4243 -2.3429 0.9710
-4.8467 5.0115 -2.3424 0.9710
-6.0230 4.3351 -2.4933 0.9692
-6.6945 3.1977 -2.4926 0.9692
-7.1544 1.9598 -2.4923 0.9692
-7.3004 1.3152 -2.4923 0.9692
-7.3886 0.6603 -2.4923 0.9692
-3.4902 0.0000 -1.2376 0.9853
-3.0229 -0.8281 -1.1114 0.9868
-6.0550 -3.5864 -2.4954 0.9706
-5.3260 -4.6056 -2.4967 0.9706
-4.4277 -5.4803 -2.4982 0.9705
-3.9237 -5.8545 -2.4990 0.9705
-2.8254 -6.4619 -2.5007 0.9705
-2.2399 -6.6901 -2.5016 0.9705
-1.6361 -6.8654 -2.5026 0.9705
-1.0189 -6.9863 -2.5035 0.9705
-0.3932 -7.0518 -2.5044 0.9705
0.2361 -7.0614 -2.5053 0.9705
2.0954 -6.7550 -2.5078 0.9704
2.6892 -6.5438 -2.5086 0.9704
4.3261 -5.6055 -2.5107 0.9704
4.8089 -5.1994 -2.5113 0.9704
6.0149 -3.7461 -2.5126 0.9704
6.5851 -2.6208 -2.5131 0.9704
7.0859 -0.1579 -2.5132 0.9704
7.0713 0.4734 -2.5130 0.9704
6.8736 1.7192 -2.5124 0.9704
6.6922 2.3238 -2.5120 0.9704
6.0644 2.7325 -2.3586 0.9722
4.2887 5.0727 -2.3554 0.9722
3.3191 5.7489 -2.3538 0.9722
2.7933 6.0194 -2.3530 0.9722
0.5162 6.6062 -2.3496 0.9723
-0.0738 6.6236 -2.3488 0.9723
-0.6628 6.5884 -2.3479 0.9723
-3.4323 5.6504 -2.3442 0.9723
-5.5199 4.3591 -2.4940 0.9706
-5.8851 3.8499 -2.4936 0.9706
-6.2036 3.3104 -2.4933 0.9706
-6.4731 2.7448 -2.4931 0.9706
-6.6912 2.1577 -2.4929 0.9706
-6.9676 0.9371 -2.4929 0.9706
-3.9464 0.1760 -1.4007 0.9834
-3.6596 -6.0245 -2.4994 0.9705
-3.1099 -6.3285 -2.5003 0.9705
-2.5352 -6.5825 -2.5012 0.9705
-1.9400 -6.7845 -2.5021 0.9705
-1.3289 -6.9327 -2.5030 0.9705
-0.0787 -7.0636 -2.5048 0.9705
2.9785 -6.4185 -2.5090 0.9704
4.0716 -5.7919 -2.5104 0.9704
5.0363 -4.9805 -2.5116 0.9704
5.4607 -4.5133 -2.5120 0.9704
5.8416 -4.0100 -2.5124 0.9704
6.1762 -3.4746 -2.5128 0.9704
6.4616 -2.9115 -2.5130 0.9704
6.6956 -2.3249 -2.5132 0.9704
6.8762 -1.7198 -2.5133 0.9704
7.0020 -1.1010 -2.5133 0.9704
7.0720 -0.4734 -2.5132 0.9704
7.0428 0.7879 -2.5129 0.9704
6.9439 1.4114 -2.5126 0.9704
6.7897 2.0235 -2.5122 0.9704
6.2519 2.4882 -2.3860 0.9718
4.5111 4.8774 -2.3558 0.9722
4.0578 5.2579 -2.3550 0.9722
3.5725 5.5963 -2.3542 0.9722
3.0592 5.8900 -2.3534 0.9722
-0.3687 6.6125 -2.3483 0.9723
-0.9555 6.5512 -2.3475 0.9723
-1.5342 6.4379 -2.3467 0.9723
-2.1005 6.2738 -2.3460 0.9723
-2.6497 6.0601 -2.3452 0.9723
-3.6801 5.4912 -2.3439 0.9723
-4.1532 5.1405 -2.3433 0.9723
-4.5933 4.7494 -2.3428 0.9723
-5.7082 4.1085 -2.4938 0.9706
-6.0504 3.5837 -2.4935 0.9706
-6.3446 3.0306 -2.4932 0.9706
-6.5887 2.4536 -2.4930 0.9706
-6.7806 1.8574 -2.4929 0.9706
-7.0025 0.6258 -2.4929 0.9706
-3.3741 0.0000 -1.2599 0.9857
-2.9938 -0.2675 -1.1224 0.9872
-2.9455 -0.5306 -1.1176 0.9873
-2.9169 -0.7990 -1.1293 0.9872
-2.9238 -1.0888 -1.1650 0.9868
-6.0297 -2.8801 -2.4952 0.9719
-5.7506 -3.4061 -2.4958 0.9719
-5.0581 -4.3739 -2.4970 0.9719
-4.2049 -5.2044 -2.4984 0.9718
-0.3734 -6.6962 -2.5043 0.9718
0.2242 -6.7051 -2.5052 0.9718
3.0971 -5.9629 -2.5091 0.9717
4.5657 -4.9364 -2.5109 0.9717
4.9879 -4.5113 -2.5114 0.9717
5.3706 -4.0502 -2.5118 0.9717
5.7106 -3.5565 -2.5121 0.9717
6.6875 -0.7481 -2.5128 0.9717
6.7273 -0.1499 -2.5127 0.9717
6.6461 1.0451 -2.5122 0.9717
6.5259 1.6322 -2.5119 0.9717
6.3537 2.2063 -2.5115 0.9717
5.7580 2.5945 -2.3583 0.9734
5.5028 3.0958 -2.3577 0.9734
5.2042 3.5725 -2.3571 0.9734
4.8643 4.0204 -2.3565 0.9734
4.4859 4.4362 -2.3558 0.9734
4.0721 4.8165 -2.3552 0.9734
3.1516 5.4587 -2.3537 0.9734
2.6523 5.7157 -2.3529 0.9735
2.1324 5.9270 -2.3521 0.9735
1.5958 6.0912 -2.3513 0.9735
1.0470 6.2069 -2.3505 0.9735
0.4902 6.2733 -2.3497 0.9735
-0.0701 6.2899 -2.3489 0.9735
-5.2426 4.1401 -2.4945 0.9719
-5.5895 3.6565 -2.4941 0.9719
-6.1480 2.6070 -2.4936 0.9719
-6.3552 2.0493 -2.4934 0.9719
-6.5122 1.4755 -2.4934 0.9719
-6.6177 0.8900 -2.4934 0.9719
-3.0832 -0.1375 -1.1525 0.9869
-5.8960 -3.1462 -2.4955 0.9719
-5.5939 -3.6593 -2.4961 0.9719
-5.2473 -4.1437 -2.4967 0.9719
-3.4753 -5.7212 -2.4996 0.9718
-2.9533 -6.0098 -2.5004 0.9718
-2.4075 -6.2509 -2.5013 0.9718
-1.8422 -6.4426 -2.5021 0.9718
-0.0747 -6.7073 -2.5047 0.9718
0.5227 -6.6896 -2.5056 0.9718
1.1164 -6.6187 -2.5064 0.9717
2.2737 -6.3198 -2.5080 0.9717
2.8280 -6.0941 -2.5087 0.9717
3.3601 -5.8199 -2.5094 0.9717
3.8657 -5.4990 -2.5100 0.9717
4.3408 -5.1344 -2.5106 0.9717
5.1844 -4.2850 -2.5116 0.9717
6.1346 -2.7641 -2.5125 0.9717
6.5282 -1.6328 -2.5128 0.9717
6.6476 -1.0453 -2.5128 0.9717
6.7141 -0.4494 -2.5127 0.9717
6.7271 0.1499 -2.5126 0.9717
6.4462 1.9212 -2.5117 0.9717
5.6358 2.8479 -2.3579 0.9734
5.3588 3.3375 -2.3574 0.9734
5.0392 3.8003 -2.3568 0.9734
4.2832 4.6310 -2.3555 0.9734
2.3947 5.8271 -2.3525 0.9735
1.8659 6.0151 -2.3517 0.9735
1.3227 6.1552 -2.3509 0.9735
0.2102 6.2878 -2.3493 0.9735
-0.3501 6.2795 -2.3485 0.9735
-0.9074 6.2213 -2.3477 0.9735
-1.4570 6.1139 -2.3469 0.9735
-2.5164 5.7552 -2.3455 0.9735
-3.0178 5.5069 -2.3449 0.9735
-3.9445 4.8822 -2.3437 0.9736
-5.0534 4.3698 -2.4947 0.9719
-5.4214 3.9021 -2.4943 0.9719
-6.2578 2.3304 -2.4935 0.9719
-6.4401 1.7641 -2.4934 0.9719
-3.2641 0.0000 -1.2811 0.9861
-2.8528 -1.0624 -1.1947 0.9870
-5.7377 -2.7407 -2.4956 0.9730
-5.4721 -3.2411 -2.4961 0.9730
-5.1631 -3.7162 -2.4967 0.9730
-4.8131 -4.1620 -2.4973 0.9730
-3.0615 -5.5865 -2.5002 0.9730
-2.5529 -5.8386 -2.5010 0.9730
-2.0238 -6.0446 -2.5018 0.9730
-0.9206 -6.3119 -2.5034 0.9730
-0.3552 -6.3708 -2.5042 0.9730
0.2133 -6.3792 -2.5051 0.9729
0.7805 -6.3369 -2.5059 0.9729
1.8928 -6.1018 -2.5074 0.9729
2.9463 -5.6727 -2.5088 0.9729
4.3434 -4.6960 -2.5105 0.9729
4.7449 -4.2916 -2.5110 0.9729
6.2730 -1.2750 -2.5123 0.9729
6.3223 0.9941 -2.5118 0.9729
6.0442 2.0988 -2.5111 0.9729
5.7086 2.5722 -2.4574 0.9735
4.9508 3.3985 -2.3568 0.9745
4.6275 3.8247 -2.3562 0.9745
4.2676 4.2203 -2.3556 0.9745
3.8739 4.5821 -2.3549 0.9745
3.4497 4.9073 -2.3542 0.9746
-0.0667 5.9846 -2.3489 0.9746
-0.5989 5.9530 -2.3482 0.9746
-1.1260 5.8743 -2.3475 0.9746
-1.6439 5.7490 -2.3468 0.9746
-2.1484 5.5783 -2.3461 0.9746
-2.6357 5.3635 -2.3454 0.9746
-3.9563 4.4734 -2.3438 0.9747
-4.9888 3.9397 -2.4949 0.9731
-5.3190 3.4795 -2.4945 0.9731
-5.8505 2.4809 -2.4940 0.9731
-6.0477 1.9501 -2.4939 0.9731
-2.8717 -1.2177 -1.2242 0.9867
-5.3229 -3.4821 -2.4964 0.9730
-4.9931 -3.9430 -2.4970 0.9730
-4.2171 -4.7683 -2.4983 0.9730
-3.3068 -5.4437 -2.4998 0.9730
-2.8100 -5.7182 -2.5006 0.9730
-2.2906 -5.9475 -2.5014 0.9730
-1.7528 -6.1298 -2.5022 0.9730
-1.2006 -6.2635 -2.5030 0.9730
-0.6386 -6.3476 -2.5038 0.9730
-0.0711 -6.3813 -2.5047 0.9730
1.0622 -6.2968 -2.5062 0.9729
1.6189 -6.1792 -2.5070 0.9729
2.6904 -5.7975 -2.5084 0.9729
4.1294 -4.8843 -2.5102 0.9729
4.5487 -4.4982 -2.5107 0.9729
5.2758 -3.6216 -2.5115 0.9729
6.0469 -2.0997 -2.5122 0.9729
6.2100 -1.5532 -2.5123 0.9729
6.2713 1.2747 -2.5116 0.9729
5.3614 2.7092 -2.3576 0.9745
3.6654 4.7495 -2.3546 0.9745
2.7636 5.3208 -2.3532 0.9746
1.2584 5.8563 -2.3509 0.9746
-0.3332 5.9748 -2.3486 0.9746
-1.8981 5.6693 -2.3464 0.9746
-2.3945 5.4763 -2.3458 0.9746
-2.8716 5.2401 -2.3451 0.9747
-3.3258 4.9625 -2.3446 0.9747
-3.7535 4.6457 -2.3440 0.9747
-4.2225 4.3661 -2.3838 0.9742
-4.8088 4.1583 -2.4951 0.9731
-5.4684 3.2389 -2.4944 0.9731
-5.9550 2.2177 -2.4940 0.9731
-6.1285 1.6788 -2.4939 0.9731
-2.7831 -0.5014 -1.1645 0.9878
-2.7842 -1.0369 -1.2234 0.9872
-5.4694 -2.6125 -2.4959 0.9741
-5.2162 -3.0896 -2.4964 0.9741
-4.5879 -3.9673 -2.4976 0.9741
-4.2176 -4.3610 -2.4982 0.9741
-3.3794 -5.0425 -2.4996 0.9741
-2.9181 -5.3248 -2.5003 0.9741
-2.4333 -5.5650 -2.5011 0.9741
-1.9289 -5.7613 -2.5018 0.9741
-0.8774 -6.0158 -2.5034 0.9740
3.7236 -4.8248 -2.5096 0.9740
4.1391 -4.4751 -2.5101 0.9740
4.5218 -4.0897 -2.5106 0.9740
5.1767 -3.2240 -2.5113 0.9740
5.4437 -2.7508 -2.5115 0.9740
5.6673 -2.2555 -2.5117 0.9740
5.8458 -1.7422 -2.5118 0.9740
5.9778 -1.2150 -2.5119 0.9740
6.0858 0.4074 -2.5116 0.9740
5.7598 2.0000 -2.5107 0.9740
4.7180 3.2387 -2.3565 0.9755
3.6920 4.3669 -2.3547 0.9756
2.8576 4.9495 -2.3534 0.9756
2.4050 5.1826 -2.3527 0.9756
1.9336 5.3744 -2.3520 0.9756
1.4471 5.5235 -2.3512 0.9756
-1.5669 5.4799 -2.3469 0.9756
-2.0479 5.3172 -2.3463 0.9757
-3.3775 4.5839 -2.3446 0.9757
-4.7556 3.7555 -2.4953 0.9741
-5.3449 2.8521 -2.4947 0.9741
-5.5770 2.3649 -2.4945 0.9741
-5.7651 1.8590 -2.4943 0.9741
-6.0032 0.8074 -2.4943 0.9741
-3.5093 0.1565 -1.4465 0.9849
-2.9337 -0.1308 -1.2093 0.9874
-2.7946 -0.3759 -1.1611 0.9879
-2.7756 -0.6289 -1.1719 0.9878
-5.0739 -3.3192 -2.4967 0.9741
-4.7595 -3.7585 -2.4973 0.9741
-4.4071 -4.1682 -2.4979 0.9741
-4.0197 -4.5451 -2.4985 0.9741
-3.6002 -4.8862 -2.4992 0.9741
-3.1519 -5.1887 -2.4999 0.9741
-2.6784 -5.4503 -2.5007 0.9741
-2.1833 -5.6688 -2.5015 0.9741
-0.6086 -6.0499 -2.5038 0.9740
0.4740 -6.0657 -2.5053 0.9740
1.0123 -6.0012 -2.5061 0.9740
2.5639 -5.5251 -2.5082 0.9740
3.5046 -4.9854 -2.5094 0.9740
3.9352 -4.6546 -2.5099 0.9740
4.6998 -3.8845 -2.5108 0.9740
5.0276 -3.4513 -2.5111 0.9740
5.5610 -2.5057 -2.5116 0.9740
5.7623 -2.0009 -2.5118 0.9740
5.9177 -1.4801 -2.5119 0.9740
6.0260 -0.9475 -2.5119 0.9740
5.9763 1.2147 -2.5112 0.9740
5.8437 1.7416 -2.5109 0.9740
4.5685 3.4453 -2.3562 0.9756
3.8834 4.1987 -2.3551 0.9756
2.6339 5.0711 -2.3530 0.9756
2.1714 5.2838 -2.3523 0.9756
1.1994 5.5816 -2.3509 0.9756
0.6976 5.6644 -2.3501 0.9756
-3.1702 4.7304 -2.3449 0.9757
-3.5779 4.4285 -2.3444 0.9757
-4.1997 4.3424 -2.4876 0.9742
-4.5840 3.9639 -2.4954 0.9741
-5.2128 3.0875 -2.4948 0.9741
-5.4664 2.6111 -2.4946 0.9741
-5.6767 2.1140 -2.4944 0.9741
-5.9613 1.0740 -2.4943 0.9741
-3.9772 0.3554 -1.6443 0.9829
-2.7539 -0.2461 -1.1927 0.9880
-2.7278 -0.4914 -1.1956 0.9880
-2.7300 -1.3040 -1.3050 0.9869
-3.6409 -4.5064 -2.4991 0.9751
-2.3229 -5.3127 -2.5012 0.9751
0.1940 -5.8037 -2.5049 0.9750
0.7100 -5.7651 -2.5056 0.9750
1.2207 -5.6805 -2.5063 0.9750
1.7219 -5.5509 -2.5070 0.9750
2.2097 -5.3770 -2.5076 0.9750
3.9507 -4.2715 -2.5098 0.9750
4.3160 -3.9036 -2.5102 0.9750
4.6469 -3.5045 -2.5106 0.9750
4.9410 -3.0773 -2.5109 0.9750
5.1958 -2.6256 -2.5112 0.9750
5.4093 -2.1528 -2.5113 0.9750
5.5797 -1.6629 -2.5114 0.9750
5.7861 -0.6473 -2.5115 0.9750
5.8206 -0.1297 -2.5114 0.9750
5.8087 0.3888 -2.5112 0.9750
5.4977 1.9090 -2.5104 0.9750
4.8598 2.7341 -2.4053 0.9760
4.5034 3.0914 -2.3562 0.9765
4.2094 3.4792 -2.3557 0.9765
3.8821 3.8391 -2.3551 0.9765
3.5241 4.1684 -2.3545 0.9765
3.1383 4.4643 -2.3539 0.9765
2.2957 4.9472 -2.3526 0.9765
1.8458 5.1304 -2.3519 0.9765
-0.0607 5.4455 -2.3491 0.9766
-0.5449 5.4169 -2.3484 0.9766
-1.4959 5.2316 -2.3471 0.9766
-3.7782 4.2721 -2.4601 0.9755
-4.2039 3.9761 -2.4960 0.9751
-4.5404 3.5856 -2.4956 0.9751
-4.8409 3.1668 -2.4953 0.9751
-5.1031 2.7231 -2.4950 0.9751
-5.3248 2.2579 -2.4948 0.9751
-5.5043 1.7749 -2.4947 0.9751
-3.3811 0.1508 -1.4599 0.9854
-2.8614 -0.1276 -1.2355 0.9876
-2.7200 -0.6162 -1.2030 0.9879
-2.7334 -1.1590 -1.2807 0.9871
-5.1060 -2.7247 -2.4965 0.9751
-4.5439 -3.5883 -2.4975 0.9751
-3.8376 -4.3392 -2.4987 0.9751
-0.0647 -5.8057 -2.5045 0.9750
0.9663 -5.7285 -2.5060 0.9750
1.9677 -5.4694 -2.5073 0.9750
2.4474 -5.2739 -2.5079 0.9750
3.7562 -4.4429 -2.5096 0.9750
4.1374 -4.0916 -2.5100 0.9750
5.0735 -2.8543 -2.5110 0.9750
5.3078 -2.3915 -2.5112 0.9750
5.7516 -0.9044 -2.5115 0.9750
5.8091 -0.3889 -2.5114 0.9750
5.8204 0.1297 -2.5113 0.9750
5.7853 0.6472 -2.5111 0.9750
5.7042 1.1594 -2.5109 0.9750
5.5777 1.6624 -2.5105 0.9750
5.1929 2.6241 -2.5097 0.9750
4.3607 3.2886 -2.3560 0.9765
3.3345 4.3206 -2.3542 0.9765
2.9359 4.5990 -2.3536 0.9765
2.5142 4.8407 -2.3529 0.9765
2.0728 5.0438 -2.3522 0.9765
1.1450 5.3283 -2.3508 0.9765
0.1820 5.4436 -2.3494 0.9766
-1.7272 5.1591 -2.3468 0.9766
-3.4236 4.2375 -2.3499 0.9765
-4.3765 3.7846 -2.4958 0.9751
-4.6953 3.3795 -2.4954 0.9751
-5.2191 2.4929 -2.4949 0.9751
-5.6916 1.0254 -2.4947 0.9751
-2.6546 -0.7271 -1.2419 0.9880
-2.6607 -0.9909 -1.2811 0.9876
-2.6666 -1.2737 -1.3334 0.9871
-2.6867 -1.5913 -1.4090 0.9864
-4.4924 -3.2334 -2.4975 0.9760
-4.1877 -3.6212 -2.4980 0.9760
-3.4809 -4.3084 -2.4992 0.9760
-3.0844 -4.6023 -2.4999 0.9760
-2.2208 -5.0790 -2.5012 0.9760
-1.7604 -5.2580 -2.5019 0.9760
2.1123 -5.1399 -2.5074 0.9759
2.5620 -4.9327 -2.5080 0.9759
2.9915 -4.6861 -2.5086 0.9759
3.3974 -4.4021 -2.5091 0.9759
3.7764 -4.0830 -2.5095 0.9759
4.7229 -2.9414 -2.5106 0.9759
5.1704 -2.0578 -2.5110 0.9759
5.3333 -1.5895 -2.5111 0.9759
5.4537 -1.1085 -2.5111 0.9759
5.5636 -0.1239 -2.5110 0.9759
5.4966 0.8643 -2.5106 0.9759
5.3973 1.3500 -2.5104 0.9759
5.2550 1.8247 -2.5100 0.9759
5.0710 2.2849 -2.5097 0.9759
4.3047 2.9550 -2.3560 0.9773
3.3688 3.9846 -2.3544 0.9774
2.1946 4.7293 -2.3525 0.9774
1.7645 4.9045 -2.3518 0.9774
1.3206 5.0406 -2.3512 0.9774
0.8664 5.1367 -2.3505 0.9774
0.4057 5.1919 -2.3498 0.9774
-0.0580 5.2060 -2.3492 0.9774
-0.5210 5.1787 -2.3485 0.9774
-0.9796 5.1104 -2.3479 0.9774
-2.2932 4.6665 -2.3461 0.9774
-3.0829 4.1842 -2.3451 0.9775
-4.0194 3.8015 -2.4963 0.9760
-4.6285 3.0278 -2.4956 0.9760
-4.8792 2.6036 -2.4954 0.9760
-5.0912 2.1588 -2.4952 0.9760
-3.2609 0.1454 -1.4728 0.9858
-2.6871 -0.3614 -1.2234 0.9882
-2.6574 -0.8569 -1.2599 0.9878
-4.8819 -2.6050 -2.4968 0.9760
-4.6315 -3.0298 -2.4973 0.9760
-4.0227 -3.8046 -2.4983 0.9760
-3.2860 -4.4598 -2.4996 0.9760
-1.9926 -5.1737 -2.5016 0.9760
-1.0443 -5.4481 -2.5030 0.9760
-0.0618 -5.5501 -2.5044 0.9759
0.4325 -5.5351 -2.5051 0.9759
1.4078 -5.3736 -2.5065 0.9759
1.8810 -5.2283 -2.5071 0.9759
3.1976 -4.5486 -2.5088 0.9759
3.5905 -4.2468 -2.5093 0.9759
3.9549 -3.9111 -2.5097 0.9759
4.2879 -3.5440 -2.5101 0.9759
4.5869 -3.1487 -2.5104 0.9759
4.8495 -2.7282 -2.5107 0.9759
5.0735 -2.2860 -2.5109 0.9759
5.2571 -1.8254 -2.5110 0.9759
5.5526 -0.3717 -2.5111 0.9759
5.5634 0.1240 -2.5109 0.9759
5.3315 1.5889 -2.5102 0.9759
4.1684 3.1436 -2.3557 0.9773
3.5434 3.8311 -2.3547 0.9774
2.4035 4.6275 -2.3528 0.9774
1.9815 4.8217 -2.3522 0.9774
1.5440 4.9775 -2.3515 0.9774
1.0946 5.0938 -2.3508 0.9774
0.1740 5.2041 -2.3495 0.9774
-0.7511 5.1497 -2.3482 0.9774
-1.2061 5.0610 -2.3476 0.9774
-1.6514 4.9323 -2.3470 0.9774
-2.0833 4.7646 -2.3464 0.9774
-2.4985 4.5592 -2.3459 0.9774
-2.8938 4.3179 -2.3454 0.9774
-3.3997 4.2078 -2.4409 0.9765
-3.8464 3.9771 -2.4965 0.9760
-4.1844 3.6184 -2.4961 0.9760
-4.4893 3.2312 -2.4958 0.9760
-4.7585 2.8185 -2.4955 0.9760
-4.9901 2.3836 -2.4953 0.9760
-5.4419 0.9804 -2.4950 0.9760
-2.9112 0.0000 -1.3723 0.9872
-2.6212 -0.4722 -1.2555 0.9883
-2.6052 -1.2444 -1.3609 0.9873
-4.3007 -3.0954 -2.4977 0.9768
-4.0089 -3.4667 -2.4983 0.9768
-3.3323 -4.1244 -2.4994 0.9768
-2.1259 -4.8620 -2.5013 0.9768
-1.2308 -5.1646 -2.5027 0.9768
0.6497 -5.2752 -2.5054 0.9768
1.1169 -5.1977 -2.5060 0.9768
2.0218 -4.9197 -2.5072 0.9768
2.4522 -4.7213 -2.5078 0.9767
2.8633 -4.4853 -2.5083 0.9767
3.2518 -4.2134 -2.5088 0.9767
3.6145 -3.9079 -2.5092 0.9767
3.9486 -3.5713 -2.5096 0.9767
4.2513 -3.2061 -2.5100 0.9767
4.7534 -2.4020 -2.5105 0.9767
5.1045 -1.5213 -2.5107 0.9767
5.3141 0.3558 -2.5105 0.9767
4.1691 2.8620 -2.3837 0.9779
3.8514 3.1833 -2.3553 0.9781
2.1007 4.5269 -2.3524 0.9782
1.6890 4.6946 -2.3518 0.9782
1.2641 4.8250 -2.3512 0.9782
0.8294 4.9170 -2.3505 0.9782
0.3884 4.9700 -2.3499 0.9782
-0.9377 4.8921 -2.3480 0.9782
-1.7894 4.6461 -2.3468 0.9782
-2.5837 4.2533 -2.3458 0.9782
-3.0567 4.1486 -2.4290 0.9775
-3.8479 3.6394 -2.4966 0.9769
-4.4311 2.8987 -2.4960 0.9769
-3.1522 0.1406 -1.4873 0.9861
-2.7082 -0.1208 -1.2778 0.9881
-2.6352 -0.3544 -1.2533 0.9883
-2.6131 -0.5921 -1.2630 0.9882
-2.5902 -1.3822 -1.3839 0.9871
-4.4339 -2.9005 -2.4975 0.9768
-3.8509 -3.6422 -2.4985 0.9768
-3.5123 -3.9714 -2.4991 0.9768
-3.1456 -4.2693 -2.4997 0.9768
-2.3400 -4.7618 -2.5010 0.9768
-1.4594 -5.1040 -2.5023 0.9768
-0.9996 -5.2151 -2.5030 0.9768
-0.5317 -5.2848 -2.5037 0.9768
-0.0592 -5.3126 -2.5044 0.9768
0.4140 -5.2982 -2.5051 0.9768
0.8842 -5.2417 -2.5057 0.9768
1.3475 -5.1435 -2.5063 0.9768
1.8004 -5.0043 -2.5070 0.9768
2.2392 -4.8254 -2.5075 0.9768
2.6604 -4.6079 -2.5081 0.9767
3.0605 -4.3537 -2.5086 0.9767
3.4365 -4.0647 -2.5090 0.9767
3.7853 -3.7433 -2.5094 0.9767
4.1040 -3.3921 -2.5098 0.9767
4.6415 -2.6112 -2.5104 0.9767
4.8558 -2.1879 -2.5106 0.9767
5.1673 -1.2924 -2.5108 0.9767
5.2618 -0.8274 -2.5108 0.9767
5.3248 0.1187 -2.5106 0.9767
5.2185 1.0607 -2.5102 0.9767
5.1028 1.5208 -2.5099 0.9767
4.9465 1.9687 -2.5096 0.9767
4.7509 2.4008 -2.5092 0.9767
4.4761 2.7878 -2.4857 0.9770
3.3916 3.6670 -2.3545 0.9782
3.0510 3.9533 -2.3539 0.9782
1.8967 4.6154 -2.3521 0.9782
1.0478 4.8759 -2.3508 0.9782
0.6095 4.9484 -2.3502 0.9782
-0.2774 4.9754 -2.3489 0.9782
-0.7190 4.9296 -2.3483 0.9782
-1.1546 4.8449 -2.3477 0.9782
-1.9943 4.5612 -2.3466 0.9782
-2.3919 4.3646 -2.3461 0.9782
-3.3293 4.1208 -2.4972 0.9768
-3.6823 3.8074 -2.4968 0.9768
-4.0060 3.4641 -2.4964 0.9769
-4.5556 2.6983 -2.4958 0.9769
-4.9612 1.8476 -2.4955 0.9769
-5.1057 1.3986 -2.4954 0.9769
-5.2099 0.9386 -2.4954 0.9769
-3.7077 0.3313 -1.7547 0.9837
-2.5903 -0.2315 -1.2791 0.9885
-2.5698 -0.4630 -1.2843 0.9884
-2.5457 -1.2160 -1.3876 0.9875
-4.1220 -2.9668 -2.4980 0.9776
-3.8423 -3.3226 -2.4985 0.9776
-3.5321 -3.6522 -2.4990 0.9776
-2.8299 -4.2225 -2.5001 0.9776
-2.0374 -4.6597 -2.5014 0.9776
-1.6150 -4.8238 -2.5020 0.9776
0.1702 -5.0894 -2.5047 0.9776
1.0704 -4.9811 -2.5059 0.9775
1.5098 -4.8672 -2.5065 0.9775
1.9375 -4.7146 -2.5071 0.9775
2.3499 -4.5244 -2.5076 0.9775
3.1161 -4.0376 -2.5086 0.9775
3.4637 -3.7449 -2.5090 0.9775
3.7838 -3.4222 -2.5094 0.9775
4.0739 -3.0722 -2.5097 0.9775
4.5549 -2.3017 -2.5102 0.9775
5.0724 -0.5674 -2.5104 0.9775
5.1026 -0.1137 -2.5103 0.9775
4.8197 1.6736 -2.5095 0.9775
4.6510 2.0957 -2.5091 0.9775
4.4453 2.5009 -2.5087 0.9775
3.6907 3.0505 -2.3551 0.9789
2.3919 4.1429 -2.3529 0.9789
2.0132 4.3383 -2.3523 0.9789
1.6186 4.4991 -2.3517 0.9789
1.2115 4.6241 -2.3511 0.9789
0.3722 4.7631 -2.3499 0.9789
-0.4780 4.7512 -2.3487 0.9789
-0.8987 4.6887 -2.3481 0.9789
-2.1041 4.2817 -2.3465 0.9790
-2.4763 4.0766 -2.3460 0.9790
-3.0122 4.0882 -2.4977 0.9776
-3.6881 3.4883 -2.4969 0.9776
-4.4772 2.3891 -2.4960 0.9776
-4.6717 1.9810 -2.4959 0.9776
-4.8293 1.5573 -2.4957 0.9776
-5.0288 0.6763 -2.4957 0.9776
-3.0630 0.1366 -1.5081 0.9864
-2.6467 -0.1180 -1.3031 0.9883
-2.5845 -0.3476 -1.2826 0.9884
-2.5616 -0.5804 -1.2919 0.9884
-2.5430 -0.8200 -1.3142 0.9882
-4.2497 -2.7800 -2.4977 0.9776
-3.9861 -3.1478 -2.4982 0.9776
-3.6909 -3.4908 -2.4987 0.9776
-3.0148 -4.0917 -2.4998 0.9776
-2.6393 -4.3449 -2.5004 0.9776
-2.2427 -4.5637 -2.5011 0.9776
-1.8280 -4.7464 -2.5017 0.9776
-0.9580 -4.9979 -2.5030 0.9776
-0.0567 -5.0913 -2.5043 0.9776
0.3968 -5.0774 -2.5050 0.9776
0.8473 -5.0232 -2.5056 0.9775
1.7253 -4.7957 -2.5068 0.9775
2.1458 -4.6241 -2.5073 0.9775
2.9329 -4.1720 -2.5083 0.9775
3.2931 -3.8951 -2.5088 0.9775
3.6273 -3.5871 -2.5092 0.9775
3.9327 -3.2505 -2.5095 0.9775
4.2069 -2.8879 -2.5098 0.9775
4.8215 -1.6742 -2.5104 0.9775
4.9515 -1.2384 -2.5104 0.9775
5.0926 -0.3409 -2.5104 0.9775
5.1025 0.1137 -2.5103 0.9775
5.0007 1.0164 -2.5099 0.9775
4.8898 1.4573 -2.5096 0.9775
4.7401 1.8865 -2.5093 0.9775
3.5508 3.2115 -2.3548 0.9789
3.2502 3.5140 -2.3543 0.9789
2.9238 3.7885 -2.3538 0.9789
1.8177 4.4231 -2.3520 0.9789
-0.2659 4.7684 -2.3490 0.9789
-0.6891 4.7246 -2.3484 0.9789
-1.1066 4.6434 -2.3478 0.9789
-1.5151 4.5254 -2.3473 0.9790
-1.9115 4.3716 -2.3467 0.9790
-3.1910 3.9496 -2.4974 0.9776
-3.5293 3.6493 -2.4970 0.9776
-3.8396 3.3202 -2.4967 0.9776
-4.1194 2.9649 -2.4964 0.9776
-4.7552 1.7709 -2.4958 0.9776
-4.8938 1.3406 -2.4957 0.9776
-3.6334 0.3247 -1.7942 0.9839
-2.5372 -0.2267 -1.3059 0.9886
-2.5199 -0.4540 -1.3127 0.9886
-2.4994 -0.6846 -1.3286 0.9884
-2.4521 -1.4524 -1.4611 0.9873
-3.6866 -3.1879 -2.4986 0.9783
-3.3889 -3.5041 -2.4992 0.9783
-3.0642 -3.7926 -2.4997 0.9783
-2.3443 -4.2778 -2.5008 0.9783
-1.5495 -4.6280 -2.5021 0.9783
-1.1317 -4.7487 -2.5027 0.9783
-0.2719 -4.8766 -2.5040 0.9783
1.0269 -4.7786 -2.5058 0.9783
1.8587 -4.5229 -2.5069 0.9783
2.9893 -3.8733 -2.5083 0.9782
3.3227 -3.5925 -2.5087 0.9782
3.9080 -2.9472 -2.5094 0.9782
4.5489 -1.8104 -2.5100 0.9782
4.6922 -1.3984 -2.5101 0.9782
4.7981 -0.9753 -2.5101 0.9782
4.8948 -0.1090 -2.5100 0.9782
4.8360 0.7604 -2.5097 0.9782
4.7487 1.1877 -2.5095 0.9782
4.6236 1.6055 -2.5092 0.9782
4.4617 2.0104 -2.5089 0.9782
4.2644 2.3992 -2.5085 0.9782
4.0333 2.7687 -2.5080 0.9782
3.5880 2.9656 -2.3865 0.9793
1.5529 4.3163 -2.3517 0.9796
0.7626 4.5210 -2.3505 0.9796
0.3571 4.5698 -2.3499 0.9796
-1.2590 4.4029 -2.3477 0.9796
-1.6455 4.2724 -2.3472 0.9796
-2.8901 3.9225 -2.4979 0.9783
-3.2273 3.6491 -2.4975 0.9783
-3.5387 3.3469 -2.4971 0.9783
-3.8221 3.0183 -2.4968 0.9783
-4.0751 2.6658 -2.4965 0.9783
-4.2959 2.2924 -2.4963 0.9784
-4.6338 1.4942 -2.4960 0.9784
-4.8252 0.6489 -2.4960 0.9784
-2.9775 0.1328 -1.5280 0.9867
-2.5877 -0.1154 -1.3280 0.9884
-2.4879 -1.0550 -1.3854 0.9879
-2.4717 -1.3189 -1.4363 0.9875
-3.2298 -3.6520 -2.4994 0.9783
-2.8926 -3.9258 -2.5000 0.9783
-2.1517 -4.3785 -2.5012 0.9783
-1.7539 -4.5538 -2.5018 0.9783
-0.0544 -4.8845 -2.5043 0.9783
1.2389 -4.7287 -2.5061 0.9783
1.6552 -4.6007 -2.5066 0.9783
2.4457 -4.2361 -2.5077 0.9783
2.8135 -4.0023 -2.5081 0.9782
3.4797 -3.4411 -2.5089 0.9782
4.0357 -2.7703 -2.5095 0.9782
4.8852 -0.3270 -2.5101 0.9782
4.8653 0.5443 -2.5098 0.9782
4.5472 1.8097 -2.5090 0.9782
4.3674 2.2070 -2.5087 0.9782
4.1530 2.5865 -2.5083 0.9782
3.8492 2.9028 -2.4716 0.9786
3.4064 3.0809 -2.3547 0.9796
2.8049 3.6345 -2.3537 0.9796
2.4698 3.8688 -2.3531 0.9796
2.1151 4.0723 -2.3526 0.9796
1.7438 4.2434 -2.3520 0.9796
0.5604 4.5499 -2.3502 0.9796
0.1531 4.5806 -2.3496 0.9796
-0.6611 4.5329 -2.3485 0.9796
-1.0617 4.4551 -2.3479 0.9796
-1.4537 4.3419 -2.3474 0.9796
-2.2030 4.0200 -2.3501 0.9796
-2.7128 4.0478 -2.4981 0.9783
-3.0618 3.7896 -2.4977 0.9783
-3.3864 3.5015 -2.4973 0.9783
-3.6841 3.1858 -2.4969 0.9783
-3.9525 2.8449 -2.4966 0.9783
-4.5627 1.6992 -2.4961 0.9784
-3.5463 0.3169 -1.8253 0.9841
-2.6714 0.0000 -1.4261 0.9880
-2.4853 -0.2221 -1.3321 0.9887
-2.4716 -0.4453 -1.3407 0.9887
-2.4501 -0.6712 -1.3561 0.9885
-2.4292 -1.1603 -1.4371 0.9879
-2.6076 -3.8907 -2.5004 0.9790
-0.6767 -4.6401 -2.5033 0.9790
-0.2611 -4.6831 -2.5039 0.9790
0.9861 -4.5889 -2.5057 0.9789
1.3909 -4.4839 -2.5062 0.9789
1.7849 -4.3432 -2.5068 0.9789
2.1648 -4.1679 -2.5072 0.9789
2.8705 -3.7194 -2.5081 0.9789
3.4855 -3.1524 -2.5089 0.9789
4.1957 -2.1202 -2.5096 0.9789
4.3680 -1.7384 -2.5097 0.9789
4.5056 -1.3428 -2.5098 0.9789
4.6723 -0.5227 -2.5098 0.9789
4.7002 -0.1047 -2.5098 0.9789
4.6906 0.3140 -2.5096 0.9789
4.5599 1.1405 -2.5092 0.9789
4.4398 1.5417 -2.5090 0.9789
3.8730 2.6587 -2.5079 0.9789
2.5351 3.6063 -2.3533 0.9802
2.2036 3.8168 -2.3528 0.9802
0.3429 4.3886 -2.3500 0.9802
-0.4404 4.3778 -2.3488 0.9802
-0.8281 4.3202 -2.3483 0.9803
-1.5803 4.1031 -2.3473 0.9803
-1.9488 3.9658 -2.3589 0.9802
-2.4298 4.0001 -2.4985 0.9790
-2.7757 3.7673 -2.4981 0.9790
-3.0995 3.5047 -2.4977 0.9790
-4.3052 1.8256 -2.4964 0.9790
-4.5604 1.0332 -2.4963 0.9790
-2.8952 0.1291 -1.5471 0.9869
-2.5303 -0.1128 -1.3521 0.9886
-2.4621 -0.5578 -1.3477 0.9886
-2.4322 -1.5911 -1.5516 0.9869
-3.1019 -3.5073 -2.4996 0.9790
-2.7780 -3.7703 -2.5001 0.9790
-1.6843 -4.3733 -2.5018 0.9790
-1.2887 -4.5069 -2.5024 0.9790
-0.8827 -4.6048 -2.5030 0.9790
-0.4694 -4.6662 -2.5036 0.9790
-0.0523 -4.6906 -2.5042 0.9790
0.3655 -4.6778 -2.5048 0.9789
1.5895 -4.4179 -2.5065 0.9789
3.0336 -3.5881 -2.5083 0.9789
3.3414 -3.3044 -2.5087 0.9789
3.6227 -2.9942 -2.5090 0.9789
3.8752 -2.6602 -2.5093 0.9789
4.0970 -2.3049 -2.5095 0.9789
4.2861 -1.9312 -2.5097 0.9789
4.5610 -1.1408 -2.5099 0.9789
4.6444 -0.7303 -2.5099 0.9789
4.6909 -0.3140 -2.5098 0.9789
4.6718 0.5226 -2.5096 0.9789
4.3664 1.7378 -2.5088 0.9789
3.7504 2.8283 -2.5076 0.9789
3.3284 3.0104 -2.3958 0.9799
2.9986 3.2416 -2.3572 0.9802
2.6936 3.4902 -2.3535 0.9802
2.0312 3.9107 -2.3525 0.9802
1.6746 4.0750 -2.3519 0.9802
0.5381 4.3695 -2.3502 0.9802
0.1471 4.3990 -2.3497 0.9802
-0.2450 4.3936 -2.3491 0.9802
-0.6349 4.3533 -2.3486 0.9802
-1.0196 4.2786 -2.3480 0.9803
-2.1880 3.9926 -2.4305 0.9796
-2.6054 3.8875 -2.4983 0.9790
-3.2524 3.3629 -2.4975 0.9790
-3.7962 2.7323 -2.4969 0.9790
-4.0239 2.3834 -2.4967 0.9790
-4.2198 2.0156 -2.4965 0.9790
-4.3822 1.6320 -2.4964 0.9790
-4.5099 1.2354 -2.4963 0.9790
-4.6019 0.8291 -2.4963 0.9790
-3.5314 0.3156 -1.8927 0.9841
-2.4347 -0.2176 -1.3576 0.9889
-2.4018 -0.6579 -1.3831 0.9887
-2.3823 -0.8872 -1.4119 0.9884
-3.4034 -2.9430 -2.4990 0.9796
-2.8288 -3.5012 -2.5000 0.9796
-1.8045 -4.1269 -2.5016 0.9796
-1.4303 -4.2721 -2.5022 0.9796
-1.0446 -4.3834 -2.5027 0.9796
0.5513 -4.4765 -2.5050 0.9796
0.9478 -4.4106 -2.5056 0.9796
2.0806 -4.0059 -2.5071 0.9796
2.4294 -3.8055 -2.5075 0.9796
3.0666 -3.3155 -2.5083 0.9795
3.6067 -2.7199 -2.5089 0.9795
4.0325 -2.0377 -2.5093 0.9795
4.1981 -1.6708 -2.5095 0.9795
4.4280 -0.9000 -2.5096 0.9795
4.4905 -0.5023 -2.5096 0.9795
4.5173 -0.1006 -2.5095 0.9795
4.4631 0.7018 -2.5092 0.9795
4.3825 1.0961 -2.5090 0.9795
4.1177 1.8554 -2.5084 0.9795
3.7224 2.5553 -2.5077 0.9796
2.4367 3.4662 -2.3532 0.9808
0.3296 4.2184 -2.3500 0.9808
-0.0471 4.2300 -2.3494 0.9808
-0.4233 4.2080 -2.3489 0.9808
-1.5191 3.9441 -2.3474 0.9808
-1.9390 3.9459 -2.4418 0.9801
-2.6682 3.6214 -2.4983 0.9796
-3.5288 2.7866 -2.4973 0.9796
-3.7624 2.4613 -2.4970 0.9796
-4.1386 1.7549 -2.4967 0.9796
-4.3839 0.9933 -2.4965 0.9796
-4.4549 0.5991 -2.4965 0.9796
-2.4745 -0.1104 -1.3757 0.9887
-2.4139 -0.5469 -1.3747 0.9887
-2.3870 -0.7697 -1.3929 0.9886
-2.3793 -1.0089 -1.4353 0.9882
-2.2661 -1.4824 -1.5039 0.9877
-3.5309 -2.7883 -2.4988 0.9796
-3.2693 -3.0920 -2.4992 0.9796
-2.9817 -3.3714 -2.4997 0.9796
-1.2387 -4.3321 -2.5024 0.9796
-0.8484 -4.4261 -2.5030 0.9796
-0.0502 -4.5085 -2.5042 0.9796
1.1435 -4.3645 -2.5058 0.9796
1.5277 -4.2463 -2.5064 0.9796
1.8999 -4.0942 -2.5068 0.9796
2.9156 -3.4486 -2.5081 0.9795
3.7245 -2.5567 -2.5090 0.9795
3.9376 -2.2152 -2.5092 0.9795
4.3835 -1.0964 -2.5096 0.9795
4.5172 0.1007 -2.5095 0.9795
4.4900 0.5023 -2.5093 0.9795
4.4272 0.8999 -2.5091 0.9795
4.3291 1.2902 -2.5089 0.9795
1.9523 3.7588 -2.3524 0.9808
1.2543 4.0436 -2.3513 0.9808
0.5173 4.2000 -2.3503 0.9808
-0.6103 4.1846 -2.3487 0.9808
-0.9801 4.1127 -2.3481 0.9808
-1.3420 4.0083 -2.3477 0.9808
-1.7131 3.9180 -2.3749 0.9806
-2.1623 3.9457 -2.4989 0.9796
-2.5045 3.7369 -2.4985 0.9796
