ply
format ascii 1.0
element vertex 1585
property float32 x
property float32 y
property float32 z
property float32 I
end_header
1.4215 -6.6149 0.1687 0.9733
-0.6807 -6.7659 0.1696 0.9732
-0.0720 -6.4644 0.1612 0.9745
0.4983 -6.3764 0.1595 0.9747
1.8017 -6.8768 0.1773 0.9720
-1.0442 -7.1598 0.0601 0.9715
-0.6839 -6.7978 0.0568 0.9730
-1.0548 -7.2322 -0.0607 0.9712
0.2159 -6.4560 -0.0537 0.9745
0.7949 -6.4545 -0.0540 0.9743
-0.6889 -6.8474 -0.0572 0.9728
-0.0727 -6.5224 -0.0542 0.9742
0.5026 -6.4315 -0.0536 0.9745
1.8277 -6.9762 -0.0599 0.9716
-1.0656 -7.3061 -0.1841 0.9709
-0.3726 -6.6821 -0.1669 0.9736
1.4461 -6.7297 -0.1717 0.9728
-0.0730 -6.5572 -0.1635 0.9741
1.1084 -6.5713 -0.1662 0.9737
-1.0854 -7.4422 -0.3127 0.9703
0.8035 -6.5237 -0.2733 0.9740
-0.7000 -6.9578 -0.2908 0.9724
0.5079 -6.4994 -0.2711 0.9742
-1.1187 -7.6704 -0.4515 0.9694
0.2201 -6.5836 -0.3837 0.9740
0.8111 -6.5860 -0.3865 0.9738
-0.7094 -7.0512 -0.4128 0.9720
1.1267 -6.6793 -0.3945 0.9732
-0.3834 -6.8755 -0.5160 0.9728
0.2222 -6.6447 -0.4982 0.9737
-0.0749 -6.7240 -0.5039 0.9734
0.5174 -6.6211 -0.4977 0.9737
0.8281 -6.7239 -0.6211 0.9732
1.5270 -7.1062 -0.6663 0.9712
-0.3955 -7.0937 -0.7706 0.9718
0.2277 -6.8103 -0.7391 0.9730
-0.7575 -7.5302 -0.8209 0.9700
1.1764 -6.9745 -0.7672 0.9719
0.8559 -6.9492 -0.8774 0.9722
1.6678 -7.7612 -0.9948 0.9685
0.5386 -6.8929 -0.8664 0.9725
-10.9003 7.8455 -1.6830 0.9473
0.2362 -7.0654 -1.0055 0.9718
0.8770 -7.1209 -1.0205 0.9714
-0.0802 -7.2018 -1.0244 0.9713
1.2434 -7.3714 -1.0633 0.9702
0.9043 -7.3426 -1.1780 0.9705
14.5502 2.2879 -2.3454 0.9421
12.0618 4.1883 -2.0332 0.9496
13.4292 6.0510 -2.3455 0.9421
10.4739 10.3579 -2.3456 0.9421
9.5107 11.2493 -2.3457 0.9421
3.7338 14.2517 -2.3460 0.9421
2.4505 14.5278 -2.3460 0.9421
1.1478 14.6887 -2.3461 0.9421
-0.1641 14.7330 -2.3462 0.9421
-2.7739 14.4712 -2.3463 0.9421
-4.0510 14.1672 -2.3463 0.9421
-5.2960 13.7507 -2.3464 0.9421
-8.7413 11.8637 -2.3466 0.9421
-10.7066 10.1262 -2.3466 0.9421
-13.0020 6.9381 -2.3467 0.9421
0.5647 -7.2267 -1.1543 0.9711
14.6376 1.6375 -2.3454 0.9421
13.6853 5.4466 -2.3455 0.9421
11.7607 8.8692 -2.3456 0.9421
7.9267 12.4170 -2.3458 0.9421
4.3649 14.0710 -2.3459 0.9421
3.0952 14.4041 -2.3460 0.9421
1.8010 14.6228 -2.3461 0.9421
0.4923 14.7254 -2.3461 0.9421
-2.1265 14.5802 -2.3463 0.9421
-3.4158 14.3334 -2.3463 0.9421
-7.0818 12.9226 -2.3465 0.9421
-8.2040 12.2412 -2.3465 0.9421
-9.2611 11.4627 -2.3466 0.9421
-10.2448 10.5931 -2.3466 0.9421
-11.1472 9.6393 -2.3466 0.9421
-10.7729 7.7538 -2.1136 0.9477
-13.2982 6.3520 -2.3467 0.9421
-14.1733 0.0000 -2.4991 0.9441
-14.1169 -1.2615 -2.4991 0.9441
-12.7886 -6.1086 -2.4990 0.9441
-12.1940 -7.2225 -2.4990 0.9441
-10.7198 -9.2698 -2.4989 0.9441
-9.8521 -10.1869 -2.4989 0.9441
-7.8894 -11.7719 -2.4988 0.9441
-4.4987 -13.4371 -2.4986 0.9441
-2.0449 -14.0211 -2.4985 0.9441
-0.7888 -14.1472 -2.4984 0.9441
1.7319 -14.0622 -2.4983 0.9441
4.1976 -13.5317 -2.4982 0.9441
5.3852 -13.1041 -2.4981 0.9441
6.5300 -12.5725 -2.4981 0.9441
8.6554 -11.2152 -2.4980 0.9441
10.5065 -9.5026 -2.4979 0.9441
12.0246 -7.4889 -2.4978 0.9441
12.6433 -6.3889 -2.4978 0.9441
13.1617 -5.2382 -2.4978 0.9441
13.5756 -4.0460 -2.4978 0.9441
13.8818 -2.8216 -2.4978 0.9441
14.0779 -1.5748 -2.4978 0.9441
14.1622 -0.3156 -2.4978 0.9441
12.9043 3.2276 -2.3455 0.9474
12.0129 4.1713 -2.2423 0.9497
11.5935 6.5224 -2.3456 0.9474
10.9672 7.5286 -2.3456 0.9474
8.5890 10.1591 -2.3457 0.9474
6.6519 11.5215 -2.3458 0.9474
3.3719 12.8704 -2.3460 0.9474
2.2130 13.1197 -2.3460 0.9474
1.0365 13.2650 -2.3461 0.9474
-0.1482 13.3049 -2.3462 0.9474
-1.3319 13.2392 -2.3462 0.9474
-3.6583 12.7939 -2.3463 0.9474
-5.8690 11.9430 -2.3464 0.9474
-10.4443 8.2478 -2.3466 0.9474
-11.1371 7.2855 -2.3466 0.9474
-11.7414 6.2654 -2.3467 0.9474
-13.8229 3.1319 -2.4991 0.9441
-14.0467 -1.8891 -2.4991 0.9441
-13.8227 -3.1318 -2.4991 0.9441
-13.0481 -5.5329 -2.4990 0.9441
-12.5037 -6.6722 -2.4990 0.9441
-11.1223 -8.7832 -2.4989 0.9441
-10.2962 -9.7381 -2.4989 0.9441
-9.3884 -10.6156 -2.4988 0.9441
-0.1578 -14.1681 -2.4984 0.9441
3.5907 -13.7054 -2.4982 0.9441
4.7962 -13.3312 -2.4981 0.9441
7.0836 -12.2691 -2.4980 0.9441
10.0728 -9.9612 -2.4979 0.9441
10.9193 -9.0250 -2.4979 0.9441
11.6791 -8.0172 -2.4979 0.9441
12.3462 -6.9459 -2.4978 0.9441
12.9153 -5.8194 -2.4978 0.9441
13.7424 -3.4372 -2.4978 0.9441
12.3592 4.9189 -2.3455 0.9474
10.6210 8.0097 -2.3456 0.9474
9.0329 9.7663 -2.3457 0.9474
8.1280 10.5317 -2.3457 0.9474
7.1585 11.2136 -2.3458 0.9474
6.1321 11.8065 -2.3459 0.9474
5.0571 12.3057 -2.3459 0.9474
2.7952 13.0080 -2.3460 0.9474
1.6264 13.2055 -2.3461 0.9474
0.4446 13.2981 -2.3461 0.9474
-3.0847 12.9440 -2.3463 0.9474
-4.2246 12.6184 -2.3463 0.9474
-5.3311 12.1925 -2.3464 0.9474
-6.3952 11.6699 -2.3464 0.9474
-7.4087 11.0546 -2.3465 0.9474
-12.0850 5.7726 -2.3615 0.9471
-13.2821 4.9463 -2.4991 0.9441
-13.6697 3.7445 -2.4991 0.9441
-14.1170 1.2615 -2.4991 0.9441
-12.9139 0.0000 -2.4991 0.9487
-12.8626 -1.1494 -2.4991 0.9487
-12.1016 -4.5067 -2.4990 0.9487
-11.6523 -5.5658 -2.4990 0.9487
-8.9767 -9.2819 -2.4988 0.9488
-8.1148 -10.0438 -2.4988 0.9488
-7.1885 -10.7260 -2.4987 0.9488
-6.2052 -11.3230 -2.4987 0.9488
-1.8633 -12.7756 -2.4985 0.9488
4.9069 -11.9402 -2.4981 0.9488
6.9459 -10.8806 -2.4981 0.9488
7.8867 -10.2191 -2.4980 0.9488
9.5733 -8.6586 -2.4980 0.9488
10.9566 -6.8238 -2.4979 0.9488
11.9928 -4.7730 -2.4979 0.9488
12.3699 -3.6866 -2.4979 0.9488
11.9733 1.8827 -2.3455 0.9518
11.7583 2.9409 -2.3455 0.9518
11.4499 3.9759 -2.3455 0.9518
7.8261 9.2567 -2.3458 0.9518
6.9712 9.9167 -2.3458 0.9518
6.0611 10.4981 -2.3458 0.9518
5.1027 10.9961 -2.3459 0.9518
3.0724 11.7271 -2.3460 0.9518
2.0164 11.9543 -2.3460 0.9518
0.9445 12.0866 -2.3461 0.9518
-2.2825 11.9074 -2.3462 0.9518
-4.3577 11.3145 -2.3463 0.9518
-6.2950 10.3630 -2.3464 0.9518
-7.1925 9.7617 -2.3465 0.9518
-8.0329 9.0830 -2.3465 0.9518
-11.8891 5.0414 -2.4991 0.9487
-12.5947 2.8536 -2.4991 0.9487
-12.9010 -0.5753 -2.4991 0.9487
-12.7986 -1.7212 -2.4990 0.9487
-12.5945 -2.8535 -2.4990 0.9487
-12.2904 -3.9631 -2.4990 0.9487
-10.8063 -7.0691 -2.4989 0.9487
-10.1341 -8.0028 -2.4989 0.9487
-9.3814 -8.8729 -2.4988 0.9488
-8.5543 -9.6725 -2.4988 0.9488
-5.6946 -11.5881 -2.4986 0.9488
-4.6405 -12.0487 -2.4986 0.9488
-0.1438 -12.9095 -2.4984 0.9488
1.0057 -12.8708 -2.4983 0.9488
3.2717 -12.4881 -2.4982 0.9488
5.4339 -11.7097 -2.4981 0.9488
6.4544 -11.1793 -2.4981 0.9488
7.4237 -10.5603 -2.4980 0.9488
8.3340 -9.8575 -2.4980 0.9488
9.1782 -9.0765 -2.4980 0.9488
10.6418 -7.3052 -2.4979 0.9488
11.7683 -5.3025 -2.4979 0.9488
12.1934 -4.2340 -2.4979 0.9488
12.5219 -3.1319 -2.4979 0.9488
12.7509 -2.0050 -2.4978 0.9488
12.8788 -0.8621 -2.4978 0.9488
11.6156 3.4618 -2.3455 0.9518
10.8180 5.4666 -2.3456 0.9518
10.2887 6.4079 -2.3456 0.9518
7.4060 9.5962 -2.3458 0.9518
3.5917 11.5785 -2.3460 0.9518
-0.6750 12.1050 -2.3462 0.9518
-1.7497 11.9971 -2.3462 0.9518
-3.8493 11.4973 -2.3463 0.9518
-4.8574 11.1093 -2.3464 0.9518
-5.8270 10.6330 -2.3464 0.9518
-7.6203 9.4317 -2.3465 0.9518
-9.8417 7.0836 -2.3466 0.9518
-10.4332 6.1796 -2.3466 0.9518
-12.1019 4.5068 -2.4991 0.9487
-12.4550 3.4118 -2.4991 0.9487
-12.7093 2.2897 -2.4991 0.9487
-11.8538 0.0000 -2.4990 0.9527
-11.8067 -1.0551 -2.4990 0.9527
-10.6958 -5.1090 -2.4989 0.9527
-10.1985 -6.0406 -2.4989 0.9527
-9.6203 -6.9243 -2.4989 0.9527
-8.9657 -7.7529 -2.4988 0.9527
-7.4488 -9.2195 -2.4987 0.9527
-5.6959 -10.3937 -2.4987 0.9527
-4.7481 -10.8592 -2.4986 0.9527
-3.7627 -11.2385 -2.4986 0.9527
-0.6598 -11.8325 -2.4984 0.9527
0.3960 -11.8441 -2.4984 0.9527
1.4486 -11.7616 -2.4983 0.9527
3.5109 -11.3180 -2.4982 0.9527
7.2395 -9.3805 -2.4981 0.9527
8.0456 -8.6988 -2.4980 0.9527
8.7878 -7.9481 -2.4980 0.9527
10.0576 -6.2639 -2.4979 0.9527
11.7751 -1.3172 -2.4979 0.9527
11.8221 0.7914 -2.4979 0.9527
10.5104 3.6496 -2.3456 0.9555
10.1440 4.5707 -2.3456 0.9555
9.1731 6.2970 -2.3457 0.9555
8.5763 7.0885 -2.3457 0.9555
7.9115 7.8239 -2.3457 0.9555
6.3992 9.1030 -2.3458 0.9555
5.5637 9.6366 -2.3459 0.9555
4.6840 10.0937 -2.3459 0.9555
3.7671 10.4707 -2.3460 0.9555
0.8669 11.0946 -2.3461 0.9555
-0.1240 11.1280 -2.3461 0.9555
-1.1140 11.0730 -2.3462 0.9555
-3.0597 10.7004 -2.3463 0.9555
-4.0000 10.3858 -2.3463 0.9555
-4.9086 9.9888 -2.3464 0.9555
-6.6021 8.9604 -2.3464 0.9555
-7.3735 8.3374 -2.3465 0.9555
-8.0864 7.6481 -2.3465 0.9555
-8.7352 6.8981 -2.3465 0.9555
-9.3145 6.0933 -2.3465 0.9555
-10.1363 5.4089 -2.4221 0.9541
-10.9132 4.6276 -2.4990 0.9527
-11.2818 3.6379 -2.4990 0.9527
-11.5608 2.6193 -2.4990 0.9527
-11.7481 1.5800 -2.4990 0.9527
-11.7480 -1.5800 -2.4990 0.9527
-11.5606 -2.6193 -2.4990 0.9527
-10.9129 -4.6274 -2.4989 0.9527
-10.4576 -5.5803 -2.4989 0.9527
-8.6114 -8.1446 -2.4988 0.9527
-7.8521 -8.8785 -2.4988 0.9527
-7.0306 -9.5420 -2.4987 0.9527
-4.2596 -11.0598 -2.4986 0.9527
0.9232 -11.8146 -2.4983 0.9527
5.9248 -10.2620 -2.4981 0.9527
7.6502 -9.0486 -2.4980 0.9527
8.4251 -8.3317 -2.4980 0.9527
10.3266 -5.8096 -2.4979 0.9527
10.8027 -4.8674 -2.4979 0.9527
11.4944 -2.8749 -2.4979 0.9527
11.8456 0.2640 -2.4979 0.9527
10.9030 2.2161 -2.3456 0.9555
9.9304 5.0180 -2.3456 0.9555
8.8835 6.6994 -2.3457 0.9555
7.5552 8.1686 -2.3458 0.9555
6.7983 8.8088 -2.3458 0.9555
5.9874 9.3791 -2.3458 0.9555
5.1289 9.8749 -2.3459 0.9555
4.2297 10.2924 -2.3459 0.9555
0.3719 11.1223 -2.3461 0.9555
-5.3488 9.7603 -2.3464 0.9555
-7.7377 8.0007 -2.3465 0.9555
-8.4192 7.2804 -2.3465 0.9555
-9.0338 6.5022 -2.3465 0.9555
-9.5768 5.6723 -2.3465 0.9555
-10.6961 5.1091 -2.4990 0.9527
-11.8068 1.0551 -2.4990 0.9527
-10.9487 0.0000 -2.4990 0.9561
-10.9052 -0.9745 -2.4990 0.9561
-10.7752 -1.9412 -2.4990 0.9561
-10.5596 -2.8926 -2.4989 0.9561
-9.4199 -5.5794 -2.4989 0.9561
-8.8858 -6.3956 -2.4988 0.9561
-8.2812 -7.1610 -2.4988 0.9561
-6.8801 -8.5156 -2.4987 0.9561
-6.0947 -9.0940 -2.4987 0.9561
-5.2611 -9.6002 -2.4986 0.9561
-4.3856 -10.0302 -2.4986 0.9561
-2.5377 -10.6484 -2.4985 0.9561
-1.5798 -10.8319 -2.4985 0.9561
0.3658 -10.9399 -2.4984 0.9561
2.2996 -10.7014 -2.4983 0.9561
3.2429 -10.4541 -2.4982 0.9561
4.1604 -10.1237 -2.4982 0.9561
5.0449 -9.7131 -2.4982 0.9561
5.8893 -9.2254 -2.4981 0.9561
6.6870 -8.6645 -2.4981 0.9561
8.7382 -6.5898 -2.4980 0.9561
9.2900 -5.7858 -2.4980 0.9561
9.7680 -4.9360 -2.4980 0.9561
10.4883 -3.1258 -2.4979 0.9561
9.9697 2.4936 -2.3456 0.9587
9.7082 3.3711 -2.3456 0.9587
9.3698 4.2218 -2.3456 0.9587
7.3076 7.2267 -2.3458 0.9587
6.6355 7.8485 -2.3458 0.9587
5.9107 8.4081 -2.3458 0.9587
3.4795 9.6715 -2.3460 0.9587
2.6049 9.9429 -2.3460 0.9587
0.8008 10.2476 -2.3461 0.9587
-1.0289 10.2277 -2.3462 0.9587
-3.6946 9.5929 -2.3463 0.9587
-4.5339 9.2262 -2.3463 0.9587
-5.3371 8.7861 -2.3464 0.9587
-6.8106 7.7008 -2.3464 0.9587
-10.0799 4.2743 -2.4990 0.9561
-10.6781 2.4194 -2.4990 0.9561
-10.8511 1.4593 -2.4990 0.9561
-10.8510 -1.4593 -2.4990 0.9561
-10.0797 -4.2741 -2.4989 0.9561
-9.6591 -5.1543 -2.4989 0.9561
-9.1619 -5.9935 -2.4988 0.9561
-8.5920 -6.7850 -2.4988 0.9561
-7.9539 -7.5227 -2.4988 0.9561
-4.8281 -9.8249 -2.4986 0.9561
-0.1219 -10.9455 -2.4984 0.9561
1.8206 -10.7933 -2.4983 0.9561
3.7053 -10.2991 -2.4982 0.9561
5.4725 -9.4787 -2.4981 0.9561
6.2944 -8.9539 -2.4981 0.9561
7.0663 -8.3580 -2.4981 0.9561
7.7820 -7.6958 -2.4980 0.9561
9.0231 -6.1939 -2.4980 0.9561
10.6172 -2.6555 -2.4979 0.9561
10.0708 2.0470 -2.3456 0.9587
9.8487 2.9353 -2.3456 0.9587
9.1724 4.6350 -2.3457 0.9587
8.2055 6.1881 -2.3457 0.9587
6.2794 8.1364 -2.3458 0.9587
4.7374 9.1211 -2.3459 0.9587
3.9069 9.5068 -2.3459 0.9587
3.0452 9.8169 -2.3460 0.9587
2.1594 10.0492 -2.3460 0.9587
1.2565 10.2017 -2.3461 0.9587
0.3435 10.2733 -2.3461 0.9587
-0.5723 10.2633 -2.3462 0.9587
-2.3830 9.9995 -2.3462 0.9587
-4.9404 9.0151 -2.3464 0.9587
-5.7233 8.5397 -2.3464 0.9587
-7.1469 7.3898 -2.3464 0.9587
-8.3441 6.0057 -2.3465 0.9587
-8.8456 5.2392 -2.3465 0.9587
-9.8794 4.7190 -2.4990 0.9561
-10.2603 3.8210 -2.4990 0.9561
-10.5597 2.8926 -2.4990 0.9561
-10.7753 1.9412 -2.4990 0.9561
-10.1262 -0.9049 -2.4989 0.9590
-10.0054 -1.8025 -2.4989 0.9590
-9.5271 -3.5479 -2.4989 0.9590
-9.1735 -4.3818 -2.4989 0.9590
-8.7470 -5.1808 -2.4988 0.9590
-7.0672 -7.3074 -2.4987 0.9590
-6.3886 -7.9073 -2.4987 0.9590
-4.0724 -9.3137 -2.4986 0.9590
-3.2272 -9.6391 -2.4985 0.9590
-2.3564 -9.8879 -2.4985 0.9590
-0.5659 -10.1487 -2.4984 0.9590
1.2424 -10.0879 -2.4983 0.9590
2.1354 -9.9371 -2.4983 0.9590
3.0113 -9.7074 -2.4983 0.9590
5.4687 -8.5666 -2.4981 0.9590
6.9008 -7.4611 -2.4981 0.9590
7.5374 -6.8171 -2.4981 0.9590
8.6265 -5.3727 -2.4980 0.9590
9.0705 -4.5835 -2.4980 0.9590
10.1601 -0.2264 -2.4980 0.9590
10.1400 0.6788 -2.4980 0.9590
9.2577 2.3155 -2.3456 0.9615
7.8678 5.4010 -2.3457 0.9615
6.7857 6.7106 -2.3458 0.9615
5.4886 7.8076 -2.3459 0.9615
4.7720 8.2653 -2.3459 0.9615
3.2310 8.9807 -2.3460 0.9614
2.4189 9.2328 -2.3460 0.9614
1.5875 9.4116 -2.3460 0.9614
-0.1063 9.5443 -2.3461 0.9614
-0.9554 9.4971 -2.3462 0.9614
-1.7969 9.3746 -2.3462 0.9614
-5.6624 7.6851 -2.3464 0.9614
-6.3241 7.1507 -2.3464 0.9614
-6.9355 6.5595 -2.3464 0.9614
-9.3598 3.9689 -2.4989 0.9590
-9.6759 3.1201 -2.4989 0.9590
-9.9153 2.2465 -2.4989 0.9590
-10.0759 1.3551 -2.4989 0.9590
-10.1565 0.4529 -2.4989 0.9590
-10.0758 -1.3551 -2.4989 0.9590
-9.9151 -2.2465 -2.4989 0.9590
-9.3596 -3.9688 -2.4989 0.9590
-8.9691 -4.7861 -2.4988 0.9590
-8.5074 -5.5653 -2.4988 0.9590
-2.7946 -9.7732 -2.4985 0.9590
-1.9136 -9.9830 -2.4985 0.9590
-1.0174 -10.1135 -2.4984 0.9590
-0.1132 -10.1637 -2.4984 0.9590
0.7918 -10.1333 -2.4984 0.9590
1.6906 -10.0224 -2.4983 0.9590
2.5759 -9.8320 -2.4983 0.9590
3.4407 -9.5636 -2.4982 0.9590
4.2782 -9.2192 -2.4982 0.9590
5.0817 -8.8018 -2.4982 0.9590
7.8336 -6.4746 -2.4980 0.9590
8.8573 -4.9830 -2.4980 0.9590
10.1400 -0.6787 -2.4980 0.9590
10.1602 0.2264 -2.4980 0.9590
10.0997 1.1298 -2.4980 0.9590
6.4801 7.0062 -2.3458 0.9615
5.8309 7.5553 -2.3458 0.9615
4.3991 8.4697 -2.3459 0.9615
3.6278 8.8278 -2.3459 0.9614
2.8277 9.1158 -2.3460 0.9614
1.1667 9.4731 -2.3461 0.9614
0.3189 9.5395 -2.3461 0.9614
-0.5314 9.5302 -2.3461 0.9614
-1.3775 9.4452 -2.3462 0.9614
-3.8242 8.7461 -2.3463 0.9614
-5.3144 7.9297 -2.3464 0.9614
-5.9992 7.4253 -2.3464 0.9614
-6.6363 6.8619 -2.3464 0.9614
-7.2208 6.2441 -2.3464 0.9614
-7.7480 5.5767 -2.3465 0.9614
-9.5273 3.5480 -2.4989 0.9590
-9.8053 2.6859 -2.4989 0.9590
-10.1262 0.9049 -2.4989 0.9590
-9.4835 0.0000 -2.4989 0.9615
-9.4458 -0.8441 -2.4989 0.9615
-9.3332 -1.6814 -2.4989 0.9615
-8.8871 -3.3096 -2.4989 0.9615
-8.5572 -4.0874 -2.4988 0.9615
-8.1593 -4.8328 -2.4988 0.9615
-5.9594 -7.3761 -2.4987 0.9615
-5.2792 -7.8771 -2.4987 0.9615
-4.5571 -8.3156 -2.4986 0.9615
-3.7988 -8.6881 -2.4986 0.9615
-3.0104 -8.9916 -2.4985 0.9615
1.1590 -9.4103 -2.4983 0.9615
2.8090 -9.0554 -2.4983 0.9615
3.6038 -8.7693 -2.4982 0.9615
4.3699 -8.4137 -2.4982 0.9615
5.1014 -7.9912 -2.4982 0.9615
7.0312 -6.3593 -2.4981 0.9615
8.8082 -3.5055 -2.4980 0.9615
9.2902 -1.8883 -2.4980 0.9615
9.4214 -1.0539 -2.4980 0.9615
9.4778 -0.2112 -2.4980 0.9615
9.4590 0.6332 -2.4980 0.9615
14.0506 2.2094 -3.7478 0.9429
13.7982 3.4512 -3.7478 0.9429
7.7586 4.3649 -2.3457 0.9638
6.8619 5.6715 -2.3458 0.9638
5.7478 6.7985 -2.3458 0.9638
3.7476 8.0758 -2.3459 0.9638
3.0140 8.3775 -2.3460 0.9638
2.2564 8.6126 -2.3460 0.9638
0.6936 8.8765 -2.3461 0.9638
-0.0992 8.9032 -2.3461 0.9638
-3.2002 8.3093 -2.3463 0.9638
-4.6229 7.6104 -2.3463 0.9638
-5.2820 7.1688 -2.3464 0.9638
-5.8992 6.6703 -2.3464 0.9638
-6.4695 6.1188 -2.3464 0.9638
-6.9885 5.5187 -2.3464 0.9638
-7.5712 4.9529 -2.3840 0.9633
-9.4741 0.4225 -2.4989 0.9615
-9.4741 -0.4225 -2.4989 0.9615
-9.0257 -2.9104 -2.4989 0.9615
-8.7308 -3.7021 -2.4988 0.9615
-8.3665 -4.4645 -2.4988 0.9615
-7.9359 -5.1914 -2.4988 0.9615
-4.9230 -8.1044 -2.4986 0.9615
-4.1821 -8.5103 -2.4986 0.9615
-0.9491 -9.4341 -2.4984 0.9615
-0.1056 -9.4810 -2.4984 0.9615
1.5770 -9.3492 -2.4983 0.9615
2.4029 -9.1716 -2.4983 0.9615
5.4523 -7.7560 -2.4982 0.9615
7.3074 -6.0397 -2.4981 0.9615
7.8159 -5.3653 -2.4981 0.9615
8.6433 -3.8945 -2.4980 0.9615
9.4214 1.0540 -2.4980 0.9615
13.9382 2.8331 -3.7478 0.9429
8.5312 2.5426 -2.3457 0.9638
7.9453 4.0150 -2.3457 0.9638
6.6025 5.9716 -2.3458 0.9638
5.4392 7.0478 -2.3459 0.9638
1.0883 8.8367 -2.3461 0.9638
-1.2850 8.8107 -2.3462 0.9638
-2.0641 8.6615 -2.3462 0.9638
-6.7357 5.8246 -2.3464 0.9638
-9.1466 2.5055 -2.4989 0.9615
-9.4459 0.8441 -2.4989 0.9615
-3.9277 -0.3510 -1.1095 0.9837
-3.7904 -1.0383 -1.1057 0.9838
-8.0140 -3.8279 -2.4988 0.9638
-7.6414 -4.5261 -2.4988 0.9638
-6.1740 -6.3838 -2.4987 0.9638
-4.9441 -7.3771 -2.4986 0.9638
-3.5577 -8.1366 -2.4986 0.9638
-2.0586 -8.6383 -2.4985 0.9638
-0.4944 -8.8661 -2.4984 0.9638
0.2967 -8.8748 -2.4984 0.9638
1.0854 -8.8130 -2.4983 0.9638
4.0926 -7.8797 -2.4982 0.9638
4.7777 -7.4841 -2.4982 0.9638
6.0288 -6.5183 -2.4981 0.9638
6.5850 -5.9558 -2.4981 0.9638
7.0889 -5.3460 -2.4981 0.9638
8.2493 -3.2831 -2.4981 0.9638
8.5087 -2.5359 -2.4980 0.9638
8.8764 -0.1978 -2.4980 0.9638
8.7709 1.3791 -2.4981 0.9638
7.8758 2.7348 -2.3457 0.9659
7.6012 3.4250 -2.3457 0.9659
7.2663 4.0879 -2.3457 0.9659
6.8737 4.7185 -2.3458 0.9659
6.4265 5.3116 -2.3458 0.9659
5.9283 5.8626 -2.3458 0.9659
5.3830 6.3671 -2.3459 0.9659
4.7950 6.8210 -2.3459 0.9659
3.5098 7.5633 -2.3459 0.9659
2.8227 7.8458 -2.3460 0.9659
2.1132 8.0660 -2.3460 0.9659
-0.0929 8.3381 -2.3461 0.9659
-0.8347 8.2969 -2.3462 0.9659
-1.5698 8.1897 -2.3462 0.9659
-4.3295 7.1274 -2.3463 0.9659
-4.9467 6.7138 -2.3463 0.9659
-5.5247 6.2469 -2.3464 0.9659
-8.1768 3.4673 -2.4989 0.9638
-8.8023 1.1838 -2.4989 0.9638
-8.8727 0.3956 -2.4989 0.9638
-8.4528 -2.7257 -2.4988 0.9638
-8.1766 -3.4672 -2.4988 0.9638
-7.8355 -4.1812 -2.4988 0.9638
-6.9699 -5.5040 -2.4988 0.9638
-6.4523 -6.1025 -2.4987 0.9638
-5.8834 -6.6525 -2.4987 0.9638
-4.6106 -7.5900 -2.4986 0.9638
-3.9167 -7.9701 -2.4986 0.9638
-3.1917 -8.2870 -2.4986 0.9638
-0.8888 -8.8354 -2.4984 0.9638
-0.0989 -8.8793 -2.4984 0.9638
0.6918 -8.8527 -2.4984 0.9638
1.4769 -8.7559 -2.4983 0.9638
3.0059 -8.3551 -2.4983 0.9638
3.7376 -8.0543 -2.4982 0.9638
4.4396 -7.6895 -2.4982 0.9638
5.1063 -7.2638 -2.4982 0.9638
6.8437 -5.6565 -2.4981 0.9638
7.7381 -4.3534 -2.4981 0.9638
8.8764 0.1978 -2.4980 0.9638
13.0538 2.6533 -3.7479 0.9462
7.9898 2.3812 -2.3457 0.9659
7.7462 3.0829 -2.3457 0.9659
6.6567 5.0201 -2.3458 0.9659
6.1835 5.5927 -2.3458 0.9659
5.6613 6.1209 -2.3458 0.9659
1.7518 8.1522 -2.3460 0.9659
-1.9331 8.1118 -2.3462 0.9659
-3.3408 7.6407 -2.3463 0.9659
-4.0077 7.3131 -2.3463 0.9659
-4.6427 6.9275 -2.3463 0.9659
-5.2409 6.4868 -2.3463 0.9659
-7.6416 4.5261 -2.4988 0.9638
-8.0142 3.8280 -2.4989 0.9638
-8.3231 3.0996 -2.4989 0.9638
-8.7408 1.5747 -2.4989 0.9638
-8.8463 0.7905 -2.4989 0.9638
-3.9677 0.0000 -1.1878 0.9836
-3.5918 -0.3210 -1.0796 0.9851
-3.4925 -0.9567 -1.0841 0.9850
-7.8218 -2.9129 -2.4988 0.9657
-7.5315 -3.5975 -2.4988 0.9658
-7.1813 -4.2535 -2.4988 0.9658
-6.7742 -4.8757 -2.4987 0.9658
-5.8022 -5.9995 -2.4987 0.9658
-4.0109 -7.3189 -2.4986 0.9658
-2.6496 -7.9139 -2.4985 0.9658
-1.9347 -8.1182 -2.4985 0.9658
-1.2044 -8.2581 -2.4985 0.9658
-0.4646 -8.3324 -2.4984 0.9658
1.0201 -8.2825 -2.4984 0.9658
1.7532 -8.1587 -2.4983 0.9658
3.8463 -7.4054 -2.4982 0.9658
4.4901 -7.0336 -2.4982 0.9658
6.6622 -5.0242 -2.4981 0.9658
7.4473 -3.7633 -2.4981 0.9658
7.7527 -3.0855 -2.4981 0.9658
8.1769 -1.6620 -2.4981 0.9658
8.3421 -0.1859 -2.4981 0.9658
8.3255 0.5573 -2.4981 0.9658
8.2429 1.2962 -2.4981 0.9658
12.1448 3.0376 -3.7479 0.9491
6.4599 4.4345 -2.3458 0.9678
6.0396 4.9919 -2.3458 0.9678
5.0590 5.9837 -2.3459 0.9678
4.5063 6.4104 -2.3459 0.9678
3.9180 6.7861 -2.3459 0.9678
0.6105 7.8126 -2.3461 0.9678
-0.7844 7.7973 -2.3461 0.9678
-1.4753 7.6967 -2.3462 0.9678
-2.8167 7.3133 -2.3462 0.9678
-4.0688 6.6982 -2.3463 0.9678
-6.1645 4.8681 -2.3516 0.9677
-7.6844 3.2585 -2.4988 0.9657
-4.8506 0.2163 -1.4536 0.9799
-3.6646 -0.1634 -1.0982 0.9848
-3.5144 -0.4727 -1.0616 0.9853
-7.9438 -2.5615 -2.4988 0.9657
-7.6843 -3.2584 -2.4988 0.9657
-6.9847 -4.5691 -2.4988 0.9658
-4.9507 -6.7191 -2.4986 0.9658
-3.6808 -7.4903 -2.4986 0.9658
-1.5711 -8.1963 -2.4985 0.9658
-0.8353 -8.3035 -2.4984 0.9658
-0.0930 -8.3448 -2.4984 0.9658
2.8250 -7.8521 -2.4983 0.9658
4.7989 -6.8265 -2.4982 0.9658
5.3874 -6.3722 -2.4982 0.9658
6.8794 -4.7224 -2.4981 0.9658
7.2723 -4.0913 -2.4981 0.9658
7.8825 -2.7371 -2.4981 0.9658
8.2924 0.9277 -2.4981 0.9658
12.2680 2.4936 -3.7479 0.9491
7.2799 2.8974 -2.3457 0.9678
4.7874 6.2032 -2.3459 0.9678
3.6118 6.9540 -2.3459 0.9678
2.9786 7.2479 -2.3460 0.9678
1.6463 7.6614 -2.3460 0.9678
0.2619 7.8321 -2.3461 0.9678
-2.4881 7.4315 -2.3462 0.9678
-3.1397 7.1807 -2.3463 0.9678
-4.3632 6.5104 -2.3463 0.9678
-6.6288 4.7711 -2.4451 0.9665
-7.1815 4.2536 -2.4988 0.9657
-7.5316 3.5976 -2.4988 0.9657
-8.0502 2.2052 -2.4989 0.9657
-8.3136 0.7429 -2.4989 0.9657
-3.3867 -0.3026 -1.0798 0.9858
-3.2843 -0.5917 -1.0598 0.9861
-3.2540 -0.8914 -1.0715 0.9859
-7.3734 -2.7459 -2.4988 0.9675
-7.0997 -3.3912 -2.4988 0.9675
-6.7696 -4.0097 -2.4988 0.9675
-5.9513 -5.1463 -2.4987 0.9675
-4.9445 -6.1199 -2.4987 0.9675
-4.3801 -6.5356 -2.4986 0.9675
-3.7810 -6.8994 -2.4986 0.9675
-3.1518 -7.2084 -2.4986 0.9675
0.9616 -7.8078 -2.4984 0.9675
1.6527 -7.6911 -2.4983 0.9675
2.3307 -7.5134 -2.4983 0.9675
4.2327 -6.6304 -2.4982 0.9675
4.8060 -6.2273 -2.4982 0.9675
5.8339 -5.2765 -2.4982 0.9675
6.6769 -4.1584 -2.4981 0.9675
7.0205 -3.5476 -2.4981 0.9675
7.5382 -2.2466 -2.4981 0.9675
7.7083 -1.5667 -2.4981 0.9675
7.8484 0.5254 -2.4981 0.9675
7.7705 1.2219 -2.4981 0.9675
11.4488 2.8635 -3.7479 0.9517
6.4375 3.6217 -2.3458 0.9695
6.0896 4.1803 -2.3458 0.9695
5.6935 4.7058 -2.3458 0.9695
4.7690 5.6408 -2.3459 0.9695
3.6934 6.3972 -2.3459 0.9695
2.5007 6.9508 -2.3460 0.9695
1.8721 7.1459 -2.3460 0.9695
1.2287 7.2843 -2.3461 0.9695
-0.0823 7.3869 -2.3461 0.9695
-2.0310 7.1030 -2.3462 0.9695
-3.8356 6.3142 -2.3463 0.9695
-5.3676 5.0767 -2.3463 0.9695
-7.2439 3.0717 -2.4988 0.9675
-7.4885 2.4147 -2.4988 0.9675
-3.4557 -0.1541 -1.0986 0.9856
-3.3189 -0.4463 -1.0635 0.9860
-3.2591 -0.7384 -1.0613 0.9861
-3.2827 -1.0586 -1.0954 0.9856
-6.1747 -4.8761 -2.4987 0.9675
-5.2122 -5.8935 -2.4987 0.9675
-4.6669 -6.3340 -2.4986 0.9675
-3.4698 -7.0609 -2.4986 0.9675
-2.1629 -7.5641 -2.4985 0.9675
-1.4810 -7.7264 -2.4985 0.9675
-0.7875 -7.8275 -2.4984 0.9675
-0.0876 -7.8664 -2.4984 0.9675
0.6129 -7.8429 -2.4984 0.9675
1.3085 -7.7571 -2.4983 0.9675
3.3113 -7.1355 -2.4983 0.9675
3.9332 -6.8124 -2.4982 0.9675
5.5931 -5.5311 -2.4982 0.9675
6.4851 -4.4517 -2.4981 0.9675
6.8555 -3.8569 -2.4981 0.9675
7.6308 -1.9086 -2.4981 0.9675
7.8483 -0.5254 -2.4981 0.9675
7.8640 0.1753 -2.4981 0.9675
6.8627 2.7313 -2.3458 0.9695
6.5924 3.3313 -2.3458 0.9695
6.2698 3.9049 -2.3458 0.9695
5.8974 4.4475 -2.3458 0.9695
0.2468 7.3832 -2.3461 0.9695
-0.4113 7.3760 -2.3461 0.9695
-1.0662 7.3102 -2.3462 0.9695
-1.7126 7.1864 -2.3462 0.9695
-2.3454 7.0055 -2.3462 0.9695
-3.5505 6.4788 -2.3463 0.9695
-4.6430 5.7467 -2.3463 0.9695
-5.1361 5.3107 -2.3463 0.9695
-5.5885 4.8325 -2.3464 0.9695
-6.3860 4.5963 -2.4988 0.9675
-6.7698 4.0097 -2.4988 0.9675
-7.0998 3.3913 -2.4988 0.9675
-7.3735 2.7459 -2.4988 0.9675
-7.5887 2.0787 -2.4988 0.9675
-7.7436 1.3951 -2.4988 0.9675
-7.8370 0.7003 -2.4988 0.9675
-3.2019 -0.2861 -1.0801 0.9865
-3.1349 -0.8587 -1.0921 0.9864
-6.7109 -3.2055 -2.4988 0.9691
-5.6254 -4.8645 -2.4987 0.9691
-5.1701 -5.3458 -2.4987 0.9691
-4.1402 -6.1777 -2.4986 0.9691
-3.5739 -6.5216 -2.4986 0.9691
-1.7239 -7.2338 -2.4985 0.9691
-1.0732 -7.3585 -2.4985 0.9691
0.9090 -7.3802 -2.4984 0.9691
1.5622 -7.2699 -2.4983 0.9691
2.2031 -7.1020 -2.4983 0.9691
4.0010 -6.2674 -2.4982 0.9691
4.5429 -5.8863 -2.4982 0.9691
5.9365 -4.4769 -2.4982 0.9691
6.3114 -3.9307 -2.4981 0.9691
6.9082 -2.7494 -2.4981 0.9691
7.4334 -0.1656 -2.4981 0.9691
7.4187 0.4966 -2.4981 0.9691
7.3450 1.1550 -2.4981 0.9691
10.5381 3.6592 -3.7480 0.9540
6.3655 2.8682 -2.3458 0.9710
5.7562 3.9514 -2.3458 0.9710
5.3817 4.4481 -2.3458 0.9710
4.5079 5.3319 -2.3459 0.9710
4.0155 5.7121 -2.3459 0.9710
2.9391 6.3337 -2.3460 0.9710
-0.0778 6.9824 -2.3461 0.9710
-0.6990 6.9479 -2.3461 0.9710
-1.9198 6.7140 -2.3462 0.9710
-4.6264 5.2312 -2.3463 0.9710
-5.0737 4.7987 -2.3463 0.9710
-5.8367 4.6092 -2.4988 0.9691
-7.2535 1.6434 -2.4988 0.9691
-7.3710 0.9913 -2.4988 0.9691
-4.1559 0.1853 -1.3977 0.9826
-3.2675 -0.1457 -1.0989 0.9863
-3.1639 -0.4255 -1.0726 0.9866
-3.1355 -0.7104 -1.0802 0.9865
-6.5614 -3.5013 -2.4987 0.9691
-6.2237 -4.0713 -2.4987 0.9691
-5.8366 -4.6090 -2.4987 0.9691
-2.6727 -6.9396 -2.4985 0.9691
-2.0444 -7.1499 -2.4985 0.9691
-1.3999 -7.3034 -2.4985 0.9691
-0.7443 -7.3989 -2.4984 0.9691
-0.0828 -7.4356 -2.4984 0.9691
0.5793 -7.4135 -2.4984 0.9691
1.2368 -7.3324 -2.4984 0.9691
3.7178 -6.4394 -2.4982 0.9691
4.8006 -5.6781 -2.4982 0.9691
5.7312 -4.7370 -2.4982 0.9691
7.2131 -1.8041 -2.4981 0.9691
7.3450 -1.1549 -2.4981 0.9691
7.2863 1.4810 -2.4981 0.9691
6.2315 3.1489 -2.3458 0.9710
5.1783 4.6835 -2.3458 0.9710
4.2659 5.5275 -2.3459 0.9710
3.7571 5.8854 -2.3459 0.9710
2.0688 6.6690 -2.3460 0.9710
0.8536 6.9304 -2.3461 0.9710
-0.3888 6.9721 -2.3461 0.9710
-1.0078 6.9099 -2.3462 0.9710
-2.2170 6.6219 -2.3462 0.9710
-2.7976 6.3983 -2.3462 0.9710
-3.3560 6.1240 -2.3463 0.9710
-3.8878 5.8010 -2.3463 0.9710
-6.3990 3.7902 -2.4988 0.9691
-6.7110 3.2056 -2.4988 0.9691
-6.9697 2.5955 -2.4988 0.9691
-3.4902 0.0000 -1.2376 0.9853
-3.0930 -0.2764 -1.1011 0.9869
-3.0442 -0.5484 -1.0968 0.9870
-6.3587 -3.0373 -2.4987 0.9705
-6.0631 -3.5912 -2.4987 0.9705
-5.7194 -4.1166 -2.4987 0.9705
-4.4285 -5.4812 -2.4986 0.9705
-3.9230 -5.8535 -2.4986 0.9705
-3.3864 -6.1794 -2.4986 0.9705
-2.8229 -6.4562 -2.4985 0.9705
-0.3923 -7.0351 -2.4984 0.9705
0.2354 -7.0420 -2.4984 0.9705
0.8613 -6.9930 -2.4984 0.9705
3.2475 -6.2525 -2.4983 0.9705
3.7911 -5.9386 -2.4982 0.9705
4.7839 -5.1723 -2.4982 0.9705
5.2252 -4.7259 -2.4982 0.9705
5.6251 -4.2421 -2.4982 0.9705
5.9803 -3.7245 -2.4982 0.9705
6.2880 -3.1775 -2.4981 0.9705
6.7517 -2.0122 -2.4981 0.9705
6.9040 -1.4033 -2.4981 0.9705
7.0434 -0.1570 -2.4981 0.9705
7.0295 0.4706 -2.4981 0.9705
6.0316 2.7177 -2.3458 0.9723
5.7658 3.2438 -2.3458 0.9723
4.7041 4.6520 -2.3459 0.9723
4.2714 5.0522 -2.3459 0.9723
3.3080 5.7296 -2.3459 0.9723
2.2398 6.2255 -2.3460 0.9723
1.6768 6.4002 -2.3460 0.9723
-1.2456 6.4983 -2.3462 0.9723
-3.4353 5.6553 -2.3463 0.9723
-4.8074 4.5469 -2.3463 0.9723
-5.5304 4.3674 -2.4987 0.9705
-6.2172 3.3176 -2.4988 0.9705
-6.7070 2.1627 -2.4988 0.9705
-6.8729 1.5572 -2.4988 0.9705
-6.9842 0.9393 -2.4988 0.9705
-3.9464 0.1760 -1.4007 0.9834
-3.1623 -0.1410 -1.1224 0.9867
-3.0191 -0.9735 -1.1248 0.9866
-6.4878 -2.7510 -2.4987 0.9705
-5.8971 -3.8577 -2.4987 0.9705
-5.5303 -4.3672 -2.4987 0.9705
-5.1196 -4.8421 -2.4987 0.9705
-4.6683 -5.2785 -2.4986 0.9705
-4.1799 -5.6730 -2.4986 0.9705
-3.6583 -6.0224 -2.4986 0.9705
-2.5325 -6.5755 -2.4985 0.9705
-1.9372 -6.7747 -2.4985 0.9705
-1.3265 -6.9202 -2.4985 0.9705
-0.0785 -7.0456 -2.4984 0.9705
0.5489 -7.0245 -2.4984 0.9705
1.1719 -6.9477 -2.4984 0.9705
1.7856 -6.8157 -2.4983 0.9705
2.3852 -6.6297 -2.4983 0.9705
3.5228 -6.1016 -2.4983 0.9705
4.5487 -5.3802 -2.4982 0.9705
5.0095 -4.9540 -2.4982 0.9705
6.1402 -3.4544 -2.4981 0.9705
6.4233 -2.8942 -2.4981 0.9705
6.8347 -1.7095 -2.4981 0.9705
6.9597 -1.0944 -2.4981 0.9705
7.0295 -0.4706 -2.4981 0.9705
7.0435 0.1570 -2.4981 0.9705
7.0015 0.7833 -2.4981 0.9705
9.8209 3.9087 -3.7480 0.9561
5.6156 3.4974 -2.3458 0.9723
4.9066 4.4378 -2.3459 0.9723
1.9602 6.3191 -2.3460 0.9723
0.2211 6.6127 -2.3461 0.9723
-0.3684 6.6062 -2.3461 0.9723
-0.9549 6.5473 -2.3461 0.9723
-2.6508 6.0626 -2.3462 0.9723
-3.1799 5.8027 -2.3462 0.9723
-4.1585 5.1470 -2.3463 0.9723
-4.6001 4.7565 -2.3463 0.9723
-5.2232 4.5166 -2.4485 0.9711
-7.0191 0.6272 -2.4988 0.9705
-3.3741 0.0000 -1.2599 0.9857
-2.9938 -0.2675 -1.1224 0.9872
-2.9169 -0.7990 -1.1293 0.9872
-6.0381 -2.8842 -2.4987 0.9718
-5.7574 -3.4101 -2.4987 0.9718
-5.4310 -3.9090 -2.4987 0.9718
-3.7252 -5.5584 -2.4986 0.9718
-1.5511 -6.5087 -2.4985 0.9718
-0.3725 -6.6804 -2.4984 0.9718
1.4056 -6.5413 -2.4983 0.9718
3.0838 -5.9373 -2.4983 0.9718
3.6000 -5.6392 -2.4983 0.9718
4.9618 -4.4877 -2.4982 0.9718
5.6788 -3.5368 -2.4982 0.9718
6.2159 -2.4739 -2.4982 0.9718
6.4114 -1.9108 -2.4981 0.9718
6.5560 -1.3326 -2.4981 0.9718
6.6486 -0.7438 -2.4981 0.9718
6.6884 -0.1490 -2.4981 0.9718
6.6751 0.4469 -2.4981 0.9718
6.6089 1.0392 -2.4982 0.9718
9.4819 3.2925 -3.7480 0.9580
9.1513 4.1234 -3.7481 0.9580
4.8423 4.0023 -2.3459 0.9735
4.4669 4.4175 -2.3459 0.9735
3.6130 5.1396 -2.3459 0.9735
3.1412 5.4408 -2.3459 0.9735
2.6445 5.6988 -2.3460 0.9735
2.1269 5.9117 -2.3460 0.9735
1.5923 6.0776 -2.3460 0.9735
1.0450 6.1953 -2.3461 0.9735
0.4895 6.2638 -2.3461 0.9735
-1.1828 6.1707 -2.3462 0.9735
-1.7274 6.0410 -2.3462 0.9735
-2.2582 5.8633 -2.3462 0.9735
-2.7712 5.6391 -2.3462 0.9735
-5.2516 4.1472 -2.4987 0.9718
-5.5999 3.6633 -2.4987 0.9718
-6.1607 2.6124 -2.4988 0.9718
-6.3688 2.0537 -2.4988 0.9718
-6.5263 1.4787 -2.4988 0.9718
-6.6321 0.8919 -2.4988 0.9718
-2.9640 -0.3986 -1.1167 0.9873
-2.9106 -0.9386 -1.1419 0.9870
-5.5998 -3.6632 -2.4987 0.9718
-4.8615 -4.5979 -2.4987 0.9718
-3.4739 -5.7188 -2.4986 0.9718
-2.9511 -6.0052 -2.4986 0.9718
-2.4048 -6.2440 -2.4985 0.9718
-0.0745 -6.6904 -2.4984 0.9718
0.5212 -6.6704 -2.4984 0.9718
1.1129 -6.5974 -2.4984 0.9718
1.6956 -6.4721 -2.4983 0.9718
2.2649 -6.2955 -2.4983 0.9718
3.3452 -5.7940 -2.4983 0.9718
5.1568 -4.2622 -2.4982 0.9718
5.8307 -3.2803 -2.4982 0.9718
6.6089 -1.0392 -2.4981 0.9718
6.4115 1.9108 -2.4982 0.9718
5.3325 3.3211 -2.3458 0.9735
4.2657 4.6121 -2.3459 0.9735
3.8383 4.9735 -2.3459 0.9735
3.3805 5.2954 -2.3459 0.9735
0.7680 6.2357 -2.3461 0.9735
0.2099 6.2794 -2.3461 0.9735
-0.3498 6.2732 -2.3461 0.9735
-0.9068 6.2172 -2.3461 0.9735
-1.4565 6.1120 -2.3462 0.9735
-1.9948 5.9581 -2.3462 0.9735
-2.5172 5.7569 -2.3462 0.9735
-3.0196 5.5101 -2.3462 0.9735
-3.4981 5.2196 -2.3463 0.9735
-3.9488 4.8875 -2.3463 0.9735
-5.0616 4.3770 -2.4987 0.9718
-6.0382 2.8843 -2.4988 0.9718
-6.2710 2.3354 -2.4988 0.9718
-6.5857 1.1865 -2.4988 0.9718
-3.2641 0.0000 -1.2811 0.9861
-2.9005 -0.2592 -1.1429 0.9876
-2.8313 -0.7756 -1.1521 0.9875
-2.8528 -1.0624 -1.1947 0.9870
-5.7449 -2.7441 -2.4987 0.9730
-4.8157 -4.1643 -2.4987 0.9730
-4.0010 -4.9521 -2.4986 0.9730
-2.5504 -5.8330 -2.4985 0.9730
-1.4758 -6.1926 -2.4985 0.9730
0.2127 -6.3623 -2.4984 0.9730
1.8860 -6.0798 -2.4983 0.9730
2.4196 -5.8878 -2.4983 0.9730
2.9340 -5.6490 -2.4983 0.9730
3.8891 -5.0392 -2.4982 0.9730
4.3221 -4.6730 -2.4982 0.9730
4.7209 -4.2697 -2.4982 0.9730
5.4031 -3.3650 -2.4982 0.9730
5.6811 -2.8708 -2.4982 0.9730
5.9141 -2.3537 -2.4982 0.9730
6.3257 -0.7076 -2.4982 0.9730
6.3636 -0.1418 -2.4982 0.9730
6.3510 0.4252 -2.4982 0.9730
6.1750 1.5445 -2.4982 0.9730
9.0215 3.1326 -3.7481 0.9598
8.7069 3.9232 -3.7481 0.9598
4.6072 3.8079 -2.3459 0.9746
4.2500 4.2029 -2.3459 0.9746
3.8591 4.5646 -2.3459 0.9746
2.9887 5.1766 -2.3460 0.9746
1.5149 5.7824 -2.3460 0.9746
0.4657 5.9595 -2.3461 0.9746
-1.1254 5.8710 -2.3462 0.9746
-1.6435 5.7476 -2.3462 0.9746
-3.1037 5.1093 -2.3462 0.9746
-3.5461 4.8129 -2.3463 0.9746
-3.9605 4.4782 -2.3463 0.9746
-4.6255 4.3748 -2.4987 0.9730
-5.6170 2.9973 -2.4987 0.9730
-5.8615 2.4855 -2.4988 0.9730
-6.0595 1.9539 -2.4988 0.9730
-6.3099 0.8486 -2.4988 0.9730
-2.8403 -0.9159 -1.1712 0.9873
-5.6169 -2.9973 -2.4987 0.9730
-5.3278 -3.4853 -2.4987 0.9730
-4.9964 -3.9456 -2.4987 0.9730
-4.2176 -4.7689 -2.4986 0.9730
-3.7764 -5.1254 -2.4986 0.9730
-1.7502 -6.1207 -2.4985 0.9730
-0.0709 -6.3655 -2.4984 0.9730
0.4959 -6.3464 -2.4984 0.9730
1.0588 -6.2771 -2.4984 0.9730
2.6795 -5.7741 -2.4983 0.9730
3.1828 -5.5127 -2.4983 0.9730
4.1097 -4.8610 -2.4982 0.9730
4.5260 -4.4758 -2.4982 0.9730
4.9064 -4.0552 -2.4982 0.9730
5.2478 -3.6024 -2.4982 0.9730
5.5476 -3.1210 -2.4982 0.9730
6.3636 0.1418 -2.4982 0.9730
6.3258 0.7077 -2.4982 0.9730
6.2377 1.2679 -2.4982 0.9730
8.8730 3.5314 -3.7481 0.9598
5.0736 3.1599 -2.3458 0.9746
4.7722 3.5989 -2.3459 0.9746
4.0586 4.3881 -2.3459 0.9746
3.6520 4.7320 -2.3459 0.9746
3.2163 5.0383 -2.3459 0.9746
2.7552 5.3046 -2.3460 0.9746
1.2558 5.8442 -2.3460 0.9746
-0.8627 5.9153 -2.3461 0.9746
-1.3858 5.8151 -2.3462 0.9746
-2.8730 5.2425 -2.3462 0.9746
-3.3282 4.9660 -2.3462 0.9746
-4.2038 4.3467 -2.3733 0.9744
-5.1674 3.7192 -2.4987 0.9730
-5.4779 3.2446 -2.4987 0.9730
-5.9664 2.2219 -2.4988 0.9730
-6.2659 1.1288 -2.4988 0.9730
-2.8130 -0.2514 -1.1629 0.9879
-2.7831 -0.5014 -1.1645 0.9878
-2.7842 -1.0369 -1.2234 0.9872
-5.4754 -2.6154 -2.4987 0.9741
-4.5898 -3.9690 -2.4986 0.9741
-4.2183 -4.3617 -2.4986 0.9741
-3.3781 -5.0404 -2.4986 0.9741
-2.4308 -5.5594 -2.4985 0.9741
-1.4066 -5.9022 -2.4985 0.9741
0.7417 -6.0218 -2.4984 0.9741
1.2747 -5.9318 -2.4984 0.9741
2.3062 -5.6117 -2.4983 0.9741
2.7965 -5.3841 -2.4983 0.9741
3.2645 -5.1138 -2.4983 0.9741
3.7067 -4.8029 -2.4983 0.9741
4.1195 -4.4539 -2.4982 0.9741
4.4995 -4.0695 -2.4982 0.9741
5.8140 -1.7328 -2.4982 0.9741
5.9452 -1.2084 -2.4982 0.9741
6.0291 -0.6745 -2.4982 0.9741
6.0532 0.4052 -2.4982 0.9741
5.9931 0.9424 -2.4982 0.9741
5.8855 1.4721 -2.4982 0.9741
8.2987 3.7392 -3.7481 0.9614
7.9330 4.4630 -3.7481 0.9614
4.6967 3.2241 -2.3459 0.9757
4.3912 3.6294 -2.3459 0.9757
3.2764 4.6607 -2.3459 0.9757
2.8485 4.9338 -2.3460 0.9757
1.4439 5.5113 -2.3460 0.9757
0.9476 5.6180 -2.3461 0.9757
0.4438 5.6801 -2.3461 0.9757
-0.0635 5.6971 -2.3461 0.9757
-0.5703 5.6689 -2.3461 0.9757
-1.0726 5.5957 -2.3461 0.9757
-1.5664 5.4780 -2.3462 0.9757
-2.5129 5.1136 -2.3462 0.9757
-2.9581 4.8697 -2.3462 0.9757
-4.7622 3.7607 -2.4987 0.9741
-5.0780 3.3219 -2.4987 0.9741
-5.3536 2.8568 -2.4987 0.9741
-3.5093 0.1565 -1.4465 0.9849
-2.9337 -0.1308 -1.2093 0.9874
-2.7946 -0.3758 -1.1611 0.9879
-2.7756 -0.6289 -1.1719 0.9878
-2.8016 -1.1880 -1.2531 0.9869
-5.0779 -3.3218 -2.4987 0.9741
-3.1502 -5.1859 -2.4986 0.9741
-2.6761 -5.4457 -2.4985 0.9741
-2.1807 -5.6621 -2.4985 0.9741
-1.1422 -5.9590 -2.4985 0.9741
-0.6073 -6.0369 -2.4984 0.9741
-0.0676 -6.0670 -2.4984 0.9741
0.4727 -6.0488 -2.4984 0.9741
2.0539 -5.7089 -2.4983 0.9741
2.5538 -5.5034 -2.4983 0.9741
3.4891 -4.9633 -2.4983 0.9741
5.2875 -2.9746 -2.4982 0.9741
5.5312 -2.4923 -2.4982 0.9741
5.7311 -1.9900 -2.4982 0.9741
5.9931 -0.9423 -2.4982 0.9741
4.8357 3.0117 -2.3459 0.9757
4.2251 3.8214 -2.3459 0.9757
1.1970 5.5702 -2.3460 0.9757
0.6964 5.6546 -2.3461 0.9757
-0.3172 5.6886 -2.3461 0.9757
-0.8223 5.6379 -2.3461 0.9757
-1.8089 5.4029 -2.3462 0.9757
-2.2826 5.2205 -2.3462 0.9757
-3.5808 4.4321 -2.3463 0.9757
-4.5899 3.9691 -2.4987 0.9741
-4.9250 3.5448 -2.4987 0.9741
-5.6866 2.1177 -2.4987 0.9741
-3.9772 0.3554 -1.6443 0.9829
-2.7539 -0.2461 -1.1927 0.9880
-2.7278 -0.4914 -1.1956 0.9880
-2.7092 -0.7421 -1.2117 0.9878
-2.7884 -1.6516 -1.3980 0.9860
-4.7014 -3.3838 -2.4987 0.9751
-4.3815 -3.7888 -2.4986 0.9751
-3.6403 -4.5056 -2.4986 0.9751
-1.3427 -5.6344 -2.4985 0.9751
-0.8359 -5.7314 -2.4985 0.9751
-0.3225 -5.7830 -2.4984 0.9751
0.1935 -5.7887 -2.4984 0.9751
2.6695 -5.1398 -2.4983 0.9751
3.5385 -4.5850 -2.4983 0.9751
3.9325 -4.2518 -2.4982 0.9751
5.1690 -2.6120 -2.4982 0.9751
5.3810 -2.1415 -2.4982 0.9751
5.5502 -1.6541 -2.4982 0.9751
5.6754 -1.1536 -2.4982 0.9751
5.7900 -0.1290 -2.4982 0.9751
5.7785 0.3868 -2.4982 0.9751
5.4711 1.8998 -2.4982 0.9751
7.9220 3.5695 -3.7481 0.9629
3.8669 3.8241 -2.3459 0.9766
3.1277 4.4492 -2.3459 0.9766
2.7193 4.7099 -2.3460 0.9766
2.2893 4.9333 -2.3460 0.9766
1.3784 5.2612 -2.3460 0.9766
0.9046 5.3630 -2.3461 0.9766
0.4237 5.4223 -2.3461 0.9766
-1.0239 5.3417 -2.3461 0.9766
-1.4953 5.2295 -2.3462 0.9766
-2.3989 4.8815 -2.3462 0.9766
-2.8239 4.6487 -2.3462 0.9766
-3.2264 4.3789 -2.3462 0.9766
-4.5461 3.5900 -2.4987 0.9751
-5.5132 1.7778 -2.4987 0.9751
-5.6495 1.2800 -2.4987 0.9751
-2.7166 -0.8760 -1.2313 0.9876
-2.7334 -1.1591 -1.2807 0.9871
-4.5460 -3.5899 -2.4986 0.9751
-4.2084 -3.9802 -2.4986 0.9751
-3.4359 -4.6633 -2.4986 0.9751
-3.0072 -4.9505 -2.4986 0.9751
-2.5546 -5.1985 -2.4985 0.9751
-1.5924 -5.5690 -2.4985 0.9751
-1.0904 -5.6885 -2.4985 0.9751
-0.5798 -5.7630 -2.4984 0.9751
0.9634 -5.7112 -2.4984 0.9751
1.4679 -5.6028 -2.4984 0.9751
2.4379 -5.2536 -2.4983 0.9751
3.3308 -4.7380 -2.4983 0.9751
4.4641 -3.6896 -2.4982 0.9751
5.0475 -2.8397 -2.4982 0.9751
5.4710 -1.8997 -2.4982 0.9751
5.7212 -0.8996 -2.4982 0.9751
5.7785 -0.3868 -2.4982 0.9751
5.5503 1.6542 -2.4982 0.9751
4.3421 3.2745 -2.3459 0.9766
4.0334 3.6480 -2.3459 0.9766
3.6927 3.9925 -2.3459 0.9766
3.3227 4.3054 -2.3459 0.9766
2.9264 4.5841 -2.3460 0.9766
2.5068 4.8264 -2.3460 0.9766
2.0673 5.0304 -2.3460 0.9766
-1.2609 5.2909 -2.3462 0.9766
-2.1790 4.9836 -2.3462 0.9766
-3.0281 4.5183 -2.3462 0.9766
-4.0270 4.1639 -2.4987 0.9751
-4.7015 3.3839 -2.4987 0.9751
-5.2270 2.4967 -2.4987 0.9751
-3.8266 0.3419 -1.6572 0.9834
-2.9980 0.0000 -1.3528 0.9869
-2.7005 -0.2413 -1.2234 0.9882
-2.6738 -0.4817 -1.2259 0.9881
-2.6546 -0.7272 -1.2419 0.9880
-2.6666 -1.2737 -1.3334 0.9871
-2.6867 -1.5913 -1.4090 0.9864
-4.1887 -3.6221 -2.4986 0.9760
-3.4800 -4.3073 -2.4986 0.9760
-3.0828 -4.5999 -2.4986 0.9760
-2.6612 -4.8560 -2.4986 0.9760
-1.7580 -5.2508 -2.4985 0.9760
-1.2836 -5.3863 -2.4985 0.9760
-0.7991 -5.4792 -2.4985 0.9760
-0.3083 -5.5285 -2.4984 0.9760
0.1850 -5.5339 -2.4984 0.9760
1.6405 -5.2883 -2.4983 0.9760
2.1046 -5.1212 -2.4983 0.9760
2.5521 -4.9136 -2.4983 0.9760
3.3828 -4.3832 -2.4983 0.9760
3.7594 -4.0647 -2.4983 0.9760
4.9415 -2.4971 -2.4982 0.9760
5.3059 -1.5813 -2.4982 0.9760
5.4256 -1.1028 -2.4982 0.9760
5.3712 1.3434 -2.4982 0.9760
7.5734 3.4124 -3.7481 0.9642
7.2397 4.0730 -3.7481 0.9642
1.3177 5.0296 -2.3460 0.9774
-0.5204 5.1734 -2.3461 0.9774
-0.9789 5.1066 -2.3461 0.9774
-2.2933 4.6667 -2.3462 0.9774
-2.6996 4.4441 -2.3462 0.9774
-3.6685 4.1481 -2.4987 0.9760
-4.6342 3.0316 -2.4987 0.9760
-4.8856 2.6071 -2.4987 0.9760
-5.2705 1.6995 -2.4987 0.9760
-5.4009 1.2237 -2.4987 0.9760
-2.7833 -0.1241 -1.2571 0.9878
-2.6659 -0.6040 -1.2334 0.9881
-4.6341 -3.0315 -2.4987 0.9760
-4.3459 -3.4319 -2.4986 0.9760
-3.6685 -4.1480 -2.4986 0.9760
-3.2847 -4.4580 -2.4986 0.9760
-2.8748 -4.7326 -2.4986 0.9760
-2.4422 -4.9697 -2.4985 0.9760
-1.5223 -5.3239 -2.4985 0.9760
-0.5542 -5.5093 -2.4984 0.9760
0.4314 -5.5202 -2.4984 0.9760
2.3307 -5.0224 -2.4983 0.9760
2.7684 -4.7950 -2.4983 0.9760
3.1842 -4.5295 -2.4983 0.9760
3.5747 -4.2281 -2.4983 0.9760
4.2676 -3.5273 -2.4982 0.9760
4.5646 -3.1334 -2.4982 0.9760
4.8254 -2.7147 -2.4982 0.9760
5.0479 -2.2744 -2.4982 0.9760
5.2302 -1.8161 -2.4982 0.9760
5.3060 1.5814 -2.4982 0.9760
5.1442 2.0474 -2.4982 0.9760
7.4139 3.7464 -3.7481 0.9642
4.1510 3.1304 -2.3459 0.9774
3.8559 3.4874 -2.3459 0.9774
3.5302 3.8168 -2.3459 0.9774
2.7976 4.3823 -2.3460 0.9774
-0.2895 5.1914 -2.3461 0.9774
-2.0831 4.7642 -2.3462 0.9774
-4.4945 3.2350 -2.4987 0.9760
-5.4500 0.9819 -2.4987 0.9760
-3.7666 0.3366 -1.7063 0.9835
-2.9112 0.0000 -1.3723 0.9872
-2.6448 -0.2363 -1.2517 0.9883
-2.6052 -1.2444 -1.3609 0.9873
-4.0095 -3.4672 -2.4986 0.9768
-3.6850 -3.8102 -2.4986 0.9768
-1.6828 -5.0262 -2.4985 0.9768
-1.2287 -5.1560 -2.4985 0.9768
-0.2951 -5.2921 -2.4984 0.9768
1.5703 -5.0622 -2.4984 0.9768
2.0146 -4.9023 -2.4983 0.9768
2.4429 -4.7035 -2.4983 0.9768
3.9307 -3.5551 -2.4983 0.9768
4.4987 -2.8018 -2.4982 0.9768
5.0791 -1.5137 -2.4982 0.9768
5.2670 -0.5892 -2.4982 0.9768
5.2880 0.3540 -2.4982 0.9768
4.8320 2.1772 -2.4982 0.9768
6.5556 4.5002 -3.7482 0.9654
3.8360 3.1706 -2.3459 0.9782
3.5386 3.4995 -2.3459 0.9782
3.2131 3.8005 -2.3459 0.9782
2.0949 4.5145 -2.3460 0.9782
1.6848 4.6831 -2.3460 0.9782
1.2613 4.8145 -2.3460 0.9782
0.3877 4.9620 -2.3461 0.9782
-0.9370 4.8882 -2.3461 0.9782
-1.3684 4.7855 -2.3462 0.9782
-1.7889 4.6447 -2.3462 0.9782
-2.5841 4.2540 -2.3462 0.9782
-3.0420 4.1286 -2.4173 0.9776
-3.8511 3.6424 -2.4987 0.9768
-4.1601 3.2852 -2.4987 0.9768
-4.6767 2.4956 -2.4987 0.9768
-4.8802 2.0694 -2.4987 0.9768
-5.2536 0.7066 -2.4987 0.9768
-2.7082 -0.1208 -1.2778 0.9881
-2.6352 -0.3544 -1.2533 0.9883
-2.6131 -0.5921 -1.2630 0.9882
-2.5994 -0.8382 -1.2874 0.9880
-2.5902 -1.3822 -1.3839 0.9871
-4.4359 -2.9018 -2.4986 0.9768
-4.1600 -3.2851 -2.4986 0.9768
-3.8511 -3.6423 -2.4986 0.9768
-3.1442 -4.2674 -2.4986 0.9768
-2.7519 -4.5302 -2.4986 0.9768
-1.9050 -4.9462 -2.4985 0.9768
0.4129 -5.2841 -2.4984 0.9768
0.8816 -5.2263 -2.4984 0.9768
3.0480 -4.3358 -2.4983 0.9768
3.4218 -4.0473 -2.4983 0.9768
4.8320 -2.1772 -2.4982 0.9768
5.0066 -1.7385 -2.4982 0.9768
5.2355 -0.8233 -2.4982 0.9768
5.2985 0.1181 -2.4982 0.9768
5.2670 0.5892 -2.4982 0.9768
5.1937 1.0556 -2.4982 0.9768
4.9242 1.9598 -2.4982 0.9768
7.0969 3.5862 -3.7482 0.9654
6.3486 4.7877 -3.7482 0.9654
3.6910 3.3383 -2.3459 0.9782
3.3793 3.6536 -2.3459 0.9782
2.6779 4.1950 -2.3460 0.9782
2.2940 4.4167 -2.3460 0.9782
1.8918 4.6034 -2.3460 0.9782
1.4746 4.7535 -2.3460 0.9782
1.0456 4.8660 -2.3460 0.9782
-1.1538 4.8417 -2.3461 0.9782
-1.5802 4.7198 -2.3462 0.9782
-1.9940 4.5604 -2.3462 0.9782
-2.7711 4.1347 -2.3462 0.9782
-4.3023 3.0966 -2.4987 0.9768
-4.7832 2.2847 -2.4987 0.9768
-4.9676 1.8500 -2.4987 0.9768
-5.1125 1.4005 -2.4987 0.9768
-3.7077 0.3313 -1.7547 0.9837
-2.5903 -0.2315 -1.2791 0.9885
-2.5457 -1.2160 -1.3876 0.9875
-4.3709 -2.5889 -2.4986 0.9776
-4.1231 -2.9676 -2.4986 0.9776
-3.8426 -3.3228 -2.4986 0.9776
-3.5316 -3.6516 -2.4986 0.9776
-3.1925 -3.9514 -2.4986 0.9776
-2.8281 -4.2198 -2.4986 0.9776
-2.4413 -4.4548 -2.4985 0.9776
-1.6127 -4.8170 -2.4985 0.9776
-1.1776 -4.9413 -2.4985 0.9776
-0.7331 -5.0265 -2.4985 0.9776
0.1697 -5.0767 -2.4984 0.9776
1.0672 -4.9661 -2.4984 0.9776
1.5049 -4.8514 -2.4984 0.9776
3.7671 -3.4071 -2.4983 0.9776
4.0553 -3.0583 -2.4982 0.9776
4.3114 -2.6852 -2.4982 0.9776
4.5333 -2.2908 -2.4982 0.9776
4.7192 -1.8782 -2.4982 0.9776
4.8676 -1.4507 -2.4982 0.9776
4.9774 -1.0117 -2.4982 0.9776
5.0679 0.3393 -2.4982 0.9776
5.0176 0.7890 -2.4982 0.9776
4.9274 1.2324 -2.4982 0.9776
4.7982 1.6661 -2.4982 0.9776
4.6309 2.0866 -2.4983 0.9776
6.6416 3.7365 -3.7482 0.9666
6.2827 4.3129 -3.7482 0.9666
5.8739 4.8549 -3.7482 0.9666
3.3913 3.3537 -2.3459 0.9790
3.0794 3.6423 -2.3459 0.9790
2.3848 4.1307 -2.3460 0.9790
1.6147 4.4881 -2.3460 0.9790
1.2088 4.6141 -2.3460 0.9790
-0.0531 4.7696 -2.3461 0.9790
-0.4775 4.7460 -2.3461 0.9790
-1.3114 4.5862 -2.3462 0.9790
-1.7144 4.4513 -2.3462 0.9790
-3.0134 4.0898 -2.4986 0.9776
-3.3654 3.8054 -2.4986 0.9776
-4.2513 2.7811 -2.4987 0.9776
-4.4819 2.3917 -2.4987 0.9776
-4.6770 1.9832 -2.4987 0.9776
-4.9546 1.1225 -2.4987 0.9776
-3.0630 0.1366 -1.5081 0.9864
-2.6467 -0.1180 -1.3031 0.9883
-2.5430 -0.8200 -1.3142 0.9882
-2.5301 -1.3501 -1.4105 0.9873
-3.9868 -3.1483 -2.4986 0.9776
-3.0133 -4.0897 -2.4986 0.9776
-1.3965 -4.8840 -2.4985 0.9776
-0.9563 -4.9888 -2.4985 0.9776
-0.5084 -5.0541 -2.4985 0.9776
-0.0566 -5.0793 -2.4984 0.9776
0.3957 -5.0641 -2.4984 0.9776
0.8449 -5.0088 -2.4984 0.9776
1.7195 -4.7795 -2.4983 0.9776
2.1381 -4.6075 -2.4983 0.9776
2.5397 -4.3989 -2.4983 0.9776
2.9211 -4.1553 -2.4983 0.9776
3.2794 -3.8788 -2.4983 0.9776
3.6115 -3.5715 -2.4983 0.9776
4.1875 -2.8746 -2.4982 0.9776
4.4267 -2.4904 -2.4982 0.9776
4.7982 -1.6661 -2.4982 0.9776
5.0678 -0.3392 -2.4982 0.9776
4.9774 1.0117 -2.4982 0.9776
4.5334 2.2908 -2.4983 0.9776
6.4686 4.0287 -3.7482 0.9666
6.0843 4.5884 -3.7482 0.9666
3.5373 3.1994 -2.3459 0.9790
3.2386 3.5015 -2.3459 0.9790
2.9141 3.7759 -2.3459 0.9790
2.1985 4.2328 -2.3460 0.9790
1.4132 4.5556 -2.3460 0.9790
0.5831 4.7341 -2.3461 0.9790
0.1594 4.7672 -2.3461 0.9790
-0.6884 4.7200 -2.3461 0.9790
-1.1058 4.6401 -2.3461 0.9790
-1.5144 4.5233 -2.3462 0.9790
-2.2924 4.1832 -2.3462 0.9790
-2.7299 4.0733 -2.4118 0.9784
-3.1926 3.9515 -2.4986 0.9776
-3.8426 3.3229 -2.4987 0.9776
-4.3709 2.5889 -2.4987 0.9776
-4.8997 1.3422 -2.4987 0.9776
-4.9997 0.9007 -2.4987 0.9776
-2.5199 -0.4540 -1.3126 0.9886
-2.4994 -0.6847 -1.3286 0.9884
-2.4895 -0.9271 -1.3619 0.9881
-2.4879 -1.1884 -1.4135 0.9877
-3.0629 -3.7910 -2.4986 0.9783
-2.7133 -4.0485 -2.4986 0.9783
-2.3422 -4.2739 -2.4985 0.9783
-1.9524 -4.4654 -2.4985 0.9783
0.1628 -4.8706 -2.4984 0.9783
1.4438 -4.6544 -2.4984 0.9783
1.8523 -4.5074 -2.4983 0.9783
2.2462 -4.3246 -2.4983 0.9783
2.6222 -4.1075 -2.4983 0.9783
2.9773 -3.8578 -2.4983 0.9783
3.6141 -3.2687 -2.4983 0.9783
3.8907 -2.9341 -2.4983 0.9783
4.1364 -2.5762 -2.4982 0.9783
4.3492 -2.1978 -2.4982 0.9783
4.6700 -1.3918 -2.4982 0.9783
4.7753 -0.9706 -2.4982 0.9783
4.8139 0.7570 -2.4982 0.9783
4.7274 1.1824 -2.4982 0.9783
6.3719 3.5848 -3.7482 0.9677
1.1597 4.4267 -2.3460 0.9796
0.7611 4.5124 -2.3461 0.9796
0.3565 4.5623 -2.3461 0.9796
-0.4581 4.5533 -2.3461 0.9796
-0.8615 4.4945 -2.3461 0.9796
-1.2581 4.4000 -2.3461 0.9796
-3.8250 3.0205 -2.4987 0.9783
-4.0786 2.6681 -2.4987 0.9783
-4.4871 1.9027 -2.4987 0.9783
-2.5350 -0.3409 -1.3113 0.9886
-2.4881 -0.8023 -1.3403 0.9883
-2.4879 -1.0550 -1.3854 0.9879
-2.4717 -1.3189 -1.4363 0.9875
-4.0786 -2.6681 -2.4986 0.9783
-3.5409 -3.3489 -2.4986 0.9783
-3.2287 -3.6507 -2.4986 0.9783
-2.8909 -3.9236 -2.4986 0.9783
-2.1494 -4.3740 -2.4985 0.9783
-1.7516 -4.5479 -2.4985 0.9783
-1.3398 -4.6857 -2.4985 0.9783
-0.9175 -4.7863 -2.4985 0.9783
-0.0543 -4.8731 -2.4984 0.9783
0.3797 -4.8585 -2.4984 0.9783
1.6497 -4.5855 -2.4984 0.9783
2.4366 -4.2203 -2.4983 0.9783
2.8025 -3.9866 -2.4983 0.9783
3.1462 -3.7213 -2.4983 0.9783
4.2470 -2.3894 -2.4982 0.9783
4.4428 -2.0018 -2.4982 0.9783
4.6034 -1.5984 -2.4982 0.9783
4.7274 -1.1824 -2.4982 0.9783
4.8138 -0.7569 -2.4982 0.9783
4.8718 0.1086 -2.4982 0.9783
4.7754 0.9707 -2.4982 0.9783
4.6700 1.3918 -2.4983 0.9783
6.2059 3.8651 -3.7482 0.9677
3.3937 3.0694 -2.3459 0.9796
2.7958 3.6226 -2.3460 0.9796
2.4623 3.8571 -2.3460 0.9796
2.1092 4.0610 -2.3460 0.9796
0.5594 4.5419 -2.3461 0.9796
0.1529 4.5737 -2.3461 0.9796
-0.6604 4.5284 -2.3461 0.9796
-1.4529 4.3396 -2.3462 0.9796
-2.1993 4.0133 -2.3462 0.9796
-3.0629 3.7910 -2.4986 0.9783
-4.3979 2.1007 -2.4987 0.9783
-4.5674 1.7009 -2.4987 0.9783
-4.7007 1.2877 -2.4987 0.9783
-2.6714 -0.0000 -1.4261 0.9880
-2.4501 -0.6712 -1.3561 0.9885
-2.4292 -1.1603 -1.4371 0.9879
-2.3944 -1.4182 -1.4856 0.9875
-3.5403 -3.0614 -2.4986 0.9790
-3.2538 -3.3644 -2.4986 0.9790
-2.2493 -4.1044 -2.4985 0.9790
-1.0850 -4.5527 -2.4985 0.9790
-0.2606 -4.6728 -2.4984 0.9790
0.5721 -4.6449 -2.4984 0.9790
1.7789 -4.3286 -2.4983 0.9790
2.1571 -4.1531 -2.4983 0.9790
2.8592 -3.7048 -2.4983 0.9790
3.4708 -3.1391 -2.4983 0.9790
3.9723 -2.4740 -2.4983 0.9790
4.6786 -0.1042 -2.4982 0.9790
4.6693 0.3126 -2.4982 0.9790
4.6229 0.7269 -2.4982 0.9790
4.4208 1.5351 -2.4983 0.9790
4.0786 2.2946 -2.4983 0.9790
5.7886 3.9736 -3.7482 0.9687
3.5466 2.9314 -2.4564 0.9794
3.1246 3.0900 -2.3459 0.9803
2.8372 3.3558 -2.3459 0.9803
2.1973 3.8058 -2.3460 0.9803
1.4877 4.1351 -2.3460 0.9803
0.7310 4.3334 -2.3461 0.9803
-1.2082 4.2255 -2.3461 0.9803
-1.5795 4.1012 -2.3462 0.9803
-1.9419 3.9516 -2.3505 0.9802
-2.7763 3.7681 -2.4986 0.9790
-3.9169 2.5623 -2.4987 0.9790
-4.1294 2.2035 -2.4987 0.9790
-4.4547 1.4364 -2.4987 0.9790
-4.6388 0.6239 -2.4987 0.9790
-2.8952 0.1291 -1.5471 0.9869
-2.5303 -0.1128 -1.3521 0.9886
-2.4861 -0.3343 -1.3391 0.9887
-2.4621 -0.5578 -1.3477 0.9886
-2.4151 -1.2887 -1.4613 0.9877
-3.6732 -2.9007 -2.4986 0.9790
-3.4004 -3.2161 -2.4986 0.9790
-3.1007 -3.5060 -2.4986 0.9790
-2.7763 -3.7680 -2.4986 0.9790
-2.4299 -4.0001 -2.4985 0.9790
-2.0642 -4.2005 -2.4985 0.9790
-0.8811 -4.5965 -2.4985 0.9790
-0.4685 -4.6566 -2.4985 0.9790
0.3646 -4.6658 -2.4984 0.9790
1.1861 -4.5272 -2.4984 0.9790
2.3399 -4.0529 -2.4983 0.9790
3.0214 -3.5737 -2.4983 0.9790
3.3275 -3.2906 -2.4983 0.9790
3.8582 -2.6485 -2.4983 0.9790
4.6229 -0.7269 -2.4982 0.9790
4.6693 -0.3125 -2.4982 0.9790
4.6786 0.1043 -2.4982 0.9790
4.4848 1.3366 -2.4983 0.9790
4.1768 2.1106 -2.4983 0.9790
5.9598 3.7118 -3.7482 0.9687
3.3053 2.9895 -2.3792 0.9800
2.9838 3.2261 -2.3459 0.9803
2.6849 3.4789 -2.3460 0.9803
2.3646 3.7041 -2.3460 0.9803
1.3020 4.1973 -2.3460 0.9803
0.1469 4.3923 -2.3461 0.9803
-0.6343 4.3488 -2.3461 0.9803
-1.7607 4.0268 -2.3462 0.9803
-2.6057 3.8880 -2.4986 0.9790
-2.9414 3.6407 -2.4986 0.9790
-3.7988 2.7342 -2.4987 0.9790
-4.5142 1.2366 -2.4987 0.9790
-3.5314 0.3156 -1.8927 0.9841
-2.4347 -0.2176 -1.3576 0.9889
-2.4018 -0.6579 -1.3831 0.9887
