ply
format ascii 1.0
element vertex 1587
property float32 x
property float32 y
property float32 z
property float32 I
end_header
5.2545 -7.4747 -0.5322 0.9641
4.8606 -7.6140 -0.6769 0.9644
3.8708 -8.3414 -0.6891 0.9638
5.3428 -7.6003 -0.6962 0.9634
4.9390 -7.7368 -0.8415 0.9638
4.5447 -7.8717 -0.8333 0.9641
4.3040 -8.2866 -1.0128 0.9631
4.4473 -8.5626 -1.2091 0.9619
5.2374 -8.2043 -1.2198 0.9615
14.3139 2.2508 -2.3073 0.9430
14.0633 3.5175 -2.3084 0.9430
11.9854 8.2275 -2.3149 0.9428
11.2159 9.2702 -2.3171 0.9428
8.3952 11.9423 -2.3245 0.9426
7.3075 12.6570 -2.3273 0.9425
6.1595 13.2734 -2.3301 0.9425
1.1458 14.6632 -2.3420 0.9422
-4.0637 14.2116 -2.3537 0.9419
14.3973 1.6106 -2.3069 0.9430
13.8964 4.1415 -2.3090 0.9430
13.4809 5.3653 -2.3104 0.9429
12.9590 6.5485 -2.3120 0.9429
12.3346 7.6821 -2.3139 0.9428
11.6123 8.7572 -2.3160 0.9428
10.7972 9.7655 -2.3182 0.9427
9.8954 10.6988 -2.3206 0.9427
8.9137 11.5498 -2.3232 0.9426
7.8594 12.3116 -2.3259 0.9426
1.7967 14.5882 -2.3405 0.9422
0.4918 14.7091 -2.3435 0.9421
-2.1293 14.6000 -2.3494 0.9420
-4.6954 14.0246 -2.3551 0.9419
-5.9317 13.5661 -2.3577 0.9418
-14.2533 -1.2737 -2.5232 0.9435
-13.7905 -3.7776 -2.5212 0.9436
-12.8870 -6.1556 -2.5183 0.9436
-12.2792 -7.2730 -2.5164 0.9437
-11.5738 -8.3304 -2.5144 0.9437
-9.8955 -10.2319 -2.5099 0.9438
-8.9366 -11.0610 -2.5074 0.9439
-4.4948 -13.4252 -2.4964 0.9441
-3.2782 -13.7560 -2.4935 0.9442
-2.0385 -13.9769 -2.4906 0.9442
-0.7854 -14.0865 -2.4877 0.9443
0.4709 -14.0843 -2.4848 0.9444
1.7207 -13.9708 -2.4820 0.9444
2.9541 -13.7471 -2.4793 0.9445
4.1615 -13.4155 -2.4767 0.9445
9.4954 -10.2663 -2.4658 0.9448
10.3646 -9.3743 -2.4642 0.9448
11.1515 -8.4097 -2.4628 0.9448
11.8500 -7.3802 -2.4616 0.9449
12.4550 -6.2938 -2.4606 0.9449
13.8607 -1.5506 -2.4593 0.9449
12.7163 3.1806 -2.3113 0.9482
12.3891 4.3020 -2.3125 0.9481
10.8345 7.4375 -2.3172 0.9480
10.1380 8.3793 -2.3192 0.9480
6.6025 11.4358 -2.3284 0.9478
3.3580 12.8172 -2.3363 0.9476
2.2064 13.0804 -2.3390 0.9475
-1.3324 13.2443 -2.3471 0.9474
-2.5087 13.0877 -2.3497 0.9473
-3.6675 12.8263 -2.3523 0.9473
-4.7996 12.4618 -2.3547 0.9472
-5.8954 11.9969 -2.3570 0.9472
-6.9462 11.4351 -2.3592 0.9471
-10.5311 8.3163 -2.3661 0.9470
-11.2353 7.3498 -2.3673 0.9469
-11.8499 6.3233 -2.3683 0.9469
-13.6236 4.3930 -2.5240 0.9435
-14.3007 0.6377 -2.5241 0.9435
-14.1800 -1.9070 -2.5228 0.9435
-10.3464 -9.7856 -2.5111 0.9438
-8.4307 -11.4422 -2.5061 0.9439
-7.3709 -12.1342 -2.5034 0.9440
-5.0913 -13.2192 -2.4978 0.9441
-3.8900 -13.6042 -2.4949 0.9441
-2.6606 -13.8803 -2.4920 0.9442
3.5616 -13.5946 -2.4780 0.9445
7.0062 -12.1350 -2.4707 0.9447
9.0319 -10.6830 -2.4667 0.9448
10.7687 -8.9006 -2.4634 0.9448
11.5121 -7.9026 -2.4621 0.9449
12.1645 -6.8436 -2.4611 0.9449
13.0191 1.4564 -2.3099 0.9482
12.8426 2.6104 -2.3108 0.9482
12.1886 4.8510 -2.3131 0.9481
11.7160 5.9204 -2.3146 0.9481
11.1507 6.9447 -2.3163 0.9480
9.7591 8.8266 -2.3202 0.9480
8.0550 10.4372 -2.3247 0.9479
7.1015 11.1243 -2.3271 0.9478
6.0898 11.7250 -2.3297 0.9478
5.0277 12.2342 -2.3323 0.9477
1.6225 13.1734 -2.3404 0.9475
0.4440 13.2809 -2.3431 0.9475
-1.9221 13.1792 -2.3484 0.9473
-3.0909 12.9700 -2.3510 0.9473
-5.3526 12.2417 -2.3559 0.9472
-6.4270 11.7279 -2.3581 0.9471
-5.9164 7.3228 -1.6600 0.9625
-10.1472 8.7746 -2.3654 0.9470
-10.8940 7.8411 -2.3667 0.9469
-11.5541 6.8435 -2.3679 0.9469
-13.4131 4.9951 -2.5238 0.9435
-13.8068 3.7821 -2.5242 0.9435
-14.2589 1.2742 -2.5242 0.9435
-12.8136 -2.3085 -2.5196 0.9483
-12.5521 -3.4384 -2.5185 0.9484
-12.1902 -4.5397 -2.5173 0.9484
-10.5370 -7.5841 -2.5124 0.9485
-6.2112 -11.3340 -2.5011 0.9487
-5.1725 -11.8297 -2.4985 0.9488
-4.0947 -12.2304 -2.4959 0.9488
-2.9868 -12.5330 -2.4933 0.9489
-1.8574 -12.7356 -2.4906 0.9489
0.4292 -12.8361 -2.4854 0.9490
1.5683 -12.7339 -2.4829 0.9491
5.8916 -11.3434 -2.4736 0.9493
8.6598 -9.3629 -2.4681 0.9494
9.4531 -8.5498 -2.4666 0.9494
12.1936 -3.6340 -2.4622 0.9495
12.7210 -0.2835 -2.4623 0.9495
12.6982 0.8501 -2.4628 0.9495
11.5989 2.9011 -2.3137 0.9525
11.2999 3.9237 -2.3148 0.9524
10.9117 4.9166 -2.3161 0.9524
10.4374 5.8720 -2.3175 0.9524
9.2444 7.6407 -2.3209 0.9523
7.7565 9.1744 -2.3249 0.9522
5.0718 10.9294 -2.3317 0.9521
4.0831 11.3491 -2.3341 0.9520
2.0104 11.9184 -2.3390 0.9519
0.9426 12.0628 -2.3415 0.9519
-2.2849 11.9202 -2.3488 0.9518
-3.3401 11.6809 -2.3511 0.9517
-4.3706 11.3480 -2.3533 0.9517
-6.3243 10.4113 -2.3574 0.9516
-8.8690 8.3882 -2.3624 0.9515
-10.2262 6.6897 -2.3648 0.9514
-10.7852 5.7552 -2.3657 0.9514
-12.3989 3.9982 -2.5211 0.9483
-12.7069 2.8790 -2.5213 0.9483
-12.9129 1.7366 -2.5214 0.9483
-13.0151 0.5804 -2.5212 0.9483
-12.6956 -2.8764 -2.5191 0.9483
-12.3835 -3.9931 -2.5179 0.9484
-11.9725 -5.0768 -2.5166 0.9484
-10.8685 -7.1098 -2.5133 0.9485
-10.1848 -8.0428 -2.5114 0.9485
-9.4207 -8.9100 -2.5093 0.9485
-7.6777 -10.4203 -2.5048 0.9486
-6.7132 -11.0516 -2.5023 0.9487
-5.6972 -11.5935 -2.4998 0.9487
-4.6379 -12.0421 -2.4972 0.9488
-2.4242 -12.6470 -2.4920 0.9489
-0.1431 -12.8492 -2.4867 0.9490
1.0000 -12.7977 -2.4841 0.9490
2.1330 -12.6450 -2.4816 0.9491
7.3422 -10.4445 -2.4706 0.9493
8.2368 -9.7426 -2.4689 0.9493
9.0655 -8.9650 -2.4673 0.9494
9.8219 -8.1180 -2.4659 0.9494
10.5004 -7.2081 -2.4647 0.9494
11.6038 -5.2284 -2.4630 0.9495
12.5681 -1.9762 -2.4620 0.9495
12.7221 0.2836 -2.4626 0.9495
11.7142 2.3811 -2.3133 0.9525
11.1168 4.4244 -2.3154 0.9524
10.6851 5.3994 -2.3168 0.9524
8.8985 8.0482 -2.3219 0.9523
7.3434 9.5152 -2.3260 0.9522
6.4736 10.1407 -2.3282 0.9522
5.5508 10.6872 -2.3305 0.9521
4.5822 11.1502 -2.3329 0.9521
3.5753 11.5258 -2.3353 0.9520
2.5380 11.8107 -2.3378 0.9520
-3.8589 11.5261 -2.3522 0.9517
-4.8740 11.1471 -2.3543 0.9516
-8.4839 8.7723 -2.3616 0.9515
-9.2365 7.9871 -2.3630 0.9515
-9.9158 7.1370 -2.3642 0.9514
-10.5162 6.2288 -2.3653 0.9514
-11.7515 5.6132 -2.5202 0.9483
-12.2074 4.5461 -2.5209 0.9483
-12.5655 3.4421 -2.5212 0.9483
-12.9770 1.1596 -2.5213 0.9483
-11.9462 0.0000 -2.5185 0.9523
-11.8963 -1.0630 -2.5180 0.9523
-11.7511 -2.1171 -2.5172 0.9524
-11.1802 -4.1636 -2.5151 0.9524
-10.7596 -5.1394 -2.5138 0.9524
-9.0014 -7.7838 -2.5088 0.9525
-6.6087 -9.8608 -2.5026 0.9526
-5.6996 -10.4004 -2.5003 0.9527
-4.7468 -10.8563 -2.4979 0.9527
-2.7415 -11.5037 -2.4931 0.9528
0.3940 -11.7850 -2.4859 0.9529
2.4727 -11.5070 -2.4813 0.9530
4.4661 -10.8675 -2.4770 0.9531
5.4113 -10.4186 -2.4750 0.9531
6.3124 -9.8882 -2.4732 0.9532
7.1625 -9.2808 -2.4715 0.9532
9.3445 -7.0470 -2.4674 0.9533
10.8637 -4.3237 -2.4650 0.9533
11.2036 -3.3390 -2.4646 0.9533
11.6174 -1.2996 -2.4645 0.9533
11.6881 -0.2604 -2.4647 0.9533
11.6671 0.7810 -2.4652 0.9533
10.6564 2.6654 -2.3158 0.9561
10.3813 3.6048 -2.3168 0.9561
10.0243 4.5168 -2.3179 0.9560
9.5880 5.3941 -2.3193 0.9560
8.4911 7.0180 -2.3224 0.9560
7.8387 7.7518 -2.3241 0.9559
7.1234 8.4256 -2.3260 0.9559
5.5263 9.5719 -2.3301 0.9558
4.6567 10.0350 -2.3323 0.9558
2.8091 10.7221 -2.3367 0.9557
0.8652 11.0719 -2.3413 0.9556
-0.1238 11.1157 -2.3435 0.9556
-1.1137 11.0711 -2.3458 0.9555
-4.0099 10.4115 -2.3521 0.9554
-6.6333 9.0028 -2.3575 0.9553
-9.3785 6.1351 -2.3626 0.9552
-10.9967 4.6630 -2.5181 0.9523
-11.8414 1.5925 -2.5189 0.9523
-11.9332 -0.5321 -2.5183 0.9523
-11.6430 -2.6379 -2.5168 0.9524
-11.3573 -3.6623 -2.5157 0.9524
-10.5169 -5.6120 -2.5131 0.9524
-9.3427 -7.3779 -2.5097 0.9525
-7.0445 -9.5609 -2.5037 0.9526
-6.1601 -10.1409 -2.5014 0.9527
-3.2528 -11.3757 -2.4943 0.9528
0.9182 -11.7502 -2.4847 0.9530
1.9585 -11.6110 -2.4824 0.9530
2.9815 -11.3803 -2.4802 0.9530
4.9437 -10.6535 -2.4760 0.9531
5.8678 -10.1633 -2.4741 0.9532
6.7443 -9.5938 -2.4723 0.9532
7.5665 -8.9496 -2.4707 0.9532
8.3281 -8.2358 -2.4692 0.9532
9.6471 -6.6223 -2.4669 0.9533
10.6615 -4.8038 -2.4653 0.9533
11.0445 -3.8350 -2.4648 0.9533
11.3407 -2.8365 -2.4645 0.9533
11.5478 -1.8158 -2.4644 0.9533
11.6891 0.2605 -2.4649 0.9533
10.7626 2.1876 -2.3154 0.9561
9.8158 4.9602 -2.3186 0.9560
8.7921 6.6305 -2.3215 0.9560
7.4886 8.0966 -2.3251 0.9559
5.9445 9.3120 -2.3291 0.9558
5.0968 9.8130 -2.3312 0.9558
4.2071 10.2373 -2.3334 0.9558
3.2823 10.5812 -2.3356 0.9557
2.3298 10.8419 -2.3379 0.9557
0.3713 11.1048 -2.3424 0.9556
-0.6192 11.1044 -2.3447 0.9556
-1.6066 11.0156 -2.3469 0.9555
-4.4716 10.2267 -2.3531 0.9554
-5.8646 7.2587 -1.9673 0.9626
-7.7814 8.0459 -2.3598 0.9553
-8.4713 7.3254 -2.3610 0.9553
-11.1947 4.1689 -2.5184 0.9523
-11.5230 3.1565 -2.5188 0.9523
-11.0251 -0.0000 -2.5164 0.9558
-10.6248 -2.9104 -2.5144 0.9558
-9.4645 -5.6058 -2.5107 0.9559
-8.3099 -7.1858 -2.5075 0.9559
-5.2631 -9.6039 -2.4996 0.9561
-3.4708 -10.3667 -2.4952 0.9561
-2.5321 -10.6250 -2.4930 0.9562
-0.6070 -10.8860 -2.4885 0.9563
1.3304 -10.8022 -2.4842 0.9563
5.0007 -9.6280 -2.4763 0.9565
8.0270 -7.2600 -2.4703 0.9566
8.6375 -6.5138 -2.4692 0.9566
10.0425 -3.9968 -2.4670 0.9566
10.3569 -3.0866 -2.4666 0.9566
10.5898 -2.1525 -2.4665 0.9566
10.8047 -0.2407 -2.4667 0.9566
9.8503 2.4637 -2.3175 0.9592
8.8618 4.9856 -2.3208 0.9591
8.3878 5.7579 -2.3221 0.9591
7.2438 7.1636 -2.3253 0.9591
5.1059 8.8437 -2.3308 0.9590
4.3022 9.2710 -2.3328 0.9589
2.5948 9.9044 -2.3369 0.9589
-0.1144 10.2656 -2.3432 0.9588
-1.0285 10.2237 -2.3453 0.9587
-1.9360 10.1002 -2.3473 0.9587
-2.8297 9.8960 -2.3492 0.9587
-3.7022 9.6125 -2.3511 0.9586
-5.3557 8.8167 -2.3545 0.9586
-6.1232 8.3105 -2.3561 0.9585
-6.1358 6.9379 -2.1140 0.9627
-7.5082 7.1012 -2.3588 0.9585
-8.1143 6.4078 -2.3599 0.9585
-9.7232 5.1885 -2.5155 0.9558
-10.4935 3.3837 -2.5165 0.9558
-10.7540 2.4365 -2.5167 0.9558
-10.9282 1.4697 -2.5168 0.9558
-11.0149 0.4912 -2.5166 0.9558
-10.7458 -2.4347 -2.5148 0.9558
-10.4825 -3.3802 -2.5139 0.9558
-9.2026 -6.0200 -2.5099 0.9559
-7.9787 -7.5462 -2.5066 0.9559
-7.2699 -8.2202 -2.5047 0.9560
-6.5043 -8.8277 -2.5027 0.9560
-5.6881 -9.3639 -2.5007 0.9560
-2.0553 -10.7224 -2.4919 0.9562
-0.1214 -10.8974 -2.4874 0.9563
2.7549 -10.5152 -2.4810 0.9564
4.5685 -9.8448 -2.4772 0.9564
6.2331 -8.8666 -2.4738 0.9565
6.9933 -8.2716 -2.4723 0.9565
7.6975 -7.6122 -2.4709 0.9566
8.3405 -6.8936 -2.4697 0.9566
8.9173 -6.1214 -2.4687 0.9566
9.4236 -5.3016 -2.4679 0.9566
10.2097 -3.5452 -2.4668 0.9566
10.6751 -1.6786 -2.4665 0.9566
10.7827 -0.7218 -2.4666 0.9566
10.8055 0.2408 -2.4669 0.9566
10.7434 1.2018 -2.4674 0.9566
9.9486 2.0222 -2.3171 0.9592
9.7327 2.9006 -2.3180 0.9592
9.4399 3.7570 -2.3190 0.9592
8.6334 5.3769 -2.3214 0.9591
6.9201 7.4819 -2.3261 0.9590
3.8866 9.4576 -2.3338 0.9589
2.1520 10.0146 -2.3379 0.9588
1.2532 10.1755 -2.3400 0.9588
-2.3850 10.0081 -2.3483 0.9587
-3.2690 9.7641 -2.3502 0.9586
-4.9559 9.0434 -2.3537 0.9586
-5.8472 7.2372 -2.1236 0.9625
-9.9460 4.7508 -2.5158 0.9558
-10.6344 2.9130 -2.5166 0.9558
-10.8520 1.9551 -2.5168 0.9558
-10.9826 0.9814 -2.5167 0.9558
-10.1879 -0.9104 -2.5142 0.9587
-9.8594 -2.7007 -2.5127 0.9588
-9.5761 -3.5662 -2.5117 0.9588
-9.2165 -4.4023 -2.5106 0.9588
-8.7836 -5.2025 -2.5093 0.9588
-7.7128 -6.6695 -2.5063 0.9589
-7.0838 -7.3246 -2.5046 0.9589
-6.3992 -7.9203 -2.5028 0.9589
-1.4624 -10.0273 -2.4908 0.9591
-0.5637 -10.1093 -2.4887 0.9592
1.2357 -10.0327 -2.4847 0.9592
5.4197 -8.4898 -2.4758 0.9594
7.4582 -6.7455 -2.4718 0.9594
8.5295 -5.3122 -2.4699 0.9595
8.9660 -4.5307 -2.4692 0.9595
9.8404 -2.0001 -2.4682 0.9595
10.0401 -0.2237 -2.4685 0.9595
10.0217 0.6709 -2.4688 0.9595
8.9160 3.0960 -2.3199 0.9619
8.6087 3.8789 -2.3209 0.9619
7.7927 5.3494 -2.3233 0.9618
5.4505 7.7535 -2.3296 0.9617
4.7424 8.2141 -2.3314 0.9617
3.9957 8.6104 -2.3332 0.9617
0.7419 9.4948 -2.3409 0.9615
-2.6267 9.1863 -2.3485 0.9614
-5.6829 7.7129 -2.3549 0.9613
-6.9677 6.5900 -2.3573 0.9613
-7.5299 5.9463 -2.3584 0.9612
-9.0225 4.8146 -2.5137 0.9588
-9.9786 2.2609 -2.5149 0.9587
-10.2208 0.4558 -2.5148 0.9587
-10.2193 -0.4557 -2.5144 0.9587
-10.1360 -1.3632 -2.5139 0.9587
-9.7275 -3.1367 -2.5122 0.9588
-9.4057 -3.9883 -2.5112 0.9588
-9.0090 -4.8074 -2.5100 0.9588
-8.0048 -6.3213 -2.5071 0.9589
-6.7481 -7.6302 -2.5037 0.9589
-6.0377 -8.1945 -2.5019 0.9589
-5.2804 -8.6927 -2.5000 0.9590
-4.4822 -9.1210 -2.4980 0.9590
-3.6496 -9.4760 -2.4960 0.9590
-1.0139 -10.0783 -2.4898 0.9591
1.6807 -9.9637 -2.4837 0.9592
2.5589 -9.7671 -2.4818 0.9593
3.4155 -9.4935 -2.4799 0.9593
4.2439 -9.1454 -2.4782 0.9593
7.7496 -6.4052 -2.4713 0.9594
8.2858 -5.6879 -2.4703 0.9594
10.0196 -0.6707 -2.4683 0.9595
9.9829 1.1168 -2.4691 0.9595
8.4294 4.2596 -2.3215 0.9618
8.0210 4.9955 -2.3227 0.9618
7.0167 6.3462 -2.3255 0.9618
6.4283 6.9502 -2.3270 0.9618
4.3735 8.4205 -2.3323 0.9617
3.6096 8.7834 -2.3342 0.9616
2.8158 9.0773 -2.3361 0.9616
1.9984 9.2996 -2.3380 0.9616
-4.5998 8.3937 -2.3527 0.9613
-5.8298 7.2156 -2.2802 0.9625
-6.6656 6.8922 -2.3568 0.9613
-7.7888 5.6061 -2.3588 0.9612
-9.8677 2.7030 -2.5148 0.9587
-10.0695 1.8142 -2.5149 0.9587
-9.5371 0.0000 -2.5130 0.9613
-9.3822 -1.6903 -2.5120 0.9613
-9.1918 -2.5179 -2.5113 0.9613
-8.5930 -4.1045 -2.5093 0.9614
-8.1896 -4.8507 -2.5081 0.9614
-7.7212 -5.5574 -2.5067 0.9614
-7.1918 -6.2190 -2.5053 0.9614
-3.7958 -8.6812 -2.4966 0.9616
0.3154 -9.4330 -2.4870 0.9617
1.1529 -9.3604 -2.4851 0.9617
3.5773 -8.7048 -2.4799 0.9618
5.0578 -7.9228 -2.4768 0.9619
6.3757 -6.8933 -2.4742 0.9619
8.3687 -4.2289 -2.4707 0.9620
8.9830 -2.6772 -2.4699 0.9620
9.3714 -0.2088 -2.4700 0.9620
8.3216 2.8896 -2.3212 0.9642
7.6840 4.3230 -2.3232 0.9642
7.2725 4.9923 -2.3244 0.9642
6.8031 5.6229 -2.3257 0.9641
6.2795 6.2099 -2.3271 0.9641
5.0857 7.2346 -2.3302 0.9641
3.7279 8.0333 -2.3336 0.9640
3.0003 8.3396 -2.3354 0.9640
2.2479 8.5801 -2.3372 0.9640
-0.0990 8.8899 -2.3426 0.9639
-1.6762 8.7446 -2.3462 0.9638
-2.4496 8.5669 -2.3478 0.9638
-3.2046 8.3206 -2.3495 0.9638
-4.6350 7.6302 -2.3524 0.9637
-6.4962 6.1441 -2.3561 0.9637
-7.0202 5.5438 -2.3571 0.9637
-7.6122 4.9797 -2.3969 0.9631
-8.4113 4.4884 -2.5122 0.9613
-9.4531 1.2713 -2.5133 0.9613
-9.5269 -0.4248 -2.5128 0.9613
-9.2963 -2.1063 -2.5117 0.9613
-7.4639 -5.8941 -2.5060 0.9614
-6.9055 -6.5312 -2.5045 0.9614
-5.6306 -7.6419 -2.5012 0.9615
-4.9245 -8.1069 -2.4994 0.9615
-1.7803 -9.2875 -2.4918 0.9616
-0.1052 -9.4413 -2.4879 0.9617
0.7350 -9.4060 -2.4860 0.9617
1.5681 -9.2963 -2.4842 0.9618
3.1870 -8.8585 -2.4807 0.9618
3.9602 -8.5341 -2.4791 0.9618
6.0638 -7.1722 -2.4748 0.9619
7.2329 -5.9782 -2.4726 0.9619
7.7336 -5.3088 -2.4717 0.9619
8.5479 -3.8515 -2.4704 0.9620
9.3524 -0.6260 -2.4699 0.9620
9.3720 0.2088 -2.4701 0.9620
9.3179 1.0424 -2.4706 0.9620
13.8017 2.8053 -3.7111 0.9434
8.4405 2.5155 -2.3208 0.9642
8.1862 3.2580 -2.3216 0.9642
7.4857 4.6621 -2.3238 0.9642
6.5479 5.9222 -2.3264 0.9641
5.9985 6.4856 -2.3278 0.9641
4.7601 7.4565 -2.3310 0.9641
1.8642 8.6751 -2.3381 0.9640
1.0855 8.8135 -2.3399 0.9639
0.2970 8.8820 -2.3417 0.9639
-0.4951 8.8801 -2.3435 0.9639
-1.2845 8.8073 -2.3453 0.9639
-2.8298 8.4522 -2.3487 0.9638
-3.5733 8.1723 -2.3502 0.9638
-4.9717 7.4183 -2.3531 0.9637
-5.6153 6.9502 -2.3544 0.9637
-6.2147 6.4260 -2.3556 0.9637
-6.7649 5.8499 -2.3566 0.9637
-7.2615 5.2265 -2.3575 0.9637
-8.2020 4.8580 -2.5119 0.9613
-8.6039 4.1097 -2.5125 0.9613
-9.1990 2.5199 -2.5132 0.9613
-9.3872 1.6912 -2.5133 0.9613
-5.0319 -0.0000 -1.4157 0.9793
-3.9277 -0.3510 -1.1095 0.9837
-3.7284 -0.6717 -1.0659 0.9844
-3.7904 -1.0383 -1.1057 0.9838
-8.3573 -3.1123 -2.5091 0.9636
-8.0439 -3.8422 -2.5081 0.9636
-7.2284 -5.2027 -2.5058 0.9637
-6.7330 -5.8222 -2.5044 0.9637
-6.1844 -6.3946 -2.5029 0.9637
-5.5872 -6.9154 -2.5014 0.9637
-0.4925 -8.8329 -2.4891 0.9639
0.2954 -8.8353 -2.4873 0.9639
1.0799 -8.7678 -2.4855 0.9640
1.8547 -8.6309 -2.4838 0.9640
2.6138 -8.4260 -2.4822 0.9640
3.3513 -8.1547 -2.4806 0.9640
4.7384 -7.4228 -2.4777 0.9641
5.9737 -6.4587 -2.4753 0.9641
6.5221 -5.8989 -2.4743 0.9641
7.0187 -5.2930 -2.4734 0.9641
7.4597 -4.6459 -2.4726 0.9641
7.8417 -3.9626 -2.4720 0.9641
8.1618 -3.2483 -2.4716 0.9642
8.4175 -2.5087 -2.4713 0.9642
8.6069 -1.7494 -2.4711 0.9642
8.7286 -0.9764 -2.4711 0.9642
8.7815 -0.1957 -2.4713 0.9642
8.7652 0.5868 -2.4717 0.9642
8.6800 1.3649 -2.4722 0.9641
7.7972 2.7075 -2.3223 0.9663
7.5281 3.3921 -2.3232 0.9663
5.3450 6.3221 -2.3293 0.9662
3.4918 7.5246 -2.3339 0.9661
2.1053 8.0360 -2.3373 0.9661
1.3827 8.1975 -2.3390 0.9660
0.6481 8.2941 -2.3407 0.9660
-0.0927 8.3249 -2.3424 0.9660
-2.2936 8.0213 -2.3473 0.9659
-4.9604 6.7324 -2.3528 0.9658
-6.5714 5.1894 -2.3559 0.9658
-7.4662 4.8842 -2.5102 0.9636
-7.8733 4.2014 -2.5109 0.9636
-8.2177 3.4846 -2.5114 0.9636
-8.4964 2.7397 -2.5117 0.9636
-8.8482 1.1900 -2.5119 0.9636
-3.7396 -0.5029 -1.0616 0.9844
-3.7659 -0.8533 -1.0864 0.9841
-7.8631 -4.1959 -2.5076 0.9636
-6.9876 -5.5180 -2.5051 0.9637
-6.4650 -6.1146 -2.5037 0.9637
-4.6111 -7.5908 -2.4989 0.9638
-3.9144 -7.9656 -2.4972 0.9638
-3.1876 -8.2765 -2.4954 0.9638
-2.4366 -8.5212 -2.4936 0.9638
-1.6673 -8.6980 -2.4918 0.9639
-0.8858 -8.8054 -2.4900 0.9639
-0.0985 -8.8429 -2.4882 0.9639
2.9856 -8.2986 -2.4814 0.9640
3.7101 -7.9949 -2.4798 0.9640
5.0632 -7.2024 -2.4771 0.9641
5.6813 -6.7199 -2.4758 0.9641
7.2464 -4.9744 -2.4730 0.9641
7.6583 -4.3085 -2.4723 0.9641
8.0097 -3.6090 -2.4718 0.9642
8.2978 -2.8813 -2.4714 0.9642
8.5206 -2.1311 -2.4712 0.9642
8.6763 -1.3643 -2.4711 0.9642
8.7636 -0.5866 -2.4712 0.9642
8.7820 0.1957 -2.4715 0.9642
8.7312 0.9768 -2.4719 0.9642
12.9323 2.6286 -3.7130 0.9466
7.9173 2.3594 -2.3243 0.9663
7.6703 3.0527 -2.3227 0.9663
6.1344 5.5482 -2.3272 0.9662
5.6195 6.0758 -2.3285 0.9662
5.0596 6.5559 -2.3300 0.9662
4.4590 6.9848 -2.3315 0.9662
3.1542 7.6754 -2.3348 0.9661
1.7459 8.1248 -2.3381 0.9661
1.0166 8.2540 -2.3398 0.9660
-1.2028 8.2470 -2.3449 0.9660
-2.6495 7.9137 -2.3480 0.9659
-3.3455 7.6513 -2.3495 0.9659
-4.0156 7.3275 -2.3509 0.9659
-6.7972 4.8923 -2.3563 0.9658
-8.0535 3.8469 -2.5111 0.9636
-8.3654 3.1153 -2.5116 0.9636
-8.6104 2.3586 -2.5118 0.9636
-8.7865 1.5829 -2.5119 0.9636
-3.5918 -0.3210 -1.0796 0.9851
-6.3256 -5.4700 -2.5036 0.9657
-4.6476 -6.9346 -2.4992 0.9657
-3.3400 -7.6389 -2.4960 0.9658
-2.6451 -7.9005 -2.4943 0.9658
-1.9301 -8.0991 -2.4926 0.9658
-1.2008 -8.2331 -2.4909 0.9659
0.2777 -8.3042 -2.4875 0.9659
1.7433 -8.1128 -2.4843 0.9659
4.4547 -6.9782 -2.4785 0.9660
5.0557 -6.5508 -2.4773 0.9660
5.6162 -6.0722 -2.4762 0.9661
6.1320 -5.5460 -2.4753 0.9661
6.5990 -4.9766 -2.4744 0.9661
7.0138 -4.3682 -2.4737 0.9661
7.3731 -3.7257 -2.4732 0.9661
7.6741 -3.0542 -2.4727 0.9661
8.0927 -1.6449 -2.4723 0.9661
8.2071 -0.9181 -2.4724 0.9661
8.2568 -0.1840 -2.4725 0.9661
8.2414 0.5517 -2.4728 0.9661
8.1612 1.2833 -2.4733 0.9661
7.3310 2.5456 -2.3233 0.9681
6.7686 3.8079 -2.3251 0.9681
6.4057 4.3973 -2.3261 0.9681
5.9919 4.9524 -2.3273 0.9681
5.5303 5.4690 -2.3285 0.9680
3.8959 6.7479 -2.3327 0.9680
1.9787 7.5525 -2.3374 0.9679
0.6091 7.7944 -2.3406 0.9679
-1.4747 7.6938 -2.3453 0.9678
-2.1550 7.5367 -2.3468 0.9678
-2.8190 7.3194 -2.3482 0.9678
-3.4613 7.0436 -2.3495 0.9678
-4.0767 6.7111 -2.3508 0.9677
-4.6601 6.3248 -2.3520 0.9677
-5.7127 5.4030 -2.3540 0.9677
-7.0135 4.5881 -2.5091 0.9656
-7.7192 3.2733 -2.5102 0.9656
-8.3114 1.1178 -2.5107 0.9656
-4.8506 0.2163 -1.4536 0.9799
-3.6646 -0.1634 -1.0982 0.9848
-3.5144 -0.4727 -1.0616 0.9853
-7.7114 -3.2699 -2.5076 0.9656
-6.5647 -5.1841 -2.5043 0.9657
-5.5354 -6.2590 -2.5015 0.9657
-2.2898 -8.0078 -2.4935 0.9658
-0.0926 -8.3112 -2.4884 0.9659
2.8065 -7.8008 -2.4820 0.9660
4.7600 -6.7712 -2.4779 0.9660
6.8132 -4.6770 -2.4741 0.9661
7.2005 -4.0509 -2.4734 0.9661
7.5310 -3.3933 -2.4729 0.9661
8.2573 0.1840 -2.4727 0.9661
6.5937 4.1066 -2.3256 0.9681
5.7668 5.2158 -2.3279 0.9681
4.7561 6.1627 -2.3305 0.9680
4.1913 6.5656 -2.3320 0.9680
2.9647 7.2141 -2.3350 0.9680
2.3124 7.4543 -2.3366 0.9679
0.2613 7.8164 -2.3414 0.9679
-1.1302 7.7493 -2.3445 0.9678
-2.4894 7.4355 -2.3475 0.9678
-3.7727 6.8843 -2.3502 0.9678
-4.3727 6.5245 -2.3514 0.9677
-5.4652 5.6510 -2.3536 0.9677
-7.5651 3.6135 -2.5099 0.9656
-7.8579 2.9263 -2.5103 0.9656
-8.3528 0.7464 -2.5106 0.9656
-3.3867 -0.3027 -1.0798 0.9858
-3.2540 -0.8914 -1.0715 0.9859
-7.3979 -2.7550 -2.5071 0.9674
-7.1209 -3.4013 -2.5062 0.9674
-6.3996 -4.6061 -2.5041 0.9674
-5.9613 -5.1550 -2.5029 0.9675
-5.4760 -5.6622 -2.5016 0.9675
-3.1483 -7.2002 -2.4957 0.9676
-1.8194 -7.6346 -2.4925 0.9676
-1.1319 -7.7612 -2.4909 0.9676
0.2618 -7.8289 -2.4877 0.9677
0.9569 -7.7697 -2.4862 0.9677
2.3166 -7.4680 -2.4832 0.9677
2.9704 -7.2281 -2.4818 0.9677
3.6001 -6.9313 -2.4805 0.9678
4.2006 -6.5801 -2.4793 0.9678
4.7674 -6.1773 -2.4781 0.9678
5.7826 -5.2301 -2.4762 0.9678
6.9533 -3.5137 -2.4742 0.9678
7.7400 -0.8659 -2.4734 0.9678
7.7869 -0.1735 -2.4736 0.9678
7.6966 1.2102 -2.4743 0.9678
7.5601 1.8909 -2.4749 0.9678
6.9134 2.4006 -2.3242 0.9698
6.3828 3.5909 -2.3258 0.9697
6.0404 4.1465 -2.3268 0.9697
5.6500 4.6699 -2.3279 0.9697
5.2146 5.1568 -2.3291 0.9697
4.2223 6.0064 -2.3317 0.9697
3.6732 6.3621 -2.3331 0.9696
3.0942 6.6679 -2.3345 0.9696
2.4900 6.9212 -2.3360 0.9696
1.2250 7.2623 -2.3390 0.9696
-0.0822 7.3739 -2.3420 0.9695
-0.7386 7.3420 -2.3435 0.9695
-1.3900 7.2516 -2.3449 0.9695
-2.0311 7.1034 -2.3463 0.9695
-2.6568 6.8983 -2.3477 0.9695
-3.2620 6.6381 -2.3489 0.9694
-3.8419 6.3246 -2.3501 0.9694
-4.9068 5.5482 -2.3523 0.9694
-5.9198 4.6748 -2.3956 0.9688
-6.6088 4.3233 -2.5080 0.9674
-7.2736 3.0843 -2.5091 0.9674
-7.5202 2.4249 -2.5094 0.9674
-7.7066 1.7461 -2.5095 0.9674
-3.4557 -0.1541 -1.0986 0.9856
-3.3189 -0.4464 -1.0635 0.9860
-3.2591 -0.7384 -1.0613 0.9861
-3.2827 -1.0586 -1.0954 0.9856
-6.5999 -4.3175 -2.5047 0.9674
-6.1866 -4.8855 -2.5035 0.9675
-5.7243 -5.4140 -2.5023 0.9675
-3.4670 -7.0551 -2.4965 0.9675
-2.1584 -7.5484 -2.4933 0.9676
0.6101 -7.8070 -2.4869 0.9677
1.3017 -7.7170 -2.4854 0.9677
1.9822 -7.5659 -2.4839 0.9677
2.6462 -7.3553 -2.4825 0.9677
3.2886 -7.0867 -2.4811 0.9677
5.0368 -5.9575 -2.4776 0.9678
5.5449 -5.4835 -2.4766 0.9678
6.0089 -4.9664 -2.4758 0.9678
6.4252 -4.4106 -2.4751 0.9678
6.7906 -3.8203 -2.4745 0.9678
7.1023 -3.2001 -2.4740 0.9678
7.3580 -2.5550 -2.4737 0.9678
7.6937 -1.2098 -2.4734 0.9678
7.7873 0.1735 -2.4737 0.9678
7.6358 1.5521 -2.4746 0.9678
7.4693 2.2261 -2.4752 0.9678
6.2178 3.8725 -2.3263 0.9697
5.4377 4.9181 -2.3285 0.9697
4.4844 5.8107 -2.3310 0.9697
3.3871 6.5214 -2.3338 0.9696
2.7950 6.8012 -2.3352 0.9696
-0.4107 7.3653 -2.3427 0.9695
-1.0653 7.3041 -2.3442 0.9695
-1.7122 7.1847 -2.3456 0.9695
-2.3462 7.0079 -2.3470 0.9695
-2.9623 6.7750 -2.3483 0.9694
-3.5554 6.4878 -2.3495 0.9694
-4.1208 6.1487 -2.3507 0.9694
-4.6538 5.7601 -2.3518 0.9694
-5.1501 5.3252 -2.3527 0.9694
-6.7956 4.0251 -2.5084 0.9674
-7.6210 2.0876 -2.5095 0.9674
-7.8705 0.7033 -2.5095 0.9674
-3.1483 -0.5672 -1.0748 0.9866
-6.7287 -3.2141 -2.5054 0.9690
-6.4135 -3.7987 -2.5045 0.9690
-6.0475 -4.3527 -2.5034 0.9690
-5.1750 -5.3509 -2.5010 0.9691
-4.6758 -5.7872 -2.4997 0.9691
-4.1398 -6.1771 -2.4984 0.9691
-3.5716 -6.5173 -2.4969 0.9691
-2.9756 -6.8053 -2.4955 0.9691
-2.3566 -7.0389 -2.4940 0.9692
-0.4125 -7.3979 -2.4894 0.9692
0.9046 -7.3451 -2.4865 0.9693
1.5539 -7.2312 -2.4850 0.9693
2.1901 -7.0603 -2.4836 0.9693
3.4038 -6.5533 -2.4811 0.9693
3.9717 -6.2215 -2.4799 0.9693
5.0077 -5.4143 -2.4779 0.9694
5.4678 -4.9453 -2.4770 0.9694
5.8845 -4.4377 -2.4763 0.9694
6.2545 -3.8954 -2.4756 0.9694
6.5751 -3.3225 -2.4751 0.9694
6.8436 -2.7237 -2.4748 0.9694
7.3191 -0.8187 -2.4744 0.9694
7.3633 -0.1641 -2.4746 0.9694
7.2778 1.1444 -2.4753 0.9694
7.1487 1.7880 -2.4758 0.9694
6.8276 2.3708 -2.4283 0.9700
6.3111 2.8437 -2.3257 0.9712
5.3420 4.4153 -2.3285 0.9712
4.4790 5.2977 -2.3308 0.9712
3.4725 6.0146 -2.3334 0.9711
2.9251 6.3034 -2.3348 0.9711
1.7633 6.7303 -2.3376 0.9711
0.5427 6.9447 -2.3404 0.9710
-0.0776 6.9697 -2.3418 0.9710
-0.6981 6.9393 -2.3432 0.9710
-1.9196 6.7132 -2.3459 0.9710
-3.0827 6.2731 -2.3484 0.9709
-3.6305 5.9767 -2.3495 0.9709
-4.1499 5.6324 -2.3506 0.9709
-4.6367 5.2428 -2.3515 0.9709
-5.8547 4.6234 -2.5064 0.9690
-6.2446 4.0851 -2.5071 0.9690
-6.5849 3.5138 -2.5077 0.9690
-7.2817 1.6498 -2.5085 0.9690
-4.1559 0.1853 -1.3977 0.9826
-3.2675 -0.1457 -1.0989 0.9863
-3.1355 -0.7104 -1.0802 0.9865
-6.8664 -2.9116 -2.5058 0.9690
-6.5777 -3.5100 -2.5049 0.9690
-5.8463 -4.6167 -2.5029 0.9691
-5.4096 -5.1163 -2.5017 0.9691
-4.9302 -5.5747 -2.5004 0.9691
-4.4121 -5.9882 -2.4991 0.9691
-3.8595 -6.3535 -2.4977 0.9691
-2.6687 -6.9291 -2.4947 0.9692
-2.0401 -7.1348 -2.4932 0.9692
-1.3961 -7.2836 -2.4917 0.9692
0.5767 -7.3803 -2.4872 0.9692
2.5018 -6.9539 -2.4830 0.9693
3.1092 -6.7001 -2.4817 0.9693
3.6914 -6.3937 -2.4805 0.9693
5.2430 -5.1849 -2.4774 0.9694
5.6818 -4.6961 -2.4766 0.9694
6.0755 -4.1706 -2.4759 0.9694
6.4211 -3.6125 -2.4754 0.9694
7.1447 -1.7870 -2.4744 0.9694
7.2752 -1.1440 -2.4744 0.9694
7.3485 -0.4919 -2.4745 0.9694
7.3637 0.1641 -2.4747 0.9694
7.2204 1.4676 -2.4755 0.9694
7.0628 2.1050 -2.4761 0.9694
6.1793 3.1225 -2.3261 0.9712
5.5322 4.1720 -2.3280 0.9712
5.1412 4.6500 -2.3291 0.9712
4.2396 5.4935 -2.3315 0.9711
3.7359 5.8522 -2.3327 0.9711
3.2021 6.1650 -2.3341 0.9711
2.6422 6.4294 -2.3354 0.9711
2.0607 6.6430 -2.3368 0.9711
0.8512 6.9116 -2.3397 0.9710
-1.0068 6.9033 -2.3439 0.9710
-2.2173 6.6229 -2.3466 0.9710
-3.3599 6.1311 -2.3490 0.9709
-6.0557 4.3586 -2.5068 0.9690
-6.4211 3.8033 -2.5074 0.9690
-3.4902 -0.0000 -1.2376 0.9853
-3.0442 -0.5485 -1.0968 0.9870
-6.0754 -3.5984 -2.5038 0.9705
-5.7287 -4.1233 -2.5028 0.9705
-5.3367 -4.6148 -2.5017 0.9705
-3.9220 -5.8521 -2.4980 0.9705
-2.8192 -6.4477 -2.4953 0.9706
-2.2329 -6.6693 -2.4938 0.9706
-0.3909 -7.0100 -2.4895 0.9706
1.4726 -6.8527 -2.4854 0.9707
2.6615 -6.4764 -2.4828 0.9707
3.2259 -6.2109 -2.4816 0.9707
3.7642 -5.8965 -2.4805 0.9707
4.2723 -5.5358 -2.4795 0.9708
5.1825 -4.6873 -2.4778 0.9708
5.9283 -3.6921 -2.4765 0.9708
6.6903 -1.9939 -2.4754 0.9708
6.8409 -1.3905 -2.4753 0.9708
6.8983 1.0847 -2.4761 0.9708
6.7758 1.6947 -2.4766 0.9708
5.7201 3.2180 -2.3272 0.9725
4.6725 4.6207 -2.3301 0.9725
3.2907 5.6997 -2.3337 0.9725
1.6708 6.3773 -2.3376 0.9724
0.5142 6.5802 -2.3403 0.9724
-0.0736 6.6036 -2.3417 0.9724
-0.6614 6.5745 -2.3430 0.9723
-2.3787 6.1761 -2.3468 0.9723
-2.9203 5.9427 -2.3479 0.9723
-3.9312 5.3354 -2.3500 0.9723
-4.3922 4.9663 -2.3509 0.9723
-5.9150 3.8694 -2.5063 0.9704
-6.8972 1.5627 -2.5076 0.9704
-3.9464 0.1759 -1.4007 0.9834
-3.1623 -0.1410 -1.1224 0.9867
-3.0595 -0.4115 -1.0946 0.9870
-6.5042 -2.7580 -2.5051 0.9705
-6.2308 -3.3248 -2.5042 0.9705
-5.5382 -4.3735 -2.5022 0.9705
-5.1246 -4.8469 -2.5011 0.9705
-4.6707 -5.2812 -2.4999 0.9705
-4.1799 -5.6731 -2.4987 0.9705
-3.6565 -6.0194 -2.4973 0.9706
-1.9330 -6.7602 -2.4931 0.9706
-0.7030 -6.9877 -2.4902 0.9706
0.5465 -6.9936 -2.4874 0.9707
1.1662 -6.9134 -2.4860 0.9707
2.9467 -6.3499 -2.4822 0.9707
4.5138 -5.3389 -2.4790 0.9708
5.7586 -3.9530 -2.4767 0.9708
6.0863 -3.4241 -2.4762 0.9708
6.3658 -2.8683 -2.4758 0.9708
6.5951 -2.2901 -2.4755 0.9708
6.7722 -1.6938 -2.4753 0.9708
6.9654 -0.4663 -2.4754 0.9708
6.9798 0.1555 -2.4756 0.9708
6.9392 0.7763 -2.4759 0.9708
6.8438 1.3911 -2.4763 0.9708
6.6944 1.9951 -2.4769 0.9708
6.2432 2.4847 -2.3826 0.9719
5.5721 3.4704 -2.3276 0.9725
5.2432 3.9541 -2.3286 0.9725
4.4631 4.8254 -2.3307 0.9725
4.0179 5.2061 -2.3318 0.9725
3.5404 5.5460 -2.3331 0.9725
2.5038 6.0925 -2.3356 0.9724
1.9527 6.2947 -2.3370 0.9724
1.3854 6.4473 -2.3383 0.9724
-0.3678 6.5956 -2.3423 0.9724
-0.9539 6.5404 -2.3437 0.9723
-4.6098 4.7666 -2.3513 0.9722
-5.7361 4.1286 -2.5060 0.9705
-6.3799 3.0474 -2.5070 0.9704
-6.6267 2.4678 -2.5074 0.9704
-6.8206 1.8684 -2.5076 0.9704
-7.0438 0.6295 -2.5076 0.9704
-2.9938 -0.2675 -1.1224 0.9872
-2.9455 -0.5307 -1.1176 0.9873
-3.7238 -5.5563 -2.4977 0.9718
-2.1202 -6.3327 -2.4937 0.9719
-0.3712 -6.6569 -2.4896 0.9719
0.2227 -6.6599 -2.4883 0.9719
1.3985 -6.5080 -2.4857 0.9720
3.0638 -5.8989 -2.4821 0.9720
3.5752 -5.6004 -2.4811 0.9720
4.5082 -4.8742 -2.4792 0.9720
4.9226 -4.4522 -2.4785 0.9721
5.2979 -3.9953 -2.4778 0.9721
5.9199 -2.9914 -2.4767 0.9721
6.4981 -1.3208 -2.4761 0.9721
6.5899 -0.7372 -2.4761 0.9721
6.6298 -0.1477 -2.4762 0.9721
6.5526 1.0303 -2.4769 0.9721
6.4361 1.6098 -2.4774 0.9721
6.2688 2.1768 -2.4780 0.9721
5.7331 2.5832 -2.3481 0.9735
5.4331 3.0566 -2.3278 0.9737
4.4378 4.3886 -2.3306 0.9737
4.0314 4.7684 -2.3316 0.9737
3.5927 5.1108 -2.3328 0.9737
2.6324 5.6726 -2.3352 0.9737
2.1182 5.8875 -2.3364 0.9736
1.0419 6.1766 -2.3390 0.9736
0.4883 6.2483 -2.3403 0.9736
-0.0699 6.2703 -2.3415 0.9736
-1.1817 6.1651 -2.3440 0.9736
-1.7267 6.0386 -2.3452 0.9735
-2.2584 5.8637 -2.3464 0.9735
-3.2652 5.3752 -2.3485 0.9735
-3.7321 5.0653 -2.3494 0.9735
-4.7069 4.4518 -2.4192 0.9727
-6.1796 2.6204 -2.5064 0.9717
-6.5473 1.4834 -2.5068 0.9717
-6.6534 0.8948 -2.5068 0.9717
-3.7910 0.1690 -1.4170 0.9839
-3.0832 -0.1375 -1.1525 0.9869
-2.9106 -0.9386 -1.1419 0.9870
-6.1746 -2.6183 -2.5044 0.9718
-5.2578 -4.1521 -2.5017 0.9718
-4.8653 -4.6016 -2.5006 0.9718
-3.9686 -5.3862 -2.4983 0.9718
-3.4717 -5.7152 -2.4970 0.9719
-2.9477 -5.9984 -2.4957 0.9719
-1.8355 -6.4191 -2.4930 0.9719
-0.0742 -6.6650 -2.4889 0.9719
0.5190 -6.6416 -2.4876 0.9720
1.1075 -6.5656 -2.4863 0.9720
1.6866 -6.4377 -2.4850 0.9720
2.7986 -6.0309 -2.4827 0.9720
3.3229 -5.7553 -2.4816 0.9720
3.8204 -5.4345 -2.4806 0.9720
4.2873 -5.0710 -2.4797 0.9720
4.7201 -4.6678 -2.4788 0.9721
5.4699 -3.7549 -2.4775 0.9721
5.7812 -3.2524 -2.4770 0.9721
6.4329 -1.6089 -2.4761 0.9721
6.5505 -1.0300 -2.4761 0.9721
6.6301 0.1478 -2.4764 0.9721
6.1665 2.4542 -2.4783 0.9721
5.2925 3.2962 -2.3282 0.9737
4.6279 4.1857 -2.3301 0.9737
2.3777 5.7858 -2.3358 0.9736
1.8543 5.9777 -2.3371 0.9736
1.3156 6.1223 -2.3383 0.9736
-0.3492 6.2627 -2.3422 0.9736
-1.4556 6.1079 -2.3446 0.9735
-2.5179 5.7587 -2.3469 0.9735
-5.0735 4.3872 -2.5046 0.9718
-6.0563 2.8929 -2.5062 0.9717
-6.2905 2.3426 -2.5066 0.9717
-6.6070 1.1903 -2.5068 0.9717
-4.2614 0.3808 -1.5976 0.9819
-3.2641 -0.0000 -1.2811 0.9861
-2.9005 -0.2592 -1.1429 0.9876
-2.8518 -0.5138 -1.1373 0.9876
-2.8528 -1.0624 -1.1947 0.9870
-5.4863 -3.2496 -2.5026 0.9730
-4.8196 -4.1677 -2.5007 0.9730
-4.4277 -4.5782 -2.4996 0.9730
-3.5425 -5.2858 -2.4974 0.9730
-3.0565 -5.5775 -2.4961 0.9730
-2.5467 -5.8244 -2.4949 0.9731
-2.0171 -6.0249 -2.4936 0.9731
-1.4721 -6.1773 -2.4923 0.9731
-0.3532 -6.3338 -2.4897 0.9731
0.2119 -6.3369 -2.4884 0.9731
0.7747 -6.2897 -2.4872 0.9731
1.8757 -6.0468 -2.4848 0.9732
3.4023 -5.3296 -2.4816 0.9732
4.6847 -4.2371 -2.4791 0.9732
5.0419 -3.8023 -2.4784 0.9732
5.8643 -2.3339 -2.4771 0.9732
6.1844 -1.2570 -2.4768 0.9732
6.2718 -0.7016 -2.4768 0.9732
6.2977 0.4216 -2.4772 0.9732
6.1253 1.5321 -2.4780 0.9732
4.5761 3.7822 -2.3300 0.9748
3.8362 4.5375 -2.3320 0.9748
3.4187 4.8632 -2.3331 0.9748
-0.0665 5.9655 -2.3414 0.9747
-1.6426 5.7445 -2.3449 0.9747
-2.6375 5.3671 -2.3470 0.9746
-3.1060 5.1131 -2.3480 0.9746
-3.5501 4.8182 -2.3489 0.9746
-3.9753 4.4950 -2.3551 0.9745
-5.0076 3.9545 -2.5043 0.9730
-5.3409 3.4939 -2.5048 0.9729
-6.3284 0.8511 -2.5061 0.9729
-2.8734 -0.3864 -1.1379 0.9876
-4.6282 -4.3773 -2.5002 0.9730
-4.2184 -4.7698 -2.4991 0.9730
-3.7754 -5.1240 -2.4980 0.9730
-3.3028 -5.4371 -2.4968 0.9730
-2.8043 -5.7066 -2.4955 0.9730
-2.2841 -5.9306 -2.4943 0.9731
1.0538 -6.2473 -2.4865 0.9731
1.6049 -6.1258 -2.4853 0.9732
2.1428 -5.9559 -2.4842 0.9732
2.6632 -5.7390 -2.4831 0.9732
3.1621 -5.4769 -2.4821 0.9732
3.6356 -5.1717 -2.4811 0.9732
4.0801 -4.8259 -2.4802 0.9732
5.9621 -2.0702 -2.4770 0.9732
6.1223 -1.5313 -2.4769 0.9732
6.2969 -0.4215 -2.4769 0.9732
6.1868 1.2575 -2.4778 0.9732
6.0516 1.8036 -2.4783 0.9732
5.2972 2.6768 -2.3293 0.9748
5.0366 3.1368 -2.3287 0.9748
4.4039 3.9831 -2.3305 0.9748
4.0337 4.3612 -2.3315 0.9748
3.1994 5.0119 -2.3336 0.9748
2.7420 5.2793 -2.3348 0.9748
2.2624 5.5052 -2.3359 0.9747
1.2517 5.8251 -2.3384 0.9747
0.7287 5.9165 -2.3396 0.9747
0.1993 5.9610 -2.3408 0.9747
-0.3322 5.9581 -2.3420 0.9747
-1.3847 5.8106 -2.3444 0.9747
-3.7619 4.6562 -2.3493 0.9746
-4.8259 4.1731 -2.5039 0.9730
-5.1794 3.7279 -2.5046 0.9730
-5.4918 3.2529 -2.5051 0.9729
-5.7605 2.7516 -2.5055 0.9729
-5.9833 2.2282 -2.5058 0.9729
-6.1583 1.6869 -2.5060 0.9729
-2.7695 -0.7587 -1.1825 0.9877
-2.7842 -1.0369 -1.2234 0.9872
-5.4844 -2.6197 -2.5028 0.9741
-4.2194 -4.3628 -2.4993 0.9741
-3.8127 -4.7190 -2.4982 0.9741
-3.3760 -5.0374 -2.4971 0.9741
-2.9129 -5.3154 -2.4959 0.9741
-2.4271 -5.5509 -2.4947 0.9741
-1.4031 -5.8875 -2.4923 0.9742
-0.8730 -5.9860 -2.4910 0.9742
-0.3366 -6.0370 -2.4898 0.9742
0.2019 -6.0400 -2.4886 0.9742
2.2929 -5.5795 -2.4840 0.9742
2.7793 -5.3511 -2.4830 0.9743
3.2433 -5.0806 -2.4820 0.9743
3.6813 -4.7700 -2.4811 0.9743
4.0900 -4.4220 -2.4804 0.9743
4.4661 -4.0393 -2.4796 0.9743
4.8067 -3.6249 -2.4790 0.9743
5.3712 -2.7142 -2.4781 0.9743
5.7661 -1.7185 -2.4776 0.9743
5.9793 -0.6689 -2.4775 0.9743
6.0154 -0.1340 -2.4776 0.9743
6.0040 0.4020 -2.4779 0.9743
5.6876 1.9749 -2.4792 0.9743
4.9291 2.7730 -2.3288 0.9758
4.0256 3.9810 -2.3314 0.9758
3.6568 4.3253 -2.3323 0.9758
3.2588 4.6357 -2.3333 0.9758
2.3874 5.1448 -2.3355 0.9758
1.9210 5.3395 -2.3367 0.9758
1.4388 5.4920 -2.3378 0.9757
0.9448 5.6010 -2.3390 0.9757
0.4427 5.6657 -2.3401 0.9757
-0.5694 5.6600 -2.3424 0.9757
-1.0714 5.5895 -2.3436 0.9757
-1.5654 5.4745 -2.3446 0.9757
-2.5134 5.1146 -2.3466 0.9756
-3.3829 4.5914 -2.3484 0.9756
-4.7716 3.7681 -2.5037 0.9740
-5.0892 3.3292 -2.5042 0.9740
-5.7903 1.8671 -2.5052 0.9740
-3.5093 0.1565 -1.4465 0.9849
-2.9337 -0.1308 -1.2093 0.9874
-2.7756 -0.6289 -1.1719 0.9878
-2.8016 -1.1880 -1.2531 0.9869
-5.0839 -3.3258 -2.5016 0.9741
-4.4104 -4.1714 -2.4998 0.9741
-4.0200 -4.5455 -2.4987 0.9741
-2.1769 -5.6522 -2.4941 0.9741
-1.6644 -5.8206 -2.4929 0.9742
-1.1391 -5.9427 -2.4916 0.9742
-0.6054 -6.0175 -2.4904 0.9742
-0.0673 -6.0445 -2.4892 0.9742
0.4707 -6.0236 -2.4880 0.9742
2.0425 -5.6773 -2.4845 0.9742
3.0143 -5.2209 -2.4825 0.9743
4.2823 -4.2348 -2.4800 0.9743
4.9628 -3.4068 -2.4788 0.9743
5.4864 -2.4721 -2.4779 0.9743
5.8368 -1.4599 -2.4775 0.9743
6.0033 -0.4019 -2.4776 0.9743
6.0156 0.1341 -2.4777 0.9743
5.9805 0.6690 -2.4780 0.9743
5.8982 1.1988 -2.4784 0.9743
5.5946 2.2266 -2.4795 0.9743
5.2544 2.6552 -2.4242 0.9749
3.4613 4.4849 -2.3328 0.9758
3.0497 4.7773 -2.3339 0.9758
2.6136 5.0321 -2.3350 0.9758
2.1564 5.2473 -2.3361 0.9758
1.1931 5.5520 -2.3384 0.9757
-0.3166 5.6784 -2.3419 0.9757
-0.8212 5.6304 -2.3430 0.9757
-1.3196 5.5375 -2.3441 0.9757
-1.8081 5.4005 -2.3452 0.9757
-2.2826 5.2204 -2.3462 0.9757
-4.5985 3.9765 -2.5033 0.9740
-4.9353 3.5522 -2.5039 0.9740
-5.2329 3.0995 -2.5044 0.9740
-5.4889 2.6219 -2.5048 0.9740
-5.8679 1.6074 -2.5053 0.9740
-5.9878 1.0788 -2.5054 0.9740
-3.9772 0.3554 -1.6443 0.9829
-2.7539 -0.2461 -1.1927 0.9880
-4.3836 -3.7907 -2.4999 0.9751
-3.6392 -4.5043 -2.4979 0.9751
-0.3213 -5.7632 -2.4899 0.9752
0.1928 -5.7662 -2.4887 0.9752
0.7049 -5.7235 -2.4875 0.9752
1.2110 -5.6355 -2.4864 0.9752
1.7070 -5.5030 -2.4853 0.9752
2.1892 -5.3270 -2.4843 0.9752
2.6536 -5.1090 -2.4834 0.9752
3.0966 -4.8508 -2.4824 0.9752
3.5149 -4.5544 -2.4816 0.9752
4.2643 -3.8568 -2.4802 0.9753
4.8784 -3.0383 -2.4791 0.9753
5.1287 -2.5916 -2.4787 0.9753
5.5058 -1.6409 -2.4782 0.9753
5.7438 -0.1280 -2.4783 0.9753
5.7329 0.3838 -2.4785 0.9753
5.5758 1.3946 -2.4792 0.9753
5.4306 1.8857 -2.4797 0.9753
4.8547 2.7313 -2.4028 0.9760
4.4533 3.0570 -2.3300 0.9767
4.1650 3.4425 -2.3308 0.9767
3.4913 4.1296 -2.3326 0.9767
3.1112 4.4258 -2.3336 0.9767
2.7061 4.6872 -2.3346 0.9767
2.2793 4.9117 -2.3357 0.9767
1.3736 5.2429 -2.3379 0.9767
0.4226 5.4085 -2.3401 0.9766
-0.0605 5.4272 -2.3412 0.9766
-1.0227 5.3354 -2.3433 0.9766
-2.8250 4.6506 -2.3472 0.9766
-3.2288 4.3822 -2.3480 0.9766
-3.7825 4.2769 -2.4629 0.9754
-4.5541 3.5963 -2.5031 0.9750
-4.8571 3.1774 -2.5036 0.9750
-5.1215 2.7329 -2.5041 0.9750
-5.3451 2.2665 -2.5044 0.9750
-5.5261 1.7820 -2.5046 0.9750
-3.3811 0.1507 -1.4599 0.9854
-2.8614 -0.1276 -1.2355 0.9876
-2.7402 -0.3685 -1.1926 0.9880
-2.7166 -0.8760 -1.2313 0.9876
-2.7334 -1.1591 -1.2807 0.9871
-5.1171 -2.7306 -2.5019 0.9750
-4.8523 -3.1742 -2.5012 0.9751
-4.5490 -3.5923 -2.5003 0.9751
-4.2096 -3.9814 -2.4994 0.9751
-2.5511 -5.1914 -2.4951 0.9751
-2.0780 -5.3954 -2.4940 0.9751
-1.5888 -5.5563 -2.4928 0.9751
-1.0874 -5.6730 -2.4916 0.9752
0.4494 -5.7505 -2.4881 0.9752
1.9501 -5.4204 -2.4848 0.9752
2.4238 -5.2232 -2.4838 0.9752
2.8780 -4.9848 -2.4829 0.9752
3.3091 -4.7072 -2.4820 0.9752
3.7137 -4.3926 -2.4812 0.9753
4.0888 -4.0435 -2.4805 0.9753
4.7387 -3.2529 -2.4793 0.9753
5.4275 -1.8846 -2.4783 0.9753
5.5733 -1.3940 -2.4782 0.9753
5.6752 -0.8924 -2.4781 0.9753
5.7323 -0.3837 -2.4782 0.9753
5.7441 0.1280 -2.4784 0.9753
5.6318 1.1447 -2.4790 0.9753
5.1328 2.5937 -2.4807 0.9753
4.5843 2.8552 -2.3296 0.9767
4.3134 3.2529 -2.3304 0.9767
4.0082 3.6252 -2.3313 0.9767
3.3046 4.2819 -2.3331 0.9767
2.4952 4.8041 -2.3351 0.9767
1.6054 5.1752 -2.3373 0.9767
1.1389 5.3001 -2.3384 0.9767
0.1813 5.4232 -2.3406 0.9766
-0.3022 5.4204 -2.3417 0.9766
-0.7838 5.3744 -2.3428 0.9766
-1.2596 5.2857 -2.3439 0.9766
-2.1787 4.9828 -2.3458 0.9766
-3.4278 4.2427 -2.3528 0.9765
-4.3888 3.7952 -2.5028 0.9750
-4.9943 2.9581 -2.5039 0.9750
-5.2385 2.5022 -2.5042 0.9750
-2.7005 -0.2413 -1.2234 0.9882
-2.6666 -1.2737 -1.3334 0.9871
-2.6867 -1.5914 -1.4090 0.9864
-4.1901 -3.6233 -2.4995 0.9760
-3.0804 -4.5962 -2.4966 0.9760
-1.7543 -5.2398 -2.4933 0.9760
-1.2804 -5.3728 -2.4922 0.9761
-0.3072 -5.5096 -2.4899 0.9761
0.1843 -5.5127 -2.4888 0.9761
0.6740 -5.4720 -2.4877 0.9761
1.1578 -5.3879 -2.4866 0.9761
1.6321 -5.2613 -2.4856 0.9761
2.5371 -4.8849 -2.4837 0.9761
3.3608 -4.3547 -2.4820 0.9761
4.3885 -3.3095 -2.4801 0.9762
4.6647 -2.9052 -2.4796 0.9762
5.1046 -2.0315 -2.4790 0.9762
5.3833 -1.0942 -2.4787 0.9762
5.4819 0.3670 -2.4790 0.9762
5.0128 2.2587 -2.4808 0.9762
3.9823 3.2915 -2.3312 0.9776
3.6748 3.6342 -2.3320 0.9776
2.9746 4.2314 -2.3338 0.9776
2.5873 4.4812 -2.3348 0.9775
0.8622 5.1115 -2.3390 0.9775
0.4040 5.1703 -2.3400 0.9775
-0.0578 5.1881 -2.3411 0.9775
-1.8679 4.8499 -2.3451 0.9775
-2.2931 4.6662 -2.3460 0.9774
-2.7002 4.4452 -2.3468 0.9774
-3.0863 4.1887 -2.3476 0.9774
-3.6724 4.1525 -2.5013 0.9760
-4.8950 2.6121 -2.5035 0.9759
-5.1087 2.1663 -2.5038 0.9759
-5.4125 1.2263 -2.5041 0.9759
-2.7833 -0.1241 -1.2571 0.9878
-2.6871 -0.3614 -1.2234 0.9882
-2.6675 -1.1312 -1.3074 0.9874
-4.6379 -3.0340 -2.5007 0.9760
-4.3481 -3.4337 -2.4999 0.9760
-3.6677 -4.1471 -2.4981 0.9760
-3.2827 -4.4554 -2.4971 0.9760
-2.8720 -4.7279 -2.4961 0.9760
-2.4387 -4.9626 -2.4950 0.9760
-1.9864 -5.1577 -2.4939 0.9760
0.9168 -5.4354 -2.4872 0.9761
1.8645 -5.1824 -2.4851 0.9761
2.3175 -4.9939 -2.4842 0.9761
2.7517 -4.7662 -2.4833 0.9761
3.1640 -4.5008 -2.4824 0.9761
3.5509 -4.2000 -2.4817 0.9762
4.5311 -3.1104 -2.4799 0.9762
4.7891 -2.6943 -2.4794 0.9762
5.0092 -2.2571 -2.4791 0.9762
5.1898 -1.8021 -2.4789 0.9762
5.4925 0.1224 -2.4789 0.9762
5.4604 0.6109 -2.4792 0.9762
4.9078 2.4800 -2.4812 0.9762
4.1243 3.1102 -2.3308 0.9776
3.8324 3.4662 -2.3316 0.9776
3.5100 3.7949 -2.3325 0.9776
3.1595 4.0939 -2.3334 0.9776
2.7837 4.3606 -2.3343 0.9776
2.3856 4.5930 -2.3353 0.9775
1.9682 4.7892 -2.3363 0.9775
0.6338 5.1460 -2.3395 0.9775
0.1733 5.1843 -2.3406 0.9775
-0.2889 5.1815 -2.3416 0.9775
-3.8543 3.9854 -2.5017 0.9760
-4.1948 3.6274 -2.5023 0.9760
-4.5020 3.2404 -2.5028 0.9760
-5.2004 1.9367 -2.5039 0.9759
-5.3524 1.4662 -2.5041 0.9759
-2.6016 -0.7127 -1.2715 0.9881
-2.6052 -1.2444 -1.3609 0.9873
-2.6596 -1.5753 -1.4571 0.9864
-4.3044 -3.0981 -2.4999 0.9768
-4.0103 -3.4679 -2.4991 0.9768
-3.3295 -4.1210 -2.4973 0.9768
-2.5441 -4.6423 -2.4953 0.9769
-1.6792 -5.0156 -2.4932 0.9769
-0.7627 -5.2293 -2.4911 0.9769
-0.2941 -5.2742 -2.4900 0.9769
0.1764 -5.2771 -2.4889 0.9769
0.6452 -5.2383 -2.4879 0.9769
1.1084 -5.1579 -2.4868 0.9769
2.4290 -4.6766 -2.4840 0.9770
3.2176 -4.1691 -2.4824 0.9770
3.5749 -3.8651 -2.4817 0.9770
4.2016 -3.1686 -2.4806 0.9770
4.6953 -2.3726 -2.4798 0.9770
4.8873 -1.9451 -2.4795 0.9770
5.2485 0.3514 -2.4796 0.9770
4.9716 1.7263 -2.4807 0.9770
4.7993 2.1625 -2.4813 0.9770
4.1655 2.8595 -2.3816 0.9779
3.1957 3.7799 -2.3332 0.9783
2.8476 4.0508 -2.3341 0.9783
2.4768 4.2899 -2.3350 0.9783
1.2570 4.7979 -2.3380 0.9783
0.8253 4.8929 -2.3390 0.9783
0.3867 4.9491 -2.3400 0.9783
-0.0553 4.9660 -2.3410 0.9783
-0.9357 4.8816 -2.3430 0.9783
-1.3670 4.7809 -2.3439 0.9783
-2.1947 4.4661 -2.3457 0.9782
-3.0596 4.1525 -2.4313 0.9774
-3.5148 3.9742 -2.5009 0.9768
-3.8556 3.6466 -2.5015 0.9768
-4.1658 3.2897 -2.5021 0.9768
-4.4429 2.9064 -2.5026 0.9768
-4.8892 2.0732 -2.5033 0.9768
-5.0547 1.6299 -2.5035 0.9768
-5.1799 1.1736 -2.5036 0.9768
-2.6131 -0.5921 -1.2630 0.9882
-2.5994 -0.8382 -1.2874 0.9880
-2.6038 -1.1041 -1.3332 0.9876
-2.5902 -1.3822 -1.3839 0.9871
-3.8512 -3.6424 -2.4987 0.9768
-2.7489 -4.5253 -2.4959 0.9769
-2.3342 -4.7500 -2.4948 0.9769
-1.9014 -4.9369 -2.4938 0.9769
-1.4538 -5.0844 -2.4927 0.9769
-0.5289 -5.2570 -2.4905 0.9769
0.4113 -5.2629 -2.4884 0.9769
2.2186 -4.7810 -2.4845 0.9770
2.6344 -4.5629 -2.4836 0.9770
3.3996 -4.0211 -2.4821 0.9770
4.0567 -3.3529 -2.4808 0.9770
4.5852 -2.5796 -2.4799 0.9770
5.1025 -1.2762 -2.4793 0.9770
5.1957 -0.8170 -2.4792 0.9770
5.2480 -0.3513 -2.4793 0.9770
5.1559 1.0480 -2.4800 0.9770
5.0430 1.5030 -2.4805 0.9770
4.8902 1.9463 -2.4810 0.9770
4.4700 2.7839 -2.4823 0.9770
3.3602 3.6331 -2.3327 0.9784
3.0247 3.9192 -2.3336 0.9783
1.0423 4.8502 -2.3385 0.9783
0.6067 4.9259 -2.3395 0.9783
0.1659 4.9625 -2.3405 0.9783
-0.2765 4.9597 -2.3415 0.9783
-1.1525 4.8361 -2.3434 0.9783
-1.5790 4.7162 -2.3444 0.9782
-1.9932 4.5586 -2.3453 0.9782
-3.3338 4.1263 -2.5005 0.9768
-3.6888 3.8142 -2.5012 0.9768
-4.0146 3.4716 -2.5018 0.9768
-4.3086 3.1012 -2.5023 0.9768
-5.1224 1.4032 -2.5035 0.9768
-3.7077 0.3313 -1.7547 0.9837
-2.5499 -0.6985 -1.3004 0.9883
-2.5457 -1.2160 -1.3876 0.9875
-4.3738 -2.5906 -2.5003 0.9776
-4.1246 -2.9687 -2.4996 0.9776
-3.8428 -3.3230 -2.4988 0.9776
-3.1906 -3.9490 -2.4971 0.9776
-2.8254 -4.2158 -2.4961 0.9776
-2.4380 -4.4488 -2.4952 0.9776
-0.7309 -5.0116 -2.4911 0.9777
-0.2818 -5.0547 -2.4900 0.9777
0.1691 -5.0576 -2.4890 0.9777
0.6183 -5.0205 -2.4880 0.9777
1.9206 -4.6735 -2.4852 0.9777
2.3281 -4.4824 -2.4843 0.9777
2.7170 -4.2560 -2.4835 0.9777
3.4266 -3.7048 -2.4821 0.9778
3.7419 -3.3843 -2.4815 0.9778
4.5007 -2.2743 -2.4803 0.9778
4.9406 -1.0042 -2.4797 0.9778
5.0104 -0.5605 -2.4798 0.9778
4.9816 0.7834 -2.4803 0.9778
4.8929 1.2238 -2.4807 0.9778
4.7654 1.6547 -2.4812 0.9778
4.6002 2.0728 -2.4817 0.9778
4.1456 2.8458 -2.4732 0.9778
3.6543 3.0203 -2.3318 0.9791
3.3721 3.3347 -2.3326 0.9791
3.0629 3.6228 -2.3334 0.9791
1.9993 4.3083 -2.3361 0.9791
1.6085 4.4709 -2.3370 0.9790
0.7910 4.6892 -2.3390 0.9790
-0.0530 4.7591 -2.3409 0.9790
-0.4766 4.7374 -2.3419 0.9790
-1.3100 4.5814 -2.3437 0.9790
-2.1031 4.2796 -2.3454 0.9790
-3.9916 3.1521 -2.5016 0.9776
-4.2571 2.7849 -2.5021 0.9776
-4.8433 1.5618 -2.5030 0.9776
-5.0437 0.6783 -2.5031 0.9776
-2.6467 -0.1180 -1.3031 0.9883
-2.5845 -0.3476 -1.2826 0.9884
-2.5430 -0.8200 -1.3142 0.9882
-2.5301 -1.3501 -1.4105 0.9873
-4.2534 -2.7825 -2.4999 0.9776
-3.9877 -3.1491 -2.4992 0.9776
-2.6343 -4.3366 -2.4957 0.9776
-2.2369 -4.5520 -2.4947 0.9776
-0.5068 -5.0382 -2.4906 0.9777
-0.0564 -5.0612 -2.4895 0.9777
1.2812 -4.8904 -2.4866 0.9777
2.1265 -4.5824 -2.4848 0.9777
2.5251 -4.3735 -2.4839 0.9777
2.9034 -4.1302 -2.4832 0.9777
3.2586 -3.8543 -2.4825 0.9778
3.8885 -3.2139 -2.4813 0.9778
4.3952 -2.4727 -2.4804 0.9778
4.5973 -2.0714 -2.4801 0.9778
4.7630 -1.6539 -2.4799 0.9778
4.8910 -1.2233 -2.4798 0.9778
5.0305 -0.3367 -2.4798 0.9778
5.0408 0.1123 -2.4799 0.9778
5.0113 0.5606 -2.4802 0.9778
4.6875 1.8656 -2.4814 0.9778
4.5039 2.2759 -2.4820 0.9778
3.8641 2.9140 -2.3804 0.9787
3.5167 3.1806 -2.3322 0.9791
3.2207 3.4822 -2.3330 0.9791
2.8990 3.7564 -2.3338 0.9791
2.5541 4.0010 -2.3347 0.9791
2.1888 4.2141 -2.3356 0.9791
1.4080 4.5391 -2.3375 0.9790
0.9989 4.6483 -2.3385 0.9790
0.5814 4.7208 -2.3395 0.9790
-1.1044 4.6344 -2.3433 0.9790
-1.5131 4.5194 -2.3441 0.9790
-1.9100 4.3684 -2.3450 0.9790
-2.2920 4.1824 -2.3458 0.9790
-2.7458 4.0970 -2.4258 0.9783
-3.5347 3.6548 -2.5008 0.9776
-3.8468 3.3265 -2.5014 0.9776
-4.1285 2.9715 -2.5019 0.9776
-4.7687 1.7759 -2.5029 0.9776
-5.0084 0.9023 -2.5031 0.9776
-2.7481 -0.0000 -1.4089 0.9877
-2.5199 -0.4540 -1.3126 0.9886
-2.4895 -0.9271 -1.3619 0.9881
-2.4521 -1.4524 -1.4611 0.9873
-3.3869 -3.5021 -2.4977 0.9783
-2.3388 -4.2679 -2.4950 0.9784
-1.9490 -4.4574 -2.4941 0.9784
-1.5439 -4.6113 -2.4931 0.9784
-1.1269 -4.7286 -2.4921 0.9784
-0.7012 -4.8082 -2.4911 0.9784
-0.2704 -4.8496 -2.4901 0.9784
1.0193 -4.7432 -2.4872 0.9784
1.4369 -4.6319 -2.4863 0.9784
2.2339 -4.3009 -2.4846 0.9785
2.6070 -4.0838 -2.4839 0.9785
3.2880 -3.5549 -2.4825 0.9785
3.5905 -3.2474 -2.4819 0.9785
3.8645 -2.9143 -2.4814 0.9785
4.1079 -2.5584 -2.4810 0.9785
4.3187 -2.1823 -2.4807 0.9785
4.4954 -1.7891 -2.4805 0.9785
4.6365 -1.3818 -2.4803 0.9785
4.7409 -0.9636 -2.4802 0.9785
4.8079 -0.5378 -2.4802 0.9785
4.8369 -0.1078 -2.4803 0.9785
4.7802 0.7517 -2.4808 0.9785
4.5727 1.5878 -2.4816 0.9785
4.4141 1.9889 -2.4821 0.9785
4.2206 2.3745 -2.4827 0.9785
3.2355 3.1997 -2.3328 0.9798
2.9388 3.4761 -2.3336 0.9797
-0.0509 4.5657 -2.3408 0.9797
-0.4572 4.5449 -2.3418 0.9797
-0.8602 4.4878 -2.3426 0.9797
-1.6435 4.2673 -2.3443 0.9797
-2.4570 4.0449 -2.4263 0.9790
-2.8920 3.9251 -2.4994 0.9783
-4.3057 2.2976 -2.5020 0.9783
-4.6457 1.4981 -2.5025 0.9783
-2.9775 0.1327 -1.5280 0.9867
-2.5350 -0.3410 -1.3113 0.9886
-2.5113 -0.5690 -1.3201 0.9885
-2.4881 -0.8023 -1.3403 0.9883
-2.4879 -1.0550 -1.3854 0.9879
-2.4717 -1.3190 -1.4363 0.9875
-3.5402 -3.3482 -2.4981 0.9783
-3.2270 -3.6488 -2.4973 0.9783
-2.8884 -3.9202 -2.4964 0.9783
-2.5271 -4.1602 -2.4955 0.9784
-1.7481 -4.5389 -2.4936 0.9784
-1.3367 -4.6746 -2.4926 0.9784
1.2293 -4.6922 -2.4867 0.9784
1.6415 -4.5626 -2.4859 0.9784
2.0404 -4.3969 -2.4850 0.9784
2.4228 -4.1965 -2.4842 0.9785
2.7859 -3.9630 -2.4835 0.9785
3.1267 -3.6983 -2.4828 0.9785
3.7312 -3.0839 -2.4817 0.9785
4.2175 -2.3727 -2.4809 0.9785
4.4114 -1.9877 -2.4806 0.9785
4.6933 -1.1738 -2.4802 0.9785
4.7791 -0.7514 -2.4802 0.9785
4.8370 0.1078 -2.4804 0.9785
4.8087 0.5379 -2.4806 0.9785
4.7423 0.9639 -2.4810 0.9785
4.6384 1.3824 -2.4814 0.9785
4.1112 2.5605 -2.4830 0.9785
3.8462 2.9004 -2.4696 0.9786
2.7816 3.6042 -2.3340 0.9797
2.1000 4.0432 -2.3358 0.9797
0.9583 4.4596 -2.3385 0.9797
0.5578 4.5290 -2.3394 0.9797
-0.2542 4.5598 -2.3413 0.9797
-1.4515 4.3355 -2.3439 0.9797
-1.8323 4.1905 -2.3447 0.9797
-2.2038 4.0215 -2.3510 0.9796
-3.0643 3.7928 -2.4998 0.9783
-3.3906 3.5059 -2.5004 0.9783
-3.6900 3.1909 -2.5010 0.9783
-4.1988 2.4870 -2.5019 0.9783
-4.4041 2.1037 -2.5022 0.9783
-4.5742 1.7035 -2.5024 0.9783
-4.8042 0.8655 -2.5026 0.9783
-2.4716 -0.4453 -1.3407 0.9887
-2.4501 -0.6712 -1.3561 0.9885
-2.4292 -1.1603 -1.4371 0.9879
-2.3944 -1.4182 -1.4856 0.9875
-3.7992 -2.7345 -2.4989 0.9790
-2.9391 -3.6377 -2.4966 0.9790
-1.8716 -4.2804 -2.4940 0.9790
-1.4826 -4.4283 -2.4930 0.9790
-1.0822 -4.5410 -2.4921 0.9791
-0.6734 -4.6175 -2.4911 0.9791
-0.2597 -4.6573 -2.4901 0.9791
0.5698 -4.6261 -2.4883 0.9791
1.7699 -4.3067 -2.4857 0.9791
2.1455 -4.1307 -2.4849 0.9791
2.8423 -3.6828 -2.4835 0.9791
3.1580 -3.4144 -2.4829 0.9791
3.7118 -2.7992 -2.4818 0.9791
4.4533 -1.3272 -2.4807 0.9791
4.6370 0.3104 -2.4809 0.9791
4.5914 0.7220 -2.4812 0.9791
4.3920 1.5251 -2.4820 0.9791
4.2397 1.9103 -2.4825 0.9791
4.0538 2.2806 -2.4830 0.9791
2.5150 3.5777 -2.3346 0.9804
1.4821 4.1196 -2.3372 0.9803
1.1100 4.2367 -2.3381 0.9803
0.3415 4.3698 -2.3399 0.9803
-0.0488 4.3845 -2.3408 0.9803
-0.4391 4.3644 -2.3416 0.9803
-1.5782 4.0976 -2.3441 0.9803
-2.4298 3.9999 -2.4984 0.9790
-3.1021 3.5076 -2.4998 0.9790
-3.4028 3.2183 -2.5003 0.9790
-4.4607 1.4384 -2.5020 0.9790
-4.5712 1.0357 -2.5021 0.9790
-4.6452 0.6247 -2.5022 0.9790
-2.5303 -0.1129 -1.3521 0.9886
-2.4353 -0.7853 -1.3660 0.9885
-2.4151 -1.2887 -1.4613 0.9877
-2.4322 -1.5911 -1.5516 0.9869
-3.6731 -2.9006 -2.4986 0.9790
-3.3994 -3.2151 -2.4978 0.9790
-3.0987 -3.5038 -2.4970 0.9790
-2.7736 -3.7644 -2.4962 0.9790
-2.4267 -3.9950 -2.4953 0.9790
-1.6787 -4.3587 -2.4935 0.9790
-0.8786 -4.5838 -2.4916 0.9791
-0.4670 -4.6420 -2.4906 0.9791
-0.0519 -4.6634 -2.4897 0.9791
0.7751 -4.5953 -2.4878 0.9791
1.5765 -4.3820 -2.4861 0.9791
3.0031 -3.5521 -2.4832 0.9791
3.3066 -3.2699 -2.4826 0.9791
3.5838 -2.9621 -2.4821 0.9791
3.8325 -2.6309 -2.4816 0.9791
4.0509 -2.2789 -2.4813 0.9791
4.2372 -1.9092 -2.4810 0.9791
