ply
format ascii 1.0
element vertex 1588
property float32 x
property float32 y
property float32 z
property float32 I
end_header
-9.3884 -10.6156 -2.4988 0.9441
-8.4061 -11.4088 -2.4988 0.9441
-7.3571 -12.1115 -2.4987 0.9441
-6.2498 -12.7180 -2.4987 0.9441
-5.0929 -13.2235 -2.4986 0.9441
-1.4183 -14.0982 -2.4984 0.9441
-0.1578 -14.1681 -2.4984 0.9441
1.1038 -14.1257 -2.4983 0.9441
3.5907 -13.7056 -2.4982 0.9441
4.7962 -13.3313 -2.4982 0.9441
5.9636 -12.8512 -2.4981 0.9441
7.0836 -12.2692 -2.4981 0.9441
10.0729 -9.9613 -2.4980 0.9441
12.9155 -5.8194 -2.4979 0.9441
13.9939 -2.2004 -2.4978 0.9441
14.1624 0.3156 -2.4978 0.9441
13.2194 1.4788 -2.3455 0.9474
12.5876 3.7515 -2.3160 0.9480
12.3593 4.9189 -2.3455 0.9474
11.2917 7.0325 -2.3456 0.9474
10.6211 8.0098 -2.3456 0.9474
9.0330 9.7664 -2.3457 0.9474
8.1280 10.5318 -2.3458 0.9474
7.1585 11.2137 -2.3458 0.9474
6.1322 11.8065 -2.3459 0.9474
3.9418 12.7073 -2.3460 0.9474
2.7952 13.0080 -2.3460 0.9474
1.6264 13.2054 -2.3461 0.9474
-0.7408 13.2852 -2.3462 0.9474
-7.4086 11.0545 -2.3465 0.9474
-8.3633 10.3514 -2.3465 0.9474
-9.2515 9.5660 -2.3465 0.9474
-10.8013 7.7744 -2.3466 0.9474
-12.0997 5.7796 -2.3644 0.9470
-13.2819 4.9463 -2.4991 0.9441
-13.9486 2.5130 -2.4991 0.9441
-14.1169 1.2615 -2.4991 0.9441
-12.9138 0.0000 -2.4990 0.9487
-12.7091 -2.2896 -2.4990 0.9487
-12.4547 -3.4117 -2.4990 0.9487
-12.1015 -4.5067 -2.4990 0.9487
-10.4805 -7.5434 -2.4989 0.9487
-8.1148 -10.0438 -2.4988 0.9488
-7.1885 -10.7260 -2.4987 0.9488
-6.2052 -11.3230 -2.4987 0.9488
-5.1727 -11.8302 -2.4986 0.9488
-1.8633 -12.7756 -2.4985 0.9488
0.4314 -12.9030 -2.4984 0.9488
1.5781 -12.8132 -2.4983 0.9488
2.7122 -12.6216 -2.4983 0.9488
3.8248 -12.3299 -2.4982 0.9488
5.9501 -11.4560 -2.4981 0.9488
7.8868 -10.2192 -2.4981 0.9488
9.5735 -8.6587 -2.4980 0.9488
10.3060 -7.7721 -2.4980 0.9488
10.9568 -6.8240 -2.4979 0.9488
12.8277 -1.4350 -2.4979 0.9488
11.7584 2.9410 -2.3456 0.9518
11.0509 4.9793 -2.3456 0.9518
10.5639 5.9432 -2.3456 0.9518
9.9932 6.8599 -2.3457 0.9518
9.3431 7.7223 -2.3457 0.9518
8.6188 8.5233 -2.3457 0.9518
7.8261 9.2568 -2.3458 0.9518
6.9713 9.9168 -2.3458 0.9518
6.0611 10.4981 -2.3459 0.9518
4.1039 11.4069 -2.3459 0.9518
3.0724 11.7271 -2.3460 0.9518
-1.2135 12.0630 -2.3462 0.9518
-3.3333 11.6572 -2.3463 0.9518
-4.3577 11.3144 -2.3463 0.9518
-7.1924 9.7617 -2.3464 0.9518
-8.0328 9.0829 -2.3465 0.9518
-8.8095 8.3320 -2.3465 0.9518
-10.6981 5.7087 -2.3466 0.9518
-12.2906 3.9632 -2.4990 0.9487
-12.9010 0.5753 -2.4990 0.9487
-12.9009 -0.5753 -2.4990 0.9487
-12.7985 -1.7212 -2.4990 0.9487
-12.5944 -2.8535 -2.4990 0.9487
-11.8887 -5.0412 -2.4990 0.9487
-11.3927 -6.0793 -2.4989 0.9487
-10.1340 -8.0027 -2.4989 0.9488
-9.3814 -8.8728 -2.4988 0.9488
-8.5543 -9.6725 -2.4988 0.9488
-7.6593 -10.3952 -2.4987 0.9488
-2.4306 -12.6801 -2.4985 0.9488
-0.1438 -12.9096 -2.4984 0.9488
2.1473 -12.7300 -2.4983 0.9488
4.3702 -12.1472 -2.4982 0.9488
5.4339 -11.7098 -2.4982 0.9488
7.4238 -10.5604 -2.4981 0.9488
11.7684 -5.3026 -2.4979 0.9488
12.1936 -4.2341 -2.4979 0.9488
12.5220 -3.1320 -2.4979 0.9488
12.7511 -2.0050 -2.4979 0.9488
12.8789 -0.8621 -2.4979 0.9488
11.8777 2.4143 -2.3455 0.9518
10.8181 5.4666 -2.3456 0.9518
9.6777 7.2983 -2.3457 0.9518
8.9899 8.1309 -2.3457 0.9518
8.2307 8.8989 -2.3457 0.9518
7.4061 9.5963 -2.3458 0.9518
5.5875 10.7578 -2.3459 0.9518
4.6079 11.2126 -2.3459 0.9518
3.5917 11.5785 -2.3460 0.9518
2.5469 11.8525 -2.3460 0.9518
1.4819 12.0324 -2.3461 0.9518
-0.6750 12.1050 -2.3462 0.9518
-1.7497 11.9971 -2.3462 0.9518
-2.8106 11.7940 -2.3463 0.9518
-4.8574 11.1092 -2.3463 0.9518
-5.8270 10.6329 -2.3464 0.9518
-7.6202 9.4317 -2.3465 0.9518
-9.8416 7.0836 -2.3465 0.9518
-12.1018 4.5068 -2.4990 0.9487
-12.8626 1.1494 -2.4991 0.9487
-11.1082 -4.1367 -2.4989 0.9527
-10.6958 -5.1089 -2.4989 0.9527
-8.9657 -7.7529 -2.4988 0.9527
-7.4488 -9.2195 -2.4987 0.9527
-3.7627 -11.2385 -2.4986 0.9527
-2.7474 -11.5286 -2.4985 0.9527
0.3960 -11.8441 -2.4984 0.9527
1.4486 -11.7617 -2.4983 0.9527
2.4896 -11.5859 -2.4983 0.9527
3.5109 -11.3181 -2.4982 0.9527
4.5043 -10.9605 -2.4982 0.9527
5.4618 -10.5159 -2.4982 0.9527
6.3760 -9.9879 -2.4981 0.9527
8.0457 -8.6989 -2.4981 0.9527
8.7879 -7.9482 -2.4980 0.9527
9.4604 -7.1344 -2.4980 0.9527
10.0577 -6.2640 -2.4980 0.9527
10.5753 -5.3439 -2.4980 0.9527
11.0089 -4.3814 -2.4979 0.9527
11.6112 -2.3600 -2.4979 0.9527
11.7752 -1.3173 -2.4979 0.9527
10.7936 2.6997 -2.3456 0.9555
10.5105 3.6497 -2.3456 0.9555
7.1839 8.4972 -2.3458 0.9555
6.3992 9.1030 -2.3458 0.9555
5.5637 9.6366 -2.3459 0.9555
4.6840 10.0937 -2.3459 0.9555
3.7671 10.4708 -2.3460 0.9555
1.8509 10.9732 -2.3460 0.9555
0.8669 11.0946 -2.3461 0.9555
-0.1240 11.1280 -2.3461 0.9555
-1.1140 11.0730 -2.3462 0.9555
-2.0951 10.9301 -2.3462 0.9555
-3.0597 10.7004 -2.3463 0.9555
-4.0000 10.3858 -2.3463 0.9555
-4.9086 9.9887 -2.3463 0.9555
-6.6021 8.9604 -2.3464 0.9555
-8.0864 7.6480 -2.3465 0.9555
-8.7351 6.8980 -2.3465 0.9555
-9.3145 6.0933 -2.3465 0.9555
-10.1480 5.4151 -2.4249 0.9541
-11.2817 3.6379 -2.4990 0.9527
-11.8420 0.5281 -2.4990 0.9527
-11.8419 -0.5281 -2.4990 0.9527
-11.5606 -2.6193 -2.4990 0.9527
-9.9192 -6.4888 -2.4989 0.9527
-7.0306 -9.5420 -2.4987 0.9527
-5.2272 -10.6370 -2.4986 0.9527
-3.2583 -11.3949 -2.4985 0.9527
-1.1862 -11.7916 -2.4985 0.9527
0.9232 -11.8146 -2.4984 0.9527
3.0033 -11.4633 -2.4983 0.9527
5.9248 -10.2621 -2.4981 0.9527
6.8146 -9.6939 -2.4981 0.9527
7.6503 -9.0487 -2.4981 0.9527
8.4252 -8.3318 -2.4980 0.9527
9.1332 -7.5487 -2.4980 0.9527
9.7687 -6.7058 -2.4980 0.9527
10.3267 -5.8097 -2.4980 0.9527
11.7048 -1.8405 -2.4979 0.9527
11.8457 0.2640 -2.4979 0.9527
10.6626 3.1778 -2.3456 0.9555
9.4445 5.8821 -2.3457 0.9555
8.8836 6.6994 -2.3457 0.9555
5.9874 9.3791 -2.3459 0.9555
5.1289 9.8750 -2.3459 0.9555
4.2297 10.2925 -2.3459 0.9555
3.2969 10.6283 -2.3460 0.9555
2.3379 10.8798 -2.3460 0.9555
-0.6196 11.1115 -2.3462 0.9555
-1.6061 11.0125 -2.3462 0.9555
-2.5800 10.8260 -2.3462 0.9555
-3.5334 10.5536 -2.3463 0.9555
-4.4587 10.1974 -2.3463 0.9555
-6.9947 8.6574 -2.3464 0.9555
-7.7376 8.0006 -2.3465 0.9555
-9.0338 6.5021 -2.3465 0.9555
-9.5767 5.6723 -2.3465 0.9555
-11.1084 4.1368 -2.4990 0.9527
-11.4325 3.1317 -2.4990 0.9527
-11.6659 2.1018 -2.4990 0.9527
-11.8067 1.0551 -2.4990 0.9527
-9.8792 -4.7189 -2.4989 0.9561
-9.4198 -5.5794 -2.4989 0.9561
-5.2611 -9.6002 -2.4986 0.9561
-4.3856 -10.0302 -2.4986 0.9561
-3.4754 -10.3806 -2.4986 0.9561
-2.5377 -10.6485 -2.4985 0.9561
-0.6094 -10.9294 -2.4984 0.9561
1.3380 -10.8639 -2.4983 0.9561
3.2429 -10.4541 -2.4983 0.9561
5.8894 -9.2255 -2.4981 0.9561
7.4316 -8.0349 -2.4981 0.9561
8.1172 -7.3415 -2.4981 0.9561
10.4885 -3.1259 -2.4980 0.9561
10.8765 -1.2167 -2.4980 0.9561
10.9416 -0.2438 -2.4980 0.9561
10.9199 0.7310 -2.4980 0.9561
9.7083 3.3711 -2.3456 0.9587
9.3698 4.2219 -2.3457 0.9587
8.9570 5.0391 -2.3457 0.9587
7.3077 7.2267 -2.3458 0.9587
6.6356 7.8486 -2.3458 0.9587
3.4795 9.6715 -2.3460 0.9587
2.6049 9.9430 -2.3460 0.9587
0.8008 10.2477 -2.3461 0.9587
-0.1145 10.2785 -2.3461 0.9587
-1.0289 10.2276 -2.3462 0.9587
-4.5338 9.2261 -2.3463 0.9587
-5.3371 8.7861 -2.3464 0.9587
-6.0980 8.2763 -2.3464 0.9587
-6.8105 7.7008 -2.3464 0.9587
-9.6593 5.1544 -2.4989 0.9561
-10.0798 4.2742 -2.4989 0.9561
-10.4203 3.3601 -2.4990 0.9561
-10.6780 2.4193 -2.4990 0.9561
-10.8510 1.4593 -2.4990 0.9561
-10.9378 0.4877 -2.4990 0.9561
-10.9378 -0.4877 -2.4990 0.9561
-10.8509 -1.4593 -2.4989 0.9561
-10.6779 -2.4193 -2.4989 0.9561
-10.0796 -4.2741 -2.4989 0.9561
-9.6591 -5.1543 -2.4989 0.9561
-8.5920 -6.7850 -2.4988 0.9561
-7.2527 -8.2007 -2.4987 0.9561
-3.9344 -10.2155 -2.4986 0.9561
-2.0608 -10.7509 -2.4985 0.9561
-1.0957 -10.8914 -2.4985 0.9561
0.8527 -10.9128 -2.4984 0.9561
3.7054 -10.2992 -2.4982 0.9561
5.4726 -9.4788 -2.4982 0.9561
6.2945 -8.9539 -2.4981 0.9561
7.0663 -8.3581 -2.4981 0.9561
7.7821 -7.6959 -2.4981 0.9561
8.4361 -6.9726 -2.4980 0.9561
9.0232 -6.1940 -2.4980 0.9561
10.3388 -3.5900 -2.4980 0.9561
10.8115 -1.7000 -2.4980 0.9561
10.9199 -0.7310 -2.4980 0.9561
9.8488 2.9353 -2.3456 0.9587
9.5486 3.8003 -2.3457 0.9587
8.7236 5.4331 -2.3457 0.9587
8.2055 6.1881 -2.3457 0.9587
5.5304 8.6632 -2.3459 0.9587
4.7374 9.1212 -2.3459 0.9587
3.9069 9.5068 -2.3459 0.9587
3.0453 9.8170 -2.3460 0.9587
1.2565 10.2018 -2.3461 0.9587
0.3435 10.2732 -2.3461 0.9587
-0.5723 10.2632 -2.3462 0.9587
-1.4835 10.1717 -2.3462 0.9587
-4.1183 9.4188 -2.3463 0.9587
-4.9404 9.0150 -2.3463 0.9587
-6.4607 7.9965 -2.3464 0.9587
-7.1469 7.3898 -2.3464 0.9587
-8.3440 6.0056 -2.3465 0.9587
-9.8794 4.7190 -2.4989 0.9561
-10.7752 1.9412 -2.4990 0.9561
-10.1665 0.0000 -2.4989 0.9590
-10.0053 -1.8025 -2.4989 0.9590
-9.8052 -2.6859 -2.4989 0.9590
-7.0672 -7.3074 -2.4987 0.9590
-5.6594 -8.4444 -2.4987 0.9590
-4.0724 -9.3138 -2.4986 0.9590
-2.3564 -9.8879 -2.4985 0.9590
-1.4670 -10.0582 -2.4985 0.9590
-0.5659 -10.1487 -2.4984 0.9590
0.3396 -10.1586 -2.4984 0.9590
2.1354 -9.9372 -2.4983 0.9590
5.4688 -8.5667 -2.4982 0.9590
8.1143 -6.1193 -2.4981 0.9590
9.7395 -2.9026 -2.4980 0.9590
10.1603 -0.2264 -2.4980 0.9590
9.2578 2.3156 -2.3457 0.9615
7.8679 5.4010 -2.3457 0.9615
7.3560 6.0799 -2.3458 0.9615
6.1617 7.2881 -2.3458 0.9615
3.2310 8.9807 -2.3460 0.9614
2.4189 9.2329 -2.3460 0.9614
1.5875 9.4116 -2.3461 0.9614
0.7436 9.5157 -2.3461 0.9614
-0.1063 9.5443 -2.3461 0.9614
-3.4307 8.9077 -2.3463 0.9614
-4.9559 8.1585 -2.3463 0.9614
-5.6624 7.6851 -2.3464 0.9614
-6.3240 7.1507 -2.3464 0.9614
-6.9354 6.5595 -2.3464 0.9614
-7.9887 5.2260 -2.3465 0.9614
-9.6759 3.1201 -2.4989 0.9590
-9.9152 2.2465 -2.4989 0.9590
-10.0758 1.3551 -2.4989 0.9590
-10.1564 -0.4529 -2.4989 0.9590
-10.0757 -1.3551 -2.4989 0.9590
-9.9151 -2.2465 -2.4989 0.9590
-9.3596 -3.9688 -2.4989 0.9590
-8.5074 -5.5653 -2.4988 0.9590
-7.3857 -6.9854 -2.4988 0.9590
-6.7346 -7.6149 -2.4987 0.9590
-6.0300 -8.1839 -2.4987 0.9590
-4.4833 -9.1232 -2.4986 0.9590
-3.6534 -9.4858 -2.4986 0.9590
-1.9136 -9.9830 -2.4985 0.9590
-0.1132 -10.1638 -2.4984 0.9590
0.7918 -10.1334 -2.4984 0.9590
2.5759 -9.8321 -2.4983 0.9590
5.0818 -8.8018 -2.4982 0.9590
6.5617 -7.7612 -2.4981 0.9590
7.8337 -6.4747 -2.4981 0.9590
8.3788 -5.7517 -2.4981 0.9590
9.2657 -4.1749 -2.4980 0.9590
9.6005 -3.3336 -2.4980 0.9590
9.8591 -2.4659 -2.4980 0.9590
10.0394 -1.5786 -2.4980 0.9590
10.1401 -0.6788 -2.4980 0.9590
8.1006 5.0451 -2.3457 0.9615
7.0779 6.4016 -2.3458 0.9615
6.4802 7.0062 -2.3458 0.9615
5.8309 7.5554 -2.3458 0.9615
5.1354 8.0445 -2.3459 0.9615
2.8278 9.1158 -2.3460 0.9614
2.0052 9.3315 -2.3460 0.9614
1.1667 9.4730 -2.3461 0.9614
-0.5314 9.5302 -2.3461 0.9614
-3.0305 9.0516 -2.3463 0.9614
-3.8241 8.7461 -2.3463 0.9614
-7.2208 6.2441 -2.3464 0.9614
-9.8053 2.6860 -2.4989 0.9590
-9.1464 -2.5054 -2.4989 0.9615
-8.8870 -3.3096 -2.4988 0.9615
-8.5571 -4.0874 -2.4988 0.9615
-7.6967 -5.5397 -2.4988 0.9615
-7.1730 -6.2027 -2.4988 0.9615
-6.5924 -6.8164 -2.4987 0.9615
-5.9594 -7.3761 -2.4987 0.9615
-5.2792 -7.8771 -2.4987 0.9615
-3.7988 -8.6881 -2.4986 0.9615
-3.0104 -8.9916 -2.4985 0.9615
-1.3684 -9.3826 -2.4985 0.9615
-0.5279 -9.4670 -2.4984 0.9615
1.1590 -9.4103 -2.4984 0.9615
1.9919 -9.2696 -2.4983 0.9615
3.6038 -8.7694 -2.4983 0.9615
5.1014 -7.9913 -2.4982 0.9615
5.7924 -7.5054 -2.4982 0.9615
8.4613 -4.2757 -2.4981 0.9615
9.0853 -2.7077 -2.4980 0.9615
9.4214 -1.0539 -2.4980 0.9615
9.4591 0.6332 -2.4980 0.9615
13.7983 3.4512 -3.7479 0.9429
8.4095 2.9201 -2.3457 0.9638
8.1163 3.6571 -2.3457 0.9638
7.7587 4.3650 -2.3457 0.9638
6.8620 5.6716 -2.3458 0.9638
5.7478 6.7985 -2.3458 0.9638
3.7476 8.0759 -2.3459 0.9638
1.4809 8.7794 -2.3461 0.9638
0.6936 8.8765 -2.3461 0.9638
-0.0992 8.9032 -2.3461 0.9638
-1.6762 8.7448 -2.3462 0.9638
-4.6229 7.6104 -2.3463 0.9638
-5.2820 7.1688 -2.3463 0.9638
-6.4695 6.1188 -2.3464 0.9638
-6.9885 5.5187 -2.3464 0.9638
-7.5785 4.9576 -2.3863 0.9632
-8.7309 3.7022 -2.4989 0.9615
-9.2490 2.0955 -2.4989 0.9615
-9.4741 0.4225 -2.4989 0.9615
-9.4740 -0.4225 -2.4989 0.9615
-9.3988 -1.2640 -2.4989 0.9615
-9.2490 -2.0955 -2.4989 0.9615
-8.7307 -3.7022 -2.4988 0.9615
-8.3665 -4.4645 -2.4988 0.9615
-7.9359 -5.1914 -2.4988 0.9615
-7.4422 -5.8771 -2.4988 0.9615
-6.2821 -7.1033 -2.4987 0.9615
-5.6249 -7.6342 -2.4987 0.9615
-4.1821 -8.5103 -2.4986 0.9615
-0.9491 -9.4342 -2.4985 0.9615
-0.1056 -9.4810 -2.4984 0.9615
1.5770 -9.3493 -2.4983 0.9615
2.4029 -9.1717 -2.4983 0.9615
3.2096 -8.9212 -2.4983 0.9615
3.9909 -8.6001 -2.4982 0.9615
5.4523 -7.7560 -2.4982 0.9615
6.1210 -7.2399 -2.4981 0.9615
7.3075 -6.0398 -2.4981 0.9615
7.8160 -5.3654 -2.4981 0.9615
8.2625 -4.6484 -2.4981 0.9615
9.3651 -1.4726 -2.4980 0.9615
9.4215 1.0540 -2.4980 0.9615
8.5312 2.5426 -2.3457 0.9638
7.9454 4.0150 -2.3457 0.9638
6.6025 5.9717 -2.3458 0.9638
5.4393 7.0479 -2.3459 0.9638
4.7905 7.5042 -2.3459 0.9638
3.3841 8.2349 -2.3460 0.9638
2.6378 8.5035 -2.3460 0.9638
-0.4957 8.8900 -2.3461 0.9638
-2.0641 8.6615 -2.3462 0.9638
-2.8269 8.4435 -2.3462 0.9638
-4.2793 7.8087 -2.3463 0.9638
-4.9574 7.3969 -2.3463 0.9638
-5.5961 6.9264 -2.3464 0.9638
-6.1905 6.4009 -2.3464 0.9638
-7.2274 5.2020 -2.3464 0.9638
-8.1595 4.8329 -2.4989 0.9615
-9.1465 2.5055 -2.4989 0.9615
-9.4458 0.8441 -2.4989 0.9615
-5.0319 0.0000 -1.4158 0.9793
-3.9277 -0.3510 -1.1095 0.9837
-3.7904 -1.0383 -1.1057 0.9838
-8.3229 -3.0995 -2.4988 0.9638
-6.1740 -6.3838 -2.4987 0.9638
-5.5812 -6.9079 -2.4987 0.9638
-4.2679 -7.7878 -2.4986 0.9638
-2.0586 -8.6383 -2.4985 0.9638
-1.2816 -8.7871 -2.4985 0.9638
-0.4944 -8.8662 -2.4984 0.9638
1.0854 -8.8131 -2.4984 0.9638
1.8655 -8.6814 -2.4983 0.9638
2.6308 -8.4808 -2.4983 0.9638
3.3751 -8.2129 -2.4983 0.9638
4.0927 -7.8798 -2.4982 0.9638
4.7777 -7.4841 -2.4982 0.9638
5.4248 -7.0292 -2.4982 0.9638
7.5366 -4.6938 -2.4981 0.9638
7.9244 -4.0044 -2.4981 0.9638
8.8236 -0.9871 -2.4981 0.9638
8.8765 -0.1978 -2.4981 0.9638
8.7709 1.3792 -2.4981 0.9638
7.8759 2.7348 -2.3457 0.9659
6.8737 4.7185 -2.3458 0.9659
6.4265 5.3117 -2.3458 0.9659
5.3830 6.3671 -2.3459 0.9659
4.1689 7.2208 -2.3459 0.9659
2.1132 8.0660 -2.3460 0.9659
1.3869 8.2222 -2.3461 0.9659
0.6496 8.3132 -2.3461 0.9659
-0.0929 8.3381 -2.3461 0.9659
-0.8347 8.2969 -2.3462 0.9659
-2.2926 8.0177 -2.3462 0.9659
-4.3295 7.1273 -2.3463 0.9659
-4.9467 6.7138 -2.3463 0.9659
-5.5247 6.2469 -2.3464 0.9659
-6.5449 5.1685 -2.3464 0.9659
-8.8023 1.1838 -2.4989 0.9638
-4.2110 -0.1878 -1.1860 0.9826
-3.7659 -0.8532 -1.0864 0.9841
-7.8355 -4.1811 -2.4988 0.9638
-6.4522 -6.1025 -2.4987 0.9638
-5.8834 -6.6525 -2.4987 0.9638
-5.2679 -7.1496 -2.4987 0.9638
-3.9167 -7.9702 -2.4986 0.9638
-2.4414 -8.5381 -2.4985 0.9638
-1.6718 -8.7214 -2.4985 0.9638
-0.0989 -8.8793 -2.4984 0.9638
3.0059 -8.3551 -2.4983 0.9638
4.4396 -7.6896 -2.4982 0.9638
5.1064 -7.2638 -2.4982 0.9638
6.8438 -5.6565 -2.4981 0.9638
7.3201 -5.0249 -2.4981 0.9638
8.0949 -3.6474 -2.4981 0.9638
8.6133 -2.1543 -2.4981 0.9638
8.8765 0.1978 -2.4981 0.9638
13.0539 2.6533 -3.7479 0.9462
7.9899 2.3812 -2.3457 0.9659
6.6567 5.0201 -2.3458 0.9659
6.1836 5.5927 -2.3458 0.9659
4.4865 7.0279 -2.3459 0.9659
3.8432 7.3994 -2.3459 0.9659
1.7518 8.1522 -2.3460 0.9659
1.0193 8.2759 -2.3461 0.9659
-0.4642 8.3258 -2.3461 0.9659
-3.3408 7.6407 -2.3463 0.9659
-4.6427 6.9274 -2.3463 0.9659
-5.2409 6.4868 -2.3463 0.9659
-5.7975 5.9946 -2.3464 0.9659
-6.3081 5.4548 -2.3464 0.9659
-7.6416 4.5261 -2.4988 0.9638
-8.3231 3.0995 -2.4989 0.9638
-8.5659 2.3465 -2.4989 0.9638
-8.8463 0.7905 -2.4989 0.9638
-3.5918 -0.3210 -1.0796 0.9851
-3.4798 -0.6269 -1.0586 0.9853
-7.5314 -3.5975 -2.4988 0.9658
-5.8022 -5.9995 -2.4987 0.9658
-5.2452 -6.4920 -2.4987 0.9658
-4.6465 -6.9330 -2.4986 0.9658
-3.3435 -7.6468 -2.4986 0.9658
-1.9347 -8.1183 -2.4985 0.9658
1.0201 -8.2826 -2.4984 0.9658
3.8463 -7.4054 -2.4983 0.9658
5.0983 -6.6060 -2.4982 0.9658
5.6660 -6.1259 -2.4982 0.9658
6.1887 -5.5973 -2.4982 0.9658
6.6622 -5.0242 -2.4981 0.9658
7.4474 -3.7633 -2.4981 0.9658
7.7528 -3.0855 -2.4981 0.9658
8.1770 -1.6620 -2.4981 0.9658
8.2925 -0.9276 -2.4981 0.9658
8.3421 -0.1859 -2.4981 0.9658
7.1437 3.2188 -2.3458 0.9678
6.8289 3.8419 -2.3458 0.9678
6.4599 4.4345 -2.3458 0.9678
5.5714 5.5097 -2.3458 0.9678
5.0590 5.9838 -2.3459 0.9678
4.5064 6.4104 -2.3459 0.9678
3.2985 7.1080 -2.3460 0.9678
2.6528 7.3735 -2.3460 0.9678
1.9860 7.5804 -2.3460 0.9678
1.3034 7.7272 -2.3461 0.9678
-0.7844 7.7973 -2.3461 0.9678
-1.4753 7.6967 -2.3462 0.9678
-2.8167 7.3133 -2.3462 0.9678
-3.4565 7.0337 -2.3463 0.9678
-4.0688 6.6982 -2.3463 0.9678
-5.1921 5.8708 -2.3463 0.9678
-5.6940 5.3854 -2.3464 0.9678
-6.9848 4.5692 -2.4988 0.9657
-7.3638 3.9295 -2.4988 0.9657
-7.6844 3.2585 -2.4988 0.9657
-8.1404 1.8444 -2.4988 0.9657
-8.2722 1.1125 -2.4988 0.9657
-3.6646 -0.1634 -1.0982 0.9848
-3.5144 -0.4726 -1.0616 0.9853
-7.9438 -2.5615 -2.4988 0.9657
-7.6843 -3.2584 -2.4988 0.9657
-6.9847 -4.5691 -2.4988 0.9658
-6.5502 -5.1726 -2.4987 0.9658
-6.0637 -5.7350 -2.4987 0.9658
-5.5292 -6.2519 -2.4987 0.9658
-3.6809 -7.4903 -2.4986 0.9658
-1.5711 -8.1963 -2.4985 0.9658
-0.8353 -8.3035 -2.4985 0.9658
-0.0930 -8.3448 -2.4984 0.9658
0.6501 -8.3198 -2.4984 0.9658
2.1149 -8.0725 -2.4983 0.9658
2.8250 -7.8522 -2.4983 0.9658
3.5126 -7.5695 -2.4983 0.9658
4.1724 -7.2267 -2.4982 0.9658
4.7990 -6.8266 -2.4982 0.9658
5.3875 -6.3723 -2.4982 0.9658
7.2724 -4.0914 -2.4981 0.9658
7.6077 -3.4278 -2.4981 0.9658
8.0949 -2.0246 -2.4981 0.9658
8.2429 -1.2961 -2.4981 0.9658
12.2681 2.4936 -3.7479 0.9491
7.2800 2.8974 -2.3458 0.9678
6.6510 4.1423 -2.3458 0.9678
4.7874 6.2033 -2.3459 0.9678
4.2164 6.6048 -2.3459 0.9678
2.3217 7.4844 -2.3460 0.9678
1.6463 7.6615 -2.3460 0.9678
0.9579 7.7776 -2.3461 0.9678
0.2619 7.8322 -2.3461 0.9678
-0.4363 7.8245 -2.3461 0.9678
-1.1310 7.7547 -2.3462 0.9678
-1.8167 7.6234 -2.3462 0.9678
-2.4881 7.4315 -2.3462 0.9678
-3.1397 7.1806 -2.3462 0.9678
-3.7664 6.8728 -2.3463 0.9678
-4.9254 6.0962 -2.3463 0.9678
-5.9283 5.1264 -2.3464 0.9678
-6.6348 4.7754 -2.4473 0.9664
-7.5316 3.5975 -2.4988 0.9657
-7.8219 2.9129 -2.4988 0.9657
-8.2145 1.4799 -2.4988 0.9657
-8.3136 0.7429 -2.4988 0.9657
-3.2843 -0.5917 -1.0598 0.9861
-3.2540 -0.8913 -1.0715 0.9859
-7.3734 -2.7459 -2.4988 0.9675
-7.0997 -3.3912 -2.4988 0.9675
-5.4696 -5.6555 -2.4987 0.9675
-3.1518 -7.2084 -2.4986 0.9675
-2.4977 -7.4603 -2.4985 0.9675
-0.4380 -7.8548 -2.4984 0.9675
0.2629 -7.8625 -2.4984 0.9675
2.3307 -7.5134 -2.4983 0.9675
2.9901 -7.2761 -2.4983 0.9675
3.6258 -6.9810 -2.4983 0.9675
4.2328 -6.6305 -2.4982 0.9675
4.8061 -6.2274 -2.4982 0.9675
5.3412 -5.7748 -2.4982 0.9675
7.0206 -3.5477 -2.4981 0.9675
7.3084 -2.9087 -2.4981 0.9675
7.5383 -2.2466 -2.4981 0.9675
7.7083 -1.5668 -2.4981 0.9675
7.8484 0.5254 -2.4981 0.9675
7.7705 1.2219 -2.4981 0.9675
11.1486 3.8712 -3.7480 0.9517
6.7343 3.0343 -2.3458 0.9695
6.4375 3.6217 -2.3458 0.9695
5.2521 5.1939 -2.3459 0.9695
4.7690 5.6408 -2.3459 0.9695
4.2481 6.0430 -2.3459 0.9695
3.6934 6.3972 -2.3459 0.9695
2.5007 6.9509 -2.3460 0.9695
1.2287 7.2843 -2.3461 0.9695
0.5755 7.3648 -2.3461 0.9695
-4.3824 5.9479 -2.3463 0.9695
-4.8944 5.5342 -2.3463 0.9695
-5.8921 4.6530 -2.3844 0.9690
-6.9417 3.7042 -2.4988 0.9675
-7.4885 2.4147 -2.4988 0.9675
-4.3818 0.1954 -1.3930 0.9818
-3.4557 -0.1541 -1.0986 0.9856
-3.2827 -1.0586 -1.0954 0.9856
-7.2437 -3.0716 -2.4988 0.9675
-6.9415 -3.7041 -2.4988 0.9675
-6.1747 -4.8761 -2.4987 0.9675
-5.7161 -5.4063 -2.4987 0.9675
-5.2122 -5.8935 -2.4987 0.9675
-4.0846 -6.7241 -2.4986 0.9675
-2.1629 -7.5641 -2.4985 0.9675
-1.4810 -7.7265 -2.4985 0.9675
-0.7875 -7.8275 -2.4985 0.9675
0.6129 -7.8429 -2.4984 0.9675
1.3085 -7.7571 -2.4984 0.9675
1.9937 -7.6098 -2.4983 0.9675
3.9332 -6.8125 -2.4982 0.9675
4.5239 -6.4353 -2.4982 0.9675
5.0787 -6.0071 -2.4982 0.9675
6.0632 -5.0113 -2.4982 0.9675
6.4851 -4.4518 -2.4981 0.9675
6.8556 -3.8569 -2.4981 0.9675
7.1716 -3.2314 -2.4981 0.9675
7.4308 -2.5802 -2.4981 0.9675
7.7705 -1.2218 -2.4981 0.9675
7.8484 -0.5254 -2.4981 0.9675
7.8172 0.8745 -2.4981 0.9675
6.5925 3.3313 -2.3458 0.9695
6.2698 3.9049 -2.3458 0.9695
5.8974 4.4475 -2.3458 0.9695
5.4782 4.9548 -2.3458 0.9695
3.9747 6.2262 -2.3459 0.9695
3.4048 6.5554 -2.3460 0.9695
2.1886 7.0554 -2.3460 0.9695
0.9030 7.3319 -2.3461 0.9695
0.2469 7.3832 -2.3461 0.9695
-1.0662 7.3102 -2.3462 0.9695
-1.7126 7.1864 -2.3462 0.9695
-2.3454 7.0055 -2.3462 0.9695
-2.9597 6.7690 -2.3462 0.9695
-3.5505 6.4788 -2.3463 0.9695
-4.1130 6.1371 -2.3463 0.9695
-5.1361 5.3107 -2.3463 0.9695
-5.5884 4.8325 -2.3463 0.9695
-6.3860 4.5964 -2.4988 0.9675
-6.7697 4.0097 -2.4988 0.9675
-7.0998 3.3913 -2.4988 0.9675
-7.8370 0.7003 -2.4988 0.9675
-3.6184 0.0000 -1.2157 0.9848
-6.7109 -3.2055 -2.4987 0.9691
-6.0361 -4.3445 -2.4987 0.9691
-5.6254 -4.8645 -2.4987 0.9691
-5.1701 -5.3458 -2.4987 0.9691
-4.6737 -5.7847 -2.4986 0.9691
-3.5739 -6.5216 -2.4986 0.9691
-2.9793 -6.8137 -2.4986 0.9691
0.2485 -7.4320 -2.4984 0.9691
0.9090 -7.3803 -2.4984 0.9691
1.5622 -7.2700 -2.4984 0.9691
2.2031 -7.1020 -2.4983 0.9691
3.4273 -6.5987 -2.4983 0.9691
4.0010 -6.2674 -2.4982 0.9691
5.5145 -4.9876 -2.4982 0.9691
6.3114 -3.9307 -2.4982 0.9691
6.9083 -2.7494 -2.4981 0.9691
7.1256 -2.1237 -2.4981 0.9691
7.4335 -0.1656 -2.4981 0.9691
7.4187 0.4966 -2.4981 0.9691
7.3451 1.1550 -2.4981 0.9691
6.3656 2.8682 -2.3458 0.9710
5.7563 3.9515 -2.3458 0.9710
5.3818 4.4482 -2.3459 0.9710
3.4912 6.0469 -2.3459 0.9710
2.9391 6.3337 -2.3460 0.9710
1.7696 6.7546 -2.3460 0.9710
1.1614 6.8854 -2.3461 0.9710
0.5440 6.9615 -2.3461 0.9710
-0.0778 6.9824 -2.3461 0.9710
-1.9198 6.7140 -2.3462 0.9710
-2.5098 6.5166 -2.3462 0.9710
-3.6255 5.9684 -2.3463 0.9710
-4.1424 5.6221 -2.3463 0.9710
-4.6264 5.2312 -2.3463 0.9710
-6.2238 4.0715 -2.4988 0.9691
-7.3710 0.9913 -2.4988 0.9691
-3.2675 -0.1457 -1.0989 0.9863
-3.1418 -1.0131 -1.1091 0.9862
-6.2237 -4.0713 -2.4987 0.9691
-5.8366 -4.6091 -2.4987 0.9691
-5.4031 -5.1102 -2.4987 0.9691
-3.8609 -6.3559 -2.4986 0.9691
-2.6728 -6.9396 -2.4985 0.9691
-0.7443 -7.3989 -2.4985 0.9691
0.5793 -7.4135 -2.4984 0.9691
1.2368 -7.3324 -2.4984 0.9691
1.8845 -7.1932 -2.4983 0.9691
2.5173 -6.9968 -2.4983 0.9691
3.1300 -6.7449 -2.4983 0.9691
4.2762 -6.0830 -2.4982 0.9691
7.0239 -2.4389 -2.4981 0.9691
7.3892 0.8266 -2.4981 0.9691
7.2864 1.4810 -2.4981 0.9691
10.6907 3.1861 -3.7480 0.9540
5.9265 3.6911 -2.3458 0.9710
5.1783 4.6835 -2.3459 0.9710
4.2659 5.5276 -2.3459 0.9710
2.0688 6.6691 -2.3460 0.9710
1.4670 6.8268 -2.3460 0.9710
0.2333 6.9789 -2.3461 0.9710
-0.3888 6.9721 -2.3461 0.9710
-1.0078 6.9099 -2.3462 0.9710
-1.6188 6.7928 -2.3462 0.9710
-4.8548 5.0199 -2.3463 0.9710
-7.1730 1.9649 -2.4988 0.9691
-7.3195 1.3187 -2.4988 0.9691
-7.4078 0.6620 -2.4988 0.9691
-3.4902 0.0000 -1.2376 0.9853
-3.0930 -0.2764 -1.1011 0.9869
-3.0442 -0.5484 -1.0968 0.9870
-3.0229 -0.8281 -1.1114 0.9868
-6.3587 -3.0373 -2.4987 0.9705
-5.7194 -4.1165 -2.4987 0.9705
-4.8988 -5.0653 -2.4987 0.9705
-3.9230 -5.8535 -2.4986 0.9705
-2.8229 -6.4562 -2.4986 0.9705
-1.6335 -6.8543 -2.4985 0.9705
-1.0169 -6.9724 -2.4985 0.9705
-0.3923 -7.0351 -2.4984 0.9705
0.8613 -6.9931 -2.4984 0.9705
1.4803 -6.8886 -2.4984 0.9705
3.2475 -6.2525 -2.4983 0.9705
3.7911 -5.9387 -2.4983 0.9705
4.3046 -5.5776 -2.4982 0.9705
4.7839 -5.1723 -2.4982 0.9705
5.6251 -4.2421 -2.4982 0.9705
6.2881 -3.1775 -2.4982 0.9705
6.7518 -2.0122 -2.4982 0.9705
6.9041 -1.4033 -2.4981 0.9705
7.0016 -0.7832 -2.4981 0.9705
7.0435 -0.1569 -2.4981 0.9705
6.9598 1.0944 -2.4982 0.9705
6.8348 1.7095 -2.4982 0.9705
5.7658 3.2438 -2.3458 0.9723
5.4543 3.7441 -2.3458 0.9723
3.8048 5.4124 -2.3459 0.9723
3.3080 5.7297 -2.3460 0.9723
2.7849 6.0014 -2.3460 0.9723
1.1005 6.5242 -2.3461 0.9723
-0.6623 6.5833 -2.3461 0.9723
-1.2456 6.4983 -2.3462 0.9723
-1.8191 6.3617 -2.3462 0.9723
-2.9183 5.9385 -2.3462 0.9723
-3.9250 5.3271 -2.3463 0.9723
-4.3836 4.9567 -2.3463 0.9723
-4.8074 4.5469 -2.3463 0.9723
-6.4878 2.7511 -2.4988 0.9705
-6.7070 2.1628 -2.4988 0.9705
-6.9842 0.9393 -2.4988 0.9705
-3.0595 -0.4114 -1.0946 0.9870
-3.0191 -0.9735 -1.1248 0.9866
-5.8971 -3.8577 -2.4987 0.9705
-5.5303 -4.3672 -2.4987 0.9705
-4.6683 -5.2785 -2.4986 0.9705
-4.1799 -5.6729 -2.4986 0.9705
-3.6583 -6.0224 -2.4986 0.9705
-3.1078 -6.3241 -2.4986 0.9705
-1.3265 -6.9202 -2.4985 0.9705
-0.7053 -7.0107 -2.4985 0.9705
-0.0785 -7.0456 -2.4984 0.9705
1.1719 -6.9477 -2.4984 0.9705
1.7856 -6.8158 -2.4983 0.9705
4.0519 -5.7638 -2.4983 0.9705
4.5488 -5.3803 -2.4982 0.9705
5.0095 -4.9540 -2.4982 0.9705
5.4306 -4.4885 -2.4982 0.9705
6.1403 -3.4545 -2.4982 0.9705
6.9597 -1.0944 -2.4981 0.9705
7.0435 0.1570 -2.4982 0.9705
7.0016 0.7833 -2.4982 0.9705
6.9041 1.4033 -2.4982 0.9705
10.1298 3.0190 -3.7480 0.9561
4.0421 5.2376 -2.3459 0.9723
1.3900 6.4686 -2.3460 0.9723
0.8088 6.5667 -2.3461 0.9723
-0.9549 6.5473 -2.3461 0.9723
-1.5339 6.4364 -2.3462 0.9723
-2.6508 6.0626 -2.3462 0.9723
-3.1799 5.8027 -2.3462 0.9723
-4.6001 4.7565 -2.3463 0.9723
-5.2273 4.5203 -2.4504 0.9711
-5.7195 4.1167 -2.4987 0.9705
-6.0632 3.5913 -2.4988 0.9705
-6.7967 1.8618 -2.4988 0.9705
-6.9354 1.2495 -2.4988 0.9705
-7.0191 0.6272 -2.4988 0.9705
-3.3741 0.0000 -1.2599 0.9857
-2.9938 -0.2675 -1.1224 0.9872
-2.9238 -1.0888 -1.1650 0.9868
-5.7574 -3.4101 -2.4987 0.9718
-5.4310 -3.9090 -2.4987 0.9718
-4.2052 -5.2048 -2.4986 0.9718
-3.7252 -5.5584 -2.4986 0.9718
-3.2157 -5.8679 -2.4986 0.9718
-2.6806 -6.1307 -2.4986 0.9718
-2.1243 -6.3449 -2.4985 0.9718
-1.5511 -6.5087 -2.4985 0.9718
1.4056 -6.5413 -2.4984 0.9718
1.9823 -6.3902 -2.4983 0.9718
2.5431 -6.1883 -2.4983 0.9718
3.6000 -5.6393 -2.4983 0.9718
4.9619 -4.4877 -2.4982 0.9718
5.3416 -4.0282 -2.4982 0.9718
5.6789 -3.5368 -2.4982 0.9718
6.5561 -1.3326 -2.4982 0.9718
6.6486 -0.7437 -2.4982 0.9718
6.6885 -0.1490 -2.4982 0.9718
6.6752 0.4469 -2.4982 0.9718
6.6089 1.0392 -2.4982 0.9718
6.4902 1.6234 -2.4982 0.9718
9.1513 4.1234 -3.7481 0.9580
5.4752 3.0803 -2.3458 0.9735
5.1793 3.5554 -2.3459 0.9735
4.8424 4.0023 -2.3459 0.9735
3.6130 5.1396 -2.3459 0.9735
2.6446 5.6989 -2.3460 0.9735
2.1269 5.9117 -2.3460 0.9735
-0.0700 6.2825 -2.3461 0.9735
-1.7274 6.0410 -2.3462 0.9735
-2.2582 5.8633 -2.3462 0.9735
-3.2621 5.3702 -2.3462 0.9735
-3.7271 5.0586 -2.3463 0.9735
-5.9037 3.1504 -2.4987 0.9718
-6.3688 2.0537 -2.4988 0.9718
-6.6320 0.8919 -2.4988 0.9718
-3.7910 0.1691 -1.4170 0.9839
-3.0833 -0.1375 -1.1525 0.9869
-2.9258 -0.6629 -1.1202 0.9873
-2.9106 -0.9385 -1.1419 0.9870
-6.1606 -2.6123 -2.4987 0.9718
-5.9036 -3.1503 -2.4987 0.9718
-5.5998 -3.6632 -2.4987 0.9718
-5.2515 -4.1470 -2.4987 0.9718
-4.8615 -4.5979 -2.4987 0.9718
-4.4329 -5.0124 -2.4986 0.9718
-3.9692 -5.3870 -2.4986 0.9718
-3.4739 -5.7188 -2.4986 0.9718
-2.4048 -6.2440 -2.4985 0.9718
-1.8395 -6.4332 -2.4985 0.9718
-1.2596 -6.5713 -2.4985 0.9718
-0.6697 -6.6573 -2.4985 0.9718
-0.0745 -6.6904 -2.4984 0.9718
0.5212 -6.6704 -2.4984 0.9718
2.2649 -6.2955 -2.4983 0.9718
2.8163 -6.0689 -2.4983 0.9718
5.1568 -4.2622 -2.4982 0.9718
5.5157 -3.7863 -2.4982 0.9718
6.3200 -2.1945 -2.4982 0.9718
6.6885 0.1491 -2.4982 0.9718
6.5561 1.3326 -2.4982 0.9718
6.4115 1.9109 -2.4982 0.9718
5.6070 2.8333 -2.3458 0.9735
5.0158 3.7826 -2.3459 0.9735
4.2658 4.6121 -2.3459 0.9735
3.8384 4.9735 -2.3459 0.9735
3.3805 5.2954 -2.3459 0.9735
2.8958 5.5754 -2.3460 0.9735
0.7680 6.2357 -2.3461 0.9735
0.2099 6.2794 -2.3461 0.9735
-0.3498 6.2732 -2.3461 0.9735
-1.9948 5.9581 -2.3462 0.9735
-2.5172 5.7569 -2.3462 0.9735
-3.0196 5.5101 -2.3462 0.9735
-3.4981 5.2195 -2.3463 0.9735
-3.9488 4.8875 -2.3463 0.9735
-6.2710 2.3354 -2.4988 0.9718
-6.4540 1.7679 -2.4988 0.9718
-2.9005 -0.2592 -1.1429 0.9876
-2.8518 -0.5138 -1.1373 0.9876
-5.7449 -2.7441 -2.4987 0.9730
-5.4778 -3.2445 -2.4987 0.9730
-4.8157 -4.1643 -2.4987 0.9730
-4.4259 -4.5763 -2.4986 0.9730
-3.5443 -5.2885 -2.4986 0.9730
-2.0211 -6.0367 -2.4985 0.9730
-1.4758 -6.1926 -2.4985 0.9730
-0.3544 -6.3561 -2.4984 0.9730
0.7782 -6.3180 -2.4984 0.9730
1.3374 -6.2237 -2.4984 0.9730
2.4196 -5.8878 -2.4983 0.9730
3.4252 -5.3654 -2.4983 0.9730
3.8891 -5.0392 -2.4983 0.9730
4.3222 -4.6731 -2.4982 0.9730
4.7209 -4.2698 -2.4982 0.9730
5.0822 -3.8327 -2.4982 0.9730
5.4031 -3.3651 -2.4982 0.9730
6.1001 -1.8180 -2.4982 0.9730
6.2377 -1.2678 -2.4982 0.9730
6.3258 -0.7076 -2.4982 0.9730
6.3637 -0.1418 -2.4982 0.9730
6.2880 0.9887 -2.4982 0.9730
6.1751 1.5445 -2.4982 0.9730
4.6072 3.8080 -2.3459 0.9746
4.2500 4.2029 -2.3459 0.9746
3.8591 4.5646 -2.3459 0.9746
3.4376 4.8900 -2.3459 0.9746
2.9887 5.1766 -2.3460 0.9746
2.5161 5.4221 -2.3460 0.9746
2.0236 5.6246 -2.3460 0.9746
-0.0666 5.9774 -2.3461 0.9746
-1.1254 5.8710 -2.3462 0.9746
-1.6435 5.7476 -2.3462 0.9746
-3.1037 5.1093 -2.3462 0.9746
-3.5461 4.8129 -2.3463 0.9746
-4.6255 4.3747 -2.4987 0.9730
-4.9965 3.9457 -2.4987 0.9730
-5.8615 2.4855 -2.4987 0.9730
-6.3099 0.8486 -2.4988 0.9730
-2.8734 -0.3864 -1.1379 0.9876
-2.8326 -0.6418 -1.1399 0.9876
-5.6169 -2.9973 -2.4987 0.9730
-4.9964 -3.9456 -2.4987 0.9730
-3.7764 -5.1253 -2.4986 0.9730
-3.3052 -5.4411 -2.4986 0.9730
-1.7502 -6.1208 -2.4985 0.9730
0.4959 -6.3465 -2.4984 0.9730
1.6133 -6.1579 -2.4984 0.9730
2.6795 -5.7741 -2.4983 0.9730
3.1828 -5.5127 -2.4983 0.9730
4.1097 -4.8610 -2.4983 0.9730
4.9064 -4.0553 -2.4982 0.9730
5.5476 -3.1210 -2.4982 0.9730
6.0131 -2.0879 -2.4982 0.9730
6.1750 -1.5445 -2.4982 0.9730
6.1002 1.8180 -2.4982 0.9730
5.0736 3.1599 -2.3459 0.9746
4.4330 4.0095 -2.3459 0.9746
3.6520 4.7320 -2.3459 0.9746
1.7710 5.7092 -2.3460 0.9746
1.2558 5.8442 -2.3460 0.9746
-0.8627 5.9153 -2.3461 0.9746
-2.3949 5.4773 -2.3462 0.9746
-3.3282 4.9660 -2.3462 0.9746
-5.1673 3.7193 -2.4987 0.9730
-5.4779 3.2446 -2.4987 0.9730
-5.7449 2.7441 -2.4987 0.9730
-6.1405 1.6821 -2.4988 0.9730
-6.2659 1.1289 -2.4988 0.9730
-4.1298 0.3690 -1.6273 0.9823
-3.1614 0.0000 -1.3018 0.9864
-2.8130 -0.2514 -1.1629 0.9879
-3.8133 -4.7198 -2.4986 0.9741
-3.3781 -5.0404 -2.4986 0.9741
-1.9263 -5.7537 -2.4985 0.9741
-1.4066 -5.9022 -2.4985 0.9741
-0.8757 -6.0039 -2.4985 0.9741
0.7417 -6.0218 -2.4984 0.9741
2.3062 -5.6117 -2.4983 0.9741
2.7965 -5.3842 -2.4983 0.9741
3.2646 -5.1138 -2.4983 0.9741
3.7067 -4.8030 -2.4983 0.9741
4.4995 -4.0696 -2.4982 0.9741
5.4148 -2.7362 -2.4982 0.9741
6.0292 -0.6744 -2.4982 0.9741
6.0653 -0.1352 -2.4982 0.9741
6.0533 0.4053 -2.4982 0.9741
5.9932 0.9424 -2.4982 0.9741
5.7312 1.9901 -2.4982 0.9741
7.9330 4.4630 -3.7481 0.9614
4.3912 3.6294 -2.3459 0.9757
2.8486 4.9338 -2.3460 0.9757
1.9287 5.3609 -2.3460 0.9757
0.9476 5.6180 -2.3461 0.9757
0.4438 5.6801 -2.3461 0.9757
-0.0635 5.6971 -2.3461 0.9757
-0.5703 5.6689 -2.3461 0.9757
-1.0726 5.5957 -2.3461 0.9757
-2.0478 5.3170 -2.3462 0.9757
-3.3798 4.5871 -2.3462 0.9757
-3.7884 4.2836 -2.3548 0.9756
-4.4085 4.1696 -2.4987 0.9741
-5.3536 2.8568 -2.4987 0.9741
-5.7753 1.8623 -2.4987 0.9741
-5.9181 1.3409 -2.4987 0.9741
-6.0140 0.8088 -2.4987 0.9741
-3.5093 0.1565 -1.4465 0.9849
-2.7756 -0.6288 -1.1719 0.9878
-2.7775 -0.8956 -1.2017 0.9875
-2.8016 -1.1879 -1.2531 0.9869
-5.3535 -2.8567 -2.4987 0.9741
-5.0779 -3.3218 -2.4987 0.9741
-4.7621 -3.7606 -2.4987 0.9741
-4.4085 -4.1695 -2.4986 0.9741
-3.5993 -4.8850 -2.4986 0.9741
-2.6761 -5.4456 -2.4986 0.9741
-2.1807 -5.6621 -2.4985 0.9741
-1.6681 -5.8337 -2.4985 0.9741
-0.0676 -6.0670 -2.4984 0.9741
0.4727 -6.0489 -2.4984 0.9741
1.5376 -5.8691 -2.4984 0.9741
2.5539 -5.5034 -2.4983 0.9741
3.9170 -4.6330 -2.4983 0.9741
5.5313 -2.4923 -2.4982 0.9741
6.0653 0.1352 -2.4982 0.9741
6.0292 0.6745 -2.4982 0.9741
5.9453 1.2084 -2.4982 0.9741
8.4570 3.3658 -3.7481 0.9614
4.2252 3.8215 -2.3459 0.9757
3.4807 4.5101 -2.3459 0.9757
3.0655 4.8021 -2.3460 0.9757
2.6260 5.0559 -2.3460 0.9757
2.1656 5.2696 -2.3460 0.9757
1.1970 5.5702 -2.3460 0.9757
0.6964 5.6546 -2.3461 0.9757
0.1904 5.6943 -2.3461 0.9757
-1.3208 5.5424 -2.3462 0.9757
-2.7382 4.9966 -2.3462 0.9757
-3.5808 4.4320 -2.3463 0.9757
-4.1841 4.3263 -2.4783 0.9743
-4.5899 3.9691 -2.4987 0.9741
-4.9250 3.5448 -2.4987 0.9741
-5.9720 1.0759 -2.4987 0.9741
-3.9772 0.3554 -1.6443 0.9829
-2.7539 -0.2461 -1.1927 0.9880
-2.7209 -1.0132 -1.2524 0.9874
-4.3815 -3.7888 -2.4986 0.9751
-3.6403 -4.5056 -2.4986 0.9751
-2.7837 -5.0796 -2.4986 0.9751
-2.3205 -5.3071 -2.4985 0.9751
-1.8389 -5.4926 -2.4985 0.9751
-1.3427 -5.6344 -2.4985 0.9751
0.1935 -5.7887 -2.4984 0.9751
0.7080 -5.7485 -2.4984 0.9751
1.2168 -5.6626 -2.4984 0.9751
2.2015 -5.3571 -2.4983 0.9751
2.6696 -5.1398 -2.4983 0.9751
3.1164 -4.8818 -2.4983 0.9751
3.5385 -4.5850 -2.4983 0.9751
3.9325 -4.2518 -2.4983 0.9751
4.2954 -3.8849 -2.4983 0.9751
4.6241 -3.4871 -2.4982 0.9751
4.9161 -3.0617 -2.4982 0.9751
5.1690 -2.6120 -2.4982 0.9751
5.3810 -2.1416 -2.4982 0.9751
5.5502 -1.6541 -2.4982 0.9751
5.7556 -0.6438 -2.4982 0.9751
5.7901 -0.1290 -2.4982 0.9751
5.7786 0.3869 -2.4982 0.9751
7.9221 3.5695 -3.7481 0.9629
7.5730 4.2605 -3.7482 0.9629
4.1919 3.4647 -2.3459 0.9766
3.8669 3.8241 -2.3459 0.9766
3.5112 4.1531 -2.3459 0.9766
2.2893 4.9333 -2.3460 0.9766
1.3784 5.2612 -2.3460 0.9766
0.9046 5.3630 -2.3461 0.9766
-1.0239 5.3418 -2.3461 0.9766
-2.3989 4.8815 -2.3462 0.9766
-2.8238 4.6487 -2.3462 0.9766
-3.2264 4.3790 -2.3462 0.9766
-4.2085 3.9804 -2.4987 0.9751
-5.1106 2.7271 -2.4987 0.9751
-5.3330 2.2614 -2.4987 0.9751
-5.5132 1.7778 -2.4987 0.9751
-5.6495 1.2800 -2.4987 0.9751
-2.7200 -0.6163 -1.2030 0.9879
-2.7166 -0.8760 -1.2313 0.9876
-5.1105 -2.7270 -2.4987 0.9751
-4.5460 -3.5899 -2.4986 0.9751
-4.2084 -3.9803 -2.4986 0.9751
-3.8374 -4.3390 -2.4986 0.9751
-3.0072 -4.9505 -2.4986 0.9751
-2.0818 -5.4052 -2.4985 0.9751
-1.5924 -5.5690 -2.4985 0.9751
-1.0904 -5.6886 -2.4985 0.9751
-0.5798 -5.7630 -2.4985 0.9751
0.4512 -5.7744 -2.4984 0.9751
0.9634 -5.7112 -2.4984 0.9751
2.4380 -5.2537 -2.4983 0.9751
2.8959 -5.0158 -2.4983 0.9751
4.1180 -4.0724 -2.4983 0.9751
4.4641 -3.6897 -2.4982 0.9751
5.0476 -2.8397 -2.4982 0.9751
5.2803 -2.3792 -2.4982 0.9751
5.4711 -1.8997 -2.4982 0.9751
5.7212 -0.8996 -2.4982 0.9751
5.5503 1.6542 -2.4982 0.9751
5.3811 2.1417 -2.4982 0.9751
2.5068 4.8264 -2.3460 0.9766
2.0673 5.0304 -2.3460 0.9766
1.6114 5.1945 -2.3460 0.9766
0.1817 5.4358 -2.3461 0.9766
-0.3028 5.4305 -2.3461 0.9766
-0.7849 5.3820 -2.3461 0.9766
-1.2609 5.2909 -2.3462 0.9766
-3.0281 4.5183 -2.3462 0.9766
-3.4183 4.2309 -2.3462 0.9766
-4.0270 4.1639 -2.4987 0.9751
-4.3816 3.7889 -2.4987 0.9751
-4.7015 3.3839 -2.4987 0.9751
-4.9840 2.9521 -2.4987 0.9751
-5.4285 2.0216 -2.4987 0.9751
-5.7009 1.0271 -2.4987 0.9751
-2.7005 -0.2413 -1.2234 0.9882
-2.6738 -0.4817 -1.2259 0.9881
-2.6546 -0.7272 -1.2419 0.9880
-2.6666 -1.2737 -1.3334 0.9871
-2.6867 -1.5913 -1.4090 0.9864
-4.4945 -3.2349 -2.4986 0.9760
-4.1887 -3.6221 -2.4986 0.9760
-3.8496 -3.9805 -2.4986 0.9760
-3.4800 -4.3073 -2.4986 0.9760
-3.0828 -4.5999 -2.4986 0.9760
-2.6612 -4.8560 -2.4986 0.9760
-0.3083 -5.5285 -2.4984 0.9760
2.1046 -5.1213 -2.4983 0.9760
3.3828 -4.3832 -2.4983 0.9760
4.9416 -2.4971 -2.4982 0.9760
5.1442 -2.0473 -2.4982 0.9760
5.3060 -1.5813 -2.4982 0.9760
5.5352 -0.1233 -2.4982 0.9760
5.5243 0.3698 -2.4982 0.9760
5.4694 0.8600 -2.4982 0.9760
5.3712 1.3435 -2.4982 0.9760
7.5735 3.4125 -3.7481 0.9642
6.8484 4.7013 -3.7482 0.9642
3.6967 3.6558 -2.3459 0.9774
3.3567 3.9703 -2.3459 0.9774
2.5996 4.5027 -2.3460 0.9774
0.8648 5.1270 -2.3461 0.9774
-1.8688 4.8523 -2.3462 0.9774
-2.2933 4.6667 -2.3462 0.9774
-2.6995 4.4441 -2.3462 0.9774
-3.6685 4.1481 -2.4987 0.9760
-4.0232 3.8052 -2.4987 0.9760
-4.8856 2.6071 -2.4987 0.9760
-5.0983 2.1619 -2.4987 0.9760
-5.2705 1.6995 -2.4987 0.9760
-5.4008 1.2237 -2.4987 0.9760
-3.2609 0.1454 -1.4728 0.9858
-4.3459 -3.4319 -2.4986 0.9760
-4.0231 -3.8051 -2.4986 0.9760
-3.6685 -4.1480 -2.4986 0.9760
-2.8748 -4.7326 -2.4986 0.9760
-2.4422 -4.9697 -2.4985 0.9760
-1.9901 -5.1673 -2.4985 0.9760
-1.5223 -5.3238 -2.4985 0.9760
-1.0424 -5.4382 -2.4985 0.9760
-0.5542 -5.5093 -2.4985 0.9760
-0.0617 -5.5367 -2.4984 0.9760
1.4033 -5.3562 -2.4984 0.9760
2.3307 -5.0224 -2.4983 0.9760
3.1842 -4.5296 -2.4983 0.9760
3.5747 -4.2281 -2.4983 0.9760
4.2677 -3.5273 -2.4983 0.9760
4.5647 -3.1334 -2.4982 0.9760
5.2303 -1.8161 -2.4982 0.9760
5.3712 -1.3434 -2.4982 0.9760
5.4694 -0.8600 -2.4982 0.9760
5.5243 -0.3698 -2.4982 0.9760
5.5352 0.1234 -2.4982 0.9760
5.3060 1.5814 -2.4982 0.9760
5.1442 2.0474 -2.4982 0.9760
7.4139 3.7465 -3.7482 0.9642
4.1510 3.1304 -2.3459 0.9774
3.8559 3.4875 -2.3459 0.9774
3.1765 4.1160 -2.3459 0.9774
1.9763 4.8091 -2.3460 0.9774
1.5404 4.9659 -2.3460 0.9774
1.0923 5.0834 -2.3460 0.9774
-0.2895 5.1915 -2.3461 0.9774
-0.7504 5.1452 -2.3461 0.9774
-1.6508 4.9306 -2.3462 0.9774
-2.0831 4.7642 -2.3462 0.9774
-2.4989 4.5599 -2.3462 0.9774
-2.8948 4.3194 -2.3462 0.9774
-3.8497 3.9806 -2.4987 0.9760
-4.4945 3.2350 -2.4987 0.9760
-4.7646 2.8221 -2.4987 0.9760
-5.1895 1.9326 -2.4987 0.9760
-5.3410 1.4631 -2.4987 0.9760
-5.4500 0.9819 -2.4987 0.9760
-3.7666 0.3366 -1.7063 0.9835
-2.9112 0.0000 -1.3723 0.9872
-2.6212 -0.4722 -1.2555 0.9883
-2.6016 -0.7127 -1.2715 0.9881
-2.6023 -0.9691 -1.3090 0.9878
-2.6596 -1.5753 -1.4571 0.9864
-4.3022 -3.0965 -2.4986 0.9768
-2.9510 -4.4031 -2.4986 0.9768
-2.5473 -4.6483 -2.4986 0.9768
-0.2951 -5.2921 -2.4984 0.9768
0.1771 -5.2973 -2.4984 0.9768
0.6479 -5.2605 -2.4984 0.9768
1.1135 -5.1819 -2.4984 0.9768
1.5703 -5.0622 -2.4984 0.9768
2.0146 -4.9023 -2.4983 0.9768
2.8519 -4.4673 -2.4983 0.9768
3.5987 -3.8909 -2.4983 0.9768
3.9307 -3.5551 -2.4983 0.9768
4.2315 -3.1911 -2.4983 0.9768
4.7302 -2.3903 -2.4982 0.9768
4.9242 -1.9598 -2.4982 0.9768
5.0791 -1.5137 -2.4982 0.9768
5.1937 -1.0557 -2.4982 0.9768
5.2985 -0.1181 -2.4982 0.9768
5.2880 0.3540 -2.4982 0.9768
5.1415 1.2860 -2.4982 0.9768
5.0067 1.7385 -2.4983 0.9768
4.1396 2.8417 -2.3668 0.9780
3.2132 3.8005 -2.3459 0.9782
2.4884 4.3101 -2.3460 0.9782
1.6848 4.6831 -2.3460 0.9782
0.3877 4.9620 -2.3461 0.9782
-0.0554 4.9769 -2.3461 0.9782
-0.4982 4.9522 -2.3461 0.9782
-1.3684 4.7855 -2.3462 0.9782
-2.5841 4.2540 -2.3462 0.9782
-3.5116 3.9707 -2.4986 0.9768
-4.1601 3.2852 -2.4987 0.9768
-4.4360 2.9019 -2.4987 0.9768
-5.1698 1.1713 -2.4987 0.9768
-5.2536 0.7066 -2.4987 0.9768
-2.6131 -0.5920 -1.2630 0.9882
-2.6038 -1.1041 -1.3332 0.9876
-4.4359 -2.9018 -2.4986 0.9768
-3.5116 -3.9706 -2.4986 0.9768
-2.7519 -4.5302 -2.4986 0.9768
-2.3377 -4.7571 -2.4985 0.9768
-1.9050 -4.9463 -2.4985 0.9768
-0.9978 -5.2056 -2.4985 0.9768
-0.5305 -5.2737 -2.4985 0.9768
0.4129 -5.2841 -2.4984 0.9768
1.3432 -5.1271 -2.4984 0.9768
2.2310 -4.8077 -2.4983 0.9768
2.6500 -4.5900 -2.4983 0.9768
3.0480 -4.3359 -2.4983 0.9768
3.4218 -4.0473 -2.4983 0.9768
3.7684 -3.7267 -2.4983 0.9768
4.0852 -3.3765 -2.4983 0.9768
4.3695 -2.9994 -2.4983 0.9768
4.6191 -2.5987 -2.4982 0.9768
4.8320 -2.1772 -2.4982 0.9768
5.0066 -1.7385 -2.4982 0.9768
5.2880 -0.3540 -2.4982 0.9768
5.2985 0.1181 -2.4982 0.9768
4.9243 1.9598 -2.4983 0.9768
7.0969 3.5862 -3.7482 0.9654
6.7496 4.2037 -3.7482 0.9654
3.6910 3.3383 -2.3459 0.9782
3.3793 3.6537 -2.3459 0.9782
2.6780 4.1950 -2.3460 0.9782
2.2940 4.4167 -2.3460 0.9782
1.4746 4.7535 -2.3460 0.9782
1.0456 4.8660 -2.3460 0.9782
0.6084 4.9398 -2.3461 0.9782
-0.2771 4.9694 -2.3461 0.9782
-1.5802 4.7198 -2.3462 0.9782
-1.9940 4.5604 -2.3462 0.9782
-2.7710 4.1347 -2.3462 0.9782
-3.3313 4.1232 -2.4986 0.9768
-3.6850 3.8104 -2.4987 0.9768
-5.1125 1.4005 -2.4987 0.9768
-2.5903 -0.2314 -1.2791 0.9885
-2.5698 -0.4630 -1.2843 0.9884
-3.1925 -3.9514 -2.4986 0.9776
-2.8281 -4.2198 -2.4986 0.9776
-2.0351 -4.6543 -2.4985 0.9776
-1.6127 -4.8170 -2.4985 0.9776
-0.7331 -5.0265 -2.4985 0.9776
0.6209 -5.0415 -2.4984 0.9776
2.3412 -4.5077 -2.4983 0.9776
3.7671 -3.4071 -2.4983 0.9776
4.3115 -2.6852 -2.4983 0.9776
4.7192 -1.8782 -2.4982 0.9776
4.8676 -1.4507 -2.4982 0.9776
4.9774 -1.0117 -2.4982 0.9776
5.0477 -0.5646 -2.4982 0.9776
5.0780 -0.1131 -2.4982 0.9776
5.0176 0.7890 -2.4982 0.9776
4.7982 1.6661 -2.4983 0.9776
6.6416 3.7365 -3.7482 0.9666
4.1198 2.8282 -2.4579 0.9780
3.6764 3.0386 -2.3459 0.9790
3.3913 3.3538 -2.3459 0.9790
2.7430 3.9020 -2.3460 0.9790
2.0077 4.3266 -2.3460 0.9790
1.6147 4.4881 -2.3460 0.9790
0.7934 4.7034 -2.3461 0.9790
-0.4774 4.7460 -2.3461 0.9790
-1.7144 4.4513 -2.3462 0.9790
-3.0134 4.0898 -2.4986 0.9776
-3.3654 3.8053 -2.4986 0.9776
-3.6908 3.4908 -2.4987 0.9776
-4.6770 1.9832 -2.4987 0.9776
-4.8350 1.5591 -2.4987 0.9776
-5.0348 0.6771 -2.4987 0.9776
-3.0630 0.1366 -1.5081 0.9864
-2.5845 -0.3476 -1.2826 0.9884
-2.5616 -0.5804 -1.2919 0.9884
-2.5430 -0.8200 -1.3142 0.9882
-2.5441 -1.0788 -1.3592 0.9878
-4.2512 -2.7810 -2.4986 0.9776
-3.6907 -3.4907 -2.4986 0.9776
-3.3654 -3.8053 -2.4986 0.9776
-3.0133 -4.0896 -2.4986 0.9776
-2.2404 -4.5591 -2.4985 0.9776
-1.8257 -4.7404 -2.4985 0.9776
-1.3965 -4.8840 -2.4985 0.9776
-0.9563 -4.9889 -2.4985 0.9776
1.2873 -4.9137 -2.4984 0.9776
2.5397 -4.3989 -2.4983 0.9776
2.9211 -4.1553 -2.4983 0.9776
3.2794 -3.8788 -2.4983 0.9776
3.6116 -3.5715 -2.4983 0.9776
4.1876 -2.8746 -2.4983 0.9776
5.0780 0.1132 -2.4982 0.9776
4.8677 1.4508 -2.4983 0.9776
6.4686 4.0287 -3.7482 0.9666
3.8402 2.8961 -2.3657 0.9788
3.2386 3.5015 -2.3459 0.9790
2.5665 4.0203 -2.3460 0.9790
1.8130 4.4117 -2.3460 0.9790
0.5831 4.7341 -2.3461 0.9790
-1.1058 4.6401 -2.3461 0.9790
-2.2924 4.1832 -2.3462 0.9790
-2.7316 4.0759 -2.4133 0.9784
-3.1926 3.9515 -2.4986 0.9776
-3.5316 3.6517 -2.4986 0.9776
-4.1232 2.9677 -2.4987 0.9776
-4.3709 2.5889 -2.4987 0.9776
-4.5840 2.1896 -2.4987 0.9776
-4.7607 1.7729 -2.4987 0.9776
-3.6334 0.3247 -1.7942 0.9839
-2.5198 -0.4540 -1.3126 0.9886
-2.4895 -0.9271 -1.3619 0.9881
-2.4879 -1.1884 -1.4135 0.9877
-2.4521 -1.4524 -1.4611 0.9873
-2.3422 -4.2739 -2.4985 0.9783
-1.5472 -4.6214 -2.4985 0.9783
-1.1298 -4.7407 -2.4985 0.9783
-0.2713 -4.8659 -2.4984 0.9783
0.1629 -4.8706 -2.4984 0.9783
1.4438 -4.6544 -2.4984 0.9783
1.8524 -4.5074 -2.4984 0.9783
2.2462 -4.3247 -2.4983 0.9783
2.9773 -3.8578 -2.4983 0.9783
3.6141 -3.2688 -2.4983 0.9783
4.6700 -1.3918 -2.4982 0.9783
4.8718 -0.1086 -2.4982 0.9783
4.8621 0.3255 -2.4982 0.9783
4.8139 0.7570 -2.4983 0.9783
4.7274 1.1824 -2.4983 0.9783
4.6034 1.5985 -2.4983 0.9783
6.3719 3.5848 -3.7482 0.9677
4.0176 2.7580 -2.4983 0.9783
2.2880 3.9630 -2.3460 0.9796
0.3565 4.5623 -2.3461 0.9796
-0.0510 4.5760 -2.3461 0.9796
-1.2581 4.4000 -2.3461 0.9796
-2.0184 4.1073 -2.3462 0.9796
-2.8910 3.9237 -2.4986 0.9783
-3.2288 3.6509 -2.4986 0.9783
-4.0786 2.6681 -2.4987 0.9783
-4.4871 1.9027 -2.4987 0.9783
-4.6387 1.4958 -2.4987 0.9783
-4.7534 1.0770 -2.4987 0.9783
-2.5113 -0.5690 -1.3201 0.9885
-2.4879 -1.0550 -1.3854 0.9879
-4.0786 -2.6680 -2.4986 0.9783
-3.8249 -3.0205 -2.4986 0.9783
-3.2287 -3.6508 -2.4986 0.9783
-2.5302 -4.1653 -2.4986 0.9783
-1.7516 -4.5479 -2.4985 0.9783
-0.9175 -4.7863 -2.4985 0.9783
-0.4878 -4.8489 -2.4985 0.9783
-0.0543 -4.8731 -2.4984 0.9783
0.3797 -4.8585 -2.4984 0.9783
1.2351 -4.7142 -2.4984 0.9783
1.6497 -4.5855 -2.4984 0.9783
2.8025 -3.9866 -2.4983 0.9783
3.4649 -3.4265 -2.4983 0.9783
3.7562 -3.1045 -2.4983 0.9783
4.0175 -2.7579 -2.4983 0.9783
4.4429 -2.0018 -2.4983 0.9783
4.8139 -0.7569 -2.4982 0.9783
4.8621 -0.3254 -2.4982 0.9783
3.1071 3.3594 -2.3459 0.9796
2.7958 3.6226 -2.3460 0.9796
2.1092 4.0610 -2.3460 0.9796
0.5594 4.5419 -2.3461 0.9796
0.1529 4.5737 -2.3461 0.9796
-0.6604 4.5284 -2.3461 0.9796
-1.0609 4.4517 -2.3461 0.9796
-1.4529 4.3396 -2.3462 0.9796
-1.8334 4.1931 -2.3462 0.9796
-2.1994 4.0133 -2.3462 0.9796
-4.5674 1.7009 -2.4987 0.9783
-4.7967 0.8642 -2.4987 0.9783
-2.4853 -0.2221 -1.3321 0.9887
-2.4501 -0.6711 -1.3561 0.9885
-2.3944 -1.4182 -1.4856 0.9875
-3.5403 -3.0614 -2.4986 0.9790
-2.9414 -3.6406 -2.4986 0.9790
-1.8750 -4.2882 -2.4985 0.9790
-1.4859 -4.4381 -2.4985 0.9790
0.1564 -4.6775 -2.4984 0.9790
0.5721 -4.6449 -2.4984 0.9790
0.9832 -4.5755 -2.4984 0.9790
1.7789 -4.3287 -2.4984 0.9790
2.1571 -4.1531 -2.4983 0.9790
2.5182 -3.9446 -2.4983 0.9790
3.7364 -2.8178 -2.4983 0.9790
3.9724 -2.4740 -2.4983 0.9790
4.1768 -2.1106 -2.4983 0.9790
4.5860 -0.9321 -2.4983 0.9790
4.6786 -0.1042 -2.4983 0.9790
4.6693 0.3126 -2.4983 0.9790
4.5399 1.1355 -2.4983 0.9790
4.4209 1.5351 -2.4983 0.9790
4.0787 2.2946 -2.4983 0.9790
3.8583 2.6486 -2.4983 0.9790
2.8372 3.3559 -2.3460 0.9803
2.5273 3.5951 -2.3460 0.9803
0.7310 4.3335 -2.3461 0.9803
-0.0490 4.3944 -2.3461 0.9803
-1.5795 4.1012 -2.3462 0.9803
-2.4299 4.0002 -2.4986 0.9790
-2.7763 3.7681 -2.4986 0.9790
-3.4005 3.2162 -2.4986 0.9790
-3.6732 2.9008 -2.4986 0.9790
-4.1294 2.2035 -2.4987 0.9790
-4.3091 1.8272 -2.4987 0.9790
-4.4547 1.4365 -2.4987 0.9790
-4.5648 1.0343 -2.4987 0.9790
-2.8952 0.1291 -1.5471 0.9869
-2.4621 -0.5578 -1.3477 0.9886
-2.4353 -0.7853 -1.3660 0.9885
-2.4330 -1.0317 -1.4108 0.9881
-2.4322 -1.5911 -1.5516 0.9869
-3.6732 -2.9007 -2.4986 0.9790
-3.4004 -3.2161 -2.4986 0.9790
-3.1007 -3.5060 -2.4986 0.9790
-2.4299 -4.0001 -2.4986 0.9790
-1.6821 -4.3675 -2.4985 0.9790
-1.2867 -4.4998 -2.4985 0.9790
-0.8811 -4.5965 -2.4985 0.9790
0.3646 -4.6658 -2.4984 0.9790
0.7784 -4.6148 -2.4984 0.9790
1.5843 -4.4036 -2.4984 0.9790
1.9699 -4.2451 -2.4984 0.9790
3.3275 -3.2906 -2.4983 0.9790
4.2667 -1.9225 -2.4983 0.9790
4.6229 -0.7269 -2.4983 0.9790
4.6786 0.1043 -2.4983 0.9790
4.5860 0.9322 -2.4983 0.9790
4.4848 1.3366 -2.4983 0.9790
4.3481 1.7305 -2.4983 0.9790
3.7365 2.8178 -2.4983 0.9790
3.3060 2.9901 -2.3796 0.9800
2.9839 3.2261 -2.3460 0.9803
2.3646 3.7041 -2.3460 0.9803
2.0256 3.8999 -2.3460 0.9803
1.3020 4.1973 -2.3460 0.9803
0.9233 4.2966 -2.3461 0.9803
0.1468 4.3923 -2.3461 0.9803
-0.6342 4.3488 -2.3461 0.9803
-1.3953 4.1675 -2.3462 0.9803
-1.7607 4.0268 -2.3462 0.9803
-3.5404 3.0615 -2.4986 0.9790
-4.2235 2.0174 -2.4987 0.9790
-4.6064 0.8299 -2.4987 0.9790
-3.5314 0.3156 -1.8927 0.9841
-2.5975 0.0000 -1.4427 0.9882
-2.4347 -0.2175 -1.3576 0.9889
-2.4243 -0.4368 -1.3681 0.9888
-2.4018 -0.6579 -1.3831 0.9887
-2.3823 -0.8872 -1.4119 0.9884
-3.6514 -2.6281 -2.4986 0.9796
-3.4029 -2.9426 -2.4986 0.9796
-3.1275 -3.2338 -2.4986 0.9796
-2.5045 -3.7370 -2.4986 0.9796
-1.8022 -4.1218 -2.4985 0.9796
-1.0429 -4.3760 -2.4985 0.9796
0.1503 -4.4960 -2.4984 0.9796
1.3328 -4.2964 -2.4984 0.9796
1.7099 -4.1607 -2.4984 0.9796
2.0734 -3.9920 -2.4983 0.9796
2.4204 -3.7916 -2.4983 0.9796
2.7483 -3.5611 -2.4983 0.9796
4.1793 -1.6633 -2.4983 0.9796
4.4703 -0.5000 -2.4983 0.9796
4.4881 0.3004 -2.4983 0.9796
4.4436 0.6987 -2.4983 0.9796
4.1011 1.8479 -2.4983 0.9796
3.9204 2.2056 -2.4983 0.9796
3.0649 3.0310 -2.3940 0.9805
2.4292 3.4556 -2.3460 0.9809
1.4300 3.9747 -2.3460 0.9809
0.3291 4.2113 -2.3461 0.9809
-0.0471 4.2239 -2.3461 0.9809
-0.4228 4.2030 -2.3461 0.9809
-0.7952 4.1487 -2.3461 0.9809
-1.9301 3.9276 -2.4305 0.9802
-2.6686 3.6218 -2.4986 0.9796
-3.2685 3.0913 -2.4986 0.9796
-3.9691 2.1180 -2.4987 0.9796
-4.1419 1.7563 -2.4987 0.9796
-4.4588 0.5997 -2.4987 0.9796
-2.4745 -0.1103 -1.3757 0.9887
-2.3600 -1.2593 -1.4857 0.9878
-3.5306 -2.7881 -2.4986 0.9796
-3.2685 -3.0912 -2.4986 0.9796
-2.6685 -3.6218 -2.4986 0.9796
-1.2368 -4.3252 -2.4985 0.9796
0.3504 -4.4848 -2.4984 0.9796
1.5228 -4.2327 -2.4984 0.9796
1.8935 -4.0804 -2.4984 0.9796
2.5870 -3.6800 -2.4983 0.9796
2.9042 -3.4351 -2.4983 0.9796
3.1984 -3.1629 -2.4983 0.9796
3.7085 -2.5458 -2.4983 0.9796
4.4436 -0.6987 -2.4983 0.9796
4.4080 0.8960 -2.4983 0.9796
4.3108 1.2848 -2.4983 0.9796
4.1794 1.6634 -2.4983 0.9796
3.5915 2.7085 -2.4983 0.9796
2.8681 3.1010 -2.3460 0.9809
2.5807 3.3439 -2.3460 0.9809
2.2729 3.5604 -2.3460 0.9809
1.9470 3.7486 -2.3460 0.9809
1.6056 3.9070 -2.3460 0.9809
1.2515 4.0345 -2.3460 0.9809
0.1412 4.2218 -2.3461 0.9809
-0.2352 4.2177 -2.3461 0.9809
-0.6096 4.1800 -2.3461 0.9809
-0.9793 4.1092 -2.3461 0.9809
-1.3411 4.0058 -2.3461 0.9809
-1.7050 3.8995 -2.3637 0.9807
-2.5046 3.7371 -2.4986 0.9796
-2.8273 3.4994 -2.4986 0.9796
-3.4030 2.9427 -2.4986 0.9796
-3.6514 2.6281 -2.4986 0.9796
-3.8708 2.2927 -2.4987 0.9796
-4.0595 1.9391 -2.4987 0.9796
-4.3390 1.1886 -2.4987 0.9796
-2.5383 0.2268 -1.4154 0.9884
-2.3780 -0.4284 -1.3951 0.9889
-2.3545 -0.6450 -1.4095 0.9888
-2.3203 -1.1083 -1.4846 0.9882
-2.2443 -1.3293 -1.5060 0.9880
-2.1928 -1.5783 -1.5599 0.9876
-3.2735 -2.8307 -2.4986 0.9802
-3.0086 -3.1108 -2.4986 0.9802
-2.4093 -3.5949 -2.4986 0.9802
-1.7337 -3.9651 -2.4985 0.9802
-1.3739 -4.1036 -2.4985 0.9802
-1.0032 -4.2096 -2.4985 0.9802
-0.6245 -4.2822 -2.4985 0.9802
-0.2409 -4.3207 -2.4985 0.9802
0.1446 -4.3250 -2.4984 0.9802
0.5290 -4.2949 -2.4984 0.9802
0.9091 -4.2308 -2.4984 0.9802
2.6438 -3.4257 -2.4983 0.9802
2.9382 -3.1768 -2.4983 0.9802
3.4549 -2.6054 -2.4983 0.9802
3.6730 -2.2876 -2.4983 0.9802
3.8621 -1.9516 -2.4983 0.9802
4.0204 -1.6001 -2.4983 0.9802
