ply
format ascii 1.0
element vertex 1588
property float32 x
property float32 y
property float32 z
property float32 I
end_header
6.1717 -7.2999 0.3975 0.9625
4.2100 -8.1058 0.2278 0.9641
4.8224 -7.5542 0.2235 0.9648
5.6313 -7.2967 0.2299 0.9638
4.4971 -7.7893 0.2243 0.9647
3.8627 -9.3992 0.0845 0.9602
5.6459 -7.3156 0.0768 0.9637
4.5076 -7.8074 0.0749 0.9646
5.2060 -7.4057 0.0752 0.9644
-5.6542 6.9983 0.0748 0.9647
5.6790 -7.3585 -0.0773 0.9635
4.5307 -7.8473 -0.0753 0.9644
5.2334 -7.4446 -0.0756 0.9643
6.2688 -7.4148 -0.0807 0.9619
-5.6531 6.9969 -0.0748 0.9647
4.8825 -7.6482 -0.2263 0.9643
4.0397 -8.7053 -0.2393 0.9623
4.5540 -7.8877 -0.2271 0.9642
5.2611 -7.4840 -0.2281 0.9641
5.7665 -7.4718 -0.3924 0.9629
4.0917 -8.8174 -0.4042 0.9618
5.3049 -7.5462 -0.3835 0.9637
6.4220 -7.5960 -0.4136 0.9610
-5.6509 6.9942 -0.3739 0.9646
4.9661 -7.7793 -0.5375 0.9637
6.5715 -7.7728 -0.5928 0.9600
5.0254 -7.8721 -0.6999 0.9632
4.6900 -8.1233 -0.7029 0.9631
5.4236 -7.7151 -0.7067 0.9629
4.7606 -8.2456 -0.8729 0.9625
5.5100 -7.8381 -0.8784 0.9622
-5.6475 6.9900 -0.8238 0.9645
4.6482 -8.9493 -1.0938 0.9602
5.2069 -8.1565 -1.0496 0.9618
6.3614 -8.2427 -1.1294 0.9590
4.8698 -8.4348 -1.0564 0.9616
5.6470 -8.0329 -1.0651 0.9613
-5.6464 6.9886 -0.9745 0.9645
5.3660 -8.4056 -1.2497 0.9606
-5.6441 6.9858 -1.2774 0.9644
14.6006 2.2959 -2.3535 0.9419
14.3384 3.5863 -2.3535 0.9419
13.9622 4.8482 -2.3535 0.9419
13.4753 6.0717 -2.3535 0.9419
12.8814 7.2470 -2.3535 0.9419
12.1853 8.3647 -2.3535 0.9419
11.3924 9.4161 -2.3535 0.9419
10.5091 10.3927 -2.3535 0.9419
5.0035 13.9074 -2.3535 0.9419
2.4584 14.5742 -2.3535 0.9419
1.1514 14.7351 -2.3535 0.9419
-1.4794 14.7059 -2.3535 0.9419
-6.5186 13.2649 -2.3535 0.9419
-7.6733 12.6321 -2.3535 0.9419
-8.7672 11.8990 -2.3535 0.9419
-9.7915 11.0714 -2.3535 0.9419
14.6884 1.6432 -2.3535 0.9419
14.1644 4.2215 -2.3535 0.9419
12.5458 7.8137 -2.3535 0.9419
10.9616 9.9143 -2.3535 0.9419
7.9529 12.4580 -2.3535 0.9419
6.8125 13.1164 -2.3535 0.9419
4.3790 14.1165 -2.3535 0.9419
3.1051 14.4502 -2.3535 0.9419
1.8067 14.6693 -2.3535 0.9419
0.4939 14.7718 -2.3535 0.9419
-0.8228 14.7571 -2.3535 0.9419
-2.1330 14.6253 -2.3535 0.9419
-3.4263 14.3775 -2.3535 0.9419
-4.6924 14.0154 -2.3535 0.9419
-7.1030 12.9614 -2.3535 0.9419
-8.2284 12.2778 -2.3535 0.9419
-11.1798 9.6676 -2.3535 0.9419
-12.7168 7.5322 -2.3535 0.9419
-14.2118 0.0001 -2.5059 0.9439
-13.9866 -2.5198 -2.5059 0.9439
-13.7068 -3.7546 -2.5059 0.9439
-12.8239 -6.1254 -2.5059 0.9439
-12.2278 -7.2426 -2.5059 0.9439
-10.7500 -9.2958 -2.5059 0.9439
-8.9315 -11.0546 -2.5059 0.9439
-4.5119 -13.4765 -2.5059 0.9439
-2.0510 -14.0630 -2.5059 0.9439
-0.7912 -14.1897 -2.5059 0.9439
2.9858 -13.8945 -2.5059 0.9439
7.6471 -11.9790 -2.5059 0.9439
10.5402 -9.5330 -2.5059 0.9439
13.2044 -5.2552 -2.5059 0.9439
13.9270 -2.8307 -2.5059 0.9439
14.2083 -0.3166 -2.5059 0.9439
13.1855 2.0733 -2.3535 0.9472
12.9486 3.2387 -2.3535 0.9472
12.1692 5.4832 -2.3535 0.9472
11.6329 6.5446 -2.3535 0.9472
8.6175 10.1929 -2.3535 0.9472
7.6761 10.9194 -2.3535 0.9472
3.3827 12.9118 -2.3535 0.9472
2.2201 13.1616 -2.3535 0.9472
-0.1487 13.3467 -2.3535 0.9472
-1.3360 13.2805 -2.3535 0.9472
-2.5127 13.1089 -2.3535 0.9472
-7.9175 10.7457 -2.3535 0.9472
-8.8425 9.9984 -2.3535 0.9472
-9.6973 9.1716 -2.3535 0.9472
-11.1698 7.3070 -2.3535 0.9472
-11.7758 6.2838 -2.3535 0.9472
-13.0841 5.5482 -2.5059 0.9439
-13.5260 4.3616 -2.5059 0.9439
-14.0850 -1.8942 -2.5059 0.9439
-11.1534 -8.8077 -2.5059 0.9439
-9.4150 -10.6457 -2.5059 0.9439
-8.4301 -11.4414 -2.5059 0.9439
-7.3783 -12.1464 -2.5059 0.9439
-6.2680 -12.7549 -2.5059 0.9439
-5.1078 -13.2621 -2.5059 0.9439
-0.1583 -14.2108 -2.5059 0.9439
2.3638 -14.0138 -2.5059 0.9439
12.9572 -5.8382 -2.5059 0.9439
13.7871 -3.4483 -2.5059 0.9439
14.1801 -0.9492 -2.5059 0.9439
14.2083 0.3167 -2.5059 0.9439
12.7915 3.8123 -2.3535 0.9472
12.4014 4.9357 -2.3535 0.9472
11.9129 6.0199 -2.3535 0.9472
10.6568 8.0367 -2.3535 0.9472
7.1821 11.2505 -2.3535 0.9472
6.1522 11.8452 -2.3535 0.9472
1.6316 13.2474 -2.3535 0.9472
-1.9263 13.2078 -2.3535 0.9472
-5.3473 12.2296 -2.3535 0.9472
-7.4309 11.0877 -2.3535 0.9472
-5.6418 6.9830 -1.5829 0.9642
-9.2791 9.5945 -2.3535 0.9472
-10.8332 7.7973 -2.3535 0.9472
-12.1196 5.7891 -2.3683 0.9469
-13.3182 4.9598 -2.5059 0.9439
-13.7068 3.7547 -2.5059 0.9439
-14.1554 1.2650 -2.5059 0.9439
-12.8979 -1.1525 -2.5059 0.9486
-11.6847 -5.5813 -2.5059 0.9486
-11.1416 -6.5991 -2.5059 0.9486
-9.7950 -8.4700 -2.5059 0.9486
-9.0023 -9.3082 -2.5059 0.9486
-8.1380 -10.0725 -2.5059 0.9486
-5.1878 -11.8646 -2.5059 0.9486
-4.1111 -12.2793 -2.5059 0.9486
-1.8688 -12.8137 -2.5059 0.9486
-0.7209 -12.9291 -2.5059 0.9486
0.4327 -12.9420 -2.5059 0.9486
1.5829 -12.8521 -2.5059 0.9486
2.7205 -12.6603 -2.5059 0.9486
4.9222 -11.9773 -2.5059 0.9486
5.9686 -11.4917 -2.5059 0.9486
6.9678 -10.9148 -2.5059 0.9486
7.9116 -10.2513 -2.5059 0.9486
9.6039 -8.6862 -2.5059 0.9486
10.3389 -7.7969 -2.5059 0.9486
10.9918 -6.8457 -2.5059 0.9486
11.5575 -5.8402 -2.5059 0.9486
12.4099 -3.6985 -2.5059 0.9486
12.8690 -1.4396 -2.5059 0.9486
12.9461 -0.2884 -2.5059 0.9486
11.4888 3.9894 -2.3535 0.9517
9.3743 7.7481 -2.3535 0.9517
8.6474 8.5516 -2.3535 0.9517
7.8520 9.2874 -2.3535 0.9517
6.9942 9.9494 -2.3535 0.9517
6.0809 10.5325 -2.3535 0.9517
5.1193 11.0319 -2.3535 0.9517
4.1171 11.4437 -2.3535 0.9517
3.0822 11.7647 -2.3535 0.9517
2.0229 11.9924 -2.3535 0.9517
-1.2173 12.1007 -2.3535 0.9517
-6.3140 10.3944 -2.3535 0.9517
-5.3176 7.2171 -1.7348 0.9641
-10.1775 6.6579 -2.3535 0.9517
-12.3244 3.9742 -2.5059 0.9486
-12.9364 0.5769 -2.5059 0.9486
-12.3244 -3.9741 -2.5059 0.9486
-11.4245 -6.0963 -2.5059 0.9486
-10.8366 -7.0889 -2.5059 0.9486
-8.5787 -9.7000 -2.5059 0.9486
-7.6812 -10.4250 -2.5059 0.9486
-1.2962 -12.8842 -2.5059 0.9486
-0.1443 -12.9485 -2.5059 0.9486
2.1539 -12.7688 -2.5059 0.9486
3.2818 -12.5265 -2.5059 0.9486
4.3837 -12.1846 -2.5059 0.9486
9.2074 -9.1054 -2.5059 0.9486
9.9813 -8.2497 -2.5059 0.9486
11.2858 -6.3493 -2.5059 0.9486
12.2328 -4.2476 -2.5059 0.9486
12.5623 -3.1420 -2.5059 0.9486
12.9461 0.2885 -2.5059 0.9486
11.9181 2.4225 -2.3535 0.9517
11.6552 3.4736 -2.3535 0.9517
11.2997 4.4972 -2.3535 0.9517
10.3233 6.4295 -2.3535 0.9517
9.7101 7.3228 -2.3535 0.9517
8.2579 8.9284 -2.3535 0.9517
7.4305 9.6280 -2.3535 0.9517
5.6057 10.7929 -2.3535 0.9517
3.6032 11.6158 -2.3535 0.9517
2.5551 11.8904 -2.3535 0.9517
1.4866 12.0706 -2.3535 0.9517
0.4064 12.1550 -2.3535 0.9517
-5.8447 10.6653 -2.3535 0.9517
-5.5651 6.8880 -1.7136 0.9646
-9.8708 7.1046 -2.3535 0.9517
-11.6847 5.5814 -2.5059 0.9486
-12.7441 2.2960 -2.5059 0.9486
-11.8866 0.0000 -2.5059 0.9526
-11.8394 -1.0579 -2.5059 0.9526
-10.7258 -5.1232 -2.5059 0.9526
-8.9911 -7.7749 -2.5059 0.9526
-8.2634 -8.5443 -2.5059 0.9526
-6.6176 -9.8740 -2.5059 0.9526
-5.7125 -10.4239 -2.5059 0.9526
-2.7555 -11.5627 -2.5059 0.9526
-0.6618 -11.8681 -2.5059 0.9526
1.4530 -11.7974 -2.5059 0.9526
2.4973 -11.6212 -2.5059 0.9526
3.5217 -11.3529 -2.5059 0.9526
4.5182 -10.9943 -2.5059 0.9526
5.4788 -10.5485 -2.5059 0.9526
6.3960 -10.0191 -2.5059 0.9526
7.2623 -9.4100 -2.5059 0.9526
9.4904 -7.1570 -2.5059 0.9526
10.0897 -6.2839 -2.5059 0.9526
11.3914 -3.3949 -2.5059 0.9526
11.6484 -2.3676 -2.5059 0.9526
11.8836 -0.2648 -2.5059 0.9526
10.8300 2.7088 -2.3535 0.9554
10.5460 3.6620 -2.3535 0.9554
10.1782 4.5861 -2.3535 0.9554
7.9378 7.8499 -2.3535 0.9554
6.4202 9.1329 -2.3535 0.9554
3.7792 10.5046 -2.3535 0.9554
2.8293 10.7992 -2.3535 0.9554
0.8697 11.1298 -2.3535 0.9554
-1.1174 11.1076 -2.3535 0.9554
-2.1016 10.9641 -2.3535 0.9554
-3.0691 10.7335 -2.3535 0.9554
-5.3009 7.1944 -1.8840 0.9641
-8.1107 7.6711 -2.3535 0.9554
-8.7612 6.9187 -2.3535 0.9554
-10.1734 5.4287 -2.4310 0.9540
-10.9433 4.6405 -2.5059 0.9526
-11.5927 2.6266 -2.5059 0.9526
-11.7805 1.5843 -2.5059 0.9526
-11.8748 0.5296 -2.5059 0.9526
-11.8747 -0.5295 -2.5059 0.9526
-11.5927 -2.6265 -2.5059 0.9526
-11.3129 -3.6479 -2.5059 0.9526
-10.4869 -5.5960 -2.5059 0.9526
-8.6359 -8.1677 -2.5059 0.9526
-7.8746 -8.9039 -2.5059 0.9526
-6.1711 -10.1591 -2.5059 0.9526
-4.2721 -11.0922 -2.5059 0.9526
-0.1324 -11.8858 -2.5059 0.9526
1.9771 -11.7209 -2.5059 0.9526
3.0125 -11.4985 -2.5059 0.9526
4.0239 -11.1847 -2.5059 0.9526
5.0035 -10.7822 -2.5059 0.9526
6.8359 -9.7242 -2.5059 0.9526
7.6743 -9.0772 -2.5059 0.9526
9.7998 -6.7271 -2.5059 0.9526
10.3596 -5.8282 -2.5059 0.9526
10.8373 -4.8830 -2.5059 0.9526
11.2289 -3.8990 -2.5059 0.9526
11.8836 0.2649 -2.5059 0.9526
9.9638 5.0350 -2.3535 0.9554
9.4761 5.9018 -2.3535 0.9554
8.9132 6.7218 -2.3535 0.9554
8.2796 7.4885 -2.3535 0.9554
6.8207 8.8378 -2.3535 0.9554
6.0070 9.4098 -2.3535 0.9554
4.2434 10.3258 -2.3535 0.9554
3.3075 10.6625 -2.3535 0.9554
0.3730 11.1575 -2.3535 0.9554
-2.5880 10.8596 -2.3535 0.9554
-3.5442 10.5861 -2.3535 0.9554
-5.5466 6.8652 -1.8607 0.9646
-9.6052 5.6893 -2.3535 0.9554
-10.7258 5.1233 -2.5059 0.9526
-11.1392 4.1483 -2.5059 0.9526
-11.6982 2.1076 -2.5059 0.9526
-11.8394 1.0580 -2.5059 0.9526
-10.9792 0.0000 -2.5059 0.9560
-8.9110 -6.4137 -2.5059 0.9560
-6.8999 -8.5400 -2.5059 0.9560
-4.3985 -10.0595 -2.5059 0.9560
-3.4857 -10.4111 -2.5059 0.9560
-1.5845 -10.8642 -2.5059 0.9560
-0.6112 -10.9621 -2.5059 0.9560
0.3669 -10.9730 -2.5059 0.9560
2.3066 -10.7341 -2.5059 0.9560
3.2529 -10.4862 -2.5059 0.9560
5.0606 -9.7433 -2.5059 0.9560
5.9077 -9.2542 -2.5059 0.9560
8.1427 -7.3646 -2.5059 0.9560
8.7659 -6.6106 -2.5059 0.9560
9.3195 -5.8042 -2.5059 0.9560
9.7991 -4.9517 -2.5059 0.9560
10.9111 -1.2205 -2.5059 0.9560
9.4012 4.2360 -2.3535 0.9586
8.9869 5.0560 -2.3535 0.9586
7.9480 6.5693 -2.3535 0.9586
6.6574 7.8744 -2.3535 0.9586
5.9301 8.4357 -2.3535 0.9586
2.6133 9.9748 -2.3535 0.9586
0.8033 10.2802 -2.3535 0.9586
-0.1149 10.3108 -2.3535 0.9586
-1.0321 10.2597 -2.3535 0.9586
-2.8348 9.9142 -2.3535 0.9586
-3.7060 9.6225 -2.3535 0.9586
-5.3534 8.8129 -2.3535 0.9586
-7.4915 7.0854 -2.3535 0.9586
-8.0924 6.3906 -2.3535 0.9586
-10.4493 3.3695 -2.5059 0.9560
-10.8812 1.4634 -2.5059 0.9560
-10.4493 -3.3694 -2.5059 0.9560
-9.6864 -5.1687 -2.5059 0.9560
-9.1879 -6.0104 -2.5059 0.9560
-7.2735 -8.2242 -2.5059 0.9560
-5.7000 -9.3835 -2.5059 0.9560
-4.8422 -9.8536 -2.5059 0.9560
-3.9460 -10.2455 -2.5059 0.9560
-2.0669 -10.7828 -2.5059 0.9560
-1.0990 -10.9240 -2.5059 0.9560
1.8262 -10.8262 -2.5059 0.9560
3.7168 -10.3309 -2.5059 0.9560
4.6215 -9.9590 -2.5059 0.9560
5.4896 -9.5082 -2.5059 0.9560
7.8066 -7.7200 -2.5059 0.9560
10.0100 -4.5102 -2.5059 0.9560
10.9764 0.2446 -2.5059 0.9560
10.1048 2.0539 -2.3535 0.9586
9.5806 3.8130 -2.3535 0.9586
8.7527 5.4513 -2.3535 0.9586
7.6475 6.9168 -2.3535 0.9586
7.0015 7.5700 -2.3535 0.9586
6.3000 8.1631 -2.3535 0.9586
4.7528 9.1508 -2.3535 0.9586
2.1663 10.0814 -2.3535 0.9586
1.2605 10.2341 -2.3535 0.9586
0.3446 10.3057 -2.3535 0.9586
-0.5741 10.2955 -2.3535 0.9586
-3.2737 9.7780 -2.3535 0.9586
-5.7407 8.5657 -2.3535 0.9586
-7.7997 6.7447 -2.3535 0.9586
-8.3691 6.0237 -2.3535 0.9586
-9.9070 4.7322 -2.5059 0.9560
-10.2889 3.8317 -2.5059 0.9560
-10.5891 2.9007 -2.5059 0.9560
-10.8052 1.9467 -2.5059 0.9560
-10.9356 0.9772 -2.5059 0.9560
-9.5540 -3.5579 -2.5059 0.9589
-8.2745 -5.9556 -2.5059 0.9589
-7.7116 -6.6684 -2.5059 0.9589
-7.0875 -7.3283 -2.5059 0.9589
-5.6758 -8.4688 -2.5059 0.9589
-2.3634 -9.9172 -2.5059 0.9589
-1.4713 -10.0882 -2.5059 0.9589
0.3407 -10.1892 -2.5059 0.9589
1.2462 -10.1185 -2.5059 0.9589
3.0205 -9.7372 -2.5059 0.9589
4.6991 -9.0474 -2.5059 0.9589
5.4857 -8.5932 -2.5059 0.9589
8.6538 -5.3896 -2.5059 0.9589
9.0992 -4.5980 -2.5059 0.9589
9.4723 -3.7699 -2.5059 0.9589
10.1318 -1.1333 -2.5059 0.9589
10.1924 -0.2271 -2.5059 0.9589
9.0452 3.1409 -2.3535 0.9613
7.3803 6.1001 -2.3535 0.9613
6.8081 6.7327 -2.3535 0.9613
5.5065 7.8332 -2.3535 0.9613
3.2414 9.0096 -2.3535 0.9613
2.4266 9.2624 -2.3535 0.9613
1.5926 9.4416 -2.3535 0.9613
0.7459 9.5459 -2.3535 0.9613
-0.1067 9.5744 -2.3535 0.9613
-0.9584 9.5269 -2.3535 0.9613
-1.8025 9.4038 -2.3535 0.9613
-2.6324 9.2061 -2.3535 0.9613
-5.2687 7.1507 -2.1832 0.9641
-6.3432 7.1724 -2.3535 0.9613
-8.9945 4.7997 -2.5059 0.9589
-9.9429 2.2528 -2.5059 0.9589
-10.1848 -0.4541 -2.5059 0.9589
-10.1040 -1.3588 -2.5059 0.9589
-9.9429 -2.2527 -2.5059 0.9589
-8.9945 -4.7996 -2.5059 0.9589
-8.5316 -5.5811 -2.5059 0.9589
-7.4069 -7.0053 -2.5059 0.9589
-6.7540 -7.6368 -2.5059 0.9589
-6.0474 -8.2076 -2.5059 0.9589
-5.2929 -8.7133 -2.5059 0.9589
-4.4964 -9.1498 -2.5059 0.9589
0.7942 -10.1639 -2.5059 0.9589
2.5838 -9.8621 -2.5059 0.9589
5.0975 -8.8291 -2.5059 0.9589
8.4052 -5.7698 -2.5059 0.9589
8.8853 -4.9988 -2.5059 0.9589
10.0712 -1.5836 -2.5059 0.9589
10.1722 -0.6809 -2.5059 0.9589
10.1318 1.1335 -2.5059 0.9589
9.1761 2.7348 -2.3535 0.9613
8.5458 4.3185 -2.3535 0.9613
8.1275 5.0620 -2.3535 0.9613
7.6448 5.7652 -2.3535 0.9613
7.1013 6.4228 -2.3535 0.9613
6.5015 7.0293 -2.3535 0.9613
5.1521 8.0707 -2.3535 0.9613
2.0116 9.3613 -2.3535 0.9613
0.3200 9.5696 -2.3535 0.9613
-0.5331 9.5601 -2.3535 0.9613
-1.3819 9.4747 -2.3535 0.9613
-4.6015 8.3968 -2.3535 0.9613
-5.5097 6.8194 -2.1549 0.9645
-6.6564 6.8828 -2.3535 0.9613
-8.7039 5.1554 -2.4865 0.9592
-9.8327 2.6935 -2.5059 0.9589
-10.0334 1.8077 -2.5059 0.9589
-10.1545 0.9074 -2.5059 0.9589
-9.5101 0.0000 -2.5059 0.9614
-8.9122 -3.3189 -2.5059 0.9614
-8.5814 -4.0989 -2.5059 0.9614
-7.7187 -5.5555 -2.5059 0.9614
-7.1936 -6.2205 -2.5059 0.9614
-6.6114 -6.8360 -2.5059 0.9614
-5.9767 -7.3974 -2.5059 0.9614
-5.2945 -7.9000 -2.5059 0.9614
-4.5704 -8.3398 -2.5059 0.9614
-3.8100 -8.7135 -2.5059 0.9614
-3.0193 -9.0181 -2.5059 0.9614
-2.2046 -9.2510 -2.5059 0.9614
-1.3725 -9.4105 -2.5059 0.9614
0.3178 -9.5048 -2.5059 0.9614
2.8176 -9.0831 -2.5059 0.9614
3.6149 -8.7963 -2.5059 0.9614
4.3835 -8.4396 -2.5059 0.9614
5.1172 -8.0159 -2.5059 0.9614
5.8104 -7.5287 -2.5059 0.9614
7.0532 -6.3792 -2.5059 0.9614
7.5930 -5.7261 -2.5059 0.9614
8.0725 -5.0276 -2.5059 0.9614
8.8360 -3.5166 -2.5059 0.9614
9.1140 -2.7162 -2.5059 0.9614
9.3196 -1.8942 -2.5059 0.9614
9.4512 -1.0572 -2.5059 0.9614
14.0810 2.2142 -3.7559 0.9427
8.6648 2.1673 -2.3535 0.9637
8.4376 2.9299 -2.3535 0.9637
7.3637 5.0549 -2.3535 0.9637
6.8846 5.6903 -2.3535 0.9637
6.3508 6.2805 -2.3535 0.9637
5.7666 6.8208 -2.3535 0.9637
5.1366 7.3070 -2.3535 0.9637
3.7597 8.1020 -2.3535 0.9637
3.0237 8.4044 -2.3535 0.9637
2.2636 8.6402 -2.3535 0.9637
0.6958 8.9046 -2.3535 0.9637
-0.0995 8.9312 -2.3535 0.9637
-0.8940 8.8869 -2.3535 0.9637
-1.6815 8.7721 -2.3535 0.9637
-3.9392 8.0162 -2.3535 0.9637
-5.2464 7.1205 -2.3306 0.9641
-6.4891 6.1374 -2.3535 0.9637
-7.0096 5.5355 -2.3535 0.9637
-8.3903 4.4772 -2.5059 0.9614
-8.7555 3.7127 -2.5059 0.9614
-9.0512 2.9187 -2.5059 0.9614
-9.5007 0.4237 -2.5059 0.9614
-9.5007 -0.4236 -2.5059 0.9614
-9.4253 -1.2675 -2.5059 0.9614
-9.2750 -2.1014 -2.5059 0.9614
-8.7555 -3.7126 -2.5059 0.9614
-8.3903 -4.4771 -2.5059 0.9614
-7.9585 -5.2062 -2.5059 0.9614
-6.9093 -6.5348 -2.5059 0.9614
-6.3003 -7.1238 -2.5059 0.9614
-4.1943 -8.5352 -2.5059 0.9614
-0.1059 -9.5095 -2.5059 0.9614
1.5818 -9.3776 -2.5059 0.9614
3.2195 -8.9486 -2.5059 0.9614
4.7551 -8.2360 -2.5059 0.9614
6.7620 -6.6871 -2.5059 0.9614
9.3947 -1.4772 -2.5059 0.9614
9.4889 -0.6352 -2.5059 0.9614
9.5078 0.2120 -2.5059 0.9614
13.9684 2.8392 -3.7559 0.9427
8.5597 2.5511 -2.3535 0.9637
7.1312 5.3779 -2.3535 0.9637
5.4570 7.0709 -2.3535 0.9637
3.3951 8.2614 -2.3535 0.9637
2.6463 8.5308 -2.3535 0.9637
1.0918 8.8648 -2.3535 0.9637
0.2985 8.9268 -2.3535 0.9637
-2.0706 8.6885 -2.3535 0.9637
-2.8357 8.4697 -2.3535 0.9637
-4.2924 7.8327 -2.3535 0.9637
-6.7561 5.8423 -2.3535 0.9637
-7.2493 5.2177 -2.3535 0.9637
-8.1825 4.8465 -2.5059 0.9614
-9.3594 1.6862 -2.5059 0.9614
-9.4724 0.8465 -2.5059 0.9614
-5.0319 0.0000 -1.4157 0.9793
-3.9277 -0.3510 -1.1095 0.9837
-7.2288 -5.2030 -2.5059 0.9637
-6.1918 -6.4022 -2.5059 0.9637
-4.9585 -7.3986 -2.5059 0.9637
-4.2803 -7.8106 -2.5059 0.9637
-2.0647 -8.6639 -2.5059 0.9637
-0.4958 -8.8927 -2.5059 0.9637
1.0887 -8.8397 -2.5059 0.9637
2.6388 -8.5067 -2.5059 0.9637
4.1053 -7.9040 -2.5059 0.9637
5.4416 -7.0509 -2.5059 0.9637
6.0476 -6.5386 -2.5059 0.9637
7.1111 -5.3627 -2.5059 0.9637
7.5602 -4.7085 -2.5059 0.9637
7.9493 -4.0169 -2.5059 0.9637
8.2753 -3.2935 -2.5059 0.9637
8.5356 -2.5438 -2.5059 0.9637
8.7281 -1.7740 -2.5059 0.9637
8.9044 -0.1984 -2.5059 0.9637
8.8867 0.5949 -2.5059 0.9637
8.7985 1.3836 -2.5059 0.9637
7.9021 2.7439 -2.3535 0.9658
7.2904 4.1015 -2.3535 0.9658
5.9477 5.8819 -2.3535 0.9658
5.4006 6.3879 -2.3535 0.9658
4.8106 6.8432 -2.3535 0.9658
3.5211 7.5878 -2.3535 0.9658
2.8318 7.8711 -2.3535 0.9658
2.1200 8.0919 -2.3535 0.9658
1.3913 8.2484 -2.3535 0.9658
-0.8373 8.3229 -2.3535 0.9658
-1.5747 8.2154 -2.3535 0.9658
-2.2997 8.0426 -2.3535 0.9658
-4.9619 6.7344 -2.3535 0.9658
-6.0773 5.7479 -2.3535 0.9658
-6.5648 5.1842 -2.3535 0.9658
-7.4534 4.8758 -2.5059 0.9637
-7.8578 4.1931 -2.5059 0.9637
-8.1998 3.4771 -2.5059 0.9637
-8.8977 0.3968 -2.5059 0.9637
-4.2110 -0.1878 -1.1860 0.9826
-8.4768 -2.7334 -2.5059 0.9637
-7.8578 -4.1930 -2.5059 0.9637
-3.9281 -7.9935 -2.5059 0.9637
-2.4486 -8.5633 -2.5059 0.9637
-0.8915 -8.8618 -2.5059 0.9637
-0.0992 -8.9060 -2.5059 0.9637
1.4814 -8.7825 -2.5059 0.9637
2.2572 -8.6158 -2.5059 0.9637
3.7491 -8.0790 -2.5059 0.9637
5.1222 -7.2863 -2.5059 0.9637
5.7503 -6.8015 -2.5059 0.9637
6.8652 -5.6741 -2.5059 0.9637
7.7625 -4.3671 -2.5059 0.9637
8.1203 -3.6588 -2.5059 0.9637
8.7985 -1.3835 -2.5059 0.9637
8.8867 -0.5948 -2.5059 0.9637
8.8514 0.9902 -2.5059 0.9637
8.0165 2.3892 -2.3535 0.9658
6.6786 5.0366 -2.3535 0.9658
6.2039 5.6111 -2.3535 0.9658
5.1107 6.6222 -2.3535 0.9658
4.5010 7.0508 -2.3535 0.9658
3.8556 7.4234 -2.3535 0.9658
2.4783 7.9894 -2.3535 0.9658
1.0225 8.3022 -2.3535 0.9658
0.2795 8.3603 -2.3535 0.9658
-1.2072 8.2774 -2.3535 0.9658
-1.9391 8.1371 -2.3535 0.9658
-2.6557 7.9322 -2.3535 0.9658
-6.3273 5.4715 -2.3535 0.9658
-6.7892 4.8866 -2.3535 0.9658
-7.6632 4.5390 -2.5059 0.9637
-8.0368 3.8389 -2.5059 0.9637
-8.8712 0.7928 -2.5059 0.9637
-3.9677 0.0000 -1.1878 0.9836
-3.4798 -0.6269 -1.0586 0.9853
-3.4925 -0.9567 -1.0841 0.9850
-7.8441 -2.9211 -2.5059 0.9657
-7.5529 -3.6077 -2.5059 0.9657
-7.2019 -4.2656 -2.5059 0.9657
-6.7936 -4.8897 -2.5059 0.9657
-6.3314 -5.4750 -2.5059 0.9657
-5.8190 -6.0168 -2.5059 0.9657
-4.6600 -6.9532 -2.5059 0.9657
-3.3533 -7.6692 -2.5059 0.9657
-2.6574 -7.9372 -2.5059 0.9657
-0.4660 -8.3573 -2.5059 0.9657
3.8581 -7.4282 -2.5059 0.9657
4.5040 -7.0553 -2.5059 0.9657
6.2079 -5.6146 -2.5059 0.9657
7.4707 -3.7751 -2.5059 0.9657
8.3185 -0.9305 -2.5059 0.9657
8.1202 2.0311 -2.5059 0.9657
7.1673 3.2295 -2.3535 0.9677
6.8515 3.8546 -2.3535 0.9677
6.4812 4.4491 -2.3535 0.9677
5.5897 5.5278 -2.3535 0.9677
4.5210 6.4313 -2.3535 0.9677
3.9307 6.8081 -2.3535 0.9677
1.9923 7.6047 -2.3535 0.9677
1.3076 7.7518 -2.3535 0.9677
0.6124 7.8375 -2.3535 0.9677
-0.0876 7.8608 -2.3535 0.9677
-0.7869 7.8219 -2.3535 0.9677
-1.4799 7.7208 -2.3535 0.9677
-4.6632 6.3289 -2.3535 0.9677
-5.2080 5.8888 -2.3535 0.9677
-7.0047 4.5823 -2.5059 0.9657
-7.3847 3.9407 -2.5059 0.9657
-7.9664 2.5689 -2.5059 0.9657
-8.1634 1.8496 -2.5059 0.9657
-4.8506 0.2163 -1.4536 0.9799
-3.6646 -0.1634 -1.0982 0.9848
-3.4642 -0.7849 -1.0634 0.9853
-7.9664 -2.5688 -2.5059 0.9657
-7.7062 -3.2677 -2.5059 0.9657
-7.0047 -4.5822 -2.5059 0.9657
-6.5691 -5.1875 -2.5059 0.9657
-6.0813 -5.7516 -2.5059 0.9657
-5.5452 -6.2700 -2.5059 0.9657
-4.3456 -7.1539 -2.5059 0.9657
-3.0084 -7.8110 -2.5059 0.9657
-1.5758 -8.2207 -2.5059 0.9657
-0.8378 -8.3283 -2.5059 0.9657
-0.0932 -8.3698 -2.5059 0.9657
0.6521 -8.3449 -2.5059 0.9657
1.3922 -8.2537 -2.5059 0.9657
2.8336 -7.8761 -2.5059 0.9657
4.1852 -7.2489 -2.5059 0.9657
4.8138 -6.8476 -2.5059 0.9657
5.4041 -6.3920 -2.5059 0.9657
6.9009 -4.7371 -2.5059 0.9657
7.2951 -4.1041 -2.5059 0.9657
7.6315 -3.4385 -2.5059 0.9657
7.9072 -2.7456 -2.5059 0.9657
8.3517 -0.5591 -2.5059 0.9657
8.3683 0.1865 -2.5059 0.9657
8.2026 1.6673 -2.5059 0.9657
7.3041 2.9070 -2.3535 0.9677
6.6729 4.1560 -2.3535 0.9677
6.2766 4.7334 -2.3535 0.9677
5.8304 5.2733 -2.3535 0.9677
5.3379 5.7713 -2.3535 0.9677
4.8030 6.2235 -2.3535 0.9677
4.2300 6.6263 -2.3535 0.9677
3.6235 6.9765 -2.3535 0.9677
2.3291 7.5084 -2.3535 0.9677
-1.1345 7.7791 -2.3535 0.9677
-2.4958 7.4547 -2.3535 0.9677
-3.7780 6.8940 -2.3535 0.9677
-5.4651 5.6510 -2.3535 0.9677
-6.6628 4.7957 -2.4577 0.9663
-7.5529 3.6078 -2.5059 0.9657
-8.2377 1.4842 -2.5059 0.9657
-6.7890 -4.0211 -2.5059 0.9674
-6.4042 -4.6095 -2.5059 0.9674
-5.4854 -5.6719 -2.5059 0.9674
-2.5051 -7.4823 -2.5059 0.9674
-1.8292 -7.6756 -2.5059 0.9674
-1.1388 -7.8079 -2.5059 0.9674
-0.4393 -7.8783 -2.5059 0.9674
0.2637 -7.8861 -2.5059 0.9674
0.9645 -7.8313 -2.5059 0.9674
1.6577 -7.7144 -2.5059 0.9674
2.3378 -7.5363 -2.5059 0.9674
3.6370 -7.0024 -2.5059 0.9674
4.2458 -6.6509 -2.5059 0.9674
4.8209 -6.2465 -2.5059 0.9674
5.8521 -5.2928 -2.5059 0.9674
6.6978 -4.1714 -2.5059 0.9674
7.8417 -0.8772 -2.5059 0.9674
7.8886 -0.1757 -2.5059 0.9674
7.7948 1.2257 -2.5059 0.9674
7.6548 1.9146 -2.5059 0.9674
7.0006 2.4310 -2.3535 0.9694
6.7565 3.0444 -2.3535 0.9694
6.4587 3.6337 -2.3535 0.9694
6.1097 4.1941 -2.3535 0.9694
5.7121 4.7212 -2.3535 0.9694
4.7846 5.6593 -2.3535 0.9694
4.2619 6.0626 -2.3535 0.9694
3.7053 6.4179 -2.3535 0.9694
2.5087 6.9732 -2.3535 0.9694
1.8781 7.1688 -2.3535 0.9694
1.2326 7.3075 -2.3535 0.9694
-0.0826 7.4103 -2.3535 0.9694
-0.7418 7.3735 -2.3535 0.9694
-1.3951 7.2782 -2.3535 0.9694
-2.0374 7.1251 -2.3535 0.9694
-4.3959 5.9662 -2.3535 0.9694
-5.9191 4.6744 -2.3953 0.9688
-6.9614 3.7148 -2.5059 0.9674
-7.5098 2.4216 -2.5059 0.9674
-7.6955 1.7436 -2.5059 0.9674
-4.3818 0.1954 -1.3930 0.9818
-3.3189 -0.4463 -1.0635 0.9860
-7.2644 -3.0804 -2.5059 0.9674
-6.9614 -3.7147 -2.5059 0.9674
-6.1925 -4.8901 -2.5059 0.9674
-5.7327 -5.4219 -2.5059 0.9674
-5.2273 -5.9106 -2.5059 0.9674
-4.6805 -6.3524 -2.5059 0.9674
-4.0965 -6.7438 -2.5059 0.9674
-3.4800 -7.0817 -2.5059 0.9674
-2.8359 -7.3633 -2.5059 0.9674
-2.1693 -7.5864 -2.5059 0.9674
-0.7898 -7.8509 -2.5059 0.9674
0.6147 -7.8665 -2.5059 0.9674
1.3124 -7.7806 -2.5059 0.9674
1.9997 -7.6329 -2.5059 0.9674
2.6712 -7.4246 -2.5059 0.9674
5.0944 -6.0256 -2.5059 0.9674
6.5053 -4.4656 -2.5059 0.9674
7.4540 -2.5883 -2.5059 0.9674
7.8729 -0.5270 -2.5059 0.9674
7.8417 0.8773 -2.5059 0.9674
7.7325 1.5717 -2.5059 0.9674
7.5397 2.2471 -2.4986 0.9675
6.6142 3.3423 -2.3535 0.9694
5.9168 4.4621 -2.3535 0.9694
5.4962 4.9710 -2.3535 0.9694
5.0319 5.4405 -2.3535 0.9694
3.4158 6.5766 -2.3535 0.9694
2.1956 7.0780 -2.3535 0.9694
1.5569 7.2454 -2.3535 0.9694
0.9059 7.3552 -2.3535 0.9694
0.2476 7.4066 -2.3535 0.9694
-0.4126 7.3992 -2.3535 0.9694
-3.5614 6.4989 -2.3535 0.9694
-6.4042 4.6095 -2.5059 0.9674
-7.3944 2.7538 -2.5059 0.9674
-7.6102 2.0847 -2.5059 0.9674
-7.8592 0.7023 -2.5059 0.9674
-3.2019 -0.2861 -1.0801 0.9865
-6.7301 -3.2147 -2.5059 0.9690
-6.4173 -3.8009 -2.5059 0.9690
-5.1851 -5.3613 -2.5059 0.9690
-4.1523 -6.1957 -2.5059 0.9690
-3.5844 -6.5407 -2.5059 0.9690
-2.9880 -6.8337 -2.5059 0.9690
-2.3679 -7.0726 -2.5059 0.9690
-1.7290 -7.2553 -2.5059 0.9690
0.2492 -7.4543 -2.5059 0.9690
0.9117 -7.4025 -2.5059 0.9690
2.2098 -7.1236 -2.5059 0.9690
2.8350 -6.8986 -2.5059 0.9690
3.4378 -6.6189 -2.5059 0.9690
5.0644 -5.4754 -2.5059 0.9690
5.5316 -5.0030 -2.5059 0.9690
6.6569 -3.3638 -2.5059 0.9690
6.9298 -2.7579 -2.5059 0.9690
7.1478 -2.1303 -2.5059 0.9690
7.4567 -0.1661 -2.5059 0.9690
6.8561 2.3807 -2.4384 0.9698
6.3865 2.8777 -2.3535 0.9709
5.7751 3.9644 -2.3535 0.9709
5.3994 4.4627 -2.3535 0.9709
4.0285 5.7306 -2.3535 0.9709
3.5025 6.0665 -2.3535 0.9709
2.9486 6.3541 -2.3535 0.9709
1.7753 6.7762 -2.3535 0.9709
1.1651 6.9074 -2.3535 0.9709
0.5457 6.9837 -2.3535 0.9709
-0.7012 6.9698 -2.3535 0.9709
-2.5176 6.5369 -2.3535 0.9709
-3.0894 6.2869 -2.3535 0.9709
-3.6367 5.9869 -2.3535 0.9709
-4.1552 5.6395 -2.3535 0.9709
-5.0892 4.8134 -2.3535 0.9709
-5.8534 4.6224 -2.5059 0.9690
-6.8667 2.9117 -2.5059 0.9690
-7.3919 0.9942 -2.5059 0.9690
-3.1639 -0.4255 -1.0726 0.9866
-3.1355 -0.7104 -1.0802 0.9865
-3.1418 -1.0131 -1.1091 0.9862
-6.5802 -3.5113 -2.5059 0.9690
-5.8534 -4.6224 -2.5059 0.9690
-4.9411 -5.5870 -2.5059 0.9690
-3.8722 -6.3745 -2.5059 0.9690
-3.2895 -6.6939 -2.5059 0.9690
-0.7466 -7.4210 -2.5059 0.9690
-0.0831 -7.4580 -2.5059 0.9690
0.5811 -7.4358 -2.5059 0.9690
1.2406 -7.3546 -2.5059 0.9690
1.8902 -7.2150 -2.5059 0.9690
3.1396 -6.7655 -2.5059 0.9690
3.7293 -6.4592 -2.5059 0.9690
4.2894 -6.1016 -2.5059 0.9690
5.3032 -5.2445 -2.5059 0.9690
5.7490 -4.7516 -2.5059 0.9690
6.1491 -4.2211 -2.5059 0.9690
6.5004 -3.6570 -2.5059 0.9690
7.2356 -1.8097 -2.5059 0.9690
7.3680 -1.1585 -2.5059 0.9690
7.3090 1.4857 -2.5059 0.9690
6.5084 2.5903 -2.3535 0.9709
5.9460 3.7032 -2.3535 0.9709
5.1952 4.6988 -2.3535 0.9709
4.7564 5.1426 -2.3535 0.9709
4.2798 5.5455 -2.3535 0.9709
3.2287 6.2165 -2.3535 0.9709
1.4717 6.8486 -2.3535 0.9709
0.8563 6.9524 -2.3535 0.9709
-0.3900 6.9941 -2.3535 0.9709
-1.6239 6.8141 -2.3535 0.9709
-3.8998 5.8190 -2.3535 0.9709
-4.8697 5.0353 -2.3535 0.9709
-5.3002 4.5834 -2.3543 0.9709
-6.7301 3.2148 -2.5059 0.9690
-6.9895 2.6030 -2.5059 0.9690
-7.1935 1.9705 -2.5059 0.9690
-3.4902 0.0000 -1.2376 0.9853
-3.0930 -0.2764 -1.1011 0.9869
-3.0442 -0.5484 -1.0968 0.9870
-3.0229 -0.8280 -1.1114 0.9868
-4.9130 -5.0800 -2.5059 0.9705
-4.4414 -5.4971 -2.5059 0.9705
-3.3963 -6.1975 -2.5059 0.9705
-1.6383 -6.8746 -2.5059 0.9705
-1.0199 -6.9932 -2.5059 0.9705
-0.3934 -7.0562 -2.5059 0.9705
0.8639 -7.0141 -2.5059 0.9705
1.4848 -6.9094 -2.5059 0.9705
2.6863 -6.5367 -2.5059 0.9705
3.2574 -6.2716 -2.5059 0.9705
4.7987 -5.1882 -2.5059 0.9705
5.9989 -3.7361 -2.5059 0.9705
6.3076 -3.1873 -2.5059 0.9705
6.5662 -2.6133 -2.5059 0.9705
6.7728 -2.0185 -2.5059 0.9705
7.0234 -0.7856 -2.5059 0.9705
7.0514 0.4721 -2.5059 0.9705
6.9814 1.0978 -2.5059 0.9705
6.8560 1.7148 -2.5059 0.9705
6.0515 2.7267 -2.3535 0.9722
5.7848 3.2545 -2.3535 0.9722
5.1161 4.2286 -2.3535 0.9722
4.2853 5.0687 -2.3535 0.9722
2.2469 6.2455 -2.3535 0.9722
0.5171 6.6172 -2.3535 0.9722
-0.0739 6.6370 -2.3535 0.9722
-0.6644 6.6041 -2.3535 0.9722
-1.2495 6.5187 -2.3535 0.9722
-2.3855 6.1939 -2.3535 0.9722
-4.8222 4.5609 -2.3535 0.9722
-5.5463 4.3799 -2.5059 0.9705
-6.2350 3.3271 -2.5059 0.9705
-6.7261 2.1689 -2.5059 0.9705
-7.0041 0.9420 -2.5059 0.9705
-3.9464 0.1760 -1.4007 0.9834
-3.0191 -0.9735 -1.1248 0.9866
-6.5064 -2.7589 -2.5059 0.9705
-5.9141 -3.8688 -2.5059 0.9705
-4.6819 -5.2938 -2.5059 0.9705
-3.1169 -6.3426 -2.5059 0.9705
3.5336 -6.1203 -2.5059 0.9705
4.0643 -5.7815 -2.5059 0.9705
4.5628 -5.3968 -2.5059 0.9705
5.0250 -4.9693 -2.5059 0.9705
6.1593 -3.4651 -2.5059 0.9705
6.6761 -2.3182 -2.5059 0.9705
6.9814 -1.0977 -2.5059 0.9705
6.9256 1.4077 -2.5059 0.9705
6.7728 2.0185 -2.5059 0.9705
6.2680 2.4946 -2.3921 0.9718
5.9240 2.9935 -2.3535 0.9722
5.6340 3.5089 -2.3535 0.9722
4.9226 4.4523 -2.3535 0.9722
4.0552 5.2545 -2.3535 0.9722
3.5715 5.5946 -2.3535 0.9722
3.0593 5.8903 -2.3535 0.9722
2.5229 6.1392 -2.3535 0.9722
1.3945 6.4893 -2.3535 0.9722
0.2218 6.6337 -2.3535 0.9722
-0.3695 6.6271 -2.3535 0.9722
-2.6591 6.0815 -2.3535 0.9722
-3.6952 5.5137 -2.3535 0.9722
-4.1713 5.1629 -2.3535 0.9722
-5.7359 4.1285 -2.5059 0.9705
-6.3770 3.0461 -2.5059 0.9705
-6.8161 1.8671 -2.5059 0.9705
-6.9552 1.2531 -2.5059 0.9705
-7.0391 0.6290 -2.5059 0.9705
-2.9938 -0.2675 -1.1224 0.9872
-2.9455 -0.5306 -1.1176 0.9873
-2.9169 -0.7990 -1.1293 0.9872
-2.9238 -1.0888 -1.1650 0.9868
-6.0555 -2.8925 -2.5059 0.9718
-5.7741 -3.4199 -2.5059 0.9718
-5.4467 -3.9203 -2.5059 0.9718
-4.6654 -4.8239 -2.5059 0.9718
-4.2175 -5.2200 -2.5059 0.9718
-3.7361 -5.5747 -2.5059 0.9718
-3.2251 -5.8851 -2.5059 0.9718
-2.1306 -6.3637 -2.5059 0.9718
-0.9685 -6.6406 -2.5059 0.9718
-0.3736 -6.7004 -2.5059 0.9718
0.2243 -6.7071 -2.5059 0.9718
1.9883 -6.4095 -2.5059 0.9718
2.5509 -6.2071 -2.5059 0.9718
3.0932 -5.9554 -2.5059 0.9718
5.3581 -4.0407 -2.5059 0.9718
5.6964 -3.5477 -2.5059 0.9718
6.2352 -2.4815 -2.5059 0.9718
6.4313 -1.9167 -2.5059 0.9718
6.5764 -1.3367 -2.5059 0.9718
6.6693 -0.7460 -2.5059 0.9718
6.7092 -0.1495 -2.5059 0.9718
6.6959 0.4483 -2.5059 0.9718
6.6294 1.0425 -2.5059 0.9718
6.5103 1.6284 -2.5059 0.9718
6.3396 2.2014 -2.5059 0.9718
5.7642 2.5973 -2.3608 0.9734
5.4931 3.0904 -2.3535 0.9734
4.8581 4.0154 -2.3535 0.9734
3.6247 5.1562 -2.3535 0.9734
2.6531 5.7172 -2.3535 0.9734
1.5973 6.0971 -2.3535 0.9734
1.0483 6.2150 -2.3535 0.9734
0.4910 6.2836 -2.3535 0.9734
-0.0702 6.3024 -2.3535 0.9734
-0.6309 6.2712 -2.3535 0.9734
-1.1865 6.1901 -2.3535 0.9734
-3.2722 5.3868 -2.3535 0.9734
-3.7387 5.0742 -2.3535 0.9734
-4.7083 4.4531 -2.4199 0.9727
-6.3870 2.0596 -2.5059 0.9718
-6.5450 1.4829 -2.5059 0.9718
-3.7910 0.1690 -1.4170 0.9839
-2.9640 -0.3986 -1.1167 0.9873
-5.9207 -3.1593 -2.5059 0.9718
-5.6160 -3.6738 -2.5059 0.9718
-5.2667 -4.1590 -2.5059 0.9718
-3.9808 -5.4027 -2.5059 0.9718
-2.9598 -6.0229 -2.5059 0.9718
-1.8450 -6.4522 -2.5059 0.9718
0.5228 -6.6904 -2.5059 0.9718
2.2718 -6.3146 -2.5059 0.9718
2.8249 -6.0873 -2.5059 0.9718
3.8594 -5.4900 -2.5059 0.9718
4.3327 -5.1247 -2.5059 0.9718
4.7717 -4.7188 -2.5059 0.9718
5.5327 -3.7980 -2.5059 0.9718
6.6294 -1.0424 -2.5059 0.9718
6.6959 -0.4482 -2.5059 0.9718
6.6693 0.7461 -2.5059 0.9718
6.2315 2.4801 -2.5044 0.9718
5.0322 3.7950 -2.3535 0.9734
4.6745 4.2278 -2.3535 0.9734
4.2796 4.6271 -2.3535 0.9734
3.8508 4.9896 -2.3535 0.9734
3.3914 5.3126 -2.3535 0.9734
1.8674 6.0198 -2.3535 0.9734
1.3242 6.1621 -2.3535 0.9734
0.2106 6.2993 -2.3535 0.9734
-0.3509 6.2930 -2.3535 0.9734
-0.9096 6.2368 -2.3535 0.9734
-3.0290 5.5272 -2.3535 0.9734
-3.5089 5.2357 -2.3535 0.9734
-4.3816 4.5306 -2.3535 0.9734
-5.0762 4.3896 -2.5059 0.9718
-6.2889 2.3421 -2.5059 0.9718
-6.4724 1.7730 -2.5059 0.9718
-4.2614 0.3808 -1.5976 0.9819
-2.9005 -0.2592 -1.1429 0.9876
-5.1822 -3.7299 -2.5059 0.9729
-4.4388 -4.5896 -2.5059 0.9729
-4.0127 -4.9665 -2.5059 0.9729
-3.0685 -5.5993 -2.5059 0.9729
-2.5580 -5.8502 -2.5059 0.9729
-1.4801 -6.2110 -2.5059 0.9729
-0.9214 -6.3181 -2.5059 0.9729
0.2134 -6.3814 -2.5059 0.9729
0.7805 -6.3371 -2.5059 0.9729
2.4270 -5.9057 -2.5059 0.9729
3.4357 -5.3818 -2.5059 0.9729
4.3354 -4.6874 -2.5059 0.9729
4.7354 -4.2829 -2.5059 0.9729
5.4198 -3.3754 -2.5059 0.9729
5.6987 -2.8796 -2.5059 0.9729
5.9324 -2.3610 -2.5059 0.9729
6.1190 -1.8236 -2.5059 0.9729
6.2570 -1.2717 -2.5059 0.9729
6.3707 0.4265 -2.5059 0.9729
6.3075 0.9919 -2.5059 0.9729
6.0317 2.0945 -2.5059 0.9729
5.7230 2.5787 -2.4636 0.9734
5.2264 2.9404 -2.3535 0.9746
4.9439 3.3938 -2.3535 0.9746
4.6222 3.8204 -2.3535 0.9746
4.2638 4.2166 -2.3535 0.9746
3.8716 4.5794 -2.3535 0.9746
3.4487 4.9059 -2.3535 0.9746
2.5242 5.4395 -2.3535 0.9746
2.0300 5.6426 -2.3535 0.9746
-0.0668 5.9963 -2.3535 0.9746
-0.6002 5.9666 -2.3535 0.9746
-1.1289 5.8895 -2.3535 0.9746
-3.9787 4.4989 -2.3571 0.9745
-5.0109 3.9571 -2.5059 0.9729
-6.3280 0.8511 -2.5059 0.9729
-2.8734 -0.3864 -1.1379 0.9876
-2.8326 -0.6418 -1.1399 0.9876
-2.8717 -1.2177 -1.2242 0.9867
-5.6331 -3.0059 -2.5059 0.9729
-4.6388 -4.3873 -2.5059 0.9729
-3.7874 -5.1403 -2.5059 0.9729
-1.7554 -6.1389 -2.5059 0.9729
-0.6391 -6.3529 -2.5059 0.9729
-0.0711 -6.3845 -2.5059 0.9729
0.4974 -6.3655 -2.5059 0.9729
2.6877 -5.7917 -2.5059 0.9729
3.1925 -5.5295 -2.5059 0.9729
3.6720 -5.2234 -2.5059 0.9729
4.1223 -4.8759 -2.5059 0.9729
4.5399 -4.4896 -2.5059 0.9729
5.2640 -3.6135 -2.5059 0.9729
6.0317 -2.0944 -2.5059 0.9729
6.1942 -1.5492 -2.5059 0.9729
6.3454 0.7099 -2.5059 0.9729
5.3521 2.7046 -2.3535 0.9746
5.0902 3.1702 -2.3535 0.9746
4.7878 3.6107 -2.3535 0.9746
4.4474 4.0225 -2.3535 0.9746
4.0718 4.4024 -2.3535 0.9746
3.6638 4.7473 -2.3535 0.9746
3.2267 5.0546 -2.3535 0.9746
2.7640 5.3217 -2.3535 0.9746
2.2794 5.5466 -2.3535 0.9746
0.7330 5.9517 -2.3535 0.9746
0.2004 5.9934 -2.3535 0.9746
-0.3338 5.9874 -2.3535 0.9746
-1.3901 5.8333 -2.3535 0.9746
-2.4024 5.4945 -2.3535 0.9746
-3.7686 4.6646 -2.3535 0.9746
-4.2297 4.3735 -2.3879 0.9742
-4.8297 4.1764 -2.5059 0.9729
-5.1822 3.7300 -2.5059 0.9729
-5.4936 3.2539 -2.5059 0.9729
-5.7614 2.7521 -2.5059 0.9729
-6.2838 1.1321 -2.5059 0.9729
-2.8130 -0.2513 -1.1629 0.9879
-2.7831 -0.5014 -1.1645 0.9878
-2.7842 -1.0368 -1.2234 0.9872
-5.4913 -2.6229 -2.5059 0.9740
-5.2360 -3.1012 -2.5059 0.9740
-4.9392 -3.5550 -2.5059 0.9740
-4.6032 -3.9805 -2.5059 0.9740
-4.2306 -4.3744 -2.5059 0.9740
-3.8245 -4.7336 -2.5059 0.9740
-2.9246 -5.3367 -2.5059 0.9740
-0.8783 -6.0218 -2.5059 0.9740
-0.3388 -6.0761 -2.5059 0.9740
0.2034 -6.0821 -2.5059 0.9740
1.8030 -5.8123 -2.5059 0.9740
2.3132 -5.6287 -2.5059 0.9740
3.2745 -5.1294 -2.5059 0.9740
3.7181 -4.8176 -2.5059 0.9740
4.8588 -3.6641 -2.5059 0.9740
5.4315 -2.7446 -2.5059 0.9740
5.6542 -2.2503 -2.5059 0.9740
5.8321 -1.7381 -2.5059 0.9740
5.9636 -1.2121 -2.5059 0.9740
6.0841 -0.1355 -2.5059 0.9740
6.0720 0.4065 -2.5059 0.9740
6.0117 0.9454 -2.5059 0.9740
5.9037 1.4767 -2.5059 0.9740
4.9813 2.8024 -2.3535 0.9756
4.4055 3.6412 -2.3535 0.9756
2.8577 4.9498 -2.3535 0.9756
1.9349 5.3780 -2.3535 0.9756
1.4485 5.5289 -2.3535 0.9756
0.9507 5.6359 -2.3535 0.9756
0.4453 5.6981 -2.3535 0.9756
-0.0637 5.7152 -2.3535 0.9756
-0.5721 5.6868 -2.3535 0.9756
-1.0760 5.6133 -2.3535 0.9756
-2.5207 5.1296 -2.3535 0.9756
-4.7759 3.7716 -2.5059 0.9740
-5.0927 3.3315 -2.5059 0.9740
-5.6027 2.3758 -2.5059 0.9740
-5.9351 1.3448 -2.5059 0.9740
-6.0313 0.8112 -2.5059 0.9740
-2.9337 -0.1308 -1.2092 0.9874
-2.7946 -0.3758 -1.1611 0.9879
-2.8016 -1.1879 -1.2531 0.9869
-4.0316 -4.5585 -2.5059 0.9740
-2.6840 -5.4617 -2.5059 0.9740
-2.1872 -5.6789 -2.5059 0.9740
-1.6731 -5.8510 -2.5059 0.9740
-0.6091 -6.0549 -2.5059 0.9740
-0.0678 -6.0851 -2.5059 0.9740
0.4741 -6.0670 -2.5059 0.9740
1.0122 -6.0008 -2.5059 0.9740
2.5616 -5.5201 -2.5059 0.9740
3.0428 -5.2702 -2.5059 0.9740
3.4998 -4.9785 -2.5059 0.9740
3.9290 -4.6472 -2.5059 0.9740
4.3271 -4.2790 -2.5059 0.9740
4.6907 -3.8769 -2.5059 0.9740
5.3038 -2.9838 -2.5059 0.9740
5.7488 -1.9962 -2.5059 0.9740
5.9037 -1.4766 -2.5059 0.9740
6.0720 -0.4064 -2.5059 0.9740
6.0840 0.1356 -2.5059 0.9740
6.0478 0.6766 -2.5059 0.9740
5.9636 1.2122 -2.5059 0.9740
5.8321 1.7382 -2.5059 0.9740
4.2389 3.8339 -2.3535 0.9756
3.8808 4.1960 -2.3535 0.9756
3.4920 4.5247 -2.3535 0.9756
3.0754 4.8176 -2.3535 0.9756
0.6986 5.6726 -2.3535 0.9756
0.1910 5.7123 -2.3535 0.9756
-0.3182 5.7067 -2.3535 0.9756
-3.5919 4.4458 -2.3535 0.9756
-4.2068 4.3499 -2.4918 0.9742
-5.4913 2.6230 -2.5059 0.9740
-3.9772 0.3554 -1.6443 0.9829
-2.7539 -0.2461 -1.1927 0.9880
-2.7278 -0.4914 -1.1956 0.9880
-2.7092 -0.7421 -1.2117 0.9878
-2.7209 -1.0132 -1.2524 0.9874
-2.7299 -1.3040 -1.3050 0.9869
-2.7884 -1.6516 -1.3980 0.9860
-3.2342 -4.8258 -2.5059 0.9750
-1.8444 -5.5088 -2.5059 0.9750
-1.3467 -5.6511 -2.5059 0.9750
-0.8384 -5.7485 -2.5059 0.9750
-0.3234 -5.8004 -2.5059 0.9750
2.2082 -5.3733 -2.5059 0.9750
3.1259 -4.8966 -2.5059 0.9750
3.9446 -4.2648 -2.5059 0.9750
4.3085 -3.8968 -2.5059 0.9750
4.9312 -3.0711 -2.5059 0.9750
5.1850 -2.6200 -2.5059 0.9750
5.3976 -2.1482 -2.5059 0.9750
5.5674 -1.6592 -2.5059 0.9750
5.8079 -0.1294 -2.5059 0.9750
5.7389 0.9025 -2.5059 0.9750
5.6358 1.4096 -2.5059 0.9750
5.4879 1.9056 -2.5059 0.9750
5.2966 2.3866 -2.5059 0.9750
4.4982 3.0879 -2.3535 0.9765
3.8795 3.8365 -2.3535 0.9765
3.5226 4.1666 -2.3535 0.9765
3.1378 4.4636 -2.3535 0.9765
2.7280 4.7251 -2.3535 0.9765
2.2967 4.9492 -2.3535 0.9765
1.8470 5.1340 -2.3535 0.9765
0.4251 5.4395 -2.3535 0.9765
-0.5461 5.4287 -2.3535 0.9765
-1.9610 5.0915 -2.3535 0.9765
-2.4063 4.8968 -2.3535 0.9765
-3.2364 4.3925 -2.3535 0.9765
-3.7847 4.2795 -2.4643 0.9754
-4.2206 3.9919 -2.5059 0.9750
-4.5592 3.6004 -2.5059 0.9750
-5.3484 2.2679 -2.5059 0.9750
-3.3811 0.1508 -1.4599 0.9854
-2.7402 -0.3685 -1.1926 0.9880
-2.7166 -0.8760 -1.2313 0.9876
-2.7334 -1.1590 -1.2807 0.9871
-5.1253 -2.7349 -2.5059 0.9750
-4.8615 -3.1802 -2.5059 0.9750
-4.5592 -3.6003 -2.5059 0.9750
-4.2206 -3.9918 -2.5059 0.9750
-3.8486 -4.3516 -2.5059 0.9750
-3.4460 -4.6769 -2.5059 0.9750
-2.5622 -5.2138 -2.5059 0.9750
-1.5971 -5.5855 -2.5059 0.9750
-1.0936 -5.7054 -2.5059 0.9750
-0.0647 -5.8090 -2.5059 0.9750
0.4526 -5.7917 -2.5059 0.9750
0.9663 -5.7284 -2.5059 0.9750
2.9047 -5.0310 -2.5059 0.9750
3.3410 -4.7525 -2.5059 0.9750
4.1307 -4.0849 -2.5059 0.9750
4.7895 -3.2878 -2.5059 0.9750
5.0631 -2.8484 -2.5059 0.9750
5.2966 -2.3865 -2.5059 0.9750
5.4879 -1.9056 -2.5059 0.9750
5.6358 -1.4096 -2.5059 0.9750
5.6930 1.1572 -2.5059 0.9750
5.1850 2.6201 -2.5059 0.9750
4.6313 2.8844 -2.3535 0.9765
4.0465 3.6599 -2.3535 0.9765
3.3335 4.3194 -2.3535 0.9765
2.5148 4.8420 -2.3535 0.9765
2.0739 5.0466 -2.3535 0.9765
1.6165 5.2112 -2.3535 0.9765
0.1823 5.4531 -2.3535 0.9765
-0.7874 5.3990 -2.3535 0.9765
-1.7322 5.1739 -2.3535 0.9765
-2.1858 4.9991 -2.3535 0.9765
-2.6221 4.7847 -2.3535 0.9765
-4.7151 3.3937 -2.5059 0.9750
-4.9984 2.9606 -2.5059 0.9750
-5.7173 1.0300 -2.5059 0.9750
-2.9980 0.0000 -1.3528 0.9869
-2.6738 -0.4817 -1.2259 0.9881
-4.2009 -3.6326 -2.5059 0.9759
-3.8609 -3.9921 -2.5059 0.9759
-3.0919 -4.6134 -2.5059 0.9759
-2.2249 -5.0885 -2.5059 0.9759
-1.2875 -5.4023 -2.5059 0.9759
-0.3092 -5.5450 -2.5059 0.9759
0.1856 -5.5505 -2.5059 0.9759
0.6789 -5.5120 -2.5059 0.9759
1.1668 -5.4297 -2.5059 0.9759
2.9883 -4.6811 -2.5059 0.9759
3.7710 -4.0771 -2.5059 0.9759
4.1189 -3.7253 -2.5059 0.9759
4.7142 -2.9359 -2.5059 0.9759
5.1600 -2.0536 -2.5059 0.9759
5.4424 -1.1062 -2.5059 0.9759
5.5193 -0.6174 -2.5059 0.9759
5.5413 0.3710 -2.5059 0.9759
5.0634 2.2815 -2.5059 0.9759
4.0204 3.3230 -2.3535 0.9774
2.9997 4.2671 -2.3535 0.9774
2.6080 4.5172 -2.3535 0.9774
2.1956 4.7314 -2.3535 0.9774
1.3219 5.0457 -2.3535 0.9774
-0.5221 5.1898 -2.3535 0.9774
-0.9819 5.1227 -2.3535 0.9774
-1.4340 5.0150 -2.3535 0.9774
-3.6792 4.1602 -2.5059 0.9759
-4.0349 3.8162 -2.5059 0.9759
-4.6476 3.0404 -2.5059 0.9759
-5.2857 1.7045 -2.5059 0.9759
-5.4164 1.2273 -2.5059 0.9759
-2.7833 -0.1241 -1.2571 0.9878
-2.6870 -0.3613 -1.2234 0.9882
-2.6659 -0.6040 -1.2334 0.9881
-2.6574 -0.8569 -1.2599 0.9878
-2.6675 -1.1311 -1.3074 0.9874
-4.6476 -3.0403 -2.5059 0.9759
-3.6792 -4.1601 -2.5059 0.9759
-3.2943 -4.4711 -2.5059 0.9759
-2.8833 -4.7465 -2.5059 0.9759
-1.5268 -5.3396 -2.5059 0.9759
-0.0619 -5.5533 -2.5059 0.9759
0.4327 -5.5368 -2.5059 0.9759
0.9237 -5.4763 -2.5059 0.9759
1.4075 -5.3723 -2.5059 0.9759
1.8801 -5.2257 -2.5059 0.9759
2.7768 -4.8096 -2.5059 0.9759
4.5787 -3.1430 -2.5059 0.9759
4.8403 -2.7231 -2.5059 0.9759
5.4863 -0.8626 -2.5059 0.9759
5.5523 0.1238 -2.5059 0.9759
5.4424 1.1063 -2.5059 0.9759
5.3223 1.5862 -2.5059 0.9759
5.1600 2.0537 -2.5059 0.9759
4.9568 2.5048 -2.5059 0.9759
4.5092 2.8084 -2.3970 0.9770
3.5417 3.8292 -2.3535 0.9774
3.1868 4.1293 -2.3535 0.9774
2.4042 4.6289 -2.3535 0.9774
1.9826 4.8245 -2.3535 0.9774
1.5454 4.9818 -2.3535 0.9774
1.0958 5.0996 -2.3535 0.9774
-0.2904 5.2079 -2.3535 0.9774
-0.7528 5.1614 -2.3535 0.9774
-2.9038 4.3329 -2.3535 0.9774
-3.4057 4.2153 -2.4452 0.9765
-3.8609 3.9922 -2.5059 0.9759
-4.2009 3.6327 -2.5059 0.9759
-5.0113 2.3937 -2.5059 0.9759
-5.2045 1.9382 -2.5059 0.9759
-5.4657 0.9847 -2.5059 0.9759
-3.7666 0.3366 -1.7063 0.9835
-2.6448 -0.2363 -1.2517 0.9883
-2.6212 -0.4722 -1.2555 0.9883
-2.6023 -0.9691 -1.3090 0.9878
-3.6958 -3.8213 -2.5059 0.9768
-3.3410 -4.1351 -2.5059 0.9768
-2.5549 -4.6620 -2.5059 0.9768
-2.1298 -4.8709 -2.5059 0.9768
-1.2324 -5.1713 -2.5059 0.9768
0.1776 -5.3132 -2.5059 0.9768
1.1169 -5.1975 -2.5059 0.9768
1.5751 -5.0774 -2.5059 0.9768
2.8605 -4.4809 -2.5059 0.9768
3.6097 -3.9028 -2.5059 0.9768
3.9428 -3.5660 -2.5059 0.9768
4.2445 -3.2009 -2.5059 0.9768
4.9394 -1.9658 -2.5059 0.9768
5.0947 -1.5184 -2.5059 0.9768
5.2097 -1.0589 -2.5059 0.9768
5.2832 -0.5910 -2.5059 0.9768
5.3149 -0.1184 -2.5059 0.9768
5.1573 1.2900 -2.5059 0.9768
5.0220 1.7439 -2.5059 0.9768
4.6333 2.6067 -2.5059 0.9768
4.1792 2.8688 -2.3894 0.9778
3.2235 3.8128 -2.3535 0.9782
2.4964 4.3240 -2.3535 0.9782
2.1017 4.5290 -2.3535 0.9782
1.6902 4.6981 -2.3535 0.9782
1.2654 4.8299 -2.3535 0.9782
0.8305 4.9233 -2.3535 0.9782
0.3890 4.9777 -2.3535 0.9782
-0.9399 4.9037 -2.3535 0.9782
-1.3727 4.8005 -2.3535 0.9782
-1.7945 4.6593 -2.3535 0.9782
-3.0622 4.1561 -2.4334 0.9774
-3.5219 3.9822 -2.5059 0.9768
-3.8623 3.6530 -2.5059 0.9768
-4.1721 3.2947 -2.5059 0.9768
-4.6902 2.5028 -2.5059 0.9768
-5.1848 1.1747 -2.5059 0.9768
-5.2687 0.7086 -2.5059 0.9768
-3.1522 0.1406 -1.4873 0.9861
-2.6352 -0.3544 -1.2533 0.9883
-2.6038 -1.1041 -1.3332 0.9876
-2.5902 -1.3822 -1.3839 0.9871
-4.4488 -2.9102 -2.5059 0.9768
-3.8623 -3.6529 -2.5059 0.9768
-3.5219 -3.9822 -2.5059 0.9768
-3.1534 -4.2799 -2.5059 0.9768
-2.7600 -4.5436 -2.5059 0.9768
-1.9107 -4.9609 -2.5059 0.9768
-1.4615 -5.1113 -2.5059 0.9768
-0.5321 -5.2894 -2.5059 0.9768
-0.0592 -5.3158 -2.5059 0.9768
0.4142 -5.3000 -2.5059 0.9768
1.3473 -5.1426 -2.5059 0.9768
2.2378 -4.8222 -2.5059 0.9768
3.7800 -3.7381 -2.5059 0.9768
5.0220 -1.7438 -2.5059 0.9768
5.1573 -1.2899 -2.5059 0.9768
4.9394 1.9658 -2.5059 0.9768
4.7448 2.3977 -2.5059 0.9768
4.4870 2.7946 -2.4917 0.9769
3.9864 3.0063 -2.3535 0.9782
3.3902 3.6655 -2.3535 0.9782
2.6866 4.2085 -2.3535 0.9782
1.0490 4.8814 -2.3535 0.9782
0.1668 4.9901 -2.3535 0.9782
-0.2780 4.9852 -2.3535 0.9782
-0.7206 4.9406 -2.3535 0.9782
-1.1574 4.8569 -2.3535 0.9782
-2.0002 4.5747 -2.3535 0.9782
-2.3995 4.3785 -2.3535 0.9782
-4.5740 2.7093 -2.5059 0.9768
-4.7970 2.2914 -2.5059 0.9768
-2.5698 -0.4630 -1.2843 0.9884
-2.5499 -0.6985 -1.3004 0.9883
-2.5457 -1.2160 -1.3876 0.9875
-4.3836 -2.5964 -2.5059 0.9775
-4.1351 -2.9762 -2.5059 0.9775
-2.4485 -4.4679 -2.5059 0.9775
-1.6175 -4.8312 -2.5059 0.9775
-1.1811 -4.9560 -2.5059 0.9775
-0.7353 -5.0415 -2.5059 0.9775
-0.2836 -5.0869 -2.5059 0.9775
1.0704 -4.9811 -2.5059 0.9775
1.5095 -4.8661 -2.5059 0.9775
1.9366 -4.7124 -2.5059 0.9775
2.3483 -4.5213 -2.5059 0.9775
2.7415 -4.2944 -2.5059 0.9775
4.0678 -3.0676 -2.5059 0.9775
4.5472 -2.2978 -2.5059 0.9775
4.7337 -1.8839 -2.5059 0.9775
4.8826 -1.4552 -2.5059 0.9775
4.9928 -1.0148 -2.5059 0.9775
5.0633 -0.5664 -2.5059 0.9775
4.6451 2.0930 -2.5059 0.9775
4.4404 2.4981 -2.5059 0.9775
3.6883 3.0485 -2.3535 0.9789
0.3728 4.7705 -2.3535 0.9789
-0.0533 4.7847 -2.3535 0.9789
-0.4789 4.7610 -2.3535 0.9789
-0.9008 4.6995 -2.3535 0.9789
-1.7198 4.4653 -2.3535 0.9789
-2.1104 4.2945 -2.3535 0.9789
-3.3752 3.8165 -2.5059 0.9775
-3.7015 3.5009 -2.5059 0.9775
-3.9984 3.1576 -2.5059 0.9775
-4.2636 2.7892 -2.5059 0.9775
-4.4949 2.3986 -2.5059 0.9775
-4.6906 1.9890 -2.5059 0.9775
-4.8490 1.5636 -2.5059 0.9775
-4.9689 1.1258 -2.5059 0.9775
-5.0494 0.6791 -2.5059 0.9775
-3.0630 0.1366 -1.5081 0.9864
-2.6467 -0.1180 -1.3031 0.9883
-2.5845 -0.3476 -1.2826 0.9884
-2.5430 -0.8200 -1.3142 0.9882
-2.5301 -1.3501 -1.4105 0.9873
-4.2636 -2.7891 -2.5059 0.9775
-3.9984 -3.1575 -2.5059 0.9775
-3.7015 -3.5008 -2.5059 0.9775
-1.4007 -4.8985 -2.5059 0.9775
-0.9591 -5.0037 -2.5059 0.9775
-0.0568 -5.0945 -2.5059 0.9775
0.3969 -5.0793 -2.5059 0.9775
0.8474 -5.0239 -2.5059 0.9775
1.2912 -4.9285 -2.5059 0.9775
2.1446 -4.6214 -2.5059 0.9775
2.9300 -4.1680 -2.5059 0.9775
3.2894 -3.8906 -2.5059 0.9775
3.6226 -3.5824 -2.5059 0.9775
3.9271 -3.2458 -2.5059 0.9775
4.2004 -2.8834 -2.5059 0.9775
4.6451 -2.0929 -2.5059 0.9775
4.9426 -1.2362 -2.5059 0.9775
4.5472 2.2979 -2.5059 0.9775
3.8763 2.9233 -2.3880 0.9786
3.5488 3.2097 -2.3535 0.9789
2.2055 4.2464 -2.3535 0.9789
1.4177 4.5702 -2.3535 0.9789
1.0053 4.6782 -2.3535 0.9789
-0.2664 4.7776 -2.3535 0.9789
-0.6906 4.7349 -2.3535 0.9789
-1.5191 4.5375 -2.3535 0.9789
-2.7484 4.1009 -2.4281 0.9782
-3.2019 3.9630 -2.5059 0.9775
-3.5419 3.6623 -2.5059 0.9775
-3.8538 3.3326 -2.5059 0.9775
-4.1351 2.9763 -2.5059 0.9775
-4.3836 2.5964 -2.5059 0.9775
-4.5973 2.1960 -2.5059 0.9775
-4.7745 1.7781 -2.5059 0.9775
-4.9138 1.3461 -2.5059 0.9775
-5.0141 0.9034 -2.5059 0.9775
-2.7481 0.0000 -1.4089 0.9877
-2.4879 -1.1884 -1.4135 0.9877
-2.4521 -1.4524 -1.4611 0.9873
-3.9672 -2.8554 -2.5059 0.9783
-3.6973 -3.1971 -2.5059 0.9783
-3.0719 -3.8020 -2.5059 0.9783
-2.7213 -4.0604 -2.5059 0.9783
-2.3491 -4.2865 -2.5059 0.9783
-1.1331 -4.7548 -2.5059 0.9783
-0.7054 -4.8368 -2.5059 0.9783
-0.2721 -4.8804 -2.5059 0.9783
0.1633 -4.8852 -2.5059 0.9783
2.2530 -4.3377 -2.5059 0.9783
3.3190 -3.5884 -2.5059 0.9783
3.6252 -3.2788 -2.5059 0.9783
3.9026 -2.9430 -2.5059 0.9783
4.1491 -2.5840 -2.5059 0.9783
4.8577 -0.5434 -2.5059 0.9783
4.8771 0.3265 -2.5059 0.9783
4.2601 2.3967 -2.5059 0.9783
3.2642 3.2280 -2.3535 0.9796
2.9639 3.5057 -2.3535 0.9796
2.2954 3.9757 -2.3535 0.9796
1.9324 4.1642 -2.3535 0.9796
0.7636 4.5268 -2.3535 0.9796
0.3576 4.5768 -2.3535 0.9796
-0.8642 4.5087 -2.3535 0.9796
-1.6499 4.2840 -2.3535 0.9796
-3.2382 3.6615 -2.5059 0.9783
-3.5512 3.3588 -2.5059 0.9783
-4.0905 2.6759 -2.5059 0.9783
-4.3124 2.3012 -2.5059 0.9783
-4.5001 1.9083 -2.5059 0.9783
-4.7671 1.0802 -2.5059 0.9783
-4.8444 0.6515 -2.5059 0.9783
-2.9775 0.1328 -1.5280 0.9867
-2.5877 -0.1154 -1.3280 0.9884
-2.5350 -0.3409 -1.3113 0.9886
-2.5113 -0.5690 -1.3201 0.9885
-4.0905 -2.6758 -2.5059 0.9783
-3.5512 -3.3587 -2.5059 0.9783
-2.8994 -3.9351 -2.5059 0.9783
-2.5377 -4.1776 -2.5059 0.9783
-2.1558 -4.3869 -2.5059 0.9783
-1.7568 -4.5613 -2.5059 0.9783
-0.4893 -4.8634 -2.5059 0.9783
-0.0544 -4.8876 -2.5059 0.9783
0.8130 -4.8198 -2.5059 0.9783
2.4440 -4.2331 -2.5059 0.9783
2.8111 -3.9987 -2.5059 0.9783
3.1558 -3.7327 -2.5059 0.9783
4.0299 -2.7663 -2.5059 0.9783
4.2601 -2.3967 -2.5059 0.9783
4.4565 -2.0080 -2.5059 0.9783
4.6175 -1.6033 -2.5059 0.9783
4.7419 -1.1860 -2.5059 0.9783
4.8287 -0.7592 -2.5059 0.9783
4.8771 -0.3264 -2.5059 0.9783
4.5415 1.8075 -2.5059 0.9783
4.3626 2.2046 -2.5059 0.9783
3.4047 3.0794 -2.3535 0.9796
2.8048 3.6343 -2.3535 0.9796
2.1160 4.0740 -2.3535 0.9796
1.7450 4.2462 -2.3535 0.9796
1.3601 4.3847 -2.3535 0.9796
0.9645 4.4883 -2.3535 0.9796
0.1534 4.5882 -2.3535 0.9796
-0.2556 4.5837 -2.3535 0.9796
-0.6625 4.5427 -2.3535 0.9796
-1.8391 4.2062 -2.3535 0.9796
-2.2079 4.0290 -2.3554 0.9796
-2.7213 4.0605 -2.5059 0.9783
-3.0719 3.8021 -2.5059 0.9783
-3.6973 3.1972 -2.5059 0.9783
-3.9672 2.8555 -2.5059 0.9783
-4.4106 2.1068 -2.5059 0.9783
-4.8105 0.8667 -2.5059 0.9783
-2.6714 0.0000 -1.4261 0.9880
-2.4853 -0.2221 -1.3321 0.9887
-2.4501 -0.6711 -1.3561 0.9885
-2.4292 -1.1603 -1.4371 0.9879
-2.3944 -1.4182 -1.4856 0.9875
-3.8099 -2.7422 -2.5059 0.9789
-2.6133 -3.8994 -2.5059 0.9789
-0.2613 -4.6868 -2.5059 0.9789
0.1569 -4.6915 -2.5059 0.9789
0.5738 -4.6589 -2.5059 0.9789
1.3908 -4.4833 -2.5059 0.9789
1.7843 -4.3417 -2.5059 0.9789
2.1636 -4.1657 -2.5059 0.9789
2.8680 -3.7161 -2.5059 0.9789
3.4814 -3.1487 -2.5059 0.9789
4.3614 -1.7357 -2.5059 0.9789
4.4986 -1.3407 -2.5059 0.9789
4.6001 -0.9350 -2.5059 0.9789
4.6650 -0.5218 -2.5059 0.9789
4.6929 -0.1045 -2.5059 0.9789
4.6836 0.3136 -2.5059 0.9789
4.6371 0.7292 -2.5059 0.9789
4.4344 1.5398 -2.5059 0.9789
4.0911 2.3017 -2.5059 0.9789
3.5802 2.9591 -2.4795 0.9792
3.1348 3.1000 -2.3535 0.9802
2.8463 3.3667 -2.3535 0.9802
1.8557 3.9991 -2.3535 0.9802
1.4925 4.1484 -2.3535 0.9802
-0.0491 4.4084 -2.3535 0.9802
-0.4413 4.3865 -2.3535 0.9802
-1.2120 4.2388 -2.3535 0.9802
-2.4370 4.0119 -2.5059 0.9789
-2.7845 3.7791 -2.5059 0.9789
-3.9282 2.5698 -2.5059 0.9789
-4.3216 1.8326 -2.5059 0.9789
-4.4676 1.4406 -2.5059 0.9789
-4.6522 0.6257 -2.5059 0.9789
-2.8952 0.1291 -1.5471 0.9869
-2.5303 -0.1128 -1.3521 0.9886
-2.4353 -0.7853 -1.3660 0.9885
-2.4330 -1.0317 -1.4108 0.9881
-3.6839 -2.9091 -2.5059 0.9789
-3.1098 -3.5162 -2.5059 0.9789
-2.7844 -3.7791 -2.5059 0.9789
-2.0703 -4.2129 -2.5059 0.9789
-1.6871 -4.3804 -2.5059 0.9789
-1.2905 -4.5132 -2.5059 0.9789
-0.4699 -4.6705 -2.5059 0.9789
-0.0523 -4.6937 -2.5059 0.9789
1.1897 -4.5408 -2.5059 0.9789
1.5891 -4.4169 -2.5059 0.9789
3.0307 -3.5846 -2.5059 0.9789
3.3377 -3.3006 -2.5059 0.9789
3.6182 -2.9905 -2.5059 0.9789
4.2797 -1.9283 -2.5059 0.9789
4.5538 -1.1389 -2.5059 0.9789
4.6371 -0.7291 -2.5059 0.9789
4.6836 -0.3135 -2.5059 0.9789
4.6930 0.1046 -2.5059 0.9789
4.6001 0.9351 -2.5059 0.9789
4.1896 2.1171 -2.5059 0.9789
3.7478 2.8264 -2.5059 0.9789
3.3362 3.0174 -2.4014 0.9798
2.3722 3.7160 -2.3535 0.9802
2.0321 3.9124 -2.3535 0.9802
1.3062 4.2107 -2.3535 0.9802
0.9262 4.3103 -2.3535 0.9802
-0.2454 4.4018 -2.3535 0.9802
-1.0220 4.2886 -2.3535 0.9802
-1.3997 4.1806 -2.3535 0.9802
-1.7662 4.0394 -2.3535 0.9802
-2.1921 4.0001 -2.4350 0.9795
