ply
format ascii 1.0
element vertex 1589
property float32 x
property float32 y
property float32 z
property float32 I
end_header
6.5232 -12.5595 -2.4955 0.9441
8.6450 -11.2017 -2.4950 0.9441
10.4924 -9.4898 -2.4946 0.9442
12.0073 -7.4782 -2.4943 0.9442
13.1419 -5.2304 -2.4941 0.9442
13.5550 -4.0398 -2.4940 0.9442
13.8606 -2.8173 -2.4940 0.9442
14.0564 -1.5724 -2.4940 0.9442
14.1408 -0.3151 -2.4940 0.9442
12.8859 3.2230 -2.3421 0.9475
12.5486 4.3574 -2.3423 0.9475
12.1119 5.4574 -2.3424 0.9475
11.5790 6.5142 -2.3426 0.9475
10.9542 7.5197 -2.3428 0.9475
8.5811 10.1498 -2.3436 0.9474
6.6472 11.5133 -2.3442 0.9474
3.3706 12.8655 -2.3451 0.9474
-0.1482 13.3042 -2.3460 0.9474
-3.6593 12.7973 -2.3469 0.9474
-5.8717 11.9486 -2.3475 0.9474
-6.9126 11.3797 -2.3477 0.9474
-8.8224 9.9756 -2.3482 0.9473
-11.1468 7.2919 -2.3487 0.9473
-11.7521 6.2712 -2.3488 0.9473
-13.5024 4.3540 -2.5016 0.9440
-14.1730 0.6320 -2.5016 0.9440
-14.1727 -0.6320 -2.5015 0.9440
-14.0597 -1.8908 -2.5014 0.9440
-13.8349 -3.1346 -2.5013 0.9440
-13.0583 -5.5372 -2.5010 0.9440
-11.1285 -8.7880 -2.5003 0.9440
-6.2503 -12.7189 -2.4988 0.9441
-3.8951 -13.6219 -2.4982 0.9441
-1.4178 -14.0929 -2.4975 0.9441
-0.1578 -14.1612 -2.4972 0.9441
2.3550 -13.9611 -2.4965 0.9441
4.7918 -13.3191 -2.4959 0.9441
7.0759 -12.2558 -2.4953 0.9441
8.1378 -11.5762 -2.4951 0.9441
9.1350 -10.8049 -2.4949 0.9442
10.0596 -9.9482 -2.4947 0.9442
10.9044 -9.0127 -2.4945 0.9442
11.6625 -8.0059 -2.4943 0.9442
12.3282 -6.9357 -2.4942 0.9442
12.8961 -5.8107 -2.4941 0.9442
13.7214 -3.4319 -2.4940 0.9442
14.1126 -0.9447 -2.4940 0.9442
13.0163 2.6457 -2.3421 0.9475
12.5061 3.7272 -2.3010 0.9484
12.3425 4.9122 -2.3423 0.9475
11.8572 5.9917 -2.3425 0.9475
11.2778 7.0239 -2.3427 0.9475
10.6089 8.0006 -2.3429 0.9475
9.8557 8.9140 -2.3432 0.9475
8.1209 10.5226 -2.3437 0.9474
6.1281 11.7987 -2.3443 0.9474
5.0543 12.2990 -2.3446 0.9474
3.9401 12.7017 -2.3449 0.9474
-0.7408 13.2853 -2.3462 0.9474
-4.2260 12.6224 -2.3471 0.9474
-5.3333 12.1976 -2.3474 0.9474
-6.3985 11.6758 -2.3476 0.9474
-7.4130 11.0611 -2.3479 0.9474
-10.0745 8.7117 -2.3485 0.9473
-11.4608 6.7883 -2.3487 0.9473
-13.2949 4.9511 -2.5015 0.9440
-13.6831 3.7482 -2.5016 0.9440
-13.9625 2.5155 -2.5016 0.9440
-12.9249 0.0000 -2.5012 0.9487
-12.7193 -2.2915 -2.5010 0.9487
-12.4643 -3.4143 -2.5009 0.9487
-10.4860 -7.5474 -2.5002 0.9487
-9.7718 -8.4500 -2.5000 0.9487
-8.9800 -9.2852 -2.4997 0.9487
-7.1898 -10.7280 -2.4992 0.9487
-6.2057 -11.3240 -2.4989 0.9487
-5.1726 -11.8300 -2.4986 0.9488
-4.0986 -12.2420 -2.4983 0.9488
-2.9924 -12.5567 -2.4980 0.9488
-1.8627 -12.7716 -2.4977 0.9488
2.7103 -12.6126 -2.4965 0.9488
5.9442 -11.4447 -2.4957 0.9488
6.9386 -10.8692 -2.4954 0.9488
7.8778 -10.2076 -2.4952 0.9488
8.7544 -9.4651 -2.4950 0.9488
9.5614 -8.6478 -2.4948 0.9488
10.2925 -7.7620 -2.4947 0.9488
10.9420 -6.8147 -2.4946 0.9488
11.9760 -4.7663 -2.4944 0.9488
12.6310 -2.5674 -2.4943 0.9488
12.8095 -1.4329 -2.4943 0.9488
11.9569 1.8801 -2.3423 0.9519
11.4352 3.9708 -2.3425 0.9519
11.0371 4.9731 -2.3427 0.9519
10.5515 5.9362 -2.3429 0.9519
9.9821 6.8523 -2.3431 0.9519
7.8194 9.2488 -2.3437 0.9519
6.9659 9.9091 -2.3440 0.9518
6.0570 10.4910 -2.3443 0.9518
4.1019 11.4014 -2.3448 0.9518
0.9443 12.0845 -2.3457 0.9518
-1.2136 12.0634 -2.3463 0.9518
-3.3340 11.6598 -2.3468 0.9518
-9.5232 7.5204 -2.3483 0.9518
-10.1553 6.6433 -2.3484 0.9518
-12.3013 3.9667 -2.5012 0.9487
-12.6057 2.8561 -2.5013 0.9487
-12.8099 1.7228 -2.5013 0.9487
-12.9122 0.5758 -2.5012 0.9487
-12.9119 -0.5757 -2.5012 0.9487
-12.2995 -3.9660 -2.5009 0.9487
-11.8969 -5.0447 -2.5007 0.9487
-9.3852 -8.8764 -2.4999 0.9487
-8.5570 -9.6755 -2.4996 0.9487
-7.6610 -10.3977 -2.4993 0.9487
-6.7044 -11.0370 -2.4990 0.9487
-4.6402 -12.0480 -2.4984 0.9488
-0.1437 -12.9035 -2.4972 0.9488
2.1459 -12.7215 -2.4966 0.9488
4.3665 -12.1367 -2.4961 0.9488
6.4479 -11.1680 -2.4956 0.9488
8.3244 -9.8461 -2.4951 0.9488
9.1670 -9.0654 -2.4949 0.9488
9.9369 -8.2130 -2.4948 0.9488
10.6278 -7.2955 -2.4946 0.9488
11.2345 -6.3204 -2.4945 0.9488
12.1764 -4.2281 -2.4944 0.9488
12.7329 -2.0021 -2.4943 0.9488
12.8606 -0.8609 -2.4943 0.9488
12.8865 0.2872 -2.4944 0.9488
11.8615 2.4110 -2.3424 0.9519
11.6004 3.4573 -2.3425 0.9519
10.2770 6.4006 -2.3430 0.9519
9.6674 7.2905 -2.3432 0.9519
8.9809 8.1228 -2.3434 0.9519
7.4000 9.5884 -2.3439 0.9519
5.5840 10.7510 -2.3444 0.9518
3.5901 11.5735 -2.3450 0.9518
2.5461 11.8486 -2.3453 0.9518
0.4051 12.1154 -2.3458 0.9518
-2.8111 11.7961 -2.3467 0.9518
-3.8503 11.5003 -2.3469 0.9518
-4.8591 11.1132 -2.3472 0.9518
-7.6247 9.4372 -2.3478 0.9518
-9.1785 7.9369 -2.3482 0.9518
-9.8490 7.0889 -2.3483 0.9518
-12.1123 4.5107 -2.5012 0.9487
-12.4659 3.4148 -2.5012 0.9487
-12.8738 1.1504 -2.5012 0.9487
-11.8155 -1.0558 -2.5009 0.9527
-10.2039 -6.0437 -2.5002 0.9527
-9.6247 -6.9274 -2.5000 0.9527
-8.9691 -7.7559 -2.4998 0.9527
-6.5995 -9.8471 -2.4991 0.9527
-4.7480 -10.8588 -2.4985 0.9527
-3.7622 -11.2371 -2.4983 0.9527
-2.7468 -11.5261 -2.4980 0.9527
3.5082 -11.3094 -2.4963 0.9527
4.5004 -10.9512 -2.4961 0.9528
5.4568 -10.5062 -2.4958 0.9528
8.0367 -8.6891 -2.4952 0.9528
9.4488 -7.1257 -2.4949 0.9528
10.9944 -4.3757 -2.4947 0.9528
11.3400 -3.3797 -2.4946 0.9528
11.5957 -2.3569 -2.4946 0.9528
11.8301 -0.2636 -2.4946 0.9528
10.4978 3.6452 -2.3428 0.9556
10.1323 4.5654 -2.3429 0.9556
9.6864 5.4495 -2.3431 0.9556
9.1636 6.2905 -2.3432 0.9556
8.5681 7.0817 -2.3434 0.9556
7.9045 7.8169 -2.3437 0.9556
4.6814 10.0881 -2.3446 0.9556
3.7653 10.4659 -2.3449 0.9555
2.8192 10.7607 -2.3451 0.9555
-3.0602 10.7024 -2.3467 0.9555
-6.6052 8.9648 -2.3475 0.9555
-8.0912 7.6527 -2.3479 0.9555
-8.7408 6.9025 -2.3480 0.9555
-9.3209 6.0975 -2.3481 0.9555
-10.9214 4.6311 -2.5009 0.9527
-11.5698 2.6214 -2.5010 0.9527
-11.7572 1.5812 -2.5010 0.9527
-11.8512 0.5284 -2.5009 0.9527
-11.8509 -0.5284 -2.5009 0.9527
-11.5687 -2.6211 -2.5007 0.9527
-10.4633 -5.5834 -2.5003 0.9527
-9.9241 -6.4921 -2.5001 0.9527
-9.3062 -7.3490 -2.4999 0.9527
-8.6144 -8.1474 -2.4997 0.9527
-7.8543 -8.8810 -2.4994 0.9527
-6.1539 -10.1308 -2.4989 0.9527
-5.2273 -10.6371 -2.4987 0.9527
-3.2577 -11.3929 -2.4981 0.9527
-2.2305 -11.6363 -2.4978 0.9527
-1.1858 -11.7873 -2.4975 0.9527
1.9698 -11.6779 -2.4967 0.9527
4.0083 -11.1413 -2.4962 0.9528
4.9836 -10.7393 -2.4960 0.9528
5.9191 -10.2522 -2.4957 0.9528
6.8076 -9.6838 -2.4955 0.9528
7.6419 -9.0388 -2.4953 0.9528
8.4155 -8.3222 -2.4952 0.9528
10.3136 -5.8023 -2.4948 0.9528
11.4793 -2.8712 -2.4946 0.9528
10.8892 2.2134 -2.3426 0.9556
9.9192 5.0124 -2.3430 0.9556
9.4344 5.8758 -2.3432 0.9556
8.2445 7.4567 -2.3435 0.9556
5.1259 9.8690 -2.3445 0.9556
4.2276 10.2872 -2.3447 0.9556
3.2956 10.6239 -2.3450 0.9555
2.3372 10.8763 -2.3453 0.9555
1.3600 11.0424 -2.3455 0.9555
0.3718 11.1208 -2.3458 0.9555
-0.6195 11.1111 -2.3461 0.9555
-4.4601 10.2005 -2.3470 0.9555
-6.1991 9.2497 -2.3475 0.9555
-6.9983 8.6620 -2.3476 0.9555
-7.7420 8.0052 -2.3478 0.9555
-9.0398 6.5064 -2.3481 0.9555
-9.5834 5.6763 -2.3482 0.9555
-10.7041 5.1129 -2.5009 0.9527
-11.1170 4.1400 -2.5009 0.9527
-10.7820 -1.9425 -2.5005 0.9560
-9.8843 -4.7213 -2.5002 0.9561
-9.4242 -5.5820 -2.5000 0.9561
-8.8893 -6.3981 -2.4998 0.9561
-8.2839 -7.1634 -2.4996 0.9561
-7.6129 -7.8716 -2.4994 0.9561
-6.8814 -8.5172 -2.4992 0.9561
-6.0954 -9.0950 -2.4990 0.9561
-4.3854 -10.0297 -2.4985 0.9561
-2.5371 -10.6461 -2.4980 0.9561
0.3656 -10.9347 -2.4972 0.9561
1.3373 -10.8577 -2.4969 0.9561
2.2981 -10.6945 -2.4967 0.9561
3.2406 -10.4465 -2.4964 0.9561
5.0405 -9.7047 -2.4960 0.9561
5.8838 -9.2168 -2.4958 0.9561
8.1082 -7.3334 -2.4953 0.9561
8.7283 -6.5823 -2.4952 0.9561
10.4754 -3.1220 -2.4949 0.9561
10.7116 -2.1772 -2.4948 0.9561
10.9281 -0.2435 -2.4949 0.9561
10.9066 0.7301 -2.4949 0.9561
9.6972 3.3673 -2.3430 0.9588
9.3596 4.2172 -2.3431 0.9588
7.9145 6.5415 -2.3436 0.9587
7.3015 7.2206 -2.3438 0.9587
3.4780 9.6671 -2.3449 0.9587
2.6040 9.9394 -2.3452 0.9587
1.7092 10.1327 -2.3454 0.9587
0.8006 10.2457 -2.3456 0.9587
-0.1145 10.2774 -2.3459 0.9587
-2.8265 9.8849 -2.3466 0.9587
-3.6954 9.5950 -2.3468 0.9587
-4.5352 9.2288 -2.3470 0.9587
-8.0728 6.3750 -2.3478 0.9587
-10.4276 3.3625 -2.5007 0.9560
-10.6856 2.4211 -2.5007 0.9560
-10.9454 0.4881 -2.5007 0.9560
-10.8580 -1.4603 -2.5006 0.9560
-10.6846 -2.4208 -2.5005 0.9560
-10.4263 -3.3620 -2.5004 0.9560
-9.6639 -5.1568 -2.5001 0.9561
-9.1659 -5.9960 -2.4999 0.9561
-7.9563 -7.5250 -2.4995 0.9561
-7.2543 -8.2026 -2.4993 0.9561
-6.4949 -8.8149 -2.4991 0.9561
-5.6840 -9.3571 -2.4988 0.9561
-3.0090 -10.5231 -2.4981 0.9561
0.8523 -10.9070 -2.4970 0.9561
2.7721 -10.5810 -2.4966 0.9561
4.6034 -9.9200 -2.4961 0.9561
5.4676 -9.4701 -2.4959 0.9561
7.7737 -7.6875 -2.4954 0.9561
8.4266 -6.9647 -2.4952 0.9561
9.5271 -5.3599 -2.4950 0.9561
10.9063 -0.7300 -2.4949 0.9561
10.9282 0.2436 -2.4949 0.9561
10.0588 2.0445 -2.3428 0.9588
9.8374 2.9319 -2.3429 0.9588
9.5379 3.7960 -2.3430 0.9588
8.7148 5.4276 -2.3433 0.9588
8.1977 6.1822 -2.3435 0.9587
7.6156 6.8879 -2.3437 0.9587
6.2748 8.1304 -2.3441 0.9587
5.5267 8.6575 -2.3443 0.9587
4.7347 9.1160 -2.3446 0.9587
3.9049 9.5021 -2.3448 0.9587
1.2562 10.1994 -2.3455 0.9587
0.3434 10.2718 -2.3458 0.9587
-0.5722 10.2626 -2.3460 0.9587
-2.3832 10.0006 -2.3465 0.9587
-3.2642 9.7497 -2.3467 0.9587
-4.1194 9.4213 -2.3469 0.9587
-4.9420 9.0180 -2.3471 0.9587
-6.4636 8.0001 -2.3475 0.9587
-7.1505 7.3935 -2.3476 0.9587
-7.7806 6.7282 -2.3478 0.9587
-8.8511 5.2425 -2.3480 0.9587
-10.2673 3.8236 -2.5007 0.9560
-10.5671 2.8946 -2.5007 0.9560
-10.7828 1.9427 -2.5007 0.9560
-10.1728 -0.0000 -2.5005 0.9590
-9.8105 -2.6873 -2.5003 0.9590
-8.7505 -5.1829 -2.4999 0.9590
-7.6919 -6.6514 -2.4995 0.9590
-6.3896 -7.9085 -2.4991 0.9590
-5.6599 -8.4451 -2.4989 0.9590
-4.0721 -9.3131 -2.4984 0.9590
-3.2267 -9.6377 -2.4982 0.9590
-0.5657 -10.1448 -2.4975 0.9590
2.1340 -9.9309 -2.4968 0.9590
3.8604 -9.3936 -2.4963 0.9590
6.2036 -8.0382 -2.4958 0.9590
6.8939 -7.4537 -2.4956 0.9590
7.5296 -6.8101 -2.4955 0.9590
9.4315 -3.7536 -2.4951 0.9590
9.7280 -2.8992 -2.4951 0.9591
10.1284 0.6781 -2.4951 0.9590
9.2475 2.3130 -2.3430 0.9615
9.0053 3.1270 -2.3431 0.9615
8.3091 4.6746 -2.3434 0.9615
7.8606 5.3960 -2.3436 0.9615
7.3496 6.0746 -2.3437 0.9615
6.7803 6.7052 -2.3439 0.9615
6.1571 7.2827 -2.3441 0.9615
4.7691 8.2604 -2.3445 0.9615
4.0154 8.6529 -2.3447 0.9615
2.4180 9.2295 -2.3452 0.9615
1.5871 9.4090 -2.3454 0.9615
0.7434 9.5139 -2.3456 0.9615
-0.1063 9.5432 -2.3459 0.9615
-0.9554 9.4968 -2.3461 0.9614
-1.7970 9.3749 -2.3463 0.9614
-2.6245 9.1786 -2.3465 0.9614
-6.3267 7.1537 -2.3474 0.9614
-6.9387 6.5626 -2.3475 0.9614
-7.4956 5.9193 -2.3476 0.9614
-9.9215 2.2479 -2.5005 0.9590
-10.0822 1.3560 -2.5005 0.9590
-9.9207 -2.2477 -2.5003 0.9590
-9.6808 -3.1217 -2.5002 0.9590
-8.5107 -5.5674 -2.4998 0.9590
-7.3876 -6.9871 -2.4994 0.9590
-6.0307 -8.1850 -2.4990 0.9590
-2.7940 -9.7714 -2.4981 0.9590
-1.9131 -9.9803 -2.4978 0.9590
-1.0171 -10.1100 -2.4976 0.9590
0.7914 -10.1282 -2.4971 0.9590
3.4382 -9.5567 -2.4964 0.9590
5.8395 -8.3068 -2.4958 0.9590
7.2189 -7.1389 -2.4955 0.9590
7.8253 -6.4677 -2.4954 0.9590
9.2550 -4.1701 -2.4951 0.9590
9.5892 -3.3297 -2.4951 0.9590
9.8474 -2.4630 -2.4951 0.9591
10.1281 -0.6780 -2.4951 0.9591
8.5088 4.2997 -2.3433 0.9615
8.0929 5.0403 -2.3435 0.9615
7.6126 5.7410 -2.3436 0.9615
7.0720 6.3962 -2.3438 0.9615
5.8268 7.5500 -2.3442 0.9615
5.1321 8.0394 -2.3444 0.9615
2.8266 9.1122 -2.3451 0.9615
-0.5314 9.5294 -2.3460 0.9614
-3.0309 9.0529 -2.3466 0.9614
-5.3162 7.9324 -2.3472 0.9614
-8.6754 5.1385 -2.4784 0.9593
-10.0118 1.8037 -2.5005 0.9590
-10.1326 0.9054 -2.5005 0.9590
-9.4888 0.0000 -2.5003 0.9615
-9.4509 -0.8445 -2.5002 0.9615
-9.1509 -2.5067 -2.5001 0.9615
-8.5607 -4.0891 -2.4999 0.9615
-8.1623 -4.8345 -2.4997 0.9615
-4.5570 -8.3155 -2.4986 0.9615
-3.7985 -8.6874 -2.4984 0.9615
-3.0099 -8.9902 -2.4982 0.9615
1.1584 -9.4053 -2.4970 0.9616
2.8072 -9.0494 -2.4966 0.9616
3.6012 -8.7629 -2.4964 0.9616
4.3665 -8.4070 -2.4962 0.9616
5.0971 -7.9844 -2.4961 0.9616
5.7872 -7.4986 -2.4959 0.9616
6.4312 -6.9534 -2.4958 0.9616
7.0242 -6.3530 -2.4956 0.9616
8.0387 -5.0065 -2.4954 0.9616
9.0752 -2.7047 -2.4953 0.9616
9.2798 -1.8862 -2.4952 0.9616
9.4487 0.6326 -2.4953 0.9616
13.7852 3.4479 -3.7443 0.9429
8.4009 2.9171 -2.3433 0.9639
7.3329 5.0338 -2.3437 0.9639
6.8562 5.6668 -2.3438 0.9639
5.7437 6.7937 -2.3442 0.9639
3.7457 8.0718 -2.3448 0.9639
3.0127 8.3739 -2.3450 0.9639
2.2556 8.6096 -2.3452 0.9639
0.6935 8.8747 -2.3456 0.9638
-0.0992 8.9020 -2.3458 0.9638
-0.8912 8.8587 -2.3460 0.9638
-1.6762 8.7449 -2.3462 0.9638
-2.4481 8.5617 -2.3464 0.9638
-5.2837 7.1712 -2.3471 0.9638
-6.4722 6.1214 -2.3474 0.9638
-8.3712 4.4670 -2.5002 0.9615
-9.0309 2.9121 -2.5003 0.9615
-9.2544 2.0968 -2.5003 0.9615
-9.4043 1.2647 -2.5003 0.9615
-9.4793 -0.4227 -2.5003 0.9615
-9.2536 -2.0966 -2.5001 0.9615
-9.0299 -2.9117 -2.5000 0.9615
-8.7345 -3.7037 -2.4999 0.9615
-8.3698 -4.4662 -2.4998 0.9615
-5.6254 -7.6349 -2.4989 0.9615
-4.9232 -8.1046 -2.4987 0.9615
-4.1819 -8.5099 -2.4985 0.9615
-3.4076 -8.8476 -2.4983 0.9615
-1.7846 -9.3099 -2.4978 0.9615
-0.9488 -9.4309 -2.4976 0.9616
-0.1056 -9.4771 -2.4974 0.9616
0.7383 -9.4480 -2.4971 0.9616
1.5761 -9.3440 -2.4969 0.9616
2.4014 -9.1658 -2.4967 0.9616
3.2074 -8.9150 -2.4965 0.9616
3.9878 -8.5935 -2.4963 0.9616
4.7365 -8.2039 -2.4961 0.9616
5.4475 -7.7492 -2.4960 0.9616
6.1153 -7.2331 -2.4958 0.9616
7.3001 -6.0337 -2.4956 0.9616
7.8078 -5.3597 -2.4955 0.9616
8.6339 -3.8902 -2.4953 0.9616
8.9457 -3.1063 -2.4953 0.9616
9.1866 -2.2977 -2.4952 0.9616
9.3546 -1.4709 -2.4952 0.9616
9.4485 -0.6325 -2.4952 0.9616
13.9248 2.8303 -3.7442 0.9429
7.5496 4.7020 -2.3436 0.9639
7.1016 5.3556 -2.3437 0.9639
6.5972 5.9668 -2.3439 0.9639
1.0881 8.8346 -2.3455 0.9638
-0.4957 8.8891 -2.3459 0.9638
-2.8272 8.4445 -2.3465 0.9638
-3.5679 8.1600 -2.3467 0.9638
-4.2803 7.8106 -2.3469 0.9638
-4.9589 7.3992 -2.3470 0.9638
-5.5981 6.9289 -2.3472 0.9638
-6.1929 6.4035 -2.3473 0.9638
-8.1637 4.8354 -2.5002 0.9615
-8.5620 4.0897 -2.5002 0.9615
-9.1517 2.5069 -2.5003 0.9615
-9.3386 1.6824 -2.5003 0.9615
-9.4512 0.8446 -2.5003 0.9615
-5.0319 0.0000 -1.4158 0.9793
-3.7904 -1.0383 -1.1057 0.9838
-8.3263 -3.1008 -2.4998 0.9638
-6.7192 -5.8103 -2.4993 0.9638
-2.0581 -8.6363 -2.4979 0.9638
0.2966 -8.8710 -2.4973 0.9638
1.0849 -8.8086 -2.4971 0.9638
1.8644 -8.6764 -2.4969 0.9638
4.0895 -7.8738 -2.4963 0.9638
5.4201 -7.0230 -2.4960 0.9638
8.4998 -2.5332 -2.4954 0.9638
8.6914 -1.7666 -2.4954 0.9638
8.8142 -0.9860 -2.4954 0.9638
8.8671 -0.1976 -2.4954 0.9638
8.7620 1.3778 -2.4955 0.9638
12.9111 3.2293 -3.7445 0.9462
7.2598 4.0843 -2.3436 0.9660
6.8679 4.7145 -2.3438 0.9660
5.9239 5.8583 -2.3441 0.9660
5.3794 6.3628 -2.3443 0.9660
4.7920 6.8168 -2.3444 0.9660
4.1666 7.2168 -2.3446 0.9660
2.8215 7.8425 -2.3450 0.9660
2.1125 8.0632 -2.3452 0.9660
1.3865 8.2199 -2.3454 0.9660
-1.5698 8.1897 -2.3462 0.9659
-2.2927 8.0181 -2.3464 0.9659
-2.9975 7.7828 -2.3465 0.9659
-4.3305 7.1290 -2.3469 0.9659
-5.5266 6.2490 -2.3471 0.9659
-6.0611 5.7326 -2.3473 0.9659
-8.8068 1.1844 -2.5002 0.9637
-8.8772 0.3958 -2.5002 0.9637
-4.2110 -0.1878 -1.1860 0.9826
-8.4564 -2.7268 -2.4999 0.9638
-7.4344 -4.8633 -2.4995 0.9638
-6.9716 -5.5054 -2.4994 0.9638
-6.4535 -6.1037 -2.4992 0.9638
-5.8842 -6.6534 -2.4990 0.9638
-4.6106 -7.5901 -2.4986 0.9638
-2.4409 -8.5364 -2.4980 0.9638
-0.8885 -8.8324 -2.4976 0.9638
-0.0989 -8.8757 -2.4974 0.9638
0.6914 -8.8485 -2.4972 0.9638
2.2490 -8.5844 -2.4968 0.9638
3.0039 -8.3495 -2.4966 0.9638
3.7349 -8.0484 -2.4964 0.9638
6.3074 -6.2375 -2.4958 0.9638
6.8372 -5.6511 -2.4957 0.9638
7.3127 -5.0199 -2.4956 0.9638
8.0865 -3.6436 -2.4955 0.9638
8.7615 -1.3777 -2.4954 0.9638
8.8671 0.1976 -2.4954 0.9638
13.0419 2.6508 -3.7444 0.9462
7.7388 3.0800 -2.3435 0.9660
7.0708 4.4038 -2.3437 0.9660
6.6512 5.0159 -2.3439 0.9660
6.1788 5.5884 -2.3440 0.9660
5.0908 6.5963 -2.3443 0.9660
3.8412 7.3956 -2.3447 0.9660
3.1679 7.7087 -2.3449 0.9660
1.7513 8.1497 -2.3453 0.9660
0.2786 8.3325 -2.3457 0.9659
-0.4642 8.3249 -2.3459 0.9659
-4.6439 6.9293 -2.3469 0.9659
-5.2426 6.4888 -2.3471 0.9659
-5.7996 5.9968 -2.3472 0.9659
-6.3106 5.4570 -2.3473 0.9659
-7.6452 4.5283 -2.5000 0.9638
-8.5704 2.3477 -2.5002 0.9637
-8.8508 0.7909 -2.5002 0.9637
-3.4798 -0.6269 -1.0586 0.9853
-7.1834 -4.2547 -2.4995 0.9657
-6.3144 -5.4603 -2.4992 0.9657
-5.2456 -6.4925 -2.4989 0.9657
-4.6466 -6.9331 -2.4987 0.9658
-2.6491 -7.9126 -2.4981 0.9658
-0.4644 -8.3293 -2.4975 0.9658
0.2787 -8.3369 -2.4973 0.9658
1.0196 -8.2784 -2.4971 0.9658
2.4709 -7.9653 -2.4968 0.9658
3.8435 -7.4000 -2.4964 0.9658
4.4866 -7.0281 -2.4963 0.9658
5.0940 -6.6005 -2.4961 0.9658
6.6560 -5.0195 -2.4958 0.9658
7.7450 -3.0824 -2.4956 0.9658
7.9885 -2.3808 -2.4956 0.9658
8.2840 -0.9267 -2.4955 0.9658
8.2349 1.2949 -2.4957 0.9658
7.3948 2.5678 -2.3435 0.9678
6.4546 4.4309 -2.3439 0.9678
6.0350 4.9881 -2.3440 0.9678
5.5674 5.5058 -2.3442 0.9678
4.5037 6.4066 -2.3445 0.9678
2.6517 7.3704 -2.3450 0.9678
1.3031 7.7251 -2.3454 0.9678
0.6104 7.8110 -2.3456 0.9678
-0.0873 7.8350 -2.3458 0.9678
-1.4753 7.6965 -2.3461 0.9678
-2.1546 7.5352 -2.3463 0.9678
-4.0697 6.6996 -2.3468 0.9678
-4.6501 6.3111 -2.3469 0.9678
-5.6959 5.3872 -2.3471 0.9678
-6.1531 4.8591 -2.3472 0.9678
-7.3670 3.9312 -2.4999 0.9657
-7.6879 3.2600 -2.5000 0.9657
-7.9476 2.5628 -2.5000 0.9657
-8.1442 1.8453 -2.5000 0.9657
-3.6646 -0.1634 -1.0982 0.9848
-3.5144 -0.4727 -1.0616 0.9853
-7.6869 -3.2596 -2.4997 0.9657
-7.3660 -3.9306 -2.4995 0.9657
-6.9865 -4.5704 -2.4994 0.9657
-6.5516 -5.1737 -2.4993 0.9657
-6.0648 -5.7360 -2.4991 0.9657
-5.5298 -6.2526 -2.4990 0.9657
-4.3329 -7.1330 -2.4986 0.9658
-2.9991 -7.7870 -2.4982 0.9658
-1.5707 -8.1940 -2.4978 0.9658
-0.8351 -8.3007 -2.4976 0.9658
0.6498 -8.3159 -2.4972 0.9658
2.1137 -8.0677 -2.4968 0.9658
2.8231 -7.8471 -2.4967 0.9658
4.1692 -7.2212 -2.4963 0.9658
4.7951 -6.8211 -2.4962 0.9658
5.3829 -6.3669 -2.4961 0.9658
5.9279 -5.8622 -2.4959 0.9658
6.4259 -5.3111 -2.4958 0.9658
7.2653 -4.0874 -2.4957 0.9658
7.6001 -3.4244 -2.4956 0.9658
7.8746 -2.7343 -2.4956 0.9658
8.0866 -2.0226 -2.4955 0.9658
8.2345 -1.2948 -2.4955 0.9658
8.3338 0.1858 -2.4956 0.9658
8.2843 0.9268 -2.4956 0.9658
11.9874 3.5726 -3.7448 0.9491
7.2733 2.8947 -2.3436 0.9678
6.6454 4.1388 -2.3438 0.9678
5.8070 5.2521 -2.3441 0.9678
4.7844 6.1994 -2.3444 0.9678
4.2140 6.6011 -2.3446 0.9678
3.6100 6.9505 -2.3447 0.9678
2.3208 7.4816 -2.3451 0.9678
0.2618 7.8307 -2.3457 0.9678
-0.4362 7.8236 -2.3459 0.9678
-1.1309 7.7543 -2.3460 0.9678
-4.9267 6.0979 -2.3470 0.9678
-5.4502 5.6354 -2.3471 0.9678
-5.9304 5.1282 -2.3472 0.9678
-7.5349 3.5992 -2.4999 0.9657
-7.8255 2.9143 -2.5000 0.9657
-8.2184 1.4806 -2.5000 0.9657
-8.3175 0.7433 -2.5000 0.9657
-3.7563 -0.0000 -1.1929 0.9844
-3.2843 -0.5917 -1.0598 0.9861
-3.2540 -0.8914 -1.0715 0.9859
-5.9523 -5.1471 -2.4991 0.9675
-5.4702 -5.6562 -2.4990 0.9675
-3.1515 -7.2076 -2.4983 0.9675
-0.4378 -7.8519 -2.4975 0.9675
0.2628 -7.8591 -2.4973 0.9675
0.9612 -7.8040 -2.4972 0.9675
1.6518 -7.6869 -2.4970 0.9675
2.3293 -7.5089 -2.4968 0.9675
5.3367 -5.7700 -2.4961 0.9676
5.8289 -5.2719 -2.4960 0.9676
6.6708 -4.1546 -2.4958 0.9676
7.3014 -2.9059 -2.4957 0.9676
7.5310 -2.2445 -2.4957 0.9676
7.8096 -0.8736 -2.4957 0.9676
7.8564 -0.1750 -2.4957 0.9676
7.8409 0.5249 -2.4957 0.9676
7.7632 1.2207 -2.4958 0.9676
11.4394 2.8611 -3.7449 0.9517
6.4322 3.6187 -2.3438 0.9695
5.6893 4.7023 -2.3441 0.9695
5.2485 5.1903 -2.3442 0.9695
4.7660 5.6372 -2.3444 0.9695
4.2456 6.0395 -2.3445 0.9695
3.6915 6.3938 -2.3447 0.9695
3.1080 6.6975 -2.3449 0.9695
1.8715 7.1435 -2.3452 0.9695
1.2284 7.2822 -2.3454 0.9695
-0.7394 7.3497 -2.3459 0.9695
-2.6554 6.8946 -2.3464 0.9695
-3.2587 6.6313 -2.3466 0.9695
-4.8957 5.5357 -2.3469 0.9695
-5.3692 5.0782 -2.3470 0.9695
-5.8917 4.6526 -2.3842 0.9690
-6.9444 3.7057 -2.4998 0.9675
-7.2468 3.0729 -2.4998 0.9675
-3.4557 -0.1541 -1.0986 0.9856
-3.3189 -0.4464 -1.0635 0.9860
-7.2460 -3.0726 -2.4996 0.9675
-6.5858 -4.3082 -2.4993 0.9675
-6.1759 -4.8770 -2.4992 0.9675
-5.7169 -5.4070 -2.4990 0.9675
-4.6671 -6.3342 -2.4987 0.9675
-2.8272 -7.3406 -2.4982 0.9675
0.6126 -7.8393 -2.4973 0.9675
1.9925 -7.6055 -2.4969 0.9675
4.5204 -6.4303 -2.4963 0.9675
5.0745 -6.0022 -2.4962 0.9676
5.5884 -5.5264 -2.4960 0.9676
6.4792 -4.4477 -2.4959 0.9676
6.8491 -3.8533 -2.4958 0.9676
7.4236 -2.5777 -2.4957 0.9676
7.8408 -0.5249 -2.4957 0.9676
7.8565 0.1751 -2.4957 0.9676
7.8098 0.8737 -2.4958 0.9676
6.8567 2.7289 -2.3437 0.9695
6.2647 3.9017 -2.3439 0.9695
5.8929 4.4441 -2.3440 0.9695
4.5103 5.8441 -2.3445 0.9695
3.4031 6.5521 -2.3448 0.9695
2.8066 6.8296 -2.3450 0.9695
2.1878 7.0527 -2.3451 0.9695
0.9028 7.3300 -2.3455 0.9695
0.2468 7.3818 -2.3457 0.9695
-0.4112 7.3751 -2.3458 0.9695
-1.7126 7.1863 -2.3462 0.9695
-4.1139 6.1383 -2.3468 0.9695
-6.7724 4.0113 -2.4998 0.9675
-7.1027 3.3927 -2.4998 0.9675
-7.3766 2.7471 -2.4999 0.9675
-7.5919 2.0797 -2.4999 0.9675
-7.7469 1.3957 -2.4999 0.9675
-7.8403 0.7006 -2.4999 0.9675
-3.6184 -0.0000 -1.2157 0.9848
-3.1483 -0.5672 -1.0748 0.9866
-3.1349 -0.8588 -1.0921 0.9864
-6.7126 -3.2063 -2.4994 0.9691
-6.4003 -3.7909 -2.4993 0.9691
-6.0372 -4.3453 -2.4992 0.9691
-5.1706 -5.3463 -2.4989 0.9691
-4.1402 -6.1776 -2.4986 0.9691
-3.5737 -6.5211 -2.4984 0.9691
-2.9789 -6.8129 -2.4983 0.9691
-2.3605 -7.0505 -2.4981 0.9691
-1.0729 -7.3562 -2.4977 0.9691
2.2018 -7.0979 -2.4969 0.9691
3.9981 -6.2629 -2.4964 0.9691
4.5394 -5.8819 -2.4963 0.9691
5.0447 -5.4542 -2.4962 0.9691
5.5099 -4.9834 -2.4961 0.9691
5.9314 -4.4730 -2.4960 0.9691
7.1189 -2.1217 -2.4958 0.9691
7.2795 -1.4796 -2.4958 0.9691
7.4265 -0.1655 -2.4958 0.9691
7.4119 0.4962 -2.4958 0.9691
7.2068 1.8025 -2.4960 0.9691
10.5302 3.6565 -3.7452 0.9541
6.0802 3.4207 -2.3439 0.9710
5.7519 3.9485 -2.3440 0.9710
5.3779 4.4450 -2.3442 0.9710
4.5051 5.3287 -2.3444 0.9710
4.0132 5.7089 -2.3446 0.9710
3.4894 6.0438 -2.3447 0.9710
2.9378 6.3308 -2.3449 0.9710
1.7690 6.7524 -2.3452 0.9710
1.1611 6.8835 -2.3454 0.9710
0.5439 6.9600 -2.3456 0.9710
-0.0778 6.9813 -2.3457 0.9710
-1.3145 6.8578 -2.3460 0.9710
-1.9198 6.7141 -2.3462 0.9710
-3.0802 6.2681 -2.3465 0.9710
-3.6261 5.9693 -2.3466 0.9710
-4.1432 5.6232 -2.3467 0.9710
-5.8385 4.6106 -2.4995 0.9691
-6.2259 4.0729 -2.4996 0.9691
-6.5639 3.5026 -2.4997 0.9691
-7.0811 2.2834 -2.4998 0.9691
-7.2563 1.6441 -2.4998 0.9691
-7.3738 0.9917 -2.4998 0.9691
-6.2250 -4.0722 -2.4992 0.9691
-4.9271 -5.5712 -2.4988 0.9691
-3.8608 -6.3557 -2.4985 0.9691
-2.6723 -6.9386 -2.4982 0.9691
-2.0440 -7.1483 -2.4980 0.9691
-1.3996 -7.3014 -2.4978 0.9691
-0.7441 -7.3965 -2.4976 0.9691
0.5791 -7.4102 -2.4973 0.9691
1.2362 -7.3287 -2.4971 0.9691
1.8835 -7.1891 -2.4969 0.9691
2.5157 -6.9925 -2.4968 0.9691
4.2730 -6.0784 -2.4964 0.9691
4.7968 -5.6737 -2.4962 0.9691
6.7728 -3.0516 -2.4958 0.9691
7.0174 -2.4367 -2.4958 0.9691
7.2064 -1.8024 -2.4958 0.9691
7.3382 -1.1538 -2.4958 0.9691
7.4118 -0.4961 -2.4958 0.9691
7.4266 0.1655 -2.4958 0.9691
7.3825 0.8259 -2.4959 0.9691
7.2799 1.4797 -2.4959 0.9691
10.6824 3.1837 -3.7451 0.9541
10.3570 4.1220 -3.7452 0.9541
5.9219 3.6882 -2.3440 0.9710
5.5704 4.2009 -2.3441 0.9710
5.1747 4.6802 -2.3442 0.9710
4.2634 5.5243 -2.3445 0.9710
3.7550 5.8821 -2.3447 0.9710
2.6530 6.4556 -2.3450 0.9710
2.0680 6.6666 -2.3451 0.9710
1.4665 6.8247 -2.3453 0.9710
0.2333 6.9776 -2.3456 0.9710
-0.3887 6.9711 -2.3458 0.9710
-1.0077 6.9094 -2.3460 0.9710
-2.7978 6.3988 -2.3464 0.9710
-3.3565 6.1248 -2.3466 0.9710
-5.2839 4.5692 -2.3470 0.9710
-6.4012 3.7915 -2.4997 0.9691
-6.7135 3.2068 -2.4997 0.9691
-7.1758 1.9657 -2.4998 0.9691
-3.4902 -0.0000 -1.2376 0.9853
-3.0930 -0.2764 -1.1011 0.9869
-3.0442 -0.5484 -1.0968 0.9870
-3.0229 -0.8281 -1.1114 0.9868
-3.0314 -1.1289 -1.1470 0.9864
-6.3602 -3.0380 -2.4993 0.9705
-6.0643 -3.5919 -2.4992 0.9705
-5.3309 -4.6098 -2.4990 0.9705
-4.8992 -5.0657 -2.4988 0.9705
-2.8226 -6.4554 -2.4982 0.9705
-1.6331 -6.8526 -2.4979 0.9705
-0.3921 -7.0326 -2.4976 0.9705
0.8609 -6.9898 -2.4972 0.9706
2.0863 -6.7256 -2.4969 0.9706
2.6765 -6.5128 -2.4968 0.9706
3.2454 -6.2484 -2.4966 0.9706
4.7802 -5.1682 -2.4963 0.9706
5.6204 -4.2385 -2.4961 0.9706
6.8978 -1.4020 -2.4959 0.9706
7.0233 0.4702 -2.4959 0.9706
6.9537 1.0934 -2.4960 0.9706
6.8290 1.7081 -2.4961 0.9706
9.9780 3.4648 -3.7453 0.9562
6.0267 2.7155 -2.3439 0.9723
5.7614 3.2413 -2.3440 0.9723
4.2688 5.0492 -2.3445 0.9723
3.3063 5.7268 -2.3448 0.9723
2.2389 6.2231 -2.3451 0.9723
1.6762 6.3981 -2.3452 0.9723
0.5153 6.5948 -2.3456 0.9723
-0.6622 6.5826 -2.3459 0.9723
-1.2455 6.4979 -2.3460 0.9723
-1.8191 6.3617 -2.3462 0.9723
-2.3782 6.1749 -2.3463 0.9723
-2.9185 5.9390 -2.3464 0.9723
-3.4357 5.6560 -2.3466 0.9723
-4.3845 4.9577 -2.3468 0.9723
-4.8086 4.5479 -2.3469 0.9723
-5.5320 4.3686 -2.4994 0.9705
-5.8990 3.8590 -2.4995 0.9705
-6.2192 3.3187 -2.4996 0.9705
-6.8753 1.5578 -2.4997 0.9705
-3.9464 0.1760 -1.4007 0.9834
-3.0191 -0.9735 -1.1248 0.9866
-6.4894 -2.7517 -2.4994 0.9705
-5.5311 -4.3679 -2.4990 0.9705
-5.1201 -4.8425 -2.4989 0.9705
-4.6685 -5.2788 -2.4988 0.9705
-3.1074 -6.3234 -2.4983 0.9705
-1.3261 -6.9183 -2.4978 0.9705
-0.7050 -7.0084 -2.4976 0.9705
-0.0785 -7.0429 -2.4975 0.9706
0.5487 -7.0214 -2.4973 0.9706
2.3838 -6.6258 -2.4968 0.9706
2.9639 -6.3869 -2.4967 0.9706
4.0489 -5.7596 -2.4964 0.9706
4.5453 -5.3762 -2.4963 0.9706
5.0056 -4.9501 -2.4962 0.9706
5.4261 -4.4848 -2.4961 0.9706
5.8035 -3.9839 -2.4961 0.9706
6.1349 -3.4514 -2.4960 0.9706
6.8285 -1.7079 -2.4959 0.9706
7.0232 -0.4701 -2.4959 0.9706
7.0372 0.1569 -2.4959 0.9706
9.8140 3.9059 -3.7454 0.9562
5.2783 3.9806 -2.3442 0.9723
4.9033 4.4348 -2.3443 0.9723
4.4894 4.8539 -2.3444 0.9723
3.0481 5.8686 -2.3448 0.9723
1.9595 6.3169 -2.3452 0.9723
0.8086 6.5651 -2.3455 0.9723
0.2210 6.6114 -2.3456 0.9723
-0.3683 6.6053 -2.3458 0.9723
-0.9548 6.5467 -2.3459 0.9723
-1.5338 6.4362 -2.3461 0.9723
-2.6510 6.0630 -2.3464 0.9723
-3.1803 5.8033 -2.3465 0.9723
-4.6011 4.7576 -2.3468 0.9723
-5.2270 4.5200 -2.4503 0.9711
-6.3610 3.0384 -2.4996 0.9705
-6.6062 2.4602 -2.4996 0.9705
-6.7991 1.8625 -2.4997 0.9705
-7.0216 0.6275 -2.4997 0.9705
-3.3741 0.0000 -1.2599 0.9857
-2.9238 -1.0888 -1.1650 0.9868
-6.0394 -2.8847 -2.4992 0.9718
-5.7584 -3.4107 -2.4991 0.9718
-5.4318 -3.9095 -2.4990 0.9718
-5.0620 -4.3772 -2.4989 0.9718
-4.2053 -5.2049 -2.4987 0.9718
-3.7251 -5.5582 -2.4985 0.9718
-3.2154 -5.8673 -2.4984 0.9718
-2.1239 -6.3437 -2.4980 0.9718
-0.9653 -6.6189 -2.4977 0.9718
-0.3724 -6.6781 -2.4976 0.9718
2.5416 -6.1846 -2.4968 0.9719
3.5975 -5.6354 -2.4966 0.9719
5.3372 -4.0250 -2.4962 0.9719
6.4059 -1.9091 -2.4960 0.9719
6.6827 -0.1489 -2.4960 0.9719
6.6695 0.4465 -2.4960 0.9719
6.6034 1.0384 -2.4961 0.9719
9.4753 3.2902 -3.7454 0.9581
9.1452 4.1206 -3.7456 0.9581
5.4711 3.0780 -2.3441 0.9736
4.4641 4.4147 -2.3444 0.9735
3.6111 5.1368 -2.3447 0.9735
3.1397 5.4382 -2.3448 0.9735
2.1260 5.9094 -2.3451 0.9735
1.5917 6.0755 -2.3452 0.9735
1.0447 6.1935 -2.3454 0.9735
-0.0700 6.2814 -2.3457 0.9735
-0.6288 6.2506 -2.3458 0.9735
-1.7273 6.0409 -2.3461 0.9735
-2.7713 5.6395 -2.3464 0.9735
-4.1634 4.7076 -2.3467 0.9735
-4.6836 4.4298 -2.4073 0.9728
-5.6014 3.6643 -2.4994 0.9718
-5.9055 3.1513 -2.4995 0.9718
-6.1626 2.6132 -2.4995 0.9718
-6.5284 1.4792 -2.4996 0.9718
-6.6342 0.8922 -2.4996 0.9718
-2.9106 -0.9386 -1.1419 0.9870
-6.1620 -2.6129 -2.4993 0.9718
-5.6007 -3.6638 -2.4991 0.9718
-4.8619 -4.5983 -2.4989 0.9718
-3.9691 -5.3869 -2.4986 0.9718
-2.9507 -6.0046 -2.4983 0.9718
-1.8391 -6.4318 -2.4980 0.9718
-1.2593 -6.5695 -2.4978 0.9718
-0.0745 -6.6879 -2.4975 0.9718
4.3163 -5.1053 -2.4964 0.9719
5.1527 -4.2588 -2.4962 0.9719
6.0944 -2.7460 -2.4960 0.9719
6.3145 -2.1926 -2.4960 0.9719
6.4845 -1.6219 -2.4960 0.9719
6.6827 0.1489 -2.4960 0.9719
6.4063 1.9093 -2.4962 0.9719
4.6562 4.2113 -2.3443 0.9735
4.2631 4.6093 -2.3445 0.9735
3.8362 4.9707 -2.3446 0.9735
2.3871 5.8087 -2.3450 0.9735
1.8607 5.9984 -2.3452 0.9735
0.2099 6.2781 -2.3456 0.9735
-0.3497 6.2723 -2.3458 0.9735
-0.9067 6.2166 -2.3459 0.9735
-1.4565 6.1116 -2.3461 0.9735
-2.5173 5.7572 -2.3463 0.9735
-3.4985 5.2202 -2.3466 0.9735
-3.9494 4.8883 -2.3467 0.9735
-6.0401 2.8851 -2.4995 0.9718
-6.5878 1.1869 -2.4996 0.9718
-4.2614 0.3808 -1.5976 0.9819
-2.8518 -0.5138 -1.1373 0.9876
-2.8313 -0.7756 -1.1521 0.9875
-5.7459 -2.7446 -2.4992 0.9730
-5.4786 -3.2450 -2.4991 0.9730
-5.1679 -3.7196 -2.4990 0.9730
-3.0592 -5.5823 -2.4983 0.9730
-2.0207 -6.0356 -2.4980 0.9730
-0.9185 -6.2975 -2.4977 0.9730
-0.3543 -6.3538 -2.4976 0.9730
0.2126 -6.3598 -2.4974 0.9730
0.7778 -6.3152 -2.4973 0.9730
1.8850 -6.0766 -2.4970 0.9730
2.9322 -5.6455 -2.4967 0.9730
3.4229 -5.3619 -2.4966 0.9730
3.8864 -5.0357 -2.4965 0.9730
4.7173 -4.2666 -2.4963 0.9730
5.3988 -3.3624 -2.4962 0.9730
5.6765 -2.8685 -2.4961 0.9730
5.9092 -2.3518 -2.4961 0.9730
6.3205 -0.7070 -2.4961 0.9730
6.3584 -0.1417 -2.4961 0.9730
6.2829 0.9880 -2.4962 0.9730
6.1702 1.5433 -2.4962 0.9730
8.7013 3.9206 -3.7457 0.9598
5.2055 2.9286 -2.3441 0.9747
4.6042 3.8055 -2.3443 0.9747
4.2474 4.2004 -2.3445 0.9747
3.4357 4.8874 -2.3447 0.9747
2.9873 5.1741 -2.3448 0.9747
2.5150 5.4198 -2.3450 0.9747
2.0228 5.6225 -2.3451 0.9747
0.9940 5.8927 -2.3454 0.9746
0.4656 5.9582 -2.3455 0.9746
-0.0666 5.9763 -2.3457 0.9746
-1.6434 5.7474 -2.3461 0.9746
-2.6367 5.3655 -2.3463 0.9746
-3.5466 4.8135 -2.3465 0.9746
-3.9611 4.4788 -2.3466 0.9746
-4.9977 3.9466 -2.4993 0.9730
-5.3292 3.4862 -2.4994 0.9730
-5.6185 2.9982 -2.4994 0.9730
-5.8632 2.4862 -2.4994 0.9730
-6.0612 1.9545 -2.4995 0.9730
-6.2112 1.4073 -2.4995 0.9730
-3.0071 -0.1341 -1.1814 0.9871
-2.8403 -0.9159 -1.1712 0.9873
-5.3285 -3.4857 -2.4990 0.9730
-4.9969 -3.9461 -2.4989 0.9730
-4.2177 -4.7690 -2.4987 0.9730
-3.7763 -5.1252 -2.4985 0.9730
-2.8074 -5.7129 -2.4983 0.9730
-2.2877 -5.9398 -2.4981 0.9730
-1.1981 -6.2505 -2.4978 0.9730
-0.6370 -6.3319 -2.4977 0.9730
0.4957 -6.3438 -2.4974 0.9730
1.0583 -6.2741 -2.4972 0.9730
2.1538 -5.9864 -2.4969 0.9730
2.6779 -5.7707 -2.4968 0.9730
4.5226 -4.4725 -2.4964 0.9730
5.5431 -3.1185 -2.4962 0.9730
6.1698 -1.5431 -2.4961 0.9730
6.2827 -0.9879 -2.4961 0.9730
6.3457 -0.4248 -2.4961 0.9730
6.2327 1.2669 -2.4962 0.9730
6.0954 1.8166 -2.4963 0.9730
8.8671 3.5291 -3.7456 0.9598
8.5181 4.3044 -3.7457 0.9598
5.0700 3.1576 -2.3442 0.9747
4.7690 3.5965 -2.3443 0.9747
4.0562 4.3855 -2.3445 0.9747
3.6500 4.7294 -2.3446 0.9747
1.7704 5.7071 -2.3452 0.9747
1.2555 5.8424 -2.3453 0.9746
0.7305 5.9313 -2.3455 0.9746
-0.3327 5.9676 -2.3457 0.9746
-0.8626 5.9147 -2.3459 0.9746
-1.3857 5.8147 -2.3460 0.9746
-3.7575 4.6508 -2.3466 0.9746
-4.8168 4.1653 -2.4993 0.9730
-5.1686 3.7201 -2.4993 0.9730
-5.4793 3.2454 -2.4994 0.9730
-5.7465 2.7449 -2.4994 0.9730
-5.9681 2.2226 -2.4995 0.9730
-6.1423 1.6825 -2.4995 0.9730
-6.2677 1.1292 -2.4995 0.9730
-4.1298 0.3690 -1.6273 0.9823
-2.8130 -0.2514 -1.1629 0.9879
-2.7831 -0.5014 -1.1645 0.9878
-2.7695 -0.7587 -1.1825 0.9877
-2.7842 -1.0369 -1.2234 0.9872
-5.2216 -3.0928 -2.4990 0.9741
-4.9254 -3.5451 -2.4989 0.9741
-3.3779 -5.0401 -2.4984 0.9741
-1.9260 -5.7525 -2.4980 0.9741
-1.4062 -5.9008 -2.4979 0.9741
-0.8754 -6.0021 -2.4977 0.9741
0.7413 -6.0191 -2.4973 0.9741
1.2741 -5.9289 -2.4972 0.9741
1.7966 -5.7917 -2.4970 0.9741
2.3049 -5.6085 -2.4969 0.9741
2.7948 -5.3809 -2.4968 0.9741
5.6322 -2.2416 -2.4962 0.9741
5.9404 -1.2074 -2.4962 0.9741
6.0604 -0.1350 -2.4962 0.9741
5.8810 1.4710 -2.4963 0.9741
8.2935 3.7369 -3.7458 0.9614
3.6761 4.3481 -2.3446 0.9757
2.3971 5.1656 -2.3450 0.9757
1.9279 5.3588 -2.3451 0.9757
0.4437 5.6788 -2.3455 0.9757
-0.5702 5.6681 -2.3458 0.9757
-1.0725 5.5952 -2.3459 0.9757
-3.3802 4.5876 -2.3465 0.9757
-4.4093 4.1704 -2.4991 0.9741
-5.5880 2.3695 -2.4994 0.9741
-5.9197 1.3412 -2.4994 0.9741
-6.0156 0.8090 -2.4994 0.9741
-2.7947 -0.3759 -1.1611 0.9879
-2.7756 -0.6289 -1.1719 0.9878
-2.8016 -1.1880 -1.2531 0.9869
-5.3543 -2.8571 -2.4991 0.9741
-4.7625 -3.7609 -2.4989 0.9741
-4.4087 -4.1697 -2.4988 0.9741
-3.5991 -4.8848 -2.4985 0.9741
-3.1499 -5.1855 -2.4984 0.9741
-1.6677 -5.8325 -2.4979 0.9741
-0.6071 -6.0350 -2.4977 0.9741
-0.0676 -6.0647 -2.4975 0.9741
0.4725 -6.0463 -2.4974 0.9741
1.0087 -5.9800 -2.4972 0.9741
1.5369 -5.8662 -2.4971 0.9741
2.5524 -5.5002 -2.4968 0.9741
3.0316 -5.2509 -2.4967 0.9741
3.4868 -4.9600 -2.4966 0.9741
3.9143 -4.6298 -2.4965 0.9741
4.9979 -3.4309 -2.4963 0.9741
5.8807 -1.4708 -2.4962 0.9741
5.9883 -0.9416 -2.4962 0.9741
6.0604 0.1351 -2.4962 0.9741
6.0244 0.6739 -2.4962 0.9741
5.9406 1.2075 -2.4963 0.9741
4.8324 3.0096 -2.3442 0.9757
4.5455 3.4279 -2.3443 0.9757
4.2225 3.8191 -2.3444 0.9757
3.8660 4.1799 -2.3446 0.9757
3.4788 4.5077 -2.3447 0.9757
3.0640 4.7997 -2.3448 0.9757
2.6248 5.0536 -2.3449 0.9757
1.1966 5.5685 -2.3453 0.9757
0.6963 5.6532 -2.3455 0.9757
0.1903 5.6930 -2.3456 0.9757
-0.8222 5.6372 -2.3459 0.9757
-1.3207 5.5420 -2.3460 0.9757
-1.8088 5.4027 -2.3461 0.9757
-4.5908 3.9698 -2.4992 0.9741
-4.9261 3.5456 -2.4993 0.9741
-5.2222 3.0932 -2.4993 0.9741
-5.6881 2.1183 -2.4994 0.9741
-5.8541 1.6036 -2.4994 0.9741
-5.9736 1.0762 -2.4994 0.9741
-3.9772 0.3554 -1.6443 0.9829
-3.0794 -0.0000 -1.3283 0.9867
-2.7278 -0.4914 -1.1956 0.9880
-2.7884 -1.6516 -1.3980 0.9860
-3.6402 -4.5054 -2.4985 0.9751
-3.2245 -4.8113 -2.4984 0.9751
-2.7834 -5.0790 -2.4983 0.9751
-1.3424 -5.6330 -2.4979 0.9751
-0.8357 -5.7298 -2.4977 0.9751
-0.3223 -5.7811 -2.4976 0.9751
0.1935 -5.7865 -2.4975 0.9751
0.7077 -5.7460 -2.4973 0.9751
1.2162 -5.6599 -2.4972 0.9751
1.7151 -5.5289 -2.4971 0.9751
2.6680 -5.1368 -2.4968 0.9751
4.6206 -3.4846 -2.4964 0.9751
4.9124 -3.0594 -2.4963 0.9751
5.1651 -2.6100 -2.4963 0.9751
5.5459 -1.6528 -2.4962 0.9751
5.6709 -1.1527 -2.4962 0.9751
5.7510 -0.6433 -2.4962 0.9751
5.7855 -0.1289 -2.4962 0.9751
5.7741 0.3866 -2.4963 0.9751
5.7169 0.8989 -2.4963 0.9751
7.9173 3.5674 -3.7459 0.9629
7.5686 4.2580 -3.7460 0.9629
4.4807 3.0758 -2.3443 0.9766
2.2883 4.9313 -2.3450 0.9766
1.8405 5.1157 -2.3451 0.9766
0.9044 5.3615 -2.3454 0.9766
0.4236 5.4210 -2.3455 0.9766
-0.5443 5.4108 -2.3458 0.9766
-1.9548 5.0756 -2.3461 0.9766
-2.3989 4.8816 -2.3462 0.9766
-3.2267 4.3793 -2.3464 0.9766
-4.5469 3.5906 -2.4992 0.9751
-5.1117 2.7277 -2.4993 0.9751
-5.3343 2.2619 -2.4993 0.9751
-5.5145 1.7782 -2.4993 0.9751
-5.6509 1.2803 -2.4993 0.9751
-3.3812 0.1507 -1.4599 0.9854
-2.8614 -0.1276 -1.2355 0.9876
-2.7402 -0.3685 -1.1926 0.9880
-2.7200 -0.6163 -1.2030 0.9879
-2.7166 -0.8760 -1.2313 0.9876
-5.1112 -2.7274 -2.4990 0.9751
-4.8480 -3.1714 -2.4989 0.9751
-4.5463 -3.5901 -2.4988 0.9751
-4.2085 -3.9804 -2.4987 0.9751
-3.4358 -4.6630 -2.4985 0.9751
-2.5543 -5.1978 -2.4982 0.9751
-2.0814 -5.4042 -2.4981 0.9751
-1.5920 -5.5677 -2.4979 0.9751
-1.0901 -5.6870 -2.4978 0.9751
-0.5796 -5.7612 -2.4977 0.9751
0.4510 -5.7720 -2.4974 0.9751
1.9597 -5.4469 -2.4970 0.9751
2.4366 -5.2506 -2.4969 0.9751
2.8941 -5.0127 -2.4968 0.9751
3.3286 -4.7350 -2.4967 0.9751
4.1151 -4.0695 -2.4965 0.9751
4.7712 -3.2752 -2.4964 0.9751
5.2762 -2.3773 -2.4963 0.9751
5.4668 -1.8983 -2.4962 0.9751
5.7167 -0.8989 -2.4962 0.9751
5.7740 -0.3865 -2.4962 0.9751
5.7855 0.1290 -2.4963 0.9751
5.7512 0.6434 -2.4963 0.9751
7.3715 4.5910 -3.7460 0.9629
4.3393 3.2724 -2.3444 0.9766
4.0310 3.6458 -2.3445 0.9766
3.6906 3.9903 -2.3446 0.9766
3.3210 4.3031 -2.3447 0.9766
2.9250 4.5819 -2.3448 0.9766
2.0665 5.0284 -2.3451 0.9766
1.1423 5.3158 -2.3453 0.9766
0.1817 5.4347 -2.3456 0.9766
-0.3028 5.4295 -2.3457 0.9766
-0.7848 5.3814 -2.3458 0.9766
-2.1790 4.9836 -2.3462 0.9766
-2.6140 4.7700 -2.3463 0.9766
-3.0283 4.5186 -2.3464 0.9766
-3.4187 4.2313 -2.3465 0.9766
-4.0275 4.1645 -2.4990 0.9751
-4.7024 3.3846 -2.4992 0.9751
-4.9851 2.9527 -2.4992 0.9751
-5.2282 2.4973 -2.4993 0.9751
-5.5882 1.5308 -2.4993 0.9751
-2.7005 -0.2413 -1.2234 0.9882
-2.6607 -0.9909 -1.2811 0.9876
-2.6666 -1.2737 -1.3334 0.9871
-2.6867 -1.5914 -1.4090 0.9864
-4.4948 -3.2351 -2.4988 0.9760
-3.8496 -3.9805 -2.4986 0.9760
-2.2180 -5.0727 -2.4981 0.9760
-1.7576 -5.2497 -2.4980 0.9760
-1.2833 -5.3850 -2.4979 0.9760
-0.7989 -5.4776 -2.4977 0.9760
1.1627 -5.4109 -2.4972 0.9760
2.5506 -4.9108 -2.4969 0.9760
2.9774 -4.6641 -2.4968 0.9760
3.3806 -4.3804 -2.4967 0.9760
4.1035 -3.7113 -2.4965 0.9760
4.4174 -3.3313 -2.4965 0.9760
5.1403 -2.0458 -2.4963 0.9760
5.4215 -1.1020 -2.4963 0.9760
5.4981 -0.6150 -2.4963 0.9760
5.4654 0.8594 -2.4964 0.9760
5.2266 1.8149 -2.4965 0.9760
7.5689 3.4104 -3.7459 0.9642
7.2356 4.0707 -3.7461 0.9642
6.8448 4.6987 -3.7462 0.9642
4.0050 3.3102 -2.3445 0.9775
3.3549 3.9682 -2.3447 0.9775
2.5984 4.5006 -2.3449 0.9775
2.1877 4.7143 -2.3450 0.9775
1.3173 5.0280 -2.3453 0.9774
0.8646 5.1255 -2.3454 0.9774
0.4050 5.1824 -2.3455 0.9774
-0.0579 5.1982 -2.3456 0.9774
-2.6996 4.4442 -2.3463 0.9774
-3.0846 4.1865 -2.3464 0.9774
-4.0238 3.8057 -2.4990 0.9760
-4.3467 3.4326 -2.4991 0.9760
-4.6350 3.0321 -2.4992 0.9760
-4.8866 2.6076 -2.4992 0.9760
-5.0994 2.1623 -2.4992 0.9760
-5.2716 1.6999 -2.4993 0.9760
-3.2609 0.1454 -1.4728 0.9858
-2.7833 -0.1241 -1.2571 0.9878
-2.6870 -0.3614 -1.2234 0.9882
-2.6574 -0.8569 -1.2599 0.9878
-2.6675 -1.1311 -1.3074 0.9874
-4.8861 -2.6073 -2.4990 0.9760
-3.6684 -4.1479 -2.4986 0.9760
-3.2845 -4.4578 -2.4984 0.9760
-2.4418 -4.9690 -2.4982 0.9760
-1.9898 -5.1663 -2.4981 0.9760
-1.0421 -5.4367 -2.4978 0.9760
-0.5541 -5.5076 -2.4977 0.9760
-0.0617 -5.5347 -2.4975 0.9760
3.1822 -4.5267 -2.4967 0.9760
3.5723 -4.2253 -2.4966 0.9760
4.2646 -3.5248 -2.4965 0.9760
4.5614 -3.1312 -2.4964 0.9760
5.0441 -2.2727 -2.4963 0.9760
5.5200 -0.3695 -2.4963 0.9760
5.5310 0.1233 -2.4963 0.9760
5.4982 0.6151 -2.4964 0.9760
5.4217 1.1020 -2.4964 0.9760
5.3022 1.5803 -2.4964 0.9760
5.1407 2.0460 -2.4965 0.9760
7.4097 3.7443 -3.7460 0.9642
7.0472 4.3891 -3.7461 0.9642
3.8536 3.4854 -2.3445 0.9775
2.7963 4.3803 -2.3448 0.9775
2.3954 4.6120 -2.3450 0.9775
1.9755 4.8072 -2.3451 0.9775
1.5399 4.9642 -2.3452 0.9774
1.0920 5.0818 -2.3453 0.9774
0.6354 5.1591 -2.3455 0.9774
-0.2894 5.1905 -2.3457 0.9774
-2.0831 4.7641 -2.3462 0.9774
-2.4989 4.5600 -2.3463 0.9774
-2.8950 4.3197 -2.3463 0.9774
-3.3857 4.1905 -2.4309 0.9766
-3.8502 3.9811 -2.4990 0.9760
-4.1894 3.6227 -2.4991 0.9760
-4.7655 2.8227 -2.4992 0.9760
-5.1907 1.9330 -2.4992 0.9760
-3.7667 0.3366 -1.7064 0.9835
-2.9112 -0.0000 -1.3723 0.9872
-2.6023 -0.9691 -1.3090 0.9878
-2.6052 -1.2444 -1.3609 0.9873
-4.3025 -3.0967 -2.4988 0.9768
-4.0096 -3.4672 -2.4987 0.9768
-3.6849 -3.8102 -2.4986 0.9768
-3.3310 -4.1229 -2.4985 0.9768
-2.9507 -4.4028 -2.4984 0.9768
-2.5470 -4.6477 -2.4982 0.9768
-2.1231 -4.8557 -2.4981 0.9768
-1.6824 -5.0252 -2.4980 0.9768
-1.2284 -5.1547 -2.4979 0.9768
-0.7647 -5.2434 -2.4977 0.9768
-0.2950 -5.2903 -2.4976 0.9768
0.1770 -5.2953 -2.4975 0.9768
0.6476 -5.2583 -2.4974 0.9768
1.1130 -5.1795 -2.4972 0.9768
1.5695 -5.0596 -2.4971 0.9768
2.4416 -4.7008 -2.4969 0.9768
3.2361 -4.1931 -2.4967 0.9768
3.5964 -3.8883 -2.4966 0.9769
3.9280 -3.5527 -2.4966 0.9769
4.2286 -3.1889 -2.4965 0.9769
4.9206 -1.9583 -2.4964 0.9769
5.0753 -1.5126 -2.4964 0.9769
5.1898 -1.0548 -2.4964 0.9769
5.2631 -0.5887 -2.4964 0.9769
5.2842 0.3538 -2.4964 0.9769
5.1379 1.2851 -2.4965 0.9769
4.8289 2.1758 -2.4966 0.9769
6.9263 3.8967 -3.7461 0.9655
4.1392 2.8414 -2.3666 0.9780
3.2115 3.7985 -2.3447 0.9782
2.8608 4.0695 -2.3448 0.9782
1.6842 4.6814 -2.3452 0.9782
1.2609 4.8130 -2.3453 0.9782
-1.3682 4.7851 -2.3460 0.9782
-2.1952 4.4671 -2.3462 0.9782
-2.5841 4.2541 -2.3463 0.9782
-3.0437 4.1310 -2.4187 0.9776
-3.5120 3.9711 -2.4989 0.9768
-3.8516 3.6429 -2.4990 0.9768
-4.1607 3.2856 -2.4990 0.9768
-5.1709 1.1716 -2.4992 0.9768
-5.2546 0.7067 -2.4992 0.9768
-3.1522 0.1405 -1.4874 0.9861
-2.5994 -0.8382 -1.2874 0.9880
-2.6038 -1.1041 -1.3332 0.9876
-4.4362 -2.9021 -2.4988 0.9768
-4.1602 -3.2852 -2.4987 0.9768
-2.7516 -4.5297 -2.4983 0.9768
-1.9047 -4.9454 -2.4981 0.9768
-1.4569 -5.0950 -2.4979 0.9768
-0.5304 -5.2721 -2.4977 0.9768
0.4128 -5.2820 -2.4974 0.9768
1.3426 -5.1247 -2.4972 0.9768
1.7933 -4.9846 -2.4971 0.9768
2.2298 -4.8050 -2.4970 0.9768
2.6485 -4.5873 -2.4969 0.9768
3.0462 -4.3332 -2.4968 0.9768
3.4196 -4.0447 -2.4967 0.9769
4.0824 -3.3741 -2.4965 0.9769
4.6157 -2.5968 -2.4964 0.9769
5.0029 -1.7371 -2.4964 0.9769
5.1376 -1.2850 -2.4964 0.9769
5.2316 -0.8226 -2.4964 0.9769
5.2946 0.1180 -2.4964 0.9769
5.1900 1.0549 -2.4965 0.9769
4.9209 1.9585 -2.4966 0.9769
7.0929 3.5842 -3.7461 0.9655
6.7459 4.2014 -3.7462 0.9655
3.9710 2.9947 -2.3445 0.9782
3.3774 3.6516 -2.3447 0.9782
1.8910 4.6016 -2.3451 0.9782
1.0453 4.8645 -2.3453 0.9782
0.6082 4.9385 -2.3455 0.9782
0.1663 4.9732 -2.3456 0.9782
-0.2770 4.9686 -2.3457 0.9782
-0.7182 4.9244 -2.3458 0.9782
-1.5801 4.7195 -2.3460 0.9782
-2.3920 4.3649 -2.3462 0.9782
-2.7711 4.1349 -2.3463 0.9782
-3.6855 3.8107 -2.4989 0.9768
-4.3029 3.0971 -2.4991 0.9768
-5.2179 0.9400 -2.4992 0.9768
-2.5903 -0.2315 -1.2791 0.9885
-2.5698 -0.4630 -1.2843 0.9884
-2.5499 -0.6985 -1.3004 0.9883
-2.5453 -0.9479 -1.3359 0.9880
-2.5457 -1.2160 -1.3876 0.9875
-4.3712 -2.5890 -2.4988 0.9776
-3.5315 -3.6515 -2.4985 0.9776
-2.8278 -4.2194 -2.4983 0.9776
-2.0347 -4.6535 -2.4981 0.9776
-1.6124 -4.8160 -2.4980 0.9776
0.1697 -5.0749 -2.4975 0.9776
0.6207 -5.0394 -2.4974 0.9776
1.5042 -4.8491 -2.4972 0.9776
3.1014 -4.0186 -2.4968 0.9776
3.4467 -3.7265 -2.4967 0.9776
4.5301 -2.2891 -2.4965 0.9776
4.8641 -1.4496 -2.4964 0.9776
4.9738 -1.0109 -2.4964 0.9776
5.0441 -0.5643 -2.4964 0.9776
5.0141 0.7885 -2.4965 0.9776
4.9241 1.2316 -2.4965 0.9776
4.6279 2.0853 -2.4967 0.9776
3.6742 3.0368 -2.3445 0.9790
3.3895 3.3519 -2.3446 0.9790
3.0778 3.6405 -2.3447 0.9790
2.7417 3.9001 -2.3448 0.9790
1.6141 4.4865 -2.3452 0.9790
1.2084 4.6126 -2.3453 0.9790
0.7931 4.7021 -2.3454 0.9790
0.3715 4.7542 -2.3455 0.9790
-0.0531 4.7687 -2.3456 0.9790
-0.4774 4.7452 -2.3457 0.9790
-0.8979 4.6841 -2.3458 0.9790
-1.3113 4.5858 -2.3459 0.9790
-2.1037 4.2810 -2.3461 0.9790
-2.4766 4.0770 -2.3462 0.9790
-3.0135 4.0900 -2.4988 0.9776
-3.9874 3.1488 -2.4990 0.9776
-4.9555 1.1228 -2.4991 0.9776
-5.0357 0.6773 -2.4991 0.9776
-2.6467 -0.1180 -1.3031 0.9883
-2.5616 -0.5804 -1.2919 0.9884
-2.5441 -1.0788 -1.3592 0.9878
-3.9869 -3.1484 -2.4987 0.9776
-3.6907 -3.4906 -2.4986 0.9776
-3.3652 -3.8051 -2.4985 0.9776
-3.0131 -4.0893 -2.4984 0.9776
-2.2401 -4.5584 -2.4982 0.9776
-1.3962 -4.8829 -2.4979 0.9776
-0.9560 -4.9875 -2.4978 0.9776
-0.5083 -5.0526 -2.4977 0.9776
-0.0566 -5.0775 -2.4976 0.9776
0.3956 -5.0622 -2.4974 0.9776
1.2867 -4.9113 -2.4972 0.9776
1.7187 -4.7771 -2.4971 0.9776
2.9194 -4.1529 -2.4968 0.9776
3.2773 -3.8764 -2.4967 0.9776
3.9125 -3.2337 -2.4966 0.9776
4.9238 -1.2315 -2.4964 0.9776
5.0139 -0.7884 -2.4964 0.9776
5.0642 -0.3390 -2.4964 0.9776
4.9740 1.0111 -2.4965 0.9776
4.8644 1.4497 -2.4966 0.9776
6.4652 4.0265 -3.7463 0.9666
3.2368 3.4997 -2.3447 0.9790
2.5653 4.0185 -2.3449 0.9790
2.1975 4.2310 -2.3450 0.9790
1.8123 4.4100 -2.3451 0.9790
1.0018 4.6619 -2.3453 0.9790
0.5829 4.7328 -2.3454 0.9790
-0.2655 4.7617 -2.3457 0.9790
-0.6883 4.7194 -2.3458 0.9790
-1.5143 4.5230 -2.3460 0.9790
-3.5319 3.6521 -2.4989 0.9776
-3.8431 3.3233 -2.4990 0.9776
-4.1237 2.9681 -2.4990 0.9776
-4.3716 2.5894 -2.4991 0.9776
-4.5848 2.1900 -2.4991 0.9776
-4.9005 1.3424 -2.4991 0.9776
-3.6335 0.3247 -1.7943 0.9839
-2.5372 -0.2267 -1.3059 0.9886
-2.5199 -0.4540 -1.3127 0.9886
-2.4994 -0.6847 -1.3286 0.9884
-2.4895 -0.9271 -1.3619 0.9881
-2.4879 -1.1884 -1.4135 0.9877
-3.9558 -2.8472 -2.4987 0.9783
-3.0627 -3.7907 -2.4984 0.9783
-2.7130 -4.0481 -2.4983 0.9783
-2.3418 -4.2733 -2.4982 0.9783
-1.9521 -4.4646 -2.4981 0.9783
-1.5469 -4.6204 -2.4980 0.9783
-1.1295 -4.7395 -2.4979 0.9783
-0.7031 -4.8210 -2.4977 0.9783
-0.2712 -4.8642 -2.4976 0.9783
0.1628 -4.8688 -2.4975 0.9783
2.2450 -4.3223 -2.4970 0.9783
2.6207 -4.1052 -2.4969 0.9783
2.9756 -3.8555 -2.4968 0.9783
3.6118 -3.2667 -2.4967 0.9783
4.3463 -2.1962 -2.4965 0.9783
4.5244 -1.8007 -2.4965 0.9783
4.7720 -0.9699 -2.4965 0.9783
4.8587 0.3253 -2.4965 0.9783
4.6004 1.5974 -2.4966 0.9783
3.2519 3.2159 -2.3447 0.9797
2.9529 3.4927 -2.3448 0.9797
2.6304 3.7418 -2.3449 0.9797
1.9255 4.1492 -2.3451 0.9796
1.5486 4.3043 -2.3452 0.9796
1.1594 4.4253 -2.3453 0.9796
0.7609 4.5111 -2.3454 0.9796
0.3564 4.5612 -2.3455 0.9796
-0.0510 4.5750 -2.3456 0.9796
-0.4580 4.5525 -2.3457 0.9796
-1.2580 4.3996 -2.3459 0.9796
-2.0183 4.1072 -2.3461 0.9796
-2.8911 3.9239 -2.4987 0.9783
-3.2290 3.6511 -2.4988 0.9783
-4.3006 2.2949 -2.4990 0.9783
-4.6394 1.4960 -2.4991 0.9783
-4.7542 1.0772 -2.4991 0.9783
-4.8312 0.6497 -2.4991 0.9783
-2.5350 -0.3409 -1.3113 0.9886
-2.5113 -0.5690 -1.3201 0.9885
-2.4879 -1.0550 -1.3854 0.9879
-3.5408 -3.3488 -2.4986 0.9783
-1.7512 -4.5470 -2.4980 0.9783
-1.3395 -4.6846 -2.4979 0.9783
-0.9172 -4.7850 -2.4978 0.9783
-0.4877 -4.8474 -2.4977 0.9783
-0.0543 -4.8713 -2.4976 0.9783
0.3795 -4.8566 -2.4975 0.9783
0.8102 -4.8034 -2.4973 0.9783
1.2345 -4.7120 -2.4972 0.9783
1.6489 -4.5832 -2.4971 0.9783
2.4352 -4.2179 -2.4969 0.9783
3.1443 -3.7191 -2.4968 0.9783
3.7537 -3.1025 -2.4966 0.9783
4.0149 -2.7560 -2.4966 0.9783
4.2441 -2.3877 -2.4965 0.9783
4.4398 -2.0004 -2.4965 0.9783
4.6001 -1.5973 -2.4965 0.9783
4.8587 -0.3252 -2.4965 0.9783
4.8684 0.1086 -2.4965 0.9783
4.8395 0.5414 -2.4965 0.9783
4.6670 1.3909 -2.4966 0.9783
4.5247 1.8008 -2.4967 0.9783
4.3466 2.1965 -2.4967 0.9783
6.2028 3.8631 -3.7463 0.9677
3.3918 3.0678 -2.3446 0.9797
3.1055 3.3576 -2.3447 0.9797
2.7944 3.6208 -2.3448 0.9797
2.4611 3.8553 -2.3449 0.9796
2.1083 4.0593 -2.3450 0.9796
1.7387 4.2310 -2.3451 0.9796
0.9611 4.4727 -2.3453 0.9796
0.5592 4.5407 -2.3454 0.9796
0.1529 4.5726 -2.3456 0.9796
-0.6603 4.5277 -2.3458 0.9796
-1.0607 4.4512 -2.3459 0.9796
-2.7134 4.0487 -2.4987 0.9783
-3.0631 3.7912 -2.4988 0.9783
-3.6870 3.1883 -2.4989 0.9783
-3.9562 2.8475 -2.4990 0.9783
-4.1940 2.4842 -2.4990 0.9783
-4.5681 1.7012 -2.4991 0.9783
-4.7014 1.2879 -2.4991 0.9783
-2.4853 -0.2221 -1.3321 0.9887
-2.4292 -1.1604 -1.4371 0.9879
-2.3944 -1.4182 -1.4856 0.9875
-3.5403 -3.0614 -2.4986 0.9790
-2.9412 -3.6403 -2.4984 0.9790
-1.8747 -4.2875 -2.4981 0.9790
-1.4856 -4.4371 -2.4980 0.9790
0.1563 -4.6757 -2.4975 0.9790
0.9828 -4.5736 -2.4973 0.9790
1.3859 -4.4677 -2.4972 0.9790
2.1559 -4.1509 -2.4970 0.9790
3.1757 -3.4335 -2.4968 0.9790
3.7340 -2.8159 -2.4967 0.9790
3.9697 -2.4723 -2.4966 0.9790
4.6475 -0.5199 -2.4965 0.9790
4.6661 0.3124 -2.4966 0.9790
4.6199 0.7265 -2.4966 0.9790
4.5370 1.1348 -2.4966 0.9790
4.0762 2.2933 -2.4968 0.9790
3.1228 3.0884 -2.3447 0.9803
2.5261 3.5934 -2.3449 0.9803
2.1963 3.8042 -2.3450 0.9803
0.7307 4.3322 -2.3454 0.9803
-0.0489 4.3935 -2.3456 0.9803
-0.8272 4.3156 -2.3458 0.9803
-1.2081 4.2250 -2.3459 0.9803
-1.5794 4.1009 -2.3460 0.9803
-1.9425 3.9528 -2.3512 0.9802
-2.4299 4.0003 -2.4986 0.9790
-3.1009 3.5062 -2.4988 0.9790
-3.9173 2.5626 -2.4989 0.9790
-4.3097 1.8275 -2.4990 0.9790
-4.4553 1.4367 -2.4990 0.9790
-2.8952 0.1291 -1.5471 0.9869
-2.4322 -1.5911 -1.5515 0.9869
-3.6732 -2.9007 -2.4986 0.9790
-3.4003 -3.2160 -2.4985 0.9790
-3.1005 -3.5058 -2.4984 0.9790
-2.7760 -3.7677 -2.4983 0.9790
-2.4296 -3.9996 -2.4982 0.9790
-2.0638 -4.1998 -2.4981 0.9790
-1.6818 -4.3666 -2.4980 0.9790
-1.2864 -4.4988 -2.4979 0.9790
-0.8808 -4.5952 -2.4978 0.9790
-0.4683 -4.6552 -2.4977 0.9790
-0.0521 -4.6782 -2.4976 0.9790
0.3645 -4.6640 -2.4975 0.9790
1.1855 -4.5251 -2.4973 0.9790
1.5835 -4.4015 -2.4972 0.9790
3.0196 -3.5716 -2.4968 0.9790
3.3255 -3.2886 -2.4967 0.9790
4.0759 -2.2930 -2.4966 0.9790
4.5368 -1.1347 -2.4965 0.9790
4.6198 -0.7264 -2.4965 0.9790
4.6476 0.5200 -2.4966 0.9790
4.5830 0.9316 -2.4966 0.9790
4.3454 1.7294 -2.4967 0.9790
4.1743 2.1094 -2.4968 0.9790
3.3057 2.9898 -2.3794 0.9800
2.3635 3.7025 -2.3449 0.9803
2.0247 3.8983 -2.3450 0.9803
1.3016 4.1959 -2.3452 0.9803
0.1468 4.3913 -2.3455 0.9803
-3.2540 3.3646 -2.4988 0.9790
-3.5407 3.0618 -2.4989 0.9790
-3.7992 2.7346 -2.4989 0.9790
-4.2240 2.0176 -2.4990 0.9790
-4.5149 1.2368 -2.4990 0.9790
-4.6071 0.8300 -2.4990 0.9790
-2.5976 0.0000 -1.4427 0.9882
-2.4018 -0.6579 -1.3831 0.9887
-3.6514 -2.6281 -2.4986 0.9796
-3.4028 -2.9425 -2.4985 0.9796
-3.1273 -3.2336 -2.4985 0.9796
-2.5042 -3.7366 -2.4983 0.9796
-2.1617 -3.9445 -2.4982 0.9796
-0.6490 -4.4501 -2.4977 0.9796
-0.2504 -4.4901 -2.4976 0.9796
0.1503 -4.4943 -2.4975 0.9796
0.5497 -4.4629 -2.4974 0.9796
1.3321 -4.2944 -2.4972 0.9796
1.7090 -4.1587 -2.4971 0.9796
2.4191 -3.7895 -2.4970 0.9796
