ply
format ascii 1.0
element vertex 1590
property float32 x
property float32 y
property float32 z
property float32 I
end_header
9.5050 -8.5967 -2.4801 0.9491
10.8722 -6.7713 -2.4787 0.9492
12.5448 -2.5498 -2.4773 0.9492
12.7988 -0.2852 -2.4774 0.9492
12.7747 0.8552 -2.4777 0.9492
11.8771 1.8676 -2.3267 0.9522
11.6661 2.9179 -2.3272 0.9522
11.3631 3.9457 -2.3278 0.9522
10.4905 5.9018 -2.3293 0.9521
9.9275 6.8149 -2.3302 0.9521
9.2856 7.6748 -2.3313 0.9521
8.5697 8.4748 -2.3324 0.9521
7.7854 9.2086 -2.3336 0.9521
6.9386 9.8703 -2.3348 0.9520
6.0360 10.4546 -2.3361 0.9520
5.0845 10.9567 -2.3375 0.9520
3.0649 11.6988 -2.3403 0.9519
2.0128 11.9325 -2.3418 0.9519
0.9433 12.0717 -2.3432 0.9519
-2.2836 11.9136 -2.3475 0.9518
-3.3369 11.6698 -2.3488 0.9518
-5.3588 10.9050 -2.3513 0.9517
-6.3113 10.3898 -2.3525 0.9517
-9.5556 7.5460 -2.3562 0.9516
-10.7476 5.7352 -2.3575 0.9516
-11.9474 5.0662 -2.5113 0.9485
-12.6589 2.8682 -2.5118 0.9485
-12.8642 1.7300 -2.5119 0.9485
-12.9654 -0.5781 -2.5115 0.9485
-12.8606 -1.7296 -2.5112 0.9485
-11.9377 -5.0620 -2.5093 0.9485
-11.4358 -6.1023 -2.5084 0.9486
-10.1642 -8.0266 -2.5063 0.9486
-6.7100 -11.0462 -2.5011 0.9487
-5.6969 -11.5929 -2.4997 0.9487
-3.5469 -12.4043 -2.4967 0.9488
-1.2898 -12.8208 -2.4936 0.9489
-0.1435 -12.8768 -2.4921 0.9489
1.0026 -12.8307 -2.4905 0.9489
3.2578 -12.4351 -2.4876 0.9490
4.3493 -12.0891 -2.4862 0.9490
5.4052 -11.6478 -2.4849 0.9490
8.2790 -9.7923 -2.4815 0.9491
11.1618 -6.2795 -2.4784 0.9492
12.0944 -4.1996 -2.4776 0.9492
12.4191 -3.1062 -2.4773 0.9492
12.6459 -1.9885 -2.4773 0.9492
12.7730 -0.8550 -2.4773 0.9492
11.5260 3.4351 -2.3274 0.9522
10.2191 6.3646 -2.3298 0.9521
8.1858 8.8504 -2.3330 0.9521
7.3694 9.5488 -2.3342 0.9520
0.4047 12.1055 -2.3439 0.9518
-2.8129 11.8035 -2.3481 0.9518
-4.8665 11.1300 -2.3507 0.9517
-6.7694 10.1007 -2.3531 0.9517
-11.7089 5.5929 -2.5111 0.9485
-12.7743 2.3014 -2.5119 0.9485
-11.9070 0.0000 -2.5102 0.9525
-11.7152 -2.1106 -2.5096 0.9525
-11.1502 -4.1524 -2.5084 0.9525
-10.7332 -5.1268 -2.5077 0.9525
-10.2308 -6.0597 -2.5068 0.9526
-9.6472 -6.9436 -2.5058 0.9526
-7.4599 -9.2332 -2.5025 0.9526
-3.7606 -11.2323 -2.4972 0.9527
-1.7075 -11.7079 -2.4944 0.9528
2.4802 -11.5421 -2.4888 0.9529
5.4334 -10.4611 -2.4851 0.9530
7.9943 -8.6434 -2.4821 0.9530
9.3943 -7.0846 -2.4806 0.9530
11.2682 -3.3583 -2.4788 0.9531
11.5218 -2.3419 -2.4787 0.9531
11.6845 -1.3071 -2.4787 0.9531
10.7143 2.6798 -2.3284 0.9559
9.6338 5.4199 -2.3304 0.9558
8.5268 7.0476 -2.3321 0.9558
3.7562 10.4404 -2.3392 0.9557
2.8136 10.7393 -2.3405 0.9556
1.8476 10.9533 -2.3418 0.9556
-0.1239 11.1199 -2.3444 0.9556
-5.7912 9.5337 -2.3516 0.9554
-6.6140 7.4786 -2.1048 0.9600
-8.1135 7.6737 -2.3543 0.9554
-9.3508 6.1170 -2.3557 0.9553
-10.9608 4.6478 -2.5099 0.9525
-11.3323 3.6542 -2.5102 0.9525
-11.8016 1.5871 -2.5104 0.9525
-11.7986 -1.5868 -2.5098 0.9525
-11.6084 -2.6301 -2.5093 0.9525
-11.3256 -3.6520 -2.5087 0.9525
-10.9526 -4.6443 -2.5080 0.9525
-10.4924 -5.5989 -2.5072 0.9525
-9.9489 -6.5082 -2.5063 0.9526
-9.3264 -7.3650 -2.5053 0.9526
-8.6301 -8.1623 -2.5043 0.9526
-5.2285 -10.6396 -2.4992 0.9527
-4.2584 -11.0567 -2.4979 0.9527
-2.2280 -11.6235 -2.4951 0.9528
-0.1317 -11.8210 -2.4922 0.9528
3.9934 -11.0999 -2.4869 0.9529
4.9631 -10.6952 -2.4857 0.9529
6.7748 -9.6373 -2.4835 0.9530
8.3700 -8.2772 -2.4817 0.9530
9.0707 -7.4971 -2.4809 0.9530
10.2512 -5.7672 -2.4797 0.9531
10.7219 -4.8311 -2.4793 0.9531
11.1079 -3.8571 -2.4789 0.9531
11.7313 -0.7853 -2.4787 0.9531
11.7555 0.2620 -2.4789 0.9531
10.5855 3.1548 -2.3286 0.9559
10.2654 4.0855 -2.3292 0.9558
9.8640 4.9845 -2.3300 0.9558
8.8304 6.6594 -2.3317 0.9558
8.2061 7.4220 -2.3326 0.9558
7.5164 8.1266 -2.3337 0.9558
6.7665 8.7676 -2.3348 0.9557
4.2164 10.2599 -2.3385 0.9557
0.3715 11.1112 -2.3438 0.9556
-0.6193 11.1064 -2.3451 0.9555
-4.4657 10.2134 -2.3500 0.9555
-9.0679 6.5267 -2.3554 0.9554
-9.6151 5.6951 -2.3559 0.9553
-11.1577 4.1552 -2.5101 0.9525
-11.4843 3.1459 -2.5103 0.9525
-11.7192 2.1113 -2.5104 0.9525
-10.9928 0.0000 -2.5090 0.9559
-10.8159 -1.9486 -2.5084 0.9559
-10.5975 -2.9029 -2.5079 0.9559
-10.2947 -3.8338 -2.5073 0.9559
-9.9098 -4.7335 -2.5066 0.9559
-8.9076 -6.4113 -2.5050 0.9560
-6.8887 -8.5263 -2.5019 0.9560
-4.3850 -10.0288 -2.4982 0.9561
-1.5772 -10.8141 -2.4944 0.9562
-0.6081 -10.9059 -2.4931 0.9562
0.3648 -10.9111 -2.4918 0.9562
2.2913 -10.6628 -2.4893 0.9562
3.2297 -10.4115 -2.4881 0.9563
5.0200 -9.6653 -2.4858 0.9563
5.8580 -9.1764 -2.4848 0.9563
6.6490 -8.6153 -2.4839 0.9563
7.3869 -7.9866 -2.4830 0.9563
8.0659 -7.2952 -2.4823 0.9564
8.6809 -6.5465 -2.4816 0.9564
9.2270 -5.7466 -2.4811 0.9564
10.0964 -4.0183 -2.4802 0.9564
10.6474 -2.1642 -2.4799 0.9564
10.7977 -1.2079 -2.4799 0.9564
10.8628 -0.2421 -2.4800 0.9564
9.9008 2.4763 -2.3294 0.9590
9.3094 4.1946 -2.3305 0.9590
8.9018 5.0081 -2.3312 0.9590
8.4236 5.7825 -2.3320 0.9589
7.8784 6.5117 -2.3329 0.9589
7.2705 7.1900 -2.3338 0.9589
3.4697 9.6443 -2.3394 0.9588
2.5989 9.9200 -2.3406 0.9588
0.7997 10.2344 -2.3430 0.9588
-1.0286 10.2246 -2.3455 0.9587
-2.8279 9.8899 -2.3478 0.9587
-3.6987 9.6035 -2.3489 0.9587
-4.5408 9.2403 -2.3499 0.9586
-5.3474 8.8031 -2.3509 0.9586
-6.1121 8.2954 -2.3518 0.9586
-6.5934 7.4553 -2.2716 0.9600
-7.4911 7.0851 -2.3534 0.9586
-8.0943 6.3920 -2.3541 0.9586
-10.1193 4.2910 -2.5087 0.9559
-10.7216 2.4292 -2.5092 0.9559
-10.8954 1.4653 -2.5092 0.9559
-10.9822 0.4897 -2.5091 0.9559
-10.8928 -1.4650 -2.5086 0.9559
-10.7174 -2.4282 -2.5082 0.9559
-10.1123 -4.2880 -2.5070 0.9559
-9.1860 -6.0092 -2.5054 0.9560
-8.6116 -6.8005 -2.5045 0.9560
-6.5006 -8.8227 -2.5013 0.9560
-5.6868 -9.3618 -2.5001 0.9561
-3.0069 -10.5157 -2.4963 0.9561
-2.0579 -10.7359 -2.4950 0.9561
1.8145 -10.7569 -2.4899 0.9562
2.7633 -10.5476 -2.4887 0.9563
3.6894 -10.2549 -2.4875 0.9563
6.2597 -8.9046 -2.4844 0.9563
7.0249 -8.3091 -2.4835 0.9563
7.7341 -7.6484 -2.4827 0.9564
8.9628 -6.1526 -2.4813 0.9564
9.9080 -4.4643 -2.4804 0.9564
10.8633 0.2421 -2.4801 0.9564
9.7817 2.9153 -2.3297 0.9590
8.1591 6.1530 -2.3325 0.9589
7.5820 6.8575 -2.3334 0.9589
6.9445 7.5083 -2.3343 0.9589
5.5082 8.6285 -2.3365 0.9589
4.7207 9.0889 -2.3376 0.9589
3.8949 9.4778 -2.3388 0.9588
3.0375 9.7919 -2.3400 0.9588
2.1550 10.0286 -2.3412 0.9588
1.2545 10.1859 -2.3424 0.9588
-1.4834 10.1711 -2.3461 0.9587
-2.3840 10.0037 -2.3472 0.9587
-4.9490 9.0307 -2.3504 0.9586
-8.3721 6.0259 -2.3544 0.9586
-8.8771 5.2579 -2.3549 0.9586
-10.3010 3.8361 -2.5089 0.9559
-10.8193 1.9492 -2.5092 0.9559
-10.1619 -0.9080 -2.5077 0.9588
-10.0394 -1.8087 -2.5074 0.9589
-9.8368 -2.6946 -2.5070 0.9589
-8.7687 -5.1937 -2.5050 0.9589
-8.2689 -5.9516 -2.5042 0.9589
-7.7036 -6.6616 -2.5033 0.9589
-4.0714 -9.3114 -2.4980 0.9590
-3.2249 -9.6323 -2.4968 0.9590
-2.3536 -9.8763 -2.4956 0.9590
-1.4645 -10.0417 -2.4944 0.9591
-0.5647 -10.1273 -2.4932 0.9591
2.1279 -9.9027 -2.4896 0.9591
2.9995 -9.6697 -2.4885 0.9592
3.8467 -9.3603 -2.4875 0.9592
5.4411 -8.5233 -2.4855 0.9592
6.8615 -7.4186 -2.4839 0.9592
8.0638 -6.0812 -2.4825 0.9593
8.5712 -5.3382 -2.4820 0.9593
10.0307 -1.1221 -2.4809 0.9593
9.1972 2.3004 -2.3303 0.9617
7.8243 5.3711 -2.3327 0.9617
6.7529 6.6781 -2.3344 0.9616
6.1342 7.2555 -2.3354 0.9616
2.4134 9.2119 -2.3407 0.9615
1.5847 9.3947 -2.3418 0.9615
-0.9550 9.4933 -2.3452 0.9615
-2.6255 9.1819 -2.3474 0.9614
-6.3388 7.1674 -2.3519 0.9614
-7.5134 5.9333 -2.3532 0.9613
-8.0135 5.2421 -2.3537 0.9613
-9.7109 3.1314 -2.5080 0.9588
-9.9516 2.2547 -2.5081 0.9588
-10.1928 -0.4545 -2.5079 0.9588
-10.1107 -1.3597 -2.5076 0.9588
-9.9480 -2.2539 -2.5072 0.9589
-9.3867 -3.9803 -2.5061 0.9589
-8.9927 -4.7986 -2.5054 0.9589
-8.5272 -5.5783 -2.5046 0.9589
-7.3978 -6.9968 -2.5029 0.9589
-6.7430 -7.6245 -2.5019 0.9589
-6.0351 -8.1909 -2.5008 0.9590
-5.2798 -8.6917 -2.4997 0.9590
-3.6517 -9.4813 -2.4974 0.9590
-2.7920 -9.7640 -2.4962 0.9590
-1.9109 -9.9689 -2.4950 0.9591
2.5664 -9.7958 -2.4891 0.9591
3.4266 -9.5244 -2.4880 0.9592
6.5252 -7.7180 -2.4842 0.9592
7.7858 -6.4351 -2.4828 0.9592
8.7997 -4.9506 -2.4818 0.9593
9.2040 -4.1471 -2.4814 0.9593
9.5356 -3.3111 -2.4811 0.9593
9.7918 -2.4491 -2.4810 0.9593
10.0708 -0.6742 -2.4810 0.9593
10.0915 0.2249 -2.4811 0.9593
9.0865 2.7080 -2.3305 0.9617
8.8113 3.5069 -2.3311 0.9617
8.4665 4.2783 -2.3317 0.9617
8.0545 5.0164 -2.3324 0.9617
7.5785 5.7153 -2.3331 0.9617
7.0423 6.3694 -2.3340 0.9616
6.4500 6.9737 -2.3349 0.9616
5.8061 7.5232 -2.3359 0.9616
4.3841 8.4409 -2.3379 0.9616
2.8207 9.0930 -2.3401 0.9615
2.0011 9.3125 -2.3413 0.9615
1.1649 9.4583 -2.3424 0.9615
-1.3773 9.4435 -2.3458 0.9615
-2.2134 9.2877 -2.3468 0.9614
-4.5943 8.3836 -2.3498 0.9614
-6.6528 6.8790 -2.3522 0.9613
-7.2407 6.2613 -2.3529 0.9613
-9.5613 3.5607 -2.5078 0.9588
-9.8411 2.6957 -2.5080 0.9588
-10.0423 1.8092 -2.5081 0.9588
-10.1634 0.9082 -2.5081 0.9588
-9.5145 0.0000 -2.5071 0.9614
-9.4759 -0.8468 -2.5068 0.9614
-9.1729 -2.5127 -2.5061 0.9614
-8.1773 -4.8434 -2.5043 0.9614
-7.1844 -6.2126 -2.5027 0.9615
-5.2818 -7.8809 -2.4999 0.9615
-4.5574 -8.3163 -2.4988 0.9615
-3.0081 -8.9847 -2.4966 0.9616
-2.1955 -9.2126 -2.4955 0.9616
-1.3662 -9.3672 -2.4944 0.9616
0.3160 -9.4525 -2.4921 0.9616
1.1556 -9.3827 -2.4910 0.9616
4.3503 -8.3759 -2.4870 0.9617
5.0768 -7.9526 -2.4861 0.9617
5.7626 -7.4668 -2.4853 0.9617
6.9912 -6.3232 -2.4839 0.9618
8.4084 -4.2489 -2.4824 0.9618
8.7522 -3.4833 -2.4821 0.9618
9.0267 -2.6903 -2.4819 0.9618
9.4167 -0.2098 -2.4819 0.9618
9.3987 0.6292 -2.4821 0.9618
9.3065 1.4634 -2.4824 0.9618
13.7213 3.4319 -3.7269 0.9432
8.3588 2.9025 -2.3315 0.9641
8.0691 3.6358 -2.3321 0.9641
7.7155 4.3406 -2.3327 0.9640
7.3007 5.0116 -2.3334 0.9640
6.8278 5.6434 -2.3341 0.9640
4.4359 7.6831 -2.3377 0.9640
1.4782 8.7637 -2.3418 0.9639
0.6927 8.8645 -2.3429 0.9639
-0.0991 8.8949 -2.3440 0.9639
-1.6761 8.7441 -2.3460 0.9638
-2.4488 8.5638 -2.3470 0.9638
-3.9315 8.0003 -2.3489 0.9638
-4.6296 7.6213 -2.3497 0.9638
-5.9114 6.6841 -2.3512 0.9638
-6.4846 6.1331 -2.3519 0.9638
-7.0065 5.5329 -2.3524 0.9637
-8.3922 4.4782 -2.5065 0.9614
-8.7586 3.7140 -2.5068 0.9614
-9.2797 2.1025 -2.5072 0.9614
-9.4301 1.2682 -2.5072 0.9614
-9.5047 -0.4238 -2.5070 0.9614
-9.2766 -2.1018 -2.5063 0.9614
-9.0510 -2.9186 -2.5059 0.9614
-8.7534 -3.7117 -2.5053 0.9614
-8.3861 -4.4750 -2.5047 0.9614
-7.4553 -5.8874 -2.5032 0.9615
-6.2888 -7.1109 -2.5014 0.9615
-4.9244 -8.1067 -2.4993 0.9615
-4.1816 -8.5092 -2.4983 0.9615
-3.4061 -8.8437 -2.4972 0.9616
-1.7825 -9.2992 -2.4949 0.9616
-0.9473 -9.4166 -2.4938 0.9616
1.5721 -9.3199 -2.4905 0.9617
2.3943 -9.1391 -2.4894 0.9617
3.1970 -8.8861 -2.4884 0.9617
3.9736 -8.5630 -2.4875 0.9617
4.7183 -8.1723 -2.4865 0.9617
5.4251 -7.7173 -2.4857 0.9617
6.0886 -7.2016 -2.4849 0.9617
7.2651 -6.0047 -2.4836 0.9618
7.7691 -5.3331 -2.4831 0.9618
8.8982 -3.0898 -2.4820 0.9618
9.3618 1.0473 -2.4822 0.9618
8.4789 2.5270 -2.3313 0.9641
8.2220 3.2723 -2.3318 0.9641
7.9001 3.9921 -2.3324 0.9640
7.0713 5.3327 -2.3337 0.9640
6.5708 5.9429 -2.3345 0.9640
5.4170 7.0190 -2.3363 0.9640
4.7727 7.4764 -2.3372 0.9640
4.0901 7.8748 -2.3382 0.9640
1.8667 8.6871 -2.3413 0.9639
1.0866 8.8228 -2.3424 0.9639
0.2972 8.8885 -2.3434 0.9639
-1.2846 8.8082 -2.3455 0.9638
-3.5705 8.1660 -2.3484 0.9638
-5.6069 6.9398 -2.3509 0.9638
-6.2041 6.4150 -2.3516 0.9638
-6.7522 5.8389 -2.3522 0.9637
-8.1837 4.8472 -2.5063 0.9614
-9.1766 2.5138 -2.5071 0.9614
-9.3643 1.6871 -2.5072 0.9614
-5.0319 0.0000 -1.4158 0.9793
-3.9277 -0.3510 -1.1095 0.9837
-3.7284 -0.6717 -1.0659 0.9844
-3.7904 -1.0383 -1.1057 0.9838
-8.0317 -3.8364 -2.5043 0.9637
-7.6564 -4.5349 -2.5037 0.9637
-7.2203 -5.1969 -2.5030 0.9637
-6.7270 -5.8171 -2.5022 0.9637
-6.1805 -6.3906 -2.5014 0.9637
-5.5852 -6.9129 -2.5005 0.9637
-4.9459 -7.3798 -2.4995 0.9638
-4.2677 -7.7876 -2.4985 0.9638
-2.8170 -8.4140 -2.4965 0.9638
-1.2795 -8.7727 -2.4944 0.9638
-0.4934 -8.8481 -2.4933 0.9638
0.2960 -8.8531 -2.4923 0.9639
1.0824 -8.7880 -2.4912 0.9639
4.0750 -7.8458 -2.4875 0.9639
4.7556 -7.4495 -2.4866 0.9639
5.9976 -6.4845 -2.4852 0.9640
7.8772 -3.9805 -2.4832 0.9640
8.1993 -3.2632 -2.4829 0.9640
8.6469 -1.7576 -2.4826 0.9640
8.8050 0.5895 -2.4829 0.9640
8.7185 1.3709 -2.4832 0.9640
12.8543 3.2151 -3.7280 0.9464
7.8305 2.7191 -2.3322 0.9661
6.8389 4.6946 -2.3339 0.9661
6.3959 5.2863 -2.3346 0.9661
2.1086 8.0483 -2.3409 0.9660
1.3844 8.2075 -2.3419 0.9660
0.6487 8.3017 -2.3428 0.9660
-0.0928 8.3300 -2.3438 0.9660
-1.5696 8.1883 -2.3458 0.9659
-2.2930 8.0193 -2.3467 0.9659
-4.3349 7.1362 -2.3492 0.9659
-6.0714 5.7423 -2.3513 0.9659
-6.5599 5.1804 -2.3518 0.9659
-8.6879 1.9684 -2.5064 0.9637
-8.8288 1.1873 -2.5064 0.9637
-4.2110 -0.1878 -1.1860 0.9826
-3.7659 -0.8532 -1.0864 0.9841
-8.4741 -2.7325 -2.5051 0.9637
-5.8887 -6.6584 -2.5009 0.9637
-4.6113 -7.5913 -2.4990 0.9638
-3.9158 -7.9684 -2.4980 0.9638
2.9945 -8.3234 -2.4888 0.9639
3.7221 -8.0209 -2.4879 0.9639
4.4197 -7.6552 -2.4870 0.9639
5.7035 -6.7462 -2.4855 0.9640
6.2797 -6.2101 -2.4849 0.9640
7.6926 -4.3278 -2.4834 0.9640
8.0462 -3.6255 -2.4830 0.9640
8.3362 -2.8946 -2.4828 0.9640
8.5602 -2.1411 -2.4827 0.9640
8.7166 -1.3706 -2.4826 0.9640
8.8221 0.1966 -2.4828 0.9640
8.7704 0.9811 -2.4830 0.9640
7.9431 2.3673 -2.3320 0.9661
7.4007 3.7397 -2.3330 0.9661
6.1550 5.5669 -2.3350 0.9661
5.6370 6.0947 -2.3358 0.9661
5.0740 6.5746 -2.3366 0.9661
4.4704 7.0028 -2.3375 0.9661
2.4645 7.9447 -2.3404 0.9660
0.2783 8.3241 -2.3433 0.9660
-0.4639 8.3193 -2.3443 0.9660
-1.2030 8.2484 -2.3453 0.9660
-1.9331 8.1119 -2.3462 0.9659
-3.3433 7.6464 -2.3480 0.9659
-6.3220 5.4668 -2.3515 0.9659
-7.6620 4.5382 -2.5055 0.9637
-8.0367 3.8388 -2.5059 0.9637
-8.8728 0.7929 -2.5064 0.9637
-3.9677 0.0000 -1.1878 0.9836
-3.4798 -0.6269 -1.0586 0.9853
-7.8389 -2.9192 -2.5043 0.9657
-7.5464 -3.6046 -2.5037 0.9657
-7.1939 -4.2609 -2.5031 0.9657
-5.8075 -6.0048 -2.5009 0.9657
-5.2482 -6.4957 -2.5001 0.9657
-4.6475 -6.9346 -2.4992 0.9657
-4.0104 -7.3180 -2.4983 0.9658
-3.3419 -7.6430 -2.4973 0.9658
-2.6473 -7.9071 -2.4964 0.9658
-1.9323 -8.1081 -2.4954 0.9658
1.0173 -8.2596 -2.4914 0.9658
2.4638 -7.9424 -2.4896 0.9659
3.8303 -7.3747 -2.4879 0.9659
5.0742 -6.5748 -2.4864 0.9659
6.6263 -4.9971 -2.4847 0.9659
7.0435 -4.3867 -2.4842 0.9659
8.2435 -0.9221 -2.4833 0.9660
8.2931 -0.1848 -2.4834 0.9660
8.2772 0.5541 -2.4836 0.9660
8.1959 1.2887 -2.4838 0.9660
12.0836 3.0223 -3.7290 0.9493
7.1056 3.2017 -2.3333 0.9680
6.7940 3.8223 -2.3338 0.9680
1.9817 7.5640 -2.3409 0.9679
1.3011 7.7134 -2.3419 0.9679
0.6096 7.8017 -2.3428 0.9679
-2.8179 7.3165 -2.3473 0.9678
-3.4591 7.0390 -2.3480 0.9678
-4.6552 6.3180 -2.3495 0.9678
-5.2005 5.8803 -2.3501 0.9678
-5.7046 5.3954 -2.3507 0.9677
-7.7043 3.2669 -2.5053 0.9657
-7.9652 2.5685 -2.5055 0.9657
-8.1626 1.8494 -2.5056 0.9657
-8.2949 1.1155 -2.5057 0.9657
-4.8506 0.2163 -1.4536 0.9799
-3.5144 -0.4726 -1.0616 0.9853
-3.4642 -0.7849 -1.0634 0.9853
-7.9619 -2.5674 -2.5045 0.9657
-7.7003 -3.2652 -2.5040 0.9657
-6.5591 -5.1796 -2.5021 0.9657
-5.5333 -6.2566 -2.5005 0.9657
-3.6797 -7.4880 -2.4978 0.9658
-2.9975 -7.7828 -2.4969 0.9658
-0.8338 -8.2883 -2.4939 0.9658
-0.0928 -8.3263 -2.4929 0.9658
1.3839 -8.2045 -2.4910 0.9659
2.1079 -8.0457 -2.4900 0.9659
2.8146 -7.8234 -2.4891 0.9659
3.4986 -7.5392 -2.4883 0.9659
4.1544 -7.1956 -2.4875 0.9659
5.3613 -6.3413 -2.4861 0.9659
5.9030 -5.8375 -2.4854 0.9659
6.3977 -5.2878 -2.4849 0.9659
7.5639 -3.4081 -2.4837 0.9660
8.1942 -1.2885 -2.4833 0.9660
8.2933 0.1848 -2.4835 0.9660
8.2447 0.9223 -2.4837 0.9660
6.6179 4.1217 -2.3341 0.9680
5.7855 5.2327 -2.3354 0.9680
4.7692 6.1797 -2.3370 0.9679
3.6006 6.9324 -2.3387 0.9679
2.9704 7.2281 -2.3396 0.9679
1.6431 7.6463 -2.3414 0.9679
0.9564 7.7653 -2.3423 0.9679
0.2615 7.8227 -2.3433 0.9678
-0.4359 7.8180 -2.3442 0.9678
-2.4887 7.4335 -2.3468 0.9678
-3.1416 7.1849 -2.3477 0.9678
-4.9327 6.1053 -2.3498 0.9678
-6.6457 4.7833 -2.4514 0.9664
-7.1988 4.2639 -2.5048 0.9657
-7.8426 2.9206 -2.5054 0.9657
-8.0719 2.2111 -2.5056 0.9657
-8.2369 1.4839 -2.5057 0.9657
-3.7563 -0.0000 -1.1929 0.9844
-3.3867 -0.3026 -1.0798 0.9858
-7.1123 -3.3972 -2.5032 0.9675
-4.3807 -6.5364 -2.4989 0.9675
-3.7802 -6.8979 -2.4981 0.9675
-3.1501 -7.2045 -2.4972 0.9675
-2.4954 -7.4535 -2.4963 0.9676
-1.1335 -7.7720 -2.4944 0.9676
0.2623 -7.8440 -2.4925 0.9676
0.9590 -7.7866 -2.4916 0.9676
2.9791 -7.2491 -2.4890 0.9676
4.2146 -6.6021 -2.4875 0.9677
4.7842 -6.1991 -2.4869 0.9677
5.3157 -5.7472 -2.4862 0.9677
5.8048 -5.2502 -2.4857 0.9677
6.2479 -4.7117 -2.4852 0.9677
6.6413 -4.1363 -2.4848 0.9677
7.6647 -1.5579 -2.4840 0.9677
11.3936 2.8498 -3.7299 0.9519
6.0612 4.1608 -2.3348 0.9696
3.1005 6.6815 -2.3393 0.9696
2.4944 6.9334 -2.3401 0.9695
-0.0822 7.3791 -2.3436 0.9695
-2.0310 7.1029 -2.3462 0.9695
-2.6560 6.8962 -2.3470 0.9695
-5.3764 5.0850 -2.3502 0.9694
-6.5983 4.3164 -2.5041 0.9675
-7.5067 2.4206 -2.5049 0.9674
-7.6927 1.7429 -2.5050 0.9674
-7.8174 1.0514 -2.5050 0.9674
-4.3818 0.1954 -1.3930 0.9818
-3.4557 -0.1541 -1.0986 0.9856
-3.3189 -0.4463 -1.0635 0.9860
-3.2591 -0.7384 -1.0613 0.9861
-3.2827 -1.0586 -1.0954 0.9856
-7.2573 -3.0773 -2.5035 0.9675
-6.9531 -3.7103 -2.5029 0.9675
-6.5937 -4.3134 -2.5023 0.9675
-6.1820 -4.8819 -2.5017 0.9675
-4.6683 -6.3359 -2.4994 0.9675
-3.4685 -7.0582 -2.4976 0.9675
-2.8255 -7.3363 -2.4967 0.9675
-1.4789 -7.7153 -2.4949 0.9676
-0.0874 -7.8493 -2.4930 0.9676
1.3047 -7.7348 -2.4912 0.9676
1.9873 -7.5853 -2.4903 0.9676
2.6536 -7.3758 -2.4894 0.9676
3.9169 -6.7842 -2.4879 0.9677
6.0323 -4.9858 -2.4854 0.9677
6.4510 -4.4283 -2.4850 0.9677
6.8185 -3.8360 -2.4846 0.9677
7.3891 -2.5658 -2.4841 0.9677
7.5878 -1.8978 -2.4840 0.9677
7.8199 0.1743 -2.4841 0.9677
7.6666 1.5583 -2.4846 0.9677
7.4985 2.2348 -2.4849 0.9677
6.5593 3.3146 -2.3340 0.9696
6.2397 3.8862 -2.3345 0.9696
5.4548 4.9336 -2.3358 0.9696
4.9955 5.4011 -2.3365 0.9696
3.9613 6.2053 -2.3380 0.9696
0.9016 7.3201 -2.3423 0.9695
-3.5532 6.4837 -2.3481 0.9694
-4.1174 6.1435 -2.3487 0.9694
-5.1440 5.3189 -2.3499 0.9694
-5.5982 4.8410 -2.3504 0.9694
-6.7845 4.0185 -2.5043 0.9674
-7.3912 2.7525 -2.5048 0.9674
-7.6073 2.0839 -2.5050 0.9674
-7.7628 1.3985 -2.5050 0.9674
-7.8564 0.7021 -2.5050 0.9674
-3.2019 -0.2861 -1.0801 0.9865
-3.1349 -0.8587 -1.0921 0.9864
-6.9819 -2.6001 -2.5032 0.9691
-6.0431 -4.3495 -2.5016 0.9691
-5.6305 -4.8688 -2.5009 0.9691
-5.1733 -5.3492 -2.5002 0.9691
-4.6753 -5.7867 -2.4995 0.9691
-4.1404 -6.1779 -2.4987 0.9691
-2.9774 -6.8095 -2.4970 0.9691
-1.7217 -7.2245 -2.4953 0.9691
-0.4132 -7.4100 -2.4935 0.9692
2.1958 -7.0787 -2.4901 0.9692
2.8163 -6.8530 -2.4893 0.9692
3.4140 -6.5732 -2.4886 0.9692
6.6013 -3.3358 -2.4850 0.9693
6.8714 -2.7347 -2.4848 0.9693
7.2467 -1.4729 -2.4845 0.9693
7.3790 0.4940 -2.4848 0.9693
7.3064 1.1489 -2.4850 0.9693
6.8497 2.3785 -2.4362 0.9699
6.3342 2.8541 -2.3342 0.9711
6.0562 3.4072 -2.3347 0.9711
5.7303 3.9336 -2.3352 0.9711
4.4911 5.3121 -2.3372 0.9711
3.4803 6.0280 -2.3386 0.9711
2.3580 6.5541 -2.3402 0.9710
1.1594 6.8732 -2.3419 0.9710
0.5432 6.9516 -2.3427 0.9710
-3.0814 6.2704 -2.3474 0.9709
-3.6283 5.9730 -2.3481 0.9709
-4.1466 5.6279 -2.3487 0.9709
-4.6322 5.2377 -2.3492 0.9709
-5.0811 4.8056 -2.3497 0.9709
-6.2357 4.0792 -2.5035 0.9690
-6.8618 2.9096 -2.5041 0.9690
-7.0940 2.2875 -2.5043 0.9690
-3.1418 -1.0131 -1.1091 0.9862
-6.5712 -3.5065 -2.5025 0.9691
-5.8426 -4.6138 -2.5013 0.9691
-4.9292 -5.5735 -2.4999 0.9691
-4.4122 -5.9882 -2.4991 0.9691
-3.8604 -6.3551 -2.4983 0.9691
-3.2784 -6.6713 -2.4975 0.9691
-2.0422 -7.1419 -2.4957 0.9691
-0.0827 -7.4198 -2.4931 0.9692
0.5779 -7.3951 -2.4922 0.9692
1.2333 -7.3118 -2.4913 0.9692
2.5086 -6.9727 -2.4897 0.9692
3.7029 -6.4137 -2.4882 0.9692
4.2580 -6.0570 -2.4876 0.9692
5.2620 -5.2037 -2.4864 0.9693
7.3050 -1.1487 -2.4845 0.9693
7.3784 -0.4939 -2.4846 0.9693
7.3934 0.1648 -2.4847 0.9693
7.3500 0.8222 -2.4849 0.9693
6.4544 2.5688 -2.3340 0.9711
5.8991 3.6740 -2.3350 0.9711
5.5500 4.1855 -2.3355 0.9711
3.7448 5.8661 -2.3383 0.9711
2.6471 6.4414 -2.3398 0.9710
1.4641 6.8135 -2.3415 0.9710
0.8522 6.9193 -2.3423 0.9710
0.2330 6.9701 -2.3431 0.9710
-1.6184 6.7910 -2.3456 0.9710
-3.8913 5.8062 -2.3484 0.9709
-6.0473 4.3526 -2.5033 0.9690
-6.7250 3.2123 -2.5040 0.9690
-7.3360 1.3216 -2.5044 0.9690
-3.4902 0.0000 -1.2376 0.9853
-3.0930 -0.2764 -1.1011 0.9869
-3.0442 -0.5484 -1.0968 0.9870
-3.0314 -1.1289 -1.1470 0.9864
-6.3678 -3.0416 -2.5023 0.9705
-6.0705 -3.5956 -2.5018 0.9705
-5.7251 -4.1207 -2.5012 0.9705
-5.3343 -4.6128 -2.5006 0.9705
-4.9013 -5.0679 -2.4999 0.9705
-4.4295 -5.4825 -2.4992 0.9705
-3.3852 -6.1772 -2.4977 0.9705
-2.2349 -6.6752 -2.4961 0.9706
-1.0152 -6.9610 -2.4944 0.9706
-0.3915 -7.0214 -2.4936 0.9706
0.2349 -7.0260 -2.4927 0.9706
0.8590 -6.9749 -2.4919 0.9706
2.0808 -6.7079 -2.4903 0.9706
2.6688 -6.4942 -2.4896 0.9706
3.2353 -6.2291 -2.4889 0.9706
3.7759 -5.9149 -2.4882 0.9707
4.7626 -5.1492 -2.4871 0.9707
5.2010 -4.7040 -2.4866 0.9707
5.9507 -3.7061 -2.4858 0.9707
6.2562 -3.1614 -2.4855 0.9707
6.5122 -2.5918 -2.4853 0.9707
6.7166 -2.0017 -2.4851 0.9707
6.8679 -1.3960 -2.4851 0.9707
6.9649 -0.7791 -2.4850 0.9707
7.0068 -0.1561 -2.4851 0.9707
6.9932 0.4682 -2.4853 0.9707
6.9244 1.0888 -2.4855 0.9707
6.6234 2.2999 -2.4861 0.9707
6.0139 2.7097 -2.3389 0.9724
5.4304 3.7278 -2.3356 0.9724
4.6858 4.6339 -2.3368 0.9724
4.2559 5.0340 -2.3374 0.9724
3.7921 5.3944 -2.3381 0.9724
2.2343 6.2105 -2.3403 0.9724
1.0985 6.5126 -2.3419 0.9724
-0.0736 6.6086 -2.3435 0.9723
-0.6618 6.5780 -2.3442 0.9723
-1.8187 6.3605 -2.3457 0.9723
-2.3784 6.1752 -2.3464 0.9723
-2.9194 5.9407 -2.3471 0.9723
-3.4375 5.6588 -2.3477 0.9723
-4.3884 4.9621 -2.3489 0.9723
-5.5391 4.3742 -2.5027 0.9705
-5.9074 3.8644 -2.5031 0.9705
-6.2287 3.3237 -2.5034 0.9705
-6.7204 2.1671 -2.5038 0.9705
-6.8869 1.5604 -2.5039 0.9705
-6.9985 0.9412 -2.5039 0.9705
-3.9464 0.1760 -1.4007 0.9834
-3.1623 -0.1410 -1.1224 0.9867
-3.0595 -0.4115 -1.0946 0.9870
-3.0241 -0.6852 -1.0995 0.9869
-3.0191 -0.9735 -1.1248 0.9866
-6.4975 -2.7552 -2.5025 0.9705
-6.2253 -3.3220 -2.5020 0.9705
-5.9037 -3.8620 -2.5015 0.9705
-5.5352 -4.3711 -2.5009 0.9705
-5.1229 -4.8452 -2.5003 0.9705
-4.6700 -5.2804 -2.4996 0.9705
-4.1803 -5.6735 -2.4989 0.9705
-3.1062 -6.3209 -2.4973 0.9706
-2.5304 -6.5701 -2.4965 0.9706
-1.9350 -6.7670 -2.4957 0.9706
-0.7040 -6.9981 -2.4940 0.9706
0.5476 -7.0074 -2.4923 0.9706
1.7802 -6.7950 -2.4907 0.9706
2.3772 -6.6076 -2.4900 0.9706
3.5091 -6.0779 -2.4886 0.9707
4.5290 -5.3569 -2.4874 0.9707
4.9867 -4.9315 -2.4868 0.9707
5.4049 -4.4672 -2.4864 0.9707
5.7801 -3.9678 -2.4860 0.9707
6.1095 -3.4371 -2.4857 0.9707
6.3905 -2.8794 -2.4854 0.9707
6.6209 -2.2990 -2.4852 0.9707
6.7990 -1.7005 -2.4851 0.9707
5.5905 3.4818 -2.3353 0.9724
5.2596 3.9665 -2.3359 0.9724
4.8869 4.4200 -2.3364 0.9724
4.0281 5.2193 -2.3377 0.9724
3.5486 5.5588 -2.3385 0.9724
3.0407 5.8544 -2.3392 0.9724
1.9558 6.3049 -2.3407 0.9724
1.3873 6.4561 -2.3415 0.9724
0.8075 6.5562 -2.3423 0.9724
0.2208 6.6043 -2.3431 0.9723
-0.3680 6.5999 -2.3439 0.9723
-0.9543 6.5431 -2.3446 0.9723
-1.5333 6.4342 -2.3454 0.9723
-3.1815 5.8056 -2.3474 0.9723
-4.1626 5.1521 -2.3486 0.9723
-4.6056 4.7622 -2.3491 0.9723
-5.2405 4.5316 -2.4566 0.9710
-5.7289 4.1235 -2.5029 0.9705
-6.6170 2.4642 -2.5037 0.9705
-6.8104 1.8656 -2.5039 0.9705
-7.0335 0.6285 -2.5039 0.9705
-2.9938 -0.2675 -1.1224 0.9872
-2.9169 -0.7990 -1.1293 0.9872
-2.9238 -1.0888 -1.1650 0.9868
-6.0458 -2.8878 -2.5019 0.9718
-5.7637 -3.4138 -2.5014 0.9718
-4.6537 -4.8119 -2.4997 0.9718
-2.6787 -6.1263 -2.4968 0.9719
-0.3718 -6.6675 -2.4936 0.9719
1.4017 -6.5227 -2.4913 0.9719
1.9761 -6.3703 -2.4905 0.9719
2.5345 -6.1674 -2.4898 0.9719
3.5860 -5.6174 -2.4886 0.9719
5.6517 -3.5199 -2.4862 0.9720
6.3792 -1.9012 -2.4856 0.9720
6.5229 -1.3258 -2.4855 0.9720
6.6150 -0.7400 -2.4855 0.9720
6.6419 0.4446 -2.4857 0.9720
6.5765 1.0342 -2.4859 0.9720
6.2905 2.1843 -2.4865 0.9720
5.4509 3.0666 -2.3354 0.9736
4.8229 3.9862 -2.3364 0.9736
4.4501 4.4008 -2.3370 0.9736
4.0418 4.7806 -2.3376 0.9736
3.1319 5.4246 -2.3390 0.9736
2.6375 5.6836 -2.3397 0.9736
2.1218 5.8976 -2.3404 0.9736
1.0432 6.1843 -2.3419 0.9736
0.4887 6.2546 -2.3427 0.9736
-0.0699 6.2753 -2.3434 0.9736
-1.1822 6.1673 -2.3449 0.9735
-1.7269 6.0394 -2.3455 0.9735
-3.7299 5.0623 -2.3480 0.9735
-4.6973 4.4427 -2.4143 0.9728
-5.2590 4.1530 -2.5023 0.9718
-5.9136 3.1556 -2.5029 0.9718
-6.1716 2.6170 -2.5032 0.9718
-6.3804 2.0574 -2.5033 0.9718
-6.5385 1.4814 -2.5034 0.9718
-6.6444 0.8936 -2.5034 0.9718
-3.7910 0.1690 -1.4170 0.9839
-2.9640 -0.3986 -1.1167 0.9873
-2.9106 -0.9385 -1.1419 0.9870
-6.1690 -2.6159 -2.5021 0.9718
-5.6053 -3.6668 -2.5011 0.9718
-3.4729 -5.7173 -2.4979 0.9718
-2.9494 -6.0018 -2.4972 0.9719
-2.4028 -6.2386 -2.4964 0.9719
-0.6685 -6.6454 -2.4940 0.9719
-0.0744 -6.6764 -2.4932 0.9719
1.1099 -6.5797 -2.4917 0.9719
3.3326 -5.7722 -2.4889 0.9719
4.3013 -5.0876 -2.4877 0.9720
4.7361 -4.6836 -2.4872 0.9720
5.1332 -4.2427 -2.4868 0.9720
5.8025 -3.2644 -2.4861 0.9720
6.2883 -2.1835 -2.4857 0.9720
6.4574 -1.6151 -2.4856 0.9720
6.5755 -1.0339 -2.4855 0.9720
6.6415 -0.4446 -2.4855 0.9720
6.6549 0.1483 -2.4856 0.9720
6.5243 1.3261 -2.4861 0.9720
6.3811 1.9018 -2.4864 0.9720
5.5816 2.8205 -2.3352 0.9737
5.3094 3.3067 -2.3357 0.9736
4.9951 3.7670 -2.3362 0.9736
3.8253 4.9567 -2.3380 0.9736
3.3699 5.2790 -2.3386 0.9736
2.8876 5.5596 -2.3393 0.9736
1.8572 5.9872 -2.3408 0.9736
1.3174 6.1307 -2.3415 0.9736
0.7668 6.2256 -2.3423 0.9736
0.2097 6.2712 -2.3430 0.9736
-2.5175 5.7578 -2.3465 0.9735
-3.9522 4.8917 -2.3483 0.9735
-4.3728 4.5214 -2.3488 0.9735
-5.7668 3.4157 -2.5028 0.9718
-6.0486 2.8892 -2.5030 0.9718
-6.2822 2.3395 -2.5032 0.9718
-6.4659 1.7712 -2.5034 0.9718
-6.5980 1.1887 -2.5034 0.9718
-4.2614 0.3808 -1.5976 0.9819
-2.9005 -0.2592 -1.1429 0.9876
-2.8518 -0.5138 -1.1373 0.9876
-2.8313 -0.7756 -1.1521 0.9875
-5.7513 -2.7471 -2.5015 0.9730
-5.1711 -3.7220 -2.5006 0.9730
-4.8183 -4.1665 -2.5000 0.9730
-4.4272 -4.5777 -2.4994 0.9730
-3.5436 -5.2874 -2.4981 0.9730
-2.5485 -5.8285 -2.4967 0.9730
-2.0190 -6.0305 -2.4959 0.9730
-0.9172 -6.2891 -2.4944 0.9731
1.8802 -6.0613 -2.4907 0.9731
2.4116 -5.8683 -2.4901 0.9731
2.9236 -5.6290 -2.4894 0.9731
4.3041 -4.6536 -2.4878 0.9731
4.7004 -4.2512 -2.4874 0.9731
5.0593 -3.8154 -2.4870 0.9731
5.3781 -3.3495 -2.4866 0.9731
5.8856 -2.3424 -2.4862 0.9731
6.0704 -1.8092 -2.4860 0.9731
6.2072 -1.2617 -2.4860 0.9731
6.2948 -0.7042 -2.4860 0.9731
6.3205 0.4231 -2.4861 0.9731
6.2582 0.9840 -2.4863 0.9731
6.1464 1.5373 -2.4866 0.9731
5.7169 2.5759 -2.4609 0.9734
4.9075 3.3688 -2.3362 0.9747
4.2344 4.1875 -2.3373 0.9747
3.8458 4.5489 -2.3379 0.9747
2.9800 5.1615 -2.3391 0.9747
1.5118 5.7705 -2.3412 0.9747
0.9925 5.8840 -2.3419 0.9747
0.4650 5.9508 -2.3426 0.9747
-0.0665 5.9704 -2.3433 0.9747
-0.5978 5.9425 -2.3440 0.9747
-1.1247 5.8674 -2.3447 0.9747
-3.1049 5.1114 -2.3472 0.9746
-4.6306 4.3796 -2.5015 0.9730
-5.6255 3.0019 -2.5025 0.9730
-6.0695 1.9572 -2.5029 0.9730
-6.2198 1.4092 -2.5030 0.9730
-3.6457 0.1626 -1.4322 0.9844
-2.8717 -1.2177 -1.2242 0.9867
-5.3324 -3.4883 -2.5008 0.9730
-4.9997 -3.9482 -2.5003 0.9730
-4.6273 -4.3765 -2.4997 0.9730
-4.2184 -4.7698 -2.4991 0.9730
-3.7761 -5.1250 -2.4984 0.9730
-3.3041 -5.4392 -2.4977 0.9730
-2.8060 -5.7101 -2.4970 0.9730
-1.1967 -6.2429 -2.4948 0.9731
-0.6361 -6.3227 -2.4940 0.9731
1.0560 -6.2605 -2.4918 0.9731
2.1481 -5.9708 -2.4904 0.9731
3.1711 -5.4925 -2.4891 0.9731
4.0929 -4.8411 -2.4880 0.9731
4.5067 -4.4568 -2.4876 0.9731
5.2239 -3.5860 -2.4868 0.9731
5.7757 -2.6024 -2.4863 0.9731
5.9840 -2.0779 -2.4861 0.9731
6.1449 -1.5369 -2.4860 0.9731
6.2572 -0.9839 -2.4859 0.9731
6.3328 0.1412 -2.4861 0.9731
6.2085 1.2620 -2.4865 0.9731
5.8879 2.3434 -2.4871 0.9731
5.3118 2.6842 -2.3358 0.9748
5.0522 3.1466 -2.3360 0.9747
4.7531 3.5845 -2.3365 0.9747
3.6399 4.7163 -2.3382 0.9747
1.7671 5.6966 -2.3408 0.9747
0.1995 5.9665 -2.3430 0.9747
-3.3299 4.9686 -2.3475 0.9746
-4.2201 4.3635 -2.3824 0.9743
-4.8215 4.1693 -2.5017 0.9730
-5.4859 3.2493 -2.5024 0.9730
-5.7539 2.7484 -2.5026 0.9730
-5.9761 2.2255 -2.5028 0.9730
-6.2765 1.1308 -2.5030 0.9730
-4.1298 0.3690 -1.6273 0.9823
-2.7831 -0.5014 -1.1645 0.9878
-2.7695 -0.7587 -1.1825 0.9877
-2.7842 -1.0369 -1.2234 0.9872
-5.2252 -3.0949 -2.5008 0.9741
-4.9281 -3.5470 -2.5003 0.9741
-4.2192 -4.3627 -2.4992 0.9741
-3.8133 -4.7197 -2.4986 0.9741
-3.3772 -5.0391 -2.4979 0.9741
-2.4289 -5.5550 -2.4966 0.9741
-0.8742 -5.9942 -2.4944 0.9741
0.2023 -6.0507 -2.4930 0.9742
0.7398 -6.0070 -2.4923 0.9742
1.2712 -5.9157 -2.4916 0.9742
2.7868 -5.3655 -2.4897 0.9742
3.2526 -5.0950 -2.4891 0.9742
3.6924 -4.7843 -2.4886 0.9742
4.1028 -4.4359 -2.4881 0.9742
5.1266 -3.1929 -2.4870 0.9742
5.6105 -2.2329 -2.4866 0.9742
5.9171 -1.2027 -2.4864 0.9742
6.0367 -0.1345 -2.4864 0.9742
6.0250 0.4033 -2.4865 0.9742
5.8590 1.4655 -2.4870 0.9742
4.9442 2.7816 -2.3360 0.9758
4.6780 3.2112 -2.3365 0.9758
4.0362 3.9915 -2.3375 0.9757
3.6658 4.3359 -2.3381 0.9757
2.8404 4.9198 -2.3393 0.9757
2.3919 5.1544 -2.3399 0.9757
1.9242 5.3484 -2.3406 0.9757
1.4409 5.5000 -2.3412 0.9757
0.9460 5.6080 -2.3419 0.9757
-1.0719 5.5920 -2.3446 0.9757
-1.5658 5.4759 -2.3452 0.9757
-2.0475 5.3162 -2.3458 0.9757
-2.9590 4.8712 -2.3469 0.9756
-3.7979 4.2944 -2.3607 0.9755
-5.3609 2.8606 -2.5021 0.9741
-5.5947 2.3723 -2.5023 0.9741
-5.7840 1.8651 -2.5025 0.9741
-6.0233 0.8101 -2.5026 0.9741
-2.9337 -0.1308 -1.2093 0.9874
-2.7947 -0.3758 -1.1611 0.9879
-2.7756 -0.6288 -1.1719 0.9878
-2.8016 -1.1880 -1.2531 0.9869
-5.3584 -2.8593 -2.5010 0.9741
-5.0817 -3.3243 -2.5005 0.9741
-3.5988 -4.8843 -2.4982 0.9741
-2.6743 -5.4420 -2.4969 0.9741
-2.1787 -5.6569 -2.4962 0.9741
-1.6661 -5.8267 -2.4955 0.9741
-1.1405 -5.9501 -2.4948 0.9741
-0.0675 -6.0546 -2.4933 0.9741
0.4716 -6.0348 -2.4926 0.9742
2.5453 -5.4850 -2.4900 0.9742
4.2959 -4.2483 -2.4879 0.9742
4.9796 -3.4183 -2.4872 0.9742
5.5057 -2.4807 -2.4866 0.9742
5.7042 -1.9807 -2.4865 0.9742
5.8577 -1.4651 -2.4864 0.9742
5.9647 -0.9379 -2.4863 0.9742
6.0368 0.1345 -2.4865 0.9742
6.0012 0.6713 -2.4866 0.9742
5.9182 1.2029 -2.4868 0.9742
5.7883 1.7251 -2.4871 0.9742
5.2676 2.6618 -2.4303 0.9748
4.8159 2.9994 -2.3363 0.9758
4.2095 3.8073 -2.3372 0.9757
3.8549 4.1678 -2.3378 0.9757
2.6188 5.0421 -2.3396 0.9757
2.1602 5.2566 -2.3402 0.9757
1.6843 5.4296 -2.3409 0.9757
0.6953 5.6454 -2.3423 0.9757
0.1901 5.6866 -2.3429 0.9757
-0.3169 5.6826 -2.3436 0.9757
-0.8216 5.6334 -2.3443 0.9757
-1.3201 5.5394 -2.3449 0.9757
-1.8084 5.4014 -2.3455 0.9757
-3.1734 4.7351 -2.3472 0.9756
-4.5948 3.9733 -2.5013 0.9741
-5.8614 1.6056 -2.5025 0.9741
-3.0794 0.0000 -1.3283 0.9867
-2.7278 -0.4914 -1.1956 0.9880
-4.7039 -3.3857 -2.5000 0.9751
-4.3830 -3.7902 -2.4995 0.9751
-3.6399 -4.5052 -2.4984 0.9751
-2.7821 -5.0766 -2.4971 0.9751
-2.3186 -5.3027 -2.4965 0.9751
-1.8369 -5.4866 -2.4958 0.9751
-0.8346 -5.7221 -2.4944 0.9751
-0.3219 -5.7721 -2.4937 0.9751
0.1931 -5.7762 -2.4930 0.9751
0.7063 -5.7346 -2.4924 0.9751
1.7110 -5.5157 -2.4911 0.9752
2.1946 -5.3402 -2.4905 0.9752
2.6606 -5.1225 -2.4899 0.9752
3.5252 -4.5677 -2.4889 0.9752
5.1460 -2.6004 -2.4871 0.9752
5.3567 -2.1319 -2.4869 0.9752
5.7291 -0.6409 -2.4867 0.9752
5.5939 1.3991 -2.4873 0.9752
5.4478 1.8917 -2.4876 0.9752
5.2585 2.3694 -2.4879 0.9752
4.4661 3.0658 -2.3367 0.9767
3.4997 4.1395 -2.3382 0.9767
3.1181 4.4356 -2.3388 0.9767
2.7117 4.6968 -2.3394 0.9767
2.2835 4.9207 -2.3400 0.9766
1.8369 5.1058 -2.3406 0.9766
1.3756 5.2505 -2.3413 0.9766
0.4231 5.4142 -2.3426 0.9766
-1.0232 5.3379 -2.3445 0.9766
-1.9544 5.0745 -2.3457 0.9766
-2.3989 4.8816 -2.3462 0.9766
-3.2278 4.3808 -2.3472 0.9766
-3.7763 4.2700 -2.4589 0.9755
-4.8530 3.1747 -2.5015 0.9751
-5.1169 2.7304 -2.5018 0.9751
-5.3400 2.2644 -2.5020 0.9750
-5.5207 1.7802 -2.5021 0.9750
-5.7491 0.7732 -2.5022 0.9750
-2.7166 -0.8760 -1.2313 0.9876
-2.7334 -1.1590 -1.2807 0.9871
-4.8505 -3.1731 -2.5002 0.9751
-3.8375 -4.3391 -2.4987 0.9751
-2.5528 -5.1948 -2.4968 0.9751
-2.0798 -5.4000 -2.4961 0.9751
-1.0888 -5.6801 -2.4947 0.9751
-0.5787 -5.7528 -2.4941 0.9751
0.4502 -5.7611 -2.4927 0.9751
1.4638 -5.5871 -2.4914 0.9752
1.9547 -5.4333 -2.4908 0.9752
2.8858 -4.9983 -2.4896 0.9752
3.7248 -4.4057 -2.4886 0.9752
4.1014 -4.0560 -2.4882 0.9752
4.7543 -3.2636 -2.4875 0.9752
5.0253 -2.8272 -2.4872 0.9752
5.2566 -2.3685 -2.4870 0.9752
5.6949 -0.8955 -2.4867 0.9752
5.7520 -0.3850 -2.4867 0.9752
5.7637 0.1284 -2.4868 0.9752
5.3585 2.1326 -2.4878 0.9752
5.1482 2.6015 -2.4881 0.9752
4.5979 2.8636 -2.3365 0.9767
4.0189 3.6349 -2.3374 0.9767
3.6802 3.9790 -2.3380 0.9767
3.3122 4.2918 -2.3385 0.9767
2.9178 4.5707 -2.3391 0.9767
2.0623 5.0183 -2.3403 0.9766
1.6079 5.1833 -2.3410 0.9766
0.1815 5.4284 -2.3429 0.9766
-1.2601 5.2878 -2.3448 0.9766
-4.0301 4.1671 -2.5006 0.9751
-4.3857 3.7925 -2.5010 0.9751
-4.7065 3.3876 -2.5014 0.9751
-5.4357 2.0243 -2.5021 0.9750
-5.7089 1.0285 -2.5022 0.9750
-3.8265 0.3419 -1.6572 0.9834
-2.6738 -0.4817 -1.2259 0.9881
-2.6607 -0.9908 -1.2811 0.9876
-2.6666 -1.2737 -1.3334 0.9871
-2.6867 -1.5913 -1.4090 0.9864
-4.4964 -3.2363 -2.4998 0.9760
-3.0816 -4.5981 -2.4976 0.9760
-0.3077 -5.5181 -2.4937 0.9760
0.6752 -5.4824 -2.4924 0.9761
1.6358 -5.2732 -2.4912 0.9761
3.3704 -4.3671 -2.4891 0.9761
3.7450 -4.0490 -2.4887 0.9761
4.0899 -3.6991 -2.4883 0.9761
4.4023 -3.3199 -2.4879 0.9761
4.6798 -2.9146 -2.4877 0.9761
4.9202 -2.4863 -2.4874 0.9761
5.1216 -2.0383 -2.4872 0.9761
5.2824 -1.5743 -2.4871 0.9761
5.4014 -1.0979 -2.4871 0.9761
5.5106 -0.1228 -2.4871 0.9761
5.4457 0.8563 -2.4874 0.9761
5.2087 1.8087 -2.4879 0.9761
5.0277 2.2654 -2.4882 0.9761
4.8068 2.7043 -2.4886 0.9761
4.2700 2.9312 -2.3370 0.9775
3.9929 3.3002 -2.3374 0.9775
3.6841 3.6433 -2.3379 0.9775
-0.5199 5.1682 -2.3438 0.9775
-0.9781 5.1028 -2.3444 0.9775
-1.4288 4.9967 -2.3449 0.9775
-1.8683 4.8508 -2.3455 0.9774
-3.0855 4.1875 -2.3470 0.9774
-4.0262 3.8080 -2.5005 0.9760
-4.3498 3.4350 -2.5009 0.9760
-4.6388 3.0346 -2.5012 0.9760
-5.4953 0.7391 -2.5019 0.9760
-2.7833 -0.1241 -1.2571 0.9878
-2.6870 -0.3614 -1.2234 0.9882
-2.6659 -0.6040 -1.2334 0.9881
-4.3474 -3.4331 -2.4995 0.9760
-3.6683 -4.1478 -2.4985 0.9760
-3.2838 -4.4568 -2.4979 0.9760
-2.8734 -4.7303 -2.4973 0.9760
-2.4404 -4.9660 -2.4967 0.9760
-1.9882 -5.1621 -2.4960 0.9760
-0.5533 -5.4997 -2.4941 0.9760
0.9187 -5.4462 -2.4921 0.9761
1.8688 -5.1945 -2.4909 0.9761
2.3232 -5.0064 -2.4904 0.9761
2.7590 -4.7787 -2.4898 0.9761
3.1728 -4.5133 -2.4893 0.9761
3.9214 -3.8779 -2.4885 0.9761
4.8047 -2.7031 -2.4875 0.9761
5.2072 -1.8081 -2.4872 0.9761
5.3472 -1.3374 -2.4871 0.9761
5.4450 -0.8561 -2.4870 0.9761
5.5107 0.1228 -2.4872 0.9761
5.4783 0.6129 -2.4873 0.9761
5.1233 2.0390 -2.4881 0.9761
4.1356 3.1188 -2.3372 0.9775
3.1667 4.1032 -2.3387 0.9775
1.5371 4.9553 -2.3410 0.9775
1.0903 5.0738 -2.3416 0.9775
0.6345 5.1520 -2.3422 0.9775
-0.7497 5.1406 -2.3441 0.9775
-3.8523 3.9833 -2.5004 0.9760
-4.1922 3.6252 -2.5007 0.9760
-4.7697 2.8251 -2.5013 0.9760
-5.4569 0.9831 -2.5019 0.9760
-2.6212 -0.4722 -1.2555 0.9883
-2.6596 -1.5753 -1.4571 0.9864
-4.3038 -3.0977 -2.4995 0.9768
-4.0102 -3.4678 -2.4991 0.9768
-1.6809 -5.0205 -2.4957 0.9769
-0.2945 -5.2822 -2.4938 0.9769
0.1767 -5.2861 -2.4931 0.9769
1.5659 -5.0480 -2.4914 0.9769
2.0085 -4.8875 -2.4908 0.9769
2.8421 -4.4521 -2.4898 0.9769
3.2265 -4.1807 -2.4893 0.9769
4.4802 -2.7903 -2.4879 0.9769
4.7103 -2.3802 -2.4877 0.9769
5.0571 -1.5072 -2.4874 0.9769
5.1711 -1.0511 -2.4874 0.9769
5.2441 -0.5866 -2.4874 0.9769
5.2654 0.3525 -2.4875 0.9769
5.2134 0.8198 -2.4877 0.9769
5.1202 1.2807 -2.4879 0.9769
4.9865 1.7315 -2.4882 0.9769
4.8132 2.1687 -2.4885 0.9769
4.6017 2.5889 -2.4889 0.9769
3.5268 3.4877 -2.3381 0.9783
2.4817 4.2984 -2.3396 0.9783
1.6811 4.6726 -2.3408 0.9783
1.2588 4.8049 -2.3413 0.9783
0.8264 4.8991 -2.3419 0.9783
-0.0554 4.9705 -2.3431 0.9783
-0.4977 4.9471 -2.3437 0.9783
-1.3676 4.7828 -2.3448 0.9782
-2.1949 4.4665 -2.3459 0.9782
-2.5842 4.2542 -2.3463 0.9782
-3.0556 4.1472 -2.4282 0.9775
-3.8536 3.6448 -2.5003 0.9768
-4.1633 3.2878 -2.5006 0.9768
-4.4399 2.9045 -2.5009 0.9768
-4.6813 2.4980 -2.5012 0.9768
-4.8854 2.0716 -2.5013 0.9768
-5.2596 0.7074 -2.5016 0.9768
-2.7082 -0.1208 -1.2778 0.9881
-3.8514 -3.6426 -2.4988 0.9768
-3.5112 -3.9701 -2.4983 0.9768
-1.4554 -5.0898 -2.4954 0.9769
-0.5296 -5.2645 -2.4941 0.9769
-0.0589 -5.2894 -2.4935 0.9769
0.4120 -5.2723 -2.4928 0.9769
1.3396 -5.1133 -2.4916 0.9769
2.2240 -4.7926 -2.4905 0.9769
3.0373 -4.3207 -2.4895 0.9769
3.4093 -4.0325 -2.4891 0.9769
3.7540 -3.7124 -2.4887 0.9769
4.0690 -3.3631 -2.4884 0.9769
4.5998 -2.5878 -2.4878 0.9769
4.8115 -2.1680 -2.4876 0.9769
5.1192 -1.2804 -2.4874 0.9769
5.2651 -0.3524 -2.4874 0.9769
5.2446 0.5867 -2.4876 0.9769
5.1720 1.0513 -2.4878 0.9769
4.9047 1.9520 -2.4883 0.9769
4.7121 2.3811 -2.4887 0.9769
3.0314 3.9279 -2.3388 0.9783
2.6704 4.1831 -2.3393 0.9783
2.2880 4.4052 -2.3399 0.9783
1.4714 4.7434 -2.3410 0.9783
0.6074 4.9317 -2.3422 0.9783
-0.2768 4.9637 -2.3434 0.9783
-0.7176 4.9206 -2.3440 0.9783
-1.1530 4.8384 -2.3445 0.9782
-2.7715 4.1353 -2.3466 0.9782
-3.3327 4.1249 -2.4997 0.9768
-3.6872 3.8126 -2.5001 0.9768
-4.0125 3.4697 -2.5005 0.9768
-5.1183 1.4020 -2.5015 0.9768
-2.5903 -0.2315 -1.2791 0.9885
-2.5499 -0.6985 -1.3004 0.9883
-2.5453 -0.9479 -1.3359 0.9880
-4.3728 -2.5900 -2.4997 0.9776
-4.1242 -2.9684 -2.4993 0.9776
-3.5313 -3.6513 -2.4984 0.9776
-3.1916 -3.9503 -2.4979 0.9776
-2.8267 -4.2178 -2.4973 0.9776
-1.6109 -4.8114 -2.4956 0.9776
-1.1759 -4.9345 -2.4950 0.9776
-0.7319 -5.0184 -2.4944 0.9776
0.6195 -5.0298 -2.4926 0.9777
1.0644 -4.9535 -2.4920 0.9777
1.5008 -4.8380 -2.4915 0.9777
3.0924 -4.0070 -2.4895 0.9777
3.4363 -3.7152 -2.4891 0.9777
3.7528 -3.3942 -2.4888 0.9777
4.6995 -1.8704 -2.4878 0.9777
4.8472 -1.4446 -2.4877 0.9777
4.9564 -1.0074 -2.4877 0.9777
5.0264 -0.5623 -2.4877 0.9777
5.0566 -0.1127 -2.4877 0.9777
4.9970 0.7857 -2.4880 0.9777
4.9076 1.2275 -2.4882 0.9777
4.4105 2.4813 -2.4891 0.9777
3.6636 3.0281 -2.3378 0.9790
3.3802 3.3428 -2.3382 0.9790
3.0699 3.6311 -2.3387 0.9790
0.3710 4.7481 -2.3425 0.9790
-0.4769 4.7410 -2.3436 0.9790
-0.8972 4.6808 -2.3442 0.9790
-1.7137 4.4495 -2.3452 0.9790
-2.1034 4.2802 -2.3457 0.9790
-2.4765 4.0768 -2.3461 0.9790
-3.0141 4.0908 -2.4993 0.9776
-3.6928 3.4927 -2.5000 0.9776
-3.9896 3.1505 -2.5004 0.9776
-4.4859 2.3937 -2.5009 0.9776
-4.8398 1.5606 -2.5012 0.9776
-3.0630 0.1366 -1.5081 0.9864
-2.5616 -0.5804 -1.2919 0.9884
-2.5430 -0.8200 -1.3142 0.9882
-2.5301 -1.3501 -1.4105 0.9873
-4.2527 -2.7820 -2.4995 0.9776
-3.3648 -3.8046 -2.4981 0.9776
-3.0121 -4.0881 -2.4976 0.9776
-2.6357 -4.3390 -2.4971 0.9776
-2.2386 -4.5554 -2.4965 0.9776
-1.8238 -4.7354 -2.4959 0.9776
-0.5076 -5.0453 -2.4941 0.9776
-0.0565 -5.0693 -2.4935 0.9777
1.7146 -4.7659 -2.4912 0.9777
2.5314 -4.3846 -2.4902 0.9777
2.9111 -4.1411 -2.4898 0.9777
3.2676 -3.8649 -2.4893 0.9777
3.9000 -3.2234 -2.4886 0.9777
4.1709 -2.8632 -2.4883 0.9777
4.4088 -2.4803 -2.4881 0.9777
4.6117 -2.0779 -2.4879 0.9777
4.9963 -0.7856 -2.4877 0.9777
5.0465 -0.3378 -2.4877 0.9777
5.0268 0.5623 -2.4879 0.9777
4.9572 1.0076 -2.4881 0.9777
4.8483 1.4449 -2.4883 0.9777
4.5164 2.2822 -2.4889 0.9777
4.2959 2.6756 -2.4893 0.9777
3.8713 2.9195 -2.3849 0.9786
3.2282 3.4904 -2.3385 0.9790
2.9054 3.7646 -2.3389 0.9790
2.1928 4.2220 -2.3400 0.9790
1.8088 4.4014 -2.3405 0.9790
1.4102 4.5460 -2.3411 0.9790
0.1592 4.7605 -2.3428 0.9790
-1.5136 4.5209 -2.3450 0.9790
-1.9104 4.3692 -2.3455 0.9790
-2.2963 4.1903 -2.3502 0.9789
-2.7426 4.0923 -2.4230 0.9783
-3.5333 3.6535 -2.4999 0.9776
-3.8450 3.3249 -2.5002 0.9776
-4.3746 2.5911 -2.5008 0.9776
-4.7654 1.7747 -2.5011 0.9776
-3.6334 0.3247 -1.7942 0.9839
-2.4994 -0.6847 -1.3286 0.9884
-2.4895 -0.9271 -1.3619 0.9881
-2.4521 -1.4524 -1.4611 0.9873
-1.5454 -4.6159 -2.4956 0.9784
-1.1282 -4.7341 -2.4950 0.9784
-0.7022 -4.8146 -2.4944 0.9784
0.1625 -4.8605 -2.4933 0.9784
0.5943 -4.8257 -2.4927 0.9784
1.4399 -4.6419 -2.4916 0.9784
2.9671 -3.8446 -2.4897 0.9784
3.2970 -3.5647 -2.4894 0.9784
4.7557 -0.9666 -2.4879 0.9784
4.8228 -0.5395 -2.4879 0.9784
4.8518 -0.1081 -2.4880 0.9784
4.8423 0.3241 -2.4881 0.9784
4.7946 0.7539 -2.4882 0.9784
4.7088 1.1778 -2.4884 0.9784
4.5858 1.5924 -2.4887 0.9784
4.2318 2.3808 -2.4893 0.9784
4.0038 2.7484 -2.4897 0.9784
3.5917 2.9687 -2.3889 0.9793
2.9454 3.4838 -2.3388 0.9797
1.9216 4.1408 -2.3403 0.9797
1.5457 4.2964 -2.3409 0.9797
0.7598 4.5045 -2.3419 0.9797
0.3560 4.5553 -2.3425 0.9797
-0.0509 4.5700 -2.3430 0.9797
-0.8608 4.4906 -2.3441 0.9797
-1.2573 4.3971 -2.3446 0.9797
-1.6440 4.2686 -2.3451 0.9796
-2.4546 4.0407 -2.4238 0.9790
-2.8915 3.9244 -2.4991 0.9783
-3.2298 3.6521 -2.4995 0.9783
-4.7577 1.0780 -2.5010 0.9783
-2.9775 0.1328 -1.5280 0.9867
-2.5877 -0.1154 -1.3280 0.9884
-2.5113 -0.5690 -1.3201 0.9885
-2.4881 -0.8023 -1.3403 0.9883
-2.4879 -1.0550 -1.3854 0.9879
-2.4717 -1.3189 -1.4363 0.9875
-4.0797 -2.6688 -2.4993 0.9783
-3.8254 -3.0208 -2.4989 0.9783
-3.5407 -3.3487 -2.4985 0.9783
-2.8897 -3.9219 -2.4975 0.9783
-1.7497 -4.5430 -2.4959 0.9784
-1.3381 -4.6797 -2.4953 0.9784
-0.9161 -4.7791 -2.4947 0.9784
-0.4870 -4.8405 -2.4941 0.9784
-0.0542 -4.8635 -2.4935 0.9784
0.3788 -4.8479 -2.4930 0.9784
0.8086 -4.7939 -2.4924 0.9784
1.2318 -4.7019 -2.4919 0.9784
1.6451 -4.5726 -2.4913 0.9784
2.0451 -4.4071 -2.4908 0.9784
3.4523 -3.4140 -2.4892 0.9784
3.7420 -3.0928 -2.4889 0.9784
4.0020 -2.7472 -2.4886 0.9784
4.2302 -2.3799 -2.4884 0.9784
4.4249 -1.9938 -2.4882 0.9784
4.5846 -1.5919 -2.4880 0.9784
4.7079 -1.1775 -2.4880 0.9784
4.7940 -0.7538 -2.4879 0.9784
4.8421 -0.3241 -2.4880 0.9784
4.6519 1.3864 -2.4886 0.9784
4.5105 1.7952 -2.4888 0.9784
4.3334 2.1898 -2.4891 0.9784
4.1219 2.5671 -2.4895 0.9784
3.8533 2.9059 -2.4742 0.9785
3.3824 3.0593 -2.3382 0.9797
3.0974 3.3488 -2.3386 0.9797
1.7354 4.2228 -2.3406 0.9797
1.3530 4.3615 -2.3411 0.9797
0.9596 4.4656 -2.3417 0.9797
0.1527 4.5672 -2.3428 0.9797
-0.2545 4.5637 -2.3433 0.9797
-1.4521 4.3371 -2.3448 0.9797
-1.8327 4.1915 -2.3453 0.9796
-3.0637 3.7920 -2.4993 0.9783
-3.3896 3.5048 -2.4996 0.9783
-3.6886 3.1896 -2.5000 0.9783
-3.9583 2.8490 -2.5003 0.9783
-4.1966 2.4856 -2.5005 0.9783
-4.4015 2.1024 -2.5007 0.9783
-4.7050 1.2888 -2.5009 0.9783
-4.8011 0.8650 -2.5010 0.9783
-3.5463 0.3169 -1.8254 0.9841
-2.6714 0.0000 -1.4261 0.9880
-2.4501 -0.6711 -1.3561 0.9885
-2.4352 -0.9069 -1.3872 0.9883
-3.2531 -3.3637 -2.4981 0.9790
-2.9403 -3.6392 -2.4976 0.9790
-1.8732 -4.2840 -2.4961 0.9790
-1.4841 -4.4328 -2.4955 0.9790
-0.2601 -4.6642 -2.4939 0.9790
0.5708 -4.6344 -2.4928 0.9790
1.3829 -4.4579 -2.4917 0.9791
1.7738 -4.3163 -2.4912 0.9791
2.1505 -4.1405 -2.4908 0.9791
2.5101 -3.9320 -2.4903 0.9791
3.7224 -2.8072 -2.4889 0.9791
4.1605 -2.1024 -2.4885 0.9791
4.5675 -0.9284 -2.4882 0.9791
4.6320 -0.5182 -2.4882 0.9791
4.6598 -0.1038 -2.4882 0.9791
4.4043 1.5293 -2.4889 0.9791
4.2512 1.9155 -2.4892 0.9791
3.8452 2.6396 -2.4899 0.9791
3.5753 2.9551 -2.4762 0.9792
2.1916 3.7959 -2.3399 0.9803
-0.4394 4.3678 -2.3435 0.9803
-0.8266 4.3123 -2.3440 0.9803
-1.2074 4.2225 -2.3445 0.9803
-1.5787 4.0991 -2.3450 0.9803
-2.4298 4.0000 -2.4985 0.9790
-3.6751 2.9022 -2.4999 0.9790
-3.9192 2.5638 -2.5002 0.9790
-4.3123 1.8286 -2.5005 0.9790
-4.5686 1.0351 -2.5007 0.9790
-4.6426 0.6244 -2.5007 0.9790
-2.8952 0.1291 -1.5471 0.9869
-2.4861 -0.3344 -1.3391 0.9887
-2.4621 -0.5578 -1.3477 0.9886
-2.4353 -0.7853 -1.3660 0.9885
-2.4322 -1.5911 -1.5516 0.9869
-3.6734 -2.9008 -2.4987 0.9790
-3.0998 -3.5049 -2.4979 0.9790
-2.4282 -3.9974 -2.4969 0.9790
-2.0624 -4.1968 -2.4963 0.9790
-1.2850 -4.4940 -2.4952 0.9790
-0.4677 -4.6486 -2.4941 0.9790
-0.0520 -4.6707 -2.4936 0.9790
0.3638 -4.6558 -2.4930 0.9790
1.1830 -4.5156 -2.4920 0.9791
1.5799 -4.3915 -2.4915 0.9791
1.9641 -4.2326 -2.4910 0.9791
2.3327 -4.0403 -2.4905 0.9791
3.8436 -2.6384 -2.4888 0.9791
4.6505 -0.3113 -2.4882 0.9791
4.6599 0.1039 -2.4883 0.9791
4.5682 0.9285 -2.4886 0.9791
4.3320 1.7241 -2.4890 0.9791
4.1619 2.1031 -2.4893 0.9791
3.9587 2.4655 -2.4897 0.9791
3.3316 3.0133 -2.3981 0.9798
2.9747 3.2162 -2.3387 0.9803
2.6771 3.4689 -2.3392 0.9803
1.6666 4.0554 -2.3406 0.9803
0.5363 4.3545 -2.3422 0.9803
-0.2444 4.3826 -2.3432 0.9803
-2.6058 3.8881 -2.4987 0.9790
-2.9420 3.6413 -2.4991 0.9790
-4.2265 2.0188 -2.5005 0.9790
-4.3896 1.6347 -2.5006 0.9790
-3.5314 0.3156 -1.8927 0.9841
-2.5975 -0.0000 -1.4427 0.9882
-2.4244 -0.4368 -1.3681 0.9888
-2.3823 -0.8872 -1.4119 0.9884
-2.3733 -1.1337 -1.4608 0.9880
-2.3176 -1.3727 -1.4960 0.9878
-3.6516 -2.6282 -2.4988 0.9796
-3.4026 -2.9423 -2.4984 0.9796
-3.1267 -3.2330 -2.4979 0.9796
-2.5030 -3.7347 -2.4970 0.9796
-2.1602 -3.9419 -2.4965 0.9796
-1.8004 -4.1177 -2.4960 0.9796
-1.0414 -4.3698 -2.4949 0.9797
-0.6482 -4.4442 -2.4944 0.9797
-0.2500 -4.4833 -2.4939 0.9797
0.1500 -4.4868 -2.4933 0.9797
0.9428 -4.3873 -2.4923 0.9797
1.7051 -4.1490 -2.4913 0.9797
2.4129 -3.7796 -2.4905 0.9797
3.3243 -3.0066 -2.4894 0.9797
3.5783 -2.6985 -2.4892 0.9797
3.8039 -2.3691 -2.4889 0.9797
3.9994 -2.0210 -2.4887 0.9797
4.4266 0.6960 -2.4887 0.9797
4.3474 1.0874 -2.4889 0.9797
4.2337 1.4701 -2.4891 0.9797
3.9069 2.1980 -2.4897 0.9797
3.6963 2.5373 -2.4901 0.9797
2.4225 3.4461 -2.3395 0.9809
2.1066 3.6487 -2.3400 0.9809
1.4269 3.9661 -2.3409 0.9809
1.0684 4.0782 -2.3414 0.9809
0.7014 4.1580 -2.3419 0.9809
0.3286 4.2048 -2.3425 0.9809
-0.4223 4.1982 -2.3434 0.9809
-1.1605 4.0585 -2.3444 0.9809
-1.5174 3.9398 -2.3448 0.9809
-3.7668 2.4641 -2.4999 0.9796
-3.9715 2.1192 -2.5001 0.9796
-4.1446 1.7575 -2.5003 0.9796
-4.3908 0.9949 -2.5005 0.9796
-2.5020 0.1116 -1.3910 0.9886
-2.4351 -0.3275 -1.3646 0.9888
-2.4139 -0.5469 -1.3747 0.9887
-2.3870 -0.7697 -1.3929 0.9886
-2.3793 -1.0089 -1.4353 0.9882
-3.5306 -2.7881 -2.4986 0.9796
-3.2679 -3.0907 -2.4982 0.9796
-2.9793 -3.3687 -2.4977 0.9796
-2.3339 -3.8422 -2.4968 0.9796
-1.9823 -4.0338 -2.4963 0.9796
-1.6151 -4.1934 -2.4957 0.9796
-0.4495 -4.4682 -2.4941 0.9797
1.8880 -4.0686 -2.4911 0.9797
2.2423 -3.8837 -2.4907 0.9797
2.5786 -3.6681 -2.4903 0.9797
3.6948 -2.5363 -2.4890 0.9797
3.9055 -2.1972 -2.4888 0.9797
4.2327 -1.4697 -2.4885 0.9797
4.3466 -1.0871 -2.4885 0.9797
4.4261 -0.6960 -2.4884 0.9797
4.4795 0.0998 -2.4885 0.9797
4.4531 0.4982 -2.4886 0.9797
4.2948 1.2800 -2.4890 0.9797
4.1643 1.6573 -2.4893 0.9797
4.0007 2.0217 -2.4895 0.9797
0.8858 4.1222 -2.3417 0.9809
-0.6090 4.1757 -2.3437 0.9809
-0.9784 4.1058 -2.3442 0.9809
-1.3403 4.0032 -2.3446 0.9809
-1.7130 3.9177 -2.3748 0.9806
-2.1616 3.9444 -2.4981 0.9796
-2.8276 3.4998 -2.4989 0.9796
-3.4042 2.9438 -2.4996 0.9796
-3.6531 2.6294 -2.4998 0.9796
-3.8730 2.2940 -2.5000 0.9796
-4.0621 1.9403 -2.5002 0.9796
-4.2189 1.5712 -2.5004 0.9796
-4.3421 1.1895 -2.5004 0.9796
-2.3780 -0.4284 -1.3951 0.9889
-2.3203 -1.1083 -1.4846 0.9882
-2.2443 -1.3293 -1.5060 0.9880
-2.1928 -1.5783 -1.5599 0.9876
-2.7184 -3.3646 -2.4974 0.9802
-2.4077 -3.5926 -2.4969 0.9802
-2.0780 -3.7919 -2.4964 0.9802
-1.7319 -3.9610 -2.4959 0.9802
-1.3722 -4.0986 -2.4954 0.9802
-1.0018 -4.2036 -2.4949 0.9802
-0.2405 -4.3128 -2.4939 0.9802
0.1443 -4.3162 -2.4934 0.9803
0.9069 -4.2206 -2.4924 0.9803
1.2788 -4.1223 -2.4919 0.9803
1.6403 -3.9914 -2.4915 0.9803
2.9283 -3.1661 -2.4899 0.9803
4.0052 -1.5940 -2.4888 0.9803
4.2838 -0.4792 -2.4887 0.9803
4.3095 -0.0960 -2.4887 0.9803
4.3011 0.2879 -2.4888 0.9803
4.0731 1.4144 -2.4893 0.9803
3.9314 1.7714 -2.4896 0.9803
3.7586 2.1146 -2.4899 0.9803
3.3251 2.7483 -2.4906 0.9803
3.0678 3.0338 -2.4910 0.9803
2.6538 3.1389 -2.3731 0.9812
2.3305 3.3152 -2.3396 0.9815
2.0266 3.5101 -2.3401 0.9815
1.7064 3.6773 -2.3405 0.9815
1.3726 3.8153 -2.3410 0.9814
1.0278 3.9232 -2.3415 0.9814
0.3161 4.0449 -2.3424 0.9814
-0.0452 4.0578 -2.3429 0.9814
-0.4063 4.0385 -2.3434 0.9814
-1.1163 3.9040 -2.3443 0.9814
-1.4921 3.8741 -2.3969 0.9810
-2.8674 3.2422 -2.4989 0.9802
-3.1450 2.9745 -2.4992 0.9802
-3.3976 2.6831 -2.4995 0.9802
-3.9866 1.6905 -2.5001 0.9802
-4.1215 1.3290 -2.5002 0.9802
-4.2235 0.9569 -2.5002 0.9802
-4.2919 0.5772 -2.5003 0.9802
-2.4201 -0.1079 -1.3986 0.9889
-2.3397 -0.7545 -1.4193 0.9887
-2.3269 -0.9867 -1.4592 0.9884
-2.2904 -1.2222 -1.4988 0.9881
-3.3961 -2.6819 -2.4984 0.9802
-3.1434 -2.9730 -2.4980 0.9802
-1.5536 -4.0338 -2.4957 0.9802
-0.8134 -4.2436 -2.4947 0.9802
0.3364 -4.3051 -2.4931 0.9803
0.7181 -4.2572 -2.4926 0.9803
1.0940 -4.1756 -2.4922 0.9803
1.8163 -3.9141 -2.4912 0.9803
2.1571 -3.7362 -2.4908 0.9803
2.7846 -3.2936 -2.4901 0.9803
3.3236 -2.7470 -2.4895 0.9803
