ply
format ascii 1.0
element vertex 1591
property float32 x
property float32 y
property float32 z
property float32 I
end_header
-7.1846 9.7511 -2.3439 0.9519
-9.5025 7.5040 -2.3431 0.9519
-10.1319 6.6280 -2.3430 0.9519
-10.6809 5.6995 -2.3428 0.9519
-11.8688 5.0328 -2.4948 0.9488
-12.8785 0.5743 -2.4947 0.9488
-12.7773 -1.7184 -2.4949 0.9488
-12.5745 -2.8490 -2.4951 0.9488
-12.2720 -3.9572 -2.4953 0.9488
-10.1240 -7.9948 -2.4964 0.9488
-9.3736 -8.8655 -2.4968 0.9488
-7.6556 -10.3903 -2.4976 0.9488
-5.6940 -11.5870 -2.4984 0.9488
-2.4318 -12.6866 -2.4998 0.9487
1.0069 -12.8854 -2.5012 0.9487
2.1501 -12.7469 -2.5016 0.9487
3.2766 -12.5071 -2.5020 0.9487
5.4441 -11.7317 -2.5028 0.9487
7.4400 -10.5836 -2.5035 0.9487
9.9752 -8.2446 -2.5044 0.9486
10.6703 -7.3247 -2.5046 0.9486
11.2806 -6.3464 -2.5048 0.9486
11.8014 -5.3174 -2.5049 0.9486
12.2283 -4.2461 -2.5050 0.9486
12.7877 -2.0108 -2.5050 0.9486
12.9158 -0.8646 -2.5050 0.9486
11.6467 3.4711 -2.3518 0.9517
10.8446 5.4800 -2.3513 0.9517
7.3973 4.6071 -1.6864 0.9651
9.0080 8.1472 -2.3504 0.9517
8.2458 8.9153 -2.3501 0.9517
6.5323 10.2327 -2.3493 0.9517
5.5946 10.7716 -2.3489 0.9518
4.6129 11.2248 -2.3485 0.9518
3.5949 11.5887 -2.3480 0.9518
1.4826 12.0380 -2.3472 0.9518
-1.7495 11.9955 -2.3459 0.9518
-2.8097 11.7901 -2.3455 0.9518
-3.8473 11.4914 -2.3451 0.9518
-8.4187 8.7049 -2.3435 0.9519
-9.8269 7.0730 -2.3430 0.9519
-11.6331 5.5567 -2.4948 0.9488
-12.4332 3.4058 -2.4947 0.9488
-12.8400 1.1474 -2.4947 0.9488
-11.6490 -2.0987 -2.4954 0.9528
-11.4167 -3.1274 -2.4955 0.9528
-11.0940 -4.1314 -2.4957 0.9528
-9.6113 -6.9178 -2.4965 0.9527
-6.5965 -9.8426 -2.4979 0.9527
-5.6951 -10.3923 -2.4983 0.9527
-3.7635 -11.2411 -2.4992 0.9527
-0.6603 -11.8421 -2.5004 0.9527
1.4503 -11.7754 -2.5013 0.9527
5.4719 -10.5353 -2.5028 0.9526
6.3887 -10.0077 -2.5031 0.9526
8.8086 -7.9668 -2.5039 0.9526
9.4835 -7.1518 -2.5041 0.9526
11.6423 -2.3664 -2.5046 0.9526
10.8209 2.7065 -2.3515 0.9554
10.5363 3.6586 -2.3514 0.9554
9.7188 5.4677 -2.3509 0.9554
8.5933 7.1025 -2.3503 0.9554
7.9260 7.8382 -2.3500 0.9555
7.1958 8.5113 -2.3497 0.9555
6.4088 9.1166 -2.3493 0.9555
0.8673 11.0989 -2.3470 0.9555
-0.1240 11.1302 -2.3466 0.9555
-2.0948 10.9283 -2.3458 0.9555
-3.0586 10.6968 -2.3455 0.9555
-3.9980 10.3805 -2.3451 0.9555
-4.9053 9.9821 -2.3448 0.9556
-5.7736 9.5046 -2.3445 0.9556
-6.5958 8.9519 -2.3442 0.9556
-8.0768 7.6390 -2.3437 0.9556
-8.7239 6.8892 -2.3435 0.9556
-10.0585 5.3674 -2.4036 0.9545
-10.8965 4.6205 -2.4952 0.9528
-11.2642 3.6322 -2.4951 0.9528
-11.7296 1.5775 -2.4951 0.9528
-11.8239 -0.5272 -2.4952 0.9528
-11.7306 -1.5776 -2.4953 0.9528
-10.8994 -4.6217 -2.4959 0.9528
-10.4458 -5.5740 -2.4961 0.9528
-9.9093 -6.4824 -2.4964 0.9527
-9.2942 -7.3395 -2.4967 0.9527
-7.8477 -8.8736 -2.4974 0.9527
-2.2322 -11.6454 -2.4998 0.9527
-0.1321 -11.8607 -2.5006 0.9527
3.0076 -11.4798 -2.5019 0.9526
4.0180 -11.1682 -2.5022 0.9526
4.9968 -10.7678 -2.5026 0.9526
6.8286 -9.7138 -2.5032 0.9526
7.6670 -9.0685 -2.5035 0.9526
9.1551 -7.5669 -2.5040 0.9526
9.7930 -6.7226 -2.5042 0.9526
10.3532 -5.8246 -2.5044 0.9526
11.2228 -3.8969 -2.5046 0.9526
11.8537 -0.7935 -2.5046 0.9526
11.8770 0.2647 -2.5045 0.9526
10.6892 3.1858 -2.3514 0.9554
9.9532 5.0296 -2.3510 0.9554
7.3543 4.5803 -1.8265 0.9652
7.5684 8.1829 -2.3499 0.9555
6.8090 8.8227 -2.3495 0.9555
5.9958 9.3923 -2.3491 0.9555
5.1352 9.8871 -2.3488 0.9555
4.2342 10.3032 -2.3484 0.9555
3.2998 10.6374 -2.3480 0.9555
2.3395 10.8871 -2.3476 0.9555
-0.6196 11.1126 -2.3464 0.9555
-1.6060 11.0116 -2.3460 0.9555
-2.5793 10.8232 -2.3457 0.9555
-3.5319 10.5491 -2.3453 0.9555
-5.3448 9.7530 -2.3446 0.9556
-9.5633 5.6644 -2.3433 0.9556
-10.6801 5.1014 -2.4953 0.9528
-11.0914 4.1305 -2.4952 0.9528
-11.6476 2.0984 -2.4951 0.9528
-11.7883 1.0534 -2.4951 0.9528
-10.8905 -0.9732 -2.4956 0.9561
-10.7612 -1.9387 -2.4957 0.9561
-10.2484 -3.8165 -2.4961 0.9561
-9.8688 -4.7140 -2.4963 0.9561
-6.0933 -9.0918 -2.4981 0.9561
-5.2606 -9.5994 -2.4984 0.9561
-4.3860 -10.0311 -2.4988 0.9561
-3.4763 -10.3832 -2.4992 0.9561
-2.5388 -10.6531 -2.4996 0.9561
-1.5807 -10.8385 -2.5000 0.9561
0.3661 -10.9504 -2.5008 0.9560
1.3395 -10.8761 -2.5011 0.9560
2.3026 -10.7152 -2.5015 0.9560
3.2476 -10.4693 -2.5019 0.9560
4.1671 -10.1401 -2.5022 0.9560
6.7004 -8.6819 -2.5031 0.9560
9.3121 -5.7996 -2.5039 0.9560
9.7919 -4.9480 -2.5041 0.9560
10.1938 -4.0570 -2.5042 0.9560
10.5147 -3.1337 -2.5042 0.9560
10.7520 -2.1854 -2.5043 0.9560
10.9038 -1.2197 -2.5042 0.9560
9.7307 3.3789 -2.3511 0.9586
7.0675 4.8515 -1.9566 0.9654
7.9366 6.5597 -2.3501 0.9586
6.6460 7.8610 -2.3495 0.9586
5.1455 8.9122 -2.3488 0.9587
3.4827 9.6804 -2.3481 0.9587
0.8011 10.2518 -2.3470 0.9587
-1.0290 10.2282 -2.3463 0.9587
-3.6931 9.5889 -2.3453 0.9587
-4.5313 9.2209 -2.3450 0.9587
-6.0929 8.2694 -2.3444 0.9587
-6.8041 7.6935 -2.3442 0.9587
-7.4611 7.0568 -2.3440 0.9587
-8.5929 5.6212 -2.3436 0.9587
-9.6467 5.1477 -2.4957 0.9561
-10.4058 3.3554 -2.4955 0.9561
-10.9229 -0.4871 -2.4956 0.9561
-10.8366 -1.4573 -2.4957 0.9561
-10.6645 -2.4162 -2.4958 0.9561
-10.0686 -4.2695 -2.4962 0.9561
-9.6495 -5.1491 -2.4964 0.9561
-9.1538 -5.9882 -2.4966 0.9561
-8.5855 -6.7799 -2.4969 0.9561
-6.4918 -8.8107 -2.4979 0.9561
-3.9351 -10.2173 -2.4990 0.9561
-3.0106 -10.5286 -2.4994 0.9561
-2.0618 -10.7565 -2.4998 0.9561
-1.0964 -10.8990 -2.5002 0.9561
0.8536 -10.9241 -2.5010 0.9560
1.8228 -10.8064 -2.5013 0.9560
4.6150 -9.9450 -2.5024 0.9560
5.4825 -9.4960 -2.5027 0.9560
6.3067 -8.9713 -2.5030 0.9560
7.0809 -8.3753 -2.5032 0.9560
8.4552 -6.9884 -2.5037 0.9560
10.0028 -4.5070 -2.5041 0.9560
10.3646 -3.5989 -2.5042 0.9560
10.9473 -0.7328 -2.5042 0.9560
10.0953 2.0520 -2.3513 0.9586
9.8719 2.9421 -2.3511 0.9586
9.1924 4.6451 -2.3508 0.9586
7.3302 4.5653 -1.9710 0.9652
8.2214 6.2001 -2.3503 0.9586
6.2888 8.1487 -2.3494 0.9586
3.0478 9.8252 -2.3480 0.9587
0.3436 10.2765 -2.3468 0.9587
-1.4835 10.1715 -2.3461 0.9587
-3.2625 9.7445 -2.3455 0.9587
-4.1163 9.4142 -2.3451 0.9587
-6.4549 7.9894 -2.3443 0.9587
-7.1397 7.3824 -2.3441 0.9587
-7.7678 6.7171 -2.3439 0.9587
-10.2461 3.8157 -2.4955 0.9561
-10.7600 1.9385 -2.4954 0.9561
-10.8899 0.9732 -2.4955 0.9561
-10.1539 0.0000 -2.4958 0.9590
-9.5174 -3.5443 -2.4963 0.9590
-8.2451 -5.9344 -2.4970 0.9590
-7.6850 -6.6454 -2.4973 0.9590
-7.0638 -7.3039 -2.4976 0.9590
-3.2281 -9.6418 -2.4993 0.9590
-0.5663 -10.1565 -2.5003 0.9590
0.3400 -10.1681 -2.5007 0.9590
1.2438 -10.0988 -2.5011 0.9590
2.1380 -9.9494 -2.5014 0.9589
3.0155 -9.7209 -2.5017 0.9589
3.8692 -9.4152 -2.5020 0.9589
6.2213 -8.0611 -2.5029 0.9589
8.1319 -6.1326 -2.5035 0.9589
9.4646 -3.7668 -2.5039 0.9589
9.7625 -2.9095 -2.5039 0.9589
9.0347 3.1372 -2.3508 0.9614
8.7189 3.9286 -2.3506 0.9614
8.3339 4.6886 -2.3504 0.9614
7.0456 4.8365 -2.1006 0.9654
7.3691 6.0907 -2.3499 0.9614
6.7970 6.7217 -2.3497 0.9614
5.4961 7.8183 -2.3491 0.9614
4.0217 8.6665 -2.3484 0.9614
3.2339 8.9888 -2.3481 0.9614
1.5885 9.4170 -2.3474 0.9614
-0.9555 9.4980 -2.3464 0.9614
-8.9587 4.7805 -2.4960 0.9590
-9.6638 3.1162 -2.4958 0.9590
-10.0630 1.3534 -2.4958 0.9590
-10.1439 -0.4523 -2.4959 0.9590
-10.0638 -1.3535 -2.4960 0.9590
-9.9039 -2.2439 -2.4961 0.9590
-9.3504 -3.9649 -2.4964 0.9590
-7.3817 -6.9816 -2.4974 0.9590
-5.2770 -8.6871 -2.4984 0.9590
-4.4835 -9.1236 -2.4987 0.9590
-3.6541 -9.4877 -2.4991 0.9590
-1.9146 -9.9882 -2.4998 0.9590
-1.0181 -10.1204 -2.5002 0.9590
1.6926 -10.0341 -2.5012 0.9590
5.0905 -8.8170 -2.5025 0.9589
5.8557 -8.3298 -2.5028 0.9589
6.5745 -7.7763 -2.5030 0.9589
7.2412 -7.1609 -2.5032 0.9589
7.8504 -6.4885 -2.5034 0.9589
8.8775 -4.9944 -2.5037 0.9589
9.2872 -4.1846 -2.5038 0.9589
9.8825 -2.4718 -2.5039 0.9589
10.0633 -1.5824 -2.5039 0.9589
10.1231 1.1325 -2.5038 0.9589
9.1658 2.7317 -2.3509 0.9614
8.8857 3.5364 -2.3507 0.9614
8.5349 4.3129 -2.3505 0.9614
7.6335 5.7567 -2.3501 0.9614
5.8393 7.5662 -2.3492 0.9614
5.1420 8.0548 -2.3489 0.9614
4.4041 8.4794 -2.3486 0.9614
2.0065 9.3376 -2.3476 0.9614
1.1673 9.4778 -2.3472 0.9614
0.3191 9.5427 -2.3469 0.9614
-4.5849 8.3665 -2.3450 0.9615
-5.3108 7.9243 -2.3448 0.9615
-5.9945 7.4195 -2.3445 0.9615
-6.6304 6.8558 -2.3443 0.9615
-8.6065 5.0977 -2.4587 0.9596
-9.5155 3.5436 -2.4958 0.9590
-9.9927 1.8003 -2.4958 0.9590
-10.1134 0.9038 -2.4958 0.9590
-9.4728 0.0000 -2.4961 0.9616
-9.4355 -0.8431 -2.4962 0.9616
-9.1374 -2.5030 -2.4964 0.9616
-8.8789 -3.3065 -2.4966 0.9616
-5.9578 -7.3741 -2.4980 0.9615
-3.0113 -8.9943 -2.4993 0.9615
-2.1991 -9.2278 -2.4996 0.9615
-0.5283 -9.4741 -2.5003 0.9615
0.3171 -9.4848 -2.5006 0.9615
1.1602 -9.4202 -2.5010 0.9615
1.9943 -9.2807 -2.5013 0.9615
2.8128 -9.0675 -2.5016 0.9615
3.6091 -8.7822 -2.5019 0.9615
4.3769 -8.4270 -2.5022 0.9615
5.1101 -8.0048 -2.5024 0.9615
6.4496 -6.9732 -2.5029 0.9615
7.0452 -6.3720 -2.5031 0.9615
7.5849 -5.7201 -2.5033 0.9615
8.4798 -4.2850 -2.5035 0.9615
9.1057 -2.7138 -2.5036 0.9615
9.3112 -1.8926 -2.5037 0.9615
9.4426 -1.0563 -2.5037 0.9615
9.4991 -0.2117 -2.5036 0.9615
9.4799 0.6346 -2.5036 0.9615
13.8248 3.4578 -3.7551 0.9428
7.7735 4.3733 -2.3502 0.9638
6.8736 5.6812 -2.3498 0.9638
3.0166 8.3849 -2.3480 0.9638
1.4818 8.7845 -2.3474 0.9638
0.6939 8.8803 -2.3471 0.9638
-0.0992 8.9056 -2.3468 0.9638
-0.8913 8.8602 -2.3465 0.9638
-2.4476 8.5597 -2.3459 0.9638
-3.9255 7.9882 -2.3453 0.9639
-5.2786 7.1642 -2.3448 0.9639
-5.8948 6.6653 -2.3446 0.9639
-6.4641 6.1137 -2.3444 0.9639
-7.5225 4.9210 -2.3686 0.9635
-8.7213 3.6981 -2.4961 0.9616
-9.0156 2.9072 -2.4961 0.9616
-9.2385 2.0932 -2.4960 0.9616
-9.4633 0.4220 -2.4961 0.9616
-9.4636 -0.4220 -2.4961 0.9616
-9.0171 -2.9076 -2.4965 0.9616
-8.7231 -3.6989 -2.4967 0.9616
-7.4379 -5.8737 -2.4973 0.9616
-4.1824 -8.5109 -2.4988 0.9615
-3.4087 -8.8506 -2.4991 0.9615
-2.6078 -9.1201 -2.4995 0.9615
-0.9497 -9.4405 -2.5001 0.9615
0.7394 -9.4619 -2.5008 0.9615
2.4059 -9.1832 -2.5014 0.9615
3.2141 -8.9337 -2.5018 0.9615
3.9970 -8.6132 -2.5020 0.9615
5.4619 -7.7697 -2.5026 0.9615
6.1323 -7.2534 -2.5028 0.9615
6.7541 -6.6793 -2.5030 0.9615
7.3223 -6.0521 -2.5032 0.9615
8.2803 -4.6584 -2.5035 0.9615
8.6624 -3.9031 -2.5036 0.9615
9.4803 -0.6346 -2.5036 0.9615
9.4989 0.2117 -2.5036 0.9615
9.4421 1.0563 -2.5035 0.9615
13.9656 2.8386 -3.7552 0.9428
8.2880 3.2986 -2.3505 0.9638
7.9609 4.0228 -2.3503 0.9638
7.2819 4.5352 -2.2605 0.9651
7.1202 5.3696 -2.3499 0.9638
6.6133 5.9814 -2.3496 0.9638
5.4468 7.0576 -2.3491 0.9638
4.7964 7.5135 -2.3488 0.9638
2.6399 8.5103 -2.3479 0.9638
1.8717 8.7104 -2.3476 0.9638
0.2976 8.9018 -2.3469 0.9638
-0.4958 8.8917 -2.3466 0.9638
-2.0639 8.6607 -2.3460 0.9638
-2.8263 8.4416 -2.3457 0.9638
-3.5660 8.1556 -2.3455 0.9638
-4.2772 7.8050 -2.3452 0.9639
-5.5922 6.9216 -2.3447 0.9639
-7.2206 5.1971 -2.3442 0.9639
-8.1510 4.8279 -2.4963 0.9616
-8.5480 4.0831 -2.4962 0.9616
-8.8772 3.3059 -2.4961 0.9616
-9.3225 1.6795 -2.4960 0.9616
-9.4351 0.8431 -2.4960 0.9616
-3.9277 -0.3510 -1.1095 0.9837
-3.7284 -0.6717 -1.0659 0.9844
-3.7904 -1.0383 -1.1057 0.9838
-8.3161 -3.0969 -2.4968 0.9638
-8.0080 -3.8251 -2.4969 0.9638
-6.7147 -5.8064 -2.4976 0.9638
-2.8202 -8.4236 -2.4993 0.9638
-2.0595 -8.6422 -2.4996 0.9638
-1.2823 -8.7924 -2.5000 0.9638
-0.4947 -8.8727 -2.5003 0.9637
0.2970 -8.8827 -2.5006 0.9637
1.0865 -8.8221 -2.5009 0.9637
3.3799 -8.2244 -2.5018 0.9637
4.0989 -7.8918 -2.5020 0.9637
5.4342 -7.0413 -2.5025 0.9637
6.0399 -6.5302 -2.5027 0.9637
7.1029 -5.3566 -2.5030 0.9637
7.5519 -4.7034 -2.5032 0.9637
7.9409 -4.0127 -2.5033 0.9637
8.2668 -3.2901 -2.5034 0.9637
8.8425 -0.9892 -2.5034 0.9637
8.8953 -0.1982 -2.5034 0.9637
8.7890 1.3820 -2.5032 0.9637
7.8915 2.7402 -2.3504 0.9659
7.6158 3.4316 -2.3502 0.9659
7.2796 4.0954 -2.3500 0.9659
6.8856 4.7267 -2.3498 0.9659
5.9373 5.8715 -2.3494 0.9659
4.8011 6.8297 -2.3489 0.9659
3.5133 7.5709 -2.3483 0.9659
2.8251 7.8526 -2.3480 0.9659
2.1147 8.0718 -2.3477 0.9659
-0.0929 8.3406 -2.3468 0.9659
-0.8348 8.2982 -2.3465 0.9659
-2.9964 7.7800 -2.3457 0.9659
-7.4256 4.8576 -2.4966 0.9638
-7.8281 4.1772 -2.4964 0.9638
-8.1685 3.4638 -2.4964 0.9638
-8.4442 2.7229 -2.4963 0.9638
-8.7931 1.1826 -2.4963 0.9638
-8.8636 0.3953 -2.4963 0.9638
-8.4455 -2.7233 -2.4967 0.9638
-8.1702 -3.4644 -2.4969 0.9638
-7.4276 -4.8589 -2.4972 0.9638
-6.9663 -5.5012 -2.4975 0.9638
-5.2671 -7.1485 -2.4983 0.9638
-3.9171 -7.9710 -2.4989 0.9638
-3.1925 -8.2890 -2.4992 0.9638
-1.6726 -8.7260 -2.4998 0.9638
-0.8894 -8.8413 -2.5001 0.9637
-0.0990 -8.8865 -2.5004 0.9637
0.6924 -8.8611 -2.5007 0.9637
2.2531 -8.6001 -2.5013 0.9637
6.3250 -6.2549 -2.5028 0.9637
6.8571 -5.6675 -2.5030 0.9637
7.3347 -5.0350 -2.5031 0.9637
7.7541 -4.3624 -2.5032 0.9637
8.1119 -3.6550 -2.5033 0.9637
8.4052 -2.9186 -2.5034 0.9637
8.6318 -2.1589 -2.5034 0.9637
8.7897 -1.3821 -2.5034 0.9637
13.0780 2.6582 -3.7548 0.9461
8.0060 2.3861 -2.3504 0.9659
7.0896 4.4155 -2.3499 0.9659
4.4918 7.0364 -2.3487 0.9659
3.8473 7.4074 -2.3484 0.9659
1.7529 8.1575 -2.3476 0.9659
-1.9330 8.1114 -2.3461 0.9659
-2.6470 7.9063 -2.3458 0.9659
-3.3398 7.6385 -2.3456 0.9660
-4.0060 7.3101 -2.3453 0.9660
-5.2377 6.4828 -2.3449 0.9660
-7.6344 4.5219 -2.4965 0.9638
-8.3146 3.0964 -2.4963 0.9638
-8.5571 2.3440 -2.4963 0.9638
-8.7317 1.5731 -2.4963 0.9638
-3.4798 -0.6269 -1.0586 0.9853
-6.7708 -4.8733 -2.4975 0.9658
-4.0112 -7.3194 -2.4988 0.9658
-3.3442 -7.6483 -2.4991 0.9657
-0.4649 -8.3385 -2.5003 0.9657
1.0211 -8.2907 -2.5008 0.9657
3.8519 -7.4162 -2.5019 0.9657
5.1067 -6.6170 -2.5023 0.9657
5.6758 -6.1366 -2.5025 0.9657
6.1999 -5.6075 -2.5027 0.9657
6.6748 -5.0337 -2.5028 0.9657
7.0967 -4.4198 -2.5030 0.9657
7.4622 -3.7708 -2.5031 0.9657
8.3591 -0.1863 -2.5032 0.9657
8.3423 0.5585 -2.5031 0.9657
8.2592 1.2987 -2.5030 0.9657
7.1568 3.2247 -2.3500 0.9678
6.8409 3.8487 -2.3499 0.9678
6.0491 4.9997 -2.3495 0.9678
5.5795 5.5177 -2.3493 0.9678
5.0658 5.9918 -2.3490 0.9678
3.3017 7.1149 -2.3482 0.9678
2.6550 7.3797 -2.3480 0.9678
1.9874 7.5858 -2.3477 0.9678
1.3042 7.7316 -2.3474 0.9678
-3.4554 7.0316 -2.3456 0.9678
-4.0672 6.6955 -2.3454 0.9678
-4.6466 6.3064 -2.3452 0.9678
-5.6903 5.3819 -2.3448 0.9678
-6.1463 4.8537 -2.3447 0.9678
-7.3574 3.9261 -2.4967 0.9658
-7.6774 3.2555 -2.4966 0.9658
-8.1327 1.8427 -2.4965 0.9658
-6.9809 -4.5667 -2.4974 0.9658
-6.5473 -5.1703 -2.4976 0.9658
-6.0617 -5.7331 -2.4979 0.9658
-4.9501 -6.7184 -2.4984 0.9658
-4.3330 -7.1331 -2.4986 0.9658
-3.6813 -7.4913 -2.4989 0.9657
-3.0003 -7.7901 -2.4992 0.9657
-2.2953 -8.0272 -2.4995 0.9657
-1.5719 -8.2006 -2.4998 0.9657
-0.0930 -8.3514 -2.5004 0.9657
0.6507 -8.3275 -2.5007 0.9657
1.3895 -8.2375 -2.5010 0.9657
3.5176 -7.5801 -2.5018 0.9657
4.8067 -6.8376 -2.5022 0.9657
5.3966 -6.3831 -2.5024 0.9657
6.8926 -4.7314 -2.5029 0.9657
8.1114 -2.0288 -2.5032 0.9657
8.3426 -0.5585 -2.5032 0.9657
8.3090 0.9295 -2.5031 0.9657
12.0180 3.5817 -3.7543 0.9490
7.2936 2.9028 -2.3501 0.9678
7.0058 3.5402 -2.3500 0.9678
6.6624 4.1494 -2.3498 0.9678
6.2661 4.7255 -2.3496 0.9678
5.8201 5.2639 -2.3494 0.9678
5.3279 5.7605 -2.3491 0.9678
4.7936 6.2112 -2.3489 0.9678
3.6156 6.9612 -2.3484 0.9678
2.9813 7.2545 -2.3481 0.9678
2.3235 7.4902 -2.3478 0.9678
-0.4364 7.8264 -2.3467 0.9678
-2.4878 7.4306 -2.3459 0.9678
-3.1389 7.1789 -2.3457 0.9678
-4.9227 6.0929 -2.3451 0.9678
-5.9242 5.1229 -2.3447 0.9678
-6.5892 4.7427 -2.4305 0.9667
-7.1754 4.2500 -2.4967 0.9658
-7.8147 2.9103 -2.4965 0.9658
-8.0426 2.2031 -2.4965 0.9658
-8.2067 1.4785 -2.4965 0.9658
-3.3867 -0.3026 -1.0798 0.9858
-3.2843 -0.5917 -1.0598 0.9861
-3.2540 -0.8914 -1.0715 0.9859
-7.0954 -3.3892 -2.4973 0.9675
-5.9493 -5.1445 -2.4979 0.9675
-4.3800 -6.5354 -2.4986 0.9675
-3.7813 -6.9000 -2.4988 0.9675
-3.1525 -7.2100 -2.4991 0.9675
-1.8246 -7.6564 -2.4997 0.9675
-1.1360 -7.7894 -2.4999 0.9675
-0.4383 -7.8604 -2.5002 0.9675
0.2631 -7.8691 -2.5005 0.9675
0.9626 -7.8153 -2.5008 0.9675
2.9941 -7.2855 -2.5015 0.9675
3.6309 -6.9908 -2.5018 0.9675
4.2391 -6.6404 -2.5020 0.9675
6.2918 -4.7448 -2.5027 0.9675
6.6894 -4.1662 -2.5028 0.9675
7.0339 -3.5544 -2.5029 0.9675
7.3226 -2.9143 -2.5030 0.9675
7.5530 -2.2510 -2.5030 0.9675
7.8325 -0.8762 -2.5030 0.9675
7.8635 0.5264 -2.5029 0.9675
7.7852 1.2242 -2.5028 0.9675
11.1664 3.8774 -3.7540 0.9516
6.0994 4.1870 -2.3496 0.9694
5.2595 5.2012 -2.3492 0.9694
4.7752 5.6482 -2.3489 0.9694
3.6974 6.4040 -2.3485 0.9694
3.1124 6.7070 -2.3482 0.9694
2.5028 6.9566 -2.3479 0.9694
1.8735 7.1509 -2.3477 0.9695
1.2294 7.2885 -2.3474 0.9695
0.5758 7.3681 -2.3471 0.9695
-0.0823 7.3894 -2.3469 0.9695
-0.7396 7.3519 -2.3466 0.9695
-1.3909 7.2561 -2.3464 0.9695
-3.2575 6.6289 -2.3457 0.9695
-5.3645 5.0737 -2.3450 0.9695
-5.8541 4.6229 -2.3690 0.9692
-6.5795 4.3041 -2.4969 0.9675
-7.7913 1.0478 -2.4967 0.9675
-4.3818 0.1954 -1.3930 0.9818
-3.4557 -0.1541 -1.0986 0.9856
-3.2591 -0.7384 -1.0613 0.9861
-7.2392 -3.0697 -2.4972 0.9675
-6.9377 -3.7020 -2.4974 0.9675
-6.1723 -4.8742 -2.4977 0.9675
-5.7145 -5.4047 -2.4980 0.9675
-4.0847 -6.7244 -2.4987 0.9675
-2.8284 -7.3437 -2.4992 0.9675
-2.1638 -7.5671 -2.4995 0.9675
-1.4818 -7.7305 -2.4998 0.9675
-0.7880 -7.8327 -2.5001 0.9675
-0.0877 -7.8726 -2.5004 0.9675
0.6134 -7.8500 -2.5006 0.9675
1.9960 -7.6185 -2.5012 0.9675
3.3158 -7.1453 -2.5017 0.9675
3.9389 -6.8224 -2.5019 0.9675
4.5309 -6.4453 -2.5021 0.9675
5.0870 -6.0169 -2.5023 0.9675
7.1854 -3.2376 -2.5029 0.9675
7.7858 -1.2242 -2.5030 0.9675
7.8793 0.1756 -2.5030 0.9675
7.7228 1.5697 -2.5028 0.9675
6.6038 3.3370 -2.3498 0.9694
6.2801 3.9113 -2.3497 0.9694
5.4862 4.9620 -2.3493 0.9694
5.0223 5.4301 -2.3490 0.9694
3.4082 6.5620 -2.3483 0.9694
2.8104 6.8386 -2.3481 0.9694
2.1903 7.0608 -2.3478 0.9694
1.5530 7.2269 -2.3475 0.9695
0.2469 7.3861 -2.3470 0.9695
-1.0663 7.3112 -2.3465 0.9695
-1.7126 7.1866 -2.3463 0.9695
-2.3452 7.0049 -2.3460 0.9695
-2.9591 6.7677 -2.3458 0.9695
-4.1115 6.1347 -2.3454 0.9695
-4.6408 5.7440 -2.3452 0.9695
-5.1333 5.3078 -2.3450 0.9695
-5.5850 4.8296 -2.3449 0.9695
-6.3814 4.5930 -2.4970 0.9675
-6.7646 4.0067 -2.4969 0.9675
-7.0941 3.3886 -2.4968 0.9675
-7.3673 2.7437 -2.4967 0.9675
-7.5822 2.0770 -2.4967 0.9675
-3.6184 -0.0000 -1.2157 0.9848
-6.9654 -2.5939 -2.4973 0.9691
-6.3959 -3.7883 -2.4976 0.9691
-5.6238 -4.8631 -2.4980 0.9691
-5.1691 -5.3448 -2.4982 0.9691
-4.1403 -6.1777 -2.4986 0.9691
-3.5744 -6.5224 -2.4989 0.9691
-2.9799 -6.8153 -2.4991 0.9691
-1.0738 -7.3628 -2.4999 0.9691
2.2056 -7.1103 -2.5012 0.9691
2.8300 -6.8863 -2.5015 0.9691
3.4320 -6.6077 -2.5017 0.9691
4.0068 -6.2765 -2.5019 0.9691
4.5499 -5.8954 -2.5021 0.9691
5.0569 -5.4675 -2.5022 0.9691
5.5238 -4.9960 -2.5024 0.9691
5.9469 -4.4847 -2.5025 0.9691
6.3227 -3.9378 -2.5026 0.9691
6.9211 -2.7546 -2.5028 0.9691
7.1390 -2.1276 -2.5028 0.9691
7.3001 -1.4838 -2.5028 0.9691
7.4324 0.4975 -2.5028 0.9691
7.3584 1.1570 -2.5027 0.9691
10.5543 3.6649 -3.7538 0.9539
6.3763 2.8731 -2.3498 0.9709
6.0949 3.4289 -2.3496 0.9709
5.7651 3.9575 -2.3494 0.9709
5.3896 4.4546 -2.3493 0.9709
4.9713 4.9162 -2.3491 0.9709
4.5136 5.3387 -2.3489 0.9709
4.0201 5.7187 -2.3486 0.9709
2.9419 6.3396 -2.3482 0.9709
1.7709 6.7594 -2.3477 0.9709
1.1621 6.8894 -2.3474 0.9709
0.5442 6.9648 -2.3472 0.9710
-0.6991 6.9495 -2.3467 0.9710
-1.3147 6.8589 -2.3464 0.9710
-1.9198 6.7140 -2.3462 0.9710
-2.5095 6.5159 -2.3460 0.9710
-4.1408 5.6200 -2.3454 0.9710
-4.6243 5.2288 -2.3452 0.9710
-5.8167 4.5934 -2.4902 0.9692
-6.5568 3.4988 -2.4970 0.9691
-6.8420 2.9013 -2.4969 0.9691
-7.2478 1.6421 -2.4969 0.9691
-7.3652 0.9905 -2.4969 0.9691
-3.2675 -0.1457 -1.0989 0.9863
-3.1639 -0.4255 -1.0726 0.9866
-6.8431 -2.9017 -2.4973 0.9691
-6.5581 -3.4995 -2.4975 0.9691
-4.9261 -5.5700 -2.4983 0.9691
-4.4112 -5.9869 -2.4985 0.9691
-2.6735 -6.9416 -2.4993 0.9691
-2.0453 -7.1528 -2.4995 0.9691
-1.4007 -7.3072 -2.4998 0.9691
-0.0829 -7.4414 -2.5003 0.9691
0.5798 -7.4200 -2.5006 0.9691
2.5203 -7.0053 -2.5013 0.9691
4.2826 -6.0920 -2.5020 0.9691
4.8082 -5.6871 -2.5022 0.9691
5.7410 -4.7451 -2.5025 0.9691
6.1409 -4.2155 -2.5026 0.9691
6.4920 -3.6523 -2.5027 0.9691
6.7915 -3.0601 -2.5028 0.9691
7.0371 -2.4435 -2.5028 0.9691
7.2267 -1.8075 -2.5028 0.9691
7.3589 -1.1571 -2.5028 0.9691
7.4326 -0.4975 -2.5028 0.9691
7.2995 1.4837 -2.5026 0.9691
10.7074 3.1911 -3.7539 0.9539
6.4982 2.5862 -2.3498 0.9709
5.9359 3.6969 -2.3495 0.9709
2.6564 6.4640 -2.3480 0.9709
2.0703 6.6741 -2.3478 0.9709
1.4679 6.8312 -2.3475 0.9709
-1.0079 6.9111 -2.3466 0.9710
-1.6189 6.7932 -2.3463 0.9710
-2.2169 6.6215 -2.3461 0.9710
-3.8865 5.7991 -2.3455 0.9710
-4.3869 5.4298 -2.3453 0.9710
-5.2795 4.5654 -2.3450 0.9710
-6.3946 3.7875 -2.4970 0.9691
-6.9644 2.5936 -2.4969 0.9691
-7.4020 0.6614 -2.4969 0.9691
-3.4902 -0.0000 -1.2376 0.9853
-3.0442 -0.5485 -1.0968 0.9870
-3.0229 -0.8281 -1.1114 0.9868
-3.0314 -1.1289 -1.1470 0.9864
-6.0606 -3.5897 -2.4977 0.9705
-5.7175 -4.1152 -2.4979 0.9705
-4.8980 -5.0645 -2.4983 0.9705
-4.4282 -5.4809 -2.4985 0.9705
-3.9232 -5.8538 -2.4987 0.9705
-1.6342 -6.8575 -2.4997 0.9705
-1.0175 -6.9765 -2.4999 0.9705
-0.3926 -7.0401 -2.5002 0.9705
0.2356 -7.0478 -2.5004 0.9705
0.8621 -6.9995 -2.5007 0.9705
1.4818 -6.8956 -2.5009 0.9705
2.0898 -6.7370 -2.5012 0.9705
4.7914 -5.1803 -2.5021 0.9705
5.2337 -4.7336 -2.5023 0.9705
5.6345 -4.2492 -2.5024 0.9705
5.9906 -3.7310 -2.5025 0.9705
6.2991 -3.1831 -2.5026 0.9705
6.9166 -1.4058 -2.5027 0.9705
7.0143 -0.7846 -2.5027 0.9705
7.0562 -0.1572 -2.5026 0.9705
7.0420 0.4714 -2.5026 0.9705
6.9719 1.0963 -2.5025 0.9705
6.8464 1.7124 -2.5024 0.9705
6.0415 2.7222 -2.3496 0.9723
3.3114 5.7355 -2.3483 0.9723
1.1011 6.5279 -2.3474 0.9723
0.5157 6.5994 -2.3472 0.9723
-0.0737 6.6184 -2.3469 0.9723
-0.6624 6.5850 -2.3467 0.9723
-1.2458 6.4993 -2.3465 0.9723
-2.3780 6.1742 -2.3461 0.9723
-2.9178 5.9376 -2.3459 0.9723
-3.9237 5.3254 -2.3455 0.9723
-4.3819 4.9547 -2.3454 0.9723
-4.8052 4.5447 -2.3452 0.9723
-5.5273 4.3649 -2.4973 0.9706
-5.8936 3.8554 -2.4972 0.9706
-6.2132 3.3155 -2.4971 0.9706
-6.9792 0.9386 -2.4970 0.9706
-3.0241 -0.6852 -1.0995 0.9869
-3.0191 -0.9735 -1.1248 0.9866
-6.4844 -2.7496 -2.4975 0.9706
-6.2143 -3.3161 -2.4976 0.9705
-5.8949 -3.8563 -2.4978 0.9705
-5.5287 -4.3660 -2.4980 0.9705
-4.1798 -5.6729 -2.4986 0.9705
-3.6587 -6.0230 -2.4988 0.9705
-3.1084 -6.3253 -2.4991 0.9705
-1.9380 -6.7776 -2.4996 0.9705
-1.3272 -6.9239 -2.4998 0.9705
-0.7057 -7.0152 -2.5001 0.9705
-0.0785 -7.0509 -2.5003 0.9705
2.9695 -6.3992 -2.5015 0.9705
3.5276 -6.1099 -2.5017 0.9705
4.5557 -5.3885 -2.5020 0.9705
6.8471 -1.7126 -2.5027 0.9705
6.9724 -1.0963 -2.5027 0.9705
7.0422 -0.4714 -2.5027 0.9705
7.0561 0.1572 -2.5026 0.9705
7.0140 0.7846 -2.5026 0.9705
6.9161 1.4058 -2.5025 0.9705
9.8352 3.9143 -3.7535 0.9561
5.6242 3.5028 -2.3494 0.9723
5.2898 3.9892 -2.3493 0.9723
4.9133 4.4439 -2.3491 0.9723
3.5638 5.5826 -2.3485 0.9723
0.8092 6.5702 -2.3473 0.9723
0.2212 6.6155 -2.3471 0.9723
-0.3685 6.6082 -2.3468 0.9723
-1.5340 6.4370 -2.3464 0.9723
-2.6505 6.0619 -2.3460 0.9723
-3.6828 5.4951 -2.3456 0.9723
-4.5981 4.7544 -2.3453 0.9723
-5.1955 4.4928 -2.4355 0.9713
-6.0594 3.5890 -2.4972 0.9706
-6.7919 1.8605 -2.4970 0.9706
-6.9305 1.2486 -2.4970 0.9706
-2.9455 -0.5306 -1.1176 0.9873
-2.9238 -1.0889 -1.1650 0.9868
-5.0604 -4.3759 -2.4982 0.9718
-3.2162 -5.8688 -2.4990 0.9718
-2.6813 -6.1324 -2.4992 0.9718
-2.1251 -6.3473 -2.4995 0.9718
-1.5518 -6.5119 -2.4997 0.9718
-0.9662 -6.6247 -2.4999 0.9718
-0.3728 -6.6851 -2.5002 0.9718
0.2238 -6.6924 -2.5004 0.9718
1.9844 -6.3972 -2.5011 0.9718
2.5462 -6.1957 -2.5013 0.9718
4.5496 -4.9189 -2.5020 0.9718
6.2267 -2.4782 -2.5025 0.9718
6.5675 -1.3349 -2.5025 0.9718
6.6603 -0.7451 -2.5025 0.9718
6.6867 0.4476 -2.5025 0.9718
6.6201 1.0410 -2.5024 0.9718
6.5009 1.6260 -2.5023 0.9718
9.4954 3.2972 -3.7534 0.9580
9.1638 4.1290 -3.7532 0.9580
5.4835 3.0850 -2.3494 0.9735
5.1868 3.5606 -2.3492 0.9735
4.4727 4.4231 -2.3489 0.9735
4.0609 4.8033 -2.3487 0.9735
3.6170 5.1452 -2.3485 0.9735
2.6469 5.7040 -2.3481 0.9735
2.1285 5.9164 -2.3479 0.9735
1.0456 6.1989 -2.3474 0.9735
0.4897 6.2667 -2.3472 0.9735
-0.0700 6.2848 -2.3470 0.9735
-0.6291 6.2531 -2.3467 0.9735
-1.1830 6.1717 -2.3465 0.9735
-2.2581 5.8632 -2.3461 0.9735
-2.7708 5.6384 -2.3459 0.9735
-3.7261 5.0571 -2.3456 0.9735
-5.9003 3.1485 -2.4973 0.9718
-6.1569 2.6108 -2.4972 0.9718
-3.7910 0.1690 -1.4170 0.9839
-6.1578 -2.6112 -2.4976 0.9718
-5.9013 -3.1490 -2.4977 0.9718
-5.5980 -3.6620 -2.4979 0.9718
-4.4326 -5.0120 -2.4984 0.9718
-3.9692 -5.3871 -2.4987 0.9718
-2.9517 -6.0065 -2.4991 0.9718
-2.4056 -6.2460 -2.4993 0.9718
-1.2603 -6.5748 -2.4998 0.9718
-0.6702 -6.6615 -2.5001 0.9718
-0.0746 -6.6953 -2.5003 0.9718
0.5217 -6.6761 -2.5005 0.9718
1.1139 -6.6037 -2.5008 0.9718
2.8198 -6.0764 -2.5014 0.9718
3.3497 -5.8017 -2.5016 0.9718
3.8530 -5.4810 -2.5018 0.9718
4.3258 -5.1166 -2.5019 0.9718
4.7643 -4.7115 -2.5021 0.9718
5.1650 -4.2690 -2.5022 0.9718
5.8406 -3.2859 -2.5024 0.9718
6.1100 -2.7530 -2.5025 0.9718
6.3309 -2.1983 -2.5025 0.9718
6.5015 -1.6261 -2.5025 0.9718
6.6205 -1.0410 -2.5025 0.9718
6.6868 -0.4476 -2.5025 0.9718
6.7000 0.1493 -2.5025 0.9718
6.6600 0.7450 -2.5024 0.9718
5.6156 2.8377 -2.3495 0.9735
5.3405 3.3261 -2.3493 0.9735
5.0229 3.7879 -2.3492 0.9735
4.2710 4.6178 -2.3488 0.9735
2.8985 5.5807 -2.3482 0.9735
2.3901 5.8160 -2.3480 0.9735
1.8628 6.0050 -2.3478 0.9735
1.3208 6.1464 -2.3475 0.9735
-0.3499 6.2752 -2.3469 0.9735
-2.5170 5.7565 -2.3460 0.9735
-3.0191 5.5092 -2.3459 0.9735
-3.4972 5.2183 -2.3457 0.9735
-5.0592 4.3749 -2.4975 0.9718
-5.7542 3.4083 -2.4973 0.9718
-6.0346 2.8825 -2.4972 0.9718
-3.2641 -0.0000 -1.2811 0.9861
-2.9005 -0.2592 -1.1429 0.9876
-2.8518 -0.5138 -1.1373 0.9876
-2.8313 -0.7756 -1.1521 0.9875
-5.4761 -3.2435 -2.4979 0.9730
-5.1660 -3.7183 -2.4981 0.9730
-4.8149 -4.1636 -2.4982 0.9730
-4.4255 -4.5759 -2.4984 0.9730
-4.0010 -4.9520 -2.4986 0.9730
-3.0601 -5.5839 -2.4990 0.9730
-0.9193 -6.3030 -2.4999 0.9730
-0.3546 -6.3604 -2.5002 0.9730
1.3387 -6.2298 -2.5008 0.9730
3.4297 -5.3725 -2.5016 0.9730
5.0901 -3.8386 -2.5021 0.9730
5.4118 -3.3705 -2.5022 0.9730
5.9240 -2.3577 -2.5024 0.9730
6.2483 -1.2700 -2.5024 0.9730
6.3365 -0.7088 -2.5024 0.9730
6.3744 -0.1421 -2.5024 0.9730
6.2983 0.9904 -2.5023 0.9730
8.7184 3.9283 -3.7530 0.9597
3.8636 4.5699 -2.3486 0.9746
3.4413 4.8953 -2.3485 0.9746
2.5184 5.4269 -2.3481 0.9746
0.9948 5.8978 -2.3474 0.9746
-0.0666 5.9797 -2.3470 0.9746
-0.5985 5.9495 -2.3468 0.9746
-1.1256 5.8721 -2.3466 0.9746
-2.6363 5.3648 -2.3460 0.9746
-3.5453 4.8117 -2.3457 0.9746
-4.6236 4.3730 -2.4977 0.9730
-4.9943 3.9440 -2.4976 0.9730
-5.3253 3.4837 -2.4975 0.9730
-5.8582 2.4841 -2.4973 0.9730
-3.6456 0.1626 -1.4322 0.9844
-3.0071 -0.1341 -1.1814 0.9871
-2.8326 -0.6418 -1.1399 0.9876
-2.8403 -0.9159 -1.1712 0.9873
-5.6150 -2.9962 -2.4978 0.9730
-4.2174 -4.7687 -2.4985 0.9730
-3.7765 -5.1255 -2.4987 0.9730
-2.8084 -5.7149 -2.4991 0.9730
-2.2888 -5.9427 -2.4994 0.9730
-1.7509 -6.1234 -2.4996 0.9730
-1.1991 -6.2555 -2.4998 0.9730
-0.0710 -6.3702 -2.5003 0.9730
0.4963 -6.3518 -2.5005 0.9730
1.0598 -6.2829 -2.5007 0.9730
1.6150 -6.1642 -2.5009 0.9730
2.1574 -5.9965 -2.5011 0.9730
3.6657 -5.2146 -2.5017 0.9730
4.9140 -4.0615 -2.5021 0.9730
5.8130 -2.6192 -2.5023 0.9730
6.0232 -2.0914 -2.5024 0.9730
6.1855 -1.5471 -2.5024 0.9730
6.2986 -0.9904 -2.5024 0.9730
6.3743 0.1421 -2.5024 0.9730
6.2478 1.2699 -2.5022 0.9730
6.1098 1.8209 -2.5021 0.9730
8.5345 4.3127 -3.7529 0.9597
4.7788 3.6039 -2.3491 0.9746
4.0635 4.3935 -2.3487 0.9746
3.2196 5.0435 -2.3484 0.9746
1.7723 5.7134 -2.3477 0.9746
1.2566 5.8479 -2.3475 0.9746
0.1998 5.9770 -2.3471 0.9746
-0.3329 5.9705 -2.3469 0.9746
-0.8629 5.9166 -2.3467 0.9746
-1.3860 5.8159 -2.3465 0.9746
-2.3948 5.4771 -2.3461 0.9746
-3.3275 4.9650 -2.3458 0.9746
-4.8137 4.1626 -2.4976 0.9730
-5.4751 3.2429 -2.4974 0.9730
-5.7418 2.7427 -2.4974 0.9730
-6.2622 1.1282 -2.4973 0.9730
-2.8130 -0.2514 -1.1629 0.9879
-2.7831 -0.5014 -1.1645 0.9878
-2.7695 -0.7587 -1.1825 0.9877
-5.4736 -2.6145 -2.4979 0.9741
-5.2195 -3.0915 -2.4980 0.9741
-4.5892 -3.9685 -2.4983 0.9741
-4.2181 -4.3614 -2.4985 0.9741
-3.3785 -5.0410 -2.4989 0.9741
-2.9166 -5.3221 -2.4991 0.9741
-1.9271 -5.7559 -2.4995 0.9741
-0.3380 -6.0621 -2.5001 0.9741
2.7999 -5.3907 -2.5013 0.9741
3.2688 -5.1204 -2.5015 0.9741
3.7118 -4.8095 -2.5017 0.9741
4.1253 -4.4602 -2.5018 0.9741
4.5062 -4.0755 -2.5019 0.9741
5.1578 -3.2123 -2.5021 0.9741
5.4234 -2.7405 -2.5022 0.9741
5.6459 -2.2470 -2.5022 0.9741
5.8236 -1.7356 -2.5023 0.9741
5.9550 -1.2104 -2.5023 0.9741
6.0391 -0.6756 -2.5023 0.9741
6.0630 0.4059 -2.5022 0.9741
6.0027 0.9439 -2.5022 0.9741
5.8946 1.4744 -2.5021 0.9741
8.3091 3.7439 -3.7529 0.9613
7.9426 4.4684 -3.7527 0.9613
4.7032 3.2286 -2.3491 0.9756
4.0557 4.0108 -2.3488 0.9756
3.2798 4.6656 -2.3484 0.9756
2.8513 4.9386 -2.3482 0.9756
2.4002 5.1723 -2.3480 0.9756
1.9302 5.3650 -2.3478 0.9756
1.4449 5.5150 -2.3476 0.9756
0.9482 5.6212 -2.3474 0.9756
0.4441 5.6829 -2.3472 0.9756
-0.0635 5.6993 -2.3470 0.9756
-1.0728 5.5969 -2.3466 0.9756
-1.5666 5.4787 -2.3464 0.9757
-2.0478 5.3171 -2.3463 0.9757
-2.5128 5.1134 -2.3461 0.9757
-3.3791 4.5862 -2.3458 0.9757
-3.7745 4.2679 -2.3462 0.9757
-4.4069 4.1681 -2.4978 0.9741
-4.7603 3.7591 -2.4977 0.9741
-5.0758 3.3204 -2.4976 0.9741
-5.3510 2.8554 -2.4975 0.9741
-5.7722 1.8613 -2.4974 0.9741
-5.9150 1.3402 -2.4974 0.9741
-2.9337 -0.1308 -1.2092 0.9874
-2.7775 -0.8956 -1.2017 0.9875
-5.3519 -2.8558 -2.4979 0.9741
-5.0767 -3.3210 -2.4981 0.9741
-4.0197 -4.5452 -2.4986 0.9741
-3.1507 -5.1867 -2.4990 0.9741
-2.6767 -5.4470 -2.4992 0.9741
-2.1815 -5.6641 -2.4994 0.9741
-1.1428 -5.9621 -2.4998 0.9741
-0.6077 -6.0408 -2.5000 0.9741
0.4731 -6.0538 -2.5005 0.9741
1.5392 -5.8750 -2.5009 0.9741
2.0561 -5.7151 -2.5011 0.9741
3.0373 -5.2608 -2.5014 0.9741
3.9224 -4.6395 -2.5017 0.9741
4.3200 -4.2721 -2.5019 0.9741
4.6834 -3.8709 -2.5020 0.9741
5.0095 -3.4388 -2.5021 0.9741
5.2959 -2.9794 -2.5022 0.9741
5.7405 -1.9933 -2.5023 0.9741
5.8951 -1.4745 -2.5023 0.9741
6.0030 -0.9439 -2.5023 0.9741
5.8230 1.7355 -2.5020 0.9741
8.1340 4.1103 -3.7528 0.9613
3.8729 4.1873 -2.3487 0.9756
1.1977 5.5737 -2.3475 0.9756
-0.3173 5.6906 -2.3469 0.9756
-2.2826 5.2204 -2.3462 0.9757
-2.7380 4.9962 -2.3460 0.9757
-3.1716 4.7323 -2.3459 0.9757
-3.5800 4.4310 -2.3457 0.9757
-4.1610 4.3025 -2.4647 0.9744
-4.9229 3.5433 -2.4976 0.9741
-5.2185 3.0910 -2.4976 0.9741
-5.8494 1.6023 -2.4974 0.9741
-5.9688 1.0754 -2.4974 0.9741
-2.7092 -0.7421 -1.2117 0.9878
-2.7209 -1.0133 -1.2524 0.9874
-2.7300 -1.3040 -1.3050 0.9869
-2.7884 -1.6516 -1.3980 0.9860
-4.0267 -4.1636 -2.4985 0.9751
-3.2252 -4.8123 -2.4989 0.9751
-0.8364 -5.7348 -2.4999 0.9751
0.7086 -5.7534 -2.5005 0.9751
2.2040 -5.3630 -2.5011 0.9751
3.1203 -4.8879 -2.5014 0.9751
3.5432 -4.5911 -2.5016 0.9751
4.9235 -3.0664 -2.5020 0.9750
5.1770 -2.6161 -2.5021 0.9750
5.3894 -2.1449 -2.5021 0.9750
5.6845 -1.1554 -2.5022 0.9750
5.7647 -0.6449 -2.5022 0.9750
5.7876 0.3875 -2.5021 0.9750
5.7300 0.9010 -2.5020 0.9750
5.4791 1.9026 -2.5019 0.9751
7.9318 3.5739 -3.7527 0.9628
7.5819 4.2654 -3.7525 0.9628
3.8715 3.8287 -2.3487 0.9766
3.1309 4.4538 -2.3484 0.9766
1.8426 5.1215 -2.3478 0.9766
1.3793 5.2647 -2.3476 0.9766
0.9052 5.3662 -2.3474 0.9766
0.4239 5.4249 -2.3472 0.9766
-0.0606 5.4407 -2.3470 0.9766
-0.5446 5.4133 -2.3468 0.9766
-1.0241 5.3429 -2.3467 0.9766
-1.4955 5.2302 -2.3465 0.9766
-1.9549 5.0759 -2.3463 0.9766
-2.3988 4.8814 -2.3461 0.9766
-4.8456 3.1698 -2.4977 0.9751
-5.1083 2.7259 -2.4976 0.9751
-5.3306 2.2604 -2.4976 0.9751
-5.6468 1.2794 -2.4975 0.9751
-5.7382 0.7718 -2.4975 0.9751
-3.3811 0.1508 -1.4599 0.9854
-2.8614 -0.1276 -1.2355 0.9876
-2.7334 -1.1591 -1.2807 0.9871
-4.2081 -3.9799 -2.4985 0.9751
-3.8374 -4.3390 -2.4986 0.9751
-3.4362 -4.6637 -2.4988 0.9751
-3.0077 -4.9514 -2.4990 0.9751
-1.5931 -5.5714 -2.4996 0.9751
0.9642 -5.7163 -2.5006 0.9751
1.4693 -5.6083 -2.5008 0.9751
1.9628 -5.4556 -2.5010 0.9751
2.4408 -5.2597 -2.5012 0.9751
2.8994 -5.0219 -2.5013 0.9751
4.4706 -3.6951 -2.5019 0.9751
4.7820 -3.2826 -2.5020 0.9750
5.0553 -2.8440 -2.5020 0.9750
5.2885 -2.3829 -2.5021 0.9750
5.4797 -1.9028 -2.5021 0.9750
5.7303 -0.9011 -2.5022 0.9750
5.7877 -0.3874 -2.5022 0.9750
5.7992 0.1292 -2.5021 0.9750
5.7645 0.6448 -2.5021 0.9750
5.6841 1.1554 -2.5020 0.9750
5.5585 1.6566 -2.5019 0.9750
7.7646 3.9236 -3.7526 0.9628
7.3841 4.5989 -3.7524 0.9628
4.0384 3.6525 -2.3488 0.9766
2.9293 4.5887 -2.3483 0.9766
2.0690 5.0345 -2.3479 0.9766
1.6125 5.1983 -2.3477 0.9766
0.6652 5.4009 -2.3473 0.9766
-0.3029 5.4324 -2.3469 0.9766
-1.7269 5.1582 -2.3464 0.9766
-2.6138 4.7696 -2.3461 0.9766
-3.4177 4.2301 -2.3458 0.9766
-4.0258 4.1627 -2.4980 0.9751
-4.3801 3.7877 -2.4978 0.9751
-4.6997 3.3826 -2.4977 0.9751
-4.9819 2.9508 -2.4977 0.9751
-5.2246 2.4956 -2.4976 0.9751
-5.4259 2.0206 -2.4976 0.9751
-5.6982 1.0266 -2.4975 0.9751
-3.8265 0.3419 -1.6572 0.9834
-2.6607 -0.9909 -1.2811 0.9876
-2.6867 -1.5914 -1.4090 0.9864
-4.4938 -3.2344 -2.4983 0.9760
-2.6618 -4.8571 -2.4991 0.9760
-2.2191 -5.0752 -2.4993 0.9760
-1.7587 -5.2529 -2.4995 0.9760
-1.2843 -5.3890 -2.4997 0.9760
0.1852 -5.5381 -2.5003 0.9760
1.1643 -5.4184 -2.5007 0.9760
1.6421 -5.2937 -2.5009 0.9760
2.5550 -4.9193 -2.5012 0.9760
2.9829 -4.6726 -2.5014 0.9760
3.3872 -4.3888 -2.5015 0.9760
3.7645 -4.0702 -2.5016 0.9760
4.4269 -3.3385 -2.5018 0.9760
4.7066 -2.9313 -2.5019 0.9760
4.9490 -2.5008 -2.5020 0.9760
5.3142 -1.5838 -2.5021 0.9760
5.4341 -1.1045 -2.5021 0.9760
5.4776 0.8613 -2.5020 0.9760
7.2479 4.0776 -3.7524 0.9642
4.0124 3.3163 -2.3488 0.9774
3.3604 3.9746 -2.3485 0.9774
2.9930 4.2577 -2.3483 0.9774
2.1904 4.7202 -2.3480 0.9774
1.7615 4.8961 -2.3478 0.9774
1.3186 5.0330 -2.3476 0.9774
0.8653 5.1300 -2.3474 0.9774
0.4053 5.1862 -2.3472 0.9774
-0.0579 5.2013 -2.3470 0.9774
-0.9791 5.1078 -2.3467 0.9774
-1.8689 4.8526 -2.3464 0.9774
-2.6994 4.4438 -2.3461 0.9774
-3.6677 4.1472 -2.4981 0.9760
-4.3445 3.4308 -2.4979 0.9760
-4.6325 3.0305 -2.4978 0.9760
-4.8837 2.6061 -2.4977 0.9760
-5.4859 0.7378 -2.4976 0.9760
-3.2608 0.1454 -1.4728 0.9858
-2.6659 -0.6040 -1.2334 0.9881
-2.6574 -0.8569 -1.2599 0.9878
-2.6675 -1.1311 -1.3074 0.9874
-4.8844 -2.6064 -2.4981 0.9760
-4.0230 -3.8049 -2.4985 0.9760
-3.2850 -4.4585 -2.4989 0.9760
-2.8754 -4.7335 -2.4990 0.9760
-2.4429 -4.9711 -2.4992 0.9760
0.4317 -5.5246 -2.5004 0.9760
1.8764 -5.2154 -2.5010 0.9760
2.3333 -5.0280 -2.5011 0.9760
2.7717 -4.8007 -2.5013 0.9760
3.1882 -4.5352 -2.5014 0.9760
4.2737 -3.5323 -2.5018 0.9760
4.5713 -3.1380 -2.5019 0.9760
4.8326 -2.7188 -2.5020 0.9760
5.0555 -2.2779 -2.5020 0.9760
5.2383 -1.8189 -2.5020 0.9760
5.4779 -0.8613 -2.5021 0.9760
5.5328 -0.3704 -2.5021 0.9760
5.4337 1.1045 -2.5019 0.9760
5.3137 1.5836 -2.5018 0.9760
5.1514 2.0502 -2.5017 0.9760
7.4226 3.7508 -3.7525 0.9642
7.0589 4.3963 -3.7523 0.9642
4.1563 3.1344 -2.3489 0.9774
3.8605 3.4917 -2.3487 0.9774
3.1799 4.1203 -2.3484 0.9774
2.8003 4.3866 -2.3482 0.9774
2.3986 4.6181 -2.3481 0.9774
1.0930 5.0865 -2.3475 0.9774
-0.2896 5.1933 -2.3470 0.9774
-0.7506 5.1466 -2.3468 0.9774
-1.2056 5.0590 -2.3466 0.9774
-2.4988 4.5597 -2.3461 0.9774
-2.8946 4.3190 -2.3460 0.9774
-3.3688 4.1696 -2.4187 0.9768
-4.7628 2.8210 -2.4978 0.9760
-5.3386 1.4624 -2.4976 0.9760
-2.9112 -0.0000 -1.3723 0.9872
-2.6448 -0.2364 -1.2517 0.9883
-2.6052 -1.2444 -1.3609 0.9873
-4.0093 -3.4670 -2.4985 0.9768
-3.6850 -3.8103 -2.4987 0.9768
-2.9515 -4.4039 -2.4990 0.9768
-2.5480 -4.6494 -2.4992 0.9768
-2.1242 -4.8581 -2.4993 0.9768
-0.7654 -5.2479 -2.4999 0.9768
-0.2953 -5.2956 -2.5001 0.9768
0.1773 -5.3012 -2.5003 0.9768
2.0168 -4.9075 -2.5010 0.9768
2.8553 -4.4727 -2.5013 0.9768
3.6034 -3.8959 -2.5015 0.9768
3.9360 -3.5599 -2.5017 0.9768
4.2374 -3.1956 -2.5017 0.9768
4.5052 -2.8059 -2.5018 0.9768
4.7372 -2.3938 -2.5019 0.9768
4.9315 -1.9627 -2.5019 0.9768
5.0867 -1.5160 -2.5020 0.9768
5.2015 -1.0572 -2.5020 0.9768
5.2749 -0.5901 -2.5020 0.9768
5.3064 -0.1182 -2.5020 0.9768
5.2958 0.3545 -2.5019 0.9768
5.2432 0.8245 -2.5019 0.9768
5.1488 1.2878 -2.5018 0.9768
5.0136 1.7409 -2.5017 0.9768
6.9378 3.9031 -3.7523 0.9654
6.5625 4.5049 -3.7521 0.9654
3.8407 3.1744 -2.3487 0.9782
3.2166 3.8046 -2.3484 0.9782
2.8650 4.0755 -2.3483 0.9782
2.0967 4.5183 -2.3480 0.9782
1.6861 4.6866 -2.3478 0.9782
1.2622 4.8177 -2.3476 0.9782
0.8283 4.9106 -2.3474 0.9782
-0.4983 4.9538 -2.3469 0.9782
-0.9372 4.8894 -2.3467 0.9782
-3.0291 4.1111 -2.4071 0.9777
-4.1589 3.2843 -2.4980 0.9768
-4.6750 2.4947 -2.4978 0.9768
-4.8784 2.0686 -2.4978 0.9768
-5.0431 1.6262 -2.4977 0.9768
-5.1678 1.1709 -2.4977 0.9768
-3.1522 0.1405 -1.4873 0.9861
-2.7082 -0.1208 -1.2778 0.9881
-2.6352 -0.3544 -1.2533 0.9883
-2.5994 -0.8382 -1.2874 0.9880
-2.5902 -1.3822 -1.3839 0.9871
-4.1597 -3.2848 -2.4984 0.9768
-3.5118 -3.9708 -2.4987 0.9768
-2.7525 -4.5312 -2.4991 0.9768
-2.3384 -4.7585 -2.4993 0.9768
-1.9057 -4.9481 -2.4994 0.9768
-0.9984 -5.2084 -2.4998 0.9768
-0.5309 -5.2770 -2.5000 0.9768
-0.0591 -5.3037 -2.5002 0.9768
0.4132 -5.2883 -2.5004 0.9768
0.8824 -5.2309 -2.5006 0.9768
1.3445 -5.1320 -2.5007 0.9768
1.7961 -4.9922 -2.5009 0.9768
2.2334 -4.8129 -2.5011 0.9768
3.0518 -4.3412 -2.5014 0.9768
3.4262 -4.0525 -2.5015 0.9768
3.7735 -3.7317 -2.5016 0.9768
4.3757 -3.0037 -2.5018 0.9768
4.6258 -2.6024 -2.5019 0.9768
5.1492 -1.2879 -2.5020 0.9768
5.2434 -0.8245 -2.5020 0.9768
5.2959 -0.3545 -2.5020 0.9768
5.2011 1.0572 -2.5018 0.9768
5.0863 1.5159 -2.5017 0.9768
7.1049 3.5902 -3.7524 0.9654
3.6953 3.3423 -2.3487 0.9782
3.3830 3.6577 -2.3485 0.9782
3.0438 3.9440 -2.3484 0.9782
1.0463 4.8690 -2.3475 0.9782
0.6087 4.9424 -2.3473 0.9782
-0.7185 4.9265 -2.3468 0.9782
-1.1541 4.8427 -2.3466 0.9782
-2.3920 4.3649 -2.3462 0.9782
-2.7709 4.1344 -2.3461 0.9782
-4.0085 3.4663 -2.4980 0.9768
-4.7815 2.2839 -2.4978 0.9768
-2.5903 -0.2315 -1.2791 0.9885
-2.5698 -0.4630 -1.2843 0.9884
-2.5453 -0.9479 -1.3359 0.9880
-3.8425 -3.3227 -2.4986 0.9776
-3.1928 -3.9518 -2.4989 0.9776
-2.8286 -4.2206 -2.4990 0.9776
-2.4419 -4.4559 -2.4992 0.9776
-2.0358 -4.6559 -2.4994 0.9776
1.5064 -4.8561 -2.5008 0.9776
1.9328 -4.7030 -2.5009 0.9776
2.3438 -4.5126 -2.5011 0.9776
3.1071 -4.0260 -2.5014 0.9776
4.0609 -3.0625 -2.5017 0.9776
4.8747 -1.4528 -2.5019 0.9776
5.0853 -0.1133 -2.5019 0.9776
4.8047 1.6684 -2.5016 0.9776
4.6370 2.0894 -2.5015 0.9776
6.6487 3.7405 -3.7522 0.9666
6.2891 4.3172 -3.7520 0.9666
5.8796 4.8596 -3.7518 0.9666
3.0826 3.6462 -2.3484 0.9789
2.7457 3.9058 -2.3483 0.9789
-0.4776 4.7476 -2.3469 0.9790
-2.1039 4.2813 -2.3463 0.9790
-2.4765 4.0768 -2.3462 0.9790
-3.6900 3.4900 -2.4981 0.9776
-3.9858 3.1476 -2.4980 0.9776
-4.2500 2.7803 -2.4980 0.9776
-4.4805 2.3909 -2.4979 0.9776
-4.8333 1.5585 -2.4978 0.9776
-5.0330 0.6769 -2.4978 0.9776
-3.0630 0.1366 -1.5081 0.9864
-2.6467 -0.1180 -1.3031 0.9883
-2.5845 -0.3476 -1.2826 0.9884
-2.5616 -0.5804 -1.2919 0.9884
-2.5441 -1.0788 -1.3592 0.9878
-4.2507 -2.7807 -2.4984 0.9776
-3.6907 -3.4907 -2.4986 0.9776
-3.0137 -4.0903 -2.4989 0.9776
-2.2411 -4.5604 -2.4993 0.9776
-1.8264 -4.7421 -2.4995 0.9776
-1.3972 -4.8862 -2.4996 0.9776
-0.5088 -5.0573 -2.5000 0.9776
0.3960 -5.0681 -2.5004 0.9776
0.8456 -5.0130 -2.5005 0.9776
1.2885 -4.9182 -2.5007 0.9776
3.2835 -3.8837 -2.5014 0.9776
4.1934 -2.8785 -2.5017 0.9776
4.4330 -2.4940 -2.5018 0.9776
4.6375 -2.0895 -2.5018 0.9776
5.0753 -0.3397 -2.5019 0.9776
5.0853 0.1133 -2.5018 0.9776
5.0549 0.5655 -2.5018 0.9776
4.9844 1.0131 -2.5017 0.9776
4.7255 1.8807 -2.5016 0.9776
4.5392 2.2938 -2.5015 0.9776
6.0904 4.5930 -3.7519 0.9666
3.5414 3.2030 -2.3486 0.9789
2.9170 3.7797 -2.3483 0.9789
2.5689 4.0241 -2.3482 0.9789
1.8144 4.4152 -2.3478 0.9789
1.4142 4.5588 -2.3477 0.9789
1.0027 4.6662 -2.3475 0.9789
-0.2657 4.7643 -2.3470 0.9790
-0.6886 4.7215 -2.3468 0.9790
-1.5146 4.5240 -2.3465 0.9790
-3.1922 3.9510 -2.4983 0.9776
-4.3696 2.5882 -2.4979 0.9776
-2.4994 -0.6847 -1.3286 0.9884
-2.4879 -1.1884 -1.4135 0.9877
-2.4521 -1.4524 -1.4611 0.9873
-3.9554 -2.8470 -2.4985 0.9783
-3.6865 -3.1879 -2.4986 0.9783
-3.3884 -3.5035 -2.4988 0.9783
-2.3428 -4.2750 -2.4992 0.9783
-1.9531 -4.4669 -2.4994 0.9783
-1.5479 -4.6233 -2.4996 0.9783
-0.7037 -4.8252 -2.4999 0.9783
-0.2715 -4.8690 -2.5001 0.9783
0.1630 -4.8742 -2.5003 0.9783
0.5962 -4.8407 -2.5004 0.9783
1.0247 -4.7687 -2.5006 0.9783
1.8543 -4.5120 -2.5009 0.9783
2.6252 -4.1122 -2.5012 0.9783
2.9809 -3.8624 -2.5013 0.9783
3.3130 -3.5819 -2.5014 0.9783
4.1420 -2.5797 -2.5017 0.9783
4.5340 -1.8045 -2.5018 0.9783
4.7822 -0.9720 -2.5018 0.9783
4.8689 0.3260 -2.5017 0.9783
4.7338 1.1840 -2.5016 0.9783
4.6095 1.6006 -2.5016 0.9783
2.6342 3.7471 -2.3482 0.9796
1.9278 4.1543 -2.3479 0.9796
1.1605 4.4297 -2.3476 0.9796
-0.0510 4.5779 -2.3471 0.9796
-0.8618 4.4957 -2.3468 0.9796
-1.2584 4.4009 -2.3466 0.9796
-2.0197 4.1089 -2.3471 0.9796
-4.0776 2.6675 -2.4980 0.9783
-4.4858 1.9021 -2.4979 0.9783
-4.7519 1.0766 -2.4979 0.9783
-2.9775 0.1328 -1.5280 0.9867
-2.5877 -0.1154 -1.3280 0.9884
-2.5350 -0.3409 -1.3113 0.9886
-2.4879 -1.0550 -1.3854 0.9879
-2.8914 -3.9242 -2.4990 0.9783
-2.5308 -4.1663 -2.4991 0.9783
-1.3405 -4.6879 -2.4996 0.9783
-0.4881 -4.8519 -2.5000 0.9783
-0.0543 -4.8764 -2.5002 0.9783
1.6514 -4.5900 -2.5008 0.9783
2.0535 -4.4251 -2.5010 0.9783
2.4393 -4.2250 -2.5011 0.9783
3.1501 -3.7259 -2.5014 0.9783
3.7611 -3.1086 -2.5016 0.9783
4.2529 -2.3926 -2.5017 0.9783
4.6099 -1.6007 -2.5018 0.9783
4.7341 -1.1840 -2.5018 0.9783
4.8690 -0.3259 -2.5018 0.9783
4.8496 0.5425 -2.5017 0.9783
4.7819 0.9720 -2.5017 0.9783
4.6763 1.3937 -2.5016 0.9783
4.5335 1.8043 -2.5015 0.9783
4.3548 2.2006 -2.5014 0.9783
5.8430 4.4064 -3.7518 0.9676
3.1104 3.3629 -2.3484 0.9796
2.1110 4.0644 -2.3480 0.9796
1.3567 4.3737 -2.3477 0.9796
-0.2549 4.5710 -2.3470 0.9796
-1.0611 4.4528 -2.3467 0.9796
-1.4531 4.3404 -2.3466 0.9796
-1.8336 4.1935 -2.3464 0.9796
-2.1994 4.0134 -2.3463 0.9796
-3.0626 3.7906 -2.4984 0.9783
-3.3877 3.5029 -2.4983 0.9783
-3.6859 3.1873 -2.4982 0.9783
-3.9548 2.8465 -2.4981 0.9783
-4.3966 2.1001 -2.4980 0.9783
-4.5660 1.7004 -2.4979 0.9783
-4.6992 1.2872 -2.4979 0.9783
-4.7951 0.8639 -2.4979 0.9783
-3.5463 0.3169 -1.8253 0.9841
-2.4853 -0.2221 -1.3321 0.9887
-2.4292 -1.1604 -1.4371 0.9879
-2.3944 -1.4182 -1.4856 0.9875
-3.7986 -2.7341 -2.4985 0.9790
-3.2540 -3.3646 -2.4988 0.9790
-2.9418 -3.6411 -2.4989 0.9790
-2.6062 -3.8887 -2.4991 0.9790
-1.0855 -4.5549 -2.4997 0.9790
-0.2607 -4.6759 -2.5001 0.9790
0.5725 -4.6486 -2.5004 0.9790
0.9841 -4.5795 -2.5006 0.9790
1.7807 -4.3330 -2.5009 0.9790
2.5210 -3.9490 -2.5011 0.9790
2.8626 -3.7092 -2.5012 0.9790
3.1815 -3.4398 -2.5013 0.9790
3.4752 -3.1431 -2.5014 0.9790
4.1824 -2.1135 -2.5016 0.9790
4.4910 -1.3385 -2.5017 0.9790
4.5924 -0.9335 -2.5017 0.9790
4.6851 -0.1044 -2.5017 0.9790
4.6757 0.3130 -2.5017 0.9790
4.6292 0.7279 -2.5016 0.9790
4.5459 1.1370 -2.5016 0.9790
4.4265 1.5371 -2.5015 0.9790
4.2720 1.9249 -2.5014 0.9790
5.7941 3.9774 -3.7519 0.9686
4.9966 4.9413 -3.7515 0.9686
2.1992 3.8091 -2.3480 0.9803
1.8513 3.9895 -2.3479 0.9803
1.4888 4.1381 -2.3477 0.9803
1.1145 4.2539 -2.3476 0.9803
0.7314 4.3360 -2.3474 0.9803
0.3425 4.3836 -2.3473 0.9803
-0.0490 4.3963 -2.3471 0.9803
-3.4000 3.2157 -2.4983 0.9790
-3.9160 2.5617 -2.4981 0.9790
-4.3080 1.8268 -2.4980 0.9790
-4.4534 1.4361 -2.4980 0.9790
-4.6375 0.6237 -2.4980 0.9790
-2.8952 0.1291 -1.5471 0.9869
-2.5303 -0.1128 -1.3521 0.9886
-2.4861 -0.3344 -1.3391 0.9887
-2.4621 -0.5579 -1.3477 0.9886
-3.6732 -2.9006 -2.4986 0.9790
-3.4006 -3.2162 -2.4987 0.9790
-2.7768 -3.7687 -2.4990 0.9790
-2.4305 -4.0011 -2.4992 0.9790
-2.0648 -4.2018 -2.4993 0.9790
-1.2873 -4.5020 -2.4997 0.9790
-0.8815 -4.5989 -2.4998 0.9790
0.3649 -4.6694 -2.5003 0.9790
0.7791 -4.6187 -2.5005 0.9790
1.5858 -4.4079 -2.5008 0.9790
2.3425 -4.0573 -2.5011 0.9790
2.6945 -3.8329 -2.5012 0.9790
3.3317 -3.2947 -2.5014 0.9790
3.8633 -2.6520 -2.5016 0.9790
4.0841 -2.2977 -2.5016 0.9790
4.2725 -1.9251 -2.5017 0.9790
4.4269 -1.5372 -2.5017 0.9790
4.5462 -1.1371 -2.5017 0.9790
4.6850 0.1044 -2.5017 0.9790
4.5921 0.9334 -2.5016 0.9790
4.4907 1.3384 -2.5015 0.9790
4.3536 1.7327 -2.5014 0.9790
4.1820 2.1133 -2.5013 0.9790
2.9870 3.2295 -2.3484 0.9803
2.3668 3.7075 -2.3481 0.9803
2.0273 3.9032 -2.3480 0.9803
1.6717 4.0679 -2.3478 0.9803
1.3029 4.2002 -2.3477 0.9803
-0.6345 4.3502 -2.3469 0.9803
-1.0191 4.2762 -2.3467 0.9803
-1.7609 4.0273 -2.3465 0.9803
-2.1685 3.9571 -2.4089 0.9797
-2.9412 3.6404 -2.4984 0.9790
-3.5398 3.0610 -2.4982 0.9790
-4.0262 2.3847 -2.4981 0.9790
-4.2224 2.0169 -2.4980 0.9790
-4.6051 0.8296 -2.4980 0.9790
-2.5975 -0.0000 -1.4427 0.9882
-2.4347 -0.2176 -1.3576 0.9889
-2.4243 -0.4368 -1.3681 0.9888
-2.3823 -0.8872 -1.4119 0.9884
-2.3176 -1.3728 -1.4960 0.9878
-3.6513 -2.6280 -2.4986 0.9796
-3.4031 -2.9427 -2.4987 0.9796
-3.1278 -3.2341 -2.4988 0.9796
-2.8277 -3.4999 -2.4990 0.9796
-2.1626 -3.9463 -2.4993 0.9796
-1.8029 -4.1233 -2.4994 0.9796
-1.0434 -4.3782 -2.4997 0.9796
0.1504 -4.4991 -2.5002 0.9796
0.5503 -4.4682 -2.5004 0.9796
0.9459 -4.4018 -2.5005 0.9796
3.3402 -3.0211 -2.5014 0.9796
3.8232 -2.3811 -2.5015 0.9796
4.0200 -2.0314 -2.5016 0.9796
4.3166 -1.2865 -2.5016 0.9796
4.4140 -0.8971 -2.5017 0.9796
4.4763 -0.5008 -2.5017 0.9796
4.5031 -0.1004 -2.5016 0.9796
4.4494 0.6996 -2.5016 0.9796
3.9250 2.2082 -2.5012 0.9796
5.5693 3.8231 -3.7518 0.9696
5.2066 4.3033 -3.7516 0.9696
4.8027 4.7495 -3.7514 0.9696
2.4314 3.4588 -2.3482 0.9808
1.0712 4.0889 -2.3476 0.9808
0.3292 4.2135 -2.3473 0.9808
-0.4230 4.2046 -2.3470 0.9809
-1.5185 3.9427 -2.3466 0.9809
-1.9219 3.9109 -2.4202 0.9803
-2.3357 3.8451 -2.4986 0.9796
-2.9801 3.3697 -2.4984 0.9796
-3.2681 3.0910 -2.4983 0.9796
-3.7641 2.4624 -2.4982 0.9796
-4.1409 1.7559 -2.4981 0.9796
-4.4576 0.5995 -2.4980 0.9796
-2.5020 0.1116 -1.3910 0.9886
-2.4139 -0.5469 -1.3747 0.9887
-2.3870 -0.7697 -1.3929 0.9886
-2.3793 -1.0089 -1.4353 0.9882
-2.3600 -1.2594 -1.4857 0.9878
-2.2661 -1.4824 -1.5039 0.9877
-2.6690 -3.6224 -2.4990 0.9796
-2.3362 -3.8458 -2.4992 0.9796
-0.4506 -4.4787 -2.5000 0.9796
1.5243 -4.2368 -2.5007 0.9796
1.8954 -4.0845 -2.5009 0.9796
2.2516 -3.8998 -2.5010 0.9796
2.5899 -3.6841 -2.5011 0.9796
2.9076 -3.4391 -2.5012 0.9796
3.7133 -2.5490 -2.5015 0.9796
4.1066 -1.8503 -2.5016 0.9796
4.2550 -1.4775 -2.5016 0.9796
4.4496 -0.6996 -2.5017 0.9796
4.4942 -0.3008 -2.5016 0.9796
4.4762 0.5007 -2.5016 0.9796
4.4138 0.8972 -2.5015 0.9796
4.0196 2.0312 -2.5013 0.9796
5.3933 4.0672 -3.7517 0.9696
5.0096 4.5309 -3.7515 0.9696
2.2749 3.5636 -2.3481 0.9808
0.8880 4.1324 -2.3475 0.9808
0.5166 4.1947 -2.3473 0.9808
-0.6098 4.1814 -2.3469 0.9809
-0.9795 4.1103 -2.3468 0.9809
-1.7001 3.8876 -2.3565 0.9808
-3.6508 2.6277 -2.4982 0.9796
-3.8700 2.2922 -2.4981 0.9796
-4.0586 1.9387 -2.4981 0.9796
-4.4265 0.7975 -2.4980 0.9796
-2.5383 0.2268 -1.4154 0.9884
-2.5326 -0.0000 -1.4622 0.9884
-2.3545 -0.6450 -1.4095 0.9888
-2.3203 -1.1083 -1.4846 0.9882
-2.2443 -1.3293 -1.5060 0.9880
-3.0089 -3.1112 -2.4989 0.9802
-2.7202 -3.3668 -2.4990 0.9802
-1.3745 -4.1054 -2.4996 0.9802
-1.0037 -4.2118 -2.4997 0.9802
-0.6249 -4.2846 -2.4999 0.9802
-0.2411 -4.3235 -2.5001 0.9802
0.5294 -4.2982 -2.5004 0.9802
1.2832 -4.1368 -2.5006 0.9802
1.6464 -4.0063 -2.5008 0.9802
2.6468 -3.4295 -2.5011 0.9802
2.9416 -3.1805 -2.5012 0.9802
3.4592 -2.6087 -2.5014 0.9802
3.6777 -2.2905 -2.5015 0.9802
3.8671 -1.9541 -2.5015 0.9802
4.1524 -1.2375 -2.5016 0.9802
4.3231 0.2894 -2.5015 0.9802
3.9499 1.7798 -2.5013 0.9802
3.7757 2.1242 -2.5012 0.9802
3.5715 2.4517 -2.5011 0.9802
5.0085 4.1396 -3.7515 0.9704
4.6200 4.5688 -3.7513 0.9704
4.1948 4.9616 -3.7512 0.9704
2.3390 3.3273 -2.3481 0.9814
1.0305 3.9334 -2.3476 0.9814
-0.0453 4.0651 -2.3471 0.9814
-0.4069 4.0447 -2.3470 0.9814
-0.7652 3.9922 -2.3469 0.9814
-1.4790 3.8402 -2.3758 0.9812
-2.2469 3.6989 -2.4987 0.9802
-2.5671 3.4841 -2.4986 0.9802
-2.8669 3.2416 -2.4985 0.9802
-3.3960 2.6818 -2.4983 0.9802
-3.6211 2.3688 -2.4982 0.9802
-3.9836 1.6892 -2.4981 0.9802
-4.1181 1.3279 -2.4981 0.9802
-4.2199 0.9561 -2.4981 0.9802
-2.4294 0.1083 -1.4040 0.9888
-2.3668 -0.5362 -1.4011 0.9889
-2.3397 -0.7545 -1.4193 0.9887
-2.3269 -0.9867 -1.4592 0.9884
-3.3965 -2.6822 -2.4987 0.9802
-3.1444 -2.9740 -2.4988 0.9802
-2.5676 -3.4847 -2.4991 0.9802
-2.2474 -3.6997 -2.4992 0.9802
-1.9093 -3.8853 -2.4994 0.9802
0.3374 -4.3174 -2.5003 0.9802
0.7204 -4.2705 -2.5004 0.9802
2.1659 -3.7514 -2.5010 0.9802
3.0804 -3.0463 -2.5013 0.9802
3.3395 -2.7601 -2.5014 0.9802
4.0931 -1.4213 -2.5016 0.9802
4.2034 -1.0513 -2.5016 0.9802
4.3318 0.0966 -2.5016 0.9802
4.3059 0.4817 -2.5015 0.9802
