ply
format ascii 1.0
element vertex 1586
property float32 x
property float32 y
property float32 z
property float32 I
end_header
-0.0705 -6.3282 0.9002 0.9748
1.1158 -6.6150 0.9542 0.9733
-0.3545 -6.3576 0.7980 0.9747
1.4753 -6.8654 0.8800 0.9721
-1.3299 -6.9380 0.8853 0.9719
-0.6494 -6.4552 0.8130 0.9742
-0.0704 -6.3154 0.7915 0.9749
0.4956 -6.3421 0.7972 0.9747
-11.1299 8.0108 1.7185 0.9462
-0.9646 -6.6140 0.7250 0.9735
-0.3539 -6.3462 0.6894 0.9748
0.2106 -6.2998 0.6837 0.9750
0.7901 -6.4152 0.7011 0.9743
1.4705 -6.8430 0.7592 0.9722
-1.3250 -6.9124 0.7634 0.9721
-0.0702 -6.3048 0.6839 0.9750
0.4947 -6.3308 0.6888 0.9748
-0.9626 -6.6001 0.6115 0.9736
0.2103 -6.2892 0.5769 0.9750
0.7887 -6.4036 0.5915 0.9744
-1.3207 -6.8900 0.6432 0.9722
-0.9606 -6.5866 0.4988 0.9737
-0.3529 -6.3289 0.4750 0.9749
0.2101 -6.2845 0.4712 0.9751
11.7634 4.0847 0.9332 0.9513
-0.0701 -6.2895 0.4714 0.9751
0.4934 -6.3138 0.4746 0.9749
1.1039 -6.5446 0.4974 0.9737
-11.1279 8.0094 1.0275 0.9465
-0.3535 -6.3400 0.3698 0.9749
0.7891 -6.4071 0.3760 0.9745
1.4651 -6.8181 0.4062 0.9724
11.7621 4.0843 0.7252 0.9513
-0.6474 -6.4350 0.3767 0.9744
1.1062 -6.5578 0.3873 0.9737
-11.1272 8.0089 0.7985 0.9465
-0.3541 -6.3510 0.2645 0.9749
0.2108 -6.3051 0.2623 0.9751
0.7905 -6.4183 0.2689 0.9744
1.4689 -6.8355 0.2907 0.9724
11.7608 4.0838 0.5176 0.9514
-1.3228 -6.9007 0.2922 0.9723
0.4951 -6.3357 0.2642 0.9749
1.1084 -6.5711 0.2771 0.9737
-11.1266 8.0084 0.5700 0.9466
-0.9666 -6.6272 0.1670 0.9736
0.7919 -6.4296 0.1616 0.9744
1.4729 -6.8545 0.1748 0.9723
11.7595 4.0834 0.3104 0.9514
-1.3274 -6.9250 0.1758 0.9722
0.4959 -6.3467 0.1588 0.9748
1.1107 -6.5844 0.1665 0.9736
-11.1259 8.0080 0.3419 0.9466
-0.9705 -6.6546 0.0559 0.9735
-0.3561 -6.3856 0.0532 0.9747
0.2119 -6.3375 0.0527 0.9750
0.7948 -6.4532 0.0540 0.9743
1.4826 -6.8993 0.0587 0.9722
-1.3364 -6.9718 0.0590 0.9720
0.4978 -6.3700 0.0531 0.9748
1.1152 -6.6112 0.0557 0.9735
-11.1253 8.0075 0.1139 0.9466
-0.9767 -6.6968 -0.0562 0.9733
-0.3580 -6.4201 -0.0534 0.9746
0.2130 -6.3696 -0.0530 0.9748
0.7991 -6.4884 -0.0543 0.9742
1.4983 -6.9725 -0.0593 0.9719
11.7570 4.0825 -0.1034 0.9514
-1.3510 -7.0483 -0.0596 0.9717
0.5004 -6.4041 -0.0534 0.9746
1.1222 -6.6527 -0.0561 0.9734
-11.1246 8.0070 -0.1139 0.9466
-0.9837 -6.7448 -0.1700 0.9731
0.2140 -6.4020 -0.1597 0.9747
0.8039 -6.5274 -0.1640 0.9740
1.5144 -7.0473 -0.1798 0.9716
11.7557 4.0821 -0.3103 0.9514
-1.3660 -7.1265 -0.1810 0.9714
-0.6596 -6.5563 -0.1643 0.9740
-0.0714 -6.4072 -0.1598 0.9747
0.5031 -6.4387 -0.1611 0.9745
1.1299 -6.6986 -0.1694 0.9732
-11.1240 8.0066 -0.3418 0.9466
-0.9924 -6.8046 -0.2859 0.9728
-0.3620 -6.4914 -0.2703 0.9743
0.8092 -6.5703 -0.2753 0.9738
-1.3853 -7.2272 -0.3060 0.9710
-0.0718 -6.4407 -0.2678 0.9745
-1.0065 -6.9008 -0.4062 0.9724
-0.3655 -6.5553 -0.3824 0.9740
1.5696 -7.3042 -0.4351 0.9705
11.7531 4.0812 -0.7246 0.9514
-1.4239 -7.4282 -0.4405 0.9701
-0.6715 -6.6744 -0.3907 0.9735
-0.0724 -6.5001 -0.3786 0.9743
1.1554 -6.8497 -0.4046 0.9726
-11.1227 8.0056 -0.7982 0.9466
-1.0209 -6.9998 -0.5301 0.9720
-0.3692 -6.6205 -0.4969 0.9738
0.2192 -6.5550 -0.4915 0.9740
1.6242 -7.5585 -0.5794 0.9695
11.7518 4.0807 -0.9323 0.9513
-0.6791 -6.7505 -0.5084 0.9732
1.1716 -6.9460 -0.5279 0.9721
-11.1220 8.0052 -1.0269 0.9465
-1.0391 -7.1249 -0.6601 0.9715
0.8376 -6.8008 -0.6282 0.9729
11.7505 4.0802 -1.1404 0.9513
0.5212 -6.6694 -0.6133 0.9735
1.1919 -7.0658 -0.6569 0.9716
-1.0716 -7.3475 -0.8054 0.9706
-0.3790 -6.7969 -0.7384 0.9730
0.2245 -6.7157 -0.7288 0.9733
0.8531 -6.9267 -0.7570 0.9723
11.7492 4.0798 -1.3490 0.9512
-0.7006 -6.9638 -0.7592 0.9722
-0.0749 -6.7221 -0.7292 0.9733
0.5296 -6.7769 -0.7373 0.9730
0.8693 -7.0579 -0.8911 0.9717
11.7479 4.0794 -1.5584 0.9511
-0.7141 -7.0980 -0.8940 0.9717
-0.0760 -6.8261 -0.8555 0.9729
1.2893 -7.6436 -0.9714 0.9692
0.9002 -7.3095 -1.0475 0.9707
11.6556 4.0473 -1.7549 0.9514
0.5507 -7.0480 -1.0055 0.9718
-11.0157 7.9287 -1.9305 0.9466
14.5871 2.2938 -2.3513 0.9419
11.6264 4.0371 -1.9598 0.9514
13.4598 6.0648 -2.3508 0.9420
12.1687 8.3534 -2.3503 0.9420
10.4921 10.3759 -2.3497 0.9420
9.5256 11.2670 -2.3494 0.9420
8.4837 12.0683 -2.3490 0.9420
7.3748 12.7735 -2.3487 0.9420
1.1481 14.6926 -2.3467 0.9421
-1.4747 14.6585 -2.3459 0.9421
-4.0490 14.1604 -2.3452 0.9421
-6.4937 13.2143 -2.3445 0.9421
-9.7505 11.0252 -2.3437 0.9421
-11.5487 9.1200 -2.3432 0.9421
-12.3137 8.0553 -2.3431 0.9421
-0.0796 -7.1486 -1.1384 0.9715
14.6752 1.6417 -2.3514 0.9419
14.1499 4.2172 -2.3511 0.9419
13.7172 5.4594 -2.3509 0.9420
13.1756 6.6580 -2.3507 0.9420
12.5294 7.8034 -2.3504 0.9420
11.7838 8.8866 -2.3502 0.9420
10.9446 9.8989 -2.3499 0.9420
9.0136 11.6793 -2.3492 0.9420
4.3682 14.0816 -2.3477 0.9420
1.8016 14.6281 -2.3469 0.9420
-0.8203 14.7109 -2.3461 0.9421
-3.4145 14.3278 -2.3454 0.9421
-4.6755 13.9649 -2.3450 0.9421
-5.8990 13.4914 -2.3447 0.9421
-7.0754 12.9111 -2.3444 0.9421
-9.2502 11.4492 -2.3438 0.9421
-10.2315 10.5793 -2.3436 0.9421
-11.1314 9.6258 -2.3433 0.9421
-10.9891 7.9095 -2.1560 0.9466
-13.2764 6.3416 -2.3429 0.9421
-14.0961 -1.2596 -2.4954 0.9441
-13.6508 -3.7393 -2.4957 0.9441
-12.7735 -6.1013 -2.4961 0.9441
-12.1809 -7.2147 -2.4963 0.9441
-11.4916 -8.2711 -2.4966 0.9441
-10.7110 -9.2621 -2.4968 0.9441
-9.8453 -10.1799 -2.4971 0.9441
-7.8864 -11.7673 -2.4978 0.9441
-6.8087 -12.4243 -2.4982 0.9441
-2.0459 -14.0277 -2.4996 0.9440
0.2493 -7.4571 -1.3156 0.9701
2.9801 -13.8680 -2.5011 0.9440
4.2031 -13.5496 -2.5015 0.9440
5.3932 -13.1234 -2.5018 0.9440
6.5406 -12.5929 -2.5021 0.9440
8.6717 -11.2362 -2.5027 0.9440
9.6383 -10.4208 -2.5029 0.9440
11.3351 -8.5482 -2.5033 0.9440
12.0517 -7.5058 -2.5035 0.9440
13.1928 -5.2506 -2.5037 0.9440
13.6081 -4.0556 -2.5038 0.9440
14.1117 -1.5786 -2.5038 0.9440
13.1710 2.0711 -2.3509 0.9473
12.9336 3.2350 -2.3508 0.9473
11.5972 4.0270 -2.1647 0.9514
10.2717 8.4898 -2.3497 0.9473
8.6016 10.1740 -2.3492 0.9473
3.3740 12.8786 -2.3475 0.9474
-1.3318 13.2384 -2.3461 0.9474
-2.5044 13.0654 -2.3457 0.9474
-3.6569 12.7889 -2.3454 0.9474
-4.7800 12.4110 -2.3451 0.9474
-8.8067 9.9580 -2.3440 0.9474
-9.6572 9.1338 -2.3438 0.9474
-10.4310 8.2373 -2.3436 0.9474
-13.0291 5.5249 -2.4954 0.9441
-14.1379 -0.6304 -2.4954 0.9441
-13.8034 -3.1274 -2.4956 0.9441
-13.4711 -4.3438 -2.4958 0.9441
-12.4896 -6.6646 -2.4962 0.9441
-11.1123 -8.7753 -2.4967 0.9441
-10.2884 -9.7306 -2.4970 0.9441
-9.3826 -10.6090 -2.4973 0.9441
-6.2490 -12.7162 -2.4983 0.9441
-5.0931 -13.2239 -2.4987 0.9441
-2.6686 -13.9216 -2.4995 0.9441
-0.0832 -7.4714 -1.3175 0.9701
1.1048 -14.1384 -2.5006 0.9440
3.5951 -13.7224 -2.5013 0.9440
4.8029 -13.3498 -2.5016 0.9440
7.0955 -12.2897 -2.5023 0.9440
10.0934 -9.9816 -2.5030 0.9440
11.7051 -8.0350 -2.5034 0.9440
12.9456 -5.8330 -2.5037 0.9440
13.4138 -4.6577 -2.5037 0.9440
13.7754 -3.4454 -2.5038 0.9440
14.0274 -2.2057 -2.5038 0.9440
13.0653 2.6557 -2.3509 0.9473
12.7763 3.8078 -2.3507 0.9473
11.3134 7.0461 -2.3501 0.9473
10.6403 8.0243 -2.3499 0.9473
9.0468 9.7814 -2.3493 0.9473
8.1393 10.5464 -2.3490 0.9473
6.1387 11.8191 -2.3483 0.9473
3.9447 12.7164 -2.3477 0.9474
2.7968 13.0152 -2.3473 0.9474
1.6270 13.2104 -2.3469 0.9474
0.4447 13.3008 -2.3466 0.9474
-0.7408 13.2855 -2.3462 0.9474
-1.9200 13.1650 -2.3459 0.9474
-4.2227 12.6124 -2.3452 0.9474
-5.3278 12.1849 -2.3449 0.9474
-7.4020 11.0446 -2.3444 0.9474
-8.3548 10.3409 -2.3441 0.9474
-9.2412 9.5554 -2.3439 0.9474
-11.4348 6.7729 -2.3434 0.9475
-13.6487 3.7388 -2.4953 0.9441
-13.9272 2.5091 -2.4953 0.9441
-14.0953 1.2596 -2.4953 0.9441
-12.8965 0.0000 -2.4957 0.9488
-12.8457 -1.1479 -2.4958 0.9488
-12.4399 -3.4076 -2.4960 0.9488
-12.0880 -4.5016 -2.4962 0.9488
-11.6402 -5.5600 -2.4964 0.9488
-10.4718 -7.5371 -2.4968 0.9488
-8.9715 -9.2764 -2.4974 0.9488
-8.1112 -10.0392 -2.4976 0.9488
-6.2042 -11.3212 -2.4983 0.9488
-4.0997 -12.2451 -2.4989 0.9487
0.4317 -12.9131 -2.5003 0.9487
4.9137 -11.9566 -2.5016 0.9487
5.9591 -11.4731 -2.5019 0.9487
6.9573 -10.8984 -2.5022 0.9487
7.9005 -10.2369 -2.5024 0.9487
10.9796 -6.8381 -2.5031 0.9487
12.0190 -4.7834 -2.5033 0.9487
12.3974 -3.6947 -2.5034 0.9487
12.6772 -2.5767 -2.5034 0.9487
12.9330 -0.2882 -2.5034 0.9487
11.7831 2.9472 -2.3505 0.9517
11.4733 3.9840 -2.3503 0.9517
11.0723 4.9890 -2.3502 0.9517
10.0106 6.8719 -2.3497 0.9517
9.3583 7.7349 -2.3495 0.9517
8.6318 8.5362 -2.3493 0.9517
7.8368 9.2695 -2.3490 0.9517
6.9798 9.9290 -2.3487 0.9518
6.0676 10.5095 -2.3484 0.9518
4.1070 11.4157 -2.3478 0.9518
2.0174 11.9597 -2.3471 0.9518
-0.1351 12.1247 -2.3465 0.9518
-2.2821 11.9054 -2.3458 0.9518
-4.3557 11.3094 -2.3453 0.9518
-5.3444 10.8756 -2.3450 0.9518
-7.1865 9.7536 -2.3445 0.9518
-10.1354 6.6304 -2.3438 0.9519
-10.6848 5.7017 -2.3437 0.9519
-12.2741 3.9579 -2.4957 0.9488
-12.5775 2.8497 -2.4957 0.9488
-12.7812 1.7189 -2.4957 0.9488
-12.8836 0.5745 -2.4957 0.9488
-12.7821 -1.7190 -2.4958 0.9488
-12.5790 -2.8500 -2.4960 0.9488
-12.2761 -3.9585 -2.4961 0.9488
-11.8759 -5.0358 -2.4963 0.9488
-10.1262 -7.9965 -2.4969 0.9488
-7.6563 -10.3913 -2.4978 0.9488
-5.6941 -11.5871 -2.4984 0.9488
-4.6408 -12.0495 -2.4988 0.9488
-3.5504 -12.4164 -2.4991 0.9487
-0.1439 -12.9187 -2.5002 0.9487
1.0066 -12.8819 -2.5005 0.9487
4.3759 -12.1629 -2.5015 0.9487
7.4363 -10.5782 -2.5023 0.9487
9.1956 -9.0938 -2.5027 0.9487
10.6638 -7.3202 -2.5031 0.9487
12.5497 -3.1389 -2.5034 0.9487
12.7794 -2.0094 -2.5034 0.9487
12.9074 -0.8640 -2.5034 0.9487
12.9328 0.2882 -2.5034 0.9487
11.2840 4.4910 -2.3502 0.9517
9.6941 7.3107 -2.3496 0.9517
6.5302 10.2294 -2.3485 0.9518
5.5931 10.7687 -2.3482 0.9518
4.6118 11.2222 -2.3479 0.9518
3.5942 11.5866 -2.3476 0.9518
2.5483 11.8589 -2.3473 0.9518
0.4052 12.1195 -2.3466 0.9518
-0.6750 12.1058 -2.3463 0.9518
-1.7496 11.9961 -2.3460 0.9518
-3.8478 11.4929 -2.3454 0.9518
-5.8232 10.6261 -2.3449 0.9518
-6.7452 10.0646 -2.3446 0.9518
-9.8303 7.0755 -2.3439 0.9519
-12.0857 4.5008 -2.4957 0.9488
-12.4381 3.4072 -2.4957 0.9488
-12.8451 1.1479 -2.4957 0.9488
-11.8396 0.0000 -2.4960 0.9528
-11.4202 -3.1283 -2.4963 0.9527
-11.0971 -4.1326 -2.4965 0.9527
-8.9601 -7.7481 -2.4973 0.9527
-8.2358 -8.5157 -2.4975 0.9527
-6.5969 -9.8431 -2.4981 0.9527
-5.6953 -10.3925 -2.4984 0.9527
-4.7482 -10.8595 -2.4987 0.9527
-3.7633 -11.2404 -2.4990 0.9527
-2.7483 -11.5322 -2.4993 0.9527
-1.7111 -11.7325 -2.4996 0.9527
0.3963 -11.8530 -2.5003 0.9527
1.4499 -11.7721 -2.5006 0.9527
3.5150 -11.3312 -2.5012 0.9527
6.3858 -10.0031 -2.5019 0.9526
7.2514 -9.3959 -2.5022 0.9526
8.0596 -8.7139 -2.5024 0.9526
8.8038 -7.9626 -2.5025 0.9526
9.4782 -7.1478 -2.5027 0.9526
10.0773 -6.2762 -2.5028 0.9526
11.0313 -4.3903 -2.5030 0.9526
11.7996 -1.3199 -2.5031 0.9526
11.8462 0.7931 -2.5030 0.9526
10.8148 2.7050 -2.3502 0.9555
10.5305 3.6566 -2.3501 0.9555
10.1626 4.5791 -2.3499 0.9555
9.1882 6.3074 -2.3495 0.9555
5.5694 9.6466 -2.3483 0.9555
4.6882 10.1028 -2.3480 0.9555
3.7699 10.4786 -2.3477 0.9555
1.8518 10.9783 -2.3471 0.9555
0.8672 11.0981 -2.3468 0.9555
-0.1240 11.1299 -2.3465 0.9555
-2.0949 10.9288 -2.3460 0.9555
-3.0589 10.6978 -2.3457 0.9555
-4.9061 9.9837 -2.3452 0.9555
-7.3675 8.3305 -2.3445 0.9556
-8.0791 7.6412 -2.3443 0.9556
-8.7265 6.8913 -2.3442 0.9556
-9.3047 6.0869 -2.3441 0.9556
-10.9003 4.6222 -2.4961 0.9528
-11.2682 3.6336 -2.4960 0.9528
-11.5467 2.6162 -2.4960 0.9528
-11.7337 1.5781 -2.4960 0.9528
-11.8280 -0.5274 -2.4961 0.9528
-11.7345 -1.5781 -2.4961 0.9528
-10.9024 -4.6230 -2.4965 0.9527
-10.4484 -5.5754 -2.4967 0.9527
-9.9115 -6.4838 -2.4969 0.9527
-9.2959 -7.3409 -2.4972 0.9527
-8.6065 -8.1399 -2.4974 0.9527
-7.8487 -8.8746 -2.4977 0.9527
-7.0284 -9.5390 -2.4979 0.9527
-6.1522 -10.1279 -2.4982 0.9527
-5.2270 -10.6365 -2.4985 0.9527
-3.2591 -11.3976 -2.4992 0.9527
-2.2320 -11.6439 -2.4995 0.9527
0.9240 -11.8243 -2.5004 0.9527
1.9730 -11.6966 -2.5007 0.9527
3.0066 -11.4759 -2.5010 0.9527
5.9336 -10.2771 -2.5018 0.9526
7.6631 -9.0639 -2.5023 0.9526
9.7875 -6.7187 -2.5028 0.9526
11.5183 -2.8809 -2.5031 0.9526
11.7291 -1.8443 -2.5031 0.9526
11.8466 -0.7929 -2.5031 0.9526
10.6832 3.1840 -2.3501 0.9555
9.9481 5.0271 -2.3498 0.9555
7.5655 8.1798 -2.3490 0.9555
6.8067 8.8197 -2.3487 0.9555
5.1339 9.8845 -2.3481 0.9555
4.2332 10.3010 -2.3479 0.9555
2.3392 10.8855 -2.3473 0.9555
-5.3457 9.7548 -2.3451 0.9555
-6.1921 9.2394 -2.3448 0.9556
-8.4111 7.2735 -2.3443 0.9556
-9.0246 6.4956 -2.3441 0.9556
-9.5664 5.6663 -2.3440 0.9556
-11.4188 3.1280 -2.4960 0.9528
-11.6518 2.0992 -2.4960 0.9528
-10.7643 -1.9392 -2.4964 0.9561
-10.5495 -2.8898 -2.4966 0.9561
-9.8711 -4.7150 -2.4969 0.9561
-9.4130 -5.5753 -2.4970 0.9561
-6.8779 -8.5128 -2.4979 0.9561
-6.0935 -9.0922 -2.4982 0.9561
-5.2607 -9.5995 -2.4985 0.9561
-3.4761 -10.3825 -2.4990 0.9561
-1.5805 -10.8369 -2.4996 0.9561
2.3019 -10.7120 -2.5008 0.9560
3.2465 -10.4657 -2.5010 0.9560
7.4437 -8.0480 -2.5022 0.9560
8.7538 -6.6015 -2.5025 0.9560
9.7865 -4.9453 -2.5027 0.9560
10.5087 -3.1319 -2.5028 0.9560
10.8976 -1.2190 -2.5028 0.9560
10.9407 0.7325 -2.5027 0.9560
9.9882 2.4983 -2.3500 0.9586
9.3859 4.2292 -2.3497 0.9586
8.4861 5.8254 -2.3493 0.9586
5.9173 8.4176 -2.3485 0.9587
5.1441 8.9098 -2.3482 0.9587
3.4820 9.6785 -2.3477 0.9587
2.6065 9.9489 -2.3474 0.9587
0.8010 10.2510 -2.3468 0.9587
-0.1145 10.2804 -2.3466 0.9587
-1.0290 10.2282 -2.3463 0.9587
-3.6935 9.5899 -2.3455 0.9587
-4.5319 9.2222 -2.3453 0.9587
-5.3342 8.7814 -2.3451 0.9587
-6.0941 8.2711 -2.3449 0.9587
-7.4630 7.0585 -2.3446 0.9587
-8.0611 6.3659 -2.3444 0.9587
-10.6664 2.4167 -2.4962 0.9561
-10.0710 -4.2704 -2.4968 0.9561
-9.1556 -5.9893 -2.4971 0.9561
-8.5869 -6.7810 -2.4973 0.9561
-7.9500 -7.5190 -2.4976 0.9561
-3.9349 -10.2167 -2.4989 0.9561
-2.0616 -10.7551 -2.4995 0.9561
-1.0963 -10.8972 -2.4998 0.9561
-0.1220 -10.9528 -2.5001 0.9561
0.8534 -10.9214 -2.5003 0.9560
3.7097 -10.3112 -2.5012 0.9560
4.6132 -9.9411 -2.5014 0.9560
5.4802 -9.4919 -2.5016 0.9560
6.3039 -8.9673 -2.5019 0.9560
7.0775 -8.3713 -2.5021 0.9560
7.7951 -7.7087 -2.5022 0.9560
8.4508 -6.9847 -2.5024 0.9560
9.9972 -4.5045 -2.5027 0.9560
10.3587 -3.5969 -2.5028 0.9560
10.6379 -2.6607 -2.5028 0.9560
10.8325 -1.7033 -2.5028 0.9560
10.9411 -0.7324 -2.5028 0.9560
9.8667 2.9406 -2.3499 0.9586
9.5653 3.8070 -2.3498 0.9586
9.1879 4.6429 -2.3496 0.9586
8.7376 5.4419 -2.3494 0.9586
8.2178 6.1974 -2.3493 0.9586
6.9875 7.5549 -2.3488 0.9587
5.5362 8.6723 -2.3483 0.9587
3.0473 9.8235 -2.3475 0.9587
2.1606 10.0545 -2.3473 0.9587
1.2570 10.2057 -2.3470 0.9587
-0.5723 10.2645 -2.3464 0.9587
-2.3827 9.9982 -2.3459 0.9587
-3.2628 9.7454 -2.3457 0.9587
-4.1168 9.4154 -2.3454 0.9587
-6.4563 7.9911 -2.3448 0.9587
-9.8692 4.7142 -2.4964 0.9561
-10.2494 3.8170 -2.4963 0.9561
-10.7635 1.9392 -2.4962 0.9561
-10.8934 0.9735 -2.4963 0.9561
-9.9964 -1.8009 -2.4967 0.9590
-9.1668 -4.3786 -2.4970 0.9590
-8.7413 -5.1774 -2.4972 0.9590
-5.6585 -8.4431 -2.4983 0.9590
-4.8851 -8.9141 -2.4985 0.9590
-4.0727 -9.3145 -2.4988 0.9590
-3.2279 -9.6411 -2.4991 0.9590
-2.3572 -9.8912 -2.4993 0.9590
0.3399 -10.1658 -2.5002 0.9590
3.0145 -9.7178 -2.5009 0.9590
3.8678 -9.4118 -2.5012 0.9590
4.6906 -9.0310 -2.5014 0.9589
6.9115 -7.4726 -2.5020 0.9589
7.5497 -6.8282 -2.5021 0.9589
8.6416 -5.3820 -2.5024 0.9589
9.0866 -4.5916 -2.5025 0.9589
9.4595 -3.7647 -2.5025 0.9589
10.1183 -1.1318 -2.5026 0.9589
10.1788 -0.2268 -2.5026 0.9589
10.1584 0.6801 -2.5025 0.9589
9.2740 2.3196 -2.3498 0.9614
8.7149 3.9268 -2.3495 0.9614
7.8795 5.4090 -2.3492 0.9614
6.1689 7.2967 -2.3486 0.9614
5.4944 7.8160 -2.3484 0.9614
4.0208 8.6646 -2.3479 0.9614
3.2333 8.9871 -2.3476 0.9614
2.4203 9.2382 -2.3474 0.9614
0.7438 9.5189 -2.3469 0.9614
-0.1063 9.5463 -2.3466 0.9614
-0.9555 9.4979 -2.3464 0.9614
-1.7969 9.3742 -2.3461 0.9614
-2.6238 9.1762 -2.3459 0.9615
-3.4298 8.9054 -2.3457 0.9615
-4.9536 8.1547 -2.3452 0.9615
-6.9305 6.5548 -2.3447 0.9615
-10.0659 1.3538 -2.4965 0.9590
-10.1466 0.4525 -2.4965 0.9590
-10.0665 -1.3537 -2.4966 0.9590
-9.6678 -3.1174 -2.4968 0.9590
-8.9629 -4.7827 -2.4971 0.9590
-8.5023 -5.5619 -2.4973 0.9590
-7.9741 -6.2970 -2.4975 0.9590
-5.2771 -8.6872 -2.4984 0.9590
-4.4834 -9.1234 -2.4987 0.9590
-2.7953 -9.7758 -2.4992 0.9590
-1.9143 -9.9869 -2.4995 0.9590
-1.0180 -10.1187 -2.4997 0.9590
-0.1133 -10.1703 -2.5000 0.9590
0.7924 -10.1411 -2.5003 0.9590
1.6921 -10.0313 -2.5005 0.9590
4.2835 -9.2305 -2.5013 0.9590
5.0885 -8.8135 -2.5015 0.9589
5.8532 -8.3263 -2.5017 0.9589
6.5716 -7.7728 -2.5019 0.9589
7.2378 -7.1575 -2.5020 0.9589
7.8466 -6.4853 -2.5022 0.9589
8.3931 -5.7615 -2.5023 0.9589
8.8729 -4.9918 -2.5024 0.9589
9.2823 -4.1823 -2.5025 0.9589
9.6179 -3.3397 -2.5026 0.9589
9.8771 -2.4704 -2.5026 0.9589
10.1586 -0.6800 -2.5026 0.9589
10.1787 0.2269 -2.5025 0.9589
10.1178 1.1319 -2.5025 0.9589
9.1612 2.7304 -2.3497 0.9614
8.8814 3.5348 -2.3496 0.9614
8.5310 4.3109 -2.3494 0.9614
7.6304 5.7544 -2.3491 0.9614
5.8375 7.5638 -2.3485 0.9614
5.1406 8.0526 -2.3482 0.9614
3.6306 8.8346 -2.3478 0.9614
2.8296 9.1217 -2.3475 0.9614
1.1672 9.4769 -2.3470 0.9614
-3.8229 8.7433 -2.3456 0.9615
-6.6318 6.8573 -2.3448 0.9615
-7.7417 5.5722 -2.3446 0.9615
-8.6610 5.1300 -2.4743 0.9594
-9.7957 2.6834 -2.4965 0.9590
-9.9956 1.8008 -2.4965 0.9590
-9.4378 -0.8434 -2.4968 0.9616
-9.3256 -1.6801 -2.4969 0.9616
-8.5516 -4.0847 -2.4972 0.9616
-7.1700 -6.2002 -2.4977 0.9615
-6.5903 -6.8143 -2.4979 0.9615
-5.2786 -7.8762 -2.4984 0.9615
-3.7992 -8.6890 -2.4989 0.9615
-2.1989 -9.2268 -2.4994 0.9615
-0.5282 -9.4724 -2.4999 0.9615
0.3171 -9.4827 -2.5001 0.9615
1.1599 -9.4178 -2.5004 0.9615
5.1081 -8.0017 -2.5015 0.9615
6.4468 -6.9702 -2.5018 0.9615
7.0420 -6.3691 -2.5019 0.9615
7.5813 -5.7173 -2.5021 0.9615
8.0605 -5.0200 -2.5022 0.9615
8.4756 -4.2829 -2.5023 0.9615
9.1011 -2.7123 -2.5024 0.9615
9.4378 -1.0557 -2.5024 0.9615
9.4943 -0.2115 -2.5024 0.9615
9.4752 0.6343 -2.5023 0.9615
8.4231 2.9248 -2.3495 0.9638
8.1289 3.6627 -2.3494 0.9638
7.3497 5.0454 -2.3491 0.9638
4.4555 7.7172 -2.3481 0.9638
3.0160 8.3833 -2.3476 0.9638
2.2577 8.6176 -2.3474 0.9638
0.6939 8.8796 -2.3469 0.9638
-0.8913 8.8601 -2.3464 0.9638
-2.4477 8.5601 -2.3460 0.9638
-5.8958 6.6666 -2.3450 0.9639
-6.4654 6.1150 -2.3449 0.9639
-7.5665 4.9498 -2.3825 0.9633
-9.0179 2.9080 -2.4967 0.9616
-9.4658 0.4221 -2.4967 0.9616
-9.4659 -0.4221 -2.4968 0.9616
-9.3910 -1.2629 -2.4968 0.9616
-8.3614 -4.4617 -2.4973 0.9616
-6.2805 -7.1014 -2.4980 0.9615
-5.6240 -7.6329 -2.4983 0.9615
-4.9227 -8.1039 -2.4985 0.9615
-4.1823 -8.5107 -2.4987 0.9615
-2.6076 -9.1192 -2.4992 0.9615
-1.7857 -9.3160 -2.4995 0.9615
1.5784 -9.3572 -2.5005 0.9615
2.4052 -9.1805 -2.5007 0.9615
3.2131 -8.9308 -2.5009 0.9615
3.9955 -8.6101 -2.5012 0.9615
4.7464 -8.2210 -2.5014 0.9615
6.1297 -7.2502 -2.5017 0.9615
6.7511 -6.6763 -2.5019 0.9615
7.8287 -5.3741 -2.5021 0.9615
8.2762 -4.6561 -2.5022 0.9615
8.6581 -3.9011 -2.5023 0.9615
8.9711 -3.1151 -2.5024 0.9615
9.2129 -2.3043 -2.5024 0.9615
9.3815 -1.4751 -2.5024 0.9615
9.4374 1.0558 -2.5023 0.9615
13.9595 2.8374 -3.7535 0.9428
7.9574 4.0211 -2.3493 0.9638
7.1174 5.3676 -2.3490 0.9638
6.6109 5.9793 -2.3488 0.9638
5.4451 7.0555 -2.3484 0.9638
4.1071 7.9077 -2.3479 0.9638
1.8715 8.7092 -2.3472 0.9638
0.2976 8.9012 -2.3468 0.9638
-0.4958 8.8915 -2.3465 0.9638
-3.5663 8.1564 -2.3457 0.9638
-4.2777 7.8059 -2.3455 0.9638
-4.9551 7.3937 -2.3453 0.9639
-5.5932 6.9228 -2.3451 0.9639
-6.7312 5.8207 -2.3448 0.9639
-3.7904 -1.0383 -1.1057 0.9838
-7.2050 -5.1858 -2.4977 0.9638
-6.1723 -6.3820 -2.4980 0.9638
-5.5802 -6.9067 -2.4982 0.9638
-3.5582 -8.1377 -2.4989 0.9638
-2.8200 -8.4229 -2.4991 0.9638
-2.0593 -8.6412 -2.4994 0.9638
-1.2821 -8.7911 -2.4996 0.9638
-0.4946 -8.8711 -2.4998 0.9638
1.0863 -8.8199 -2.5003 0.9637
1.8672 -8.6890 -2.5005 0.9637
2.6334 -8.4891 -2.5007 0.9637
5.4321 -7.0385 -2.5015 0.9637
7.5484 -4.7012 -2.5020 0.9637
7.9371 -4.0107 -2.5021 0.9637
8.8911 -0.1980 -2.5022 0.9637
8.8733 0.5940 -2.5021 0.9637
12.9411 3.2368 -3.7532 0.9461
7.6125 3.4301 -2.3492 0.9659
7.2766 4.0938 -2.3491 0.9659
6.8829 4.7249 -2.3489 0.9659
5.9353 5.8696 -2.3486 0.9659
5.3889 6.3741 -2.3484 0.9659
4.1726 7.2273 -2.3480 0.9659
3.5125 7.5693 -2.3478 0.9659
2.8246 7.8511 -2.3476 0.9659
2.1144 8.0706 -2.3473 0.9659
0.6498 8.3161 -2.3469 0.9659
-0.0929 8.3401 -2.3467 0.9659
-2.2924 8.0171 -2.3460 0.9659
-5.5219 6.2438 -2.3452 0.9660
-6.0554 5.7272 -2.3450 0.9660
-7.8298 4.1782 -2.4970 0.9638
-8.4462 2.7236 -2.4969 0.9638
-8.6550 1.9610 -2.4969 0.9638
-8.8656 0.3954 -2.4969 0.9638
-3.7396 -0.5029 -1.0616 0.9844
-6.4502 -6.1005 -2.4979 0.9638
-5.2672 -7.1487 -2.4983 0.9638
-4.6104 -7.5898 -2.4986 0.9638
-3.9170 -7.9707 -2.4988 0.9638
-3.1923 -8.2885 -2.4990 0.9638
-1.6724 -8.7248 -2.4995 0.9638
-0.0990 -8.8848 -2.5000 0.9638
1.4782 -8.7632 -2.5004 0.9637
2.2525 -8.5976 -2.5006 0.9637
3.0090 -8.3637 -2.5009 0.9637
4.4450 -7.6989 -2.5012 0.9637
8.1080 -3.6532 -2.5021 0.9637
8.4012 -2.9171 -2.5022 0.9637
8.8910 0.1982 -2.5022 0.9637
8.8379 0.9887 -2.5021 0.9637
13.0727 2.6571 -3.7533 0.9461
7.0868 4.4137 -2.3490 0.9659
6.1911 5.5996 -2.3487 0.9659
5.6677 6.1279 -2.3485 0.9659
5.0994 6.6075 -2.3483 0.9659
4.4907 7.0346 -2.3481 0.9659
2.4719 7.9688 -2.3475 0.9659
0.2787 8.3364 -2.3468 0.9659
-1.9331 8.1116 -2.3461 0.9659
-2.6471 7.9067 -2.3459 0.9659
-3.3401 7.6390 -2.3458 0.9659
-4.0064 7.3109 -2.3456 0.9660
-4.6409 6.9248 -2.3454 0.9660
-5.2385 6.4838 -2.3452 0.9660
-5.7944 5.9915 -2.3451 0.9660
-6.3044 5.4517 -2.3450 0.9660
-7.6361 4.5229 -2.4970 0.9638
-8.7338 1.5735 -2.4969 0.9638
-3.5918 -0.3209 -1.0796 0.9851
-3.4798 -0.6269 -1.0586 0.9853
-7.5275 -3.5955 -2.4975 0.9658
-6.7715 -4.8738 -2.4978 0.9658
-5.8009 -5.9980 -2.4981 0.9658
-4.6462 -6.9326 -2.4985 0.9658
-3.3440 -7.6479 -2.4989 0.9657
-2.6502 -7.9158 -2.4992 0.9657
-1.2049 -8.2618 -2.4996 0.9657
1.7547 -8.1657 -2.5005 0.9657
2.4747 -7.9778 -2.5007 0.9657
3.1752 -7.7264 -2.5009 0.9657
3.8506 -7.4137 -2.5011 0.9657
4.4955 -7.0420 -2.5012 0.9657
5.6736 -6.1341 -2.5015 0.9657
6.1973 -5.6051 -2.5017 0.9657
6.6719 -5.0315 -2.5018 0.9657
7.7649 -3.0903 -2.5020 0.9657
8.0092 -2.3870 -2.5020 0.9657
8.3056 -0.9291 -2.5020 0.9657
8.3553 -0.1862 -2.5020 0.9657
6.8382 3.8471 -2.3490 0.9678
6.4683 4.4402 -2.3488 0.9678
6.0470 4.9980 -2.3487 0.9678
5.5778 5.5160 -2.3485 0.9678
3.9213 6.7920 -2.3479 0.9678
3.3010 7.1135 -2.3477 0.9678
2.6545 7.3784 -2.3475 0.9678
-2.1544 7.5346 -2.3461 0.9678
-4.6471 6.3072 -2.3454 0.9678
-6.9804 4.5664 -2.4972 0.9658
-7.3589 3.9269 -2.4972 0.9658
-7.6790 3.2562 -2.4971 0.9658
-7.9382 2.5598 -2.4971 0.9658
-8.1345 1.8431 -2.4970 0.9658
-8.2662 1.1117 -2.4970 0.9658
-3.6646 -0.1634 -1.0982 0.9848
-3.5144 -0.4726 -1.0616 0.9853
-3.4642 -0.7849 -1.0634 0.9853
-7.3601 -3.9274 -2.4976 0.9658
-6.9817 -4.5672 -2.4977 0.9658
-6.5479 -5.1708 -2.4979 0.9658
-5.5282 -6.2507 -2.4982 0.9658
-4.3330 -7.1330 -2.4986 0.9658
-3.6812 -7.4910 -2.4988 0.9657
-3.0001 -7.7896 -2.4990 0.9657
-0.8358 -8.3077 -2.4997 0.9657
-0.0930 -8.3498 -2.4999 0.9657
0.6506 -8.3257 -2.5002 0.9657
5.9413 -5.8755 -2.5016 0.9657
6.8896 -4.7294 -2.5018 0.9657
7.2834 -4.0976 -2.5019 0.9657
7.6194 -3.4331 -2.5020 0.9657
8.1076 -2.0278 -2.5020 0.9657
8.2560 -1.2982 -2.5020 0.9657
8.3387 -0.5582 -2.5020 0.9657
8.3552 0.1863 -2.5020 0.9657
8.3053 0.9292 -2.5019 0.9657
12.0134 3.5804 -3.7529 0.9490
7.0030 3.5388 -2.3490 0.9678
6.6598 4.1478 -2.3489 0.9678
5.8181 5.2622 -2.3486 0.9678
5.3263 5.7588 -2.3484 0.9678
4.7922 6.2095 -2.3482 0.9678
2.3231 7.4890 -2.3474 0.9678
0.9583 7.7808 -2.3470 0.9678
0.2619 7.8346 -2.3468 0.9678
-0.4364 7.8261 -2.3466 0.9678
-3.1391 7.1794 -2.3458 0.9678
-5.4459 5.6310 -2.3452 0.9678
-6.6250 4.7685 -2.4437 0.9665
-7.1768 4.2509 -2.4972 0.9658
-8.0443 2.2036 -2.4970 0.9658
-8.3076 0.7424 -2.4970 0.9658
-3.7562 0.0000 -1.1929 0.9844
-3.2843 -0.5917 -1.0598 0.9861
-7.3696 -2.7444 -2.4975 0.9675
-7.0964 -3.3896 -2.4976 0.9675
-5.9497 -5.1449 -2.4980 0.9675
-5.4686 -5.6544 -2.4982 0.9675
-3.1524 -7.2096 -2.4990 0.9675
-2.4983 -7.4622 -2.4992 0.9675
0.9623 -7.8135 -2.5002 0.9675
1.6541 -7.6975 -2.5004 0.9675
2.9931 -7.2833 -2.5008 0.9675
3.6298 -6.9885 -2.5010 0.9675
4.2377 -6.6381 -2.5011 0.9675
4.8120 -6.2350 -2.5013 0.9675
5.3481 -5.7822 -2.5014 0.9675
7.0309 -3.5528 -2.5018 0.9675
7.5497 -2.2500 -2.5019 0.9675
7.8759 -0.1754 -2.5019 0.9675
7.8601 0.5262 -2.5018 0.9675
11.4635 2.8673 -3.7528 0.9516
6.0972 4.1855 -2.3487 0.9694
3.6965 6.4026 -2.3479 0.9694
1.8732 7.1499 -2.3473 0.9695
1.2293 7.2877 -2.3471 0.9695
0.5757 7.3675 -2.3469 0.9695
-0.0823 7.3889 -2.3467 0.9695
-0.7396 7.3516 -2.3465 0.9695
-1.3908 7.2561 -2.3464 0.9695
-2.0310 7.1029 -2.3462 0.9695
-3.2577 6.6293 -2.3458 0.9695
-3.8346 6.3126 -2.3457 0.9695
-4.8925 5.5321 -2.3454 0.9695
-5.3652 5.0744 -2.3453 0.9695
-5.8839 4.6465 -2.3811 0.9690
-6.5806 4.3049 -2.4974 0.9675
-7.2393 3.0698 -2.4972 0.9675
-7.6686 1.7375 -2.4972 0.9675
-7.7929 1.0481 -2.4972 0.9675
-4.3818 0.1954 -1.3930 0.9818
-3.3189 -0.4463 -1.0635 0.9860
-7.2402 -3.0701 -2.4975 0.9675
-6.5818 -4.3056 -2.4978 0.9675
-6.1728 -4.8746 -2.4980 0.9675
-5.7148 -5.4050 -2.4981 0.9675
-5.2114 -5.8926 -2.4983 0.9675
-4.0847 -6.7243 -2.4987 0.9675
-3.4702 -7.0617 -2.4989 0.9675
-2.8282 -7.3431 -2.4991 0.9675
-2.1635 -7.5663 -2.4993 0.9675
-1.4816 -7.7296 -2.4995 0.9675
-0.0877 -7.8711 -2.4999 0.9675
1.9954 -7.6164 -2.5005 0.9675
3.3147 -7.1430 -2.5009 0.9675
3.9376 -6.8201 -2.5010 0.9675
4.5293 -6.4429 -2.5012 0.9675
5.0851 -6.0146 -2.5013 0.9675
6.0715 -5.0182 -2.5016 0.9675
7.1823 -3.2361 -2.5018 0.9675
7.4419 -2.5841 -2.5019 0.9675
7.6425 -1.9114 -2.5019 0.9675
7.8603 -0.5261 -2.5019 0.9675
7.7196 1.5691 -2.5017 0.9675
6.8723 2.7352 -2.3490 0.9694
6.6013 3.3358 -2.3489 0.9694
6.2778 3.9099 -2.3488 0.9694
4.5174 5.8534 -2.3482 0.9694
3.4075 6.5606 -2.3478 0.9694
2.8098 6.8373 -2.3476 0.9695
2.1899 7.0597 -2.3474 0.9695
1.5528 7.2259 -2.3472 0.9695
0.9034 7.3349 -2.3470 0.9695
0.2469 7.3855 -2.3468 0.9695
-1.0663 7.3111 -2.3464 0.9695
-1.7126 7.1866 -2.3463 0.9695
-2.3453 7.0051 -2.3461 0.9695
-2.9593 6.7681 -2.3459 0.9695
-3.5497 6.4774 -2.3458 0.9695
-4.1118 6.1353 -2.3456 0.9695
-5.5858 4.8303 -2.3452 0.9695
-6.3824 4.5938 -2.4974 0.9675
-7.5837 2.0774 -2.4972 0.9675
-7.7384 1.3942 -2.4972 0.9675
-3.2019 -0.2861 -1.0801 0.9865
-3.1483 -0.5672 -1.0748 0.9866
-3.1349 -0.8587 -1.0921 0.9864
-6.3966 -3.7887 -2.4978 0.9691
-6.0343 -4.3432 -2.4980 0.9691
-5.6241 -4.8633 -2.4981 0.9691
-4.6733 -5.7842 -2.4984 0.9691
-4.1402 -6.1777 -2.4986 0.9691
-2.9798 -6.8149 -2.4990 0.9691
-1.7245 -7.2364 -2.4994 0.9691
-1.0737 -7.3617 -2.4996 0.9691
0.2486 -7.4367 -2.5000 0.9691
0.9096 -7.3855 -2.5002 0.9691
1.5635 -7.2759 -2.5004 0.9691
2.8292 -6.8843 -2.5007 0.9691
4.0055 -6.2745 -2.5010 0.9691
5.0551 -5.4654 -2.5013 0.9691
5.9445 -4.4829 -2.5015 0.9691
6.3201 -3.9362 -2.5016 0.9691
7.4293 0.4974 -2.5017 0.9691
7.3554 1.1566 -2.5017 0.9691
7.2231 1.8067 -2.5016 0.9691
10.5507 3.6636 -3.7525 0.9540
6.0927 3.4278 -2.3488 0.9709
5.3879 4.4532 -2.3485 0.9709
4.9698 4.9148 -2.3484 0.9709
4.5123 5.3373 -2.3482 0.9709
4.0191 5.7173 -2.3480 0.9709
3.4940 6.0519 -2.3479 0.9709
2.9413 6.3384 -2.3477 0.9709
2.3653 6.5745 -2.3475 0.9709
1.7706 6.7584 -2.3473 0.9709
0.5442 6.9641 -2.3469 0.9710
-0.0778 6.9844 -2.3468 0.9710
-0.6991 6.9492 -2.3466 0.9710
-1.3147 6.8589 -2.3464 0.9710
-1.9198 6.7141 -2.3462 0.9710
-3.0794 6.2665 -2.3459 0.9710
-3.6247 5.9672 -2.3458 0.9710
-4.1412 5.6205 -2.3456 0.9710
-4.6248 5.2294 -2.3455 0.9710
-6.8432 2.9018 -2.4974 0.9691
-7.0742 2.2812 -2.4973 0.9691
-4.1559 0.1853 -1.3977 0.9826
-3.2675 -0.1457 -1.0989 0.9863
-3.1639 -0.4255 -1.0726 0.9866
-3.1355 -0.7104 -1.0802 0.9865
-3.1418 -1.0131 -1.1091 0.9862
-6.8440 -2.9021 -2.4977 0.9691
-6.5588 -3.4998 -2.4978 0.9691
-5.8350 -4.6078 -2.4980 0.9691
-5.4021 -5.1092 -2.4982 0.9691
-4.9262 -5.5701 -2.4984 0.9691
-4.4112 -5.9868 -2.4985 0.9691
-3.8611 -6.3562 -2.4987 0.9691
-3.2803 -6.6751 -2.4989 0.9691
-2.0451 -7.1521 -2.4993 0.9691
-1.4005 -7.3063 -2.4995 0.9691
-0.0829 -7.4400 -2.4999 0.9691
0.5797 -7.4185 -2.5001 0.9691
1.2378 -7.3380 -2.5003 0.9691
1.8861 -7.1992 -2.5005 0.9691
2.5196 -7.0033 -2.5006 0.9691
3.1331 -6.7517 -2.5008 0.9691
3.7219 -6.4464 -2.5010 0.9691
4.2811 -6.0899 -2.5011 0.9691
4.8064 -5.6850 -2.5012 0.9691
5.2936 -5.2349 -2.5014 0.9691
5.7388 -4.7432 -2.5015 0.9691
7.0341 -2.4424 -2.5017 0.9691
7.2236 -1.8067 -2.5018 0.9691
7.3558 -1.1566 -2.5018 0.9691
7.4295 -0.4973 -2.5018 0.9691
7.4442 0.1659 -2.5017 0.9691
7.3997 0.8278 -2.5017 0.9691
7.2965 1.4831 -2.5016 0.9691
6.4957 2.5853 -2.3489 0.9709
5.9338 3.6956 -2.3487 0.9709
5.5810 4.2089 -2.3486 0.9709
5.1840 4.6887 -2.3484 0.9709
4.7458 5.1311 -2.3483 0.9709
2.6559 6.4629 -2.3476 0.9709
1.4677 6.8303 -2.3472 0.9710
0.8539 6.9333 -2.3470 0.9710
-0.3888 6.9737 -2.3467 0.9710
-1.0079 6.9109 -2.3465 0.9710
-1.6189 6.7932 -2.3463 0.9710
-3.8868 5.7996 -2.3457 0.9710
-4.8530 5.0180 -2.3454 0.9710
-6.0332 4.3425 -2.4975 0.9691
-6.7072 3.2038 -2.4974 0.9691
-7.1688 1.9638 -2.4973 0.9691
-3.0930 -0.2764 -1.1011 0.9869
-3.0442 -0.5484 -1.0968 0.9870
-3.0229 -0.8281 -1.1114 0.9868
-6.0612 -3.5900 -2.4979 0.9705
-5.7179 -4.1154 -2.4980 0.9705
-4.8982 -5.0646 -2.4983 0.9705
-4.4282 -5.4808 -2.4985 0.9705
-3.3868 -6.1800 -2.4988 0.9705
-2.8235 -6.4574 -2.4990 0.9705
-0.3925 -7.0389 -2.4998 0.9705
0.8619 -6.9979 -2.5001 0.9705
1.4814 -6.8940 -2.5003 0.9705
4.7896 -5.1784 -2.5012 0.9705
5.9883 -3.7295 -2.5015 0.9705
6.5549 -2.6088 -2.5016 0.9705
6.7612 -2.0150 -2.5016 0.9705
6.9138 -1.4052 -2.5017 0.9705
7.0114 -0.7843 -2.5017 0.9705
7.0533 -0.1571 -2.5016 0.9705
7.0392 0.4713 -2.5016 0.9705
6.9692 1.0959 -2.5015 0.9705
4.2755 5.0571 -2.3481 0.9723
1.1010 6.5272 -2.3471 0.9723
0.5156 6.5988 -2.3469 0.9723
-2.3780 6.1744 -2.3461 0.9723
-2.9179 5.9379 -2.3460 0.9723
-3.4347 5.6543 -2.3458 0.9723
-3.9241 5.3258 -2.3457 0.9723
-4.3823 4.9552 -2.3456 0.9723
-4.8057 4.5453 -2.3455 0.9723
-5.5281 4.3655 -2.4977 0.9705
-6.4844 2.7497 -2.4975 0.9706
-6.7034 2.1616 -2.4974 0.9706
-6.8691 1.5564 -2.4974 0.9706
-6.9803 0.9388 -2.4974 0.9706
-3.9464 0.1760 -1.4007 0.9834
-3.1623 -0.1410 -1.1224 0.9867
-3.0595 -0.4114 -1.0946 0.9870
-3.0241 -0.6852 -1.0995 0.9869
-3.0191 -0.9735 -1.1248 0.9866
-6.2149 -3.3163 -2.4979 0.9705
-5.8954 -3.8566 -2.4980 0.9705
-5.5290 -4.3662 -2.4981 0.9705
-4.6678 -5.2779 -2.4984 0.9705
-4.1798 -5.6729 -2.4986 0.9705
-3.6586 -6.0228 -2.4988 0.9705
-3.1082 -6.3250 -2.4989 0.9705
-2.5331 -6.5770 -2.4991 0.9705
-0.0785 -7.0496 -2.4999 0.9705
2.3873 -6.6357 -2.5006 0.9705
2.9687 -6.3973 -2.5007 0.9705
4.0564 -5.7702 -2.5010 0.9705
4.5541 -5.3865 -2.5012 0.9705
5.0157 -4.9601 -2.5013 0.9705
5.4375 -4.4941 -2.5014 0.9705
6.1485 -3.4591 -2.5015 0.9705
6.6647 -2.3142 -2.5016 0.9705
6.9695 -1.0958 -2.5017 0.9705
7.0393 -0.4712 -2.5016 0.9705
7.0112 0.7844 -2.5016 0.9705
5.6223 3.5016 -2.3486 0.9723
5.2880 3.9879 -2.3485 0.9723
4.9118 4.4425 -2.3484 0.9723
3.5629 5.5813 -2.3479 0.9723
3.0518 5.8758 -2.3477 0.9723
2.5165 6.1237 -2.3476 0.9723
0.2212 6.6149 -2.3469 0.9723
-0.3684 6.6079 -2.3467 0.9723
-0.9550 6.5484 -2.3465 0.9723
-2.1007 6.2744 -2.3462 0.9723
-2.6506 6.0622 -2.3460 0.9723
-3.6830 5.4955 -2.3458 0.9723
-4.1573 5.1456 -2.3456 0.9723
-6.6004 2.4581 -2.4975 0.9706
-6.7930 1.8608 -2.4974 0.9706
-6.9316 1.2488 -2.4974 0.9706
-3.3740 0.0000 -1.2599 0.9857
-2.9455 -0.5306 -1.1176 0.9873
-2.9169 -0.7990 -1.1293 0.9872
-2.9238 -1.0888 -1.1650 0.9868
-6.0361 -2.8832 -2.4979 0.9718
-5.7558 -3.4091 -2.4980 0.9718
-5.4298 -3.9081 -2.4981 0.9718
-4.6514 -4.8094 -2.4984 0.9718
-0.3727 -6.6840 -2.4998 0.9718
0.8184 -6.6451 -2.5001 0.9718
1.4067 -6.5463 -2.5003 0.9718
3.0868 -5.9432 -2.5008 0.9718
3.6038 -5.6452 -2.5009 0.9718
4.0921 -5.3023 -2.5010 0.9718
4.9678 -4.4931 -2.5012 0.9718
5.6862 -3.5413 -2.5014 0.9718
5.9789 -3.0213 -2.5015 0.9718
6.4201 -1.9133 -2.5015 0.9718
6.5649 -1.3343 -2.5015 0.9718
6.6576 -0.7447 -2.5015 0.9718
6.6176 1.0406 -2.5014 0.9718
6.4985 1.6254 -2.5014 0.9718
9.4924 3.2962 -3.7522 0.9580
4.8475 4.0066 -2.3484 0.9735
4.4714 4.4219 -2.3482 0.9735
2.6464 5.7029 -2.3476 0.9735
2.1282 5.9154 -2.3475 0.9735
1.5931 6.0809 -2.3473 0.9735
1.0455 6.1981 -2.3471 0.9735
0.4896 6.2661 -2.3470 0.9735
-1.1830 6.1716 -2.3465 0.9735
-2.2582 5.8633 -2.3462 0.9735
-3.2616 5.3694 -2.3459 0.9735
-4.1615 4.7055 -2.3457 0.9735
-5.2496 4.1455 -2.4978 0.9718
-5.5975 3.6618 -2.4977 0.9718
-5.9011 3.1490 -2.4976 0.9718
-6.1578 2.6112 -2.4976 0.9718
-3.0832 -0.1375 -1.1525 0.9869
-2.9640 -0.3986 -1.1167 0.9873
-2.9258 -0.6629 -1.1202 0.9873
-5.5984 -3.6622 -2.4981 0.9718
-4.8608 -4.5973 -2.4983 0.9718
-2.9515 -6.0062 -2.4990 0.9718
-2.4054 -6.2455 -2.4991 0.9718
-1.8401 -6.4352 -2.4993 0.9718
-1.2601 -6.5740 -2.4995 0.9718
-0.6700 -6.6605 -2.4997 0.9718
-0.0746 -6.6942 -2.4999 0.9718
1.6970 -6.4774 -2.5004 0.9718
2.2669 -6.3010 -2.5005 0.9718
2.8189 -6.0746 -2.5007 0.9718
3.3486 -5.7999 -2.5008 0.9718
3.8518 -5.4792 -2.5010 0.9718
4.7627 -4.7098 -2.5012 0.9718
5.1632 -4.2674 -2.5013 0.9718
5.5227 -3.7911 -2.5014 0.9718
5.8383 -3.2846 -2.5014 0.9718
6.1077 -2.7519 -2.5015 0.9718
6.3284 -2.1974 -2.5015 0.9718
6.6179 -1.0406 -2.5015 0.9718
6.6842 -0.4474 -2.5015 0.9718
6.6974 0.1493 -2.5015 0.9718
6.6574 0.7448 -2.5015 0.9718
6.5646 1.3343 -2.5014 0.9718
5.6137 2.8368 -2.3487 0.9735
3.8418 4.9780 -2.3480 0.9735
3.3833 5.2998 -2.3479 0.9735
2.3897 5.8149 -2.3475 0.9735
1.8625 6.0041 -2.3474 0.9735
1.3206 6.1456 -2.3472 0.9735
0.7683 6.2383 -2.3470 0.9735
0.2100 6.2815 -2.3469 0.9735
-1.4567 6.1125 -2.3464 0.9735
-2.5170 5.7567 -2.3461 0.9735
-3.0192 5.5095 -2.3460 0.9735
-3.4974 5.2186 -2.3458 0.9735
-5.7550 3.4087 -2.4977 0.9718
-6.4508 1.7671 -2.4975 0.9718
-2.9005 -0.2592 -1.1429 0.9876
-2.8528 -1.0624 -1.1947 0.9870
-5.7432 -2.7432 -2.4980 0.9730
-5.1662 -3.7184 -2.4982 0.9730
-4.4256 -4.5760 -2.4985 0.9730
-3.5445 -5.2887 -2.4988 0.9730
-3.0599 -5.5836 -2.4989 0.9730
-2.5510 -5.8342 -2.4991 0.9730
-2.0217 -6.0385 -2.4992 0.9730
-1.4763 -6.1949 -2.4994 0.9730
-0.9191 -6.3021 -2.4996 0.9730
0.2129 -6.3661 -2.4999 0.9730
1.3384 -6.2283 -2.5002 0.9730
2.9369 -5.6545 -2.5007 0.9730
3.8933 -5.0446 -2.5009 0.9730
4.3270 -4.6783 -2.5011 0.9730
4.7264 -4.2748 -2.5012 0.9730
5.4098 -3.3692 -2.5013 0.9730
6.2459 -1.2695 -2.5014 0.9730
6.3341 -0.7085 -2.5014 0.9730
6.3720 -0.1420 -2.5014 0.9730
6.2960 0.9900 -2.5013 0.9730
6.1827 1.5465 -2.5013 0.9730
9.0311 3.1360 -3.7520 0.9598
4.9332 3.3865 -2.3484 0.9746
4.6120 3.8120 -2.3483 0.9746
4.2542 4.2071 -2.3482 0.9746
3.8626 4.5687 -2.3480 0.9746
2.9910 5.1806 -2.3478 0.9746
2.5179 5.4259 -2.3476 0.9746
2.0248 5.6281 -2.3474 0.9746
0.9947 5.8971 -2.3471 0.9746
0.4659 5.9619 -2.3470 0.9746
-0.0666 5.9792 -2.3468 0.9746
-1.1255 5.8719 -2.3465 0.9746
-3.1033 5.1087 -2.3460 0.9746
-4.6241 4.3735 -2.4979 0.9730
-4.9948 3.9444 -2.4979 0.9730
-5.3259 3.4841 -2.4978 0.9730
-5.8590 2.4845 -2.4977 0.9730
-6.2065 1.4063 -2.4976 0.9730
-2.8734 -0.3864 -1.1379 0.9876
-2.8717 -1.2177 -1.2242 0.9867
-5.3266 -3.4845 -2.4981 0.9730
-4.9956 -3.9449 -2.4983 0.9730
-3.7765 -5.1254 -2.4987 0.9730
-3.3055 -5.4415 -2.4988 0.9730
-2.2886 -5.9422 -2.4992 0.9730
-0.6375 -6.3370 -2.4997 0.9730
-0.0710 -6.3691 -2.4998 0.9730
1.0596 -6.2816 -2.5002 0.9730
1.6146 -6.1627 -2.5003 0.9730
2.6820 -5.7795 -2.5006 0.9730
3.1859 -5.5181 -2.5008 0.9730
4.1142 -4.8663 -2.5010 0.9730
4.5312 -4.4810 -2.5011 0.9730
4.9123 -4.0600 -2.5012 0.9730
5.2543 -3.6068 -2.5013 0.9730
5.5546 -3.1249 -2.5013 0.9730
5.8108 -2.6182 -2.5014 0.9730
6.1831 -1.5465 -2.5014 0.9730
6.3593 -0.4257 -2.5014 0.9730
6.3719 0.1420 -2.5014 0.9730
6.2456 1.2695 -2.5013 0.9730
6.1076 1.8203 -2.5012 0.9730
8.8823 3.5351 -3.7520 0.9598
8.5321 4.3114 -3.7518 0.9598
5.0793 3.1635 -2.3485 0.9746
4.7773 3.6028 -2.3484 0.9746
4.4375 4.0135 -2.3482 0.9746
4.0624 4.3923 -2.3481 0.9746
3.6552 4.7361 -2.3480 0.9746
3.2189 5.0424 -2.3478 0.9746
1.2565 5.8471 -2.3472 0.9746
0.7310 5.9354 -2.3470 0.9746
0.1998 5.9765 -2.3469 0.9746
-1.3860 5.8157 -2.3464 0.9746
-2.3949 5.4772 -2.3461 0.9746
-2.8727 5.2421 -2.3460 0.9746
-6.1377 1.6813 -2.4976 0.9730
-6.2630 1.1284 -2.4976 0.9730
-3.1614 0.0000 -1.3018 0.9864
-2.8130 -0.2513 -1.1629 0.9879
-2.7831 -0.5014 -1.1645 0.9878
-2.7695 -0.7586 -1.1825 0.9877
-5.2198 -3.0917 -2.4981 0.9741
-4.9241 -3.5441 -2.4983 0.9741
-4.2181 -4.3614 -2.4985 0.9741
-2.9165 -5.3218 -2.4989 0.9741
-2.4314 -5.5606 -2.4991 0.9741
-1.9269 -5.7553 -2.4993 0.9741
-1.4071 -5.9044 -2.4994 0.9741
-0.8760 -6.0066 -2.4996 0.9741
0.7422 -6.0257 -2.5001 0.9741
1.7990 -5.7994 -2.5004 0.9741
2.7991 -5.3891 -2.5006 0.9741
3.2678 -5.1189 -2.5008 0.9741
3.7106 -4.8079 -2.5009 0.9741
4.1240 -4.4588 -2.5010 0.9741
4.8496 -3.6572 -2.5012 0.9741
5.1560 -3.2111 -2.5012 0.9741
5.4214 -2.7395 -2.5013 0.9741
6.0608 0.4058 -2.5013 0.9741
5.8926 1.4739 -2.5012 0.9741
5.7379 1.9924 -2.5011 0.9741
7.9404 4.4672 -3.7517 0.9614
4.7017 3.2276 -2.3484 0.9756
3.2790 4.6645 -2.3479 0.9756
2.8507 4.9376 -2.3477 0.9756
2.3998 5.1714 -2.3476 0.9756
1.9298 5.3641 -2.3474 0.9756
0.4440 5.6823 -2.3470 0.9756
-0.0635 5.6989 -2.3468 0.9756
-0.5704 5.6703 -2.3467 0.9756
-1.5665 5.4786 -2.3464 0.9757
-2.0478 5.3172 -2.3463 0.9757
-2.5128 5.1135 -2.3461 0.9757
-2.9578 4.8693 -2.3460 0.9757
-3.7852 4.2800 -2.3528 0.9756
-4.4074 4.1685 -2.4980 0.9741
-4.7607 3.7595 -2.4979 0.9741
-5.0763 3.3208 -2.4979 0.9741
-5.7729 1.8616 -2.4977 0.9741
-5.9157 1.3403 -2.4977 0.9741
-2.9337 -0.1308 -1.2092 0.9874
-2.7946 -0.3758 -1.1611 0.9879
-2.7756 -0.6288 -1.1719 0.9878
-4.7615 -3.7601 -2.4983 0.9741
-4.0197 -4.5452 -2.4986 0.9741
-2.6766 -5.4466 -2.4990 0.9741
-1.6687 -5.8357 -2.4993 0.9741
-1.1427 -5.9614 -2.4995 0.9741
-0.6076 -6.0398 -2.4997 0.9741
-0.0676 -6.0703 -2.4998 0.9741
0.4730 -6.0526 -2.5000 0.9741
2.5562 -5.5083 -2.5006 0.9741
3.4927 -4.9684 -2.5008 0.9741
4.3186 -4.2707 -2.5010 0.9741
4.6818 -3.8695 -2.5011 0.9741
5.2939 -2.9783 -2.5013 0.9741
5.5381 -2.4953 -2.5013 0.9741
5.7383 -1.9925 -2.5013 0.9741
5.8929 -1.4739 -2.5014 0.9741
6.0008 -0.9435 -2.5014 0.9741
6.0609 -0.4057 -2.5013 0.9741
8.1317 4.1092 -3.7517 0.9614
4.2293 3.8252 -2.3482 0.9756
3.8718 4.1862 -2.3481 0.9756
3.4837 4.5140 -2.3479 0.9756
2.6278 5.0595 -2.3477 0.9756
2.1670 5.2730 -2.3475 0.9756
1.6889 5.4446 -2.3474 0.9756
1.1976 5.5730 -2.3472 0.9756
-0.3173 5.6902 -2.3467 0.9756
-0.8224 5.6391 -2.3466 0.9756
-1.3210 5.5431 -2.3465 0.9757
-1.8090 5.4032 -2.3463 0.9757
-4.1791 4.3212 -2.4754 0.9743
-4.9234 3.5437 -2.4979 0.9741
-5.2191 3.0913 -2.4978 0.9741
-5.4734 2.6145 -2.4978 0.9741
-5.6843 2.1169 -2.4977 0.9741
-5.8501 1.6025 -2.4977 0.9741
-3.0794 0.0000 -1.3283 0.9867
-2.7539 -0.2461 -1.1927 0.9880
-2.7299 -1.3040 -1.3050 0.9869
-4.3811 -3.7885 -2.4984 0.9751
-4.0268 -4.1636 -2.4986 0.9751
-3.6404 -4.5057 -2.4987 0.9751
-2.7841 -5.0803 -2.4990 0.9751
-1.8395 -5.4942 -2.4993 0.9751
-1.3432 -5.6364 -2.4994 0.9751
-0.8363 -5.7340 -2.4996 0.9751
0.7085 -5.7522 -2.5000 0.9751
1.7173 -5.5361 -2.5003 0.9751
2.2034 -5.3616 -2.5005 0.9751
3.1194 -4.8864 -2.5007 0.9751
3.9367 -4.2563 -2.5009 0.9751
4.6293 -3.4911 -2.5011 0.9751
4.9218 -3.0653 -2.5011 0.9751
5.3875 -2.1441 -2.5012 0.9751
5.5570 -1.6561 -2.5013 0.9751
5.6824 -1.1549 -2.5013 0.9751
5.7971 -0.1291 -2.5013 0.9751
5.6250 1.4069 -2.5011 0.9751
5.4773 1.9020 -2.5011 0.9751
4.4883 3.0810 -2.3483 0.9766
3.8705 3.8277 -2.3481 0.9766
3.1302 4.4528 -2.3478 0.9766
2.2908 4.9367 -2.3476 0.9766
1.8423 5.1207 -2.3474 0.9766
1.3791 5.2640 -2.3473 0.9766
0.4239 5.4244 -2.3470 0.9766
-0.0606 5.4403 -2.3468 0.9766
-1.4955 5.2301 -2.3464 0.9766
-1.9549 5.0759 -2.3463 0.9766
-3.7592 4.2507 -2.4477 0.9756
-4.2074 3.9794 -2.4981 0.9751
-5.5111 1.7772 -2.4978 0.9751
-5.6474 1.2796 -2.4978 0.9751
-5.7389 0.7719 -2.4978 0.9751
-3.3811 0.1508 -1.4599 0.9854
-2.8614 -0.1276 -1.2355 0.9876
-2.7200 -0.6163 -1.2030 0.9879
-2.7166 -0.8760 -1.2313 0.9876
-2.7334 -1.1590 -1.2807 0.9871
-4.8467 -3.1705 -2.4983 0.9751
-4.2081 -3.9800 -2.4985 0.9751
-3.8374 -4.3389 -2.4986 0.9751
-3.4361 -4.6635 -2.4988 0.9751
-3.0076 -4.9511 -2.4989 0.9751
-2.5551 -5.1995 -2.4990 0.9751
-2.0823 -5.4066 -2.4992 0.9751
-1.5929 -5.5708 -2.4993 0.9751
0.4515 -5.7779 -2.5000 0.9751
0.9640 -5.7152 -2.5001 0.9751
1.9623 -5.4543 -2.5004 0.9751
2.4401 -5.2582 -2.5005 0.9751
2.8986 -5.0204 -2.5006 0.9751
4.1225 -4.0768 -2.5010 0.9751
4.7803 -3.2815 -2.5011 0.9751
5.2866 -2.3820 -2.5012 0.9751
5.4777 -1.9020 -2.5013 0.9751
5.6253 -1.4069 -2.5013 0.9751
5.7282 -0.9007 -2.5013 0.9751
5.7971 0.1293 -2.5012 0.9751
5.7625 0.6447 -2.5012 0.9751
5.5567 1.6561 -2.5011 0.9751
7.7625 3.9226 -3.7516 0.9628
7.3823 4.5978 -3.7515 0.9628
4.3465 3.2779 -2.3483 0.9766
3.6961 3.9962 -2.3480 0.9766
3.3255 4.3090 -2.3479 0.9766
2.9286 4.5877 -2.3478 0.9766
2.5086 4.8299 -2.3476 0.9766
2.0686 5.0337 -2.3475 0.9766
1.6123 5.1975 -2.3473 0.9766
1.1432 5.3200 -2.3472 0.9766
-0.3029 5.4320 -2.3468 0.9766
-0.7851 5.3832 -2.3466 0.9766
-1.2610 5.2916 -2.3465 0.9766
-2.6138 4.7697 -2.3461 0.9766
-3.0278 4.5179 -2.3460 0.9766
-4.0261 4.1630 -2.4981 0.9751
-4.3805 3.7880 -2.4980 0.9751
-4.7001 3.3829 -2.4980 0.9751
-4.9824 2.9512 -2.4979 0.9751
-5.5848 1.5299 -2.4978 0.9751
-3.8265 0.3420 -1.6572 0.9834
-2.6738 -0.4817 -1.2259 0.9881
-2.6546 -0.7271 -1.2419 0.9880
-3.8496 -3.9804 -2.4986 0.9760
-3.4802 -4.3075 -2.4987 0.9760
-2.6616 -4.8568 -2.4990 0.9760
-0.3084 -5.5313 -2.4997 0.9760
0.1851 -5.5371 -2.4999 0.9760
0.6773 -5.4990 -2.5000 0.9760
1.1641 -5.4172 -2.5002 0.9760
2.1064 -5.1255 -2.5004 0.9760
2.5543 -4.9179 -2.5005 0.9760
2.9821 -4.6713 -2.5007 0.9760
3.3862 -4.3875 -2.5008 0.9760
3.7634 -4.0689 -2.5009 0.9760
4.4255 -3.3373 -2.5010 0.9760
4.7051 -2.9303 -2.5011 0.9760
5.1502 -2.0497 -2.5012 0.9760
5.3123 -1.5832 -2.5012 0.9760
5.4322 -1.1041 -2.5012 0.9760
5.5418 -0.1234 -2.5012 0.9760
5.5307 0.3703 -2.5012 0.9760
5.3773 1.3450 -2.5011 0.9760
5.2361 1.8182 -2.5010 0.9760
7.2461 4.0766 -3.7515 0.9642
4.0113 3.3154 -2.3482 0.9774
2.6015 4.5059 -2.3477 0.9774
0.4052 5.1857 -2.3470 0.9774
-0.5206 5.1748 -2.3467 0.9774
-0.9790 5.1076 -2.3466 0.9774
-1.8689 4.8526 -2.3463 0.9774
-2.2933 4.6667 -2.3462 0.9774
-3.0840 4.1858 -2.3460 0.9774
-4.0224 3.8044 -2.4981 0.9760
-4.3449 3.4312 -2.4981 0.9760
-4.6329 3.0307 -2.4980 0.9760
-5.0967 2.1612 -2.4979 0.9760
-5.4865 0.7379 -2.4979 0.9760
-2.7833 -0.1241 -1.2571 0.9878
-2.6659 -0.6040 -1.2334 0.9881
-4.3455 -3.4315 -2.4984 0.9760
-4.0230 -3.8049 -2.4985 0.9760
-3.6686 -4.1481 -2.4987 0.9760
-3.2850 -4.4583 -2.4988 0.9760
-1.9907 -5.1687 -2.4992 0.9760
-0.5545 -5.5119 -2.4997 0.9760
-0.0617 -5.5397 -2.4998 0.9760
1.4043 -5.3601 -2.5002 0.9760
1.8759 -5.2141 -2.5004 0.9760
3.1873 -4.5339 -2.5007 0.9760
3.9410 -3.8972 -2.5009 0.9760
4.2723 -3.5311 -2.5010 0.9760
4.8310 -2.7178 -2.5011 0.9760
5.2365 -1.8182 -2.5012 0.9760
5.4319 1.1041 -2.5011 0.9760
7.4207 3.7499 -3.7515 0.9642
7.0572 4.3953 -3.7514 0.9642
3.8595 3.4908 -2.3481 0.9774
3.1791 4.1194 -2.3479 0.9774
1.9775 4.8121 -2.3475 0.9774
1.0929 5.0859 -2.3472 0.9774
0.6358 5.1626 -2.3471 0.9774
-0.2896 5.1930 -2.3468 0.9774
-0.7506 5.1463 -2.3466 0.9774
-1.2056 5.0588 -2.3465 0.9774
-2.8946 4.3191 -2.3461 0.9774
-3.3823 4.1863 -2.4284 0.9767
-3.8490 3.9798 -2.4982 0.9760
-4.1878 3.6214 -2.4981 0.9760
-4.7633 2.8213 -2.4980 0.9760
-4.9954 2.3861 -2.4979 0.9760
-5.1878 1.9321 -2.4979 0.9760
-5.3392 1.4626 -2.4979 0.9760
-5.4481 0.9815 -2.4979 0.9760
-3.7666 0.3366 -1.7063 0.9835
-2.9112 0.0000 -1.3723 0.9872
-2.6448 -0.2363 -1.2517 0.9883
-2.6016 -0.7126 -1.2715 0.9881
-2.6023 -0.9691 -1.3090 0.9878
-4.0093 -3.4670 -2.4985 0.9768
-3.3314 -4.1233 -2.4988 0.9768
-2.1240 -4.8577 -2.4992 0.9768
-1.6833 -5.0278 -2.4993 0.9768
0.1772 -5.3003 -2.4999 0.9768
0.6483 -5.2638 -2.5000 0.9768
1.5715 -5.0660 -2.5003 0.9768
2.0163 -4.9062 -2.5004 0.9768
2.4451 -4.7075 -2.5005 0.9768
2.8545 -4.4714 -2.5006 0.9768
5.0850 -1.5154 -2.5011 0.9768
5.1997 -1.0568 -2.5011 0.9768
5.2731 -0.5898 -2.5011 0.9768
5.3047 -0.1182 -2.5011 0.9768
5.2941 0.3545 -2.5011 0.9768
5.1472 1.2874 -2.5010 0.9768
5.0120 1.7404 -2.5009 0.9768
6.9361 3.9022 -3.7514 0.9654
3.5418 3.5026 -2.3480 0.9782
2.0963 4.5175 -2.3475 0.9782
1.2620 4.8170 -2.3473 0.9782
0.8282 4.9100 -2.3471 0.9782
0.3879 4.9639 -2.3470 0.9782
-0.0555 4.9785 -2.3469 0.9782
-0.4983 4.9535 -2.3467 0.9782
-2.5840 4.2539 -2.3462 0.9782
-3.0407 4.1270 -2.4164 0.9776
-4.1592 3.2845 -2.4981 0.9768
-4.6754 2.4949 -2.4980 0.9768
-4.8788 2.0689 -2.4980 0.9768
-5.0435 1.6264 -2.4980 0.9768
-5.1683 1.1710 -2.4979 0.9768
-5.2520 0.7064 -2.4979 0.9768
-2.7082 -0.1207 -1.2778 0.9881
-2.6352 -0.3544 -1.2533 0.9883
-2.5994 -0.8382 -1.2874 0.9880
-2.5902 -1.3822 -1.3839 0.9871
-4.4354 -2.9015 -2.4984 0.9768
-4.1597 -3.2849 -2.4985 0.9768
-3.8510 -3.6422 -2.4986 0.9768
-3.5117 -3.9707 -2.4987 0.9768
-3.1445 -4.2677 -2.4988 0.9768
-0.5308 -5.2762 -2.4996 0.9768
3.7723 -3.7305 -2.5008 0.9768
4.0895 -3.3800 -2.5009 0.9768
4.3742 -3.0027 -2.5010 0.9768
4.8375 -2.1796 -2.5011 0.9768
5.0124 -1.7404 -2.5011 0.9768
5.1474 -1.2874 -2.5011 0.9768
5.2416 -0.8242 -2.5011 0.9768
5.2942 -0.3543 -2.5011 0.9768
5.2730 0.5899 -2.5011 0.9768
5.1995 1.0569 -2.5010 0.9768
4.9295 1.9619 -2.5009 0.9768
7.1031 3.5894 -3.7515 0.9654
3.3822 3.6568 -2.3479 0.9782
3.0431 3.9431 -2.3478 0.9782
1.8930 4.6062 -2.3475 0.9782
1.4754 4.7562 -2.3473 0.9782
0.6086 4.9419 -2.3471 0.9782
0.1664 4.9761 -2.3469 0.9782
-0.2772 4.9709 -2.3468 0.9782
-1.5804 4.7203 -2.3464 0.9782
-1.9941 4.5607 -2.3463 0.9782
-2.7710 4.1345 -2.3461 0.9782
-4.7819 2.2842 -2.4980 0.9768
-5.2153 0.9396 -2.4979 0.9768
-3.7076 0.3313 -1.7547 0.9837
-2.5903 -0.2314 -1.2791 0.9885
-2.5499 -0.6985 -1.3004 0.9883
-2.5453 -0.9479 -1.3359 0.9880
-2.5457 -1.2160 -1.3876 0.9875
-4.3704 -2.5885 -2.4984 0.9776
-3.5316 -3.6517 -2.4987 0.9776
-3.1928 -3.9517 -2.4988 0.9776
-2.8285 -4.2204 -2.4989 0.9776
-0.7334 -5.0287 -2.4996 0.9776
1.5061 -4.8550 -2.5002 0.9776
1.9323 -4.7019 -2.5003 0.9776
3.1063 -4.0249 -2.5007 0.9776
3.4523 -3.7325 -2.5007 0.9776
3.7709 -3.4105 -2.5008 0.9776
4.0596 -3.0615 -2.5009 0.9776
4.5383 -2.2932 -2.5010 0.9776
4.7245 -1.8803 -2.5010 0.9776
4.9831 -1.0128 -2.5011 0.9776
5.0735 0.3397 -2.5010 0.9776
5.0231 0.7899 -2.5010 0.9776
4.9328 1.2338 -2.5009 0.9776
4.8032 1.6679 -2.5009 0.9776
6.2877 4.3163 -3.7512 0.9666
3.3943 3.3567 -2.3480 0.9789
2.7451 3.9050 -2.3477 0.9789
2.0090 4.3294 -2.3475 0.9789
0.7937 4.7056 -2.3471 0.9790
-0.4776 4.7473 -2.3467 0.9790
-0.8982 4.6857 -2.3466 0.9790
-1.3116 4.5870 -2.3465 0.9790
-1.7146 4.4518 -2.3464 0.9790
-2.4765 4.0769 -2.3462 0.9790
-3.0131 4.0895 -2.4984 0.9776
-3.3650 3.8049 -2.4983 0.9776
-3.6902 3.4902 -2.4983 0.9776
-3.9861 3.1478 -2.4982 0.9776
-4.9532 1.1223 -2.4980 0.9776
-5.0334 0.6770 -2.4980 0.9776
-2.6467 -0.1180 -1.3031 0.9883
-2.5845 -0.3476 -1.2826 0.9884
-2.5430 -0.8200 -1.3142 0.9882
-4.2508 -2.7807 -2.4984 0.9776
-3.3655 -3.8054 -2.4987 0.9776
-2.6377 -4.3423 -2.4990 0.9776
-1.8262 -4.7417 -2.4992 0.9776
-0.5087 -5.0565 -2.4996 0.9776
0.8454 -5.0121 -2.5000 0.9776
1.7209 -4.7832 -2.5003 0.9776
2.1399 -4.6112 -2.5004 0.9776
2.9238 -4.1591 -2.5006 0.9776
3.6152 -3.5751 -2.5008 0.9776
5.0232 -0.7898 -2.5011 0.9776
5.0836 0.1133 -2.5010 0.9776
5.0533 0.5653 -2.5010 0.9776
4.9829 1.0128 -2.5010 0.9776
4.8728 1.4523 -2.5009 0.9776
4.7241 1.8802 -2.5008 0.9776
6.4739 4.0320 -3.7512 0.9666
6.0891 4.5920 -3.7511 0.9666
3.5405 3.2023 -2.3480 0.9789
2.5684 4.0233 -2.3477 0.9789
1.8141 4.4145 -2.3474 0.9789
1.4140 4.5581 -2.3473 0.9790
0.5833 4.7361 -2.3471 0.9790
0.1595 4.7690 -2.3469 0.9790
-0.2656 4.7640 -2.3468 0.9790
-0.6886 4.7212 -2.3467 0.9790
-2.2925 4.1833 -2.3462 0.9790
-2.7288 4.0717 -2.4108 0.9784
-3.5311 3.6512 -2.4983 0.9776
-3.8420 3.3223 -2.4982 0.9776
-4.1223 2.9671 -2.4982 0.9776
-4.3699 2.5884 -2.4981 0.9776
-4.5829 2.1891 -2.4981 0.9776
-4.7595 1.7725 -2.4980 0.9776
-4.8983 1.3418 -2.4980 0.9776
-3.6334 0.3247 -1.7942 0.9839
-2.7481 0.0000 -1.4089 0.9877
-2.5199 -0.4540 -1.3126 0.9886
-2.4994 -0.6846 -1.3286 0.9884
-2.4879 -1.1884 -1.4135 0.9877
-3.6865 -3.1878 -2.4986 0.9783
-3.3883 -3.5035 -2.4987 0.9783
-3.0632 -3.7913 -2.4988 0.9783
-2.3426 -4.2747 -2.4991 0.9783
-1.1302 -4.7425 -2.4994 0.9783
-0.2714 -4.8682 -2.4997 0.9783
0.1629 -4.8733 -2.4998 0.9783
0.5961 -4.8397 -2.5000 0.9783
1.0245 -4.7677 -2.5001 0.9783
1.4449 -4.6578 -2.5002 0.9783
2.2481 -4.3282 -2.5004 0.9783
