ply
format ascii 1.0
element vertex 1586
property float32 x
property float32 y
property float32 z
property float32 I
end_header
-7.6506 12.5945 -2.3465 0.9421
-8.7413 11.8639 -2.3466 0.9421
-9.7628 11.0389 -2.3466 0.9421
-10.7067 10.1263 -2.3467 0.9421
-11.5657 9.1333 -2.3467 0.9421
-0.7350 -7.3064 -1.1693 0.9707
-0.0789 -7.0804 -1.1275 0.9717
14.6377 1.6375 -2.3454 0.9421
14.1157 4.2069 -2.3454 0.9421
10.0023 10.8144 -2.3457 0.9421
9.0003 11.6620 -2.3457 0.9421
6.7903 13.0737 -2.3459 0.9421
5.5999 13.6266 -2.3459 0.9421
4.3649 14.0712 -2.3460 0.9421
3.0953 14.4043 -2.3460 0.9421
1.8010 14.6230 -2.3461 0.9421
0.4923 14.7256 -2.3462 0.9421
-3.4159 14.3336 -2.3463 0.9421
-5.9034 13.5014 -2.3465 0.9421
-8.2041 12.2414 -2.3466 0.9421
-9.2612 11.4628 -2.3466 0.9421
-11.1472 9.6394 -2.3467 0.9421
-11.2131 8.0707 -2.1999 0.9456
-13.9485 -2.5129 -2.4991 0.9441
-13.6693 -3.7444 -2.4991 0.9441
-13.2817 -4.9462 -2.4990 0.9441
-12.7885 -6.1086 -2.4990 0.9441
-11.5025 -8.2790 -2.4989 0.9441
-9.8520 -10.1869 -2.4988 0.9441
-6.8102 -12.4270 -2.4987 0.9441
-5.6769 -12.9835 -2.4986 0.9441
-0.4157 -7.4552 -1.3166 0.9701
1.7319 -14.0621 -2.4983 0.9441
4.1975 -13.5316 -2.4981 0.9441
6.5300 -12.5725 -2.4980 0.9441
7.6229 -11.9412 -2.4980 0.9441
12.0245 -7.4889 -2.4978 0.9441
13.1617 -5.2382 -2.4978 0.9441
13.5756 -4.0460 -2.4978 0.9441
13.8818 -2.8216 -2.4978 0.9441
14.1622 -0.3155 -2.4978 0.9441
13.1404 2.0662 -2.3455 0.9474
12.1280 5.4647 -2.3455 0.9474
11.5936 6.5225 -2.3456 0.9474
10.2538 8.4750 -2.3457 0.9474
9.4590 9.3542 -2.3457 0.9474
8.5891 10.1592 -2.3458 0.9474
6.6520 11.5216 -2.3459 0.9474
4.5040 12.5191 -2.3460 0.9474
3.3719 12.8706 -2.3460 0.9474
2.2130 13.1199 -2.3461 0.9474
1.0365 13.2651 -2.3461 0.9474
-1.3319 13.2394 -2.3462 0.9474
-2.5050 13.0686 -2.3463 0.9474
-5.8691 11.9432 -2.3464 0.9474
-7.8939 10.7137 -2.3465 0.9474
-9.6687 9.1446 -2.3466 0.9474
-10.4444 8.2479 -2.3466 0.9474
-13.8226 -3.1318 -2.4991 0.9441
-13.4889 -4.3496 -2.4991 0.9441
-13.0481 -5.5329 -2.4990 0.9441
-11.8600 -7.7584 -2.4989 0.9441
-10.2961 -9.7380 -2.4989 0.9441
-9.3883 -10.6155 -2.4988 0.9441
-7.3571 -12.1114 -2.4987 0.9441
-6.2498 -12.7178 -2.4986 0.9441
-3.8956 -13.6238 -2.4985 0.9441
-2.6675 -13.9161 -2.4985 0.9441
-1.4183 -14.0980 -2.4984 0.9441
1.1038 -14.1254 -2.4983 0.9441
4.7961 -13.3311 -2.4981 0.9441
5.9635 -12.8510 -2.4981 0.9441
8.1473 -11.5896 -2.4980 0.9441
9.1463 -10.8183 -2.4979 0.9441
10.9192 -9.0250 -2.4979 0.9441
12.3462 -6.9458 -2.4978 0.9441
12.9153 -5.8193 -2.4978 0.9441
13.7424 -3.4372 -2.4978 0.9441
13.2193 1.4788 -2.3455 0.9474
11.8726 5.9995 -2.3456 0.9474
11.2917 7.0325 -2.3456 0.9474
9.8662 8.9235 -2.3457 0.9474
6.1322 11.8066 -2.3459 0.9474
5.0571 12.3059 -2.3459 0.9474
2.7953 13.0081 -2.3460 0.9474
1.6264 13.2056 -2.3461 0.9474
-0.7408 13.2854 -2.3462 0.9474
-1.9204 13.1670 -2.3463 0.9474
-3.0847 12.9442 -2.3463 0.9474
-4.2247 12.6185 -2.3464 0.9474
-5.3312 12.1926 -2.3464 0.9474
-6.3953 11.6699 -2.3465 0.9474
-7.4088 11.0547 -2.3465 0.9474
-8.3634 10.3515 -2.3465 0.9474
-10.0665 8.7049 -2.3466 0.9474
-10.8015 7.7745 -2.3466 0.9474
-11.4507 6.7822 -2.3467 0.9474
-12.0764 5.7684 -2.3598 0.9471
-14.1170 1.2615 -2.4991 0.9441
-12.8626 -1.1494 -2.4991 0.9487
-12.1016 -4.5067 -2.4990 0.9487
-11.1105 -6.5808 -2.4989 0.9487
-8.9767 -9.2818 -2.4988 0.9488
-8.1148 -10.0437 -2.4988 0.9488
-7.1885 -10.7259 -2.4987 0.9488
-6.2051 -11.3229 -2.4987 0.9488
-1.8633 -12.7754 -2.4984 0.9488
-0.7188 -12.8903 -2.4984 0.9488
0.4314 -12.9028 -2.4983 0.9488
2.7122 -12.6214 -2.4982 0.9488
4.9068 -11.9401 -2.4981 0.9488
5.9500 -11.4558 -2.4981 0.9488
7.8866 -10.2190 -2.4980 0.9488
8.7648 -9.4763 -2.4980 0.9488
10.3058 -7.7720 -2.4979 0.9488
10.9566 -6.8238 -2.4979 0.9488
11.5204 -5.8215 -2.4979 0.9488
12.3699 -3.6866 -2.4979 0.9488
12.9044 -0.2875 -2.4979 0.9488
10.5639 5.9432 -2.3456 0.9518
7.8262 9.2568 -2.3458 0.9518
6.9713 9.9169 -2.3458 0.9518
6.0611 10.4982 -2.3459 0.9518
4.1039 11.4070 -2.3460 0.9518
2.0165 11.9544 -2.3461 0.9518
-2.2825 11.9075 -2.3463 0.9518
-3.3333 11.6573 -2.3463 0.9518
-7.1926 9.7618 -2.3465 0.9518
-9.5164 7.5150 -2.3466 0.9518
-10.1476 6.6382 -2.3466 0.9518
-10.6982 5.7087 -2.3466 0.9518
-11.8891 5.0414 -2.4991 0.9487
-12.2907 3.9632 -2.4991 0.9487
-12.7987 1.7212 -2.4991 0.9487
-12.9010 -0.5753 -2.4991 0.9487
-12.7986 -1.7213 -2.4990 0.9487
-12.5944 -2.8535 -2.4990 0.9487
-11.8887 -5.0412 -2.4990 0.9487
-11.3927 -6.0793 -2.4989 0.9487
-10.8062 -7.0691 -2.4989 0.9487
-10.1340 -8.0027 -2.4989 0.9488
-9.3813 -8.8728 -2.4988 0.9488
-8.5542 -9.6724 -2.4988 0.9488
-7.6592 -10.3952 -2.4987 0.9488
-5.6945 -11.5880 -2.4986 0.9488
-1.2923 -12.8456 -2.4984 0.9488
-0.1438 -12.9094 -2.4984 0.9488
4.3701 -12.1469 -2.4982 0.9488
6.4544 -11.1792 -2.4981 0.9488
7.4236 -10.5602 -2.4980 0.9488
8.3340 -9.8575 -2.4980 0.9488
9.9494 -8.2234 -2.4979 0.9488
12.5219 -3.1319 -2.4979 0.9488
12.7509 -2.0050 -2.4979 0.9488
12.8788 -0.8621 -2.4979 0.9488
11.6157 3.4619 -2.3456 0.9518
11.2616 4.4820 -2.3456 0.9518
8.9899 8.1309 -2.3457 0.9518
8.2307 8.8989 -2.3458 0.9518
7.4061 9.5963 -2.3458 0.9518
6.5227 10.2177 -2.3458 0.9518
5.5875 10.7578 -2.3459 0.9518
2.5470 11.8526 -2.3460 0.9518
1.4819 12.0325 -2.3461 0.9518
0.4051 12.1170 -2.3461 0.9518
-0.6750 12.1051 -2.3462 0.9518
-4.8575 11.1094 -2.3464 0.9518
-5.8271 10.6331 -2.3464 0.9518
-7.6203 9.4318 -2.3465 0.9518
-8.4297 8.7162 -2.3465 0.9518
-9.1721 7.9314 -2.3466 0.9518
-10.4332 6.1796 -2.3466 0.9518
-12.7093 2.2897 -2.4991 0.9487
-12.8627 1.1494 -2.4991 0.9487
-10.1985 -6.0406 -2.4989 0.9527
-9.6202 -6.9242 -2.4989 0.9527
-8.9656 -7.7529 -2.4988 0.9527
-7.4487 -9.2194 -2.4987 0.9527
-6.5985 -9.8456 -2.4987 0.9527
-4.7481 -10.8591 -2.4986 0.9527
-2.7474 -11.5284 -2.4985 0.9527
-0.6598 -11.8324 -2.4984 0.9527
1.4486 -11.7615 -2.4983 0.9527
2.4896 -11.5857 -2.4982 0.9527
5.4617 -10.5157 -2.4981 0.9527
8.0456 -8.6988 -2.4980 0.9527
8.7878 -7.9481 -2.4980 0.9527
9.4602 -7.1343 -2.4980 0.9527
11.6111 -2.3600 -2.4979 0.9527
11.7751 -1.3172 -2.4979 0.9527
10.5105 3.6496 -2.3456 0.9555
10.1440 4.5707 -2.3456 0.9555
8.5764 7.0886 -2.3457 0.9555
7.9116 7.8239 -2.3458 0.9555
7.1839 8.4972 -2.3458 0.9555
4.6840 10.0938 -2.3459 0.9555
3.7671 10.4709 -2.3460 0.9555
2.8202 10.7648 -2.3460 0.9555
1.8510 10.9733 -2.3461 0.9555
0.8670 11.0947 -2.3461 0.9555
-0.1240 11.1281 -2.3462 0.9555
-1.1140 11.0731 -2.3462 0.9555
-2.0951 10.9302 -2.3463 0.9555
-3.0597 10.7005 -2.3463 0.9555
-4.0001 10.3859 -2.3463 0.9555
-4.9087 9.9888 -2.3464 0.9555
-5.7783 9.5125 -2.3464 0.9555
-6.6022 8.9605 -2.3464 0.9555
-7.3736 8.3375 -2.3465 0.9555
-9.3146 6.0933 -2.3465 0.9555
-11.7481 1.5800 -2.4990 0.9527
-11.8421 0.5281 -2.4990 0.9527
-11.8420 -0.5281 -2.4990 0.9527
-11.5606 -2.6193 -2.4990 0.9527
-10.9128 -4.6275 -2.4989 0.9527
-10.4575 -5.5803 -2.4989 0.9527
-9.9192 -6.4888 -2.4989 0.9527
-7.8521 -8.8785 -2.4988 0.9527
-6.1533 -10.1297 -2.4987 0.9527
-5.2272 -10.6369 -2.4986 0.9527
-3.2582 -11.3947 -2.4985 0.9527
-2.2311 -11.6393 -2.4985 0.9527
-0.1320 -11.8500 -2.4984 0.9527
1.9710 -11.6852 -2.4983 0.9527
3.0032 -11.4632 -2.4982 0.9527
4.0115 -11.1502 -2.4982 0.9527
4.9879 -10.7487 -2.4981 0.9527
5.9247 -10.2619 -2.4981 0.9527
7.6501 -9.0486 -2.4980 0.9527
9.1330 -7.5486 -2.4980 0.9527
10.3266 -5.8096 -2.4979 0.9527
11.1929 -3.8866 -2.4979 0.9527
11.4944 -2.8749 -2.4979 0.9527
11.7047 -1.8404 -2.4979 0.9527
10.9030 2.2161 -2.3456 0.9555
10.6626 3.1778 -2.3456 0.9555
9.4445 5.8821 -2.3457 0.9555
7.5553 8.1687 -2.3458 0.9555
5.1290 9.8750 -2.3459 0.9555
3.2970 10.6284 -2.3460 0.9555
2.3379 10.8798 -2.3460 0.9555
-2.5800 10.8261 -2.3463 0.9555
-3.5334 10.5537 -2.3463 0.9555
-4.4588 10.1975 -2.3464 0.9555
-5.3488 9.7604 -2.3464 0.9555
-6.1964 9.2457 -2.3464 0.9555
-7.7377 8.0007 -2.3465 0.9555
-9.0339 6.5022 -2.3465 0.9555
-9.5768 5.6724 -2.3466 0.9555
-10.6962 5.1092 -2.4990 0.9527
-11.1085 4.1369 -2.4990 0.9527
-10.9487 0.0000 -2.4990 0.9561
-10.9052 -0.9745 -2.4990 0.9561
-10.7751 -1.9412 -2.4989 0.9561
-10.5595 -2.8925 -2.4989 0.9561
-4.3856 -10.0301 -2.4986 0.9561
-3.4754 -10.3805 -2.4985 0.9561
-1.5798 -10.8318 -2.4984 0.9561
-0.6094 -10.9292 -2.4984 0.9561
0.3658 -10.9399 -2.4983 0.9561
3.2429 -10.4540 -2.4982 0.9561
4.1604 -10.1237 -2.4982 0.9561
5.0449 -9.7131 -2.4981 0.9561
5.8893 -9.2254 -2.4981 0.9561
9.2900 -5.7858 -2.4980 0.9561
9.7680 -4.9360 -2.4980 0.9561
10.4883 -3.1259 -2.4979 0.9561
10.8764 -1.2167 -2.4979 0.9561
9.9697 2.4936 -2.3456 0.9587
8.9570 5.0391 -2.3457 0.9587
8.4730 5.8164 -2.3457 0.9587
7.3077 7.2267 -2.3458 0.9587
6.6356 7.8486 -2.3458 0.9587
5.1390 8.9011 -2.3459 0.9587
4.3265 9.3233 -2.3459 0.9587
-1.0289 10.2278 -2.3462 0.9587
-2.8261 9.8836 -2.3463 0.9587
-6.0981 8.2764 -2.3464 0.9587
-6.8106 7.7009 -2.3464 0.9587
-7.4691 7.0642 -2.3465 0.9587
-9.6594 5.1545 -2.4990 0.9561
-10.6781 2.4193 -2.4990 0.9561
-10.9379 0.4877 -2.4990 0.9561
-10.9378 -0.4877 -2.4990 0.9561
-10.8509 -1.4593 -2.4990 0.9561
-10.0796 -4.2741 -2.4989 0.9561
-9.6591 -5.1542 -2.4989 0.9561
-8.5920 -6.7850 -2.4988 0.9561
-7.9538 -7.5227 -2.4988 0.9561
-5.6835 -9.3563 -2.4986 0.9561
-4.8281 -9.8249 -2.4986 0.9561
-3.0095 -10.5249 -2.4985 0.9561
-2.0607 -10.7508 -2.4985 0.9561
-1.0957 -10.8913 -2.4984 0.9561
-0.1219 -10.9454 -2.4984 0.9561
4.6072 -9.9282 -2.4982 0.9561
5.4725 -9.4786 -2.4981 0.9561
6.2943 -8.9538 -2.4981 0.9561
8.4360 -6.9725 -2.4980 0.9561
9.0230 -6.1939 -2.4980 0.9561
9.5384 -5.3662 -2.4980 0.9561
9.8488 2.9353 -2.3456 0.9587
9.5485 3.8003 -2.3457 0.9587
9.1725 4.6351 -2.3457 0.9587
8.2055 6.1881 -2.3457 0.9587
6.2794 8.1365 -2.3458 0.9587
5.5304 8.6632 -2.3459 0.9587
4.7375 9.1213 -2.3459 0.9587
3.9069 9.5069 -2.3460 0.9587
3.0453 9.8171 -2.3460 0.9587
-2.3830 9.9996 -2.3463 0.9587
-3.2636 9.7480 -2.3463 0.9587
-4.9404 9.0152 -2.3464 0.9587
-5.7233 8.5398 -2.3464 0.9587
-7.1469 7.3899 -2.3465 0.9587
-8.8456 5.2393 -2.3465 0.9587
-10.2604 3.8210 -2.4990 0.9561
-10.5597 2.8926 -2.4990 0.9561
-10.7753 1.9412 -2.4990 0.9561
-10.9053 0.9745 -2.4990 0.9561
-10.1666 -0.0000 -2.4989 0.9590
-10.1262 -0.9049 -2.4989 0.9590
-10.0054 -1.8026 -2.4989 0.9590
-9.8052 -2.6859 -2.4989 0.9590
-9.1734 -4.3818 -2.4989 0.9590
-8.7469 -5.1808 -2.4988 0.9590
-7.6896 -6.6494 -2.4988 0.9590
-5.6594 -8.4443 -2.4987 0.9590
-4.8852 -8.9144 -2.4986 0.9590
-4.0723 -9.3137 -2.4986 0.9590
2.1353 -9.9370 -2.4983 0.9590
3.0113 -9.7074 -2.4982 0.9590
3.8633 -9.4007 -2.4982 0.9590
5.4687 -8.5665 -2.4981 0.9590
6.2094 -8.0457 -2.4981 0.9590
6.9008 -7.4611 -2.4981 0.9590
7.5374 -6.8171 -2.4981 0.9590
8.6265 -5.3727 -2.4980 0.9590
9.7393 -2.9026 -2.4980 0.9590
10.1602 -0.2264 -2.4980 0.9590
10.1400 0.6788 -2.4980 0.9590
9.2578 2.3155 -2.3457 0.9615
9.0150 3.1304 -2.3457 0.9615
7.8679 5.4010 -2.3457 0.9615
7.3560 6.0799 -2.3458 0.9615
6.1617 7.2881 -2.3458 0.9615
5.4886 7.8077 -2.3459 0.9615
4.0175 8.6574 -2.3460 0.9614
1.5875 9.4117 -2.3461 0.9614
-2.6243 9.1776 -2.3463 0.9614
-3.4308 8.9077 -2.3463 0.9614
-4.2100 8.5672 -2.3463 0.9614
-4.9559 8.1586 -2.3464 0.9614
-6.9355 6.5596 -2.3464 0.9614
-9.3598 3.9689 -2.4989 0.9590
-9.9153 2.2465 -2.4989 0.9590
-9.6757 -3.1200 -2.4989 0.9590
-9.3596 -3.9688 -2.4989 0.9590
-7.9782 -6.3003 -2.4988 0.9590
-7.3857 -6.9853 -2.4987 0.9590
-5.2775 -8.6880 -2.4986 0.9590
-4.4832 -9.1231 -2.4986 0.9590
-1.0174 -10.1134 -2.4984 0.9590
-0.1132 -10.1637 -2.4984 0.9590
0.7918 -10.1332 -2.4983 0.9590
1.6906 -10.0224 -2.4983 0.9590
5.8448 -8.3144 -2.4981 0.9590
9.2656 -4.1749 -2.4980 0.9590
9.6004 -3.3336 -2.4980 0.9590
10.1602 0.2265 -2.4980 0.9590
8.8666 3.5289 -2.3457 0.9615
6.4802 7.0063 -2.3458 0.9615
5.8309 7.5554 -2.3459 0.9615
3.6279 8.8279 -2.3460 0.9614
2.8278 9.1159 -2.3460 0.9614
1.1667 9.4731 -2.3461 0.9614
-3.0305 9.0517 -2.3463 0.9614
-5.3145 7.9297 -2.3464 0.9614
-6.6364 6.8620 -2.3464 0.9614
-7.7480 5.5767 -2.3465 0.9614
-9.8054 2.6860 -2.4989 0.9590
-10.1262 0.9049 -2.4989 0.9590
-9.4835 0.0000 -2.4989 0.9615
-9.3332 -1.6814 -2.4989 0.9615
-9.1464 -2.5055 -2.4989 0.9615
-8.5571 -4.0874 -2.4988 0.9615
-8.1593 -4.8328 -2.4988 0.9615
-7.6967 -5.5397 -2.4988 0.9615
-7.1730 -6.2027 -2.4987 0.9615
-5.9594 -7.3760 -2.4987 0.9615
-5.2792 -7.8771 -2.4986 0.9615
-3.7988 -8.6880 -2.4986 0.9615
-3.0104 -8.9915 -2.4985 0.9615
-1.3684 -9.3825 -2.4984 0.9615
-0.5279 -9.4669 -2.4984 0.9615
0.3168 -9.4761 -2.4984 0.9615
1.1590 -9.4102 -2.4983 0.9615
1.9919 -9.2695 -2.4983 0.9615
5.7923 -7.5053 -2.4981 0.9615
6.4373 -6.9599 -2.4981 0.9615
8.0471 -5.0118 -2.4980 0.9615
8.8082 -3.5056 -2.4980 0.9615
9.4778 -0.2112 -2.4980 0.9615
9.4590 0.6332 -2.4980 0.9615
14.0506 2.2093 -3.7478 0.9429
13.7983 3.4512 -3.7478 0.9429
7.7587 4.3650 -2.3457 0.9638
6.3300 6.2599 -2.3458 0.9638
5.7478 6.7986 -2.3459 0.9638
5.1200 7.2832 -2.3459 0.9638
2.2564 8.6127 -2.3460 0.9638
1.4809 8.7795 -2.3461 0.9638
-0.8912 8.8592 -2.3462 0.9638
-2.4480 8.5611 -2.3463 0.9638
-3.2003 8.3093 -2.3463 0.9638
-3.9272 7.9916 -2.3463 0.9638
-4.6230 7.6104 -2.3463 0.9638
-5.8992 6.6703 -2.3464 0.9638
-7.5647 4.9486 -2.3819 0.9633
-8.3668 4.4647 -2.4989 0.9615
-9.3989 1.2640 -2.4989 0.9615
-9.4741 0.4224 -2.4989 0.9615
-9.4741 -0.4225 -2.4989 0.9615
-9.3988 -1.2640 -2.4989 0.9615
-8.3665 -4.4645 -2.4988 0.9615
-7.9359 -5.1914 -2.4988 0.9615
-6.8895 -6.5160 -2.4987 0.9615
-6.2821 -7.1033 -2.4987 0.9615
-5.6249 -7.6341 -2.4987 0.9615
-3.4080 -8.8485 -2.4985 0.9615
-2.6068 -9.1166 -2.4985 0.9615
-1.7850 -9.3123 -2.4985 0.9615
-0.1056 -9.4810 -2.4984 0.9615
1.5770 -9.3492 -2.4983 0.9615
2.4028 -9.1716 -2.4983 0.9615
3.2096 -8.9212 -2.4982 0.9615
6.1209 -7.2397 -2.4981 0.9615
7.3074 -6.0397 -2.4981 0.9615
7.8159 -5.3653 -2.4981 0.9615
8.9556 -3.1097 -2.4980 0.9615
9.3651 -1.4725 -2.4980 0.9615
9.4590 -0.6332 -2.4980 0.9615
9.4778 0.2112 -2.4980 0.9615
8.2711 3.2918 -2.3457 0.9638
7.9454 4.0150 -2.3457 0.9638
7.5566 4.7063 -2.3458 0.9638
5.4393 7.0479 -2.3459 0.9638
4.7905 7.5042 -2.3459 0.9638
3.3842 8.2349 -2.3460 0.9638
2.6378 8.5036 -2.3460 0.9638
1.0883 8.8368 -2.3461 0.9638
0.2975 8.8987 -2.3461 0.9638
-0.4957 8.8900 -2.3462 0.9638
-1.2850 8.8108 -2.3462 0.9638
-2.0642 8.6616 -2.3462 0.9638
-3.5673 8.1586 -2.3463 0.9638
-4.9574 7.3970 -2.3464 0.9638
-5.5962 6.9265 -2.3464 0.9638
-6.1905 6.4010 -2.3464 0.9638
-6.7357 5.8246 -2.3464 0.9638
-7.2275 5.2020 -2.3464 0.9638
-9.1466 2.5055 -2.4989 0.9615
-5.0319 0.0000 -1.4158 0.9793
-3.9277 -0.3510 -1.1095 0.9837
-3.7904 -1.0383 -1.1057 0.9838
-8.0140 -3.8280 -2.4988 0.9638
-7.6414 -4.5260 -2.4988 0.9638
-6.7177 -5.8090 -2.4987 0.9638
-6.1739 -6.3838 -2.4987 0.9638
-5.5812 -6.9079 -2.4987 0.9638
-4.9441 -7.3771 -2.4986 0.9638
-4.2678 -7.7878 -2.4986 0.9638
-3.5577 -8.1366 -2.4986 0.9638
-2.8193 -8.4209 -2.4985 0.9638
-1.2816 -8.7871 -2.4984 0.9638
-0.4944 -8.8661 -2.4984 0.9638
0.2967 -8.8748 -2.4984 0.9638
2.6307 -8.4807 -2.4983 0.9638
7.5365 -4.6938 -2.4981 0.9638
7.9243 -4.0043 -2.4981 0.9638
8.2493 -3.2831 -2.4980 0.9638
8.5087 -2.5359 -2.4980 0.9638
8.7007 -1.7685 -2.4980 0.9638
8.8235 -0.9870 -2.4980 0.9638
8.8588 0.5930 -2.4981 0.9638
8.7709 1.3792 -2.4981 0.9638
7.6013 3.4250 -2.3457 0.9659
7.2663 4.0880 -2.3458 0.9659
6.8737 4.7185 -2.3458 0.9659
5.3831 6.3671 -2.3459 0.9659
4.7950 6.8211 -2.3459 0.9659
2.8227 7.8459 -2.3460 0.9659
2.1132 8.0661 -2.3460 0.9659
1.3869 8.2223 -2.3461 0.9659
-0.0929 8.3382 -2.3461 0.9659
-0.8347 8.2969 -2.3462 0.9659
-2.2926 8.0177 -2.3462 0.9659
-2.9972 7.7819 -2.3463 0.9659
-4.9468 6.7138 -2.3464 0.9659
-6.0589 5.7305 -2.3464 0.9659
-6.5450 5.1685 -2.3464 0.9659
-7.4324 4.8621 -2.4989 0.9638
-8.4530 2.7258 -2.4989 0.9638
-8.6620 1.9626 -2.4989 0.9638
-8.8023 1.1838 -2.4989 0.9638
-8.8727 0.3956 -2.4989 0.9638
-4.2110 -0.1878 -1.1860 0.9826
-3.7396 -0.5029 -1.0616 0.9844
-8.1766 -3.4672 -2.4988 0.9638
-7.8355 -4.1811 -2.4988 0.9638
-7.4321 -4.8619 -2.4988 0.9638
-4.6105 -7.5900 -2.4986 0.9638
-3.1917 -8.2870 -2.4985 0.9638
-2.4414 -8.5380 -2.4985 0.9638
-1.6717 -8.7213 -2.4985 0.9638
-0.0989 -8.8793 -2.4984 0.9638
1.4769 -8.7558 -2.4983 0.9638
2.2504 -8.5895 -2.4983 0.9638
3.0059 -8.3550 -2.4982 0.9638
4.4395 -7.6895 -2.4982 0.9638
5.1063 -7.2637 -2.4982 0.9638
5.7325 -6.7804 -2.4981 0.9638
6.3131 -6.2432 -2.4981 0.9638
7.3200 -5.0249 -2.4981 0.9638
8.3873 -2.9124 -2.4980 0.9638
8.6132 -2.1543 -2.4980 0.9638
8.7708 -1.3791 -2.4980 0.9638
8.8588 -0.5930 -2.4980 0.9638
13.0538 2.6533 -3.7479 0.9462
7.9899 2.3812 -2.3457 0.9659
7.7463 3.0829 -2.3457 0.9659
5.6613 6.1210 -2.3459 0.9659
3.1694 7.7123 -2.3460 0.9659
1.7518 8.1523 -2.3461 0.9659
-2.6475 7.9077 -2.3463 0.9659
-4.0077 7.3132 -2.3463 0.9659
-4.6428 6.9275 -2.3463 0.9659
-7.6416 4.5262 -2.4989 0.9638
-8.3231 3.0996 -2.4989 0.9638
-8.7408 1.5748 -2.4989 0.9638
-8.8463 0.7905 -2.4989 0.9638
-3.9677 -0.0000 -1.1878 0.9836
-3.5918 -0.3210 -1.0796 0.9851
-7.8218 -2.9129 -2.4988 0.9657
-6.3132 -5.4593 -2.4987 0.9658
-5.8022 -5.9994 -2.4987 0.9658
-3.3435 -7.6467 -2.4986 0.9658
-1.9347 -8.1182 -2.4985 0.9658
-1.2044 -8.2580 -2.4984 0.9658
-0.4646 -8.3323 -2.4984 0.9658
1.0201 -8.2825 -2.4983 0.9658
3.1719 -7.7184 -2.4982 0.9658
4.4901 -7.0335 -2.4982 0.9658
6.6622 -5.0242 -2.4981 0.9658
7.0829 -4.4113 -2.4981 0.9658
7.4473 -3.7633 -2.4981 0.9658
7.7527 -3.0855 -2.4981 0.9658
8.1769 -1.6620 -2.4981 0.9658
8.3421 -0.1859 -2.4981 0.9658
8.3255 0.5573 -2.4981 0.9658
12.1448 3.0376 -3.7479 0.9491
7.4018 2.5702 -2.3457 0.9678
6.4599 4.4345 -2.3458 0.9678
5.5714 5.5097 -2.3459 0.9678
5.0590 5.9838 -2.3459 0.9678
3.2985 7.1081 -2.3460 0.9678
2.6528 7.3735 -2.3460 0.9678
0.6105 7.8127 -2.3461 0.9678
-0.0873 7.8362 -2.3461 0.9678
-1.4753 7.6967 -2.3462 0.9678
-2.8167 7.3134 -2.3463 0.9678
-5.6941 5.3854 -2.3464 0.9678
-7.6844 3.2585 -2.4988 0.9657
-7.9440 2.5616 -2.4989 0.9657
-8.1405 1.8444 -2.4989 0.9657
-8.2723 1.1125 -2.4989 0.9657
-4.8506 0.2163 -1.4536 0.9799
-3.4642 -0.7849 -1.0634 0.9853
-7.3637 -3.9294 -2.4988 0.9658
-6.9847 -4.5691 -2.4987 0.9658
-5.5292 -6.2519 -2.4987 0.9658
-4.9507 -6.7191 -2.4986 0.9658
-4.3329 -7.1330 -2.4986 0.9658
-3.6808 -7.4902 -2.4986 0.9658
-2.9995 -7.7880 -2.4985 0.9658
-2.2944 -8.0240 -2.4985 0.9658
-1.5711 -8.1962 -2.4985 0.9658
-0.8353 -8.3034 -2.4984 0.9658
0.6501 -8.3197 -2.4984 0.9658
2.1149 -8.0725 -2.4983 0.9658
2.8250 -7.8521 -2.4983 0.9658
4.1723 -7.2266 -2.4982 0.9658
5.3874 -6.3722 -2.4982 0.9658
6.8793 -4.7224 -2.4981 0.9658
7.6076 -3.4278 -2.4981 0.9658
7.8825 -2.7371 -2.4981 0.9658
8.0948 -2.0246 -2.4981 0.9658
8.2428 -1.2961 -2.4981 0.9658
7.2800 2.8974 -2.3457 0.9678
5.8113 5.2560 -2.3458 0.9678
4.7875 6.2033 -2.3459 0.9678
3.6118 6.9540 -2.3460 0.9678
2.9786 7.2480 -2.3460 0.9678
2.3217 7.4844 -2.3460 0.9678
1.6463 7.6615 -2.3461 0.9678
0.2619 7.8322 -2.3461 0.9678
-1.1310 7.7548 -2.3462 0.9678
-1.8168 7.6234 -2.3462 0.9678
-3.1397 7.1807 -2.3463 0.9678
-4.3632 6.5104 -2.3463 0.9678
-4.9254 6.0963 -2.3463 0.9678
-7.1815 4.2536 -2.4988 0.9657
-8.3136 0.7429 -2.4989 0.9657
-3.7563 0.0000 -1.1929 0.9844
-3.3867 -0.3027 -1.0798 0.9858
-3.2843 -0.5917 -1.0598 0.9861
-3.2540 -0.8914 -1.0715 0.9859
-7.3734 -2.7459 -2.4988 0.9675
-6.3858 -4.5962 -2.4987 0.9675
-4.3801 -6.5355 -2.4986 0.9675
-3.1518 -7.2084 -2.4985 0.9675
-1.1354 -7.7847 -2.4984 0.9675
0.2629 -7.8624 -2.4984 0.9675
1.6527 -7.6911 -2.4983 0.9675
2.3307 -7.5133 -2.4983 0.9675
2.9901 -7.2760 -2.4983 0.9675
3.6258 -6.9809 -2.4982 0.9675
4.2327 -6.6304 -2.4982 0.9675
4.8060 -6.2273 -2.4982 0.9675
5.3411 -5.7747 -2.4982 0.9675
5.8339 -5.2764 -2.4981 0.9675
6.6769 -4.1584 -2.4981 0.9675
7.0205 -3.5476 -2.4981 0.9675
7.3084 -2.9087 -2.4981 0.9675
7.5382 -2.2466 -2.4981 0.9675
7.8640 -0.1752 -2.4981 0.9675
7.8484 0.5254 -2.4981 0.9675
7.7705 1.2219 -2.4981 0.9675
6.7343 3.0343 -2.3458 0.9695
5.6935 4.7058 -2.3458 0.9695
5.2521 5.1939 -2.3459 0.9695
4.7690 5.6408 -2.3459 0.9695
3.6934 6.3972 -2.3459 0.9695
3.1094 6.7006 -2.3460 0.9695
2.5007 6.9509 -2.3460 0.9695
1.2287 7.2843 -2.3461 0.9695
-0.7395 7.3504 -2.3462 0.9695
-2.0310 7.1030 -2.3462 0.9695
-2.6552 6.8942 -2.3462 0.9695
-3.8356 6.3143 -2.3463 0.9695
-4.8945 5.5342 -2.3463 0.9695
-5.3677 5.0767 -2.3464 0.9695
-6.9417 3.7042 -2.4988 0.9675
-7.6738 1.7387 -2.4988 0.9675
-3.3189 -0.4463 -1.0635 0.9860
-7.2437 -3.0716 -2.4988 0.9675
-6.9415 -3.7041 -2.4988 0.9675
-5.7161 -5.4063 -2.4987 0.9675
-5.2122 -5.8935 -2.4987 0.9675
-4.0846 -6.7241 -2.4986 0.9675
-2.8276 -7.3416 -2.4985 0.9675
-2.1629 -7.5640 -2.4985 0.9675
-1.4810 -7.7264 -2.4985 0.9675
-0.7875 -7.8274 -2.4984 0.9675
0.6129 -7.8429 -2.4984 0.9675
1.3085 -7.7571 -2.4983 0.9675
3.3112 -7.1355 -2.4982 0.9675
5.0786 -6.0070 -2.4982 0.9675
6.0631 -5.0113 -2.4981 0.9675
6.4851 -4.4517 -2.4981 0.9675
6.8555 -3.8568 -2.4981 0.9675
7.1716 -3.2313 -2.4981 0.9675
7.4307 -2.5802 -2.4981 0.9675
7.6308 -1.9086 -2.4981 0.9675
7.7084 1.5668 -2.4981 0.9675
11.3099 3.3707 -3.7480 0.9517
6.5924 3.3313 -2.3458 0.9695
5.8975 4.4475 -2.3458 0.9695
5.4782 4.9548 -2.3459 0.9695
5.0156 5.4228 -2.3459 0.9695
3.9747 6.2263 -2.3459 0.9695
3.4048 6.5554 -2.3460 0.9695
2.8079 6.8325 -2.3460 0.9695
2.1886 7.0554 -2.3460 0.9695
1.5520 7.2223 -2.3461 0.9695
-0.4113 7.3760 -2.3461 0.9695
-1.7126 7.1864 -2.3462 0.9695
-2.3455 7.0055 -2.3462 0.9695
-3.5505 6.4788 -2.3463 0.9695
-4.1131 6.1371 -2.3463 0.9695
-4.6430 5.7468 -2.3463 0.9695
-5.5885 4.8326 -2.3464 0.9695
-7.7436 1.3951 -2.4988 0.9675
-7.8370 0.7003 -2.4988 0.9675
-3.2019 -0.2861 -1.0801 0.9865
-6.9696 -2.5955 -2.4988 0.9691
-5.6254 -4.8645 -2.4987 0.9691
-5.1701 -5.3458 -2.4987 0.9691
-3.5739 -6.5215 -2.4986 0.9691
-2.9792 -6.8137 -2.4985 0.9691
-1.0732 -7.3584 -2.4984 0.9691
-0.4140 -7.4246 -2.4984 0.9691
0.2485 -7.4319 -2.4984 0.9691
1.5622 -7.2699 -2.4983 0.9691
2.2030 -7.1019 -2.4983 0.9691
4.5429 -5.8863 -2.4982 0.9691
5.0487 -5.4586 -2.4982 0.9691
5.9365 -4.4769 -2.4981 0.9691
7.1255 -2.1236 -2.4981 0.9691
7.2863 -1.4810 -2.4981 0.9691
7.4334 -0.1656 -2.4981 0.9691
5.7563 3.9515 -2.3458 0.9710
5.3818 4.4481 -2.3459 0.9710
4.5079 5.3320 -2.3459 0.9710
3.4912 6.0469 -2.3460 0.9710
2.9392 6.3337 -2.3460 0.9710
2.3638 6.5703 -2.3460 0.9710
1.1614 6.8855 -2.3461 0.9710
-2.5098 6.5166 -2.3462 0.9710
-3.0799 6.2674 -2.3463 0.9710
-3.6255 5.9685 -2.3463 0.9710
-4.1424 5.6221 -2.3463 0.9710
-5.0737 4.7987 -2.3463 0.9710
-6.5616 3.5013 -2.4988 0.9691
-6.8472 2.9035 -2.4988 0.9691
-7.0784 2.2825 -2.4988 0.9691
-7.2535 1.6434 -2.4988 0.9691
-7.3710 0.9913 -2.4988 0.9691
-4.1559 0.1853 -1.3977 0.9826
-3.1639 -0.4255 -1.0726 0.9866
-3.1355 -0.7104 -1.0802 0.9865
-3.1418 -1.0131 -1.1091 0.9862
-6.5614 -3.5013 -2.4987 0.9691
-6.2237 -4.0713 -2.4987 0.9691
-5.8365 -4.6091 -2.4987 0.9691
-5.4031 -5.1102 -2.4987 0.9691
-4.9268 -5.5708 -2.4986 0.9691
-4.4113 -5.9871 -2.4986 0.9691
-3.2798 -6.6742 -2.4986 0.9691
-2.6727 -6.9396 -2.4985 0.9691
-1.3999 -7.3033 -2.4985 0.9691
-0.0828 -7.4356 -2.4984 0.9691
0.5793 -7.4135 -2.4984 0.9691
1.2368 -7.3324 -2.4983 0.9691
2.5172 -6.9967 -2.4983 0.9691
3.1299 -6.7448 -2.4983 0.9691
3.7178 -6.4394 -2.4982 0.9691
5.2868 -5.2282 -2.4982 0.9691
5.7312 -4.7369 -2.4982 0.9691
6.7789 -3.0544 -2.4981 0.9691
7.4334 0.1657 -2.4981 0.9691
7.2863 1.4810 -2.4981 0.9691
10.3647 4.1251 -3.7480 0.9540
6.2315 3.1489 -2.3458 0.9710
5.9265 3.6911 -2.3458 0.9710
5.1783 4.6835 -2.3459 0.9710
4.7409 5.1259 -2.3459 0.9710
4.2659 5.5275 -2.3459 0.9710
0.2333 6.9789 -2.3461 0.9710
-0.3888 6.9721 -2.3461 0.9710
-3.3561 6.1240 -2.3463 0.9710
-5.2824 4.5679 -2.3463 0.9710
-6.7110 3.2056 -2.4988 0.9691
-7.1731 1.9649 -2.4988 0.9691
-7.3195 1.3187 -2.4988 0.9691
-3.4902 0.0000 -1.2376 0.9853
-3.0930 -0.2764 -1.1011 0.9869
-3.0229 -0.8281 -1.1114 0.9868
-3.0314 -1.1289 -1.1470 0.9864
-5.7194 -4.1165 -2.4987 0.9705
-5.3302 -4.6093 -2.4987 0.9705
-4.8988 -5.0653 -2.4986 0.9705
-3.9230 -5.8535 -2.4986 0.9705
-3.3864 -6.1794 -2.4986 0.9705
-2.8229 -6.4562 -2.4985 0.9705
-1.6334 -6.8542 -2.4985 0.9705
-1.0169 -6.9723 -2.4984 0.9705
0.2354 -7.0420 -2.4984 0.9705
1.4802 -6.8885 -2.4983 0.9705
2.6781 -6.5168 -2.4983 0.9705
3.2475 -6.2525 -2.4983 0.9705
4.3045 -5.5775 -2.4982 0.9705
4.7839 -5.1722 -2.4982 0.9705
5.2252 -4.7259 -2.4982 0.9705
5.6250 -4.2421 -2.4982 0.9705
6.2880 -3.1775 -2.4981 0.9705
6.7517 -2.0122 -2.4981 0.9705
7.0015 -0.7832 -2.4981 0.9705
7.0295 0.4706 -2.4981 0.9705
6.9597 1.0944 -2.4981 0.9705
9.9853 3.4672 -3.7480 0.9561
6.0316 2.7178 -2.3458 0.9723
5.7658 3.2438 -2.3458 0.9723
5.4543 3.7441 -2.3458 0.9723
5.0994 4.2148 -2.3459 0.9723
4.7041 4.6520 -2.3459 0.9723
3.8048 5.4124 -2.3459 0.9723
3.3080 5.7297 -2.3460 0.9723
2.2398 6.2256 -2.3460 0.9723
1.6768 6.4003 -2.3460 0.9723
1.1005 6.5242 -2.3461 0.9723
0.5154 6.5963 -2.3461 0.9723
-0.0737 6.6161 -2.3461 0.9723
-0.6623 6.5834 -2.3462 0.9723
-1.8191 6.3618 -2.3462 0.9723
-2.3781 6.1746 -2.3462 0.9723
-3.9251 5.3271 -2.3463 0.9723
-4.3837 4.9567 -2.3463 0.9723
-4.8075 4.5469 -2.3463 0.9723
-5.5305 4.3674 -2.4988 0.9705
-6.2172 3.3176 -2.4988 0.9705
-6.9842 0.9393 -2.4988 0.9705
-3.0241 -0.6852 -1.0995 0.9869
-6.4877 -2.7510 -2.4987 0.9705
-5.5303 -4.3672 -2.4987 0.9705
-5.1196 -4.8421 -2.4987 0.9705
-4.6683 -5.2784 -2.4986 0.9705
-2.5325 -6.5755 -2.4985 0.9705
-1.9372 -6.7747 -2.4985 0.9705
-0.7053 -7.0106 -2.4984 0.9705
-0.0785 -7.0455 -2.4984 0.9705
1.1719 -6.9477 -2.4983 0.9705
1.7856 -6.8157 -2.4983 0.9705
2.3852 -6.6296 -2.4983 0.9705
3.5228 -6.1016 -2.4982 0.9705
4.0518 -5.7638 -2.4982 0.9705
4.5487 -5.3802 -2.4982 0.9705
5.4305 -4.4884 -2.4982 0.9705
6.1402 -3.4544 -2.4981 0.9705
6.4233 -2.8942 -2.4981 0.9705
6.8347 -1.7095 -2.4981 0.9705
6.9597 -1.0943 -2.4981 0.9705
7.0295 -0.4705 -2.4981 0.9705
7.0435 0.1570 -2.4981 0.9705
9.8209 3.9087 -3.7480 0.9561
5.9046 2.9837 -2.3458 0.9723
4.4922 4.8569 -2.3459 0.9723
3.0495 5.8714 -2.3460 0.9723
0.8088 6.5668 -2.3461 0.9723
-0.3684 6.6063 -2.3461 0.9723
-1.5339 6.4364 -2.3462 0.9723
-2.6508 6.0626 -2.3462 0.9723
-4.1585 5.1470 -2.3463 0.9723
-5.2193 4.5133 -2.4467 0.9711
-5.7195 4.1166 -2.4988 0.9705
-6.7967 1.8618 -2.4988 0.9705
-6.9354 1.2495 -2.4988 0.9705
-3.3741 0.0000 -1.2599 0.9857
-2.9455 -0.5307 -1.1176 0.9873
-2.9169 -0.7990 -1.1293 0.9872
-2.9238 -1.0888 -1.1650 0.9868
-5.7574 -3.4101 -2.4987 0.9718
-5.4310 -3.9090 -2.4987 0.9718
-5.0615 -4.3768 -2.4987 0.9718
-4.2052 -5.2048 -2.4986 0.9718
-2.1243 -6.3449 -2.4985 0.9718
-0.9656 -6.6208 -2.4984 0.9718
0.8178 -6.6405 -2.4984 0.9718
2.5431 -6.1883 -2.4983 0.9718
3.6000 -5.6392 -2.4982 0.9718
4.5427 -4.9115 -2.4982 0.9718
4.9618 -4.4877 -2.4982 0.9718
6.2159 -2.4738 -2.4982 0.9718
6.6486 -0.7437 -2.4981 0.9718
6.6751 0.4469 -2.4982 0.9718
6.6089 1.0392 -2.4982 0.9718
9.4820 3.2925 -3.7480 0.9580
5.1793 3.5554 -2.3459 0.9735
4.0561 4.7976 -2.3459 0.9735
3.6130 5.1396 -2.3459 0.9735
3.1413 5.4408 -2.3460 0.9735
2.6446 5.6989 -2.3460 0.9735
2.1269 5.9117 -2.3460 0.9735
1.5923 6.0776 -2.3460 0.9735
1.0450 6.1953 -2.3461 0.9735
-0.6289 6.2515 -2.3461 0.9735
-1.1828 6.1708 -2.3462 0.9735
-1.7274 6.0410 -2.3462 0.9735
-2.7712 5.6392 -2.3462 0.9735
-3.2621 5.3702 -2.3463 0.9735
-4.1626 4.7068 -2.3463 0.9735
-4.6771 4.4235 -2.4039 0.9729
-5.5999 3.6633 -2.4988 0.9718
-5.9038 3.1504 -2.4988 0.9718
-6.3688 2.0537 -2.4988 0.9718
-6.5264 1.4787 -2.4988 0.9718
-6.6321 0.8919 -2.4988 0.9718
-3.7910 0.1690 -1.4170 0.9839
-3.0833 -0.1375 -1.1525 0.9869
-2.9258 -0.6629 -1.1202 0.9873
-5.9036 -3.1503 -2.4987 0.9718
-5.5998 -3.6632 -2.4987 0.9718
-5.2515 -4.1471 -2.4987 0.9718
-4.4329 -5.0124 -2.4986 0.9718
-3.4739 -5.7188 -2.4986 0.9718
-2.9511 -6.0052 -2.4985 0.9718
-2.4048 -6.2439 -2.4985 0.9718
-1.8395 -6.4332 -2.4985 0.9718
-1.2596 -6.5713 -2.4985 0.9718
-0.6697 -6.6572 -2.4984 0.9718
0.5211 -6.6703 -2.4984 0.9718
1.6956 -6.4721 -2.4983 0.9718
2.2649 -6.2954 -2.4983 0.9718
5.8307 -3.2803 -2.4982 0.9718
6.3199 -2.1945 -2.4981 0.9718
6.4901 -1.6233 -2.4981 0.9718
6.6884 0.1491 -2.4982 0.9718
6.6486 0.7437 -2.4982 0.9718
6.4115 1.9108 -2.4982 0.9718
5.6069 2.8333 -2.3458 0.9735
5.3325 3.3212 -2.3458 0.9735
5.0158 3.7826 -2.3459 0.9735
4.2658 4.6121 -2.3459 0.9735
3.8384 4.9735 -2.3459 0.9735
3.3805 5.2955 -2.3460 0.9735
2.8958 5.5754 -2.3460 0.9735
1.8614 6.0006 -2.3460 0.9735
0.7680 6.2357 -2.3461 0.9735
-0.3498 6.2733 -2.3461 0.9735
-0.9068 6.2173 -2.3462 0.9735
-3.0196 5.5101 -2.3463 0.9735
-3.4981 5.2196 -2.3463 0.9735
-5.0616 4.3770 -2.4987 0.9718
-6.4540 1.7679 -2.4988 0.9718
-6.5858 1.1865 -2.4988 0.9718
-3.2641 0.0000 -1.2811 0.9861
-2.8518 -0.5138 -1.1373 0.9876
-2.8313 -0.7756 -1.1521 0.9875
-2.8528 -1.0624 -1.1947 0.9870
-5.7449 -2.7441 -2.4987 0.9730
-5.1672 -3.7191 -2.4987 0.9730
-4.8157 -4.1643 -2.4987 0.9730
-4.4259 -4.5763 -2.4986 0.9730
-4.0010 -4.9521 -2.4986 0.9730
-0.9187 -6.2993 -2.4985 0.9730
0.2127 -6.3622 -2.4984 0.9730
0.7781 -6.3180 -2.4984 0.9730
1.3374 -6.2236 -2.4983 0.9730
3.4251 -5.3654 -2.4983 0.9730
4.3221 -4.6730 -2.4982 0.9730
4.7209 -4.2698 -2.4982 0.9730
5.4031 -3.3651 -2.4982 0.9730
5.6811 -2.8708 -2.4982 0.9730
5.9140 -2.3538 -2.4982 0.9730
6.3257 -0.7076 -2.4982 0.9730
6.3636 -0.1418 -2.4982 0.9730
6.2880 0.9888 -2.4982 0.9730
6.1751 1.5445 -2.4982 0.9730
8.7069 3.9232 -3.7481 0.9598
4.9278 3.3828 -2.3459 0.9746
4.6072 3.8080 -2.3459 0.9746
4.2500 4.2030 -2.3459 0.9746
3.8591 4.5646 -2.3459 0.9746
3.4376 4.8900 -2.3459 0.9746
2.9887 5.1766 -2.3460 0.9746
2.0236 5.6246 -2.3460 0.9746
0.9943 5.8945 -2.3461 0.9746
0.4657 5.9596 -2.3461 0.9746
-0.5984 5.9479 -2.3461 0.9746
-2.1486 5.5786 -2.3462 0.9746
-3.1037 5.1094 -2.3463 0.9746
-4.6255 4.3748 -2.4987 0.9730
-4.9966 3.9457 -2.4987 0.9730
-5.3279 3.4854 -2.4987 0.9730
-6.0595 1.9539 -2.4988 0.9730
-6.2094 1.4069 -2.4988 0.9730
-6.3099 0.8486 -2.4988 0.9730
-3.0071 -0.1341 -1.1814 0.9871
-2.8403 -0.9159 -1.1712 0.9873
-4.6254 -4.3746 -2.4986 0.9730
-2.2880 -5.9407 -2.4985 0.9730
-1.7502 -6.1208 -2.4985 0.9730
-1.1984 -6.2522 -2.4985 0.9730
2.1549 -5.9897 -2.4983 0.9730
5.8033 -2.6148 -2.4982 0.9730
6.1750 -1.5445 -2.4982 0.9730
6.2879 -0.9887 -2.4982 0.9730
6.3258 0.7076 -2.4982 0.9730
6.2377 1.2679 -2.4982 0.9730
8.5236 4.3072 -3.7481 0.9598
5.0736 3.1599 -2.3459 0.9746
4.4330 4.0095 -2.3459 0.9746
3.6520 4.7320 -2.3459 0.9746
3.2163 5.0383 -2.3460 0.9746
1.7710 5.7092 -2.3460 0.9746
1.2558 5.8443 -2.3461 0.9746
0.7307 5.9329 -2.3461 0.9746
-0.3328 5.9686 -2.3461 0.9746
-0.8627 5.9153 -2.3462 0.9746
-2.3950 5.4774 -2.3462 0.9746
-3.7570 4.6502 -2.3463 0.9746
-4.2009 4.3437 -2.3716 0.9744
-4.8158 4.1644 -2.4987 0.9730
-5.1674 3.7193 -2.4987 0.9730
-5.4779 3.2446 -2.4987 0.9730
-5.7450 2.7442 -2.4988 0.9730
-5.9664 2.2220 -2.4988 0.9730
-6.1405 1.6821 -2.4988 0.9730
-6.2659 1.1289 -2.4988 0.9730
-3.1614 0.0000 -1.3018 0.9864
-2.8130 -0.2514 -1.1629 0.9879
-2.7695 -0.7587 -1.1825 0.9877
-2.7842 -1.0369 -1.2234 0.9872
-5.4754 -2.6154 -2.4987 0.9741
-4.9249 -3.5447 -2.4987 0.9741
-4.2183 -4.3617 -2.4986 0.9741
-3.8133 -4.7198 -2.4986 0.9741
-2.9160 -5.3210 -2.4986 0.9741
-2.4308 -5.5594 -2.4985 0.9741
-1.9263 -5.7536 -2.4985 0.9741
-0.8757 -6.0039 -2.4985 0.9741
-0.3378 -6.0579 -2.4984 0.9741
1.2747 -5.9318 -2.4984 0.9741
1.7975 -5.7947 -2.4983 0.9741
2.3061 -5.6117 -2.4983 0.9741
2.7964 -5.3841 -2.4983 0.9741
3.2645 -5.1138 -2.4983 0.9741
6.0532 0.4052 -2.4982 0.9741
5.9932 0.9424 -2.4982 0.9741
5.8855 1.4721 -2.4982 0.9741
7.9330 4.4630 -3.7481 0.9614
4.0507 4.0059 -2.3459 0.9757
1.4439 5.5113 -2.3460 0.9757
0.9476 5.6180 -2.3461 0.9757
0.4438 5.6801 -2.3461 0.9757
-0.0635 5.6971 -2.3461 0.9757
-1.5664 5.4781 -2.3462 0.9757
-2.0478 5.3170 -2.3462 0.9757
-2.5129 5.1137 -2.3462 0.9757
-3.3799 4.5871 -2.3463 0.9757
-5.9182 1.3409 -2.4988 0.9741
-2.7947 -0.3759 -1.1611 0.9879
-5.0779 -3.3218 -2.4987 0.9741
-1.1422 -5.9590 -2.4985 0.9741
0.4727 -6.0488 -2.4984 0.9741
2.0539 -5.7089 -2.4983 0.9741
3.0335 -5.2542 -2.4983 0.9741
3.9170 -4.6330 -2.4982 0.9741
4.3138 -4.2659 -2.4982 0.9741
5.2874 -2.9747 -2.4982 0.9741
5.9931 -0.9423 -2.4982 0.9741
6.0532 -0.4052 -2.4982 0.9741
6.0653 0.1352 -2.4982 0.9741
8.1239 4.1052 -3.7481 0.9614
4.5485 3.4302 -2.3459 0.9757
4.2252 3.8214 -2.3459 0.9757
3.8683 4.1823 -2.3459 0.9757
3.4807 4.5101 -2.3459 0.9757
2.6260 5.0559 -2.3460 0.9757
0.6964 5.6547 -2.3461 0.9757
0.1904 5.6943 -2.3461 0.9757
-1.3208 5.5424 -2.3462 0.9757
-2.2826 5.2205 -2.3462 0.9757
-2.7382 4.9967 -2.3462 0.9757
-3.5808 4.4321 -2.3463 0.9757
-4.5900 3.9691 -2.4987 0.9741
-4.9250 3.5448 -2.4987 0.9741
-5.9720 1.0759 -2.4988 0.9741
-3.0794 0.0000 -1.3283 0.9867
-2.7278 -0.4914 -1.1956 0.9880
-2.7092 -0.7421 -1.2117 0.9878
-4.0269 -4.1637 -2.4986 0.9751
-3.6403 -4.5056 -2.4986 0.9751
-2.3205 -5.3071 -2.4985 0.9751
-1.8389 -5.4925 -2.4985 0.9751
-0.3225 -5.7830 -2.4984 0.9751
2.6695 -5.1398 -2.4983 0.9751
3.9325 -4.2518 -2.4982 0.9751
4.6240 -3.4871 -2.4982 0.9751
5.1690 -2.6120 -2.4982 0.9751
5.7556 -0.6438 -2.4982 0.9751
5.7785 0.3868 -2.4982 0.9751
5.7212 0.8996 -2.4982 0.9751
5.6184 1.4053 -2.4982 0.9751
5.4711 1.8998 -2.4982 0.9751
7.9221 3.5695 -3.7481 0.9629
4.1919 3.4647 -2.3459 0.9766
3.5112 4.1531 -2.3459 0.9766
3.1277 4.4492 -2.3460 0.9766
1.8411 5.1176 -2.3460 0.9766
1.3784 5.2612 -2.3460 0.9766
0.9046 5.3630 -2.3461 0.9766
-0.0606 5.4386 -2.3461 0.9766
-0.5444 5.4117 -2.3461 0.9766
-1.9549 5.0757 -2.3462 0.9766
-2.3989 4.8816 -2.3462 0.9766
-2.8239 4.6487 -2.3462 0.9766
-3.7584 4.2497 -2.4472 0.9756
-4.2085 3.9804 -2.4987 0.9751
-4.5461 3.5900 -2.4987 0.9751
-5.3331 2.2614 -2.4987 0.9751
-5.6495 1.2800 -2.4987 0.9751
-5.7410 0.7721 -2.4987 0.9751
-2.7166 -0.8760 -1.2313 0.9876
-2.7334 -1.1590 -1.2807 0.9871
-5.1105 -2.7270 -2.4987 0.9751
-3.8374 -4.3390 -2.4986 0.9751
-3.4359 -4.6633 -2.4986 0.9751
-3.0072 -4.9505 -2.4986 0.9751
-2.5546 -5.1985 -2.4985 0.9751
-1.5924 -5.5689 -2.4985 0.9751
1.9607 -5.4498 -2.4983 0.9751
2.4379 -5.2536 -2.4983 0.9751
3.3307 -4.7380 -2.4983 0.9751
3.7392 -4.4228 -2.4982 0.9751
5.0475 -2.8396 -2.4982 0.9751
5.7212 -0.8996 -2.4982 0.9751
5.6754 1.1536 -2.4982 0.9751
5.5503 1.6542 -2.4982 0.9751
5.3810 2.1416 -2.4982 0.9751
7.3757 4.5936 -3.7482 0.9629
4.3421 3.2745 -2.3459 0.9766
4.0334 3.6480 -2.3459 0.9766
3.6928 3.9926 -2.3459 0.9766
2.9264 4.5841 -2.3460 0.9766
2.5068 4.8265 -2.3460 0.9766
2.0673 5.0305 -2.3460 0.9766
1.1426 5.3174 -2.3461 0.9766
0.1817 5.4358 -2.3461 0.9766
-0.3028 5.4305 -2.3461 0.9766
-1.7268 5.1577 -2.3462 0.9766
-2.1790 4.9836 -2.3462 0.9766
-3.0282 4.5183 -2.3462 0.9766
-4.0270 4.1639 -2.4987 0.9751
-4.3816 3.7890 -2.4987 0.9751
-5.2270 2.4967 -2.4987 0.9751
-5.4285 2.0216 -2.4987 0.9751
-5.5869 1.5304 -2.4987 0.9751
-5.7009 1.0271 -2.4987 0.9751
-3.8266 0.3419 -1.6572 0.9834
-2.7005 -0.2413 -1.2234 0.9882
-2.6738 -0.4817 -1.2259 0.9881
-2.6546 -0.7272 -1.2419 0.9880
-2.6607 -0.9908 -1.2811 0.9876
-2.6666 -1.2737 -1.3334 0.9871
-2.6867 -1.5913 -1.4090 0.9864
-4.4944 -3.2349 -2.4986 0.9760
-3.4800 -4.3073 -2.4986 0.9760
-3.0828 -4.5999 -2.4986 0.9760
-2.6611 -4.8560 -2.4985 0.9760
-2.2184 -5.0735 -2.4985 0.9760
-1.7580 -5.2508 -2.4985 0.9760
0.1850 -5.5339 -2.4984 0.9760
3.3828 -4.3832 -2.4983 0.9760
3.7594 -4.0646 -2.4983 0.9760
5.1442 -2.0473 -2.4982 0.9760
5.4256 -1.1028 -2.4982 0.9760
5.5023 -0.6155 -2.4982 0.9760
5.5242 0.3698 -2.4982 0.9760
7.5735 3.4125 -3.7481 0.9642
7.2397 4.0730 -3.7482 0.9642
6.8485 4.7013 -3.7482 0.9642
2.9900 4.2534 -2.3460 0.9774
2.5996 4.5027 -2.3460 0.9774
2.1886 4.7162 -2.3460 0.9774
0.4051 5.1837 -2.3461 0.9774
-0.5205 5.1734 -2.3461 0.9774
-0.9789 5.1067 -2.3462 0.9774
-1.4295 4.9993 -2.3462 0.9774
-2.2933 4.6667 -2.3462 0.9774
-2.6996 4.4441 -2.3462 0.9774
-3.0844 4.1862 -2.3462 0.9774
-3.6686 4.1481 -2.4987 0.9760
-4.0232 3.8052 -2.4987 0.9760
-4.3460 3.4320 -2.4987 0.9760
-4.6342 3.0316 -2.4987 0.9760
-4.8856 2.6071 -2.4987 0.9760
-5.0983 2.1619 -2.4987 0.9760
-5.2705 1.6996 -2.4987 0.9760
-5.4009 1.2237 -2.4987 0.9760
-2.7833 -0.1241 -1.2571 0.9878
-2.6659 -0.6040 -1.2334 0.9881
-2.6675 -1.1311 -1.3074 0.9874
-4.6341 -3.0315 -2.4987 0.9760
-4.3459 -3.4319 -2.4986 0.9760
-4.0231 -3.8050 -2.4986 0.9760
-3.6685 -4.1480 -2.4986 0.9760
-3.2847 -4.4580 -2.4986 0.9760
-1.9901 -5.1673 -2.4985 0.9760
-1.0424 -5.4382 -2.4985 0.9760
-0.5542 -5.5093 -2.4984 0.9760
0.4313 -5.5202 -2.4984 0.9760
1.4032 -5.3562 -2.4984 0.9760
1.8744 -5.2099 -2.4983 0.9760
2.3306 -5.0224 -2.4983 0.9760
2.7684 -4.7950 -2.4983 0.9760
3.1842 -4.5296 -2.4983 0.9760
3.5747 -4.2281 -2.4983 0.9760
3.9368 -3.8931 -2.4982 0.9760
4.8254 -2.7147 -2.4982 0.9760
5.4694 -0.8600 -2.4982 0.9760
5.5352 0.1234 -2.4982 0.9760
5.4257 1.1029 -2.4982 0.9760
5.3060 1.5814 -2.4982 0.9760
4.1510 3.1304 -2.3459 0.9774
3.8559 3.4875 -2.3459 0.9774
3.5302 3.8168 -2.3459 0.9774
3.1765 4.1159 -2.3460 0.9774
2.7976 4.3824 -2.3460 0.9774
1.0923 5.0834 -2.3461 0.9774
-0.2895 5.1915 -2.3461 0.9774
-0.7504 5.1451 -2.3461 0.9774
-1.2054 5.0580 -2.3462 0.9774
-3.3815 4.1853 -2.4278 0.9767
-4.1888 3.6222 -2.4987 0.9760
-5.1896 1.9326 -2.4987 0.9760
-5.3410 1.4631 -2.4987 0.9760
-5.4500 0.9819 -2.4987 0.9760
-2.9112 0.0000 -1.3723 0.9872
-2.6023 -0.9691 -1.3090 0.9878
-2.6052 -1.2444 -1.3609 0.9873
-2.6596 -1.5753 -1.4571 0.9864
-4.3022 -3.0965 -2.4986 0.9768
-4.0095 -3.4671 -2.4986 0.9768
-3.3312 -4.1230 -2.4986 0.9768
-2.9510 -4.4031 -2.4986 0.9768
-2.1235 -4.8565 -2.4985 0.9768
-1.2287 -5.1560 -2.4985 0.9768
-0.7649 -5.2448 -2.4985 0.9768
-0.2951 -5.2921 -2.4984 0.9768
0.1771 -5.2973 -2.4984 0.9768
0.6479 -5.2604 -2.4984 0.9768
1.1135 -5.1819 -2.4984 0.9768
1.5703 -5.0621 -2.4983 0.9768
2.0146 -4.9022 -2.4983 0.9768
2.4429 -4.7034 -2.4983 0.9768
2.8518 -4.4673 -2.4983 0.9768
3.2381 -4.1957 -2.4983 0.9768
3.5987 -3.8908 -2.4983 0.9768
3.9307 -3.5551 -2.4982 0.9768
4.2315 -3.1911 -2.4982 0.9768
4.7302 -2.3903 -2.4982 0.9768
5.0791 -1.5137 -2.4982 0.9768
5.2670 -0.5892 -2.4982 0.9768
5.2985 -0.1181 -2.4982 0.9768
5.2880 0.3540 -2.4982 0.9768
5.1415 1.2860 -2.4982 0.9768
5.0066 1.7385 -2.4982 0.9768
6.5556 4.5002 -3.7482 0.9654
3.8360 3.1706 -2.3459 0.9782
2.8621 4.0715 -2.3460 0.9782
2.4884 4.3101 -2.3460 0.9782
2.0950 4.5146 -2.3460 0.9782
1.2613 4.8146 -2.3460 0.9782
0.8278 4.9077 -2.3461 0.9782
0.3877 4.9620 -2.3461 0.9782
-0.4982 4.9522 -2.3461 0.9782
-2.1952 4.4671 -2.3462 0.9782
-3.0400 4.1260 -2.4158 0.9776
-3.8512 3.6424 -2.4987 0.9768
-4.4360 2.9019 -2.4987 0.9768
-5.0451 1.6268 -2.4987 0.9768
-5.1699 1.1713 -2.4987 0.9768
-2.7082 -0.1208 -1.2779 0.9881
-2.6352 -0.3544 -1.2533 0.9883
-2.6131 -0.5921 -1.2630 0.9882
-2.5902 -1.3822 -1.3839 0.9871
-4.4359 -2.9018 -2.4986 0.9768
-4.1600 -3.2851 -2.4986 0.9768
-3.1442 -4.2673 -2.4986 0.9768
-2.3377 -4.7571 -2.4985 0.9768
-1.4572 -5.0962 -2.4985 0.9768
-0.9978 -5.2056 -2.4985 0.9768
-0.5305 -5.2737 -2.4984 0.9768
0.8816 -5.2263 -2.4984 0.9768
1.3432 -5.1271 -2.4984 0.9768
1.7942 -4.9871 -2.4983 0.9768
2.2310 -4.8076 -2.4983 0.9768
2.6500 -4.5899 -2.4983 0.9768
3.4218 -4.0473 -2.4983 0.9768
4.0851 -3.3765 -2.4982 0.9768
4.3694 -2.9994 -2.4982 0.9768
4.8320 -2.1772 -2.4982 0.9768
5.2355 -0.8232 -2.4982 0.9768
5.2880 -0.3540 -2.4982 0.9768
5.2985 0.1181 -2.4982 0.9768
5.2670 0.5892 -2.4982 0.9768
5.1937 1.0557 -2.4982 0.9768
7.0969 3.5862 -3.7482 0.9654
6.7496 4.2037 -3.7482 0.9654
2.6780 4.1950 -2.3460 0.9782
2.2940 4.4167 -2.3460 0.9782
1.0456 4.8660 -2.3461 0.9782
0.6084 4.9397 -2.3461 0.9782
-0.2771 4.9694 -2.3461 0.9782
-1.5802 4.7198 -2.3462 0.9782
-2.3920 4.3649 -2.3462 0.9782
-2.7711 4.1347 -2.3462 0.9782
-4.0096 3.4673 -2.4987 0.9768
-4.5609 2.7014 -2.4987 0.9768
-5.2169 0.9399 -2.4987 0.9768
-3.7077 0.3313 -1.7547 0.9837
-2.8280 -0.0000 -1.3909 0.9875
-2.5903 -0.2315 -1.2791 0.9885
-2.5698 -0.4630 -1.2843 0.9884
-2.5453 -0.9479 -1.3359 0.9880
-2.5457 -1.2160 -1.3876 0.9875
-4.3709 -2.5889 -2.4986 0.9776
-4.1231 -2.9676 -2.4986 0.9776
-3.1925 -3.9514 -2.4986 0.9776
-2.8281 -4.2198 -2.4986 0.9776
-2.0351 -4.6544 -2.4985 0.9776
-1.6127 -4.8169 -2.4985 0.9776
-1.1776 -4.9413 -2.4985 0.9776
-0.7331 -5.0264 -2.4985 0.9776
-0.2828 -5.0718 -2.4984 0.9776
1.5049 -4.8514 -2.4983 0.9776
1.9307 -4.6981 -2.4983 0.9776
2.3412 -4.5076 -2.4983 0.9776
2.7331 -4.2813 -2.4983 0.9776
3.4489 -3.7289 -2.4983 0.9776
3.7670 -3.4071 -2.4983 0.9776
4.0553 -3.0583 -2.4982 0.9776
4.7192 -1.8782 -2.4982 0.9776
4.8676 -1.4507 -2.4982 0.9776
5.0477 -0.5647 -2.4982 0.9776
5.0176 0.7890 -2.4982 0.9776
4.9274 1.2324 -2.4982 0.9776
6.2827 4.3128 -3.7482 0.9666
5.8739 4.8550 -3.7482 0.9666
3.0794 3.6423 -2.3460 0.9790
2.7430 3.9020 -2.3460 0.9790
2.3848 4.1306 -2.3460 0.9790
2.0077 4.3266 -2.3460 0.9790
1.2088 4.6141 -2.3460 0.9790
0.7934 4.7034 -2.3461 0.9790
-0.0531 4.7696 -2.3461 0.9790
-0.8980 4.6847 -2.3461 0.9790
-1.3114 4.5862 -2.3462 0.9790
-1.7144 4.4514 -2.3462 0.9790
-2.1038 4.2812 -2.3462 0.9790
-2.4766 4.0769 -2.3462 0.9790
-3.6908 3.4908 -2.4987 0.9776
-3.9869 3.1484 -2.4987 0.9776
-4.6770 1.9832 -2.4987 0.9776
-4.9546 1.1226 -2.4987 0.9776
-5.0348 0.6771 -2.4987 0.9776
-3.0631 0.1366 -1.5081 0.9864
-2.5430 -0.8200 -1.3142 0.9882
-2.5301 -1.3501 -1.4105 0.9873
-3.9868 -3.1483 -2.4986 0.9776
-3.6907 -3.4907 -2.4986 0.9776
-3.3654 -3.8053 -2.4986 0.9776
-2.2404 -4.5591 -2.4985 0.9776
-1.3965 -4.8840 -2.4985 0.9776
-0.5085 -5.0541 -2.4984 0.9776
0.3957 -5.0641 -2.4984 0.9776
1.2873 -4.9136 -2.4984 0.9776
2.5397 -4.3988 -2.4983 0.9776
3.2793 -3.8788 -2.4983 0.9776
3.6115 -3.5715 -2.4983 0.9776
4.1875 -2.8746 -2.4982 0.9776
4.4268 -2.4904 -2.4982 0.9776
4.9274 -1.2324 -2.4982 0.9776
5.0678 -0.3393 -2.4982 0.9776
5.0477 0.5647 -2.4982 0.9776
4.7192 1.8782 -2.4983 0.9776
6.4686 4.0287 -3.7482 0.9666
3.5373 3.1993 -2.3459 0.9790
3.2386 3.5015 -2.3459 0.9790
2.9141 3.7759 -2.3460 0.9790
2.1985 4.2328 -2.3460 0.9790
1.4132 4.5556 -2.3460 0.9790
0.5831 4.7341 -2.3461 0.9790
-0.2656 4.7625 -2.3461 0.9790
-1.1058 4.6401 -2.3462 0.9790
-1.9110 4.3706 -2.3462 0.9790
-3.1926 3.9515 -2.4986 0.9776
-3.5316 3.6517 -2.4987 0.9776
-3.8427 3.3229 -2.4987 0.9776
-4.1232 2.9677 -2.4987 0.9776
-4.5841 2.1896 -2.4987 0.9776
-3.6335 0.3247 -1.7943 0.9839
-2.5199 -0.4540 -1.3127 0.9886
-2.4994 -0.6846 -1.3286 0.9884
-2.4879 -1.1884 -1.4135 0.9877
-3.9557 -2.8471 -2.4986 0.9783
-3.6865 -3.1879 -2.4986 0.9783
-3.3881 -3.5033 -2.4986 0.9783
-1.5472 -4.6213 -2.4985 0.9783
-1.1298 -4.7407 -2.4985 0.9783
-0.7033 -4.8224 -2.4985 0.9783
0.1628 -4.8706 -2.4984 0.9783
0.5957 -4.8367 -2.4984 0.9783
1.0238 -4.7645 -2.4984 0.9783
1.4438 -4.6544 -2.4984 0.9783
1.8523 -4.5074 -2.4983 0.9783
2.2462 -4.3246 -2.4983 0.9783
2.6221 -4.1075 -2.4983 0.9783
3.6141 -3.2688 -2.4983 0.9783
4.1364 -2.5761 -2.4982 0.9783
4.3492 -2.1978 -2.4982 0.9783
4.5276 -1.8019 -2.4982 0.9783
4.6700 -1.3918 -2.4982 0.9783
6.3720 3.5848 -3.7482 0.9677
6.0277 4.1378 -3.7482 0.9677
2.9544 3.4945 -2.3460 0.9796
2.6316 3.7436 -2.3460 0.9796
1.9262 4.1509 -2.3460 0.9796
1.1597 4.4267 -2.3460 0.9796
0.7611 4.5124 -2.3461 0.9796
-0.0510 4.5760 -2.3461 0.9796
-0.4581 4.5533 -2.3461 0.9796
-1.6448 4.2706 -2.3462 0.9796
-2.4413 4.0189 -2.4107 0.9791
-3.2288 3.6509 -2.4986 0.9783
-3.5409 3.3490 -2.4987 0.9783
-3.8250 3.0206 -2.4987 0.9783
-4.0787 2.6681 -2.4987 0.9783
-4.3000 2.2945 -2.4987 0.9783
-4.4871 1.9027 -2.4987 0.9783
-4.6387 1.4958 -2.4987 0.9783
-4.7534 1.0770 -2.4987 0.9783
-4.8304 0.6496 -2.4987 0.9783
-2.5877 -0.1154 -1.3280 0.9884
-2.5113 -0.5690 -1.3201 0.9885
-2.4717 -1.3189 -1.4363 0.9875
-3.8249 -3.0205 -2.4986 0.9783
-3.5409 -3.3489 -2.4986 0.9783
-3.2287 -3.6508 -2.4986 0.9783
-2.8909 -3.9236 -2.4986 0.9783
-1.3398 -4.6857 -2.4985 0.9783
-0.9175 -4.7863 -2.4985 0.9783
0.3796 -4.8585 -2.4984 0.9783
2.0513 -4.4204 -2.4983 0.9783
2.8025 -3.9866 -2.4983 0.9783
3.4649 -3.4265 -2.4983 0.9783
3.7561 -3.1045 -2.4983 0.9783
4.2470 -2.3893 -2.4982 0.9783
4.7274 -1.1824 -2.4982 0.9783
4.8621 -0.3255 -2.4982 0.9783
4.8718 0.1086 -2.4982 0.9783
4.7754 0.9706 -2.4982 0.9783
4.5276 1.8020 -2.4983 0.9783
4.3493 2.1978 -2.4983 0.9783
6.2059 3.8651 -3.7482 0.9677
5.8373 4.4022 -3.7482 0.9677
5.4224 4.9043 -3.7483 0.9677
3.1071 3.3594 -2.3459 0.9796
2.7958 3.6226 -2.3460 0.9796
1.7394 4.2326 -2.3460 0.9796
0.1529 4.5737 -2.3461 0.9796
-0.6604 4.5284 -2.3461 0.9796
-1.0609 4.4517 -2.3462 0.9796
-1.4529 4.3396 -2.3462 0.9796
-1.8334 4.1931 -2.3462 0.9796
-2.7133 4.0486 -2.4986 0.9783
-3.0629 3.7910 -2.4986 0.9783
-3.6866 3.1879 -2.4987 0.9783
-4.5674 1.7009 -2.4987 0.9783
-3.5464 0.3169 -1.8254 0.9841
-2.6714 0.0000 -1.4261 0.9880
-2.4853 -0.2221 -1.3321 0.9887
-2.4716 -0.4453 -1.3407 0.9887
-2.3944 -1.4182 -1.4856 0.9875
-3.2538 -3.3644 -2.4986 0.9790
-2.9414 -3.6406 -2.4986 0.9790
-2.6057 -3.8879 -2.4985 0.9790
-1.4859 -4.4380 -2.4985 0.9790
-0.2606 -4.6728 -2.4984 0.9790
0.5721 -4.6449 -2.4984 0.9790
1.3866 -4.4698 -2.4984 0.9790
1.7789 -4.3287 -2.4983 0.9790
3.9723 -2.4740 -2.4983 0.9790
4.1768 -2.1106 -2.4982 0.9790
4.5860 -0.9321 -2.4982 0.9790
4.6507 -0.5203 -2.4982 0.9790
4.6786 -0.1043 -2.4982 0.9790
4.5399 1.1355 -2.4983 0.9790
4.2667 1.9225 -2.4983 0.9790
5.7886 3.9736 -3.7482 0.9687
5.4120 4.4731 -3.7482 0.9687
4.9924 4.9371 -3.7483 0.9687
1.8498 3.9862 -2.3460 0.9803
1.4877 4.1351 -2.3460 0.9803
1.1137 4.2512 -2.3460 0.9803
0.3424 4.3814 -2.3461 0.9803
-0.4399 4.3727 -2.3461 0.9803
-0.8274 4.3162 -2.3461 0.9803
-3.1007 3.5061 -2.4986 0.9790
-3.6733 2.9008 -2.4987 0.9790
-3.9169 2.5623 -2.4987 0.9790
-4.1294 2.2035 -2.4987 0.9790
-2.8953 0.1291 -1.5471 0.9869
-2.5303 -0.1128 -1.3521 0.9886
-2.4861 -0.3344 -1.3391 0.9887
-2.4621 -0.5578 -1.3477 0.9886
-2.4353 -0.7853 -1.3660 0.9885
-3.6732 -2.9007 -2.4986 0.9790
-3.1006 -3.5059 -2.4986 0.9790
-2.4299 -4.0001 -2.4985 0.9790
-2.0642 -4.2005 -2.4985 0.9790
-1.6821 -4.3675 -2.4985 0.9790
-0.8811 -4.5965 -2.4985 0.9790
-0.4685 -4.6566 -2.4984 0.9790
-0.0521 -4.6798 -2.4984 0.9790
0.7784 -4.6148 -2.4984 0.9790
1.1861 -4.5272 -2.4984 0.9790
1.9699 -4.2451 -2.4983 0.9790
2.6914 -3.8285 -2.4983 0.9790
3.0214 -3.5738 -2.4983 0.9790
3.3275 -3.2906 -2.4983 0.9790
3.6072 -2.9814 -2.4983 0.9790
4.0786 -2.2946 -2.4983 0.9790
4.2666 -1.9224 -2.4982 0.9790
4.6229 -0.7269 -2.4982 0.9790
4.5860 0.9321 -2.4983 0.9790
4.3481 1.7305 -2.4983 0.9790
5.2073 4.7098 -3.7483 0.9687
2.3646 3.7041 -2.3460 0.9803
2.0256 3.8999 -2.3460 0.9803
0.9233 4.2966 -2.3461 0.9803
-1.3953 4.1675 -2.3462 0.9803
-3.2538 3.3645 -2.4986 0.9790
-3.5404 3.0615 -2.4987 0.9790
-3.7988 2.7342 -2.4987 0.9790
-4.0271 2.3853 -2.4987 0.9790
-4.5143 1.2366 -2.4987 0.9790
-3.5315 0.3156 -1.8928 0.9841
-2.5976 -0.0000 -1.4427 0.9882
-2.4347 -0.2176 -1.3576 0.9889
-2.4018 -0.6579 -1.3831 0.9887
-2.3823 -0.8872 -1.4119 0.9884
-2.3733 -1.1337 -1.4608 0.9880
-3.6514 -2.6281 -2.4986 0.9796
-3.4029 -2.9426 -2.4986 0.9796
-2.8272 -3.4993 -2.4986 0.9796
-2.1620 -3.9451 -2.4985 0.9796
-1.8022 -4.1218 -2.4985 0.9796
-1.4282 -4.2658 -2.4985 0.9796
-1.0428 -4.3760 -2.4985 0.9796
-0.6492 -4.4514 -2.4985 0.9796
0.1503 -4.4959 -2.4984 0.9796
0.5499 -4.4646 -2.4984 0.9796
0.9451 -4.3979 -2.4984 0.9796
1.7099 -4.1607 -2.4983 0.9796
2.4204 -3.7915 -2.4983 0.9796
3.0543 -3.3023 -2.4983 0.9796
3.5914 -2.7084 -2.4983 0.9796
4.3108 -1.2847 -2.4983 0.9796
4.4080 -0.8960 -2.4982 0.9796
4.4436 0.6987 -2.4983 0.9796
4.3637 1.0914 -2.4983 0.9796
5.5640 3.8194 -3.7482 0.9696
2.7271 3.2256 -2.3460 0.9809
2.4292 3.4556 -2.3460 0.9809
1.4300 3.9747 -2.3460 0.9809
1.0705 4.0862 -2.3460 0.9809
0.7026 4.1653 -2.3461 0.9809
-1.1613 4.0615 -2.3462 0.9809
-2.3356 3.8450 -2.4986 0.9796
-2.6686 3.6219 -2.4986 0.9796
-3.7649 2.4629 -2.4987 0.9796
-4.1419 1.7563 -2.4987 0.9796
-4.2818 1.3807 -2.4987 0.9796
-4.3877 0.9941 -2.4987 0.9796
-2.5021 0.1116 -1.3910 0.9886
-2.4139 -0.5469 -1.3747 0.9887
-2.3870 -0.7697 -1.3929 0.9886
-2.3793 -1.0089 -1.4353 0.9882
-2.3600 -1.2593 -1.4857 0.9878
-2.2661 -1.4824 -1.5039 0.9877
-3.5306 -2.7881 -2.4986 0.9796
-2.9803 -3.3699 -2.4986 0.9796
-0.4503 -4.4759 -2.4984 0.9796
-0.0501 -4.4982 -2.4984 0.9796
1.5228 -4.2327 -2.4984 0.9796
1.8935 -4.0804 -2.4983 0.9796
2.2491 -3.8956 -2.4983 0.9796
2.5869 -3.6799 -2.4983 0.9796
2.9042 -3.4351 -2.4983 0.9796
3.7085 -2.5457 -2.4983 0.9796
4.1011 -1.8478 -2.4983 0.9796
4.2493 -1.4755 -2.4983 0.9796
4.3637 -1.0914 -2.4982 0.9796
4.4435 -0.6987 -2.4982 0.9796
4.4881 -0.3004 -2.4983 0.9796
4.4970 0.1002 -2.4983 0.9796
4.4703 0.5001 -2.4983 0.9796
4.3108 1.2848 -2.4983 0.9796
3.8183 2.3780 -2.4983 0.9796
5.0052 4.5270 -3.7483 0.9696
2.8681 3.1009 -2.3460 0.9809
2.5807 3.3439 -2.3460 0.9809
1.9469 3.7486 -2.3460 0.9809
1.6056 3.9070 -2.3460 0.9809
