ply
format ascii 1.0
element vertex 1588
property float32 x
property float32 y
property float32 z
property float32 I
end_header
-8.3628 10.3507 -2.3464 0.9474
-9.2509 9.5654 -2.3464 0.9474
-10.0656 8.7041 -2.3464 0.9474
-10.8005 7.7737 -2.3464 0.9474
-11.4496 6.7817 -2.3464 0.9474
-12.0078 5.7357 -2.3464 0.9474
-13.2807 4.9458 -2.4989 0.9441
-13.6683 3.7441 -2.4989 0.9441
-14.1156 1.2614 -2.4989 0.9441
-12.9127 0.0000 -2.4988 0.9488
-12.8614 -1.1493 -2.4988 0.9488
-12.7081 -2.2894 -2.4988 0.9488
-12.4538 -3.4114 -2.4988 0.9488
-11.1098 -6.5804 -2.4988 0.9488
-9.7669 -8.4458 -2.4987 0.9488
-7.1884 -10.7258 -2.4987 0.9488
-5.1727 -11.8301 -2.4986 0.9488
-4.0991 -12.2434 -2.4986 0.9488
-2.9931 -12.5595 -2.4986 0.9488
-1.8633 -12.7760 -2.4985 0.9488
1.5782 -12.8139 -2.4985 0.9488
3.8251 -12.3308 -2.4984 0.9488
4.9074 -11.9413 -2.4984 0.9488
5.9506 -11.4570 -2.4984 0.9488
6.9467 -10.8818 -2.4983 0.9488
7.8876 -10.2203 -2.4983 0.9488
9.5746 -8.6597 -2.4983 0.9488
10.9582 -6.8248 -2.4983 0.9488
11.5221 -5.8223 -2.4982 0.9488
11.9945 -4.7737 -2.4982 0.9488
12.3718 -3.6872 -2.4982 0.9488
12.6508 -2.5713 -2.4982 0.9488
12.8295 -1.4352 -2.4982 0.9488
12.9063 -0.2876 -2.4982 0.9488
11.0522 4.9799 -2.3459 0.9518
8.6196 8.5242 -2.3460 0.9518
7.8268 9.2576 -2.3460 0.9518
6.0615 10.4989 -2.3460 0.9518
3.0725 11.7276 -2.3461 0.9518
2.0165 11.9547 -2.3461 0.9518
-0.1351 12.1230 -2.3462 0.9518
-2.2824 11.9073 -2.3462 0.9518
-3.3332 11.6570 -2.3462 0.9518
-5.3473 10.8815 -2.3463 0.9518
-7.1921 9.7612 -2.3463 0.9518
-8.0324 9.0824 -2.3463 0.9518
-9.5156 7.5144 -2.3464 0.9518
-10.1467 6.6377 -2.3464 0.9518
-10.6973 5.7083 -2.3464 0.9518
-12.5935 2.8533 -2.4988 0.9488
-12.8999 -0.5752 -2.4988 0.9488
-12.7975 -1.7211 -2.4988 0.9488
-12.5934 -2.8533 -2.4988 0.9488
-12.2894 -3.9628 -2.4988 0.9488
-11.3920 -6.0789 -2.4988 0.9488
-10.8056 -7.0687 -2.4988 0.9488
-10.1335 -8.0023 -2.4988 0.9488
-5.6945 -11.5880 -2.4986 0.9488
-4.6405 -12.0487 -2.4986 0.9488
-3.5496 -12.4138 -2.4986 0.9488
-1.2923 -12.8462 -2.4985 0.9488
-0.1438 -12.9101 -2.4985 0.9488
1.0058 -12.8715 -2.4985 0.9488
2.1474 -12.7308 -2.4984 0.9488
3.2720 -12.4890 -2.4984 0.9488
5.4344 -11.7108 -2.4984 0.9488
6.4551 -11.1805 -2.4983 0.9488
8.3350 -9.8587 -2.4983 0.9488
9.9508 -8.2246 -2.4983 0.9488
12.8807 -0.8622 -2.4982 0.9488
12.9063 0.2877 -2.4982 0.9488
10.8194 5.4673 -2.3459 0.9518
10.2899 6.4087 -2.3459 0.9518
9.6788 7.2991 -2.3459 0.9518
5.5168 4.9897 -1.4395 0.9701
8.2314 8.8997 -2.3460 0.9518
6.5231 10.2183 -2.3460 0.9518
-2.8106 11.7938 -2.3462 0.9518
-3.8492 11.4970 -2.3463 0.9518
-4.8573 11.1089 -2.3463 0.9518
-6.7501 10.0719 -2.3463 0.9518
-7.6198 9.4312 -2.3463 0.9518
-9.1714 7.9308 -2.3464 0.9518
-10.4323 6.1791 -2.3464 0.9518
-11.6517 5.5656 -2.4988 0.9488
-12.7081 2.2895 -2.4988 0.9488
-11.8528 0.0000 -2.4988 0.9527
-11.6650 -2.1015 -2.4988 0.9527
-11.4316 -3.1314 -2.4988 0.9527
-11.1075 -4.1364 -2.4988 0.9527
-10.1980 -6.0402 -2.4988 0.9527
-8.9653 -7.7526 -2.4987 0.9527
-6.5984 -9.8454 -2.4987 0.9527
-5.6959 -10.3936 -2.4986 0.9527
-4.7481 -10.8592 -2.4986 0.9527
1.4487 -11.7623 -2.4985 0.9527
2.4898 -11.5865 -2.4984 0.9527
3.5112 -11.3188 -2.4984 0.9527
7.2403 -9.3815 -2.4983 0.9527
8.7889 -7.9490 -2.4983 0.9527
9.4615 -7.1352 -2.4983 0.9527
10.5766 -5.3446 -2.4983 0.9527
11.0103 -4.3820 -2.4983 0.9527
11.6127 -2.3604 -2.4982 0.9527
11.7767 -1.3174 -2.4982 0.9527
10.7949 2.7000 -2.3459 0.9555
10.5118 3.6501 -2.3459 0.9555
10.1452 4.5712 -2.3459 0.9555
9.1741 6.2977 -2.3459 0.9555
8.5772 7.0893 -2.3459 0.9555
7.9123 7.8246 -2.3460 0.9555
7.1845 8.4979 -2.3460 0.9555
4.6843 10.0943 -2.3460 0.9555
3.7673 10.4713 -2.3461 0.9555
2.8203 10.7651 -2.3461 0.9555
1.8510 10.9736 -2.3461 0.9555
-0.1240 11.1281 -2.3462 0.9555
-1.1140 11.0730 -2.3462 0.9555
-2.0951 10.9300 -2.3462 0.9555
-3.0596 10.7003 -2.3462 0.9555
-5.7780 9.5120 -2.3463 0.9555
-7.3731 8.3369 -2.3463 0.9555
-8.7346 6.8976 -2.3464 0.9555
-9.3139 6.0929 -2.3464 0.9555
-10.0455 5.3605 -2.4004 0.9545
-10.9123 4.6272 -2.4988 0.9527
-11.2808 3.6376 -2.4988 0.9527
-11.5599 2.6191 -2.4988 0.9527
-11.7471 1.5799 -2.4988 0.9527
-11.8411 0.5280 -2.4988 0.9527
-10.9122 -4.6271 -2.4988 0.9527
-10.4570 -5.5800 -2.4988 0.9527
-9.3018 -7.3455 -2.4987 0.9527
-4.2596 -11.0599 -2.4986 0.9527
-3.2583 -11.3950 -2.4986 0.9527
-1.1863 -11.7920 -2.4985 0.9527
0.9233 -11.8152 -2.4985 0.9527
1.9712 -11.6860 -2.4985 0.9527
3.0035 -11.4641 -2.4984 0.9527
4.0119 -11.1512 -2.4984 0.9527
4.9884 -10.7497 -2.4984 0.9527
6.8152 -9.6948 -2.4983 0.9527
9.7699 -6.7066 -2.4983 0.9527
10.3280 -5.8104 -2.4983 0.9527
11.1945 -3.8871 -2.4983 0.9527
11.4961 -2.8753 -2.4983 0.9527
11.7063 -1.8407 -2.4982 0.9527
11.8237 -0.7915 -2.4982 0.9527
10.9044 2.2164 -2.3459 0.9555
10.6639 3.1782 -2.3459 0.9555
10.3388 4.1148 -2.3459 0.9555
8.8845 6.7001 -2.3459 0.9555
5.5165 4.9893 -1.5681 0.9701
5.9878 9.3798 -2.3460 0.9555
5.1293 9.8756 -2.3460 0.9555
3.2971 10.6288 -2.3461 0.9555
2.3380 10.8802 -2.3461 0.9555
1.3603 11.0452 -2.3461 0.9555
0.3719 11.1225 -2.3462 0.9555
-1.6061 11.0125 -2.3462 0.9555
-2.5799 10.8259 -2.3462 0.9555
-5.3486 9.7599 -2.3463 0.9555
-6.1961 9.2452 -2.3463 0.9555
-6.9944 8.6571 -2.3463 0.9555
-7.7372 8.0002 -2.3463 0.9555
-9.0332 6.5017 -2.3464 0.9555
-9.5761 5.6720 -2.3464 0.9555
-10.6953 5.1087 -2.4988 0.9527
-11.4317 3.1315 -2.4988 0.9527
-11.8058 1.0550 -2.4988 0.9527
-10.9479 0.0000 -2.4988 0.9561
-9.4194 -5.5791 -2.4987 0.9561
-7.6106 -7.8693 -2.4987 0.9561
-6.0947 -9.0939 -2.4987 0.9561
-5.2610 -9.6002 -2.4986 0.9561
-3.4755 -10.3807 -2.4986 0.9561
-1.5798 -10.8322 -2.4985 0.9561
2.2997 -10.7021 -2.4984 0.9561
4.1608 -10.1246 -2.4984 0.9561
5.0453 -9.7140 -2.4984 0.9561
5.8899 -9.2263 -2.4984 0.9561
6.6877 -8.6654 -2.4983 0.9561
8.7393 -6.5906 -2.4983 0.9561
9.7693 -4.9366 -2.4983 0.9561
10.1698 -4.0475 -2.4983 0.9561
10.9429 -0.2438 -2.4983 0.9561
10.9212 0.7312 -2.4983 0.9561
9.9709 2.4939 -2.3459 0.9587
9.7094 3.3715 -2.3459 0.9587
8.9579 5.0397 -2.3459 0.9587
8.4738 5.8170 -2.3459 0.9587
5.9112 8.4088 -2.3460 0.9587
5.1393 8.9016 -2.3460 0.9587
0.8008 10.2479 -2.3461 0.9587
-0.1145 10.2786 -2.3462 0.9587
-1.0289 10.2277 -2.3462 0.9587
-1.9352 10.0956 -2.3462 0.9587
-2.8261 9.8834 -2.3462 0.9587
-4.5337 9.2259 -2.3463 0.9587
-5.3369 8.7858 -2.3463 0.9587
-6.0978 8.2760 -2.3463 0.9587
-6.8102 7.7005 -2.3463 0.9587
-8.0677 6.3710 -2.3463 0.9587
-8.6028 5.6277 -2.3464 0.9587
-9.6587 5.1541 -2.4988 0.9561
-10.0792 4.2740 -2.4988 0.9561
-10.6773 2.4192 -2.4988 0.9561
-10.8503 1.4593 -2.4988 0.9561
-10.9371 0.4877 -2.4988 0.9561
-10.9371 -0.4877 -2.4988 0.9561
-10.6773 -2.4191 -2.4988 0.9561
-10.4195 -3.3598 -2.4988 0.9561
-9.6586 -5.1540 -2.4987 0.9561
-8.5917 -6.7847 -2.4987 0.9561
-7.9536 -7.5225 -2.4987 0.9561
-7.2525 -8.2005 -2.4987 0.9561
-6.4937 -8.8134 -2.4987 0.9561
-5.6835 -9.3563 -2.4986 0.9561
-3.9345 -10.2156 -2.4986 0.9561
-2.0608 -10.7511 -2.4986 0.9561
-1.0957 -10.8917 -2.4985 0.9561
5.4731 -9.4796 -2.4984 0.9561
9.0242 -6.1947 -2.4983 0.9561
9.5397 -5.3669 -2.4983 0.9561
9.9795 -4.4965 -2.4983 0.9561
10.3400 -3.5904 -2.4983 0.9561
10.9429 0.2439 -2.4983 0.9561
10.0721 2.0473 -2.3459 0.9587
9.1735 4.6356 -2.3459 0.9587
8.2063 6.1887 -2.3460 0.9587
6.9791 7.5458 -2.3460 0.9587
5.5307 8.6638 -2.3460 0.9587
4.7377 9.1217 -2.3460 0.9587
3.0454 9.8174 -2.3461 0.9587
1.2565 10.2020 -2.3461 0.9587
0.3435 10.2735 -2.3462 0.9587
-0.5723 10.2633 -2.3462 0.9587
-2.3830 9.9995 -2.3462 0.9587
-3.2635 9.7478 -2.3462 0.9587
-4.1182 9.4187 -2.3463 0.9587
-5.7230 8.5394 -2.3463 0.9587
-6.4604 7.9962 -2.3463 0.9587
-7.1465 7.3895 -2.3463 0.9587
-8.3436 6.0054 -2.3463 0.9587
-9.8788 4.7187 -2.4988 0.9561
-10.5589 2.8924 -2.4988 0.9561
-10.9045 0.9744 -2.4988 0.9561
-10.1255 -0.9048 -2.4988 0.9590
-8.7466 -5.1806 -2.4987 0.9590
-8.2507 -5.9385 -2.4987 0.9590
-6.3885 -7.9072 -2.4987 0.9590
-5.6593 -8.4443 -2.4986 0.9590
-4.0724 -9.3138 -2.4986 0.9590
-0.5659 -10.1491 -2.4985 0.9590
0.3397 -10.1590 -2.4985 0.9590
1.2425 -10.0884 -2.4985 0.9590
2.1355 -9.9377 -2.4985 0.9590
3.8636 -9.4015 -2.4984 0.9590
4.6850 -9.0202 -2.4984 0.9590
5.4692 -8.5673 -2.4984 0.9590
6.9015 -7.4618 -2.4983 0.9590
7.5382 -6.8179 -2.4983 0.9590
8.1151 -6.1199 -2.4983 0.9590
9.0716 -4.5840 -2.4983 0.9590
9.9603 -2.0245 -2.4983 0.9590
10.1614 -0.2264 -2.4983 0.9590
9.0160 3.1307 -2.3459 0.9615
7.8686 5.4015 -2.3460 0.9614
5.3599 5.3005 -1.8529 0.9694
6.1621 7.2886 -2.3460 0.9614
5.4890 7.8082 -2.3460 0.9614
4.7723 8.2658 -2.3460 0.9614
4.0177 8.6579 -2.3461 0.9614
3.2311 8.9812 -2.3461 0.9614
0.7436 9.5159 -2.3461 0.9614
-0.1063 9.5445 -2.3462 0.9614
-0.9554 9.4972 -2.3462 0.9614
-1.7969 9.3745 -2.3462 0.9614
-2.6242 9.1775 -2.3462 0.9614
-4.2099 8.5669 -2.3463 0.9614
-5.6622 7.6849 -2.3463 0.9614
-6.3238 7.1504 -2.3463 0.9614
-7.4914 5.9159 -2.3463 0.9614
-9.3592 3.9687 -2.4988 0.9590
-9.6753 3.1199 -2.4988 0.9590
-10.0752 -1.3549 -2.4988 0.9590
-9.9146 -2.2463 -2.4988 0.9590
-9.6752 -3.1198 -2.4988 0.9590
-8.5071 -5.5651 -2.4987 0.9590
-7.9780 -6.3001 -2.4987 0.9590
-7.3855 -6.9851 -2.4987 0.9590
-6.7344 -7.6147 -2.4987 0.9590
-6.0299 -8.1838 -2.4987 0.9590
-5.2775 -8.6880 -2.4986 0.9590
-4.4833 -9.1231 -2.4986 0.9590
-3.6534 -9.4859 -2.4986 0.9590
-2.7946 -9.7733 -2.4986 0.9590
-1.9136 -9.9832 -2.4985 0.9590
-1.0175 -10.1138 -2.4985 0.9590
0.7919 -10.1338 -2.4985 0.9590
1.6907 -10.0230 -2.4985 0.9590
3.4410 -9.5643 -2.4984 0.9590
4.2786 -9.2200 -2.4984 0.9590
5.0822 -8.8025 -2.4984 0.9590
5.8454 -8.3152 -2.4984 0.9590
6.5623 -7.7619 -2.4984 0.9590
7.8344 -6.4753 -2.4983 0.9590
8.3797 -5.7523 -2.4983 0.9590
9.2667 -4.1754 -2.4983 0.9590
9.6016 -3.3340 -2.4983 0.9590
9.8602 -2.4662 -2.4983 0.9590
10.1412 -0.6788 -2.4983 0.9590
10.1614 0.2265 -2.4983 0.9590
10.1009 1.1300 -2.4983 0.9590
9.1465 2.7259 -2.3459 0.9615
8.5183 4.3045 -2.3459 0.9614
5.4443 4.9241 -1.8044 0.9702
6.4807 7.0068 -2.3460 0.9614
5.8313 7.5559 -2.3460 0.9614
3.6280 8.8283 -2.3461 0.9614
2.8279 9.1162 -2.3461 0.9614
2.0053 9.3318 -2.3461 0.9614
0.3190 9.5396 -2.3462 0.9614
-1.3775 9.4453 -2.3462 0.9614
-3.0304 9.0515 -2.3462 0.9614
-5.9989 7.4250 -2.3463 0.9614
-6.6360 6.8616 -2.3463 0.9614
-7.2205 6.2438 -2.3463 0.9614
-9.8047 2.6858 -2.4988 0.9590
-10.0048 1.8025 -2.4988 0.9590
-9.3327 -1.6813 -2.4987 0.9615
-9.1459 -2.5053 -2.4987 0.9615
-8.8866 -3.3094 -2.4987 0.9615
-7.6964 -5.5396 -2.4987 0.9615
-7.1728 -6.2026 -2.4987 0.9615
-6.5922 -6.8163 -2.4987 0.9615
-5.9593 -7.3760 -2.4987 0.9615
-5.2792 -7.8770 -2.4986 0.9615
-3.0104 -8.9917 -2.4986 0.9615
-1.3684 -9.3828 -2.4985 0.9615
-0.5279 -9.4673 -2.4985 0.9615
1.1591 -9.4108 -2.4985 0.9615
1.9920 -9.2702 -2.4985 0.9615
4.3703 -8.4143 -2.4984 0.9615
5.1019 -7.9919 -2.4984 0.9615
7.0319 -6.3599 -2.4983 0.9615
8.4622 -4.2761 -2.4983 0.9615
8.8092 -3.5060 -2.4983 0.9615
9.0863 -2.7080 -2.4983 0.9615
9.2912 -1.8885 -2.4983 0.9615
9.4601 0.6333 -2.4983 0.9615
8.1171 3.6574 -2.3459 0.9638
7.7594 4.3654 -2.3460 0.9638
7.3401 5.0387 -2.3460 0.9638
4.4517 7.7106 -2.3460 0.9638
3.0141 8.3779 -2.3461 0.9638
2.2565 8.6129 -2.3461 0.9638
-1.6762 8.7448 -2.3462 0.9638
-3.2002 8.3092 -2.3462 0.9638
-3.9271 7.9914 -2.3462 0.9638
-4.6228 7.6102 -2.3463 0.9638
-5.2818 7.1686 -2.3463 0.9638
-5.8990 6.6701 -2.3463 0.9638
-6.9882 5.5185 -2.3463 0.9638
-9.3983 1.2639 -2.4988 0.9615
-9.4735 -0.4224 -2.4988 0.9615
-9.2485 -2.0954 -2.4987 0.9615
-8.7304 -3.7020 -2.4987 0.9615
-7.9356 -5.1912 -2.4987 0.9615
-7.4420 -5.8769 -2.4987 0.9615
-6.8894 -6.5159 -2.4987 0.9615
-6.2820 -7.1032 -2.4987 0.9615
-2.6069 -9.1168 -2.4986 0.9615
-1.7851 -9.3126 -2.4985 0.9615
-0.9491 -9.4344 -2.4985 0.9615
-0.1056 -9.4814 -2.4985 0.9615
0.7387 -9.4531 -2.4985 0.9615
1.5771 -9.3497 -2.4985 0.9615
2.4030 -9.1722 -2.4984 0.9615
3.2098 -8.9219 -2.4984 0.9615
3.9912 -8.6007 -2.4984 0.9615
5.4528 -7.7567 -2.4984 0.9615
7.3082 -6.0404 -2.4983 0.9615
7.8168 -5.3659 -2.4983 0.9615
8.6443 -3.8949 -2.4983 0.9615
9.4225 1.0541 -2.4983 0.9615
13.9397 2.8333 -3.7482 0.9429
7.9461 4.0154 -2.3460 0.9638
5.4290 4.9102 -1.9289 0.9702
5.4396 7.0484 -2.3460 0.9638
2.6379 8.5038 -2.3461 0.9638
1.8706 8.7050 -2.3461 0.9638
0.2975 8.8988 -2.3462 0.9638
-1.2850 8.8108 -2.3462 0.9638
-7.2271 5.2017 -2.3463 0.9638
-8.8867 3.3095 -2.4988 0.9615
-9.1460 2.5054 -2.4988 0.9615
-3.9277 -0.3510 -1.1095 0.9837
-3.7904 -1.0383 -1.1057 0.9838
-8.0137 -3.8278 -2.4987 0.9638
-6.1738 -6.3837 -2.4987 0.9638
-5.5811 -6.9078 -2.4986 0.9638
-4.2678 -7.7878 -2.4986 0.9638
-3.5577 -8.1367 -2.4986 0.9638
-2.0587 -8.6385 -2.4986 0.9638
-1.2816 -8.7874 -2.4985 0.9638
-0.4944 -8.8665 -2.4985 0.9638
1.0855 -8.8135 -2.4985 0.9638
4.0930 -7.8804 -2.4984 0.9638
6.0294 -6.5189 -2.4984 0.9638
6.5856 -5.9563 -2.4984 0.9638
8.2502 -3.2835 -2.4983 0.9638
8.8245 -0.9871 -2.4983 0.9638
8.8774 -0.1978 -2.4983 0.9638
7.2670 4.0883 -2.3460 0.9659
6.8743 4.7190 -2.3460 0.9659
5.3193 5.2604 -2.1048 0.9694
5.3834 6.3676 -2.3460 0.9659
4.7953 6.8215 -2.3460 0.9659
3.5099 7.5637 -2.3461 0.9659
2.8228 7.8462 -2.3461 0.9659
1.3870 8.2225 -2.3461 0.9659
0.6496 8.3134 -2.3461 0.9659
-1.5698 8.1898 -2.3462 0.9659
-2.2926 8.0176 -2.3462 0.9659
-2.9971 7.7818 -2.3462 0.9659
-3.6778 7.4842 -2.3462 0.9659
-4.3294 7.1272 -2.3463 0.9659
-5.5245 6.2467 -2.3463 0.9659
-6.0586 5.7303 -2.3463 0.9659
-6.5446 5.1683 -2.3463 0.9659
-7.4320 4.8618 -2.4987 0.9638
-7.8353 4.1811 -2.4987 0.9638
-8.4525 2.7256 -2.4987 0.9638
-8.6615 1.9625 -2.4987 0.9638
-8.8722 0.3957 -2.4987 0.9638
-3.7659 -0.8532 -1.0864 0.9841
-8.4524 -2.7255 -2.4987 0.9638
-8.1763 -3.4670 -2.4987 0.9638
-5.8833 -6.6523 -2.4987 0.9638
-5.2678 -7.1495 -2.4986 0.9638
-3.9167 -7.9702 -2.4986 0.9638
-3.1917 -8.2871 -2.4986 0.9638
-2.4414 -8.5382 -2.4986 0.9638
-1.6718 -8.7216 -2.4985 0.9638
-0.0989 -8.8796 -2.4985 0.9638
2.2505 -8.5901 -2.4985 0.9638
3.0061 -8.3557 -2.4984 0.9638
5.1068 -7.2644 -2.4984 0.9638
6.3138 -6.2438 -2.4984 0.9638
7.3208 -5.0254 -2.4983 0.9638
7.7390 -4.3538 -2.4983 0.9638
8.0957 -3.6477 -2.4983 0.9638
8.3883 -2.9127 -2.4983 0.9638
8.7718 -1.3792 -2.4983 0.9638
8.8774 0.1979 -2.4983 0.9638
8.8245 0.9872 -2.4983 0.9638
7.7470 3.0833 -2.3460 0.9659
7.0777 4.4080 -2.3460 0.9659
6.6573 5.0205 -2.3460 0.9659
5.6617 6.1214 -2.3460 0.9659
5.0944 6.6011 -2.3460 0.9659
3.1695 7.7126 -2.3461 0.9659
1.7519 8.1525 -2.3461 0.9659
-0.4642 8.3259 -2.3462 0.9659
-3.3408 7.6406 -2.3462 0.9659
-7.6412 4.5259 -2.4987 0.9638
-8.0138 3.8279 -2.4987 0.9638
-8.3227 3.0994 -2.4987 0.9638
-8.7404 1.5747 -2.4987 0.9638
-8.8458 0.7905 -2.4987 0.9638
-3.4798 -0.6269 -1.0586 0.9853
-7.5312 -3.5973 -2.4987 0.9658
-6.7740 -4.8756 -2.4987 0.9658
-6.3132 -5.4591 -2.4987 0.9658
-5.8021 -5.9993 -2.4987 0.9658
-5.2451 -6.4919 -2.4986 0.9658
-4.6464 -6.9329 -2.4986 0.9658
-4.0109 -7.3190 -2.4986 0.9658
-3.3435 -7.6468 -2.4986 0.9658
-2.6496 -7.9140 -2.4986 0.9658
-1.2044 -8.2583 -2.4985 0.9658
-0.4646 -8.3327 -2.4985 0.9658
1.7533 -8.1592 -2.4985 0.9658
3.8466 -7.4059 -2.4984 0.9658
5.0987 -6.6065 -2.4984 0.9658
5.6664 -6.1264 -2.4984 0.9658
6.1892 -5.5978 -2.4984 0.9658
6.6628 -5.0246 -2.4984 0.9658
7.7535 -3.0858 -2.4983 0.9658
7.9974 -2.3835 -2.4983 0.9658
8.1778 -1.6622 -2.4983 0.9658
8.2933 -0.9277 -2.4983 0.9658
8.3430 -0.1859 -2.4983 0.9658
7.4025 2.5704 -2.3460 0.9678
7.1444 3.2191 -2.3460 0.9678
6.8295 3.8422 -2.3460 0.9678
6.4605 4.4349 -2.3460 0.9678
5.2989 5.2402 -2.2311 0.9694
4.5066 6.4108 -2.3460 0.9678
3.9182 6.7865 -2.3461 0.9678
2.6529 7.3738 -2.3461 0.9678
1.9861 7.5807 -2.3461 0.9678
1.3035 7.7275 -2.3461 0.9678
0.6105 7.8129 -2.3461 0.9678
-0.0873 7.8362 -2.3462 0.9678
-2.1545 7.5349 -2.3462 0.9678
-2.8166 7.3133 -2.3462 0.9678
-4.0687 6.6981 -2.3462 0.9678
-4.6488 6.3094 -2.3463 0.9678
-5.1919 5.8706 -2.3463 0.9678
-7.3635 3.9293 -2.4987 0.9658
-7.6840 3.2583 -2.4987 0.9658
-7.9436 2.5615 -2.4987 0.9658
-3.6646 -0.1634 -1.0982 0.9848
-3.5144 -0.4727 -1.0616 0.9853
-7.3635 -3.9292 -2.4987 0.9658
-6.9845 -4.5690 -2.4987 0.9658
-6.0636 -5.7349 -2.4987 0.9658
-5.5291 -6.2519 -2.4986 0.9658
-4.9507 -6.7191 -2.4986 0.9658
-1.5711 -8.1965 -2.4985 0.9658
-0.8354 -8.3037 -2.4985 0.9658
0.6502 -8.3202 -2.4985 0.9658
1.3881 -8.2292 -2.4985 0.9658
3.5128 -7.5699 -2.4984 0.9658
4.1726 -7.2272 -2.4984 0.9658
4.7993 -6.8271 -2.4984 0.9658
5.3879 -6.3728 -2.4984 0.9658
5.9337 -5.8679 -2.4984 0.9658
7.2731 -4.0917 -2.4983 0.9658
7.6084 -3.4282 -2.4983 0.9658
7.8833 -2.7373 -2.4983 0.9658
8.0956 -2.0248 -2.4983 0.9658
8.2437 -1.2962 -2.4983 0.9658
8.2933 0.9278 -2.4983 0.9658
11.9985 3.5759 -3.7483 0.9491
6.9939 3.5342 -2.3460 0.9678
5.3981 4.8823 -2.1790 0.9701
5.3209 5.7529 -2.3460 0.9678
4.2166 6.6052 -2.3461 0.9678
3.6120 6.9543 -2.3461 0.9678
0.9579 7.7779 -2.3461 0.9678
0.2619 7.8323 -2.3461 0.9678
-1.8167 7.6234 -2.3462 0.9678
-3.1396 7.1806 -2.3462 0.9678
-4.3631 6.5103 -2.3463 0.9678
-4.9252 6.0961 -2.3463 0.9678
-7.1812 4.2535 -2.4987 0.9658
-7.5313 3.5974 -2.4987 0.9658
-7.8216 2.9128 -2.4987 0.9658
-8.0498 2.2051 -2.4987 0.9658
-8.2141 1.4799 -2.4987 0.9658
-8.3132 0.7429 -2.4987 0.9658
-3.3867 -0.3026 -1.0798 0.9858
-3.2843 -0.5917 -1.0598 0.9861
-7.3731 -2.7458 -2.4987 0.9675
-7.0995 -3.3911 -2.4987 0.9675
-6.7694 -4.0095 -2.4987 0.9675
-5.9512 -5.1462 -2.4987 0.9675
-4.9444 -6.1198 -2.4986 0.9675
-3.7810 -6.8994 -2.4986 0.9675
-2.4977 -7.4604 -2.4986 0.9675
-1.8238 -7.6530 -2.4986 0.9675
-1.1354 -7.7849 -2.4985 0.9675
0.9617 -7.8081 -2.4985 0.9675
1.6528 -7.6915 -2.4985 0.9675
2.3308 -7.5138 -2.4985 0.9675
2.9903 -7.2765 -2.4984 0.9675
4.2331 -6.6310 -2.4984 0.9675
5.3416 -5.7753 -2.4984 0.9675
5.8344 -5.2769 -2.4984 0.9675
6.2809 -4.7366 -2.4984 0.9675
7.3091 -2.9089 -2.4983 0.9675
7.7091 -1.5669 -2.4983 0.9675
7.8648 -0.1752 -2.4983 0.9675
7.8491 0.5255 -2.4983 0.9675
7.7712 1.2220 -2.4984 0.9675
11.1494 3.8715 -3.7483 0.9517
5.6939 4.7062 -2.3460 0.9695
5.2488 5.1906 -2.3444 0.9695
4.2483 6.0434 -2.3460 0.9695
1.8722 7.1462 -2.3461 0.9695
1.2287 7.2845 -2.3461 0.9695
-0.0823 7.3871 -2.3462 0.9695
-2.0310 7.1030 -2.3462 0.9695
-2.6552 6.8941 -2.3462 0.9695
-4.8943 5.5341 -2.3463 0.9695
-7.4882 2.4147 -2.4987 0.9675
-7.6734 1.7386 -2.4987 0.9675
-7.7977 1.0487 -2.4987 0.9675
-3.4557 -0.1541 -1.0986 0.9856
-3.3189 -0.4463 -1.0635 0.9860
-7.2435 -3.0715 -2.4987 0.9675
-6.5841 -4.3071 -2.4987 0.9675
-6.1746 -4.8760 -2.4987 0.9675
-5.7160 -5.4062 -2.4987 0.9675
-5.2122 -5.8935 -2.4986 0.9675
-4.6669 -6.3339 -2.4986 0.9675
-3.4699 -7.0609 -2.4986 0.9675
-2.8276 -7.3417 -2.4986 0.9675
-2.1629 -7.5642 -2.4986 0.9675
1.3085 -7.7575 -2.4985 0.9675
1.9938 -7.6102 -2.4985 0.9675
3.3115 -7.1360 -2.4984 0.9675
3.9335 -6.8130 -2.4984 0.9675
5.0791 -6.0075 -2.4984 0.9675
6.4857 -4.4522 -2.4984 0.9675
7.4314 -2.5804 -2.4983 0.9675
7.7712 -1.2219 -2.4983 0.9675
7.8491 -0.5254 -2.4983 0.9675
7.8648 0.1753 -2.4983 0.9675
7.7091 1.5670 -2.4984 0.9675
6.8634 2.7316 -2.3460 0.9695
6.2703 3.9052 -2.3460 0.9695
2.8080 6.8328 -2.3461 0.9695
2.1887 7.0557 -2.3461 0.9695
0.9030 7.3320 -2.3461 0.9695
0.2469 7.3834 -2.3461 0.9695
-0.4113 7.3761 -2.3462 0.9695
-1.0662 7.3102 -2.3462 0.9695
-1.7126 7.1863 -2.3462 0.9695
-2.3454 7.0055 -2.3462 0.9695
-3.5504 6.4787 -2.3462 0.9695
-4.1130 6.1370 -2.3462 0.9695
-4.6429 5.7466 -2.3463 0.9695
-5.1360 5.3106 -2.3463 0.9695
-5.5883 4.8324 -2.3463 0.9695
-6.7695 4.0096 -2.4987 0.9675
-7.3732 2.7458 -2.4987 0.9675
-7.5883 2.0787 -2.4987 0.9675
-3.1483 -0.5672 -1.0748 0.9866
-3.1349 -0.8587 -1.0921 0.9864
-6.9694 -2.5954 -2.4987 0.9691
-6.7107 -3.2054 -2.4987 0.9691
-6.0360 -4.3444 -2.4987 0.9691
-5.6253 -4.8644 -2.4987 0.9691
-3.5739 -6.5216 -2.4986 0.9691
-2.9793 -6.8137 -2.4986 0.9691
-2.3610 -7.0518 -2.4986 0.9691
-1.7239 -7.2340 -2.4986 0.9691
0.2485 -7.4323 -2.4985 0.9691
2.8266 -6.8780 -2.4984 0.9691
3.4275 -6.5992 -2.4984 0.9691
4.5432 -5.8868 -2.4984 0.9691
5.5150 -4.9880 -2.4984 0.9691
5.9370 -4.4773 -2.4984 0.9691
6.3120 -3.9311 -2.4984 0.9691
6.9089 -2.7497 -2.4984 0.9691
7.2870 -1.4811 -2.4984 0.9691
7.3899 -0.8266 -2.4984 0.9691
7.4341 -0.1656 -2.4984 0.9691
7.4194 0.4967 -2.4984 0.9691
7.3457 1.1551 -2.4984 0.9691
7.2138 1.8043 -2.4984 0.9691
6.3661 2.8685 -2.3460 0.9710
6.0856 3.4237 -2.3460 0.9710
5.7567 3.9518 -2.3460 0.9710
3.4914 6.0472 -2.3461 0.9710
1.7697 6.7549 -2.3461 0.9710
1.1615 6.8856 -2.3461 0.9710
0.5440 6.9617 -2.3461 0.9710
-0.0778 6.9826 -2.3462 0.9710
-1.9198 6.7140 -2.3462 0.9710
-3.6255 5.9684 -2.3462 0.9710
-4.6263 5.2311 -2.3463 0.9710
-5.0735 4.7986 -2.3463 0.9710
-5.8113 4.5891 -2.4879 0.9692
-6.5613 3.5013 -2.4987 0.9691
-6.8469 2.9033 -2.4987 0.9691
-7.0781 2.2824 -2.4987 0.9691
-7.3707 0.9913 -2.4987 0.9691
-3.2675 -0.1457 -1.0989 0.9863
-3.1639 -0.4255 -1.0726 0.9866
-3.1418 -1.0131 -1.1091 0.9862
-6.5612 -3.5011 -2.4987 0.9691
-6.2235 -4.0712 -2.4987 0.9691
-5.8365 -4.6090 -2.4987 0.9691
-5.4030 -5.1101 -2.4986 0.9691
-4.9267 -5.5707 -2.4986 0.9691
-3.8609 -6.3559 -2.4986 0.9691
-2.6728 -6.9397 -2.4986 0.9691
-2.0445 -7.1500 -2.4986 0.9691
-1.4000 -7.3036 -2.4985 0.9691
-0.7444 -7.3991 -2.4985 0.9691
0.5793 -7.4138 -2.4985 0.9691
1.2369 -7.3328 -2.4985 0.9691
3.1302 -6.7453 -2.4984 0.9691
5.7317 -4.7373 -2.4984 0.9691
6.4808 -3.6460 -2.4984 0.9691
7.2138 -1.8042 -2.4984 0.9691
7.3457 -1.1550 -2.4984 0.9691
7.4341 0.1657 -2.4984 0.9691
7.3899 0.8267 -2.4984 0.9691
7.2870 1.4812 -2.4984 0.9691
10.6915 3.1864 -3.7483 0.9540
5.9270 3.6914 -2.3460 0.9710
5.5750 4.2043 -2.3460 0.9710
4.2662 5.5279 -2.3460 0.9710
2.6542 6.4587 -2.3461 0.9710
1.4670 6.8270 -2.3461 0.9710
-1.0078 6.9100 -2.3462 0.9710
-1.6188 6.7929 -2.3462 0.9710
-2.7976 6.3983 -2.3462 0.9710
-3.3560 6.1239 -2.3462 0.9710
-3.8878 5.8010 -2.3462 0.9710
-4.3887 5.4319 -2.3463 0.9710
-4.8547 5.0198 -2.3463 0.9710
-5.2822 4.5678 -2.3463 0.9710
-6.0361 4.3445 -2.4987 0.9691
-6.3988 3.7901 -2.4987 0.9691
-7.1728 1.9648 -2.4987 0.9691
-7.4075 0.6620 -2.4987 0.9691
-3.0930 -0.2764 -1.1011 0.9869
-3.0442 -0.5484 -1.0968 0.9870
-3.0229 -0.8281 -1.1114 0.9868
-6.3586 -3.0372 -2.4987 0.9705
-6.0630 -3.5911 -2.4987 0.9705
-4.8987 -5.0653 -2.4986 0.9705
-4.4285 -5.4812 -2.4986 0.9705
-3.3864 -6.1795 -2.4986 0.9705
-2.2371 -6.6819 -2.4986 0.9705
-1.6335 -6.8544 -2.4986 0.9705
-0.3923 -7.0354 -2.4985 0.9705
2.0876 -6.7298 -2.4985 0.9705
5.2256 -4.7263 -2.4984 0.9705
5.6255 -4.2424 -2.4984 0.9705
5.9808 -3.7248 -2.4984 0.9705
6.5465 -2.6054 -2.4984 0.9705
6.9047 -1.4034 -2.4984 0.9705
7.0022 -0.7833 -2.4984 0.9705
6.9604 1.0945 -2.4984 0.9705
6.8353 1.7096 -2.4984 0.9705
9.9861 3.4675 -3.7483 0.9561
4.2717 5.0526 -2.3460 0.9723
3.8050 5.4127 -2.3461 0.9723
2.7851 6.0017 -2.3461 0.9723
1.1005 6.5244 -2.3461 0.9723
-0.0737 6.6162 -2.3462 0.9723
-0.6623 6.5834 -2.3462 0.9723
-2.3781 6.1746 -2.3462 0.9723
-2.9183 5.9385 -2.3462 0.9723
-3.4352 5.6552 -2.3462 0.9723
-3.9250 5.3271 -2.3462 0.9723
-4.3835 4.9566 -2.3463 0.9723
-6.4876 2.7510 -2.4987 0.9705
-6.7067 2.1627 -2.4987 0.9705
-6.8726 1.5572 -2.4987 0.9705
-6.9839 0.9393 -2.4987 0.9705
-3.0595 -0.4115 -1.0946 0.9870
-3.0241 -0.6852 -1.0995 0.9869
-3.0191 -0.9735 -1.1248 0.9866
-6.4876 -2.7510 -2.4987 0.9705
-6.2170 -3.3175 -2.4987 0.9705
-5.5302 -4.3671 -2.4987 0.9705
-3.6583 -6.0224 -2.4986 0.9705
-2.5325 -6.5756 -2.4986 0.9705
-1.9372 -6.7748 -2.4986 0.9705
-1.3265 -6.9204 -2.4985 0.9705
-0.7053 -7.0109 -2.4985 0.9705
1.7857 -6.8161 -2.4985 0.9705
2.3853 -6.6301 -2.4985 0.9705
2.9659 -6.3914 -2.4984 0.9705
3.5230 -6.1020 -2.4984 0.9705
4.5491 -5.3806 -2.4984 0.9705
5.0099 -4.9544 -2.4984 0.9705
6.8353 -1.7096 -2.4984 0.9705
6.9603 -1.0944 -2.4984 0.9705
7.0441 0.1570 -2.4984 0.9705
5.9051 2.9840 -2.3460 0.9723
5.6161 3.4978 -2.3460 0.9723
5.2825 3.9837 -2.3460 0.9723
4.9070 4.4381 -2.3460 0.9723
4.4925 4.8572 -2.3460 0.9723
4.0424 5.2378 -2.3461 0.9723
3.5601 5.5769 -2.3461 0.9723
1.3901 6.4688 -2.3461 0.9723
0.8088 6.5669 -2.3461 0.9723
0.2211 6.6129 -2.3461 0.9723
-1.5339 6.4365 -2.3462 0.9723
-2.1007 6.2745 -2.3462 0.9723
-4.6000 4.7564 -2.3463 0.9723
-5.1909 4.4888 -2.4334 0.9713
-5.7193 4.1166 -2.4987 0.9705
-6.6037 2.4593 -2.4987 0.9705
-6.7964 1.8618 -2.4987 0.9705
-6.9352 1.2495 -2.4987 0.9705
-2.9938 -0.2675 -1.1224 0.9872
-2.9455 -0.5307 -1.1176 0.9873
-2.9169 -0.7990 -1.1293 0.9872
-6.0380 -2.8841 -2.4987 0.9718
-5.4309 -3.9089 -2.4987 0.9718
-5.0615 -4.3768 -2.4986 0.9718
-4.6518 -4.8099 -2.4986 0.9718
-3.2157 -5.8679 -2.4986 0.9718
-2.6806 -6.1308 -2.4986 0.9718
0.2236 -6.6873 -2.4985 0.9718
1.9824 -6.3905 -2.4985 0.9718
3.0840 -5.9377 -2.4984 0.9718
3.6002 -5.6396 -2.4984 0.9718
4.9622 -4.4880 -2.4984 0.9718
5.6793 -3.5371 -2.4984 0.9718
6.2164 -2.4741 -2.4984 0.9718
6.6492 -0.7438 -2.4984 0.9718
6.6890 -0.1490 -2.4984 0.9718
6.6095 1.0393 -2.4984 0.9718
9.4826 3.2928 -3.7483 0.9580
5.4756 3.0805 -2.3460 0.9735
4.4672 4.4178 -2.3460 0.9735
4.0563 4.7979 -2.3460 0.9735
3.1414 5.4411 -2.3461 0.9735
-0.6289 6.2515 -2.3462 0.9735
-1.1828 6.1708 -2.3462 0.9735
-1.7274 6.0410 -2.3462 0.9735
-3.2621 5.3701 -2.3462 0.9735
-3.7271 5.0585 -2.3462 0.9735
-4.1625 4.7067 -2.3462 0.9735
-5.2515 4.1471 -2.4987 0.9718
-5.9036 3.1503 -2.4987 0.9718
-6.3686 2.0537 -2.4987 0.9718
-6.6318 0.8919 -2.4987 0.9718
-3.0832 -0.1375 -1.1525 0.9869
-2.9640 -0.3986 -1.1167 0.9873
-2.9258 -0.6629 -1.1202 0.9873
-5.2514 -4.1470 -2.4986 0.9718
-4.8614 -4.5979 -2.4986 0.9718
-2.9511 -6.0053 -2.4986 0.9718
-2.4049 -6.2441 -2.4986 0.9718
-1.8396 -6.4333 -2.4986 0.9718
-1.2596 -6.5715 -2.4985 0.9718
-0.0745 -6.6906 -2.4985 0.9718
0.5213 -6.6707 -2.4985 0.9718
2.2651 -6.2958 -2.4985 0.9718
3.3454 -5.7944 -2.4984 0.9718
4.3198 -5.1094 -2.4984 0.9718
4.7574 -4.7046 -2.4984 0.9718
5.8312 -3.2805 -2.4984 0.9718
6.4907 -1.6234 -2.4984 0.9718
6.5566 1.3327 -2.4984 0.9718
9.3266 3.7119 -3.7483 0.9580
5.6074 2.8335 -2.3460 0.9735
4.6596 4.2144 -2.3460 0.9735
3.8386 4.9738 -2.3461 0.9735
3.3807 5.2958 -2.3461 0.9735
2.3882 5.8113 -2.3461 0.9735
-1.4565 6.1120 -2.3462 0.9735
-1.9948 5.9581 -2.3462 0.9735
-2.5172 5.7570 -2.3462 0.9735
-3.0196 5.5101 -2.3462 0.9735
-3.4980 5.2195 -2.3462 0.9735
-5.0615 4.3769 -2.4987 0.9718
-6.2708 2.3353 -2.4987 0.9718
-6.4538 1.7679 -2.4987 0.9718
-3.2641 -0.0000 -1.2810 0.9861
-5.4777 -3.2444 -2.4987 0.9730
-5.1672 -3.7191 -2.4986 0.9730
-4.4259 -4.5763 -2.4986 0.9730
-3.5443 -5.2885 -2.4986 0.9730
-2.5505 -5.8330 -2.4986 0.9730
-0.9188 -6.2995 -2.4985 0.9730
-0.3544 -6.3562 -2.4985 0.9730
2.4198 -5.8881 -2.4985 0.9730
4.3225 -4.6733 -2.4984 0.9730
5.9146 -2.3539 -2.4984 0.9730
6.2382 -1.2679 -2.4984 0.9730
6.3263 -0.7077 -2.4984 0.9730
6.2885 0.9888 -2.4984 0.9730
4.6075 3.8082 -2.3460 0.9746
4.2503 4.2032 -2.3460 0.9746
3.4377 4.8903 -2.3461 0.9746
2.9889 5.1769 -2.3461 0.9746
2.5162 5.4224 -2.3461 0.9746
1.5150 5.7827 -2.3461 0.9746
0.4657 5.9597 -2.3461 0.9746
-0.0666 5.9775 -2.3462 0.9746
-0.5984 5.9479 -2.3462 0.9746
-2.1485 5.5786 -2.3462 0.9746
-2.6366 5.3652 -2.3462 0.9746
-3.1036 5.1093 -2.3462 0.9746
-3.5461 4.8128 -2.3462 0.9746
-3.9604 4.4781 -2.3462 0.9746
-3.0071 -0.1341 -1.1814 0.9871
-2.8326 -0.6418 -1.1399 0.9876
-2.8403 -0.9159 -1.1712 0.9873
-4.9964 -3.9456 -2.4986 0.9730
-4.6253 -4.3746 -2.4986 0.9730
-4.2176 -4.7689 -2.4986 0.9730
-3.7764 -5.1253 -2.4986 0.9730
-3.3052 -5.4411 -2.4986 0.9730
-2.2881 -5.9408 -2.4986 0.9730
-0.6372 -6.3341 -2.4985 0.9730
-0.0709 -6.3657 -2.4985 0.9730
0.4960 -6.3467 -2.4985 0.9730
1.0589 -6.2773 -2.4985 0.9730
1.6134 -6.1582 -2.4985 0.9730
4.5263 -4.4762 -2.4984 0.9730
4.9068 -4.0555 -2.4984 0.9730
5.2483 -3.6027 -2.4984 0.9730
6.0136 -2.0881 -2.4984 0.9730
6.2885 -0.9888 -2.4984 0.9730
6.3642 0.1419 -2.4984 0.9730
6.3263 0.7077 -2.4984 0.9730
6.2382 1.2680 -2.4984 0.9730
6.1006 1.8182 -2.4984 0.9730
8.8736 3.5316 -3.7483 0.9598
5.0740 3.1601 -2.3460 0.9746
4.7726 3.5992 -2.3460 0.9746
4.4333 4.0097 -2.3460 0.9746
3.2165 5.0386 -2.3461 0.9746
2.2722 5.5291 -2.3461 0.9746
1.7711 5.7094 -2.3461 0.9746
1.2559 5.8444 -2.3461 0.9746
0.7307 5.9330 -2.3461 0.9746
0.1998 5.9746 -2.3461 0.9746
-0.3328 5.9687 -2.3462 0.9746
-1.3858 5.8152 -2.3462 0.9746
-3.3282 4.9660 -2.3462 0.9746
-5.4778 3.2445 -2.4987 0.9730
-5.7448 2.7441 -2.4987 0.9730
-4.1297 0.3690 -1.6273 0.9823
-3.1614 0.0000 -1.3018 0.9864
-2.8130 -0.2514 -1.1629 0.9879
-2.7842 -1.0369 -1.2234 0.9872
-5.2208 -3.0923 -2.4986 0.9741
-4.9249 -3.5447 -2.4986 0.9741
-3.3781 -5.0404 -2.4986 0.9741
-2.9160 -5.3211 -2.4986 0.9741
-1.9264 -5.7538 -2.4986 0.9741
-1.4066 -5.9024 -2.4985 0.9741
-0.3378 -6.0582 -2.4985 0.9741
0.7417 -6.0220 -2.4985 0.9741
1.7977 -5.7950 -2.4985 0.9741
2.3063 -5.6120 -2.4985 0.9741
4.1198 -4.4542 -2.4984 0.9741
4.4999 -4.0698 -2.4984 0.9741
4.8442 -3.6531 -2.4984 0.9741
5.1501 -3.2075 -2.4984 0.9741
5.4152 -2.7364 -2.4984 0.9741
5.6372 -2.2435 -2.4984 0.9741
6.0658 -0.1351 -2.4984 0.9741
6.0537 0.4053 -2.4984 0.9741
5.9936 0.9425 -2.4984 0.9741
5.8860 1.4722 -2.4984 0.9741
5.7316 1.9903 -2.4984 0.9741
8.2992 3.7394 -3.7483 0.9614
7.9335 4.4633 -3.7484 0.9614
4.6971 3.2244 -2.3460 0.9757
4.0510 4.0061 -2.3460 0.9757
2.3982 5.1681 -2.3461 0.9757
1.9287 5.3611 -2.3461 0.9757
1.4439 5.5115 -2.3461 0.9757
0.9477 5.6182 -2.3461 0.9757
-0.0635 5.6972 -2.3461 0.9757
-0.5703 5.6690 -2.3462 0.9757
-1.0726 5.5958 -2.3462 0.9757
-1.5664 5.4781 -2.3462 0.9757
-2.0478 5.3170 -2.3462 0.9757
-2.5129 5.1137 -2.3462 0.9757
-4.4084 4.1695 -2.4986 0.9741
-5.0779 3.3219 -2.4987 0.9741
-5.3534 2.8567 -2.4987 0.9741
-5.5865 2.3689 -2.4987 0.9741
-5.7751 1.8623 -2.4987 0.9741
-5.9180 1.3409 -2.4987 0.9741
-2.7775 -0.8956 -1.2017 0.9875
-5.3534 -2.8566 -2.4987 0.9741
-5.0779 -3.3218 -2.4986 0.9741
-4.7621 -3.7605 -2.4986 0.9741
-4.4084 -4.1694 -2.4986 0.9741
-4.0198 -4.5453 -2.4986 0.9741
-3.1502 -5.1859 -2.4986 0.9741
-2.6761 -5.4457 -2.4986 0.9741
-1.1423 -5.9591 -2.4985 0.9741
-0.6073 -6.0371 -2.4985 0.9741
0.4727 -6.0491 -2.4985 0.9741
1.0092 -5.9830 -2.4985 0.9741
2.5540 -5.5037 -2.4985 0.9741
3.4893 -4.9636 -2.4984 0.9741
4.3141 -4.2663 -2.4984 0.9741
5.0021 -3.4337 -2.4984 0.9741
5.2879 -2.9749 -2.4984 0.9741
5.5317 -2.4924 -2.4984 0.9741
5.9936 -0.9424 -2.4984 0.9741
6.0537 -0.4052 -2.4984 0.9741
6.0658 0.1352 -2.4984 0.9741
6.0297 0.6746 -2.4984 0.9741
5.8146 1.7329 -2.4984 0.9741
8.1244 4.1054 -3.7484 0.9614
4.8360 3.0119 -2.3460 0.9757
4.5488 3.4304 -2.3460 0.9757
3.8685 4.1826 -2.3461 0.9757
3.0657 4.8023 -2.3461 0.9757
2.6261 5.0561 -2.3461 0.9757
2.1657 5.2698 -2.3461 0.9757
1.6880 5.4417 -2.3461 0.9757
1.1970 5.5704 -2.3461 0.9757
0.6965 5.6548 -2.3461 0.9757
0.1904 5.6944 -2.3461 0.9757
-0.3172 5.6888 -2.3462 0.9757
-0.8223 5.6380 -2.3462 0.9757
-1.3208 5.5424 -2.3462 0.9757
-1.8089 5.4029 -2.3462 0.9757
-2.2826 5.2205 -2.3462 0.9757
-2.7382 4.9966 -2.3462 0.9757
-3.1721 4.7331 -2.3462 0.9757
-4.5898 3.9690 -2.4987 0.9741
-4.9249 3.5447 -2.4987 0.9741
-5.2209 3.0924 -2.4987 0.9741
-5.4754 2.6154 -2.4987 0.9741
-5.6864 2.1177 -2.4987 0.9741
-3.9772 0.3554 -1.6443 0.9829
-3.0794 0.0000 -1.3283 0.9867
-2.7278 -0.4914 -1.1956 0.9880
-2.7092 -0.7421 -1.2117 0.9878
-2.7209 -1.0133 -1.2524 0.9874
-2.7300 -1.3040 -1.3050 0.9869
-2.7884 -1.6516 -1.3980 0.9860
-4.7013 -3.3838 -2.4986 0.9751
-4.3815 -3.7888 -2.4986 0.9751
-3.6403 -4.5056 -2.4986 0.9751
-3.2248 -4.8117 -2.4986 0.9751
-2.7837 -5.0796 -2.4986 0.9751
-2.3205 -5.3072 -2.4986 0.9751
-1.3428 -5.6345 -2.4985 0.9751
-0.8359 -5.7316 -2.4985 0.9751
1.2169 -5.6629 -2.4985 0.9751
1.7161 -5.5321 -2.4985 0.9751
2.2016 -5.3573 -2.4985 0.9751
3.9328 -4.2521 -2.4984 0.9751
4.2956 -3.8852 -2.4984 0.9751
4.9164 -3.0619 -2.4984 0.9751
5.1694 -2.6122 -2.4984 0.9751
5.6759 -1.1536 -2.4984 0.9751
5.7560 -0.6439 -2.4984 0.9751
5.7905 -0.1290 -2.4984 0.9751
5.7216 0.8997 -2.4984 0.9751
5.4715 1.9000 -2.4984 0.9751
7.9226 3.5697 -3.7484 0.9629
7.5734 4.2607 -3.7484 0.9629
4.1922 3.4649 -2.3460 0.9766
3.5114 4.1533 -2.3461 0.9766
2.7194 4.7102 -2.3461 0.9766
2.2894 4.9336 -2.3461 0.9766
1.8412 5.1178 -2.3461 0.9766
1.3784 5.2614 -2.3461 0.9766
0.9047 5.3632 -2.3461 0.9766
0.4237 5.4225 -2.3461 0.9766
-0.0606 5.4387 -2.3461 0.9766
-0.5444 5.4117 -2.3462 0.9766
-1.9548 5.0757 -2.3462 0.9766
-2.3989 4.8815 -2.3462 0.9766
-2.8238 4.6487 -2.3462 0.9766
-4.8475 3.1711 -2.4987 0.9751
-5.6494 1.2800 -2.4987 0.9751
-5.7409 0.7721 -2.4987 0.9751
-3.3811 0.1508 -1.4599 0.9854
-2.7200 -0.6163 -1.2030 0.9879
-5.1104 -2.7270 -2.4986 0.9751
-4.8474 -3.1710 -2.4986 0.9751
-4.5459 -3.5899 -2.4986 0.9751
-4.2084 -3.9802 -2.4986 0.9751
-3.0072 -4.9506 -2.4986 0.9751
-2.5547 -5.1985 -2.4986 0.9751
-2.0818 -5.4053 -2.4986 0.9751
1.9608 -5.4501 -2.4985 0.9751
2.8960 -5.0161 -2.4984 0.9751
4.4645 -3.6899 -2.4984 0.9751
4.7751 -3.2779 -2.4984 0.9751
5.2807 -2.3793 -2.4984 0.9751
5.7216 -0.8997 -2.4984 0.9751
5.7790 -0.3868 -2.4984 0.9751
5.7905 0.1291 -2.4984 0.9751
5.7560 0.6439 -2.4984 0.9751
5.5507 1.6543 -2.4984 0.9751
5.3814 2.1418 -2.4984 0.9751
7.7557 3.9191 -3.7484 0.9629
7.3761 4.5939 -3.7484 0.9629
4.3423 3.2747 -2.3460 0.9766
4.0337 3.6483 -2.3460 0.9766
3.6930 3.9928 -2.3461 0.9766
1.6114 5.1947 -2.3461 0.9766
0.6648 5.3982 -2.3461 0.9766
-1.7268 5.1577 -2.3462 0.9766
-2.1790 4.9836 -2.3462 0.9766
-3.4182 4.2309 -2.3462 0.9766
-4.0269 4.1638 -2.4986 0.9751
-5.2269 2.4967 -2.4987 0.9751
-5.4284 2.0216 -2.4987 0.9751
-5.5868 1.5304 -2.4987 0.9751
-5.7008 1.0271 -2.4987 0.9751
-3.8265 0.3419 -1.6571 0.9834
-2.9980 0.0000 -1.3527 0.9869
-2.7005 -0.2413 -1.2234 0.9882
-2.6546 -0.7272 -1.2419 0.9880
-2.6607 -0.9909 -1.2811 0.9876
-2.6867 -1.5913 -1.4090 0.9864
-4.1886 -3.6221 -2.4986 0.9760
-3.8496 -3.9805 -2.4986 0.9760
-3.4800 -4.3073 -2.4986 0.9760
-2.2184 -5.0736 -2.4986 0.9760
-1.2837 -5.3865 -2.4985 0.9760
-0.7991 -5.4793 -2.4985 0.9760
0.6769 -5.4957 -2.4985 0.9760
1.6405 -5.2886 -2.4985 0.9760
2.1047 -5.1215 -2.4985 0.9760
2.5522 -4.9138 -2.4985 0.9760
4.1066 -3.7142 -2.4984 0.9760
4.7000 -2.9272 -2.4984 0.9760
4.9419 -2.4972 -2.4984 0.9760
5.3064 -1.5815 -2.4984 0.9760
5.5357 -0.1233 -2.4984 0.9760
5.5247 0.3699 -2.4984 0.9760
5.4698 0.8601 -2.4984 0.9760
5.3716 1.3435 -2.4984 0.9760
5.2307 1.8163 -2.4984 0.9760
6.8489 4.7015 -3.7484 0.9642
4.0077 3.3124 -2.3460 0.9774
3.6969 3.6560 -2.3461 0.9774
3.3569 3.9706 -2.3461 0.9774
2.1886 4.7164 -2.3461 0.9774
1.7602 4.8925 -2.3461 0.9774
1.3178 5.0298 -2.3461 0.9774
0.4051 5.1838 -2.3461 0.9774
-0.0579 5.1993 -2.3461 0.9774
-0.5205 5.1736 -2.3462 0.9774
-2.2933 4.6667 -2.3462 0.9774
-3.0844 4.1862 -2.3462 0.9774
-3.6685 4.1480 -2.4986 0.9760
-5.0982 2.1619 -2.4987 0.9760
-2.7833 -0.1241 -1.2571 0.9878
-2.6870 -0.3614 -1.2234 0.9882
-2.6659 -0.6040 -1.2334 0.9881
-2.6574 -0.8569 -1.2599 0.9878
-4.0231 -3.8050 -2.4986 0.9760
-3.6685 -4.1480 -2.4986 0.9760
-3.2847 -4.4580 -2.4986 0.9760
-1.0424 -5.4383 -2.4985 0.9760
-0.5543 -5.5095 -2.4985 0.9760
-0.0617 -5.5369 -2.4985 0.9760
1.4033 -5.3564 -2.4985 0.9760
2.3308 -5.0227 -2.4985 0.9760
2.7686 -4.7953 -2.4985 0.9760
3.9371 -3.8934 -2.4984 0.9760
4.5650 -3.1337 -2.4984 0.9760
4.8258 -2.7149 -2.4984 0.9760
5.3716 -1.3435 -2.4984 0.9760
5.5247 -0.3698 -2.4984 0.9760
5.5357 0.1234 -2.4984 0.9760
5.5027 0.6156 -2.4984 0.9760
5.3064 1.5815 -2.4984 0.9760
5.1446 2.0475 -2.4984 0.9760
4.1512 3.1306 -2.3460 0.9774
3.1767 4.1162 -2.3461 0.9774
1.0924 5.0835 -2.3461 0.9774
0.6356 5.1606 -2.3461 0.9774
-0.7504 5.1452 -2.3462 0.9774
-2.4989 4.5599 -2.3462 0.9774
-2.8948 4.3194 -2.3462 0.9774
-3.8497 3.9805 -2.4986 0.9760
-4.7645 2.8221 -2.4987 0.9760
-5.3408 1.4630 -2.4987 0.9760
-5.4499 0.9819 -2.4987 0.9760
-3.7665 0.3366 -1.7063 0.9835
-2.6212 -0.4722 -1.2555 0.9883
-2.6023 -0.9691 -1.3090 0.9878
-2.6052 -1.2444 -1.3609 0.9873
-2.6596 -1.5753 -1.4571 0.9864
-4.3022 -3.0965 -2.4986 0.9768
-4.0095 -3.4671 -2.4986 0.9768
-3.6850 -3.8102 -2.4986 0.9768
-3.3312 -4.1230 -2.4986 0.9768
-2.9510 -4.4032 -2.4986 0.9768
-0.7650 -5.2450 -2.4985 0.9768
0.6479 -5.2606 -2.4985 0.9768
3.5989 -3.8911 -2.4984 0.9768
3.9310 -3.5553 -2.4984 0.9768
4.2318 -3.1913 -2.4984 0.9768
4.4990 -2.8020 -2.4984 0.9768
4.7306 -2.3904 -2.4984 0.9768
4.9246 -1.9599 -2.4984 0.9768
5.0795 -1.5138 -2.4984 0.9768
5.1940 -1.0557 -2.4984 0.9768
5.2989 -0.1180 -2.4984 0.9768
5.2884 0.3541 -2.4984 0.9768
5.2359 0.8233 -2.4984 0.9768
5.1419 1.2861 -2.4984 0.9768
4.8324 2.1774 -2.4984 0.9768
6.9305 3.8990 -3.7484 0.9654
6.5560 4.5004 -3.7484 0.9654
3.5389 3.4997 -2.3461 0.9782
2.0950 4.5147 -2.3461 0.9782
1.2614 4.8147 -2.3461 0.9782
0.8279 4.9079 -2.3461 0.9782
0.3877 4.9621 -2.3461 0.9782
-0.0554 4.9770 -2.3461 0.9782
-0.4982 4.9523 -2.3462 0.9782
-2.1952 4.4671 -2.3462 0.9782
-3.8511 3.6424 -2.4986 0.9768
-4.1600 3.2851 -2.4986 0.9768
-4.4359 2.9018 -2.4986 0.9768
-4.8801 2.0694 -2.4987 0.9768
-5.0450 1.6268 -2.4987 0.9768
-5.2535 0.7065 -2.4987 0.9768
-3.1522 0.1405 -1.4873 0.9861
-2.6352 -0.3544 -1.2533 0.9883
-2.6131 -0.5921 -1.2630 0.9882
-2.5902 -1.3822 -1.3839 0.9871
-4.4359 -2.9018 -2.4986 0.9768
-3.5116 -3.9706 -2.4986 0.9768
-2.7519 -4.5303 -2.4986 0.9768
-2.3378 -4.7572 -2.4986 0.9768
-1.4572 -5.0963 -2.4986 0.9768
-0.9979 -5.2057 -2.4985 0.9768
0.8816 -5.2266 -2.4985 0.9768
1.3433 -5.1273 -2.4985 0.9768
2.2311 -4.8079 -2.4985 0.9768
2.6502 -4.5902 -2.4985 0.9768
3.0482 -4.3361 -2.4984 0.9768
4.6194 -2.5988 -2.4984 0.9768
5.0070 -1.7386 -2.4984 0.9768
5.2884 -0.3540 -2.4984 0.9768
5.2674 0.5892 -2.4984 0.9768
5.0795 1.5139 -2.4984 0.9768
4.9246 1.9599 -2.4984 0.9768
6.7499 4.2039 -3.7484 0.9654
6.3489 4.7880 -3.7484 0.9654
3.6912 3.3385 -2.3461 0.9782
3.3795 3.6538 -2.3461 0.9782
2.6781 4.1952 -2.3461 0.9782
1.8919 4.6036 -2.3461 0.9782
0.6084 4.9399 -2.3461 0.9782
0.1663 4.9745 -2.3461 0.9782
-0.2771 4.9696 -2.3462 0.9782
-1.9940 4.5605 -2.3462 0.9782
-4.4274 6.6062 -3.7487 0.9654
-3.3312 4.1232 -2.4986 0.9768
-4.0095 3.4672 -2.4986 0.9768
-4.3022 3.0966 -2.4986 0.9768
-4.5608 2.7014 -2.4986 0.9768
-4.7831 2.2847 -2.4987 0.9768
-4.9675 1.8499 -2.4987 0.9768
-5.1124 1.4005 -2.4987 0.9768
-5.2168 0.9399 -2.4987 0.9768
-3.7076 0.3313 -1.7546 0.9837
-2.5499 -0.6985 -1.3004 0.9883
-2.5457 -1.2160 -1.3876 0.9875
-4.3708 -2.5888 -2.4986 0.9776
-4.1231 -2.9676 -2.4986 0.9776
-3.8426 -3.3228 -2.4986 0.9776
-3.5316 -3.6516 -2.4986 0.9776
-2.4413 -4.4548 -2.4986 0.9776
-2.0351 -4.6544 -2.4986 0.9776
-1.6128 -4.8171 -2.4986 0.9776
-0.7331 -5.0266 -2.4985 0.9776
0.1697 -5.0769 -2.4985 0.9776
1.0672 -4.9663 -2.4985 0.9776
1.5050 -4.8516 -2.4985 0.9776
2.7333 -4.2816 -2.4985 0.9776
3.1035 -4.0213 -2.4984 0.9776
3.7673 -3.4073 -2.4984 0.9776
4.7195 -1.8783 -2.4984 0.9776
5.0783 -0.1131 -2.4984 0.9776
5.0682 0.3393 -2.4984 0.9776
6.2831 4.3131 -3.7484 0.9666
5.8742 4.8551 -3.7484 0.9666
3.0796 3.6425 -2.3461 0.9790
2.7431 3.9022 -2.3461 0.9790
2.3849 4.1309 -2.3461 0.9790
2.0078 4.3267 -2.3461 0.9790
0.7934 4.7036 -2.3461 0.9790
-0.0531 4.7697 -2.3461 0.9790
-1.3114 4.5863 -2.3462 0.9790
-1.7144 4.4514 -2.3462 0.9790
-2.1038 4.2812 -2.3462 0.9790
-4.5209 6.1359 -3.7487 0.9666
-3.3654 3.8053 -2.4986 0.9776
-4.2512 2.7810 -2.4986 0.9776
-4.4819 2.3916 -2.4986 0.9776
-4.8349 1.5591 -2.4987 0.9776
-5.0347 0.6771 -2.4987 0.9776
-2.5616 -0.5804 -1.2919 0.9884
-2.5430 -0.8200 -1.3142 0.9882
-2.5301 -1.3501 -1.4105 0.9873
-3.3654 -3.8053 -2.4986 0.9776
-2.6373 -4.3416 -2.4986 0.9776
-2.2404 -4.5591 -2.4986 0.9776
-1.8257 -4.7404 -2.4986 0.9776
-1.3966 -4.8841 -2.4986 0.9776
-0.5085 -5.0543 -2.4985 0.9776
0.8449 -5.0090 -2.4985 0.9776
2.9213 -4.1556 -2.4985 0.9776
3.2796 -3.8790 -2.4984 0.9776
3.6118 -3.5718 -2.4984 0.9776
4.4271 -2.4906 -2.4984 0.9776
4.6312 -2.0867 -2.4984 0.9776
4.9278 -1.2325 -2.4984 0.9776
5.0179 -0.7890 -2.4984 0.9776
5.0682 -0.3393 -2.4984 0.9776
4.9778 1.0118 -2.4984 0.9776
4.7196 1.8784 -2.4984 0.9776
4.5337 2.2910 -2.4984 0.9776
3.5376 3.1996 -2.3461 0.9790
2.5666 4.0205 -2.3461 0.9790
1.8131 4.4119 -2.3461 0.9790
1.4132 4.5558 -2.3461 0.9790
0.5831 4.7342 -2.3461 0.9790
0.1594 4.7674 -2.3461 0.9790
-0.2656 4.7626 -2.3462 0.9790
-0.6884 4.7201 -2.3462 0.9790
-1.1058 4.6401 -2.3462 0.9790
-3.5316 3.6517 -2.4986 0.9776
-4.1231 2.9677 -2.4986 0.9776
-4.3709 2.5889 -2.4986 0.9776
-4.7607 1.7729 -2.4987 0.9776
-4.8996 1.3421 -2.4987 0.9776
-4.9996 0.9007 -2.4987 0.9776
-3.6333 0.3247 -1.7942 0.9839
-2.7481 0.0000 -1.4089 0.9877
-2.5372 -0.2267 -1.3059 0.9886
-2.4879 -1.1884 -1.4135 0.9877
-3.9557 -2.8471 -2.4986 0.9783
-3.3882 -3.5033 -2.4986 0.9783
-3.0629 -3.7910 -2.4986 0.9783
-2.3422 -4.2739 -2.4986 0.9783
-1.9525 -4.4654 -2.4986 0.9783
-1.5473 -4.6214 -2.4986 0.9783
-1.1298 -4.7408 -2.4985 0.9783
-0.7033 -4.8225 -2.4985 0.9783
-0.2713 -4.8660 -2.4985 0.9783
0.5957 -4.8369 -2.4985 0.9783
1.0239 -4.7647 -2.4985 0.9783
1.4439 -4.6546 -2.4985 0.9783
2.9775 -3.8580 -2.4985 0.9783
3.6144 -3.2689 -2.4984 0.9783
4.6703 -1.3919 -2.4984 0.9783
4.8430 -0.5419 -2.4984 0.9783
4.8721 -0.1086 -2.4984 0.9783
4.8625 0.3255 -2.4984 0.9783
3.2538 3.2178 -2.3461 0.9796
2.9545 3.4946 -2.3461 0.9796
2.2881 3.9631 -2.3461 0.9796
1.1598 4.4269 -2.3461 0.9796
-0.4581 4.5534 -2.3462 0.9796
-2.0184 4.1073 -2.3462 0.9796
-3.2288 3.6509 -2.4986 0.9783
-3.5409 3.3490 -2.4986 0.9783
-3.8249 3.0205 -2.4986 0.9783
-4.0786 2.6681 -2.4986 0.9783
-4.6386 1.4958 -2.4986 0.9783
-4.7533 1.0770 -2.4986 0.9783
-2.9775 0.1328 -1.5280 0.9867
-2.4881 -0.8023 -1.3403 0.9883
-3.5409 -3.3489 -2.4986 0.9783
-2.5302 -4.1653 -2.4986 0.9783
-2.1495 -4.3740 -2.4986 0.9783
-1.7516 -4.5479 -2.4986 0.9783
-0.0543 -4.8732 -2.4985 0.9783
0.3797 -4.8587 -2.4985 0.9783
0.8106 -4.8056 -2.4985 0.9783
1.2351 -4.7144 -2.4985 0.9783
1.6498 -4.5857 -2.4985 0.9783
2.4367 -4.2205 -2.4985 0.9783
2.8027 -3.9869 -2.4985 0.9783
3.1464 -3.7215 -2.4984 0.9783
3.7564 -3.1047 -2.4984 0.9783
4.0178 -2.7581 -2.4984 0.9783
4.4432 -2.0020 -2.4984 0.9783
4.7277 -1.1824 -2.4984 0.9783
4.8142 -0.7570 -2.4984 0.9783
4.8625 -0.3255 -2.4984 0.9783
4.8431 0.5418 -2.4984 0.9783
4.6704 1.3920 -2.4984 0.9783
4.5279 1.8021 -2.4984 0.9783
5.4226 4.9045 -3.7484 0.9677
2.4624 3.8573 -2.3461 0.9796
2.1093 4.0612 -2.3461 0.9796
1.7395 4.2328 -2.3461 0.9796
1.3558 4.3708 -2.3461 0.9796
0.5594 4.5420 -2.3461 0.9796
0.1529 4.5738 -2.3461 0.9796
-1.0609 4.4517 -2.3462 0.9796
-4.5953 5.6877 -3.7487 0.9677
-3.9557 2.8471 -2.4986 0.9783
-4.1934 2.4838 -2.4986 0.9783
-4.3978 2.1007 -2.4986 0.9783
-4.5674 1.7009 -2.4986 0.9783
-2.6714 0.0000 -1.4261 0.9880
-2.4716 -0.4453 -1.3407 0.9887
-2.4501 -0.6711 -1.3561 0.9885
-2.4292 -1.1603 -1.4371 0.9879
-2.3944 -1.4182 -1.4856 0.9875
-3.7988 -2.7342 -2.4986 0.9790
-3.5403 -3.0614 -2.4986 0.9790
-3.2538 -3.3644 -2.4986 0.9790
-2.6057 -3.8879 -2.4986 0.9790
-2.2493 -4.1044 -2.4986 0.9790
-1.4859 -4.4381 -2.4986 0.9790
0.1564 -4.6776 -2.4985 0.9790
0.5721 -4.6451 -2.4985 0.9790
1.7790 -4.3289 -2.4985 0.9790
2.8594 -3.7050 -2.4985 0.9790
3.1778 -3.4358 -2.4984 0.9790
3.7366 -2.8179 -2.4984 0.9790
4.1771 -2.1107 -2.4984 0.9790
4.5863 -0.9321 -2.4984 0.9790
4.6511 -0.5203 -2.4984 0.9790
4.6789 -0.1042 -2.4984 0.9790
4.6233 0.7270 -2.4984 0.9790
4.5402 1.1356 -2.4984 0.9790
4.2670 1.9226 -2.4984 0.9790
4.0789 2.2948 -2.4984 0.9790
5.7889 3.9738 -3.7484 0.9687
5.4122 4.4733 -3.7484 0.9687
4.9926 4.9372 -3.7484 0.9687
2.1974 3.8060 -2.3461 0.9803
1.8499 3.9864 -2.3461 0.9803
0.7310 4.3336 -2.3461 0.9803
0.3424 4.3815 -2.3461 0.9803
-0.8274 4.3163 -2.3462 0.9803
-1.5796 4.1012 -2.3462 0.9803
-4.1293 2.2035 -2.4986 0.9790
-4.3091 1.8273 -2.4986 0.9790
-4.4546 1.4365 -2.4986 0.9790
-2.5303 -0.1128 -1.3521 0.9886
-2.4353 -0.7853 -1.3660 0.9885
-2.4330 -1.0317 -1.4108 0.9881
-2.4323 -1.5911 -1.5516 0.9869
-3.6732 -2.9007 -2.4986 0.9790
-1.2867 -4.4999 -2.4986 0.9790
-0.4685 -4.6568 -2.4985 0.9790
0.7785 -4.6150 -2.4985 0.9790
1.1861 -4.5274 -2.4985 0.9790
1.9701 -4.2453 -2.4985 0.9790
2.6915 -3.8287 -2.4985 0.9790
4.0789 -2.2947 -2.4984 0.9790
4.2669 -1.9226 -2.4984 0.9790
4.6233 -0.7269 -2.4984 0.9790
4.6696 -0.3126 -2.4984 0.9790
4.6511 0.5203 -2.4984 0.9790
4.4851 1.3367 -2.4984 0.9790
5.9601 3.7120 -3.7484 0.9687
5.6061 4.2278 -3.7484 0.9687
2.9840 3.2263 -2.3461 0.9803
2.6850 3.4791 -2.3461 0.9803
2.0257 3.9001 -2.3461 0.9803
1.6705 4.0649 -2.3461 0.9803
0.9233 4.2967 -2.3461 0.9803
-1.0188 4.2752 -2.3462 0.9803
-1.3953 4.1675 -2.3462 0.9803
-3.3746 6.1579 -3.7486 0.9687
-3.2538 3.3645 -2.4986 0.9790
-3.7988 2.7342 -2.4986 0.9790
-4.0271 2.3852 -2.4986 0.9790
-4.3862 1.6335 -2.4986 0.9790
-4.5142 1.2366 -2.4986 0.9790
-2.5975 0.0000 -1.4427 0.9882
-2.4347 -0.2176 -1.3576 0.9889
-2.3823 -0.8872 -1.4119 0.9884
-3.4029 -2.9426 -2.4986 0.9796
-3.1275 -3.2338 -2.4986 0.9796
-2.1620 -3.9451 -2.4986 0.9796
-1.8023 -4.1219 -2.4986 0.9796
-1.4282 -4.2659 -2.4986 0.9796
-1.0429 -4.3761 -2.4985 0.9796
-0.6492 -4.4515 -2.4985 0.9796
0.5499 -4.4648 -2.4985 0.9796
0.9451 -4.3982 -2.4985 0.9796
1.3328 -4.2966 -2.4985 0.9796
1.7099 -4.1609 -2.4985 0.9796
3.0545 -3.3025 -2.4985 0.9796
3.3363 -3.0175 -2.4984 0.9796
4.1796 -1.6634 -2.4984 0.9796
4.3111 -1.2848 -2.4984 0.9796
4.4083 -0.8960 -2.4984 0.9796
4.4706 -0.5001 -2.4984 0.9796
4.4973 -0.1002 -2.4984 0.9796
4.4884 0.3005 -2.4984 0.9796
4.4439 0.6988 -2.4984 0.9796
4.3640 1.0915 -2.4984 0.9796
4.2496 1.4756 -2.4984 0.9796
3.9206 2.2057 -2.4984 0.9796
5.5642 3.8196 -3.7484 0.9696
5.2022 4.2997 -3.7484 0.9696
4.7989 4.7457 -3.7484 0.9696
1.4300 3.9748 -2.3461 0.9809
1.0706 4.0863 -2.3461 0.9809
0.3291 4.2115 -2.3461 0.9809
-0.7952 4.1488 -2.3462 0.9809
-2.4258 6.2984 -3.7486 0.9696
-2.9768 6.0575 -3.7486 0.9696
-2.9804 3.3700 -2.4986 0.9796
-3.2685 3.0913 -2.4986 0.9796
-3.9691 2.1180 -2.4986 0.9796
-4.2817 1.3807 -2.4986 0.9796
-4.4587 0.5997 -2.4986 0.9796
-2.4745 -0.1103 -1.3757 0.9887
-2.3870 -0.7697 -1.3929 0.9886
-2.3793 -1.0089 -1.4353 0.9882
-2.3600 -1.2594 -1.4857 0.9878
-2.2661 -1.4824 -1.5039 0.9877
-3.5306 -2.7881 -2.4986 0.9796
-2.9803 -3.3699 -2.4986 0.9796
-2.3356 -3.8449 -2.4986 0.9796
-1.9841 -4.0375 -2.4986 0.9796
-1.2368 -4.3253 -2.4985 0.9796
-0.8469 -4.4182 -2.4985 0.9796
-0.4503 -4.4760 -2.4985 0.9796
0.3505 -4.4849 -2.4985 0.9796
0.7483 -4.4359 -2.4985 0.9796
2.2493 -3.8958 -2.4985 0.9796
2.9044 -3.4353 -2.4985 0.9796
3.7087 -2.5459 -2.4984 0.9796
3.9206 -2.2057 -2.4984 0.9796
4.4439 -0.6987 -2.4984 0.9796
4.4706 0.5001 -2.4984 0.9796
4.4083 0.8961 -2.4984 0.9796
4.3111 1.2849 -2.4984 0.9796
4.0150 2.0289 -2.4984 0.9796
3.8185 2.3782 -2.4984 0.9796
4.5827 4.9548 -3.7484 0.9696
2.5808 3.3441 -2.3461 0.9809
2.2730 3.5605 -2.3461 0.9809
1.6057 3.9071 -2.3461 0.9809
0.5164 4.1926 -2.3461 0.9809
-1.3411 4.0058 -2.3462 0.9809
-3.7576 5.6068 -3.7486 0.9696
-2.8273 3.4994 -2.4986 0.9796
-3.4030 2.9427 -2.4986 0.9796
-3.6514 2.6281 -2.4986 0.9796
-3.8708 2.2927 -2.4986 0.9796
-4.2160 1.5701 -2.4986 0.9796
-4.4276 0.7977 -2.4986 0.9796
-2.5383 0.2268 -1.4154 0.9884
-2.3852 -0.2131 -1.3826 0.9890
-2.3780 -0.4284 -1.3951 0.9889
-2.3545 -0.6450 -1.4095 0.9888
-2.3307 -0.8680 -1.4359 0.9886
-2.3203 -1.1083 -1.4846 0.9882
-2.2443 -1.3293 -1.5060 0.9880
-3.2735 -2.8307 -2.4986 0.9802
-3.0086 -3.1108 -2.4986 0.9802
-2.7197 -3.3663 -2.4986 0.9802
-2.0798 -3.7951 -2.4986 0.9802
0.1446 -4.3251 -2.4985 0.9802
1.2821 -4.1332 -2.4985 0.9802
1.6449 -4.0027 -2.4985 0.9802
1.9947 -3.8403 -2.4985 0.9802
2.9384 -3.1769 -2.4985 0.9802
3.2095 -2.9028 -2.4984 0.9802
3.6733 -2.2877 -2.4984 0.9802
4.0207 -1.6002 -2.4984 0.9802
4.1472 -1.2359 -2.4984 0.9802
4.3006 -0.4811 -2.4984 0.9802
4.3263 -0.0964 -2.4984 0.9802
4.1981 1.0501 -2.4984 0.9802
4.0880 1.4195 -2.4984 0.9802
3.5677 2.4491 -2.4985 0.9802
5.0044 4.1362 -3.7484 0.9705
4.6164 4.5652 -3.7484 0.9705
1.0299 3.9310 -2.3461 0.9814
0.3166 4.0513 -2.3461 0.9814
-0.0453 4.0634 -2.3461 0.9814
-0.7650 3.9910 -2.3462 0.9814
-2.3336 6.0589 -3.7486 0.9705
-2.8636 5.8272 -3.7486 0.9705
-2.5671 3.4841 -2.4986 0.9802
-3.6217 2.3692 -2.4986 0.9802
-3.8182 2.0374 -2.4986 0.9802
-3.9843 1.6895 -2.4986 0.9802
-4.2208 0.9563 -2.4986 0.9802
-2.4200 -0.1079 -1.3986 0.9889
-2.3668 -0.5362 -1.4011 0.9889
-2.3397 -0.7545 -1.4193 0.9887
-2.2904 -1.2222 -1.4988 0.9881
-3.3964 -2.6821 -2.4986 0.9802
-2.5671 -3.4841 -2.4986 0.9802
-1.9087 -3.8840 -2.4986 0.9802
-1.5554 -4.0385 -2.4986 0.9802
-0.8147 -4.2502 -2.4985 0.9802
0.3371 -4.3144 -2.4985 0.9802
0.7198 -4.2672 -2.4985 0.9802
1.0967 -4.1862 -2.4985 0.9802
1.4650 -4.0720 -2.4985 0.9802
2.1637 -3.7477 -2.4985 0.9802
2.4887 -3.5402 -2.4985 0.9802
2.7939 -3.3046 -2.4985 0.9802
3.0770 -3.0428 -2.4985 0.9802
3.3356 -2.7569 -2.4984 0.9802
