ply
format ascii 1.0
element vertex 1586
property float32 x
property float32 y
property float32 z
property float32 I
end_header
8.9333 4.5142 4.1216 0.9576
8.9320 4.5135 3.7370 0.9582
8.9313 4.5132 3.5483 0.9584
8.9307 4.5129 3.3619 0.9587
-3.0065 -6.8760 2.2467 0.9692
-2.2411 -6.6939 2.1134 0.9710
-2.1655 -6.4681 1.9191 0.9721
-1.6711 -7.0122 2.0282 0.9705
-1.9024 -6.6530 1.9469 0.9717
-1.6126 -6.7669 1.8330 0.9716
-3.1545 -6.4191 1.8846 0.9708
-1.8585 -6.4997 1.7813 0.9724
8.9282 4.5116 2.6359 0.9595
-2.6868 -6.1449 1.6485 0.9728
-2.0852 -6.2283 1.6144 0.9733
-1.5745 -6.6069 1.6694 0.9724
-3.0660 -6.2392 1.7088 0.9718
-2.3699 -6.1533 1.6208 0.9732
-1.8231 -6.3757 1.6299 0.9731
8.9276 4.5113 2.4587 0.9596
-3.4891 -6.3669 1.6571 0.9707
-2.0627 -6.1609 1.4829 0.9737
-1.5510 -6.5084 1.5271 0.9729
-2.3436 -6.0850 1.4883 0.9736
-1.3089 -6.8286 1.5870 0.9719
-3.3970 -6.1988 1.4902 0.9715
-2.6218 -5.9962 1.3797 0.9736
-2.0411 -6.0965 1.3554 0.9741
-2.9667 -6.0371 1.4181 0.9729
-2.3190 -6.0212 1.3603 0.9740
8.9264 4.5107 2.1085 0.9599
-3.3411 -6.0968 1.3454 0.9721
-2.5946 -5.9341 1.2533 0.9740
-2.0229 -6.0421 1.2330 0.9744
-1.5155 -6.3595 1.2651 0.9737
-2.9296 -5.9616 1.2854 0.9733
-2.2978 -5.9662 1.2372 0.9743
-1.7656 -6.1746 1.2428 0.9742
-1.2725 -6.6383 1.3080 0.9728
8.9258 4.5104 1.9353 0.9601
-3.2999 -6.0216 1.2108 0.9725
-2.5795 -5.8995 1.1353 0.9742
-2.0118 -6.0090 1.1173 0.9746
-1.5063 -6.3209 1.1458 0.9740
-2.9079 -5.9173 1.1626 0.9736
-2.2852 -5.9334 1.1211 0.9745
-1.7557 -6.1400 1.1260 0.9744
-1.2609 -6.5782 1.1810 0.9732
-3.2732 -5.9728 1.0845 0.9728
-2.0009 -5.9763 1.0036 0.9748
-1.4973 -6.2830 1.0285 0.9742
-1.0093 -6.9200 1.1136 0.9721
-2.8889 -5.8787 1.0430 0.9738
-1.7460 -6.1061 1.0113 0.9746
-3.2470 -5.9251 0.9610 0.9731
-1.4884 -6.2457 0.9132 0.9744
-1.0001 -6.8574 0.9857 0.9724
-3.7545 -6.1808 1.0286 0.9712
8.9240 4.5095 1.4222 0.9604
-3.2289 -5.8920 0.8420 0.9733
-1.9868 -5.9343 0.7842 0.9751
-0.9927 -6.8067 0.8620 0.9727
-2.2565 -5.8588 0.7868 0.9750
-1.7331 -6.0610 0.7900 0.9749
-1.2383 -6.4602 0.8243 0.9738
-2.5398 -5.8087 0.6876 0.9748
-1.4818 -6.2179 0.6933 0.9746
-2.8551 -5.8099 0.7022 0.9743
-2.2527 -5.8490 0.6798 0.9751
-1.2357 -6.4463 0.7119 0.9739
8.9228 4.5089 1.0844 0.9606
-2.2489 -5.8392 0.5737 0.9752
-1.2330 -6.4326 0.6005 0.9740
8.9223 4.5086 0.9165 0.9606
-3.2056 -5.8494 0.4999 0.9736
-3.6733 -6.0471 0.5302 0.9720
-2.8457 -5.7907 0.4835 0.9745
-2.2475 -5.8356 0.4686 0.9752
-1.2310 -6.4218 0.4900 0.9741
-0.7409 -7.3646 0.5547 0.9707
8.9217 4.5083 0.7491 0.9607
-2.5376 -5.8037 0.3689 0.9749
-0.9868 -6.7658 0.3982 0.9730
-3.6795 -6.0573 0.4128 0.9720
-2.8512 -5.8020 0.3765 0.9744
-2.2512 -5.8451 0.3648 0.9752
-1.7289 -6.0463 0.3663 0.9751
-0.7416 -7.3721 0.4315 0.9707
8.9211 4.5080 0.5822 0.9607
-2.5420 -5.8137 0.2638 0.9749
-0.9894 -6.7838 0.2850 0.9729
-1.2361 -6.4486 0.2730 0.9741
-3.2285 -5.8912 0.1675 0.9735
-2.5464 -5.8237 0.1585 0.9749
-1.4855 -6.2336 0.1598 0.9747
-0.9920 -6.8018 0.1714 0.9729
-1.7346 -6.0663 0.1573 0.9751
-1.2387 -6.4620 0.1641 0.9740
-1.4912 -6.2574 0.0535 0.9746
-1.2440 -6.4899 0.0549 0.9739
-0.7628 -7.5820 0.0633 0.9700
-1.4995 -6.2921 -0.0538 0.9745
-1.0055 -6.8942 -0.0579 0.9725
-3.7655 -6.1989 -0.0603 0.9714
-2.2780 -5.9148 -0.0527 0.9750
-1.7498 -6.1193 -0.0529 0.9749
-3.2921 -6.0073 -0.1708 0.9730
-2.0160 -6.0216 -0.1584 0.9749
-1.7588 -6.1508 -0.1595 0.9747
-1.2601 -6.5740 -0.1669 0.9736
8.9182 4.5066 -0.2492 0.9608
-2.0264 -6.0526 -0.2654 0.9748
-1.5168 -6.3647 -0.2721 0.9741
-1.0241 -7.0219 -0.2951 0.9720
-3.9040 -6.4269 -0.3127 0.9703
-1.7681 -6.1835 -0.2674 0.9746
-1.2693 -6.6218 -0.2803 0.9734
8.9177 4.5063 -0.4154 0.9608
-2.6228 -5.9986 -0.3813 0.9741
-2.0450 -6.1080 -0.3752 0.9745
-1.5321 -6.4290 -0.3849 0.9739
-4.1396 -6.8148 -0.4644 0.9686
-2.3227 -6.0307 -0.3764 0.9744
-1.7846 -6.2412 -0.3781 0.9743
8.9171 4.5060 -0.5819 0.9608
-3.4192 -6.2392 -0.5332 0.9719
-2.6486 -6.0575 -0.4954 0.9738
-2.0639 -6.1646 -0.4872 0.9743
-1.5478 -6.4948 -0.5003 0.9736
-1.0677 -7.3206 -0.5544 0.9708
-2.9928 -6.0902 -0.5085 0.9731
-2.3443 -6.0867 -0.4888 0.9742
-1.8014 -6.3000 -0.4910 0.9741
-1.2996 -6.7802 -0.5174 0.9727
-3.4990 -6.3848 -0.6675 0.9712
-2.6752 -6.1184 -0.6122 0.9735
-2.0834 -6.2227 -0.6016 0.9740
-1.5645 -6.5651 -0.6187 0.9733
-1.1197 -7.6771 -0.7113 0.9693
-1.8186 -6.3601 -0.6065 0.9738
-1.3209 -6.8911 -0.6433 0.9722
-3.6324 -6.6283 -0.8198 0.9700
-2.1143 -6.3150 -0.7223 0.9736
-1.3535 -7.0610 -0.7798 0.9715
-2.1471 -6.4130 -0.8475 0.9731
-1.8773 -6.5653 -0.8557 0.9728
-2.1910 -6.5442 -0.9816 0.9725
-1.6711 -7.0123 -1.0253 0.9713
-1.9202 -6.7153 -0.9934 0.9722
-2.9263 -6.6926 -1.1631 0.9708
14.5502 2.2879 -2.3454 0.9421
14.2890 3.5739 -2.3454 0.9421
13.9143 4.8316 -2.3454 0.9421
12.8376 7.2223 -2.3455 0.9421
11.3540 9.3844 -2.3456 0.9421
8.4719 12.0514 -2.3457 0.9421
7.3658 12.7579 -2.3458 0.9421
6.2012 13.3632 -2.3459 0.9421
4.9873 13.8625 -2.3459 0.9421
3.7338 14.2517 -2.3460 0.9421
1.1478 14.6887 -2.3461 0.9421
-4.0510 14.1672 -2.3463 0.9421
-6.4990 13.2251 -2.3465 0.9421
-9.7627 11.0388 -2.3466 0.9421
-10.7066 10.1263 -2.3466 0.9421
-11.5656 9.1332 -2.3467 0.9421
-12.3327 8.0677 -2.3467 0.9421
-13.0020 6.9381 -2.3467 0.9421
-1.9742 -6.9043 -1.1435 0.9713
14.6376 1.6375 -2.3454 0.9421
14.4339 2.9338 -2.3454 0.9421
14.1156 4.2069 -2.3454 0.9421
13.6853 5.4467 -2.3455 0.9421
8.9136 4.5043 -1.5903 0.9604
12.5032 7.7871 -2.3455 0.9421
11.7607 8.8692 -2.3456 0.9421
10.9248 9.8810 -2.3456 0.9421
7.9267 12.4170 -2.3458 0.9421
0.4923 14.7254 -2.3461 0.9421
-0.8203 14.7112 -2.3462 0.9421
-2.1265 14.5802 -2.3463 0.9421
-3.4158 14.3334 -2.3463 0.9421
-5.9033 13.5013 -2.3464 0.9421
-8.2040 12.2413 -2.3465 0.9421
-9.2611 11.4627 -2.3466 0.9421
-10.2448 10.5931 -2.3466 0.9421
-12.6799 7.5104 -2.3467 0.9421
-13.2982 6.3521 -2.3467 0.9421
-14.1732 0.0000 -2.4991 0.9441
-13.9486 -2.5129 -2.4991 0.9441
-13.6694 -3.7444 -2.4991 0.9441
-12.7886 -6.1086 -2.4990 0.9441
-12.1940 -7.2225 -2.4990 0.9441
-7.8895 -11.7719 -2.4988 0.9441
-5.6770 -12.9836 -2.4986 0.9441
-2.3453 -7.0051 -1.3026 0.9704
6.5300 -12.5725 -2.4981 0.9441
8.6554 -11.2152 -2.4980 0.9441
9.6192 -10.4001 -2.4979 0.9441
10.5065 -9.5025 -2.4979 0.9441
11.3104 -8.5296 -2.4979 0.9441
12.6433 -6.3889 -2.4978 0.9441
13.1617 -5.2382 -2.4978 0.9441
13.5756 -4.0460 -2.4978 0.9441
14.1622 -0.3155 -2.4978 0.9441
13.1403 2.0662 -2.3455 0.9474
12.9043 3.2276 -2.3455 0.9474
12.1279 5.4646 -2.3455 0.9474
11.5935 6.5224 -2.3456 0.9474
10.9672 7.5286 -2.3456 0.9474
9.4589 9.3541 -2.3457 0.9474
8.5889 10.1591 -2.3457 0.9474
7.6508 10.8835 -2.3458 0.9474
6.6519 11.5215 -2.3458 0.9474
5.6002 12.0681 -2.3459 0.9474
2.2130 13.1198 -2.3460 0.9474
-0.1482 13.3049 -2.3462 0.9474
-1.3319 13.2392 -2.3462 0.9474
-2.5050 13.0684 -2.3463 0.9474
-3.6583 12.7939 -2.3463 0.9474
-5.8690 11.9430 -2.3464 0.9474
-7.8938 10.7137 -2.3465 0.9474
-10.4443 8.2478 -2.3466 0.9474
-11.1371 7.2856 -2.3466 0.9474
-13.8229 3.1319 -2.4991 0.9441
-14.0468 1.8891 -2.4991 0.9441
-14.1592 0.6314 -2.4991 0.9441
-14.0467 -1.8891 -2.4991 0.9441
-13.8227 -3.1318 -2.4991 0.9441
-13.0481 -5.5329 -2.4990 0.9441
-12.5037 -6.6721 -2.4990 0.9441
-11.8601 -7.7585 -2.4990 0.9441
-9.3884 -10.6156 -2.4988 0.9441
-6.2498 -12.7180 -2.4987 0.9441
-1.4183 -14.0981 -2.4984 0.9441
3.5907 -13.7054 -2.4982 0.9441
4.7962 -13.3311 -2.4981 0.9441
10.0728 -9.9612 -2.4979 0.9441
13.7424 -3.4372 -2.4978 0.9441
13.9937 -2.2004 -2.4978 0.9441
14.1340 -0.9461 -2.4978 0.9441
13.2193 1.4788 -2.3454 0.9474
11.2916 7.0325 -2.3456 0.9474
6.1321 11.8065 -2.3458 0.9474
2.7952 13.0080 -2.3460 0.9474
1.6264 13.2055 -2.3461 0.9474
0.4446 13.2981 -2.3461 0.9474
-0.7408 13.2853 -2.3462 0.9474
-1.9203 13.1669 -2.3462 0.9474
-3.0847 12.9440 -2.3463 0.9474
-4.2246 12.6184 -2.3463 0.9474
-6.3952 11.6699 -2.3464 0.9474
-9.2516 9.5661 -2.3466 0.9474
-10.0665 8.7049 -2.3466 0.9474
-10.8014 7.7744 -2.3466 0.9474
-12.0491 5.7554 -2.3545 0.9472
-13.6697 3.7445 -2.4991 0.9441
-13.9487 2.5130 -2.4991 0.9441
-14.1170 1.2615 -2.4991 0.9441
-12.7091 -2.2896 -2.4990 0.9487
-12.1016 -4.5067 -2.4990 0.9487
-8.9767 -9.2819 -2.4988 0.9488
-8.1148 -10.0438 -2.4988 0.9488
-6.2052 -11.3230 -2.4987 0.9488
-4.0991 -12.2433 -2.4986 0.9488
-1.8633 -12.7756 -2.4985 0.9488
-0.7188 -12.8904 -2.4984 0.9488
2.7122 -12.6215 -2.4982 0.9488
8.7648 -9.4764 -2.4980 0.9488
9.5733 -8.6585 -2.4980 0.9488
10.3059 -7.7720 -2.4979 0.9488
10.9566 -6.8238 -2.4979 0.9488
11.9733 1.8827 -2.3455 0.9518
11.7583 2.9409 -2.3455 0.9518
11.4499 3.9759 -2.3455 0.9518
10.5638 5.9431 -2.3456 0.9518
9.3430 7.7222 -2.3457 0.9518
7.8261 9.2568 -2.3458 0.9518
6.9712 9.9168 -2.3458 0.9518
5.1027 10.9961 -2.3459 0.9518
4.1039 11.4069 -2.3459 0.9518
3.0724 11.7271 -2.3460 0.9518
-1.2135 12.0631 -2.3462 0.9518
-4.3577 11.3145 -2.3463 0.9518
-5.3475 10.8820 -2.3464 0.9518
-6.2950 10.3630 -2.3464 0.9518
-9.5163 7.5150 -2.3466 0.9518
-10.6982 5.7087 -2.3466 0.9518
-11.8891 5.0414 -2.4991 0.9487
-12.9010 -0.5753 -2.4991 0.9487
-12.7986 -1.7212 -2.4990 0.9487
-12.5945 -2.8535 -2.4990 0.9487
-11.3927 -6.0793 -2.4990 0.9487
-10.8063 -7.0691 -2.4989 0.9487
-9.3814 -8.8728 -2.4988 0.9488
-8.5543 -9.6724 -2.4988 0.9488
-7.6593 -10.3952 -2.4988 0.9488
-6.7035 -11.0355 -2.4987 0.9488
-3.5496 -12.4137 -2.4985 0.9488
-2.4306 -12.6800 -2.4985 0.9488
-0.1438 -12.9095 -2.4984 0.9488
1.0058 -12.8708 -2.4983 0.9488
3.2717 -12.4880 -2.4982 0.9488
6.4544 -11.1793 -2.4981 0.9488
9.1782 -9.0765 -2.4980 0.9488
9.9495 -8.2234 -2.4979 0.9488
10.6418 -7.3051 -2.4979 0.9488
11.2497 -6.3289 -2.4979 0.9488
11.7683 -5.3025 -2.4979 0.9488
12.9044 0.2876 -2.4979 0.9488
11.6156 3.4619 -2.3455 0.9518
8.8154 4.4546 -1.9114 0.9606
10.2887 6.4079 -2.3456 0.9518
9.6777 7.2983 -2.3457 0.9518
8.9898 8.1308 -2.3457 0.9518
8.2306 8.8988 -2.3457 0.9518
7.4060 9.5963 -2.3458 0.9518
6.5226 10.2176 -2.3458 0.9518
5.5875 10.7578 -2.3459 0.9518
4.6079 11.2126 -2.3459 0.9518
2.5469 11.8525 -2.3460 0.9518
1.4819 12.0324 -2.3461 0.9518
0.4051 12.1168 -2.3461 0.9518
-1.7497 11.9971 -2.3462 0.9518
-2.8106 11.7940 -2.3463 0.9518
-3.8493 11.4973 -2.3463 0.9518
-5.8270 10.6330 -2.3464 0.9518
-8.4296 8.7162 -2.3465 0.9518
-9.1720 7.9314 -2.3465 0.9518
-9.8417 7.0836 -2.3466 0.9518
-10.4332 6.1796 -2.3466 0.9518
-11.6527 5.5661 -2.4990 0.9487
-12.7093 2.2897 -2.4991 0.9487
-11.8538 0.0000 -2.4990 0.9527
-11.8067 -1.0550 -2.4990 0.9527
-11.6659 -2.1017 -2.4990 0.9527
-10.6958 -5.1089 -2.4989 0.9527
-10.1985 -6.0406 -2.4989 0.9527
-9.6203 -6.9242 -2.4989 0.9527
-8.9657 -7.7529 -2.4988 0.9527
-7.4488 -9.2194 -2.4987 0.9527
-5.6959 -10.3937 -2.4987 0.9527
-4.7481 -10.8592 -2.4986 0.9527
-3.7627 -11.2385 -2.4986 0.9527
-1.7103 -11.7271 -2.4985 0.9527
-0.6598 -11.8325 -2.4984 0.9527
0.3960 -11.8441 -2.4984 0.9527
2.4896 -11.5858 -2.4983 0.9527
5.4618 -10.5158 -2.4981 0.9527
6.3760 -9.9878 -2.4981 0.9527
7.2395 -9.3805 -2.4981 0.9527
8.0456 -8.6988 -2.4980 0.9527
8.7878 -7.9481 -2.4980 0.9527
9.4603 -7.1343 -2.4980 0.9527
10.0576 -6.2639 -2.4979 0.9527
11.0087 -4.3814 -2.4979 0.9527
11.6111 -2.3600 -2.4979 0.9527
11.7751 -1.3172 -2.4979 0.9527
11.8456 -0.2639 -2.4979 0.9527
11.8221 0.7914 -2.4979 0.9527
10.7935 2.6996 -2.3456 0.9555
10.1440 4.5707 -2.3456 0.9555
7.1839 8.4971 -2.3458 0.9555
4.6840 10.0938 -2.3459 0.9555
1.8509 10.9732 -2.3460 0.9555
0.8669 11.0946 -2.3461 0.9555
-0.1240 11.1280 -2.3461 0.9555
-3.0597 10.7005 -2.3463 0.9555
-4.0000 10.3858 -2.3463 0.9555
-4.9086 9.9888 -2.3464 0.9555
-5.7783 9.5124 -2.3464 0.9555
-7.3735 8.3374 -2.3465 0.9555
-9.3145 6.0933 -2.3465 0.9555
-10.0944 5.3865 -2.4121 0.9543
-11.2818 3.6379 -2.4990 0.9527
-11.5608 2.6194 -2.4990 0.9527
-11.8421 0.5281 -2.4990 0.9527
-11.7480 -1.5799 -2.4990 0.9527
-11.5606 -2.6193 -2.4990 0.9527
-11.2815 -3.6378 -2.4990 0.9527
-10.4576 -5.5803 -2.4989 0.9527
-9.9193 -6.4889 -2.4989 0.9527
-9.3022 -7.3459 -2.4988 0.9527
-8.6114 -8.1445 -2.4988 0.9527
-7.0306 -9.5420 -2.4987 0.9527
-6.1533 -10.1297 -2.4987 0.9527
-4.2596 -11.0598 -2.4986 0.9527
-1.1862 -11.7915 -2.4984 0.9527
-0.1320 -11.8501 -2.4984 0.9527
0.9232 -11.8146 -2.4983 0.9527
3.0032 -11.4632 -2.4982 0.9527
4.9880 -10.7487 -2.4982 0.9527
5.9248 -10.2620 -2.4981 0.9527
6.8145 -9.6937 -2.4981 0.9527
8.4251 -8.3317 -2.4980 0.9527
9.7686 -6.7057 -2.4980 0.9527
11.8220 -0.7914 -2.4979 0.9527
11.8456 0.2640 -2.4979 0.9527
10.9030 2.2161 -2.3456 0.9555
10.3375 4.1142 -2.3456 0.9555
9.4444 5.8821 -2.3457 0.9555
8.8835 6.6994 -2.3457 0.9555
8.2521 7.4636 -2.3457 0.9555
7.5552 8.1686 -2.3458 0.9555
5.1289 9.8750 -2.3459 0.9555
4.2297 10.2924 -2.3459 0.9555
1.3603 11.0449 -2.3461 0.9555
-0.6196 11.1115 -2.3462 0.9555
-1.6061 11.0125 -2.3462 0.9555
-3.5334 10.5536 -2.3463 0.9555
-4.4587 10.1975 -2.3463 0.9555
-5.3488 9.7603 -2.3464 0.9555
-7.7377 8.0007 -2.3465 0.9555
-8.4192 7.2803 -2.3465 0.9555
-9.0338 6.5022 -2.3465 0.9555
-9.5768 5.6724 -2.3465 0.9555
-10.6961 5.1091 -2.4990 0.9527
-11.1085 4.1369 -2.4990 0.9527
-11.4326 3.1318 -2.4990 0.9527
-11.6660 2.1018 -2.4990 0.9527
-11.8068 1.0551 -2.4990 0.9527
-10.9052 -0.9745 -2.4990 0.9561
-10.5595 -2.8925 -2.4989 0.9561
-10.2601 -3.8209 -2.4989 0.9561
-8.8858 -6.3956 -2.4988 0.9561
-7.6108 -7.8695 -2.4988 0.9561
-6.8801 -8.5155 -2.4987 0.9561
-5.2611 -9.6002 -2.4986 0.9561
-1.5798 -10.8319 -2.4985 0.9561
0.3658 -10.9400 -2.4984 0.9561
3.2429 -10.4541 -2.4982 0.9561
4.1604 -10.1238 -2.4982 0.9561
5.0449 -9.7131 -2.4982 0.9561
6.6870 -8.6645 -2.4981 0.9561
7.4315 -8.0349 -2.4981 0.9561
8.7382 -6.5898 -2.4980 0.9561
9.2900 -5.7858 -2.4980 0.9561
10.1685 -4.0469 -2.4980 0.9561
10.4883 -3.1258 -2.4979 0.9561
10.7249 -2.1799 -2.4979 0.9561
10.9198 0.7310 -2.4980 0.9561
9.9697 2.4936 -2.3456 0.9587
9.2402 4.1635 -2.3132 0.9593
8.4730 5.8164 -2.3457 0.9587
7.3076 7.2267 -2.3458 0.9587
5.9107 8.4081 -2.3458 0.9587
3.4795 9.6715 -2.3460 0.9587
0.8008 10.2477 -2.3461 0.9587
-2.8261 9.8836 -2.3463 0.9587
-5.3371 8.7861 -2.3464 0.9587
-7.4690 7.0642 -2.3465 0.9587
-8.0682 6.3714 -2.3465 0.9587
-10.0799 4.2743 -2.4990 0.9561
-10.8511 1.4593 -2.4990 0.9561
-10.9378 -0.4877 -2.4990 0.9561
-10.8510 -1.4593 -2.4990 0.9561
-10.0797 -4.2741 -2.4989 0.9561
-9.6591 -5.1542 -2.4989 0.9561
-9.1619 -5.9934 -2.4989 0.9561
-7.9539 -7.5228 -2.4988 0.9561
-5.6835 -9.3564 -2.4987 0.9561
-4.8281 -9.8249 -2.4986 0.9561
-3.9344 -10.2155 -2.4986 0.9561
-3.0095 -10.5249 -2.4985 0.9561
2.7740 -10.5882 -2.4983 0.9561
3.7053 -10.2991 -2.4982 0.9561
5.4725 -9.4787 -2.4981 0.9561
6.2944 -8.9538 -2.4981 0.9561
7.0663 -8.3579 -2.4981 0.9561
8.4360 -6.9725 -2.4980 0.9561
9.0231 -6.1939 -2.4980 0.9561
10.3387 -3.5899 -2.4980 0.9561
10.6171 -2.6555 -2.4979 0.9561
10.9415 0.2438 -2.4979 0.9561
10.0708 2.0470 -2.3456 0.9587
9.8487 2.9353 -2.3456 0.9587
9.5485 3.8002 -2.3456 0.9587
8.7670 4.4301 -2.2420 0.9605
8.7236 5.4331 -2.3457 0.9587
8.2055 6.1881 -2.3457 0.9587
3.0453 9.8170 -2.3460 0.9587
1.2565 10.2017 -2.3461 0.9587
-0.5723 10.2632 -2.3462 0.9587
-1.4835 10.1718 -2.3462 0.9587
-2.3830 9.9996 -2.3462 0.9587
-3.2636 9.7479 -2.3463 0.9587
-4.1183 9.4189 -2.3463 0.9587
-5.7233 8.5397 -2.3464 0.9587
-7.1469 7.3899 -2.3464 0.9587
-9.8794 4.7191 -2.4990 0.9561
-10.5597 2.8926 -2.4990 0.9561
-10.1666 0.0000 -2.4989 0.9590
-10.1262 -0.9049 -2.4989 0.9590
-10.0054 -1.8025 -2.4989 0.9590
-9.8052 -2.6859 -2.4989 0.9590
-9.5271 -3.5479 -2.4989 0.9590
-9.1735 -4.3818 -2.4989 0.9590
-8.7470 -5.1808 -2.4988 0.9590
-8.2510 -5.9387 -2.4988 0.9590
-5.6594 -8.4444 -2.4987 0.9590
-4.0724 -9.3137 -2.4986 0.9590
-3.2272 -9.6391 -2.4985 0.9590
-2.3564 -9.8879 -2.4985 0.9590
-0.5659 -10.1486 -2.4984 0.9590
0.3397 -10.1586 -2.4984 0.9590
1.2424 -10.0879 -2.4983 0.9590
2.1354 -9.9371 -2.4983 0.9590
3.0113 -9.7074 -2.4983 0.9590
3.8633 -9.4007 -2.4982 0.9590
4.6846 -9.0194 -2.4982 0.9590
5.4687 -8.5666 -2.4981 0.9590
6.9008 -7.4610 -2.4981 0.9590
7.5374 -6.8171 -2.4981 0.9590
8.6266 -5.3726 -2.4980 0.9590
9.0705 -4.5835 -2.4980 0.9590
9.9590 -2.0242 -2.4980 0.9590
10.1400 0.6788 -2.4980 0.9590
9.0149 3.1304 -2.3457 0.9615
8.7006 3.9203 -2.3457 0.9615
7.3560 6.0799 -2.3458 0.9615
6.1616 7.2880 -2.3458 0.9615
5.4886 7.8077 -2.3459 0.9615
4.7720 8.2653 -2.3459 0.9615
3.2310 8.9807 -2.3460 0.9614
1.5875 9.4116 -2.3460 0.9614
-0.1063 9.5443 -2.3461 0.9614
-1.7969 9.3746 -2.3462 0.9614
-2.6242 9.1775 -2.3462 0.9614
-4.2100 8.5671 -2.3463 0.9614
-4.9559 8.1585 -2.3463 0.9614
-5.6624 7.6852 -2.3464 0.9614
-6.9355 6.5596 -2.3464 0.9614
-7.4918 5.9163 -2.3465 0.9614
-8.9693 4.7862 -2.4989 0.9590
-9.3598 3.9689 -2.4989 0.9590
-10.0759 1.3551 -2.4989 0.9590
-10.1564 -0.4529 -2.4989 0.9590
-9.9151 -2.2464 -2.4989 0.9590
-9.3596 -3.9688 -2.4989 0.9590
-1.9136 -9.9830 -2.4985 0.9590
-0.1132 -10.1637 -2.4984 0.9590
0.7918 -10.1333 -2.4984 0.9590
1.6906 -10.0224 -2.4983 0.9590
3.4407 -9.5636 -2.4982 0.9590
6.5616 -7.7611 -2.4981 0.9590
7.8336 -6.4746 -2.4980 0.9590
9.2656 -4.1749 -2.4980 0.9590
9.8590 -2.4659 -2.4980 0.9590
10.0393 -1.5786 -2.4980 0.9590
10.1602 0.2265 -2.4980 0.9590
9.1454 2.7256 -2.3456 0.9615
8.8666 3.5289 -2.3457 0.9615
8.5174 4.3040 -2.3457 0.9615
6.4801 7.0063 -2.3458 0.9615
5.8309 7.5554 -2.3458 0.9615
4.3991 8.4697 -2.3459 0.9615
1.1667 9.4731 -2.3461 0.9614
-0.5314 9.5302 -2.3461 0.9614
-1.3775 9.4452 -2.3462 0.9614
-3.8242 8.7461 -2.3463 0.9614
-5.3144 7.9297 -2.3464 0.9614
-5.9992 7.4253 -2.3464 0.9614
-7.7480 5.5767 -2.3465 0.9614
-8.6329 5.1133 -2.4662 0.9595
-9.5273 3.5480 -2.4989 0.9590
-10.0055 1.8026 -2.4989 0.9590
-9.3332 -1.6814 -2.4989 0.9615
-9.1464 -2.5054 -2.4989 0.9615
-8.8871 -3.3096 -2.4989 0.9615
-7.6967 -5.5397 -2.4988 0.9615
-7.1730 -6.2027 -2.4988 0.9615
-5.9594 -7.3760 -2.4987 0.9615
-5.2792 -7.8771 -2.4987 0.9615
-4.5571 -8.3155 -2.4986 0.9615
-3.7988 -8.6881 -2.4986 0.9615
-3.0104 -8.9916 -2.4985 0.9615
-2.1981 -9.2236 -2.4985 0.9615
-1.3684 -9.3825 -2.4985 0.9615
-0.5279 -9.4670 -2.4984 0.9615
1.9919 -9.2696 -2.4983 0.9615
5.7924 -7.5053 -2.4981 0.9615
6.4373 -6.9599 -2.4981 0.9615
7.0312 -6.3593 -2.4981 0.9615
7.5692 -5.7082 -2.4981 0.9615
8.0472 -5.0118 -2.4980 0.9615
8.8082 -3.5056 -2.4980 0.9615
9.0852 -2.7077 -2.4980 0.9615
9.2901 -1.8883 -2.4980 0.9615
9.4214 -1.0539 -2.4980 0.9615
9.4778 -0.2112 -2.4980 0.9615
9.4590 0.6332 -2.4980 0.9615
14.0506 2.2094 -3.7478 0.9429
13.7982 3.4512 -3.7478 0.9429
6.8619 5.6716 -2.3458 0.9638
5.7478 6.7985 -2.3458 0.9638
5.1199 7.2832 -2.3459 0.9638
4.4514 7.7101 -2.3459 0.9638
1.4809 8.7794 -2.3460 0.9638
-0.0992 8.9031 -2.3461 0.9638
-0.8912 8.8591 -2.3462 0.9638
-1.6762 8.7448 -2.3462 0.9638
-4.6229 7.6104 -2.3463 0.9638
-5.2820 7.1688 -2.3464 0.9638
-5.8992 6.6704 -2.3464 0.9638
-6.4695 6.1188 -2.3464 0.9638
-6.9885 5.5188 -2.3464 0.9638
-7.5427 4.9342 -2.3750 0.9634
-9.0258 2.9105 -2.4989 0.9615
-9.4741 0.4225 -2.4989 0.9615
-9.3988 -1.2640 -2.4989 0.9615
-8.7308 -3.7022 -2.4988 0.9615
-8.3665 -4.4645 -2.4988 0.9615
-7.9359 -5.1914 -2.4988 0.9615
-5.6249 -7.6342 -2.4987 0.9615
-4.1821 -8.5103 -2.4986 0.9615
-3.4080 -8.8486 -2.4986 0.9615
0.7387 -9.4526 -2.4984 0.9615
1.5770 -9.3492 -2.4983 0.9615
3.2096 -8.9212 -2.4983 0.9615
3.9908 -8.6000 -2.4982 0.9615
5.4523 -7.7559 -2.4982 0.9615
7.3074 -6.0397 -2.4981 0.9615
7.8160 -5.3653 -2.4981 0.9615
9.1968 -2.3003 -2.4980 0.9615
9.4590 -0.6331 -2.4980 0.9615
13.9382 2.8331 -3.7478 0.9429
8.5312 2.5426 -2.3457 0.9638
7.9453 4.0150 -2.3457 0.9638
6.6025 5.9716 -2.3458 0.9638
6.0449 6.5357 -2.3458 0.9638
4.1036 7.9008 -2.3459 0.9638
-2.0641 8.6615 -2.3462 0.9638
-2.8269 8.4436 -2.3462 0.9638
-4.9574 7.3970 -2.3463 0.9638
-6.7357 5.8246 -2.3464 0.9638
-7.2274 5.2020 -2.3464 0.9638
-8.5573 4.0875 -2.4989 0.9615
-8.8872 3.3097 -2.4989 0.9615
-9.3333 1.6815 -2.4989 0.9615
-5.0319 0.0000 -1.4158 0.9793
-3.9277 -0.3510 -1.1095 0.9837
-3.7284 -0.6717 -1.0659 0.9844
-3.7904 -1.0383 -1.1057 0.9838
-8.0140 -3.8280 -2.4988 0.9638
-7.6414 -4.5260 -2.4988 0.9638
-6.7177 -5.8090 -2.4987 0.9638
-6.1740 -6.3838 -2.4987 0.9638
-5.5812 -6.9079 -2.4987 0.9638
-4.9441 -7.3771 -2.4986 0.9638
-3.5577 -8.1366 -2.4986 0.9638
-2.0586 -8.6383 -2.4985 0.9638
-1.2816 -8.7871 -2.4985 0.9638
-0.4944 -8.8661 -2.4984 0.9638
0.2967 -8.8748 -2.4984 0.9638
1.8655 -8.6813 -2.4983 0.9638
3.3751 -8.2128 -2.4982 0.9638
4.0926 -7.8797 -2.4982 0.9638
7.9244 -4.0043 -2.4981 0.9638
8.5087 -2.5358 -2.4980 0.9638
8.7007 -1.7685 -2.4980 0.9638
8.8235 -0.9870 -2.4980 0.9638
8.8764 -0.1978 -2.4980 0.9638
12.9227 3.2322 -3.7479 0.9462
7.8759 2.7348 -2.3457 0.9659
7.6012 3.4250 -2.3457 0.9659
7.2663 4.0880 -2.3457 0.9659
6.4265 5.3117 -2.3458 0.9659
5.3830 6.3671 -2.3458 0.9659
4.1689 7.2208 -2.3459 0.9659
3.5098 7.5633 -2.3459 0.9659
-6.5449 5.1685 -2.3464 0.9659
-7.4324 4.8621 -2.4988 0.9638
-7.8357 4.1813 -2.4989 0.9638
-8.1768 3.4673 -2.4989 0.9638
-8.4529 2.7257 -2.4989 0.9638
-4.2110 -0.1878 -1.1860 0.9826
-3.7659 -0.8532 -1.0864 0.9841
-8.4528 -2.7256 -2.4988 0.9638
-7.8355 -4.1811 -2.4988 0.9638
-5.2679 -7.1496 -2.4987 0.9638
-4.6106 -7.5900 -2.4986 0.9638
-3.1917 -8.2870 -2.4986 0.9638
-2.4414 -8.5380 -2.4985 0.9638
-0.0989 -8.8793 -2.4984 0.9638
1.4769 -8.7559 -2.4983 0.9638
2.2504 -8.5895 -2.4983 0.9638
3.0059 -8.3551 -2.4983 0.9638
4.4396 -7.6895 -2.4982 0.9638
5.1063 -7.2638 -2.4982 0.9638
6.3132 -6.2432 -2.4981 0.9638
6.8437 -5.6565 -2.4981 0.9638
7.7381 -4.3534 -2.4981 0.9638
8.3873 -2.9124 -2.4980 0.9638
8.7708 -1.3791 -2.4980 0.9638
8.8236 0.9871 -2.4981 0.9638
7.9898 2.3813 -2.3457 0.9659
7.7462 3.0830 -2.3457 0.9659
7.4412 3.7602 -2.3457 0.9659
7.0770 4.4076 -2.3458 0.9659
6.6567 5.0200 -2.3458 0.9659
6.1835 5.5927 -2.3458 0.9659
4.4864 7.0279 -2.3459 0.9659
2.4704 7.9638 -2.3460 0.9659
0.2786 8.3339 -2.3461 0.9659
-0.4642 8.3257 -2.3461 0.9659
-1.9331 8.1118 -2.3462 0.9659
-2.6475 7.9076 -2.3462 0.9659
-4.0077 7.3131 -2.3463 0.9659
-5.2409 6.4868 -2.3463 0.9659
-5.7976 5.9946 -2.3464 0.9659
-7.6416 4.5261 -2.4988 0.9638
-8.0142 3.8281 -2.4989 0.9638
-8.3231 3.0996 -2.4989 0.9638
-8.5660 2.3465 -2.4989 0.9638
-8.7408 1.5747 -2.4989 0.9638
-8.8463 0.7905 -2.4989 0.9638
-3.9677 0.0000 -1.1878 0.9836
-3.5918 -0.3210 -1.0796 0.9851
-3.4798 -0.6269 -1.0586 0.9853
-7.8218 -2.9129 -2.4988 0.9657
-7.5315 -3.5975 -2.4988 0.9658
-6.3132 -5.4592 -2.4987 0.9658
-5.8022 -5.9995 -2.4987 0.9658
-5.2451 -6.4920 -2.4987 0.9658
-4.6464 -6.9330 -2.4986 0.9658
-4.0109 -7.3189 -2.4986 0.9658
-1.2044 -8.2580 -2.4985 0.9658
0.2789 -8.3405 -2.4984 0.9658
1.0201 -8.2825 -2.4984 0.9658
1.7532 -8.1587 -2.4983 0.9658
3.8463 -7.4054 -2.4982 0.9658
5.0982 -6.6059 -2.4982 0.9658
5.6659 -6.1259 -2.4982 0.9658
6.1886 -5.5972 -2.4981 0.9658
6.6622 -5.0241 -2.4981 0.9658
7.0829 -4.4112 -2.4981 0.9658
7.7527 -3.0855 -2.4981 0.9658
7.9966 -2.3832 -2.4981 0.9658
8.1769 -1.6620 -2.4981 0.9658
8.2924 -0.9276 -2.4981 0.9658
8.3421 -0.1859 -2.4981 0.9658
8.3255 0.5574 -2.4981 0.9658
12.1448 3.0377 -3.7479 0.9491
7.4018 2.5702 -2.3457 0.9678
7.1437 3.2188 -2.3457 0.9678
5.5714 5.5097 -2.3458 0.9678
4.5064 6.4104 -2.3459 0.9678
3.9180 6.7861 -2.3459 0.9678
1.9860 7.5804 -2.3460 0.9678
-0.7844 7.7973 -2.3461 0.9678
-2.1545 7.5349 -2.3462 0.9678
-2.8167 7.3134 -2.3462 0.9678
-3.4565 7.0337 -2.3463 0.9678
-4.6489 6.3096 -2.3463 0.9678
-5.1921 5.8708 -2.3463 0.9678
-5.6940 5.3854 -2.3464 0.9678
-6.1508 4.8573 -2.3464 0.9678
-7.3638 3.9295 -2.4988 0.9657
-8.1404 1.8444 -2.4989 0.9657
-8.2723 1.1126 -2.4989 0.9657
-3.6646 -0.1634 -1.0982 0.9848
-3.5144 -0.4727 -1.0616 0.9853
-7.6843 -3.2584 -2.4988 0.9657
-7.3637 -3.9294 -2.4988 0.9658
-6.0638 -5.7351 -2.4987 0.9658
-4.3330 -7.1330 -2.4986 0.9658
-2.9995 -7.7880 -2.4985 0.9658
-1.5711 -8.1962 -2.4985 0.9658
-0.8353 -8.3035 -2.4984 0.9658
2.1149 -8.0725 -2.4983 0.9658
3.5126 -7.5694 -2.4982 0.9658
4.1723 -7.2266 -2.4982 0.9658
6.8794 -4.7224 -2.4981 0.9658
7.8825 -2.7371 -2.4981 0.9658
8.0948 -2.0246 -2.4981 0.9658
8.2428 -1.2961 -2.4981 0.9658
12.2680 2.4936 -3.7479 0.9491
11.9975 3.5756 -3.7479 0.9491
6.6510 4.1423 -2.3458 0.9678
6.2560 4.7179 -2.3458 0.9678
5.8113 5.2560 -2.3458 0.9678
5.3205 5.7525 -2.3458 0.9678
4.7874 6.2033 -2.3459 0.9678
4.2164 6.6048 -2.3459 0.9678
3.6118 6.9540 -2.3459 0.9678
2.3217 7.4844 -2.3460 0.9678
0.2619 7.8322 -2.3461 0.9678
-2.4881 7.4315 -2.3462 0.9678
-3.7664 6.8728 -2.3463 0.9678
-4.9254 6.0962 -2.3463 0.9678
-5.4485 5.6337 -2.3464 0.9678
-5.9283 5.1264 -2.3464 0.9678
-6.6048 4.7538 -2.4363 0.9666
-7.8219 2.9130 -2.4988 0.9657
-3.7563 0.0000 -1.1929 0.9844
-3.2843 -0.5917 -1.0598 0.9861
-3.2540 -0.8914 -1.0715 0.9859
-7.0997 -3.3912 -2.4988 0.9675
-6.7696 -4.0096 -2.4988 0.9675
-6.3858 -4.5962 -2.4987 0.9675
-5.4696 -5.6555 -2.4987 0.9675
-4.3801 -6.5355 -2.4986 0.9675
-3.1518 -7.2084 -2.4986 0.9675
-2.4977 -7.4603 -2.4985 0.9675
-1.8238 -7.6528 -2.4985 0.9675
-0.4380 -7.8547 -2.4984 0.9675
0.2629 -7.8625 -2.4984 0.9675
0.9616 -7.8078 -2.4984 0.9675
1.6527 -7.6911 -2.4983 0.9675
2.9901 -7.2760 -2.4983 0.9675
3.6258 -6.9809 -2.4982 0.9675
7.8171 -0.8745 -2.4981 0.9675
7.8640 -0.1752 -2.4981 0.9675
6.7342 3.0343 -2.3458 0.9695
6.4375 3.6217 -2.3458 0.9695
6.0896 4.1803 -2.3458 0.9695
4.7690 5.6408 -2.3459 0.9695
3.6934 6.3972 -2.3459 0.9695
3.1094 6.7006 -2.3460 0.9695
1.8721 7.1459 -2.3460 0.9695
-0.0823 7.3869 -2.3461 0.9695
-0.7394 7.3504 -2.3461 0.9695
-1.3907 7.2555 -2.3462 0.9695
-2.6552 6.8941 -2.3462 0.9695
-5.8664 4.6326 -2.3739 0.9691
-6.9417 3.7043 -2.4988 0.9675
-7.4885 2.4148 -2.4988 0.9675
-7.6737 1.7387 -2.4988 0.9675
-4.3818 0.1954 -1.3930 0.9818
-5.7161 -5.4063 -2.4987 0.9675
-4.6669 -6.3339 -2.4986 0.9675
-4.0846 -6.7241 -2.4986 0.9675
-2.8276 -7.3416 -2.4985 0.9675
-0.0876 -7.8664 -2.4984 0.9675
1.3085 -7.7571 -2.4983 0.9675
1.9937 -7.6098 -2.4983 0.9675
5.5931 -5.5311 -2.4982 0.9675
6.8555 -3.8568 -2.4981 0.9675
7.1716 -3.2313 -2.4981 0.9675
7.4307 -2.5802 -2.4981 0.9675
7.6308 -1.9086 -2.4981 0.9675
7.7704 -1.2218 -2.4981 0.9675
7.8483 -0.5253 -2.4981 0.9675
7.8640 0.1753 -2.4981 0.9675
6.8627 2.7313 -2.3458 0.9695
6.5924 3.3313 -2.3458 0.9695
5.4782 4.9548 -2.3458 0.9695
5.0155 5.4228 -2.3459 0.9695
4.5130 5.8477 -2.3459 0.9695
3.9747 6.2263 -2.3459 0.9695
2.8078 6.8325 -2.3460 0.9695
1.5520 7.2223 -2.3460 0.9695
-0.4113 7.3760 -2.3461 0.9695
-1.0662 7.3102 -2.3462 0.9695
-2.9597 6.7690 -2.3462 0.9695
-3.5505 6.4788 -2.3463 0.9695
-4.1131 6.1371 -2.3463 0.9695
-4.6430 5.7468 -2.3463 0.9695
-5.1361 5.3107 -2.3463 0.9695
-7.7436 1.3951 -2.4988 0.9675
-3.6184 0.0000 -1.2157 0.9848
-6.7109 -3.2055 -2.4988 0.9691
-6.0361 -4.3445 -2.4987 0.9691
-5.6254 -4.8645 -2.4987 0.9691
-5.1701 -5.3458 -2.4987 0.9691
-4.6737 -5.7847 -2.4986 0.9691
-3.5739 -6.5216 -2.4986 0.9691
-2.9792 -6.8137 -2.4986 0.9691
-2.3609 -7.0517 -2.4985 0.9691
-1.7239 -7.2338 -2.4985 0.9691
-1.0732 -7.3585 -2.4985 0.9691
0.2485 -7.4319 -2.4984 0.9691
2.8264 -6.8776 -2.4983 0.9691
3.4273 -6.5987 -2.4983 0.9691
4.0010 -6.2673 -2.4982 0.9691
5.0487 -5.4586 -2.4982 0.9691
6.3114 -3.9307 -2.4981 0.9691
6.6361 -3.3534 -2.4981 0.9691
6.9083 -2.7494 -2.4981 0.9691
7.1255 -2.1236 -2.4981 0.9691
7.3892 -0.8266 -2.4981 0.9691
7.4187 0.4967 -2.4981 0.9691
7.2131 1.8042 -2.4981 0.9691
10.5381 3.6592 -3.7480 0.9540
6.0850 3.4234 -2.3458 0.9710
5.3817 4.4481 -2.3458 0.9710
4.9645 4.9096 -2.3459 0.9710
4.0155 5.7121 -2.3459 0.9710
3.4912 6.0469 -2.3459 0.9710
2.9391 6.3337 -2.3460 0.9710
-0.0778 6.9824 -2.3461 0.9710
-0.6990 6.9479 -2.3461 0.9710
-1.3146 6.8582 -2.3462 0.9710
-1.9198 6.7140 -2.3462 0.9710
-2.5098 6.5166 -2.3462 0.9710
-4.1424 5.6221 -2.3463 0.9710
-4.6264 5.2312 -2.3463 0.9710
-5.0737 4.7987 -2.3463 0.9710
-6.2238 4.0715 -2.4988 0.9691
-7.0784 2.2825 -2.4988 0.9691
-7.3710 0.9913 -2.4988 0.9691
-4.1559 0.1853 -1.3977 0.9826
-3.1639 -0.4255 -1.0726 0.9866
-4.4113 -5.9871 -2.4986 0.9691
2.5172 -6.9967 -2.4983 0.9691
3.1300 -6.7448 -2.4983 0.9691
4.2762 -6.0829 -2.4982 0.9691
4.8006 -5.6781 -2.4982 0.9691
5.2869 -5.2283 -2.4982 0.9691
5.7312 -4.7369 -2.4982 0.9691
6.4802 -3.6456 -2.4981 0.9691
6.7789 -3.0544 -2.4981 0.9691
7.0239 -2.4389 -2.4981 0.9691
7.3450 -1.1549 -2.4981 0.9691
7.4186 -0.4966 -2.4981 0.9691
7.2863 1.4810 -2.4981 0.9691
10.6906 3.1861 -3.7480 0.9540
6.4870 2.5818 -2.3458 0.9710
6.2315 3.1489 -2.3458 0.9710
5.9265 3.6911 -2.3458 0.9710
5.1783 4.6835 -2.3458 0.9710
4.7409 5.1258 -2.3459 0.9710
4.2659 5.5275 -2.3459 0.9710
3.7571 5.8854 -2.3459 0.9710
2.6541 6.4584 -2.3460 0.9710
2.0688 6.6691 -2.3460 0.9710
1.4670 6.8268 -2.3460 0.9710
0.8536 6.9304 -2.3461 0.9710
0.2333 6.9789 -2.3461 0.9710
-1.0078 6.9099 -2.3462 0.9710
-1.6188 6.7928 -2.3462 0.9710
-2.7976 6.3984 -2.3462 0.9710
-3.3560 6.1240 -2.3463 0.9710
-3.8878 5.8011 -2.3463 0.9710
-4.8549 5.0199 -2.3463 0.9710
-5.2825 4.5679 -2.3463 0.9710
-6.0362 4.3446 -2.4988 0.9691
-6.9697 2.5956 -2.4988 0.9691
-7.1731 1.9649 -2.4988 0.9691
-7.3195 1.3187 -2.4988 0.9691
-7.4078 0.6620 -2.4988 0.9691
-3.0442 -0.5484 -1.0968 0.9870
-3.0314 -1.1289 -1.1470 0.9864
-6.0631 -3.5912 -2.4987 0.9705
-5.3302 -4.6092 -2.4987 0.9705
-3.3864 -6.1794 -2.4986 0.9705
-2.2371 -6.6817 -2.4985 0.9705
-1.6334 -6.8542 -2.4985 0.9705
-1.0169 -6.9723 -2.4985 0.9705
-0.3923 -7.0351 -2.4984 0.9705
0.2354 -7.0420 -2.4984 0.9705
1.4803 -6.8885 -2.4983 0.9705
2.0875 -6.7294 -2.4983 0.9705
2.6781 -6.5168 -2.4983 0.9705
4.3046 -5.5775 -2.4982 0.9705
5.2252 -4.7259 -2.4982 0.9705
5.9803 -3.7245 -2.4982 0.9705
6.2880 -3.1774 -2.4981 0.9705
6.9040 -1.4033 -2.4981 0.9705
7.0434 -0.1569 -2.4981 0.9705
7.0295 0.4706 -2.4981 0.9705
6.9597 1.0944 -2.4981 0.9705
6.0316 2.7178 -2.3458 0.9723
5.7658 3.2438 -2.3458 0.9723
4.2714 5.0522 -2.3459 0.9723
0.5154 6.5963 -2.3461 0.9723
-1.2456 6.4983 -2.3462 0.9723
-1.8191 6.3618 -2.3462 0.9723
-2.3781 6.1747 -2.3462 0.9723
-3.4353 5.6553 -2.3463 0.9723
-3.9250 5.3271 -2.3463 0.9723
-4.3836 4.9567 -2.3463 0.9723
-4.8074 4.5469 -2.3463 0.9723
-5.5304 4.3674 -2.4987 0.9705
-5.8972 3.8578 -2.4988 0.9705
-6.2172 3.3176 -2.4988 0.9705
-6.4878 2.7511 -2.4988 0.9705
-6.7070 2.1628 -2.4988 0.9705
-6.8729 1.5572 -2.4988 0.9705
-3.9464 0.1760 -1.4007 0.9834
-3.1623 -0.1410 -1.1224 0.9867
-3.0241 -0.6852 -1.0995 0.9869
-3.0191 -0.9735 -1.1248 0.9866
-6.4878 -2.7510 -2.4987 0.9705
-6.2171 -3.3176 -2.4987 0.9705
-5.8971 -3.8577 -2.4987 0.9705
-5.5303 -4.3672 -2.4987 0.9705
-5.1196 -4.8421 -2.4987 0.9705
-3.1077 -6.3241 -2.4986 0.9705
-2.5325 -6.5755 -2.4985 0.9705
-1.9372 -6.7747 -2.4985 0.9705
1.7856 -6.8157 -2.4983 0.9705
2.3852 -6.6296 -2.4983 0.9705
4.5487 -5.3802 -2.4982 0.9705
5.4305 -4.4884 -2.4982 0.9705
5.8084 -3.9872 -2.4982 0.9705
6.8347 -1.7094 -2.4981 0.9705
6.9597 -1.0943 -2.4981 0.9705
7.0295 -0.4705 -2.4981 0.9705
7.0435 0.1570 -2.4981 0.9705
7.0016 0.7833 -2.4981 0.9705
10.1298 3.0190 -3.7480 0.9561
9.8209 3.9087 -3.7480 0.9561
5.6156 3.4975 -2.3458 0.9723
4.9066 4.4378 -2.3459 0.9723
4.4922 4.8569 -2.3459 0.9723
4.0421 5.2375 -2.3459 0.9723
3.0495 5.8714 -2.3460 0.9723
1.9602 6.3192 -2.3460 0.9723
-2.1007 6.2744 -2.3462 0.9723
-3.1799 5.8027 -2.3462 0.9723
-4.1585 5.1470 -2.3463 0.9723
-5.2053 4.5012 -2.4401 0.9712
-5.7195 4.1167 -2.4988 0.9705
-6.0632 3.5913 -2.4988 0.9705
-6.3589 3.0374 -2.4988 0.9705
-3.3741 -0.0000 -1.2599 0.9857
-2.9938 -0.2675 -1.1224 0.9872
-2.9455 -0.5306 -1.1176 0.9873
-2.9169 -0.7990 -1.1293 0.9872
-6.0381 -2.8842 -2.4987 0.9718
-5.0615 -4.3768 -2.4987 0.9718
-4.6518 -4.8099 -2.4986 0.9718
-4.2052 -5.2048 -2.4986 0.9718
-0.9656 -6.6208 -2.4985 0.9718
0.8179 -6.6405 -2.4984 0.9718
1.4056 -6.5413 -2.4984 0.9718
3.6000 -5.6392 -2.4983 0.9718
4.0876 -5.2964 -2.4982 0.9718
4.9618 -4.4876 -2.4982 0.9718
5.3415 -4.0282 -2.4982 0.9718
6.2159 -2.4738 -2.4982 0.9718
6.4114 -1.9108 -2.4981 0.9718
6.5560 -1.3325 -2.4981 0.9718
6.6486 -0.7437 -2.4981 0.9718
6.6884 -0.1490 -2.4981 0.9718
6.6751 0.4469 -2.4981 0.9718
9.1513 4.1234 -3.7481 0.9580
5.4751 3.0803 -2.3458 0.9735
3.1412 5.4408 -2.3459 0.9735
1.0450 6.1953 -2.3461 0.9735
0.4895 6.2638 -2.3461 0.9735
-0.0700 6.2826 -2.3461 0.9735
-3.2621 5.3702 -2.3462 0.9735
-3.7271 5.0586 -2.3463 0.9735
-4.1626 4.7068 -2.3463 0.9735
-5.2516 4.1471 -2.4987 0.9718
-5.5999 3.6633 -2.4987 0.9718
-6.3688 2.0537 -2.4988 0.9718
-6.5263 1.4787 -2.4988 0.9718
-3.7910 0.1690 -1.4170 0.9839
-3.0833 -0.1375 -1.1525 0.9869
-2.9640 -0.3986 -1.1167 0.9873
-2.9106 -0.9386 -1.1419 0.9870
-6.1606 -2.6123 -2.4987 0.9718
-5.9037 -3.1503 -2.4987 0.9718
-5.5998 -3.6632 -2.4987 0.9718
-4.4329 -5.0123 -2.4986 0.9718
-3.9691 -5.3870 -2.4986 0.9718
-2.9511 -6.0052 -2.4986 0.9718
-2.4048 -6.2440 -2.4985 0.9718
-1.2596 -6.5713 -2.4985 0.9718
-0.0745 -6.6904 -2.4984 0.9718
0.5212 -6.6704 -2.4984 0.9718
1.1129 -6.5974 -2.4984 0.9718
1.6956 -6.4721 -2.4983 0.9718
2.8162 -6.0688 -2.4983 0.9718
3.3452 -5.7940 -2.4983 0.9718
3.8476 -5.4732 -2.4982 0.9718
4.3194 -5.1090 -2.4982 0.9718
4.7570 -4.7042 -2.4982 0.9718
5.1568 -4.2622 -2.4982 0.9718
5.5157 -3.7862 -2.4982 0.9718
5.8307 -3.2803 -2.4982 0.9718
6.0995 -2.7483 -2.4982 0.9718
6.4902 -1.6232 -2.4981 0.9718
6.6751 -0.4468 -2.4981 0.9718
6.6884 0.1491 -2.4981 0.9718
6.6486 0.7438 -2.4982 0.9718
6.4115 1.9109 -2.4982 0.9718
5.3325 3.3212 -2.3458 0.9735
5.0158 3.7826 -2.3458 0.9735
4.2657 4.6121 -2.3459 0.9735
3.8383 4.9735 -2.3459 0.9735
3.3805 5.2954 -2.3459 0.9735
2.3881 5.8110 -2.3460 0.9735
1.8614 6.0006 -2.3460 0.9735
0.2100 6.2794 -2.3461 0.9735
-0.9068 6.2173 -2.3461 0.9735
-1.4565 6.1120 -2.3462 0.9735
-3.0196 5.5101 -2.3462 0.9735
-3.4981 5.2196 -2.3463 0.9735
-6.0382 2.8842 -2.4988 0.9718
-6.2710 2.3354 -2.4988 0.9718
-6.4540 1.7680 -2.4988 0.9718
-2.8518 -0.5138 -1.1373 0.9876
-2.8313 -0.7756 -1.1521 0.9875
-5.1673 -3.7192 -2.4987 0.9730
-4.8157 -4.1642 -2.4987 0.9730
-4.4259 -4.5763 -2.4986 0.9730
-4.0010 -4.9520 -2.4986 0.9730
-2.5504 -5.8329 -2.4985 0.9730
0.2127 -6.3623 -2.4984 0.9730
1.3374 -6.2236 -2.4984 0.9730
1.8860 -6.0798 -2.4983 0.9730
2.9340 -5.6490 -2.4983 0.9730
3.4252 -5.3654 -2.4983 0.9730
5.0821 -3.8326 -2.4982 0.9730
5.4031 -3.3650 -2.4982 0.9730
5.9141 -2.3537 -2.4982 0.9730
6.1001 -1.8180 -2.4982 0.9730
6.2377 -1.2678 -2.4982 0.9730
6.3258 -0.7076 -2.4982 0.9730
6.2880 0.9888 -2.4982 0.9730
6.1751 1.5445 -2.4982 0.9730
9.0215 3.1326 -3.7481 0.9598
8.7069 3.9232 -3.7481 0.9598
4.9278 3.3828 -2.3459 0.9746
3.4375 4.8900 -2.3459 0.9746
2.9887 5.1766 -2.3460 0.9746
2.5161 5.4221 -2.3460 0.9746
1.5149 5.7825 -2.3460 0.9746
0.9943 5.8944 -2.3461 0.9746
0.4657 5.9596 -2.3461 0.9746
-0.0666 5.9774 -2.3461 0.9746
-0.5983 5.9479 -2.3461 0.9746
-1.1254 5.8710 -2.3462 0.9746
-2.1485 5.5786 -2.3462 0.9746
-3.5461 4.8129 -2.3463 0.9746
-4.6255 4.3748 -2.4987 0.9730
-5.6170 2.9974 -2.4987 0.9730
-5.8615 2.4855 -2.4988 0.9730
-6.0595 1.9540 -2.4988 0.9730
-6.2094 1.4069 -2.4988 0.9730
-6.3099 0.8486 -2.4988 0.9730
-3.6457 0.1626 -1.4322 0.9844
-3.0071 -0.1341 -1.1814 0.9871
-2.8734 -0.3864 -1.1379 0.9876
-2.8326 -0.6418 -1.1399 0.9876
-2.8403 -0.9159 -1.1712 0.9873
-5.6169 -2.9972 -2.4987 0.9730
-5.3278 -3.4853 -2.4987 0.9730
-4.9964 -3.9456 -2.4987 0.9730
-3.3052 -5.4410 -2.4986 0.9730
-1.7502 -6.1207 -2.4985 0.9730
-1.1984 -6.2522 -2.4985 0.9730
-0.0709 -6.3654 -2.4984 0.9730
2.1549 -5.9898 -2.4983 0.9730
2.6795 -5.7741 -2.4983 0.9730
3.1828 -5.5127 -2.4983 0.9730
4.1097 -4.8609 -2.4982 0.9730
5.5476 -3.1210 -2.4982 0.9730
5.8033 -2.6148 -2.4982 0.9730
6.1750 -1.5444 -2.4982 0.9730
6.2879 -0.9887 -2.4982 0.9730
6.3510 -0.4251 -2.4982 0.9730
6.3636 0.1419 -2.4982 0.9730
6.2377 1.2679 -2.4982 0.9730
8.5236 4.3071 -3.7481 0.9598
4.7722 3.5989 -2.3459 0.9746
4.4330 4.0094 -2.3459 0.9746
4.0586 4.3882 -2.3459 0.9746
2.7552 5.3046 -2.3460 0.9746
2.2721 5.5289 -2.3460 0.9746
1.7710 5.7092 -2.3460 0.9746
-0.8627 5.9153 -2.3461 0.9746
-1.8979 5.6687 -2.3462 0.9746
-2.3949 5.4774 -2.3462 0.9746
-3.3282 4.9661 -2.3462 0.9746
-4.1900 4.3325 -2.3655 0.9744
-4.8158 4.1644 -2.4987 0.9730
-6.1405 1.6821 -2.4988 0.9730
-4.1298 0.3690 -1.6273 0.9823
-3.1614 0.0000 -1.3018 0.9864
-2.8130 -0.2514 -1.1629 0.9879
-2.7831 -0.5014 -1.1645 0.9878
-2.7695 -0.7587 -1.1825 0.9877
-2.7842 -1.0369 -1.2234 0.9872
-5.4754 -2.6154 -2.4987 0.9741
-5.2209 -3.0923 -2.4987 0.9741
-4.5898 -3.9690 -2.4986 0.9741
-3.3781 -5.0404 -2.4986 0.9741
-2.4308 -5.5594 -2.4985 0.9741
-0.8756 -6.0039 -2.4985 0.9741
1.7976 -5.7947 -2.4983 0.9741
3.7067 -4.8029 -2.4983 0.9741
5.4147 -2.7362 -2.4982 0.9741
5.8855 1.4721 -2.4982 0.9741
8.2987 3.7392 -3.7481 0.9614
4.6967 3.2241 -2.3459 0.9757
4.3912 3.6294 -2.3459 0.9757
3.6781 4.3505 -2.3459 0.9757
3.2764 4.6607 -2.3459 0.9757
2.8485 4.9338 -2.3460 0.9757
2.3981 5.1679 -2.3460 0.9757
0.9476 5.6180 -2.3461 0.9757
0.4439 5.6801 -2.3461 0.9757
-0.0635 5.6971 -2.3461 0.9757
-0.5703 5.6689 -2.3461 0.9757
-1.0726 5.5957 -2.3461 0.9757
-2.0478 5.3170 -2.3462 0.9757
-2.9581 4.8697 -2.3462 0.9757
-3.3798 4.5872 -2.3462 0.9757
-3.7784 4.2723 -2.3485 0.9756
-4.4085 4.1696 -2.4987 0.9741
-4.7622 3.7607 -2.4987 0.9741
-5.0780 3.3219 -2.4987 0.9741
-5.5866 2.3690 -2.4987 0.9741
-2.9337 -0.1308 -1.2093 0.9874
-2.7946 -0.3758 -1.1611 0.9879
-2.7775 -0.8956 -1.2017 0.9875
-5.0779 -3.3218 -2.4987 0.9741
-4.7621 -3.7605 -2.4987 0.9741
-3.5993 -4.8849 -2.4986 0.9741
-3.1502 -5.1858 -2.4986 0.9741
-2.6761 -5.4456 -2.4985 0.9741
-2.1807 -5.6621 -2.4985 0.9741
-1.6681 -5.8337 -2.4985 0.9741
-0.0676 -6.0670 -2.4984 0.9741
0.4727 -6.0488 -2.4984 0.9741
1.0092 -5.9827 -2.4984 0.9741
3.4891 -4.9633 -2.4983 0.9741
4.3138 -4.2660 -2.4982 0.9741
5.2875 -2.9746 -2.4982 0.9741
5.5312 -2.4922 -2.4982 0.9741
5.8855 -1.4720 -2.4982 0.9741
6.0532 -0.4052 -2.4982 0.9741
8.4570 3.3658 -3.7481 0.9614
4.5485 3.4302 -2.3459 0.9757
4.2251 3.8215 -2.3459 0.9757
3.0655 4.8020 -2.3459 0.9757
1.6880 5.4415 -2.3460 0.9757
1.1970 5.5702 -2.3460 0.9757
0.6964 5.6546 -2.3461 0.9757
0.1904 5.6943 -2.3461 0.9757
-0.3172 5.6887 -2.3461 0.9757
-1.8089 5.4029 -2.3462 0.9757
-2.7382 4.9966 -2.3462 0.9757
-3.1721 4.7331 -2.3462 0.9757
-4.1673 4.3090 -2.4684 0.9744
-4.5899 3.9691 -2.4987 0.9741
-4.9250 3.5448 -2.4987 0.9741
-5.2210 3.0924 -2.4987 0.9741
-3.0794 0.0000 -1.3283 0.9867
-2.7539 -0.2461 -1.1927 0.9880
-2.7278 -0.4914 -1.1956 0.9880
-2.7092 -0.7421 -1.2117 0.9878
-2.7209 -1.0133 -1.2524 0.9874
-4.7014 -3.3839 -2.4987 0.9751
-4.0269 -4.1637 -2.4986 0.9751
-3.2248 -4.8117 -2.4986 0.9751
-1.8389 -5.4925 -2.4985 0.9751
0.1935 -5.7887 -2.4984 0.9751
0.7080 -5.7484 -2.4984 0.9751
1.7160 -5.5318 -2.4983 0.9751
2.2015 -5.3570 -2.4983 0.9751
3.5385 -4.5849 -2.4983 0.9751
3.9325 -4.2518 -2.4982 0.9751
4.6240 -3.4871 -2.4982 0.9751
5.1690 -2.6120 -2.4982 0.9751
5.5502 -1.6541 -2.4982 0.9751
5.7556 -0.6438 -2.4982 0.9751
5.7900 -0.1290 -2.4982 0.9751
5.7785 0.3869 -2.4982 0.9751
5.6184 1.4053 -2.4982 0.9751
5.4711 1.8998 -2.4982 0.9751
7.9220 3.5696 -3.7481 0.9629
7.5730 4.2605 -3.7481 0.9629
4.4836 3.0778 -2.3459 0.9766
4.1919 3.4647 -2.3459 0.9766
3.8669 3.8241 -2.3459 0.9766
3.1277 4.4492 -2.3459 0.9766
2.7193 4.7100 -2.3460 0.9766
1.8411 5.1176 -2.3460 0.9766
0.9046 5.3630 -2.3461 0.9766
-0.0606 5.4386 -2.3461 0.9766
-0.5444 5.4116 -2.3461 0.9766
-1.4953 5.2295 -2.3462 0.9766
-2.8238 4.6487 -2.3462 0.9766
-4.2085 3.9804 -2.4987 0.9751
-5.1106 2.7271 -2.4987 0.9751
-5.3330 2.2614 -2.4987 0.9751
-5.5132 1.7778 -2.4987 0.9751
-5.6495 1.2801 -2.4987 0.9751
-3.3812 0.1508 -1.4599 0.9854
-2.8614 -0.1276 -1.2355 0.9876
-2.7200 -0.6163 -1.2030 0.9879
-2.7334 -1.1590 -1.2807 0.9871
-4.8475 -3.1710 -2.4987 0.9751
-3.8374 -4.3390 -2.4986 0.9751
-3.4359 -4.6632 -2.4986 0.9751
-2.5546 -5.1985 -2.4985 0.9751
-1.0904 -5.6885 -2.4985 0.9751
-0.5798 -5.7629 -2.4984 0.9751
-0.0645 -5.7916 -2.4984 0.9751
2.4379 -5.2536 -2.4983 0.9751
3.3308 -4.7381 -2.4983 0.9751
4.7748 -3.2776 -2.4982 0.9751
5.2802 -2.3791 -2.4982 0.9751
5.4710 -1.8997 -2.4982 0.9751
5.6184 -1.4052 -2.4982 0.9751
5.7900 0.1291 -2.4982 0.9751
5.7556 0.6439 -2.4982 0.9751
5.6754 1.1536 -2.4982 0.9751
7.7552 3.9189 -3.7481 0.9629
4.3421 3.2745 -2.3459 0.9766
4.0334 3.6480 -2.3459 0.9766
3.3228 4.3054 -2.3459 0.9766
2.9264 4.5841 -2.3460 0.9766
2.0673 5.0304 -2.3460 0.9766
0.6648 5.3981 -2.3461 0.9766
-1.7268 5.1577 -2.3462 0.9766
-2.1790 4.9836 -2.3462 0.9766
-3.0281 4.5183 -2.3462 0.9766
-4.3816 3.7889 -2.4987 0.9751
-4.9840 2.9521 -2.4987 0.9751
-5.4285 2.0216 -2.4987 0.9751
-5.5869 1.5305 -2.4987 0.9751
-5.7009 1.0271 -2.4987 0.9751
-2.6607 -0.9909 -1.2811 0.9876
-2.6666 -1.2737 -1.3334 0.9871
-2.6867 -1.5913 -1.4090 0.9864
-4.4944 -3.2349 -2.4986 0.9760
-4.1887 -3.6221 -2.4986 0.9760
-3.8496 -3.9804 -2.4986 0.9760
-3.4800 -4.3073 -2.4986 0.9760
-3.0828 -4.5999 -2.4986 0.9760
-2.2184 -5.0735 -2.4985 0.9760
-1.7580 -5.2507 -2.4985 0.9760
-1.2836 -5.3863 -2.4985 0.9760
-0.7991 -5.4792 -2.4985 0.9760
-0.3083 -5.5285 -2.4984 0.9760
0.6768 -5.4954 -2.4984 0.9760
1.1633 -5.4133 -2.4984 0.9760
3.7595 -4.0646 -2.4983 0.9760
4.6997 -2.9270 -2.4982 0.9760
4.9415 -2.4970 -2.4982 0.9760
5.3060 -1.5813 -2.4982 0.9760
5.5352 -0.1233 -2.4982 0.9760
5.5242 0.3698 -2.4982 0.9760
7.5734 3.4125 -3.7481 0.9642
6.8485 4.7012 -3.7482 0.9642
3.6967 3.6558 -2.3459 0.9774
3.3567 3.9703 -2.3459 0.9774
2.9900 4.2534 -2.3459 0.9774
2.1885 4.7162 -2.3460 0.9774
1.3177 5.0296 -2.3460 0.9774
-0.5204 5.1735 -2.3461 0.9774
-1.8688 4.8523 -2.3462 0.9774
-2.2933 4.6667 -2.3462 0.9774
-2.6996 4.4441 -2.3462 0.9774
-5.0983 2.1619 -2.4987 0.9760
-5.2705 1.6995 -2.4987 0.9760
-5.4008 1.2237 -2.4987 0.9760
-3.2609 0.1454 -1.4728 0.9858
-2.7833 -0.1241 -1.2571 0.9878
-2.6871 -0.3614 -1.2234 0.9882
-4.8856 -2.6070 -2.4987 0.9760
-4.6341 -3.0314 -2.4987 0.9760
-3.6685 -4.1480 -2.4986 0.9760
-3.2847 -4.4580 -2.4986 0.9760
-2.8748 -4.7326 -2.4986 0.9760
-1.5223 -5.3238 -2.4985 0.9760
-1.0424 -5.4382 -2.4985 0.9760
0.4314 -5.5202 -2.4984 0.9760
0.9210 -5.4598 -2.4984 0.9760
1.8744 -5.2099 -2.4983 0.9760
2.3307 -5.0224 -2.4983 0.9760
2.7684 -4.7950 -2.4983 0.9760
3.1842 -4.5295 -2.4983 0.9760
3.9368 -3.8931 -2.4982 0.9760
4.5646 -3.1334 -2.4982 0.9760
5.0479 -2.2744 -2.4982 0.9760
5.2302 -1.8161 -2.4982 0.9760
5.3711 -1.3434 -2.4982 0.9760
5.4694 -0.8600 -2.4982 0.9760
5.5352 0.1234 -2.4982 0.9760
5.5023 0.6155 -2.4982 0.9760
5.4257 1.1029 -2.4982 0.9760
7.0511 4.3915 -3.7482 0.9642
4.1510 3.1304 -2.3459 0.9774
3.8559 3.4875 -2.3459 0.9774
3.5302 3.8169 -2.3459 0.9774
3.1765 4.1160 -2.3459 0.9774
2.3965 4.6140 -2.3460 0.9774
-2.0831 4.7642 -2.3462 0.9774
-2.8949 4.3195 -2.3462 0.9774
-3.8497 3.9806 -2.4987 0.9760
-4.1887 3.6222 -2.4987 0.9760
-4.4945 3.2350 -2.4987 0.9760
-4.9969 2.3869 -2.4987 0.9760
-3.7667 0.3366 -1.7064 0.9835
-2.9112 0.0000 -1.3723 0.9872
-2.6016 -0.7127 -1.2715 0.9881
-2.6023 -0.9691 -1.3090 0.9878
-2.6052 -1.2444 -1.3609 0.9873
-4.0095 -3.4671 -2.4986 0.9768
-3.3312 -4.1230 -2.4986 0.9768
-2.9510 -4.4031 -2.4986 0.9768
-1.6828 -5.0262 -2.4985 0.9768
-1.2287 -5.1560 -2.4985 0.9768
0.1771 -5.2973 -2.4984 0.9768
2.4429 -4.7035 -2.4983 0.9768
3.2381 -4.1957 -2.4983 0.9768
3.9307 -3.5551 -2.4983 0.9768
4.2315 -3.1911 -2.4982 0.9768
4.4987 -2.8018 -2.4982 0.9768
4.9242 -1.9597 -2.4982 0.9768
5.0791 -1.5137 -2.4982 0.9768
5.2670 -0.5892 -2.4982 0.9768
5.2985 -0.1180 -2.4982 0.9768
5.2880 0.3540 -2.4982 0.9768
5.1415 1.2860 -2.4982 0.9768
4.8321 2.1773 -2.4982 0.9768
6.9301 3.8988 -3.7482 0.9654
6.5556 4.5002 -3.7482 0.9654
3.8360 3.1706 -2.3459 0.9782
3.2132 3.8005 -2.3459 0.9782
2.8621 4.0715 -2.3460 0.9782
2.0950 4.5145 -2.3460 0.9782
1.2613 4.8145 -2.3460 0.9782
0.8278 4.9077 -2.3461 0.9782
0.3877 4.9620 -2.3461 0.9782
-1.3684 4.7855 -2.3462 0.9782
-1.7889 4.6447 -2.3462 0.9782
-2.1952 4.4671 -2.3462 0.9782
-4.4360 2.9019 -2.4987 0.9768
-4.6767 2.4956 -2.4987 0.9768
-2.7082 -0.1208 -1.2778 0.9881
-2.6352 -0.3544 -1.2533 0.9883
-2.6131 -0.5921 -1.2630 0.9882
-2.5994 -0.8382 -1.2874 0.9880
-2.6038 -1.1041 -1.3332 0.9876
-2.5902 -1.3822 -1.3839 0.9871
-4.1600 -3.2851 -2.4986 0.9768
-2.7519 -4.5302 -2.4986 0.9768
-2.3377 -4.7571 -2.4985 0.9768
-1.9050 -4.9463 -2.4985 0.9768
-1.4572 -5.0962 -2.4985 0.9768
-0.9978 -5.2056 -2.4985 0.9768
-0.5305 -5.2737 -2.4985 0.9768
0.4129 -5.2841 -2.4984 0.9768
1.7942 -4.9871 -2.4983 0.9768
2.6500 -4.5899 -2.4983 0.9768
3.4218 -4.0473 -2.4983 0.9768
3.7684 -3.7267 -2.4983 0.9768
4.0851 -3.3764 -2.4982 0.9768
4.6190 -2.5986 -2.4982 0.9768
4.8320 -2.1771 -2.4982 0.9768
5.0791 1.5137 -2.4982 0.9768
7.0969 3.5862 -3.7481 0.9654
6.7495 4.2036 -3.7482 0.9654
6.3486 4.7878 -3.7482 0.9654
3.3792 3.6536 -2.3459 0.9782
3.0407 3.9399 -2.3459 0.9782
2.6780 4.1950 -2.3460 0.9782
2.2940 4.4167 -2.3460 0.9782
1.0456 4.8660 -2.3460 0.9782
0.1663 4.9744 -2.3461 0.9782
-0.2771 4.9695 -2.3461 0.9782
-2.3920 4.3649 -2.3462 0.9782
-3.3313 4.1232 -2.4986 0.9768
-4.3023 3.0966 -2.4987 0.9768
-4.5608 2.7014 -2.4987 0.9768
-4.7832 2.2848 -2.4987 0.9768
-5.1125 1.4005 -2.4987 0.9768
-2.5698 -0.4630 -1.2843 0.9884
-2.5499 -0.6985 -1.3004 0.9883
-2.5453 -0.9479 -1.3359 0.9880
-2.5457 -1.2160 -1.3876 0.9875
-3.8426 -3.3228 -2.4986 0.9776
-3.5315 -3.6516 -2.4986 0.9776
-3.1925 -3.9514 -2.4986 0.9776
-2.8281 -4.2198 -2.4986 0.9776
-2.4413 -4.4547 -2.4985 0.9776
-1.6127 -4.8169 -2.4985 0.9776
-1.1776 -4.9413 -2.4985 0.9776
-0.7331 -5.0265 -2.4985 0.9776
0.1697 -5.0767 -2.4984 0.9776
1.0672 -4.9661 -2.4984 0.9776
1.5049 -4.8514 -2.4984 0.9776
1.9307 -4.6981 -2.4983 0.9776
2.7331 -4.2813 -2.4983 0.9776
3.4489 -3.7289 -2.4983 0.9776
3.7671 -3.4071 -2.4983 0.9776
5.0779 -0.1131 -2.4982 0.9776
5.0176 0.7890 -2.4982 0.9776
4.6309 2.0866 -2.4983 0.9776
6.6416 3.7365 -3.7482 0.9666
6.2827 4.3128 -3.7482 0.9666
3.0794 3.6423 -2.3459 0.9790
2.0077 4.3266 -2.3460 0.9790
1.6147 4.4881 -2.3460 0.9790
1.2088 4.6141 -2.3460 0.9790
0.7934 4.7034 -2.3461 0.9790
-0.8980 4.6847 -2.3461 0.9790
-1.7144 4.4513 -2.3462 0.9790
-2.1038 4.2811 -2.3462 0.9790
-2.4764 4.0769 -2.3462 0.9790
-3.0134 4.0898 -2.4986 0.9776
-3.3654 3.8054 -2.4986 0.9776
-3.9869 3.1484 -2.4987 0.9776
-4.2513 2.7811 -2.4987 0.9776
-4.4819 2.3917 -2.4987 0.9776
-4.6770 1.9833 -2.4987 0.9776
-3.0631 0.1366 -1.5081 0.9864
-2.6467 -0.1180 -1.3031 0.9883
-2.5430 -0.8200 -1.3142 0.9882
-4.2512 -2.7810 -2.4986 0.9776
-3.6907 -3.4906 -2.4986 0.9776
-3.3654 -3.8053 -2.4986 0.9776
-3.0133 -4.0897 -2.4986 0.9776
-2.2404 -4.5590 -2.4985 0.9776
-1.8257 -4.7403 -2.4985 0.9776
-1.3965 -4.8840 -2.4985 0.9776
-0.9563 -4.9889 -2.4985 0.9776
-0.5084 -5.0541 -2.4985 0.9776
-0.0566 -5.0793 -2.4984 0.9776
0.3957 -5.0641 -2.4984 0.9776
0.8449 -5.0087 -2.4984 0.9776
1.2873 -4.9136 -2.4984 0.9776
1.7195 -4.7795 -2.4983 0.9776
2.5397 -4.3988 -2.4983 0.9776
2.9211 -4.1553 -2.4983 0.9776
3.2794 -3.8788 -2.4983 0.9776
3.9151 -3.2359 -2.4983 0.9776
4.4268 -2.4904 -2.4982 0.9776
4.6308 -2.0865 -2.4982 0.9776
4.7982 -1.6661 -2.4982 0.9776
4.9274 -1.2324 -2.4982 0.9776
5.0678 -0.3392 -2.4982 0.9776
5.0477 0.5647 -2.4982 0.9776
4.8677 1.4508 -2.4982 0.9776
4.7192 1.8782 -2.4983 0.9776
6.0843 4.5884 -3.7482 0.9666
3.5373 3.1994 -2.3459 0.9790
2.5665 4.0203 -2.3460 0.9790
2.1985 4.2328 -2.3460 0.9790
1.8130 4.4117 -2.3460 0.9790
1.0021 4.6634 -2.3460 0.9790
0.5831 4.7341 -2.3461 0.9790
0.1594 4.7672 -2.3461 0.9790
-0.2655 4.7625 -2.3461 0.9790
-0.6884 4.7201 -2.3461 0.9790
-1.1058 4.6401 -2.3461 0.9790
-1.5144 4.5233 -2.3462 0.9790
-2.2924 4.1832 -2.3462 0.9790
-2.7215 4.0608 -2.4044 0.9784
-3.5316 3.6517 -2.4986 0.9776
-3.8426 3.3229 -2.4987 0.9776
-4.8997 1.3422 -2.4987 0.9776
-2.7481 0.0000 -1.4089 0.9877
-2.5372 -0.2267 -1.3059 0.9886
-2.4895 -0.9271 -1.3619 0.9881
-3.9557 -2.8471 -2.4986 0.9783
-3.6865 -3.1879 -2.4986 0.9783
-1.5472 -4.6214 -2.4985 0.9783
-1.1298 -4.7407 -2.4985 0.9783
-0.7033 -4.8224 -2.4985 0.9783
0.5957 -4.8367 -2.4984 0.9783
1.0238 -4.7645 -2.4984 0.9783
2.9773 -3.8578 -2.4983 0.9783
3.6141 -3.2687 -2.4983 0.9783
4.3493 -2.1977 -2.4982 0.9783
4.7753 -0.9706 -2.4982 0.9783
4.8139 0.7570 -2.4982 0.9783
4.7274 1.1824 -2.4982 0.9783
4.6034 1.5985 -2.4983 0.9783
6.3720 3.5848 -3.7482 0.9677
3.2536 3.2176 -2.3459 0.9796
2.6316 3.7436 -2.3460 0.9796
1.9262 4.1509 -2.3460 0.9796
1.5491 4.3059 -2.3460 0.9796
1.1598 4.4268 -2.3460 0.9796
0.7611 4.5124 -2.3461 0.9796
0.3565 4.5623 -2.3461 0.9796
-0.0510 4.5760 -2.3461 0.9796
-0.8615 4.4945 -2.3461 0.9796
-1.2581 4.4000 -2.3461 0.9796
-2.0208 4.1110 -2.3482 0.9796
-3.2288 3.6509 -2.4986 0.9783
-3.5409 3.3490 -2.4986 0.9783
-4.0786 2.6681 -2.4987 0.9783
-4.2999 2.2946 -2.4987 0.9783
-4.6387 1.4958 -2.4987 0.9783
-4.8304 0.6497 -2.4987 0.9783
