ply
format ascii 1.0
element vertex 1591
property float32 x
property float32 y
property float32 z
property float32 I
end_header
14.0248 -2.2053 -2.5033 0.9440
13.0629 2.6552 -2.3504 0.9473
12.7740 3.8071 -2.3503 0.9473
11.8949 6.0108 -2.3500 0.9473
11.3117 7.0450 -2.3498 0.9473
9.8813 8.9372 -2.3493 0.9473
9.0457 9.7801 -2.3490 0.9473
7.1665 11.2262 -2.3484 0.9473
6.1381 11.8180 -2.3481 0.9473
5.0612 12.3157 -2.3478 0.9474
2.7966 13.0144 -2.3472 0.9474
1.6269 13.2099 -2.3468 0.9474
0.4447 13.3004 -2.3465 0.9474
-0.7408 13.2854 -2.3462 0.9474
-3.0838 12.9401 -2.3456 0.9474
-8.3554 10.3416 -2.3443 0.9474
-9.2419 9.5561 -2.3441 0.9474
-10.0550 8.6949 -2.3439 0.9474
-10.7883 7.7649 -2.3438 0.9474
-13.2636 4.9395 -2.4956 0.9441
-13.9288 2.5095 -2.4956 0.9441
-12.8979 0.0000 -2.4960 0.9488
-12.4410 -3.4079 -2.4963 0.9488
-11.6412 -5.5605 -2.4966 0.9488
-10.4726 -7.5377 -2.4970 0.9488
-8.1115 -10.0397 -2.4978 0.9488
-7.1865 -10.7230 -2.4980 0.9488
-6.2043 -11.3214 -2.4983 0.9488
-4.0997 -12.2451 -2.4989 0.9487
-2.9939 -12.5630 -2.4993 0.9487
-0.7192 -12.8980 -2.4999 0.9487
0.4317 -12.9125 -2.5002 0.9487
3.8292 -12.3440 -2.5011 0.9487
4.9132 -11.9555 -2.5014 0.9487
5.9584 -11.4719 -2.5016 0.9487
6.9565 -10.8971 -2.5019 0.9487
8.7799 -9.4926 -2.5023 0.9487
11.5433 -5.8330 -2.5028 0.9487
12.3953 -3.6941 -2.5030 0.9487
12.9307 -0.2881 -2.5029 0.9487
11.3780 3.9509 -2.3308 0.9521
10.5819 5.9533 -2.3496 0.9517
10.0092 6.8709 -2.3494 0.9517
9.3570 7.7338 -2.3492 0.9517
8.6307 8.5351 -2.3490 0.9517
7.8359 9.2684 -2.3487 0.9518
6.9791 9.9280 -2.3484 0.9518
6.0671 10.5085 -2.3482 0.9518
5.1071 11.0054 -2.3479 0.9518
4.1068 11.4149 -2.3476 0.9518
2.0173 11.9592 -2.3470 0.9518
-0.1351 12.1244 -2.3464 0.9518
-1.2135 12.0628 -2.3461 0.9518
-3.3323 11.6537 -2.3456 0.9518
-4.3558 11.3097 -2.3453 0.9518
-6.2908 10.3561 -2.3448 0.9518
-8.0259 9.0750 -2.3444 0.9518
-8.8011 8.3240 -2.3443 0.9518
-10.6858 5.7022 -2.3439 0.9519
-12.2753 3.9583 -2.4959 0.9488
-12.5788 2.8500 -2.4959 0.9488
-12.7825 1.7191 -2.4959 0.9488
-12.8850 0.5746 -2.4959 0.9488
-11.3824 -6.0738 -2.4967 0.9488
-10.1269 -7.9971 -2.4971 0.9488
-8.5502 -9.6678 -2.4976 0.9488
-6.7021 -11.0331 -2.4982 0.9488
-4.6408 -12.0496 -2.4988 0.9488
-3.5504 -12.4164 -2.4991 0.9487
-0.1439 -12.9181 -2.5000 0.9487
5.4412 -11.7254 -2.5015 0.9487
8.3480 -9.8740 -2.5022 0.9487
9.1943 -9.0925 -2.5024 0.9487
9.9678 -8.2386 -2.5025 0.9487
10.6621 -7.3191 -2.5027 0.9487
11.2718 -6.3414 -2.5028 0.9487
12.2183 -4.2426 -2.5029 0.9487
12.5476 -3.1383 -2.5030 0.9487
12.7772 -2.0091 -2.5030 0.9487
12.9052 -0.8638 -2.5030 0.9487
12.9306 0.2882 -2.5029 0.9487
11.6378 3.4685 -2.3500 0.9517
10.8370 5.4762 -2.3497 0.9517
9.6927 7.3096 -2.3493 0.9517
8.2415 8.9106 -2.3488 0.9518
5.5926 10.7677 -2.3480 0.9518
3.5940 11.5858 -2.3475 0.9518
2.5482 11.8582 -2.3472 0.9518
1.4824 12.0365 -2.3469 0.9518
0.4052 12.1191 -2.3466 0.9518
-0.6750 12.1056 -2.3463 0.9518
-2.8100 11.7913 -2.3457 0.9518
-3.8479 11.4931 -2.3455 0.9518
-4.8550 11.1038 -2.3452 0.9518
-5.8235 10.6265 -2.3450 0.9518
-7.6139 9.4239 -2.3445 0.9518
-8.4218 8.7082 -2.3444 0.9518
-11.6387 5.5594 -2.4960 0.9488
-12.0869 4.5013 -2.4960 0.9488
-11.0980 -4.1329 -2.4967 0.9527
-10.6868 -5.1046 -2.4968 0.9527
-10.1908 -6.0360 -2.4970 0.9527
-8.9606 -7.7485 -2.4974 0.9527
-7.4462 -9.2162 -2.4979 0.9527
-6.5970 -9.8435 -2.4981 0.9527
-5.6954 -10.3927 -2.4984 0.9527
-2.7482 -11.5320 -2.4993 0.9527
2.4920 -11.5969 -2.5007 0.9527
3.5147 -11.3303 -2.5009 0.9527
4.5097 -10.9736 -2.5012 0.9527
5.4690 -10.5297 -2.5014 0.9527
6.3851 -10.0020 -2.5017 0.9526
7.2505 -9.3947 -2.5019 0.9526
8.0586 -8.7128 -2.5020 0.9526
8.8026 -7.9615 -2.5022 0.9526
11.7976 -1.3197 -2.5027 0.9526
11.8443 0.7929 -2.5026 0.9526
10.8131 2.7046 -2.3498 0.9555
10.1611 4.5784 -2.3496 0.9555
9.7126 5.4642 -2.3494 0.9555
9.1870 6.3065 -2.3492 0.9555
7.9218 7.8341 -2.3488 0.9555
7.1924 8.5073 -2.3486 0.9555
-0.1240 11.1296 -2.3465 0.9555
-1.1140 11.0731 -2.3462 0.9555
-3.0590 10.6979 -2.3457 0.9555
-3.9986 10.3821 -2.3455 0.9555
-6.5976 8.9544 -2.3448 0.9556
-7.3679 8.3310 -2.3447 0.9556
-8.7271 6.8918 -2.3444 0.9556
-9.3054 6.0873 -2.3442 0.9556
-10.1263 5.4036 -2.4198 0.9542
-11.5478 2.6164 -2.4962 0.9527
-11.8288 0.5275 -2.4962 0.9527
-11.5490 -2.6166 -2.4965 0.9527
-10.4492 -5.5758 -2.4969 0.9527
-9.9122 -6.4842 -2.4971 0.9527
-5.2270 -10.6366 -2.4986 0.9527
-3.2590 -11.3975 -2.4991 0.9527
-1.1868 -11.7975 -2.4997 0.9527
0.9239 -11.8237 -2.5003 0.9527
3.0063 -11.4750 -2.5008 0.9527
4.0162 -11.1631 -2.5011 0.9527
4.9943 -10.7623 -2.5013 0.9527
5.9329 -10.2761 -2.5015 0.9527
6.8246 -9.7080 -2.5018 0.9526
7.6622 -9.0628 -2.5020 0.9526
8.4390 -8.3454 -2.5021 0.9526
10.3456 -5.8203 -2.5025 0.9526
11.2143 -3.8940 -2.5027 0.9526
11.5165 -2.8804 -2.5027 0.9526
11.7272 -1.8440 -2.5027 0.9526
11.8680 0.2645 -2.5026 0.9526
9.9467 5.0263 -2.3495 0.9555
8.8965 6.7092 -2.3491 0.9555
7.5646 8.1788 -2.3487 0.9555
6.8060 8.8188 -2.3485 0.9555
4.2329 10.3002 -2.3477 0.9555
3.2990 10.6348 -2.3474 0.9555
1.3608 11.0487 -2.3469 0.9555
0.3719 11.1247 -2.3466 0.9555
-1.6060 11.0119 -2.3461 0.9555
-2.5795 10.8241 -2.3458 0.9555
-7.7314 7.9942 -2.3446 0.9556
-9.0252 6.4960 -2.3443 0.9556
-9.5672 5.6667 -2.3442 0.9556
-10.6847 5.1037 -2.4963 0.9527
-11.0962 4.1323 -2.4963 0.9527
-10.9379 0.0000 -2.4965 0.9561
-10.7652 -1.9394 -2.4966 0.9561
-9.8718 -4.7153 -2.4970 0.9561
-9.4135 -5.5756 -2.4972 0.9561
-8.2771 -7.1574 -2.4976 0.9561
-7.6078 -7.8664 -2.4978 0.9561
-6.8781 -8.5131 -2.4980 0.9561
-6.0937 -9.0924 -2.4982 0.9561
-3.4761 -10.3824 -2.4990 0.9561
-2.5384 -10.6517 -2.4993 0.9561
-1.5805 -10.8366 -2.4995 0.9561
-0.6097 -10.9354 -2.4998 0.9561
0.3660 -10.9474 -2.5001 0.9561
2.3017 -10.7112 -2.5006 0.9560
5.0512 -9.7253 -2.5013 0.9560
5.8973 -9.2379 -2.5015 0.9560
8.1300 -7.3531 -2.5020 0.9560
8.7526 -6.6006 -2.5021 0.9560
9.7850 -4.9446 -2.5023 0.9560
10.1866 -4.0541 -2.5024 0.9560
10.8960 -1.2189 -2.5024 0.9560
9.9867 2.4979 -2.3496 0.9586
9.7243 3.3767 -2.3495 0.9586
9.3846 4.2285 -2.3494 0.9586
8.9705 5.0467 -2.3492 0.9586
8.4851 5.8247 -2.3491 0.9587
7.3167 7.2356 -2.3487 0.9587
6.6430 7.8575 -2.3485 0.9587
5.1436 8.9091 -2.3480 0.9587
4.3298 9.3306 -2.3478 0.9587
3.4818 9.6779 -2.3475 0.9587
2.6063 9.9483 -2.3473 0.9587
1.7104 10.1397 -2.3470 0.9587
-0.1145 10.2802 -2.3465 0.9587
-1.0290 10.2281 -2.3463 0.9587
-1.9350 10.0949 -2.3460 0.9587
-2.8256 9.8816 -2.3458 0.9587
-4.5320 9.2224 -2.3454 0.9587
-7.4634 7.0589 -2.3447 0.9587
-8.5959 5.6232 -2.3445 0.9587
-10.0701 4.2701 -2.4965 0.9561
-10.6673 2.4169 -2.4965 0.9561
-10.9269 0.4873 -2.4965 0.9561
-10.4113 -3.3572 -2.4968 0.9561
-9.6522 -5.1506 -2.4971 0.9561
-9.1561 -5.9897 -2.4973 0.9561
-7.9504 -7.5194 -2.4977 0.9561
-7.2502 -8.1979 -2.4979 0.9561
-6.4924 -8.8114 -2.4981 0.9561
-5.6829 -9.3553 -2.4984 0.9561
-4.8281 -9.8249 -2.4986 0.9561
-3.9349 -10.2168 -2.4989 0.9561
-3.0103 -10.5275 -2.4991 0.9561
-2.0615 -10.7548 -2.4994 0.9561
1.8222 -10.8026 -2.5005 0.9560
2.7767 -10.5986 -2.5007 0.9560
4.6128 -9.9402 -2.5012 0.9560
6.3032 -8.9663 -2.5016 0.9560
9.5549 -5.3754 -2.5023 0.9560
9.9957 -4.5039 -2.5024 0.9560
10.6363 -2.6603 -2.5024 0.9560
10.0883 2.0506 -2.3497 0.9586
9.5640 3.8064 -2.3494 0.9586
9.1867 4.6422 -2.3493 0.9586
8.2168 6.1966 -2.3490 0.9587
3.0471 9.8229 -2.3474 0.9587
0.3436 10.2756 -2.3466 0.9587
-0.5723 10.2643 -2.3464 0.9587
-1.4835 10.1716 -2.3462 0.9587
-3.2628 9.7455 -2.3457 0.9587
-4.1169 9.4155 -2.3455 0.9587
-5.7201 8.5351 -2.3451 0.9587
-6.4566 7.9915 -2.3449 0.9587
-7.1418 7.3846 -2.3448 0.9587
-7.7702 6.7193 -2.3446 0.9587
-8.3370 6.0007 -2.3445 0.9587
-10.2502 3.8172 -2.4965 0.9561
-10.5491 2.8897 -2.4965 0.9561
-10.7644 1.9393 -2.4965 0.9561
-10.8943 0.9736 -2.4965 0.9561
-9.9971 -1.8011 -2.4968 0.9590
-9.7975 -2.6838 -2.4969 0.9590
-9.1673 -4.3788 -2.4972 0.9590
-8.7417 -5.1777 -2.4973 0.9590
-7.6863 -6.6466 -2.4977 0.9590
-5.6586 -8.4432 -2.4983 0.9590
-3.2278 -9.6410 -2.4990 0.9590
-0.5662 -10.1542 -2.4998 0.9590
1.2434 -10.0957 -2.5003 0.9590
2.1373 -9.9459 -2.5005 0.9590
3.0143 -9.7170 -2.5007 0.9590
4.6902 -9.0302 -2.5012 0.9590
6.2179 -8.0567 -2.5015 0.9589
6.9107 -7.4717 -2.5017 0.9589
7.5487 -6.8274 -2.5018 0.9589
8.6405 -5.3813 -2.5020 0.9589
9.0854 -4.5910 -2.5021 0.9589
9.4582 -3.7642 -2.5022 0.9589
9.7559 -2.9075 -2.5022 0.9589
9.9760 -2.0276 -2.5022 0.9589
10.1169 -1.1317 -2.5022 0.9589
10.1569 0.6800 -2.5022 0.9589
8.3292 4.6860 -2.3491 0.9614
7.8785 5.4083 -2.3489 0.9614
7.3654 6.0877 -2.3487 0.9614
6.7937 6.7185 -2.3486 0.9614
4.0205 8.6639 -2.3477 0.9614
2.4202 9.2378 -2.3473 0.9614
1.5882 9.4155 -2.3470 0.9614
0.7438 9.5186 -2.3468 0.9614
-0.1064 9.5460 -2.3466 0.9614
-0.9555 9.4978 -2.3463 0.9614
-1.7969 9.3742 -2.3461 0.9614
-2.6238 9.1762 -2.3459 0.9615
-3.4299 8.9054 -2.3457 0.9615
-6.3202 7.1464 -2.3450 0.9615
-6.9308 6.5552 -2.3449 0.9615
-7.9825 5.2220 -2.3446 0.9615
-8.9618 4.7822 -2.4968 0.9590
-9.3516 3.9654 -2.4967 0.9590
-9.6672 3.1173 -2.4967 0.9590
-9.9062 2.2445 -2.4967 0.9590
-10.0667 1.3539 -2.4967 0.9590
-10.1473 0.4525 -2.4967 0.9590
-10.0672 -1.3539 -2.4968 0.9590
-8.9634 -4.7830 -2.4973 0.9590
-6.7326 -7.6127 -2.4980 0.9590
-6.0289 -8.1824 -2.4982 0.9590
-5.2771 -8.6873 -2.4984 0.9590
-3.6539 -9.4872 -2.4989 0.9590
-2.7953 -9.7757 -2.4992 0.9590
-1.9143 -9.9867 -2.4994 0.9590
-1.0179 -10.1184 -2.4997 0.9590
1.6920 -10.0308 -2.5004 0.9590
5.8526 -8.3254 -2.5014 0.9589
6.5708 -7.7720 -2.5016 0.9589
7.2369 -7.1567 -2.5017 0.9589
7.8456 -6.4845 -2.5019 0.9589
8.3920 -5.7607 -2.5020 0.9589
8.8717 -4.9911 -2.5021 0.9589
9.2810 -4.1818 -2.5022 0.9589
9.8757 -2.4700 -2.5022 0.9589
10.1572 -0.6799 -2.5022 0.9589
10.1164 1.1317 -2.5021 0.9589
8.5299 4.3104 -2.3491 0.9614
8.1119 5.0521 -2.3490 0.9614
7.6295 5.7537 -2.3488 0.9614
7.0866 6.4095 -2.3486 0.9614
5.1401 8.0519 -2.3480 0.9614
2.8294 9.1212 -2.3474 0.9614
-2.2126 9.2844 -2.3460 0.9614
-3.0299 9.0498 -2.3458 0.9615
-3.8230 8.7435 -2.3456 0.9615
-5.9958 7.4212 -2.3451 0.9615
-6.6321 6.8576 -2.3449 0.9615
-7.2158 6.2397 -2.3448 0.9615
-8.6591 5.1288 -2.4737 0.9594
-9.1658 4.3782 -2.4968 0.9590
-9.5189 3.5449 -2.4967 0.9590
-9.7965 2.6836 -2.4967 0.9590
-9.9964 1.8010 -2.4967 0.9590
-10.1170 0.9041 -2.4967 0.9590
-9.4759 0.0000 -2.4969 0.9616
-9.4385 -0.8434 -2.4969 0.9616
-9.3262 -1.6801 -2.4970 0.9616
-9.1400 -2.5037 -2.4971 0.9616
-8.8812 -3.3074 -2.4972 0.9616
-8.5520 -4.0849 -2.4973 0.9616
-7.1703 -6.2004 -2.4978 0.9615
-5.9583 -7.3746 -2.4982 0.9615
-5.2787 -7.8763 -2.4984 0.9615
-4.5571 -8.3156 -2.4986 0.9615
-3.0110 -8.9934 -2.4991 0.9615
0.3170 -9.4823 -2.5000 0.9615
1.1599 -9.4173 -2.5002 0.9615
1.9936 -9.2775 -2.5004 0.9615
2.8117 -9.0640 -2.5006 0.9615
3.6076 -8.7785 -2.5008 0.9615
4.3749 -8.4232 -2.5010 0.9615
5.7999 -7.5151 -2.5014 0.9615
7.0412 -6.3684 -2.5017 0.9615
7.5804 -5.7166 -2.5018 0.9615
8.0595 -5.0194 -2.5019 0.9615
8.8222 -3.5111 -2.5020 0.9615
9.0998 -2.7120 -2.5020 0.9615
9.4366 -1.0556 -2.5020 0.9615
9.4930 -0.2115 -2.5020 0.9615
13.8173 3.4560 -3.7530 0.9428
7.7692 4.3709 -2.3489 0.9638
6.8703 5.6785 -2.3486 0.9638
6.3371 6.2669 -2.3485 0.9638
5.1247 7.2901 -2.3481 0.9638
4.4552 7.7166 -2.3479 0.9638
3.0159 8.3828 -2.3475 0.9638
2.2576 8.6171 -2.3472 0.9638
-0.8913 8.8600 -2.3464 0.9638
-1.6762 8.7447 -2.3462 0.9638
-2.4477 8.5601 -2.3460 0.9638
-3.9260 7.9892 -2.3456 0.9638
-4.6212 7.6075 -2.3454 0.9638
-5.2796 7.1656 -2.3453 0.9639
-5.8960 6.6668 -2.3451 0.9639
-6.4657 6.1152 -2.3450 0.9639
-8.7240 3.6994 -2.4969 0.9616
-9.0185 2.9081 -2.4969 0.9616
-9.2415 2.0939 -2.4969 0.9616
-9.3912 1.2630 -2.4969 0.9616
-9.4664 0.4221 -2.4969 0.9616
-9.3916 -1.2630 -2.4970 0.9616
-9.2422 -2.0940 -2.4971 0.9616
-9.0195 -2.9084 -2.4972 0.9616
-8.3618 -4.4620 -2.4974 0.9616
-6.8872 -6.5139 -2.4979 0.9615
-4.9228 -8.1039 -2.4985 0.9615
-4.1823 -8.5107 -2.4987 0.9615
-3.4085 -8.8500 -2.4990 0.9615
-2.6075 -9.1191 -2.4992 0.9615
-0.9495 -9.4387 -2.4997 0.9615
-0.1057 -9.4866 -2.4999 0.9615
1.5783 -9.3567 -2.5003 0.9615
3.9952 -8.6094 -2.5009 0.9615
4.7460 -8.2202 -2.5011 0.9615
5.4592 -7.7657 -2.5013 0.9615
6.1291 -7.2494 -2.5015 0.9615
9.4742 -0.6342 -2.5020 0.9615
13.9577 2.8370 -3.7531 0.9428
8.5441 2.5465 -2.3492 0.9638
8.2832 3.2967 -2.3491 0.9638
7.1166 5.3670 -2.3487 0.9638
5.4446 7.0548 -2.3482 0.9638
3.3865 8.2405 -2.3476 0.9638
1.8714 8.7087 -2.3471 0.9638
1.0887 8.8399 -2.3469 0.9638
0.2976 8.9009 -2.3467 0.9638
-2.0640 8.6610 -2.3461 0.9638
-2.8264 8.4422 -2.3459 0.9638
-4.9553 7.3939 -2.3454 0.9639
-6.1870 6.3973 -2.3451 0.9639
-7.2226 5.1986 -2.3448 0.9639
-8.5507 4.0844 -2.4969 0.9616
-8.8801 3.3070 -2.4969 0.9616
-9.3256 1.6801 -2.4969 0.9616
-5.0319 0.0000 -1.4157 0.9793
-8.3181 -3.0977 -2.4974 0.9638
-6.1724 -6.3822 -2.4981 0.9638
-5.5803 -6.9068 -2.4983 0.9638
-4.2680 -7.7880 -2.4987 0.9638
-3.5581 -8.1376 -2.4989 0.9638
-2.0593 -8.6411 -2.4993 0.9638
-1.2821 -8.7908 -2.4995 0.9638
-0.4946 -8.8708 -2.4997 0.9638
1.8671 -8.6885 -2.5004 0.9637
3.3785 -8.2210 -2.5008 0.9637
6.0367 -6.5268 -2.5014 0.9637
6.5940 -5.9639 -2.5015 0.9637
7.5475 -4.7006 -2.5017 0.9637
7.9362 -4.0103 -2.5018 0.9637
8.5218 -2.5397 -2.5019 0.9637
8.8899 -0.1981 -2.5019 0.9637
8.8721 0.5940 -2.5018 0.9637
7.2758 4.0933 -2.3488 0.9659
6.8822 4.7244 -2.3487 0.9659
5.9347 5.8690 -2.3484 0.9659
5.3884 6.3735 -2.3482 0.9659
4.7994 6.8272 -2.3480 0.9659
4.1723 7.2267 -2.3478 0.9659
3.5123 7.5688 -2.3476 0.9659
2.8244 7.8506 -2.3474 0.9659
2.1143 8.0702 -2.3472 0.9659
1.3875 8.2256 -2.3470 0.9659
0.6498 8.3158 -2.3468 0.9659
-0.0929 8.3399 -2.3466 0.9659
-0.8348 8.2978 -2.3464 0.9659
-2.2924 8.0171 -2.3460 0.9659
-2.9966 7.7806 -2.3459 0.9659
-4.3281 7.1250 -2.3455 0.9660
-6.0557 5.7274 -2.3451 0.9660
-6.5411 5.1655 -2.3450 0.9660
-7.4275 4.8589 -2.4972 0.9638
-7.8303 4.1784 -2.4971 0.9638
-8.4467 2.7237 -2.4970 0.9638
-8.6556 1.9611 -2.4970 0.9638
-4.2110 -0.1878 -1.1860 0.9826
-3.7396 -0.5029 -1.0616 0.9844
-8.4476 -2.7240 -2.4973 0.9638
-7.8315 -4.1790 -2.4975 0.9638
-6.9673 -5.5020 -2.4978 0.9638
-5.8822 -6.6511 -2.4982 0.9638
-3.9170 -7.9707 -2.4988 0.9638
-1.6724 -8.7246 -2.4994 0.9638
-0.8893 -8.8396 -2.4996 0.9638
0.6922 -8.8587 -2.5001 0.9638
1.4781 -8.7627 -2.5003 0.9637
2.2523 -8.5970 -2.5005 0.9637
3.7415 -8.0627 -2.5008 0.9637
4.4446 -7.6982 -2.5010 0.9637
5.1125 -7.2725 -2.5012 0.9637
5.7398 -6.7890 -2.5013 0.9637
6.8532 -5.6643 -2.5016 0.9637
7.7495 -4.3598 -2.5017 0.9637
8.4001 -2.9168 -2.5019 0.9637
8.6265 -2.1576 -2.5019 0.9637
8.7843 -1.3812 -2.5019 0.9637
8.8899 0.1982 -2.5018 0.9637
8.8368 0.9886 -2.5018 0.9637
8.0014 2.3847 -2.3491 0.9659
7.7570 3.0873 -2.3490 0.9659
7.4511 3.7653 -2.3489 0.9659
6.6647 5.0261 -2.3486 0.9659
6.1905 5.5990 -2.3484 0.9659
5.6672 6.1273 -2.3483 0.9659
5.0989 6.6069 -2.3481 0.9659
4.4903 7.0340 -2.3479 0.9659
1.0196 8.2789 -2.3469 0.9659
-0.4643 8.3271 -2.3465 0.9659
-3.3401 7.6391 -2.3458 0.9659
-4.0065 7.3110 -2.3456 0.9660
-4.6410 6.9249 -2.3455 0.9660
-6.7646 4.8689 -2.3450 0.9660
-7.6365 4.5231 -2.4972 0.9638
-8.3171 3.0973 -2.4971 0.9638
-8.5596 2.3448 -2.4970 0.9638
-3.9676 0.0000 -1.1878 0.9836
-3.4798 -0.6269 -1.0586 0.9853
-3.4925 -0.9567 -1.0841 0.9850
-7.8177 -2.9113 -2.4975 0.9658
-7.1783 -4.2517 -2.4977 0.9658
-6.3115 -5.4577 -2.4980 0.9658
-5.8010 -5.9982 -2.4982 0.9658
-5.2445 -6.4912 -2.4984 0.9658
-1.9353 -8.1209 -2.4993 0.9657
-1.2049 -8.2616 -2.4995 0.9657
-0.4648 -8.3367 -2.4997 0.9657
1.0208 -8.2883 -2.5001 0.9657
1.7546 -8.1652 -2.5003 0.9657
3.1750 -7.7259 -2.5007 0.9657
5.1043 -6.6138 -2.5011 0.9657
5.6730 -6.1335 -2.5013 0.9657
6.6712 -5.0309 -2.5015 0.9657
7.4580 -3.7686 -2.5016 0.9657
8.3046 -0.9290 -2.5017 0.9657
8.3375 0.5582 -2.5017 0.9657
12.1599 3.0414 -3.7526 0.9490
6.8374 3.8467 -2.3487 0.9678
6.0464 4.9975 -2.3484 0.9678
5.0638 5.9896 -2.3481 0.9678
3.9211 6.7915 -2.3478 0.9678
2.6544 7.3780 -2.3474 0.9678
1.3040 7.7304 -2.3470 0.9678
0.6107 7.8152 -2.3468 0.9678
-0.7845 7.7984 -2.3465 0.9678
-3.4557 7.0322 -2.3458 0.9678
-5.1899 5.8684 -2.3454 0.9678
-6.1604 4.8649 -2.3500 0.9678
-6.9807 4.5666 -2.4973 0.9658
-7.6794 3.2564 -2.4972 0.9658
-7.9387 2.5599 -2.4972 0.9658
-8.2667 1.1118 -2.4972 0.9658
-4.8506 0.2163 -1.4536 0.9799
-3.6646 -0.1634 -1.0982 0.9848
-3.5144 -0.4726 -1.0616 0.9853
-7.9394 -2.5601 -2.4974 0.9658
-7.6804 -3.2567 -2.4975 0.9658
-7.3604 -3.9276 -2.4977 0.9658
-6.9820 -4.5674 -2.4978 0.9658
-6.0623 -5.7336 -2.4981 0.9658
-4.3330 -7.1330 -2.4986 0.9658
-3.0001 -7.7895 -2.4990 0.9657
-2.2950 -8.0263 -2.4992 0.9657
-1.5717 -8.1994 -2.4994 0.9657
1.3891 -8.2349 -2.5002 0.9657
2.1167 -8.0793 -2.5004 0.9657
2.8276 -7.8594 -2.5006 0.9657
4.1768 -7.2345 -2.5009 0.9657
4.8045 -6.8344 -2.5011 0.9657
5.3940 -6.3800 -2.5012 0.9657
5.9407 -5.8749 -2.5013 0.9657
6.8888 -4.7288 -2.5015 0.9657
7.6185 -3.4327 -2.5017 0.9657
7.8939 -2.7411 -2.5017 0.9657
8.1066 -2.0276 -2.5017 0.9657
8.2550 -1.2980 -2.5017 0.9657
8.3377 -0.5581 -2.5017 0.9657
8.3542 0.1862 -2.5017 0.9657
8.3043 0.9290 -2.5016 0.9657
7.2897 2.9012 -2.3489 0.9678
7.0022 3.5384 -2.3488 0.9678
6.6591 4.1474 -2.3486 0.9678
6.2632 4.7233 -2.3485 0.9678
5.8176 5.2617 -2.3484 0.9678
5.3258 5.7582 -2.3482 0.9678
2.9805 7.2527 -2.3475 0.9678
2.3230 7.4886 -2.3473 0.9678
-0.4364 7.8259 -2.3465 0.9678
-1.1311 7.7554 -2.3464 0.9678
-2.4878 7.4309 -2.3460 0.9678
-3.1391 7.1795 -2.3459 0.9678
-3.7654 6.8711 -2.3457 0.9678
-4.3618 6.5083 -2.3456 0.9678
-5.4460 5.6312 -2.3453 0.9678
-5.9254 5.1239 -2.3452 0.9678
-7.5268 3.5953 -2.4972 0.9658
-7.8168 2.9110 -2.4972 0.9658
-8.0448 2.2037 -2.4972 0.9658
-8.2090 1.4789 -2.4972 0.9658
-8.3080 0.7424 -2.4972 0.9658
-3.7562 0.0000 -1.1929 0.9844
-3.2540 -0.8913 -1.0715 0.9859
-7.3699 -2.7446 -2.4976 0.9675
-6.7671 -4.0081 -2.4978 0.9675
-5.9499 -5.1450 -2.4981 0.9675
-5.4687 -5.6545 -2.4982 0.9675
-4.3800 -6.5354 -2.4986 0.9675
-3.1523 -7.2095 -2.4989 0.9675
-2.4983 -7.4621 -2.4991 0.9675
0.2630 -7.8672 -2.4999 0.9675
1.6540 -7.6970 -2.5003 0.9675
2.3327 -7.5198 -2.5004 0.9675
2.9929 -7.2828 -2.5006 0.9675
3.6295 -6.9879 -2.5008 0.9675
4.2373 -6.6376 -2.5009 0.9675
4.8115 -6.2345 -2.5010 0.9675
6.2885 -4.7424 -2.5014 0.9675
6.6858 -4.1640 -2.5015 0.9675
7.0301 -3.5525 -2.5015 0.9675
7.3185 -2.9127 -2.5016 0.9675
7.5488 -2.2497 -2.5016 0.9675
6.7427 3.0382 -2.3487 0.9694
6.4453 3.6261 -2.3486 0.9694
6.0966 4.1852 -2.3485 0.9694
5.6996 4.7109 -2.3484 0.9694
4.7735 5.6461 -2.3481 0.9694
4.2517 6.0481 -2.3479 0.9694
3.6962 6.4021 -2.3477 0.9695
3.1115 6.7052 -2.3476 0.9695
1.8731 7.1496 -2.3472 0.9695
1.2292 7.2873 -2.3470 0.9695
-0.7396 7.3515 -2.3465 0.9695
-1.3908 7.2560 -2.3463 0.9695
-2.0310 7.1029 -2.3462 0.9695
-2.6549 6.8934 -2.3460 0.9695
-3.2577 6.6294 -2.3458 0.9695
-4.3810 5.9460 -2.3456 0.9695
-6.5809 4.3051 -2.4975 0.9675
-6.9378 3.7021 -2.4974 0.9675
-7.4840 2.4133 -2.4973 0.9675
-4.3817 0.1954 -1.3930 0.9818
-3.2591 -0.7384 -1.0613 0.9861
-6.9388 -3.7026 -2.4978 0.9675
-6.1730 -4.8747 -2.4980 0.9675
-5.7149 -5.4051 -2.4982 0.9675
-2.8281 -7.3431 -2.4990 0.9675
-2.1635 -7.5662 -2.4992 0.9675
-0.0877 -7.8708 -2.4998 0.9675
0.6133 -7.8479 -2.5000 0.9675
1.3094 -7.7628 -2.5002 0.9675
3.9373 -6.8196 -2.5008 0.9675
6.8648 -3.8620 -2.5015 0.9675
7.4411 -2.5838 -2.5016 0.9675
7.8593 -0.5261 -2.5016 0.9675
7.8279 0.8757 -2.5015 0.9675
7.7187 1.5689 -2.5015 0.9675
11.3230 3.3747 -3.7523 0.9516
6.6005 3.3354 -2.3487 0.9694
5.9040 4.4524 -2.3484 0.9694
5.4839 4.9599 -2.3483 0.9694
5.0204 5.4280 -2.3481 0.9694
4.5170 5.8529 -2.3480 0.9694
3.4073 6.5602 -2.3476 0.9695
2.8096 6.8369 -2.3475 0.9695
2.1898 7.0593 -2.3473 0.9695
0.9033 7.3346 -2.3469 0.9695
-1.0663 7.3110 -2.3464 0.9695
-2.3453 7.0051 -2.3461 0.9695
-3.5497 6.4774 -2.3458 0.9695
-4.1119 6.1355 -2.3456 0.9695
-4.6414 5.7448 -2.3455 0.9695
-5.1341 5.3086 -2.3454 0.9695
-6.3827 4.5940 -2.4975 0.9675
-7.0957 3.3894 -2.4974 0.9675
-7.3691 2.7443 -2.4973 0.9675
-3.1483 -0.5672 -1.0748 0.9866
-6.7083 -3.2043 -2.4978 0.9691
-6.0345 -4.3433 -2.4980 0.9691
-4.1403 -6.1777 -2.4986 0.9691
-1.7245 -7.2362 -2.4993 0.9691
-1.0736 -7.3615 -2.4995 0.9691
2.8290 -6.8838 -2.5005 0.9691
3.4306 -6.6051 -2.5007 0.9691
4.0051 -6.2739 -2.5008 0.9691
5.0546 -5.4649 -2.5011 0.9691
5.5211 -4.9935 -2.5012 0.9691
6.6448 -3.3578 -2.5014 0.9691
6.9175 -2.7531 -2.5014 0.9691
7.1351 -2.1264 -2.5015 0.9691
7.4434 -0.1658 -2.5015 0.9691
7.4285 0.4973 -2.5014 0.9691
7.3546 1.1565 -2.5014 0.9691
6.0921 3.4274 -2.3485 0.9709
5.7626 3.9558 -2.3484 0.9709
5.3873 4.4528 -2.3483 0.9709
4.9694 4.9143 -2.3481 0.9709
1.7705 6.7580 -2.3472 0.9710
1.1619 6.8883 -2.3470 0.9710
-0.0778 6.9842 -2.3467 0.9710
-0.6991 6.9490 -2.3465 0.9710
-1.9198 6.7140 -2.3462 0.9710
-4.1413 5.6206 -2.3457 0.9710
-6.8435 2.9019 -2.4975 0.9691
-7.0745 2.2813 -2.4974 0.9691
-7.2494 1.6425 -2.4974 0.9691
-3.1639 -0.4255 -1.0726 0.9866
-3.1355 -0.7104 -1.0802 0.9865
-5.4022 -5.1093 -2.4982 0.9691
-4.9263 -5.5702 -2.4984 0.9691
-3.8611 -6.3562 -2.4987 0.9691
-3.2803 -6.6751 -2.4989 0.9691
-2.6733 -6.9411 -2.4991 0.9691
-2.0450 -7.1520 -2.4992 0.9691
-0.7447 -7.4023 -2.4996 0.9691
0.5797 -7.4181 -2.5000 0.9691
1.8860 -7.1988 -2.5003 0.9691
2.5194 -7.0028 -2.5005 0.9691
3.1329 -6.7512 -2.5006 0.9691
4.2808 -6.0894 -2.5009 0.9691
4.8060 -5.6845 -2.5010 0.9691
5.2931 -5.2345 -2.5011 0.9691
6.1378 -4.2133 -2.5013 0.9691
6.7879 -3.0585 -2.5014 0.9691
7.0333 -2.4422 -2.5015 0.9691
7.3549 -1.1565 -2.5015 0.9691
7.3989 0.8277 -2.5014 0.9691
7.2957 1.4829 -2.5013 0.9691
10.7026 3.1897 -3.7522 0.9540
6.2389 3.1527 -2.3486 0.9709
5.1835 4.6882 -2.3482 0.9709
2.0699 6.6727 -2.3473 0.9709
1.4677 6.8300 -2.3471 0.9710
0.2334 6.9810 -2.3468 0.9710
-2.2169 6.6217 -2.3461 0.9710
-2.7973 6.3977 -2.3460 0.9710
-3.8869 5.7997 -2.3457 0.9710
-4.3874 5.4304 -2.3456 0.9710
-4.8531 5.0182 -2.3455 0.9710
-5.2803 4.5661 -2.3454 0.9710
-6.0335 4.3427 -2.4976 0.9691
-6.3958 3.7883 -2.4975 0.9691
-6.7075 3.2039 -2.4975 0.9691
-6.9659 2.5942 -2.4974 0.9691
-7.1691 1.9639 -2.4974 0.9691
-7.4037 0.6616 -2.4974 0.9691
-3.0442 -0.5484 -1.0968 0.9870
-3.0229 -0.8281 -1.1114 0.9868
-3.0314 -1.1289 -1.1470 0.9864
-6.3566 -3.0363 -2.4979 0.9705
-5.7180 -4.1156 -2.4981 0.9705
-5.3293 -4.6084 -2.4982 0.9705
-4.8982 -5.0647 -2.4984 0.9705
-4.4283 -5.4809 -2.4985 0.9705
-2.8234 -6.4573 -2.4990 0.9705
-2.2376 -6.6834 -2.4992 0.9705
-1.6340 -6.8566 -2.4993 0.9705
-1.0173 -6.9753 -2.4995 0.9705
0.8619 -6.9976 -2.5000 0.9705
1.4814 -6.8936 -2.5002 0.9705
2.0892 -6.7348 -2.5003 0.9705
2.6805 -6.5225 -2.5005 0.9705
3.2506 -6.2584 -2.5006 0.9705
5.6318 -4.2471 -2.5012 0.9705
5.9877 -3.7291 -2.5012 0.9705
6.5542 -2.6085 -2.5013 0.9705
6.7605 -2.0148 -2.5014 0.9705
7.0526 -0.1571 -2.5014 0.9705
7.0385 0.4712 -2.5013 0.9705
6.9684 1.0958 -2.5013 0.9705
9.9958 3.4709 -3.7520 0.9561
6.0386 2.7209 -2.3485 0.9723
5.7723 3.2475 -2.3484 0.9723
5.4601 3.7481 -2.3483 0.9723
5.1046 4.2191 -2.3482 0.9723
4.2751 5.0567 -2.3480 0.9723
3.8079 5.4168 -2.3478 0.9723
3.3104 5.7338 -2.3477 0.9723
-1.2457 6.4990 -2.3464 0.9723
-1.8191 6.3620 -2.3462 0.9723
-2.9179 5.9379 -2.3460 0.9723
-3.9241 5.3259 -2.3457 0.9723
-4.3824 4.9553 -2.3456 0.9723
-4.8058 4.5454 -2.3455 0.9723
-5.5282 4.3656 -2.4977 0.9705
-5.8947 3.8561 -2.4977 0.9705
-6.2143 3.3161 -2.4976 0.9705
-6.4847 2.7498 -2.4976 0.9705
-6.7036 2.1617 -2.4975 0.9705
-6.8694 1.5564 -2.4975 0.9705
-6.9806 0.9388 -2.4975 0.9705
-3.9464 0.1760 -1.4007 0.9834
-3.1623 -0.1410 -1.1224 0.9867
-3.0595 -0.4114 -1.0946 0.9870
-6.4854 -2.7500 -2.4978 0.9705
-6.2151 -3.3165 -2.4979 0.9705
-5.8955 -3.8567 -2.4980 0.9705
-5.1188 -4.8413 -2.4983 0.9705
-3.6586 -6.0228 -2.4988 0.9705
-2.5331 -6.5769 -2.4991 0.9705
-1.3270 -6.9228 -2.4994 0.9705
-0.7056 -7.0139 -2.4996 0.9705
0.5493 -7.0288 -2.4999 0.9705
1.1728 -6.9525 -2.5001 0.9705
1.7870 -6.8210 -2.5003 0.9705
2.9685 -6.3968 -2.5006 0.9705
4.5537 -5.3861 -2.5009 0.9705
5.0152 -4.9596 -2.5010 0.9705
5.4370 -4.4937 -2.5011 0.9705
5.8155 -3.9921 -2.5012 0.9705
6.1479 -3.4587 -2.5013 0.9705
6.4315 -2.8979 -2.5013 0.9705
6.8435 -1.7117 -2.5014 0.9705
7.0386 -0.4711 -2.5014 0.9705
7.0525 0.1572 -2.5013 0.9705
6.9126 1.4051 -2.5012 0.9705
10.1407 3.0222 -3.7520 0.9561
9.8311 3.9127 -3.7519 0.9561
5.6218 3.5013 -2.3484 0.9723
4.9114 4.4422 -2.3482 0.9723
4.4963 4.8614 -2.3480 0.9723
4.0455 5.2420 -2.3479 0.9723
3.5627 5.5809 -2.3477 0.9723
3.0516 5.8754 -2.3476 0.9723
0.2212 6.6147 -2.3468 0.9723
-0.3684 6.6077 -2.3466 0.9723
-0.9550 6.5483 -2.3465 0.9723
-2.1006 6.2744 -2.3462 0.9723
-3.1795 5.8018 -2.3459 0.9723
-4.5987 4.7551 -2.3456 0.9723
-5.2195 4.5135 -2.4468 0.9711
-6.6007 2.4582 -2.4976 0.9705
-6.7932 1.8609 -2.4975 0.9705
-6.9319 1.2489 -2.4975 0.9705
-3.3740 0.0000 -1.2599 0.9857
-2.9455 -0.5306 -1.1176 0.9873
-2.9169 -0.7990 -1.1293 0.9872
-2.9238 -1.0888 -1.1650 0.9868
-6.0363 -2.8833 -2.4980 0.9718
-5.7559 -3.4092 -2.4981 0.9718
-5.0608 -4.3762 -2.4983 0.9718
-4.6514 -4.8095 -2.4984 0.9718
-4.2051 -5.2047 -2.4986 0.9718
-3.7254 -5.5586 -2.4987 0.9718
-3.2160 -5.8685 -2.4989 0.9718
-1.5516 -6.5109 -2.4993 0.9718
-0.3727 -6.6837 -2.4997 0.9718
0.8184 -6.6448 -2.5000 0.9718
3.0866 -5.9428 -2.5006 0.9718
3.6035 -5.6447 -2.5007 0.9718
4.9674 -4.4927 -2.5010 0.9718
5.6856 -3.5410 -2.5012 0.9718
6.4194 -1.9131 -2.5013 0.9718
6.5642 -1.3342 -2.5013 0.9718
5.4811 3.0837 -2.3484 0.9735
4.8471 4.0063 -2.3482 0.9735
4.0595 4.8017 -2.3479 0.9735
3.6158 5.1436 -2.3478 0.9735
3.1435 5.4447 -2.3476 0.9735
2.6463 5.7026 -2.3475 0.9735
1.5930 6.0806 -2.3472 0.9735
1.0454 6.1979 -2.3470 0.9735
-0.0700 6.2842 -2.3467 0.9735
-0.6290 6.2526 -2.3466 0.9735
-1.1829 6.1715 -2.3464 0.9735
-1.7274 6.0413 -2.3463 0.9735
-2.2582 5.8633 -2.3462 0.9735
-2.7709 5.6387 -2.3460 0.9735
-3.2616 5.3694 -2.3459 0.9735
-3.7264 5.0575 -2.3458 0.9735
-4.1616 4.7056 -2.3457 0.9735
-4.6773 4.4238 -2.4040 0.9729
-5.2497 4.1457 -2.4978 0.9718
-5.5977 3.6619 -2.4978 0.9718
-6.1580 2.6112 -2.4977 0.9718
-6.3659 2.0528 -2.4976 0.9718
-6.5233 1.4780 -2.4976 0.9718
-6.6290 0.8916 -2.4976 0.9718
-3.0832 -0.1375 -1.1525 0.9869
-2.9640 -0.3986 -1.1167 0.9873
-2.9258 -0.6629 -1.1202 0.9873
-5.9020 -3.1494 -2.4980 0.9718
-3.4742 -5.7193 -2.4988 0.9718
-1.8401 -6.4351 -2.4993 0.9718
-1.2601 -6.5738 -2.4994 0.9718
-0.0746 -6.6939 -2.4998 0.9718
1.1136 -6.6019 -2.5001 0.9718
1.6969 -6.4770 -2.5002 0.9718
4.3240 -5.1144 -2.5009 0.9718
5.8378 -3.2842 -2.5012 0.9718
6.1070 -2.7517 -2.5012 0.9718
6.6172 -1.0405 -2.5013 0.9718
6.6835 -0.4474 -2.5013 0.9718
6.6967 0.1493 -2.5012 0.9718
6.6568 0.7447 -2.5012 0.9718
6.5639 1.3342 -2.5012 0.9718
6.4189 1.9131 -2.5011 0.9718
9.3352 3.7153 -3.7518 0.9580
5.6132 2.8365 -2.3484 0.9735
5.0209 3.7865 -2.3482 0.9735
4.6637 4.2181 -2.3481 0.9735
4.2695 4.6162 -2.3480 0.9735
3.3830 5.2995 -2.3477 0.9735
2.8977 5.5792 -2.3476 0.9735
2.3895 5.8146 -2.3474 0.9735
-0.3499 6.2747 -2.3466 0.9735
-0.9069 6.2182 -2.3465 0.9735
-2.5170 5.7567 -2.3461 0.9735
-3.0193 5.5095 -2.3460 0.9735
-3.4975 5.2186 -2.3459 0.9735
-3.9479 4.8864 -2.3457 0.9735
-6.2682 2.3343 -2.4976 0.9718
-4.2613 0.3808 -1.5976 0.9819
-2.8518 -0.5138 -1.1373 0.9876
-2.8313 -0.7756 -1.1521 0.9875
-5.7433 -2.7433 -2.4980 0.9730
-5.4766 -3.2437 -2.4981 0.9730
-5.1663 -3.7185 -2.4982 0.9730
-4.0010 -4.9520 -2.4986 0.9730
-2.0217 -6.0384 -2.4992 0.9730
0.2128 -6.3658 -2.4998 0.9730
0.7786 -6.3220 -2.5000 0.9730
1.3383 -6.2279 -2.5001 0.9730
1.8874 -6.0845 -2.5003 0.9730
2.4216 -5.8927 -2.5004 0.9730
2.9367 -5.6540 -2.5005 0.9730
3.4284 -5.3705 -2.5006 0.9730
5.0879 -3.8369 -2.5010 0.9730
5.4093 -3.3689 -2.5011 0.9730
5.6878 -2.8741 -2.5011 0.9730
6.1074 -1.8202 -2.5012 0.9730
6.2452 -1.2693 -2.5012 0.9730
6.3713 -0.1419 -2.5012 0.9730
6.3586 0.4257 -2.5011 0.9730
6.1821 1.5463 -2.5010 0.9730
8.7151 3.9269 -3.7516 0.9598
5.2148 2.9338 -2.3483 0.9746
3.4402 4.8938 -2.3477 0.9746
2.9908 5.1802 -2.3476 0.9746
1.5157 5.7853 -2.3472 0.9746
-0.0666 5.9791 -2.3467 0.9746
-0.5985 5.9490 -2.3466 0.9746
-1.6436 5.7480 -2.3463 0.9746
-2.1485 5.5786 -2.3462 0.9746
-3.9596 4.4772 -2.3458 0.9746
-4.6242 4.3736 -2.4980 0.9730
-5.3260 3.4842 -2.4978 0.9730
-5.8592 2.4846 -2.4977 0.9730
-6.3073 0.8483 -2.4977 0.9730
-3.6456 0.1626 -1.4322 0.9844
-3.0071 -0.1341 -1.1814 0.9871
-2.8326 -0.6418 -1.1399 0.9876
-2.8717 -1.2177 -1.2242 0.9867
-5.6155 -2.9965 -2.4981 0.9730
-5.3267 -3.4846 -2.4982 0.9730
-3.7765 -5.1255 -2.4987 0.9730
-3.3055 -5.4416 -2.4988 0.9730
-2.8082 -5.7145 -2.4990 0.9730
-1.7507 -6.1227 -2.4993 0.9730
-1.1989 -6.2545 -2.4994 0.9730
-0.0710 -6.3688 -2.4997 0.9730
0.4962 -6.3502 -2.4999 0.9730
1.6145 -6.1623 -2.5002 0.9730
2.1567 -5.9945 -2.5003 0.9730
3.1857 -5.5177 -2.5006 0.9730
3.6643 -5.2125 -2.5007 0.9730
4.5308 -4.4806 -2.5009 0.9730
4.9118 -4.0597 -2.5010 0.9730
5.2538 -3.6065 -2.5010 0.9730
5.8102 -2.6179 -2.5011 0.9730
6.2956 -0.9899 -2.5012 0.9730
6.3713 0.1420 -2.5012 0.9730
6.1070 1.8201 -2.5010 0.9730
8.8815 3.5348 -3.7517 0.9598
8.5313 4.3111 -3.7515 0.9598
4.7769 3.6025 -2.3482 0.9746
4.4371 4.0132 -2.3480 0.9746
2.7570 5.3082 -2.3475 0.9746
2.2735 5.5322 -2.3474 0.9746
1.7719 5.7122 -2.3472 0.9746
1.2564 5.8469 -2.3471 0.9746
0.1998 5.9763 -2.3468 0.9746
-0.8629 5.9163 -2.3465 0.9746
-1.8979 5.6689 -2.3463 0.9746
-2.3949 5.4772 -2.3461 0.9746
-3.7563 4.6493 -2.3458 0.9746
-4.8143 4.1631 -2.4979 0.9730
-6.1379 1.6814 -2.4977 0.9730
-4.1297 0.3690 -1.6273 0.9823
-3.1614 0.0000 -1.3018 0.9864
-2.8130 -0.2514 -1.1629 0.9879
-2.7831 -0.5014 -1.1645 0.9878
-5.4741 -2.6148 -2.4981 0.9741
-5.2199 -3.0917 -2.4982 0.9741
-3.8134 -4.7198 -2.4987 0.9741
-3.3783 -5.0408 -2.4988 0.9741
-2.9164 -5.3218 -2.4989 0.9741
-2.4313 -5.5605 -2.4991 0.9741
-1.4071 -5.9042 -2.4994 0.9741
-0.8760 -6.0064 -2.4995 0.9741
-0.3379 -6.0609 -2.4997 0.9741
0.2029 -6.0672 -2.4998 0.9741
0.7421 -6.0255 -2.4999 0.9741
1.7989 -5.7990 -2.5002 0.9741
2.3080 -5.6163 -2.5003 0.9741
4.1237 -4.4584 -2.5008 0.9741
5.4209 -2.7393 -2.5010 0.9741
5.6433 -2.2459 -2.5011 0.9741
6.0362 -0.6752 -2.5011 0.9741
6.0723 -0.1353 -2.5011 0.9741
6.0602 0.4057 -2.5011 0.9741
5.8920 1.4737 -2.5010 0.9741
5.7373 1.9922 -2.5009 0.9741
8.3062 3.7426 -3.7515 0.9614
4.7013 3.2273 -2.3482 0.9756
4.3952 3.6328 -2.3481 0.9756
4.0543 4.0094 -2.3479 0.9756
3.2788 4.6642 -2.3477 0.9756
2.8505 4.9372 -2.3476 0.9756
1.9297 5.3638 -2.3473 0.9756
1.4446 5.5140 -2.3472 0.9756
0.9480 5.6203 -2.3470 0.9756
0.4440 5.6821 -2.3469 0.9756
-0.5704 5.6701 -2.3466 0.9756
-1.0728 5.5965 -2.3465 0.9757
-1.5665 5.4786 -2.3464 0.9757
-2.0478 5.3171 -2.3462 0.9757
-3.7848 4.2796 -2.3525 0.9756
-5.0764 3.3209 -2.4979 0.9741
-5.7731 1.8616 -2.4978 0.9741
-3.5093 0.1565 -1.4465 0.9849
-2.9337 -0.1308 -1.2092 0.9874
-2.7775 -0.8956 -1.2017 0.9875
-2.8016 -1.1880 -1.2531 0.9869
-5.0771 -3.3212 -2.4982 0.9741
-4.0198 -4.5452 -2.4986 0.9741
-3.5994 -4.8852 -2.4987 0.9741
-3.1505 -5.1864 -2.4989 0.9741
-2.6765 -5.4466 -2.4990 0.9741
-0.6076 -6.0396 -2.4996 0.9741
0.4730 -6.0524 -2.4999 0.9741
2.0555 -5.7133 -2.5003 0.9741
2.5560 -5.5080 -2.5004 0.9741
3.4924 -4.9680 -2.5006 0.9741
4.6813 -3.8692 -2.5009 0.9741
5.7378 -1.9923 -2.5011 0.9741
5.8924 -1.4737 -2.5011 0.9741
6.0723 0.1354 -2.5011 0.9741
5.9519 1.2098 -2.5010 0.9741
5.8205 1.7347 -2.5009 0.9741
8.4648 3.3689 -3.7516 0.9614
8.1311 4.1088 -3.7514 0.9614
4.5528 3.4335 -2.3481 0.9756
4.2289 3.8249 -2.3480 0.9756
3.4834 4.5137 -2.3478 0.9756
3.0677 4.8055 -2.3476 0.9756
1.6888 5.4443 -2.3472 0.9756
0.6967 5.6568 -2.3470 0.9756
-0.3173 5.6900 -2.3467 0.9756
-0.8224 5.6389 -2.3466 0.9757
-1.3210 5.5430 -2.3464 0.9757
-1.8090 5.4032 -2.3463 0.9757
-2.2826 5.2205 -2.3462 0.9757
-2.7380 4.9964 -2.3461 0.9757
-3.5802 4.4313 -2.3459 0.9757
-4.1784 4.3204 -2.4750 0.9743
-4.5887 3.9680 -2.4980 0.9741
-5.4736 2.6146 -2.4978 0.9741
-5.6845 2.1170 -2.4978 0.9741
-2.7539 -0.2461 -1.1927 0.9880
-2.7092 -0.7421 -1.2117 0.9878
-4.0268 -4.1636 -2.4986 0.9751
0.1937 -5.7919 -2.4998 0.9751
1.7172 -5.5358 -2.5002 0.9751
2.2033 -5.3613 -2.5003 0.9751
4.2997 -3.8889 -2.5008 0.9751
4.9214 -3.0650 -2.5009 0.9751
5.1747 -2.6148 -2.5010 0.9751
5.3870 -2.1439 -2.5010 0.9751
5.5565 -1.6560 -2.5010 0.9751
5.6245 1.4068 -2.5009 0.9751
5.4768 1.9018 -2.5008 0.9751
7.9291 3.5726 -3.7514 0.9628
4.4879 3.0808 -2.3481 0.9766
3.5140 4.1564 -2.3478 0.9766
3.1300 4.4525 -2.3477 0.9766
2.2907 4.9364 -2.3474 0.9766
0.9050 5.3653 -2.3470 0.9766
-0.5445 5.4128 -2.3466 0.9766
-1.0241 5.3426 -2.3465 0.9766
-1.9549 5.0759 -2.3463 0.9766
-2.8237 4.6484 -2.3461 0.9766
-3.7586 4.2499 -2.4473 0.9756
-4.5449 3.5891 -2.4980 0.9751
-5.1090 2.7263 -2.4979 0.9751
-5.5113 1.7772 -2.4979 0.9751
-5.6476 1.2796 -2.4979 0.9751
-5.7390 0.7719 -2.4979 0.9751
-3.3811 0.1508 -1.4599 0.9854
-2.7402 -0.3685 -1.1926 0.9880
-2.7200 -0.6163 -1.2030 0.9879
-5.1095 -2.7265 -2.4982 0.9751
-3.0076 -4.9512 -2.4989 0.9751
-2.5551 -5.1994 -2.4990 0.9751
-1.0908 -5.6907 -2.4994 0.9751
-0.0646 -5.7946 -2.4997 0.9751
0.9640 -5.7149 -2.5000 0.9751
3.3338 -4.7424 -2.5006 0.9751
3.7428 -4.4270 -2.5007 0.9751
4.1222 -4.0764 -2.5008 0.9751
4.7799 -3.2812 -2.5009 0.9751
5.0531 -2.8428 -2.5009 0.9751
5.7277 -0.9006 -2.5010 0.9751
5.7851 -0.3872 -2.5010 0.9751
5.7620 0.6446 -2.5010 0.9751
5.6816 1.1549 -2.5009 0.9751
5.5562 1.6559 -2.5009 0.9751
5.3866 2.1438 -2.5008 0.9751
7.7619 3.9223 -3.7513 0.9628
7.3817 4.5974 -3.7512 0.9628
4.3461 3.2776 -2.3481 0.9766
4.0370 3.6512 -2.3480 0.9766
3.6958 3.9959 -2.3478 0.9766
2.9285 4.5874 -2.3476 0.9766
2.5084 4.8296 -2.3475 0.9766
2.0685 5.0334 -2.3474 0.9766
1.6122 5.1972 -2.3472 0.9766
1.1432 5.3198 -2.3471 0.9766
0.6651 5.4001 -2.3470 0.9766
0.1818 5.4376 -2.3468 0.9766
-0.3029 5.4319 -2.3467 0.9766
-0.7851 5.3831 -2.3466 0.9766
-1.2610 5.2916 -2.3465 0.9766
-1.7269 5.1580 -2.3463 0.9766
-2.6138 4.7697 -2.3461 0.9766
-3.0279 4.5179 -2.3460 0.9766
-3.4178 4.2304 -2.3459 0.9766
-4.0261 4.1630 -2.4982 0.9751
-4.9825 2.9512 -2.4980 0.9751
-5.2253 2.4960 -2.4979 0.9751
-5.4267 2.0210 -2.4979 0.9751
-5.5850 1.5299 -2.4979 0.9751
-5.6989 1.0267 -2.4979 0.9751
-3.8265 0.3420 -1.6572 0.9834
-2.7005 -0.2413 -1.2234 0.9882
-2.6607 -0.9908 -1.2811 0.9876
-2.6666 -1.2737 -1.3334 0.9871
-2.6867 -1.5913 -1.4090 0.9864
-4.4940 -3.2346 -2.4984 0.9760
-4.1884 -3.6218 -2.4985 0.9760
-3.8496 -3.9804 -2.4986 0.9760
-3.0831 -4.6003 -2.4988 0.9760
-2.6616 -4.8567 -2.4990 0.9760
-2.2189 -5.0746 -2.4991 0.9760
-1.7585 -5.2522 -2.4992 0.9760
-1.2841 -5.3882 -2.4994 0.9760
-0.7994 -5.4814 -2.4995 0.9760
-0.3084 -5.5311 -2.4996 0.9760
0.1851 -5.5370 -2.4998 0.9760
0.6772 -5.4987 -2.4999 0.9760
1.6416 -5.2921 -2.5001 0.9760
3.3859 -4.3872 -2.5006 0.9760
3.7631 -4.0685 -2.5007 0.9760
4.4251 -3.3371 -2.5008 0.9760
4.7046 -2.9300 -2.5009 0.9760
4.9469 -2.4997 -2.5009 0.9760
5.4317 -1.1040 -2.5010 0.9760
5.5302 0.3703 -2.5009 0.9760
5.3768 1.3448 -2.5008 0.9760
7.5799 3.4153 -3.7513 0.9642
7.2456 4.0763 -3.7512 0.9642
4.0110 3.3152 -2.3480 0.9774
3.3593 3.9734 -2.3478 0.9774
2.9922 4.2565 -2.3476 0.9774
2.6013 4.5057 -2.3475 0.9774
2.1899 4.7191 -2.3474 0.9774
0.8652 5.1292 -2.3470 0.9774
-0.0579 5.2007 -2.3468 0.9774
-0.5206 5.1746 -2.3467 0.9774
-1.4297 4.9998 -2.3464 0.9774
-1.8689 4.8525 -2.3463 0.9774
-2.2933 4.6667 -2.3462 0.9774
-3.0841 4.1858 -2.3460 0.9774
-3.6680 4.1475 -2.4983 0.9760
-4.3449 3.4312 -2.4981 0.9760
-4.8843 2.6064 -2.4980 0.9760
-5.2689 1.6990 -2.4979 0.9760
-5.3991 1.2233 -2.4979 0.9760
-3.2608 0.1454 -1.4728 0.9858
-2.6870 -0.3614 -1.2234 0.9882
-2.6675 -1.1311 -1.3074 0.9874
-4.8848 -2.6065 -2.4983 0.9760
-4.6335 -3.0311 -2.4983 0.9760
-4.0230 -3.8049 -2.4985 0.9760
-3.6686 -4.1481 -2.4987 0.9760
-3.2849 -4.4583 -2.4988 0.9760
-1.5228 -5.3255 -2.4993 0.9760
0.4316 -5.5233 -2.4998 0.9760
1.4042 -5.3598 -2.5001 0.9760
1.8758 -5.2138 -2.5002 0.9760
2.3325 -5.0264 -2.5003 0.9760
2.7708 -4.7991 -2.5004 0.9760
3.1870 -4.5336 -2.5005 0.9760
3.5780 -4.2321 -2.5006 0.9760
3.9406 -3.8969 -2.5007 0.9760
4.2720 -3.5309 -2.5008 0.9760
4.5694 -3.1367 -2.5008 0.9760
4.8305 -2.7176 -2.5009 0.9760
5.5303 -0.3702 -2.5010 0.9760
5.4314 1.1040 -2.5009 0.9760
5.1494 2.0495 -2.5007 0.9760
7.0567 4.3949 -3.7511 0.9642
4.1547 3.1333 -2.3480 0.9774
3.8592 3.4905 -2.3479 0.9774
3.5331 3.8200 -2.3478 0.9774
3.1789 4.1190 -2.3477 0.9774
1.9774 4.8118 -2.3473 0.9774
1.5412 4.9685 -2.3472 0.9774
0.6358 5.1625 -2.3470 0.9774
-1.2055 5.0587 -2.3465 0.9774
-2.0832 4.7644 -2.3463 0.9774
-2.8946 4.3191 -2.3461 0.9774
-3.8490 3.9799 -2.4982 0.9760
-4.1878 3.6214 -2.4981 0.9760
-4.4934 3.2342 -2.4981 0.9760
-4.7633 2.8214 -2.4980 0.9760
-4.9955 2.3862 -2.4980 0.9760
-5.3393 1.4626 -2.4979 0.9760
-2.9112 0.0000 -1.3722 0.9872
-2.6448 -0.2363 -1.2517 0.9883
-2.6016 -0.7126 -1.2715 0.9881
-2.6023 -0.9691 -1.3090 0.9878
-2.6052 -1.2444 -1.3609 0.9873
-4.0094 -3.4670 -2.4985 0.9768
-2.9513 -4.4037 -2.4989 0.9768
-2.5478 -4.6491 -2.4990 0.9768
-2.1240 -4.8577 -2.4991 0.9768
-1.6833 -5.0277 -2.4992 0.9768
-1.2292 -5.1578 -2.4994 0.9768
-0.2952 -5.2946 -2.4996 0.9768
0.1772 -5.3001 -2.4998 0.9768
1.1143 -5.1852 -2.5000 0.9768
2.8543 -4.4711 -2.5004 0.9768
3.2410 -4.1995 -2.5005 0.9768
3.6021 -3.8945 -2.5006 0.9768
4.2357 -3.1943 -2.5007 0.9768
4.5033 -2.8047 -2.5008 0.9768
4.7352 -2.3928 -2.5008 0.9768
5.1992 -1.0567 -2.5009 0.9768
5.2410 0.8241 -2.5008 0.9768
5.0116 1.7403 -2.5007 0.9768
4.8367 2.1793 -2.5006 0.9768
6.9356 3.9019 -3.7511 0.9654
3.5415 3.5023 -2.3478 0.9782
3.2156 3.8035 -2.3477 0.9782
2.8642 4.0744 -2.3476 0.9782
2.4901 4.3129 -2.3475 0.9782
2.0962 4.5172 -2.3474 0.9782
1.2620 4.8169 -2.3472 0.9782
0.8282 4.9098 -2.3470 0.9782
0.3879 4.9637 -2.3469 0.9782
-0.0555 4.9783 -2.3468 0.9782
-0.4983 4.9534 -2.3467 0.9782
-0.9372 4.8891 -2.3466 0.9782
-1.7890 4.6451 -2.3463 0.9782
-2.1952 4.4672 -2.3462 0.9782
-2.5840 4.2539 -2.3461 0.9782
-3.5111 3.9702 -2.4983 0.9768
-4.6755 2.4950 -2.4981 0.9768
-5.1684 1.1710 -2.4980 0.9768
-5.2521 0.7064 -2.4980 0.9768
-3.1522 0.1406 -1.4873 0.9861
-2.6352 -0.3544 -1.2533 0.9883
-2.6131 -0.5920 -1.2630 0.9882
-2.6038 -1.1041 -1.3332 0.9876
-2.5902 -1.3822 -1.3839 0.9871
-3.8510 -3.6422 -2.4986 0.9768
-3.5117 -3.9707 -2.4987 0.9768
-2.7523 -4.5309 -2.4989 0.9768
-2.3382 -4.7581 -2.4990 0.9768
-1.4577 -5.0978 -2.4993 0.9768
-0.9982 -5.2076 -2.4994 0.9768
1.7956 -4.9908 -2.5002 0.9768
2.2327 -4.8114 -2.5003 0.9768
2.6522 -4.5938 -2.5004 0.9768
3.0507 -4.3396 -2.5005 0.9768
3.4249 -4.0510 -2.5006 0.9768
3.7720 -3.7302 -2.5006 0.9768
4.0892 -3.3798 -2.5007 0.9768
4.6238 -2.6013 -2.5008 0.9768
4.8371 -2.1795 -2.5009 0.9768
5.0119 -1.7403 -2.5009 0.9768
5.2411 -0.8241 -2.5009 0.9768
5.3041 0.1182 -2.5009 0.9768
5.2725 0.5898 -2.5008 0.9768
5.1990 1.0568 -2.5008 0.9768
7.1026 3.5891 -3.7512 0.9654
6.7548 4.2069 -3.7511 0.9654
6.3533 4.7913 -3.7509 0.9654
3.3819 3.6565 -2.3478 0.9782
1.4753 4.7560 -2.3472 0.9782
0.1664 4.9760 -2.3469 0.9782
-0.7184 4.9261 -2.3466 0.9782
-1.1540 4.8424 -2.3465 0.9782
-1.5803 4.7203 -2.3464 0.9782
-1.9941 4.5607 -2.3463 0.9782
-2.3920 4.3649 -2.3462 0.9782
-3.3309 4.1227 -2.4984 0.9768
-3.6845 3.8098 -2.4983 0.9768
-4.5597 2.7008 -2.4981 0.9768
-5.1111 1.4001 -2.4980 0.9768
-3.7076 0.3313 -1.7547 0.9837
-2.5903 -0.2315 -1.2791 0.9885
-2.5453 -0.9479 -1.3359 0.9880
-4.1228 -2.9674 -2.4985 0.9776
-3.8425 -3.3227 -2.4986 0.9776
-3.5316 -3.6517 -2.4987 0.9776
-2.8285 -4.2204 -2.4989 0.9776
-2.4417 -4.4555 -2.4990 0.9776
-2.0356 -4.6554 -2.4991 0.9776
-1.6132 -4.8184 -2.4992 0.9776
-0.7334 -5.0285 -2.4995 0.9776
-0.2829 -5.0741 -2.4996 0.9776
0.1698 -5.0794 -2.4997 0.9776
0.6213 -5.0444 -2.4999 0.9776
1.9322 -4.7016 -2.5002 0.9776
2.7354 -4.2849 -2.5004 0.9776
3.1060 -4.0246 -2.5005 0.9776
3.4520 -3.7323 -2.5006 0.9776
3.7706 -3.4103 -2.5006 0.9776
4.0593 -3.0612 -2.5007 0.9776
4.3157 -2.6878 -2.5007 0.9776
4.5379 -2.2931 -2.5008 0.9776
4.7241 -1.8801 -2.5008 0.9776
5.0832 -0.1132 -2.5008 0.9776
5.0731 0.3396 -2.5008 0.9776
5.0227 0.7898 -2.5008 0.9776
4.9323 1.2337 -2.5007 0.9776
4.8028 1.6678 -2.5007 0.9776
6.2873 4.3160 -3.7509 0.9666
3.0817 3.6451 -2.3477 0.9789
2.7449 3.9047 -2.3476 0.9789
2.0089 4.3291 -2.3474 0.9790
1.6156 4.4905 -2.3473 0.9790
0.7937 4.7054 -2.3470 0.9790
0.3717 4.7571 -2.3469 0.9790
-0.0531 4.7711 -2.3468 0.9790
-0.8981 4.6856 -2.3466 0.9790
-1.7145 4.4517 -2.3464 0.9790
-2.1039 4.2813 -2.3463 0.9790
-2.4765 4.0769 -2.3462 0.9790
-3.0131 4.0895 -2.4984 0.9776
-3.3650 3.8050 -2.4984 0.9776
-3.6902 3.4902 -2.4983 0.9776
-3.9861 3.1479 -2.4982 0.9776
-4.4809 2.3911 -2.4981 0.9776
-4.6759 1.9828 -2.4981 0.9776
-4.8338 1.5587 -2.4981 0.9776
-5.0335 0.6770 -2.4981 0.9776
-3.0630 0.1366 -1.5081 0.9864
-2.5845 -0.3476 -1.2826 0.9884
-2.5616 -0.5804 -1.2919 0.9884
-2.5430 -0.8200 -1.3142 0.9882
-2.5301 -1.3501 -1.4105 0.9873
-3.9866 -3.1482 -2.4985 0.9776
-3.6907 -3.4906 -2.4986 0.9776
-3.3655 -3.8054 -2.4987 0.9776
-1.8262 -4.7416 -2.4992 0.9776
-0.9567 -4.9908 -2.4994 0.9776
-0.5087 -5.0564 -2.4996 0.9776
-0.0566 -5.0818 -2.4997 0.9776
0.3959 -5.0669 -2.4998 0.9776
1.2882 -4.9169 -2.5000 0.9776
2.1397 -4.6110 -2.5002 0.9776
2.5418 -4.4024 -2.5003 0.9776
3.6149 -3.5748 -2.5006 0.9776
3.9188 -3.2390 -2.5007 0.9776
4.1917 -2.8774 -2.5007 0.9776
4.8032 -1.6678 -2.5008 0.9776
5.0529 0.5653 -2.5008 0.9776
4.8724 1.4521 -2.5007 0.9776
4.7237 1.8800 -2.5006 0.9776
3.2411 3.5042 -2.3478 0.9789
2.1998 4.2354 -2.3474 0.9789
1.8140 4.4142 -2.3473 0.9790
1.4139 4.5579 -2.3472 0.9790
1.0025 4.6655 -2.3471 0.9790
-0.2656 4.7639 -2.3467 0.9790
-1.1060 4.6408 -2.3465 0.9790
-1.5146 4.5238 -2.3464 0.9790
-1.9111 4.3709 -2.3463 0.9790
-2.2924 4.1833 -2.3462 0.9790
-3.1923 3.9511 -2.4984 0.9776
-3.5311 3.6512 -2.4983 0.9776
-4.3700 2.5884 -2.4981 0.9776
-4.8984 1.3419 -2.4981 0.9776
-4.9984 0.9005 -2.4981 0.9776
-2.7481 0.0000 -1.4089 0.9877
-2.5199 -0.4540 -1.3126 0.9886
-2.4895 -0.9271 -1.3619 0.9881
-2.4879 -1.1884 -1.4135 0.9877
-3.9555 -2.8470 -2.4985 0.9783
-3.0631 -3.7913 -2.4988 0.9783
-1.9529 -4.4664 -2.4991 0.9783
-1.5477 -4.6227 -2.4993 0.9783
-0.7036 -4.8244 -2.4995 0.9783
-0.2714 -4.8680 -2.4996 0.9783
0.5961 -4.8395 -2.4998 0.9783
1.0245 -4.7675 -2.5000 0.9783
1.4448 -4.6576 -2.5001 0.9783
1.8537 -4.5107 -2.5002 0.9783
2.6243 -4.1109 -2.5004 0.9783
3.3118 -3.5806 -2.5005 0.9783
3.8944 -2.9369 -2.5006 0.9783
4.1404 -2.5786 -2.5007 0.9783
4.5322 -1.8037 -2.5008 0.9783
4.6748 -1.3932 -2.5008 0.9783
4.7802 -0.9716 -2.5008 0.9783
4.8477 -0.5423 -2.5008 0.9783
4.8767 -0.1087 -2.5008 0.9783
4.8670 0.3258 -2.5007 0.9783
4.8186 0.7577 -2.5007 0.9783
4.7320 1.1836 -2.5007 0.9783
4.4469 2.0037 -2.5005 0.9783
6.3767 3.5875 -3.7510 0.9676
6.0319 4.1407 -3.7509 0.9676
3.2562 3.2201 -2.3478 0.9796
2.9565 3.4971 -2.3477 0.9796
2.6334 3.7461 -2.3476 0.9796
2.2895 3.9655 -2.3475 0.9796
1.5500 4.3082 -2.3473 0.9796
1.1603 4.4288 -2.3471 0.9796
0.3566 4.5640 -2.3469 0.9796
-0.0510 4.5774 -2.3468 0.9796
-0.8617 4.4954 -2.3466 0.9796
-1.2583 4.4006 -2.3465 0.9796
-1.6449 4.2710 -2.3464 0.9796
-2.8908 3.9235 -2.4985 0.9783
-3.2285 3.6505 -2.4984 0.9783
-3.5405 3.3486 -2.4983 0.9783
-3.8244 3.0201 -2.4983 0.9783
-4.0779 2.6677 -2.4982 0.9783
-4.2991 2.2941 -2.4982 0.9783
-4.6376 1.4955 -2.4981 0.9783
-4.7523 1.0768 -2.4981 0.9783
-4.8293 0.6495 -2.4981 0.9783
-2.5113 -0.5690 -1.3201 0.9885
-2.4881 -0.8023 -1.3403 0.9883
-2.4879 -1.0550 -1.3854 0.9879
-3.8248 -3.0204 -2.4986 0.9783
-3.5409 -3.3490 -2.4987 0.9783
-2.8913 -3.9240 -2.4989 0.9783
-2.1499 -4.3749 -2.4991 0.9783
1.2359 -4.7172 -2.5000 0.9783
2.0528 -4.4237 -2.5002 0.9783
2.4385 -4.2236 -2.5003 0.9783
3.4681 -3.4296 -2.5005 0.9783
3.7596 -3.1074 -2.5006 0.9783
4.0214 -2.7605 -2.5007 0.9783
4.2512 -2.3916 -2.5007 0.9783
4.7322 -1.1836 -2.5008 0.9783
4.8671 -0.3258 -2.5008 0.9783
4.8767 0.1087 -2.5008 0.9783
4.8476 0.5423 -2.5007 0.9783
4.7800 0.9716 -2.5007 0.9783
4.6745 1.3932 -2.5006 0.9783
2.4639 3.8597 -2.3475 0.9796
2.1105 4.0635 -2.3474 0.9796
1.7404 4.2350 -2.3473 0.9796
1.3565 4.3729 -2.3472 0.9796
-0.2548 4.5705 -2.3468 0.9796
-1.0611 4.4525 -2.3465 0.9796
-2.1994 4.0134 -2.3463 0.9796
-3.0627 3.7908 -2.4984 0.9783
-3.3878 3.5030 -2.4984 0.9783
-3.6861 3.1875 -2.4983 0.9783
-3.9551 2.8467 -2.4982 0.9783
-4.1927 2.4834 -2.4982 0.9783
-4.5664 1.7006 -2.4981 0.9783
-3.5462 0.3169 -1.8253 0.9841
-2.6714 0.0000 -1.4261 0.9880
-2.4501 -0.6711 -1.3561 0.9885
-2.4352 -0.9069 -1.3872 0.9883
-3.5404 -3.0614 -2.4986 0.9790
-2.9417 -3.6409 -2.4988 0.9790
-1.8755 -4.2893 -2.4992 0.9790
-1.4863 -4.4394 -2.4993 0.9790
-1.0853 -4.5543 -2.4994 0.9790
-0.6757 -4.6330 -2.4995 0.9790
0.1565 -4.6798 -2.4997 0.9790
1.3875 -4.4728 -2.5000 0.9790
1.7802 -4.3317 -2.5001 0.9790
2.5202 -3.9477 -2.5003 0.9790
2.8616 -3.7079 -2.5004 0.9790
3.1804 -3.4386 -2.5005 0.9790
3.7399 -2.8204 -2.5006 0.9790
3.9761 -2.4763 -2.5006 0.9790
4.1808 -2.1127 -2.5007 0.9790
4.4892 -1.3379 -2.5007 0.9790
4.5905 -0.9330 -2.5007 0.9790
4.6554 -0.5207 -2.5007 0.9790
4.6832 -0.1043 -2.5007 0.9790
4.6739 0.3129 -2.5007 0.9790
4.6274 0.7277 -2.5007 0.9790
4.2705 1.9242 -2.5005 0.9790
4.0822 2.2966 -2.5004 0.9790
5.4155 4.4760 -3.7507 0.9686
2.5290 3.5975 -2.3476 0.9803
2.1986 3.8082 -2.3475 0.9803
1.8509 3.9886 -2.3474 0.9803
1.4885 4.1373 -2.3472 0.9803
1.1143 4.2532 -2.3471 0.9803
0.3425 4.3829 -2.3469 0.9803
-0.0490 4.3959 -2.3468 0.9803
-1.2084 4.2262 -2.3465 0.9803
-1.9412 3.9504 -2.3497 0.9802
-2.4299 4.0002 -2.4986 0.9790
-2.7762 3.7680 -2.4985 0.9790
-3.1005 3.5058 -2.4984 0.9790
-3.6727 2.9004 -2.4983 0.9790
-3.9162 2.5619 -2.4983 0.9790
-4.1287 2.2032 -2.4982 0.9790
-4.5639 1.0341 -2.4982 0.9790
-2.5303 -0.1128 -1.3521 0.9886
-2.4353 -0.7853 -1.3660 0.9885
-2.4330 -1.0317 -1.4108 0.9881
-3.1009 -3.5062 -2.4988 0.9790
-2.0646 -4.2014 -2.4991 0.9790
-1.2871 -4.5013 -2.4993 0.9790
-0.8814 -4.5982 -2.4994 0.9790
-0.4687 -4.6586 -2.4995 0.9790
-0.0522 -4.6821 -2.4997 0.9790
0.3648 -4.6683 -2.4998 0.9790
0.7789 -4.6175 -2.4999 0.9790
1.5854 -4.4067 -2.5001 0.9790
1.9714 -4.2482 -2.5002 0.9790
2.3418 -4.0560 -2.5003 0.9790
3.0240 -3.5768 -2.5004 0.9790
3.6105 -2.9841 -2.5006 0.9790
4.0825 -2.2967 -2.5007 0.9790
4.4252 -1.5365 -2.5007 0.9790
4.5444 -1.1366 -2.5007 0.9790
4.6275 -0.7276 -2.5007 0.9790
4.6832 0.1044 -2.5007 0.9790
4.5904 0.9331 -2.5006 0.9790
2.9861 3.2285 -2.3477 0.9803
2.6868 3.4814 -2.3476 0.9803
2.3661 3.7065 -2.3475 0.9803
2.0268 3.9022 -2.3474 0.9803
0.5374 4.3634 -2.3470 0.9803
-0.2447 4.3892 -2.3468 0.9803
-1.0190 4.2759 -2.3466 0.9803
-1.3955 4.1680 -2.3465 0.9803
-1.7608 4.0272 -2.3464 0.9803
-2.6057 3.8879 -2.4986 0.9790
-3.2535 3.3641 -2.4984 0.9790
-4.0264 2.3849 -2.4982 0.9790
-4.2227 2.0170 -2.4982 0.9790
-4.3854 1.6332 -2.4982 0.9790
-3.5312 0.3156 -1.8926 0.9841
-2.5975 0.0000 -1.4427 0.9882
-2.4018 -0.6579 -1.3831 0.9887
-2.3823 -0.8872 -1.4119 0.9884
-2.3733 -1.1337 -1.4608 0.9880
-2.3176 -1.3727 -1.4960 0.9878
-3.6513 -2.6280 -2.4986 0.9796
-3.4030 -2.9427 -2.4987 0.9796
-3.1277 -3.2340 -2.4988 0.9796
-2.8276 -3.4997 -2.4989 0.9796
-2.5049 -3.7376 -2.4990 0.9796
-0.6495 -4.4532 -2.4995 0.9796
-0.2506 -4.4936 -2.4996 0.9796
0.1504 -4.4982 -2.4997 0.9796
0.5502 -4.4672 -2.4998 0.9796
0.9457 -4.4006 -2.4999 0.9796
1.3336 -4.2992 -2.5000 0.9796
1.7111 -4.1636 -2.5001 0.9796
2.0749 -3.9949 -2.5002 0.9796
3.0569 -3.3051 -2.5004 0.9796
3.3390 -3.0200 -2.5005 0.9796
3.5947 -2.7109 -2.5005 0.9796
4.0185 -2.0306 -2.5006 0.9796
4.3150 -1.2859 -2.5007 0.9796
4.4123 -0.8968 -2.5007 0.9796
4.4477 0.6994 -2.5006 0.9796
4.3678 1.0925 -2.5006 0.9796
3.9237 2.2075 -2.5004 0.9796
5.5677 3.8220 -3.7508 0.9696
5.2052 4.3023 -3.7506 0.9696
3.0636 3.0297 -2.3930 0.9805
2.7290 3.2280 -2.3476 0.9808
2.4308 3.4579 -2.3475 0.9808
1.4307 3.9767 -2.3472 0.9808
-0.4229 4.2042 -2.3467 0.9809
-1.1615 4.0622 -2.3465 0.9809
-1.5184 3.9425 -2.3464 0.9809
-2.6685 3.6218 -2.4986 0.9796
-3.9685 2.1177 -2.4983 0.9796
-4.1412 1.7561 -2.4982 0.9796
-4.4579 0.5996 -2.4982 0.9796
-2.4351 -0.3275 -1.3646 0.9888
-2.3870 -0.7697 -1.3929 0.9886
-2.3600 -1.2593 -1.4857 0.9878
-3.5307 -2.7881 -2.4986 0.9796
-0.8472 -4.4198 -2.4994 0.9796
0.7487 -4.4383 -2.4999 0.9796
3.2012 -3.1657 -2.5005 0.9796
4.1050 -1.8496 -2.5006 0.9796
4.2534 -1.4769 -2.5007 0.9796
4.4479 -0.6993 -2.5007 0.9796
4.4925 -0.3007 -2.5007 0.9796
4.5014 0.1004 -2.5007 0.9796
4.4745 0.5006 -2.5006 0.9796
4.3147 1.2859 -2.5005 0.9796
4.1831 1.6649 -2.5005 0.9796
4.0182 2.0305 -2.5004 0.9796
5.3918 4.0662 -3.7507 0.9696
2.5825 3.3462 -2.3476 0.9808
