ply
format ascii 1.0
element vertex 1592
property float32 x
property float32 y
property float32 z
property float32 I
end_header
-8.8091 8.3316 -2.3464 0.9518
-10.1468 6.6378 -2.3464 0.9518
-12.5936 2.8533 -2.4989 0.9488
-12.7976 1.7211 -2.4989 0.9488
-11.8879 -5.0409 -2.4988 0.9488
-11.3920 -6.0789 -2.4988 0.9488
-10.8056 -7.0687 -2.4988 0.9488
-9.3809 -8.8724 -2.4987 0.9488
-7.6590 -10.3950 -2.4987 0.9488
-4.6405 -12.0486 -2.4986 0.9488
1.0058 -12.8714 -2.4984 0.9488
2.1474 -12.7306 -2.4984 0.9488
3.2719 -12.4889 -2.4984 0.9488
4.3705 -12.1479 -2.4984 0.9488
6.4550 -11.1804 -2.4983 0.9488
8.3349 -9.8586 -2.4983 0.9488
11.2512 -6.3298 -2.4982 0.9488
11.7699 -5.3032 -2.4982 0.9488
12.1951 -4.2346 -2.4982 0.9488
12.5236 -3.1323 -2.4982 0.9488
12.9062 0.2876 -2.4982 0.9488
11.8792 2.4146 -2.3458 0.9518
11.6172 3.4623 -2.3459 0.9518
11.2630 4.4826 -2.3459 0.9518
10.2899 6.4086 -2.3459 0.9518
8.2314 8.8997 -2.3460 0.9518
3.5919 11.5791 -2.3461 0.9518
2.5471 11.8530 -2.3461 0.9518
1.4820 12.0328 -2.3462 0.9518
-6.7502 10.0720 -2.3463 0.9518
-7.6199 9.4312 -2.3464 0.9518
-8.4291 8.7157 -2.3464 0.9518
-10.4324 6.1792 -2.3464 0.9518
-12.8616 1.1493 -2.4989 0.9488
-11.8529 0.0000 -2.4988 0.9527
-11.8058 -1.0550 -2.4988 0.9527
-11.6650 -2.1015 -2.4988 0.9527
-8.9653 -7.7526 -2.4987 0.9527
-8.2396 -8.5197 -2.4987 0.9527
-7.4485 -9.2192 -2.4987 0.9527
-6.5983 -9.8454 -2.4986 0.9527
-4.7481 -10.8591 -2.4986 0.9527
-3.7627 -11.2385 -2.4986 0.9527
0.3960 -11.8446 -2.4985 0.9527
1.4486 -11.7622 -2.4984 0.9527
7.2402 -9.3814 -2.4983 0.9527
8.0464 -8.6997 -2.4983 0.9527
8.7888 -7.9489 -2.4983 0.9527
9.4613 -7.1351 -2.4983 0.9527
10.5764 -5.3445 -2.4982 0.9527
11.0101 -4.3819 -2.4982 0.9527
11.3564 -3.3846 -2.4982 0.9527
11.6126 -2.3603 -2.4982 0.9527
11.8236 0.7915 -2.4982 0.9527
10.7949 2.7000 -2.3459 0.9555
10.1452 4.5712 -2.3459 0.9555
9.6982 5.4561 -2.3459 0.9555
8.5772 7.0893 -2.3459 0.9555
7.1845 8.4979 -2.3460 0.9555
5.5641 9.6373 -2.3460 0.9555
4.6843 10.0944 -2.3461 0.9555
0.8670 11.0949 -2.3462 0.9555
-1.1140 11.0731 -2.3462 0.9555
-2.0951 10.9301 -2.3462 0.9555
-3.0597 10.7004 -2.3463 0.9555
-7.3732 8.3370 -2.3464 0.9555
-8.0860 7.6477 -2.3464 0.9555
-9.3140 6.0929 -2.3464 0.9555
-10.1311 5.4062 -2.4209 0.9541
-10.9124 4.6273 -2.4988 0.9527
-11.5599 2.6191 -2.4988 0.9527
-11.8411 0.5280 -2.4988 0.9527
-10.4570 -5.5800 -2.4988 0.9527
-8.6110 -8.1442 -2.4987 0.9527
-7.8519 -8.8782 -2.4987 0.9527
-7.0304 -9.5418 -2.4987 0.9527
-6.1532 -10.1295 -2.4986 0.9527
-5.2271 -10.6369 -2.4986 0.9527
-1.1863 -11.7918 -2.4985 0.9527
3.0034 -11.4639 -2.4984 0.9527
4.0118 -11.1510 -2.4984 0.9527
4.9884 -10.7496 -2.4984 0.9527
5.9253 -10.2629 -2.4983 0.9527
6.8152 -9.6946 -2.4983 0.9527
9.1341 -7.5495 -2.4983 0.9527
11.1944 -3.8871 -2.4982 0.9527
11.4959 -2.8753 -2.4982 0.9527
10.3387 4.1147 -2.3459 0.9555
8.2530 7.4644 -2.3460 0.9555
6.7989 8.8096 -2.3460 0.9555
5.1293 9.8756 -2.3461 0.9555
3.2971 10.6288 -2.3461 0.9555
-2.5800 10.8260 -2.3462 0.9555
-4.4587 10.1973 -2.3463 0.9555
-5.3486 9.7600 -2.3463 0.9555
-6.1961 9.2453 -2.3463 0.9555
-7.7373 8.0003 -2.3464 0.9555
-9.0333 6.5018 -2.3464 0.9555
-10.6954 5.1087 -2.4988 0.9527
-11.4318 3.1315 -2.4988 0.9527
-11.6651 2.1016 -2.4988 0.9527
-11.8059 1.0550 -2.4988 0.9527
-10.9480 -0.0000 -2.4988 0.9561
-10.9045 -0.9744 -2.4988 0.9561
-10.7745 -1.9411 -2.4988 0.9561
-10.2595 -3.8207 -2.4988 0.9561
-9.4194 -5.5791 -2.4987 0.9561
-8.8854 -6.3953 -2.4987 0.9561
-8.2808 -7.1607 -2.4987 0.9561
-7.6106 -7.8693 -2.4987 0.9561
-6.8799 -8.5154 -2.4987 0.9561
-4.3856 -10.0302 -2.4986 0.9561
-3.4754 -10.3806 -2.4986 0.9561
-2.5377 -10.6486 -2.4985 0.9561
-1.5798 -10.8321 -2.4985 0.9561
-0.6094 -10.9296 -2.4985 0.9561
1.3381 -10.8643 -2.4984 0.9561
3.2431 -10.4547 -2.4984 0.9561
6.6876 -8.6653 -2.4983 0.9561
7.4323 -8.0356 -2.4983 0.9561
8.1179 -7.3422 -2.4983 0.9561
9.2910 -5.7865 -2.4983 0.9561
9.7691 -4.9366 -2.4983 0.9561
10.4896 -3.1262 -2.4983 0.9561
10.9429 -0.2438 -2.4983 0.9561
10.9212 0.7311 -2.4983 0.9561
9.7094 3.3715 -2.3459 0.9587
9.3708 4.2223 -2.3459 0.9587
8.9579 5.0396 -2.3459 0.9587
7.9225 6.5481 -2.3460 0.9587
6.6361 7.8492 -2.3460 0.9587
5.1393 8.9016 -2.3460 0.9587
4.3267 9.3238 -2.3461 0.9587
2.6051 9.9434 -2.3461 0.9587
1.7097 10.1359 -2.3461 0.9587
0.8008 10.2480 -2.3462 0.9587
-0.1145 10.2787 -2.3462 0.9587
-1.9352 10.0957 -2.3462 0.9587
-2.8261 9.8835 -2.3462 0.9587
-4.5338 9.2260 -2.3463 0.9587
-5.3370 8.7859 -2.3463 0.9587
-6.0978 8.2761 -2.3463 0.9587
-6.8103 7.7005 -2.3463 0.9587
-7.4687 7.0639 -2.3464 0.9587
-8.6029 5.6277 -2.3464 0.9587
-10.0793 4.2740 -2.4988 0.9561
-10.4197 3.3599 -2.4988 0.9561
-10.6774 2.4192 -2.4988 0.9561
-10.8503 1.4592 -2.4988 0.9561
-10.9371 0.4877 -2.4988 0.9561
-10.8502 -1.4592 -2.4988 0.9561
-10.6773 -2.4191 -2.4988 0.9561
-10.4195 -3.3599 -2.4988 0.9561
-10.0791 -4.2739 -2.4988 0.9561
-9.6586 -5.1540 -2.4987 0.9561
-7.2524 -8.2005 -2.4987 0.9561
-6.4937 -8.8133 -2.4986 0.9561
-5.6834 -9.3562 -2.4986 0.9561
-4.8281 -9.8249 -2.4986 0.9561
-3.9344 -10.2155 -2.4986 0.9561
-2.0608 -10.7510 -2.4985 0.9561
-1.0957 -10.8917 -2.4985 0.9561
-0.1219 -10.9459 -2.4985 0.9561
2.7742 -10.5889 -2.4984 0.9561
4.6076 -9.9291 -2.4984 0.9561
5.4730 -9.4794 -2.4983 0.9561
7.0669 -8.3588 -2.4983 0.9561
7.7828 -7.6966 -2.4983 0.9561
9.5396 -5.3669 -2.4983 0.9561
10.3399 -3.5904 -2.4983 0.9561
10.6184 -2.6559 -2.4983 0.9561
10.8127 -1.7002 -2.4983 0.9561
9.5496 3.8007 -2.3459 0.9587
9.1734 4.6355 -2.3459 0.9587
8.7245 5.4337 -2.3459 0.9587
8.2063 6.1887 -2.3460 0.9587
7.6230 6.8946 -2.3460 0.9587
6.9791 7.5458 -2.3460 0.9587
5.5308 8.6638 -2.3460 0.9587
3.9071 9.5073 -2.3461 0.9587
3.0454 9.8175 -2.3461 0.9587
2.1595 10.0496 -2.3461 0.9587
1.2565 10.2021 -2.3461 0.9587
0.3435 10.2735 -2.3462 0.9587
-1.4835 10.1719 -2.3462 0.9587
-2.3830 9.9995 -2.3462 0.9587
-4.9403 9.0149 -2.3463 0.9587
-7.1466 7.3895 -2.3463 0.9587
-7.7760 6.7242 -2.3464 0.9587
-8.3436 6.0054 -2.3464 0.9587
-8.8451 5.2390 -2.3464 0.9587
-10.2597 3.8207 -2.4988 0.9561
-10.5590 2.8924 -2.4988 0.9561
-10.7745 1.9412 -2.4988 0.9561
-10.1659 0.0000 -2.4988 0.9590
-10.1256 -0.9048 -2.4988 0.9590
-9.1730 -4.3816 -2.4987 0.9590
-8.7466 -5.1806 -2.4987 0.9590
-7.6893 -6.6492 -2.4987 0.9590
-7.0670 -7.3072 -2.4987 0.9590
-5.6593 -8.4443 -2.4986 0.9590
-1.4670 -10.0584 -2.4985 0.9590
-0.5659 -10.1489 -2.4985 0.9590
0.3397 -10.1590 -2.4985 0.9590
1.2425 -10.0883 -2.4984 0.9590
3.0115 -9.7080 -2.4984 0.9590
5.4692 -8.5673 -2.4983 0.9590
6.2099 -8.0464 -2.4983 0.9590
6.9014 -7.4618 -2.4983 0.9590
8.1150 -6.1198 -2.4983 0.9590
9.0715 -4.5840 -2.4983 0.9590
9.4434 -3.7584 -2.4983 0.9590
9.7405 -2.9029 -2.4983 0.9590
10.1008 -1.1299 -2.4983 0.9590
10.1412 0.6789 -2.4983 0.9590
9.2588 2.3158 -2.3459 0.9615
9.0159 3.1307 -2.3459 0.9615
8.7015 3.9207 -2.3459 0.9615
7.3567 6.0804 -2.3460 0.9614
6.7863 6.7112 -2.3460 0.9614
6.1621 7.2886 -2.3460 0.9614
4.0177 8.6579 -2.3461 0.9614
3.2312 8.9812 -2.3461 0.9614
-0.9554 9.4972 -2.3462 0.9614
-1.7970 9.3746 -2.3462 0.9614
-4.2099 8.5670 -2.3463 0.9614
-4.9558 8.1583 -2.3463 0.9614
-5.6623 7.6849 -2.3463 0.9614
-6.9352 6.5593 -2.3463 0.9614
-7.9884 5.2258 -2.3464 0.9614
-10.1559 0.4529 -2.4988 0.9590
-9.9146 -2.2463 -2.4988 0.9590
-9.6752 -3.1199 -2.4988 0.9590
-8.9687 -4.7858 -2.4987 0.9590
-7.3855 -6.9851 -2.4987 0.9590
-5.2775 -8.6880 -2.4986 0.9590
-4.4832 -9.1231 -2.4986 0.9590
-3.6534 -9.4858 -2.4986 0.9590
-2.7946 -9.7733 -2.4986 0.9590
-1.9136 -9.9831 -2.4985 0.9590
-1.0175 -10.1137 -2.4985 0.9590
-0.1132 -10.1641 -2.4985 0.9590
1.6907 -10.0229 -2.4984 0.9590
3.4409 -9.5642 -2.4984 0.9590
5.0821 -8.8024 -2.4984 0.9590
5.8454 -8.3151 -2.4983 0.9590
7.8344 -6.4753 -2.4983 0.9590
8.3796 -5.7522 -2.4983 0.9590
8.8583 -4.9836 -2.4983 0.9590
9.6015 -3.3340 -2.4983 0.9590
9.8601 -2.4662 -2.4983 0.9590
10.0405 -1.5788 -2.4983 0.9590
8.1014 5.0456 -2.3460 0.9614
7.0785 6.4022 -2.3460 0.9614
6.4807 7.0068 -2.3460 0.9614
5.8314 7.5559 -2.3460 0.9614
5.1357 8.0450 -2.3460 0.9614
4.3994 8.4703 -2.3461 0.9614
3.6280 8.8283 -2.3461 0.9614
1.1668 9.4734 -2.3461 0.9614
0.3190 9.5397 -2.3462 0.9614
-1.3776 9.4453 -2.3462 0.9614
-3.0305 9.0516 -2.3463 0.9614
-3.8241 8.7460 -2.3463 0.9614
-5.3143 7.9295 -2.3463 0.9614
-5.9990 7.4251 -2.3463 0.9614
-6.6361 6.8617 -2.3463 0.9614
-7.2205 6.2438 -2.3463 0.9614
-7.7476 5.5764 -2.3464 0.9614
-8.6628 5.1309 -2.4748 0.9594
-9.5268 3.5478 -2.4988 0.9590
-9.8048 2.6858 -2.4988 0.9590
-9.4830 0.0000 -2.4988 0.9615
-9.1460 -2.5054 -2.4987 0.9615
-8.5568 -4.0872 -2.4987 0.9615
-7.6964 -5.5396 -2.4987 0.9615
-5.9593 -7.3760 -2.4986 0.9615
-5.2791 -7.8770 -2.4986 0.9615
-3.0104 -8.9916 -2.4986 0.9615
-1.3684 -9.3828 -2.4985 0.9615
-0.5279 -9.4672 -2.4985 0.9615
0.3168 -9.4766 -2.4985 0.9615
1.1590 -9.4107 -2.4985 0.9615
3.6040 -8.7699 -2.4984 0.9615
4.3703 -8.4142 -2.4984 0.9615
5.1018 -7.9918 -2.4984 0.9615
5.7928 -7.5060 -2.4983 0.9615
7.0318 -6.3599 -2.4983 0.9615
7.5699 -5.7087 -2.4983 0.9615
8.8091 -3.5060 -2.4983 0.9615
9.2912 -1.8885 -2.4983 0.9615
9.4224 -1.0540 -2.4983 0.9615
13.7996 3.4515 -3.7482 0.9429
8.4104 2.9204 -2.3459 0.9638
7.7594 4.3654 -2.3460 0.9638
7.3401 5.0387 -2.3460 0.9638
6.8625 5.6721 -2.3460 0.9638
5.1203 7.2837 -2.3460 0.9638
4.4517 7.7106 -2.3461 0.9638
3.7478 8.0763 -2.3461 0.9638
3.0141 8.3779 -2.3461 0.9638
2.2565 8.6130 -2.3461 0.9638
0.6936 8.8768 -2.3462 0.9638
-0.8912 8.8593 -2.3462 0.9638
-1.6762 8.7449 -2.3462 0.9638
-2.4479 8.5610 -2.3462 0.9638
-3.2002 8.3092 -2.3463 0.9638
-5.2819 7.1686 -2.3463 0.9638
-5.8990 6.6701 -2.3463 0.9638
-8.3663 4.4644 -2.4988 0.9615
-8.7305 3.7021 -2.4988 0.9615
-9.2486 2.0955 -2.4988 0.9615
-9.3984 1.2640 -2.4988 0.9615
-9.4736 0.4224 -2.4988 0.9615
-9.4736 -0.4224 -2.4988 0.9615
-9.3983 -1.2639 -2.4988 0.9615
-9.2485 -2.0954 -2.4988 0.9615
-7.9356 -5.1912 -2.4987 0.9615
-6.8893 -6.5159 -2.4987 0.9615
-6.2820 -7.1031 -2.4987 0.9615
-4.1821 -8.5103 -2.4986 0.9615
-0.9491 -9.4344 -2.4985 0.9615
-0.1056 -9.4813 -2.4985 0.9615
2.4030 -9.1721 -2.4984 0.9615
3.2098 -8.9217 -2.4984 0.9615
3.9911 -8.6006 -2.4984 0.9615
5.4527 -7.7566 -2.4984 0.9615
7.3081 -6.0403 -2.4983 0.9615
7.8167 -5.3659 -2.4983 0.9615
8.6442 -3.8949 -2.4983 0.9615
8.9566 -3.1100 -2.4983 0.9615
9.4600 -0.6333 -2.4983 0.9615
8.5321 2.5428 -2.3459 0.9638
8.2719 3.2921 -2.3459 0.9638
7.9461 4.0154 -2.3460 0.9638
7.5572 4.7067 -2.3460 0.9638
7.1084 5.3607 -2.3460 0.9638
6.0454 6.5362 -2.3460 0.9638
5.4397 7.0484 -2.3460 0.9638
4.7908 7.5046 -2.3460 0.9638
2.6379 8.5039 -2.3461 0.9638
1.8706 8.7050 -2.3461 0.9638
0.2975 8.8989 -2.3462 0.9638
-2.0641 8.6615 -2.3462 0.9638
-3.5672 8.1584 -2.3463 0.9638
-4.2792 7.8086 -2.3463 0.9638
-4.9573 7.3968 -2.3463 0.9638
-5.5960 6.9262 -2.3463 0.9638
-6.1903 6.4007 -2.3463 0.9638
-8.5569 4.0873 -2.4988 0.9615
-8.8868 3.3095 -2.4988 0.9615
-9.1461 2.5054 -2.4988 0.9615
-3.9277 -0.3510 -1.1095 0.9837
-3.7284 -0.6717 -1.0659 0.9844
-8.0137 -3.8278 -2.4987 0.9638
-7.6411 -4.5258 -2.4987 0.9638
-7.2080 -5.1879 -2.4987 0.9638
-6.7175 -5.8089 -2.4987 0.9638
-6.1738 -6.3837 -2.4987 0.9638
-4.9441 -7.3771 -2.4986 0.9638
-2.8194 -8.4210 -2.4986 0.9638
-0.4944 -8.8664 -2.4985 0.9638
1.0855 -8.8135 -2.4985 0.9638
1.8656 -8.6818 -2.4984 0.9638
3.3753 -8.2133 -2.4984 0.9638
5.4252 -7.0297 -2.4984 0.9638
6.0293 -6.5188 -2.4983 0.9638
6.5856 -5.9563 -2.4983 0.9638
7.0896 -5.3465 -2.4983 0.9638
7.9251 -4.0047 -2.4983 0.9638
8.2501 -3.2834 -2.4983 0.9638
7.2670 4.0884 -2.3460 0.9659
6.4270 5.3121 -2.3460 0.9659
5.9288 5.8631 -2.3460 0.9659
5.3834 6.3676 -2.3460 0.9659
4.1692 7.2213 -2.3461 0.9659
2.8228 7.8462 -2.3461 0.9659
2.1133 8.0664 -2.3461 0.9659
1.3870 8.2225 -2.3461 0.9659
0.6496 8.3134 -2.3462 0.9659
-0.8347 8.2970 -2.3462 0.9659
-1.5699 8.1898 -2.3462 0.9659
-2.2926 8.0177 -2.3462 0.9659
-3.6779 7.4843 -2.3463 0.9659
-5.5246 6.2468 -2.3463 0.9659
-7.4321 4.8619 -2.4987 0.9638
-7.8353 4.1811 -2.4987 0.9638
-8.1764 3.4671 -2.4988 0.9638
-8.4525 2.7256 -2.4988 0.9638
-8.8723 0.3956 -2.4988 0.9638
-8.1763 -3.4670 -2.4987 0.9638
-7.8352 -4.1810 -2.4987 0.9638
-7.4319 -4.8618 -2.4987 0.9638
-5.2678 -7.1496 -2.4986 0.9638
-4.6105 -7.5900 -2.4986 0.9638
-3.1917 -8.2870 -2.4986 0.9638
-2.4414 -8.5382 -2.4985 0.9638
3.7378 -8.0548 -2.4984 0.9638
5.1067 -7.2644 -2.4984 0.9638
5.7330 -6.7810 -2.4984 0.9638
6.3137 -6.2438 -2.4983 0.9638
7.7389 -4.3538 -2.4983 0.9638
8.0957 -3.6477 -2.4983 0.9638
8.3882 -2.9127 -2.4983 0.9638
8.8245 0.9872 -2.4983 0.9638
7.9906 2.3815 -2.3459 0.9659
7.0776 4.4080 -2.3460 0.9659
6.6573 5.0205 -2.3460 0.9659
5.6617 6.1214 -2.3460 0.9659
4.4867 7.0284 -2.3461 0.9659
3.8434 7.3999 -2.3461 0.9659
3.1695 7.7126 -2.3461 0.9659
1.0193 8.2762 -2.3461 0.9659
0.2786 8.3341 -2.3462 0.9659
-2.6475 7.9076 -2.3462 0.9659
-4.6426 6.9273 -2.3463 0.9659
-5.7974 5.9945 -2.3463 0.9659
-6.3080 5.4547 -2.3463 0.9659
-6.7684 4.8716 -2.3463 0.9659
-8.0138 3.8279 -2.4987 0.9638
-8.5656 2.3463 -2.4988 0.9638
-8.7404 1.5747 -2.4988 0.9638
-3.4798 -0.6269 -1.0586 0.9853
-7.5312 -3.5974 -2.4987 0.9658
-7.1811 -4.2534 -2.4987 0.9658
-5.2451 -6.4919 -2.4986 0.9658
-4.6464 -6.9329 -2.4986 0.9658
-4.0109 -7.3189 -2.4986 0.9658
-3.3435 -7.6468 -2.4986 0.9658
-1.2044 -8.2582 -2.4985 0.9658
0.2789 -8.3409 -2.4985 0.9658
1.0201 -8.2829 -2.4985 0.9658
1.7533 -8.1591 -2.4984 0.9658
2.4725 -7.9706 -2.4984 0.9658
3.8465 -7.4059 -2.4984 0.9658
4.4904 -7.0341 -2.4984 0.9658
5.0986 -6.6064 -2.4984 0.9658
6.1891 -5.5977 -2.4983 0.9658
7.7535 -3.0858 -2.4983 0.9658
8.2932 -0.9277 -2.4983 0.9658
8.3264 0.5574 -2.4983 0.9658
12.1458 3.0379 -3.7482 0.9491
6.4604 4.4348 -2.3460 0.9678
6.0401 4.9923 -2.3460 0.9678
5.5718 5.5101 -2.3460 0.9678
3.2986 7.1084 -2.3461 0.9678
2.6529 7.3738 -2.3461 0.9678
1.3035 7.7275 -2.3461 0.9678
0.6105 7.8129 -2.3462 0.9678
-0.0873 7.8362 -2.3462 0.9678
-0.7844 7.7975 -2.3462 0.9678
-1.4753 7.6968 -2.3462 0.9678
-2.1546 7.5349 -2.3462 0.9678
-2.8167 7.3133 -2.3462 0.9678
-4.6488 6.3095 -2.3463 0.9678
-5.1920 5.8706 -2.3463 0.9678
-5.6939 5.3853 -2.3463 0.9678
-6.9846 4.5691 -2.4987 0.9658
-8.2719 1.1125 -2.4987 0.9658
-3.5144 -0.4726 -1.0616 0.9853
-3.4642 -0.7849 -1.0634 0.9853
-7.6840 -3.2583 -2.4987 0.9658
-6.9845 -4.5690 -2.4987 0.9658
-6.0636 -5.7349 -2.4987 0.9658
-5.5291 -6.2518 -2.4986 0.9658
-4.3329 -7.1330 -2.4986 0.9658
-2.9995 -7.7881 -2.4986 0.9658
-2.2944 -8.0241 -2.4985 0.9658
-1.5711 -8.1965 -2.4985 0.9658
-0.8354 -8.3037 -2.4985 0.9658
-0.0930 -8.3450 -2.4985 0.9658
1.3881 -8.2291 -2.4985 0.9658
2.8251 -7.8526 -2.4984 0.9658
4.7993 -6.8271 -2.4984 0.9658
5.3878 -6.3728 -2.4984 0.9658
5.9336 -5.8679 -2.4984 0.9658
6.8800 -4.7228 -2.4983 0.9658
7.2730 -4.0917 -2.4983 0.9658
7.6083 -3.4281 -2.4983 0.9658
8.2437 -1.2962 -2.4983 0.9658
8.2933 0.9277 -2.4983 0.9658
12.2691 2.4938 -3.7482 0.9491
11.9985 3.5760 -3.7482 0.9491
7.2806 2.8977 -2.3460 0.9678
6.9939 3.5341 -2.3460 0.9678
6.6516 4.1427 -2.3460 0.9678
5.8118 5.2564 -2.3460 0.9678
5.3209 5.7529 -2.3460 0.9678
4.7877 6.2037 -2.3460 0.9678
3.6120 6.9544 -2.3461 0.9678
1.6464 7.6617 -2.3461 0.9678
0.2619 7.8323 -2.3462 0.9678
-0.4363 7.8246 -2.3462 0.9678
-1.8168 7.6234 -2.3462 0.9678
-3.1397 7.1806 -2.3462 0.9678
-3.7663 6.8727 -2.3463 0.9678
-4.3631 6.5103 -2.3463 0.9678
-4.9253 6.0961 -2.3463 0.9678
-5.4483 5.6335 -2.3463 0.9678
-5.9281 5.1263 -2.3463 0.9678
-7.8216 2.9128 -2.4987 0.9658
-8.0498 2.2051 -2.4987 0.9658
-8.2142 1.4799 -2.4987 0.9658
-3.7562 0.0000 -1.1929 0.9844
-7.3732 -2.7458 -2.4987 0.9675
-6.7694 -4.0096 -2.4987 0.9675
-6.3857 -4.5961 -2.4987 0.9675
-5.9512 -5.1462 -2.4987 0.9675
-5.4695 -5.6554 -2.4986 0.9675
-4.9444 -6.1198 -2.4986 0.9675
-3.7810 -6.8994 -2.4986 0.9675
-2.4977 -7.4603 -2.4986 0.9675
-0.4380 -7.8550 -2.4985 0.9675
0.2629 -7.8628 -2.4985 0.9675
0.9617 -7.8080 -2.4985 0.9675
4.8064 -6.2278 -2.4984 0.9675
6.6775 -4.1588 -2.4983 0.9675
7.0212 -3.5479 -2.4983 0.9675
7.3091 -2.9089 -2.4983 0.9675
7.5390 -2.2469 -2.4983 0.9675
7.7090 -1.5669 -2.4983 0.9675
7.8179 -0.8746 -2.4983 0.9675
7.8647 -0.1752 -2.4983 0.9675
11.4497 2.8638 -3.7483 0.9517
6.7348 3.0346 -2.3460 0.9695
6.4381 3.6220 -2.3460 0.9695
5.2525 5.1943 -2.3460 0.9695
4.7693 5.6412 -2.3460 0.9695
3.6936 6.3976 -2.3461 0.9695
0.5755 7.3650 -2.3462 0.9695
-0.7395 7.3505 -2.3462 0.9695
-1.3908 7.2556 -2.3462 0.9695
-2.0310 7.1030 -2.3462 0.9695
-3.2583 6.6305 -2.3462 0.9695
-3.8355 6.3142 -2.3463 0.9695
-4.3823 5.9478 -2.3463 0.9695
-4.8943 5.5341 -2.3463 0.9695
-5.3675 5.0765 -2.3463 0.9695
-5.8848 4.6472 -2.3814 0.9690
-6.9414 3.7041 -2.4987 0.9675
-7.6734 1.7386 -2.4987 0.9675
-7.7977 1.0487 -2.4987 0.9675
-3.4557 -0.1541 -1.0986 0.9856
-3.3189 -0.4463 -1.0635 0.9860
-3.2827 -1.0585 -1.0954 0.9856
-7.2435 -3.0715 -2.4987 0.9675
-6.9413 -3.7040 -2.4987 0.9675
-6.5841 -4.3071 -2.4987 0.9675
-6.1746 -4.8760 -2.4987 0.9675
-3.4699 -7.0609 -2.4986 0.9675
-2.1629 -7.5642 -2.4985 0.9675
-1.4811 -7.7266 -2.4985 0.9675
-0.7875 -7.8277 -2.4985 0.9675
1.9938 -7.6102 -2.4984 0.9675
2.6632 -7.4025 -2.4984 0.9675
3.3115 -7.1360 -2.4984 0.9675
3.9334 -6.8129 -2.4984 0.9675
4.5242 -6.4357 -2.4984 0.9675
6.8562 -3.8572 -2.4983 0.9675
7.7712 -1.2220 -2.4983 0.9675
7.8491 -0.5254 -2.4983 0.9675
7.8647 0.1753 -2.4983 0.9675
7.7091 1.5669 -2.4983 0.9675
11.3107 3.3710 -3.7483 0.9517
6.8633 2.7316 -2.3460 0.9695
6.5930 3.3316 -2.3460 0.9695
5.4786 4.9552 -2.3460 0.9695
4.5133 5.8481 -2.3460 0.9695
3.9749 6.2266 -2.3461 0.9695
1.5520 7.2225 -2.3461 0.9695
0.2469 7.3834 -2.3462 0.9695
-1.0662 7.3103 -2.3462 0.9695
-2.3455 7.0055 -2.3462 0.9695
-3.5504 6.4788 -2.3463 0.9695
-4.1130 6.1371 -2.3463 0.9695
-5.5883 4.8324 -2.3463 0.9695
-6.3858 4.5962 -2.4987 0.9675
-7.5884 2.0787 -2.4987 0.9675
-7.8367 0.7003 -2.4987 0.9675
-3.6184 -0.0000 -1.2157 0.9848
-3.1483 -0.5672 -1.0748 0.9866
-3.1349 -0.8587 -1.0921 0.9864
-5.1700 -5.3457 -2.4986 0.9691
-4.1402 -6.1776 -2.4986 0.9691
-2.9793 -6.8138 -2.4986 0.9691
-2.3610 -7.0518 -2.4986 0.9691
-1.0732 -7.3586 -2.4985 0.9691
0.2485 -7.4322 -2.4985 0.9691
0.9090 -7.3806 -2.4985 0.9691
2.2032 -7.1024 -2.4984 0.9691
2.8266 -6.8780 -2.4984 0.9691
3.4275 -6.5991 -2.4984 0.9691
4.0012 -6.2678 -2.4984 0.9691
4.5432 -5.8868 -2.4984 0.9691
5.0491 -5.4590 -2.4984 0.9691
5.5149 -4.9879 -2.4984 0.9691
5.9370 -4.4773 -2.4984 0.9691
6.3119 -3.9311 -2.4984 0.9691
7.2869 -1.4811 -2.4983 0.9691
7.4193 0.4967 -2.4983 0.9691
7.2138 1.8043 -2.4984 0.9691
10.5389 3.6596 -3.7483 0.9540
6.3661 2.8684 -2.3460 0.9710
6.0855 3.4237 -2.3460 0.9710
5.7567 3.9517 -2.3460 0.9710
5.3821 4.4485 -2.3460 0.9710
4.9649 4.9099 -2.3460 0.9710
3.4914 6.0472 -2.3461 0.9710
2.3639 6.5705 -2.3461 0.9710
1.7697 6.7549 -2.3461 0.9710
1.1615 6.8856 -2.3461 0.9710
0.5440 6.9618 -2.3462 0.9710
-0.0778 6.9826 -2.3462 0.9710
-2.5098 6.5166 -2.3462 0.9710
-3.0799 6.2674 -2.3462 0.9710
-6.2236 4.0713 -2.4987 0.9691
-6.5613 3.5013 -2.4987 0.9691
-6.8469 2.9034 -2.4987 0.9691
-7.0782 2.2824 -2.4987 0.9691
-7.2532 1.6434 -2.4987 0.9691
-7.3707 0.9913 -2.4987 0.9691
-4.1559 0.1853 -1.3977 0.9826
-3.2675 -0.1457 -1.0989 0.9863
-6.8468 -2.9033 -2.4987 0.9691
-5.8364 -4.6090 -2.4987 0.9691
-4.4113 -5.9871 -2.4986 0.9691
-3.8609 -6.3559 -2.4986 0.9691
-2.6728 -6.9397 -2.4986 0.9691
-0.7444 -7.3991 -2.4985 0.9691
-0.0828 -7.4359 -2.4985 0.9691
4.8009 -5.6786 -2.4984 0.9691
6.1305 -4.2084 -2.4984 0.9691
6.4807 -3.6460 -2.4983 0.9691
7.0245 -2.4392 -2.4983 0.9691
7.2137 -1.8043 -2.4983 0.9691
7.4341 0.1657 -2.4983 0.9691
7.3899 0.8267 -2.4983 0.9691
7.2870 1.4811 -2.4984 0.9691
10.6914 3.1864 -3.7483 0.9540
6.2320 3.1492 -2.3460 0.9710
5.5749 4.2043 -2.3460 0.9710
5.1786 4.6838 -2.3460 0.9710
4.7412 5.1262 -2.3460 0.9710
4.2662 5.5279 -2.3461 0.9710
3.2185 6.1968 -2.3461 0.9710
0.8536 6.9306 -2.3461 0.9710
0.2333 6.9791 -2.3462 0.9710
-0.3888 6.9722 -2.3462 0.9710
-1.0078 6.9100 -2.3462 0.9710
-2.2170 6.6219 -2.3462 0.9710
-3.8878 5.8010 -2.3463 0.9710
-4.8548 5.0198 -2.3463 0.9710
-6.3988 3.7901 -2.4987 0.9691
-7.4075 0.6620 -2.4987 0.9691
-3.0930 -0.2764 -1.1011 0.9869
-3.0229 -0.8281 -1.1114 0.9868
-3.0314 -1.1289 -1.1470 0.9864
-5.3302 -4.6091 -2.4986 0.9705
-4.4284 -5.4811 -2.4986 0.9705
-3.9230 -5.8535 -2.4986 0.9705
-1.6335 -6.8544 -2.4985 0.9705
-1.0169 -6.9725 -2.4985 0.9705
0.2355 -7.0423 -2.4985 0.9705
0.8613 -6.9933 -2.4985 0.9705
1.4803 -6.8888 -2.4985 0.9705
2.0876 -6.7297 -2.4984 0.9705
2.6783 -6.5172 -2.4984 0.9705
3.2477 -6.2529 -2.4984 0.9705
3.7913 -5.9390 -2.4984 0.9705
4.3049 -5.5779 -2.4984 0.9705
4.7842 -5.1726 -2.4984 0.9705
5.2256 -4.7262 -2.4984 0.9705
5.6255 -4.2424 -2.4984 0.9705
6.2885 -3.1777 -2.4984 0.9705
7.0021 -0.7833 -2.4984 0.9705
7.0441 -0.1570 -2.4984 0.9705
7.0301 0.4706 -2.4984 0.9705
6.9603 1.0945 -2.4984 0.9705
6.8353 1.7096 -2.4984 0.9705
9.9860 3.4675 -3.7483 0.9561
6.0321 2.7179 -2.3460 0.9723
5.7663 3.2441 -2.3460 0.9723
5.4547 3.7444 -2.3460 0.9723
5.0998 4.2151 -2.3460 0.9723
4.7044 4.6523 -2.3460 0.9723
3.8050 5.4128 -2.3461 0.9723
3.3082 5.7300 -2.3461 0.9723
2.7851 6.0017 -2.3461 0.9723
1.1005 6.5244 -2.3461 0.9723
0.5155 6.5965 -2.3461 0.9723
-1.2456 6.4984 -2.3462 0.9723
-1.8191 6.3618 -2.3462 0.9723
-2.9183 5.9385 -2.3462 0.9723
-3.9250 5.3271 -2.3463 0.9723
-5.5303 4.3673 -2.4987 0.9705
-6.2170 3.3175 -2.4987 0.9705
-6.9840 0.9393 -2.4987 0.9705
-3.9464 0.1760 -1.4007 0.9834
-3.1623 -0.1410 -1.1224 0.9867
-5.8970 -3.8576 -2.4987 0.9705
-5.5302 -4.3671 -2.4986 0.9705
-3.1078 -6.3241 -2.4986 0.9705
-1.9372 -6.7748 -2.4985 0.9705
-1.3265 -6.9204 -2.4985 0.9705
-0.7053 -7.0109 -2.4985 0.9705
-0.0785 -7.0458 -2.4985 0.9705
0.5489 -7.0248 -2.4985 0.9705
1.1720 -6.9480 -2.4985 0.9705
1.7857 -6.8161 -2.4985 0.9705
2.3853 -6.6300 -2.4984 0.9705
2.9659 -6.3914 -2.4984 0.9705
3.5230 -6.1020 -2.4984 0.9705
4.0521 -5.7642 -2.4984 0.9705
5.4309 -4.4888 -2.4984 0.9705
5.8089 -3.9875 -2.4984 0.9705
6.4239 -2.8944 -2.4984 0.9705
6.9603 -1.0944 -2.4983 0.9705
7.0022 0.7833 -2.4984 0.9705
10.1305 3.0192 -3.7483 0.9561
9.8216 3.9090 -3.7483 0.9561
5.6160 3.4977 -2.3460 0.9723
4.9070 4.4381 -2.3460 0.9723
3.5601 5.5769 -2.3461 0.9723
1.9603 6.3194 -2.3461 0.9723
0.8088 6.5670 -2.3461 0.9723
-0.3684 6.6064 -2.3462 0.9723
-0.9549 6.5474 -2.3462 0.9723
-1.5339 6.4365 -2.3462 0.9723
-2.1007 6.2745 -2.3462 0.9723
-3.1799 5.8027 -2.3462 0.9723
-4.1584 5.1470 -2.3463 0.9723
-5.7194 4.1166 -2.4987 0.9705
-6.0631 3.5912 -2.4987 0.9705
-6.3587 3.0373 -2.4987 0.9705
-6.9352 1.2494 -2.4987 0.9705
-2.9938 -0.2675 -1.1224 0.9872
-2.9455 -0.5307 -1.1176 0.9873
-2.9169 -0.7990 -1.1293 0.9872
-2.9238 -1.0888 -1.1650 0.9868
-5.7573 -3.4101 -2.4987 0.9718
-5.4309 -3.9090 -2.4986 0.9718
-5.0614 -4.3768 -2.4986 0.9718
-4.6518 -4.8099 -2.4986 0.9718
-2.1243 -6.3450 -2.4986 0.9718
-1.5511 -6.5088 -2.4985 0.9718
-0.9657 -6.6210 -2.4985 0.9718
-0.3725 -6.6806 -2.4985 0.9718
0.2236 -6.6872 -2.4985 0.9718
1.4057 -6.5416 -2.4985 0.9718
1.9823 -6.3904 -2.4984 0.9718
3.6002 -5.6396 -2.4984 0.9718
4.0878 -5.2968 -2.4984 0.9718
6.2164 -2.4741 -2.4984 0.9718
6.4119 -1.9109 -2.4984 0.9718
6.5566 -1.3327 -2.4984 0.9718
6.6890 -0.1490 -2.4984 0.9718
6.6095 1.0393 -2.4984 0.9718
6.4907 1.6235 -2.4984 0.9718
9.4826 3.2927 -3.7483 0.9580
5.1797 3.5556 -2.3460 0.9735
4.4672 4.4178 -2.3460 0.9735
4.0563 4.7979 -2.3461 0.9735
3.6132 5.1399 -2.3461 0.9735
3.1414 5.4411 -2.3461 0.9735
2.6447 5.6992 -2.3461 0.9735
2.1269 5.9120 -2.3461 0.9735
1.5923 6.0778 -2.3461 0.9735
1.0450 6.1955 -2.3461 0.9735
0.4895 6.2639 -2.3461 0.9735
-0.0700 6.2827 -2.3462 0.9735
-0.6289 6.2516 -2.3462 0.9735
-1.1828 6.1708 -2.3462 0.9735
-1.7274 6.0411 -2.3462 0.9735
-3.2621 5.3701 -2.3462 0.9735
-3.7271 5.0585 -2.3462 0.9735
-5.2515 4.1471 -2.4987 0.9718
-6.3686 2.0536 -2.4987 0.9718
-6.5261 1.4786 -2.4987 0.9718
-2.9640 -0.3986 -1.1167 0.9873
-2.9106 -0.9385 -1.1419 0.9870
-5.2514 -4.1470 -2.4986 0.9718
-4.4329 -5.0123 -2.4986 0.9718
-3.9691 -5.3869 -2.4986 0.9718
-3.4739 -5.7188 -2.4986 0.9718
-2.9511 -6.0053 -2.4986 0.9718
-2.4049 -6.2441 -2.4986 0.9718
-1.8395 -6.4333 -2.4985 0.9718
-1.2596 -6.5714 -2.4985 0.9718
0.5214 -6.6707 -2.4985 0.9718
1.1129 -6.5977 -2.4985 0.9718
2.2650 -6.2958 -2.4984 0.9718
3.8478 -5.4736 -2.4984 0.9718
4.7573 -4.7046 -2.4984 0.9718
5.1572 -4.2625 -2.4984 0.9718
5.5161 -3.7865 -2.4984 0.9718
6.1000 -2.7485 -2.4984 0.9718
6.4907 -1.6234 -2.4984 0.9718
6.6094 -1.0393 -2.4984 0.9718
6.6757 -0.4469 -2.4984 0.9718
6.6890 0.1491 -2.4984 0.9718
6.5566 1.3327 -2.4984 0.9718
6.4120 1.9110 -2.4984 0.9718
5.6074 2.8335 -2.3460 0.9735
5.0162 3.7829 -2.3460 0.9735
3.3807 5.2958 -2.3461 0.9735
0.7680 6.2359 -2.3461 0.9735
0.2099 6.2795 -2.3462 0.9735
-0.3498 6.2734 -2.3462 0.9735
-0.9068 6.2174 -2.3462 0.9735
-3.4981 5.2195 -2.3462 0.9735
-4.3681 4.5166 -2.3463 0.9735
-5.0615 4.3769 -2.4987 0.9718
-5.4310 3.9090 -2.4987 0.9718
-5.7574 3.4102 -2.4987 0.9718
-6.0381 2.8842 -2.4987 0.9718
-6.2708 2.3353 -2.4987 0.9718
-6.4538 1.7679 -2.4987 0.9718
-6.5855 1.1864 -2.4987 0.9718
-4.2614 0.3808 -1.5976 0.9819
-3.2641 0.0000 -1.2811 0.9861
-2.9005 -0.2592 -1.1429 0.9876
-2.8528 -1.0624 -1.1947 0.9870
-4.8156 -4.1642 -2.4986 0.9730
-4.4259 -4.5763 -2.4986 0.9730
-4.0010 -4.9521 -2.4986 0.9730
-2.0211 -6.0368 -2.4986 0.9730
0.7782 -6.3183 -2.4985 0.9730
2.4198 -5.8881 -2.4984 0.9730
3.4254 -5.3657 -2.4984 0.9730
4.3224 -4.6733 -2.4984 0.9730
4.7212 -4.2700 -2.4984 0.9730
5.0825 -3.8329 -2.4984 0.9730
5.4035 -3.3653 -2.4984 0.9730
6.1006 -1.8182 -2.4984 0.9730
6.2382 -1.2679 -2.4984 0.9730
6.3263 -0.7077 -2.4984 0.9730
6.3642 -0.1418 -2.4984 0.9730
6.2885 0.9888 -2.4984 0.9730
6.1755 1.5446 -2.4984 0.9730
4.9282 3.3830 -2.3460 0.9746
4.6075 3.8082 -2.3460 0.9746
3.4377 4.8903 -2.3461 0.9746
1.5150 5.7827 -2.3461 0.9746
0.4657 5.9597 -2.3461 0.9746
-0.5984 5.9479 -2.3462 0.9746
-1.6435 5.7477 -2.3462 0.9746
-3.5461 4.8128 -2.3462 0.9746
-3.9604 4.4781 -2.3463 0.9746
-4.6254 4.3747 -2.4987 0.9730
-5.6169 2.9973 -2.4987 0.9730
-6.0593 1.9539 -2.4987 0.9730
-6.2092 1.4068 -2.4987 0.9730
-6.3098 0.8486 -2.4987 0.9730
-3.6456 0.1626 -1.4322 0.9844
-5.6168 -2.9972 -2.4987 0.9730
-5.3277 -3.4852 -2.4986 0.9730
-4.9964 -3.9456 -2.4986 0.9730
-4.6253 -4.3746 -2.4986 0.9730
-3.3052 -5.4411 -2.4986 0.9730
-2.2881 -5.9408 -2.4986 0.9730
-0.6372 -6.3341 -2.4985 0.9730
0.4959 -6.3467 -2.4985 0.9730
2.1551 -5.9901 -2.4984 0.9730
2.6796 -5.7744 -2.4984 0.9730
3.6610 -5.2078 -2.4984 0.9730
4.1100 -4.8613 -2.4984 0.9730
6.3515 -0.4251 -2.4984 0.9730
6.3642 0.1419 -2.4984 0.9730
6.1006 1.8182 -2.4984 0.9730
8.8736 3.5316 -3.7483 0.9598
5.0740 3.1601 -2.3460 0.9746
4.7726 3.5992 -2.3460 0.9746
4.4333 4.0097 -2.3460 0.9746
4.0588 4.3884 -2.3460 0.9746
3.6522 4.7322 -2.3461 0.9746
2.7553 5.3049 -2.3461 0.9746
1.7711 5.7094 -2.3461 0.9746
1.2559 5.8444 -2.3461 0.9746
0.1998 5.9746 -2.3462 0.9746
-0.8627 5.9154 -2.3462 0.9746
-1.3858 5.8152 -2.3462 0.9746
-1.8979 5.6688 -2.3462 0.9746
-2.8730 5.2425 -2.3462 0.9746
-3.7570 4.6501 -2.3462 0.9746
-4.2024 4.3452 -2.3724 0.9744
-4.8157 4.1643 -2.4987 0.9730
-5.1673 3.7192 -2.4987 0.9730
-5.4778 3.2445 -2.4987 0.9730
-4.1297 0.3690 -1.6273 0.9823
-3.1614 -0.0000 -1.3018 0.9864
-2.8130 -0.2514 -1.1629 0.9879
-2.7831 -0.5014 -1.1645 0.9878
-2.7695 -0.7587 -1.1825 0.9877
-2.7842 -1.0369 -1.2234 0.9872
-5.4754 -2.6153 -2.4987 0.9741
-5.2208 -3.0923 -2.4986 0.9741
-4.9249 -3.5447 -2.4986 0.9741
-4.5898 -3.9689 -2.4986 0.9741
-3.8133 -4.7198 -2.4986 0.9741
-2.9160 -5.3211 -2.4986 0.9741
-0.8757 -6.0041 -2.4985 0.9741
0.2027 -6.0641 -2.4985 0.9741
0.7417 -6.0220 -2.4985 0.9741
1.7976 -5.7950 -2.4985 0.9741
2.7966 -5.3844 -2.4984 0.9741
3.7069 -4.8032 -2.4984 0.9741
4.4998 -4.0698 -2.4984 0.9741
5.6372 -2.2436 -2.4984 0.9741
6.0657 -0.1352 -2.4984 0.9741
6.0537 0.4053 -2.4984 0.9741
5.9936 0.9425 -2.4984 0.9741
8.2992 3.7395 -3.7483 0.9614
4.6971 3.2244 -2.3460 0.9757
4.3915 3.6296 -2.3460 0.9757
4.0510 4.0061 -2.3460 0.9757
3.2765 4.6609 -2.3461 0.9757
1.4439 5.5115 -2.3461 0.9757
0.9477 5.6182 -2.3461 0.9757
-0.0635 5.6972 -2.3462 0.9757
-0.5703 5.6690 -2.3462 0.9757
-1.0726 5.5958 -2.3462 0.9757
-2.0478 5.3170 -2.3462 0.9757
-2.9581 4.8697 -2.3462 0.9757
-3.3798 4.5871 -2.3462 0.9757
-3.7857 4.2806 -2.3531 0.9756
-4.4085 4.1695 -2.4987 0.9741
-4.7621 3.7606 -2.4987 0.9741
-5.3535 2.8567 -2.4987 0.9741
-5.7752 1.8622 -2.4987 0.9741
-5.9180 1.3408 -2.4987 0.9741
-2.7756 -0.6288 -1.1719 0.9878
-2.8016 -1.1880 -1.2531 0.9869
-5.3534 -2.8566 -2.4986 0.9741
-4.7620 -3.7605 -2.4986 0.9741
-4.4084 -4.1695 -2.4986 0.9741
-4.0198 -4.5453 -2.4986 0.9741
-3.5993 -4.8850 -2.4986 0.9741
-2.6761 -5.4457 -2.4986 0.9741
-1.6681 -5.8338 -2.4985 0.9741
-0.6073 -6.0371 -2.4985 0.9741
0.4727 -6.0491 -2.4985 0.9741
1.0092 -5.9829 -2.4985 0.9741
1.5377 -5.8694 -2.4985 0.9741
2.0540 -5.7092 -2.4985 0.9741
2.5540 -5.5037 -2.4984 0.9741
3.0337 -5.2545 -2.4984 0.9741
4.3141 -4.2663 -2.4984 0.9741
4.6766 -3.8653 -2.4984 0.9741
5.0021 -3.4337 -2.4984 0.9741
5.2879 -2.9749 -2.4984 0.9741
5.7315 -1.9902 -2.4984 0.9741
5.8859 -1.4722 -2.4984 0.9741
6.0296 0.6746 -2.4984 0.9741
5.9457 1.2086 -2.4984 0.9741
8.4575 3.3660 -3.7483 0.9614
4.2254 3.8217 -2.3460 0.9757
3.8685 4.1826 -2.3461 0.9757
3.0657 4.8023 -2.3461 0.9757
2.1656 5.2698 -2.3461 0.9757
1.1970 5.5704 -2.3461 0.9757
0.6965 5.6548 -2.3461 0.9757
0.1904 5.6944 -2.3462 0.9757
-0.8223 5.6380 -2.3462 0.9757
-1.3208 5.5425 -2.3462 0.9757
-1.8089 5.4029 -2.3462 0.9757
-2.7382 4.9966 -2.3462 0.9757
-3.1721 4.7331 -2.3462 0.9757
-3.5808 4.4320 -2.3462 0.9757
-4.1796 4.3217 -2.4757 0.9743
-5.6865 2.1177 -2.4987 0.9741
-3.0794 0.0000 -1.3283 0.9867
-2.7539 -0.2461 -1.1927 0.9880
-2.7884 -1.6516 -1.3980 0.9860
-4.3815 -3.7888 -2.4986 0.9751
-3.6403 -4.5056 -2.4986 0.9751
-2.3205 -5.3072 -2.4986 0.9751
-1.8389 -5.4926 -2.4985 0.9751
-0.8359 -5.7316 -2.4985 0.9751
-0.3225 -5.7832 -2.4985 0.9751
0.1935 -5.7889 -2.4985 0.9751
0.7080 -5.7487 -2.4985 0.9751
1.7160 -5.5320 -2.4985 0.9751
2.2016 -5.3573 -2.4984 0.9751
2.6697 -5.1401 -2.4984 0.9751
4.2956 -3.8851 -2.4984 0.9751
4.9164 -3.0620 -2.4984 0.9751
5.3814 -2.1417 -2.4984 0.9751
5.5506 -1.6543 -2.4984 0.9751
5.6758 -1.1537 -2.4984 0.9751
5.7560 -0.6439 -2.4984 0.9751
5.7905 -0.1290 -2.4984 0.9751
5.7790 0.3869 -2.4984 0.9751
7.9226 3.5698 -3.7483 0.9629
7.5734 4.2607 -3.7484 0.9629
4.1922 3.4649 -2.3460 0.9766
3.8671 3.8243 -2.3461 0.9766
3.5114 4.1533 -2.3461 0.9766
3.1278 4.4494 -2.3461 0.9766
1.8412 5.1178 -2.3461 0.9766
0.4237 5.4224 -2.3461 0.9766
-0.5444 5.4117 -2.3462 0.9766
-1.0239 5.3418 -2.3462 0.9766
-1.4953 5.2295 -2.3462 0.9766
-2.3989 4.8815 -2.3462 0.9766
-2.8238 4.6487 -2.3462 0.9766
-3.2264 4.3789 -2.3462 0.9766
-4.2084 3.9803 -2.4987 0.9751
-4.5460 3.5900 -2.4987 0.9751
-4.8475 3.1711 -2.4987 0.9751
-5.3329 2.2614 -2.4987 0.9751
-5.5131 1.7778 -2.4987 0.9751
-5.6494 1.2800 -2.4987 0.9751
-5.7409 0.7721 -2.4987 0.9751
-3.3811 0.1508 -1.4599 0.9854
-2.8614 -0.1276 -1.2355 0.9876
-2.7166 -0.8760 -1.2313 0.9876
-2.7334 -1.1590 -1.2807 0.9871
-4.8474 -3.1710 -2.4986 0.9751
-4.2083 -3.9802 -2.4986 0.9751
-3.4359 -4.6633 -2.4986 0.9751
-3.0072 -4.9506 -2.4986 0.9751
-1.0904 -5.6887 -2.4985 0.9751
-0.5798 -5.7631 -2.4985 0.9751
-0.0645 -5.7918 -2.4985 0.9751
0.9634 -5.7114 -2.4985 0.9751
5.0479 -2.8399 -2.4984 0.9751
5.2806 -2.3793 -2.4984 0.9751
5.4714 -1.8999 -2.4984 0.9751
5.7216 -0.8997 -2.4984 0.9751
5.7790 -0.3869 -2.4984 0.9751
5.7905 0.1291 -2.4984 0.9751
7.3761 4.5939 -3.7484 0.9629
4.0337 3.6482 -2.3460 0.9766
3.6930 3.9928 -2.3461 0.9766
2.9265 4.5844 -2.3461 0.9766
2.5069 4.8266 -2.3461 0.9766
2.0674 5.0306 -2.3461 0.9766
1.6114 5.1947 -2.3461 0.9766
1.1427 5.3176 -2.3461 0.9766
-0.3028 5.4306 -2.3462 0.9766
-0.7850 5.3821 -2.3462 0.9766
-1.2609 5.2909 -2.3462 0.9766
-3.0281 4.5183 -2.3462 0.9766
-3.4182 4.2309 -2.3462 0.9766
-4.9839 2.9520 -2.4987 0.9751
-5.4284 2.0215 -2.4987 0.9751
-5.7008 1.0271 -2.4987 0.9751
-3.8265 0.3420 -1.6572 0.9834
-2.9980 0.0000 -1.3528 0.9869
-2.6738 -0.4817 -1.2259 0.9881
-2.6546 -0.7272 -1.2419 0.9880
-2.6607 -0.9909 -1.2811 0.9876
-2.6666 -1.2737 -1.3334 0.9871
-2.6867 -1.5913 -1.4090 0.9864
-3.4800 -4.3073 -2.4986 0.9760
-2.6612 -4.8560 -2.4986 0.9760
-2.2184 -5.0736 -2.4986 0.9760
-0.7991 -5.4793 -2.4985 0.9760
-0.3083 -5.5287 -2.4985 0.9760
0.6769 -5.4957 -2.4985 0.9760
2.1047 -5.1215 -2.4985 0.9760
2.5522 -4.9138 -2.4984 0.9760
2.9794 -4.6672 -2.4984 0.9760
3.3830 -4.3834 -2.4984 0.9760
3.7597 -4.0649 -2.4984 0.9760
4.1066 -3.7141 -2.4984 0.9760
4.4208 -3.3339 -2.4984 0.9760
4.7000 -2.9272 -2.4984 0.9760
4.9419 -2.4972 -2.4984 0.9760
5.1445 -2.0475 -2.4984 0.9760
5.4260 -1.1029 -2.4984 0.9760
5.5027 -0.6155 -2.4984 0.9760
5.2307 1.8163 -2.4984 0.9760
7.2401 4.0732 -3.7484 0.9642
4.0077 3.3124 -2.3460 0.9774
2.5997 4.5029 -2.3461 0.9774
2.1886 4.7164 -2.3461 0.9774
1.7602 4.8925 -2.3461 0.9774
1.3177 5.0298 -2.3461 0.9774
0.8648 5.1272 -2.3461 0.9774
-0.0579 5.1993 -2.3462 0.9774
-1.8688 4.8523 -2.3462 0.9774
-2.6996 4.4441 -2.3462 0.9774
-3.0843 4.1861 -2.3462 0.9774
-4.6341 3.0315 -2.4987 0.9760
-5.0982 2.1619 -2.4987 0.9760
-5.4007 1.2237 -2.4987 0.9760
-5.4882 0.7381 -2.4987 0.9760
-2.7833 -0.1241 -1.2571 0.9878
-2.6870 -0.3614 -1.2234 0.9882
-2.6574 -0.8569 -1.2599 0.9878
-2.6675 -1.1311 -1.3074 0.9874
-4.8855 -2.6070 -2.4986 0.9760
-4.6341 -3.0314 -2.4986 0.9760
-4.3458 -3.4318 -2.4986 0.9760
-3.6685 -4.1480 -2.4986 0.9760
-3.2847 -4.4580 -2.4986 0.9760
-2.8749 -4.7327 -2.4986 0.9760
-1.5223 -5.3239 -2.4985 0.9760
-1.0424 -5.4383 -2.4985 0.9760
-0.5543 -5.5095 -2.4985 0.9760
-0.0617 -5.5369 -2.4985 0.9760
0.4314 -5.5204 -2.4985 0.9760
0.9210 -5.4600 -2.4985 0.9760
1.4033 -5.3564 -2.4985 0.9760
1.8745 -5.2102 -2.4985 0.9760
2.3308 -5.0227 -2.4984 0.9760
3.1844 -4.5298 -2.4984 0.9760
4.2679 -3.5275 -2.4984 0.9760
4.5650 -3.1336 -2.4984 0.9760
5.4698 -0.8601 -2.4984 0.9760
5.5246 -0.3698 -2.4984 0.9760
5.5356 0.1234 -2.4984 0.9760
5.5027 0.6156 -2.4984 0.9760
5.3064 1.5815 -2.4984 0.9760
7.4144 3.7467 -3.7484 0.9642
7.0515 4.3917 -3.7484 0.9642
4.1512 3.1306 -2.3460 0.9774
3.1767 4.1162 -2.3461 0.9774
1.9764 4.8093 -2.3461 0.9774
0.1738 5.1967 -2.3462 0.9774
-0.2895 5.1915 -2.3462 0.9774
-0.7504 5.1452 -2.3462 0.9774
-1.2054 5.0580 -2.3462 0.9774
-2.8948 4.3194 -2.3462 0.9774
-3.3826 4.1867 -2.4286 0.9767
-3.8497 3.9806 -2.4986 0.9760
-4.1887 3.6221 -2.4987 0.9760
-4.4945 3.2349 -2.4987 0.9760
-5.1895 1.9326 -2.4987 0.9760
-2.9112 0.0000 -1.3723 0.9872
-2.6212 -0.4722 -1.2555 0.9883
-2.6016 -0.7126 -1.2715 0.9881
-2.6023 -0.9691 -1.3090 0.9878
-4.3022 -3.0965 -2.4986 0.9768
-2.9510 -4.4032 -2.4986 0.9768
-2.5474 -4.6483 -2.4986 0.9768
-1.6828 -5.0263 -2.4985 0.9768
-0.7650 -5.2450 -2.4985 0.9768
-0.2951 -5.2922 -2.4985 0.9768
0.1771 -5.2974 -2.4985 0.9768
1.1136 -5.1821 -2.4985 0.9768
1.5704 -5.0624 -2.4985 0.9768
2.0147 -4.9025 -2.4985 0.9768
2.4431 -4.7037 -2.4984 0.9768
3.2383 -4.1960 -2.4984 0.9768
4.9245 -1.9599 -2.4984 0.9768
5.2884 0.3540 -2.4984 0.9768
5.2359 0.8233 -2.4984 0.9768
5.1418 1.2861 -2.4984 0.9768
4.8324 2.1774 -2.4984 0.9768
6.9305 3.8990 -3.7484 0.9654
6.5560 4.5004 -3.7484 0.9654
3.8363 3.1708 -2.3460 0.9782
3.2133 3.8008 -2.3461 0.9782
1.6849 4.6833 -2.3461 0.9782
1.2614 4.8147 -2.3461 0.9782
0.3877 4.9621 -2.3461 0.9782
-0.0554 4.9770 -2.3462 0.9782
-2.1952 4.4671 -2.3462 0.9782
-3.0410 4.1273 -2.4166 0.9776
-3.5116 3.9707 -2.4986 0.9768
-4.1600 3.2852 -2.4987 0.9768
-4.4359 2.9018 -2.4987 0.9768
-4.8802 2.0694 -2.4987 0.9768
-5.0450 1.6268 -2.4987 0.9768
-2.7082 -0.1208 -1.2778 0.9881
-2.6352 -0.3544 -1.2533 0.9883
-2.6131 -0.5921 -1.2630 0.9882
-2.6038 -1.1041 -1.3332 0.9876
-4.1600 -3.2851 -2.4986 0.9768
-3.8511 -3.6423 -2.4986 0.9768
-3.5116 -3.9706 -2.4986 0.9768
-1.4572 -5.0963 -2.4985 0.9768
-0.5306 -5.2738 -2.4985 0.9768
1.7943 -4.9874 -2.4985 0.9768
2.2311 -4.8079 -2.4985 0.9768
2.6502 -4.5902 -2.4984 0.9768
3.0482 -4.3361 -2.4984 0.9768
3.7687 -3.7269 -2.4984 0.9768
4.3697 -2.9997 -2.4984 0.9768
5.2989 0.1181 -2.4984 0.9768
5.0795 1.5138 -2.4984 0.9768
4.9246 1.9599 -2.4984 0.9768
7.0973 3.5864 -3.7484 0.9654
6.3490 4.7880 -3.7484 0.9654
3.6912 3.3385 -2.3461 0.9782
3.3794 3.6538 -2.3461 0.9782
3.0408 3.9401 -2.3461 0.9782
2.6781 4.1952 -2.3461 0.9782
2.2941 4.4169 -2.3461 0.9782
1.8919 4.6036 -2.3461 0.9782
1.4746 4.7537 -2.3461 0.9782
1.0457 4.8661 -2.3461 0.9782
-0.2771 4.9696 -2.3462 0.9782
-1.1538 4.8417 -2.3462 0.9782
-1.5802 4.7198 -2.3462 0.9782
-2.7711 4.1347 -2.3462 0.9782
-3.6850 3.8103 -2.4986 0.9768
-4.0095 3.4672 -2.4986 0.9768
-4.3022 3.0966 -2.4987 0.9768
-3.7077 0.3313 -1.7547 0.9837
-2.8279 0.0000 -1.3909 0.9875
-2.5453 -0.9479 -1.3359 0.9880
-4.1231 -2.9676 -2.4986 0.9776
-3.1925 -3.9514 -2.4986 0.9776
-2.8281 -4.2198 -2.4986 0.9776
-2.4413 -4.4548 -2.4986 0.9776
-1.6128 -4.8171 -2.4985 0.9776
-1.1776 -4.9414 -2.4985 0.9776
0.1697 -5.0769 -2.4985 0.9776
1.9308 -4.6984 -2.4985 0.9776
3.1035 -4.0213 -2.4984 0.9776
3.4491 -3.7291 -2.4984 0.9776
4.0556 -3.0585 -2.4984 0.9776
4.3117 -2.6854 -2.4984 0.9776
4.5336 -2.2909 -2.4984 0.9776
4.7195 -1.8783 -2.4984 0.9776
4.8680 -1.4508 -2.4984 0.9776
5.0481 -0.5647 -2.4984 0.9776
5.0783 -0.1132 -2.4984 0.9776
5.0682 0.3393 -2.4984 0.9776
5.0179 0.7890 -2.4984 0.9776
4.9278 1.2325 -2.4984 0.9776
4.7985 1.6662 -2.4984 0.9776
6.6420 3.7367 -3.7484 0.9666
6.2830 4.3130 -3.7484 0.9666
3.0796 3.6425 -2.3461 0.9790
2.7431 3.9022 -2.3461 0.9790
2.3850 4.1309 -2.3461 0.9790
1.6148 4.4883 -2.3461 0.9790
0.7934 4.7036 -2.3461 0.9790
0.3716 4.7555 -2.3461 0.9790
-0.0531 4.7697 -2.3462 0.9790
-0.8980 4.6848 -2.3462 0.9790
-1.3114 4.5863 -2.3462 0.9790
-1.7144 4.4514 -2.3462 0.9790
-3.0134 4.0898 -2.4986 0.9776
-3.3654 3.8054 -2.4986 0.9776
-3.6908 3.4907 -2.4986 0.9776
-4.4819 2.3916 -2.4987 0.9776
-4.8349 1.5591 -2.4987 0.9776
-5.0348 0.6771 -2.4987 0.9776
-3.0630 0.1366 -1.5081 0.9864
-2.5845 -0.3476 -1.2826 0.9884
-2.5616 -0.5804 -1.2919 0.9884
-2.5430 -0.8200 -1.3142 0.9882
-4.2512 -2.7810 -2.4986 0.9776
-3.9868 -3.1483 -2.4986 0.9776
-3.6907 -3.4907 -2.4986 0.9776
-3.3654 -3.8053 -2.4986 0.9776
-3.0133 -4.0897 -2.4986 0.9776
-2.6373 -4.3416 -2.4986 0.9776
-2.2404 -4.5591 -2.4986 0.9776
-1.8257 -4.7404 -2.4986 0.9776
-0.9563 -4.9890 -2.4985 0.9776
-0.5085 -5.0543 -2.4985 0.9776
0.8449 -5.0089 -2.4985 0.9776
1.2874 -4.9139 -2.4985 0.9776
1.7196 -4.7797 -2.4985 0.9776
2.5398 -4.3991 -2.4984 0.9776
2.9213 -4.1555 -2.4984 0.9776
3.2795 -3.8790 -2.4984 0.9776
3.6118 -3.5717 -2.4984 0.9776
3.9153 -3.2361 -2.4984 0.9776
4.4271 -2.4906 -2.4984 0.9776
4.6312 -2.0867 -2.4984 0.9776
5.0179 -0.7890 -2.4984 0.9776
5.0682 -0.3393 -2.4984 0.9776
5.0783 0.1132 -2.4984 0.9776
5.0481 0.5647 -2.4984 0.9776
4.8680 1.4508 -2.4984 0.9776
6.0847 4.5887 -3.7484 0.9666
3.2388 3.5017 -2.3461 0.9790
2.9142 3.7761 -2.3461 0.9790
2.5666 4.0205 -2.3461 0.9790
2.1986 4.2330 -2.3461 0.9790
1.8131 4.4119 -2.3461 0.9790
1.4132 4.5558 -2.3461 0.9790
0.1594 4.7673 -2.3461 0.9790
-1.1058 4.6402 -2.3462 0.9790
-1.5144 4.5233 -2.3462 0.9790
-1.9110 4.3706 -2.3462 0.9790
-3.1926 3.9515 -2.4986 0.9776
-3.5316 3.6517 -2.4986 0.9776
-4.1231 2.9677 -2.4986 0.9776
-4.3709 2.5889 -2.4987 0.9776
-4.5840 2.1896 -2.4987 0.9776
-4.7607 1.7729 -2.4987 0.9776
-4.9996 0.9007 -2.4987 0.9776
-3.6334 0.3247 -1.7942 0.9839
-2.4895 -0.9271 -1.3619 0.9881
-2.4879 -1.1884 -1.4135 0.9877
-3.0629 -3.7910 -2.4986 0.9783
-2.7133 -4.0485 -2.4986 0.9783
-1.9525 -4.4654 -2.4986 0.9783
-1.5473 -4.6214 -2.4985 0.9783
-1.1298 -4.7408 -2.4985 0.9783
0.1629 -4.8708 -2.4985 0.9783
1.4439 -4.6546 -2.4985 0.9783
1.8524 -4.5076 -2.4985 0.9783
2.9775 -3.8580 -2.4984 0.9783
3.3090 -3.5777 -2.4984 0.9783
3.6143 -3.2690 -2.4984 0.9783
3.8909 -2.9343 -2.4984 0.9783
4.3495 -2.1979 -2.4984 0.9783
4.5279 -1.8021 -2.4984 0.9783
4.6703 -1.3919 -2.4984 0.9783
4.8624 0.3255 -2.4984 0.9783
4.4432 2.0020 -2.4984 0.9783
6.3723 3.5850 -3.7484 0.9677
5.6357 4.6581 -3.7484 0.9677
3.2538 3.2178 -2.3461 0.9796
2.9545 3.4946 -2.3461 0.9796
2.6318 3.7437 -2.3461 0.9796
2.2881 3.9631 -2.3461 0.9796
1.9263 4.1511 -2.3461 0.9796
1.1598 4.4269 -2.3461 0.9796
0.7612 4.5126 -2.3461 0.9796
-0.4581 4.5534 -2.3462 0.9796
-1.2582 4.4001 -2.3462 0.9796
-1.6448 4.2706 -2.3462 0.9796
-2.8910 3.9237 -2.4986 0.9783
-3.2288 3.6508 -2.4986 0.9783
-4.0786 2.6681 -2.4986 0.9783
-4.4871 1.9027 -2.4987 0.9783
-4.7533 1.0770 -2.4987 0.9783
-4.8303 0.6496 -2.4987 0.9783
-2.9775 0.1328 -1.5280 0.9867
-2.5877 -0.1154 -1.3280 0.9884
-3.8249 -3.0205 -2.4986 0.9783
-3.2287 -3.6508 -2.4986 0.9783
-2.5303 -4.1654 -2.4986 0.9783
-1.7516 -4.5479 -2.4986 0.9783
-1.3399 -4.6858 -2.4985 0.9783
-0.9175 -4.7864 -2.4985 0.9783
0.3797 -4.8587 -2.4985 0.9783
0.8106 -4.8056 -2.4985 0.9783
1.2351 -4.7143 -2.4985 0.9783
2.0514 -4.4206 -2.4985 0.9783
2.4367 -4.2205 -2.4984 0.9783
2.8027 -3.9868 -2.4984 0.9783
4.0178 -2.7580 -2.4984 0.9783
4.4431 -2.0019 -2.4984 0.9783
4.7277 -1.1824 -2.4984 0.9783
4.8142 -0.7570 -2.4984 0.9783
4.8624 -0.3255 -2.4984 0.9783
4.8721 0.1086 -2.4984 0.9783
4.8431 0.5418 -2.4984 0.9783
4.7757 0.9707 -2.4984 0.9783
6.2063 3.8653 -3.7484 0.9677
5.8376 4.4024 -3.7484 0.9677
2.4624 3.8573 -2.3461 0.9796
2.1093 4.0611 -2.3461 0.9796
1.7395 4.2328 -2.3461 0.9796
0.1529 4.5738 -2.3461 0.9796
-0.2548 4.5693 -2.3462 0.9796
-1.0609 4.4517 -2.3462 0.9796
-1.8334 4.1931 -2.3462 0.9796
-2.1993 4.0133 -2.3462 0.9796
-3.0629 3.7911 -2.4986 0.9783
-3.6866 3.1879 -2.4986 0.9783
-3.9557 2.8471 -2.4986 0.9783
-4.1934 2.4837 -2.4986 0.9783
-4.3978 2.1007 -2.4987 0.9783
-4.5674 1.7009 -2.4987 0.9783
-3.5463 0.3169 -1.8253 0.9841
-2.4853 -0.2221 -1.3321 0.9887
-2.4501 -0.6712 -1.3561 0.9885
-2.4292 -1.1603 -1.4371 0.9879
-3.7988 -2.7342 -2.4986 0.9790
-3.2538 -3.3644 -2.4986 0.9790
-2.9414 -3.6406 -2.4986 0.9790
-2.6057 -3.8879 -2.4986 0.9790
-2.2493 -4.1044 -2.4986 0.9790
-1.8750 -4.2883 -2.4986 0.9790
-1.4859 -4.4382 -2.4985 0.9790
-1.0850 -4.5528 -2.4985 0.9790
-0.6755 -4.6312 -2.4985 0.9790
0.1564 -4.6776 -2.4985 0.9790
2.8594 -3.7050 -2.4984 0.9790
3.1778 -3.4358 -2.4984 0.9790
3.4710 -3.1393 -2.4984 0.9790
3.7366 -2.8179 -2.4984 0.9790
4.3483 -1.7306 -2.4984 0.9790
4.5863 -0.9322 -2.4984 0.9790
4.4211 1.5352 -2.4984 0.9790
3.1249 3.0902 -2.3461 0.9803
1.4877 4.1353 -2.3461 0.9803
1.1138 4.2513 -2.3461 0.9803
0.7310 4.3336 -2.3461 0.9803
-1.2083 4.2255 -2.3462 0.9803
-2.4299 4.0002 -2.4986 0.9790
-3.1007 3.5060 -2.4986 0.9790
-3.9168 2.5623 -2.4986 0.9790
-4.1293 2.2035 -2.4986 0.9790
-4.3091 1.8272 -2.4986 0.9790
-4.4546 1.4364 -2.4986 0.9790
-4.5648 1.0343 -2.4986 0.9790
-4.6387 0.6239 -2.4986 0.9790
-2.5303 -0.1128 -1.3521 0.9886
-2.4861 -0.3343 -1.3391 0.9887
-2.4330 -1.0317 -1.4108 0.9881
-2.4322 -1.5911 -1.5516 0.9869
-3.6732 -2.9007 -2.4986 0.9790
-3.4004 -3.2161 -2.4986 0.9790
-3.1007 -3.5060 -2.4986 0.9790
-2.7763 -3.7680 -2.4986 0.9790
-2.4299 -4.0001 -2.4986 0.9790
-1.6821 -4.3676 -2.4986 0.9790
-1.2867 -4.4999 -2.4985 0.9790
-0.0521 -4.6799 -2.4985 0.9790
0.7785 -4.6149 -2.4985 0.9790
1.9700 -4.2453 -2.4985 0.9790
2.3401 -4.0531 -2.4985 0.9790
2.6915 -3.8287 -2.4984 0.9790
3.6074 -2.9816 -2.4984 0.9790
3.8584 -2.6486 -2.4984 0.9790
4.0789 -2.2947 -2.4984 0.9790
4.2669 -1.9226 -2.4984 0.9790
4.4211 -1.5352 -2.4984 0.9790
4.5402 -1.1355 -2.4984 0.9790
4.6232 -0.7269 -2.4984 0.9790
4.6696 -0.3126 -2.4984 0.9790
4.5863 0.9322 -2.4984 0.9790
4.4851 1.3367 -2.4984 0.9790
4.3483 1.7306 -2.4984 0.9790
4.1771 2.1108 -2.4984 0.9790
3.3049 2.9891 -2.3789 0.9800
2.6850 3.4791 -2.3461 0.9803
2.3647 3.7043 -2.3461 0.9803
0.9233 4.2967 -2.3461 0.9803
0.5372 4.3619 -2.3461 0.9803
0.1469 4.3924 -2.3461 0.9803
-0.2447 4.3880 -2.3462 0.9803
-0.6343 4.3489 -2.3462 0.9803
-1.0188 4.2752 -2.3462 0.9803
-1.3953 4.1675 -2.3462 0.9803
-1.7607 4.0268 -2.3462 0.9803
-3.2538 3.3644 -2.4986 0.9790
-3.5404 3.0615 -2.4986 0.9790
-4.2234 2.0174 -2.4986 0.9790
-4.6063 0.8299 -2.4986 0.9790
-2.5975 0.0000 -1.4427 0.9882
-2.3733 -1.1337 -1.4608 0.9880
-2.8273 -3.4993 -2.4986 0.9796
-2.1620 -3.9451 -2.4986 0.9796
-1.8023 -4.1219 -2.4986 0.9796
-0.6492 -4.4515 -2.4985 0.9796
-0.2505 -4.4916 -2.4985 0.9796
0.1503 -4.4961 -2.4985 0.9796
0.5499 -4.4648 -2.4985 0.9796
1.3328 -4.2966 -2.4985 0.9796
1.7099 -4.1608 -2.4985 0.9796
2.4206 -3.7917 -2.4985 0.9796
3.3363 -3.0175 -2.4984 0.9796
4.0149 -2.0288 -2.4984 0.9796
4.4706 -0.5001 -2.4984 0.9796
4.4973 -0.1002 -2.4984 0.9796
4.4884 0.3004 -2.4984 0.9796
4.4439 0.6988 -2.4984 0.9796
4.1014 1.8480 -2.4984 0.9796
3.9206 2.2057 -2.4984 0.9796
5.5642 3.8196 -3.7484 0.9696
5.2022 4.2997 -3.7484 0.9696
3.0639 3.0299 -2.3932 0.9805
2.7272 3.2258 -2.3461 0.9809
1.7781 3.8317 -2.3461 0.9809
1.4300 3.9748 -2.3461 0.9809
1.0706 4.0863 -2.3461 0.9809
-0.0471 4.2240 -2.3462 0.9809
-0.4228 4.2031 -2.3462 0.9809
-1.1614 4.0616 -2.3462 0.9809
-1.5183 3.9421 -2.3462 0.9809
-2.9804 3.3700 -2.4986 0.9796
-3.2685 3.0913 -2.4986 0.9796
-3.5307 2.7882 -2.4986 0.9796
-4.1419 1.7563 -2.4986 0.9796
-4.2818 1.3807 -2.4986 0.9796
-4.4587 0.5997 -2.4986 0.9796
-2.5020 0.1116 -1.3910 0.9886
-2.4139 -0.5469 -1.3747 0.9887
-2.3793 -1.0089 -1.4353 0.9882
-3.5306 -2.7881 -2.4986 0.9796
-3.2685 -3.0913 -2.4986 0.9796
-2.6685 -3.6218 -2.4986 0.9796
-2.3356 -3.8449 -2.4986 0.9796
-1.9841 -4.0375 -2.4986 0.9796
-0.8469 -4.4182 -2.4985 0.9796
-0.0501 -4.4983 -2.4985 0.9796
0.7482 -4.4359 -2.4985 0.9796
1.5229 -4.2329 -2.4985 0.9796
1.8936 -4.0806 -2.4985 0.9796
3.1986 -3.1631 -2.4984 0.9796
3.7087 -2.5459 -2.4984 0.9796
3.9206 -2.2057 -2.4984 0.9796
4.1013 -1.8479 -2.4984 0.9796
4.2495 -1.4756 -2.4984 0.9796
4.3640 -1.0915 -2.4984 0.9796
4.4438 -0.6987 -2.4984 0.9796
4.4884 -0.3004 -2.4984 0.9796
4.4973 0.1003 -2.4984 0.9796
4.4706 0.5001 -2.4984 0.9796
4.4083 0.8960 -2.4984 0.9796
4.3111 1.2848 -2.4984 0.9796
4.1796 1.6634 -2.4984 0.9796
5.3885 4.0637 -3.7484 0.9696
2.5808 3.3441 -2.3461 0.9809
2.2730 3.5605 -2.3461 0.9809
1.6057 3.9072 -2.3461 0.9809
0.5164 4.1926 -2.3461 0.9809
0.1412 4.2219 -2.3461 0.9809
-0.2352 4.2178 -2.3462 0.9809
-0.9793 4.1093 -2.3462 0.9809
-2.1620 3.9452 -2.4986 0.9796
-2.8273 3.4994 -2.4986 0.9796
-3.4030 2.9427 -2.4986 0.9796
-3.6514 2.6281 -2.4986 0.9796
-3.8708 2.2927 -2.4986 0.9796
-4.0595 1.9391 -2.4986 0.9796
-4.2160 1.5701 -2.4986 0.9796
-4.3390 1.1886 -2.4986 0.9796
-4.4276 0.7977 -2.4986 0.9796
-2.5383 0.2268 -1.4154 0.9884
-2.5326 0.0000 -1.4622 0.9884
-2.3545 -0.6450 -1.4095 0.9888
-2.3203 -1.1083 -1.4846 0.9882
-3.2735 -2.8307 -2.4986 0.9802
-3.0086 -3.1108 -2.4986 0.9802
-2.7197 -3.3662 -2.4986 0.9802
-2.0798 -3.7951 -2.4986 0.9802
0.1446 -4.3251 -2.4985 0.9802
0.9092 -4.2309 -2.4985 0.9802
1.2821 -4.1332 -2.4985 0.9802
1.6449 -4.0027 -2.4985 0.9802
1.9946 -3.8403 -2.4985 0.9802
2.3285 -3.6476 -2.4985 0.9802
2.6439 -3.4258 -2.4984 0.9802
3.2094 -2.9027 -2.4984 0.9802
3.6733 -2.2877 -2.4984 0.9802
3.8623 -1.9517 -2.4984 0.9802
4.0207 -1.6002 -2.4984 0.9802
4.2407 -0.8619 -2.4984 0.9802
4.3263 -0.0964 -2.4984 0.9802
4.3177 0.2891 -2.4984 0.9802
4.2749 0.6722 -2.4984 0.9802
4.1981 1.0500 -2.4984 0.9802
4.0880 1.4195 -2.4984 0.9802
3.5677 2.4491 -2.4985 0.9802
5.0044 4.1362 -3.7484 0.9705
3.0503 3.0166 -2.4769 0.9804
2.3419 3.3315 -2.3511 0.9814
1.3756 3.8237 -2.3461 0.9814
0.3166 4.0513 -2.3461 0.9814
-0.0453 4.0634 -2.3462 0.9814
-0.4068 4.0433 -2.3462 0.9814
-1.1172 3.9071 -2.3462 0.9814
-1.9087 3.8841 -2.4986 0.9802
-2.2468 3.6988 -2.4986 0.9802
-2.5671 3.4841 -2.4986 0.9802
-3.1442 2.9737 -2.4986 0.9802
-3.6217 2.3692 -2.4986 0.9802
-3.9844 1.6896 -2.4986 0.9802
-4.1189 1.3282 -2.4986 0.9802
-4.2892 0.5769 -2.4986 0.9802
-2.4294 0.1083 -1.4040 0.9888
-2.3854 -0.3208 -1.3896 0.9889
-2.2904 -1.2222 -1.4988 0.9881
-3.3964 -2.6821 -2.4986 0.9802
-1.5554 -4.0384 -2.4985 0.9802
-1.1898 -4.1608 -2.4985 0.9802
-0.8147 -4.2502 -2.4985 0.9802
-0.4332 -4.3058 -2.4985 0.9802
-0.0482 -4.3273 -2.4985 0.9802
0.3371 -4.3144 -2.4985 0.9802
0.7198 -4.2672 -2.4985 0.9802
1.8216 -3.9254 -2.4985 0.9802
2.4887 -3.5402 -2.4984 0.9802
2.7939 -3.3046 -2.4984 0.9802
3.3356 -2.7569 -2.4984 0.9802
4.0880 -1.4195 -2.4984 0.9802
4.1981 -1.0500 -2.4984 0.9802
4.2749 -0.6722 -2.4984 0.9802
4.3263 0.0964 -2.4984 0.9802
3.8623 1.9517 -2.4984 0.9802
3.2095 2.9028 -2.4985 0.9802
2.8370 3.0673 -2.4122 0.9809
2.1865 3.4252 -2.3461 0.9814
1.8730 3.6062 -2.3461 0.9814
0.8537 3.9729 -2.3461 0.9814
0.1358 4.0614 -2.3461 0.9814
-1.2900 3.8534 -2.3462 0.9814
