ply
format ascii 1.0
element vertex 1586
property float32 x
property float32 y
property float32 z
property float32 I
end_header
13.6875 5.4475 -2.3458 0.9421
13.1484 6.6442 -2.3458 0.9421
12.5049 7.7881 -2.3459 0.9421
9.0011 11.6630 -2.3459 0.9421
7.9274 12.4180 -2.3460 0.9421
6.7907 13.0745 -2.3460 0.9421
4.3651 14.0718 -2.3461 0.9421
-3.4157 14.3330 -2.3463 0.9421
-4.6779 13.9723 -2.3463 0.9421
-5.9030 13.5006 -2.3463 0.9421
-9.2604 11.4617 -2.3464 0.9421
-11.1461 9.6384 -2.3464 0.9421
-12.6786 7.5095 -2.3465 0.9421
-13.2967 6.3513 -2.3465 0.9421
-14.1718 0.0000 -2.4989 0.9441
-13.9472 -2.5127 -2.4989 0.9441
-13.2806 -4.9457 -2.4988 0.9441
-12.7876 -6.1081 -2.4988 0.9441
-10.7192 -9.2693 -2.4988 0.9441
-8.9058 -11.0228 -2.4987 0.9441
-7.8892 -11.7716 -2.4987 0.9441
-5.6770 -12.9836 -2.4986 0.9441
-4.4988 -13.4371 -2.4986 0.9441
-0.7889 -14.1478 -2.4985 0.9441
0.4735 -14.1617 -2.4985 0.9441
6.5308 -12.5739 -2.4983 0.9441
7.6239 -11.9426 -2.4983 0.9441
10.5080 -9.5039 -2.4983 0.9441
12.0264 -7.4901 -2.4982 0.9441
13.8841 -2.8221 -2.4982 0.9441
14.0801 -1.5751 -2.4982 0.9441
13.1424 2.0666 -2.3458 0.9474
12.1296 5.4654 -2.3459 0.9474
11.5951 6.5233 -2.3459 0.9474
10.9685 7.5295 -2.3459 0.9474
6.0570 5.0062 -1.3856 0.9686
7.6515 10.8844 -2.3460 0.9474
6.6524 11.5223 -2.3460 0.9474
5.6005 12.0688 -2.3460 0.9474
3.3720 12.8709 -2.3461 0.9474
2.2131 13.1201 -2.3461 0.9474
-0.1482 13.3050 -2.3462 0.9474
-1.3319 13.2391 -2.3462 0.9474
-2.5050 13.0682 -2.3462 0.9474
-3.6582 12.7935 -2.3463 0.9474
-4.7824 12.4173 -2.3463 0.9474
-5.8687 11.9425 -2.3463 0.9474
-9.6679 9.1438 -2.3464 0.9474
-10.4434 8.2471 -2.3464 0.9474
-11.1361 7.2849 -2.3464 0.9474
-11.7403 6.2648 -2.3464 0.9474
-14.1577 0.6313 -2.4989 0.9441
-14.1577 -0.6313 -2.4989 0.9441
-13.8214 -3.1315 -2.4989 0.9441
-11.8592 -7.7579 -2.4988 0.9441
-10.2957 -9.7376 -2.4988 0.9441
-9.3880 -10.6152 -2.4987 0.9441
-8.4058 -11.4085 -2.4987 0.9441
-6.2498 -12.7179 -2.4986 0.9441
-3.8957 -13.6242 -2.4986 0.9441
-2.6676 -13.9166 -2.4986 0.9441
-1.4183 -14.0987 -2.4985 0.9441
-0.1578 -14.1688 -2.4985 0.9441
3.5910 -13.7066 -2.4984 0.9441
4.7966 -13.3324 -2.4984 0.9441
5.9642 -12.8525 -2.4984 0.9441
7.0844 -12.2705 -2.4983 0.9441
8.1483 -11.5911 -2.4983 0.9441
9.1476 -10.8198 -2.4983 0.9441
10.9209 -9.0263 -2.4982 0.9441
12.3481 -6.9469 -2.4982 0.9441
13.3841 -4.6474 -2.4982 0.9441
13.7446 -3.4377 -2.4982 0.9441
14.1363 -0.9463 -2.4982 0.9441
14.1645 0.3157 -2.4982 0.9441
13.2213 1.4790 -2.3458 0.9474
13.0373 2.6499 -2.3458 0.9474
12.3610 4.9195 -2.3459 0.9474
11.8741 6.0003 -2.3459 0.9474
9.8672 8.9244 -2.3459 0.9474
8.1287 10.5327 -2.3460 0.9474
7.1591 11.2145 -2.3460 0.9474
2.7954 13.0085 -2.3461 0.9474
1.6265 13.2058 -2.3461 0.9474
-4.2245 12.6179 -2.3463 0.9474
-5.3308 12.1920 -2.3463 0.9474
-6.3949 11.6693 -2.3463 0.9474
-7.4082 11.0539 -2.3463 0.9474
-9.2509 9.5654 -2.3464 0.9474
-10.0656 8.7041 -2.3464 0.9474
-10.8005 7.7737 -2.3464 0.9474
-13.2807 4.9458 -2.4989 0.9441
-12.9127 0.0000 -2.4988 0.9488
-12.8614 -1.1493 -2.4988 0.9488
-12.4538 -3.4114 -2.4988 0.9488
-11.6515 -5.5655 -2.4988 0.9488
-10.4800 -7.5430 -2.4988 0.9488
-9.7669 -8.4458 -2.4987 0.9488
-8.9764 -9.2815 -2.4987 0.9488
-8.1146 -10.0435 -2.4987 0.9488
-4.0991 -12.2435 -2.4986 0.9488
0.4314 -12.9037 -2.4985 0.9488
3.8251 -12.3308 -2.4984 0.9488
4.9073 -11.9413 -2.4984 0.9488
7.8876 -10.2203 -2.4983 0.9488
9.5746 -8.6597 -2.4983 0.9488
10.3073 -7.7731 -2.4983 0.9488
10.9582 -6.8248 -2.4983 0.9488
11.9945 -4.7737 -2.4982 0.9488
12.8295 -1.4352 -2.4982 0.9488
11.4515 3.9764 -2.3459 0.9518
11.0522 4.9799 -2.3459 0.9518
10.5652 5.9439 -2.3459 0.9518
9.9943 6.8607 -2.3459 0.9518
8.6196 8.5241 -2.3460 0.9518
7.8268 9.2576 -2.3460 0.9518
6.9718 9.9175 -2.3460 0.9518
5.1030 10.9968 -2.3460 0.9518
3.0725 11.7276 -2.3461 0.9518
0.9445 12.0868 -2.3461 0.9518
-0.1351 12.1230 -2.3462 0.9518
-1.2135 12.0630 -2.3462 0.9518
-3.3332 11.6570 -2.3462 0.9518
-6.2947 10.3625 -2.3463 0.9518
-9.5156 7.5144 -2.3464 0.9518
-12.5935 2.8533 -2.4988 0.9488
-12.8999 0.5752 -2.4988 0.9488
-12.8999 -0.5752 -2.4988 0.9488
-12.7975 -1.7211 -2.4988 0.9488
-12.5934 -2.8533 -2.4988 0.9488
-12.2894 -3.9629 -2.4988 0.9488
-10.8056 -7.0687 -2.4988 0.9488
-10.1335 -8.0024 -2.4988 0.9488
-8.5540 -9.6721 -2.4987 0.9488
-7.6591 -10.3950 -2.4987 0.9488
-5.6945 -11.5880 -2.4986 0.9488
-3.5496 -12.4138 -2.4986 0.9488
-2.4306 -12.6804 -2.4986 0.9488
1.0058 -12.8716 -2.4985 0.9488
2.1474 -12.7309 -2.4984 0.9488
3.2720 -12.4890 -2.4984 0.9488
4.3705 -12.1481 -2.4984 0.9488
5.4344 -11.7108 -2.4984 0.9488
6.4551 -11.1805 -2.4983 0.9488
7.4245 -10.5615 -2.4983 0.9488
11.2513 -6.3299 -2.4982 0.9488
11.7700 -5.3033 -2.4982 0.9488
12.1953 -4.2346 -2.4982 0.9488
12.5237 -3.1324 -2.4982 0.9488
12.7528 -2.0053 -2.4982 0.9488
11.8793 2.4145 -2.3459 0.9518
11.2630 4.4826 -2.3459 0.9518
10.2899 6.4086 -2.3459 0.9518
9.6788 7.2991 -2.3459 0.9518
6.5231 10.2183 -2.3460 0.9518
4.6081 11.2133 -2.3461 0.9518
2.5470 11.8529 -2.3461 0.9518
1.4820 12.0327 -2.3461 0.9518
0.4051 12.1170 -2.3462 0.9518
-2.8106 11.7938 -2.3462 0.9518
-3.8492 11.4970 -2.3463 0.9518
-5.8268 10.6326 -2.3463 0.9518
-6.7501 10.0718 -2.3463 0.9518
-8.4290 8.7156 -2.3464 0.9518
-9.1714 7.9308 -2.3464 0.9518
-9.8409 7.0831 -2.3464 0.9518
-10.4323 6.1791 -2.3464 0.9518
-12.1008 4.5064 -2.4988 0.9488
-12.4539 3.4115 -2.4988 0.9488
-12.8615 1.1493 -2.4988 0.9488
-11.8529 -0.0000 -2.4988 0.9527
-11.1075 -4.1365 -2.4988 0.9527
-10.1980 -6.0403 -2.4988 0.9527
-9.6198 -6.9239 -2.4987 0.9527
-7.4486 -9.2192 -2.4987 0.9527
-5.6959 -10.3937 -2.4986 0.9527
-4.7481 -10.8592 -2.4986 0.9527
-3.7627 -11.2386 -2.4986 0.9527
-2.7475 -11.5288 -2.4986 0.9527
-0.6598 -11.8331 -2.4985 0.9527
1.4487 -11.7623 -2.4985 0.9527
2.4898 -11.5866 -2.4984 0.9527
3.5112 -11.3189 -2.4984 0.9527
6.3766 -9.9888 -2.4984 0.9527
7.2403 -9.3816 -2.4983 0.9527
8.0465 -8.6998 -2.4983 0.9527
9.4615 -7.1352 -2.4983 0.9527
10.5766 -5.3446 -2.4983 0.9527
11.0103 -4.3820 -2.4983 0.9527
11.3565 -3.3846 -2.4983 0.9527
11.6127 -2.3604 -2.4982 0.9527
11.7767 -1.3174 -2.4982 0.9527
11.8237 0.7915 -2.4983 0.9527
10.1452 4.5712 -2.3459 0.9555
9.6982 5.4561 -2.3459 0.9555
9.1741 6.2977 -2.3459 0.9555
6.3997 9.1037 -2.3460 0.9555
2.8203 10.7651 -2.3461 0.9555
0.8670 11.0948 -2.3461 0.9555
-0.1240 11.1281 -2.3462 0.9555
-1.1139 11.0730 -2.3462 0.9555
-2.0951 10.9300 -2.3462 0.9555
-3.0596 10.7003 -2.3462 0.9555
-5.7780 9.5120 -2.3463 0.9555
-8.7346 6.8976 -2.3464 0.9555
-9.3139 6.0928 -2.3464 0.9555
-10.9123 4.6272 -2.4988 0.9527
-11.5598 2.6191 -2.4988 0.9527
-11.7471 1.5798 -2.4988 0.9527
-11.8411 -0.5280 -2.4988 0.9527
-11.7471 -1.5798 -2.4988 0.9527
-11.5598 -2.6191 -2.4988 0.9527
-10.9122 -4.6272 -2.4988 0.9527
-10.4570 -5.5800 -2.4988 0.9527
-9.9188 -6.4886 -2.4988 0.9527
-7.8519 -8.8783 -2.4987 0.9527
-7.0305 -9.5418 -2.4987 0.9527
-5.2272 -10.6370 -2.4986 0.9527
-4.2596 -11.0599 -2.4986 0.9527
-3.2583 -11.3950 -2.4986 0.9527
-0.1320 -11.8506 -2.4985 0.9527
1.9712 -11.6861 -2.4985 0.9527
4.0119 -11.1512 -2.4984 0.9527
6.8153 -9.6948 -2.4983 0.9527
7.6510 -9.0497 -2.4983 0.9527
8.4261 -8.3327 -2.4983 0.9527
9.7699 -6.7066 -2.4983 0.9527
10.8041 -4.8681 -2.4983 0.9527
11.1945 -3.8871 -2.4983 0.9527
11.4960 -2.8754 -2.4983 0.9527
11.7063 -1.8407 -2.4982 0.9527
11.8237 -0.7915 -2.4982 0.9527
11.8472 0.2640 -2.4983 0.9527
10.9044 2.2164 -2.3459 0.9555
10.6639 3.1782 -2.3459 0.9555
9.9316 5.0186 -2.3459 0.9555
8.8845 6.7001 -2.3459 0.9555
4.2300 10.2930 -2.3461 0.9555
3.2971 10.6288 -2.3461 0.9555
0.3719 11.1225 -2.3462 0.9555
-1.6061 11.0124 -2.3462 0.9555
-10.6952 5.1087 -2.4988 0.9527
-11.1076 4.1365 -2.4988 0.9527
-11.6651 2.1016 -2.4988 0.9527
-11.8058 1.0550 -2.4988 0.9527
-10.5589 -2.8924 -2.4988 0.9561
-9.8787 -4.7187 -2.4988 0.9561
-8.2809 -7.1608 -2.4987 0.9561
-7.6106 -7.8693 -2.4987 0.9561
-5.2610 -9.6002 -2.4986 0.9561
-1.5798 -10.8322 -2.4985 0.9561
-0.6094 -10.9297 -2.4985 0.9561
1.3381 -10.8644 -2.4985 0.9561
3.2431 -10.4549 -2.4984 0.9561
5.8899 -9.2263 -2.4984 0.9561
7.4323 -8.0358 -2.4983 0.9561
8.7393 -6.5906 -2.4983 0.9561
9.2911 -5.7866 -2.4983 0.9561
10.4897 -3.1263 -2.4983 0.9561
10.7263 -2.1802 -2.4983 0.9561
10.9429 -0.2439 -2.4983 0.9561
10.9212 0.7311 -2.4983 0.9561
9.7094 3.3715 -2.3459 0.9587
9.3708 4.2223 -2.3459 0.9587
8.4738 5.8169 -2.3459 0.9587
5.9643 4.9296 -1.7661 0.9688
7.3083 7.2274 -2.3460 0.9587
5.9112 8.4087 -2.3460 0.9587
4.3267 9.3237 -2.3461 0.9587
3.4797 9.6719 -2.3461 0.9587
1.7097 10.1359 -2.3461 0.9587
0.8008 10.2479 -2.3461 0.9587
-0.1145 10.2786 -2.3462 0.9587
-1.9352 10.0956 -2.3462 0.9587
-2.8261 9.8834 -2.3462 0.9587
-3.6946 9.5927 -2.3462 0.9587
-6.0978 8.2760 -2.3463 0.9587
-7.4686 7.0638 -2.3463 0.9587
-10.0792 4.2739 -2.4988 0.9561
-10.6773 2.4192 -2.4988 0.9561
-10.8503 1.4592 -2.4988 0.9561
-10.9371 0.4877 -2.4988 0.9561
-10.9371 -0.4877 -2.4988 0.9561
-10.0791 -4.2739 -2.4988 0.9561
-9.6586 -5.1540 -2.4987 0.9561
-8.5917 -6.7848 -2.4987 0.9561
-7.9536 -7.5225 -2.4987 0.9561
-7.2525 -8.2005 -2.4987 0.9561
-6.4937 -8.8134 -2.4987 0.9561
-5.6835 -9.3563 -2.4986 0.9561
-3.0096 -10.5251 -2.4986 0.9561
-1.0957 -10.8918 -2.4985 0.9561
3.7056 -10.3000 -2.4984 0.9561
4.6076 -9.9292 -2.4984 0.9561
7.0670 -8.3589 -2.4983 0.9561
7.7829 -7.6967 -2.4983 0.9561
9.5397 -5.3669 -2.4983 0.9561
10.6185 -2.6559 -2.4983 0.9561
10.8128 -1.7002 -2.4983 0.9561
10.9212 -0.7311 -2.4983 0.9561
9.8500 2.9356 -2.3459 0.9587
9.5496 3.8007 -2.3459 0.9587
9.1735 4.6355 -2.3459 0.9587
7.6230 6.8946 -2.3460 0.9587
6.2799 8.1371 -2.3460 0.9587
5.5307 8.6638 -2.3460 0.9587
4.7377 9.1217 -2.3460 0.9587
3.9071 9.5073 -2.3461 0.9587
2.1595 10.0496 -2.3461 0.9587
0.3435 10.2734 -2.3462 0.9587
-0.5723 10.2633 -2.3462 0.9587
-2.3830 9.9994 -2.3462 0.9587
-4.9402 9.0148 -2.3463 0.9587
-5.7230 8.5394 -2.3463 0.9587
-7.1465 7.3895 -2.3463 0.9587
-7.7759 6.7241 -2.3463 0.9587
-8.3436 6.0053 -2.3463 0.9587
-8.8450 5.2389 -2.3464 0.9587
-9.8788 4.7187 -2.4988 0.9561
-10.2596 3.8207 -2.4988 0.9561
-10.9045 0.9744 -2.4988 0.9561
-10.1255 -0.9048 -2.4988 0.9590
-9.1730 -4.3816 -2.4987 0.9590
-8.7466 -5.1806 -2.4987 0.9590
-8.2507 -5.9385 -2.4987 0.9590
-7.6894 -6.6492 -2.4987 0.9590
-7.0670 -7.3072 -2.4987 0.9590
-5.6593 -8.4443 -2.4986 0.9590
-4.8852 -8.9145 -2.4986 0.9590
-4.0724 -9.3138 -2.4986 0.9590
-0.5659 -10.1491 -2.4985 0.9590
1.2425 -10.0885 -2.4985 0.9590
2.1355 -9.9377 -2.4985 0.9590
6.2100 -8.0465 -2.4984 0.9590
9.0715 -4.5840 -2.4983 0.9590
9.4435 -3.7584 -2.4983 0.9590
9.7405 -2.9030 -2.4983 0.9590
10.1009 -1.1299 -2.4983 0.9590
10.1412 0.6789 -2.4983 0.9590
9.2588 2.3158 -2.3459 0.9615
9.0160 3.1307 -2.3459 0.9615
8.7016 3.9208 -2.3459 0.9614
8.3181 4.6797 -2.3459 0.9614
7.8686 5.4015 -2.3460 0.9614
5.9441 4.9129 -1.8955 0.9687
6.7863 6.7112 -2.3460 0.9614
6.1621 7.2886 -2.3460 0.9614
5.4890 7.8082 -2.3460 0.9614
4.7723 8.2658 -2.3460 0.9614
4.0177 8.6578 -2.3461 0.9614
2.4190 9.2331 -2.3461 0.9614
0.7436 9.5159 -2.3461 0.9614
-1.7969 9.3745 -2.3462 0.9614
-3.4307 8.9075 -2.3462 0.9614
-4.2099 8.5669 -2.3463 0.9614
-6.3238 7.1504 -2.3463 0.9614
-6.9351 6.5592 -2.3463 0.9614
-7.4914 5.9159 -2.3463 0.9614
-9.3592 3.9686 -2.4988 0.9590
-9.6753 3.1199 -2.4988 0.9590
-10.0752 1.3549 -2.4988 0.9590
-10.1558 -0.4529 -2.4988 0.9590
-10.0752 -1.3550 -2.4988 0.9590
-9.6752 -3.1198 -2.4988 0.9590
-9.3591 -3.9686 -2.4987 0.9590
-8.5071 -5.5651 -2.4987 0.9590
-7.9780 -6.3002 -2.4987 0.9590
-6.7344 -7.6147 -2.4987 0.9590
-0.1132 -10.1642 -2.4985 0.9590
0.7919 -10.1338 -2.4985 0.9590
2.5760 -9.8327 -2.4984 0.9590
5.0822 -8.8026 -2.4984 0.9590
5.8454 -8.3153 -2.4984 0.9590
7.8344 -6.4753 -2.4983 0.9590
8.8583 -4.9836 -2.4983 0.9590
10.1614 0.2264 -2.4983 0.9590
10.1009 1.1300 -2.4983 0.9590
9.1465 2.7259 -2.3459 0.9615
8.5183 4.3045 -2.3459 0.9614
8.1014 5.0456 -2.3460 0.9614
7.0785 6.4021 -2.3460 0.9614
6.4807 7.0068 -2.3460 0.9614
5.8313 7.5559 -2.3460 0.9614
5.1357 8.0450 -2.3460 0.9614
4.3993 8.4702 -2.3461 0.9614
3.6280 8.8282 -2.3461 0.9614
1.1668 9.4733 -2.3461 0.9614
0.3190 9.5396 -2.3462 0.9614
-0.5314 9.5303 -2.3462 0.9614
-1.3775 9.4452 -2.3462 0.9614
-2.2128 9.2852 -2.3462 0.9614
-3.8241 8.7459 -2.3462 0.9614
-5.3142 7.9294 -2.3463 0.9614
-7.7476 5.5763 -2.3463 0.9614
-9.8047 2.6858 -2.4988 0.9590
-10.1256 0.9048 -2.4988 0.9590
-9.4829 -0.0000 -2.4988 0.9615
-9.1459 -2.5053 -2.4987 0.9615
-7.6964 -5.5396 -2.4987 0.9615
-7.1728 -6.2026 -2.4987 0.9615
-5.9593 -7.3760 -2.4987 0.9615
-5.2792 -7.8771 -2.4986 0.9615
-4.5571 -8.3156 -2.4986 0.9615
-3.7988 -8.6881 -2.4986 0.9615
-3.0104 -8.9917 -2.4986 0.9615
-0.5279 -9.4673 -2.4985 0.9615
0.3168 -9.4767 -2.4985 0.9615
1.1591 -9.4108 -2.4985 0.9615
1.9920 -9.2702 -2.4985 0.9615
2.8092 -9.0561 -2.4984 0.9615
6.4379 -6.9606 -2.4984 0.9615
7.5700 -5.7088 -2.4983 0.9615
8.4622 -4.2762 -2.4983 0.9615
8.8092 -3.5060 -2.4983 0.9615
9.0863 -2.7080 -2.4983 0.9615
9.4225 -1.0540 -2.4983 0.9615
9.4601 0.6333 -2.4983 0.9615
13.7997 3.4515 -3.7482 0.9429
8.4104 2.9204 -2.3459 0.9638
7.3401 5.0387 -2.3460 0.9638
5.9239 4.8962 -2.0251 0.9687
5.7482 6.7990 -2.3460 0.9638
5.1203 7.2837 -2.3460 0.9638
4.4517 7.7106 -2.3460 0.9638
3.7478 8.0763 -2.3461 0.9638
3.0141 8.3779 -2.3461 0.9638
2.2565 8.6129 -2.3461 0.9638
-3.9271 7.9914 -2.3462 0.9638
-4.6228 7.6102 -2.3463 0.9638
-5.2818 7.1686 -2.3463 0.9638
-7.5173 4.9176 -2.3670 0.9635
-8.3663 4.4644 -2.4987 0.9615
-8.7304 3.7020 -2.4988 0.9615
-9.0253 2.9103 -2.4988 0.9615
-9.2485 2.0954 -2.4988 0.9615
-9.3983 1.2639 -2.4988 0.9615
-9.2485 -2.0955 -2.4987 0.9615
-9.0253 -2.9103 -2.4987 0.9615
-7.9357 -5.1912 -2.4987 0.9615
-7.4420 -5.8769 -2.4987 0.9615
-6.8894 -6.5159 -2.4987 0.9615
-4.1821 -8.5103 -2.4986 0.9615
-2.6069 -9.1169 -2.4986 0.9615
-1.7851 -9.3126 -2.4985 0.9615
-0.9491 -9.4345 -2.4985 0.9615
-0.1056 -9.4814 -2.4985 0.9615
0.7387 -9.4531 -2.4985 0.9615
1.5771 -9.3498 -2.4985 0.9615
4.7408 -8.2113 -2.4984 0.9615
5.4528 -7.7567 -2.4984 0.9615
6.7416 -6.6669 -2.4984 0.9615
8.9566 -3.1101 -2.4983 0.9615
9.4600 -0.6333 -2.4983 0.9615
9.4225 1.0540 -2.4983 0.9615
8.2720 3.2922 -2.3459 0.9638
6.2844 4.7393 -2.0740 0.9680
6.0454 6.5362 -2.3460 0.9638
5.4396 7.0483 -2.3460 0.9638
4.1038 7.9013 -2.3461 0.9638
3.3843 8.2352 -2.3461 0.9638
2.6379 8.5038 -2.3461 0.9638
-1.2850 8.8107 -2.3462 0.9638
-4.2792 7.8086 -2.3463 0.9638
-4.9572 7.3967 -2.3463 0.9638
-5.5959 6.9262 -2.3463 0.9638
-6.7354 5.8243 -2.3463 0.9638
-7.2271 5.2017 -2.3463 0.9638
-8.1591 4.8326 -2.4987 0.9615
-9.3327 1.6814 -2.4988 0.9615
-3.9277 -0.3510 -1.1095 0.9837
-3.7284 -0.6717 -1.0659 0.9844
-8.3226 -3.0994 -2.4987 0.9638
-8.0137 -3.8278 -2.4987 0.9638
-5.5811 -6.9079 -2.4986 0.9638
-4.9441 -7.3771 -2.4986 0.9638
-2.8194 -8.4211 -2.4986 0.9638
-2.0586 -8.6385 -2.4986 0.9638
-0.4944 -8.8665 -2.4985 0.9638
0.2967 -8.8753 -2.4985 0.9638
1.0855 -8.8136 -2.4985 0.9638
3.3754 -8.2134 -2.4984 0.9638
4.0930 -7.8804 -2.4984 0.9638
4.7781 -7.4847 -2.4984 0.9638
5.4253 -7.0297 -2.4984 0.9638
6.5856 -5.9564 -2.4984 0.9638
7.5373 -4.6943 -2.4983 0.9638
8.2502 -3.2835 -2.4983 0.9638
8.7016 -1.7687 -2.4983 0.9638
8.8245 -0.9872 -2.4983 0.9638
8.8597 0.5931 -2.4983 0.9638
8.7718 1.3793 -2.4983 0.9638
7.8767 2.7351 -2.3460 0.9659
7.6020 3.4253 -2.3460 0.9659
7.2670 4.0883 -2.3460 0.9659
6.8743 4.7189 -2.3460 0.9659
5.9036 4.8794 -2.1549 0.9687
5.9288 5.8631 -2.3460 0.9659
2.8228 7.8461 -2.3461 0.9659
0.6496 8.3133 -2.3461 0.9659
-0.8347 8.2969 -2.3462 0.9659
-2.2926 8.0176 -2.3462 0.9659
-3.6778 7.4842 -2.3462 0.9659
-4.3294 7.1272 -2.3463 0.9659
-4.9466 6.7136 -2.3463 0.9659
-5.5245 6.2467 -2.3463 0.9659
-7.8353 4.1810 -2.4987 0.9638
-8.8018 1.1837 -2.4987 0.9638
-8.4524 -2.7255 -2.4987 0.9638
-7.4319 -4.8618 -2.4987 0.9638
-6.9697 -5.5039 -2.4987 0.9638
-6.4521 -6.1024 -2.4987 0.9638
-5.8833 -6.6524 -2.4987 0.9638
-5.2678 -7.1496 -2.4986 0.9638
-4.6106 -7.5900 -2.4986 0.9638
-3.9167 -7.9702 -2.4986 0.9638
-3.1917 -8.2871 -2.4986 0.9638
-2.4414 -8.5382 -2.4986 0.9638
-1.6718 -8.7216 -2.4985 0.9638
-0.0989 -8.8797 -2.4985 0.9638
3.0061 -8.3557 -2.4984 0.9638
4.4399 -7.6902 -2.4984 0.9638
7.3208 -5.0254 -2.4983 0.9638
8.0957 -3.6478 -2.4983 0.9638
8.3883 -2.9127 -2.4983 0.9638
8.6142 -2.1546 -2.4983 0.9638
8.7718 -1.3793 -2.4983 0.9638
8.8597 -0.5931 -2.4983 0.9638
13.0550 2.6535 -3.7482 0.9461
7.0777 4.4080 -2.3460 0.9659
5.6617 6.1214 -2.3460 0.9659
5.0944 6.6010 -2.3460 0.9659
4.4867 7.0283 -2.3460 0.9659
3.8434 7.3998 -2.3461 0.9659
2.4705 7.9642 -2.3461 0.9659
1.0193 8.2761 -2.3461 0.9659
0.2786 8.3340 -2.3461 0.9659
-1.2034 8.2515 -2.3462 0.9659
-4.6426 6.9273 -2.3463 0.9659
-5.7973 5.9944 -2.3463 0.9659
-6.3079 5.4546 -2.3463 0.9659
-6.7684 4.8716 -2.3463 0.9659
-7.6412 4.5259 -2.4987 0.9638
-8.0138 3.8279 -2.4987 0.9638
-8.3227 3.0994 -2.4987 0.9638
-8.5655 2.3463 -2.4987 0.9638
-8.8458 0.7904 -2.4987 0.9638
-3.5918 -0.3210 -1.0796 0.9851
-3.4925 -0.9567 -1.0841 0.9850
-7.8215 -2.9128 -2.4987 0.9658
-7.1811 -4.2534 -2.4987 0.9658
-6.7740 -4.8756 -2.4987 0.9658
-6.3131 -5.4592 -2.4987 0.9658
-5.2451 -6.4919 -2.4986 0.9658
-4.6464 -6.9330 -2.4986 0.9658
-1.9347 -8.1184 -2.4986 0.9658
-1.2044 -8.2583 -2.4985 0.9658
0.2789 -8.3409 -2.4985 0.9658
1.0201 -8.2829 -2.4985 0.9658
1.7533 -8.1592 -2.4985 0.9658
2.4725 -7.9707 -2.4985 0.9658
4.4904 -7.0342 -2.4984 0.9658
5.6664 -6.1265 -2.4984 0.9658
6.1892 -5.5978 -2.4984 0.9658
7.0836 -4.4117 -2.4984 0.9658
7.4481 -3.7637 -2.4983 0.9658
7.7535 -3.0858 -2.4983 0.9658
7.9974 -2.3835 -2.4983 0.9658
8.2933 -0.9278 -2.4983 0.9658
8.3429 -0.1859 -2.4983 0.9658
8.2437 1.2963 -2.4983 0.9658
7.4025 2.5704 -2.3460 0.9678
6.8295 3.8422 -2.3460 0.9678
6.4605 4.4348 -2.3460 0.9678
5.5718 5.5101 -2.3460 0.9678
5.0593 5.9842 -2.3460 0.9678
4.5066 6.4108 -2.3460 0.9678
3.2986 7.1084 -2.3461 0.9678
1.9860 7.5807 -2.3461 0.9678
1.3035 7.7274 -2.3461 0.9678
-0.0873 7.8362 -2.3462 0.9678
-0.7844 7.7974 -2.3462 0.9678
-1.4753 7.6967 -2.3462 0.9678
-4.6488 6.3094 -2.3463 0.9678
-5.6939 5.3852 -2.3463 0.9678
-6.1506 4.8571 -2.3463 0.9678
-6.9846 4.5691 -2.4987 0.9658
-7.6840 3.2583 -2.4987 0.9658
-8.2719 1.1124 -2.4987 0.9658
-3.6646 -0.1634 -1.0982 0.9848
-3.5144 -0.4727 -1.0616 0.9853
-7.9435 -2.5614 -2.4987 0.9658
-7.6840 -3.2583 -2.4987 0.9658
-5.5291 -6.2519 -2.4986 0.9658
-3.6809 -7.4903 -2.4986 0.9658
-2.9996 -7.7882 -2.4986 0.9658
-1.5711 -8.1965 -2.4985 0.9658
-0.8354 -8.3037 -2.4985 0.9658
0.6502 -8.3202 -2.4985 0.9658
2.1150 -8.0730 -2.4985 0.9658
2.8252 -7.8527 -2.4984 0.9658
3.5128 -7.5700 -2.4984 0.9658
5.3879 -6.3728 -2.4984 0.9658
6.4324 -5.3165 -2.4984 0.9658
6.8800 -4.7229 -2.4984 0.9658
7.2731 -4.0918 -2.4983 0.9658
8.2437 -1.2962 -2.4983 0.9658
8.2933 0.9278 -2.4983 0.9658
11.9985 3.5759 -3.7483 0.9491
7.2806 2.8976 -2.3460 0.9678
6.2402 4.7060 -2.3399 0.9679
5.3209 5.7529 -2.3460 0.9678
2.9787 7.2483 -2.3461 0.9678
0.9579 7.7779 -2.3461 0.9678
0.2619 7.8323 -2.3461 0.9678
-0.4363 7.8246 -2.3462 0.9678
-1.1310 7.7547 -2.3462 0.9678
-1.8167 7.6234 -2.3462 0.9678
-4.3631 6.5102 -2.3463 0.9678
-5.4483 5.6335 -2.3463 0.9678
-6.5850 4.7396 -2.4290 0.9667
-7.5313 3.5974 -2.4987 0.9658
-8.0498 2.2051 -2.4987 0.9658
-8.3132 0.7429 -2.4987 0.9658
-3.7562 -0.0000 -1.1929 0.9844
-3.3867 -0.3026 -1.0798 0.9858
-3.2843 -0.5917 -1.0598 0.9861
-7.3731 -2.7458 -2.4987 0.9675
-7.0995 -3.3912 -2.4987 0.9675
-6.7694 -4.0096 -2.4987 0.9675
-6.3857 -4.5961 -2.4987 0.9675
-5.9512 -5.1462 -2.4987 0.9675
-5.4695 -5.6554 -2.4986 0.9675
-4.9444 -6.1198 -2.4986 0.9675
-3.1519 -7.2085 -2.4986 0.9675
-1.8238 -7.6531 -2.4986 0.9675
-0.4380 -7.8551 -2.4985 0.9675
1.6528 -7.6915 -2.4985 0.9675
2.3308 -7.5138 -2.4985 0.9675
3.6261 -6.9815 -2.4984 0.9675
4.8064 -6.2279 -2.4984 0.9675
5.3416 -5.7753 -2.4984 0.9675
7.0212 -3.5479 -2.4984 0.9675
7.3091 -2.9090 -2.4983 0.9675
7.8491 0.5254 -2.4983 0.9675
7.7712 1.2220 -2.4984 0.9675
11.4497 2.8638 -3.7483 0.9517
11.1494 3.8715 -3.7483 0.9517
6.7349 3.0346 -2.3460 0.9695
6.0902 4.1807 -2.3460 0.9695
3.6936 6.3975 -2.3461 0.9695
2.5008 6.9511 -2.3461 0.9695
1.8722 7.1462 -2.3461 0.9695
1.2287 7.2845 -2.3461 0.9695
0.5755 7.3650 -2.3461 0.9695
-0.7395 7.3504 -2.3462 0.9695
-1.3908 7.2555 -2.3462 0.9695
-3.8355 6.3141 -2.3462 0.9695
-4.3823 5.9477 -2.3463 0.9695
-4.8943 5.5341 -2.3463 0.9695
-5.3674 5.0765 -2.3463 0.9695
-5.8506 4.6202 -2.3676 0.9692
-6.5842 4.3071 -2.4987 0.9675
-6.9414 3.7041 -2.4987 0.9675
-7.2435 3.0716 -2.4987 0.9675
-7.7977 1.0487 -2.4987 0.9675
-3.3189 -0.4463 -1.0635 0.9860
-7.2435 -3.0715 -2.4987 0.9675
-6.5841 -4.3071 -2.4987 0.9675
-5.7161 -5.4062 -2.4987 0.9675
-5.2122 -5.8935 -2.4986 0.9675
-4.0846 -6.7242 -2.4986 0.9675
-2.1629 -7.5642 -2.4986 0.9675
1.3085 -7.7576 -2.4985 0.9675
1.9938 -7.6103 -2.4985 0.9675
2.6632 -7.4026 -2.4984 0.9675
3.3115 -7.1361 -2.4984 0.9675
4.5242 -6.4358 -2.4984 0.9675
5.5936 -5.5316 -2.4984 0.9675
7.1723 -3.2317 -2.4984 0.9675
7.7712 -1.2220 -2.4983 0.9675
7.8648 0.1753 -2.4983 0.9675
7.8180 0.8746 -2.4983 0.9675
7.7091 1.5669 -2.4984 0.9675
11.3108 3.3710 -3.7483 0.9517
6.8633 2.7315 -2.3460 0.9695
6.5930 3.3316 -2.3460 0.9695
5.8979 4.4478 -2.3460 0.9695
5.4786 4.9551 -2.3460 0.9695
5.0159 5.4231 -2.3460 0.9695
3.9749 6.2266 -2.3461 0.9695
3.4050 6.5557 -2.3461 0.9695
2.8080 6.8328 -2.3461 0.9695
2.1887 7.0556 -2.3461 0.9695
0.2469 7.3834 -2.3461 0.9695
-0.4113 7.3761 -2.3462 0.9695
-1.0662 7.3103 -2.3462 0.9695
-1.7126 7.1864 -2.3462 0.9695
-2.3454 7.0055 -2.3462 0.9695
-2.9597 6.7690 -2.3462 0.9695
-4.1130 6.1370 -2.3462 0.9695
-4.6429 5.7466 -2.3463 0.9695
-5.5883 4.8324 -2.3463 0.9695
-6.7695 4.0096 -2.4987 0.9675
-7.5883 2.0787 -2.4987 0.9675
-7.7432 1.3950 -2.4987 0.9675
-7.8367 0.7003 -2.4987 0.9675
-3.2019 -0.2861 -1.0801 0.9865
-3.1483 -0.5672 -1.0748 0.9866
-6.9694 -2.5954 -2.4987 0.9691
-6.3987 -3.7900 -2.4987 0.9691
-4.6737 -5.7847 -2.4986 0.9691
-4.1402 -6.1777 -2.4986 0.9691
-3.5739 -6.5216 -2.4986 0.9691
-2.3610 -7.0519 -2.4986 0.9691
-1.7239 -7.2340 -2.4986 0.9691
-1.0732 -7.3587 -2.4985 0.9691
0.9090 -7.3806 -2.4985 0.9691
1.5623 -7.2704 -2.4985 0.9691
2.2032 -7.1024 -2.4985 0.9691
2.8266 -6.8781 -2.4984 0.9691
3.4275 -6.5992 -2.4984 0.9691
4.0013 -6.2679 -2.4984 0.9691
5.5150 -4.9880 -2.4984 0.9691
7.1262 -2.1238 -2.4984 0.9691
7.4341 -0.1657 -2.4984 0.9691
7.3457 1.1551 -2.4984 0.9691
7.2138 1.8043 -2.4984 0.9691
10.5389 3.6595 -3.7483 0.9540
6.3661 2.8684 -2.3460 0.9710
4.9649 4.9099 -2.3460 0.9710
4.5082 5.3323 -2.3460 0.9710
4.0157 5.7124 -2.3461 0.9710
2.9393 6.3340 -2.3461 0.9710
2.3639 6.5705 -2.3461 0.9710
1.7697 6.7549 -2.3461 0.9710
1.1615 6.8856 -2.3461 0.9710
-0.0778 6.9825 -2.3462 0.9710
-0.6990 6.9479 -2.3462 0.9710
-1.3146 6.8582 -2.3462 0.9710
-1.9198 6.7140 -2.3462 0.9710
-2.5098 6.5166 -2.3462 0.9710
-3.0798 6.2673 -2.3462 0.9710
-3.6255 5.9684 -2.3462 0.9710
-4.1423 5.6220 -2.3462 0.9710
-4.6263 5.2310 -2.3463 0.9710
-5.0735 4.7985 -2.3463 0.9710
-5.8133 4.5907 -2.4887 0.9692
-6.2236 4.0713 -2.4987 0.9691
-6.5613 3.5012 -2.4987 0.9691
-6.8469 2.9033 -2.4987 0.9691
-7.3707 0.9912 -2.4987 0.9691
-3.2675 -0.1457 -1.0989 0.9863
-3.1355 -0.7104 -1.0802 0.9865
-6.2236 -4.0713 -2.4987 0.9691
-5.8365 -4.6090 -2.4987 0.9691
-4.9267 -5.5708 -2.4986 0.9691
-3.2799 -6.6743 -2.4986 0.9691
-0.0828 -7.4360 -2.4985 0.9691
1.2369 -7.3328 -2.4985 0.9691
2.5174 -6.9972 -2.4985 0.9691
3.1302 -6.7453 -2.4984 0.9691
4.2765 -6.0834 -2.4984 0.9691
4.8010 -5.6786 -2.4984 0.9691
5.2873 -5.2287 -2.4984 0.9691
6.1306 -4.2084 -2.4984 0.9691
7.2138 -1.8043 -2.4984 0.9691
7.3457 -1.1551 -2.4984 0.9691
7.4341 0.1657 -2.4984 0.9691
7.3899 0.8267 -2.4984 0.9691
7.2870 1.4812 -2.4984 0.9691
10.6915 3.1863 -3.7483 0.9540
10.3655 4.1254 -3.7483 0.9540
6.2320 3.1492 -2.3460 0.9710
5.5750 4.2043 -2.3460 0.9710
5.1787 4.6838 -2.3460 0.9710
3.7573 5.8856 -2.3461 0.9710
3.2185 6.1967 -2.3461 0.9710
2.6542 6.4587 -2.3461 0.9710
1.4670 6.8270 -2.3461 0.9710
-0.3888 6.9722 -2.3462 0.9710
-1.6188 6.7929 -2.3462 0.9710
-2.7976 6.3982 -2.3462 0.9710
-4.3887 5.4319 -2.3463 0.9710
-6.3988 3.7900 -2.4987 0.9691
-7.3192 1.3186 -2.4987 0.9691
-7.4075 0.6619 -2.4987 0.9691
-3.0229 -0.8281 -1.1114 0.9868
-5.7193 -4.1165 -2.4987 0.9705
-5.3302 -4.6092 -2.4986 0.9705
-3.3864 -6.1794 -2.4986 0.9705
-2.8230 -6.4563 -2.4986 0.9705
-2.2371 -6.6819 -2.4986 0.9705
-1.6335 -6.8545 -2.4986 0.9705
-1.0169 -6.9726 -2.4985 0.9705
-0.3923 -7.0354 -2.4985 0.9705
0.2355 -7.0423 -2.4985 0.9705
0.8613 -6.9934 -2.4985 0.9705
2.0876 -6.7298 -2.4985 0.9705
3.7913 -5.9391 -2.4984 0.9705
4.3049 -5.5780 -2.4984 0.9705
5.6256 -4.2424 -2.4984 0.9705
6.5465 -2.6055 -2.4984 0.9705
6.7524 -2.0124 -2.4984 0.9705
6.9047 -1.4034 -2.4984 0.9705
7.0301 0.4706 -2.4984 0.9705
6.9604 1.0945 -2.4984 0.9705
6.8353 1.7096 -2.4984 0.9705
6.0321 2.7179 -2.3460 0.9723
5.4547 3.7444 -2.3460 0.9723
5.0998 4.2151 -2.3460 0.9723
4.2717 5.0526 -2.3460 0.9723
2.7851 6.0017 -2.3461 0.9723
2.2399 6.2258 -2.3461 0.9723
0.5155 6.5964 -2.3461 0.9723
-0.0737 6.6162 -2.3462 0.9723
-0.6623 6.5834 -2.3462 0.9723
-1.2456 6.4983 -2.3462 0.9723
-2.3781 6.1746 -2.3462 0.9723
-2.9183 5.9385 -2.3462 0.9723
-3.9250 5.3270 -2.3462 0.9723
-4.8073 4.5467 -2.3463 0.9723
-5.5302 4.3672 -2.4987 0.9705
-6.2170 3.3175 -2.4987 0.9705
-6.4876 2.7510 -2.4987 0.9705
-6.7067 2.1626 -2.4987 0.9705
-6.8726 1.5571 -2.4987 0.9705
-6.9839 0.9392 -2.4987 0.9705
-3.9464 0.1760 -1.4007 0.9834
-3.1623 -0.1410 -1.1224 0.9867
-3.0595 -0.4115 -1.0946 0.9870
-3.0241 -0.6852 -1.0995 0.9869
-6.4876 -2.7510 -2.4987 0.9705
-6.2170 -3.3175 -2.4987 0.9705
-5.5302 -4.3672 -2.4987 0.9705
-5.1195 -4.8421 -2.4986 0.9705
-4.6682 -5.2785 -2.4986 0.9705
-4.1799 -5.6730 -2.4986 0.9705
-3.6583 -6.0225 -2.4986 0.9705
-2.5325 -6.5756 -2.4986 0.9705
-1.9372 -6.7749 -2.4986 0.9705
-0.7053 -7.0109 -2.4985 0.9705
1.1720 -6.9481 -2.4985 0.9705
2.3853 -6.6301 -2.4985 0.9705
4.0521 -5.7643 -2.4984 0.9705
4.5491 -5.3807 -2.4984 0.9705
5.0099 -4.9544 -2.4984 0.9705
5.4310 -4.4888 -2.4984 0.9705
5.8089 -3.9876 -2.4984 0.9705
6.4239 -2.8945 -2.4984 0.9705
6.6560 -2.3112 -2.4984 0.9705
6.8353 -1.7096 -2.4984 0.9705
7.0301 -0.4706 -2.4984 0.9705
5.2825 3.9837 -2.3460 0.9723
4.4925 4.8572 -2.3460 0.9723
4.0424 5.2378 -2.3461 0.9723
3.0497 5.8716 -2.3461 0.9723
1.9603 6.3194 -2.3461 0.9723
0.8088 6.5669 -2.3461 0.9723
-0.3684 6.6063 -2.3462 0.9723
-1.5339 6.4364 -2.3462 0.9723
-2.1007 6.2744 -2.3462 0.9723
-3.6838 5.4966 -2.3462 0.9723
-4.6000 4.7564 -2.3463 0.9723
-5.1927 4.4903 -2.4342 0.9713
-5.7193 4.1166 -2.4987 0.9705
-6.0631 3.5911 -2.4987 0.9705
-6.3586 3.0373 -2.4987 0.9705
-6.6037 2.4593 -2.4987 0.9705
-6.7964 1.8618 -2.4987 0.9705
-6.9352 1.2494 -2.4987 0.9705
-7.0188 0.6272 -2.4987 0.9705
-3.3740 -0.0000 -1.2599 0.9857
-2.9938 -0.2675 -1.1224 0.9872
-2.9455 -0.5307 -1.1176 0.9873
-2.9169 -0.7990 -1.1293 0.9872
-5.4309 -3.9090 -2.4987 0.9718
-5.0615 -4.3768 -2.4986 0.9718
-4.6518 -4.8099 -2.4986 0.9718
-4.2052 -5.2048 -2.4986 0.9718
-3.7252 -5.5584 -2.4986 0.9718
-2.6807 -6.1308 -2.4986 0.9718
-2.1243 -6.3450 -2.4986 0.9718
-0.9657 -6.6211 -2.4985 0.9718
-0.3725 -6.6807 -2.4985 0.9718
0.2236 -6.6873 -2.4985 0.9718
0.8179 -6.6408 -2.4985 0.9718
1.4057 -6.5417 -2.4985 0.9718
1.9824 -6.3905 -2.4985 0.9718
2.5433 -6.1887 -2.4985 0.9718
3.0840 -5.9377 -2.4984 0.9718
3.6002 -5.6396 -2.4984 0.9718
4.0879 -5.2968 -2.4984 0.9718
4.5431 -4.9119 -2.4984 0.9718
4.9622 -4.4881 -2.4984 0.9718
5.9716 -3.0176 -2.4984 0.9718
6.2164 -2.4741 -2.4984 0.9718
6.5566 -1.3327 -2.4984 0.9718
6.6492 -0.7438 -2.4984 0.9718
6.6757 0.4469 -2.4984 0.9718
6.6095 1.0393 -2.4984 0.9718
9.4826 3.2927 -3.7483 0.9580
4.8427 4.0026 -2.3460 0.9735
4.4672 4.4178 -2.3460 0.9735
4.0563 4.7978 -2.3460 0.9735
3.6132 5.1398 -2.3461 0.9735
3.1414 5.4411 -2.3461 0.9735
2.6447 5.6991 -2.3461 0.9735
2.1269 5.9119 -2.3461 0.9735
0.4895 6.2639 -2.3461 0.9735
-1.1828 6.1708 -2.3462 0.9735
-1.7274 6.0410 -2.3462 0.9735
-2.2582 5.8634 -2.3462 0.9735
-2.7711 5.6391 -2.3462 0.9735
-3.7271 5.0585 -2.3462 0.9735
-4.1625 4.7067 -2.3462 0.9735
-5.5997 3.6632 -2.4987 0.9718
-5.9036 3.1503 -2.4987 0.9718
-6.1605 2.6123 -2.4987 0.9718
-6.3686 2.0536 -2.4987 0.9718
-6.6318 0.8919 -2.4987 0.9718
-3.0832 -0.1375 -1.1525 0.9869
-2.9258 -0.6629 -1.1202 0.9873
-2.9106 -0.9386 -1.1419 0.9870
-6.1605 -2.6123 -2.4987 0.9718
-5.9035 -3.1502 -2.4987 0.9718
-5.2514 -4.1470 -2.4986 0.9718
-4.8614 -4.5979 -2.4986 0.9718
-3.4739 -5.7188 -2.4986 0.9718
-0.6697 -6.6575 -2.4985 0.9718
1.1129 -6.5978 -2.4985 0.9718
1.6957 -6.4725 -2.4985 0.9718
2.2651 -6.2958 -2.4985 0.9718
2.8164 -6.0692 -2.4984 0.9718
3.8479 -5.4737 -2.4984 0.9718
5.1572 -4.2625 -2.4984 0.9718
6.1001 -2.7486 -2.4984 0.9718
6.3205 -2.1947 -2.4984 0.9718
6.6095 -1.0393 -2.4984 0.9718
6.6890 0.1491 -2.4984 0.9718
6.6492 0.7438 -2.4984 0.9718
6.5566 1.3327 -2.4984 0.9718
9.3265 3.7119 -3.7483 0.9580
5.0162 3.7829 -2.3460 0.9735
3.3807 5.2957 -2.3461 0.9735
2.8959 5.5756 -2.3461 0.9735
0.7680 6.2358 -2.3461 0.9735
0.2099 6.2795 -2.3461 0.9735
-0.3498 6.2733 -2.3462 0.9735
-0.9068 6.2173 -2.3462 0.9735
-2.5172 5.7569 -2.3462 0.9735
-3.4980 5.2195 -2.3462 0.9735
-3.9487 4.8874 -2.3462 0.9735
-5.4310 3.9090 -2.4987 0.9718
-4.2613 0.3808 -1.5976 0.9819
-3.2641 -0.0000 -1.2810 0.9861
-2.9005 -0.2592 -1.1429 0.9876
-2.8528 -1.0624 -1.1947 0.9870
-5.4777 -3.2445 -2.4987 0.9730
-5.1672 -3.7191 -2.4986 0.9730
-4.4259 -4.5763 -2.4986 0.9730
-3.5443 -5.2885 -2.4986 0.9730
-2.0212 -6.0369 -2.4986 0.9730
-0.9188 -6.2995 -2.4985 0.9730
1.8861 -6.0802 -2.4985 0.9730
2.4198 -5.8882 -2.4985 0.9730
2.9342 -5.6494 -2.4984 0.9730
3.4254 -5.3658 -2.4984 0.9730
5.6816 -2.8711 -2.4984 0.9730
5.9146 -2.3540 -2.4984 0.9730
6.3642 -0.1418 -2.4984 0.9730
6.2885 0.9888 -2.4984 0.9730
9.0221 3.1328 -3.7483 0.9598
5.2097 2.9309 -2.3460 0.9746
4.9282 3.3830 -2.3460 0.9746
4.6075 3.8082 -2.3460 0.9746
3.8593 4.5648 -2.3461 0.9746
2.0236 5.6248 -2.3461 0.9746
0.9943 5.8946 -2.3461 0.9746
0.4657 5.9597 -2.3461 0.9746
-0.5984 5.9479 -2.3462 0.9746
-4.6254 4.3746 -2.4987 0.9730
-4.9964 3.9457 -2.4987 0.9730
-5.6169 2.9972 -2.4987 0.9730
-6.0593 1.9538 -2.4987 0.9730
-6.2092 1.4068 -2.4987 0.9730
-6.3097 0.8486 -2.4987 0.9730
-2.8734 -0.3864 -1.1379 0.9876
-2.8326 -0.6418 -1.1399 0.9876
-2.8717 -1.2177 -1.2242 0.9867
-5.3277 -3.4852 -2.4986 0.9730
-3.3052 -5.4411 -2.4986 0.9730
-1.1985 -6.2523 -2.4985 0.9730
-0.6372 -6.3342 -2.4985 0.9730
-0.0709 -6.3657 -2.4985 0.9730
0.4959 -6.3467 -2.4985 0.9730
2.1551 -5.9901 -2.4985 0.9730
3.6610 -5.2079 -2.4984 0.9730
4.1100 -4.8613 -2.4984 0.9730
4.5263 -4.4762 -2.4984 0.9730
6.0136 -2.0881 -2.4984 0.9730
6.1755 -1.5446 -2.4984 0.9730
6.3516 -0.4252 -2.4984 0.9730
6.3263 0.7077 -2.4984 0.9730
6.2382 1.2680 -2.4984 0.9730
8.8736 3.5316 -3.7483 0.9598
8.5241 4.3074 -3.7483 0.9598
4.7726 3.5992 -2.3460 0.9746
4.0589 4.3884 -2.3460 0.9746
3.2165 5.0386 -2.3461 0.9746
2.7553 5.3049 -2.3461 0.9746
2.2722 5.5291 -2.3461 0.9746
1.7711 5.7094 -2.3461 0.9746
-0.3328 5.9686 -2.3462 0.9746
-0.8627 5.9154 -2.3462 0.9746
-1.8979 5.6687 -2.3462 0.9746
-2.8729 5.2425 -2.3462 0.9746
-3.3282 4.9660 -2.3462 0.9746
-5.1672 3.7191 -2.4987 0.9730
-5.4778 3.2445 -2.4987 0.9730
-5.7448 2.7441 -2.4987 0.9730
-6.2657 1.1288 -2.4987 0.9730
-4.1297 0.3690 -1.6273 0.9823
-3.1614 -0.0000 -1.3018 0.9864
-2.8130 -0.2514 -1.1629 0.9879
-2.7831 -0.5014 -1.1645 0.9878
-2.7842 -1.0369 -1.2234 0.9872
-5.2208 -3.0923 -2.4986 0.9741
-4.9249 -3.5447 -2.4986 0.9741
-4.2183 -4.3617 -2.4986 0.9741
-3.8133 -4.7198 -2.4986 0.9741
-2.9160 -5.3211 -2.4986 0.9741
-1.9264 -5.7538 -2.4986 0.9741
-1.4066 -5.9024 -2.4985 0.9741
-0.8757 -6.0041 -2.4985 0.9741
0.7417 -6.0221 -2.4985 0.9741
1.7977 -5.7951 -2.4985 0.9741
2.3063 -5.6121 -2.4985 0.9741
2.7966 -5.3845 -2.4985 0.9741
3.7070 -4.8033 -2.4984 0.9741
4.8442 -3.6532 -2.4984 0.9741
5.4152 -2.7364 -2.4984 0.9741
5.6372 -2.2436 -2.4984 0.9741
5.9457 -1.2085 -2.4984 0.9741
6.0297 -0.6745 -2.4984 0.9741
6.0658 -0.1352 -2.4984 0.9741
6.0537 0.4053 -2.4984 0.9741
5.8860 1.4722 -2.4984 0.9741
5.7316 1.9902 -2.4984 0.9741
8.2992 3.7395 -3.7483 0.9614
7.9334 4.4633 -3.7484 0.9614
2.8487 4.9341 -2.3461 0.9757
2.3982 5.1681 -2.3461 0.9757
0.4439 5.6802 -2.3461 0.9757
-1.5664 5.4781 -2.3462 0.9757
-4.4084 4.1695 -2.4986 0.9741
-5.5865 2.3689 -2.4987 0.9741
-5.9180 1.3408 -2.4987 0.9741
-6.0138 0.8088 -2.4987 0.9741
-2.7946 -0.3759 -1.1611 0.9879
-2.7756 -0.6289 -1.1719 0.9878
-2.7775 -0.8956 -1.2017 0.9875
-4.7621 -3.7605 -2.4986 0.9741
-3.5993 -4.8850 -2.4986 0.9741
-3.1502 -5.1860 -2.4986 0.9741
-2.6761 -5.4457 -2.4986 0.9741
-2.1808 -5.6622 -2.4986 0.9741
-1.6681 -5.8339 -2.4986 0.9741
-1.1423 -5.9592 -2.4985 0.9741
-0.0676 -6.0672 -2.4985 0.9741
0.4727 -6.0491 -2.4985 0.9741
1.0092 -5.9830 -2.4985 0.9741
1.5377 -5.8694 -2.4985 0.9741
4.3141 -4.2663 -2.4984 0.9741
5.0021 -3.4338 -2.4984 0.9741
5.5317 -2.4924 -2.4984 0.9741
5.7316 -1.9902 -2.4984 0.9741
5.8860 -1.4722 -2.4984 0.9741
5.9936 -0.9424 -2.4984 0.9741
6.0658 0.1352 -2.4984 0.9741
5.8146 1.7329 -2.4984 0.9741
4.2254 3.8217 -2.3460 0.9757
3.8685 4.1826 -2.3461 0.9757
2.1656 5.2698 -2.3461 0.9757
1.6880 5.4417 -2.3461 0.9757
0.6965 5.6548 -2.3461 0.9757
0.1904 5.6944 -2.3461 0.9757
-0.3172 5.6887 -2.3462 0.9757
-0.8223 5.6379 -2.3462 0.9757
-1.3208 5.5424 -2.3462 0.9757
-2.7382 4.9966 -2.3462 0.9757
-3.5808 4.4320 -2.3462 0.9757
-4.1591 4.3004 -2.4635 0.9745
-4.5898 3.9690 -2.4987 0.9741
-5.2209 3.0923 -2.4987 0.9741
-5.4754 2.6154 -2.4987 0.9741
-5.9718 1.0759 -2.4987 0.9741
-3.9772 0.3554 -1.6443 0.9829
-2.7539 -0.2461 -1.1927 0.9880
-2.7278 -0.4914 -1.1956 0.9880
-2.7092 -0.7421 -1.2117 0.9878
-2.7209 -1.0133 -1.2524 0.9874
-2.7299 -1.3040 -1.3050 0.9869
-2.7884 -1.6516 -1.3980 0.9860
-4.0269 -4.1637 -2.4986 0.9751
-3.6403 -4.5056 -2.4986 0.9751
-2.7837 -5.0796 -2.4986 0.9751
-2.3205 -5.3072 -2.4986 0.9751
-1.3428 -5.6345 -2.4985 0.9751
-0.8359 -5.7316 -2.4985 0.9751
-0.3225 -5.7832 -2.4985 0.9751
0.1936 -5.7890 -2.4985 0.9751
0.7080 -5.7487 -2.4985 0.9751
1.2169 -5.6629 -2.4985 0.9751
3.5387 -4.5853 -2.4984 0.9751
4.2956 -3.8852 -2.4984 0.9751
4.9164 -3.0620 -2.4984 0.9751
5.1694 -2.6122 -2.4984 0.9751
5.3814 -2.1417 -2.4984 0.9751
5.6759 -1.1537 -2.4984 0.9751
5.7560 -0.6439 -2.4984 0.9751
5.7905 -0.1290 -2.4984 0.9751
5.7790 0.3869 -2.4984 0.9751
5.7216 0.8997 -2.4984 0.9751
5.6189 1.4054 -2.4984 0.9751
7.9226 3.5698 -3.7484 0.9629
4.1922 3.4649 -2.3460 0.9766
3.8671 3.8243 -2.3461 0.9766
3.1278 4.4494 -2.3461 0.9766
2.2894 4.9335 -2.3461 0.9766
1.3784 5.2613 -2.3461 0.9766
0.9047 5.3632 -2.3461 0.9766
0.4237 5.4224 -2.3461 0.9766
-0.0606 5.4387 -2.3461 0.9766
-1.0239 5.3418 -2.3462 0.9766
-1.4953 5.2295 -2.3462 0.9766
-1.9549 5.0756 -2.3462 0.9766
-3.2264 4.3789 -2.3462 0.9766
-3.7420 4.2311 -2.4365 0.9757
-4.2084 3.9803 -2.4986 0.9751
-4.5460 3.5899 -2.4987 0.9751
-5.7409 0.7721 -2.4987 0.9751
-2.8614 -0.1276 -1.2355 0.9876
-2.7402 -0.3685 -1.1926 0.9880
-2.7200 -0.6163 -1.2030 0.9879
-2.7334 -1.1591 -1.2807 0.9871
-5.1104 -2.7270 -2.4986 0.9751
-4.5459 -3.5899 -2.4986 0.9751
-2.5547 -5.1986 -2.4986 0.9751
-1.5924 -5.5691 -2.4986 0.9751
-1.0904 -5.6887 -2.4985 0.9751
-0.0645 -5.7919 -2.4985 0.9751
0.4512 -5.7746 -2.4985 0.9751
0.9634 -5.7115 -2.4985 0.9751
1.4679 -5.6030 -2.4985 0.9751
2.8960 -5.0161 -2.4984 0.9751
4.7751 -3.2779 -2.4984 0.9751
5.2807 -2.3794 -2.4984 0.9751
5.4715 -1.8999 -2.4984 0.9751
5.6188 -1.4054 -2.4984 0.9751
5.7216 -0.8997 -2.4984 0.9751
5.7790 -0.3869 -2.4984 0.9751
5.7560 0.6439 -2.4984 0.9751
5.3814 2.1418 -2.4984 0.9751
7.7557 3.9191 -3.7484 0.9629
7.3761 4.5938 -3.7484 0.9629
2.9265 4.5844 -2.3461 0.9766
2.5069 4.8266 -2.3461 0.9766
0.6649 5.3982 -2.3461 0.9766
0.1818 5.4359 -2.3461 0.9766
-0.3028 5.4306 -2.3462 0.9766
-2.6139 4.7698 -2.3462 0.9766
-3.4182 4.2308 -2.3462 0.9766
-5.2269 2.4967 -2.4987 0.9751
-5.5867 1.5304 -2.4987 0.9751
-5.7008 1.0271 -2.4987 0.9751
-2.6738 -0.4817 -1.2259 0.9881
-2.6546 -0.7272 -1.2419 0.9880
-2.6666 -1.2737 -1.3334 0.9871
-4.4944 -3.2349 -2.4986 0.9760
-4.1886 -3.6221 -2.4986 0.9760
-3.8496 -3.9805 -2.4986 0.9760
-3.4800 -4.3073 -2.4986 0.9760
-3.0828 -4.6000 -2.4986 0.9760
-2.6612 -4.8561 -2.4986 0.9760
-2.2184 -5.0736 -2.4986 0.9760
-1.7580 -5.2509 -2.4986 0.9760
-1.2837 -5.3865 -2.4985 0.9760
0.1850 -5.5342 -2.4985 0.9760
1.1633 -5.4136 -2.4985 0.9760
1.6405 -5.2886 -2.4985 0.9760
2.1047 -5.1216 -2.4985 0.9760
2.5522 -4.9139 -2.4985 0.9760
3.3830 -4.3835 -2.4984 0.9760
4.1066 -3.7142 -2.4984 0.9760
4.4209 -3.3339 -2.4984 0.9760
4.7000 -2.9272 -2.4984 0.9760
5.4261 -1.1029 -2.4984 0.9760
5.4698 0.8601 -2.4984 0.9760
5.2307 1.8163 -2.4984 0.9760
7.2401 4.0732 -3.7484 0.9642
6.8489 4.7015 -3.7484 0.9642
4.0077 3.3124 -2.3460 0.9774
3.6969 3.6560 -2.3461 0.9774
3.3569 3.9705 -2.3461 0.9774
2.9902 4.2536 -2.3461 0.9774
1.7602 4.8925 -2.3461 0.9774
0.8648 5.1271 -2.3461 0.9774
-0.9789 5.1067 -2.3462 0.9774
-1.4295 4.9993 -2.3462 0.9774
-1.8688 4.8522 -2.3462 0.9774
-3.0843 4.1861 -2.3462 0.9774
-4.6341 3.0315 -2.4987 0.9760
-4.8855 2.6070 -2.4987 0.9760
-5.0982 2.1618 -2.4987 0.9760
-5.4007 1.2236 -2.4987 0.9760
-3.2608 0.1454 -1.4728 0.9858
-2.7833 -0.1241 -1.2571 0.9878
-2.6870 -0.3614 -1.2234 0.9882
-2.6659 -0.6040 -1.2334 0.9881
-2.6675 -1.1311 -1.3074 0.9874
-4.8855 -2.6070 -2.4986 0.9760
-4.3458 -3.4319 -2.4986 0.9760
-4.0231 -3.8051 -2.4986 0.9760
-3.6685 -4.1480 -2.4986 0.9760
-3.2847 -4.4580 -2.4986 0.9760
-2.8749 -4.7327 -2.4986 0.9760
-2.4422 -4.9698 -2.4986 0.9760
-1.9902 -5.1674 -2.4986 0.9760
-1.5223 -5.3240 -2.4986 0.9760
-0.5543 -5.5095 -2.4985 0.9760
0.4314 -5.5204 -2.4985 0.9760
0.9210 -5.4601 -2.4985 0.9760
1.4033 -5.3564 -2.4985 0.9760
1.8745 -5.2103 -2.4985 0.9760
3.5749 -4.2284 -2.4984 0.9760
3.9371 -3.8935 -2.4984 0.9760
4.2680 -3.5276 -2.4984 0.9760
4.8258 -2.7149 -2.4984 0.9760
5.0483 -2.2746 -2.4984 0.9760
5.2307 -1.8163 -2.4984 0.9760
5.3716 -1.3435 -2.4984 0.9760
5.4698 -0.8601 -2.4984 0.9760
5.5247 -0.3698 -2.4984 0.9760
5.5357 0.1234 -2.4984 0.9760
5.4261 1.1029 -2.4984 0.9760
7.4144 3.7467 -3.7484 0.9642
7.0515 4.3917 -3.7484 0.9642
4.1512 3.1306 -2.3460 0.9774
3.8561 3.4877 -2.3461 0.9774
3.5304 3.8171 -2.3461 0.9774
2.3966 4.6142 -2.3461 0.9774
1.5405 4.9661 -2.3461 0.9774
0.1737 5.1967 -2.3461 0.9774
-0.2895 5.1915 -2.3462 0.9774
-1.2054 5.0580 -2.3462 0.9774
-2.0831 4.7642 -2.3462 0.9774
-3.3673 4.1678 -2.4177 0.9768
-4.4944 3.2349 -2.4986 0.9760
-4.7645 2.8221 -2.4987 0.9760
-4.9968 2.3868 -2.4987 0.9760
-5.1894 1.9326 -2.4987 0.9760
-5.3408 1.4630 -2.4987 0.9760
-5.4499 0.9819 -2.4987 0.9760
-3.7666 0.3366 -1.7063 0.9835
-2.6448 -0.2363 -1.2517 0.9883
-2.6016 -0.7127 -1.2715 0.9881
-2.6023 -0.9691 -1.3090 0.9878
-2.6052 -1.2444 -1.3609 0.9873
-2.6596 -1.5753 -1.4571 0.9864
-4.3022 -3.0965 -2.4986 0.9768
-4.0095 -3.4672 -2.4986 0.9768
-2.5474 -4.6484 -2.4986 0.9768
-1.2288 -5.1562 -2.4985 0.9768
-0.2951 -5.2923 -2.4985 0.9768
1.1136 -5.1821 -2.4985 0.9768
2.0147 -4.9025 -2.4985 0.9768
2.4431 -4.7037 -2.4985 0.9768
2.8520 -4.4676 -2.4985 0.9768
3.2383 -4.1960 -2.4984 0.9768
3.9310 -3.5553 -2.4984 0.9768
4.2318 -3.1914 -2.4984 0.9768
4.9246 -1.9599 -2.4984 0.9768
5.0795 -1.5138 -2.4984 0.9768
5.1940 -1.0557 -2.4984 0.9768
5.2674 -0.5892 -2.4984 0.9768
5.2989 -0.1181 -2.4984 0.9768
4.8324 2.1774 -2.4984 0.9768
6.9305 3.8990 -3.7484 0.9654
3.8363 3.1707 -2.3460 0.9782
3.2133 3.8007 -2.3461 0.9782
2.8623 4.0717 -2.3461 0.9782
2.0950 4.5147 -2.3461 0.9782
1.6849 4.6832 -2.3461 0.9782
1.2614 4.8147 -2.3461 0.9782
0.3877 4.9621 -2.3461 0.9782
-2.1952 4.4671 -2.3462 0.9782
-2.5841 4.2540 -2.3462 0.9782
-3.8511 3.6423 -2.4986 0.9768
-4.1600 3.2851 -2.4986 0.9768
-4.4359 2.9018 -2.4986 0.9768
-5.0450 1.6268 -2.4987 0.9768
-5.1697 1.1713 -2.4987 0.9768
-5.2535 0.7065 -2.4987 0.9768
-3.1522 0.1405 -1.4873 0.9861
-2.6352 -0.3544 -1.2533 0.9883
-2.6131 -0.5921 -1.2630 0.9882
-2.5994 -0.8382 -1.2874 0.9880
-4.1600 -3.2851 -2.4986 0.9768
-3.8511 -3.6423 -2.4986 0.9768
-3.5116 -3.9706 -2.4986 0.9768
-3.1442 -4.2674 -2.4986 0.9768
-1.4572 -5.0963 -2.4986 0.9768
-0.9979 -5.2058 -2.4985 0.9768
-0.0590 -5.3001 -2.4985 0.9768
0.4129 -5.2843 -2.4985 0.9768
0.8816 -5.2266 -2.4985 0.9768
1.3433 -5.1274 -2.4985 0.9768
1.7943 -4.9874 -2.4985 0.9768
3.0482 -4.3361 -2.4984 0.9768
3.4220 -4.0476 -2.4984 0.9768
4.0854 -3.3767 -2.4984 0.9768
4.3698 -2.9997 -2.4984 0.9768
5.1418 -1.2860 -2.4984 0.9768
5.2884 -0.3540 -2.4984 0.9768
5.2989 0.1181 -2.4984 0.9768
5.1940 1.0557 -2.4984 0.9768
4.9246 1.9599 -2.4984 0.9768
7.0973 3.5864 -3.7484 0.9654
6.7499 4.2039 -3.7484 0.9654
3.6912 3.3385 -2.3461 0.9782
3.3794 3.6538 -2.3461 0.9782
3.0408 3.9401 -2.3461 0.9782
2.6781 4.1951 -2.3461 0.9782
1.8919 4.6035 -2.3461 0.9782
1.4746 4.7537 -2.3461 0.9782
0.6084 4.9399 -2.3461 0.9782
0.1663 4.9744 -2.3461 0.9782
-0.2771 4.9695 -2.3462 0.9782
-1.1538 4.8417 -2.3462 0.9782
-1.5802 4.7198 -2.3462 0.9782
-2.3920 4.3649 -2.3462 0.9782
-3.3312 4.1231 -2.4986 0.9768
-3.6850 3.8103 -2.4986 0.9768
-4.0095 3.4672 -2.4986 0.9768
-4.3022 3.0965 -2.4986 0.9768
-4.5608 2.7014 -2.4986 0.9768
-4.9675 1.8499 -2.4987 0.9768
-5.1124 1.4004 -2.4987 0.9768
-5.2168 0.9399 -2.4987 0.9768
-3.7076 0.3313 -1.7547 0.9837
-2.8279 -0.0000 -1.3909 0.9875
-2.5903 -0.2315 -1.2791 0.9885
-2.5453 -0.9479 -1.3359 0.9880
-4.3709 -2.5889 -2.4986 0.9776
-4.1231 -2.9676 -2.4986 0.9776
-3.1925 -3.9514 -2.4986 0.9776
-2.0351 -4.6544 -2.4986 0.9776
-1.6128 -4.8171 -2.4986 0.9776
-1.1776 -4.9415 -2.4985 0.9776
-0.7331 -5.0267 -2.4985 0.9776
-0.2828 -5.0719 -2.4985 0.9776
0.1697 -5.0769 -2.4985 0.9776
1.0672 -4.9664 -2.4985 0.9776
2.3413 -4.5079 -2.4985 0.9776
3.1035 -4.0214 -2.4984 0.9776
3.4491 -3.7291 -2.4984 0.9776
3.7673 -3.4073 -2.4984 0.9776
4.0556 -3.0585 -2.4984 0.9776
4.3117 -2.6854 -2.4984 0.9776
4.8680 -1.4508 -2.4984 0.9776
4.9778 -1.0118 -2.4984 0.9776
5.0481 -0.5647 -2.4984 0.9776
5.0783 -0.1132 -2.4984 0.9776
5.0682 0.3393 -2.4984 0.9776
4.7985 1.6662 -2.4984 0.9776
4.6312 2.0867 -2.4984 0.9776
6.2830 4.3131 -3.7484 0.9666
5.8742 4.8552 -3.7484 0.9666
3.3915 3.3539 -2.3461 0.9790
3.0796 3.6425 -2.3461 0.9790
2.7431 3.9021 -2.3461 0.9790
2.3849 4.1308 -2.3461 0.9790
1.6148 4.4883 -2.3461 0.9790
1.2089 4.6142 -2.3461 0.9790
-0.0531 4.7697 -2.3461 0.9790
-0.4775 4.7461 -2.3462 0.9790
-1.3114 4.5862 -2.3462 0.9790
-1.7144 4.4513 -2.3462 0.9790
-2.1038 4.2811 -2.3462 0.9790
-3.6907 3.4907 -2.4986 0.9776
-3.9868 3.1484 -2.4986 0.9776
-4.2512 2.7810 -2.4986 0.9776
-4.4819 2.3916 -2.4986 0.9776
-4.8349 1.5590 -2.4987 0.9776
-4.9545 1.1225 -2.4987 0.9776
-2.6467 -0.1180 -1.3031 0.9883
-2.5845 -0.3476 -1.2826 0.9884
-2.5616 -0.5804 -1.2919 0.9884
-3.9868 -3.1483 -2.4986 0.9776
-2.6373 -4.3417 -2.4986 0.9776
-0.0566 -5.0795 -2.4985 0.9776
2.9213 -4.1556 -2.4985 0.9776
3.9154 -3.2361 -2.4984 0.9776
4.1878 -2.8748 -2.4984 0.9776
4.4271 -2.4906 -2.4984 0.9776
4.7985 -1.6662 -2.4984 0.9776
5.0682 -0.3393 -2.4984 0.9776
5.0481 0.5647 -2.4984 0.9776
4.9778 1.0118 -2.4984 0.9776
4.5337 2.2910 -2.4984 0.9776
6.4689 4.0289 -3.7484 0.9666
6.0847 4.5887 -3.7484 0.9666
3.5375 3.1995 -2.3461 0.9790
3.2387 3.5017 -2.3461 0.9790
2.1986 4.2330 -2.3461 0.9790
0.5831 4.7342 -2.3461 0.9790
-0.2656 4.7626 -2.3462 0.9790
-0.6884 4.7201 -2.3462 0.9790
-1.5144 4.5233 -2.3462 0.9790
-2.7177 4.0551 -2.4010 0.9785
-3.1925 3.9515 -2.4986 0.9776
-3.5316 3.6516 -2.4986 0.9776
-3.8426 3.3228 -2.4986 0.9776
-4.1231 2.9676 -2.4986 0.9776
-4.3709 2.5889 -2.4986 0.9776
-4.5840 2.1896 -2.4986 0.9776
-4.7607 1.7729 -2.4987 0.9776
-4.8996 1.3421 -2.4987 0.9776
-2.5372 -0.2267 -1.3059 0.9886
-2.5199 -0.4540 -1.3126 0.9886
-2.4521 -1.4524 -1.4611 0.9873
-3.6865 -3.1879 -2.4986 0.9783
-3.0629 -3.7910 -2.4986 0.9783
-2.7133 -4.0485 -2.4986 0.9783
-2.3422 -4.2740 -2.4986 0.9783
-1.9525 -4.4654 -2.4986 0.9783
-1.1298 -4.7409 -2.4985 0.9783
-0.7033 -4.8226 -2.4985 0.9783
1.4439 -4.6547 -2.4985 0.9783
1.8524 -4.5077 -2.4985 0.9783
2.9775 -3.8581 -2.4985 0.9783
3.3091 -3.5777 -2.4984 0.9783
3.6144 -3.2690 -2.4984 0.9783
3.8910 -2.9343 -2.4984 0.9783
4.3496 -2.1979 -2.4984 0.9783
4.5279 -1.8021 -2.4984 0.9783
4.7757 -0.9707 -2.4984 0.9783
4.8431 -0.5418 -2.4984 0.9783
4.8721 -0.1086 -2.4984 0.9783
4.7277 1.1825 -2.4984 0.9783
4.4432 2.0020 -2.4984 0.9783
6.0279 4.1379 -3.7484 0.9677
3.2538 3.2177 -2.3461 0.9796
2.6318 3.7437 -2.3461 0.9796
2.2881 3.9631 -2.3461 0.9796
1.9263 4.1511 -2.3461 0.9796
1.5492 4.3061 -2.3461 0.9796
0.3565 4.5624 -2.3461 0.9796
-0.8615 4.4945 -2.3462 0.9796
-1.2581 4.4000 -2.3462 0.9796
-2.0184 4.1073 -2.3462 0.9796
-2.4322 4.0040 -2.4018 0.9792
-2.8910 3.9237 -2.4986 0.9783
-3.2288 3.6508 -2.4986 0.9783
-4.4871 1.9026 -2.4986 0.9783
-4.6386 1.4958 -2.4986 0.9783
-4.7533 1.0770 -2.4986 0.9783
-4.8303 0.6496 -2.4986 0.9783
-2.9775 0.1328 -1.5280 0.9867
-2.5350 -0.3409 -1.3113 0.9886
-2.5113 -0.5690 -1.3201 0.9885
-2.4879 -1.0550 -1.3854 0.9879
-2.4717 -1.3190 -1.4363 0.9875
-3.5409 -3.3489 -2.4986 0.9783
-3.2287 -3.6508 -2.4986 0.9783
-2.8910 -3.9237 -2.4986 0.9783
-0.9175 -4.7865 -2.4985 0.9783
-0.4878 -4.8491 -2.4985 0.9783
0.8106 -4.8056 -2.4985 0.9783
1.2351 -4.7144 -2.4985 0.9783
1.6498 -4.5857 -2.4985 0.9783
2.0514 -4.4207 -2.4985 0.9783
2.4367 -4.2205 -2.4985 0.9783
2.8027 -3.9869 -2.4985 0.9783
3.7564 -3.1047 -2.4984 0.9783
4.4431 -2.0020 -2.4984 0.9783
4.6037 -1.5986 -2.4984 0.9783
4.7277 -1.1825 -2.4984 0.9783
4.8142 -0.7570 -2.4984 0.9783
4.8721 0.1086 -2.4984 0.9783
4.7757 0.9707 -2.4984 0.9783
5.8376 4.4023 -3.7484 0.9677
3.1073 3.3595 -2.3461 0.9796
2.4624 3.8572 -2.3461 0.9796
2.1093 4.0611 -2.3461 0.9796
1.3558 4.3708 -2.3461 0.9796
0.9614 4.4742 -2.3461 0.9796
0.5594 4.5420 -2.3461 0.9796
-0.6605 4.5285 -2.3462 0.9796
-1.0609 4.4517 -2.3462 0.9796
-1.8334 4.1931 -2.3462 0.9796
-3.0629 3.7910 -2.4986 0.9783
-3.6866 3.1879 -2.4986 0.9783
-4.1934 2.4838 -2.4986 0.9783
-4.3978 2.1007 -2.4986 0.9783
-4.5674 1.7009 -2.4986 0.9783
-4.7966 0.8642 -2.4986 0.9783
-2.6714 -0.0000 -1.4261 0.9880
-2.4853 -0.2221 -1.3321 0.9887
-2.4716 -0.4453 -1.3407 0.9887
-2.3944 -1.4182 -1.4856 0.9875
-3.7988 -2.7342 -2.4986 0.9790
-3.5403 -3.0614 -2.4986 0.9790
-3.2538 -3.3644 -2.4986 0.9790
-2.9414 -3.6406 -2.4986 0.9790
-2.6057 -3.8880 -2.4986 0.9790
-1.8750 -4.2883 -2.4986 0.9790
-1.4859 -4.4382 -2.4986 0.9790
-0.6755 -4.6313 -2.4985 0.9790
1.3866 -4.4701 -2.4985 0.9790
1.7790 -4.3289 -2.4985 0.9790
2.5183 -3.9448 -2.4985 0.9790
2.8594 -3.7051 -2.4985 0.9790
3.4710 -3.1393 -2.4984 0.9790
4.1771 -2.1108 -2.4984 0.9790
4.3483 -1.7306 -2.4984 0.9790
4.4851 -1.3367 -2.4984 0.9790
4.6510 -0.5203 -2.4984 0.9790
4.6789 -0.1042 -2.4984 0.9790
4.6233 0.7269 -2.4984 0.9790
4.5402 1.1356 -2.4984 0.9790
4.4211 1.5352 -2.4984 0.9790
5.7888 3.9738 -3.7484 0.9687
2.5274 3.5953 -2.3461 0.9803
1.1138 4.2513 -2.3461 0.9803
0.7310 4.3336 -2.3461 0.9803
0.3424 4.3814 -2.3461 0.9803
-0.0490 4.3945 -2.3461 0.9803
-0.8274 4.3163 -2.3462 0.9803
-1.5796 4.1012 -2.3462 0.9803
-3.1007 3.5060 -2.4986 0.9790
-4.1293 2.2035 -2.4986 0.9790
-4.4546 1.4364 -2.4986 0.9790
-4.5648 1.0342 -2.4986 0.9790
-2.8952 0.1291 -1.5471 0.9869
-2.4621 -0.5579 -1.3477 0.9886
-2.4330 -1.0317 -1.4108 0.9881
-2.4151 -1.2887 -1.4613 0.9877
-3.4004 -3.2161 -2.4986 0.9790
-3.1007 -3.5060 -2.4986 0.9790
-2.0642 -4.2005 -2.4986 0.9790
-1.6821 -4.3676 -2.4986 0.9790
-0.8811 -4.5966 -2.4985 0.9790
-0.4685 -4.6568 -2.4985 0.9790
-0.0521 -4.6799 -2.4985 0.9790
0.3646 -4.6660 -2.4985 0.9790
1.1861 -4.5274 -2.4985 0.9790
1.9700 -4.2453 -2.4985 0.9790
2.3401 -4.0531 -2.4985 0.9790
2.6915 -3.8287 -2.4985 0.9790
3.0216 -3.5740 -2.4985 0.9790
3.3277 -3.2909 -2.4984 0.9790
3.6074 -2.9816 -2.4984 0.9790
4.0789 -2.2947 -2.4984 0.9790
4.2669 -1.9226 -2.4984 0.9790
4.4211 -1.5352 -2.4984 0.9790
4.6233 -0.7270 -2.4984 0.9790
4.6511 0.5203 -2.4984 0.9790
4.3484 1.7306 -2.4984 0.9790
5.2076 4.7099 -3.7484 0.9687
2.9840 3.2263 -2.3461 0.9803
2.0256 3.9001 -2.3461 0.9803
1.3021 4.1974 -2.3461 0.9803
0.9233 4.2967 -2.3461 0.9803
0.5372 4.3619 -2.3461 0.9803
-0.6343 4.3488 -2.3462 0.9803
-1.3953 4.1675 -2.3462 0.9803
-3.3746 6.1579 -3.7486 0.9687
-2.6057 3.8880 -2.4986 0.9790
-3.2538 3.3644 -2.4986 0.9790
-3.5403 3.0614 -2.4986 0.9790
-4.2234 2.0173 -2.4986 0.9790
-4.3862 1.6335 -2.4986 0.9790
-4.6063 0.8298 -2.4986 0.9790
-3.5312 0.3155 -1.8926 0.9841
-2.4347 -0.2176 -1.3576 0.9889
