ply
format ascii 1.0
element vertex 1587
property float32 x
property float32 y
property float32 z
property float32 I
end_header
-7.8893 -11.7717 -2.4987 0.9441
-5.6769 -12.9834 -2.4986 0.9441
-4.4987 -13.4368 -2.4985 0.9441
-2.0449 -14.0208 -2.4984 0.9441
-0.7888 -14.1468 -2.4984 0.9441
0.4734 -14.1606 -2.4983 0.9441
1.7319 -14.0619 -2.4982 0.9441
4.1975 -13.5315 -2.4981 0.9441
5.3851 -13.1039 -2.4981 0.9441
6.5300 -12.5723 -2.4980 0.9441
12.0245 -7.4889 -2.4978 0.9441
13.1617 -5.2382 -2.4978 0.9441
13.8818 -2.8215 -2.4978 0.9441
13.1404 2.0663 -2.3455 0.9474
12.9045 3.2277 -2.3455 0.9474
12.1281 5.4647 -2.3456 0.9474
11.5937 6.5225 -2.3456 0.9474
10.9674 7.5287 -2.3456 0.9474
9.4591 9.3543 -2.3457 0.9474
8.5891 10.1593 -2.3458 0.9474
6.6521 11.5218 -2.3459 0.9474
3.3720 12.8707 -2.3460 0.9474
2.2131 13.1201 -2.3461 0.9474
1.0366 13.2653 -2.3462 0.9474
-0.1482 13.3052 -2.3462 0.9474
-1.3319 13.2396 -2.3463 0.9474
-3.6584 12.7942 -2.3464 0.9474
-4.7827 12.4180 -2.3464 0.9474
-5.8691 11.9433 -2.3465 0.9474
-8.8164 9.9689 -2.3466 0.9474
-9.6688 9.1447 -2.3466 0.9474
-11.1372 7.2857 -2.3467 0.9474
-11.7415 6.2655 -2.3467 0.9474
-13.0486 5.5331 -2.4991 0.9441
-13.4893 4.3498 -2.4991 0.9441
-13.8230 3.1319 -2.4991 0.9441
-14.0468 1.8891 -2.4991 0.9441
-14.1592 0.6314 -2.4991 0.9441
-14.1591 -0.6313 -2.4991 0.9441
-14.0466 -1.8891 -2.4991 0.9441
-13.8226 -3.1318 -2.4991 0.9441
-13.4888 -4.3496 -2.4990 0.9441
-13.0480 -5.5328 -2.4990 0.9441
-12.5036 -6.6721 -2.4990 0.9441
-11.8599 -7.7583 -2.4989 0.9441
-10.2960 -9.7379 -2.4988 0.9441
-9.3882 -10.6154 -2.4988 0.9441
-8.4060 -11.4086 -2.4987 0.9441
-7.3570 -12.1112 -2.4987 0.9441
-6.2497 -12.7177 -2.4986 0.9441
-5.0928 -13.2232 -2.4986 0.9441
-3.8956 -13.6237 -2.4985 0.9441
-0.1581 -14.1679 -2.4983 0.9441
1.1038 -14.1253 -2.4983 0.9441
3.5906 -13.7052 -2.4982 0.9441
4.7961 -13.3309 -2.4981 0.9441
7.0835 -12.2689 -2.4980 0.9441
8.1472 -11.5895 -2.4980 0.9441
9.1463 -10.8182 -2.4979 0.9441
10.0727 -9.9611 -2.4979 0.9441
10.9192 -9.0249 -2.4979 0.9441
12.3461 -6.9458 -2.4978 0.9441
13.9938 -2.2004 -2.4978 0.9441
14.1341 -0.9461 -2.4978 0.9441
13.2193 1.4789 -2.3455 0.9474
13.0354 2.6496 -2.3455 0.9474
12.7479 3.7993 -2.3455 0.9474
12.3594 4.9190 -2.3455 0.9474
11.8727 5.9996 -2.3456 0.9474
11.2917 7.0326 -2.3456 0.9474
10.6212 8.0099 -2.3457 0.9474
9.8663 8.9236 -2.3457 0.9474
8.1281 10.5320 -2.3458 0.9474
1.6264 13.2058 -2.3461 0.9474
-1.9204 13.1672 -2.3463 0.9474
-3.0848 12.9443 -2.3463 0.9474
-6.3954 11.6701 -2.3465 0.9474
-7.4088 11.0548 -2.3465 0.9474
-9.2517 9.5663 -2.3466 0.9474
-10.8015 7.7745 -2.3466 0.9474
-13.2821 4.9464 -2.4991 0.9441
-13.9487 2.5130 -2.4991 0.9441
-14.1170 1.2615 -2.4991 0.9441
-12.8625 -1.1494 -2.4990 0.9487
-12.7091 -2.2896 -2.4990 0.9487
-11.6522 -5.5658 -2.4989 0.9487
-9.7673 -8.4461 -2.4988 0.9488
-7.1884 -10.7258 -2.4987 0.9488
-5.1726 -11.8299 -2.4986 0.9488
-2.9930 -12.5591 -2.4985 0.9488
-1.8632 -12.7753 -2.4984 0.9488
-0.7187 -12.8902 -2.4984 0.9488
2.7121 -12.6213 -2.4982 0.9488
5.9500 -11.4557 -2.4981 0.9488
6.9459 -10.8804 -2.4980 0.9488
8.7647 -9.4762 -2.4980 0.9488
11.5204 -5.8214 -2.4979 0.9488
11.9927 -4.7729 -2.4979 0.9488
11.0509 4.9793 -2.3456 0.9518
10.5640 5.9432 -2.3456 0.9518
9.9932 6.8600 -2.3457 0.9518
9.3432 7.7224 -2.3457 0.9518
8.6189 8.5235 -2.3458 0.9518
6.9714 9.9170 -2.3458 0.9518
3.0724 11.7274 -2.3460 0.9518
2.0165 11.9546 -2.3461 0.9518
0.9445 12.0869 -2.3461 0.9518
-1.2136 12.0633 -2.3462 0.9518
-2.2825 11.9077 -2.3463 0.9518
-3.3333 11.6575 -2.3463 0.9518
-4.3578 11.3148 -2.3464 0.9518
-10.1476 6.6383 -2.3466 0.9518
-11.8892 5.0415 -2.4991 0.9487
-12.5947 2.8536 -2.4991 0.9487
-12.9011 0.5753 -2.4991 0.9487
-12.7985 -1.7212 -2.4990 0.9487
-12.5944 -2.8535 -2.4990 0.9487
-12.2903 -3.9631 -2.4990 0.9487
-11.8887 -5.0412 -2.4990 0.9487
-11.3926 -6.0793 -2.4989 0.9487
-10.8062 -7.0690 -2.4989 0.9487
-10.1339 -8.0026 -2.4989 0.9488
-8.5542 -9.6723 -2.4988 0.9488
-7.6592 -10.3951 -2.4987 0.9488
-6.7034 -11.0353 -2.4987 0.9488
-3.5495 -12.4134 -2.4985 0.9488
-2.4305 -12.6798 -2.4984 0.9488
-0.1438 -12.9093 -2.4983 0.9488
2.1472 -12.7297 -2.4982 0.9488
3.2717 -12.4878 -2.4982 0.9488
5.4338 -11.7094 -2.4981 0.9488
6.4543 -11.1792 -2.4981 0.9488
7.4236 -10.5601 -2.4980 0.9488
9.9494 -8.2234 -2.4979 0.9488
10.6417 -7.3051 -2.4979 0.9488
11.2496 -6.3289 -2.4979 0.9488
12.1934 -4.2340 -2.4979 0.9488
12.8788 -0.8621 -2.4979 0.9488
12.9045 0.2876 -2.4979 0.9488
11.6157 3.4619 -2.3456 0.9518
10.8182 5.4667 -2.3456 0.9518
9.6778 7.2984 -2.3457 0.9518
8.9900 8.1310 -2.3457 0.9518
6.5228 10.2178 -2.3459 0.9518
3.5918 11.5787 -2.3460 0.9518
-1.7498 11.9974 -2.3463 0.9518
-2.8107 11.7943 -2.3463 0.9518
-3.8494 11.4976 -2.3464 0.9518
-6.7505 10.0726 -2.3465 0.9518
-7.6204 9.4319 -2.3465 0.9518
-8.4297 8.7163 -2.3465 0.9518
-9.1722 7.9315 -2.3466 0.9518
-9.8418 7.0837 -2.3466 0.9518
-10.4333 6.1797 -2.3466 0.9518
-11.6527 5.5661 -2.4991 0.9487
-12.7093 2.2897 -2.4991 0.9487
-12.8627 1.1495 -2.4991 0.9487
-11.8067 -1.0550 -2.4990 0.9527
-11.4324 -3.1316 -2.4990 0.9527
-9.6202 -6.9241 -2.4988 0.9527
-8.9656 -7.7528 -2.4988 0.9527
-8.2398 -8.5199 -2.4988 0.9527
-7.4487 -9.2193 -2.4987 0.9527
-6.5984 -9.8454 -2.4987 0.9527
-5.6958 -10.3935 -2.4986 0.9527
-3.7626 -11.2383 -2.4985 0.9527
-2.7473 -11.5284 -2.4985 0.9527
-0.6598 -11.8323 -2.4984 0.9527
0.3960 -11.8439 -2.4983 0.9527
3.5108 -11.3178 -2.4982 0.9527
4.5042 -10.9602 -2.4981 0.9527
5.4617 -10.5157 -2.4981 0.9527
6.3759 -9.9876 -2.4981 0.9527
10.0576 -6.2638 -2.4979 0.9527
10.5751 -5.3438 -2.4979 0.9527
11.0087 -4.3813 -2.4979 0.9527
11.3550 -3.3841 -2.4979 0.9527
11.6111 -2.3600 -2.4979 0.9527
10.7936 2.6997 -2.3456 0.9555
10.5105 3.6497 -2.3456 0.9555
9.6971 5.4555 -2.3457 0.9555
9.1732 6.2971 -2.3457 0.9555
5.9558 4.9226 -1.6290 0.9689
6.3993 9.1031 -2.3459 0.9555
5.5638 9.6368 -2.3459 0.9555
4.6841 10.0939 -2.3460 0.9555
1.8510 10.9734 -2.3461 0.9555
0.8670 11.0949 -2.3461 0.9555
-1.1140 11.0732 -2.3462 0.9555
-2.0952 10.9304 -2.3463 0.9555
-4.0001 10.3861 -2.3464 0.9555
-4.9087 9.9890 -2.3464 0.9555
-7.3736 8.3375 -2.3465 0.9555
-8.0865 7.6482 -2.3465 0.9555
-8.7352 6.8982 -2.3465 0.9555
-10.0477 5.3617 -2.4010 0.9545
-11.5608 2.6194 -2.4990 0.9527
-11.2815 -3.6378 -2.4989 0.9527
-8.6112 -8.1444 -2.4988 0.9527
-7.0305 -9.5419 -2.4987 0.9527
-6.1532 -10.1295 -2.4986 0.9527
-5.2271 -10.6368 -2.4986 0.9527
-4.2595 -11.0596 -2.4985 0.9527
-2.2310 -11.6391 -2.4984 0.9527
-1.1862 -11.7913 -2.4984 0.9527
-0.1320 -11.8499 -2.4983 0.9527
1.9710 -11.6851 -2.4983 0.9527
4.0115 -11.1501 -2.4982 0.9527
4.9879 -10.7486 -2.4981 0.9527
8.4250 -8.3316 -2.4980 0.9527
9.7686 -6.7057 -2.4979 0.9527
11.4944 -2.8749 -2.4979 0.9527
11.7047 -1.8404 -2.4979 0.9527
11.8457 0.2640 -2.4979 0.9527
10.6626 3.1778 -2.3456 0.9555
10.3376 4.1143 -2.3456 0.9555
9.4446 5.8822 -2.3457 0.9555
8.8837 6.6996 -2.3457 0.9555
5.1290 9.8752 -2.3459 0.9555
4.2298 10.2927 -2.3460 0.9555
3.2970 10.6285 -2.3460 0.9555
2.3380 10.8800 -2.3461 0.9555
1.3603 11.0451 -2.3461 0.9555
0.3719 11.1226 -2.3462 0.9555
-0.6196 11.1118 -2.3462 0.9555
-1.6061 11.0127 -2.3463 0.9555
-2.5800 10.8263 -2.3463 0.9555
-6.9948 8.6577 -2.3465 0.9555
-9.5769 5.6724 -2.3466 0.9555
-10.6962 5.1092 -2.4990 0.9527
-11.4327 3.1318 -2.4990 0.9527
-11.8068 1.0551 -2.4990 0.9527
-10.9487 0.0000 -2.4990 0.9561
-10.9052 -0.9745 -2.4990 0.9561
-10.7751 -1.9412 -2.4989 0.9561
-10.5595 -2.8925 -2.4989 0.9561
-10.2600 -3.8208 -2.4989 0.9561
-9.8791 -4.7188 -2.4989 0.9561
-9.4198 -5.5793 -2.4988 0.9561
-7.6107 -7.8694 -2.4987 0.9561
-6.0947 -9.0938 -2.4987 0.9561
-5.2610 -9.6001 -2.4986 0.9561
-4.3856 -10.0300 -2.4986 0.9561
-0.6094 -10.9291 -2.4984 0.9561
2.2996 -10.7013 -2.4982 0.9561
3.2428 -10.4539 -2.4982 0.9561
5.8893 -9.2253 -2.4981 0.9561
7.4315 -8.0347 -2.4980 0.9561
9.7680 -4.9360 -2.4980 0.9561
10.8764 -1.2167 -2.4979 0.9561
9.9698 2.4936 -2.3456 0.9587
9.7083 3.3711 -2.3456 0.9587
8.9570 5.0392 -2.3457 0.9587
8.4731 5.8165 -2.3457 0.9587
7.3078 7.2268 -2.3458 0.9587
5.9108 8.4083 -2.3459 0.9587
4.3265 9.3234 -2.3460 0.9587
3.4796 9.6717 -2.3460 0.9587
2.6050 9.9431 -2.3460 0.9587
-0.1145 10.2787 -2.3462 0.9587
-1.0289 10.2279 -2.3462 0.9587
-2.8261 9.8837 -2.3463 0.9587
-5.3372 8.7863 -2.3464 0.9587
-7.4691 7.0643 -2.3465 0.9587
-8.6034 5.6281 -2.3465 0.9587
-10.0799 4.2743 -2.4990 0.9561
-10.4204 3.3602 -2.4990 0.9561
-10.9379 0.4878 -2.4990 0.9561
-10.9378 -0.4877 -2.4990 0.9561
-10.8509 -1.4593 -2.4990 0.9561
-7.2526 -8.2005 -2.4987 0.9561
-6.4938 -8.8134 -2.4987 0.9561
-5.6835 -9.3562 -2.4986 0.9561
-3.9344 -10.2153 -2.4985 0.9561
-2.0607 -10.7506 -2.4984 0.9561
-1.0957 -10.8912 -2.4984 0.9561
0.8527 -10.9125 -2.4983 0.9561
1.8206 -10.7931 -2.4983 0.9561
2.7740 -10.5880 -2.4982 0.9561
3.7053 -10.2990 -2.4982 0.9561
4.6072 -9.9282 -2.4981 0.9561
8.4360 -6.9725 -2.4980 0.9561
9.0230 -6.1939 -2.4980 0.9561
10.6172 -2.6555 -2.4979 0.9561
10.9198 -0.7309 -2.4980 0.9561
10.0709 2.0471 -2.3456 0.9587
9.5486 3.8003 -2.3457 0.9587
8.7237 5.4332 -2.3457 0.9587
8.2056 6.1882 -2.3457 0.9587
5.6561 5.1156 -1.7407 0.9692
5.5304 8.6633 -2.3459 0.9587
4.7375 9.1214 -2.3459 0.9587
1.2565 10.2020 -2.3461 0.9587
-1.4835 10.1720 -2.3462 0.9587
-2.3830 9.9997 -2.3463 0.9587
-4.9405 9.0153 -2.3464 0.9587
-6.4608 7.9967 -2.3464 0.9587
-8.3441 6.0058 -2.3465 0.9587
-8.8456 5.2393 -2.3465 0.9587
-9.8795 4.7191 -2.4990 0.9561
-10.5597 2.8927 -2.4990 0.9561
-10.9053 0.9746 -2.4990 0.9561
-10.1665 0.0000 -2.4989 0.9590
-10.1261 -0.9048 -2.4989 0.9590
-10.0054 -1.8025 -2.4989 0.9590
-9.1734 -4.3818 -2.4988 0.9590
-8.7469 -5.1808 -2.4988 0.9590
-7.6895 -6.6494 -2.4988 0.9590
-6.3885 -7.9071 -2.4987 0.9590
-4.8852 -8.9143 -2.4986 0.9590
-4.0723 -9.3136 -2.4986 0.9590
-3.2271 -9.6389 -2.4985 0.9590
-0.5659 -10.1485 -2.4984 0.9590
0.3396 -10.1585 -2.4983 0.9590
1.2424 -10.0877 -2.4983 0.9590
2.1353 -9.9369 -2.4983 0.9590
3.8633 -9.4006 -2.4982 0.9590
4.6846 -9.0193 -2.4982 0.9590
6.2094 -8.0457 -2.4981 0.9590
6.9007 -7.4610 -2.4981 0.9590
9.0704 -4.5835 -2.4980 0.9590
9.7393 -2.9026 -2.4980 0.9590
10.1602 -0.2264 -2.4980 0.9590
10.1401 0.6789 -2.4980 0.9590
9.2578 2.3156 -2.3457 0.9615
7.8679 5.4011 -2.3458 0.9615
6.1617 7.2881 -2.3459 0.9615
5.4887 7.8078 -2.3459 0.9615
4.7720 8.2654 -2.3459 0.9615
4.0175 8.6575 -2.3460 0.9614
0.7436 9.5159 -2.3461 0.9614
-0.1063 9.5445 -2.3462 0.9614
-0.9554 9.4973 -2.3462 0.9614
-1.7970 9.3747 -2.3462 0.9614
-2.6243 9.1777 -2.3463 0.9614
-6.3241 7.1508 -2.3464 0.9614
-7.4919 5.9163 -2.3465 0.9614
-7.9888 5.2261 -2.3465 0.9614
-9.6760 3.1201 -2.4989 0.9590
-9.9153 2.2465 -2.4989 0.9590
-10.0759 1.3551 -2.4989 0.9590
-10.1565 0.4529 -2.4989 0.9590
-10.1564 -0.4529 -2.4989 0.9590
-9.6757 -3.1200 -2.4989 0.9590
-9.3595 -3.9688 -2.4989 0.9590
-8.9691 -4.7860 -2.4988 0.9590
-8.5074 -5.5653 -2.4988 0.9590
-7.9782 -6.3003 -2.4988 0.9590
-7.3856 -6.9853 -2.4987 0.9590
-6.7345 -7.6148 -2.4987 0.9590
-6.0299 -8.1838 -2.4987 0.9590
-3.6533 -9.4857 -2.4985 0.9590
-2.7945 -9.7730 -2.4985 0.9590
-1.9135 -9.9828 -2.4985 0.9590
-0.1132 -10.1635 -2.4984 0.9590
2.5758 -9.8319 -2.4982 0.9590
4.2781 -9.2192 -2.4982 0.9590
5.8448 -8.3143 -2.4981 0.9590
6.5616 -7.7610 -2.4981 0.9590
7.8335 -6.4745 -2.4980 0.9590
8.3787 -5.7516 -2.4980 0.9590
8.8573 -4.9829 -2.4980 0.9590
10.1400 -0.6787 -2.4980 0.9590
10.1602 0.2265 -2.4980 0.9590
10.0998 1.1299 -2.4980 0.9590
9.1455 2.7257 -2.3457 0.9615
8.8667 3.5289 -2.3457 0.9615
7.6196 5.7463 -2.3458 0.9615
6.4802 7.0064 -2.3458 0.9615
5.8310 7.5555 -2.3459 0.9615
4.3992 8.4699 -2.3459 0.9614
3.6279 8.8280 -2.3460 0.9614
2.8278 9.1160 -2.3460 0.9614
2.0052 9.3317 -2.3461 0.9614
-0.5314 9.5304 -2.3462 0.9614
-2.2128 9.2854 -2.3463 0.9614
-3.0305 9.0518 -2.3463 0.9614
-3.8242 8.7462 -2.3463 0.9614
-4.5876 8.3713 -2.3464 0.9614
-7.2209 6.2442 -2.3465 0.9614
-7.7481 5.5767 -2.3465 0.9614
-8.5981 5.0927 -2.4563 0.9597
-9.5274 3.5481 -2.4989 0.9590
-10.0055 1.8026 -2.4989 0.9590
-9.3331 -1.6814 -2.4989 0.9615
-8.8870 -3.3095 -2.4988 0.9615
-8.5571 -4.0873 -2.4988 0.9615
-7.6966 -5.5397 -2.4988 0.9615
-2.1981 -9.2235 -2.4985 0.9615
-0.5279 -9.4668 -2.4984 0.9615
4.3699 -8.4136 -2.4982 0.9615
5.7923 -7.5053 -2.4981 0.9615
7.0311 -6.3592 -2.4981 0.9615
8.0471 -5.0117 -2.4980 0.9615
8.4612 -4.2756 -2.4980 0.9615
9.0852 -2.7076 -2.4980 0.9615
9.2902 -1.8883 -2.4980 0.9615
9.4778 -0.2112 -2.4980 0.9615
9.4590 0.6332 -2.4980 0.9615
14.0506 2.2093 -3.7478 0.9429
7.7587 4.3650 -2.3458 0.9638
7.3395 5.0383 -2.3458 0.9638
5.8412 4.8279 -1.9968 0.9691
6.3301 6.2600 -2.3458 0.9638
3.0140 8.3777 -2.3460 0.9638
1.4809 8.7796 -2.3461 0.9638
0.6936 8.8767 -2.3461 0.9638
-2.4480 8.5612 -2.3463 0.9638
-3.9272 7.9917 -2.3463 0.9638
-4.6230 7.6105 -2.3464 0.9638
-6.4696 6.1189 -2.3464 0.9638
-6.9886 5.5189 -2.3464 0.9638
-7.5156 4.9166 -2.3665 0.9635
-9.2491 2.0956 -2.4989 0.9615
-9.3989 1.2641 -2.4989 0.9615
-9.4741 0.4225 -2.4989 0.9615
-9.4741 -0.4224 -2.4989 0.9615
-9.3988 -1.2640 -2.4989 0.9615
-9.2489 -2.0955 -2.4989 0.9615
-9.0257 -2.9104 -2.4989 0.9615
-8.7307 -3.7021 -2.4988 0.9615
-7.4422 -5.8770 -2.4987 0.9615
-6.2821 -7.1032 -2.4987 0.9615
-4.1820 -8.5102 -2.4986 0.9615
-3.4079 -8.8485 -2.4985 0.9615
-1.7850 -9.3122 -2.4985 0.9615
-0.9491 -9.4340 -2.4984 0.9615
-0.1056 -9.4808 -2.4984 0.9615
1.5770 -9.3491 -2.4983 0.9615
2.4028 -9.1715 -2.4983 0.9615
3.9908 -8.5999 -2.4982 0.9615
5.4523 -7.7559 -2.4981 0.9615
6.7409 -6.6662 -2.4981 0.9615
7.3074 -6.0397 -2.4981 0.9615
8.2624 -4.6483 -2.4980 0.9615
8.6433 -3.8944 -2.4980 0.9615
8.9556 -3.1097 -2.4980 0.9615
9.1968 -2.3002 -2.4980 0.9615
13.9383 2.8331 -3.7478 0.9429
8.5312 2.5426 -2.3457 0.9638
8.2712 3.2919 -2.3457 0.9638
7.5566 4.7064 -2.3458 0.9638
5.6157 5.0791 -1.9952 0.9692
6.0450 6.5358 -2.3459 0.9638
4.1036 7.9010 -2.3460 0.9638
3.3842 8.2349 -2.3460 0.9638
1.0884 8.8369 -2.3461 0.9638
-1.2850 8.8109 -2.3462 0.9638
-4.2793 7.8089 -2.3463 0.9638
-4.9574 7.3971 -2.3464 0.9638
-5.5962 6.9266 -2.3464 0.9638
-6.1905 6.4010 -2.3464 0.9638
-7.2275 5.2021 -2.3465 0.9638
-8.5574 4.0876 -2.4989 0.9615
-9.1466 2.5055 -2.4989 0.9615
-9.3333 1.6815 -2.4989 0.9615
-3.9277 -0.3510 -1.1095 0.9837
-3.7284 -0.6717 -1.0659 0.9844
-7.6414 -4.5260 -2.4988 0.9638
-7.2081 -5.1881 -2.4987 0.9638
-6.7177 -5.8090 -2.4987 0.9638
-5.5811 -6.9078 -2.4987 0.9638
-4.9441 -7.3770 -2.4986 0.9638
-3.5577 -8.1365 -2.4985 0.9638
-1.2815 -8.7870 -2.4984 0.9638
-0.4944 -8.8660 -2.4984 0.9638
0.2967 -8.8747 -2.4984 0.9638
1.0854 -8.8129 -2.4983 0.9638
2.6307 -8.4806 -2.4983 0.9638
3.3751 -8.2127 -2.4982 0.9638
4.7777 -7.4840 -2.4982 0.9638
6.0288 -6.5182 -2.4981 0.9638
6.5850 -5.9557 -2.4981 0.9638
7.0889 -5.3459 -2.4981 0.9638
8.8764 -0.1977 -2.4981 0.9638
8.7709 1.3792 -2.4981 0.9638
12.9227 3.2322 -3.7479 0.9462
7.8759 2.7348 -2.3457 0.9659
7.6013 3.4250 -2.3457 0.9659
7.2664 4.0880 -2.3458 0.9659
5.3831 6.3672 -2.3459 0.9659
4.7951 6.8211 -2.3459 0.9659
3.5098 7.5635 -2.3460 0.9659
2.8227 7.8460 -2.3460 0.9659
2.1132 8.0662 -2.3461 0.9659
0.6496 8.3133 -2.3461 0.9659
-2.2926 8.0178 -2.3463 0.9659
-3.6780 7.4845 -2.3463 0.9659
-6.5450 5.1686 -2.3464 0.9659
-7.4324 4.8621 -2.4989 0.9638
-7.8357 4.1813 -2.4989 0.9638
-8.1768 3.4673 -2.4989 0.9638
-8.4530 2.7258 -2.4989 0.9638
-8.6620 1.9626 -2.4989 0.9638
-8.8023 1.1838 -2.4989 0.9638
-8.8727 0.3957 -2.4989 0.9638
-8.1766 -3.4671 -2.4988 0.9638
-7.8354 -4.1811 -2.4988 0.9638
-6.4522 -6.1024 -2.4987 0.9638
-4.6105 -7.5899 -2.4986 0.9638
-3.1916 -8.2869 -2.4985 0.9638
-0.8888 -8.8353 -2.4984 0.9638
1.4769 -8.7558 -2.4983 0.9638
2.2503 -8.5895 -2.4983 0.9638
3.7376 -8.0542 -2.4982 0.9638
4.4395 -7.6895 -2.4982 0.9638
6.3131 -6.2432 -2.4981 0.9638
8.3873 -2.9124 -2.4980 0.9638
8.6133 -2.1543 -2.4980 0.9638
8.7708 -1.3791 -2.4980 0.9638
8.8588 -0.5930 -2.4980 0.9638
8.8764 0.1979 -2.4981 0.9638
8.8236 0.9871 -2.4981 0.9638
13.0538 2.6533 -3.7479 0.9462
7.9899 2.3813 -2.3457 0.9659
7.4412 3.7603 -2.3458 0.9659
7.0771 4.4077 -2.3458 0.9659
5.6614 6.1210 -2.3459 0.9659
4.4865 7.0280 -2.3459 0.9659
3.8432 7.3996 -2.3460 0.9659
1.0193 8.2761 -2.3461 0.9659
0.2786 8.3341 -2.3461 0.9659
-1.2035 8.2517 -2.3462 0.9659
-2.6475 7.9078 -2.3463 0.9659
-3.3409 7.6408 -2.3463 0.9659
-4.0077 7.3132 -2.3463 0.9659
-4.6428 6.9276 -2.3464 0.9659
-5.2410 6.4869 -2.3464 0.9659
-5.7976 5.9947 -2.3464 0.9659
-6.7687 4.8719 -2.3464 0.9659
-7.6417 4.5262 -2.4989 0.9638
-8.3231 3.0996 -2.4989 0.9638
-8.7408 1.5748 -2.4989 0.9638
-3.9677 0.0000 -1.1878 0.9836
-7.5314 -3.5974 -2.4988 0.9658
-6.3133 -5.4592 -2.4987 0.9658
-5.8022 -5.9994 -2.4987 0.9658
-4.6464 -6.9329 -2.4986 0.9658
-3.3435 -7.6467 -2.4985 0.9658
-2.6496 -7.9138 -2.4985 0.9658
-1.9346 -8.1181 -2.4985 0.9658
0.2789 -8.3404 -2.4984 0.9658
1.7532 -8.1586 -2.4983 0.9658
2.4724 -7.9701 -2.4983 0.9658
3.8462 -7.4053 -2.4982 0.9658
4.4900 -7.0335 -2.4982 0.9658
5.0982 -6.6059 -2.4982 0.9658
5.6659 -6.1258 -2.4981 0.9658
6.1886 -5.5972 -2.4981 0.9658
7.0829 -4.4112 -2.4981 0.9658
7.4473 -3.7633 -2.4981 0.9658
7.9966 -2.3832 -2.4981 0.9658
8.3255 0.5574 -2.4981 0.9658
8.2429 1.2962 -2.4981 0.9658
12.1449 3.0376 -3.7479 0.9491
7.4018 2.5702 -2.3457 0.9678
7.1437 3.2188 -2.3458 0.9678
6.8290 3.8420 -2.3458 0.9678
5.5715 5.5098 -2.3459 0.9678
3.2985 7.1081 -2.3460 0.9678
1.9860 7.5806 -2.3461 0.9678
0.6105 7.8128 -2.3461 0.9678
-0.7844 7.7975 -2.3462 0.9678
-3.4565 7.0338 -2.3463 0.9678
-4.6489 6.3096 -2.3463 0.9678
-5.1921 5.8709 -2.3464 0.9678
-6.1509 4.8573 -2.3464 0.9678
-6.9849 4.5694 -2.4988 0.9657
-8.2723 1.1126 -2.4989 0.9657
-3.6646 -0.1634 -1.0982 0.9848
-3.4642 -0.7849 -1.0634 0.9853
-7.9438 -2.5615 -2.4988 0.9657
-7.6842 -3.2584 -2.4988 0.9658
-7.3636 -3.9293 -2.4988 0.9658
-6.5502 -5.1726 -2.4987 0.9658
-5.5291 -6.2518 -2.4987 0.9658
-3.6808 -7.4902 -2.4986 0.9658
-2.9995 -7.7879 -2.4985 0.9658
-2.2944 -8.0239 -2.4985 0.9658
-0.0930 -8.3446 -2.4984 0.9658
1.3880 -8.2287 -2.4983 0.9658
2.8249 -7.8520 -2.4983 0.9658
3.5126 -7.5693 -2.4982 0.9658
4.1723 -7.2265 -2.4982 0.9658
4.7989 -6.8265 -2.4982 0.9658
5.9331 -5.8673 -2.4981 0.9658
6.8793 -4.7223 -2.4981 0.9658
7.6076 -3.4278 -2.4981 0.9658
7.8825 -2.7371 -2.4981 0.9658
8.2429 -1.2961 -2.4981 0.9658
8.3255 -0.5573 -2.4981 0.9658
8.2925 0.9277 -2.4981 0.9658
7.2800 2.8974 -2.3458 0.9678
6.9933 3.5339 -2.3458 0.9678
6.2560 4.7179 -2.3458 0.9678
5.5753 5.0425 -2.2505 0.9691
5.3205 5.7525 -2.3459 0.9678
2.9786 7.2481 -2.3460 0.9678
1.6464 7.6616 -2.3461 0.9678
0.9579 7.7778 -2.3461 0.9678
0.2619 7.8323 -2.3461 0.9678
-0.4363 7.8246 -2.3462 0.9678
-1.1310 7.7549 -2.3462 0.9678
-1.8168 7.6235 -2.3462 0.9678
-2.4881 7.4316 -2.3463 0.9678
-3.1397 7.1808 -2.3463 0.9678
-4.3632 6.5104 -2.3463 0.9678
-6.5836 4.7387 -2.4285 0.9667
-7.8220 2.9130 -2.4989 0.9657
-8.0502 2.2052 -2.4989 0.9657
-8.2145 1.4800 -2.4989 0.9657
-3.7563 0.0000 -1.1929 0.9844
-3.2843 -0.5917 -1.0598 0.9861
-3.2540 -0.8914 -1.0715 0.9859
-7.3734 -2.7458 -2.4988 0.9675
-7.0997 -3.3912 -2.4988 0.9675
-6.7696 -4.0096 -2.4987 0.9675
-6.3858 -4.5961 -2.4987 0.9675
-5.4696 -5.6554 -2.4987 0.9675
-1.8237 -7.6527 -2.4985 0.9675
-1.1354 -7.7846 -2.4984 0.9675
-0.4380 -7.8546 -2.4984 0.9675
0.2629 -7.8624 -2.4984 0.9675
0.9616 -7.8076 -2.4983 0.9675
2.3307 -7.5133 -2.4983 0.9675
2.9901 -7.2759 -2.4983 0.9675
3.6258 -6.9809 -2.4982 0.9675
4.2327 -6.6304 -2.4982 0.9675
4.8060 -6.2273 -2.4982 0.9675
5.3411 -5.7747 -2.4982 0.9675
5.8339 -5.2764 -2.4981 0.9675
7.3084 -2.9086 -2.4981 0.9675
7.5382 -2.2466 -2.4981 0.9675
7.8640 -0.1752 -2.4981 0.9675
7.8484 0.5254 -2.4981 0.9675
11.1485 3.8712 -3.7480 0.9517
6.7343 3.0344 -2.3458 0.9695
6.4376 3.6217 -2.3458 0.9695
5.2521 5.1940 -2.3459 0.9695
4.7691 5.6409 -2.3459 0.9695
3.6934 6.3972 -2.3460 0.9695
3.1094 6.7007 -2.3460 0.9695
2.5007 6.9509 -2.3460 0.9695
1.8722 7.1461 -2.3461 0.9695
0.5755 7.3650 -2.3461 0.9695
-2.0311 7.1031 -2.3462 0.9695
-3.2583 6.6306 -2.3463 0.9695
-4.3824 5.9479 -2.3463 0.9695
-5.3677 5.0768 -2.3464 0.9695
-5.8494 4.6193 -2.3671 0.9692
-6.5845 4.3074 -2.4988 0.9675
-7.6738 1.7387 -2.4988 0.9675
-7.7980 1.0488 -2.4988 0.9675
-4.3818 0.1954 -1.3930 0.9818
-3.2591 -0.7384 -1.0613 0.9861
-3.2827 -1.0585 -1.0954 0.9856
-7.2437 -3.0716 -2.4988 0.9675
-6.1747 -4.8761 -2.4987 0.9675
-5.7161 -5.4062 -2.4987 0.9675
-4.6669 -6.3339 -2.4986 0.9675
-4.0845 -6.7240 -2.4986 0.9675
-0.7874 -7.8274 -2.4984 0.9675
-0.0876 -7.8663 -2.4984 0.9675
0.6129 -7.8428 -2.4984 0.9675
1.3085 -7.7570 -2.4983 0.9675
3.3112 -7.1355 -2.4982 0.9675
3.9331 -6.8124 -2.4982 0.9675
4.5238 -6.4352 -2.4982 0.9675
5.5931 -5.5310 -2.4981 0.9675
6.0631 -5.0113 -2.4981 0.9675
6.4851 -4.4517 -2.4981 0.9675
7.6308 -1.9086 -2.4981 0.9675
7.7704 -1.2218 -2.4981 0.9675
7.8640 0.1753 -2.4981 0.9675
7.8172 0.8745 -2.4981 0.9675
7.7084 1.5668 -2.4981 0.9675
11.3098 3.3707 -3.7480 0.9517
6.5925 3.3314 -2.3458 0.9695
5.8975 4.4476 -2.3458 0.9695
5.0156 5.4229 -2.3459 0.9695
4.5131 5.8478 -2.3459 0.9695
3.4048 6.5555 -2.3460 0.9695
2.8079 6.8326 -2.3460 0.9695
2.1886 7.0555 -2.3460 0.9695
1.5520 7.2224 -2.3461 0.9695
0.9030 7.3320 -2.3461 0.9695
0.2469 7.3833 -2.3461 0.9695
-1.0662 7.3103 -2.3462 0.9695
-1.7126 7.1865 -2.3462 0.9695
-3.5505 6.4789 -2.3463 0.9695
-4.1131 6.1372 -2.3463 0.9695
-4.6431 5.7468 -2.3463 0.9695
-5.1362 5.3108 -2.3464 0.9695
-6.3860 4.5964 -2.4988 0.9675
-6.7698 4.0098 -2.4988 0.9675
-7.0999 3.3914 -2.4988 0.9675
-7.5887 2.0788 -2.4988 0.9675
-7.8370 0.7004 -2.4988 0.9675
-3.6184 0.0000 -1.2157 0.9848
-3.2019 -0.2861 -1.0801 0.9865
-3.1349 -0.8587 -1.0921 0.9864
-6.9696 -2.5954 -2.4988 0.9691
-6.7109 -3.2055 -2.4987 0.9691
-6.3989 -3.7900 -2.4987 0.9691
-5.6254 -4.8644 -2.4987 0.9691
-5.1700 -5.3457 -2.4986 0.9691
-4.6737 -5.7846 -2.4986 0.9691
-4.1402 -6.1776 -2.4986 0.9691
-1.0732 -7.3583 -2.4984 0.9691
-0.4140 -7.4245 -2.4984 0.9691
0.9090 -7.3802 -2.4983 0.9691
1.5622 -7.2698 -2.4983 0.9691
3.4273 -6.5986 -2.4982 0.9691
4.5429 -5.8863 -2.4982 0.9691
6.6361 -3.3533 -2.4981 0.9691
7.1255 -2.1236 -2.4981 0.9691
7.2863 -1.4809 -2.4981 0.9691
7.4187 0.4966 -2.4981 0.9691
10.5381 3.6592 -3.7480 0.9540
6.3656 2.8682 -2.3458 0.9710
5.7563 3.9515 -2.3458 0.9710
5.3818 4.4482 -2.3459 0.9710
4.0155 5.7122 -2.3459 0.9710
2.9392 6.3338 -2.3460 0.9710
2.3638 6.5703 -2.3460 0.9710
1.7697 6.7547 -2.3461 0.9710
0.5440 6.9616 -2.3461 0.9710
-1.3146 6.8583 -2.3462 0.9710
-1.9198 6.7141 -2.3462 0.9710
-3.0799 6.2675 -2.3463 0.9710
-3.6256 5.9685 -2.3463 0.9710
-4.1424 5.6222 -2.3463 0.9710
-5.8121 4.5898 -2.4882 0.9692
-6.5616 3.5014 -2.4988 0.9691
-7.0784 2.2826 -2.4988 0.9691
-7.3710 0.9913 -2.4988 0.9691
-4.1559 0.1853 -1.3977 0.9826
-3.1639 -0.4255 -1.0726 0.9866
-3.1355 -0.7104 -1.0802 0.9865
-3.1418 -1.0131 -1.1091 0.9862
-6.8470 -2.9033 -2.4988 0.9691
-6.5614 -3.5012 -2.4987 0.9691
-6.2236 -4.0713 -2.4987 0.9691
-5.4031 -5.1101 -2.4987 0.9691
-2.6727 -6.9395 -2.4985 0.9691
-1.3999 -7.3033 -2.4985 0.9691
-0.7443 -7.3988 -2.4984 0.9691
-0.0828 -7.4356 -2.4984 0.9691
1.8845 -7.1930 -2.4983 0.9691
2.5172 -6.9967 -2.4983 0.9691
3.1299 -6.7448 -2.4983 0.9691
3.7178 -6.4394 -2.4982 0.9691
4.8006 -5.6781 -2.4982 0.9691
5.7312 -4.7369 -2.4982 0.9691
6.1300 -4.2080 -2.4981 0.9691
6.4802 -3.6457 -2.4981 0.9691
7.0239 -2.4389 -2.4981 0.9691
7.2131 -1.8041 -2.4981 0.9691
7.4187 -0.4966 -2.4981 0.9691
7.4334 0.1657 -2.4981 0.9691
7.3892 0.8267 -2.4981 0.9691
7.2864 1.4811 -2.4981 0.9691
10.6907 3.1862 -3.7480 0.9540
10.3647 4.1251 -3.7480 0.9540
5.5746 4.2040 -2.3458 0.9710
5.1783 4.6836 -2.3459 0.9710
3.7571 5.8854 -2.3460 0.9710
2.0688 6.6692 -2.3460 0.9710
0.2333 6.9790 -2.3461 0.9710
-0.3888 6.9722 -2.3462 0.9710
-1.6188 6.7930 -2.3462 0.9710
-2.2170 6.6220 -2.3462 0.9710
-2.7976 6.3984 -2.3463 0.9710
-3.3561 6.1241 -2.3463 0.9710
-4.3888 5.4321 -2.3463 0.9710
-4.8549 5.0200 -2.3463 0.9710
-6.0363 4.3447 -2.4988 0.9691
-6.7110 3.2056 -2.4988 0.9691
-3.4902 0.0000 -1.2376 0.9853
-3.0442 -0.5484 -1.0968 0.9870
-6.3587 -3.0373 -2.4987 0.9705
-6.0631 -3.5911 -2.4987 0.9705
-4.8988 -5.0652 -2.4986 0.9705
-4.4284 -5.4811 -2.4986 0.9705
-3.3864 -6.1793 -2.4986 0.9705
-2.8229 -6.4561 -2.4985 0.9705
-0.3923 -7.0350 -2.4984 0.9705
0.2354 -7.0419 -2.4984 0.9705
0.8613 -6.9929 -2.4984 0.9705
2.0875 -6.7293 -2.4983 0.9705
2.6781 -6.5167 -2.4983 0.9705
3.7911 -5.9385 -2.4982 0.9705
5.2252 -4.7258 -2.4982 0.9705
5.9803 -3.7245 -2.4981 0.9705
6.2880 -3.1774 -2.4981 0.9705
6.5458 -2.6051 -2.4981 0.9705
6.7517 -2.0122 -2.4981 0.9705
6.9040 -1.4033 -2.4981 0.9705
7.0015 -0.7832 -2.4981 0.9705
7.0435 -0.1569 -2.4981 0.9705
7.0295 0.4706 -2.4981 0.9705
9.9853 3.4673 -3.7480 0.9561
5.7659 3.2439 -2.3458 0.9723
5.4543 3.7442 -2.3459 0.9723
5.0994 4.2148 -2.3459 0.9723
4.7041 4.6521 -2.3459 0.9723
4.2714 5.0523 -2.3459 0.9723
3.8048 5.4125 -2.3459 0.9723
3.3080 5.7297 -2.3460 0.9723
1.1005 6.5243 -2.3461 0.9723
0.5154 6.5964 -2.3461 0.9723
-2.3781 6.1747 -2.3462 0.9723
-3.4353 5.6554 -2.3463 0.9723
-4.3837 4.9568 -2.3463 0.9723
-4.8075 4.5470 -2.3463 0.9723
-5.5305 4.3674 -2.4988 0.9705
-5.8973 3.8579 -2.4988 0.9705
-6.2173 3.3177 -2.4988 0.9705
-6.4879 2.7512 -2.4988 0.9705
-6.7070 2.1628 -2.4988 0.9705
-6.8729 1.5572 -2.4988 0.9705
-3.0241 -0.6852 -1.0995 0.9869
-5.8971 -3.8577 -2.4987 0.9705
-5.5303 -4.3671 -2.4987 0.9705
-3.1077 -6.3240 -2.4985 0.9705
-0.7053 -7.0106 -2.4984 0.9705
-0.0785 -7.0455 -2.4984 0.9705
0.5489 -7.0244 -2.4984 0.9705
2.3852 -6.6296 -2.4983 0.9705
3.5228 -6.1015 -2.4982 0.9705
4.0518 -5.7637 -2.4982 0.9705
5.4305 -4.4884 -2.4982 0.9705
5.8084 -3.9872 -2.4982 0.9705
6.1402 -3.4544 -2.4981 0.9705
6.4233 -2.8942 -2.4981 0.9705
6.6554 -2.3109 -2.4981 0.9705
7.0295 -0.4705 -2.4981 0.9705
7.0016 0.7833 -2.4981 0.9705
10.1298 3.0190 -3.7480 0.9561
9.8210 3.9087 -3.7481 0.9561
5.9046 2.9838 -2.3458 0.9723
5.2821 3.9834 -2.3459 0.9723
4.9067 4.4378 -2.3459 0.9723
3.0495 5.8714 -2.3460 0.9723
2.5149 6.1196 -2.3460 0.9723
1.9602 6.3193 -2.3460 0.9723
1.3900 6.4687 -2.3461 0.9723
0.2211 6.6129 -2.3461 0.9723
-0.3684 6.6063 -2.3461 0.9723
-1.5339 6.4365 -2.3462 0.9723
-2.1007 6.2746 -2.3462 0.9723
-2.6508 6.0627 -2.3463 0.9723
-3.1800 5.8028 -2.3463 0.9723
-5.7195 4.1167 -2.4988 0.9705
-6.0633 3.5913 -2.4988 0.9705
-6.3589 3.0374 -2.4988 0.9705
-6.6040 2.4594 -2.4988 0.9705
-6.7967 1.8619 -2.4988 0.9705
-3.3741 0.0000 -1.2599 0.9857
-2.9169 -0.7990 -1.1293 0.9872
-2.9238 -1.0888 -1.1650 0.9868
-5.7574 -3.4101 -2.4987 0.9718
-5.4310 -3.9089 -2.4987 0.9718
-4.2052 -5.2048 -2.4986 0.9718
-3.2156 -5.8678 -2.4986 0.9718
-0.9656 -6.6208 -2.4984 0.9718
-0.3725 -6.6803 -2.4984 0.9718
1.4056 -6.5412 -2.4983 0.9718
3.0838 -5.9373 -2.4983 0.9718
3.6000 -5.6392 -2.4982 0.9718
4.5427 -4.9115 -2.4982 0.9718
4.9618 -4.4876 -2.4982 0.9718
5.6788 -3.5367 -2.4982 0.9718
5.9710 -3.0173 -2.4982 0.9718
6.2159 -2.4738 -2.4982 0.9718
6.6884 -0.1490 -2.4982 0.9718
6.6752 0.4469 -2.4982 0.9718
9.1513 4.1234 -3.7481 0.9580
5.4752 3.0803 -2.3458 0.9735
5.1794 3.5555 -2.3459 0.9735
4.0561 4.7976 -2.3459 0.9735
3.6130 5.1397 -2.3460 0.9735
2.6446 5.6989 -2.3460 0.9735
2.1269 5.9118 -2.3460 0.9735
1.0450 6.1954 -2.3461 0.9735
0.4895 6.2638 -2.3461 0.9735
-1.7274 6.0411 -2.3462 0.9735
-2.2582 5.8635 -2.3462 0.9735
-3.2621 5.3702 -2.3463 0.9735
-4.1627 4.7068 -2.3463 0.9735
-4.6535 4.4014 -2.3918 0.9730
-5.2516 4.1472 -2.4988 0.9718
-5.5999 3.6634 -2.4988 0.9718
-5.9038 3.1504 -2.4988 0.9718
-6.1608 2.6124 -2.4988 0.9718
-6.3688 2.0538 -2.4988 0.9718
-6.6321 0.8920 -2.4988 0.9718
-2.9106 -0.9385 -1.1419 0.9870
-6.1606 -2.6123 -2.4987 0.9718
-5.9036 -3.1502 -2.4987 0.9718
-5.2514 -4.1470 -2.4987 0.9718
-3.9691 -5.3869 -2.4986 0.9718
-3.4739 -5.7187 -2.4986 0.9718
-2.9511 -6.0051 -2.4985 0.9718
-1.8395 -6.4331 -2.4985 0.9718
-0.6697 -6.6572 -2.4984 0.9718
1.1129 -6.5974 -2.4983 0.9718
1.6956 -6.4721 -2.4983 0.9718
2.2649 -6.2954 -2.4983 0.9718
2.8162 -6.0688 -2.4983 0.9718
3.3452 -5.7940 -2.4982 0.9718
4.3194 -5.1089 -2.4982 0.9718
4.7570 -4.7042 -2.4982 0.9718
5.5156 -3.7862 -2.4982 0.9718
5.8307 -3.2803 -2.4982 0.9718
6.4902 -1.6232 -2.4981 0.9718
6.6884 0.1491 -2.4982 0.9718
6.6487 0.7438 -2.4982 0.9718
6.5561 1.3326 -2.4982 0.9718
6.4115 1.9109 -2.4982 0.9718
5.6070 2.8334 -2.3458 0.9735
5.3326 3.3212 -2.3459 0.9735
4.6593 4.2141 -2.3459 0.9735
4.2658 4.6122 -2.3459 0.9735
3.3805 5.2955 -2.3460 0.9735
2.8958 5.5754 -2.3460 0.9735
2.3881 5.8111 -2.3460 0.9735
1.3200 6.1426 -2.3461 0.9735
0.7680 6.2358 -2.3461 0.9735
0.2100 6.2795 -2.3461 0.9735
-1.4566 6.1120 -2.3462 0.9735
-2.5172 5.7571 -2.3462 0.9735
-3.0196 5.5102 -2.3463 0.9735
-4.3753 4.5239 -2.3500 0.9735
-5.0617 4.3770 -2.4987 0.9718
-5.4312 3.9092 -2.4988 0.9718
-6.0383 2.8843 -2.4988 0.9718
-2.9005 -0.2592 -1.1429 0.9876
-2.8313 -0.7755 -1.1521 0.9875
-2.8528 -1.0624 -1.1947 0.9870
-5.4778 -3.2445 -2.4987 0.9730
-5.1672 -3.7191 -2.4987 0.9730
-4.0009 -4.9520 -2.4986 0.9730
-3.5443 -5.2884 -2.4986 0.9730
-2.0211 -6.0367 -2.4985 0.9730
-1.4758 -6.1925 -2.4985 0.9730
-0.9187 -6.2992 -2.4984 0.9730
-0.3544 -6.3559 -2.4984 0.9730
0.7781 -6.3180 -2.4984 0.9730
1.3374 -6.2236 -2.4983 0.9730
1.8860 -6.0797 -2.4983 0.9730
2.9340 -5.6489 -2.4983 0.9730
3.4251 -5.3653 -2.4983 0.9730
4.3221 -4.6730 -2.4982 0.9730
5.0821 -3.8326 -2.4982 0.9730
5.4031 -3.3650 -2.4982 0.9730
6.1001 -1.8180 -2.4982 0.9730
6.2377 -1.2678 -2.4982 0.9730
6.3258 -0.7076 -2.4982 0.9730
6.3637 -0.1418 -2.4982 0.9730
6.3510 0.4252 -2.4982 0.9730
8.7069 3.9232 -3.7481 0.9598
5.2093 2.9308 -2.3459 0.9746
4.9278 3.3828 -2.3459 0.9746
4.2501 4.2030 -2.3459 0.9746
3.8591 4.5646 -2.3459 0.9746
2.9887 5.1767 -2.3460 0.9746
2.5162 5.4222 -2.3460 0.9746
2.0236 5.6247 -2.3460 0.9746
0.9943 5.8945 -2.3461 0.9746
0.4657 5.9597 -2.3461 0.9746
-0.0666 5.9775 -2.3461 0.9746
-0.5984 5.9479 -2.3462 0.9746
-1.1254 5.8711 -2.3462 0.9746
-2.6366 5.3654 -2.3462 0.9746
-3.5462 4.8129 -2.3463 0.9746
-3.9605 4.4782 -2.3463 0.9746
-5.3279 3.4854 -2.4987 0.9730
-6.0595 1.9540 -2.4988 0.9730
-6.2094 1.4069 -2.4988 0.9730
-6.3099 0.8487 -2.4988 0.9730
-3.6456 0.1626 -1.4322 0.9844
-2.8734 -0.3864 -1.1379 0.9876
-2.8403 -0.9158 -1.1712 0.9873
-4.9964 -3.9456 -2.4987 0.9730
-4.2176 -4.7689 -2.4986 0.9730
-3.7764 -5.1253 -2.4986 0.9730
-1.1984 -6.2521 -2.4985 0.9730
-0.0709 -6.3654 -2.4984 0.9730
1.0588 -6.2770 -2.4984 0.9730
2.6795 -5.7740 -2.4983 0.9730
3.6607 -5.2074 -2.4982 0.9730
4.1097 -4.8609 -2.4982 0.9730
4.5260 -4.4758 -2.4982 0.9730
5.8033 -2.6148 -2.4982 0.9730
6.1750 -1.5445 -2.4982 0.9730
6.3510 -0.4251 -2.4982 0.9730
6.3258 0.7077 -2.4982 0.9730
6.1002 1.8181 -2.4982 0.9730
8.5236 4.3072 -3.7481 0.9598
4.4331 4.0095 -2.3459 0.9746
4.0586 4.3882 -2.3459 0.9746
3.6520 4.7321 -2.3459 0.9746
3.2164 5.0384 -2.3460 0.9746
1.2559 5.8443 -2.3461 0.9746
-0.3328 5.9687 -2.3461 0.9746
-0.8627 5.9154 -2.3462 0.9746
-1.3858 5.8152 -2.3462 0.9746
-2.8730 5.2426 -2.3463 0.9746
-5.1674 3.7193 -2.4987 0.9730
-5.9664 2.2220 -2.4988 0.9730
-6.2659 1.1289 -2.4988 0.9730
-4.1298 0.3690 -1.6273 0.9823
-2.8130 -0.2514 -1.1629 0.9879
-2.7695 -0.7587 -1.1825 0.9877
-5.4754 -2.6154 -2.4987 0.9741
-5.2209 -3.0923 -2.4987 0.9741
-4.9249 -3.5447 -2.4987 0.9741
-4.5898 -3.9689 -2.4986 0.9741
-4.2183 -4.3617 -2.4986 0.9741
-3.8133 -4.7197 -2.4986 0.9741
-3.3781 -5.0404 -2.4986 0.9741
-1.9263 -5.7536 -2.4985 0.9741
-0.8756 -6.0038 -2.4984 0.9741
0.7417 -6.0217 -2.4984 0.9741
1.7975 -5.7947 -2.4983 0.9741
2.3062 -5.6116 -2.4983 0.9741
2.7964 -5.3840 -2.4983 0.9741
3.2645 -5.1137 -2.4983 0.9741
4.4995 -4.0695 -2.4982 0.9741
4.8438 -3.6529 -2.4982 0.9741
5.4147 -2.7361 -2.4982 0.9741
5.6367 -2.2433 -2.4982 0.9741
6.0532 0.4053 -2.4982 0.9741
5.8855 1.4721 -2.4982 0.9741
5.7312 1.9901 -2.4982 0.9741
8.2987 3.7392 -3.7481 0.9614
4.6968 3.2242 -2.3459 0.9757
4.3912 3.6295 -2.3459 0.9757
4.0508 4.0059 -2.3459 0.9757
3.2764 4.6608 -2.3460 0.9757
2.8486 4.9339 -2.3460 0.9757
1.9287 5.3609 -2.3460 0.9757
1.4439 5.5114 -2.3461 0.9757
-0.0635 5.6972 -2.3461 0.9757
-0.5703 5.6690 -2.3461 0.9757
-1.5664 5.4781 -2.3462 0.9757
-2.0478 5.3171 -2.3462 0.9757
-2.9581 4.8698 -2.3463 0.9757
-3.3799 4.5872 -2.3463 0.9757
-3.7747 4.2682 -2.3463 0.9757
-4.7622 3.7608 -2.4987 0.9741
-5.0781 3.3220 -2.4987 0.9741
-5.3536 2.8568 -2.4987 0.9741
-5.5866 2.3690 -2.4987 0.9741
-5.9181 1.3409 -2.4988 0.9741
-6.0140 0.8089 -2.4988 0.9741
-3.5093 0.1565 -1.4465 0.9849
-2.7756 -0.6288 -1.1719 0.9878
-2.7775 -0.8956 -1.2017 0.9875
-2.8016 -1.1879 -1.2531 0.9869
-5.3535 -2.8567 -2.4987 0.9741
-4.7621 -3.7605 -2.4986 0.9741
-4.0198 -4.5452 -2.4986 0.9741
-3.5993 -4.8849 -2.4986 0.9741
-3.1502 -5.1858 -2.4986 0.9741
-2.6761 -5.4456 -2.4985 0.9741
-1.1422 -5.9589 -2.4985 0.9741
-0.6073 -6.0369 -2.4984 0.9741
-0.0676 -6.0669 -2.4984 0.9741
0.4727 -6.0488 -2.4984 0.9741
3.9170 -4.6330 -2.4982 0.9741
5.0017 -3.4334 -2.4982 0.9741
5.2875 -2.9746 -2.4982 0.9741
5.5312 -2.4922 -2.4982 0.9741
5.7311 -1.9900 -2.4982 0.9741
5.8855 -1.4720 -2.4982 0.9741
6.0292 0.6745 -2.4982 0.9741
8.4570 3.3658 -3.7481 0.9614
8.1239 4.1052 -3.7481 0.9614
4.8357 3.0118 -2.3459 0.9757
4.5485 3.4302 -2.3459 0.9757
2.1656 5.2696 -2.3460 0.9757
1.6880 5.4415 -2.3460 0.9757
1.1970 5.5703 -2.3461 0.9757
0.6964 5.6547 -2.3461 0.9757
0.1904 5.6943 -2.3461 0.9757
-0.8223 5.6380 -2.3462 0.9757
-1.3208 5.5425 -2.3462 0.9757
-2.7382 4.9967 -2.3462 0.9757
-3.5808 4.4321 -2.3463 0.9757
-4.9250 3.5448 -2.4987 0.9741
-5.2210 3.0924 -2.4987 0.9741
-5.4755 2.6155 -2.4987 0.9741
-5.6866 2.1178 -2.4987 0.9741
-5.8525 1.6032 -2.4988 0.9741
-5.9720 1.0760 -2.4988 0.9741
-3.9772 0.3554 -1.6443 0.9829
-3.0794 0.0000 -1.3283 0.9867
-2.7539 -0.2461 -1.1927 0.9880
-2.7092 -0.7421 -1.2117 0.9878
-2.7209 -1.0132 -1.2524 0.9874
-2.7299 -1.3040 -1.3050 0.9869
-2.7884 -1.6516 -1.3980 0.9860
-4.3815 -3.7888 -2.4986 0.9751
-3.2247 -4.8116 -2.4986 0.9751
-2.7837 -5.0795 -2.4985 0.9751
-1.8389 -5.4924 -2.4985 0.9751
-1.3427 -5.6343 -2.4985 0.9751
0.1935 -5.7887 -2.4984 0.9751
1.2168 -5.6625 -2.4983 0.9751
3.5385 -4.5849 -2.4983 0.9751
4.2953 -3.8848 -2.4982 0.9751
4.9160 -3.0617 -2.4982 0.9751
5.1690 -2.6120 -2.4982 0.9751
5.3810 -2.1416 -2.4982 0.9751
5.5502 -1.6541 -2.4982 0.9751
5.7556 -0.6438 -2.4982 0.9751
5.7786 0.3869 -2.4982 0.9751
5.6185 1.4053 -2.4982 0.9751
7.9221 3.5696 -3.7481 0.9629
7.5730 4.2606 -3.7482 0.9629
3.8669 3.8241 -2.3459 0.9766
3.5113 4.1531 -2.3459 0.9766
2.7193 4.7100 -2.3460 0.9766
2.2893 4.9334 -2.3460 0.9766
1.3784 5.2613 -2.3461 0.9766
0.4237 5.4224 -2.3461 0.9766
-0.0606 5.4386 -2.3461 0.9766
-0.5444 5.4117 -2.3461 0.9766
-1.0239 5.3418 -2.3462 0.9766
-1.4953 5.2296 -2.3462 0.9766
-1.9549 5.0757 -2.3462 0.9766
-2.8239 4.6488 -2.3462 0.9766
-3.2264 4.3790 -2.3463 0.9766
-3.7412 4.2303 -2.4360 0.9757
-5.3331 2.2615 -2.4987 0.9751
-2.8614 -0.1276 -1.2355 0.9876
-2.7402 -0.3685 -1.1926 0.9880
-2.7334 -1.1590 -1.2807 0.9871
-3.8374 -4.3389 -2.4986 0.9751
-2.5546 -5.1984 -2.4985 0.9751
-2.0818 -5.4051 -2.4985 0.9751
-1.5924 -5.5689 -2.4985 0.9751
0.9634 -5.7112 -2.4984 0.9751
2.4379 -5.2536 -2.4983 0.9751
2.8958 -5.0157 -2.4983 0.9751
3.3308 -4.7380 -2.4983 0.9751
3.7392 -4.4227 -2.4982 0.9751
4.7748 -3.2777 -2.4982 0.9751
5.2802 -2.3791 -2.4982 0.9751
5.7212 -0.8996 -2.4982 0.9751
5.7785 -0.3868 -2.4982 0.9751
5.7900 0.1291 -2.4982 0.9751
5.7556 0.6439 -2.4982 0.9751
5.5503 1.6542 -2.4982 0.9751
5.3811 2.1417 -2.4982 0.9751
4.0334 3.6481 -2.3459 0.9766
2.9264 4.5842 -2.3460 0.9766
2.5068 4.8265 -2.3460 0.9766
1.6114 5.1946 -2.3460 0.9766
1.1427 5.3175 -2.3461 0.9766
0.6648 5.3981 -2.3461 0.9766
0.1818 5.4359 -2.3461 0.9766
-0.3028 5.4306 -2.3461 0.9766
-1.7268 5.1577 -2.3462 0.9766
-2.6140 4.7699 -2.3462 0.9766
-4.0270 4.1639 -2.4987 0.9751
-4.3816 3.7890 -2.4987 0.9751
-4.9840 2.9521 -2.4987 0.9751
-5.4285 2.0216 -2.4987 0.9751
-5.5869 1.5304 -2.4987 0.9751
-2.7005 -0.2413 -1.2234 0.9882
-2.6738 -0.4817 -1.2259 0.9881
-2.6607 -0.9908 -1.2811 0.9876
-2.6666 -1.2737 -1.3334 0.9871
-2.6867 -1.5913 -1.4090 0.9864
-4.1886 -3.6220 -2.4986 0.9760
-3.4800 -4.3072 -2.4986 0.9760
-2.6611 -4.8559 -2.4985 0.9760
-2.2183 -5.0735 -2.4985 0.9760
-0.7991 -5.4791 -2.4984 0.9760
-0.3083 -5.5284 -2.4984 0.9760
0.6768 -5.4954 -2.4984 0.9760
3.7595 -4.0646 -2.4982 0.9760
4.1063 -3.7138 -2.4982 0.9760
4.4205 -3.3336 -2.4982 0.9760
4.6997 -2.9269 -2.4982 0.9760
4.9415 -2.4970 -2.4982 0.9760
5.3060 -1.5813 -2.4982 0.9760
5.4256 -1.1028 -2.4982 0.9760
5.5352 -0.1233 -2.4982 0.9760
5.4694 0.8601 -2.4982 0.9760
5.3712 1.3435 -2.4982 0.9760
5.2303 1.8162 -2.4982 0.9760
3.6968 3.6559 -2.3459 0.9774
3.3567 3.9704 -2.3460 0.9774
2.9900 4.2534 -2.3460 0.9774
2.1886 4.7163 -2.3460 0.9774
-1.4295 4.9993 -2.3462 0.9774
-2.2933 4.6668 -2.3462 0.9774
-3.6686 4.1482 -2.4987 0.9760
-4.3460 3.4320 -2.4987 0.9760
-4.6342 3.0316 -2.4987 0.9760
-4.8856 2.6071 -2.4987 0.9760
-5.0983 2.1619 -2.4987 0.9760
-5.2705 1.6996 -2.4987 0.9760
-2.7833 -0.1241 -1.2571 0.9878
-4.8855 -2.6070 -2.4987 0.9760
-4.3459 -3.4319 -2.4986 0.9760
-4.0231 -3.8050 -2.4986 0.9760
-2.8748 -4.7326 -2.4985 0.9760
-2.4422 -4.9696 -2.4985 0.9760
-1.9901 -5.1672 -2.4985 0.9760
-0.0617 -5.5366 -2.4984 0.9760
0.4314 -5.5201 -2.4984 0.9760
0.9210 -5.4598 -2.4984 0.9760
1.4032 -5.3561 -2.4983 0.9760
1.8744 -5.2099 -2.4983 0.9760
2.3306 -5.0223 -2.4983 0.9760
3.1842 -4.5295 -2.4983 0.9760
3.5747 -4.2281 -2.4983 0.9760
3.9368 -3.8931 -2.4982 0.9760
4.2676 -3.5273 -2.4982 0.9760
4.5646 -3.1334 -2.4982 0.9760
4.8254 -2.7147 -2.4982 0.9760
5.0479 -2.2744 -2.4982 0.9760
5.4694 -0.8600 -2.4982 0.9760
5.5242 -0.3697 -2.4982 0.9760
5.5352 0.1234 -2.4982 0.9760
5.3060 1.5814 -2.4982 0.9760
7.0511 4.3915 -3.7482 0.9642
4.1510 3.1304 -2.3459 0.9774
3.8559 3.4875 -2.3459 0.9774
3.5303 3.8169 -2.3459 0.9774
3.1765 4.1160 -2.3460 0.9774
1.9763 4.8091 -2.3460 0.9774
1.0924 5.0834 -2.3461 0.9774
0.6356 5.1605 -2.3461 0.9774
0.1738 5.1967 -2.3461 0.9774
-0.2895 5.1915 -2.3461 0.9774
-0.7504 5.1452 -2.3462 0.9774
-1.2054 5.0580 -2.3462 0.9774
-1.6508 4.9307 -2.3462 0.9774
-2.0831 4.7643 -2.3462 0.9774
-2.8949 4.3195 -2.3462 0.9774
-3.3667 4.1671 -2.4172 0.9768
-4.1888 3.6222 -2.4987 0.9760
-4.4946 3.2350 -2.4987 0.9760
-5.4500 0.9819 -2.4987 0.9760
-3.7666 0.3366 -1.7063 0.9835
-2.9112 0.0000 -1.3723 0.9872
-2.6016 -0.7126 -1.2715 0.9881
-2.6023 -0.9691 -1.3090 0.9878
-4.0095 -3.4671 -2.4986 0.9768
-3.6850 -3.8102 -2.4986 0.9768
-2.9510 -4.4031 -2.4986 0.9768
-2.5473 -4.6482 -2.4985 0.9768
-2.1235 -4.8565 -2.4985 0.9768
-0.2951 -5.2920 -2.4984 0.9768
0.1771 -5.2972 -2.4984 0.9768
1.1135 -5.1818 -2.4984 0.9768
1.5703 -5.0621 -2.4983 0.9768
2.0146 -4.9022 -2.4983 0.9768
2.4429 -4.7034 -2.4983 0.9768
2.8518 -4.4673 -2.4983 0.9768
3.5987 -3.8908 -2.4983 0.9768
3.9307 -3.5551 -2.4982 0.9768
4.7302 -2.3902 -2.4982 0.9768
5.0791 -1.5137 -2.4982 0.9768
5.1936 -1.0556 -2.4982 0.9768
5.2880 0.3540 -2.4982 0.9768
5.1415 1.2860 -2.4982 0.9768
5.0067 1.7386 -2.4983 0.9768
4.8321 2.1773 -2.4983 0.9768
6.9301 3.8988 -3.7482 0.9654
3.5387 3.4995 -2.3459 0.9782
3.2132 3.8006 -2.3460 0.9782
2.8622 4.0715 -2.3460 0.9782
2.4885 4.3102 -2.3460 0.9782
1.6849 4.6831 -2.3460 0.9782
0.3877 4.9620 -2.3461 0.9782
-0.0554 4.9769 -2.3461 0.9782
-0.4982 4.9523 -2.3461 0.9782
-1.3684 4.7855 -2.3462 0.9782
-2.1952 4.4672 -2.3462 0.9782
-3.0273 4.1087 -2.4057 0.9777
-3.8512 3.6424 -2.4987 0.9768
-4.4360 2.9020 -2.4987 0.9768
-4.6767 2.4956 -2.4987 0.9768
-4.8803 2.0695 -2.4987 0.9768
-5.2536 0.7066 -2.4987 0.9768
-2.6352 -0.3544 -1.2533 0.9883
-2.6131 -0.5920 -1.2630 0.9882
-2.6038 -1.1041 -1.3332 0.9876
-2.5902 -1.3822 -1.3839 0.9871
-4.1600 -3.2851 -2.4986 0.9768
-3.8510 -3.6422 -2.4986 0.9768
-3.5116 -3.9705 -2.4986 0.9768
-3.1442 -4.2673 -2.4986 0.9768
-1.9050 -4.9462 -2.4985 0.9768
-0.0590 -5.2999 -2.4984 0.9768
0.4129 -5.2840 -2.4984 0.9768
1.7942 -4.9871 -2.4983 0.9768
2.2310 -4.8075 -2.4983 0.9768
2.6500 -4.5899 -2.4983 0.9768
3.0480 -4.3358 -2.4983 0.9768
3.4218 -4.0473 -2.4983 0.9768
3.7684 -3.7266 -2.4983 0.9768
4.0851 -3.3764 -2.4982 0.9768
4.6190 -2.5986 -2.4982 0.9768
5.0066 -1.7384 -2.4982 0.9768
5.1414 -1.2859 -2.4982 0.9768
5.2880 -0.3539 -2.4982 0.9768
5.2670 0.5893 -2.4982 0.9768
5.1937 1.0557 -2.4982 0.9768
7.0969 3.5862 -3.7482 0.9654
6.7496 4.2037 -3.7482 0.9654
3.6910 3.3384 -2.3459 0.9782
3.3793 3.6537 -2.3459 0.9782
3.0407 3.9400 -2.3460 0.9782
2.2940 4.4167 -2.3460 0.9782
1.4746 4.7536 -2.3460 0.9782
1.0456 4.8660 -2.3461 0.9782
0.6084 4.9398 -2.3461 0.9782
-0.2771 4.9695 -2.3461 0.9782
-1.1538 4.8417 -2.3462 0.9782
-2.7711 4.1348 -2.3462 0.9782
-3.3313 4.1233 -2.4987 0.9768
-3.6851 3.8104 -2.4987 0.9768
-4.0096 3.4673 -2.4987 0.9768
-4.3023 3.0967 -2.4987 0.9768
-4.7832 2.2848 -2.4987 0.9768
-5.1125 1.4005 -2.4987 0.9768
-3.7077 0.3313 -1.7547 0.9837
-2.8280 0.0000 -1.3909 0.9875
-2.5698 -0.4629 -1.2843 0.9884
-2.5499 -0.6985 -1.3004 0.9883
-2.5453 -0.9479 -1.3359 0.9880
-4.3709 -2.5888 -2.4986 0.9776
-4.1231 -2.9676 -2.4986 0.9776
-2.8281 -4.2198 -2.4986 0.9776
-2.0351 -4.6543 -2.4985 0.9776
-1.6127 -4.8169 -2.4985 0.9776
-0.7331 -5.0264 -2.4984 0.9776
-0.2828 -5.0717 -2.4984 0.9776
0.1697 -5.0767 -2.4984 0.9776
0.6209 -5.0414 -2.4984 0.9776
1.0672 -4.9661 -2.4984 0.9776
1.5049 -4.8514 -2.4983 0.9776
1.9307 -4.6981 -2.4983 0.9776
2.7331 -4.2813 -2.4983 0.9776
3.1033 -4.0210 -2.4983 0.9776
3.4489 -3.7288 -2.4983 0.9776
3.7670 -3.4071 -2.4983 0.9776
4.0553 -3.0582 -2.4982 0.9776
4.3114 -2.6851 -2.4982 0.9776
4.5333 -2.2907 -2.4982 0.9776
5.0779 -0.1131 -2.4982 0.9776
5.0679 0.3393 -2.4982 0.9776
6.6416 3.7365 -3.7482 0.9666
3.3913 3.3538 -2.3459 0.9790
2.7430 3.9020 -2.3460 0.9790
2.3848 4.1307 -2.3460 0.9790
2.0078 4.3266 -2.3460 0.9790
0.7934 4.7034 -2.3461 0.9790
-1.3114 4.5863 -2.3462 0.9790
-1.7144 4.4514 -2.3462 0.9790
-2.1038 4.2812 -2.3462 0.9790
-3.9569 6.5140 -3.7487 0.9666
-3.0126 4.0887 -2.4979 0.9776
-3.3655 3.8054 -2.4987 0.9776
-3.9869 3.1484 -2.4987 0.9776
-4.2513 2.7811 -2.4987 0.9776
-4.6770 1.9833 -2.4987 0.9776
-4.8350 1.5591 -2.4987 0.9776
-4.9546 1.1226 -2.4987 0.9776
-3.0630 0.1366 -1.5081 0.9864
-2.5430 -0.8200 -1.3142 0.9882
-2.5441 -1.0788 -1.3592 0.9878
-2.5301 -1.3501 -1.4105 0.9873
-3.3653 -3.8052 -2.4986 0.9776
-1.8257 -4.7403 -2.4985 0.9776
-1.3965 -4.8839 -2.4985 0.9776
-0.0566 -5.0792 -2.4984 0.9776
0.3957 -5.0641 -2.4984 0.9776
0.8449 -5.0087 -2.4984 0.9776
1.2873 -4.9136 -2.4984 0.9776
1.7195 -4.7794 -2.4983 0.9776
2.1381 -4.6074 -2.4983 0.9776
2.5397 -4.3988 -2.4983 0.9776
3.2793 -3.8788 -2.4983 0.9776
3.9151 -3.2359 -2.4983 0.9776
4.7982 -1.6661 -2.4982 0.9776
5.0175 -0.7889 -2.4982 0.9776
5.0679 -0.3392 -2.4982 0.9776
5.0779 0.1132 -2.4982 0.9776
5.0477 0.5647 -2.4982 0.9776
6.0844 4.5885 -3.7482 0.9666
3.5374 3.1994 -2.3459 0.9790
3.2386 3.5016 -2.3460 0.9790
2.9141 3.7759 -2.3460 0.9790
2.5665 4.0204 -2.3460 0.9790
2.1985 4.2329 -2.3460 0.9790
1.8130 4.4118 -2.3460 0.9790
1.4132 4.5557 -2.3460 0.9790
1.0021 4.6634 -2.3461 0.9790
0.1594 4.7673 -2.3461 0.9790
-1.5144 4.5234 -2.3462 0.9790
-2.2924 4.1832 -2.3462 0.9790
-4.2432 6.3312 -3.7487 0.9666
-3.5316 3.6518 -2.4987 0.9776
-4.1232 2.9677 -2.4987 0.9776
-4.3710 2.5890 -2.4987 0.9776
-4.5841 2.1896 -2.4987 0.9776
-4.8997 1.3422 -2.4987 0.9776
-4.9997 0.9008 -2.4987 0.9776
-3.6334 0.3247 -1.7942 0.9839
-2.7481 0.0000 -1.4089 0.9877
-2.5372 -0.2267 -1.3059 0.9886
-2.4994 -0.6846 -1.3286 0.9884
-2.4895 -0.9271 -1.3619 0.9881
-2.4879 -1.1884 -1.4135 0.9877
-3.6865 -3.1878 -2.4986 0.9783
-2.7133 -4.0484 -2.4985 0.9783
-1.5472 -4.6213 -2.4985 0.9783
-1.1298 -4.7406 -2.4985 0.9783
-0.7033 -4.8223 -2.4984 0.9783
0.5957 -4.8367 -2.4984 0.9783
1.0238 -4.7645 -2.4984 0.9783
1.8523 -4.5073 -2.4983 0.9783
3.3088 -3.5774 -2.4983 0.9783
3.8907 -2.9340 -2.4983 0.9783
4.1364 -2.5761 -2.4982 0.9783
4.5276 -1.8019 -2.4982 0.9783
4.7753 -0.9706 -2.4982 0.9783
4.8428 -0.5417 -2.4982 0.9783
4.8139 0.7570 -2.4982 0.9783
4.4429 2.0019 -2.4983 0.9783
5.6355 4.6579 -3.7483 0.9677
3.2537 3.2177 -2.3459 0.9796
2.9544 3.4945 -2.3460 0.9796
2.2880 3.9630 -2.3460 0.9796
1.9262 4.1509 -2.3460 0.9796
1.5491 4.3059 -2.3460 0.9796
1.1598 4.4268 -2.3461 0.9796
0.3565 4.5623 -2.3461 0.9796
-0.0510 4.5760 -2.3461 0.9796
-0.4581 4.5534 -2.3461 0.9796
-0.8615 4.4945 -2.3462 0.9796
-1.6448 4.2706 -2.3462 0.9796
-2.8910 3.9238 -2.4986 0.9783
-3.2288 3.6509 -2.4987 0.9783
-3.5409 3.3491 -2.4987 0.9783
-3.8250 3.0206 -2.4987 0.9783
-4.3000 2.2946 -2.4987 0.9783
-4.4871 1.9028 -2.4987 0.9783
-4.6387 1.4959 -2.4987 0.9783
-4.7534 1.0770 -2.4987 0.9783
-2.9775 0.1328 -1.5280 0.9867
-2.5877 -0.1154 -1.3280 0.9884
-2.5350 -0.3409 -1.3113 0.9886
-2.4879 -1.0550 -1.3854 0.9879
-3.5408 -3.3489 -2.4986 0.9783
-3.2287 -3.6507 -2.4986 0.9783
-2.8909 -3.9236 -2.4986 0.9783
-2.1494 -4.3739 -2.4985 0.9783
-0.4878 -4.8488 -2.4984 0.9783
2.0513 -4.4203 -2.4983 0.9783
2.8025 -3.9866 -2.4983 0.9783
3.1462 -3.7213 -2.4983 0.9783
3.4649 -3.4265 -2.4983 0.9783
4.0175 -2.7579 -2.4983 0.9783
4.6034 -1.5984 -2.4982 0.9783
4.8138 -0.7569 -2.4982 0.9783
4.8718 0.1086 -2.4982 0.9783
4.8428 0.5418 -2.4982 0.9783
4.7754 0.9707 -2.4983 0.9783
4.5277 1.8020 -2.4983 0.9783
3.1071 3.3594 -2.3460 0.9796
2.7958 3.6227 -2.3460 0.9796
1.7394 4.2327 -2.3460 0.9796
1.3558 4.3707 -2.3460 0.9796
-0.2548 4.5692 -2.3461 0.9796
-0.6604 4.5285 -2.3461 0.9796
-1.0609 4.4517 -2.3462 0.9796
-1.8334 4.1932 -2.3462 0.9796
-3.5141 6.4124 -3.7487 0.9677
-4.0709 6.0742 -3.7487 0.9677
-3.3882 3.5035 -2.4987 0.9783
-4.1935 2.4838 -2.4987 0.9783
-4.5674 1.7010 -2.4987 0.9783
-4.7007 1.2877 -2.4987 0.9783
-3.5463 0.3169 -1.8253 0.9841
-2.4853 -0.2221 -1.3321 0.9887
-2.4352 -0.9069 -1.3872 0.9883
-2.4292 -1.1603 -1.4371 0.9879
-3.7988 -2.7342 -2.4986 0.9790
-3.2537 -3.3643 -2.4986 0.9790
-2.6056 -3.8879 -2.4985 0.9790
-2.2492 -4.1043 -2.4985 0.9790
-1.8750 -4.2882 -2.4985 0.9790
-0.6754 -4.6311 -2.4984 0.9790
-0.2605 -4.6728 -2.4984 0.9790
1.3866 -4.4698 -2.4984 0.9790
2.1571 -4.1531 -2.4983 0.9790
2.5181 -3.9446 -2.4983 0.9790
3.4708 -3.1391 -2.4983 0.9790
3.9723 -2.4739 -2.4983 0.9790
4.1768 -2.1106 -2.4982 0.9790
4.3480 -1.7304 -2.4982 0.9790
4.6230 0.7270 -2.4983 0.9790
4.5399 1.1355 -2.4983 0.9790
4.0787 2.2947 -2.4983 0.9790
5.4120 4.4731 -3.7483 0.9687
2.8372 3.3559 -2.3460 0.9803
2.5273 3.5952 -2.3460 0.9803
1.4877 4.1352 -2.3460 0.9803
0.7310 4.3335 -2.3461 0.9803
-0.0490 4.3945 -2.3461 0.9803
-0.8273 4.3163 -2.3461 0.9803
-1.5796 4.1012 -2.3462 0.9803
-3.0970 6.3022 -3.7487 0.9687
-3.6456 6.0016 -3.7487 0.9687
-4.1654 5.6533 -3.7487 0.9687
-3.1007 3.5061 -2.4986 0.9790
-3.6733 2.9008 -2.4987 0.9790
-3.9169 2.5623 -2.4987 0.9790
-4.1294 2.2036 -2.4987 0.9790
-4.3092 1.8273 -2.4987 0.9790
-4.4547 1.4365 -2.4987 0.9790
-4.6388 0.6239 -2.4987 0.9790
-2.8952 0.1291 -1.5471 0.9869
-2.5303 -0.1128 -1.3521 0.9886
-2.4621 -0.5578 -1.3477 0.9886
-2.4330 -1.0317 -1.4108 0.9881
-2.4151 -1.2887 -1.4613 0.9877
-2.4322 -1.5911 -1.5516 0.9869
-3.6732 -2.9006 -2.4986 0.9790
-3.1006 -3.5059 -2.4986 0.9790
-2.4299 -4.0001 -2.4985 0.9790
-1.6821 -4.3675 -2.4985 0.9790
-0.4685 -4.6566 -2.4984 0.9790
-0.0521 -4.6797 -2.4984 0.9790
1.1861 -4.5271 -2.4984 0.9790
1.5843 -4.4035 -2.4983 0.9790
1.9699 -4.2450 -2.4983 0.9790
2.3399 -4.0528 -2.4983 0.9790
2.6914 -3.8284 -2.4983 0.9790
3.8582 -2.6485 -2.4983 0.9790
4.0786 -2.2945 -2.4983 0.9790
4.5399 -1.1355 -2.4982 0.9790
4.6229 -0.7269 -2.4982 0.9790
4.6693 -0.3125 -2.4982 0.9790
4.6786 0.1043 -2.4982 0.9790
4.6507 0.5203 -2.4983 0.9790
4.4848 1.3367 -2.4983 0.9790
4.3481 1.7305 -2.4983 0.9790
4.1768 2.1107 -2.4983 0.9790
5.9598 3.7118 -3.7482 0.9687
2.6849 3.4790 -2.3460 0.9803
2.3646 3.7041 -2.3460 0.9803
1.6704 4.0648 -2.3460 0.9803
0.5372 4.3618 -2.3461 0.9803
0.1469 4.3923 -2.3461 0.9803
-0.2447 4.3880 -2.3461 0.9803
-3.9094 5.8332 -3.7487 0.9687
-2.9415 3.6407 -2.4986 0.9790
-3.5404 3.0615 -2.4987 0.9790
-3.7988 2.7343 -2.4987 0.9790
-4.0271 2.3853 -2.4987 0.9790
-4.2235 2.0174 -2.4987 0.9790
-4.5143 1.2366 -2.4987 0.9790
-2.4347 -0.2175 -1.3576 0.9889
-2.4243 -0.4368 -1.3681 0.9888
-2.4018 -0.6579 -1.3831 0.9887
-2.3733 -1.1336 -1.4608 0.9880
-2.3176 -1.3727 -1.4960 0.9878
-3.6513 -2.6280 -2.4986 0.9796
-3.4029 -2.9426 -2.4986 0.9796
-2.5045 -3.7370 -2.4985 0.9796
-2.1620 -3.9450 -2.4985 0.9796
-1.8022 -4.1218 -2.4985 0.9796
-0.6492 -4.4513 -2.4984 0.9796
-0.2504 -4.4915 -2.4984 0.9796
0.1503 -4.4959 -2.4984 0.9796
0.9451 -4.3979 -2.4984 0.9796
