ply
format ascii 1.0
element vertex 1587
property float32 x
property float32 y
property float32 z
property float32 I
end_header
11.8294 4.1076 -1.7811 0.9507
-0.7863 -7.8165 -1.1174 0.9688
-0.0785 -7.0469 -1.0024 0.9719
0.5494 -7.0313 -1.0031 0.9719
-10.8824 7.8326 -1.9071 0.9473
-0.4199 -7.5313 -1.2011 0.9699
14.2672 3.5685 -2.3418 0.9422
11.7999 4.0974 -1.9890 0.9507
13.4103 6.0424 -2.3422 0.9422
12.8204 7.2127 -2.3424 0.9422
11.3408 9.3734 -2.3429 0.9421
9.5014 11.2384 -2.3434 0.9421
3.7323 14.2461 -2.3451 0.9421
2.4499 14.5239 -2.3454 0.9421
-1.4750 14.6615 -2.3464 0.9421
-4.0522 14.1716 -2.3471 0.9420
-5.2982 13.7565 -2.3474 0.9420
-7.6552 12.6022 -2.3479 0.9420
-8.7474 11.8721 -2.3482 0.9420
-9.7703 11.0475 -2.3484 0.9420
-10.7157 10.1349 -2.3486 0.9420
13.1284 6.6341 -2.3423 0.9422
10.9126 9.8699 -2.3430 0.9421
9.9920 10.8033 -2.3433 0.9421
8.9920 11.6512 -2.3436 0.9421
7.9203 12.4070 -2.3439 0.9421
5.5966 13.6185 -2.3445 0.9421
4.3629 14.0646 -2.3449 0.9421
0.4923 14.7241 -2.3459 0.9421
-0.8203 14.7116 -2.3463 0.9421
-3.4167 14.3371 -2.3469 0.9420
-4.6798 13.9779 -2.3472 0.9420
-5.9061 13.5076 -2.3475 0.9420
-7.0858 12.9299 -2.3478 0.9420
-9.2680 11.4712 -2.3483 0.9420
-10.2532 10.6018 -2.3485 0.9420
-10.8525 7.8112 -2.1292 0.9473
-12.6925 7.5178 -2.3490 0.9420
-13.3119 6.3586 -2.3491 0.9420
-14.1866 0.0000 -2.5015 0.9440
-14.1299 -1.2626 -2.5014 0.9440
-13.2923 -4.9500 -2.5010 0.9440
-12.2021 -7.2273 -2.5007 0.9440
-8.9090 -11.0268 -2.4996 0.9440
-5.6771 -12.9839 -2.4987 0.9441
-3.2842 -13.7811 -2.4980 0.9441
-2.0443 -14.0169 -2.4977 0.9441
-0.7885 -14.1413 -2.4974 0.9441
1.7308 -14.0534 -2.4967 0.9441
2.9744 -13.8418 -2.4964 0.9441
4.1941 -13.5205 -2.4961 0.9441
7.6147 -11.9281 -2.4953 0.9441
8.6453 -11.2020 -2.4950 0.9441
9.6072 -10.3871 -2.4948 0.9442
10.4928 -9.4901 -2.4946 0.9442
12.0077 -7.4785 -2.4943 0.9442
12.6251 -6.3797 -2.4942 0.9442
13.1424 -5.2305 -2.4941 0.9442
13.5554 -4.0399 -2.4941 0.9442
12.8862 3.2231 -2.3422 0.9475
11.7704 4.0871 -2.1970 0.9507
12.1121 5.4575 -2.3425 0.9475
7.6447 10.8747 -2.3439 0.9474
2.2124 13.1162 -2.3454 0.9474
1.0364 13.2628 -2.3457 0.9474
-1.3319 13.2399 -2.3463 0.9474
-2.5054 13.0705 -2.3466 0.9474
-3.6592 12.7972 -2.3469 0.9474
-4.7843 12.4221 -2.3472 0.9474
-6.9125 11.3795 -2.3477 0.9474
-7.8986 10.7201 -2.3479 0.9474
-9.6758 9.1514 -2.3483 0.9473
-11.7518 6.2710 -2.3487 0.9473
-14.1727 0.6320 -2.5015 0.9440
-14.0594 -1.8908 -2.5014 0.9440
-13.8347 -3.1345 -2.5013 0.9440
-13.5000 -4.3532 -2.5011 0.9440
-13.0581 -5.5371 -2.5009 0.9440
-12.5125 -6.6768 -2.5008 0.9440
-11.8675 -7.7633 -2.5005 0.9440
-11.1284 -8.7880 -2.5003 0.9440
-10.3010 -9.7426 -2.5000 0.9440
-8.4085 -11.4121 -2.4995 0.9441
-7.3585 -12.1137 -2.4992 0.9441
-6.2503 -12.7189 -2.4989 0.9441
-5.0928 -13.2231 -2.4985 0.9441
-2.6669 -13.9128 -2.4979 0.9441
-1.4178 -14.0931 -2.4975 0.9441
4.7920 -13.3195 -2.4960 0.9441
5.9578 -12.8387 -2.4957 0.9441
7.0761 -12.2561 -2.4954 0.9441
9.1353 -10.8053 -2.4949 0.9441
10.9047 -9.0130 -2.4946 0.9442
12.3286 -6.9359 -2.4943 0.9442
12.8965 -5.8109 -2.4942 0.9442
14.1414 0.3152 -2.4941 0.9442
13.1999 1.4767 -2.3420 0.9475
12.2525 3.6516 -2.2543 0.9494
11.8575 5.9918 -2.3426 0.9475
11.2780 7.0241 -2.3428 0.9475
10.6091 8.0007 -2.3430 0.9475
8.1210 10.5227 -2.3437 0.9474
7.1531 11.2051 -2.3440 0.9474
2.7943 13.0037 -2.3452 0.9474
0.4446 13.2966 -2.3459 0.9474
-0.7408 13.2852 -2.3462 0.9474
-1.9205 13.1682 -2.3465 0.9474
-4.2259 12.6222 -2.3471 0.9474
-5.3332 12.1973 -2.3473 0.9474
-6.3983 11.6756 -2.3476 0.9474
-7.4129 11.0608 -2.3478 0.9474
-8.3687 10.3581 -2.3480 0.9473
-9.2582 9.5730 -2.3482 0.9473
-10.0742 8.7116 -2.3484 0.9473
-13.6828 3.7481 -2.5015 0.9440
-13.9622 2.5154 -2.5015 0.9440
-10.4860 -7.5473 -2.5002 0.9487
-7.1899 -10.7280 -2.4992 0.9487
-6.2058 -11.3241 -2.4989 0.9487
-4.0987 -12.2421 -2.4983 0.9488
-1.8627 -12.7717 -2.4977 0.9488
0.4312 -12.8965 -2.4971 0.9488
2.7103 -12.6128 -2.4965 0.9488
4.9026 -11.9298 -2.4960 0.9488
8.7547 -9.4654 -2.4951 0.9488
10.2929 -7.7622 -2.4948 0.9488
11.5050 -5.8137 -2.4945 0.9488
12.3529 -3.6815 -2.4944 0.9488
12.8098 -1.4330 -2.4944 0.9488
12.8867 -0.2872 -2.4944 0.9488
11.7429 2.9371 -2.3425 0.9519
11.4355 3.9709 -2.3426 0.9519
11.0374 4.9732 -2.3427 0.9519
9.9823 6.8525 -2.3431 0.9519
9.3336 7.7144 -2.3433 0.9519
7.8194 9.2489 -2.3438 0.9519
5.0998 10.9898 -2.3446 0.9518
4.1019 11.4014 -2.3448 0.9518
3.0712 11.7227 -2.3451 0.9518
-0.1351 12.1220 -2.3460 0.9518
-1.2136 12.0633 -2.3462 0.9518
-3.3340 11.6597 -2.3468 0.9518
-4.3590 11.3179 -2.3470 0.9518
-6.2979 10.3677 -2.3475 0.9518
-9.5230 7.5202 -2.3482 0.9518
-10.1551 6.6432 -2.3483 0.9518
-10.7065 5.7132 -2.3484 0.9518
-12.8096 1.7228 -2.5012 0.9487
-12.9120 0.5758 -2.5012 0.9487
-12.9117 -0.5758 -2.5011 0.9487
-12.8088 -1.7226 -2.5011 0.9487
-12.2993 -3.9660 -2.5008 0.9487
-11.8968 -5.0446 -2.5007 0.9487
-11.3998 -6.0831 -2.5005 0.9487
-10.8122 -7.0730 -2.5003 0.9487
-10.1389 -8.0066 -2.5001 0.9487
-9.3852 -8.8764 -2.4998 0.9487
-6.7044 -11.0370 -2.4991 0.9487
-5.6948 -11.5886 -2.4988 0.9488
-4.6402 -12.0481 -2.4985 0.9488
-3.5490 -12.4118 -2.4982 0.9488
2.1459 -12.7218 -2.4967 0.9488
3.2693 -12.4789 -2.4964 0.9488
4.3666 -12.1370 -2.4961 0.9488
9.1673 -9.0657 -2.4950 0.9488
11.2348 -6.3206 -2.4946 0.9488
11.7524 -5.2953 -2.4945 0.9488
12.1767 -4.2282 -2.4944 0.9488
12.7332 -2.0022 -2.4944 0.9488
12.8868 0.2872 -2.4944 0.9488
11.6007 3.4574 -2.3425 0.9519
8.2233 8.8909 -2.3436 0.9519
1.4816 12.0297 -2.3455 0.9518
-2.8111 11.7959 -2.3466 0.9518
-3.8503 11.5002 -2.3469 0.9518
-6.7537 10.0774 -2.3476 0.9518
-7.6245 9.4370 -2.3478 0.9518
-8.4349 8.7216 -2.3480 0.9518
-9.8488 7.0887 -2.3483 0.9518
-11.6621 5.5706 -2.5011 0.9487
-12.7202 2.2917 -2.5012 0.9487
-12.8736 1.1504 -2.5012 0.9487
-11.8627 0.0000 -2.5009 0.9527
-11.6740 -2.1032 -2.5007 0.9527
-11.4400 -3.1337 -2.5006 0.9527
-8.9691 -7.7559 -2.4998 0.9527
-8.2425 -8.5227 -2.4996 0.9527
-7.4505 -9.2216 -2.4993 0.9527
-0.6595 -11.8279 -2.4974 0.9527
0.3958 -11.8384 -2.4972 0.9527
1.4478 -11.7549 -2.4969 0.9527
5.4569 -10.5064 -2.4959 0.9528
6.3698 -9.9782 -2.4957 0.9528
8.0369 -8.6894 -2.4953 0.9528
9.4491 -7.1259 -2.4950 0.9528
10.0453 -6.2562 -2.4949 0.9528
11.3404 -3.3798 -2.4947 0.9528
11.7599 -1.3155 -2.4947 0.9528
10.4980 3.6454 -2.3428 0.9556
9.1638 6.2906 -2.3433 0.9556
8.5682 7.0818 -2.3435 0.9556
7.1781 8.4903 -2.3439 0.9556
3.7653 10.4660 -2.3449 0.9555
2.8192 10.7607 -2.3451 0.9555
1.8504 10.9702 -2.3454 0.9555
-0.1240 11.1270 -2.3459 0.9555
-2.0953 10.9310 -2.3464 0.9555
-5.7806 9.5161 -2.3473 0.9555
-6.6051 8.9646 -2.3475 0.9555
-9.3207 6.0973 -2.3481 0.9555
-10.1330 5.4072 -2.4214 0.9541
-11.2903 3.6407 -2.5009 0.9527
-11.7570 1.5812 -2.5009 0.9527
-11.8510 0.5285 -2.5009 0.9527
-11.8508 -0.5284 -2.5009 0.9527
-11.5685 -2.6211 -2.5007 0.9527
-10.9194 -4.6302 -2.5004 0.9527
-10.4633 -5.5833 -2.5003 0.9527
-9.9241 -6.4920 -2.5001 0.9527
-9.3061 -7.3489 -2.4999 0.9527
-8.6143 -8.1474 -2.4997 0.9527
-7.8543 -8.8809 -2.4994 0.9527
-7.0320 -9.5438 -2.4992 0.9527
-5.2273 -10.6372 -2.4987 0.9527
-3.2577 -11.3930 -2.4981 0.9527
-2.2305 -11.6364 -2.4979 0.9527
-1.1858 -11.7875 -2.4976 0.9527
1.9699 -11.6781 -2.4968 0.9527
3.0011 -11.4552 -2.4965 0.9527
6.8078 -9.6841 -2.4956 0.9528
7.6421 -9.0391 -2.4954 0.9528
9.1225 -7.5399 -2.4951 0.9528
9.7569 -6.6977 -2.4950 0.9528
10.7890 -4.8613 -2.4948 0.9528
11.1786 -3.8816 -2.4947 0.9528
10.8895 2.2134 -2.3427 0.9556
9.9194 5.0125 -2.3430 0.9556
9.4345 5.8759 -2.3432 0.9556
8.2446 7.4568 -2.3436 0.9556
6.7931 8.8021 -2.3440 0.9556
2.3372 10.8762 -2.3453 0.9555
1.3600 11.0423 -2.3455 0.9555
-3.5341 10.5558 -2.3468 0.9555
-4.4600 10.2004 -2.3470 0.9555
-6.1990 9.2496 -2.3474 0.9555
-6.9982 8.6618 -2.3476 0.9555
-7.7419 8.0051 -2.3478 0.9555
-8.4242 7.2847 -2.3479 0.9555
-9.5833 5.6762 -2.3481 0.9555
-11.1168 4.1400 -2.5009 0.9527
-11.4413 3.1341 -2.5009 0.9527
-11.8157 1.0559 -2.5009 0.9527
-10.9561 0.0000 -2.5006 0.9560
-10.5658 -2.8943 -2.5004 0.9560
-10.2658 -3.8230 -2.5003 0.9561
-9.4242 -5.5819 -2.5000 0.9561
-8.8893 -6.3981 -2.4998 0.9561
-6.8814 -8.5172 -2.4992 0.9561
-4.3854 -10.0298 -2.4985 0.9561
-2.5371 -10.6462 -2.4980 0.9561
-1.5793 -10.8287 -2.4977 0.9561
1.3373 -10.8578 -2.4970 0.9561
4.1572 -10.1159 -2.4963 0.9561
5.0406 -9.7049 -2.4961 0.9561
6.6805 -8.6561 -2.4957 0.9561
7.4239 -8.0267 -2.4955 0.9561
8.1084 -7.3336 -2.4954 0.9561
8.7285 -6.5824 -2.4952 0.9561
10.7119 -2.1773 -2.4949 0.9561
10.9283 -0.2435 -2.4949 0.9561
10.9068 0.7302 -2.4950 0.9561
9.6974 3.3673 -2.3430 0.9588
9.3597 4.2173 -2.3431 0.9588
8.9478 5.0340 -2.3433 0.9588
7.3016 7.2207 -2.3438 0.9587
6.6305 7.8426 -2.3440 0.9587
5.1359 8.8956 -2.3444 0.9587
4.3241 9.3183 -2.3447 0.9587
0.8006 10.2457 -2.3456 0.9587
-2.8265 9.8849 -2.3466 0.9587
-3.6954 9.5949 -2.3468 0.9587
-4.5351 9.2287 -2.3470 0.9587
-5.3390 8.7892 -2.3472 0.9587
-6.1005 8.2797 -2.3473 0.9587
-7.4728 7.0678 -2.3477 0.9587
-9.6656 5.1577 -2.5005 0.9560
-10.4274 3.3624 -2.5007 0.9560
-10.6854 2.4210 -2.5007 0.9560
-10.8585 1.4603 -2.5007 0.9560
-10.8579 -1.4602 -2.5006 0.9560
-10.0850 -4.2764 -2.5002 0.9561
-9.6638 -5.1568 -2.5001 0.9561
-9.1658 -5.9960 -2.4999 0.9561
-8.5952 -6.7875 -2.4997 0.9561
-7.9563 -7.5250 -2.4995 0.9561
-7.2543 -8.2026 -2.4993 0.9561
-4.8281 -9.8249 -2.4986 0.9561
-2.0602 -10.7481 -2.4979 0.9561
-1.0953 -10.8877 -2.4976 0.9561
0.8523 -10.9072 -2.4971 0.9561
1.8195 -10.7870 -2.4968 0.9561
3.7026 -10.2915 -2.4964 0.9561
4.6035 -9.9203 -2.4962 0.9561
5.4677 -9.4704 -2.4959 0.9561
6.2885 -8.9454 -2.4958 0.9561
7.0592 -8.3497 -2.4956 0.9561
8.4268 -6.9649 -2.4953 0.9561
9.5274 -5.3600 -2.4951 0.9561
10.6043 -2.6523 -2.4949 0.9561
10.7982 -1.6979 -2.4949 0.9561
9.8376 2.9319 -2.3430 0.9588
9.5381 3.7961 -2.3431 0.9588
9.1629 4.6302 -2.3432 0.9588
7.6157 6.8880 -2.3437 0.9587
6.2748 8.1305 -2.3441 0.9587
5.5268 8.6575 -2.3443 0.9587
3.0440 9.8130 -2.3450 0.9587
2.1588 10.0461 -2.3453 0.9587
0.3434 10.2717 -2.3458 0.9587
-0.5722 10.2626 -2.3460 0.9587
-2.3832 10.0005 -2.3465 0.9587
-4.1193 9.4212 -2.3469 0.9587
-4.9419 9.0179 -2.3471 0.9587
-6.4635 8.0000 -2.3474 0.9587
-7.7805 6.7281 -2.3477 0.9587
-8.3488 6.0092 -2.3478 0.9587
-8.8509 5.2424 -2.3479 0.9587
-9.8859 4.7221 -2.5006 0.9560
-10.7827 1.9426 -2.5007 0.9560
-10.9127 0.9752 -2.5007 0.9560
-10.1727 0.0000 -2.5004 0.9590
-10.0110 -1.8035 -2.5003 0.9590
-9.1776 -4.3837 -2.5000 0.9590
-8.2539 -5.9408 -2.4997 0.9590
-5.6599 -8.4451 -2.4989 0.9590
-4.8853 -8.9146 -2.4987 0.9590
-4.0721 -9.3131 -2.4984 0.9590
-3.2267 -9.6377 -2.4982 0.9590
-2.3559 -9.8858 -2.4980 0.9590
-1.4665 -10.0552 -2.4977 0.9590
0.3395 -10.1540 -2.4973 0.9590
1.2418 -10.0826 -2.4970 0.9590
2.1341 -9.9311 -2.4968 0.9590
3.8604 -9.3938 -2.4964 0.9590
4.6808 -9.0122 -2.4962 0.9590
5.4640 -8.5592 -2.4960 0.9590
7.5298 -6.8103 -2.4955 0.9590
9.0604 -4.5784 -2.4952 0.9590
9.4317 -3.7537 -2.4952 0.9590
9.9476 -2.0219 -2.4951 0.9590
10.0881 -1.1285 -2.4951 0.9590
10.1486 -0.2261 -2.4951 0.9590
9.2476 2.3130 -2.3431 0.9615
8.3092 4.6747 -2.3434 0.9615
7.8607 5.3961 -2.3436 0.9615
6.7804 6.7053 -2.3439 0.9615
5.4850 7.8025 -2.3443 0.9615
4.7692 8.2605 -2.3445 0.9615
2.4180 9.2295 -2.3452 0.9615
1.5871 9.4090 -2.3454 0.9615
-0.1063 9.5432 -2.3458 0.9615
-1.7970 9.3748 -2.3463 0.9614
-2.6245 9.1785 -2.3465 0.9614
-4.2110 8.5691 -2.3469 0.9614
-5.6644 7.6879 -2.3472 0.9614
-6.3266 7.1536 -2.3474 0.9614
-6.9386 6.5625 -2.3475 0.9614
-9.3653 3.9713 -2.5004 0.9590
-9.6818 3.1220 -2.5005 0.9590
-9.9214 2.2479 -2.5005 0.9590
-10.0821 1.3559 -2.5005 0.9590
-10.1625 -0.4531 -2.5004 0.9590
-9.6807 -3.1216 -2.5002 0.9590
-8.9730 -4.7881 -2.4999 0.9590
-8.5107 -5.5674 -2.4998 0.9590
-7.3876 -6.9872 -2.4994 0.9590
-6.7359 -7.6163 -2.4992 0.9590
-3.6530 -9.4849 -2.4983 0.9590
-1.9131 -9.9804 -2.4978 0.9590
-1.0171 -10.1101 -2.4976 0.9590
1.6896 -10.0168 -2.4969 0.9590
4.2749 -9.2121 -2.4963 0.9590
5.0775 -8.7944 -2.4961 0.9590
5.8397 -8.3070 -2.4959 0.9590
8.8476 -4.9775 -2.4953 0.9590
10.0278 -1.5768 -2.4951 0.9590
10.1284 -0.6780 -2.4951 0.9590
8.8574 3.5252 -2.3432 0.9615
8.0930 5.0404 -2.3435 0.9615
6.4752 7.0009 -2.3440 0.9615
4.3967 8.4651 -2.3446 0.9615
3.6261 8.8236 -2.3448 0.9615
1.1664 9.4708 -2.3455 0.9615
0.3189 9.5379 -2.3457 0.9615
-2.2129 9.2859 -2.3464 0.9614
-3.8249 8.7479 -2.3468 0.9614
-4.5887 8.3734 -2.3470 0.9614
-5.3162 7.9323 -2.3471 0.9614
-6.6392 6.8649 -2.3474 0.9614
-7.2242 6.2471 -2.3476 0.9614
-9.8113 2.6877 -2.5005 0.9590
-9.4508 -0.8445 -2.5002 0.9615
-9.3379 -1.6823 -2.5002 0.9615
-9.1508 -2.5066 -2.5001 0.9615
-8.8910 -3.3110 -2.5000 0.9615
-8.1622 -4.8345 -2.4997 0.9615
-7.6991 -5.5414 -2.4996 0.9615
-7.1748 -6.2043 -2.4994 0.9615
-5.9602 -7.3770 -2.4990 0.9615
-4.5571 -8.3155 -2.4986 0.9615
-3.7985 -8.6874 -2.4984 0.9615
-3.0100 -8.9902 -2.4982 0.9615
-2.1976 -9.2216 -2.4980 0.9615
-1.3680 -9.3798 -2.4977 0.9615
0.3167 -9.4721 -2.4973 0.9616
1.1584 -9.4054 -2.4971 0.9616
1.9908 -9.2642 -2.4969 0.9616
2.8072 -9.0495 -2.4967 0.9616
3.6013 -8.7631 -2.4965 0.9616
4.3666 -8.4072 -2.4963 0.9616
5.0972 -7.9846 -2.4961 0.9616
5.7873 -7.4988 -2.4960 0.9616
6.4314 -6.9535 -2.4958 0.9616
7.5617 -5.7025 -2.4956 0.9616
8.0389 -5.0066 -2.4955 0.9616
8.7988 -3.5018 -2.4953 0.9616
9.0754 -2.7047 -2.4953 0.9616
9.4489 0.6326 -2.4954 0.9616
14.0372 2.2073 -3.7442 0.9429
13.7854 3.4479 -3.7444 0.9429
8.4010 2.9172 -2.3433 0.9639
8.1084 3.6535 -2.3434 0.9639
7.3330 5.0339 -2.3437 0.9639
6.3252 6.2551 -2.3440 0.9639
5.1167 7.2786 -2.3444 0.9639
3.7457 8.0718 -2.3448 0.9639
3.0127 8.3739 -2.3450 0.9639
2.2556 8.6096 -2.3452 0.9639
1.4805 8.7770 -2.3454 0.9639
-1.6762 8.7449 -2.3462 0.9638
-3.2007 8.3104 -2.3466 0.9638
-5.2837 7.1711 -2.3471 0.9638
-6.4721 6.1213 -2.3474 0.9638
-6.9916 5.5212 -2.3475 0.9638
-8.7356 3.7043 -2.5002 0.9615
-9.0308 2.9121 -2.5003 0.9615
-9.2542 2.0968 -2.5003 0.9615
-9.4041 1.2647 -2.5003 0.9615
-9.4792 -0.4227 -2.5002 0.9615
-9.4037 -1.2646 -2.5002 0.9615
-9.2535 -2.0965 -2.5001 0.9615
-8.7345 -3.7037 -2.4999 0.9615
-6.2832 -7.1045 -2.4991 0.9615
-1.7846 -9.3100 -2.4978 0.9615
-0.9488 -9.4310 -2.4976 0.9616
-0.1056 -9.4772 -2.4974 0.9616
0.7383 -9.4481 -2.4972 0.9616
1.5762 -9.3441 -2.4970 0.9616
2.4014 -9.1660 -2.4968 0.9616
5.4477 -7.7494 -2.4960 0.9616
6.7346 -6.6599 -2.4957 0.9616
7.8080 -5.3599 -2.4955 0.9616
8.2538 -4.6435 -2.4954 0.9616
8.9459 -3.1064 -2.4953 0.9616
9.3549 -1.4709 -2.4953 0.9616
9.4676 0.2110 -2.4953 0.9616
9.4115 1.0528 -2.4954 0.9616
13.9251 2.8304 -3.7443 0.9429
8.5225 2.5400 -2.3433 0.9639
8.2629 3.2886 -2.3434 0.9639
7.1017 5.3557 -2.3438 0.9639
6.5973 5.9669 -2.3439 0.9639
5.4356 7.0431 -2.3443 0.9639
1.8699 8.7019 -2.3453 0.9639
0.2975 8.8972 -2.3457 0.9638
-2.8272 8.4445 -2.3465 0.9638
-3.5679 8.1599 -2.3467 0.9638
-4.9588 7.3991 -2.3470 0.9638
-5.5980 6.9288 -2.3472 0.9638
-6.7385 5.8271 -2.3474 0.9638
-7.2307 5.2044 -2.3475 0.9638
-8.1636 4.8354 -2.5001 0.9615
-8.5618 4.0897 -2.5002 0.9615
-9.1516 2.5069 -2.5003 0.9615
-9.4511 0.8446 -2.5003 0.9615
-5.0319 -0.0000 -1.4157 0.9793
-3.9277 -0.3510 -1.1095 0.9837
-8.3263 -3.1007 -2.4998 0.9638
-7.6438 -4.5274 -2.4996 0.9638
-6.7192 -5.8103 -2.4993 0.9638
-6.1750 -6.3849 -2.4991 0.9638
-4.9443 -7.3775 -2.4988 0.9638
-4.2678 -7.7877 -2.4986 0.9638
-2.8189 -8.4196 -2.4982 0.9638
-1.2812 -8.7846 -2.4977 0.9638
1.0849 -8.8087 -2.4971 0.9638
1.8645 -8.6765 -2.4969 0.9638
2.6291 -8.4755 -2.4967 0.9638
3.3728 -8.2072 -2.4966 0.9638
4.0896 -7.8740 -2.4964 0.9638
4.7739 -7.4782 -2.4962 0.9638
5.4203 -7.0232 -2.4961 0.9638
6.0235 -6.5126 -2.4959 0.9638
6.5789 -5.9503 -2.4958 0.9638
7.0822 -5.3409 -2.4957 0.9638
7.5291 -4.6892 -2.4956 0.9638
7.9164 -4.0003 -2.4956 0.9638
8.6916 -1.7666 -2.4955 0.9638
8.8498 0.5925 -2.4955 0.9638
8.7621 1.3778 -2.4956 0.9638
7.8683 2.7322 -2.3435 0.9660
7.5942 3.4218 -2.3436 0.9660
6.8679 4.7146 -2.3438 0.9660
5.9240 5.8584 -2.3441 0.9660
4.1667 7.2169 -2.3446 0.9660
1.3865 8.2199 -2.3454 0.9660
0.6495 8.3114 -2.3456 0.9660
-0.8346 8.2962 -2.3460 0.9659
-1.5698 8.1897 -2.3462 0.9659
-4.3305 7.1290 -2.3468 0.9659
-6.5475 5.1705 -2.3473 0.9659
-7.8393 4.1832 -2.5000 0.9638
-8.1807 3.4689 -2.5001 0.9638
-8.6664 1.9636 -2.5001 0.9637
-8.8771 0.3959 -2.5001 0.9637
-3.7396 -0.5029 -1.0616 0.9844
-3.7659 -0.8532 -1.0864 0.9841
-7.8382 -4.1826 -2.4996 0.9638
-7.4344 -4.8633 -2.4995 0.9638
-6.9716 -5.5054 -2.4994 0.9638
-5.8842 -6.6534 -2.4990 0.9638
-5.2683 -7.1502 -2.4988 0.9638
-4.6106 -7.5901 -2.4987 0.9638
-3.1913 -8.2860 -2.4983 0.9638
-0.0989 -8.8758 -2.4974 0.9638
2.2490 -8.5845 -2.4968 0.9638
4.4362 -7.6837 -2.4963 0.9638
6.3075 -6.2376 -2.4959 0.9638
6.8373 -5.6512 -2.4958 0.9638
7.3129 -5.0200 -2.4957 0.9638
7.7304 -4.3491 -2.4956 0.9638
8.0867 -3.6437 -2.4955 0.9638
8.3787 -2.9094 -2.4955 0.9638
8.6043 -2.1521 -2.4955 0.9638
8.8496 -0.5924 -2.4955 0.9638
8.8673 0.1976 -2.4955 0.9638
8.8147 0.9861 -2.4955 0.9638
13.0421 2.6509 -3.7445 0.9462
7.4345 3.7568 -2.3436 0.9660
7.0709 4.4038 -2.3437 0.9660
6.6513 5.0160 -2.3439 0.9660
5.0908 6.5964 -2.3444 0.9660
4.4838 7.0238 -2.3445 0.9660
2.4695 7.9608 -2.3451 0.9660
0.2786 8.3324 -2.3457 0.9660
-0.4642 8.3249 -2.3459 0.9659
-1.2034 8.2512 -2.3461 0.9659
-1.9332 8.1119 -2.3463 0.9659
-2.6477 7.9083 -2.3464 0.9659
-4.0085 7.3146 -2.3468 0.9659
-4.6439 6.9292 -2.3469 0.9659
-5.2425 6.4887 -2.3470 0.9659
-6.3105 5.4569 -2.3473 0.9659
-7.6451 4.5282 -2.5000 0.9638
-8.0180 3.8299 -2.5001 0.9638
-8.3272 3.1011 -2.5001 0.9637
-8.5703 2.3477 -2.5001 0.9637
-8.8507 0.7909 -2.5001 0.9637
-3.9677 0.0000 -1.1878 0.9836
-3.4925 -0.9567 -1.0841 0.9850
-5.2456 -6.4925 -2.4989 0.9657
-4.6466 -6.9331 -2.4987 0.9658
-2.6492 -7.9127 -2.4981 0.9658
-1.9342 -8.1164 -2.4979 0.9658
1.0196 -8.2785 -2.4972 0.9658
1.7523 -8.1543 -2.4970 0.9658
2.4709 -7.9654 -2.4968 0.9658
4.4867 -7.0283 -2.4963 0.9658
5.0941 -6.6006 -2.4962 0.9658
5.6611 -6.1207 -2.4960 0.9658
7.0762 -4.4071 -2.4958 0.9658
7.4402 -3.7597 -2.4957 0.9658
7.9887 -2.3808 -2.4956 0.9658
8.1688 -1.6604 -2.4956 0.9658
8.2842 -0.9267 -2.4956 0.9658
8.3174 0.5568 -2.4957 0.9658
8.2351 1.2949 -2.4957 0.9658
7.1374 3.2160 -2.3437 0.9678
6.8231 3.8387 -2.3438 0.9678
6.4547 4.4310 -2.3439 0.9678
6.0351 4.9881 -2.3440 0.9678
4.5037 6.4066 -2.3445 0.9678
2.6517 7.3705 -2.3450 0.9678
1.9853 7.5779 -2.3452 0.9678
-0.0873 7.8349 -2.3458 0.9678
-0.7843 7.7967 -2.3459 0.9678
-1.4753 7.6965 -2.3461 0.9678
-3.4570 7.0347 -2.3466 0.9678
-4.0696 6.6995 -2.3468 0.9678
-4.6500 6.3111 -2.3469 0.9678
-5.6959 5.3871 -2.3471 0.9678
-6.1641 4.8678 -2.3514 0.9677
-6.9876 4.5711 -2.4998 0.9657
-7.3670 3.9312 -2.4999 0.9657
-7.9475 2.5628 -2.5000 0.9657
-8.1442 1.8452 -2.5000 0.9657
-8.2761 1.1130 -2.5000 0.9657
-4.8506 0.2163 -1.4536 0.9799
-3.5144 -0.4727 -1.0616 0.9853
-3.4642 -0.7849 -1.0634 0.9853
-7.6869 -3.2595 -2.4997 0.9657
-6.9865 -4.5703 -2.4994 0.9657
-6.5516 -5.1737 -2.4993 0.9657
-6.0648 -5.7360 -2.4991 0.9657
-5.5298 -6.2526 -2.4990 0.9657
-4.3329 -7.1330 -2.4986 0.9658
-2.9991 -7.7870 -2.4982 0.9658
-2.2940 -8.0225 -2.4980 0.9658
-1.5707 -8.1941 -2.4978 0.9658
-0.8351 -8.3008 -2.4976 0.9658
-0.0929 -8.3415 -2.4974 0.9658
0.6498 -8.3160 -2.4973 0.9658
1.3873 -8.2246 -2.4971 0.9658
2.1137 -8.0679 -2.4969 0.9658
4.1693 -7.2214 -2.4964 0.9658
5.3830 -6.3670 -2.4961 0.9658
5.9280 -5.8623 -2.4960 0.9658
6.8730 -4.7180 -2.4958 0.9658
7.6002 -3.4245 -2.4957 0.9658
8.2347 -1.2948 -2.4956 0.9658
8.3173 -0.5567 -2.4956 0.9658
8.3339 0.1857 -2.4956 0.9658
8.2845 0.9268 -2.4957 0.9658
11.9875 3.5727 -3.7448 0.9491
6.9872 3.5308 -2.3437 0.9678
6.6455 4.1389 -2.3438 0.9678
5.3169 5.7486 -2.3443 0.9678
4.2140 6.6011 -2.3446 0.9678
2.9773 7.2447 -2.3449 0.9678
2.3208 7.4816 -2.3451 0.9678
0.2618 7.8308 -2.3457 0.9678
-0.4362 7.8236 -2.3459 0.9678
-1.1309 7.7543 -2.3460 0.9678
-2.4882 7.4320 -2.3464 0.9678
-3.1400 7.1815 -2.3465 0.9678
-4.3641 6.5118 -2.3468 0.9678
-5.4501 5.6354 -2.3471 0.9678
-5.9303 5.1282 -2.3472 0.9678
-7.1844 4.2554 -2.4999 0.9657
-7.5348 3.5991 -2.4999 0.9657
-7.8254 2.9143 -2.5000 0.9657
-8.0538 2.2062 -2.5000 0.9657
-8.3174 0.7432 -2.5000 0.9657
-3.7562 0.0000 -1.1929 0.9844
-3.2843 -0.5917 -1.0598 0.9861
-7.3758 -2.7468 -2.4996 0.9675
-6.7713 -4.0106 -2.4994 0.9675
-5.4702 -5.6562 -2.4990 0.9675
-3.7808 -6.8990 -2.4985 0.9675
-2.4973 -7.4590 -2.4981 0.9675
-1.8234 -7.6511 -2.4979 0.9675
-1.1350 -7.7824 -2.4977 0.9675
-0.4378 -7.8520 -2.4976 0.9675
0.2628 -7.8592 -2.4974 0.9675
0.9612 -7.8041 -2.4972 0.9675
2.9882 -7.2714 -2.4967 0.9675
3.6233 -6.9762 -2.4965 0.9675
4.2296 -6.6256 -2.4964 0.9675
4.8023 -6.2225 -2.4963 0.9676
5.3368 -5.7701 -2.4961 0.9676
5.8290 -5.2720 -2.4960 0.9676
6.2749 -4.7321 -2.4959 0.9676
7.3016 -2.9059 -2.4958 0.9676
7.5311 -2.2445 -2.4957 0.9676
7.7634 1.2208 -2.4958 0.9676
11.4396 2.8613 -3.7449 0.9517
11.1398 3.8682 -3.7451 0.9517
6.7285 3.0318 -2.3438 0.9695
6.4323 3.6188 -2.3439 0.9695
4.7660 5.6373 -2.3444 0.9695
4.2456 6.0395 -2.3446 0.9695
3.6915 6.3939 -2.3447 0.9695
3.1080 6.6975 -2.3449 0.9695
1.8715 7.1435 -2.3452 0.9695
1.2284 7.2822 -2.3454 0.9695
0.5754 7.3632 -2.3456 0.9695
-0.7394 7.3497 -2.3459 0.9695
-2.0311 7.1031 -2.3462 0.9695
-2.6554 6.8946 -2.3464 0.9695
-3.2587 6.6313 -2.3465 0.9695
-5.3692 5.0781 -2.3470 0.9695
-6.9443 3.7056 -2.4998 0.9675
-7.4916 2.4158 -2.4999 0.9675
-7.6769 1.7394 -2.4999 0.9675
-4.3818 0.1954 -1.3930 0.9818
-3.4557 -0.1541 -1.0986 0.9856
-3.3189 -0.4463 -1.0635 0.9860
-3.2591 -0.7384 -1.0613 0.9861
-7.2460 -3.0725 -2.4995 0.9675
-5.7169 -5.4070 -2.4990 0.9675
-5.2127 -5.8941 -2.4989 0.9675
-3.4696 -7.0604 -2.4984 0.9675
-1.4807 -7.7245 -2.4978 0.9675
-0.7872 -7.8250 -2.4977 0.9675
-0.0876 -7.8634 -2.4975 0.9675
1.9926 -7.6055 -2.4969 0.9675
2.6614 -7.3975 -2.4968 0.9675
3.9304 -6.8076 -2.4965 0.9675
5.5885 -5.5265 -2.4961 0.9676
6.0579 -5.0070 -2.4960 0.9676
6.8493 -3.8533 -2.4958 0.9676
7.6236 -1.9068 -2.4957 0.9676
7.7014 1.5654 -2.4959 0.9676
6.8568 2.7290 -2.3437 0.9695
5.8930 4.4441 -2.3441 0.9695
5.0123 5.4192 -2.3443 0.9695
3.4031 6.5522 -2.3448 0.9695
2.8066 6.8296 -2.3450 0.9695
2.1878 7.0528 -2.3451 0.9695
-0.4112 7.3750 -2.3458 0.9695
-2.3455 7.0058 -2.3463 0.9695
-3.5510 6.4797 -2.3466 0.9695
-5.5902 4.8340 -2.3471 0.9695
-6.3882 4.5980 -2.4997 0.9675
-7.1026 3.3927 -2.4998 0.9675
-7.5918 2.0797 -2.4999 0.9675
-7.7468 1.3957 -2.4999 0.9675
-3.6184 -0.0000 -1.2157 0.9848
-3.2019 -0.2861 -1.0801 0.9865
-3.1483 -0.5672 -1.0748 0.9866
-3.1349 -0.8588 -1.0921 0.9864
-6.9716 -2.5962 -2.4995 0.9691
-6.7126 -3.2063 -2.4994 0.9691
-6.0372 -4.3453 -2.4992 0.9691
-5.1706 -5.3463 -2.4989 0.9691
-4.6739 -5.7849 -2.4988 0.9691
-4.1402 -6.1776 -2.4986 0.9691
0.9086 -7.3769 -2.4972 0.9691
2.2018 -7.0980 -2.4969 0.9691
2.8247 -6.8734 -2.4968 0.9691
3.4250 -6.5944 -2.4966 0.9691
5.0448 -5.4544 -2.4962 0.9691
5.5100 -4.9835 -2.4961 0.9691
6.6303 -3.3504 -2.4959 0.9691
6.9021 -2.7469 -2.4959 0.9691
7.2796 -1.4796 -2.4958 0.9691
7.3824 -0.8258 -2.4958 0.9691
7.4120 0.4962 -2.4959 0.9691
6.3603 2.8659 -2.3439 0.9710
5.3780 4.4450 -2.3442 0.9710
4.5051 5.3287 -2.3445 0.9710
4.0132 5.7089 -2.3446 0.9710
3.4894 6.0439 -2.3448 0.9710
2.9378 6.3308 -2.3449 0.9710
1.1611 6.8835 -2.3454 0.9710
0.5439 6.9600 -2.3456 0.9710
-0.0778 6.9813 -2.3457 0.9710
-0.6989 6.9471 -2.3459 0.9710
-1.3145 6.8578 -2.3460 0.9710
-1.9198 6.7140 -2.3462 0.9710
-2.5099 6.5169 -2.3463 0.9710
-3.0802 6.2680 -2.3465 0.9710
-3.6260 5.9693 -2.3466 0.9710
-4.1432 5.6232 -2.3467 0.9710
-5.8385 4.6106 -2.4995 0.9691
-6.5638 3.5026 -2.4997 0.9691
-6.8496 2.9045 -2.4997 0.9691
-7.0810 2.2834 -2.4997 0.9691
-4.1559 0.1853 -1.3977 0.9826
-3.2675 -0.1457 -1.0989 0.9863
-3.1639 -0.4255 -1.0726 0.9866
-3.1355 -0.7104 -1.0802 0.9865
-3.1418 -1.0131 -1.1091 0.9862
-6.8489 -2.9042 -2.4994 0.9691
-6.5630 -3.5021 -2.4993 0.9691
-6.2250 -4.0722 -2.4992 0.9691
-5.8375 -4.6098 -2.4991 0.9691
-4.4114 -5.9872 -2.4987 0.9691
-0.0828 -7.4329 -2.4975 0.9691
1.2362 -7.3288 -2.4971 0.9691
3.7153 -6.4350 -2.4965 0.9691
5.2827 -5.2241 -2.4962 0.9691
5.7264 -4.7330 -2.4961 0.9691
6.1248 -4.2044 -2.4960 0.9691
7.2065 -1.8024 -2.4958 0.9691
7.3383 -1.1538 -2.4958 0.9691
7.4119 -0.4961 -2.4958 0.9691
10.6826 3.1837 -3.7452 0.9541
10.3571 4.1221 -3.7453 0.9541
5.5705 4.2009 -2.3441 0.9710
5.1748 4.6803 -2.3443 0.9710
4.7379 5.1226 -2.3444 0.9710
2.6530 6.4557 -2.3450 0.9710
2.0680 6.6666 -2.3451 0.9710
1.4665 6.8247 -2.3453 0.9710
0.2333 6.9776 -2.3456 0.9710
-0.3887 6.9712 -2.3458 0.9710
-2.2171 6.6221 -2.3463 0.9710
-2.7978 6.3988 -2.3464 0.9710
-3.8884 5.8020 -2.3467 0.9710
-4.3896 5.4331 -2.3468 0.9710
-4.8560 5.0211 -2.3469 0.9710
-6.7134 3.2067 -2.4997 0.9691
-7.3223 1.3192 -2.4998 0.9691
-7.4106 0.6622 -2.4998 0.9691
-3.0442 -0.5484 -1.0968 0.9870
-3.0229 -0.8281 -1.1114 0.9868
-6.3602 -3.0380 -2.4993 0.9705
-4.8992 -5.0657 -2.4988 0.9705
-4.4286 -5.4813 -2.4987 0.9705
-2.8226 -6.4554 -2.4982 0.9705
-1.6331 -6.8527 -2.4979 0.9705
-1.0166 -6.9704 -2.4977 0.9705
-0.3921 -7.0327 -2.4976 0.9705
0.8609 -6.9899 -2.4973 0.9706
2.6765 -6.5129 -2.4968 0.9706
3.7885 -5.9345 -2.4965 0.9706
4.7803 -5.1683 -2.4963 0.9706
5.2211 -4.7222 -2.4962 0.9706
6.5402 -2.6029 -2.4960 0.9706
6.8980 -1.4021 -2.4959 0.9706
7.0234 0.4702 -2.4960 0.9706
6.8291 1.7081 -2.4961 0.9706
5.7614 3.2414 -2.3440 0.9723
5.4503 3.7414 -2.3441 0.9723
5.0959 4.2119 -2.3443 0.9723
4.7011 4.6490 -2.3444 0.9723
3.8027 5.4095 -2.3446 0.9723
3.3064 5.7268 -2.3448 0.9723
2.2389 6.2231 -2.3451 0.9723
1.6762 6.3981 -2.3452 0.9723
0.5153 6.5948 -2.3456 0.9723
-0.0737 6.6150 -2.3457 0.9723
-2.9185 5.9390 -2.3464 0.9723
-3.4357 5.6560 -2.3465 0.9723
-4.3845 4.9576 -2.3468 0.9723
-4.8085 4.5479 -2.3468 0.9723
-5.5319 4.3685 -2.4994 0.9705
-5.8990 3.8589 -2.4995 0.9705
-6.2192 3.3187 -2.4996 0.9705
-6.4900 2.7520 -2.4996 0.9705
-6.7093 2.1635 -2.4996 0.9705
-6.8752 1.5577 -2.4997 0.9705
-6.9866 0.9396 -2.4997 0.9705
-3.9464 0.1760 -1.4007 0.9834
-3.1623 -0.1410 -1.1224 0.9867
-3.0241 -0.6852 -1.0995 0.9869
-3.0191 -0.9735 -1.1248 0.9866
-6.4894 -2.7517 -2.4994 0.9705
-4.1799 -5.6730 -2.4986 0.9705
-3.6582 -6.0221 -2.4985 0.9705
-0.0785 -7.0430 -2.4975 0.9706
0.5487 -7.0215 -2.4973 0.9706
4.5454 -5.3763 -2.4964 0.9706
5.4262 -4.4848 -2.4962 0.9706
5.8037 -3.9839 -2.4961 0.9706
6.1351 -3.4515 -2.4960 0.9706
6.4178 -2.8917 -2.4960 0.9706
7.0233 -0.4701 -2.4959 0.9706
7.0374 0.1569 -2.4960 0.9706
6.9956 0.7826 -2.4960 0.9706
6.8983 1.4021 -2.4961 0.9706
9.8140 3.9059 -3.7454 0.9562
5.9000 2.9814 -2.3440 0.9723
5.6115 3.4949 -2.3441 0.9723
4.9034 4.4349 -2.3443 0.9723
4.4894 4.8539 -2.3444 0.9723
4.0398 5.2346 -2.3446 0.9723
3.5581 5.5737 -2.3447 0.9723
3.0481 5.8686 -2.3449 0.9723
2.5138 6.1170 -2.3450 0.9723
1.9595 6.3169 -2.3452 0.9723
0.8086 6.5651 -2.3455 0.9723
0.2211 6.6115 -2.3456 0.9723
-0.9548 6.5467 -2.3459 0.9723
-1.5338 6.4362 -2.3461 0.9723
-2.1007 6.2745 -2.3462 0.9723
-2.6510 6.0629 -2.3464 0.9723
-3.1802 5.8032 -2.3465 0.9723
-3.6843 5.4974 -2.3466 0.9723
-4.6011 4.7575 -2.3468 0.9723
-5.2218 4.5155 -2.4478 0.9711
-5.7211 4.1179 -2.4995 0.9705
-6.6062 2.4602 -2.4996 0.9705
-6.9378 1.2499 -2.4997 0.9705
-7.0215 0.6275 -2.4997 0.9705
-2.9938 -0.2675 -1.1224 0.9872
-4.6521 -4.8102 -2.4988 0.9718
-3.2154 -5.8674 -2.4984 0.9718
-1.5507 -6.5072 -2.4979 0.9718
-0.9653 -6.6189 -2.4978 0.9718
1.4050 -6.5381 -2.4971 0.9719
2.5416 -6.1847 -2.4969 0.9719
3.0819 -5.9336 -2.4967 0.9719
4.0847 -5.2927 -2.4965 0.9719
4.5394 -4.9079 -2.4964 0.9719
5.9661 -3.0148 -2.4961 0.9719
6.4060 -1.9092 -2.4960 0.9719
6.5505 -1.3314 -2.4960 0.9719
6.6035 1.0384 -2.4961 0.9719
6.4850 1.6220 -2.4962 0.9719
9.1453 4.1207 -3.7456 0.9581
5.4711 3.0780 -2.3441 0.9736
4.4642 4.4147 -2.3444 0.9735
4.0537 4.7948 -2.3445 0.9735
3.6111 5.1369 -2.3447 0.9735
3.1397 5.4382 -2.3448 0.9735
2.6434 5.6964 -2.3450 0.9735
2.1260 5.9095 -2.3451 0.9735
1.0447 6.1935 -2.3454 0.9735
0.4893 6.2623 -2.3455 0.9735
-0.0700 6.2814 -2.3457 0.9735
-1.1827 6.1703 -2.3460 0.9735
-2.7713 5.6395 -2.3464 0.9735
-3.2624 5.3707 -2.3465 0.9735
-3.7277 5.0593 -2.3466 0.9735
-4.1633 4.7076 -2.3467 0.9735
-4.6792 4.4256 -2.4050 0.9729
-5.9054 3.1513 -2.4995 0.9718
-6.3708 2.0543 -2.4995 0.9718
-6.6341 0.8922 -2.4996 0.9718
-3.7910 0.1690 -1.4170 0.9839
-3.0832 -0.1375 -1.1525 0.9869
-2.9640 -0.3986 -1.1167 0.9873
-2.9258 -0.6629 -1.1202 0.9873
-2.9106 -0.9385 -1.1419 0.9870
-6.1620 -2.6129 -2.4993 0.9718
-5.6007 -3.6637 -2.4991 0.9718
-5.2521 -4.1475 -2.4990 0.9718
-4.8619 -4.5983 -2.4989 0.9718
-3.9691 -5.3869 -2.4986 0.9718
-1.8391 -6.4318 -2.4980 0.9718
-0.6695 -6.6552 -2.4977 0.9718
0.5212 -6.6677 -2.4974 0.9718
1.1123 -6.5944 -2.4972 0.9718
3.3431 -5.7903 -2.4967 0.9719
3.8450 -5.4696 -2.4965 0.9719
4.7534 -4.7008 -2.4963 0.9719
5.1528 -4.2589 -2.4963 0.9719
6.4847 -1.6219 -2.4960 0.9719
6.6033 -1.0383 -2.4960 0.9719
6.6695 -0.4464 -2.4960 0.9719
6.6431 0.7432 -2.4961 0.9719
6.4064 1.9093 -2.4962 0.9719
5.6027 2.8312 -2.3441 0.9736
5.3287 3.3188 -2.3442 0.9736
4.6563 4.2114 -2.3444 0.9735
2.8944 5.5728 -2.3449 0.9735
2.3871 5.8087 -2.3450 0.9735
0.7678 6.2341 -2.3455 0.9735
-1.4565 6.1116 -2.3460 0.9735
-3.0199 5.5106 -2.3464 0.9735
-3.4985 5.2202 -2.3465 0.9735
-3.9494 4.8883 -2.3466 0.9735
-4.3690 4.5175 -2.3467 0.9735
-5.0628 4.3780 -2.4993 0.9718
-5.7591 3.4112 -2.4994 0.9718
-6.0400 2.8851 -2.4995 0.9718
-6.5878 1.1869 -2.4996 0.9718
-2.9005 -0.2592 -1.1429 0.9876
-2.8528 -1.0624 -1.1947 0.9870
-5.7459 -2.7446 -2.4992 0.9730
-5.4786 -3.2450 -2.4991 0.9730
-5.1679 -3.7196 -2.4990 0.9730
-4.8161 -4.1646 -2.4989 0.9730
-4.4261 -4.5765 -2.4987 0.9730
-3.0592 -5.5823 -2.4983 0.9730
-2.5501 -5.8321 -2.4982 0.9730
-0.9185 -6.2975 -2.4978 0.9730
1.8850 -6.0767 -2.4970 0.9730
2.9323 -5.6456 -2.4968 0.9730
3.4230 -5.3620 -2.4967 0.9730
4.3191 -4.6697 -2.4965 0.9730
5.3989 -3.3624 -2.4962 0.9730
5.6766 -2.8685 -2.4962 0.9730
6.0951 -1.8165 -2.4961 0.9730
6.2326 -1.2668 -2.4961 0.9730
6.2830 0.9880 -2.4962 0.9730
6.1703 1.5433 -2.4963 0.9730
9.0155 3.1306 -3.7456 0.9598
5.2056 2.9286 -2.3442 0.9747
4.2475 4.2004 -2.3445 0.9747
2.9873 5.1741 -2.3448 0.9747
2.5151 5.4198 -2.3450 0.9747
2.0228 5.6225 -2.3451 0.9747
1.5144 5.7805 -2.3453 0.9746
0.4656 5.9582 -2.3455 0.9746
-0.0666 5.9763 -2.3457 0.9746
-1.1253 5.8705 -2.3459 0.9746
-1.6434 5.7474 -2.3461 0.9746
-3.1039 5.1098 -2.3464 0.9746
-3.5465 4.8134 -2.3465 0.9746
-3.9610 4.4789 -2.3466 0.9746
-4.9976 3.9466 -2.4993 0.9730
-5.3292 3.4862 -2.4993 0.9730
-5.8631 2.4862 -2.4994 0.9730
-6.0612 1.9545 -2.4995 0.9730
-6.3117 0.8488 -2.4995 0.9730
-2.8403 -0.9159 -1.1712 0.9873
-2.8717 -1.2177 -1.2242 0.9867
-5.3285 -3.4858 -2.4990 0.9730
-4.9969 -3.9460 -2.4989 0.9730
-4.2177 -4.7690 -2.4987 0.9730
-3.7763 -5.1252 -2.4985 0.9730
-3.3050 -5.4407 -2.4984 0.9730
-2.2877 -5.9398 -2.4981 0.9730
-1.7498 -6.1195 -2.4980 0.9730
0.4957 -6.3439 -2.4974 0.9730
1.0583 -6.2742 -2.4972 0.9730
2.1538 -5.9865 -2.4970 0.9730
2.6779 -5.7708 -2.4968 0.9730
3.1808 -5.5092 -2.4967 0.9730
3.6583 -5.2040 -2.4966 0.9730
4.1068 -4.8576 -2.4965 0.9730
4.9027 -4.0522 -2.4963 0.9730
5.2438 -3.5996 -2.4963 0.9730
5.5432 -3.1186 -2.4962 0.9730
5.7987 -2.6128 -2.4962 0.9730
6.2828 -0.9879 -2.4961 0.9730
6.3458 -0.4248 -2.4961 0.9730
6.3585 0.1417 -2.4961 0.9730
5.0701 3.1577 -2.3442 0.9747
4.7691 3.5966 -2.3443 0.9747
4.4302 4.0069 -2.3444 0.9747
3.6500 4.7294 -2.3447 0.9747
2.7539 5.3022 -2.3449 0.9747
2.2712 5.5266 -2.3450 0.9747
1.7704 5.7072 -2.3452 0.9747
0.1997 5.9732 -2.3456 0.9746
-0.8626 5.9147 -2.3459 0.9746
-1.3857 5.8147 -2.3460 0.9746
-3.3285 4.9665 -2.3465 0.9746
-4.8168 4.1653 -2.4992 0.9730
-5.1685 3.7201 -2.4993 0.9730
-5.4793 3.2454 -2.4994 0.9730
-5.9681 2.2226 -2.4994 0.9730
-6.2677 1.1292 -2.4995 0.9730
-2.8130 -0.2514 -1.1629 0.9879
-2.7831 -0.5014 -1.1645 0.9878
-2.7695 -0.7587 -1.1825 0.9877
-5.2216 -3.0928 -2.4990 0.9741
-4.5901 -3.9692 -2.4988 0.9741
-3.3779 -5.0402 -2.4984 0.9741
-0.3377 -6.0560 -2.4976 0.9741
0.2027 -6.0616 -2.4975 0.9741
1.2741 -5.9290 -2.4972 0.9741
2.7948 -5.3809 -2.4968 0.9741
3.2625 -5.1106 -2.4967 0.9741
4.1166 -4.4508 -2.4965 0.9741
4.8403 -3.6502 -2.4964 0.9741
5.6323 -2.2416 -2.4962 0.9741
5.8095 -1.7314 -2.4962 0.9741
6.0244 -0.6739 -2.4962 0.9741
6.0605 -0.1350 -2.4962 0.9741
5.9886 0.9417 -2.4963 0.9741
7.9283 4.4604 -3.7459 0.9614
4.6936 3.2220 -2.3443 0.9757
4.3884 3.6271 -2.3444 0.9757
4.0483 4.0035 -2.3445 0.9757
3.2747 4.6583 -2.3447 0.9757
2.8472 4.9316 -2.3449 0.9757
2.3971 5.1657 -2.3450 0.9757
1.9280 5.3589 -2.3451 0.9757
1.4434 5.5095 -2.3453 0.9757
0.9474 5.6164 -2.3454 0.9757
-0.0635 5.6960 -2.3457 0.9757
-0.5702 5.6681 -2.3458 0.9757
-1.0725 5.5952 -2.3459 0.9757
-1.5663 5.4778 -2.3460 0.9757
-2.0478 5.3169 -2.3462 0.9757
-2.9583 4.8700 -2.3464 0.9757
-3.3801 4.5876 -2.3465 0.9757
-3.7861 4.2810 -2.3534 0.9756
-5.3548 2.8575 -2.4993 0.9741
-5.7768 1.8628 -2.4994 0.9741
-5.9197 1.3412 -2.4994 0.9741
-3.5093 0.1565 -1.4465 0.9849
-2.9337 -0.1308 -1.2092 0.9874
-2.7947 -0.3759 -1.1611 0.9879
-2.7756 -0.6289 -1.1719 0.9878
-5.0785 -3.3222 -2.4990 0.9741
-4.4087 -4.1696 -2.4988 0.9741
-3.5992 -4.8848 -2.4985 0.9741
-3.1499 -5.1855 -2.4984 0.9741
-2.6758 -5.4450 -2.4982 0.9741
-2.1804 -5.6612 -2.4981 0.9741
-1.1419 -5.9574 -2.4978 0.9741
1.0087 -5.9800 -2.4973 0.9741
1.5369 -5.8662 -2.4971 0.9741
2.0528 -5.7059 -2.4970 0.9741
3.0317 -5.2510 -2.4968 0.9741
3.4869 -4.9601 -2.4967 0.9741
4.3107 -4.2630 -2.4965 0.9741
4.6729 -3.8622 -2.4964 0.9741
4.9980 -3.4309 -2.4963 0.9741
5.7266 -1.9885 -2.4962 0.9741
6.0484 -0.4049 -2.4962 0.9741
6.0605 0.1351 -2.4962 0.9741
5.9407 1.2075 -2.4963 0.9741
5.8098 1.7315 -2.4964 0.9741
4.8324 3.0097 -2.3443 0.9757
4.2226 3.8191 -2.3445 0.9757
3.0640 4.7997 -2.3448 0.9757
2.6248 5.0537 -2.3449 0.9757
2.1647 5.2675 -2.3451 0.9757
1.6874 5.4396 -2.3452 0.9757
0.1903 5.6931 -2.3456 0.9757
-0.3171 5.6877 -2.3457 0.9757
-1.3207 5.5420 -2.3460 0.9757
-3.1724 4.7336 -2.3464 0.9757
-4.1800 4.3221 -2.4759 0.9743
-5.2222 3.0931 -2.4993 0.9741
-5.4768 2.6161 -2.4993 0.9741
-5.8540 1.6036 -2.4994 0.9741
-5.9736 1.0762 -2.4994 0.9741
-3.9772 0.3554 -1.6443 0.9829
-2.7092 -0.7421 -1.2117 0.9878
-4.7018 -3.3841 -2.4989 0.9751
-4.3817 -3.7890 -2.4988 0.9751
-3.2246 -4.8114 -2.4984 0.9751
-2.7834 -5.0790 -2.4983 0.9751
-1.8386 -5.4914 -2.4980 0.9751
-0.8357 -5.7298 -2.4978 0.9751
0.1935 -5.7866 -2.4975 0.9751
1.2163 -5.6600 -2.4972 0.9751
1.7151 -5.5290 -2.4971 0.9751
3.1145 -4.8788 -2.4968 0.9751
3.5363 -4.5820 -2.4967 0.9751
3.9299 -4.2489 -2.4966 0.9751
5.1651 -2.6100 -2.4963 0.9751
5.5460 -1.6529 -2.4963 0.9751
5.7856 -0.1289 -2.4963 0.9751
5.7742 0.3866 -2.4963 0.9751
5.7169 0.8990 -2.4963 0.9751
5.4672 1.8985 -2.4965 0.9751
7.5687 4.2581 -3.7460 0.9629
4.4807 3.0758 -2.3444 0.9766
3.8647 3.8219 -2.3446 0.9766
3.5093 4.1509 -2.3447 0.9766
3.1261 4.4470 -2.3448 0.9766
2.7180 4.7078 -2.3449 0.9766
2.2884 4.9313 -2.3450 0.9766
1.8405 5.1157 -2.3451 0.9766
1.3779 5.2595 -2.3453 0.9766
0.9044 5.3615 -2.3454 0.9766
0.4236 5.4211 -2.3455 0.9766
-1.0238 5.3412 -2.3459 0.9766
-4.2091 3.9810 -2.4991 0.9751
-4.5469 3.5906 -2.4991 0.9751
-5.5144 1.7782 -2.4993 0.9751
-5.6509 1.2803 -2.4993 0.9751
-5.7424 0.7723 -2.4993 0.9751
-3.3811 0.1508 -1.4599 0.9854
-2.7402 -0.3685 -1.1926 0.9880
-2.7200 -0.6163 -1.2030 0.9879
-2.7334 -1.1590 -1.2807 0.9871
-5.1112 -2.7274 -2.4990 0.9751
-4.5463 -3.5901 -2.4988 0.9751
-3.8374 -4.3389 -2.4986 0.9751
-1.5921 -5.5678 -2.4980 0.9751
-1.0901 -5.6871 -2.4978 0.9751
1.9597 -5.4470 -2.4970 0.9751
2.8941 -5.0128 -2.4968 0.9751
3.3287 -4.7351 -2.4967 0.9751
4.1152 -4.0696 -2.4965 0.9751
4.7713 -3.2753 -2.4964 0.9751
5.0438 -2.8376 -2.4964 0.9751
5.7741 -0.3865 -2.4963 0.9751
5.6713 1.1528 -2.4964 0.9751
7.3716 4.5911 -3.7461 0.9629
4.0310 3.6459 -2.3445 0.9766
3.6907 3.9903 -2.3446 0.9766
2.9250 4.5820 -2.3448 0.9766
2.0665 5.0284 -2.3451 0.9766
1.6108 5.1928 -2.3452 0.9766
0.6647 5.3966 -2.3455 0.9766
0.1817 5.4346 -2.3456 0.9766
-1.7267 5.1575 -2.3461 0.9766
-2.1790 4.9835 -2.3462 0.9766
-2.6140 4.7700 -2.3463 0.9766
-3.0283 4.5186 -2.3464 0.9766
-3.4186 4.2313 -2.3465 0.9766
-4.3823 3.7896 -2.4991 0.9751
-4.7023 3.3846 -2.4992 0.9751
-5.2281 2.4973 -2.4993 0.9751
-5.4297 2.0221 -2.4993 0.9751
-5.5882 1.5308 -2.4993 0.9751
-5.7023 1.0273 -2.4993 0.9751
-2.9980 0.0000 -1.3528 0.9869
-2.7005 -0.2413 -1.2234 0.9882
-2.6738 -0.4817 -1.2259 0.9881
-2.6546 -0.7272 -1.2419 0.9880
-2.6607 -0.9909 -1.2811 0.9876
-2.6666 -1.2737 -1.3334 0.9871
-4.4948 -3.2351 -2.4988 0.9760
-3.8496 -3.9804 -2.4986 0.9760
-3.4799 -4.3071 -2.4985 0.9760
-3.0826 -4.5996 -2.4984 0.9760
-1.7576 -5.2498 -2.4980 0.9760
-0.7989 -5.4776 -2.4978 0.9760
-0.3082 -5.5267 -2.4976 0.9760
0.1850 -5.5319 -2.4975 0.9760
0.6766 -5.4932 -2.4974 0.9760
3.3807 -4.3804 -2.4967 0.9760
3.7570 -4.0620 -2.4966 0.9760
4.4175 -3.3313 -2.4965 0.9760
5.1404 -2.0458 -2.4964 0.9760
5.3020 -1.5801 -2.4963 0.9760
5.5311 -0.1232 -2.4963 0.9760
5.5202 0.3696 -2.4964 0.9760
7.5690 3.4105 -3.7460 0.9642
3.6946 3.6537 -2.3446 0.9775
2.5984 4.5006 -2.3449 0.9775
1.7595 4.8905 -2.3452 0.9775
0.4050 5.1824 -2.3455 0.9774
-0.5204 5.1726 -2.3458 0.9774
-1.8687 4.8521 -2.3461 0.9774
-2.2933 4.6667 -2.3462 0.9774
-2.6996 4.4443 -2.3463 0.9774
-3.6690 4.1486 -2.4989 0.9760
-4.0238 3.8057 -2.4990 0.9760
-5.0993 2.1623 -2.4992 0.9760
-5.2716 1.6999 -2.4992 0.9760
-5.4020 1.2240 -2.4993 0.9760
-3.2609 0.1454 -1.4728 0.9858
-2.7833 -0.1241 -1.2571 0.9878
-2.6870 -0.3614 -1.2234 0.9882
-2.6659 -0.6040 -1.2334 0.9881
-2.6574 -0.8569 -1.2599 0.9878
-2.6675 -1.1311 -1.3074 0.9874
-4.8861 -2.6073 -2.4990 0.9760
-4.6345 -3.0317 -2.4989 0.9760
-3.6684 -4.1479 -2.4986 0.9760
-3.2845 -4.4578 -2.4985 0.9760
-2.8746 -4.7322 -2.4983 0.9760
-2.4419 -4.9690 -2.4982 0.9760
-1.0421 -5.4368 -2.4978 0.9760
-0.5541 -5.5077 -2.4977 0.9760
0.4312 -5.5180 -2.4974 0.9760
1.8734 -5.2073 -2.4971 0.9760
2.3294 -5.0197 -2.4970 0.9760
2.7668 -4.7922 -2.4969 0.9760
4.5614 -3.1312 -2.4965 0.9760
5.0442 -2.2728 -2.4964 0.9760
5.3671 -1.3424 -2.4963 0.9760
5.4653 -0.8594 -2.4963 0.9760
5.5311 0.1233 -2.4964 0.9760
5.4983 0.6151 -2.4964 0.9760
5.4218 1.1020 -2.4964 0.9760
5.1407 2.0460 -2.4965 0.9760
7.4098 3.7443 -3.7460 0.9642
7.0473 4.3891 -3.7462 0.9642
4.1484 3.1285 -2.3445 0.9775
2.3954 4.6120 -2.3450 0.9775
1.0920 5.0818 -2.3453 0.9774
0.6354 5.1591 -2.3455 0.9774
0.1737 5.1954 -2.3456 0.9774
-1.6507 4.9304 -2.3460 0.9774
-2.8950 4.3196 -2.3463 0.9774
-3.8502 3.9811 -2.4990 0.9760
-4.1894 3.6227 -2.4990 0.9760
-4.4953 3.2355 -2.4991 0.9760
-4.9979 2.3873 -2.4992 0.9760
-5.4512 0.9821 -2.4993 0.9760
-2.6448 -0.2363 -1.2517 0.9883
-2.6016 -0.7127 -1.2715 0.9881
-4.3025 -3.0967 -2.4988 0.9768
-4.0096 -3.4672 -2.4987 0.9768
-3.3310 -4.1229 -2.4985 0.9768
-2.9507 -4.4028 -2.4984 0.9768
-2.1232 -4.8557 -2.4981 0.9768
-1.2284 -5.1548 -2.4979 0.9768
-0.7647 -5.2434 -2.4978 0.9768
1.1130 -5.1796 -2.4973 0.9768
3.5964 -3.8884 -2.4967 0.9769
4.9206 -1.9583 -2.4964 0.9769
5.1898 -1.0549 -2.4964 0.9769
5.2842 0.3537 -2.4964 0.9769
5.1379 1.2851 -2.4965 0.9769
4.8289 2.1759 -2.4966 0.9769
6.5523 4.4979 -3.7463 0.9655
3.8338 3.1687 -2.3445 0.9782
2.8608 4.0695 -2.3448 0.9782
2.4873 4.3082 -2.3449 0.9782
2.0941 4.5127 -2.3450 0.9782
0.8276 4.9063 -2.3454 0.9782
-0.4981 4.9514 -2.3457 0.9782
-0.9369 4.8877 -2.3459 0.9782
-1.3682 4.7851 -2.3460 0.9782
-1.7888 4.6445 -2.3461 0.9782
-2.1952 4.4671 -2.3462 0.9782
-2.5841 4.2541 -2.3463 0.9782
-3.5120 3.9711 -2.4989 0.9768
-4.4367 2.9023 -2.4991 0.9768
-5.1708 1.1716 -2.4992 0.9768
-5.2546 0.7067 -2.4992 0.9768
-3.1522 0.1406 -1.4873 0.9861
-2.6352 -0.3544 -1.2533 0.9883
-2.5994 -0.8382 -1.2874 0.9880
-2.5902 -1.3822 -1.3839 0.9871
-4.4362 -2.9020 -2.4988 0.9768
-3.1440 -4.2671 -2.4984 0.9768
-1.4569 -5.0950 -2.4979 0.9768
-0.5304 -5.2721 -2.4977 0.9768
0.4128 -5.2821 -2.4975 0.9768
1.3426 -5.1247 -2.4972 0.9768
2.2298 -4.8051 -2.4970 0.9768
3.0462 -4.3332 -2.4968 0.9768
3.7660 -3.7243 -2.4966 0.9769
4.3665 -2.9974 -2.4965 0.9769
4.6158 -2.5968 -2.4965 0.9769
4.8285 -2.1756 -2.4964 0.9769
5.1377 -1.2850 -2.4964 0.9769
5.2317 -0.8226 -2.4964 0.9769
5.2842 -0.3537 -2.4964 0.9769
5.2633 0.5888 -2.4964 0.9769
5.1900 1.0549 -2.4965 0.9769
4.9210 1.9585 -2.4966 0.9769
7.0930 3.5842 -3.7461 0.9655
6.7460 4.2015 -3.7462 0.9655
3.6889 3.3365 -2.3446 0.9782
3.3774 3.6517 -2.3447 0.9782
3.0392 3.9379 -2.3448 0.9782
2.6767 4.1930 -2.3449 0.9782
2.2930 4.4148 -2.3450 0.9782
1.4741 4.7519 -2.3452 0.9782
1.0453 4.8645 -2.3453 0.9782
0.6082 4.9385 -2.3455 0.9782
-0.2770 4.9686 -2.3457 0.9782
-0.7182 4.9244 -2.3458 0.9782
-1.1537 4.8412 -2.3459 0.9782
-1.9940 4.5603 -2.3461 0.9782
-2.3920 4.3649 -2.3462 0.9782
-3.6854 3.8107 -2.4989 0.9768
-4.5616 2.7019 -2.4991 0.9768
-4.9685 1.8503 -2.4992 0.9768
-5.1135 1.4008 -2.4992 0.9768
-5.2179 0.9401 -2.4992 0.9768
-3.7077 0.3313 -1.7547 0.9837
-2.8280 -0.0000 -1.3909 0.9875
-2.5698 -0.4630 -1.2843 0.9884
-2.5453 -0.9479 -1.3359 0.9880
-4.3712 -2.5890 -2.4988 0.9776
-3.8426 -3.3228 -2.4986 0.9776
-3.5315 -3.6515 -2.4986 0.9776
-3.1923 -3.9512 -2.4984 0.9776
-2.8279 -4.2195 -2.4983 0.9776
-2.4410 -4.4542 -2.4982 0.9776
-2.0347 -4.6536 -2.4981 0.9776
-1.6124 -4.8160 -2.4980 0.9776
0.6207 -5.0395 -2.4974 0.9776
1.0667 -4.9640 -2.4973 0.9776
1.9298 -4.6958 -2.4971 0.9776
2.3400 -4.5052 -2.4970 0.9776
3.1015 -4.0187 -2.4968 0.9776
3.4467 -3.7266 -2.4967 0.9776
4.3085 -2.6833 -2.4966 0.9776
4.8642 -1.4496 -2.4965 0.9776
4.9739 -1.0110 -2.4965 0.9776
5.0441 -0.5643 -2.4965 0.9776
4.9241 1.2317 -2.4966 0.9776
4.7951 1.6651 -2.4966 0.9776
6.2796 4.3107 -3.7463 0.9666
5.8712 4.8527 -3.7465 0.9666
3.3895 3.3520 -2.3447 0.9790
2.7417 3.9001 -2.3449 0.9790
2.0069 4.3248 -2.3451 0.9790
0.7931 4.7021 -2.3454 0.9790
0.3715 4.7542 -2.3455 0.9790
-0.0531 4.7687 -2.3456 0.9790
-0.4774 4.7452 -2.3457 0.9790
-0.8979 4.6841 -2.3458 0.9790
-1.7143 4.4511 -2.3460 0.9790
-2.4765 4.0769 -2.3462 0.9790
-3.0135 4.0900 -2.4988 0.9776
-3.6912 3.4911 -2.4989 0.9776
-4.6778 1.9836 -2.4991 0.9776
-4.8358 1.5594 -2.4991 0.9776
-5.0357 0.6772 -2.4991 0.9776
-3.0630 0.1366 -1.5081 0.9864
-2.6467 -0.1180 -1.3031 0.9883
-2.5845 -0.3476 -1.2826 0.9884
-2.5616 -0.5804 -1.2919 0.9884
-2.5441 -1.0788 -1.3592 0.9878
-3.9869 -3.1484 -2.4987 0.9776
-3.6907 -3.4906 -2.4986 0.9776
-2.6370 -4.3411 -2.4983 0.9776
-2.2401 -4.5584 -2.4982 0.9776
-1.8254 -4.7395 -2.4981 0.9776
-0.0566 -5.0775 -2.4976 0.9776
0.3956 -5.0622 -2.4975 0.9776
1.2867 -4.9114 -2.4972 0.9776
1.7187 -4.7772 -2.4971 0.9776
2.1370 -4.6051 -2.4970 0.9776
2.9194 -4.1529 -2.4968 0.9776
3.2774 -3.8764 -2.4968 0.9776
3.9125 -3.2338 -2.4966 0.9776
4.1847 -2.8726 -2.4966 0.9776
4.6276 -2.0851 -2.4965 0.9776
4.7948 -1.6649 -2.4965 0.9776
5.0442 0.5643 -2.4965 0.9776
4.9741 1.0110 -2.4965 0.9776
4.7162 1.8770 -2.4966 0.9776
4.5305 2.2894 -2.4967 0.9776
6.0814 4.5862 -3.7464 0.9666
3.5354 3.1976 -2.3446 0.9790
2.9127 3.7741 -2.3448 0.9790
2.5653 4.0185 -2.3449 0.9790
2.1976 4.2311 -2.3450 0.9790
1.0018 4.6620 -2.3453 0.9790
-0.6883 4.7193 -2.3458 0.9790
-1.1057 4.6395 -2.3459 0.9790
-2.2924 4.1831 -2.3462 0.9790
-2.7293 4.0724 -2.4112 0.9784
-4.1237 2.9681 -2.4990 0.9776
-4.3716 2.5893 -2.4990 0.9776
-5.0005 0.9009 -2.4991 0.9776
-3.6334 0.3247 -1.7942 0.9839
-2.5199 -0.4540 -1.3126 0.9886
-2.4994 -0.6847 -1.3286 0.9884
-2.4521 -1.4524 -1.4611 0.9873
-3.6865 -3.1879 -2.4986 0.9783
-3.3880 -3.5032 -2.4985 0.9783
-3.0627 -3.7907 -2.4984 0.9783
-2.7130 -4.0481 -2.4983 0.9783
-2.3418 -4.2733 -2.4982 0.9783
-1.5469 -4.6204 -2.4980 0.9783
-1.1295 -4.7395 -2.4979 0.9783
0.5955 -4.8348 -2.4974 0.9783
1.0234 -4.7624 -2.4973 0.9783
2.2450 -4.3224 -2.4970 0.9783
2.6207 -4.1053 -2.4969 0.9783
2.9756 -3.8556 -2.4968 0.9783
3.6119 -3.2667 -2.4967 0.9783
4.3463 -2.1963 -2.4966 0.9783
4.6668 -1.3908 -2.4965 0.9783
4.7720 -0.9699 -2.4965 0.9783
4.8588 0.3253 -2.4965 0.9783
4.8106 0.7564 -2.4966 0.9783
4.6005 1.5975 -2.4967 0.9783
6.3688 3.5830 -3.7463 0.9677
2.6304 3.7418 -2.3449 0.9797
1.9255 4.1493 -2.3451 0.9796
1.1594 4.4253 -2.3453 0.9796
-0.0510 4.5750 -2.3456 0.9796
-0.4580 4.5525 -2.3457 0.9796
-0.8614 4.4939 -2.3458 0.9796
-1.6447 4.2703 -2.3460 0.9796
-2.0183 4.1071 -2.3461 0.9796
-2.4422 4.0205 -2.4116 0.9791
-2.8911 3.9239 -2.4987 0.9783
-3.2290 3.6511 -2.4988 0.9783
-3.8254 3.0209 -2.4989 0.9783
-4.4878 1.9030 -2.4990 0.9783
-2.5877 -0.1154 -1.3280 0.9884
-2.5350 -0.3409 -1.3113 0.9886
-3.8250 -3.0205 -2.4987 0.9783
-3.5408 -3.3489 -2.4986 0.9783
-3.2286 -3.6506 -2.4985 0.9783
-2.8907 -3.9233 -2.4984 0.9783
-1.3395 -4.6846 -2.4979 0.9783
-0.4877 -4.8475 -2.4977 0.9783
-0.0543 -4.8714 -2.4976 0.9783
0.8102 -4.8034 -2.4974 0.9783
1.2345 -4.7120 -2.4973 0.9783
2.8009 -3.9843 -2.4969 0.9783
3.4628 -3.4244 -2.4967 0.9783
3.7537 -3.1025 -2.4967 0.9783
4.4398 -2.0005 -2.4965 0.9783
4.7241 -1.1815 -2.4965 0.9783
4.8105 -0.7564 -2.4965 0.9783
4.8588 -0.3252 -2.4965 0.9783
4.6670 1.3910 -2.4966 0.9783
4.5248 1.8009 -2.4967 0.9783
5.8346 4.4001 -3.7465 0.9677
3.1055 3.3577 -2.3447 0.9797
2.7944 3.6209 -2.3448 0.9797
1.7388 4.2310 -2.3451 0.9796
1.3553 4.3692 -2.3452 0.9796
0.9611 4.4727 -2.3453 0.9796
0.5592 4.5407 -2.3454 0.9796
0.1529 4.5726 -2.3456 0.9796
-0.2547 4.5683 -2.3457 0.9796
-1.0608 4.4512 -2.3459 0.9796
-3.3885 3.5037 -2.4988 0.9783
-3.9562 2.8475 -2.4989 0.9783
-4.5681 1.7012 -2.4991 0.9783
-3.5463 0.3169 -1.8253 0.9841
-2.4853 -0.2221 -1.3321 0.9887
-2.4501 -0.6712 -1.3561 0.9885
-2.4292 -1.1603 -1.4371 0.9879
-2.3944 -1.4182 -1.4856 0.9875
-3.7988 -2.7342 -2.4987 0.9790
-3.5403 -3.0614 -2.4986 0.9790
-2.2489 -4.1038 -2.4982 0.9790
-1.8747 -4.2875 -2.4981 0.9790
-1.4856 -4.4371 -2.4980 0.9790
-1.0847 -4.5516 -2.4979 0.9790
3.1757 -3.4335 -2.4968 0.9790
3.4687 -3.1372 -2.4968 0.9790
3.7340 -2.8160 -2.4967 0.9790
3.9698 -2.4724 -2.4966 0.9790
4.1740 -2.1092 -2.4966 0.9790
4.5829 -0.9315 -2.4966 0.9790
4.6476 -0.5199 -2.4966 0.9790
4.6754 -0.1042 -2.4966 0.9790
4.6662 0.3124 -2.4966 0.9790
4.6199 0.7265 -2.4966 0.9790
4.5370 1.1348 -2.4967 0.9790
4.0763 2.2933 -2.4968 0.9790
3.1230 3.0884 -2.3447 0.9803
2.8358 3.3542 -2.3448 0.9803
2.5261 3.5934 -2.3449 0.9803
2.1963 3.8042 -2.3450 0.9803
1.4872 4.1337 -2.3452 0.9803
-0.0490 4.3935 -2.3456 0.9803
-0.8272 4.3156 -2.3458 0.9803
-1.2081 4.2251 -2.3459 0.9803
-1.9415 3.9510 -2.3501 0.9802
-2.4299 4.0002 -2.4986 0.9790
-3.1009 3.5062 -2.4988 0.9790
-3.9173 2.5626 -2.4989 0.9790
-4.4553 1.4367 -2.4990 0.9790
-4.5655 1.0345 -2.4990 0.9790
-2.8952 0.1291 -1.5471 0.9869
-2.5303 -0.1128 -1.3521 0.9886
-2.4621 -0.5579 -1.3477 0.9886
-2.4330 -1.0317 -1.4108 0.9881
-2.4151 -1.2887 -1.4613 0.9877
-3.6732 -2.9007 -2.4986 0.9790
-2.7760 -3.7677 -2.4983 0.9790
-2.0639 -4.1998 -2.4981 0.9790
-1.2864 -4.4988 -2.4979 0.9790
-0.0521 -4.6782 -2.4976 0.9790
3.3255 -3.2886 -2.4968 0.9790
3.6049 -2.9796 -2.4967 0.9790
3.8557 -2.6468 -2.4967 0.9790
4.2638 -1.9212 -2.4966 0.9790
4.4178 -1.5340 -2.4966 0.9790
4.5368 -1.1347 -2.4966 0.9790
4.6198 -0.7264 -2.4966 0.9790
4.5830 0.9315 -2.4966 0.9790
4.1743 2.1094 -2.4968 0.9790
5.6033 4.2256 -3.7465 0.9687
3.3048 2.9891 -2.3788 0.9800
2.9824 3.2245 -2.3448 0.9803
2.6836 3.4773 -2.3448 0.9803
1.6698 4.0632 -2.3451 0.9803
0.9230 4.2953 -2.3453 0.9803
0.1468 4.3913 -2.3455 0.9803
-0.6341 4.3481 -2.3458 0.9803
-1.3952 4.1671 -2.3459 0.9803
-1.7606 4.0266 -2.3460 0.9803
-2.6057 3.8881 -2.4986 0.9790
-2.9416 3.6408 -2.4987 0.9790
-3.7992 2.7345 -2.4989 0.9790
-4.0276 2.3856 -2.4989 0.9790
-4.2240 2.0177 -2.4990 0.9790
-4.3868 1.6337 -2.4990 0.9790
-4.6070 0.8300 -2.4990 0.9790
-3.5313 0.3155 -1.8927 0.9841
-2.5975 0.0000 -1.4427 0.9882
-2.4244 -0.4368 -1.3681 0.9888
-2.4018 -0.6579 -1.3831 0.9887
-2.3733 -1.1337 -1.4608 0.9880
-3.4029 -2.9426 -2.4985 0.9796
-3.1273 -3.2336 -2.4985 0.9796
-2.5043 -3.7366 -2.4983 0.9796
-1.4279 -4.2649 -2.4980 0.9796
-1.0426 -4.3749 -2.4979 0.9796
-0.2504 -4.4901 -2.4977 0.9796
0.1503 -4.4943 -2.4976 0.9796
0.9447 -4.3962 -2.4974 0.9796
1.7091 -4.1587 -2.4972 0.9796
2.4192 -3.7895 -2.4970 0.9796
3.5892 -2.7067 -2.4967 0.9796
4.0121 -2.0274 -2.4967 0.9796
4.1766 -1.6622 -2.4966 0.9796
4.3079 -1.2839 -2.4966 0.9796
4.4941 -0.1001 -2.4966 0.9796
4.4852 0.3003 -2.4966 0.9796
4.3610 1.0908 -2.4967 0.9796
3.9182 2.2043 -2.4969 0.9796
5.5614 3.8177 -3.7465 0.9696
5.1997 4.2977 -3.7466 0.9696
3.0638 3.0299 -2.3932 0.9805
2.7258 3.2241 -2.3448 0.9809
