ply
format ascii 1.0
element vertex 1589
property float32 x
property float32 y
property float32 z
property float32 I
end_header
-11.1371 7.2856 -2.3466 0.9474
-13.0485 5.5331 -2.4991 0.9441
-13.4892 4.3498 -2.4991 0.9441
-13.8229 3.1319 -2.4991 0.9441
-14.1591 -0.6313 -2.4991 0.9441
-13.4890 -4.3496 -2.4991 0.9441
-11.1223 -8.7831 -2.4989 0.9441
-8.4061 -11.4089 -2.4988 0.9441
-5.0929 -13.2235 -2.4986 0.9441
-1.4183 -14.0982 -2.4984 0.9441
-0.1578 -14.1681 -2.4984 0.9441
1.1038 -14.1256 -2.4983 0.9441
2.3566 -13.9710 -2.4983 0.9441
5.9636 -12.8511 -2.4981 0.9441
7.0836 -12.2691 -2.4981 0.9441
9.1464 -10.8184 -2.4980 0.9441
10.0728 -9.9612 -2.4979 0.9441
10.9193 -9.0250 -2.4979 0.9441
11.6791 -8.0172 -2.4979 0.9441
12.9153 -5.8193 -2.4978 0.9441
13.3820 -4.6467 -2.4978 0.9441
13.9937 -2.2004 -2.4978 0.9441
14.1340 -0.9461 -2.4978 0.9441
14.1622 0.3157 -2.4978 0.9441
12.7478 3.7993 -2.3455 0.9474
12.3592 4.9189 -2.3455 0.9474
11.8725 5.9995 -2.3455 0.9474
7.6309 4.7526 -1.5852 0.9641
8.1279 10.5317 -2.3457 0.9474
5.0571 12.3057 -2.3459 0.9474
3.9418 12.7072 -2.3459 0.9474
1.6264 13.2054 -2.3461 0.9474
-0.7408 13.2852 -2.3462 0.9474
-5.3311 12.1925 -2.3464 0.9474
-7.4086 11.0545 -2.3465 0.9474
-8.3633 10.3514 -2.3465 0.9474
-9.2516 9.5661 -2.3466 0.9474
-10.0664 8.7048 -2.3466 0.9474
-10.8014 7.7744 -2.3466 0.9474
-11.4506 6.7823 -2.3466 0.9474
-13.6697 3.7446 -2.4991 0.9441
-13.9487 2.5130 -2.4991 0.9441
-12.9139 0.0000 -2.4991 0.9487
-12.8626 -1.1494 -2.4991 0.9487
-12.4548 -3.4117 -2.4990 0.9487
-12.1016 -4.5067 -2.4990 0.9487
-8.9768 -9.2819 -2.4988 0.9488
-6.2052 -11.3230 -2.4987 0.9488
-5.1727 -11.8302 -2.4986 0.9488
-2.9930 -12.5593 -2.4985 0.9488
-1.8633 -12.7756 -2.4985 0.9488
0.4314 -12.9030 -2.4984 0.9488
2.7122 -12.6215 -2.4983 0.9488
6.9460 -10.8806 -2.4981 0.9488
7.8867 -10.2190 -2.4980 0.9488
8.7648 -9.4764 -2.4980 0.9488
9.5734 -8.6586 -2.4980 0.9488
10.9566 -6.8238 -2.4979 0.9488
11.9928 -4.7730 -2.4979 0.9488
12.3699 -3.6866 -2.4979 0.9488
12.6489 -2.5710 -2.4978 0.9488
11.7582 2.9410 -2.3455 0.9518
11.4499 3.9759 -2.3455 0.9518
11.0507 4.9793 -2.3456 0.9518
9.3430 7.7222 -2.3457 0.9518
8.6187 8.5233 -2.3457 0.9518
6.9712 9.9167 -2.3458 0.9518
4.1038 11.4069 -2.3459 0.9518
2.0164 11.9543 -2.3460 0.9518
-0.1351 12.1229 -2.3461 0.9518
-1.2135 12.0630 -2.3462 0.9518
-3.3333 11.6572 -2.3463 0.9518
-5.3475 10.8820 -2.3464 0.9518
-8.0329 9.0830 -2.3465 0.9518
-8.8095 8.3321 -2.3465 0.9518
-10.6981 5.7088 -2.3466 0.9518
-11.8891 5.0414 -2.4990 0.9487
-12.2907 3.9632 -2.4991 0.9487
-12.9011 0.5753 -2.4991 0.9487
-12.9010 -0.5752 -2.4991 0.9487
-12.5945 -2.8535 -2.4990 0.9487
-12.2904 -3.9631 -2.4990 0.9487
-11.8888 -5.0412 -2.4990 0.9487
-11.3928 -6.0793 -2.4990 0.9487
-10.8063 -7.0691 -2.4989 0.9487
-6.7035 -11.0355 -2.4987 0.9488
-3.5496 -12.4137 -2.4986 0.9488
-1.2923 -12.8458 -2.4984 0.9488
5.4339 -11.7096 -2.4981 0.9488
8.3340 -9.8575 -2.4980 0.9488
9.9495 -8.2234 -2.4979 0.9488
11.2497 -6.3289 -2.4979 0.9488
11.7683 -5.3025 -2.4979 0.9488
12.8788 -0.8621 -2.4978 0.9488
11.6156 3.4619 -2.3455 0.9518
10.8180 5.4666 -2.3456 0.9518
8.2306 8.8988 -2.3457 0.9518
7.4060 9.5963 -2.3458 0.9518
3.5917 11.5784 -2.3460 0.9518
2.5469 11.8525 -2.3460 0.9518
1.4819 12.0323 -2.3461 0.9518
0.4051 12.1168 -2.3461 0.9518
-3.8493 11.4973 -2.3463 0.9518
-5.8270 10.6330 -2.3464 0.9518
-6.7504 10.0724 -2.3464 0.9518
-7.6202 9.4317 -2.3465 0.9518
-9.1720 7.9314 -2.3465 0.9518
-11.6527 5.5660 -2.4990 0.9487
-11.6659 -2.1017 -2.4990 0.9527
-8.9657 -7.7529 -2.4988 0.9527
-8.2399 -8.5200 -2.4988 0.9527
-7.4488 -9.2194 -2.4988 0.9527
-1.7103 -11.7271 -2.4985 0.9527
1.4486 -11.7616 -2.4983 0.9527
2.4896 -11.5857 -2.4983 0.9527
3.5109 -11.3180 -2.4982 0.9527
5.4618 -10.5158 -2.4981 0.9527
6.3760 -9.9878 -2.4981 0.9527
7.2396 -9.3805 -2.4981 0.9527
8.7878 -7.9481 -2.4980 0.9527
10.0576 -6.2639 -2.4979 0.9527
10.5751 -5.3438 -2.4979 0.9527
11.3550 -3.3841 -2.4979 0.9527
11.8221 0.7914 -2.4979 0.9527
10.7934 2.6996 -2.3456 0.9555
10.1440 4.5707 -2.3456 0.9555
7.9438 4.4691 -1.9216 0.9634
8.5763 7.0885 -2.3457 0.9555
7.9115 7.8238 -2.3457 0.9555
7.1838 8.4971 -2.3458 0.9555
6.3992 9.1029 -2.3458 0.9555
3.7671 10.4707 -2.3459 0.9555
0.8669 11.0946 -2.3461 0.9555
-0.1240 11.1280 -2.3461 0.9555
-1.1139 11.0730 -2.3462 0.9555
-2.0951 10.9301 -2.3462 0.9555
-3.0597 10.7004 -2.3463 0.9555
-4.0000 10.3858 -2.3463 0.9555
-4.9086 9.9887 -2.3463 0.9555
-5.7783 9.5124 -2.3464 0.9555
-7.3735 8.3374 -2.3465 0.9555
-10.0664 5.3716 -2.4054 0.9544
-10.9131 4.6276 -2.4990 0.9527
-11.8420 -0.5280 -2.4990 0.9527
-11.5606 -2.6192 -2.4990 0.9527
-11.2815 -3.6378 -2.4990 0.9527
-10.9129 -4.6274 -2.4989 0.9527
-10.4576 -5.5803 -2.4989 0.9527
-8.6114 -8.1445 -2.4988 0.9527
-6.1533 -10.1297 -2.4987 0.9527
-4.2596 -11.0598 -2.4986 0.9527
-2.2311 -11.6394 -2.4985 0.9527
-1.1862 -11.7915 -2.4984 0.9527
-0.1320 -11.8501 -2.4984 0.9527
0.9232 -11.8146 -2.4983 0.9527
1.9711 -11.6853 -2.4983 0.9527
3.0032 -11.4632 -2.4983 0.9527
4.0116 -11.1502 -2.4982 0.9527
5.9248 -10.2620 -2.4981 0.9527
6.8146 -9.6937 -2.4981 0.9527
7.6502 -9.0486 -2.4980 0.9527
9.1331 -7.5487 -2.4980 0.9527
9.7686 -6.7057 -2.4980 0.9527
10.3266 -5.8096 -2.4979 0.9527
10.8027 -4.8674 -2.4979 0.9527
11.1930 -3.8866 -2.4979 0.9527
11.4944 -2.8749 -2.4979 0.9527
11.7047 -1.8404 -2.4979 0.9527
11.8220 -0.7913 -2.4979 0.9527
10.9030 2.2162 -2.3456 0.9555
10.6625 3.1778 -2.3456 0.9555
10.3375 4.1143 -2.3456 0.9555
7.5409 4.6966 -1.8729 0.9643
8.8835 6.6994 -2.3457 0.9555
6.7983 8.8088 -2.3458 0.9555
5.9874 9.3791 -2.3458 0.9555
5.1289 9.8749 -2.3459 0.9555
4.2297 10.2924 -2.3459 0.9555
3.2969 10.6283 -2.3460 0.9555
2.3379 10.8797 -2.3460 0.9555
1.3603 11.0448 -2.3461 0.9555
0.3719 11.1223 -2.3461 0.9555
-0.6196 11.1115 -2.3462 0.9555
-1.6061 11.0125 -2.3462 0.9555
-2.5800 10.8260 -2.3462 0.9555
-4.4587 10.1974 -2.3463 0.9555
-7.7376 8.0007 -2.3465 0.9555
-8.4191 7.2804 -2.3465 0.9555
-9.0338 6.5022 -2.3465 0.9555
-10.6961 5.1091 -2.4990 0.9527
-11.4326 3.1318 -2.4990 0.9527
-11.6660 2.1018 -2.4990 0.9527
-10.9487 0.0001 -2.4990 0.9561
-10.9052 -0.9745 -2.4990 0.9561
-10.7752 -1.9412 -2.4990 0.9561
-10.2601 -3.8209 -2.4989 0.9561
-7.6108 -7.8695 -2.4988 0.9561
-6.8801 -8.5155 -2.4987 0.9561
-4.3856 -10.0302 -2.4986 0.9561
3.2429 -10.4541 -2.4982 0.9561
4.1604 -10.1237 -2.4982 0.9561
5.0449 -9.7131 -2.4982 0.9561
8.7382 -6.5897 -2.4980 0.9561
9.2900 -5.7858 -2.4980 0.9561
10.1685 -4.0469 -2.4980 0.9561
10.9415 -0.2438 -2.4979 0.9561
10.9198 0.7311 -2.4979 0.9561
8.4729 5.8163 -2.3457 0.9587
7.9217 6.5475 -2.3457 0.9587
6.6355 7.8486 -2.3458 0.9587
5.9107 8.4081 -2.3458 0.9587
5.1390 8.9010 -2.3459 0.9587
4.3264 9.3232 -2.3459 0.9587
0.8008 10.2477 -2.3461 0.9587
-1.0289 10.2276 -2.3462 0.9587
-3.6946 9.5929 -2.3463 0.9587
-5.3371 8.7862 -2.3464 0.9587
-6.8105 7.7008 -2.3464 0.9587
-7.4690 7.0642 -2.3465 0.9587
-8.0682 6.3714 -2.3465 0.9587
-8.6033 5.6281 -2.3465 0.9587
-9.6594 5.1544 -2.4989 0.9561
-10.0799 4.2743 -2.4990 0.9561
-10.8511 1.4594 -2.4990 0.9561
-10.9379 0.4878 -2.4990 0.9561
-10.9378 -0.4877 -2.4990 0.9561
-10.8510 -1.4593 -2.4990 0.9561
-10.6780 -2.4193 -2.4989 0.9561
-10.4202 -3.3601 -2.4989 0.9561
-6.4939 -8.8135 -2.4987 0.9561
-5.6836 -9.3564 -2.4987 0.9561
-3.0095 -10.5250 -2.4985 0.9561
-2.0608 -10.7509 -2.4985 0.9561
-1.0957 -10.8914 -2.4984 0.9561
-0.1219 -10.9455 -2.4984 0.9561
1.8206 -10.7933 -2.4983 0.9561
3.7053 -10.2991 -2.4982 0.9561
4.6073 -9.9283 -2.4982 0.9561
5.4726 -9.4787 -2.4981 0.9561
6.2944 -8.9538 -2.4981 0.9561
7.7820 -7.6958 -2.4980 0.9561
9.0231 -6.1940 -2.4980 0.9561
9.9782 -4.4959 -2.4980 0.9561
10.8114 -1.7000 -2.4979 0.9561
10.9415 0.2438 -2.4979 0.9561
9.8487 2.9353 -2.3456 0.9587
9.5485 3.8003 -2.3456 0.9587
9.1724 4.6351 -2.3457 0.9587
8.2055 6.1881 -2.3457 0.9587
3.0452 9.8170 -2.3460 0.9587
2.1594 10.0492 -2.3460 0.9587
-0.5723 10.2632 -2.3461 0.9587
-2.3830 9.9995 -2.3462 0.9587
-4.1183 9.4189 -2.3463 0.9587
-4.9404 9.0151 -2.3463 0.9587
-6.4607 7.9965 -2.3464 0.9587
-9.8794 4.7191 -2.4990 0.9561
-10.2603 3.8210 -2.4990 0.9561
-10.5597 2.8926 -2.4990 0.9561
-10.9053 0.9745 -2.4990 0.9561
-10.1666 0.0000 -2.4989 0.9590
-10.1262 -0.9048 -2.4989 0.9590
-10.0054 -1.8025 -2.4989 0.9590
-9.1735 -4.3818 -2.4989 0.9590
-7.0672 -7.3074 -2.4987 0.9590
-6.3886 -7.9072 -2.4987 0.9590
-4.8853 -8.9144 -2.4986 0.9590
-4.0724 -9.3137 -2.4986 0.9590
-3.2272 -9.6391 -2.4986 0.9590
-1.4670 -10.0582 -2.4985 0.9590
1.2424 -10.0879 -2.4983 0.9590
2.1354 -9.9371 -2.4983 0.9590
6.2094 -8.0457 -2.4981 0.9590
6.9008 -7.4610 -2.4981 0.9590
7.5374 -6.8172 -2.4981 0.9590
8.6266 -5.3726 -2.4980 0.9590
9.0705 -4.5835 -2.4980 0.9590
9.4424 -3.7579 -2.4980 0.9590
9.7393 -2.9026 -2.4980 0.9590
7.8678 5.4010 -2.3457 0.9615
6.7857 6.7106 -2.3458 0.9615
6.1616 7.2880 -2.3458 0.9615
4.0174 8.6573 -2.3459 0.9615
3.2310 8.9807 -2.3460 0.9614
2.4189 9.2328 -2.3460 0.9614
1.5875 9.4116 -2.3460 0.9614
0.7436 9.5157 -2.3461 0.9614
-0.9554 9.4971 -2.3462 0.9614
-1.7969 9.3745 -2.3462 0.9614
-2.6242 9.1775 -2.3462 0.9614
-4.9559 8.1585 -2.3463 0.9614
-6.9354 6.5596 -2.3464 0.9614
-9.6759 3.1201 -2.4989 0.9590
-9.9153 2.2465 -2.4989 0.9590
-10.1565 -0.4529 -2.4989 0.9590
-10.0758 -1.3550 -2.4989 0.9590
-9.9151 -2.2464 -2.4989 0.9590
-9.6758 -3.1200 -2.4989 0.9590
-8.5075 -5.5653 -2.4988 0.9590
-7.9783 -6.3003 -2.4988 0.9590
-6.0300 -8.1840 -2.4987 0.9590
-5.2776 -8.6880 -2.4987 0.9590
-2.7946 -9.7732 -2.4985 0.9590
-1.0174 -10.1134 -2.4984 0.9590
-0.1132 -10.1637 -2.4984 0.9590
0.7918 -10.1333 -2.4984 0.9590
2.5759 -9.8321 -2.4983 0.9590
3.4407 -9.5636 -2.4982 0.9590
7.8336 -6.4746 -2.4981 0.9590
8.3787 -5.7516 -2.4980 0.9590
9.2656 -4.1749 -2.4980 0.9590
9.6004 -3.3336 -2.4980 0.9590
9.8590 -2.4658 -2.4980 0.9590
10.0393 -1.5785 -2.4980 0.9590
10.1602 0.2265 -2.4980 0.9590
9.1454 2.7256 -2.3456 0.9615
8.5174 4.3041 -2.3457 0.9615
7.6195 5.7461 -2.3457 0.9615
6.4801 7.0063 -2.3458 0.9615
5.8309 7.5553 -2.3458 0.9615
5.1354 8.0445 -2.3459 0.9615
4.3991 8.4697 -2.3459 0.9615
1.1667 9.4731 -2.3461 0.9614
0.3189 9.5395 -2.3461 0.9614
-1.3775 9.4452 -2.3462 0.9614
-2.2128 9.2853 -2.3462 0.9614
-4.5875 8.3711 -2.3463 0.9614
-5.9992 7.4253 -2.3464 0.9614
-7.2208 6.2441 -2.3464 0.9614
-8.6123 5.1011 -2.4604 0.9596
-9.1737 4.3819 -2.4989 0.9590
-9.5273 3.5480 -2.4989 0.9590
-10.0055 1.8026 -2.4989 0.9590
-10.1262 0.9049 -2.4989 0.9590
-9.4835 0.0001 -2.4989 0.9615
-9.4458 -0.8440 -2.4989 0.9615
-8.8871 -3.3096 -2.4989 0.9615
-8.5572 -4.0874 -2.4988 0.9615
-7.6967 -5.5397 -2.4988 0.9615
-6.5924 -6.8164 -2.4987 0.9615
-5.2792 -7.8771 -2.4987 0.9615
-3.7988 -8.6881 -2.4986 0.9615
-1.3684 -9.3825 -2.4985 0.9615
-0.5279 -9.4669 -2.4984 0.9615
0.3168 -9.4762 -2.4984 0.9615
1.1590 -9.4103 -2.4983 0.9615
1.9919 -9.2696 -2.4983 0.9615
3.6038 -8.7693 -2.4982 0.9615
5.7924 -7.5053 -2.4981 0.9615
8.4613 -4.2756 -2.4980 0.9615
8.8082 -3.5055 -2.4980 0.9615
9.4590 0.6333 -2.4980 0.9615
14.0505 2.2094 -3.7478 0.9429
13.7982 3.4512 -3.7478 0.9429
8.4095 2.9201 -2.3457 0.9638
7.3394 5.0383 -2.3457 0.9638
5.1199 7.2832 -2.3459 0.9638
4.4514 7.7101 -2.3459 0.9638
3.7476 8.0758 -2.3459 0.9638
3.0140 8.3775 -2.3460 0.9638
2.2564 8.6126 -2.3460 0.9638
0.6936 8.8765 -2.3461 0.9638
-0.0992 8.9032 -2.3461 0.9638
-0.8912 8.8591 -2.3462 0.9638
-3.2002 8.3093 -2.3463 0.9638
-3.9271 7.9916 -2.3463 0.9638
-4.6229 7.6104 -2.3463 0.9638
-5.2820 7.1688 -2.3464 0.9638
-6.4695 6.1188 -2.3464 0.9638
-6.9885 5.5188 -2.3464 0.9638
-8.3667 4.4646 -2.4989 0.9615
-8.7309 3.7023 -2.4989 0.9615
-9.0258 2.9105 -2.4989 0.9615
-9.4741 0.4225 -2.4989 0.9615
-9.2490 -2.0955 -2.4989 0.9615
-8.7308 -3.7021 -2.4988 0.9615
-7.9359 -5.1914 -2.4988 0.9615
-6.8895 -6.5161 -2.4987 0.9615
-5.6249 -7.6342 -2.4987 0.9615
-4.9230 -8.1044 -2.4986 0.9615
-4.1821 -8.5103 -2.4986 0.9615
-3.4080 -8.8486 -2.4986 0.9615
-2.6068 -9.1166 -2.4985 0.9615
-0.1056 -9.4810 -2.4984 0.9615
2.4029 -9.1716 -2.4983 0.9615
3.9909 -8.6000 -2.4982 0.9615
4.7404 -8.2105 -2.4982 0.9615
6.1209 -7.2398 -2.4981 0.9615
7.3074 -6.0397 -2.4981 0.9615
8.6433 -3.8945 -2.4980 0.9615
8.9556 -3.1097 -2.4980 0.9615
9.1968 -2.3002 -2.4980 0.9615
9.3651 -1.4725 -2.4980 0.9615
9.4589 -0.6332 -2.4980 0.9615
9.4778 0.2113 -2.4980 0.9615
13.9382 2.8331 -3.7478 0.9429
8.5312 2.5426 -2.3457 0.9638
7.9453 4.0150 -2.3457 0.9638
7.4740 4.6548 -2.3201 0.9642
7.1077 5.3602 -2.3458 0.9638
6.6025 5.9717 -2.3458 0.9638
6.0449 6.5357 -2.3458 0.9638
4.1036 7.9008 -2.3459 0.9638
2.6378 8.5035 -2.3460 0.9638
1.8705 8.7046 -2.3460 0.9638
1.0884 8.8367 -2.3461 0.9638
0.2975 8.8987 -2.3461 0.9638
-0.4957 8.8900 -2.3461 0.9638
-1.2850 8.8107 -2.3462 0.9638
-4.2793 7.8088 -2.3463 0.9638
-4.9574 7.3970 -2.3463 0.9638
-6.7357 5.8246 -2.3464 0.9638
-7.2274 5.2020 -2.3464 0.9638
-8.1595 4.8329 -2.4989 0.9615
-8.5573 4.0875 -2.4989 0.9615
-8.8872 3.3097 -2.4989 0.9615
-9.1465 2.5055 -2.4989 0.9615
-5.0319 0.0000 -1.4157 0.9793
-3.7284 -0.6717 -1.0659 0.9844
-3.7904 -1.0383 -1.1057 0.9838
-8.3230 -3.0995 -2.4988 0.9638
-8.0140 -3.8279 -2.4988 0.9638
-7.2082 -5.1881 -2.4988 0.9638
-4.9441 -7.3771 -2.4986 0.9638
-3.5577 -8.1367 -2.4986 0.9638
-2.8193 -8.4209 -2.4985 0.9638
-2.0586 -8.6383 -2.4985 0.9638
-0.4944 -8.8661 -2.4984 0.9638
1.8655 -8.6814 -2.4983 0.9638
4.0927 -7.8797 -2.4982 0.9638
4.7777 -7.4841 -2.4982 0.9638
5.4248 -7.0291 -2.4982 0.9638
6.0288 -6.5183 -2.4981 0.9638
7.0889 -5.3459 -2.4981 0.9638
7.5366 -4.6938 -2.4981 0.9638
7.9244 -4.0043 -2.4981 0.9638
8.8235 -0.9870 -2.4980 0.9638
8.8764 -0.1977 -2.4980 0.9638
8.8588 0.5931 -2.4980 0.9638
7.8758 2.7348 -2.3457 0.9659
6.8737 4.7186 -2.3458 0.9659
5.9283 5.8627 -2.3458 0.9659
5.3830 6.3671 -2.3458 0.9659
4.1689 7.2208 -2.3459 0.9659
3.5098 7.5633 -2.3459 0.9659
2.8227 7.8458 -2.3460 0.9659
-0.0929 8.3381 -2.3461 0.9659
-2.9971 7.7819 -2.3462 0.9659
-3.6779 7.4844 -2.3463 0.9659
-5.5247 6.2469 -2.3464 0.9659
-6.5449 5.1685 -2.3464 0.9659
-4.2110 -0.1878 -1.1860 0.9826
-3.7396 -0.5029 -1.0616 0.9844
-8.4528 -2.7257 -2.4988 0.9638
-7.8355 -4.1811 -2.4988 0.9638
-6.9699 -5.5040 -2.4988 0.9638
-5.2679 -7.1496 -2.4987 0.9638
-2.4414 -8.5380 -2.4985 0.9638
-1.6717 -8.7213 -2.4985 0.9638
0.6918 -8.8527 -2.4984 0.9638
1.4770 -8.7559 -2.4983 0.9638
2.2504 -8.5896 -2.4983 0.9638
3.0059 -8.3551 -2.4983 0.9638
3.7376 -8.0543 -2.4982 0.9638
4.4396 -7.6895 -2.4982 0.9638
5.7325 -6.7804 -2.4981 0.9638
6.3132 -6.2432 -2.4981 0.9638
8.8587 -0.5929 -2.4980 0.9638
13.0538 2.6533 -3.7479 0.9462
7.0770 4.4076 -2.3458 0.9659
6.6567 5.0201 -2.3458 0.9659
6.1835 5.5927 -2.3458 0.9659
5.6613 6.1209 -2.3458 0.9659
4.4864 7.0279 -2.3459 0.9659
3.1694 7.7122 -2.3460 0.9659
2.4704 7.9638 -2.3460 0.9659
0.2786 8.3339 -2.3461 0.9659
-0.4642 8.3257 -2.3461 0.9659
-1.9331 8.1118 -2.3462 0.9659
-2.6475 7.9076 -2.3462 0.9659
-3.3408 7.6407 -2.3463 0.9659
-4.0077 7.3131 -2.3463 0.9659
-4.6427 6.9275 -2.3463 0.9659
-8.0142 3.8281 -2.4989 0.9638
-8.3231 3.0996 -2.4989 0.9638
-8.5660 2.3465 -2.4989 0.9638
-8.7408 1.5747 -2.4989 0.9638
-8.8463 0.7905 -2.4989 0.9638
-3.9677 0.0000 -1.1878 0.9836
-3.5918 -0.3209 -1.0796 0.9851
-6.7742 -4.8757 -2.4987 0.9658
-5.8022 -5.9994 -2.4987 0.9658
-5.2452 -6.4920 -2.4987 0.9658
-4.6465 -6.9330 -2.4986 0.9658
-3.3435 -7.6468 -2.4986 0.9658
-0.4646 -8.3324 -2.4984 0.9658
0.2789 -8.3405 -2.4984 0.9658
1.7532 -8.1587 -2.4983 0.9658
2.4724 -7.9702 -2.4983 0.9658
3.8463 -7.4054 -2.4982 0.9658
4.4901 -7.0335 -2.4982 0.9658
5.0982 -6.6059 -2.4982 0.9658
5.6659 -6.1259 -2.4982 0.9658
6.6622 -5.0241 -2.4981 0.9658
7.0829 -4.4112 -2.4981 0.9658
7.4474 -3.7633 -2.4981 0.9658
7.7527 -3.0854 -2.4981 0.9658
8.1769 -1.6620 -2.4981 0.9658
8.2924 -0.9276 -2.4981 0.9658
8.3421 -0.1858 -2.4981 0.9658
8.2429 1.2962 -2.4981 0.9658
7.4017 2.5702 -2.3457 0.9678
6.8289 3.8419 -2.3458 0.9678
6.4599 4.4345 -2.3458 0.9678
5.5714 5.5097 -2.3458 0.9678
5.0590 5.9838 -2.3459 0.9678
3.2985 7.1080 -2.3459 0.9678
-1.4753 7.6967 -2.3462 0.9678
-2.1545 7.5349 -2.3462 0.9678
-4.6489 6.3096 -2.3463 0.9678
-7.3638 3.9295 -2.4988 0.9657
-7.6844 3.2585 -2.4988 0.9657
-8.1404 1.8444 -2.4989 0.9657
-8.2723 1.1126 -2.4989 0.9657
-4.8506 0.2163 -1.4536 0.9799
-3.4642 -0.7849 -1.0634 0.9853
-7.9438 -2.5615 -2.4988 0.9657
-6.0638 -5.7350 -2.4987 0.9658
-4.9507 -6.7192 -2.4987 0.9658
-3.6808 -7.4903 -2.4986 0.9658
-2.2944 -8.0240 -2.4985 0.9658
-1.5711 -8.1963 -2.4985 0.9658
-0.0930 -8.3448 -2.4984 0.9658
1.3880 -8.2288 -2.4983 0.9658
2.1149 -8.0725 -2.4983 0.9658
2.8250 -7.8521 -2.4983 0.9658
3.5126 -7.5694 -2.4982 0.9658
4.7989 -6.8265 -2.4982 0.9658
7.6076 -3.4278 -2.4981 0.9658
7.8825 -2.7370 -2.4981 0.9658
8.0948 -2.0246 -2.4981 0.9658
8.2428 -1.2961 -2.4981 0.9658
12.2679 2.4936 -3.7479 0.9491
6.9932 3.5339 -2.3458 0.9678
6.6510 4.1423 -2.3458 0.9678
5.8113 5.2560 -2.3458 0.9678
5.3205 5.7525 -2.3458 0.9678
3.6118 6.9540 -2.3459 0.9678
2.9786 7.2479 -2.3460 0.9678
1.6463 7.6614 -2.3460 0.9678
0.9579 7.7777 -2.3461 0.9678
0.2619 7.8322 -2.3461 0.9678
-0.4363 7.8245 -2.3461 0.9678
-3.1397 7.1806 -2.3462 0.9678
-4.3632 6.5104 -2.3463 0.9678
-4.9254 6.0962 -2.3463 0.9678
-7.1815 4.2537 -2.4988 0.9657
-7.5316 3.5976 -2.4988 0.9657
-8.0502 2.2052 -2.4989 0.9657
-8.2145 1.4800 -2.4989 0.9657
-3.7562 0.0000 -1.1929 0.9844
-3.3867 -0.3026 -1.0798 0.9858
-3.2540 -0.8913 -1.0715 0.9859
-6.7696 -4.0096 -2.4988 0.9675
-5.9513 -5.1463 -2.4987 0.9675
-5.4696 -5.6555 -2.4987 0.9675
-4.3801 -6.5355 -2.4986 0.9675
-3.1518 -7.2084 -2.4986 0.9675
-1.8238 -7.6528 -2.4985 0.9675
0.2629 -7.8624 -2.4984 0.9675
1.6527 -7.6911 -2.4983 0.9675
2.3307 -7.5133 -2.4983 0.9675
2.9901 -7.2760 -2.4983 0.9675
4.2327 -6.6304 -2.4982 0.9675
5.8339 -5.2764 -2.4982 0.9675
6.2804 -4.7362 -2.4981 0.9675
7.8171 -0.8744 -2.4981 0.9675
7.8483 0.5254 -2.4981 0.9675
7.7705 1.2219 -2.4981 0.9675
11.4487 2.8635 -3.7479 0.9517
6.7342 3.0343 -2.3458 0.9695
6.4375 3.6217 -2.3458 0.9695
6.0896 4.1803 -2.3458 0.9695
5.6935 4.7058 -2.3458 0.9695
4.2481 6.0430 -2.3459 0.9695
3.1094 6.7006 -2.3460 0.9695
1.2287 7.2843 -2.3460 0.9695
0.5755 7.3648 -2.3461 0.9695
-0.7394 7.3504 -2.3461 0.9695
-1.3907 7.2555 -2.3462 0.9695
-5.3676 5.0767 -2.3463 0.9695
-6.5844 4.3074 -2.4988 0.9675
-7.7980 1.0487 -2.4988 0.9675
-3.4557 -0.1541 -1.0986 0.9856
-3.3189 -0.4463 -1.0635 0.9860
-3.2591 -0.7384 -1.0613 0.9861
-3.2827 -1.0586 -1.0954 0.9856
-7.2437 -3.0716 -2.4988 0.9675
-6.9416 -3.7041 -2.4988 0.9675
-4.0846 -6.7241 -2.4986 0.9675
-3.4698 -7.0609 -2.4986 0.9675
-2.8276 -7.3416 -2.4985 0.9675
-2.1629 -7.5640 -2.4985 0.9675
-0.0876 -7.8664 -2.4984 0.9675
0.6129 -7.8429 -2.4984 0.9675
2.6631 -7.4020 -2.4983 0.9675
3.3113 -7.1355 -2.4983 0.9675
4.5239 -6.4353 -2.4982 0.9675
5.0787 -6.0070 -2.4982 0.9675
5.5931 -5.5311 -2.4982 0.9675
6.0632 -5.0113 -2.4981 0.9675
6.8555 -3.8568 -2.4981 0.9675
7.7704 -1.2218 -2.4981 0.9675
7.8640 0.1753 -2.4981 0.9675
11.3098 3.3707 -3.7479 0.9517
6.8627 2.7313 -2.3458 0.9695
5.4782 4.9548 -2.3458 0.9695
3.9747 6.2262 -2.3459 0.9695
2.8078 6.8325 -2.3460 0.9695
0.2469 7.3832 -2.3461 0.9695
-2.3454 7.0055 -2.3462 0.9695
-2.9597 6.7690 -2.3462 0.9695
-3.5505 6.4788 -2.3463 0.9695
-4.6430 5.7467 -2.3463 0.9695
-6.3860 4.5964 -2.4988 0.9675
-7.0998 3.3913 -2.4988 0.9675
-7.3735 2.7460 -2.4988 0.9675
-7.7436 1.3951 -2.4988 0.9675
-7.8370 0.7003 -2.4988 0.9675
-3.6184 0.0000 -1.2157 0.9848
-3.2019 -0.2861 -1.0801 0.9865
-3.1483 -0.5672 -1.0748 0.9866
-3.1349 -0.8587 -1.0921 0.9864
-6.3989 -3.7901 -2.4987 0.9691
-6.0361 -4.3445 -2.4987 0.9691
-5.1701 -5.3458 -2.4987 0.9691
-3.5739 -6.5216 -2.4986 0.9691
-2.9792 -6.8137 -2.4986 0.9691
1.5622 -7.2699 -2.4983 0.9691
2.8264 -6.8776 -2.4983 0.9691
4.0010 -6.2674 -2.4982 0.9691
4.5429 -5.8863 -2.4982 0.9691
5.5145 -4.9875 -2.4982 0.9691
6.6362 -3.3533 -2.4981 0.9691
6.9083 -2.7494 -2.4981 0.9691
7.2863 -1.4810 -2.4981 0.9691
7.3892 -0.8265 -2.4981 0.9691
7.4334 -0.1656 -2.4981 0.9691
7.3450 1.1550 -2.4981 0.9691
6.3655 2.8682 -2.3458 0.9710
6.0850 3.4234 -2.3458 0.9710
5.3817 4.4482 -2.3458 0.9710
4.5079 5.3320 -2.3459 0.9710
2.3638 6.5703 -2.3460 0.9710
1.1614 6.8854 -2.3460 0.9710
0.5440 6.9615 -2.3461 0.9710
-0.0778 6.9824 -2.3461 0.9710
-1.3146 6.8582 -2.3462 0.9710
-3.6255 5.9685 -2.3463 0.9710
-4.1424 5.6222 -2.3463 0.9710
-6.8471 2.9035 -2.4988 0.9691
-7.0784 2.2825 -2.4988 0.9691
-7.2535 1.6435 -2.4988 0.9691
-7.3710 0.9913 -2.4988 0.9691
-4.1559 0.1853 -1.3977 0.9826
-3.1639 -0.4255 -1.0726 0.9866
-3.1417 -1.0131 -1.1091 0.9862
-6.5614 -3.5012 -2.4987 0.9691
-5.8366 -4.6090 -2.4987 0.9691
-5.4031 -5.1102 -2.4987 0.9691
-3.2798 -6.6742 -2.4986 0.9691
-2.6727 -6.9396 -2.4985 0.9691
-1.3999 -7.3034 -2.4985 0.9691
-0.0828 -7.4357 -2.4984 0.9691
0.5793 -7.4134 -2.4984 0.9691
1.2368 -7.3324 -2.4984 0.9691
1.8845 -7.1931 -2.4983 0.9691
3.1300 -6.7448 -2.4983 0.9691
4.2762 -6.0829 -2.4982 0.9691
4.8006 -5.6781 -2.4982 0.9691
5.7312 -4.7369 -2.4982 0.9691
6.7789 -3.0544 -2.4981 0.9691
7.0239 -2.4389 -2.4981 0.9691
7.3450 -1.1549 -2.4981 0.9691
7.4186 -0.4966 -2.4981 0.9691
7.3892 0.8267 -2.4981 0.9691
7.2863 1.4811 -2.4981 0.9691
10.3646 4.1250 -3.7480 0.9540
6.2315 3.1489 -2.3458 0.9710
5.9265 3.6911 -2.3458 0.9710
4.2659 5.5275 -2.3459 0.9710
3.7570 5.8854 -2.3459 0.9710
3.2183 6.1964 -2.3459 0.9710
2.6541 6.4584 -2.3460 0.9710
2.0688 6.6690 -2.3460 0.9710
-0.3888 6.9721 -2.3461 0.9710
-1.0078 6.9099 -2.3461 0.9710
-1.6188 6.7929 -2.3462 0.9710
-2.2170 6.6219 -2.3462 0.9710
-2.7976 6.3983 -2.3462 0.9710
-4.8548 5.0199 -2.3463 0.9710
-6.0363 4.3447 -2.4988 0.9691
-6.3990 3.7902 -2.4988 0.9691
-6.9697 2.5956 -2.4988 0.9691
-7.3195 1.3187 -2.4988 0.9691
-3.4902 0.0000 -1.2376 0.9853
-3.0229 -0.8281 -1.1114 0.9868
-6.0631 -3.5912 -2.4987 0.9705
-4.8988 -5.0653 -2.4987 0.9705
-3.9230 -5.8535 -2.4986 0.9705
-2.8229 -6.4562 -2.4986 0.9705
-1.0169 -6.9723 -2.4985 0.9705
-0.3923 -7.0351 -2.4984 0.9705
1.4803 -6.8885 -2.4983 0.9705
2.0875 -6.7294 -2.4983 0.9705
3.7911 -5.9386 -2.4982 0.9705
5.2252 -4.7259 -2.4982 0.9705
5.6251 -4.2420 -2.4982 0.9705
6.2880 -3.1774 -2.4981 0.9705
6.7517 -2.0122 -2.4981 0.9705
6.9040 -1.4032 -2.4981 0.9705
7.0434 -0.1569 -2.4981 0.9705
6.9597 1.0944 -2.4981 0.9705
6.8347 1.7095 -2.4981 0.9705
5.7658 3.2438 -2.3458 0.9723
5.4542 3.7441 -2.3458 0.9723
5.0994 4.2148 -2.3458 0.9723
4.2714 5.0523 -2.3459 0.9723
3.8048 5.4124 -2.3459 0.9723
3.3080 5.7297 -2.3459 0.9723
2.2398 6.2255 -2.3460 0.9723
-0.0737 6.6161 -2.3461 0.9723
-1.2456 6.4983 -2.3462 0.9723
-1.8191 6.3618 -2.3462 0.9723
-4.3836 4.9567 -2.3463 0.9723
-4.8074 4.5469 -2.3463 0.9723
-5.8972 3.8579 -2.4988 0.9705
-6.2172 3.3177 -2.4988 0.9705
-6.4878 2.7511 -2.4988 0.9705
-6.7070 2.1628 -2.4988 0.9705
-6.8729 1.5572 -2.4988 0.9705
-3.9464 0.1760 -1.4007 0.9834
-6.4878 -2.7510 -2.4987 0.9705
-5.8971 -3.8577 -2.4987 0.9705
-5.1196 -4.8421 -2.4987 0.9705
-4.6683 -5.2785 -2.4986 0.9705
-4.1799 -5.6730 -2.4986 0.9705
-3.1077 -6.3240 -2.4986 0.9705
-0.7053 -7.0107 -2.4985 0.9705
-0.0785 -7.0455 -2.4984 0.9705
0.5489 -7.0245 -2.4984 0.9705
1.7857 -6.8157 -2.4983 0.9705
2.9658 -6.3910 -2.4983 0.9705
4.0518 -5.7638 -2.4982 0.9705
4.5487 -5.3802 -2.4982 0.9705
5.0095 -4.9540 -2.4982 0.9705
5.4305 -4.4884 -2.4982 0.9705
5.8084 -3.9872 -2.4982 0.9705
6.1402 -3.4544 -2.4981 0.9705
6.4233 -2.8942 -2.4981 0.9705
6.9597 -1.0943 -2.4981 0.9705
7.0435 0.1570 -2.4981 0.9705
6.9041 1.4033 -2.4981 0.9705
5.9046 2.9837 -2.3458 0.9723
5.2821 3.9834 -2.3458 0.9723
4.4922 4.8569 -2.3459 0.9723
4.0421 5.2375 -2.3459 0.9723
3.5599 5.5766 -2.3459 0.9723
3.0495 5.8714 -2.3460 0.9723
1.3900 6.4686 -2.3460 0.9723
-0.3684 6.6062 -2.3461 0.9723
-0.9549 6.5473 -2.3461 0.9723
-1.5339 6.4364 -2.3462 0.9723
-2.1007 6.2745 -2.3462 0.9723
-2.6508 6.0626 -2.3462 0.9723
-4.1585 5.1470 -2.3463 0.9723
-4.6001 4.7565 -2.3463 0.9723
-6.3588 3.0374 -2.4988 0.9705
-6.6040 2.4594 -2.4988 0.9705
-6.7967 1.8618 -2.4988 0.9705
-6.9354 1.2495 -2.4988 0.9705
-7.0191 0.6273 -2.4988 0.9705
-2.9169 -0.7990 -1.1293 0.9872
-6.0382 -2.8842 -2.4987 0.9718
-5.7574 -3.4101 -2.4987 0.9718
-5.0615 -4.3768 -2.4987 0.9718
-4.6518 -4.8099 -2.4986 0.9718
-3.2157 -5.8679 -2.4986 0.9718
-2.1243 -6.3449 -2.4985 0.9718
-0.9656 -6.6208 -2.4985 0.9718
0.2236 -6.6870 -2.4984 0.9718
1.4056 -6.5412 -2.4984 0.9718
2.5431 -6.1883 -2.4983 0.9718
3.0838 -5.9373 -2.4983 0.9718
4.5427 -4.9115 -2.4982 0.9718
5.6788 -3.5367 -2.4982 0.9718
6.4114 -1.9107 -2.4981 0.9718
6.5560 -1.3325 -2.4981 0.9718
6.6486 -0.7437 -2.4981 0.9718
6.6751 0.4469 -2.4981 0.9718
6.6089 1.0393 -2.4982 0.9718
9.4819 3.2925 -3.7480 0.9580
4.4669 4.4175 -2.3459 0.9735
3.1412 5.4408 -2.3459 0.9735
2.1268 5.9117 -2.3460 0.9735
1.5923 6.0776 -2.3460 0.9735
0.4895 6.2638 -2.3461 0.9735
-0.6289 6.2514 -2.3461 0.9735
-1.1828 6.1707 -2.3462 0.9735
-2.2582 5.8634 -2.3462 0.9735
-2.7711 5.6392 -2.3462 0.9735
-4.1626 4.7068 -2.3463 0.9735
-5.2516 4.1472 -2.4987 0.9718
-5.9037 3.1504 -2.4988 0.9718
-6.1607 2.6124 -2.4988 0.9718
-6.6321 0.8920 -2.4988 0.9718
-3.7910 0.1691 -1.4170 0.9839
-3.0832 -0.1375 -1.1525 0.9869
-2.9640 -0.3986 -1.1167 0.9873
-2.9258 -0.6629 -1.1202 0.9873
-4.8615 -4.5979 -2.4987 0.9718
-3.9692 -5.3870 -2.4986 0.9718
-2.4048 -6.2440 -2.4985 0.9718
-1.8395 -6.4332 -2.4985 0.9718
0.5212 -6.6704 -2.4984 0.9718
1.6956 -6.4721 -2.4983 0.9718
2.2649 -6.2955 -2.4983 0.9718
3.3452 -5.7940 -2.4983 0.9718
3.8476 -5.4732 -2.4982 0.9718
4.7570 -4.7043 -2.4982 0.9718
5.5156 -3.7862 -2.4982 0.9718
6.6751 -0.4468 -2.4981 0.9718
6.6884 0.1491 -2.4981 0.9718
6.6486 0.7438 -2.4982 0.9718
6.5561 1.3326 -2.4982 0.9718
6.4115 1.9109 -2.4982 0.9718
5.0158 3.7826 -2.3458 0.9735
4.6592 4.2141 -2.3459 0.9735
4.2657 4.6121 -2.3459 0.9735
3.3805 5.2954 -2.3459 0.9735
2.8958 5.5754 -2.3460 0.9735
2.3881 5.8111 -2.3460 0.9735
1.3199 6.1425 -2.3460 0.9735
0.7680 6.2357 -2.3461 0.9735
-0.3498 6.2732 -2.3461 0.9735
-1.4565 6.1119 -2.3462 0.9735
-1.9948 5.9581 -2.3462 0.9735
-2.5172 5.7570 -2.3462 0.9735
-3.0196 5.5101 -2.3462 0.9735
-3.9488 4.8875 -2.3463 0.9735
-5.0616 4.3770 -2.4987 0.9718
-5.4311 3.9091 -2.4987 0.9718
-6.0382 2.8843 -2.4988 0.9718
-6.2710 2.3354 -2.4988 0.9718
-2.8528 -1.0624 -1.1947 0.9870
-5.7449 -2.7440 -2.4987 0.9730
-5.1673 -3.7192 -2.4987 0.9730
-4.0010 -4.9520 -2.4986 0.9730
-3.5443 -5.2884 -2.4986 0.9730
-2.0211 -6.0367 -2.4985 0.9730
-1.4758 -6.1926 -2.4985 0.9730
-0.9187 -6.2993 -2.4985 0.9730
-0.3544 -6.3560 -2.4984 0.9730
0.2127 -6.3622 -2.4984 0.9730
0.7781 -6.3180 -2.4984 0.9730
1.3374 -6.2236 -2.4984 0.9730
2.4196 -5.8878 -2.4983 0.9730
3.4252 -5.3654 -2.4983 0.9730
3.8891 -5.0392 -2.4982 0.9730
5.0821 -3.8326 -2.4982 0.9730
5.6811 -2.8707 -2.4982 0.9730
5.9141 -2.3537 -2.4982 0.9730
6.1001 -1.8179 -2.4982 0.9730
6.3257 -0.7076 -2.4982 0.9730
6.2880 0.9888 -2.4982 0.9730
8.7069 3.9232 -3.7481 0.9598
4.9278 3.3828 -2.3458 0.9746
4.6072 3.8080 -2.3459 0.9746
4.2500 4.2030 -2.3459 0.9746
3.8591 4.5646 -2.3459 0.9746
2.9887 5.1766 -2.3459 0.9746
2.5161 5.4222 -2.3460 0.9746
2.0236 5.6246 -2.3460 0.9746
1.5149 5.7825 -2.3460 0.9746
0.4657 5.9596 -2.3461 0.9746
-0.0666 5.9774 -2.3461 0.9746
-0.5983 5.9479 -2.3461 0.9746
-3.1036 5.1094 -2.3462 0.9746
-3.5461 4.8129 -2.3463 0.9746
-3.9604 4.4782 -2.3463 0.9746
-5.3279 3.4854 -2.4987 0.9730
-6.0595 1.9540 -2.4988 0.9730
-6.3099 0.8486 -2.4988 0.9730
-2.8734 -0.3864 -1.1379 0.9876
-2.8326 -0.6418 -1.1399 0.9876
-5.6169 -2.9972 -2.4987 0.9730
-4.9964 -3.9456 -2.4987 0.9730
-4.2176 -4.7689 -2.4986 0.9730
-3.3052 -5.4410 -2.4986 0.9730
-2.2880 -5.9407 -2.4985 0.9730
-0.6372 -6.3339 -2.4985 0.9730
-0.0709 -6.3654 -2.4984 0.9730
0.4959 -6.3464 -2.4984 0.9730
1.0588 -6.2771 -2.4984 0.9730
1.6133 -6.1578 -2.4983 0.9730
3.1828 -5.5126 -2.4983 0.9730
3.6608 -5.2074 -2.4983 0.9730
4.1097 -4.8609 -2.4982 0.9730
5.2478 -3.6024 -2.4982 0.9730
6.0130 -2.0879 -2.4982 0.9730
6.1750 -1.5444 -2.4982 0.9730
6.2879 -0.9887 -2.4982 0.9730
6.3258 0.7077 -2.4982 0.9730
6.2377 1.2679 -2.4982 0.9730
6.1001 1.8180 -2.4982 0.9730
4.7722 3.5989 -2.3459 0.9746
4.4330 4.0095 -2.3459 0.9746
3.2163 5.0383 -2.3459 0.9746
1.2558 5.8442 -2.3460 0.9746
0.7307 5.9329 -2.3461 0.9746
0.1998 5.9744 -2.3461 0.9746
-1.3858 5.8151 -2.3462 0.9746
-1.8979 5.6687 -2.3462 0.9746
-2.8730 5.2425 -2.3462 0.9746
-4.1849 4.3272 -2.3626 0.9745
-4.8158 4.1644 -2.4987 0.9730
-5.1673 3.7193 -2.4987 0.9730
-6.1405 1.6821 -2.4988 0.9730
-6.2659 1.1289 -2.4988 0.9730
-3.1614 0.0000 -1.3018 0.9864
-2.8130 -0.2514 -1.1629 0.9879
-2.7831 -0.5014 -1.1645 0.9878
-4.9249 -3.5447 -2.4987 0.9741
-4.2183 -4.3617 -2.4986 0.9741
-3.8133 -4.7198 -2.4986 0.9741
-2.9160 -5.3210 -2.4986 0.9741
-1.9263 -5.7536 -2.4985 0.9741
-1.4066 -5.9022 -2.4985 0.9741
-0.8756 -6.0039 -2.4985 0.9741
-0.3378 -6.0579 -2.4984 0.9741
0.2027 -6.0639 -2.4984 0.9741
0.7417 -6.0217 -2.4984 0.9741
1.7976 -5.7947 -2.4983 0.9741
4.1195 -4.4539 -2.4982 0.9741
4.8438 -3.6529 -2.4982 0.9741
6.0291 -0.6744 -2.4982 0.9741
6.0652 -0.1351 -2.4982 0.9741
8.2987 3.7392 -3.7481 0.9614
7.9329 4.4630 -3.7481 0.9614
4.6967 3.2241 -2.3459 0.9757
3.6781 4.3506 -2.3459 0.9757
2.8486 4.9339 -2.3460 0.9757
2.3981 5.1679 -2.3460 0.9757
1.9287 5.3609 -2.3460 0.9757
1.4439 5.5113 -2.3460 0.9757
0.9476 5.6180 -2.3460 0.9757
0.4439 5.6801 -2.3461 0.9757
-0.0635 5.6971 -2.3461 0.9757
-1.0726 5.5957 -2.3461 0.9757
-1.5664 5.4781 -2.3462 0.9757
-2.5129 5.1137 -2.3462 0.9757
-2.9581 4.8698 -2.3462 0.9757
-3.3798 4.5872 -2.3462 0.9757
-4.4086 4.1696 -2.4987 0.9741
-5.0780 3.3219 -2.4987 0.9741
-5.7753 1.8623 -2.4987 0.9741
-6.0140 0.8088 -2.4987 0.9741
-3.5093 0.1565 -1.4465 0.9849
-2.9337 -0.1308 -1.2092 0.9874
-2.7946 -0.3758 -1.1611 0.9879
-2.7756 -0.6288 -1.1719 0.9878
-2.7775 -0.8956 -1.2017 0.9875
-2.8016 -1.1880 -1.2531 0.9869
-5.3535 -2.8566 -2.4987 0.9741
-4.7621 -3.7606 -2.4987 0.9741
-4.4085 -4.1695 -2.4986 0.9741
-4.0198 -4.5453 -2.4986 0.9741
-3.5993 -4.8850 -2.4986 0.9741
-3.1502 -5.1859 -2.4986 0.9741
-1.6681 -5.8337 -2.4985 0.9741
-0.0676 -6.0670 -2.4984 0.9741
1.0092 -5.9827 -2.4984 0.9741
1.5376 -5.8691 -2.4984 0.9741
2.0539 -5.7088 -2.4983 0.9741
2.5539 -5.5033 -2.4983 0.9741
3.4891 -4.9632 -2.4983 0.9741
3.9170 -4.6330 -2.4982 0.9741
4.6763 -3.8650 -2.4982 0.9741
5.8855 -1.4720 -2.4982 0.9741
6.0652 0.1352 -2.4982 0.9741
6.0292 0.6745 -2.4982 0.9741
5.8141 1.7328 -2.4982 0.9741
8.4570 3.3658 -3.7481 0.9614
3.4807 4.5101 -2.3459 0.9757
3.0655 4.8021 -2.3459 0.9757
2.6260 5.0559 -2.3460 0.9757
1.6880 5.4415 -2.3460 0.9757
1.1970 5.5702 -2.3460 0.9757
0.6964 5.6546 -2.3461 0.9757
0.1904 5.6943 -2.3461 0.9757
-0.3172 5.6887 -2.3461 0.9757
-0.8223 5.6379 -2.3461 0.9757
-1.3208 5.5424 -2.3462 0.9757
-1.8089 5.4029 -2.3462 0.9757
-2.2826 5.2205 -2.3462 0.9757
-2.7382 4.9967 -2.3462 0.9757
-3.5808 4.4321 -2.3463 0.9757
-4.5899 3.9691 -2.4987 0.9741
-4.9250 3.5449 -2.4987 0.9741
-5.2210 3.0925 -2.4987 0.9741
-5.4755 2.6155 -2.4987 0.9741
-5.6866 2.1177 -2.4987 0.9741
-5.9720 1.0759 -2.4987 0.9741
-3.0794 0.0000 -1.3283 0.9867
-2.7539 -0.2461 -1.1927 0.9880
-2.7278 -0.4914 -1.1956 0.9880
-2.7092 -0.7421 -1.2117 0.9878
-2.7884 -1.6516 -1.3980 0.9860
-4.3815 -3.7888 -2.4986 0.9751
-3.6403 -4.5055 -2.4986 0.9751
-2.7837 -5.0795 -2.4986 0.9751
-2.3205 -5.3071 -2.4985 0.9751
-0.8359 -5.7314 -2.4985 0.9751
-0.3225 -5.7830 -2.4984 0.9751
1.2168 -5.6626 -2.4984 0.9751
1.7160 -5.5318 -2.4983 0.9751
2.2015 -5.3570 -2.4983 0.9751
2.6695 -5.1398 -2.4983 0.9751
4.2953 -3.8849 -2.4982 0.9751
4.6240 -3.4871 -2.4982 0.9751
4.9160 -3.0617 -2.4982 0.9751
5.3810 -2.1415 -2.4982 0.9751
5.5502 -1.6541 -2.4982 0.9751
5.6754 -1.1535 -2.4982 0.9751
5.7555 -0.6438 -2.4982 0.9751
5.7900 -0.1290 -2.4982 0.9751
5.7212 0.8996 -2.4982 0.9751
5.4711 1.8998 -2.4982 0.9751
7.9220 3.5695 -3.7481 0.9629
7.5730 4.2605 -3.7481 0.9629
3.8669 3.8241 -2.3459 0.9766
3.5112 4.1531 -2.3459 0.9766
2.2893 4.9334 -2.3460 0.9766
1.8411 5.1176 -2.3460 0.9766
1.3784 5.2612 -2.3460 0.9766
-0.0606 5.4386 -2.3461 0.9766
-0.5444 5.4116 -2.3461 0.9766
-1.0239 5.3417 -2.3461 0.9766
-1.4953 5.2295 -2.3462 0.9766
-1.9548 5.0757 -2.3462 0.9766
-2.3988 4.8816 -2.3462 0.9766
-3.7447 4.2342 -2.4383 0.9757
-4.2084 3.9804 -2.4987 0.9751
-4.5460 3.5900 -2.4987 0.9751
-4.8476 3.1711 -2.4987 0.9751
-5.1106 2.7271 -2.4987 0.9751
-5.6495 1.2801 -2.4987 0.9751
-5.7410 0.7721 -2.4987 0.9751
-2.8614 -0.1276 -1.2355 0.9876
-2.7200 -0.6163 -1.2030 0.9879
-2.7166 -0.8760 -1.2313 0.9876
-5.1105 -2.7270 -2.4987 0.9751
-4.8475 -3.1711 -2.4987 0.9751
-4.5460 -3.5899 -2.4987 0.9751
-4.2084 -3.9802 -2.4986 0.9751
-3.8374 -4.3389 -2.4986 0.9751
-2.5546 -5.1985 -2.4985 0.9751
-2.0818 -5.4052 -2.4985 0.9751
-1.0904 -5.6885 -2.4985 0.9751
-0.0645 -5.7916 -2.4984 0.9751
0.4512 -5.7743 -2.4984 0.9751
0.9634 -5.7112 -2.4984 0.9751
1.9607 -5.4498 -2.4983 0.9751
2.4380 -5.2536 -2.4983 0.9751
2.8959 -5.0157 -2.4983 0.9751
3.3308 -4.7380 -2.4983 0.9751
3.7392 -4.4227 -2.4983 0.9751
4.1180 -4.0723 -2.4982 0.9751
5.0475 -2.8397 -2.4982 0.9751
5.2802 -2.3791 -2.4982 0.9751
5.4710 -1.8997 -2.4982 0.9751
5.6184 -1.4052 -2.4982 0.9751
5.7212 -0.8995 -2.4982 0.9751
5.7900 0.1290 -2.4982 0.9751
5.7556 0.6439 -2.4982 0.9751
5.6754 1.1536 -2.4982 0.9751
5.5503 1.6542 -2.4982 0.9751
5.3810 2.1416 -2.4982 0.9751
7.7552 3.9189 -3.7481 0.9629
4.3420 3.2745 -2.3459 0.9766
2.0673 5.0304 -2.3460 0.9766
1.6114 5.1945 -2.3460 0.9766
1.1426 5.3174 -2.3460 0.9766
0.6648 5.3980 -2.3461 0.9766
-0.3028 5.4305 -2.3461 0.9766
-1.2609 5.2909 -2.3461 0.9766
-1.7268 5.1577 -2.3462 0.9766
-4.0269 4.1639 -2.4987 0.9751
-4.9840 2.9521 -2.4987 0.9751
-5.5869 1.5304 -2.4987 0.9751
-3.8265 0.3420 -1.6572 0.9834
-2.9980 0.0000 -1.3528 0.9869
-2.7005 -0.2413 -1.2234 0.9882
-2.6607 -0.9909 -1.2811 0.9876
-2.6867 -1.5913 -1.4090 0.9864
-4.4945 -3.2349 -2.4987 0.9760
-4.1887 -3.6220 -2.4986 0.9760
-3.4800 -4.3072 -2.4986 0.9760
-1.7580 -5.2507 -2.4985 0.9760
-0.7991 -5.4792 -2.4985 0.9760
0.6768 -5.4954 -2.4984 0.9760
1.1633 -5.4134 -2.4984 0.9760
1.6405 -5.2883 -2.4984 0.9760
2.1046 -5.1212 -2.4983 0.9760
2.5521 -4.9135 -2.4983 0.9760
4.4205 -3.3336 -2.4982 0.9760
4.6997 -2.9269 -2.4982 0.9760
5.3060 -1.5813 -2.4982 0.9760
5.4256 -1.1027 -2.4982 0.9760
5.5023 -0.6155 -2.4982 0.9760
5.5352 -0.1233 -2.4982 0.9760
5.5242 0.3699 -2.4982 0.9760
5.4694 0.8600 -2.4982 0.9760
5.3712 1.3434 -2.4982 0.9760
7.5734 3.4124 -3.7481 0.9642
7.2397 4.0730 -3.7481 0.9642
3.6967 3.6558 -2.3459 0.9774
2.5996 4.5027 -2.3460 0.9774
2.1886 4.7162 -2.3460 0.9774
1.7601 4.8923 -2.3460 0.9774
1.3177 5.0296 -2.3460 0.9774
0.8648 5.1270 -2.3460 0.9774
-0.5204 5.1735 -2.3461 0.9774
-0.9788 5.1067 -2.3461 0.9774
-2.6996 4.4441 -2.3462 0.9774
-3.0843 4.1862 -2.3462 0.9774
-3.6685 4.1481 -2.4987 0.9760
-4.0232 3.8052 -2.4987 0.9760
-4.3459 3.4320 -2.4987 0.9760
-4.8856 2.6071 -2.4987 0.9760
-5.0983 2.1619 -2.4987 0.9760
-5.4883 0.7381 -2.4987 0.9760
-3.2608 0.1454 -1.4728 0.9858
-2.7833 -0.1241 -1.2571 0.9878
-2.6659 -0.6040 -1.2334 0.9881
-4.6341 -3.0315 -2.4987 0.9760
-3.2847 -4.4580 -2.4986 0.9760
-2.8748 -4.7326 -2.4986 0.9760
-1.5223 -5.3238 -2.4985 0.9760
-0.0617 -5.5367 -2.4984 0.9760
1.4033 -5.3561 -2.4984 0.9760
2.3307 -5.0224 -2.4983 0.9760
2.7684 -4.7950 -2.4983 0.9760
3.1842 -4.5295 -2.4983 0.9760
3.5747 -4.2281 -2.4983 0.9760
3.9368 -3.8931 -2.4983 0.9760
4.2677 -3.5273 -2.4982 0.9760
4.5646 -3.1334 -2.4982 0.9760
5.0479 -2.2744 -2.4982 0.9760
5.2302 -1.8161 -2.4982 0.9760
5.3711 -1.3434 -2.4982 0.9760
5.5242 -0.3697 -2.4982 0.9760
5.5352 0.1234 -2.4982 0.9760
5.5023 0.6156 -2.4982 0.9760
5.4257 1.1028 -2.4982 0.9760
5.1442 2.0474 -2.4982 0.9760
7.4139 3.7464 -3.7481 0.9642
7.0511 4.3915 -3.7482 0.9642
3.8559 3.4874 -2.3459 0.9774
3.1765 4.1159 -2.3459 0.9774
2.7976 4.3824 -2.3460 0.9774
1.9763 4.8090 -2.3460 0.9774
0.1737 5.1966 -2.3461 0.9774
-1.2054 5.0580 -2.3461 0.9774
-2.4989 4.5599 -2.3462 0.9774
-3.8497 3.9806 -2.4987 0.9760
-5.4500 0.9819 -2.4987 0.9760
-3.7666 0.3366 -1.7063 0.9835
-2.6448 -0.2363 -1.2517 0.9883
-2.6212 -0.4722 -1.2555 0.9883
-2.6052 -1.2444 -1.3609 0.9873
-4.3022 -3.0965 -2.4986 0.9768
-4.0095 -3.4671 -2.4986 0.9768
-3.6850 -3.8102 -2.4986 0.9768
-2.9510 -4.4032 -2.4986 0.9768
-2.5473 -4.6483 -2.4986 0.9768
-2.1235 -4.8565 -2.4985 0.9768
-1.6828 -5.0262 -2.4985 0.9768
0.1771 -5.2973 -2.4984 0.9768
0.6479 -5.2604 -2.4984 0.9768
1.1135 -5.1819 -2.4984 0.9768
1.5703 -5.0621 -2.4984 0.9768
2.0146 -4.9022 -2.4983 0.9768
3.5987 -3.8908 -2.4983 0.9768
3.9307 -3.5551 -2.4983 0.9768
4.2315 -3.1911 -2.4982 0.9768
4.7302 -2.3902 -2.4982 0.9768
5.0791 -1.5137 -2.4982 0.9768
5.2985 -0.1180 -2.4982 0.9768
5.2880 0.3540 -2.4982 0.9768
5.2355 0.8233 -2.4982 0.9768
5.0066 1.7385 -2.4982 0.9768
4.8320 2.1772 -2.4982 0.9768
6.5556 4.5002 -3.7482 0.9654
3.5386 3.4995 -2.3459 0.9782
3.2131 3.8006 -2.3459 0.9782
2.4884 4.3101 -2.3460 0.9782
-0.4982 4.9522 -2.3461 0.9782
-1.7889 4.6447 -2.3462 0.9782
-2.5841 4.2540 -2.3462 0.9782
-3.5116 3.9707 -2.4986 0.9768
-4.1601 3.2852 -2.4987 0.9768
-4.4360 2.9019 -2.4987 0.9768
-4.6767 2.4956 -2.4987 0.9768
-4.8802 2.0695 -2.4987 0.9768
-5.0451 1.6269 -2.4987 0.9768
-5.1698 1.1714 -2.4987 0.9768
-2.7082 -0.1207 -1.2778 0.9881
-2.6352 -0.3544 -1.2533 0.9883
-2.6131 -0.5920 -1.2630 0.9882
-2.6038 -1.1041 -1.3332 0.9876
-3.5116 -3.9706 -2.4986 0.9768
-3.1442 -4.2673 -2.4986 0.9768
-2.7519 -4.5302 -2.4986 0.9768
-2.3377 -4.7571 -2.4985 0.9768
-0.9978 -5.2056 -2.4985 0.9768
0.4129 -5.2841 -2.4984 0.9768
0.8816 -5.2263 -2.4984 0.9768
1.3432 -5.1271 -2.4984 0.9768
1.7942 -4.9871 -2.4983 0.9768
3.4218 -4.0473 -2.4983 0.9768
5.0066 -1.7384 -2.4982 0.9768
5.2355 -0.8232 -2.4982 0.9768
5.2880 -0.3539 -2.4982 0.9768
5.0791 1.5138 -2.4982 0.9768
7.0968 3.5862 -3.7481 0.9654
6.7495 4.2037 -3.7482 0.9654
3.3792 3.6536 -2.3459 0.9782
3.0407 3.9400 -2.3459 0.9782
2.2940 4.4167 -2.3460 0.9782
1.8918 4.6034 -2.3460 0.9782
1.0456 4.8659 -2.3460 0.9782
0.6084 4.9398 -2.3461 0.9782
0.1663 4.9744 -2.3461 0.9782
-0.2771 4.9695 -2.3461 0.9782
-2.3920 4.3649 -2.3462 0.9782
-3.6850 3.8104 -2.4987 0.9768
-4.3023 3.0966 -2.4987 0.9768
-4.5608 2.7014 -2.4987 0.9768
-4.7832 2.2848 -2.4987 0.9768
-5.2169 0.9399 -2.4987 0.9768
-3.7077 0.3313 -1.7547 0.9837
-3.8426 -3.3228 -2.4986 0.9776
-3.5315 -3.6516 -2.4986 0.9776
-3.1925 -3.9514 -2.4986 0.9776
-2.8281 -4.2198 -2.4986 0.9776
-2.0351 -4.6543 -2.4985 0.9776
-1.1776 -4.9413 -2.4985 0.9776
-0.7331 -5.0265 -2.4985 0.9776
-0.2828 -5.0717 -2.4984 0.9776
1.0672 -4.9661 -2.4984 0.9776
1.9307 -4.6982 -2.4983 0.9776
2.3412 -4.5076 -2.4983 0.9776
2.7331 -4.2813 -2.4983 0.9776
3.1033 -4.0210 -2.4983 0.9776
3.7671 -3.4071 -2.4983 0.9776
4.3114 -2.6851 -2.4982 0.9776
4.8676 -1.4507 -2.4982 0.9776
5.0679 0.3393 -2.4982 0.9776
4.7982 1.6662 -2.4982 0.9776
6.2827 4.3128 -3.7482 0.9666
3.3913 3.3538 -2.3459 0.9790
1.6147 4.4881 -2.3460 0.9790
1.2088 4.6141 -2.3460 0.9790
-0.0531 4.7696 -2.3461 0.9790
-0.4774 4.7460 -2.3461 0.9790
-0.8980 4.6847 -2.3461 0.9790
-1.3114 4.5862 -2.3461 0.9790
-3.0134 4.0898 -2.4986 0.9776
-4.2513 2.7811 -2.4987 0.9776
-4.4819 2.3917 -2.4987 0.9776
-4.6770 1.9833 -2.4987 0.9776
-5.0348 0.6771 -2.4987 0.9776
-3.0630 0.1366 -1.5081 0.9864
-2.6467 -0.1180 -1.3031 0.9883
-2.5845 -0.3476 -1.2826 0.9884
-2.5616 -0.5804 -1.2919 0.9884
-2.5430 -0.8200 -1.3142 0.9882
-2.5301 -1.3501 -1.4105 0.9873
-4.2512 -2.7809 -2.4986 0.9776
-3.9868 -3.1483 -2.4986 0.9776
-3.6907 -3.4906 -2.4986 0.9776
-3.3654 -3.8052 -2.4986 0.9776
-3.0133 -4.0897 -2.4986 0.9776
-2.6373 -4.3416 -2.4986 0.9776
-2.2404 -4.5591 -2.4985 0.9776
-1.8257 -4.7403 -2.4985 0.9776
-1.3965 -4.8840 -2.4985 0.9776
-0.9563 -4.9888 -2.4985 0.9776
-0.5084 -5.0541 -2.4985 0.9776
0.8449 -5.0087 -2.4984 0.9776
2.1381 -4.6075 -2.4983 0.9776
2.5397 -4.3988 -2.4983 0.9776
2.9211 -4.1553 -2.4983 0.9776
3.6116 -3.5715 -2.4983 0.9776
3.9151 -3.2359 -2.4983 0.9776
4.1875 -2.8745 -2.4982 0.9776
4.6308 -2.0865 -2.4982 0.9776
4.9274 -1.2324 -2.4982 0.9776
5.0779 0.1132 -2.4982 0.9776
4.9774 1.0117 -2.4982 0.9776
4.8677 1.4507 -2.4982 0.9776
4.7192 1.8782 -2.4982 0.9776
6.0843 4.5884 -3.7482 0.9666
2.1985 4.2329 -2.3460 0.9790
1.8130 4.4118 -2.3460 0.9790
1.4132 4.5556 -2.3460 0.9790
1.0021 4.6634 -2.3460 0.9790
0.5831 4.7341 -2.3461 0.9790
0.1594 4.7672 -2.3461 0.9790
-0.2655 4.7625 -2.3461 0.9790
-0.6884 4.7201 -2.3461 0.9790
-1.1058 4.6401 -2.3461 0.9790
-1.5144 4.5233 -2.3462 0.9790
-2.2924 4.1831 -2.3462 0.9790
-3.5316 3.6517 -2.4986 0.9776
-4.1231 2.9677 -2.4987 0.9776
-4.8997 1.3422 -2.4987 0.9776
-2.5199 -0.4540 -1.3126 0.9886
-2.4994 -0.6846 -1.3286 0.9884
-2.4879 -1.1884 -1.4135 0.9877
-2.4521 -1.4524 -1.4611 0.9873
-3.9557 -2.8471 -2.4986 0.9783
-3.0629 -3.7909 -2.4986 0.9783
-2.3422 -4.2739 -2.4985 0.9783
-1.9524 -4.4653 -2.4985 0.9783
-1.1298 -4.7407 -2.4985 0.9783
-0.7033 -4.8224 -2.4985 0.9783
-0.2713 -4.8658 -2.4984 0.9783
0.1629 -4.8706 -2.4984 0.9783
0.5957 -4.8367 -2.4984 0.9783
1.0238 -4.7645 -2.4984 0.9783
1.4438 -4.6544 -2.4984 0.9783
2.2462 -4.3246 -2.4983 0.9783
2.6222 -4.1075 -2.4983 0.9783
3.3089 -3.5775 -2.4983 0.9783
3.8907 -2.9341 -2.4983 0.9783
4.3493 -2.1977 -2.4982 0.9783
4.5276 -1.8019 -2.4982 0.9783
4.6700 -1.3918 -2.4982 0.9783
4.8718 -0.1085 -2.4982 0.9783
4.7274 1.1824 -2.4982 0.9783
4.6034 1.5985 -2.4983 0.9783
6.3719 3.5848 -3.7482 0.9677
6.0276 4.1377 -3.7482 0.9677
5.6354 4.6578 -3.7482 0.9677
3.2536 3.2176 -2.3459 0.9796
2.2880 3.9630 -2.3460 0.9796
1.9262 4.1509 -2.3460 0.9796
1.5491 4.3059 -2.3460 0.9796
1.1597 4.4267 -2.3460 0.9796
0.7611 4.5124 -2.3461 0.9796
0.3565 4.5623 -2.3461 0.9796
-0.0510 4.5760 -2.3461 0.9796
-0.4581 4.5533 -2.3461 0.9796
-0.8615 4.4945 -2.3461 0.9796
-1.6448 4.2706 -2.3462 0.9796
-2.0184 4.1073 -2.3462 0.9796
-3.2288 3.6509 -2.4986 0.9783
-3.5409 3.3491 -2.4986 0.9783
-3.8250 3.0206 -2.4987 0.9783
-4.0786 2.6681 -2.4987 0.9783
-4.4871 1.9028 -2.4987 0.9783
-4.6387 1.4958 -2.4987 0.9783
-4.7534 1.0770 -2.4987 0.9783
-4.8304 0.6497 -2.4987 0.9783
-2.9775 0.1328 -1.5280 0.9867
-2.5877 -0.1154 -1.3280 0.9884
-2.5350 -0.3409 -1.3113 0.9886
-2.5113 -0.5690 -1.3201 0.9885
-2.4881 -0.8023 -1.3403 0.9883
-2.4879 -1.0550 -1.3854 0.9879
-2.4717 -1.3189 -1.4363 0.9875
-4.0786 -2.6680 -2.4986 0.9783
-3.2287 -3.6507 -2.4986 0.9783
-2.8909 -3.9236 -2.4986 0.9783
-2.5302 -4.1653 -2.4986 0.9783
-2.1494 -4.3739 -2.4985 0.9783
-1.3398 -4.6857 -2.4985 0.9783
-0.9175 -4.7863 -2.4985 0.9783
-0.4878 -4.8489 -2.4985 0.9783
-0.0543 -4.8730 -2.4984 0.9783
0.8106 -4.8054 -2.4984 0.9783
1.2351 -4.7141 -2.4984 0.9783
1.6497 -4.5854 -2.4984 0.9783
2.0513 -4.4204 -2.4983 0.9783
2.4366 -4.2202 -2.4983 0.9783
3.1462 -3.7213 -2.4983 0.9783
3.4649 -3.4265 -2.4983 0.9783
3.7561 -3.1045 -2.4983 0.9783
4.0175 -2.7578 -2.4983 0.9783
4.4428 -2.0018 -2.4982 0.9783
4.6034 -1.5984 -2.4982 0.9783
4.8138 -0.7569 -2.4982 0.9783
4.8428 0.5418 -2.4982 0.9783
4.7754 0.9707 -2.4982 0.9783
4.6700 1.3918 -2.4982 0.9783
5.4224 4.9042 -3.7482 0.9677
2.7958 3.6226 -2.3459 0.9796
2.4623 3.8571 -2.3460 0.9796
2.1092 4.0610 -2.3460 0.9796
1.7394 4.2326 -2.3460 0.9796
1.3558 4.3706 -2.3460 0.9796
0.5594 4.5419 -2.3461 0.9796
0.1529 4.5737 -2.3461 0.9796
-1.0609 4.4517 -2.3461 0.9796
-2.1993 4.0133 -2.3462 0.9796
-3.0629 3.7911 -2.4986 0.9783
-3.3882 3.5034 -2.4986 0.9783
-3.9557 2.8472 -2.4987 0.9783
-4.1935 2.4838 -2.4987 0.9783
-4.3979 2.1007 -2.4987 0.9783
-4.7007 1.2877 -2.4987 0.9783
-2.4853 -0.2221 -1.3321 0.9887
-2.4292 -1.1603 -1.4371 0.9879
-3.7988 -2.7341 -2.4986 0.9790
-2.9414 -3.6406 -2.4986 0.9790
-2.6057 -3.8879 -2.4986 0.9790
-2.2493 -4.1044 -2.4985 0.9790
-1.4859 -4.4380 -2.4985 0.9790
-0.6754 -4.6311 -2.4985 0.9790
0.9832 -4.5755 -2.4984 0.9790
1.3866 -4.4698 -2.4984 0.9790
1.7789 -4.3286 -2.4983 0.9790
2.1571 -4.1531 -2.4983 0.9790
2.5182 -3.9446 -2.4983 0.9790
3.1776 -3.4355 -2.4983 0.9790
3.4708 -3.1391 -2.4983 0.9790
3.7364 -2.8177 -2.4983 0.9790
4.1768 -2.1106 -2.4983 0.9790
4.3480 -1.7305 -2.4982 0.9790
4.5860 -0.9321 -2.4982 0.9790
4.6507 -0.5202 -2.4982 0.9790
4.6786 -0.1042 -2.4982 0.9790
4.5399 1.1355 -2.4983 0.9790
4.4208 1.5351 -2.4983 0.9790
4.2667 1.9225 -2.4983 0.9790
4.0786 2.2946 -2.4983 0.9790
5.7886 3.9736 -3.7482 0.9687
2.8372 3.3559 -2.3459 0.9803
2.1973 3.8058 -2.3460 0.9803
1.8498 3.9863 -2.3460 0.9803
0.7310 4.3335 -2.3461 0.9803
-0.8273 4.3162 -2.3461 0.9803
-1.2082 4.2255 -2.3461 0.9803
-1.5795 4.1012 -2.3462 0.9803
-1.9383 3.9444 -2.3462 0.9803
-3.1007 3.5061 -2.4986 0.9790
-3.4005 3.2162 -2.4986 0.9790
-3.6732 2.9008 -2.4986 0.9790
-3.9169 2.5623 -2.4987 0.9790
-4.3091 1.8273 -2.4987 0.9790
-4.4547 1.4365 -2.4987 0.9790
-4.5648 1.0343 -2.4987 0.9790
-4.6388 0.6239 -2.4987 0.9790
-2.4330 -1.0317 -1.4108 0.9881
-2.4151 -1.2887 -1.4613 0.9877
-3.4004 -3.2161 -2.4986 0.9790
-3.1006 -3.5059 -2.4986 0.9790
-2.7763 -3.7680 -2.4986 0.9790
-2.0642 -4.2004 -2.4985 0.9790
-1.2867 -4.4998 -2.4985 0.9790
-0.8811 -4.5964 -2.4985 0.9790
-0.4685 -4.6566 -2.4985 0.9790
0.3646 -4.6658 -2.4984 0.9790
2.3399 -4.0529 -2.4983 0.9790
2.6914 -3.8285 -2.4983 0.9790
3.0214 -3.5737 -2.4983 0.9790
4.0786 -2.2945 -2.4983 0.9790
4.5399 -1.1355 -2.4982 0.9790
4.6786 0.1043 -2.4982 0.9790
4.4848 1.3366 -2.4983 0.9790
5.6058 4.2276 -3.7482 0.9687
2.3646 3.7041 -2.3460 0.9803
2.0256 3.8999 -2.3460 0.9803
0.9233 4.2966 -2.3460 0.9803
0.5372 4.3618 -2.3461 0.9803
-0.2447 4.3880 -2.3461 0.9803
-0.6342 4.3488 -2.3461 0.9803
-1.0188 4.2751 -2.3461 0.9803
-2.1688 3.9577 -2.4092 0.9797
-2.9414 3.6407 -2.4986 0.9790
-3.7988 2.7343 -2.4987 0.9790
-4.0271 2.3853 -2.4987 0.9790
-4.3863 1.6335 -2.4987 0.9790
-4.6064 0.8299 -2.4987 0.9790
-3.5314 0.3156 -1.8927 0.9841
-2.4018 -0.6579 -1.3831 0.9887
-2.3823 -0.8872 -1.4119 0.9884
-2.3176 -1.3727 -1.4960 0.9878
-2.8272 -3.4993 -2.4986 0.9796
-2.5045 -3.7370 -2.4986 0.9796
-1.4282 -4.2658 -2.4985 0.9796
-1.0428 -4.3760 -2.4985 0.9796
-0.2504 -4.4915 -2.4984 0.9796
0.1503 -4.4959 -2.4984 0.9796
0.5499 -4.4646 -2.4984 0.9796
0.9451 -4.3980 -2.4984 0.9796
2.4204 -3.7915 -2.4983 0.9796
3.0543 -3.3022 -2.4983 0.9796
3.3361 -3.0173 -2.4983 0.9796
3.5914 -2.7084 -2.4983 0.9796
3.8182 -2.3780 -2.4983 0.9796
4.0147 -2.0287 -2.4983 0.9796
4.3108 -1.2847 -2.4982 0.9796
4.4080 -0.8959 -2.4982 0.9796
4.4970 -0.1002 -2.4982 0.9796
4.4881 0.3005 -2.4982 0.9796
4.4436 0.6988 -2.4983 0.9796
4.3637 1.0915 -2.4983 0.9796
4.2493 1.4756 -2.4983 0.9796
3.9204 2.2056 -2.4983 0.9796
5.5640 3.8195 -3.7482 0.9696
1.7780 3.8316 -2.3460 0.9809
1.4300 3.9747 -2.3460 0.9809
1.0705 4.0862 -2.3460 0.9809
0.7026 4.1653 -2.3461 0.9809
0.3291 4.2113 -2.3461 0.9809
-0.0470 4.2239 -2.3461 0.9809
-0.7952 4.1487 -2.3461 0.9809
-1.1613 4.0615 -2.3461 0.9809
-2.3356 3.8450 -2.4986 0.9796
-2.9804 3.3700 -2.4986 0.9796
-3.5307 2.7882 -2.4986 0.9796
-3.9691 2.1180 -2.4987 0.9796
-4.1419 1.7564 -2.4987 0.9796
-2.4745 -0.1103 -1.3757 0.9887
-2.4351 -0.3275 -1.3646 0.9888
-2.4139 -0.5469 -1.3747 0.9887
-2.3870 -0.7697 -1.3929 0.9886
-2.3793 -1.0089 -1.4353 0.9882
-2.3600 -1.2593 -1.4857 0.9878
-2.2661 -1.4824 -1.5039 0.9877
-3.5306 -2.7881 -2.4986 0.9796
-3.2684 -3.0912 -2.4986 0.9796
-2.9803 -3.3699 -2.4986 0.9796
-2.6685 -3.6217 -2.4986 0.9796
-1.6168 -4.1979 -2.4985 0.9796
-1.2368 -4.3252 -2.4985 0.9796
1.1401 -4.3515 -2.4984 0.9796
1.8935 -4.0803 -2.4983 0.9796
2.5869 -3.6799 -2.4983 0.9796
3.4672 -2.8657 -2.4983 0.9796
4.1011 -1.8478 -2.4983 0.9796
4.2493 -1.4754 -2.4983 0.9796
4.3637 -1.0914 -2.4982 0.9796
4.4435 -0.6987 -2.4982 0.9796
4.4881 -0.3004 -2.4982 0.9796
4.4970 0.1003 -2.4982 0.9796
4.4703 0.5001 -2.4983 0.9796
4.4080 0.8960 -2.4983 0.9796
4.3108 1.2848 -2.4983 0.9796
4.0147 2.0287 -2.4983 0.9796
3.8183 2.3781 -2.4983 0.9796
5.3883 4.0635 -3.7482 0.9696
4.5825 4.9545 -3.7483 0.9696
1.9469 3.7486 -2.3460 0.9809
1.6056 3.9070 -2.3460 0.9809
1.2515 4.0344 -2.3460 0.9809
0.8875 4.1299 -2.3460 0.9809
0.1412 4.2218 -2.3461 0.9809
-0.2352 4.2177 -2.3461 0.9809
-0.9793 4.1092 -2.3461 0.9809
-1.6999 3.8877 -2.3566 0.9808
-2.5046 3.7371 -2.4986 0.9796
-2.8273 3.4994 -2.4986 0.9796
-3.1275 3.2339 -2.4986 0.9796
-3.4030 2.9427 -2.4986 0.9796
-3.6514 2.6281 -2.4986 0.9796
-4.0595 1.9391 -2.4987 0.9796
-4.3390 1.1886 -2.4987 0.9796
-2.5326 0.0000 -1.4622 0.9884
-2.3852 -0.2131 -1.3826 0.9890
-2.3203 -1.1083 -1.4846 0.9882
-2.2443 -1.3293 -1.5060 0.9880
-2.1928 -1.5783 -1.5599 0.9876
-3.2735 -2.8307 -2.4986 0.9802
-2.7197 -3.3662 -2.4986 0.9802
-2.4093 -3.5949 -2.4986 0.9802
