ply
format ascii 1.0
element vertex 1585
property float32 x
property float32 y
property float32 z
property float32 I
end_header
-4.3813 -5.9464 -0.0614 0.9709
-3.9991 -6.5834 -0.0640 0.9697
-6.2867 -5.4364 -0.2073 0.9673
-5.2610 -5.4398 -0.1887 0.9702
-4.6474 -5.7521 -0.1844 0.9708
-3.9244 -7.1611 -0.2036 0.9679
5.9509 4.9186 -0.1925 0.9696
-4.9285 -5.5728 -0.1855 0.9707
-4.4041 -5.9773 -0.1852 0.9707
-4.6777 -5.7897 -0.3095 0.9706
-4.2263 -6.3061 -0.3156 0.9701
-4.9621 -5.6107 -0.3114 0.9705
-4.4337 -6.0175 -0.3108 0.9705
-4.0627 -6.6881 -0.3254 0.9692
-6.6595 -5.7587 -0.5128 0.9653
-5.3568 -5.5389 -0.4488 0.9696
-4.7205 -5.8427 -0.4375 0.9704
-5.0091 -5.6638 -0.4404 0.9702
-4.1121 -6.7695 -0.4613 0.9688
-5.4135 -5.5975 -0.5836 0.9692
-4.7642 -5.8968 -0.5681 0.9700
-5.8891 -5.5699 -0.6075 0.9680
-4.5180 -6.1318 -0.5708 0.9699
-4.1629 -6.8531 -0.6009 0.9683
-5.4991 -5.6861 -0.7252 0.9687
-6.0433 -5.7157 -0.7626 0.9671
-5.1266 -5.7967 -0.7094 0.9694
-4.5793 -6.2151 -0.7077 0.9695
-5.6064 -5.7970 -0.8747 0.9681
-4.8993 -6.0639 -0.8456 0.9691
-4.4568 -6.6501 -0.8683 0.9683
-4.6502 -6.3113 -0.8503 0.9690
-4.3761 -7.2041 -0.9143 0.9667
-5.7752 -5.9715 -1.0410 0.9671
-4.9977 -6.1857 -0.9966 0.9685
-4.5847 -6.8408 -1.0320 0.9673
5.9461 4.9146 -0.9667 0.9694
-5.3179 -6.0131 -1.0059 0.9682
-5.1217 -6.3392 -1.1592 0.9676
-4.8044 -7.1687 -1.2275 0.9657
-5.4767 -6.1926 -1.1759 0.9672
14.5842 2.2933 -2.3509 0.9420
14.3214 3.5821 -2.3507 0.9420
13.9448 4.8422 -2.3506 0.9420
13.4575 6.0637 -2.3504 0.9420
12.8632 7.2367 -2.3502 0.9420
12.1668 8.3521 -2.3499 0.9420
10.4908 10.3746 -2.3494 0.9420
9.5245 11.2657 -2.3491 0.9420
6.2072 13.3761 -2.3481 0.9420
1.1481 14.6924 -2.3467 0.9421
-0.1641 14.7341 -2.3463 0.9421
-1.4747 14.6588 -2.3460 0.9421
-6.4942 13.2153 -2.3447 0.9421
-9.7516 11.0263 -2.3439 0.9421
-10.6933 10.1137 -2.3437 0.9421
-11.5501 9.1211 -2.3435 0.9421
-12.9827 6.9279 -2.3432 0.9421
14.4672 2.9406 -2.3508 0.9420
14.1472 4.2163 -2.3507 0.9420
13.7148 5.4584 -2.3505 0.9420
12.5274 7.8021 -2.3501 0.9420
10.9432 9.8975 -2.3496 0.9420
9.0126 11.6780 -2.3490 0.9420
3.0969 14.4116 -2.3472 0.9420
0.4924 14.7279 -2.3465 0.9421
-2.1261 14.5775 -2.3458 0.9421
-3.4146 14.3284 -2.3455 0.9421
-4.6757 13.9657 -2.3452 0.9421
-5.8994 13.4923 -2.3449 0.9421
-7.0760 12.9121 -2.3446 0.9421
-10.2326 10.5805 -2.3438 0.9421
-14.1535 0.0000 -2.4956 0.9441
-14.0977 -1.2597 -2.4957 0.9441
-13.6522 -3.7397 -2.4959 0.9441
-13.2660 -4.9403 -2.4961 0.9441
-12.1818 -7.2153 -2.4965 0.9441
-10.7116 -9.2627 -2.4970 0.9441
-4.4992 -13.4384 -2.4988 0.9441
-3.2857 -13.7874 -2.4992 0.9441
-2.0458 -14.0271 -2.4995 0.9440
0.4738 -14.1715 -2.5002 0.9440
1.7335 -14.0749 -2.5005 0.9440
5.3925 -13.1217 -2.5015 0.9440
6.5397 -12.5912 -2.5018 0.9440
12.0495 -7.5045 -2.5030 0.9440
12.6702 -6.4025 -2.5031 0.9440
13.1903 -5.2496 -2.5032 0.9440
14.1090 -1.5783 -2.5033 0.9440
13.1685 2.0707 -2.3505 0.9473
12.1514 5.4752 -2.3501 0.9473
5.9436 4.9125 -1.3597 0.9692
8.6006 10.1729 -2.3489 0.9473
7.6601 10.8967 -2.3486 0.9473
2.2140 13.1254 -2.3471 0.9474
-0.1482 13.3064 -2.3464 0.9474
-3.6570 12.7894 -2.3455 0.9474
-6.9036 11.3649 -2.3447 0.9474
-7.8869 10.7043 -2.3444 0.9474
-11.1233 7.2765 -2.3437 0.9474
-14.0269 1.8864 -2.4956 0.9441
-14.1393 0.6305 -2.4956 0.9441
-14.1396 -0.6305 -2.4957 0.9441
-13.8049 -3.1277 -2.4959 0.9441
-13.0333 -5.5266 -2.4962 0.9441
-12.4906 -6.6652 -2.4964 0.9441
-11.8489 -7.7512 -2.4966 0.9441
-11.1130 -8.7758 -2.4969 0.9441
-9.3830 -10.6095 -2.4974 0.9441
-7.3550 -12.1080 -2.4980 0.9441
-6.2490 -12.7162 -2.4983 0.9441
-2.6684 -13.9211 -2.4994 0.9441
2.3589 -13.9846 -2.5007 0.9440
5.9720 -12.8693 -2.5016 0.9440
8.1609 -11.6090 -2.5022 0.9440
9.1626 -10.8376 -2.5024 0.9440
10.9408 -9.0427 -2.5028 0.9440
12.3722 -6.9604 -2.5031 0.9440
13.4112 -4.6569 -2.5033 0.9440
14.1653 -0.9482 -2.5033 0.9440
14.1931 0.3163 -2.5033 0.9440
13.2480 1.4821 -2.3505 0.9473
12.7741 3.8071 -2.3503 0.9473
12.3837 4.9286 -2.3502 0.9473
11.3118 7.0451 -2.3498 0.9473
9.8815 8.9373 -2.3493 0.9473
9.0458 9.7802 -2.3490 0.9473
8.1384 10.5453 -2.3488 0.9473
7.1667 11.2264 -2.3485 0.9473
6.1382 11.8182 -2.3482 0.9473
5.0613 12.3160 -2.3479 0.9474
3.9445 12.7159 -2.3475 0.9474
0.4447 13.3007 -2.3466 0.9474
-3.0838 12.9404 -2.3456 0.9474
-6.3908 11.6618 -2.3448 0.9474
-7.4026 11.0455 -2.3446 0.9474
-8.3555 10.3418 -2.3443 0.9474
-10.0552 8.6951 -2.3440 0.9474
-11.4361 6.7737 -2.3437 0.9474
-11.9991 5.7315 -2.3447 0.9474
-13.2637 4.9395 -2.4957 0.9441
-13.6504 3.7393 -2.4956 0.9441
-14.0971 1.2597 -2.4956 0.9441
-12.8979 0.0000 -2.4960 0.9488
-12.8471 -1.1480 -2.4960 0.9488
-12.4410 -3.4079 -2.4963 0.9488
-12.0890 -4.5020 -2.4964 0.9488
-9.7609 -8.4406 -2.4972 0.9488
-8.1114 -10.0396 -2.4977 0.9488
-7.1864 -10.7229 -2.4980 0.9488
-5.1726 -11.8300 -2.4986 0.9488
-4.0996 -12.2449 -2.4989 0.9487
-1.8641 -12.7810 -2.4995 0.9487
-0.7192 -12.8978 -2.4998 0.9487
0.4317 -12.9122 -2.5001 0.9487
1.5794 -12.8241 -2.5004 0.9487
2.7149 -12.6341 -2.5007 0.9487
4.9131 -11.9552 -2.5013 0.9487
6.9564 -10.8969 -2.5018 0.9487
7.8993 -10.2354 -2.5020 0.9487
8.7797 -9.4925 -2.5022 0.9487
10.3251 -7.7865 -2.5026 0.9487
10.9777 -6.8370 -2.5027 0.9487
11.5432 -5.8330 -2.5028 0.9487
12.6749 -2.5762 -2.5030 0.9487
12.9307 -0.2881 -2.5029 0.9487
11.9972 1.8865 -2.3502 0.9517
11.4715 3.9833 -2.3500 0.9517
10.0093 6.8710 -2.3494 0.9517
8.6308 8.5352 -2.3490 0.9517
6.0672 10.5087 -2.3482 0.9518
5.1072 11.0057 -2.3479 0.9518
-0.1351 12.1246 -2.3465 0.9518
-2.2821 11.9057 -2.3459 0.9518
-3.3323 11.6540 -2.3456 0.9518
-4.3559 11.3099 -2.3454 0.9518
-5.3447 10.8761 -2.3451 0.9518
-7.1870 9.7543 -2.3447 0.9518
-8.0260 9.0752 -2.3445 0.9518
-8.8012 8.3242 -2.3443 0.9518
-10.1365 6.6310 -2.3440 0.9518
-10.6859 5.7022 -2.3439 0.9519
-11.8747 5.0354 -2.4960 0.9488
-12.8850 0.5746 -2.4960 0.9488
-12.8853 -0.5746 -2.4960 0.9488
-12.7834 -1.7192 -2.4961 0.9488
-12.5802 -2.8502 -2.4962 0.9488
-12.2772 -3.9588 -2.4963 0.9488
-11.3823 -6.0737 -2.4967 0.9488
-9.3757 -8.8674 -2.4973 0.9488
-8.5501 -9.6677 -2.4976 0.9488
-6.7020 -11.0330 -2.4981 0.9488
-5.6941 -11.5871 -2.4984 0.9488
-4.6407 -12.0494 -2.4987 0.9488
-3.5503 -12.4162 -2.4990 0.9487
-2.4314 -12.6845 -2.4994 0.9487
-0.1439 -12.9178 -2.5000 0.9487
2.1493 -12.7418 -2.5006 0.9487
3.2752 -12.5013 -2.5009 0.9487
6.4637 -11.1955 -2.5017 0.9487
8.3478 -9.8738 -2.5021 0.9487
9.1942 -9.0923 -2.5023 0.9487
9.9677 -8.2384 -2.5025 0.9487
11.2717 -6.3413 -2.5028 0.9487
11.7918 -5.3131 -2.5029 0.9487
12.2182 -4.2426 -2.5029 0.9487
12.5475 -3.1383 -2.5030 0.9487
12.9051 -0.8638 -2.5030 0.9487
12.9306 0.2882 -2.5029 0.9487
11.9010 2.4190 -2.3501 0.9517
10.3059 6.4186 -2.3495 0.9517
8.2416 8.9108 -2.3489 0.9518
7.4150 9.6079 -2.3486 0.9518
6.5297 10.2285 -2.3483 0.9518
3.5940 11.5860 -2.3475 0.9518
2.5482 11.8585 -2.3472 0.9518
0.4052 12.1193 -2.3466 0.9518
-0.6750 12.1058 -2.3463 0.9518
-4.8551 11.1040 -2.3452 0.9518
-6.7457 10.0653 -2.3448 0.9518
-7.6141 9.4241 -2.3446 0.9518
-9.1630 7.9236 -2.3442 0.9518
-9.8313 7.0762 -2.3441 0.9518
-10.4215 6.1727 -2.3440 0.9518
-12.4395 3.4076 -2.4959 0.9488
-11.7940 -1.0539 -2.4963 0.9527
-11.6538 -2.0995 -2.4964 0.9527
-11.4212 -3.1285 -2.4965 0.9527
-11.0980 -4.1329 -2.4966 0.9527
-10.1907 -6.0359 -2.4970 0.9527
-8.9605 -7.7485 -2.4974 0.9527
-7.4461 -9.2161 -2.4979 0.9527
-6.5969 -9.8433 -2.4981 0.9527
-1.7111 -11.7320 -2.4995 0.9527
0.3963 -11.8522 -2.5001 0.9527
2.4920 -11.5967 -2.5006 0.9527
3.5146 -11.3301 -2.5009 0.9527
4.5096 -10.9734 -2.5012 0.9527
5.4689 -10.5295 -2.5014 0.9527
8.0584 -8.7127 -2.5020 0.9526
10.5947 -5.3537 -2.5025 0.9526
11.0295 -4.3896 -2.5026 0.9526
11.8681 -0.2644 -2.5027 0.9526
10.8131 2.7046 -2.3498 0.9555
9.7127 5.4643 -2.3494 0.9555
4.6879 10.1021 -2.3479 0.9555
2.8218 10.7708 -2.3473 0.9555
0.8672 11.0979 -2.3468 0.9555
-0.1240 11.1298 -2.3465 0.9555
-1.1140 11.0733 -2.3463 0.9555
-3.0590 10.6981 -2.3457 0.9555
-3.9986 10.3823 -2.3455 0.9555
-4.9064 9.9842 -2.3453 0.9555
-6.5977 8.9545 -2.3449 0.9555
-7.3680 8.3311 -2.3447 0.9556
-8.7272 6.8919 -2.3444 0.9556
-9.3055 6.0874 -2.3443 0.9556
-10.9014 4.6226 -2.4963 0.9527
-11.7349 1.5782 -2.4962 0.9527
-11.8289 0.5275 -2.4962 0.9527
-11.8291 -0.5274 -2.4963 0.9527
-11.7356 -1.5783 -2.4964 0.9527
-11.5490 -2.6166 -2.4965 0.9527
-11.2708 -3.6344 -2.4966 0.9527
-10.4491 -5.5758 -2.4969 0.9527
-9.9121 -6.4841 -2.4971 0.9527
-9.2964 -7.3412 -2.4973 0.9527
-7.0285 -9.5392 -2.4980 0.9527
-3.2590 -11.3973 -2.4991 0.9527
-1.1868 -11.7973 -2.4997 0.9527
-0.1321 -11.8574 -2.4999 0.9527
1.9728 -11.6956 -2.5005 0.9527
3.0063 -11.4748 -2.5008 0.9527
4.0161 -11.1629 -2.5010 0.9527
5.9328 -10.2759 -2.5015 0.9527
6.8245 -9.7079 -2.5017 0.9526
9.1487 -7.5616 -2.5022 0.9526
9.7859 -6.7176 -2.5024 0.9526
10.3455 -5.8202 -2.5025 0.9526
10.8228 -4.8765 -2.5026 0.9526
11.2142 -3.8939 -2.5026 0.9526
11.7271 -1.8440 -2.5027 0.9526
10.9231 2.2203 -2.3499 0.9555
10.6816 3.1835 -2.3498 0.9555
9.9468 5.0264 -2.3495 0.9555
9.4592 5.8913 -2.3493 0.9555
5.7968 5.2429 -1.6478 0.9686
5.9935 9.3887 -2.3482 0.9555
5.1335 9.8838 -2.3480 0.9555
3.2990 10.6350 -2.3475 0.9555
2.3391 10.8852 -2.3472 0.9555
0.3720 11.1249 -2.3467 0.9555
-3.5323 10.5507 -2.3456 0.9555
-5.3460 9.7553 -2.3452 0.9555
-6.9898 8.6514 -2.3448 0.9556
-7.7315 7.9944 -2.3446 0.9556
-9.5673 5.6667 -2.3442 0.9556
-10.6848 5.1037 -2.4963 0.9527
-11.4199 3.1283 -2.4962 0.9527
-10.8947 -0.9736 -2.4966 0.9561
-10.7652 -1.9394 -2.4966 0.9561
-10.5503 -2.8900 -2.4967 0.9561
-8.8805 -6.3918 -2.4973 0.9561
-7.6077 -7.8663 -2.4978 0.9561
-6.8780 -8.5130 -2.4980 0.9561
-2.5384 -10.6516 -2.4992 0.9561
0.3660 -10.9472 -2.5000 0.9561
1.3391 -10.8723 -2.5003 0.9561
3.2462 -10.4647 -2.5008 0.9560
5.8972 -9.2377 -2.5014 0.9560
7.4427 -8.0469 -2.5018 0.9560
8.1299 -7.3530 -2.5020 0.9560
8.7525 -6.6006 -2.5021 0.9560
9.3057 -5.7956 -2.5022 0.9560
9.7850 -4.9445 -2.5023 0.9560
10.8959 -1.2188 -2.5024 0.9560
10.9611 -0.2442 -2.5024 0.9560
10.9391 0.7323 -2.5024 0.9560
9.9867 2.4979 -2.3496 0.9586
9.7243 3.3767 -2.3495 0.9586
5.8757 4.8564 -1.7399 0.9692
6.6431 7.8575 -2.3485 0.9587
5.9168 8.4168 -2.3483 0.9587
5.1437 8.9092 -2.3480 0.9587
2.6064 9.9485 -2.3473 0.9587
0.8010 10.2508 -2.3468 0.9587
-1.0290 10.2283 -2.3463 0.9587
-2.8256 9.8818 -2.3458 0.9587
-5.3345 8.7819 -2.3452 0.9587
-7.4635 7.0590 -2.3447 0.9587
-8.0617 6.3663 -2.3446 0.9587
-8.5960 5.6233 -2.3445 0.9587
-10.0702 4.2701 -2.4965 0.9561
-10.4100 3.3569 -2.4965 0.9561
-10.9270 0.4873 -2.4965 0.9561
-10.6683 -2.4171 -2.4967 0.9561
-10.0717 -4.2708 -2.4969 0.9561
-9.6522 -5.1505 -2.4971 0.9561
-9.1561 -5.9896 -2.4973 0.9561
-8.5873 -6.7813 -2.4974 0.9561
-3.9348 -10.2166 -2.4988 0.9561
-2.0615 -10.7546 -2.4994 0.9561
-0.1220 -10.9521 -2.4999 0.9561
0.8534 -10.9206 -2.5002 0.9561
3.7093 -10.3102 -2.5009 0.9560
4.6127 -9.9400 -2.5011 0.9560
5.4796 -9.4909 -2.5013 0.9560
6.3031 -8.9662 -2.5015 0.9560
7.0766 -8.3702 -2.5017 0.9560
7.7940 -7.7076 -2.5019 0.9560
8.4496 -6.9837 -2.5020 0.9560
9.0381 -6.2043 -2.5022 0.9560
9.5548 -5.3754 -2.5023 0.9560
9.9957 -4.5038 -2.5023 0.9560
10.3571 -3.5963 -2.5024 0.9560
10.8308 -1.7030 -2.5024 0.9560
10.9394 -0.7323 -2.5024 0.9560
10.0883 2.0506 -2.3497 0.9586
8.7365 5.4412 -2.3492 0.9587
8.2169 6.1967 -2.3490 0.9587
6.9869 7.5541 -2.3486 0.9587
6.2862 8.1453 -2.3484 0.9587
5.5358 8.6716 -2.3482 0.9587
3.9098 9.5138 -2.3477 0.9587
3.0471 9.8230 -2.3474 0.9587
1.2569 10.2055 -2.3469 0.9587
0.3436 10.2758 -2.3467 0.9587
-1.4835 10.1718 -2.3462 0.9587
-2.3827 9.9984 -2.3460 0.9587
-3.2628 9.7457 -2.3457 0.9587
-5.7202 8.5352 -2.3451 0.9587
-6.4567 7.9916 -2.3450 0.9587
-7.1419 7.3847 -2.3448 0.9587
-7.7703 6.7193 -2.3447 0.9587
-9.8701 4.7146 -2.4966 0.9561
-10.2503 3.8173 -2.4965 0.9561
-10.1174 -0.9041 -2.4968 0.9590
-9.9971 -1.8010 -2.4968 0.9590
-9.7975 -2.6838 -2.4969 0.9590
-8.7417 -5.1777 -2.4973 0.9590
-7.0647 -7.3048 -2.4979 0.9590
-5.6586 -8.4432 -2.4983 0.9590
-4.8851 -8.9141 -2.4985 0.9590
-4.0727 -9.3144 -2.4988 0.9590
-1.4676 -10.0624 -2.4995 0.9590
-0.5662 -10.1541 -2.4998 0.9590
0.3399 -10.1652 -2.5000 0.9590
1.2434 -10.0955 -2.5002 0.9590
2.1372 -9.9457 -2.5005 0.9590
4.6901 -9.0300 -2.5011 0.9590
6.9106 -7.4717 -2.5016 0.9589
7.5486 -6.8273 -2.5018 0.9589
8.1268 -6.1286 -2.5019 0.9589
8.6404 -5.3812 -2.5020 0.9589
9.0853 -4.5910 -2.5021 0.9589
9.4581 -3.7642 -2.5022 0.9589
9.7558 -2.9075 -2.5022 0.9589
10.1168 -1.1317 -2.5022 0.9589
8.7137 3.9262 -2.3492 0.9614
7.8786 5.4084 -2.3489 0.9614
5.8586 4.8423 -1.8682 0.9692
6.7938 6.7186 -2.3486 0.9614
6.1684 7.2960 -2.3484 0.9614
5.4940 7.8154 -2.3482 0.9614
3.2331 8.9866 -2.3475 0.9614
0.7438 9.5187 -2.3468 0.9614
-0.9555 9.4979 -2.3464 0.9614
-1.7969 9.3743 -2.3461 0.9614
-2.6239 9.1763 -2.3459 0.9614
-4.2086 8.5643 -2.3455 0.9615
-4.9538 8.1551 -2.3454 0.9615
-5.6595 7.6812 -2.3452 0.9615
-6.9309 6.5553 -2.3449 0.9615
-8.9618 4.7822 -2.4968 0.9590
-9.3517 3.9655 -2.4968 0.9590
-9.6673 3.1173 -2.4967 0.9590
-9.9063 2.2445 -2.4967 0.9590
-10.1474 0.4525 -2.4967 0.9590
-10.1475 -0.4525 -2.4967 0.9590
-9.9071 -2.2446 -2.4969 0.9590
-9.3530 -3.9660 -2.4971 0.9590
-8.9634 -4.7830 -2.4973 0.9590
-7.9744 -6.2973 -2.4976 0.9590
-7.3828 -6.9826 -2.4978 0.9590
-6.7326 -7.6126 -2.4980 0.9590
-5.2771 -8.6872 -2.4984 0.9590
-3.6539 -9.4870 -2.4989 0.9590
-2.7952 -9.7755 -2.4991 0.9590
-1.0179 -10.1183 -2.4996 0.9590
-0.1133 -10.1697 -2.4999 0.9590
0.7924 -10.1404 -2.5001 0.9590
1.6920 -10.0306 -2.5004 0.9590
2.5783 -9.8411 -2.5006 0.9590
3.4443 -9.5734 -2.5008 0.9590
4.2830 -9.2296 -2.5010 0.9590
5.8525 -8.3253 -2.5014 0.9589
6.5707 -7.7719 -2.5016 0.9589
7.2368 -7.1566 -2.5017 0.9589
7.8455 -6.4844 -2.5019 0.9589
8.3919 -5.7606 -2.5020 0.9589
9.2810 -4.1818 -2.5021 0.9589
9.8757 -2.4700 -2.5022 0.9589
10.1164 1.1318 -2.5021 0.9589
8.5300 4.3104 -2.3492 0.9614
8.1120 5.0522 -2.3490 0.9614
7.6296 5.7537 -2.3488 0.9614
5.1402 8.0520 -2.3481 0.9614
3.6304 8.8342 -2.3476 0.9614
2.8295 9.1213 -2.3474 0.9614
2.0062 9.3361 -2.3472 0.9614
-0.5315 9.5315 -2.3465 0.9614
-1.3776 9.4455 -2.3463 0.9614
-5.9959 7.4212 -2.3451 0.9615
-6.6322 6.8577 -2.3450 0.9615
-7.2159 6.2398 -2.3448 0.9615
-7.7422 5.5726 -2.3447 0.9615
-8.5978 5.0925 -2.4562 0.9597
-9.5189 3.5449 -2.4967 0.9590
-9.9964 1.8010 -2.4967 0.9590
-9.4759 0.0000 -2.4969 0.9616
-9.4385 -0.8434 -2.4969 0.9616
-9.3262 -1.6802 -2.4970 0.9616
-9.1399 -2.5037 -2.4971 0.9616
-8.1549 -4.8301 -2.4975 0.9616
-7.1703 -6.2004 -2.4978 0.9615
-6.5904 -6.8144 -2.4980 0.9615
-5.9582 -7.3745 -2.4982 0.9615
-5.2786 -7.8762 -2.4984 0.9615
-3.0110 -8.9934 -2.4990 0.9615
-2.1988 -9.2265 -2.4993 0.9615
-1.3690 -9.3864 -2.4995 0.9615
-0.5281 -9.4719 -2.4997 0.9615
2.8117 -9.0638 -2.5006 0.9615
3.6075 -8.7784 -2.5008 0.9615
4.3749 -8.4231 -2.5010 0.9615
5.7998 -7.5150 -2.5013 0.9615
6.4460 -6.9693 -2.5015 0.9615
7.0411 -6.3683 -2.5016 0.9615
8.4744 -4.2823 -2.5019 0.9615
9.0998 -2.7120 -2.5020 0.9615
9.4365 -1.0556 -2.5020 0.9615
9.4739 0.6342 -2.5020 0.9615
14.0705 2.2125 -3.7531 0.9428
13.8173 3.4559 -3.7530 0.9428
8.4220 2.9245 -2.3492 0.9638
7.7693 4.3710 -2.3489 0.9638
7.3490 5.0448 -2.3488 0.9638
5.7538 6.8056 -2.3483 0.9638
5.1248 7.2902 -2.3481 0.9638
3.0159 8.3829 -2.3475 0.9638
2.2576 8.6172 -2.3473 0.9638
0.6938 8.8794 -2.3468 0.9638
-0.0992 8.9051 -2.3466 0.9638
-0.8913 8.8601 -2.3464 0.9638
-3.1996 8.3077 -2.3458 0.9638
-3.9260 7.9893 -2.3456 0.9638
-4.6212 7.6076 -2.3455 0.9638
-5.2797 7.1656 -2.3453 0.9639
-5.8961 6.6669 -2.3452 0.9639
-8.3604 4.4613 -2.4970 0.9616
-8.7241 3.6994 -2.4969 0.9616
-9.0186 2.9081 -2.4969 0.9616
-9.2415 2.0939 -2.4969 0.9616
-9.3912 1.2630 -2.4969 0.9616
-9.4664 0.4221 -2.4969 0.9616
-9.3916 -1.2630 -2.4970 0.9616
-9.2422 -2.0940 -2.4971 0.9616
-8.3618 -4.4620 -2.4974 0.9616
-7.9319 -5.1888 -2.4975 0.9616
-7.4391 -5.8746 -2.4977 0.9615
-6.8872 -6.5138 -2.4979 0.9615
-5.6240 -7.6329 -2.4983 0.9615
-1.7857 -9.3157 -2.4994 0.9615
-0.9495 -9.4385 -2.4996 0.9615
1.5783 -9.3566 -2.5003 0.9615
2.4050 -9.1797 -2.5005 0.9615
3.2128 -8.9299 -2.5007 0.9615
3.9952 -8.6093 -2.5009 0.9615
5.4591 -7.7656 -2.5013 0.9615
6.1290 -7.2494 -2.5014 0.9615
6.7503 -6.6755 -2.5016 0.9615
8.6569 -3.9006 -2.5020 0.9615
8.9699 -3.1146 -2.5020 0.9615
9.4742 -0.6342 -2.5020 0.9615
9.4362 1.0556 -2.5019 0.9615
8.5441 2.5465 -2.3492 0.9638
7.5666 4.7126 -2.3489 0.9638
7.1167 5.3670 -2.3487 0.9638
5.7083 5.1629 -2.0281 0.9687
5.4447 7.0549 -2.3482 0.9638
4.7948 7.5109 -2.3480 0.9638
4.1069 7.9071 -2.3478 0.9638
3.3865 8.2406 -2.3476 0.9638
2.6394 8.5085 -2.3474 0.9638
1.8714 8.7089 -2.3472 0.9638
0.2976 8.9011 -2.3467 0.9638
-2.0640 8.6611 -2.3461 0.9638
-3.5664 8.1566 -2.3457 0.9638
-5.5934 6.9231 -2.3452 0.9639
-6.1871 6.3974 -2.3451 0.9639
-6.7316 5.8211 -2.3450 0.9639
-7.2226 5.1986 -2.3449 0.9639
-8.1535 4.8294 -2.4970 0.9616
-8.5508 4.0844 -2.4970 0.9616
-8.8801 3.3070 -2.4969 0.9616
-9.1391 2.5035 -2.4969 0.9616
-9.4382 0.8434 -2.4969 0.9616
-5.0318 0.0000 -1.4157 0.9793
-7.6378 -4.5238 -2.4976 0.9638
-7.2052 -5.1860 -2.4977 0.9638
-5.5802 -6.9067 -2.4983 0.9638
-4.9437 -7.3766 -2.4984 0.9638
-4.2679 -7.7879 -2.4986 0.9638
-2.8199 -8.4227 -2.4991 0.9638
-1.2821 -8.7907 -2.4995 0.9638
1.0862 -8.8194 -2.5001 0.9637
3.3785 -8.2209 -2.5007 0.9637
4.7832 -7.4927 -2.5011 0.9637
6.0366 -6.5267 -2.5014 0.9637
6.5939 -5.9638 -2.5015 0.9637
7.0989 -5.3535 -2.5016 0.9637
7.5475 -4.7006 -2.5017 0.9637
8.2617 -3.2880 -2.5018 0.9637
8.7140 -1.7712 -2.5019 0.9637
8.8371 -0.9885 -2.5019 0.9637
8.8899 -0.1981 -2.5019 0.9637
12.9396 3.2364 -3.7528 0.9461
7.8871 2.7387 -2.3490 0.9659
7.6117 3.4297 -2.3489 0.9659
6.8822 4.7244 -2.3487 0.9659
4.1724 7.2268 -2.3478 0.9659
3.5123 7.5688 -2.3477 0.9659
2.8245 7.8508 -2.3475 0.9659
1.3875 8.2257 -2.3471 0.9659
-0.0929 8.3400 -2.3467 0.9659
-0.8348 8.2979 -2.3465 0.9659
-2.2924 8.0172 -2.3461 0.9659
-3.6770 7.4826 -2.3457 0.9659
-4.3281 7.1251 -2.3456 0.9660
-4.9448 6.7112 -2.3454 0.9660
-5.5222 6.2441 -2.3453 0.9660
-6.0557 5.7275 -2.3452 0.9660
-7.8303 4.1784 -2.4972 0.9638
-8.1710 3.4648 -2.4971 0.9638
-4.2110 -0.1878 -1.1860 0.9826
-7.8315 -4.1790 -2.4975 0.9638
-6.9673 -5.5020 -2.4978 0.9638
-4.6104 -7.5898 -2.4985 0.9638
-3.9169 -7.9707 -2.4988 0.9638
-1.6723 -8.7245 -2.4994 0.9638
-0.8893 -8.8395 -2.4996 0.9638
-0.0990 -8.8843 -2.4998 0.9638
1.4781 -8.7625 -2.5002 0.9637
4.4445 -7.6981 -2.5010 0.9637
5.1124 -7.2724 -2.5012 0.9637
5.7397 -6.7890 -2.5013 0.9637
6.8532 -5.6643 -2.5015 0.9637
8.1070 -3.6528 -2.5018 0.9637
8.4001 -2.9168 -2.5018 0.9637
8.8723 -0.5939 -2.5019 0.9637
8.8368 0.9886 -2.5018 0.9637
13.0712 2.6568 -3.7528 0.9461
7.7571 3.0873 -2.3490 0.9659
7.0861 4.4133 -2.3488 0.9659
5.0990 6.6070 -2.3481 0.9659
2.4718 7.9685 -2.3474 0.9659
1.7527 8.1562 -2.3472 0.9659
-0.4643 8.3272 -2.3466 0.9659
-2.6472 7.9068 -2.3460 0.9659
-3.3402 7.6392 -2.3458 0.9659
-4.6411 6.9250 -2.3455 0.9660
-5.7947 5.9917 -2.3452 0.9660
-6.7646 4.8689 -2.3450 0.9660
-7.6365 4.5232 -2.4972 0.9638
-8.0086 3.8254 -2.4971 0.9638
-8.3171 3.0974 -2.4971 0.9638
-8.5597 2.3448 -2.4970 0.9638
-8.8398 0.7900 -2.4970 0.9638
-3.9676 -0.0000 -1.1878 0.9836
-3.5918 -0.3210 -1.0796 0.9851
-3.4798 -0.6269 -1.0586 0.9853
-3.4925 -0.9567 -1.0841 0.9850
-7.5278 -3.5957 -2.4976 0.9658
-7.1783 -4.2517 -2.4977 0.9658
-6.7717 -4.8739 -2.4978 0.9658
-6.3113 -5.4577 -2.4980 0.9658
-5.8010 -5.9981 -2.4982 0.9658
-4.0110 -7.3192 -2.4987 0.9658
-2.6502 -7.9157 -2.4991 0.9657
-1.2049 -8.2615 -2.4995 0.9657
0.2790 -8.3455 -2.4999 0.9657
1.7546 -8.1651 -2.5003 0.9657
2.4746 -7.9771 -2.5005 0.9657
3.1750 -7.7258 -2.5006 0.9657
3.8503 -7.4130 -2.5008 0.9657
5.6729 -6.1335 -2.5013 0.9657
6.6711 -5.0309 -2.5015 0.9657
7.0927 -4.4173 -2.5016 0.9657
7.4579 -3.7686 -2.5016 0.9657
7.7639 -3.0899 -2.5017 0.9657
8.0082 -2.3867 -2.5017 0.9657
8.1889 -1.6644 -2.5017 0.9657
8.3046 -0.9290 -2.5017 0.9657
8.3375 0.5582 -2.5017 0.9657
12.1600 3.0414 -3.7526 0.9490
6.8375 3.8467 -2.3487 0.9678
5.8071 4.7997 -2.2555 0.9690
5.0639 5.9896 -2.3481 0.9678
4.5104 6.4161 -2.3480 0.9678
3.3008 7.1131 -2.3476 0.9678
2.6544 7.3780 -2.3474 0.9678
0.6107 7.8153 -2.3469 0.9678
-0.0873 7.8380 -2.3467 0.9678
-2.1545 7.5347 -2.3461 0.9678
-3.4558 7.0323 -2.3458 0.9678
-4.6473 6.3074 -2.3455 0.9678
-6.1477 4.8548 -2.3452 0.9678
-6.9808 4.5666 -2.4974 0.9658
-7.6795 3.2564 -2.4972 0.9658
-8.1350 1.8432 -2.4972 0.9658
-8.2667 1.1118 -2.4972 0.9658
-4.8506 0.2163 -1.4536 0.9799
-3.6645 -0.1634 -1.0982 0.9848
-3.5144 -0.4726 -1.0616 0.9853
-7.9394 -2.5601 -2.4974 0.9658
-7.3604 -3.9276 -2.4976 0.9658
-6.0622 -5.7336 -2.4981 0.9658
-5.5282 -6.2508 -2.4982 0.9658
-4.3329 -7.1329 -2.4986 0.9658
-3.6812 -7.4909 -2.4988 0.9658
-3.0000 -7.7894 -2.4990 0.9657
-2.2950 -8.0262 -2.4992 0.9657
-1.5717 -8.1993 -2.4994 0.9657
-0.8357 -8.3073 -2.4996 0.9657
-0.0930 -8.3493 -2.4998 0.9657
0.6506 -8.3252 -2.5000 0.9657
2.1167 -8.0791 -2.5004 0.9657
2.8276 -7.8593 -2.5006 0.9657
4.1768 -7.2344 -2.5009 0.9657
5.3939 -6.3799 -2.5012 0.9657
6.4403 -5.3230 -2.5014 0.9657
8.3377 -0.5581 -2.5017 0.9657
8.3542 0.1862 -2.5017 0.9657
6.6592 4.1474 -2.3487 0.9678
6.2632 4.7234 -2.3485 0.9678
5.6671 5.1256 -2.2876 0.9686
5.3259 5.7583 -2.3482 0.9678
4.2199 6.6104 -2.3479 0.9678
2.9806 7.2528 -2.3475 0.9678
2.3230 7.4887 -2.3473 0.9678
0.2619 7.8344 -2.3468 0.9678
-0.4364 7.8260 -2.3466 0.9678
-1.8167 7.6235 -2.3462 0.9678
-2.4879 7.4310 -2.3460 0.9678
-3.1392 7.1795 -2.3459 0.9678
-3.7655 6.8712 -2.3457 0.9678
-4.3618 6.5083 -2.3456 0.9678
-4.9235 6.0939 -2.3455 0.9678
-6.5836 4.7386 -2.4285 0.9667
-7.1772 4.2511 -2.4973 0.9658
-8.0448 2.2037 -2.4972 0.9658
-8.2090 1.4790 -2.4972 0.9658
-3.7562 0.0000 -1.1929 0.9844
-3.3867 -0.3026 -1.0798 0.9858
-7.0966 -3.3897 -2.4977 0.9675
-6.3838 -4.5947 -2.4979 0.9675
-5.9498 -5.1450 -2.4981 0.9675
-5.4686 -5.6545 -2.4982 0.9675
-4.9440 -6.1192 -2.4984 0.9675
-4.3800 -6.5354 -2.4986 0.9675
-3.7812 -6.8998 -2.4987 0.9675
-3.1523 -7.2094 -2.4989 0.9675
-2.4983 -7.4620 -2.4991 0.9675
-1.8243 -7.6553 -2.4993 0.9675
-1.1358 -7.7879 -2.4995 0.9675
0.2630 -7.8671 -2.4999 0.9675
0.9623 -7.8130 -2.5001 0.9675
2.3327 -7.5197 -2.5004 0.9675
2.9929 -7.2827 -2.5006 0.9675
3.6294 -6.9879 -2.5007 0.9675
4.8115 -6.2343 -2.5010 0.9675
5.3475 -5.7816 -2.5011 0.9675
5.8412 -5.2830 -2.5013 0.9675
6.2884 -4.7423 -2.5014 0.9675
6.6858 -4.1639 -2.5014 0.9675
7.3185 -2.9127 -2.5015 0.9675
7.8281 -0.8757 -2.5016 0.9675
7.8749 -0.1754 -2.5016 0.9675
7.7810 1.2235 -2.5015 0.9675
11.1613 3.8756 -3.7523 0.9516
6.7427 3.0381 -2.3487 0.9694
6.0967 4.1852 -2.3485 0.9694
5.6997 4.7109 -2.3484 0.9694
5.2574 5.1992 -2.3482 0.9694
4.7735 5.6462 -2.3481 0.9694
4.2517 6.0482 -2.3479 0.9694
3.6963 6.4021 -2.3478 0.9695
3.1116 6.7052 -2.3476 0.9695
1.8731 7.1496 -2.3472 0.9695
1.2292 7.2874 -2.3471 0.9695
0.5757 7.3673 -2.3469 0.9695
-0.0823 7.3888 -2.3467 0.9695
-0.7396 7.3516 -2.3465 0.9695
-2.0310 7.1029 -2.3462 0.9695
-2.6550 6.8935 -2.3460 0.9695
-3.2578 6.6294 -2.3459 0.9695
-3.8347 6.3128 -2.3457 0.9695
-4.8927 5.5323 -2.3455 0.9695
-5.8494 4.6193 -2.3671 0.9692
-4.3817 0.1954 -1.3930 0.9818
-3.4557 -0.1541 -1.0986 0.9856
-3.3189 -0.4463 -1.0635 0.9860
-3.2591 -0.7384 -1.0613 0.9861
-3.2827 -1.0586 -1.0954 0.9856
-7.2404 -3.0702 -2.4976 0.9675
-5.7149 -5.4051 -2.4982 0.9675
-2.8281 -7.3430 -2.4990 0.9675
-0.0877 -7.8707 -2.4998 0.9675
1.3094 -7.7627 -2.5001 0.9675
1.9953 -7.6159 -2.5003 0.9675
3.9373 -6.8195 -2.5008 0.9675
4.5288 -6.4423 -2.5010 0.9675
5.5999 -5.5378 -2.5012 0.9675
6.8648 -3.8620 -2.5015 0.9675
7.4410 -2.5838 -2.5016 0.9675
7.6415 -1.9112 -2.5016 0.9675
7.7813 -1.2235 -2.5016 0.9675
7.8749 0.1755 -2.5016 0.9675
7.8279 0.8757 -2.5015 0.9675
7.7187 1.5689 -2.5015 0.9675
6.8715 2.7348 -2.3488 0.9694
6.6006 3.3354 -2.3487 0.9694
6.2772 3.9095 -2.3486 0.9694
4.5171 5.8530 -2.3480 0.9694
2.8097 6.8369 -2.3475 0.9695
2.1898 7.0594 -2.3473 0.9695
1.5527 7.2257 -2.3471 0.9695
0.2469 7.3854 -2.3468 0.9695
-1.7126 7.1866 -2.3463 0.9695
-2.9593 6.7682 -2.3460 0.9695
-3.5498 6.4775 -2.3458 0.9695
-4.1120 6.1355 -2.3457 0.9695
-4.6415 5.7449 -2.3455 0.9695
-5.1341 5.3087 -2.3454 0.9695
-5.5860 4.8304 -2.3453 0.9695
-6.3827 4.5941 -2.4975 0.9675
-7.7388 1.3943 -2.4973 0.9675
-3.6184 0.0000 -1.2157 0.9848
-3.1483 -0.5672 -1.0748 0.9866
-6.9666 -2.5944 -2.4977 0.9691
-6.3967 -3.7888 -2.4979 0.9691
-6.0344 -4.3433 -2.4980 0.9691
-5.6242 -4.8634 -2.4982 0.9691
-4.1402 -6.1776 -2.4986 0.9691
-3.5742 -6.5221 -2.4988 0.9691
-2.9797 -6.8148 -2.4990 0.9691
-2.3615 -7.0535 -2.4991 0.9691
-1.7245 -7.2361 -2.4993 0.9691
-1.0736 -7.3615 -2.4995 0.9691
0.2486 -7.4362 -2.4998 0.9691
0.9096 -7.3851 -2.5000 0.9691
1.5634 -7.2754 -2.5002 0.9691
2.2049 -7.1078 -2.5004 0.9691
2.8289 -6.8838 -2.5005 0.9691
5.5211 -4.9935 -2.5012 0.9691
6.6448 -3.3578 -2.5014 0.9691
7.1351 -2.1264 -2.5015 0.9691
7.4434 -0.1659 -2.5015 0.9691
10.5497 3.6633 -3.7521 0.9540
6.3733 2.8717 -2.3486 0.9709
4.9694 4.9144 -2.3482 0.9709
4.5120 5.3369 -2.3480 0.9709
4.0188 5.7169 -2.3479 0.9709
3.4938 6.0515 -2.3477 0.9709
1.1619 6.8884 -2.3471 0.9710
0.5442 6.9639 -2.3469 0.9710
-0.6991 6.9491 -2.3466 0.9710
-1.9198 6.7141 -2.3462 0.9710
-3.0795 6.2666 -2.3459 0.9710
-3.6248 5.9673 -2.3458 0.9710
-4.6249 5.2295 -2.3456 0.9710
-6.5582 3.4996 -2.4975 0.9691
-6.8435 2.9020 -2.4975 0.9691
-7.0746 2.2813 -2.4974 0.9691
-3.1639 -0.4255 -1.0726 0.9866
-6.8442 -2.9022 -2.4977 0.9691
-6.2218 -4.0701 -2.4980 0.9691
-4.9262 -5.5701 -2.4984 0.9691
-3.8611 -6.3562 -2.4987 0.9691
-2.6733 -6.9410 -2.4990 0.9691
-0.7447 -7.4022 -2.4996 0.9691
-0.0829 -7.4397 -2.4998 0.9691
0.5797 -7.4180 -2.4999 0.9691
1.2377 -7.3375 -2.5001 0.9691
2.5194 -7.0027 -2.5004 0.9691
3.7215 -6.4459 -2.5007 0.9691
4.2807 -6.0894 -2.5009 0.9691
4.8060 -5.6845 -2.5010 0.9691
5.2931 -5.2344 -2.5011 0.9691
5.7382 -4.7427 -2.5012 0.9691
6.1377 -4.2133 -2.5013 0.9691
6.7879 -3.0584 -2.5014 0.9691
7.0333 -2.4422 -2.5015 0.9691
7.3549 -1.1565 -2.5015 0.9691
7.4286 -0.4973 -2.5015 0.9691
10.7026 3.1897 -3.7522 0.9540
6.4950 2.5850 -2.3487 0.9709
6.2389 3.1527 -2.3486 0.9709
5.5805 4.2085 -2.3484 0.9709
5.1835 4.6882 -2.3482 0.9709
4.7454 5.1307 -2.3481 0.9709
4.2697 5.5323 -2.3480 0.9709
2.6558 6.4625 -2.3475 0.9709
1.4677 6.8300 -2.3471 0.9710
0.8539 6.9331 -2.3470 0.9710
0.2334 6.9811 -2.3468 0.9710
-1.6189 6.7932 -2.3463 0.9710
-2.2170 6.6217 -2.3462 0.9710
-3.3555 6.1230 -2.3459 0.9710
-3.8869 5.7997 -2.3457 0.9710
-4.8532 5.0182 -2.3455 0.9710
-6.3959 3.7883 -2.4976 0.9691
-6.7075 3.2039 -2.4975 0.9691
-7.1691 1.9638 -2.4974 0.9691
-7.3154 1.3180 -2.4974 0.9691
-7.4037 0.6616 -2.4974 0.9691
-3.0930 -0.2764 -1.1011 0.9869
-3.0442 -0.5484 -1.0968 0.9870
-6.3565 -3.0362 -2.4979 0.9705
-6.0613 -3.5901 -2.4980 0.9705
-5.7180 -4.1155 -2.4981 0.9705
-4.4282 -5.4809 -2.4985 0.9705
-3.9230 -5.8536 -2.4987 0.9705
-2.8234 -6.4573 -2.4990 0.9705
-2.2376 -6.6834 -2.4991 0.9705
-1.0173 -6.9752 -2.4995 0.9705
0.8618 -6.9976 -2.5000 0.9705
3.2505 -6.2583 -2.5006 0.9705
3.7949 -5.9445 -2.5007 0.9705
4.7892 -5.1780 -2.5010 0.9705
5.2312 -4.7313 -2.5011 0.9705
5.9876 -3.7291 -2.5012 0.9705
6.5542 -2.6085 -2.5013 0.9705
7.0106 -0.7842 -2.5014 0.9705
6.8431 1.7116 -2.5012 0.9705
9.9958 3.4710 -3.7520 0.9561
5.7723 3.2475 -2.3485 0.9723
5.1046 4.2191 -2.3482 0.9723
3.3105 5.7339 -2.3477 0.9723
2.2411 6.2292 -2.3474 0.9723
1.6776 6.4035 -2.3472 0.9723
1.1010 6.5270 -2.3471 0.9723
0.5156 6.5986 -2.3469 0.9723
-1.2458 6.4990 -2.3464 0.9723
-1.8191 6.3620 -2.3463 0.9723
-3.4347 5.6544 -2.3459 0.9723
-3.9242 5.3260 -2.3458 0.9723
-4.3824 4.9553 -2.3456 0.9723
-5.8947 3.8562 -2.4977 0.9705
-6.2144 3.3161 -2.4976 0.9705
-6.9806 0.9388 -2.4975 0.9705
-3.9464 0.1760 -1.4007 0.9834
-3.0241 -0.6852 -1.0995 0.9869
-5.5291 -4.3663 -2.4982 0.9705
-5.1188 -4.8413 -2.4983 0.9705
-4.6679 -5.2780 -2.4984 0.9705
-3.6585 -6.0228 -2.4987 0.9705
-3.1082 -6.3249 -2.4989 0.9705
-1.3270 -6.9227 -2.4994 0.9705
-0.0785 -7.0493 -2.4997 0.9705
0.5493 -7.0288 -2.4999 0.9705
2.9684 -6.3967 -2.5005 0.9705
3.5262 -6.1075 -2.5007 0.9705
4.0560 -5.7697 -2.5008 0.9705
5.4369 -4.4937 -2.5011 0.9705
5.8155 -3.9921 -2.5012 0.9705
6.6640 -2.3139 -2.5013 0.9705
6.9687 -1.0958 -2.5014 0.9705
7.0104 0.7843 -2.5013 0.9705
6.9126 1.4051 -2.5012 0.9705
10.1406 3.0222 -3.7520 0.9561
9.8312 3.9127 -3.7519 0.9561
5.9114 2.9872 -2.3485 0.9723
4.9114 4.4422 -2.3482 0.9723
3.5627 5.5809 -2.3478 0.9723
3.0517 5.8755 -2.3476 0.9723
2.5164 6.1234 -2.3475 0.9723
1.9613 6.3226 -2.3473 0.9723
0.8091 6.5693 -2.3470 0.9723
-0.3684 6.6078 -2.3467 0.9723
-0.9550 6.5483 -2.3465 0.9723
-2.1007 6.2745 -2.3462 0.9723
-3.1795 5.8019 -2.3459 0.9723
-4.1574 5.1457 -2.3457 0.9723
-4.5987 4.7551 -2.3456 0.9723
-5.1917 4.4895 -2.4337 0.9713
-6.3558 3.0360 -2.4976 0.9705
-3.3740 -0.0000 -1.2599 0.9857
-2.9938 -0.2675 -1.1224 0.9872
-2.9455 -0.5306 -1.1176 0.9873
-2.9169 -0.7990 -1.1293 0.9872
-5.4299 -3.9081 -2.4982 0.9718
-4.2051 -5.2047 -2.4986 0.9718
-3.2160 -5.8685 -2.4988 0.9718
-2.6811 -6.1318 -2.4990 0.9718
-2.1248 -6.3465 -2.4992 0.9718
-0.9660 -6.6236 -2.4995 0.9718
0.2237 -6.6908 -2.4998 0.9718
1.4066 -6.5459 -2.5001 0.9718
2.5453 -6.1935 -2.5004 0.9718
4.0917 -5.3018 -2.5008 0.9718
4.5476 -4.9168 -2.5009 0.9718
5.9783 -3.0209 -2.5012 0.9718
6.2236 -2.4769 -2.5012 0.9718
6.4194 -1.9131 -2.5013 0.9718
6.6834 0.4474 -2.5012 0.9718
6.6169 1.0405 -2.5012 0.9718
6.4979 1.6253 -2.5011 0.9718
9.4916 3.2959 -3.7519 0.9580
5.4811 3.0837 -2.3484 0.9735
5.1847 3.5591 -2.3483 0.9735
3.1435 5.4448 -2.3477 0.9735
2.1281 5.9152 -2.3474 0.9735
1.5931 6.0807 -2.3472 0.9735
1.0455 6.1979 -2.3471 0.9735
-0.0700 6.2843 -2.3467 0.9735
-1.1830 6.1715 -2.3465 0.9735
-1.7275 6.0413 -2.3463 0.9735
-2.7709 5.6388 -2.3461 0.9735
-3.2616 5.3695 -2.3459 0.9735
-3.7264 5.0576 -2.3458 0.9735
-4.1616 4.7056 -2.3457 0.9735
-4.6536 4.4014 -2.3918 0.9730
-5.9013 3.1491 -2.4977 0.9718
-6.3659 2.0528 -2.4976 0.9718
-6.5233 1.4780 -2.4976 0.9718
-6.6290 0.8915 -2.4976 0.9718
-3.7910 0.1690 -1.4170 0.9839
-3.0832 -0.1375 -1.1525 0.9869
-6.1586 -2.6115 -2.4979 0.9718
-5.5985 -3.6623 -2.4981 0.9718
-5.2505 -4.1463 -2.4982 0.9718
-4.8609 -4.5973 -2.4983 0.9718
-4.4326 -5.0120 -2.4985 0.9718
-3.9692 -5.3870 -2.4986 0.9718
-0.6700 -6.6602 -2.4996 0.9718
-0.0746 -6.6938 -2.4997 0.9718
0.5216 -6.6744 -2.4999 0.9718
1.1136 -6.6019 -2.5000 0.9718
1.6969 -6.4769 -2.5002 0.9718
2.8187 -6.0742 -2.5005 0.9718
3.3483 -5.7995 -2.5006 0.9718
3.8514 -5.4787 -2.5007 0.9718
4.7622 -4.7094 -2.5009 0.9718
5.1626 -4.2670 -2.5010 0.9718
5.5221 -3.7907 -2.5011 0.9718
5.8377 -3.2842 -2.5012 0.9718
6.3278 -2.1972 -2.5013 0.9718
6.6172 -1.0405 -2.5013 0.9718
6.6835 -0.4473 -2.5013 0.9718
6.6967 0.1493 -2.5012 0.9718
6.5639 1.3342 -2.5012 0.9718
5.3382 3.3247 -2.3483 0.9735
4.6637 4.2181 -2.3481 0.9735
4.2696 4.6162 -2.3480 0.9735
3.8415 4.9776 -2.3479 0.9735
3.3831 5.2995 -2.3477 0.9735
2.8978 5.5792 -2.3476 0.9735
0.7683 6.2382 -2.3470 0.9735
0.2100 6.2814 -2.3468 0.9735
-0.3499 6.2747 -2.3467 0.9735
-0.9069 6.2183 -2.3465 0.9735
-2.5171 5.7567 -2.3461 0.9735
-3.4975 5.2187 -2.3459 0.9735
-5.0599 4.3755 -2.4979 0.9718
-5.4291 3.9077 -2.4978 0.9718
-5.7552 3.4089 -2.4977 0.9718
-4.2613 0.3808 -1.5976 0.9819
-2.9005 -0.2592 -1.1429 0.9876
-2.8518 -0.5138 -1.1373 0.9876
-2.8313 -0.7756 -1.1521 0.9875
-2.8528 -1.0624 -1.1947 0.9870
-5.4765 -3.2437 -2.4981 0.9730
-4.4256 -4.5760 -2.4985 0.9730
-4.0009 -4.9520 -2.4986 0.9730
-3.0599 -5.5835 -2.4989 0.9730
-2.0216 -6.0383 -2.4992 0.9730
-0.9191 -6.3018 -2.4995 0.9730
-0.3546 -6.3591 -2.4996 0.9730
1.3383 -6.2279 -2.5001 0.9730
3.4284 -5.3704 -2.5006 0.9730
3.8929 -5.0442 -2.5007 0.9730
4.3266 -4.6779 -2.5008 0.9730
4.7260 -4.2744 -2.5009 0.9730
5.0878 -3.8369 -2.5010 0.9730
5.9211 -2.3565 -2.5011 0.9730
6.3334 -0.7084 -2.5012 0.9730
9.0304 3.1357 -3.7517 0.9598
8.7151 3.9269 -3.7516 0.9598
4.9328 3.3862 -2.3482 0.9746
4.6116 3.8116 -2.3481 0.9746
4.2539 4.2067 -2.3480 0.9746
3.8624 4.5685 -2.3479 0.9746
3.4402 4.8938 -2.3478 0.9746
2.9908 5.1803 -2.3476 0.9746
2.5177 5.4256 -2.3475 0.9746
1.5157 5.7854 -2.3472 0.9746
0.9947 5.8969 -2.3471 0.9746
0.4659 5.9617 -2.3469 0.9746
-0.0666 5.9791 -2.3468 0.9746
-1.6436 5.7480 -2.3463 0.9746
-2.1486 5.5787 -2.3462 0.9746
-3.1033 5.1088 -2.3460 0.9746
-3.9596 4.4773 -2.3458 0.9746
-5.3261 3.4842 -2.4979 0.9730
-6.2068 1.4063 -2.4977 0.9730
-6.3073 0.8483 -2.4977 0.9730
-2.8734 -0.3864 -1.1379 0.9876
-5.3267 -3.4845 -2.4982 0.9730
-4.2174 -4.7687 -2.4985 0.9730
-3.7765 -5.1254 -2.4987 0.9730
-2.2886 -5.9421 -2.4991 0.9730
-1.7507 -6.1226 -2.4993 0.9730
-1.1989 -6.2545 -2.4994 0.9730
-0.0709 -6.3688 -2.4997 0.9730
0.4962 -6.3502 -2.4999 0.9730
1.0595 -6.2812 -2.5000 0.9730
1.6145 -6.1623 -2.5002 0.9730
3.1857 -5.5177 -2.5006 0.9730
3.6643 -5.2125 -2.5007 0.9730
4.1139 -4.8659 -2.5008 0.9730
4.5308 -4.4805 -2.5009 0.9730
4.9118 -4.0596 -2.5010 0.9730
5.5540 -3.1246 -2.5011 0.9730
5.8102 -2.6179 -2.5011 0.9730
6.2956 -0.9899 -2.5012 0.9730
6.3333 0.7085 -2.5011 0.9730
6.2449 1.2694 -2.5011 0.9730
6.1070 1.8201 -2.5010 0.9730
8.8816 3.5348 -3.7517 0.9598
5.0788 3.1631 -2.3483 0.9746
4.0621 4.3920 -2.3479 0.9746
3.6549 4.7358 -2.3478 0.9746
3.2187 5.0421 -2.3477 0.9746
2.2735 5.5322 -2.3474 0.9746
1.7720 5.7123 -2.3473 0.9746
1.2564 5.8470 -2.3471 0.9746
0.1998 5.9763 -2.3468 0.9746
-0.3329 5.9700 -2.3467 0.9746
-0.8629 5.9164 -2.3466 0.9746
-1.3859 5.8157 -2.3464 0.9746
-2.3949 5.4773 -2.3462 0.9746
-2.8727 5.2421 -2.3460 0.9746
-3.3277 4.9654 -2.3459 0.9746
-3.7563 4.6493 -2.3458 0.9746
-4.8143 4.1631 -2.4980 0.9730
-5.1656 3.7180 -2.4979 0.9730
-5.4759 3.2434 -2.4978 0.9730
-5.7427 2.7431 -2.4978 0.9730
-6.1380 1.6814 -2.4977 0.9730
-4.1297 0.3690 -1.6273 0.9823
-2.7831 -0.5014 -1.1645 0.9878
-2.7842 -1.0369 -1.2234 0.9872
-5.2199 -3.0917 -2.4982 0.9741
-4.9242 -3.5442 -2.4983 0.9741
-4.5894 -3.9685 -2.4984 0.9741
-4.2181 -4.3615 -2.4985 0.9741
-2.9164 -5.3218 -2.4989 0.9741
-1.9268 -5.7552 -2.4992 0.9741
-1.4070 -5.9042 -2.4993 0.9741
-0.8760 -6.0063 -2.4995 0.9741
0.2029 -6.0672 -2.4998 0.9741
1.2755 -5.9358 -2.5001 0.9741
1.7989 -5.7990 -2.5002 0.9741
3.2675 -5.1185 -2.5006 0.9741
3.7103 -4.8075 -2.5007 0.9741
4.1236 -4.4584 -2.5008 0.9741
4.8491 -3.6568 -2.5009 0.9741
5.6433 -2.2459 -2.5011 0.9741
5.8208 -1.7348 -2.5011 0.9741
6.0723 -0.1353 -2.5011 0.9741
6.0602 0.4057 -2.5011 0.9741
5.8920 1.4737 -2.5010 0.9741
8.3063 3.7426 -3.7515 0.9614
4.7014 3.2273 -2.3482 0.9756
4.3953 3.6328 -2.3481 0.9756
4.0543 4.0094 -2.3480 0.9756
3.6812 4.3541 -2.3478 0.9756
3.2788 4.6643 -2.3477 0.9756
2.3997 5.1711 -2.3475 0.9756
1.9298 5.3639 -2.3473 0.9756
0.4440 5.6821 -2.3469 0.9756
-0.0635 5.6988 -2.3468 0.9756
-2.5128 5.1135 -2.3461 0.9757
-2.9578 4.8694 -2.3460 0.9757
-3.3794 4.5865 -2.3459 0.9757
-4.4075 4.1686 -2.4981 0.9741
-4.7608 3.7596 -2.4980 0.9741
-5.0764 3.3209 -2.4979 0.9741
-5.3517 2.8558 -2.4979 0.9741
-5.7731 1.8616 -2.4978 0.9741
-3.5093 0.1565 -1.4465 0.9849
-2.7756 -0.6288 -1.1719 0.9878
-2.7775 -0.8956 -1.2017 0.9875
-5.0771 -3.3212 -2.4982 0.9741
-4.7615 -3.7601 -2.4983 0.9741
-4.4081 -4.1691 -2.4985 0.9741
-4.0197 -4.5452 -2.4986 0.9741
-0.0676 -6.0701 -2.4997 0.9741
2.0555 -5.7133 -2.5003 0.9741
3.0362 -5.2588 -2.5005 0.9741
5.2934 -2.9780 -2.5010 0.9741
6.0002 -0.9434 -2.5011 0.9741
6.0603 -0.4057 -2.5011 0.9741
6.0723 0.1354 -2.5011 0.9741
5.9519 1.2098 -2.5010 0.9741
8.4648 3.3689 -3.7516 0.9614
4.2290 3.8249 -2.3480 0.9756
2.6277 5.0592 -2.3475 0.9756
0.6967 5.6569 -2.3470 0.9756
0.1905 5.6961 -2.3468 0.9756
-0.8224 5.6390 -2.3466 0.9756
-2.2826 5.2205 -2.3462 0.9757
-3.1718 4.7326 -2.3460 0.9757
-4.1583 4.2997 -2.4631 0.9745
-4.5887 3.9681 -2.4980 0.9741
-5.4736 2.6146 -2.4979 0.9741
-5.6845 2.1170 -2.4978 0.9741
-5.8503 1.6026 -2.4978 0.9741
-3.0794 0.0000 -1.3283 0.9867
-2.7539 -0.2461 -1.1927 0.9880
-2.7092 -0.7421 -1.2117 0.9878
-2.7884 -1.6516 -1.3980 0.9860
-4.7008 -3.3834 -2.4983 0.9751
-4.3812 -3.7885 -2.4984 0.9751
-4.0268 -4.1636 -2.4986 0.9751
-3.6404 -4.5057 -2.4987 0.9751
-2.3210 -5.3082 -2.4991 0.9751
-0.8362 -5.7338 -2.4995 0.9751
0.7084 -5.7520 -2.4999 0.9751
1.2176 -5.6663 -2.5000 0.9751
1.7172 -5.5358 -2.5002 0.9751
2.6718 -5.1441 -2.5004 0.9751
3.1192 -4.8861 -2.5005 0.9751
3.5418 -4.5893 -2.5006 0.9751
3.9364 -4.2559 -2.5007 0.9751
4.9213 -3.0650 -2.5009 0.9751
5.3870 -2.1440 -2.5010 0.9751
5.5565 -1.6560 -2.5010 0.9751
5.7621 -0.6446 -2.5010 0.9751
5.6245 1.4068 -2.5009 0.9751
5.4768 1.9018 -2.5008 0.9751
7.9291 3.5727 -3.7514 0.9628
7.5794 4.2641 -3.7513 0.9628
4.4879 3.0808 -2.3481 0.9766
4.1957 3.4679 -2.3480 0.9766
3.8702 3.8274 -2.3479 0.9766
2.7212 4.7132 -2.3476 0.9766
1.8422 5.1204 -2.3473 0.9766
0.4239 5.4243 -2.3469 0.9766
-0.0606 5.4402 -2.3468 0.9766
-0.5445 5.4129 -2.3467 0.9766
-1.4955 5.2300 -2.3464 0.9766
-1.9549 5.0759 -2.3463 0.9766
-2.3988 4.8815 -2.3462 0.9766
-4.2075 3.9795 -2.4981 0.9751
-4.5449 3.5891 -2.4981 0.9751
-4.8462 3.1702 -2.4980 0.9751
-5.1090 2.7263 -2.4980 0.9751
-5.3313 2.2607 -2.4979 0.9751
-5.6476 1.2796 -2.4979 0.9751
-3.3811 0.1508 -1.4599 0.9854
-2.8614 -0.1276 -1.2355 0.9876
-2.7402 -0.3685 -1.1926 0.9880
-2.7200 -0.6163 -1.2030 0.9879
-5.1095 -2.7265 -2.4982 0.9751
-4.5455 -3.5895 -2.4984 0.9751
-3.8374 -4.3389 -2.4986 0.9751
-3.0075 -4.9511 -2.4989 0.9751
-2.5551 -5.1994 -2.4990 0.9751
-2.0823 -5.4065 -2.4991 0.9751
-1.5929 -5.5707 -2.4993 0.9751
-0.0645 -5.7946 -2.4997 0.9751
1.9622 -5.4539 -2.5002 0.9751
2.4399 -5.2579 -2.5003 0.9751
4.7799 -3.2812 -2.5009 0.9751
5.0530 -2.8428 -2.5009 0.9751
5.4772 -1.9019 -2.5010 0.9751
5.6248 -1.4068 -2.5010 0.9751
5.7277 -0.9006 -2.5010 0.9751
5.7965 0.1292 -2.5010 0.9751
5.6816 1.1548 -2.5009 0.9751
7.7619 3.9223 -3.7514 0.9628
7.3817 4.5974 -3.7512 0.9628
3.6958 3.9959 -2.3479 0.9766
3.3253 4.3087 -2.3478 0.9766
1.6122 5.1972 -2.3473 0.9766
-1.7269 5.1581 -2.3464 0.9766
-2.1790 4.9837 -2.3462 0.9766
-2.6138 4.7697 -2.3461 0.9766
-3.0279 4.5179 -2.3460 0.9766
-5.5850 1.5299 -2.4979 0.9751
-5.6990 1.0268 -2.4979 0.9751
-3.8265 0.3419 -1.6572 0.9834
-2.9980 0.0000 -1.3528 0.9869
-2.7005 -0.2413 -1.2234 0.9882
-2.6546 -0.7272 -1.2419 0.9880
-2.6666 -1.2737 -1.3334 0.9871
-4.4940 -3.2345 -2.4984 0.9760
-4.1884 -3.6218 -2.4985 0.9760
-3.4802 -4.3075 -2.4987 0.9760
-3.0831 -4.6003 -2.4988 0.9760
-2.6616 -4.8567 -2.4990 0.9760
-1.7585 -5.2523 -2.4992 0.9760
-1.2841 -5.3882 -2.4993 0.9760
-0.7994 -5.4814 -2.4995 0.9760
-0.3084 -5.5311 -2.4996 0.9760
0.1851 -5.5369 -2.4997 0.9760
1.1640 -5.4169 -2.5000 0.9760
1.6416 -5.2921 -2.5001 0.9760
2.9818 -4.6709 -2.5005 0.9760
3.7631 -4.0685 -2.5006 0.9760
4.1104 -3.7176 -2.5007 0.9760
4.4251 -3.3371 -2.5008 0.9760
4.7046 -2.9300 -2.5008 0.9760
4.9468 -2.4997 -2.5009 0.9760
5.1498 -2.0496 -2.5009 0.9760
5.4316 -1.1040 -2.5010 0.9760
5.5083 -0.6162 -2.5010 0.9760
5.5302 0.3702 -2.5009 0.9760
7.2456 4.0763 -3.7512 0.9642
3.3593 3.9735 -2.3478 0.9774
2.6014 4.5057 -2.3475 0.9774
1.7611 4.8950 -2.3473 0.9774
1.3184 5.0321 -2.3472 0.9774
0.4052 5.1856 -2.3469 0.9774
-0.0579 5.2007 -2.3468 0.9774
-0.9790 5.1075 -2.3466 0.9774
-2.2933 4.6668 -2.3462 0.9774
-2.6994 4.4439 -2.3461 0.9774
-3.0840 4.1859 -2.3460 0.9774
-4.0224 3.8044 -2.4982 0.9760
-4.6330 3.0308 -2.4981 0.9760
-5.2689 1.6990 -2.4980 0.9760
-5.4866 0.7379 -2.4979 0.9760
-3.2608 0.1454 -1.4728 0.9858
-2.6870 -0.3614 -1.2234 0.9882
-2.6675 -1.1311 -1.3074 0.9874
-4.8847 -2.6065 -2.4983 0.9760
-4.6335 -3.0311 -2.4983 0.9760
-4.3455 -3.4316 -2.4984 0.9760
-3.6685 -4.1481 -2.4986 0.9760
-3.2849 -4.4583 -2.4988 0.9760
-2.4426 -4.9706 -2.4990 0.9760
-1.0428 -5.4402 -2.4994 0.9760
-0.0617 -5.5395 -2.4997 0.9760
0.4316 -5.5233 -2.4998 0.9760
3.1870 -4.5336 -2.5005 0.9760
3.5780 -4.2321 -2.5006 0.9760
3.9406 -3.8969 -2.5007 0.9760
4.2720 -3.5308 -2.5008 0.9760
4.5694 -3.1367 -2.5008 0.9760
5.0533 -2.2769 -2.5009 0.9760
5.2360 -1.8181 -2.5009 0.9760
5.3771 -1.3448 -2.5010 0.9760
5.4314 1.1040 -2.5009 0.9760
7.0567 4.3949 -3.7512 0.9642
3.5331 3.8200 -2.3478 0.9774
2.7996 4.3854 -2.3476 0.9774
2.3980 4.6170 -2.3475 0.9774
0.6358 5.1625 -2.3470 0.9774
-0.7505 5.1462 -2.3466 0.9774
-1.2055 5.0587 -2.3465 0.9774
-1.6509 4.9311 -2.3464 0.9774
-2.0832 4.7644 -2.3463 0.9774
-4.9955 2.3862 -2.4980 0.9760
-5.3393 1.4626 -2.4979 0.9760
-5.4483 0.9816 -2.4979 0.9760
-3.7666 0.3366 -1.7063 0.9835
-2.9112 -0.0000 -1.3723 0.9872
-2.6212 -0.4722 -1.2555 0.9883
-2.6016 -0.7127 -1.2715 0.9881
-2.6023 -0.9691 -1.3090 0.9878
-2.6596 -1.5753 -1.4571 0.9864
-4.3019 -3.0963 -2.4984 0.9768
-4.0093 -3.4670 -2.4985 0.9768
-3.6850 -3.8102 -2.4986 0.9768
-3.3314 -4.1233 -2.4987 0.9768
-2.9513 -4.4036 -2.4989 0.9768
-2.1240 -4.8576 -2.4991 0.9768
-1.2292 -5.1578 -2.4993 0.9768
-0.7652 -5.2470 -2.4995 0.9768
-0.2952 -5.2945 -2.4996 0.9768
2.4449 -4.7072 -2.5003 0.9768
2.8543 -4.4711 -2.5004 0.9768
3.2410 -4.1994 -2.5005 0.9768
3.6020 -3.8945 -2.5006 0.9768
3.9345 -3.5585 -2.5007 0.9768
4.7352 -2.3928 -2.5008 0.9768
5.0845 -1.5153 -2.5009 0.9768
5.2726 -0.5898 -2.5009 0.9768
5.3042 -0.1182 -2.5009 0.9768
5.2936 0.3544 -2.5009 0.9768
4.8367 2.1794 -2.5007 0.9768
6.9356 3.9019 -3.7511 0.9654
3.8394 3.1734 -2.3479 0.9782
3.5415 3.5023 -2.3478 0.9782
2.4901 4.3130 -2.3475 0.9782
1.6858 4.6857 -2.3473 0.9782
1.2620 4.8169 -2.3472 0.9782
0.3879 4.9638 -2.3469 0.9782
-0.9372 4.8892 -2.3466 0.9782
-1.3685 4.7861 -2.3465 0.9782
-3.0274 4.1089 -2.4058 0.9777
-3.8505 3.6418 -2.4983 0.9768
-4.8789 2.0689 -2.4980 0.9768
-5.1684 1.1710 -2.4980 0.9768
-2.6352 -0.3544 -1.2533 0.9883
-2.5994 -0.8382 -1.2874 0.9880
-2.5902 -1.3822 -1.3839 0.9871
-4.4354 -2.9015 -2.4984 0.9768
-4.1597 -3.2849 -2.4985 0.9768
-3.1445 -4.2677 -2.4988 0.9768
-0.9982 -5.2076 -2.4994 0.9768
-0.5308 -5.2760 -2.4995 0.9768
1.7956 -4.9907 -2.5002 0.9768
2.6522 -4.5937 -2.5004 0.9768
3.4249 -4.0510 -2.5006 0.9768
3.7720 -3.7302 -2.5006 0.9768
4.0892 -3.3798 -2.5007 0.9768
4.3739 -3.0024 -2.5008 0.9768
4.8371 -2.1795 -2.5008 0.9768
5.0119 -1.7403 -2.5009 0.9768
5.1470 -1.2873 -2.5009 0.9768
5.2411 -0.8241 -2.5009 0.9768
5.2937 -0.3543 -2.5009 0.9768
5.3042 0.1182 -2.5009 0.9768
5.2725 0.5898 -2.5008 0.9768
5.1990 1.0568 -2.5008 0.9768
4.9291 1.9618 -2.5007 0.9768
6.7548 4.2070 -3.7511 0.9654
3.3820 3.6565 -2.3478 0.9782
3.0429 3.9429 -2.3477 0.9782
2.6798 4.1979 -2.3476 0.9782
0.6086 4.9417 -2.3470 0.9782
0.1664 4.9760 -2.3469 0.9782
-0.2772 4.9708 -2.3468 0.9782
-1.1540 4.8425 -2.3465 0.9782
-1.5803 4.7203 -2.3464 0.9782
-2.7709 4.1345 -2.3461 0.9782
-4.3014 3.0960 -2.4982 0.9768
-4.7820 2.2842 -2.4981 0.9768
-4.9662 1.8495 -2.4980 0.9768
-5.1111 1.4001 -2.4980 0.9768
-3.7076 0.3313 -1.7547 0.9837
-2.5453 -0.9479 -1.3359 0.9880
-3.8425 -3.3227 -2.4986 0.9776
-3.5316 -3.6516 -2.4987 0.9776
-2.4417 -4.4555 -2.4990 0.9776
-1.6132 -4.8183 -2.4992 0.9776
-0.7334 -5.0285 -2.4995 0.9776
-0.2829 -5.0741 -2.4996 0.9776
1.0678 -4.9692 -2.5000 0.9776
2.3431 -4.5111 -2.5003 0.9776
2.7354 -4.2849 -2.5004 0.9776
3.1060 -4.0246 -2.5005 0.9776
3.7706 -3.4103 -2.5006 0.9776
4.9826 -1.0127 -2.5008 0.9776
5.0530 -0.5652 -2.5008 0.9776
5.0227 0.7898 -2.5008 0.9776
6.6468 3.7394 -3.7511 0.9666
3.3941 3.3565 -2.3478 0.9789
2.7449 3.9048 -2.3476 0.9789
1.6156 4.4905 -2.3473 0.9790
1.2094 4.6163 -2.3472 0.9790
0.7937 4.7054 -2.3471 0.9790
-0.8981 4.6857 -2.3466 0.9790
-1.3116 4.5869 -2.3465 0.9790
-1.7145 4.4518 -2.3464 0.9790
-2.1039 4.2813 -2.3463 0.9790
-3.0126 4.0888 -2.4981 0.9776
-3.6903 3.4903 -2.4983 0.9776
-3.9862 3.1479 -2.4982 0.9776
-4.2504 2.7805 -2.4982 0.9776
-4.4809 2.3912 -2.4981 0.9776
-4.6759 1.9828 -2.4981 0.9776
-4.8338 1.5587 -2.4981 0.9776
-4.9533 1.1223 -2.4981 0.9776
-2.5845 -0.3476 -1.2826 0.9884
-2.5430 -0.8200 -1.3142 0.9882
-2.5441 -1.0788 -1.3592 0.9878
-2.5301 -1.3501 -1.4105 0.9873
-4.2508 -2.7808 -2.4984 0.9776
-3.9866 -3.1482 -2.4985 0.9776
-3.0136 -4.0900 -2.4988 0.9776
-1.8262 -4.7416 -2.4992 0.9776
0.3959 -5.0669 -2.4998 0.9776
1.7208 -4.7829 -2.5001 0.9776
2.1397 -4.6110 -2.5002 0.9776
2.5417 -4.4024 -2.5003 0.9776
2.9236 -4.1588 -2.5004 0.9776
3.6149 -3.5748 -2.5006 0.9776
4.4312 -2.4929 -2.5008 0.9776
4.9326 -1.2337 -2.5008 0.9776
5.0529 0.5652 -2.5008 0.9776
4.9824 1.0128 -2.5007 0.9776
4.8724 1.4522 -2.5007 0.9776
6.0887 4.5917 -3.7509 0.9666
3.5403 3.2020 -2.3479 0.9789
3.2411 3.5043 -2.3478 0.9789
2.5682 4.0230 -2.3476 0.9789
2.1998 4.2355 -2.3475 0.9789
1.4139 4.5580 -2.3472 0.9790
0.5833 4.7360 -2.3470 0.9790
-1.1060 4.6409 -2.3465 0.9790
-1.9111 4.3709 -2.3463 0.9790
-2.7173 4.0546 -2.4007 0.9785
-3.8420 3.3224 -2.4983 0.9776
-4.1224 2.9671 -2.4982 0.9776
-3.6334 0.3247 -1.7942 0.9839
-2.5199 -0.4540 -1.3126 0.9886
-2.4994 -0.6846 -1.3286 0.9884
-2.4879 -1.1884 -1.4135 0.9877
-2.4521 -1.4524 -1.4611 0.9873
-2.7136 -4.0490 -2.4989 0.9783
-1.9529 -4.4664 -2.4991 0.9783
-1.5477 -4.6227 -2.4992 0.9783
-0.7036 -4.8243 -2.4995 0.9783
-0.2714 -4.8680 -2.4996 0.9783
0.5961 -4.8395 -2.4998 0.9783
1.8537 -4.5106 -2.5002 0.9783
2.6243 -4.1108 -2.5003 0.9783
3.3118 -3.5806 -2.5005 0.9783
4.1404 -2.5786 -2.5007 0.9783
4.3536 -2.1999 -2.5007 0.9783
4.5321 -1.8037 -2.5007 0.9783
4.6747 -1.3932 -2.5008 0.9783
4.8767 -0.1087 -2.5008 0.9783
4.7320 1.1836 -2.5007 0.9783
4.6078 1.6000 -2.5006 0.9783
4.4470 2.0037 -2.5006 0.9783
6.3767 3.5875 -3.7510 0.9676
2.9566 3.4971 -2.3477 0.9796
2.2895 3.9655 -2.3475 0.9796
1.9274 4.1534 -2.3474 0.9796
1.1603 4.4289 -2.3472 0.9796
-0.4582 4.5545 -2.3467 0.9796
-0.8617 4.4954 -2.3466 0.9796
-1.2583 4.4007 -2.3465 0.9796
-1.6450 4.2711 -2.3464 0.9796
-2.0185 4.1075 -2.3463 0.9796
-3.8244 3.0201 -2.4983 0.9783
-4.0779 2.6677 -2.4982 0.9783
-4.2991 2.2941 -2.4982 0.9783
-4.4862 1.9023 -2.4982 0.9783
-4.6376 1.4955 -2.4981 0.9783
-4.7523 1.0768 -2.4981 0.9783
-4.8293 0.6495 -2.4981 0.9783
-2.9775 0.1328 -1.5280 0.9867
-2.5350 -0.3409 -1.3113 0.9886
-2.4881 -0.8023 -1.3403 0.9883
-2.4717 -1.3189 -1.4363 0.9875
-3.2289 -3.6510 -2.4987 0.9783
-2.8913 -3.9241 -2.4988 0.9783
-2.5306 -4.1660 -2.4990 0.9783
-1.7520 -4.5491 -2.4992 0.9783
-0.4880 -4.8510 -2.4995 0.9783
-0.0543 -4.8754 -2.4997 0.9783
0.3799 -4.8611 -2.4998 0.9783
1.2359 -4.7172 -2.5000 0.9783
1.6509 -4.5886 -2.5001 0.9783
2.8049 -3.9899 -2.5004 0.9783
3.1490 -3.7246 -2.5005 0.9783
4.0214 -2.7605 -2.5007 0.9783
4.2512 -2.3917 -2.5007 0.9783
4.4473 -2.0038 -2.5007 0.9783
4.6080 -1.6000 -2.5008 0.9783
4.8188 -0.7577 -2.5008 0.9783
4.8767 0.1087 -2.5008 0.9783
4.6745 1.3932 -2.5006 0.9783
4.3532 2.1998 -2.5005 0.9783
5.8414 4.4052 -3.7508 0.9676
5.4259 4.9074 -3.7507 0.9676
3.1095 3.3619 -2.3477 0.9796
2.4639 3.8597 -2.3475 0.9796
1.7404 4.2350 -2.3473 0.9796
1.3565 4.3729 -2.3472 0.9796
0.1530 4.5753 -2.3469 0.9796
-0.2548 4.5705 -2.3468 0.9796
-1.0611 4.4525 -2.3466 0.9796
-1.4531 4.3402 -2.3465 0.9796
-1.8335 4.1935 -2.3464 0.9796
-3.5136 6.4115 -3.7482 0.9677
-2.7044 4.0354 -2.4904 0.9784
-3.0627 3.7908 -2.4985 0.9783
-3.3879 3.5031 -2.4984 0.9783
-3.6861 3.1875 -2.4983 0.9783
-4.3970 2.1003 -2.4982 0.9783
-4.6996 1.2874 -2.4981 0.9783
-2.6714 0.0000 -1.4261 0.9880
-2.4853 -0.2221 -1.3321 0.9887
-2.4716 -0.4453 -1.3407 0.9887
-2.4501 -0.6712 -1.3561 0.9885
-2.4292 -1.1603 -1.4371 0.9879
-3.5403 -3.0614 -2.4986 0.9790
-3.2539 -3.3645 -2.4987 0.9790
-2.9417 -3.6409 -2.4988 0.9790
-2.6060 -3.8885 -2.4989 0.9790
-2.2497 -4.1051 -2.4990 0.9790
-1.4863 -4.4394 -2.4992 0.9790
-1.0853 -4.5542 -2.4994 0.9790
0.5724 -4.6475 -2.4998 0.9790
0.9838 -4.5784 -2.4999 0.9790
1.7802 -4.3317 -2.5001 0.9790
2.8616 -3.7079 -2.5004 0.9790
3.1804 -3.4386 -2.5005 0.9790
3.7399 -2.8203 -2.5006 0.9790
4.1808 -2.1126 -2.5007 0.9790
4.3523 -1.7321 -2.5007 0.9790
4.4892 -1.3379 -2.5007 0.9790
4.6553 -0.5208 -2.5007 0.9790
4.6832 -0.1043 -2.5007 0.9790
4.6739 0.3129 -2.5007 0.9790
4.6274 0.7277 -2.5007 0.9790
5.7926 3.9764 -3.7508 0.9686
4.9954 4.9401 -3.7506 0.9686
2.5290 3.5975 -2.3476 0.9803
2.1987 3.8082 -2.3475 0.9803
1.8509 3.9886 -2.3474 0.9803
1.4885 4.1373 -2.3473 0.9803
1.1143 4.2532 -2.3472 0.9803
0.3425 4.3830 -2.3469 0.9803
-0.4400 4.3739 -2.3467 0.9803
-0.8275 4.3172 -2.3466 0.9803
-2.7762 3.7680 -2.4985 0.9790
-3.1005 3.5058 -2.4985 0.9790
-3.6728 2.9004 -2.4983 0.9790
-3.9163 2.5620 -2.4983 0.9790
-4.1287 2.2032 -2.4982 0.9790
-4.5639 1.0341 -2.4982 0.9790
-4.6378 0.6237 -2.4982 0.9790
-2.8952 0.1291 -1.5471 0.9869
-2.4861 -0.3343 -1.3391 0.9887
-2.4330 -1.0317 -1.4108 0.9881
-2.4151 -1.2887 -1.4613 0.9877
