ply
format ascii 1.0
element vertex 1586
property float32 x
property float32 y
property float32 z
property float32 I
end_header
-4.9095 -5.5513 1.1801 0.9704
-4.3678 -5.9281 1.1725 0.9706
-3.9787 -6.5498 1.2203 0.9694
-6.3570 -5.4971 1.1954 0.9666
-4.1276 -6.1588 1.0545 0.9705
-3.8387 -7.0048 1.1361 0.9682
5.9656 4.9307 1.1009 0.9692
-5.6581 -5.3514 1.1077 0.9690
-4.8823 -5.5205 1.0482 0.9707
-6.2637 -5.4164 1.0377 0.9672
-3.8028 -6.9393 0.9916 0.9686
5.9652 4.9304 0.9698 0.9693
-4.3201 -5.8634 0.9127 0.9711
-3.9223 -6.4571 0.9468 0.9700
-4.0918 -6.1054 0.7972 0.9709
-3.7747 -6.8880 0.8519 0.9689
5.9648 4.9300 0.8394 0.9693
-5.5887 -5.2857 0.8344 0.9695
-3.9079 -6.4334 0.8165 0.9702
-3.8744 -7.8842 0.9529 0.9653
-6.1493 -5.3175 0.7453 0.9679
-5.1663 -5.3420 0.6813 0.9706
-4.5517 -5.6337 0.6640 0.9713
5.9644 4.9297 0.7094 0.9694
-4.8351 -5.4671 0.6691 0.9711
-3.9005 -6.4211 0.6888 0.9703
-6.1259 -5.2972 0.6069 0.9680
-5.1566 -5.3319 0.5559 0.9707
-4.5442 -5.6244 0.5419 0.9714
-4.0777 -6.0845 0.5489 0.9710
-3.7532 -6.8488 0.5853 0.9692
5.9640 4.9293 0.5798 0.9694
-4.2955 -5.8299 0.5427 0.9714
-3.8931 -6.4090 0.5620 0.9704
-4.5467 -5.6275 0.4214 0.9714
-4.0793 -6.0868 0.4268 0.9711
-3.7502 -6.8433 0.4545 0.9692
5.9636 4.9290 0.4506 0.9695
-5.5621 -5.2606 0.4459 0.9698
-4.2978 -5.8330 0.4220 0.9714
-6.1342 -5.3045 0.3372 0.9681
-4.5541 -5.6367 0.3013 0.9714
-4.0862 -6.0971 0.3052 0.9710
-3.7607 -6.8624 0.3254 0.9692
5.9632 4.9287 0.3217 0.9695
-5.5743 -5.2721 0.3190 0.9698
-4.8372 -5.4695 0.3036 0.9712
-4.3050 -5.8428 0.3018 0.9714
-3.9007 -6.4214 0.3124 0.9704
-6.1599 -5.3267 0.2031 0.9679
-5.1769 -5.3529 0.1857 0.9706
-4.5615 -5.6459 0.1810 0.9714
-3.7712 -6.8816 0.1957 0.9691
-4.8453 -5.4787 0.1824 0.9712
-4.3122 -5.8526 0.1813 0.9713
-3.9080 -6.4334 0.1877 0.9703
-5.1945 -5.3711 0.0621 0.9706
-3.7895 -6.9149 0.0655 0.9690
5.9623 4.9280 0.0643 0.9695
-5.6083 -5.3043 0.0642 0.9696
-4.8605 -5.4959 0.0610 0.9711
-3.8584 -7.8516 0.0727 0.9656
-5.2243 -5.4018 -0.0625 0.9704
-4.5985 -5.6916 -0.0608 0.9712
-4.1296 -6.1619 -0.0617 0.9708
-3.8223 -6.9748 -0.0661 0.9687
-3.9471 -6.4979 -0.0632 0.9700
-6.3679 -5.5065 -0.2099 0.9669
-5.2543 -5.4330 -0.1885 0.9702
-4.6218 -5.7204 -0.1834 0.9710
-4.1531 -6.1968 -0.1860 0.9706
-3.8557 -7.0357 -0.2001 0.9684
5.9615 4.9273 -0.1929 0.9695
-3.9735 -6.5413 -0.1909 0.9698
-6.5590 -5.6718 -0.3605 0.9659
-5.2946 -5.4746 -0.3167 0.9700
-4.6518 -5.7576 -0.3078 0.9708
-4.1838 -6.2428 -0.3125 0.9704
5.9611 4.9270 -0.3216 0.9695
-4.9447 -5.5910 -0.3103 0.9706
-5.3500 -5.5318 -0.4482 0.9696
-4.6943 -5.8103 -0.4351 0.9705
-3.9759 -7.2551 -0.4819 0.9674
5.9607 4.9266 -0.4504 0.9695
-5.8286 -5.5127 -0.4673 0.9684
-4.9915 -5.6440 -0.4388 0.9703
-4.0582 -6.6807 -0.4553 0.9692
-5.4066 -5.5904 -0.5828 0.9693
-4.2709 -6.3727 -0.5749 0.9697
-4.0804 -7.4458 -0.6363 0.9665
-5.9226 -5.6016 -0.6109 0.9678
-5.0393 -5.6980 -0.5700 0.9699
-4.4834 -6.0850 -0.5664 0.9701
-4.1083 -6.7632 -0.5930 0.9688
-5.5043 -5.6914 -0.7259 0.9687
-4.7992 -5.9401 -0.7001 0.9698
-6.0958 -5.7654 -0.7692 0.9669
-5.1082 -5.7759 -0.7069 0.9695
-4.1867 -6.8923 -0.7393 0.9681
-5.1907 -5.8692 -0.8499 0.9690
-4.6138 -6.2619 -0.8437 0.9692
-4.2931 -7.0675 -0.8969 0.9673
-4.5185 -6.7421 -1.0171 0.9678
-5.3106 -6.0048 -1.0046 0.9682
-4.7088 -6.3908 -0.9948 0.9685
-5.0911 -6.3013 -1.1523 0.9678
-4.6910 -6.9995 -1.1985 0.9665
-4.8293 -6.5544 -1.1580 0.9676
14.3345 3.5853 -2.3529 0.9419
13.9571 4.8465 -2.3527 0.9419
13.4688 6.0688 -2.3524 0.9419
12.1759 8.3583 -2.3517 0.9419
5.9582 4.9246 -1.2309 0.9692
10.4975 10.3812 -2.3509 0.9420
3.7369 14.2638 -2.3480 0.9420
2.4520 14.5366 -2.3474 0.9420
1.1482 14.6938 -2.3469 0.9420
-2.7728 14.4655 -2.3454 0.9421
-4.0485 14.1584 -2.3449 0.9421
-8.7287 11.8468 -2.3432 0.9421
-9.7471 11.0212 -2.3428 0.9421
-5.0935 -6.9129 -1.3673 0.9658
14.4806 2.9433 -2.3530 0.9419
14.1599 4.2201 -2.3528 0.9419
11.7906 8.8917 -2.3515 0.9419
10.0237 10.8375 -2.3507 0.9420
7.9402 12.4381 -2.3498 0.9420
6.8002 13.0927 -2.3493 0.9420
5.6067 13.6430 -2.3488 0.9420
4.3691 14.0848 -2.3482 0.9420
3.0975 14.4145 -2.3477 0.9420
0.4924 14.7287 -2.3467 0.9421
-7.0736 12.9077 -2.3438 0.9421
-8.1930 12.2248 -2.3434 0.9421
-9.2471 11.4453 -2.3430 0.9421
-10.2276 10.5753 -2.3427 0.9422
-11.1269 9.6218 -2.3424 0.9422
-13.2700 6.3386 -2.3418 0.9422
-13.9228 -2.5083 -2.4945 0.9442
-13.2598 -4.9380 -2.4949 0.9441
-9.8433 -10.1779 -2.4966 0.9441
-8.8999 -11.0155 -2.4971 0.9441
-6.8083 -12.4235 -2.4980 0.9441
-5.6766 -12.9827 -2.4985 0.9441
5.3955 -13.1290 -2.5029 0.9440
7.6403 -11.9683 -2.5037 0.9440
8.6765 -11.2424 -2.5040 0.9440
10.5349 -9.5283 -2.5047 0.9439
11.3424 -8.5536 -2.5049 0.9439
13.2019 -5.2542 -2.5054 0.9439
13.9250 -2.8304 -2.5056 0.9439
14.1217 -1.5797 -2.5056 0.9439
12.9422 3.2371 -2.3524 0.9473
12.6016 4.3758 -2.3522 0.9473
10.9939 7.5469 -2.3513 0.9473
9.4787 9.3737 -2.3506 0.9473
7.6638 10.9020 -2.3498 0.9473
6.6618 11.5386 -2.3493 0.9473
5.6073 12.0834 -2.3489 0.9473
2.2144 13.1276 -2.3474 0.9474
-0.1483 13.3068 -2.3465 0.9474
-1.3318 13.2382 -2.3460 0.9474
-2.5043 13.0646 -2.3456 0.9474
-6.9014 11.3613 -2.3439 0.9474
-8.8040 9.9549 -2.3433 0.9475
-9.6539 9.1306 -2.3430 0.9475
-10.4272 8.2343 -2.3428 0.9475
-11.1177 7.2729 -2.3425 0.9475
-11.7200 6.2540 -2.3424 0.9475
-13.4628 4.3412 -2.4942 0.9442
-14.0189 1.8854 -2.4942 0.9442
-14.1317 -0.6301 -2.4943 0.9442
-14.0203 -1.8855 -2.4944 0.9442
-13.7978 -3.1262 -2.4946 0.9442
-13.4659 -4.3422 -2.4948 0.9442
-13.0273 -5.5241 -2.4951 0.9441
-11.8444 -7.7483 -2.4957 0.9441
-10.2860 -9.7285 -2.4964 0.9441
-9.3809 -10.6072 -2.4968 0.9441
-8.4011 -11.4020 -2.4973 0.9441
-7.3542 -12.1067 -2.4977 0.9441
-6.2487 -12.7157 -2.4982 0.9441
-5.0931 -13.2240 -2.4987 0.9441
-1.4193 -14.1083 -2.5002 0.9440
-0.1579 -14.1815 -2.5007 0.9440
1.1051 -14.1421 -2.5012 0.9440
2.3599 -13.9903 -2.5017 0.9440
4.8048 -13.3552 -2.5027 0.9440
5.9755 -12.8768 -2.5031 0.9440
7.0990 -12.2958 -2.5035 0.9440
8.1665 -11.6169 -2.5039 0.9440
9.1693 -10.8455 -2.5042 0.9439
10.0994 -9.9875 -2.5045 0.9439
10.9495 -9.0500 -2.5048 0.9439
11.7127 -8.0403 -2.5050 0.9439
12.9544 -5.8370 -2.5054 0.9439
13.4231 -4.6610 -2.5055 0.9439
14.0373 -2.2072 -2.5056 0.9439
14.2057 0.3166 -2.5055 0.9439
13.2596 1.4833 -2.3526 0.9472
13.0741 2.6574 -2.3525 0.9473
12.7846 3.8102 -2.3523 0.9473
11.9040 6.0154 -2.3518 0.9473
11.3199 7.0501 -2.3515 0.9473
10.6460 8.0285 -2.3511 0.9473
9.8876 8.9429 -2.3508 0.9473
9.0509 9.7858 -2.3504 0.9473
7.1699 11.2315 -2.3495 0.9473
6.1406 11.8228 -2.3491 0.9473
3.9455 12.7192 -2.3482 0.9473
1.6272 13.2119 -2.3472 0.9474
0.4447 13.3016 -2.3467 0.9474
-0.7408 13.2857 -2.3463 0.9474
-1.9200 13.1645 -2.3458 0.9474
-4.2221 12.6107 -2.3449 0.9474
-6.3889 11.6584 -2.3441 0.9474
-10.0505 8.6911 -2.3429 0.9475
-10.7831 7.7613 -2.3426 0.9475
-11.4302 6.7702 -2.3425 0.9475
-13.9209 2.5080 -2.4942 0.9442
-12.8408 -1.1474 -2.4948 0.9488
-12.6884 -2.2859 -2.4950 0.9488
-11.0970 -6.5728 -2.4959 0.9488
-9.7583 -8.4384 -2.4965 0.9488
-8.1101 -10.0379 -2.4973 0.9488
-7.1856 -10.7217 -2.4977 0.9488
-6.2039 -11.3206 -2.4981 0.9488
-2.9942 -12.5643 -2.4995 0.9487
-0.7193 -12.9009 -2.5004 0.9487
3.8309 -12.3495 -2.5022 0.9487
4.9156 -11.9615 -2.5026 0.9487
6.9606 -10.9036 -2.5033 0.9487
8.7858 -9.4991 -2.5040 0.9486
9.5974 -8.6804 -2.5042 0.9486
10.9863 -6.8423 -2.5047 0.9486
12.0267 -4.7865 -2.5049 0.9486
12.4054 -3.6972 -2.5050 0.9486
12.8646 -1.4391 -2.5050 0.9486
12.9413 -0.2883 -2.5050 0.9486
12.0068 1.8880 -2.3521 0.9517
11.7904 2.9490 -2.3519 0.9517
5.9573 4.9239 -1.4957 0.9690
7.8400 9.2733 -2.3499 0.9517
6.0696 10.5129 -2.3491 0.9517
2.0176 11.9614 -2.3474 0.9518
-1.2135 12.0628 -2.3462 0.9518
-2.2820 11.9049 -2.3457 0.9518
-3.3319 11.6525 -2.3453 0.9518
-5.3435 10.8737 -2.3446 0.9518
-6.2892 10.3534 -2.3443 0.9518
-8.0232 9.0720 -2.3437 0.9519
-9.5026 7.5041 -2.3432 0.9519
-10.1320 6.6280 -2.3430 0.9519
-11.8689 5.0329 -2.4948 0.9488
-12.2693 3.9563 -2.4947 0.9488
-12.7761 1.7183 -2.4947 0.9488
-12.8785 0.5743 -2.4947 0.9488
-12.8789 -0.5743 -2.4948 0.9488
-12.7773 -1.7184 -2.4949 0.9488
-12.2719 -3.9572 -2.4952 0.9488
-11.8721 -5.0342 -2.4955 0.9488
-10.1239 -7.9947 -2.4964 0.9488
-9.3734 -8.8653 -2.4967 0.9488
-8.5485 -9.6659 -2.4971 0.9488
-7.6555 -10.3901 -2.4975 0.9488
-6.7014 -11.0321 -2.4979 0.9488
-3.5506 -12.4173 -2.4993 0.9487
-2.4318 -12.6864 -2.4997 0.9487
-0.1439 -12.9213 -2.5007 0.9487
1.0069 -12.8852 -2.5011 0.9487
2.1501 -12.7467 -2.5016 0.9487
4.3776 -12.1676 -2.5024 0.9487
5.4440 -11.7315 -2.5028 0.9487
6.4675 -11.2021 -2.5032 0.9487
8.3534 -9.8805 -2.5038 0.9487
9.2007 -9.0988 -2.5041 0.9486
9.9751 -8.2446 -2.5044 0.9486
12.5579 -3.1409 -2.5050 0.9486
12.7877 -2.0108 -2.5051 0.9486
12.9411 0.2884 -2.5050 0.9486
11.9104 2.4209 -2.3520 0.9517
11.6468 3.4711 -2.3518 0.9517
10.3128 6.4229 -2.3511 0.9517
9.6989 7.3143 -2.3508 0.9517
9.0081 8.1474 -2.3505 0.9517
8.2460 8.9155 -2.3501 0.9517
7.4185 9.6125 -2.3497 0.9517
4.6130 11.2250 -2.3485 0.9518
2.5487 11.8608 -2.3477 0.9518
1.4827 12.0383 -2.3472 0.9518
-2.8098 11.7904 -2.3455 0.9518
-3.8474 11.4916 -2.3451 0.9518
-5.8221 10.6241 -2.3444 0.9518
-6.7437 10.0623 -2.3441 0.9518
-8.4188 8.7050 -2.3435 0.9519
-9.1593 7.9204 -2.3433 0.9519
-9.8270 7.0731 -2.3431 0.9519
-11.6332 5.5567 -2.4949 0.9488
-12.0810 4.4990 -2.4948 0.9488
-12.4332 3.4058 -2.4947 0.9488
-11.0939 -4.1314 -2.4957 0.9528
-10.6831 -5.1029 -2.4960 0.9528
-7.4451 -9.2149 -2.4975 0.9527
-5.6950 -10.3921 -2.4983 0.9527
-4.7483 -10.8596 -2.4987 0.9527
0.3964 -11.8556 -2.5008 0.9527
1.4503 -11.7753 -2.5012 0.9527
3.5162 -11.3351 -2.5020 0.9526
4.5118 -10.9788 -2.5024 0.9526
5.4718 -10.5351 -2.5027 0.9526
6.3886 -10.0076 -2.5031 0.9526
8.8085 -7.9668 -2.5039 0.9526
10.6026 -5.3577 -2.5044 0.9526
11.0379 -4.3930 -2.5045 0.9526
11.3854 -3.3932 -2.5046 0.9526
11.8067 -1.3208 -2.5046 0.9526
11.8772 -0.2647 -2.5046 0.9526
11.8533 0.7935 -2.5045 0.9526
10.8210 2.7065 -2.3516 0.9554
10.5364 3.6586 -2.3514 0.9554
9.7189 5.4678 -2.3509 0.9554
5.9369 4.9070 -1.6238 0.9690
7.9261 7.8383 -2.3501 0.9555
3.7707 10.4809 -2.3482 0.9555
1.8521 10.9797 -2.3474 0.9555
-2.0948 10.9285 -2.3459 0.9555
-3.9981 10.3808 -2.3452 0.9555
-5.7737 9.5048 -2.3445 0.9556
-8.0769 7.6391 -2.3437 0.9556
-9.3019 6.0850 -2.3433 0.9556
-10.0472 5.3613 -2.4008 0.9545
-11.2642 3.6323 -2.4951 0.9528
-11.5426 2.6152 -2.4951 0.9528
-11.8236 0.5272 -2.4951 0.9528
-11.7306 -1.5776 -2.4953 0.9528
-11.5443 -2.6156 -2.4954 0.9528
-11.2664 -3.6330 -2.4956 0.9528
-10.4457 -5.5740 -2.4961 0.9528
-8.6050 -8.1386 -2.4970 0.9527
-7.0277 -9.5381 -2.4977 0.9527
-5.2269 -10.6364 -2.4985 0.9527
-4.2601 -11.0612 -2.4989 0.9527
-0.1321 -11.8605 -2.5006 0.9527
0.9242 -11.8272 -2.5010 0.9527
4.0180 -11.1681 -2.5022 0.9526
5.9361 -10.2816 -2.5029 0.9526
6.8285 -9.7137 -2.5032 0.9526
7.6669 -9.0684 -2.5035 0.9526
8.4445 -8.3509 -2.5038 0.9526
10.8310 -4.8802 -2.5045 0.9526
11.2228 -3.8970 -2.5046 0.9526
11.8538 -0.7935 -2.5046 0.9526
11.8771 0.2647 -2.5045 0.9526
10.9312 2.2219 -2.3516 0.9554
10.6893 3.1858 -2.3515 0.9554
10.3625 4.1242 -2.3513 0.9554
9.9534 5.0296 -2.3511 0.9554
8.9019 6.7132 -2.3505 0.9554
7.5685 8.1830 -2.3499 0.9555
6.8092 8.8229 -2.3496 0.9555
4.2343 10.3035 -2.3484 0.9555
3.2998 10.6376 -2.3480 0.9555
1.3610 11.0504 -2.3472 0.9555
-0.6196 11.1129 -2.3465 0.9555
-1.6060 11.0119 -2.3461 0.9555
-2.5793 10.8235 -2.3457 0.9555
-5.3449 9.7532 -2.3447 0.9556
-6.1909 9.2376 -2.3444 0.9556
-9.0219 6.4936 -2.3434 0.9556
-9.5634 5.6644 -2.3433 0.9556
-10.6802 5.1015 -2.4953 0.9528
-11.0914 4.1305 -2.4952 0.9528
-11.4148 3.1268 -2.4951 0.9528
-11.6476 2.0984 -2.4951 0.9528
-11.7883 1.0534 -2.4951 0.9528
-10.9335 0.0000 -2.4955 0.9561
-10.8905 -0.9732 -2.4956 0.9561
-10.7612 -1.9387 -2.4957 0.9561
-10.2483 -3.8165 -2.4960 0.9561
-8.2753 -7.1559 -2.4970 0.9561
-6.8772 -8.5121 -2.4977 0.9561
-6.0932 -9.0917 -2.4980 0.9561
-5.2606 -9.5993 -2.4984 0.9561
-4.3859 -10.0309 -2.4988 0.9561
-3.4763 -10.3831 -2.4992 0.9561
-2.5387 -10.6529 -2.4996 0.9561
0.3661 -10.9503 -2.5007 0.9560
1.3395 -10.8759 -2.5011 0.9560
2.3025 -10.7151 -2.5015 0.9560
5.9004 -9.2428 -2.5028 0.9560
6.7003 -8.6819 -2.5031 0.9560
9.3121 -5.7996 -2.5039 0.9560
10.7520 -2.1854 -2.5043 0.9560
10.9039 -1.2197 -2.5043 0.9560
10.9690 -0.2444 -2.5042 0.9560
9.9936 2.4996 -2.3512 0.9586
9.7308 3.3789 -2.3511 0.9586
8.9760 5.0498 -2.3507 0.9586
8.4900 5.8281 -2.3504 0.9586
5.9193 8.4203 -2.3492 0.9586
5.1456 8.9124 -2.3489 0.9587
4.3313 9.3336 -2.3485 0.9587
3.4828 9.6806 -2.3482 0.9587
2.6069 9.9506 -2.3478 0.9587
1.7107 10.1416 -2.3474 0.9587
-0.1145 10.2810 -2.3467 0.9587
-1.0290 10.2284 -2.3464 0.9587
-4.5313 9.2210 -2.3450 0.9587
-5.3334 8.7800 -2.3447 0.9587
-7.4612 7.0568 -2.3440 0.9587
-10.6630 2.4160 -2.4955 0.9561
-10.8357 1.4573 -2.4955 0.9561
-10.0685 -4.2694 -2.4961 0.9561
-9.6494 -5.1491 -2.4964 0.9561
-7.9488 -7.5179 -2.4972 0.9561
-7.2491 -8.1967 -2.4975 0.9561
-6.4917 -8.8105 -2.4979 0.9561
-5.6825 -9.3547 -2.4982 0.9561
-4.8281 -9.8249 -2.4986 0.9561
-3.0105 -10.5284 -2.4994 0.9561
-2.0618 -10.7563 -2.4998 0.9561
0.8536 -10.9239 -2.5009 0.9560
1.8228 -10.8062 -2.5013 0.9560
2.7778 -10.6027 -2.5017 0.9560
3.7110 -10.3148 -2.5020 0.9560
5.4825 -9.4958 -2.5027 0.9560
6.3066 -8.9713 -2.5030 0.9560
7.0808 -8.3752 -2.5032 0.9560
7.7989 -7.7125 -2.5035 0.9560
9.0442 -6.2085 -2.5039 0.9560
9.5615 -5.3792 -2.5040 0.9560
10.0028 -4.5070 -2.5041 0.9560
10.3646 -3.5989 -2.5042 0.9560
10.6440 -2.6622 -2.5042 0.9560
10.8387 -1.7043 -2.5043 0.9560
10.9473 -0.7328 -2.5042 0.9560
10.9688 0.2445 -2.5042 0.9560
9.5703 3.8089 -2.3510 0.9586
9.1925 4.6452 -2.3508 0.9586
7.6361 6.9065 -2.3500 0.9586
6.9902 7.5578 -2.3497 0.9586
6.2889 8.1488 -2.3494 0.9586
5.5379 8.6750 -2.3491 0.9587
4.7431 9.1321 -2.3487 0.9587
2.1609 10.0561 -2.3476 0.9587
-0.5724 10.2649 -2.3465 0.9587
-1.4835 10.1717 -2.3462 0.9587
-2.3826 9.9978 -2.3458 0.9587
-4.1163 9.4144 -2.3452 0.9587
-4.9373 9.0095 -2.3449 0.9587
-5.7189 8.5332 -2.3446 0.9587
-6.4550 7.9895 -2.3444 0.9587
-7.1398 7.3825 -2.3441 0.9587
-8.8345 5.2328 -2.3436 0.9587
-10.2462 3.8157 -2.4955 0.9561
-10.5449 2.8886 -2.4955 0.9561
-10.7601 1.9386 -2.4954 0.9561
-10.1539 -0.0000 -2.4958 0.9590
-10.1139 -0.9038 -2.4959 0.9590
-9.9937 -1.8005 -2.4960 0.9590
-9.7944 -2.6829 -2.4961 0.9590
-8.7396 -5.1764 -2.4967 0.9590
-8.2450 -5.9344 -2.4970 0.9590
-6.3864 -7.9045 -2.4978 0.9590
-4.8850 -8.9140 -2.4985 0.9590
-4.0728 -9.3147 -2.4989 0.9590
-1.4678 -10.0641 -2.4999 0.9590
-0.5663 -10.1563 -2.5003 0.9590
0.3400 -10.1679 -2.5007 0.9590
1.2438 -10.0987 -2.5010 0.9590
2.1380 -9.9493 -2.5014 0.9589
3.0154 -9.7208 -2.5017 0.9589
3.8692 -9.4151 -2.5020 0.9589
4.6924 -9.0344 -2.5023 0.9589
6.2212 -8.0610 -2.5029 0.9589
8.1319 -6.1325 -2.5035 0.9589
8.6460 -5.3847 -2.5036 0.9589
9.4645 -3.7668 -2.5039 0.9589
9.7625 -2.9095 -2.5039 0.9589
10.1238 -1.1325 -2.5039 0.9589
9.0348 3.1372 -2.3508 0.9614
8.3340 4.6887 -2.3504 0.9614
7.8829 5.4113 -2.3502 0.9614
5.8587 4.8423 -1.8683 0.9692
6.1710 7.2992 -2.3494 0.9614
5.4962 7.8184 -2.3491 0.9614
4.0218 8.6667 -2.3485 0.9614
3.2340 8.9890 -2.3481 0.9614
1.5885 9.4172 -2.3474 0.9614
0.7439 9.5199 -2.3471 0.9614
-0.1064 9.5469 -2.3468 0.9614
-5.6583 7.6796 -2.3447 0.9615
-6.3188 7.1448 -2.3445 0.9615
-7.4843 5.9103 -2.3441 0.9615
-7.9801 5.2204 -2.3439 0.9615
-9.3484 3.9641 -2.4959 0.9590
-9.6638 3.1162 -2.4958 0.9590
-10.1437 0.4523 -2.4958 0.9590
-9.9039 -2.2439 -2.4961 0.9590
-9.6654 -3.1167 -2.4962 0.9590
-8.9611 -4.7818 -2.4966 0.9590
-7.9729 -6.2961 -2.4971 0.9590
-7.3817 -6.9815 -2.4974 0.9590
-6.7318 -7.6117 -2.4977 0.9590
-6.0283 -8.1817 -2.4980 0.9590
-4.4834 -9.1234 -2.4987 0.9590
-3.6541 -9.4876 -2.4990 0.9590
-1.0181 -10.1203 -2.5001 0.9590
-0.1133 -10.1722 -2.5005 0.9590
1.6925 -10.0340 -2.5012 0.9590
3.4457 -9.5775 -2.5019 0.9589
4.2850 -9.2339 -2.5022 0.9589
7.2411 -7.1609 -2.5032 0.9589
8.3973 -5.7644 -2.5036 0.9589
9.2872 -4.1846 -2.5038 0.9589
9.6231 -3.3415 -2.5039 0.9589
10.1841 0.2270 -2.5039 0.9589
10.1231 1.1325 -2.5038 0.9589
8.8857 3.5365 -2.3507 0.9614
8.5350 4.3130 -2.3505 0.9614
8.1165 5.0550 -2.3503 0.9614
7.6336 5.7568 -2.3501 0.9614
6.4905 7.0174 -2.3496 0.9614
5.8394 7.5663 -2.3493 0.9614
4.4042 8.4796 -2.3486 0.9614
1.1673 9.4779 -2.3473 0.9614
-1.3776 9.4455 -2.3463 0.9614
-3.8226 8.7425 -2.3453 0.9615
-4.5850 8.3666 -2.3451 0.9615
-6.6305 6.8559 -2.3444 0.9615
-7.2138 6.2381 -2.3442 0.9615
-8.5979 5.0926 -2.4563 0.9597
-9.5155 3.5436 -2.4958 0.9590
-9.7929 2.6826 -2.4958 0.9590
-10.1134 0.9038 -2.4958 0.9590
-9.4355 -0.8432 -2.4962 0.9616
-8.5499 -4.0840 -2.4967 0.9616
-7.6917 -5.5362 -2.4972 0.9616
-4.5570 -8.3155 -2.4986 0.9615
-3.0112 -8.9941 -2.4993 0.9615
-2.1991 -9.2277 -2.4996 0.9615
0.3171 -9.4846 -2.5006 0.9615
1.1602 -9.4200 -2.5009 0.9615
3.6091 -8.7821 -2.5019 0.9615
5.1101 -8.0048 -2.5024 0.9615
5.8028 -7.5189 -2.5027 0.9615
6.4496 -6.9732 -2.5029 0.9615
7.5849 -5.7200 -2.5032 0.9615
8.4798 -4.2850 -2.5035 0.9615
8.8278 -3.5134 -2.5036 0.9615
9.3112 -1.8926 -2.5037 0.9615
9.4427 -1.0563 -2.5037 0.9615
9.4800 0.6346 -2.5036 0.9615
13.8250 3.4578 -3.7551 0.9428
8.1326 3.6644 -2.3504 0.9638
7.7735 4.3733 -2.3502 0.9638
7.3528 5.0474 -2.3500 0.9638
6.3401 6.2698 -2.3495 0.9638
5.7562 6.8085 -2.3493 0.9638
4.4567 7.7193 -2.3487 0.9638
3.0167 8.3850 -2.3481 0.9638
2.2581 8.6190 -2.3478 0.9638
1.4818 8.7846 -2.3474 0.9638
0.6939 8.8805 -2.3471 0.9638
-0.8914 8.8604 -2.3465 0.9638
-1.6762 8.7448 -2.3462 0.9638
-2.4476 8.5598 -2.3459 0.9638
-3.1994 8.3070 -2.3456 0.9638
-3.9256 7.9883 -2.3454 0.9639
-4.6205 7.6064 -2.3451 0.9639
-5.2787 7.1643 -2.3449 0.9639
-6.4642 6.1138 -2.3445 0.9639
-6.9822 5.5138 -2.3443 0.9639
-8.3579 4.4599 -2.4962 0.9616
-8.7213 3.6982 -2.4961 0.9616
-9.2385 2.0932 -2.4960 0.9616
-9.4633 0.4220 -2.4961 0.9616
-8.3599 -4.4610 -2.4968 0.9616
-7.9303 -5.1878 -2.4971 0.9616
-6.2799 -7.1008 -2.4978 0.9615
-4.1823 -8.5108 -2.4988 0.9615
-0.9497 -9.4404 -2.5001 0.9615
-0.1057 -9.4887 -2.5004 0.9615
0.7394 -9.4618 -2.5008 0.9615
1.5788 -9.3596 -2.5011 0.9615
2.4059 -9.1831 -2.5014 0.9615
3.2141 -8.9336 -2.5017 0.9615
4.7482 -8.2241 -2.5023 0.9615
5.4619 -7.7696 -2.5025 0.9615
6.7541 -6.6793 -2.5030 0.9615
7.3223 -6.0520 -2.5032 0.9615
9.4803 -0.6346 -2.5037 0.9615
9.4990 0.2117 -2.5036 0.9615
8.2881 3.2986 -2.3505 0.9638
7.5707 4.7151 -2.3501 0.9638
5.8063 5.2515 -2.0629 0.9681
6.0541 6.5457 -2.3494 0.9638
5.4469 7.0577 -2.3491 0.9638
4.7965 7.5136 -2.3488 0.9638
4.1082 7.9097 -2.3485 0.9638
3.3874 8.2429 -2.3482 0.9638
2.6400 8.5105 -2.3479 0.9638
-1.2851 8.8113 -2.3463 0.9638
-3.5660 8.1557 -2.3455 0.9638
-4.2773 7.8051 -2.3452 0.9639
-4.9545 7.3927 -2.3450 0.9639
-7.2207 5.1971 -2.3442 0.9639
-8.5481 4.0831 -2.4962 0.9616
-9.1361 2.5027 -2.4961 0.9616
-9.3225 1.6796 -2.4960 0.9616
-5.0319 -0.0000 -1.4157 0.9793
-7.2041 -5.1852 -2.4973 0.9638
-6.7146 -5.8063 -2.4976 0.9638
-6.1718 -6.3815 -2.4978 0.9638
-5.5799 -6.9063 -2.4981 0.9638
-3.5583 -8.1380 -2.4990 0.9638
-2.8202 -8.4235 -2.4993 0.9638
-2.0595 -8.6421 -2.4996 0.9638
-0.4947 -8.8726 -2.5002 0.9637
1.0865 -8.8220 -2.5009 0.9637
3.3798 -8.2243 -2.5017 0.9637
4.0989 -7.8917 -2.5020 0.9637
4.7855 -7.4963 -2.5023 0.9637
5.4342 -7.0412 -2.5025 0.9637
6.5975 -5.9671 -2.5029 0.9637
7.1029 -5.3565 -2.5030 0.9637
7.5519 -4.7034 -2.5032 0.9637
7.9409 -4.0127 -2.5033 0.9637
8.5270 -2.5413 -2.5034 0.9637
8.8425 -0.9892 -2.5034 0.9637
8.8954 -0.1982 -2.5034 0.9637
8.7891 1.3821 -2.5032 0.9637
12.9464 3.2381 -3.7548 0.9461
7.2797 4.0955 -2.3501 0.9659
6.8857 4.7268 -2.3499 0.9659
5.8244 4.8140 -2.1260 0.9691
5.9374 5.8716 -2.3494 0.9659
5.3906 6.3761 -2.3492 0.9659
4.8012 6.8298 -2.3489 0.9659
3.5133 7.5710 -2.3483 0.9659
2.8252 7.8527 -2.3480 0.9659
2.1148 8.0720 -2.3477 0.9659
1.3877 8.2271 -2.3474 0.9659
0.6499 8.3169 -2.3471 0.9659
-0.0929 8.3407 -2.3469 0.9659
-2.2924 8.0169 -2.3460 0.9659
-3.6767 7.4818 -2.3455 0.9660
-4.3275 7.1241 -2.3453 0.9660
-5.5211 6.2429 -2.3448 0.9660
-7.4256 4.8576 -2.4966 0.9638
-8.6530 1.9605 -2.4963 0.9638
-8.7931 1.1826 -2.4963 0.9638
-8.4455 -2.7233 -2.4967 0.9638
-6.9663 -5.5012 -2.4975 0.9638
-6.4496 -6.1000 -2.4977 0.9638
-5.8817 -6.6505 -2.4980 0.9638
-5.2670 -7.1484 -2.4982 0.9638
-4.6104 -7.5897 -2.4985 0.9638
-3.9170 -7.9709 -2.4988 0.9638
-3.1924 -8.2889 -2.4991 0.9638
-1.6726 -8.7258 -2.4998 0.9638
-0.8894 -8.8412 -2.5001 0.9637
-0.0990 -8.8864 -2.5004 0.9637
2.2531 -8.6000 -2.5013 0.9637
3.0099 -8.3663 -2.5016 0.9637
3.7430 -8.0660 -2.5019 0.9637
5.1149 -7.2760 -2.5024 0.9637
6.3250 -6.2549 -2.5028 0.9637
8.1119 -3.6550 -2.5033 0.9637
8.4052 -2.9186 -2.5034 0.9637
8.7897 -1.3821 -2.5034 0.9637
8.8421 0.9892 -2.5033 0.9637
7.4552 3.7673 -2.3502 0.9659
6.6680 5.0285 -2.3498 0.9659
5.7854 5.2325 -2.1948 0.9681
5.1010 6.6095 -2.3490 0.9659
4.4919 7.0365 -2.3488 0.9659
3.8473 7.4074 -2.3485 0.9659
3.1724 7.7196 -2.3482 0.9659
2.4724 7.9703 -2.3479 0.9659
1.7530 8.1577 -2.3476 0.9659
1.0198 8.2803 -2.3473 0.9659
-0.4643 8.3278 -2.3467 0.9659
-1.2036 8.2524 -2.3464 0.9659
-1.9331 8.1115 -2.3461 0.9659
-2.6471 7.9063 -2.3459 0.9659
-4.0061 7.3102 -2.3454 0.9660
-4.6404 6.9240 -2.3451 0.9660
-5.7935 5.9905 -2.3447 0.9660
-6.7630 4.8677 -2.3444 0.9660
-7.6345 4.5219 -2.4965 0.9638
-8.3147 3.0964 -2.4963 0.9638
-8.8371 0.7897 -2.4963 0.9638
-3.9676 -0.0000 -1.1878 0.9836
-3.5918 -0.3210 -1.0796 0.9851
-3.4798 -0.6269 -1.0586 0.9853
-3.4925 -0.9567 -1.0841 0.9850
-7.8160 -2.9107 -2.4969 0.9658
-7.1771 -4.2510 -2.4973 0.9658
-6.7708 -4.8733 -2.4975 0.9658
-3.3441 -7.6482 -2.4990 0.9657
0.2791 -8.3476 -2.5005 0.9657
1.0211 -8.2906 -2.5008 0.9657
3.8519 -7.4162 -2.5019 0.9657
5.6758 -6.1366 -2.5025 0.9657
6.1999 -5.6074 -2.5027 0.9657
6.6748 -5.0337 -2.5028 0.9657
8.1938 -1.6654 -2.5032 0.9657
8.3095 -0.9295 -2.5032 0.9657
8.2592 1.2987 -2.5030 0.9657
12.1661 3.0429 -3.7545 0.9490
7.1568 3.2247 -2.3501 0.9678
5.5796 5.5178 -2.3493 0.9678
5.0659 5.9919 -2.3491 0.9678
3.9224 6.7937 -2.3485 0.9678
3.3017 7.1151 -2.3483 0.9678
2.6550 7.3798 -2.3480 0.9678
1.3042 7.7318 -2.3474 0.9678
0.6108 7.8162 -2.3472 0.9678
-1.4754 7.6972 -2.3463 0.9678
-2.8162 7.3121 -2.3458 0.9678
-3.4555 7.0317 -2.3456 0.9678
-4.0672 6.6956 -2.3454 0.9678
-4.6466 6.3065 -2.3452 0.9678
-5.1891 5.8674 -2.3450 0.9678
-6.9791 4.5655 -2.4968 0.9658
-3.6646 -0.1634 -1.0982 0.9848
-3.5144 -0.4726 -1.0616 0.9853
-7.9377 -2.5596 -2.4969 0.9658
-7.6788 -3.2561 -2.4970 0.9658
-7.3590 -3.9269 -2.4972 0.9658
-6.9808 -4.5666 -2.4974 0.9658
-6.5472 -5.1703 -2.4976 0.9658
-6.0616 -5.7330 -2.4978 0.9658
-5.5278 -6.2504 -2.4981 0.9658
-4.3329 -7.1330 -2.4986 0.9658
-3.0003 -7.7900 -2.4992 0.9657
-2.2953 -8.0271 -2.4995 0.9657
-0.0930 -8.3513 -2.5004 0.9657
2.8286 -7.8622 -2.5015 0.9657
3.5175 -7.5800 -2.5018 0.9657
4.1786 -7.2376 -2.5020 0.9657
6.8926 -4.7314 -2.5029 0.9657
7.8985 -2.7426 -2.5032 0.9657
8.1114 -2.0288 -2.5032 0.9657
8.3090 0.9295 -2.5031 0.9657
7.0058 3.5402 -2.3500 0.9678
4.7937 6.2113 -2.3489 0.9678
4.2213 6.6126 -2.3487 0.9678
2.9813 7.2546 -2.3481 0.9678
2.3235 7.4904 -2.3479 0.9678
1.6474 7.6665 -2.3476 0.9678
0.9584 7.7818 -2.3473 0.9678
-0.4364 7.8265 -2.3467 0.9678
-1.8167 7.6235 -2.3462 0.9678
-2.4878 7.4307 -2.3460 0.9678
-3.7651 6.8705 -2.3455 0.9678
-4.3613 6.5075 -2.3453 0.9678
-5.9242 5.1229 -2.3448 0.9678
-7.5249 3.5944 -2.4966 0.9658
-7.8148 2.9103 -2.4966 0.9658
-8.0426 2.2031 -2.4965 0.9658
-8.2067 1.4785 -2.4965 0.9658
-8.3058 0.7422 -2.4965 0.9658
-3.7562 -0.0000 -1.1929 0.9844
-3.3867 -0.3027 -1.0798 0.9858
-3.2843 -0.5917 -1.0598 0.9861
-7.0954 -3.3892 -2.4973 0.9675
-6.7660 -4.0075 -2.4974 0.9675
-6.3830 -4.5942 -2.4976 0.9675
-5.9493 -5.1445 -2.4978 0.9675
-5.4682 -5.6541 -2.4981 0.9675
-4.9438 -6.1190 -2.4983 0.9675
-4.3800 -6.5353 -2.4985 0.9675
-3.7813 -6.9000 -2.4988 0.9675
-3.1525 -7.2099 -2.4991 0.9675
0.9626 -7.8152 -2.5008 0.9675
1.6545 -7.6994 -2.5010 0.9675
2.3335 -7.5223 -2.5013 0.9675
2.9940 -7.2855 -2.5015 0.9675
3.6309 -6.9908 -2.5018 0.9675
4.8137 -6.2373 -2.5022 0.9675
6.2917 -4.7448 -2.5027 0.9675
6.6894 -4.1662 -2.5028 0.9675
7.0339 -3.5544 -2.5029 0.9675
7.7235 -1.5698 -2.5030 0.9675
7.8326 -0.8762 -2.5030 0.9675
7.8794 -0.1756 -2.5030 0.9675
7.8636 0.5264 -2.5029 0.9675
7.7853 1.2242 -2.5029 0.9675
11.4678 2.8683 -3.7542 0.9516
11.1665 3.8774 -3.7540 0.9516
6.4484 3.6279 -2.3498 0.9694
6.0995 4.1871 -2.3496 0.9694
5.2595 5.2013 -2.3492 0.9694
3.1124 6.7071 -2.3482 0.9694
2.5028 6.9567 -2.3480 0.9694
0.5758 7.3683 -2.3472 0.9695
-0.7396 7.3520 -2.3467 0.9695
-1.3909 7.2562 -2.3464 0.9695
-2.0310 7.1029 -2.3462 0.9695
-2.6549 6.8932 -2.3459 0.9695
-3.8343 6.3121 -2.3455 0.9695
-4.8919 5.5314 -2.3451 0.9695
-5.3645 5.0738 -2.3450 0.9695
-6.9362 3.7013 -2.4968 0.9675
-7.2379 3.0692 -2.4968 0.9675
-7.4822 2.4127 -2.4967 0.9675
-7.6672 1.7372 -2.4967 0.9675
-4.3817 0.1954 -1.3930 0.9818
-3.2591 -0.7384 -1.0613 0.9861
-3.2827 -1.0586 -1.0954 0.9856
-7.2391 -3.0696 -2.4972 0.9675
-6.9376 -3.7020 -2.4973 0.9675
-6.5811 -4.3051 -2.4975 0.9675
-5.2112 -5.8923 -2.4982 0.9675
-2.8283 -7.3436 -2.4992 0.9675
-0.7880 -7.8326 -2.5001 0.9675
0.6134 -7.8499 -2.5006 0.9675
1.3098 -7.7650 -2.5009 0.9675
1.9959 -7.6184 -2.5012 0.9675
2.6664 -7.4112 -2.5014 0.9675
4.5309 -6.4452 -2.5021 0.9675
6.0740 -5.0202 -2.5026 0.9675
6.8685 -3.8641 -2.5028 0.9675
7.4452 -2.5852 -2.5030 0.9675
7.8638 -0.5264 -2.5030 0.9675
7.8322 0.8762 -2.5029 0.9675
6.6039 3.3371 -2.3498 0.9694
6.2802 3.9113 -2.3497 0.9694
5.9067 4.4544 -2.3495 0.9694
5.4863 4.9621 -2.3493 0.9694
5.0224 5.4302 -2.3491 0.9694
4.5187 5.8551 -2.3488 0.9694
3.9792 6.2334 -2.3486 0.9694
3.4083 6.5621 -2.3484 0.9694
2.8104 6.8387 -2.3481 0.9694
2.1903 7.0609 -2.3478 0.9694
1.5530 7.2270 -2.3476 0.9695
0.9035 7.3357 -2.3473 0.9695
0.2470 7.3862 -2.3470 0.9695
-1.0663 7.3113 -2.3465 0.9695
-1.7127 7.1867 -2.3463 0.9695
-2.9592 6.7678 -2.3458 0.9695
-3.5495 6.4770 -2.3456 0.9695
-4.1115 6.1348 -2.3454 0.9695
-4.6408 5.7441 -2.3452 0.9695
-7.3674 2.7437 -2.4967 0.9675
-7.5822 2.0770 -2.4967 0.9675
-7.7369 1.3939 -2.4967 0.9675
-7.8303 0.6997 -2.4967 0.9675
-3.6184 0.0000 -1.2157 0.9848
-3.2019 -0.2861 -1.0801 0.9865
-3.1483 -0.5672 -1.0748 0.9866
-6.9654 -2.5939 -2.4973 0.9691
-6.7073 -3.2038 -2.4974 0.9691
-6.0338 -4.3429 -2.4977 0.9691
-4.1402 -6.1777 -2.4986 0.9691
-3.5743 -6.5223 -2.4989 0.9691
-2.9799 -6.8152 -2.4991 0.9691
-1.7247 -7.2372 -2.4997 0.9691
-1.0738 -7.3627 -2.4999 0.9691
-0.4143 -7.4299 -2.5002 0.9691
0.9098 -7.3871 -2.5007 0.9691
1.5639 -7.2775 -2.5010 0.9691
2.2056 -7.1102 -2.5012 0.9691
2.8300 -6.8863 -2.5014 0.9691
3.4320 -6.6076 -2.5017 0.9691
4.0068 -6.2765 -2.5019 0.9691
5.5238 -4.9959 -2.5024 0.9691
6.9211 -2.7545 -2.5028 0.9691
7.3001 -1.4837 -2.5028 0.9691
7.4325 0.4976 -2.5028 0.9691
7.3585 1.1571 -2.5027 0.9691
7.2260 1.8073 -2.5026 0.9691
10.5544 3.6648 -3.7538 0.9539
6.0950 3.4290 -2.3496 0.9709
4.5136 5.3388 -2.3489 0.9709
3.4949 6.0533 -2.3484 0.9709
2.9419 6.3397 -2.3482 0.9709
2.3657 6.5757 -2.3479 0.9709
1.7709 6.7594 -2.3477 0.9709
1.1621 6.8895 -2.3474 0.9709
0.5442 6.9649 -2.3472 0.9710
-0.6991 6.9496 -2.3467 0.9710
-1.3148 6.8590 -2.3465 0.9710
-1.9198 6.7142 -2.3462 0.9710
-4.1409 5.6201 -2.3454 0.9710
-4.6243 5.2288 -2.3453 0.9710
-5.0710 4.7962 -2.3451 0.9710
-6.8420 2.9013 -2.4969 0.9691
-7.0730 2.2808 -2.4969 0.9691
-7.2478 1.6421 -2.4969 0.9691
-7.3652 0.9905 -2.4969 0.9691
-3.2675 -0.1457 -1.0989 0.9863
-3.1639 -0.4255 -1.0726 0.9866
-3.1418 -1.0131 -1.1091 0.9862
-6.8431 -2.9017 -2.4973 0.9691
-6.2210 -4.0696 -2.4977 0.9691
-4.4111 -5.9868 -2.4985 0.9691
-3.8611 -6.3563 -2.4987 0.9691
-3.2804 -6.6754 -2.4990 0.9691
-2.6735 -6.9416 -2.4993 0.9691
-1.4007 -7.3072 -2.4998 0.9691
-0.7448 -7.4036 -2.5001 0.9691
-0.0829 -7.4413 -2.5003 0.9691
0.5798 -7.4199 -2.5006 0.9691
1.2381 -7.3396 -2.5008 0.9691
3.1341 -6.7537 -2.5015 0.9691
3.7231 -6.4485 -2.5018 0.9691
5.2956 -5.2369 -2.5023 0.9691
6.1409 -4.2154 -2.5026 0.9691
6.4920 -3.6523 -2.5027 0.9691
7.0371 -2.4435 -2.5028 0.9691
7.2267 -1.8075 -2.5028 0.9691
7.3589 -1.1571 -2.5028 0.9691
7.4327 -0.4976 -2.5028 0.9691
10.7074 3.1911 -3.7539 0.9539
6.4982 2.5863 -2.3499 0.9709
6.2419 3.1542 -2.3497 0.9709
5.9360 3.6970 -2.3496 0.9709
5.5830 4.2103 -2.3494 0.9709
3.7613 5.8919 -2.3485 0.9709
3.2216 6.2027 -2.3483 0.9709
2.6565 6.4641 -2.3481 0.9709
1.4680 6.8313 -2.3476 0.9709
0.8540 6.9341 -2.3473 0.9709
0.2334 6.9818 -2.3471 0.9710
-0.3889 6.9742 -2.3468 0.9710
-1.0080 6.9112 -2.3466 0.9710
-1.6189 6.7933 -2.3463 0.9710
-4.8525 5.0175 -2.3452 0.9710
-6.0324 4.3418 -2.4972 0.9691
-6.3946 3.7875 -2.4971 0.9691
-6.9644 2.5936 -2.4969 0.9691
-7.1675 1.9634 -2.4969 0.9691
-7.4021 0.6614 -2.4969 0.9691
-3.4902 -0.0000 -1.2376 0.9853
-3.0442 -0.5484 -1.0968 0.9870
-3.0229 -0.8281 -1.1114 0.9868
-3.0314 -1.1289 -1.1470 0.9864
-6.3557 -3.0358 -2.4975 0.9705
-6.0606 -3.5897 -2.4977 0.9705
-5.7175 -4.1152 -2.4979 0.9705
-3.9231 -5.8537 -2.4987 0.9705
-3.3869 -6.1802 -2.4989 0.9705
-2.2379 -6.6841 -2.4994 0.9705
-1.6342 -6.8574 -2.4997 0.9705
-1.0175 -6.9764 -2.4999 0.9705
-0.3925 -7.0400 -2.5002 0.9705
0.8621 -6.9994 -2.5007 0.9705
2.0898 -6.7369 -2.5011 0.9705
2.6814 -6.5248 -2.5014 0.9705
3.2518 -6.2607 -2.5016 0.9705
4.3110 -5.5859 -2.5019 0.9705
5.2337 -4.7336 -2.5022 0.9705
5.9906 -3.7309 -2.5025 0.9705
6.2991 -3.1831 -2.5026 0.9705
6.7640 -2.0159 -2.5027 0.9705
7.0143 -0.7846 -2.5027 0.9705
7.0562 -0.1572 -2.5027 0.9705
6.8465 1.7124 -2.5024 0.9705
6.0415 2.7222 -2.3497 0.9723
5.7749 3.2489 -2.3495 0.9723
5.4625 3.7498 -2.3494 0.9723
5.1067 4.2208 -2.3492 0.9723
4.7104 4.6582 -2.3490 0.9723
4.2767 5.0585 -2.3488 0.9723
3.8091 5.4186 -2.3486 0.9723
3.3114 5.7356 -2.3484 0.9723
0.5157 6.5995 -2.3472 0.9723
-0.6625 6.5850 -2.3467 0.9723
-1.8192 6.3620 -2.3463 0.9723
-3.4345 5.6539 -2.3457 0.9723
-3.9238 5.3254 -2.3455 0.9723
-4.3819 4.9547 -2.3454 0.9723
-6.4835 2.7492 -2.4971 0.9706
-3.1623 -0.1410 -1.1224 0.9867
-3.0595 -0.4115 -1.0946 0.9870
-5.8949 -3.8562 -2.4978 0.9705
-5.5287 -4.3659 -2.4979 0.9705
-4.6677 -5.2779 -2.4984 0.9705
-3.6586 -6.0229 -2.4988 0.9705
-3.1083 -6.3253 -2.4990 0.9705
-1.9380 -6.7775 -2.4995 0.9705
-1.3272 -6.9238 -2.4998 0.9705
-0.7057 -7.0152 -2.5000 0.9705
0.5494 -7.0305 -2.5005 0.9705
2.3880 -6.6375 -2.5012 0.9705
2.9695 -6.3991 -2.5015 0.9705
3.5276 -6.1099 -2.5017 0.9705
5.0175 -4.9619 -2.5022 0.9705
5.8183 -3.9940 -2.5024 0.9705
6.6674 -2.3152 -2.5026 0.9705
6.9724 -1.0963 -2.5027 0.9705
7.0423 -0.4714 -2.5027 0.9705
10.1451 3.0236 -3.7537 0.9561
9.8352 3.9143 -3.7535 0.9561
5.6243 3.5028 -2.3494 0.9723
5.2898 3.9892 -2.3493 0.9723
4.4980 4.8632 -2.3489 0.9723
4.0469 5.2438 -2.3487 0.9723
2.5171 6.1249 -2.3480 0.9723
1.9617 6.3240 -2.3478 0.9723
1.3909 6.4728 -2.3476 0.9723
0.8092 6.5703 -2.3473 0.9723
0.2212 6.6155 -2.3471 0.9723
-0.3685 6.6084 -2.3469 0.9723
-2.1007 6.2744 -2.3462 0.9723
-3.6828 5.4951 -2.3456 0.9723
-5.1919 4.4896 -2.4338 0.9713
-5.7162 4.1143 -2.4973 0.9706
-6.5994 2.4577 -2.4971 0.9706
-6.7919 1.8605 -2.4970 0.9706
-2.9169 -0.7990 -1.1293 0.9872
-5.7553 -3.4089 -2.4978 0.9718
-4.6512 -4.8093 -2.4983 0.9718
-4.2050 -5.2047 -2.4985 0.9718
-3.7254 -5.5587 -2.4987 0.9718
-3.2162 -5.8688 -2.4990 0.9718
-2.1251 -6.3472 -2.4994 0.9718
-0.3728 -6.6850 -2.5001 0.9718
1.4070 -6.5478 -2.5008 0.9718
2.5462 -6.1956 -2.5013 0.9718
3.0877 -5.9449 -2.5015 0.9718
4.9696 -4.4947 -2.5021 0.9718
5.3502 -4.0348 -2.5022 0.9718
5.6883 -3.5427 -2.5023 0.9718
5.9812 -3.0224 -2.5024 0.9718
6.5676 -1.3349 -2.5025 0.9718
6.6603 -0.7450 -2.5025 0.9718
6.6867 0.4476 -2.5025 0.9718
6.6201 1.0410 -2.5024 0.9718
9.1638 4.1290 -3.7532 0.9580
5.4835 3.0850 -2.3494 0.9735
4.8490 4.0078 -2.3491 0.9735
3.1444 5.4463 -2.3483 0.9735
1.5934 6.0819 -2.3477 0.9735
1.0456 6.1989 -2.3474 0.9735
0.4897 6.2668 -2.3472 0.9735
-0.0700 6.2849 -2.3470 0.9735
-0.6291 6.2532 -2.3468 0.9735
-1.1830 6.1717 -2.3466 0.9735
-2.2582 5.8632 -2.3462 0.9735
-3.2615 5.3691 -2.3458 0.9735
-4.6538 4.4016 -2.3919 0.9730
-5.2490 4.1451 -2.4975 0.9718
-5.5968 3.6613 -2.4974 0.9718
-6.5221 1.4777 -2.4972 0.9718
-6.6278 0.8913 -2.4972 0.9719
-3.7910 0.1690 -1.4170 0.9839
-3.0832 -0.1375 -1.1525 0.9869
-2.9640 -0.3986 -1.1167 0.9873
-2.9258 -0.6629 -1.1202 0.9873
-5.9013 -3.1490 -2.4977 0.9718
-5.5979 -3.6620 -2.4979 0.9718
-4.4325 -5.0120 -2.4984 0.9718
-2.9517 -6.0065 -2.4991 0.9718
-2.4056 -6.2460 -2.4993 0.9718
-0.6701 -6.6615 -2.5000 0.9718
1.1139 -6.6037 -2.5007 0.9718
2.8197 -6.0763 -2.5014 0.9718
3.3496 -5.8017 -2.5016 0.9718
3.8530 -5.4809 -2.5017 0.9718
4.7643 -4.7115 -2.5021 0.9718
5.1650 -4.2690 -2.5022 0.9718
5.5247 -3.7925 -2.5023 0.9718
5.8406 -3.2858 -2.5024 0.9718
6.3309 -2.1983 -2.5025 0.9718
6.5016 -1.6261 -2.5025 0.9718
6.6600 0.7451 -2.5024 0.9718
6.4220 1.9139 -2.5023 0.9718
5.6157 2.8378 -2.3495 0.9735
5.0229 3.7880 -2.3492 0.9735
4.6655 4.2197 -2.3490 0.9735
4.2711 4.6179 -2.3488 0.9735
3.3841 5.3011 -2.3484 0.9735
2.8986 5.5808 -2.3482 0.9735
2.3901 5.8160 -2.3480 0.9735
1.3208 6.1465 -2.3476 0.9735
0.2100 6.2821 -2.3471 0.9735
-0.3499 6.2753 -2.3469 0.9735
-1.4567 6.1127 -2.3465 0.9735
-2.5170 5.7566 -2.3461 0.9735
-3.0192 5.5093 -2.3459 0.9735
-3.9476 4.8860 -2.3456 0.9735
-4.3748 4.5235 -2.3498 0.9735
-5.4283 3.9071 -2.4974 0.9718
-6.0346 2.8825 -2.4973 0.9718
-6.2671 2.3339 -2.4972 0.9718
-6.5815 1.1857 -2.4972 0.9719
-4.2613 0.3808 -1.5976 0.9819
-3.2641 -0.0000 -1.2810 0.9861
-2.9005 -0.2592 -1.1429 0.9876
-2.8313 -0.7756 -1.1521 0.9875
-5.7427 -2.7430 -2.4978 0.9730
-4.8148 -4.1635 -2.4982 0.9730
-4.4255 -4.5759 -2.4984 0.9730
-4.0009 -4.9520 -2.4986 0.9730
-3.5446 -5.2888 -2.4988 0.9730
-3.0600 -5.5838 -2.4990 0.9730
-2.5511 -5.8346 -2.4992 0.9730
-2.0219 -6.0390 -2.4995 0.9730
-1.4765 -6.1955 -2.4997 0.9730
-0.3546 -6.3603 -2.5001 0.9730
0.7788 -6.3236 -2.5006 0.9730
1.8880 -6.0863 -2.5010 0.9730
2.9377 -5.6560 -2.5014 0.9730
4.7281 -4.2762 -2.5020 0.9730
5.4118 -3.3704 -2.5022 0.9730
6.3744 -0.1420 -2.5024 0.9730
6.3616 0.4259 -2.5023 0.9730
6.2983 0.9904 -2.5023 0.9730
6.1850 1.5470 -2.5022 0.9730
8.7185 3.9283 -3.7530 0.9597
5.2170 2.9350 -2.3493 0.9746
4.9348 3.3876 -2.3492 0.9746
2.9917 5.1817 -2.3483 0.9746
2.5184 5.4270 -2.3481 0.9746
2.0252 5.6291 -2.3479 0.9746
0.4659 5.9625 -2.3472 0.9746
-0.0666 5.9798 -2.3470 0.9746
-0.5985 5.9496 -2.3468 0.9746
-1.6436 5.7482 -2.3464 0.9746
-2.6364 5.3648 -2.3460 0.9746
-3.5453 4.8118 -2.3457 0.9746
-4.9943 3.9440 -2.4976 0.9730
-5.3253 3.4837 -2.4975 0.9730
-5.8582 2.4842 -2.4974 0.9730
-6.3062 0.8481 -2.4973 0.9730
-3.6456 0.1625 -1.4322 0.9844
-3.0071 -0.1341 -1.1814 0.9871
-2.8734 -0.3865 -1.1379 0.9876
-2.8326 -0.6418 -1.1399 0.9876
-5.3263 -3.4843 -2.4980 0.9730
-3.7765 -5.1255 -2.4987 0.9730
-2.8084 -5.7149 -2.4991 0.9730
-2.2888 -5.9427 -2.4993 0.9730
-1.7509 -6.1234 -2.4996 0.9730
-1.1991 -6.2555 -2.4998 0.9730
1.6149 -6.1641 -2.5009 0.9730
2.1574 -5.9964 -2.5011 0.9730
2.6827 -5.7811 -2.5013 0.9730
3.6657 -5.2146 -2.5017 0.9730
4.1156 -4.8679 -2.5018 0.9730
4.5327 -4.4825 -2.5019 0.9730
6.0232 -2.0914 -2.5024 0.9730
6.1855 -1.5471 -2.5024 0.9730
6.2987 -0.9904 -2.5024 0.9730
6.3744 0.1421 -2.5024 0.9730
8.8850 3.5362 -3.7531 0.9597
8.5346 4.3127 -3.7529 0.9597
5.0810 3.1645 -2.3493 0.9746
4.0636 4.3935 -2.3488 0.9746
2.7578 5.3096 -2.3482 0.9746
0.1998 5.9770 -2.3471 0.9746
-0.3329 5.9706 -2.3469 0.9746
-1.3860 5.8159 -2.3465 0.9746
-1.8980 5.6691 -2.3463 0.9746
-2.3948 5.4772 -2.3461 0.9746
-3.3275 4.9651 -2.3458 0.9746
-3.7560 4.6489 -2.3456 0.9746
-4.8137 4.1626 -2.4977 0.9730
-6.1369 1.6811 -2.4973 0.9730
-2.8130 -0.2514 -1.1629 0.9879
-2.7831 -0.5014 -1.1645 0.9878
-5.4736 -2.6145 -2.4979 0.9741
-5.2194 -3.0915 -2.4980 0.9741
-4.5892 -3.9684 -2.4983 0.9741
-4.2181 -4.3614 -2.4985 0.9741
-3.8134 -4.7199 -2.4987 0.9741
-2.9166 -5.3221 -2.4990 0.9741
-2.4315 -5.5610 -2.4993 0.9741
-1.4072 -5.9051 -2.4997 0.9741
-0.8761 -6.0074 -2.4999 0.9741
0.2029 -6.0686 -2.5003 0.9741
0.7423 -6.0270 -2.5005 0.9741
1.7994 -5.8008 -2.5010 0.9741
2.3088 -5.6180 -2.5011 0.9741
2.7998 -5.3906 -2.5013 0.9741
3.2688 -5.1204 -2.5015 0.9741
4.1253 -4.4602 -2.5018 0.9741
5.4234 -2.7405 -2.5022 0.9741
5.6459 -2.2470 -2.5022 0.9741
5.9550 -1.2104 -2.5023 0.9741
6.0391 -0.6755 -2.5023 0.9741
6.0630 0.4059 -2.5022 0.9741
6.0027 0.9439 -2.5022 0.9741
5.7398 1.9931 -2.5020 0.9741
8.3093 3.7440 -3.7529 0.9613
4.7032 3.2286 -2.3491 0.9756
3.6824 4.3556 -2.3486 0.9756
2.8513 4.9386 -2.3482 0.9756
2.4003 5.1724 -2.3481 0.9756
1.4449 5.5151 -2.3477 0.9756
-0.5705 5.6706 -2.3468 0.9756
-3.3792 4.5862 -2.3458 0.9757
-3.7738 4.2671 -2.3457 0.9757
-4.4070 4.1681 -2.4978 0.9741
-5.0758 3.3204 -2.4976 0.9741
-5.3510 2.8554 -2.4975 0.9741
-5.5838 2.3678 -2.4975 0.9741
-5.7723 1.8613 -2.4974 0.9741
-5.9150 1.3402 -2.4974 0.9741
-3.5093 0.1565 -1.4465 0.9849
-2.9337 -0.1308 -1.2092 0.9874
-2.7946 -0.3759 -1.1611 0.9879
-4.7613 -3.7599 -2.4982 0.9741
-4.0197 -4.5452 -2.4986 0.9741
-2.6767 -5.4470 -2.4992 0.9741
-1.1428 -5.9621 -2.4998 0.9741
-0.0676 -6.0713 -2.5002 0.9741
0.4731 -6.0538 -2.5004 0.9741
1.0101 -5.9882 -2.5007 0.9741
2.0561 -5.7151 -2.5010 0.9741
3.9224 -4.6394 -2.5017 0.9741
4.6833 -3.8709 -2.5020 0.9741
5.2958 -2.9794 -2.5021 0.9741
5.7404 -1.9933 -2.5023 0.9741
6.0030 -0.9439 -2.5023 0.9741
6.0632 -0.4058 -2.5023 0.9741
5.8230 1.7354 -2.5020 0.9741
8.4680 3.3702 -3.7530 0.9613
8.1341 4.1103 -3.7528 0.9613
4.8425 3.0160 -2.3492 0.9756
3.8729 4.1873 -2.3487 0.9756
2.1674 5.2739 -2.3480 0.9756
0.6968 5.6577 -2.3473 0.9756
0.1905 5.6968 -2.3471 0.9756
-0.3173 5.6907 -2.3469 0.9756
-1.3210 5.5433 -2.3466 0.9757
-1.8090 5.4033 -2.3464 0.9757
-3.1716 4.7324 -2.3459 0.9757
-4.5882 3.9676 -2.4978 0.9741
-4.9229 3.5433 -2.4977 0.9741
-5.4728 2.6142 -2.4975 0.9741
-5.6837 2.1166 -2.4975 0.9741
-5.9688 1.0754 -2.4974 0.9741
-3.9772 0.3554 -1.6443 0.9829
-2.7092 -0.7421 -1.2117 0.9878
-2.7209 -1.0133 -1.2524 0.9874
-2.7300 -1.3040 -1.3050 0.9869
-4.3810 -3.7884 -2.4984 0.9751
-3.2252 -4.8122 -2.4989 0.9751
-2.3212 -5.3087 -2.4993 0.9751
-1.8396 -5.4946 -2.4995 0.9751
-1.3434 -5.6371 -2.4997 0.9751
-0.8364 -5.7347 -2.4999 0.9751
-0.3227 -5.7869 -2.5001 0.9751
0.1937 -5.7931 -2.5003 0.9751
1.7177 -5.5374 -2.5009 0.9751
2.2039 -5.3629 -2.5011 0.9751
2.6727 -5.1458 -2.5013 0.9751
3.5432 -4.5910 -2.5016 0.9751
3.9380 -4.2576 -2.5017 0.9751
4.3015 -3.8904 -2.5018 0.9751
4.6309 -3.4923 -2.5019 0.9750
5.1770 -2.6161 -2.5021 0.9750
5.3894 -2.1449 -2.5021 0.9750
5.5590 -1.6567 -2.5022 0.9750
5.6845 -1.1554 -2.5022 0.9750
5.7992 -0.1292 -2.5022 0.9750
5.6269 1.4074 -2.5020 0.9750
7.5820 4.2655 -3.7526 0.9628
4.4896 3.0820 -2.3490 0.9766
4.1972 3.4691 -2.3489 0.9766
3.1309 4.4538 -2.3484 0.9766
0.9052 5.3662 -2.3474 0.9766
0.4239 5.4250 -2.3473 0.9766
-1.0242 5.3430 -2.3467 0.9766
-1.4955 5.2302 -2.3465 0.9766
-1.9550 5.0760 -2.3463 0.9766
-2.8236 4.6483 -2.3460 0.9766
-3.2259 4.3783 -2.3459 0.9766
-3.7415 4.2307 -2.4362 0.9757
-4.5444 3.5887 -2.4978 0.9751
-5.5105 1.7770 -2.4975 0.9751
-5.6468 1.2794 -2.4975 0.9751
-2.8614 -0.1276 -1.2355 0.9876
-2.7402 -0.3685 -1.1926 0.9880
-2.7200 -0.6163 -1.2030 0.9879
-5.1091 -2.7263 -2.4980 0.9751
-4.8464 -3.1704 -2.4981 0.9751
-4.2081 -3.9800 -2.4984 0.9751
-2.0825 -5.4071 -2.4994 0.9751
-1.5931 -5.5714 -2.4996 0.9751
-0.5801 -5.7665 -2.5000 0.9751
0.9642 -5.7163 -2.5006 0.9751
1.4693 -5.6082 -2.5008 0.9751
1.9628 -5.4556 -2.5010 0.9751
2.4407 -5.2596 -2.5012 0.9751
3.7443 -4.4287 -2.5016 0.9751
4.1238 -4.0781 -2.5018 0.9751
4.7819 -3.2826 -2.5020 0.9750
5.2885 -2.3829 -2.5021 0.9750
5.6274 -1.4075 -2.5022 0.9750
5.6841 1.1554 -2.5020 0.9750
5.5585 1.6566 -2.5019 0.9750
7.7646 3.9236 -3.7527 0.9628
4.3477 3.2788 -2.3490 0.9766
4.0384 3.6525 -2.3488 0.9766
3.6970 3.9972 -2.3486 0.9766
3.3263 4.3101 -2.3485 0.9766
2.9293 4.5887 -2.3483 0.9766
2.5091 4.8308 -2.3481 0.9766
2.0690 5.0346 -2.3479 0.9766
1.6125 5.1983 -2.3477 0.9766
0.1818 5.4383 -2.3472 0.9766
-0.3029 5.4324 -2.3470 0.9766
-1.2611 5.2918 -2.3466 0.9766
-1.7270 5.1582 -2.3464 0.9766
-2.1791 4.9837 -2.3462 0.9766
-3.0278 4.5178 -2.3459 0.9766
-3.4175 4.2301 -2.3458 0.9766
-4.0258 4.1627 -2.4980 0.9751
-4.3801 3.7877 -2.4979 0.9751
-5.2247 2.4956 -2.4976 0.9751
-5.4260 2.0207 -2.4976 0.9751
-5.6982 1.0266 -2.4975 0.9751
-2.9980 -0.0000 -1.3528 0.9869
-2.7005 -0.2413 -1.2234 0.9882
-4.4938 -3.2344 -2.4983 0.9760
-3.8496 -3.9804 -2.4986 0.9760
-3.4803 -4.3076 -2.4988 0.9760
-2.6618 -4.8571 -2.4991 0.9760
-1.2843 -5.3890 -2.4997 0.9760
-0.7996 -5.4823 -2.4999 0.9760
1.6421 -5.2936 -2.5009 0.9760
2.9829 -4.6726 -2.5013 0.9760
3.7645 -4.0701 -2.5016 0.9760
4.1120 -3.7191 -2.5017 0.9760
4.4269 -3.3385 -2.5018 0.9760
5.3142 -1.5838 -2.5021 0.9760
5.5327 0.3704 -2.5020 0.9760
5.3791 1.3454 -2.5019 0.9760
5.2378 1.8187 -2.5018 0.9760
7.2480 4.0777 -3.7524 0.9642
2.1904 4.7203 -2.3480 0.9774
0.8653 5.1300 -2.3474 0.9774
0.4053 5.1863 -2.3473 0.9774
-0.0579 5.2013 -2.3471 0.9774
-0.5206 5.1752 -2.3469 0.9774
-0.9791 5.1079 -2.3467 0.9774
-2.6994 4.4438 -2.3461 0.9774
-3.0840 4.1857 -2.3459 0.9774
-4.0221 3.8041 -2.4980 0.9760
-4.8837 2.6061 -2.4977 0.9760
-5.2682 1.6988 -2.4976 0.9760
-2.7833 -0.1241 -1.2571 0.9878
-2.6870 -0.3614 -1.2234 0.9882
-2.6659 -0.6040 -1.2334 0.9881
-2.6675 -1.1311 -1.3074 0.9874
-4.8844 -2.6064 -2.4981 0.9760
-4.6333 -3.0310 -2.4982 0.9760
-4.3454 -3.4315 -2.4984 0.9760
-3.6686 -4.1481 -2.4987 0.9760
-2.8754 -4.7335 -2.4990 0.9760
-2.4428 -4.9710 -2.4992 0.9760
-1.9908 -5.1691 -2.4994 0.9760
-1.5230 -5.3262 -2.4996 0.9760
-0.5546 -5.5127 -2.5000 0.9760
-0.0617 -5.5406 -2.5002 0.9760
0.9218 -5.4646 -2.5006 0.9760
1.8764 -5.2154 -2.5009 0.9760
3.1882 -4.5352 -2.5014 0.9760
3.9422 -3.8985 -2.5017 0.9760
4.8326 -2.7188 -2.5019 0.9760
5.3795 -1.3455 -2.5021 0.9760
5.4779 -0.8613 -2.5021 0.9760
5.5437 0.1236 -2.5020 0.9760
5.4337 1.1045 -2.5019 0.9760
5.3137 1.5837 -2.5018 0.9760
5.1515 2.0503 -2.5018 0.9760
7.4226 3.7508 -3.7525 0.9642
7.0590 4.3964 -3.7524 0.9642
4.1563 3.1344 -2.3489 0.9774
3.5342 3.8212 -2.3486 0.9774
3.1799 4.1203 -2.3484 0.9774
1.5416 4.9695 -2.3477 0.9774
1.0930 5.0866 -2.3475 0.9774
0.1738 5.1989 -2.3472 0.9774
-0.2896 5.1934 -2.3470 0.9774
-0.7506 5.1466 -2.3468 0.9774
-2.0832 4.7644 -2.3463 0.9774
-3.8488 3.9796 -2.4981 0.9760
-4.1875 3.6211 -2.4979 0.9760
-4.4930 3.2339 -2.4978 0.9760
-4.7629 2.8211 -2.4978 0.9760
-4.9949 2.3859 -2.4977 0.9760
-5.3386 1.4624 -2.4976 0.9760
-5.4476 0.9814 -2.4976 0.9760
-3.7666 0.3366 -1.7063 0.9835
-2.6448 -0.2363 -1.2517 0.9883
-2.6212 -0.4722 -1.2555 0.9883
-2.6023 -0.9691 -1.3090 0.9878
-2.6052 -1.2444 -1.3609 0.9873
-2.6596 -1.5753 -1.4571 0.9864
-3.6850 -3.8103 -2.4986 0.9768
-3.3315 -4.1234 -2.4988 0.9768
-2.9514 -4.4039 -2.4990 0.9768
-1.6835 -5.0282 -2.4995 0.9768
0.6484 -5.2648 -2.5005 0.9768
2.4457 -4.7087 -2.5011 0.9768
3.2422 -4.2010 -2.5014 0.9768
3.9360 -3.5599 -2.5016 0.9768
4.2374 -3.1956 -2.5017 0.9768
4.5052 -2.8058 -2.5018 0.9768
4.7372 -2.3938 -2.5019 0.9768
4.9315 -1.9627 -2.5019 0.9768
5.2749 -0.5901 -2.5020 0.9768
5.3065 -0.1182 -2.5020 0.9768
5.0136 1.7409 -2.5017 0.9768
6.9378 3.9032 -3.7523 0.9654
6.5626 4.5049 -3.7521 0.9654
3.8407 3.1744 -2.3488 0.9782
2.8650 4.0756 -2.3483 0.9782
2.4907 4.3141 -2.3481 0.9782
1.2622 4.8178 -2.3476 0.9782
0.8283 4.9106 -2.3474 0.9782
-0.0555 4.9789 -2.3471 0.9782
-0.4984 4.9539 -2.3469 0.9782
-0.9372 4.8895 -2.3467 0.9782
-1.3686 4.7863 -2.3466 0.9782
-1.7891 4.6452 -2.3464 0.9782
-3.0276 4.1091 -2.4059 0.9777
-4.1589 3.2843 -2.4980 0.9768
-4.6750 2.4947 -2.4978 0.9768
-5.0431 1.6262 -2.4977 0.9768
-5.1678 1.1709 -2.4977 0.9768
-5.2515 0.7063 -2.4977 0.9768
-2.7082 -0.1208 -1.2778 0.9881
-2.6131 -0.5921 -1.2630 0.9882
-2.5994 -0.8382 -1.2874 0.9880
-4.1596 -3.2848 -2.4984 0.9768
-3.1446 -4.2679 -2.4989 0.9768
-2.3384 -4.7585 -2.4992 0.9768
-0.9984 -5.2083 -2.4998 0.9768
0.8823 -5.2309 -2.5005 0.9768
1.7961 -4.9922 -2.5009 0.9768
2.2334 -4.8129 -2.5011 0.9768
2.6531 -4.5952 -2.5012 0.9768
3.0517 -4.3411 -2.5014 0.9768
3.4262 -4.0525 -2.5015 0.9768
3.7735 -3.7316 -2.5016 0.9768
4.3756 -3.0037 -2.5018 0.9768
4.6258 -2.6024 -2.5019 0.9768
4.8391 -2.1804 -2.5019 0.9768
5.0141 -1.7410 -2.5020 0.9768
5.1492 -1.2879 -2.5020 0.9768
5.2960 -0.3545 -2.5020 0.9768
5.2748 0.5901 -2.5019 0.9768
4.9310 1.9625 -2.5017 0.9768
7.1050 3.5903 -3.7524 0.9654
6.7569 4.2082 -3.7522 0.9654
6.3552 4.7926 -3.7520 0.9654
3.3830 3.6577 -2.3485 0.9782
3.0438 3.9440 -2.3484 0.9782
2.6805 4.1990 -2.3482 0.9782
2.2960 4.4206 -2.3481 0.9782
1.4756 4.7570 -2.3477 0.9782
0.1664 4.9767 -2.3472 0.9782
-0.2772 4.9713 -2.3470 0.9782
-1.1541 4.8427 -2.3467 0.9782
-2.7708 4.1344 -2.3461 0.9782
-3.6843 3.8095 -2.4981 0.9768
-4.0085 3.4663 -2.4980 0.9768
-4.5593 2.7005 -2.4979 0.9768
-4.9657 1.8493 -2.4978 0.9768
-5.1105 1.3999 -2.4977 0.9768
-5.2148 0.9395 -2.4977 0.9768
-3.7076 0.3313 -1.7547 0.9837
-2.8279 -0.0000 -1.3909 0.9875
-2.5903 -0.2315 -1.2791 0.9885
-2.5499 -0.6985 -1.3004 0.9883
-3.8425 -3.3227 -2.4985 0.9776
-3.5317 -3.6517 -2.4987 0.9776
-3.1928 -3.9518 -2.4988 0.9776
-2.8286 -4.2205 -2.4990 0.9776
-2.4419 -4.4559 -2.4992 0.9776
-2.0357 -4.6559 -2.4994 0.9776
-1.1781 -4.9437 -2.4997 0.9776
-0.7335 -5.0294 -2.4999 0.9776
0.1699 -5.0805 -2.5003 0.9776
1.0681 -4.9706 -2.5006 0.9776
2.3438 -4.5126 -2.5011 0.9776
3.1071 -4.0260 -2.5014 0.9776
4.8747 -1.4528 -2.5019 0.9776
5.0551 -0.5655 -2.5019 0.9776
5.0854 -0.1133 -2.5019 0.9776
4.6370 2.0894 -2.5015 0.9776
6.6488 3.7405 -3.7522 0.9666
3.3951 3.3575 -2.3486 0.9789
3.0826 3.6462 -2.3484 0.9789
2.3870 4.1344 -2.3481 0.9789
1.6159 4.4915 -2.3478 0.9789
1.2097 4.6172 -2.3476 0.9789
-0.0532 4.7717 -2.3471 0.9790
-0.4776 4.7476 -2.3469 0.9790
-0.8982 4.6860 -2.3468 0.9790
-1.3116 4.5872 -2.3466 0.9790
-3.9560 6.5124 -3.7478 0.9666
-3.3649 3.8048 -2.4983 0.9776
-3.9859 3.1477 -2.4981 0.9776
-4.4805 2.3909 -2.4979 0.9776
-4.6755 1.9826 -2.4979 0.9776
-4.8333 1.5585 -2.4978 0.9776
-4.9528 1.1222 -2.4978 0.9776
-3.0630 0.1366 -1.5081 0.9864
-2.6467 -0.1180 -1.3031 0.9883
-2.5845 -0.3476 -1.2826 0.9884
-2.5616 -0.5804 -1.2919 0.9884
-2.5441 -1.0788 -1.3592 0.9878
-2.5301 -1.3501 -1.4105 0.9873
-3.9866 -3.1482 -2.4985 0.9776
-3.3656 -3.8055 -2.4988 0.9776
-3.0137 -4.0903 -2.4989 0.9776
-2.6379 -4.3425 -2.4991 0.9776
-2.2411 -4.5604 -2.4993 0.9776
-1.8264 -4.7421 -2.4994 0.9776
-0.9568 -4.9915 -2.4998 0.9776
-0.5088 -5.0572 -2.5000 0.9776
0.3960 -5.0680 -2.5003 0.9776
2.1404 -4.6124 -2.5010 0.9776
2.9246 -4.1603 -2.5013 0.9776
3.2835 -3.8837 -2.5014 0.9776
3.6163 -3.5762 -2.5015 0.9776
3.9204 -3.2403 -2.5016 0.9776
4.8052 -1.6685 -2.5019 0.9776
5.0753 -0.3397 -2.5019 0.9776
5.0550 0.5655 -2.5018 0.9776
6.0904 4.5930 -3.7520 0.9666
3.5414 3.2031 -2.3486 0.9789
3.2421 3.5053 -2.3485 0.9789
2.9171 3.7798 -2.3484 0.9789
2.2004 4.2365 -2.3480 0.9789
1.8145 4.4152 -2.3479 0.9789
1.4142 4.5589 -2.3477 0.9789
1.0027 4.6663 -2.3475 0.9789
0.5834 4.7367 -2.3474 0.9790
0.1595 4.7694 -2.3472 0.9790
-1.1060 4.6412 -2.3467 0.9790
-2.2925 4.1833 -2.3463 0.9790
-2.7174 4.0547 -2.4008 0.9785
-3.1921 3.9510 -2.4983 0.9776
-3.5310 3.6510 -2.4982 0.9776
-3.8418 3.3221 -2.4981 0.9776
-4.1221 2.9669 -2.4980 0.9776
-4.3696 2.5882 -2.4979 0.9776
-4.5826 2.1889 -2.4979 0.9776
-4.8979 1.3417 -2.4978 0.9776
-4.9979 0.9004 -2.4978 0.9776
-2.7481 0.0000 -1.4089 0.9877
-2.4994 -0.6846 -1.3286 0.9884
-2.4895 -0.9271 -1.3619 0.9881
-3.9554 -2.8469 -2.4985 0.9783
-3.6865 -3.1878 -2.4986 0.9783
-2.3428 -4.2750 -2.4992 0.9783
-1.1303 -4.7430 -2.4997 0.9783
-0.7037 -4.8252 -2.4999 0.9783
1.4452 -4.6588 -2.5007 0.9783
1.8542 -4.5120 -2.5009 0.9783
2.6252 -4.1122 -2.5012 0.9783
3.3130 -3.5819 -2.5014 0.9783
3.8959 -2.9380 -2.5016 0.9783
4.1420 -2.5797 -2.5017 0.9783
4.3553 -2.2008 -2.5017 0.9783
4.6767 -1.3938 -2.5018 0.9783
4.7822 -0.9720 -2.5018 0.9783
4.8497 -0.5425 -2.5018 0.9783
3.2572 3.2211 -2.3485 0.9796
2.9574 3.4981 -2.3484 0.9796
2.6342 3.7472 -2.3482 0.9796
1.5503 4.3092 -2.3478 0.9796
0.7616 4.5151 -2.3474 0.9796
-0.0510 4.5779 -2.3471 0.9796
-0.8618 4.4957 -2.3468 0.9796
-3.7954 6.2481 -3.7479 0.9677
-3.2284 3.6504 -2.4983 0.9783
-3.5403 3.3484 -2.4982 0.9783
-3.8241 3.0199 -2.4981 0.9783
-4.0776 2.6675 -2.4981 0.9783
-4.2988 2.2939 -2.4980 0.9783
-4.4858 1.9022 -2.4979 0.9783
-4.6372 1.4954 -2.4979 0.9783
-4.7519 1.0766 -2.4979 0.9783
-2.9775 0.1328 -1.5280 0.9867
