ply
format ascii 1.0
element vertex 1587
property float32 x
property float32 y
property float32 z
property float32 I
end_header
-6.8103 -12.4273 -2.4987 0.9441
-4.4988 -13.4373 -2.4986 0.9441
-0.7888 -14.1473 -2.4984 0.9441
1.7320 -14.0624 -2.4983 0.9441
2.9766 -13.8521 -2.4983 0.9441
4.1977 -13.5319 -2.4982 0.9441
7.6231 -11.9413 -2.4981 0.9441
8.6555 -11.2152 -2.4980 0.9441
9.6192 -10.4002 -2.4980 0.9441
10.5066 -9.5026 -2.4979 0.9441
11.3105 -8.5296 -2.4979 0.9441
13.5756 -4.0459 -2.4978 0.9441
14.1621 -0.3156 -2.4978 0.9441
12.5659 4.3634 -2.3455 0.9474
9.4587 9.3540 -2.3456 0.9474
7.6507 10.8833 -2.3457 0.9474
6.6518 11.5213 -2.3458 0.9474
4.5038 12.5187 -2.3459 0.9474
3.3718 12.8702 -2.3459 0.9474
1.0365 13.2647 -2.3461 0.9474
-0.1482 13.3047 -2.3461 0.9474
-3.6582 12.7937 -2.3463 0.9474
-5.8689 11.9429 -2.3464 0.9474
-6.9087 11.3733 -2.3464 0.9474
-7.8937 10.7135 -2.3465 0.9474
-9.6685 9.1445 -2.3465 0.9474
-10.4442 8.2478 -2.3466 0.9474
-11.1370 7.2855 -2.3466 0.9474
-13.4892 4.3497 -2.4991 0.9441
-13.8229 3.1319 -2.4991 0.9441
-14.0468 1.8891 -2.4991 0.9441
-14.1592 0.6314 -2.4991 0.9441
-14.0467 -1.8891 -2.4991 0.9441
-13.8228 -3.1318 -2.4991 0.9441
-13.4890 -4.3496 -2.4991 0.9441
-13.0482 -5.5329 -2.4991 0.9441
-11.8602 -7.7585 -2.4990 0.9441
-11.1224 -8.7832 -2.4990 0.9441
-9.3885 -10.6157 -2.4989 0.9441
-3.4472 -7.0147 -1.3782 0.9688
-2.6676 -13.9165 -2.4985 0.9441
2.3567 -13.9711 -2.4983 0.9441
3.5907 -13.7056 -2.4982 0.9441
7.0836 -12.2692 -2.4981 0.9441
8.1475 -11.5898 -2.4980 0.9441
9.1465 -10.8184 -2.4980 0.9441
10.0729 -9.9612 -2.4979 0.9441
12.3462 -6.9459 -2.4978 0.9441
12.9153 -5.8194 -2.4978 0.9441
13.3820 -4.6467 -2.4978 0.9441
13.7424 -3.4372 -2.4978 0.9441
14.1621 0.3156 -2.4978 0.9441
13.2192 1.4788 -2.3454 0.9474
12.3591 4.9188 -2.3455 0.9474
11.2914 7.0324 -2.3455 0.9474
10.6208 8.0096 -2.3456 0.9474
9.8660 8.9232 -2.3456 0.9474
8.1278 10.5315 -2.3457 0.9474
6.1320 11.8063 -2.3458 0.9474
2.7952 13.0078 -2.3460 0.9474
-0.7408 13.2850 -2.3461 0.9474
-3.0846 12.9438 -2.3462 0.9474
-4.2246 12.6181 -2.3463 0.9474
-5.3310 12.1923 -2.3464 0.9474
-6.3951 11.6697 -2.3464 0.9474
-7.4086 11.0544 -2.3464 0.9474
-11.4505 6.7822 -2.3466 0.9474
-12.0338 5.7481 -2.3515 0.9473
-13.6696 3.7445 -2.4991 0.9441
-13.9487 2.5130 -2.4991 0.9441
-14.1170 1.2615 -2.4991 0.9441
-12.9139 0.0000 -2.4991 0.9487
-9.7675 -8.4463 -2.4989 0.9487
-8.9768 -9.2820 -2.4988 0.9488
-6.2053 -11.3232 -2.4987 0.9488
-4.0991 -12.2435 -2.4986 0.9488
-1.8633 -12.7757 -2.4985 0.9488
-0.7188 -12.8906 -2.4984 0.9488
0.4314 -12.9031 -2.4984 0.9488
3.8248 -12.3299 -2.4982 0.9488
4.9070 -11.9403 -2.4982 0.9488
5.9501 -11.4560 -2.4981 0.9488
6.9460 -10.8807 -2.4981 0.9488
7.8868 -10.2191 -2.4980 0.9488
10.3059 -7.7721 -2.4979 0.9488
10.9567 -6.8238 -2.4979 0.9488
11.9928 -4.7730 -2.4979 0.9488
12.6489 -2.5710 -2.4978 0.9488
12.9043 -0.2875 -2.4978 0.9488
11.7582 2.9410 -2.3455 0.9518
8.1933 4.6095 -1.8192 0.9624
9.3429 7.7221 -2.3456 0.9518
8.6186 8.5232 -2.3457 0.9518
7.8259 9.2566 -2.3457 0.9518
6.9711 9.9166 -2.3458 0.9518
6.0610 10.4979 -2.3458 0.9518
5.1026 10.9959 -2.3459 0.9518
4.1038 11.4067 -2.3459 0.9518
3.0723 11.7269 -2.3460 0.9518
2.0164 11.9541 -2.3460 0.9518
0.9444 12.0864 -2.3461 0.9518
-0.1351 12.1227 -2.3461 0.9518
-1.2135 12.0629 -2.3462 0.9518
-3.3332 11.6571 -2.3463 0.9518
-4.3576 11.3144 -2.3463 0.9518
-5.3475 10.8818 -2.3463 0.9518
-6.2949 10.3629 -2.3464 0.9518
-9.5162 7.5149 -2.3465 0.9518
-10.1474 6.6382 -2.3466 0.9518
-12.5946 2.8536 -2.4991 0.9487
-12.7987 1.7213 -2.4991 0.9487
-12.9011 -0.5753 -2.4991 0.9487
-12.5945 -2.8535 -2.4990 0.9487
-12.2905 -3.9632 -2.4990 0.9487
-11.8889 -5.0413 -2.4990 0.9487
-10.1342 -8.0028 -2.4989 0.9487
-9.3815 -8.8729 -2.4989 0.9488
-8.5544 -9.6726 -2.4988 0.9488
-7.6594 -10.3954 -2.4988 0.9488
-6.7036 -11.0356 -2.4987 0.9488
-1.2923 -12.8460 -2.4985 0.9488
-0.1438 -12.9097 -2.4984 0.9488
3.2718 -12.4882 -2.4983 0.9488
5.4339 -11.7097 -2.4982 0.9488
6.4545 -11.1794 -2.4981 0.9488
7.4238 -10.5604 -2.4981 0.9488
9.9495 -8.2235 -2.4980 0.9488
10.6419 -7.3052 -2.4979 0.9488
11.7683 -5.3025 -2.4979 0.9488
12.5219 -3.1319 -2.4979 0.9488
12.8787 -0.8621 -2.4978 0.9488
12.9044 0.2876 -2.4978 0.9488
11.8775 2.4142 -2.3455 0.9518
8.9897 8.1307 -2.3457 0.9518
2.5469 11.8523 -2.3460 0.9518
1.4819 12.0322 -2.3460 0.9518
-0.6750 12.1048 -2.3461 0.9518
-6.7503 10.0722 -2.3464 0.9518
-9.1719 7.9313 -2.3465 0.9518
-9.8416 7.0836 -2.3465 0.9518
-10.4331 6.1796 -2.3466 0.9518
-12.8626 1.1495 -2.4991 0.9487
-11.8538 0.0000 -2.4990 0.9527
-11.8067 -1.0550 -2.4990 0.9527
-11.6659 -2.1017 -2.4990 0.9527
-10.1986 -6.0406 -2.4989 0.9527
-9.6204 -6.9243 -2.4989 0.9527
-7.4488 -9.2195 -2.4988 0.9527
-6.5986 -9.8458 -2.4987 0.9527
-4.7482 -10.8593 -2.4986 0.9527
-3.7627 -11.2386 -2.4986 0.9527
-2.7474 -11.5287 -2.4985 0.9527
5.4618 -10.5159 -2.4982 0.9527
7.2396 -9.3805 -2.4981 0.9527
8.0457 -8.6988 -2.4980 0.9527
11.3550 -3.3841 -2.4979 0.9527
11.6111 -2.3600 -2.4979 0.9527
11.7750 -1.3172 -2.4979 0.9527
10.5103 3.6496 -2.3456 0.9555
9.1730 6.2969 -2.3456 0.9555
8.5762 7.0885 -2.3457 0.9555
7.1838 8.4971 -2.3457 0.9555
6.3991 9.1028 -2.3458 0.9555
5.5636 9.6365 -2.3458 0.9555
-0.1240 11.1278 -2.3461 0.9555
-2.0951 10.9300 -2.3462 0.9555
-6.6020 8.9604 -2.3464 0.9555
-7.3735 8.3373 -2.3464 0.9555
-8.0863 7.6481 -2.3465 0.9555
-8.7351 6.8981 -2.3465 0.9555
-9.3145 6.0933 -2.3465 0.9555
-10.0784 5.3780 -2.4083 0.9544
-10.9131 4.6276 -2.4990 0.9527
-11.2817 3.6379 -2.4990 0.9527
-11.7481 1.5800 -2.4990 0.9527
-11.7480 -1.5799 -2.4990 0.9527
-11.5607 -2.6193 -2.4990 0.9527
-10.9130 -4.6274 -2.4990 0.9527
-9.9194 -6.4889 -2.4989 0.9527
-8.6114 -8.1446 -2.4988 0.9527
-7.0307 -9.5421 -2.4988 0.9527
-6.1534 -10.1298 -2.4987 0.9527
-5.2273 -10.6371 -2.4987 0.9527
-4.2597 -11.0599 -2.4986 0.9527
-2.2311 -11.6395 -2.4985 0.9527
-1.1862 -11.7917 -2.4985 0.9527
0.9232 -11.8147 -2.4984 0.9527
1.9711 -11.6854 -2.4983 0.9527
4.0116 -11.1503 -2.4982 0.9527
4.9880 -10.7489 -2.4982 0.9527
6.8146 -9.6938 -2.4981 0.9527
7.6502 -9.0487 -2.4981 0.9527
8.4251 -8.3318 -2.4980 0.9527
9.7687 -6.7058 -2.4980 0.9527
10.8027 -4.8674 -2.4979 0.9527
11.7047 -1.8405 -2.4979 0.9527
10.9029 2.2161 -2.3455 0.9555
10.6624 3.1778 -2.3456 0.9555
10.3374 4.1142 -2.3456 0.9555
8.5787 4.3350 -2.0263 0.9615
9.4443 5.8820 -2.3456 0.9555
5.9873 9.3790 -2.3458 0.9555
5.1288 9.8748 -2.3458 0.9555
4.2297 10.2923 -2.3459 0.9555
3.2969 10.6281 -2.3459 0.9555
-0.6196 11.1113 -2.3461 0.9555
-1.6061 11.0123 -2.3462 0.9555
-2.5799 10.8259 -2.3462 0.9555
-3.5333 10.5535 -2.3463 0.9555
-5.3487 9.7602 -2.3463 0.9555
-6.9947 8.6575 -2.3464 0.9555
-9.5767 5.6723 -2.3465 0.9555
-11.1084 4.1369 -2.4990 0.9527
-11.4326 3.1317 -2.4990 0.9527
-11.6660 2.1017 -2.4990 0.9527
-11.8068 1.0551 -2.4990 0.9527
-10.9487 0.0000 -2.4990 0.9561
-10.9052 -0.9744 -2.4990 0.9561
-10.7752 -1.9412 -2.4990 0.9561
-10.5596 -2.8926 -2.4989 0.9561
-9.8793 -4.7189 -2.4989 0.9561
-8.2812 -7.1611 -2.4988 0.9561
-7.6109 -7.8696 -2.4988 0.9561
-6.8801 -8.5156 -2.4988 0.9561
-6.0948 -9.0941 -2.4987 0.9561
-5.2611 -9.6003 -2.4987 0.9561
-3.4755 -10.3807 -2.4986 0.9561
-2.5377 -10.6486 -2.4985 0.9561
-1.5798 -10.8320 -2.4985 0.9561
0.3658 -10.9400 -2.4984 0.9561
1.3380 -10.8639 -2.4984 0.9561
2.2996 -10.7015 -2.4983 0.9561
4.1605 -10.1239 -2.4982 0.9561
5.0449 -9.7132 -2.4982 0.9561
7.4316 -8.0349 -2.4981 0.9561
8.1171 -7.3415 -2.4980 0.9561
9.7680 -4.9360 -2.4980 0.9561
10.4883 -3.1258 -2.4979 0.9561
10.8763 -1.2167 -2.4979 0.9561
10.9415 -0.2438 -2.4979 0.9561
9.9696 2.4936 -2.3456 0.9587
9.7082 3.3711 -2.3456 0.9587
7.9216 6.5475 -2.3457 0.9587
7.3076 7.2266 -2.3457 0.9587
5.9106 8.4080 -2.3458 0.9587
5.1389 8.9009 -2.3458 0.9587
1.7096 10.1354 -2.3460 0.9587
0.8008 10.2475 -2.3461 0.9587
-1.0289 10.2275 -2.3461 0.9587
-1.9351 10.0955 -2.3462 0.9587
-2.8261 9.8834 -2.3462 0.9587
-4.5338 9.2261 -2.3463 0.9587
-6.0980 8.2763 -2.3464 0.9587
-7.4690 7.0641 -2.3464 0.9587
-8.0681 6.3714 -2.3465 0.9587
-10.4203 3.3602 -2.4990 0.9561
-10.6781 2.4193 -2.4990 0.9561
-10.8510 1.4594 -2.4990 0.9561
-10.9379 0.4878 -2.4990 0.9561
-10.8510 -1.4593 -2.4990 0.9561
-10.0797 -4.2741 -2.4989 0.9561
-8.5921 -6.7851 -2.4988 0.9561
-7.2527 -8.2008 -2.4988 0.9561
-6.4939 -8.8136 -2.4987 0.9561
-5.6836 -9.3564 -2.4987 0.9561
-1.0957 -10.8915 -2.4985 0.9561
-0.1219 -10.9456 -2.4984 0.9561
5.4726 -9.4788 -2.4982 0.9561
7.0663 -8.3580 -2.4981 0.9561
7.7821 -7.6958 -2.4981 0.9561
8.4361 -6.9726 -2.4980 0.9561
9.0231 -6.1940 -2.4980 0.9561
9.5385 -5.3663 -2.4980 0.9561
9.9782 -4.4959 -2.4980 0.9561
10.8113 -1.7000 -2.4979 0.9561
10.9415 0.2439 -2.4979 0.9561
6.2793 8.1363 -2.3458 0.9587
4.7374 9.1210 -2.3459 0.9587
3.0452 9.8168 -2.3459 0.9587
2.1594 10.0491 -2.3460 0.9587
0.3435 10.2731 -2.3461 0.9587
-0.5723 10.2631 -2.3461 0.9587
-4.1183 9.4188 -2.3463 0.9587
-5.7232 8.5396 -2.3464 0.9587
-6.4606 7.9965 -2.3464 0.9587
-7.7763 6.7244 -2.3465 0.9587
-8.3440 6.0057 -2.3465 0.9587
-8.8455 5.2392 -2.3465 0.9587
-10.2603 3.8210 -2.4990 0.9561
-10.5597 2.8927 -2.4990 0.9561
-10.7753 1.9413 -2.4990 0.9561
-10.9053 0.9745 -2.4990 0.9561
-10.1262 -0.9048 -2.4989 0.9590
-10.0054 -1.8025 -2.4989 0.9590
-9.8052 -2.6859 -2.4989 0.9590
-9.1735 -4.3818 -2.4989 0.9590
-8.2511 -5.9387 -2.4988 0.9590
-7.0672 -7.3074 -2.4988 0.9590
-4.0724 -9.3138 -2.4986 0.9590
-2.3564 -9.8880 -2.4985 0.9590
-1.4670 -10.0583 -2.4985 0.9590
-0.5659 -10.1487 -2.4984 0.9590
0.3397 -10.1587 -2.4984 0.9590
1.2425 -10.0879 -2.4984 0.9590
2.1354 -9.9371 -2.4983 0.9590
4.6846 -9.0195 -2.4982 0.9590
5.4688 -8.5666 -2.4982 0.9590
8.1142 -6.1192 -2.4980 0.9590
8.6266 -5.3727 -2.4980 0.9590
9.7393 -2.9026 -2.4980 0.9590
9.9590 -2.0242 -2.4980 0.9590
10.0996 -1.1298 -2.4980 0.9590
10.1601 -0.2264 -2.4980 0.9590
10.1400 0.6788 -2.4980 0.9590
8.7005 3.9203 -2.3457 0.9615
8.1234 4.5702 -2.2910 0.9623
7.3559 6.0799 -2.3457 0.9615
5.4885 7.8075 -2.3458 0.9615
1.5875 9.4115 -2.3460 0.9614
0.7436 9.5156 -2.3461 0.9614
-0.1063 9.5442 -2.3461 0.9614
-2.6242 9.1775 -2.3462 0.9614
-3.4307 8.9076 -2.3463 0.9614
-4.2099 8.5670 -2.3463 0.9614
-4.9558 8.1585 -2.3463 0.9614
-5.6624 7.6851 -2.3464 0.9614
-7.9887 5.2260 -2.3465 0.9614
-8.9693 4.7862 -2.4989 0.9590
-9.3597 3.9689 -2.4989 0.9590
-9.6759 3.1201 -2.4989 0.9590
-9.9152 2.2465 -2.4989 0.9590
-10.1565 0.4529 -2.4989 0.9590
-10.1565 -0.4529 -2.4989 0.9590
-9.3597 -3.9688 -2.4989 0.9590
-8.5075 -5.5653 -2.4988 0.9590
-6.7346 -7.6150 -2.4987 0.9590
-6.0300 -8.1840 -2.4987 0.9590
-5.2776 -8.6881 -2.4987 0.9590
-4.4833 -9.1233 -2.4986 0.9590
-3.6534 -9.4859 -2.4986 0.9590
-1.0174 -10.1136 -2.4985 0.9590
2.5759 -9.8321 -2.4983 0.9590
3.4407 -9.5636 -2.4983 0.9590
5.0817 -8.8018 -2.4982 0.9590
5.8449 -8.3145 -2.4981 0.9590
6.5617 -7.7611 -2.4981 0.9590
8.3787 -5.7516 -2.4980 0.9590
8.8573 -4.9830 -2.4980 0.9590
9.2656 -4.1748 -2.4980 0.9590
9.6004 -3.3336 -2.4980 0.9590
10.1399 -0.6788 -2.4980 0.9590
10.1601 0.2265 -2.4980 0.9590
8.1005 5.0451 -2.3457 0.9615
6.4800 7.0062 -2.3458 0.9615
5.1353 8.0443 -2.3458 0.9615
4.3990 8.4696 -2.3459 0.9615
3.6278 8.8277 -2.3459 0.9615
2.0052 9.3314 -2.3460 0.9614
1.1667 9.4730 -2.3460 0.9614
0.3189 9.5394 -2.3461 0.9614
-1.3775 9.4451 -2.3462 0.9614
-3.8241 8.7460 -2.3463 0.9614
-5.3144 7.9296 -2.3463 0.9614
-5.9991 7.4253 -2.3464 0.9614
-7.7479 5.5766 -2.3464 0.9614
-8.6211 5.1063 -2.4629 0.9596
-9.1736 4.3819 -2.4989 0.9590
-9.5273 3.5480 -2.4989 0.9590
-9.8053 2.6860 -2.4989 0.9590
-10.0055 1.8026 -2.4989 0.9590
-9.4459 -0.8440 -2.4989 0.9615
-9.3332 -1.6814 -2.4989 0.9615
-8.5572 -4.0874 -2.4988 0.9615
-7.6968 -5.5398 -2.4988 0.9615
-7.1731 -6.2028 -2.4988 0.9615
-5.2792 -7.8772 -2.4987 0.9615
-4.5571 -8.3157 -2.4986 0.9615
-3.7988 -8.6881 -2.4986 0.9615
-2.1981 -9.2237 -2.4985 0.9615
-0.5279 -9.4671 -2.4984 0.9615
0.3168 -9.4763 -2.4984 0.9615
3.6038 -8.7694 -2.4983 0.9615
5.1014 -7.9912 -2.4982 0.9615
5.7924 -7.5054 -2.4982 0.9615
7.5692 -5.7082 -2.4981 0.9615
8.4613 -4.2756 -2.4980 0.9615
9.0852 -2.7076 -2.4980 0.9615
9.2901 -1.8883 -2.4980 0.9615
9.4213 -1.0539 -2.4980 0.9615
9.4777 -0.2112 -2.4980 0.9615
9.4589 0.6332 -2.4980 0.9615
14.0504 2.2093 -3.7478 0.9429
8.4094 2.9201 -2.3457 0.9638
7.7586 4.3649 -2.3457 0.9638
6.3299 6.2598 -2.3458 0.9638
5.1199 7.2831 -2.3458 0.9638
4.4514 7.7100 -2.3459 0.9638
-0.0992 8.9030 -2.3461 0.9638
-1.6762 8.7447 -2.3462 0.9638
-3.9271 7.9915 -2.3463 0.9638
-5.8991 6.6703 -2.3464 0.9638
-8.3667 4.4646 -2.4989 0.9615
-9.2491 2.0956 -2.4989 0.9615
-9.4741 0.4225 -2.4989 0.9615
-9.4741 -0.4225 -2.4989 0.9615
-9.3989 -1.2640 -2.4989 0.9615
-9.2490 -2.0955 -2.4989 0.9615
-9.0257 -2.9104 -2.4989 0.9615
-8.7308 -3.7022 -2.4989 0.9615
-7.4423 -5.8771 -2.4988 0.9615
-6.8896 -6.5161 -2.4988 0.9615
-6.2822 -7.1034 -2.4987 0.9615
-4.9231 -8.1044 -2.4987 0.9615
-4.1821 -8.5104 -2.4986 0.9615
-3.4080 -8.8487 -2.4986 0.9615
-2.6069 -9.1167 -2.4985 0.9615
-1.7850 -9.3124 -2.4985 0.9615
-0.1056 -9.4811 -2.4984 0.9615
3.2096 -8.9212 -2.4983 0.9615
3.9909 -8.6001 -2.4982 0.9615
5.4523 -7.7560 -2.4982 0.9615
6.1209 -7.2399 -2.4981 0.9615
6.7410 -6.6662 -2.4981 0.9615
8.6433 -3.8944 -2.4980 0.9615
9.4589 -0.6332 -2.4980 0.9615
9.4778 0.2113 -2.4980 0.9615
9.4214 1.0540 -2.4980 0.9615
13.9382 2.8331 -3.7478 0.9429
8.5311 2.5426 -2.3457 0.9638
8.2710 3.2918 -2.3457 0.9638
7.1077 5.3602 -2.3457 0.9638
5.4392 7.0478 -2.3458 0.9638
4.7904 7.5040 -2.3459 0.9638
4.1035 7.9007 -2.3459 0.9638
2.6378 8.5034 -2.3460 0.9638
-2.0641 8.6614 -2.3462 0.9638
-2.8269 8.4434 -2.3462 0.9638
-9.1465 2.5055 -2.4989 0.9615
-9.3332 1.6815 -2.4989 0.9615
-5.0319 0.0000 -1.4157 0.9793
-3.9277 -0.3510 -1.1095 0.9837
-7.6415 -4.5260 -2.4988 0.9638
-7.2082 -5.1882 -2.4988 0.9638
-6.7178 -5.8091 -2.4988 0.9638
-6.1740 -6.3838 -2.4987 0.9638
-5.5812 -6.9079 -2.4987 0.9638
-3.5577 -8.1367 -2.4986 0.9638
-2.0586 -8.6383 -2.4985 0.9638
0.2967 -8.8749 -2.4984 0.9638
1.0854 -8.8132 -2.4984 0.9638
2.6308 -8.4808 -2.4983 0.9638
3.3751 -8.2129 -2.4983 0.9638
4.7777 -7.4841 -2.4982 0.9638
6.5850 -5.9557 -2.4981 0.9638
7.0889 -5.3460 -2.4981 0.9638
7.5366 -4.6937 -2.4981 0.9638
7.9244 -4.0043 -2.4981 0.9638
8.2493 -3.2831 -2.4981 0.9638
8.7007 -1.7684 -2.4980 0.9638
7.6012 3.4250 -2.3457 0.9659
6.8736 4.7185 -2.3457 0.9659
6.4264 5.3116 -2.3458 0.9659
5.9282 5.8626 -2.3458 0.9659
5.3830 6.3670 -2.3458 0.9659
3.5097 7.5632 -2.3459 0.9659
-0.8347 8.2968 -2.3461 0.9659
-1.5698 8.1897 -2.3462 0.9659
-2.9971 7.7818 -2.3462 0.9659
-4.3295 7.1273 -2.3463 0.9659
-6.0588 5.7304 -2.3464 0.9659
-7.8356 4.1813 -2.4988 0.9638
-8.1767 3.4673 -2.4989 0.9638
-8.4529 2.7258 -2.4989 0.9638
-8.6620 1.9626 -2.4989 0.9638
-8.8023 1.1838 -2.4989 0.9638
-8.8727 0.3957 -2.4989 0.9638
-4.2110 -0.1878 -1.1860 0.9826
-3.7659 -0.8532 -1.0864 0.9841
-8.4528 -2.7257 -2.4988 0.9638
-8.1766 -3.4671 -2.4988 0.9638
-7.8355 -4.1812 -2.4988 0.9638
-6.9699 -5.5041 -2.4988 0.9638
-6.4523 -6.1025 -2.4987 0.9638
-5.8835 -6.6525 -2.4987 0.9638
-5.2679 -7.1497 -2.4987 0.9638
-3.9167 -7.9702 -2.4986 0.9638
-2.4414 -8.5381 -2.4985 0.9638
-1.6718 -8.7214 -2.4985 0.9638
-0.0989 -8.8794 -2.4984 0.9638
0.6918 -8.8528 -2.4984 0.9638
1.4770 -8.7560 -2.4984 0.9638
2.2504 -8.5896 -2.4983 0.9638
3.7376 -8.0543 -2.4982 0.9638
4.4396 -7.6896 -2.4982 0.9638
5.7325 -6.7804 -2.4982 0.9638
6.3132 -6.2432 -2.4981 0.9638
7.3200 -5.0249 -2.4981 0.9638
7.7381 -4.3534 -2.4981 0.9638
8.0949 -3.6473 -2.4981 0.9638
8.8587 -0.5930 -2.4980 0.9638
7.9898 2.3812 -2.3457 0.9660
7.7462 3.0829 -2.3457 0.9659
7.0769 4.4076 -2.3457 0.9659
5.6612 6.1209 -2.3458 0.9659
3.8431 7.3993 -2.3459 0.9659
2.4704 7.9637 -2.3460 0.9659
1.7518 8.1522 -2.3460 0.9659
1.0193 8.2758 -2.3460 0.9659
-0.4642 8.3257 -2.3461 0.9659
-1.2034 8.2514 -2.3461 0.9659
-2.6474 7.9075 -2.3462 0.9659
-4.0076 7.3130 -2.3463 0.9659
-5.7975 5.9946 -2.3464 0.9659
-6.3081 5.4549 -2.3464 0.9659
-6.7686 4.8718 -2.3464 0.9659
-7.6416 4.5261 -2.4988 0.9638
-8.0141 3.8281 -2.4989 0.9638
-8.3231 3.0996 -2.4989 0.9638
-8.5659 2.3465 -2.4989 0.9638
-8.7408 1.5747 -2.4989 0.9638
-8.8463 0.7906 -2.4989 0.9638
-3.9676 0.0000 -1.1878 0.9836
-6.7742 -4.8758 -2.4988 0.9658
-6.3134 -5.4593 -2.4987 0.9658
-5.8023 -5.9995 -2.4987 0.9658
-5.2452 -6.4920 -2.4987 0.9658
-4.6465 -6.9330 -2.4987 0.9658
-4.0109 -7.3190 -2.4986 0.9658
-3.3435 -7.6468 -2.4986 0.9658
-2.6496 -7.9139 -2.4986 0.9658
-1.9347 -8.1183 -2.4985 0.9658
-0.4646 -8.3324 -2.4984 0.9658
2.4724 -7.9702 -2.4983 0.9658
3.1720 -7.7185 -2.4983 0.9658
3.8463 -7.4054 -2.4982 0.9658
6.6622 -5.0242 -2.4981 0.9658
7.4474 -3.7633 -2.4981 0.9658
7.7527 -3.0855 -2.4981 0.9658
8.3420 -0.1859 -2.4981 0.9658
8.3255 0.5574 -2.4981 0.9658
12.1447 3.0376 -3.7479 0.9491
7.1436 3.2188 -2.3457 0.9678
6.4598 4.4345 -2.3458 0.9678
5.5714 5.5096 -2.3458 0.9678
5.0589 5.9838 -2.3458 0.9678
4.5063 6.4103 -2.3459 0.9678
2.6527 7.3734 -2.3460 0.9678
1.3034 7.7271 -2.3460 0.9678
-0.7844 7.7973 -2.3461 0.9678
-3.4564 7.0337 -2.3462 0.9678
-5.1920 5.8707 -2.3463 0.9678
-5.6940 5.3854 -2.3463 0.9678
-7.3638 3.9295 -2.4988 0.9657
-3.6646 -0.1634 -1.0982 0.9848
-3.5144 -0.4726 -1.0616 0.9853
-7.6843 -3.2584 -2.4988 0.9657
-6.5502 -5.1726 -2.4987 0.9658
-6.0638 -5.7351 -2.4987 0.9658
-4.3330 -7.1331 -2.4986 0.9658
-3.6809 -7.4903 -2.4986 0.9658
-0.0930 -8.3448 -2.4984 0.9658
0.6501 -8.3198 -2.4984 0.9658
3.5126 -7.5695 -2.4983 0.9658
5.3875 -6.3722 -2.4982 0.9658
7.2724 -4.0913 -2.4981 0.9658
7.6076 -3.4278 -2.4981 0.9658
7.8825 -2.7371 -2.4981 0.9658
8.2428 -1.2961 -2.4981 0.9658
8.3420 0.1860 -2.4981 0.9658
12.2679 2.4936 -3.7479 0.9491
11.9974 3.5756 -3.7479 0.9491
7.2799 2.8973 -2.3457 0.9678
5.8112 5.2560 -2.3458 0.9678
5.3204 5.7524 -2.3458 0.9678
4.7874 6.2032 -2.3459 0.9678
4.2163 6.6048 -2.3459 0.9678
3.6118 6.9539 -2.3459 0.9678
1.6463 7.6614 -2.3460 0.9678
0.9579 7.7776 -2.3460 0.9678
-0.4363 7.8244 -2.3461 0.9678
-1.1310 7.7547 -2.3461 0.9678
-1.8167 7.6233 -2.3462 0.9678
-2.4880 7.4314 -2.3462 0.9678
-3.7663 6.8728 -2.3463 0.9678
-4.9253 6.0962 -2.3463 0.9678
-5.4484 5.6337 -2.3463 0.9678
-5.9283 5.1264 -2.3464 0.9678
-6.5978 4.7488 -2.4337 0.9666
-7.1814 4.2536 -2.4988 0.9657
-7.8219 2.9129 -2.4988 0.9657
-8.0502 2.2052 -2.4988 0.9657
-3.7562 0.0000 -1.1929 0.9844
-3.3867 -0.3026 -1.0798 0.9858
-3.2843 -0.5917 -1.0598 0.9861
-3.2540 -0.8914 -1.0715 0.9859
-7.3734 -2.7459 -2.4988 0.9675
-6.7697 -4.0096 -2.4988 0.9675
-6.3858 -4.5962 -2.4987 0.9675
-5.9514 -5.1463 -2.4987 0.9675
-5.4696 -5.6555 -2.4987 0.9675
-4.9445 -6.1198 -2.4987 0.9675
-4.3801 -6.5356 -2.4986 0.9675
2.3307 -7.5134 -2.4983 0.9675
3.6258 -6.9809 -2.4983 0.9675
5.3412 -5.7748 -2.4982 0.9675
5.8339 -5.2764 -2.4982 0.9675
6.2804 -4.7362 -2.4981 0.9675
6.6770 -4.1584 -2.4981 0.9675
7.7083 -1.5667 -2.4981 0.9675
7.8639 -0.1752 -2.4981 0.9675
7.8483 0.5254 -2.4981 0.9675
7.7704 1.2219 -2.4981 0.9675
11.1484 3.8711 -3.7479 0.9517
6.4374 3.6217 -2.3458 0.9695
5.6934 4.7058 -2.3458 0.9695
5.2520 5.1939 -2.3458 0.9695
4.7690 5.6408 -2.3459 0.9695
3.6934 6.3971 -2.3459 0.9695
2.5007 6.9508 -2.3460 0.9695
0.5755 7.3648 -2.3461 0.9695
-0.0823 7.3869 -2.3461 0.9695
-0.7394 7.3503 -2.3461 0.9695
-2.6552 6.8941 -2.3462 0.9695
-4.8944 5.5342 -2.3463 0.9695
-5.3676 5.0767 -2.3463 0.9695
-5.8609 4.6283 -2.3717 0.9691
-6.9417 3.7042 -2.4988 0.9675
-7.2438 3.0717 -2.4988 0.9675
-7.4885 2.4148 -2.4988 0.9675
-7.7980 1.0488 -2.4988 0.9675
-3.2591 -0.7384 -1.0613 0.9861
-3.2827 -1.0585 -1.0954 0.9856
-6.5843 -4.3072 -2.4988 0.9675
-6.1747 -4.8761 -2.4987 0.9675
-5.7162 -5.4063 -2.4987 0.9675
-5.2122 -5.8935 -2.4987 0.9675
-4.6669 -6.3340 -2.4987 0.9675
-4.0846 -6.7242 -2.4986 0.9675
-3.4699 -7.0609 -2.4986 0.9675
-2.8276 -7.3417 -2.4986 0.9675
-2.1629 -7.5641 -2.4985 0.9675
-1.4811 -7.7265 -2.4985 0.9675
-0.0876 -7.8665 -2.4984 0.9675
0.6129 -7.8429 -2.4984 0.9675
1.3085 -7.7571 -2.4984 0.9675
1.9937 -7.6098 -2.4983 0.9675
2.6631 -7.4021 -2.4983 0.9675
3.9332 -6.8125 -2.4982 0.9675
4.5239 -6.4353 -2.4982 0.9675
5.0787 -6.0070 -2.4982 0.9675
6.0632 -5.0113 -2.4982 0.9675
7.6308 -1.9086 -2.4981 0.9675
7.8483 -0.5254 -2.4981 0.9675
7.8172 0.8745 -2.4981 0.9675
11.3098 3.3707 -3.7479 0.9517
6.5924 3.3313 -2.3458 0.9695
5.0155 5.4227 -2.3458 0.9695
4.5130 5.8476 -2.3459 0.9695
3.4047 6.5554 -2.3459 0.9695
2.8078 6.8324 -2.3459 0.9695
-0.4113 7.3759 -2.3461 0.9695
-1.7126 7.1863 -2.3462 0.9695
-2.9597 6.7690 -2.3462 0.9695
-4.1130 6.1371 -2.3463 0.9695
-7.0998 3.3913 -2.4988 0.9675
-7.3735 2.7460 -2.4988 0.9675
-7.5886 2.0788 -2.4988 0.9675
-7.7436 1.3951 -2.4988 0.9675
-7.8370 0.7003 -2.4988 0.9675
-3.6184 0.0000 -1.2157 0.9848
-3.2019 -0.2861 -1.0801 0.9865
-3.1483 -0.5672 -1.0748 0.9866
-3.1349 -0.8587 -1.0921 0.9864
-6.3989 -3.7901 -2.4987 0.9691
-6.0361 -4.3445 -2.4987 0.9691
-4.6737 -5.7847 -2.4987 0.9691
-4.1403 -6.1777 -2.4986 0.9691
-3.5739 -6.5216 -2.4986 0.9691
-2.9793 -6.8137 -2.4986 0.9691
-0.4140 -7.4247 -2.4984 0.9691
0.9090 -7.3803 -2.4984 0.9691
4.5429 -5.8864 -2.4982 0.9691
5.0488 -5.4586 -2.4982 0.9691
5.9365 -4.4769 -2.4982 0.9691
6.3114 -3.9307 -2.4981 0.9691
6.9083 -2.7494 -2.4981 0.9691
7.1255 -2.1236 -2.4981 0.9691
7.3891 -0.8266 -2.4981 0.9691
7.4334 -0.1656 -2.4981 0.9691
7.4186 0.4967 -2.4981 0.9691
6.3655 2.8682 -2.3458 0.9710
6.0850 3.4234 -2.3458 0.9710
5.3817 4.4481 -2.3458 0.9710
4.0154 5.7121 -2.3459 0.9710
2.3638 6.5702 -2.3460 0.9710
1.1614 6.8854 -2.3460 0.9710
-0.0778 6.9824 -2.3461 0.9710
-0.6989 6.9478 -2.3461 0.9710
-1.9198 6.7140 -2.3462 0.9710
-2.5098 6.5166 -2.3462 0.9710
-3.0799 6.2673 -2.3462 0.9710
-3.6255 5.9684 -2.3463 0.9710
-6.2238 4.0715 -2.4988 0.9691
-7.0784 2.2825 -2.4988 0.9691
-4.1559 0.1853 -1.3977 0.9826
-3.2675 -0.1457 -1.0989 0.9863
-5.8366 -4.6091 -2.4987 0.9691
-4.4114 -5.9872 -2.4986 0.9691
-3.8609 -6.3560 -2.4986 0.9691
-2.0445 -7.1499 -2.4985 0.9691
-0.0828 -7.4357 -2.4984 0.9691
0.5793 -7.4135 -2.4984 0.9691
1.2368 -7.3324 -2.4984 0.9691
1.8845 -7.1931 -2.4983 0.9691
2.5173 -6.9968 -2.4983 0.9691
4.2762 -6.0829 -2.4982 0.9691
5.2869 -5.2283 -2.4982 0.9691
5.7312 -4.7369 -2.4982 0.9691
6.1300 -4.2080 -2.4981 0.9691
6.4802 -3.6457 -2.4981 0.9691
7.0239 -2.4389 -2.4981 0.9691
7.4186 -0.4966 -2.4981 0.9691
7.4334 0.1657 -2.4981 0.9691
7.2863 1.4810 -2.4981 0.9691
10.6905 3.1862 -3.7480 0.9540
6.4869 2.5818 -2.3458 0.9710
6.2314 3.1489 -2.3458 0.9710
5.9265 3.6911 -2.3458 0.9710
5.5745 4.2039 -2.3458 0.9710
5.1782 4.6835 -2.3458 0.9710
4.2659 5.5275 -2.3459 0.9710
3.7570 5.8853 -2.3459 0.9710
2.6541 6.4583 -2.3460 0.9710
2.0687 6.6690 -2.3460 0.9710
1.4670 6.8268 -2.3460 0.9710
-0.3887 6.9720 -2.3461 0.9710
-1.6188 6.7928 -2.3462 0.9710
-2.2170 6.6218 -2.3462 0.9710
-3.3560 6.1240 -2.3462 0.9710
-4.8548 5.0199 -2.3463 0.9710
-5.2824 4.5679 -2.3463 0.9710
-6.0362 4.3446 -2.4988 0.9691
-6.3990 3.7902 -2.4988 0.9691
-6.7110 3.2056 -2.4988 0.9691
-7.1731 1.9649 -2.4988 0.9691
-7.3195 1.3187 -2.4988 0.9691
-7.4078 0.6620 -2.4988 0.9691
-3.4902 0.0000 -1.2376 0.9853
-3.0930 -0.2764 -1.1011 0.9869
-3.0314 -1.1289 -1.1470 0.9864
-6.3588 -3.0373 -2.4987 0.9705
-5.7194 -4.1166 -2.4987 0.9705
-4.8988 -5.0653 -2.4987 0.9705
-4.4285 -5.4812 -2.4986 0.9705
-3.3864 -6.1794 -2.4986 0.9705
-2.8229 -6.4562 -2.4986 0.9705
-1.6335 -6.8543 -2.4985 0.9705
0.2355 -7.0421 -2.4984 0.9705
1.4803 -6.8885 -2.4984 0.9705
2.0875 -6.7294 -2.4983 0.9705
4.7839 -5.1722 -2.4982 0.9705
5.6251 -4.2421 -2.4982 0.9705
5.9803 -3.7245 -2.4982 0.9705
6.2880 -3.1774 -2.4981 0.9705
6.5459 -2.6051 -2.4981 0.9705
6.7517 -2.0122 -2.4981 0.9705
7.0434 -0.1569 -2.4981 0.9705
5.4542 3.7441 -2.3458 0.9723
5.0994 4.2148 -2.3458 0.9723
4.7040 4.6520 -2.3458 0.9723
2.7849 6.0014 -2.3459 0.9723
2.2397 6.2255 -2.3460 0.9723
1.1005 6.5241 -2.3460 0.9723
0.5154 6.5963 -2.3461 0.9723
-0.0737 6.6160 -2.3461 0.9723
-0.6623 6.5833 -2.3461 0.9723
-1.8191 6.3617 -2.3462 0.9723
-2.9183 5.9385 -2.3462 0.9723
-3.4353 5.6552 -2.3462 0.9723
-4.3836 4.9566 -2.3463 0.9723
-5.5304 4.3673 -2.4987 0.9705
-5.8972 3.8578 -2.4988 0.9705
-6.7070 2.1628 -2.4988 0.9705
-6.8729 1.5572 -2.4988 0.9705
-3.1623 -0.1410 -1.1224 0.9867
-3.0191 -0.9735 -1.1248 0.9866
-6.2171 -3.3175 -2.4987 0.9705
-5.8971 -3.8577 -2.4987 0.9705
-5.5303 -4.3672 -2.4987 0.9705
-5.1196 -4.8421 -2.4987 0.9705
-4.1799 -5.6730 -2.4986 0.9705
-3.6583 -6.0224 -2.4986 0.9705
-3.1078 -6.3241 -2.4986 0.9705
-1.3265 -6.9202 -2.4985 0.9705
-0.7053 -7.0107 -2.4985 0.9705
2.3852 -6.6297 -2.4983 0.9705
3.5228 -6.1016 -2.4983 0.9705
4.5488 -5.3802 -2.4982 0.9705
5.0095 -4.9540 -2.4982 0.9705
6.4233 -2.8942 -2.4981 0.9705
6.8347 -1.7094 -2.4981 0.9705
6.9597 -1.0943 -2.4981 0.9705
7.0294 -0.4705 -2.4981 0.9705
7.0434 0.1570 -2.4981 0.9705
7.0015 0.7833 -2.4981 0.9705
6.9040 1.4034 -2.4981 0.9705
9.8208 3.9086 -3.7480 0.9561
5.9045 2.9837 -2.3458 0.9723
5.6156 3.4974 -2.3458 0.9723
5.2820 3.9834 -2.3458 0.9723
4.9066 4.4377 -2.3458 0.9723
4.0421 5.2375 -2.3459 0.9723
2.5148 6.1195 -2.3460 0.9723
1.9602 6.3191 -2.3460 0.9723
1.3900 6.4686 -2.3460 0.9723
0.8088 6.5667 -2.3460 0.9723
0.2211 6.6127 -2.3461 0.9723
-0.3684 6.6062 -2.3461 0.9723
-1.5339 6.4364 -2.3462 0.9723
-2.6508 6.0626 -2.3462 0.9723
-5.2009 4.4974 -2.4380 0.9712
-6.0632 3.5913 -2.4988 0.9705
-6.3588 3.0374 -2.4988 0.9705
-7.0191 0.6273 -2.4988 0.9705
-2.9938 -0.2675 -1.1224 0.9872
-2.9238 -1.0888 -1.1650 0.9868
-6.0382 -2.8842 -2.4987 0.9718
-5.7575 -3.4101 -2.4987 0.9718
-5.4310 -3.9090 -2.4987 0.9718
-5.0615 -4.3769 -2.4987 0.9718
-3.2157 -5.8679 -2.4986 0.9718
-2.6806 -6.1307 -2.4986 0.9718
-1.5511 -6.5087 -2.4985 0.9718
2.5431 -6.1883 -2.4983 0.9718
3.6000 -5.6392 -2.4983 0.9718
4.5427 -4.9115 -2.4982 0.9718
5.3415 -4.0282 -2.4982 0.9718
5.6788 -3.5368 -2.4982 0.9718
6.4114 -1.9107 -2.4981 0.9718
6.5560 -1.3325 -2.4981 0.9718
6.6486 -0.7437 -2.4981 0.9718
6.6751 0.4469 -2.4981 0.9718
6.4902 1.6233 -2.4982 0.9718
9.1512 4.1233 -3.7480 0.9580
5.4751 3.0803 -2.3458 0.9735
4.4669 4.4174 -2.3459 0.9735
4.0560 4.7975 -2.3459 0.9735
3.1412 5.4408 -2.3459 0.9735
2.6445 5.6988 -2.3460 0.9735
2.1268 5.9116 -2.3460 0.9735
-0.0700 6.2825 -2.3461 0.9735
-1.1828 6.1707 -2.3461 0.9735
-2.7711 5.6391 -2.3462 0.9735
-3.2621 5.3701 -2.3462 0.9735
-3.7271 5.0585 -2.3463 0.9735
-4.1626 4.7068 -2.3463 0.9735
-5.2516 4.1472 -2.4987 0.9718
-5.5999 3.6633 -2.4987 0.9718
-6.1607 2.6124 -2.4988 0.9718
-6.3688 2.0537 -2.4988 0.9718
-6.5263 1.4787 -2.4988 0.9718
-6.6320 0.8920 -2.4988 0.9718
-3.7910 0.1690 -1.4170 0.9839
-2.9640 -0.3986 -1.1167 0.9873
-2.9258 -0.6629 -1.1202 0.9873
-2.9106 -0.9385 -1.1419 0.9870
-5.9037 -3.1503 -2.4987 0.9718
-5.5998 -3.6632 -2.4987 0.9718
-5.2515 -4.1471 -2.4987 0.9718
-4.8615 -4.5980 -2.4987 0.9718
-4.4329 -5.0124 -2.4986 0.9718
-3.4739 -5.7188 -2.4986 0.9718
-2.9511 -6.0053 -2.4986 0.9718
-1.8395 -6.4332 -2.4985 0.9718
-0.0745 -6.6904 -2.4984 0.9718
0.5212 -6.6704 -2.4984 0.9718
1.1129 -6.5975 -2.4984 0.9718
3.8476 -5.4732 -2.4983 0.9718
4.7570 -4.7042 -2.4982 0.9718
5.8307 -3.2803 -2.4982 0.9718
6.3199 -2.1945 -2.4981 0.9718
6.6089 -1.0392 -2.4981 0.9718
6.6751 -0.4468 -2.4981 0.9718
6.4114 1.9108 -2.4982 0.9718
9.3258 3.7116 -3.7480 0.9580
5.6069 2.8333 -2.3458 0.9735
5.0158 3.7826 -2.3458 0.9735
4.6592 4.2140 -2.3459 0.9735
4.2657 4.6121 -2.3459 0.9735
3.3805 5.2954 -2.3459 0.9735
2.3881 5.8110 -2.3460 0.9735
0.7680 6.2356 -2.3460 0.9735
-0.9067 6.2172 -2.3461 0.9735
-1.4565 6.1119 -2.3461 0.9735
-3.4981 5.2195 -2.3462 0.9735
-5.0616 4.3770 -2.4987 0.9718
-5.4311 3.9091 -2.4987 0.9718
-5.7575 3.4102 -2.4987 0.9718
-6.2710 2.3354 -2.4988 0.9718
-6.4540 1.7679 -2.4988 0.9718
-6.5857 1.1865 -2.4988 0.9718
-4.2614 0.3808 -1.5976 0.9819
-3.2641 0.0000 -1.2811 0.9861
-2.9005 -0.2592 -1.1429 0.9876
-2.8518 -0.5138 -1.1373 0.9876
-2.8313 -0.7756 -1.1521 0.9875
-5.7449 -2.7441 -2.4987 0.9730
-4.0010 -4.9521 -2.4986 0.9730
-3.0595 -5.5829 -2.4986 0.9730
-2.0211 -6.0368 -2.4985 0.9730
-0.9187 -6.2994 -2.4985 0.9730
0.2127 -6.3623 -2.4984 0.9730
0.7782 -6.3180 -2.4984 0.9730
2.9340 -5.6490 -2.4983 0.9730
3.4252 -5.3654 -2.4983 0.9730
3.8891 -5.0392 -2.4983 0.9730
4.3221 -4.6730 -2.4982 0.9730
4.7209 -4.2698 -2.4982 0.9730
5.6811 -2.8707 -2.4982 0.9730
5.9141 -2.3537 -2.4982 0.9730
6.2377 -1.2678 -2.4982 0.9730
6.3257 -0.7076 -2.4982 0.9730
6.3510 0.4252 -2.4982 0.9730
6.2880 0.9888 -2.4982 0.9730
6.1750 1.5445 -2.4982 0.9730
4.6072 3.8080 -2.3459 0.9746
3.8591 4.5646 -2.3459 0.9746
2.9887 5.1766 -2.3459 0.9746
2.5161 5.4221 -2.3460 0.9746
-0.0666 5.9774 -2.3461 0.9746
-2.6365 5.3653 -2.3462 0.9746
-3.5461 4.8128 -2.3462 0.9746
-4.6255 4.3748 -2.4987 0.9730
-4.9965 3.9458 -2.4987 0.9730
-5.3279 3.4854 -2.4987 0.9730
-6.0595 1.9539 -2.4988 0.9730
-6.3099 0.8486 -2.4988 0.9730
-3.6456 0.1626 -1.4322 0.9844
-3.0071 -0.1341 -1.1814 0.9871
-2.8734 -0.3864 -1.1379 0.9876
-2.8326 -0.6418 -1.1399 0.9876
-2.8403 -0.9159 -1.1712 0.9873
-5.3278 -3.4853 -2.4987 0.9730
-3.3052 -5.4411 -2.4986 0.9730
-2.8078 -5.7136 -2.4986 0.9730
-2.2881 -5.9408 -2.4985 0.9730
-1.7502 -6.1208 -2.4985 0.9730
-1.1985 -6.2522 -2.4985 0.9730
-0.0709 -6.3655 -2.4984 0.9730
0.4959 -6.3465 -2.4984 0.9730
1.0588 -6.2771 -2.4984 0.9730
1.6133 -6.1579 -2.4984 0.9730
2.1550 -5.9897 -2.4983 0.9730
3.1828 -5.5127 -2.4983 0.9730
3.6608 -5.2075 -2.4983 0.9730
4.1097 -4.8610 -2.4982 0.9730
5.5476 -3.1210 -2.4982 0.9730
5.8033 -2.6148 -2.4982 0.9730
6.0130 -2.0879 -2.4982 0.9730
6.2879 -0.9887 -2.4982 0.9730
6.2377 1.2679 -2.4982 0.9730
8.5235 4.3071 -3.7481 0.9598
4.4330 4.0094 -2.3459 0.9746
3.6519 4.7320 -2.3459 0.9746
3.2163 5.0383 -2.3459 0.9746
2.7551 5.3046 -2.3459 0.9746
1.2558 5.8442 -2.3460 0.9746
-0.8627 5.9153 -2.3461 0.9746
-2.3949 5.4773 -2.3462 0.9746
-3.7570 4.6501 -2.3463 0.9746
-4.8158 4.1644 -2.4987 0.9730
-5.4779 3.2446 -2.4987 0.9730
-5.9664 2.2219 -2.4987 0.9730
-6.1405 1.6821 -2.4988 0.9730
-6.2659 1.1289 -2.4988 0.9730
-3.1614 0.0000 -1.3018 0.9864
-2.7831 -0.5014 -1.1645 0.9878
-5.2209 -3.0923 -2.4987 0.9741
-4.9249 -3.5447 -2.4987 0.9741
-4.2183 -4.3617 -2.4986 0.9741
-3.8133 -4.7198 -2.4986 0.9741
-2.4308 -5.5594 -2.4986 0.9741
-1.9263 -5.7537 -2.4985 0.9741
-1.4066 -5.9022 -2.4985 0.9741
-0.8757 -6.0039 -2.4985 0.9741
0.2027 -6.0640 -2.4984 0.9741
1.2747 -5.9318 -2.4984 0.9741
2.3062 -5.6117 -2.4983 0.9741
3.2646 -5.1138 -2.4983 0.9741
4.4995 -4.0696 -2.4982 0.9741
4.8439 -3.6529 -2.4982 0.9741
5.4147 -2.7362 -2.4982 0.9741
5.8140 -1.7327 -2.4982 0.9741
5.9452 -1.2084 -2.4982 0.9741
6.0532 0.4053 -2.4982 0.9741
5.8855 1.4721 -2.4982 0.9741
4.6967 3.2241 -2.3458 0.9757
3.6781 4.3505 -2.3459 0.9757
3.2763 4.6607 -2.3459 0.9757
2.3981 5.1678 -2.3460 0.9757
1.9286 5.3608 -2.3460 0.9757
1.4439 5.5113 -2.3460 0.9757
0.9476 5.6179 -2.3460 0.9757
-0.5703 5.6689 -2.3461 0.9757
-1.0726 5.5957 -2.3461 0.9757
-2.5129 5.1136 -2.3462 0.9757
-3.3798 4.5871 -2.3462 0.9757
-4.4085 4.1696 -2.4987 0.9741
-5.0780 3.3219 -2.4987 0.9741
-5.3536 2.8568 -2.4987 0.9741
-5.5866 2.3690 -2.4987 0.9741
-5.7753 1.8623 -2.4987 0.9741
-5.9181 1.3409 -2.4987 0.9741
-3.5093 0.1565 -1.4465 0.9849
-2.7756 -0.6288 -1.1719 0.9878
-5.3535 -2.8567 -2.4987 0.9741
-5.0780 -3.3218 -2.4987 0.9741
-4.4085 -4.1695 -2.4987 0.9741
-4.0198 -4.5453 -2.4986 0.9741
-3.5993 -4.8850 -2.4986 0.9741
-2.6761 -5.4456 -2.4986 0.9741
-1.6681 -5.8337 -2.4985 0.9741
-1.1422 -5.9590 -2.4985 0.9741
-0.6073 -6.0370 -2.4985 0.9741
-0.0676 -6.0670 -2.4984 0.9741
0.4727 -6.0488 -2.4984 0.9741
4.3138 -4.2660 -2.4982 0.9741
4.6763 -3.8651 -2.4982 0.9741
5.2875 -2.9746 -2.4982 0.9741
5.5312 -2.4922 -2.4982 0.9741
5.8854 -1.4720 -2.4982 0.9741
5.9931 -0.9423 -2.4982 0.9741
6.0532 -0.4052 -2.4982 0.9741
5.9452 1.2085 -2.4982 0.9741
5.8141 1.7328 -2.4982 0.9741
8.4569 3.3658 -3.7481 0.9614
4.2251 3.8214 -2.3459 0.9757
3.8682 4.1823 -2.3459 0.9757
3.4807 4.5101 -2.3459 0.9757
3.0655 4.8020 -2.3459 0.9757
0.6964 5.6546 -2.3460 0.9757
-4.9250 3.5448 -2.4987 0.9741
-5.4755 2.6155 -2.4987 0.9741
-5.6866 2.1178 -2.4987 0.9741
-5.8525 1.6032 -2.4987 0.9741
-3.9772 0.3554 -1.6443 0.9829
-2.7539 -0.2461 -1.1927 0.9880
-2.7278 -0.4914 -1.1956 0.9880
-2.7092 -0.7421 -1.2117 0.9878
-4.7014 -3.3838 -2.4987 0.9751
-4.3815 -3.7888 -2.4987 0.9751
-4.0269 -4.1637 -2.4986 0.9751
-1.8389 -5.4925 -2.4985 0.9751
-1.3427 -5.6344 -2.4985 0.9751
-0.8359 -5.7315 -2.4985 0.9751
-0.3225 -5.7831 -2.4985 0.9751
1.7160 -5.5318 -2.4984 0.9751
3.1164 -4.8817 -2.4983 0.9751
4.2953 -3.8849 -2.4982 0.9751
4.9160 -3.0617 -2.4982 0.9751
5.5502 -1.6541 -2.4982 0.9751
5.7785 0.3869 -2.4982 0.9751
7.9220 3.5695 -3.7481 0.9629
4.4836 3.0778 -2.3459 0.9766
3.8669 3.8241 -2.3459 0.9766
3.5112 4.1531 -2.3459 0.9766
3.1276 4.4492 -2.3459 0.9766
1.8411 5.1175 -2.3460 0.9766
0.9046 5.3630 -2.3460 0.9766
0.4237 5.4223 -2.3461 0.9766
-0.0606 5.4385 -2.3461 0.9766
-1.0239 5.3417 -2.3461 0.9766
-1.9548 5.0757 -2.3462 0.9766
-2.3988 4.8815 -2.3462 0.9766
-2.8238 4.6487 -2.3462 0.9766
-3.2264 4.3790 -2.3462 0.9766
-4.8475 3.1711 -2.4987 0.9751
-5.5131 1.7778 -2.4987 0.9751
-5.6495 1.2800 -2.4987 0.9751
-2.8614 -0.1276 -1.2355 0.9876
-2.7200 -0.6162 -1.2030 0.9879
-2.7334 -1.1590 -1.2807 0.9871
-5.1105 -2.7270 -2.4987 0.9751
-4.8475 -3.1710 -2.4987 0.9751
-4.2084 -3.9802 -2.4986 0.9751
-2.0818 -5.4052 -2.4985 0.9751
-1.5924 -5.5690 -2.4985 0.9751
-1.0904 -5.6886 -2.4985 0.9751
-0.0645 -5.7917 -2.4984 0.9751
0.4512 -5.7743 -2.4984 0.9751
1.9607 -5.4498 -2.4983 0.9751
2.4380 -5.2536 -2.4983 0.9751
2.8959 -5.0157 -2.4983 0.9751
3.7392 -4.4227 -2.4983 0.9751
4.4641 -3.6896 -2.4982 0.9751
4.7748 -3.2777 -2.4982 0.9751
5.0475 -2.8397 -2.4982 0.9751
5.2802 -2.3791 -2.4982 0.9751
5.4710 -1.8997 -2.4982 0.9751
5.6184 -1.4052 -2.4982 0.9751
5.7211 -0.8996 -2.4982 0.9751
5.7785 -0.3868 -2.4982 0.9751
5.7900 0.1291 -2.4982 0.9751
5.5502 1.6542 -2.4982 0.9751
5.3810 2.1416 -2.4982 0.9751
7.7552 3.9189 -3.7481 0.9629
4.3420 3.2745 -2.3459 0.9766
3.3227 4.3054 -2.3459 0.9766
2.9264 4.5841 -2.3459 0.9766
1.6113 5.1945 -2.3460 0.9766
1.1426 5.3174 -2.3460 0.9766
0.1817 5.4358 -2.3461 0.9766
-0.3028 5.4304 -2.3461 0.9766
-0.7849 5.3820 -2.3461 0.9766
-1.2608 5.2908 -2.3461 0.9766
-2.1790 4.9835 -2.3462 0.9766
-2.6139 4.7699 -2.3462 0.9766
-4.9840 2.9521 -2.4987 0.9751
-5.5869 1.5305 -2.4987 0.9751
-5.7009 1.0271 -2.4987 0.9751
-3.8265 0.3419 -1.6572 0.9834
-2.9980 0.0000 -1.3528 0.9869
-2.6666 -1.2737 -1.3334 0.9871
-4.4945 -3.2349 -2.4987 0.9760
-4.1887 -3.6221 -2.4986 0.9760
-3.4801 -4.3073 -2.4986 0.9760
-3.0828 -4.5999 -2.4986 0.9760
-2.6612 -4.8560 -2.4986 0.9760
-1.7580 -5.2508 -2.4985 0.9760
-0.3083 -5.5285 -2.4985 0.9760
1.6405 -5.2883 -2.4984 0.9760
2.1046 -5.1213 -2.4983 0.9760
2.5521 -4.9136 -2.4983 0.9760
2.9793 -4.6669 -2.4983 0.9760
3.3828 -4.3832 -2.4983 0.9760
3.7595 -4.0646 -2.4983 0.9760
4.4205 -3.3336 -2.4982 0.9760
4.9415 -2.4970 -2.4982 0.9760
5.1442 -2.0473 -2.4982 0.9760
5.3060 -1.5813 -2.4982 0.9760
5.4694 0.8600 -2.4982 0.9760
7.5734 3.4124 -3.7481 0.9642
7.2396 4.0729 -3.7481 0.9642
4.0074 3.3122 -2.3459 0.9774
3.6967 3.6558 -2.3459 0.9774
3.3567 3.9703 -2.3459 0.9774
2.9900 4.2534 -2.3459 0.9774
2.1885 4.7162 -2.3460 0.9774
1.3177 5.0296 -2.3460 0.9774
0.8648 5.1269 -2.3460 0.9774
0.4051 5.1836 -2.3461 0.9774
-1.8688 4.8522 -2.3462 0.9774
-2.6995 4.4441 -2.3462 0.9774
-3.6685 4.1481 -2.4986 0.9760
-4.0232 3.8051 -2.4987 0.9760
-4.3459 3.4320 -2.4987 0.9760
-4.8856 2.6071 -2.4987 0.9760
-5.0983 2.1619 -2.4987 0.9760
-5.4008 1.2237 -2.4987 0.9760
-5.4883 0.7381 -2.4987 0.9760
-3.2609 0.1454 -1.4728 0.9858
-2.6659 -0.6040 -1.2334 0.9881
-4.8856 -2.6070 -2.4987 0.9760
-4.6341 -3.0315 -2.4987 0.9760
-4.3459 -3.4319 -2.4987 0.9760
-1.9902 -5.1673 -2.4985 0.9760
-0.5542 -5.5093 -2.4985 0.9760
2.7684 -4.7950 -2.4983 0.9760
3.1842 -4.5295 -2.4983 0.9760
3.5747 -4.2281 -2.4983 0.9760
3.9368 -3.8931 -2.4983 0.9760
4.5647 -3.1334 -2.4982 0.9760
4.8254 -2.7147 -2.4982 0.9760
5.2302 -1.8161 -2.4982 0.9760
5.5242 -0.3698 -2.4982 0.9760
5.5352 0.1234 -2.4982 0.9760
5.5023 0.6156 -2.4982 0.9760
5.4257 1.1028 -2.4982 0.9760
7.4139 3.7464 -3.7481 0.9642
7.0511 4.3914 -3.7481 0.9642
4.1509 3.1304 -2.3459 0.9774
3.8559 3.4875 -2.3459 0.9774
3.5302 3.8168 -2.3459 0.9774
3.1765 4.1159 -2.3459 0.9774
2.3964 4.6140 -2.3460 0.9774
1.9763 4.8090 -2.3460 0.9774
1.5404 4.9659 -2.3460 0.9774
1.0923 5.0833 -2.3460 0.9774
0.6356 5.1604 -2.3460 0.9774
-0.2895 5.1914 -2.3461 0.9774
-0.7504 5.1451 -2.3461 0.9774
-2.8948 4.3194 -2.3462 0.9774
-3.3711 4.1725 -2.4204 0.9767
-3.8497 3.9806 -2.4987 0.9760
-4.1887 3.6221 -2.4987 0.9760
-4.4945 3.2350 -2.4987 0.9760
-4.9969 2.3868 -2.4987 0.9760
-5.1895 1.9326 -2.4987 0.9760
-5.3410 1.4631 -2.4987 0.9760
-2.9112 0.0000 -1.3723 0.9872
-2.6448 -0.2363 -1.2517 0.9883
-2.6212 -0.4722 -1.2555 0.9883
-2.6016 -0.7126 -1.2715 0.9881
-2.6023 -0.9691 -1.3090 0.9878
-2.6052 -1.2444 -1.3609 0.9873
-2.6596 -1.5753 -1.4571 0.9864
-3.6850 -3.8102 -2.4986 0.9768
-3.3312 -4.1231 -2.4986 0.9768
-2.9510 -4.4031 -2.4986 0.9768
-0.2951 -5.2921 -2.4985 0.9768
0.1771 -5.2973 -2.4984 0.9768
0.6479 -5.2605 -2.4984 0.9768
1.1135 -5.1819 -2.4984 0.9768
2.4429 -4.7034 -2.4983 0.9768
3.2381 -4.1957 -2.4983 0.9768
3.5987 -3.8908 -2.4983 0.9768
3.9307 -3.5551 -2.4983 0.9768
4.2315 -3.1911 -2.4982 0.9768
4.4987 -2.8018 -2.4982 0.9768
4.7302 -2.3902 -2.4982 0.9768
5.0791 -1.5137 -2.4982 0.9768
5.1936 -1.0556 -2.4982 0.9768
5.2670 -0.5892 -2.4982 0.9768
5.2985 -0.1180 -2.4982 0.9768
5.2880 0.3540 -2.4982 0.9768
5.0066 1.7385 -2.4982 0.9768
6.9301 3.8988 -3.7481 0.9654
6.5556 4.5001 -3.7482 0.9654
2.8621 4.0714 -2.3459 0.9782
2.0949 4.5145 -2.3460 0.9782
1.2613 4.8145 -2.3460 0.9782
0.8278 4.9077 -2.3460 0.9782
0.3877 4.9620 -2.3461 0.9782
-0.0554 4.9768 -2.3461 0.9782
-1.3684 4.7855 -2.3461 0.9782
-2.1952 4.4671 -2.3462 0.9782
-2.5841 4.2540 -2.3462 0.9782
-3.8511 3.6424 -2.4987 0.9768
-5.0451 1.6269 -2.4987 0.9768
-5.1698 1.1713 -2.4987 0.9768
-3.1522 0.1406 -1.4873 0.9861
-2.7082 -0.1208 -1.2778 0.9881
-2.6131 -0.5921 -1.2630 0.9882
-2.5994 -0.8382 -1.2874 0.9880
-2.6038 -1.1041 -1.3332 0.9876
-4.4359 -2.9018 -2.4987 0.9768
-4.1600 -3.2851 -2.4986 0.9768
-3.8511 -3.6423 -2.4986 0.9768
-3.5116 -3.9706 -2.4986 0.9768
-3.1442 -4.2673 -2.4986 0.9768
-2.7519 -4.5302 -2.4986 0.9768
-2.3377 -4.7571 -2.4986 0.9768
-1.4572 -5.0962 -2.4985 0.9768
-0.9978 -5.2056 -2.4985 0.9768
-0.5305 -5.2737 -2.4985 0.9768
0.4129 -5.2841 -2.4984 0.9768
0.8816 -5.2264 -2.4984 0.9768
1.3433 -5.1271 -2.4984 0.9768
1.7943 -4.9871 -2.4984 0.9768
2.2310 -4.8076 -2.4983 0.9768
2.6500 -4.5899 -2.4983 0.9768
3.4218 -4.0473 -2.4983 0.9768
4.0852 -3.3764 -2.4983 0.9768
4.6191 -2.5986 -2.4982 0.9768
5.0066 -1.7384 -2.4982 0.9768
5.2355 -0.8232 -2.4982 0.9768
5.2880 -0.3540 -2.4982 0.9768
5.2985 0.1181 -2.4982 0.9768
5.1936 1.0557 -2.4982 0.9768
5.0791 1.5138 -2.4982 0.9768
4.9242 1.9598 -2.4982 0.9768
6.7496 4.2036 -3.7482 0.9654
6.3486 4.7877 -3.7482 0.9654
3.6910 3.3383 -2.3459 0.9782
3.3792 3.6536 -2.3459 0.9782
3.0406 3.9399 -2.3459 0.9782
1.8918 4.6034 -2.3460 0.9782
1.4745 4.7535 -2.3460 0.9782
1.0456 4.8659 -2.3460 0.9782
0.6084 4.9397 -2.3460 0.9782
0.1663 4.9743 -2.3461 0.9782
-0.2771 4.9694 -2.3461 0.9782
-0.7183 4.9251 -2.3461 0.9782
-1.1538 4.8416 -2.3461 0.9782
-3.3312 4.1232 -2.4986 0.9768
-3.6850 3.8103 -2.4986 0.9768
-4.0096 3.4672 -2.4987 0.9768
-4.5608 2.7014 -2.4987 0.9768
-5.1125 1.4005 -2.4987 0.9768
-2.8279 0.0000 -1.3909 0.9875
-2.5903 -0.2314 -1.2791 0.9885
-2.5499 -0.6985 -1.3004 0.9883
-2.5457 -1.2160 -1.3876 0.9875
-4.3709 -2.5889 -2.4987 0.9776
-3.8426 -3.3228 -2.4986 0.9776
-2.8281 -4.2198 -2.4986 0.9776
-1.6127 -4.8169 -2.4985 0.9776
-0.2828 -5.0717 -2.4985 0.9776
0.1697 -5.0768 -2.4984 0.9776
1.0672 -4.9661 -2.4984 0.9776
1.5049 -4.8514 -2.4984 0.9776
2.3412 -4.5076 -2.4983 0.9776
3.1033 -4.0211 -2.4983 0.9776
3.4489 -3.7288 -2.4983 0.9776
4.3114 -2.6852 -2.4982 0.9776
4.5333 -2.2907 -2.4982 0.9776
4.8676 -1.4506 -2.4982 0.9776
4.9774 -1.0117 -2.4982 0.9776
5.0779 -0.1131 -2.4982 0.9776
5.0678 0.3393 -2.4982 0.9776
5.0175 0.7890 -2.4982 0.9776
4.9274 1.2325 -2.4982 0.9776
4.7982 1.6662 -2.4982 0.9776
4.6309 2.0866 -2.4982 0.9776
6.6416 3.7365 -3.7482 0.9666
6.2827 4.3128 -3.7482 0.9666
5.8739 4.8549 -3.7482 0.9666
3.0794 3.6423 -2.3459 0.9790
1.2088 4.6141 -2.3460 0.9790
-0.0531 4.7696 -2.3461 0.9790
-0.8980 4.6847 -2.3461 0.9790
-1.3114 4.5862 -2.3461 0.9790
-3.0133 4.0898 -2.4986 0.9776
-4.4819 2.3917 -2.4987 0.9776
-4.6770 1.9833 -2.4987 0.9776
-4.8350 1.5591 -2.4987 0.9776
-4.9546 1.1226 -2.4987 0.9776
-5.0348 0.6771 -2.4987 0.9776
-3.0630 0.1366 -1.5081 0.9864
-2.6467 -0.1180 -1.3031 0.9883
-2.5616 -0.5804 -1.2919 0.9884
-2.5430 -0.8200 -1.3142 0.9882
-2.5441 -1.0788 -1.3592 0.9878
-3.9868 -3.1483 -2.4986 0.9776
-3.0133 -4.0896 -2.4986 0.9776
-1.3965 -4.8840 -2.4985 0.9776
-0.5084 -5.0541 -2.4985 0.9776
0.8449 -5.0087 -2.4984 0.9776
1.2873 -4.9137 -2.4984 0.9776
1.7195 -4.7795 -2.4984 0.9776
2.5397 -4.3989 -2.4983 0.9776
2.9211 -4.1553 -2.4983 0.9776
4.1875 -2.8746 -2.4982 0.9776
4.6308 -2.0865 -2.4982 0.9776
4.7982 -1.6661 -2.4982 0.9776
5.0779 0.1132 -2.4982 0.9776
4.9774 1.0117 -2.4982 0.9776
4.5333 2.2908 -2.4982 0.9776
6.0843 4.5884 -3.7482 0.9666
3.2385 3.5015 -2.3459 0.9790
2.5664 4.0203 -2.3459 0.9790
2.1985 4.2328 -2.3460 0.9790
0.1594 4.7672 -2.3461 0.9790
-0.2656 4.7625 -2.3461 0.9790
-1.9110 4.3705 -2.3462 0.9790
-3.1925 3.9515 -2.4986 0.9776
-3.8426 3.3229 -2.4987 0.9776
-4.1231 2.9677 -2.4987 0.9776
-4.7607 1.7729 -2.4987 0.9776
-4.8996 1.3422 -2.4987 0.9776
-3.6334 0.3247 -1.7942 0.9839
-2.7481 0.0000 -1.4089 0.9877
-2.5372 -0.2267 -1.3059 0.9886
-3.9557 -2.8471 -2.4986 0.9783
-3.6866 -3.1879 -2.4986 0.9783
-3.3882 -3.5033 -2.4986 0.9783
-1.9524 -4.4654 -2.4985 0.9783
-0.2713 -4.8658 -2.4985 0.9783
1.8524 -4.5074 -2.4984 0.9783
2.2462 -4.3246 -2.4983 0.9783
2.6222 -4.1075 -2.4983 0.9783
2.9773 -3.8578 -2.4983 0.9783
3.6141 -3.2687 -2.4983 0.9783
4.5276 -1.8019 -2.4982 0.9783
4.6700 -1.3918 -2.4982 0.9783
4.7753 -0.9706 -2.4982 0.9783
4.8138 0.7570 -2.4982 0.9783
4.4429 2.0019 -2.4983 0.9783
6.3719 3.5848 -3.7482 0.9677
6.0276 4.1377 -3.7482 0.9677
5.6355 4.6578 -3.7482 0.9677
2.9543 3.4944 -2.3459 0.9796
2.6316 3.7435 -2.3459 0.9796
1.5491 4.3059 -2.3460 0.9796
1.1597 4.4267 -2.3460 0.9796
0.3565 4.5623 -2.3461 0.9796
-0.0510 4.5760 -2.3461 0.9796
-0.4581 4.5533 -2.3461 0.9796
-2.4344 4.0075 -2.4039 0.9791
-2.8910 3.9237 -2.4986 0.9783
-3.8249 3.0206 -2.4986 0.9783
-4.6387 1.4958 -2.4987 0.9783
-2.9775 0.1328 -1.5280 0.9867
-2.5350 -0.3409 -1.3113 0.9886
-2.4717 -1.3189 -1.4363 0.9875
-4.0786 -2.6680 -2.4986 0.9783
-3.8249 -3.0205 -2.4986 0.9783
-3.2287 -3.6507 -2.4986 0.9783
-2.8910 -3.9236 -2.4986 0.9783
-1.7516 -4.5479 -2.4985 0.9783
-0.9175 -4.7863 -2.4985 0.9783
0.3797 -4.8585 -2.4984 0.9783
0.8106 -4.8054 -2.4984 0.9783
1.6497 -4.5855 -2.4984 0.9783
2.0513 -4.4204 -2.4983 0.9783
2.4366 -4.2202 -2.4983 0.9783
2.8025 -3.9866 -2.4983 0.9783
3.1462 -3.7213 -2.4983 0.9783
3.7561 -3.1045 -2.4983 0.9783
4.0175 -2.7578 -2.4983 0.9783
4.4428 -2.0018 -2.4982 0.9783
4.6034 -1.5984 -2.4982 0.9783
4.7274 -1.1824 -2.4982 0.9783
4.8138 -0.7569 -2.4982 0.9783
4.8621 -0.3254 -2.4982 0.9783
4.8718 0.1086 -2.4982 0.9783
4.8428 0.5418 -2.4982 0.9783
4.7753 0.9707 -2.4982 0.9783
4.6700 1.3918 -2.4982 0.9783
4.3493 2.1978 -2.4983 0.9783
6.2059 3.8651 -3.7482 0.9677
5.4223 4.9042 -3.7482 0.9677
2.1092 4.0610 -2.3460 0.9796
1.3558 4.3706 -2.3460 0.9796
0.5594 4.5419 -2.3460 0.9796
0.1529 4.5737 -2.3461 0.9796
-0.2548 4.5691 -2.3461 0.9796
-0.6604 4.5284 -2.3461 0.9796
-1.4529 4.3396 -2.3461 0.9796
-2.1992 4.0133 -2.3462 0.9796
-3.0629 3.7911 -2.4986 0.9783
-3.6866 3.1879 -2.4986 0.9783
-3.9557 2.8472 -2.4987 0.9783
-4.1934 2.4838 -2.4987 0.9783
-4.3979 2.1007 -2.4987 0.9783
-4.5674 1.7010 -2.4987 0.9783
-4.7966 0.8642 -2.4987 0.9783
-2.4853 -0.2221 -1.3321 0.9887
-2.4716 -0.4453 -1.3407 0.9887
-2.4292 -1.1603 -1.4371 0.9879
-3.7988 -2.7342 -2.4986 0.9790
-3.2538 -3.3644 -2.4986 0.9790
-2.9414 -3.6406 -2.4986 0.9790
-1.8750 -4.2882 -2.4985 0.9790
-1.0850 -4.5527 -2.4985 0.9790
-0.6754 -4.6312 -2.4985 0.9790
0.1564 -4.6774 -2.4984 0.9790
0.5721 -4.6449 -2.4984 0.9790
1.7789 -4.3286 -2.4984 0.9790
2.1571 -4.1531 -2.4983 0.9790
2.5182 -3.9446 -2.4983 0.9790
2.8593 -3.7048 -2.4983 0.9790
3.1776 -3.4356 -2.4983 0.9790
3.4708 -3.1391 -2.4983 0.9790
3.9723 -2.4739 -2.4983 0.9790
4.5859 -0.9321 -2.4982 0.9790
4.6507 -0.5203 -2.4982 0.9790
4.6229 0.7270 -2.4982 0.9790
4.5399 1.1355 -2.4982 0.9790
4.0786 2.2946 -2.4983 0.9790
5.7885 3.9736 -3.7482 0.9687
4.9924 4.9371 -3.7482 0.9687
2.8372 3.3558 -2.3459 0.9803
2.1972 3.8058 -2.3460 0.9803
1.8498 3.9863 -2.3460 0.9803
1.1137 4.2512 -2.3460 0.9803
-2.7763 3.7681 -2.4986 0.9790
-3.1007 3.5060 -2.4986 0.9790
-3.6732 2.9007 -2.4986 0.9790
-4.3091 1.8273 -2.4987 0.9790
-4.4547 1.4365 -2.4987 0.9790
-4.5648 1.0343 -2.4987 0.9790
-4.6388 0.6239 -2.4987 0.9790
-2.4621 -0.5578 -1.3477 0.9886
-2.4353 -0.7853 -1.3660 0.9885
-2.4322 -1.5911 -1.5516 0.9869
-3.6732 -2.9007 -2.4986 0.9790
-3.4004 -3.2161 -2.4986 0.9790
-3.1007 -3.5060 -2.4986 0.9790
-2.4299 -4.0001 -2.4986 0.9790
-2.0642 -4.2004 -2.4985 0.9790
-1.2867 -4.4998 -2.4985 0.9790
-0.8811 -4.5965 -2.4985 0.9790
-0.0521 -4.6798 -2.4984 0.9790
0.3646 -4.6658 -2.4984 0.9790
0.7784 -4.6148 -2.4984 0.9790
1.1861 -4.5272 -2.4984 0.9790
1.5843 -4.4036 -2.4984 0.9790
1.9700 -4.2451 -2.4983 0.9790
2.3400 -4.0529 -2.4983 0.9790
2.6914 -3.8285 -2.4983 0.9790
3.0214 -3.5737 -2.4983 0.9790
3.8582 -2.6485 -2.4983 0.9790
4.5399 -1.1355 -2.4982 0.9790
4.6229 -0.7269 -2.4982 0.9790
4.5860 0.9322 -2.4982 0.9790
4.3481 1.7305 -2.4983 0.9790
4.1768 2.1107 -2.4983 0.9790
5.9598 3.7118 -3.7482 0.9687
5.6058 4.2275 -3.7482 0.9687
5.2073 4.7097 -3.7482 0.9687
2.9838 3.2261 -2.3459 0.9803
0.5372 4.3617 -2.3460 0.9803
-0.6342 4.3488 -2.3461 0.9803
-1.0188 4.2751 -2.3461 0.9803
-1.3953 4.1675 -2.3461 0.9803
-1.7607 4.0268 -2.3462 0.9803
-2.1695 3.9589 -2.4100 0.9797
-2.6057 3.8880 -2.4986 0.9790
-2.9414 3.6407 -2.4986 0.9790
-3.2538 3.3645 -2.4986 0.9790
-3.7988 2.7342 -2.4986 0.9790
-4.0271 2.3853 -2.4987 0.9790
-4.2234 2.0174 -2.4987 0.9790
-4.3862 1.6335 -2.4987 0.9790
-4.6064 0.8299 -2.4987 0.9790
-2.5975 0.0000 -1.4427 0.9882
-2.4018 -0.6579 -1.3831 0.9887
-2.3823 -0.8872 -1.4119 0.9884
-3.6513 -2.6280 -2.4986 0.9796
-3.4029 -2.9426 -2.4986 0.9796
-3.1275 -3.2338 -2.4986 0.9796
-2.8272 -3.4993 -2.4986 0.9796
-2.1620 -3.9451 -2.4985 0.9796
-1.8022 -4.1218 -2.4985 0.9796
-1.4282 -4.2658 -2.4985 0.9796
-1.0429 -4.3760 -2.4985 0.9796
-0.2504 -4.4915 -2.4985 0.9796
0.1503 -4.4959 -2.4984 0.9796
1.3328 -4.2964 -2.4984 0.9796
1.7099 -4.1607 -2.4984 0.9796
2.7483 -3.5610 -2.4983 0.9796
3.3361 -3.0173 -2.4983 0.9796
4.1793 -1.6633 -2.4983 0.9796
4.3108 -1.2847 -2.4982 0.9796
4.4080 -0.8960 -2.4982 0.9796
4.4703 -0.5000 -2.4982 0.9796
4.4881 0.3005 -2.4982 0.9796
4.4435 0.6987 -2.4982 0.9796
4.2493 1.4756 -2.4983 0.9796
4.1011 1.8479 -2.4983 0.9796
3.9204 2.2056 -2.4983 0.9796
5.5640 3.8194 -3.7482 0.9696
5.2019 4.2995 -3.7482 0.9696
4.7986 4.7454 -3.7482 0.9696
2.1120 3.6581 -2.3460 0.9809
1.7780 3.8316 -2.3460 0.9809
-0.4228 4.2030 -2.3461 0.9809
-0.7952 4.1487 -2.3461 0.9809
-1.5182 3.9421 -2.3461 0.9809
-2.3356 3.8450 -2.4986 0.9796
-2.6686 3.6219 -2.4986 0.9796
-3.2685 3.0913 -2.4986 0.9796
-3.5307 2.7882 -2.4986 0.9796
-3.7648 2.4629 -2.4986 0.9796
-3.9691 2.1180 -2.4987 0.9796
-4.2818 1.3807 -2.4987 0.9796
-4.3877 0.9941 -2.4987 0.9796
-2.5020 0.1116 -1.3910 0.9886
-2.4351 -0.3275 -1.3646 0.9888
-2.3600 -1.2593 -1.4857 0.9878
-3.5306 -2.7881 -2.4986 0.9796
-2.3356 -3.8449 -2.4986 0.9796
-1.9841 -4.0375 -2.4985 0.9796
-1.2368 -4.3252 -2.4985 0.9796
-0.8469 -4.4181 -2.4985 0.9796
-0.4503 -4.4759 -2.4985 0.9796
-0.0501 -4.4982 -2.4984 0.9796
0.3505 -4.4847 -2.4984 0.9796
0.7482 -4.4357 -2.4984 0.9796
1.5228 -4.2327 -2.4984 0.9796
2.5869 -3.6799 -2.4983 0.9796
2.9042 -3.4351 -2.4983 0.9796
3.4672 -2.8657 -2.4983 0.9796
4.1011 -1.8478 -2.4983 0.9796
4.3637 -1.0914 -2.4982 0.9796
4.4435 -0.6987 -2.4982 0.9796
4.4970 0.1002 -2.4982 0.9796
4.4703 0.5001 -2.4982 0.9796
4.4080 0.8960 -2.4983 0.9796
4.1793 1.6634 -2.4983 0.9796
4.0147 2.0287 -2.4983 0.9796
3.8182 2.3780 -2.4983 0.9796
5.0052 4.5269 -3.7482 0.9696
2.5807 3.3439 -2.3459 0.9809
1.6056 3.9070 -2.3460 0.9809
0.8874 4.1298 -2.3460 0.9809
