ply
format ascii 1.0
element vertex 1587
property float32 x
property float32 y
property float32 z
property float32 I
end_header
-1.9476 -6.8112 -1.1281 0.9717
14.4804 2.9433 -2.3530 0.9419
12.5368 7.8080 -2.3518 0.9419
10.9502 9.9038 -2.3511 0.9420
9.0172 11.6840 -2.3502 0.9420
5.6064 13.6425 -2.3487 0.9420
4.3690 14.0842 -2.3481 0.9420
3.0974 14.4139 -2.3476 0.9420
0.4924 14.7282 -2.3466 0.9421
-0.8202 14.7103 -2.3460 0.9421
-2.1258 14.5758 -2.3455 0.9421
-3.4140 14.3257 -2.3450 0.9421
-8.1928 12.2245 -2.3433 0.9421
-11.1267 9.6216 -2.3423 0.9422
-11.9376 8.5922 -2.3421 0.9422
-13.2699 6.3385 -2.3417 0.9422
-14.0901 -1.2591 -2.4944 0.9442
-13.2599 -4.9380 -2.4950 0.9441
-12.7692 -6.0993 -2.4952 0.9441
-11.4885 -8.2689 -2.4959 0.9441
-10.7086 -9.2601 -2.4963 0.9441
-9.8435 -10.1781 -2.4967 0.9441
-8.9001 -11.0158 -2.4971 0.9441
-7.8857 -11.7663 -2.4976 0.9441
-2.3328 -6.9677 -1.2956 0.9706
2.9811 -13.8730 -2.5020 0.9440
5.3956 -13.1293 -2.5029 0.9440
7.6405 -11.9685 -2.5037 0.9440
9.6441 -10.4270 -2.5044 0.9439
12.6813 -6.4081 -2.5053 0.9439
13.6176 -4.0585 -2.5055 0.9439
14.2058 -0.3165 -2.5055 0.9439
12.6014 4.3757 -2.3521 0.9473
9.4784 9.3734 -2.3505 0.9473
6.6616 11.5382 -2.3492 0.9473
5.6071 12.0830 -2.3488 0.9473
4.5085 12.5316 -2.3483 0.9473
-0.1483 13.3064 -2.3464 0.9474
-2.5042 13.0642 -2.3455 0.9474
-3.6563 12.7871 -2.3451 0.9474
-6.9012 11.3610 -2.3439 0.9474
-8.8038 9.9546 -2.3432 0.9475
-9.6537 9.1305 -2.3430 0.9475
-11.1175 7.2728 -2.3425 0.9475
-13.0233 5.5224 -2.4943 0.9442
-13.7954 3.1257 -2.4942 0.9442
-14.0189 1.8854 -2.4942 0.9442
-14.1313 0.6301 -2.4942 0.9442
-13.0275 -5.5241 -2.4951 0.9441
-12.4856 -6.6625 -2.4954 0.9441
-9.3811 -10.6074 -2.4969 0.9441
-8.4013 -11.4023 -2.4973 0.9441
-7.3544 -12.1071 -2.4978 0.9441
-2.7038 -7.0202 -1.3265 0.9699
-2.0369 -7.1236 -1.3064 0.9704
-1.4193 -14.1087 -2.5003 0.9440
-0.1580 -14.1819 -2.5008 0.9440
1.1051 -14.1425 -2.5013 0.9440
2.3600 -13.9907 -2.5018 0.9440
4.8049 -13.3555 -2.5027 0.9440
5.9756 -12.8771 -2.5031 0.9440
8.1666 -11.6171 -2.5039 0.9440
9.1695 -10.8456 -2.5043 0.9439
10.9496 -9.0501 -2.5048 0.9439
11.7128 -8.0403 -2.5051 0.9439
12.3828 -6.9665 -2.5052 0.9439
13.7850 -3.4478 -2.5055 0.9439
14.0372 -2.2072 -2.5056 0.9439
14.1778 -0.9490 -2.5055 0.9439
12.3933 4.9325 -2.3520 0.9473
9.8873 8.9426 -2.3507 0.9473
7.1697 11.2311 -2.3495 0.9473
0.4447 13.3011 -2.3466 0.9474
-0.7408 13.2853 -2.3462 0.9474
-7.3999 11.0415 -2.3437 0.9474
-8.3522 10.3376 -2.3434 0.9475
-9.2379 9.5520 -2.3431 0.9475
-10.7830 7.7612 -2.3426 0.9475
-11.4301 6.7701 -2.3424 0.9475
-12.0417 5.7519 -2.3531 0.9472
-13.2561 4.9367 -2.4942 0.9442
-13.9209 2.5080 -2.4942 0.9442
-12.8915 0.0000 -2.4947 0.9488
-12.8409 -1.1474 -2.4948 0.9488
-12.4356 -3.4064 -2.4952 0.9488
-11.6368 -5.5584 -2.4956 0.9488
-11.0972 -6.5728 -2.4959 0.9488
-10.4694 -7.5354 -2.4962 0.9488
-8.1102 -10.0381 -2.4974 0.9488
-7.1858 -10.7220 -2.4978 0.9488
-4.1000 -12.2460 -2.4991 0.9487
-0.7194 -12.9012 -2.5005 0.9487
0.4319 -12.9164 -2.5010 0.9487
1.5800 -12.8290 -2.5014 0.9487
2.7161 -12.6396 -2.5018 0.9487
7.9046 -10.2423 -2.5037 0.9487
8.7859 -9.4992 -2.5040 0.9486
9.5976 -8.6804 -2.5043 0.9486
10.3330 -7.7924 -2.5045 0.9486
10.9864 -6.8424 -2.5047 0.9486
11.5525 -5.8377 -2.5048 0.9486
12.6854 -2.5784 -2.5050 0.9486
12.8645 -1.4391 -2.5050 0.9486
12.0067 1.8880 -2.3521 0.9517
10.5890 5.9573 -2.3512 0.9517
10.0155 6.8753 -2.3509 0.9517
9.3626 7.7384 -2.3506 0.9517
8.6354 8.5397 -2.3502 0.9517
6.9822 9.9323 -2.3495 0.9517
6.0694 10.5125 -2.3491 0.9517
5.1087 11.0091 -2.3487 0.9518
4.1079 11.4180 -2.3482 0.9518
3.0747 11.7362 -2.3478 0.9518
-0.1351 12.1248 -2.3465 0.9518
-3.3318 11.6522 -2.3453 0.9518
-4.3550 11.3076 -2.3449 0.9518
-5.3433 10.8734 -2.3445 0.9518
-7.1846 9.7510 -2.3439 0.9519
-8.0230 9.0718 -2.3436 0.9519
-9.5024 7.5040 -2.3431 0.9519
-10.1318 6.6280 -2.3429 0.9519
-11.8688 5.0328 -2.4948 0.9488
-12.2692 3.9563 -2.4947 0.9488
-12.5724 2.8486 -2.4947 0.9488
-12.7761 1.7183 -2.4947 0.9488
-12.8785 0.5743 -2.4947 0.9488
-12.8790 -0.5743 -2.4948 0.9488
-12.7774 -1.7184 -2.4949 0.9488
-12.5745 -2.8490 -2.4951 0.9488
-10.1240 -7.9948 -2.4964 0.9488
-9.3736 -8.8655 -2.4968 0.9488
-7.6557 -10.3903 -2.4976 0.9488
-4.6410 -12.0501 -2.4989 0.9488
-0.1439 -12.9216 -2.5007 0.9487
1.0069 -12.8855 -2.5012 0.9487
2.1502 -12.7470 -2.5016 0.9487
3.2768 -12.5071 -2.5020 0.9487
4.3776 -12.1679 -2.5025 0.9487
7.4401 -10.5836 -2.5036 0.9487
8.3536 -9.8806 -2.5039 0.9487
9.9752 -8.2447 -2.5044 0.9486
10.6703 -7.3247 -2.5046 0.9486
11.2807 -6.3464 -2.5048 0.9486
11.8014 -5.3174 -2.5049 0.9486
12.2282 -4.2461 -2.5050 0.9486
12.9157 -0.8646 -2.5050 0.9486
11.6466 3.4711 -2.3518 0.9517
8.9961 4.5459 -1.9505 0.9598
10.3125 6.4227 -2.3511 0.9517
9.6987 7.3142 -2.3507 0.9517
9.0079 8.1472 -2.3504 0.9517
7.4183 9.6122 -2.3497 0.9517
5.5946 10.7715 -2.3489 0.9518
-0.6750 12.1057 -2.3463 0.9518
-3.8473 11.4913 -2.3451 0.9518
-4.8540 11.1015 -2.3447 0.9518
-5.8220 10.6238 -2.3444 0.9518
-8.4187 8.7049 -2.3435 0.9519
-10.4167 6.1698 -2.3429 0.9519
-12.0810 4.4990 -2.4947 0.9488
-12.4331 3.4058 -2.4947 0.9488
-12.8400 1.1474 -2.4947 0.9488
-11.4168 -3.1273 -2.4956 0.9528
-10.1877 -6.0342 -2.4962 0.9527
-9.6113 -6.9178 -2.4965 0.9527
-7.4452 -9.2151 -2.4976 0.9527
-5.6952 -10.3924 -2.4983 0.9527
-3.7636 -11.2412 -2.4992 0.9527
0.3964 -11.8559 -2.5009 0.9527
1.4503 -11.7755 -2.5013 0.9527
3.5163 -11.3354 -2.5021 0.9526
4.5119 -10.9790 -2.5024 0.9526
5.4719 -10.5353 -2.5028 0.9526
6.3887 -10.0078 -2.5031 0.9526
8.8086 -7.9669 -2.5039 0.9526
9.4835 -7.1519 -2.5041 0.9526
10.6027 -5.3577 -2.5044 0.9526
11.0379 -4.3929 -2.5045 0.9526
11.8067 -1.3207 -2.5046 0.9526
11.8532 0.7935 -2.5045 0.9526
10.8209 2.7065 -2.3515 0.9554
9.7187 5.4677 -2.3509 0.9554
8.5932 7.1025 -2.3503 0.9554
7.9259 7.8381 -2.3500 0.9555
7.1958 8.5112 -2.3497 0.9555
6.4087 9.1166 -2.3493 0.9555
5.5710 9.6492 -2.3489 0.9555
4.6893 10.1052 -2.3486 0.9555
2.8224 10.7729 -2.3478 0.9555
1.8520 10.9794 -2.3474 0.9555
0.8673 11.0988 -2.3470 0.9555
-0.1240 11.1301 -2.3466 0.9555
-1.1140 11.0730 -2.3462 0.9555
-2.0947 10.9282 -2.3458 0.9555
-3.9980 10.3805 -2.3451 0.9555
-4.9053 9.9820 -2.3448 0.9556
-5.7735 9.5046 -2.3445 0.9556
-6.5958 8.9519 -2.3442 0.9556
-7.3655 8.3284 -2.3439 0.9556
-8.0768 7.6390 -2.3437 0.9556
-8.7239 6.8892 -2.3435 0.9556
-9.3018 6.0849 -2.3433 0.9556
-10.0947 5.3867 -2.4122 0.9543
-11.2642 3.6322 -2.4951 0.9528
-11.8236 0.5272 -2.4951 0.9528
-11.7306 -1.5776 -2.4953 0.9528
-11.5444 -2.6156 -2.4955 0.9528
-11.2666 -3.6329 -2.4956 0.9528
-10.8995 -4.6217 -2.4959 0.9528
-10.4459 -5.5741 -2.4961 0.9528
-9.2942 -7.3396 -2.4967 0.9527
-7.0279 -9.5383 -2.4978 0.9527
-4.2603 -11.0615 -2.4990 0.9527
-3.2594 -11.3987 -2.4994 0.9527
-2.2323 -11.6455 -2.4998 0.9527
0.9242 -11.8275 -2.5011 0.9527
1.9736 -11.7002 -2.5015 0.9527
7.6670 -9.0685 -2.5035 0.9526
9.1552 -7.5669 -2.5040 0.9526
9.7931 -6.7225 -2.5042 0.9526
10.3532 -5.8246 -2.5044 0.9526
10.8310 -4.8802 -2.5045 0.9526
11.2228 -3.8969 -2.5046 0.9526
11.8537 -0.7935 -2.5046 0.9526
11.8770 0.2647 -2.5045 0.9526
10.6892 3.1857 -2.3514 0.9554
8.9713 4.5334 -2.1191 0.9597
9.4650 5.8948 -2.3508 0.9554
8.9017 6.7131 -2.3505 0.9554
7.5683 8.1828 -2.3498 0.9555
3.2997 10.6373 -2.3480 0.9555
0.3720 11.1255 -2.3468 0.9555
-0.6196 11.1126 -2.3464 0.9555
-1.6060 11.0116 -2.3460 0.9555
-3.5318 10.5491 -2.3453 0.9555
-5.3447 9.7530 -2.3446 0.9556
-6.9876 8.6487 -2.3440 0.9556
-7.7288 7.9916 -2.3438 0.9556
-9.0218 6.4935 -2.3434 0.9556
-11.4147 3.1268 -2.4951 0.9528
-11.6476 2.0984 -2.4951 0.9528
-10.8906 -0.9732 -2.4956 0.9561
-10.7612 -1.9387 -2.4957 0.9561
-7.6067 -7.8652 -2.4974 0.9561
-6.0933 -9.0918 -2.4981 0.9561
-4.3860 -10.0311 -2.4988 0.9561
-3.4763 -10.3833 -2.4992 0.9561
-2.5388 -10.6532 -2.4996 0.9561
-1.5808 -10.8385 -2.5000 0.9561
1.3395 -10.8761 -2.5012 0.9560
2.3026 -10.7153 -2.5015 0.9560
3.2476 -10.4693 -2.5019 0.9560
5.9005 -9.2429 -2.5028 0.9560
6.7004 -8.6820 -2.5031 0.9560
8.1352 -7.3578 -2.5036 0.9560
8.7584 -6.6050 -2.5038 0.9560
9.7919 -4.9480 -2.5041 0.9560
10.5147 -3.1337 -2.5042 0.9560
10.7520 -2.1854 -2.5043 0.9560
9.7307 3.3789 -2.3510 0.9586
8.9758 5.0497 -2.3506 0.9586
7.3202 7.2392 -2.3498 0.9586
6.6460 7.8609 -2.3495 0.9586
5.1454 8.9122 -2.3488 0.9587
4.3311 9.3334 -2.3485 0.9587
3.4827 9.6804 -2.3481 0.9587
1.7106 10.1413 -2.3474 0.9587
-0.1145 10.2807 -2.3466 0.9587
-1.0290 10.2281 -2.3463 0.9587
-1.9349 10.0945 -2.3459 0.9587
-2.8253 9.8808 -2.3456 0.9587
-3.6930 9.5888 -2.3453 0.9587
-5.3333 8.7799 -2.3447 0.9587
-6.8041 7.6935 -2.3442 0.9587
-8.0590 6.3641 -2.3438 0.9587
-8.5928 5.6212 -2.3436 0.9587
-10.0661 4.2684 -2.4955 0.9561
-10.4058 3.3555 -2.4955 0.9561
-10.9226 0.4871 -2.4955 0.9561
-10.9229 -0.4871 -2.4956 0.9561
-10.8366 -1.4574 -2.4957 0.9561
-10.4078 -3.3561 -2.4960 0.9561
-10.0686 -4.2694 -2.4962 0.9561
-9.6495 -5.1491 -2.4964 0.9561
-8.5855 -6.7799 -2.4969 0.9561
-7.2492 -8.1969 -2.4976 0.9561
-6.4918 -8.8107 -2.4979 0.9561
-3.9351 -10.2173 -2.4990 0.9561
-2.0618 -10.7565 -2.4998 0.9561
-0.1220 -10.9551 -2.5006 0.9560
2.7778 -10.6029 -2.5017 0.9560
3.7110 -10.3150 -2.5021 0.9560
4.6150 -9.9451 -2.5024 0.9560
7.7990 -7.7126 -2.5035 0.9560
8.4552 -6.9884 -2.5037 0.9560
9.0443 -6.2085 -2.5039 0.9560
9.5615 -5.3792 -2.5040 0.9560
10.3646 -3.5989 -2.5042 0.9560
10.6439 -2.6622 -2.5042 0.9560
10.9472 -0.7328 -2.5042 0.9560
10.0952 2.0520 -2.3513 0.9586
9.8719 2.9422 -2.3511 0.9586
8.9465 4.5209 -2.2879 0.9597
8.2213 6.2000 -2.3502 0.9586
6.9900 7.5576 -2.3497 0.9586
5.5378 8.6748 -2.3490 0.9587
4.7430 9.1319 -2.3487 0.9587
3.9108 9.5163 -2.3483 0.9587
3.0478 9.8252 -2.3479 0.9587
2.1609 10.0558 -2.3476 0.9587
1.2571 10.2067 -2.3472 0.9587
-0.5724 10.2646 -2.3465 0.9587
-1.4835 10.1714 -2.3461 0.9587
-2.3825 9.9975 -2.3458 0.9587
-4.1162 9.4142 -2.3451 0.9587
-6.4549 7.9894 -2.3443 0.9587
-7.1397 7.3824 -2.3441 0.9587
-7.7678 6.7171 -2.3439 0.9587
-8.8345 5.2327 -2.3436 0.9587
-10.2461 3.8157 -2.4955 0.9561
-10.7600 1.9385 -2.4954 0.9561
-9.5174 -3.5443 -2.4963 0.9590
-9.1649 -4.3777 -2.4965 0.9590
-8.2451 -5.9345 -2.4970 0.9590
-7.6850 -6.6454 -2.4973 0.9590
-7.0639 -7.3040 -2.4976 0.9590
-5.6584 -8.4429 -2.4982 0.9590
-4.8851 -8.9142 -2.4986 0.9590
-4.0729 -9.3149 -2.4989 0.9590
-1.4678 -10.0644 -2.5000 0.9590
-0.5663 -10.1565 -2.5004 0.9590
0.3400 -10.1681 -2.5007 0.9590
1.2438 -10.0989 -2.5011 0.9590
3.8692 -9.4152 -2.5021 0.9589
6.2213 -8.0611 -2.5029 0.9589
6.9147 -7.4761 -2.5031 0.9589
7.5533 -6.8315 -2.5033 0.9589
8.1319 -6.1325 -2.5035 0.9589
9.0914 -4.5941 -2.5038 0.9589
9.7625 -2.9095 -2.5039 0.9589
10.1842 -0.2269 -2.5039 0.9589
10.1636 0.6804 -2.5038 0.9589
9.2786 2.3208 -2.3509 0.9614
9.0347 3.1372 -2.3508 0.9614
7.8827 5.4112 -2.3502 0.9614
7.3690 6.0907 -2.3499 0.9614
5.4961 7.8183 -2.3490 0.9614
4.7777 8.2753 -2.3487 0.9614
4.0217 8.6665 -2.3484 0.9614
3.2339 8.9887 -2.3481 0.9614
1.5884 9.4170 -2.3474 0.9614
0.7439 9.5196 -2.3470 0.9614
-0.9555 9.4979 -2.3464 0.9614
-1.7968 9.3739 -2.3460 0.9614
-4.2079 8.5629 -2.3452 0.9615
-5.6582 7.6795 -2.3446 0.9615
-6.9289 6.5534 -2.3442 0.9615
-7.4842 5.9102 -2.3440 0.9615
-9.6638 3.1162 -2.4958 0.9590
-9.9026 2.2437 -2.4958 0.9590
-10.1437 0.4523 -2.4958 0.9590
-10.1440 -0.4523 -2.4959 0.9590
-10.0638 -1.3534 -2.4960 0.9590
-9.6655 -3.1167 -2.4962 0.9590
-8.9612 -4.7819 -2.4966 0.9590
-7.9730 -6.2962 -2.4971 0.9590
-7.3818 -6.9816 -2.4974 0.9590
-6.7319 -7.6119 -2.4977 0.9590
-3.6542 -9.4878 -2.4991 0.9590
-2.7956 -9.7768 -2.4994 0.9590
-1.0181 -10.1205 -2.5002 0.9590
-0.1133 -10.1724 -2.5005 0.9590
1.6926 -10.0342 -2.5012 0.9590
2.5793 -9.8450 -2.5016 0.9589
5.0905 -8.8170 -2.5025 0.9589
6.5745 -7.7763 -2.5030 0.9589
8.3973 -5.7644 -2.5036 0.9589
9.2872 -4.1846 -2.5038 0.9589
9.8825 -2.4717 -2.5039 0.9589
10.0632 -1.5824 -2.5039 0.9589
10.1641 -0.6804 -2.5039 0.9589
10.1230 1.1324 -2.5038 0.9589
7.0900 6.4126 -2.3498 0.9614
6.4903 7.0173 -2.3495 0.9614
5.8393 7.5662 -2.3492 0.9614
4.4041 8.4794 -2.3486 0.9614
1.1673 9.4777 -2.3472 0.9614
0.3190 9.5426 -2.3469 0.9614
-0.5315 9.5318 -2.3465 0.9614
-2.2125 9.2840 -2.3459 0.9615
-3.8225 8.7424 -2.3453 0.9615
-5.3108 7.9243 -2.3448 0.9615
-5.9944 7.4194 -2.3445 0.9615
-7.7398 5.5708 -2.3440 0.9615
-8.6333 5.1136 -2.4664 0.9595
-9.1626 4.3766 -2.4959 0.9590
-9.7929 2.6826 -2.4958 0.9590
-9.4728 0.0000 -2.4961 0.9616
-8.8789 -3.3065 -2.4966 0.9616
-8.5500 -4.0840 -2.4968 0.9616
-7.6918 -5.5362 -2.4972 0.9616
-2.1991 -9.2279 -2.4996 0.9615
-0.5283 -9.4741 -2.5003 0.9615
1.1602 -9.4202 -2.5010 0.9615
4.3769 -8.4271 -2.5022 0.9615
5.1101 -8.0049 -2.5024 0.9615
5.8029 -7.5190 -2.5027 0.9615
7.0453 -6.3720 -2.5031 0.9615
8.0644 -5.0226 -2.5034 0.9615
8.8278 -3.5134 -2.5036 0.9615
9.1057 -2.7138 -2.5036 0.9615
9.4990 -0.2116 -2.5036 0.9615
9.4799 0.6346 -2.5035 0.9615
14.0784 2.2137 -3.7553 0.9428
13.8248 3.4578 -3.7551 0.9428
7.3527 5.0473 -2.3500 0.9638
6.8735 5.6812 -2.3497 0.9638
5.7561 6.8083 -2.3492 0.9638
3.7514 8.0841 -2.3483 0.9638
1.4817 8.7844 -2.3474 0.9638
-0.0992 8.9055 -2.3468 0.9638
-0.8913 8.8602 -2.3464 0.9638
-2.4475 8.5596 -2.3459 0.9638
-3.1993 8.3069 -2.3456 0.9638
-5.2786 7.1642 -2.3448 0.9639
-5.8948 6.6653 -2.3446 0.9639
-6.9821 5.5137 -2.3443 0.9639
-8.3578 4.4599 -2.4962 0.9616
-9.2384 2.0932 -2.4960 0.9616
-9.3881 1.2626 -2.4960 0.9616
-9.4633 0.4220 -2.4961 0.9616
-9.4636 -0.4220 -2.4961 0.9616
-9.0171 -2.9076 -2.4965 0.9616
-8.7231 -3.6989 -2.4967 0.9616
-8.3600 -4.4610 -2.4969 0.9616
-6.8864 -6.5130 -2.4976 0.9616
-5.6238 -7.6326 -2.4982 0.9615
-3.4088 -8.8506 -2.4991 0.9615
-1.7860 -9.3173 -2.4998 0.9615
-0.9497 -9.4406 -2.5002 0.9615
0.7394 -9.4619 -2.5008 0.9615
1.5788 -9.3598 -2.5011 0.9615
3.2141 -8.9338 -2.5018 0.9615
3.9970 -8.6132 -2.5020 0.9615
5.4619 -7.7697 -2.5026 0.9615
6.1324 -7.2533 -2.5028 0.9615
6.7541 -6.6793 -2.5030 0.9615
7.3224 -6.0521 -2.5032 0.9615
8.6624 -3.9031 -2.5036 0.9615
8.9757 -3.1166 -2.5036 0.9615
9.3862 -1.4759 -2.5037 0.9615
9.4803 -0.6346 -2.5036 0.9615
9.4989 0.2117 -2.5036 0.9615
13.9655 2.8386 -3.7552 0.9428
8.5492 2.5479 -2.3506 0.9638
7.5706 4.7150 -2.3501 0.9638
7.1202 5.3696 -2.3499 0.9638
6.6133 5.9814 -2.3496 0.9638
5.4467 7.0576 -2.3491 0.9638
4.7964 7.5134 -2.3488 0.9638
3.3874 8.2426 -2.3482 0.9638
2.6399 8.5103 -2.3479 0.9638
1.8717 8.7103 -2.3475 0.9638
-2.0639 8.6607 -2.3460 0.9638
-4.9544 7.3926 -2.3449 0.9639
-6.1856 6.3959 -2.3445 0.9639
-7.2206 5.1971 -2.3442 0.9639
-8.1510 4.8279 -2.4963 0.9616
-8.8772 3.3060 -2.4961 0.9616
-3.7904 -1.0383 -1.1057 0.9838
-7.6364 -4.5230 -2.4971 0.9638
-7.2041 -5.1852 -2.4974 0.9638
-6.7147 -5.8064 -2.4976 0.9638
-6.1719 -6.3817 -2.4979 0.9638
-5.5800 -6.9064 -2.4981 0.9638
-4.9437 -7.3765 -2.4984 0.9638
-4.2680 -7.7882 -2.4987 0.9638
-2.8202 -8.4236 -2.4993 0.9638
-2.0596 -8.6423 -2.4997 0.9638
-1.2823 -8.7924 -2.5000 0.9638
-0.4947 -8.8728 -2.5003 0.9637
1.0866 -8.8221 -2.5009 0.9637
2.6341 -8.4917 -2.5015 0.9637
3.3799 -8.2244 -2.5018 0.9637
4.7855 -7.4963 -2.5023 0.9637
5.4342 -7.0413 -2.5025 0.9637
6.0399 -6.5302 -2.5027 0.9637
6.5976 -5.9671 -2.5029 0.9637
7.1030 -5.3566 -2.5030 0.9637
7.5519 -4.7034 -2.5032 0.9637
7.9409 -4.0127 -2.5033 0.9637
8.2668 -3.2901 -2.5034 0.9637
8.5270 -2.5413 -2.5034 0.9637
8.7194 -1.7723 -2.5034 0.9637
8.8425 -0.9892 -2.5034 0.9637
8.8953 -0.1982 -2.5034 0.9637
7.2795 4.0954 -2.3500 0.9659
6.8855 4.7267 -2.3498 0.9659
6.4369 5.3203 -2.3496 0.9659
5.3905 6.3760 -2.3491 0.9659
4.8011 6.8296 -2.3488 0.9659
2.1147 8.0718 -2.3477 0.9659
1.3877 8.2269 -2.3474 0.9659
0.6499 8.3167 -2.3471 0.9659
-1.5699 8.1899 -2.3462 0.9659
-2.2923 8.0167 -2.3460 0.9659
-2.9964 7.7800 -2.3457 0.9660
-4.3275 7.1240 -2.3452 0.9660
-4.9439 6.7100 -2.3450 0.9660
-6.0543 5.7262 -2.3446 0.9660
-7.4256 4.8576 -2.4965 0.9638
-7.8281 4.1772 -2.4964 0.9638
-8.6530 1.9605 -2.4963 0.9638
-8.7931 1.1826 -2.4963 0.9638
-3.7396 -0.5029 -1.0616 0.9844
-3.7659 -0.8533 -1.0864 0.9841
-8.4456 -2.7233 -2.4967 0.9638
-7.4276 -4.8589 -2.4973 0.9638
-3.9171 -7.9710 -2.4989 0.9638
-3.1925 -8.2891 -2.4992 0.9638
-2.4423 -8.5414 -2.4995 0.9638
-0.8894 -8.8414 -2.5001 0.9637
-0.0990 -8.8865 -2.5004 0.9637
1.4786 -8.7655 -2.5011 0.9637
2.2531 -8.6001 -2.5014 0.9637
3.0100 -8.3664 -2.5016 0.9637
6.3250 -6.2549 -2.5028 0.9637
6.8571 -5.6675 -2.5030 0.9637
7.3347 -5.0350 -2.5031 0.9637
8.1119 -3.6550 -2.5033 0.9637
8.4052 -2.9186 -2.5034 0.9637
8.6318 -2.1589 -2.5034 0.9637
8.7897 -1.3821 -2.5034 0.9637
8.8952 0.1983 -2.5033 0.9637
13.0780 2.6582 -3.7548 0.9461
7.7613 3.0890 -2.3503 0.9659
7.4551 3.7672 -2.3501 0.9659
5.6695 6.1298 -2.3492 0.9659
4.4918 7.0363 -2.3487 0.9659
3.8473 7.4073 -2.3484 0.9659
2.4723 7.9701 -2.3478 0.9659
1.7529 8.1575 -2.3475 0.9659
-1.9330 8.1114 -2.3461 0.9659
-2.6470 7.9062 -2.3458 0.9659
-4.6403 6.9239 -2.3451 0.9660
-5.2377 6.4828 -2.3449 0.9660
-6.3032 5.4506 -2.3446 0.9660
-6.7629 4.8677 -2.3444 0.9660
-7.6344 4.5219 -2.4965 0.9638
-8.0062 3.8243 -2.4964 0.9638
-8.7317 1.5731 -2.4963 0.9638
-8.8371 0.7897 -2.4963 0.9638
-3.5918 -0.3210 -1.0796 0.9851
-3.4798 -0.6269 -1.0586 0.9853
-3.4925 -0.9567 -1.0841 0.9850
-7.8160 -2.9107 -2.4970 0.9658
-7.1771 -4.2510 -2.4973 0.9658
-6.3108 -5.4571 -2.4977 0.9658
-5.2443 -6.4909 -2.4982 0.9658
-4.6462 -6.9326 -2.4985 0.9658
-4.0112 -7.3195 -2.4988 0.9658
-3.3442 -7.6483 -2.4991 0.9657
-1.2051 -8.2630 -2.5000 0.9657
0.2791 -8.3478 -2.5006 0.9657
1.0211 -8.2907 -2.5008 0.9657
1.7552 -8.1679 -2.5011 0.9657
2.4755 -7.9801 -2.5014 0.9657
3.1763 -7.7289 -2.5017 0.9657
4.4971 -7.0446 -2.5021 0.9657
5.1067 -6.6170 -2.5023 0.9657
5.6758 -6.1366 -2.5025 0.9657
8.0129 -2.3881 -2.5032 0.9657
8.1937 -1.6654 -2.5032 0.9657
8.3094 -0.9295 -2.5032 0.9657
8.3591 -0.1863 -2.5032 0.9657
8.3423 0.5585 -2.5031 0.9657
8.2592 1.2987 -2.5030 0.9657
12.1659 3.0429 -3.7544 0.9490
7.1567 3.2247 -2.3500 0.9678
6.8408 3.8486 -2.3499 0.9678
6.4706 4.4418 -2.3497 0.9678
5.5795 5.5177 -2.3492 0.9678
3.9223 6.7936 -2.3485 0.9678
3.3017 7.1149 -2.3482 0.9678
2.6550 7.3797 -2.3480 0.9678
0.6108 7.8161 -2.3471 0.9678
-0.0873 7.8385 -2.3468 0.9678
-1.4754 7.6971 -2.3463 0.9678
-2.1544 7.5344 -2.3460 0.9678
-2.8161 7.3120 -2.3458 0.9678
-3.4554 7.0316 -2.3456 0.9678
-5.1890 5.8673 -2.3450 0.9678
-5.6903 5.3818 -2.3448 0.9678
-6.1463 4.8537 -2.3447 0.9678
-6.9791 4.5655 -2.4967 0.9658
-8.1327 1.8427 -2.4965 0.9658
-4.8506 0.2163 -1.4536 0.9799
-7.6789 -3.2561 -2.4970 0.9658
-6.5473 -5.1704 -2.4976 0.9658
-6.0617 -5.7331 -2.4979 0.9658
-4.9502 -6.7184 -2.4984 0.9658
-4.3330 -7.1331 -2.4986 0.9658
-3.0003 -7.7901 -2.4992 0.9657
-2.2953 -8.0272 -2.4995 0.9657
-0.8359 -8.3090 -2.5001 0.9657
0.6507 -8.3275 -2.5007 0.9657
3.5176 -7.5801 -2.5018 0.9657
4.1787 -7.2377 -2.5020 0.9657
5.9438 -5.8779 -2.5026 0.9657
6.4438 -5.3259 -2.5028 0.9657
7.8985 -2.7427 -2.5032 0.9657
8.2598 -1.2988 -2.5032 0.9657
8.3590 0.1863 -2.5031 0.9657
7.2935 2.9028 -2.3501 0.9678
5.3279 5.7605 -2.3491 0.9678
4.7936 6.2112 -2.3489 0.9678
4.2212 6.6125 -2.3486 0.9678
2.9813 7.2545 -2.3481 0.9678
1.6474 7.6663 -2.3475 0.9678
0.9584 7.7816 -2.3473 0.9678
0.2620 7.8351 -2.3470 0.9678
-1.1311 7.7556 -2.3464 0.9678
-3.7650 6.8704 -2.3455 0.9678
-4.3612 6.5074 -2.3452 0.9678
-5.4450 5.6302 -2.3449 0.9678
-7.5249 3.5944 -2.4966 0.9658
-7.8147 2.9103 -2.4965 0.9658
-8.0426 2.2031 -2.4965 0.9658
-8.2067 1.4785 -2.4965 0.9658
-8.3058 0.7422 -2.4965 0.9658
-3.2843 -0.5917 -1.0598 0.9861
-3.2540 -0.8914 -1.0715 0.9859
-6.3831 -4.5942 -2.4976 0.9675
-5.9493 -5.1446 -2.4979 0.9675
-5.4683 -5.6542 -2.4981 0.9675
-4.9438 -6.1191 -2.4983 0.9675
-3.1525 -7.2100 -2.4991 0.9675
-2.4986 -7.4628 -2.4994 0.9675
-1.1360 -7.7893 -2.5000 0.9675
-0.4383 -7.8604 -2.5002 0.9675
0.2631 -7.8691 -2.5005 0.9675
1.6545 -7.6995 -2.5011 0.9675
2.3335 -7.5224 -2.5013 0.9675
2.9941 -7.2856 -2.5016 0.9675
3.6310 -6.9908 -2.5018 0.9675
4.2391 -6.6404 -2.5020 0.9675
4.8137 -6.2373 -2.5022 0.9675
6.6894 -4.1662 -2.5028 0.9675
7.0339 -3.5544 -2.5029 0.9675
7.5530 -2.2510 -2.5030 0.9675
7.8793 -0.1756 -2.5030 0.9675
7.8635 0.5264 -2.5029 0.9675
7.7852 1.2242 -2.5028 0.9675
11.4677 2.8683 -3.7542 0.9516
6.7461 3.0397 -2.3499 0.9694
6.4483 3.6278 -2.3497 0.9694
5.7020 4.7129 -2.3494 0.9694
4.7752 5.6482 -2.3489 0.9694
4.2531 6.0501 -2.3487 0.9694
1.2294 7.2885 -2.3474 0.9695
0.5758 7.3681 -2.3471 0.9695
-0.7396 7.3518 -2.3466 0.9695
-1.3909 7.2561 -2.3464 0.9695
-2.0310 7.1027 -2.3461 0.9695
-2.6548 6.8931 -2.3459 0.9695
-3.2575 6.6288 -2.3457 0.9695
-3.8342 6.3121 -2.3455 0.9695
-4.3805 5.9452 -2.3453 0.9695
-4.8919 5.5314 -2.3451 0.9695
-5.8669 4.6331 -2.3742 0.9691
-6.5795 4.3041 -2.4969 0.9675
-6.9362 3.7013 -2.4968 0.9675
-7.2379 3.0692 -2.4968 0.9675
-7.4822 2.4127 -2.4967 0.9675
-3.4557 -0.1541 -1.0986 0.9856
-7.2392 -3.0697 -2.4972 0.9675
-6.9377 -3.7020 -2.4974 0.9675
-6.1723 -4.8742 -2.4978 0.9675
-5.7145 -5.4047 -2.4980 0.9675
-5.2113 -5.8924 -2.4982 0.9675
-3.4704 -7.0620 -2.4990 0.9675
-2.8284 -7.3437 -2.4993 0.9675
-2.1638 -7.5671 -2.4995 0.9675
-1.4818 -7.7306 -2.4998 0.9675
-0.7880 -7.8327 -2.5001 0.9675
-0.0877 -7.8726 -2.5004 0.9675
0.6134 -7.8500 -2.5007 0.9675
1.3098 -7.7651 -2.5009 0.9675
1.9960 -7.6185 -2.5012 0.9675
3.3158 -7.1453 -2.5017 0.9675
3.9389 -6.8224 -2.5019 0.9675
4.5309 -6.4453 -2.5021 0.9675
6.0740 -5.0202 -2.5026 0.9675
7.1854 -3.2375 -2.5029 0.9675
7.6459 -1.9123 -2.5030 0.9675
7.8792 0.1756 -2.5029 0.9675
7.7228 1.5697 -2.5028 0.9675
11.3283 3.3762 -3.7541 0.9516
6.8750 2.7362 -2.3500 0.9694
6.6038 3.3370 -2.3498 0.9694
5.4862 4.9620 -2.3493 0.9694
4.5186 5.8550 -2.3488 0.9694
3.9792 6.2333 -2.3486 0.9694
2.8103 6.8385 -2.3481 0.9694
2.1903 7.0608 -2.3478 0.9695
1.5530 7.2269 -2.3475 0.9695
0.9035 7.3356 -2.3473 0.9695
0.2469 7.3861 -2.3470 0.9695
-0.4114 7.3779 -2.3467 0.9695
-1.0663 7.3112 -2.3465 0.9695
-1.7126 7.1865 -2.3462 0.9695
-2.9591 6.7677 -2.3458 0.9695
-3.5494 6.4769 -2.3456 0.9695
-4.1114 6.1347 -2.3454 0.9695
-4.6408 5.7440 -2.3452 0.9695
-5.1332 5.3078 -2.3450 0.9695
-5.5849 4.8296 -2.3449 0.9695
-6.3814 4.5930 -2.4970 0.9675
-6.7645 4.0067 -2.4969 0.9675
-7.0941 3.3886 -2.4968 0.9675
-7.3673 2.7436 -2.4967 0.9675
-7.7369 1.3939 -2.4967 0.9675
-3.6184 0.0000 -1.2157 0.9848
-3.1349 -0.8587 -1.0921 0.9864
-6.9654 -2.5939 -2.4973 0.9691
-6.7073 -3.2038 -2.4974 0.9691
-6.0338 -4.3429 -2.4978 0.9691
-5.1691 -5.3448 -2.4982 0.9691
-4.1403 -6.1778 -2.4987 0.9691
-2.9800 -6.8153 -2.4992 0.9691
-2.3618 -7.0543 -2.4994 0.9691
-1.0738 -7.3629 -2.5000 0.9691
1.5639 -7.2777 -2.5010 0.9691
2.2056 -7.1103 -2.5012 0.9691
3.4320 -6.6077 -2.5017 0.9691
4.0068 -6.2765 -2.5019 0.9691
5.0569 -5.4675 -2.5022 0.9691
5.9469 -4.4847 -2.5025 0.9691
6.6483 -3.3596 -2.5027 0.9691
7.3001 -1.4838 -2.5028 0.9691
7.4031 -0.8281 -2.5028 0.9691
7.4474 -0.1659 -2.5028 0.9691
7.4324 0.4976 -2.5027 0.9691
7.3584 1.1571 -2.5027 0.9691
7.2259 1.8073 -2.5026 0.9691
10.5543 3.6649 -3.7538 0.9539
2.3657 6.5755 -2.3479 0.9709
1.7709 6.7593 -2.3477 0.9709
-0.0778 6.9848 -2.3469 0.9710
-1.9198 6.7140 -2.3462 0.9710
-3.0793 6.2661 -2.3458 0.9710
-3.6245 5.9667 -2.3456 0.9710
-4.6243 5.2287 -2.3452 0.9710
-5.0710 4.7961 -2.3451 0.9710
-6.5568 3.4988 -2.4970 0.9691
-6.8420 2.9013 -2.4969 0.9691
-7.0729 2.2808 -2.4969 0.9691
-7.3652 0.9905 -2.4969 0.9691
-3.2675 -0.1457 -1.0989 0.9863
-3.1418 -1.0131 -1.1091 0.9862
-6.5581 -3.4995 -2.4975 0.9691
-5.8346 -4.6075 -2.4979 0.9691
-5.4018 -5.1090 -2.4981 0.9691
-3.2804 -6.6755 -2.4990 0.9691
-2.6735 -6.9417 -2.4993 0.9691
-2.0453 -7.1529 -2.4996 0.9691
2.5203 -7.0053 -2.5013 0.9691
3.7231 -6.4486 -2.5018 0.9691
4.2826 -6.0921 -2.5020 0.9691
5.2956 -5.2369 -2.5023 0.9691
5.7410 -4.7451 -2.5025 0.9691
6.1409 -4.2154 -2.5026 0.9691
6.7915 -3.0601 -2.5028 0.9691
7.0371 -2.4435 -2.5028 0.9691
7.2267 -1.8075 -2.5028 0.9691
7.3589 -1.1571 -2.5028 0.9691
7.4473 0.1660 -2.5028 0.9691
7.2994 1.4837 -2.5026 0.9691
10.7073 3.1911 -3.7538 0.9539
6.4982 2.5862 -2.3498 0.9709
5.1855 4.6901 -2.3492 0.9709
4.7471 5.1326 -2.3489 0.9709
4.2711 5.5342 -2.3487 0.9709
3.7612 5.8918 -2.3485 0.9709
3.2215 6.2026 -2.3483 0.9709
2.6564 6.4640 -2.3480 0.9709
0.8540 6.9339 -2.3473 0.9709
-0.3889 6.9740 -2.3468 0.9710
-1.0079 6.9110 -2.3465 0.9710
-1.6189 6.7932 -2.3463 0.9710
-2.7972 6.3973 -2.3459 0.9710
-3.3552 6.1225 -2.3457 0.9710
-3.8865 5.7991 -2.3455 0.9710
-6.7061 3.2032 -2.4970 0.9691
-6.9644 2.5936 -2.4969 0.9691
-7.1675 1.9634 -2.4969 0.9691
-7.3138 1.3177 -2.4969 0.9691
-3.4902 -0.0000 -1.2376 0.9853
-3.0229 -0.8281 -1.1114 0.9868
-3.0314 -1.1289 -1.1470 0.9864
-5.7175 -4.1152 -2.4979 0.9705
-5.3289 -4.6081 -2.4981 0.9705
-3.3869 -6.1803 -2.4990 0.9705
-2.8236 -6.4579 -2.4992 0.9705
-1.6342 -6.8575 -2.4997 0.9705
-1.0175 -6.9765 -2.4999 0.9705
0.8621 -6.9995 -2.5007 0.9705
2.6814 -6.5248 -2.5014 0.9705
3.7964 -5.9470 -2.5018 0.9705
4.3110 -5.5859 -2.5020 0.9705
5.6345 -4.2492 -2.5024 0.9705
6.9166 -1.4059 -2.5027 0.9705
7.0562 -0.1572 -2.5026 0.9705
7.0420 0.4714 -2.5026 0.9705
5.7748 3.2489 -2.3495 0.9723
5.1066 4.2207 -2.3492 0.9723
4.7103 4.6581 -2.3490 0.9723
3.3114 5.7355 -2.3483 0.9723
1.6779 6.4046 -2.3476 0.9723
1.1011 6.5279 -2.3474 0.9723
-0.0737 6.6184 -2.3469 0.9723
-1.8191 6.3620 -2.3463 0.9723
-2.3779 6.1743 -2.3461 0.9723
-3.4344 5.6539 -2.3457 0.9723
-3.9237 5.3254 -2.3455 0.9723
-4.3819 4.9547 -2.3453 0.9723
-4.8052 4.5447 -2.3452 0.9723
-5.5273 4.3649 -2.4973 0.9706
-5.8936 3.8554 -2.4972 0.9706
-6.4834 2.7492 -2.4971 0.9706
-6.7023 2.1612 -2.4970 0.9706
-6.8680 1.5561 -2.4970 0.9706
-3.9464 0.1760 -1.4007 0.9834
-3.1623 -0.1410 -1.1224 0.9867
-6.4845 -2.7496 -2.4975 0.9706
-5.5287 -4.3660 -2.4980 0.9705
-5.1186 -4.8411 -2.4982 0.9705
-4.1798 -5.6729 -2.4986 0.9705
-2.5333 -6.5776 -2.4993 0.9705
-1.3272 -6.9239 -2.4998 0.9705
-0.7057 -7.0152 -2.5001 0.9705
-0.0785 -7.0509 -2.5003 0.9705
0.5494 -7.0306 -2.5006 0.9705
1.7876 -6.8231 -2.5010 0.9705
3.5276 -6.1100 -2.5017 0.9705
4.0577 -5.7721 -2.5019 0.9705
5.0175 -4.9619 -2.5022 0.9705
6.4348 -2.8994 -2.5026 0.9705
6.9724 -1.0963 -2.5027 0.9705
7.0422 -0.4714 -2.5027 0.9705
7.0561 0.1573 -2.5026 0.9705
10.1450 3.0235 -3.7536 0.9561
4.9133 4.4438 -2.3491 0.9723
4.4979 4.8631 -2.3489 0.9723
3.5638 5.5826 -2.3484 0.9723
1.9617 6.3239 -2.3478 0.9723
1.3909 6.4727 -2.3475 0.9723
0.2212 6.6154 -2.3470 0.9723
-0.3685 6.6082 -2.3468 0.9723
-0.9551 6.5485 -2.3466 0.9723
-1.5340 6.4370 -2.3464 0.9723
-2.1006 6.2743 -2.3462 0.9723
-2.6505 6.0619 -2.3460 0.9723
-3.6827 5.4951 -2.3456 0.9723
-4.1569 5.1451 -2.3454 0.9723
-4.5981 4.7544 -2.3453 0.9723
-6.7918 1.8605 -2.4970 0.9706
-2.9938 -0.2675 -1.1224 0.9872
-2.9455 -0.5307 -1.1176 0.9873
-2.9238 -1.0889 -1.1650 0.9868
-6.0356 -2.8829 -2.4977 0.9718
-5.0605 -4.3760 -2.4982 0.9718
-4.6513 -4.8093 -2.4984 0.9718
-4.2051 -5.2047 -2.4986 0.9718
-3.7255 -5.5588 -2.4988 0.9718
-2.6813 -6.1324 -2.4992 0.9718
-1.5518 -6.5118 -2.4997 0.9718
0.8186 -6.6465 -2.5006 0.9718
1.9844 -6.3972 -2.5011 0.9718
2.5462 -6.1957 -2.5013 0.9718
3.0878 -5.9450 -2.5015 0.9718
4.0935 -5.3040 -2.5018 0.9718
4.5496 -4.9190 -2.5020 0.9718
4.9696 -4.4947 -2.5021 0.9718
5.3502 -4.0347 -2.5023 0.9718
5.6883 -3.5427 -2.5023 0.9718
5.9813 -3.0225 -2.5024 0.9718
6.2267 -2.4781 -2.5025 0.9718
6.5675 -1.3349 -2.5025 0.9718
6.7001 -0.1493 -2.5025 0.9718
6.6866 0.4477 -2.5025 0.9718
6.5009 1.6260 -2.5023 0.9718
5.1868 3.5605 -2.3492 0.9735
4.8490 4.0078 -2.3491 0.9735
4.0609 4.8033 -2.3487 0.9735
3.6170 5.1452 -2.3485 0.9735
3.1444 5.4463 -2.3483 0.9735
2.6469 5.7040 -2.3481 0.9735
2.1285 5.9164 -2.3479 0.9735
1.0456 6.1988 -2.3474 0.9735
0.4897 6.2667 -2.3472 0.9735
-1.1830 6.1717 -2.3465 0.9735
-2.2581 5.8632 -2.3461 0.9735
-3.7261 5.0571 -2.3456 0.9735
-4.6653 4.4124 -2.3978 0.9730
-5.2489 4.1451 -2.4975 0.9718
-5.5968 3.6613 -2.4974 0.9718
-5.9002 3.1485 -2.4973 0.9718
-6.1569 2.6108 -2.4972 0.9718
-3.7910 0.1690 -1.4170 0.9839
-2.9640 -0.3986 -1.1167 0.9873
-2.9258 -0.6629 -1.1202 0.9873
-2.9106 -0.9385 -1.1419 0.9870
-6.1578 -2.6111 -2.4976 0.9718
-5.9013 -3.1490 -2.4977 0.9718
-5.5980 -3.6620 -2.4979 0.9718
-4.4326 -5.0120 -2.4985 0.9718
-3.4743 -5.7195 -2.4989 0.9718
-2.9517 -6.0066 -2.4991 0.9718
-1.2603 -6.5748 -2.4998 0.9718
-0.6702 -6.6615 -2.5001 0.9718
0.5216 -6.6761 -2.5005 0.9718
1.1139 -6.6038 -2.5008 0.9718
2.2675 -6.3027 -2.5012 0.9718
2.8198 -6.0764 -2.5014 0.9718
3.8530 -5.4810 -2.5018 0.9718
4.3258 -5.1166 -2.5019 0.9718
4.7643 -4.7115 -2.5021 0.9718
5.1650 -4.2690 -2.5022 0.9718
6.3309 -2.1983 -2.5025 0.9718
6.5015 -1.6261 -2.5025 0.9718
6.6205 -1.0410 -2.5025 0.9718
6.6868 -0.4476 -2.5025 0.9718
6.7000 0.1494 -2.5025 0.9718
6.6600 0.7451 -2.5024 0.9718
6.5670 1.3348 -2.5023 0.9718
5.0229 3.7880 -2.3492 0.9735
4.2710 4.6178 -2.3488 0.9735
3.8427 4.9792 -2.3486 0.9735
3.3840 5.3010 -2.3484 0.9735
2.8985 5.5807 -2.3482 0.9735
2.3901 5.8160 -2.3480 0.9735
1.3208 6.1464 -2.3475 0.9735
0.7684 6.2390 -2.3473 0.9735
0.2100 6.2820 -2.3471 0.9735
-0.3499 6.2752 -2.3468 0.9735
-0.9069 6.2185 -2.3466 0.9735
-1.4567 6.1126 -2.3464 0.9735
-3.0191 5.5092 -2.3458 0.9735
-5.0592 4.3749 -2.4975 0.9718
-5.4282 3.9070 -2.4974 0.9718
-6.0346 2.8825 -2.4972 0.9718
-6.4498 1.7668 -2.4972 0.9718
-3.2641 -0.0000 -1.2811 0.9861
-2.8313 -0.7756 -1.1521 0.9875
-2.8528 -1.0624 -1.1947 0.9870
-5.4761 -3.2435 -2.4979 0.9730
-5.1660 -3.7182 -2.4981 0.9730
-4.8149 -4.1636 -2.4982 0.9730
-4.4255 -4.5759 -2.4984 0.9730
-4.0010 -4.9520 -2.4986 0.9730
-3.5446 -5.2889 -2.4988 0.9730
-2.5511 -5.8346 -2.4993 0.9730
-1.4765 -6.1956 -2.4997 0.9730
-0.9193 -6.3030 -2.4999 0.9730
0.2129 -6.3673 -2.5004 0.9730
2.4225 -5.8946 -2.5012 0.9730
3.4297 -5.3725 -2.5016 0.9730
3.8945 -5.0463 -2.5017 0.9730
4.7281 -4.2762 -2.5020 0.9730
5.0902 -3.8387 -2.5021 0.9730
5.6905 -2.8755 -2.5023 0.9730
5.9240 -2.3577 -2.5024 0.9730
6.1104 -1.8211 -2.5024 0.9730
6.2483 -1.2700 -2.5024 0.9730
6.3616 0.4259 -2.5023 0.9730
6.2983 0.9904 -2.5023 0.9730
9.0338 3.1369 -3.7532 0.9597
5.2170 2.9350 -2.3493 0.9746
4.9347 3.3875 -2.3491 0.9746
4.6133 3.8130 -2.3490 0.9746
4.2553 4.2082 -2.3488 0.9746
3.8636 4.5699 -2.3486 0.9746
3.4412 4.8953 -2.3484 0.9746
2.9916 5.1817 -2.3482 0.9746
2.5183 5.4269 -2.3480 0.9746
0.9948 5.8978 -2.3474 0.9746
-0.0666 5.9796 -2.3470 0.9746
-0.5985 5.9495 -2.3468 0.9746
-1.6436 5.7481 -2.3464 0.9746
-2.1485 5.5786 -2.3462 0.9746
-4.6236 4.3730 -2.4977 0.9730
-5.6140 2.9958 -2.4974 0.9730
-5.8582 2.4841 -2.4973 0.9730
-6.2057 1.4061 -2.4973 0.9730
-6.3062 0.8481 -2.4973 0.9730
-3.6457 0.1626 -1.4322 0.9844
-2.8326 -0.6418 -1.1399 0.9876
-2.8403 -0.9159 -1.1712 0.9873
-4.6248 -4.3741 -2.4983 0.9730
-4.2174 -4.7687 -2.4985 0.9730
-2.8084 -5.7149 -2.4991 0.9730
-2.2888 -5.9428 -2.4994 0.9730
-1.7509 -6.1234 -2.4996 0.9730
-0.6376 -6.3380 -2.5001 0.9730
-0.0710 -6.3702 -2.5003 0.9730
0.4964 -6.3518 -2.5005 0.9730
1.6150 -6.1642 -2.5009 0.9730
2.1574 -5.9965 -2.5011 0.9730
2.6827 -5.7811 -2.5013 0.9730
4.5328 -4.4826 -2.5020 0.9730
5.2562 -3.6081 -2.5022 0.9730
6.0232 -2.0915 -2.5024 0.9730
6.3618 -0.4258 -2.5024 0.9730
6.3743 0.1421 -2.5024 0.9730
6.2478 1.2700 -2.5022 0.9730
6.1097 1.8209 -2.5021 0.9730
5.0809 3.1645 -2.3492 0.9746
4.7788 3.6039 -2.3491 0.9746
4.4387 4.0146 -2.3489 0.9746
2.7577 5.3096 -2.3481 0.9746
2.2740 5.5334 -2.3479 0.9746
1.2566 5.8479 -2.3475 0.9746
0.7311 5.9360 -2.3473 0.9746
-0.3329 5.9705 -2.3469 0.9746
-1.3860 5.8159 -2.3465 0.9746
-1.8980 5.6689 -2.3463 0.9746
-3.3275 4.9650 -2.3458 0.9746
-4.1905 4.3330 -2.3658 0.9744
-5.1649 3.7175 -2.4975 0.9730
-6.1369 1.6811 -2.4973 0.9730
-4.1298 0.3690 -1.6273 0.9823
-2.7831 -0.5014 -1.1645 0.9878
-2.7695 -0.7587 -1.1825 0.9877
-2.7842 -1.0369 -1.2234 0.9872
-5.2195 -3.0915 -2.4980 0.9741
-4.9239 -3.5440 -2.4982 0.9741
-4.2181 -4.3614 -2.4985 0.9741
-3.8134 -4.7199 -2.4987 0.9741
-1.9271 -5.7559 -2.4995 0.9741
-1.4072 -5.9051 -2.4997 0.9741
0.2029 -6.0687 -2.5004 0.9741
0.7423 -6.0270 -2.5006 0.9741
4.8512 -3.6585 -2.5020 0.9741
5.8236 -1.7356 -2.5023 0.9741
5.9550 -1.2104 -2.5023 0.9741
6.0752 -0.1354 -2.5023 0.9741
6.0026 0.9439 -2.5021 0.9741
5.8946 1.4744 -2.5021 0.9741
8.3092 3.7440 -3.7529 0.9613
7.9425 4.4684 -3.7527 0.9613
4.7032 3.2286 -2.3491 0.9756
4.3969 3.6341 -2.3489 0.9756
4.0557 4.0107 -2.3488 0.9756
2.8513 4.9386 -2.3482 0.9756
2.4002 5.1724 -2.3480 0.9756
-1.0728 5.5968 -2.3466 0.9756
-2.9577 4.8691 -2.3459 0.9757
-3.3791 4.5862 -2.3458 0.9757
-3.7784 4.2723 -2.3485 0.9756
-4.4070 4.1681 -2.4978 0.9741
-4.7602 3.7591 -2.4977 0.9741
-5.0757 3.3204 -2.4976 0.9741
-6.0108 0.8084 -2.4974 0.9741
-3.5093 0.1565 -1.4465 0.9849
-2.7947 -0.3759 -1.1611 0.9879
-2.7775 -0.8956 -1.2017 0.9875
-2.8016 -1.1879 -1.2531 0.9869
-5.3519 -2.8558 -2.4979 0.9741
-5.0767 -3.3210 -2.4981 0.9741
-4.0198 -4.5452 -2.4986 0.9741
-3.5995 -4.8853 -2.4988 0.9741
-3.1507 -5.1867 -2.4990 0.9741
-1.1429 -5.9622 -2.4998 0.9741
-0.6077 -6.0408 -2.5000 0.9741
-0.0676 -6.0714 -2.5003 0.9741
1.0101 -5.9882 -2.5007 0.9741
1.5392 -5.8750 -2.5009 0.9741
2.0562 -5.7151 -2.5011 0.9741
2.5569 -5.5098 -2.5013 0.9741
4.3200 -4.2722 -2.5019 0.9741
4.6834 -3.8709 -2.5020 0.9741
5.7404 -1.9933 -2.5023 0.9741
5.8951 -1.4745 -2.5023 0.9741
6.0030 -0.9439 -2.5023 0.9741
6.0631 -0.4059 -2.5023 0.9741
6.0751 0.1354 -2.5022 0.9741
5.9546 1.2104 -2.5021 0.9741
8.1340 4.1102 -3.7528 0.9613
4.8424 3.0159 -2.3491 0.9756
4.5545 3.4348 -2.3490 0.9756
4.2305 3.8262 -2.3488 0.9756
3.8728 4.1873 -2.3487 0.9756
3.4845 4.5150 -2.3485 0.9756
0.6968 5.6577 -2.3473 0.9756
0.1905 5.6967 -2.3471 0.9756
-0.3173 5.6906 -2.3469 0.9756
-3.5800 4.4310 -2.3457 0.9757
-4.5882 3.9676 -2.4977 0.9741
-4.9229 3.5433 -2.4976 0.9741
-5.6836 2.1166 -2.4974 0.9741
-5.9688 1.0754 -2.4974 0.9741
-3.0794 0.0000 -1.3283 0.9867
-2.7278 -0.4914 -1.1956 0.9880
-2.7209 -1.0133 -1.2524 0.9874
-2.7884 -1.6516 -1.3980 0.9860
-4.0268 -4.1636 -2.4986 0.9751
-3.6404 -4.5058 -2.4987 0.9751
-2.7843 -5.0807 -2.4991 0.9751
-2.3212 -5.3087 -2.4993 0.9751
-1.8396 -5.4947 -2.4995 0.9751
-1.3434 -5.6371 -2.4997 0.9751
-0.8364 -5.7348 -2.4999 0.9751
-0.3227 -5.7869 -2.5001 0.9751
0.1937 -5.7932 -2.5003 0.9751
1.2180 -5.6679 -2.5007 0.9751
1.7177 -5.5374 -2.5009 0.9751
2.2040 -5.3630 -2.5011 0.9751
3.1203 -4.8879 -2.5014 0.9751
5.7876 0.3875 -2.5021 0.9750
5.6269 1.4074 -2.5020 0.9750
7.9318 3.5739 -3.7527 0.9628
4.4896 3.0819 -2.3490 0.9766
3.8715 3.8287 -2.3487 0.9766
3.5151 4.1577 -2.3485 0.9766
2.7218 4.7144 -2.3482 0.9766
2.2913 4.9375 -2.3480 0.9766
1.3793 5.2647 -2.3476 0.9766
0.4239 5.4249 -2.3472 0.9766
-0.0606 5.4407 -2.3470 0.9766
-0.5446 5.4133 -2.3468 0.9766
-1.0241 5.3429 -2.3466 0.9766
-1.4955 5.2301 -2.3465 0.9766
-3.2259 4.3782 -2.3458 0.9766
-4.2071 3.9791 -2.4979 0.9751
-4.5444 3.5887 -2.4978 0.9751
-4.8456 3.1699 -2.4977 0.9751
-5.1083 2.7259 -2.4976 0.9751
-5.5105 1.7769 -2.4975 0.9751
-5.6468 1.2794 -2.4975 0.9751
-5.7382 0.7717 -2.4975 0.9751
-2.8614 -0.1276 -1.2355 0.9876
-2.7402 -0.3685 -1.1926 0.9880
-2.7166 -0.8760 -1.2313 0.9876
-2.7334 -1.1591 -1.2807 0.9871
-4.5453 -3.5894 -2.4983 0.9751
-4.2081 -3.9800 -2.4985 0.9751
-3.4362 -4.6637 -2.4988 0.9751
-2.0825 -5.4071 -2.4994 0.9751
-1.0910 -5.6916 -2.4998 0.9751
0.9642 -5.7164 -2.5006 0.9751
2.4408 -5.2596 -2.5012 0.9751
2.8994 -5.0219 -2.5014 0.9751
4.1238 -4.0781 -2.5018 0.9751
4.4706 -3.6950 -2.5019 0.9751
4.7820 -3.2826 -2.5020 0.9750
5.0553 -2.8441 -2.5020 0.9750
5.4797 -1.9027 -2.5021 0.9750
5.6273 -1.4074 -2.5022 0.9750
5.7303 -0.9010 -2.5022 0.9750
5.7991 0.1293 -2.5021 0.9750
7.7645 3.9236 -3.7526 0.9628
4.3477 3.2787 -2.3489 0.9766
4.0383 3.6525 -2.3488 0.9766
3.6970 3.9972 -2.3486 0.9766
3.3263 4.3100 -2.3484 0.9766
2.5090 4.8308 -2.3481 0.9766
2.0690 5.0345 -2.3479 0.9766
0.6652 5.4009 -2.3473 0.9766
0.1818 5.4382 -2.3471 0.9766
-0.7851 5.3834 -2.3467 0.9766
-1.2611 5.2918 -2.3466 0.9766
-1.7269 5.1581 -2.3464 0.9766
-2.1790 4.9836 -2.3462 0.9766
-2.6138 4.7696 -2.3461 0.9766
-3.0277 4.5177 -2.3459 0.9766
-4.3801 3.7876 -2.4978 0.9751
-5.2246 2.4956 -2.4976 0.9751
-5.6981 1.0266 -2.4975 0.9751
-3.8266 0.3419 -1.6572 0.9834
-2.9980 0.0000 -1.3528 0.9869
-2.6546 -0.7272 -1.2419 0.9880
-4.4938 -3.2344 -2.4983 0.9760
-4.1883 -3.6218 -2.4984 0.9760
-3.4803 -4.3076 -2.4988 0.9760
-2.6618 -4.8571 -2.4991 0.9760
-1.7587 -5.2529 -2.4995 0.9760
-1.2843 -5.3890 -2.4997 0.9760
0.1852 -5.5381 -2.5003 0.9760
1.1644 -5.4184 -2.5007 0.9760
1.6421 -5.2936 -2.5009 0.9760
2.1069 -5.1268 -2.5010 0.9760
2.9829 -4.6726 -2.5014 0.9760
3.3872 -4.3888 -2.5015 0.9760
4.7066 -2.9313 -2.5019 0.9760
5.1520 -2.0504 -2.5020 0.9760
5.5108 -0.6164 -2.5021 0.9760
5.5326 0.3704 -2.5020 0.9760
5.4776 0.8613 -2.5019 0.9760
5.2377 1.8187 -2.5018 0.9760
7.5824 3.4165 -3.7526 0.9642
7.2479 4.0776 -3.7524 0.9642
4.0124 3.3163 -2.3488 0.9774
3.7010 3.6601 -2.3486 0.9774
3.3603 3.9746 -2.3485 0.9774
2.6020 4.5069 -2.3481 0.9774
2.1904 4.7202 -2.3480 0.9774
1.3186 5.0330 -2.3476 0.9774
0.8653 5.1300 -2.3474 0.9774
-0.9791 5.1078 -2.3467 0.9774
-1.4297 5.0000 -2.3465 0.9774
-1.8689 4.8526 -2.3463 0.9774
-2.2933 4.6667 -2.3462 0.9774
-3.0839 4.1856 -2.3459 0.9774
-3.6677 4.1472 -2.4981 0.9760
-4.3445 3.4309 -2.4979 0.9760
-5.0962 2.1610 -2.4977 0.9760
-5.2682 1.6988 -2.4976 0.9760
-2.6659 -0.6040 -1.2334 0.9881
-2.6574 -0.8569 -1.2599 0.9878
-2.6675 -1.1311 -1.3074 0.9874
-4.6333 -3.0310 -2.4982 0.9760
-4.3454 -3.4315 -2.4984 0.9760
-4.0230 -3.8049 -2.4985 0.9760
-3.2851 -4.4585 -2.4989 0.9760
-2.8754 -4.7335 -2.4990 0.9760
-1.9909 -5.1692 -2.4994 0.9760
-1.0430 -5.4411 -2.4998 0.9760
0.4317 -5.5246 -2.5004 0.9760
0.9218 -5.4647 -2.5006 0.9760
1.4046 -5.3614 -2.5008 0.9760
1.8764 -5.2154 -2.5010 0.9760
2.7717 -4.8007 -2.5013 0.9760
3.1882 -4.5352 -2.5014 0.9760
3.5794 -4.2337 -2.5016 0.9760
3.9422 -3.8985 -2.5017 0.9760
4.8326 -2.7188 -2.5020 0.9760
5.2383 -1.8189 -2.5020 0.9760
5.3795 -1.3454 -2.5021 0.9760
5.5437 0.1236 -2.5020 0.9760
5.5106 0.6165 -2.5020 0.9760
5.4337 1.1044 -2.5019 0.9760
5.3137 1.5837 -2.5018 0.9760
5.1514 2.0502 -2.5017 0.9760
7.4226 3.7508 -3.7525 0.9642
4.1562 3.1344 -2.3489 0.9774
3.8605 3.4916 -2.3487 0.9774
2.8003 4.3866 -2.3482 0.9774
2.3986 4.6181 -2.3481 0.9774
1.5415 4.9694 -2.3477 0.9774
0.6359 5.1632 -2.3473 0.9774
0.1738 5.1989 -2.3471 0.9774
-0.2896 5.1933 -2.3469 0.9774
-2.8946 4.3190 -2.3460 0.9774
-3.3734 4.1754 -2.4221 0.9767
-3.8487 3.9796 -2.4980 0.9760
-4.1875 3.6210 -2.4979 0.9760
-4.4930 3.2339 -2.4978 0.9760
-4.9949 2.3859 -2.4977 0.9760
-5.3386 1.4624 -2.4976 0.9760
-5.4476 0.9814 -2.4976 0.9760
-3.7667 0.3366 -1.7064 0.9835
-2.6016 -0.7127 -1.2715 0.9881
-2.6052 -1.2444 -1.3609 0.9873
-2.6596 -1.5753 -1.4571 0.9864
-4.0093 -3.4670 -2.4985 0.9768
-3.6850 -3.8103 -2.4987 0.9768
-2.9515 -4.4039 -2.4990 0.9768
-1.6835 -5.0283 -2.4995 0.9768
-1.2293 -5.1586 -2.4997 0.9768
-0.2953 -5.2956 -2.5001 0.9768
2.0168 -4.9075 -2.5010 0.9768
2.4457 -4.7088 -2.5012 0.9768
2.8553 -4.4727 -2.5013 0.9768
3.6034 -3.8959 -2.5016 0.9768
3.9361 -3.5599 -2.5017 0.9768
4.5052 -2.8058 -2.5018 0.9768
4.7372 -2.3938 -2.5019 0.9768
4.9315 -1.9627 -2.5019 0.9768
5.0867 -1.5160 -2.5020 0.9768
5.2015 -1.0572 -2.5020 0.9768
5.2749 -0.5900 -2.5020 0.9768
5.3064 -0.1182 -2.5019 0.9768
5.2958 0.3545 -2.5019 0.9768
5.1488 1.2878 -2.5018 0.9768
4.8385 2.1802 -2.5016 0.9768
3.8407 3.1744 -2.3487 0.9782
3.5427 3.5035 -2.3486 0.9782
3.2166 3.8046 -2.3484 0.9782
2.8650 4.0755 -2.3483 0.9782
2.0967 4.5183 -2.3479 0.9782
1.6861 4.6866 -2.3478 0.9782
1.2622 4.8177 -2.3476 0.9782
0.3879 4.9644 -2.3472 0.9782
-1.7890 4.6452 -2.3464 0.9782
-2.1952 4.4672 -2.3462 0.9782
-2.5840 4.2539 -2.3461 0.9782
-3.0329 4.1163 -2.4101 0.9776
-4.1589 3.2843 -2.4980 0.9768
-4.4345 2.9010 -2.4979 0.9768
-5.0431 1.6262 -2.4977 0.9768
-5.1678 1.1709 -2.4977 0.9768
-5.2515 0.7063 -2.4977 0.9768
-2.6352 -0.3544 -1.2533 0.9883
-2.6131 -0.5921 -1.2630 0.9882
-2.5994 -0.8382 -1.2874 0.9880
-2.5902 -1.3822 -1.3839 0.9871
-4.4353 -2.9014 -2.4983 0.9768
-3.1446 -4.2679 -2.4989 0.9768
-2.7525 -4.5312 -2.4991 0.9768
-1.9057 -4.9481 -2.4994 0.9768
-0.5309 -5.2770 -2.5000 0.9768
-0.0591 -5.3037 -2.5002 0.9768
0.4132 -5.2883 -2.5004 0.9768
0.8824 -5.2309 -2.5006 0.9768
1.3445 -5.1320 -2.5007 0.9768
1.7961 -4.9923 -2.5009 0.9768
2.6531 -4.5953 -2.5012 0.9768
4.0908 -3.3811 -2.5017 0.9768
4.6258 -2.6024 -2.5019 0.9768
5.0141 -1.7411 -2.5020 0.9768
5.1492 -1.2879 -2.5020 0.9768
5.0862 1.5159 -2.5017 0.9768
4.9309 1.9625 -2.5016 0.9768
7.1049 3.5903 -3.7524 0.9654
6.3551 4.7926 -3.7520 0.9654
3.6953 3.3422 -2.3487 0.9782
3.3830 3.6576 -2.3485 0.9782
2.6805 4.1989 -2.3482 0.9782
1.8933 4.6070 -2.3479 0.9782
1.0463 4.8690 -2.3475 0.9782
-0.7185 4.9265 -2.3468 0.9782
-2.7708 4.1344 -2.3460 0.9782
-3.3307 4.1225 -2.4982 0.9768
-3.6842 3.8095 -2.4981 0.9768
-4.0085 3.4663 -2.4980 0.9768
-4.3010 3.0957 -2.4979 0.9768
-4.7814 2.2839 -2.4978 0.9768
-4.9657 1.8493 -2.4977 0.9768
-3.7078 0.3313 -1.7547 0.9837
-2.8280 0.0000 -1.3909 0.9875
-2.5698 -0.4630 -1.2843 0.9884
-2.5499 -0.6985 -1.3004 0.9883
-2.5453 -0.9479 -1.3359 0.9880
-4.1227 -2.9674 -2.4984 0.9776
-3.5317 -3.6517 -2.4987 0.9776
-0.7335 -5.0294 -2.4999 0.9776
-0.2830 -5.0751 -2.5001 0.9776
0.1699 -5.0805 -2.5003 0.9776
1.0681 -4.9706 -2.5006 0.9776
1.5064 -4.8561 -2.5008 0.9776
3.1071 -4.0260 -2.5014 0.9776
4.3175 -2.6889 -2.5017 0.9776
4.7260 -1.8809 -2.5018 0.9776
4.8747 -1.4528 -2.5019 0.9776
4.9847 -1.0132 -2.5019 0.9776
5.0551 -0.5655 -2.5019 0.9776
4.8047 1.6684 -2.5016 0.9776
6.2891 4.3172 -3.7520 0.9666
5.8795 4.8596 -3.7518 0.9666
3.0826 3.6461 -2.3484 0.9789
2.3870 4.1343 -2.3481 0.9789
2.0094 4.3301 -2.3479 0.9789
0.3718 4.7577 -2.3472 0.9790
-0.4776 4.7476 -2.3469 0.9790
-1.3116 4.5871 -2.3466 0.9790
-2.1039 4.2813 -2.3463 0.9790
-2.4763 4.0768 -2.3462 0.9790
-3.3649 3.8047 -2.4982 0.9776
-3.9858 3.1476 -2.4980 0.9776
-4.2500 2.7803 -2.4980 0.9776
-4.4805 2.3909 -2.4979 0.9776
-4.6755 1.9826 -2.4978 0.9776
-4.8333 1.5586 -2.4978 0.9776
-4.9528 1.1222 -2.4978 0.9776
-5.0330 0.6769 -2.4978 0.9776
-3.0630 0.1366 -1.5081 0.9864
-2.5616 -0.5804 -1.2919 0.9884
-2.5441 -1.0788 -1.3592 0.9878
-3.6908 -3.4907 -2.4986 0.9776
-3.3656 -3.8055 -2.4988 0.9776
-3.0137 -4.0903 -2.4989 0.9776
-0.5088 -5.0572 -2.5000 0.9776
0.3960 -5.0681 -2.5004 0.9776
1.7213 -4.7844 -2.5009 0.9776
2.1404 -4.6124 -2.5010 0.9776
3.2835 -3.8837 -2.5014 0.9776
4.6375 -2.0895 -2.5018 0.9776
4.9346 -1.2342 -2.5019 0.9776
5.0249 -0.7901 -2.5019 0.9776
5.0753 -0.3397 -2.5019 0.9776
5.0853 0.1134 -2.5018 0.9776
5.0549 0.5655 -2.5018 0.9776
4.9844 1.0132 -2.5017 0.9776
4.7255 1.8807 -2.5016 0.9776
4.5392 2.2938 -2.5015 0.9776
6.4753 4.0328 -3.7521 0.9666
6.0903 4.5930 -3.7519 0.9666
3.2421 3.5053 -2.3485 0.9789
2.2004 4.2365 -2.3480 0.9789
0.1595 4.7694 -2.3472 0.9790
-0.2656 4.7644 -2.3470 0.9790
-0.6886 4.7214 -2.3468 0.9790
-1.1060 4.6411 -2.3467 0.9790
-1.5146 4.5239 -2.3465 0.9790
-1.9112 4.3709 -2.3464 0.9790
-2.2924 4.1832 -2.3462 0.9790
-3.1921 3.9510 -2.4983 0.9776
-4.3696 2.5881 -2.4979 0.9776
-4.9979 0.9004 -2.4978 0.9776
-2.7481 -0.0000 -1.4089 0.9877
-2.5372 -0.2267 -1.3059 0.9886
-2.5199 -0.4540 -1.3127 0.9886
-2.4879 -1.1884 -1.4135 0.9877
-2.4521 -1.4524 -1.4611 0.9873
-3.3884 -3.5035 -2.4988 0.9783
-3.0633 -3.7915 -2.4989 0.9783
-2.7138 -4.0493 -2.4991 0.9783
-1.5479 -4.6233 -2.4996 0.9783
-1.1303 -4.7430 -2.4997 0.9783
-0.7037 -4.8252 -2.4999 0.9783
-0.2715 -4.8690 -2.5001 0.9783
0.1630 -4.8742 -2.5003 0.9783
0.5962 -4.8407 -2.5004 0.9783
2.2486 -4.3293 -2.5010 0.9783
2.9809 -3.8624 -2.5013 0.9783
3.8959 -2.9380 -2.5016 0.9783
4.3553 -2.2008 -2.5017 0.9783
4.5340 -1.8045 -2.5018 0.9783
4.6767 -1.3937 -2.5018 0.9783
4.7822 -0.9720 -2.5018 0.9783
4.8497 -0.5425 -2.5018 0.9783
4.8787 -0.1087 -2.5018 0.9783
4.8689 0.3260 -2.5017 0.9783
4.7338 1.1840 -2.5016 0.9783
4.6095 1.6006 -2.5015 0.9783
6.0336 4.1418 -3.7519 0.9676
3.2572 3.2211 -2.3485 0.9796
2.9574 3.4981 -2.3484 0.9796
2.2900 3.9665 -2.3481 0.9796
1.5503 4.3091 -2.3477 0.9796
0.7616 4.5150 -2.3474 0.9796
0.3567 4.5646 -2.3473 0.9796
-0.4582 4.5549 -2.3469 0.9796
-1.6450 4.2712 -2.3465 0.9796
-2.4357 4.0098 -2.4052 0.9791
-3.8241 3.0199 -2.4981 0.9783
-4.0776 2.6675 -2.4980 0.9783
-4.6372 1.4953 -2.4979 0.9783
-4.7519 1.0767 -2.4979 0.9783
-2.5113 -0.5690 -1.3201 0.9885
-2.4879 -1.0550 -1.3854 0.9879
-4.0782 -2.6679 -2.4984 0.9783
-3.8248 -3.0204 -2.4985 0.9783
-2.8914 -3.9243 -2.4990 0.9783
-2.5308 -4.1663 -2.4991 0.9783
-1.7523 -4.5496 -2.4995 0.9783
-1.3405 -4.6878 -2.4997 0.9783
-0.9180 -4.7889 -2.4998 0.9783
0.8113 -4.8095 -2.5005 0.9783
1.6514 -4.5900 -2.5008 0.9783
2.0535 -4.4251 -2.5010 0.9783
3.7611 -3.1086 -2.5016 0.9783
4.0230 -2.7616 -2.5016 0.9783
4.2529 -2.3926 -2.5017 0.9783
4.4491 -2.0046 -2.5017 0.9783
4.6099 -1.6007 -2.5018 0.9783
4.8207 -0.7580 -2.5018 0.9783
4.6763 1.3937 -2.5016 0.9783
4.5335 1.8043 -2.5015 0.9783
4.3548 2.2006 -2.5014 0.9783
6.2122 3.8690 -3.7520 0.9676
3.1104 3.3629 -2.3484 0.9796
2.7986 3.6262 -2.3483 0.9796
0.5597 4.5443 -2.3473 0.9796
-1.0611 4.4527 -2.3467 0.9796
-1.8336 4.1935 -2.3464 0.9796
-2.7090 4.0421 -2.4946 0.9784
-3.0626 3.7906 -2.4984 0.9783
-3.3877 3.5029 -2.4982 0.9783
-3.6859 3.1873 -2.4982 0.9783
-4.1923 2.4831 -2.4980 0.9783
-4.7951 0.8639 -2.4979 0.9783
-2.4716 -0.4453 -1.3407 0.9887
-2.4352 -0.9069 -1.3872 0.9883
-2.4292 -1.1603 -1.4371 0.9879
-2.3944 -1.4182 -1.4856 0.9875
-3.5404 -3.0615 -2.4987 0.9790
-2.9418 -3.6411 -2.4989 0.9790
-2.6062 -3.8887 -2.4991 0.9790
-1.8757 -4.2897 -2.4994 0.9790
-1.4865 -4.4400 -2.4996 0.9790
0.5725 -4.6487 -2.5004 0.9790
1.7807 -4.3330 -2.5009 0.9790
2.1594 -4.1575 -2.5010 0.9790
2.5210 -3.9490 -2.5011 0.9790
3.4752 -3.1431 -2.5014 0.9790
3.7413 -2.8214 -2.5015 0.9790
4.4910 -1.3385 -2.5017 0.9790
4.5924 -0.9334 -2.5017 0.9790
4.6572 -0.5210 -2.5017 0.9790
4.6851 -0.1044 -2.5017 0.9790
4.6757 0.3130 -2.5017 0.9790
4.2720 1.9249 -2.5014 0.9790
4.0836 2.2974 -2.5013 0.9790
4.9966 4.9412 -3.7515 0.9686
2.8400 3.3592 -2.3483 0.9803
2.5296 3.5985 -2.3482 0.9803
1.8513 3.9895 -2.3479 0.9803
1.4888 4.1382 -2.3477 0.9803
-0.0490 4.3964 -2.3471 0.9803
-0.4400 4.3742 -2.3469 0.9803
-0.8276 4.3175 -2.3468 0.9803
-1.9384 3.9447 -2.3464 0.9803
-3.4000 3.2157 -2.4983 0.9790
-4.3080 1.8267 -2.4980 0.9790
-4.6374 0.6237 -2.4980 0.9790
-2.5303 -0.1128 -1.3521 0.9886
-2.4861 -0.3344 -1.3391 0.9887
-2.4621 -0.5579 -1.3477 0.9886
-2.4330 -1.0317 -1.4108 0.9881
-2.4151 -1.2887 -1.4613 0.9877
-2.4322 -1.5911 -1.5516 0.9869
-3.1010 -3.5063 -2.4989 0.9790
-2.4305 -4.0011 -2.4992 0.9790
-1.6828 -4.3692 -2.4995 0.9790
-1.2873 -4.5020 -2.4997 0.9790
-0.4687 -4.6595 -2.5000 0.9790
-0.0522 -4.6830 -2.5002 0.9790
0.3649 -4.6694 -2.5003 0.9790
1.1872 -4.5313 -2.5006 0.9790
1.9720 -4.2495 -2.5009 0.9790
2.6945 -3.8329 -2.5012 0.9790
3.6118 -2.9852 -2.5015 0.9790
3.8633 -2.6520 -2.5016 0.9790
4.2725 -1.9251 -2.5017 0.9790
4.6294 -0.7279 -2.5017 0.9790
4.6758 -0.3130 -2.5017 0.9790
4.6850 0.1044 -2.5017 0.9790
4.3536 1.7327 -2.5014 0.9790
5.9657 3.7155 -3.7519 0.9686
5.6111 4.2315 -3.7518 0.9686
2.9870 3.2295 -2.3484 0.9803
2.0272 3.9032 -2.3480 0.9803
1.6717 4.0679 -2.3478 0.9803
1.3029 4.2002 -2.3477 0.9803
0.9238 4.2992 -2.3475 0.9803
0.1469 4.3943 -2.3472 0.9803
-0.2448 4.3897 -2.3470 0.9803
-0.6344 4.3502 -2.3469 0.9803
-1.0191 4.2762 -2.3467 0.9803
-1.7609 4.0273 -2.3465 0.9803
-2.1707 3.9610 -2.4112 0.9797
-3.2534 3.3640 -2.4983 0.9790
-3.5398 3.0610 -2.4982 0.9790
-3.7980 2.7337 -2.4981 0.9790
-4.3850 1.6330 -2.4980 0.9790
-4.5129 1.2362 -2.4980 0.9790
-3.5314 0.3155 -1.8927 0.9841
-2.4347 -0.2176 -1.3576 0.9889
-2.4243 -0.4368 -1.3681 0.9888
-2.4018 -0.6579 -1.3831 0.9887
-2.3733 -1.1337 -1.4608 0.9880
-2.3176 -1.3727 -1.4960 0.9878
-3.6513 -2.6281 -2.4986 0.9796
-3.4031 -2.9427 -2.4987 0.9796
-2.8277 -3.4999 -2.4990 0.9796
-1.0434 -4.3782 -2.4997 0.9796
-0.6496 -4.4540 -2.4999 0.9796
-0.2506 -4.4944 -2.5001 0.9796
0.5503 -4.4682 -2.5004 0.9796
1.7116 -4.1648 -2.5008 0.9796
2.4231 -3.7957 -2.5011 0.9796
2.7515 -3.5652 -2.5012 0.9796
3.3402 -3.0210 -2.5014 0.9796
3.5960 -2.7118 -2.5015 0.9796
3.8232 -2.3811 -2.5015 0.9796
4.4763 -0.5007 -2.5016 0.9796
4.5031 -0.1004 -2.5016 0.9796
4.4494 0.6997 -2.5016 0.9796
4.3694 1.0929 -2.5015 0.9796
4.2546 1.4774 -2.5014 0.9796
4.1061 1.8502 -2.5013 0.9796
3.9250 2.2082 -2.5012 0.9796
5.2066 4.3034 -3.7516 0.9696
4.8026 4.7495 -3.7514 0.9696
4.3606 5.1578 -3.7512 0.9696
