ply
format ascii 1.0
element vertex 1591
property float32 x
property float32 y
property float32 z
property float32 I
end_header
-2.8099 11.7909 -2.3457 0.9518
-3.8477 11.4926 -2.3454 0.9518
-6.7451 10.0644 -2.3446 0.9518
-7.6134 9.4232 -2.3444 0.9518
-8.4211 8.7074 -2.3442 0.9518
-9.1620 7.9227 -2.3440 0.9518
-9.8302 7.0754 -2.3438 0.9519
-11.6375 5.5587 -2.4958 0.9488
-12.6919 2.2865 -2.4956 0.9488
-12.8451 1.1478 -2.4957 0.9488
-11.8396 0.0000 -2.4960 0.9528
-11.6528 -2.0994 -2.4962 0.9527
-11.0972 -4.1326 -2.4965 0.9527
-10.6861 -5.1043 -2.4966 0.9527
-9.6134 -6.9193 -2.4971 0.9527
-8.9602 -7.7482 -2.4973 0.9527
-8.2359 -8.5158 -2.4976 0.9527
-7.4460 -9.2161 -2.4978 0.9527
-6.5970 -9.8433 -2.4981 0.9527
-5.6953 -10.3927 -2.4984 0.9527
-4.7483 -10.8597 -2.4987 0.9527
-3.7634 -11.2406 -2.4990 0.9527
-2.7483 -11.5324 -2.4993 0.9527
-0.6602 -11.8400 -2.5000 0.9527
3.5150 -11.3314 -2.5012 0.9527
5.4696 -10.5310 -2.5017 0.9526
6.3859 -10.0033 -2.5020 0.9526
8.8039 -7.9627 -2.5026 0.9526
9.4783 -7.1479 -2.5027 0.9526
11.0313 -4.3903 -2.5030 0.9526
11.3785 -3.3912 -2.5031 0.9526
11.6353 -2.3650 -2.5031 0.9526
11.7996 -1.3200 -2.5031 0.9526
11.8700 -0.2645 -2.5031 0.9526
10.8147 2.7049 -2.3502 0.9555
9.2821 4.1823 -2.1463 0.9592
8.5894 7.0994 -2.3493 0.9555
7.1931 8.5080 -2.3488 0.9555
3.7698 10.4784 -2.3477 0.9555
-0.1240 11.1296 -2.3465 0.9555
-4.9061 9.9836 -2.3451 0.9555
-8.0789 7.6411 -2.3443 0.9556
-8.7264 6.8912 -2.3442 0.9556
-9.3046 6.0868 -2.3440 0.9556
-10.9002 4.6221 -2.4961 0.9528
-11.2681 3.6335 -2.4960 0.9528
-11.7337 1.5780 -2.4960 0.9528
-11.8280 -0.5274 -2.4961 0.9528
-11.7345 -1.5781 -2.4961 0.9528
-11.5480 -2.6164 -2.4963 0.9527
-11.2699 -3.6341 -2.4964 0.9527
-10.4485 -5.5754 -2.4967 0.9527
-9.9116 -6.4839 -2.4970 0.9527
-9.2960 -7.3410 -2.4972 0.9527
-7.8488 -8.8747 -2.4977 0.9527
-4.2601 -11.0611 -2.4989 0.9527
-2.2320 -11.6441 -2.4995 0.9527
-0.1321 -11.8584 -2.5001 0.9527
0.9240 -11.8246 -2.5005 0.9527
1.9730 -11.6968 -2.5008 0.9527
3.0066 -11.4761 -2.5010 0.9527
4.0166 -11.1642 -2.5013 0.9527
4.9948 -10.7636 -2.5016 0.9527
9.7875 -6.7188 -2.5028 0.9526
10.3472 -5.8212 -2.5029 0.9526
11.7291 -1.8443 -2.5031 0.9526
11.8466 -0.7930 -2.5031 0.9526
11.8699 0.2645 -2.5030 0.9526
10.9247 2.2205 -2.3502 0.9555
10.6832 3.1839 -2.3501 0.9555
9.0655 4.5810 -2.1413 0.9593
9.4603 5.8920 -2.3496 0.9555
8.8976 6.7100 -2.3494 0.9555
8.2642 7.4746 -2.3492 0.9555
7.5654 8.1796 -2.3489 0.9555
5.9939 9.3893 -2.3484 0.9555
3.2991 10.6353 -2.3475 0.9555
2.3391 10.8853 -2.3472 0.9555
-1.6060 11.0118 -2.3461 0.9555
-4.4567 10.1927 -2.3453 0.9555
-5.3457 9.7546 -2.3450 0.9555
-6.1921 9.2392 -2.3448 0.9556
-7.7308 7.9936 -2.3444 0.9556
-9.0245 6.4954 -2.3441 0.9556
-11.0952 4.1319 -2.4960 0.9528
-11.4187 3.1279 -2.4960 0.9528
-11.7924 1.0538 -2.4960 0.9528
-10.8939 -0.9735 -2.4964 0.9561
-10.7644 -1.9393 -2.4965 0.9561
-10.5495 -2.8898 -2.4966 0.9561
-9.4130 -5.5754 -2.4970 0.9561
-8.2768 -7.1572 -2.4975 0.9561
-6.8780 -8.5130 -2.4980 0.9561
-6.0936 -9.0923 -2.4982 0.9561
-5.2607 -9.5996 -2.4985 0.9561
-4.3859 -10.0309 -2.4988 0.9561
-3.4761 -10.3827 -2.4991 0.9561
-1.5805 -10.8371 -2.4997 0.9561
0.3660 -10.9481 -2.5002 0.9561
1.3392 -10.8733 -2.5005 0.9560
2.3019 -10.7122 -2.5008 0.9560
5.0518 -9.7264 -2.5016 0.9560
9.3072 -5.7965 -2.5026 0.9560
9.7865 -4.9453 -2.5027 0.9560
10.1881 -4.0548 -2.5028 0.9560
10.7459 -2.1842 -2.5028 0.9560
10.9407 0.7324 -2.5027 0.9560
9.2464 4.1662 -2.3148 0.9592
8.4860 5.8253 -2.3493 0.9586
7.9332 6.5570 -2.3491 0.9587
7.3174 7.2363 -2.3489 0.9587
6.6436 7.8581 -2.3487 0.9587
5.9172 8.4174 -2.3484 0.9587
5.1440 8.9097 -2.3482 0.9587
0.8010 10.2508 -2.3468 0.9587
-1.0289 10.2281 -2.3463 0.9587
-1.9350 10.0948 -2.3460 0.9587
-3.6934 9.5897 -2.3455 0.9587
-6.0941 8.2709 -2.3449 0.9587
-8.0610 6.3657 -2.3444 0.9587
-8.5952 5.6227 -2.3443 0.9587
-9.6495 5.1492 -2.4964 0.9561
-10.4091 3.3565 -2.4963 0.9561
-10.8392 1.4578 -2.4962 0.9561
-10.9263 -0.4872 -2.4963 0.9561
-10.0711 -4.2705 -2.4968 0.9561
-9.1557 -5.9894 -2.4971 0.9561
-7.9501 -7.5192 -2.4976 0.9561
-3.9350 -10.2169 -2.4989 0.9561
-2.0616 -10.7552 -2.4995 0.9561
0.8534 -10.9216 -2.5004 0.9560
1.8223 -10.8035 -2.5007 0.9560
2.7770 -10.5996 -2.5009 0.9560
3.7097 -10.3114 -2.5012 0.9560
4.6133 -9.9412 -2.5014 0.9560
5.4803 -9.4921 -2.5017 0.9560
7.7952 -7.7088 -2.5023 0.9560
9.9972 -4.5046 -2.5027 0.9560
10.9626 0.2443 -2.5028 0.9560
9.8667 2.9406 -2.3499 0.9586
9.5652 3.8069 -2.3498 0.9586
9.0404 4.5683 -2.3119 0.9593
7.6329 6.9035 -2.3490 0.9587
4.7417 9.1295 -2.3480 0.9587
2.1605 10.0543 -2.3472 0.9587
-0.5723 10.2643 -2.3464 0.9587
-1.4835 10.1715 -2.3461 0.9587
-2.3826 9.9980 -2.3459 0.9587
-3.2627 9.7452 -2.3456 0.9587
-4.9379 9.0106 -2.3452 0.9587
-5.7198 8.5346 -2.3450 0.9587
-7.1413 7.3840 -2.3446 0.9587
-8.8370 5.2341 -2.3442 0.9587
-10.5482 2.8895 -2.4963 0.9561
-10.8934 0.9735 -2.4963 0.9561
-10.1567 0.0000 -2.4965 0.9590
-9.7969 -2.6836 -2.4968 0.9590
-9.5196 -3.5451 -2.4969 0.9590
-9.1668 -4.3787 -2.4971 0.9590
-8.7413 -5.1775 -2.4972 0.9590
-8.2464 -5.9354 -2.4974 0.9590
-7.6860 -6.6464 -2.4976 0.9590
-7.0646 -7.3047 -2.4978 0.9590
-6.3870 -7.9053 -2.4981 0.9590
-5.6586 -8.4432 -2.4983 0.9590
-4.8851 -8.9142 -2.4986 0.9590
-4.0728 -9.3146 -2.4988 0.9590
-2.3572 -9.8914 -2.4994 0.9590
-1.4676 -10.0630 -2.4996 0.9590
0.3399 -10.1660 -2.5002 0.9590
3.8679 -9.4119 -2.5012 0.9590
4.6907 -9.0312 -2.5014 0.9589
6.2186 -8.0577 -2.5018 0.9589
7.5497 -6.8283 -2.5021 0.9589
8.1279 -6.1296 -2.5023 0.9589
9.4595 -3.7648 -2.5025 0.9589
9.7572 -2.9079 -2.5026 0.9589
10.1183 -1.1319 -2.5026 0.9589
10.1787 -0.2268 -2.5026 0.9589
10.1583 0.6800 -2.5025 0.9589
9.0302 3.1356 -2.3496 0.9614
8.3302 4.6865 -2.3493 0.9614
6.7944 6.7191 -2.3488 0.9614
5.4944 7.8159 -2.3483 0.9614
4.7764 8.2730 -2.3481 0.9614
3.2332 8.9869 -2.3476 0.9614
2.4203 9.2380 -2.3473 0.9614
1.5882 9.4158 -2.3471 0.9614
-0.1064 9.5461 -2.3466 0.9614
-0.9555 9.4978 -2.3463 0.9614
-2.6238 9.1760 -2.3459 0.9615
-3.4298 8.9052 -2.3456 0.9615
-4.2084 8.5638 -2.3454 0.9615
-4.9535 8.1546 -2.3452 0.9615
-5.6592 7.6807 -2.3450 0.9615
-6.3199 7.1461 -2.3449 0.9615
-7.4859 5.9115 -2.3446 0.9615
-8.9611 4.7818 -2.4966 0.9590
-9.9055 2.2443 -2.4965 0.9590
-10.1466 0.4524 -2.4965 0.9590
-10.1468 -0.4524 -2.4966 0.9590
-10.0665 -1.3538 -2.4966 0.9590
-9.9065 -2.2445 -2.4967 0.9590
-9.3525 -3.9658 -2.4970 0.9590
-8.9630 -4.7828 -2.4971 0.9590
-7.9742 -6.2971 -2.4975 0.9590
-6.7325 -7.6126 -2.4980 0.9590
-4.4834 -9.1235 -2.4987 0.9590
-3.6540 -9.4873 -2.4990 0.9590
-1.0180 -10.1189 -2.4998 0.9590
0.7925 -10.1412 -2.5003 0.9590
1.6921 -10.0315 -2.5006 0.9590
2.5785 -9.8421 -2.5008 0.9590
5.0885 -8.8136 -2.5015 0.9589
5.8533 -8.3264 -2.5017 0.9589
8.3931 -5.7615 -2.5023 0.9589
9.2823 -4.1824 -2.5025 0.9589
9.6179 -3.3397 -2.5026 0.9589
9.8772 -2.4704 -2.5026 0.9589
10.1586 -0.6800 -2.5026 0.9589
10.1178 1.1319 -2.5025 0.9589
9.1612 2.7303 -2.3497 0.9614
8.8813 3.5347 -2.3496 0.9614
8.5309 4.3109 -2.3494 0.9614
8.1128 5.0527 -2.3493 0.9614
7.0873 6.4101 -2.3489 0.9614
6.4880 7.0148 -2.3487 0.9614
5.8374 7.5637 -2.3484 0.9614
5.1405 8.0525 -2.3482 0.9614
4.4029 8.4771 -2.3480 0.9614
3.6306 8.8344 -2.3477 0.9614
2.0062 9.3362 -2.3472 0.9614
-1.3776 9.4453 -2.3462 0.9614
-2.2125 9.2842 -2.3460 0.9614
-4.5855 8.3675 -2.3453 0.9615
-5.9955 7.4207 -2.3449 0.9615
-6.6317 6.8572 -2.3448 0.9615
-7.2153 6.2394 -2.3447 0.9615
-8.6346 5.1142 -2.4667 0.9595
-9.1651 4.3778 -2.4966 0.9590
-9.5181 3.5446 -2.4965 0.9590
-10.1163 0.9040 -2.4965 0.9590
-9.4752 -0.0000 -2.4967 0.9616
-9.4378 -0.8434 -2.4968 0.9616
-9.3256 -1.6801 -2.4969 0.9616
-9.1394 -2.5035 -2.4970 0.9616
-8.8808 -3.3072 -2.4971 0.9616
-6.5903 -6.8144 -2.4980 0.9615
-5.2787 -7.8763 -2.4984 0.9615
-4.5571 -8.3156 -2.4986 0.9615
-3.7993 -8.6891 -2.4989 0.9615
-3.0111 -8.9937 -2.4991 0.9615
-2.1989 -9.2269 -2.4994 0.9615
-0.5282 -9.4725 -2.4999 0.9615
0.3171 -9.4829 -2.5001 0.9615
3.6079 -8.7793 -2.5011 0.9615
5.1082 -8.0018 -2.5015 0.9615
8.0605 -5.0201 -2.5022 0.9615
8.4756 -4.2829 -2.5023 0.9615
8.8234 -3.5117 -2.5023 0.9615
9.3064 -1.8916 -2.5024 0.9615
9.4378 -1.0558 -2.5024 0.9615
9.4752 0.6343 -2.5023 0.9615
8.4230 2.9248 -2.3495 0.9638
8.1288 3.6627 -2.3493 0.9638
7.3497 5.0453 -2.3490 0.9638
6.3377 6.2675 -2.3487 0.9638
5.7542 6.8061 -2.3485 0.9638
5.1251 7.2906 -2.3482 0.9638
4.4555 7.7171 -2.3480 0.9638
3.7505 8.0822 -2.3478 0.9638
3.0160 8.3831 -2.3476 0.9638
1.4816 8.7833 -2.3471 0.9638
-0.0992 8.9050 -2.3466 0.9638
-1.6762 8.7446 -2.3462 0.9638
-3.1995 8.3073 -2.3457 0.9638
-6.4653 6.1149 -2.3449 0.9639
-7.5442 4.9352 -2.3755 0.9634
-9.0179 2.9079 -2.4967 0.9616
-9.3905 1.2629 -2.4967 0.9616
-9.4659 -0.4221 -2.4968 0.9616
-9.3910 -1.2630 -2.4968 0.9616
-9.2417 -2.0938 -2.4969 0.9616
-7.9317 -5.1886 -2.4975 0.9616
-6.8871 -6.5138 -2.4978 0.9615
-4.1824 -8.5108 -2.4988 0.9615
-2.6076 -9.1193 -2.4993 0.9615
-1.7858 -9.3162 -2.4995 0.9615
-0.1057 -9.4871 -2.5000 0.9615
0.7392 -9.4598 -2.5003 0.9615
2.4052 -9.1806 -2.5007 0.9615
3.2131 -8.9310 -2.5010 0.9615
4.7465 -8.2211 -2.5014 0.9615
5.4598 -7.7666 -2.5016 0.9615
6.1298 -7.2503 -2.5017 0.9615
8.9711 -3.1151 -2.5024 0.9615
9.3815 -1.4752 -2.5024 0.9615
9.4941 0.2116 -2.5023 0.9615
9.4374 1.0557 -2.5023 0.9615
13.9593 2.8374 -3.7535 0.9428
8.5451 2.5467 -2.3495 0.9638
7.9574 4.0210 -2.3493 0.9638
7.5674 4.7130 -2.3491 0.9638
7.1174 5.3675 -2.3489 0.9638
6.0520 6.5433 -2.3486 0.9638
5.4450 7.0554 -2.3484 0.9638
4.7950 7.5113 -2.3481 0.9638
-0.4958 8.8913 -2.3465 0.9638
-5.5931 6.9227 -2.3451 0.9639
-6.1867 6.3970 -2.3449 0.9639
-6.7311 5.8206 -2.3448 0.9639
-7.2221 5.1981 -2.3447 0.9639
-8.1529 4.8290 -2.4969 0.9616
-8.8795 3.3068 -2.4967 0.9616
-9.1384 2.5033 -2.4967 0.9616
-9.4375 0.8433 -2.4967 0.9616
-6.1723 -6.3821 -2.4981 0.9638
-5.5803 -6.9068 -2.4983 0.9638
-4.9438 -7.3766 -2.4985 0.9638
-2.8200 -8.4230 -2.4992 0.9638
-2.0593 -8.6413 -2.4994 0.9638
-1.2822 -8.7912 -2.4996 0.9638
-0.4947 -8.8713 -2.4999 0.9638
0.2969 -8.8810 -2.5001 0.9637
1.0863 -8.8201 -2.5003 0.9637
1.8672 -8.6892 -2.5006 0.9637
3.3788 -8.2218 -2.5010 0.9637
4.7838 -7.4936 -2.5014 0.9637
5.4321 -7.0385 -2.5015 0.9637
6.0374 -6.5275 -2.5017 0.9637
6.5947 -5.9646 -2.5018 0.9637
7.0998 -5.3542 -2.5019 0.9637
8.8911 -0.1981 -2.5022 0.9637
8.7849 1.3814 -2.5021 0.9637
12.9410 3.2368 -3.7532 0.9461
7.8879 2.7390 -2.3493 0.9659
7.6125 3.4300 -2.3492 0.9659
7.2766 4.0937 -2.3491 0.9659
6.8829 4.7248 -2.3489 0.9659
5.9352 5.8695 -2.3486 0.9659
4.7997 6.8277 -2.3482 0.9659
4.1726 7.2271 -2.3480 0.9659
1.3875 8.2259 -2.3471 0.9659
-0.0929 8.3400 -2.3466 0.9659
-0.8348 8.2978 -2.3464 0.9659
-2.2924 8.0170 -2.3460 0.9659
-4.3279 7.1247 -2.3455 0.9660
-4.9446 6.7108 -2.3453 0.9660
-5.5219 6.2437 -2.3452 0.9660
-6.0554 5.7271 -2.3450 0.9660
-6.5408 5.1652 -2.3449 0.9660
-7.8298 4.1781 -2.4970 0.9638
-8.1704 3.4646 -2.4969 0.9638
-8.7952 1.1829 -2.4969 0.9638
-8.8656 0.3953 -2.4969 0.9638
-4.2110 -0.1878 -1.1860 0.9826
-8.4472 -2.7238 -2.4972 0.9638
-8.1716 -3.4651 -2.4973 0.9638
-7.4287 -4.8596 -2.4976 0.9638
-6.9671 -5.5019 -2.4978 0.9638
-5.8821 -6.6511 -2.4982 0.9638
-5.2673 -7.1488 -2.4984 0.9638
-4.6105 -7.5899 -2.4986 0.9638
-3.9170 -7.9709 -2.4988 0.9638
-2.4421 -8.5406 -2.4993 0.9638
-1.6724 -8.7250 -2.4995 0.9638
1.4782 -8.7633 -2.5004 0.9637
2.2525 -8.5978 -2.5007 0.9637
3.0091 -8.3638 -2.5009 0.9637
3.7418 -8.0635 -2.5011 0.9637
5.7404 -6.7898 -2.5016 0.9637
6.8541 -5.6650 -2.5019 0.9637
7.3314 -5.0327 -2.5020 0.9637
8.1081 -3.6533 -2.5021 0.9637
13.0725 2.6571 -3.7533 0.9461
7.0867 4.4137 -2.3490 0.9659
6.6653 5.0266 -2.3488 0.9659
5.6676 6.1278 -2.3485 0.9659
4.4906 7.0344 -2.3481 0.9659
3.8463 7.4055 -2.3479 0.9659
3.1716 7.7177 -2.3476 0.9659
2.4719 7.9687 -2.3474 0.9659
1.7527 8.1563 -2.3472 0.9659
0.2787 8.3362 -2.3468 0.9659
-0.4643 8.3272 -2.3465 0.9659
-3.3401 7.6389 -2.3457 0.9659
-4.6409 6.9246 -2.3454 0.9660
-5.2384 6.4837 -2.3452 0.9660
-5.7944 5.9914 -2.3451 0.9660
-6.7642 4.8686 -2.3449 0.9660
-7.6360 4.5228 -2.4970 0.9638
-8.3165 3.0971 -2.4969 0.9638
-8.5591 2.3446 -2.4969 0.9638
-8.8392 0.7899 -2.4969 0.9638
-3.9677 0.0000 -1.1878 0.9836
-3.4798 -0.6269 -1.0586 0.9853
-7.5276 -3.5956 -2.4975 0.9658
-7.1781 -4.2516 -2.4976 0.9658
-6.3113 -5.4576 -2.4980 0.9658
-5.2445 -6.4912 -2.4983 0.9658
-4.6463 -6.9327 -2.4985 0.9658
-3.3440 -7.6480 -2.4990 0.9657
-1.9354 -8.1211 -2.4994 0.9657
-1.2050 -8.2619 -2.4996 0.9657
1.0209 -8.2889 -2.5003 0.9657
1.7547 -8.1658 -2.5005 0.9657
3.1753 -7.7266 -2.5009 0.9657
5.1048 -6.6145 -2.5014 0.9657
6.1974 -5.6052 -2.5017 0.9657
7.4588 -3.7691 -2.5019 0.9657
7.7649 -3.0904 -2.5020 0.9657
8.0092 -2.3870 -2.5020 0.9657
8.1900 -1.6647 -2.5020 0.9657
8.3552 -0.1862 -2.5020 0.9657
8.2555 1.2981 -2.5019 0.9657
7.1538 3.2234 -2.3491 0.9678
6.8381 3.8471 -2.3489 0.9678
5.5777 5.5159 -2.3485 0.9678
3.3009 7.1134 -2.3477 0.9678
2.6545 7.3783 -2.3475 0.9678
1.9871 7.5846 -2.3473 0.9678
1.3040 7.7306 -2.3471 0.9678
0.6107 7.8153 -2.3469 0.9678
-0.0873 7.8380 -2.3467 0.9678
-2.1544 7.5345 -2.3461 0.9678
-2.8163 7.3123 -2.3459 0.9678
-3.4557 7.0321 -2.3457 0.9678
-4.0675 6.6961 -2.3456 0.9678
-5.1897 5.8681 -2.3453 0.9678
-5.6911 5.3827 -2.3452 0.9678
-6.1473 4.8545 -2.3450 0.9678
-6.9804 4.5664 -2.4972 0.9658
-7.3589 3.9268 -2.4971 0.9658
-7.9382 2.5598 -2.4970 0.9658
-3.5144 -0.4726 -1.0616 0.9853
-3.4642 -0.7849 -1.0634 0.9853
-7.6801 -3.2566 -2.4974 0.9658
-6.9818 -4.5673 -2.4977 0.9658
-6.0622 -5.7336 -2.4980 0.9658
-4.9503 -6.7186 -2.4984 0.9658
-4.3330 -7.1331 -2.4986 0.9658
-3.6812 -7.4911 -2.4989 0.9657
-3.0001 -7.7897 -2.4991 0.9657
-2.2951 -8.0265 -2.4993 0.9657
-1.5717 -8.1996 -2.4995 0.9657
1.3892 -8.2355 -2.5004 0.9657
2.1168 -8.0799 -2.5006 0.9657
2.8278 -7.8601 -2.5008 0.9657
4.1772 -7.2352 -2.5012 0.9657
4.8049 -6.8351 -2.5013 0.9657
5.3946 -6.3807 -2.5015 0.9657
5.9414 -5.8755 -2.5016 0.9657
6.4410 -5.3237 -2.5017 0.9657
7.2834 -4.0976 -2.5019 0.9657
8.1076 -2.0279 -2.5020 0.9657
8.2560 -1.2982 -2.5020 0.9657
8.3552 0.1862 -2.5020 0.9657
8.3053 0.9291 -2.5019 0.9657
12.2848 2.4970 -3.7530 0.9490
12.0134 3.5804 -3.7529 0.9490
5.3262 5.7587 -2.3484 0.9678
4.7922 6.2094 -2.3482 0.9678
4.2201 6.6107 -2.3480 0.9678
3.6147 6.9596 -2.3478 0.9678
2.9807 7.2530 -2.3476 0.9678
1.6472 7.6652 -2.3472 0.9678
-0.4364 7.8259 -2.3466 0.9678
-1.1311 7.7554 -2.3464 0.9678
-1.8167 7.6233 -2.3462 0.9678
-3.1391 7.1793 -2.3458 0.9678
-3.7653 6.8709 -2.3456 0.9678
-4.9233 6.0937 -2.3453 0.9678
-5.4458 5.6309 -2.3452 0.9678
-5.9251 5.1236 -2.3451 0.9678
-6.6061 4.7548 -2.4368 0.9666
-7.5264 3.5951 -2.4971 0.9658
-8.2085 1.4788 -2.4970 0.9658
-3.7562 -0.0000 -1.1929 0.9844
-3.2843 -0.5917 -1.0598 0.9861
-3.2540 -0.8913 -1.0715 0.9859
-7.3696 -2.7445 -2.4975 0.9675
-7.0964 -3.3897 -2.4976 0.9675
-6.7669 -4.0080 -2.4977 0.9675
-6.3837 -4.5947 -2.4979 0.9675
-5.9498 -5.1449 -2.4981 0.9675
-5.4686 -5.6545 -2.4982 0.9675
-4.9440 -6.1192 -2.4984 0.9675
-4.3800 -6.5355 -2.4986 0.9675
-3.7813 -6.8999 -2.4988 0.9675
-2.4984 -7.4622 -2.4992 0.9675
-1.8244 -7.6557 -2.4994 0.9675
-1.1359 -7.7883 -2.4996 0.9675
-0.4382 -7.8591 -2.4998 0.9675
0.2630 -7.8677 -2.5000 0.9675
1.6541 -7.6976 -2.5004 0.9675
2.3328 -7.5204 -2.5006 0.9675
3.6298 -6.9886 -2.5010 0.9675
4.8120 -6.2350 -2.5013 0.9675
5.3481 -5.7823 -2.5014 0.9675
5.8418 -5.2836 -2.5015 0.9675
6.2892 -4.7429 -2.5017 0.9675
6.6866 -4.1644 -2.5017 0.9675
7.0309 -3.5529 -2.5018 0.9675
7.3194 -2.9130 -2.5019 0.9675
11.1624 3.8760 -3.7526 0.9516
6.7434 3.0384 -2.3490 0.9694
5.7001 4.7112 -2.3486 0.9694
5.2578 5.1996 -2.3484 0.9694
4.7738 5.6465 -2.3482 0.9694
3.6965 6.4025 -2.3479 0.9694
3.1117 6.7055 -2.3477 0.9695
2.5023 6.9553 -2.3475 0.9695
0.5757 7.3674 -2.3469 0.9695
-0.7396 7.3515 -2.3465 0.9695
-2.0310 7.1028 -2.3461 0.9695
-2.6549 6.8933 -2.3460 0.9695
-3.2577 6.6292 -2.3458 0.9695
-3.8345 6.3125 -2.3457 0.9695
-4.8925 5.5320 -2.3454 0.9695
-5.3652 5.0743 -2.3453 0.9695
-6.5806 4.3048 -2.4973 0.9675
-4.3818 0.1954 -1.3930 0.9818
-3.4557 -0.1541 -1.0986 0.9856
-6.5818 -4.3056 -2.4978 0.9675
-6.1729 -4.8746 -2.4980 0.9675
-5.2115 -5.8927 -2.4983 0.9675
-4.6666 -6.3336 -2.4985 0.9675
-4.0847 -6.7244 -2.4987 0.9675
-2.1636 -7.5665 -2.4993 0.9675
-1.4817 -7.7296 -2.4995 0.9675
-0.7879 -7.8315 -2.4997 0.9675
-0.0877 -7.8712 -2.4999 0.9675
0.6133 -7.8484 -2.5001 0.9675
1.9954 -7.6166 -2.5005 0.9675
2.6656 -7.4093 -2.5007 0.9675
4.5293 -6.4430 -2.5012 0.9675
5.6005 -5.5385 -2.5015 0.9675
6.0715 -5.0182 -2.5016 0.9675
6.4943 -4.4581 -2.5017 0.9675
7.1823 -3.2362 -2.5018 0.9675
7.6425 -1.9115 -2.5019 0.9675
7.7823 -1.2237 -2.5019 0.9675
7.8758 0.1755 -2.5019 0.9675
7.7195 1.5690 -2.5017 0.9675
6.8722 2.7351 -2.3490 0.9694
6.6012 3.3357 -2.3489 0.9694
6.2778 3.9098 -2.3488 0.9694
5.9045 4.4528 -2.3486 0.9694
3.9782 6.2317 -2.3480 0.9694
3.4074 6.5605 -2.3478 0.9695
2.8098 6.8372 -2.3476 0.9695
2.1899 7.0596 -2.3474 0.9695
0.9034 7.3347 -2.3470 0.9695
-0.4114 7.3775 -2.3466 0.9695
-1.0663 7.3110 -2.3464 0.9695
-1.7126 7.1865 -2.3462 0.9695
-2.3453 7.0050 -2.3461 0.9695
-3.5496 6.4773 -2.3457 0.9695
-4.1118 6.1353 -2.3456 0.9695
-6.3824 4.5938 -2.4974 0.9675
-6.7657 4.0073 -2.4973 0.9675
-7.5836 2.0774 -2.4972 0.9675
-7.7384 1.3941 -2.4972 0.9675
-3.6184 0.0000 -1.2157 0.9848
-3.2019 -0.2861 -1.0801 0.9865
-3.1483 -0.5672 -1.0748 0.9866
-6.9664 -2.5943 -2.4976 0.9691
-5.6242 -4.8634 -2.4981 0.9691
-5.1693 -5.3450 -2.4983 0.9691
-4.1403 -6.1778 -2.4986 0.9691
-2.9798 -6.8150 -2.4990 0.9691
-1.0737 -7.3618 -2.4996 0.9691
-0.4142 -7.4288 -2.4998 0.9691
0.9096 -7.3857 -2.5002 0.9691
2.2051 -7.1084 -2.5006 0.9691
3.4309 -6.6057 -2.5009 0.9691
4.0055 -6.2745 -2.5011 0.9691
4.5483 -5.8934 -2.5012 0.9691
5.5217 -4.9941 -2.5014 0.9691
5.9445 -4.4830 -2.5015 0.9691
6.3202 -3.9362 -2.5016 0.9691
6.6456 -3.3582 -2.5017 0.9691
6.9182 -2.7534 -2.5017 0.9691
7.1359 -2.1267 -2.5018 0.9691
7.4442 -0.1659 -2.5017 0.9691
7.4293 0.4973 -2.5017 0.9691
7.2230 1.8066 -2.5016 0.9691
10.5507 3.6636 -3.7525 0.9540
6.3739 2.8720 -2.3489 0.9709
6.0927 3.4277 -2.3487 0.9709
5.7631 3.9561 -2.3486 0.9709
4.0191 5.7172 -2.3480 0.9709
3.4940 6.0518 -2.3478 0.9709
1.1619 6.8885 -2.3471 0.9710
0.5442 6.9640 -2.3469 0.9710
-2.5096 6.5161 -2.3460 0.9710
-3.0794 6.2664 -2.3459 0.9710
-3.6247 5.9671 -2.3457 0.9710
-4.6248 5.2293 -2.3455 0.9710
-5.8302 4.6040 -2.4959 0.9691
-6.2206 4.0693 -2.4975 0.9691
-7.2491 1.6424 -2.4973 0.9691
-3.1639 -0.4255 -1.0726 0.9866
-6.5589 -3.4999 -2.4978 0.9691
-6.2217 -4.0700 -2.4979 0.9691
-5.8351 -4.6079 -2.4981 0.9691
-5.4021 -5.1093 -2.4982 0.9691
-4.9262 -5.5702 -2.4984 0.9691
-4.4112 -5.9870 -2.4986 0.9691
-3.8611 -6.3563 -2.4987 0.9691
-3.2803 -6.6752 -2.4989 0.9691
-0.0829 -7.4401 -2.4999 0.9691
0.5797 -7.4186 -2.5001 0.9691
1.2378 -7.3381 -2.5003 0.9691
1.8861 -7.1994 -2.5005 0.9691
2.5196 -7.0034 -2.5007 0.9691
3.1332 -6.7518 -2.5008 0.9691
4.2812 -6.0901 -2.5011 0.9691
4.8065 -5.6851 -2.5013 0.9691
5.2936 -5.2350 -2.5014 0.9691
5.7388 -4.7433 -2.5015 0.9691
6.1384 -4.2138 -2.5016 0.9691
6.4893 -3.6508 -2.5017 0.9691
6.7887 -3.0588 -2.5017 0.9691
7.0341 -2.4425 -2.5017 0.9691
7.2236 -1.8068 -2.5018 0.9691
7.3558 -1.1567 -2.5018 0.9691
7.4295 -0.4973 -2.5018 0.9691
7.4442 0.1659 -2.5017 0.9691
7.2965 1.4831 -2.5016 0.9691
6.4956 2.5852 -2.3489 0.9709
5.5810 4.2088 -2.3486 0.9709
5.1839 4.6886 -2.3484 0.9709
4.7457 5.1310 -2.3483 0.9709
3.2208 6.2012 -2.3477 0.9709
2.6559 6.4627 -2.3476 0.9709
2.0700 6.6730 -2.3474 0.9709
1.4677 6.8302 -2.3472 0.9710
0.8539 6.9331 -2.3470 0.9710
0.2334 6.9810 -2.3468 0.9710
-1.0079 6.9108 -2.3465 0.9710
-1.6189 6.7931 -2.3463 0.9710
-4.8530 5.0180 -2.3454 0.9710
-5.2802 4.5659 -2.3453 0.9710
-6.3956 3.7881 -2.4974 0.9691
-6.9656 2.5940 -2.4973 0.9691
-6.3564 -3.0362 -2.4978 0.9705
-5.7179 -4.1155 -2.4981 0.9705
-5.3292 -4.6084 -2.4982 0.9705
-4.4283 -5.4809 -2.4985 0.9705
-2.8235 -6.4575 -2.4990 0.9705
-2.2377 -6.6837 -2.4992 0.9705
-1.0174 -6.9756 -2.4996 0.9705
1.4814 -6.8941 -2.5003 0.9705
2.0893 -6.7353 -2.5005 0.9705
3.7952 -5.9451 -2.5010 0.9705
4.3095 -5.5840 -2.5011 0.9705
4.7897 -5.1785 -2.5012 0.9705
5.6324 -4.2476 -2.5014 0.9705
6.2966 -3.1818 -2.5016 0.9705
6.7612 -2.0151 -2.5016 0.9705
7.0533 -0.1572 -2.5016 0.9705
9.9967 3.4712 -3.7523 0.9561
6.0392 2.7212 -2.3488 0.9723
5.4605 3.7485 -2.3485 0.9723
2.7869 6.0056 -2.3476 0.9723
1.1010 6.5271 -2.3471 0.9723
0.5156 6.5987 -2.3469 0.9723
-0.0737 6.6179 -2.3467 0.9723
-0.6624 6.5845 -2.3466 0.9723
-1.2457 6.4990 -2.3464 0.9723
-1.8191 6.3619 -2.3462 0.9723
-2.3780 6.1743 -2.3461 0.9723
-4.3823 4.9551 -2.3456 0.9723
-5.8944 3.8560 -2.4976 0.9705
-6.2141 3.3160 -2.4975 0.9705
-6.4844 2.7496 -2.4975 0.9706
-6.8691 1.5563 -2.4974 0.9706
-3.9464 0.1760 -1.4007 0.9834
-3.0241 -0.6852 -1.0995 0.9869
-6.2150 -3.3164 -2.4979 0.9705
-5.5291 -4.3663 -2.4981 0.9705
-5.1188 -4.8413 -2.4983 0.9705
-3.6586 -6.0229 -2.4988 0.9705
-3.1082 -6.3251 -2.4990 0.9705
-2.5331 -6.5771 -2.4991 0.9705
-1.9378 -6.7770 -2.4993 0.9705
-0.0785 -7.0497 -2.4999 0.9705
1.7872 -6.8215 -2.5004 0.9705
2.3874 -6.6358 -2.5006 0.9705
2.9687 -6.3973 -2.5008 0.9705
3.5265 -6.1081 -2.5009 0.9705
4.5541 -5.3866 -2.5012 0.9705
5.0157 -4.9602 -2.5013 0.9705
5.8161 -3.9925 -2.5015 0.9705
6.1486 -3.4591 -2.5015 0.9705
6.4322 -2.8982 -2.5016 0.9705
6.6647 -2.3142 -2.5016 0.9705
6.8443 -1.7119 -2.5017 0.9705
7.0393 -0.4712 -2.5016 0.9705
7.0533 0.1572 -2.5016 0.9705
10.1415 3.0225 -3.7524 0.9561
9.8319 3.9130 -3.7522 0.9561
5.9119 2.9874 -2.3487 0.9723
5.6223 3.5016 -2.3486 0.9723
5.2880 3.9879 -2.3485 0.9723
4.9118 4.4424 -2.3483 0.9723
4.0458 5.2422 -2.3480 0.9723
3.0518 5.8757 -2.3477 0.9723
2.5165 6.1236 -2.3475 0.9723
-0.3684 6.6078 -2.3467 0.9723
-0.9550 6.5483 -2.3465 0.9723
-2.1007 6.2743 -2.3462 0.9723
-2.6506 6.0621 -2.3460 0.9723
-3.6830 5.4954 -2.3457 0.9723
-4.1573 5.1455 -2.3456 0.9723
-5.2064 4.5022 -2.4406 0.9712
-5.7169 4.1148 -2.4976 0.9705
-6.3556 3.0358 -2.4975 0.9706
-6.9316 1.2488 -2.4974 0.9706
-7.0152 0.6269 -2.4974 0.9706
-3.3741 0.0000 -1.2599 0.9857
-2.9938 -0.2675 -1.1224 0.9872
-2.9455 -0.5307 -1.1176 0.9873
-2.9169 -0.7990 -1.1293 0.9872
-5.7558 -3.4092 -2.4980 0.9718
-5.0607 -4.3762 -2.4983 0.9718
-4.2051 -5.2047 -2.4986 0.9718
-3.2161 -5.8686 -2.4989 0.9718
-2.1249 -6.3468 -2.4992 0.9718
-1.5517 -6.5111 -2.4994 0.9718
-0.3727 -6.6841 -2.4998 0.9718
1.4067 -6.5464 -2.5003 0.9718
2.5455 -6.1941 -2.5006 0.9718
3.0869 -5.9433 -2.5008 0.9718
4.0921 -5.3023 -2.5010 0.9718
4.5481 -4.9173 -2.5011 0.9718
4.9679 -4.4932 -2.5012 0.9718
5.9790 -3.0213 -2.5015 0.9718
6.5649 -1.3344 -2.5015 0.9718
6.6576 -0.7448 -2.5015 0.9718
6.6974 -0.1493 -2.5015 0.9718
9.4924 3.2961 -3.7522 0.9580
9.1610 4.1278 -3.7520 0.9580
5.4816 3.0839 -2.3486 0.9735
5.1851 3.5594 -2.3485 0.9735
4.8475 4.0065 -2.3483 0.9735
4.4714 4.4219 -2.3482 0.9735
3.1437 5.4450 -2.3478 0.9735
-0.0700 6.2843 -2.3468 0.9735
-0.6290 6.2527 -2.3466 0.9735
-1.1830 6.1714 -2.3464 0.9735
-1.7274 6.0413 -2.3463 0.9735
-2.7709 5.6386 -2.3460 0.9735
-3.2616 5.3693 -2.3459 0.9735
-3.7263 5.0574 -2.3458 0.9735
-5.2495 4.1455 -2.4977 0.9718
-5.5975 3.6617 -2.4977 0.9718
-5.9010 3.1489 -2.4976 0.9718
-6.1578 2.6111 -2.4976 0.9718
-6.3657 2.0527 -2.4975 0.9718
-6.5231 1.4779 -2.4975 0.9718
-6.6287 0.8915 -2.4975 0.9718
-3.7910 0.1690 -1.4170 0.9839
-2.9640 -0.3986 -1.1167 0.9873
-2.9258 -0.6629 -1.1202 0.9873
-2.9106 -0.9386 -1.1419 0.9870
-6.1585 -2.6114 -2.4979 0.9718
-5.9019 -3.1493 -2.4980 0.9718
-5.2505 -4.1463 -2.4982 0.9718
-3.9692 -5.3871 -2.4987 0.9718
-3.4742 -5.7193 -2.4988 0.9718
-2.4054 -6.2456 -2.4992 0.9718
-1.2601 -6.5740 -2.4995 0.9718
-0.0746 -6.6943 -2.4999 0.9718
0.5216 -6.6748 -2.5000 0.9718
1.1137 -6.6023 -2.5002 0.9718
1.6970 -6.4775 -2.5004 0.9718
2.2670 -6.3011 -2.5005 0.9718
2.8190 -6.0747 -2.5007 0.9718
3.3486 -5.8000 -2.5008 0.9718
3.8518 -5.4792 -2.5010 0.9718
4.3244 -5.1149 -2.5011 0.9718
4.7627 -4.7099 -2.5012 0.9718
5.1632 -4.2675 -2.5013 0.9718
5.8384 -3.2846 -2.5014 0.9718
6.1077 -2.7520 -2.5015 0.9718
6.6974 0.1493 -2.5015 0.9718
9.3359 3.7156 -3.7521 0.9580
4.6640 4.2184 -2.3483 0.9735
3.8417 4.9779 -2.3480 0.9735
2.3896 5.8148 -2.3475 0.9735
1.3206 6.1455 -2.3472 0.9735
0.7683 6.2382 -2.3470 0.9735
0.2100 6.2814 -2.3468 0.9735
-0.3499 6.2747 -2.3467 0.9735
-2.5170 5.7566 -2.3461 0.9735
-3.4974 5.2185 -2.3458 0.9735
-4.3669 4.5153 -2.3456 0.9735
-5.0597 4.3753 -2.4978 0.9718
-5.7550 3.4087 -2.4976 0.9718
-6.0354 2.8829 -2.4976 0.9718
-6.2679 2.3342 -2.4975 0.9718
-6.4508 1.7671 -2.4975 0.9718
-6.5824 1.1859 -2.4975 0.9718
-4.2614 0.3808 -1.5976 0.9819
-2.9005 -0.2592 -1.1429 0.9876
-2.8518 -0.5138 -1.1373 0.9876
-2.8313 -0.7756 -1.1521 0.9875
-5.4765 -3.2437 -2.4981 0.9730
-5.1663 -3.7185 -2.4982 0.9730
-3.5445 -5.2888 -2.4988 0.9730
-3.0599 -5.5837 -2.4989 0.9730
-2.5510 -5.8343 -2.4991 0.9730
-0.3546 -6.3594 -2.4998 0.9730
0.2129 -6.3662 -2.4999 0.9730
1.3384 -6.2284 -2.5003 0.9730
1.8876 -6.0849 -2.5004 0.9730
3.4287 -5.3709 -2.5008 0.9730
4.7264 -4.2748 -2.5012 0.9730
5.4098 -3.3692 -2.5013 0.9730
5.6884 -2.8745 -2.5014 0.9730
5.9217 -2.3568 -2.5014 0.9730
6.1081 -1.8204 -2.5014 0.9730
6.3341 -0.7086 -2.5014 0.9730
6.3719 -0.1420 -2.5014 0.9730
6.3592 0.4257 -2.5014 0.9730
6.2959 0.9900 -2.5013 0.9730
6.1827 1.5464 -2.5013 0.9730
8.7157 3.9272 -3.7519 0.9598
5.2152 2.9341 -2.3485 0.9746
4.6119 3.8119 -2.3483 0.9746
4.2541 4.2070 -2.3482 0.9746
3.8626 4.5687 -2.3480 0.9746
2.5178 5.4258 -2.3476 0.9746
0.4659 5.9617 -2.3469 0.9746
-0.0666 5.9791 -2.3468 0.9746
-2.1485 5.5786 -2.3462 0.9746
-2.6364 5.3649 -2.3461 0.9746
-3.1033 5.1087 -2.3459 0.9746
-4.6240 4.3734 -2.4979 0.9730
-6.0568 1.9530 -2.4976 0.9730
-6.3070 0.8482 -2.4976 0.9730
-3.6456 0.1626 -1.4322 0.9844
-2.8734 -0.3864 -1.1379 0.9876
-2.8403 -0.9159 -1.1712 0.9873
-2.8717 -1.2177 -1.2242 0.9867
-4.9956 -3.9450 -2.4983 0.9730
-4.6249 -4.3742 -2.4984 0.9730
-4.2175 -4.7688 -2.4985 0.9730
-3.3055 -5.4416 -2.4988 0.9730
-0.0710 -6.3691 -2.4999 0.9730
1.0596 -6.2816 -2.5002 0.9730
2.1568 -5.9950 -2.5005 0.9730
2.6820 -5.7796 -2.5006 0.9730
3.1859 -5.5182 -2.5008 0.9730
4.5312 -4.4811 -2.5011 0.9730
5.8108 -2.6182 -2.5014 0.9730
6.2962 -0.9901 -2.5014 0.9730
6.3339 0.7086 -2.5014 0.9730
5.0792 3.1634 -2.3485 0.9746
3.2189 5.0423 -2.3478 0.9746
2.7571 5.3084 -2.3477 0.9746
0.1998 5.9764 -2.3469 0.9746
-0.8629 5.9163 -2.3466 0.9746
-1.8979 5.6689 -2.3463 0.9746
-2.3948 5.4771 -2.3461 0.9746
-3.3277 4.9652 -2.3459 0.9746
-4.1910 4.3334 -2.3660 0.9744
-4.8142 4.1630 -2.4979 0.9730
-5.4757 3.2433 -2.4977 0.9730
-5.7425 2.7430 -2.4977 0.9730
-6.1377 1.6813 -2.4976 0.9730
-6.2630 1.1284 -2.4976 0.9730
-4.1297 0.3690 -1.6273 0.9823
-2.8130 -0.2514 -1.1629 0.9879
-2.7695 -0.7587 -1.1825 0.9877
-2.7842 -1.0369 -1.2234 0.9872
-4.9241 -3.5442 -2.4983 0.9741
-4.5894 -3.9686 -2.4984 0.9741
-4.2181 -4.3615 -2.4985 0.9741
-3.8134 -4.7199 -2.4987 0.9741
-3.3784 -5.0409 -2.4988 0.9741
-2.4314 -5.5607 -2.4991 0.9741
-1.4071 -5.9045 -2.4994 0.9741
-0.3380 -6.0612 -2.4998 0.9741
0.2029 -6.0676 -2.4999 0.9741
1.2756 -5.9362 -2.5002 0.9741
1.7990 -5.7995 -2.5004 0.9741
2.3082 -5.6166 -2.5005 0.9741
2.7991 -5.3892 -2.5007 0.9741
3.2678 -5.1189 -2.5008 0.9741
3.7106 -4.8080 -2.5009 0.9741
4.5047 -4.0742 -2.5011 0.9741
5.1560 -3.2112 -2.5012 0.9741
5.4214 -2.7396 -2.5013 0.9741
5.6438 -2.2462 -2.5013 0.9741
5.8214 -1.7349 -2.5013 0.9741
6.0729 -0.1353 -2.5013 0.9741
6.0608 0.4057 -2.5013 0.9741
6.0005 0.9435 -2.5013 0.9741
5.8926 1.4738 -2.5012 0.9741
8.3068 3.7429 -3.7518 0.9614
7.9404 4.4672 -3.7516 0.9614
4.7017 3.2276 -2.3483 0.9756
4.3956 3.6330 -2.3482 0.9756
4.0545 4.0096 -2.3481 0.9756
2.8507 4.9375 -2.3477 0.9756
2.3997 5.1713 -2.3476 0.9756
1.9298 5.3640 -2.3474 0.9756
0.9481 5.6205 -2.3471 0.9756
-0.0635 5.6988 -2.3468 0.9756
-0.5704 5.6702 -2.3467 0.9756
-1.5665 5.4786 -2.3464 0.9757
-2.0478 5.3170 -2.3462 0.9757
-2.9578 4.8692 -2.3460 0.9757
-3.3793 4.5864 -2.3459 0.9757
-4.4074 4.1684 -2.4980 0.9741
-5.3516 2.8557 -2.4978 0.9741
-5.5844 2.3680 -2.4977 0.9741
-5.7729 1.8615 -2.4977 0.9741
-5.9157 1.3403 -2.4977 0.9741
-2.7947 -0.3758 -1.1611 0.9879
-2.7756 -0.6289 -1.1719 0.9878
-2.7775 -0.8956 -1.2017 0.9875
-2.8016 -1.1879 -1.2531 0.9869
-5.3522 -2.8560 -2.4981 0.9741
-4.4081 -4.1692 -2.4985 0.9741
-3.5995 -4.8853 -2.4987 0.9741
-3.1506 -5.1865 -2.4989 0.9741
-2.6766 -5.4467 -2.4990 0.9741
-2.1813 -5.6637 -2.4992 0.9741
-1.6687 -5.8357 -2.4994 0.9741
-0.6076 -6.0399 -2.4997 0.9741
-0.0676 -6.0704 -2.4998 0.9741
0.4730 -6.0527 -2.5000 0.9741
1.0099 -5.9870 -2.5002 0.9741
2.0556 -5.7137 -2.5005 0.9741
3.0365 -5.2593 -2.5007 0.9741
3.4927 -4.9684 -2.5008 0.9741
3.9212 -4.6380 -2.5009 0.9741
4.3186 -4.2708 -2.5010 0.9741
5.0077 -3.4376 -2.5012 0.9741
5.2940 -2.9783 -2.5013 0.9741
5.7383 -1.9925 -2.5013 0.9741
5.8929 -1.4739 -2.5014 0.9741
6.0609 -0.4057 -2.5013 0.9741
6.0729 0.1353 -2.5013 0.9741
6.0366 0.6753 -2.5013 0.9741
4.8409 3.0149 -2.3484 0.9756
4.5532 3.4337 -2.3483 0.9756
4.2293 3.8252 -2.3482 0.9756
3.4837 4.5139 -2.3479 0.9756
3.0679 4.8058 -2.3478 0.9756
2.6278 5.0594 -2.3476 0.9756
2.1669 5.2729 -2.3475 0.9756
1.1975 5.5729 -2.3472 0.9756
0.6967 5.6570 -2.3470 0.9756
0.1904 5.6962 -2.3469 0.9756
-1.8090 5.4031 -2.3463 0.9757
-2.2826 5.2204 -2.3462 0.9757
-2.7380 4.9962 -2.3460 0.9757
-3.5802 4.4313 -2.3458 0.9757
-4.9234 3.5436 -2.4979 0.9741
-5.2191 3.0913 -2.4978 0.9741
-5.4734 2.6144 -2.4978 0.9741
-5.6843 2.1168 -2.4977 0.9741
-5.8501 1.6025 -2.4977 0.9741
-3.9772 0.3554 -1.6443 0.9829
-2.7278 -0.4914 -1.1956 0.9880
-2.7209 -1.0133 -1.2524 0.9874
-2.7300 -1.3040 -1.3050 0.9869
-4.7008 -3.3834 -2.4983 0.9751
-4.0268 -4.1637 -2.4986 0.9751
-1.8395 -5.4942 -2.4993 0.9751
-0.3226 -5.7861 -2.4998 0.9751
0.7085 -5.7523 -2.5001 0.9751
1.7174 -5.5362 -2.5003 0.9751
2.2034 -5.3616 -2.5005 0.9751
2.6720 -5.1445 -2.5006 0.9751
3.5421 -4.5897 -2.5008 0.9751
4.3001 -3.8892 -2.5010 0.9751
4.9218 -3.0653 -2.5012 0.9751
5.7855 0.3873 -2.5012 0.9751
5.6250 1.4069 -2.5011 0.9751
4.4882 3.0810 -2.3483 0.9766
2.7213 4.7134 -2.3477 0.9766
1.8422 5.1206 -2.3474 0.9766
1.3791 5.2639 -2.3473 0.9766
0.9050 5.3654 -2.3471 0.9766
0.4239 5.4243 -2.3470 0.9766
-0.0606 5.4402 -2.3468 0.9766
-1.0241 5.3426 -2.3465 0.9766
-1.4955 5.2300 -2.3464 0.9766
-1.9549 5.0758 -2.3463 0.9766
-2.3988 4.8814 -2.3462 0.9766
-3.2260 4.3784 -2.3459 0.9766
-3.7497 4.2398 -2.4415 0.9756
-4.2074 3.9794 -2.4981 0.9751
-4.5448 3.5890 -2.4980 0.9751
-5.1089 2.7262 -2.4979 0.9751
-5.3311 2.2606 -2.4978 0.9751
-5.5111 1.7771 -2.4978 0.9751
-5.6474 1.2795 -2.4978 0.9751
-5.7389 0.7718 -2.4978 0.9751
-2.8614 -0.1276 -1.2355 0.9876
-4.5455 -3.5895 -2.4984 0.9751
-4.2082 -3.9800 -2.4985 0.9751
-3.8374 -4.3390 -2.4986 0.9751
-3.4362 -4.6636 -2.4988 0.9751
-2.5551 -5.1996 -2.4991 0.9751
-1.5930 -5.5709 -2.4994 0.9751
-0.5800 -5.7658 -2.4997 0.9751
-0.0646 -5.7949 -2.4998 0.9751
1.9623 -5.4543 -2.5004 0.9751
2.8986 -5.0205 -2.5007 0.9751
3.3341 -4.7428 -2.5008 0.9751
4.1225 -4.0768 -2.5010 0.9751
4.4692 -3.6938 -2.5011 0.9751
4.7803 -3.2815 -2.5011 0.9751
5.4777 -1.9021 -2.5013 0.9751
5.7282 -0.9007 -2.5013 0.9751
5.7856 -0.3873 -2.5013 0.9751
5.7971 0.1292 -2.5012 0.9751
5.6821 1.1549 -2.5011 0.9751
8.0811 3.2162 -3.7517 0.9628
3.3255 4.3090 -2.3479 0.9766
2.9286 4.5876 -2.3477 0.9766
2.5085 4.8298 -2.3476 0.9766
2.0686 5.0336 -2.3475 0.9766
1.6122 5.1974 -2.3473 0.9766
0.6651 5.4002 -2.3470 0.9766
-0.7851 5.3831 -2.3466 0.9766
-2.6138 4.7696 -2.3461 0.9766
-3.0278 4.5178 -2.3460 0.9766
-3.4178 4.2302 -2.3459 0.9766
-4.0261 4.1629 -2.4981 0.9751
-2.9980 -0.0000 -1.3528 0.9869
-2.7005 -0.2413 -1.2234 0.9882
-2.6738 -0.4817 -1.2259 0.9881
-2.6546 -0.7272 -1.2419 0.9880
-2.6607 -0.9909 -1.2811 0.9876
-4.4940 -3.2346 -2.4984 0.9760
-4.1884 -3.6219 -2.4985 0.9760
-3.8496 -3.9805 -2.4986 0.9760
-3.0832 -4.6004 -2.4989 0.9760
-2.6616 -4.8569 -2.4990 0.9760
-2.2189 -5.0748 -2.4992 0.9760
-1.7585 -5.2525 -2.4993 0.9760
-0.7995 -5.4816 -2.4996 0.9760
-0.3084 -5.5314 -2.4997 0.9760
0.1851 -5.5372 -2.4999 0.9760
0.6773 -5.4991 -2.5000 0.9760
1.1641 -5.4172 -2.5002 0.9760
1.6417 -5.2925 -2.5003 0.9760
2.9821 -4.6713 -2.5007 0.9760
3.3862 -4.3876 -2.5008 0.9760
4.4255 -3.3374 -2.5010 0.9760
4.9473 -2.5000 -2.5011 0.9760
5.3123 -1.5832 -2.5012 0.9760
5.5089 -0.6163 -2.5012 0.9760
5.5418 -0.1235 -2.5012 0.9760
5.5307 0.3702 -2.5011 0.9760
5.4757 0.8611 -2.5011 0.9760
5.2361 1.8182 -2.5010 0.9760
7.5804 3.4156 -3.7516 0.9642
4.0112 3.3154 -2.3481 0.9774
3.7001 3.6591 -2.3480 0.9774
2.6015 4.5059 -2.3477 0.9774
2.1900 4.7193 -2.3475 0.9774
1.7611 4.8952 -2.3474 0.9774
1.3184 5.0322 -2.3472 0.9774
0.8652 5.1293 -2.3471 0.9774
0.4052 5.1856 -2.3470 0.9774
-0.0579 5.2008 -2.3468 0.9774
-0.5206 5.1747 -2.3467 0.9774
-1.8689 4.8525 -2.3463 0.9774
-2.6994 4.4439 -2.3461 0.9774
-3.0841 4.1858 -2.3460 0.9774
-3.6679 4.1474 -2.4982 0.9760
-4.8841 2.6063 -2.4979 0.9760
-5.0966 2.1612 -2.4979 0.9760
-5.3990 1.2233 -2.4979 0.9760
-5.4865 0.7379 -2.4979 0.9760
-2.7833 -0.1241 -1.2571 0.9878
-2.6871 -0.3614 -1.2234 0.9882
-2.6659 -0.6040 -1.2334 0.9881
-2.6574 -0.8569 -1.2599 0.9878
-2.6675 -1.1311 -1.3074 0.9874
-4.3455 -3.4316 -2.4984 0.9760
-2.8753 -4.7333 -2.4989 0.9760
-2.4427 -4.9707 -2.4991 0.9760
-1.9907 -5.1687 -2.4992 0.9760
-1.0428 -5.4405 -2.4995 0.9760
-0.5545 -5.5120 -2.4997 0.9760
0.4316 -5.5236 -2.5000 0.9760
0.9216 -5.4636 -2.5001 0.9760
1.8759 -5.2142 -2.5004 0.9760
2.3327 -5.0268 -2.5005 0.9760
2.7710 -4.7995 -2.5006 0.9760
3.5783 -4.2325 -2.5008 0.9760
4.5698 -3.1370 -2.5011 0.9760
5.3776 -1.3450 -2.5012 0.9760
5.4759 -0.8610 -2.5012 0.9760
5.5308 -0.3702 -2.5012 0.9760
5.5418 0.1235 -2.5012 0.9760
5.5087 0.6162 -2.5011 0.9760
5.4319 1.1041 -2.5011 0.9760
5.1498 2.0496 -2.5009 0.9760
7.4206 3.7498 -3.7515 0.9642
7.0571 4.3952 -3.7514 0.9642
4.1550 3.1335 -2.3482 0.9774
3.8595 3.4907 -2.3481 0.9774
3.1791 4.1193 -2.3478 0.9774
1.9775 4.8120 -2.3475 0.9774
0.6358 5.1626 -2.3470 0.9774
0.1738 5.1984 -2.3469 0.9774
-0.2896 5.1929 -2.3468 0.9774
-0.7506 5.1462 -2.3466 0.9774
-1.2055 5.0587 -2.3465 0.9774
-1.6509 4.9311 -2.3464 0.9774
-2.4988 4.5598 -2.3461 0.9774
-2.8946 4.3191 -2.3460 0.9774
-3.3738 4.1758 -2.4223 0.9767
-3.8490 3.9798 -2.4982 0.9760
-4.9954 2.3861 -2.4979 0.9760
-5.1878 1.9320 -2.4979 0.9760
-2.9112 -0.0000 -1.3723 0.9872
-2.6448 -0.2363 -1.2517 0.9883
-2.6023 -0.9691 -1.3090 0.9878
-2.6596 -1.5753 -1.4571 0.9864
-4.3018 -3.0963 -2.4984 0.9768
-4.0094 -3.4670 -2.4985 0.9768
-3.6850 -3.8103 -2.4986 0.9768
-2.5478 -4.6492 -2.4990 0.9768
-2.1240 -4.8578 -2.4992 0.9768
-1.2292 -5.1580 -2.4994 0.9768
0.1772 -5.3004 -2.4999 0.9768
0.6483 -5.2638 -2.5000 0.9768
1.5715 -5.0661 -2.5003 0.9768
2.0163 -4.9063 -2.5004 0.9768
2.8545 -4.4715 -2.5006 0.9768
3.6024 -3.8948 -2.5008 0.9768
5.0850 -1.5154 -2.5011 0.9768
5.1997 -1.0569 -2.5011 0.9768
5.2731 -0.5899 -2.5011 0.9768
5.3046 -0.1182 -2.5011 0.9768
6.9360 3.9021 -3.7514 0.9654
3.8396 3.1735 -2.3481 0.9782
2.4902 4.3131 -2.3476 0.9782
2.0963 4.5174 -2.3475 0.9782
1.2620 4.8170 -2.3472 0.9782
0.8282 4.9099 -2.3471 0.9782
0.3879 4.9638 -2.3470 0.9782
-0.4983 4.9534 -2.3467 0.9782
-0.9372 4.8892 -2.3466 0.9782
-1.3685 4.7861 -2.3465 0.9782
-1.7890 4.6451 -2.3463 0.9782
-3.0332 4.1167 -2.4104 0.9776
-4.1591 3.2844 -2.4981 0.9768
-4.4349 2.9012 -2.4981 0.9768
-5.0435 1.6263 -2.4979 0.9768
-5.1682 1.1710 -2.4979 0.9768
-5.2520 0.7063 -2.4979 0.9768
-4.4354 -2.9015 -2.4984 0.9768
-3.5117 -3.9708 -2.4987 0.9768
-3.1445 -4.2678 -2.4988 0.9768
-2.7523 -4.5310 -2.4990 0.9768
-2.3383 -4.7582 -2.4991 0.9768
-1.9056 -4.9477 -2.4992 0.9768
-0.9982 -5.2078 -2.4995 0.9768
-0.5308 -5.2763 -2.4997 0.9768
0.4132 -5.2874 -2.4999 0.9768
1.3442 -5.1309 -2.5002 0.9768
1.7957 -4.9912 -2.5003 0.9768
2.2329 -4.8117 -2.5005 0.9768
2.6524 -4.5941 -2.5006 0.9768
3.0509 -4.3400 -2.5007 0.9768
3.7723 -3.7305 -2.5009 0.9768
4.0895 -3.3801 -2.5009 0.9768
4.6242 -2.6016 -2.5010 0.9768
4.8375 -2.1797 -2.5011 0.9768
5.2416 -0.8242 -2.5011 0.9768
5.2941 -0.3544 -2.5011 0.9768
5.1995 1.0569 -2.5010 0.9768
5.0846 1.5154 -2.5010 0.9768
4.9294 1.9619 -2.5009 0.9768
7.1031 3.5893 -3.7514 0.9654
6.3537 4.7916 -3.7511 0.9654
3.6943 3.3413 -2.3480 0.9782
3.3821 3.6567 -2.3479 0.9782
2.2955 4.4196 -2.3476 0.9782
1.4754 4.7561 -2.3473 0.9782
0.6086 4.9418 -2.3470 0.9782
0.1664 4.9761 -2.3469 0.9782
-0.2772 4.9708 -2.3468 0.9782
-0.7185 4.9262 -2.3466 0.9782
-1.9941 4.5606 -2.3463 0.9782
-2.3920 4.3648 -2.3462 0.9782
-3.3308 4.1226 -2.4983 0.9768
-3.6844 3.8097 -2.4982 0.9768
-4.0088 3.4665 -2.4982 0.9768
-4.3013 3.0959 -2.4981 0.9768
-4.5596 2.7007 -2.4980 0.9768
-4.9661 1.8494 -2.4980 0.9768
-2.5903 -0.2315 -1.2791 0.9885
-4.3704 -2.5886 -2.4984 0.9776
-4.1228 -2.9674 -2.4985 0.9776
-3.8425 -3.3227 -2.4986 0.9776
-3.5317 -3.6517 -2.4987 0.9776
-3.1928 -3.9517 -2.4988 0.9776
-1.6132 -4.8185 -2.4993 0.9776
-0.7334 -5.0287 -2.4996 0.9776
0.6213 -5.0447 -2.5000 0.9776
1.0679 -4.9696 -2.5001 0.9776
1.5061 -4.8551 -2.5002 0.9776
2.3432 -4.5115 -2.5005 0.9776
2.7356 -4.2852 -2.5006 0.9776
3.1063 -4.0249 -2.5007 0.9776
3.4523 -3.7326 -2.5008 0.9776
4.3161 -2.6881 -2.5010 0.9776
4.9831 -1.0129 -2.5011 0.9776
5.0534 -0.5653 -2.5011 0.9776
5.0231 0.7899 -2.5010 0.9776
4.8032 1.6679 -2.5009 0.9776
5.8783 4.8585 -3.7510 0.9666
3.3942 3.3566 -2.3480 0.9789
2.7451 3.9049 -2.3477 0.9789
2.3865 4.1335 -2.3476 0.9789
2.0090 4.3293 -2.3475 0.9789
1.6156 4.4907 -2.3474 0.9790
1.2095 4.6164 -2.3472 0.9790
0.3717 4.7572 -2.3470 0.9790
-0.0532 4.7712 -2.3469 0.9790
-0.4776 4.7472 -2.3467 0.9790
-2.1039 4.2813 -2.3463 0.9790
-2.4764 4.0768 -2.3462 0.9790
-3.0131 4.0894 -2.4984 0.9776
-3.9861 3.1478 -2.4982 0.9776
-4.6758 1.9827 -2.4980 0.9776
-5.0334 0.6769 -2.4980 0.9776
-3.0630 0.1366 -1.5081 0.9864
-2.6467 -0.1180 -1.3031 0.9883
-2.5845 -0.3476 -1.2826 0.9884
-2.5430 -0.8200 -1.3142 0.9882
-2.5441 -1.0788 -1.3592 0.9878
-3.9866 -3.1482 -2.4985 0.9776
-3.6907 -3.4907 -2.4986 0.9776
-2.2409 -4.5601 -2.4991 0.9776
-0.9567 -4.9910 -2.4995 0.9776
-0.5087 -5.0566 -2.4997 0.9776
0.8454 -5.0121 -2.5001 0.9776
2.1399 -4.6113 -2.5004 0.9776
2.5419 -4.4028 -2.5005 0.9776
2.9238 -4.1592 -2.5006 0.9776
3.2825 -3.8826 -2.5007 0.9776
3.6152 -3.5752 -2.5008 0.9776
4.1920 -2.8777 -2.5009 0.9776
4.4316 -2.4932 -2.5010 0.9776
4.6360 -2.0889 -2.5010 0.9776
4.8036 -1.6680 -2.5010 0.9776
5.0232 -0.7899 -2.5011 0.9776
5.0533 0.5653 -2.5010 0.9776
4.8728 1.4522 -2.5009 0.9776
4.5379 2.2931 -2.5007 0.9776
6.0890 4.5920 -3.7511 0.9666
3.5405 3.2022 -2.3480 0.9789
3.2413 3.5044 -2.3479 0.9789
2.9164 3.7788 -2.3478 0.9789
2.5683 4.0232 -2.3477 0.9789
2.1999 4.2356 -2.3475 0.9789
1.8141 4.4144 -2.3474 0.9789
1.4139 4.5581 -2.3473 0.9790
1.0026 4.6656 -2.3472 0.9790
0.5833 4.7361 -2.3470 0.9790
-0.6885 4.7211 -2.3467 0.9790
-1.1060 4.6409 -2.3465 0.9790
-1.5146 4.5238 -2.3464 0.9790
-1.9111 4.3708 -2.3463 0.9790
-2.2925 4.1832 -2.3462 0.9790
-3.1922 3.9510 -2.4984 0.9776
-3.8419 3.3222 -2.4982 0.9776
-4.1223 2.9670 -2.4981 0.9776
-4.3699 2.5883 -2.4981 0.9776
-4.5829 2.1891 -2.4981 0.9776
-4.7595 1.7724 -2.4980 0.9776
-4.8983 1.3418 -2.4980 0.9776
-4.9983 0.9005 -2.4980 0.9776
-3.6334 0.3247 -1.7942 0.9839
-2.4521 -1.4524 -1.4611 0.9873
-3.6865 -3.1879 -2.4986 0.9783
-3.3883 -3.5035 -2.4987 0.9783
-2.7137 -4.0491 -2.4989 0.9783
-0.7036 -4.8246 -2.4996 0.9783
0.1629 -4.8734 -2.4998 0.9783
0.5961 -4.8398 -2.5000 0.9783
1.0245 -4.7678 -2.5001 0.9783
1.4449 -4.6579 -2.5002 0.9783
2.6245 -4.1112 -2.5005 0.9783
3.3121 -3.5810 -2.5007 0.9783
3.8947 -2.9371 -2.5008 0.9783
4.1408 -2.5789 -2.5009 0.9783
4.7806 -0.9717 -2.5010 0.9783
4.7324 1.1837 -2.5009 0.9783
4.4473 2.0038 -2.5007 0.9783
6.3771 3.5877 -3.7512 0.9676
5.6395 4.6612 -3.7509 0.9676
2.9567 3.4972 -2.3478 0.9796
2.2896 3.9657 -2.3476 0.9796
1.5500 4.3083 -2.3474 0.9796
1.1603 4.4290 -2.3472 0.9796
-0.0510 4.5775 -2.3469 0.9796
-0.4582 4.5545 -2.3467 0.9796
-0.8617 4.4954 -2.3466 0.9796
-1.2583 4.4007 -2.3465 0.9796
-1.6450 4.2710 -2.3464 0.9796
-2.0215 4.1117 -2.3486 0.9796
-2.4360 4.0101 -2.4055 0.9791
-2.8908 3.9235 -2.4985 0.9783
-3.2284 3.6504 -2.4984 0.9783
-3.5404 3.3485 -2.4983 0.9783
-4.4861 1.9023 -2.4981 0.9783
-4.7522 1.0767 -2.4981 0.9783
-2.5350 -0.3409 -1.3113 0.9886
-2.5113 -0.5690 -1.3201 0.9885
-2.4881 -0.8023 -1.3403 0.9883
-2.4717 -1.3190 -1.4363 0.9875
-4.0783 -2.6679 -2.4985 0.9783
-1.3403 -4.6873 -2.4994 0.9783
-0.9178 -4.7883 -2.4995 0.9783
-0.4880 -4.8513 -2.4997 0.9783
-0.0543 -4.8757 -2.4998 0.9783
0.8111 -4.8086 -2.5000 0.9783
1.2359 -4.7175 -2.5002 0.9783
2.0530 -4.4240 -2.5004 0.9783
2.4387 -4.2239 -2.5005 0.9783
2.8051 -3.9903 -2.5006 0.9783
3.1492 -3.7249 -2.5007 0.9783
3.4683 -3.4299 -2.5007 0.9783
4.0217 -2.7608 -2.5009 0.9783
4.4477 -2.0040 -2.5010 0.9783
4.7326 -1.1837 -2.5010 0.9783
4.8192 -0.7578 -2.5010 0.9783
4.8675 -0.3258 -2.5010 0.9783
4.8771 0.1087 -2.5010 0.9783
4.8480 0.5423 -2.5009 0.9783
4.6749 1.3932 -2.5008 0.9783
4.3535 2.2000 -2.5007 0.9783
6.2108 3.8682 -3.7512 0.9676
5.8417 4.4054 -3.7510 0.9676
3.1096 3.3621 -2.3479 0.9796
2.4640 3.8598 -2.3476 0.9796
1.3565 4.3730 -2.3473 0.9796
0.9619 4.4762 -2.3472 0.9796
0.5596 4.5438 -2.3470 0.9796
-0.6606 4.5295 -2.3467 0.9796
-1.0611 4.4525 -2.3466 0.9796
-1.8335 4.1934 -2.3464 0.9796
-3.0627 3.7907 -2.4984 0.9783
-3.9550 2.8466 -2.4982 0.9783
-4.7954 0.8639 -2.4981 0.9783
-3.5463 0.3169 -1.8253 0.9841
-2.6714 -0.0000 -1.4261 0.9880
-2.4716 -0.4453 -1.3407 0.9887
-2.4501 -0.6712 -1.3561 0.9885
-2.4352 -0.9069 -1.3872 0.9883
-2.4292 -1.1603 -1.4371 0.9879
-3.2540 -3.3646 -2.4988 0.9790
-1.8755 -4.2895 -2.4992 0.9790
-0.2607 -4.6752 -2.4997 0.9790
0.5724 -4.6478 -2.5000 0.9790
1.3876 -4.4731 -2.5002 0.9790
2.1589 -4.1566 -2.5004 0.9790
2.5204 -3.9481 -2.5005 0.9790
2.8618 -3.7082 -2.5006 0.9790
3.1806 -3.4389 -2.5007 0.9790
3.7402 -2.8206 -2.5008 0.9790
4.6836 -0.1044 -2.5009 0.9790
4.6278 0.7277 -2.5009 0.9790
4.5446 1.1367 -2.5008 0.9790
4.4252 1.5366 -2.5008 0.9790
4.2708 1.9244 -2.5007 0.9790
4.0825 2.2968 -2.5006 0.9790
5.7929 3.9766 -3.7510 0.9686
5.4157 4.4762 -3.7509 0.9686
4.9957 4.9404 -3.7507 0.9686
1.8510 3.9887 -2.3475 0.9803
1.4885 4.1374 -2.3473 0.9803
1.1143 4.2533 -2.3472 0.9803
-0.4400 4.3739 -2.3468 0.9803
-0.8275 4.3172 -2.3466 0.9803
-1.2084 4.2262 -2.3465 0.9803
-1.5797 4.1017 -2.3464 0.9803
-1.9384 3.9446 -2.3463 0.9803
-2.4247 3.9916 -2.4932 0.9790
-2.7762 3.7679 -2.4985 0.9790
-3.6727 2.9003 -2.4983 0.9790
-4.1286 2.2031 -2.4982 0.9790
-4.3082 1.8269 -2.4982 0.9790
-4.4537 1.4362 -2.4981 0.9790
-4.5638 1.0340 -2.4981 0.9790
-4.6378 0.6237 -2.4981 0.9790
-2.5303 -0.1129 -1.3521 0.9886
-2.4621 -0.5579 -1.3477 0.9886
-2.4353 -0.7853 -1.3660 0.9885
-2.4330 -1.0317 -1.4108 0.9881
-2.4322 -1.5911 -1.5516 0.9869
-1.6826 -4.3688 -2.4993 0.9790
-0.8814 -4.5984 -2.4995 0.9790
-0.4687 -4.6588 -2.4996 0.9790
0.7789 -4.6178 -2.5000 0.9790
1.5855 -4.4070 -2.5002 0.9790
2.6938 -3.8320 -2.5005 0.9790
4.2712 -1.9245 -2.5009 0.9790
4.4255 -1.5367 -2.5009 0.9790
4.5448 -1.1367 -2.5009 0.9790
4.6279 -0.7277 -2.5009 0.9790
4.6743 -0.3129 -2.5009 0.9790
4.6556 0.5208 -2.5009 0.9790
4.5907 0.9331 -2.5008 0.9790
4.4894 1.3380 -2.5008 0.9790
4.3523 1.7322 -2.5007 0.9790
4.1808 2.1126 -2.5007 0.9790
5.9644 3.7147 -3.7511 0.9686
5.6099 4.2306 -3.7510 0.9686
2.9863 3.2287 -2.3478 0.9803
2.6869 3.4815 -2.3477 0.9803
2.3663 3.7067 -2.3476 0.9803
1.6714 4.0671 -2.3474 0.9803
1.3027 4.1996 -2.3473 0.9803
0.5374 4.3635 -2.3471 0.9803
0.1469 4.3939 -2.3469 0.9803
-0.2447 4.3893 -2.3468 0.9803
-0.6344 4.3499 -2.3467 0.9803
-1.3955 4.1680 -2.3465 0.9803
-1.7608 4.0272 -2.3464 0.9803
-2.1708 3.9613 -2.4114 0.9797
-2.9413 3.6404 -2.4985 0.9790
-3.5399 3.0611 -2.4983 0.9790
-3.7982 2.7338 -2.4983 0.9790
-4.0264 2.3849 -2.4982 0.9790
-3.5314 0.3156 -1.8927 0.9841
-2.4347 -0.2176 -1.3576 0.9889
-3.6513 -2.6281 -2.4986 0.9796
-3.1277 -3.2340 -2.4988 0.9796
-2.1625 -3.9460 -2.4991 0.9796
-1.8027 -4.1230 -2.4992 0.9796
-1.4287 -4.2673 -2.4993 0.9796
-0.6495 -4.4534 -2.4996 0.9796
-0.2506 -4.4938 -2.4997 0.9796
0.1504 -4.4985 -2.4998 0.9796
1.3337 -4.2995 -2.5002 0.9796
2.0751 -3.9952 -2.5004 0.9796
3.3393 -3.0202 -2.5007 0.9796
3.8221 -2.3804 -2.5008 0.9796
4.1837 -1.6651 -2.5009 0.9796
4.3153 -1.2861 -2.5009 0.9796
4.4127 -0.8969 -2.5009 0.9796
4.4481 0.6994 -2.5008 0.9796
4.1050 1.8496 -2.5006 0.9796
3.9240 2.2076 -2.5006 0.9796
5.5680 3.8222 -3.7510 0.9696
1.7791 3.8339 -2.3474 0.9808
1.4308 3.9769 -2.3473 0.9808
0.3292 4.2129 -2.3470 0.9809
-0.4229 4.2042 -2.3468 0.9809
-1.5184 3.9426 -2.3465 0.9809
-1.9238 3.9147 -2.4226 0.9802
-2.6685 3.6218 -2.4985 0.9796
-2.9802 3.3698 -2.4985 0.9796
-3.2682 3.0911 -2.4984 0.9796
-3.7643 2.4625 -2.4983 0.9796
-3.9685 2.1177 -2.4982 0.9796
-4.1411 1.7560 -2.4982 0.9796
-4.2810 1.3804 -2.4982 0.9796
-4.4579 0.5996 -2.4982 0.9796
-2.5020 0.1116 -1.3910 0.9886
-2.4351 -0.3275 -1.3646 0.9888
-2.4139 -0.5469 -1.3747 0.9887
-2.3870 -0.7697 -1.3929 0.9886
-2.3793 -1.0089 -1.4353 0.9882
-2.2661 -1.4824 -1.5039 0.9877
-3.5307 -2.7881 -2.4986 0.9796
-2.3360 -3.8456 -2.4990 0.9796
-1.6173 -4.1993 -2.4993 0.9796
-1.2372 -4.3268 -2.4994 0.9796
-0.4505 -4.4781 -2.4996 0.9796
-0.0501 -4.5006 -2.4998 0.9796
0.3507 -4.4874 -2.4999 0.9796
1.8950 -4.0836 -2.5003 0.9796
2.2510 -3.8989 -2.5004 0.9796
2.9068 -3.4382 -2.5006 0.9796
3.2014 -3.1660 -2.5007 0.9796
3.7122 -2.5483 -2.5008 0.9796
3.9243 -2.2078 -2.5008 0.9796
4.1053 -1.8497 -2.5008 0.9796
4.3683 -1.0926 -2.5009 0.9796
4.4482 -0.6995 -2.5009 0.9796
4.5017 0.1003 -2.5009 0.9796
4.4749 0.5006 -2.5008 0.9796
4.4125 0.8969 -2.5008 0.9796
4.3151 1.2860 -2.5007 0.9796
4.1834 1.6649 -2.5007 0.9796
4.0185 2.0306 -2.5006 0.9796
5.3921 4.0664 -3.7509 0.9696
5.0086 4.5300 -3.7508 0.9696
4.5853 4.9576 -3.7506 0.9696
2.5826 3.3464 -2.3477 0.9808
2.2744 3.5628 -2.3476 0.9808
0.8879 4.1318 -2.3472 0.9808
0.5166 4.1942 -2.3471 0.9808
-0.2352 4.2189 -2.3468 0.9809
-0.6098 4.1811 -2.3467 0.9809
-0.9795 4.1100 -2.3466 0.9809
-1.7009 3.8899 -2.3579 0.9808
-2.1610 3.9434 -2.4974 0.9796
-2.8272 3.4992 -2.4985 0.9796
-3.1273 3.2336 -2.4984 0.9796
-3.8702 2.2924 -2.4983 0.9796
-4.4267 0.7975 -2.4982 0.9796
-2.3780 -0.4284 -1.3951 0.9889
-2.3545 -0.6450 -1.4095 0.9888
-2.2443 -1.3293 -1.5060 0.9880
-3.2737 -2.8308 -2.4987 0.9802
-3.0088 -3.1111 -2.4988 0.9802
-2.4098 -3.5956 -2.4990 0.9802
-2.0802 -3.7960 -2.4991 0.9802
-1.3744 -4.1050 -2.4993 0.9802
-1.0036 -4.2112 -2.4995 0.9802
0.1447 -4.3274 -2.4998 0.9802
0.5293 -4.2975 -2.4999 0.9802
0.9097 -4.2336 -2.5000 0.9802
1.2830 -4.1360 -2.5001 0.9802
1.6461 -4.0055 -2.5002 0.9802
2.3304 -3.6504 -2.5004 0.9802
2.6461 -3.4286 -2.5005 0.9802
2.9409 -3.1796 -2.5006 0.9802
3.2123 -2.9053 -2.5006 0.9802
4.0245 -1.6017 -2.5008 0.9802
4.1511 -1.2371 -2.5008 0.9802
4.3047 -0.4816 -2.5008 0.9802
3.9488 1.7793 -2.5006 0.9802
4.6191 4.5679 -3.7506 0.9704
2.0330 3.5213 -2.3475 0.9814
1.7115 3.6881 -2.3474 0.9814
1.3764 3.8256 -2.3473 0.9814
1.0303 3.9328 -2.3472 0.9814
-1.4802 3.8433 -2.3778 0.9812
-2.2469 3.6989 -2.4987 0.9802
-2.8669 3.2417 -2.4985 0.9802
-3.1440 2.9736 -2.4984 0.9802
-3.9838 1.6893 -2.4983 0.9802
-4.1183 1.3280 -2.4982 0.9802
-4.2201 0.9562 -2.4982 0.9802
-4.2884 0.5768 -2.4982 0.9802
-2.4201 -0.1079 -1.3986 0.9889
-2.3854 -0.3208 -1.3896 0.9889
-2.3668 -0.5363 -1.4011 0.9889
-2.3269 -0.9867 -1.4592 0.9884
-3.3965 -2.6822 -2.4987 0.9802
-3.1444 -2.9739 -2.4988 0.9802
-2.8673 -3.2421 -2.4989 0.9802
-2.5675 -3.4846 -2.4990 0.9802
-2.2472 -3.6994 -2.4991 0.9802
-1.5558 -4.0396 -2.4993 0.9802
-0.4334 -4.3078 -2.4996 0.9802
0.3373 -4.3167 -2.4999 0.9802
1.4660 -4.0748 -2.5002 0.9802
2.1654 -3.7505 -2.5004 0.9802
2.4907 -3.5431 -2.5005 0.9802
3.3385 -2.7594 -2.5007 0.9802
3.5710 -2.4513 -2.5007 0.9802
3.7750 -2.1238 -2.5008 0.9802
4.0919 -1.4209 -2.5008 0.9802
4.2021 -1.0510 -2.5008 0.9802
4.2790 -0.6729 -2.5008 0.9802
4.3219 -0.2893 -2.5008 0.9802
4.3046 0.4815 -2.5008 0.9802
4.2446 0.8628 -2.5007 0.9802
4.1509 1.2371 -2.5007 0.9802
3.6763 2.2896 -2.5005 0.9802
5.1870 3.9117 -3.7509 0.9704
4.8181 4.3577 -3.7507 0.9704
4.4109 4.7691 -3.7506 0.9704
0.8541 3.9747 -2.3472 0.9814
-0.9422 3.9538 -2.3466 0.9814
-1.2904 3.8541 -2.3465 0.9814
-1.6921 3.8700 -2.4386 0.9807
-2.0799 3.7954 -2.4987 0.9802
-2.7197 3.3662 -2.4985 0.9802
-3.0084 3.1107 -2.4985 0.9802
