ply
format ascii 1.0
element vertex 1587
property float32 x
property float32 y
property float32 z
property float32 I
end_header
14.1417 -0.3151 -2.4942 0.9442
13.1216 2.0633 -2.3421 0.9475
12.5490 4.3575 -2.3423 0.9475
12.1121 5.4575 -2.3425 0.9475
10.2424 8.4656 -2.3430 0.9475
8.5809 10.1495 -2.3435 0.9474
2.2123 13.1152 -2.3452 0.9474
1.0363 13.2618 -2.3455 0.9474
-1.3318 13.2388 -2.3461 0.9474
-2.5052 13.0694 -2.3464 0.9474
-3.6589 12.7961 -2.3467 0.9474
-4.7839 12.4211 -2.3470 0.9474
-5.8711 11.9473 -2.3473 0.9474
-6.9119 11.3786 -2.3475 0.9474
-7.8980 10.7193 -2.3477 0.9474
-9.6751 9.1507 -2.3481 0.9473
-10.4519 8.2538 -2.3483 0.9473
-11.7511 6.2706 -2.3486 0.9473
-13.0599 5.5379 -2.5013 0.9440
-13.5014 4.3537 -2.5014 0.9440
-13.8356 3.1347 -2.5014 0.9440
-14.1720 -0.6319 -2.5014 0.9440
-14.0592 -1.8907 -2.5013 0.9440
-13.8346 -3.1345 -2.5012 0.9440
-12.5127 -6.6770 -2.5008 0.9440
-11.1287 -8.7882 -2.5004 0.9440
-9.3923 -10.6201 -2.4999 0.9440
-8.4089 -11.4126 -2.4996 0.9440
-7.3589 -12.1144 -2.4993 0.9441
-6.2507 -12.7197 -2.4990 0.9441
-3.8954 -13.6231 -2.4984 0.9441
-2.6671 -13.9139 -2.4981 0.9441
-1.4179 -14.0943 -2.4977 0.9441
1.1033 -14.1187 -2.4971 0.9441
2.3552 -13.9627 -2.4968 0.9441
3.5882 -13.6960 -2.4965 0.9441
7.0767 -12.2572 -2.4956 0.9441
8.1388 -11.5775 -2.4954 0.9441
9.1361 -10.8062 -2.4952 0.9441
10.0608 -9.9493 -2.4949 0.9441
10.9056 -9.0137 -2.4948 0.9442
11.6638 -8.0067 -2.4946 0.9442
13.9735 -2.1972 -2.4942 0.9442
14.1136 -0.9448 -2.4942 0.9442
14.1418 0.3152 -2.4942 0.9442
13.2003 1.4767 -2.3421 0.9475
13.0169 2.6458 -2.3422 0.9475
12.7303 3.7941 -2.3423 0.9475
12.3428 4.9124 -2.3424 0.9475
10.6089 8.0005 -2.3429 0.9475
9.8556 8.9139 -2.3432 0.9475
9.0240 9.7567 -2.3434 0.9475
7.1527 11.2046 -2.3439 0.9474
6.1278 11.7982 -2.3442 0.9474
2.7941 13.0028 -2.3451 0.9474
-3.0851 12.9456 -2.3466 0.9474
-5.3327 12.1963 -2.3471 0.9474
-8.3680 10.3573 -2.3478 0.9474
-9.2575 9.5722 -2.3480 0.9473
-10.0735 8.7109 -2.3482 0.9473
-10.8096 7.7803 -2.3484 0.9473
-11.4598 6.7877 -2.3485 0.9473
-12.0511 5.7563 -2.3549 0.9472
-13.6821 3.7479 -2.5014 0.9440
-13.9616 2.5153 -2.5014 0.9440
-12.4641 -3.4142 -2.5009 0.9487
-12.1101 -4.5098 -2.5008 0.9487
-11.1173 -6.5848 -2.5004 0.9487
-10.4862 -7.5475 -2.5003 0.9487
-9.7720 -8.4502 -2.5000 0.9487
-8.9803 -9.2855 -2.4998 0.9487
-8.1174 -10.0470 -2.4996 0.9487
-7.1902 -10.7286 -2.4993 0.9487
-5.1730 -11.8309 -2.4988 0.9488
-4.0989 -12.2429 -2.4985 0.9488
-1.8628 -12.7727 -2.4979 0.9488
0.4312 -12.8976 -2.4973 0.9488
1.5773 -12.8065 -2.4970 0.9488
3.8221 -12.3212 -2.4965 0.9488
5.9449 -11.4459 -2.4959 0.9488
8.7553 -9.4662 -2.4953 0.9488
9.5624 -8.6487 -2.4951 0.9488
10.2936 -7.7627 -2.4949 0.9488
11.5057 -5.8140 -2.4947 0.9488
12.3535 -3.6817 -2.4945 0.9488
12.6320 -2.5675 -2.4945 0.9488
11.9574 1.8803 -2.3424 0.9519
11.7431 2.9371 -2.3425 0.9519
11.4356 3.9709 -2.3426 0.9519
9.3334 7.7143 -2.3433 0.9519
5.0995 10.9892 -2.3444 0.9518
0.9442 12.0836 -2.3455 0.9518
-2.2825 11.9079 -2.3463 0.9518
-3.3337 11.6587 -2.3466 0.9518
-4.3586 11.3170 -2.3468 0.9518
-7.1957 9.7662 -2.3475 0.9518
-8.0371 9.0877 -2.3477 0.9518
-8.8147 8.3369 -2.3479 0.9518
-9.5224 7.5198 -2.3481 0.9518
-10.1545 6.6428 -2.3482 0.9518
-10.7059 5.7129 -2.3483 0.9518
-11.8983 5.0454 -2.5010 0.9487
-12.6049 2.8559 -2.5011 0.9487
-12.9116 0.5757 -2.5011 0.9487
-11.8969 -5.0447 -2.5007 0.9487
-11.3999 -6.0831 -2.5005 0.9487
-10.8125 -7.0732 -2.5003 0.9487
-9.3855 -8.8767 -2.4999 0.9487
-6.7048 -11.0376 -2.4992 0.9487
-5.6952 -11.5893 -2.4989 0.9487
-3.5493 -12.4126 -2.4983 0.9488
-2.4301 -12.6778 -2.4980 0.9488
-1.2919 -12.8422 -2.4977 0.9488
-0.1438 -12.9047 -2.4975 0.9488
1.0053 -12.8648 -2.4972 0.9488
5.4294 -11.7000 -2.4961 0.9488
6.4486 -11.1692 -2.4958 0.9488
7.4164 -10.5500 -2.4956 0.9488
8.3253 -9.8471 -2.4954 0.9488
9.1680 -9.0664 -2.4952 0.9488
9.9379 -8.2138 -2.4950 0.9488
10.6289 -7.2963 -2.4949 0.9488
11.2355 -6.3210 -2.4947 0.9488
11.7531 -5.2957 -2.4946 0.9488
12.8615 -0.8609 -2.4945 0.9488
8.7306 4.4118 -1.8930 0.9609
10.2771 6.4006 -2.3430 0.9519
9.6673 7.2905 -2.3432 0.9519
8.9808 8.1227 -2.3434 0.9519
8.2230 8.8906 -2.3436 0.9519
7.3998 9.5882 -2.3438 0.9519
6.5177 10.2098 -2.3440 0.9518
5.5837 10.7506 -2.3443 0.9518
4.6052 11.2062 -2.3446 0.9518
3.5899 11.5728 -2.3448 0.9518
1.4815 12.0288 -2.3454 0.9518
-0.6749 12.1038 -2.3459 0.9518
-1.7497 11.9971 -2.3462 0.9518
-2.8109 11.7950 -2.3465 0.9518
-3.8500 11.4993 -2.3467 0.9518
-5.8290 10.6367 -2.3472 0.9518
-6.7532 10.0766 -2.3474 0.9518
-7.6240 9.4363 -2.3476 0.9518
-12.1114 4.5104 -2.5010 0.9487
-12.7197 2.2916 -2.5011 0.9487
-11.8624 0.0000 -2.5008 0.9527
-11.8151 -1.0558 -2.5008 0.9527
-11.6739 -2.1032 -2.5007 0.9527
-10.7021 -5.1119 -2.5004 0.9527
-10.2039 -6.0438 -2.5002 0.9527
-8.2428 -8.5229 -2.4996 0.9527
-5.6966 -10.3949 -2.4989 0.9527
-3.7625 -11.2379 -2.4984 0.9527
-2.7470 -11.5269 -2.4982 0.9527
-1.7100 -11.7244 -2.4979 0.9527
-0.6596 -11.8288 -2.4976 0.9527
0.3958 -11.8393 -2.4973 0.9527
1.4479 -11.7558 -2.4971 0.9527
2.4882 -11.5791 -2.4968 0.9527
3.5086 -11.3105 -2.4966 0.9527
4.5009 -10.9522 -2.4963 0.9527
5.4573 -10.5072 -2.4961 0.9528
7.2326 -9.3716 -2.4957 0.9528
8.7784 -7.9396 -2.4953 0.9528
10.5625 -5.3375 -2.4950 0.9528
10.9953 -4.3760 -2.4949 0.9528
11.3409 -3.3799 -2.4948 0.9528
11.5966 -2.3571 -2.4948 0.9528
11.7603 -1.3155 -2.4948 0.9528
11.8075 0.7904 -2.4948 0.9528
10.7804 2.6964 -2.3427 0.9556
10.4981 3.6454 -2.3428 0.9556
9.6865 5.4496 -2.3431 0.9556
9.1636 6.2905 -2.3433 0.9556
7.9043 7.8168 -2.3436 0.9556
4.6812 10.0877 -2.3445 0.9556
3.7651 10.4654 -2.3448 0.9556
1.8503 10.9696 -2.3453 0.9555
0.8667 11.0919 -2.3455 0.9555
-1.1139 11.0722 -2.3460 0.9555
-2.0951 10.9303 -2.3463 0.9555
-3.0600 10.7015 -2.3465 0.9555
-4.0007 10.3877 -2.3467 0.9555
-4.9099 9.9913 -2.3470 0.9555
-5.7802 9.5155 -2.3472 0.9555
-7.3769 8.3412 -2.3475 0.9555
-8.0906 7.6521 -2.3477 0.9555
-9.3202 6.0970 -2.3480 0.9555
-10.0930 5.3858 -2.4118 0.9543
-11.7566 1.5812 -2.5008 0.9527
-11.5685 -2.6210 -2.5007 0.9527
-11.2888 -3.6401 -2.5006 0.9527
-10.9195 -4.6302 -2.5004 0.9527
-10.4634 -5.5834 -2.5003 0.9527
-7.8546 -8.8812 -2.4995 0.9527
-7.0323 -9.5443 -2.4993 0.9527
-6.1543 -10.1313 -2.4991 0.9527
-5.2276 -10.6378 -2.4988 0.9527
-0.1320 -11.8458 -2.4975 0.9527
3.0014 -11.4561 -2.4967 0.9527
4.9841 -10.7404 -2.4962 0.9527
9.1231 -7.5404 -2.4953 0.9528
11.1792 -3.8818 -2.4948 0.9528
11.4801 -2.8714 -2.4948 0.9528
10.8896 2.2134 -2.3427 0.9556
10.6498 3.1740 -2.3428 0.9556
8.7067 4.3997 -2.0566 0.9609
8.8746 6.6927 -2.3433 0.9556
8.2444 7.4566 -2.3435 0.9556
7.5486 8.1615 -2.3437 0.9556
6.7929 8.8018 -2.3439 0.9556
5.9831 9.3724 -2.3442 0.9556
4.2274 10.2868 -2.3446 0.9556
1.3599 11.0417 -2.3454 0.9555
0.3718 11.1201 -2.3456 0.9555
-0.6195 11.1103 -2.3459 0.9555
-1.6061 11.0121 -2.3461 0.9555
-2.5801 10.8267 -2.3464 0.9555
-4.4597 10.1996 -2.3468 0.9555
-6.1986 9.2489 -2.3473 0.9555
-8.4237 7.2843 -2.3478 0.9555
-10.7034 5.1126 -2.5007 0.9527
-11.6745 2.1033 -2.5008 0.9527
-11.8154 1.0558 -2.5008 0.9527
-10.7818 -1.9424 -2.5005 0.9560
-9.4243 -5.5820 -2.5000 0.9561
-7.6131 -7.8718 -2.4995 0.9561
-6.0957 -9.0954 -2.4991 0.9561
-4.3857 -10.0303 -2.4986 0.9561
-3.4752 -10.3798 -2.4984 0.9561
-1.5794 -10.8294 -2.4979 0.9561
-0.6092 -10.9258 -2.4976 0.9561
0.3656 -10.9356 -2.4974 0.9561
1.3374 -10.8586 -2.4971 0.9561
3.2408 -10.4475 -2.4967 0.9561
4.1575 -10.1166 -2.4964 0.9561
5.8844 -9.2177 -2.4960 0.9561
6.6809 -8.6567 -2.4958 0.9561
8.7290 -6.5829 -2.4954 0.9561
9.2799 -5.7795 -2.4953 0.9561
9.7571 -4.9304 -2.4952 0.9561
10.4761 -3.1222 -2.4950 0.9561
10.7123 -2.1773 -2.4950 0.9561
10.9286 -0.2435 -2.4950 0.9561
9.9583 2.4908 -2.3429 0.9588
9.2071 4.1485 -2.3049 0.9594
7.9145 6.5415 -2.3436 0.9587
5.9065 8.4021 -2.3441 0.9587
4.3240 9.3179 -2.3446 0.9587
2.6039 9.9389 -2.3450 0.9587
0.8006 10.2451 -2.3455 0.9587
-0.1145 10.2767 -2.3457 0.9587
-2.8263 9.8842 -2.3464 0.9587
-3.6952 9.5943 -2.3466 0.9587
-4.5348 9.2281 -2.3468 0.9587
-5.3386 8.7886 -2.3470 0.9587
-6.1001 8.2792 -2.3472 0.9587
-6.8133 7.7039 -2.3474 0.9587
-7.4724 7.0674 -2.3475 0.9587
-8.0722 6.3746 -2.3476 0.9587
-10.8582 1.4603 -2.5006 0.9560
-10.8578 -1.4602 -2.5005 0.9560
-10.4261 -3.3620 -2.5004 0.9560
-9.1660 -5.9961 -2.5000 0.9561
-7.9565 -7.5252 -2.4996 0.9561
-7.2546 -8.2028 -2.4994 0.9561
-6.4951 -8.8153 -2.4992 0.9561
-5.6842 -9.3575 -2.4990 0.9561
-4.8284 -9.8254 -2.4987 0.9561
-3.9343 -10.2152 -2.4985 0.9561
-3.0092 -10.5238 -2.4983 0.9561
-2.0604 -10.7488 -2.4980 0.9561
-1.0954 -10.8884 -2.4978 0.9561
-0.1219 -10.9416 -2.4975 0.9561
0.8524 -10.9079 -2.4973 0.9561
1.8197 -10.7877 -2.4970 0.9561
2.7723 -10.5820 -2.4968 0.9561
3.7029 -10.2922 -2.4966 0.9561
5.4681 -9.4711 -2.4961 0.9561
7.7744 -7.6882 -2.4956 0.9561
8.4273 -6.9654 -2.4954 0.9561
9.0134 -6.1873 -2.4953 0.9561
9.5279 -5.3603 -2.4952 0.9561
9.9669 -4.4908 -2.4951 0.9561
10.6047 -2.6524 -2.4950 0.9561
8.6828 4.3876 -2.2204 0.9609
8.7149 5.4277 -2.3433 0.9588
6.2746 8.1303 -2.3440 0.9587
3.9048 9.5017 -2.3447 0.9587
3.0439 9.8125 -2.3449 0.9587
-1.4834 10.1713 -2.3461 0.9587
-2.3831 9.9998 -2.3463 0.9587
-3.2640 9.7489 -2.3465 0.9587
-4.1191 9.4205 -2.3467 0.9587
-5.7250 8.5424 -2.3471 0.9587
-6.4631 7.9995 -2.3473 0.9587
-8.8505 5.2422 -2.3478 0.9587
-10.5665 2.8945 -2.5006 0.9560
-10.9124 0.9752 -2.5006 0.9560
-10.1725 0.0000 -2.5004 0.9590
-10.0109 -1.8035 -2.5003 0.9590
-9.8104 -2.6873 -2.5002 0.9590
-9.1777 -4.3838 -2.5000 0.9590
-8.7506 -5.1830 -2.4999 0.9590
-7.0690 -7.3093 -2.4994 0.9590
-6.3899 -7.9088 -2.4992 0.9590
-4.8856 -8.9150 -2.4988 0.9590
-4.0723 -9.3136 -2.4986 0.9590
-3.2269 -9.6382 -2.4983 0.9590
-2.3560 -9.8863 -2.4981 0.9590
2.1342 -9.9318 -2.4970 0.9590
3.8607 -9.3944 -2.4965 0.9590
4.6811 -9.0128 -2.4963 0.9590
5.4644 -8.5597 -2.4962 0.9590
6.2041 -8.0389 -2.4960 0.9590
6.8945 -7.4542 -2.4958 0.9590
8.1061 -6.1131 -2.4956 0.9590
10.1489 -0.2261 -2.4952 0.9590
9.2477 2.3130 -2.3431 0.9615
9.0055 3.1271 -2.3432 0.9615
8.6918 3.9164 -2.3433 0.9615
8.3092 4.6747 -2.3434 0.9615
6.7802 6.7051 -2.3439 0.9615
4.0152 8.6526 -2.3446 0.9615
3.2294 8.9764 -2.3448 0.9615
1.5870 9.4085 -2.3453 0.9615
0.7434 9.5133 -2.3455 0.9615
-1.7969 9.3743 -2.3461 0.9614
-3.4311 8.9087 -2.3465 0.9614
-4.9571 8.1605 -2.3469 0.9614
-5.6641 7.6874 -2.3471 0.9614
-6.9382 6.5622 -2.3474 0.9614
-7.9926 5.2285 -2.3476 0.9614
-8.9741 4.7887 -2.5002 0.9590
-9.3650 3.9711 -2.5003 0.9590
-9.6815 3.1219 -2.5004 0.9590
-9.9210 2.2479 -2.5004 0.9590
-10.1624 0.4532 -2.5004 0.9590
-10.1623 -0.4531 -2.5004 0.9590
-10.0815 -1.3558 -2.5003 0.9590
-9.3641 -3.9707 -2.5001 0.9590
-8.9731 -4.7881 -2.4999 0.9590
-8.5108 -5.5675 -2.4998 0.9590
-7.9810 -6.3025 -2.4996 0.9590
-7.3878 -6.9874 -2.4995 0.9590
-4.4834 -9.1234 -2.4987 0.9590
-2.7942 -9.7720 -2.4982 0.9590
-1.9132 -9.9810 -2.4980 0.9590
-1.0172 -10.1107 -2.4978 0.9590
-0.1132 -10.1602 -2.4975 0.9590
2.5744 -9.8264 -2.4969 0.9590
3.4385 -9.5575 -2.4966 0.9590
4.2752 -9.2128 -2.4964 0.9590
5.8400 -8.3075 -2.4961 0.9590
7.2196 -7.1395 -2.4957 0.9590
8.3702 -5.7458 -2.4955 0.9590
10.0281 -1.5768 -2.4952 0.9590
10.1489 0.2262 -2.4952 0.9590
9.1357 2.7228 -2.3432 0.9615
8.8574 3.5252 -2.3432 0.9615
2.8265 9.1118 -2.3450 0.9615
1.1664 9.4704 -2.3454 0.9615
-2.2128 9.2854 -2.3462 0.9614
-3.8247 8.7473 -2.3466 0.9614
-4.5884 8.3729 -2.3468 0.9614
-5.3158 7.9319 -2.3470 0.9614
-6.0011 7.4277 -2.3472 0.9614
-6.6388 6.8645 -2.3473 0.9614
-8.6318 5.1127 -2.4659 0.9595
-9.1786 4.3843 -2.5003 0.9590
-10.0114 1.8037 -2.5004 0.9590
-9.4885 0.0000 -2.5002 0.9615
-9.1508 -2.5066 -2.5001 0.9615
-8.5607 -4.0891 -2.4999 0.9615
-8.1623 -4.8345 -2.4997 0.9615
-7.1750 -6.2044 -2.4994 0.9615
-6.5938 -6.8179 -2.4993 0.9615
-5.9604 -7.3773 -2.4991 0.9615
-5.2797 -7.8779 -2.4989 0.9615
-3.0101 -8.9907 -2.4983 0.9615
-2.1977 -9.2221 -2.4981 0.9615
-1.3681 -9.3803 -2.4979 0.9615
0.3167 -9.4726 -2.4974 0.9616
1.1584 -9.4061 -2.4972 0.9616
3.6015 -8.7637 -2.4966 0.9616
9.0757 -2.7048 -2.4954 0.9616
9.4114 -1.0528 -2.4954 0.9616
9.4678 -0.2109 -2.4954 0.9616
13.7855 3.4480 -3.7444 0.9429
8.4011 2.9172 -2.3433 0.9639
8.1084 3.6535 -2.3434 0.9639
4.4488 7.7055 -2.3445 0.9639
3.7456 8.0715 -2.3447 0.9639
3.0126 8.3736 -2.3449 0.9639
2.2555 8.6092 -2.3451 0.9639
-0.0992 8.9015 -2.3457 0.9638
-0.8911 8.8581 -2.3459 0.9638
-1.6761 8.7444 -2.3461 0.9638
-3.2005 8.3100 -2.3465 0.9638
-4.6239 7.6120 -2.3468 0.9638
-5.2834 7.1707 -2.3470 0.9638
-5.9010 6.6724 -2.3471 0.9638
-6.4718 6.1210 -2.3472 0.9638
-6.9913 5.5210 -2.3473 0.9638
-9.0305 2.9120 -2.5002 0.9615
-9.2540 2.0967 -2.5002 0.9615
-9.4039 1.2647 -2.5002 0.9615
-9.4791 0.4227 -2.5002 0.9615
-9.4036 -1.2646 -2.5002 0.9615
-9.2535 -2.0965 -2.5001 0.9615
-9.0299 -2.9117 -2.5000 0.9615
-8.3698 -4.4662 -2.4998 0.9615
-7.9387 -5.1932 -2.4997 0.9615
-6.8913 -6.5177 -2.4994 0.9615
-5.6257 -7.6352 -2.4990 0.9615
-4.9234 -8.1050 -2.4988 0.9615
-3.4078 -8.8480 -2.4984 0.9615
-1.7847 -9.3105 -2.4980 0.9615
-0.1056 -9.4777 -2.4975 0.9616
0.7383 -9.4487 -2.4973 0.9616
1.5763 -9.3447 -2.4971 0.9616
3.2076 -8.9157 -2.4967 0.9616
6.1158 -7.2337 -2.4960 0.9616
6.7350 -6.6603 -2.4959 0.9616
7.3007 -6.0341 -2.4958 0.9616
7.8084 -5.3602 -2.4957 0.9616
8.2542 -4.6437 -2.4956 0.9616
9.3552 -1.4710 -2.4954 0.9616
9.4490 -0.6325 -2.4954 0.9616
9.4116 1.0529 -2.4954 0.9616
13.9252 2.8305 -3.7443 0.9429
7.9378 4.0112 -2.3435 0.9639
6.5972 5.9668 -2.3439 0.9639
6.0403 6.5307 -2.3441 0.9639
5.4355 7.0430 -2.3442 0.9639
4.7874 7.4994 -2.3444 0.9639
2.6367 8.4998 -2.3450 0.9639
1.8698 8.7015 -2.3452 0.9639
-4.9585 7.3987 -2.3469 0.9638
-5.5977 6.9284 -2.3470 0.9638
-6.1925 6.4031 -2.3472 0.9638
-7.2304 5.2042 -2.3474 0.9638
-8.8917 3.3114 -2.5002 0.9615
-9.3382 1.6824 -2.5002 0.9615
-5.0318 0.0000 -1.4157 0.9793
-3.9277 -0.3510 -1.1095 0.9837
-3.7284 -0.6717 -1.0659 0.9844
-3.7904 -1.0383 -1.1057 0.9838
-8.3263 -3.1007 -2.4998 0.9638
-7.2103 -5.1896 -2.4995 0.9638
-6.7194 -5.8104 -2.4993 0.9638
-6.1751 -6.3850 -2.4992 0.9638
-5.5820 -6.9088 -2.4990 0.9638
-4.2679 -7.7879 -2.4987 0.9638
-3.5575 -8.1363 -2.4985 0.9638
-2.0583 -8.6368 -2.4981 0.9638
-1.2813 -8.7850 -2.4979 0.9638
1.8646 -8.6770 -2.4971 0.9638
4.0899 -7.8744 -2.4965 0.9638
4.7742 -7.4786 -2.4964 0.9638
5.4206 -7.0236 -2.4962 0.9638
6.0238 -6.5129 -2.4961 0.9638
7.0825 -5.3411 -2.4958 0.9638
7.5295 -4.6894 -2.4957 0.9638
7.9168 -4.0005 -2.4957 0.9638
8.2412 -3.2799 -2.4956 0.9638
8.8146 -0.9861 -2.4955 0.9638
8.7623 1.3778 -2.4956 0.9638
7.5942 3.4219 -2.3436 0.9660
7.2599 4.0843 -2.3437 0.9660
6.4214 5.3074 -2.3439 0.9660
5.9239 5.8583 -2.3441 0.9660
5.3793 6.3627 -2.3442 0.9660
4.1665 7.2167 -2.3446 0.9660
3.5079 7.5594 -2.3447 0.9660
2.8214 7.8423 -2.3449 0.9660
1.3865 8.2196 -2.3453 0.9660
0.6494 8.3111 -2.3455 0.9660
-0.0929 8.3365 -2.3457 0.9660
-1.5697 8.1893 -2.3460 0.9659
-2.2926 8.0177 -2.3462 0.9659
-3.6783 7.4853 -2.3466 0.9659
-4.9479 6.7153 -2.3469 0.9659
-5.5262 6.2486 -2.3470 0.9659
-6.0608 5.7323 -2.3471 0.9659
-7.4353 4.8640 -2.4998 0.9638
-7.8390 4.1831 -2.4999 0.9638
-8.1804 3.4688 -2.5000 0.9638
-8.6661 1.9635 -2.5001 0.9638
-8.8770 0.3959 -2.5001 0.9638
-4.2110 -0.1878 -1.1860 0.9826
-3.7396 -0.5029 -1.0616 0.9844
-8.4563 -2.7268 -2.4999 0.9638
-8.1798 -3.4685 -2.4998 0.9638
-7.8382 -4.1826 -2.4997 0.9638
-7.4345 -4.8634 -2.4996 0.9638
-6.9717 -5.5055 -2.4994 0.9638
-5.2685 -7.1504 -2.4989 0.9638
-4.6108 -7.5904 -2.4988 0.9638
-0.0989 -8.8763 -2.4976 0.9638
0.6915 -8.8492 -2.4974 0.9638
2.2492 -8.5850 -2.4970 0.9638
3.0041 -8.3501 -2.4968 0.9638
3.7352 -8.0490 -2.4966 0.9638
4.4365 -7.6841 -2.4964 0.9638
7.7308 -4.3493 -2.4957 0.9638
8.0870 -3.6438 -2.4956 0.9638
8.3791 -2.9095 -2.4956 0.9638
8.6046 -2.1521 -2.4955 0.9638
8.7620 -1.3777 -2.4955 0.9638
8.8498 -0.5924 -2.4955 0.9638
7.9821 2.3790 -2.3434 0.9660
7.7390 3.0801 -2.3435 0.9660
7.0709 4.4038 -2.3437 0.9660
6.6512 5.0160 -2.3439 0.9660
5.6572 6.1165 -2.3441 0.9660
5.0907 6.5962 -2.3443 0.9660
4.4837 7.0236 -2.3445 0.9660
3.8411 7.3954 -2.3446 0.9660
3.1678 7.7085 -2.3448 0.9660
-1.2033 8.2508 -2.3460 0.9659
-1.9331 8.1115 -2.3461 0.9659
-2.6476 7.9079 -2.3463 0.9659
-3.3411 7.6414 -2.3465 0.9659
-6.7712 4.8736 -2.3473 0.9659
-7.6448 4.5280 -2.4999 0.9638
-8.0177 3.8298 -2.5000 0.9638
-8.5700 2.3476 -2.5001 0.9638
-8.7450 1.5755 -2.5001 0.9638
-3.9676 0.0000 -1.1878 0.9836
-3.4798 -0.6269 -1.0586 0.9853
-7.8246 -2.9139 -2.4997 0.9657
-7.5339 -3.5986 -2.4996 0.9657
-7.1834 -4.2547 -2.4995 0.9657
-6.7759 -4.8770 -2.4994 0.9657
-4.0109 -7.3189 -2.4986 0.9658
1.0197 -8.2790 -2.4973 0.9658
1.7524 -8.1547 -2.4971 0.9658
4.4869 -7.0286 -2.4964 0.9658
6.1835 -5.5926 -2.4961 0.9658
7.9890 -2.3809 -2.4957 0.9658
8.1691 -1.6604 -2.4957 0.9658
8.3341 -0.1857 -2.4957 0.9658
8.3176 0.5568 -2.4957 0.9658
12.1347 3.0351 -3.7448 0.9491
7.3950 2.5679 -2.3436 0.9678
6.8231 3.8386 -2.3438 0.9678
6.0350 4.9881 -2.3440 0.9678
5.5674 5.5057 -2.3441 0.9678
3.2968 7.1045 -2.3448 0.9678
2.6516 7.3702 -2.3449 0.9678
1.3030 7.7247 -2.3453 0.9678
-0.7843 7.7963 -2.3458 0.9678
-3.4568 7.0344 -2.3465 0.9678
-4.0694 6.6992 -2.3466 0.9678
-5.1933 5.8722 -2.3469 0.9678
-5.6956 5.3870 -2.3470 0.9678
-6.1527 4.8588 -2.3471 0.9678
-6.9874 4.5710 -2.4997 0.9657
-7.3667 3.9310 -2.4998 0.9657
-7.6875 3.2598 -2.4999 0.9657
-8.2759 1.1130 -2.4999 0.9657
-4.8506 0.2163 -1.4536 0.9799
-3.6646 -0.1634 -1.0982 0.9848
-3.5144 -0.4726 -1.0616 0.9853
-3.4642 -0.7849 -1.0634 0.9853
-7.9468 -2.5625 -2.4998 0.9657
-6.0649 -5.7361 -2.4992 0.9657
-5.5299 -6.2528 -2.4990 0.9657
-4.9511 -6.7197 -2.4989 0.9657
-4.3331 -7.1333 -2.4987 0.9658
-2.2941 -8.0228 -2.4981 0.9658
-0.8351 -8.3012 -2.4978 0.9658
0.6499 -8.3165 -2.4974 0.9658
2.1138 -8.0683 -2.4970 0.9658
4.1695 -7.2217 -2.4965 0.9658
6.4263 -5.3115 -2.4960 0.9658
6.8733 -4.7182 -2.4959 0.9658
7.2657 -4.0876 -2.4958 0.9658
7.6005 -3.4246 -2.4958 0.9658
8.0870 -2.0227 -2.4957 0.9658
8.2349 -1.2948 -2.4957 0.9658
8.3341 0.1858 -2.4957 0.9658
12.2577 2.4915 -3.7448 0.9491
11.9876 3.5727 -3.7449 0.9491
7.2734 2.8948 -2.3436 0.9678
6.2510 4.7141 -2.3439 0.9678
4.7843 6.1993 -2.3444 0.9678
4.2139 6.6010 -2.3445 0.9678
3.6099 6.9503 -2.3447 0.9678
0.9576 7.7754 -2.3454 0.9678
0.2618 7.8304 -2.3456 0.9678
-0.4362 7.8232 -2.3457 0.9678
-1.8166 7.6230 -2.3461 0.9678
-2.4881 7.4316 -2.3463 0.9678
-3.1399 7.1812 -2.3464 0.9678
-3.7668 6.8737 -2.3466 0.9678
-4.3639 6.5115 -2.3467 0.9678
-5.4499 5.6352 -2.3470 0.9678
-6.6041 4.7534 -2.4360 0.9666
-7.5346 3.5990 -2.4998 0.9657
-7.8252 2.9142 -2.4999 0.9657
-8.0536 2.2062 -2.4999 0.9657
-8.2181 1.4806 -2.4999 0.9657
-3.3867 -0.3026 -1.0798 0.9858
-3.2843 -0.5917 -1.0598 0.9861
-7.3758 -2.7467 -2.4996 0.9675
-5.9524 -5.1472 -2.4992 0.9675
-5.4704 -5.6563 -2.4990 0.9675
-4.9449 -6.1204 -2.4989 0.9675
-3.7809 -6.8993 -2.4986 0.9675
-3.1516 -7.2079 -2.4984 0.9675
-2.4974 -7.4593 -2.4982 0.9675
-1.8234 -7.6515 -2.4980 0.9675
-1.1351 -7.7828 -2.4979 0.9675
-0.4378 -7.8524 -2.4977 0.9675
1.6519 -7.6874 -2.4972 0.9675
2.3294 -7.5094 -2.4970 0.9675
3.6235 -6.9765 -2.4967 0.9675
4.2299 -6.6259 -2.4965 0.9675
5.8293 -5.2722 -2.4962 0.9676
6.2751 -4.7323 -2.4961 0.9676
6.6712 -4.1548 -2.4960 0.9676
7.0143 -3.5445 -2.4959 0.9676
7.5314 -2.2446 -2.4958 0.9676
7.7012 -1.5653 -2.4958 0.9676
7.8099 -0.8736 -2.4958 0.9676
7.8567 -0.1751 -2.4958 0.9676
7.7635 1.2208 -2.4959 0.9676
4.2455 6.0394 -2.3445 0.9695
3.6914 6.3937 -2.3447 0.9695
1.8714 7.1433 -2.3451 0.9695
-0.7393 7.3493 -2.3458 0.9695
-2.0310 7.1028 -2.3461 0.9695
-2.6553 6.8943 -2.3463 0.9695
-3.8360 6.3150 -2.3466 0.9695
-5.8658 4.6322 -2.3737 0.9691
-6.9441 3.7055 -2.4997 0.9675
-7.4914 2.4157 -2.4998 0.9675
-7.8011 1.0492 -2.4998 0.9675
-4.3818 0.1954 -1.3930 0.9818
-3.2591 -0.7384 -1.0613 0.9861
-3.2827 -1.0586 -1.0954 0.9856
-6.9435 -3.7051 -2.4995 0.9675
-6.5859 -4.3082 -2.4994 0.9675
-6.1760 -4.8771 -2.4992 0.9675
-5.7171 -5.4072 -2.4991 0.9675
-5.2128 -5.8942 -2.4990 0.9675
-4.0846 -6.7242 -2.4986 0.9675
-3.4697 -7.0606 -2.4985 0.9675
0.6126 -7.8398 -2.4974 0.9675
1.3079 -7.7537 -2.4972 0.9675
3.9306 -6.8079 -2.4966 0.9675
4.5207 -6.4307 -2.4965 0.9675
5.0749 -6.0026 -2.4963 0.9675
5.5887 -5.5268 -2.4962 0.9676
6.4796 -4.4479 -2.4960 0.9676
7.4240 -2.5779 -2.4958 0.9676
7.6238 -1.9068 -2.4958 0.9676
7.7633 -1.2207 -2.4958 0.9676
7.8568 0.1751 -2.4958 0.9676
7.7015 1.5654 -2.4959 0.9676
11.3010 3.3681 -3.7450 0.9517
6.5869 3.3286 -2.3438 0.9695
5.4743 4.9512 -2.3442 0.9695
5.0122 5.4191 -2.3443 0.9695
4.5102 5.8440 -2.3444 0.9695
2.1877 7.0525 -2.3451 0.9695
-1.0660 7.3093 -2.3459 0.9695
-1.7125 7.1860 -2.3461 0.9695
-4.1137 6.1380 -2.3466 0.9695
-4.6439 5.7479 -2.3468 0.9695
-5.5899 4.8338 -2.3470 0.9695
-6.7721 4.0111 -2.4996 0.9675
-7.5916 2.0796 -2.4998 0.9675
-7.7466 1.3956 -2.4998 0.9675
-7.8401 0.7006 -2.4998 0.9675
-3.2019 -0.2861 -1.0801 0.9865
-3.1483 -0.5672 -1.0748 0.9866
-6.9717 -2.5963 -2.4995 0.9691
-6.7127 -3.2063 -2.4994 0.9691
-6.4004 -3.7909 -2.4993 0.9691
-6.0373 -4.3454 -2.4992 0.9691
-5.6263 -4.8653 -2.4991 0.9691
-4.6740 -5.7851 -2.4988 0.9691
-4.1403 -6.1778 -2.4987 0.9691
-1.7236 -7.2324 -2.4980 0.9691
-1.0729 -7.3566 -2.4979 0.9691
0.2484 -7.4293 -2.4975 0.9691
1.5615 -7.2666 -2.4972 0.9691
3.4252 -6.5947 -2.4967 0.9691
3.9984 -6.2633 -2.4966 0.9691
5.5103 -4.9837 -2.4962 0.9691
5.9318 -4.4733 -2.4962 0.9691
6.9023 -2.7470 -2.4960 0.9691
7.2798 -1.4796 -2.4959 0.9691
7.4122 0.4962 -2.4959 0.9691
10.5303 3.6565 -3.7452 0.9541
6.3603 2.8659 -2.3439 0.9710
6.0803 3.4207 -2.3440 0.9710
5.7519 3.9485 -2.3441 0.9710
5.3779 4.4450 -2.3442 0.9710
4.5051 5.3286 -2.3444 0.9710
3.4893 6.0437 -2.3447 0.9710
2.9377 6.3307 -2.3448 0.9710
1.7690 6.7521 -2.3452 0.9710
0.5438 6.9597 -2.3455 0.9710
-0.6989 6.9469 -2.3458 0.9710
-1.3145 6.8575 -2.3459 0.9710
-2.5098 6.5166 -2.3462 0.9710
-3.0800 6.2678 -2.3464 0.9710
-5.0748 4.7997 -2.3468 0.9710
-6.2256 4.0727 -2.4995 0.9691
-6.5636 3.5025 -2.4996 0.9691
-7.0809 2.2833 -2.4997 0.9691
-4.1559 0.1853 -1.3977 0.9826
-3.1418 -1.0131 -1.1091 0.9862
-5.8376 -4.6099 -2.4992 0.9691
-5.4039 -5.1109 -2.4990 0.9691
-4.9273 -5.5713 -2.4989 0.9691
-3.8609 -6.3559 -2.4986 0.9691
-2.6725 -6.9389 -2.4983 0.9691
-1.3996 -7.3018 -2.4979 0.9691
-0.7441 -7.3969 -2.4978 0.9691
-0.0828 -7.4332 -2.4976 0.9691
1.2363 -7.3292 -2.4973 0.9691
2.5159 -6.9930 -2.4970 0.9691
3.1281 -6.7409 -2.4968 0.9691
3.7155 -6.4354 -2.4967 0.9691
4.7972 -5.6740 -2.4964 0.9691
5.7267 -4.7332 -2.4962 0.9691
7.0178 -2.4368 -2.4959 0.9691
7.2067 -1.8025 -2.4959 0.9691
7.3385 -1.1539 -2.4959 0.9691
7.4269 0.1655 -2.4959 0.9691
7.3828 0.8259 -2.4959 0.9691
7.2801 1.4798 -2.4960 0.9691
5.5704 4.2009 -2.3441 0.9710
5.1747 4.6802 -2.3442 0.9710
4.2633 5.5242 -2.3445 0.9710
3.7550 5.8821 -2.3446 0.9710
1.4665 6.8245 -2.3452 0.9710
-0.3887 6.9708 -2.3457 0.9710
-1.0076 6.9091 -2.3459 0.9710
-2.2170 6.6218 -2.3462 0.9710
-2.7977 6.3985 -2.3463 0.9710
-3.3563 6.1245 -2.3464 0.9710
-4.3895 5.4329 -2.3467 0.9710
-4.8558 5.0209 -2.3468 0.9710
-5.2837 4.5690 -2.3469 0.9710
-6.7132 3.2066 -2.4996 0.9691
-7.1756 1.9656 -2.4997 0.9691
-7.3221 1.3192 -2.4997 0.9691
-3.0930 -0.2764 -1.1011 0.9869
-3.0229 -0.8281 -1.1114 0.9868
-6.0644 -3.5919 -2.4992 0.9705
-4.4287 -5.4814 -2.4988 0.9705
-3.9230 -5.8536 -2.4986 0.9705
-2.2368 -6.6808 -2.4982 0.9705
-1.6331 -6.8529 -2.4980 0.9705
2.0864 -6.7260 -2.4971 0.9706
3.7887 -5.9348 -2.4967 0.9706
4.3017 -5.5738 -2.4965 0.9706
4.7805 -5.1685 -2.4964 0.9706
5.2213 -4.7224 -2.4963 0.9706
9.9782 3.4648 -3.7454 0.9562
6.0268 2.7156 -2.3439 0.9723
5.7614 3.2413 -2.3440 0.9723
5.4503 3.7414 -2.3441 0.9723
4.7010 4.6490 -2.3443 0.9723
4.2688 5.0492 -2.3445 0.9723
3.8027 5.4094 -2.3446 0.9723
3.3063 5.7267 -2.3447 0.9723
2.7836 5.9986 -2.3449 0.9723
2.2388 6.2229 -2.3450 0.9723
1.6762 6.3979 -2.3452 0.9723
0.5153 6.5946 -2.3455 0.9723
-0.0737 6.6147 -2.3456 0.9723
-1.2455 6.4977 -2.3459 0.9723
-3.9255 5.3278 -2.3466 0.9723
-4.3843 4.9575 -2.3467 0.9723
-6.2190 3.3186 -2.4995 0.9705
-6.7091 2.1634 -2.4996 0.9705
-6.8751 1.5577 -2.4996 0.9705
-3.1623 -0.1410 -1.1224 0.9867
-3.0595 -0.4115 -1.0946 0.9870
-3.0241 -0.6852 -1.0995 0.9869
-3.0191 -0.9735 -1.1248 0.9866
-6.4894 -2.7517 -2.4994 0.9705
-5.5312 -4.3679 -2.4991 0.9705
-4.1800 -5.6731 -2.4987 0.9705
-3.6583 -6.0223 -2.4986 0.9705
-2.5322 -6.5747 -2.4983 0.9705
-1.9369 -6.7736 -2.4981 0.9705
-1.3262 -6.9187 -2.4979 0.9705
-0.7051 -7.0088 -2.4978 0.9705
-0.0785 -7.0433 -2.4976 0.9705
0.5487 -7.0219 -2.4975 0.9706
2.3839 -6.6262 -2.4970 0.9706
3.5206 -6.0978 -2.4967 0.9706
5.0059 -4.9504 -2.4964 0.9706
5.8039 -3.9841 -2.4962 0.9706
6.4180 -2.8918 -2.4961 0.9706
6.8289 -1.7080 -2.4960 0.9706
6.9957 0.7826 -2.4960 0.9706
10.1225 3.0168 -3.7453 0.9562
5.6114 3.4949 -2.3441 0.9723
5.2783 3.9806 -2.3442 0.9723
3.5580 5.5736 -2.3447 0.9723
3.0480 5.8685 -2.3448 0.9723
2.5137 6.1168 -2.3449 0.9723
1.3896 6.4664 -2.3452 0.9723
0.8085 6.5649 -2.3454 0.9723
-0.9548 6.5465 -2.3458 0.9723
-1.5337 6.4359 -2.3460 0.9723
-3.6842 5.4972 -2.3465 0.9723
-4.6009 4.7573 -2.3467 0.9723
-6.6060 2.4601 -2.4996 0.9705
-3.3741 0.0000 -1.2599 0.9857
-2.9455 -0.5307 -1.1176 0.9873
-2.9169 -0.7990 -1.1293 0.9872
-4.6522 -4.8103 -2.4988 0.9718
-3.7252 -5.5584 -2.4986 0.9718
-3.2155 -5.8676 -2.4984 0.9718
-2.6803 -6.1301 -2.4983 0.9718
-1.5508 -6.5074 -2.4980 0.9718
-0.9654 -6.6192 -2.4979 0.9718
-0.3724 -6.6785 -2.4977 0.9718
0.2235 -6.6847 -2.4975 0.9718
0.8175 -6.6379 -2.4974 0.9718
1.4050 -6.5384 -2.4972 0.9718
3.5978 -5.6357 -2.4967 0.9719
4.0849 -5.2929 -2.4966 0.9719
5.6745 -3.5340 -2.4963 0.9719
5.9663 -3.0149 -2.4962 0.9719
6.2109 -2.4718 -2.4961 0.9719
6.4062 -1.9092 -2.4961 0.9719
6.6829 -0.1489 -2.4961 0.9719
6.6697 0.4465 -2.4961 0.9719
9.1453 4.1207 -3.7456 0.9581
5.1757 3.5529 -2.3442 0.9736
4.0537 4.7947 -2.3445 0.9735
3.6110 5.1368 -2.3446 0.9735
3.1397 5.4381 -2.3448 0.9735
2.1260 5.9093 -2.3450 0.9735
1.5917 6.0754 -2.3452 0.9735
-0.0700 6.2812 -2.3456 0.9735
-0.6288 6.2504 -2.3457 0.9735
-1.1827 6.1700 -2.3459 0.9735
-1.7273 6.0406 -2.3460 0.9735
-3.2623 5.3705 -2.3464 0.9735
-4.1632 4.7074 -2.3466 0.9735
-6.1624 2.6132 -2.4995 0.9718
-6.3706 2.0543 -2.4995 0.9718
-2.9640 -0.3986 -1.1167 0.9873
-2.9258 -0.6629 -1.1202 0.9873
-2.9106 -0.9386 -1.1419 0.9870
-5.9048 -3.1509 -2.4992 0.9718
-5.6007 -3.6638 -2.4991 0.9718
-4.8620 -4.5984 -2.4989 0.9718
-4.4332 -5.0126 -2.4988 0.9718
-3.9692 -5.3870 -2.4987 0.9718
-3.4738 -5.7186 -2.4985 0.9718
-2.9509 -6.0048 -2.4984 0.9718
-2.4045 -6.2432 -2.4982 0.9718
-1.8392 -6.4321 -2.4981 0.9718
-0.0745 -6.6882 -2.4976 0.9718
0.5210 -6.6679 -2.4975 0.9718
3.3432 -5.7905 -2.4968 0.9719
4.3165 -5.1056 -2.4965 0.9719
4.7536 -4.7010 -2.4965 0.9719
5.5115 -3.7834 -2.4963 0.9719
5.8262 -3.2777 -2.4962 0.9719
6.3148 -2.1927 -2.4961 0.9719
6.6034 -1.0383 -2.4961 0.9719
6.6829 0.1490 -2.4961 0.9719
6.5508 1.3315 -2.4962 0.9719
6.4065 1.9093 -2.4962 0.9719
5.6027 2.8312 -2.3441 0.9736
5.3287 3.3188 -2.3441 0.9736
5.0124 3.7800 -2.3442 0.9736
4.2631 4.6093 -2.3445 0.9735
3.3787 5.2927 -2.3447 0.9735
2.8944 5.5727 -2.3448 0.9735
1.3195 6.1405 -2.3452 0.9735
0.7678 6.2339 -2.3454 0.9735
0.2099 6.2779 -2.3455 0.9735
-0.3497 6.2721 -2.3457 0.9735
-0.9066 6.2164 -2.3458 0.9735
-2.5172 5.7570 -2.3462 0.9735
-3.0197 5.5104 -2.3463 0.9735
-3.9493 4.8881 -2.3466 0.9735
-4.3688 4.5174 -2.3466 0.9735
-5.0626 4.3779 -2.4992 0.9718
-5.4324 3.9100 -2.4993 0.9718
-5.7590 3.4111 -2.4994 0.9718
-6.5877 1.1869 -2.4995 0.9718
-2.8518 -0.5138 -1.1373 0.9876
-5.7460 -2.7446 -2.4992 0.9730
-5.4787 -3.2450 -2.4991 0.9730
-5.1679 -3.7196 -2.4990 0.9730
-4.8162 -4.1647 -2.4989 0.9730
-4.4262 -4.5766 -2.4988 0.9730
-4.0011 -4.9522 -2.4987 0.9730
-3.0593 -5.5825 -2.4984 0.9730
-1.4755 -6.1914 -2.4980 0.9730
-0.9185 -6.2978 -2.4978 0.9730
0.2126 -6.3601 -2.4976 0.9730
2.4184 -5.8847 -2.4970 0.9730
3.4231 -5.3621 -2.4968 0.9730
4.7176 -4.2668 -2.4965 0.9730
5.0785 -3.8298 -2.4964 0.9730
5.3990 -3.3625 -2.4963 0.9730
5.9095 -2.3519 -2.4962 0.9730
6.2327 -1.2668 -2.4962 0.9730
6.3207 -0.7071 -2.4962 0.9730
6.1703 1.5433 -2.4963 0.9730
9.0155 3.1305 -3.7456 0.9598
5.2056 2.9286 -2.3442 0.9747
4.6042 3.8055 -2.3443 0.9747
4.2474 4.2004 -2.3444 0.9747
3.8569 4.5620 -2.3446 0.9747
3.4357 4.8874 -2.3447 0.9747
2.9872 5.1740 -2.3448 0.9747
2.5150 5.4197 -2.3449 0.9747
0.4656 5.9580 -2.3455 0.9746
-0.0666 5.9761 -2.3456 0.9746
-0.5983 5.9468 -2.3457 0.9746
-1.6433 5.7472 -2.3460 0.9746
-2.6366 5.3653 -2.3462 0.9746
-3.5464 4.8133 -2.3464 0.9746
-4.6262 4.3755 -2.4991 0.9730
-4.9975 3.9465 -2.4992 0.9730
-5.6183 2.9981 -2.4993 0.9730
-6.0611 1.9545 -2.4994 0.9730
-6.3116 0.8489 -2.4994 0.9730
-3.6456 0.1626 -1.4322 0.9844
-2.8326 -0.6418 -1.1399 0.9876
-2.8403 -0.9159 -1.1712 0.9873
-2.8717 -1.2177 -1.2242 0.9867
-4.6257 -4.3750 -2.4989 0.9730
-4.2178 -4.7691 -2.4987 0.9730
-3.3050 -5.4409 -2.4985 0.9730
-2.8075 -5.7131 -2.4983 0.9730
-2.2877 -5.9400 -2.4982 0.9730
-0.6370 -6.3323 -2.4978 0.9730
-0.0709 -6.3635 -2.4976 0.9730
1.6126 -6.1550 -2.4972 0.9730
2.6780 -5.7710 -2.4969 0.9730
3.6585 -5.2043 -2.4967 0.9730
4.9029 -4.0523 -2.4964 0.9730
5.2440 -3.5997 -2.4964 0.9730
5.5434 -3.1187 -2.4963 0.9730
5.7989 -2.6128 -2.4962 0.9730
6.0083 -2.0863 -2.4962 0.9730
6.1701 -1.5432 -2.4962 0.9730
6.2829 -0.9879 -2.4962 0.9730
6.3459 -0.4248 -2.4962 0.9730
8.8673 3.5291 -3.7456 0.9598
8.5183 4.3045 -3.7458 0.9598
5.0700 3.1577 -2.3442 0.9747
4.4302 4.0069 -2.3444 0.9747
3.6499 4.7293 -2.3446 0.9747
3.2147 5.0357 -2.3447 0.9747
2.7538 5.3021 -2.3449 0.9747
2.2711 5.5265 -2.3450 0.9747
1.7703 5.7070 -2.3451 0.9747
1.2554 5.8423 -2.3453 0.9746
0.7305 5.9312 -2.3454 0.9746
0.1997 5.9730 -2.3455 0.9746
-0.8626 5.9145 -2.3458 0.9746
-1.8978 5.6684 -2.3461 0.9746
-3.7574 4.6506 -2.3465 0.9746
-4.1897 4.3321 -2.3653 0.9744
-4.8166 4.1651 -2.4992 0.9730
-5.1684 3.7200 -2.4992 0.9730
-4.1297 0.3690 -1.6273 0.9823
-2.8130 -0.2514 -1.1629 0.9879
-2.7831 -0.5014 -1.1645 0.9878
-5.4764 -2.6158 -2.4991 0.9741
-5.2216 -3.0928 -2.4990 0.9741
-4.9255 -3.5451 -2.4990 0.9741
-4.2185 -4.3619 -2.4987 0.9741
-3.3780 -5.0403 -2.4985 0.9741
-2.4305 -5.5588 -2.4983 0.9741
-1.9260 -5.7527 -2.4981 0.9741
-0.3377 -6.0562 -2.4977 0.9741
0.2027 -6.0619 -2.4976 0.9741
0.7414 -6.0194 -2.4974 0.9741
1.2741 -5.9292 -2.4973 0.9741
1.7967 -5.7920 -2.4972 0.9741
3.7044 -4.7999 -2.4967 0.9741
4.8404 -3.6503 -2.4965 0.9741
5.1460 -3.2049 -2.4964 0.9741
5.6325 -2.2416 -2.4963 0.9741
6.0606 -0.1350 -2.4963 0.9741
6.0486 0.4049 -2.4963 0.9741
5.8811 1.4710 -2.4963 0.9741
5.7270 1.9887 -2.4964 0.9741
4.6936 3.2220 -2.3443 0.9757
3.6761 4.3481 -2.3446 0.9757
3.2746 4.6582 -2.3447 0.9757
1.9279 5.3587 -2.3451 0.9757
0.4437 5.6786 -2.3455 0.9757
-0.0635 5.6959 -2.3456 0.9757
-1.0725 5.5950 -2.3458 0.9757
-1.5663 5.4776 -2.3460 0.9757
-2.0477 5.3167 -2.3461 0.9757
-2.9582 4.8699 -2.3463 0.9757
-3.3800 4.5874 -2.3464 0.9757
-5.0790 3.3226 -2.4992 0.9741
-6.0155 0.8090 -2.4994 0.9741
-2.7946 -0.3758 -1.1611 0.9879
-2.7775 -0.8956 -1.2017 0.9875
-5.3543 -2.8571 -2.4991 0.9741
-4.7626 -3.7609 -2.4989 0.9741
-4.4087 -4.1697 -2.4988 0.9741
-4.0199 -4.5454 -2.4987 0.9741
-2.6758 -5.4451 -2.4983 0.9741
-2.1804 -5.6614 -2.4982 0.9741
-1.1420 -5.9576 -2.4979 0.9741
-0.6072 -6.0353 -2.4978 0.9741
-0.0676 -6.0650 -2.4976 0.9741
0.4725 -6.0466 -2.4975 0.9741
1.5370 -5.8664 -2.4972 0.9741
2.5525 -5.5004 -2.4970 0.9741
3.0318 -5.2512 -2.4969 0.9741
3.9145 -4.6300 -2.4967 0.9741
4.6731 -3.8624 -2.4965 0.9741
5.7267 -1.9885 -2.4963 0.9741
6.0485 -0.4049 -2.4962 0.9741
6.0606 0.1351 -2.4963 0.9741
6.0246 0.6740 -2.4963 0.9741
5.9408 1.2076 -2.4963 0.9741
5.8098 1.7315 -2.4964 0.9741
8.4516 3.3637 -3.7457 0.9614
8.1190 4.1028 -3.7459 0.9614
4.5455 3.4279 -2.3443 0.9757
3.8660 4.1800 -2.3445 0.9757
1.6873 5.4394 -2.3451 0.9757
0.1903 5.6929 -2.3455 0.9757
-0.8221 5.6370 -2.3458 0.9757
-1.3207 5.5418 -2.3459 0.9757
-2.7383 4.9967 -2.3462 0.9757
-3.1723 4.7334 -2.3464 0.9757
-3.5811 4.4324 -2.3464 0.9757
-5.2220 3.0931 -2.4992 0.9741
-5.4767 2.6160 -2.4993 0.9741
-5.6879 2.1182 -2.4993 0.9741
-5.8539 1.6036 -2.4993 0.9741
-5.9735 1.0762 -2.4994 0.9741
-3.9772 0.3554 -1.6443 0.9829
-3.0794 0.0000 -1.3283 0.9867
-2.7539 -0.2461 -1.1927 0.9880
-2.7278 -0.4914 -1.1956 0.9880
-2.7092 -0.7421 -1.2117 0.9878
-2.7209 -1.0132 -1.2524 0.9874
-2.7884 -1.6516 -1.3980 0.9860
-4.7018 -3.3842 -2.4989 0.9751
-4.0270 -4.1639 -2.4987 0.9751
-3.2246 -4.8114 -2.4985 0.9751
-2.7835 -5.0791 -2.4984 0.9751
-2.3202 -5.3065 -2.4982 0.9751
-1.8386 -5.4916 -2.4981 0.9751
-1.3425 -5.6332 -2.4980 0.9751
-0.8357 -5.7300 -2.4978 0.9751
0.1935 -5.7868 -2.4976 0.9751
0.7077 -5.7463 -2.4975 0.9751
3.1146 -4.8790 -2.4969 0.9751
3.5364 -4.5822 -2.4968 0.9751
3.9301 -4.2491 -2.4967 0.9751
4.6209 -3.4847 -2.4965 0.9751
4.9126 -3.0596 -2.4965 0.9751
5.3770 -2.1400 -2.4964 0.9751
5.5461 -1.6529 -2.4963 0.9751
5.7512 -0.6433 -2.4963 0.9751
5.7743 0.3866 -2.4963 0.9751
5.6144 1.4043 -2.4964 0.9751
5.4672 1.8985 -2.4965 0.9751
7.9174 3.5674 -3.7459 0.9629
7.5687 4.2581 -3.7460 0.9629
4.1893 3.4626 -2.3444 0.9766
3.8646 3.8218 -2.3445 0.9766
1.8404 5.1155 -2.3451 0.9766
1.3779 5.2593 -2.3452 0.9766
0.9044 5.3613 -2.3453 0.9766
0.4236 5.4209 -2.3455 0.9766
-0.0606 5.4373 -2.3456 0.9766
-0.5443 5.4107 -2.3457 0.9766
-1.0238 5.3410 -2.3458 0.9766
-1.4952 5.2290 -2.3459 0.9766
-2.3988 4.8814 -2.3462 0.9766
-2.8239 4.6488 -2.3463 0.9766
-3.7485 4.2386 -2.4408 0.9757
-4.2090 3.9808 -2.4990 0.9751
-4.8484 3.1717 -2.4991 0.9751
-5.3341 2.2619 -2.4992 0.9751
-5.7423 0.7723 -2.4993 0.9751
-2.7166 -0.8760 -1.2313 0.9876
-5.1112 -2.7274 -2.4990 0.9751
-4.5463 -3.5902 -2.4989 0.9751
-4.2086 -3.9804 -2.4988 0.9751
-3.8374 -4.3390 -2.4987 0.9751
-3.0070 -4.9502 -2.4984 0.9751
-2.5544 -5.1979 -2.4983 0.9751
-2.0815 -5.4044 -2.4982 0.9751
-1.0902 -5.6872 -2.4979 0.9751
-0.5796 -5.7614 -2.4978 0.9751
0.4511 -5.7723 -2.4975 0.9751
0.9630 -5.7089 -2.4974 0.9751
1.4672 -5.6003 -2.4973 0.9751
1.9598 -5.4472 -2.4971 0.9751
2.4367 -5.2509 -2.4970 0.9751
2.8943 -5.0129 -2.4969 0.9751
3.3288 -4.7353 -2.4968 0.9751
3.7369 -4.4200 -2.4967 0.9751
4.1154 -4.0697 -2.4966 0.9751
4.7715 -3.2754 -2.4965 0.9751
5.0439 -2.8377 -2.4964 0.9751
5.2764 -2.3774 -2.4964 0.9751
5.6142 -1.4042 -2.4963 0.9751
5.7169 -0.8989 -2.4963 0.9751
5.7742 -0.3865 -2.4963 0.9751
5.7857 0.1290 -2.4963 0.9751
5.7513 0.6434 -2.4964 0.9751
5.6713 1.1528 -2.4964 0.9751
5.5463 1.6530 -2.4964 0.9751
7.7507 3.9166 -3.7459 0.9629
4.0310 3.6458 -2.3445 0.9766
3.6906 3.9903 -2.3446 0.9766
1.1423 5.3156 -2.3453 0.9766
0.6646 5.3965 -2.3454 0.9766
-0.3027 5.4294 -2.3456 0.9766
-1.2607 5.2903 -2.3459 0.9766
-3.0282 4.5185 -2.3463 0.9766
-3.4186 4.2312 -2.3464 0.9766
-4.0274 4.1643 -2.4990 0.9751
-4.3822 3.7895 -2.4990 0.9751
-4.9849 2.9526 -2.4992 0.9751
-5.2280 2.4972 -2.4992 0.9751
-5.5881 1.5308 -2.4993 0.9751
-5.7022 1.0273 -2.4993 0.9751
-2.9980 -0.0000 -1.3528 0.9869
-2.6607 -0.9909 -1.2811 0.9876
-4.4948 -3.2352 -2.4989 0.9760
-4.1889 -3.6222 -2.4988 0.9760
-3.8497 -3.9805 -2.4987 0.9760
-3.4800 -4.3072 -2.4986 0.9760
-2.6609 -4.8555 -2.4983 0.9760
-2.2181 -5.0729 -2.4982 0.9760
-1.7577 -5.2499 -2.4981 0.9760
-1.2834 -5.3853 -2.4980 0.9760
-0.7989 -5.4778 -2.4978 0.9760
-0.3082 -5.5269 -2.4977 0.9760
0.1850 -5.5321 -2.4976 0.9760
0.6766 -5.4934 -2.4975 0.9760
1.1628 -5.4111 -2.4973 0.9760
2.1036 -5.1188 -2.4971 0.9760
2.5507 -4.9110 -2.4970 0.9760
2.9776 -4.6643 -2.4969 0.9760
3.3808 -4.3806 -2.4968 0.9760
4.1037 -3.7115 -2.4966 0.9760
4.4176 -3.3314 -2.4966 0.9760
5.5312 -0.1232 -2.4964 0.9760
5.4655 0.8595 -2.4964 0.9760
5.3674 1.3425 -2.4965 0.9760
7.5691 3.4104 -3.7460 0.9642
7.2356 4.0707 -3.7461 0.9642
4.0050 3.3102 -2.3445 0.9775
3.6946 3.6537 -2.3446 0.9775
3.3549 3.9682 -2.3447 0.9775
2.9885 4.2512 -2.3448 0.9775
2.5984 4.5006 -2.3449 0.9775
2.1876 4.7142 -2.3450 0.9775
1.7594 4.8904 -2.3451 0.9775
0.8646 5.1254 -2.3453 0.9774
-0.0579 5.1980 -2.3456 0.9774
-1.8687 4.8519 -2.3460 0.9774
-3.0845 4.1863 -2.3463 0.9774
-4.0236 3.8056 -2.4989 0.9760
-4.6349 3.0320 -2.4991 0.9760
-5.4019 1.2239 -2.4992 0.9760
-2.6659 -0.6040 -1.2334 0.9881
-2.6574 -0.8569 -1.2599 0.9878
-2.6675 -1.1311 -1.3074 0.9874
-1.5220 -5.3228 -2.4980 0.9760
0.9206 -5.4577 -2.4974 0.9760
1.4027 -5.3538 -2.4973 0.9760
3.1824 -4.5269 -2.4969 0.9760
3.5725 -4.2255 -2.4968 0.9760
3.9343 -3.8907 -2.4967 0.9760
4.5616 -3.1313 -2.4965 0.9760
4.8221 -2.7128 -2.4965 0.9760
5.0443 -2.2728 -2.4964 0.9760
5.3672 -1.3424 -2.4964 0.9760
5.4654 -0.8593 -2.4964 0.9760
5.1408 2.0460 -2.4966 0.9760
7.0473 4.3891 -3.7461 0.9642
4.1484 3.1285 -2.3444 0.9775
2.3954 4.6120 -2.3449 0.9775
1.5399 4.9641 -2.3452 0.9775
0.6354 5.1590 -2.3454 0.9774
-0.2894 5.1904 -2.3456 0.9774
-0.7503 5.1443 -2.3457 0.9774
-1.6506 4.9302 -2.3460 0.9774
-4.7654 2.8226 -2.4991 0.9760
-5.3420 1.4633 -2.4992 0.9760
-2.6448 -0.2363 -1.2517 0.9883
-2.6016 -0.7127 -1.2715 0.9881
-2.6023 -0.9691 -1.3090 0.9878
-2.6052 -1.2444 -1.3609 0.9873
-2.6596 -1.5753 -1.4571 0.9864
-4.3025 -3.0967 -2.4988 0.9768
-4.0097 -3.4673 -2.4987 0.9768
-3.3311 -4.1229 -2.4985 0.9768
-2.9508 -4.4029 -2.4984 0.9768
-0.7647 -5.2435 -2.4978 0.9768
-0.2950 -5.2905 -2.4977 0.9768
0.1770 -5.2956 -2.4976 0.9768
0.6477 -5.2585 -2.4975 0.9768
1.5696 -5.0599 -2.4973 0.9768
2.0136 -4.8999 -2.4971 0.9768
2.4417 -4.7011 -2.4970 0.9768
2.8503 -4.4649 -2.4969 0.9768
3.5965 -3.8885 -2.4968 0.9768
4.2288 -3.1890 -2.4966 0.9769
4.4957 -2.8000 -2.4966 0.9769
4.9208 -1.9584 -2.4965 0.9769
5.0755 -1.5126 -2.4965 0.9769
5.2948 -0.1179 -2.4964 0.9769
5.2843 0.3538 -2.4965 0.9769
5.2319 0.8227 -2.4965 0.9769
5.1380 1.2851 -2.4965 0.9769
5.0033 1.7374 -2.4966 0.9769
6.9264 3.8967 -3.7462 0.9655
6.5522 4.4979 -3.7463 0.9655
3.2115 3.7985 -2.3447 0.9782
2.8607 4.0695 -2.3448 0.9782
2.4873 4.3081 -2.3449 0.9782
2.0941 4.5126 -2.3450 0.9782
1.2609 4.8129 -2.3452 0.9782
0.3876 4.9607 -2.3455 0.9782
-0.0554 4.9757 -2.3456 0.9782
-0.4981 4.9513 -2.3457 0.9782
-2.1951 4.4669 -2.3461 0.9782
-3.0323 4.1155 -2.4097 0.9776
-3.5119 3.9710 -2.4988 0.9768
-4.1605 3.2856 -2.4990 0.9768
-4.8810 2.0697 -2.4991 0.9768
-5.0459 1.6271 -2.4991 0.9768
-5.2545 0.7067 -2.4992 0.9768
-3.1522 0.1405 -1.4873 0.9861
-2.7082 -0.1208 -1.2778 0.9881
-2.6352 -0.3544 -1.2533 0.9883
-2.6038 -1.1041 -1.3332 0.9876
-2.5902 -1.3822 -1.3839 0.9871
-4.4363 -2.9020 -2.4988 0.9768
-4.1602 -3.2853 -2.4988 0.9768
-3.5115 -3.9705 -2.4986 0.9768
-3.1441 -4.2671 -2.4985 0.9768
-2.3375 -4.7566 -2.4983 0.9768
-1.4569 -5.0952 -2.4980 0.9768
-0.9976 -5.2044 -2.4979 0.9768
-0.5304 -5.2722 -2.4978 0.9768
-0.0590 -5.2983 -2.4977 0.9768
0.4128 -5.2823 -2.4975 0.9768
1.3427 -5.1249 -2.4973 0.9768
2.2299 -4.8052 -2.4971 0.9768
2.6486 -4.5875 -2.4970 0.9768
3.7661 -3.7244 -2.4967 0.9768
4.0826 -3.3743 -2.4967 0.9769
4.6159 -2.5969 -2.4965 0.9769
4.8287 -2.1756 -2.4965 0.9769
5.0031 -1.7372 -2.4965 0.9769
5.1378 -1.2850 -2.4965 0.9769
5.2318 -0.8226 -2.4964 0.9769
5.2842 -0.3537 -2.4964 0.9769
5.2948 0.1180 -2.4965 0.9769
5.0757 1.5127 -2.4966 0.9769
6.7460 4.2015 -3.7462 0.9655
6.3455 4.7854 -3.7463 0.9655
3.6889 3.3364 -2.3446 0.9782
3.3774 3.6516 -2.3446 0.9782
3.0391 3.9379 -2.3447 0.9782
-0.2770 4.9684 -2.3456 0.9782
-0.7182 4.9243 -2.3457 0.9782
-1.5800 4.7194 -2.3459 0.9782
-2.3920 4.3648 -2.3461 0.9782
-2.7710 4.1347 -2.3462 0.9782
-3.3314 4.1234 -2.4988 0.9768
-4.0100 3.4676 -2.4989 0.9768
-4.3028 3.0970 -2.4990 0.9768
-4.7839 2.2851 -2.4991 0.9768
-5.2178 0.9401 -2.4992 0.9768
-3.7076 0.3313 -1.7546 0.9837
-2.8279 0.0000 -1.3909 0.9875
-2.5903 -0.2315 -1.2791 0.9885
-2.5453 -0.9479 -1.3359 0.9880
-2.5457 -1.2160 -1.3876 0.9875
-4.3712 -2.5890 -2.4988 0.9776
-4.1233 -2.9677 -2.4988 0.9776
-3.8427 -3.3229 -2.4987 0.9776
-3.5315 -3.6516 -2.4986 0.9776
-2.0348 -4.6537 -2.4982 0.9776
-0.7329 -5.0252 -2.4978 0.9776
0.6207 -5.0396 -2.4975 0.9776
1.9298 -4.6960 -2.4972 0.9776
2.7317 -4.2791 -2.4970 0.9776
3.1016 -4.0188 -2.4969 0.9776
3.4469 -3.7267 -2.4968 0.9776
4.0528 -3.0563 -2.4967 0.9776
4.3086 -2.6834 -2.4966 0.9776
4.5303 -2.2892 -2.4966 0.9776
4.7160 -1.8769 -2.4965 0.9776
4.8643 -1.4497 -2.4965 0.9776
4.9740 -1.0110 -2.4965 0.9776
5.0644 0.3390 -2.4965 0.9776
5.0142 0.7885 -2.4965 0.9776
4.9242 1.2316 -2.4966 0.9776
4.7951 1.6651 -2.4966 0.9776
4.6280 2.0853 -2.4967 0.9776
6.6381 3.7345 -3.7462 0.9666
3.3895 3.3519 -2.3446 0.9790
2.3837 4.1288 -2.3449 0.9790
2.0069 4.3248 -2.3450 0.9790
1.2084 4.6125 -2.3452 0.9790
0.7931 4.7020 -2.3453 0.9790
-0.4774 4.7451 -2.3457 0.9790
-1.3112 4.5857 -2.3459 0.9790
-4.6777 1.9835 -2.4991 0.9776
-4.8357 1.5594 -2.4991 0.9776
-4.9554 1.1228 -2.4991 0.9776
-5.0356 0.6773 -2.4991 0.9776
-3.0630 0.1366 -1.5081 0.9864
-2.6467 -0.1180 -1.3031 0.9883
-2.5845 -0.3476 -1.2826 0.9884
-2.5616 -0.5804 -1.2919 0.9884
-2.5441 -1.0788 -1.3592 0.9878
-3.6908 -3.4906 -2.4986 0.9776
-3.0131 -4.0894 -2.4984 0.9776
-2.6371 -4.3412 -2.4983 0.9776
-2.2401 -4.5585 -2.4982 0.9776
-1.3963 -4.8830 -2.4980 0.9776
0.3956 -5.0624 -2.4976 0.9776
1.7188 -4.7773 -2.4972 0.9776
2.1371 -4.6052 -2.4971 0.9776
2.5384 -4.3966 -2.4970 0.9776
2.9195 -4.1530 -2.4969 0.9776
3.2775 -3.8766 -2.4969 0.9776
4.1849 -2.8727 -2.4966 0.9776
4.4239 -2.4888 -2.4966 0.9776
4.6277 -2.0851 -2.4966 0.9776
4.7949 -1.6650 -2.4965 0.9776
5.0644 -0.3390 -2.4965 0.9776
5.0443 0.5643 -2.4965 0.9776
4.8645 1.4498 -2.4966 0.9776
4.7162 1.8770 -2.4967 0.9776
6.4653 4.0266 -3.7463 0.9666
3.5353 3.1975 -2.3446 0.9790
2.5653 4.0184 -2.3449 0.9790
1.8123 4.4100 -2.3451 0.9790
-0.2655 4.7615 -2.3456 0.9790
-0.6883 4.7193 -2.3457 0.9790
-1.5142 4.5228 -2.3459 0.9790
-1.9109 4.3703 -2.3460 0.9790
-2.7214 4.0606 -2.4042 0.9784
-4.3715 2.5893 -2.4990 0.9776
-4.9004 1.3424 -2.4991 0.9776
-3.6334 0.3247 -1.7942 0.9839
-2.5199 -0.4540 -1.3126 0.9886
-2.4895 -0.9271 -1.3619 0.9881
-2.4879 -1.1884 -1.4135 0.9877
-3.6866 -3.1879 -2.4986 0.9783
-3.3881 -3.5032 -2.4986 0.9783
-3.0627 -3.7908 -2.4985 0.9783
-2.7131 -4.0482 -2.4984 0.9783
-2.3419 -4.2734 -2.4983 0.9783
-1.9522 -4.4647 -2.4982 0.9783
-1.1295 -4.7396 -2.4979 0.9783
1.0234 -4.7626 -2.4974 0.9783
1.8515 -4.5054 -2.4972 0.9783
2.6208 -4.1053 -2.4970 0.9783
2.9757 -3.8557 -2.4969 0.9783
3.6120 -3.2668 -2.4968 0.9783
4.1338 -2.5745 -2.4967 0.9783
4.8395 -0.5413 -2.4966 0.9783
4.8589 0.3253 -2.4966 0.9783
4.8107 0.7565 -2.4966 0.9783
4.7243 1.1817 -2.4966 0.9783
4.6005 1.5975 -2.4967 0.9783
6.3687 3.5830 -3.7463 0.9677
6.0247 4.1357 -3.7464 0.9677
5.6328 4.6557 -3.7465 0.9677
3.2519 3.2159 -2.3447 0.9797
1.9254 4.1492 -2.3450 0.9796
1.5485 4.3043 -2.3451 0.9796
0.7609 4.5111 -2.3453 0.9796
-1.2580 4.3995 -2.3459 0.9796
-2.0201 4.1107 -2.3481 0.9796
-3.2289 3.6510 -2.4987 0.9783
-3.5411 3.3492 -2.4988 0.9783
-3.8253 3.0208 -2.4989 0.9783
-4.0791 2.6684 -2.4989 0.9783
-4.3004 2.2948 -2.4990 0.9783
-4.6393 1.4960 -2.4990 0.9783
-2.5877 -0.1154 -1.3280 0.9884
-2.5113 -0.5690 -1.3201 0.9885
-2.4881 -0.8023 -1.3403 0.9883
-2.4879 -1.0550 -1.3854 0.9879
-2.4717 -1.3189 -1.4363 0.9875
-3.2286 -3.6506 -2.4985 0.9783
-2.8908 -3.9234 -2.4984 0.9783
-1.7513 -4.5471 -2.4981 0.9783
-1.3396 -4.6847 -2.4980 0.9783
-0.9172 -4.7852 -2.4979 0.9783
0.3795 -4.8569 -2.4976 0.9783
0.8103 -4.8036 -2.4975 0.9783
1.2345 -4.7122 -2.4973 0.9783
2.0503 -4.4183 -2.4971 0.9783
3.1445 -3.7192 -2.4969 0.9783
3.7539 -3.1026 -2.4968 0.9783
4.4399 -2.0005 -2.4966 0.9783
4.7242 -1.1816 -2.4966 0.9783
4.8106 -0.7564 -2.4966 0.9783
4.8588 -0.3252 -2.4966 0.9783
4.8685 0.1085 -2.4966 0.9783
4.8396 0.5414 -2.4966 0.9783
4.6670 1.3910 -2.4967 0.9783
4.5248 1.8008 -2.4967 0.9783
6.2029 3.8632 -3.7463 0.9677
5.8345 4.4000 -3.7464 0.9677
5.4199 4.9020 -3.7466 0.9677
2.7944 3.6208 -2.3448 0.9797
2.4611 3.8553 -2.3449 0.9797
1.3553 4.3691 -2.3452 0.9796
0.5592 4.5406 -2.3454 0.9796
-1.0607 4.4510 -2.3458 0.9796
-1.4527 4.3391 -2.3459 0.9796
-2.7085 4.0413 -2.4941 0.9784
-3.3884 3.5036 -2.4988 0.9783
-3.6869 3.1882 -2.4988 0.9783
-3.9561 2.8474 -2.4989 0.9783
-4.7014 1.2879 -2.4990 0.9783
-4.7973 0.8643 -2.4991 0.9783
-2.6714 0.0000 -1.4261 0.9880
-2.4716 -0.4453 -1.3407 0.9887
-2.4352 -0.9069 -1.3872 0.9883
-2.4292 -1.1603 -1.4371 0.9879
-2.3944 -1.4182 -1.4856 0.9875
-3.7989 -2.7342 -2.4987 0.9790
-2.2490 -4.1039 -2.4983 0.9790
-1.8747 -4.2876 -2.4982 0.9790
-1.4856 -4.4372 -2.4980 0.9790
-0.6753 -4.6300 -2.4978 0.9790
-0.2605 -4.6715 -2.4977 0.9790
0.9828 -4.5737 -2.4974 0.9790
1.3860 -4.4679 -2.4973 0.9790
1.7781 -4.3267 -2.4972 0.9790
2.8577 -3.7028 -2.4970 0.9790
3.4688 -3.1373 -2.4968 0.9790
3.7342 -2.8160 -2.4968 0.9790
3.9699 -2.4724 -2.4967 0.9790
4.3452 -1.7294 -2.4966 0.9790
4.6477 -0.5199 -2.4966 0.9790
4.6663 0.3124 -2.4966 0.9790
4.5370 1.1348 -2.4967 0.9790
5.7859 3.9718 -3.7464 0.9687
4.9902 4.9350 -3.7467 0.9687
2.5261 3.5934 -2.3449 0.9803
1.1134 4.2497 -2.3452 0.9803
0.7307 4.3321 -2.3453 0.9803
-0.0489 4.3934 -2.3455 0.9803
-0.4398 4.3718 -2.3456 0.9803
-1.2081 4.2249 -2.3458 0.9803
-1.5794 4.1008 -2.3459 0.9803
-1.9383 3.9441 -2.3460 0.9803
-3.1008 3.5062 -2.4987 0.9790
-3.4006 3.2163 -2.4988 0.9790
-3.6735 2.9010 -2.4988 0.9790
-4.5654 1.0344 -2.4990 0.9790
-4.6394 0.6240 -2.4990 0.9790
-2.4861 -0.3343 -1.3391 0.9887
-2.4621 -0.5578 -1.3477 0.9886
-2.4330 -1.0317 -1.4108 0.9881
-2.4323 -1.5911 -1.5516 0.9869
-3.4004 -3.2160 -2.4986 0.9790
0.7781 -4.6131 -2.4975 0.9790
1.1856 -4.5253 -2.4974 0.9790
1.5836 -4.4017 -2.4973 0.9790
2.3388 -4.0509 -2.4971 0.9790
2.6900 -3.8265 -2.4970 0.9790
3.0198 -3.5717 -2.4969 0.9790
3.3256 -3.2887 -2.4969 0.9790
4.0761 -2.2931 -2.4967 0.9790
4.5369 -1.1347 -2.4966 0.9790
4.6662 -0.3123 -2.4966 0.9790
4.6755 0.1042 -2.4966 0.9790
4.5831 0.9316 -2.4967 0.9790
4.3454 1.7295 -2.4967 0.9790
5.6032 4.2256 -3.7465 0.9687
2.9823 3.2245 -2.3447 0.9803
2.0247 3.8983 -2.3450 0.9803
1.3016 4.1959 -2.3452 0.9803
0.5371 4.3605 -2.3454 0.9803
0.1468 4.3912 -2.3455 0.9803
-0.6341 4.3480 -2.3457 0.9803
-1.0186 4.2745 -2.3458 0.9803
-1.3951 4.1670 -2.3459 0.9803
-2.1702 3.9602 -2.4107 0.9797
-2.6057 3.8880 -2.4986 0.9790
-2.9415 3.6407 -2.4987 0.9790
-3.2540 3.3646 -2.4987 0.9790
-3.5406 3.0617 -2.4988 0.9790
-4.2239 2.0176 -2.4989 0.9790
-4.6070 0.8300 -2.4990 0.9790
-2.4347 -0.2176 -1.3576 0.9889
-2.4243 -0.4368 -1.3681 0.9888
-2.3733 -1.1337 -1.4608 0.9880
-3.4029 -2.9426 -2.4986 0.9796
-2.8271 -3.4991 -2.4984 0.9796
-2.5043 -3.7367 -2.4983 0.9796
-2.1617 -3.9446 -2.4982 0.9796
-1.0426 -4.3750 -2.4979 0.9796
0.1503 -4.4945 -2.4976 0.9796
0.9447 -4.3963 -2.4974 0.9796
1.7091 -4.1588 -2.4972 0.9796
2.4192 -3.7896 -2.4971 0.9796
3.0527 -3.3004 -2.4969 0.9796
3.3342 -3.0156 -2.4969 0.9796
3.5893 -2.7068 -2.4968 0.9796
3.8159 -2.3765 -2.4968 0.9796
4.1767 -1.6622 -2.4967 0.9796
4.4942 -0.1001 -2.4967 0.9796
4.4853 0.3003 -2.4967 0.9796
4.4408 0.6983 -2.4967 0.9796
4.3611 1.0908 -2.4967 0.9796
4.2467 1.4747 -2.4968 0.9796
4.0987 1.8468 -2.4968 0.9796
3.9181 2.2043 -2.4969 0.9796
5.5614 3.8177 -3.7465 0.9696
4.7966 4.7435 -3.7467 0.9696
2.4281 3.4540 -2.3449 0.9809
1.0702 4.0848 -2.3453 0.9809
0.7024 4.1640 -2.3453 0.9809
0.3290 4.2102 -2.3454 0.9809
-0.4227 4.2022 -2.3456 0.9809
-0.7951 4.1480 -2.3457 0.9809
-1.1612 4.0610 -2.3458 0.9809
-2.3355 3.8448 -2.4985 0.9796
-2.9804 3.3701 -2.4987 0.9796
-3.2686 3.0915 -2.4987 0.9796
-3.5309 2.7884 -2.4988 0.9796
-3.7651 2.4630 -2.4988 0.9796
-4.2822 1.3809 -2.4989 0.9796
-4.3882 0.9943 -2.4990 0.9796
-4.4593 0.5997 -2.4990 0.9796
-2.5020 0.1116 -1.3910 0.9886
-2.4745 -0.1104 -1.3757 0.9887
-2.4139 -0.5469 -1.3747 0.9887
-2.3870 -0.7697 -1.3929 0.9886
-2.3793 -1.0089 -1.4353 0.9882
-3.2684 -3.0912 -2.4985 0.9796
-2.9802 -3.3697 -2.4985 0.9796
-2.6683 -3.6214 -2.4984 0.9796
-2.3353 -3.8444 -2.4983 0.9796
-1.9838 -4.0369 -2.4982 0.9796
-1.6166 -4.1973 -2.4981 0.9796
-1.2365 -4.3244 -2.4980 0.9796
-0.8467 -4.4170 -2.4979 0.9796
0.3503 -4.4833 -2.4976 0.9796
0.7479 -4.4341 -2.4975 0.9796
1.5222 -4.2309 -2.4973 0.9796
1.8926 -4.0785 -2.4972 0.9796
2.2481 -3.8937 -2.4971 0.9796
3.1966 -3.1612 -2.4969 0.9796
3.4652 -2.8640 -2.4968 0.9796
3.7063 -2.5442 -2.4968 0.9796
3.9179 -2.2042 -2.4967 0.9796
4.3609 -1.0907 -2.4967 0.9796
4.4407 -0.6982 -2.4966 0.9796
4.4852 -0.3002 -2.4966 0.9796
4.4942 0.1002 -2.4967 0.9796
4.1769 1.6624 -2.4968 0.9796
5.0031 4.5251 -3.7467 0.9696
2.5795 3.3423 -2.3448 0.9809
1.9461 3.7470 -2.3450 0.9809
0.8872 4.1286 -2.3453 0.9809
