ply
format ascii 1.0
element vertex 1586
property float32 x
property float32 y
property float32 z
property float32 I
end_header
-4.7551 -6.4537 -1.0046 0.9682
-3.7351 -6.1488 -0.9016 0.9714
7.5678 4.7133 -1.1173 0.9647
-4.2632 -6.3612 -1.0892 0.9695
-3.0067 -6.8764 -1.0675 0.9701
-3.8307 -6.3063 -1.0495 0.9706
14.5282 2.2845 -2.3418 0.9422
14.2680 3.5687 -2.3420 0.9422
13.8946 4.8248 -2.3421 0.9422
13.4110 6.0427 -2.3423 0.9422
12.1294 8.3264 -2.3427 0.9422
11.3413 9.3738 -2.3430 0.9421
9.5018 11.2388 -2.3435 0.9421
8.4649 12.0414 -2.3438 0.9421
3.7324 14.2464 -2.3451 0.9421
2.4499 14.5241 -2.3454 0.9421
1.1476 14.6866 -2.3458 0.9421
-0.1641 14.7326 -2.3461 0.9421
-7.6550 12.6019 -2.3479 0.9420
-8.7472 11.8718 -2.3481 0.9420
-10.7154 10.1346 -2.3486 0.9420
-11.5758 9.1413 -2.3487 0.9420
-12.3442 8.0752 -2.3489 0.9420
-13.0147 6.9449 -2.3490 0.9420
-3.9710 -6.5371 -1.2180 0.9695
-3.3320 -6.7804 -1.2030 0.9699
14.6153 1.6350 -2.3418 0.9422
14.0953 4.2008 -2.3420 0.9422
13.1291 6.6345 -2.3424 0.9422
7.5669 4.7127 -1.4195 0.9645
9.9924 10.8037 -2.3434 0.9421
5.5967 13.6188 -2.3446 0.9421
3.0943 14.3995 -2.3453 0.9421
-2.1268 14.5822 -2.3466 0.9421
-3.4167 14.3370 -2.3469 0.9421
-4.6798 13.9778 -2.3472 0.9420
-7.0856 12.9297 -2.3478 0.9420
-9.2678 11.4709 -2.3483 0.9420
-10.2529 10.6014 -2.3485 0.9420
-13.3114 6.3583 -2.3491 0.9420
-14.1294 -1.2626 -2.5013 0.9440
-13.9604 -2.5151 -2.5012 0.9440
-12.7976 -6.1129 -2.5008 0.9440
-12.2018 -7.2271 -2.5006 0.9440
-10.7251 -9.2744 -2.5001 0.9440
-9.8560 -10.1911 -2.4999 0.9440
-7.8912 -11.7745 -2.4993 0.9441
-5.6771 -12.9838 -2.4987 0.9441
-4.4984 -13.4359 -2.4984 0.9441
-2.0443 -14.0170 -2.4977 0.9441
0.4732 -14.1537 -2.4971 0.9441
1.7309 -14.0537 -2.4968 0.9441
2.9745 -13.8421 -2.4965 0.9441
8.6456 -11.2025 -2.4951 0.9441
10.4933 -9.4905 -2.4948 0.9442
13.1431 -5.2308 -2.4943 0.9442
14.1420 -0.3151 -2.4942 0.9442
12.8869 3.2232 -2.3423 0.9475
12.5496 4.3577 -2.3424 0.9475
11.5798 6.5147 -2.3428 0.9475
9.4499 9.3452 -2.3434 0.9474
3.3707 12.8657 -2.3451 0.9474
-0.1482 13.3042 -2.3460 0.9474
-7.8985 10.7199 -2.3479 0.9474
-9.6756 9.1511 -2.3483 0.9473
-11.7515 6.2708 -2.3487 0.9473
-13.0602 5.5380 -2.5014 0.9440
-13.8357 3.1348 -2.5014 0.9440
-14.0598 1.8909 -2.5015 0.9440
-14.1719 -0.6319 -2.5014 0.9440
-13.8342 -3.1344 -2.5012 0.9440
-10.3008 -9.7424 -2.5000 0.9440
-7.3584 -12.1135 -2.4992 0.9441
-6.2503 -12.7189 -2.4988 0.9441
-3.8951 -13.6221 -2.4982 0.9441
-2.6669 -13.9129 -2.4979 0.9441
-1.4178 -14.0932 -2.4976 0.9441
-0.1578 -14.1617 -2.4972 0.9441
1.1032 -14.1177 -2.4969 0.9441
2.3551 -13.9617 -2.4966 0.9441
3.5880 -13.6951 -2.4963 0.9441
4.7921 -13.3198 -2.4960 0.9441
5.9580 -12.8391 -2.4958 0.9441
8.1384 -11.5770 -2.4953 0.9441
9.1357 -10.8057 -2.4950 0.9441
10.9052 -9.0134 -2.4947 0.9442
11.6635 -8.0065 -2.4945 0.9442
12.8972 -5.8112 -2.4943 0.9442
13.3629 -4.6401 -2.4942 0.9442
13.9736 -2.1972 -2.4942 0.9442
14.1138 -0.9448 -2.4942 0.9442
13.2007 1.4768 -2.3421 0.9475
13.0174 2.6459 -2.3422 0.9475
12.7309 3.7942 -2.3424 0.9475
9.8563 8.9145 -2.3433 0.9475
9.0247 9.7574 -2.3436 0.9474
7.1533 11.2055 -2.3441 0.9474
5.0544 12.2993 -2.3447 0.9474
3.9402 12.7020 -2.3450 0.9474
2.7944 13.0039 -2.3453 0.9474
1.6261 13.2028 -2.3456 0.9474
-1.9205 13.1683 -2.3465 0.9474
-3.0853 12.9466 -2.3468 0.9474
-4.2259 12.6221 -2.3470 0.9474
-9.2580 9.5727 -2.3482 0.9473
-12.0254 5.7441 -2.3499 0.9473
-13.9617 2.5154 -2.5015 0.9440
-12.9243 0.0000 -2.5011 0.9487
-12.8727 -1.1503 -2.5010 0.9487
-12.7187 -2.2914 -2.5009 0.9487
-12.1097 -4.5097 -2.5007 0.9487
-11.1168 -6.5845 -2.5003 0.9487
-10.4857 -7.5472 -2.5001 0.9487
-9.7715 -8.4497 -2.4999 0.9487
-7.1898 -10.7279 -2.4992 0.9487
-4.0987 -12.2421 -2.4983 0.9488
-1.8627 -12.7718 -2.4977 0.9488
0.4312 -12.8968 -2.4972 0.9488
2.7104 -12.6131 -2.4966 0.9488
3.8219 -12.3205 -2.4963 0.9488
7.8784 -10.2082 -2.4954 0.9488
8.7550 -9.4658 -2.4952 0.9488
10.2934 -7.7626 -2.4949 0.9488
11.5056 -5.8140 -2.4947 0.9488
11.9770 -4.7667 -2.4946 0.9488
12.3535 -3.6817 -2.4945 0.9488
12.6321 -2.5675 -2.4945 0.9488
12.8105 -1.4330 -2.4945 0.9488
11.4361 3.9711 -2.3427 0.9519
10.5522 5.9366 -2.3430 0.9519
8.6110 8.5157 -2.3436 0.9519
6.9662 9.9095 -2.3441 0.9518
6.0572 10.4914 -2.3443 0.9518
5.0999 10.9901 -2.3446 0.9518
4.1020 11.4017 -2.3449 0.9518
2.0159 11.9512 -2.3454 0.9518
0.9443 12.0846 -2.3457 0.9518
-0.1351 12.1221 -2.3460 0.9518
-1.2136 12.0633 -2.3462 0.9518
-3.3339 11.6596 -2.3468 0.9518
-5.3495 10.8859 -2.3472 0.9518
-6.2978 10.3676 -2.3475 0.9518
-8.0375 9.0882 -2.3478 0.9518
-8.8151 8.3373 -2.3480 0.9518
-9.5228 7.5201 -2.3481 0.9518
-10.7062 5.7130 -2.3484 0.9518
-12.3007 3.9665 -2.5011 0.9487
-12.8084 -1.7226 -2.5010 0.9487
-12.6038 -2.8556 -2.5009 0.9487
-12.2990 -3.9659 -2.5008 0.9487
-11.8965 -5.0445 -2.5006 0.9487
-11.3995 -6.0829 -2.5004 0.9487
-10.8120 -7.0729 -2.5002 0.9487
-10.1387 -8.0064 -2.5000 0.9487
-7.6610 -10.3975 -2.4993 0.9487
-6.7044 -11.0369 -2.4990 0.9487
-5.6948 -11.5886 -2.4988 0.9488
-3.5491 -12.4118 -2.4982 0.9488
-2.4300 -12.6769 -2.4979 0.9488
1.0052 -12.8640 -2.4970 0.9488
2.1460 -12.7220 -2.4967 0.9488
3.2694 -12.4792 -2.4965 0.9488
4.3667 -12.1374 -2.4962 0.9488
5.4291 -11.6994 -2.4959 0.9488
6.4483 -11.1687 -2.4957 0.9488
7.4161 -10.5495 -2.4955 0.9488
8.3250 -9.8468 -2.4953 0.9488
9.1677 -9.0661 -2.4951 0.9488
11.2353 -6.3209 -2.4947 0.9488
12.8617 -0.8609 -2.4945 0.9488
12.8875 0.2872 -2.4946 0.9488
11.6013 3.4576 -2.3426 0.9519
10.8058 5.4604 -2.3429 0.9519
9.6679 7.2910 -2.3433 0.9519
8.9814 8.1232 -2.3435 0.9519
7.4003 9.5888 -2.3440 0.9518
6.5182 10.2105 -2.3442 0.9518
5.5841 10.7514 -2.3445 0.9518
3.5902 11.5738 -2.3450 0.9518
2.5461 11.8488 -2.3453 0.9518
-1.7499 11.9980 -2.3464 0.9518
-4.8590 11.1129 -2.3471 0.9518
-5.8294 10.6373 -2.3474 0.9518
-6.7536 10.0771 -2.3476 0.9518
-7.6244 9.4368 -2.3478 0.9518
-9.1780 7.9366 -2.3481 0.9518
-9.8486 7.0886 -2.3482 0.9518
-10.4409 6.1842 -2.3483 0.9518
-12.1116 4.5105 -2.5011 0.9487
-12.8732 1.1504 -2.5011 0.9487
-11.8623 0.0000 -2.5008 0.9527
-11.8150 -1.0557 -2.5008 0.9527
-11.4397 -3.1337 -2.5006 0.9527
-10.7017 -5.1118 -2.5003 0.9527
-8.9690 -7.7558 -2.4997 0.9527
-4.7480 -10.8589 -2.4985 0.9527
-0.6595 -11.8281 -2.4975 0.9527
0.3958 -11.8386 -2.4972 0.9527
1.4478 -11.7551 -2.4969 0.9527
3.5084 -11.3099 -2.4964 0.9527
5.4571 -10.5068 -2.4960 0.9528
8.0372 -8.6897 -2.4954 0.9528
10.5624 -5.3374 -2.4949 0.9528
11.8077 0.7905 -2.4949 0.9528
10.7808 2.6965 -2.3428 0.9556
10.4985 3.6455 -2.3429 0.9556
10.1329 4.5657 -2.3431 0.9556
9.6870 5.4498 -2.3432 0.9556
7.9048 7.8173 -2.3438 0.9556
6.3948 9.0967 -2.3442 0.9556
5.5603 9.6307 -2.3444 0.9556
4.6815 10.0884 -2.3447 0.9556
2.8192 10.7609 -2.3452 0.9555
1.8505 10.9703 -2.3454 0.9555
-2.0953 10.9310 -2.3464 0.9555
-4.9102 9.9919 -2.3471 0.9555
-5.7805 9.5160 -2.3473 0.9555
-6.6050 8.9645 -2.3475 0.9555
-8.7404 6.9022 -2.3479 0.9555
-9.3205 6.0972 -2.3480 0.9555
-10.0659 5.3714 -2.4053 0.9544
-11.2899 3.6406 -2.5008 0.9527
-11.5693 2.6213 -2.5009 0.9527
-11.8506 0.5284 -2.5008 0.9527
-11.8504 -0.5284 -2.5008 0.9527
-11.7560 -1.5810 -2.5007 0.9527
-11.5682 -2.6210 -2.5006 0.9527
-10.9192 -4.6301 -2.5004 0.9527
-10.4630 -5.5832 -2.5002 0.9527
-7.8542 -8.8808 -2.4994 0.9527
-3.2577 -11.3931 -2.4981 0.9527
-1.1858 -11.7876 -2.4976 0.9527
-0.1320 -11.8451 -2.4973 0.9527
0.9228 -11.8086 -2.4971 0.9527
1.9699 -11.6783 -2.4968 0.9527
6.8080 -9.6844 -2.4957 0.9528
8.4161 -8.3228 -2.4953 0.9528
9.7573 -6.6980 -2.4951 0.9528
11.1792 -3.8818 -2.4948 0.9528
11.4802 -2.8713 -2.4948 0.9528
11.6901 -1.8381 -2.4948 0.9528
10.6502 3.1741 -2.3429 0.9556
8.8751 6.6931 -2.3435 0.9556
5.9835 9.3730 -2.3443 0.9556
5.1260 9.8693 -2.3446 0.9556
1.3600 11.0425 -2.3456 0.9555
0.3718 11.1209 -2.3458 0.9555
-1.6062 11.0129 -2.3463 0.9555
-3.5341 10.5558 -2.3468 0.9555
-4.4600 10.2003 -2.3470 0.9555
-5.3506 9.7637 -2.3472 0.9555
-7.7418 8.0050 -2.3477 0.9555
-9.5830 5.6761 -2.3481 0.9555
-10.7036 5.1127 -2.5007 0.9527
-11.8154 1.0558 -2.5008 0.9527
-10.9558 0.0000 -2.5006 0.9560
-10.9121 -0.9751 -2.5005 0.9560
-10.7816 -1.9424 -2.5005 0.9560
-10.2655 -3.8229 -2.5002 0.9561
-9.8840 -4.7212 -2.5001 0.9561
-7.6128 -7.8715 -2.4994 0.9561
-6.8813 -8.5171 -2.4992 0.9561
-3.4750 -10.3792 -2.4982 0.9561
-2.5371 -10.6463 -2.4980 0.9561
2.2982 -10.6949 -2.4968 0.9561
3.2407 -10.4470 -2.4965 0.9561
5.0408 -9.7053 -2.4961 0.9561
5.8842 -9.2173 -2.4959 0.9561
6.6807 -8.6564 -2.4958 0.9561
7.4242 -8.0269 -2.4956 0.9561
9.2797 -5.7794 -2.4952 0.9561
9.7570 -4.9304 -2.4951 0.9561
10.1568 -4.0423 -2.4951 0.9561
10.4761 -3.1222 -2.4950 0.9561
10.9073 0.7302 -2.4951 0.9561
9.9586 2.4908 -2.3430 0.9588
9.6979 3.3675 -2.3431 0.9588
9.3601 4.2175 -2.3432 0.9588
8.9481 5.0342 -2.3434 0.9588
7.3018 7.2209 -2.3439 0.9587
5.1360 8.8958 -2.3445 0.9587
4.3242 9.3185 -2.3447 0.9587
3.4780 9.6674 -2.3450 0.9587
2.6040 9.9396 -2.3452 0.9587
-0.1145 10.2774 -2.3459 0.9587
-1.9353 10.0962 -2.3463 0.9587
-3.6954 9.5948 -2.3468 0.9587
-4.5351 9.2287 -2.3470 0.9587
-5.3389 8.7890 -2.3471 0.9587
-6.8136 7.7043 -2.3475 0.9587
-8.0725 6.3748 -2.3477 0.9587
-8.6082 5.6313 -2.3478 0.9587
-9.6653 5.1576 -2.5005 0.9560
-10.0863 4.2770 -2.5006 0.9560
-10.9450 0.4881 -2.5006 0.9560
-10.9448 -0.4880 -2.5006 0.9560
-10.6842 -2.4207 -2.5004 0.9560
-10.4259 -3.3619 -2.5003 0.9560
-7.9562 -7.5249 -2.4995 0.9561
-7.2542 -8.2025 -2.4993 0.9561
-6.4948 -8.8148 -2.4991 0.9561
-5.6840 -9.3571 -2.4988 0.9561
-3.9341 -10.2146 -2.4984 0.9561
-3.0090 -10.5232 -2.4981 0.9561
-0.1219 -10.9410 -2.4974 0.9561
1.8196 -10.7872 -2.4969 0.9561
3.7027 -10.2918 -2.4964 0.9561
4.6036 -9.9206 -2.4962 0.9561
5.4679 -9.4707 -2.4960 0.9561
7.7742 -7.6880 -2.4955 0.9561
9.5278 -5.3602 -2.4952 0.9561
10.6048 -2.6524 -2.4950 0.9561
10.9289 0.2436 -2.4951 0.9561
10.0595 2.0447 -2.3430 0.9588
7.4331 4.6294 -1.9987 0.9647
7.6159 6.8882 -2.3438 0.9587
6.2750 8.1307 -2.3442 0.9587
5.5269 8.6578 -2.3444 0.9587
3.9050 9.5024 -2.3448 0.9587
2.1588 10.0462 -2.3453 0.9587
1.2562 10.1995 -2.3455 0.9587
0.3434 10.2718 -2.3458 0.9587
-0.5722 10.2626 -2.3460 0.9587
-2.3832 10.0005 -2.3465 0.9587
-3.2641 9.7496 -2.3467 0.9587
-4.1193 9.4211 -2.3469 0.9587
-4.9419 9.0178 -2.3471 0.9587
-5.7253 8.5428 -2.3472 0.9587
-6.4634 7.9999 -2.3474 0.9587
-7.1502 7.3933 -2.3475 0.9587
-7.7803 6.7279 -2.3477 0.9587
-8.3487 6.0090 -2.3478 0.9587
-8.8507 5.2423 -2.3479 0.9587
-10.2669 3.8235 -2.5006 0.9560
-10.5666 2.8945 -2.5006 0.9560
-10.7824 1.9426 -2.5006 0.9560
-10.9124 0.9752 -2.5006 0.9560
-10.0108 -1.8035 -2.5003 0.9590
-9.5317 -3.5496 -2.5001 0.9590
-8.2538 -5.9407 -2.4996 0.9590
-7.6917 -6.6513 -2.4995 0.9590
-4.8853 -8.9146 -2.4987 0.9590
-3.2268 -9.6378 -2.4982 0.9590
-2.3559 -9.8858 -2.4980 0.9590
-1.4665 -10.0553 -2.4978 0.9590
0.3395 -10.1542 -2.4973 0.9590
3.0093 -9.7011 -2.4966 0.9590
3.8605 -9.3940 -2.4964 0.9590
8.6176 -5.3670 -2.4954 0.9590
9.0608 -4.5786 -2.4953 0.9590
9.4321 -3.7539 -2.4953 0.9590
10.0885 -1.1285 -2.4952 0.9590
10.1490 -0.2261 -2.4952 0.9590
10.1291 0.6781 -2.4953 0.9590
9.2480 2.3131 -2.3432 0.9615
8.3095 4.6749 -2.3435 0.9615
7.8610 5.3963 -2.3437 0.9615
6.7806 6.7055 -2.3440 0.9615
6.1573 7.2829 -2.3442 0.9615
5.4851 7.8027 -2.3444 0.9615
4.0155 8.6531 -2.3448 0.9615
3.2297 8.9770 -2.3450 0.9615
2.4181 9.2297 -2.3452 0.9615
1.5871 9.4091 -2.3454 0.9615
-0.1063 9.5432 -2.3459 0.9615
-2.6245 9.1785 -2.3465 0.9614
-4.9573 8.1608 -2.3470 0.9614
-5.6644 7.6878 -2.3472 0.9614
-6.3265 7.1536 -2.3473 0.9614
-7.4954 5.9191 -2.3476 0.9614
-7.9928 5.2287 -2.3477 0.9614
-8.9743 4.7888 -2.5003 0.9590
-9.6816 3.1220 -2.5004 0.9590
-9.9211 2.2479 -2.5004 0.9590
-10.0818 1.3559 -2.5004 0.9590
-10.1624 0.4532 -2.5004 0.9590
-10.0814 -1.3558 -2.5003 0.9590
-9.6805 -3.1216 -2.5001 0.9590
-9.3639 -3.9706 -2.5000 0.9590
-8.9728 -4.7880 -2.4999 0.9590
-6.7358 -7.6163 -2.4992 0.9590
-6.0307 -8.1849 -2.4990 0.9590
-4.4832 -9.1229 -2.4986 0.9590
-3.6530 -9.4849 -2.4983 0.9590
-2.7941 -9.7715 -2.4981 0.9590
-1.0171 -10.1102 -2.4976 0.9590
-0.1132 -10.1597 -2.4974 0.9590
1.6897 -10.0170 -2.4970 0.9590
2.5743 -9.8260 -2.4967 0.9590
5.8398 -8.3073 -2.4960 0.9590
6.5557 -7.7541 -2.4958 0.9590
7.2194 -7.1394 -2.4957 0.9590
8.3701 -5.7457 -2.4955 0.9590
8.8479 -4.9778 -2.4954 0.9590
9.5899 -3.3299 -2.4953 0.9590
9.8481 -2.4631 -2.4952 0.9590
10.0282 -1.5769 -2.4952 0.9590
10.0889 1.1286 -2.4953 0.9590
8.8578 3.5253 -2.3433 0.9615
8.5093 4.3000 -2.3435 0.9615
7.4111 4.6157 -2.1461 0.9647
7.0723 6.3966 -2.3439 0.9615
6.4754 7.0011 -2.3441 0.9615
5.8270 7.5503 -2.3443 0.9615
5.1323 8.0396 -2.3445 0.9615
4.3968 8.4653 -2.3447 0.9615
2.8267 9.1124 -2.3451 0.9615
2.0046 9.3287 -2.3453 0.9615
1.1665 9.4709 -2.3455 0.9615
-0.5314 9.5294 -2.3460 0.9614
-2.2129 9.2859 -2.3464 0.9614
-3.8249 8.7479 -2.3468 0.9614
-4.5887 8.3733 -2.3469 0.9614
-6.6391 6.8648 -2.3474 0.9614
-7.2241 6.2470 -2.3475 0.9614
-7.7518 5.5794 -2.3476 0.9614
-8.6119 5.1009 -2.4602 0.9596
-9.1788 4.3844 -2.5003 0.9590
-9.5328 3.5501 -2.5004 0.9590
-10.0114 1.8037 -2.5004 0.9590
-10.1322 0.9054 -2.5004 0.9590
-9.4885 0.0000 -2.5002 0.9615
-9.4506 -0.8445 -2.5002 0.9615
-9.3377 -1.6822 -2.5001 0.9615
-9.1506 -2.5066 -2.5000 0.9615
-8.1621 -4.8344 -2.4997 0.9615
-7.1747 -6.2042 -2.4994 0.9615
-6.5936 -6.8177 -2.4992 0.9615
-5.9602 -7.3770 -2.4990 0.9615
-5.2795 -7.8776 -2.4988 0.9615
-4.5571 -8.3155 -2.4986 0.9615
-3.0100 -8.9903 -2.4982 0.9615
-0.5277 -9.4636 -2.4975 0.9616
1.1584 -9.4056 -2.4971 0.9616
3.6014 -8.7633 -2.4965 0.9616
4.3667 -8.4074 -2.4964 0.9616
5.0974 -7.9848 -2.4962 0.9616
5.7875 -7.4990 -2.4960 0.9616
7.5619 -5.7027 -2.4957 0.9616
8.7991 -3.5019 -2.4954 0.9616
9.0758 -2.7048 -2.4954 0.9616
9.4115 -1.0528 -2.4954 0.9616
14.0376 2.2073 -3.7444 0.9429
8.4014 2.9173 -2.3434 0.9639
7.7518 4.3611 -2.3437 0.9639
6.8565 5.6671 -2.3439 0.9639
5.7439 6.7940 -2.3443 0.9639
5.1168 7.2788 -2.3444 0.9639
3.7458 8.0720 -2.3448 0.9639
3.0127 8.3741 -2.3450 0.9639
2.2556 8.6097 -2.3452 0.9639
-0.8912 8.8586 -2.3460 0.9638
-1.6762 8.7449 -2.3462 0.9638
-2.4481 8.5616 -2.3464 0.9638
-3.2007 8.3104 -2.3466 0.9638
-4.6241 7.6123 -2.3469 0.9638
-5.2836 7.1710 -2.3471 0.9638
-5.9012 6.6726 -2.3472 0.9638
-6.9915 5.5212 -2.3474 0.9638
-7.5265 4.9236 -2.3699 0.9635
-8.7355 3.7042 -2.5002 0.9615
-9.0306 2.9120 -2.5002 0.9615
-9.4039 1.2647 -2.5002 0.9615
-9.4791 0.4227 -2.5002 0.9615
-9.4790 -0.4227 -2.5002 0.9615
-9.4035 -1.2646 -2.5001 0.9615
-9.0297 -2.9117 -2.5000 0.9615
-6.8910 -6.5175 -2.4993 0.9615
-5.6254 -7.6349 -2.4989 0.9615
-3.4076 -8.8476 -2.4983 0.9615
-2.6064 -9.1150 -2.4981 0.9615
-1.7846 -9.3100 -2.4979 0.9615
-0.9488 -9.4311 -2.4976 0.9615
-0.1056 -9.4773 -2.4974 0.9616
0.7383 -9.4483 -2.4972 0.9616
1.5762 -9.3443 -2.4970 0.9616
2.4014 -9.1662 -2.4968 0.9616
3.2075 -8.9154 -2.4966 0.9616
3.9880 -8.5939 -2.4964 0.9616
4.7368 -8.2043 -2.4963 0.9616
6.1156 -7.2335 -2.4960 0.9616
6.7348 -6.6602 -2.4958 0.9616
7.3005 -6.0340 -2.4957 0.9616
8.6345 -3.8905 -2.4955 0.9616
9.3552 -1.4710 -2.4954 0.9616
9.4491 -0.6325 -2.4954 0.9616
9.4680 0.2110 -2.4954 0.9616
8.5228 2.5401 -2.3434 0.9639
7.9381 4.0113 -2.3436 0.9639
7.3890 4.6019 -2.2937 0.9646
7.1020 5.3559 -2.3439 0.9639
6.5975 5.9671 -2.3440 0.9639
5.4358 7.0433 -2.3444 0.9639
2.6368 8.5003 -2.3451 0.9639
0.2975 8.8972 -2.3457 0.9638
-0.4957 8.8892 -2.3459 0.9638
-2.0642 8.6619 -2.3463 0.9638
-2.8272 8.4444 -2.3465 0.9638
-3.5678 8.1599 -2.3467 0.9638
-4.2802 7.8105 -2.3468 0.9638
-4.9588 7.3990 -2.3470 0.9638
-5.5980 6.9287 -2.3471 0.9638
-6.7384 5.8270 -2.3474 0.9638
-7.2306 5.2043 -2.3475 0.9638
-8.8919 3.3114 -2.5002 0.9615
-9.3383 1.6824 -2.5002 0.9615
-9.4509 0.8446 -2.5002 0.9615
-5.0319 0.0000 -1.4157 0.9793
-3.7284 -0.6717 -1.0659 0.9844
-3.7904 -1.0383 -1.1057 0.9838
-6.7191 -5.8103 -2.4993 0.9638
-6.1749 -6.3848 -2.4991 0.9638
-4.9443 -7.3774 -2.4987 0.9638
-3.5574 -8.1360 -2.4984 0.9638
-2.0582 -8.6364 -2.4980 0.9638
0.2966 -8.8712 -2.4974 0.9638
1.0849 -8.8089 -2.4972 0.9638
3.3729 -8.2074 -2.4966 0.9638
5.4204 -7.0234 -2.4961 0.9638
6.5792 -5.9504 -2.4959 0.9638
7.0824 -5.3411 -2.4958 0.9638
7.9167 -4.0005 -2.4956 0.9638
8.5003 -2.5333 -2.4956 0.9638
8.6920 -1.7667 -2.4955 0.9638
8.8147 -0.9861 -2.4956 0.9638
8.8501 0.5925 -2.4956 0.9638
8.7625 1.3779 -2.4957 0.9638
7.2601 4.0845 -2.3438 0.9660
6.8682 4.7148 -2.3439 0.9660
6.4217 5.3077 -2.3440 0.9660
5.9241 5.8585 -2.3442 0.9660
5.3795 6.3629 -2.3443 0.9660
4.7922 6.8171 -2.3445 0.9660
2.1125 8.0634 -2.3452 0.9660
1.3865 8.2200 -2.3454 0.9660
-0.8346 8.2963 -2.3460 0.9659
-2.9975 7.7828 -2.3465 0.9659
-6.0610 5.7324 -2.3472 0.9659
-6.5474 5.1705 -2.3473 0.9659
-7.4355 4.8642 -2.4999 0.9638
-8.1806 3.4689 -2.5000 0.9638
-8.4570 2.7271 -2.5001 0.9638
-8.6662 1.9635 -2.5001 0.9637
-8.8066 1.1844 -2.5001 0.9637
-8.8770 0.3959 -2.5001 0.9638
-8.1796 -3.4684 -2.4997 0.9638
-7.4343 -4.8632 -2.4995 0.9638
-6.9715 -5.5053 -2.4993 0.9638
-5.2683 -7.1501 -2.4988 0.9638
-4.6106 -7.5901 -2.4987 0.9638
-3.1913 -8.2860 -2.4983 0.9638
-2.4409 -8.5365 -2.4981 0.9638
-1.6713 -8.7192 -2.4979 0.9638
-0.8886 -8.8326 -2.4977 0.9638
-0.0989 -8.8760 -2.4975 0.9638
1.4762 -8.7514 -2.4971 0.9638
3.7350 -8.0487 -2.4965 0.9638
4.4363 -7.6839 -2.4964 0.9638
6.3077 -6.2378 -2.4960 0.9638
7.3132 -5.0202 -2.4958 0.9638
8.6047 -2.1522 -2.4956 0.9638
8.7620 -1.3778 -2.4955 0.9638
8.8677 0.1976 -2.4956 0.9638
13.0426 2.6510 -3.7446 0.9462
7.9824 2.3790 -2.3435 0.9660
7.4347 3.7570 -2.3437 0.9660
1.0190 8.2740 -2.3455 0.9660
-0.4642 8.3249 -2.3459 0.9659
-1.2034 8.2512 -2.3461 0.9659
-2.6477 7.9083 -2.3464 0.9659
-3.3413 7.6417 -2.3466 0.9659
-4.0084 7.3145 -2.3467 0.9659
-4.6438 6.9292 -2.3469 0.9659
-5.2424 6.4887 -2.3470 0.9659
-5.7995 5.9966 -2.3471 0.9659
-6.7714 4.8737 -2.3473 0.9659
-7.6449 4.5282 -2.4999 0.9638
-8.0178 3.8298 -2.5000 0.9638
-8.7451 1.5755 -2.5001 0.9637
-3.9677 0.0000 -1.1878 0.9836
-3.5918 -0.3210 -1.0796 0.9851
-7.8245 -2.9138 -2.4997 0.9657
-7.1833 -4.2546 -2.4994 0.9657
-6.3142 -5.4603 -2.4992 0.9657
-4.6466 -6.9331 -2.4987 0.9658
-2.6492 -7.9127 -2.4981 0.9658
-1.9342 -8.1164 -2.4980 0.9658
-1.2041 -8.2557 -2.4978 0.9658
-0.4644 -8.3295 -2.4976 0.9658
1.0196 -8.2787 -2.4972 0.9658
1.7523 -8.1545 -2.4970 0.9658
2.4710 -7.9655 -2.4968 0.9658
5.6613 -6.1209 -2.4961 0.9658
6.1834 -5.5925 -2.4960 0.9658
6.6563 -5.0198 -2.4959 0.9658
7.0765 -4.4072 -2.4958 0.9658
7.4405 -3.7598 -2.4958 0.9658
7.7454 -3.0826 -2.4957 0.9658
7.9890 -2.3809 -2.4957 0.9658
8.1691 -1.6604 -2.4957 0.9658
8.2845 -0.9267 -2.4957 0.9658
8.3342 -0.1857 -2.4957 0.9658
7.3952 2.5679 -2.3437 0.9678
5.5676 5.5060 -2.3443 0.9678
4.5038 6.4068 -2.3446 0.9678
3.9160 6.7827 -2.3447 0.9678
-0.0873 7.8350 -2.3458 0.9678
-1.4753 7.6965 -2.3461 0.9678
-2.8169 7.3140 -2.3464 0.9678
-3.4569 7.0347 -2.3466 0.9678
-4.0696 6.6995 -2.3467 0.9678
-5.6958 5.3871 -2.3471 0.9678
-6.1529 4.8589 -2.3472 0.9678
-6.9875 4.5711 -2.4998 0.9657
-7.6877 3.2599 -2.4999 0.9657
-7.9474 2.5627 -2.4999 0.9657
-8.2759 1.1130 -2.5000 0.9657
-3.6646 -0.1634 -1.0982 0.9848
-3.5144 -0.4726 -1.0616 0.9853
-3.4642 -0.7849 -1.0634 0.9853
-7.9467 -2.5624 -2.4997 0.9657
-7.6868 -3.2595 -2.4996 0.9657
-6.9864 -4.5703 -2.4994 0.9657
-4.9510 -6.7195 -2.4988 0.9658
-3.6806 -7.4898 -2.4984 0.9658
-2.9991 -7.7871 -2.4982 0.9658
-2.2940 -8.0225 -2.4980 0.9658
-1.5707 -8.1942 -2.4979 0.9658
-0.8351 -8.3009 -2.4977 0.9658
0.6500 -8.3159 -2.4973 0.9658
2.1137 -8.0680 -2.4969 0.9658
2.8233 -7.8473 -2.4968 0.9658
4.1694 -7.2215 -2.4965 0.9658
6.4262 -5.3114 -2.4960 0.9658
6.8732 -4.7181 -2.4959 0.9658
7.6005 -3.4246 -2.4958 0.9658
7.8750 -2.7345 -2.4957 0.9658
8.3342 0.1858 -2.4957 0.9658
8.2848 0.9268 -2.4958 0.9658
12.2579 2.4915 -3.7448 0.9491
11.9879 3.5728 -3.7449 0.9491
7.2736 2.8949 -2.3437 0.9678
6.2513 4.7144 -2.3440 0.9678
4.7846 6.1996 -2.3445 0.9678
3.6101 6.9506 -2.3448 0.9678
2.9773 7.2449 -2.3450 0.9678
2.3208 7.4817 -2.3452 0.9678
0.2618 7.8308 -2.3457 0.9678
-1.1309 7.7543 -2.3460 0.9678
-2.4882 7.4320 -2.3464 0.9678
-3.1400 7.1815 -2.3465 0.9678
-3.7670 6.8739 -2.3467 0.9678
-4.3641 6.5117 -2.3468 0.9678
-5.4501 5.6354 -2.3470 0.9678
-5.9303 5.1281 -2.3471 0.9678
-6.5923 4.7448 -2.4316 0.9667
-8.2181 1.4806 -2.5000 0.9657
-8.3173 0.7432 -2.5000 0.9657
-3.7562 -0.0000 -1.1929 0.9844
-3.3867 -0.3027 -1.0798 0.9858
-3.2540 -0.8914 -1.0715 0.9859
-7.3757 -2.7467 -2.4996 0.9675
-7.1017 -3.3922 -2.4995 0.9675
-6.7713 -4.0106 -2.4994 0.9675
-6.3871 -4.5971 -2.4992 0.9675
-4.9448 -6.1202 -2.4988 0.9675
-3.7808 -6.8991 -2.4985 0.9675
-2.4973 -7.4590 -2.4981 0.9675
-1.8234 -7.6512 -2.4979 0.9675
0.2628 -7.8594 -2.4974 0.9675
2.9883 -7.2716 -2.4967 0.9675
3.6234 -6.9763 -2.4966 0.9675
4.2298 -6.6258 -2.4965 0.9675
4.8025 -6.2227 -2.4963 0.9675
6.6711 -4.1548 -2.4960 0.9676
7.3018 -2.9060 -2.4958 0.9676
7.7012 -1.5653 -2.4958 0.9676
7.8413 0.5249 -2.4959 0.9676
7.7637 1.2208 -2.4959 0.9676
11.4399 2.8612 -3.7451 0.9517
5.2487 5.1905 -2.3443 0.9695
4.7661 5.6374 -2.3445 0.9695
2.4997 6.9482 -2.3451 0.9695
1.2284 7.2824 -2.3454 0.9695
-0.7394 7.3497 -2.3459 0.9695
-2.0311 7.1031 -2.3462 0.9695
-2.6554 6.8946 -2.3464 0.9695
-3.8362 6.3152 -2.3467 0.9695
-4.3833 5.9491 -2.3468 0.9695
-4.8956 5.5356 -2.3469 0.9695
-5.8564 4.6248 -2.3699 0.9692
-6.5867 4.3089 -2.4997 0.9675
-6.9442 3.7056 -2.4997 0.9675
-7.4915 2.4157 -2.4998 0.9675
-7.6768 1.7394 -2.4998 0.9675
-4.3818 0.1954 -1.3930 0.9818
-3.2591 -0.7384 -1.0613 0.9861
-6.9434 -3.7051 -2.4994 0.9675
-6.5857 -4.3081 -2.4993 0.9675
-6.1758 -4.8770 -2.4992 0.9675
-4.6671 -6.3342 -2.4987 0.9675
-2.1625 -7.5626 -2.4980 0.9675
-0.7872 -7.8251 -2.4977 0.9675
-0.0876 -7.8635 -2.4975 0.9675
1.3078 -7.7534 -2.4972 0.9675
2.6615 -7.3977 -2.4968 0.9675
4.5206 -6.4306 -2.4964 0.9675
5.0748 -6.0024 -2.4963 0.9676
5.5886 -5.5267 -2.4962 0.9676
7.4240 -2.5779 -2.4958 0.9676
7.6239 -1.9069 -2.4958 0.9676
7.7633 -1.2207 -2.4958 0.9676
11.3013 3.3681 -3.7451 0.9517
6.8570 2.7291 -2.3438 0.9695
6.5872 3.3287 -2.3439 0.9695
6.2650 3.9019 -2.3440 0.9695
5.4745 4.9514 -2.3443 0.9695
5.0124 5.4194 -2.3444 0.9695
2.1878 7.0529 -2.3452 0.9695
-2.3455 7.0058 -2.3463 0.9695
-3.5510 6.4797 -2.3466 0.9695
-4.1138 6.1383 -2.3467 0.9695
-6.3881 4.5979 -2.4996 0.9675
-7.1025 3.3926 -2.4998 0.9675
-7.3764 2.7470 -2.4998 0.9675
-7.5917 2.0796 -2.4998 0.9675
-7.7467 1.3956 -2.4998 0.9675
-3.6184 0.0000 -1.2157 0.9848
-3.2019 -0.2861 -1.0801 0.9865
-3.1483 -0.5672 -1.0748 0.9866
-3.1349 -0.8587 -1.0921 0.9864
-6.0372 -4.3453 -2.4992 0.9691
-4.6739 -5.7849 -2.4987 0.9691
-4.1402 -6.1776 -2.4986 0.9691
-2.3605 -7.0505 -2.4981 0.9691
-1.0729 -7.3564 -2.4978 0.9691
-0.4139 -7.4222 -2.4976 0.9691
0.2484 -7.4291 -2.4974 0.9691
0.9086 -7.3770 -2.4973 0.9691
1.5615 -7.2664 -2.4971 0.9691
3.9983 -6.2631 -2.4965 0.9691
4.5396 -5.8821 -2.4964 0.9691
6.6305 -3.3505 -2.4960 0.9691
6.9023 -2.7470 -2.4960 0.9691
7.4123 0.4962 -2.4960 0.9691
7.3389 1.1540 -2.4960 0.9691
10.5306 3.6566 -3.7453 0.9541
6.3605 2.8659 -2.3439 0.9710
5.3781 4.4451 -2.3443 0.9710
4.9614 4.9064 -2.3444 0.9710
3.4895 6.0440 -2.3448 0.9710
1.1611 6.8836 -2.3454 0.9710
0.5439 6.9601 -2.3456 0.9710
-1.9198 6.7140 -2.3462 0.9710
-3.0802 6.2680 -2.3465 0.9710
-4.1431 5.6231 -2.3467 0.9710
-5.8190 4.5953 -2.4912 0.9692
-6.2258 4.0728 -2.4996 0.9691
-6.5637 3.5025 -2.4996 0.9691
-7.2561 1.6440 -2.4997 0.9691
-7.3737 0.9917 -2.4997 0.9691
-4.1559 0.1853 -1.3977 0.9826
-3.1639 -0.4255 -1.0726 0.9866
-3.1417 -1.0131 -1.1091 0.9862
-6.8489 -2.9041 -2.4994 0.9691
-6.5629 -3.5021 -2.4993 0.9691
-5.4037 -5.1108 -2.4990 0.9691
-3.8608 -6.3557 -2.4985 0.9691
-0.7441 -7.3966 -2.4977 0.9691
0.5791 -7.4104 -2.4974 0.9691
2.5158 -6.9928 -2.4969 0.9691
3.1280 -6.7407 -2.4967 0.9691
4.2732 -6.0787 -2.4965 0.9691
4.7971 -5.6739 -2.4964 0.9691
5.2828 -5.2242 -2.4963 0.9691
6.4747 -3.6426 -2.4960 0.9691
6.7731 -3.0518 -2.4960 0.9691
7.0178 -2.4368 -2.4959 0.9691
7.3386 -1.1539 -2.4959 0.9691
7.4122 -0.4961 -2.4959 0.9691
7.4270 0.1655 -2.4960 0.9691
7.3829 0.8259 -2.4960 0.9691
10.6829 3.1838 -3.7453 0.9541
10.3574 4.1222 -3.7454 0.9540
5.1749 4.6804 -2.3443 0.9710
4.7380 5.1227 -2.3444 0.9710
4.2635 5.5244 -2.3446 0.9710
3.2169 6.1936 -2.3449 0.9710
2.6530 6.4558 -2.3450 0.9710
2.0680 6.6668 -2.3452 0.9710
0.8534 6.9287 -2.3455 0.9710
-0.3887 6.9712 -2.3458 0.9710
-1.6188 6.7927 -2.3461 0.9710
-2.2171 6.6220 -2.3463 0.9710
-2.7978 6.3988 -2.3464 0.9710
-3.3564 6.1247 -2.3465 0.9710
-3.8884 5.8020 -2.3467 0.9710
-4.3896 5.4331 -2.3468 0.9710
-5.2838 4.5691 -2.3470 0.9710
-6.4011 3.7914 -2.4996 0.9691
-6.7133 3.2067 -2.4997 0.9691
-7.4105 0.6622 -2.4997 0.9691
-3.0442 -0.5484 -1.0968 0.9870
-3.0229 -0.8281 -1.1114 0.9868
-3.0314 -1.1289 -1.1470 0.9864
-5.7203 -4.1171 -2.4991 0.9705
-4.8991 -5.0657 -2.4988 0.9705
-4.4286 -5.4813 -2.4987 0.9705
-3.9229 -5.8534 -2.4986 0.9705
-3.3862 -6.1789 -2.4984 0.9705
-2.2367 -6.6806 -2.4981 0.9705
-1.6331 -6.8527 -2.4979 0.9705
0.2354 -7.0393 -2.4975 0.9706
2.6766 -6.5130 -2.4969 0.9706
3.2455 -6.2487 -2.4967 0.9706
5.6207 -4.2387 -2.4962 0.9706
5.9755 -3.7215 -2.4961 0.9706
6.5404 -2.6030 -2.4961 0.9706
6.9541 1.0935 -2.4961 0.9706
6.8293 1.7082 -2.4962 0.9706
9.9784 3.4649 -3.7454 0.9562
5.7616 3.2415 -2.3441 0.9723
5.4505 3.7416 -2.3442 0.9723
4.2690 5.0494 -2.3446 0.9723
3.3064 5.7269 -2.3448 0.9723
2.7838 5.9988 -2.3450 0.9723
-0.0737 6.6150 -2.3457 0.9723
-2.3782 6.1749 -2.3463 0.9723
-3.4357 5.6560 -2.3465 0.9723
-3.9256 5.3280 -2.3466 0.9723
-4.8085 4.5479 -2.3468 0.9723
-5.5319 4.3685 -2.4994 0.9705
-5.8989 3.8589 -2.4995 0.9705
-6.4899 2.7520 -2.4996 0.9705
-6.7092 2.1634 -2.4996 0.9705
-6.8751 1.5578 -2.4996 0.9705
-6.9865 0.9396 -2.4996 0.9705
-3.9464 0.1760 -1.4007 0.9834
-3.1623 -0.1410 -1.1224 0.9867
-3.0241 -0.6852 -1.0995 0.9869
-5.5310 -4.3678 -2.4990 0.9705
-5.1201 -4.8425 -2.4989 0.9705
-4.1799 -5.6730 -2.4986 0.9705
-3.6582 -6.0222 -2.4985 0.9705
-3.1074 -6.3234 -2.4983 0.9705
-1.9368 -6.7733 -2.4980 0.9705
-0.7051 -7.0085 -2.4977 0.9705
-0.0785 -7.0430 -2.4975 0.9705
1.7847 -6.8123 -2.4971 0.9706
2.3839 -6.6260 -2.4969 0.9706
2.9640 -6.3872 -2.4968 0.9706
3.5205 -6.0977 -2.4967 0.9706
4.0491 -5.7599 -2.4965 0.9706
4.5455 -5.3764 -2.4964 0.9706
5.4263 -4.4850 -2.4963 0.9706
6.1352 -3.4516 -2.4961 0.9706
6.9538 -1.0934 -2.4960 0.9706
7.0236 -0.4701 -2.4960 0.9706
7.0376 0.1569 -2.4960 0.9706
6.8985 1.4022 -2.4961 0.9706
5.9002 2.9815 -2.3441 0.9723
4.9035 4.4349 -2.3444 0.9723
4.4895 4.8540 -2.3445 0.9723
4.0399 5.2347 -2.3446 0.9723
2.5138 6.1171 -2.3450 0.9723
0.8086 6.5652 -2.3455 0.9723
-0.3683 6.6054 -2.3458 0.9723
-3.1802 5.8032 -2.3465 0.9723
-4.1592 5.1479 -2.3467 0.9723
-4.6010 4.7575 -2.3468 0.9723
-5.1973 4.4943 -2.4364 0.9713
-6.0650 3.5924 -2.4995 0.9705
-6.3608 3.0383 -2.4996 0.9705
-6.6061 2.4602 -2.4996 0.9705
-6.7989 1.8624 -2.4996 0.9705
-2.9938 -0.2675 -1.1224 0.9872
-5.7584 -3.4107 -2.4991 0.9718
-5.4317 -3.9095 -2.4990 0.9718
-5.0620 -4.3772 -2.4989 0.9718
-3.2154 -5.8674 -2.4984 0.9718
-2.6803 -6.1299 -2.4982 0.9718
-1.5507 -6.5072 -2.4979 0.9718
-0.9654 -6.6190 -2.4978 0.9718
-0.3724 -6.6783 -2.4976 0.9718
2.5417 -6.1848 -2.4969 0.9719
4.0848 -5.2928 -2.4966 0.9719
4.5395 -4.9080 -2.4965 0.9719
4.9582 -4.4844 -2.4964 0.9719
5.3375 -4.0252 -2.4963 0.9719
5.9663 -3.0149 -2.4962 0.9719
6.2109 -2.4719 -2.4961 0.9719
6.4062 -1.9092 -2.4961 0.9719
6.6432 -0.7431 -2.4961 0.9719
6.6830 -0.1489 -2.4961 0.9719
6.6698 0.4465 -2.4962 0.9719
6.4852 1.6221 -2.4963 0.9719
9.4757 3.2903 -3.7456 0.9581
9.1455 4.1208 -3.7457 0.9581
5.4713 3.0781 -2.3442 0.9736
4.4643 4.4148 -2.3445 0.9735
4.0538 4.7949 -2.3446 0.9735
3.1398 5.4383 -2.3449 0.9735
2.6435 5.6965 -2.3450 0.9735
2.1261 5.9095 -2.3451 0.9735
1.5917 6.0757 -2.3453 0.9735
-0.0700 6.2815 -2.3457 0.9735
-1.1827 6.1703 -2.3460 0.9735
-3.7276 5.0592 -2.3466 0.9735
-4.6583 4.4058 -2.3942 0.9730
-5.2528 4.1482 -2.4993 0.9718
-5.6013 3.6642 -2.4994 0.9718
-5.9054 3.1512 -2.4994 0.9718
-6.1625 2.6132 -2.4995 0.9718
-6.5283 1.4792 -2.4995 0.9718
-3.7910 0.1690 -1.4170 0.9839
-2.9640 -0.3986 -1.1167 0.9873
-2.9258 -0.6629 -1.1202 0.9873
-5.9047 -3.1509 -2.4992 0.9718
-4.4331 -5.0125 -2.4987 0.9718
-3.9691 -5.3869 -2.4986 0.9718
-3.4737 -5.7185 -2.4984 0.9718
-2.9508 -6.0046 -2.4983 0.9718
-1.8392 -6.4319 -2.4980 0.9718
-1.2593 -6.5696 -2.4979 0.9718
0.5210 -6.6677 -2.4974 0.9718
1.1124 -6.5945 -2.4973 0.9718
1.6948 -6.4689 -2.4971 0.9719
2.2637 -6.2921 -2.4970 0.9719
2.8146 -6.0653 -2.4968 0.9719
3.3431 -5.7904 -2.4967 0.9719
3.8451 -5.4696 -2.4966 0.9719
4.3165 -5.1055 -2.4965 0.9719
4.7536 -4.7009 -2.4964 0.9719
5.1530 -4.2590 -2.4963 0.9719
5.5114 -3.7833 -2.4963 0.9719
5.8261 -3.2777 -2.4962 0.9719
6.0947 -2.7461 -2.4962 0.9719
6.4849 -1.6219 -2.4961 0.9719
6.6830 0.1490 -2.4961 0.9719
6.6434 0.7432 -2.4962 0.9719
6.5510 1.3316 -2.4962 0.9719
9.3198 3.7092 -3.7456 0.9581
5.6029 2.8313 -2.3441 0.9736
5.3288 3.3188 -2.3442 0.9736
5.0125 3.7801 -2.3443 0.9735
4.6564 4.2115 -2.3444 0.9735
2.8945 5.5729 -2.3449 0.9735
2.3871 5.8088 -2.3451 0.9735
-0.3497 6.2723 -2.3458 0.9735
-0.9067 6.2166 -2.3459 0.9735
-1.4565 6.1116 -2.3461 0.9735
-1.9948 5.9580 -2.3462 0.9735
-3.0198 5.5106 -2.3464 0.9735
-4.3782 4.5270 -2.3517 0.9735
-5.0628 4.3780 -2.4993 0.9718
-6.0399 2.8851 -2.4995 0.9718
-6.5877 1.1869 -2.4995 0.9718
-4.2614 0.3808 -1.5976 0.9819
-2.9005 -0.2592 -1.1429 0.9876
-2.8518 -0.5138 -1.1373 0.9876
-2.8313 -0.7756 -1.1521 0.9875
-5.7459 -2.7445 -2.4992 0.9730
-5.4786 -3.2450 -2.4991 0.9730
-4.8160 -4.1646 -2.4989 0.9730
-4.0010 -4.9520 -2.4986 0.9730
-3.5441 -5.2882 -2.4985 0.9730
-3.0592 -5.5824 -2.4983 0.9730
-2.5501 -5.8322 -2.4982 0.9730
-1.4754 -6.1912 -2.4979 0.9730
-0.9185 -6.2976 -2.4978 0.9730
-0.3543 -6.3539 -2.4976 0.9730
0.2126 -6.3599 -2.4975 0.9730
0.7778 -6.3154 -2.4973 0.9730
1.3368 -6.2208 -2.4972 0.9730
1.8850 -6.0768 -2.4971 0.9730
2.9323 -5.6457 -2.4968 0.9730
3.4230 -5.3621 -2.4967 0.9730
3.8866 -5.0359 -2.4966 0.9730
4.3192 -4.6698 -2.4965 0.9730
5.0784 -3.8298 -2.4964 0.9730
5.3990 -3.3625 -2.4963 0.9730
5.6768 -2.8686 -2.4963 0.9730
6.0953 -1.8165 -2.4962 0.9730
6.3587 -0.1417 -2.4962 0.9730
6.3461 0.4248 -2.4962 0.9730
6.2832 0.9880 -2.4963 0.9730
6.1705 1.5434 -2.4963 0.9730
8.7016 3.9208 -3.7458 0.9598
4.9246 3.3805 -2.3443 0.9747
4.6044 3.8056 -2.3444 0.9747
3.8570 4.5621 -2.3446 0.9747
3.4358 4.8876 -2.3448 0.9747
2.9873 5.1743 -2.3449 0.9747
2.5151 5.4199 -2.3450 0.9747
2.0228 5.6226 -2.3452 0.9747
1.5145 5.7806 -2.3453 0.9746
0.4656 5.9583 -2.3456 0.9746
-0.0666 5.9764 -2.3457 0.9746
-1.1253 5.8706 -2.3460 0.9746
-1.6434 5.7474 -2.3461 0.9746
-3.1039 5.1098 -2.3464 0.9746
-3.5465 4.8134 -2.3465 0.9746
-3.9610 4.4788 -2.3466 0.9746
-4.9976 3.9466 -2.4993 0.9730
-5.3292 3.4862 -2.4993 0.9730
-5.6184 2.9981 -2.4994 0.9730
-3.6456 0.1626 -1.4322 0.9844
-2.8734 -0.3864 -1.1379 0.9876
-5.6178 -2.9978 -2.4991 0.9730
-4.9969 -3.9460 -2.4989 0.9730
-4.6257 -4.3749 -2.4988 0.9730
-3.3050 -5.4407 -2.4984 0.9730
-2.8074 -5.7129 -2.4983 0.9730
-2.2877 -5.9398 -2.4981 0.9730
-1.7498 -6.1195 -2.4980 0.9730
1.0583 -6.2743 -2.4973 0.9730
2.1538 -5.9866 -2.4970 0.9730
2.6780 -5.7708 -2.4969 0.9730
3.6584 -5.2042 -2.4967 0.9730
4.5228 -4.4727 -2.4965 0.9730
5.2439 -3.5997 -2.4963 0.9730
5.5434 -3.1186 -2.4963 0.9730
6.0083 -2.0863 -2.4962 0.9730
6.3460 -0.4248 -2.4962 0.9730
6.3209 0.7071 -2.4963 0.9730
6.2330 1.2669 -2.4963 0.9730
4.7692 3.5967 -2.3444 0.9747
3.6501 4.7295 -2.3447 0.9747
2.7540 5.3023 -2.3450 0.9747
2.2712 5.5267 -2.3451 0.9747
1.7704 5.7073 -2.3452 0.9746
0.7305 5.9314 -2.3455 0.9746
-0.3327 5.9677 -2.3458 0.9746
-1.3857 5.8147 -2.3460 0.9746
-1.8979 5.6686 -2.3461 0.9746
-2.3950 5.4775 -2.3463 0.9746
-2.8731 5.2429 -2.3464 0.9746
-3.3285 4.9665 -2.3465 0.9746
-3.7575 4.6508 -2.3466 0.9746
-4.8168 4.1653 -2.4992 0.9730
-5.1685 3.7201 -2.4993 0.9730
-5.4792 3.2454 -2.4993 0.9730
-5.7464 2.7449 -2.4994 0.9730
-6.2676 1.1292 -2.4995 0.9730
-4.1298 0.3690 -1.6273 0.9823
-2.7831 -0.5014 -1.1645 0.9878
-2.7695 -0.7587 -1.1825 0.9877
-2.7842 -1.0369 -1.2234 0.9872
-5.4763 -2.6158 -2.4991 0.9741
-5.2216 -3.0927 -2.4990 0.9741
-4.9254 -3.5451 -2.4989 0.9741
-4.2184 -4.3618 -2.4987 0.9741
-3.8133 -4.7197 -2.4986 0.9741
-3.3779 -5.0401 -2.4985 0.9741
-2.9157 -5.3205 -2.4983 0.9741
-2.4305 -5.5587 -2.4982 0.9741
-1.9260 -5.7526 -2.4981 0.9741
-1.4062 -5.9009 -2.4979 0.9741
-0.8754 -6.0023 -2.4978 0.9741
0.2027 -6.0617 -2.4975 0.9741
0.7414 -6.0193 -2.4974 0.9741
1.2741 -5.9291 -2.4972 0.9741
1.7967 -5.7919 -2.4971 0.9741
2.7949 -5.3811 -2.4969 0.9741
4.4964 -4.0667 -2.4965 0.9741
5.4107 -2.7341 -2.4963 0.9741
5.6325 -2.2417 -2.4963 0.9741
5.8096 -1.7314 -2.4963 0.9741
6.0246 -0.6739 -2.4963 0.9741
5.9887 0.9417 -2.4963 0.9741
5.8813 1.4710 -2.4964 0.9741
8.2938 3.7370 -3.7459 0.9614
3.6762 4.3483 -2.3447 0.9757
2.8473 4.9317 -2.3449 0.9757
1.9280 5.3589 -2.3452 0.9757
1.4434 5.5096 -2.3453 0.9757
0.9474 5.6165 -2.3454 0.9757
0.4437 5.6788 -2.3456 0.9757
-2.0478 5.3169 -2.3462 0.9757
-2.9583 4.8700 -2.3464 0.9757
-4.4093 4.1703 -2.4991 0.9741
-4.7631 3.7614 -2.4992 0.9741
-5.0791 3.3226 -2.4992 0.9741
-5.3548 2.8575 -2.4993 0.9741
-5.5879 2.3695 -2.4993 0.9741
-5.9196 1.3412 -2.4994 0.9741
-6.0155 0.8090 -2.4994 0.9741
-2.9337 -0.1308 -1.2093 0.9874
-2.7947 -0.3759 -1.1611 0.9879
-3.1499 -5.1855 -2.4984 0.9741
-2.1804 -5.6612 -2.4981 0.9741
-1.6678 -5.8325 -2.4980 0.9741
-1.1420 -5.9575 -2.4978 0.9741
-0.6071 -6.0351 -2.4977 0.9741
-0.0676 -6.0649 -2.4976 0.9741
0.4725 -6.0465 -2.4974 0.9741
1.5369 -5.8663 -2.4972 0.9741
3.9145 -4.6300 -2.4966 0.9741
4.3109 -4.2631 -2.4965 0.9741
4.6730 -3.8623 -2.4965 0.9741
4.9982 -3.4310 -2.4964 0.9741
5.2836 -2.9725 -2.4964 0.9741
5.7268 -1.9885 -2.4963 0.9741
5.8810 -1.4709 -2.4963 0.9741
5.9885 -0.9416 -2.4963 0.9741
6.0486 -0.4049 -2.4963 0.9741
6.0607 0.1351 -2.4963 0.9741
5.9409 1.2076 -2.4964 0.9741
8.4519 3.3637 -3.7458 0.9614
4.2227 3.8192 -2.3445 0.9757
3.8662 4.1801 -2.3446 0.9757
2.6248 5.0538 -2.3450 0.9757
0.6963 5.6532 -2.3455 0.9757
0.1903 5.6931 -2.3456 0.9757
-0.3171 5.6878 -2.3457 0.9757
-0.8222 5.6373 -2.3459 0.9757
-1.3207 5.5420 -2.3460 0.9757
-2.2826 5.2205 -2.3462 0.9757
-2.7383 4.9969 -2.3463 0.9757
-3.1724 4.7335 -2.3464 0.9757
-4.9260 3.5455 -2.4992 0.9741
-5.2221 3.0931 -2.4993 0.9741
-5.6880 2.1182 -2.4993 0.9741
-5.9735 1.0762 -2.4994 0.9741
-3.9772 0.3554 -1.6443 0.9829
-3.0794 0.0000 -1.3283 0.9867
-2.7278 -0.4914 -1.1956 0.9880
-2.7299 -1.3040 -1.3050 0.9869
-2.7884 -1.6516 -1.3980 0.9860
-4.3817 -3.7890 -2.4988 0.9751
-4.0269 -4.1638 -2.4987 0.9751
-3.6402 -4.5055 -2.4985 0.9751
-3.2246 -4.8114 -2.4984 0.9751
-1.3424 -5.6330 -2.4979 0.9751
-0.8357 -5.7298 -2.4978 0.9751
-0.3223 -5.7812 -2.4976 0.9751
1.2163 -5.6601 -2.4973 0.9751
2.2004 -5.3542 -2.4970 0.9751
3.5363 -4.5821 -2.4967 0.9751
3.9300 -4.2490 -2.4966 0.9751
4.2925 -3.8823 -2.4966 0.9751
4.9126 -3.0596 -2.4964 0.9751
5.3770 -2.1400 -2.4964 0.9751
5.5461 -1.6529 -2.4963 0.9751
5.6712 -1.1527 -2.4963 0.9751
5.7171 0.8990 -2.4964 0.9751
7.9175 3.5675 -3.7460 0.9629
4.4808 3.0759 -2.3444 0.9766
3.5094 4.1510 -2.3447 0.9766
3.1262 4.4471 -2.3448 0.9766
2.7181 4.7079 -2.3449 0.9766
2.2884 4.9313 -2.3451 0.9766
1.8405 5.1158 -2.3452 0.9766
1.3779 5.2596 -2.3453 0.9766
-0.5443 5.4109 -2.3458 0.9766
-1.0238 5.3412 -2.3459 0.9766
-1.9548 5.0755 -2.3461 0.9766
-2.8240 4.6489 -2.3463 0.9766
-3.7445 4.2340 -2.4382 0.9757
-4.5468 3.5906 -2.4991 0.9751
-5.3342 2.2619 -2.4993 0.9751
-5.5144 1.7782 -2.4993 0.9751
-5.6508 1.2803 -2.4993 0.9751
-5.7423 0.7723 -2.4993 0.9751
-3.3811 0.1508 -1.4599 0.9854
-2.7166 -0.8760 -1.2313 0.9876
-2.7334 -1.1591 -1.2807 0.9871
-5.1111 -2.7274 -2.4990 0.9751
-4.5463 -3.5901 -2.4988 0.9751
-4.2085 -3.9803 -2.4987 0.9751
-2.5543 -5.1979 -2.4982 0.9751
-2.0814 -5.4043 -2.4981 0.9751
-1.5921 -5.5678 -2.4980 0.9751
-0.5796 -5.7613 -2.4977 0.9751
0.4510 -5.7721 -2.4975 0.9751
0.9630 -5.7088 -2.4973 0.9751
1.4672 -5.6001 -2.4972 0.9751
1.9597 -5.4470 -2.4971 0.9751
2.4366 -5.2508 -2.4970 0.9751
2.8942 -5.0129 -2.4969 0.9751
3.3288 -4.7352 -2.4968 0.9751
3.7369 -4.4200 -2.4967 0.9751
4.1153 -4.0697 -2.4966 0.9751
4.7714 -3.2754 -2.4965 0.9751
5.0439 -2.8376 -2.4964 0.9751
5.2764 -2.3774 -2.4964 0.9751
5.7743 -0.3865 -2.4963 0.9751
5.5464 1.6530 -2.4965 0.9751
5.3774 2.1402 -2.4966 0.9751
7.7508 3.9167 -3.7460 0.9629
7.3718 4.5912 -3.7462 0.9629
4.3394 3.2726 -2.3445 0.9766
3.6908 3.9905 -2.3447 0.9766
3.3211 4.3033 -2.3448 0.9766
2.9250 4.5820 -2.3449 0.9766
2.0665 5.0286 -2.3451 0.9766
1.1423 5.3159 -2.3454 0.9766
-0.3027 5.4296 -2.3457 0.9766
-0.7848 5.3814 -2.3459 0.9766
-1.2608 5.2904 -2.3460 0.9766
-1.7267 5.1575 -2.3461 0.9766
-3.0283 4.5186 -2.3464 0.9766
-3.4186 4.2313 -2.3465 0.9766
-4.9850 2.9527 -2.4992 0.9751
-5.5881 1.5308 -2.4993 0.9751
-3.8265 0.3419 -1.6572 0.9834
-2.7005 -0.2413 -1.2234 0.9882
-2.6738 -0.4817 -1.2259 0.9881
-2.6546 -0.7272 -1.2419 0.9880
-2.6607 -0.9909 -1.2811 0.9876
-2.6666 -1.2737 -1.3334 0.9871
-2.6867 -1.5914 -1.4090 0.9864
-4.4947 -3.2351 -2.4988 0.9760
-2.2180 -5.0727 -2.4982 0.9760
-1.2833 -5.3851 -2.4979 0.9760
-0.7989 -5.4777 -2.4978 0.9760
1.1628 -5.4110 -2.4973 0.9760
2.1036 -5.1187 -2.4971 0.9760
2.9776 -4.6642 -2.4969 0.9760
3.3808 -4.3805 -2.4968 0.9760
3.7571 -4.0621 -2.4967 0.9760
4.4176 -3.3314 -2.4966 0.9760
5.3022 -1.5802 -2.4964 0.9760
5.4217 -1.1020 -2.4964 0.9760
5.4983 -0.6151 -2.4964 0.9760
5.3675 1.3425 -2.4965 0.9760
5.2269 1.8150 -2.4966 0.9760
7.5692 3.4105 -3.7461 0.9642
7.2359 4.0708 -3.7462 0.9642
6.8450 4.6988 -3.7463 0.9642
3.6947 3.6538 -2.3446 0.9775
2.9886 4.2514 -2.3448 0.9775
2.5985 4.5007 -2.3450 0.9775
2.1877 4.7144 -2.3451 0.9775
1.7595 4.8906 -2.3452 0.9774
1.3173 5.0281 -2.3453 0.9774
0.8646 5.1256 -2.3454 0.9774
-0.5204 5.1727 -2.3458 0.9774
-1.4294 4.9990 -2.3460 0.9774
-1.8687 4.8521 -2.3461 0.9774
-2.2933 4.6667 -2.3462 0.9774
-3.0847 4.1865 -2.3464 0.9774
-3.6689 4.1486 -2.4989 0.9760
-4.6350 3.0321 -2.4991 0.9760
-4.8865 2.6075 -2.4992 0.9760
-5.0993 2.1623 -2.4992 0.9760
-5.4895 0.7383 -2.4992 0.9760
-2.7833 -0.1241 -1.2571 0.9878
-2.6870 -0.3614 -1.2234 0.9882
-2.6574 -0.8569 -1.2599 0.9878
-2.6675 -1.1311 -1.3074 0.9874
-4.6345 -3.0317 -2.4989 0.9760
-4.3461 -3.4320 -2.4988 0.9760
-4.0232 -3.8051 -2.4987 0.9760
-3.6684 -4.1479 -2.4986 0.9760
-3.2845 -4.4578 -2.4985 0.9760
-1.9898 -5.1664 -2.4981 0.9760
-1.5220 -5.3228 -2.4980 0.9760
-1.0421 -5.4368 -2.4978 0.9760
-0.5541 -5.5077 -2.4977 0.9760
0.9206 -5.4576 -2.4973 0.9760
1.4026 -5.3537 -2.4972 0.9760
2.7669 -4.7923 -2.4969 0.9760
3.1823 -4.5269 -2.4968 0.9760
3.9343 -3.8907 -2.4967 0.9760
4.2648 -3.5250 -2.4966 0.9760
4.5615 -3.1313 -2.4965 0.9760
5.0443 -2.2728 -2.4964 0.9760
5.5203 -0.3695 -2.4964 0.9760
5.4984 0.6151 -2.4965 0.9760
5.3024 1.5803 -2.4965 0.9760
5.1409 2.0460 -2.4966 0.9760
7.4099 3.7444 -3.7461 0.9642
4.1485 3.1286 -2.3445 0.9775
3.8537 3.4855 -2.3446 0.9775
3.1750 4.1140 -2.3448 0.9775
2.3955 4.6121 -2.3450 0.9775
1.9756 4.8073 -2.3451 0.9775
1.5399 4.9643 -2.3452 0.9774
1.0920 5.0819 -2.3454 0.9774
0.1737 5.1955 -2.3456 0.9774
-0.2894 5.1906 -2.3457 0.9774
-0.7503 5.1445 -2.3458 0.9774
-1.6507 4.9304 -2.3460 0.9774
-2.8950 4.3196 -2.3463 0.9774
-3.3695 4.1705 -2.4192 0.9767
-4.7655 2.8226 -2.4991 0.9760
-5.1906 1.9330 -2.4992 0.9760
-5.3421 1.4634 -2.4992 0.9760
-2.9112 0.0000 -1.3723 0.9872
-2.6448 -0.2363 -1.2517 0.9883
-2.6212 -0.4722 -1.2555 0.9883
-2.6023 -0.9691 -1.3090 0.9878
-2.6596 -1.5753 -1.4571 0.9864
-4.3024 -3.0967 -2.4988 0.9768
-3.3310 -4.1229 -2.4985 0.9768
-2.5470 -4.6478 -2.4983 0.9768
-1.6825 -5.0252 -2.4980 0.9768
-0.2950 -5.2904 -2.4977 0.9768
0.6476 -5.2584 -2.4974 0.9768
1.5696 -5.0598 -2.4972 0.9768
2.0136 -4.8998 -2.4971 0.9768
3.5965 -3.8885 -2.4967 0.9768
4.2287 -3.1890 -2.4966 0.9769
4.9208 -1.9584 -2.4965 0.9769
5.1900 -1.0549 -2.4965 0.9769
5.2948 -0.1180 -2.4965 0.9769
5.1381 1.2852 -2.4966 0.9769
5.0034 1.7374 -2.4966 0.9769
4.8290 2.1759 -2.4967 0.9768
6.9265 3.8968 -3.7462 0.9655
3.2116 3.7987 -2.3448 0.9782
2.8608 4.0696 -2.3449 0.9782
2.4874 4.3083 -2.3450 0.9782
0.3876 4.9608 -2.3455 0.9782
-0.0554 4.9759 -2.3456 0.9782
-0.4981 4.9514 -2.3458 0.9782
-0.9369 4.8876 -2.3459 0.9782
-1.7888 4.6446 -2.3461 0.9782
-2.5841 4.2541 -2.3463 0.9782
-4.6774 2.4960 -2.4991 0.9768
-4.8811 2.0698 -2.4991 0.9768
-5.0460 1.6271 -2.4992 0.9768
-5.1708 1.1716 -2.4992 0.9768
-3.1522 0.1406 -1.4873 0.9861
-2.7082 -0.1208 -1.2778 0.9881
-2.6352 -0.3544 -1.2533 0.9883
-2.6131 -0.5921 -1.2630 0.9882
-2.6038 -1.1041 -1.3332 0.9876
-4.4362 -2.9020 -2.4988 0.9768
-3.5115 -3.9705 -2.4985 0.9768
-3.1440 -4.2671 -2.4984 0.9768
-2.7516 -4.5298 -2.4983 0.9768
-2.3374 -4.7565 -2.4982 0.9768
-1.9047 -4.9454 -2.4981 0.9768
-1.4569 -5.0951 -2.4980 0.9768
-0.9976 -5.2043 -2.4978 0.9768
-0.5304 -5.2722 -2.4977 0.9768
0.8812 -5.2242 -2.4974 0.9768
1.7934 -4.9848 -2.4971 0.9768
2.2298 -4.8052 -2.4970 0.9768
2.6486 -4.5874 -2.4970 0.9768
3.4198 -4.0449 -2.4968 0.9768
4.0825 -3.3743 -2.4966 0.9769
5.0031 -1.7372 -2.4965 0.9769
5.2843 -0.3537 -2.4965 0.9769
5.2949 0.1180 -2.4965 0.9769
5.2634 0.5888 -2.4965 0.9769
5.1902 1.0549 -2.4966 0.9769
7.0932 3.5843 -3.7462 0.9655
6.3456 4.7854 -3.7464 0.9655
3.0392 3.9380 -2.3448 0.9782
1.8911 4.6017 -2.3451 0.9782
1.4741 4.7520 -2.3453 0.9782
1.0453 4.8646 -2.3454 0.9782
0.6082 4.9385 -2.3455 0.9782
-1.1537 4.8412 -2.3459 0.9782
-1.5801 4.7195 -2.3460 0.9782
-1.9940 4.5603 -2.3461 0.9782
-2.7712 4.1348 -2.3463 0.9782
-4.0101 3.4677 -2.4990 0.9768
-4.3029 3.0971 -2.4990 0.9768
-4.7840 2.2852 -2.4991 0.9768
-4.9685 1.8503 -2.4992 0.9768
-5.1135 1.4008 -2.4992 0.9768
-5.2179 0.9401 -2.4992 0.9768
-3.7077 0.3313 -1.7547 0.9837
-2.8280 0.0000 -1.3909 0.9875
-2.5903 -0.2315 -1.2791 0.9885
-2.5698 -0.4630 -1.2843 0.9884
-2.5453 -0.9479 -1.3359 0.9880
-2.5457 -1.2160 -1.3876 0.9875
-3.8426 -3.3228 -2.4986 0.9776
-3.1923 -3.9512 -2.4985 0.9776
-2.8279 -4.2195 -2.4983 0.9776
-2.4410 -4.4542 -2.4982 0.9776
-1.6124 -4.8160 -2.4980 0.9776
0.6207 -5.0395 -2.4974 0.9776
1.0667 -4.9640 -2.4973 0.9776
1.5043 -4.8492 -2.4972 0.9776
2.3400 -4.5053 -2.4970 0.9776
2.7316 -4.2790 -2.4969 0.9776
3.1015 -4.0187 -2.4969 0.9776
4.0528 -3.0563 -2.4967 0.9776
4.5303 -2.2893 -2.4966 0.9776
4.7160 -1.8769 -2.4965 0.9776
4.8643 -1.4497 -2.4965 0.9776
4.9740 -1.0110 -2.4965 0.9776
5.0745 -0.1131 -2.4965 0.9776
5.0143 0.7885 -2.4966 0.9776
4.7952 1.6651 -2.4967 0.9776
6.6382 3.7346 -3.7463 0.9666
6.2797 4.3107 -3.7464 0.9666
5.8713 4.8528 -3.7465 0.9666
2.7417 3.9002 -2.3449 0.9790
2.3838 4.1289 -2.3450 0.9790
0.7932 4.7021 -2.3454 0.9790
-0.0531 4.7687 -2.3456 0.9790
-3.0135 4.0900 -2.4988 0.9776
-3.3657 3.8057 -2.4988 0.9776
-3.6912 3.4911 -2.4989 0.9776
-3.9873 3.1488 -2.4990 0.9776
-4.4826 2.3920 -2.4991 0.9776
-5.0357 0.6772 -2.4991 0.9776
-3.0630 0.1366 -1.5081 0.9864
-2.5845 -0.3476 -1.2826 0.9884
-2.5616 -0.5804 -1.2919 0.9884
-3.6907 -3.4906 -2.4986 0.9776
-3.3652 -3.8051 -2.4985 0.9776
-2.6370 -4.3412 -2.4983 0.9776
-2.2401 -4.5584 -2.4982 0.9776
-1.8254 -4.7395 -2.4981 0.9776
-1.3962 -4.8829 -2.4980 0.9776
-0.9560 -4.9876 -2.4978 0.9776
-0.5083 -5.0527 -2.4977 0.9776
-0.0566 -5.0776 -2.4976 0.9776
1.2868 -4.9115 -2.4973 0.9776
1.7187 -4.7773 -2.4972 0.9776
2.1370 -4.6052 -2.4971 0.9776
2.5383 -4.3965 -2.4970 0.9776
2.9195 -4.1530 -2.4969 0.9776
3.2774 -3.8765 -2.4968 0.9776
3.9126 -3.2338 -2.4967 0.9776
4.4238 -2.4888 -2.4966 0.9776
4.6277 -2.0851 -2.4966 0.9776
4.7949 -1.6649 -2.4965 0.9776
5.0141 -0.7884 -2.4965 0.9776
5.0644 -0.3390 -2.4965 0.9776
4.9742 1.0111 -2.4966 0.9776
4.8646 1.4498 -2.4967 0.9776
4.5307 2.2895 -2.4968 0.9776
6.4655 4.0267 -3.7464 0.9666
6.0816 4.5863 -3.7465 0.9666
3.5355 3.1977 -2.3447 0.9790
3.2369 3.4998 -2.3448 0.9790
2.5653 4.0186 -2.3449 0.9790
1.8124 4.4101 -2.3452 0.9790
1.4127 4.5542 -2.3453 0.9790
1.0018 4.6620 -2.3454 0.9790
0.5829 4.7329 -2.3455 0.9790
0.1594 4.7662 -2.3456 0.9790
-0.6883 4.7194 -2.3458 0.9790
-1.5143 4.5230 -2.3460 0.9790
-1.9109 4.3704 -2.3461 0.9790
-2.7192 4.0573 -2.4023 0.9785
-3.5319 3.6520 -2.4989 0.9776
-4.7615 1.7732 -2.4991 0.9776
-3.6334 0.3247 -1.7942 0.9839
-2.7481 0.0000 -1.4089 0.9877
-2.5199 -0.4540 -1.3126 0.9886
-2.4879 -1.1884 -1.4135 0.9877
-3.9558 -2.8472 -2.4987 0.9783
-3.6865 -3.1879 -2.4986 0.9783
-3.3880 -3.5032 -2.4985 0.9783
-3.0627 -3.7907 -2.4984 0.9783
-2.7130 -4.0481 -2.4983 0.9783
-2.3419 -4.2733 -2.4982 0.9783
-1.1295 -4.7396 -2.4979 0.9783
-0.2712 -4.8643 -2.4977 0.9783
0.1628 -4.8689 -2.4976 0.9783
1.0234 -4.7625 -2.4974 0.9783
1.8515 -4.5053 -2.4972 0.9783
2.6208 -4.1053 -2.4970 0.9783
2.9757 -3.8556 -2.4969 0.9783
4.1338 -2.5745 -2.4967 0.9783
4.5246 -1.8007 -2.4966 0.9783
4.7722 -0.9700 -2.4966 0.9783
4.8396 -0.5414 -2.4966 0.9783
4.8108 0.7565 -2.4966 0.9783
4.4402 2.0007 -2.4968 0.9783
5.6330 4.6558 -3.7466 0.9677
3.2520 3.2160 -2.3447 0.9797
2.2871 3.9613 -2.3450 0.9796
1.9255 4.1494 -2.3451 0.9796
1.5486 4.3044 -2.3452 0.9796
0.7609 4.5112 -2.3454 0.9796
0.3564 4.5612 -2.3455 0.9796
-0.8614 4.4939 -2.3458 0.9796
-1.2580 4.3996 -2.3459 0.9796
-2.0183 4.1072 -2.3461 0.9796
-2.8911 3.9239 -2.4987 0.9783
-3.2290 3.6511 -2.4988 0.9783
-3.5412 3.3493 -2.4989 0.9783
-3.8254 3.0209 -2.4989 0.9783
-4.0791 2.6685 -2.4990 0.9783
-4.3005 2.2948 -2.4990 0.9783
-4.6394 1.4960 -2.4991 0.9783
-4.7541 1.0771 -2.4991 0.9783
-4.8311 0.6497 -2.4991 0.9783
-2.9775 0.1328 -1.5280 0.9867
-2.5877 -0.1154 -1.3280 0.9884
-2.5350 -0.3409 -1.3113 0.9886
-2.4881 -0.8023 -1.3403 0.9883
-3.8250 -3.0205 -2.4987 0.9783
-3.5408 -3.3488 -2.4986 0.9783
-3.2286 -3.6506 -2.4985 0.9783
-2.8907 -3.9233 -2.4984 0.9783
-2.5299 -4.1648 -2.4983 0.9783
-2.1491 -4.3733 -2.4982 0.9783
-1.7513 -4.5470 -2.4981 0.9783
-0.4877 -4.8475 -2.4977 0.9783
-0.0543 -4.8715 -2.4976 0.9783
0.3795 -4.8568 -2.4975 0.9783
1.2345 -4.7121 -2.4973 0.9783
1.6490 -4.5834 -2.4972 0.9783
2.4353 -4.2181 -2.4970 0.9783
2.8010 -3.9844 -2.4969 0.9783
3.1444 -3.7192 -2.4969 0.9783
4.0150 -2.7561 -2.4967 0.9783
4.2443 -2.3878 -2.4966 0.9783
4.8106 -0.7564 -2.4966 0.9783
4.8397 0.5414 -2.4966 0.9783
4.7723 0.9701 -2.4967 0.9783
4.6671 1.3910 -2.4967 0.9783
6.2030 3.8633 -3.7464 0.9677
5.8347 4.4001 -3.7465 0.9677
5.4201 4.9022 -3.7467 0.9677
3.1055 3.3577 -2.3448 0.9797
2.1084 4.0594 -2.3451 0.9796
1.7388 4.2311 -2.3452 0.9796
0.5592 4.5407 -2.3455 0.9796
0.1529 4.5727 -2.3456 0.9796
-0.2547 4.5684 -2.3457 0.9796
-0.6603 4.5278 -2.3458 0.9796
-1.4528 4.3393 -2.3460 0.9796
-1.8333 4.1929 -2.3461 0.9796
-3.0631 3.7913 -2.4988 0.9783
-3.3885 3.5037 -2.4988 0.9783
-3.6869 3.1883 -2.4989 0.9783
-4.1940 2.4841 -2.4990 0.9783
-4.3985 2.1010 -2.4990 0.9783
-4.5681 1.7012 -2.4990 0.9783
-4.7014 1.2879 -2.4991 0.9783
-3.5463 0.3169 -1.8253 0.9841
-2.4853 -0.2221 -1.3321 0.9887
-2.4352 -0.9069 -1.3872 0.9883
-2.4292 -1.1603 -1.4371 0.9879
-3.7988 -2.7342 -2.4987 0.9790
-3.5403 -3.0614 -2.4986 0.9790
-3.2536 -3.3642 -2.4985 0.9790
-2.9412 -3.6403 -2.4984 0.9790
-2.6054 -3.8875 -2.4983 0.9790
-2.2490 -4.1038 -2.4982 0.9790
-1.4856 -4.4372 -2.4980 0.9790
-1.0847 -4.5516 -2.4979 0.9790
-0.6752 -4.6299 -2.4978 0.9790
0.1563 -4.6758 -2.4976 0.9790
0.9828 -4.5737 -2.4974 0.9790
1.3860 -4.4679 -2.4973 0.9790
1.7781 -4.3266 -2.4972 0.9790
2.5169 -3.9425 -2.4970 0.9790
3.4687 -3.1373 -2.4968 0.9790
4.1741 -2.1093 -2.4967 0.9790
4.3453 -1.7293 -2.4966 0.9790
4.5830 -0.9315 -2.4966 0.9790
4.6756 -0.1041 -2.4966 0.9790
4.6663 0.3124 -2.4967 0.9790
4.5371 1.1348 -2.4967 0.9790
4.4182 1.5342 -2.4968 0.9790
4.2642 1.9214 -2.4968 0.9790
5.7860 3.9718 -3.7465 0.9687
5.4097 4.4712 -3.7466 0.9687
2.1964 3.8042 -2.3450 0.9803
1.8491 3.9848 -2.3451 0.9803
1.1134 4.2499 -2.3453 0.9803
0.3423 4.3803 -2.3455 0.9803
-0.4398 4.3720 -2.3457 0.9803
-0.8272 4.3156 -2.3458 0.9803
-1.2081 4.2251 -2.3459 0.9803
-1.5794 4.1010 -2.3460 0.9803
-1.9382 3.9442 -2.3461 0.9803
-2.4223 3.9875 -2.4907 0.9791
-3.1009 3.5062 -2.4988 0.9790
-3.6736 2.9010 -2.4989 0.9790
-3.9173 2.5626 -2.4989 0.9790
-4.3097 1.8275 -2.4990 0.9790
-4.5655 1.0345 -2.4990 0.9790
-4.6394 0.6239 -2.4990 0.9790
-2.8952 0.1291 -1.5471 0.9869
-2.4861 -0.3344 -1.3391 0.9887
-2.4353 -0.7853 -1.3660 0.9885
-2.4330 -1.0317 -1.4108 0.9881
-3.6732 -2.9007 -2.4986 0.9790
-3.4003 -3.2160 -2.4985 0.9790
-3.1005 -3.5057 -2.4984 0.9790
-2.4296 -3.9996 -2.4983 0.9790
