ply
format ascii 1.0
element vertex 1586
property float32 x
property float32 y
property float32 z
property float32 I
end_header
8.1549 4.5879 3.6723 0.9606
-2.9481 -6.7425 2.2031 0.9697
8.1522 4.5864 2.8003 0.9617
-3.2664 -6.6470 2.2173 0.9695
-2.7551 -7.1535 2.2950 0.9685
-2.4185 -7.2236 2.1433 0.9688
-3.1317 -6.3729 1.9979 0.9709
-2.5847 -6.7110 2.0234 0.9706
-3.3882 -6.1827 1.8578 0.9713
-2.2915 -6.8443 1.9019 0.9706
-3.8322 -6.3087 1.9450 0.9699
-3.0537 -6.2140 1.8244 0.9718
-2.5129 -6.5245 1.8423 0.9715
-2.7168 -6.2134 1.6669 0.9725
-2.2382 -6.6852 1.7329 0.9714
-2.9972 -6.0992 1.6704 0.9724
-3.2653 -5.9585 1.5508 0.9725
-2.1951 -6.5565 1.5781 0.9720
-3.6318 -5.9787 1.5966 0.9717
-2.4283 -6.3048 1.5421 0.9727
-4.0448 -6.0352 1.5317 0.9707
-3.2275 -5.8893 1.4158 0.9729
-2.6528 -6.0671 1.3960 0.9733
-2.1679 -6.4751 1.4395 0.9725
8.1496 4.5849 1.9713 0.9625
-2.9249 -5.9520 1.3981 0.9733
-2.4016 -6.2355 1.4087 0.9731
-1.9551 -6.8375 1.4992 0.9713
-3.1907 -5.8223 1.2848 0.9733
-2.6255 -6.0047 1.2682 0.9737
-2.1414 -6.3961 1.3053 0.9729
-1.7606 -7.3880 1.4697 0.9695
-3.5336 -5.8171 1.3171 0.9727
-1.9255 -6.7339 1.3554 0.9719
-3.1691 -5.7829 1.1628 0.9736
-2.6110 -5.9715 1.1492 0.9739
8.1486 4.5843 1.6486 0.9627
-4.6182 -6.2679 1.3728 0.9689
-3.5022 -5.7654 1.1895 0.9730
-2.8779 -5.8563 1.1506 0.9738
-1.9019 -6.6512 1.2198 0.9723
-3.8760 -5.7833 1.1086 0.9722
-3.1502 -5.7484 1.0438 0.9738
-2.1106 -6.3041 1.0586 0.9734
8.1481 4.5841 1.4887 0.9628
-3.4808 -5.7302 1.0676 0.9732
-2.8620 -5.8240 1.0333 0.9741
-2.3475 -6.0951 1.0401 0.9739
-3.8482 -5.7419 0.9832 0.9725
8.1476 4.5838 1.3297 0.9629
-3.4598 -5.6955 0.9479 0.9734
-2.3343 -6.0608 0.9238 0.9741
-1.8725 -6.5486 0.9688 0.9729
-3.1230 -5.6987 0.8143 0.9741
-2.0896 -6.2413 0.8248 0.9738
8.1471 4.5835 1.1714 0.9630
-4.3412 -5.8919 0.9171 0.9709
-3.4465 -5.6737 0.8319 0.9736
-2.8391 -5.7774 0.8067 0.9744
-2.3277 -6.0438 0.8116 0.9742
-1.8619 -6.5116 0.8487 0.9731
-3.1176 -5.6889 0.7036 0.9742
-2.5721 -5.8827 0.6964 0.9745
8.1466 4.5832 1.0139 0.9631
-4.3156 -5.8571 0.7891 0.9712
-2.3236 -6.0332 0.7013 0.9743
-1.8580 -6.4977 0.7330 0.9732
-2.5679 -5.8728 0.5876 0.9746
-2.0815 -6.2170 0.6011 0.9740
-1.6408 -6.8851 0.6489 0.9720
8.1461 4.5829 0.8569 0.9632
-4.2980 -5.8332 0.6643 0.9713
-3.4336 -5.6525 0.6063 0.9738
-2.3196 -6.0227 0.5917 0.9744
-1.8542 -6.4847 0.6183 0.9733
-3.1087 -5.6726 0.4847 0.9744
-2.5654 -5.8671 0.4799 0.9746
-1.6356 -6.8631 0.5287 0.9721
8.1456 4.5827 0.7004 0.9632
-4.2805 -5.8096 0.5408 0.9715
-3.4281 -5.6434 0.4948 0.9739
-2.3170 -6.0159 0.4831 0.9745
-1.5038 -7.8452 0.5986 0.9685
-3.1138 -5.6821 0.3774 0.9744
-1.6384 -6.8748 0.4116 0.9721
-3.4343 -5.6536 0.3853 0.9738
-2.3209 -6.0261 0.3761 0.9745
-1.8540 -6.4839 0.3928 0.9733
-1.4945 -7.7968 0.4624 0.9687
-4.3033 -5.8404 0.3016 0.9714
-3.4406 -5.6639 0.2755 0.9738
-2.3249 -6.0364 0.2690 0.9744
-1.5154 -7.9057 0.3347 0.9683
-3.8236 -5.7053 0.1713 0.9729
-3.1243 -5.7010 0.1621 0.9743
-1.6485 -6.9174 0.1773 0.9719
-3.4468 -5.6743 0.1656 0.9738
-2.3288 -6.0466 0.1616 0.9744
-1.8614 -6.5096 0.1688 0.9733
-3.1352 -5.7211 0.0542 0.9742
-2.5869 -5.9163 0.0537 0.9745
-2.0984 -6.2674 0.0549 0.9739
-1.6584 -6.9589 0.0595 0.9718
8.1437 4.5816 0.0777 0.9633
-3.4598 -5.6956 0.0554 0.9737
-1.8700 -6.5398 0.0565 0.9732
-3.1525 -5.7525 -0.0545 0.9741
-2.5999 -5.9461 -0.0539 0.9744
-2.1107 -6.3042 -0.0553 0.9738
-4.4057 -5.9795 -0.0617 0.9707
-2.8653 -5.8306 -0.0540 0.9743
-2.3495 -6.1003 -0.0543 0.9742
-3.1700 -5.7845 -0.1645 0.9740
-2.6130 -5.9762 -0.1627 0.9742
-2.1231 -6.3413 -0.1668 0.9736
-1.6907 -7.0943 -0.1819 0.9712
-4.4605 -6.0539 -0.1875 0.9704
-2.8800 -5.8606 -0.1628 0.9742
-3.9321 -5.8672 -0.2937 0.9721
-3.1892 -5.8196 -0.2759 0.9738
8.1422 4.5807 -0.3884 0.9633
-3.5226 -5.7990 -0.2821 0.9732
-2.3755 -6.1679 -0.2748 0.9739
-3.9917 -5.9560 -0.4176 0.9717
-2.6513 -6.0637 -0.3855 0.9738
-2.9229 -5.9478 -0.3860 0.9738
-1.9376 -6.7761 -0.4105 0.9722
-4.0532 -6.0477 -0.5456 0.9712
-2.1835 -6.5217 -0.5154 0.9728
-1.8020 -7.5615 -0.5825 0.9693
-3.6063 -5.9368 -0.5206 0.9725
-2.9504 -6.0038 -0.5013 0.9735
-2.4215 -6.2873 -0.5049 0.9733
-3.2907 -6.0047 -0.6277 0.9729
-2.2108 -6.6032 -0.6384 0.9724
-2.4470 -6.3534 -0.6242 0.9730
-1.9963 -6.9815 -0.6657 0.9713
-4.2986 -6.4139 -0.8375 0.9694
-2.2501 -6.7207 -0.7687 0.9719
-2.4856 -6.4538 -0.7501 0.9726
-3.4024 -6.2087 -0.8872 0.9719
-2.7849 -6.3691 -0.8711 0.9724
8.1398 4.5794 -1.1704 0.9630
-3.8114 -6.2744 -0.9200 0.9708
-3.4904 -6.3692 -1.0330 0.9711
-2.8461 -6.5092 -1.0105 0.9717
-2.3751 -7.0940 -1.0641 0.9702
8.1393 4.5791 -1.3283 0.9630
-3.1421 -6.3939 -1.0133 0.9716
-3.6248 -6.6144 -1.2010 0.9699
14.2553 3.5655 -2.3399 0.9422
13.8827 4.8206 -2.3401 0.9422
13.4000 6.0378 -2.3404 0.9422
12.1205 8.3202 -2.3410 0.9422
10.4566 10.3407 -2.3418 0.9422
9.4964 11.2324 -2.3422 0.9422
8.4606 12.0354 -2.3426 0.9422
4.9833 13.8514 -2.3440 0.9421
3.7315 14.2430 -2.3445 0.9421
-0.1641 14.7321 -2.3460 0.9421
-2.7747 14.4756 -2.3470 0.9420
-4.0529 14.1740 -2.3475 0.9420
-5.2994 13.7596 -2.3479 0.9420
-7.6577 12.6063 -2.3487 0.9420
-9.7744 11.0522 -2.3494 0.9420
-11.5819 9.1462 -2.3500 0.9420
-12.3512 8.0798 -2.3502 0.9420
-3.2252 -6.5631 -1.1645 0.9708
14.6018 1.6335 -2.3396 0.9422
14.3994 2.9268 -2.3398 0.9422
14.0830 4.1972 -2.3400 0.9422
13.6549 5.4346 -2.3402 0.9422
11.7387 8.8526 -2.3412 0.9422
9.9865 10.7973 -2.3420 0.9422
8.9875 11.6454 -2.3424 0.9422
5.5948 13.6142 -2.3438 0.9421
3.0936 14.3966 -2.3448 0.9421
1.8004 14.6180 -2.3453 0.9421
-0.8203 14.7117 -2.3463 0.9421
-3.4172 14.3391 -2.3472 0.9420
-5.9076 13.5111 -2.3481 0.9420
-8.2123 12.2537 -2.3489 0.9420
-11.1624 9.6525 -2.3499 0.9420
-11.9784 8.6216 -2.3501 0.9420
-12.6993 7.5219 -2.3503 0.9420
-13.3193 6.3621 -2.3505 0.9420
-14.1939 0.0000 -2.5028 0.9440
-11.5131 -8.2866 -2.5012 0.9440
-10.7283 -9.2771 -2.5009 0.9440
-3.2839 -13.7797 -2.4978 0.9441
-2.0440 -14.0146 -2.4973 0.9441
0.4731 -14.1496 -2.4963 0.9441
5.3776 -13.0855 -2.4946 0.9442
6.5199 -12.5529 -2.4942 0.9442
10.4853 -9.4834 -2.4929 0.9442
11.9985 -7.4728 -2.4924 0.9442
13.1319 -5.2264 -2.4922 0.9442
13.5445 -4.0367 -2.4921 0.9442
14.1298 -0.3148 -2.4921 0.9442
13.1110 2.0616 -2.3402 0.9475
12.8764 3.2206 -2.3404 0.9475
10.9475 7.5151 -2.3414 0.9475
10.2366 8.4608 -2.3417 0.9475
9.4444 9.3397 -2.3421 0.9475
8.5770 10.1449 -2.3425 0.9475
6.6447 11.5089 -2.3433 0.9475
4.5005 12.5093 -2.3441 0.9474
2.2121 13.1142 -2.3450 0.9474
-0.1482 13.3037 -2.3459 0.9474
-2.5056 13.0715 -2.3468 0.9474
-3.6597 12.7988 -2.3472 0.9474
-4.7852 12.4245 -2.3476 0.9474
-6.9144 11.3827 -2.3484 0.9473
-7.9012 10.7236 -2.3487 0.9473
-10.4572 8.2580 -2.3495 0.9473
-11.1516 7.2951 -2.3497 0.9473
-13.8435 3.1365 -2.5028 0.9440
-14.0677 1.8920 -2.5028 0.9440
-14.0663 -1.8917 -2.5026 0.9440
-13.8412 -3.1360 -2.5024 0.9440
-13.5061 -4.3551 -2.5022 0.9440
-10.3036 -9.7451 -2.5007 0.9440
-8.4098 -11.4138 -2.4999 0.9440
-2.6665 -13.9110 -2.4975 0.9441
-1.4175 -14.0904 -2.4971 0.9441
1.1028 -14.1131 -2.4961 0.9441
2.3541 -13.9563 -2.4956 0.9441
3.5863 -13.6890 -2.4952 0.9441
8.1330 -11.5694 -2.4936 0.9442
9.1293 -10.7982 -2.4933 0.9442
11.6542 -8.0001 -2.4925 0.9442
12.8863 -5.8063 -2.4922 0.9442
13.7108 -3.4293 -2.4920 0.9442
14.1016 -0.9440 -2.4921 0.9442
13.1895 1.4755 -2.3402 0.9475
13.0066 2.6437 -2.3403 0.9475
11.2707 7.0195 -2.3412 0.9475
9.8503 8.9091 -2.3419 0.9475
9.0197 9.7520 -2.3423 0.9475
6.1260 11.7946 -2.3435 0.9474
1.6259 13.2010 -2.3453 0.9474
-3.0857 12.9480 -2.3470 0.9474
-4.2266 12.6242 -2.3474 0.9474
-7.4152 11.0642 -2.3485 0.9473
-10.0784 8.7152 -2.3494 0.9473
-10.8152 7.7843 -2.3496 0.9473
-12.0374 5.7498 -2.3522 0.9473
-13.3014 4.9535 -2.5028 0.9440
-13.6899 3.7500 -2.5028 0.9440
-13.9695 2.5168 -2.5029 0.9440
-14.1379 1.2634 -2.5028 0.9440
-12.7246 -2.2924 -2.5021 0.9487
-12.4692 -3.4156 -2.5019 0.9487
-12.1147 -4.5115 -2.5017 0.9487
-10.4889 -7.5495 -2.5009 0.9487
-9.7741 -8.4520 -2.5006 0.9487
-8.9818 -9.2871 -2.5002 0.9487
-8.1183 -10.0481 -2.4998 0.9487
-7.1906 -10.7291 -2.4994 0.9487
-6.2061 -11.3247 -2.4990 0.9487
-5.1726 -11.8301 -2.4986 0.9488
-4.0985 -12.2415 -2.4982 0.9488
0.4311 -12.8931 -2.4964 0.9488
1.5766 -12.8014 -2.4960 0.9488
2.7093 -12.6081 -2.4956 0.9488
3.8201 -12.3150 -2.4952 0.9488
6.9350 -10.8634 -2.4941 0.9488
7.8734 -10.2018 -2.4938 0.9489
9.5554 -8.6424 -2.4933 0.9489
11.4967 -5.8095 -2.4927 0.9489
11.9676 -4.7630 -2.4926 0.9489
12.3437 -3.6787 -2.4925 0.9489
12.8002 -1.4319 -2.4925 0.9489
11.9485 1.8788 -2.3407 0.9519
9.9764 6.8484 -2.3417 0.9519
8.6064 8.5110 -2.3423 0.9519
7.8158 9.2446 -2.3427 0.9519
6.9631 9.9051 -2.3430 0.9519
6.0548 10.4872 -2.3434 0.9519
0.9442 12.0833 -2.3455 0.9518
-1.2136 12.0634 -2.3463 0.9518
-3.3343 11.6610 -2.3470 0.9518
-7.1983 9.7697 -2.3484 0.9518
-8.8184 8.3404 -2.3489 0.9518
-9.5266 7.5231 -2.3491 0.9517
-11.9042 5.0479 -2.5022 0.9487
-12.8156 1.7235 -2.5024 0.9487
-12.9179 0.5760 -2.5023 0.9487
-12.8144 -1.7234 -2.5021 0.9487
-11.9012 -5.0465 -2.5016 0.9487
-9.3872 -8.8784 -2.5004 0.9487
-5.6950 -11.5889 -2.4988 0.9488
-4.6401 -12.0477 -2.4984 0.9488
-3.5488 -12.4108 -2.4980 0.9488
-2.4296 -12.6751 -2.4975 0.9488
-1.2916 -12.8388 -2.4971 0.9488
-0.1437 -12.9006 -2.4967 0.9488
1.0049 -12.8600 -2.4962 0.9488
3.2680 -12.4739 -2.4954 0.9488
6.4446 -11.1623 -2.4943 0.9488
7.4116 -10.5430 -2.4940 0.9488
11.2268 -6.3160 -2.4928 0.9489
11.7438 -5.2915 -2.4927 0.9489
12.8773 0.2870 -2.4926 0.9489
11.5926 3.4550 -2.3409 0.9519
11.2400 4.4734 -2.3411 0.9519
10.7983 5.4566 -2.3413 0.9519
10.2709 6.3968 -2.3416 0.9519
9.6620 7.2865 -2.3419 0.9519
8.2193 8.8866 -2.3425 0.9519
7.3968 9.5844 -2.3429 0.9519
5.5821 10.7474 -2.3436 0.9519
4.6041 11.2036 -2.3440 0.9518
3.5893 11.5709 -2.3444 0.9518
2.5456 11.8465 -2.3448 0.9518
1.4814 12.0281 -2.3452 0.9518
-0.6749 12.1045 -2.3461 0.9518
-1.7499 11.9984 -2.3465 0.9518
-2.8113 11.7970 -2.3468 0.9518
-4.8600 11.1150 -2.3476 0.9518
-5.8308 10.6399 -2.3479 0.9518
-6.7555 10.0800 -2.3482 0.9518
-8.4377 8.7246 -2.3488 0.9518
-9.1816 7.9397 -2.3490 0.9517
-9.8527 7.0916 -2.3492 0.9517
-10.4455 6.1869 -2.3494 0.9517
-11.6673 5.5730 -2.5022 0.9487
-12.1175 4.5127 -2.5023 0.9487
-11.8200 -1.0562 -2.5018 0.9526
-11.1189 -4.1407 -2.5014 0.9527
-10.2067 -6.0454 -2.5009 0.9527
-7.4514 -9.2227 -2.4996 0.9527
-5.6965 -10.3947 -2.4989 0.9527
-1.7096 -11.7217 -2.4973 0.9527
-0.6594 -11.8254 -2.4969 0.9527
4.4986 -10.9466 -2.4950 0.9528
5.4543 -10.5013 -2.4947 0.9528
6.3665 -9.9730 -2.4944 0.9528
7.2281 -9.3657 -2.4941 0.9528
8.7724 -7.9342 -2.4936 0.9528
10.9871 -4.3728 -2.4930 0.9528
11.3324 -3.3774 -2.4929 0.9528
11.5879 -2.3553 -2.4929 0.9528
11.7516 -1.3146 -2.4929 0.9528
11.8222 -0.2634 -2.4930 0.9528
11.7991 0.7899 -2.4930 0.9528
10.7731 2.6946 -2.3411 0.9556
10.4913 3.6430 -2.3413 0.9556
10.1262 4.5627 -2.3415 0.9556
8.0065 4.5044 -1.9367 0.9631
9.1587 6.2871 -2.3420 0.9556
7.1750 8.4866 -2.3429 0.9556
5.5582 9.6271 -2.3436 0.9556
4.6800 10.0852 -2.3439 0.9556
1.8502 10.9685 -2.3450 0.9555
-1.1139 11.0729 -2.3462 0.9555
-2.0954 10.9315 -2.3465 0.9555
-3.0605 10.7032 -2.3469 0.9555
-4.0015 10.3898 -2.3472 0.9555
-5.7818 9.5182 -2.3478 0.9555
-8.0936 7.6549 -2.3486 0.9555
-9.3240 6.0995 -2.3489 0.9555
-10.0763 5.3770 -2.4078 0.9544
-11.5744 2.6224 -2.5020 0.9526
-11.7619 1.5818 -2.5020 0.9526
-11.8555 -0.5286 -2.5019 0.9526
-11.5728 -2.6220 -2.5016 0.9526
-11.2927 -3.6414 -2.5014 0.9527
-10.9229 -4.6317 -2.5012 0.9527
-10.4664 -5.5850 -2.5010 0.9527
-9.9267 -6.4937 -2.5008 0.9527
-9.3082 -7.3506 -2.5005 0.9527
-8.6160 -8.1489 -2.5002 0.9527
-7.8554 -8.8822 -2.4998 0.9527
-5.2274 -10.6373 -2.4987 0.9527
-3.2575 -11.3921 -2.4979 0.9527
4.9814 -10.7346 -2.4949 0.9528
6.8041 -9.6789 -2.4942 0.9528
8.4106 -8.3174 -2.4937 0.9528
9.7505 -6.6933 -2.4933 0.9528
10.7816 -4.8580 -2.4931 0.9528
11.6813 -1.8368 -2.4929 0.9528
11.8223 0.2635 -2.4930 0.9528
10.8821 2.2119 -2.3411 0.9556
10.6428 3.1719 -2.3412 0.9556
10.3190 4.1069 -2.3414 0.9556
8.8700 6.6892 -2.3421 0.9556
7.5454 8.1580 -2.3427 0.9556
6.7903 8.7984 -2.3430 0.9556
4.2264 10.2844 -2.3441 0.9556
3.2948 10.6215 -2.3445 0.9556
2.3367 10.8743 -2.3448 0.9555
-2.5804 10.8281 -2.3467 0.9555
-3.5345 10.5570 -2.3470 0.9555
-4.4607 10.2019 -2.3474 0.9555
-6.2004 9.2517 -2.3480 0.9555
-7.0001 8.6641 -2.3482 0.9555
-8.4269 7.2871 -2.3487 0.9555
-9.5868 5.6783 -2.3490 0.9555
-10.7081 5.1149 -2.5018 0.9526
-11.1213 4.1416 -2.5019 0.9526
-11.4460 3.1354 -2.5019 0.9526
-11.6797 2.1042 -2.5020 0.9526
-10.7856 -1.9431 -2.5014 0.9560
-9.8869 -4.7226 -2.5008 0.9560
-9.4265 -5.5833 -2.5006 0.9560
-8.8912 -6.3995 -2.5004 0.9560
-7.6140 -7.8728 -2.4998 0.9561
-4.3853 -10.0295 -2.4984 0.9561
-3.4747 -10.3785 -2.4981 0.9561
-2.5368 -10.6450 -2.4977 0.9561
3.2394 -10.4428 -2.4955 0.9561
4.1555 -10.1117 -2.4952 0.9561
5.0383 -9.7005 -2.4949 0.9561
6.6770 -8.6516 -2.4944 0.9562
8.1037 -7.3294 -2.4939 0.9562
9.7503 -4.9270 -2.4934 0.9562
10.1498 -4.0395 -2.4934 0.9562
10.4688 -3.1200 -2.4933 0.9562
10.7048 -2.1758 -2.4933 0.9562
10.8560 -1.2144 -2.4933 0.9562
10.9212 -0.2434 -2.4933 0.9562
9.9520 2.4892 -2.3414 0.9588
8.4604 5.8078 -2.3422 0.9588
7.9107 6.5384 -2.3425 0.9588
7.2982 7.2174 -2.3427 0.9588
6.6277 7.8394 -2.3430 0.9588
4.3229 9.3156 -2.3440 0.9587
3.4771 9.6648 -2.3443 0.9587
1.7089 10.1312 -2.3450 0.9587
-1.0289 10.2272 -2.3461 0.9587
-1.9353 10.0965 -2.3464 0.9587
-3.6958 9.5960 -2.3470 0.9587
-6.1018 8.2815 -2.3479 0.9587
-8.6112 5.6332 -2.3486 0.9587
-10.8625 1.4609 -2.5016 0.9560
-10.9490 -0.4882 -2.5015 0.9560
-10.6880 -2.4216 -2.5013 0.9560
-7.9576 -7.5262 -2.4999 0.9561
-6.4954 -8.8157 -2.4993 0.9561
-5.6842 -9.3575 -2.4990 0.9561
-4.8281 -9.8249 -2.4986 0.9561
-3.9339 -10.2142 -2.4983 0.9561
-3.0087 -10.5222 -2.4979 0.9561
-2.0600 -10.7467 -2.4975 0.9561
-1.0951 -10.8857 -2.4971 0.9561
-0.1219 -10.9384 -2.4968 0.9561
0.8521 -10.9042 -2.4964 0.9561
2.7712 -10.5774 -2.4957 0.9561
7.7695 -7.6833 -2.4940 0.9562
9.0073 -6.1831 -2.4936 0.9562
10.7911 -1.6968 -2.4933 0.9562
10.8994 -0.7296 -2.4933 0.9562
10.9213 0.2434 -2.4933 0.9562
9.8315 2.9301 -2.3415 0.9588
9.5324 3.7938 -2.3417 0.9588
9.1576 4.6276 -2.3419 0.9588
8.1937 6.1792 -2.3423 0.9588
7.6120 6.8847 -2.3426 0.9588
6.9699 7.5358 -2.3429 0.9588
5.5248 8.6545 -2.3435 0.9587
4.7332 9.1131 -2.3438 0.9587
3.0434 9.8109 -2.3445 0.9587
-0.5722 10.2622 -2.3459 0.9587
-1.4835 10.1720 -2.3462 0.9587
-4.9428 9.0194 -2.3475 0.9587
-5.7265 8.5447 -2.3477 0.9587
-7.1522 7.3954 -2.3482 0.9587
-10.9167 0.9755 -2.5016 0.9560
-10.1760 0.0000 -2.5013 0.9590
-10.1353 -0.9057 -2.5012 0.9590
-10.0141 -1.8041 -2.5011 0.9590
-9.8132 -2.6881 -2.5010 0.9590
-9.5344 -3.5506 -2.5008 0.9590
-7.6931 -6.6524 -2.4999 0.9590
-7.0697 -7.3099 -2.4996 0.9590
-4.8854 -8.9147 -2.4987 0.9590
-4.0720 -9.3129 -2.4984 0.9590
-3.2265 -9.6371 -2.4980 0.9590
-0.5656 -10.1429 -2.4970 0.9590
3.8589 -9.3900 -2.4954 0.9590
5.4615 -8.5552 -2.4948 0.9591
6.2006 -8.0344 -2.4946 0.9591
8.1010 -6.1093 -2.4940 0.9591
8.6121 -5.3636 -2.4938 0.9591
9.0549 -4.5756 -2.4937 0.9591
9.7222 -2.8975 -2.4936 0.9591
10.0818 -1.1278 -2.4936 0.9591
9.2422 2.3116 -2.3417 0.9615
9.0003 3.1253 -2.3418 0.9615
8.6870 3.9142 -2.3420 0.9615
7.9723 4.4852 -2.2484 0.9630
7.3463 6.0719 -2.3427 0.9615
6.7774 6.7024 -2.3429 0.9615
6.1547 7.2798 -2.3432 0.9615
5.4830 7.7997 -2.3435 0.9615
4.0143 8.6505 -2.3441 0.9615
2.4175 9.2277 -2.3447 0.9615
1.5869 9.4076 -2.3450 0.9615
-0.1063 9.5425 -2.3457 0.9615
-0.9553 9.4964 -2.3460 0.9614
-1.7970 9.3750 -2.3463 0.9614
-2.6246 9.1790 -2.3466 0.9614
-3.4316 8.9100 -2.3469 0.9614
-4.9581 8.1623 -2.3474 0.9614
-5.6655 7.6893 -2.3477 0.9614
-10.0854 1.3564 -2.5013 0.9589
-10.1660 0.4533 -2.5013 0.9590
-10.1658 -0.4533 -2.5012 0.9590
-9.9235 -2.2483 -2.5010 0.9590
-8.9751 -4.7892 -2.5005 0.9590
-7.9822 -6.3035 -2.5000 0.9590
-6.7366 -7.6172 -2.4995 0.9590
-6.0312 -8.1855 -2.4992 0.9590
-4.4831 -9.1229 -2.4985 0.9590
-3.6529 -9.4844 -2.4982 0.9590
-2.7938 -9.7705 -2.4979 0.9590
-0.1132 -10.1573 -2.4968 0.9590
0.7912 -10.1257 -2.4965 0.9590
1.6891 -10.0138 -2.4962 0.9590
2.5734 -9.8224 -2.4958 0.9590
4.2731 -9.2083 -2.4952 0.9590
5.8368 -8.3030 -2.4947 0.9591
6.5521 -7.7498 -2.4945 0.9591
7.2152 -7.1353 -2.4943 0.9591
8.3649 -5.7421 -2.4939 0.9591
9.2496 -4.1676 -2.4937 0.9591
9.5836 -3.3277 -2.4936 0.9591
10.1221 -0.6776 -2.4936 0.9591
10.0824 1.1279 -2.4937 0.9591
9.1303 2.7211 -2.3418 0.9615
8.8524 3.5232 -2.3419 0.9615
8.4727 4.2814 -2.3334 0.9617
7.0689 6.3935 -2.3428 0.9615
6.4725 6.9980 -2.3430 0.9615
5.8246 7.5472 -2.3433 0.9615
5.1304 8.0367 -2.3436 0.9615
3.6252 8.8213 -2.3442 0.9615
2.8260 9.1102 -2.3446 0.9615
-0.5313 9.5290 -2.3458 0.9615
-1.3775 9.4451 -2.3462 0.9614
-6.0027 7.4297 -2.3478 0.9614
-6.6407 6.8665 -2.3480 0.9614
-7.2261 6.2487 -2.3482 0.9614
-8.6195 5.1054 -2.4624 0.9596
-9.1819 4.3859 -2.5012 0.9590
-9.8146 2.6885 -2.5013 0.9590
-10.1358 0.9058 -2.5013 0.9589
-9.4915 0.0000 -2.5010 0.9615
-9.4535 -0.8447 -2.5009 0.9615
-8.8931 -3.3118 -2.5006 0.9615
-8.5625 -4.0899 -2.5004 0.9615
-8.1638 -4.8354 -2.5002 0.9615
-7.1758 -6.2052 -2.4997 0.9615
-4.5571 -8.3155 -2.4986 0.9615
-3.7984 -8.6871 -2.4983 0.9615
-2.1974 -9.2206 -2.4977 0.9615
-1.3678 -9.3783 -2.4973 0.9616
1.1581 -9.4029 -2.4964 0.9616
1.9901 -9.2613 -2.4961 0.9616
2.8062 -9.0464 -2.4958 0.9616
3.5999 -8.7598 -2.4955 0.9616
5.0949 -7.9811 -2.4950 0.9616
8.7936 -3.4998 -2.4939 0.9616
9.4056 -1.0521 -2.4938 0.9616
9.4620 -0.2108 -2.4939 0.9616
13.7784 3.4462 -3.7425 0.9429
8.3965 2.9156 -2.3421 0.9639
8.1042 3.6516 -2.3422 0.9639
7.7476 4.3587 -2.3424 0.9639
6.8533 5.6644 -2.3428 0.9639
5.7416 6.7912 -2.3433 0.9639
4.4475 7.7034 -2.3439 0.9639
3.7447 8.0696 -2.3441 0.9639
3.0120 8.3720 -2.3444 0.9639
1.4803 8.7756 -2.3450 0.9639
0.6934 8.8737 -2.3453 0.9639
-0.0992 8.9013 -2.3456 0.9638
-1.6762 8.7449 -2.3462 0.9638
-2.4482 8.5620 -2.3465 0.9638
-5.2845 7.1722 -2.3475 0.9638
-5.9024 6.6740 -2.3477 0.9638
-6.4735 6.1226 -2.3479 0.9638
-7.5324 4.9275 -2.3718 0.9635
-8.3734 4.4682 -2.5009 0.9615
-9.4070 1.2651 -2.5011 0.9615
-9.4821 0.4228 -2.5010 0.9615
-9.2560 -2.0971 -2.5008 0.9615
-9.0321 -2.9125 -2.5006 0.9615
-8.7365 -3.7046 -2.5005 0.9615
-8.3715 -4.4671 -2.5003 0.9615
-7.9400 -5.1941 -2.5001 0.9615
-7.4455 -5.8796 -2.4999 0.9615
-6.2837 -7.1051 -2.4993 0.9615
-4.9233 -8.1048 -2.4988 0.9615
-4.1818 -8.5098 -2.4985 0.9615
-2.6061 -9.1141 -2.4978 0.9615
-0.1056 -9.4751 -2.4969 0.9616
0.7381 -9.4457 -2.4965 0.9616
1.5757 -9.3414 -2.4962 0.9616
2.4006 -9.1630 -2.4959 0.9616
3.9863 -8.5902 -2.4954 0.9616
5.4452 -7.7458 -2.4949 0.9616
6.1124 -7.2298 -2.4947 0.9616
6.7311 -6.6565 -2.4945 0.9616
7.2964 -6.0306 -2.4943 0.9616
7.8037 -5.3569 -2.4941 0.9616
8.2491 -4.6409 -2.4940 0.9616
8.9407 -3.1045 -2.4939 0.9616
9.4431 -0.6321 -2.4938 0.9616
9.4061 1.0523 -2.4940 0.9616
8.5178 2.5386 -2.3420 0.9639
7.9338 4.0092 -2.3423 0.9639
7.0984 5.3532 -2.3427 0.9639
6.5945 5.9644 -2.3429 0.9639
5.4337 7.0406 -2.3434 0.9639
3.3817 8.2290 -2.3443 0.9639
2.6362 8.4984 -2.3446 0.9639
0.2974 8.8963 -2.3455 0.9638
-4.9596 7.4002 -2.3474 0.9638
-6.7401 5.8284 -2.3479 0.9638
-7.2325 5.2057 -2.3481 0.9638
-8.5643 4.0909 -2.5009 0.9615
-9.3413 1.6829 -2.5011 0.9615
-9.4540 0.8448 -2.5010 0.9615
-8.0185 -3.8301 -2.5002 0.9637
-4.9445 -7.3777 -2.4988 0.9638
-4.2677 -7.7876 -2.4985 0.9638
-2.0579 -8.6354 -2.4977 0.9638
-1.2810 -8.7832 -2.4973 0.9638
0.2965 -8.8690 -2.4967 0.9638
1.0846 -8.8064 -2.4965 0.9638
1.8639 -8.6739 -2.4962 0.9638
6.0206 -6.5095 -2.4947 0.9638
6.5757 -5.9473 -2.4946 0.9638
8.8094 -0.9854 -2.4941 0.9638
12.9051 3.2278 -3.7428 0.9462
7.8642 2.7308 -2.3422 0.9660
7.5904 3.4201 -2.3424 0.9660
6.8648 4.7125 -2.3427 0.9660
5.3774 6.3605 -2.3434 0.9660
4.7905 6.8146 -2.3437 0.9660
2.8209 7.8408 -2.3445 0.9660
1.3863 8.2187 -2.3450 0.9660
-0.0929 8.3362 -2.3456 0.9660
-0.8346 8.2959 -2.3459 0.9659
-2.9976 7.7832 -2.3467 0.9659
-4.3310 7.1298 -2.3471 0.9659
-4.9488 6.7166 -2.3473 0.9659
-6.0622 5.7337 -2.3477 0.9659
-7.4374 4.8654 -2.5005 0.9637
-8.1829 3.4699 -2.5007 0.9637
-8.8091 1.1847 -2.5008 0.9637
-3.7396 -0.5029 -1.0616 0.9844
-3.7659 -0.8532 -1.0864 0.9841
-8.1814 -3.4692 -2.5003 0.9637
-6.9725 -5.5061 -2.4997 0.9638
-6.4542 -6.1043 -2.4995 0.9638
-5.8847 -6.6538 -2.4992 0.9638
-5.2685 -7.1504 -2.4990 0.9638
-3.9164 -7.9695 -2.4984 0.9638
-2.4407 -8.5356 -2.4978 0.9638
-1.6711 -8.7179 -2.4975 0.9638
-0.8884 -8.8310 -2.4972 0.9638
-0.0989 -8.8739 -2.4969 0.9638
2.2483 -8.5818 -2.4960 0.9638
4.4344 -7.6805 -2.4953 0.9638
8.3741 -2.9078 -2.4941 0.9638
8.8624 0.1975 -2.4941 0.9638
13.0358 2.6497 -3.7427 0.9462
7.7350 3.0785 -2.3423 0.9660
7.4308 3.7550 -2.3425 0.9660
7.0676 4.4018 -2.3427 0.9660
6.1763 5.5862 -2.3431 0.9660
5.6551 6.1143 -2.3433 0.9660
5.0890 6.5941 -2.3435 0.9660
3.8401 7.3936 -2.3441 0.9660
3.1672 7.7069 -2.3443 0.9660
2.4689 7.9591 -2.3446 0.9660
1.7510 8.1483 -2.3449 0.9660
1.0189 8.2728 -2.3452 0.9660
0.2786 8.3316 -2.3455 0.9660
-0.4642 8.3244 -2.3457 0.9659
-1.9332 8.1121 -2.3463 0.9659
-4.0089 7.3153 -2.3470 0.9659
-4.6445 6.9302 -2.3472 0.9659
-5.2433 6.4898 -2.3474 0.9659
-6.7730 4.8749 -2.3479 0.9659
-7.6470 4.5293 -2.5006 0.9637
-8.3294 3.1020 -2.5008 0.9637
-8.5726 2.3483 -2.5008 0.9637
-8.7476 1.5760 -2.5008 0.9637
-8.8531 0.7911 -2.5008 0.9637
-3.4925 -0.9567 -1.0841 0.9850
-7.8261 -2.9145 -2.5002 0.9657
-7.1845 -4.2554 -2.4999 0.9657
-6.7767 -4.8775 -2.4997 0.9657
-6.3150 -5.4609 -2.4995 0.9657
-5.8035 -6.0007 -2.4992 0.9657
-5.2458 -6.4928 -2.4990 0.9657
-4.6466 -6.9333 -2.4987 0.9658
-4.0107 -7.3186 -2.4985 0.9658
-2.6489 -7.9120 -2.4979 0.9658
-1.2039 -8.2544 -2.4974 0.9658
-0.4644 -8.3279 -2.4971 0.9658
3.1687 -7.7106 -2.4957 0.9658
3.8421 -7.3973 -2.4955 0.9658
4.4848 -7.0254 -2.4953 0.9658
5.6585 -6.1179 -2.4949 0.9658
6.6528 -5.0171 -2.4946 0.9658
7.0726 -4.4048 -2.4945 0.9658
7.4363 -3.7577 -2.4944 0.9658
7.9844 -2.3796 -2.4943 0.9658
7.3913 2.5666 -2.3424 0.9679
6.8200 3.8369 -2.3427 0.9679
6.0326 4.9861 -2.3431 0.9678
4.5022 6.4045 -2.3437 0.9678
3.9147 6.7806 -2.3440 0.9678
3.2961 7.1029 -2.3442 0.9678
2.6511 7.3688 -2.3445 0.9678
1.9849 7.5764 -2.3448 0.9678
1.3029 7.7239 -2.3450 0.9678
0.6103 7.8101 -2.3453 0.9678
-0.0873 7.8343 -2.3456 0.9678
-0.7843 7.7963 -2.3458 0.9678
-1.4753 7.6964 -2.3461 0.9678
-2.1546 7.5353 -2.3463 0.9678
-4.0700 6.7002 -2.3470 0.9678
-4.6506 6.3119 -2.3472 0.9678
-5.1943 5.8733 -2.3474 0.9678
-6.9892 4.5721 -2.5004 0.9657
-7.9495 2.5634 -2.5006 0.9657
-8.1462 1.8457 -2.5006 0.9657
-8.2781 1.1133 -2.5006 0.9657
-3.6646 -0.1634 -1.0982 0.9848
-3.5144 -0.4726 -1.0616 0.9853
-3.4642 -0.7849 -1.0634 0.9853
-7.9484 -2.5630 -2.5003 0.9657
-7.6883 -3.2601 -2.5001 0.9657
-6.0653 -5.7365 -2.4993 0.9657
-5.5301 -6.2530 -2.4991 0.9657
-4.3329 -7.1330 -2.4986 0.9658
-2.9989 -7.7865 -2.4981 0.9658
-0.8349 -8.2993 -2.4972 0.9658
-0.0929 -8.3398 -2.4969 0.9658
2.8222 -7.8445 -2.4959 0.9658
3.5089 -7.5614 -2.4956 0.9658
4.1676 -7.2185 -2.4954 0.9658
4.7932 -6.8183 -2.4952 0.9658
5.3806 -6.3641 -2.4950 0.9658
5.9253 -5.8596 -2.4948 0.9658
6.8695 -4.7157 -2.4945 0.9658
7.2617 -4.0853 -2.4944 0.9658
8.0824 -2.0215 -2.4943 0.9658
8.3128 -0.5565 -2.4943 0.9658
8.3295 0.1856 -2.4943 0.9658
11.9822 3.5711 -3.7431 0.9491
7.2698 2.8933 -2.3425 0.9679
5.8047 5.2501 -2.3432 0.9678
5.3149 5.7465 -2.3434 0.9678
4.2127 6.5991 -2.3439 0.9678
3.6090 6.9486 -2.3441 0.9678
0.9575 7.7747 -2.3452 0.9678
0.2618 7.8299 -2.3454 0.9678
-0.4362 7.8230 -2.3457 0.9678
-1.1309 7.7540 -2.3460 0.9678
-3.7674 6.8746 -2.3469 0.9678
-4.3647 6.5125 -2.3471 0.9678
-5.4510 5.6363 -2.3474 0.9678
-6.5968 4.7481 -2.4333 0.9666
-8.0558 2.2068 -2.5006 0.9657
-3.7563 0.0000 -1.1929 0.9844
-3.3867 -0.3026 -1.0798 0.9858
-3.2843 -0.5917 -1.0598 0.9861
-7.1029 -3.3928 -2.4999 0.9675
-6.7723 -4.0112 -2.4997 0.9675
-5.9528 -5.1476 -2.4993 0.9675
-4.9450 -6.1204 -2.4989 0.9675
-3.7807 -6.8989 -2.4984 0.9675
-3.1513 -7.2072 -2.4982 0.9675
-2.4971 -7.4584 -2.4979 0.9675
-1.1349 -7.7813 -2.4974 0.9675
-0.4377 -7.8505 -2.4971 0.9675
0.9609 -7.8021 -2.4966 0.9675
1.6514 -7.6849 -2.4963 0.9675
2.3286 -7.5067 -2.4961 0.9676
2.9872 -7.2689 -2.4958 0.9676
4.2280 -6.6230 -2.4954 0.9676
4.8003 -6.2199 -2.4952 0.9676
5.8263 -5.2696 -2.4949 0.9676
6.2719 -4.7298 -2.4948 0.9676
6.6677 -4.1526 -2.4947 0.9676
7.0106 -3.5426 -2.4946 0.9676
7.8057 -0.8732 -2.4944 0.9676
7.8371 0.5247 -2.4945 0.9676
11.4346 2.8600 -3.7433 0.9517
11.1352 3.8665 -3.7435 0.9517
6.4294 3.6172 -2.3428 0.9695
5.6871 4.7005 -2.3432 0.9695
5.2466 5.1885 -2.3434 0.9695
4.7644 5.6354 -2.3436 0.9695
4.2443 6.0376 -2.3438 0.9695
3.6904 6.3921 -2.3441 0.9695
3.1072 6.6958 -2.3443 0.9695
2.4992 6.9465 -2.3445 0.9695
1.8712 7.1421 -2.3448 0.9695
1.2282 7.2812 -2.3450 0.9695
0.5753 7.3624 -2.3453 0.9695
-0.7393 7.3493 -2.3458 0.9695
-2.0311 7.1031 -2.3463 0.9695
-3.8366 6.3158 -2.3469 0.9695
-6.5881 4.3097 -2.5002 0.9675
-6.9458 3.7064 -2.5003 0.9675
-7.4933 2.4163 -2.5004 0.9675
-7.6787 1.7398 -2.5004 0.9675
-4.3818 0.1954 -1.3930 0.9818
-3.4557 -0.1541 -1.0986 0.9856
-3.2827 -1.0585 -1.0954 0.9856
-7.2472 -3.0730 -2.5000 0.9675
-6.1765 -4.8775 -2.4994 0.9675
-5.2129 -5.8943 -2.4990 0.9675
-4.6672 -6.3344 -2.4988 0.9675
-2.8270 -7.3401 -2.4980 0.9675
-2.1622 -7.5618 -2.4978 0.9675
-0.0876 -7.8618 -2.4970 0.9675
0.6124 -7.8376 -2.4967 0.9675
1.3075 -7.7512 -2.4964 0.9675
3.3079 -7.1283 -2.4957 0.9676
3.9289 -6.8050 -2.4955 0.9676
4.5186 -6.4278 -2.4953 0.9676
5.0725 -5.9997 -2.4951 0.9676
5.5860 -5.5240 -2.4950 0.9676
6.8459 -3.8514 -2.4946 0.9676
7.1613 -3.2267 -2.4945 0.9676
7.4199 -2.5765 -2.4945 0.9676
7.8526 0.1750 -2.4945 0.9676
7.8061 0.8733 -2.4945 0.9676
7.6976 1.5646 -2.4946 0.9676
11.2961 3.3666 -3.7434 0.9517
6.2621 3.9001 -2.3429 0.9695
5.8906 4.4423 -2.3431 0.9695
5.0105 5.4173 -2.3435 0.9695
2.8060 6.8280 -2.3444 0.9695
0.9027 7.3290 -2.3452 0.9695
-0.4112 7.3745 -2.3457 0.9695
-1.7126 7.1862 -2.3461 0.9695
-4.6447 5.7488 -2.3471 0.9695
-5.1382 5.3130 -2.3473 0.9695
-5.5911 4.8348 -2.3474 0.9695
-6.3894 4.5988 -2.5001 0.9675
-6.7736 4.0121 -2.5002 0.9675
-7.3781 2.7477 -2.5004 0.9675
-7.5935 2.0801 -2.5004 0.9675
-7.8420 0.7008 -2.5004 0.9675
-3.6184 0.0000 -1.2157 0.9848
-3.1483 -0.5672 -1.0748 0.9866
-6.9727 -2.5967 -2.4999 0.9691
-6.7136 -3.2068 -2.4998 0.9691
-6.4011 -3.7914 -2.4996 0.9691
-6.0378 -4.3458 -2.4994 0.9691
-5.1708 -5.3466 -2.4990 0.9691
-4.1402 -6.1776 -2.4986 0.9691
-3.5736 -6.5210 -2.4984 0.9691
-1.7233 -7.2312 -2.4976 0.9691
0.2483 -7.4273 -2.4969 0.9691
0.9083 -7.3751 -2.4966 0.9691
1.5610 -7.2642 -2.4964 0.9691
2.2011 -7.0958 -2.4961 0.9691
3.4238 -6.5920 -2.4957 0.9691
5.0427 -5.4520 -2.4952 0.9691
5.5076 -4.9813 -2.4950 0.9691
5.9288 -4.4711 -2.4949 0.9692
6.3029 -3.9255 -2.4948 0.9692
6.6271 -3.3488 -2.4947 0.9692
7.1156 -2.1206 -2.4946 0.9692
7.3788 -0.8254 -2.4946 0.9692
7.4230 -0.1654 -2.4946 0.9692
7.3351 1.1534 -2.4947 0.9692
10.5261 3.6551 -3.7437 0.9541
6.0777 3.4193 -2.3430 0.9710
5.7496 3.9469 -2.3431 0.9710
5.3759 4.4433 -2.3433 0.9710
4.0120 5.7072 -2.3439 0.9710
2.9371 6.3293 -2.3443 0.9710
2.3623 6.5662 -2.3446 0.9710
1.7687 6.7512 -2.3448 0.9710
0.5438 6.9591 -2.3453 0.9710
-0.6988 6.9467 -2.3457 0.9710
-2.5100 6.5171 -2.3464 0.9710
-3.0803 6.2683 -2.3466 0.9710
-3.6263 5.9698 -2.3468 0.9710
-4.1436 5.6237 -2.3470 0.9710
-4.6280 5.2330 -2.3471 0.9710
-5.0757 4.8006 -2.3473 0.9710
-5.8226 4.5981 -2.4927 0.9692
-6.5650 3.5033 -2.5001 0.9691
-7.3753 0.9919 -2.5003 0.9691
-4.1559 0.1853 -1.3977 0.9826
-3.1418 -1.0131 -1.1091 0.9862
-6.8500 -2.9046 -2.4998 0.9691
-6.5639 -3.5026 -2.4997 0.9691
-5.8380 -4.6102 -2.4993 0.9691
-5.4041 -5.1112 -2.4991 0.9691
-4.9273 -5.5714 -2.4989 0.9691
-4.4115 -5.9873 -2.4987 0.9691
-3.8607 -6.3556 -2.4985 0.9691
-2.6722 -6.9381 -2.4980 0.9691
-1.3994 -7.3005 -2.4975 0.9691
-0.0828 -7.4314 -2.4970 0.9691
1.8830 -7.1871 -2.4963 0.9691
4.7949 -5.6714 -2.4953 0.9691
6.1219 -4.2025 -2.4949 0.9692
6.4714 -3.6408 -2.4948 0.9692
6.7696 -3.0502 -2.4947 0.9692
7.2029 -1.8016 -2.4946 0.9692
7.4231 0.1654 -2.4946 0.9692
10.3531 4.1204 -3.7438 0.9541
6.2238 3.1451 -2.3429 0.9710
5.1728 4.6786 -2.3434 0.9710
4.7363 5.1208 -2.3436 0.9710
4.2621 5.5225 -2.3438 0.9710
3.7540 5.8805 -2.3440 0.9710
2.6524 6.4541 -2.3444 0.9710
2.0676 6.6653 -2.3447 0.9710
-0.3887 6.9706 -2.3456 0.9710
-3.3567 6.1251 -2.3467 0.9710
-4.3901 5.4337 -2.3470 0.9710
-4.8566 5.0218 -2.3472 0.9710
-6.0392 4.3468 -2.5000 0.9691
-6.7147 3.2074 -2.5002 0.9691
-7.1772 1.9660 -2.5003 0.9691
-7.3238 1.3195 -2.5003 0.9691
-7.4121 0.6624 -2.5003 0.9691
-3.4902 0.0000 -1.2376 0.9853
-3.0229 -0.8281 -1.1114 0.9868
-3.0314 -1.1289 -1.1470 0.9864
-6.0650 -3.5923 -2.4995 0.9705
-4.8994 -5.0659 -2.4990 0.9705
-4.4287 -5.4814 -2.4987 0.9705
-1.6329 -6.8518 -2.4976 0.9705
-0.3921 -7.0314 -2.4971 0.9706
0.2353 -7.0378 -2.4969 0.9706
0.8607 -6.9882 -2.4967 0.9706
2.0857 -6.7237 -2.4962 0.9706
3.2443 -6.2464 -2.4958 0.9706
3.7871 -5.9323 -2.4956 0.9706
4.7783 -5.1662 -2.4953 0.9706
5.6180 -4.2367 -2.4950 0.9706
6.2797 -3.1733 -2.4949 0.9706
6.5371 -2.6017 -2.4948 0.9706
6.7426 -2.0095 -2.4948 0.9706
6.9920 -0.7822 -2.4947 0.9706
7.0340 -0.1567 -2.4948 0.9706
6.9506 1.0930 -2.4949 0.9706
6.8260 1.7073 -2.4950 0.9706
9.9743 3.4634 -3.7439 0.9562
5.4482 3.7400 -2.3432 0.9723
4.6994 4.6474 -2.3436 0.9723
3.8016 5.4079 -2.3439 0.9723
3.3055 5.7253 -2.3442 0.9723
2.2384 6.2218 -2.3446 0.9723
1.6759 6.3969 -2.3448 0.9723
-0.0737 6.6143 -2.3455 0.9723
-0.6622 6.5821 -2.3457 0.9723
-3.4359 5.6563 -2.3467 0.9723
-3.9260 5.3284 -2.3469 0.9723
-4.8091 4.5485 -2.3471 0.9723
-5.8999 3.8596 -2.4999 0.9705
-6.2202 3.3193 -2.5000 0.9705
-6.7105 2.1639 -2.5001 0.9705
-3.1623 -0.1410 -1.1224 0.9867
-3.0595 -0.4114 -1.0946 0.9870
-3.0241 -0.6852 -1.0995 0.9869
-3.0191 -0.9735 -1.1248 0.9866
-6.4902 -2.7521 -2.4997 0.9705
-5.8987 -3.8587 -2.4994 0.9705
-5.5315 -4.3682 -2.4992 0.9705
-4.6686 -5.2789 -2.4988 0.9705
-4.1799 -5.6730 -2.4986 0.9705
-2.5319 -6.5740 -2.4980 0.9705
-1.9366 -6.7726 -2.4977 0.9705
-0.7049 -7.0073 -2.4972 0.9706
-0.0784 -7.0416 -2.4970 0.9706
0.5486 -7.0199 -2.4968 0.9706
2.9629 -6.3849 -2.4959 0.9706
4.0475 -5.7576 -2.4955 0.9706
4.5436 -5.3741 -2.4954 0.9706
5.0036 -4.9481 -2.4952 0.9706
5.4238 -4.4829 -2.4951 0.9706
5.8011 -3.9822 -2.4950 0.9706
6.4148 -2.8904 -2.4948 0.9706
6.6465 -2.3079 -2.4948 0.9706
7.0200 -0.4699 -2.4948 0.9706
7.0340 0.1568 -2.4948 0.9706
6.9923 0.7822 -2.4948 0.9706
9.8103 3.9045 -3.7440 0.9562
5.6092 3.4934 -2.3431 0.9723
4.9016 4.4333 -2.3435 0.9723
4.4879 4.8523 -2.3437 0.9723
3.5571 5.5721 -2.3440 0.9723
3.0473 5.8671 -2.3443 0.9723
1.9591 6.3156 -2.3447 0.9723
-0.9548 6.5464 -2.3458 0.9723
-1.5338 6.4360 -2.3460 0.9723
-2.1007 6.2745 -2.3462 0.9723
-2.6510 6.0631 -2.3464 0.9723
-4.1596 5.1484 -2.3469 0.9723
-4.6016 4.7580 -2.3471 0.9723
-5.2002 4.4968 -2.4377 0.9712
-6.0661 3.5930 -2.4999 0.9705
-6.3620 3.0389 -2.5000 0.9705
-6.6074 2.4606 -2.5001 0.9705
-6.9391 1.2502 -2.5001 0.9705
-7.0228 0.6276 -2.5001 0.9705
-3.3741 0.0000 -1.2599 0.9857
-2.9455 -0.5306 -1.1176 0.9873
-2.9238 -1.0888 -1.1650 0.9868
-6.0401 -2.8851 -2.4995 0.9718
-5.7590 -3.4111 -2.4994 0.9718
-5.0623 -4.3775 -2.4991 0.9718
-4.6522 -4.8104 -2.4989 0.9718
-4.2053 -5.2049 -2.4987 0.9718
-3.7250 -5.5581 -2.4985 0.9718
-1.5505 -6.5063 -2.4976 0.9718
-0.9652 -6.6179 -2.4974 0.9718
-0.3723 -6.6770 -2.4971 0.9719
0.8173 -6.6360 -2.4967 0.9719
1.4046 -6.5364 -2.4965 0.9719
1.9806 -6.3849 -2.4963 0.9719
4.0832 -5.2907 -2.4956 0.9719
4.9560 -4.4824 -2.4953 0.9719
5.6718 -3.5324 -2.4951 0.9719
6.2079 -2.4707 -2.4949 0.9719
6.5474 -1.3308 -2.4949 0.9719
6.6399 -0.7428 -2.4949 0.9719
6.6797 -0.1488 -2.4949 0.9719
6.4822 1.6213 -2.4951 0.9719
5.4690 3.0768 -2.3432 0.9736
4.4627 4.4132 -2.3436 0.9736
3.6100 5.1354 -2.3440 0.9736
2.6428 5.6951 -2.3444 0.9735
2.1256 5.9082 -2.3446 0.9735
1.0446 6.1926 -2.3450 0.9735
-0.0700 6.2808 -2.3455 0.9735
-1.1827 6.1700 -2.3459 0.9735
-1.7273 6.0407 -2.3461 0.9735
-2.7714 5.6396 -2.3464 0.9735
-3.2626 5.3710 -2.3466 0.9735
-3.7279 5.0596 -2.3468 0.9735
-4.1637 4.7080 -2.3469 0.9735
-4.6606 4.4080 -2.3954 0.9730
-6.5295 1.4794 -2.5000 0.9718
-6.6353 0.8924 -2.5000 0.9718
-3.0832 -0.1375 -1.1525 0.9869
-2.9106 -0.9385 -1.1419 0.9870
-5.9054 -3.1512 -2.4995 0.9718
-5.6011 -3.6641 -2.4993 0.9718
-5.2525 -4.1478 -2.4991 0.9718
-3.9691 -5.3869 -2.4986 0.9718
-2.9506 -6.0043 -2.4982 0.9718
-2.4043 -6.2425 -2.4979 0.9718
-1.8389 -6.4311 -2.4977 0.9718
-0.0745 -6.6867 -2.4970 0.9719
0.5209 -6.6661 -2.4968 0.9719
1.6943 -6.4671 -2.4964 0.9719
2.2630 -6.2901 -2.4962 0.9719
2.8137 -6.0632 -2.4960 0.9719
3.8436 -5.4675 -2.4956 0.9719
4.7515 -4.6989 -2.4953 0.9719
5.1506 -4.2571 -2.4952 0.9719
5.5089 -3.7816 -2.4951 0.9719
6.3117 -2.1916 -2.4949 0.9719
6.6002 -1.0378 -2.4949 0.9719
6.6664 -0.4462 -2.4949 0.9719
6.6798 0.1489 -2.4949 0.9719
6.5479 1.3310 -2.4951 0.9719
9.3162 3.7078 -3.7442 0.9581
5.6005 2.8301 -2.3431 0.9736
5.3266 3.3175 -2.3432 0.9736
5.0105 3.7786 -2.3434 0.9736
4.6547 4.2099 -2.3435 0.9736
3.8351 4.9693 -2.3439 0.9736
3.3778 5.2913 -2.3441 0.9736
1.8604 5.9973 -2.3447 0.9735
1.3193 6.1396 -2.3449 0.9735
0.7677 6.2332 -2.3451 0.9735
-0.9066 6.2163 -2.3458 0.9735
-1.9947 5.9580 -2.3462 0.9735
-3.9497 4.8887 -2.3468 0.9735
-5.0634 4.3786 -2.4996 0.9718
-5.4333 3.9107 -2.4997 0.9718
-6.0410 2.8855 -2.4999 0.9718
-6.2740 2.3365 -2.4999 0.9718
-6.4571 1.7688 -2.5000 0.9718
-6.5889 1.1871 -2.5000 0.9718
-2.9005 -0.2592 -1.1429 0.9876
-2.8528 -1.0624 -1.1947 0.9870
-5.7465 -2.7449 -2.4994 0.9730
-4.0010 -4.9520 -2.4986 0.9730
-3.5441 -5.2881 -2.4984 0.9730
-1.4752 -6.1904 -2.4976 0.9730
-0.3542 -6.3528 -2.4972 0.9730
3.4218 -5.3601 -2.4958 0.9730
4.3174 -4.6679 -2.4955 0.9730
5.6741 -2.8672 -2.4951 0.9731
5.9067 -2.3508 -2.4951 0.9731
6.0924 -1.8157 -2.4950 0.9731
6.2298 -1.2662 -2.4950 0.9731
6.3557 -0.1416 -2.4950 0.9731
6.3431 0.4247 -2.4951 0.9731
6.2803 0.9875 -2.4951 0.9731
9.0123 3.1294 -3.7442 0.9598
5.2036 2.9275 -2.3433 0.9747
4.6026 3.8042 -2.3435 0.9747
4.2461 4.1991 -2.3437 0.9747
3.8557 4.5606 -2.3439 0.9747
2.9865 5.1728 -2.3442 0.9747
2.5145 5.4186 -2.3444 0.9747
0.9938 5.8919 -2.3450 0.9747
0.4655 5.9574 -2.3452 0.9746
-0.0666 5.9758 -2.3454 0.9746
-0.5982 5.9466 -2.3456 0.9746
-2.6367 5.3656 -2.3464 0.9746
-3.1040 5.1100 -2.3465 0.9746
-3.5467 4.8137 -2.3467 0.9746
-3.9614 4.4792 -2.3468 0.9746
-4.6269 4.3761 -2.4995 0.9730
-4.9982 3.9471 -2.4996 0.9730
-5.8640 2.4866 -2.4998 0.9730
-6.3127 0.8490 -2.4999 0.9730
-3.0071 -0.1341 -1.1814 0.9871
-2.8734 -0.3864 -1.1379 0.9876
-5.6184 -2.9980 -2.4994 0.9730
-5.3289 -3.4860 -2.4992 0.9730
-4.9972 -3.9462 -2.4991 0.9730
-4.6258 -4.3750 -2.4989 0.9730
-3.7763 -5.1252 -2.4985 0.9730
-2.8073 -5.7126 -2.4981 0.9730
-1.7496 -6.1188 -2.4977 0.9730
-1.1980 -6.2496 -2.4975 0.9730
-0.6369 -6.3310 -2.4973 0.9730
2.1532 -5.9847 -2.4962 0.9730
2.6771 -5.7689 -2.4961 0.9730
3.6570 -5.2022 -2.4957 0.9730
4.5210 -4.4709 -2.4954 0.9730
5.2416 -3.5981 -2.4952 0.9731
5.7962 -2.6116 -2.4951 0.9731
6.1672 -1.5425 -2.4950 0.9731
6.3557 0.1417 -2.4950 0.9731
6.2302 1.2664 -2.4952 0.9731
8.5154 4.3030 -3.7445 0.9598
4.7674 3.5953 -2.3435 0.9747
4.4287 4.0056 -2.3436 0.9747
3.6489 4.7280 -2.3440 0.9747
3.2139 5.0344 -2.3441 0.9747
0.7304 5.9305 -2.3451 0.9747
0.1997 5.9725 -2.3453 0.9746
-0.8626 5.9143 -2.3457 0.9746
-1.3857 5.8145 -2.3459 0.9746
-1.8978 5.6686 -2.3461 0.9746
-2.3950 5.4775 -2.3463 0.9746
-2.8732 5.2430 -2.3464 0.9746
-3.3287 4.9668 -2.3466 0.9746
-3.7578 4.6511 -2.3467 0.9746
-4.8173 4.1657 -2.4995 0.9730
-5.1692 3.7206 -2.4996 0.9730
-5.4800 3.2458 -2.4997 0.9730
-5.9690 2.2229 -2.4998 0.9730
-3.1614 0.0000 -1.3018 0.9864
-2.8130 -0.2513 -1.1629 0.9879
-2.7831 -0.5014 -1.1645 0.9878
-2.7842 -1.0368 -1.2234 0.9872
-5.4768 -2.6160 -2.4993 0.9741
-5.2220 -3.0929 -2.4992 0.9741
-4.9257 -3.5453 -2.4991 0.9741
-4.5903 -3.9694 -2.4989 0.9741
-3.8133 -4.7197 -2.4986 0.9741
-2.9156 -5.3202 -2.4982 0.9741
-2.4303 -5.5582 -2.4980 0.9741
-1.4061 -5.9001 -2.4976 0.9741
-0.8753 -6.0013 -2.4974 0.9741
-0.3376 -6.0549 -2.4972 0.9741
0.2026 -6.0604 -2.4970 0.9741
1.2738 -5.9275 -2.4966 0.9741
3.7030 -4.7980 -2.4957 0.9741
4.4946 -4.0651 -2.4955 0.9741
5.1437 -3.2035 -2.4953 0.9741
5.4083 -2.7329 -2.4952 0.9741
5.6300 -2.2406 -2.4952 0.9741
5.8070 -1.7306 -2.4951 0.9741
5.9379 -1.2069 -2.4951 0.9741
5.7247 1.9879 -2.4954 0.9741
2.8465 4.9303 -2.3443 0.9757
1.9276 5.3578 -2.3446 0.9757
0.9472 5.6155 -2.3450 0.9757
-5.0797 3.3231 -2.4996 0.9741
-6.0164 0.8091 -2.4997 0.9741
-2.9337 -0.1308 -1.2092 0.9874
-2.7756 -0.6288 -1.1719 0.9878
-2.8016 -1.1879 -1.2531 0.9869
-5.3547 -2.8573 -2.4993 0.9741
-4.7627 -3.7611 -2.4990 0.9741
-4.0199 -4.5453 -2.4987 0.9741
-3.5991 -4.8847 -2.4985 0.9741
-3.1498 -5.1853 -2.4983 0.9741
-1.6676 -5.8318 -2.4977 0.9741
-1.1418 -5.9566 -2.4975 0.9741
-0.0676 -6.0637 -2.4971 0.9741
0.4724 -6.0451 -2.4969 0.9741
1.5365 -5.8647 -2.4965 0.9741
2.0522 -5.7042 -2.4963 0.9741
3.0307 -5.2493 -2.4960 0.9741
3.4857 -4.9584 -2.4958 0.9741
3.9129 -4.6282 -2.4957 0.9741
4.3091 -4.2613 -2.4955 0.9741
4.9960 -3.4295 -2.4953 0.9741
5.7241 -1.9876 -2.4951 0.9741
5.9858 -0.9412 -2.4951 0.9741
6.0458 -0.4047 -2.4951 0.9741
8.1163 4.1014 -3.7446 0.9614
4.2212 3.8179 -2.3437 0.9757
3.8649 4.1787 -2.3438 0.9757
3.0632 4.7984 -2.3442 0.9757
2.6242 5.0524 -2.3444 0.9757
2.1642 5.2664 -2.3446 0.9757
1.1964 5.5675 -2.3449 0.9757
-1.3207 5.5417 -2.3459 0.9757
-1.8088 5.4026 -2.3461 0.9757
-2.2826 5.2206 -2.3462 0.9757
-2.7384 4.9970 -2.3464 0.9757
-5.9744 1.0763 -2.4997 0.9741
-3.9772 0.3554 -1.6443 0.9829
-3.0794 0.0000 -1.3283 0.9867
-2.7092 -0.7421 -1.2117 0.9878
-2.7209 -1.0132 -1.2524 0.9874
-2.7299 -1.3040 -1.3050 0.9869
-4.7020 -3.3843 -2.4990 0.9751
-4.0270 -4.1638 -2.4987 0.9751
-3.6401 -4.5054 -2.4985 0.9751
-2.7832 -5.0787 -2.4982 0.9751
-1.8384 -5.4909 -2.4978 0.9751
-0.8355 -5.7289 -2.4974 0.9751
1.2160 -5.6586 -2.4966 0.9751
2.1997 -5.3526 -2.4963 0.9751
2.6672 -5.1352 -2.4961 0.9751
3.1135 -4.8771 -2.4959 0.9751
3.9285 -4.2474 -2.4957 0.9751
4.2907 -3.8807 -2.4956 0.9751
4.6189 -3.4833 -2.4955 0.9751
4.9105 -3.0582 -2.4954 0.9751
5.1630 -2.6090 -2.4953 0.9751
7.9148 3.5662 -3.7447 0.9629
7.5663 4.2568 -3.7449 0.9629
3.5083 4.1496 -2.3440 0.9766
0.4235 5.4203 -2.3452 0.9766
-0.0606 5.4369 -2.3454 0.9766
-2.3989 4.8817 -2.3462 0.9766
-3.2268 4.3795 -2.3465 0.9766
-4.2095 3.9813 -2.4993 0.9751
-4.5473 3.5910 -2.4994 0.9751
-4.8490 3.1721 -2.4995 0.9751
-5.5151 1.7784 -2.4996 0.9751
-5.7431 0.7724 -2.4996 0.9751
-3.3811 0.1508 -1.4599 0.9854
-2.8614 -0.1276 -1.2355 0.9876
-2.7402 -0.3685 -1.1926 0.9880
-2.7334 -1.1590 -1.2807 0.9871
-5.1115 -2.7276 -2.4992 0.9751
-4.2086 -3.9804 -2.4988 0.9751
-3.8374 -4.3389 -2.4986 0.9751
-2.5541 -5.1974 -2.4981 0.9751
-2.0812 -5.4037 -2.4979 0.9751
-1.0900 -5.6862 -2.4975 0.9751
-0.0645 -5.7885 -2.4971 0.9751
2.4359 -5.2491 -2.4962 0.9751
2.8932 -5.0112 -2.4960 0.9751
3.7355 -4.4183 -2.4957 0.9751
4.4593 -3.6856 -2.4955 0.9751
5.0418 -2.8364 -2.4954 0.9751
5.2741 -2.3764 -2.4953 0.9751
5.4646 -1.8975 -2.4953 0.9751
5.6117 -1.4036 -2.4952 0.9751
5.7144 -0.8985 -2.4952 0.9751
5.7717 -0.3863 -2.4952 0.9751
5.7832 0.1289 -2.4953 0.9751
5.7489 0.6431 -2.4953 0.9751
5.6690 1.1523 -2.4954 0.9751
4.3379 3.2714 -2.3436 0.9766
4.0297 3.6447 -2.3437 0.9766
3.3201 4.3020 -2.3441 0.9766
2.5051 4.8232 -2.3444 0.9766
2.0660 5.0274 -2.3446 0.9766
1.6105 5.1917 -2.3448 0.9766
0.6646 5.3959 -2.3451 0.9766
-0.3027 5.4291 -2.3455 0.9766
-0.7848 5.3810 -2.3457 0.9766
-2.6141 4.7701 -2.3463 0.9766
-3.0284 4.5188 -2.3465 0.9766
-3.4189 4.2315 -2.3466 0.9766
-4.0278 4.1647 -2.4992 0.9751
-4.7028 3.3849 -2.4994 0.9751
-4.9856 2.9530 -2.4995 0.9751
-5.4304 2.0223 -2.4996 0.9751
-5.7030 1.0275 -2.4996 0.9751
-2.7005 -0.2413 -1.2234 0.9882
-2.6546 -0.7271 -1.2419 0.9880
-2.6607 -0.9908 -1.2811 0.9876
-4.4949 -3.2353 -2.4989 0.9760
-4.1889 -3.6223 -2.4988 0.9760
-3.8496 -3.9805 -2.4986 0.9760
-3.4799 -4.3070 -2.4985 0.9760
-2.6607 -4.8551 -2.4981 0.9760
-2.2178 -5.0723 -2.4979 0.9760
-1.7574 -5.2492 -2.4978 0.9760
0.1849 -5.5308 -2.4970 0.9760
0.6764 -5.4920 -2.4968 0.9760
1.1625 -5.4096 -2.4966 0.9760
1.6392 -5.2843 -2.4965 0.9760
2.1029 -5.1171 -2.4963 0.9760
2.5499 -4.9094 -2.4962 0.9760
4.6945 -2.9237 -2.4955 0.9760
5.1383 -2.0450 -2.4954 0.9760
5.2999 -1.5795 -2.4953 0.9760
5.5289 -0.1232 -2.4953 0.9760
5.4633 0.8591 -2.4954 0.9760
5.3653 1.3420 -2.4955 0.9760
3.3540 3.9671 -2.3440 0.9775
2.9878 4.2502 -2.3442 0.9775
2.5978 4.4995 -2.3443 0.9775
2.1872 4.7132 -2.3445 0.9775
0.8644 5.1248 -2.3450 0.9775
-0.5203 5.1722 -2.3456 0.9774
-1.4293 4.9987 -2.3459 0.9774
-1.8687 4.8520 -2.3460 0.9774
-2.2933 4.6667 -2.3462 0.9774
-2.6997 4.4443 -2.3463 0.9774
-3.0846 4.1866 -2.3465 0.9774
-3.6692 4.1488 -2.4991 0.9760
-5.2722 1.7001 -2.4995 0.9760
-3.2609 0.1454 -1.4728 0.9858
-2.7833 -0.1241 -1.2571 0.9878
-2.6870 -0.3614 -1.2234 0.9882
-2.6675 -1.1311 -1.3074 0.9874
-4.6347 -3.0318 -2.4990 0.9760
-4.0233 -3.8052 -2.4987 0.9760
-3.6684 -4.1479 -2.4985 0.9760
-3.2844 -4.4576 -2.4984 0.9760
-2.8744 -4.7320 -2.4982 0.9760
-1.5218 -5.3221 -2.4977 0.9760
-1.0420 -5.4360 -2.4975 0.9760
-0.0616 -5.5338 -2.4971 0.9760
0.4311 -5.5169 -2.4969 0.9760
2.3287 -5.0182 -2.4962 0.9760
4.8200 -2.7117 -2.4954 0.9760
5.2243 -1.8140 -2.4953 0.9760
5.3649 -1.3418 -2.4953 0.9760
5.5179 -0.3694 -2.4953 0.9760
5.5289 0.1233 -2.4954 0.9760
5.4961 0.6149 -2.4954 0.9760
5.3003 1.5797 -2.4955 0.9760
7.4075 3.7432 -3.7449 0.9642
4.1470 3.1275 -2.3437 0.9775
3.8524 3.4843 -2.3438 0.9775
2.3949 4.6110 -2.3444 0.9775
0.1737 5.1948 -2.3453 0.9774
-0.2894 5.1901 -2.3455 0.9774
-0.7502 5.1441 -2.3456 0.9774
-1.2052 5.0573 -2.3458 0.9774
-3.3707 4.1721 -2.4201 0.9767
-3.8504 3.9813 -2.4991 0.9760
-4.1897 3.6230 -2.4992 0.9760
-4.4957 3.2358 -2.4993 0.9760
-4.9984 2.3876 -2.4995 0.9760
-5.1912 1.9333 -2.4995 0.9760
-5.4518 0.9822 -2.4995 0.9760
-3.7666 0.3366 -1.7063 0.9835
-2.6212 -0.4722 -1.2555 0.9883
-2.6016 -0.7126 -1.2715 0.9881
-2.6023 -0.9691 -1.3090 0.9878
-2.6052 -1.2444 -1.3609 0.9873
-2.6596 -1.5753 -1.4571 0.9864
-4.0097 -3.4673 -2.4987 0.9768
-2.9506 -4.4026 -2.4983 0.9768
-2.1230 -4.8554 -2.4979 0.9768
-1.2283 -5.1541 -2.4976 0.9768
-0.7646 -5.2426 -2.4974 0.9768
0.1770 -5.2943 -2.4970 0.9768
1.1128 -5.1783 -2.4967 0.9769
2.4409 -4.6995 -2.4962 0.9769
2.8493 -4.4633 -2.4961 0.9769
3.2351 -4.1918 -2.4959 0.9769
4.2271 -3.1878 -2.4956 0.9769
4.7251 -2.3877 -2.4955 0.9769
5.0734 -1.5120 -2.4954 0.9769
5.1878 -1.0544 -2.4954 0.9769
5.2926 -0.1179 -2.4954 0.9769
5.2822 0.3536 -2.4955 0.9769
5.1360 1.2846 -2.4956 0.9769
5.0015 1.7367 -2.4957 0.9769
4.8272 2.1751 -2.4958 0.9769
3.8326 3.1677 -2.3438 0.9783
3.5356 3.4965 -2.3439 0.9783
2.4867 4.3072 -2.3444 0.9782
2.0936 4.5117 -2.3445 0.9782
1.6839 4.6804 -2.3447 0.9782
-0.4981 4.9510 -2.3455 0.9782
-1.7887 4.6444 -2.3460 0.9782
-2.5842 4.2541 -2.3463 0.9782
-3.0306 4.1133 -2.4083 0.9777
-3.8518 3.6431 -2.4991 0.9768
-4.4370 2.9026 -2.4993 0.9768
-4.6779 2.4962 -2.4994 0.9768
-4.8816 2.0700 -2.4994 0.9768
-5.0465 1.6273 -2.4994 0.9768
-5.2551 0.7068 -2.4995 0.9768
-2.7082 -0.1207 -1.2778 0.9881
-2.6352 -0.3544 -1.2533 0.9883
-2.5994 -0.8382 -1.2874 0.9880
-2.5902 -1.3822 -1.3839 0.9871
-4.4364 -2.9021 -2.4989 0.9768
-4.1603 -3.2853 -2.4988 0.9768
-3.8511 -3.6423 -2.4986 0.9768
-3.1439 -4.2669 -2.4983 0.9768
-2.3372 -4.7561 -2.4980 0.9768
-1.4567 -5.0945 -2.4977 0.9768
-0.9974 -5.2035 -2.4975 0.9768
-0.5303 -5.2712 -2.4973 0.9768
-0.0590 -5.2971 -2.4971 0.9768
0.4127 -5.2810 -2.4969 0.9768
1.7929 -4.9833 -2.4964 0.9769
2.2292 -4.8037 -2.4963 0.9769
2.6477 -4.5860 -2.4961 0.9769
3.0452 -4.3319 -2.4960 0.9769
3.7647 -3.7229 -2.4958 0.9769
4.0809 -3.3729 -2.4957 0.9769
5.0010 -1.7365 -2.4954 0.9769
5.1357 -1.2845 -2.4954 0.9769
5.2296 -0.8223 -2.4954 0.9769
5.2821 -0.3536 -2.4954 0.9769
5.2612 0.5886 -2.4955 0.9769
5.1881 1.0545 -2.4955 0.9769
5.0738 1.5122 -2.4956 0.9769
6.7441 4.2003 -3.7452 0.9655
6.3438 4.7841 -3.7454 0.9655
3.6878 3.3354 -2.3439 0.9783
3.3765 3.6506 -2.3440 0.9783
3.0383 3.9369 -2.3441 0.9782
1.4738 4.7510 -2.3448 0.9782
1.0451 4.8637 -2.3449 0.9782
0.1663 4.9726 -2.3453 0.9782
-0.2770 4.9680 -2.3455 0.9782
-0.7181 4.9240 -2.3456 0.9782
-2.7711 4.1349 -2.3463 0.9782
-3.3317 4.1237 -2.4990 0.9768
-4.3033 3.0973 -2.4992 0.9768
-3.7077 0.3313 -1.7547 0.9837
-2.8280 0.0000 -1.3909 0.9875
-2.5698 -0.4629 -1.2843 0.9884
-2.5499 -0.6985 -1.3004 0.9883
-2.5453 -0.9479 -1.3359 0.9880
-4.3713 -2.5891 -2.4989 0.9776
-4.1234 -2.9678 -2.4988 0.9776
-3.5314 -3.6515 -2.4985 0.9776
-3.1922 -3.9511 -2.4984 0.9776
-2.8277 -4.2193 -2.4982 0.9776
-2.4408 -4.4539 -2.4981 0.9776
-2.0346 -4.6532 -2.4979 0.9776
0.1696 -5.0740 -2.4970 0.9776
1.0664 -4.9628 -2.4967 0.9776
1.5038 -4.8479 -2.4966 0.9776
1.9292 -4.6945 -2.4964 0.9776
2.3393 -4.5039 -2.4963 0.9776
3.7633 -3.4037 -2.4958 0.9776
4.5285 -2.2883 -2.4956 0.9776
4.7141 -1.8762 -2.4955 0.9776
4.8623 -1.4491 -2.4955 0.9776
4.9720 -1.0106 -2.4955 0.9776
5.0422 -0.5640 -2.4955 0.9776
5.0724 -0.1130 -2.4955 0.9776
5.0624 0.3389 -2.4955 0.9776
4.9223 1.2312 -2.4957 0.9776
4.6264 2.0846 -2.4958 0.9776
5.8697 4.8515 -3.7455 0.9666
3.3885 3.3510 -2.3440 0.9790
3.0770 3.6395 -2.3441 0.9790
1.6138 4.4856 -2.3447 0.9790
0.7930 4.7013 -2.3450 0.9790
0.3714 4.7536 -2.3452 0.9790
-0.0531 4.7681 -2.3454 0.9790
-0.8978 4.6838 -2.3457 0.9790
-1.7142 4.4510 -2.3460 0.9790
-2.1037 4.2810 -2.3461 0.9790
-3.0136 4.0901 -2.4988 0.9776
-3.3658 3.8058 -2.4989 0.9776
-4.2522 2.7817 -2.4992 0.9776
-4.4830 2.3922 -2.4993 0.9776
-4.8363 1.5595 -2.4994 0.9776
-4.9559 1.1229 -2.4994 0.9776
-5.0362 0.6773 -2.4994 0.9776
-4.2516 -2.7812 -2.4989 0.9776
-3.9870 -3.1485 -2.4987 0.9776
-3.6907 -3.4906 -2.4986 0.9776
-2.6369 -4.3409 -2.4981 0.9776
-2.2399 -4.5580 -2.4980 0.9776
-1.8252 -4.7390 -2.4978 0.9776
-1.3961 -4.8823 -2.4976 0.9776
-0.0566 -5.0766 -2.4971 0.9776
0.3955 -5.0612 -2.4970 0.9776
0.8443 -5.0055 -2.4968 0.9776
1.2864 -4.9102 -2.4966 0.9776
1.7182 -4.7759 -2.4965 0.9776
3.2763 -3.8752 -2.4959 0.9776
3.6080 -3.5681 -2.4958 0.9776
4.1832 -2.8716 -2.4957 0.9776
4.9220 -1.2311 -2.4955 0.9776
5.0623 -0.3388 -2.4955 0.9776
5.0423 0.5641 -2.4956 0.9776
4.8627 1.4493 -2.4957 0.9776
6.4635 4.0256 -3.7453 0.9666
2.5647 4.0175 -2.3443 0.9790
1.0016 4.6612 -2.3450 0.9790
0.5828 4.7322 -2.3451 0.9790
0.1593 4.7656 -2.3453 0.9790
-0.2655 4.7612 -2.3454 0.9790
-0.6882 4.7190 -2.3456 0.9790
-1.1056 4.6393 -2.3457 0.9790
-1.5142 4.5228 -2.3459 0.9790
-1.9109 4.3703 -2.3460 0.9790
-2.2924 4.1831 -2.3462 0.9790
-3.1929 3.9519 -2.4989 0.9776
-4.1240 2.9683 -2.4992 0.9776
-4.5852 2.1902 -2.4993 0.9776
-4.7620 1.7734 -2.4993 0.9776
-2.7481 0.0000 -1.4089 0.9877
-2.5372 -0.2267 -1.3059 0.9886
-2.4994 -0.6847 -1.3286 0.9884
-2.4879 -1.1884 -1.4135 0.9877
-3.9558 -2.8472 -2.4987 0.9783
-3.3880 -3.5031 -2.4985 0.9783
-3.0626 -3.7906 -2.4983 0.9783
-2.7129 -4.0479 -2.4982 0.9783
-1.9519 -4.4642 -2.4979 0.9783
-1.1293 -4.7389 -2.4976 0.9783
-0.2712 -4.8634 -2.4972 0.9783
0.5954 -4.8338 -2.4969 0.9783
1.0232 -4.7613 -2.4967 0.9783
1.4428 -4.6511 -2.4966 0.9783
1.8509 -4.5040 -2.4964 0.9783
2.2443 -4.3211 -2.4963 0.9784
2.6199 -4.1040 -2.4962 0.9784
2.9747 -3.8543 -2.4961 0.9784
3.3058 -3.5741 -2.4960 0.9784
3.6106 -3.2656 -2.4959 0.9784
4.5228 -1.8000 -2.4956 0.9784
4.6651 -1.3903 -2.4956 0.9784
4.8570 0.3252 -2.4956 0.9784
4.7226 1.1812 -2.4957 0.9784
4.4386 2.0000 -2.4959 0.9784
6.3670 3.5820 -3.7453 0.9677
6.0232 4.1347 -3.7454 0.9677
5.6315 4.6546 -3.7456 0.9677
3.2510 3.2150 -2.3440 0.9797
2.6297 3.7409 -2.3443 0.9797
1.9250 4.1484 -2.3446 0.9797
1.1592 4.4246 -2.3449 0.9797
0.3564 4.5606 -2.3452 0.9796
-0.0510 4.5745 -2.3453 0.9796
-1.2579 4.3993 -2.3458 0.9796
-2.4341 4.0071 -2.4037 0.9791
-2.8912 3.9240 -2.4988 0.9783
-3.2291 3.6512 -2.4989 0.9783
-3.5414 3.3494 -2.4990 0.9783
-4.0794 2.6687 -2.4991 0.9783
-4.4881 1.9031 -2.4992 0.9783
-4.6398 1.4962 -2.4993 0.9783
-2.4879 -1.0549 -1.3854 0.9879
-2.4717 -1.3189 -1.4363 0.9875
-4.0788 -2.6682 -2.4988 0.9783
-3.5408 -3.3488 -2.4985 0.9783
-3.2285 -3.6505 -2.4984 0.9783
-2.8906 -3.9231 -2.4983 0.9783
-2.5298 -4.1646 -2.4981 0.9783
-0.9171 -4.7844 -2.4975 0.9783
-0.4876 -4.8467 -2.4973 0.9783
-0.0543 -4.8705 -2.4971 0.9783
1.2342 -4.7109 -2.4967 0.9783
