ply
format ascii 1.0
element vertex 1588
property float32 x
property float32 y
property float32 z
property float32 I
end_header
13.1796 2.0725 -2.3525 0.9473
12.9418 3.2370 -2.3523 0.9473
12.1604 5.4792 -2.3518 0.9473
8.4121 4.7326 -1.7019 0.9616
8.6047 10.1778 -2.3500 0.9473
6.6614 11.5379 -2.3492 0.9473
3.3744 12.8801 -2.3478 0.9474
-1.3317 13.2373 -2.3459 0.9474
-3.6562 12.7867 -2.3450 0.9474
-4.7789 12.4083 -2.3446 0.9474
-5.8634 11.9317 -2.3442 0.9474
-7.8837 10.6998 -2.3435 0.9474
-10.4268 8.2340 -2.3427 0.9475
-11.1174 7.2727 -2.3425 0.9475
-11.7198 6.2539 -2.3423 0.9475
-13.7953 3.1256 -2.4941 0.9442
-14.0188 1.8854 -2.4942 0.9442
-14.1313 0.6301 -2.4942 0.9442
-13.0277 -5.5242 -2.4951 0.9441
-12.4858 -6.6626 -2.4954 0.9441
-11.1099 -8.7733 -2.4961 0.9441
-9.3814 -10.6077 -2.4970 0.9441
-7.3547 -12.1074 -2.4979 0.9441
-6.2491 -12.7164 -2.4984 0.9441
-2.7095 -7.0352 -1.3293 0.9698
-3.8969 -13.6284 -2.4994 0.9441
-2.6690 -13.9240 -2.4999 0.9440
-1.4194 -14.1091 -2.5004 0.9440
-0.1580 -14.1823 -2.5009 0.9440
2.3600 -13.9911 -2.5019 0.9440
3.5966 -13.7281 -2.5023 0.9440
4.8051 -13.3559 -2.5028 0.9440
8.1668 -11.6174 -2.5040 0.9440
10.0998 -9.9878 -2.5046 0.9439
12.3829 -6.9665 -2.5053 0.9439
13.7850 -3.4478 -2.5055 0.9439
14.1777 -0.9491 -2.5055 0.9439
13.2593 1.4833 -2.3526 0.9473
13.0737 2.6574 -2.3524 0.9473
11.3194 7.0498 -2.3513 0.9473
9.8871 8.9424 -2.3506 0.9473
9.0504 9.7852 -2.3502 0.9473
8.1421 10.5500 -2.3498 0.9473
7.1694 11.2307 -2.3494 0.9473
6.1402 11.8220 -2.3489 0.9473
0.4447 13.3006 -2.3466 0.9474
-0.7408 13.2848 -2.3461 0.9474
-1.9199 13.1636 -2.3456 0.9474
-3.0833 12.9380 -2.3452 0.9474
-4.2218 12.6099 -2.3448 0.9474
-7.3997 11.0412 -2.3436 0.9474
-10.0502 8.6907 -2.3428 0.9475
-12.0284 5.7455 -2.3505 0.9473
-13.2560 4.9366 -2.4942 0.9442
-13.6425 3.7371 -2.4942 0.9442
-13.9209 2.5080 -2.4941 0.9442
-14.0890 1.2590 -2.4942 0.9442
-12.8916 0.0000 -2.4947 0.9488
-12.8410 -1.1474 -2.4949 0.9488
-12.6886 -2.2860 -2.4950 0.9488
-12.4357 -3.4065 -2.4952 0.9488
-9.7587 -8.4387 -2.4966 0.9488
-6.2042 -11.3212 -2.4983 0.9488
-4.1001 -12.2463 -2.4992 0.9487
-1.8645 -12.7839 -2.5001 0.9487
-0.7194 -12.9015 -2.5006 0.9487
1.5801 -12.8293 -2.5015 0.9487
2.7162 -12.6400 -2.5019 0.9487
4.9159 -11.9620 -2.5027 0.9487
8.7861 -9.4994 -2.5040 0.9486
10.3331 -7.7925 -2.5045 0.9486
11.5526 -5.8378 -2.5049 0.9486
12.0065 1.8879 -2.3520 0.9517
11.4797 3.9862 -2.3517 0.9517
11.0783 4.9916 -2.3514 0.9517
10.0153 6.8751 -2.3508 0.9517
8.6351 8.5395 -2.3502 0.9517
6.9820 9.9321 -2.3494 0.9517
5.1086 11.0087 -2.3486 0.9518
0.9448 12.0905 -2.3469 0.9518
-0.1351 12.1244 -2.3464 0.9518
-1.2134 12.0621 -2.3460 0.9518
-2.2818 11.9042 -2.3456 0.9518
-4.3549 11.3072 -2.3448 0.9518
-6.2889 10.3529 -2.3441 0.9518
-7.1844 9.7508 -2.3438 0.9519
-9.5023 7.5039 -2.3431 0.9519
-12.2691 3.9563 -2.4947 0.9488
-12.7761 1.7183 -2.4947 0.9488
-12.7775 -1.7184 -2.4949 0.9488
-12.5746 -2.8490 -2.4951 0.9488
-12.2722 -3.9572 -2.4953 0.9488
-11.3785 -6.0717 -2.4958 0.9488
-10.1243 -7.9950 -2.4965 0.9488
-7.6558 -10.3906 -2.4976 0.9488
-6.7018 -11.0326 -2.4981 0.9488
-3.5508 -12.4179 -2.4994 0.9487
-2.4319 -12.6870 -2.4999 0.9487
-1.2933 -12.8555 -2.5003 0.9487
-0.1439 -12.9220 -2.5008 0.9487
4.3778 -12.1682 -2.5025 0.9487
5.4443 -11.7320 -2.5029 0.9487
6.4678 -11.2025 -2.5033 0.9487
9.2010 -9.0990 -2.5042 0.9486
9.9753 -8.2448 -2.5044 0.9486
10.6704 -7.3248 -2.5046 0.9486
11.2807 -6.3464 -2.5048 0.9486
12.2283 -4.2461 -2.5050 0.9486
12.5579 -3.1409 -2.5050 0.9486
11.6464 3.4710 -2.3518 0.9517
9.6984 7.3139 -2.3507 0.9517
6.5320 10.2323 -2.3492 0.9517
5.5944 10.7712 -2.3488 0.9518
3.5947 11.5883 -2.3479 0.9518
2.5486 11.8600 -2.3475 0.9518
0.4052 12.1195 -2.3466 0.9518
-0.6750 12.1053 -2.3462 0.9518
-1.7494 11.9950 -2.3458 0.9518
-2.8096 11.7897 -2.3454 0.9518
-3.8472 11.4909 -2.3450 0.9518
-5.8218 10.6235 -2.3443 0.9518
-7.6112 9.4205 -2.3437 0.9519
-8.4185 8.7047 -2.3434 0.9519
-9.1590 7.9201 -2.3432 0.9519
-9.8267 7.0729 -2.3430 0.9519
-10.4165 6.1697 -2.3428 0.9519
-11.6329 5.5566 -2.4948 0.9488
-11.4169 -3.1274 -2.4956 0.9528
-10.6834 -5.1030 -2.4960 0.9528
-10.1879 -6.0343 -2.4963 0.9527
-8.2349 -8.5148 -2.4973 0.9527
-7.4454 -9.2153 -2.4976 0.9527
-6.5967 -9.8429 -2.4980 0.9527
-5.6953 -10.3926 -2.4984 0.9527
-4.7485 -10.8600 -2.4988 0.9527
-1.7115 -11.7347 -2.5001 0.9527
2.4931 -11.6018 -2.5017 0.9526
3.5163 -11.3356 -2.5021 0.9526
4.5120 -10.9793 -2.5025 0.9526
5.4720 -10.5355 -2.5028 0.9526
6.3889 -10.0079 -2.5031 0.9526
7.2551 -9.4007 -2.5034 0.9526
8.0639 -8.7186 -2.5037 0.9526
8.8087 -7.9670 -2.5039 0.9526
9.4836 -7.1519 -2.5041 0.9526
10.0832 -6.2798 -2.5043 0.9526
10.6027 -5.3578 -2.5044 0.9526
11.0379 -4.3929 -2.5045 0.9526
11.8771 -0.2646 -2.5045 0.9526
10.5360 3.6585 -2.3513 0.9554
8.3528 4.6992 -2.0205 0.9616
9.1922 6.3102 -2.3506 0.9554
8.5930 7.1024 -2.3503 0.9554
3.7705 10.4804 -2.3481 0.9555
2.8223 10.7725 -2.3477 0.9555
-1.1139 11.0727 -2.3461 0.9555
-3.0585 10.6964 -2.3454 0.9555
-5.7734 9.5044 -2.3444 0.9556
-6.5956 8.9517 -2.3441 0.9556
-8.0766 7.6389 -2.3436 0.9556
-8.7237 6.8891 -2.3435 0.9556
-9.3016 6.0849 -2.3433 0.9556
-10.8964 4.6205 -2.4952 0.9528
-11.7295 1.5775 -2.4951 0.9528
-11.8236 0.5273 -2.4951 0.9528
-11.8240 -0.5272 -2.4952 0.9528
-10.8996 -4.6218 -2.4959 0.9528
-10.4460 -5.5741 -2.4961 0.9528
-9.9095 -6.4825 -2.4964 0.9527
-7.8479 -8.8738 -2.4974 0.9527
-3.2594 -11.3990 -2.4994 0.9527
-2.2323 -11.6458 -2.4999 0.9527
-1.1871 -11.8003 -2.5003 0.9527
1.9736 -11.7004 -2.5015 0.9527
4.0181 -11.1685 -2.5023 0.9526
4.9969 -10.7681 -2.5027 0.9526
5.9363 -10.2820 -2.5030 0.9526
7.6671 -9.0686 -2.5036 0.9526
8.4447 -8.3511 -2.5038 0.9526
10.3533 -5.8246 -2.5044 0.9526
10.8311 -4.8802 -2.5045 0.9526
11.2228 -3.8970 -2.5046 0.9526
11.8536 -0.7935 -2.5046 0.9526
11.8769 0.2647 -2.5045 0.9526
10.9309 2.2218 -2.3516 0.9554
10.6890 3.1857 -2.3514 0.9554
10.3622 4.1241 -2.3512 0.9554
9.4648 5.8947 -2.3507 0.9554
8.9015 6.7129 -2.3504 0.9554
8.2676 7.4776 -2.3501 0.9555
7.5681 8.1826 -2.3498 0.9555
6.8088 8.8224 -2.3494 0.9555
5.9956 9.3920 -2.3491 0.9555
4.2340 10.3028 -2.3483 0.9555
3.2996 10.6370 -2.3479 0.9555
2.3394 10.8866 -2.3475 0.9555
0.3720 11.1252 -2.3467 0.9555
-0.6196 11.1123 -2.3463 0.9555
-3.5317 10.5488 -2.3452 0.9555
-6.1907 9.2372 -2.3443 0.9556
-6.9875 8.6485 -2.3440 0.9556
-7.7287 7.9914 -2.3438 0.9556
-9.0216 6.4934 -2.3434 0.9556
-10.6800 5.1014 -2.4952 0.9528
-11.0912 4.1305 -2.4951 0.9528
-11.4146 3.1268 -2.4951 0.9528
-11.6476 2.0985 -2.4951 0.9528
-10.7613 -1.9387 -2.4957 0.9561
-10.5467 -2.8890 -2.4959 0.9561
-9.8690 -4.7140 -2.4963 0.9561
-9.4112 -5.5743 -2.4966 0.9561
-8.2756 -7.1562 -2.4971 0.9561
-6.0934 -9.0920 -2.4981 0.9561
-5.2608 -9.5997 -2.4985 0.9561
-3.4764 -10.3835 -2.4993 0.9561
-2.5388 -10.6534 -2.4997 0.9561
0.3661 -10.9507 -2.5008 0.9560
1.3396 -10.8763 -2.5012 0.9560
2.3026 -10.7155 -2.5016 0.9560
3.2477 -10.4695 -2.5019 0.9560
4.1672 -10.1403 -2.5023 0.9560
5.9006 -9.2430 -2.5029 0.9560
6.7005 -8.6821 -2.5032 0.9560
7.4474 -8.0521 -2.5034 0.9560
8.1352 -7.3579 -2.5036 0.9560
8.7585 -6.6051 -2.5038 0.9560
9.3122 -5.7996 -2.5040 0.9560
9.7919 -4.9481 -2.5041 0.9560
10.1938 -4.0570 -2.5042 0.9560
10.5147 -3.1337 -2.5042 0.9560
10.7520 -2.1854 -2.5042 0.9560
10.9688 -0.2444 -2.5042 0.9560
10.9467 0.7328 -2.5041 0.9560
9.9934 2.4995 -2.3512 0.9586
9.7305 3.3788 -2.3510 0.9586
9.3904 4.2311 -2.3508 0.9586
8.4897 5.8279 -2.3503 0.9586
7.9363 6.5596 -2.3501 0.9586
6.6458 7.8607 -2.3494 0.9586
5.1453 8.9120 -2.3488 0.9587
4.3310 9.3331 -2.3484 0.9587
2.6068 9.9501 -2.3477 0.9587
0.8011 10.2514 -2.3469 0.9587
-0.1145 10.2804 -2.3466 0.9587
-1.9349 10.0942 -2.3459 0.9587
-3.6929 9.5886 -2.3452 0.9587
-4.5311 9.2206 -2.3449 0.9587
-6.0928 8.2693 -2.3444 0.9587
-6.8039 7.6933 -2.3441 0.9587
-7.4610 7.0566 -2.3439 0.9587
-10.0660 4.2684 -2.4955 0.9561
-10.8357 1.4573 -2.4954 0.9561
-10.9226 0.4871 -2.4955 0.9561
-10.9229 -0.4871 -2.4956 0.9561
-10.6646 -2.4162 -2.4958 0.9561
-10.4079 -3.3561 -2.4960 0.9561
-9.1540 -5.9883 -2.4967 0.9561
-7.9491 -7.5182 -2.4973 0.9561
-7.2494 -8.1970 -2.4976 0.9561
-6.4919 -8.8109 -2.4980 0.9561
-4.8283 -9.8253 -2.4987 0.9561
-3.9352 -10.2176 -2.4991 0.9561
-3.0107 -10.5289 -2.4995 0.9561
0.8537 -10.9244 -2.5010 0.9560
1.8229 -10.8066 -2.5014 0.9560
3.7111 -10.3151 -2.5021 0.9560
4.6151 -9.9452 -2.5024 0.9560
5.4826 -9.4961 -2.5027 0.9560
6.3068 -8.9715 -2.5030 0.9560
7.7991 -7.7126 -2.5035 0.9560
8.4553 -6.9884 -2.5037 0.9560
9.0443 -6.2085 -2.5039 0.9560
10.0028 -4.5070 -2.5041 0.9560
10.3646 -3.5989 -2.5042 0.9560
10.9472 -0.7328 -2.5042 0.9560
10.0951 2.0520 -2.3513 0.9586
9.8718 2.9421 -2.3511 0.9586
9.5700 3.8088 -2.3509 0.9586
7.6358 6.9062 -2.3499 0.9586
6.2886 8.1484 -2.3493 0.9586
5.5376 8.6746 -2.3489 0.9587
4.7429 9.1316 -2.3486 0.9587
3.0477 9.8248 -2.3479 0.9587
1.2570 10.2064 -2.3471 0.9587
-0.5723 10.2644 -2.3464 0.9587
-2.3825 9.9973 -2.3457 0.9587
-3.2624 9.7442 -2.3454 0.9587
-4.1161 9.4139 -2.3451 0.9587
-6.4548 7.9892 -2.3443 0.9587
-7.1396 7.3823 -2.3440 0.9587
-7.7676 6.7170 -2.3438 0.9587
-8.3341 5.9985 -2.3437 0.9587
-8.8343 5.2326 -2.3435 0.9587
-10.2460 3.8157 -2.4955 0.9561
-10.7600 1.9385 -2.4954 0.9561
-10.8899 0.9731 -2.4955 0.9561
-10.1539 0.0000 -2.4958 0.9590
-9.1650 -4.3777 -2.4966 0.9590
-8.7398 -5.1766 -2.4968 0.9590
-7.0640 -7.3041 -2.4976 0.9590
-4.8852 -8.9144 -2.4986 0.9590
-4.0730 -9.3151 -2.4990 0.9590
-2.3575 -9.8925 -2.4997 0.9590
0.3400 -10.1683 -2.5008 0.9590
2.1381 -9.9496 -2.5015 0.9589
4.6925 -9.0346 -2.5024 0.9589
5.4786 -8.5821 -2.5027 0.9589
6.2214 -8.0612 -2.5029 0.9589
6.9148 -7.4762 -2.5032 0.9589
8.1320 -6.1326 -2.5035 0.9589
9.9828 -2.0291 -2.5039 0.9589
10.1237 -1.1325 -2.5039 0.9589
10.1841 -0.2269 -2.5039 0.9589
9.2785 2.3207 -2.3509 0.9614
9.0345 3.1372 -2.3508 0.9614
8.2985 4.6687 -2.3404 0.9615
7.8826 5.4111 -2.3501 0.9614
6.1708 7.2988 -2.3493 0.9614
5.4959 7.8181 -2.3490 0.9614
4.7776 8.2751 -2.3487 0.9614
4.0216 8.6663 -2.3483 0.9614
2.4206 9.2393 -2.3477 0.9614
1.5884 9.4167 -2.3473 0.9614
-0.1064 9.5464 -2.3466 0.9614
-3.4294 8.9043 -2.3454 0.9615
-4.2078 8.5627 -2.3451 0.9615
-4.9527 8.1533 -2.3448 0.9615
-6.9288 6.5533 -2.3442 0.9615
-7.4841 5.9101 -2.3440 0.9615
-8.9586 4.7805 -2.4959 0.9590
-9.6637 3.1162 -2.4958 0.9590
-9.9026 2.2437 -2.4957 0.9590
-10.0630 1.3534 -2.4958 0.9590
-9.9040 -2.2439 -2.4961 0.9590
-9.6656 -3.1167 -2.4963 0.9590
-9.3505 -3.9650 -2.4965 0.9590
-8.9613 -4.7819 -2.4967 0.9590
-6.0286 -8.1820 -2.4981 0.9590
-5.2771 -8.6873 -2.4984 0.9590
-2.7956 -9.7770 -2.4995 0.9590
-1.0181 -10.1207 -2.5002 0.9590
2.5793 -9.8452 -2.5016 0.9589
4.2851 -9.2342 -2.5023 0.9589
5.0906 -8.8172 -2.5025 0.9589
5.8558 -8.3299 -2.5028 0.9589
6.5746 -7.7764 -2.5030 0.9589
7.8505 -6.4885 -2.5034 0.9589
8.3974 -5.7644 -2.5036 0.9589
9.2872 -4.1846 -2.5038 0.9589
10.1640 -0.6804 -2.5039 0.9589
10.1840 0.2270 -2.5038 0.9589
10.1230 1.1324 -2.5037 0.9589
9.1656 2.7317 -2.3508 0.9614
8.8855 3.5364 -2.3507 0.9614
8.1162 5.0548 -2.3502 0.9614
7.6333 5.7566 -2.3500 0.9614
7.0898 6.4124 -2.3497 0.9614
5.8391 7.5660 -2.3491 0.9614
3.6313 8.8362 -2.3482 0.9614
2.8300 9.1230 -2.3478 0.9614
2.0065 9.3373 -2.3475 0.9614
0.3190 9.5424 -2.3468 0.9614
-1.3775 9.4451 -2.3461 0.9614
-2.2124 9.2837 -2.3458 0.9615
-3.0295 9.0488 -2.3455 0.9615
-4.5848 8.3663 -2.3450 0.9615
-6.6303 6.8557 -2.3443 0.9615
-7.2136 6.2379 -2.3441 0.9615
-7.7397 5.5707 -2.3439 0.9615
-8.6228 5.1073 -2.4634 0.9596
-9.1625 4.3766 -2.4959 0.9590
-9.5154 3.5436 -2.4958 0.9590
-9.7928 2.6826 -2.4958 0.9590
-9.9927 1.8003 -2.4957 0.9590
-9.3235 -1.6796 -2.4963 0.9616
-8.8790 -3.3065 -2.4966 0.9616
-8.5501 -4.0840 -2.4968 0.9616
-8.1534 -4.8292 -2.4970 0.9616
-5.2786 -7.8762 -2.4984 0.9615
-3.7995 -8.6896 -2.4990 0.9615
-3.0114 -8.9945 -2.4994 0.9615
-1.3693 -9.3884 -2.5000 0.9615
0.3171 -9.4850 -2.5007 0.9615
1.9944 -9.2809 -2.5013 0.9615
4.3770 -8.4272 -2.5022 0.9615
5.1102 -8.0050 -2.5025 0.9615
7.0453 -6.3721 -2.5031 0.9615
8.0644 -5.0225 -2.5034 0.9615
8.8278 -3.5134 -2.5036 0.9615
9.1057 -2.7138 -2.5036 0.9615
9.4426 -1.0563 -2.5036 0.9615
13.8247 3.4578 -3.7550 0.9428
7.7733 4.3732 -2.3502 0.9638
7.3525 5.0473 -2.3499 0.9638
6.3398 6.2696 -2.3494 0.9638
5.7559 6.8082 -2.3492 0.9638
5.1265 7.2926 -2.3489 0.9638
4.4565 7.7189 -2.3486 0.9638
3.0165 8.3846 -2.3480 0.9638
1.4817 8.7842 -2.3473 0.9638
-2.4475 8.5594 -2.3458 0.9638
-3.1992 8.3067 -2.3455 0.9638
-3.9254 7.9880 -2.3453 0.9639
-4.6203 7.6062 -2.3450 0.9639
-5.8947 6.6652 -2.3446 0.9639
-6.9820 5.5137 -2.3442 0.9639
-7.5350 4.9292 -2.3726 0.9634
-8.7212 3.6981 -2.4961 0.9616
-9.0155 2.9072 -2.4960 0.9616
-9.2384 2.0932 -2.4960 0.9616
-9.4633 0.4220 -2.4961 0.9616
-9.3888 -1.2627 -2.4962 0.9616
-9.2396 -2.0934 -2.4964 0.9616
-9.0172 -2.9077 -2.4965 0.9616
-8.3601 -4.4611 -2.4969 0.9616
-7.9305 -5.1879 -2.4971 0.9616
-6.8865 -6.5132 -2.4976 0.9615
-6.2801 -7.1010 -2.4979 0.9615
-4.9228 -8.1040 -2.4985 0.9615
-4.1825 -8.5111 -2.4989 0.9615
-2.6079 -9.1203 -2.4995 0.9615
-1.7860 -9.3174 -2.4999 0.9615
-0.9497 -9.4407 -2.5002 0.9615
1.5788 -9.3599 -2.5012 0.9615
2.4059 -9.1834 -2.5015 0.9615
3.2142 -8.9339 -2.5018 0.9615
4.7483 -8.2243 -2.5024 0.9615
5.4620 -7.7698 -2.5026 0.9615
6.7542 -6.6794 -2.5030 0.9615
7.8325 -5.3767 -2.5033 0.9615
8.6624 -3.9031 -2.5036 0.9615
8.9757 -3.1167 -2.5036 0.9615
9.4802 -0.6346 -2.5036 0.9615
9.4988 0.2117 -2.5036 0.9615
9.4420 1.0563 -2.5035 0.9615
13.9654 2.8386 -3.7551 0.9428
4.7963 7.5133 -2.3487 0.9638
4.1080 7.9093 -2.3484 0.9638
3.3873 8.2425 -2.3481 0.9638
1.0889 8.8409 -2.3472 0.9638
-0.4958 8.8915 -2.3465 0.9638
-2.0639 8.6605 -2.3459 0.9638
-4.9543 7.3924 -2.3449 0.9639
-5.5921 6.9215 -2.3447 0.9639
-6.7297 5.8194 -2.3443 0.9639
-7.2205 5.1970 -2.3442 0.9639
-8.8772 3.3059 -2.4961 0.9616
-9.1360 2.5026 -2.4960 0.9616
-9.4351 0.8431 -2.4960 0.9616
-3.7284 -0.6717 -1.0659 0.9844
-3.7904 -1.0383 -1.1057 0.9838
-8.3162 -3.0970 -2.4968 0.9638
-8.0081 -3.8251 -2.4970 0.9638
-7.6365 -4.5231 -2.4972 0.9638
-7.2042 -5.1853 -2.4974 0.9638
-6.1720 -6.3817 -2.4979 0.9638
-5.5801 -6.9065 -2.4982 0.9638
-4.2681 -7.7883 -2.4988 0.9638
-3.5584 -8.1382 -2.4991 0.9638
-2.0596 -8.6424 -2.4997 0.9638
-1.2824 -8.7925 -2.5000 0.9638
-0.4947 -8.8729 -2.5003 0.9637
0.2970 -8.8829 -2.5006 0.9637
1.0866 -8.8222 -2.5010 0.9637
1.8677 -8.6916 -2.5013 0.9637
2.6342 -8.4918 -2.5015 0.9637
3.3799 -8.2245 -2.5018 0.9637
4.0990 -7.8919 -2.5021 0.9637
4.7856 -7.4964 -2.5023 0.9637
6.0399 -6.5303 -2.5027 0.9637
6.5976 -5.9672 -2.5029 0.9637
7.9409 -4.0127 -2.5033 0.9637
8.2668 -3.2901 -2.5034 0.9637
8.5270 -2.5412 -2.5034 0.9637
8.8953 -0.1982 -2.5034 0.9637
8.7889 1.3820 -2.5032 0.9637
12.9462 3.2380 -3.7547 0.9461
7.6156 3.4315 -2.3502 0.9659
5.3904 6.3758 -2.3491 0.9659
3.5132 7.5707 -2.3482 0.9659
2.1147 8.0716 -2.3476 0.9659
1.3877 8.2268 -2.3473 0.9659
-0.0929 8.3404 -2.3467 0.9659
-0.8348 8.2979 -2.3465 0.9659
-1.5698 8.1897 -2.3462 0.9659
-2.2923 8.0166 -2.3459 0.9659
-2.9963 7.7799 -2.3456 0.9660
-3.6765 7.4815 -2.3454 0.9660
-4.9438 6.7098 -2.3450 0.9660
-5.5210 6.2427 -2.3448 0.9660
-6.5395 5.1642 -2.3444 0.9660
-7.8280 4.1772 -2.4964 0.9638
-8.4442 2.7229 -2.4963 0.9638
-8.6529 1.9605 -2.4963 0.9638
-4.2110 -0.1878 -1.1860 0.9826
-8.4456 -2.7234 -2.4967 0.9638
-7.8301 -4.1782 -2.4971 0.9638
-7.4277 -4.8590 -2.4973 0.9638
-6.4498 -6.1002 -2.4978 0.9638
-5.2672 -7.1486 -2.4983 0.9638
-4.6105 -7.5900 -2.4986 0.9638
-2.4424 -8.5415 -2.4995 0.9638
-0.8895 -8.8415 -2.5002 0.9637
-0.0990 -8.8867 -2.5005 0.9637
0.6924 -8.8613 -2.5008 0.9637
1.4786 -8.7656 -2.5011 0.9637
3.0100 -8.3665 -2.5017 0.9637
5.1150 -7.2762 -2.5024 0.9637
5.7428 -6.7926 -2.5026 0.9637
6.3251 -6.2549 -2.5028 0.9637
7.3348 -5.0350 -2.5031 0.9637
7.7541 -4.3624 -2.5032 0.9637
8.1119 -3.6550 -2.5033 0.9637
8.4052 -2.9186 -2.5034 0.9637
8.6318 -2.1589 -2.5034 0.9637
8.0059 2.3860 -2.3504 0.9659
7.4549 3.7671 -2.3501 0.9659
7.0895 4.4154 -2.3499 0.9659
6.1931 5.6014 -2.3494 0.9659
4.4917 7.0362 -2.3487 0.9659
3.1722 7.7192 -2.3481 0.9659
1.7529 8.1573 -2.3475 0.9659
1.0198 8.2799 -2.3472 0.9659
0.2787 8.3367 -2.3469 0.9659
-0.4643 8.3274 -2.3466 0.9659
-1.2035 8.2520 -2.3463 0.9659
-1.9330 8.1112 -2.3460 0.9659
-3.3398 7.6383 -2.3455 0.9660
-4.0059 7.3100 -2.3453 0.9660
-4.6402 6.9237 -2.3451 0.9660
-5.2376 6.4827 -2.3449 0.9660
-5.7934 5.9904 -2.3447 0.9660
-6.3031 5.4506 -2.3445 0.9660
-6.7628 4.8676 -2.3444 0.9660
-8.0062 3.8243 -2.4964 0.9638
-8.5570 2.3440 -2.4963 0.9638
-8.7317 1.5731 -2.4963 0.9638
-8.8371 0.7897 -2.4963 0.9638
-3.9677 0.0000 -1.1878 0.9836
-3.5918 -0.3210 -1.0796 0.9851
-3.4798 -0.6269 -1.0586 0.9853
-3.4925 -0.9567 -1.0841 0.9850
-7.5265 -3.5951 -2.4971 0.9658
-5.8006 -5.9978 -2.4980 0.9658
-4.0112 -7.3196 -2.4988 0.9657
-3.3442 -7.6484 -2.4991 0.9657
-1.9356 -8.1221 -2.4997 0.9657
0.2791 -8.3479 -2.5006 0.9657
1.0211 -8.2909 -2.5009 0.9657
2.4755 -7.9802 -2.5014 0.9657
3.1763 -7.7290 -2.5017 0.9657
3.8520 -7.4164 -2.5019 0.9657
4.4972 -7.0447 -2.5022 0.9657
5.1068 -6.6170 -2.5024 0.9657
6.2000 -5.6075 -2.5027 0.9657
7.4622 -3.7708 -2.5031 0.9657
8.0129 -2.3880 -2.5032 0.9657
8.3590 -0.1863 -2.5031 0.9657
8.3422 0.5585 -2.5031 0.9657
8.2591 1.2987 -2.5030 0.9657
7.4157 2.5751 -2.3502 0.9678
6.4705 4.4418 -2.3496 0.9678
5.5794 5.5176 -2.3492 0.9678
4.5118 6.4181 -2.3487 0.9678
3.3016 7.1148 -2.3482 0.9678
1.3041 7.7315 -2.3473 0.9678
0.6107 7.8159 -2.3471 0.9678
-0.0873 7.8383 -2.3468 0.9678
-2.1543 7.5342 -2.3460 0.9678
-3.4554 7.0314 -2.3455 0.9678
-4.0671 6.6954 -2.3453 0.9678
-5.6902 5.3818 -2.3448 0.9678
-6.1462 4.8537 -2.3446 0.9678
-6.9790 4.5655 -2.4967 0.9658
-7.6773 3.2555 -2.4965 0.9658
-7.9365 2.5592 -2.4965 0.9658
-8.1327 1.8427 -2.4965 0.9658
-8.2644 1.1115 -2.4965 0.9658
-4.8506 0.2163 -1.4536 0.9799
-3.5144 -0.4727 -1.0616 0.9853
-3.4642 -0.7849 -1.0634 0.9853
-7.9378 -2.5596 -2.4969 0.9658
-7.6789 -3.2561 -2.4971 0.9658
-6.9810 -4.5667 -2.4974 0.9658
-6.0618 -5.7332 -2.4979 0.9658
-4.9502 -6.7185 -2.4984 0.9658
-3.6814 -7.4914 -2.4990 0.9657
-3.0004 -7.7903 -2.4993 0.9657
-2.2954 -8.0274 -2.4996 0.9657
-1.5720 -8.2008 -2.4999 0.9657
-0.8359 -8.3091 -2.5002 0.9657
-0.0930 -8.3515 -2.5005 0.9657
0.6507 -8.3276 -2.5007 0.9657
2.1174 -8.0822 -2.5013 0.9657
2.8287 -7.8624 -2.5016 0.9657
4.1787 -7.2377 -2.5021 0.9657
6.8926 -4.7315 -2.5029 0.9657
7.2867 -4.0994 -2.5030 0.9657
7.6229 -3.4347 -2.5031 0.9657
7.8985 -2.7426 -2.5032 0.9657
8.3589 0.1863 -2.5031 0.9657
8.3089 0.9296 -2.5030 0.9657
12.2896 2.4980 -3.7545 0.9490
12.0178 3.5817 -3.7543 0.9490
7.0056 3.5401 -2.3499 0.9678
6.6622 4.1493 -2.3497 0.9678
6.2659 4.7254 -2.3495 0.9678
5.3278 5.7604 -2.3491 0.9678
4.7935 6.2111 -2.3488 0.9678
4.2212 6.6124 -2.3486 0.9678
3.6155 6.9610 -2.3483 0.9678
2.9812 7.2544 -2.3480 0.9678
2.3234 7.4900 -2.3478 0.9678
1.6474 7.6662 -2.3475 0.9678
0.9584 7.7814 -2.3472 0.9678
-1.1311 7.7554 -2.3464 0.9678
-1.8167 7.6231 -2.3461 0.9678
-2.4877 7.4304 -2.3459 0.9678
-3.1388 7.1788 -2.3456 0.9678
-4.3611 6.5073 -2.3452 0.9678
-5.9241 5.1228 -2.3447 0.9678
-6.5989 4.7496 -2.4341 0.9666
-7.1753 4.2500 -2.4967 0.9658
-7.5248 3.5943 -2.4966 0.9658
-7.8147 2.9102 -2.4965 0.9658
-8.0426 2.2031 -2.4965 0.9658
-3.2540 -0.8914 -1.0715 0.9859
-7.0955 -3.3892 -2.4973 0.9675
-6.7662 -4.0076 -2.4975 0.9675
-5.4684 -5.6542 -2.4981 0.9675
-3.7814 -6.9002 -2.4989 0.9675
-3.1526 -7.2101 -2.4992 0.9675
-2.4986 -7.4629 -2.4994 0.9675
-1.8247 -7.6566 -2.4997 0.9675
-1.1361 -7.7895 -2.5000 0.9675
0.2631 -7.8692 -2.5006 0.9675
1.6545 -7.6996 -2.5011 0.9675
2.3335 -7.5225 -2.5013 0.9675
4.2392 -6.6405 -2.5020 0.9675
4.8138 -6.2373 -2.5022 0.9675
5.3502 -5.7846 -2.5024 0.9675
5.8442 -5.2857 -2.5026 0.9675
6.2918 -4.7449 -2.5027 0.9675
6.6894 -4.1662 -2.5028 0.9675
7.3226 -2.9143 -2.5030 0.9675
7.7235 -1.5698 -2.5030 0.9675
7.8325 -0.8762 -2.5030 0.9675
7.8793 -0.1755 -2.5030 0.9675
7.8634 0.5264 -2.5029 0.9675
11.1662 3.8773 -3.7539 0.9516
6.4482 3.6278 -2.3497 0.9694
6.0993 4.1870 -2.3495 0.9694
5.7019 4.7128 -2.3493 0.9694
5.2594 5.2011 -2.3491 0.9694
4.7751 5.6480 -2.3489 0.9694
4.2530 6.0500 -2.3486 0.9694
3.6973 6.4039 -2.3484 0.9694
3.1123 6.7068 -2.3481 0.9694
2.5027 6.9564 -2.3479 0.9694
-0.7396 7.3517 -2.3466 0.9695
-1.3908 7.2559 -2.3463 0.9695
-2.0309 7.1026 -2.3461 0.9695
-2.6548 6.8930 -2.3458 0.9695
-3.8342 6.3120 -2.3454 0.9695
-5.3644 5.0736 -2.3449 0.9695
-5.8618 4.6290 -2.3721 0.9691
-6.5794 4.3041 -2.4969 0.9675
-7.4821 2.4127 -2.4967 0.9675
-7.6671 1.7372 -2.4967 0.9675
-7.7913 1.0479 -2.4967 0.9675
-4.3818 0.1954 -1.3930 0.9818
-3.3189 -0.4463 -1.0635 0.9860
-3.2827 -1.0586 -1.0954 0.9856
-6.9377 -3.7021 -2.4974 0.9675
-6.1724 -4.8743 -2.4978 0.9675
-5.7146 -5.4048 -2.4980 0.9675
-5.2113 -5.8925 -2.4982 0.9675
-4.6666 -6.3336 -2.4985 0.9675
-1.4818 -7.7307 -2.4999 0.9675
-0.7880 -7.8328 -2.5001 0.9675
0.6134 -7.8501 -2.5007 0.9675
1.9960 -7.6186 -2.5012 0.9675
2.6664 -7.4115 -2.5015 0.9675
3.3158 -7.1454 -2.5017 0.9675
3.9390 -6.8225 -2.5019 0.9675
4.5310 -6.4454 -2.5021 0.9675
6.4971 -4.4599 -2.5027 0.9675
6.8685 -3.8642 -2.5028 0.9675
7.4452 -2.5852 -2.5030 0.9675
7.7857 -1.2242 -2.5030 0.9675
7.7227 1.5697 -2.5028 0.9675
6.6037 3.3370 -2.3498 0.9694
5.4861 4.9619 -2.3492 0.9694
5.0222 5.4300 -2.3490 0.9694
3.9791 6.2332 -2.3485 0.9694
2.8103 6.8384 -2.3480 0.9694
0.9034 7.3354 -2.3472 0.9695
0.2469 7.3859 -2.3470 0.9695
-1.0663 7.3111 -2.3464 0.9695
-2.9591 6.7676 -2.3457 0.9695
-4.1114 6.1346 -2.3453 0.9695
-5.1332 5.3077 -2.3450 0.9695
-6.7645 4.0066 -2.4968 0.9675
-7.0940 3.3886 -2.4968 0.9675
-3.1483 -0.5672 -1.0748 0.9866
-3.1349 -0.8587 -1.0921 0.9864
-6.3960 -3.7883 -2.4976 0.9691
-6.0339 -4.3429 -2.4978 0.9691
-5.6239 -4.8631 -2.4980 0.9691
-5.1691 -5.3448 -2.4982 0.9691
-4.6733 -5.7842 -2.4984 0.9691
-4.1404 -6.1778 -2.4987 0.9691
-2.3618 -7.0543 -2.4995 0.9691
-1.7247 -7.2373 -2.4997 0.9691
-0.4143 -7.4300 -2.5003 0.9691
0.9098 -7.3873 -2.5008 0.9691
2.2057 -7.1104 -2.5013 0.9691
3.4320 -6.6078 -2.5017 0.9691
4.0069 -6.2766 -2.5019 0.9691
4.5500 -5.8955 -2.5021 0.9691
5.0570 -5.4675 -2.5023 0.9691
5.5239 -4.9960 -2.5024 0.9691
5.9469 -4.4847 -2.5025 0.9691
6.3227 -3.9378 -2.5026 0.9691
6.6483 -3.3596 -2.5027 0.9691
6.9211 -2.7545 -2.5028 0.9691
7.3000 -1.4837 -2.5028 0.9691
7.4324 0.4976 -2.5027 0.9691
7.3583 1.1571 -2.5026 0.9691
6.3762 2.8730 -2.3497 0.9709
6.0948 3.4289 -2.3496 0.9709
5.7650 3.9575 -2.3494 0.9709
4.9712 4.9161 -2.3490 0.9709
4.5135 5.3386 -2.3488 0.9709
4.0200 5.7186 -2.3486 0.9709
2.3657 6.5755 -2.3479 0.9709
-0.6991 6.9493 -2.3466 0.9710
-1.3147 6.8588 -2.3464 0.9710
-4.1407 5.6199 -2.3454 0.9710
-4.6242 5.2287 -2.3452 0.9710
-5.8243 4.5994 -2.4935 0.9692
-6.2195 4.0687 -2.4971 0.9691
-6.5567 3.4988 -2.4970 0.9691
-6.8420 2.9013 -2.4969 0.9691
-7.3652 0.9906 -2.4968 0.9691
-3.1639 -0.4255 -1.0726 0.9866
-3.1355 -0.7104 -1.0802 0.9865
-5.4019 -5.1091 -2.4981 0.9691
-4.4112 -5.9870 -2.4986 0.9691
-3.2805 -6.6756 -2.4991 0.9691
-2.6736 -6.9418 -2.4993 0.9691
-2.0453 -7.1529 -2.4996 0.9691
-1.4007 -7.3074 -2.4999 0.9691
-0.0829 -7.4416 -2.5004 0.9691
1.2381 -7.3398 -2.5009 0.9691
2.5203 -7.0054 -2.5014 0.9691
3.1341 -6.7538 -2.5016 0.9691
4.2827 -6.0921 -2.5020 0.9691
5.7411 -4.7451 -2.5025 0.9691
6.1409 -4.2154 -2.5026 0.9691
6.4920 -3.6523 -2.5027 0.9691
7.0371 -2.4435 -2.5028 0.9691
7.2267 -1.8075 -2.5028 0.9691
7.3589 -1.1571 -2.5028 0.9691
7.4326 -0.4975 -2.5028 0.9691
7.4027 0.8282 -2.5027 0.9691
7.2994 1.4837 -2.5026 0.9691
10.7072 3.1911 -3.7538 0.9539
6.4981 2.5862 -2.3498 0.9709
6.2417 3.1541 -2.3497 0.9709
5.1855 4.6900 -2.3491 0.9709
4.7470 5.1325 -2.3489 0.9709
4.2710 5.5341 -2.3487 0.9709
3.7611 5.8917 -2.3485 0.9709
2.6564 6.4639 -2.3480 0.9709
2.0703 6.6739 -2.3477 0.9709
1.4679 6.8310 -2.3475 0.9709
0.8540 6.9338 -2.3472 0.9710
-0.3889 6.9739 -2.3467 0.9710
-3.3551 6.1224 -2.3456 0.9710
-5.2796 4.5653 -2.3450 0.9710
-6.0322 4.3418 -2.4971 0.9691
-6.3945 3.7875 -2.4970 0.9691
-7.3137 1.3177 -2.4968 0.9691
-7.4020 0.6615 -2.4969 0.9691
-3.0930 -0.2764 -1.1011 0.9869
-3.0314 -1.1289 -1.1470 0.9864
-6.3558 -3.0359 -2.4976 0.9705
-6.0607 -3.5898 -2.4977 0.9705
-5.7175 -4.1152 -2.4979 0.9705
-5.3290 -4.6081 -2.4981 0.9705
-3.3869 -6.1804 -2.4990 0.9705
-2.8237 -6.4579 -2.4992 0.9705
-1.0175 -6.9766 -2.5000 0.9705
0.2356 -7.0479 -2.5005 0.9705
2.0899 -6.7371 -2.5012 0.9705
3.2518 -6.2609 -2.5016 0.9705
4.3110 -5.5859 -2.5020 0.9705
5.6346 -4.2492 -2.5024 0.9705
5.9907 -3.7310 -2.5025 0.9705
6.2992 -3.1831 -2.5026 0.9705
7.0142 -0.7846 -2.5027 0.9705
6.8464 1.7124 -2.5024 0.9705
9.9999 3.4723 -3.7535 0.9561
6.0414 2.7222 -2.3496 0.9723
5.7748 3.2488 -2.3495 0.9723
4.7102 4.6581 -2.3489 0.9723
4.2765 5.0584 -2.3487 0.9723
3.8090 5.4184 -2.3485 0.9723
3.3113 5.7354 -2.3483 0.9723
2.7874 6.0068 -2.3481 0.9723
2.2415 6.2304 -2.3478 0.9723
0.5157 6.5993 -2.3471 0.9723
-0.0737 6.6183 -2.3469 0.9723
-1.2458 6.4991 -2.3464 0.9723
-1.8191 6.3619 -2.3462 0.9723
-2.3779 6.1741 -2.3460 0.9723
-3.4344 5.6538 -2.3456 0.9723
-3.9237 5.3253 -2.3455 0.9723
-4.3818 4.9546 -2.3453 0.9723
-4.8051 4.5447 -2.3452 0.9723
-5.5272 4.3648 -2.4973 0.9706
-6.2131 3.3154 -2.4971 0.9706
-6.7022 2.1612 -2.4970 0.9706
-6.8679 1.5561 -2.4970 0.9706
-3.0191 -0.9735 -1.1248 0.9866
-6.4845 -2.7496 -2.4975 0.9706
-6.2144 -3.3161 -2.4976 0.9705
-5.8950 -3.8563 -2.4978 0.9705
-4.6678 -5.2780 -2.4984 0.9705
-4.1799 -5.6730 -2.4986 0.9705
-3.6587 -6.0231 -2.4989 0.9705
-0.7057 -7.0153 -2.5001 0.9705
1.7876 -6.8232 -2.5011 0.9705
2.3880 -6.6376 -2.5013 0.9705
3.5276 -6.1100 -2.5017 0.9705
4.5557 -5.3885 -2.5021 0.9705
5.0175 -4.9620 -2.5022 0.9705
5.4396 -4.4959 -2.5023 0.9705
5.8184 -3.9941 -2.5024 0.9705
6.1510 -3.4605 -2.5025 0.9705
6.8471 -1.7126 -2.5027 0.9705
7.0139 0.7847 -2.5025 0.9705
5.6241 3.5028 -2.3494 0.9723
4.9132 4.4438 -2.3490 0.9723
4.4978 4.8630 -2.3488 0.9723
3.5637 5.5825 -2.3484 0.9723
0.8092 6.5701 -2.3472 0.9723
-0.9551 6.5485 -2.3465 0.9723
-2.1006 6.2742 -2.3461 0.9723
-3.6827 5.4950 -2.3455 0.9723
-4.5980 4.7544 -2.3452 0.9723
-6.0593 3.5890 -2.4972 0.9706
-2.9938 -0.2675 -1.1224 0.9872
-5.7554 -3.4089 -2.4978 0.9718
-5.4295 -3.9079 -2.4980 0.9718
-4.6513 -4.8094 -2.4984 0.9718
-0.9662 -6.6248 -2.5000 0.9718
-0.3728 -6.6852 -2.5002 0.9718
1.9845 -6.3972 -2.5011 0.9718
2.5462 -6.1958 -2.5013 0.9718
3.6049 -5.6470 -2.5017 0.9718
4.9696 -4.4948 -2.5021 0.9718
5.9813 -3.0224 -2.5024 0.9718
6.2267 -2.4781 -2.5025 0.9718
6.4226 -1.9141 -2.5025 0.9718
6.6602 -0.7450 -2.5025 0.9718
6.6866 0.4476 -2.5024 0.9718
6.6200 1.0410 -2.5024 0.9718
6.5009 1.6260 -2.5023 0.9718
9.4953 3.2972 -3.7533 0.9580
5.4834 3.0849 -2.3494 0.9735
5.1867 3.5605 -2.3492 0.9735
4.8489 4.0077 -2.3490 0.9735
4.0608 4.8032 -2.3487 0.9735
3.6169 5.1452 -2.3485 0.9735
3.1443 5.4461 -2.3482 0.9735
2.1285 5.9163 -2.3478 0.9735
1.5933 6.0817 -2.3476 0.9735
-0.0700 6.2847 -2.3469 0.9735
-1.7274 6.0413 -2.3463 0.9735
-2.7708 5.6384 -2.3459 0.9735
-3.2614 5.3690 -2.3457 0.9735
-3.7260 5.0571 -2.3456 0.9735
-5.5967 3.6612 -2.4973 0.9718
-5.9002 3.1485 -2.4973 0.9718
-3.7910 0.1690 -1.4170 0.9839
-2.9640 -0.3986 -1.1167 0.9873
-2.9258 -0.6629 -1.1202 0.9873
-2.9106 -0.9385 -1.1419 0.9870
-5.9014 -3.1491 -2.4978 0.9718
-5.5980 -3.6620 -2.4979 0.9718
-4.4326 -5.0120 -2.4985 0.9718
-3.9693 -5.3871 -2.4987 0.9718
-3.4743 -5.7195 -2.4989 0.9718
-2.4056 -6.2461 -2.4994 0.9718
-1.8403 -6.4360 -2.4996 0.9718
-1.2603 -6.5749 -2.4999 0.9718
-0.6702 -6.6616 -2.5001 0.9718
0.5217 -6.6761 -2.5006 0.9718
1.6974 -6.4791 -2.5010 0.9718
2.8198 -6.0764 -2.5014 0.9718
3.8530 -5.4810 -2.5018 0.9718
4.3259 -5.1166 -2.5019 0.9718
4.7644 -4.7115 -2.5021 0.9718
5.5248 -3.7925 -2.5023 0.9718
5.8406 -3.2859 -2.5024 0.9718
6.6868 -0.4476 -2.5025 0.9718
6.7000 0.1493 -2.5025 0.9718
6.6599 0.7450 -2.5024 0.9718
6.5670 1.3348 -2.5023 0.9718
5.6156 2.8377 -2.3494 0.9735
5.0228 3.7879 -2.3491 0.9735
4.6654 4.2196 -2.3489 0.9735
4.2710 4.6178 -2.3488 0.9735
3.3840 5.3009 -2.3484 0.9735
2.8985 5.5806 -2.3481 0.9735
1.3208 6.1463 -2.3475 0.9735
0.7684 6.2388 -2.3472 0.9735
-0.9069 6.2184 -2.3466 0.9735
-1.9948 5.9581 -2.3462 0.9735
-2.5169 5.7564 -2.3460 0.9735
-3.0191 5.5091 -2.3458 0.9735
-3.4972 5.2182 -2.3456 0.9735
-3.9475 4.8859 -2.3455 0.9735
-5.0591 4.3748 -2.4975 0.9718
-5.4282 3.9070 -2.4974 0.9718
-5.7542 3.4082 -2.4973 0.9718
-6.2670 2.3339 -2.4972 0.9718
-6.4498 1.7668 -2.4971 0.9719
-6.5814 1.1857 -2.4971 0.9719
-3.2641 0.0000 -1.2811 0.9861
-2.9005 -0.2592 -1.1429 0.9876
-2.8528 -1.0624 -1.1947 0.9870
-5.7427 -2.7431 -2.4978 0.9730
-5.4761 -3.2435 -2.4979 0.9730
-5.1660 -3.7183 -2.4981 0.9730
-4.8149 -4.1636 -2.4983 0.9730
-4.4256 -4.5760 -2.4984 0.9730
-4.0010 -4.9521 -2.4986 0.9730
-3.5447 -5.2890 -2.4989 0.9730
-2.5512 -5.8347 -2.4993 0.9730
-1.4765 -6.1957 -2.4997 0.9730
-0.9193 -6.3031 -2.5000 0.9730
0.2129 -6.3674 -2.5004 0.9730
1.3387 -6.2298 -2.5009 0.9730
2.9377 -5.6561 -2.5014 0.9730
3.4297 -5.3726 -2.5016 0.9730
3.8946 -5.0463 -2.5018 0.9730
5.4118 -3.3705 -2.5022 0.9730
5.6905 -2.8755 -2.5023 0.9730
5.9240 -2.3577 -2.5024 0.9730
6.2483 -1.2700 -2.5024 0.9730
6.2982 0.9904 -2.5022 0.9730
9.0338 3.1369 -3.7532 0.9597
8.7183 3.9283 -3.7530 0.9597
5.2169 2.9350 -2.3493 0.9746
4.9347 3.3875 -2.3491 0.9746
3.8635 4.5698 -2.3486 0.9746
2.9916 5.1816 -2.3482 0.9746
2.0251 5.6289 -2.3478 0.9746
1.5159 5.7863 -2.3476 0.9746
0.4659 5.9623 -2.3472 0.9746
-0.5985 5.9494 -2.3467 0.9746
-1.1256 5.8720 -2.3465 0.9746
-1.6436 5.7480 -2.3463 0.9746
-2.1485 5.5785 -2.3461 0.9746
-2.6363 5.3647 -2.3460 0.9746
-3.1031 5.1084 -2.3458 0.9746
-3.9592 4.4768 -2.3455 0.9746
-4.6236 4.3730 -2.4977 0.9730
-5.3252 3.4836 -2.4975 0.9730
-5.6140 2.9957 -2.4974 0.9730
-6.0559 1.9528 -2.4973 0.9730
-6.3062 0.8481 -2.4973 0.9730
-2.8734 -0.3864 -1.1379 0.9876
-2.8403 -0.9159 -1.1712 0.9873
-2.8717 -1.2177 -1.2242 0.9867
-5.6150 -2.9962 -2.4979 0.9730
-5.3264 -3.4843 -2.4980 0.9730
-4.2175 -4.7687 -2.4985 0.9730
-1.7510 -6.1235 -2.4996 0.9730
0.4963 -6.3519 -2.5005 0.9730
1.6150 -6.1643 -2.5010 0.9730
2.6828 -5.7812 -2.5013 0.9730
3.6658 -5.2146 -2.5017 0.9730
4.1156 -4.8679 -2.5018 0.9730
5.2562 -3.6082 -2.5022 0.9730
5.5567 -3.1261 -2.5023 0.9730
6.3617 -0.4258 -2.5024 0.9730
6.3362 0.7088 -2.5023 0.9730
6.2478 1.2699 -2.5022 0.9730
6.1097 1.8209 -2.5021 0.9730
4.7787 3.6038 -2.3490 0.9746
4.4387 4.0146 -2.3489 0.9746
4.0634 4.3934 -2.3487 0.9746
3.2196 5.0434 -2.3483 0.9746
2.7577 5.3095 -2.3481 0.9746
-1.3860 5.8158 -2.3464 0.9746
-2.8725 5.2418 -2.3459 0.9746
-3.7559 4.6488 -2.3456 0.9746
-4.1877 4.3301 -2.3642 0.9744
-4.8136 4.1625 -2.4976 0.9730
-5.1648 3.7175 -2.4975 0.9730
-6.1369 1.6811 -2.4973 0.9730
-6.2621 1.1282 -2.4973 0.9730
-4.1297 0.3690 -1.6273 0.9823
-3.1614 0.0000 -1.3018 0.9864
-2.8130 -0.2514 -1.1629 0.9879
-2.7831 -0.5014 -1.1645 0.9878
-2.7695 -0.7587 -1.1825 0.9877
-5.2195 -3.0915 -2.4980 0.9741
-4.9239 -3.5440 -2.4982 0.9741
-4.2181 -4.3615 -2.4985 0.9741
-3.8135 -4.7199 -2.4987 0.9741
-3.3785 -5.0410 -2.4989 0.9741
-2.9166 -5.3222 -2.4991 0.9741
-1.4073 -5.9051 -2.4997 0.9741
-0.8762 -6.0075 -2.5000 0.9741
-0.3380 -6.0622 -2.5002 0.9741
0.2029 -6.0687 -2.5004 0.9741
1.2759 -5.9376 -2.5008 0.9741
2.7999 -5.3907 -2.5014 0.9741
3.7118 -4.8095 -2.5017 0.9741
5.9550 -1.2104 -2.5023 0.9741
6.0026 0.9439 -2.5021 0.9741
5.7397 1.9931 -2.5019 0.9741
8.3091 3.7439 -3.7528 0.9613
7.9424 4.4683 -3.7526 0.9613
4.0556 4.0107 -2.3487 0.9756
3.6823 4.3554 -2.3485 0.9756
2.4002 5.1723 -2.3480 0.9756
1.9301 5.3649 -2.3478 0.9756
1.4448 5.5149 -2.3476 0.9756
0.9482 5.6212 -2.3474 0.9756
0.4441 5.6827 -2.3472 0.9756
-0.0635 5.6992 -2.3470 0.9756
-1.0728 5.5967 -2.3466 0.9756
-2.9577 4.8690 -2.3459 0.9757
-3.7768 4.2705 -2.3475 0.9756
-4.4069 4.1681 -2.4978 0.9741
-4.7602 3.7591 -2.4977 0.9741
-5.5837 2.3677 -2.4974 0.9741
-5.7722 1.8613 -2.4974 0.9741
-5.9149 1.3402 -2.4974 0.9741
-6.0107 0.8084 -2.4974 0.9741
-3.5093 0.1565 -1.4465 0.9849
-2.7756 -0.6289 -1.1719 0.9878
-2.7775 -0.8956 -1.2017 0.9875
-5.3519 -2.8558 -2.4979 0.9741
-5.0768 -3.3210 -2.4981 0.9741
-4.7613 -3.7599 -2.4983 0.9741
-4.4081 -4.1691 -2.4984 0.9741
-3.1507 -5.1868 -2.4990 0.9741
-1.1429 -5.9623 -2.4999 0.9741
-0.0676 -6.0715 -2.5003 0.9741
1.5392 -5.8751 -2.5009 0.9741
2.0562 -5.7152 -2.5011 0.9741
5.0095 -3.4388 -2.5021 0.9741
5.5402 -2.4962 -2.5022 0.9741
5.7404 -1.9933 -2.5023 0.9741
5.8951 -1.4745 -2.5023 0.9741
6.0751 0.1354 -2.5022 0.9741
5.8229 1.7354 -2.5020 0.9741
8.1339 4.1102 -3.7527 0.9613
4.8424 3.0159 -2.3491 0.9756
4.5545 3.4347 -2.3490 0.9756
4.2304 3.8262 -2.3488 0.9756
3.8728 4.1872 -2.3486 0.9756
3.4845 4.5149 -2.3485 0.9756
2.1673 5.2738 -2.3479 0.9756
1.6891 5.4453 -2.3477 0.9756
1.1977 5.5736 -2.3475 0.9756
-0.8224 5.6392 -2.3467 0.9756
-2.2825 5.2203 -2.3461 0.9757
-2.7379 4.9961 -2.3460 0.9757
-3.5799 4.4310 -2.3457 0.9757
-4.9228 3.5432 -2.4976 0.9741
-5.4728 2.6141 -2.4975 0.9741
-5.8494 1.6023 -2.4974 0.9741
-5.9688 1.0754 -2.4974 0.9741
-3.9772 0.3554 -1.6443 0.9829
-2.7092 -0.7421 -1.2117 0.9878
-2.7209 -1.0133 -1.2524 0.9874
-2.7884 -1.6516 -1.3980 0.9860
-4.7006 -3.3833 -2.4982 0.9751
-4.3811 -3.7885 -2.4984 0.9751
-4.0268 -4.1636 -2.4986 0.9751
-2.7843 -5.0807 -2.4991 0.9751
-1.8397 -5.4948 -2.4995 0.9751
-1.3434 -5.6372 -2.4997 0.9751
0.7086 -5.7535 -2.5006 0.9751
2.6727 -5.1459 -2.5013 0.9751
3.1204 -4.8879 -2.5014 0.9751
3.5432 -4.5910 -2.5016 0.9751
4.3015 -3.8904 -2.5018 0.9751
4.6309 -3.4923 -2.5019 0.9750
4.9235 -3.0663 -2.5020 0.9750
5.1770 -2.6160 -2.5021 0.9750
5.3894 -2.1450 -2.5021 0.9750
5.6844 -1.1554 -2.5022 0.9750
5.7299 0.9010 -2.5020 0.9750
5.4790 1.9026 -2.5018 0.9751
7.9317 3.5739 -3.7527 0.9628
4.4895 3.0819 -2.3490 0.9766
4.1971 3.4691 -2.3488 0.9766
3.8715 3.8286 -2.3487 0.9766
2.7218 4.7143 -2.3481 0.9766
1.8425 5.1214 -2.3478 0.9766
-0.0606 5.4406 -2.3470 0.9766
-0.5446 5.4131 -2.3468 0.9766
-1.0241 5.3428 -2.3466 0.9766
-2.8235 4.6482 -2.3460 0.9766
-3.7469 4.2368 -2.4397 0.9757
-4.2071 3.9791 -2.4979 0.9751
-4.8455 3.1699 -2.4977 0.9751
-5.3305 2.2604 -2.4976 0.9751
-5.5105 1.7769 -2.4975 0.9751
-5.6467 1.2794 -2.4975 0.9751
-3.3811 0.1508 -1.4599 0.9854
-2.7200 -0.6163 -1.2030 0.9879
-5.1092 -2.7263 -2.4980 0.9751
-4.5454 -3.5894 -2.4983 0.9751
-4.2081 -3.9800 -2.4985 0.9751
-3.4363 -4.6637 -2.4988 0.9751
-3.0078 -4.9514 -2.4990 0.9751
-1.5931 -5.5715 -2.4996 0.9751
1.9628 -5.4557 -2.5010 0.9751
2.4408 -5.2597 -2.5012 0.9751
3.3351 -4.7442 -2.5015 0.9751
5.0553 -2.8440 -2.5021 0.9750
5.2885 -2.3828 -2.5021 0.9750
5.4797 -1.9027 -2.5021 0.9750
5.7877 -0.3874 -2.5021 0.9750
5.7991 0.1293 -2.5021 0.9750
5.5585 1.6566 -2.5019 0.9750
8.0832 3.2170 -3.7528 0.9628
4.0383 3.6525 -2.3487 0.9766
3.6969 3.9971 -2.3486 0.9766
2.9292 4.5886 -2.3482 0.9766
1.6125 5.1982 -2.3477 0.9766
1.1433 5.3206 -2.3475 0.9766
0.1818 5.4381 -2.3471 0.9766
-0.3029 5.4323 -2.3469 0.9766
-0.7851 5.3833 -2.3467 0.9766
-1.2611 5.2917 -2.3465 0.9766
-1.7269 5.1581 -2.3463 0.9766
-2.1790 4.9836 -2.3462 0.9766
-3.0277 4.5177 -2.3459 0.9766
-4.6996 3.3826 -2.4977 0.9751
-4.9819 2.9508 -2.4976 0.9751
-5.6981 1.0266 -2.4975 0.9751
-2.9980 0.0000 -1.3528 0.9869
-2.6546 -0.7272 -1.2419 0.9880
-4.1884 -3.6218 -2.4985 0.9760
-3.8496 -3.9805 -2.4986 0.9760
-3.4803 -4.3076 -2.4988 0.9760
-2.6618 -4.8572 -2.4992 0.9760
-1.7587 -5.2529 -2.4996 0.9760
-1.2843 -5.3891 -2.4998 0.9760
-0.7996 -5.4824 -2.4999 0.9760
0.6774 -5.5002 -2.5005 0.9760
1.1644 -5.4184 -2.5007 0.9760
1.6421 -5.2937 -2.5009 0.9760
2.5550 -4.9193 -2.5012 0.9760
3.3872 -4.3888 -2.5015 0.9760
4.7066 -2.9313 -2.5019 0.9760
4.9490 -2.5008 -2.5020 0.9760
5.5437 -0.1235 -2.5020 0.9760
5.5326 0.3704 -2.5020 0.9760
7.5824 3.4164 -3.7526 0.9642
6.8558 4.7062 -3.7522 0.9642
3.7010 3.6600 -2.3486 0.9774
3.3603 3.9746 -2.3484 0.9774
2.9930 4.2576 -2.3483 0.9774
2.6020 4.5068 -2.3481 0.9774
1.7614 4.8960 -2.3477 0.9774
0.8653 5.1299 -2.3474 0.9774
0.4053 5.1861 -2.3472 0.9774
-0.5206 5.1750 -2.3468 0.9774
-0.9791 5.1078 -2.3466 0.9774
-1.4297 5.0000 -2.3465 0.9774
-2.2932 4.6667 -2.3462 0.9774
-2.6993 4.4437 -2.3460 0.9774
-3.0840 4.1856 -2.3459 0.9774
-4.3445 3.4309 -2.4979 0.9760
-5.2682 1.6988 -2.4976 0.9760
-5.3984 1.2232 -2.4976 0.9760
-2.7833 -0.1241 -1.2571 0.9878
-2.6870 -0.3614 -1.2234 0.9882
-2.6659 -0.6040 -1.2334 0.9881
-2.6574 -0.8569 -1.2599 0.9878
-2.6675 -1.1311 -1.3074 0.9874
-3.6686 -4.1481 -2.4987 0.9760
-3.2851 -4.4585 -2.4989 0.9760
-2.8754 -4.7336 -2.4991 0.9760
-2.4429 -4.9711 -2.4993 0.9760
-1.5230 -5.3263 -2.4997 0.9760
-0.5546 -5.5128 -2.5000 0.9760
0.4317 -5.5247 -2.5004 0.9760
1.4046 -5.3614 -2.5008 0.9760
3.9422 -3.8985 -2.5017 0.9760
4.2737 -3.5323 -2.5018 0.9760
4.5713 -3.1380 -2.5019 0.9760
5.0555 -2.2779 -2.5020 0.9760
5.2383 -1.8189 -2.5020 0.9760
5.3794 -1.3454 -2.5021 0.9760
5.3136 1.5837 -2.5018 0.9760
5.1514 2.0502 -2.5017 0.9760
7.0588 4.3963 -3.7523 0.9642
4.1562 3.1344 -2.3488 0.9774
2.8003 4.3866 -2.3482 0.9774
1.9778 4.8128 -2.3478 0.9774
1.5415 4.9694 -2.3477 0.9774
1.0930 5.0864 -2.3475 0.9774
0.1738 5.1988 -2.3471 0.9774
-0.2896 5.1932 -2.3469 0.9774
-2.0831 4.7643 -2.3462 0.9774
-2.4988 4.5597 -2.3461 0.9774
-4.1874 3.6211 -2.4979 0.9760
-4.7628 2.8211 -2.4977 0.9760
-4.9949 2.3859 -2.4977 0.9760
-5.1873 1.9318 -2.4976 0.9760
-5.3386 1.4624 -2.4976 0.9760
-5.4476 0.9815 -2.4976 0.9760
-2.6448 -0.2363 -1.2517 0.9883
-2.6212 -0.4722 -1.2555 0.9883
-2.6023 -0.9691 -1.3090 0.9878
-2.6052 -1.2444 -1.3609 0.9873
-4.3018 -3.0962 -2.4984 0.9768
-4.0093 -3.4670 -2.4985 0.9768
-3.6851 -3.8103 -2.4987 0.9768
-3.3315 -4.1235 -2.4988 0.9768
-2.5480 -4.6495 -2.4992 0.9768
-1.2293 -5.1586 -2.4998 0.9768
0.1772 -5.3013 -2.5003 0.9768
1.1145 -5.1866 -2.5007 0.9768
2.0168 -4.9075 -2.5010 0.9768
2.4457 -4.7088 -2.5012 0.9768
3.2422 -4.2010 -2.5014 0.9768
3.9361 -3.5599 -2.5017 0.9768
4.2375 -3.1956 -2.5018 0.9768
4.5052 -2.8058 -2.5018 0.9768
4.7372 -2.3937 -2.5019 0.9768
4.9315 -1.9627 -2.5019 0.9768
5.2014 -1.0572 -2.5020 0.9768
5.2749 -0.5900 -2.5020 0.9768
5.0135 1.7409 -2.5017 0.9768
6.9377 3.9031 -3.7523 0.9654
3.8406 3.1744 -2.3487 0.9782
3.5426 3.5034 -2.3486 0.9782
3.2165 3.8046 -2.3484 0.9782
2.8649 4.0755 -2.3482 0.9782
2.0967 4.5182 -2.3479 0.9782
1.2622 4.8176 -2.3476 0.9782
-0.0555 4.9788 -2.3470 0.9782
-0.4983 4.9537 -2.3468 0.9782
-1.7890 4.6451 -2.3464 0.9782
-2.5839 4.2538 -2.3461 0.9782
-3.0313 4.1142 -2.4089 0.9777
-3.5110 3.9699 -2.4981 0.9768
-3.8502 3.6415 -2.4980 0.9768
-4.1588 3.2842 -2.4979 0.9768
-4.6750 2.4947 -2.4978 0.9768
-4.8784 2.0687 -2.4977 0.9768
-5.1678 1.1709 -2.4977 0.9768
-5.2515 0.7063 -2.4977 0.9768
-4.4353 -2.9014 -2.4983 0.9768
-3.8510 -3.6423 -2.4986 0.9768
-3.1446 -4.2679 -2.4989 0.9768
-2.7525 -4.5312 -2.4991 0.9768
-2.3384 -4.7585 -2.4993 0.9768
-0.9984 -5.2084 -2.4998 0.9768
0.8824 -5.2310 -2.5006 0.9768
1.3445 -5.1320 -2.5008 0.9768
1.7961 -4.9923 -2.5009 0.9768
3.0518 -4.3412 -2.5014 0.9768
3.4262 -4.0525 -2.5015 0.9768
3.7735 -3.7316 -2.5016 0.9768
4.8391 -2.1804 -2.5019 0.9768
5.0141 -1.7410 -2.5019 0.9768
5.1492 -1.2879 -2.5020 0.9768
5.2434 -0.8245 -2.5020 0.9768
5.2747 0.5901 -2.5019 0.9768
5.2011 1.0572 -2.5018 0.9768
4.9309 1.9625 -2.5016 0.9768
7.1048 3.5902 -3.7524 0.9654
6.7567 4.2081 -3.7522 0.9654
6.3550 4.7926 -3.7520 0.9654
3.6953 3.3422 -2.3486 0.9782
1.0463 4.8689 -2.3475 0.9782
0.6087 4.9423 -2.3473 0.9782
0.1664 4.9765 -2.3471 0.9782
-1.1540 4.8426 -2.3466 0.9782
-1.9941 4.5607 -2.3463 0.9782
-2.3920 4.3648 -2.3461 0.9782
-2.7708 4.1344 -2.3460 0.9782
-3.3307 4.1225 -2.4982 0.9768
-3.6842 3.8095 -2.4981 0.9768
-4.3009 3.0957 -2.4979 0.9768
-4.5593 2.7005 -2.4978 0.9768
-4.7814 2.2839 -2.4978 0.9768
-4.9656 1.8493 -2.4977 0.9768
-3.7077 0.3313 -1.7547 0.9837
-2.8280 0.0000 -1.3909 0.9875
-2.5457 -1.2160 -1.3876 0.9875
-4.1228 -2.9674 -2.4984 0.9776
-3.8425 -3.3227 -2.4986 0.9776
-3.5317 -3.6518 -2.4987 0.9776
-2.8287 -4.2206 -2.4990 0.9776
-2.4419 -4.4560 -2.4992 0.9776
-2.0358 -4.6559 -2.4994 0.9776
-1.1782 -4.9438 -2.4998 0.9776
-0.2830 -5.0751 -2.5001 0.9776
0.1699 -5.0806 -2.5003 0.9776
2.3438 -4.5126 -2.5011 0.9776
2.7363 -4.2864 -2.5013 0.9776
3.4533 -3.7336 -2.5015 0.9776
3.7721 -3.4116 -2.5016 0.9776
4.0609 -3.0625 -2.5017 0.9776
4.5398 -2.2940 -2.5018 0.9776
5.0551 -0.5655 -2.5019 0.9776
5.0853 -0.1133 -2.5019 0.9776
5.0751 0.3397 -2.5018 0.9776
4.9342 1.2342 -2.5017 0.9776
4.8047 1.6684 -2.5016 0.9776
4.6369 2.0893 -2.5015 0.9776
6.6486 3.7404 -3.7522 0.9666
6.2890 4.3172 -3.7520 0.9666
1.6159 4.4914 -2.3477 0.9789
1.2096 4.6171 -2.3475 0.9789
0.7938 4.7061 -2.3474 0.9790
-0.0532 4.7715 -2.3470 0.9790
-0.8982 4.6859 -2.3467 0.9790
-1.3116 4.5870 -2.3466 0.9790
-2.4765 4.0768 -2.3461 0.9790
-3.3648 3.8047 -2.4982 0.9776
-3.6900 3.4900 -2.4981 0.9776
-3.9858 3.1476 -2.4980 0.9776
-4.2500 2.7802 -2.4979 0.9776
-4.6754 1.9826 -2.4978 0.9776
-2.6467 -0.1180 -1.3031 0.9883
-2.5845 -0.3476 -1.2826 0.9884
-2.5441 -1.0788 -1.3592 0.9878
-2.5301 -1.3501 -1.4105 0.9873
-4.2507 -2.7807 -2.4984 0.9776
-3.9866 -3.1482 -2.4985 0.9776
-3.6908 -3.4907 -2.4987 0.9776
-3.0138 -4.0903 -2.4990 0.9776
-2.6379 -4.3426 -2.4991 0.9776
-2.2411 -4.5605 -2.4993 0.9776
-0.0566 -5.0829 -2.5002 0.9776
0.3960 -5.0681 -2.5004 0.9776
1.2885 -4.9182 -2.5007 0.9776
2.5426 -4.4039 -2.5012 0.9776
2.9247 -4.1603 -2.5013 0.9776
3.6163 -3.5762 -2.5015 0.9776
3.9204 -3.2402 -2.5016 0.9776
4.1934 -2.8785 -2.5017 0.9776
4.4330 -2.4940 -2.5018 0.9776
4.6375 -2.0896 -2.5018 0.9776
5.0249 -0.7901 -2.5019 0.9776
4.9844 1.0132 -2.5017 0.9776
4.8743 1.4527 -2.5016 0.9776
6.4753 4.0328 -3.7521 0.9666
6.0903 4.5929 -3.7519 0.9666
3.5414 3.2030 -2.3486 0.9789
3.2420 3.5053 -2.3484 0.9789
1.8144 4.4151 -2.3478 0.9789
1.4141 4.5587 -2.3476 0.9789
1.0027 4.6662 -2.3475 0.9789
0.1595 4.7693 -2.3471 0.9790
-0.2656 4.7643 -2.3470 0.9790
-0.6886 4.7214 -2.3468 0.9790
-1.1060 4.6411 -2.3466 0.9790
-1.9111 4.3709 -2.3463 0.9790
-2.2924 4.1832 -2.3462 0.9790
-2.7206 4.0594 -2.4035 0.9785
-3.5309 3.6510 -2.4982 0.9776
-4.1220 2.9669 -2.4980 0.9776
-4.3696 2.5881 -2.4979 0.9776
-4.5825 2.1889 -2.4979 0.9776
-4.9979 0.9004 -2.4978 0.9776
-3.6334 0.3247 -1.7942 0.9839
-2.7481 0.0000 -1.4089 0.9877
-2.5199 -0.4540 -1.3126 0.9886
-2.4994 -0.6846 -1.3286 0.9884
-2.4895 -0.9271 -1.3619 0.9881
-2.4879 -1.1884 -1.4135 0.9877
-2.4521 -1.4524 -1.4611 0.9873
-3.9555 -2.8470 -2.4985 0.9783
-3.0633 -3.7914 -2.4989 0.9783
-2.3428 -4.2751 -2.4992 0.9783
-1.9531 -4.4669 -2.4994 0.9783
-1.5479 -4.6233 -2.4996 0.9783
-1.1303 -4.7431 -2.4998 0.9783
-0.2715 -4.8691 -2.5001 0.9783
0.5962 -4.8407 -2.5004 0.9783
1.0248 -4.7687 -2.5006 0.9783
1.8543 -4.5121 -2.5009 0.9783
2.2486 -4.3293 -2.5011 0.9783
2.9809 -3.8624 -2.5013 0.9783
4.6767 -1.3938 -2.5018 0.9783
4.7822 -0.9720 -2.5018 0.9783
4.8787 -0.1087 -2.5018 0.9783
4.8689 0.3260 -2.5017 0.9783
4.8205 0.7580 -2.5017 0.9783
4.6094 1.6006 -2.5015 0.9783
4.4485 2.0044 -2.5014 0.9783
2.9574 3.4980 -2.3483 0.9796
1.5503 4.3090 -2.3477 0.9796
0.7616 4.5150 -2.3474 0.9796
0.3567 4.5645 -2.3472 0.9796
-0.8617 4.4957 -2.3467 0.9796
-1.6450 4.2711 -2.3464 0.9796
-2.4346 4.0080 -2.4041 0.9791
-2.8907 3.9234 -2.4984 0.9783
-3.2283 3.6503 -2.4983 0.9783
-3.8241 3.0199 -2.4981 0.9783
-4.0776 2.6675 -2.4980 0.9783
-4.2987 2.2939 -2.4980 0.9783
-4.4857 1.9021 -2.4979 0.9783
-4.7518 1.0767 -2.4979 0.9783
-4.8288 0.6495 -2.4979 0.9783
-2.4881 -0.8023 -1.3403 0.9883
-2.4717 -1.3189 -1.4363 0.9875
-4.0783 -2.6678 -2.4984 0.9783
-3.8248 -3.0204 -2.4986 0.9783
-3.2290 -3.6511 -2.4988 0.9783
-2.8914 -3.9243 -2.4990 0.9783
-2.5308 -4.1663 -2.4992 0.9783
-2.1501 -4.3753 -2.4993 0.9783
-1.7523 -4.5496 -2.4995 0.9783
-1.3405 -4.6879 -2.4997 0.9783
-0.4881 -4.8520 -2.5000 0.9783
-0.0543 -4.8765 -2.5002 0.9783
0.3800 -4.8623 -2.5004 0.9783
0.8113 -4.8095 -2.5005 0.9783
1.2362 -4.7185 -2.5007 0.9783
2.0535 -4.4251 -2.5010 0.9783
2.8058 -3.9913 -2.5013 0.9783
3.1501 -3.7259 -2.5014 0.9783
3.4694 -3.4309 -2.5015 0.9783
4.0230 -2.7616 -2.5016 0.9783
4.4491 -2.0046 -2.5017 0.9783
4.6099 -1.6007 -2.5018 0.9783
4.8495 0.5425 -2.5017 0.9783
4.3547 2.2006 -2.5014 0.9783
6.2122 3.8690 -3.7520 0.9676
5.4272 4.9086 -3.7516 0.9676
2.4645 3.8606 -2.3481 0.9796
2.1110 4.0643 -2.3479 0.9796
1.7407 4.2358 -2.3478 0.9796
1.3567 4.3737 -2.3476 0.9796
-0.2549 4.5709 -2.3470 0.9796
-0.6606 4.5298 -2.3468 0.9796
-1.8335 4.1935 -2.3464 0.9796
-3.3876 3.5028 -2.4982 0.9783
-3.6858 3.1873 -2.4981 0.9783
-4.6992 1.2873 -2.4979 0.9783
-2.6714 -0.0000 -1.4261 0.9880
-2.4853 -0.2221 -1.3321 0.9887
-2.4352 -0.9069 -1.3872 0.9883
-2.4292 -1.1603 -1.4371 0.9879
-2.3944 -1.4182 -1.4856 0.9875
-3.7987 -2.7341 -2.4985 0.9790
-2.9418 -3.6412 -2.4990 0.9790
-2.2499 -4.1056 -2.4993 0.9790
-1.4865 -4.4400 -2.4996 0.9790
-1.0855 -4.5550 -2.4998 0.9790
-0.6758 -4.6338 -2.4999 0.9790
-0.2607 -4.6759 -2.5001 0.9790
0.5725 -4.6487 -2.5004 0.9790
1.3879 -4.4740 -2.5007 0.9790
1.7807 -4.3330 -2.5009 0.9790
2.1594 -4.1576 -2.5010 0.9790
2.5210 -3.9491 -2.5011 0.9790
3.1815 -3.4398 -2.5014 0.9790
3.4752 -3.1431 -2.5015 0.9790
3.7413 -2.8214 -2.5015 0.9790
4.1824 -2.1135 -2.5017 0.9790
4.3540 -1.7328 -2.5017 0.9790
4.6572 -0.5210 -2.5017 0.9790
4.6850 -0.1044 -2.5017 0.9790
4.6757 0.3130 -2.5017 0.9790
4.6292 0.7279 -2.5016 0.9790
4.2720 1.9249 -2.5014 0.9790
4.0835 2.2974 -2.5013 0.9790
5.7941 3.9774 -3.7518 0.9686
5.4168 4.4771 -3.7516 0.9686
2.8400 3.3592 -2.3483 0.9803
1.4888 4.1381 -2.3477 0.9803
0.7314 4.3359 -2.3474 0.9803
-1.5798 4.1018 -2.3465 0.9803
-1.9385 3.9447 -2.3464 0.9803
-2.7761 3.7679 -2.4984 0.9790
-3.1003 3.5057 -2.4983 0.9790
-3.6725 2.9002 -2.4982 0.9790
-4.5635 1.0340 -2.4980 0.9790
-2.8952 0.1291 -1.5471 0.9869
-2.5303 -0.1128 -1.3521 0.9886
-2.4861 -0.3343 -1.3391 0.9887
-2.4353 -0.7853 -1.3660 0.9885
-2.4330 -1.0317 -1.4108 0.9881
-2.4151 -1.2887 -1.4613 0.9877
-2.4322 -1.5911 -1.5516 0.9869
-3.6732 -2.9006 -2.4986 0.9790
-3.1010 -3.5064 -2.4989 0.9790
-2.7768 -3.7687 -2.4990 0.9790
-1.6828 -4.3692 -2.4995 0.9790
-1.2873 -4.5020 -2.4997 0.9790
-0.8815 -4.5990 -2.4998 0.9790
-0.4687 -4.6595 -2.5000 0.9790
-0.0522 -4.6830 -2.5002 0.9790
1.5859 -4.4079 -2.5008 0.9790
1.9720 -4.2495 -2.5009 0.9790
2.3425 -4.0573 -2.5011 0.9790
2.6945 -3.8329 -2.5012 0.9790
3.0251 -3.5780 -2.5013 0.9790
3.6118 -2.9852 -2.5015 0.9790
4.0841 -2.2977 -2.5016 0.9790
4.4269 -1.5371 -2.5017 0.9790
4.5462 -1.1371 -2.5017 0.9790
4.6758 -0.3130 -2.5017 0.9790
4.6570 0.5210 -2.5016 0.9790
4.4906 1.3384 -2.5015 0.9790
4.3536 1.7327 -2.5014 0.9790
4.1819 2.1132 -2.5013 0.9790
5.9657 3.7155 -3.7519 0.9686
5.2119 4.7138 -3.7515 0.9686
2.6875 3.4823 -2.3482 0.9803
2.3667 3.7074 -2.3481 0.9803
2.0272 3.9031 -2.3479 0.9803
1.6717 4.0678 -2.3478 0.9803
0.9238 4.2992 -2.3475 0.9803
0.1469 4.3943 -2.3471 0.9803
-0.6344 4.3502 -2.3468 0.9803
-1.3955 4.1682 -2.3466 0.9803
-1.7609 4.0272 -2.3464 0.9803
-3.2534 3.3640 -2.4983 0.9790
-3.5397 3.0610 -2.4982 0.9790
-3.7980 2.7337 -2.4981 0.9790
-4.0261 2.3847 -2.4981 0.9790
-3.5313 0.3155 -1.8927 0.9841
-2.4243 -0.4368 -1.3681 0.9888
-2.4018 -0.6579 -1.3831 0.9887
-2.3823 -0.8872 -1.4119 0.9884
-3.4031 -2.9428 -2.4987 0.9796
-3.1278 -3.2341 -2.4989 0.9796
-2.5051 -3.7379 -2.4991 0.9796
-1.4288 -4.2677 -2.4996 0.9796
-1.0434 -4.3782 -2.4998 0.9796
-0.6496 -4.4540 -2.4999 0.9796
-0.2506 -4.4945 -2.5001 0.9796
0.1504 -4.4992 -2.5002 0.9796
0.5503 -4.4682 -2.5004 0.9796
2.0756 -3.9961 -2.5010 0.9796
2.4231 -3.7957 -2.5011 0.9796
2.7515 -3.5652 -2.5012 0.9796
3.3403 -3.0210 -2.5014 0.9796
3.5960 -2.7118 -2.5015 0.9796
4.0200 -2.0314 -2.5016 0.9796
4.3166 -1.2864 -2.5016 0.9796
4.4763 -0.5007 -2.5016 0.9796
4.5031 -0.1003 -2.5016 0.9796
4.3605 5.1577 -3.7512 0.9696
2.4314 3.4588 -2.3481 0.9808
2.1138 3.6612 -2.3480 0.9808
1.0712 4.0888 -2.3475 0.9808
0.3292 4.2134 -2.3472 0.9808
-0.4230 4.2045 -2.3469 0.9809
-0.7955 4.1499 -2.3468 0.9809
-1.1616 4.0624 -2.3467 0.9809
-1.5185 3.9427 -2.3465 0.9809
-1.9228 3.9129 -2.4214 0.9802
-2.3356 3.8450 -2.4986 0.9796
-2.6685 3.6217 -2.4985 0.9796
-2.9801 3.3696 -2.4984 0.9796
-3.2681 3.0910 -2.4983 0.9796
-3.5301 2.7877 -2.4982 0.9796
-3.7641 2.4624 -2.4982 0.9796
-4.1409 1.7559 -2.4981 0.9796
-4.2807 1.3804 -2.4980 0.9796
-4.4576 0.5995 -2.4980 0.9796
-2.4745 -0.1104 -1.3757 0.9887
-2.3870 -0.7697 -1.3929 0.9886
-2.3793 -1.0089 -1.4353 0.9882
-2.3600 -1.2593 -1.4857 0.9878
