ply
format ascii 1.0
element vertex 1586
property float32 x
property float32 y
property float32 z
property float32 I
end_header
-5.0740 -7.5710 -0.0757 0.9642
-6.5347 -5.1604 -0.0692 0.9672
4.7598 5.1462 -0.0583 0.9723
-7.2355 -5.2078 -0.2223 0.9650
-6.1547 -5.3222 -0.2029 0.9680
-5.5508 -5.7395 -0.1991 0.9686
-5.1519 -6.3765 -0.2044 0.9677
-5.1575 -7.6955 -0.2310 0.9636
-5.8230 -5.5074 -0.1999 0.9684
-5.3267 -6.0230 -0.2005 0.9683
-7.4031 -5.3284 -0.3793 0.9641
-6.2034 -5.3643 -0.3410 0.9677
-6.6512 -5.2524 -0.3524 0.9666
-5.3674 -6.0690 -0.3369 0.9681
-7.7924 -5.6087 -0.5592 0.9623
-5.2542 -6.5032 -0.4869 0.9671
-5.1775 -7.0270 -0.5084 0.9656
-5.4747 -6.1904 -0.6193 0.9674
-5.2916 -7.1818 -0.6685 0.9648
4.7585 5.1449 -0.5252 0.9723
-5.7801 -5.9766 -0.7622 0.9672
-5.4132 -6.7000 -0.7897 0.9660
-6.0660 -5.7372 -0.7655 0.9670
-5.4969 -7.4605 -0.8496 0.9635
4.7582 5.1446 -0.6424 0.9722
-5.5489 -6.8679 -0.9577 0.9651
-6.1661 -5.8318 -0.9206 0.9664
-5.6540 -6.3930 -0.9257 0.9662
4.7579 5.1442 -0.7600 0.9722
-6.8094 -5.8883 -1.1281 0.9644
-6.0107 -6.2150 -1.0835 0.9657
-5.7824 -7.1569 -1.1530 0.9636
-6.3258 -5.9829 -1.0911 0.9655
-5.8011 -6.5594 -1.0973 0.9653
4.7576 5.1439 -0.8781 0.9721
-6.2220 -6.4334 -1.2730 0.9645
-6.5719 -6.2156 -1.2866 0.9641
4.7573 5.1435 -0.9965 0.9721
13.9472 4.8430 -2.3510 0.9420
12.1684 8.3532 -2.3503 0.9420
10.4919 10.3757 -2.3497 0.9420
9.5254 11.2667 -2.3493 0.9420
8.4835 12.0680 -2.3490 0.9420
6.2074 13.3767 -2.3482 0.9420
4.9914 13.8738 -2.3478 0.9420
-0.1641 14.7336 -2.3463 0.9421
-1.4746 14.6581 -2.3459 0.9421
-8.7313 11.8503 -2.3439 0.9421
-10.6919 10.1123 -2.3434 0.9421
-11.5485 9.1198 -2.3432 0.9421
-12.3135 8.0552 -2.3430 0.9421
-12.9809 6.9268 -2.3429 0.9421
14.4699 2.9412 -2.3512 0.9419
11.7836 8.8864 -2.3501 0.9420
7.9369 12.4330 -2.3488 0.9420
6.7977 13.0879 -2.3484 0.9420
4.3680 14.0812 -2.3476 0.9420
1.8016 14.6277 -2.3469 0.9421
0.4924 14.7275 -2.3465 0.9421
-5.8988 13.4910 -2.3446 0.9421
-7.0752 12.9107 -2.3443 0.9421
-9.2501 11.4489 -2.3438 0.9421
-10.2313 10.5791 -2.3435 0.9421
-11.9429 8.5960 -2.3431 0.9421
-12.6598 7.4984 -2.3430 0.9421
-14.1518 0.0000 -2.4953 0.9441
-13.9287 -2.5094 -2.4955 0.9441
-13.6509 -3.7394 -2.4957 0.9441
-12.7736 -6.1014 -2.4961 0.9441
-11.4917 -8.2712 -2.4966 0.9441
-5.6768 -12.9832 -2.4986 0.9441
-4.4994 -13.4390 -2.4989 0.9441
-2.0459 -14.0281 -2.4997 0.9440
0.4739 -14.1728 -2.5005 0.9440
5.3933 -13.1237 -2.5018 0.9440
8.6719 -11.2364 -2.5027 0.9440
9.6385 -10.4210 -2.5030 0.9440
11.3353 -8.5483 -2.5034 0.9440
12.0519 -7.5059 -2.5035 0.9440
13.6082 -4.0556 -2.5038 0.9440
13.9152 -2.8284 -2.5038 0.9440
14.1117 -1.5786 -2.5038 0.9440
14.1959 -0.3163 -2.5037 0.9440
12.9335 3.2349 -2.3508 0.9473
12.5934 4.3729 -2.3506 0.9473
11.6165 6.5354 -2.3502 0.9473
10.9876 7.5426 -2.3500 0.9473
6.6594 11.5345 -2.3485 0.9473
3.3739 12.8782 -2.3474 0.9474
1.0368 13.2684 -2.3467 0.9474
-1.3318 13.2380 -2.3460 0.9474
-2.5044 13.0651 -2.3457 0.9474
-4.7799 12.4107 -2.3450 0.9474
-7.8861 10.7031 -2.3442 0.9474
-8.8066 9.9578 -2.3440 0.9474
-9.6571 9.1337 -2.3438 0.9474
-13.4687 4.3431 -2.4953 0.9441
-13.8016 3.1270 -2.4953 0.9441
-14.1376 0.6304 -2.4953 0.9441
-14.1380 -0.6304 -2.4954 0.9441
-13.4712 -4.3439 -2.4958 0.9441
-12.4897 -6.6647 -2.4962 0.9441
-10.2885 -9.7308 -2.4970 0.9441
-8.4024 -11.4038 -2.4977 0.9441
-6.2491 -12.7165 -2.4984 0.9441
-5.0932 -13.2242 -2.4988 0.9441
-3.8966 -13.6271 -2.4991 0.9441
-2.6686 -13.9220 -2.4995 0.9440
-1.4190 -14.1063 -2.4999 0.9440
2.3592 -13.9863 -2.5010 0.9440
4.8030 -13.3501 -2.5017 0.9440
5.9729 -12.8713 -2.5020 0.9440
8.1623 -11.6110 -2.5026 0.9440
9.1643 -10.8395 -2.5028 0.9440
10.0936 -9.9818 -2.5031 0.9440
11.7052 -8.0351 -2.5034 0.9440
12.3746 -6.9618 -2.5036 0.9440
12.9456 -5.8330 -2.5037 0.9440
13.7754 -3.4455 -2.5038 0.9440
14.1679 -0.9484 -2.5038 0.9440
14.1957 0.3164 -2.5037 0.9440
13.2504 1.4823 -2.3510 0.9473
13.0652 2.6556 -2.3508 0.9473
12.7761 3.8077 -2.3507 0.9473
12.3856 4.9294 -2.3505 0.9473
11.8967 6.0117 -2.3503 0.9473
9.8825 8.9382 -2.3496 0.9473
4.7566 5.1428 -1.2352 0.9719
7.1671 11.2271 -2.3486 0.9473
0.4447 13.3004 -2.3465 0.9474
-3.0837 12.9396 -2.3455 0.9474
-6.3902 11.6607 -2.3446 0.9474
-8.3547 10.3407 -2.3441 0.9474
-11.4347 6.7728 -2.3434 0.9475
-13.2620 4.9388 -2.4953 0.9441
-13.6486 3.7388 -2.4953 0.9441
-13.9272 2.5091 -2.4953 0.9441
-12.8458 -1.1479 -2.4958 0.9488
-12.6932 -2.2868 -2.4959 0.9488
-12.4399 -3.4076 -2.4960 0.9488
-11.6403 -5.5601 -2.4964 0.9488
-9.7605 -8.4403 -2.4971 0.9488
-5.1727 -11.8303 -2.4987 0.9488
-4.0998 -12.2454 -2.4990 0.9487
-2.9940 -12.5635 -2.4993 0.9487
1.5796 -12.8254 -2.5007 0.9487
2.7152 -12.6356 -2.5010 0.9487
3.8296 -12.3453 -2.5013 0.9487
6.9574 -10.8986 -2.5022 0.9487
8.7812 -9.4941 -2.5027 0.9487
9.5921 -8.6755 -2.5028 0.9487
10.9797 -6.8382 -2.5032 0.9487
11.5453 -5.8341 -2.5033 0.9487
12.0191 -4.7835 -2.5034 0.9487
12.3974 -3.6948 -2.5034 0.9487
12.6772 -2.5767 -2.5034 0.9487
11.9991 1.8868 -2.3506 0.9517
10.5833 5.9541 -2.3499 0.9517
7.8367 9.2693 -2.3489 0.9517
5.1074 11.0061 -2.3480 0.9518
3.0742 11.7341 -2.3474 0.9518
2.0173 11.9595 -2.3471 0.9518
0.9447 12.0899 -2.3467 0.9518
-4.3556 11.3091 -2.3452 0.9518
-5.3443 10.8753 -2.3449 0.9518
-6.2904 10.3553 -2.3447 0.9518
-8.8003 8.3233 -2.3441 0.9518
-9.5055 7.5065 -2.3439 0.9519
-10.6847 5.7016 -2.3437 0.9519
-12.5774 2.8497 -2.4957 0.9488
-12.8839 -0.5745 -2.4957 0.9488
-11.8760 -5.0358 -2.4963 0.9488
-11.3815 -6.0734 -2.4965 0.9488
-10.7968 -7.0629 -2.4967 0.9488
-9.3754 -8.8672 -2.4972 0.9488
-6.7020 -11.0331 -2.4982 0.9488
-5.6942 -11.5873 -2.4985 0.9488
-4.6409 -12.0498 -2.4988 0.9488
-2.4316 -12.6852 -2.4995 0.9487
1.0066 -12.8822 -2.5005 0.9487
3.2756 -12.5029 -2.5012 0.9487
4.3760 -12.1632 -2.5015 0.9487
12.2204 -4.2434 -2.5034 0.9487
12.5498 -3.1389 -2.5034 0.9487
12.7794 -2.0095 -2.5034 0.9487
12.9074 -0.8640 -2.5034 0.9487
12.9328 0.2882 -2.5033 0.9487
11.9029 2.4194 -2.3505 0.9517
11.2839 4.4909 -2.3502 0.9517
10.8385 5.4770 -2.3500 0.9517
10.3071 6.4194 -2.3498 0.9517
9.6939 7.3105 -2.3496 0.9517
4.7563 5.1425 -1.3556 0.9719
7.4155 9.6086 -2.3488 0.9518
6.5301 10.2292 -2.3485 0.9518
5.5930 10.7684 -2.3482 0.9518
4.6117 11.2220 -2.3479 0.9518
2.5483 11.8586 -2.3472 0.9518
1.4825 12.0367 -2.3469 0.9518
0.4052 12.1192 -2.3466 0.9518
-0.6750 12.1055 -2.3463 0.9518
-3.8477 11.4926 -2.3454 0.9518
-4.8548 11.1032 -2.3451 0.9518
-5.8231 10.6258 -2.3448 0.9518
-9.1620 7.9227 -2.3440 0.9518
-9.8302 7.0754 -2.3438 0.9519
-10.4204 6.1720 -2.3437 0.9519
-12.4381 3.4071 -2.4957 0.9488
-12.6919 2.2866 -2.4956 0.9488
-12.8451 1.1479 -2.4957 0.9488
-11.6528 -2.0993 -2.4962 0.9527
-11.0972 -4.1327 -2.4965 0.9527
-10.6861 -5.1043 -2.4966 0.9527
-8.9602 -7.7482 -2.4973 0.9527
-7.4460 -9.2161 -2.4978 0.9527
-6.5970 -9.8433 -2.4981 0.9527
-5.6953 -10.3927 -2.4984 0.9527
-4.7485 -10.8599 -2.4987 0.9527
-3.7634 -11.2406 -2.4990 0.9527
-0.6602 -11.8400 -2.5000 0.9527
0.3963 -11.8533 -2.5003 0.9527
4.5102 -10.9748 -2.5015 0.9527
7.2515 -9.3961 -2.5022 0.9526
9.4783 -7.1479 -2.5027 0.9526
10.5964 -5.3546 -2.5030 0.9526
11.3785 -3.3912 -2.5031 0.9526
11.7996 -1.3199 -2.5031 0.9526
11.8700 -0.2645 -2.5031 0.9526
10.8147 2.7049 -2.3502 0.9555
10.5304 3.6566 -2.3500 0.9555
10.1624 4.5790 -2.3499 0.9555
9.1881 6.3073 -2.3495 0.9555
7.1931 8.5080 -2.3488 0.9555
5.5693 9.6464 -2.3482 0.9555
3.7698 10.4784 -2.3477 0.9555
2.8219 10.7710 -2.3474 0.9555
1.8518 10.9780 -2.3471 0.9555
0.8672 11.0979 -2.3468 0.9555
-0.1240 11.1296 -2.3465 0.9555
-3.9984 10.3817 -2.3454 0.9555
-7.3673 8.3304 -2.3445 0.9556
-8.0789 7.6411 -2.3443 0.9556
-8.7264 6.8912 -2.3442 0.9556
-10.9002 4.6221 -2.4960 0.9528
-11.2681 3.6336 -2.4960 0.9528
-11.5467 2.6161 -2.4960 0.9528
-11.8277 0.5274 -2.4960 0.9528
-11.7345 -1.5781 -2.4961 0.9528
-11.5480 -2.6164 -2.4963 0.9527
-10.9025 -4.6230 -2.4966 0.9527
-9.9116 -6.4838 -2.4970 0.9527
-8.6066 -8.1401 -2.4974 0.9527
-6.1523 -10.1280 -2.4983 0.9527
-5.2271 -10.6367 -2.4986 0.9527
-0.1321 -11.8584 -2.5001 0.9527
1.9730 -11.6968 -2.5008 0.9527
3.0066 -11.4761 -2.5011 0.9527
4.0166 -11.1642 -2.5013 0.9527
4.9948 -10.7636 -2.5016 0.9527
6.8255 -9.7093 -2.5021 0.9526
8.4402 -8.3467 -2.5025 0.9526
9.1502 -7.5628 -2.5027 0.9526
10.8246 -4.8773 -2.5030 0.9526
11.5184 -2.8809 -2.5031 0.9526
11.8466 -0.7930 -2.5031 0.9526
11.8699 0.2646 -2.5030 0.9526
10.6832 3.1839 -2.3501 0.9555
9.4603 5.8919 -2.3496 0.9555
8.8976 6.7100 -2.3494 0.9555
6.8066 8.8195 -2.3487 0.9555
5.9939 9.3893 -2.3484 0.9555
5.1338 9.8843 -2.3481 0.9555
0.3719 11.1247 -2.3466 0.9555
-0.6196 11.1123 -2.3463 0.9555
-1.6060 11.0117 -2.3460 0.9555
-3.5322 10.5501 -2.3455 0.9555
-5.3456 9.7546 -2.3450 0.9555
-7.7308 7.9936 -2.3444 0.9556
-8.4110 7.2733 -2.3442 0.9556
-9.0245 6.4954 -2.3441 0.9556
-10.6837 5.1032 -2.4961 0.9528
-11.4187 3.1279 -2.4960 0.9528
-11.6518 2.0991 -2.4960 0.9528
-11.7924 1.0538 -2.4960 0.9528
-10.9370 0.0000 -2.4963 0.9561
-10.8939 -0.9735 -2.4964 0.9561
-10.5495 -2.8898 -2.4966 0.9561
-10.2510 -3.8175 -2.4967 0.9561
-9.4130 -5.5753 -2.4971 0.9561
-8.8802 -6.3915 -2.4973 0.9561
-7.6076 -7.8662 -2.4977 0.9561
-6.8780 -8.5130 -2.4980 0.9561
-5.2608 -9.5997 -2.4985 0.9561
-4.3860 -10.0309 -2.4988 0.9561
-2.5385 -10.6521 -2.4994 0.9561
-1.5805 -10.8371 -2.4997 0.9561
1.3392 -10.8733 -2.5005 0.9560
3.2466 -10.4659 -2.5011 0.9560
5.0518 -9.7264 -2.5016 0.9560
5.8980 -9.2389 -2.5018 0.9560
7.4438 -8.0481 -2.5022 0.9560
8.1311 -7.3541 -2.5023 0.9560
8.7539 -6.6016 -2.5025 0.9560
9.3072 -5.7966 -2.5026 0.9560
10.1881 -4.0548 -2.5028 0.9560
10.5088 -3.1319 -2.5028 0.9560
10.9627 -0.2443 -2.5028 0.9560
9.9881 2.4982 -2.3499 0.9586
8.9715 5.0473 -2.3495 0.9586
8.4860 5.8253 -2.3493 0.9586
7.3174 7.2363 -2.3489 0.9587
6.6436 7.8581 -2.3487 0.9587
5.1440 8.9097 -2.3482 0.9587
4.3301 9.3311 -2.3479 0.9587
3.4820 9.6783 -2.3476 0.9587
0.8010 10.2508 -2.3468 0.9587
-0.1145 10.2802 -2.3465 0.9587
-3.6934 9.5897 -2.3455 0.9587
-4.5318 9.2220 -2.3453 0.9587
-6.8055 7.6951 -2.3447 0.9587
-8.5952 5.6228 -2.3443 0.9587
-9.6495 5.1491 -2.4964 0.9561
-10.0692 4.2697 -2.4963 0.9561
-10.4091 3.3565 -2.4963 0.9561
-10.6664 2.4167 -2.4962 0.9561
-10.8392 1.4577 -2.4962 0.9561
-10.9260 0.4872 -2.4963 0.9561
-10.9262 -0.4872 -2.4963 0.9561
-10.8399 -1.4578 -2.4964 0.9561
-10.6675 -2.4169 -2.4965 0.9561
-9.6517 -5.1503 -2.4970 0.9561
-9.1557 -5.9894 -2.4972 0.9561
-7.9501 -7.5191 -2.4976 0.9561
-7.2500 -8.1977 -2.4978 0.9561
-6.4923 -8.8114 -2.4981 0.9561
-3.9350 -10.2169 -2.4989 0.9561
0.8534 -10.9216 -2.5004 0.9560
1.8223 -10.8035 -2.5007 0.9560
2.7770 -10.5996 -2.5009 0.9560
3.7098 -10.3114 -2.5012 0.9560
6.3039 -8.9674 -2.5019 0.9560
8.4509 -6.9848 -2.5024 0.9560
9.5563 -5.3763 -2.5027 0.9560
10.6379 -2.6607 -2.5028 0.9560
10.8325 -1.7033 -2.5028 0.9560
10.9410 -0.7324 -2.5028 0.9560
10.9626 0.2443 -2.5028 0.9560
10.0897 2.0508 -2.3500 0.9586
9.8667 2.9406 -2.3499 0.9586
9.5652 3.8069 -2.3498 0.9586
8.2177 6.1973 -2.3492 0.9586
6.2866 8.1458 -2.3485 0.9587
5.5361 8.6721 -2.3483 0.9587
4.7417 9.1294 -2.3480 0.9587
3.9099 9.5142 -2.3478 0.9587
2.1605 10.0543 -2.3472 0.9587
1.2569 10.2055 -2.3469 0.9587
-0.5723 10.2643 -2.3464 0.9587
-1.4835 10.1715 -2.3461 0.9587
-3.2627 9.7452 -2.3456 0.9587
-6.4562 7.9910 -2.3448 0.9587
-7.1413 7.3841 -2.3446 0.9587
-7.7697 6.7187 -2.3445 0.9587
-10.7634 1.9392 -2.4962 0.9561
-10.8934 0.9735 -2.4963 0.9561
-10.1167 -0.9040 -2.4966 0.9590
-9.7969 -2.6836 -2.4968 0.9590
-9.1668 -4.3786 -2.4971 0.9590
-8.2464 -5.9354 -2.4974 0.9590
-6.3870 -7.9053 -2.4981 0.9590
-5.6586 -8.4432 -2.4983 0.9590
-4.8851 -8.9142 -2.4986 0.9590
-4.0728 -9.3146 -2.4988 0.9590
-3.2279 -9.6412 -2.4991 0.9590
0.3399 -10.1660 -2.5002 0.9590
3.0145 -9.7179 -2.5010 0.9590
3.8679 -9.4120 -2.5012 0.9590
5.4763 -8.5785 -2.5016 0.9589
6.2186 -8.0577 -2.5018 0.9589
6.9116 -7.4727 -2.5020 0.9589
8.1279 -6.1296 -2.5023 0.9589
9.7573 -2.9079 -2.5026 0.9589
9.9774 -2.0280 -2.5026 0.9589
10.1183 -1.1319 -2.5026 0.9589
10.1788 -0.2268 -2.5026 0.9589
10.1583 0.6801 -2.5025 0.9589
9.2739 2.3196 -2.3497 0.9614
9.0302 3.1356 -2.3496 0.9614
8.7148 3.9267 -2.3495 0.9614
8.3301 4.6865 -2.3493 0.9614
7.8794 5.4089 -2.3492 0.9614
6.7944 6.7191 -2.3488 0.9614
6.1688 7.2965 -2.3486 0.9614
5.4944 7.8158 -2.3483 0.9614
3.2332 8.9869 -2.3476 0.9614
2.4203 9.2380 -2.3473 0.9614
1.5882 9.4157 -2.3471 0.9614
0.7438 9.5187 -2.3468 0.9614
-0.1064 9.5461 -2.3466 0.9614
-2.6238 9.1760 -2.3458 0.9615
-3.4298 8.9052 -2.3456 0.9615
-4.2084 8.5638 -2.3454 0.9615
-4.9535 8.1546 -2.3452 0.9615
-6.9304 6.5547 -2.3447 0.9615
-7.9820 5.2216 -2.3445 0.9615
-8.9611 4.7818 -2.4966 0.9590
-9.3509 3.9651 -2.4965 0.9590
-9.6665 3.1171 -2.4965 0.9590
-10.1466 0.4525 -2.4965 0.9590
-10.1468 -0.4524 -2.4966 0.9590
-9.6678 -3.1174 -2.4968 0.9590
-8.9630 -4.7828 -2.4971 0.9590
-8.5023 -5.5620 -2.4973 0.9590
-7.9742 -6.2971 -2.4975 0.9590
-7.3827 -6.9825 -2.4977 0.9590
-6.7325 -7.6126 -2.4980 0.9590
-6.0288 -8.1824 -2.4982 0.9590
-5.2771 -8.6874 -2.4984 0.9590
-1.9144 -9.9871 -2.4995 0.9590
-0.1133 -10.1705 -2.5001 0.9590
1.6921 -10.0315 -2.5006 0.9590
4.2835 -9.2307 -2.5013 0.9590
5.0885 -8.8136 -2.5015 0.9589
5.8533 -8.3264 -2.5017 0.9589
7.2378 -7.1576 -2.5021 0.9589
7.8466 -6.4854 -2.5022 0.9589
8.3931 -5.7615 -2.5023 0.9589
8.8730 -4.9918 -2.5024 0.9589
9.2823 -4.1824 -2.5025 0.9589
10.1586 -0.6800 -2.5026 0.9589
10.1786 0.2268 -2.5025 0.9589
10.1178 1.1319 -2.5025 0.9589
8.5309 4.3109 -2.3494 0.9614
8.1128 5.0527 -2.3493 0.9614
7.6303 5.7543 -2.3491 0.9614
7.0873 6.4101 -2.3489 0.9614
4.6962 5.0774 -1.7000 0.9719
5.8374 7.5637 -2.3484 0.9614
5.1405 8.0524 -2.3482 0.9614
3.6306 8.8345 -2.3477 0.9614
-0.5315 9.5314 -2.3464 0.9614
-1.3775 9.4453 -2.3462 0.9614
-2.2125 9.2842 -2.3460 0.9614
-3.8229 8.7432 -2.3455 0.9615
-4.5855 8.3675 -2.3453 0.9615
-5.9955 7.4207 -2.3449 0.9615
-6.6317 6.8572 -2.3448 0.9615
-9.5181 3.5446 -2.4965 0.9590
-9.7957 2.6833 -2.4965 0.9590
-9.4752 0.0000 -2.4967 0.9616
-9.4378 -0.8434 -2.4968 0.9616
-9.1394 -2.5035 -2.4970 0.9616
-8.5516 -4.0848 -2.4972 0.9616
-8.1546 -4.8300 -2.4974 0.9616
-6.5904 -6.8144 -2.4980 0.9615
-5.9582 -7.3745 -2.4982 0.9615
-5.2787 -7.8763 -2.4984 0.9615
-3.7993 -8.6891 -2.4989 0.9615
-2.1989 -9.2270 -2.4994 0.9615
0.3171 -9.4829 -2.5001 0.9615
1.9938 -9.2782 -2.5006 0.9615
2.8119 -9.0648 -2.5009 0.9615
3.6079 -8.7793 -2.5011 0.9615
4.3754 -8.4241 -2.5013 0.9615
5.1082 -8.0018 -2.5015 0.9615
6.4469 -6.9703 -2.5018 0.9615
8.0605 -5.0201 -2.5022 0.9615
8.4756 -4.2829 -2.5023 0.9615
9.3064 -1.8916 -2.5024 0.9615
9.4378 -1.0558 -2.5024 0.9615
14.0721 2.2127 -3.7536 0.9428
13.8188 3.4563 -3.7534 0.9428
8.4230 2.9248 -2.3495 0.9638
8.1288 3.6627 -2.3493 0.9638
6.3377 6.2675 -2.3487 0.9638
4.4555 7.7171 -2.3480 0.9638
-2.4476 8.5599 -2.3459 0.9638
-3.9259 7.9889 -2.3455 0.9638
-5.8957 6.6664 -2.3450 0.9639
-6.4653 6.1149 -2.3449 0.9639
-8.3598 4.4610 -2.4968 0.9616
-9.0179 2.9079 -2.4967 0.9616
-9.2408 2.0937 -2.4967 0.9616
-9.3905 1.2629 -2.4967 0.9616
-9.4657 0.4221 -2.4967 0.9616
-9.4659 -0.4221 -2.4968 0.9616
-8.7249 -3.6997 -2.4972 0.9616
-7.4389 -5.8744 -2.4977 0.9615
-6.8871 -6.5137 -2.4979 0.9615
-6.2805 -7.1015 -2.4981 0.9615
-5.6240 -7.6330 -2.4983 0.9615
-3.4086 -8.8502 -2.4990 0.9615
-2.6076 -9.1194 -2.4993 0.9615
-0.9496 -9.4391 -2.4998 0.9615
-0.1057 -9.4871 -2.5000 0.9615
1.5784 -9.3574 -2.5005 0.9615
3.9956 -8.6103 -2.5012 0.9615
5.4598 -7.7666 -2.5016 0.9615
7.8287 -5.3741 -2.5021 0.9615
8.2763 -4.6562 -2.5022 0.9615
8.6581 -3.9012 -2.5023 0.9615
9.4754 -0.6343 -2.5024 0.9615
9.4941 0.2116 -2.5023 0.9615
8.2841 3.2971 -2.3494 0.9638
7.5674 4.7130 -2.3491 0.9638
7.1174 5.3675 -2.3489 0.9638
4.6784 5.0583 -1.8156 0.9719
5.4450 7.0554 -2.3484 0.9638
4.7950 7.5113 -2.3481 0.9638
3.3866 8.2409 -2.3477 0.9638
2.6394 8.5087 -2.3474 0.9638
1.8714 8.7090 -2.3472 0.9638
-0.4958 8.8913 -2.3465 0.9638
-2.8264 8.4420 -2.3458 0.9638
-3.5663 8.1562 -2.3456 0.9638
-4.2777 7.8058 -2.3454 0.9638
-4.9551 7.3935 -2.3453 0.9639
-7.2221 5.1982 -2.3447 0.9639
-8.5501 4.0840 -2.4968 0.9616
-9.1384 2.5033 -2.4967 0.9616
-3.7284 -0.6717 -1.0659 0.9844
-7.6375 -4.5237 -2.4975 0.9638
-6.1723 -6.3821 -2.4981 0.9638
-5.5803 -6.9068 -2.4983 0.9638
-4.9438 -7.3767 -2.4985 0.9638
-4.2680 -7.7881 -2.4987 0.9638
-3.5582 -8.1378 -2.4989 0.9638
-2.8200 -8.4230 -2.4992 0.9638
-1.2822 -8.7912 -2.4996 0.9638
1.8672 -8.6892 -2.5006 0.9637
2.6334 -8.4892 -2.5008 0.9637
3.3788 -8.2218 -2.5010 0.9637
5.4321 -7.0386 -2.5015 0.9637
6.0374 -6.5275 -2.5017 0.9637
7.5484 -4.7012 -2.5020 0.9637
8.2628 -3.2885 -2.5022 0.9637
8.7152 -1.7714 -2.5022 0.9637
8.8382 -0.9887 -2.5022 0.9637
8.7849 1.3814 -2.5021 0.9637
7.6125 3.4300 -2.3492 0.9659
6.4346 5.3183 -2.3487 0.9659
5.9352 5.8695 -2.3486 0.9659
4.6243 5.4696 -2.0152 0.9707
4.7997 6.8277 -2.3482 0.9659
4.1726 7.2271 -2.3480 0.9659
2.8246 7.8510 -2.3475 0.9659
1.3875 8.2258 -2.3471 0.9659
0.6498 8.3159 -2.3469 0.9659
-0.0929 8.3400 -2.3466 0.9659
-1.5699 8.1899 -2.3462 0.9659
-3.6769 7.4823 -2.3456 0.9660
-6.0554 5.7271 -2.3450 0.9660
-6.5408 5.1652 -2.3449 0.9660
-7.4271 4.8586 -2.4971 0.9638
-8.1704 3.4646 -2.4969 0.9638
-8.4462 2.7235 -2.4969 0.9638
-8.6550 1.9610 -2.4969 0.9638
-8.7952 1.1829 -2.4969 0.9638
-4.2110 -0.1878 -1.1860 0.9826
-3.7396 -0.5029 -1.0616 0.9844
-8.4472 -2.7239 -2.4972 0.9638
-7.4287 -4.8596 -2.4976 0.9638
-6.9671 -5.5019 -2.4978 0.9638
-6.4503 -6.1006 -2.4980 0.9638
-5.8822 -6.6511 -2.4982 0.9638
-4.6105 -7.5899 -2.4986 0.9638
-3.1923 -8.2886 -2.4990 0.9638
-1.6724 -8.7250 -2.4995 0.9638
-0.0990 -8.8849 -2.5000 0.9638
1.4782 -8.7633 -2.5005 0.9637
2.2525 -8.5977 -2.5007 0.9637
3.7419 -8.0634 -2.5011 0.9637
5.1130 -7.2733 -2.5014 0.9637
5.7404 -6.7898 -2.5016 0.9637
6.3223 -6.2523 -2.5017 0.9637
7.7505 -4.3604 -2.5021 0.9637
8.1081 -3.6533 -2.5021 0.9637
8.6276 -2.1579 -2.5022 0.9637
8.7854 -1.3814 -2.5022 0.9637
8.8910 0.1981 -2.5021 0.9637
13.0725 2.6571 -3.7533 0.9461
7.7579 3.0876 -2.3493 0.9659
7.0867 4.4137 -2.3490 0.9659
6.6653 5.0266 -2.3488 0.9659
6.1910 5.5995 -2.3487 0.9659
5.0993 6.6074 -2.3483 0.9659
3.1716 7.7178 -2.3476 0.9659
2.4719 7.9687 -2.3474 0.9659
0.2787 8.3362 -2.3468 0.9659
-0.4643 8.3272 -2.3465 0.9659
-2.6471 7.9065 -2.3459 0.9659
-3.3401 7.6389 -2.3457 0.9659
-4.0064 7.3107 -2.3455 0.9660
-6.3043 5.4516 -2.3450 0.9660
-6.7642 4.8686 -2.3449 0.9660
-7.6360 4.5229 -2.4970 0.9638
-8.0080 3.8251 -2.4969 0.9638
-8.7338 1.5735 -2.4969 0.9638
-8.8392 0.7899 -2.4969 0.9638
-3.5918 -0.3210 -1.0796 0.9851
-3.4925 -0.9567 -1.0841 0.9850
-7.5276 -3.5956 -2.4975 0.9658
-7.1781 -4.2516 -2.4976 0.9658
-6.3113 -5.4576 -2.4980 0.9658
-2.6503 -7.9160 -2.4992 0.9657
-0.4649 -8.3371 -2.4999 0.9657
1.0209 -8.2889 -2.5003 0.9657
1.7547 -8.1658 -2.5005 0.9657
3.1753 -7.7265 -2.5009 0.9657
3.8506 -7.4138 -2.5011 0.9657
5.1048 -6.6145 -2.5014 0.9657
5.6736 -6.1342 -2.5015 0.9657
6.1974 -5.6052 -2.5017 0.9657
7.0936 -4.4179 -2.5019 0.9657
8.3385 0.5582 -2.5020 0.9657
8.2555 1.2981 -2.5019 0.9657
12.1611 3.0417 -3.7530 0.9490
7.1538 3.2234 -2.3491 0.9678
6.8381 3.8471 -2.3489 0.9678
6.4682 4.4402 -2.3488 0.9678
5.0263 4.9706 -2.1163 0.9709
4.6041 5.4457 -2.1349 0.9707
3.9213 6.7919 -2.3479 0.9678
3.3009 7.1133 -2.3477 0.9678
1.9871 7.5846 -2.3473 0.9678
0.6107 7.8153 -2.3469 0.9678
-0.0873 7.8380 -2.3467 0.9678
-2.1544 7.5345 -2.3461 0.9678
-3.4556 7.0320 -2.3457 0.9678
-4.6471 6.3071 -2.3454 0.9678
-5.6911 5.3826 -2.3451 0.9678
-6.1473 4.8545 -2.3450 0.9678
-6.9804 4.5663 -2.4972 0.9658
-7.3589 3.9268 -2.4971 0.9658
-7.9382 2.5597 -2.4970 0.9658
-8.2662 1.1117 -2.4970 0.9658
-4.8506 0.2163 -1.4536 0.9799
-3.5144 -0.4726 -1.0616 0.9853
-7.9391 -2.5600 -2.4973 0.9658
-7.6801 -3.2566 -2.4974 0.9658
-6.5480 -5.1709 -2.4979 0.9658
-6.0622 -5.7336 -2.4981 0.9658
-4.9503 -6.7186 -2.4984 0.9658
-1.5717 -8.1997 -2.4995 0.9657
-0.8358 -8.3078 -2.4997 0.9657
-0.0930 -8.3499 -2.5000 0.9657
2.1168 -8.0799 -2.5006 0.9657
2.8278 -7.8600 -2.5008 0.9657
3.5164 -7.5777 -2.5010 0.9657
4.8049 -6.8351 -2.5013 0.9657
5.3946 -6.3807 -2.5015 0.9657
5.9414 -5.8755 -2.5016 0.9657
6.8896 -4.7294 -2.5018 0.9657
7.2835 -4.0976 -2.5019 0.9657
7.8949 -2.7414 -2.5020 0.9657
8.1076 -2.0278 -2.5020 0.9657
8.2560 -1.2982 -2.5020 0.9657
8.3387 -0.5582 -2.5020 0.9657
8.3552 0.1862 -2.5020 0.9657
8.3053 0.9291 -2.5019 0.9657
12.2849 2.4970 -3.7530 0.9490
7.2904 2.9015 -2.3491 0.9678
6.2638 4.7237 -2.3487 0.9678
4.6534 5.0312 -2.0517 0.9718
3.6147 6.9595 -2.3478 0.9678
2.9807 7.2530 -2.3476 0.9678
1.6472 7.6652 -2.3472 0.9678
0.9583 7.7807 -2.3470 0.9678
0.2619 7.8344 -2.3468 0.9678
-0.4364 7.8260 -2.3466 0.9678
-1.1311 7.7554 -2.3464 0.9678
-2.4878 7.4307 -2.3460 0.9678
-4.3617 6.5080 -2.3455 0.9678
-5.9251 5.1237 -2.3451 0.9678
-6.5800 4.7360 -2.4271 0.9667
-7.5264 3.5951 -2.4971 0.9658
-7.8163 2.9109 -2.4971 0.9658
-3.7563 0.0000 -1.1929 0.9844
-3.3867 -0.3026 -1.0798 0.9858
-3.2843 -0.5917 -1.0598 0.9861
-3.2540 -0.8914 -1.0715 0.9859
-7.3696 -2.7445 -2.4975 0.9675
-7.0964 -3.3897 -2.4976 0.9675
-6.7669 -4.0080 -2.4977 0.9675
-6.3837 -4.5947 -2.4979 0.9675
-5.9498 -5.1450 -2.4981 0.9675
-5.4686 -5.6545 -2.4982 0.9675
-4.9440 -6.1192 -2.4984 0.9675
-3.1524 -7.2097 -2.4990 0.9675
-1.8244 -7.6557 -2.4994 0.9675
-0.4382 -7.8592 -2.4998 0.9675
0.2631 -7.8676 -2.5000 0.9675
4.2377 -6.6382 -2.5011 0.9675
5.3481 -5.7823 -2.5014 0.9675
7.0309 -3.5529 -2.5018 0.9675
7.3194 -2.9131 -2.5019 0.9675
7.5497 -2.2501 -2.5019 0.9675
7.7200 -1.5692 -2.5019 0.9675
7.8291 -0.8758 -2.5019 0.9675
7.8601 0.5262 -2.5018 0.9675
11.1623 3.8760 -3.7526 0.9516
6.4459 3.6264 -2.3488 0.9694
6.0972 4.1855 -2.3487 0.9694
5.7001 4.7113 -2.3486 0.9694
5.0636 5.0075 -2.2617 0.9706
4.2520 6.0485 -2.3481 0.9694
3.6964 6.4025 -2.3479 0.9694
3.1117 6.7055 -2.3477 0.9695
1.2293 7.2875 -2.3471 0.9695
-0.0823 7.3887 -2.3467 0.9695
-0.7396 7.3515 -2.3465 0.9695
-2.0310 7.1028 -2.3461 0.9695
-2.6549 6.8933 -2.3460 0.9695
-3.2577 6.6292 -2.3458 0.9695
-3.8345 6.3125 -2.3456 0.9695
-4.8925 5.5320 -2.3454 0.9695
-6.5806 4.3048 -2.4973 0.9675
-6.9374 3.7020 -2.4973 0.9675
-7.4836 2.4131 -2.4972 0.9675
-7.6686 1.7375 -2.4972 0.9675
-7.7928 1.0480 -2.4972 0.9675
-4.3818 0.1954 -1.3930 0.9818
-3.4557 -0.1541 -1.0986 0.9856
-3.2591 -0.7384 -1.0613 0.9861
-7.2402 -3.0701 -2.4976 0.9675
-6.9386 -3.7025 -2.4977 0.9675
-6.5818 -4.3056 -2.4978 0.9675
-6.1729 -4.8747 -2.4980 0.9675
-5.7149 -5.4051 -2.4981 0.9675
-5.2115 -5.8927 -2.4983 0.9675
-4.0847 -6.7244 -2.4987 0.9675
-2.1636 -7.5665 -2.4993 0.9675
-1.4817 -7.7296 -2.4995 0.9675
-0.7879 -7.8315 -2.4997 0.9675
-0.0877 -7.8712 -2.4999 0.9675
0.6133 -7.8485 -2.5001 0.9675
2.6656 -7.4093 -2.5007 0.9675
3.3148 -7.1431 -2.5009 0.9675
5.0851 -6.0147 -2.5014 0.9675
6.0715 -5.0183 -2.5016 0.9675
6.4943 -4.4581 -2.5017 0.9675
6.8656 -3.8625 -2.5018 0.9675
7.4419 -2.5841 -2.5019 0.9675
7.6425 -1.9115 -2.5019 0.9675
7.8603 -0.5262 -2.5019 0.9675
7.7195 1.5691 -2.5017 0.9675
11.3242 3.3750 -3.7527 0.9516
6.8722 2.7351 -2.3490 0.9694
6.6012 3.3357 -2.3489 0.9694
6.2778 3.9099 -2.3488 0.9694
5.4844 4.9604 -2.3485 0.9694
4.6408 5.0176 -2.1706 0.9717
4.5174 5.8533 -2.3481 0.9694
3.9781 6.2317 -2.3480 0.9694
2.1899 7.0596 -2.3474 0.9695
0.9034 7.3347 -2.3470 0.9695
0.2469 7.3854 -2.3468 0.9695
-0.4114 7.3775 -2.3466 0.9695
-1.0663 7.3110 -2.3464 0.9695
-1.7126 7.1865 -2.3462 0.9695
-3.5496 6.4773 -2.3457 0.9695
-4.6413 5.7446 -2.3454 0.9695
-5.1339 5.3085 -2.3453 0.9695
-6.3824 4.5938 -2.4974 0.9675
-6.7657 4.0073 -2.4973 0.9675
-7.3687 2.7442 -2.4972 0.9675
-7.5836 2.0774 -2.4972 0.9675
-7.8318 0.6998 -2.4972 0.9675
-3.6184 0.0000 -1.2157 0.9848
-3.1349 -0.8587 -1.0921 0.9864
-6.9664 -2.5943 -2.4976 0.9691
-6.7081 -3.2042 -2.4977 0.9691
-5.6242 -4.8634 -2.4981 0.9691
-5.1693 -5.3450 -2.4983 0.9691
-4.1403 -6.1777 -2.4986 0.9691
-2.9798 -6.8150 -2.4990 0.9691
-2.3616 -7.0537 -2.4992 0.9691
-1.7245 -7.2365 -2.4994 0.9691
-1.0737 -7.3618 -2.4996 0.9691
-0.4142 -7.4288 -2.4998 0.9691
0.9096 -7.3857 -2.5002 0.9691
1.5635 -7.2759 -2.5004 0.9691
2.2051 -7.1084 -2.5006 0.9691
2.8292 -6.8844 -2.5007 0.9691
3.4309 -6.6057 -2.5009 0.9691
5.0551 -5.4654 -2.5013 0.9691
5.5217 -4.9941 -2.5014 0.9691
5.9445 -4.4830 -2.5015 0.9691
6.3202 -3.9362 -2.5016 0.9691
7.1359 -2.1267 -2.5018 0.9691
7.4000 -0.8278 -2.5018 0.9691
7.4442 -0.1659 -2.5017 0.9691
7.3554 1.1566 -2.5016 0.9691
7.2230 1.8066 -2.5016 0.9691
6.3739 2.8720 -2.3489 0.9709
5.7631 3.9561 -2.3486 0.9709
4.9662 4.9112 -2.3467 0.9710
4.0191 5.7172 -2.3480 0.9709
1.7706 6.7583 -2.3473 0.9709
0.5442 6.9640 -2.3469 0.9710
-0.0778 6.9842 -2.3467 0.9710
-1.3147 6.8587 -2.3464 0.9710
-2.5096 6.5161 -2.3460 0.9710
-3.0794 6.2664 -2.3459 0.9710
-4.1412 5.6204 -2.3456 0.9710
-5.0716 4.7967 -2.3454 0.9710
-5.8090 4.5873 -2.4869 0.9692
-6.2205 4.0693 -2.4975 0.9691
-4.1559 0.1853 -1.3977 0.9826
-3.1355 -0.7104 -1.0802 0.9865
-6.8440 -2.9021 -2.4977 0.9691
-6.5589 -3.4999 -2.4978 0.9691
-6.2217 -4.0700 -2.4979 0.9691
-4.9262 -5.5702 -2.4984 0.9691
-4.4112 -5.9869 -2.4986 0.9691
-3.8611 -6.3562 -2.4987 0.9691
-2.6734 -6.9412 -2.4991 0.9691
-0.7447 -7.4026 -2.4997 0.9691
-0.0829 -7.4401 -2.4999 0.9691
0.5797 -7.4186 -2.5001 0.9691
1.2378 -7.3381 -2.5003 0.9691
1.8861 -7.1993 -2.5005 0.9691
3.1332 -6.7518 -2.5008 0.9691
3.7219 -6.4465 -2.5010 0.9691
4.8065 -5.6851 -2.5013 0.9691
5.2936 -5.2350 -2.5014 0.9691
6.1384 -4.2138 -2.5016 0.9691
6.7887 -3.0588 -2.5017 0.9691
7.0341 -2.4425 -2.5017 0.9691
7.3997 0.8278 -2.5017 0.9691
7.2965 1.4831 -2.5016 0.9691
10.7036 3.1900 -3.7525 0.9540
6.4956 2.5852 -2.3489 0.9709
5.5810 4.2088 -2.3485 0.9709
4.6281 5.0038 -2.2901 0.9716
2.6559 6.4628 -2.3476 0.9709
1.4677 6.8301 -2.3472 0.9710
0.8539 6.9331 -2.3470 0.9710
0.2334 6.9811 -2.3468 0.9710
-0.3888 6.9736 -2.3466 0.9710
-1.0079 6.9108 -2.3465 0.9710
-1.6189 6.7931 -2.3463 0.9710
-2.7973 6.3976 -2.3459 0.9710
-3.8868 5.7995 -2.3457 0.9710
-6.0332 4.3424 -2.4975 0.9691
-6.9656 2.5940 -2.4973 0.9691
-7.4033 0.6616 -2.4973 0.9691
-3.4902 0.0000 -1.2376 0.9853
-3.0229 -0.8281 -1.1114 0.9868
-3.0314 -1.1289 -1.1470 0.9864
-6.3564 -3.0362 -2.4978 0.9705
-5.7179 -4.1155 -2.4981 0.9705
-4.8982 -5.0647 -2.4984 0.9705
-3.9231 -5.8537 -2.4987 0.9705
-3.3868 -6.1801 -2.4989 0.9705
-2.8235 -6.4575 -2.4991 0.9705
-2.2377 -6.6837 -2.4992 0.9705
-1.6341 -6.8568 -2.4994 0.9705
-0.3925 -7.0389 -2.4998 0.9705
0.2356 -7.0465 -2.5000 0.9705
3.7952 -5.9451 -2.5010 0.9705
4.3095 -5.5840 -2.5011 0.9705
5.6324 -4.2476 -2.5014 0.9705
5.9883 -3.7295 -2.5015 0.9705
6.2966 -3.1818 -2.5016 0.9705
6.5550 -2.6088 -2.5016 0.9705
6.7612 -2.0151 -2.5016 0.9705
6.9138 -1.4053 -2.5017 0.9705
7.0533 -0.1571 -2.5016 0.9705
6.9692 1.0958 -2.5015 0.9705
9.9967 3.4712 -3.7523 0.9561
5.7728 3.2477 -2.3487 0.9723
5.4605 3.7485 -2.3485 0.9723
4.7089 4.6567 -2.3483 0.9723
4.2754 5.0570 -2.3481 0.9723
3.8081 5.4171 -2.3480 0.9723
3.3106 5.7342 -2.3478 0.9723
2.7869 6.0056 -2.3476 0.9723
2.2411 6.2294 -2.3474 0.9723
1.6777 6.4037 -2.3473 0.9723
0.5156 6.5987 -2.3469 0.9723
-0.0737 6.6179 -2.3467 0.9723
-0.6624 6.5846 -2.3466 0.9723
-2.3780 6.1743 -2.3461 0.9723
-2.9179 5.9378 -2.3459 0.9723
-3.4346 5.6542 -2.3458 0.9723
-3.9240 5.3258 -2.3457 0.9723
-4.3823 4.9551 -2.3456 0.9723
-4.8057 4.5452 -2.3455 0.9723
-5.5280 4.3654 -2.4977 0.9705
-6.7033 2.1616 -2.4974 0.9706
-6.8691 1.5563 -2.4974 0.9706
-3.1623 -0.1410 -1.1224 0.9867
-3.0595 -0.4115 -1.0946 0.9870
-3.0241 -0.6852 -1.0995 0.9869
-5.5291 -4.3663 -2.4981 0.9705
-4.6679 -5.2780 -2.4984 0.9705
-4.1799 -5.6729 -2.4986 0.9705
-2.5331 -6.5771 -2.4991 0.9705
-0.7056 -7.0142 -2.4997 0.9705
-0.0785 -7.0497 -2.4999 0.9705
0.5493 -7.0293 -2.5001 0.9705
1.7871 -6.8215 -2.5004 0.9705
2.3874 -6.6357 -2.5006 0.9705
4.0564 -5.7703 -2.5010 0.9705
4.5541 -5.3866 -2.5012 0.9705
5.4375 -4.4942 -2.5014 0.9705
6.1486 -3.4591 -2.5015 0.9705
6.4322 -2.8982 -2.5016 0.9705
6.6647 -2.3142 -2.5016 0.9705
6.9695 -1.0959 -2.5017 0.9705
7.0111 0.7843 -2.5016 0.9705
6.9133 1.4052 -2.5015 0.9705
10.1415 3.0225 -3.7524 0.9561
9.8319 3.9130 -3.7522 0.9561
5.9119 2.9874 -2.3487 0.9723
4.9118 4.4425 -2.3483 0.9723
4.4966 4.8617 -2.3482 0.9723
4.0458 5.2423 -2.3480 0.9723
3.5629 5.5812 -2.3479 0.9723
1.9614 6.3228 -2.3474 0.9723
1.3907 6.4718 -2.3472 0.9723
0.2212 6.6148 -2.3468 0.9723
-0.3684 6.6078 -2.3467 0.9723
-0.9550 6.5483 -2.3465 0.9723
-1.5340 6.4368 -2.3463 0.9723
-2.6506 6.0621 -2.3460 0.9723
-3.6830 5.4954 -2.3457 0.9723
-4.1573 5.1455 -2.3456 0.9723
-6.9316 1.2488 -2.4974 0.9706
-2.9938 -0.2675 -1.1224 0.9872
-2.9455 -0.5306 -1.1176 0.9873
-2.9169 -0.7990 -1.1293 0.9872
-6.0362 -2.8832 -2.4979 0.9718
-5.4298 -3.9081 -2.4981 0.9718
-5.0607 -4.3762 -2.4983 0.9718
-4.2051 -5.2047 -2.4986 0.9718
-3.7254 -5.5587 -2.4987 0.9718
-0.9661 -6.6239 -2.4996 0.9718
0.2237 -6.6912 -2.5000 0.9718
0.8184 -6.6452 -2.5001 0.9718
1.4067 -6.5464 -2.5003 0.9718
1.9839 -6.3956 -2.5005 0.9718
3.0869 -5.9432 -2.5008 0.9718
3.6038 -5.6452 -2.5009 0.9718
4.0921 -5.3023 -2.5010 0.9718
4.5481 -4.9173 -2.5011 0.9718
4.9679 -4.4932 -2.5012 0.9718
5.3483 -4.0333 -2.5013 0.9718
5.9790 -3.0213 -2.5015 0.9718
6.2242 -2.4772 -2.5015 0.9718
6.5649 -1.3344 -2.5015 0.9718
6.6974 -0.1492 -2.5015 0.9718
6.6841 0.4475 -2.5015 0.9718
4.4714 4.4219 -2.3482 0.9735
4.0598 4.8019 -2.3481 0.9735
2.6464 5.7028 -2.3476 0.9735
1.5931 6.0808 -2.3473 0.9735
1.0455 6.1980 -2.3471 0.9735
-0.6290 6.2527 -2.3466 0.9735
-3.2616 5.3693 -2.3459 0.9735
-4.6513 4.3992 -2.3906 0.9730
-5.5975 3.6617 -2.4977 0.9718
-5.9010 3.1489 -2.4976 0.9718
-6.6287 0.8915 -2.4975 0.9718
-3.7910 0.1690 -1.4170 0.9839
-2.9106 -0.9385 -1.1419 0.9870
-5.9019 -3.1493 -2.4980 0.9718
-3.9692 -5.3871 -2.4987 0.9718
-3.4742 -5.7193 -2.4988 0.9718
-1.8401 -6.4354 -2.4993 0.9718
-1.2601 -6.5741 -2.4995 0.9718
-0.6701 -6.6606 -2.4997 0.9718
1.1137 -6.6023 -2.5002 0.9718
1.6970 -6.4774 -2.5004 0.9718
2.2670 -6.3011 -2.5005 0.9718
2.8190 -6.0747 -2.5007 0.9718
4.3244 -5.1149 -2.5011 0.9718
5.1632 -4.2675 -2.5013 0.9718
5.5227 -3.7911 -2.5014 0.9718
5.8384 -3.2846 -2.5014 0.9718
6.4990 -1.6255 -2.5015 0.9718
6.6842 -0.4474 -2.5015 0.9718
6.6974 0.1493 -2.5015 0.9718
6.6574 0.7448 -2.5015 0.9718
6.4195 1.9132 -2.5013 0.9718
9.3359 3.7156 -3.7521 0.9580
5.6137 2.8367 -2.3486 0.9735
4.2698 4.6165 -2.3481 0.9735
3.3832 5.2997 -2.3478 0.9735
2.3896 5.8148 -2.3475 0.9735
0.7683 6.2382 -2.3470 0.9735
-0.3499 6.2747 -2.3467 0.9735
-0.9069 6.2182 -2.3465 0.9735
-3.4974 5.2185 -2.3458 0.9735
-3.9478 4.8863 -2.3457 0.9735
-4.3732 4.5220 -2.3491 0.9735
-5.0597 4.3754 -2.4978 0.9718
-5.4289 3.9075 -2.4977 0.9718
-5.7550 3.4087 -2.4976 0.9718
-6.0354 2.8829 -2.4976 0.9718
-6.2679 2.3342 -2.4975 0.9718
-6.4508 1.7671 -2.4975 0.9718
-6.5824 1.1859 -2.4975 0.9718
-3.2641 0.0000 -1.2811 0.9861
-2.9005 -0.2592 -1.1429 0.9876
-2.8518 -0.5138 -1.1373 0.9876
-2.8313 -0.7756 -1.1521 0.9875
-5.1663 -3.7184 -2.4982 0.9730
-4.8151 -4.1637 -2.4983 0.9730
-3.0599 -5.5837 -2.4989 0.9730
-2.5510 -5.8343 -2.4991 0.9730
-2.0217 -6.0386 -2.4993 0.9730
-1.4763 -6.1949 -2.4994 0.9730
-0.3546 -6.3594 -2.4998 0.9730
0.7787 -6.3224 -2.5001 0.9730
2.9369 -5.6545 -2.5007 0.9730
3.4287 -5.3709 -2.5008 0.9730
3.8933 -5.0447 -2.5010 0.9730
4.7264 -4.2748 -2.5012 0.9730
5.6884 -2.8745 -2.5014 0.9730
5.9217 -2.3568 -2.5014 0.9730
6.2459 -1.2695 -2.5014 0.9730
6.3341 -0.7086 -2.5014 0.9730
6.3592 0.4257 -2.5014 0.9730
6.2959 0.9900 -2.5013 0.9730
6.1827 1.5464 -2.5013 0.9730
9.0311 3.1359 -3.7520 0.9598
4.9332 3.3864 -2.3484 0.9746
4.6119 3.8119 -2.3483 0.9746
3.8626 4.5687 -2.3480 0.9746
1.5157 5.7854 -2.3473 0.9746
0.9947 5.8970 -2.3471 0.9746
0.4659 5.9618 -2.3469 0.9746
-0.5985 5.9491 -2.3466 0.9746
-1.6436 5.7480 -2.3463 0.9746
-2.6364 5.3649 -2.3461 0.9746
-3.1032 5.1087 -2.3459 0.9746
-5.3258 3.4840 -2.4978 0.9730
-5.8590 2.4844 -2.4977 0.9730
-3.6457 0.1626 -1.4322 0.9844
-3.0071 -0.1341 -1.1814 0.9871
-2.8717 -1.2177 -1.2242 0.9867
-5.3267 -3.4845 -2.4981 0.9730
-4.6249 -4.3742 -2.4984 0.9730
-4.2175 -4.7687 -2.4985 0.9730
-2.8083 -5.7146 -2.4990 0.9730
-2.2886 -5.9423 -2.4992 0.9730
-1.7508 -6.1228 -2.4993 0.9730
-1.1989 -6.2548 -2.4995 0.9730
-0.6375 -6.3371 -2.4997 0.9730
1.0596 -6.2816 -2.5002 0.9730
1.6146 -6.1628 -2.5003 0.9730
2.6820 -5.7795 -2.5006 0.9730
4.1143 -4.8663 -2.5010 0.9730
4.5312 -4.4811 -2.5011 0.9730
5.2543 -3.6069 -2.5013 0.9730
5.5546 -3.1250 -2.5013 0.9730
8.8822 3.5351 -3.7520 0.9598
5.0792 3.1634 -2.3485 0.9746
4.0624 4.3922 -2.3481 0.9746
1.7720 5.7124 -2.3473 0.9746
0.7310 5.9353 -2.3470 0.9746
0.1998 5.9764 -2.3469 0.9746
-0.3329 5.9700 -2.3467 0.9746
-1.3859 5.8157 -2.3464 0.9746
-1.8979 5.6689 -2.3463 0.9746
-2.3948 5.4771 -2.3461 0.9746
-3.7562 4.6491 -2.3458 0.9746
-5.1654 3.7179 -2.4978 0.9730
-5.4757 3.2433 -2.4977 0.9730
-5.7425 2.7430 -2.4977 0.9730
-5.9638 2.2210 -2.4976 0.9730
-6.1377 1.6813 -2.4976 0.9730
-4.1298 0.3691 -1.6273 0.9823
-3.1614 0.0000 -1.3018 0.9864
-2.7695 -0.7587 -1.1825 0.9877
-5.2198 -3.0917 -2.4982 0.9741
-4.5894 -3.9685 -2.4984 0.9741
-4.2181 -4.3615 -2.4985 0.9741
-3.8134 -4.7199 -2.4987 0.9741
-2.9165 -5.3219 -2.4990 0.9741
-1.4071 -5.9045 -2.4994 0.9741
-0.3380 -6.0612 -2.4998 0.9741
0.7422 -6.0258 -2.5001 0.9741
2.3082 -5.6167 -2.5005 0.9741
3.7106 -4.8080 -2.5009 0.9741
4.1240 -4.4588 -2.5010 0.9741
4.5047 -4.0742 -2.5011 0.9741
4.8496 -3.6572 -2.5012 0.9741
5.1560 -3.2111 -2.5012 0.9741
5.6438 -2.2462 -2.5013 0.9741
5.8214 -1.7350 -2.5013 0.9741
6.0368 -0.6753 -2.5014 0.9741
6.0729 -0.1353 -2.5013 0.9741
6.0608 0.4057 -2.5013 0.9741
5.8926 1.4738 -2.5012 0.9741
5.7378 1.9924 -2.5011 0.9741
8.3068 3.7429 -3.7518 0.9614
7.9404 4.4672 -3.7516 0.9614
4.7017 3.2275 -2.3483 0.9756
4.3956 3.6330 -2.3482 0.9756
4.0545 4.0096 -2.3481 0.9756
3.6814 4.3543 -2.3480 0.9756
2.3997 5.1713 -2.3476 0.9756
1.9298 5.3641 -2.3474 0.9756
0.9481 5.6205 -2.3471 0.9756
-0.0635 5.6988 -2.3468 0.9756
-1.5665 5.4785 -2.3464 0.9757
-2.0478 5.3170 -2.3462 0.9757
-2.5128 5.1134 -2.3461 0.9757
-3.7739 4.2672 -2.3458 0.9757
-4.4073 4.1684 -2.4980 0.9741
-5.0763 3.3207 -2.4978 0.9741
-5.3516 2.8557 -2.4978 0.9741
-3.5093 0.1565 -1.4465 0.9849
-2.7947 -0.3758 -1.1611 0.9879
-4.0198 -4.5452 -2.4986 0.9741
-3.5995 -4.8852 -2.4987 0.9741
-2.6766 -5.4467 -2.4990 0.9741
-0.6076 -6.0399 -2.4997 0.9741
-0.0676 -6.0704 -2.4998 0.9741
0.4730 -6.0527 -2.5000 0.9741
1.0099 -5.9870 -2.5002 0.9741
1.5388 -5.8737 -2.5003 0.9741
2.0556 -5.7138 -2.5005 0.9741
3.0365 -5.2593 -2.5007 0.9741
4.6818 -3.8696 -2.5011 0.9741
5.2940 -2.9783 -2.5013 0.9741
6.0007 -0.9436 -2.5014 0.9741
6.0729 0.1353 -2.5013 0.9741
6.0366 0.6753 -2.5013 0.9741
5.9524 1.2099 -2.5012 0.9741
5.8210 1.7349 -2.5012 0.9741
8.1316 4.1091 -3.7517 0.9614
4.5532 3.4337 -2.3483 0.9756
4.2293 3.8251 -2.3482 0.9756
3.8718 4.1862 -2.3480 0.9756
3.4836 4.5139 -2.3479 0.9756
3.0679 4.8058 -2.3478 0.9756
2.6278 5.0595 -2.3476 0.9756
2.1669 5.2729 -2.3475 0.9756
1.6889 5.4445 -2.3473 0.9756
1.1975 5.5729 -2.3472 0.9756
-1.8090 5.4031 -2.3463 0.9757
-2.2826 5.2204 -2.3462 0.9757
-3.1717 4.7325 -2.3459 0.9757
-3.5802 4.4312 -2.3458 0.9757
-4.5886 3.9679 -2.4980 0.9741
-4.9234 3.5436 -2.4979 0.9741
-5.2191 3.0913 -2.4978 0.9741
-5.4734 2.6145 -2.4978 0.9741
-5.6843 2.1169 -2.4977 0.9741
-5.8501 1.6025 -2.4977 0.9741
-5.9695 1.0755 -2.4977 0.9741
-3.0794 -0.0000 -1.3283 0.9867
-2.7539 -0.2461 -1.1927 0.9880
-2.7278 -0.4914 -1.1956 0.9880
-2.7209 -1.0133 -1.2524 0.9874
-2.7300 -1.3040 -1.3050 0.9869
-2.7884 -1.6516 -1.3980 0.9860
-4.7008 -3.3834 -2.4983 0.9751
-4.3812 -3.7885 -2.4984 0.9751
-4.0268 -4.1636 -2.4986 0.9751
-3.2251 -4.8122 -2.4988 0.9751
-2.7842 -5.0804 -2.4990 0.9751
-2.3211 -5.3084 -2.4991 0.9751
-1.8395 -5.4943 -2.4993 0.9751
-0.8363 -5.7340 -2.4996 0.9751
-0.3226 -5.7861 -2.4998 0.9751
1.2177 -5.6668 -2.5002 0.9751
1.7173 -5.5362 -2.5003 0.9751
2.2034 -5.3617 -2.5005 0.9751
3.5421 -4.5897 -2.5008 0.9751
3.9367 -4.2563 -2.5009 0.9751
4.3001 -3.8892 -2.5010 0.9751
5.5570 -1.6562 -2.5013 0.9751
5.6824 -1.1550 -2.5013 0.9751
5.7627 -0.6446 -2.5013 0.9751
5.7280 0.9007 -2.5012 0.9751
7.9296 3.5729 -3.7517 0.9628
4.4882 3.0810 -2.3483 0.9766
3.5142 4.1567 -2.3479 0.9766
3.1302 4.4527 -2.3478 0.9766
2.7213 4.7134 -2.3477 0.9766
0.9050 5.3654 -2.3471 0.9766
-1.0241 5.3426 -2.3465 0.9766
-1.9549 5.0759 -2.3463 0.9766
-2.8236 4.6483 -2.3460 0.9766
-3.2260 4.3784 -2.3459 0.9766
-3.7395 4.2283 -2.4349 0.9757
-4.5448 3.5890 -2.4980 0.9751
-4.8460 3.1702 -2.4979 0.9751
-5.1088 2.7262 -2.4979 0.9751
-3.3812 0.1508 -1.4599 0.9854
-2.7402 -0.3685 -1.1926 0.9880
-2.7200 -0.6163 -1.2030 0.9879
-2.7166 -0.8760 -1.2313 0.9876
-2.7334 -1.1590 -1.2807 0.9871
-5.1095 -2.7265 -2.4982 0.9751
-4.8467 -3.1706 -2.4983 0.9751
-4.5455 -3.5895 -2.4984 0.9751
-3.0076 -4.9512 -2.4989 0.9751
-2.5552 -5.1996 -2.4991 0.9751
-2.0823 -5.4067 -2.4992 0.9751
-1.5930 -5.5709 -2.4994 0.9751
-1.0909 -5.6909 -2.4995 0.9751
-0.5800 -5.7658 -2.4997 0.9751
-0.0646 -5.7949 -2.4998 0.9751
0.4515 -5.7780 -2.5000 0.9751
0.9640 -5.7152 -2.5001 0.9751
1.9623 -5.4544 -2.5004 0.9751
2.4401 -5.2583 -2.5005 0.9751
3.3341 -4.7428 -2.5008 0.9751
3.7432 -4.4274 -2.5009 0.9751
4.1225 -4.0768 -2.5010 0.9751
4.4692 -3.6938 -2.5011 0.9751
5.0535 -2.8430 -2.5012 0.9751
5.4777 -1.9021 -2.5013 0.9751
5.6253 -1.4070 -2.5013 0.9751
5.7856 -0.3873 -2.5013 0.9751
5.7625 0.6446 -2.5012 0.9751
5.6821 1.1550 -2.5011 0.9751
5.5566 1.6561 -2.5011 0.9751
5.3870 2.1440 -2.5010 0.9751
7.7624 3.9225 -3.7516 0.9628
4.0372 3.6515 -2.3481 0.9766
3.6960 3.9961 -2.3480 0.9766
3.3255 4.3090 -2.3479 0.9766
2.0686 5.0336 -2.3475 0.9766
1.6123 5.1974 -2.3473 0.9766
1.1432 5.3199 -2.3472 0.9766
0.6651 5.4002 -2.3470 0.9766
0.1818 5.4377 -2.3469 0.9766
-0.7851 5.3831 -2.3466 0.9766
-1.2610 5.2915 -2.3465 0.9766
-2.6138 4.7696 -2.3461 0.9766
-3.0278 4.5178 -2.3460 0.9766
-5.2252 2.4959 -2.4978 0.9751
-5.6988 1.0267 -2.4978 0.9751
-3.8266 0.3419 -1.6572 0.9834
-2.9980 0.0000 -1.3528 0.9869
-2.6738 -0.4817 -1.2259 0.9881
-2.6546 -0.7272 -1.2419 0.9880
-2.6607 -0.9909 -1.2811 0.9876
-2.6867 -1.5913 -1.4090 0.9864
-4.4940 -3.2345 -2.4984 0.9760
-3.8496 -3.9805 -2.4986 0.9760
-3.0832 -4.6004 -2.4989 0.9760
-2.6616 -4.8569 -2.4990 0.9760
-1.2841 -5.3884 -2.4994 0.9760
-0.7995 -5.4817 -2.4996 0.9760
-0.3084 -5.5314 -2.4997 0.9760
0.1851 -5.5372 -2.4999 0.9760
0.6773 -5.4991 -2.5000 0.9760
2.1064 -5.1256 -2.5004 0.9760
2.9821 -4.6713 -2.5007 0.9760
3.3862 -4.3876 -2.5008 0.9760
3.7634 -4.0689 -2.5009 0.9760
4.7051 -2.9303 -2.5011 0.9760
4.9473 -2.4999 -2.5011 0.9760
5.3123 -1.5832 -2.5012 0.9760
5.5307 0.3703 -2.5011 0.9760
5.3772 1.3449 -2.5010 0.9760
7.5804 3.4155 -3.7516 0.9642
6.8542 4.7052 -3.7513 0.9642
2.9923 4.2567 -2.3478 0.9774
2.6015 4.5059 -2.3477 0.9774
1.7611 4.8952 -2.3474 0.9774
1.3184 5.0322 -2.3472 0.9774
0.8652 5.1292 -2.3471 0.9774
0.4052 5.1856 -2.3470 0.9774
-0.5206 5.1747 -2.3467 0.9774
-0.9790 5.1075 -2.3466 0.9774
-1.4297 4.9998 -2.3464 0.9774
-1.8689 4.8525 -2.3463 0.9774
-2.2933 4.6667 -2.3462 0.9774
-5.5022 6.2214 -3.7476 0.9642
-4.0223 3.8043 -2.4981 0.9760
-4.3449 3.4311 -2.4981 0.9760
-4.6329 3.0307 -2.4980 0.9760
-5.2687 1.6990 -2.4979 0.9760
-5.4865 0.7378 -2.4979 0.9760
-3.2609 0.1454 -1.4728 0.9858
-2.6870 -0.3614 -1.2234 0.9882
-2.6675 -1.1311 -1.3074 0.9874
-4.8847 -2.6065 -2.4982 0.9760
-3.2850 -4.4584 -2.4988 0.9760
-1.5228 -5.3257 -2.4994 0.9760
-1.0428 -5.4404 -2.4995 0.9760
0.4316 -5.5236 -2.5000 0.9760
0.9216 -5.4636 -2.5001 0.9760
3.9410 -3.8973 -2.5009 0.9760
4.5698 -3.1370 -2.5011 0.9760
4.8310 -2.7179 -2.5011 0.9760
5.0538 -2.2771 -2.5012 0.9760
5.2365 -1.8183 -2.5012 0.9760
5.3776 -1.3450 -2.5012 0.9760
5.4759 -0.8610 -2.5012 0.9760
5.5308 -0.3702 -2.5012 0.9760
5.5418 0.1235 -2.5012 0.9760
5.4319 1.1041 -2.5011 0.9760
5.3119 1.5831 -2.5010 0.9760
5.1498 2.0496 -2.5009 0.9760
7.4206 3.7498 -3.7515 0.9642
7.0572 4.3952 -3.7514 0.9642
3.8595 3.4907 -2.3481 0.9774
2.7997 4.3856 -2.3477 0.9774
1.9775 4.8120 -2.3474 0.9774
1.5413 4.9686 -2.3473 0.9774
0.6358 5.1626 -2.3470 0.9774
-0.7506 5.1462 -2.3466 0.9774
-1.2055 5.0587 -2.3465 0.9774
-1.6509 4.9311 -2.3464 0.9774
-2.0832 4.7643 -2.3463 0.9774
-2.4988 4.5598 -2.3461 0.9774
-2.8946 4.3191 -2.3460 0.9774
-3.8489 3.9798 -2.4982 0.9760
-4.1878 3.6213 -2.4981 0.9760
-4.9953 2.3861 -2.4979 0.9760
-5.1878 1.9320 -2.4979 0.9760
-5.3392 1.4626 -2.4979 0.9760
-5.4481 0.9815 -2.4979 0.9760
-2.9112 0.0000 -1.3723 0.9872
-2.6212 -0.4722 -1.2555 0.9883
-2.6016 -0.7126 -1.2715 0.9881
-2.6023 -0.9691 -1.3090 0.9878
-2.6052 -1.2444 -1.3609 0.9873
-3.3314 -4.1233 -2.4988 0.9768
-2.5478 -4.6492 -2.4990 0.9768
-2.1240 -4.8578 -2.4992 0.9768
-1.6833 -5.0278 -2.4993 0.9768
-1.2292 -5.1580 -2.4995 0.9768
-0.7653 -5.2472 -2.4996 0.9768
-0.2952 -5.2948 -2.4997 0.9768
0.1772 -5.3004 -2.4999 0.9768
0.6483 -5.2639 -2.5000 0.9768
1.1143 -5.1855 -2.5001 0.9768
2.0163 -4.9063 -2.5004 0.9768
3.2413 -4.1998 -2.5007 0.9768
3.9348 -3.5588 -2.5009 0.9768
4.2361 -3.1946 -2.5010 0.9768
4.5037 -2.8049 -2.5010 0.9768
4.7356 -2.3930 -2.5011 0.9768
4.9299 -1.9620 -2.5011 0.9768
5.0850 -1.5155 -2.5011 0.9768
5.1997 -1.0568 -2.5011 0.9768
5.2414 0.8242 -2.5010 0.9768
5.1471 1.2874 -2.5010 0.9768
4.8371 2.1795 -2.5008 0.9768
6.9360 3.9021 -3.7514 0.9654
3.8396 3.1735 -2.3481 0.9782
3.5417 3.5025 -2.3480 0.9782
3.2158 3.8037 -2.3479 0.9782
2.4902 4.3131 -2.3476 0.9782
1.2620 4.8170 -2.3472 0.9782
0.3879 4.9639 -2.3470 0.9782
-0.4983 4.9534 -2.3467 0.9782
-2.5840 4.2539 -2.3461 0.9782
-4.7162 6.4009 -3.7478 0.9655
-4.1591 3.2845 -2.4981 0.9768
-4.6754 2.4949 -2.4980 0.9768
-4.8788 2.0688 -2.4980 0.9768
-5.0435 1.6263 -2.4979 0.9768
-5.1682 1.1710 -2.4979 0.9768
-5.2520 0.7063 -2.4979 0.9768
-3.1522 0.1405 -1.4873 0.9861
-2.6352 -0.3544 -1.2533 0.9883
-2.6131 -0.5921 -1.2630 0.9882
-4.4354 -2.9015 -2.4984 0.9768
-4.1597 -3.2849 -2.4985 0.9768
-3.8510 -3.6423 -2.4986 0.9768
-3.1445 -4.2678 -2.4988 0.9768
-1.4577 -5.0980 -2.4994 0.9768
-0.9982 -5.2078 -2.4995 0.9768
0.4132 -5.2874 -2.4999 0.9768
0.8822 -5.2299 -2.5001 0.9768
1.3442 -5.1309 -2.5002 0.9768
1.7957 -4.9912 -2.5003 0.9768
2.2329 -4.8117 -2.5005 0.9768
2.6524 -4.5941 -2.5006 0.9768
3.4252 -4.0514 -2.5008 0.9768
4.3743 -3.0027 -2.5010 0.9768
5.1474 -1.2874 -2.5011 0.9768
5.2416 -0.8242 -2.5011 0.9768
5.2941 -0.3544 -2.5011 0.9768
5.2730 0.5899 -2.5011 0.9768
4.9294 1.9619 -2.5009 0.9768
6.7552 4.2072 -3.7513 0.9654
6.3536 4.7915 -3.7511 0.9654
3.6943 3.3413 -2.3480 0.9782
3.3821 3.6567 -2.3479 0.9782
2.6799 4.1980 -2.3477 0.9782
1.8929 4.6062 -2.3474 0.9782
0.6086 4.9418 -2.3470 0.9782
0.1664 4.9761 -2.3469 0.9782
-0.2772 4.9708 -2.3468 0.9782
-1.1540 4.8424 -2.3465 0.9782
-2.3920 4.3649 -2.3462 0.9782
-4.9966 6.1844 -3.7477 0.9655
-4.5596 2.7007 -2.4980 0.9768
-4.9661 1.8494 -2.4980 0.9768
-5.1110 1.4001 -2.4979 0.9768
-2.5903 -0.2315 -1.2791 0.9885
-2.5698 -0.4630 -1.2843 0.9884
-2.5499 -0.6985 -1.3004 0.9883
-2.5453 -0.9479 -1.3359 0.9880
-4.3704 -2.5886 -2.4984 0.9776
-4.1228 -2.9674 -2.4985 0.9776
-3.5317 -3.6517 -2.4987 0.9776
-3.1928 -3.9517 -2.4988 0.9776
-1.6132 -4.8185 -2.4993 0.9776
-0.2829 -5.0743 -2.4997 0.9776
0.6213 -5.0446 -2.5000 0.9776
1.5061 -4.8551 -2.5002 0.9776
1.9323 -4.7020 -2.5004 0.9776
2.3432 -4.5115 -2.5005 0.9776
2.7356 -4.2852 -2.5006 0.9776
3.1063 -4.0249 -2.5007 0.9776
4.0596 -3.0615 -2.5009 0.9776
4.3161 -2.6881 -2.5010 0.9776
4.5383 -2.2933 -2.5010 0.9776
5.0534 -0.5653 -2.5011 0.9776
5.0735 0.3396 -2.5010 0.9776
5.0231 0.7899 -2.5010 0.9776
4.6356 2.0887 -2.5008 0.9776
6.6471 3.7396 -3.7513 0.9666
3.3943 3.3567 -2.3479 0.9789
2.0090 4.3293 -2.3475 0.9789
1.6156 4.4907 -2.3474 0.9790
0.3717 4.7572 -2.3470 0.9790
-0.4776 4.7472 -2.3467 0.9790
-1.3116 4.5869 -2.3465 0.9790
-1.7145 4.4517 -2.3464 0.9790
-2.1039 4.2812 -2.3463 0.9790
-3.9861 3.1478 -2.4982 0.9776
-4.4808 2.3911 -2.4981 0.9776
-4.6758 1.9827 -2.4980 0.9776
-4.8337 1.5587 -2.4980 0.9776
-4.9532 1.1223 -2.4980 0.9776
-3.0630 0.1366 -1.5081 0.9864
-2.5616 -0.5804 -1.2919 0.9884
-2.5430 -0.8200 -1.3142 0.9882
-4.2508 -2.7808 -2.4984 0.9776
-3.9866 -3.1482 -2.4985 0.9776
-3.6908 -3.4907 -2.4986 0.9776
-3.0136 -4.0901 -2.4989 0.9776
-2.6378 -4.3424 -2.4990 0.9776
-1.8263 -4.7417 -2.4993 0.9776
-1.3970 -4.8857 -2.4994 0.9776
-0.5087 -5.0566 -2.4997 0.9776
-0.0566 -5.0821 -2.4998 0.9776
2.1399 -4.6113 -2.5004 0.9776
2.9238 -4.1592 -2.5006 0.9776
3.6152 -3.5751 -2.5008 0.9776
4.1920 -2.8777 -2.5009 0.9776
4.4316 -2.4932 -2.5010 0.9776
4.6360 -2.0889 -2.5010 0.9776
4.8036 -1.6680 -2.5010 0.9776
4.9330 -1.2338 -2.5011 0.9776
5.0232 -0.7899 -2.5011 0.9776
5.0836 0.1133 -2.5010 0.9776
5.0533 0.5653 -2.5010 0.9776
4.9828 1.0128 -2.5009 0.9776
4.5379 2.2931 -2.5007 0.9776
2.9164 3.7788 -2.3478 0.9789
2.1999 4.2356 -2.3475 0.9789
1.8141 4.4144 -2.3474 0.9790
1.0026 4.6656 -2.3472 0.9790
0.1594 4.7689 -2.3469 0.9790
-0.6886 4.7211 -2.3467 0.9790
-1.9111 4.3708 -2.3463 0.9790
-2.2924 4.1832 -2.3462 0.9790
-4.7886 5.9270 -3.7478 0.9666
-3.5311 3.6511 -2.4983 0.9776
-3.8419 3.3223 -2.4982 0.9776
-4.3699 2.5883 -2.4981 0.9776
-4.5829 2.1891 -2.4981 0.9776
-4.7595 1.7725 -2.4980 0.9776
-2.5372 -0.2267 -1.3059 0.9886
-2.5199 -0.4540 -1.3127 0.9886
-2.4895 -0.9271 -1.3619 0.9881
-2.4879 -1.1884 -1.4135 0.9877
-2.4521 -1.4524 -1.4611 0.9873
-3.9555 -2.8470 -2.4985 0.9783
-3.6865 -3.1879 -2.4986 0.9783
-3.3883 -3.5035 -2.4987 0.9783
-3.0632 -3.7913 -2.4988 0.9783
-2.3426 -4.2748 -2.4991 0.9783
-1.9530 -4.4665 -2.4992 0.9783
-1.5478 -4.6229 -2.4993 0.9783
-1.1302 -4.7425 -2.4995 0.9783
-0.2715 -4.8683 -2.4997 0.9783
0.5961 -4.8398 -2.5000 0.9783
1.0245 -4.7678 -2.5001 0.9783
1.4449 -4.6579 -2.5002 0.9783
1.8538 -4.5110 -2.5003 0.9783
2.9801 -3.8614 -2.5006 0.9783
4.1408 -2.5789 -2.5009 0.9783
4.3539 -2.2001 -2.5009 0.9783
4.5325 -1.8039 -2.5010 0.9783
4.6751 -1.3933 -2.5010 0.9783
4.7806 -0.9717 -2.5010 0.9783
4.4473 2.0038 -2.5007 0.9783
6.3771 3.5877 -3.7512 0.9676
6.0322 4.1409 -3.7511 0.9676
5.6395 4.6612 -3.7509 0.9676
3.2564 3.2203 -2.3479 0.9796
2.2896 3.9657 -2.3476 0.9796
1.9274 4.1535 -2.3475 0.9796
-0.8617 4.4954 -2.3466 0.9796
-1.2583 4.4007 -2.3465 0.9796
-1.6449 4.2711 -2.3464 0.9796
-3.7956 6.2484 -3.7481 0.9677
-4.3365 5.8856 -3.7479 0.9677
-3.5404 3.3485 -2.4983 0.9783
-3.8243 3.0200 -2.4982 0.9783
-4.2990 2.2940 -2.4981 0.9783
-4.7522 1.0767 -2.4981 0.9783
-4.8292 0.6495 -2.4981 0.9783
-2.9775 0.1328 -1.5280 0.9867
-2.5113 -0.5690 -1.3201 0.9885
-2.4881 -0.8023 -1.3403 0.9883
-2.4879 -1.0550 -1.3854 0.9879
-3.8248 -3.0204 -2.4986 0.9783
-2.8913 -3.9241 -2.4989 0.9783
-2.1500 -4.3750 -2.4991 0.9783
-1.7521 -4.5492 -2.4993 0.9783
-1.3403 -4.6873 -2.4994 0.9783
-0.9178 -4.7883 -2.4995 0.9783
-0.4880 -4.8512 -2.4997 0.9783
1.2359 -4.7175 -2.5002 0.9783
1.6510 -4.5890 -2.5003 0.9783
2.4387 -4.2239 -2.5005 0.9783
2.8051 -3.9903 -2.5006 0.9783
3.7600 -3.1077 -2.5008 0.9783
4.0217 -2.7607 -2.5009 0.9783
4.8675 -0.3258 -2.5010 0.9783
4.8480 0.5423 -2.5009 0.9783
4.7804 0.9717 -2.5009 0.9783
4.3535 2.1999 -2.5007 0.9783
6.2108 3.8681 -3.7512 0.9676
5.4262 4.9077 -3.7509 0.9676
2.4640 3.8598 -2.3476 0.9796
2.1106 4.0636 -2.3475 0.9796
1.7404 4.2352 -2.3474 0.9796
1.3565 4.3730 -2.3473 0.9796
0.5596 4.5438 -2.3470 0.9796
-0.2548 4.5705 -2.3468 0.9796
-0.6606 4.5295 -2.3467 0.9796
-1.4531 4.3402 -2.3465 0.9796
-1.8335 4.1934 -2.3464 0.9796
-3.5135 6.4114 -3.7481 0.9677
-4.0700 6.0730 -3.7480 0.9677
-4.5943 5.6864 -3.7479 0.9677
-3.3878 3.5030 -2.4983 0.9783
-3.6860 3.1875 -2.4983 0.9783
-3.9550 2.8466 -2.4982 0.9783
-4.1926 2.4833 -2.4982 0.9783
-4.6995 1.2874 -2.4981 0.9783
-4.7954 0.8640 -2.4981 0.9783
-3.5464 0.3169 -1.8254 0.9841
-2.6714 0.0000 -1.4261 0.9880
-2.4853 -0.2221 -1.3321 0.9887
-2.4292 -1.1603 -1.4371 0.9879
-2.3944 -1.4182 -1.4856 0.9875
-3.7987 -2.7341 -2.4986 0.9790
-2.9417 -3.6410 -2.4989 0.9790
-2.6061 -3.8885 -2.4990 0.9790
-2.2498 -4.1053 -2.4991 0.9790
-1.4864 -4.4396 -2.4993 0.9790
-0.6757 -4.6332 -2.4996 0.9790
-0.2607 -4.6752 -2.4997 0.9790
0.1565 -4.6801 -2.4998 0.9790
0.5724 -4.6478 -2.5000 0.9790
0.9839 -4.5786 -2.5001 0.9790
1.7803 -4.3320 -2.5003 0.9790
2.8618 -3.7082 -2.5006 0.9790
3.4742 -3.1422 -2.5007 0.9790
3.9765 -2.4765 -2.5008 0.9790
4.3527 -1.7323 -2.5009 0.9790
4.4896 -1.3380 -2.5009 0.9790
4.6557 -0.5208 -2.5009 0.9790
4.6742 0.3129 -2.5009 0.9790
4.5445 1.1367 -2.5008 0.9790
4.2708 1.9244 -2.5007 0.9790
