ply
format ascii 1.0
element vertex 1588
property float32 x
property float32 y
property float32 z
property float32 I
end_header
5.9636 -12.8511 -2.4981 0.9441
7.0836 -12.2691 -2.4980 0.9441
9.1464 -10.8183 -2.4980 0.9441
10.9193 -9.0250 -2.4979 0.9441
12.9153 -5.8194 -2.4978 0.9441
13.7424 -3.4372 -2.4978 0.9441
13.9937 -2.2004 -2.4978 0.9441
14.1622 0.3156 -2.4978 0.9441
10.6210 8.0096 -2.3456 0.9474
9.8661 8.9234 -2.3457 0.9474
9.0329 9.7663 -2.3457 0.9474
8.1280 10.5317 -2.3457 0.9474
5.0571 12.3057 -2.3459 0.9474
2.7952 13.0080 -2.3460 0.9474
-0.7408 13.2853 -2.3462 0.9474
-5.3311 12.1925 -2.3464 0.9474
-7.4087 11.0546 -2.3465 0.9474
-9.2516 9.5661 -2.3466 0.9474
-10.0665 8.7048 -2.3466 0.9474
-10.8014 7.7744 -2.3466 0.9474
-11.4506 6.7822 -2.3466 0.9474
-12.0090 5.7362 -2.3467 0.9474
-13.6697 3.7445 -2.4991 0.9441
-14.1170 1.2615 -2.4991 0.9441
-12.9139 0.0000 -2.4991 0.9487
-12.8626 -1.1494 -2.4991 0.9487
-12.4548 -3.4117 -2.4990 0.9487
-9.7674 -8.4462 -2.4989 0.9488
-8.9768 -9.2819 -2.4988 0.9488
-7.1885 -10.7260 -2.4987 0.9488
-5.1727 -11.8302 -2.4986 0.9488
-4.0991 -12.2434 -2.4986 0.9488
-2.9930 -12.5593 -2.4985 0.9488
-1.8633 -12.7756 -2.4985 0.9488
0.4314 -12.9030 -2.4984 0.9488
2.7122 -12.6215 -2.4983 0.9488
7.8867 -10.2191 -2.4980 0.9488
11.9928 -4.7730 -2.4979 0.9488
12.3699 -3.6866 -2.4979 0.9488
12.6489 -2.5710 -2.4978 0.9488
11.0507 4.9792 -2.3456 0.9518
9.3430 7.7222 -2.3457 0.9518
5.1359 5.0790 -1.3978 0.9710
6.0610 10.4980 -2.3458 0.9518
4.1039 11.4069 -2.3459 0.9518
3.0724 11.7271 -2.3460 0.9518
2.0164 11.9543 -2.3460 0.9518
0.9445 12.0866 -2.3461 0.9518
-2.2824 11.9074 -2.3462 0.9518
-4.3577 11.3145 -2.3463 0.9518
-5.3475 10.8819 -2.3464 0.9518
-7.1925 9.7617 -2.3465 0.9518
-8.0329 9.0829 -2.3465 0.9518
-8.8096 8.3320 -2.3465 0.9518
-9.5163 7.5150 -2.3466 0.9518
-10.1475 6.6382 -2.3466 0.9518
-10.6982 5.7087 -2.3466 0.9518
-12.5947 2.8536 -2.4991 0.9487
-12.9010 -0.5753 -2.4991 0.9487
-12.7986 -1.7212 -2.4991 0.9487
-12.5945 -2.8535 -2.4990 0.9487
-11.8888 -5.0412 -2.4990 0.9487
-11.3928 -6.0793 -2.4990 0.9487
-6.7035 -11.0355 -2.4987 0.9488
-4.6405 -12.0487 -2.4986 0.9488
-1.2923 -12.8458 -2.4984 0.9488
1.0057 -12.8709 -2.4983 0.9488
3.2717 -12.4880 -2.4982 0.9488
5.4339 -11.7097 -2.4981 0.9488
8.3340 -9.8575 -2.4980 0.9488
9.9495 -8.2234 -2.4979 0.9488
10.6418 -7.3052 -2.4979 0.9488
11.2497 -6.3289 -2.4979 0.9488
12.1934 -4.2340 -2.4979 0.9488
12.5219 -3.1319 -2.4979 0.9488
12.7509 -2.0050 -2.4978 0.9488
12.8788 -0.8621 -2.4978 0.9488
10.8180 5.4666 -2.3456 0.9518
10.2887 6.4078 -2.3456 0.9518
9.6776 7.2983 -2.3457 0.9518
8.2306 8.8988 -2.3457 0.9518
7.4060 9.5962 -2.3458 0.9518
6.5226 10.2175 -2.3458 0.9518
5.5874 10.7577 -2.3459 0.9518
3.5917 11.5784 -2.3460 0.9518
2.5469 11.8525 -2.3460 0.9518
1.4819 12.0324 -2.3461 0.9518
-1.7497 11.9971 -2.3462 0.9518
-2.8107 11.7940 -2.3463 0.9518
-5.8270 10.6330 -2.3464 0.9518
-6.7504 10.0724 -2.3464 0.9518
-7.6203 9.4317 -2.3465 0.9518
-9.1720 7.9314 -2.3465 0.9518
-9.8417 7.0836 -2.3466 0.9518
-10.4332 6.1796 -2.3466 0.9518
-12.1019 4.5068 -2.4991 0.9487
-12.4550 3.4118 -2.4991 0.9487
-12.7093 2.2897 -2.4991 0.9487
-11.8067 -1.0551 -2.4990 0.9527
-11.4325 -3.1317 -2.4990 0.9527
-11.1083 -4.1368 -2.4990 0.9527
-10.6959 -5.1090 -2.4989 0.9527
-9.6203 -6.9243 -2.4989 0.9527
-8.9657 -7.7529 -2.4988 0.9527
-7.4488 -9.2195 -2.4988 0.9527
-6.5985 -9.8457 -2.4987 0.9527
-2.7474 -11.5286 -2.4985 0.9527
-1.7104 -11.7271 -2.4985 0.9527
0.3960 -11.8441 -2.4984 0.9527
1.4486 -11.7616 -2.4983 0.9527
7.2395 -9.3805 -2.4981 0.9527
9.4603 -7.1343 -2.4980 0.9527
10.5751 -5.3439 -2.4979 0.9527
11.3550 -3.3841 -2.4979 0.9527
11.6111 -2.3601 -2.4979 0.9527
11.8456 -0.2640 -2.4979 0.9527
11.8221 0.7914 -2.4979 0.9527
10.5104 3.6496 -2.3456 0.9555
9.1731 6.2970 -2.3457 0.9555
8.5763 7.0886 -2.3457 0.9555
3.7671 10.4707 -2.3459 0.9555
-0.1240 11.1279 -2.3461 0.9555
-4.0000 10.3858 -2.3463 0.9555
-4.9086 9.9887 -2.3464 0.9555
-5.7783 9.5124 -2.3464 0.9555
-6.6021 8.9604 -2.3464 0.9555
-7.3735 8.3374 -2.3465 0.9555
-8.0864 7.6481 -2.3465 0.9555
-8.7352 6.8981 -2.3465 0.9555
-9.3145 6.0933 -2.3465 0.9555
-10.0442 5.3598 -2.4001 0.9545
-11.5608 2.6193 -2.4990 0.9527
-11.8420 -0.5280 -2.4990 0.9527
-11.7480 -1.5799 -2.4990 0.9527
-11.2816 -3.6378 -2.4990 0.9527
-10.9129 -4.6275 -2.4989 0.9527
-10.4576 -5.5804 -2.4989 0.9527
-9.9193 -6.4889 -2.4989 0.9527
-7.8522 -8.8786 -2.4988 0.9527
-7.0306 -9.5420 -2.4987 0.9527
-5.2272 -10.6370 -2.4986 0.9527
-3.2583 -11.3949 -2.4985 0.9527
-2.2311 -11.6394 -2.4985 0.9527
0.9232 -11.8146 -2.4983 0.9527
1.9711 -11.6853 -2.4983 0.9527
3.0032 -11.4632 -2.4982 0.9527
4.0115 -11.1503 -2.4982 0.9527
7.6502 -9.0487 -2.4980 0.9527
8.4251 -8.3317 -2.4980 0.9527
9.1331 -7.5487 -2.4980 0.9527
10.3266 -5.8097 -2.4979 0.9527
11.1930 -3.8866 -2.4979 0.9527
11.4944 -2.8749 -2.4979 0.9527
11.7047 -1.8404 -2.4979 0.9527
11.8220 -0.7914 -2.4979 0.9527
10.9030 2.2161 -2.3456 0.9555
10.6625 3.1778 -2.3456 0.9555
8.8835 6.6994 -2.3457 0.9555
8.2521 7.4636 -2.3457 0.9555
7.5552 8.1686 -2.3458 0.9555
6.7983 8.8088 -2.3458 0.9555
5.9874 9.3791 -2.3458 0.9555
5.1289 9.8749 -2.3459 0.9555
2.3379 10.8797 -2.3460 0.9555
-3.5334 10.5536 -2.3463 0.9555
-6.1963 9.2456 -2.3464 0.9555
-7.7376 8.0007 -2.3465 0.9555
-11.4326 3.1317 -2.4990 0.9527
-11.6660 2.1017 -2.4990 0.9527
-10.9487 0.0000 -2.4990 0.9561
-10.7752 -1.9412 -2.4990 0.9561
-10.5596 -2.8925 -2.4989 0.9561
-9.8792 -4.7189 -2.4989 0.9561
-9.4199 -5.5794 -2.4989 0.9561
-8.8858 -6.3956 -2.4988 0.9561
-6.8801 -8.5156 -2.4987 0.9561
-5.2611 -9.6002 -2.4986 0.9561
-2.5377 -10.6485 -2.4985 0.9561
0.3658 -10.9400 -2.4984 0.9561
1.3380 -10.8638 -2.4983 0.9561
3.2429 -10.4540 -2.4982 0.9561
4.1604 -10.1238 -2.4982 0.9561
6.6870 -8.6645 -2.4981 0.9561
8.1171 -7.3414 -2.4980 0.9561
8.7382 -6.5898 -2.4980 0.9561
10.1685 -4.0470 -2.4980 0.9561
10.8764 -1.2167 -2.4979 0.9561
10.9415 -0.2438 -2.4979 0.9561
10.9198 0.7310 -2.4980 0.9561
9.7082 3.3711 -2.3456 0.9587
8.9569 5.0391 -2.3457 0.9587
8.4729 5.8164 -2.3457 0.9587
7.9217 6.5475 -2.3457 0.9587
6.6355 7.8485 -2.3458 0.9587
5.9107 8.4081 -2.3458 0.9587
5.1390 8.9010 -2.3459 0.9587
2.6049 9.9429 -2.3460 0.9587
0.8008 10.2476 -2.3461 0.9587
-1.9352 10.0957 -2.3462 0.9587
-3.6946 9.5929 -2.3463 0.9587
-4.5339 9.2262 -2.3463 0.9587
-5.3371 8.7861 -2.3464 0.9587
-6.0980 8.2763 -2.3464 0.9587
-6.8106 7.7008 -2.3464 0.9587
-7.4690 7.0642 -2.3465 0.9587
-8.6034 5.6280 -2.3465 0.9587
-9.6594 5.1544 -2.4989 0.9561
-10.0799 4.2742 -2.4990 0.9561
-10.4204 3.3602 -2.4990 0.9561
-10.9379 0.4877 -2.4990 0.9561
-10.9379 -0.4877 -2.4990 0.9561
-10.4202 -3.3601 -2.4989 0.9561
-9.1619 -5.9935 -2.4989 0.9561
-8.5920 -6.7851 -2.4988 0.9561
-7.9539 -7.5228 -2.4988 0.9561
-7.2527 -8.2007 -2.4987 0.9561
-6.4939 -8.8136 -2.4987 0.9561
-4.8281 -9.8250 -2.4986 0.9561
-2.0608 -10.7509 -2.4985 0.9561
-1.0957 -10.8914 -2.4984 0.9561
1.8206 -10.7933 -2.4983 0.9561
2.7740 -10.5882 -2.4983 0.9561
3.7053 -10.2992 -2.4982 0.9561
5.4725 -9.4787 -2.4981 0.9561
7.0663 -8.3580 -2.4981 0.9561
7.7820 -7.6958 -2.4980 0.9561
8.4360 -6.9726 -2.4980 0.9561
9.5385 -5.3663 -2.4980 0.9561
9.9782 -4.4959 -2.4980 0.9561
10.3387 -3.5900 -2.4980 0.9561
10.9198 -0.7310 -2.4979 0.9561
10.9415 0.2438 -2.4979 0.9561
9.5485 3.8002 -2.3456 0.9587
8.2055 6.1880 -2.3457 0.9587
6.9785 7.5451 -2.3458 0.9587
5.5303 8.6631 -2.3459 0.9587
3.9068 9.5068 -2.3459 0.9587
3.0452 9.8170 -2.3460 0.9587
1.2565 10.2017 -2.3461 0.9587
-1.4835 10.1718 -2.3462 0.9587
-4.1183 9.4189 -2.3463 0.9587
-4.9404 9.0151 -2.3463 0.9587
-5.7233 8.5397 -2.3464 0.9587
-6.4607 7.9965 -2.3464 0.9587
-7.1469 7.3898 -2.3464 0.9587
-7.7763 6.7245 -2.3465 0.9587
-10.5597 2.8926 -2.4990 0.9561
-10.9053 0.9745 -2.4990 0.9561
-9.5272 -3.5480 -2.4989 0.9590
-8.2510 -5.9387 -2.4988 0.9590
-7.6896 -6.6495 -2.4988 0.9590
-7.0672 -7.3074 -2.4987 0.9590
-6.3886 -7.9073 -2.4987 0.9590
-4.8853 -8.9145 -2.4986 0.9590
-3.2272 -9.6391 -2.4985 0.9590
-2.3564 -9.8879 -2.4985 0.9590
-1.4669 -10.0582 -2.4985 0.9590
0.3396 -10.1586 -2.4984 0.9590
2.1353 -9.9371 -2.4983 0.9590
4.6846 -9.0195 -2.4982 0.9590
5.4687 -8.5666 -2.4981 0.9590
6.2094 -8.0457 -2.4981 0.9590
6.9008 -7.4611 -2.4981 0.9590
7.5374 -6.8172 -2.4981 0.9590
8.1142 -6.1192 -2.4980 0.9590
8.6266 -5.3726 -2.4980 0.9590
9.7393 -2.9026 -2.4980 0.9590
9.9590 -2.0243 -2.4980 0.9590
10.1601 -0.2264 -2.4980 0.9590
10.1400 0.6788 -2.4980 0.9590
9.2577 2.3155 -2.3456 0.9615
8.3172 4.6792 -2.3457 0.9615
7.8678 5.4010 -2.3457 0.9615
5.0563 5.0003 -1.7479 0.9711
5.4886 7.8076 -2.3459 0.9615
4.7720 8.2653 -2.3459 0.9615
0.7436 9.5157 -2.3461 0.9614
-0.9554 9.4971 -2.3462 0.9614
-2.6242 9.1775 -2.3462 0.9614
-4.2100 8.5671 -2.3463 0.9614
-5.6624 7.6851 -2.3464 0.9614
-6.3240 7.1507 -2.3464 0.9614
-6.9355 6.5596 -2.3464 0.9614
-7.4918 5.9162 -2.3464 0.9614
-7.9887 5.2260 -2.3465 0.9614
-8.9693 4.7862 -2.4989 0.9590
-10.0759 1.3551 -2.4989 0.9590
-10.1565 0.4529 -2.4989 0.9590
-10.1565 -0.4529 -2.4989 0.9590
-10.0758 -1.3551 -2.4989 0.9590
-9.9152 -2.2465 -2.4989 0.9590
-7.3857 -6.9854 -2.4988 0.9590
-6.0300 -8.1840 -2.4987 0.9590
-4.4833 -9.1232 -2.4986 0.9590
-2.7946 -9.7732 -2.4985 0.9590
0.7918 -10.1333 -2.4984 0.9590
1.6906 -10.0224 -2.4983 0.9590
3.4407 -9.5636 -2.4982 0.9590
4.2782 -9.2193 -2.4982 0.9590
5.8449 -8.3144 -2.4981 0.9590
7.2263 -7.1462 -2.4981 0.9590
7.8336 -6.4746 -2.4981 0.9590
9.2656 -4.1749 -2.4980 0.9590
9.8590 -2.4659 -2.4980 0.9590
10.0393 -1.5786 -2.4980 0.9590
10.1400 -0.6787 -2.4980 0.9590
10.1602 0.2264 -2.4980 0.9590
10.0997 1.1298 -2.4980 0.9590
9.1454 2.7256 -2.3456 0.9615
8.5174 4.3040 -2.3457 0.9615
7.6195 5.7461 -2.3457 0.9615
4.3991 8.4697 -2.3459 0.9615
3.6278 8.8278 -2.3459 0.9614
2.8278 9.1158 -2.3460 0.9614
2.0052 9.3315 -2.3460 0.9614
1.1667 9.4731 -2.3461 0.9614
0.3189 9.5395 -2.3461 0.9614
-0.5314 9.5302 -2.3461 0.9614
-1.3775 9.4452 -2.3462 0.9614
-2.2128 9.2852 -2.3462 0.9614
-5.9992 7.4253 -2.3464 0.9614
-7.2208 6.2441 -2.3464 0.9614
-8.5953 5.0911 -2.4555 0.9597
-9.1737 4.3819 -2.4989 0.9590
-10.0055 1.8026 -2.4989 0.9590
-9.4835 0.0000 -2.4989 0.9615
-9.4458 -0.8441 -2.4989 0.9615
-9.1464 -2.5055 -2.4989 0.9615
-8.1593 -4.8328 -2.4988 0.9615
-7.1730 -6.2027 -2.4988 0.9615
-4.5571 -8.3156 -2.4986 0.9615
-3.0104 -8.9916 -2.4985 0.9615
-1.3684 -9.3826 -2.4985 0.9615
-0.5279 -9.4670 -2.4984 0.9615
4.3699 -8.4137 -2.4982 0.9615
5.1014 -7.9912 -2.4982 0.9615
5.7924 -7.5053 -2.4981 0.9615
6.4373 -6.9599 -2.4981 0.9615
7.0312 -6.3593 -2.4981 0.9615
8.4613 -4.2757 -2.4980 0.9615
8.8082 -3.5056 -2.4980 0.9615
9.0852 -2.7077 -2.4980 0.9615
9.4213 -1.0539 -2.4980 0.9615
9.4778 -0.2112 -2.4980 0.9615
9.4590 0.6332 -2.4980 0.9615
14.0505 2.2094 -3.7478 0.9429
8.4095 2.9201 -2.3457 0.9638
8.1162 3.6570 -2.3457 0.9638
7.7586 4.3649 -2.3457 0.9638
5.0425 4.9866 -1.8687 0.9711
5.7478 6.7985 -2.3458 0.9638
3.7476 8.0758 -2.3459 0.9638
2.2564 8.6126 -2.3460 0.9638
1.4809 8.7794 -2.3460 0.9638
-2.4479 8.5610 -2.3462 0.9638
-3.2002 8.3093 -2.3463 0.9638
-5.2820 7.1688 -2.3464 0.9638
-6.4695 6.1189 -2.3464 0.9638
-6.9885 5.5188 -2.3464 0.9638
-7.5134 4.9150 -2.3658 0.9635
-8.3667 4.4646 -2.4989 0.9615
-9.0259 2.9104 -2.4989 0.9615
-9.3989 1.2640 -2.4989 0.9615
-9.2490 -2.0955 -2.4989 0.9615
-6.8895 -6.5161 -2.4987 0.9615
-6.2822 -7.1033 -2.4987 0.9615
-5.6249 -7.6342 -2.4987 0.9615
-1.7850 -9.3124 -2.4985 0.9615
-0.9491 -9.4341 -2.4984 0.9615
3.2096 -8.9212 -2.4983 0.9615
3.9908 -8.6000 -2.4982 0.9615
4.7404 -8.2105 -2.4982 0.9615
5.4523 -7.7560 -2.4982 0.9615
6.1209 -7.2398 -2.4981 0.9615
7.3074 -6.0397 -2.4981 0.9615
7.8159 -5.3653 -2.4981 0.9615
8.6433 -3.8945 -2.4980 0.9615
9.3650 -1.4726 -2.4980 0.9615
9.4778 0.2112 -2.4980 0.9615
9.4214 1.0539 -2.4980 0.9615
4.1036 7.9008 -2.3459 0.9638
2.6378 8.5035 -2.3460 0.9638
0.2975 8.8987 -2.3461 0.9638
-1.2850 8.8107 -2.3462 0.9638
-2.0641 8.6615 -2.3462 0.9638
-3.5672 8.1585 -2.3463 0.9638
-4.2793 7.8087 -2.3463 0.9638
-4.9574 7.3970 -2.3463 0.9638
-8.5573 4.0875 -2.4989 0.9615
-9.3333 1.6815 -2.4989 0.9615
-5.0318 -0.0000 -1.4157 0.9793
-3.9277 -0.3510 -1.1095 0.9837
-3.7284 -0.6717 -1.0659 0.9844
-3.7904 -1.0383 -1.1057 0.9838
-8.0140 -3.8279 -2.4988 0.9638
-7.2082 -5.1881 -2.4988 0.9638
-6.7177 -5.8090 -2.4987 0.9638
-6.1740 -6.3838 -2.4987 0.9638
-4.9441 -7.3772 -2.4986 0.9638
-4.2678 -7.7879 -2.4986 0.9638
-3.5577 -8.1367 -2.4986 0.9638
-2.8193 -8.4209 -2.4985 0.9638
-2.0586 -8.6383 -2.4985 0.9638
-1.2816 -8.7871 -2.4985 0.9638
-0.4944 -8.8662 -2.4984 0.9638
0.2967 -8.8748 -2.4984 0.9638
1.0854 -8.8131 -2.4984 0.9638
1.8655 -8.6813 -2.4983 0.9638
3.3751 -8.2128 -2.4982 0.9638
5.4248 -7.0291 -2.4982 0.9638
7.9244 -4.0043 -2.4981 0.9638
8.5087 -2.5358 -2.4980 0.9638
8.7006 -1.7685 -2.4980 0.9638
8.8764 -0.1978 -2.4980 0.9638
12.9227 3.2322 -3.7479 0.9462
5.3830 6.3671 -2.3458 0.9659
3.5097 7.5633 -2.3459 0.9659
2.1132 8.0660 -2.3460 0.9659
1.3869 8.2222 -2.3460 0.9659
-0.8347 8.2968 -2.3462 0.9659
-1.5698 8.1897 -2.3462 0.9659
-2.2926 8.0176 -2.3462 0.9659
-3.6779 7.4843 -2.3463 0.9659
-4.9467 6.7138 -2.3463 0.9659
-6.0589 5.7304 -2.3464 0.9659
-6.5449 5.1685 -2.3464 0.9659
-7.4324 4.8621 -2.4988 0.9638
-8.8727 0.3956 -2.4989 0.9638
-3.7659 -0.8533 -1.0864 0.9841
-8.1766 -3.4672 -2.4988 0.9638
-7.4322 -4.8619 -2.4988 0.9638
-6.9699 -5.5040 -2.4988 0.9638
-6.4523 -6.1025 -2.4987 0.9638
-5.8834 -6.6524 -2.4987 0.9638
-5.2679 -7.1496 -2.4987 0.9638
-3.1917 -8.2870 -2.4986 0.9638
-2.4414 -8.5381 -2.4985 0.9638
-0.8888 -8.8354 -2.4984 0.9638
-0.0989 -8.8793 -2.4984 0.9638
1.4769 -8.7559 -2.4983 0.9638
2.2504 -8.5896 -2.4983 0.9638
3.0059 -8.3551 -2.4983 0.9638
5.7325 -6.7804 -2.4981 0.9638
7.3200 -5.0249 -2.4981 0.9638
7.7381 -4.3534 -2.4981 0.9638
8.8236 0.9871 -2.4981 0.9638
7.7462 3.0829 -2.3457 0.9659
7.0770 4.4076 -2.3458 0.9659
6.1835 5.5927 -2.3458 0.9659
5.0059 5.4123 -2.0743 0.9698
5.0941 6.6006 -2.3459 0.9659
4.4864 7.0279 -2.3459 0.9659
2.4704 7.9638 -2.3460 0.9659
-0.4642 8.3257 -2.3461 0.9659
-1.2034 8.2515 -2.3462 0.9659
-2.6475 7.9076 -2.3462 0.9659
-3.3408 7.6407 -2.3463 0.9659
-4.6427 6.9274 -2.3463 0.9659
-5.2409 6.4868 -2.3463 0.9659
-5.7976 5.9946 -2.3464 0.9659
-6.7687 4.8718 -2.3464 0.9659
-8.0142 3.8281 -2.4989 0.9638
-8.3231 3.0996 -2.4989 0.9638
-8.5660 2.3465 -2.4989 0.9638
-8.7408 1.5747 -2.4989 0.9638
-8.8463 0.7905 -2.4989 0.9638
-3.9676 0.0000 -1.1878 0.9836
-3.5918 -0.3210 -1.0796 0.9851
-7.5315 -3.5975 -2.4988 0.9658
-7.1813 -4.2535 -2.4988 0.9658
-6.7742 -4.8757 -2.4987 0.9658
-5.8022 -5.9994 -2.4987 0.9658
-4.0109 -7.3190 -2.4986 0.9658
-1.2044 -8.2581 -2.4985 0.9658
-0.4646 -8.3324 -2.4984 0.9658
0.2789 -8.3405 -2.4984 0.9658
1.0201 -8.2825 -2.4984 0.9658
1.7532 -8.1587 -2.4983 0.9658
6.6622 -5.0242 -2.4981 0.9658
7.0829 -4.4112 -2.4981 0.9658
7.4473 -3.7633 -2.4981 0.9658
8.1769 -1.6620 -2.4981 0.9658
8.3420 -0.1859 -2.4981 0.9658
12.1448 3.0376 -3.7479 0.9491
6.4599 4.4345 -2.3458 0.9678
6.0396 4.9919 -2.3458 0.9678
3.9180 6.7861 -2.3459 0.9678
2.6528 7.3735 -2.3460 0.9678
1.9860 7.5804 -2.3460 0.9678
0.6105 7.8127 -2.3461 0.9678
-0.0873 7.8361 -2.3461 0.9678
-2.1545 7.5349 -2.3462 0.9678
-4.0688 6.6982 -2.3463 0.9678
-4.6489 6.3095 -2.3463 0.9678
-7.9439 2.5616 -2.4988 0.9657
-8.1404 1.8444 -2.4989 0.9657
-8.2723 1.1125 -2.4989 0.9657
-4.8506 0.2163 -1.4536 0.9799
-3.6646 -0.1634 -1.0982 0.9848
-3.4643 -0.7849 -1.0634 0.9853
-7.9438 -2.5615 -2.4988 0.9657
-7.6843 -3.2584 -2.4988 0.9657
-7.3637 -3.9294 -2.4988 0.9658
-6.9847 -4.5692 -2.4988 0.9658
-6.0638 -5.7351 -2.4987 0.9658
-4.9507 -6.7192 -2.4986 0.9658
-4.3330 -7.1330 -2.4986 0.9658
-3.6809 -7.4903 -2.4986 0.9658
-2.9995 -7.7881 -2.4986 0.9658
-2.2944 -8.0240 -2.4985 0.9658
-0.8353 -8.3035 -2.4984 0.9658
-0.0930 -8.3447 -2.4984 0.9658
1.3880 -8.2288 -2.4983 0.9658
2.1149 -8.0725 -2.4983 0.9658
2.8250 -7.8521 -2.4983 0.9658
3.5126 -7.5694 -2.4982 0.9658
5.9331 -5.8674 -2.4981 0.9658
6.4318 -5.3160 -2.4981 0.9658
6.8794 -4.7224 -2.4981 0.9658
7.2723 -4.0913 -2.4981 0.9658
7.6076 -3.4278 -2.4981 0.9658
8.0948 -2.0246 -2.4981 0.9658
8.3421 0.1859 -2.4981 0.9658
11.9974 3.5756 -3.7479 0.9491
6.9932 3.5338 -2.3458 0.9678
6.2560 4.7179 -2.3458 0.9678
4.7874 6.2032 -2.3459 0.9678
4.2163 6.6048 -2.3459 0.9678
2.9786 7.2479 -2.3460 0.9678
2.3217 7.4844 -2.3460 0.9678
0.9579 7.7776 -2.3461 0.9678
0.2619 7.8321 -2.3461 0.9678
-0.4363 7.8245 -2.3461 0.9678
-1.8167 7.6233 -2.3462 0.9678
-2.4881 7.4315 -2.3462 0.9678
-3.1397 7.1806 -2.3463 0.9678
-3.7664 6.8728 -2.3463 0.9678
-4.3632 6.5103 -2.3463 0.9678
-4.9254 6.0962 -2.3463 0.9678
-7.5316 3.5976 -2.4988 0.9657
-8.2145 1.4799 -2.4989 0.9657
-3.3867 -0.3026 -1.0798 0.9858
-3.2843 -0.5917 -1.0598 0.9861
-3.2540 -0.8913 -1.0715 0.9859
-7.3734 -2.7459 -2.4988 0.9675
-6.3858 -4.5962 -2.4987 0.9675
-5.4696 -5.6555 -2.4987 0.9675
-1.8238 -7.6529 -2.4985 0.9675
1.6527 -7.6911 -2.4983 0.9675
2.3307 -7.5134 -2.4983 0.9675
2.9901 -7.2760 -2.4983 0.9675
5.3412 -5.7748 -2.4982 0.9675
5.8339 -5.2764 -2.4982 0.9675
6.2803 -4.7362 -2.4981 0.9675
7.0205 -3.5476 -2.4981 0.9675
7.5382 -2.2466 -2.4981 0.9675
7.8639 -0.1752 -2.4981 0.9675
11.1485 3.8712 -3.7480 0.9517
3.6934 6.3972 -2.3459 0.9695
3.1094 6.7006 -2.3460 0.9695
2.5007 6.9508 -2.3460 0.9695
1.8721 7.1459 -2.3460 0.9695
1.2287 7.2843 -2.3460 0.9695
0.5755 7.3648 -2.3461 0.9695
-0.0823 7.3869 -2.3461 0.9695
-0.7395 7.3504 -2.3461 0.9695
-1.3907 7.2554 -2.3462 0.9695
-2.0310 7.1030 -2.3462 0.9695
-3.2583 6.6305 -2.3463 0.9695
-3.8356 6.3142 -2.3463 0.9695
-4.8944 5.5342 -2.3463 0.9695
-5.3676 5.0767 -2.3463 0.9695
-5.8478 4.6180 -2.3664 0.9692
-6.5844 4.3073 -2.4988 0.9675
-7.2439 3.0717 -2.4988 0.9675
-7.6737 1.7387 -2.4988 0.9675
-7.7980 1.0487 -2.4988 0.9675
-3.4557 -0.1541 -1.0986 0.9856
-3.2827 -1.0585 -1.0954 0.9856
-7.2438 -3.0717 -2.4988 0.9675
-6.9416 -3.7041 -2.4988 0.9675
-6.1747 -4.8761 -2.4987 0.9675
-5.2122 -5.8935 -2.4987 0.9675
-4.0846 -6.7241 -2.4986 0.9675
-3.4698 -7.0609 -2.4986 0.9675
-2.8276 -7.3417 -2.4985 0.9675
-1.4810 -7.7265 -2.4985 0.9675
-0.7875 -7.8275 -2.4984 0.9675
-0.0876 -7.8664 -2.4984 0.9675
1.9937 -7.6098 -2.4983 0.9675
3.9332 -6.8124 -2.4982 0.9675
4.5239 -6.4353 -2.4982 0.9675
5.0786 -6.0070 -2.4982 0.9675
5.5931 -5.5311 -2.4982 0.9675
6.0631 -5.0113 -2.4981 0.9675
7.1716 -3.2314 -2.4981 0.9675
7.4307 -2.5802 -2.4981 0.9675
7.8483 -0.5254 -2.4981 0.9675
7.8172 0.8745 -2.4981 0.9675
11.3098 3.3707 -3.7479 0.9517
6.8627 2.7313 -2.3458 0.9695
6.5924 3.3313 -2.3458 0.9695
6.2698 3.9049 -2.3458 0.9695
5.8974 4.4474 -2.3458 0.9695
5.3830 4.8686 -2.3051 0.9700
4.9651 5.3682 -2.3223 0.9698
3.9747 6.2262 -2.3459 0.9695
2.8078 6.8325 -2.3460 0.9695
2.1886 7.0554 -2.3460 0.9695
-0.4113 7.3759 -2.3461 0.9695
-1.0662 7.3102 -2.3462 0.9695
-2.9597 6.7690 -2.3462 0.9695
-4.1131 6.1371 -2.3463 0.9695
-5.1361 5.3107 -2.3463 0.9695
-5.5885 4.8325 -2.3464 0.9695
-7.3735 2.7459 -2.4988 0.9675
-7.5887 2.0788 -2.4988 0.9675
-7.7436 1.3951 -2.4988 0.9675
-7.8370 0.7003 -2.4988 0.9675
-3.6184 0.0000 -1.2157 0.9848
-3.2019 -0.2861 -1.0801 0.9865
-3.1483 -0.5672 -1.0748 0.9866
-3.1349 -0.8587 -1.0921 0.9864
-6.9696 -2.5955 -2.4988 0.9691
-6.3989 -3.7901 -2.4987 0.9691
-6.0361 -4.3446 -2.4987 0.9691
-5.6254 -4.8645 -2.4987 0.9691
-5.1701 -5.3458 -2.4987 0.9691
-1.7239 -7.2338 -2.4985 0.9691
0.2485 -7.4319 -2.4984 0.9691
0.9090 -7.3802 -2.4984 0.9691
2.2031 -7.1020 -2.4983 0.9691
2.8264 -6.8776 -2.4983 0.9691
4.5429 -5.8864 -2.4982 0.9691
5.0487 -5.4586 -2.4982 0.9691
5.5145 -4.9876 -2.4982 0.9691
5.9365 -4.4769 -2.4982 0.9691
6.3114 -3.9308 -2.4981 0.9691
6.9083 -2.7494 -2.4981 0.9691
7.1255 -2.1236 -2.4981 0.9691
7.4334 -0.1656 -2.4981 0.9691
7.4187 0.4966 -2.4981 0.9691
7.3450 1.1550 -2.4981 0.9691
7.2131 1.8041 -2.4981 0.9691
4.9610 4.9061 -2.3442 0.9710
4.5079 5.3320 -2.3459 0.9710
4.0155 5.7121 -2.3459 0.9710
3.4912 6.0469 -2.3459 0.9710
0.5440 6.9615 -2.3461 0.9710
-0.6990 6.9479 -2.3461 0.9710
-3.0799 6.2674 -2.3462 0.9710
-3.6255 5.9685 -2.3463 0.9710
-4.1424 5.6221 -2.3463 0.9710
-5.0737 4.7986 -2.3463 0.9710
-6.2238 4.0714 -2.4988 0.9691
-6.8471 2.9035 -2.4988 0.9691
-7.0784 2.2825 -2.4988 0.9691
-7.2535 1.6434 -2.4988 0.9691
-7.3710 0.9913 -2.4988 0.9691
-4.1559 0.1853 -1.3977 0.9826
-3.2675 -0.1457 -1.0989 0.9863
-3.1639 -0.4255 -1.0726 0.9866
-3.1355 -0.7104 -1.0802 0.9865
-3.1418 -1.0131 -1.1091 0.9862
-6.8471 -2.9034 -2.4988 0.9691
-6.2237 -4.0713 -2.4987 0.9691
-5.8366 -4.6091 -2.4987 0.9691
-4.4114 -5.9871 -2.4986 0.9691
-3.8609 -6.3559 -2.4986 0.9691
-3.2798 -6.6743 -2.4986 0.9691
-2.6727 -6.9396 -2.4985 0.9691
-2.0445 -7.1499 -2.4985 0.9691
-0.7443 -7.3989 -2.4984 0.9691
-0.0828 -7.4357 -2.4984 0.9691
0.5793 -7.4135 -2.4984 0.9691
1.2368 -7.3324 -2.4984 0.9691
1.8845 -7.1931 -2.4983 0.9691
2.5172 -6.9967 -2.4983 0.9691
3.7178 -6.4394 -2.4982 0.9691
5.2869 -5.2283 -2.4982 0.9691
6.4802 -3.6457 -2.4981 0.9691
6.7789 -3.0544 -2.4981 0.9691
7.0239 -2.4389 -2.4981 0.9691
7.2131 -1.8041 -2.4981 0.9691
7.3450 -1.1549 -2.4981 0.9691
7.4186 -0.4966 -2.4981 0.9691
7.4334 0.1657 -2.4981 0.9691
7.3892 0.8266 -2.4981 0.9691
7.2863 1.4810 -2.4981 0.9691
6.2315 3.1489 -2.3458 0.9710
5.9265 3.6911 -2.3458 0.9710
5.5745 4.2040 -2.3458 0.9710
5.1782 4.6834 -2.3458 0.9710
4.2659 5.5275 -2.3459 0.9710
3.7570 5.8853 -2.3459 0.9710
3.2184 6.1965 -2.3459 0.9710
2.6541 6.4584 -2.3460 0.9710
1.4670 6.8268 -2.3460 0.9710
0.8536 6.9304 -2.3461 0.9710
-0.3888 6.9720 -2.3461 0.9710
-1.6188 6.7928 -2.3462 0.9710
-3.3560 6.1240 -2.3463 0.9710
-4.3887 5.4320 -2.3463 0.9710
-5.2823 4.5679 -2.3463 0.9710
-6.7110 3.2056 -2.4988 0.9691
-7.1731 1.9649 -2.4988 0.9691
-3.0930 -0.2764 -1.1011 0.9869
-3.0442 -0.5484 -1.0968 0.9870
-6.0631 -3.5912 -2.4987 0.9705
-5.7194 -4.1166 -2.4987 0.9705
-4.8988 -5.0653 -2.4987 0.9705
-4.4285 -5.4812 -2.4986 0.9705
-3.9230 -5.8535 -2.4986 0.9705
-3.3864 -6.1794 -2.4986 0.9705
-2.2371 -6.6817 -2.4985 0.9705
-1.0169 -6.9723 -2.4985 0.9705
0.8613 -6.9931 -2.4984 0.9705
1.4803 -6.8885 -2.4983 0.9705
2.0875 -6.7294 -2.4983 0.9705
4.3046 -5.5776 -2.4982 0.9705
4.7839 -5.1722 -2.4982 0.9705
5.2252 -4.7259 -2.4982 0.9705
5.6251 -4.2420 -2.4982 0.9705
6.5458 -2.6052 -2.4981 0.9705
7.0295 0.4706 -2.4981 0.9705
6.9597 1.0944 -2.4981 0.9705
6.8347 1.7095 -2.4981 0.9705
9.9853 3.4672 -3.7480 0.9561
6.0316 2.7177 -2.3458 0.9723
5.7658 3.2438 -2.3458 0.9723
5.4542 3.7441 -2.3458 0.9723
5.0994 4.2148 -2.3458 0.9723
4.2714 5.0523 -2.3459 0.9723
3.3080 5.7296 -2.3459 0.9723
1.6768 6.4002 -2.3460 0.9723
0.5154 6.5963 -2.3461 0.9723
-0.6623 6.5833 -2.3461 0.9723
-1.2456 6.4983 -2.3462 0.9723
-2.3781 6.1746 -2.3462 0.9723
-2.9183 5.9385 -2.3462 0.9723
-3.4353 5.6553 -2.3463 0.9723
-3.9250 5.3271 -2.3463 0.9723
-4.3836 4.9567 -2.3463 0.9723
-4.8074 4.5469 -2.3463 0.9723
-5.8972 3.8578 -2.4988 0.9705
-6.2172 3.3176 -2.4988 0.9705
-6.8729 1.5572 -2.4988 0.9705
-3.0191 -0.9735 -1.1248 0.9866
-6.4878 -2.7510 -2.4987 0.9705
-5.8971 -3.8577 -2.4987 0.9705
-5.1196 -4.8421 -2.4987 0.9705
-3.1077 -6.3241 -2.4986 0.9705
-1.9372 -6.7747 -2.4985 0.9705
-1.3265 -6.9202 -2.4985 0.9705
-0.7053 -7.0107 -2.4984 0.9705
-0.0785 -7.0455 -2.4984 0.9705
0.5489 -7.0245 -2.4984 0.9705
1.1719 -6.9477 -2.4984 0.9705
2.9657 -6.3910 -2.4983 0.9705
3.5228 -6.1016 -2.4983 0.9705
5.4305 -4.4885 -2.4982 0.9705
5.8084 -3.9872 -2.4982 0.9705
6.1402 -3.4544 -2.4981 0.9705
6.8347 -1.7094 -2.4981 0.9705
10.1298 3.0190 -3.7480 0.9561
9.8209 3.9086 -3.7480 0.9561
5.2821 3.9834 -2.3458 0.9723
2.5148 6.1195 -2.3460 0.9723
1.9602 6.3191 -2.3460 0.9723
0.8088 6.5667 -2.3461 0.9723
-0.3684 6.6062 -2.3461 0.9723
-1.5339 6.4364 -2.3462 0.9723
-2.1007 6.2744 -2.3462 0.9723
-3.6838 5.4966 -2.3463 0.9723
-4.6001 4.7565 -2.3463 0.9723
-6.3588 3.0374 -2.4988 0.9705
-6.9354 1.2495 -2.4988 0.9705
-7.0191 0.6272 -2.4988 0.9705
-2.9938 -0.2675 -1.1224 0.9872
-2.9455 -0.5307 -1.1176 0.9873
-2.9238 -1.0888 -1.1650 0.9868
-5.7574 -3.4101 -2.4987 0.9718
-5.4310 -3.9090 -2.4987 0.9718
-3.7252 -5.5584 -2.4986 0.9718
-3.2157 -5.8679 -2.4986 0.9718
-2.6806 -6.1307 -2.4985 0.9718
0.2236 -6.6870 -2.4984 0.9718
0.8179 -6.6405 -2.4984 0.9718
1.4056 -6.5413 -2.4984 0.9718
1.9822 -6.3902 -2.4983 0.9718
4.0876 -5.2964 -2.4982 0.9718
4.9618 -4.4877 -2.4982 0.9718
5.6788 -3.5368 -2.4982 0.9718
5.9710 -3.0173 -2.4982 0.9718
6.2159 -2.4738 -2.4982 0.9718
6.4114 -1.9108 -2.4981 0.9718
6.5560 -1.3326 -2.4981 0.9718
6.6884 -0.1490 -2.4981 0.9718
6.4902 1.6233 -2.4982 0.9718
9.4819 3.2925 -3.7480 0.9580
5.4752 3.0803 -2.3458 0.9735
4.8423 4.0023 -2.3459 0.9735
4.0561 4.7975 -2.3459 0.9735
3.6130 5.1396 -2.3459 0.9735
2.1268 5.9117 -2.3460 0.9735
-0.0700 6.2825 -2.3461 0.9735
-1.7274 6.0410 -2.3462 0.9735
-3.2621 5.3702 -2.3462 0.9735
-5.5999 3.6633 -2.4987 0.9718
-6.5263 1.4787 -2.4988 0.9718
-3.0832 -0.1375 -1.1525 0.9869
-2.9640 -0.3986 -1.1167 0.9873
-2.9258 -0.6629 -1.1202 0.9873
-2.9106 -0.9385 -1.1419 0.9870
-6.1607 -2.6124 -2.4987 0.9718
-5.9037 -3.1503 -2.4987 0.9718
-5.5998 -3.6632 -2.4987 0.9718
-4.8615 -4.5980 -2.4987 0.9718
-3.9692 -5.3870 -2.4986 0.9718
-2.9511 -6.0053 -2.4986 0.9718
-0.6697 -6.6573 -2.4984 0.9718
0.5212 -6.6704 -2.4984 0.9718
1.6956 -6.4721 -2.4983 0.9718
2.8162 -6.0688 -2.4983 0.9718
4.3194 -5.1090 -2.4982 0.9718
4.7570 -4.7043 -2.4982 0.9718
5.1568 -4.2622 -2.4982 0.9718
5.5156 -3.7863 -2.4982 0.9718
5.8307 -3.2803 -2.4982 0.9718
6.3199 -2.1945 -2.4981 0.9718
6.6089 -1.0392 -2.4981 0.9718
6.6751 -0.4469 -2.4981 0.9718
6.6884 0.1491 -2.4981 0.9718
9.3259 3.7116 -3.7480 0.9580
4.6593 4.2140 -2.3459 0.9735
4.2657 4.6120 -2.3459 0.9735
2.8958 5.5754 -2.3460 0.9735
2.3881 5.8110 -2.3460 0.9735
0.7680 6.2357 -2.3461 0.9735
0.2099 6.2794 -2.3461 0.9735
-0.3498 6.2732 -2.3461 0.9735
-1.4565 6.1119 -2.3462 0.9735
-3.0196 5.5101 -2.3462 0.9735
-3.9488 4.8875 -2.3463 0.9735
-4.3740 4.5230 -2.3496 0.9735
-6.2710 2.3354 -2.4988 0.9718
-6.4540 1.7679 -2.4988 0.9718
-2.8518 -0.5138 -1.1373 0.9876
-2.8528 -1.0624 -1.1947 0.9870
-5.7449 -2.7441 -2.4987 0.9730
-5.1673 -3.7192 -2.4987 0.9730
-4.8157 -4.1643 -2.4987 0.9730
-4.0010 -4.9521 -2.4986 0.9730
-3.5443 -5.2885 -2.4986 0.9730
-3.0595 -5.5828 -2.4986 0.9730
-0.9187 -6.2993 -2.4985 0.9730
-0.3544 -6.3560 -2.4984 0.9730
0.7781 -6.3180 -2.4984 0.9730
1.3374 -6.2236 -2.4984 0.9730
2.9340 -5.6490 -2.4983 0.9730
3.4252 -5.3654 -2.4983 0.9730
4.3221 -4.6730 -2.4982 0.9730
5.6811 -2.8708 -2.4982 0.9730
6.1001 -1.8180 -2.4982 0.9730
6.2377 -1.2679 -2.4982 0.9730
6.3636 -0.1418 -2.4982 0.9730
6.2880 0.9887 -2.4982 0.9730
9.0215 3.1327 -3.7481 0.9598
8.7070 3.9232 -3.7481 0.9598
5.2093 2.9307 -2.3458 0.9746
4.9278 3.3828 -2.3458 0.9746
4.2500 4.2029 -2.3459 0.9746
3.8591 4.5646 -2.3459 0.9746
2.5161 5.4221 -2.3460 0.9746
2.0236 5.6246 -2.3460 0.9746
1.5149 5.7824 -2.3460 0.9746
-0.5984 5.9478 -2.3461 0.9746
-1.6435 5.7476 -2.3462 0.9746
-2.6366 5.3653 -2.3462 0.9746
-3.9604 4.4782 -2.3463 0.9746
-4.9965 3.9457 -2.4987 0.9730
-5.3279 3.4854 -2.4987 0.9730
-6.2094 1.4068 -2.4988 0.9730
-6.3099 0.8486 -2.4988 0.9730
-3.0071 -0.1341 -1.1814 0.9871
-2.8734 -0.3864 -1.1379 0.9876
-2.8403 -0.9159 -1.1712 0.9873
-2.8717 -1.2177 -1.2242 0.9867
-5.3278 -3.4853 -2.4987 0.9730
-3.7764 -5.1254 -2.4986 0.9730
-2.8077 -5.7136 -2.4986 0.9730
-2.2880 -5.9408 -2.4985 0.9730
-0.6372 -6.3340 -2.4984 0.9730
-0.0709 -6.3655 -2.4984 0.9730
2.6795 -5.7741 -2.4983 0.9730
4.5260 -4.4758 -2.4982 0.9730
5.2478 -3.6024 -2.4982 0.9730
5.5476 -3.1210 -2.4982 0.9730
6.0130 -2.0879 -2.4982 0.9730
6.2880 -0.9887 -2.4982 0.9730
6.3510 -0.4251 -2.4982 0.9730
6.2377 1.2679 -2.4982 0.9730
4.7722 3.5989 -2.3459 0.9746
4.4330 4.0094 -2.3459 0.9746
3.6519 4.7320 -2.3459 0.9746
2.7551 5.3046 -2.3460 0.9746
2.2721 5.5288 -2.3460 0.9746
1.2558 5.8442 -2.3460 0.9746
0.1998 5.9744 -2.3461 0.9746
-0.8627 5.9153 -2.3461 0.9746
-5.7450 2.7442 -2.4987 0.9730
-5.9664 2.2219 -2.4988 0.9730
-6.1405 1.6821 -2.4988 0.9730
-6.2659 1.1288 -2.4988 0.9730
-2.8130 -0.2514 -1.1629 0.9879
-2.7831 -0.5014 -1.1645 0.9878
-2.7695 -0.7587 -1.1825 0.9877
-5.4755 -2.6154 -2.4987 0.9741
-4.9249 -3.5447 -2.4987 0.9741
-3.8133 -4.7198 -2.4986 0.9741
-2.9160 -5.3211 -2.4986 0.9741
-1.9263 -5.7537 -2.4985 0.9741
-0.8756 -6.0039 -2.4985 0.9741
-0.3378 -6.0579 -2.4984 0.9741
0.7417 -6.0218 -2.4984 0.9741
1.2747 -5.9318 -2.4984 0.9741
1.7976 -5.7947 -2.4983 0.9741
2.3062 -5.6117 -2.4983 0.9741
3.7067 -4.8029 -2.4983 0.9741
4.1195 -4.4539 -2.4982 0.9741
4.4995 -4.0696 -2.4982 0.9741
5.6367 -2.2434 -2.4982 0.9741
5.8140 -1.7327 -2.4982 0.9741
5.9452 -1.2084 -2.4982 0.9741
6.0291 -0.6745 -2.4982 0.9741
6.0532 0.4052 -2.4982 0.9741
5.8855 1.4721 -2.4982 0.9741
8.2986 3.7392 -3.7481 0.9614
4.6967 3.2241 -2.3459 0.9757
4.3912 3.6294 -2.3459 0.9757
3.6781 4.3505 -2.3459 0.9757
3.2763 4.6607 -2.3459 0.9757
2.8485 4.9338 -2.3460 0.9757
1.9287 5.3608 -2.3460 0.9757
1.4439 5.5113 -2.3460 0.9757
0.9476 5.6180 -2.3461 0.9757
0.4438 5.6801 -2.3461 0.9757
-1.5664 5.4780 -2.3462 0.9757
-2.0478 5.3170 -2.3462 0.9757
-2.5129 5.1137 -2.3462 0.9757
-2.9581 4.8697 -2.3462 0.9757
-3.7748 4.2682 -2.3463 0.9757
-4.7622 3.7607 -2.4987 0.9741
-5.0780 3.3219 -2.4987 0.9741
-5.3536 2.8568 -2.4987 0.9741
-6.0140 0.8088 -2.4987 0.9741
-3.5093 0.1565 -1.4465 0.9849
-2.9337 -0.1308 -1.2092 0.9874
-2.7946 -0.3759 -1.1611 0.9879
-2.8016 -1.1880 -1.2531 0.9869
-4.0198 -4.5453 -2.4986 0.9741
-1.6681 -5.8337 -2.4985 0.9741
-0.6073 -6.0369 -2.4984 0.9741
-0.0676 -6.0670 -2.4984 0.9741
2.0539 -5.7089 -2.4983 0.9741
3.0335 -5.2542 -2.4983 0.9741
3.9170 -4.6330 -2.4982 0.9741
4.6763 -3.8650 -2.4982 0.9741
5.5312 -2.4922 -2.4982 0.9741
5.7311 -1.9900 -2.4982 0.9741
5.9931 -0.9423 -2.4982 0.9741
6.0532 -0.4052 -2.4982 0.9741
6.0652 0.1351 -2.4982 0.9741
6.0292 0.6745 -2.4982 0.9741
5.9452 1.2084 -2.4982 0.9741
5.8141 1.7328 -2.4982 0.9741
4.8357 3.0117 -2.3459 0.9757
4.5485 3.4302 -2.3459 0.9757
4.2251 3.8214 -2.3459 0.9757
3.8683 4.1823 -2.3459 0.9757
3.0655 4.8020 -2.3459 0.9757
2.6259 5.0559 -2.3460 0.9757
2.1656 5.2696 -2.3460 0.9757
1.6880 5.4415 -2.3460 0.9757
1.1970 5.5701 -2.3460 0.9757
0.1904 5.6943 -2.3461 0.9757
-0.3172 5.6887 -2.3461 0.9757
-0.8223 5.6379 -2.3461 0.9757
-1.3208 5.5424 -2.3462 0.9757
-1.8089 5.4029 -2.3462 0.9757
-2.2826 5.2205 -2.3462 0.9757
-2.7382 4.9967 -2.3462 0.9757
-3.5808 4.4321 -2.3463 0.9757
-5.2210 3.0924 -2.4987 0.9741
-5.4755 2.6155 -2.4987 0.9741
-5.6866 2.1177 -2.4987 0.9741
-5.8525 1.6032 -2.4987 0.9741
-3.9772 0.3554 -1.6443 0.9829
-3.0794 0.0000 -1.3283 0.9867
-2.7539 -0.2461 -1.1927 0.9880
-2.7278 -0.4914 -1.1956 0.9880
-2.7092 -0.7421 -1.2117 0.9878
-2.7209 -1.0133 -1.2524 0.9874
-2.7299 -1.3040 -1.3050 0.9869
-4.7014 -3.3838 -2.4987 0.9751
-3.6403 -4.5056 -2.4986 0.9751
-2.3205 -5.3071 -2.4985 0.9751
-1.8389 -5.4925 -2.4985 0.9751
-1.3427 -5.6343 -2.4985 0.9751
-0.8359 -5.7315 -2.4985 0.9751
0.7080 -5.7485 -2.4984 0.9751
1.7160 -5.5318 -2.4983 0.9751
2.2015 -5.3571 -2.4983 0.9751
2.6696 -5.1398 -2.4983 0.9751
3.1164 -4.8817 -2.4983 0.9751
3.5385 -4.5850 -2.4983 0.9751
4.6240 -3.4871 -2.4982 0.9751
5.1690 -2.6120 -2.4982 0.9751
5.3810 -2.1415 -2.4982 0.9751
5.5502 -1.6541 -2.4982 0.9751
5.7555 -0.6438 -2.4982 0.9751
5.7212 0.8996 -2.4982 0.9751
5.4711 1.8998 -2.4982 0.9751
4.4836 3.0778 -2.3459 0.9766
4.1919 3.4647 -2.3459 0.9766
3.1277 4.4492 -2.3459 0.9766
2.7193 4.7099 -2.3460 0.9766
2.2893 4.9333 -2.3460 0.9766
1.3784 5.2612 -2.3460 0.9766
-0.0606 5.4386 -2.3461 0.9766
-0.5444 5.4116 -2.3461 0.9766
-2.3989 4.8816 -2.3462 0.9766
-2.8238 4.6487 -2.3462 0.9766
-3.2264 4.3790 -2.3462 0.9766
-3.7404 4.2293 -2.4354 0.9757
-4.5461 3.5900 -2.4987 0.9751
-5.6495 1.2801 -2.4987 0.9751
-2.8614 -0.1276 -1.2355 0.9876
-2.7402 -0.3685 -1.1926 0.9880
-2.7200 -0.6163 -1.2030 0.9879
-4.8475 -3.1711 -2.4987 0.9751
-3.0072 -4.9505 -2.4986 0.9751
-2.0818 -5.4052 -2.4985 0.9751
-1.5924 -5.5690 -2.4985 0.9751
-0.0645 -5.7916 -2.4984 0.9751
0.4512 -5.7743 -2.4984 0.9751
1.9607 -5.4498 -2.4983 0.9751
2.4379 -5.2536 -2.4983 0.9751
3.3308 -4.7381 -2.4983 0.9751
4.1180 -4.0724 -2.4982 0.9751
4.4641 -3.6896 -2.4982 0.9751
5.2802 -2.3792 -2.4982 0.9751
5.4710 -1.8997 -2.4982 0.9751
5.6184 -1.4052 -2.4982 0.9751
5.7900 0.1291 -2.4982 0.9751
5.6754 1.1536 -2.4982 0.9751
4.3420 3.2745 -2.3459 0.9766
4.0334 3.6480 -2.3459 0.9766
3.6927 3.9925 -2.3459 0.9766
2.9264 4.5841 -2.3460 0.9766
1.6114 5.1945 -2.3460 0.9766
1.1426 5.3173 -2.3460 0.9766
0.1817 5.4358 -2.3461 0.9766
-0.3028 5.4304 -2.3461 0.9766
-1.2609 5.2908 -2.3462 0.9766
-2.6139 4.7699 -2.3462 0.9766
-3.0281 4.5183 -2.3462 0.9766
-3.4183 4.2309 -2.3462 0.9766
-4.3816 3.7889 -2.4987 0.9751
-4.7015 3.3839 -2.4987 0.9751
-4.9840 2.9521 -2.4987 0.9751
-5.4285 2.0216 -2.4987 0.9751
-5.7009 1.0271 -2.4987 0.9751
-2.9980 0.0000 -1.3528 0.9869
-2.7005 -0.2413 -1.2234 0.9882
-2.6546 -0.7272 -1.2419 0.9880
-4.1887 -3.6221 -2.4986 0.9760
-3.8496 -3.9805 -2.4986 0.9760
-3.4800 -4.3073 -2.4986 0.9760
-3.0828 -4.5999 -2.4986 0.9760
-2.2184 -5.0735 -2.4985 0.9760
-1.7580 -5.2508 -2.4985 0.9760
-0.3083 -5.5285 -2.4984 0.9760
1.1633 -5.4134 -2.4984 0.9760
1.6405 -5.2883 -2.4983 0.9760
2.5521 -4.9136 -2.4983 0.9760
2.9793 -4.6669 -2.4983 0.9760
4.1063 -3.7139 -2.4982 0.9760
4.4205 -3.3337 -2.4982 0.9760
4.6997 -2.9270 -2.4982 0.9760
4.9415 -2.4971 -2.4982 0.9760
5.5023 -0.6155 -2.4982 0.9760
5.5352 -0.1233 -2.4982 0.9760
5.5242 0.3698 -2.4982 0.9760
5.4694 0.8600 -2.4982 0.9760
7.5734 3.4124 -3.7481 0.9642
7.2397 4.0730 -3.7481 0.9642
3.6967 3.6558 -2.3459 0.9774
2.9900 4.2534 -2.3459 0.9774
1.3177 5.0296 -2.3460 0.9774
-0.5204 5.1734 -2.3461 0.9774
-1.4295 4.9993 -2.3462 0.9774
-1.8688 4.8522 -2.3462 0.9774
-4.0232 3.8052 -2.4987 0.9760
-4.8856 2.6071 -2.4987 0.9760
-5.0983 2.1619 -2.4987 0.9760
-5.2705 1.6995 -2.4987 0.9760
-5.4009 1.2237 -2.4987 0.9760
-5.4883 0.7381 -2.4987 0.9760
-3.2608 0.1454 -1.4728 0.9858
-2.6659 -0.6040 -1.2334 0.9881
-4.8856 -2.6070 -2.4987 0.9760
-4.6341 -3.0315 -2.4987 0.9760
-4.3459 -3.4319 -2.4986 0.9760
-4.0231 -3.8050 -2.4986 0.9760
-3.2847 -4.4580 -2.4986 0.9760
-2.8748 -4.7327 -2.4986 0.9760
-2.4422 -4.9697 -2.4985 0.9760
-1.9901 -5.1672 -2.4985 0.9760
-1.5223 -5.3238 -2.4985 0.9760
-1.0424 -5.4382 -2.4985 0.9760
-0.0617 -5.5367 -2.4984 0.9760
0.9210 -5.4599 -2.4984 0.9760
1.8744 -5.2100 -2.4983 0.9760
2.3307 -5.0224 -2.4983 0.9760
3.1842 -4.5296 -2.4983 0.9760
4.5646 -3.1334 -2.4982 0.9760
4.8254 -2.7147 -2.4982 0.9760
5.2302 -1.8161 -2.4982 0.9760
5.3711 -1.3434 -2.4982 0.9760
5.4694 -0.8600 -2.4982 0.9760
5.5352 0.1234 -2.4982 0.9760
5.1442 2.0474 -2.4982 0.9760
7.4139 3.7464 -3.7481 0.9642
3.8559 3.4875 -2.3459 0.9774
1.9763 4.8090 -2.3460 0.9774
0.6356 5.1604 -2.3461 0.9774
0.1737 5.1966 -2.3461 0.9774
-0.2895 5.1914 -2.3461 0.9774
-0.7504 5.1451 -2.3461 0.9774
-1.2054 5.0579 -2.3461 0.9774
-1.6508 4.9307 -2.3462 0.9774
-3.3659 4.1661 -2.4167 0.9768
-3.8497 3.9806 -2.4987 0.9760
-4.9969 2.3868 -2.4987 0.9760
-5.4500 0.9819 -2.4987 0.9760
-2.6212 -0.4722 -1.2555 0.9883
-4.3022 -3.0965 -2.4986 0.9768
-4.0095 -3.4672 -2.4986 0.9768
-3.3312 -4.1231 -2.4986 0.9768
-2.9510 -4.4032 -2.4986 0.9768
-2.1235 -4.8565 -2.4985 0.9768
-1.6828 -5.0262 -2.4985 0.9768
-0.7649 -5.2449 -2.4985 0.9768
0.6479 -5.2605 -2.4984 0.9768
1.5703 -5.0622 -2.4984 0.9768
3.2381 -4.1957 -2.4983 0.9768
3.9307 -3.5551 -2.4983 0.9768
4.2315 -3.1911 -2.4982 0.9768
4.7302 -2.3903 -2.4982 0.9768
5.0791 -1.5137 -2.4982 0.9768
5.1936 -1.0556 -2.4982 0.9768
5.2670 -0.5892 -2.4982 0.9768
5.2985 -0.1180 -2.4982 0.9768
4.8320 2.1772 -2.4982 0.9768
3.5386 3.4995 -2.3459 0.9782
2.8621 4.0714 -2.3460 0.9782
2.0949 4.5145 -2.3460 0.9782
1.6848 4.6831 -2.3460 0.9782
0.3877 4.9619 -2.3461 0.9782
-0.0554 4.9768 -2.3461 0.9782
-0.4982 4.9522 -2.3461 0.9782
-0.9370 4.8882 -2.3461 0.9782
-1.7889 4.6447 -2.3462 0.9782
-2.1952 4.4671 -2.3462 0.9782
-3.5116 3.9707 -2.4987 0.9768
-4.1601 3.2852 -2.4987 0.9768
-4.8802 2.0694 -2.4987 0.9768
-5.1699 1.1713 -2.4987 0.9768
-5.2536 0.7065 -2.4987 0.9768
-2.7082 -0.1207 -1.2778 0.9881
-2.6352 -0.3544 -1.2533 0.9883
-2.5994 -0.8382 -1.2874 0.9880
-2.5902 -1.3822 -1.3839 0.9871
-3.8511 -3.6423 -2.4986 0.9768
-3.5116 -3.9706 -2.4986 0.9768
-3.1442 -4.2673 -2.4986 0.9768
-2.3377 -4.7571 -2.4985 0.9768
-0.0590 -5.2999 -2.4984 0.9768
0.4129 -5.2841 -2.4984 0.9768
1.3432 -5.1271 -2.4984 0.9768
2.2310 -4.8076 -2.4983 0.9768
3.0480 -4.3358 -2.4983 0.9768
4.0851 -3.3765 -2.4982 0.9768
4.8320 -2.1772 -2.4982 0.9768
5.2985 0.1181 -2.4982 0.9768
5.2670 0.5892 -2.4982 0.9768
5.0791 1.5137 -2.4982 0.9768
4.9242 1.9598 -2.4982 0.9768
6.7495 4.2036 -3.7482 0.9654
3.6910 3.3383 -2.3459 0.9782
3.3792 3.6536 -2.3459 0.9782
3.0407 3.9399 -2.3459 0.9782
1.8918 4.6034 -2.3460 0.9782
1.4746 4.7535 -2.3460 0.9782
0.6084 4.9397 -2.3461 0.9782
0.1663 4.9743 -2.3461 0.9782
-0.7183 4.9251 -2.3461 0.9782
-1.5802 4.7198 -2.3462 0.9782
-1.9940 4.5604 -2.3462 0.9782
-2.3920 4.3649 -2.3462 0.9782
-4.4275 6.6062 -3.7487 0.9654
-3.6851 3.8103 -2.4987 0.9768
-4.5609 2.7014 -2.4987 0.9768
-4.7832 2.2847 -2.4987 0.9768
-4.9676 1.8500 -2.4987 0.9768
-5.1125 1.4005 -2.4987 0.9768
-5.2169 0.9399 -2.4987 0.9768
-2.8279 0.0000 -1.3909 0.9875
-2.5903 -0.2315 -1.2791 0.9885
-2.5698 -0.4630 -1.2843 0.9884
-2.5499 -0.6985 -1.3004 0.9883
-2.5453 -0.9479 -1.3359 0.9880
-2.5457 -1.2160 -1.3876 0.9875
-4.1231 -2.9676 -2.4986 0.9776
-3.8426 -3.3228 -2.4986 0.9776
-3.5316 -3.6516 -2.4986 0.9776
-2.8281 -4.2198 -2.4986 0.9776
-2.4413 -4.4547 -2.4985 0.9776
-2.0351 -4.6543 -2.4985 0.9776
-1.6127 -4.8170 -2.4985 0.9776
-0.7331 -5.0265 -2.4985 0.9776
0.6209 -5.0414 -2.4984 0.9776
1.0672 -4.9661 -2.4984 0.9776
1.5049 -4.8514 -2.4984 0.9776
2.3412 -4.5076 -2.4983 0.9776
3.4489 -3.7289 -2.4983 0.9776
4.0553 -3.0583 -2.4982 0.9776
4.5333 -2.2908 -2.4982 0.9776
4.9774 -1.0117 -2.4982 0.9776
5.0477 -0.5647 -2.4982 0.9776
5.0679 0.3393 -2.4982 0.9776
4.9274 1.2325 -2.4982 0.9776
6.2827 4.3128 -3.7482 0.9666
3.3913 3.3537 -2.3459 0.9790
3.0794 3.6423 -2.3459 0.9790
2.7430 3.9019 -2.3460 0.9790
2.0077 4.3265 -2.3460 0.9790
1.6147 4.4881 -2.3460 0.9790
0.3716 4.7554 -2.3461 0.9790
-0.0531 4.7696 -2.3461 0.9790
-1.3114 4.5862 -2.3462 0.9790
-2.1038 4.2811 -2.3462 0.9790
-4.5210 6.1359 -3.7487 0.9666
-5.0491 5.7092 -3.7487 0.9666
-3.6908 3.4908 -2.4987 0.9776
-3.9869 3.1484 -2.4987 0.9776
-4.2513 2.7811 -2.4987 0.9776
-5.0348 0.6771 -2.4987 0.9776
-2.6467 -0.1180 -1.3031 0.9883
-2.5845 -0.3476 -1.2826 0.9884
-2.5616 -0.5804 -1.2919 0.9884
-2.5441 -1.0788 -1.3592 0.9878
-3.6907 -3.4907 -2.4986 0.9776
-2.6373 -4.3416 -2.4986 0.9776
-2.2404 -4.5591 -2.4985 0.9776
-1.3965 -4.8840 -2.4985 0.9776
-0.9563 -4.9888 -2.4985 0.9776
0.3957 -5.0641 -2.4984 0.9776
1.2873 -4.9136 -2.4984 0.9776
2.1381 -4.6075 -2.4983 0.9776
3.2794 -3.8788 -2.4983 0.9776
3.9151 -3.2359 -2.4983 0.9776
4.1875 -2.8746 -2.4982 0.9776
4.4267 -2.4904 -2.4982 0.9776
4.6308 -2.0865 -2.4982 0.9776
4.7982 -1.6661 -2.4982 0.9776
4.9274 -1.2324 -2.4982 0.9776
5.0678 -0.3393 -2.4982 0.9776
5.0779 0.1132 -2.4982 0.9776
4.8676 1.4507 -2.4982 0.9776
3.2386 3.5015 -2.3459 0.9790
2.5665 4.0203 -2.3460 0.9790
1.4132 4.5556 -2.3460 0.9790
0.5831 4.7341 -2.3461 0.9790
-1.1058 4.6401 -2.3461 0.9790
-1.5144 4.5233 -2.3462 0.9790
-1.9110 4.3705 -2.3462 0.9790
-4.7898 5.9285 -3.7487 0.9666
-3.5316 3.6517 -2.4986 0.9776
-3.8426 3.3229 -2.4987 0.9776
-4.1232 2.9677 -2.4987 0.9776
-4.7607 1.7729 -2.4987 0.9776
-3.6333 0.3247 -1.7942 0.9839
-2.4895 -0.9271 -1.3619 0.9881
-3.6865 -3.1879 -2.4986 0.9783
-2.3422 -4.2739 -2.4985 0.9783
-0.7033 -4.8224 -2.4985 0.9783
-0.2713 -4.8658 -2.4984 0.9783
0.5957 -4.8368 -2.4984 0.9783
1.4438 -4.6544 -2.4984 0.9783
1.8524 -4.5074 -2.4983 0.9783
2.2462 -4.3246 -2.4983 0.9783
2.6222 -4.1075 -2.4983 0.9783
2.9773 -3.8578 -2.4983 0.9783
3.6141 -3.2687 -2.4983 0.9783
4.1364 -2.5761 -2.4982 0.9783
4.3492 -2.1978 -2.4982 0.9783
4.5276 -1.8019 -2.4982 0.9783
4.6700 -1.3918 -2.4982 0.9783
4.8428 -0.5417 -2.4982 0.9783
4.8718 -0.1086 -2.4982 0.9783
4.8621 0.3255 -2.4982 0.9783
6.3719 3.5848 -3.7482 0.9677
5.6354 4.6578 -3.7482 0.9677
2.9544 3.4944 -2.3459 0.9796
2.2880 3.9629 -2.3460 0.9796
1.9262 4.1509 -2.3460 0.9796
-0.0510 4.5760 -2.3461 0.9796
-0.4581 4.5533 -2.3461 0.9796
-0.8615 4.4945 -2.3461 0.9796
-1.6448 4.2706 -2.3462 0.9796
-2.0184 4.1073 -2.3462 0.9796
-3.7962 6.2494 -3.7487 0.9677
-4.3374 5.8867 -3.7487 0.9677
-3.5409 3.3490 -2.4986 0.9783
-4.2999 2.2946 -2.4987 0.9783
-4.4871 1.9027 -2.4987 0.9783
-2.9775 0.1328 -1.5280 0.9867
-2.5877 -0.1154 -1.3280 0.9884
-2.5350 -0.3409 -1.3113 0.9886
-2.5113 -0.5690 -1.3201 0.9885
-2.4881 -0.8023 -1.3403 0.9883
-2.4879 -1.0550 -1.3854 0.9879
-2.4717 -1.3189 -1.4363 0.9875
-4.0786 -2.6681 -2.4986 0.9783
-3.2287 -3.6508 -2.4986 0.9783
-2.5302 -4.1653 -2.4986 0.9783
-2.1494 -4.3739 -2.4985 0.9783
-1.7516 -4.5479 -2.4985 0.9783
-1.3398 -4.6857 -2.4985 0.9783
-0.9175 -4.7863 -2.4985 0.9783
-0.0543 -4.8730 -2.4984 0.9783
1.2351 -4.7142 -2.4984 0.9783
2.0513 -4.4204 -2.4983 0.9783
3.4649 -3.4265 -2.4983 0.9783
3.7561 -3.1045 -2.4983 0.9783
4.0175 -2.7578 -2.4983 0.9783
4.2470 -2.3893 -2.4982 0.9783
4.7274 -1.1824 -2.4982 0.9783
4.8138 -0.7569 -2.4982 0.9783
4.8621 -0.3254 -2.4982 0.9783
4.8718 0.1086 -2.4982 0.9783
4.8428 0.5418 -2.4982 0.9783
4.7754 0.9706 -2.4982 0.9783
4.5276 1.8020 -2.4983 0.9783
4.3493 2.1978 -2.4983 0.9783
5.8373 4.4021 -3.7482 0.9677
2.1092 4.0610 -2.3460 0.9796
0.9614 4.4740 -2.3460 0.9796
-0.2548 4.5692 -2.3461 0.9796
-1.4529 4.3396 -2.3462 0.9796
-3.5141 6.4123 -3.7487 0.9677
-4.0708 6.0741 -3.7487 0.9677
-4.5954 5.6877 -3.7487 0.9677
-3.3882 3.5034 -2.4986 0.9783
-4.3979 2.1007 -2.4987 0.9783
-4.5674 1.7010 -2.4987 0.9783
-3.5463 0.3169 -1.8253 0.9841
-2.4853 -0.2221 -1.3321 0.9887
-2.4501 -0.6712 -1.3561 0.9885
-2.4292 -1.1603 -1.4371 0.9879
-2.3944 -1.4182 -1.4856 0.9875
-3.7988 -2.7342 -2.4986 0.9790
-3.5403 -3.0614 -2.4986 0.9790
-2.9414 -3.6406 -2.4986 0.9790
-2.6057 -3.8879 -2.4986 0.9790
-0.6754 -4.6312 -2.4985 0.9790
-0.2606 -4.6729 -2.4984 0.9790
0.1564 -4.6775 -2.4984 0.9790
0.5721 -4.6449 -2.4984 0.9790
1.3866 -4.4698 -2.4984 0.9790
2.8592 -3.7048 -2.4983 0.9790
3.1776 -3.4356 -2.4983 0.9790
3.4708 -3.1391 -2.4983 0.9790
3.7364 -2.8177 -2.4983 0.9790
4.1768 -2.1106 -2.4983 0.9790
4.3480 -1.7305 -2.4982 0.9790
4.6507 -0.5203 -2.4982 0.9790
4.6229 0.7270 -2.4982 0.9790
4.0786 2.2946 -2.4983 0.9790
5.4119 4.4731 -3.7482 0.9687
4.9924 4.9371 -3.7483 0.9687
2.8372 3.3558 -2.3459 0.9803
2.5273 3.5951 -2.3460 0.9803
1.4877 4.1351 -2.3460 0.9803
1.1138 4.2512 -2.3460 0.9803
0.7310 4.3334 -2.3461 0.9803
0.3424 4.3813 -2.3461 0.9803
-0.4399 4.3727 -2.3461 0.9803
-0.8273 4.3162 -2.3461 0.9803
-1.2082 4.2255 -2.3461 0.9803
-3.0970 6.3022 -3.7486 0.9687
-4.1654 5.6533 -3.7487 0.9687
-3.6733 2.9007 -2.4987 0.9790
-4.1294 2.2035 -2.4987 0.9790
-4.4547 1.4365 -2.4987 0.9790
-4.5649 1.0342 -2.4987 0.9790
-4.6388 0.6239 -2.4987 0.9790
-2.5303 -0.1128 -1.3521 0.9886
-2.4151 -1.2887 -1.4613 0.9877
-3.6732 -2.9007 -2.4986 0.9790
-3.4004 -3.2161 -2.4986 0.9790
-2.7763 -3.7680 -2.4986 0.9790
-1.6821 -4.3675 -2.4985 0.9790
-0.8811 -4.5964 -2.4985 0.9790
-0.4685 -4.6566 -2.4985 0.9790
0.3646 -4.6658 -2.4984 0.9790
1.1861 -4.5272 -2.4984 0.9790
1.9699 -4.2451 -2.4983 0.9790
3.8582 -2.6485 -2.4983 0.9790
4.0786 -2.2946 -2.4983 0.9790
4.5399 -1.1355 -2.4982 0.9790
4.6229 -0.7269 -2.4982 0.9790
4.6786 0.1043 -2.4982 0.9790
4.5860 0.9321 -2.4983 0.9790
4.4848 1.3366 -2.4983 0.9790
4.3481 1.7305 -2.4983 0.9790
5.9598 3.7118 -3.7482 0.9687
5.6058 4.2276 -3.7482 0.9687
5.2073 4.7097 -3.7482 0.9687
1.3020 4.1973 -2.3460 0.9803
0.9233 4.2966 -2.3460 0.9803
0.5372 4.3617 -2.3461 0.9803
0.1468 4.3922 -2.3461 0.9803
-0.6342 4.3488 -2.3461 0.9803
-1.3953 4.1675 -2.3462 0.9803
-2.8132 6.4338 -3.7486 0.9687
-3.3747 6.1579 -3.7487 0.9687
-3.2538 3.3644 -2.4986 0.9790
-4.0271 2.3853 -2.4987 0.9790
-4.2235 2.0174 -2.4987 0.9790
-4.5142 1.2366 -2.4987 0.9790
-2.4347 -0.2176 -1.3576 0.9889
-2.4243 -0.4368 -1.3681 0.9888
-2.4018 -0.6579 -1.3831 0.9887
-2.3823 -0.8872 -1.4119 0.9884
-2.3733 -1.1337 -1.4608 0.9880
-2.3176 -1.3727 -1.4960 0.9878
-3.6514 -2.6281 -2.4986 0.9796
-3.4029 -2.9426 -2.4986 0.9796
-3.1275 -3.2338 -2.4986 0.9796
-2.8272 -3.4993 -2.4986 0.9796
-2.5045 -3.7371 -2.4986 0.9796
-2.1620 -3.9451 -2.4985 0.9796
-1.8022 -4.1218 -2.4985 0.9796
-1.4282 -4.2658 -2.4985 0.9796
-1.0429 -4.3760 -2.4985 0.9796
0.1503 -4.4959 -2.4984 0.9796
0.5499 -4.4646 -2.4984 0.9796
2.0734 -3.9920 -2.4983 0.9796
3.0543 -3.3022 -2.4983 0.9796
3.5914 -2.7084 -2.4983 0.9796
4.0147 -2.0287 -2.4983 0.9796
4.1793 -1.6633 -2.4983 0.9796
4.4703 -0.5001 -2.4982 0.9796
4.4436 0.6987 -2.4983 0.9796
4.2493 1.4755 -2.4983 0.9796
4.1011 1.8479 -2.4983 0.9796
3.9204 2.2056 -2.4983 0.9796
5.5640 3.8194 -3.7482 0.9696
5.2019 4.2995 -3.7482 0.9696
4.7986 4.7455 -3.7483 0.9696
2.4292 3.4556 -2.3460 0.9809
2.1120 3.6581 -2.3460 0.9809
1.0705 4.0862 -2.3460 0.9809
0.7026 4.1653 -2.3461 0.9809
-0.4228 4.2030 -2.3461 0.9809
-2.9768 6.0576 -3.7486 0.9696
-2.9804 3.3700 -2.4986 0.9796
-3.2685 3.0914 -2.4986 0.9796
-3.5307 2.7882 -2.4986 0.9796
-3.9691 2.1180 -2.4987 0.9796
-4.1419 1.7563 -2.4987 0.9796
-4.2818 1.3807 -2.4987 0.9796
-2.4745 -0.1103 -1.3757 0.9887
-2.4351 -0.3275 -1.3646 0.9888
-2.3870 -0.7697 -1.3929 0.9886
-2.3600 -1.2593 -1.4857 0.9878
-3.5306 -2.7881 -2.4986 0.9796
-2.9803 -3.3699 -2.4986 0.9796
-2.3356 -3.8449 -2.4985 0.9796
-1.2368 -4.3252 -2.4985 0.9796
-0.4503 -4.4759 -2.4985 0.9796
-0.0501 -4.4982 -2.4984 0.9796
0.3504 -4.4848 -2.4984 0.9796
0.7482 -4.4357 -2.4984 0.9796
1.1400 -4.3515 -2.4984 0.9796
1.5228 -4.2327 -2.4984 0.9796
1.8935 -4.0804 -2.4983 0.9796
3.4672 -2.8657 -2.4983 0.9796
3.7085 -2.5457 -2.4983 0.9796
4.1011 -1.8478 -2.4983 0.9796
4.3637 -1.0914 -2.4982 0.9796
4.4703 0.5001 -2.4983 0.9796
4.4080 0.8960 -2.4983 0.9796
4.1793 1.6634 -2.4983 0.9796
4.0147 2.0287 -2.4983 0.9796
3.8182 2.3780 -2.4983 0.9796
4.5825 4.9546 -3.7483 0.9696
1.9470 3.7486 -2.3460 0.9809
1.6056 3.9070 -2.3460 0.9809
1.2515 4.0344 -2.3460 0.9809
0.8874 4.1298 -2.3460 0.9809
0.1411 4.2218 -2.3461 0.9809
-0.2352 4.2176 -2.3461 0.9809
-0.9793 4.1092 -2.3461 0.9809
-1.3411 4.0058 -2.3461 0.9809
-3.2437 5.9190 -3.7487 0.9696
-3.7576 5.6068 -3.7487 0.9696
-2.8273 3.4994 -2.4986 0.9796
-3.8708 2.2927 -2.4987 0.9796
-4.0595 1.9391 -2.4987 0.9796
-4.2160 1.5701 -2.4987 0.9796
-4.4276 0.7977 -2.4987 0.9796
-2.3545 -0.6450 -1.4095 0.9888
-2.1929 -1.5783 -1.5599 0.9876
-3.0086 -3.1108 -2.4986 0.9802
-2.4093 -3.5949 -2.4986 0.9802
-2.0798 -3.7951 -2.4985 0.9802
-1.3739 -4.1036 -2.4985 0.9802
-1.0032 -4.2096 -2.4985 0.9802
-0.6245 -4.2822 -2.4985 0.9802
0.1446 -4.3250 -2.4984 0.9802
0.9091 -4.2308 -2.4984 0.9802
1.2821 -4.1330 -2.4984 0.9802
1.6448 -4.0024 -2.4984 0.9802
2.3284 -3.6474 -2.4983 0.9802
2.6438 -3.4256 -2.4983 0.9802
4.0204 -1.6001 -2.4983 0.9802
4.2404 -0.8619 -2.4983 0.9802
4.3003 -0.4810 -2.4983 0.9802
4.3175 0.2890 -2.4983 0.9802
4.0877 1.4194 -2.4983 0.9802
3.9452 1.7776 -2.4983 0.9802
3.5675 2.4490 -2.4983 0.9802
5.0041 4.1360 -3.7483 0.9705
4.1915 4.9578 -3.7483 0.9705
2.0317 3.5190 -2.3460 0.9814
1.3756 3.8235 -2.3460 0.9814
0.6759 4.0069 -2.3461 0.9814
0.3166 4.0512 -2.3461 0.9814
-0.4067 4.0431 -2.3461 0.9814
-0.7650 3.9910 -2.3461 0.9814
-1.7850 6.2425 -3.7486 0.9705
-2.8670 3.2418 -2.4986 0.9802
-3.1442 2.9738 -2.4986 0.9802
-3.6217 2.3692 -2.4986 0.9802
-3.9844 1.6895 -2.4987 0.9802
-4.1190 1.3282 -2.4987 0.9802
-4.2892 0.5768 -2.4987 0.9802
-2.4294 0.1083 -1.4040 0.9888
-2.3854 -0.3208 -1.3896 0.9889
-2.3269 -0.9867 -1.4592 0.9884
-2.1940 -1.4353 -1.5137 0.9880
-2.8670 -3.2417 -2.4986 0.9802
-1.9086 -3.8839 -2.4985 0.9802
-1.5553 -4.0384 -2.4985 0.9802
-1.1897 -4.1607 -2.4985 0.9802
-0.4332 -4.3057 -2.4985 0.9802
0.3371 -4.3142 -2.4984 0.9802
0.7198 -4.2671 -2.4984 0.9802
1.8215 -3.9252 -2.4983 0.9802
2.4886 -3.5400 -2.4983 0.9802
2.7938 -3.3045 -2.4983 0.9802
3.0768 -3.0427 -2.4983 0.9802
3.3354 -2.7567 -2.4983 0.9802
3.5675 -2.4489 -2.4983 0.9802
3.7713 -2.1216 -2.4983 0.9802
4.0877 -1.4194 -2.4983 0.9802
4.1978 -1.0499 -2.4983 0.9802
4.2746 -0.6721 -2.4983 0.9802
4.3003 0.4811 -2.4983 0.9802
4.2404 0.8619 -2.4983 0.9802
4.1469 1.2359 -2.4983 0.9802
4.0204 1.6001 -2.4983 0.9802
4.8149 4.3548 -3.7483 0.9705
4.4082 4.7662 -3.7483 0.9705
