ply
format ascii 1.0
element vertex 1590
property float32 x
property float32 y
property float32 z
property float32 I
end_header
-6.3982 11.6752 -2.3475 0.9474
-8.3684 10.3578 -2.3480 0.9474
-9.2579 9.5726 -2.3481 0.9473
-11.4601 6.7879 -2.3486 0.9473
-13.2941 4.9508 -2.5014 0.9440
-13.9617 2.5154 -2.5014 0.9440
-12.9243 0.0000 -2.5011 0.9487
-12.8727 -1.1503 -2.5010 0.9487
-12.7188 -2.2914 -2.5009 0.9487
-12.4638 -3.4141 -2.5008 0.9487
-12.1098 -4.5097 -2.5007 0.9487
-11.6596 -5.5693 -2.5005 0.9487
-9.7716 -8.4498 -2.4999 0.9487
-7.1899 -10.7280 -2.4992 0.9487
-4.0987 -12.2422 -2.4984 0.9488
-0.7185 -12.8856 -2.4975 0.9488
1.5772 -12.8059 -2.4969 0.9488
3.8219 -12.3206 -2.4963 0.9488
4.9028 -11.9303 -2.4961 0.9488
5.9447 -11.4455 -2.4958 0.9488
7.8784 -10.2083 -2.4954 0.9488
8.7551 -9.4659 -2.4952 0.9488
11.5056 -5.8140 -2.4947 0.9488
11.9771 -4.7667 -2.4946 0.9488
12.8105 -1.4330 -2.4945 0.9488
12.8873 -0.2871 -2.4945 0.9488
11.9577 1.8803 -2.3425 0.9519
11.7434 2.9373 -2.3426 0.9519
11.0378 4.9735 -2.3428 0.9519
8.1079 4.5614 -1.8003 0.9628
8.6109 8.5155 -2.3436 0.9519
7.8196 9.2491 -2.3438 0.9519
6.9661 9.9094 -2.3441 0.9518
3.0712 11.7227 -2.3451 0.9518
-0.1350 12.1219 -2.3459 0.9518
-4.3589 11.3176 -2.3470 0.9518
-7.1961 9.7666 -2.3476 0.9518
-8.0374 9.0881 -2.3478 0.9518
-9.5227 7.5200 -2.3481 0.9518
-10.1548 6.6429 -2.3483 0.9518
-10.7062 5.7130 -2.3484 0.9518
-11.8985 5.0454 -2.5010 0.9487
-12.3006 3.9665 -2.5011 0.9487
-12.6050 2.8559 -2.5011 0.9487
-12.9113 -0.5757 -2.5011 0.9487
-11.8965 -5.0445 -2.5006 0.9487
-11.3996 -6.0830 -2.5005 0.9487
-6.7045 -11.0371 -2.4991 0.9487
-4.6403 -12.0482 -2.4985 0.9488
1.0052 -12.8642 -2.4970 0.9488
2.1460 -12.7222 -2.4968 0.9488
3.2694 -12.4793 -2.4965 0.9488
6.4483 -11.1688 -2.4957 0.9488
7.4162 -10.5496 -2.4955 0.9488
9.1677 -9.0662 -2.4951 0.9488
10.6287 -7.2961 -2.4948 0.9488
11.2354 -6.3209 -2.4947 0.9488
12.8616 -0.8610 -2.4945 0.9488
11.8623 2.4111 -2.3425 0.9519
11.2480 4.4766 -2.3428 0.9519
10.8057 5.4604 -2.3429 0.9519
10.2775 6.4010 -2.3431 0.9519
9.6678 7.2909 -2.3433 0.9519
8.9813 8.1231 -2.3435 0.9519
6.5181 10.2104 -2.3442 0.9518
5.5841 10.7512 -2.3444 0.9518
4.6055 11.2068 -2.3447 0.9518
3.5902 11.5736 -2.3450 0.9518
2.5461 11.8486 -2.3453 0.9518
1.4816 12.0296 -2.3455 0.9518
0.4051 12.1152 -2.3458 0.9518
-0.6749 12.1046 -2.3461 0.9518
-1.7498 11.9978 -2.3463 0.9518
-4.8590 11.1128 -2.3471 0.9518
-5.8293 10.6372 -2.3473 0.9518
-6.7536 10.0771 -2.3475 0.9518
-8.4346 8.7214 -2.3479 0.9518
-9.1780 7.9365 -2.3481 0.9518
-9.8485 7.0885 -2.3482 0.9518
-12.4652 3.4146 -2.5011 0.9487
-12.7197 2.2916 -2.5011 0.9487
-11.8150 -1.0558 -2.5008 0.9527
-11.4398 -3.1336 -2.5006 0.9527
-11.1149 -4.1393 -2.5005 0.9527
-9.6245 -6.9273 -2.5000 0.9527
-5.6963 -10.3944 -2.4988 0.9527
-4.7480 -10.8590 -2.4986 0.9527
-3.7623 -11.2374 -2.4983 0.9527
-2.7469 -11.5264 -2.4980 0.9527
-0.6595 -11.8282 -2.4975 0.9527
0.3958 -11.8387 -2.4972 0.9527
1.4478 -11.7553 -2.4970 0.9527
5.4571 -10.5068 -2.4960 0.9528
8.7782 -7.9394 -2.4953 0.9528
9.4495 -7.1262 -2.4951 0.9528
10.0458 -6.2565 -2.4950 0.9528
10.5624 -5.3374 -2.4949 0.9528
10.9953 -4.3760 -2.4949 0.9528
11.3409 -3.3799 -2.4948 0.9528
11.5966 -2.3571 -2.4948 0.9528
11.7604 -1.3156 -2.4948 0.9528
11.8309 -0.2636 -2.4948 0.9528
11.8077 0.7905 -2.4949 0.9528
10.7807 2.6964 -2.3428 0.9556
10.4984 3.6455 -2.3429 0.9556
9.1640 6.2908 -2.3434 0.9556
6.3947 9.0965 -2.3442 0.9556
0.8668 11.0925 -2.3456 0.9555
-0.1240 11.1268 -2.3459 0.9555
-2.0953 10.9308 -2.3464 0.9555
-3.0602 10.7021 -2.3466 0.9555
-4.9101 9.9918 -2.3471 0.9555
-5.7804 9.5159 -2.3473 0.9555
-6.6050 8.9644 -2.3475 0.9555
-8.0908 7.6523 -2.3478 0.9555
-8.7403 6.9022 -2.3479 0.9555
-9.3204 6.0972 -2.3480 0.9555
-10.0774 5.3775 -2.4081 0.9544
-10.9208 4.6309 -2.5008 0.9527
-11.2899 3.6405 -2.5008 0.9527
-11.5693 2.6213 -2.5008 0.9527
-11.7561 -1.5810 -2.5007 0.9527
-11.2886 -3.6401 -2.5005 0.9527
-10.4631 -5.5833 -2.5002 0.9527
-9.9239 -6.4919 -2.5001 0.9527
-9.3060 -7.3489 -2.4999 0.9527
-8.6143 -8.1473 -2.4997 0.9527
-4.2594 -11.0592 -2.4984 0.9527
-3.2578 -11.3932 -2.4982 0.9527
-1.1858 -11.7877 -2.4976 0.9527
0.9228 -11.8087 -2.4971 0.9527
3.0013 -11.4556 -2.4966 0.9527
4.0086 -11.1420 -2.4963 0.9527
6.8080 -9.6845 -2.4957 0.9528
7.6424 -9.0395 -2.4955 0.9528
9.1229 -7.5403 -2.4952 0.9528
10.7895 -4.8615 -2.4949 0.9528
11.1792 -3.8818 -2.4948 0.9528
11.6901 -1.8381 -2.4948 0.9528
11.8310 0.2637 -2.4948 0.9528
10.3259 4.1096 -2.3430 0.9556
9.9197 5.0127 -2.3431 0.9556
9.4348 5.8761 -2.3433 0.9556
8.2448 7.4570 -2.3436 0.9556
6.7932 8.8023 -2.3441 0.9556
5.1259 9.8692 -2.3445 0.9556
4.2276 10.2874 -2.3448 0.9556
3.2956 10.6239 -2.3450 0.9555
2.3372 10.8763 -2.3453 0.9555
0.3718 11.1208 -2.3458 0.9555
-0.6195 11.1109 -2.3460 0.9555
-3.5340 10.5557 -2.3467 0.9555
-6.1988 9.2494 -2.3474 0.9555
-6.9980 8.6616 -2.3475 0.9555
-8.4240 7.2845 -2.3478 0.9555
-9.0394 6.5062 -2.3480 0.9555
-11.1164 4.1398 -2.5008 0.9527
-11.6746 2.1033 -2.5009 0.9527
-11.8154 1.0558 -2.5008 0.9527
-10.7817 -1.9424 -2.5005 0.9560
-10.5656 -2.8942 -2.5004 0.9560
-10.2656 -3.8229 -2.5003 0.9561
-8.8892 -6.3981 -2.4998 0.9561
-7.6128 -7.8716 -2.4994 0.9561
-6.0955 -9.0950 -2.4990 0.9561
-5.2613 -9.6006 -2.4988 0.9561
-2.5372 -10.6464 -2.4980 0.9561
-1.5793 -10.8288 -2.4978 0.9561
0.3656 -10.9351 -2.4973 0.9561
1.3373 -10.8581 -2.4970 0.9561
2.2982 -10.6950 -2.4968 0.9561
4.1573 -10.1163 -2.4964 0.9561
5.0408 -9.7053 -2.4961 0.9561
6.6808 -8.6565 -2.4958 0.9561
8.1087 -7.3339 -2.4955 0.9561
9.2797 -5.7794 -2.4952 0.9561
9.7570 -4.9304 -2.4951 0.9561
10.1568 -4.0423 -2.4951 0.9561
10.4761 -3.1222 -2.4950 0.9561
10.8636 -1.2153 -2.4950 0.9561
10.9073 0.7302 -2.4951 0.9561
9.3601 4.2175 -2.3432 0.9588
8.4650 5.8110 -2.3435 0.9587
7.3017 7.2208 -2.3439 0.9587
5.9068 8.4025 -2.3443 0.9587
5.1359 8.8957 -2.3445 0.9587
2.6040 9.9394 -2.3452 0.9587
1.7092 10.1328 -2.3454 0.9587
0.8006 10.2457 -2.3456 0.9587
-1.9352 10.0961 -2.3463 0.9587
-2.8264 9.8847 -2.3465 0.9587
-3.6953 9.5947 -2.3467 0.9587
-6.1004 8.2795 -2.3473 0.9587
-6.8135 7.7042 -2.3475 0.9587
-9.6653 5.1576 -2.5005 0.9560
-10.4271 3.3623 -2.5006 0.9560
-10.6851 2.4210 -2.5006 0.9560
-10.8577 -1.4602 -2.5005 0.9560
-10.0848 -4.2763 -2.5002 0.9561
-8.5951 -6.7875 -2.4997 0.9561
-7.9562 -7.5249 -2.4995 0.9561
-6.4949 -8.8149 -2.4991 0.9561
-2.0603 -10.7483 -2.4979 0.9561
-0.1219 -10.9411 -2.4974 0.9561
0.8523 -10.9075 -2.4972 0.9561
3.7027 -10.2919 -2.4965 0.9561
5.4680 -9.4707 -2.4960 0.9561
6.2887 -8.9458 -2.4959 0.9561
7.7742 -7.6880 -2.4955 0.9561
8.4272 -6.9652 -2.4954 0.9561
9.0133 -6.1872 -2.4953 0.9561
9.5278 -5.3602 -2.4952 0.9561
10.7987 -1.6980 -2.4950 0.9561
10.9289 0.2436 -2.4951 0.9561
9.1631 4.6304 -2.3433 0.9588
7.6158 6.8881 -2.3438 0.9587
3.9050 9.5023 -2.3448 0.9587
3.0440 9.8131 -2.3450 0.9587
-0.5722 10.2625 -2.3460 0.9587
-1.4835 10.1718 -2.3462 0.9587
-3.2641 9.7494 -2.3466 0.9587
-4.9418 9.0177 -2.3470 0.9587
-5.7253 8.5428 -2.3472 0.9587
-7.1502 7.3932 -2.3475 0.9587
-8.3486 6.0090 -2.3478 0.9587
-9.8856 4.7220 -2.5005 0.9560
-10.7824 1.9426 -2.5006 0.9560
-10.1319 -0.9054 -2.5003 0.9590
-10.0108 -1.8035 -2.5003 0.9590
-9.8102 -2.6873 -2.5002 0.9590
-7.0687 -7.3090 -2.4993 0.9590
-5.6599 -8.4452 -2.4989 0.9590
-4.8854 -8.9147 -2.4987 0.9590
-4.0722 -9.3133 -2.4985 0.9590
-2.3559 -9.8859 -2.4980 0.9590
-1.4665 -10.0554 -2.4978 0.9590
0.3395 -10.1543 -2.4973 0.9590
1.2418 -10.0828 -2.4971 0.9590
3.0094 -9.7012 -2.4967 0.9590
4.6810 -9.0125 -2.4963 0.9590
5.4642 -8.5595 -2.4961 0.9590
6.2039 -8.0386 -2.4959 0.9590
6.8944 -7.4541 -2.4958 0.9590
9.7286 -2.8994 -2.4952 0.9590
10.1490 -0.2261 -2.4952 0.9590
10.1290 0.6781 -2.4953 0.9590
9.2480 2.3131 -2.3432 0.9615
9.0058 3.1272 -2.3433 0.9615
8.0389 4.5226 -2.2672 0.9627
7.8609 5.3962 -2.3436 0.9615
7.3499 6.0749 -2.3438 0.9615
6.7805 6.7054 -2.3440 0.9615
5.4851 7.8026 -2.3443 0.9615
4.7692 8.2606 -2.3445 0.9615
1.5871 9.4090 -2.3454 0.9615
-0.9554 9.4967 -2.3460 0.9614
-1.7970 9.3747 -2.3463 0.9614
-2.6245 9.1784 -2.3465 0.9614
-4.2109 8.5690 -2.3468 0.9614
-4.9573 8.1608 -2.3470 0.9614
-5.6643 7.6877 -2.3472 0.9614
-7.4954 5.9191 -2.3476 0.9614
-7.9928 5.2287 -2.3477 0.9614
-8.9743 4.7888 -2.5003 0.9590
-10.0818 1.3559 -2.5004 0.9590
-10.1624 0.4532 -2.5004 0.9590
-10.1623 -0.4531 -2.5004 0.9590
-9.9204 -2.2476 -2.5002 0.9590
-8.5106 -5.5673 -2.4997 0.9590
-7.3876 -6.9871 -2.4994 0.9590
-6.0308 -8.1850 -2.4990 0.9590
-5.2779 -8.6885 -2.4988 0.9590
-3.6531 -9.4850 -2.4984 0.9590
-2.7941 -9.7716 -2.4981 0.9590
-0.1132 -10.1598 -2.4974 0.9590
2.5743 -9.8261 -2.4968 0.9590
3.4384 -9.5571 -2.4966 0.9590
8.3701 -5.7457 -2.4955 0.9590
8.8480 -4.9778 -2.4954 0.9590
9.2556 -4.1704 -2.4953 0.9590
9.5899 -3.3300 -2.4953 0.9590
8.8577 3.5253 -2.3433 0.9615
8.0932 5.0405 -2.3436 0.9615
7.6129 5.7412 -2.3437 0.9615
7.0722 6.3965 -2.3439 0.9615
5.8270 7.5502 -2.3442 0.9615
5.1323 8.0396 -2.3444 0.9615
4.3967 8.4652 -2.3446 0.9615
3.6261 8.8237 -2.3449 0.9615
2.0046 9.3285 -2.3453 0.9615
0.3189 9.5379 -2.3457 0.9615
-0.5313 9.5293 -2.3459 0.9614
-1.3775 9.4451 -2.3461 0.9614
-2.2129 9.2858 -2.3464 0.9614
-4.5886 8.3732 -2.3469 0.9614
-6.6390 6.8648 -2.3474 0.9614
-7.2241 6.2470 -2.3475 0.9614
-7.7518 5.5794 -2.3476 0.9614
-8.6204 5.1059 -2.4627 0.9596
-9.1788 4.3844 -2.5003 0.9590
-9.5328 3.5501 -2.5004 0.9590
-9.8111 2.6876 -2.5004 0.9590
-10.1322 0.9054 -2.5004 0.9590
-9.4885 0.0000 -2.5002 0.9615
-9.4506 -0.8445 -2.5002 0.9615
-9.3377 -1.6822 -2.5001 0.9615
-8.5605 -4.0890 -2.4998 0.9615
-7.6990 -5.5414 -2.4995 0.9615
-7.1748 -6.2043 -2.4994 0.9615
-6.5936 -6.8178 -2.4992 0.9615
-5.2796 -7.8776 -2.4988 0.9615
-3.7985 -8.6875 -2.4984 0.9615
-3.0100 -8.9903 -2.4982 0.9615
-1.3680 -9.3799 -2.4978 0.9615
-0.5277 -9.4637 -2.4976 0.9616
0.3167 -9.4723 -2.4973 0.9616
1.9908 -9.2645 -2.4969 0.9616
2.8073 -9.0498 -2.4967 0.9616
3.6014 -8.7634 -2.4965 0.9616
6.4316 -6.9538 -2.4959 0.9616
7.0247 -6.3534 -2.4958 0.9616
8.0392 -5.0068 -2.4956 0.9616
8.7991 -3.5020 -2.4954 0.9616
9.2804 -1.8863 -2.4954 0.9616
9.4115 -1.0528 -2.4954 0.9616
9.4679 -0.2109 -2.4954 0.9616
9.4493 0.6326 -2.4955 0.9616
13.7858 3.4480 -3.7445 0.9429
8.1087 3.6536 -2.3435 0.9639
7.7517 4.3611 -2.3436 0.9639
6.3253 6.2552 -2.3441 0.9639
4.4490 7.7059 -2.3446 0.9639
1.4805 8.7770 -2.3454 0.9639
-1.6762 8.7448 -2.3462 0.9638
-3.2006 8.3103 -2.3466 0.9638
-3.9279 7.9931 -2.3467 0.9638
-4.6240 7.6122 -2.3469 0.9638
-5.2836 7.1709 -2.3470 0.9638
-6.4720 6.1212 -2.3473 0.9638
-6.9914 5.5211 -2.3474 0.9638
-8.3709 4.4669 -2.5001 0.9615
-9.4791 0.4227 -2.5002 0.9615
-9.2534 -2.0965 -2.5001 0.9615
-9.0297 -2.9117 -2.5000 0.9615
-7.9385 -5.1931 -2.4996 0.9615
-7.4443 -5.8787 -2.4995 0.9615
-6.8911 -6.5175 -2.4993 0.9615
-4.9232 -8.1047 -2.4987 0.9615
-2.6064 -9.1151 -2.4981 0.9615
-1.7846 -9.3101 -2.4979 0.9615
-0.9488 -9.4312 -2.4977 0.9615
-0.1056 -9.4774 -2.4975 0.9616
0.7383 -9.4484 -2.4972 0.9616
1.5762 -9.3444 -2.4970 0.9616
3.2075 -8.9154 -2.4966 0.9616
5.4479 -7.7496 -2.4961 0.9616
6.1156 -7.2336 -2.4960 0.9616
6.7348 -6.6602 -2.4958 0.9616
7.3006 -6.0340 -2.4957 0.9616
8.2541 -4.6437 -2.4955 0.9616
8.9463 -3.1064 -2.4954 0.9616
9.1872 -2.2978 -2.4954 0.9616
9.4491 -0.6325 -2.4954 0.9616
9.4680 0.2110 -2.4954 0.9616
13.9255 2.8305 -3.7444 0.9429
8.5228 2.5401 -2.3434 0.9639
8.2632 3.2887 -2.3435 0.9639
7.9381 4.0113 -2.3436 0.9639
7.5499 4.7022 -2.3437 0.9639
7.1019 5.3558 -2.3438 0.9639
3.3826 8.2311 -2.3449 0.9639
1.0881 8.8346 -2.3455 0.9638
-0.4956 8.8891 -2.3459 0.9638
-1.2850 8.8104 -2.3461 0.9638
-2.0642 8.6618 -2.3463 0.9638
-4.9587 7.3989 -2.3470 0.9638
-5.5979 6.9287 -2.3471 0.9638
-6.7384 5.8270 -2.3474 0.9638
-8.8918 3.3114 -2.5002 0.9615
-9.1514 2.5068 -2.5002 0.9615
-9.4509 0.8446 -2.5002 0.9615
-3.7904 -1.0383 -1.1057 0.9838
-8.0168 -3.8293 -2.4997 0.9638
-7.6438 -4.5274 -2.4996 0.9638
-7.2101 -5.1895 -2.4994 0.9638
-4.9444 -7.3775 -2.4988 0.9638
-4.2678 -7.7877 -2.4986 0.9638
-3.5574 -8.1360 -2.4984 0.9638
-2.8189 -8.4197 -2.4982 0.9638
-2.0582 -8.6365 -2.4980 0.9638
-0.4942 -8.8631 -2.4976 0.9638
0.2966 -8.8712 -2.4974 0.9638
2.6292 -8.4757 -2.4968 0.9638
3.3729 -8.2075 -2.4966 0.9638
5.4204 -7.0234 -2.4962 0.9638
6.0237 -6.5128 -2.4960 0.9638
6.5792 -5.9505 -2.4959 0.9638
7.0824 -5.3411 -2.4958 0.9638
7.5294 -4.6893 -2.4957 0.9638
8.8676 -0.1976 -2.4956 0.9638
12.9117 3.2295 -3.7447 0.9462
7.5945 3.4219 -2.3436 0.9660
5.3795 6.3629 -2.3443 0.9660
2.1125 8.0633 -2.3452 0.9660
0.6495 8.3114 -2.3456 0.9660
-0.8346 8.2962 -2.3460 0.9659
-1.5698 8.1896 -2.3461 0.9659
-2.2927 8.0180 -2.3463 0.9659
-3.6785 7.4855 -2.3467 0.9659
-6.0609 5.7324 -2.3472 0.9659
-6.5474 5.1704 -2.3473 0.9659
-7.4355 4.8641 -2.4999 0.9638
-7.8392 4.1831 -2.5000 0.9638
-8.1805 3.4689 -2.5000 0.9638
-8.4569 2.7271 -2.5001 0.9638
-8.6662 1.9635 -2.5001 0.9637
-8.8066 1.1844 -2.5001 0.9637
-8.8770 0.3959 -2.5001 0.9638
-4.2110 -0.1878 -1.1860 0.9826
-3.7396 -0.5029 -1.0616 0.9844
-3.7659 -0.8532 -1.0864 0.9841
-7.8381 -4.1825 -2.4996 0.9638
-7.4343 -4.8633 -2.4995 0.9638
-6.9716 -5.5054 -2.4994 0.9638
-6.4535 -6.1037 -2.4992 0.9638
-5.8842 -6.6534 -2.4990 0.9638
-5.2683 -7.1502 -2.4989 0.9638
-4.6106 -7.5902 -2.4987 0.9638
-3.1913 -8.2861 -2.4983 0.9638
-0.0989 -8.8760 -2.4975 0.9638
2.2491 -8.5847 -2.4969 0.9638
5.1023 -7.2581 -2.4962 0.9638
6.8376 -5.6514 -2.4959 0.9638
7.3132 -5.0202 -2.4958 0.9638
7.7307 -4.3492 -2.4957 0.9638
8.6047 -2.1521 -2.4956 0.9638
7.9823 2.3790 -2.3435 0.9660
7.7392 3.0801 -2.3436 0.9660
6.6515 5.0161 -2.3439 0.9660
6.1790 5.5886 -2.3441 0.9660
5.6574 6.1167 -2.3442 0.9660
3.1680 7.7089 -2.3449 0.9660
1.0190 8.2739 -2.3455 0.9660
0.2786 8.3324 -2.3457 0.9660
-1.2034 8.2511 -2.3461 0.9659
-1.9331 8.1119 -2.3462 0.9659
-4.0084 7.3145 -2.3467 0.9659
-4.6438 6.9291 -2.3469 0.9659
-5.2424 6.4887 -2.3470 0.9659
-6.3104 5.4569 -2.3472 0.9659
-6.7713 4.8737 -2.3473 0.9659
-7.6449 4.5281 -2.4999 0.9638
-8.5701 2.3476 -2.5001 0.9638
-3.9676 -0.0000 -1.1878 0.9836
-3.5918 -0.3210 -1.0796 0.9851
-3.4798 -0.6269 -1.0586 0.9853
-3.4925 -0.9567 -1.0841 0.9850
-6.7757 -4.8769 -2.4993 0.9657
-5.8030 -6.0003 -2.4990 0.9657
-5.2456 -6.4925 -2.4989 0.9657
-3.3432 -7.6461 -2.4983 0.9658
-2.6492 -7.9127 -2.4982 0.9658
-1.2041 -8.2558 -2.4978 0.9658
-0.4644 -8.3296 -2.4976 0.9658
0.2788 -8.3372 -2.4974 0.9658
1.7523 -8.1545 -2.4970 0.9658
2.4710 -7.9656 -2.4969 0.9658
3.1700 -7.7136 -2.4967 0.9658
6.1834 -5.5925 -2.4960 0.9658
6.6564 -5.0197 -2.4959 0.9658
7.7454 -3.0826 -2.4957 0.9658
8.1691 -1.6604 -2.4957 0.9658
8.3177 0.5568 -2.4957 0.9658
8.2353 1.2950 -2.4958 0.9658
12.1350 3.0351 -3.7449 0.9491
7.3952 2.5679 -2.3436 0.9678
6.8233 3.8387 -2.3438 0.9678
6.4549 4.4310 -2.3440 0.9678
6.0352 4.9883 -2.3441 0.9678
5.5676 5.5060 -2.3442 0.9678
2.6517 7.3705 -2.3450 0.9678
1.9853 7.5779 -2.3452 0.9678
1.3031 7.7251 -2.3454 0.9678
0.6104 7.8110 -2.3456 0.9678
-0.0873 7.8349 -2.3458 0.9678
-0.7843 7.7967 -2.3459 0.9678
-2.1546 7.5351 -2.3463 0.9678
-3.4569 7.0347 -2.3466 0.9678
-4.0696 6.6994 -2.3467 0.9678
-4.6499 6.3110 -2.3468 0.9678
-5.1935 5.8724 -2.3470 0.9678
-6.1529 4.8589 -2.3472 0.9678
-6.9875 4.5710 -2.4998 0.9657
-7.3668 3.9311 -2.4998 0.9657
-8.1440 1.8452 -2.5000 0.9657
-8.2759 1.1130 -2.5000 0.9657
-3.4642 -0.7849 -1.0634 0.9853
-7.6868 -3.2595 -2.4996 0.9657
-6.9865 -4.5703 -2.4994 0.9657
-6.5516 -5.1737 -2.4993 0.9657
-4.3330 -7.1330 -2.4986 0.9658
-2.9992 -7.7871 -2.4983 0.9658
-2.2940 -8.0226 -2.4981 0.9658
-1.5707 -8.1943 -2.4979 0.9658
-0.8351 -8.3010 -2.4977 0.9658
-0.0929 -8.3417 -2.4975 0.9658
2.8233 -7.8474 -2.4968 0.9658
3.5103 -7.5645 -2.4966 0.9658
4.1694 -7.2216 -2.4965 0.9658
5.3832 -6.3672 -2.4962 0.9658
5.9282 -5.8626 -2.4961 0.9658
6.4263 -5.3114 -2.4960 0.9658
7.8750 -2.7345 -2.4957 0.9658
8.2350 -1.2948 -2.4957 0.9658
8.3176 -0.5568 -2.4957 0.9658
8.3342 0.1858 -2.4957 0.9658
8.2847 0.9268 -2.4958 0.9658
12.2580 2.4916 -3.7448 0.9491
11.9879 3.5728 -3.7449 0.9491
7.2736 2.8948 -2.3437 0.9678
6.9874 3.5309 -2.3438 0.9678
6.6457 4.1390 -2.3439 0.9678
6.2513 4.7143 -2.3440 0.9678
4.7845 6.1995 -2.3445 0.9678
4.2140 6.6012 -2.3446 0.9678
2.3208 7.4816 -2.3451 0.9678
1.6458 7.6591 -2.3453 0.9678
-0.4362 7.8235 -2.3458 0.9678
-4.3641 6.5117 -2.3468 0.9678
-4.9266 6.0977 -2.3469 0.9678
-5.4500 5.6353 -2.3470 0.9678
-5.9302 5.1281 -2.3471 0.9678
-6.5973 4.7485 -2.4335 0.9666
-7.1843 4.2553 -2.4998 0.9657
-7.5347 3.5991 -2.4999 0.9657
-7.8253 2.9142 -2.4999 0.9657
-8.2181 1.4806 -2.5000 0.9657
-8.3173 0.7433 -2.4999 0.9657
-3.7562 0.0000 -1.1929 0.9844
-3.2843 -0.5917 -1.0598 0.9861
-3.2540 -0.8914 -1.0715 0.9859
-7.3757 -2.7467 -2.4996 0.9675
-7.1017 -3.3922 -2.4995 0.9675
-6.3871 -4.5972 -2.4992 0.9675
-5.9523 -5.1471 -2.4991 0.9675
-5.4702 -5.6562 -2.4990 0.9675
-4.9448 -6.1202 -2.4988 0.9675
-4.3801 -6.5356 -2.4987 0.9675
-3.7808 -6.8991 -2.4985 0.9675
-1.8234 -7.6512 -2.4980 0.9675
-1.1351 -7.7826 -2.4978 0.9675
1.6519 -7.6872 -2.4971 0.9675
2.3294 -7.5092 -2.4969 0.9675
6.2751 -4.7322 -2.4960 0.9676
6.6712 -4.1548 -2.4960 0.9676
7.0143 -3.5445 -2.4959 0.9676
7.3018 -2.9061 -2.4959 0.9676
7.5314 -2.2446 -2.4958 0.9676
7.8100 -0.8736 -2.4958 0.9676
7.8413 0.5250 -2.4959 0.9676
7.7636 1.2208 -2.4959 0.9676
11.4398 2.8613 -3.7450 0.9517
6.7287 3.0319 -2.3438 0.9695
6.4324 3.6189 -2.3439 0.9695
4.7661 5.6374 -2.3444 0.9695
3.6915 6.3940 -2.3447 0.9695
1.2284 7.2823 -2.3454 0.9695
0.5754 7.3632 -2.3456 0.9695
-0.0823 7.3858 -2.3457 0.9695
-0.7394 7.3496 -2.3459 0.9695
-2.0310 7.1031 -2.3462 0.9695
-2.6554 6.8945 -2.3464 0.9695
-4.3833 5.9490 -2.3468 0.9695
-4.8956 5.5356 -2.3469 0.9695
-5.3691 5.0781 -2.3470 0.9695
-5.8604 4.6280 -2.3715 0.9691
-6.5867 4.3088 -2.4997 0.9675
-6.9442 3.7056 -2.4997 0.9675
-7.2466 3.0729 -2.4998 0.9675
-7.8011 1.0492 -2.4998 0.9675
-4.3817 0.1954 -1.3930 0.9818
-3.2591 -0.7384 -1.0613 0.9861
-6.9434 -3.7050 -2.4994 0.9675
-6.5857 -4.3082 -2.4993 0.9675
-6.1758 -4.8770 -2.4992 0.9675
-5.7169 -5.4070 -2.4990 0.9675
-3.4696 -7.0604 -2.4984 0.9675
-0.0876 -7.8636 -2.4975 0.9675
1.3079 -7.7534 -2.4972 0.9675
2.6615 -7.3978 -2.4968 0.9675
3.3092 -7.1311 -2.4967 0.9675
5.0748 -6.0024 -2.4963 0.9675
5.5886 -5.5267 -2.4962 0.9676
6.0581 -5.0071 -2.4961 0.9676
6.4795 -4.4479 -2.4960 0.9676
7.8569 0.1751 -2.4958 0.9676
7.8102 0.8737 -2.4959 0.9676
6.8570 2.7290 -2.3438 0.9695
6.5871 3.3286 -2.3439 0.9695
6.2650 3.9019 -2.3440 0.9695
5.8931 4.4443 -2.3441 0.9695
5.4745 4.9514 -2.3442 0.9695
5.0123 5.4193 -2.3444 0.9695
4.5104 5.8443 -2.3445 0.9695
3.9726 6.2229 -2.3447 0.9695
3.4032 6.5523 -2.3448 0.9695
2.1878 7.0528 -2.3451 0.9695
1.5515 7.2201 -2.3453 0.9695
0.9028 7.3300 -2.3455 0.9695
0.2468 7.3818 -2.3457 0.9695
-1.7126 7.1862 -2.3461 0.9695
-2.3455 7.0057 -2.3463 0.9695
-2.9599 6.7696 -2.3464 0.9695
-3.5509 6.4796 -2.3466 0.9695
-4.1138 6.1382 -2.3467 0.9695
-4.6440 5.7480 -2.3468 0.9695
-7.5917 2.0796 -2.4998 0.9675
-3.2019 -0.2861 -1.0801 0.9865
-3.1483 -0.5672 -1.0748 0.9866
-6.9716 -2.5962 -2.4995 0.9691
-6.7126 -3.2063 -2.4994 0.9691
-6.4003 -3.7909 -2.4993 0.9691
-6.0372 -4.3453 -2.4992 0.9691
-5.6262 -4.8651 -2.4990 0.9691
-5.1706 -5.3463 -2.4989 0.9691
-4.6739 -5.7850 -2.4988 0.9691
-4.1402 -6.1777 -2.4986 0.9691
-2.9789 -6.8130 -2.4983 0.9691
2.2019 -7.0981 -2.4970 0.9691
2.8248 -6.8736 -2.4968 0.9691
3.4251 -6.5945 -2.4967 0.9691
3.9983 -6.2632 -2.4965 0.9691
6.3061 -3.9274 -2.4961 0.9691
6.6305 -3.3505 -2.4960 0.9691
7.1193 -2.1217 -2.4959 0.9691
7.2799 -1.4796 -2.4959 0.9691
7.4269 -0.1655 -2.4959 0.9691
7.4123 0.4962 -2.4960 0.9691
7.3388 1.1540 -2.4960 0.9691
7.2072 1.8026 -2.4961 0.9691
10.5305 3.6567 -3.7453 0.9541
5.3781 4.4451 -2.3442 0.9710
4.5052 5.3288 -2.3445 0.9710
4.0133 5.7090 -2.3446 0.9710
2.3629 6.5677 -2.3451 0.9710
1.7690 6.7524 -2.3452 0.9710
1.1611 6.8835 -2.3454 0.9710
-0.0778 6.9812 -2.3457 0.9710
-0.6989 6.9471 -2.3459 0.9710
-1.3145 6.8578 -2.3460 0.9710
-1.9198 6.7140 -2.3462 0.9710
-2.5099 6.5169 -2.3463 0.9710
-3.0802 6.2680 -2.3465 0.9710
-4.1431 5.6231 -2.3467 0.9710
-4.6274 5.2323 -2.3468 0.9710
-5.8230 4.5984 -2.4929 0.9692
-6.5637 3.5025 -2.4996 0.9691
-7.0809 2.2833 -2.4997 0.9691
-7.2561 1.6440 -2.4997 0.9691
-7.3737 0.9917 -2.4997 0.9691
-3.1355 -0.7104 -1.0802 0.9865
-5.4037 -5.1108 -2.4990 0.9691
-4.9271 -5.5712 -2.4988 0.9691
-3.8608 -6.3557 -2.4985 0.9691
-3.2796 -6.6737 -2.4984 0.9691
-2.6724 -6.9387 -2.4982 0.9691
-1.3996 -7.3016 -2.4979 0.9691
-0.7441 -7.3967 -2.4977 0.9691
1.2363 -7.3290 -2.4972 0.9691
1.8836 -7.1894 -2.4970 0.9691
2.5158 -6.9928 -2.4969 0.9691
3.1281 -6.7407 -2.4967 0.9691
3.7154 -6.4352 -2.4966 0.9691
4.2732 -6.0787 -2.4965 0.9691
4.7971 -5.6740 -2.4964 0.9691
6.1250 -4.2045 -2.4961 0.9691
6.4747 -3.6426 -2.4960 0.9691
6.7731 -3.0518 -2.4960 0.9691
7.0178 -2.4368 -2.4959 0.9691
7.2067 -1.8025 -2.4959 0.9691
7.3385 -1.1539 -2.4959 0.9691
7.4270 0.1655 -2.4959 0.9691
7.3829 0.8259 -2.4960 0.9691
6.2266 3.1465 -2.3440 0.9710
5.5706 4.2010 -2.3442 0.9710
5.1748 4.6804 -2.3443 0.9710
4.7380 5.1227 -2.3444 0.9710
4.2635 5.5244 -2.3446 0.9710
2.0680 6.6667 -2.3452 0.9710
1.4665 6.8247 -2.3453 0.9710
0.8533 6.9286 -2.3455 0.9710
0.2333 6.9776 -2.3456 0.9710
-0.3887 6.9712 -2.3458 0.9710
-1.0077 6.9093 -2.3460 0.9710
-2.7978 6.3988 -2.3464 0.9710
-3.8884 5.8019 -2.3466 0.9710
-6.0380 4.3459 -2.4995 0.9691
-6.4011 3.7914 -2.4996 0.9691
-6.9722 2.5965 -2.4997 0.9691
-7.1757 1.9657 -2.4997 0.9691
-7.3222 1.3192 -2.4997 0.9691
-7.4105 0.6622 -2.4997 0.9691
-3.0442 -0.5484 -1.0968 0.9870
-3.0229 -0.8281 -1.1114 0.9868
-3.0314 -1.1289 -1.1470 0.9864
-6.3602 -3.0380 -2.4993 0.9705
-6.0643 -3.5919 -2.4992 0.9705
-4.8992 -5.0657 -2.4988 0.9705
-2.8226 -6.4555 -2.4983 0.9705
2.0864 -6.7259 -2.4970 0.9706
4.7804 -5.1685 -2.4964 0.9706
5.2213 -4.7223 -2.4963 0.9706
5.6207 -4.2387 -2.4962 0.9706
6.8982 -1.4021 -2.4960 0.9706
7.0375 -0.1568 -2.4960 0.9706
7.0236 0.4702 -2.4961 0.9706
6.8293 1.7081 -2.4962 0.9706
6.0270 2.7157 -2.3440 0.9723
5.7616 3.2414 -2.3441 0.9723
5.4504 3.7415 -2.3442 0.9723
5.0960 4.2120 -2.3443 0.9723
3.8028 5.4096 -2.3447 0.9723
2.2389 6.2232 -2.3451 0.9723
1.1002 6.5224 -2.3454 0.9723
-0.6622 6.5826 -2.3459 0.9723
-1.2455 6.4979 -2.3460 0.9723
-3.4357 5.6559 -2.3465 0.9723
-4.3844 4.9576 -2.3467 0.9723
-4.8085 4.5479 -2.3468 0.9723
-5.5319 4.3685 -2.4994 0.9705
-5.8989 3.8589 -2.4995 0.9705
-6.7092 2.1635 -2.4996 0.9705
-6.4893 -2.7517 -2.4993 0.9705
-5.8981 -3.8584 -2.4992 0.9705
-5.5311 -4.3678 -2.4990 0.9705
-5.1201 -4.8425 -2.4989 0.9705
-4.1799 -5.6730 -2.4986 0.9705
-3.6582 -6.0222 -2.4985 0.9705
-3.1075 -6.3235 -2.4983 0.9705
-0.7051 -7.0086 -2.4977 0.9705
-0.0784 -7.0431 -2.4975 0.9705
1.7847 -6.8123 -2.4971 0.9706
2.9640 -6.3872 -2.4968 0.9706
3.5206 -6.0977 -2.4967 0.9706
4.0491 -5.7599 -2.4966 0.9706
6.4180 -2.8918 -2.4961 0.9706
6.9538 -1.0934 -2.4960 0.9706
7.0235 -0.4701 -2.4960 0.9706
7.0376 0.1569 -2.4960 0.9706
6.9958 0.7826 -2.4961 0.9706
9.8143 3.9061 -3.7455 0.9562
5.9001 2.9815 -2.3440 0.9723
5.6116 3.4949 -2.3441 0.9723
5.2785 3.9807 -2.3442 0.9723
4.9034 4.4349 -2.3444 0.9723
4.4895 4.8540 -2.3445 0.9723
4.0399 5.2346 -2.3446 0.9723
3.5581 5.5737 -2.3447 0.9723
1.9595 6.3169 -2.3452 0.9723
1.3896 6.4667 -2.3453 0.9723
-0.9548 6.5467 -2.3459 0.9723
-2.1007 6.2745 -2.3462 0.9723
-2.6509 6.0629 -2.3463 0.9723
-4.1592 5.1479 -2.3467 0.9723
-5.2006 4.4971 -2.4379 0.9712
-5.7211 4.1178 -2.4994 0.9705
-6.6061 2.4602 -2.4996 0.9705
-3.3740 0.0000 -1.2599 0.9857
-2.9938 -0.2675 -1.1224 0.9872
-2.9455 -0.5306 -1.1176 0.9873
-6.0394 -2.8847 -2.4992 0.9718
-5.4318 -3.9095 -2.4990 0.9718
-5.0620 -4.3773 -2.4989 0.9718
-4.6521 -4.8102 -2.4988 0.9718
-4.2053 -5.2049 -2.4987 0.9718
-2.6803 -6.1299 -2.4982 0.9718
-0.9654 -6.6191 -2.4978 0.9718
-0.3724 -6.6783 -2.4976 0.9718
0.8175 -6.6377 -2.4973 0.9718
1.4050 -6.5382 -2.4972 0.9718
1.9812 -6.3869 -2.4971 0.9719
2.5417 -6.1849 -2.4969 0.9719
3.0820 -5.9338 -2.4968 0.9719
3.5977 -5.6356 -2.4967 0.9719
4.0848 -5.2929 -2.4966 0.9719
4.5395 -4.9080 -2.4965 0.9719
5.3375 -4.0252 -2.4963 0.9719
5.6744 -3.5340 -2.4962 0.9719
6.2109 -2.4718 -2.4961 0.9719
6.5507 -1.3314 -2.4961 0.9719
6.6432 -0.7431 -2.4961 0.9719
6.6830 -0.1489 -2.4961 0.9719
6.6698 0.4465 -2.4961 0.9719
6.6037 1.0384 -2.4962 0.9719
6.4852 1.6221 -2.4962 0.9719
9.1455 4.1208 -3.7457 0.9581
5.1758 3.5530 -2.3443 0.9736
4.4643 4.4148 -2.3445 0.9735
2.6434 5.6965 -2.3450 0.9735
2.1261 5.9095 -2.3451 0.9735
1.5917 6.0756 -2.3453 0.9735
1.0447 6.1936 -2.3454 0.9735
-0.6288 6.2507 -2.3458 0.9735
-1.1827 6.1702 -2.3460 0.9735
-1.7273 6.0408 -2.3461 0.9735
-2.7713 5.6394 -2.3463 0.9735
-3.2624 5.3707 -2.3465 0.9735
-3.7276 5.0592 -2.3466 0.9735
-4.1633 4.7075 -2.3467 0.9735
-5.2528 4.1481 -2.4993 0.9718
-5.6013 3.6642 -2.4994 0.9718
-6.1625 2.6131 -2.4995 0.9718
-6.3707 2.0543 -2.4995 0.9718
-6.5283 1.4791 -2.4995 0.9718
-3.0832 -0.1375 -1.1525 0.9869
-2.9106 -0.9385 -1.1419 0.9870
-6.1620 -2.6129 -2.4993 0.9718
-5.6006 -3.6637 -2.4991 0.9718
-4.4331 -5.0126 -2.4987 0.9718
-3.4737 -5.7185 -2.4985 0.9718
-2.4045 -6.2431 -2.4982 0.9718
-1.2593 -6.5697 -2.4979 0.9718
-0.6695 -6.6553 -2.4977 0.9718
0.5210 -6.6677 -2.4974 0.9718
1.1124 -6.5945 -2.4973 0.9718
2.2637 -6.2921 -2.4970 0.9719
2.8146 -6.0653 -2.4969 0.9719
3.3431 -5.7905 -2.4967 0.9719
4.7536 -4.7009 -2.4964 0.9719
5.1530 -4.2590 -2.4963 0.9719
5.8262 -3.2777 -2.4962 0.9719
6.4066 1.9094 -2.4963 0.9719
9.3198 3.7093 -3.7456 0.9581
5.0125 3.7801 -2.3443 0.9736
4.2633 4.6094 -2.3445 0.9735
2.8945 5.5729 -2.3449 0.9735
-0.9067 6.2166 -2.3459 0.9735
-1.9947 5.9580 -2.3462 0.9735
-2.5172 5.7572 -2.3463 0.9735
-4.3689 4.5175 -2.3467 0.9735
-5.0627 4.3779 -2.4993 0.9718
-5.4325 3.9101 -2.4993 0.9718
-5.7591 3.4111 -2.4994 0.9718
-6.2728 2.3361 -2.4995 0.9718
-6.4559 1.7685 -2.4995 0.9718
-2.8313 -0.7756 -1.1521 0.9875
-2.8528 -1.0624 -1.1947 0.9870
-5.1678 -3.7196 -2.4990 0.9730
-4.8161 -4.1646 -2.4989 0.9730
-1.4754 -6.1912 -2.4979 0.9730
0.2126 -6.3599 -2.4975 0.9730
1.3368 -6.2208 -2.4972 0.9730
2.4183 -5.8846 -2.4970 0.9730
2.9323 -5.6457 -2.4968 0.9730
3.8866 -5.0359 -2.4966 0.9730
4.3192 -4.6698 -2.4965 0.9730
4.7175 -4.2667 -2.4964 0.9730
5.9095 -2.3519 -2.4962 0.9730
6.3208 -0.7071 -2.4962 0.9730
6.3586 -0.1417 -2.4962 0.9730
6.3461 0.4249 -2.4962 0.9730
6.2832 0.9880 -2.4963 0.9730
6.1705 1.5434 -2.4963 0.9730
9.0157 3.1307 -3.7457 0.9598
8.7015 3.9208 -3.7458 0.9598
5.2057 2.9287 -2.3442 0.9747
4.9246 3.3805 -2.3443 0.9747
4.6043 3.8056 -2.3444 0.9747
4.2475 4.2005 -2.3445 0.9747
3.4358 4.8875 -2.3447 0.9747
2.9873 5.1742 -2.3449 0.9747
2.5151 5.4199 -2.3450 0.9747
1.5144 5.7806 -2.3453 0.9746
0.9940 5.8928 -2.3454 0.9746
0.4656 5.9582 -2.3455 0.9746
-0.0666 5.9763 -2.3457 0.9746
-3.5465 4.8134 -2.3465 0.9746
-4.9976 3.9466 -2.4992 0.9730
-5.3291 3.4862 -2.4993 0.9730
-5.6184 2.9981 -2.4994 0.9730
-6.2111 1.4073 -2.4994 0.9730
-3.6456 0.1626 -1.4322 0.9844
-3.0071 -0.1341 -1.1814 0.9871
-2.8734 -0.3864 -1.1379 0.9876
-2.8403 -0.9159 -1.1712 0.9873
-4.6257 -4.3749 -2.4988 0.9730
-2.2877 -5.9398 -2.4982 0.9730
-1.7498 -6.1195 -2.4980 0.9730
-1.1981 -6.2506 -2.4979 0.9730
-0.0709 -6.3633 -2.4976 0.9730
0.4957 -6.3440 -2.4974 0.9730
1.6125 -6.1549 -2.4972 0.9730
2.1538 -5.9866 -2.4970 0.9730
3.1809 -5.5094 -2.4968 0.9730
3.6584 -5.2042 -2.4967 0.9730
4.9029 -4.0523 -2.4964 0.9730
5.5434 -3.1186 -2.4963 0.9730
5.7989 -2.6128 -2.4962 0.9730
6.0083 -2.0863 -2.4962 0.9730
6.1701 -1.5432 -2.4962 0.9730
6.3460 -0.4248 -2.4962 0.9730
6.2330 1.2669 -2.4963 0.9730
6.0956 1.8167 -2.4963 0.9730
8.8675 3.5292 -3.7457 0.9598
4.4303 4.0070 -2.3445 0.9747
4.0563 4.3857 -2.3446 0.9747
3.6500 4.7295 -2.3447 0.9747
3.2148 5.0359 -2.3448 0.9747
2.7539 5.3023 -2.3449 0.9747
2.2712 5.5267 -2.3451 0.9747
1.7704 5.7072 -2.3452 0.9746
0.7305 5.9314 -2.3455 0.9746
-0.8626 5.9146 -2.3459 0.9746
-1.3857 5.8147 -2.3460 0.9746
-1.8978 5.6686 -2.3461 0.9746
-2.8731 5.2428 -2.3464 0.9746
-3.3285 4.9665 -2.3465 0.9746
-3.7575 4.6507 -2.3466 0.9746
-5.1685 3.7201 -2.4993 0.9730
-5.7464 2.7449 -2.4994 0.9730
-6.2676 1.1292 -2.4994 0.9730
-4.1297 0.3690 -1.6273 0.9823
-2.7695 -0.7587 -1.1825 0.9877
-5.4763 -2.6158 -2.4991 0.9741
-4.9254 -3.5451 -2.4989 0.9741
-4.2184 -4.3618 -2.4987 0.9741
-3.8133 -4.7197 -2.4986 0.9741
-3.3779 -5.0402 -2.4985 0.9741
-2.9157 -5.3205 -2.4983 0.9741
-2.4305 -5.5587 -2.4982 0.9741
-1.4062 -5.9009 -2.4979 0.9741
-0.8754 -6.0023 -2.4978 0.9741
0.7414 -6.0193 -2.4974 0.9741
1.2741 -5.9291 -2.4973 0.9741
1.7967 -5.7919 -2.4971 0.9741
2.7949 -5.3811 -2.4969 0.9741
3.2626 -5.1107 -2.4968 0.9741
4.1168 -4.4510 -2.4966 0.9741
4.4964 -4.0667 -2.4965 0.9741
4.8404 -3.6503 -2.4964 0.9741
5.1460 -3.2049 -2.4964 0.9741
5.4107 -2.7341 -2.4963 0.9741
5.9406 -1.2075 -2.4963 0.9741
6.0606 -0.1350 -2.4963 0.9741
6.0487 0.4049 -2.4963 0.9741
5.8813 1.4710 -2.4964 0.9741
8.2937 3.7370 -3.7459 0.9614
4.0484 4.0036 -2.3446 0.9757
3.6762 4.3482 -2.3447 0.9757
3.2747 4.6584 -2.3448 0.9757
1.9280 5.3589 -2.3451 0.9757
1.4434 5.5095 -2.3453 0.9757
0.9474 5.6164 -2.3454 0.9757
0.4437 5.6788 -2.3455 0.9757
-0.0634 5.6961 -2.3457 0.9757
-0.5702 5.6681 -2.3458 0.9757
-1.0725 5.5952 -2.3459 0.9757
-2.5130 5.1137 -2.3463 0.9757
-3.3801 4.5876 -2.3465 0.9757
-3.7768 4.2705 -2.3476 0.9756
-4.4093 4.1703 -2.4991 0.9741
-5.7767 1.8628 -2.4994 0.9741
-3.5093 0.1565 -1.4465 0.9849
-2.9337 -0.1308 -1.2092 0.9874
-2.7946 -0.3758 -1.1611 0.9879
-2.7756 -0.6288 -1.1719 0.9878
-2.7775 -0.8956 -1.2017 0.9875
-2.8016 -1.1880 -1.2531 0.9869
-4.7625 -3.7609 -2.4989 0.9741
-4.0199 -4.5453 -2.4986 0.9741
-1.6678 -5.8325 -2.4980 0.9741
-0.6071 -6.0352 -2.4977 0.9741
-0.0676 -6.0649 -2.4976 0.9741
0.4725 -6.0465 -2.4974 0.9741
1.0087 -5.9802 -2.4973 0.9741
2.5525 -5.5004 -2.4969 0.9741
4.6731 -3.8624 -2.4965 0.9741
5.5271 -2.4904 -2.4963 0.9741
5.7267 -1.9885 -2.4963 0.9741
5.8810 -1.4709 -2.4963 0.9741
6.0486 -0.4049 -2.4963 0.9741
6.0607 0.1351 -2.4963 0.9741
6.0247 0.6740 -2.4963 0.9741
8.4518 3.3638 -3.7458 0.9614
4.8325 3.0097 -2.3443 0.9757
4.5456 3.4280 -2.3444 0.9757
4.2226 3.8192 -2.3445 0.9757
3.8661 4.1800 -2.3446 0.9757
3.4789 4.5078 -2.3447 0.9757
2.1647 5.2675 -2.3451 0.9757
1.6874 5.4396 -2.3452 0.9757
1.1966 5.5685 -2.3453 0.9757
0.1904 5.6931 -2.3456 0.9757
-0.3171 5.6877 -2.3457 0.9757
-4.1643 4.3058 -2.4666 0.9744
-5.2221 3.0931 -2.4993 0.9741
-5.4768 2.6161 -2.4993 0.9741
-5.6880 2.1182 -2.4993 0.9741
-5.8540 1.6036 -2.4994 0.9741
-3.9772 0.3554 -1.6443 0.9829
-2.7278 -0.4914 -1.1956 0.9880
-2.7092 -0.7421 -1.2117 0.9878
-2.7299 -1.3040 -1.3050 0.9869
-4.7018 -3.3841 -2.4989 0.9751
-3.6402 -4.5055 -2.4986 0.9751
-3.2246 -4.8114 -2.4984 0.9751
-2.7834 -5.0790 -2.4983 0.9751
-2.3202 -5.3063 -2.4982 0.9751
-1.3424 -5.6331 -2.4979 0.9751
0.7077 -5.7462 -2.4974 0.9751
3.5363 -4.5821 -2.4967 0.9751
3.9300 -4.2490 -2.4966 0.9751
4.6209 -3.4847 -2.4965 0.9751
4.9126 -3.0595 -2.4964 0.9751
5.3770 -2.1400 -2.4964 0.9751
5.5461 -1.6529 -2.4963 0.9751
5.7513 -0.6433 -2.4963 0.9751
5.7743 0.3866 -2.4964 0.9751
5.7171 0.8990 -2.4964 0.9751
5.6145 1.4043 -2.4965 0.9751
7.9175 3.5675 -3.7460 0.9629
7.5688 4.2581 -3.7461 0.9629
4.4808 3.0760 -2.3444 0.9766
3.8648 3.8220 -2.3446 0.9766
3.5094 4.1510 -2.3447 0.9766
3.1262 4.4470 -2.3448 0.9766
2.7181 4.7079 -2.3449 0.9766
2.2884 4.9314 -2.3450 0.9766
1.8405 5.1157 -2.3452 0.9766
1.3779 5.2595 -2.3453 0.9766
-0.0606 5.4375 -2.3457 0.9766
-1.0238 5.3412 -2.3459 0.9766
-3.2267 4.3793 -2.3464 0.9766
-3.7463 4.2360 -2.4393 0.9757
-4.2091 3.9809 -2.4990 0.9751
-4.5468 3.5906 -2.4991 0.9751
-5.1116 2.7277 -2.4992 0.9751
-5.3342 2.2619 -2.4993 0.9751
-5.6508 1.2803 -2.4993 0.9751
-3.3811 0.1507 -1.4599 0.9854
-2.7166 -0.8760 -1.2313 0.9876
-2.7334 -1.1591 -1.2807 0.9871
-5.1112 -2.7274 -2.4990 0.9751
-4.5463 -3.5902 -2.4988 0.9751
-3.8374 -4.3390 -2.4986 0.9751
-3.0070 -4.9501 -2.4984 0.9751
0.4511 -5.7722 -2.4975 0.9751
0.9630 -5.7088 -2.4973 0.9751
3.3288 -4.7352 -2.4968 0.9751
3.7369 -4.4200 -2.4967 0.9751
4.1153 -4.0697 -2.4966 0.9751
4.4611 -3.6872 -2.4965 0.9751
4.7714 -3.2754 -2.4965 0.9751
5.0439 -2.8376 -2.4964 0.9751
5.6142 -1.4042 -2.4963 0.9751
5.7169 -0.8989 -2.4963 0.9751
5.7858 0.1290 -2.4964 0.9751
5.7514 0.6434 -2.4964 0.9751
5.6714 1.1528 -2.4964 0.9751
7.7509 3.9167 -3.7460 0.9629
7.3718 4.5912 -3.7461 0.9629
4.3394 3.2725 -2.3445 0.9766
4.0311 3.6459 -2.3445 0.9766
3.6907 3.9904 -2.3446 0.9766
3.3211 4.3033 -2.3448 0.9766
2.9250 4.5820 -2.3449 0.9766
2.0665 5.0285 -2.3451 0.9766
1.6108 5.1928 -2.3452 0.9766
1.1423 5.3158 -2.3453 0.9766
0.1817 5.4347 -2.3456 0.9766
-0.7848 5.3813 -2.3458 0.9766
-1.7267 5.1574 -2.3461 0.9766
-2.1790 4.9835 -2.3462 0.9766
-3.0283 4.5186 -2.3464 0.9766
-3.4186 4.2313 -2.3465 0.9766
-4.9850 2.9527 -2.4992 0.9751
-5.2281 2.4973 -2.4992 0.9751
-5.5881 1.5308 -2.4993 0.9751
-5.7022 1.0273 -2.4993 0.9751
-3.8265 0.3419 -1.6571 0.9834
-2.7005 -0.2413 -1.2234 0.9882
-2.6738 -0.4817 -1.2259 0.9881
-2.6546 -0.7272 -1.2419 0.9880
-2.6607 -0.9908 -1.2811 0.9876
-2.6666 -1.2737 -1.3334 0.9871
-4.4948 -3.2351 -2.4988 0.9760
-4.1888 -3.6222 -2.4987 0.9760
-3.4799 -4.3071 -2.4985 0.9760
-2.6609 -4.8554 -2.4983 0.9760
-2.2180 -5.0728 -2.4982 0.9760
-1.7576 -5.2498 -2.4980 0.9760
-0.7989 -5.4777 -2.4978 0.9760
-0.3082 -5.5268 -2.4977 0.9760
0.1850 -5.5320 -2.4975 0.9760
0.6766 -5.4933 -2.4974 0.9760
2.1036 -5.1187 -2.4971 0.9760
2.5507 -4.9109 -2.4970 0.9760
2.9776 -4.6642 -2.4969 0.9760
3.7571 -4.0621 -2.4967 0.9760
4.6965 -2.9250 -2.4965 0.9760
5.5313 -0.1232 -2.4964 0.9760
5.4656 0.8595 -2.4965 0.9760
7.5692 3.4106 -3.7460 0.9642
7.2358 4.0708 -3.7462 0.9642
6.8450 4.6988 -3.7463 0.9642
4.0051 3.3103 -2.3445 0.9775
3.6947 3.6538 -2.3446 0.9775
3.3550 3.9683 -2.3447 0.9775
2.5985 4.5007 -2.3449 0.9775
2.1877 4.7143 -2.3451 0.9775
1.3173 5.0280 -2.3453 0.9774
-0.0579 5.1982 -2.3456 0.9774
-0.5204 5.1727 -2.3458 0.9774
-0.9787 5.1061 -2.3459 0.9774
-1.4294 4.9989 -2.3460 0.9774
-1.8687 4.8521 -2.3461 0.9774
-2.2933 4.6667 -2.3462 0.9774
-3.0846 4.1864 -2.3464 0.9774
-4.0237 3.8057 -2.4990 0.9760
-4.6349 3.0321 -2.4991 0.9760
-5.0993 2.1623 -2.4992 0.9760
-5.4019 1.2239 -2.4992 0.9760
-2.7833 -0.1241 -1.2571 0.9878
-2.6870 -0.3614 -1.2234 0.9882
-2.6659 -0.6040 -1.2334 0.9881
-4.3461 -3.4320 -2.4988 0.9760
-4.0232 -3.8051 -2.4987 0.9760
-3.6684 -4.1479 -2.4986 0.9760
-1.5220 -5.3227 -2.4980 0.9760
-0.5541 -5.5077 -2.4977 0.9760
0.4312 -5.5181 -2.4975 0.9760
1.4026 -5.3537 -2.4972 0.9760
1.8735 -5.2074 -2.4971 0.9760
2.3294 -5.0198 -2.4970 0.9760
2.7669 -4.7923 -2.4969 0.9760
4.2648 -3.5250 -2.4966 0.9760
4.8221 -2.7128 -2.4965 0.9760
5.2265 -1.8148 -2.4964 0.9760
5.3673 -1.3424 -2.4964 0.9760
5.4654 -0.8594 -2.4964 0.9760
5.5203 -0.3695 -2.4964 0.9760
5.4984 0.6151 -2.4964 0.9760
5.3024 1.5803 -2.4965 0.9760
4.1485 3.1286 -2.3445 0.9775
3.8537 3.4855 -2.3446 0.9775
3.5283 3.8148 -2.3447 0.9775
2.3955 4.6121 -2.3450 0.9775
1.9756 4.8072 -2.3451 0.9775
0.6354 5.1591 -2.3455 0.9774
0.1737 5.1955 -2.3456 0.9774
-0.2894 5.1906 -2.3457 0.9774
-1.6507 4.9304 -2.3460 0.9774
-2.0831 4.7641 -2.3461 0.9774
-3.8501 3.9811 -2.4990 0.9760
-4.1893 3.6227 -2.4990 0.9760
-4.4952 3.2355 -2.4991 0.9760
-4.7655 2.8226 -2.4991 0.9760
-4.9978 2.3873 -2.4992 0.9760
-5.1906 1.9330 -2.4992 0.9760
-5.3420 1.4634 -2.4992 0.9760
-2.9112 0.0000 -1.3723 0.9872
-2.6212 -0.4722 -1.2555 0.9883
-2.6052 -1.2444 -1.3609 0.9873
-2.6596 -1.5753 -1.4571 0.9864
-3.6850 -3.8102 -2.4986 0.9768
-3.3311 -4.1229 -2.4985 0.9768
-2.9507 -4.4028 -2.4984 0.9768
-0.7647 -5.2435 -2.4978 0.9768
0.1771 -5.2955 -2.4976 0.9768
0.6476 -5.2584 -2.4974 0.9768
2.8503 -4.4648 -2.4969 0.9768
3.9282 -3.5529 -2.4967 0.9769
4.4957 -2.7999 -2.4966 0.9769
4.7270 -2.3887 -2.4965 0.9769
4.9208 -1.9584 -2.4965 0.9769
5.0755 -1.5126 -2.4965 0.9769
5.1900 -1.0549 -2.4965 0.9769
5.0034 1.7374 -2.4966 0.9769
4.8290 2.1759 -2.4967 0.9768
6.9265 3.8968 -3.7462 0.9655
6.5524 4.4980 -3.7463 0.9655
3.5367 3.4976 -2.3447 0.9782
3.2115 3.7987 -2.3448 0.9782
0.8276 4.9064 -2.3454 0.9782
0.3877 4.9608 -2.3455 0.9782
-0.0554 4.9758 -2.3456 0.9782
-1.3682 4.7851 -2.3460 0.9782
-2.1952 4.4670 -2.3462 0.9782
-2.5841 4.2541 -2.3462 0.9782
-3.5119 3.9710 -2.4989 0.9768
-4.1606 3.2856 -2.4990 0.9768
-4.6774 2.4960 -2.4991 0.9768
-2.6131 -0.5920 -1.2630 0.9882
-3.1440 -4.2671 -2.4984 0.9768
-2.7516 -4.5298 -2.4983 0.9768
-1.9047 -4.9454 -2.4981 0.9768
-0.9976 -5.2043 -2.4979 0.9768
1.3427 -5.1248 -2.4973 0.9768
3.0463 -4.3333 -2.4969 0.9768
3.7661 -3.7244 -2.4967 0.9768
4.0825 -3.3742 -2.4966 0.9769
4.3666 -2.9975 -2.4966 0.9769
4.6159 -2.5969 -2.4965 0.9769
5.0031 -1.7372 -2.4965 0.9769
5.2318 -0.8226 -2.4965 0.9769
5.2843 -0.3537 -2.4965 0.9769
5.1902 1.0550 -2.4965 0.9769
5.0758 1.5128 -2.4966 0.9769
4.9211 1.9586 -2.4967 0.9769
7.0931 3.5843 -3.7462 0.9655
6.7462 4.2016 -3.7463 0.9655
6.3456 4.7854 -3.7464 0.9655
3.3775 3.6518 -2.3447 0.9782
2.2930 4.4149 -2.3450 0.9782
-1.1537 4.8412 -2.3459 0.9782
-2.3920 4.3649 -2.3462 0.9782
-2.7712 4.1348 -2.3463 0.9782
-3.3315 4.1235 -2.4988 0.9768
-3.6854 3.8107 -2.4989 0.9768
-4.5616 2.7019 -2.4991 0.9768
-4.7840 2.2851 -2.4991 0.9768
-4.9685 1.8503 -2.4991 0.9768
-5.2179 0.9401 -2.4992 0.9768
-2.5903 -0.2315 -1.2791 0.9885
-2.5499 -0.6985 -1.3004 0.9883
-2.5453 -0.9479 -1.3359 0.9880
-2.5457 -1.2160 -1.3876 0.9875
-4.3712 -2.5890 -2.4988 0.9776
-3.8426 -3.3228 -2.4987 0.9776
-3.5315 -3.6515 -2.4986 0.9776
-2.8279 -4.2195 -2.4984 0.9776
-2.4410 -4.4542 -2.4983 0.9776
-0.7329 -5.0251 -2.4978 0.9776
-0.2827 -5.0702 -2.4977 0.9776
0.1697 -5.0750 -2.4976 0.9776
1.5043 -4.8492 -2.4972 0.9776
1.9298 -4.6959 -2.4971 0.9776
4.3086 -2.6834 -2.4966 0.9776
4.5303 -2.2892 -2.4966 0.9776
4.7160 -1.8769 -2.4965 0.9776
4.9740 -1.0110 -2.4965 0.9776
5.0645 0.3390 -2.4965 0.9776
4.6281 2.0854 -2.4967 0.9776
6.6382 3.7346 -3.7463 0.9666
3.0779 3.6405 -2.3448 0.9790
2.3838 4.1289 -2.3450 0.9790
1.6141 4.4866 -2.3452 0.9790
0.7931 4.7021 -2.3454 0.9790
0.3715 4.7542 -2.3455 0.9790
-0.4774 4.7453 -2.3457 0.9790
-0.8979 4.6841 -2.3458 0.9790
-2.4765 4.0769 -2.3462 0.9790
-3.0135 4.0900 -2.4987 0.9776
-3.9873 3.1488 -2.4990 0.9776
-4.2518 2.7814 -2.4990 0.9776
-4.6778 1.9836 -2.4991 0.9776
-4.8358 1.5594 -2.4991 0.9776
-4.9554 1.1228 -2.4991 0.9776
-5.0357 0.6773 -2.4991 0.9776
-2.6467 -0.1180 -1.3031 0.9883
-2.5845 -0.3476 -1.2826 0.9884
-2.5430 -0.8200 -1.3142 0.9882
-4.2514 -2.7811 -2.4988 0.9776
-3.9869 -3.1484 -2.4987 0.9776
-3.6907 -3.4906 -2.4986 0.9776
-3.0131 -4.0894 -2.4984 0.9776
-2.6370 -4.3411 -2.4983 0.9776
-0.5083 -5.0527 -2.4977 0.9776
0.3956 -5.0623 -2.4975 0.9776
0.8445 -5.0068 -2.4974 0.9776
1.2868 -4.9115 -2.4973 0.9776
1.7187 -4.7773 -2.4972 0.9776
2.5384 -4.3965 -2.4970 0.9776
3.2774 -3.8765 -2.4968 0.9776
4.7949 -1.6649 -2.4965 0.9776
4.9241 -1.2316 -2.4965 0.9776
5.0141 -0.7884 -2.4965 0.9776
5.0745 0.1131 -2.4965 0.9776
4.9742 1.0111 -2.4966 0.9776
4.5306 2.2895 -2.4968 0.9776
6.4654 4.0267 -3.7463 0.9666
3.5354 3.1976 -2.3447 0.9790
2.9127 3.7741 -2.3448 0.9790
2.5653 4.0185 -2.3449 0.9790
2.1976 4.2311 -2.3450 0.9790
1.4127 4.5541 -2.3452 0.9790
0.5829 4.7329 -2.3455 0.9790
0.1594 4.7662 -2.3456 0.9790
-0.6883 4.7194 -2.3458 0.9790
-1.1057 4.6396 -2.3459 0.9790
-1.5143 4.5229 -2.3460 0.9790
-1.9109 4.3704 -2.3461 0.9790
-3.1928 3.9517 -2.4988 0.9776
-3.5319 3.6520 -2.4989 0.9776
-4.1237 2.9681 -2.4990 0.9776
-4.3715 2.5893 -2.4990 0.9776
-4.5847 2.1900 -2.4991 0.9776
-4.9005 1.3424 -2.4991 0.9776
-2.5372 -0.2267 -1.3059 0.9886
-2.5198 -0.4540 -1.3126 0.9886
-2.4994 -0.6847 -1.3286 0.9884
-2.4879 -1.1884 -1.4135 0.9877
-2.4521 -1.4524 -1.4611 0.9873
-3.9558 -2.8472 -2.4987 0.9783
-3.3881 -3.5032 -2.4985 0.9783
-2.7130 -4.0481 -2.4983 0.9783
-1.9521 -4.4646 -2.4981 0.9783
-1.1295 -4.7396 -2.4979 0.9783
0.5955 -4.8349 -2.4975 0.9783
1.0234 -4.7625 -2.4974 0.9783
1.4432 -4.6524 -2.4973 0.9783
1.8515 -4.5053 -2.4972 0.9783
2.6208 -4.1053 -2.4970 0.9783
3.6119 -3.2668 -2.4968 0.9783
3.8883 -2.9323 -2.4967 0.9783
4.1338 -2.5745 -2.4967 0.9783
4.7722 -0.9699 -2.4966 0.9783
4.8396 -0.5414 -2.4966 0.9783
4.8589 0.3253 -2.4966 0.9783
4.6006 1.5975 -2.4967 0.9783
4.4402 2.0007 -2.4968 0.9783
1.1594 4.4254 -2.3453 0.9796
0.7609 4.5112 -2.3454 0.9796
-0.0510 4.5751 -2.3456 0.9796
-0.4580 4.5525 -2.3457 0.9796
-1.6447 4.2703 -2.3460 0.9796
-2.4342 4.0073 -2.4038 0.9791
-2.8911 3.9238 -2.4987 0.9783
-3.2290 3.6511 -2.4988 0.9783
-3.5412 3.3493 -2.4988 0.9783
-4.3005 2.2948 -2.4990 0.9783
-4.4877 1.9030 -2.4990 0.9783
-4.7541 1.0771 -2.4991 0.9783
-4.8311 0.6497 -2.4991 0.9783
-2.5350 -0.3409 -1.3113 0.9886
-2.4881 -0.8023 -1.3403 0.9883
-2.4879 -1.0550 -1.3854 0.9879
-3.8250 -3.0205 -2.4987 0.9783
-3.5408 -3.3489 -2.4986 0.9783
-3.2286 -3.6506 -2.4985 0.9783
-1.7513 -4.5470 -2.4981 0.9783
-0.9172 -4.7851 -2.4979 0.9783
-0.0543 -4.8714 -2.4976 0.9783
1.2345 -4.7121 -2.4973 0.9783
1.6490 -4.5834 -2.4972 0.9783
2.8010 -3.9844 -2.4969 0.9783
3.4629 -3.4245 -2.4968 0.9783
3.7538 -3.1026 -2.4967 0.9783
4.0150 -2.7561 -2.4967 0.9783
4.8589 -0.3252 -2.4966 0.9783
4.7723 0.9701 -2.4966 0.9783
4.5249 1.8009 -2.4967 0.9783
4.3468 2.1965 -2.4968 0.9783
5.8347 4.4001 -3.7465 0.9677
2.4612 3.8554 -2.3450 0.9796
2.1084 4.0594 -2.3450 0.9796
0.9611 4.4727 -2.3454 0.9796
-0.6603 4.5277 -2.3458 0.9796
-1.0608 4.4511 -2.3459 0.9796
-1.8333 4.1929 -2.3461 0.9796
-2.1993 4.0132 -2.3461 0.9796
-2.7072 4.0395 -2.4930 0.9784
-3.3884 3.5037 -2.4988 0.9783
-3.6869 3.1882 -2.4989 0.9783
-3.9562 2.8475 -2.4989 0.9783
-4.1940 2.4841 -2.4990 0.9783
-4.3985 2.1010 -2.4990 0.9783
-4.5681 1.7012 -2.4990 0.9783
-3.5462 0.3169 -1.8253 0.9841
-2.4853 -0.2221 -1.3321 0.9887
-2.4352 -0.9069 -1.3872 0.9883
-2.4292 -1.1603 -1.4371 0.9879
-2.3944 -1.4182 -1.4856 0.9875
-3.5403 -3.0614 -2.4986 0.9790
-2.2490 -4.1038 -2.4982 0.9790
-0.6752 -4.6299 -2.4978 0.9790
-0.2605 -4.6714 -2.4977 0.9790
0.5719 -4.6432 -2.4975 0.9790
1.3860 -4.4679 -2.4973 0.9790
1.7781 -4.3266 -2.4972 0.9790
2.1560 -4.1510 -2.4971 0.9790
2.5169 -3.9425 -2.4970 0.9790
3.1758 -3.4336 -2.4969 0.9790
3.4688 -3.1372 -2.4968 0.9790
3.7341 -2.8160 -2.4968 0.9790
4.4819 -1.3357 -2.4966 0.9790
4.5830 -0.9315 -2.4966 0.9790
4.6200 0.7265 -2.4967 0.9790
4.5371 1.1348 -2.4967 0.9790
4.4182 1.5342 -2.4968 0.9790
4.2642 1.9214 -2.4968 0.9790
4.0764 2.2933 -2.4969 0.9790
5.7859 3.9718 -3.7465 0.9687
2.8359 3.3543 -2.3448 0.9803
1.1134 4.2498 -2.3453 0.9803
0.7308 4.3323 -2.3454 0.9803
0.3423 4.3803 -2.3455 0.9803
-0.8272 4.3156 -2.3458 0.9803
-1.2081 4.2251 -2.3459 0.9803
-2.4230 3.9888 -2.4915 0.9791
-2.7764 3.7682 -2.4987 0.9790
-3.1008 3.5062 -2.4987 0.9790
-3.6736 2.9010 -2.4989 0.9790
-3.9173 2.5626 -2.4989 0.9790
-4.4552 1.4367 -2.4990 0.9790
-4.5654 1.0344 -2.4990 0.9790
-2.5303 -0.1128 -1.3521 0.9886
-2.4861 -0.3343 -1.3391 0.9887
-2.4621 -0.5578 -1.3477 0.9886
-2.4330 -1.0317 -1.4108 0.9881
-2.4151 -1.2887 -1.4613 0.9877
-2.4323 -1.5911 -1.5516 0.9869
-3.4003 -3.2160 -2.4985 0.9790
-3.1005 -3.5058 -2.4985 0.9790
-2.7760 -3.7677 -2.4984 0.9790
-2.4296 -3.9996 -2.4983 0.9790
-1.2864 -4.4989 -2.4980 0.9790
-0.0521 -4.6783 -2.4976 0.9790
0.3645 -4.6641 -2.4975 0.9790
0.7781 -4.6130 -2.4974 0.9790
1.1856 -4.5253 -2.4973 0.9790
1.5836 -4.4016 -2.4972 0.9790
1.9690 -4.2430 -2.4971 0.9790
2.3388 -4.0508 -2.4971 0.9790
3.0198 -3.5717 -2.4969 0.9790
3.6050 -2.9796 -2.4968 0.9790
3.8558 -2.6469 -2.4967 0.9790
4.0761 -2.2931 -2.4967 0.9790
4.2639 -1.9212 -2.4967 0.9790
4.4180 -1.5340 -2.4966 0.9790
4.5369 -1.1347 -2.4966 0.9790
4.6199 -0.7264 -2.4966 0.9790
4.5831 0.9316 -2.4967 0.9790
4.4821 1.3358 -2.4967 0.9790
4.1744 2.1095 -2.4968 0.9790
5.9570 3.7101 -3.7465 0.9687
2.6837 3.4773 -2.3449 0.9803
2.3636 3.7025 -2.3450 0.9803
2.0248 3.8984 -2.3451 0.9803
1.6698 4.0633 -2.3452 0.9803
0.9230 4.2953 -2.3454 0.9803
-1.3951 4.1671 -2.3459 0.9803
-1.7606 4.0265 -2.3460 0.9803
-2.1694 3.9587 -2.4098 0.9797
-2.6057 3.8881 -2.4986 0.9790
-3.7992 2.7346 -2.4989 0.9790
-4.0276 2.3856 -2.4989 0.9790
-4.2239 2.0177 -2.4990 0.9790
-4.3868 1.6337 -2.4990 0.9790
-4.5148 1.2368 -2.4990 0.9790
-2.4347 -0.2176 -1.3576 0.9889
-2.3733 -1.1336 -1.4608 0.9880
-3.6514 -2.6281 -2.4986 0.9796
-3.1273 -3.2336 -2.4985 0.9796
-2.1617 -3.9445 -2.4982 0.9796
-1.8019 -4.1211 -2.4981 0.9796
-0.6490 -4.4502 -2.4978 0.9796
0.1503 -4.4944 -2.4976 0.9796
0.9447 -4.3962 -2.4974 0.9796
1.7091 -4.1588 -2.4972 0.9796
2.0724 -3.9900 -2.4971 0.9796
2.4192 -3.7896 -2.4970 0.9796
2.7468 -3.5591 -2.4970 0.9796
3.5893 -2.7068 -2.4968 0.9796
4.0122 -2.0274 -2.4967 0.9796
4.1767 -1.6623 -2.4967 0.9796
4.3081 -1.2839 -2.4967 0.9796
4.4052 -0.8954 -2.4967 0.9796
4.4674 -0.4997 -2.4967 0.9796
4.4942 -0.1001 -2.4967 0.9796
4.4408 0.6983 -2.4967 0.9796
4.0988 1.8469 -2.4969 0.9796
3.9182 2.2044 -2.4969 0.9796
5.5614 3.8177 -3.7466 0.9696
5.1998 4.2977 -3.7467 0.9696
4.3557 5.1520 -3.7469 0.9696
2.4281 3.4541 -2.3449 0.9809
1.7774 3.8302 -2.3451 0.9809
1.4295 3.9733 -2.3452 0.9809
0.7024 4.1641 -2.3454 0.9809
0.3290 4.2103 -2.3455 0.9809
-0.0470 4.2231 -2.3456 0.9809
-1.1612 4.0611 -2.3459 0.9809
-1.9225 3.9123 -2.4211 0.9803
-2.9805 3.3701 -2.4987 0.9796
-3.2687 3.0915 -2.4988 0.9796
-3.5309 2.7884 -2.4988 0.9796
-3.7652 2.4631 -2.4989 0.9796
-4.1423 1.7565 -2.4989 0.9796
-4.2823 1.3809 -2.4990 0.9796
-4.3882 0.9943 -2.4990 0.9796
-4.4593 0.5997 -2.4990 0.9796
-2.4745 -0.1103 -1.3757 0.9887
-2.4351 -0.3275 -1.3646 0.9888
-2.4139 -0.5469 -1.3747 0.9887
-2.3870 -0.7697 -1.3929 0.9886
-2.3793 -1.0089 -1.4353 0.9882
-2.3600 -1.2593 -1.4857 0.9878
-3.5306 -2.7881 -2.4986 0.9796
-3.2683 -3.0912 -2.4985 0.9796
-2.3353 -3.8444 -2.4982 0.9796
-1.9838 -4.0368 -2.4982 0.9796
-1.6165 -4.1972 -2.4981 0.9796
-1.2365 -4.3243 -2.4980 0.9796
-0.8467 -4.4170 -2.4978 0.9796
0.7479 -4.4340 -2.4974 0.9796
1.1396 -4.3497 -2.4973 0.9796
1.5222 -4.2309 -2.4973 0.9796
1.8926 -4.0784 -2.4972 0.9796
2.2480 -3.8936 -2.4971 0.9796
2.5856 -3.6780 -2.4970 0.9796
3.1966 -3.1612 -2.4969 0.9796
3.4652 -2.8640 -2.4968 0.9796
3.9179 -2.2042 -2.4967 0.9796
4.0985 -1.8467 -2.4967 0.9796
4.2466 -1.4746 -2.4967 0.9796
4.3610 -1.0907 -2.4967 0.9796
4.4407 -0.6982 -2.4967 0.9796
4.4942 0.1002 -2.4967 0.9796
4.4675 0.4998 -2.4967 0.9796
4.4053 0.8954 -2.4967 0.9796
4.1769 1.6624 -2.4968 0.9796
5.3860 4.0617 -3.7466 0.9696
5.0033 4.5252 -3.7467 0.9696
4.5808 4.9527 -3.7469 0.9696
2.2719 3.5589 -2.3450 0.9809
1.9462 3.7471 -2.3451 0.9809
1.6050 3.9056 -2.3452 0.9809
1.2511 4.0331 -2.3453 0.9809
0.8872 4.1286 -2.3454 0.9809
-0.2351 4.2169 -2.3456 0.9809
-0.6095 4.1794 -2.3457 0.9809
-1.7000 3.8881 -2.3568 0.9808
-2.1595 3.9407 -2.4958 0.9796
-2.5046 3.7371 -2.4986 0.9796
-3.4032 2.9429 -2.4988 0.9796
-3.8712 2.2929 -2.4989 0.9796
-4.0600 1.9393 -2.4989 0.9796
-4.3395 1.1888 -2.4990 0.9796
-2.5326 0.0000 -1.4622 0.9884
-2.3852 -0.2131 -1.3826 0.9890
-2.3307 -0.8680 -1.4359 0.9886
-2.1929 -1.5784 -1.5599 0.9876
-3.0084 -3.1106 -2.4984 0.9802
-2.4090 -3.5945 -2.4983 0.9802
-1.7334 -3.9644 -2.4981 0.9802
-1.3736 -4.1028 -2.4980 0.9802
-1.0030 -4.2086 -2.4979 0.9802
-0.6244 -4.2810 -2.4978 0.9802
0.5288 -4.2933 -2.4975 0.9802
0.9088 -4.2291 -2.4974 0.9802
1.2815 -4.1313 -2.4973 0.9802
1.6441 -4.0007 -2.4972 0.9802
1.9936 -3.8383 -2.4972 0.9802
2.3273 -3.6455 -2.4971 0.9802
2.6424 -3.4238 -2.4970 0.9802
2.9366 -3.1750 -2.4969 0.9802
3.2075 -2.9010 -2.4969 0.9802
3.8597 -1.9504 -2.4968 0.9802
4.0180 -1.5991 -2.4967 0.9802
4.2378 -0.8613 -2.4967 0.9802
4.2976 -0.4807 -2.4967 0.9802
4.3234 -0.0963 -2.4967 0.9802
4.1954 1.0494 -2.4968 0.9802
4.0854 1.4186 -2.4968 0.9802
3.9430 1.7767 -2.4969 0.9802
3.5657 2.4477 -2.4970 0.9802
4.6144 4.5633 -3.7468 0.9705
4.1901 4.9561 -3.7470 0.9705
2.0309 3.5176 -2.3450 0.9814
1.7098 3.6845 -2.3451 0.9814
1.0295 3.9296 -2.3453 0.9814
0.6757 4.0058 -2.3454 0.9814
-0.0452 4.0625 -2.3456 0.9814
-0.4067 4.0425 -2.3457 0.9814
-1.4794 3.8412 -2.3765 0.9812
-2.2467 3.6987 -2.4985 0.9802
-2.8671 3.2419 -2.4987 0.9802
-3.1443 2.9739 -2.4987 0.9802
-3.3966 2.6823 -2.4988 0.9802
-3.8185 2.0377 -2.4989 0.9802
-3.9848 1.6897 -2.4989 0.9802
-4.2213 0.9564 -2.4989 0.9802
-4.2896 0.5770 -2.4989 0.9802
-2.4200 -0.1079 -1.3986 0.9889
-2.3668 -0.5362 -1.4011 0.9889
-2.3397 -0.7545 -1.4193 0.9887
-2.2904 -1.2222 -1.4988 0.9881
-2.1940 -1.4353 -1.5137 0.9880
-3.1440 -2.9736 -2.4985 0.9802
