ply
format ascii 1.0
element vertex 1587
property float32 x
property float32 y
property float32 z
property float32 I
end_header
-14.1156 -1.2613 -2.4989 0.9441
-13.9474 -2.5127 -2.4989 0.9441
-11.5022 -8.2787 -2.4989 0.9441
-8.9061 -11.0232 -2.4988 0.9441
-2.4137 -7.2094 -1.3406 0.9696
-2.0451 -14.0222 -2.4987 0.9441
-0.7889 -14.1484 -2.4986 0.9441
2.9770 -13.8536 -2.4985 0.9441
4.1981 -13.5335 -2.4985 0.9441
6.5310 -12.5744 -2.4984 0.9441
7.6242 -11.9430 -2.4984 0.9441
8.6568 -11.2169 -2.4984 0.9441
11.3123 -8.5310 -2.4983 0.9441
12.0266 -7.4902 -2.4983 0.9441
13.5778 -4.0466 -2.4982 0.9441
12.5675 4.3639 -2.3458 0.9474
12.1292 5.4652 -2.3458 0.9474
10.9681 7.5292 -2.3458 0.9474
10.2545 8.4756 -2.3458 0.9474
9.4595 9.3547 -2.3458 0.9474
7.6511 10.8839 -2.3459 0.9474
6.6521 11.5218 -2.3459 0.9474
5.6002 12.0683 -2.3459 0.9474
4.5039 12.5189 -2.3459 0.9474
3.3718 12.8703 -2.3460 0.9474
-0.1482 13.3043 -2.3460 0.9474
-1.3318 13.2384 -2.3461 0.9474
-3.6580 12.7929 -2.3461 0.9474
-6.9081 11.3724 -2.3462 0.9474
-7.8930 10.7125 -2.3463 0.9474
-8.8153 9.9676 -2.3463 0.9474
-9.6676 9.1435 -2.3463 0.9474
-10.4431 8.2469 -2.3463 0.9474
-11.1358 7.2847 -2.3464 0.9474
-13.0470 5.5324 -2.4988 0.9441
-13.4877 4.3493 -2.4988 0.9441
-14.0453 1.8890 -2.4989 0.9441
-14.1578 0.6313 -2.4989 0.9441
-14.0455 -1.8889 -2.4989 0.9441
-12.5031 -6.6718 -2.4989 0.9441
-11.8596 -7.7582 -2.4989 0.9441
-11.1220 -8.7829 -2.4989 0.9441
-8.4062 -11.4090 -2.4988 0.9441
-3.8959 -13.6247 -2.4987 0.9441
-2.6677 -13.9173 -2.4987 0.9441
-1.4184 -14.0993 -2.4986 0.9441
1.1039 -14.1271 -2.4986 0.9441
3.5911 -13.7071 -2.4985 0.9441
5.9644 -12.8529 -2.4984 0.9441
7.0846 -12.2709 -2.4984 0.9441
8.1486 -11.5915 -2.4984 0.9441
9.1478 -10.8201 -2.4984 0.9441
12.9175 -5.8203 -2.4982 0.9441
13.3841 -4.6475 -2.4982 0.9441
13.7446 -3.4377 -2.4982 0.9441
13.9959 -2.2007 -2.4982 0.9441
14.1643 0.3157 -2.4982 0.9441
13.2211 1.4790 -2.3458 0.9474
13.0370 2.6499 -2.3458 0.9474
12.7494 3.7997 -2.3458 0.9474
10.6219 8.0103 -2.3458 0.9474
9.8668 8.9240 -2.3458 0.9474
9.0334 9.7669 -2.3458 0.9474
8.1283 10.5322 -2.3459 0.9474
3.9418 12.7072 -2.3459 0.9474
2.7952 13.0078 -2.3460 0.9474
1.6264 13.2051 -2.3460 0.9474
0.4446 13.2976 -2.3460 0.9474
-0.7407 13.2846 -2.3461 0.9474
-1.9202 13.1661 -2.3461 0.9474
-3.0845 12.9430 -2.3461 0.9474
-7.4079 11.0534 -2.3462 0.9474
-8.3624 10.3504 -2.3463 0.9474
-9.2506 9.5651 -2.3463 0.9474
-10.8002 7.7735 -2.3463 0.9474
-11.4493 6.7815 -2.3464 0.9474
-13.6681 3.7441 -2.4988 0.9441
-14.1156 1.2614 -2.4989 0.9441
-12.9128 0.0000 -2.4988 0.9488
-12.7082 -2.2895 -2.4989 0.9488
-12.4540 -3.4115 -2.4989 0.9488
-12.1009 -4.5064 -2.4989 0.9488
-11.6518 -5.5655 -2.4989 0.9488
-11.1101 -6.5805 -2.4988 0.9488
-10.4803 -7.5432 -2.4988 0.9488
-9.7672 -8.4460 -2.4988 0.9488
-8.1149 -10.0439 -2.4988 0.9488
-7.1886 -10.7262 -2.4988 0.9488
-6.2054 -11.3234 -2.4987 0.9488
-5.1729 -11.8306 -2.4987 0.9488
-2.9932 -12.5601 -2.4987 0.9488
-1.8634 -12.7765 -2.4986 0.9488
3.8252 -12.3312 -2.4985 0.9488
6.9469 -10.8821 -2.4984 0.9488
8.7661 -9.4778 -2.4984 0.9488
10.9583 -6.8249 -2.4983 0.9488
11.5222 -5.8224 -2.4983 0.9488
12.8294 -1.4352 -2.4982 0.9488
11.9748 1.8830 -2.3458 0.9518
11.7597 2.9413 -2.3458 0.9518
11.4512 3.9763 -2.3458 0.9518
11.0519 4.9798 -2.3458 0.9518
10.5648 5.9437 -2.3458 0.9518
9.9939 6.8604 -2.3458 0.9518
8.6193 8.5238 -2.3459 0.9518
6.9715 9.9171 -2.3459 0.9518
6.0612 10.4983 -2.3459 0.9518
5.1028 10.9963 -2.3459 0.9518
4.1039 11.4069 -2.3459 0.9518
3.0723 11.7270 -2.3460 0.9518
2.0164 11.9540 -2.3460 0.9518
-0.1351 12.1224 -2.3461 0.9518
-1.2135 12.0625 -2.3461 0.9518
-2.2823 11.9067 -2.3461 0.9518
-3.3331 11.6564 -2.3461 0.9518
-4.3574 11.3137 -2.3462 0.9518
-5.3471 10.8811 -2.3462 0.9518
-6.2944 10.3621 -2.3462 0.9518
-10.1465 6.6375 -2.3463 0.9518
-10.6971 5.7081 -2.3464 0.9518
-11.8879 5.0409 -2.4988 0.9488
-12.5934 2.8533 -2.4988 0.9488
-12.9000 -0.5752 -2.4989 0.9488
-12.5936 -2.8533 -2.4989 0.9488
-11.8881 -5.0410 -2.4989 0.9488
-10.8059 -7.0689 -2.4988 0.9488
-10.1338 -8.0026 -2.4988 0.9488
-9.3813 -8.8727 -2.4988 0.9488
-5.6948 -11.5885 -2.4987 0.9488
-2.4307 -12.6809 -2.4987 0.9488
-1.2924 -12.8468 -2.4986 0.9488
-0.1438 -12.9107 -2.4986 0.9488
2.1475 -12.7313 -2.4985 0.9488
5.4346 -11.7112 -2.4985 0.9488
6.4553 -11.1808 -2.4984 0.9488
8.3352 -9.8589 -2.4984 0.9488
9.1796 -9.0778 -2.4983 0.9488
11.7701 -5.3033 -2.4983 0.9488
12.1953 -4.2346 -2.4982 0.9488
12.5237 -3.1323 -2.4982 0.9488
12.8806 -0.8622 -2.4982 0.9488
11.8790 2.4145 -2.3458 0.9518
11.2627 4.4825 -2.3458 0.9518
10.2896 6.4084 -2.3458 0.9518
8.9904 8.1314 -2.3458 0.9518
8.2310 8.8993 -2.3459 0.9518
6.5228 10.2179 -2.3459 0.9518
5.5876 10.7580 -2.3459 0.9518
4.6079 11.2127 -2.3459 0.9518
-1.7496 11.9965 -2.3461 0.9518
-2.8105 11.7933 -2.3461 0.9518
-3.8490 11.4965 -2.3461 0.9518
-5.8265 10.6322 -2.3462 0.9518
-6.7498 10.0714 -2.3462 0.9518
-8.4288 8.7153 -2.3463 0.9518
-9.1711 7.9306 -2.3463 0.9518
-9.8407 7.0829 -2.3463 0.9518
-12.1007 4.5063 -2.4988 0.9488
-12.7081 2.2895 -2.4988 0.9488
-12.8615 1.1493 -2.4988 0.9488
-11.8059 -1.0550 -2.4988 0.9527
-11.6651 -2.1015 -2.4988 0.9527
-11.4318 -3.1315 -2.4988 0.9527
-10.6954 -5.1087 -2.4988 0.9527
-9.6201 -6.9241 -2.4988 0.9527
-7.4488 -9.2195 -2.4988 0.9527
-6.5986 -9.8458 -2.4987 0.9527
-4.7483 -10.8596 -2.4987 0.9527
-1.7105 -11.7279 -2.4986 0.9527
-0.6598 -11.8335 -2.4986 0.9527
0.3960 -11.8451 -2.4986 0.9527
1.4487 -11.7627 -2.4986 0.9527
2.4899 -11.5869 -2.4985 0.9527
3.5113 -11.3192 -2.4985 0.9527
4.5048 -10.9617 -2.4985 0.9527
5.4625 -10.5171 -2.4984 0.9527
6.3768 -9.9891 -2.4984 0.9527
7.2405 -9.3818 -2.4984 0.9527
10.5767 -5.3446 -2.4983 0.9527
11.0103 -4.3820 -2.4983 0.9527
11.3566 -3.3846 -2.4983 0.9527
11.8471 -0.2639 -2.4982 0.9527
11.8235 0.7915 -2.4982 0.9527
9.1738 6.2975 -2.3458 0.9555
7.1842 8.4976 -2.3459 0.9555
5.5638 9.6368 -2.3459 0.9555
2.8202 10.7647 -2.3460 0.9555
-0.1240 11.1276 -2.3461 0.9555
-1.1139 11.0726 -2.3461 0.9555
-2.0950 10.9295 -2.3461 0.9555
-3.0595 10.6998 -2.3461 0.9555
-7.3729 8.3367 -2.3463 0.9555
-8.0857 7.6474 -2.3463 0.9555
-8.7344 6.8975 -2.3463 0.9555
-10.0861 5.3822 -2.4102 0.9543
-11.2807 3.6376 -2.4988 0.9527
-11.7471 1.5799 -2.4988 0.9527
-11.7472 -1.5798 -2.4988 0.9527
-11.5599 -2.6191 -2.4988 0.9527
-11.2809 -3.6376 -2.4988 0.9527
-10.4572 -5.5801 -2.4988 0.9527
-8.6113 -8.1445 -2.4988 0.9527
-7.8522 -8.8785 -2.4988 0.9527
-5.2274 -10.6374 -2.4987 0.9527
0.9233 -11.8156 -2.4986 0.9527
4.9886 -10.7501 -2.4985 0.9527
5.9255 -10.2633 -2.4984 0.9527
6.8154 -9.6950 -2.4984 0.9527
9.1344 -7.5497 -2.4983 0.9527
10.3281 -5.8104 -2.4983 0.9527
11.1945 -3.8871 -2.4983 0.9527
11.8471 0.2640 -2.4982 0.9527
10.9042 2.2164 -2.3458 0.9555
10.6637 3.1781 -2.3458 0.9555
10.3385 4.1147 -2.3458 0.9555
8.5663 4.3287 -2.0234 0.9615
9.4452 5.8825 -2.3458 0.9555
8.8842 6.6999 -2.3459 0.9555
8.2526 7.4641 -2.3459 0.9555
6.7985 8.8092 -2.3459 0.9555
5.9875 9.3794 -2.3459 0.9555
4.2298 10.2926 -2.3460 0.9555
2.3379 10.8796 -2.3460 0.9555
0.3718 11.1220 -2.3460 0.9555
-2.5798 10.8254 -2.3461 0.9555
-4.4584 10.1967 -2.3462 0.9555
-5.3484 9.7596 -2.3462 0.9555
-6.1958 9.2449 -2.3462 0.9555
-6.9942 8.6568 -2.3462 0.9555
-8.4184 7.2797 -2.3463 0.9555
-9.0330 6.5016 -2.3463 0.9555
-9.5759 5.6719 -2.3463 0.9555
-11.4316 3.1315 -2.4988 0.9527
-11.6650 2.1016 -2.4988 0.9527
-10.9480 0.0000 -2.4988 0.9561
-10.9045 -0.9744 -2.4988 0.9561
-10.7745 -1.9411 -2.4988 0.9561
-10.5590 -2.8924 -2.4988 0.9561
-10.2596 -3.8207 -2.4988 0.9561
-9.8788 -4.7187 -2.4988 0.9561
-8.8856 -6.3954 -2.4988 0.9561
-7.6108 -7.8695 -2.4988 0.9561
-3.4756 -10.3810 -2.4987 0.9561
2.2998 -10.7024 -2.4985 0.9561
3.2432 -10.4552 -2.4985 0.9561
4.1609 -10.1249 -2.4985 0.9561
10.7263 -2.1802 -2.4983 0.9561
10.8777 -1.2168 -2.4983 0.9561
9.7092 3.3714 -2.3459 0.9587
9.3706 4.2222 -2.3459 0.9587
7.9222 6.5479 -2.3459 0.9587
7.3080 7.2271 -2.3459 0.9587
5.9109 8.4084 -2.3459 0.9587
5.1391 8.9012 -2.3459 0.9587
4.3265 9.3234 -2.3460 0.9587
2.6049 9.9429 -2.3460 0.9587
1.7096 10.1354 -2.3460 0.9587
0.8007 10.2475 -2.3460 0.9587
-0.1145 10.2782 -2.3461 0.9587
-1.0289 10.2273 -2.3461 0.9587
-1.9351 10.0952 -2.3461 0.9587
-4.5336 9.2256 -2.3462 0.9587
-5.3367 8.7855 -2.3462 0.9587
-6.0976 8.2757 -2.3462 0.9587
-7.4684 7.0636 -2.3463 0.9587
-8.0675 6.3709 -2.3463 0.9587
-10.4195 3.3599 -2.4988 0.9561
-10.8502 1.4593 -2.4988 0.9561
-10.9371 0.4877 -2.4988 0.9561
-10.8503 -1.4592 -2.4988 0.9561
-10.6774 -2.4191 -2.4988 0.9561
-10.0792 -4.2739 -2.4988 0.9561
-9.6588 -5.1541 -2.4988 0.9561
-9.1617 -5.9933 -2.4988 0.9561
-8.5919 -6.7849 -2.4988 0.9561
-5.6837 -9.3566 -2.4987 0.9561
-4.8283 -9.8253 -2.4987 0.9561
-3.0097 -10.5255 -2.4987 0.9561
-2.0609 -10.7515 -2.4986 0.9561
-1.0958 -10.8921 -2.4986 0.9561
-0.1219 -10.9463 -2.4986 0.9561
1.8208 -10.7943 -2.4985 0.9561
2.7743 -10.5893 -2.4985 0.9561
6.2952 -8.9550 -2.4984 0.9561
9.0243 -6.1947 -2.4983 0.9561
9.5397 -5.3670 -2.4983 0.9561
10.3401 -3.5904 -2.4983 0.9561
10.8127 -1.7002 -2.4983 0.9561
10.9428 0.2439 -2.4982 0.9561
9.8497 2.9356 -2.3459 0.9587
6.9789 7.5455 -2.3459 0.9587
4.7375 9.1214 -2.3459 0.9587
3.9069 9.5069 -2.3460 0.9587
3.0453 9.8170 -2.3460 0.9587
-0.5723 10.2629 -2.3461 0.9587
-2.3829 9.9990 -2.3461 0.9587
-4.1181 9.4183 -2.3462 0.9587
-5.7228 8.5391 -2.3462 0.9587
-7.7757 6.7239 -2.3463 0.9587
-8.3434 6.0052 -2.3463 0.9587
-8.8448 5.2388 -2.3463 0.9587
-10.2594 3.8207 -2.4988 0.9561
-10.5588 2.8924 -2.4988 0.9561
-10.1256 -0.9048 -2.4988 0.9590
-10.0049 -1.8024 -2.4988 0.9590
-9.8047 -2.6858 -2.4988 0.9590
-9.5268 -3.5478 -2.4988 0.9590
-9.1732 -4.3816 -2.4988 0.9590
-7.6896 -6.6494 -2.4988 0.9590
-3.2273 -9.6395 -2.4987 0.9590
-2.3565 -9.8884 -2.4986 0.9590
-1.4670 -10.0588 -2.4986 0.9590
-0.5659 -10.1494 -2.4986 0.9590
1.2426 -10.0887 -2.4986 0.9590
2.1355 -9.9380 -2.4985 0.9590
3.0116 -9.7084 -2.4985 0.9590
3.8637 -9.4017 -2.4985 0.9590
4.6851 -9.0204 -2.4985 0.9590
5.4694 -8.5675 -2.4984 0.9590
6.2101 -8.0467 -2.4984 0.9590
6.9016 -7.4620 -2.4984 0.9590
8.1152 -6.1199 -2.4984 0.9590
8.6277 -5.3733 -2.4983 0.9590
10.1009 -1.1299 -2.4983 0.9590
10.1613 -0.2264 -2.4983 0.9590
9.0158 3.1307 -2.3459 0.9615
8.3179 4.6796 -2.3459 0.9615
7.3564 6.0803 -2.3459 0.9615
3.2310 8.9808 -2.3460 0.9614
2.4189 9.2328 -2.3460 0.9614
-0.1063 9.5441 -2.3461 0.9614
-0.9554 9.4968 -2.3461 0.9614
-1.7969 9.3742 -2.3461 0.9614
-2.6241 9.1771 -2.3461 0.9614
-4.9556 8.1580 -2.3462 0.9614
-5.6620 7.6846 -2.3462 0.9614
-6.3236 7.1502 -2.3462 0.9614
-6.9350 6.5591 -2.3463 0.9614
-10.0752 1.3550 -2.4988 0.9590
-10.0752 -1.3550 -2.4988 0.9590
-9.9146 -2.2463 -2.4988 0.9590
-9.6754 -3.1199 -2.4988 0.9590
-8.9689 -4.7859 -2.4988 0.9590
-7.9781 -6.3002 -2.4988 0.9590
-6.7346 -7.6149 -2.4987 0.9590
-3.6536 -9.4862 -2.4987 0.9590
-1.9137 -9.9835 -2.4986 0.9590
-1.0175 -10.1141 -2.4986 0.9590
-0.1132 -10.1645 -2.4986 0.9590
1.6907 -10.0233 -2.4985 0.9590
2.5761 -9.8329 -2.4985 0.9590
3.4411 -9.5646 -2.4985 0.9590
4.2787 -9.2202 -2.4985 0.9590
6.5624 -7.7620 -2.4984 0.9590
7.8346 -6.4754 -2.4984 0.9590
8.3797 -5.7523 -2.4983 0.9590
9.6016 -3.3340 -2.4983 0.9590
9.8602 -2.4662 -2.4983 0.9590
10.0405 -1.5788 -2.4983 0.9590
10.1411 -0.6788 -2.4983 0.9590
8.4754 4.2828 -2.3341 0.9616
8.1012 5.0455 -2.3459 0.9615
7.6200 5.7465 -2.3459 0.9615
6.4804 7.0066 -2.3459 0.9615
5.1355 8.0447 -2.3459 0.9614
3.6279 8.8279 -2.3460 0.9614
2.0052 9.3314 -2.3460 0.9614
0.3189 9.5393 -2.3461 0.9614
-5.3141 7.9292 -2.3462 0.9614
-9.1730 4.3816 -2.4987 0.9590
-9.8046 2.6858 -2.4988 0.9590
-10.1255 0.9048 -2.4988 0.9590
-9.4830 0.0000 -2.4988 0.9615
-9.4453 -0.8440 -2.4988 0.9615
-8.8867 -3.3094 -2.4988 0.9615
-8.1591 -4.8326 -2.4988 0.9615
-7.6966 -5.5396 -2.4988 0.9615
-7.1730 -6.2027 -2.4987 0.9615
-5.9595 -7.3761 -2.4987 0.9615
-5.2793 -7.8772 -2.4987 0.9615
-4.5572 -8.3158 -2.4987 0.9615
-3.7989 -8.6883 -2.4987 0.9615
-1.3685 -9.3831 -2.4986 0.9615
3.6042 -8.7702 -2.4985 0.9615
5.1020 -7.9921 -2.4984 0.9615
7.5701 -5.7088 -2.4984 0.9615
8.0481 -5.0124 -2.4983 0.9615
9.4788 -0.2112 -2.4983 0.9615
9.4600 0.6333 -2.4983 0.9615
8.1169 3.6573 -2.3459 0.9638
7.7592 4.3653 -2.3459 0.9638
7.3399 5.0386 -2.3459 0.9638
6.8623 5.6719 -2.3459 0.9638
6.3303 6.2602 -2.3459 0.9638
3.7476 8.0760 -2.3460 0.9638
3.0140 8.3776 -2.3460 0.9638
0.6936 8.8764 -2.3460 0.9638
-0.8912 8.8589 -2.3461 0.9638
-2.4478 8.5607 -2.3461 0.9638
-3.9270 7.9911 -2.3462 0.9638
-4.6227 7.6100 -2.3462 0.9638
-5.8988 6.6699 -2.3462 0.9638
-6.4691 6.1185 -2.3462 0.9638
-6.9880 5.5184 -2.3463 0.9638
-7.5381 4.9312 -2.3735 0.9634
-9.0252 2.9103 -2.4987 0.9615
-9.2485 2.0955 -2.4987 0.9615
-9.3983 1.2640 -2.4988 0.9615
-9.4735 0.4225 -2.4988 0.9615
-9.4736 -0.4224 -2.4988 0.9615
-8.7305 -3.7020 -2.4988 0.9615
-8.3663 -4.4644 -2.4988 0.9615
-7.9357 -5.1913 -2.4988 0.9615
-7.4422 -5.8770 -2.4987 0.9615
-6.8895 -6.5160 -2.4987 0.9615
-5.6250 -7.6343 -2.4987 0.9615
-3.4081 -8.8489 -2.4987 0.9615
-1.7851 -9.3129 -2.4986 0.9615
-0.9491 -9.4347 -2.4986 0.9615
0.7387 -9.4534 -2.4986 0.9615
3.2099 -8.9221 -2.4985 0.9615
4.7409 -8.2114 -2.4985 0.9615
5.4529 -7.7568 -2.4984 0.9615
6.7417 -6.6670 -2.4984 0.9615
7.3083 -6.0404 -2.4984 0.9615
8.2634 -4.6489 -2.4983 0.9615
8.6443 -3.8949 -2.4983 0.9615
8.9567 -3.1100 -2.4983 0.9615
9.3661 -1.4727 -2.4983 0.9615
8.5320 2.5428 -2.3459 0.9638
8.2718 3.2921 -2.3459 0.9638
7.9459 4.0153 -2.3459 0.9638
7.5570 4.7066 -2.3459 0.9638
7.1082 5.3606 -2.3459 0.9638
6.0452 6.5360 -2.3459 0.9638
4.1037 7.9010 -2.3460 0.9638
3.3842 8.2350 -2.3460 0.9638
2.6378 8.5035 -2.3460 0.9638
1.0883 8.8366 -2.3460 0.9638
-0.4957 8.8897 -2.3461 0.9638
-2.8268 8.4431 -2.3461 0.9638
-3.5671 8.1581 -2.3462 0.9638
-4.2791 7.8083 -2.3462 0.9638
-6.1901 6.4005 -2.3462 0.9638
-7.2270 5.2017 -2.3463 0.9638
-8.1589 4.8326 -2.4987 0.9615
-8.8866 3.3094 -2.4987 0.9615
-9.4453 0.8441 -2.4988 0.9615
-5.0319 0.0000 -1.4157 0.9793
-3.7284 -0.6717 -1.0659 0.9844
-3.7904 -1.0383 -1.1057 0.9838
-8.3227 -3.0994 -2.4988 0.9638
-7.6413 -4.5259 -2.4987 0.9638
-6.1740 -6.3838 -2.4987 0.9638
-5.5812 -6.9080 -2.4987 0.9638
-4.9442 -7.3773 -2.4987 0.9638
-4.2680 -7.7880 -2.4987 0.9638
-3.5578 -8.1369 -2.4987 0.9638
-2.8194 -8.4212 -2.4986 0.9638
-2.0587 -8.6387 -2.4986 0.9638
-1.2816 -8.7876 -2.4986 0.9638
1.8657 -8.6821 -2.4985 0.9638
2.6310 -8.4815 -2.4985 0.9638
3.3754 -8.2136 -2.4985 0.9638
4.0931 -7.8805 -2.4985 0.9638
4.7782 -7.4848 -2.4984 0.9638
6.0295 -6.5190 -2.4984 0.9638
7.0897 -5.3465 -2.4984 0.9638
8.5097 -2.5361 -2.4983 0.9638
8.7016 -1.7686 -2.4983 0.9638
8.8773 -0.1978 -2.4983 0.9638
12.9237 3.2325 -3.7482 0.9461
7.2668 4.0883 -2.3459 0.9659
6.4268 5.3120 -2.3459 0.9659
5.3832 6.3674 -2.3459 0.9659
4.7952 6.8213 -2.3460 0.9659
4.1690 7.2210 -2.3460 0.9659
3.5098 7.5635 -2.3460 0.9659
2.1132 8.0661 -2.3460 0.9659
1.3869 8.2222 -2.3460 0.9659
0.6496 8.3131 -2.3461 0.9659
-0.0929 8.3379 -2.3461 0.9659
-0.8346 8.2967 -2.3461 0.9659
-2.2925 8.0174 -2.3461 0.9659
-2.9970 7.7816 -2.3461 0.9659
-4.3293 7.1270 -2.3462 0.9659
-5.5244 6.2466 -2.3462 0.9659
-6.5445 5.1682 -2.3463 0.9659
-7.8352 4.1810 -2.4987 0.9638
-8.1762 3.4671 -2.4987 0.9638
-8.4524 2.7256 -2.4987 0.9638
-8.6615 1.9625 -2.4987 0.9638
-8.8723 0.3956 -2.4987 0.9638
-4.2110 -0.1878 -1.1860 0.9826
-3.7396 -0.5029 -1.0616 0.9844
-3.7659 -0.8532 -1.0864 0.9841
-8.4525 -2.7255 -2.4988 0.9638
-8.1764 -3.4671 -2.4988 0.9638
-6.4522 -6.1025 -2.4987 0.9638
-5.8835 -6.6525 -2.4987 0.9638
-5.2680 -7.1497 -2.4987 0.9638
-3.9168 -7.9704 -2.4987 0.9638
-2.4415 -8.5384 -2.4986 0.9638
-1.6718 -8.7218 -2.4986 0.9638
-0.0989 -8.8799 -2.4986 0.9638
0.6918 -8.8534 -2.4986 0.9638
1.4771 -8.7566 -2.4985 0.9638
3.7380 -8.0550 -2.4985 0.9638
5.1068 -7.2646 -2.4984 0.9638
7.7390 -4.3538 -2.4984 0.9638
8.3883 -2.9127 -2.4983 0.9638
8.6142 -2.1545 -2.4983 0.9638
8.7717 -1.3792 -2.4983 0.9638
8.8597 -0.5930 -2.4983 0.9638
8.8773 0.1979 -2.4983 0.9638
7.9905 2.3815 -2.3459 0.9659
7.7469 3.0832 -2.3459 0.9659
7.4417 3.7605 -2.3459 0.9659
5.0943 6.6009 -2.3460 0.9659
4.4866 7.0281 -2.3460 0.9659
3.1694 7.7123 -2.3460 0.9659
2.4704 7.9639 -2.3460 0.9659
1.7518 8.1522 -2.3460 0.9659
1.0193 8.2758 -2.3460 0.9659
-0.4642 8.3256 -2.3461 0.9659
-2.6474 7.9073 -2.3461 0.9659
-4.0075 7.3127 -2.3462 0.9659
-4.6425 6.9271 -2.3462 0.9659
-5.7972 5.9943 -2.3462 0.9659
-6.3078 5.4546 -2.3462 0.9659
-6.7683 4.8715 -2.3463 0.9659
-8.5654 2.3463 -2.4987 0.9638
-3.5918 -0.3210 -1.0796 0.9851
-3.4798 -0.6269 -1.0586 0.9853
-3.4925 -0.9567 -1.0841 0.9850
-7.8216 -2.9128 -2.4987 0.9658
-7.5313 -3.5974 -2.4987 0.9658
-7.1812 -4.2534 -2.4987 0.9658
-6.3133 -5.4592 -2.4987 0.9658
-5.8022 -5.9995 -2.4987 0.9658
-4.6465 -6.9331 -2.4987 0.9658
0.2789 -8.3411 -2.4986 0.9658
2.4726 -7.9708 -2.4985 0.9658
3.1722 -7.7191 -2.4985 0.9658
3.8466 -7.4061 -2.4985 0.9658
4.4905 -7.0342 -2.4985 0.9658
5.0988 -6.6066 -2.4984 0.9658
6.1893 -5.5978 -2.4984 0.9658
7.0836 -4.4117 -2.4984 0.9658
7.7535 -3.0858 -2.4983 0.9658
8.1778 -1.6622 -2.4983 0.9658
8.3429 -0.1859 -2.4983 0.9658
8.2436 1.2963 -2.4983 0.9658
12.1457 3.0378 -3.7482 0.9491
7.4023 2.5704 -2.3459 0.9678
6.8294 3.8422 -2.3459 0.9678
6.4603 4.4348 -2.3459 0.9678
5.5717 5.5100 -2.3459 0.9678
5.0592 5.9841 -2.3460 0.9678
3.9181 6.7863 -2.3460 0.9678
2.6528 7.3736 -2.3460 0.9678
1.9860 7.5805 -2.3460 0.9678
0.6105 7.8126 -2.3461 0.9678
-0.0873 7.8360 -2.3461 0.9678
-1.4753 7.6965 -2.3461 0.9678
-2.1545 7.5347 -2.3461 0.9678
-2.8166 7.3131 -2.3461 0.9678
-5.1918 5.8705 -2.3462 0.9678
-5.6937 5.3851 -2.3462 0.9678
-6.9844 4.5690 -2.4987 0.9658
-7.9435 2.5615 -2.4987 0.9658
-8.1400 1.8443 -2.4987 0.9658
-8.2718 1.1125 -2.4987 0.9658
-4.8506 0.2163 -1.4536 0.9799
-3.6646 -0.1634 -1.0982 0.9848
-3.5144 -0.4726 -1.0616 0.9853
-3.4642 -0.7849 -1.0634 0.9853
-7.9436 -2.5614 -2.4987 0.9658
-7.6841 -3.2583 -2.4987 0.9658
-7.3636 -3.9293 -2.4987 0.9658
-6.9846 -4.5691 -2.4987 0.9658
-6.5502 -5.1726 -2.4987 0.9658
-4.9508 -6.7193 -2.4987 0.9658
-4.3331 -7.1332 -2.4987 0.9658
-3.6810 -7.4905 -2.4987 0.9658
-2.9996 -7.7883 -2.4986 0.9658
-2.2945 -8.0244 -2.4986 0.9658
-1.5712 -8.1967 -2.4986 0.9658
-0.8354 -8.3039 -2.4986 0.9658
-0.0930 -8.3453 -2.4986 0.9658
1.3881 -8.2294 -2.4985 0.9658
2.8252 -7.8528 -2.4985 0.9658
3.5129 -7.5701 -2.4985 0.9658
6.8801 -4.7229 -2.4984 0.9658
7.2731 -4.0918 -2.4984 0.9658
7.8833 -2.7374 -2.4983 0.9658
8.0956 -2.0248 -2.4983 0.9658
8.3263 -0.5573 -2.4983 0.9658
8.2932 0.9278 -2.4983 0.9658
12.2690 2.4937 -3.7482 0.9491
11.9983 3.5759 -3.7482 0.9491
7.2805 2.8976 -2.3459 0.9678
6.9937 3.5341 -2.3459 0.9678
5.3207 5.7527 -2.3460 0.9678
4.2165 6.6050 -2.3460 0.9678
2.9786 7.2481 -2.3460 0.9678
0.9579 7.7776 -2.3460 0.9678
0.2619 7.8321 -2.3461 0.9678
-0.4363 7.8243 -2.3461 0.9678
-1.1310 7.7545 -2.3461 0.9678
-1.8167 7.6231 -2.3461 0.9678
-2.4880 7.4313 -2.3461 0.9678
-3.1395 7.1804 -2.3462 0.9678
-3.7662 6.8725 -2.3462 0.9678
-4.3630 6.5101 -2.3462 0.9678
-4.9251 6.0959 -2.3462 0.9678
-5.4482 5.6334 -2.3462 0.9678
-6.6012 4.7513 -2.4350 0.9666
-7.1811 4.2534 -2.4987 0.9658
-8.0497 2.2051 -2.4987 0.9658
-8.2141 1.4799 -2.4987 0.9658
-7.0996 -3.3912 -2.4987 0.9675
-6.7695 -4.0096 -2.4987 0.9675
-6.3858 -4.5962 -2.4987 0.9675
-5.4696 -5.6555 -2.4987 0.9675
-4.9445 -6.1199 -2.4987 0.9675
-4.3802 -6.5357 -2.4987 0.9675
-3.1519 -7.2087 -2.4986 0.9675
-1.8239 -7.6532 -2.4986 0.9675
-1.1354 -7.7851 -2.4986 0.9675
0.2629 -7.8629 -2.4986 0.9675
0.9617 -7.8083 -2.4985 0.9675
1.6528 -7.6917 -2.4985 0.9675
2.3309 -7.5140 -2.4985 0.9675
4.8065 -6.2279 -2.4984 0.9675
6.2810 -4.7367 -2.4984 0.9675
7.7090 -1.5669 -2.4983 0.9675
11.4496 2.8637 -3.7482 0.9517
6.7347 3.0346 -2.3459 0.9695
6.4379 3.6220 -2.3459 0.9695
6.0900 4.1806 -2.3459 0.9695
5.6937 4.7060 -2.3459 0.9695
5.2523 5.1941 -2.3460 0.9695
4.7692 5.6411 -2.3460 0.9695
4.2482 6.0432 -2.3460 0.9695
3.6935 6.3974 -2.3460 0.9695
3.1095 6.7007 -2.3460 0.9695
1.2287 7.2843 -2.3460 0.9695
0.5755 7.3648 -2.3461 0.9695
-0.0823 7.3868 -2.3461 0.9695
-1.3907 7.2553 -2.3461 0.9695
-2.0310 7.1028 -2.3461 0.9695
-2.6551 6.8939 -2.3461 0.9695
-3.2582 6.6302 -2.3462 0.9695
-4.8942 5.5340 -2.3462 0.9695
-6.9413 3.7041 -2.4987 0.9675
-7.4881 2.4146 -2.4987 0.9675
-7.7977 1.0487 -2.4987 0.9675
-4.3818 0.1954 -1.3930 0.9818
-3.4557 -0.1541 -1.0986 0.9856
-3.3189 -0.4463 -1.0635 0.9860
-3.2591 -0.7384 -1.0613 0.9861
-3.2827 -1.0586 -1.0954 0.9856
-6.5842 -4.3071 -2.4987 0.9675
-6.1747 -4.8761 -2.4987 0.9675
-5.7162 -5.4063 -2.4987 0.9675
-5.2123 -5.8936 -2.4987 0.9675
-4.6670 -6.3341 -2.4987 0.9675
-4.0847 -6.7243 -2.4987 0.9675
-3.4700 -7.0611 -2.4987 0.9675
-1.4811 -7.7268 -2.4986 0.9675
4.5243 -6.4359 -2.4984 0.9675
5.0792 -6.0076 -2.4984 0.9675
5.5937 -5.5317 -2.4984 0.9675
6.0638 -5.0118 -2.4984 0.9675
6.8562 -3.8572 -2.4984 0.9675
7.4314 -2.5804 -2.4983 0.9675
7.6316 -1.9087 -2.4983 0.9675
7.8647 0.1753 -2.4983 0.9675
7.7090 1.5669 -2.4983 0.9675
6.8632 2.7315 -2.3459 0.9695
6.5929 3.3316 -2.3459 0.9695
5.8977 4.4477 -2.3459 0.9695
5.4785 4.9550 -2.3460 0.9695
5.0157 5.4230 -2.3460 0.9695
4.5132 5.8479 -2.3460 0.9695
3.9748 6.2264 -2.3460 0.9695
3.4048 6.5555 -2.3460 0.9695
2.8079 6.8326 -2.3460 0.9695
2.1886 7.0554 -2.3460 0.9695
1.5520 7.2223 -2.3460 0.9695
0.9030 7.3318 -2.3461 0.9695
-1.0661 7.3100 -2.3461 0.9695
-4.6428 5.7465 -2.3462 0.9695
-5.5882 4.8323 -2.3462 0.9695
-6.3856 4.5961 -2.4987 0.9675
-7.7432 1.3950 -2.4987 0.9675
-7.8367 0.7003 -2.4987 0.9675
-3.6184 0.0000 -1.2157 0.9848
-3.2019 -0.2861 -1.0801 0.9865
-3.1349 -0.8587 -1.0921 0.9864
-6.9694 -2.5954 -2.4987 0.9691
-6.3988 -3.7900 -2.4987 0.9691
-4.6738 -5.7847 -2.4987 0.9691
-2.3610 -7.0520 -2.4986 0.9691
-1.7240 -7.2341 -2.4986 0.9691
-1.0733 -7.3588 -2.4986 0.9691
0.2485 -7.4324 -2.4986 0.9691
1.5623 -7.2705 -2.4985 0.9691
2.8266 -6.8782 -2.4985 0.9691
3.4276 -6.5993 -2.4985 0.9691
4.0013 -6.2679 -2.4985 0.9691
5.9371 -4.4773 -2.4984 0.9691
6.3120 -3.9311 -2.4984 0.9691
6.9089 -2.7496 -2.4984 0.9691
7.3898 -0.8266 -2.4983 0.9691
7.4341 -0.1656 -2.4983 0.9691
7.4193 0.4967 -2.4983 0.9691
7.2137 1.8043 -2.4983 0.9691
10.5388 3.6594 -3.7482 0.9540
6.3660 2.8684 -2.3459 0.9710
6.0854 3.4236 -2.3459 0.9710
5.3820 4.4484 -2.3460 0.9710
3.4912 6.0470 -2.3460 0.9710
0.5440 6.9615 -2.3461 0.9710
-0.0778 6.9824 -2.3461 0.9710
-1.9198 6.7138 -2.3461 0.9710
-2.5097 6.5164 -2.3461 0.9710
-3.0798 6.2672 -2.3462 0.9710
-3.6254 5.9683 -2.3462 0.9710
-4.1422 5.6219 -2.3462 0.9710
-4.6262 5.2309 -2.3462 0.9710
-5.0734 4.7984 -2.3462 0.9710
-5.8260 4.6008 -2.4942 0.9692
-6.5612 3.5012 -2.4987 0.9691
-6.8468 2.9034 -2.4987 0.9691
-7.0781 2.2824 -2.4987 0.9691
-3.2675 -0.1457 -1.0989 0.9863
-3.1639 -0.4255 -1.0726 0.9866
-6.8469 -2.9033 -2.4987 0.9691
-6.5613 -3.5012 -2.4987 0.9691
-5.8365 -4.6090 -2.4987 0.9691
-5.4031 -5.1102 -2.4987 0.9691
-4.9268 -5.5708 -2.4987 0.9691
-3.8610 -6.3561 -2.4987 0.9691
-2.6728 -6.9399 -2.4986 0.9691
0.5793 -7.4140 -2.4986 0.9691
1.2369 -7.3329 -2.4985 0.9691
1.8847 -7.1936 -2.4985 0.9691
3.1302 -6.7454 -2.4985 0.9691
3.7182 -6.4400 -2.4985 0.9691
4.8010 -5.6787 -2.4984 0.9691
5.7317 -4.7374 -2.4984 0.9691
6.4808 -3.6460 -2.4984 0.9691
6.7796 -3.0547 -2.4984 0.9691
7.0246 -2.4392 -2.4984 0.9691
7.3457 -1.1550 -2.4983 0.9691
7.4193 -0.4966 -2.4983 0.9691
7.3898 0.8267 -2.4983 0.9691
6.4874 2.5820 -2.3459 0.9710
5.9269 3.6913 -2.3459 0.9710
4.7411 5.1261 -2.3460 0.9710
4.2661 5.5277 -2.3460 0.9710
3.7572 5.8855 -2.3460 0.9710
3.2184 6.1966 -2.3460 0.9710
2.0688 6.6691 -2.3460 0.9710
-2.7975 6.3981 -2.3462 0.9710
-3.3559 6.1238 -2.3462 0.9710
-4.8546 5.0197 -2.3462 0.9710
-6.0360 4.3444 -2.4986 0.9691
-6.7107 3.2054 -2.4987 0.9691
-3.4902 0.0000 -1.2376 0.9853
-3.0930 -0.2764 -1.1011 0.9869
-3.0442 -0.5484 -1.0968 0.9870
-3.0229 -0.8281 -1.1114 0.9868
-3.0314 -1.1289 -1.1470 0.9864
-5.7194 -4.1165 -2.4987 0.9705
-5.3303 -4.6092 -2.4987 0.9705
-4.8988 -5.0653 -2.4987 0.9705
-3.9231 -5.8536 -2.4987 0.9705
-2.8230 -6.4564 -2.4986 0.9705
-2.2371 -6.6820 -2.4986 0.9705
-1.0169 -6.9727 -2.4986 0.9705
-0.3923 -7.0355 -2.4986 0.9705
0.8613 -6.9935 -2.4985 0.9705
2.6783 -6.5173 -2.4985 0.9705
3.2478 -6.2530 -2.4985 0.9705
4.3049 -5.5780 -2.4984 0.9705
5.2257 -4.7263 -2.4984 0.9705
5.9808 -3.7249 -2.4984 0.9705
6.2886 -3.1778 -2.4984 0.9705
6.5465 -2.6054 -2.4984 0.9705
7.0021 -0.7833 -2.4983 0.9705
7.0301 0.4706 -2.4983 0.9705
6.8352 1.7096 -2.4983 0.9705
6.0320 2.7179 -2.3460 0.9723
5.4546 3.7444 -2.3460 0.9723
4.2715 5.0524 -2.3460 0.9723
3.8049 5.4126 -2.3460 0.9723
2.2398 6.2256 -2.3460 0.9723
1.1005 6.5242 -2.3461 0.9723
-0.6623 6.5832 -2.3461 0.9723
-2.3780 6.1745 -2.3461 0.9723
-4.8072 4.5467 -2.3462 0.9723
-5.5302 4.3672 -2.4986 0.9705
-5.8970 3.8577 -2.4986 0.9705
-6.2169 3.3175 -2.4987 0.9705
-6.7067 2.1627 -2.4987 0.9705
-6.8726 1.5571 -2.4987 0.9705
-6.9839 0.9393 -2.4987 0.9705
-3.9464 0.1760 -1.4007 0.9834
-3.1623 -0.1410 -1.1224 0.9867
-3.0595 -0.4115 -1.0946 0.9870
-3.0241 -0.6852 -1.0995 0.9869
-3.0191 -0.9735 -1.1248 0.9866
-6.2170 -3.3175 -2.4987 0.9705
-5.8971 -3.8577 -2.4987 0.9705
-5.1196 -4.8421 -2.4987 0.9705
-4.1799 -5.6730 -2.4987 0.9705
-3.6584 -6.0225 -2.4987 0.9705
-0.0785 -7.0459 -2.4986 0.9705
0.5489 -7.0249 -2.4986 0.9705
1.1720 -6.9481 -2.4985 0.9705
2.3854 -6.6302 -2.4985 0.9705
2.9660 -6.3915 -2.4985 0.9705
4.5491 -5.3807 -2.4984 0.9705
5.4310 -4.4888 -2.4984 0.9705
6.1408 -3.4547 -2.4984 0.9705
6.4239 -2.8945 -2.4984 0.9705
6.8353 -1.7096 -2.4984 0.9705
6.9603 -1.0944 -2.4984 0.9705
7.0301 -0.4706 -2.4983 0.9705
9.8215 3.9088 -3.7482 0.9561
5.2823 3.9836 -2.3460 0.9723
4.9068 4.4380 -2.3460 0.9723
4.4924 4.8571 -2.3460 0.9723
4.0422 5.2377 -2.3460 0.9723
3.5600 5.5767 -2.3460 0.9723
3.0496 5.8715 -2.3460 0.9723
2.5149 6.1196 -2.3460 0.9723
0.8088 6.5668 -2.3461 0.9723
0.2211 6.6127 -2.3461 0.9723
-2.6507 6.0625 -2.3462 0.9723
-3.1798 5.8025 -2.3462 0.9723
-4.1583 5.1468 -2.3462 0.9723
-5.2031 4.4993 -2.4391 0.9712
-5.7192 4.1165 -2.4986 0.9705
-6.0630 3.5912 -2.4987 0.9705
-6.6037 2.4593 -2.4987 0.9705
-6.7964 1.8617 -2.4987 0.9705
-6.9351 1.2495 -2.4987 0.9705
-7.0188 0.6272 -2.4987 0.9705
-3.3741 0.0000 -1.2599 0.9857
-2.9238 -1.0888 -1.1650 0.9868
-5.7574 -3.4101 -2.4987 0.9718
-5.0615 -4.3768 -2.4987 0.9718
-4.6519 -4.8100 -2.4987 0.9718
-1.5512 -6.5090 -2.4986 0.9718
-0.9657 -6.6212 -2.4986 0.9718
1.9824 -6.3906 -2.4985 0.9718
2.5433 -6.1888 -2.4985 0.9718
4.0879 -5.2968 -2.4985 0.9718
4.9623 -4.4880 -2.4984 0.9718
5.6793 -3.5371 -2.4984 0.9718
5.9716 -3.0176 -2.4984 0.9718
6.2165 -2.4740 -2.4984 0.9718
6.4120 -1.9109 -2.4984 0.9718
6.5566 -1.3326 -2.4984 0.9718
6.6890 -0.1490 -2.4984 0.9718
6.6757 0.4469 -2.4983 0.9718
6.6094 1.0393 -2.4983 0.9718
9.4825 3.2926 -3.7483 0.9580
9.1518 4.1236 -3.7483 0.9580
5.4755 3.0805 -2.3460 0.9735
5.1796 3.5556 -2.3460 0.9735
4.8426 4.0025 -2.3460 0.9735
4.4671 4.4177 -2.3460 0.9735
4.0562 4.7978 -2.3460 0.9735
3.6131 5.1397 -2.3460 0.9735
3.1413 5.4409 -2.3460 0.9735
2.1269 5.9118 -2.3460 0.9735
0.4895 6.2637 -2.3461 0.9735
-0.6289 6.2513 -2.3461 0.9735
-1.1828 6.1706 -2.3461 0.9735
-1.7273 6.0409 -2.3461 0.9735
-2.7711 5.6390 -2.3462 0.9735
-4.1625 4.7066 -2.3462 0.9735
-5.9035 3.1503 -2.4987 0.9718
-6.5261 1.4787 -2.4987 0.9718
-6.6318 0.8919 -2.4987 0.9718
-3.7910 0.1690 -1.4170 0.9839
-3.0832 -0.1375 -1.1525 0.9869
-2.9640 -0.3986 -1.1167 0.9873
-2.9258 -0.6629 -1.1202 0.9873
-2.9106 -0.9385 -1.1419 0.9870
-5.9036 -3.1502 -2.4987 0.9718
-5.5998 -3.6632 -2.4987 0.9718
-4.4330 -5.0124 -2.4987 0.9718
-3.9692 -5.3871 -2.4987 0.9718
-3.4740 -5.7189 -2.4986 0.9718
-2.4049 -6.2442 -2.4986 0.9718
-1.2597 -6.5716 -2.4986 0.9718
-0.6698 -6.6576 -2.4986 0.9718
-0.0745 -6.6908 -2.4986 0.9718
0.5213 -6.6708 -2.4985 0.9718
1.1129 -6.5979 -2.4985 0.9718
1.6957 -6.4726 -2.4985 0.9718
3.8479 -5.4737 -2.4985 0.9718
4.3198 -5.1095 -2.4984 0.9718
5.1573 -4.2625 -2.4984 0.9718
5.5161 -3.7866 -2.4984 0.9718
5.8313 -3.2806 -2.4984 0.9718
6.3205 -2.1947 -2.4984 0.9718
6.4907 -1.6234 -2.4984 0.9718
6.6094 -1.0392 -2.4984 0.9718
6.6757 -0.4468 -2.4984 0.9718
6.6491 0.7438 -2.4983 0.9718
6.5565 1.3327 -2.4983 0.9718
9.3264 3.7118 -3.7483 0.9580
5.6073 2.8335 -2.3460 0.9735
5.3328 3.3213 -2.3460 0.9735
5.0161 3.7829 -2.3460 0.9735
4.6595 4.2143 -2.3460 0.9735
2.8958 5.5755 -2.3460 0.9735
1.3200 6.1426 -2.3461 0.9735
0.7680 6.2357 -2.3461 0.9735
-0.3498 6.2732 -2.3461 0.9735
-1.9947 5.9580 -2.3461 0.9735
-2.5171 5.7568 -2.3462 0.9735
-3.9487 4.8873 -2.3462 0.9735
-4.3680 4.5165 -2.3462 0.9735
-3.2641 0.0000 -1.2811 0.9861
-2.8313 -0.7756 -1.1521 0.9875
-5.4778 -3.2444 -2.4987 0.9730
-5.1672 -3.7191 -2.4987 0.9730
-4.0010 -4.9521 -2.4987 0.9730
-3.0596 -5.5830 -2.4986 0.9730
-1.4758 -6.1929 -2.4986 0.9730
-0.9188 -6.2996 -2.4986 0.9730
-0.3544 -6.3563 -2.4986 0.9730
0.7782 -6.3184 -2.4985 0.9730
1.8861 -6.0802 -2.4985 0.9730
2.9343 -5.6494 -2.4985 0.9730
3.4254 -5.3658 -2.4985 0.9730
5.6816 -2.8710 -2.4984 0.9730
6.1006 -1.8181 -2.4984 0.9730
6.2382 -1.2679 -2.4984 0.9730
6.3641 -0.1418 -2.4984 0.9730
6.3515 0.4252 -2.4984 0.9730
6.2884 0.9888 -2.4984 0.9730
6.1755 1.5446 -2.4984 0.9730
9.0221 3.1328 -3.7483 0.9598
5.2096 2.9309 -2.3460 0.9746
4.9281 3.3830 -2.3460 0.9746
4.6074 3.8082 -2.3460 0.9746
2.5162 5.4222 -2.3460 0.9746
2.0236 5.6247 -2.3460 0.9746
0.9943 5.8944 -2.3461 0.9746
-0.0666 5.9774 -2.3461 0.9746
-1.1254 5.8710 -2.3461 0.9746
-2.1485 5.5785 -2.3461 0.9746
-2.6365 5.3651 -2.3462 0.9746
-3.9603 4.4780 -2.3462 0.9746
-4.6253 4.3746 -2.4986 0.9730
-4.9963 3.9456 -2.4986 0.9730
-5.3277 3.4853 -2.4986 0.9730
-5.6168 2.9972 -2.4986 0.9730
-5.8613 2.4854 -2.4987 0.9730
-6.0593 1.9539 -2.4987 0.9730
-6.3097 0.8486 -2.4987 0.9730
-3.6456 0.1626 -1.4322 0.9844
-3.0071 -0.1341 -1.1814 0.9871
-2.8403 -0.9159 -1.1712 0.9873
-5.3278 -3.4853 -2.4987 0.9730
-3.7764 -5.1254 -2.4986 0.9730
-2.8078 -5.7137 -2.4986 0.9730
-1.7502 -6.1210 -2.4986 0.9730
0.4960 -6.3468 -2.4985 0.9730
1.0589 -6.2774 -2.4985 0.9730
2.1551 -5.9902 -2.4985 0.9730
2.6797 -5.7745 -2.4985 0.9730
3.6611 -5.2079 -2.4985 0.9730
4.1100 -4.8613 -2.4984 0.9730
4.9068 -4.0555 -2.4984 0.9730
5.5481 -3.1213 -2.4984 0.9730
6.1755 -1.5446 -2.4984 0.9730
6.2885 -0.9888 -2.4984 0.9730
6.3641 0.1419 -2.4984 0.9730
6.2382 1.2680 -2.4984 0.9730
8.8735 3.5316 -3.7483 0.9598
8.5239 4.3073 -3.7483 0.9598
5.0739 3.1601 -2.3460 0.9746
4.7725 3.5991 -2.3460 0.9746
4.4332 4.0096 -2.3460 0.9746
3.2164 5.0385 -2.3460 0.9746
2.7552 5.3047 -2.3460 0.9746
1.7710 5.7093 -2.3460 0.9746
0.7307 5.9329 -2.3461 0.9746
0.1998 5.9744 -2.3461 0.9746
-0.3328 5.9685 -2.3461 0.9746
-0.8627 5.9152 -2.3461 0.9746
-1.3858 5.8150 -2.3461 0.9746
-1.8979 5.6686 -2.3461 0.9746
-2.8729 5.2424 -2.3462 0.9746
-3.7569 4.6500 -2.3462 0.9746
-4.8156 4.1643 -2.4986 0.9730
-5.7447 2.7441 -2.4987 0.9730
-5.9662 2.2219 -2.4987 0.9730
-6.1403 1.6820 -2.4987 0.9730
-4.1297 0.3690 -1.6273 0.9823
-2.7695 -0.7587 -1.1825 0.9877
-2.7842 -1.0369 -1.2234 0.9872
-5.2209 -3.0923 -2.4987 0.9741
-4.5899 -3.9690 -2.4987 0.9741
-3.3781 -5.0405 -2.4986 0.9741
-2.9161 -5.3212 -2.4986 0.9741
-2.4309 -5.5596 -2.4986 0.9741
-0.8757 -6.0042 -2.4986 0.9741
0.2028 -6.0642 -2.4986 0.9741
0.7417 -6.0221 -2.4985 0.9741
1.7977 -5.7951 -2.4985 0.9741
2.3063 -5.6121 -2.4985 0.9741
2.7967 -5.3845 -2.4985 0.9741
3.2648 -5.1142 -2.4985 0.9741
3.7070 -4.8033 -2.4985 0.9741
5.1502 -3.2075 -2.4984 0.9741
5.4152 -2.7364 -2.4984 0.9741
5.8145 -1.7329 -2.4984 0.9741
5.9457 -1.2085 -2.4984 0.9741
6.0296 -0.6745 -2.4984 0.9741
6.0537 0.4053 -2.4984 0.9741
5.8859 1.4722 -2.4984 0.9741
5.7315 1.9902 -2.4984 0.9741
8.2991 3.7394 -3.7483 0.9614
4.0509 4.0060 -2.3460 0.9757
3.6783 4.3507 -2.3460 0.9757
3.2765 4.6608 -2.3460 0.9757
2.8486 4.9340 -2.3460 0.9757
-0.0635 5.6971 -2.3461 0.9757
-2.0477 5.3169 -2.3461 0.9757
-2.5129 5.1135 -2.3462 0.9757
-2.9580 4.8696 -2.3462 0.9757
-3.7775 4.2713 -2.3480 0.9756
-5.3534 2.8567 -2.4986 0.9741
-5.5864 2.3689 -2.4986 0.9741
-5.7751 1.8622 -2.4987 0.9741
-5.9179 1.3409 -2.4987 0.9741
-2.9337 -0.1308 -1.2092 0.9874
-2.7947 -0.3758 -1.1611 0.9879
-2.7756 -0.6289 -1.1719 0.9878
-2.7775 -0.8956 -1.2017 0.9875
-5.3535 -2.8567 -2.4987 0.9741
-5.0779 -3.3218 -2.4987 0.9741
-4.7621 -3.7605 -2.4987 0.9741
-2.1808 -5.6623 -2.4986 0.9741
-1.6682 -5.8339 -2.4986 0.9741
-1.1423 -5.9592 -2.4986 0.9741
-0.6073 -6.0372 -2.4986 0.9741
-0.0676 -6.0673 -2.4986 0.9741
1.0092 -5.9830 -2.4985 0.9741
1.5377 -5.8695 -2.4985 0.9741
2.5540 -5.5037 -2.4985 0.9741
5.0022 -3.4337 -2.4984 0.9741
5.2879 -2.9749 -2.4984 0.9741
5.5317 -2.4924 -2.4984 0.9741
5.7316 -1.9902 -2.4984 0.9741
6.0537 -0.4052 -2.4984 0.9741
6.0296 0.6746 -2.4984 0.9741
5.9456 1.2085 -2.4984 0.9741
5.8145 1.7329 -2.4984 0.9741
8.4574 3.3660 -3.7483 0.9614
4.8359 3.0119 -2.3460 0.9757
4.5487 3.4304 -2.3460 0.9757
3.4808 4.5103 -2.3460 0.9757
2.6260 5.0560 -2.3460 0.9757
2.1656 5.2697 -2.3460 0.9757
0.1904 5.6943 -2.3461 0.9757
-1.8089 5.4028 -2.3461 0.9757
-2.2826 5.2204 -2.3461 0.9757
-3.1720 4.7330 -2.3462 0.9757
-4.1659 4.3076 -2.4676 0.9744
-4.5898 3.9689 -2.4986 0.9741
-5.2208 3.0923 -2.4986 0.9741
-5.6864 2.1177 -2.4987 0.9741
-3.9772 0.3554 -1.6443 0.9829
-3.0794 0.0000 -1.3283 0.9867
-2.7209 -1.0132 -1.2524 0.9874
-2.7300 -1.3040 -1.3050 0.9869
-2.7884 -1.6516 -1.3980 0.9860
-4.7014 -3.3838 -2.4987 0.9751
-3.6403 -4.5056 -2.4986 0.9751
-2.3206 -5.3073 -2.4986 0.9751
-1.8390 -5.4927 -2.4986 0.9751
-0.8359 -5.7317 -2.4986 0.9751
1.2169 -5.6629 -2.4985 0.9751
1.7161 -5.5321 -2.4985 0.9751
3.5388 -4.5853 -2.4985 0.9751
3.9328 -4.2521 -2.4984 0.9751
4.2957 -3.8852 -2.4984 0.9751
5.1694 -2.6122 -2.4984 0.9751
5.7560 -0.6439 -2.4984 0.9751
5.7905 -0.1290 -2.4984 0.9751
5.7216 0.8997 -2.4984 0.9751
5.4714 1.8999 -2.4984 0.9751
7.9225 3.5697 -3.7483 0.9629
7.5733 4.2606 -3.7483 0.9629
4.4838 3.0780 -2.3460 0.9766
4.1921 3.4648 -2.3460 0.9766
3.1278 4.4494 -2.3460 0.9766
2.7194 4.7101 -2.3460 0.9766
1.3784 5.2613 -2.3461 0.9766
0.9046 5.3631 -2.3461 0.9766
0.4237 5.4223 -2.3461 0.9766
-0.0606 5.4385 -2.3461 0.9766
-0.5444 5.4116 -2.3461 0.9766
-1.4953 5.2294 -2.3461 0.9766
-1.9548 5.0756 -2.3461 0.9766
-2.3988 4.8815 -2.3462 0.9766
-2.8238 4.6486 -2.3462 0.9766
-3.2263 4.3788 -2.3462 0.9766
-3.7476 4.2376 -2.4402 0.9757
-4.2083 3.9802 -2.4986 0.9751
-4.5459 3.5899 -2.4986 0.9751
-4.8474 3.1711 -2.4986 0.9751
-5.1105 -2.7270 -2.4987 0.9751
-4.8475 -3.1710 -2.4987 0.9751
-4.5460 -3.5899 -2.4987 0.9751
-4.2084 -3.9803 -2.4987 0.9751
-3.8374 -4.3390 -2.4986 0.9751
-3.4360 -4.6633 -2.4986 0.9751
-3.0073 -4.9506 -2.4986 0.9751
-2.0818 -5.4054 -2.4986 0.9751
-1.5925 -5.5692 -2.4986 0.9751
-0.5798 -5.7632 -2.4986 0.9751
-0.0645 -5.7919 -2.4986 0.9751
0.4512 -5.7747 -2.4985 0.9751
0.9634 -5.7115 -2.4985 0.9751
1.4680 -5.6031 -2.4985 0.9751
2.4381 -5.2540 -2.4985 0.9751
2.8961 -5.0161 -2.4985 0.9751
3.3310 -4.7384 -2.4985 0.9751
4.1183 -4.0727 -2.4984 0.9751
4.4645 -3.6899 -2.4984 0.9751
4.7752 -3.2779 -2.4984 0.9751
5.0479 -2.8399 -2.4984 0.9751
5.2807 -2.3793 -2.4984 0.9751
5.6188 -1.4053 -2.4984 0.9751
5.7216 -0.8996 -2.4984 0.9751
5.7904 0.1291 -2.4984 0.9751
5.6758 1.1537 -2.4984 0.9751
5.3814 2.1418 -2.4984 0.9751
7.3760 4.5938 -3.7483 0.9629
4.3423 3.2747 -2.3460 0.9766
3.6929 3.9927 -2.3460 0.9766
1.1426 5.3174 -2.3461 0.9766
0.1817 5.4358 -2.3461 0.9766
-1.2608 5.2908 -2.3461 0.9766
-4.3815 3.7888 -2.4986 0.9751
-4.7013 3.3838 -2.4986 0.9751
-5.4283 2.0216 -2.4986 0.9751
-3.8265 0.3420 -1.6572 0.9834
-2.9980 0.0000 -1.3528 0.9869
-2.6738 -0.4817 -1.2259 0.9881
-2.6546 -0.7271 -1.2419 0.9880
-2.6607 -0.9909 -1.2811 0.9876
-2.6867 -1.5913 -1.4090 0.9864
-4.4945 -3.2349 -2.4987 0.9760
-4.1887 -3.6221 -2.4987 0.9760
-3.8497 -3.9805 -2.4986 0.9760
-3.4801 -4.3073 -2.4986 0.9760
-0.7992 -5.4794 -2.4986 0.9760
-0.3083 -5.5288 -2.4986 0.9760
0.6769 -5.4957 -2.4985 0.9760
1.1633 -5.4137 -2.4985 0.9760
2.1048 -5.1216 -2.4985 0.9760
2.9795 -4.6672 -2.4985 0.9760
4.4209 -3.3339 -2.4984 0.9760
5.1446 -2.0474 -2.4984 0.9760
5.4261 -1.1029 -2.4984 0.9760
5.5356 -0.1233 -2.4984 0.9760
5.5246 0.3699 -2.4984 0.9760
5.4698 0.8601 -2.4984 0.9760
7.2400 4.0731 -3.7483 0.9642
6.8488 4.7014 -3.7483 0.9642
3.6969 3.6559 -2.3460 0.9774
2.9901 4.2535 -2.3460 0.9774
2.5997 4.5028 -2.3460 0.9774
2.1886 4.7163 -2.3460 0.9774
1.7601 4.8924 -2.3460 0.9774
1.3177 5.0297 -2.3461 0.9774
0.8648 5.1270 -2.3461 0.9774
0.4051 5.1837 -2.3461 0.9774
-0.0579 5.1992 -2.3461 0.9774
-1.8688 4.8522 -2.3461 0.9774
-2.6995 4.4440 -2.3462 0.9774
-3.6684 4.1480 -2.4986 0.9760
-4.0231 3.8051 -2.4986 0.9760
-4.6340 3.0315 -2.4986 0.9760
-5.2703 1.6995 -2.4986 0.9760
-3.2608 0.1454 -1.4728 0.9858
-2.7833 -0.1241 -1.2571 0.9878
-2.6659 -0.6040 -1.2334 0.9881
-2.6675 -1.1311 -1.3074 0.9874
-4.8855 -2.6070 -2.4987 0.9760
-4.3459 -3.4319 -2.4987 0.9760
-3.6685 -4.1480 -2.4986 0.9760
-3.2848 -4.4581 -2.4986 0.9760
-2.8749 -4.7327 -2.4986 0.9760
-2.4423 -4.9698 -2.4986 0.9760
-0.5543 -5.5096 -2.4986 0.9760
0.4314 -5.5204 -2.4985 0.9760
1.4033 -5.3565 -2.4985 0.9760
1.8745 -5.2103 -2.4985 0.9760
3.1844 -4.5298 -2.4985 0.9760
3.9371 -3.8934 -2.4984 0.9760
4.2680 -3.5275 -2.4984 0.9760
4.5650 -3.1337 -2.4984 0.9760
5.0483 -2.2746 -2.4984 0.9760
5.2307 -1.8163 -2.4984 0.9760
5.3715 -1.3435 -2.4984 0.9760
5.4698 -0.8600 -2.4984 0.9760
5.5356 0.1234 -2.4984 0.9760
5.5027 0.6156 -2.4984 0.9760
5.4260 1.1029 -2.4984 0.9760
5.3063 1.5815 -2.4984 0.9760
5.1445 2.0475 -2.4984 0.9760
3.8561 3.4876 -2.3460 0.9774
3.1766 4.1161 -2.3460 0.9774
2.7977 4.3825 -2.3460 0.9774
0.6356 5.1605 -2.3461 0.9774
0.1737 5.1966 -2.3461 0.9774
-0.2895 5.1914 -2.3461 0.9774
-0.7504 5.1451 -2.3461 0.9774
-1.2054 5.0579 -2.3461 0.9774
-1.6508 4.9306 -2.3461 0.9774
-2.0831 4.7641 -2.3461 0.9774
-2.4988 4.5599 -2.3462 0.9774
-2.8948 4.3194 -2.3462 0.9774
-3.3720 4.1737 -2.4211 0.9767
-3.8496 3.9805 -2.4986 0.9760
-4.4944 3.2349 -2.4986 0.9760
-4.7645 2.8220 -2.4986 0.9760
-4.9968 2.3868 -2.4986 0.9760
-5.1894 1.9326 -2.4986 0.9760
-5.3408 1.4630 -2.4986 0.9760
-2.9112 0.0000 -1.3723 0.9872
-2.6448 -0.2363 -1.2517 0.9883
-2.6023 -0.9691 -1.3090 0.9878
-4.3022 -3.0965 -2.4986 0.9768
-3.6850 -3.8103 -2.4986 0.9768
-3.3312 -4.1231 -2.4986 0.9768
-2.9510 -4.4032 -2.4986 0.9768
-1.6828 -5.0264 -2.4986 0.9768
-1.2288 -5.1562 -2.4986 0.9768
-0.7650 -5.2451 -2.4986 0.9768
-0.2951 -5.2923 -2.4986 0.9768
0.1771 -5.2975 -2.4985 0.9768
1.1136 -5.1821 -2.4985 0.9768
1.5704 -5.0624 -2.4985 0.9768
2.0148 -4.9025 -2.4985 0.9768
2.4431 -4.7037 -2.4985 0.9768
2.8521 -4.4676 -2.4985 0.9768
3.2384 -4.1960 -2.4985 0.9768
4.2318 -3.1913 -2.4984 0.9768
4.7306 -2.3904 -2.4984 0.9768
4.9246 -1.9599 -2.4984 0.9768
5.2989 -0.1180 -2.4984 0.9768
5.0069 1.7386 -2.4984 0.9768
4.8323 2.1774 -2.4984 0.9768
6.9304 3.8990 -3.7483 0.9654
6.5558 4.5003 -3.7483 0.9654
0.3877 4.9620 -2.3461 0.9782
-0.0554 4.9768 -2.3461 0.9782
-0.4982 4.9522 -2.3461 0.9782
-0.9370 4.8882 -2.3461 0.9782
-1.3683 4.7854 -2.3461 0.9782
-1.7889 4.6447 -2.3461 0.9782
-2.1952 4.4670 -2.3461 0.9782
-3.5116 3.9706 -2.4986 0.9768
-3.8510 3.6423 -2.4986 0.9768
-4.4358 2.9018 -2.4986 0.9768
-4.6765 2.4955 -2.4986 0.9768
-5.0449 1.6268 -2.4986 0.9768
-5.1697 1.1713 -2.4986 0.9768
-3.1522 0.1406 -1.4873 0.9861
-2.6352 -0.3544 -1.2533 0.9883
-2.6131 -0.5921 -1.2630 0.9882
-2.6038 -1.1041 -1.3332 0.9876
-2.5902 -1.3822 -1.3839 0.9871
-4.4359 -2.9018 -2.4987 0.9768
-4.1600 -3.2851 -2.4986 0.9768
-3.8511 -3.6423 -2.4986 0.9768
-3.1443 -4.2674 -2.4986 0.9768
-2.7520 -4.5303 -2.4986 0.9768
-2.3378 -4.7572 -2.4986 0.9768
-1.4573 -5.0963 -2.4986 0.9768
-0.9979 -5.2058 -2.4986 0.9768
-0.5306 -5.2739 -2.4986 0.9768
-0.0590 -5.3002 -2.4986 0.9768
0.8816 -5.2266 -2.4985 0.9768
1.3433 -5.1274 -2.4985 0.9768
1.7944 -4.9874 -2.4985 0.9768
2.2311 -4.8079 -2.4985 0.9768
2.6502 -4.5902 -2.4985 0.9768
4.0855 -3.3767 -2.4984 0.9768
4.3698 -2.9996 -2.4984 0.9768
4.6194 -2.5988 -2.4984 0.9768
4.8324 -2.1773 -2.4984 0.9768
5.1418 -1.2860 -2.4984 0.9768
5.2359 -0.8233 -2.4984 0.9768
5.0794 1.5139 -2.4984 0.9768
4.9245 1.9599 -2.4984 0.9768
7.0972 3.5863 -3.7483 0.9654
6.7498 4.2038 -3.7483 0.9654
3.3794 3.6537 -2.3460 0.9782
2.2940 4.4168 -2.3460 0.9782
1.8918 4.6035 -2.3460 0.9782
1.4746 4.7536 -2.3461 0.9782
0.6084 4.9398 -2.3461 0.9782
-0.7183 4.9251 -2.3461 0.9782
-1.9940 4.5604 -2.3461 0.9782
-2.3920 4.3648 -2.3462 0.9782
-2.7710 4.1346 -2.3462 0.9782
-4.0095 3.4671 -2.4986 0.9768
-5.2168 0.9399 -2.4986 0.9768
-3.7077 0.3313 -1.7547 0.9837
-2.8280 0.0000 -1.3909 0.9875
-2.5499 -0.6985 -1.3004 0.9883
-2.5453 -0.9479 -1.3359 0.9880
-4.1231 -2.9676 -2.4986 0.9776
-3.8426 -3.3228 -2.4986 0.9776
-3.5316 -3.6516 -2.4986 0.9776
-2.8282 -4.2199 -2.4986 0.9776
-2.4413 -4.4548 -2.4986 0.9776
-1.6128 -4.8171 -2.4986 0.9776
-1.1776 -4.9415 -2.4986 0.9776
-0.7331 -5.0267 -2.4986 0.9776
-0.2828 -5.0720 -2.4986 0.9776
0.1698 -5.0770 -2.4985 0.9776
1.0672 -4.9664 -2.4985 0.9776
2.7333 -4.2816 -2.4985 0.9776
3.1035 -4.0213 -2.4985 0.9776
3.4491 -3.7291 -2.4985 0.9776
3.7673 -3.4073 -2.4984 0.9776
4.3118 -2.6854 -2.4984 0.9776
4.7195 -1.8783 -2.4984 0.9776
4.8680 -1.4508 -2.4984 0.9776
4.9778 -1.0117 -2.4984 0.9776
4.9277 1.2326 -2.4984 0.9776
5.8741 4.8551 -3.7483 0.9666
3.3914 3.3539 -2.3460 0.9790
2.7431 3.9021 -2.3460 0.9790
2.3849 4.1308 -2.3460 0.9790
1.6147 4.4882 -2.3461 0.9790
1.2088 4.6141 -2.3461 0.9790
-2.1038 4.2810 -2.3461 0.9790
-4.6769 1.9832 -2.4986 0.9776
-5.0347 0.6771 -2.4986 0.9776
-2.5845 -0.3476 -1.2826 0.9884
-2.5430 -0.8200 -1.3142 0.9882
-2.5441 -1.0788 -1.3592 0.9878
-3.6908 -3.4906 -2.4986 0.9776
-3.3654 -3.8053 -2.4986 0.9776
-2.2405 -4.5592 -2.4986 0.9776
-0.5085 -5.0543 -2.4986 0.9776
-0.0566 -5.0795 -2.4986 0.9776
0.3957 -5.0644 -2.4985 0.9776
2.1383 -4.6077 -2.4985 0.9776
2.9213 -4.1556 -2.4985 0.9776
3.2796 -3.8791 -2.4985 0.9776
3.6118 -3.5718 -2.4985 0.9776
3.9154 -3.2361 -2.4984 0.9776
4.1879 -2.8747 -2.4984 0.9776
4.4271 -2.4906 -2.4984 0.9776
4.7985 -1.6662 -2.4984 0.9776
5.0179 -0.7890 -2.4984 0.9776
5.0682 -0.3392 -2.4984 0.9776
4.8679 1.4508 -2.4984 0.9776
4.7195 1.8783 -2.4984 0.9776
4.5336 2.2910 -2.4984 0.9776
3.5375 3.1995 -2.3460 0.9790
2.9142 3.7761 -2.3460 0.9790
2.1985 4.2329 -2.3460 0.9790
1.8130 4.4118 -2.3460 0.9790
1.4132 4.5557 -2.3461 0.9790
0.5831 4.7341 -2.3461 0.9790
0.1594 4.7673 -2.3461 0.9790
-1.5144 4.5232 -2.3461 0.9790
-1.9110 4.3705 -2.3461 0.9790
-2.2924 4.1831 -2.3462 0.9790
-2.7209 4.0599 -2.4038 0.9784
-3.1925 3.9514 -2.4986 0.9776
-3.5315 3.6516 -2.4986 0.9776
-3.8425 3.3228 -2.4986 0.9776
-4.1230 2.9676 -2.4986 0.9776
-4.5839 2.1896 -2.4986 0.9776
-4.8995 1.3422 -2.4986 0.9776
-3.6334 0.3247 -1.7942 0.9839
-2.7481 0.0000 -1.4089 0.9877
-2.5372 -0.2267 -1.3059 0.9886
-2.5199 -0.4540 -1.3126 0.9886
-2.4994 -0.6846 -1.3286 0.9884
-2.4521 -1.4524 -1.4611 0.9873
-3.9557 -2.8471 -2.4986 0.9783
-3.3882 -3.5034 -2.4986 0.9783
-3.0629 -3.7910 -2.4986 0.9783
-1.9525 -4.4655 -2.4986 0.9783
-1.5473 -4.6215 -2.4986 0.9783
-1.1298 -4.7409 -2.4986 0.9783
-0.7034 -4.8226 -2.4986 0.9783
0.1629 -4.8708 -2.4985 0.9783
0.5957 -4.8370 -2.4985 0.9783
1.0239 -4.7647 -2.4985 0.9783
1.8525 -4.5077 -2.4985 0.9783
2.2463 -4.3249 -2.4985 0.9783
2.6223 -4.1078 -2.4985 0.9783
2.9775 -3.8580 -2.4985 0.9783
4.1367 -2.5763 -2.4984 0.9783
4.3496 -2.1979 -2.4984 0.9783
4.8431 -0.5418 -2.4984 0.9783
4.8721 -0.1085 -2.4984 0.9783
4.8624 0.3255 -2.4984 0.9783
4.8142 0.7570 -2.4984 0.9783
4.6037 1.5986 -2.4984 0.9783
4.4431 2.0020 -2.4984 0.9783
3.2538 3.2178 -2.3460 0.9796
2.9545 3.4946 -2.3460 0.9796
2.6317 3.7437 -2.3460 0.9796
2.2881 3.9631 -2.3460 0.9796
1.5492 4.3060 -2.3461 0.9796
1.1598 4.4268 -2.3461 0.9796
-0.4581 4.5533 -2.3461 0.9796
-0.8615 4.4945 -2.3461 0.9796
-1.6448 4.2705 -2.3461 0.9796
-2.0203 4.1105 -2.3480 0.9796
-2.4349 4.0084 -2.4044 0.9791
-3.2287 3.6508 -2.4986 0.9783
-3.5408 3.3489 -2.4986 0.9783
-3.8249 3.0205 -2.4986 0.9783
-4.4870 1.9027 -2.4986 0.9783
-4.7533 1.0770 -2.4986 0.9783
-2.9775 0.1328 -1.5280 0.9867
-2.5877 -0.1154 -1.3280 0.9884
-2.5350 -0.3409 -1.3113 0.9886
-2.4881 -0.8023 -1.3403 0.9883
-2.4879 -1.0550 -1.3854 0.9879
-3.5409 -3.3489 -2.4986 0.9783
-3.2288 -3.6508 -2.4986 0.9783
-2.8910 -3.9237 -2.4986 0.9783
-2.5303 -4.1654 -2.4986 0.9783
-2.1495 -4.3741 -2.4986 0.9783
-1.3399 -4.6858 -2.4986 0.9783
-0.9175 -4.7865 -2.4986 0.9783
-0.4878 -4.8491 -2.4986 0.9783
1.2351 -4.7144 -2.4985 0.9783
1.6498 -4.5857 -2.4985 0.9783
2.4367 -4.2205 -2.4985 0.9783
3.7564 -3.1047 -2.4984 0.9783
4.2473 -2.3895 -2.4984 0.9783
4.6037 -1.5985 -2.4984 0.9783
4.8142 -0.7570 -2.4984 0.9783
4.7756 0.9707 -2.4984 0.9783
4.6703 1.3919 -2.4984 0.9783
4.5279 1.8021 -2.4984 0.9783
6.2062 3.8652 -3.7483 0.9677
5.8375 4.4023 -3.7483 0.9677
5.4225 4.9044 -3.7484 0.9677
3.1072 3.3595 -2.3460 0.9796
2.7959 3.6227 -2.3460 0.9796
2.1093 4.0611 -2.3460 0.9796
0.9614 4.4741 -2.3461 0.9796
0.1529 4.5737 -2.3461 0.9796
-0.2548 4.5692 -2.3461 0.9796
-0.6604 4.5284 -2.3461 0.9796
-1.0609 4.4517 -2.3461 0.9796
-1.8334 4.1931 -2.3461 0.9796
-2.7080 4.0407 -2.4937 0.9784
-3.0629 3.7910 -2.4986 0.9783
-3.3881 3.5034 -2.4986 0.9783
-3.6865 3.1879 -2.4986 0.9783
-3.9556 2.8471 -2.4986 0.9783
-4.3978 2.1007 -2.4986 0.9783
-4.5673 1.7010 -2.4986 0.9783
-4.7006 1.2877 -2.4986 0.9783
-3.5463 0.3169 -1.8253 0.9841
-2.6714 0.0000 -1.4261 0.9880
-2.4853 -0.2221 -1.3321 0.9887
-2.4501 -0.6711 -1.3561 0.9885
-2.4292 -1.1603 -1.4371 0.9879
-2.3944 -1.4182 -1.4856 0.9875
-3.7988 -2.7342 -2.4986 0.9790
-2.9414 -3.6406 -2.4986 0.9790
-2.6057 -3.8880 -2.4986 0.9790
-1.4859 -4.4382 -2.4986 0.9790
-1.0850 -4.5528 -2.4986 0.9790
-0.2606 -4.6730 -2.4986 0.9790
0.1564 -4.6777 -2.4985 0.9790
0.5721 -4.6451 -2.4985 0.9790
0.9833 -4.5758 -2.4985 0.9790
1.3866 -4.4701 -2.4985 0.9790
2.1572 -4.1534 -2.4985 0.9790
2.8594 -3.7051 -2.4985 0.9790
3.1778 -3.4358 -2.4985 0.9790
3.4710 -3.1393 -2.4985 0.9790
4.1771 -2.1107 -2.4984 0.9790
4.4851 -1.3367 -2.4984 0.9790
4.6510 -0.5202 -2.4984 0.9790
4.6696 0.3126 -2.4984 0.9790
4.6232 0.7270 -2.4984 0.9790
4.5402 1.1356 -2.4984 0.9790
4.0788 2.2947 -2.4984 0.9790
5.7888 3.9738 -3.7484 0.9687
5.4121 4.4732 -3.7484 0.9687
4.9925 4.9372 -3.7484 0.9687
2.5273 3.5952 -2.3460 0.9803
2.1973 3.8059 -2.3460 0.9803
1.8499 3.9864 -2.3461 0.9803
1.1138 4.2512 -2.3461 0.9803
0.3424 4.3814 -2.3461 0.9803
-0.0490 4.3945 -2.3461 0.9803
-1.2082 4.2255 -2.3461 0.9803
-1.9384 3.9444 -2.3461 0.9803
-3.1006 3.5060 -2.4986 0.9790
-3.4004 3.2161 -2.4986 0.9790
-3.6732 2.9007 -2.4986 0.9790
-4.1293 2.2035 -2.4986 0.9790
-4.4546 1.4365 -2.4986 0.9790
-4.5648 1.0343 -2.4986 0.9790
-4.6387 0.6238 -2.4986 0.9790
-2.8952 0.1291 -1.5471 0.9869
-2.5303 -0.1128 -1.3521 0.9886
-2.4861 -0.3343 -1.3391 0.9887
-2.4621 -0.5578 -1.3477 0.9886
-2.4322 -1.5911 -1.5516 0.9869
-3.6732 -2.9007 -2.4986 0.9790
-3.4005 -3.2161 -2.4986 0.9790
-2.0642 -4.2005 -2.4986 0.9790
-1.2867 -4.5000 -2.4986 0.9790
-0.8811 -4.5966 -2.4986 0.9790
-0.0521 -4.6800 -2.4986 0.9790
0.7785 -4.6150 -2.4985 0.9790
1.9701 -4.2453 -2.4985 0.9790
3.8585 -2.6486 -2.4984 0.9790
4.2669 -1.9226 -2.4984 0.9790
4.5402 -1.1356 -2.4984 0.9790
4.6232 -0.7269 -2.4984 0.9790
4.4851 1.3367 -2.4984 0.9790
4.1770 2.1107 -2.4984 0.9790
5.6060 4.2277 -3.7484 0.9687
2.3647 3.7042 -2.3460 0.9803
0.9233 4.2966 -2.3461 0.9803
-0.6343 4.3488 -2.3461 0.9803
-1.0188 4.2751 -2.3461 0.9803
-2.1699 3.9596 -2.4104 0.9797
-2.9414 3.6406 -2.4986 0.9790
-3.2538 3.3644 -2.4986 0.9790
-3.7987 2.7342 -2.4986 0.9790
-4.0270 2.3852 -2.4986 0.9790
-4.3862 1.6335 -2.4986 0.9790
-4.5141 1.2366 -2.4986 0.9790
-4.6063 0.8299 -2.4986 0.9790
-2.5975 0.0000 -1.4427 0.9882
-2.4347 -0.2176 -1.3576 0.9889
-2.4018 -0.6579 -1.3831 0.9887
-2.3733 -1.1337 -1.4608 0.9880
-2.8273 -3.4994 -2.4986 0.9796
-2.5046 -3.7371 -2.4986 0.9796
-2.1620 -3.9451 -2.4986 0.9796
-0.2505 -4.4917 -2.4986 0.9796
0.9451 -4.3982 -2.4985 0.9796
1.7100 -4.1609 -2.4985 0.9796
2.0735 -3.9922 -2.4985 0.9796
2.7485 -3.5613 -2.4985 0.9796
3.0545 -3.3025 -2.4985 0.9796
3.3363 -3.0175 -2.4985 0.9796
3.5917 -2.7086 -2.4984 0.9796
4.0150 -2.0288 -2.4984 0.9796
4.1796 -1.6634 -2.4984 0.9796
4.3111 -1.2848 -2.4984 0.9796
4.4973 -0.1002 -2.4984 0.9796
4.4884 0.3005 -2.4984 0.9796
4.4438 0.6988 -2.4984 0.9796
4.3640 1.0915 -2.4984 0.9796
4.2495 1.4756 -2.4984 0.9796
2.4293 3.4557 -2.3460 0.9809
2.1120 3.6582 -2.3460 0.9809
1.7781 3.8317 -2.3461 0.9809
