ply
format ascii 1.0
element vertex 1586
property float32 x
property float32 y
property float32 z
property float32 I
end_header
-9.1568 -4.8862 0.9515 0.9592
-8.5647 -5.6028 0.9383 0.9597
-8.4100 -6.6413 0.9824 0.9579
1.2605 5.8657 0.5500 0.9762
-8.7861 -5.2040 0.7653 0.9599
-8.3933 -6.0411 0.7750 0.9594
1.5187 5.7967 0.4491 0.9762
-9.5917 -4.5816 0.6191 0.9583
-8.6381 -7.4696 0.6651 0.9553
-9.1119 -4.8622 0.6015 0.9595
-8.5284 -5.5790 0.5936 0.9600
-8.3523 -6.5957 0.6199 0.9583
1.2601 5.8639 0.3493 0.9763
-8.7701 -5.1946 0.4238 0.9600
-8.3750 -6.0279 0.4290 0.9595
1.5180 5.7943 0.2491 0.9763
-10.4841 -4.4456 0.4735 0.9554
-8.5272 -5.5782 0.4237 0.9600
-8.3461 -6.5908 0.4422 0.9583
-8.6482 -7.4784 0.2851 0.9553
1.5177 5.7931 0.1493 0.9763
-10.5455 -4.4717 0.2857 0.9552
-9.1254 -4.8695 0.2579 0.9595
-8.5411 -5.5873 0.2545 0.9600
1.2597 5.8622 0.1495 0.9763
-8.8037 -5.2145 0.0850 0.9599
-9.1465 -4.8807 0.0862 0.9594
-8.3878 -6.6238 0.0888 0.9581
-9.7071 -4.6367 -0.0894 0.9579
-9.1968 -4.9076 -0.0866 0.9592
-8.6026 -5.6275 -0.0854 0.9597
1.2593 5.8604 -0.0498 0.9763
-8.8942 -5.2680 -0.2578 0.9595
1.5168 5.7895 -0.1493 0.9763
-9.2477 -4.9347 -0.2614 0.9589
-8.6462 -5.6561 -0.2577 0.9595
1.2591 5.8596 -0.1495 0.9763
1.5165 5.7882 -0.2488 0.9763
-9.3388 -4.9834 -0.4401 0.9585
-8.7233 -5.7065 -0.4334 0.9591
1.2590 5.8587 -0.2492 0.9763
-10.0914 -4.8203 -0.6514 0.9562
-9.0589 -5.3656 -0.6132 0.9587
1.5161 5.7870 -0.3484 0.9763
-9.4362 -5.0353 -0.6230 0.9581
-9.6057 -5.1257 -0.8159 0.9573
-8.9370 -5.8463 -0.8003 0.9581
1.2586 5.8569 -0.4489 0.9763
-9.3624 -5.5454 -0.9976 0.9572
-9.0523 -6.5155 -1.0225 0.9562
1.2584 5.8561 -0.5491 0.9762
-9.6192 -5.6974 -1.2126 0.9560
1.5152 5.7834 -0.6485 0.9762
-10.3627 -5.5297 -1.2740 0.9538
-9.3612 -6.1238 -1.2133 0.9560
12.8378 7.2225 -2.3456 0.9421
12.1443 8.3366 -2.3456 0.9421
10.4742 10.3582 -2.3457 0.9421
9.5109 11.2496 -2.3457 0.9421
8.4721 12.0517 -2.3458 0.9421
4.9874 13.8628 -2.3460 0.9421
2.4506 14.5283 -2.3461 0.9421
-0.1641 14.7334 -2.3462 0.9421
-1.4749 14.6607 -2.3463 0.9421
-2.7740 14.4716 -2.3464 0.9421
-4.0511 14.1676 -2.3464 0.9421
-5.2961 13.7511 -2.3465 0.9421
-8.7414 11.8640 -2.3466 0.9421
-9.7628 11.0391 -2.3466 0.9421
-11.5657 9.1334 -2.3467 0.9421
14.6378 1.6375 -2.3454 0.9421
14.4341 2.9339 -2.3454 0.9421
14.1158 4.2070 -2.3455 0.9421
10.9251 9.8812 -2.3457 0.9421
10.0025 10.8146 -2.3457 0.9421
9.0004 11.6622 -2.3458 0.9421
1.2576 5.8525 -0.9532 0.9760
-0.8203 14.7116 -2.3463 0.9421
-8.2042 12.2415 -2.3466 0.9421
-9.2613 11.4629 -2.3466 0.9421
-12.6801 7.5105 -2.3467 0.9421
-13.2983 6.3521 -2.3467 0.9421
-14.1732 0.0000 -2.4991 0.9441
-14.1169 -1.2614 -2.4991 0.9441
-13.9484 -2.5129 -2.4991 0.9441
-13.6693 -3.7444 -2.4991 0.9441
-13.2816 -4.9461 -2.4990 0.9441
-12.7885 -6.1085 -2.4990 0.9441
-12.1938 -7.2224 -2.4990 0.9441
-11.5024 -8.2789 -2.4989 0.9441
-10.7197 -9.2696 -2.4989 0.9441
-9.8519 -10.1867 -2.4988 0.9441
-8.9059 -11.0230 -2.4988 0.9441
-5.6769 -12.9833 -2.4986 0.9441
-4.4987 -13.4368 -2.4985 0.9441
-0.7888 -14.1468 -2.4983 0.9441
0.4735 -14.1606 -2.4983 0.9441
2.9765 -13.8516 -2.4982 0.9441
8.6553 -11.2150 -2.4979 0.9441
11.3103 -8.5295 -2.4978 0.9441
12.0245 -7.4889 -2.4978 0.9441
12.6432 -6.3889 -2.4978 0.9441
13.5756 -4.0459 -2.4978 0.9441
13.8818 -2.8216 -2.4978 0.9441
14.0779 -1.5748 -2.4978 0.9441
14.1623 -0.3155 -2.4978 0.9441
13.1404 2.0663 -2.3455 0.9474
12.5662 4.3635 -2.3455 0.9474
12.1281 5.4647 -2.3456 0.9474
11.5938 6.5226 -2.3456 0.9474
10.2540 8.4752 -2.3457 0.9474
7.6510 10.8837 -2.3458 0.9474
5.6003 12.0684 -2.3459 0.9474
1.5139 5.7784 -1.0533 0.9760
-0.1482 13.3052 -2.3462 0.9474
-4.7827 12.4181 -2.3464 0.9474
-8.8164 9.9688 -2.3466 0.9474
-9.6688 9.1447 -2.3466 0.9474
-11.1372 7.2857 -2.3467 0.9474
-11.7416 6.2655 -2.3467 0.9474
-13.0486 5.5331 -2.4991 0.9441
-13.4893 4.3498 -2.4991 0.9441
-13.8230 3.1319 -2.4991 0.9441
-14.0468 1.8892 -2.4991 0.9441
-14.1592 0.6314 -2.4991 0.9441
-14.1591 -0.6313 -2.4991 0.9441
-12.5036 -6.6721 -2.4990 0.9441
-11.1221 -8.7830 -2.4989 0.9441
-9.3882 -10.6154 -2.4988 0.9441
-8.4059 -11.4086 -2.4987 0.9441
-7.3570 -12.1112 -2.4987 0.9441
-6.2497 -12.7177 -2.4986 0.9441
-5.0928 -13.2232 -2.4986 0.9441
-3.8956 -13.6236 -2.4985 0.9441
-1.4183 -14.0978 -2.4984 0.9441
1.1038 -14.1252 -2.4983 0.9441
2.3566 -13.9706 -2.4982 0.9441
3.5906 -13.7052 -2.4982 0.9441
4.7961 -13.3309 -2.4981 0.9441
5.9635 -12.8508 -2.4980 0.9441
8.1472 -11.5895 -2.4980 0.9441
9.1463 -10.8182 -2.4979 0.9441
10.0727 -9.9611 -2.4979 0.9441
10.9192 -9.0249 -2.4979 0.9441
11.6790 -8.0171 -2.4978 0.9441
12.3461 -6.9458 -2.4978 0.9441
12.9153 -5.8193 -2.4978 0.9441
13.7424 -3.4371 -2.4978 0.9441
13.9938 -2.2004 -2.4978 0.9441
14.1623 0.3157 -2.4978 0.9441
13.0354 2.6496 -2.3455 0.9474
12.3594 4.9189 -2.3455 0.9474
10.6212 8.0098 -2.3457 0.9474
9.0331 9.7665 -2.3458 0.9474
8.1282 10.5320 -2.3458 0.9474
7.1587 11.2139 -2.3459 0.9474
6.1323 11.8068 -2.3459 0.9474
5.0572 12.3060 -2.3460 0.9474
3.9419 12.7076 -2.3460 0.9474
1.2574 5.8516 -1.0554 0.9760
1.6265 13.2058 -2.3461 0.9474
-0.7408 13.2856 -2.3462 0.9474
-4.2247 12.6187 -2.3464 0.9474
-6.3954 11.6701 -2.3465 0.9474
-7.4088 11.0548 -2.3465 0.9474
-10.8016 7.7745 -2.3466 0.9474
-13.2822 4.9464 -2.4991 0.9441
-13.9487 2.5130 -2.4991 0.9441
-14.1170 1.2615 -2.4991 0.9441
-12.9139 0.0000 -2.4991 0.9487
-12.7091 -2.2896 -2.4990 0.9487
-11.6522 -5.5658 -2.4989 0.9487
-11.1104 -6.5807 -2.4989 0.9487
-10.4804 -7.5433 -2.4989 0.9488
-9.7673 -8.4460 -2.4988 0.9488
-8.9766 -9.2817 -2.4988 0.9488
-8.1147 -10.0437 -2.4987 0.9488
-7.1884 -10.7258 -2.4987 0.9488
-5.1725 -11.8299 -2.4986 0.9488
-2.9930 -12.5591 -2.4985 0.9488
-0.7187 -12.8902 -2.4984 0.9488
1.5781 -12.8128 -2.4983 0.9488
2.7122 -12.6213 -2.4982 0.9488
3.8247 -12.3296 -2.4982 0.9488
5.9500 -11.4557 -2.4981 0.9488
7.8866 -10.2189 -2.4980 0.9488
8.7647 -9.4763 -2.4980 0.9488
9.5733 -8.6585 -2.4979 0.9488
11.5203 -5.8215 -2.4979 0.9488
12.3699 -3.6866 -2.4979 0.9488
12.6490 -2.5710 -2.4979 0.9488
12.8276 -1.4350 -2.4979 0.9488
11.7584 2.9410 -2.3456 0.9518
11.4501 3.9759 -2.3456 0.9518
10.5640 5.9433 -2.3456 0.9518
9.3432 7.7224 -2.3457 0.9518
7.8262 9.2569 -2.3458 0.9518
4.1040 11.4071 -2.3460 0.9518
1.5136 5.7772 -1.1557 0.9760
2.0165 11.9546 -2.3461 0.9518
0.9445 12.0869 -2.3462 0.9518
-1.2136 12.0634 -2.3463 0.9518
-2.2825 11.9077 -2.3463 0.9518
-3.3333 11.6575 -2.3463 0.9518
-5.3477 10.8822 -2.3464 0.9518
-8.8097 8.3322 -2.3466 0.9518
-9.5164 7.5151 -2.3466 0.9518
-10.1476 6.6383 -2.3466 0.9518
-10.6983 5.7088 -2.3466 0.9518
-12.2907 3.9633 -2.4991 0.9487
-12.7987 1.7213 -2.4991 0.9487
-12.9011 0.5753 -2.4991 0.9487
-12.9010 -0.5752 -2.4991 0.9487
-12.7985 -1.7212 -2.4990 0.9487
-11.3926 -6.0792 -2.4989 0.9487
-10.8061 -7.0690 -2.4989 0.9487
-9.3812 -8.8727 -2.4988 0.9488
-7.6591 -10.3951 -2.4987 0.9488
-6.7034 -11.0353 -2.4987 0.9488
-4.6404 -12.0484 -2.4985 0.9488
-2.4305 -12.6798 -2.4984 0.9488
-1.2923 -12.8455 -2.4984 0.9488
-0.1438 -12.9093 -2.4983 0.9488
1.0057 -12.8705 -2.4983 0.9488
2.1472 -12.7297 -2.4982 0.9488
3.2717 -12.4878 -2.4982 0.9488
5.4338 -11.7094 -2.4981 0.9488
9.1781 -9.0764 -2.4979 0.9488
10.6418 -7.3051 -2.4979 0.9488
12.5219 -3.1319 -2.4979 0.9488
12.7510 -2.0049 -2.4979 0.9488
11.2617 4.4821 -2.3456 0.9518
10.2889 6.4080 -2.3457 0.9518
8.9900 8.1310 -2.3457 0.9518
8.2308 8.8990 -2.3458 0.9518
3.5918 11.5788 -2.3460 0.9518
1.2572 5.8507 -1.1581 0.9759
1.4820 12.0327 -2.3461 0.9518
0.4051 12.1171 -2.3462 0.9518
-0.6750 12.1053 -2.3462 0.9518
-2.8107 11.7943 -2.3463 0.9518
-3.8494 11.4975 -2.3464 0.9518
-4.8575 11.1095 -2.3464 0.9518
-5.8272 10.6332 -2.3465 0.9518
-6.7506 10.0726 -2.3465 0.9518
-7.6204 9.4319 -2.3465 0.9518
-9.1722 7.9315 -2.3466 0.9518
-10.4333 6.1796 -2.3466 0.9518
-11.6528 5.5661 -2.4991 0.9487
-12.1020 4.5069 -2.4991 0.9487
-12.4551 3.4119 -2.4991 0.9487
-12.7093 2.2897 -2.4991 0.9487
-11.8067 -1.0550 -2.4990 0.9527
-11.4324 -3.1316 -2.4990 0.9527
-11.1081 -4.1367 -2.4989 0.9527
-10.1984 -6.0405 -2.4989 0.9527
-9.6202 -6.9242 -2.4988 0.9527
-8.9656 -7.7528 -2.4988 0.9527
-7.4486 -9.2193 -2.4987 0.9527
-6.5984 -9.8455 -2.4987 0.9527
-5.6958 -10.3935 -2.4986 0.9527
-4.7480 -10.8590 -2.4986 0.9527
-1.7103 -11.7269 -2.4984 0.9527
-0.6598 -11.8323 -2.4984 0.9527
0.3960 -11.8438 -2.4983 0.9527
1.4486 -11.7614 -2.4983 0.9527
2.4896 -11.5855 -2.4982 0.9527
4.5042 -10.9602 -2.4981 0.9527
5.4617 -10.5156 -2.4981 0.9527
6.3759 -9.9876 -2.4981 0.9527
7.2394 -9.3804 -2.4980 0.9527
8.7877 -7.9480 -2.4980 0.9527
9.4602 -7.1342 -2.4980 0.9527
10.0576 -6.2638 -2.4979 0.9527
10.5751 -5.3438 -2.4979 0.9527
11.0087 -4.3813 -2.4979 0.9527
11.6111 -2.3600 -2.4979 0.9527
9.6972 5.4555 -2.3457 0.9555
9.1733 6.2971 -2.3457 0.9555
8.5765 7.0887 -2.3457 0.9555
6.3993 9.1032 -2.3459 0.9555
5.5638 9.6368 -2.3459 0.9555
4.6841 10.0939 -2.3460 0.9555
1.5132 5.7759 -1.2588 0.9759
0.8670 11.0949 -2.3461 0.9555
-1.1140 11.0733 -2.3462 0.9555
-2.0952 10.9304 -2.3463 0.9555
-3.0598 10.7007 -2.3463 0.9555
-4.0001 10.3861 -2.3464 0.9555
-5.7784 9.5126 -2.3464 0.9555
-7.3736 8.3376 -2.3465 0.9555
-11.8420 0.5280 -2.4990 0.9527
-11.8420 -0.5280 -2.4990 0.9527
-11.7479 -1.5799 -2.4990 0.9527
-11.5606 -2.6192 -2.4990 0.9527
-10.9128 -4.6274 -2.4989 0.9527
-9.9192 -6.4888 -2.4989 0.9527
-8.6112 -8.1444 -2.4988 0.9527
-3.2582 -11.3946 -2.4985 0.9527
-2.2310 -11.6392 -2.4984 0.9527
-1.1862 -11.7913 -2.4984 0.9527
3.0032 -11.4630 -2.4982 0.9527
4.0115 -11.1501 -2.4982 0.9527
4.9879 -10.7485 -2.4981 0.9527
8.4250 -8.3316 -2.4980 0.9527
11.1930 -3.8866 -2.4979 0.9527
11.7047 -1.8404 -2.4979 0.9527
11.8221 -0.7914 -2.4979 0.9527
11.8457 0.2640 -2.4979 0.9527
10.9031 2.2162 -2.3456 0.9555
10.3376 4.1143 -2.3456 0.9555
5.9875 9.3793 -2.3459 0.9555
4.2298 10.2927 -2.3460 0.9555
3.2970 10.6285 -2.3460 0.9555
1.2570 5.8498 -1.2614 0.9758
1.3603 11.0451 -2.3461 0.9555
0.3719 11.1226 -2.3462 0.9555
-0.6196 11.1118 -2.3462 0.9555
-4.4588 10.1976 -2.3464 0.9555
-5.3488 9.7605 -2.3464 0.9555
-6.1964 9.2458 -2.3465 0.9555
-7.7378 8.0008 -2.3465 0.9555
-8.4193 7.2804 -2.3465 0.9555
-9.0339 6.5022 -2.3466 0.9555
-9.5768 5.6724 -2.3466 0.9555
-11.8068 1.0551 -2.4990 0.9527
-10.9487 0.0000 -2.4990 0.9561
-10.9052 -0.9744 -2.4990 0.9561
-10.7751 -1.9412 -2.4989 0.9561
-10.5595 -2.8925 -2.4989 0.9561
-9.8791 -4.7188 -2.4989 0.9561
-8.8857 -6.3955 -2.4988 0.9561
-8.2811 -7.1609 -2.4988 0.9561
-7.6107 -7.8694 -2.4987 0.9561
-6.8800 -8.5154 -2.4987 0.9561
-5.2610 -9.6000 -2.4986 0.9561
-2.5376 -10.6483 -2.4985 0.9561
-0.6094 -10.9291 -2.4984 0.9561
0.3658 -10.9398 -2.4983 0.9561
5.0448 -9.7130 -2.4981 0.9561
5.8893 -9.2253 -2.4981 0.9561
6.6869 -8.6644 -2.4981 0.9561
7.4315 -8.0348 -2.4980 0.9561
8.7382 -6.5897 -2.4980 0.9561
9.2899 -5.7858 -2.4980 0.9561
9.7680 -4.9360 -2.4980 0.9561
10.4883 -3.1258 -2.4979 0.9561
10.7249 -2.1799 -2.4979 0.9561
10.8764 -1.2166 -2.4979 0.9561
9.9698 2.4936 -2.3456 0.9587
9.3699 4.2219 -2.3457 0.9587
8.9570 5.0392 -2.3457 0.9587
8.4731 5.8165 -2.3457 0.9587
7.9219 6.5476 -2.3458 0.9587
6.6356 7.8487 -2.3458 0.9587
5.9108 8.4083 -2.3459 0.9587
4.3265 9.3235 -2.3460 0.9587
1.5129 5.7747 -1.3625 0.9758
1.7097 10.1358 -2.3461 0.9587
-0.1145 10.2787 -2.3462 0.9587
-1.0289 10.2279 -2.3462 0.9587
-1.9352 10.0959 -2.3463 0.9587
-2.8261 9.8837 -2.3463 0.9587
-3.6947 9.5931 -2.3463 0.9587
-5.3372 8.7863 -2.3464 0.9587
-6.0981 8.2765 -2.3464 0.9587
-6.8107 7.7010 -2.3465 0.9587
-7.4691 7.0643 -2.3465 0.9587
-10.0800 4.2743 -2.4990 0.9561
-10.4204 3.3602 -2.4990 0.9561
-10.9379 0.4878 -2.4990 0.9561
-10.6779 -2.4193 -2.4989 0.9561
-10.0796 -4.2741 -2.4989 0.9561
-9.6590 -5.1542 -2.4989 0.9561
-7.2525 -8.2005 -2.4987 0.9561
-4.8281 -9.8248 -2.4986 0.9561
-3.9344 -10.2153 -2.4985 0.9561
-3.0095 -10.5247 -2.4985 0.9561
-1.0957 -10.8912 -2.4984 0.9561
-0.1219 -10.9453 -2.4984 0.9561
2.7740 -10.5881 -2.4982 0.9561
3.7053 -10.2990 -2.4982 0.9561
4.6072 -9.9281 -2.4981 0.9561
5.4725 -9.4786 -2.4981 0.9561
7.0662 -8.3579 -2.4980 0.9561
8.4360 -6.9725 -2.4980 0.9561
10.8114 -1.7000 -2.4979 0.9561
10.9198 -0.7310 -2.4980 0.9561
9.1726 4.6351 -2.3457 0.9587
8.7237 5.4332 -2.3457 0.9587
8.2056 6.1882 -2.3458 0.9587
6.2795 8.1366 -2.3459 0.9587
5.5305 8.6633 -2.3459 0.9587
4.7375 9.1214 -2.3459 0.9587
3.9069 9.5070 -2.3460 0.9587
1.2569 5.8489 -1.3654 0.9758
1.2565 10.2020 -2.3461 0.9587
0.3435 10.2735 -2.3462 0.9587
-1.4835 10.1720 -2.3462 0.9587
-2.3830 9.9997 -2.3463 0.9587
-4.1184 9.4191 -2.3464 0.9587
-5.7233 8.5399 -2.3464 0.9587
-7.7764 6.7246 -2.3465 0.9587
-8.8456 5.2393 -2.3465 0.9587
-9.8795 4.7191 -2.4990 0.9561
-10.2604 3.8210 -2.4990 0.9561
-10.5598 2.8926 -2.4990 0.9561
-10.9053 0.9745 -2.4990 0.9561
-10.1261 -0.9048 -2.4989 0.9590
-10.0054 -1.8025 -2.4989 0.9590
-9.5271 -3.5479 -2.4989 0.9590
-9.1734 -4.3817 -2.4988 0.9590
-7.6895 -6.6494 -2.4987 0.9590
-7.0671 -7.3073 -2.4987 0.9590
-5.6593 -8.4443 -2.4986 0.9590
-3.2271 -9.6389 -2.4985 0.9590
-2.3564 -9.8877 -2.4985 0.9590
-1.4669 -10.0580 -2.4984 0.9590
-0.5659 -10.1485 -2.4984 0.9590
1.2424 -10.0877 -2.4983 0.9590
2.1353 -9.9369 -2.4983 0.9590
5.4687 -8.5665 -2.4981 0.9590
6.2094 -8.0456 -2.4981 0.9590
6.9007 -7.4610 -2.4981 0.9590
7.5374 -6.8171 -2.4980 0.9590
8.1141 -6.1191 -2.4980 0.9590
8.6265 -5.3726 -2.4980 0.9590
9.7394 -2.9026 -2.4980 0.9590
9.9590 -2.0242 -2.4980 0.9590
10.1602 -0.2264 -2.4980 0.9590
10.1401 0.6788 -2.4980 0.9590
9.0150 3.1304 -2.3457 0.9615
8.3174 4.6793 -2.3457 0.9615
7.8680 5.4011 -2.3458 0.9615
5.4887 7.8078 -2.3459 0.9615
4.7721 8.2655 -2.3459 0.9614
0.7436 9.5159 -2.3461 0.9614
-0.1063 9.5445 -2.3462 0.9614
-0.9554 9.4973 -2.3462 0.9614
-2.6243 9.1778 -2.3463 0.9614
-3.4308 8.9079 -2.3463 0.9614
-4.2101 8.5673 -2.3464 0.9614
-5.6625 7.6853 -2.3464 0.9614
-6.3241 7.1508 -2.3464 0.9614
-7.4919 5.9164 -2.3465 0.9614
-7.9888 5.2261 -2.3465 0.9614
-9.3598 3.9689 -2.4989 0.9590
-10.1565 0.4529 -2.4989 0.9590
-9.9151 -2.2464 -2.4989 0.9590
-7.3856 -6.9853 -2.4987 0.9590
-6.7345 -7.6148 -2.4987 0.9590
-5.2775 -8.6879 -2.4986 0.9590
-4.4832 -9.1230 -2.4986 0.9590
-1.9135 -9.9828 -2.4984 0.9590
2.5758 -9.8319 -2.4982 0.9590
4.2781 -9.2191 -2.4982 0.9590
5.8448 -8.3143 -2.4981 0.9590
6.5616 -7.7610 -2.4981 0.9590
8.8573 -4.9829 -2.4980 0.9590
9.2656 -4.1748 -2.4980 0.9590
9.6004 -3.3336 -2.4980 0.9590
9.8590 -2.4658 -2.4980 0.9590
10.0393 -1.5786 -2.4980 0.9590
10.1602 0.2264 -2.4980 0.9590
10.0998 1.1299 -2.4980 0.9590
8.8667 3.5289 -2.3457 0.9615
8.1007 5.0452 -2.3457 0.9615
7.0780 6.4017 -2.3458 0.9615
5.8310 7.5555 -2.3459 0.9615
4.3992 8.4699 -2.3460 0.9614
2.8278 9.1160 -2.3460 0.9614
1.1667 9.4733 -2.3461 0.9614
0.3190 9.5397 -2.3462 0.9614
-2.2128 9.2854 -2.3463 0.9614
-4.5875 8.3713 -2.3464 0.9614
-6.6364 6.8621 -2.3464 0.9614
-7.2209 6.2442 -2.3465 0.9614
-9.1737 4.3820 -2.4989 0.9590
-10.0055 1.8026 -2.4989 0.9590
-9.4835 0.0000 -2.4989 0.9615
-9.3331 -1.6814 -2.4989 0.9615
-8.8870 -3.3096 -2.4988 0.9615
-8.5571 -4.0874 -2.4988 0.9615
-8.1592 -4.8327 -2.4988 0.9615
-6.5923 -6.8164 -2.4987 0.9615
-5.9594 -7.3760 -2.4987 0.9615
-4.5570 -8.3154 -2.4986 0.9615
-3.7987 -8.6879 -2.4985 0.9615
-3.0103 -8.9914 -2.4985 0.9615
-1.3684 -9.3824 -2.4984 0.9615
5.1014 -7.9911 -2.4981 0.9615
7.0311 -6.3592 -2.4981 0.9615
8.0471 -5.0118 -2.4980 0.9615
8.8082 -3.5055 -2.4980 0.9615
9.0852 -2.7076 -2.4980 0.9615
9.2902 -1.8883 -2.4980 0.9615
9.4778 -0.2112 -2.4980 0.9615
14.0506 2.2094 -3.7478 0.9429
8.4096 2.9202 -2.3457 0.9638
7.7587 4.3650 -2.3458 0.9638
6.3301 6.2600 -2.3458 0.9638
5.7479 6.7986 -2.3459 0.9638
5.1200 7.2833 -2.3459 0.9638
4.4515 7.7103 -2.3459 0.9638
3.7477 8.0760 -2.3460 0.9638
3.0140 8.3776 -2.3460 0.9638
1.4809 8.7796 -2.3461 0.9638
0.6936 8.8767 -2.3461 0.9638
-0.0992 8.9033 -2.3462 0.9638
-0.8912 8.8593 -2.3462 0.9638
-3.9272 7.9917 -2.3463 0.9638
-5.2821 7.1689 -2.3464 0.9638
-6.4696 6.1189 -2.3464 0.9638
-7.4964 4.9042 -2.3606 0.9636
-8.3668 4.4647 -2.4989 0.9615
-9.2491 2.0956 -2.4989 0.9615
-9.2490 -2.0955 -2.4989 0.9615
-9.0257 -2.9104 -2.4989 0.9615
-8.7307 -3.7021 -2.4988 0.9615
-8.3665 -4.4645 -2.4988 0.9615
-7.4422 -5.8770 -2.4987 0.9615
-6.8895 -6.5160 -2.4987 0.9615
-4.1820 -8.5101 -2.4986 0.9615
-1.7850 -9.3122 -2.4984 0.9615
-0.1056 -9.4808 -2.4984 0.9615
1.5770 -9.3491 -2.4983 0.9615
2.4028 -9.1714 -2.4983 0.9615
3.9908 -8.5999 -2.4982 0.9615
4.7403 -8.2105 -2.4982 0.9615
6.1209 -7.2397 -2.4981 0.9615
7.3074 -6.0397 -2.4981 0.9615
7.8159 -5.3653 -2.4980 0.9615
8.2624 -4.6483 -2.4980 0.9615
8.6433 -3.8944 -2.4980 0.9615
8.9556 -3.1097 -2.4980 0.9615
9.1968 -2.3003 -2.4980 0.9615
9.4590 -0.6331 -2.4980 0.9615
9.4778 0.2113 -2.4980 0.9615
9.4215 1.0540 -2.4980 0.9615
8.5313 2.5426 -2.3457 0.9638
7.9454 4.0151 -2.3457 0.9638
7.1078 5.3603 -2.3458 0.9638
6.6026 5.9717 -2.3458 0.9638
5.4393 7.0480 -2.3459 0.9638
2.6379 8.5037 -2.3460 0.9638
0.2975 8.8988 -2.3461 0.9638
-0.4957 8.8902 -2.3462 0.9638
-3.5673 8.1587 -2.3463 0.9638
-8.1596 4.8330 -2.4989 0.9615
-8.5574 4.0876 -2.4989 0.9615
-8.8873 3.3097 -2.4989 0.9615
-9.1466 2.5056 -2.4989 0.9615
-9.3333 1.6815 -2.4989 0.9615
-9.4459 0.8441 -2.4989 0.9615
-5.0319 0.0000 -1.4157 0.9793
-3.9277 -0.3510 -1.1095 0.9837
-3.7284 -0.6717 -1.0659 0.9844
-8.0139 -3.8279 -2.4988 0.9638
-7.6413 -4.5260 -2.4988 0.9638
-6.1739 -6.3837 -2.4987 0.9638
-5.5811 -6.9078 -2.4986 0.9638
-4.2678 -7.7877 -2.4986 0.9638
-3.5576 -8.1365 -2.4985 0.9638
0.2967 -8.8747 -2.4984 0.9638
1.0854 -8.8129 -2.4983 0.9638
1.8655 -8.6812 -2.4983 0.9638
2.6307 -8.4806 -2.4983 0.9638
3.3751 -8.2127 -2.4982 0.9638
5.4247 -7.0290 -2.4981 0.9638
6.5850 -5.9557 -2.4981 0.9638
7.0889 -5.3459 -2.4981 0.9638
7.9243 -4.0043 -2.4981 0.9638
8.2493 -3.2831 -2.4980 0.9638
8.5087 -2.5358 -2.4980 0.9638
8.8588 0.5931 -2.4981 0.9638
7.6013 3.4250 -2.3458 0.9659
6.8738 4.7186 -2.3458 0.9659
6.4266 5.3117 -2.3458 0.9659
5.9284 5.8628 -2.3459 0.9659
5.3831 6.3672 -2.3459 0.9659
4.7951 6.8212 -2.3459 0.9659
2.8228 7.8460 -2.3460 0.9659
1.3869 8.2224 -2.3461 0.9659
0.6496 8.3133 -2.3461 0.9659
-0.0929 8.3383 -2.3462 0.9659
-0.8347 8.2970 -2.3462 0.9659
-1.5699 8.1899 -2.3462 0.9659
-2.2926 8.0178 -2.3463 0.9659
-3.6780 7.4845 -2.3463 0.9659
-5.5248 6.2471 -2.3464 0.9659
-6.5450 5.1686 -2.3464 0.9659
-7.4324 4.8621 -2.4989 0.9638
-8.1768 3.4673 -2.4989 0.9638
-8.4530 2.7258 -2.4989 0.9638
-8.6620 1.9626 -2.4989 0.9638
-8.8727 0.3957 -2.4989 0.9638
-4.2110 -0.1878 -1.1860 0.9826
-3.7396 -0.5029 -1.0616 0.9844
-8.4528 -2.7256 -2.4988 0.9638
-8.1765 -3.4671 -2.4988 0.9638
-7.4321 -4.8618 -2.4988 0.9638
-6.4522 -6.1024 -2.4987 0.9638
-4.6105 -7.5899 -2.4986 0.9638
-1.6717 -8.7212 -2.4984 0.9638
-0.8888 -8.8353 -2.4984 0.9638
3.0059 -8.3550 -2.4982 0.9638
3.7376 -8.0542 -2.4982 0.9638
7.3200 -5.0248 -2.4981 0.9638
7.7381 -4.3533 -2.4981 0.9638
8.0949 -3.6473 -2.4981 0.9638
8.3873 -2.9124 -2.4980 0.9638
8.7708 -1.3791 -2.4980 0.9638
8.8588 -0.5930 -2.4980 0.9638
8.8764 0.1979 -2.4981 0.9638
8.8236 0.9871 -2.4981 0.9638
13.0539 2.6533 -3.7479 0.9462
6.6568 5.0201 -2.3458 0.9659
6.1836 5.5928 -2.3458 0.9659
4.4865 7.0280 -2.3459 0.9659
3.8432 7.3996 -2.3460 0.9659
3.1694 7.7124 -2.3460 0.9659
2.4705 7.9640 -2.3460 0.9659
1.2299 5.7237 -1.6472 0.9760
-0.4642 8.3259 -2.3462 0.9659
-1.9331 8.1119 -2.3462 0.9659
-3.3409 7.6409 -2.3463 0.9659
-4.0077 7.3132 -2.3463 0.9659
-4.6428 6.9276 -2.3464 0.9659
-5.7976 5.9947 -2.3464 0.9659
-6.3082 5.4550 -2.3464 0.9659
-10.8149 7.7841 -3.7490 0.9461
-8.0142 3.8281 -2.4989 0.9638
-8.3231 3.0996 -2.4989 0.9638
-8.7408 1.5748 -2.4989 0.9638
-8.8463 0.7906 -2.4989 0.9638
-3.9676 0.0000 -1.1878 0.9836
-3.5918 -0.3209 -1.0796 0.9851
-3.4925 -0.9567 -1.0841 0.9850
-7.5314 -3.5974 -2.4988 0.9658
-7.1813 -4.2534 -2.4988 0.9658
-3.3435 -7.6467 -2.4985 0.9658
-2.6495 -7.9138 -2.4985 0.9658
-1.2044 -8.2580 -2.4984 0.9658
-0.4646 -8.3322 -2.4984 0.9658
0.2789 -8.3404 -2.4984 0.9658
1.0201 -8.2824 -2.4983 0.9658
1.7532 -8.1586 -2.4983 0.9658
2.4724 -7.9701 -2.4983 0.9658
3.1719 -7.7183 -2.4982 0.9658
3.8462 -7.4053 -2.4982 0.9658
5.0982 -6.6059 -2.4982 0.9658
5.6659 -6.1258 -2.4981 0.9658
7.0829 -4.4112 -2.4981 0.9658
7.4473 -3.7632 -2.4981 0.9658
7.7527 -3.0854 -2.4981 0.9658
7.9966 -2.3832 -2.4981 0.9658
8.1769 -1.6620 -2.4981 0.9658
8.3421 -0.1859 -2.4981 0.9658
8.2430 1.2962 -2.4981 0.9658
12.1448 3.0377 -3.7479 0.9491
6.4600 4.4346 -2.3458 0.9678
6.0397 4.9920 -2.3458 0.9678
5.5715 5.5098 -2.3459 0.9678
5.0591 5.9839 -2.3459 0.9678
4.5064 6.4105 -2.3459 0.9678
3.9180 6.7863 -2.3460 0.9678
2.6528 7.3736 -2.3460 0.9678
1.4770 5.6376 -1.7447 0.9760
1.3034 7.7273 -2.3461 0.9678
-0.7844 7.7975 -2.3462 0.9678
-1.4753 7.6968 -2.3462 0.9678
-2.1546 7.5350 -2.3462 0.9678
-5.1921 5.8709 -2.3464 0.9678
-6.1509 4.8573 -2.3464 0.9678
-8.2723 1.1126 -2.4989 0.9657
-4.8506 0.2163 -1.4536 0.9799
-3.4642 -0.7849 -1.0634 0.9853
-7.6842 -3.2584 -2.4988 0.9658
-6.5501 -5.1726 -2.4987 0.9658
-5.5291 -6.2519 -2.4987 0.9658
-4.9507 -6.7191 -2.4986 0.9658
-4.3329 -7.1329 -2.4986 0.9658
-2.2944 -8.0239 -2.4985 0.9658
-0.8353 -8.3033 -2.4984 0.9658
1.3880 -8.2287 -2.4983 0.9658
3.5126 -7.5693 -2.4982 0.9658
4.1723 -7.2266 -2.4982 0.9658
4.7989 -6.8264 -2.4982 0.9658
5.3874 -6.3722 -2.4981 0.9658
5.9331 -5.8673 -2.4981 0.9658
6.4317 -5.3159 -2.4981 0.9658
7.2723 -4.0913 -2.4981 0.9658
8.3255 -0.5572 -2.4981 0.9658
8.2925 0.9277 -2.4981 0.9658
12.2681 2.4936 -3.7479 0.9491
11.9976 3.5756 -3.7479 0.9491
7.2800 2.8974 -2.3458 0.9678
6.9933 3.5339 -2.3458 0.9678
6.2561 4.7180 -2.3458 0.9678
5.8114 5.2561 -2.3459 0.9678
5.3206 5.7526 -2.3459 0.9678
4.7875 6.2033 -2.3459 0.9678
4.2164 6.6049 -2.3459 0.9678
2.9786 7.2481 -2.3460 0.9678
2.3217 7.4845 -2.3460 0.9678
0.9579 7.7778 -2.3461 0.9678
-2.4881 7.4316 -2.3463 0.9678
-3.7664 6.8729 -2.3463 0.9678
-4.3632 6.5104 -2.3463 0.9678
-5.9284 5.1265 -2.3464 0.9678
-8.0502 2.2052 -2.4989 0.9657
-8.2145 1.4799 -2.4989 0.9657
-3.7562 0.0000 -1.1929 0.9844
-3.2843 -0.5917 -1.0598 0.9861
-3.2540 -0.8913 -1.0715 0.9859
-7.3734 -2.7458 -2.4988 0.9675
-7.0997 -3.3912 -2.4988 0.9675
-6.3858 -4.5962 -2.4987 0.9675
-5.9513 -5.1462 -2.4987 0.9675
-5.4695 -5.6554 -2.4987 0.9675
-4.9444 -6.1197 -2.4986 0.9675
-4.3800 -6.5355 -2.4986 0.9675
-3.7809 -6.8993 -2.4986 0.9675
-3.1518 -7.2083 -2.4985 0.9675
-2.4977 -7.4602 -2.4985 0.9675
-1.8237 -7.6528 -2.4985 0.9675
0.9616 -7.8077 -2.4983 0.9675
2.9901 -7.2760 -2.4982 0.9675
3.6258 -6.9809 -2.4982 0.9675
5.8339 -5.2764 -2.4981 0.9675
6.6769 -4.1583 -2.4981 0.9675
7.7083 -1.5667 -2.4981 0.9675
7.8640 -0.1752 -2.4981 0.9675
7.8484 0.5254 -2.4981 0.9675
7.7705 1.2219 -2.4981 0.9675
11.4488 2.8636 -3.7480 0.9517
11.1486 3.8712 -3.7480 0.9517
6.7343 3.0344 -2.3458 0.9695
6.0897 4.1804 -2.3458 0.9695
5.6935 4.7059 -2.3459 0.9695
5.2522 5.1940 -2.3459 0.9695
4.2481 6.0431 -2.3459 0.9695
3.1094 6.7007 -2.3460 0.9695
1.4736 5.6246 -1.8466 0.9759
1.2287 7.2844 -2.3461 0.9695
0.5755 7.3650 -2.3461 0.9695
-0.0823 7.3871 -2.3461 0.9695
-1.3908 7.2556 -2.3462 0.9695
-3.2583 6.6306 -2.3463 0.9695
-3.8356 6.3143 -2.3463 0.9695
-5.3677 5.0767 -2.3464 0.9695
-9.2643 7.3160 -3.7490 0.9517
-9.8787 6.4624 -3.7490 0.9517
-7.4886 2.4148 -2.4988 0.9675
-3.4557 -0.1541 -1.0986 0.9856
-3.3189 -0.4463 -1.0635 0.9860
-3.2591 -0.7384 -1.0613 0.9861
-3.2827 -1.0585 -1.0954 0.9856
-6.9415 -3.7041 -2.4987 0.9675
-6.5842 -4.3071 -2.4987 0.9675
-4.6669 -6.3339 -2.4986 0.9675
-4.0845 -6.7240 -2.4986 0.9675
-3.4698 -7.0608 -2.4985 0.9675
-2.8275 -7.3415 -2.4985 0.9675
-0.7874 -7.8274 -2.4984 0.9675
-0.0876 -7.8663 -2.4984 0.9675
1.9937 -7.6097 -2.4983 0.9675
3.9332 -6.8124 -2.4982 0.9675
4.5238 -6.4352 -2.4982 0.9675
5.0786 -6.0070 -2.4982 0.9675
5.5931 -5.5311 -2.4981 0.9675
6.0631 -5.0112 -2.4981 0.9675
7.1716 -3.2313 -2.4981 0.9675
7.6309 -1.9085 -2.4981 0.9675
7.7704 -1.2218 -2.4981 0.9675
7.8484 -0.5254 -2.4981 0.9675
7.8640 0.1753 -2.4981 0.9675
6.5925 3.3314 -2.3458 0.9695
6.2699 3.9049 -2.3458 0.9695
5.8975 4.4476 -2.3458 0.9695
4.5131 5.8478 -2.3459 0.9695
3.4048 6.5555 -2.3460 0.9695
2.1886 7.0555 -2.3460 0.9695
0.9030 7.3320 -2.3461 0.9695
-0.4113 7.3761 -2.3462 0.9695
-3.5505 6.4789 -2.3463 0.9695
-4.1131 6.1372 -2.3463 0.9695
-4.6431 5.7469 -2.3463 0.9695
-5.1362 5.3108 -2.3464 0.9695
-5.5885 4.8326 -2.3464 0.9695
-6.7698 4.0098 -2.4988 0.9675
-7.7436 1.3951 -2.4988 0.9675
-3.6184 0.0000 -1.2157 0.9848
-3.2019 -0.2861 -1.0801 0.9865
-3.1483 -0.5672 -1.0748 0.9866
-6.9696 -2.5954 -2.4988 0.9691
-6.3989 -3.7900 -2.4987 0.9691
-5.1700 -5.3457 -2.4986 0.9691
-4.6737 -5.7846 -2.4986 0.9691
-4.1402 -6.1776 -2.4986 0.9691
-2.9792 -6.8136 -2.4985 0.9691
-1.7239 -7.2337 -2.4985 0.9691
0.2485 -7.4318 -2.4984 0.9691
2.2030 -7.1019 -2.4983 0.9691
2.8264 -6.8776 -2.4983 0.9691
4.0010 -6.2673 -2.4982 0.9691
4.5429 -5.8863 -2.4982 0.9691
5.9365 -4.4769 -2.4981 0.9691
6.6361 -3.3534 -2.4981 0.9691
6.9083 -2.7494 -2.4981 0.9691
7.2863 -1.4809 -2.4981 0.9691
7.3892 -0.8266 -2.4981 0.9691
7.4187 0.4967 -2.4981 0.9691
6.3656 2.8683 -2.3458 0.9710
6.0851 3.4234 -2.3458 0.9710
5.3818 4.4482 -2.3459 0.9710
4.9646 4.9096 -2.3459 0.9710
4.5079 5.3321 -2.3459 0.9710
3.4912 6.0470 -2.3460 0.9710
2.3638 6.5704 -2.3460 0.9710
1.1615 6.8855 -2.3461 0.9710
0.5440 6.9617 -2.3461 0.9710
-0.0778 6.9826 -2.3461 0.9710
-0.6990 6.9480 -2.3462 0.9710
-1.3146 6.8583 -2.3462 0.9710
-1.9198 6.7141 -2.3462 0.9710
-2.5098 6.5167 -2.3463 0.9710
-3.0799 6.2675 -2.3463 0.9710
-3.6256 5.9685 -2.3463 0.9710
-4.1424 5.6222 -2.3463 0.9710
-5.0737 4.7987 -2.3464 0.9710
-8.7569 6.9153 -3.7489 0.9540
-6.2239 4.0715 -2.4988 0.9691
-3.2675 -0.1457 -1.0989 0.9863
-3.1639 -0.4255 -1.0726 0.9866
-3.1355 -0.7104 -1.0802 0.9865
-3.1417 -1.0131 -1.1091 0.9862
-6.5614 -3.5012 -2.4987 0.9691
-6.2236 -4.0712 -2.4987 0.9691
-5.8365 -4.6090 -2.4987 0.9691
-4.4113 -5.9871 -2.4986 0.9691
-3.2798 -6.6742 -2.4985 0.9691
-2.6727 -6.9395 -2.4985 0.9691
-2.0444 -7.1498 -2.4985 0.9691
-1.3999 -7.3033 -2.4985 0.9691
1.8845 -7.1930 -2.4983 0.9691
2.5172 -6.9967 -2.4983 0.9691
3.1299 -6.7448 -2.4982 0.9691
3.7178 -6.4394 -2.4982 0.9691
4.2762 -6.0828 -2.4982 0.9691
5.2868 -5.2282 -2.4982 0.9691
5.7312 -4.7369 -2.4981 0.9691
6.1300 -4.2079 -2.4981 0.9691
6.7789 -3.0544 -2.4981 0.9691
7.0239 -2.4389 -2.4981 0.9691
7.2131 -1.8041 -2.4981 0.9691
7.3450 -1.1549 -2.4981 0.9691
7.4187 -0.4966 -2.4981 0.9691
7.4334 0.1657 -2.4981 0.9691
7.2864 1.4811 -2.4981 0.9691
6.2315 3.1490 -2.3458 0.9710
5.9266 3.6911 -2.3458 0.9710
5.5746 4.2040 -2.3459 0.9710
4.7410 5.1259 -2.3459 0.9710
2.6541 6.4585 -2.3460 0.9710
0.2333 6.9790 -2.3461 0.9710
-0.3888 6.9722 -2.3462 0.9710
-3.8878 5.8012 -2.3463 0.9710
-4.3888 5.4321 -2.3463 0.9710
-4.8549 5.0200 -2.3463 0.9710
-8.4401 7.2985 -3.7489 0.9540
-6.7110 3.2056 -2.4988 0.9691
-7.1731 1.9650 -2.4988 0.9691
-7.4078 0.6620 -2.4988 0.9691
-3.4902 0.0000 -1.2376 0.9853
-3.0442 -0.5484 -1.0968 0.9870
-3.0229 -0.8281 -1.1114 0.9868
-3.0314 -1.1289 -1.1470 0.9864
-6.0631 -3.5912 -2.4987 0.9705
-3.9230 -5.8534 -2.4986 0.9705
-3.3864 -6.1793 -2.4986 0.9705
-2.8229 -6.4561 -2.4985 0.9705
-2.2370 -6.6816 -2.4985 0.9705
0.2355 -7.0419 -2.4984 0.9705
1.4803 -6.8885 -2.4983 0.9705
2.0875 -6.7293 -2.4983 0.9705
3.7911 -5.9385 -2.4982 0.9705
4.7839 -5.1722 -2.4982 0.9705
5.2252 -4.7258 -2.4982 0.9705
5.6250 -4.2420 -2.4982 0.9705
6.2880 -3.1774 -2.4981 0.9705
6.9040 -1.4033 -2.4981 0.9705
7.0015 -0.7832 -2.4981 0.9705
7.0295 0.4706 -2.4981 0.9705
6.8348 1.7096 -2.4982 0.9705
6.0317 2.7178 -2.3458 0.9723
5.7659 3.2438 -2.3458 0.9723
5.0995 4.2149 -2.3459 0.9723
4.2715 5.0523 -2.3459 0.9723
3.3081 5.7298 -2.3460 0.9723
2.7850 6.0015 -2.3460 0.9723
0.5155 6.5964 -2.3461 0.9723
-0.0737 6.6162 -2.3461 0.9723
-0.6623 6.5834 -2.3462 0.9723
-1.2456 6.4984 -2.3462 0.9723
-2.3781 6.1748 -2.3462 0.9723
-2.9183 5.9387 -2.3463 0.9723
-3.4353 5.6554 -2.3463 0.9723
-4.3837 4.9567 -2.3463 0.9723
-7.6813 7.2649 -3.7489 0.9561
-8.2974 6.5524 -3.7489 0.9561
-5.8973 3.8578 -2.4988 0.9705
-6.2173 3.3177 -2.4988 0.9705
-6.4879 2.7512 -2.4988 0.9705
-6.9842 0.9393 -2.4988 0.9705
-3.0241 -0.6852 -1.0995 0.9869
-3.0191 -0.9735 -1.1248 0.9866
-6.4877 -2.7510 -2.4987 0.9705
-6.2171 -3.3175 -2.4987 0.9705
-5.8971 -3.8577 -2.4987 0.9705
-5.5303 -4.3672 -2.4987 0.9705
-5.1196 -4.8420 -2.4986 0.9705
-4.1798 -5.6729 -2.4986 0.9705
-3.6583 -6.0224 -2.4986 0.9705
-2.5325 -6.5754 -2.4985 0.9705
-1.3265 -6.9200 -2.4985 0.9705
-0.7053 -7.0106 -2.4984 0.9705
-0.0785 -7.0455 -2.4984 0.9705
0.5489 -7.0244 -2.4984 0.9705
1.1719 -6.9476 -2.4983 0.9705
2.3852 -6.6296 -2.4983 0.9705
2.9657 -6.3909 -2.4983 0.9705
3.5228 -6.1016 -2.4982 0.9705
4.5487 -5.3802 -2.4982 0.9705
5.0095 -4.9539 -2.4982 0.9705
5.4305 -4.4884 -2.4982 0.9705
5.8084 -3.9872 -2.4982 0.9705
6.6554 -2.3110 -2.4981 0.9705
6.8347 -1.7095 -2.4981 0.9705
6.9597 -1.0943 -2.4981 0.9705
7.0295 -0.4705 -2.4981 0.9705
7.0435 0.1570 -2.4981 0.9705
7.0016 0.7833 -2.4982 0.9705
6.9041 1.4034 -2.4982 0.9705
10.1298 3.0190 -3.7480 0.9561
9.8210 3.9087 -3.7481 0.9561
5.9046 2.9838 -2.3458 0.9723
5.6157 3.4975 -2.3458 0.9723
4.9067 4.4378 -2.3459 0.9723
4.4923 4.8570 -2.3459 0.9723
3.5600 5.5767 -2.3460 0.9723
3.0495 5.8714 -2.3460 0.9723
1.2127 5.6435 -2.0468 0.9758
0.8088 6.5669 -2.3461 0.9723
-0.3684 6.6064 -2.3462 0.9723
-0.9549 6.5474 -2.3462 0.9723
-1.5339 6.4366 -2.3462 0.9723
-3.1800 5.8028 -2.3463 0.9723
-4.1585 5.1471 -2.3463 0.9723
-4.6001 4.7566 -2.3463 0.9723
-7.9973 6.9155 -3.7489 0.9561
-5.7195 4.1167 -2.4988 0.9705
-6.6040 2.4594 -2.4988 0.9705
-6.7967 1.8618 -2.4988 0.9705
-6.9354 1.2495 -2.4988 0.9705
-2.9169 -0.7990 -1.1293 0.9872
-2.9238 -1.0888 -1.1650 0.9868
-6.0381 -2.8841 -2.4987 0.9718
-5.7574 -3.4101 -2.4987 0.9718
-5.4310 -3.9090 -2.4987 0.9718
-5.0615 -4.3768 -2.4987 0.9718
-4.6518 -4.8099 -2.4986 0.9718
-3.7252 -5.5583 -2.4986 0.9718
-3.2156 -5.8678 -2.4986 0.9718
-2.1242 -6.3448 -2.4985 0.9718
-0.9656 -6.6208 -2.4984 0.9718
-0.3725 -6.6804 -2.4984 0.9718
0.2236 -6.6870 -2.4984 0.9718
0.8179 -6.6404 -2.4984 0.9718
1.9822 -6.3901 -2.4983 0.9718
2.5431 -6.1882 -2.4983 0.9718
3.6000 -5.6392 -2.4982 0.9718
4.9618 -4.4876 -2.4982 0.9718
5.6788 -3.5367 -2.4982 0.9718
5.9710 -3.0173 -2.4982 0.9718
6.6884 -0.1490 -2.4982 0.9718
6.6752 0.4469 -2.4982 0.9718
5.1794 3.5555 -2.3459 0.9735
4.8424 4.0024 -2.3459 0.9735
3.1413 5.4409 -2.3460 0.9735
2.1269 5.9118 -2.3460 0.9735
1.4632 5.5852 -2.1560 0.9756
0.4895 6.2638 -2.3461 0.9735
-0.0700 6.2826 -2.3461 0.9735
-0.6289 6.2516 -2.3462 0.9735
-1.7274 6.0411 -2.3462 0.9735
-4.1627 4.7068 -2.3463 0.9735
-7.8791 6.2221 -3.7489 0.9580
-6.1608 2.6124 -2.4988 0.9718
-6.6321 0.8920 -2.4988 0.9718
-3.0832 -0.1375 -1.1525 0.9869
-2.9640 -0.3986 -1.1167 0.9873
-2.9106 -0.9385 -1.1419 0.9870
-6.1606 -2.6123 -2.4987 0.9718
-5.5998 -3.6632 -2.4987 0.9718
-4.4329 -5.0123 -2.4986 0.9718
-3.9691 -5.3869 -2.4986 0.9718
-3.4739 -5.7187 -2.4986 0.9718
-2.9510 -6.0052 -2.4985 0.9718
-2.4048 -6.2439 -2.4985 0.9718
-1.8395 -6.4331 -2.4985 0.9718
-1.2596 -6.5712 -2.4985 0.9718
-0.6697 -6.6572 -2.4984 0.9718
-0.0745 -6.6903 -2.4984 0.9718
1.1129 -6.5973 -2.4983 0.9718
2.2649 -6.2954 -2.4983 0.9718
4.3194 -5.1090 -2.4982 0.9718
4.7570 -4.7042 -2.4982 0.9718
5.1568 -4.2621 -2.4982 0.9718
5.5156 -3.7862 -2.4982 0.9718
5.8307 -3.2803 -2.4982 0.9718
6.4902 -1.6233 -2.4981 0.9718
6.6089 -1.0391 -2.4981 0.9718
6.6752 -0.4468 -2.4982 0.9718
6.6487 0.7438 -2.4982 0.9718
6.5561 1.3326 -2.4982 0.9718
6.4115 1.9108 -2.4982 0.9718
9.3259 3.7116 -3.7481 0.9580
3.8384 4.9736 -2.3459 0.9735
2.3881 5.8112 -2.3460 0.9735
1.8614 6.0007 -2.3460 0.9735
1.2099 5.6302 -2.1504 0.9757
0.7680 6.2358 -2.3461 0.9735
0.2100 6.2795 -2.3461 0.9735
-0.9068 6.2173 -2.3462 0.9735
-1.9948 5.9582 -2.3462 0.9735
-2.5172 5.7571 -2.3462 0.9735
-4.3682 4.5167 -2.3463 0.9735
-5.4312 3.9092 -2.4988 0.9718
-5.7576 3.4103 -2.4988 0.9718
-6.4540 1.7680 -2.4988 0.9718
-6.5857 1.1865 -2.4988 0.9718
-4.2613 0.3808 -1.5976 0.9819
-2.8518 -0.5138 -1.1373 0.9876
-2.8528 -1.0624 -1.1947 0.9870
-5.1672 -3.7191 -2.4987 0.9730
-3.5443 -5.2884 -2.4986 0.9730
-2.5504 -5.8329 -2.4985 0.9730
-2.0211 -6.0366 -2.4985 0.9730
-0.3544 -6.3559 -2.4984 0.9730
0.2127 -6.3622 -2.4984 0.9730
1.3374 -6.2235 -2.4983 0.9730
2.4196 -5.8878 -2.4983 0.9730
2.9340 -5.6489 -2.4983 0.9730
3.4251 -5.3654 -2.4982 0.9730
3.8891 -5.0391 -2.4982 0.9730
4.7209 -4.2697 -2.4982 0.9730
5.9141 -2.3537 -2.4982 0.9730
6.3258 -0.7076 -2.4982 0.9730
6.3637 -0.1418 -2.4982 0.9730
6.2880 0.9888 -2.4982 0.9730
3.8592 4.5646 -2.3459 0.9746
2.5162 5.4222 -2.3460 0.9746
2.0236 5.6247 -2.3460 0.9746
1.4598 5.5719 -2.2606 0.9756
0.4657 5.9597 -2.3461 0.9746
-0.5984 5.9479 -2.3462 0.9746
-2.6366 5.3654 -2.3462 0.9746
-3.1037 5.1094 -2.3463 0.9746
-3.9605 4.4782 -2.3463 0.9746
-5.6170 2.9974 -2.4988 0.9730
-5.8615 2.4855 -2.4988 0.9730
-6.3099 0.8486 -2.4988 0.9730
-3.6456 0.1626 -1.4322 0.9844
-3.0071 -0.1341 -1.1814 0.9871
-2.8734 -0.3864 -1.1379 0.9876
-4.9964 -3.9456 -2.4987 0.9730
-4.2176 -4.7689 -2.4986 0.9730
-3.7763 -5.1253 -2.4986 0.9730
-3.3051 -5.4410 -2.4986 0.9730
-2.8077 -5.7135 -2.4985 0.9730
-2.2880 -5.9407 -2.4985 0.9730
-0.6372 -6.3339 -2.4984 0.9730
-0.0709 -6.3654 -2.4984 0.9730
1.0588 -6.2770 -2.4983 0.9730
2.1549 -5.9897 -2.4983 0.9730
3.1827 -5.5126 -2.4983 0.9730
3.6607 -5.2074 -2.4982 0.9730
4.1097 -4.8609 -2.4982 0.9730
4.9064 -4.0552 -2.4982 0.9730
5.2478 -3.6024 -2.4982 0.9730
6.1750 -1.5444 -2.4982 0.9730
6.2880 -0.9887 -2.4982 0.9730
6.3510 -0.4251 -2.4982 0.9730
6.3637 0.1419 -2.4982 0.9730
6.3258 0.7077 -2.4982 0.9730
6.1002 1.8181 -2.4982 0.9730
8.5236 4.3072 -3.7481 0.9598
4.4331 4.0095 -2.3459 0.9746
4.0586 4.3881 -2.3459 0.9746
3.6520 4.7321 -2.3459 0.9746
2.2721 5.5289 -2.3460 0.9746
0.1998 5.9745 -2.3461 0.9746
-0.3328 5.9687 -2.3461 0.9746
-1.3858 5.8152 -2.3462 0.9746
-2.3949 5.4774 -2.3462 0.9746
-2.8730 5.2426 -2.3463 0.9746
-3.3282 4.9661 -2.3463 0.9746
-7.2252 6.2479 -3.7489 0.9598
-5.1674 3.7193 -2.4987 0.9730
-5.4779 3.2446 -2.4988 0.9730
-6.1405 1.6821 -2.4988 0.9730
-6.2659 1.1289 -2.4988 0.9730
-2.8130 -0.2513 -1.1629 0.9879
-2.7831 -0.5014 -1.1645 0.9878
-2.7695 -0.7586 -1.1825 0.9877
-5.2209 -3.0923 -2.4987 0.9741
-4.9249 -3.5447 -2.4987 0.9741
-4.5898 -3.9689 -2.4986 0.9741
-4.2183 -4.3616 -2.4986 0.9741
-3.8133 -4.7197 -2.4986 0.9741
-3.3780 -5.0404 -2.4986 0.9741
0.7417 -6.0217 -2.4984 0.9741
1.7975 -5.7946 -2.4983 0.9741
2.7964 -5.3840 -2.4983 0.9741
4.1195 -4.4538 -2.4982 0.9741
4.8438 -3.6529 -2.4982 0.9741
5.1497 -3.2072 -2.4982 0.9741
5.4147 -2.7362 -2.4982 0.9741
5.6368 -2.2433 -2.4982 0.9741
5.8140 -1.7327 -2.4982 0.9741
5.9452 -1.2084 -2.4982 0.9741
6.0292 -0.6744 -2.4982 0.9741
5.8855 1.4721 -2.4982 0.9741
4.6968 3.2242 -2.3459 0.9757
4.3912 3.6295 -2.3459 0.9757
3.6782 4.3506 -2.3459 0.9757
3.2764 4.6608 -2.3460 0.9757
2.3982 5.1679 -2.3460 0.9757
1.9287 5.3609 -2.3460 0.9757
0.4439 5.6802 -2.3461 0.9757
-0.0635 5.6972 -2.3461 0.9757
-0.5703 5.6690 -2.3462 0.9757
-1.0726 5.5958 -2.3462 0.9757
-2.0478 5.3171 -2.3462 0.9757
-2.5129 5.1137 -2.3462 0.9757
-2.9581 4.8698 -2.3463 0.9757
-6.6142 6.2557 -3.7488 0.9614
-5.5866 2.3690 -2.4987 0.9741
-5.7753 1.8623 -2.4988 0.9741
-6.0140 0.8088 -2.4988 0.9741
-2.9337 -0.1308 -1.2092 0.9874
-2.7946 -0.3758 -1.1611 0.9879
-2.7756 -0.6288 -1.1719 0.9878
-2.7775 -0.8956 -1.2017 0.9875
-5.3535 -2.8566 -2.4987 0.9741
-4.4084 -4.1694 -2.4986 0.9741
-3.5992 -4.8849 -2.4986 0.9741
-1.1422 -5.9589 -2.4985 0.9741
-0.6073 -6.0369 -2.4984 0.9741
0.4727 -6.0487 -2.4984 0.9741
1.0092 -5.9826 -2.4984 0.9741
3.0335 -5.2541 -2.4983 0.9741
5.0017 -3.4335 -2.4982 0.9741
5.5312 -2.4922 -2.4982 0.9741
5.7311 -1.9900 -2.4982 0.9741
5.9931 -0.9423 -2.4982 0.9741
6.0532 -0.4052 -2.4982 0.9741
6.0292 0.6745 -2.4982 0.9741
5.8141 1.7328 -2.4982 0.9741
4.2252 3.8215 -2.3459 0.9757
3.8683 4.1824 -2.3459 0.9757
0.6965 5.6547 -2.3461 0.9757
-0.3172 5.6888 -2.3461 0.9757
-1.3208 5.5425 -2.3462 0.9757
-2.2826 5.2205 -2.3462 0.9757
-3.1721 4.7332 -2.3463 0.9757
-6.8863 5.9549 -3.7488 0.9614
-4.9250 3.5448 -2.4987 0.9741
-5.6866 2.1178 -2.4988 0.9741
-5.8525 1.6032 -2.4988 0.9741
-5.9720 1.0760 -2.4988 0.9741
-3.9772 0.3554 -1.6443 0.9829
-2.7278 -0.4914 -1.1956 0.9880
-2.7884 -1.6516 -1.3980 0.9860
-4.7014 -3.3838 -2.4986 0.9751
-4.3815 -3.7888 -2.4986 0.9751
-4.0268 -4.1637 -2.4986 0.9751
-2.3205 -5.3071 -2.4985 0.9751
-1.3427 -5.6343 -2.4985 0.9751
0.1936 -5.7887 -2.4984 0.9751
1.2168 -5.6625 -2.4983 0.9751
2.6695 -5.1397 -2.4983 0.9751
4.2953 -3.8848 -2.4982 0.9751
5.1690 -2.6120 -2.4982 0.9751
5.3810 -2.1415 -2.4982 0.9751
5.5502 -1.6541 -2.4982 0.9751
5.7900 -0.1290 -2.4982 0.9751
5.7786 0.3869 -2.4982 0.9751
7.9221 3.5696 -3.7481 0.9629
7.5730 4.2605 -3.7482 0.9629
4.1919 3.4648 -2.3459 0.9766
3.1277 4.4493 -2.3460 0.9766
2.7193 4.7100 -2.3460 0.9766
2.2893 4.9334 -2.3460 0.9766
1.8412 5.1176 -2.3460 0.9766
0.9046 5.3631 -2.3461 0.9766
-0.0606 5.4386 -2.3461 0.9766
-0.5444 5.4117 -2.3461 0.9766
-1.4953 5.2296 -2.3462 0.9766
-2.3989 4.8816 -2.3462 0.9766
-2.8239 4.6488 -2.3462 0.9766
-3.2264 4.3790 -2.3463 0.9766
-5.7574 6.5100 -3.7488 0.9628
-5.1106 2.7271 -2.4987 0.9751
-5.7410 0.7721 -2.4987 0.9751
-3.3811 0.1508 -1.4599 0.9854
-2.7402 -0.3685 -1.1926 0.9880
-2.7200 -0.6163 -1.2030 0.9879
-2.7166 -0.8760 -1.2313 0.9876
-2.7334 -1.1590 -1.2807 0.9871
-5.1105 -2.7270 -2.4987 0.9751
-4.8474 -3.1710 -2.4987 0.9751
-4.5459 -3.5899 -2.4986 0.9751
-3.8373 -4.3389 -2.4986 0.9751
-3.4359 -4.6632 -2.4986 0.9751
-2.5546 -5.1984 -2.4985 0.9751
-2.0817 -5.4051 -2.4985 0.9751
-1.5924 -5.5689 -2.4985 0.9751
-1.0904 -5.6885 -2.4985 0.9751
2.4379 -5.2536 -2.4983 0.9751
2.8958 -5.0157 -2.4983 0.9751
3.3308 -4.7380 -2.4983 0.9751
5.0475 -2.8396 -2.4982 0.9751
5.4710 -1.8997 -2.4982 0.9751
5.6184 -1.4052 -2.4982 0.9751
5.7212 -0.8996 -2.4982 0.9751
5.7785 -0.3868 -2.4982 0.9751
5.7901 0.1291 -2.4982 0.9751
5.7556 0.6439 -2.4982 0.9751
5.6755 1.1536 -2.4982 0.9751
5.5503 1.6542 -2.4982 0.9751
5.3811 2.1416 -2.4982 0.9751
7.3757 4.5937 -3.7482 0.9629
3.6928 3.9926 -2.3459 0.9766
2.9264 4.5842 -2.3460 0.9766
2.5068 4.8265 -2.3460 0.9766
2.0673 5.0305 -2.3460 0.9766
1.6114 5.1946 -2.3460 0.9766
1.1427 5.3175 -2.3461 0.9766
-0.3028 5.4305 -2.3461 0.9766
-0.7849 5.3821 -2.3462 0.9766
-1.2609 5.2909 -2.3462 0.9766
-2.1790 4.9836 -2.3462 0.9766
-2.6140 4.7700 -2.3462 0.9766
-5.4617 6.7600 -3.7488 0.9628
-4.7015 3.3839 -2.4987 0.9751
-4.9840 2.9521 -2.4987 0.9751
-5.2270 2.4968 -2.4987 0.9751
-5.4285 2.0216 -2.4987 0.9751
-5.5869 1.5304 -2.4987 0.9751
-5.7009 1.0271 -2.4987 0.9751
-3.8265 0.3419 -1.6571 0.9834
-2.9980 0.0000 -1.3528 0.9869
-2.7005 -0.2413 -1.2234 0.9882
-2.6607 -0.9909 -1.2811 0.9876
-4.4944 -3.2349 -2.4986 0.9760
-4.1886 -3.6220 -2.4986 0.9760
-3.0828 -4.5998 -2.4986 0.9760
-2.6611 -4.8559 -2.4985 0.9760
-2.2183 -5.0735 -2.4985 0.9760
-1.7579 -5.2507 -2.4985 0.9760
-1.2836 -5.3863 -2.4985 0.9760
-0.3083 -5.5284 -2.4984 0.9760
0.6768 -5.4954 -2.4984 0.9760
1.1633 -5.4133 -2.4984 0.9760
1.6404 -5.2882 -2.4983 0.9760
2.1046 -5.1212 -2.4983 0.9760
2.5520 -4.9135 -2.4983 0.9760
3.7594 -4.0646 -2.4982 0.9760
4.1063 -3.7139 -2.4982 0.9760
4.4205 -3.3337 -2.4982 0.9760
5.1442 -2.0473 -2.4982 0.9760
5.3060 -1.5813 -2.4982 0.9760
5.4257 -1.1028 -2.4982 0.9760
5.5243 0.3698 -2.4982 0.9760
5.3712 1.3434 -2.4982 0.9760
7.5735 3.4125 -3.7482 0.9642
6.8485 4.7013 -3.7482 0.9642
4.0075 3.3123 -2.3459 0.9774
3.6968 3.6558 -2.3459 0.9774
2.5996 4.5027 -2.3460 0.9774
2.1886 4.7163 -2.3460 0.9774
1.7601 4.8924 -2.3460 0.9774
1.3177 5.0297 -2.3461 0.9774
0.8648 5.1271 -2.3461 0.9774
0.4051 5.1837 -2.3461 0.9774
-0.0579 5.1993 -2.3461 0.9774
-0.5204 5.1735 -2.3461 0.9774
-0.9789 5.1067 -2.3462 0.9774
-1.4295 4.9994 -2.3462 0.9774
-1.8688 4.8523 -2.3462 0.9774
-2.6996 4.4442 -2.3462 0.9774
-5.5040 6.2235 -3.7488 0.9642
-4.6342 3.0316 -2.4987 0.9760
-4.8856 2.6071 -2.4987 0.9760
-5.0983 2.1619 -2.4987 0.9760
-5.4883 0.7381 -2.4987 0.9760
-2.6870 -0.3614 -1.2234 0.9882
-2.6659 -0.6040 -1.2334 0.9881
-4.8855 -2.6070 -2.4987 0.9760
-4.6341 -3.0315 -2.4986 0.9760
-4.3458 -3.4319 -2.4986 0.9760
-4.0231 -3.8050 -2.4986 0.9760
-3.6684 -4.1479 -2.4986 0.9760
-2.4422 -4.9696 -2.4985 0.9760
-1.9901 -5.1672 -2.4985 0.9760
-1.5223 -5.3238 -2.4985 0.9760
-1.0424 -5.4381 -2.4985 0.9760
-0.0617 -5.5366 -2.4984 0.9760
2.3306 -5.0224 -2.4983 0.9760
3.1842 -4.5295 -2.4983 0.9760
3.9368 -3.8931 -2.4982 0.9760
4.2676 -3.5273 -2.4982 0.9760
5.0479 -2.2744 -2.4982 0.9760
5.3711 -1.3434 -2.4982 0.9760
5.4694 -0.8600 -2.4982 0.9760
5.4257 1.1029 -2.4982 0.9760
5.1443 2.0474 -2.4982 0.9760
7.4139 3.7465 -3.7482 0.9642
4.1510 3.1305 -2.3459 0.9774
3.5303 3.8169 -2.3459 0.9774
1.9763 4.8091 -2.3460 0.9774
1.5405 4.9660 -2.3460 0.9774
1.0924 5.0834 -2.3461 0.9774
0.6356 5.1605 -2.3461 0.9774
-0.2895 5.1915 -2.3461 0.9774
-0.7504 5.1452 -2.3462 0.9774
-1.6508 4.9307 -2.3462 0.9774
-2.4989 4.5600 -2.3462 0.9774
-2.8949 4.3195 -2.3462 0.9774
-5.7758 5.9721 -3.7488 0.9642
-4.1888 3.6222 -2.4987 0.9760
-4.4946 3.2350 -2.4987 0.9760
-4.7647 2.8222 -2.4987 0.9760
-5.1896 1.9327 -2.4987 0.9760
-5.3410 1.4631 -2.4987 0.9760
-5.4500 0.9819 -2.4987 0.9760
-2.9111 0.0000 -1.3722 0.9872
-2.6212 -0.4722 -1.2555 0.9883
-2.6023 -0.9691 -1.3090 0.9878
-2.6596 -1.5753 -1.4571 0.9864
-4.3022 -3.0965 -2.4986 0.9768
-4.0095 -3.4671 -2.4986 0.9768
-3.6850 -3.8102 -2.4986 0.9768
-2.9509 -4.4031 -2.4986 0.9768
-2.5473 -4.6482 -2.4985 0.9768
-1.6828 -5.0262 -2.4985 0.9768
-0.7649 -5.2448 -2.4984 0.9768
-0.2951 -5.2920 -2.4984 0.9768
0.1771 -5.2972 -2.4984 0.9768
0.6479 -5.2604 -2.4984 0.9768
1.1135 -5.1818 -2.4984 0.9768
2.4429 -4.7034 -2.4983 0.9768
2.8518 -4.4672 -2.4983 0.9768
3.2381 -4.1957 -2.4983 0.9768
3.5987 -3.8908 -2.4983 0.9768
3.9307 -3.5550 -2.4982 0.9768
5.0791 -1.5137 -2.4982 0.9768
5.2880 0.3540 -2.4982 0.9768
5.1415 1.2860 -2.4982 0.9768
5.0067 1.7386 -2.4983 0.9768
4.8321 2.1773 -2.4983 0.9768
6.9301 3.8989 -3.7482 0.9654
6.5556 4.5002 -3.7482 0.9654
3.8361 3.1706 -2.3459 0.9782
3.5387 3.4995 -2.3459 0.9782
3.2132 3.8006 -2.3460 0.9782
2.4885 4.3102 -2.3460 0.9782
1.6849 4.6831 -2.3460 0.9782
0.8278 4.9078 -2.3461 0.9782
0.3877 4.9621 -2.3461 0.9782
-0.4982 4.9523 -2.3461 0.9782
-1.3684 4.7855 -2.3462 0.9782
-1.7889 4.6448 -2.3462 0.9782
-4.7174 6.4026 -3.7488 0.9654
-5.2686 5.9573 -3.7488 0.9654
-4.1601 3.2852 -2.4987 0.9768
-5.0451 1.6269 -2.4987 0.9768
-5.1699 1.1714 -2.4987 0.9768
-5.2536 0.7066 -2.4987 0.9768
-3.1522 0.1405 -1.4873 0.9861
-2.7082 -0.1208 -1.2778 0.9881
-2.6352 -0.3544 -1.2533 0.9883
-2.6038 -1.1041 -1.3332 0.9876
-4.1600 -3.2851 -2.4986 0.9768
-2.7519 -4.5302 -2.4985 0.9768
-1.4572 -5.0961 -2.4985 0.9768
-0.9978 -5.2055 -2.4985 0.9768
-0.0590 -5.2999 -2.4984 0.9768
0.4129 -5.2841 -2.4984 0.9768
0.8816 -5.2263 -2.4984 0.9768
1.3432 -5.1270 -2.4983 0.9768
2.2310 -4.8076 -2.4983 0.9768
3.4218 -4.0473 -2.4983 0.9768
4.0851 -3.3764 -2.4982 0.9768
4.3694 -2.9994 -2.4982 0.9768
4.6190 -2.5986 -2.4982 0.9768
5.0066 -1.7384 -2.4982 0.9768
5.1414 -1.2859 -2.4982 0.9768
5.2355 -0.8232 -2.4982 0.9768
5.2880 -0.3539 -2.4982 0.9768
5.2985 0.1181 -2.4982 0.9768
5.2670 0.5892 -2.4982 0.9768
5.1937 1.0557 -2.4982 0.9768
5.0791 1.5138 -2.4982 0.9768
4.9243 1.9598 -2.4983 0.9768
7.0969 3.5862 -3.7482 0.9654
6.7496 4.2037 -3.7482 0.9654
3.6910 3.3384 -2.3459 0.9782
3.3793 3.6537 -2.3459 0.9782
3.0407 3.9400 -2.3460 0.9782
1.4746 4.7536 -2.3460 0.9782
1.0456 4.8660 -2.3461 0.9782
0.6084 4.9398 -2.3461 0.9782
0.1663 4.9744 -2.3461 0.9782
-1.1538 4.8417 -2.3462 0.9782
-1.5802 4.7198 -2.3462 0.9782
-2.3920 4.3650 -2.3462 0.9782
-4.4275 6.6063 -3.7487 0.9654
-4.0096 3.4673 -2.4987 0.9768
-4.5609 2.7014 -2.4987 0.9768
-4.7832 2.2848 -2.4987 0.9768
-3.7076 0.3313 -1.7547 0.9837
-2.5453 -0.9479 -1.3359 0.9880
-2.5457 -1.2160 -1.3876 0.9875
-4.3709 -2.5888 -2.4986 0.9776
-4.1231 -2.9676 -2.4986 0.9776
-3.5315 -3.6515 -2.4986 0.9776
-3.1925 -3.9513 -2.4986 0.9776
-2.8281 -4.2198 -2.4986 0.9776
-2.0350 -4.6542 -2.4985 0.9776
-1.6127 -4.8169 -2.4985 0.9776
-1.1776 -4.9413 -2.4985 0.9776
-0.7331 -5.0264 -2.4984 0.9776
-0.2828 -5.0717 -2.4984 0.9776
0.1697 -5.0767 -2.4984 0.9776
0.6209 -5.0414 -2.4984 0.9776
1.5049 -4.8513 -2.4983 0.9776
1.9307 -4.6981 -2.4983 0.9776
3.4489 -3.7288 -2.4983 0.9776
3.7670 -3.4071 -2.4983 0.9776
4.0553 -3.0582 -2.4982 0.9776
4.3114 -2.6852 -2.4982 0.9776
4.5333 -2.2907 -2.4982 0.9776
5.0477 -0.5646 -2.4982 0.9776
5.0679 0.3393 -2.4982 0.9776
4.9275 1.2325 -2.4983 0.9776
4.7982 1.6662 -2.4983 0.9776
4.6309 2.0867 -2.4983 0.9776
6.6416 3.7365 -3.7482 0.9666
6.2827 4.3129 -3.7482 0.9666
5.8740 4.8550 -3.7482 0.9666
3.3913 3.3538 -2.3459 0.9790
2.7430 3.9020 -2.3460 0.9790
2.3849 4.1307 -2.3460 0.9790
2.0078 4.3266 -2.3460 0.9790
1.6147 4.4882 -2.3460 0.9790
1.2088 4.6141 -2.3461 0.9790
0.7934 4.7035 -2.3461 0.9790
-0.0531 4.7697 -2.3461 0.9790
-0.4774 4.7461 -2.3461 0.9790
-1.7144 4.4514 -2.3462 0.9790
-2.1038 4.2812 -2.3462 0.9790
-3.9569 6.5140 -3.7487 0.9666
-4.5210 6.1360 -3.7487 0.9666
-5.0492 5.7093 -3.7488 0.9666
-3.6908 3.4908 -2.4987 0.9776
-3.9869 3.1484 -2.4987 0.9776
-4.9546 1.1226 -2.4987 0.9776
-5.0348 0.6772 -2.4987 0.9776
-2.6467 -0.1180 -1.3031 0.9883
-2.5845 -0.3476 -1.2826 0.9884
-2.5616 -0.5804 -1.2919 0.9884
-4.2512 -2.7809 -2.4986 0.9776
-3.9868 -3.1483 -2.4986 0.9776
-3.6907 -3.4906 -2.4986 0.9776
-1.8257 -4.7403 -2.4985 0.9776
-1.3965 -4.8839 -2.4985 0.9776
-0.9563 -4.9888 -2.4985 0.9776
-0.5084 -5.0541 -2.4984 0.9776
-0.0566 -5.0792 -2.4984 0.9776
0.3957 -5.0641 -2.4984 0.9776
1.2873 -4.9136 -2.4984 0.9776
1.7195 -4.7795 -2.4983 0.9776
2.1381 -4.6074 -2.4983 0.9776
2.5397 -4.3988 -2.4983 0.9776
4.7982 -1.6661 -2.4982 0.9776
5.0175 -0.7889 -2.4982 0.9776
5.0679 -0.3392 -2.4982 0.9776
5.0780 0.1132 -2.4982 0.9776
4.5334 2.2909 -2.4983 0.9776
6.4686 4.0287 -3.7482 0.9666
6.0844 4.5885 -3.7482 0.9666
3.5374 3.1994 -2.3459 0.9790
3.2386 3.5016 -2.3460 0.9790
2.9141 3.7760 -2.3460 0.9790
2.5665 4.0204 -2.3460 0.9790
2.1985 4.2329 -2.3460 0.9790
1.0021 4.6634 -2.3461 0.9790
0.5831 4.7342 -2.3461 0.9790
0.1594 4.7673 -2.3461 0.9790
-0.2655 4.7626 -2.3461 0.9790
-1.5144 4.5233 -2.3462 0.9790
-1.9110 4.3706 -2.3462 0.9790
-4.2432 6.3313 -3.7487 0.9666
-4.1232 2.9677 -2.4987 0.9776
-4.3710 2.5890 -2.4987 0.9776
-4.8997 1.3422 -2.4987 0.9776
-2.7481 0.0000 -1.4089 0.9877
-2.5372 -0.2267 -1.3059 0.9886
-2.5199 -0.4540 -1.3126 0.9886
-2.4994 -0.6846 -1.3286 0.9884
-2.4895 -0.9271 -1.3619 0.9881
-3.9557 -2.8471 -2.4986 0.9783
-3.6865 -3.1879 -2.4986 0.9783
-2.7133 -4.0484 -2.4985 0.9783
-2.3421 -4.2738 -2.4985 0.9783
-0.7033 -4.8224 -2.4984 0.9783
1.4438 -4.6544 -2.4983 0.9783
2.6222 -4.1075 -2.4983 0.9783
2.9773 -3.8578 -2.4983 0.9783
3.8907 -2.9341 -2.4983 0.9783
4.1364 -2.5761 -2.4982 0.9783
4.3493 -2.1977 -2.4982 0.9783
4.6700 -1.3918 -2.4982 0.9783
4.8428 -0.5417 -2.4982 0.9783
4.8621 0.3255 -2.4982 0.9783
4.8139 0.7570 -2.4983 0.9783
4.7274 1.1824 -2.4983 0.9783
4.6034 1.5985 -2.4983 0.9783
4.4429 2.0019 -2.4983 0.9783
6.3720 3.5848 -3.7482 0.9677
5.6355 4.6579 -3.7483 0.9677
2.6317 3.7436 -2.3460 0.9796
2.2880 3.9630 -2.3460 0.9796
1.9262 4.1510 -2.3460 0.9796
0.7612 4.5125 -2.3461 0.9796
-0.0510 4.5760 -2.3461 0.9796
-1.2581 4.4001 -2.3462 0.9796
-1.6448 4.2707 -2.3462 0.9796
-2.0184 4.1074 -2.3462 0.9796
-3.7962 6.2495 -3.7487 0.9677
-3.2288 3.6509 -2.4987 0.9783
-3.5409 3.3490 -2.4987 0.9783
-4.4871 1.9028 -2.4987 0.9783
-4.6387 1.4958 -2.4987 0.9783
-4.7534 1.0770 -2.4987 0.9783
-4.8304 0.6496 -2.4987 0.9783
-2.9775 0.1328 -1.5280 0.9867
-2.5350 -0.3409 -1.3113 0.9886
-2.5113 -0.5690 -1.3201 0.9885
-4.0786 -2.6680 -2.4986 0.9783
-3.8249 -3.0204 -2.4986 0.9783
-3.5408 -3.3489 -2.4986 0.9783
-3.2287 -3.6507 -2.4986 0.9783
-2.5302 -4.1653 -2.4985 0.9783
-2.1494 -4.3739 -2.4985 0.9783
-0.9174 -4.7862 -2.4985 0.9783
1.2350 -4.7141 -2.4984 0.9783
1.6497 -4.5854 -2.4983 0.9783
2.0513 -4.4203 -2.4983 0.9783
2.4366 -4.2202 -2.4983 0.9783
2.8025 -3.9866 -2.4983 0.9783
3.7561 -3.1045 -2.4983 0.9783
4.0175 -2.7578 -2.4982 0.9783
4.2470 -2.3893 -2.4982 0.9783
4.4428 -2.0018 -2.4982 0.9783
4.6034 -1.5984 -2.4982 0.9783
4.7274 -1.1823 -2.4982 0.9783
4.8718 0.1086 -2.4982 0.9783
4.7754 0.9707 -2.4983 0.9783
6.2060 3.8651 -3.7482 0.9677
5.4224 4.9043 -3.7483 0.9677
2.7958 3.6227 -2.3460 0.9796
1.7394 4.2327 -2.3460 0.9796
