ply
format ascii 1.0
element vertex 1586
property float32 x
property float32 y
property float32 z
property float32 I
end_header
-7.0216 -6.6410 1.2111 0.9618
2.8435 5.4746 0.7731 0.9754
-8.2387 -4.8798 1.0386 0.9622
-7.0586 -6.1038 1.0122 0.9632
-7.7957 -5.0997 1.0104 0.9632
2.8432 5.4742 0.6691 0.9755
-7.0257 -6.0754 0.8515 0.9634
-8.8688 -4.7326 0.9216 0.9604
-7.7607 -5.0768 0.8502 0.9634
-7.2000 -5.6857 0.8411 0.9638
-8.1663 -4.8369 0.7113 0.9626
-7.0132 -6.0646 0.6948 0.9635
-8.1504 -4.8275 0.5517 0.9628
-7.4181 -5.3392 0.5323 0.9640
-7.7338 -5.0592 0.5383 0.9636
2.8426 5.4729 0.3592 0.9756
-8.1564 -4.8310 0.3942 0.9628
-7.4256 -5.3446 0.3804 0.9640
-6.9775 -7.2147 0.4173 0.9606
-7.7409 -5.0639 0.3846 0.9636
-7.1832 -5.6725 0.3806 0.9640
-6.9094 -6.5349 0.3954 0.9626
2.8423 5.4725 0.2564 0.9756
-7.4377 -5.3534 0.2285 0.9640
-7.0197 -6.0701 0.2314 0.9635
-7.7543 -5.0726 0.2311 0.9636
-7.1951 -5.6819 0.2286 0.9640
-6.9234 -6.5481 0.2377 0.9626
2.8421 5.4720 0.1538 0.9756
-7.0337 -7.2728 0.0841 0.9603
-8.8695 -4.7329 0.0836 0.9606
-7.2128 -5.6959 0.0764 0.9639
-8.2558 -4.8899 -0.0797 0.9623
-7.1082 -7.3498 -0.0850 0.9599
-7.8154 -5.1126 -0.0776 0.9633
2.8417 5.4712 -0.0512 0.9756
-9.0915 -4.8513 -0.2570 0.9596
-7.8572 -5.1399 -0.2341 0.9631
-7.2867 -5.7543 -0.2315 0.9635
-7.0338 -6.6525 -0.2414 0.9620
2.8414 5.4707 -0.1537 0.9756
-7.5942 -5.4660 -0.3890 0.9632
-7.6198 -7.8788 -0.4557 0.9571
2.8412 5.4703 -0.2563 0.9756
-8.5210 -5.0470 -0.5768 0.9611
-7.6640 -5.5162 -0.5500 0.9629
-8.0090 -5.2393 -0.5574 0.9624
-7.2225 -6.8310 -0.5790 0.9610
-8.7075 -5.1574 -0.7584 0.9602
-8.1297 -5.3182 -0.7280 0.9618
-7.3825 -6.9823 -0.7615 0.9601
2.8408 5.4694 -0.4619 0.9756
-7.8766 -5.6692 -0.8897 0.9618
-7.4906 -6.4773 -0.9079 0.9610
-8.0556 -5.7981 -1.0766 0.9609
-7.7105 -6.6676 -1.1057 0.9598
-8.5085 -5.5660 -1.1028 0.9599
2.8398 5.4677 -0.8763 0.9754
14.5977 2.2954 -2.3531 0.9419
13.9569 4.8463 -2.3526 0.9419
12.1756 8.3581 -2.3517 0.9419
11.3815 9.4071 -2.3513 0.9419
10.4972 10.3809 -2.3508 0.9420
9.5298 11.2719 -2.3504 0.9420
8.4870 12.0729 -2.3499 0.9420
7.3772 12.7777 -2.3494 0.9420
6.2093 13.3807 -2.3489 0.9420
4.9926 13.8772 -2.3484 0.9420
1.1481 14.6933 -2.3468 0.9421
-1.4746 14.6576 -2.3458 0.9421
-2.7727 14.4651 -2.3453 0.9421
-4.0483 14.1580 -2.3448 0.9421
-7.6407 12.5784 -2.3435 0.9421
-8.7285 11.8464 -2.3431 0.9421
-9.7468 11.0209 -2.3428 0.9421
-10.6877 10.1084 -2.3425 0.9422
-12.3080 8.0515 -2.3420 0.9422
-12.9748 6.9236 -2.3418 0.9422
13.7264 5.4630 -2.3525 0.9419
13.1840 6.6622 -2.3522 0.9419
10.0234 10.8372 -2.3506 0.9420
7.9399 12.4377 -2.3497 0.9420
5.6065 13.6426 -2.3487 0.9420
4.3690 14.0843 -2.3482 0.9420
1.8018 14.6292 -2.3471 0.9420
0.4924 14.7282 -2.3466 0.9421
-0.8202 14.7103 -2.3461 0.9421
-2.1258 14.5758 -2.3455 0.9421
-4.6746 13.9622 -2.3446 0.9421
-7.0734 12.9073 -2.3437 0.9421
-11.1267 9.6217 -2.3423 0.9422
-13.2699 6.3385 -2.3417 0.9422
-14.0901 -1.2591 -2.4944 0.9442
-13.9229 -2.5083 -2.4945 0.9442
-13.2599 -4.9380 -2.4949 0.9441
-12.7692 -6.0993 -2.4952 0.9441
-12.1772 -7.2126 -2.4955 0.9441
-11.4885 -8.2689 -2.4959 0.9441
-6.8084 -12.4238 -2.4980 0.9441
-5.6768 -12.9831 -2.4985 0.9441
-4.4996 -13.4395 -2.4990 0.9441
1.7342 -14.0806 -2.5015 0.9440
4.2048 -13.5551 -2.5025 0.9440
6.5438 -12.5991 -2.5033 0.9440
7.6404 -11.9685 -2.5037 0.9440
8.6766 -11.2426 -2.5041 0.9440
10.5351 -9.5284 -2.5047 0.9439
11.3425 -8.5538 -2.5049 0.9439
12.0598 -7.5109 -2.5052 0.9439
12.6813 -6.4081 -2.5053 0.9439
13.9250 -2.8304 -2.5056 0.9439
12.9421 3.2371 -2.3523 0.9473
12.6014 4.3757 -2.3521 0.9473
12.1606 5.4793 -2.3519 0.9473
10.2767 8.4940 -2.3509 0.9473
8.6050 10.1781 -2.3501 0.9473
4.5085 12.5317 -2.3483 0.9473
1.0369 13.2695 -2.3469 0.9474
-0.1482 13.3064 -2.3464 0.9474
-3.6563 12.7871 -2.3451 0.9474
-7.8839 10.7001 -2.3435 0.9474
-8.8038 9.9547 -2.3432 0.9475
-10.4270 8.2341 -2.3427 0.9475
-11.7199 6.2539 -2.3424 0.9475
-13.4627 4.3412 -2.4942 0.9442
-14.1313 0.6301 -2.4942 0.9442
-14.1318 -0.6302 -2.4943 0.9442
-13.7979 -3.1262 -2.4946 0.9442
-13.4661 -4.3422 -2.4948 0.9442
-12.4856 -6.6625 -2.4954 0.9441
-11.8446 -7.7484 -2.4957 0.9441
-11.1096 -8.7731 -2.4961 0.9441
-10.2863 -9.7287 -2.4965 0.9441
-8.4013 -11.4023 -2.4973 0.9441
-7.3544 -12.1071 -2.4978 0.9441
-6.2489 -12.7160 -2.4983 0.9441
-5.0933 -13.2244 -2.4988 0.9441
-3.8968 -13.6279 -2.4993 0.9441
-0.1580 -14.1819 -2.5008 0.9440
2.3599 -13.9907 -2.5018 0.9440
7.0991 -12.2961 -2.5035 0.9440
8.1666 -11.6171 -2.5039 0.9440
9.1694 -10.8456 -2.5043 0.9439
11.7128 -8.0403 -2.5051 0.9439
12.3828 -6.9664 -2.5052 0.9439
12.9545 -5.8370 -2.5054 0.9439
13.7850 -3.4479 -2.5055 0.9439
14.0373 -2.2072 -2.5056 0.9439
14.1778 -0.9491 -2.5055 0.9439
13.2595 1.4833 -2.3526 0.9473
13.0739 2.6574 -2.3524 0.9473
12.3933 4.9325 -2.3520 0.9473
11.9038 6.0153 -2.3517 0.9473
10.6457 8.0283 -2.3511 0.9473
9.8874 8.9426 -2.3507 0.9473
9.0507 9.7855 -2.3503 0.9473
5.0628 12.3196 -2.3486 0.9473
3.9454 12.7188 -2.3481 0.9473
2.7971 13.0168 -2.3476 0.9474
0.4447 13.3012 -2.3467 0.9474
-0.7408 13.2853 -2.3462 0.9474
-3.0834 12.9385 -2.3453 0.9474
-4.2220 12.6104 -2.3449 0.9474
-5.3267 12.1824 -2.3445 0.9474
-8.3522 10.3376 -2.3434 0.9475
-9.2380 9.5520 -2.3431 0.9475
-10.0504 8.6909 -2.3428 0.9475
-11.4301 6.7700 -2.3424 0.9475
-13.2561 4.9367 -2.4942 0.9442
-12.8409 -1.1475 -2.4948 0.9488
-11.6368 -5.5584 -2.4956 0.9488
-10.4694 -7.5354 -2.4962 0.9488
-9.7585 -8.4385 -2.4966 0.9488
-7.1858 -10.7220 -2.4978 0.9488
-6.2040 -11.3209 -2.4982 0.9488
-4.1000 -12.2460 -2.4991 0.9487
-0.7194 -12.9012 -2.5005 0.9487
1.5800 -12.8290 -2.5014 0.9487
2.7161 -12.6396 -2.5018 0.9487
3.8309 -12.3497 -2.5022 0.9487
9.5975 -8.6804 -2.5043 0.9486
10.3330 -7.7925 -2.5045 0.9486
10.9864 -6.8424 -2.5047 0.9486
12.4054 -3.6972 -2.5050 0.9486
12.8645 -1.4391 -2.5050 0.9486
12.9413 -0.2884 -2.5050 0.9486
12.0067 1.8880 -2.3521 0.9517
11.7902 2.9489 -2.3519 0.9517
11.4800 3.9863 -2.3517 0.9517
11.0785 4.9917 -2.3515 0.9517
10.0156 6.8753 -2.3509 0.9517
8.6354 8.5397 -2.3502 0.9517
6.9822 9.9323 -2.3495 0.9517
6.0694 10.5126 -2.3491 0.9517
5.1088 11.0091 -2.3487 0.9518
4.1079 11.4181 -2.3482 0.9518
-0.1351 12.1248 -2.3465 0.9518
-1.2135 12.0625 -2.3461 0.9518
-2.2819 11.9045 -2.3457 0.9518
-3.3318 11.6522 -2.3453 0.9518
-6.2890 10.3532 -2.3442 0.9518
-8.7977 8.3208 -2.3434 0.9519
-10.1318 6.6279 -2.3430 0.9519
-10.6809 5.6995 -2.3428 0.9519
-11.8688 5.0328 -2.4948 0.9488
-12.2692 3.9563 -2.4947 0.9488
-12.7761 1.7182 -2.4947 0.9488
-11.8722 -5.0343 -2.4955 0.9488
-11.3783 -6.0716 -2.4958 0.9488
-8.5487 -9.6661 -2.4972 0.9488
-5.6941 -11.5871 -2.4984 0.9488
-2.4318 -12.6867 -2.4998 0.9487
-1.2932 -12.8551 -2.5003 0.9487
7.4401 -10.5836 -2.5036 0.9487
8.3536 -9.8806 -2.5039 0.9487
9.2009 -9.0989 -2.5041 0.9486
10.6703 -7.3247 -2.5046 0.9486
11.2806 -6.3464 -2.5048 0.9486
11.8014 -5.3174 -2.5049 0.9486
12.5579 -3.1409 -2.5050 0.9486
12.7877 -2.0107 -2.5050 0.9486
12.9157 -0.8646 -2.5050 0.9486
12.9410 0.2884 -2.5049 0.9486
11.9103 2.4209 -2.3520 0.9517
11.6466 3.4711 -2.3518 0.9517
10.8446 5.4800 -2.3513 0.9517
6.5323 10.2327 -2.3493 0.9517
4.6129 11.2247 -2.3485 0.9518
0.4052 12.1199 -2.3467 0.9518
-4.8540 11.1015 -2.3447 0.9518
-5.8220 10.6238 -2.3444 0.9518
-6.7435 10.0621 -2.3440 0.9518
-9.8269 7.0730 -2.3430 0.9519
-10.4167 6.1698 -2.3429 0.9519
-12.0810 4.4990 -2.4947 0.9488
-11.8355 0.0000 -2.4952 0.9528
-11.7890 -1.0535 -2.4953 0.9528
-11.6490 -2.0987 -2.4954 0.9528
-11.4168 -3.1274 -2.4955 0.9528
-11.0940 -4.1315 -2.4957 0.9528
-10.6832 -5.1029 -2.4960 0.9528
-10.1877 -6.0342 -2.4962 0.9527
-9.6113 -6.9178 -2.4965 0.9527
-8.9586 -7.7468 -2.4969 0.9527
-7.4452 -9.2151 -2.4976 0.9527
-6.5965 -9.8427 -2.4979 0.9527
-5.6952 -10.3924 -2.4983 0.9527
-4.7484 -10.8598 -2.4987 0.9527
-2.7486 -11.5335 -2.4996 0.9527
-1.7114 -11.7344 -2.5000 0.9527
-0.6603 -11.8421 -2.5004 0.9527
1.4503 -11.7755 -2.5013 0.9527
4.5119 -10.9790 -2.5024 0.9526
5.4719 -10.5353 -2.5028 0.9526
8.8086 -7.9669 -2.5039 0.9526
9.4835 -7.1519 -2.5041 0.9526
10.6026 -5.3577 -2.5044 0.9526
11.0379 -4.3929 -2.5045 0.9526
11.3854 -3.3932 -2.5046 0.9526
11.8067 -1.3208 -2.5046 0.9526
11.8772 -0.2646 -2.5046 0.9526
10.5362 3.6586 -2.3513 0.9554
10.1679 4.5814 -2.3511 0.9554
9.7187 5.4677 -2.3509 0.9554
9.1925 6.3102 -2.3506 0.9554
7.9259 7.8381 -2.3500 0.9555
6.4087 9.1166 -2.3493 0.9555
5.5710 9.6492 -2.3490 0.9555
4.6893 10.1052 -2.3486 0.9555
3.7706 10.4807 -2.3482 0.9555
1.8520 10.9795 -2.3474 0.9555
0.8673 11.0989 -2.3470 0.9555
-0.1240 11.1301 -2.3466 0.9555
-2.0947 10.9282 -2.3458 0.9555
-3.0586 10.6968 -2.3455 0.9555
-3.9980 10.3805 -2.3451 0.9555
-5.7736 9.5046 -2.3445 0.9556
-6.5958 8.9519 -2.3442 0.9556
-7.3656 8.3284 -2.3439 0.9556
-8.0768 7.6390 -2.3437 0.9556
-11.2642 3.6323 -2.4951 0.9528
-11.5426 2.6152 -2.4951 0.9528
-11.7296 1.5775 -2.4951 0.9528
-11.8236 0.5272 -2.4951 0.9528
-10.4458 -5.5741 -2.4961 0.9528
-9.9094 -6.4824 -2.4964 0.9527
-8.6052 -8.1387 -2.4970 0.9527
-7.8478 -8.8736 -2.4974 0.9527
-7.0279 -9.5383 -2.4977 0.9527
-5.2270 -10.6366 -2.4985 0.9527
-3.2594 -11.3986 -2.4994 0.9527
0.9242 -11.8274 -2.5011 0.9527
1.9736 -11.7002 -2.5015 0.9527
3.0076 -11.4798 -2.5019 0.9526
4.0180 -11.1683 -2.5022 0.9526
4.9968 -10.7679 -2.5026 0.9526
6.8286 -9.7138 -2.5032 0.9526
7.6670 -9.0686 -2.5035 0.9526
8.4446 -8.3510 -2.5038 0.9526
9.1551 -7.5669 -2.5040 0.9526
11.5253 -2.8827 -2.5046 0.9526
11.8537 -0.7935 -2.5046 0.9526
11.8770 0.2647 -2.5045 0.9526
10.6892 3.1857 -2.3514 0.9554
10.3623 4.1241 -2.3512 0.9554
6.8090 8.8227 -2.3495 0.9555
5.9958 9.3922 -2.3491 0.9555
2.8389 5.4659 -1.2985 0.9751
2.3395 10.8870 -2.3476 0.9555
1.3610 11.0501 -2.3472 0.9555
0.3720 11.1255 -2.3468 0.9555
-0.6196 11.1126 -2.3464 0.9555
-2.5793 10.8232 -2.3456 0.9555
-3.5318 10.5491 -2.3453 0.9555
-6.1908 9.2374 -2.3443 0.9556
-9.0218 6.4935 -2.3434 0.9556
-9.5633 5.6644 -2.3432 0.9556
-11.0913 4.1305 -2.4952 0.9528
-11.4147 3.1268 -2.4951 0.9528
-10.7612 -1.9387 -2.4957 0.9561
-10.2484 -3.8165 -2.4961 0.9561
-9.8689 -4.7139 -2.4963 0.9561
-9.4110 -5.5742 -2.4965 0.9561
-8.8785 -6.3904 -2.4968 0.9561
-8.2755 -7.1561 -2.4971 0.9561
-2.5388 -10.6531 -2.4996 0.9561
-0.6099 -10.9379 -2.5004 0.9560
0.3661 -10.9505 -2.5008 0.9560
1.3395 -10.8761 -2.5012 0.9560
2.3026 -10.7153 -2.5015 0.9560
4.1671 -10.1401 -2.5022 0.9560
5.0538 -9.7302 -2.5025 0.9560
5.9005 -9.2429 -2.5028 0.9560
8.1352 -7.3578 -2.5036 0.9560
8.7584 -6.6051 -2.5038 0.9560
9.7919 -4.9481 -2.5041 0.9560
10.5147 -3.1337 -2.5042 0.9560
10.7520 -2.1854 -2.5043 0.9560
10.9689 -0.2444 -2.5042 0.9560
10.9468 0.7329 -2.5041 0.9560
9.9935 2.4996 -2.3512 0.9586
9.7307 3.3789 -2.3510 0.9586
8.9758 5.0498 -2.3506 0.9586
6.6460 7.8609 -2.3495 0.9586
5.9191 8.4201 -2.3492 0.9587
4.3312 9.3334 -2.3485 0.9587
3.4827 9.6804 -2.3481 0.9587
2.6069 9.9504 -2.3478 0.9587
1.7106 10.1413 -2.3474 0.9587
-1.9349 10.0945 -2.3459 0.9587
-6.0929 8.2694 -2.3444 0.9587
-6.8041 7.6935 -2.3442 0.9587
-7.4611 7.0567 -2.3440 0.9587
-8.0590 6.3641 -2.3438 0.9587
-8.5929 5.6212 -2.3436 0.9587
-9.6467 5.1476 -2.4957 0.9561
-10.0661 4.2684 -2.4955 0.9561
-10.4058 3.3555 -2.4955 0.9561
-10.6630 2.4159 -2.4954 0.9561
-10.9226 0.4871 -2.4955 0.9561
-10.8366 -1.4574 -2.4957 0.9561
-10.6645 -2.4162 -2.4958 0.9561
-10.4078 -3.3561 -2.4960 0.9561
-9.6495 -5.1491 -2.4964 0.9561
-9.1539 -5.9882 -2.4967 0.9561
-7.2492 -8.1968 -2.4976 0.9561
-5.6826 -9.3549 -2.4983 0.9561
-3.9351 -10.2173 -2.4990 0.9561
-3.0106 -10.5287 -2.4994 0.9561
-0.1220 -10.9551 -2.5006 0.9560
1.8228 -10.8064 -2.5013 0.9560
5.4825 -9.4960 -2.5027 0.9560
6.3067 -8.9714 -2.5030 0.9560
7.7990 -7.7126 -2.5035 0.9560
9.0443 -6.2085 -2.5039 0.9560
10.6439 -2.6622 -2.5042 0.9560
10.8387 -1.7043 -2.5043 0.9560
10.9473 -0.7328 -2.5042 0.9560
10.0953 2.0520 -2.3513 0.9586
8.7415 5.4443 -2.3505 0.9586
8.2213 6.2000 -2.3502 0.9586
6.9901 7.5576 -2.3497 0.9586
2.1609 10.0558 -2.3476 0.9587
0.3436 10.2764 -2.3468 0.9587
-0.5724 10.2646 -2.3465 0.9587
-1.4835 10.1715 -2.3461 0.9587
-4.1163 9.4142 -2.3451 0.9587
-4.9372 9.0092 -2.3448 0.9587
-5.7188 8.5331 -2.3446 0.9587
-6.4549 7.9894 -2.3443 0.9587
-9.8662 4.7127 -2.4956 0.9561
-10.2461 3.8157 -2.4955 0.9561
-10.1139 -0.9038 -2.4959 0.9590
-9.9938 -1.8005 -2.4960 0.9590
-9.5174 -3.5443 -2.4963 0.9590
-9.1649 -4.3777 -2.4965 0.9590
-8.7397 -5.1765 -2.4968 0.9590
-7.6850 -6.6455 -2.4973 0.9590
-6.3865 -7.9047 -2.4979 0.9590
-5.6584 -8.4429 -2.4982 0.9590
-4.0729 -9.3149 -2.4989 0.9590
-3.2281 -9.6418 -2.4993 0.9590
-2.3575 -9.8923 -2.4996 0.9590
-1.4678 -10.0643 -2.5000 0.9590
-0.5663 -10.1566 -2.5004 0.9590
0.3400 -10.1681 -2.5007 0.9590
3.0155 -9.7210 -2.5017 0.9589
3.8692 -9.4152 -2.5021 0.9589
4.6924 -9.0345 -2.5024 0.9589
6.9147 -7.4761 -2.5031 0.9589
7.5533 -6.8315 -2.5033 0.9589
8.1319 -6.1326 -2.5035 0.9589
9.0914 -4.5941 -2.5038 0.9589
9.9828 -2.0291 -2.5039 0.9589
10.1237 -1.1325 -2.5039 0.9589
10.1842 -0.2270 -2.5039 0.9589
10.1637 0.6804 -2.5038 0.9589
9.2787 2.3207 -2.3509 0.9614
8.3339 4.6886 -2.3504 0.9614
7.3691 6.0907 -2.3499 0.9614
4.7777 8.2753 -2.3487 0.9614
4.0217 8.6665 -2.3484 0.9614
3.2339 8.9888 -2.3481 0.9614
0.7439 9.5196 -2.3470 0.9614
-0.1064 9.5467 -2.3467 0.9614
-0.9555 9.4980 -2.3464 0.9614
-5.6583 7.6794 -2.3446 0.9615
-6.3187 7.1447 -2.3444 0.9615
-6.9290 6.5534 -2.3442 0.9615
-8.9587 4.7805 -2.4960 0.9590
-10.1437 0.4523 -2.4958 0.9590
-10.1440 -0.4523 -2.4959 0.9590
-9.9039 -2.2439 -2.4961 0.9590
-8.9612 -4.7818 -2.4966 0.9590
-8.5008 -5.5610 -2.4969 0.9590
-7.3818 -6.9816 -2.4974 0.9590
-6.7319 -7.6118 -2.4977 0.9590
-1.9146 -9.9882 -2.4998 0.9590
-1.0181 -10.1205 -2.5002 0.9590
-0.1133 -10.1724 -2.5005 0.9590
1.6926 -10.0341 -2.5012 0.9590
2.5793 -9.8450 -2.5016 0.9589
3.4457 -9.5776 -2.5019 0.9589
4.2851 -9.2340 -2.5022 0.9589
5.8557 -8.3298 -2.5028 0.9589
6.5745 -7.7763 -2.5030 0.9589
8.8775 -4.9944 -2.5037 0.9589
9.2872 -4.1846 -2.5038 0.9589
9.6231 -3.3415 -2.5039 0.9589
9.8825 -2.4717 -2.5039 0.9589
10.1641 -0.6804 -2.5039 0.9589
9.1658 2.7317 -2.3509 0.9614
8.1164 5.0550 -2.3503 0.9614
7.0900 6.4125 -2.3498 0.9614
6.4903 7.0173 -2.3495 0.9614
5.8393 7.5662 -2.3492 0.9614
5.1420 8.0548 -2.3489 0.9614
3.6314 8.8364 -2.3482 0.9614
1.1673 9.4777 -2.3472 0.9614
0.3190 9.5426 -2.3469 0.9614
-0.5315 9.5318 -2.3465 0.9614
-1.3776 9.4453 -2.3462 0.9614
-2.2125 9.2840 -2.3459 0.9615
-3.0296 9.0490 -2.3456 0.9615
-5.3108 7.9243 -2.3448 0.9615
-5.9944 7.4194 -2.3445 0.9615
-9.1626 4.3766 -2.4959 0.9590
-9.9927 1.8003 -2.4958 0.9590
-9.4355 -0.8432 -2.4962 0.9616
-9.1374 -2.5030 -2.4964 0.9616
-8.8789 -3.3066 -2.4966 0.9616
-8.5500 -4.0840 -2.4968 0.9616
-8.1533 -4.8292 -2.4970 0.9616
-7.1693 -6.1995 -2.4975 0.9616
-6.5897 -6.8137 -2.4977 0.9615
-5.9578 -7.3741 -2.4980 0.9615
-1.3692 -9.3882 -2.5000 0.9615
0.3171 -9.4849 -2.5007 0.9615
1.1602 -9.4202 -2.5010 0.9615
1.9943 -9.2807 -2.5013 0.9615
2.8128 -9.0675 -2.5016 0.9615
3.6091 -8.7822 -2.5019 0.9615
5.1101 -8.0048 -2.5024 0.9615
6.4497 -6.9733 -2.5029 0.9615
7.0452 -6.3721 -2.5031 0.9615
8.0644 -5.0225 -2.5034 0.9615
9.1057 -2.7138 -2.5036 0.9615
9.4799 0.6346 -2.5035 0.9615
14.0784 2.2137 -3.7553 0.9428
8.4270 2.9262 -2.3506 0.9638
6.8736 5.6812 -2.3498 0.9638
0.6939 8.8802 -2.3471 0.9638
-0.0992 8.9056 -2.3468 0.9638
-0.8913 8.8602 -2.3465 0.9638
-1.6762 8.7446 -2.3461 0.9638
-2.4475 8.5596 -2.3459 0.9638
-3.1993 8.3068 -2.3456 0.9638
-4.6204 7.6063 -2.3451 0.9639
-5.2786 7.1642 -2.3448 0.9639
-5.8948 6.6653 -2.3446 0.9639
-6.4641 6.1137 -2.3444 0.9639
-8.3578 4.4599 -2.4962 0.9616
-8.7213 3.6981 -2.4961 0.9616
-9.0156 2.9072 -2.4961 0.9616
-9.4633 0.4220 -2.4961 0.9616
-9.4636 -0.4220 -2.4961 0.9616
-9.3888 -1.2627 -2.4962 0.9616
-9.2396 -2.0934 -2.4963 0.9616
-9.0171 -2.9076 -2.4965 0.9616
-8.3600 -4.4610 -2.4969 0.9616
-7.9305 -5.1879 -2.4971 0.9616
-7.4379 -5.8737 -2.4973 0.9616
-6.8864 -6.5131 -2.4976 0.9616
-6.2800 -7.1010 -2.4979 0.9615
-4.1824 -8.5110 -2.4988 0.9615
-1.7860 -9.3173 -2.4998 0.9615
-0.9497 -9.4405 -2.5001 0.9615
-0.1057 -9.4889 -2.5005 0.9615
1.5788 -9.3598 -2.5011 0.9615
2.4059 -9.1832 -2.5015 0.9615
5.4619 -7.7696 -2.5026 0.9615
6.1323 -7.2534 -2.5028 0.9615
8.9757 -3.1167 -2.5036 0.9615
9.4989 0.2117 -2.5036 0.9615
9.4421 1.0562 -2.5035 0.9615
13.9655 2.8386 -3.7552 0.9428
8.2880 3.2986 -2.3505 0.9638
7.9609 4.0228 -2.3503 0.9638
7.1202 5.3696 -2.3499 0.9638
6.6133 5.9814 -2.3496 0.9638
5.4468 7.0576 -2.3491 0.9638
4.7964 7.5135 -2.3488 0.9638
2.8297 5.4481 -1.6177 0.9749
3.3874 8.2426 -2.3482 0.9638
1.8717 8.7103 -2.3476 0.9638
1.0889 8.8411 -2.3472 0.9638
-0.4958 8.8917 -2.3466 0.9638
-1.2851 8.8111 -2.3463 0.9638
-2.0639 8.6607 -2.3460 0.9638
-4.9544 7.3926 -2.3449 0.9639
-6.1856 6.3958 -2.3445 0.9639
-7.2206 5.1971 -2.3442 0.9639
-8.1510 4.8279 -2.4963 0.9616
-8.5480 4.0830 -2.4962 0.9616
-8.8772 3.3059 -2.4961 0.9616
-9.3225 1.6796 -2.4960 0.9616
-9.4351 0.8431 -2.4960 0.9616
-5.0319 0.0000 -1.4157 0.9793
-3.7904 -1.0383 -1.1057 0.9838
-7.2041 -5.1852 -2.4974 0.9638
-4.2680 -7.7882 -2.4987 0.9638
-2.0596 -8.6422 -2.4997 0.9638
-0.4947 -8.8728 -2.5003 0.9637
0.2970 -8.8827 -2.5006 0.9637
2.6341 -8.4917 -2.5015 0.9637
3.3799 -8.2244 -2.5018 0.9637
4.7855 -7.4964 -2.5023 0.9637
5.4342 -7.0413 -2.5025 0.9637
6.0399 -6.5302 -2.5027 0.9637
6.5976 -5.9671 -2.5029 0.9637
7.1029 -5.3566 -2.5030 0.9637
7.5519 -4.7034 -2.5032 0.9637
8.2668 -3.2901 -2.5034 0.9637
8.8425 -0.9892 -2.5034 0.9637
8.7890 1.3820 -2.5032 0.9637
12.9463 3.2381 -3.7547 0.9461
7.6158 3.4315 -2.3502 0.9659
7.2796 4.0954 -2.3500 0.9659
6.8856 4.7267 -2.3498 0.9659
5.9373 5.8715 -2.3494 0.9659
5.3905 6.3759 -2.3491 0.9659
2.6284 5.6640 -1.7568 0.9744
1.3877 8.2269 -2.3474 0.9659
0.6499 8.3167 -2.3471 0.9659
-0.0929 8.3406 -2.3468 0.9659
-1.5699 8.1899 -2.3462 0.9659
-2.9964 7.7800 -2.3457 0.9659
-3.6766 7.4817 -2.3454 0.9660
-4.9439 6.7100 -2.3450 0.9660
-5.5211 6.2428 -2.3448 0.9660
-6.5396 5.1643 -2.3445 0.9660
-8.1685 3.4638 -2.4964 0.9638
-8.4442 2.7229 -2.4963 0.9638
-8.7931 1.1826 -2.4963 0.9638
-8.8636 0.3952 -2.4963 0.9638
-3.7396 -0.5029 -1.0616 0.9844
-3.7659 -0.8532 -1.0864 0.9841
-8.4456 -2.7233 -2.4967 0.9638
-8.1702 -3.4645 -2.4969 0.9638
-6.9663 -5.5012 -2.4975 0.9638
-5.8818 -6.6506 -2.4980 0.9638
-4.6105 -7.5898 -2.4986 0.9638
-2.4423 -8.5414 -2.4995 0.9638
-1.6726 -8.7260 -2.4998 0.9638
-0.8894 -8.8413 -2.5001 0.9637
2.2531 -8.6001 -2.5014 0.9637
5.1149 -7.2761 -2.5024 0.9637
5.7427 -6.7925 -2.5026 0.9637
6.3250 -6.2549 -2.5028 0.9637
6.8571 -5.6675 -2.5030 0.9637
7.7541 -4.3624 -2.5032 0.9637
8.1119 -3.6550 -2.5033 0.9637
8.6318 -2.1589 -2.5034 0.9637
8.8952 0.1982 -2.5033 0.9637
8.8420 0.9891 -2.5033 0.9637
7.7613 3.0889 -2.3503 0.9659
7.4551 3.7672 -2.3501 0.9659
6.6679 5.0285 -2.3497 0.9659
5.6695 6.1298 -2.3492 0.9659
5.1009 6.6094 -2.3490 0.9659
4.4918 7.0363 -2.3487 0.9659
3.1723 7.7194 -2.3481 0.9659
2.4724 7.9701 -2.3478 0.9659
1.7529 8.1575 -2.3475 0.9659
1.0198 8.2801 -2.3472 0.9659
0.2787 8.3369 -2.3470 0.9659
-0.4643 8.3276 -2.3467 0.9659
-1.2035 8.2522 -2.3464 0.9659
-1.9330 8.1114 -2.3461 0.9659
-2.6470 7.9062 -2.3458 0.9659
-3.3398 7.6384 -2.3456 0.9660
-4.0060 7.3101 -2.3453 0.9660
-5.7935 5.9904 -2.3447 0.9660
-6.7629 4.8677 -2.3444 0.9660
-8.0063 3.8243 -2.4964 0.9638
-8.3146 3.0964 -2.4963 0.9638
-8.8371 0.7897 -2.4963 0.9638
-3.9676 0.0000 -1.1878 0.9836
-3.5918 -0.3210 -1.0796 0.9851
-3.4798 -0.6269 -1.0586 0.9853
-6.7708 -4.8734 -2.4975 0.9658
-6.3107 -5.4571 -2.4977 0.9658
-5.2443 -6.4909 -2.4982 0.9658
-4.6462 -6.9326 -2.4985 0.9658
-4.0112 -7.3195 -2.4988 0.9658
-2.6505 -7.9165 -2.4994 0.9657
-1.9356 -8.1220 -2.4997 0.9657
-1.2051 -8.2630 -2.5000 0.9657
-0.4649 -8.3385 -2.5003 0.9657
0.2791 -8.3478 -2.5006 0.9657
1.0211 -8.2907 -2.5008 0.9657
1.7552 -8.1679 -2.5011 0.9657
3.1762 -7.7289 -2.5017 0.9657
3.8519 -7.4163 -2.5019 0.9657
4.4971 -7.0446 -2.5021 0.9657
5.1067 -6.6170 -2.5023 0.9657
5.6758 -6.1366 -2.5025 0.9657
6.1999 -5.6075 -2.5027 0.9657
7.0967 -4.4198 -2.5030 0.9657
8.3094 -0.9295 -2.5032 0.9657
12.1659 3.0429 -3.7544 0.9490
7.4158 2.5751 -2.3502 0.9678
7.1567 3.2247 -2.3500 0.9678
6.0491 4.9997 -2.3495 0.9678
5.5795 5.5177 -2.3493 0.9678
4.5119 6.4182 -2.3488 0.9678
2.6074 5.6188 -1.8545 0.9745
2.6550 7.3797 -2.3480 0.9678
1.3042 7.7317 -2.3474 0.9678
0.6108 7.8161 -2.3471 0.9678
-1.4754 7.6971 -2.3463 0.9678
-2.1544 7.5344 -2.3460 0.9678
-4.0672 6.6955 -2.3453 0.9678
-4.6466 6.3064 -2.3451 0.9678
-5.1890 5.8673 -2.3450 0.9678
-6.1463 4.8537 -2.3447 0.9678
-6.9791 4.5655 -2.4968 0.9658
-7.6774 3.2555 -2.4966 0.9658
-8.2645 1.1115 -2.4965 0.9658
-4.8506 0.2163 -1.4536 0.9799
-3.6645 -0.1634 -1.0982 0.9848
-3.5144 -0.4726 -1.0616 0.9853
-7.9377 -2.5596 -2.4969 0.9658
-7.3591 -3.9269 -2.4972 0.9658
-6.5473 -5.1704 -2.4976 0.9658
-6.0617 -5.7331 -2.4979 0.9658
-5.5279 -6.2505 -2.4981 0.9658
-4.9502 -6.7184 -2.4984 0.9658
-3.6814 -7.4913 -2.4989 0.9657
-1.5719 -8.2007 -2.4998 0.9657
0.6507 -8.3275 -2.5007 0.9657
3.5176 -7.5801 -2.5018 0.9657
4.1787 -7.2377 -2.5020 0.9657
4.8067 -6.8376 -2.5022 0.9657
5.3966 -6.3831 -2.5024 0.9657
6.4438 -5.3259 -2.5028 0.9657
6.8926 -4.7315 -2.5029 0.9657
7.8985 -2.7427 -2.5032 0.9657
8.1114 -2.0288 -2.5032 0.9657
8.3426 -0.5585 -2.5032 0.9657
8.3590 0.1863 -2.5031 0.9657
12.2897 2.4980 -3.7545 0.9490
7.2935 2.9028 -2.3501 0.9678
6.6623 4.1493 -2.3498 0.9678
5.8201 5.2639 -2.3494 0.9678
2.9813 7.2545 -2.3481 0.9678
2.3235 7.4902 -2.3478 0.9678
-1.1311 7.7556 -2.3464 0.9678
-1.8167 7.6233 -2.3462 0.9678
-2.4877 7.4306 -2.3459 0.9678
-4.3612 6.5074 -2.3452 0.9678
-4.9227 6.0929 -2.3451 0.9678
-5.4451 5.6302 -2.3449 0.9678
-5.9242 5.1228 -2.3447 0.9678
-7.1754 4.2500 -2.4967 0.9658
-8.2067 1.4785 -2.4965 0.9658
-8.3058 0.7422 -2.4965 0.9658
-7.3685 -2.7441 -2.4971 0.9675
-6.7661 -4.0076 -2.4975 0.9675
-6.3830 -4.5942 -2.4976 0.9675
-5.9493 -5.1446 -2.4979 0.9675
-5.4683 -5.6542 -2.4981 0.9675
-4.9438 -6.1191 -2.4983 0.9675
-3.7813 -6.9001 -2.4988 0.9675
-3.1525 -7.2100 -2.4991 0.9675
-2.4986 -7.4629 -2.4994 0.9675
-1.8246 -7.6565 -2.4997 0.9675
-0.4383 -7.8604 -2.5002 0.9675
0.2631 -7.8691 -2.5005 0.9675
0.9626 -7.8154 -2.5008 0.9675
1.6545 -7.6995 -2.5011 0.9675
2.3335 -7.5224 -2.5013 0.9675
2.9941 -7.2856 -2.5016 0.9675
3.6310 -6.9908 -2.5018 0.9675
6.6894 -4.1662 -2.5028 0.9675
7.3226 -2.9143 -2.5030 0.9675
7.8325 -0.8762 -2.5030 0.9675
7.8635 0.5264 -2.5029 0.9675
7.7852 1.2242 -2.5028 0.9675
6.7461 3.0397 -2.3499 0.9694
6.4483 3.6278 -2.3497 0.9694
6.0994 4.1870 -2.3496 0.9694
5.2595 5.2012 -2.3491 0.9694
4.7752 5.6481 -2.3489 0.9694
4.2531 6.0502 -2.3487 0.9694
1.8735 7.1509 -2.3477 0.9695
1.2294 7.2885 -2.3474 0.9695
-0.7396 7.3519 -2.3466 0.9695
-2.0310 7.1027 -2.3461 0.9695
-3.2575 6.6289 -2.3457 0.9695
-3.8342 6.3120 -2.3455 0.9695
-4.3805 5.9452 -2.3453 0.9695
-4.8919 5.5313 -2.3451 0.9695
-7.2379 3.0691 -2.4968 0.9675
-7.6671 1.7372 -2.4967 0.9675
-4.3817 0.1954 -1.3930 0.9818
-3.3189 -0.4463 -1.0635 0.9860
-7.2392 -3.0697 -2.4972 0.9675
-5.7145 -5.4047 -2.4980 0.9675
-5.2112 -5.8925 -2.4982 0.9675
-4.6666 -6.3335 -2.4985 0.9675
-2.8284 -7.3437 -2.4993 0.9675
-2.1638 -7.5672 -2.4995 0.9675
-0.7880 -7.8327 -2.5001 0.9675
-0.0877 -7.8726 -2.5004 0.9675
0.6134 -7.8500 -2.5007 0.9675
3.9389 -6.8224 -2.5019 0.9675
5.6027 -5.5406 -2.5025 0.9675
6.0740 -5.0203 -2.5026 0.9675
6.8685 -3.8641 -2.5028 0.9675
7.6459 -1.9123 -2.5030 0.9675
7.7857 -1.2242 -2.5030 0.9675
7.8637 -0.5264 -2.5030 0.9675
7.8792 0.1756 -2.5029 0.9675
7.7228 1.5697 -2.5028 0.9675
6.8750 2.7362 -2.3500 0.9694
6.2801 3.9113 -2.3496 0.9694
5.0223 5.4301 -2.3490 0.9694
3.9792 6.2333 -2.3486 0.9694
2.7942 5.3798 -1.9252 0.9749
2.8103 6.8386 -2.3481 0.9694
2.1903 7.0608 -2.3478 0.9695
1.5530 7.2269 -2.3475 0.9695
0.9035 7.3356 -2.3473 0.9695
-2.9591 6.7677 -2.3458 0.9695
-3.5494 6.4769 -2.3456 0.9695
-4.6408 5.7440 -2.3452 0.9695
-5.1333 5.3078 -2.3450 0.9695
-5.5850 4.8295 -2.3449 0.9695
-6.3814 4.5930 -2.4970 0.9675
-7.0941 3.3886 -2.4968 0.9675
-7.3673 2.7437 -2.4967 0.9675
-7.5822 2.0770 -2.4967 0.9675
-7.7369 1.3939 -2.4967 0.9675
-3.6184 -0.0000 -1.2157 0.9848
-3.1483 -0.5672 -1.0748 0.9866
-3.1349 -0.8587 -1.0921 0.9864
-6.9654 -2.5940 -2.4973 0.9691
-6.7073 -3.2038 -2.4974 0.9691
-6.3959 -3.7883 -2.4976 0.9691
-5.6238 -4.8630 -2.4980 0.9691
-5.1691 -5.3448 -2.4982 0.9691
-4.6733 -5.7842 -2.4984 0.9691
-3.5744 -6.5224 -2.4989 0.9691
-2.9800 -6.8153 -2.4992 0.9691
-2.3618 -7.0542 -2.4994 0.9691
-1.7247 -7.2372 -2.4997 0.9691
-1.0738 -7.3628 -2.4999 0.9691
-0.4143 -7.4299 -2.5002 0.9691
0.2487 -7.4381 -2.5005 0.9691
2.2056 -7.1103 -2.5012 0.9691
3.4320 -6.6077 -2.5017 0.9691
4.5499 -5.8955 -2.5021 0.9691
5.0569 -5.4675 -2.5022 0.9691
6.6483 -3.3596 -2.5027 0.9691
6.9211 -2.7545 -2.5028 0.9691
7.1390 -2.1276 -2.5028 0.9691
7.3001 -1.4838 -2.5028 0.9691
7.4031 -0.8282 -2.5028 0.9691
7.4474 -0.1660 -2.5028 0.9691
7.4324 0.4975 -2.5027 0.9691
10.5543 3.6649 -3.7538 0.9539
6.3763 2.8730 -2.3498 0.9709
5.7651 3.9575 -2.3494 0.9709
5.3896 4.4546 -2.3493 0.9709
4.5136 5.3387 -2.3488 0.9709
4.0201 5.7187 -2.3486 0.9709
2.5658 5.5293 -2.0480 0.9746
1.7709 6.7593 -2.3477 0.9709
1.1621 6.8894 -2.3474 0.9709
0.5442 6.9647 -2.3472 0.9710
-0.0778 6.9848 -2.3469 0.9710
-0.6991 6.9494 -2.3467 0.9710
-1.3147 6.8589 -2.3464 0.9710
-1.9198 6.7140 -2.3462 0.9710
-3.6245 5.9667 -2.3456 0.9710
-4.1408 5.6200 -2.3454 0.9710
-5.0710 4.7961 -2.3451 0.9710
-5.8022 4.5820 -2.4840 0.9693
-6.5568 3.4988 -2.4970 0.9691
-6.8420 2.9013 -2.4969 0.9691
-7.0730 2.2808 -2.4969 0.9691
-7.3652 0.9905 -2.4969 0.9691
-3.1639 -0.4255 -1.0726 0.9866
-6.8432 -2.9018 -2.4973 0.9691
-5.8346 -4.6075 -2.4979 0.9691
-5.4018 -5.1090 -2.4981 0.9691
-4.9261 -5.5700 -2.4983 0.9691
-3.2804 -6.6755 -2.4990 0.9691
-2.0453 -7.1528 -2.4995 0.9691
-1.4007 -7.3073 -2.4998 0.9691
1.2381 -7.3397 -2.5009 0.9691
2.5203 -7.0053 -2.5013 0.9691
3.1341 -6.7538 -2.5016 0.9691
3.7231 -6.4486 -2.5018 0.9691
4.2826 -6.0921 -2.5020 0.9691
6.4920 -3.6523 -2.5027 0.9691
7.0370 -2.4436 -2.5028 0.9691
7.2267 -1.8075 -2.5028 0.9691
7.3589 -1.1571 -2.5028 0.9691
7.4473 0.1660 -2.5028 0.9691
6.4982 2.5862 -2.3498 0.9709
5.1856 4.6901 -2.3492 0.9709
4.7471 5.1325 -2.3490 0.9709
4.2711 5.5342 -2.3487 0.9709
2.7874 5.3668 -2.0318 0.9748
2.6564 6.4640 -2.3480 0.9709
2.0703 6.6741 -2.3478 0.9709
0.8540 6.9339 -2.3473 0.9709
0.2334 6.9817 -2.3470 0.9710
-0.3889 6.9740 -2.3468 0.9710
-2.2169 6.6215 -2.3461 0.9710
-3.3552 6.1225 -2.3457 0.9710
-4.3869 5.4297 -2.3453 0.9710
-4.8524 5.0174 -2.3452 0.9710
-6.0323 4.3418 -2.4971 0.9691
-6.3946 3.7875 -2.4970 0.9691
-6.7061 3.2032 -2.4970 0.9691
-6.9644 2.5936 -2.4969 0.9691
-7.1675 1.9634 -2.4969 0.9691
-7.3138 1.3177 -2.4969 0.9691
-7.4020 0.6615 -2.4969 0.9691
-3.4902 0.0000 -1.2376 0.9853
-3.0229 -0.8281 -1.1114 0.9868
-6.3557 -3.0359 -2.4975 0.9705
-6.0607 -3.5897 -2.4977 0.9705
-5.7175 -4.1152 -2.4979 0.9705
-5.3289 -4.6081 -2.4981 0.9705
-4.4282 -5.4809 -2.4985 0.9705
-3.3869 -6.1803 -2.4989 0.9705
-1.6342 -6.8575 -2.4997 0.9705
-1.0175 -6.9765 -2.4999 0.9705
-0.3926 -7.0401 -2.5002 0.9705
2.6814 -6.5248 -2.5014 0.9705
3.2518 -6.2608 -2.5016 0.9705
5.6345 -4.2492 -2.5024 0.9705
6.7640 -2.0159 -2.5027 0.9705
6.9166 -1.4059 -2.5027 0.9705
7.0143 -0.7847 -2.5027 0.9705
7.0420 0.4714 -2.5026 0.9705
6.9719 1.0963 -2.5025 0.9705
10.0000 3.4723 -3.7535 0.9561
5.7749 3.2489 -2.3495 0.9723
5.1066 4.2207 -2.3492 0.9723
2.2416 6.2305 -2.3479 0.9723
1.6779 6.4046 -2.3476 0.9723
1.1011 6.5280 -2.3474 0.9723
-2.9178 5.9376 -2.3459 0.9723
-3.4344 5.6539 -2.3457 0.9723
-4.3819 4.9547 -2.3454 0.9723
-5.8936 3.8554 -2.4972 0.9706
-6.2132 3.3154 -2.4971 0.9706
-6.7023 2.1612 -2.4970 0.9706
-6.8680 1.5561 -2.4970 0.9706
-6.9792 0.9386 -2.4970 0.9706
-3.9464 0.1760 -1.4007 0.9834
-3.0241 -0.6852 -1.0995 0.9869
-6.4845 -2.7496 -2.4975 0.9706
-6.2144 -3.3161 -2.4976 0.9705
-5.8949 -3.8563 -2.4978 0.9705
-3.1084 -6.3254 -2.4991 0.9705
-2.5333 -6.5776 -2.4993 0.9705
-1.9380 -6.7776 -2.4996 0.9705
-1.3272 -6.9239 -2.4998 0.9705
-0.7057 -7.0153 -2.5001 0.9705
-0.0785 -7.0509 -2.5003 0.9705
0.5494 -7.0306 -2.5006 0.9705
1.7876 -6.8231 -2.5010 0.9705
2.3880 -6.6375 -2.5013 0.9705
2.9696 -6.3992 -2.5015 0.9705
4.0577 -5.7722 -2.5019 0.9705
4.5557 -5.3885 -2.5020 0.9705
5.0175 -4.9619 -2.5022 0.9705
5.4395 -4.4959 -2.5023 0.9705
5.8184 -3.9940 -2.5024 0.9705
6.1510 -3.4605 -2.5025 0.9705
6.4348 -2.8994 -2.5026 0.9705
6.8471 -1.7126 -2.5027 0.9705
6.9724 -1.0963 -2.5027 0.9705
7.0140 0.7847 -2.5026 0.9705
9.8351 3.9143 -3.7535 0.9561
5.2897 3.9892 -2.3492 0.9723
2.7806 5.3537 -2.1391 0.9747
1.9617 6.3239 -2.3478 0.9723
1.3909 6.4727 -2.3475 0.9723
0.8092 6.5702 -2.3473 0.9723
-0.9551 6.5486 -2.3466 0.9723
-1.5340 6.4370 -2.3464 0.9723
-2.1006 6.2743 -2.3462 0.9723
-2.6505 6.0620 -2.3460 0.9723
-3.6828 5.4950 -2.3456 0.9723
-4.5981 4.7544 -2.3453 0.9723
-7.9915 6.9105 -3.7462 0.9562
-5.7161 4.1142 -2.4973 0.9706
-6.0594 3.5890 -2.4972 0.9706
-6.3546 3.0353 -2.4971 0.9706
-3.3740 0.0000 -1.2599 0.9857
-2.9938 -0.2675 -1.1224 0.9872
-2.9169 -0.7990 -1.1293 0.9872
-2.9238 -1.0888 -1.1650 0.9868
-5.7554 -3.4089 -2.4978 0.9718
-5.4295 -3.9079 -2.4980 0.9718
-3.2162 -5.8688 -2.4990 0.9718
-2.6813 -6.1324 -2.4992 0.9718
-0.3728 -6.6851 -2.5002 0.9718
0.2238 -6.6924 -2.5004 0.9718
1.4071 -6.5479 -2.5009 0.9718
1.9844 -6.3972 -2.5011 0.9718
3.0877 -5.9450 -2.5015 0.9718
4.0935 -5.3040 -2.5018 0.9718
6.2267 -2.4781 -2.5025 0.9718
6.5675 -1.3349 -2.5025 0.9718
6.6867 0.4476 -2.5025 0.9718
6.6201 1.0410 -2.5024 0.9718
6.5009 1.6260 -2.5023 0.9718
9.4954 3.2972 -3.7534 0.9580
5.4835 3.0850 -2.3494 0.9735
5.1868 3.5605 -2.3492 0.9735
4.8490 4.0078 -2.3491 0.9735
4.4727 4.4231 -2.3489 0.9735
2.5336 5.4598 -2.2476 0.9746
1.5933 6.0817 -2.3476 0.9735
0.4897 6.2667 -2.3472 0.9735
-0.0700 6.2849 -2.3470 0.9735
-0.6291 6.2530 -2.3467 0.9735
-1.1830 6.1717 -2.3465 0.9735
-2.2581 5.8631 -2.3461 0.9735
-3.7261 5.0571 -2.3456 0.9735
-7.8736 6.2177 -3.7463 0.9581
-6.1569 2.6108 -2.4972 0.9718
-3.0832 -0.1375 -1.1525 0.9869
-2.9640 -0.3986 -1.1167 0.9873
-2.9258 -0.6629 -1.1202 0.9873
-2.9106 -0.9386 -1.1419 0.9870
-6.1578 -2.6111 -2.4976 0.9718
-4.8607 -4.5972 -2.4982 0.9718
-3.9692 -5.3871 -2.4987 0.9718
-3.4743 -5.7195 -2.4989 0.9718
-2.9517 -6.0066 -2.4991 0.9718
-0.6702 -6.6616 -2.5001 0.9718
1.1139 -6.6038 -2.5008 0.9718
2.8198 -6.0763 -2.5014 0.9718
4.3258 -5.1166 -2.5019 0.9718
5.1650 -4.2690 -2.5022 0.9718
5.5248 -3.7925 -2.5023 0.9718
6.3309 -2.1984 -2.5025 0.9718
6.5015 -1.6262 -2.5025 0.9718
6.7000 0.1494 -2.5025 0.9718
6.6600 0.7451 -2.5024 0.9718
6.5670 1.3348 -2.5023 0.9718
9.3389 3.7168 -3.7533 0.9580
5.6156 2.8377 -2.3495 0.9735
5.3404 3.3261 -2.3493 0.9735
4.2710 4.6178 -2.3488 0.9735
3.3840 5.3010 -2.3484 0.9735
2.7738 5.3405 -2.2471 0.9746
2.3901 5.8160 -2.3480 0.9735
1.8628 6.0050 -2.3477 0.9735
1.3208 6.1464 -2.3475 0.9735
-0.9069 6.2185 -2.3466 0.9735
-1.4567 6.1126 -2.3464 0.9735
-3.4972 5.2183 -2.3457 0.9735
-3.9475 4.8859 -2.3455 0.9735
-7.5890 6.5624 -3.7464 0.9581
-5.7542 3.4082 -2.4973 0.9718
-6.2671 2.3339 -2.4972 0.9718
-3.2641 0.0000 -1.2810 0.9861
-2.8528 -1.0624 -1.1947 0.9870
-5.1660 -3.7182 -2.4981 0.9730
-4.8149 -4.1636 -2.4982 0.9730
-4.0010 -4.9521 -2.4986 0.9730
-3.0601 -5.5839 -2.4990 0.9730
-2.5512 -5.8347 -2.4993 0.9730
-0.9193 -6.3031 -2.4999 0.9730
0.2129 -6.3673 -2.5004 0.9730
1.3387 -6.2298 -2.5008 0.9730
1.8880 -6.0864 -2.5010 0.9730
2.9377 -5.6561 -2.5014 0.9730
3.8945 -5.0463 -2.5017 0.9730
4.3285 -4.6799 -2.5019 0.9730
5.0902 -3.8386 -2.5021 0.9730
5.6905 -2.8755 -2.5023 0.9730
5.9240 -2.3577 -2.5024 0.9730
6.1104 -1.8211 -2.5024 0.9730
6.2483 -1.2700 -2.5024 0.9730
6.3365 -0.7088 -2.5024 0.9730
6.3744 -0.1420 -2.5024 0.9730
6.1849 1.5470 -2.5022 0.9730
9.0338 3.1369 -3.7532 0.9597
8.7184 3.9284 -3.7530 0.9597
5.2170 2.9350 -2.3493 0.9746
4.9347 3.3875 -2.3492 0.9746
4.6133 3.8130 -2.3490 0.9746
3.8636 4.5699 -2.3486 0.9746
3.4412 4.8953 -2.3485 0.9746
2.9916 5.1817 -2.3483 0.9746
2.4934 5.3731 -2.3248 0.9749
2.0251 5.6290 -2.3478 0.9746
1.5160 5.7864 -2.3476 0.9746
0.9948 5.8978 -2.3474 0.9746
-0.0666 5.9797 -2.3470 0.9746
-1.1256 5.8721 -2.3466 0.9746
-1.6436 5.7481 -2.3464 0.9746
-2.6363 5.3648 -2.3460 0.9746
-3.9592 4.4768 -2.3456 0.9746
-6.9356 6.5596 -3.7466 0.9598
-4.9943 3.9439 -2.4976 0.9730
-5.6140 2.9957 -2.4974 0.9730
-5.8582 2.4841 -2.4973 0.9730
-2.8734 -0.3864 -1.1379 0.9876
-5.6150 -2.9962 -2.4978 0.9730
-4.6248 -4.3740 -2.4983 0.9730
-1.7509 -6.1234 -2.4996 0.9730
-1.1991 -6.2555 -2.4998 0.9730
1.0598 -6.2830 -2.5007 0.9730
1.6149 -6.1642 -2.5009 0.9730
2.1574 -5.9965 -2.5011 0.9730
3.6658 -5.2146 -2.5017 0.9730
4.1156 -4.8679 -2.5018 0.9730
6.1855 -1.5471 -2.5024 0.9730
6.2986 -0.9904 -2.5024 0.9730
6.3362 0.7088 -2.5023 0.9730
6.1098 1.8209 -2.5021 0.9730
5.0809 3.1644 -2.3492 0.9746
4.7788 3.6038 -2.3491 0.9746
3.2196 5.0435 -2.3484 0.9746
2.2740 5.5334 -2.3479 0.9746
1.7723 5.7134 -2.3477 0.9746
0.7311 5.9360 -2.3473 0.9746
0.1998 5.9770 -2.3471 0.9746
-0.3329 5.9705 -2.3469 0.9746
-2.8726 5.2418 -2.3459 0.9746
-3.3275 4.9650 -2.3458 0.9746
-3.7560 4.6489 -2.3456 0.9746
-6.6367 6.8622 -3.7467 0.9598
-5.4751 3.2429 -2.4974 0.9730
-5.9630 2.2206 -2.4973 0.9730
-6.1369 1.6811 -2.4973 0.9730
-3.1614 0.0000 -1.3018 0.9864
-2.8130 -0.2514 -1.1629 0.9879
-2.7831 -0.5014 -1.1645 0.9878
-2.7695 -0.7587 -1.1825 0.9877
-2.7842 -1.0369 -1.2234 0.9872
-5.4736 -2.6145 -2.4979 0.9741
-5.2195 -3.0915 -2.4980 0.9741
-4.9239 -3.5440 -2.4981 0.9741
-4.5892 -3.9685 -2.4983 0.9741
-4.2181 -4.3615 -2.4985 0.9741
-2.4315 -5.5611 -2.4993 0.9741
-1.9271 -5.7559 -2.4995 0.9741
-0.8762 -6.0074 -2.4999 0.9741
-0.3380 -6.0621 -2.5001 0.9741
0.2029 -6.0687 -2.5004 0.9741
0.7423 -6.0270 -2.5006 0.9741
1.2759 -5.9375 -2.5008 0.9741
3.2688 -5.1204 -2.5015 0.9741
4.1253 -4.4603 -2.5018 0.9741
4.8512 -3.6585 -2.5020 0.9741
5.1578 -3.2123 -2.5021 0.9741
5.4234 -2.7405 -2.5022 0.9741
5.9550 -1.2104 -2.5023 0.9741
6.0391 -0.6756 -2.5023 0.9741
6.0752 -0.1354 -2.5023 0.9741
6.0027 0.9439 -2.5021 0.9741
8.3092 3.7440 -3.7529 0.9613
7.9426 4.4684 -3.7527 0.9613
4.3969 3.6341 -2.3489 0.9756
3.6823 4.3555 -2.3486 0.9756
2.8513 4.9386 -2.3482 0.9756
2.4002 5.1723 -2.3480 0.9756
1.4449 5.5150 -2.3476 0.9756
0.9482 5.6212 -2.3474 0.9756
0.4441 5.6828 -2.3472 0.9756
-0.0635 5.6993 -2.3470 0.9756
-0.5705 5.6705 -2.3468 0.9756
-2.0478 5.3171 -2.3462 0.9757
-6.0282 6.8162 -3.7470 0.9614
-6.6106 6.2523 -3.7468 0.9614
-5.0758 3.3204 -2.4976 0.9741
-5.5838 2.3678 -2.4975 0.9741
-5.9150 1.3402 -2.4974 0.9741
-6.0108 0.8084 -2.4974 0.9741
-2.9337 -0.1308 -1.2092 0.9874
-2.7946 -0.3759 -1.1611 0.9879
-2.7756 -0.6289 -1.1719 0.9878
-2.8016 -1.1880 -1.2531 0.9869
-5.3519 -2.8558 -2.4979 0.9741
-4.7613 -3.7600 -2.4982 0.9741
-4.0198 -4.5452 -2.4986 0.9741
-3.5995 -4.8853 -2.4988 0.9741
-3.1507 -5.1867 -2.4990 0.9741
-1.1429 -5.9622 -2.4998 0.9741
-0.0676 -6.0714 -2.5003 0.9741
0.4731 -6.0539 -2.5005 0.9741
1.0101 -5.9882 -2.5007 0.9741
2.0561 -5.7152 -2.5011 0.9741
2.5569 -5.5098 -2.5013 0.9741
4.3200 -4.2721 -2.5019 0.9741
5.0095 -3.4388 -2.5021 0.9741
5.7404 -1.9933 -2.5023 0.9741
5.8951 -1.4745 -2.5023 0.9741
6.0388 0.6755 -2.5022 0.9741
5.9546 1.2104 -2.5021 0.9741
8.1340 4.1103 -3.7528 0.9613
4.8425 3.0159 -2.3491 0.9756
4.5545 3.4347 -2.3490 0.9756
4.2305 3.8262 -2.3488 0.9756
3.0686 4.8069 -2.3483 0.9756
2.6284 5.0605 -2.3481 0.9756
1.6892 5.4454 -2.3477 0.9756
0.1905 5.6967 -2.3471 0.9756
-0.3173 5.6906 -2.3469 0.9756
-0.8225 5.6393 -2.3467 0.9756
-1.3210 5.5432 -2.3465 0.9757
-1.8090 5.4032 -2.3463 0.9757
-2.7380 4.9962 -2.3460 0.9757
-3.5800 4.4310 -2.3457 0.9757
-4.9229 3.5433 -2.4976 0.9741
-5.9688 1.0753 -2.4974 0.9741
-3.9772 0.3554 -1.6443 0.9829
-2.7278 -0.4914 -1.1956 0.9880
-2.7092 -0.7421 -1.2117 0.9878
-2.7209 -1.0132 -1.2524 0.9874
-2.7884 -1.6516 -1.3980 0.9860
-4.7006 -3.3833 -2.4982 0.9751
-4.3811 -3.7884 -2.4984 0.9751
-4.0268 -4.1637 -2.4985 0.9751
-3.6404 -4.5058 -2.4987 0.9751
-3.2252 -4.8123 -2.4989 0.9751
-2.7843 -5.0807 -2.4991 0.9751
-2.3212 -5.3088 -2.4993 0.9751
-1.3434 -5.6371 -2.4997 0.9751
-0.8364 -5.7348 -2.4999 0.9751
-0.3227 -5.7870 -2.5001 0.9751
0.7086 -5.7534 -2.5005 0.9751
1.7177 -5.5375 -2.5009 0.9751
2.6727 -5.1459 -2.5013 0.9751
4.3015 -3.8905 -2.5018 0.9751
5.1770 -2.6161 -2.5021 0.9750
5.5590 -1.6567 -2.5022 0.9750
5.7647 -0.6449 -2.5022 0.9750
5.7992 -0.1292 -2.5021 0.9750
5.7300 0.9010 -2.5020 0.9750
5.6269 1.4074 -2.5020 0.9750
5.4791 1.9025 -2.5019 0.9751
7.5819 4.2655 -3.7525 0.9628
4.4896 3.0819 -2.3490 0.9766
4.1972 3.4691 -2.3489 0.9766
3.8715 3.8286 -2.3487 0.9766
3.5151 4.1577 -2.3485 0.9766
3.1309 4.4537 -2.3484 0.9766
0.4239 5.4250 -2.3472 0.9766
-0.0606 5.4407 -2.3470 0.9766
-0.5446 5.4133 -2.3468 0.9766
-1.9549 5.0759 -2.3463 0.9766
-2.3988 4.8814 -2.3461 0.9766
-2.8236 4.6482 -2.3460 0.9766
-5.7548 6.5071 -3.7471 0.9629
-6.3108 5.9687 -3.7469 0.9629
-4.5444 3.5887 -2.4978 0.9751
-5.1083 2.7259 -2.4976 0.9751
-5.5105 1.7769 -2.4975 0.9751
-5.6468 1.2794 -2.4975 0.9751
-5.7382 0.7717 -2.4975 0.9751
-3.3811 0.1508 -1.4599 0.9854
-2.8614 -0.1276 -1.2355 0.9876
-2.7402 -0.3685 -1.1926 0.9880
-2.7200 -0.6163 -1.2030 0.9879
-2.7334 -1.1590 -1.2807 0.9871
-4.8465 -3.1704 -2.4982 0.9751
-4.5453 -3.5894 -2.4983 0.9751
-4.2081 -3.9800 -2.4985 0.9751
-3.8374 -4.3390 -2.4986 0.9751
-3.4362 -4.6637 -2.4988 0.9751
-3.0077 -4.9514 -2.4990 0.9751
-2.5553 -5.1999 -2.4992 0.9751
-2.0825 -5.4071 -2.4994 0.9751
-1.5931 -5.5715 -2.4996 0.9751
-0.5801 -5.7666 -2.5000 0.9751
-0.0646 -5.7958 -2.5002 0.9751
0.9642 -5.7163 -2.5006 0.9751
1.4693 -5.6083 -2.5008 0.9751
1.9628 -5.4557 -2.5010 0.9751
2.4408 -5.2597 -2.5012 0.9751
2.8994 -5.0219 -2.5014 0.9751
3.3351 -4.7442 -2.5015 0.9751
4.1238 -4.0781 -2.5018 0.9751
4.4706 -3.6950 -2.5019 0.9751
5.2885 -2.3829 -2.5021 0.9750
5.3888 2.1447 -2.5018 0.9751
7.3841 4.5988 -3.7524 0.9628
3.6970 3.9971 -2.3486 0.9766
3.3263 4.3100 -2.3484 0.9766
2.5090 4.8307 -2.3481 0.9766
2.0690 5.0345 -2.3479 0.9766
1.6125 5.1982 -2.3477 0.9766
1.1433 5.3207 -2.3475 0.9766
0.6652 5.4009 -2.3473 0.9766
0.1818 5.4382 -2.3471 0.9766
-0.3029 5.4324 -2.3469 0.9766
-1.7269 5.1581 -2.3464 0.9766
-3.0277 4.5177 -2.3459 0.9766
-4.3801 3.7876 -2.4978 0.9751
-4.6997 3.3826 -2.4977 0.9751
-5.5842 1.5297 -2.4975 0.9751
-2.9980 0.0000 -1.3528 0.9869
-2.7005 -0.2413 -1.2234 0.9882
-2.6738 -0.4817 -1.2259 0.9881
-2.6546 -0.7272 -1.2419 0.9880
-2.6867 -1.5913 -1.4090 0.9864
-4.4938 -3.2345 -2.4983 0.9760
-3.4803 -4.3076 -2.4988 0.9760
-3.0833 -4.6006 -2.4990 0.9760
-2.6618 -4.8571 -2.4991 0.9760
-2.2191 -5.0751 -2.4993 0.9760
-1.7587 -5.2529 -2.4995 0.9760
-0.7996 -5.4824 -2.4999 0.9760
-0.3085 -5.5322 -2.5001 0.9760
0.1852 -5.5381 -2.5003 0.9760
0.6774 -5.5001 -2.5005 0.9760
1.1644 -5.4184 -2.5007 0.9760
1.6421 -5.2936 -2.5009 0.9760
2.1069 -5.1269 -2.5010 0.9760
2.5550 -4.9193 -2.5012 0.9760
2.9829 -4.6726 -2.5014 0.9760
3.3871 -4.3888 -2.5015 0.9760
3.7645 -4.0701 -2.5016 0.9760
4.4269 -3.3385 -2.5018 0.9760
4.9490 -2.5008 -2.5020 0.9760
5.3142 -1.5838 -2.5021 0.9760
5.4341 -1.1045 -2.5021 0.9760
5.5108 -0.6165 -2.5021 0.9760
5.5326 0.3704 -2.5020 0.9760
5.4776 0.8613 -2.5019 0.9760
5.2377 1.8187 -2.5018 0.9760
6.8559 4.7063 -3.7522 0.9642
3.7010 3.6601 -2.3486 0.9774
2.1904 4.7202 -2.3480 0.9774
1.3186 5.0330 -2.3476 0.9774
0.8653 5.1299 -2.3474 0.9774
-0.0579 5.2013 -2.3470 0.9774
-0.5206 5.1751 -2.3469 0.9774
-0.9791 5.1078 -2.3467 0.9774
-1.4297 5.0000 -2.3465 0.9774
-1.8689 4.8526 -2.3464 0.9774
-2.2933 4.6667 -2.3462 0.9774
-4.9264 6.6862 -3.7474 0.9642
-5.5017 6.2209 -3.7472 0.9642
-4.0221 3.8041 -2.4980 0.9760
-4.3445 3.4309 -2.4979 0.9760
-4.8837 2.6060 -2.4977 0.9760
-5.0962 2.1610 -2.4977 0.9760
-5.2682 1.6988 -2.4976 0.9760
-5.3985 1.2231 -2.4976 0.9760
-5.4859 0.7378 -2.4976 0.9760
-3.2608 0.1454 -1.4728 0.9858
-2.6659 -0.6040 -1.2334 0.9881
-2.6574 -0.8569 -1.2599 0.9878
-2.6675 -1.1311 -1.3074 0.9874
-4.8844 -2.6064 -2.4981 0.9760
-4.0230 -3.8049 -2.4985 0.9760
-2.4429 -4.9711 -2.4992 0.9760
-1.9909 -5.1692 -2.4994 0.9760
-1.5230 -5.3263 -2.4996 0.9760
-1.0430 -5.4411 -2.4998 0.9760
-0.0617 -5.5407 -2.5002 0.9760
2.7717 -4.8007 -2.5013 0.9760
4.2737 -3.5323 -2.5018 0.9760
4.5713 -3.1380 -2.5019 0.9760
4.8326 -2.7188 -2.5020 0.9760
5.0555 -2.2779 -2.5020 0.9760
5.4779 -0.8613 -2.5021 0.9760
5.5328 -0.3704 -2.5021 0.9760
5.4337 1.1044 -2.5019 0.9760
5.3137 1.5837 -2.5018 0.9760
4.1562 3.1343 -2.3489 0.9774
3.5342 3.8212 -2.3486 0.9774
1.0930 5.0865 -2.3475 0.9774
0.1738 5.1989 -2.3471 0.9774
-2.4988 4.5598 -2.3461 0.9774
-5.7732 5.9695 -3.7471 0.9642
-4.7628 2.8210 -2.4978 0.9760
-5.3386 1.4624 -2.4976 0.9760
-2.6448 -0.2363 -1.2517 0.9883
-2.6212 -0.4722 -1.2555 0.9883
-2.6596 -1.5753 -1.4571 0.9864
-4.3017 -3.0962 -2.4984 0.9768
-4.0093 -3.4670 -2.4985 0.9768
-3.6851 -3.8103 -2.4987 0.9768
-2.9515 -4.4039 -2.4990 0.9768
-2.5480 -4.6495 -2.4992 0.9768
-2.1242 -4.8581 -2.4994 0.9768
-1.6835 -5.0282 -2.4995 0.9768
-1.2293 -5.1586 -2.4997 0.9768
-0.7654 -5.2479 -2.4999 0.9768
1.5719 -5.0671 -2.5008 0.9768
2.0168 -4.9075 -2.5010 0.9768
2.8553 -4.4727 -2.5013 0.9768
3.6034 -3.8960 -2.5015 0.9768
3.9360 -3.5599 -2.5017 0.9768
4.9315 -1.9627 -2.5019 0.9768
5.3064 -0.1182 -2.5020 0.9768
5.2958 0.3546 -2.5019 0.9768
5.2431 0.8245 -2.5019 0.9768
5.1488 1.2878 -2.5018 0.9768
5.0136 1.7409 -2.5017 0.9768
4.8385 2.1801 -2.5016 0.9768
6.9377 3.9031 -3.7523 0.9654
6.5625 4.5049 -3.7521 0.9654
3.8407 3.1744 -2.3487 0.9782
3.5427 3.5034 -2.3486 0.9782
3.2166 3.8046 -2.3484 0.9782
2.8650 4.0755 -2.3483 0.9782
2.4907 4.3140 -2.3481 0.9782
2.0967 4.5183 -2.3479 0.9782
0.8283 4.9106 -2.3474 0.9782
0.3879 4.9644 -2.3472 0.9782
-0.4984 4.9538 -2.3469 0.9782
-1.3686 4.7863 -2.3466 0.9782
-1.7890 4.6452 -2.3464 0.9782
-2.5840 4.2538 -2.3461 0.9782
-5.2665 5.9550 -3.7473 0.9655
-3.8502 3.6415 -2.4981 0.9768
-4.1589 3.2843 -2.4980 0.9768
-5.1678 1.1709 -2.4977 0.9768
-5.2515 0.7063 -2.4977 0.9768
-3.1522 0.1405 -1.4873 0.9861
-2.7082 -0.1208 -1.2778 0.9881
-2.6038 -1.1041 -1.3332 0.9876
-2.5902 -1.3822 -1.3839 0.9871
-4.4353 -2.9014 -2.4983 0.9768
-3.5118 -3.9708 -2.4987 0.9768
-2.7525 -4.5312 -2.4991 0.9768
-1.9057 -4.9481 -2.4994 0.9768
-0.0591 -5.3037 -2.5002 0.9768
0.4132 -5.2883 -2.5004 0.9768
2.2334 -4.8129 -2.5011 0.9768
3.0518 -4.3412 -2.5014 0.9768
3.4262 -4.0525 -2.5015 0.9768
4.6258 -2.6024 -2.5019 0.9768
5.0141 -1.7411 -2.5020 0.9768
5.2434 -0.8245 -2.5020 0.9768
5.2959 -0.3545 -2.5020 0.9768
5.3064 0.1183 -2.5019 0.9768
5.2747 0.5901 -2.5019 0.9768
5.0862 1.5159 -2.5017 0.9768
4.9310 1.9625 -2.5017 0.9768
7.1049 3.5902 -3.7524 0.9654
6.7568 4.2082 -3.7522 0.9654
3.3830 3.6576 -2.3485 0.9782
2.6805 4.1989 -2.3482 0.9782
2.2960 4.4206 -2.3480 0.9782
1.4756 4.7569 -2.3477 0.9782
1.0463 4.8690 -2.3475 0.9782
-1.1540 4.8427 -2.3466 0.9782
-1.5804 4.7204 -2.3465 0.9782
-1.9941 4.5607 -2.3463 0.9782
-4.9961 6.1838 -3.7474 0.9655
-4.0085 3.4663 -2.4980 0.9768
-4.3010 3.0957 -2.4979 0.9768
-4.7814 2.2839 -2.4978 0.9768
-4.9657 1.8492 -2.4977 0.9768
-5.1105 1.3999 -2.4977 0.9768
-5.2148 0.9395 -2.4977 0.9768
-2.8279 0.0000 -1.3909 0.9875
-2.5903 -0.2315 -1.2791 0.9885
-2.5698 -0.4630 -1.2843 0.9884
-2.5499 -0.6985 -1.3004 0.9883
-2.5453 -0.9479 -1.3359 0.9880
-4.3703 -2.5885 -2.4983 0.9776
-3.8425 -3.3227 -2.4986 0.9776
-2.8286 -4.2206 -2.4990 0.9776
-2.4419 -4.4559 -2.4992 0.9776
-2.0358 -4.6559 -2.4994 0.9776
-1.6134 -4.8189 -2.4996 0.9776
-1.1782 -4.9438 -2.4997 0.9776
-0.7335 -5.0294 -2.4999 0.9776
0.1699 -5.0805 -2.5003 0.9776
1.0681 -4.9706 -2.5006 0.9776
1.5064 -4.8561 -2.5008 0.9776
2.3438 -4.5126 -2.5011 0.9776
3.1071 -4.0260 -2.5014 0.9776
3.7721 -3.4116 -2.5016 0.9776
4.0609 -3.0624 -2.5017 0.9776
4.7260 -1.8809 -2.5018 0.9776
4.8747 -1.4528 -2.5019 0.9776
4.9847 -1.0132 -2.5019 0.9776
5.0247 0.7901 -2.5018 0.9776
6.6487 3.7405 -3.7522 0.9666
6.2891 4.3172 -3.7520 0.9666
3.0826 3.6461 -2.3484 0.9789
2.7457 3.9058 -2.3482 0.9789
2.3870 4.1344 -2.3481 0.9789
2.0094 4.3301 -2.3479 0.9789
1.2096 4.6171 -2.3476 0.9789
0.7938 4.7061 -2.3474 0.9790
-0.4776 4.7476 -2.3469 0.9790
-2.1039 4.2813 -2.3463 0.9790
-5.0474 5.7072 -3.7474 0.9666
-3.6900 3.4900 -2.4981 0.9776
-4.2500 2.7803 -2.4980 0.9776
-4.4805 2.3909 -2.4979 0.9776
-4.6754 1.9826 -2.4978 0.9776
-4.8333 1.5585 -2.4978 0.9776
-2.6467 -0.1180 -1.3031 0.9883
-2.5845 -0.3476 -1.2826 0.9884
-2.5301 -1.3501 -1.4105 0.9873
-3.9866 -3.1482 -2.4985 0.9776
-3.3656 -3.8056 -2.4988 0.9776
-3.0137 -4.0903 -2.4989 0.9776
-2.6379 -4.3426 -2.4991 0.9776
-2.2411 -4.5604 -2.4993 0.9776
-1.3972 -4.8862 -2.4996 0.9776
-0.5088 -5.0573 -2.5000 0.9776
0.3960 -5.0681 -2.5004 0.9776
0.8456 -5.0131 -2.5005 0.9776
1.7213 -4.7844 -2.5009 0.9776
2.1404 -4.6124 -2.5010 0.9776
2.9246 -4.1603 -2.5013 0.9776
3.9204 -3.2403 -2.5016 0.9776
4.6375 -2.0896 -2.5018 0.9776
4.8052 -1.6685 -2.5019 0.9776
5.0753 -0.3397 -2.5019 0.9776
5.0549 0.5655 -2.5018 0.9776
4.8743 1.4527 -2.5017 0.9776
4.7255 1.8807 -2.5016 0.9776
4.5392 2.2938 -2.5015 0.9776
6.4754 4.0329 -3.7521 0.9666
6.0904 4.5930 -3.7519 0.9666
3.5414 3.2030 -2.3486 0.9789
3.2421 3.5053 -2.3485 0.9789
2.5689 4.0241 -2.3482 0.9789
2.2004 4.2364 -2.3480 0.9789
1.0027 4.6662 -2.3475 0.9789
0.1595 4.7694 -2.3472 0.9790
-0.2657 4.7643 -2.3470 0.9790
-1.1060 4.6411 -2.3467 0.9790
-1.5146 4.5240 -2.3465 0.9790
-4.7883 5.9266 -3.7475 0.9666
-4.1220 2.9669 -2.4980 0.9776
-4.3696 2.5882 -2.4979 0.9776
-4.8979 1.3417 -2.4978 0.9776
-4.9979 0.9004 -2.4978 0.9776
-2.7481 0.0000 -1.4089 0.9877
-2.5198 -0.4540 -1.3126 0.9886
-2.4994 -0.6846 -1.3286 0.9884
-2.4879 -1.1884 -1.4135 0.9877
-3.9554 -2.8469 -2.4985 0.9783
-3.6865 -3.1879 -2.4986 0.9783
-3.3884 -3.5035 -2.4988 0.9783
-3.0633 -3.7915 -2.4989 0.9783
0.1630 -4.8742 -2.5003 0.9783
0.5962 -4.8407 -2.5004 0.9783
1.0247 -4.7687 -2.5006 0.9783
1.4452 -4.6589 -2.5008 0.9783
1.8542 -4.5121 -2.5009 0.9783
2.6252 -4.1122 -2.5012 0.9783
2.9809 -3.8624 -2.5013 0.9783
4.5340 -1.8044 -2.5018 0.9783
4.6767 -1.3938 -2.5018 0.9783
4.8787 -0.1087 -2.5018 0.9783
4.8689 0.3260 -2.5017 0.9783
4.8205 0.7580 -2.5017 0.9783
6.0336 4.1418 -3.7519 0.9676
2.6341 3.7471 -2.3482 0.9796
2.2900 3.9665 -2.3481 0.9796
1.9278 4.1543 -2.3479 0.9796
0.7616 4.5150 -2.3474 0.9796
0.3567 4.5646 -2.3473 0.9796
-0.0510 4.5779 -2.3471 0.9796
-0.4582 4.5549 -2.3469 0.9796
-0.8618 4.4957 -2.3468 0.9796
-1.2584 4.4009 -2.3466 0.9796
-1.6450 4.2712 -2.3465 0.9796
-3.2283 3.6504 -2.4983 0.9783
-3.8241 3.0199 -2.4981 0.9783
-4.0776 2.6675 -2.4980 0.9783
-4.2987 2.2939 -2.4980 0.9783
-4.7519 1.0766 -2.4979 0.9783
-2.9775 0.1328 -1.5280 0.9867
-2.5877 -0.1154 -1.3280 0.9884
-3.8248 -3.0204 -2.4985 0.9783
-3.2290 -3.6511 -2.4988 0.9783
-2.5308 -4.1663 -2.4991 0.9783
-2.1501 -4.3753 -2.4993 0.9783
-1.3405 -4.6879 -2.4996 0.9783
-0.9179 -4.7889 -2.4998 0.9783
-0.4881 -4.8520 -2.5000 0.9783
0.3800 -4.8623 -2.5003 0.9783
0.8113 -4.8095 -2.5005 0.9783
1.6514 -4.5900 -2.5008 0.9783
2.4393 -4.2250 -2.5011 0.9783
2.8058 -3.9913 -2.5012 0.9783
3.1501 -3.7259 -2.5014 0.9783
3.4693 -3.4309 -2.5015 0.9783
3.7611 -3.1086 -2.5016 0.9783
4.0230 -2.7616 -2.5016 0.9783
4.2529 -2.3927 -2.5017 0.9783
4.6099 -1.6007 -2.5018 0.9783
4.7341 -1.1841 -2.5018 0.9783
4.8787 0.1088 -2.5018 0.9783
4.8495 0.5425 -2.5017 0.9783
4.6763 1.3937 -2.5016 0.9783
6.2123 3.8691 -3.7520 0.9676
5.8430 4.4063 -3.7518 0.9676
3.1104 3.3629 -2.3484 0.9796
1.7408 4.2359 -2.3478 0.9796
1.3567 4.3737 -2.3477 0.9796
0.9620 4.4768 -2.3475 0.9796
0.5597 4.5443 -2.3473 0.9796
0.1530 4.5758 -2.3472 0.9796
-1.0611 4.4528 -2.3467 0.9796
-1.8336 4.1935 -2.3464 0.9796
-4.0698 6.0727 -3.7478 0.9677
-3.3877 3.5029 -2.4982 0.9783
-3.6859 3.1873 -2.4982 0.9783
-4.3966 2.1001 -2.4980 0.9783
-4.6992 1.2873 -2.4979 0.9783
-2.6714 0.0000 -1.4261 0.9880
-2.4716 -0.4453 -1.3407 0.9887
-2.4501 -0.6712 -1.3561 0.9885
-2.4292 -1.1603 -1.4371 0.9879
-2.3944 -1.4182 -1.4856 0.9875
-3.7986 -2.7341 -2.4985 0.9790
-3.2540 -3.3646 -2.4988 0.9790
-2.9418 -3.6411 -2.4989 0.9790
-1.0855 -4.5550 -2.4997 0.9790
-0.6758 -4.6338 -2.4999 0.9790
-0.2607 -4.6759 -2.5001 0.9790
0.5725 -4.6487 -2.5004 0.9790
0.9841 -4.5796 -2.5006 0.9790
1.7807 -4.3330 -2.5009 0.9790
2.1594 -4.1575 -2.5010 0.9790
2.8626 -3.7092 -2.5012 0.9790
3.1815 -3.4398 -2.5013 0.9790
3.4752 -3.1431 -2.5014 0.9790
