ply
format ascii 1.0
element vertex 1587
property float32 x
property float32 y
property float32 z
property float32 I
end_header
-5.8992 13.4919 -2.3448 0.9421
-7.0758 12.9118 -2.3445 0.9421
-8.1960 12.2293 -2.3442 0.9421
-11.1326 9.6268 -2.3436 0.9421
-11.9444 8.5971 -2.3434 0.9421
-12.6614 7.4994 -2.3433 0.9421
-13.2780 6.3424 -2.3432 0.9421
-14.0978 -1.2598 -2.4957 0.9441
-12.7748 -6.1020 -2.4963 0.9441
-12.1820 -7.2154 -2.4965 0.9441
-11.4925 -8.2719 -2.4968 0.9441
-10.7118 -9.2629 -2.4970 0.9441
-9.8459 -10.1806 -2.4973 0.9441
-8.9018 -11.0179 -2.4976 0.9441
-4.4993 -13.4387 -2.4989 0.9441
-3.2858 -13.7878 -2.4992 0.9441
-2.0458 -14.0274 -2.4996 0.9440
-0.7893 -14.1558 -2.4999 0.9440
0.4738 -14.1718 -2.5003 0.9440
2.9798 -13.8669 -2.5009 0.9440
5.3926 -13.1221 -2.5015 0.9440
6.5398 -12.5914 -2.5018 0.9440
7.6354 -11.9606 -2.5021 0.9440
8.6705 -11.2347 -2.5023 0.9440
13.1903 -5.2496 -2.5032 0.9440
14.1932 -0.3163 -2.5033 0.9440
12.9312 3.2343 -2.3504 0.9473
11.6147 6.5343 -2.3498 0.9473
10.2701 8.4885 -2.3494 0.9473
7.6599 10.8964 -2.3486 0.9473
5.6051 12.0787 -2.3480 0.9474
2.0264 5.6323 -1.0555 0.9760
3.3738 12.8777 -2.3473 0.9474
2.2139 13.1251 -2.3470 0.9474
-0.1482 13.3060 -2.3464 0.9474
-1.3318 13.2382 -2.3460 0.9474
-2.5044 13.0654 -2.3457 0.9474
-4.7801 12.4113 -2.3452 0.9474
-6.9034 11.3646 -2.3446 0.9474
-7.8868 10.7040 -2.3444 0.9474
-9.6580 9.1345 -2.3440 0.9474
-10.4320 8.2381 -2.3438 0.9474
-11.7261 6.2573 -2.3436 0.9474
-13.0306 5.5254 -2.4957 0.9441
-13.4703 4.3436 -2.4956 0.9441
-13.8033 3.1274 -2.4956 0.9441
-14.0269 1.8864 -2.4956 0.9441
-13.8050 -3.1278 -2.4959 0.9441
-12.4908 -6.6653 -2.4964 0.9441
-10.2891 -9.7314 -2.4972 0.9441
-6.2491 -12.7166 -2.4984 0.9441
-3.8965 -13.6268 -2.4991 0.9441
-0.1579 -14.1779 -2.5001 0.9440
2.3590 -13.9850 -2.5008 0.9440
5.9721 -12.8695 -2.5017 0.9440
7.0946 -12.2883 -2.5019 0.9440
8.1610 -11.6092 -2.5022 0.9440
9.1628 -10.8377 -2.5024 0.9440
10.0919 -9.9800 -2.5026 0.9440
10.9409 -9.0429 -2.5028 0.9440
11.7030 -8.0337 -2.5030 0.9440
13.7727 -3.4448 -2.5033 0.9440
14.0247 -2.2053 -2.5033 0.9440
14.1652 -0.9483 -2.5033 0.9440
13.0628 2.6551 -2.3504 0.9473
12.7739 3.8070 -2.3503 0.9473
12.3835 4.9285 -2.3501 0.9473
11.8948 6.0107 -2.3499 0.9473
11.3116 7.0449 -2.3497 0.9473
9.8813 8.9371 -2.3493 0.9473
8.1382 10.5450 -2.3487 0.9473
7.1665 11.2261 -2.3484 0.9473
2.7966 13.0143 -2.3472 0.9474
1.6269 13.2097 -2.3468 0.9474
-3.0838 12.9401 -2.3456 0.9474
-4.2228 12.6127 -2.3453 0.9474
-6.3907 11.6615 -2.3448 0.9474
-9.2419 9.5561 -2.3441 0.9474
-10.0550 8.6949 -2.3439 0.9474
-10.7883 7.7649 -2.3438 0.9474
-11.9930 5.7286 -2.3435 0.9474
-13.2636 4.9395 -2.4956 0.9441
-13.6504 3.7392 -2.4956 0.9441
-12.8979 -0.0000 -2.4960 0.9488
-12.8471 -1.1480 -2.4961 0.9488
-12.6944 -2.2870 -2.4962 0.9488
-11.6412 -5.5605 -2.4966 0.9488
-10.4726 -7.5378 -2.4970 0.9488
-8.9720 -9.2770 -2.4975 0.9488
-6.2044 -11.3215 -2.4983 0.9488
-5.1727 -11.8302 -2.4986 0.9488
-1.8641 -12.7813 -2.4996 0.9487
0.4317 -12.9125 -2.5002 0.9487
1.5795 -12.8244 -2.5005 0.9487
2.7150 -12.6344 -2.5008 0.9487
3.8292 -12.3440 -2.5011 0.9487
4.9132 -11.9555 -2.5013 0.9487
7.8994 -10.2356 -2.5021 0.9487
8.7798 -9.4926 -2.5023 0.9487
10.3252 -7.7866 -2.5026 0.9487
10.9778 -6.8370 -2.5027 0.9487
11.5432 -5.8330 -2.5028 0.9487
12.3952 -3.6942 -2.5029 0.9487
12.6749 -2.5763 -2.5030 0.9487
11.0705 4.9881 -2.3498 0.9517
10.5818 5.9532 -2.3496 0.9517
8.6306 8.5350 -2.3489 0.9517
7.8359 9.2683 -2.3487 0.9518
2.0173 11.9591 -2.3470 0.9518
-0.1351 12.1243 -2.3464 0.9518
-1.2135 12.0627 -2.3461 0.9518
-2.2821 11.9054 -2.3458 0.9518
-4.3558 11.3096 -2.3453 0.9518
-5.3446 10.8759 -2.3451 0.9518
-6.2908 10.3560 -2.3448 0.9518
-8.8011 8.3240 -2.3443 0.9518
-10.1364 6.6309 -2.3440 0.9518
-10.6858 5.7021 -2.3439 0.9519
-12.7826 1.7191 -2.4959 0.9488
-12.8850 0.5746 -2.4960 0.9488
-12.8853 -0.5746 -2.4960 0.9488
-12.7835 -1.7192 -2.4961 0.9488
-12.2773 -3.9589 -2.4963 0.9488
-10.1269 -7.9971 -2.4971 0.9488
-8.5503 -9.6679 -2.4976 0.9488
-7.6567 -10.3917 -2.4979 0.9488
-6.7021 -11.0332 -2.4982 0.9488
-4.6408 -12.0496 -2.4988 0.9488
-2.4315 -12.6847 -2.4994 0.9487
-1.2930 -12.8524 -2.4997 0.9487
1.0066 -12.8812 -2.5003 0.9487
3.2753 -12.5016 -2.5009 0.9487
4.3755 -12.1619 -2.5012 0.9487
6.4638 -11.1957 -2.5017 0.9487
7.4353 -10.5769 -2.5020 0.9487
8.3479 -9.8739 -2.5022 0.9487
12.2182 -4.2426 -2.5029 0.9487
12.9305 0.2882 -2.5029 0.9487
11.2821 4.4902 -2.3498 0.9517
10.8369 5.4761 -2.3497 0.9517
9.6926 7.3096 -2.3493 0.9517
9.0027 8.1424 -2.3491 0.9517
7.4148 9.6076 -2.3486 0.9518
5.5926 10.7676 -2.3480 0.9518
3.5939 11.5857 -2.3474 0.9518
2.5482 11.8582 -2.3471 0.9518
-0.6750 12.1055 -2.3463 0.9518
-4.8550 11.1037 -2.3452 0.9518
-5.8235 10.6265 -2.3450 0.9518
-6.7455 10.0651 -2.3447 0.9518
-8.4218 8.7082 -2.3444 0.9518
-9.1629 7.9235 -2.3442 0.9518
-9.8312 7.0761 -2.3441 0.9518
-11.6387 5.5593 -2.4960 0.9488
-12.4395 3.4075 -2.4959 0.9488
-12.6933 2.2868 -2.4959 0.9488
-11.8408 0.0000 -2.4963 0.9527
-11.4213 -3.1286 -2.4965 0.9527
-10.6869 -5.1047 -2.4968 0.9527
-10.1908 -6.0361 -2.4970 0.9527
-9.6139 -6.9196 -2.4972 0.9527
-8.9606 -7.7486 -2.4974 0.9527
-6.5971 -9.8435 -2.4982 0.9527
-4.7483 -10.8596 -2.4987 0.9527
-2.7482 -11.5321 -2.4993 0.9527
-0.6601 -11.8393 -2.4998 0.9527
3.5147 -11.3303 -2.5009 0.9527
4.5097 -10.9736 -2.5012 0.9527
7.2505 -9.3948 -2.5018 0.9526
10.0758 -6.2752 -2.5025 0.9526
10.5947 -5.3537 -2.5025 0.9526
11.3766 -3.3906 -2.5027 0.9526
11.7976 -1.3198 -2.5027 0.9526
10.8130 2.7045 -2.3498 0.9555
10.5288 3.6560 -2.3497 0.9555
9.1869 6.3064 -2.3492 0.9555
7.9218 7.8340 -2.3488 0.9555
6.4060 9.1126 -2.3483 0.9555
5.5689 9.6456 -2.3481 0.9555
4.6878 10.1019 -2.3478 0.9555
2.0261 5.6315 -1.2617 0.9758
2.8218 10.7705 -2.3473 0.9555
-0.1240 11.1295 -2.3465 0.9555
-2.0949 10.9288 -2.3459 0.9555
-3.0589 10.6978 -2.3457 0.9555
-3.9986 10.3821 -2.3455 0.9555
-4.9063 9.9840 -2.3452 0.9555
-6.5976 8.9544 -2.3448 0.9556
-7.3679 8.3310 -2.3447 0.9556
-9.3054 6.0873 -2.3442 0.9556
-11.5478 2.6164 -2.4962 0.9527
-11.7349 1.5782 -2.4962 0.9527
-11.8289 0.5274 -2.4962 0.9527
-11.8292 -0.5275 -2.4963 0.9527
-11.5490 -2.6167 -2.4965 0.9527
-10.9033 -4.6234 -2.4967 0.9527
-7.8490 -8.8750 -2.4978 0.9527
-7.0286 -9.5394 -2.4980 0.9527
-4.2600 -11.0610 -2.4988 0.9527
-1.1868 -11.7975 -2.4997 0.9527
3.0063 -11.4751 -2.5008 0.9527
4.9943 -10.7624 -2.5013 0.9527
5.9329 -10.2761 -2.5015 0.9527
6.8246 -9.7081 -2.5018 0.9526
7.6621 -9.0628 -2.5019 0.9526
8.4389 -8.3454 -2.5021 0.9526
9.1488 -7.5616 -2.5023 0.9526
9.7860 -6.7177 -2.5024 0.9526
10.3455 -5.8203 -2.5025 0.9526
11.2142 -3.8940 -2.5026 0.9526
11.7271 -1.8440 -2.5027 0.9526
11.8446 -0.7929 -2.5027 0.9526
11.8679 0.2645 -2.5026 0.9526
10.6815 3.1835 -2.3498 0.9555
10.3552 4.1212 -2.3496 0.9555
9.9466 5.0262 -2.3495 0.9555
6.8059 8.8187 -2.3484 0.9555
5.9934 9.3885 -2.3482 0.9555
5.1334 9.8836 -2.3479 0.9555
3.2989 10.6347 -2.3474 0.9555
1.3608 11.0486 -2.3469 0.9555
0.3719 11.1246 -2.3466 0.9555
-0.6196 11.1123 -2.3463 0.9555
-1.6060 11.0118 -2.3461 0.9555
-3.5323 10.5504 -2.3456 0.9555
-4.4569 10.1931 -2.3453 0.9555
-7.7314 7.9942 -2.3446 0.9556
-8.4117 7.2739 -2.3444 0.9556
-9.0253 6.4960 -2.3443 0.9556
-9.5672 5.6667 -2.3442 0.9556
-11.0963 4.1323 -2.4963 0.9527
-11.6529 2.0994 -2.4962 0.9527
-10.9379 -0.0000 -2.4965 0.9561
-10.5503 -2.8900 -2.4968 0.9561
-10.2517 -3.8178 -2.4969 0.9561
-9.4136 -5.5757 -2.4972 0.9561
-8.8806 -6.3919 -2.4974 0.9561
-8.2771 -7.1575 -2.4976 0.9561
-6.8781 -8.5131 -2.4980 0.9561
-6.0937 -9.0924 -2.4983 0.9561
-4.3859 -10.0308 -2.4988 0.9561
-2.5384 -10.6518 -2.4993 0.9561
-0.6097 -10.9354 -2.4998 0.9561
0.3660 -10.9474 -2.5001 0.9561
2.3017 -10.7113 -2.5006 0.9560
3.2463 -10.4649 -2.5008 0.9560
4.1652 -10.1354 -2.5011 0.9560
5.0512 -9.7253 -2.5013 0.9560
6.6965 -8.6770 -2.5017 0.9560
8.1299 -7.3531 -2.5020 0.9560
8.7526 -6.6006 -2.5021 0.9560
10.5071 -3.1314 -2.5024 0.9560
10.7442 -2.1839 -2.5024 0.9560
10.8959 -1.2189 -2.5024 0.9560
9.9866 2.4978 -2.3496 0.9586
9.7242 3.3766 -2.3495 0.9586
8.9704 5.0466 -2.3492 0.9587
8.4850 5.8246 -2.3490 0.9587
7.9323 6.5562 -2.3488 0.9587
7.3166 7.2356 -2.3487 0.9587
5.9167 8.4166 -2.3482 0.9587
5.1436 8.9090 -2.3480 0.9587
4.3298 9.3305 -2.3477 0.9587
-1.9350 10.0948 -2.3460 0.9587
-4.5320 9.2224 -2.3454 0.9587
-5.3344 8.7817 -2.3452 0.9587
-6.8059 7.6956 -2.3448 0.9587
-7.4634 7.0588 -2.3447 0.9587
-8.0616 6.3662 -2.3446 0.9587
-8.5959 5.6232 -2.3445 0.9587
-10.0701 4.2701 -2.4965 0.9561
-10.6674 2.4169 -2.4965 0.9561
-10.8408 -1.4579 -2.4966 0.9561
-10.4114 -3.3572 -2.4968 0.9561
-10.0718 -4.2708 -2.4970 0.9561
-7.2502 -8.1979 -2.4979 0.9561
-6.4924 -8.8115 -2.4981 0.9561
-5.6829 -9.3553 -2.4984 0.9561
-4.8281 -9.8250 -2.4986 0.9561
-3.9349 -10.2168 -2.4989 0.9561
-2.0615 -10.7549 -2.4994 0.9561
-1.0962 -10.8968 -2.4997 0.9561
-0.1220 -10.9523 -2.4999 0.9561
2.7767 -10.5986 -2.5007 0.9560
3.7094 -10.3104 -2.5009 0.9560
4.6128 -9.9402 -2.5012 0.9560
6.3031 -8.9663 -2.5016 0.9560
8.4497 -6.9838 -2.5021 0.9560
9.0381 -6.2043 -2.5022 0.9560
9.5549 -5.3755 -2.5023 0.9560
9.9957 -4.5038 -2.5023 0.9560
10.3571 -3.5964 -2.5024 0.9560
10.6362 -2.6603 -2.5024 0.9560
10.9393 -0.7323 -2.5024 0.9560
9.8652 2.9402 -2.3495 0.9586
9.1866 4.6422 -2.3493 0.9586
8.2168 6.1965 -2.3489 0.9587
6.9868 7.5540 -2.3485 0.9587
6.2861 8.1451 -2.3483 0.9587
3.9097 9.5136 -2.3476 0.9587
1.2569 10.2052 -2.3469 0.9587
0.3436 10.2755 -2.3466 0.9587
-2.3827 9.9981 -2.3459 0.9587
-4.1169 9.4155 -2.3455 0.9587
-6.4566 7.9914 -2.3449 0.9587
-8.3370 6.0006 -2.3445 0.9587
-10.2502 3.8172 -2.4965 0.9561
-10.7644 1.9393 -2.4965 0.9561
-10.8944 0.9735 -2.4965 0.9561
-9.1674 -4.3789 -2.4972 0.9590
-8.7418 -5.1778 -2.4974 0.9590
-8.2468 -5.9357 -2.4975 0.9590
-7.0648 -7.3050 -2.4979 0.9590
-6.3871 -7.9054 -2.4981 0.9590
-4.8851 -8.9143 -2.4986 0.9590
-3.2278 -9.6410 -2.4991 0.9590
-2.3571 -9.8910 -2.4993 0.9590
-1.4676 -10.0626 -2.4995 0.9590
-0.5662 -10.1542 -2.4998 0.9590
1.2434 -10.0957 -2.5003 0.9590
2.1372 -9.9459 -2.5005 0.9590
3.0143 -9.7171 -2.5007 0.9590
4.6902 -9.0302 -2.5011 0.9590
5.4757 -8.5775 -2.5013 0.9589
8.1268 -6.1287 -2.5019 0.9589
9.0854 -4.5911 -2.5021 0.9589
9.4581 -3.7643 -2.5022 0.9589
9.9759 -2.0277 -2.5022 0.9589
10.1168 -1.1317 -2.5022 0.9589
10.1773 -0.2268 -2.5022 0.9589
10.1568 0.6799 -2.5021 0.9589
9.2726 2.3193 -2.3494 0.9614
8.7136 3.9262 -2.3492 0.9614
8.3291 4.6859 -2.3490 0.9614
7.8785 5.4083 -2.3489 0.9614
6.7937 6.7185 -2.3485 0.9614
6.1683 7.2958 -2.3483 0.9614
5.4939 7.8152 -2.3481 0.9614
4.7761 8.2724 -2.3479 0.9614
2.4202 9.2376 -2.3472 0.9614
1.5882 9.4155 -2.3470 0.9614
-0.1063 9.5460 -2.3465 0.9614
-3.4299 8.9054 -2.3457 0.9615
-4.2085 8.5641 -2.3455 0.9615
-5.6595 7.6811 -2.3451 0.9615
-8.9618 4.7821 -2.4968 0.9590
-9.3516 3.9654 -2.4967 0.9590
-8.9635 -4.7831 -2.4973 0.9590
-7.9745 -6.2974 -2.4976 0.9590
-7.3829 -6.9827 -2.4978 0.9590
-6.7327 -7.6127 -2.4980 0.9590
-6.0289 -8.1825 -2.4982 0.9590
-5.2771 -8.6873 -2.4985 0.9590
-4.4834 -9.1234 -2.4987 0.9590
-1.9143 -9.9867 -2.4994 0.9590
-1.0179 -10.1185 -2.4997 0.9590
0.7924 -10.1406 -2.5002 0.9590
1.6920 -10.0308 -2.5004 0.9590
2.5783 -9.8412 -2.5006 0.9590
4.2831 -9.2298 -2.5010 0.9590
5.0880 -8.8126 -2.5012 0.9590
7.2369 -7.1567 -2.5017 0.9589
8.8717 -4.9911 -2.5021 0.9589
9.2810 -4.1818 -2.5021 0.9589
9.6165 -3.3392 -2.5022 0.9589
10.1571 -0.6799 -2.5022 0.9589
9.1599 2.7299 -2.3494 0.9614
8.1118 5.0521 -2.3490 0.9614
6.4874 7.0141 -2.3484 0.9614
5.8369 7.5630 -2.3482 0.9614
5.1401 8.0518 -2.3480 0.9614
3.6304 8.8339 -2.3476 0.9614
2.8294 9.1211 -2.3474 0.9614
1.1671 9.4764 -2.3469 0.9614
0.3190 9.5417 -2.3467 0.9614
-0.5315 9.5313 -2.3464 0.9614
-1.3776 9.4453 -2.3462 0.9614
-2.2126 9.2844 -2.3460 0.9614
-3.0299 9.0498 -2.3458 0.9615
-3.8230 8.7435 -2.3456 0.9615
-5.9958 7.4211 -2.3451 0.9615
-7.2158 6.2397 -2.3448 0.9615
-8.5749 5.0790 -2.4497 0.9598
-9.5189 3.5449 -2.4967 0.9590
-9.7965 2.6835 -2.4967 0.9590
-9.9964 1.8010 -2.4967 0.9590
-9.4759 0.0000 -2.4969 0.9616
-9.4385 -0.8434 -2.4970 0.9616
-9.1400 -2.5037 -2.4971 0.9616
-8.8813 -3.3074 -2.4972 0.9616
-8.1550 -4.8302 -2.4975 0.9616
-7.6932 -5.5372 -2.4977 0.9615
-7.1703 -6.2004 -2.4978 0.9615
-5.9583 -7.3746 -2.4982 0.9615
-1.3690 -9.3866 -2.4995 0.9615
0.3170 -9.4823 -2.5000 0.9615
1.9936 -9.2775 -2.5004 0.9615
2.8117 -9.0640 -2.5006 0.9615
6.4461 -6.9694 -2.5015 0.9615
7.0412 -6.3683 -2.5016 0.9615
7.5804 -5.7166 -2.5018 0.9615
8.0594 -5.0195 -2.5019 0.9615
8.8222 -3.5112 -2.5020 0.9615
9.4739 0.6342 -2.5020 0.9615
14.0704 2.2124 -3.7531 0.9428
8.1278 3.6622 -2.3490 0.9638
7.7692 4.3708 -2.3489 0.9638
7.3489 5.0447 -2.3488 0.9638
5.7537 6.8055 -2.3483 0.9638
5.1247 7.2900 -2.3481 0.9638
2.0256 5.6304 -1.5767 0.9756
-2.4477 8.5600 -2.3460 0.9638
-3.9260 7.9892 -2.3456 0.9638
-6.4657 6.1152 -2.3450 0.9639
-7.4973 4.9045 -2.3607 0.9636
-8.3604 4.4612 -2.4970 0.9616
-8.7241 3.6993 -2.4969 0.9616
-9.3912 1.2630 -2.4969 0.9616
-9.3917 -1.2630 -2.4970 0.9616
-9.0196 -2.9085 -2.4972 0.9616
-8.7253 -3.6998 -2.4973 0.9616
-8.3618 -4.4620 -2.4974 0.9616
-6.8873 -6.5140 -2.4979 0.9615
-5.6241 -7.6331 -2.4983 0.9615
-4.9228 -8.1040 -2.4985 0.9615
-2.6075 -9.1191 -2.4992 0.9615
-1.7857 -9.3159 -2.4994 0.9615
-0.9495 -9.4387 -2.4997 0.9615
-0.1057 -9.4866 -2.4999 0.9615
1.5783 -9.3567 -2.5003 0.9615
4.7460 -8.2203 -2.5011 0.9615
5.4591 -7.7657 -2.5013 0.9615
6.1290 -7.2495 -2.5014 0.9615
6.7503 -6.6755 -2.5016 0.9615
7.3180 -6.0485 -2.5017 0.9615
7.8277 -5.3734 -2.5018 0.9615
8.2752 -4.6555 -2.5019 0.9615
8.9699 -3.1147 -2.5020 0.9615
9.2116 -2.3040 -2.5020 0.9615
9.3801 -1.4750 -2.5020 0.9615
9.4361 1.0556 -2.5019 0.9615
8.5440 2.5464 -2.3492 0.9638
8.2831 3.2966 -2.3491 0.9638
7.9564 4.0205 -2.3490 0.9638
7.5665 4.7124 -2.3488 0.9638
7.1166 5.3669 -2.3487 0.9638
6.6102 5.9786 -2.3485 0.9638
5.4446 7.0548 -2.3482 0.9638
4.7947 7.5107 -2.3480 0.9638
3.3864 8.2404 -2.3475 0.9638
2.6393 8.5083 -2.3473 0.9638
1.8714 8.7087 -2.3471 0.9638
-4.2778 7.8061 -2.3455 0.9638
-4.9553 7.3938 -2.3454 0.9639
-5.5934 6.9230 -2.3452 0.9639
-6.1870 6.3973 -2.3451 0.9639
-6.7315 5.8210 -2.3450 0.9639
-7.2226 5.1985 -2.3449 0.9639
-8.5507 4.0843 -2.4970 0.9616
-8.8801 3.3070 -2.4969 0.9616
-9.3256 1.6801 -2.4969 0.9616
-5.0319 -0.0000 -1.4157 0.9793
-3.9277 -0.3510 -1.1095 0.9837
-8.3181 -3.0977 -2.4974 0.9638
-8.0097 -3.8259 -2.4975 0.9638
-7.6378 -4.5239 -2.4976 0.9638
-6.7155 -5.8072 -2.4979 0.9638
-5.5803 -6.9068 -2.4983 0.9638
-4.9438 -7.3767 -2.4985 0.9638
-2.8200 -8.4228 -2.4991 0.9638
-0.4946 -8.8709 -2.4997 0.9638
1.8671 -8.6885 -2.5004 0.9637
3.3785 -8.2211 -2.5008 0.9637
4.0971 -7.8883 -2.5009 0.9637
4.7833 -7.4928 -2.5011 0.9637
5.4315 -7.0378 -2.5012 0.9637
6.0367 -6.5268 -2.5014 0.9637
6.5939 -5.9638 -2.5015 0.9637
7.9361 -4.0103 -2.5018 0.9637
8.2617 -3.2881 -2.5018 0.9637
8.5217 -2.5397 -2.5019 0.9637
8.8721 0.5939 -2.5018 0.9637
12.9395 3.2363 -3.7528 0.9461
7.2757 4.0933 -2.3488 0.9659
6.8821 4.7243 -2.3487 0.9659
6.4339 5.3178 -2.3485 0.9659
5.3884 6.3734 -2.3482 0.9659
4.7993 6.8272 -2.3480 0.9659
3.5123 7.5687 -2.3476 0.9659
2.0107 5.5887 -1.6711 0.9756
1.3875 8.2256 -2.3470 0.9659
0.6498 8.3157 -2.3468 0.9659
-0.0929 8.3398 -2.3466 0.9659
-1.5699 8.1899 -2.3462 0.9659
-2.9966 7.7805 -2.3459 0.9659
-4.3281 7.1250 -2.3455 0.9660
-4.9447 6.7111 -2.3454 0.9660
-6.5411 5.1655 -2.3450 0.9660
-8.8662 0.3954 -2.4970 0.9638
-4.2110 -0.1878 -1.1860 0.9826
-3.7659 -0.8533 -1.0864 0.9841
-7.8316 -4.1790 -2.4975 0.9638
-6.9673 -5.5021 -2.4978 0.9638
-5.8822 -6.6512 -2.4982 0.9638
-5.2673 -7.1488 -2.4984 0.9638
-4.6105 -7.5899 -2.4986 0.9638
-3.9170 -7.9708 -2.4988 0.9638
-2.4421 -8.5404 -2.4992 0.9638
-1.6724 -8.7246 -2.4994 0.9638
-0.8893 -8.8396 -2.4996 0.9638
-0.0990 -8.8845 -2.4999 0.9638
0.6922 -8.8587 -2.5001 0.9638
1.4781 -8.7627 -2.5003 0.9637
2.2523 -8.5971 -2.5005 0.9637
3.7415 -8.0627 -2.5008 0.9637
4.4446 -7.6982 -2.5010 0.9637
5.7398 -6.7890 -2.5013 0.9637
6.3216 -6.2515 -2.5014 0.9637
8.6264 -2.1576 -2.5019 0.9637
8.7842 -1.3812 -2.5019 0.9637
8.8367 0.9885 -2.5018 0.9637
7.7570 3.0872 -2.3490 0.9659
6.6647 5.0261 -2.3486 0.9659
5.0989 6.6068 -2.3481 0.9659
4.4903 7.0339 -2.3479 0.9659
2.2771 5.5409 -1.6855 0.9754
2.4718 7.9683 -2.3473 0.9659
1.7526 8.1560 -2.3471 0.9659
-1.2035 8.2520 -2.3463 0.9659
-1.9331 8.1115 -2.3461 0.9659
-3.3401 7.6391 -2.3458 0.9659
-4.6410 6.9249 -2.3455 0.9660
-5.7946 5.9916 -2.3452 0.9660
-6.7646 4.8688 -2.3450 0.9660
-7.6365 4.5231 -2.4972 0.9638
-8.3171 3.0973 -2.4971 0.9638
-8.5596 2.3447 -2.4970 0.9638
-8.7343 1.5735 -2.4970 0.9638
-3.9676 -0.0000 -1.1878 0.9836
-3.4798 -0.6269 -1.0586 0.9853
-3.4925 -0.9567 -1.0841 0.9850
-7.8177 -2.9113 -2.4975 0.9658
-6.7718 -4.8740 -2.4979 0.9658
-5.8010 -5.9982 -2.4982 0.9658
-5.2445 -6.4912 -2.4984 0.9658
-4.6463 -6.9327 -2.4985 0.9658
-3.3440 -7.6479 -2.4989 0.9657
-1.9353 -8.1209 -2.4993 0.9657
-0.4648 -8.3367 -2.4997 0.9657
1.7546 -8.1653 -2.5003 0.9657
2.4746 -7.9773 -2.5005 0.9657
4.4951 -7.0415 -2.5010 0.9657
5.1043 -6.6138 -2.5011 0.9657
7.0927 -4.4174 -2.5016 0.9657
7.4579 -3.7687 -2.5016 0.9657
8.1889 -1.6645 -2.5017 0.9657
8.3045 -0.9290 -2.5017 0.9657
8.3542 -0.1862 -2.5017 0.9657
8.2545 1.2979 -2.5016 0.9657
7.1530 3.2230 -2.3488 0.9678
6.8374 3.8466 -2.3487 0.9678
6.0464 4.9974 -2.3484 0.9678
5.0638 5.9895 -2.3481 0.9678
3.9210 6.7915 -2.3478 0.9678
3.3008 7.1129 -2.3476 0.9678
1.9943 5.5432 -1.7637 0.9757
1.9870 7.5842 -2.3472 0.9678
1.3040 7.7304 -2.3470 0.9678
-0.0873 7.8378 -2.3466 0.9678
-2.1544 7.5345 -2.3461 0.9678
-4.6472 6.3073 -2.3455 0.9678
-5.6913 5.3829 -2.3453 0.9678
-7.9387 2.5599 -2.4972 0.9658
-8.2667 1.1118 -2.4972 0.9658
-4.8505 0.2163 -1.4536 0.9799
-3.4642 -0.7849 -1.0634 0.9853
-7.6804 -3.2568 -2.4975 0.9658
-6.5481 -5.1710 -2.4979 0.9658
-4.9503 -6.7186 -2.4984 0.9658
-0.0930 -8.3495 -2.4998 0.9657
0.6506 -8.3253 -2.5000 0.9657
2.1167 -8.0793 -2.5004 0.9657
5.3940 -6.3800 -2.5012 0.9657
6.4403 -5.3230 -2.5014 0.9657
6.8888 -4.7289 -2.5015 0.9657
7.2825 -4.0971 -2.5016 0.9657
8.2549 -1.2980 -2.5017 0.9657
8.3042 0.9290 -2.5016 0.9657
12.2834 2.4967 -3.7526 0.9490
7.0021 3.5383 -2.3487 0.9678
6.2632 4.7233 -2.3485 0.9678
4.7918 6.2089 -2.3480 0.9678
4.2199 6.6103 -2.3479 0.9678
2.2608 5.5012 -1.7806 0.9755
2.3230 7.4885 -2.3473 0.9678
0.9583 7.7804 -2.3469 0.9678
0.2619 7.8342 -2.3467 0.9678
-0.4364 7.8258 -2.3465 0.9678
-1.8167 7.6233 -2.3462 0.9678
-3.7654 6.8711 -2.3457 0.9678
-4.3618 6.5083 -2.3456 0.9678
-7.1771 4.2510 -2.4973 0.9658
-7.5268 3.5953 -2.4972 0.9658
-7.8168 2.9110 -2.4972 0.9658
-8.0448 2.2037 -2.4972 0.9658
-3.3867 -0.3026 -1.0798 0.9858
-7.3699 -2.7446 -2.4976 0.9675
-7.0967 -3.3898 -2.4977 0.9675
-6.7671 -4.0082 -2.4978 0.9675
-5.9499 -5.1451 -2.4981 0.9675
-5.4687 -5.6546 -2.4983 0.9675
-2.4983 -7.4621 -2.4991 0.9675
-1.1358 -7.7880 -2.4995 0.9675
-0.4382 -7.8588 -2.4997 0.9675
2.3327 -7.5198 -2.5004 0.9675
5.3476 -5.7817 -2.5012 0.9675
6.2885 -4.7423 -2.5014 0.9675
7.0301 -3.5525 -2.5015 0.9675
7.3185 -2.9127 -2.5015 0.9675
7.7191 -1.5690 -2.5016 0.9675
7.8281 -0.8757 -2.5016 0.9675
7.8749 -0.1755 -2.5016 0.9675
7.8591 0.5261 -2.5015 0.9675
11.4622 2.8669 -3.7524 0.9516
6.4452 3.6260 -2.3486 0.9694
4.7734 5.6461 -2.3480 0.9694
0.5757 7.3672 -2.3468 0.9695
-0.7396 7.3514 -2.3465 0.9695
-1.3908 7.2559 -2.3463 0.9695
-2.0310 7.1028 -2.3462 0.9695
-4.3810 5.9460 -2.3456 0.9695
-5.3654 5.0745 -2.3454 0.9695
-9.8721 6.4580 -3.7465 0.9517
-6.9378 3.7021 -2.4974 0.9675
-7.4840 2.4133 -2.4973 0.9675
-7.6690 1.7376 -2.4973 0.9675
-3.4557 -0.1541 -1.0986 0.9856
-3.2591 -0.7384 -1.0613 0.9861
-3.2827 -1.0586 -1.0954 0.9856
-7.2405 -3.0702 -2.4977 0.9675
-6.9388 -3.7027 -2.4978 0.9675
-6.1730 -4.8748 -2.4980 0.9675
-5.7150 -5.4052 -2.4982 0.9675
-4.6667 -6.3337 -2.4985 0.9675
-4.0847 -6.7244 -2.4987 0.9675
-3.4702 -7.0617 -2.4989 0.9675
-2.1635 -7.5663 -2.4992 0.9675
-0.7878 -7.8312 -2.4996 0.9675
-0.0877 -7.8708 -2.4998 0.9675
1.9953 -7.6160 -2.5004 0.9675
2.6654 -7.4087 -2.5005 0.9675
4.5289 -6.4424 -2.5010 0.9675
6.0709 -5.0177 -2.5013 0.9675
6.8648 -3.8620 -2.5015 0.9675
7.1814 -3.2358 -2.5015 0.9675
7.4410 -2.5838 -2.5016 0.9675
7.6415 -1.9113 -2.5016 0.9675
7.7813 -1.2236 -2.5016 0.9675
7.8593 -0.5261 -2.5016 0.9675
7.8278 0.8757 -2.5015 0.9675
11.3230 3.3746 -3.7523 0.9516
6.8715 2.7348 -2.3488 0.9694
6.6005 3.3354 -2.3487 0.9694
5.9039 4.4524 -2.3484 0.9694
4.5170 5.8529 -2.3480 0.9694
3.4072 6.5601 -2.3476 0.9695
0.2469 7.3852 -2.3467 0.9695
-0.4114 7.3773 -2.3466 0.9695
-1.7126 7.1865 -2.3462 0.9695
-2.3453 7.0051 -2.3461 0.9695
-2.9593 6.7681 -2.3459 0.9695
-3.5497 6.4774 -2.3458 0.9695
-7.3691 2.7443 -2.4973 0.9675
-3.6184 -0.0000 -1.2157 0.9848
-6.7083 -3.2043 -2.4978 0.9691
-5.1694 -5.3451 -2.4983 0.9691
-4.6734 -5.7843 -2.4985 0.9691
-4.1403 -6.1778 -2.4986 0.9691
-2.3615 -7.0536 -2.4992 0.9691
-1.7245 -7.2362 -2.4993 0.9691
-1.0736 -7.3616 -2.4995 0.9691
-0.4142 -7.4284 -2.4997 0.9691
0.2486 -7.4364 -2.4999 0.9691
2.2049 -7.1079 -2.5004 0.9691
2.8290 -6.8838 -2.5005 0.9691
4.5479 -5.8929 -2.5010 0.9691
5.0546 -5.4649 -2.5011 0.9691
5.5211 -4.9936 -2.5012 0.9691
5.9439 -4.4825 -2.5013 0.9691
6.3194 -3.9358 -2.5013 0.9691
7.1351 -2.1265 -2.5015 0.9691
7.3991 -0.8277 -2.5015 0.9691
7.4285 0.4973 -2.5014 0.9691
7.3546 1.1565 -2.5014 0.9691
7.2223 1.8064 -2.5013 0.9691
6.3732 2.8716 -2.3486 0.9709
5.7626 3.9558 -2.3484 0.9709
5.3873 4.4527 -2.3483 0.9709
4.5119 5.3367 -2.3480 0.9709
3.4938 6.0514 -2.3477 0.9709
1.9850 5.5173 -1.9700 0.9756
1.1619 6.8882 -2.3470 0.9710
0.5442 6.9638 -2.3468 0.9710
-0.0778 6.9841 -2.3467 0.9710
-0.6991 6.9490 -2.3465 0.9710
-1.3147 6.8587 -2.3464 0.9710
-1.9198 6.7140 -2.3462 0.9710
-2.5096 6.5161 -2.3461 0.9710
-3.0794 6.2665 -2.3459 0.9710
-4.1413 5.6206 -2.3457 0.9710
-5.0718 4.7968 -2.3454 0.9710
-6.2208 4.0695 -2.4976 0.9691
-7.2494 1.6425 -2.4974 0.9691
-7.3669 0.9907 -2.4974 0.9691
-3.2675 -0.1457 -1.0989 0.9863
-3.1639 -0.4255 -1.0726 0.9866
-3.1355 -0.7104 -1.0802 0.9865
-6.8443 -2.9022 -2.4978 0.9691
-6.2218 -4.0701 -2.4980 0.9691
-4.9263 -5.5703 -2.4984 0.9691
-4.4112 -5.9870 -2.4986 0.9691
-1.4005 -7.3062 -2.4994 0.9691
-0.7447 -7.4023 -2.4996 0.9691
0.5797 -7.4181 -2.5000 0.9691
1.8860 -7.1988 -2.5003 0.9691
2.5194 -7.0028 -2.5005 0.9691
3.1329 -6.7512 -2.5006 0.9691
3.7216 -6.4459 -2.5008 0.9691
4.2808 -6.0895 -2.5009 0.9691
5.2931 -5.2345 -2.5011 0.9691
6.1378 -4.2133 -2.5013 0.9691
7.0333 -2.4422 -2.5015 0.9691
7.4433 0.1659 -2.5014 0.9691
6.4949 2.5849 -2.3487 0.9709
6.2388 3.1526 -2.3486 0.9709
5.9332 3.6952 -2.3485 0.9709
5.5805 4.2084 -2.3483 0.9709
4.7453 5.1306 -2.3481 0.9709
3.2206 6.2008 -2.3476 0.9709
2.2476 5.4692 -1.9867 0.9754
2.0699 6.6726 -2.3473 0.9710
1.4677 6.8299 -2.3471 0.9710
0.2334 6.9809 -2.3468 0.9710
-0.3888 6.9734 -2.3466 0.9710
-1.0079 6.9107 -2.3464 0.9710
-1.6189 6.7931 -2.3463 0.9710
-2.2169 6.6216 -2.3461 0.9710
-4.8531 5.0181 -2.3455 0.9710
-8.4354 7.2944 -3.7468 0.9540
-9.0508 6.5144 -3.7467 0.9540
-6.3958 3.7883 -2.4975 0.9691
-6.7075 3.2039 -2.4975 0.9691
-6.9659 2.5941 -2.4974 0.9691
-7.1691 1.9638 -2.4974 0.9691
-7.4037 0.6616 -2.4974 0.9691
-3.0442 -0.5484 -1.0968 0.9870
-3.0229 -0.8281 -1.1114 0.9868
-3.0314 -1.1289 -1.1470 0.9864
-6.3566 -3.0363 -2.4979 0.9705
-6.0614 -3.5902 -2.4980 0.9705
-5.7180 -4.1156 -2.4981 0.9705
-4.4283 -5.4810 -2.4985 0.9705
-3.9231 -5.8537 -2.4987 0.9705
-2.2376 -6.6835 -2.4992 0.9705
-1.0173 -6.9753 -2.4995 0.9705
4.7892 -5.1780 -2.5010 0.9705
5.6318 -4.2471 -2.5012 0.9705
5.9876 -3.7291 -2.5012 0.9705
6.2959 -3.1814 -2.5013 0.9705
6.5542 -2.6085 -2.5013 0.9705
6.9130 -1.4051 -2.5014 0.9705
7.0106 -0.7843 -2.5014 0.9705
7.0384 0.4712 -2.5013 0.9705
6.9684 1.0957 -2.5013 0.9705
6.8431 1.7115 -2.5012 0.9705
9.9958 3.4709 -3.7520 0.9561
5.4600 3.7481 -2.3483 0.9723
5.1045 4.2190 -2.3482 0.9723
4.7085 4.6563 -2.3481 0.9723
3.8079 5.4168 -2.3478 0.9723
1.6776 6.4034 -2.3472 0.9723
1.1009 6.5268 -2.3470 0.9723
0.5156 6.5985 -2.3469 0.9723
-1.2457 6.4989 -2.3464 0.9723
-1.8191 6.3619 -2.3462 0.9723
-7.6774 7.2612 -3.7470 0.9561
-8.2929 6.5489 -3.7469 0.9561
-5.8947 3.8561 -2.4977 0.9705
-6.2143 3.3161 -2.4976 0.9705
-6.8694 1.5564 -2.4975 0.9705
-6.9806 0.9388 -2.4975 0.9705
-3.1623 -0.1410 -1.1224 0.9867
-3.0241 -0.6852 -1.0995 0.9869
-3.0191 -0.9735 -1.1248 0.9866
-6.4854 -2.7501 -2.4978 0.9705
-6.2151 -3.3165 -2.4979 0.9705
-5.8955 -3.8567 -2.4981 0.9705
-5.1189 -4.8414 -2.4983 0.9705
-4.1798 -5.6729 -2.4986 0.9705
-3.1082 -6.3250 -2.4989 0.9705
-1.9377 -6.7768 -2.4993 0.9705
-0.7056 -7.0139 -2.4996 0.9705
0.5493 -7.0289 -2.4999 0.9705
1.7870 -6.8210 -2.5003 0.9705
2.3872 -6.6353 -2.5004 0.9705
2.9685 -6.3968 -2.5006 0.9705
3.5262 -6.1076 -2.5007 0.9705
4.0560 -5.7698 -2.5008 0.9705
5.0152 -4.9596 -2.5010 0.9705
5.4369 -4.4937 -2.5011 0.9705
5.8155 -3.9921 -2.5012 0.9705
6.6640 -2.3140 -2.5013 0.9705
6.8435 -1.7117 -2.5014 0.9705
7.0385 -0.4712 -2.5014 0.9705
7.0525 0.1571 -2.5013 0.9705
6.9126 1.4050 -2.5012 0.9705
9.8310 3.9127 -3.7519 0.9561
5.6217 3.5012 -2.3484 0.9723
5.2875 3.9875 -2.3483 0.9723
4.9114 4.4421 -2.3481 0.9723
4.4963 4.8613 -2.3480 0.9723
3.5627 5.5808 -2.3477 0.9723
3.0516 5.8754 -2.3476 0.9723
-7.9931 6.9119 -3.7470 0.9561
-5.7171 4.1149 -2.4977 0.9705
-6.0605 3.5896 -2.4976 0.9705
-6.3558 3.0359 -2.4976 0.9705
-6.6007 2.4581 -2.4976 0.9705
-6.7932 1.8609 -2.4975 0.9705
-2.9938 -0.2675 -1.1224 0.9872
-2.9238 -1.0888 -1.1650 0.9868
-6.0363 -2.8833 -2.4980 0.9718
-5.7560 -3.4093 -2.4981 0.9718
-5.4299 -3.9082 -2.4982 0.9718
-4.6514 -4.8095 -2.4984 0.9718
-4.2051 -5.2047 -2.4986 0.9718
-2.6811 -6.1319 -2.4990 0.9718
-0.3727 -6.6838 -2.4997 0.9718
0.2237 -6.6909 -2.4998 0.9718
0.8184 -6.6448 -2.5000 0.9718
1.4067 -6.5460 -2.5001 0.9718
3.0866 -5.9428 -2.5006 0.9718
3.6035 -5.6447 -2.5007 0.9718
4.5476 -4.9168 -2.5009 0.9718
5.6856 -3.5410 -2.5011 0.9718
6.4194 -1.9132 -2.5013 0.9718
6.6967 -0.1492 -2.5012 0.9718
6.6833 0.4474 -2.5012 0.9718
6.6169 1.0404 -2.5012 0.9718
6.4978 1.6252 -2.5011 0.9718
9.4915 3.2958 -3.7518 0.9580
9.1602 4.1274 -3.7517 0.9580
5.4811 3.0836 -2.3484 0.9735
5.1846 3.5590 -2.3483 0.9735
4.4710 4.4215 -2.3480 0.9735
4.0595 4.8016 -2.3479 0.9735
3.6158 5.1436 -2.3478 0.9735
3.1435 5.4447 -2.3476 0.9735
2.6462 5.7025 -2.3475 0.9735
1.9755 5.4911 -2.1791 0.9754
1.5930 6.0805 -2.3472 0.9735
1.0454 6.1978 -2.3470 0.9735
-0.6290 6.2526 -2.3466 0.9735
-1.1829 6.1714 -2.3464 0.9735
-2.7709 5.6386 -2.3460 0.9735
-3.7264 5.0575 -2.3458 0.9735
-5.5977 3.6619 -2.4978 0.9718
-5.9013 3.1490 -2.4977 0.9718
-6.5233 1.4780 -2.4976 0.9718
-6.6290 0.8915 -2.4976 0.9718
-3.7910 0.1690 -1.4170 0.9839
-2.9640 -0.3986 -1.1167 0.9873
-2.9258 -0.6629 -1.1202 0.9873
-5.5985 -3.6624 -2.4981 0.9718
-4.8609 -4.5974 -2.4984 0.9718
-2.9515 -6.0062 -2.4989 0.9718
-2.4054 -6.2454 -2.4991 0.9718
-1.2601 -6.5738 -2.4994 0.9718
-0.6700 -6.6603 -2.4996 0.9718
-0.0746 -6.6939 -2.4998 0.9718
2.2668 -6.3006 -2.5004 0.9718
3.8515 -5.4787 -2.5007 0.9718
4.3240 -5.1144 -2.5009 0.9718
4.7622 -4.7095 -2.5010 0.9718
5.1627 -4.2670 -2.5010 0.9718
6.6567 0.7446 -2.5012 0.9718
6.5639 1.3342 -2.5011 0.9718
9.3351 3.7153 -3.7518 0.9580
5.6131 2.8364 -2.3484 0.9735
5.0208 3.7864 -2.3482 0.9735
3.8415 4.9775 -2.3478 0.9735
1.3205 6.1453 -2.3471 0.9735
0.7683 6.2380 -2.3469 0.9735
0.2100 6.2812 -2.3468 0.9735
-1.4567 6.1124 -2.3464 0.9735
-3.9479 4.8864 -2.3457 0.9735
-5.7552 3.4088 -2.4977 0.9718
-6.0356 2.8830 -2.4977 0.9718
-6.5827 1.1859 -2.4976 0.9718
-3.2641 0.0000 -1.2810 0.9861
-2.8518 -0.5138 -1.1373 0.9876
-5.1663 -3.7185 -2.4982 0.9730
-4.8151 -4.1638 -2.4984 0.9730
-4.4256 -4.5760 -2.4985 0.9730
-4.0010 -4.9521 -2.4986 0.9730
-3.5445 -5.2888 -2.4988 0.9730
-1.4763 -6.1948 -2.4994 0.9730
-0.9191 -6.3020 -2.4995 0.9730
-0.3546 -6.3592 -2.4997 0.9730
0.2128 -6.3658 -2.4998 0.9730
0.7786 -6.3220 -2.5000 0.9730
1.3383 -6.2280 -2.5001 0.9730
1.8874 -6.0845 -2.5002 0.9730
2.4216 -5.8927 -2.5004 0.9730
3.4284 -5.3705 -2.5006 0.9730
3.8930 -5.0443 -2.5007 0.9730
4.7260 -4.2744 -2.5009 0.9730
5.6878 -2.8742 -2.5011 0.9730
6.1074 -1.8202 -2.5012 0.9730
6.2452 -1.2694 -2.5012 0.9730
6.3585 0.4257 -2.5011 0.9730
6.2953 0.9899 -2.5011 0.9730
6.1821 1.5463 -2.5010 0.9730
4.6116 3.8116 -2.3481 0.9746
4.2538 4.2067 -2.3480 0.9746
3.8623 4.5684 -2.3479 0.9746
2.9908 5.1802 -2.3476 0.9746
2.5177 5.4255 -2.3475 0.9746
1.9708 5.4778 -2.2848 0.9753
1.5157 5.7852 -2.3472 0.9746
0.9947 5.8968 -2.3470 0.9746
0.4658 5.9616 -2.3469 0.9746
-0.0666 5.9790 -2.3467 0.9746
-0.5985 5.9490 -2.3466 0.9746
-2.1485 5.5786 -2.3462 0.9746
-3.1033 5.1087 -2.3460 0.9746
-4.9949 3.9445 -2.4979 0.9730
-5.6149 2.9962 -2.4978 0.9730
-5.8592 2.4845 -2.4978 0.9730
-6.0570 1.9531 -2.4977 0.9730
-6.3073 0.8482 -2.4977 0.9730
-3.0071 -0.1341 -1.1814 0.9871
-2.8734 -0.3864 -1.1379 0.9876
-2.8717 -1.2177 -1.2242 0.9867
-5.3267 -3.4846 -2.4982 0.9730
-4.6249 -4.3743 -2.4984 0.9730
-4.2175 -4.7688 -2.4985 0.9730
-2.8082 -5.7145 -2.4990 0.9730
-1.7507 -6.1227 -2.4993 0.9730
0.4962 -6.3503 -2.4999 0.9730
1.0595 -6.2813 -2.5000 0.9730
1.6145 -6.1624 -2.5002 0.9730
2.1567 -5.9946 -2.5003 0.9730
4.1139 -4.8659 -2.5008 0.9730
4.5308 -4.4806 -2.5009 0.9730
5.2538 -3.6065 -2.5010 0.9730
6.3587 -0.4256 -2.5012 0.9730
6.3712 0.1420 -2.5011 0.9730
6.3332 0.7085 -2.5011 0.9730
4.7769 3.6024 -2.3481 0.9746
3.6549 4.7357 -2.3478 0.9746
2.7570 5.3081 -2.3475 0.9746
2.2314 5.4297 -2.3039 0.9751
1.7707 5.7081 -2.3456 0.9746
1.2564 5.8468 -2.3471 0.9746
-0.8629 5.9162 -2.3465 0.9746
-1.3859 5.8156 -2.3464 0.9746
-1.8979 5.6689 -2.3463 0.9746
-2.8727 5.2420 -2.3460 0.9746
-3.3277 4.9653 -2.3459 0.9746
-6.6377 6.8633 -3.7473 0.9598
-7.2220 6.2451 -3.7472 0.9598
-5.1656 3.7180 -2.4979 0.9730
-5.4759 3.2433 -2.4978 0.9730
-5.7427 2.7431 -2.4978 0.9730
-6.1379 1.6813 -2.4977 0.9730
-4.1297 0.3690 -1.6273 0.9823
-2.7842 -1.0369 -1.2234 0.9872
-4.9242 -3.5442 -2.4983 0.9741
-4.5894 -3.9686 -2.4984 0.9741
-4.2181 -4.3615 -2.4985 0.9741
-3.3783 -5.0409 -2.4988 0.9741
-2.4313 -5.5606 -2.4991 0.9741
-1.9269 -5.7553 -2.4992 0.9741
0.7421 -6.0255 -2.4999 0.9741
1.2755 -5.9359 -2.5001 0.9741
2.3080 -5.6163 -2.5003 0.9741
2.7989 -5.3888 -2.5005 0.9741
3.2675 -5.1185 -2.5006 0.9741
3.7103 -4.8076 -2.5007 0.9741
5.1555 -3.2109 -2.5010 0.9741
5.4209 -2.7393 -2.5010 0.9741
5.6433 -2.2460 -2.5011 0.9741
5.8208 -1.7348 -2.5011 0.9741
5.9521 -1.2098 -2.5011 0.9741
6.0362 -0.6753 -2.5011 0.9741
6.0723 -0.1353 -2.5011 0.9741
5.9999 0.9434 -2.5010 0.9741
5.8920 1.4737 -2.5010 0.9741
7.9398 4.4668 -3.7514 0.9614
4.3952 3.6328 -2.3480 0.9756
4.0543 4.0093 -2.3479 0.9756
3.2788 4.6642 -2.3477 0.9756
1.4446 5.5139 -2.3472 0.9756
-0.0635 5.6987 -2.3467 0.9756
-0.5704 5.6701 -2.3466 0.9756
-1.0727 5.5965 -2.3465 0.9757
-1.5665 5.4785 -2.3464 0.9757
-2.0478 5.3171 -2.3462 0.9757
-2.5128 5.1134 -2.3461 0.9757
-3.3793 4.5865 -2.3459 0.9757
-6.6116 6.2532 -3.7474 0.9614
-4.7608 3.7596 -2.4980 0.9741
-5.0764 3.3208 -2.4979 0.9741
-5.3517 2.8558 -2.4979 0.9741
-5.7731 1.8616 -2.4978 0.9741
-2.9337 -0.1308 -1.2092 0.9874
-2.7946 -0.3759 -1.1611 0.9879
-2.8016 -1.1880 -1.2531 0.9869
-5.3523 -2.8561 -2.4981 0.9741
-3.1505 -5.1865 -2.4989 0.9741
-2.6765 -5.4466 -2.4990 0.9741
-0.6076 -6.0397 -2.4996 0.9741
-0.0676 -6.0701 -2.4997 0.9741
0.4730 -6.0524 -2.4999 0.9741
1.0098 -5.9866 -2.5000 0.9741
2.0555 -5.7134 -2.5003 0.9741
3.9209 -4.6376 -2.5007 0.9741
4.6813 -3.8692 -2.5009 0.9741
5.2934 -2.9780 -2.5010 0.9741
5.7377 -1.9924 -2.5011 0.9741
5.8923 -1.4738 -2.5011 0.9741
6.0001 -0.9435 -2.5011 0.9741
6.0723 0.1353 -2.5011 0.9741
5.9519 1.2098 -2.5010 0.9741
5.8204 1.7347 -2.5009 0.9741
8.1311 4.1088 -3.7514 0.9614
4.8405 3.0147 -2.3482 0.9756
4.2289 3.8248 -2.3480 0.9756
3.8715 4.1859 -2.3479 0.9756
3.4834 4.5136 -2.3478 0.9756
2.6277 5.0591 -2.3475 0.9756
1.6888 5.4443 -2.3472 0.9756
1.1975 5.5726 -2.3471 0.9756
0.6967 5.6568 -2.3470 0.9756
-0.3173 5.6900 -2.3467 0.9756
-0.8224 5.6388 -2.3465 0.9757
-1.3209 5.5430 -2.3464 0.9757
-2.2826 5.2204 -2.3462 0.9757
-2.7380 4.9963 -2.3461 0.9757
-3.1717 4.7326 -2.3460 0.9757
-6.8835 5.9524 -3.7473 0.9614
-4.9235 3.5437 -2.4979 0.9741
-5.6845 2.1169 -2.4978 0.9741
-5.8503 1.6026 -2.4978 0.9741
-3.9772 0.3554 -1.6443 0.9829
-3.0794 -0.0000 -1.3283 0.9867
-2.7278 -0.4914 -1.1956 0.9880
-2.7299 -1.3040 -1.3050 0.9869
-4.7008 -3.3835 -2.4983 0.9751
-4.0268 -4.1637 -2.4986 0.9751
-3.2251 -4.8122 -2.4988 0.9751
-2.3210 -5.3083 -2.4991 0.9751
-1.8394 -5.4941 -2.4992 0.9751
-1.3432 -5.6363 -2.4994 0.9751
-0.8363 -5.7338 -2.4995 0.9751
-0.3226 -5.7858 -2.4996 0.9751
0.1937 -5.7919 -2.4998 0.9751
0.7084 -5.7520 -2.4999 0.9751
1.2176 -5.6664 -2.5000 0.9751
2.2033 -5.3613 -2.5003 0.9751
3.5418 -4.5893 -2.5006 0.9751
4.9214 -3.0650 -2.5009 0.9751
5.3870 -2.1440 -2.5010 0.9751
5.5565 -1.6560 -2.5010 0.9751
5.6819 -1.1549 -2.5010 0.9751
5.7966 -0.1292 -2.5010 0.9751
5.7850 0.3872 -2.5010 0.9751
5.4768 1.9018 -2.5008 0.9751
7.5793 4.2640 -3.7513 0.9628
4.4879 3.0807 -2.3481 0.9766
2.7211 4.7131 -2.3475 0.9766
1.8422 5.1204 -2.3473 0.9766
-0.0606 5.4401 -2.3468 0.9766
-1.4954 5.2299 -2.3464 0.9766
-1.9549 5.0758 -2.3463 0.9766
-5.7555 6.5079 -3.7476 0.9629
-6.3117 5.9696 -3.7475 0.9629
-4.8462 3.1702 -2.4980 0.9751
-5.1090 2.7262 -2.4979 0.9751
-5.6476 1.2796 -2.4979 0.9751
-2.8614 -0.1276 -1.2355 0.9876
-2.7200 -0.6163 -1.2030 0.9879
-4.5455 -3.5896 -2.4984 0.9751
-4.2082 -3.9801 -2.4985 0.9751
-3.8374 -4.3390 -2.4986 0.9751
-3.4361 -4.6636 -2.4988 0.9751
-2.0823 -5.4065 -2.4992 0.9751
-1.5929 -5.5708 -2.4993 0.9751
-0.5800 -5.7656 -2.4996 0.9751
-0.0645 -5.7946 -2.4997 0.9751
0.4515 -5.7777 -2.4998 0.9751
1.4689 -5.6067 -2.5001 0.9751
1.9622 -5.4540 -2.5002 0.9751
2.4399 -5.2579 -2.5004 0.9751
3.7428 -4.4270 -2.5007 0.9751
4.1222 -4.0765 -2.5007 0.9751
4.7799 -3.2812 -2.5009 0.9751
5.4772 -1.9019 -2.5010 0.9751
5.6248 -1.4069 -2.5010 0.9751
5.7851 -0.3872 -2.5010 0.9751
5.7965 0.1292 -2.5010 0.9751
5.6816 1.1548 -2.5009 0.9751
5.3865 2.1438 -2.5008 0.9751
7.3817 4.5973 -3.7512 0.9628
4.0369 3.6512 -2.3479 0.9766
3.3253 4.3087 -2.3477 0.9766
2.5084 4.8295 -2.3475 0.9766
1.6122 5.1971 -2.3472 0.9766
1.1431 5.3197 -2.3471 0.9766
0.6651 5.4001 -2.3470 0.9766
0.1818 5.4375 -2.3468 0.9766
-0.3029 5.4318 -2.3467 0.9766
-1.7269 5.1580 -2.3463 0.9766
-2.1790 4.9836 -2.3462 0.9766
-6.0396 6.2449 -3.7475 0.9629
-4.3805 3.7880 -2.4981 0.9751
-5.4267 2.0209 -2.4979 0.9751
-5.6989 1.0267 -2.4979 0.9751
-2.7005 -0.2413 -1.2234 0.9882
-2.6738 -0.4817 -1.2259 0.9881
-2.6546 -0.7272 -1.2419 0.9880
-2.6607 -0.9909 -1.2811 0.9876
-2.6666 -1.2737 -1.3334 0.9871
-2.6867 -1.5913 -1.4090 0.9864
-4.4940 -3.2346 -2.4984 0.9760
-4.1884 -3.6219 -2.4985 0.9760
-3.0832 -4.6004 -2.4988 0.9760
-2.2189 -5.0747 -2.4991 0.9760
-1.7585 -5.2523 -2.4992 0.9760
-1.2841 -5.3883 -2.4994 0.9760
-0.7994 -5.4814 -2.4995 0.9760
0.1851 -5.5370 -2.4998 0.9760
0.6773 -5.4988 -2.4999 0.9760
1.1640 -5.4170 -2.5000 0.9760
2.5542 -4.9176 -2.5004 0.9760
4.1104 -3.7176 -2.5007 0.9760
4.7046 -2.9301 -2.5008 0.9760
5.3118 -1.5831 -2.5009 0.9760
5.4316 -1.1040 -2.5010 0.9760
5.5413 -0.1235 -2.5009 0.9760
5.5302 0.3702 -2.5009 0.9760
5.3768 1.3448 -2.5008 0.9760
5.2356 1.8180 -2.5008 0.9760
7.2455 4.0763 -3.7512 0.9642
6.8537 4.7048 -3.7511 0.9642
4.0109 3.3151 -2.3480 0.9774
3.3593 3.9734 -2.3477 0.9774
2.9922 4.2564 -2.3476 0.9774
2.1899 4.7190 -2.3474 0.9774
0.8652 5.1291 -2.3470 0.9774
0.4052 5.1854 -2.3469 0.9774
-0.0579 5.2007 -2.3468 0.9774
-0.5206 5.1746 -2.3467 0.9774
-1.8689 4.8525 -2.3463 0.9774
-2.2933 4.6667 -2.3462 0.9774
-4.9269 6.6869 -3.7478 0.9642
-4.8843 2.6063 -2.4980 0.9760
-5.0968 2.1612 -2.4980 0.9760
-5.2689 1.6990 -2.4979 0.9760
-5.3991 1.2233 -2.4979 0.9760
-3.2608 0.1454 -1.4728 0.9858
-2.7833 -0.1241 -1.2571 0.9878
-4.8848 -2.6066 -2.4983 0.9760
-4.3455 -3.4316 -2.4984 0.9760
-4.0230 -3.8050 -2.4986 0.9760
-3.6686 -4.1481 -2.4987 0.9760
-2.8752 -4.7333 -2.4989 0.9760
-2.4427 -4.9706 -2.4990 0.9760
-1.5228 -5.3256 -2.4993 0.9760
-1.0428 -5.4403 -2.4994 0.9760
-0.0617 -5.5396 -2.4997 0.9760
1.4042 -5.3599 -2.5001 0.9760
2.3325 -5.0264 -2.5003 0.9760
3.5780 -4.2321 -2.5006 0.9760
3.9406 -3.8970 -2.5007 0.9760
4.2720 -3.5309 -2.5008 0.9760
4.5694 -3.1367 -2.5008 0.9760
4.8305 -2.7176 -2.5009 0.9760
5.0533 -2.2769 -2.5009 0.9760
5.5303 -0.3702 -2.5009 0.9760
5.5412 0.1235 -2.5009 0.9760
5.4314 1.1040 -2.5008 0.9760
5.1494 2.0494 -2.5007 0.9760
7.4201 3.7495 -3.7513 0.9642
7.0567 4.3949 -3.7511 0.9642
3.5331 3.8199 -2.3478 0.9774
3.1789 4.1190 -2.3477 0.9774
2.3980 4.6169 -2.3475 0.9774
1.9774 4.8118 -2.3473 0.9774
1.5412 4.9684 -2.3472 0.9774
0.6358 5.1624 -2.3470 0.9774
-0.2895 5.1928 -2.3467 0.9774
-0.7505 5.1461 -2.3466 0.9774
-1.2055 5.0586 -2.3465 0.9774
-2.0832 4.7643 -2.3463 0.9774
-4.1878 3.6214 -2.4981 0.9760
-4.7633 2.8213 -2.4980 0.9760
-4.9955 2.3861 -2.4980 0.9760
-2.9111 -0.0000 -1.3722 0.9872
-2.6212 -0.4722 -1.2555 0.9883
-2.6016 -0.7127 -1.2715 0.9881
-2.6052 -1.2444 -1.3609 0.9873
-2.6596 -1.5753 -1.4571 0.9864
-4.0094 -3.4671 -2.4985 0.9768
-1.6833 -5.0277 -2.4992 0.9768
-1.2292 -5.1578 -2.4994 0.9768
-0.7652 -5.2470 -2.4995 0.9768
-0.2952 -5.2946 -2.4996 0.9768
0.1772 -5.3001 -2.4998 0.9768
0.6483 -5.2636 -2.4999 0.9768
1.1142 -5.1852 -2.5000 0.9768
2.0161 -4.9060 -2.5002 0.9768
2.4449 -4.7073 -2.5003 0.9768
2.8543 -4.4712 -2.5004 0.9768
3.2410 -4.1995 -2.5005 0.9768
3.6021 -3.8945 -2.5006 0.9768
4.5033 -2.8047 -2.5008 0.9768
5.0845 -1.5153 -2.5009 0.9768
5.2936 0.3544 -2.5008 0.9768
5.1467 1.2873 -2.5008 0.9768
5.0116 1.7402 -2.5007 0.9768
4.8367 2.1793 -2.5006 0.9768
6.9356 3.9019 -3.7511 0.9654
6.5605 4.5035 -3.7510 0.9654
3.8393 3.1733 -2.3479 0.9782
3.5415 3.5023 -2.3478 0.9782
1.6857 4.6856 -2.3473 0.9782
-0.0554 4.9783 -2.3468 0.9782
-0.4983 4.9533 -2.3467 0.9782
-0.9371 4.8891 -2.3466 0.9782
-1.3685 4.7860 -2.3464 0.9782
-1.7890 4.6450 -2.3463 0.9782
-4.7163 6.4010 -3.7479 0.9655
-5.2671 5.9556 -3.7477 0.9655
-3.8505 3.6418 -2.4982 0.9768
-4.1592 3.2845 -2.4982 0.9768
-4.4349 2.9012 -2.4981 0.9768
-4.8789 2.0688 -2.4980 0.9768
-5.1684 1.1710 -2.4980 0.9768
-5.2521 0.7064 -2.4980 0.9768
-2.6352 -0.3544 -1.2533 0.9883
-2.6131 -0.5921 -1.2630 0.9882
-2.6038 -1.1041 -1.3332 0.9876
-4.4355 -2.9015 -2.4984 0.9768
-3.5117 -3.9708 -2.4987 0.9768
-2.7523 -4.5309 -2.4989 0.9768
-1.9055 -4.9476 -2.4992 0.9768
-1.4577 -5.0978 -2.4993 0.9768
-0.9982 -5.2076 -2.4994 0.9768
-0.5308 -5.2761 -2.4996 0.9768
-0.0591 -5.3026 -2.4997 0.9768
0.4131 -5.2871 -2.4998 0.9768
0.8821 -5.2296 -2.4999 0.9768
1.3442 -5.1306 -2.5001 0.9768
1.7956 -4.9908 -2.5002 0.9768
2.6522 -4.5938 -2.5004 0.9768
3.0507 -4.3396 -2.5005 0.9768
4.0892 -3.3798 -2.5007 0.9768
4.8371 -2.1795 -2.5008 0.9768
5.0119 -1.7403 -2.5009 0.9768
5.2411 -0.8241 -2.5009 0.9768
5.2936 -0.3544 -2.5009 0.9768
5.2725 0.5898 -2.5008 0.9768
5.1990 1.0567 -2.5008 0.9768
5.0842 1.5152 -2.5007 0.9768
4.9290 1.9617 -2.5007 0.9768
7.1026 3.5891 -3.7512 0.9654
6.3532 4.7912 -3.7509 0.9654
3.3819 3.6565 -2.3478 0.9782
3.0429 3.9428 -2.3477 0.9782
2.6798 4.1978 -2.3476 0.9782
1.4753 4.7559 -2.3472 0.9782
1.0461 4.8681 -2.3471 0.9782
0.6086 4.9416 -2.3470 0.9782
0.1664 4.9759 -2.3468 0.9782
-0.2772 4.9707 -2.3467 0.9782
-1.1540 4.8424 -2.3465 0.9782
-1.5803 4.7202 -2.3464 0.9782
-1.9941 4.5606 -2.3463 0.9782
-2.3920 4.3648 -2.3462 0.9782
-4.0088 3.4666 -2.4982 0.9768
-4.3014 3.0959 -2.4981 0.9768
-4.5597 2.7007 -2.4981 0.9768
-3.7076 0.3313 -1.7546 0.9837
-2.8279 -0.0000 -1.3909 0.9875
-2.5698 -0.4630 -1.2843 0.9884
-2.5499 -0.6985 -1.3004 0.9883
-2.5453 -0.9479 -1.3359 0.9880
-2.5457 -1.2160 -1.3876 0.9875
-4.3704 -2.5887 -2.4984 0.9776
-4.1228 -2.9674 -2.4985 0.9776
-3.8425 -3.3227 -2.4986 0.9776
-3.1927 -3.9517 -2.4988 0.9776
-2.8285 -4.2204 -2.4989 0.9776
-2.4417 -4.4556 -2.4990 0.9776
-0.7334 -5.0286 -2.4995 0.9776
0.1698 -5.0795 -2.4997 0.9776
0.6213 -5.0444 -2.4999 0.9776
1.5060 -4.8547 -2.5001 0.9776
1.9322 -4.7016 -2.5002 0.9776
2.3431 -4.5112 -2.5003 0.9776
3.1060 -4.0246 -2.5005 0.9776
3.4520 -3.7323 -2.5006 0.9776
3.7706 -3.4103 -2.5006 0.9776
4.5379 -2.2931 -2.5008 0.9776
4.9826 -1.0128 -2.5008 0.9776
5.0530 -0.5653 -2.5008 0.9776
5.0832 -0.1133 -2.5008 0.9776
5.0226 0.7898 -2.5008 0.9776
6.2872 4.3160 -3.7509 0.9666
5.8779 4.8583 -3.7508 0.9666
3.3940 3.3564 -2.3478 0.9789
1.6156 4.4905 -2.3473 0.9790
1.2094 4.6162 -2.3471 0.9790
0.7937 4.7053 -2.3470 0.9790
0.3717 4.7571 -2.3469 0.9790
-0.4776 4.7471 -2.3467 0.9790
-0.8981 4.6855 -2.3466 0.9790
-1.3116 4.5868 -2.3465 0.9790
-2.1039 4.2812 -2.3463 0.9790
-3.9562 6.5128 -3.7481 0.9666
-4.5200 6.1346 -3.7479 0.9666
-3.6902 3.4902 -2.4983 0.9776
-3.9861 3.1478 -2.4982 0.9776
-4.2504 2.7804 -2.4982 0.9776
-4.4809 2.3911 -2.4981 0.9776
-4.8338 1.5587 -2.4981 0.9776
-5.0335 0.6769 -2.4981 0.9776
-2.6467 -0.1180 -1.3031 0.9883
-2.5430 -0.8200 -1.3142 0.9882
-2.5440 -1.0788 -1.3592 0.9878
-4.2509 -2.7808 -2.4984 0.9776
-3.6907 -3.4907 -2.4986 0.9776
-2.6377 -4.3423 -2.4989 0.9776
-1.8262 -4.7416 -2.4992 0.9776
-1.3970 -4.8856 -2.4993 0.9776
-0.0566 -5.0818 -2.4997 0.9776
0.3959 -5.0670 -2.4998 0.9776
2.1397 -4.6110 -2.5002 0.9776
3.6149 -3.5749 -2.5006 0.9776
4.4312 -2.4929 -2.5008 0.9776
4.8031 -1.6678 -2.5008 0.9776
4.9325 -1.2337 -2.5008 0.9776
5.0832 0.1133 -2.5008 0.9776
4.8724 1.4521 -2.5007 0.9776
4.7237 1.8800 -2.5006 0.9776
6.4734 4.0316 -3.7510 0.9666
2.9162 3.7786 -2.3476 0.9789
2.5682 4.0230 -2.3475 0.9789
1.8140 4.4142 -2.3473 0.9790
1.4139 4.5579 -2.3472 0.9790
1.0025 4.6654 -2.3471 0.9790
0.5833 4.7359 -2.3470 0.9790
-0.2656 4.7638 -2.3467 0.9790
-1.5145 4.5238 -2.3464 0.9790
-1.9111 4.3708 -2.3463 0.9790
-2.2924 4.1832 -2.3462 0.9790
-3.8420 3.3223 -2.4983 0.9776
-4.1224 2.9671 -2.4982 0.9776
-4.3700 2.5884 -2.4981 0.9776
-4.7596 1.7725 -2.4981 0.9776
-4.9984 0.9005 -2.4981 0.9776
-3.6333 0.3247 -1.7942 0.9839
-2.7481 -0.0000 -1.4089 0.9877
-2.5198 -0.4540 -1.3126 0.9886
-2.4895 -0.9271 -1.3619 0.9881
-2.4521 -1.4524 -1.4611 0.9873
-3.9555 -2.8470 -2.4985 0.9783
-3.0631 -3.7913 -2.4988 0.9783
-2.7137 -4.0491 -2.4989 0.9783
-2.3426 -4.2747 -2.4990 0.9783
-1.9529 -4.4665 -2.4991 0.9783
-1.5477 -4.6228 -2.4993 0.9783
-1.1302 -4.7424 -2.4994 0.9783
-0.7036 -4.8244 -2.4995 0.9783
0.1629 -4.8732 -2.4997 0.9783
0.5960 -4.8396 -2.4998 0.9783
2.9799 -3.8611 -2.5004 0.9783
3.3118 -3.5807 -2.5005 0.9783
3.6175 -3.2718 -2.5006 0.9783
4.1404 -2.5787 -2.5007 0.9783
4.6747 -1.3932 -2.5008 0.9783
4.7802 -0.9716 -2.5008 0.9783
4.6077 1.6000 -2.5006 0.9783
4.4469 2.0037 -2.5005 0.9783
6.3767 3.5874 -3.7510 0.9676
1.9273 4.1533 -2.3474 0.9796
0.7615 4.5143 -2.3470 0.9796
0.3566 4.5639 -2.3469 0.9796
-0.4582 4.5544 -2.3467 0.9796
-0.8617 4.4954 -2.3466 0.9796
-1.2583 4.4006 -2.3465 0.9796
-1.6449 4.2710 -2.3464 0.9796
-2.0185 4.1075 -2.3463 0.9796
-3.7956 6.2485 -3.7481 0.9677
-4.3366 5.8857 -3.7480 0.9677
-3.2285 3.6505 -2.4984 0.9783
-3.5405 3.3486 -2.4983 0.9783
-3.8244 3.0201 -2.4983 0.9783
-4.0779 2.6676 -2.4982 0.9783
-4.2991 2.2941 -2.4982 0.9783
-4.4862 1.9023 -2.4981 0.9783
-4.7523 1.0767 -2.4981 0.9783
-4.8293 0.6495 -2.4981 0.9783
-2.5350 -0.3409 -1.3113 0.9886
-2.5113 -0.5690 -1.3201 0.9885
-2.4881 -0.8023 -1.3403 0.9883
-2.4717 -1.3190 -1.4363 0.9875
-3.8248 -3.0204 -2.4986 0.9783
-3.2289 -3.6510 -2.4988 0.9783
-1.7521 -4.5491 -2.4992 0.9783
-1.3403 -4.6872 -2.4993 0.9783
-0.4880 -4.8511 -2.4996 0.9783
0.3799 -4.8612 -2.4998 0.9783
0.8111 -4.8083 -2.4999 0.9783
1.6509 -4.5887 -2.5001 0.9783
2.4385 -4.2236 -2.5003 0.9783
2.8049 -3.9900 -2.5004 0.9783
3.1490 -3.7246 -2.5005 0.9783
3.4681 -3.4297 -2.5005 0.9783
4.6080 -1.6001 -2.5008 0.9783
4.8187 -0.7577 -2.5008 0.9783
4.8767 0.1087 -2.5007 0.9783
4.7800 0.9715 -2.5007 0.9783
5.8414 4.4052 -3.7508 0.9676
2.7977 3.6251 -2.3476 0.9796
2.1105 4.0634 -2.3474 0.9796
1.3565 4.3728 -2.3472 0.9796
0.9618 4.4760 -2.3471 0.9796
0.1530 4.5752 -2.3469 0.9796
-0.2548 4.5704 -2.3468 0.9796
-0.6606 4.5294 -2.3466 0.9796
-1.4531 4.3402 -2.3464 0.9796
-1.8335 4.1934 -2.3463 0.9796
-3.5136 6.4115 -3.7482 0.9677
-4.0701 6.0731 -3.7481 0.9677
-4.5944 5.6865 -3.7479 0.9677
-3.9551 2.8467 -2.4982 0.9783
-4.3970 2.1003 -2.4982 0.9783
-4.6996 1.2874 -2.4981 0.9783
-2.4853 -0.2221 -1.3321 0.9887
-2.4716 -0.4453 -1.3407 0.9887
-2.4501 -0.6711 -1.3561 0.9885
-2.4352 -0.9069 -1.3872 0.9883
-2.4292 -1.1603 -1.4371 0.9879
-3.7987 -2.7341 -2.4986 0.9790
-1.8755 -4.2893 -2.4992 0.9790
-1.0853 -4.5543 -2.4994 0.9790
-0.6757 -4.6330 -2.4995 0.9790
0.5724 -4.6476 -2.4998 0.9790
0.9838 -4.5784 -2.4999 0.9790
1.3875 -4.4728 -2.5000 0.9790
2.1587 -4.1562 -2.5002 0.9790
3.9761 -2.4763 -2.5006 0.9790
4.1808 -2.1126 -2.5007 0.9790
4.3523 -1.7321 -2.5007 0.9790
4.5905 -0.9331 -2.5007 0.9790
4.6553 -0.5208 -2.5007 0.9790
4.6832 -0.1044 -2.5007 0.9790
4.6738 0.3129 -2.5007 0.9790
4.6274 0.7276 -2.5006 0.9790
4.4249 1.5365 -2.5006 0.9790
4.0822 2.2966 -2.5004 0.9790
5.7926 3.9763 -3.7508 0.9686
4.9954 4.9400 -3.7505 0.9686
2.8392 3.3582 -2.3476 0.9803
2.5290 3.5975 -2.3475 0.9803
2.1986 3.8081 -2.3474 0.9803
1.8509 3.9885 -2.3473 0.9803
1.4885 4.1373 -2.3472 0.9803
1.1143 4.2531 -2.3471 0.9803
0.7313 4.3352 -2.3470 0.9803
0.3425 4.3829 -2.3469 0.9803
-0.4400 4.3738 -2.3467 0.9803
-1.2084 4.2261 -2.3465 0.9803
-1.5797 4.1016 -2.3464 0.9803
-3.0967 6.3015 -3.7483 0.9687
-4.1646 5.6523 -3.7480 0.9687
-3.4001 3.2158 -2.4984 0.9790
-4.5639 1.0341 -2.4982 0.9790
-4.6378 0.6237 -2.4982 0.9790
-2.4621 -0.5579 -1.3477 0.9886
-2.4323 -1.5911 -1.5516 0.9869
-3.4005 -3.2162 -2.4987 0.9790
-2.7766 -3.7685 -2.4989 0.9790
-2.4303 -4.0008 -2.4990 0.9790
0.3648 -4.6684 -2.4998 0.9790
0.7789 -4.6176 -2.4999 0.9790
2.3418 -4.0561 -2.5003 0.9790
2.6936 -3.8317 -2.5004 0.9790
3.0240 -3.5768 -2.5004 0.9790
3.3305 -3.2936 -2.5005 0.9790
3.8618 -2.6510 -2.5006 0.9790
4.2708 -1.9243 -2.5007 0.9790
4.5444 -1.1366 -2.5007 0.9790
4.6275 -0.7277 -2.5007 0.9790
4.6739 -0.3129 -2.5007 0.9790
4.6552 0.5208 -2.5007 0.9790
4.5903 0.9330 -2.5006 0.9790
5.6096 4.2304 -3.7507 0.9686
2.9861 3.2285 -2.3477 0.9803
2.6868 3.4813 -2.3476 0.9803
0.9237 4.2985 -2.3471 0.9803
-0.2447 4.3892 -2.3468 0.9803
-1.0190 4.2759 -2.3466 0.9803
-1.3954 4.1680 -2.3465 0.9803
-2.8130 6.4334 -3.7484 0.9687
-4.4123 5.4610 -3.7480 0.9687
-3.2535 3.3641 -2.4984 0.9790
-3.5399 3.0611 -2.4983 0.9790
-4.0264 2.3849 -2.4982 0.9790
-4.6054 0.8297 -2.4982 0.9790
-3.5312 0.3155 -1.8926 0.9841
-2.5975 -0.0000 -1.4427 0.9882
-2.3823 -0.8872 -1.4119 0.9884
-3.6513 -2.6281 -2.4986 0.9796
-3.1277 -3.2341 -2.4988 0.9796
-2.8276 -3.4997 -2.4989 0.9796
-2.5049 -3.7377 -2.4990 0.9796
-2.1624 -3.9459 -2.4991 0.9796
-1.4286 -4.2672 -2.4993 0.9796
-0.6495 -4.4533 -2.4995 0.9796
0.1504 -4.4983 -2.4997 0.9796
0.5502 -4.4672 -2.4998 0.9796
0.9457 -4.4007 -2.4999 0.9796
1.3336 -4.2992 -2.5000 0.9796
2.0749 -3.9949 -2.5002 0.9796
2.4223 -3.7945 -2.5003 0.9796
2.7505 -3.5640 -2.5004 0.9796
3.3391 -3.0200 -2.5005 0.9796
3.8217 -2.3802 -2.5006 0.9796
4.0185 -2.0306 -2.5006 0.9796
4.1833 -1.6649 -2.5006 0.9796
4.3149 -1.2860 -2.5007 0.9796
4.4746 -0.5005 -2.5007 0.9796
4.5014 -0.1003 -2.5007 0.9796
3.9237 2.2074 -2.5004 0.9796
5.5677 3.8220 -3.7507 0.9696
4.3597 5.1566 -3.7504 0.9696
2.4308 3.4579 -2.3475 0.9808
2.1133 3.6603 -2.3474 0.9808
0.7029 4.1670 -2.3470 0.9809
0.3292 4.2128 -2.3469 0.9809
-0.4229 4.2041 -2.3467 0.9809
-0.7954 4.1496 -2.3466 0.9809
-4.0031 5.4330 -3.7481 0.9696
-2.9802 3.3698 -2.4985 0.9796
-3.2682 3.0911 -2.4984 0.9796
-3.9685 2.1177 -2.4983 0.9796
-4.3869 0.9939 -2.4982 0.9796
-4.4579 0.5996 -2.4982 0.9796
-2.4744 -0.1104 -1.3757 0.9887
-2.4351 -0.3275 -1.3646 0.9888
-2.4139 -0.5469 -1.3747 0.9887
-2.3793 -1.0089 -1.4353 0.9882
-2.3600 -1.2593 -1.4857 0.9878
-1.6173 -4.1992 -2.4992 0.9796
-1.2372 -4.3267 -2.4993 0.9796
-0.4505 -4.4779 -2.4995 0.9796
-0.0501 -4.5004 -2.4997 0.9796
0.3506 -4.4872 -2.4998 0.9796
0.7487 -4.4383 -2.4999 0.9796
1.1408 -4.3543 -2.5000 0.9796
1.5239 -4.2356 -2.5001 0.9796
1.8949 -4.0833 -2.5002 0.9796
2.9066 -3.4380 -2.5004 0.9796
3.7119 -2.5481 -2.5006 0.9796
4.1050 -1.8496 -2.5006 0.9796
4.2534 -1.4770 -2.5007 0.9796
4.4479 -0.6994 -2.5007 0.9796
4.4924 -0.3007 -2.5007 0.9796
4.5013 0.1003 -2.5006 0.9796
4.4745 0.5005 -2.5006 0.9796
4.1831 1.6648 -2.5005 0.9796
3.8214 2.3800 -2.5004 0.9796
5.0084 4.5297 -3.7506 0.9696
