ply
format ascii 1.0
element vertex 1587
property float32 x
property float32 y
property float32 z
property float32 I
end_header
-13.5025 -4.3540 -2.5016 0.9440
-13.0603 -5.5380 -2.5014 0.9440
-12.5144 -6.6778 -2.5011 0.9440
-11.1296 -8.7889 -2.5006 0.9440
-9.3926 -10.6203 -2.4999 0.9440
-8.4089 -11.4126 -2.4996 0.9440
-6.2503 -12.7189 -2.4989 0.9441
-5.0926 -13.2227 -2.4985 0.9441
-2.6667 -13.9118 -2.4977 0.9441
-0.1577 -14.1596 -2.4969 0.9441
1.1030 -14.1153 -2.4965 0.9441
3.5872 -13.6920 -2.4958 0.9441
4.7909 -13.3165 -2.4954 0.9441
5.9564 -12.8356 -2.4951 0.9441
10.0569 -9.9454 -2.4940 0.9442
11.6591 -8.0035 -2.4936 0.9442
12.3245 -6.9336 -2.4934 0.9442
12.8921 -5.8089 -2.4933 0.9442
13.7172 -3.4308 -2.4932 0.9442
13.9680 -2.1963 -2.4932 0.9442
13.0125 2.6449 -2.3414 0.9475
12.3392 4.9109 -2.3417 0.9475
11.2751 7.0222 -2.3422 0.9475
9.0225 9.7551 -2.3430 0.9475
7.1520 11.2034 -2.3437 0.9474
5.0538 12.2977 -2.3444 0.9474
3.9398 12.7007 -2.3447 0.9474
1.6260 13.2022 -2.3455 0.9474
-0.7408 13.2855 -2.3462 0.9474
-3.0855 12.9476 -2.3469 0.9474
-4.2263 12.6233 -2.3473 0.9474
-5.3338 12.1987 -2.3476 0.9474
-7.4140 11.0625 -2.3482 0.9473
-10.0762 8.7132 -2.3489 0.9473
-11.4630 6.7896 -2.3492 0.9473
-13.2976 4.9521 -2.5020 0.9440
-13.6858 3.7490 -2.5021 0.9440
-13.9653 2.5160 -2.5021 0.9440
-12.9272 0.0000 -2.5016 0.9487
-12.8754 -1.1505 -2.5016 0.9487
-12.4662 -3.4148 -2.5013 0.9487
-11.6615 -5.5702 -2.5009 0.9487
-11.1184 -6.5854 -2.5007 0.9487
-10.4871 -7.5481 -2.5005 0.9487
-9.7726 -8.4507 -2.5002 0.9487
-8.9806 -9.2859 -2.4999 0.9487
-6.2058 -11.3241 -2.4989 0.9487
-4.0985 -12.2416 -2.4982 0.9488
-1.8625 -12.7706 -2.4975 0.9488
-0.7184 -12.8838 -2.4971 0.9488
1.5769 -12.8035 -2.4964 0.9488
2.7099 -12.6106 -2.4961 0.9488
4.9016 -11.9272 -2.4955 0.9488
6.9371 -10.8667 -2.4949 0.9488
10.2898 -7.7598 -2.4940 0.9488
11.5014 -5.8119 -2.4938 0.9489
11.9727 -4.7650 -2.4937 0.9489
12.3490 -3.6803 -2.4936 0.9489
12.8058 -1.4325 -2.4936 0.9489
12.8827 -0.2870 -2.4936 0.9489
10.5491 5.9349 -2.3423 0.9519
9.3316 7.7128 -2.3428 0.9519
7.8181 9.2473 -2.3434 0.9519
6.9649 9.9077 -2.3437 0.9519
6.0562 10.4897 -2.3440 0.9518
5.0992 10.9886 -2.3443 0.9518
4.1015 11.4004 -2.3446 0.9518
3.0710 11.7220 -2.3450 0.9518
0.9443 12.0842 -2.3456 0.9518
-1.2136 12.0636 -2.3463 0.9518
-2.2828 11.9094 -2.3466 0.9518
-4.3593 11.3188 -2.3472 0.9518
-5.3501 10.8872 -2.3475 0.9518
-6.2986 10.3690 -2.3478 0.9518
-7.1973 9.7682 -2.3480 0.9518
-8.0389 9.0897 -2.3482 0.9518
-10.7085 5.7143 -2.3489 0.9518
-11.9012 5.0466 -2.5016 0.9487
-12.3035 3.9674 -2.5017 0.9487
-12.9141 -0.5758 -2.5016 0.9487
-12.8111 -1.7229 -2.5015 0.9487
-12.6063 -2.8562 -2.5014 0.9487
-12.3013 -3.9666 -2.5012 0.9487
-11.8985 -5.0454 -2.5010 0.9487
-11.4013 -6.0839 -2.5008 0.9487
-10.8135 -7.0738 -2.5006 0.9487
-7.6613 -10.3980 -2.4994 0.9487
-6.7045 -11.0372 -2.4991 0.9487
-3.5489 -12.4111 -2.4980 0.9488
-1.2917 -12.8400 -2.4973 0.9488
-0.1437 -12.9022 -2.4970 0.9488
2.1456 -12.7197 -2.4963 0.9488
3.2687 -12.4765 -2.4959 0.9488
4.3657 -12.1346 -2.4956 0.9488
6.4465 -11.1656 -2.4950 0.9488
9.1647 -9.0631 -2.4943 0.9488
9.9342 -8.2108 -2.4941 0.9488
11.2313 -6.3186 -2.4938 0.9489
11.7487 -5.2937 -2.4937 0.9489
12.5006 -3.1266 -2.4936 0.9489
12.8570 -0.8606 -2.4936 0.9489
12.8829 0.2871 -2.4937 0.9489
11.5974 3.4564 -2.3419 0.9519
10.8025 5.4588 -2.3422 0.9519
10.2747 6.3991 -2.3424 0.9519
8.9792 8.1212 -2.3429 0.9519
7.3988 9.5870 -2.3435 0.9519
4.6050 11.2056 -2.3445 0.9518
1.2395 5.7680 -1.1417 0.9762
-2.8112 11.7966 -2.3468 0.9518
-3.8506 11.5011 -2.3471 0.9518
-5.8301 10.6387 -2.3476 0.9518
-7.6256 9.4384 -2.3481 0.9518
-8.4362 8.7230 -2.3483 0.9518
-9.1798 7.9381 -2.3485 0.9518
-12.4681 3.4154 -2.5017 0.9487
-12.8761 1.1506 -2.5017 0.9487
-11.8172 -1.0560 -2.5012 0.9527
-11.6759 -2.1035 -2.5011 0.9527
-11.4417 -3.1342 -2.5010 0.9527
-10.2049 -6.0443 -2.5005 0.9527
-9.6255 -6.9280 -2.5002 0.9527
-8.9698 -7.7565 -2.5000 0.9527
-7.4508 -9.2219 -2.4994 0.9527
-5.6962 -10.3943 -2.4988 0.9527
-4.7479 -10.8587 -2.4985 0.9527
-3.7621 -11.2367 -2.4982 0.9527
-2.7466 -11.5254 -2.4978 0.9527
0.3958 -11.8369 -2.4969 0.9527
1.4476 -11.7532 -2.4965 0.9527
2.4876 -11.5763 -2.4962 0.9527
5.4557 -10.5041 -2.4954 0.9528
6.3684 -9.9758 -2.4951 0.9528
7.2303 -9.3686 -2.4949 0.9528
8.0348 -8.6871 -2.4947 0.9528
9.4464 -7.1239 -2.4943 0.9528
10.0425 -6.2545 -2.4942 0.9528
10.5588 -5.3356 -2.4941 0.9528
11.3370 -3.3788 -2.4939 0.9528
11.5926 -2.3563 -2.4939 0.9528
11.8270 -0.2636 -2.4940 0.9528
11.8038 0.7902 -2.4940 0.9528
10.7774 2.6956 -2.3421 0.9556
9.6843 5.4483 -2.3426 0.9556
9.1618 6.2892 -2.3428 0.9556
8.5665 7.0804 -2.3430 0.9556
7.1769 8.4889 -2.3435 0.9556
5.5594 9.6292 -2.3441 0.9556
3.7650 10.4650 -2.3447 0.9556
2.8190 10.7601 -2.3450 0.9555
0.8668 11.0923 -2.3456 0.9555
-2.0954 10.9314 -2.3465 0.9555
-4.9106 9.9929 -2.3473 0.9555
-8.7419 6.9034 -2.3483 0.9555
-9.3222 6.0984 -2.3485 0.9555
-11.2922 3.6413 -2.5013 0.9527
-11.8530 0.5286 -2.5013 0.9527
-11.8527 -0.5285 -2.5013 0.9527
-11.7582 -1.5813 -2.5012 0.9527
-11.2904 -3.6407 -2.5009 0.9527
-10.9208 -4.6308 -2.5008 0.9527
-10.4645 -5.5840 -2.5006 0.9527
-8.6149 -8.1479 -2.4998 0.9527
-7.8546 -8.8814 -2.4996 0.9527
-7.0322 -9.5441 -2.4993 0.9527
-5.2272 -10.6371 -2.4987 0.9527
-3.2576 -11.3924 -2.4980 0.9527
-2.2304 -11.6356 -2.4977 0.9527
-0.1319 -11.8436 -2.4970 0.9527
1.9696 -11.6763 -2.4964 0.9527
3.0006 -11.4532 -2.4961 0.9528
4.0077 -11.1394 -2.4958 0.9528
4.9827 -10.7373 -2.4955 0.9528
7.6402 -9.0368 -2.4948 0.9528
9.1200 -7.5378 -2.4944 0.9528
9.7542 -6.6958 -2.4942 0.9528
11.8034 -0.7901 -2.4940 0.9528
10.8865 2.2128 -2.3420 0.9556
10.6469 3.1731 -2.3421 0.9556
10.3229 4.1084 -2.3423 0.9556
9.9170 5.0113 -2.3425 0.9556
8.8729 6.6914 -2.3429 0.9556
8.2430 7.4553 -2.3431 0.9556
6.7920 8.8007 -2.3436 0.9556
5.1253 9.8679 -2.3442 0.9556
3.2953 10.6231 -2.3448 0.9556
1.2394 5.7677 -1.2437 0.9762
1.3600 11.0420 -2.3454 0.9555
-3.5343 10.5565 -2.3469 0.9555
-4.4604 10.2012 -2.3472 0.9555
-6.1997 9.2506 -2.3477 0.9555
-6.9991 8.6629 -2.3479 0.9555
-7.7430 8.0062 -2.3481 0.9555
-9.0410 6.5074 -2.3484 0.9555
-9.5848 5.6771 -2.3485 0.9555
-11.4433 3.1347 -2.5014 0.9527
-11.6770 2.1037 -2.5014 0.9527
-10.9139 -0.9752 -2.5010 0.9560
-10.7834 -1.9427 -2.5009 0.9560
-10.5672 -2.8946 -2.5007 0.9560
-10.2670 -3.8235 -2.5006 0.9560
-9.8853 -4.7218 -2.5004 0.9560
-8.8900 -6.3987 -2.5000 0.9561
-8.2845 -7.1639 -2.4998 0.9561
-7.6132 -7.8720 -2.4996 0.9561
-6.8816 -8.5175 -2.4993 0.9561
-6.0955 -9.0951 -2.4990 0.9561
-5.2612 -9.6005 -2.4987 0.9561
-2.5370 -10.6455 -2.4978 0.9561
-1.5792 -10.8278 -2.4975 0.9561
0.3656 -10.9336 -2.4969 0.9561
1.3371 -10.8563 -2.4966 0.9561
2.2978 -10.6930 -2.4963 0.9561
5.0396 -9.7029 -2.4955 0.9561
6.6789 -8.6541 -2.4951 0.9561
8.7262 -6.5807 -2.4946 0.9561
9.2768 -5.7776 -2.4944 0.9562
10.9253 -0.2434 -2.4943 0.9562
9.3575 4.2163 -2.3426 0.9588
8.9458 5.0328 -2.3428 0.9588
8.4630 5.8096 -2.3430 0.9588
7.9131 6.5404 -2.3432 0.9588
6.6294 7.8413 -2.3436 0.9587
5.9058 8.4012 -2.3439 0.9587
4.3237 9.3174 -2.3444 0.9587
3.4777 9.6663 -2.3447 0.9587
2.6038 9.9387 -2.3450 0.9587
1.7091 10.1323 -2.3453 0.9587
0.8006 10.2454 -2.3456 0.9587
-1.0289 10.2276 -2.3461 0.9587
-2.8266 9.8853 -2.3467 0.9587
-3.6956 9.5955 -2.3469 0.9587
-4.5355 9.2295 -2.3472 0.9587
-5.3394 8.7900 -2.3474 0.9587
-6.8145 7.7053 -2.3478 0.9587
-7.4738 7.0687 -2.3480 0.9587
-8.6097 5.6322 -2.3482 0.9587
-9.6670 5.1585 -2.5009 0.9560
-10.4290 3.3630 -2.5011 0.9560
-10.8602 1.4606 -2.5011 0.9560
-10.9470 0.4882 -2.5011 0.9560
-10.8595 -1.4604 -2.5009 0.9560
-10.6859 -2.4211 -2.5008 0.9560
-10.4274 -3.3624 -2.5007 0.9560
-10.0862 -4.2769 -2.5005 0.9560
-9.6648 -5.1573 -2.5003 0.9560
-7.9567 -7.5254 -2.4997 0.9561
-7.2546 -8.2029 -2.4994 0.9561
-6.4950 -8.8151 -2.4992 0.9561
-5.6840 -9.3571 -2.4989 0.9561
-4.8280 -9.8248 -2.4986 0.9561
-3.9340 -10.2142 -2.4983 0.9561
-3.0089 -10.5226 -2.4980 0.9561
-2.0601 -10.7473 -2.4977 0.9561
-1.0952 -10.8867 -2.4974 0.9561
-0.1219 -10.9396 -2.4971 0.9561
0.8522 -10.9058 -2.4968 0.9561
2.7717 -10.5795 -2.4962 0.9561
3.7019 -10.2896 -2.4959 0.9561
4.6026 -9.9183 -2.4957 0.9561
9.0105 -6.1853 -2.4945 0.9561
9.5248 -5.3586 -2.4944 0.9562
9.9636 -4.4894 -2.4943 0.9562
10.6013 -2.6515 -2.4942 0.9562
10.7952 -1.6974 -2.4942 0.9562
10.9036 -0.7299 -2.4942 0.9562
9.8351 2.9312 -2.3424 0.9588
9.1608 4.6292 -2.3427 0.9588
8.7131 5.4266 -2.3429 0.9588
6.9718 7.5378 -2.3435 0.9587
6.2739 8.1293 -2.3438 0.9587
3.9046 9.5013 -2.3446 0.9587
3.0438 9.8123 -2.3449 0.9587
-0.5722 10.2626 -2.3460 0.9587
-1.4836 10.1721 -2.3463 0.9587
-2.3833 10.0009 -2.3465 0.9587
-3.2643 9.7501 -2.3468 0.9587
-7.7815 6.7290 -2.3480 0.9587
-8.8522 5.2432 -2.3483 0.9587
-9.8874 4.7228 -2.5010 0.9560
-10.7844 1.9429 -2.5011 0.9560
-10.1334 -0.9055 -2.5007 0.9590
-9.5329 -3.5500 -2.5004 0.9590
-9.1785 -4.3842 -2.5002 0.9590
-8.2545 -5.9412 -2.4999 0.9590
-7.0690 -7.3093 -2.4994 0.9590
-3.2266 -9.6373 -2.4981 0.9590
-2.3557 -9.8851 -2.4978 0.9590
-1.4664 -10.0544 -2.4975 0.9590
-0.5656 -10.1439 -2.4972 0.9590
0.3395 -10.1529 -2.4970 0.9590
1.2416 -10.0812 -2.4967 0.9590
3.8598 -9.3921 -2.4959 0.9590
5.4629 -8.5574 -2.4955 0.9590
6.2023 -8.0366 -2.4953 0.9590
7.5280 -6.8086 -2.4949 0.9591
9.0581 -4.5772 -2.4946 0.9591
9.4292 -3.7527 -2.4945 0.9591
9.7257 -2.8985 -2.4945 0.9591
9.9450 -2.0214 -2.4945 0.9591
10.0855 -1.1282 -2.4945 0.9591
10.1460 -0.2261 -2.4945 0.9591
9.0034 3.1263 -2.3426 0.9615
8.6899 3.9155 -2.3428 0.9615
7.3484 6.0736 -2.3433 0.9615
4.7686 8.2595 -2.3442 0.9615
4.0150 8.6521 -2.3445 0.9615
3.2293 8.9761 -2.3448 0.9615
2.4179 9.2289 -2.3450 0.9615
1.5870 9.4086 -2.3453 0.9615
-0.9554 9.4968 -2.3461 0.9614
-2.6246 9.1789 -2.3466 0.9614
-4.9578 8.1616 -2.3472 0.9614
-5.6650 7.6886 -2.3474 0.9614
-6.3273 7.1544 -2.3476 0.9614
-6.9394 6.5633 -2.3478 0.9614
-7.4964 5.9199 -2.3479 0.9614
-7.9940 5.2295 -2.3480 0.9614
-8.9757 4.7896 -2.5007 0.9590
-9.3667 3.9719 -2.5008 0.9590
-9.9228 2.2482 -2.5008 0.9590
-10.0835 1.3561 -2.5008 0.9590
-10.1641 0.4532 -2.5008 0.9590
-9.9218 -2.2479 -2.5006 0.9590
-9.3650 -3.9711 -2.5003 0.9590
-8.5113 -5.5678 -2.5000 0.9590
-7.9813 -6.3028 -2.4998 0.9590
-7.3880 -6.9875 -2.4995 0.9590
-6.0308 -8.1851 -2.4990 0.9590
-5.2778 -8.6885 -2.4988 0.9590
-4.4831 -9.1228 -2.4985 0.9590
-1.9129 -9.9797 -2.4977 0.9590
-0.1132 -10.1585 -2.4971 0.9590
2.5738 -9.8242 -2.4963 0.9590
3.4377 -9.5551 -2.4960 0.9590
7.2174 -7.1374 -2.4950 0.9591
8.3676 -5.7440 -2.4947 0.9591
8.8453 -4.9763 -2.4946 0.9591
9.2528 -4.1691 -2.4945 0.9591
9.8451 -2.4624 -2.4945 0.9591
10.1461 0.2261 -2.4945 0.9591
9.1334 2.7221 -2.3426 0.9615
8.5071 4.2988 -2.3429 0.9615
8.0913 5.0394 -2.3430 0.9615
7.6113 5.7400 -2.3432 0.9615
6.4742 6.9998 -2.3436 0.9615
5.8260 7.5490 -2.3439 0.9615
3.6258 8.8228 -2.3446 0.9615
1.2392 5.7669 -1.4499 0.9760
-0.5313 9.5294 -2.3459 0.9614
-1.3776 9.4453 -2.3462 0.9614
-2.2130 9.2862 -2.3465 0.9614
-4.5891 8.3740 -2.3471 0.9614
-6.0021 7.4289 -2.3475 0.9614
-7.2251 6.2478 -2.3478 0.9614
-7.7529 5.5802 -2.3480 0.9614
-8.5727 5.0777 -2.4490 0.9598
-9.1803 4.3851 -2.5007 0.9590
-9.5344 3.5507 -2.5008 0.9590
-9.8127 2.6880 -2.5008 0.9590
-10.0131 1.8040 -2.5008 0.9590
-9.4898 0.0000 -2.5006 0.9615
-9.4519 -0.8446 -2.5005 0.9615
-9.1518 -2.5069 -2.5003 0.9615
-8.8919 -3.3113 -2.5002 0.9615
-8.1628 -4.8348 -2.4999 0.9615
-7.6995 -5.5418 -2.4997 0.9615
-6.5939 -6.8180 -2.4993 0.9615
-4.5570 -8.3154 -2.4986 0.9615
-3.7984 -8.6872 -2.4983 0.9615
-2.1975 -9.2210 -2.4978 0.9615
-0.5276 -9.4626 -2.4973 0.9616
1.1583 -9.4042 -2.4968 0.9616
1.9905 -9.2629 -2.4965 0.9616
2.8068 -9.0481 -2.4963 0.9616
5.0962 -7.9830 -2.4956 0.9616
7.5599 -5.7011 -2.4950 0.9616
8.0370 -5.0054 -2.4949 0.9616
9.2777 -1.8858 -2.4947 0.9616
9.4088 -1.0525 -2.4947 0.9616
9.4652 -0.2109 -2.4947 0.9616
13.7825 3.4472 -3.7436 0.9429
8.1067 3.6528 -2.3429 0.9639
7.3316 5.0329 -2.3433 0.9639
6.3242 6.2541 -2.3436 0.9639
5.7429 6.7928 -2.3439 0.9639
5.1160 7.2777 -2.3441 0.9639
4.4484 7.7049 -2.3443 0.9639
3.0124 8.3732 -2.3448 0.9639
2.2555 8.6090 -2.3450 0.9639
0.6935 8.8744 -2.3455 0.9638
-0.0992 8.9019 -2.3458 0.9638
-0.8912 8.8586 -2.3460 0.9638
-2.4482 8.5620 -2.3465 0.9638
-3.2008 8.3108 -2.3467 0.9638
-3.9282 7.9937 -2.3469 0.9638
-4.6245 7.6129 -2.3471 0.9638
-8.3721 4.4675 -2.5005 0.9615
-8.7367 3.7048 -2.5006 0.9615
-9.4053 1.2649 -2.5006 0.9615
-9.4805 0.4228 -2.5006 0.9615
-9.4803 -0.4227 -2.5006 0.9615
-9.4048 -1.2648 -2.5005 0.9615
-9.0308 -2.9121 -2.5003 0.9615
-8.7353 -3.7041 -2.5001 0.9615
-8.3704 -4.4665 -2.5000 0.9615
-7.4447 -5.8790 -2.4996 0.9615
-6.8914 -6.5178 -2.4994 0.9615
-6.2833 -7.1046 -2.4992 0.9615
-5.6255 -7.6350 -2.4990 0.9615
-3.4075 -8.8473 -2.4982 0.9615
-1.7844 -9.3093 -2.4977 0.9615
-0.9487 -9.4302 -2.4974 0.9616
2.4010 -9.1646 -2.4964 0.9616
3.9872 -8.5921 -2.4959 0.9616
4.7357 -8.2024 -2.4957 0.9616
6.1141 -7.2317 -2.4953 0.9616
6.7331 -6.6584 -2.4952 0.9616
7.2986 -6.0324 -2.4950 0.9616
7.8062 -5.3586 -2.4949 0.9616
8.9437 -3.1055 -2.4947 0.9616
9.4464 -0.6323 -2.4947 0.9616
9.4653 0.2110 -2.4947 0.9616
8.5205 2.5394 -2.3428 0.9639
8.2612 3.2879 -2.3429 0.9639
7.5483 4.7011 -2.3432 0.9639
6.0395 6.5299 -2.3437 0.9639
4.7870 7.4987 -2.3442 0.9639
3.3823 8.2303 -2.3447 0.9639
1.2391 5.7665 -1.5542 0.9759
1.0880 8.8343 -2.3454 0.9639
0.2975 8.8970 -2.3457 0.9638
-0.4956 8.8891 -2.3459 0.9638
-1.2850 8.8106 -2.3461 0.9638
-2.0643 8.6621 -2.3464 0.9638
-3.5680 8.1604 -2.3468 0.9638
-4.2806 7.8111 -2.3470 0.9638
-5.5985 6.9294 -2.3474 0.9638
-6.1934 6.4040 -2.3475 0.9638
-6.7393 5.8277 -2.3477 0.9638
-7.2316 5.2050 -2.3478 0.9638
-8.5629 4.0902 -2.5005 0.9615
-9.1528 2.5072 -2.5006 0.9615
-9.3397 1.6827 -2.5006 0.9615
-9.4523 0.8447 -2.5006 0.9615
-3.9277 -0.3510 -1.1095 0.9837
-3.7284 -0.6717 -1.0659 0.9844
-3.7904 -1.0383 -1.1057 0.9838
-8.3270 -3.1010 -2.5000 0.9638
-8.0175 -3.8296 -2.4999 0.9638
-7.2105 -5.1898 -2.4996 0.9638
-6.7195 -5.8106 -2.4994 0.9638
-6.1751 -6.3851 -2.4992 0.9638
-4.9443 -7.3775 -2.4988 0.9638
-4.2677 -7.7875 -2.4985 0.9638
-3.5573 -8.1357 -2.4983 0.9638
-2.8188 -8.4192 -2.4980 0.9638
-0.4941 -8.8621 -2.4973 0.9638
1.0848 -8.8076 -2.4968 0.9638
2.6287 -8.4742 -2.4964 0.9638
6.0223 -6.5112 -2.4954 0.9638
6.5775 -5.9490 -2.4953 0.9638
7.0806 -5.3397 -2.4952 0.9638
7.9146 -3.9994 -2.4950 0.9638
8.4979 -2.5326 -2.4949 0.9638
8.6896 -1.7662 -2.4949 0.9638
8.8123 -0.9858 -2.4949 0.9638
8.8652 -0.1975 -2.4949 0.9638
8.8478 0.5923 -2.4949 0.9638
8.7602 1.3775 -2.4950 0.9638
12.9087 3.2287 -3.7438 0.9462
7.8667 2.7316 -2.3430 0.9660
7.5927 3.4211 -2.3431 0.9660
7.2585 4.0836 -2.3432 0.9660
6.8667 4.7137 -2.3434 0.9660
6.4204 5.3066 -2.3436 0.9660
2.8213 7.8420 -2.3448 0.9660
0.6495 8.3112 -2.3455 0.9660
-0.0929 8.3368 -2.3457 0.9659
-0.8346 8.2962 -2.3460 0.9659
-3.6787 7.4860 -2.3468 0.9659
-4.9485 6.7161 -2.3472 0.9659
-6.0616 5.7331 -2.3474 0.9659
-6.5481 5.1711 -2.3476 0.9659
-7.4365 4.8647 -2.5002 0.9637
-8.6674 1.9638 -2.5004 0.9637
-8.8078 1.1846 -2.5004 0.9637
-8.8782 0.3959 -2.5004 0.9637
-4.2110 -0.1878 -1.1860 0.9826
-3.7396 -0.5029 -1.0616 0.9844
-3.7659 -0.8532 -1.0864 0.9841
-7.8387 -4.1829 -2.4998 0.9638
-4.6106 -7.5900 -2.4986 0.9638
-3.1912 -8.2857 -2.4982 0.9638
-0.8885 -8.8317 -2.4974 0.9638
-0.0989 -8.8749 -2.4972 0.9638
0.6914 -8.8476 -2.4969 0.9638
2.2487 -8.5832 -2.4965 0.9638
3.0035 -8.3483 -2.4962 0.9638
4.4354 -7.6823 -2.4958 0.9638
5.7264 -6.7732 -2.4955 0.9638
6.8358 -5.6499 -2.4952 0.9638
7.7287 -4.3480 -2.4950 0.9638
8.0848 -3.6428 -2.4949 0.9638
8.3767 -2.9087 -2.4949 0.9638
8.7596 -1.3773 -2.4949 0.9638
8.8475 -0.5923 -2.4949 0.9638
8.8653 0.1976 -2.4949 0.9638
7.9804 2.3784 -2.3429 0.9660
7.7374 3.0795 -2.3430 0.9660
7.4330 3.7561 -2.3432 0.9660
7.0696 4.4030 -2.3433 0.9660
6.1778 5.5875 -2.3437 0.9660
5.6565 6.1157 -2.3438 0.9660
3.8408 7.3948 -2.3445 0.9660
3.1677 7.7081 -2.3447 0.9660
1.2310 5.7286 -1.6486 0.9759
1.0190 8.2736 -2.3454 0.9660
0.2786 8.3322 -2.3456 0.9660
-1.2034 8.2512 -2.3461 0.9659
-4.6442 6.9297 -2.3471 0.9659
-5.8000 5.9972 -2.3474 0.9659
-10.8217 7.7890 -3.7514 0.9461
-8.5713 2.3479 -2.5004 0.9637
-8.8518 0.7910 -2.5004 0.9637
-3.9677 0.0000 -1.1878 0.9836
-3.4925 -0.9567 -1.0841 0.9850
-7.8252 -2.9141 -2.4999 0.9657
-7.5344 -3.5989 -2.4998 0.9657
-7.1838 -4.2549 -2.4996 0.9657
-6.7761 -4.8771 -2.4995 0.9657
-6.3147 -5.4605 -2.4993 0.9657
-5.8032 -6.0004 -2.4991 0.9657
-3.3431 -7.6457 -2.4982 0.9658
0.2787 -8.3362 -2.4971 0.9658
2.4706 -7.9642 -2.4964 0.9658
4.4859 -7.0270 -2.4959 0.9658
5.6600 -6.1195 -2.4955 0.9658
7.4385 -3.7589 -2.4951 0.9658
7.9869 -2.3803 -2.4950 0.9658
8.1670 -1.6600 -2.4950 0.9658
8.2823 -0.9265 -2.4950 0.9658
8.3320 -0.1856 -2.4951 0.9658
8.3156 0.5567 -2.4951 0.9658
7.3935 2.5673 -2.3431 0.9678
7.1360 3.2154 -2.3432 0.9678
6.8219 3.8379 -2.3434 0.9678
5.5667 5.5050 -2.3438 0.9678
5.0550 5.9791 -2.3440 0.9678
3.9155 6.7818 -2.3444 0.9678
2.6515 7.3699 -2.3448 0.9678
1.4807 5.6519 -1.7492 0.9759
-0.0873 7.8348 -2.3457 0.9678
-0.7843 7.7966 -2.3459 0.9678
-1.4753 7.6966 -2.3461 0.9678
-2.1546 7.5353 -2.3463 0.9678
-3.4571 7.0350 -2.3467 0.9678
-5.6963 5.3876 -2.3473 0.9678
-10.4858 6.8595 -3.7513 0.9490
-8.1450 1.8454 -2.5003 0.9657
-8.2769 1.1132 -2.5003 0.9657
-4.8506 0.2163 -1.4536 0.9799
-3.5144 -0.4726 -1.0616 0.9853
-3.4642 -0.7849 -1.0634 0.9853
-7.9475 -2.5627 -2.5000 0.9657
-7.6874 -3.2597 -2.4998 0.9657
-7.3664 -3.9308 -2.4997 0.9657
-6.9869 -4.5706 -2.4995 0.9657
-6.5519 -5.1739 -2.4994 0.9657
-4.3329 -7.1329 -2.4986 0.9658
-3.6805 -7.4896 -2.4984 0.9658
-2.2938 -8.0220 -2.4979 0.9658
-0.0929 -8.3407 -2.4972 0.9658
2.1134 -8.0667 -2.4965 0.9658
2.8228 -7.8460 -2.4963 0.9658
3.5096 -7.5630 -2.4961 0.9658
4.1685 -7.2201 -2.4959 0.9658
5.3819 -6.3657 -2.4956 0.9658
6.4247 -5.3101 -2.4954 0.9658
6.8715 -4.7170 -2.4953 0.9658
7.5985 -3.4237 -2.4951 0.9658
8.2328 -1.2945 -2.4950 0.9658
8.3154 -0.5566 -2.4950 0.9658
12.2552 2.4910 -3.7440 0.9491
7.2719 2.8942 -2.3432 0.9678
6.6443 4.1381 -2.3434 0.9678
5.3161 5.7478 -2.3439 0.9678
4.7838 6.1986 -2.3441 0.9678
4.2135 6.6004 -2.3443 0.9678
3.6096 6.9498 -2.3445 0.9678
0.9576 7.7754 -2.3454 0.9678
-1.8168 7.6235 -2.3462 0.9678
-2.4883 7.4322 -2.3464 0.9678
-3.7672 6.8743 -2.3468 0.9678
-5.4505 5.6358 -2.3472 0.9678
-5.9308 5.1287 -2.3474 0.9678
-7.5356 3.5995 -2.5002 0.9657
-3.2842 -0.5917 -1.0598 0.9861
-3.2540 -0.8914 -1.0715 0.9859
-5.4703 -5.6562 -2.4990 0.9675
-4.9448 -6.1203 -2.4988 0.9675
-1.1349 -7.7819 -2.4976 0.9675
0.9611 -7.8032 -2.4969 0.9675
4.2289 -6.6244 -2.4960 0.9676
4.8014 -6.2214 -2.4958 0.9676
6.6695 -4.1538 -2.4953 0.9676
7.0126 -3.5436 -2.4953 0.9676
7.8549 -0.1750 -2.4952 0.9676
11.4375 2.8607 -3.7443 0.9517
6.7273 3.0312 -2.3433 0.9695
4.7654 5.6365 -2.3441 0.9695
4.2451 6.0388 -2.3443 0.9695
3.1077 6.6969 -2.3447 0.9695
2.4995 6.9475 -2.3449 0.9695
1.4754 5.6317 -1.8489 0.9759
1.2283 7.2819 -2.3453 0.9695
0.5754 7.3630 -2.3455 0.9695
-1.3907 7.2552 -2.3461 0.9695
-2.0311 7.1032 -2.3463 0.9695
-2.6555 6.8948 -2.3465 0.9695
-3.2588 6.6316 -2.3466 0.9695
-3.8364 6.3156 -2.3468 0.9695
-4.3836 5.9494 -2.3469 0.9695
-9.2691 7.3197 -3.7509 0.9516
-9.8842 6.4660 -3.7511 0.9516
-6.9450 3.7060 -2.5000 0.9675
-7.2474 3.0732 -2.5001 0.9675
-7.6777 1.7395 -2.5001 0.9675
-7.8020 1.0493 -2.5001 0.9675
-3.3189 -0.4463 -1.0635 0.9860
-3.2591 -0.7384 -1.0613 0.9861
-6.5861 -4.3084 -2.4994 0.9675
-4.6671 -6.3342 -2.4987 0.9675
-3.4695 -7.0602 -2.4983 0.9675
-2.1623 -7.5621 -2.4979 0.9675
-1.4805 -7.7239 -2.4977 0.9675
-0.7871 -7.8243 -2.4974 0.9675
-0.0876 -7.8627 -2.4972 0.9675
1.9923 -7.6046 -2.4966 0.9675
3.3086 -7.1297 -2.4962 0.9676
4.5197 -6.4293 -2.4959 0.9676
5.0737 -6.0011 -2.4957 0.9676
6.0567 -5.0060 -2.4955 0.9676
6.4780 -4.4469 -2.4954 0.9676
6.8478 -3.8525 -2.4953 0.9676
7.1634 -3.2276 -2.4952 0.9676
7.4221 -2.5772 -2.4952 0.9676
7.6220 -1.9063 -2.4952 0.9676
7.7614 -1.2204 -2.4952 0.9676
7.8550 0.1751 -2.4952 0.9676
7.8084 0.8735 -2.4953 0.9676
7.6998 1.5651 -2.4954 0.9676
11.2989 3.3674 -3.7443 0.9517
6.8555 2.7285 -2.3433 0.9695
6.5857 3.3279 -2.3434 0.9695
6.2638 3.9011 -2.3435 0.9695
5.8920 4.4434 -2.3437 0.9695
5.4735 4.9505 -2.3438 0.9695
5.0116 5.4185 -2.3440 0.9695
4.5097 5.8435 -2.3442 0.9695
3.4028 6.5515 -2.3446 0.9695
2.8064 6.8289 -2.3448 0.9695
0.2468 7.3816 -2.3456 0.9695
-1.0661 7.3097 -2.3460 0.9695
-1.7126 7.1864 -2.3462 0.9695
-2.9601 6.7699 -2.3465 0.9695
-3.5511 6.4800 -2.3467 0.9695
-4.6444 5.7485 -2.3470 0.9695
-5.1379 5.3126 -2.3471 0.9695
-5.5906 4.8344 -2.3472 0.9695
-9.5862 6.8997 -3.7510 0.9516
-7.1033 3.3930 -2.5000 0.9675
-7.7475 1.3958 -2.5001 0.9675
-3.6184 0.0000 -1.2157 0.9848
-3.1483 -0.5672 -1.0748 0.9866
-3.1349 -0.8587 -1.0921 0.9864
-6.7130 -3.2065 -2.4995 0.9691
-6.4006 -3.7911 -2.4994 0.9691
-6.0374 -4.3455 -2.4993 0.9691
-5.6263 -4.8653 -2.4991 0.9691
-5.1706 -5.3464 -2.4989 0.9691
-3.5736 -6.5210 -2.4984 0.9691
-1.7234 -7.2317 -2.4978 0.9691
-1.0728 -7.3558 -2.4976 0.9691
0.9085 -7.3760 -2.4969 0.9691
1.5612 -7.2653 -2.4967 0.9691
5.5090 -4.9825 -2.4957 0.9691
5.9303 -4.4722 -2.4956 0.9691
6.3046 -3.9265 -2.4955 0.9691
6.6289 -3.3497 -2.4954 0.9691
7.3809 -0.8256 -2.4953 0.9691
7.4252 -0.1654 -2.4953 0.9691
7.3372 1.1537 -2.4954 0.9691
7.2056 1.8023 -2.4955 0.9691
6.3592 2.8654 -2.3434 0.9710
5.3771 4.4444 -2.3438 0.9710
4.9606 4.9056 -2.3440 0.9710
3.4890 6.0432 -2.3445 0.9710
1.1610 6.8831 -2.3453 0.9710
0.5438 6.9598 -2.3455 0.9710
-0.0778 6.9811 -2.3457 0.9710
-0.6989 6.9471 -2.3459 0.9710
-3.0803 6.2682 -2.3466 0.9710
-4.1434 5.6235 -2.3468 0.9710
-4.6277 5.2326 -2.3470 0.9710
-8.7611 6.9186 -3.7507 0.9540
-6.5644 3.5029 -2.4999 0.9691
-6.8502 2.9048 -2.4999 0.9691
-7.0817 2.2836 -2.5000 0.9691
-7.2569 1.6442 -2.5000 0.9691
-7.3744 0.9918 -2.5000 0.9691
-4.1559 0.1853 -1.3977 0.9826
-3.1639 -0.4255 -1.0726 0.9866
-3.1355 -0.7104 -1.0802 0.9865
-3.1417 -1.0131 -1.1091 0.9862
-6.5633 -3.5023 -2.4995 0.9691
-5.4038 -5.1109 -2.4990 0.9691
-3.2794 -6.6735 -2.4983 0.9691
-2.6722 -6.9383 -2.4981 0.9691
-2.0439 -7.1480 -2.4979 0.9691
1.2361 -7.3279 -2.4968 0.9691
3.1275 -6.7395 -2.4963 0.9691
3.7147 -6.4340 -2.4961 0.9691
4.2723 -6.0775 -2.4960 0.9691
4.7961 -5.6728 -2.4958 0.9691
5.7253 -4.7321 -2.4956 0.9691
6.7715 -3.0511 -2.4954 0.9691
7.0161 -2.4362 -2.4953 0.9691
7.2050 -1.8021 -2.4953 0.9691
7.3368 -1.1536 -2.4953 0.9691
7.3812 0.8258 -2.4954 0.9691
6.2254 3.1459 -2.3435 0.9710
5.5696 4.2003 -2.3438 0.9710
5.1740 4.6796 -2.3439 0.9710
4.2629 5.5236 -2.3442 0.9710
3.2165 6.1929 -2.3446 0.9710
2.6528 6.4551 -2.3448 0.9710
2.0679 6.6662 -2.3450 0.9710
0.8533 6.9284 -2.3454 0.9710
-1.0077 6.9093 -2.3459 0.9710
-1.6188 6.7927 -2.3461 0.9710
-3.3566 6.1250 -2.3466 0.9710
-3.8886 5.8023 -2.3468 0.9710
-4.8563 5.0214 -2.3470 0.9710
-8.4440 7.3019 -3.7507 0.9540
-6.4017 3.7918 -2.4998 0.9691
-6.7140 3.2070 -2.4999 0.9691
-7.1764 1.9659 -2.5000 0.9691
-7.4112 0.6623 -2.5000 0.9691
-3.0930 -0.2764 -1.1011 0.9869
-3.0442 -0.5484 -1.0968 0.9870
-3.0229 -0.8281 -1.1114 0.9868
-3.0314 -1.1289 -1.1470 0.9864
-6.0646 -3.5920 -2.4993 0.9705
-4.8992 -5.0657 -2.4989 0.9705
-4.4286 -5.4813 -2.4987 0.9705
-2.8225 -6.4551 -2.4982 0.9705
-1.6330 -6.8522 -2.4978 0.9705
-1.0165 -6.9698 -2.4976 0.9705
-0.3921 -7.0321 -2.4974 0.9706
1.4794 -6.8842 -2.4968 0.9706
2.0861 -6.7248 -2.4966 0.9706
2.6762 -6.5120 -2.4964 0.9706
3.7879 -5.9336 -2.4961 0.9706
4.7794 -5.1674 -2.4959 0.9706
5.9741 -3.7207 -2.4956 0.9706
6.5389 -2.6024 -2.4955 0.9706
6.7445 -2.0100 -2.4954 0.9706
6.8966 -1.4018 -2.4954 0.9706
6.9525 1.0933 -2.4956 0.9706
6.0258 2.7151 -2.3435 0.9723
5.0952 4.2113 -2.3439 0.9723
4.7004 4.6484 -2.3441 0.9723
3.8023 5.4089 -2.3444 0.9723
3.3060 5.7262 -2.3445 0.9723
1.1001 6.5220 -2.3453 0.9723
-0.0737 6.6148 -2.3456 0.9723
-0.6622 6.5825 -2.3458 0.9723
-1.2455 6.4979 -2.3460 0.9723
-1.8191 6.3617 -2.3462 0.9723
-2.9186 5.9392 -2.3465 0.9723
-3.4358 5.6562 -2.3466 0.9723
-3.9258 5.3282 -2.3468 0.9723
-4.3847 4.9579 -2.3469 0.9723
-6.2196 3.3190 -2.4998 0.9705
-6.4905 2.7522 -2.4998 0.9705
-6.7098 2.1637 -2.4998 0.9705
-6.8758 1.5579 -2.4999 0.9705
-6.9871 0.9397 -2.4999 0.9705
-3.9464 0.1760 -1.4007 0.9834
-3.0595 -0.4115 -1.0946 0.9870
-3.0191 -0.9735 -1.1248 0.9866
-5.8984 -3.8585 -2.4992 0.9705
-5.5312 -4.3679 -2.4991 0.9705
-4.1799 -5.6729 -2.4986 0.9705
-3.1073 -6.3232 -2.4982 0.9705
-2.5320 -6.5742 -2.4981 0.9705
-1.9367 -6.7729 -2.4979 0.9705
-1.3260 -6.9179 -2.4977 0.9705
1.7845 -6.8113 -2.4967 0.9706
4.0483 -5.7588 -2.4961 0.9706
5.0048 -4.9493 -2.4958 0.9706
5.4252 -4.4840 -2.4957 0.9706
7.0219 -0.4700 -2.4954 0.9706
6.9942 0.7825 -2.4955 0.9706
6.8970 1.4019 -2.4956 0.9706
10.1208 3.0163 -3.7447 0.9562
4.4888 4.8533 -2.3441 0.9723
4.0393 5.2339 -2.3443 0.9723
3.5577 5.5731 -2.3445 0.9723
2.5136 6.1165 -2.3448 0.9723
1.9594 6.3165 -2.3450 0.9723
1.2127 5.6435 -2.0468 0.9758
0.8085 6.5648 -2.3454 0.9723
-0.3683 6.6052 -2.3457 0.9723
-0.9548 6.5467 -2.3459 0.9723
-2.1007 6.2746 -2.3462 0.9723
-3.1803 5.8034 -2.3466 0.9723
-3.6845 5.4977 -2.3467 0.9723
-4.1594 5.1482 -2.3468 0.9723
-4.6013 4.7578 -2.3469 0.9723
-8.0007 6.9185 -3.7505 0.9561
-8.5850 6.1791 -3.7506 0.9561
-6.0656 3.5927 -2.4997 0.9705
-6.3614 3.0386 -2.4998 0.9705
-6.6067 2.4604 -2.4998 0.9705
-7.0221 0.6275 -2.4999 0.9705
-6.0396 -2.8849 -2.4993 0.9718
-5.7586 -3.4108 -2.4992 0.9718
-4.6521 -4.8102 -2.4988 0.9718
-4.2052 -5.2048 -2.4986 0.9718
-3.7250 -5.5581 -2.4985 0.9718
-3.2153 -5.8672 -2.4983 0.9718
-2.6802 -6.1296 -2.4981 0.9718
-2.1238 -6.3434 -2.4979 0.9718
-1.5506 -6.5068 -2.4978 0.9718
-0.9653 -6.6185 -2.4976 0.9718
2.5413 -6.1838 -2.4965 0.9719
3.0814 -5.9328 -2.4964 0.9719
4.9572 -4.4834 -2.4959 0.9719
5.3364 -4.0243 -2.4958 0.9719
5.6732 -3.5333 -2.4957 0.9719
6.4048 -1.9088 -2.4956 0.9719
6.6417 -0.7430 -2.4955 0.9719
6.6815 -0.1488 -2.4956 0.9719
6.6684 0.4464 -2.4956 0.9719
6.4839 1.6217 -2.4957 0.9719
9.4740 3.2897 -3.7449 0.9581
5.1749 3.5524 -2.3438 0.9736
4.8385 3.9991 -2.3440 0.9736
4.4636 4.4141 -2.3441 0.9736
3.6107 5.1363 -2.3444 0.9735
2.1259 5.9090 -2.3449 0.9735
-1.1827 6.1702 -2.3460 0.9735
-1.7273 6.0408 -2.3461 0.9735
-2.2583 5.8635 -2.3463 0.9735
-2.7714 5.6396 -2.3464 0.9735
-3.2625 5.3709 -2.3466 0.9735
-7.2967 6.9012 -3.7503 0.9580
-7.8823 6.2246 -3.7504 0.9580
-6.1630 2.6134 -2.4997 0.9718
-6.6346 0.8923 -2.4997 0.9718
-3.7910 0.1690 -1.4170 0.9839
-3.0832 -0.1375 -1.1525 0.9869
-2.9258 -0.6629 -1.1202 0.9873
-5.9050 -3.1510 -2.4993 0.9718
-5.2522 -4.1476 -2.4990 0.9718
-4.8619 -4.5984 -2.4989 0.9718
-3.9691 -5.3869 -2.4986 0.9718
-2.9507 -6.0044 -2.4982 0.9718
-1.2592 -6.5692 -2.4977 0.9718
-0.6695 -6.6546 -2.4975 0.9718
-0.0745 -6.6873 -2.4973 0.9718
0.5210 -6.6669 -2.4971 0.9719
1.1122 -6.5937 -2.4969 0.9719
2.8142 -6.0643 -2.4964 0.9719
3.3426 -5.7894 -2.4963 0.9719
3.8444 -5.4687 -2.4961 0.9719
4.3156 -5.1045 -2.4960 0.9719
5.5102 -3.7825 -2.4957 0.9719
6.0933 -2.7455 -2.4956 0.9719
6.3134 -2.1922 -2.4956 0.9719
6.4834 -1.6216 -2.4955 0.9719
6.6020 -1.0381 -2.4955 0.9719
6.5496 1.3313 -2.4957 0.9719
6.4053 1.9090 -2.4958 0.9719
9.3182 3.7086 -3.7450 0.9581
5.3279 3.3182 -2.3438 0.9736
5.0117 3.7795 -2.3439 0.9736
4.6556 4.2108 -2.3440 0.9736
4.2626 4.6087 -2.3442 0.9736
3.8358 4.9702 -2.3443 0.9735
3.3784 5.2922 -2.3445 0.9735
2.8942 5.5723 -2.3447 0.9735
2.3869 5.8082 -2.3448 0.9735
1.2099 5.6302 -2.1504 0.9757
0.2099 6.2779 -2.3455 0.9735
-0.3497 6.2721 -2.3457 0.9735
-1.4565 6.1116 -2.3460 0.9735
-1.9948 5.9581 -2.3462 0.9735
-2.5173 5.7573 -2.3463 0.9735
-3.0199 5.5107 -2.3465 0.9735
-7.5970 6.5695 -3.7504 0.9580
-5.4329 3.9104 -2.4995 0.9718
-5.7595 3.4114 -2.4996 0.9718
-6.2734 2.3363 -2.4997 0.9718
-3.2641 0.0000 -1.2811 0.9861
-2.9005 -0.2592 -1.1429 0.9876
-2.8313 -0.7756 -1.1521 0.9875
-5.7461 -2.7447 -2.4993 0.9730
-5.4788 -3.2451 -2.4992 0.9730
-4.8161 -4.1646 -2.4989 0.9730
-4.4261 -4.5765 -2.4988 0.9730
-4.0009 -4.9520 -2.4986 0.9730
-2.5500 -5.8319 -2.4981 0.9730
-2.0206 -6.0353 -2.4979 0.9730
-1.4753 -6.1908 -2.4977 0.9730
-0.3542 -6.3534 -2.4974 0.9730
0.7777 -6.3146 -2.4970 0.9730
1.8848 -6.0759 -2.4967 0.9730
2.4179 -5.8837 -2.4966 0.9730
2.9319 -5.6448 -2.4964 0.9730
3.4224 -5.3612 -2.4963 0.9730
3.8858 -5.0350 -2.4962 0.9730
4.3184 -4.6689 -2.4960 0.9730
4.7166 -4.2659 -2.4959 0.9730
5.0774 -3.8290 -2.4959 0.9730
5.3979 -3.3618 -2.4958 0.9730
5.6755 -2.8680 -2.4957 0.9730
6.0940 -1.8162 -2.4957 0.9730
6.3194 -0.7069 -2.4957 0.9730
6.3573 -0.1416 -2.4957 0.9730
6.3448 0.4248 -2.4957 0.9730
6.2819 0.9878 -2.4958 0.9730
6.1692 1.5430 -2.4958 0.9730
8.7002 3.9201 -3.7452 0.9598
4.9237 3.3800 -2.3439 0.9747
4.6036 3.8050 -2.3440 0.9747
4.2469 4.1999 -2.3442 0.9747
3.8565 4.5615 -2.3443 0.9747
2.0226 5.6221 -2.3449 0.9747
0.4656 5.9579 -2.3454 0.9746
-0.5983 5.9469 -2.3458 0.9746
-1.1253 5.8704 -2.3459 0.9746
-1.6434 5.7474 -2.3461 0.9746
-2.1486 5.5787 -2.3462 0.9746
-2.6367 5.3656 -2.3464 0.9746
-3.5467 4.8136 -2.3466 0.9746
-3.9612 4.4790 -2.3467 0.9746
-5.3295 3.4864 -2.4995 0.9730
-5.8635 2.4864 -2.4996 0.9730
-6.2115 1.4074 -2.4996 0.9730
-3.6456 0.1626 -1.4322 0.9844
-3.0071 -0.1341 -1.1814 0.9871
-2.8734 -0.3864 -1.1379 0.9876
-2.8326 -0.6418 -1.1399 0.9876
-5.6181 -2.9979 -2.4992 0.9730
-5.3287 -3.4858 -2.4991 0.9730
-3.7762 -5.1252 -2.4985 0.9730
-1.7497 -6.1191 -2.4978 0.9730
-1.1980 -6.2501 -2.4977 0.9730
0.4957 -6.3432 -2.4971 0.9730
1.0582 -6.2735 -2.4970 0.9730
1.6123 -6.1540 -2.4968 0.9730
2.1535 -5.9857 -2.4966 0.9730
2.6776 -5.7699 -2.4965 0.9730
3.1803 -5.5084 -2.4963 0.9730
3.6578 -5.2032 -2.4962 0.9730
4.9019 -4.0515 -2.4959 0.9730
5.5422 -3.1179 -2.4958 0.9730
5.7976 -2.6122 -2.4957 0.9730
6.3573 0.1417 -2.4957 0.9730
6.3196 0.7070 -2.4957 0.9730
6.2318 1.2667 -2.4958 0.9730
8.8660 3.5286 -3.7451 0.9598
8.5171 4.3039 -3.7453 0.9598
5.0693 3.1572 -2.3439 0.9747
4.7684 3.5961 -2.3440 0.9747
4.0557 4.3850 -2.3442 0.9747
2.7537 5.3017 -2.3447 0.9747
2.2710 5.5262 -2.3449 0.9747
-1.3857 5.8147 -2.3460 0.9746
-2.3950 5.4776 -2.3463 0.9746
-2.8732 5.2430 -2.3464 0.9746
-3.7576 4.6509 -2.3467 0.9746
-6.6426 6.8684 -3.7501 0.9598
-7.2278 6.2502 -3.7502 0.9598
-5.1688 3.7204 -2.4995 0.9730
-5.7469 2.7451 -2.4996 0.9730
-5.9685 2.2227 -2.4996 0.9730
-3.1614 -0.0000 -1.3018 0.9864
-2.8130 -0.2514 -1.1629 0.9879
-2.7695 -0.7587 -1.1825 0.9877
-2.7842 -1.0368 -1.2234 0.9872
-5.4765 -2.6159 -2.4992 0.9741
-4.5902 -3.9693 -2.4988 0.9741
-4.2184 -4.3618 -2.4987 0.9741
-3.8132 -4.7196 -2.4986 0.9741
-3.3778 -5.0400 -2.4984 0.9741
-2.4304 -5.5584 -2.4981 0.9741
-1.9259 -5.7523 -2.4979 0.9741
-1.4061 -5.9004 -2.4977 0.9741
0.2027 -6.0611 -2.4972 0.9741
1.2739 -5.9283 -2.4969 0.9741
1.7964 -5.7911 -2.4968 0.9741
2.7944 -5.3802 -2.4965 0.9741
3.7037 -4.7990 -2.4962 0.9741
4.1160 -4.4501 -2.4961 0.9741
4.4956 -4.0660 -2.4960 0.9741
4.8394 -3.6496 -2.4959 0.9741
5.1449 -3.2043 -2.4959 0.9741
5.6313 -2.2412 -2.4958 0.9741
5.8084 -1.7310 -2.4958 0.9741
5.9394 -1.2072 -2.4957 0.9741
6.0594 -0.1350 -2.4958 0.9741
5.9875 0.9415 -2.4958 0.9741
5.8801 1.4707 -2.4959 0.9741
7.9273 4.4598 -3.7454 0.9614
4.3878 3.6267 -2.3441 0.9757
4.0478 4.0030 -2.3442 0.9757
2.3969 5.1653 -2.3448 0.9757
0.9473 5.6161 -2.3453 0.9757
-0.5702 5.6680 -2.3457 0.9757
-1.5663 5.4778 -2.3460 0.9757
-2.5130 5.1139 -2.3463 0.9757
-3.3802 4.5877 -2.3465 0.9757
-6.0329 6.8215 -3.7499 0.9614
-4.7634 3.7616 -2.4993 0.9741
-5.5883 2.3697 -2.4995 0.9741
-5.7771 1.8629 -2.4995 0.9741
-5.9200 1.3413 -2.4995 0.9741
-2.9337 -0.1308 -1.2093 0.9874
-2.7755 -0.6289 -1.1719 0.9878
-5.3544 -2.8572 -2.4991 0.9741
-5.0787 -3.3223 -2.4990 0.9741
-4.4087 -4.1697 -2.4988 0.9741
-3.1499 -5.1854 -2.4983 0.9741
-2.6756 -5.4448 -2.4982 0.9741
-1.1419 -5.9570 -2.4977 0.9741
-0.6071 -6.0346 -2.4975 0.9741
-0.0675 -6.0643 -2.4973 0.9741
0.4724 -6.0458 -2.4972 0.9741
1.0086 -5.9794 -2.4970 0.9741
1.5367 -5.8655 -2.4968 0.9741
2.5521 -5.4995 -2.4965 0.9741
3.0312 -5.2502 -2.4964 0.9741
3.9137 -4.6291 -2.4962 0.9741
5.2825 -2.9718 -2.4958 0.9741
5.5259 -2.4899 -2.4958 0.9741
5.7256 -1.9881 -2.4958 0.9741
5.8797 -1.4706 -2.4957 0.9741
5.9873 -0.9414 -2.4957 0.9741
6.0473 -0.4048 -2.4958 0.9741
5.9397 1.2073 -2.4959 0.9741
5.8089 1.7313 -2.4959 0.9741
8.1179 4.1022 -3.7454 0.9614
4.8317 3.0093 -2.3439 0.9757
4.5449 3.4275 -2.3440 0.9757
3.4785 4.5072 -2.3444 0.9757
3.0637 4.7992 -2.3446 0.9757
2.6246 5.0532 -2.3447 0.9757
2.1645 5.2671 -2.3449 0.9757
1.6873 5.4392 -2.3450 0.9757
0.6962 5.6529 -2.3453 0.9757
0.1903 5.6929 -2.3455 0.9757
-0.3171 5.6876 -2.3457 0.9757
-1.8088 5.4028 -2.3461 0.9757
-3.1724 4.7337 -2.3465 0.9757
-6.3309 6.5461 -3.7500 0.9614
-6.8887 5.9569 -3.7501 0.9614
-5.2225 3.0933 -2.4994 0.9741
-5.6884 2.1184 -2.4995 0.9741
-5.9739 1.0763 -2.4996 0.9741
-3.0794 0.0000 -1.3283 0.9867
-2.7278 -0.4914 -1.1956 0.9880
-2.7092 -0.7421 -1.2117 0.9878
-2.7299 -1.3040 -1.3050 0.9869
-4.7018 -3.3841 -2.4989 0.9751
-4.3818 -3.7890 -2.4988 0.9751
-3.6401 -4.5054 -2.4985 0.9751
-1.8384 -5.4912 -2.4979 0.9751
0.7076 -5.7455 -2.4971 0.9751
1.2161 -5.6594 -2.4969 0.9751
1.7149 -5.5283 -2.4968 0.9751
3.9293 -4.2483 -2.4962 0.9751
4.6200 -3.4840 -2.4960 0.9751
4.9116 -3.0589 -2.4960 0.9751
5.1643 -2.6096 -2.4959 0.9751
5.5450 -1.6526 -2.4958 0.9751
5.6700 -1.1525 -2.4958 0.9751
5.7501 -0.6432 -2.4958 0.9751
5.7160 0.8988 -2.4959 0.9751
7.9164 3.5669 -3.7454 0.9629
4.1888 3.4622 -2.3441 0.9766
3.8642 3.8214 -2.3443 0.9766
3.5089 4.1504 -2.3444 0.9766
2.2882 4.9309 -2.3448 0.9766
0.9043 5.3612 -2.3453 0.9766
-1.0238 5.3411 -2.3459 0.9766
-1.4952 5.2291 -2.3460 0.9766
-3.2268 4.3794 -2.3465 0.9766
-5.7590 6.5117 -3.7498 0.9628
-6.3159 5.9735 -3.7499 0.9628
-5.5147 1.7783 -2.4994 0.9751
-5.7427 0.7723 -2.4995 0.9751
-3.3811 0.1508 -1.4599 0.9854
-2.7402 -0.3685 -1.1926 0.9880
-5.1113 -2.7274 -2.4991 0.9751
-3.0069 -4.9500 -2.4983 0.9751
-1.5920 -5.5674 -2.4978 0.9751
-1.0900 -5.6867 -2.4977 0.9751
-0.0645 -5.7891 -2.4973 0.9751
1.4670 -5.5994 -2.4969 0.9751
1.9594 -5.4463 -2.4967 0.9751
4.4602 -3.6864 -2.4961 0.9751
4.7705 -3.2747 -2.4960 0.9751
5.6131 -1.4039 -2.4958 0.9751
5.7158 -0.8987 -2.4958 0.9751
5.7846 0.1289 -2.4959 0.9751
5.7503 0.6433 -2.4959 0.9751
5.6703 1.1526 -2.4960 0.9751
5.5454 1.6527 -2.4960 0.9751
7.3707 4.5905 -3.7456 0.9629
4.0305 3.6454 -2.3442 0.9766
3.3207 4.3027 -2.3445 0.9766
2.9247 4.5815 -2.3446 0.9766
2.5055 4.8239 -2.3447 0.9766
0.1817 5.4345 -2.3455 0.9766
-0.3027 5.4294 -2.3456 0.9766
-1.7267 5.1575 -2.3461 0.9766
-2.1790 4.9836 -2.3462 0.9766
-4.7026 3.3847 -2.4993 0.9751
-4.9853 2.9528 -2.4994 0.9751
-5.4300 2.0222 -2.4994 0.9751
-2.9980 0.0000 -1.3528 0.9869
-2.7005 -0.2413 -1.2234 0.9882
-2.6738 -0.4817 -1.2259 0.9881
-2.6546 -0.7272 -1.2419 0.9880
-2.6607 -0.9908 -1.2811 0.9876
-2.6867 -1.5913 -1.4090 0.9864
-4.1888 -3.6222 -2.4987 0.9760
-3.8496 -3.9804 -2.4986 0.9760
-3.4799 -4.3070 -2.4985 0.9760
-3.0825 -4.5994 -2.4983 0.9760
-2.6608 -4.8553 -2.4982 0.9760
0.6765 -5.4926 -2.4971 0.9760
1.6395 -5.2851 -2.4968 0.9760
2.1033 -5.1179 -2.4967 0.9760
2.9771 -4.6635 -2.4965 0.9760
3.3802 -4.3798 -2.4964 0.9760
3.7564 -4.0614 -2.4963 0.9760
4.1029 -3.7108 -2.4962 0.9760
4.6956 -2.9244 -2.4960 0.9760
4.9371 -2.4948 -2.4960 0.9760
5.1395 -2.0454 -2.4959 0.9760
5.3011 -1.5799 -2.4959 0.9760
5.4972 -0.6149 -2.4959 0.9760
5.5302 -0.1232 -2.4959 0.9760
5.5193 0.3695 -2.4960 0.9760
5.4646 0.8593 -2.4960 0.9760
5.3665 1.3423 -2.4961 0.9760
5.2259 1.8147 -2.4961 0.9760
7.2348 4.0703 -3.7456 0.9642
2.9883 4.2509 -2.3446 0.9775
2.1875 4.7139 -2.3448 0.9775
1.3172 5.0277 -2.3451 0.9775
0.8645 5.1253 -2.3453 0.9774
-0.0579 5.1980 -2.3456 0.9774
-1.8687 4.8521 -2.3461 0.9774
-2.2933 4.6667 -2.3462 0.9774
-2.6997 4.4443 -2.3463 0.9774
-4.9292 6.6900 -3.7495 0.9642
-4.0239 3.8058 -2.4991 0.9760
-4.3468 3.4327 -2.4992 0.9760
-5.0996 2.1625 -2.4993 0.9760
-2.6870 -0.3614 -1.2234 0.9882
-2.6659 -0.6040 -1.2334 0.9881
-2.6574 -0.8569 -1.2599 0.9878
-4.3461 -3.4321 -2.4988 0.9760
-4.0232 -3.8051 -2.4987 0.9760
-2.8745 -4.7321 -2.4983 0.9760
-2.4418 -4.9688 -2.4981 0.9760
-1.9897 -5.1661 -2.4980 0.9760
-0.5540 -5.5072 -2.4975 0.9760
-0.0616 -5.5343 -2.4973 0.9760
0.4312 -5.5175 -2.4972 0.9760
2.3291 -5.0190 -2.4966 0.9760
2.7664 -4.7915 -2.4965 0.9760
3.5719 -4.2248 -2.4963 0.9760
3.9336 -3.8900 -2.4962 0.9760
4.2640 -3.5243 -2.4961 0.9760
4.8211 -2.7123 -2.4960 0.9760
5.2255 -1.8145 -2.4959 0.9760
5.3662 -1.3421 -2.4959 0.9760
5.5192 -0.3694 -2.4959 0.9760
5.5302 0.1233 -2.4959 0.9760
5.4974 0.6150 -2.4960 0.9760
5.4209 1.1019 -2.4960 0.9760
7.4088 3.7438 -3.7456 0.9642
7.0465 4.3886 -3.7457 0.9642
4.1479 3.1281 -2.3441 0.9775
3.5279 3.8143 -2.3444 0.9775
2.7960 4.3799 -2.3446 0.9775
2.3952 4.6116 -2.3448 0.9775
1.9754 4.8068 -2.3449 0.9775
1.5398 4.9638 -2.3450 0.9775
1.0919 5.0815 -2.3452 0.9774
0.6354 5.1588 -2.3453 0.9774
0.1737 5.1953 -2.3455 0.9774
-0.2894 5.1904 -2.3456 0.9774
-1.2052 5.0575 -2.3459 0.9774
-2.4990 4.5601 -2.3463 0.9774
-4.1895 3.6229 -2.4991 0.9760
-5.1909 1.9331 -2.4994 0.9760
-5.3424 1.4635 -2.4994 0.9760
-2.6448 -0.2363 -1.2517 0.9883
-2.6023 -0.9691 -1.3090 0.9878
-2.6052 -1.2444 -1.3609 0.9873
-4.3025 -3.0967 -2.4988 0.9768
-3.6849 -3.8102 -2.4986 0.9768
-2.9507 -4.4027 -2.4983 0.9768
-2.5469 -4.6476 -2.4982 0.9768
-1.6824 -5.0249 -2.4979 0.9768
-0.7647 -5.2430 -2.4976 0.9768
0.1771 -5.2949 -2.4973 0.9768
0.6476 -5.2578 -2.4971 0.9768
1.1129 -5.1790 -2.4970 0.9768
1.5694 -5.0591 -2.4969 0.9768
2.0133 -4.8991 -2.4967 0.9768
2.4413 -4.7002 -2.4966 0.9769
2.8498 -4.4641 -2.4965 0.9769
3.5959 -3.8878 -2.4963 0.9769
4.2280 -3.1884 -2.4962 0.9769
4.4949 -2.7994 -2.4961 0.9769
4.7261 -2.3882 -2.4960 0.9769
4.9198 -1.9580 -2.4960 0.9769
5.0745 -1.5123 -2.4960 0.9769
5.1890 -1.0547 -2.4960 0.9769
5.2623 -0.5887 -2.4960 0.9769
5.2938 -0.1179 -2.4960 0.9769
5.2310 0.8226 -2.4961 0.9769
5.0025 1.7371 -2.4962 0.9769
4.8282 2.1755 -2.4963 0.9769
3.8333 3.1684 -2.3442 0.9782
3.5363 3.4971 -2.3443 0.9782
1.6841 4.6811 -2.3450 0.9782
0.8276 4.9061 -2.3453 0.9782
-0.0554 4.9757 -2.3455 0.9782
-0.9368 4.8876 -2.3458 0.9782
-5.2698 5.9586 -3.7496 0.9654
-3.8517 3.6429 -2.4990 0.9768
-4.1608 3.2858 -2.4991 0.9768
-4.4368 2.9025 -2.4992 0.9768
-4.6777 2.4961 -2.4992 0.9768
-5.0462 1.6272 -2.4993 0.9768
-5.1711 1.1716 -2.4993 0.9768
-2.6352 -0.3544 -1.2533 0.9883
-2.6131 -0.5921 -1.2630 0.9882
-2.5994 -0.8382 -1.2874 0.9880
-2.6038 -1.1041 -1.3332 0.9876
-2.5902 -1.3822 -1.3839 0.9871
-4.4363 -2.9020 -2.4989 0.9768
-3.8511 -3.6423 -2.4986 0.9768
-2.7515 -4.5296 -2.4982 0.9768
-2.3373 -4.7563 -2.4981 0.9768
-1.9046 -4.9452 -2.4980 0.9768
-1.4568 -5.0947 -2.4978 0.9768
-0.9975 -5.2039 -2.4977 0.9768
-0.5303 -5.2717 -2.4975 0.9768
1.3425 -5.1241 -2.4969 0.9768
1.7931 -4.9841 -2.4968 0.9768
2.2295 -4.8045 -2.4967 0.9769
2.6482 -4.5867 -2.4966 0.9769
3.0458 -4.3326 -2.4965 0.9769
3.4192 -4.0442 -2.4964 0.9769
4.6151 -2.5964 -2.4961 0.9769
4.8278 -2.1753 -2.4960 0.9769
5.1369 -1.2848 -2.4960 0.9769
5.2308 -0.8225 -2.4960 0.9769
5.2833 -0.3536 -2.4960 0.9769
5.2624 0.5887 -2.4961 0.9769
5.1892 1.0548 -2.4961 0.9769
5.0749 1.5125 -2.4962 0.9769
2.6765 4.1927 -2.3447 0.9782
2.2928 4.4144 -2.3448 0.9782
1.0452 4.8642 -2.3452 0.9782
0.6082 4.9382 -2.3453 0.9782
-0.7182 4.9243 -2.3457 0.9782
-1.1537 4.8411 -2.3459 0.9782
-1.9940 4.5603 -2.3461 0.9782
-4.3031 3.0972 -2.4991 0.9768
-4.5618 2.7020 -2.4992 0.9768
-4.9687 1.8504 -2.4993 0.9768
-5.1137 1.4008 -2.4993 0.9768
-5.2181 0.9401 -2.4993 0.9768
-3.7077 0.3313 -1.7547 0.9837
-2.8279 -0.0000 -1.3909 0.9875
-2.5903 -0.2315 -1.2791 0.9885
-2.5499 -0.6985 -1.3004 0.9883
-2.5453 -0.9479 -1.3359 0.9880
-2.5457 -1.2160 -1.3876 0.9875
-4.3712 -2.5891 -2.4988 0.9776
-3.5314 -3.6515 -2.4985 0.9776
-2.8278 -4.2193 -2.4983 0.9776
-2.4409 -4.4540 -2.4981 0.9776
-2.0346 -4.6534 -2.4980 0.9776
-1.6123 -4.8157 -2.4979 0.9776
0.6206 -5.0389 -2.4972 0.9776
1.9296 -4.6952 -2.4968 0.9776
3.1010 -4.0181 -2.4965 0.9776
3.7641 -3.4044 -2.4963 0.9776
4.3078 -2.6829 -2.4962 0.9776
4.5295 -2.2888 -2.4961 0.9776
4.7151 -1.8766 -2.4961 0.9776
4.9731 -1.0108 -2.4960 0.9776
5.0736 -0.1130 -2.4961 0.9776
5.0134 0.7883 -2.4961 0.9776
4.9234 1.2314 -2.4962 0.9776
4.6273 2.0850 -2.4963 0.9776
6.6374 3.7341 -3.7458 0.9666
6.2789 4.3103 -3.7459 0.9666
2.7414 3.8998 -2.3446 0.9790
2.3836 4.1285 -2.3447 0.9790
0.7931 4.7018 -2.3453 0.9790
0.3715 4.7540 -2.3454 0.9790
-0.4773 4.7451 -2.3457 0.9790
-0.8978 4.6840 -2.3458 0.9790
-1.7143 4.4511 -2.3460 0.9790
-2.1037 4.2810 -2.3461 0.9790
-3.9875 3.1489 -2.4991 0.9776
-4.4828 2.3921 -2.4992 0.9776
-4.6780 1.9837 -2.4992 0.9776
-4.9556 1.1228 -2.4992 0.9776
-5.0359 0.6773 -2.4992 0.9776
-3.0630 0.1366 -1.5081 0.9864
-2.6467 -0.1180 -1.3031 0.9883
-2.5845 -0.3476 -1.2826 0.9884
-2.5430 -0.8200 -1.3142 0.9882
-2.5441 -1.0788 -1.3592 0.9878
-2.5301 -1.3501 -1.4105 0.9873
-4.2515 -2.7812 -2.4988 0.9776
-3.6907 -3.4906 -2.4986 0.9776
-3.3652 -3.8051 -2.4985 0.9776
-3.0130 -4.0893 -2.4983 0.9776
-1.8253 -4.7392 -2.4979 0.9776
-0.9560 -4.9872 -2.4977 0.9776
-0.5083 -5.0522 -2.4975 0.9776
0.3956 -5.0617 -2.4972 0.9776
0.8444 -5.0062 -2.4971 0.9776
1.2866 -4.9109 -2.4970 0.9776
3.2769 -3.8759 -2.4964 0.9776
3.9119 -3.2333 -2.4963 0.9776
4.4230 -2.4883 -2.4961 0.9776
4.6269 -2.0848 -2.4961 0.9776
4.7940 -1.6646 -2.4961 0.9776
4.8637 1.4496 -2.4962 0.9776
6.0808 4.5858 -3.7460 0.9666
3.2365 3.4993 -2.3444 0.9790
2.9124 3.7737 -2.3446 0.9790
2.5651 4.0181 -2.3447 0.9790
1.8122 4.4097 -2.3449 0.9790
1.0017 4.6617 -2.3452 0.9790
0.5829 4.7326 -2.3453 0.9790
-0.2655 4.7615 -2.3456 0.9790
-0.6883 4.7193 -2.3457 0.9790
-1.1056 4.6395 -2.3458 0.9790
-1.9109 4.3704 -2.3461 0.9790
-4.7908 5.9296 -3.7495 0.9666
-3.8432 3.3234 -2.4990 0.9776
-4.1238 2.9682 -2.4991 0.9776
-5.0007 0.9010 -2.4992 0.9776
-2.5372 -0.2267 -1.3059 0.9886
-2.5198 -0.4540 -1.3127 0.9886
-2.4994 -0.6847 -1.3286 0.9884
-3.9558 -2.8472 -2.4987 0.9783
-3.3880 -3.5031 -2.4985 0.9783
-3.0626 -3.7906 -2.4984 0.9783
-2.3418 -4.2731 -2.4981 0.9783
-1.9520 -4.4644 -2.4980 0.9783
-1.1294 -4.7392 -2.4977 0.9783
-0.7031 -4.8207 -2.4976 0.9783
-0.2712 -4.8639 -2.4975 0.9783
0.1628 -4.8685 -2.4973 0.9783
0.5954 -4.8344 -2.4972 0.9783
1.0233 -4.7620 -2.4971 0.9783
2.9752 -3.8550 -2.4965 0.9783
3.3064 -3.5748 -2.4964 0.9783
3.6113 -3.2662 -2.4963 0.9784
3.8876 -2.9317 -2.4963 0.9784
4.3457 -2.1960 -2.4962 0.9784
4.6661 -1.3906 -2.4961 0.9784
4.7713 -0.9698 -2.4961 0.9784
4.8387 -0.5413 -2.4961 0.9784
4.8677 -0.1084 -2.4961 0.9784
4.8581 0.3253 -2.4962 0.9784
4.7236 1.1815 -2.4963 0.9784
6.3681 3.5826 -3.7459 0.9677
6.0241 4.1353 -3.7460 0.9677
3.2515 3.2155 -2.3444 0.9797
2.9526 3.4923 -2.3445 0.9797
2.6302 3.7415 -2.3446 0.9797
2.2868 3.9609 -2.3448 0.9797
1.9253 4.1489 -2.3449 0.9797
1.5485 4.3041 -2.3450 0.9796
0.7609 4.5109 -2.3453 0.9796
0.3564 4.5610 -2.3454 0.9796
-0.0510 4.5748 -2.3455 0.9796
-0.8614 4.4938 -2.3458 0.9796
-1.2580 4.3995 -2.3459 0.9796
-1.6446 4.2703 -2.3460 0.9796
-2.0183 4.1071 -2.3461 0.9796
-3.7967 6.2502 -3.7492 0.9677
-4.3381 5.8878 -3.7493 0.9677
-3.2290 3.6512 -2.4988 0.9783
-3.5413 3.3494 -2.4989 0.9783
-3.8255 3.0210 -2.4990 0.9783
-4.3007 2.2950 -2.4991 0.9783
-4.4879 1.9030 -2.4991 0.9783
-2.9775 0.1328 -1.5280 0.9867
-2.5350 -0.3409 -1.3113 0.9886
-2.5113 -0.5690 -1.3201 0.9885
-2.4879 -1.0550 -1.3854 0.9879
-2.4717 -1.3189 -1.4363 0.9875
-3.2285 -3.6505 -2.4984 0.9783
-2.8907 -3.9232 -2.4983 0.9783
-2.5299 -4.1647 -2.4982 0.9783
-2.1490 -4.3731 -2.4981 0.9783
-1.7512 -4.5468 -2.4979 0.9783
-1.3394 -4.6844 -2.4978 0.9783
-0.9171 -4.7847 -2.4977 0.9783
-0.4876 -4.8471 -2.4975 0.9783
1.2344 -4.7115 -2.4970 0.9783
2.0500 -4.4176 -2.4968 0.9783
2.4350 -4.2175 -2.4967 0.9783
3.1439 -3.7186 -2.4965 0.9783
4.0143 -2.7556 -2.4962 0.9784
4.5995 -1.5971 -2.4961 0.9784
4.7234 -1.1813 -2.4961 0.9784
4.8580 -0.3252 -2.4961 0.9784
4.8388 0.5413 -2.4962 0.9784
4.7715 0.9699 -2.4962 0.9784
4.6664 1.3907 -2.4963 0.9784
4.3461 2.1962 -2.4964 0.9783
5.8340 4.3996 -3.7461 0.9677
5.4195 4.9016 -3.7462 0.9677
3.1052 3.3573 -2.3445 0.9797
2.7941 3.6205 -2.3446 0.9797
2.4609 3.8550 -2.3447 0.9797
2.1082 4.0589 -2.3448 0.9797
0.9611 4.4725 -2.3452 0.9796
0.5592 4.5404 -2.3453 0.9796
-0.2547 4.5682 -2.3456 0.9796
-0.6603 4.5276 -2.3457 0.9796
-1.4528 4.3392 -2.3459 0.9796
-3.5144 6.4130 -3.7491 0.9677
-4.0714 6.0750 -3.7492 0.9677
-4.5962 5.6887 -3.7494 0.9677
-3.3885 3.5037 -2.4989 0.9783
-3.6871 3.1884 -2.4990 0.9783
-3.9563 2.8476 -2.4990 0.9783
-4.1941 2.4842 -2.4991 0.9783
-4.3987 2.1011 -2.4991 0.9783
-4.5683 1.7013 -2.4992 0.9783
-4.7016 1.2879 -2.4992 0.9783
-4.7976 0.8644 -2.4992 0.9783
-3.5463 0.3169 -1.8254 0.9841
-2.6714 0.0000 -1.4261 0.9880
-2.4853 -0.2221 -1.3321 0.9887
-2.4501 -0.6712 -1.3561 0.9885
-2.4292 -1.1603 -1.4371 0.9879
-3.5402 -3.0613 -2.4986 0.9790
-3.2536 -3.3642 -2.4985 0.9790
-1.8746 -4.2873 -2.4980 0.9790
-1.4855 -4.4369 -2.4979 0.9790
-1.0846 -4.5512 -2.4977 0.9790
-0.6752 -4.6295 -2.4976 0.9790
0.5718 -4.6427 -2.4972 0.9790
0.9827 -4.5731 -2.4971 0.9790
3.7335 -2.8155 -2.4963 0.9790
4.3445 -1.7290 -2.4962 0.9790
4.6469 -0.5198 -2.4962 0.9790
4.6747 -0.1042 -2.4962 0.9790
4.5364 1.1346 -2.4963 0.9790
4.0758 2.2930 -2.4965 0.9790
4.9899 4.9346 -3.7464 0.9687
2.8355 3.3539 -2.3446 0.9803
2.1961 3.8038 -2.3448 0.9803
1.8490 3.9844 -2.3449 0.9803
1.4871 4.1334 -2.3450 0.9803
1.1133 4.2495 -2.3451 0.9803
0.7307 4.3320 -2.3453 0.9803
-0.4398 4.3718 -2.3456 0.9803
-0.8272 4.3155 -2.3457 0.9803
-1.2081 4.2250 -2.3459 0.9803
-1.5794 4.1009 -2.3460 0.9803
-3.0972 6.3027 -3.7490 0.9687
-3.1009 3.5063 -2.4988 0.9790
-3.4008 3.2165 -2.4989 0.9790
-4.3098 1.8276 -2.4991 0.9790
-4.5656 1.0345 -2.4991 0.9790
-4.6396 0.6240 -2.4991 0.9790
-2.8952 0.1291 -1.5471 0.9869
-2.4353 -0.7853 -1.3660 0.9885
-2.4322 -1.5911 -1.5516 0.9869
-3.1004 -3.5057 -2.4984 0.9790
-2.7760 -3.7676 -2.4983 0.9790
-2.4295 -3.9995 -2.4982 0.9790
-1.6817 -4.3664 -2.4979 0.9790
-1.2863 -4.4986 -2.4978 0.9790
-0.8808 -4.5949 -2.4977 0.9790
0.3644 -4.6637 -2.4973 0.9790
1.9687 -4.2425 -2.4968 0.9790
2.6895 -3.8258 -2.4966 0.9790
3.3250 -3.2882 -2.4964 0.9790
3.8552 -2.6464 -2.4963 0.9790
4.0753 -2.2927 -2.4963 0.9790
4.4172 -1.5338 -2.4962 0.9790
4.5361 -1.1345 -2.4962 0.9790
4.6654 -0.3123 -2.4962 0.9790
4.6748 0.1042 -2.4962 0.9790
4.5824 0.9314 -2.4963 0.9790
4.4814 1.3356 -2.4963 0.9790
4.1738 2.1091 -2.4965 0.9790
5.9563 3.7096 -3.7460 0.9687
5.6027 4.2252 -3.7462 0.9687
5.2046 4.7073 -3.7463 0.9687
2.6834 3.4770 -2.3446 0.9803
2.3633 3.7021 -2.3447 0.9803
1.6697 4.0629 -2.3450 0.9803
0.9229 4.2950 -2.3452 0.9803
0.5370 4.3604 -2.3453 0.9803
-0.2446 4.3870 -2.3456 0.9803
-2.8133 6.4343 -3.7489 0.9687
-4.4138 5.4630 -3.7493 0.9687
-3.2541 3.3647 -2.4988 0.9790
-3.5407 3.0618 -2.4989 0.9790
-3.7993 2.7346 -2.4990 0.9790
-4.2241 2.0177 -2.4991 0.9790
-4.3870 1.6338 -2.4991 0.9790
-3.5314 0.3156 -1.8927 0.9841
-2.5975 -0.0000 -1.4427 0.9882
-2.4243 -0.4368 -1.3681 0.9888
-2.3823 -0.8872 -1.4119 0.9884
-2.3733 -1.1337 -1.4608 0.9880
-2.3176 -1.3727 -1.4960 0.9878
-3.6514 -2.6281 -2.4986 0.9796
-2.8269 -3.4989 -2.4983 0.9796
-1.4278 -4.2647 -2.4978 0.9796
-0.2503 -4.4897 -2.4975 0.9796
0.1503 -4.4940 -2.4973 0.9796
0.5496 -4.4625 -2.4972 0.9796
1.3320 -4.2940 -2.4970 0.9796
1.7089 -4.1582 -2.4969 0.9796
3.5887 -2.7063 -2.4964 0.9796
3.8153 -2.3761 -2.4963 0.9796
4.3073 -1.2837 -2.4962 0.9796
4.4045 -0.8952 -2.4962 0.9796
4.4934 -0.1001 -2.4962 0.9796
4.0982 1.8466 -2.4965 0.9796
4.7963 4.7432 -3.7464 0.9696
4.3553 5.1515 -3.7466 0.9696
0.3290 4.2101 -2.3454 0.9809
-0.4227 4.2021 -2.3456 0.9809
-0.7951 4.1480 -2.3457 0.9809
-1.1612 4.0610 -2.3458 0.9809
-2.9770 6.0581 -3.7489 0.9696
-4.0043 5.4346 -3.7492 0.9696
-2.9805 3.3702 -2.4988 0.9796
-3.5310 2.7885 -2.4989 0.9796
-4.1425 1.7566 -2.4990 0.9796
-4.3884 0.9943 -2.4991 0.9796
-2.5020 0.1116 -1.3910 0.9886
-2.4745 -0.1104 -1.3757 0.9887
-2.4351 -0.3275 -1.3646 0.9888
-2.4139 -0.5469 -1.3747 0.9887
-2.3793 -1.0089 -1.4353 0.9882
-2.2661 -1.4824 -1.5039 0.9877
-3.2683 -3.0911 -2.4985 0.9796
-2.9801 -3.3696 -2.4984 0.9796
-2.3352 -3.8443 -2.4981 0.9796
-1.9837 -4.0367 -2.4980 0.9796
-1.6164 -4.1970 -2.4979 0.9796
-0.4501 -4.4743 -2.4975 0.9796
-0.0501 -4.4963 -2.4974 0.9796
0.3503 -4.4827 -2.4973 0.9796
1.1394 -4.3491 -2.4970 0.9796
1.5220 -4.2303 -2.4969 0.9796
