ply
format ascii 1.0
element vertex 1589
property float32 x
property float32 y
property float32 z
property float32 I
end_header
10.0996 -9.9877 -2.5046 0.9439
11.7128 -8.0403 -2.5051 0.9439
12.3828 -6.9664 -2.5053 0.9439
13.4232 -4.6610 -2.5055 0.9439
13.7850 -3.4478 -2.5056 0.9439
14.1778 -0.9490 -2.5055 0.9439
14.2056 0.3166 -2.5054 0.9439
13.2595 1.4834 -2.3526 0.9473
13.0739 2.6574 -2.3524 0.9473
11.9038 6.0153 -2.3517 0.9473
9.8874 8.9426 -2.3507 0.9473
9.0507 9.7855 -2.3503 0.9473
3.4255 5.3661 -1.1225 0.9745
3.9454 12.7188 -2.3481 0.9473
2.7971 13.0168 -2.3476 0.9474
0.4447 13.3012 -2.3467 0.9474
-3.0834 12.9385 -2.3453 0.9474
-8.3522 10.3376 -2.3434 0.9475
-9.2379 9.5520 -2.3431 0.9475
-10.7830 7.7611 -2.3426 0.9475
-11.4300 6.7701 -2.3424 0.9475
-11.9865 5.7255 -2.3423 0.9475
-13.2561 4.9367 -2.4942 0.9442
-13.6425 3.7371 -2.4942 0.9442
-13.9209 2.5080 -2.4941 0.9442
-12.8915 0.0000 -2.4947 0.9488
-12.8409 -1.1474 -2.4948 0.9488
-12.6885 -2.2859 -2.4950 0.9488
-12.4356 -3.4064 -2.4952 0.9488
-11.6368 -5.5584 -2.4956 0.9488
-11.0971 -6.5728 -2.4959 0.9488
-10.4694 -7.5354 -2.4962 0.9488
-9.7585 -8.4385 -2.4966 0.9488
-2.9943 -12.5646 -2.4996 0.9487
-1.8644 -12.7836 -2.5000 0.9487
1.5801 -12.8289 -2.5014 0.9487
4.9157 -11.9617 -2.5027 0.9487
5.9618 -11.4784 -2.5030 0.9487
7.9047 -10.2423 -2.5037 0.9487
8.7859 -9.4992 -2.5040 0.9486
10.3330 -7.7924 -2.5045 0.9486
10.9864 -6.8423 -2.5047 0.9486
12.0067 1.8880 -2.3521 0.9517
11.0785 4.9918 -2.3515 0.9517
10.5891 5.9573 -2.3512 0.9517
10.0156 6.8753 -2.3509 0.9517
8.6354 8.5398 -2.3502 0.9517
7.8398 9.2730 -2.3499 0.9517
6.0694 10.5126 -2.3491 0.9517
4.1079 11.4181 -2.3482 0.9518
-0.1351 12.1248 -2.3465 0.9518
-2.2819 11.9045 -2.3457 0.9518
-3.3318 11.6522 -2.3453 0.9518
-4.3550 11.3076 -2.3449 0.9518
-5.3433 10.8734 -2.3445 0.9518
-6.2890 10.3532 -2.3442 0.9518
-7.1846 9.7511 -2.3439 0.9519
-9.5024 7.5040 -2.3431 0.9519
-10.1318 6.6279 -2.3430 0.9519
-10.6808 5.6995 -2.3428 0.9519
-12.5724 2.8486 -2.4947 0.9488
-12.7761 1.7183 -2.4947 0.9488
-12.8790 -0.5742 -2.4948 0.9488
-12.7773 -1.7183 -2.4949 0.9488
-12.5745 -2.8490 -2.4951 0.9488
-11.8722 -5.0343 -2.4955 0.9488
-10.7940 -7.0611 -2.4961 0.9488
-10.1240 -7.9948 -2.4964 0.9488
-9.3736 -8.8655 -2.4968 0.9488
-8.5487 -9.6661 -2.4972 0.9488
-7.6556 -10.3903 -2.4976 0.9488
-5.6941 -11.5871 -2.4984 0.9488
-4.6410 -12.0500 -2.4989 0.9488
-3.5507 -12.4176 -2.4993 0.9487
-2.4318 -12.6866 -2.4998 0.9487
-1.2932 -12.8551 -2.5003 0.9487
1.0070 -12.8854 -2.5012 0.9487
2.1502 -12.7470 -2.5016 0.9487
3.2767 -12.5071 -2.5020 0.9487
4.3776 -12.1678 -2.5025 0.9487
6.4677 -11.2023 -2.5032 0.9487
7.4401 -10.5836 -2.5036 0.9487
9.9752 -8.2447 -2.5044 0.9486
10.6703 -7.3247 -2.5046 0.9486
11.8014 -5.3174 -2.5049 0.9486
12.2283 -4.2461 -2.5050 0.9486
12.5579 -3.1409 -2.5050 0.9486
10.8446 5.4801 -2.3513 0.9517
10.3125 6.4228 -2.3511 0.9517
9.6987 7.3142 -2.3508 0.9517
3.4253 5.3657 -1.2319 0.9744
5.5946 10.7716 -2.3489 0.9518
4.6129 11.2248 -2.3485 0.9518
2.5486 11.8604 -2.3476 0.9518
-0.6750 12.1057 -2.3463 0.9518
-6.7435 10.0621 -2.3440 0.9518
-9.1591 7.9203 -2.3432 0.9519
-10.4166 6.1698 -2.3429 0.9519
-11.6330 5.5567 -2.4948 0.9488
-12.0809 4.4990 -2.4947 0.9488
-12.4331 3.4058 -2.4947 0.9488
-12.6868 2.2857 -2.4947 0.9488
-12.8400 1.1474 -2.4947 0.9488
-11.4168 -3.1273 -2.4955 0.9528
-11.0940 -4.1314 -2.4957 0.9528
-10.1877 -6.0341 -2.4962 0.9527
-9.6113 -6.9178 -2.4965 0.9527
-8.9586 -7.7468 -2.4969 0.9527
-5.6952 -10.3923 -2.4983 0.9527
-3.7636 -11.2412 -2.4992 0.9527
-2.7486 -11.5335 -2.4996 0.9527
3.5163 -11.3353 -2.5021 0.9526
4.5119 -10.9790 -2.5024 0.9526
5.4719 -10.5353 -2.5028 0.9526
6.3887 -10.0077 -2.5031 0.9526
8.0638 -8.7184 -2.5037 0.9526
8.8086 -7.9669 -2.5039 0.9526
10.0832 -6.2798 -2.5043 0.9526
10.6027 -5.3577 -2.5044 0.9526
11.8532 0.7935 -2.5045 0.9526
10.8209 2.7065 -2.3515 0.9554
10.5362 3.6586 -2.3513 0.9554
10.1679 4.5815 -2.3511 0.9554
9.1925 6.3103 -2.3506 0.9554
7.9259 7.8381 -2.3500 0.9555
7.1958 8.5113 -2.3497 0.9555
1.8520 10.9795 -2.3474 0.9555
-1.1140 11.0731 -2.3462 0.9555
-2.0948 10.9282 -2.3458 0.9555
-6.5958 8.9519 -2.3442 0.9556
-7.3655 8.3284 -2.3439 0.9556
-8.0768 7.6390 -2.3437 0.9556
-8.7239 6.8892 -2.3435 0.9556
-10.0292 5.3518 -2.3965 0.9546
-11.2642 3.6323 -2.4951 0.9528
-11.5426 2.6152 -2.4951 0.9528
-11.8239 -0.5272 -2.4952 0.9528
-11.7306 -1.5776 -2.4953 0.9528
-11.5443 -2.6156 -2.4955 0.9528
-11.2665 -3.6330 -2.4956 0.9528
-10.4458 -5.5740 -2.4961 0.9528
-3.2594 -11.3986 -2.4994 0.9527
-2.2323 -11.6455 -2.4998 0.9527
-1.1871 -11.7999 -2.5002 0.9527
-0.1321 -11.8608 -2.5006 0.9527
1.9736 -11.7001 -2.5015 0.9527
4.9968 -10.7679 -2.5026 0.9526
5.9362 -10.2818 -2.5029 0.9526
6.8286 -9.7138 -2.5033 0.9526
7.6670 -9.0685 -2.5035 0.9526
8.4446 -8.3510 -2.5038 0.9526
9.1552 -7.5669 -2.5040 0.9526
9.7931 -6.7225 -2.5042 0.9526
10.8310 -4.8802 -2.5045 0.9526
11.7362 -1.8454 -2.5046 0.9526
11.8537 -0.7935 -2.5046 0.9526
10.9311 2.2219 -2.3516 0.9554
10.6892 3.1857 -2.3514 0.9554
9.9532 5.0296 -2.3510 0.9554
8.9017 6.7131 -2.3505 0.9554
8.2678 7.4778 -2.3502 0.9555
6.8090 8.8227 -2.3495 0.9555
3.4251 5.3653 -1.3419 0.9743
5.1352 9.8871 -2.3488 0.9555
3.2997 10.6374 -2.3480 0.9555
2.3395 10.8870 -2.3476 0.9555
0.3720 11.1255 -2.3468 0.9555
-1.6060 11.0116 -2.3460 0.9555
-2.5793 10.8232 -2.3456 0.9555
-3.5318 10.5491 -2.3453 0.9555
-4.4561 10.1914 -2.3449 0.9555
-5.3448 9.7530 -2.3446 0.9556
-6.1908 9.2374 -2.3443 0.9556
-7.7288 7.9916 -2.3438 0.9556
-8.4087 7.2713 -2.3436 0.9556
-9.0218 6.4935 -2.3434 0.9556
-9.5633 5.6644 -2.3432 0.9556
-10.6801 5.1015 -2.4952 0.9528
-11.0913 4.1305 -2.4952 0.9528
-11.4147 3.1268 -2.4951 0.9528
-11.7882 1.0534 -2.4951 0.9528
-10.9336 0.0000 -2.4955 0.9561
-10.8905 -0.9732 -2.4956 0.9561
-10.7612 -1.9387 -2.4957 0.9561
-10.5466 -2.8890 -2.4959 0.9561
-9.8689 -4.7139 -2.4963 0.9561
-0.6099 -10.9379 -2.5004 0.9560
0.3661 -10.9505 -2.5008 0.9560
1.3395 -10.8761 -2.5012 0.9560
2.3026 -10.7153 -2.5015 0.9560
3.2476 -10.4693 -2.5019 0.9560
7.4473 -8.0519 -2.5034 0.9560
9.3122 -5.7996 -2.5040 0.9560
10.5147 -3.1337 -2.5042 0.9560
10.9038 -1.2197 -2.5042 0.9560
10.9689 -0.2444 -2.5042 0.9560
9.7307 3.3789 -2.3511 0.9586
7.9365 6.5597 -2.3501 0.9586
7.3203 7.2392 -2.3498 0.9586
6.6460 7.8610 -2.3495 0.9586
5.9191 8.4201 -2.3492 0.9587
4.3312 9.3334 -2.3485 0.9587
3.4827 9.6804 -2.3481 0.9587
-3.6930 9.5888 -2.3453 0.9587
-4.5312 9.2209 -2.3450 0.9587
-5.3333 8.7799 -2.3447 0.9587
-6.0929 8.2694 -2.3444 0.9587
-7.4611 7.0567 -2.3440 0.9587
-8.0590 6.3641 -2.3438 0.9587
-8.5928 5.6212 -2.3436 0.9587
-9.6467 5.1477 -2.4956 0.9561
-10.0661 4.2685 -2.4955 0.9561
-10.8357 1.4573 -2.4954 0.9561
-10.9229 -0.4871 -2.4956 0.9561
-10.4078 -3.3560 -2.4960 0.9561
-10.0686 -4.2694 -2.4962 0.9561
-9.6495 -5.1491 -2.4964 0.9561
-8.5855 -6.7799 -2.4969 0.9561
-4.8282 -9.8250 -2.4986 0.9561
-3.9351 -10.2173 -2.4990 0.9561
-0.1220 -10.9551 -2.5006 0.9560
0.8536 -10.9241 -2.5010 0.9560
2.7778 -10.6029 -2.5017 0.9560
3.7110 -10.3149 -2.5021 0.9560
4.6150 -9.9450 -2.5024 0.9560
6.3067 -8.9713 -2.5030 0.9560
8.4552 -6.9884 -2.5037 0.9560
9.0443 -6.2085 -2.5039 0.9560
10.0028 -4.5070 -2.5041 0.9560
10.3646 -3.5989 -2.5042 0.9560
10.9688 0.2445 -2.5042 0.9560
9.8719 2.9422 -2.3511 0.9586
9.5701 3.8089 -2.3510 0.9586
7.6360 6.9064 -2.3500 0.9586
6.9901 7.5576 -2.3497 0.9586
3.4248 5.3649 -1.4527 0.9742
4.7430 9.1319 -2.3487 0.9587
3.9108 9.5164 -2.3483 0.9587
3.0478 9.8252 -2.3479 0.9587
2.1609 10.0559 -2.3476 0.9587
0.3436 10.2764 -2.3468 0.9587
-2.3825 9.9976 -2.3458 0.9587
-3.2624 9.7445 -2.3454 0.9587
-4.1163 9.4141 -2.3451 0.9587
-5.7188 8.5331 -2.3446 0.9587
-6.4549 7.9894 -2.3443 0.9587
-7.1397 7.3824 -2.3441 0.9587
-9.8662 4.7127 -2.4956 0.9561
-10.2461 3.8157 -2.4955 0.9561
-10.5448 2.8886 -2.4955 0.9561
-10.1139 -0.9038 -2.4959 0.9590
-9.7944 -2.6829 -2.4962 0.9590
-9.5174 -3.5443 -2.4963 0.9590
-8.2451 -5.9344 -2.4970 0.9590
-7.6850 -6.6454 -2.4973 0.9590
-7.0639 -7.3039 -2.4976 0.9590
-6.3865 -7.9047 -2.4979 0.9590
-5.6584 -8.4428 -2.4982 0.9590
-4.8851 -8.9142 -2.4986 0.9590
-3.2281 -9.6418 -2.4993 0.9590
-2.3575 -9.8923 -2.4996 0.9590
-0.5663 -10.1565 -2.5004 0.9590
0.3400 -10.1681 -2.5007 0.9590
1.2438 -10.0989 -2.5011 0.9590
2.1380 -9.9495 -2.5014 0.9589
3.8692 -9.4152 -2.5021 0.9589
4.6924 -9.0345 -2.5024 0.9589
5.4785 -8.5819 -2.5026 0.9589
6.2213 -8.0611 -2.5029 0.9589
8.1319 -6.1326 -2.5035 0.9589
8.6460 -5.3847 -2.5037 0.9589
9.0914 -4.5941 -2.5038 0.9589
9.4646 -3.7668 -2.5039 0.9589
9.7625 -2.9095 -2.5039 0.9589
9.9828 -2.0290 -2.5039 0.9589
10.1237 -1.1325 -2.5039 0.9589
7.8828 5.4112 -2.3502 0.9614
7.3691 6.0907 -2.3499 0.9614
6.7969 6.7217 -2.3496 0.9614
6.1709 7.2990 -2.3494 0.9614
5.4961 7.8183 -2.3491 0.9614
3.2339 8.9888 -2.3481 0.9614
2.4207 9.2396 -2.3477 0.9614
-2.6237 9.1756 -2.3457 0.9615
-3.4295 8.9045 -2.3454 0.9615
-4.2079 8.5629 -2.3452 0.9615
-6.3187 7.1447 -2.3444 0.9615
-6.9289 6.5534 -2.3442 0.9615
-7.9800 5.2203 -2.3439 0.9615
-8.9587 4.7805 -2.4959 0.9590
-9.3483 3.9641 -2.4959 0.9590
-9.6638 3.1162 -2.4958 0.9590
-9.9026 2.2437 -2.4958 0.9590
-9.9039 -2.2439 -2.4961 0.9590
-8.9612 -4.7818 -2.4966 0.9590
-7.9730 -6.2962 -2.4971 0.9590
-7.3818 -6.9816 -2.4974 0.9590
-6.7319 -7.6119 -2.4977 0.9590
-6.0284 -8.1818 -2.4980 0.9590
-5.2770 -8.6871 -2.4984 0.9590
-3.6542 -9.4878 -2.4991 0.9590
-1.9146 -9.9882 -2.4998 0.9590
-1.0181 -10.1204 -2.5002 0.9590
-0.1133 -10.1724 -2.5005 0.9590
0.7926 -10.1435 -2.5009 0.9590
2.5793 -9.8450 -2.5016 0.9589
4.2851 -9.2340 -2.5022 0.9589
5.8557 -8.3298 -2.5028 0.9589
6.5745 -7.7763 -2.5030 0.9589
7.2412 -7.1609 -2.5032 0.9589
7.8504 -6.4885 -2.5034 0.9589
8.3973 -5.7644 -2.5036 0.9589
8.8775 -4.9944 -2.5037 0.9589
9.2872 -4.1846 -2.5038 0.9589
9.6231 -3.3415 -2.5039 0.9589
9.8825 -2.4717 -2.5039 0.9589
10.0633 -1.5823 -2.5039 0.9589
10.1231 1.1325 -2.5038 0.9589
9.1658 2.7317 -2.3509 0.9614
8.5349 4.3129 -2.3505 0.9614
6.4904 7.0173 -2.3495 0.9614
5.8393 7.5662 -2.3492 0.9614
3.4246 5.3646 -1.5644 0.9741
1.1673 9.4778 -2.3472 0.9614
-0.5315 9.5318 -2.3465 0.9614
-3.0296 9.0490 -2.3456 0.9615
-4.5849 8.3665 -2.3450 0.9615
-5.3108 7.9243 -2.3448 0.9615
-5.9944 7.4194 -2.3445 0.9615
-6.6304 6.8558 -2.3443 0.9615
-7.2137 6.2380 -2.3441 0.9615
-8.5839 5.0843 -2.4522 0.9597
-9.1626 4.3767 -2.4959 0.9590
-9.9927 1.8003 -2.4958 0.9590
-9.4728 0.0000 -2.4961 0.9616
-9.4355 -0.8431 -2.4962 0.9616
-8.5500 -4.0840 -2.4968 0.9616
-7.6918 -5.5362 -2.4972 0.9616
-7.1693 -6.1995 -2.4975 0.9616
-5.9578 -7.3740 -2.4980 0.9615
-4.5571 -8.3156 -2.4986 0.9615
-3.7994 -8.6894 -2.4990 0.9615
-2.1991 -9.2278 -2.4996 0.9615
-0.5283 -9.4741 -2.5003 0.9615
0.3171 -9.4848 -2.5007 0.9615
1.1602 -9.4202 -2.5010 0.9615
1.9943 -9.2807 -2.5013 0.9615
5.8029 -7.5190 -2.5027 0.9615
6.4497 -6.9733 -2.5029 0.9615
7.5849 -5.7201 -2.5033 0.9615
8.4798 -4.2850 -2.5035 0.9615
8.8278 -3.5134 -2.5036 0.9615
9.4426 -1.0563 -2.5037 0.9615
9.4990 -0.2116 -2.5036 0.9615
9.4799 0.6346 -2.5036 0.9615
14.0785 2.2138 -3.7553 0.9428
7.7734 4.3733 -2.3502 0.9638
7.3527 5.0474 -2.3500 0.9638
6.8736 5.6812 -2.3498 0.9638
6.3399 6.2698 -2.3495 0.9638
5.7561 6.8084 -2.3492 0.9638
5.1266 7.2928 -2.3489 0.9638
4.4566 7.7192 -2.3486 0.9638
2.2580 8.6189 -2.3477 0.9638
1.4817 8.7845 -2.3474 0.9638
0.6939 8.8803 -2.3471 0.9638
-0.0992 8.9056 -2.3468 0.9638
-1.6762 8.7446 -2.3461 0.9638
-2.4475 8.5597 -2.3459 0.9638
-5.2786 7.1642 -2.3448 0.9639
-5.8948 6.6654 -2.3446 0.9639
-6.4641 6.1137 -2.3444 0.9639
-6.9821 5.5138 -2.3443 0.9639
-8.3578 4.4599 -2.4962 0.9616
-8.7213 3.6982 -2.4961 0.9616
-9.3881 1.2626 -2.4960 0.9616
-9.4636 -0.4220 -2.4961 0.9616
-9.2396 -2.0934 -2.4963 0.9616
-8.3600 -4.4610 -2.4969 0.9616
-6.2800 -7.1009 -2.4979 0.9615
-4.9227 -8.1038 -2.4985 0.9615
-3.4088 -8.8506 -2.4991 0.9615
-2.6078 -9.1201 -2.4995 0.9615
-0.1057 -9.4889 -2.5005 0.9615
0.7394 -9.4619 -2.5008 0.9615
1.5788 -9.3597 -2.5011 0.9615
2.4059 -9.1832 -2.5015 0.9615
3.2141 -8.9337 -2.5018 0.9615
4.7482 -8.2241 -2.5023 0.9615
5.4619 -7.7696 -2.5026 0.9615
6.7542 -6.6793 -2.5030 0.9615
7.3224 -6.0521 -2.5032 0.9615
7.8325 -5.3767 -2.5033 0.9615
8.6624 -3.9031 -2.5036 0.9615
9.2176 -2.3054 -2.5037 0.9615
9.3862 -1.4759 -2.5037 0.9615
9.4421 1.0563 -2.5035 0.9615
8.5492 2.5480 -2.3506 0.9638
7.9609 4.0228 -2.3503 0.9638
7.5706 4.7150 -2.3501 0.9638
6.0540 6.5456 -2.3494 0.9638
3.3874 8.2427 -2.3482 0.9638
1.0889 8.8412 -2.3472 0.9638
-2.0639 8.6607 -2.3460 0.9638
-2.8262 8.4416 -2.3457 0.9638
-4.2772 7.8050 -2.3452 0.9639
-5.5922 6.9216 -2.3447 0.9639
-6.1856 6.3959 -2.3445 0.9639
-6.7298 5.8195 -2.3444 0.9639
-7.2206 5.1971 -2.3442 0.9639
-9.1361 2.5027 -2.4960 0.9616
-9.3225 1.6796 -2.4960 0.9616
-9.4351 0.8431 -2.4960 0.9616
-5.0319 0.0000 -1.4157 0.9793
-3.9277 -0.3510 -1.1095 0.9837
-3.7284 -0.6717 -1.0659 0.9844
-3.7904 -1.0383 -1.1057 0.9838
-7.2041 -5.1852 -2.4974 0.9638
-6.7147 -5.8063 -2.4976 0.9638
-6.1719 -6.3816 -2.4979 0.9638
-5.5800 -6.9064 -2.4981 0.9638
-4.2680 -7.7881 -2.4987 0.9638
-2.8202 -8.4236 -2.4993 0.9638
-2.0596 -8.6423 -2.4997 0.9638
-1.2823 -8.7924 -2.5000 0.9638
0.2970 -8.8827 -2.5006 0.9637
1.0866 -8.8221 -2.5009 0.9637
2.6342 -8.4916 -2.5015 0.9637
6.0399 -6.5302 -2.5027 0.9637
7.1030 -5.3566 -2.5030 0.9637
7.5519 -4.7033 -2.5032 0.9637
8.2668 -3.2901 -2.5034 0.9637
8.5270 -2.5413 -2.5034 0.9637
8.7194 -1.7723 -2.5034 0.9637
8.8953 -0.1982 -2.5034 0.9637
8.7890 1.3820 -2.5032 0.9637
12.9463 3.2381 -3.7547 0.9461
7.6158 3.4316 -2.3502 0.9659
6.8856 4.7267 -2.3498 0.9659
5.9372 5.8715 -2.3494 0.9659
5.3905 6.3760 -2.3491 0.9659
4.8011 6.8297 -2.3488 0.9659
3.2779 5.6775 -1.8445 0.9731
3.5133 7.5709 -2.3483 0.9659
2.8251 7.8525 -2.3480 0.9659
2.1147 8.0719 -2.3477 0.9659
0.6499 8.3168 -2.3471 0.9659
-0.0929 8.3406 -2.3468 0.9659
-0.8348 8.2981 -2.3465 0.9659
-1.5699 8.1900 -2.3462 0.9659
-2.2923 8.0168 -2.3460 0.9659
-2.9964 7.7800 -2.3457 0.9659
-3.6766 7.4817 -2.3454 0.9660
-4.3275 7.1241 -2.3452 0.9660
-5.5211 6.2428 -2.3448 0.9660
-6.5396 5.1643 -2.3445 0.9660
-7.8281 4.1772 -2.4964 0.9638
-8.6530 1.9605 -2.4963 0.9638
-8.7931 1.1826 -2.4963 0.9638
-8.8636 0.3953 -2.4963 0.9638
-4.2110 -0.1878 -1.1860 0.9826
-3.7396 -0.5029 -1.0616 0.9844
-3.7659 -0.8532 -1.0864 0.9841
-8.4456 -2.7233 -2.4967 0.9638
-8.1702 -3.4644 -2.4969 0.9638
-7.8300 -4.1782 -2.4970 0.9638
-6.9663 -5.5012 -2.4975 0.9638
-5.8818 -6.6506 -2.4980 0.9638
-2.4423 -8.5414 -2.4995 0.9638
-1.6726 -8.7260 -2.4998 0.9638
0.6924 -8.8612 -2.5008 0.9637
1.4786 -8.7654 -2.5011 0.9637
2.2531 -8.6001 -2.5014 0.9637
3.7431 -8.0661 -2.5019 0.9637
6.3250 -6.2549 -2.5028 0.9637
7.3347 -5.0349 -2.5031 0.9637
7.7541 -4.3624 -2.5032 0.9637
8.6318 -2.1589 -2.5034 0.9637
8.8952 0.1983 -2.5034 0.9637
13.0781 2.6582 -3.7548 0.9461
7.7613 3.0890 -2.3503 0.9659
5.6695 6.1298 -2.3492 0.9659
5.1009 6.6094 -2.3490 0.9659
3.3809 5.2961 -1.7678 0.9742
3.1723 7.7194 -2.3481 0.9659
2.4723 7.9701 -2.3478 0.9659
1.7529 8.1575 -2.3475 0.9659
0.2787 8.3369 -2.3469 0.9659
-0.4643 8.3276 -2.3467 0.9659
-4.0060 7.3101 -2.3453 0.9660
-4.6403 6.9239 -2.3451 0.9660
-5.2377 6.4828 -2.3449 0.9660
-6.3032 5.4506 -2.3446 0.9660
-7.6344 4.5219 -2.4965 0.9638
-8.5571 2.3441 -2.4963 0.9638
-8.7317 1.5731 -2.4963 0.9638
-3.5918 -0.3209 -1.0796 0.9851
-3.4925 -0.9567 -1.0841 0.9850
-7.5264 -3.5950 -2.4971 0.9658
-7.1771 -4.2510 -2.4973 0.9658
-6.7708 -4.8733 -2.4975 0.9658
-5.8006 -5.9977 -2.4980 0.9658
-4.6462 -6.9326 -2.4985 0.9658
-4.0112 -7.3195 -2.4988 0.9658
-1.2051 -8.2630 -2.5000 0.9657
1.0211 -8.2907 -2.5008 0.9657
1.7552 -8.1679 -2.5011 0.9657
3.1762 -7.7289 -2.5017 0.9657
4.4971 -7.0446 -2.5021 0.9657
5.6758 -6.1366 -2.5025 0.9657
6.1999 -5.6075 -2.5027 0.9657
6.6748 -5.0337 -2.5029 0.9657
7.0967 -4.4198 -2.5030 0.9657
7.4622 -3.7708 -2.5031 0.9657
8.1938 -1.6654 -2.5032 0.9657
8.3094 -0.9295 -2.5032 0.9657
8.3591 -0.1862 -2.5032 0.9657
8.3423 0.5585 -2.5031 0.9657
12.1659 3.0429 -3.7544 0.9490
7.1568 3.2247 -2.3500 0.9678
6.4706 4.4419 -2.3497 0.9678
6.0491 4.9997 -2.3495 0.9678
5.5795 5.5178 -2.3493 0.9678
5.0658 5.9919 -2.3490 0.9678
4.5119 6.4182 -2.3488 0.9678
3.3017 7.1150 -2.3482 0.9678
1.3042 7.7317 -2.3474 0.9678
-0.0873 7.8385 -2.3468 0.9678
-0.7846 7.7987 -2.3466 0.9678
-1.4754 7.6971 -2.3463 0.9678
-2.1544 7.5344 -2.3460 0.9678
-2.8161 7.3120 -2.3458 0.9678
-4.0672 6.6955 -2.3453 0.9678
-4.6466 6.3064 -2.3451 0.9678
-5.6903 5.3818 -2.3448 0.9678
-6.9791 4.5655 -2.4967 0.9658
-8.1327 1.8427 -2.4965 0.9658
-4.8506 0.2163 -1.4536 0.9799
-3.6646 -0.1634 -1.0982 0.9848
-7.3591 -3.9269 -2.4972 0.9658
-6.0617 -5.7331 -2.4979 0.9658
-4.9502 -6.7184 -2.4984 0.9658
-4.3330 -7.1331 -2.4986 0.9658
-3.6814 -7.4913 -2.4989 0.9657
-3.0003 -7.7901 -2.4992 0.9657
-2.2953 -8.0272 -2.4995 0.9657
-1.5719 -8.2006 -2.4998 0.9657
-0.8359 -8.3090 -2.5001 0.9657
0.6507 -8.3275 -2.5007 0.9657
2.1174 -8.0820 -2.5013 0.9657
3.5176 -7.5801 -2.5018 0.9657
4.1787 -7.2376 -2.5020 0.9657
4.8067 -6.8376 -2.5022 0.9657
5.3966 -6.3831 -2.5024 0.9657
6.4438 -5.3259 -2.5028 0.9657
6.8926 -4.7314 -2.5029 0.9657
7.8985 -2.7426 -2.5032 0.9657
8.2598 -1.2988 -2.5032 0.9657
8.3426 -0.5584 -2.5032 0.9657
12.2897 2.4980 -3.7545 0.9490
12.0180 3.5818 -3.7543 0.9490
6.6623 4.1494 -2.3498 0.9678
6.2661 4.7255 -2.3496 0.9678
5.8201 5.2640 -2.3494 0.9678
5.3279 5.7605 -2.3491 0.9678
4.7936 6.2112 -2.3489 0.9678
3.3726 5.2830 -1.8764 0.9742
2.9813 7.2545 -2.3481 0.9678
2.3235 7.4902 -2.3478 0.9678
0.9584 7.7816 -2.3473 0.9678
-1.1311 7.7556 -2.3464 0.9678
-1.8167 7.6233 -2.3462 0.9678
-2.4878 7.4306 -2.3459 0.9678
-3.1389 7.1789 -2.3457 0.9678
-3.7650 6.8704 -2.3455 0.9678
-4.9227 6.0929 -2.3451 0.9678
-5.9242 5.1229 -2.3447 0.9678
-6.5745 4.7320 -2.4251 0.9667
-7.1753 4.2500 -2.4967 0.9658
-7.5249 3.5944 -2.4966 0.9658
-8.3058 0.7422 -2.4965 0.9658
-3.7562 0.0000 -1.1929 0.9844
-3.3867 -0.3026 -1.0798 0.9858
-3.2843 -0.5917 -1.0598 0.9861
-3.2540 -0.8913 -1.0715 0.9859
-7.3685 -2.7440 -2.4971 0.9675
-7.0954 -3.3892 -2.4973 0.9675
-6.7661 -4.0075 -2.4975 0.9675
-3.7813 -6.9000 -2.4988 0.9675
-3.1525 -7.2100 -2.4991 0.9675
-1.1360 -7.7893 -2.5000 0.9675
-0.4383 -7.8604 -2.5002 0.9675
0.9626 -7.8153 -2.5008 0.9675
2.9941 -7.2855 -2.5016 0.9675
4.8137 -6.2373 -2.5022 0.9675
5.3502 -5.7845 -2.5024 0.9675
5.8442 -5.2857 -2.5025 0.9675
7.8793 -0.1755 -2.5030 0.9675
7.8635 0.5265 -2.5029 0.9675
11.4678 2.8683 -3.7542 0.9516
11.1664 3.8774 -3.7540 0.9516
6.0994 4.1871 -2.3496 0.9694
5.7020 4.7129 -2.3494 0.9694
4.2531 6.0502 -2.3487 0.9694
3.2372 5.6071 -2.0562 0.9732
2.5028 6.9566 -2.3479 0.9694
1.8735 7.1510 -2.3477 0.9695
0.5758 7.3681 -2.3471 0.9695
-0.0823 7.3893 -2.3469 0.9695
-0.7396 7.3519 -2.3466 0.9695
-2.0310 7.1028 -2.3461 0.9695
-2.6548 6.8931 -2.3459 0.9695
-3.2575 6.6289 -2.3457 0.9695
-3.8342 6.3121 -2.3455 0.9695
-4.3805 5.9453 -2.3453 0.9695
-6.5795 4.3041 -2.4969 0.9675
-6.9362 3.7013 -2.4968 0.9675
-7.2379 3.0692 -2.4968 0.9675
-3.4557 -0.1541 -1.0986 0.9856
-6.9377 -3.7020 -2.4974 0.9675
-6.5811 -4.3051 -2.4975 0.9675
-5.2113 -5.8924 -2.4982 0.9675
-3.4704 -7.0620 -2.4990 0.9675
-2.8284 -7.3437 -2.4993 0.9675
-0.0877 -7.8726 -2.5004 0.9675
1.3098 -7.7651 -2.5009 0.9675
2.6664 -7.4114 -2.5014 0.9675
3.9390 -6.8224 -2.5019 0.9675
4.5309 -6.4453 -2.5021 0.9675
5.6027 -5.5406 -2.5025 0.9675
6.4971 -4.4599 -2.5027 0.9675
6.8685 -3.8641 -2.5028 0.9675
7.1854 -3.2376 -2.5029 0.9675
7.4452 -2.5852 -2.5030 0.9675
7.6459 -1.9123 -2.5030 0.9675
7.7857 -1.2242 -2.5030 0.9675
7.7228 1.5698 -2.5028 0.9675
11.3283 3.3762 -3.7541 0.9516
6.8750 2.7362 -2.3500 0.9694
5.4862 4.9620 -2.3493 0.9694
5.0223 5.4301 -2.3490 0.9694
4.5186 5.8550 -2.3488 0.9694
3.3642 5.2700 -1.9856 0.9741
2.8103 6.8386 -2.3481 0.9694
2.1903 7.0608 -2.3478 0.9695
0.9035 7.3356 -2.3473 0.9695
-1.0663 7.3112 -2.3465 0.9695
-1.7126 7.1866 -2.3462 0.9695
-2.3452 7.0049 -2.3460 0.9695
-2.9591 6.7677 -2.3458 0.9695
-4.6408 5.7440 -2.3452 0.9695
-5.1333 5.3078 -2.3450 0.9695
-5.5849 4.8296 -2.3449 0.9695
-6.7645 4.0067 -2.4969 0.9675
-7.3673 2.7436 -2.4967 0.9675
-7.5822 2.0770 -2.4967 0.9675
-3.2019 -0.2861 -1.0801 0.9865
-3.1349 -0.8587 -1.0921 0.9864
-6.0338 -4.3429 -2.4978 0.9691
-2.9800 -6.8153 -2.4992 0.9691
-2.3618 -7.0542 -2.4994 0.9691
-1.7247 -7.2372 -2.4997 0.9691
0.2487 -7.4381 -2.5005 0.9691
0.9098 -7.3872 -2.5007 0.9691
3.4320 -6.6077 -2.5017 0.9691
4.0068 -6.2765 -2.5019 0.9691
5.5238 -4.9960 -2.5024 0.9691
6.9212 -2.7545 -2.5028 0.9691
7.4474 -0.1659 -2.5028 0.9691
7.4324 0.4976 -2.5027 0.9691
7.3584 1.1571 -2.5027 0.9691
7.2259 1.8074 -2.5026 0.9691
10.5543 3.6648 -3.7538 0.9539
5.7651 3.9576 -2.3494 0.9709
4.5136 5.3387 -2.3488 0.9709
3.6612 5.2082 -2.1390 0.9735
2.9419 6.3396 -2.3481 0.9709
2.3657 6.5756 -2.3479 0.9709
1.7709 6.7594 -2.3477 0.9709
0.5442 6.9648 -2.3472 0.9710
-0.0778 6.9848 -2.3469 0.9710
-1.3147 6.8589 -2.3464 0.9710
-3.6245 5.9667 -2.3456 0.9710
-4.1408 5.6200 -2.3454 0.9710
-4.6243 5.2288 -2.3452 0.9710
-5.0710 4.7962 -2.3451 0.9710
-5.8046 4.5838 -2.4850 0.9693
-6.2196 4.0687 -2.4971 0.9691
-7.0729 2.2808 -2.4969 0.9691
-7.2478 1.6421 -2.4969 0.9691
-7.3652 0.9905 -2.4969 0.9691
-4.1559 0.1853 -1.3977 0.9826
-3.2675 -0.1457 -1.0989 0.9863
-3.1355 -0.7104 -1.0802 0.9865
-6.5581 -3.4995 -2.4975 0.9691
-6.2211 -4.0696 -2.4977 0.9691
-3.2804 -6.6755 -2.4990 0.9691
-2.6735 -6.9417 -2.4993 0.9691
-2.0453 -7.1528 -2.4996 0.9691
1.2381 -7.3397 -2.5009 0.9691
3.1341 -6.7538 -2.5016 0.9691
4.8082 -5.6871 -2.5022 0.9691
6.1409 -4.2154 -2.5026 0.9691
6.4920 -3.6523 -2.5027 0.9691
6.7915 -3.0601 -2.5028 0.9691
7.3589 -1.1571 -2.5028 0.9691
6.4982 2.5863 -2.3498 0.9709
5.5829 4.2103 -2.3493 0.9709
5.1856 4.6901 -2.3492 0.9709
4.7471 5.1326 -2.3490 0.9709
4.2711 5.5342 -2.3487 0.9709
0.8540 6.9340 -2.3473 0.9709
0.2334 6.9817 -2.3470 0.9710
-1.0079 6.9111 -2.3465 0.9710
-1.6189 6.7932 -2.3463 0.9710
-4.3869 5.4298 -2.3453 0.9710
-4.8524 5.0174 -2.3452 0.9710
-6.0323 4.3418 -2.4971 0.9691
-6.3945 3.7875 -2.4970 0.9691
-6.7060 3.2033 -2.4970 0.9691
-6.9644 2.5936 -2.4969 0.9691
-7.1675 1.9634 -2.4969 0.9691
-7.3138 1.3177 -2.4969 0.9691
-7.4020 0.6615 -2.4969 0.9691
-3.4902 0.0000 -1.2376 0.9853
-3.0442 -0.5484 -1.0968 0.9870
-3.0314 -1.1289 -1.1470 0.9864
-6.3557 -3.0358 -2.4975 0.9705
-6.0607 -3.5897 -2.4977 0.9705
-5.3289 -4.6081 -2.4981 0.9705
-4.8980 -5.0645 -2.4983 0.9705
-4.4282 -5.4808 -2.4985 0.9705
-2.8237 -6.4578 -2.4992 0.9705
-1.0175 -6.9765 -2.4999 0.9705
1.4818 -6.8956 -2.5009 0.9705
2.0899 -6.7370 -2.5012 0.9705
2.6814 -6.5248 -2.5014 0.9705
3.2518 -6.2608 -2.5016 0.9705
4.3110 -5.5859 -2.5020 0.9705
5.2337 -4.7336 -2.5023 0.9705
5.9906 -3.7310 -2.5025 0.9705
6.2991 -3.1830 -2.5026 0.9705
6.5576 -2.6098 -2.5026 0.9705
6.7640 -2.0158 -2.5027 0.9705
6.9166 -1.4058 -2.5027 0.9705
7.0143 -0.7846 -2.5027 0.9705
7.0420 0.4715 -2.5026 0.9705
6.9719 1.0963 -2.5025 0.9705
6.8464 1.7125 -2.5024 0.9705
10.0000 3.4724 -3.7536 0.9561
5.7749 3.2489 -2.3495 0.9723
5.4624 3.7498 -2.3493 0.9723
5.1066 4.2207 -2.3492 0.9723
4.7103 4.6581 -2.3490 0.9723
4.2766 5.0585 -2.3488 0.9723
3.1967 5.5370 -2.2670 0.9732
2.2416 6.2305 -2.3479 0.9723
1.1011 6.5279 -2.3474 0.9723
-2.3780 6.1743 -2.3461 0.9723
-4.3819 4.9547 -2.3453 0.9723
-7.6759 7.2598 -3.7463 0.9562
-5.5273 4.3649 -2.4973 0.9706
-6.2132 3.3155 -2.4971 0.9706
-6.4834 2.7493 -2.4971 0.9706
-6.7023 2.1612 -2.4970 0.9706
-6.8680 1.5561 -2.4970 0.9706
-6.9792 0.9387 -2.4970 0.9706
-3.1623 -0.1410 -1.1224 0.9867
-3.0191 -0.9735 -1.1248 0.9866
-6.4845 -2.7496 -2.4975 0.9706
-6.2144 -3.3161 -2.4976 0.9705
-5.5287 -4.3659 -2.4980 0.9705
-5.1186 -4.8411 -2.4982 0.9705
-4.6678 -5.2779 -2.4984 0.9705
-3.6587 -6.0230 -2.4988 0.9705
-2.5333 -6.5775 -2.4993 0.9705
1.1731 -6.9545 -2.5008 0.9705
1.7876 -6.8231 -2.5010 0.9705
2.3880 -6.6375 -2.5013 0.9705
2.9696 -6.3992 -2.5015 0.9705
3.5276 -6.1099 -2.5017 0.9705
4.5557 -5.3884 -2.5020 0.9705
5.0175 -4.9619 -2.5022 0.9705
5.8184 -3.9941 -2.5024 0.9705
6.1510 -3.4604 -2.5025 0.9705
6.4348 -2.8993 -2.5026 0.9705
6.6674 -2.3152 -2.5027 0.9705
6.9724 -1.0963 -2.5027 0.9705
7.0561 0.1573 -2.5026 0.9705
9.8351 3.9143 -3.7535 0.9561
5.6242 3.5028 -2.3494 0.9723
4.9133 4.4438 -2.3491 0.9723
4.0469 5.2437 -2.3487 0.9723
3.3474 5.2436 -2.2058 0.9739
3.0524 5.8770 -2.3482 0.9723
2.5170 6.1248 -2.3480 0.9723
1.9617 6.3239 -2.3478 0.9723
0.8092 6.5702 -2.3473 0.9723
-0.3685 6.6083 -2.3468 0.9723
-2.6505 6.0620 -2.3460 0.9723
-3.6827 5.4951 -2.3456 0.9723
-4.1569 5.1452 -2.3454 0.9723
-6.9305 1.2486 -2.4970 0.9706
-7.0141 0.6268 -2.4970 0.9706
-3.3740 0.0000 -1.2599 0.9857
-2.9938 -0.2675 -1.1224 0.9872
-2.9455 -0.5306 -1.1176 0.9873
-2.9169 -0.7990 -1.1293 0.9872
-2.9238 -1.0888 -1.1650 0.9868
-5.7554 -3.4089 -2.4978 0.9718
-4.6513 -4.8094 -2.4983 0.9718
-4.2051 -5.2046 -2.4986 0.9718
-3.7255 -5.5587 -2.4988 0.9718
-3.2162 -5.8688 -2.4990 0.9718
-2.6813 -6.1324 -2.4992 0.9718
-1.5519 -6.5118 -2.4997 0.9718
-0.9662 -6.6247 -2.4999 0.9718
0.8186 -6.6465 -2.5006 0.9718
2.5462 -6.1957 -2.5013 0.9718
3.6049 -5.6469 -2.5017 0.9718
4.5496 -4.9189 -2.5020 0.9718
4.9696 -4.4947 -2.5021 0.9718
5.3502 -4.0348 -2.5023 0.9718
5.6883 -3.5427 -2.5024 0.9718
6.2267 -2.4781 -2.5025 0.9718
6.5675 -1.3349 -2.5025 0.9718
6.6603 -0.7450 -2.5025 0.9718
6.6201 1.0410 -2.5024 0.9718
6.5009 1.6260 -2.5023 0.9718
5.1868 3.5606 -2.3492 0.9735
4.8490 4.0078 -2.3491 0.9735
4.4727 4.4232 -2.3489 0.9735
3.6144 5.1416 -2.3469 0.9735
2.6469 5.7040 -2.3481 0.9735
1.5933 6.0818 -2.3476 0.9735
1.0456 6.1989 -2.3474 0.9735
0.4897 6.2667 -2.3472 0.9735
-0.0700 6.2848 -2.3470 0.9735
-0.6291 6.2531 -2.3467 0.9735
-1.1830 6.1717 -2.3465 0.9735
-1.7275 6.0414 -2.3463 0.9735
-2.2581 5.8632 -2.3461 0.9735
-2.7708 5.6385 -2.3459 0.9735
-3.7261 5.0571 -2.3456 0.9735
-4.1611 4.7051 -2.3455 0.9735
-5.5968 3.6613 -2.4974 0.9718
-5.9003 3.1485 -2.4973 0.9718
-6.3647 2.0524 -2.4972 0.9718
-6.6277 0.8914 -2.4972 0.9719
-2.9258 -0.6629 -1.1202 0.9873
-6.1578 -2.6111 -2.4976 0.9718
-5.9013 -3.1490 -2.4977 0.9718
-5.2502 -4.1460 -2.4981 0.9718
-4.4326 -5.0120 -2.4985 0.9718
-3.9692 -5.3871 -2.4987 0.9718
-3.4743 -5.7194 -2.4989 0.9718
-2.4056 -6.2460 -2.4993 0.9718
-1.8403 -6.4359 -2.4996 0.9718
-1.2603 -6.5748 -2.4998 0.9718
0.5217 -6.6761 -2.5005 0.9718
1.1139 -6.6037 -2.5008 0.9718
2.2675 -6.3027 -2.5012 0.9718
3.8530 -5.4810 -2.5018 0.9718
5.5248 -3.7925 -2.5023 0.9718
5.8406 -3.2858 -2.5024 0.9718
6.5015 -1.6261 -2.5025 0.9718
6.6868 -0.4476 -2.5025 0.9718
6.7000 0.1493 -2.5025 0.9718
6.5670 1.3348 -2.5023 0.9718
6.4219 1.9140 -2.5022 0.9718
9.3389 3.7168 -3.7533 0.9580
5.3404 3.3261 -2.3493 0.9735
2.8985 5.5807 -2.3482 0.9735
2.3901 5.8160 -2.3480 0.9735
1.8628 6.0050 -2.3477 0.9735
-0.3499 6.2752 -2.3468 0.9735
-0.9070 6.2186 -2.3466 0.9735
-1.4567 6.1126 -2.3464 0.9735
-1.9948 5.9582 -2.3462 0.9735
-3.0191 5.5093 -2.3458 0.9735
-3.4972 5.2183 -2.3457 0.9735
-3.9475 4.8860 -2.3455 0.9735
-6.9751 7.2122 -3.7466 0.9581
-7.5890 6.5625 -3.7464 0.9581
-5.4282 3.9071 -2.4974 0.9718
-5.7542 3.4083 -2.4973 0.9718
-3.2641 0.0000 -1.2810 0.9861
-2.9005 -0.2592 -1.1429 0.9876
-2.8518 -0.5138 -1.1373 0.9876
-2.8313 -0.7756 -1.1521 0.9875
-2.8528 -1.0624 -1.1947 0.9870
-5.4761 -3.2434 -2.4979 0.9730
-4.8149 -4.1636 -2.4982 0.9730
-4.4255 -4.5759 -2.4984 0.9730
-4.0010 -4.9520 -2.4986 0.9730
-3.5446 -5.2889 -2.4988 0.9730
-2.5511 -5.8346 -2.4993 0.9730
-2.0219 -6.0390 -2.4995 0.9730
0.2129 -6.3673 -2.5004 0.9730
0.7788 -6.3236 -2.5006 0.9730
1.3387 -6.2297 -2.5008 0.9730
2.4225 -5.8946 -2.5012 0.9730
2.9377 -5.6560 -2.5014 0.9730
3.4297 -5.3725 -2.5016 0.9730
3.8945 -5.0462 -2.5018 0.9730
4.3285 -4.6799 -2.5019 0.9730
4.7281 -4.2762 -2.5020 0.9730
5.0902 -3.8386 -2.5021 0.9730
6.1104 -1.8210 -2.5024 0.9730
6.2483 -1.2700 -2.5024 0.9730
6.3365 -0.7088 -2.5024 0.9730
6.3744 -0.1420 -2.5024 0.9730
6.3616 0.4259 -2.5023 0.9730
6.2983 0.9904 -2.5023 0.9730
9.0339 3.1369 -3.7532 0.9597
8.7184 3.9284 -3.7530 0.9597
5.2170 2.9351 -2.3493 0.9746
4.9347 3.3875 -2.3492 0.9746
4.2553 4.2083 -2.3488 0.9746
3.4412 4.8953 -2.3485 0.9746
0.9948 5.8978 -2.3474 0.9746
-2.6363 5.3648 -2.3460 0.9746
-3.1031 5.1085 -2.3458 0.9746
-3.9592 4.4768 -2.3456 0.9746
-6.9356 6.5596 -3.7466 0.9598
-5.3252 3.4837 -2.4975 0.9730
-5.6140 2.9958 -2.4974 0.9730
-5.8582 2.4842 -2.4973 0.9730
-6.2057 1.4061 -2.4973 0.9730
-6.3062 0.8481 -2.4973 0.9730
-3.6456 0.1626 -1.4322 0.9844
-3.0071 -0.1341 -1.1814 0.9871
-2.8717 -1.2177 -1.2242 0.9867
-5.6150 -2.9962 -2.4978 0.9730
-5.3263 -3.4843 -2.4980 0.9730
-4.9954 -3.9448 -2.4981 0.9730
-4.6248 -4.3741 -2.4983 0.9730
-4.2174 -4.7687 -2.4985 0.9730
-3.7766 -5.1255 -2.4987 0.9730
-2.8084 -5.7149 -2.4991 0.9730
-1.1991 -6.2555 -2.4998 0.9730
-0.6376 -6.3380 -2.5000 0.9730
1.0598 -6.2829 -2.5007 0.9730
1.6150 -6.1642 -2.5009 0.9730
2.1574 -5.9965 -2.5011 0.9730
2.6827 -5.7811 -2.5013 0.9730
4.5328 -4.4825 -2.5020 0.9730
5.5567 -3.1261 -2.5023 0.9730
5.8130 -2.6192 -2.5023 0.9730
6.2986 -0.9904 -2.5024 0.9730
6.3618 -0.4259 -2.5024 0.9730
6.2478 1.2699 -2.5022 0.9730
6.1098 1.8209 -2.5021 0.9730
4.4387 4.0146 -2.3489 0.9746
3.6560 4.7373 -2.3485 0.9746
3.2196 5.0435 -2.3484 0.9746
2.7577 5.3096 -2.3482 0.9746
2.2740 5.5335 -2.3479 0.9746
1.7723 5.7134 -2.3477 0.9746
0.7311 5.9360 -2.3473 0.9746
0.1998 5.9770 -2.3471 0.9746
-0.3329 5.9705 -2.3469 0.9746
-0.8629 5.9166 -2.3467 0.9746
-1.3860 5.8159 -2.3465 0.9746
-2.8726 5.2419 -2.3459 0.9746
-3.3275 4.9651 -2.3458 0.9746
-3.7560 4.6489 -2.3456 0.9746
-7.2207 6.2440 -3.7465 0.9598
-5.1649 3.7175 -2.4975 0.9730
-5.9630 2.2207 -2.4973 0.9730
-6.2622 1.1282 -2.4973 0.9730
-4.1297 0.3690 -1.6273 0.9823
-2.7695 -0.7587 -1.1825 0.9877
-5.4736 -2.6145 -2.4979 0.9741
-5.2195 -3.0915 -2.4980 0.9741
-4.9239 -3.5440 -2.4981 0.9741
-4.5892 -3.9684 -2.4983 0.9741
-4.2181 -4.3614 -2.4985 0.9741
-3.8134 -4.7199 -2.4987 0.9741
-2.4316 -5.5611 -2.4993 0.9741
-1.9271 -5.7559 -2.4995 0.9741
-1.4073 -5.9051 -2.4997 0.9741
-0.8762 -6.0074 -2.4999 0.9741
-0.3380 -6.0621 -2.5001 0.9741
0.7423 -6.0270 -2.5006 0.9741
2.3088 -5.6180 -2.5012 0.9741
2.7999 -5.3906 -2.5013 0.9741
3.2688 -5.1204 -2.5015 0.9741
3.7118 -4.8094 -2.5017 0.9741
4.1253 -4.4602 -2.5018 0.9741
4.5062 -4.0755 -2.5019 0.9741
4.8512 -3.6585 -2.5020 0.9741
5.1578 -3.2122 -2.5021 0.9741
5.4234 -2.7405 -2.5022 0.9741
5.6459 -2.2470 -2.5022 0.9741
5.8236 -1.7356 -2.5023 0.9741
5.9550 -1.2103 -2.5023 0.9741
6.0391 -0.6756 -2.5023 0.9741
6.0752 -0.1353 -2.5023 0.9741
4.3969 3.6341 -2.3489 0.9756
4.0557 4.0108 -2.3488 0.9756
2.8513 4.9386 -2.3482 0.9756
2.4002 5.1724 -2.3480 0.9756
1.9302 5.3650 -2.3478 0.9756
0.4441 5.6829 -2.3472 0.9756
-0.0635 5.6993 -2.3470 0.9756
-1.5666 5.4787 -2.3464 0.9757
-2.5128 5.1134 -2.3461 0.9757
-2.9577 4.8691 -2.3459 0.9757
-3.3791 4.5862 -2.3458 0.9757
-5.0757 3.3205 -2.4976 0.9741
-5.3510 2.8554 -2.4975 0.9741
-5.5838 2.3678 -2.4975 0.9741
-6.0108 0.8084 -2.4974 0.9741
-3.5093 0.1565 -1.4465 0.9849
-2.9337 -0.1308 -1.2092 0.9874
-2.7756 -0.6288 -1.1719 0.9878
-2.7775 -0.8956 -1.2017 0.9875
-5.3519 -2.8558 -2.4979 0.9741
-4.4080 -4.1691 -2.4984 0.9741
-4.0198 -4.5452 -2.4986 0.9741
-3.5995 -4.8853 -2.4988 0.9741
-1.6688 -5.8363 -2.4996 0.9741
-1.1429 -5.9622 -2.4998 0.9741
-0.6077 -6.0407 -2.5000 0.9741
-0.0676 -6.0714 -2.5003 0.9741
0.4731 -6.0538 -2.5005 0.9741
1.0101 -5.9882 -2.5007 0.9741
1.5392 -5.8750 -2.5009 0.9741
2.0562 -5.7151 -2.5011 0.9741
2.5569 -5.5098 -2.5013 0.9741
3.0373 -5.2608 -2.5014 0.9741
3.4937 -4.9698 -2.5016 0.9741
4.3200 -4.2721 -2.5019 0.9741
4.6834 -3.8708 -2.5020 0.9741
5.0095 -3.4388 -2.5021 0.9741
5.5402 -2.4962 -2.5022 0.9741
5.7404 -1.9932 -2.5023 0.9741
6.0030 -0.9439 -2.5023 0.9741
6.0751 0.1354 -2.5022 0.9741
6.0388 0.6756 -2.5022 0.9741
5.9546 1.2103 -2.5021 0.9741
5.8230 1.7355 -2.5020 0.9741
8.4680 3.3702 -3.7530 0.9613
8.1339 4.1103 -3.7528 0.9613
4.5545 3.4347 -2.3490 0.9756
3.0686 4.8069 -2.3483 0.9756
2.6284 5.0605 -2.3481 0.9756
1.1977 5.5737 -2.3475 0.9756
0.1905 5.6967 -2.3471 0.9756
-0.3173 5.6906 -2.3469 0.9756
-0.8225 5.6393 -2.3467 0.9756
-1.3210 5.5433 -2.3465 0.9757
-1.8090 5.4033 -2.3463 0.9757
-3.1716 4.7324 -2.3458 0.9757
-5.2185 3.0910 -2.4976 0.9741
-5.4728 2.6142 -2.4975 0.9741
-5.8494 1.6024 -2.4974 0.9741
-5.9688 1.0754 -2.4974 0.9741
-3.9772 0.3554 -1.6443 0.9829
-3.0794 0.0000 -1.3283 0.9867
-2.7539 -0.2461 -1.1927 0.9880
-2.7278 -0.4914 -1.1956 0.9880
-2.7092 -0.7421 -1.2117 0.9878
-4.3811 -3.7884 -2.4984 0.9751
-3.2252 -4.8123 -2.4989 0.9751
-2.7843 -5.0806 -2.4991 0.9751
-1.3434 -5.6371 -2.4997 0.9751
0.7086 -5.7534 -2.5005 0.9751
1.2180 -5.6679 -2.5007 0.9751
1.7177 -5.5374 -2.5009 0.9751
2.6727 -5.1459 -2.5013 0.9751
3.9380 -4.2576 -2.5017 0.9751
4.6309 -3.4923 -2.5019 0.9750
4.9235 -3.0663 -2.5020 0.9750
5.3894 -2.1449 -2.5021 0.9750
5.5590 -1.6567 -2.5022 0.9750
5.6845 -1.1554 -2.5022 0.9750
5.7876 0.3875 -2.5021 0.9750
5.7300 0.9011 -2.5020 0.9750
5.4791 1.9026 -2.5019 0.9751
7.9318 3.5739 -3.7527 0.9628
7.5819 4.2655 -3.7525 0.9628
4.4896 3.0820 -2.3490 0.9766
4.1972 3.4691 -2.3489 0.9766
1.8425 5.1215 -2.3478 0.9766
0.4239 5.4250 -2.3472 0.9766
-0.0606 5.4407 -2.3470 0.9766
-1.0241 5.3429 -2.3466 0.9766
-3.2259 4.3782 -2.3458 0.9766
-6.3108 5.9687 -3.7469 0.9629
-4.5444 3.5887 -2.4978 0.9751
-4.8456 3.1699 -2.4977 0.9751
-5.1083 2.7259 -2.4976 0.9751
-5.3306 2.2604 -2.4976 0.9751
-5.5105 1.7770 -2.4975 0.9751
-5.6468 1.2794 -2.4975 0.9751
-5.7382 0.7717 -2.4975 0.9751
-2.7402 -0.3685 -1.1926 0.9880
-2.7200 -0.6162 -1.2030 0.9879
-2.7167 -0.8760 -1.2313 0.9876
-2.7334 -1.1590 -1.2807 0.9871
-5.1092 -2.7263 -2.4980 0.9751
-4.8465 -3.1704 -2.4982 0.9751
-4.2081 -3.9799 -2.4985 0.9751
-3.8374 -4.3390 -2.4986 0.9751
-2.5553 -5.1998 -2.4992 0.9751
-2.0825 -5.4071 -2.4994 0.9751
-1.5931 -5.5715 -2.4996 0.9751
-1.0910 -5.6916 -2.4998 0.9751
-0.0646 -5.7958 -2.5002 0.9751
0.9642 -5.7163 -2.5006 0.9751
1.4693 -5.6083 -2.5008 0.9751
1.9628 -5.4556 -2.5010 0.9751
2.4408 -5.2596 -2.5012 0.9751
3.3351 -4.7441 -2.5015 0.9751
4.1238 -4.0781 -2.5018 0.9751
4.7820 -3.2826 -2.5020 0.9750
5.0553 -2.8440 -2.5021 0.9750
5.4797 -1.9027 -2.5022 0.9750
5.6273 -1.4074 -2.5022 0.9750
5.7303 -0.9010 -2.5022 0.9750
5.7992 0.1293 -2.5021 0.9750
5.7645 0.6449 -2.5021 0.9750
5.6841 1.1554 -2.5020 0.9750
4.0384 3.6525 -2.3488 0.9766
3.6970 3.9972 -2.3486 0.9766
1.6125 5.1983 -2.3477 0.9766
0.1818 5.4382 -2.3471 0.9766
-0.3029 5.4324 -2.3469 0.9766
-0.7851 5.3835 -2.3467 0.9766
-2.6138 4.7696 -2.3461 0.9766
-6.0388 6.2441 -3.7470 0.9629
-4.3801 3.7877 -2.4978 0.9751
-4.6997 3.3827 -2.4977 0.9751
-5.4259 2.0207 -2.4975 0.9751
-5.5842 1.5297 -2.4975 0.9751
-3.8264 0.3420 -1.6571 0.9834
-2.9980 0.0000 -1.3528 0.9869
-2.7005 -0.2413 -1.2234 0.9882
-2.6738 -0.4817 -1.2259 0.9881
-2.6607 -0.9908 -1.2811 0.9876
-2.6867 -1.5913 -1.4090 0.9864
-4.1883 -3.6218 -2.4984 0.9760
-3.4803 -4.3076 -2.4988 0.9760
-2.6618 -4.8571 -2.4991 0.9760
-2.2191 -5.0751 -2.4993 0.9760
-1.2843 -5.3890 -2.4997 0.9760
-0.7996 -5.4823 -2.4999 0.9760
-0.3085 -5.5322 -2.5001 0.9760
0.1852 -5.5381 -2.5003 0.9760
0.6774 -5.5001 -2.5005 0.9760
1.6421 -5.2936 -2.5009 0.9760
2.1069 -5.1268 -2.5010 0.9760
2.5550 -4.9193 -2.5012 0.9760
3.3871 -4.3888 -2.5015 0.9760
4.7066 -2.9313 -2.5019 0.9760
4.9490 -2.5008 -2.5020 0.9760
5.1520 -2.0504 -2.5020 0.9760
5.3141 -1.5838 -2.5021 0.9760
5.4340 -1.1045 -2.5021 0.9760
5.5108 -0.6164 -2.5021 0.9760
5.5437 -0.1235 -2.5020 0.9760
5.4776 0.8614 -2.5019 0.9760
5.3790 1.3454 -2.5019 0.9760
3.3604 3.9747 -2.3485 0.9774
2.1904 4.7202 -2.3480 0.9774
1.7614 4.8961 -2.3478 0.9774
1.3186 5.0330 -2.3476 0.9774
0.8653 5.1300 -2.3474 0.9774
0.4053 5.1862 -2.3472 0.9774
-0.0579 5.2013 -2.3470 0.9774
-0.5206 5.1751 -2.3469 0.9774
-0.9791 5.1078 -2.3467 0.9774
-1.4297 5.0001 -2.3465 0.9774
-1.8689 4.8526 -2.3464 0.9774
-2.6994 4.4438 -2.3461 0.9774
-4.9264 6.6862 -3.7474 0.9642
-4.0221 3.8041 -2.4980 0.9760
-4.3445 3.4309 -2.4979 0.9760
-4.6325 3.0305 -2.4978 0.9760
-4.8837 2.6061 -2.4977 0.9760
-5.0962 2.1610 -2.4977 0.9760
-5.4859 0.7378 -2.4976 0.9760
-3.2608 0.1454 -1.4728 0.9858
-2.6871 -0.3614 -1.2234 0.9882
-2.6659 -0.6040 -1.2334 0.9881
-2.6675 -1.1311 -1.3074 0.9874
-4.8844 -2.6063 -2.4981 0.9760
-4.0230 -3.8049 -2.4985 0.9760
-3.6686 -4.1481 -2.4987 0.9760
-3.2851 -4.4585 -2.4989 0.9760
-2.8754 -4.7335 -2.4990 0.9760
-1.9909 -5.1691 -2.4994 0.9760
-1.5230 -5.3263 -2.4996 0.9760
-1.0430 -5.4411 -2.4998 0.9760
-0.0617 -5.5407 -2.5002 0.9760
0.4317 -5.5246 -2.5004 0.9760
1.4046 -5.3613 -2.5008 0.9760
1.8764 -5.2154 -2.5010 0.9760
2.3333 -5.0280 -2.5011 0.9760
3.1882 -4.5352 -2.5014 0.9760
3.9422 -3.8985 -2.5017 0.9760
5.0555 -2.2779 -2.5020 0.9760
5.3795 -1.3454 -2.5021 0.9760
5.5328 -0.3704 -2.5021 0.9760
5.5106 0.6165 -2.5020 0.9760
5.4337 1.1045 -2.5019 0.9760
5.3137 1.5837 -2.5018 0.9760
7.0589 4.3963 -3.7523 0.9642
3.5342 3.8211 -2.3486 0.9774
3.1799 4.1203 -2.3484 0.9774
2.3986 4.6181 -2.3481 0.9774
1.9779 4.8129 -2.3479 0.9774
1.5415 4.9695 -2.3477 0.9774
0.6359 5.1632 -2.3473 0.9774
0.1738 5.1989 -2.3471 0.9774
-0.2896 5.1934 -2.3470 0.9774
-1.6510 4.9312 -2.3464 0.9774
-2.8946 4.3190 -2.3460 0.9774
-4.1875 3.6211 -2.4979 0.9760
-4.7628 2.8211 -2.4978 0.9760
-4.9949 2.3859 -2.4977 0.9760
-5.4476 0.9815 -2.4976 0.9760
-2.6016 -0.7127 -1.2715 0.9881
-2.6052 -1.2444 -1.3609 0.9873
-2.6596 -1.5753 -1.4571 0.9864
-3.6851 -3.8103 -2.4987 0.9768
-3.3315 -4.1234 -2.4988 0.9768
-2.9515 -4.4039 -2.4990 0.9768
-2.1242 -4.8581 -2.4994 0.9768
-1.6835 -5.0282 -2.4995 0.9768
-1.2294 -5.1586 -2.4997 0.9768
-0.7654 -5.2479 -2.4999 0.9768
0.1772 -5.3013 -2.5003 0.9768
0.6484 -5.2648 -2.5005 0.9768
1.1145 -5.1866 -2.5007 0.9768
1.5719 -5.0671 -2.5008 0.9768
3.6034 -3.8959 -2.5016 0.9768
5.0867 -1.5160 -2.5020 0.9768
5.3064 -0.1182 -2.5020 0.9768
5.1488 1.2878 -2.5018 0.9768
5.0136 1.7409 -2.5017 0.9768
6.9378 3.9031 -3.7523 0.9654
6.5625 4.5049 -3.7521 0.9654
3.5427 3.5035 -2.3486 0.9782
2.8650 4.0755 -2.3483 0.9782
2.4907 4.3140 -2.3481 0.9782
1.6861 4.6866 -2.3478 0.9782
1.2622 4.8178 -2.3476 0.9782
0.8283 4.9106 -2.3474 0.9782
-0.9372 4.8895 -2.3467 0.9782
-1.3686 4.7863 -2.3466 0.9782
-2.1952 4.4672 -2.3462 0.9782
-3.8502 3.6415 -2.4981 0.9768
-4.1589 3.2843 -2.4980 0.9768
-4.4345 2.9010 -2.4979 0.9768
-4.8784 2.0687 -2.4978 0.9768
-5.0431 1.6262 -2.4977 0.9768
-5.1678 1.1709 -2.4977 0.9768
-3.1522 0.1406 -1.4873 0.9861
-2.7082 -0.1208 -1.2778 0.9881
-2.6352 -0.3544 -1.2533 0.9883
-2.6131 -0.5920 -1.2630 0.9882
-2.5994 -0.8382 -1.2874 0.9880
-2.6038 -1.1041 -1.3332 0.9876
-2.7525 -4.5311 -2.4991 0.9768
-1.9057 -4.9481 -2.4994 0.9768
-1.4579 -5.0984 -2.4996 0.9768
-0.0591 -5.3037 -2.5002 0.9768
1.3445 -5.1320 -2.5007 0.9768
2.6531 -4.5953 -2.5012 0.9768
3.4262 -4.0525 -2.5015 0.9768
5.0141 -1.7410 -2.5020 0.9768
5.1492 -1.2879 -2.5020 0.9768
5.2959 -0.3545 -2.5020 0.9768
5.0862 1.5159 -2.5017 0.9768
4.9310 1.9625 -2.5017 0.9768
7.1049 3.5903 -3.7524 0.9654
6.7568 4.2082 -3.7522 0.9654
3.6953 3.3423 -2.3487 0.9782
3.0438 3.9440 -2.3484 0.9782
2.6805 4.1990 -2.3482 0.9782
2.2960 4.4205 -2.3480 0.9782
0.6087 4.9424 -2.3473 0.9782
0.1664 4.9766 -2.3471 0.9782
-0.2772 4.9713 -2.3470 0.9782
-2.3920 4.3649 -2.3462 0.9782
-4.4262 6.6044 -3.7476 0.9655
-4.9962 6.1839 -3.7474 0.9655
-5.5265 5.7143 -3.7472 0.9655
-4.0085 3.4664 -2.4980 0.9768
-4.3010 3.0957 -2.4979 0.9768
-4.7814 2.2839 -2.4978 0.9768
-4.9657 1.8493 -2.4977 0.9768
-5.2148 0.9395 -2.4977 0.9768
-2.8279 0.0000 -1.3909 0.9875
-2.5903 -0.2315 -1.2791 0.9885
-2.5698 -0.4629 -1.2843 0.9884
-2.5499 -0.6985 -1.3004 0.9883
-4.3703 -2.5885 -2.4983 0.9776
-3.1929 -3.9518 -2.4989 0.9776
-2.8286 -4.2206 -2.4990 0.9776
-2.0358 -4.6559 -2.4994 0.9776
-1.1782 -4.9438 -2.4997 0.9776
-0.7335 -5.0294 -2.4999 0.9776
-0.2830 -5.0751 -2.5001 0.9776
0.1699 -5.0805 -2.5003 0.9776
1.0681 -4.9706 -2.5006 0.9776
1.5064 -4.8561 -2.5008 0.9776
2.3438 -4.5126 -2.5011 0.9776
3.7721 -3.4116 -2.5016 0.9776
4.0609 -3.0624 -2.5017 0.9776
4.8747 -1.4528 -2.5019 0.9776
5.0247 0.7902 -2.5018 0.9776
4.9343 1.2342 -2.5017 0.9776
4.6369 2.0893 -2.5015 0.9776
5.8796 4.8596 -3.7518 0.9666
3.0826 3.6462 -2.3484 0.9789
1.6159 4.4915 -2.3478 0.9789
1.2096 4.6171 -2.3476 0.9789
-0.8982 4.6860 -2.3467 0.9790
-1.3116 4.5871 -2.3466 0.9790
-1.7146 4.4519 -2.3464 0.9790
-3.9559 6.5124 -3.7478 0.9666
-4.5197 6.1341 -3.7476 0.9666
-5.0475 5.7073 -3.7474 0.9666
-3.6900 3.4900 -2.4981 0.9776
-4.2500 2.7803 -2.4980 0.9776
-4.8333 1.5586 -2.4978 0.9776
-4.9528 1.1222 -2.4978 0.9776
-3.0630 0.1366 -1.5081 0.9864
-2.5845 -0.3476 -1.2826 0.9884
-2.5616 -0.5804 -1.2919 0.9884
-2.5430 -0.8200 -1.3142 0.9882
-2.5301 -1.3501 -1.4105 0.9873
-3.9866 -3.1481 -2.4985 0.9776
-3.0137 -4.0902 -2.4989 0.9776
-2.6379 -4.3425 -2.4991 0.9776
-2.2411 -4.5604 -2.4993 0.9776
-1.8264 -4.7421 -2.4995 0.9776
-0.9568 -4.9915 -2.4998 0.9776
-0.5088 -5.0572 -2.5000 0.9776
-0.0566 -5.0829 -2.5002 0.9776
0.3960 -5.0680 -2.5004 0.9776
0.8456 -5.0130 -2.5005 0.9776
1.2885 -4.9182 -2.5007 0.9776
2.1404 -4.6124 -2.5010 0.9776
2.5426 -4.4038 -2.5012 0.9776
3.9204 -3.2402 -2.5016 0.9776
4.4330 -2.4939 -2.5018 0.9776
4.9346 -1.2342 -2.5019 0.9776
5.0249 -0.7901 -2.5019 0.9776
5.0753 -0.3397 -2.5019 0.9776
5.0549 0.5655 -2.5018 0.9776
4.8743 1.4527 -2.5017 0.9776
4.7255 1.8807 -2.5016 0.9776
6.4754 4.0329 -3.7521 0.9666
6.0904 4.5930 -3.7519 0.9666
2.5689 4.0241 -2.3482 0.9789
1.8144 4.4152 -2.3478 0.9789
1.0027 4.6663 -2.3475 0.9789
0.5834 4.7366 -2.3473 0.9790
0.1595 4.7694 -2.3472 0.9790
-0.2657 4.7643 -2.3470 0.9790
-0.6886 4.7215 -2.3468 0.9790
-1.5146 4.5239 -2.3465 0.9790
-1.9111 4.3709 -2.3464 0.9790
-3.5310 3.6510 -2.4982 0.9776
-3.8417 3.3221 -2.4981 0.9776
-4.1220 2.9669 -2.4980 0.9776
-4.3696 2.5882 -2.4979 0.9776
-4.7591 1.7724 -2.4978 0.9776
-3.6334 0.3247 -1.7942 0.9839
-2.7481 0.0000 -1.4089 0.9877
-2.5372 -0.2267 -1.3059 0.9886
-2.5199 -0.4540 -1.3126 0.9886
-2.4994 -0.6846 -1.3286 0.9884
-2.4895 -0.9271 -1.3619 0.9881
-2.4879 -1.1884 -1.4135 0.9877
-2.4521 -1.4524 -1.4611 0.9873
-3.9554 -2.8469 -2.4985 0.9783
-3.6865 -3.1878 -2.4986 0.9783
-3.0633 -3.7914 -2.4989 0.9783
-2.3428 -4.2750 -2.4992 0.9783
-1.9531 -4.4669 -2.4994 0.9783
-1.5479 -4.6233 -2.4996 0.9783
-0.7037 -4.8252 -2.4999 0.9783
0.1630 -4.8742 -2.5003 0.9783
1.4452 -4.6588 -2.5008 0.9783
2.6252 -4.1122 -2.5012 0.9783
3.3130 -3.5819 -2.5014 0.9783
3.8959 -2.9380 -2.5016 0.9783
4.1421 -2.5796 -2.5017 0.9783
4.3553 -2.2008 -2.5017 0.9783
4.7822 -0.9720 -2.5018 0.9783
4.8497 -0.5425 -2.5018 0.9783
4.8689 0.3260 -2.5017 0.9783
4.8205 0.7580 -2.5017 0.9783
4.4486 2.0045 -2.5015 0.9783
3.2572 3.2212 -2.3485 0.9796
2.9574 3.4981 -2.3484 0.9796
2.6341 3.7471 -2.3482 0.9796
2.2900 3.9665 -2.3481 0.9796
1.5503 4.3091 -2.3477 0.9796
0.3567 4.5646 -2.3473 0.9796
-0.4582 4.5549 -2.3469 0.9796
-0.8618 4.4958 -2.3468 0.9796
-4.3362 5.8852 -3.7477 0.9677
-3.5403 3.3484 -2.4982 0.9783
-4.0776 2.6675 -2.4980 0.9783
-4.2987 2.2939 -2.4980 0.9783
-4.4858 1.9022 -2.4979 0.9783
-4.8288 0.6495 -2.4979 0.9783
-2.5877 -0.1154 -1.3280 0.9884
-2.5350 -0.3409 -1.3113 0.9886
-2.5113 -0.5690 -1.3201 0.9885
-2.4881 -0.8023 -1.3403 0.9883
-2.4879 -1.0550 -1.3854 0.9879
-2.4717 -1.3189 -1.4363 0.9875
-4.0782 -2.6679 -2.4984 0.9783
-2.5308 -4.1663 -2.4991 0.9783
-2.1501 -4.3753 -2.4993 0.9783
-1.3405 -4.6878 -2.4997 0.9783
-0.0543 -4.8764 -2.5002 0.9783
0.3799 -4.8622 -2.5003 0.9783
1.2362 -4.7185 -2.5007 0.9783
1.6514 -4.5900 -2.5008 0.9783
3.1501 -3.7259 -2.5014 0.9783
3.7611 -3.1086 -2.5016 0.9783
4.0230 -2.7616 -2.5016 0.9783
4.6099 -1.6007 -2.5018 0.9783
4.8207 -0.7579 -2.5018 0.9783
4.8787 0.1088 -2.5018 0.9783
4.7819 0.9720 -2.5017 0.9783
4.5335 1.8043 -2.5015 0.9783
4.3548 2.2006 -2.5014 0.9783
5.4273 4.9087 -3.7516 0.9676
3.1104 3.3630 -2.3484 0.9796
2.4645 3.8607 -2.3481 0.9796
2.1110 4.0644 -2.3480 0.9796
1.7408 4.2359 -2.3478 0.9796
1.3567 4.3737 -2.3477 0.9796
0.9620 4.4768 -2.3475 0.9796
0.5597 4.5444 -2.3473 0.9796
-1.0611 4.4528 -2.3467 0.9796
-1.8336 4.1936 -2.3464 0.9796
-4.5940 5.6861 -3.7476 0.9677
-4.1923 2.4832 -2.4980 0.9783
-4.3966 2.1001 -2.4979 0.9783
-4.5660 1.7004 -2.4979 0.9783
-4.6992 1.2873 -2.4979 0.9783
-3.5463 0.3169 -1.8253 0.9841
-2.6714 0.0000 -1.4261 0.9880
-2.4853 -0.2221 -1.3321 0.9887
-2.4501 -0.6711 -1.3561 0.9885
-2.4292 -1.1603 -1.4371 0.9879
-2.3944 -1.4182 -1.4856 0.9875
-3.7986 -2.7341 -2.4985 0.9790
-1.4865 -4.4400 -2.4996 0.9790
-0.2607 -4.6759 -2.5001 0.9790
0.1565 -4.6808 -2.5002 0.9790
0.9841 -4.5795 -2.5006 0.9790
2.5210 -3.9490 -2.5011 0.9790
2.8626 -3.7091 -2.5012 0.9790
3.1815 -3.4398 -2.5014 0.9790
3.9777 -2.4773 -2.5016 0.9790
4.3540 -1.7328 -2.5017 0.9790
4.4910 -1.3384 -2.5017 0.9790
4.5924 -0.9334 -2.5017 0.9790
4.6572 -0.5209 -2.5017 0.9790
4.6292 0.7279 -2.5016 0.9790
4.4265 1.5371 -2.5015 0.9790
4.0836 2.2974 -2.5013 0.9790
5.4169 4.4772 -3.7517 0.9686
2.8401 3.3593 -2.3483 0.9803
2.5296 3.5985 -2.3482 0.9803
1.8513 3.9895 -2.3479 0.9803
1.4888 4.1381 -2.3477 0.9803
0.7314 4.3360 -2.3474 0.9803
0.3425 4.3836 -2.3473 0.9803
-0.4401 4.3743 -2.3470 0.9803
-0.8276 4.3175 -2.3468 0.9803
-1.5798 4.1019 -2.3465 0.9803
-3.0966 6.3013 -3.7482 0.9687
-3.6450 6.0004 -3.7480 0.9687
-3.4000 3.2157 -2.4983 0.9790
-3.6726 2.9002 -2.4982 0.9790
-3.9160 2.5618 -2.4981 0.9790
-4.1284 2.2030 -2.4980 0.9790
-4.5635 1.0340 -2.4980 0.9790
-2.5303 -0.1128 -1.3521 0.9886
-2.4621 -0.5578 -1.3477 0.9886
-2.4151 -1.2887 -1.4613 0.9877
-3.6732 -2.9006 -2.4986 0.9790
-3.1010 -3.5063 -2.4989 0.9790
-1.2873 -4.5019 -2.4997 0.9790
-0.8815 -4.5989 -2.4998 0.9790
-0.0522 -4.6830 -2.5002 0.9790
0.3649 -4.6693 -2.5003 0.9790
1.5858 -4.4079 -2.5008 0.9790
1.9720 -4.2495 -2.5009 0.9790
3.0251 -3.5780 -2.5013 0.9790
3.8633 -2.6520 -2.5016 0.9790
4.0841 -2.2976 -2.5016 0.9790
4.4269 -1.5372 -2.5017 0.9790
4.5462 -1.1371 -2.5017 0.9790
4.6294 -0.7279 -2.5017 0.9790
4.6850 0.1045 -2.5017 0.9790
4.6571 0.5210 -2.5016 0.9790
4.3536 1.7328 -2.5014 0.9790
4.1819 2.1133 -2.5013 0.9790
5.6111 4.2316 -3.7518 0.9686
5.2119 4.7139 -3.7516 0.9686
2.9870 3.2295 -2.3484 0.9803
2.6875 3.4823 -2.3483 0.9803
1.6717 4.0679 -2.3478 0.9803
1.3029 4.2003 -2.3477 0.9803
0.9238 4.2992 -2.3475 0.9803
0.1469 4.3943 -2.3472 0.9803
-0.2448 4.3897 -2.3470 0.9803
-1.0191 4.2762 -2.3467 0.9803
-1.3955 4.1683 -2.3466 0.9803
-3.3741 6.1570 -3.7481 0.9687
-3.2534 3.3641 -2.4983 0.9790
-3.5398 3.0610 -2.4982 0.9790
-3.7980 2.7337 -2.4981 0.9790
-4.3850 1.6331 -2.4980 0.9790
-3.5312 0.3156 -1.8926 0.9841
-2.5975 0.0000 -1.4427 0.9882
-2.4018 -0.6579 -1.3831 0.9887
-2.3176 -1.3727 -1.4960 0.9878
-3.4031 -2.9427 -2.4987 0.9796
-2.8277 -3.4998 -2.4990 0.9796
-2.5051 -3.7378 -2.4991 0.9796
-1.4288 -4.2677 -2.4996 0.9796
-0.6496 -4.4540 -2.4999 0.9796
-0.2506 -4.4944 -2.5001 0.9796
0.1504 -4.4992 -2.5002 0.9796
0.5503 -4.4682 -2.5004 0.9796
1.3340 -4.3004 -2.5007 0.9796
2.0755 -3.9961 -2.5010 0.9796
2.7515 -3.5651 -2.5012 0.9796
3.3402 -3.0210 -2.5014 0.9796
3.5960 -2.7118 -2.5015 0.9796
3.8232 -2.3811 -2.5015 0.9796
4.0200 -2.0314 -2.5016 0.9796
4.1850 -1.6655 -2.5016 0.9796
4.4763 -0.5007 -2.5017 0.9796
4.4941 0.3009 -2.5016 0.9796
4.2547 1.4774 -2.5014 0.9796
4.1061 1.8502 -2.5013 0.9796
3.9250 2.2082 -2.5012 0.9796
5.5692 3.8231 -3.7518 0.9696
4.8027 4.7495 -3.7514 0.9696
2.4315 3.4588 -2.3482 0.9808
2.1138 3.6613 -2.3480 0.9808
1.7795 3.8346 -2.3479 0.9808
1.0712 4.0889 -2.3476 0.9808
0.7030 4.1678 -2.3474 0.9808
-0.4230 4.2046 -2.3470 0.9809
-1.1616 4.0625 -2.3467 0.9809
-4.0028 5.4327 -3.7479 0.9696
-2.9801 3.3697 -2.4984 0.9796
-3.2681 3.0910 -2.4983 0.9796
-3.9683 2.1176 -2.4981 0.9796
-4.1409 1.7560 -2.4981 0.9796
-4.2807 1.3804 -2.4980 0.9796
-4.4576 0.5995 -2.4980 0.9796
-2.4139 -0.5469 -1.3747 0.9887
-2.3870 -0.7697 -1.3929 0.9886
-2.3793 -1.0089 -1.4353 0.9882
-2.3600 -1.2593 -1.4857 0.9878
-2.2661 -1.4824 -1.5039 0.9877
-3.5307 -2.7881 -2.4986 0.9796
-2.9807 -3.3703 -2.4989 0.9796
-2.6691 -3.6224 -2.4990 0.9796
-1.9847 -4.0387 -2.4993 0.9796
-1.6175 -4.1996 -2.4995 0.9796
-0.8473 -4.4205 -2.4998 0.9796
0.3507 -4.4881 -2.5003 0.9796
2.2516 -3.8998 -2.5010 0.9796
2.5899 -3.6841 -2.5011 0.9796
2.9076 -3.4391 -2.5012 0.9796
3.7133 -2.5490 -2.5015 0.9796
4.1066 -1.8503 -2.5016 0.9796
4.3697 -1.0929 -2.5017 0.9796
4.4496 -0.6996 -2.5017 0.9796
4.5031 0.1004 -2.5016 0.9796
