ply
format ascii 1.0
element vertex 1589
property float32 x
property float32 y
property float32 z
property float32 I
end_header
3.8292 -12.3440 -2.5011 0.9487
4.9135 -11.9555 -2.5014 0.9487
6.9565 -10.8971 -2.5019 0.9487
8.7799 -9.4926 -2.5023 0.9487
9.5906 -8.6742 -2.5024 0.9487
11.5433 -5.8331 -2.5028 0.9487
12.3952 -3.6941 -2.5030 0.9487
12.9306 -0.2881 -2.5029 0.9487
11.9971 1.8864 -2.3502 0.9517
11.0705 4.9882 -2.3498 0.9517
8.6306 8.5350 -2.3489 0.9517
7.8359 9.2683 -2.3487 0.9518
6.0670 10.5084 -2.3482 0.9518
5.1070 11.0053 -2.3479 0.9518
4.1067 11.4148 -2.3476 0.9518
3.0741 11.7336 -2.3473 0.9518
-1.2135 12.0627 -2.3461 0.9518
-3.3322 11.6537 -2.3456 0.9518
-4.3558 11.3096 -2.3453 0.9518
-5.3445 10.8759 -2.3451 0.9518
-7.1869 9.7541 -2.3446 0.9518
-8.0259 9.0750 -2.3444 0.9518
-8.8011 8.3240 -2.3443 0.9518
-10.6858 5.7021 -2.3439 0.9519
-11.8746 5.0353 -2.4960 0.9488
-12.5788 2.8500 -2.4959 0.9488
-12.7826 1.7191 -2.4959 0.9488
-12.8850 0.5746 -2.4960 0.9488
-12.7835 -1.7192 -2.4961 0.9488
-12.5803 -2.8503 -2.4962 0.9488
-11.8770 -5.0363 -2.4965 0.9488
-11.3824 -6.0738 -2.4967 0.9488
-10.1269 -7.9971 -2.4971 0.9488
-9.3759 -8.8676 -2.4974 0.9488
-8.5503 -9.6680 -2.4976 0.9488
-7.6567 -10.3918 -2.4979 0.9488
-5.6942 -11.5874 -2.4985 0.9488
-2.4315 -12.6848 -2.4994 0.9487
-1.2930 -12.8525 -2.4997 0.9487
1.0069 -12.8812 -2.5004 0.9487
4.3755 -12.1619 -2.5012 0.9487
6.4638 -11.1957 -2.5017 0.9487
7.4354 -10.5769 -2.5020 0.9487
8.3479 -9.8739 -2.5022 0.9487
9.1943 -9.0925 -2.5024 0.9487
9.9678 -8.2386 -2.5025 0.9487
11.2717 -6.3413 -2.5028 0.9487
12.5475 -3.1383 -2.5030 0.9487
12.9051 -0.8639 -2.5029 0.9487
12.9305 0.2882 -2.5029 0.9487
11.9008 2.4190 -2.3501 0.9517
11.6377 3.4684 -2.3500 0.9517
10.8369 5.4761 -2.3497 0.9517
10.3057 6.4184 -2.3495 0.9517
8.2414 8.9105 -2.3488 0.9518
7.4148 9.6076 -2.3486 0.9518
3.4319 5.3760 -1.2343 0.9743
3.5939 11.5857 -2.3474 0.9518
-0.6750 12.1054 -2.3463 0.9518
-1.7495 11.9959 -2.3460 0.9518
-2.8100 11.7912 -2.3457 0.9518
-3.8479 11.4930 -2.3454 0.9518
-5.8234 10.6264 -2.3450 0.9518
-7.6139 9.4239 -2.3445 0.9518
-9.1628 7.9234 -2.3442 0.9518
-11.6387 5.5593 -2.4960 0.9488
-12.0870 4.5012 -2.4960 0.9488
-12.4394 3.4075 -2.4959 0.9488
-12.6933 2.2868 -2.4959 0.9488
-11.7941 -1.0539 -2.4963 0.9527
-11.4213 -3.1286 -2.4965 0.9527
-11.0981 -4.1330 -2.4967 0.9527
-10.6869 -5.1047 -2.4968 0.9527
-10.1908 -6.0361 -2.4970 0.9527
-9.6139 -6.9197 -2.4972 0.9527
-8.2362 -8.5162 -2.4977 0.9527
-7.4462 -9.2163 -2.4979 0.9527
-6.5971 -9.8435 -2.4982 0.9527
-5.6954 -10.3928 -2.4984 0.9527
-4.7483 -10.8596 -2.4987 0.9527
-1.7111 -11.7323 -2.4996 0.9527
-0.6601 -11.8394 -2.4999 0.9527
1.4498 -11.7715 -2.5004 0.9527
3.5147 -11.3303 -2.5009 0.9527
5.4690 -10.5297 -2.5014 0.9527
6.3851 -10.0020 -2.5017 0.9526
7.2505 -9.3948 -2.5019 0.9526
9.4768 -7.1468 -2.5023 0.9526
10.0758 -6.2753 -2.5025 0.9526
10.5947 -5.3537 -2.5026 0.9526
11.7976 -1.3197 -2.5027 0.9526
10.5288 3.6560 -2.3497 0.9555
10.1610 4.5783 -2.3495 0.9555
9.1869 6.3064 -2.3492 0.9555
8.5884 7.0985 -2.3490 0.9555
6.4060 9.1126 -2.3483 0.9555
5.5689 9.6456 -2.3481 0.9555
4.6878 10.1019 -2.3478 0.9555
3.7696 10.4778 -2.3475 0.9555
0.8672 11.0976 -2.3467 0.9555
-1.1140 11.0730 -2.3462 0.9555
-2.0949 10.9287 -2.3459 0.9555
-4.9063 9.9840 -2.3452 0.9555
-7.3678 8.3310 -2.3447 0.9556
-8.7271 6.8917 -2.3444 0.9556
-11.2692 3.6338 -2.4962 0.9527
-11.5478 2.6164 -2.4962 0.9527
-11.8289 0.5275 -2.4962 0.9527
-11.8291 -0.5275 -2.4963 0.9527
-10.9033 -4.6234 -2.4967 0.9527
-10.4492 -5.5759 -2.4969 0.9527
-9.9122 -6.4843 -2.4971 0.9527
-7.0287 -9.5394 -2.4980 0.9527
-6.1524 -10.1282 -2.4983 0.9527
-5.2271 -10.6367 -2.4986 0.9527
-4.2601 -11.0610 -2.4988 0.9527
-1.1868 -11.7975 -2.4997 0.9527
-0.1321 -11.8577 -2.5000 0.9527
0.9239 -11.8237 -2.5003 0.9527
1.9729 -11.6958 -2.5006 0.9527
4.0162 -11.1631 -2.5011 0.9527
4.9943 -10.7624 -2.5013 0.9527
6.8246 -9.7081 -2.5018 0.9526
10.3455 -5.8203 -2.5025 0.9526
10.8229 -4.8765 -2.5026 0.9526
11.2142 -3.8940 -2.5026 0.9526
11.5164 -2.8804 -2.5027 0.9526
11.8446 -0.7929 -2.5027 0.9526
8.2633 7.4737 -2.3489 0.9555
6.8059 8.8187 -2.3484 0.9555
2.3390 10.8849 -2.3471 0.9555
0.3719 11.1246 -2.3466 0.9555
-0.6196 11.1123 -2.3463 0.9555
-1.6060 11.0118 -2.3461 0.9555
-2.5795 10.8240 -2.3458 0.9555
-4.4569 10.1931 -2.3453 0.9555
-6.1924 9.2397 -2.3449 0.9555
-7.7314 7.9942 -2.3446 0.9556
-9.0252 6.4960 -2.3443 0.9556
-9.5672 5.6667 -2.3442 0.9556
-10.6847 5.1037 -2.4963 0.9527
-11.4198 3.1283 -2.4962 0.9527
-11.6529 2.0994 -2.4962 0.9527
-10.9379 0.0000 -2.4965 0.9561
-10.8948 -0.9735 -2.4966 0.9561
-10.5503 -2.8900 -2.4968 0.9561
-9.4136 -5.5757 -2.4972 0.9561
-5.2608 -9.5997 -2.4985 0.9561
-4.3859 -10.0309 -2.4988 0.9561
-2.5384 -10.6518 -2.4993 0.9561
-1.5805 -10.8366 -2.4996 0.9561
1.3391 -10.8726 -2.5003 0.9560
2.3017 -10.7113 -2.5006 0.9560
3.2463 -10.4649 -2.5008 0.9560
4.1652 -10.1354 -2.5011 0.9560
5.0512 -9.7253 -2.5013 0.9560
5.8972 -9.2379 -2.5015 0.9560
8.1300 -7.3531 -2.5020 0.9560
9.3058 -5.7957 -2.5022 0.9560
9.7850 -4.9446 -2.5023 0.9560
10.1865 -4.0541 -2.5024 0.9560
10.5071 -3.1314 -2.5024 0.9560
10.9390 0.7323 -2.5023 0.9560
9.9866 2.4978 -2.3496 0.9586
9.7242 3.3766 -2.3495 0.9586
9.3846 4.2285 -2.3494 0.9586
8.9704 5.0466 -2.3492 0.9587
8.4850 5.8246 -2.3490 0.9587
5.9167 8.4166 -2.3482 0.9587
5.1436 8.9090 -2.3480 0.9587
4.3298 9.3305 -2.3477 0.9587
2.6063 9.9482 -2.3472 0.9587
0.8010 10.2505 -2.3468 0.9587
-1.0289 10.2280 -2.3463 0.9587
-2.8255 9.8816 -2.3458 0.9587
-3.6935 9.5900 -2.3456 0.9587
-4.5320 9.2224 -2.3454 0.9587
-5.3344 8.7817 -2.3452 0.9587
-6.8059 7.6956 -2.3448 0.9587
-7.4634 7.0588 -2.3447 0.9587
-8.0616 6.3662 -2.3446 0.9587
-8.5959 5.6231 -2.3445 0.9587
-9.6503 5.1496 -2.4966 0.9561
-10.0701 4.2701 -2.4965 0.9561
-10.4100 3.3568 -2.4965 0.9561
-10.8408 -1.4579 -2.4966 0.9561
-10.6684 -2.4171 -2.4967 0.9561
-10.4114 -3.3572 -2.4968 0.9561
-10.0718 -4.2708 -2.4970 0.9561
-9.6523 -5.1506 -2.4971 0.9561
-9.1562 -5.9897 -2.4973 0.9561
-7.9504 -7.5194 -2.4977 0.9561
-7.2502 -8.1979 -2.4979 0.9561
-4.8282 -9.8250 -2.4986 0.9561
-3.9349 -10.2168 -2.4989 0.9561
-2.0615 -10.7549 -2.4994 0.9561
-1.0962 -10.8969 -2.4997 0.9561
-0.1220 -10.9523 -2.5000 0.9561
0.8534 -10.9209 -2.5002 0.9561
1.8222 -10.8027 -2.5005 0.9560
2.7767 -10.5987 -2.5007 0.9560
6.3031 -8.9663 -2.5016 0.9560
7.0767 -8.3703 -2.5018 0.9560
7.7941 -7.7078 -2.5019 0.9560
8.4497 -6.9838 -2.5021 0.9560
9.5549 -5.3755 -2.5023 0.9560
9.9957 -4.5038 -2.5023 0.9560
10.3571 -3.5963 -2.5024 0.9560
10.8308 -1.7030 -2.5024 0.9560
10.9393 -0.7323 -2.5024 0.9560
10.9609 0.2443 -2.5024 0.9560
10.0882 2.0505 -2.3496 0.9586
9.8652 2.9402 -2.3495 0.9586
9.5639 3.8063 -2.3494 0.9586
8.7364 5.4411 -2.3491 0.9587
7.6320 6.9027 -2.3487 0.9587
6.9867 7.5540 -2.3485 0.9587
6.2861 8.1451 -2.3483 0.9587
3.0471 9.8228 -2.3474 0.9587
1.2569 10.2053 -2.3469 0.9587
0.3435 10.2755 -2.3466 0.9587
-0.5723 10.2643 -2.3464 0.9587
-1.4835 10.1715 -2.3461 0.9587
-2.3827 9.9981 -2.3459 0.9587
-3.2628 9.7454 -2.3457 0.9587
-4.1168 9.4155 -2.3455 0.9587
-5.7201 8.5350 -2.3451 0.9587
-6.4566 7.9914 -2.3449 0.9587
-7.1418 7.3845 -2.3448 0.9587
-7.7702 6.7192 -2.3446 0.9587
-8.3370 6.0006 -2.3445 0.9587
-8.8376 5.2346 -2.3444 0.9587
-9.8700 4.7145 -2.4966 0.9561
-10.2502 3.8172 -2.4965 0.9561
-10.8943 0.9735 -2.4965 0.9561
-10.1575 0.0000 -2.4967 0.9590
-10.1174 -0.9041 -2.4968 0.9590
-9.9971 -1.8011 -2.4969 0.9590
-9.5202 -3.5454 -2.4971 0.9590
-9.1674 -4.3789 -2.4972 0.9590
-8.2468 -5.9357 -2.4975 0.9590
-7.6863 -6.6466 -2.4977 0.9590
-7.0648 -7.3049 -2.4979 0.9590
-5.6587 -8.4433 -2.4983 0.9590
-4.8851 -8.9143 -2.4986 0.9590
-4.0727 -9.3146 -2.4988 0.9590
-3.2278 -9.6410 -2.4991 0.9590
-1.4676 -10.0626 -2.4995 0.9590
-0.5662 -10.1543 -2.4998 0.9590
0.3399 -10.1653 -2.5000 0.9590
1.2434 -10.0957 -2.5003 0.9590
2.1373 -9.9459 -2.5005 0.9590
4.6902 -9.0302 -2.5012 0.9590
5.4757 -8.5776 -2.5013 0.9589
6.2179 -8.0567 -2.5015 0.9589
8.1268 -6.1287 -2.5019 0.9589
9.9759 -2.0277 -2.5022 0.9589
10.1168 -1.1317 -2.5022 0.9589
10.1773 -0.2268 -2.5022 0.9589
10.1569 0.6799 -2.5021 0.9589
8.7136 3.9262 -2.3492 0.9614
8.3291 4.6859 -2.3490 0.9614
6.1682 7.2958 -2.3483 0.9614
5.4939 7.8152 -2.3481 0.9614
4.0205 8.6639 -2.3477 0.9614
-4.2085 8.5641 -2.3455 0.9615
-5.6594 7.6811 -2.3451 0.9615
-8.9618 4.7822 -2.4968 0.9590
-9.9063 2.2445 -2.4967 0.9590
-10.0667 1.3538 -2.4967 0.9590
-10.1475 -0.4525 -2.4967 0.9590
-9.9072 -2.2447 -2.4969 0.9590
-8.5027 -5.5622 -2.4974 0.9590
-7.9745 -6.2974 -2.4976 0.9590
-4.4834 -9.1235 -2.4987 0.9590
-2.7953 -9.7758 -2.4992 0.9590
0.7924 -10.1406 -2.5002 0.9590
1.6920 -10.0308 -2.5004 0.9590
2.5783 -9.8413 -2.5006 0.9590
4.2831 -9.2298 -2.5011 0.9590
5.0880 -8.8126 -2.5012 0.9590
7.8456 -6.4845 -2.5019 0.9589
8.3919 -5.7607 -2.5020 0.9589
8.8717 -4.9911 -2.5021 0.9589
9.8757 -2.4701 -2.5022 0.9589
10.0564 -1.5813 -2.5022 0.9589
10.1772 0.2268 -2.5022 0.9589
10.1163 1.1317 -2.5021 0.9589
9.1599 2.7299 -2.3494 0.9614
8.5299 4.3104 -2.3491 0.9614
7.6294 5.7536 -2.3488 0.9614
5.8369 7.5630 -2.3482 0.9614
3.4310 5.3746 -1.5673 0.9741
3.6304 8.8339 -2.3476 0.9614
2.0061 9.3358 -2.3471 0.9614
-0.5315 9.5313 -2.3464 0.9614
-1.3776 9.4453 -2.3462 0.9614
-2.2125 9.2843 -2.3460 0.9614
-3.0299 9.0498 -2.3458 0.9615
-6.6321 6.8576 -2.3449 0.9615
-8.5835 5.0841 -2.4522 0.9597
-9.1658 4.3781 -2.4968 0.9590
-9.5189 3.5449 -2.4967 0.9590
-10.1171 0.9040 -2.4967 0.9590
-9.4385 -0.8434 -2.4970 0.9616
-9.1400 -2.5037 -2.4971 0.9616
-8.8813 -3.3074 -2.4972 0.9616
-8.5521 -4.0850 -2.4974 0.9616
-5.2787 -7.8764 -2.4984 0.9615
-4.5571 -8.3156 -2.4986 0.9615
-3.7992 -8.6890 -2.4989 0.9615
-3.0110 -8.9935 -2.4991 0.9615
-2.1988 -9.2267 -2.4993 0.9615
-1.3690 -9.3866 -2.4995 0.9615
-0.5281 -9.4721 -2.4998 0.9615
0.3170 -9.4824 -2.5000 0.9615
1.9936 -9.2775 -2.5004 0.9615
3.6076 -8.7785 -2.5008 0.9615
4.3749 -8.4232 -2.5010 0.9615
5.7999 -7.5151 -2.5014 0.9615
7.0412 -6.3684 -2.5016 0.9615
8.0594 -5.0194 -2.5019 0.9615
8.4745 -4.2823 -2.5019 0.9615
8.8222 -3.5112 -2.5020 0.9615
9.4365 -1.0556 -2.5020 0.9615
9.4929 -0.2115 -2.5020 0.9615
8.4219 2.9244 -2.3492 0.9638
8.1278 3.6622 -2.3490 0.9638
7.7692 4.3709 -2.3489 0.9638
7.3488 5.0447 -2.3488 0.9638
6.3371 6.2669 -2.3484 0.9638
5.7537 6.8055 -2.3483 0.9638
3.1958 5.5353 -1.6842 0.9739
3.0158 8.3827 -2.3474 0.9638
2.2576 8.6170 -2.3472 0.9638
1.4815 8.7830 -2.3470 0.9638
-0.0992 8.9049 -2.3466 0.9638
-1.6762 8.7446 -2.3462 0.9638
-2.4476 8.5600 -2.3460 0.9638
-3.1996 8.3075 -2.3458 0.9638
-4.6211 7.6075 -2.3454 0.9639
-5.2796 7.1655 -2.3453 0.9639
-6.9839 5.5152 -2.3449 0.9639
-7.5040 4.9089 -2.3628 0.9636
-8.7240 3.6993 -2.4969 0.9616
-9.0185 2.9081 -2.4969 0.9616
-9.2415 2.0938 -2.4969 0.9616
-9.4664 0.4221 -2.4969 0.9616
-9.4666 -0.4221 -2.4969 0.9616
-9.3917 -1.2630 -2.4970 0.9616
-9.2423 -2.0940 -2.4971 0.9616
-8.7253 -3.6999 -2.4973 0.9616
-8.3618 -4.4620 -2.4974 0.9616
-7.9320 -5.1888 -2.4976 0.9616
-7.4392 -5.8746 -2.4977 0.9615
-6.8873 -6.5139 -2.4979 0.9615
-6.2806 -7.1016 -2.4981 0.9615
-5.6241 -7.6331 -2.4983 0.9615
-1.7857 -9.3159 -2.4994 0.9615
-0.9495 -9.4387 -2.4997 0.9615
-0.1057 -9.4866 -2.4999 0.9615
0.7392 -9.4593 -2.5001 0.9615
3.2128 -8.9302 -2.5007 0.9615
4.7460 -8.2203 -2.5011 0.9615
5.4592 -7.7657 -2.5013 0.9615
6.1291 -7.2495 -2.5014 0.9615
7.3181 -6.0485 -2.5017 0.9615
8.2752 -4.6555 -2.5019 0.9615
8.9699 -3.1147 -2.5020 0.9615
9.3801 -1.4749 -2.5020 0.9615
9.4361 1.0556 -2.5019 0.9615
7.5665 4.7125 -2.3488 0.9638
7.1166 5.3669 -2.3487 0.9638
6.0514 6.5427 -2.3483 0.9638
5.4446 7.0547 -2.3482 0.9638
4.1068 7.9070 -2.3478 0.9638
3.3864 8.2404 -2.3475 0.9638
1.0887 8.8399 -2.3469 0.9638
0.2976 8.9008 -2.3467 0.9638
-0.4958 8.8912 -2.3465 0.9638
-3.5663 8.1564 -2.3457 0.9638
-4.2778 7.8061 -2.3455 0.9638
-4.9553 7.3938 -2.3453 0.9639
-5.5933 6.9230 -2.3452 0.9639
-6.1870 6.3973 -2.3451 0.9639
-6.7315 5.8209 -2.3449 0.9639
-3.7284 -0.6717 -1.0659 0.9844
-3.7904 -1.0383 -1.1057 0.9838
-8.3181 -3.0977 -2.4974 0.9638
-4.9438 -7.3767 -2.4985 0.9638
-1.2821 -8.7909 -2.4995 0.9638
0.2969 -8.8804 -2.5000 0.9638
1.0862 -8.8195 -2.5002 0.9637
1.8671 -8.6885 -2.5004 0.9637
3.3785 -8.2211 -2.5008 0.9637
4.0971 -7.8883 -2.5009 0.9637
4.7833 -7.4928 -2.5011 0.9637
6.0367 -6.5268 -2.5014 0.9637
7.0989 -5.3536 -2.5016 0.9637
7.5475 -4.7006 -2.5017 0.9637
7.9361 -4.0103 -2.5018 0.9637
8.2617 -3.2881 -2.5018 0.9637
8.8370 -0.9886 -2.5019 0.9637
8.8899 -0.1981 -2.5018 0.9637
8.8721 0.5939 -2.5018 0.9637
8.7838 1.3812 -2.5017 0.9637
7.8870 2.7387 -2.3490 0.9659
7.6116 3.4296 -2.3489 0.9659
6.4339 5.3178 -2.3485 0.9659
4.7993 6.8272 -2.3480 0.9659
3.5122 7.5687 -2.3476 0.9659
0.6498 8.3157 -2.3468 0.9659
-0.0929 8.3398 -2.3466 0.9659
-0.8348 8.2978 -2.3464 0.9659
-2.9966 7.7806 -2.3459 0.9659
-4.3281 7.1250 -2.3455 0.9660
-4.9447 6.7111 -2.3454 0.9660
-6.0556 5.7274 -2.3451 0.9660
-6.5411 5.1654 -2.3450 0.9660
-7.4275 4.8588 -2.4972 0.9638
-8.1709 3.4648 -2.4971 0.9638
-8.4467 2.7237 -2.4970 0.9638
-8.6556 1.9611 -2.4970 0.9638
-8.8662 0.3954 -2.4970 0.9638
-4.2110 -0.1878 -1.1860 0.9826
-3.7396 -0.5029 -1.0616 0.9844
-3.7659 -0.8532 -1.0864 0.9841
-8.4476 -2.7240 -2.4973 0.9638
-7.8316 -4.1790 -2.4976 0.9638
-7.4289 -4.8598 -2.4977 0.9638
-5.2673 -7.1488 -2.4984 0.9638
-4.6105 -7.5899 -2.4986 0.9638
-3.1922 -8.2885 -2.4990 0.9638
-2.4421 -8.5405 -2.4992 0.9638
-1.6724 -8.7246 -2.4994 0.9638
-0.8893 -8.8396 -2.4996 0.9638
-0.0990 -8.8845 -2.4999 0.9638
0.6923 -8.8587 -2.5001 0.9638
1.4781 -8.7627 -2.5003 0.9637
2.2523 -8.5971 -2.5005 0.9637
3.0088 -8.3631 -2.5007 0.9637
4.4446 -7.6982 -2.5010 0.9637
5.1125 -7.2725 -2.5012 0.9637
5.7398 -6.7890 -2.5013 0.9637
6.3216 -6.2515 -2.5015 0.9637
6.8532 -5.6643 -2.5016 0.9637
8.4001 -2.9168 -2.5018 0.9637
8.6264 -2.1576 -2.5019 0.9637
8.8898 0.1981 -2.5018 0.9637
8.0013 2.3846 -2.3491 0.9659
7.7570 3.0872 -2.3490 0.9659
6.6646 5.0260 -2.3486 0.9659
6.1904 5.5989 -2.3484 0.9659
5.6671 6.1272 -2.3483 0.9659
5.0989 6.6069 -2.3481 0.9659
3.1715 7.7173 -2.3475 0.9659
2.4718 7.9683 -2.3473 0.9659
1.0196 8.2789 -2.3469 0.9659
0.2787 8.3360 -2.3467 0.9659
-0.4643 8.3271 -2.3465 0.9659
-1.2035 8.2520 -2.3463 0.9659
-3.3401 7.6390 -2.3458 0.9659
-4.0065 7.3109 -2.3456 0.9660
-4.6410 6.9249 -2.3455 0.9660
-5.7946 5.9916 -2.3452 0.9660
-6.3046 5.4518 -2.3451 0.9660
-6.7646 4.8688 -2.3450 0.9660
-7.6365 4.5231 -2.4972 0.9638
-8.3171 3.0973 -2.4971 0.9638
-8.8398 0.7899 -2.4970 0.9638
-3.5918 -0.3210 -1.0796 0.9851
-3.4925 -0.9567 -1.0841 0.9850
-7.5279 -3.5958 -2.4976 0.9658
-7.1783 -4.2517 -2.4977 0.9658
-4.6463 -6.9327 -2.4985 0.9658
-4.0111 -7.3193 -2.4987 0.9658
-3.3440 -7.6479 -2.4989 0.9657
-2.6502 -7.9158 -2.4991 0.9657
-0.4648 -8.3367 -2.4997 0.9657
1.0208 -8.2884 -2.5001 0.9657
3.1750 -7.7259 -2.5007 0.9657
4.4951 -7.0414 -2.5010 0.9657
5.6730 -6.1335 -2.5013 0.9657
6.6712 -5.0309 -2.5015 0.9657
7.0927 -4.4174 -2.5016 0.9657
8.1889 -1.6645 -2.5017 0.9657
8.3375 0.5581 -2.5017 0.9657
7.4118 2.5737 -2.3489 0.9678
7.1530 3.2230 -2.3488 0.9678
6.8374 3.8466 -2.3487 0.9678
6.0463 4.9974 -2.3484 0.9678
3.1451 5.4475 -1.8832 0.9741
2.6544 7.3779 -2.3474 0.9678
0.6107 7.8151 -2.3468 0.9678
-0.7845 7.7983 -2.3464 0.9678
-2.1544 7.5346 -2.3461 0.9678
-2.8163 7.3124 -2.3459 0.9678
-4.0677 6.6963 -2.3456 0.9678
-4.6472 6.3073 -2.3455 0.9678
-5.1899 5.8683 -2.3454 0.9678
-5.6914 5.3829 -2.3452 0.9678
-6.1476 4.8547 -2.3452 0.9678
-6.9807 4.5666 -2.4973 0.9658
-7.6794 3.2564 -2.4972 0.9658
-7.9387 2.5599 -2.4972 0.9658
-8.1349 1.8432 -2.4972 0.9658
-4.8506 0.2163 -1.4536 0.9799
-3.4642 -0.7849 -1.0634 0.9853
-5.5283 -6.2509 -2.4983 0.9658
-4.9503 -6.7186 -2.4984 0.9658
-4.3330 -7.1331 -2.4986 0.9658
-0.8357 -8.3074 -2.4996 0.9657
-0.0930 -8.3495 -2.4998 0.9657
2.1167 -8.0793 -2.5004 0.9657
2.8276 -7.8594 -2.5006 0.9657
5.9407 -5.8749 -2.5013 0.9657
6.4403 -5.3230 -2.5014 0.9657
6.8888 -4.7289 -2.5015 0.9657
7.8939 -2.7411 -2.5017 0.9657
8.1066 -2.0276 -2.5017 0.9657
8.2549 -1.2980 -2.5017 0.9657
8.3376 -0.5581 -2.5017 0.9657
8.3541 0.1862 -2.5017 0.9657
12.0121 3.5800 -3.7525 0.9490
7.2896 2.9012 -2.3489 0.9678
7.0021 3.5383 -2.3487 0.9678
6.2632 4.7233 -2.3485 0.9678
5.8175 5.2617 -2.3483 0.9678
5.3258 5.7582 -2.3482 0.9678
4.7918 6.2089 -2.3480 0.9678
2.9805 7.2526 -2.3475 0.9678
2.3230 7.4885 -2.3473 0.9678
0.9583 7.7805 -2.3469 0.9678
0.2619 7.8342 -2.3467 0.9678
-3.7654 6.8711 -2.3457 0.9678
-4.9235 6.0938 -2.3454 0.9678
-5.4460 5.6312 -2.3453 0.9678
-5.9254 5.1239 -2.3452 0.9678
-7.5268 3.5953 -2.4972 0.9658
-7.8168 2.9110 -2.4972 0.9658
-8.2090 1.4789 -2.4972 0.9658
-8.3081 0.7424 -2.4972 0.9658
-3.3867 -0.3027 -1.0798 0.9858
-3.2540 -0.8914 -1.0715 0.9859
-6.7671 -4.0082 -2.4978 0.9675
-6.3839 -4.5948 -2.4980 0.9675
-5.4687 -5.6546 -2.4983 0.9675
-4.9440 -6.1192 -2.4984 0.9675
-3.7812 -6.8999 -2.4988 0.9675
-3.1523 -7.2096 -2.4990 0.9675
-1.1359 -7.7880 -2.4995 0.9675
-0.4382 -7.8588 -2.4997 0.9675
0.2630 -7.8672 -2.4999 0.9675
0.9623 -7.8131 -2.5001 0.9675
2.3327 -7.5198 -2.5004 0.9675
2.9929 -7.2829 -2.5006 0.9675
3.6295 -6.9880 -2.5008 0.9675
5.3476 -5.7817 -2.5012 0.9675
6.6858 -4.1640 -2.5014 0.9675
7.7191 -1.5690 -2.5016 0.9675
7.8281 -0.8757 -2.5016 0.9675
7.8749 -0.1755 -2.5016 0.9675
7.8591 0.5262 -2.5015 0.9675
7.7810 1.2235 -2.5015 0.9675
11.1612 3.8756 -3.7522 0.9516
6.4452 3.6260 -2.3486 0.9694
6.0966 4.1851 -2.3485 0.9694
3.1115 6.7051 -2.3475 0.9695
2.5022 6.9549 -2.3474 0.9695
1.8731 7.1495 -2.3472 0.9695
1.2292 7.2872 -2.3470 0.9695
-0.0823 7.3886 -2.3467 0.9695
-0.7396 7.3514 -2.3465 0.9695
-1.3908 7.2559 -2.3463 0.9695
-4.8926 5.5322 -2.3455 0.9695
-6.9378 3.7021 -2.4974 0.9675
-7.7933 1.0481 -2.4973 0.9675
-4.3818 0.1954 -1.3930 0.9818
-3.3189 -0.4463 -1.0635 0.9860
-3.2591 -0.7384 -1.0613 0.9861
-6.1730 -4.8748 -2.4980 0.9675
-5.7150 -5.4052 -2.4982 0.9675
-4.6667 -6.3337 -2.4985 0.9675
-4.0847 -6.7243 -2.4987 0.9675
-3.4702 -7.0617 -2.4989 0.9675
-2.1635 -7.5663 -2.4992 0.9675
-1.4816 -7.7294 -2.4994 0.9675
-0.7878 -7.8312 -2.4996 0.9675
-0.0877 -7.8708 -2.4998 0.9675
0.6133 -7.8480 -2.5000 0.9675
1.3094 -7.7628 -2.5002 0.9675
1.9953 -7.6160 -2.5004 0.9675
3.9373 -6.8196 -2.5008 0.9675
4.5289 -6.4424 -2.5010 0.9675
5.0846 -6.0141 -2.5011 0.9675
6.4936 -4.4576 -2.5014 0.9675
6.8648 -3.8620 -2.5015 0.9675
7.7813 -1.2235 -2.5016 0.9675
7.8748 0.1755 -2.5015 0.9675
7.8278 0.8757 -2.5015 0.9675
5.4839 4.9599 -2.3483 0.9694
4.5170 5.8529 -2.3480 0.9694
3.3643 5.2701 -1.9857 0.9741
0.9033 7.3345 -2.3469 0.9695
-0.4113 7.3774 -2.3466 0.9695
-2.3453 7.0050 -2.3461 0.9695
-2.9593 6.7680 -2.3459 0.9695
-3.5497 6.4774 -2.3458 0.9695
-5.5860 4.8304 -2.3453 0.9695
-6.7660 4.0075 -2.4974 0.9675
-7.7388 1.3942 -2.4973 0.9675
-7.8322 0.6999 -2.4973 0.9675
-3.1483 -0.5672 -1.0748 0.9866
-6.9666 -2.5944 -2.4977 0.9691
-6.7083 -3.2043 -2.4978 0.9691
-6.0345 -4.3433 -2.4980 0.9691
-4.6734 -5.7843 -2.4985 0.9691
-4.1403 -6.1777 -2.4986 0.9691
-3.5742 -6.5221 -2.4988 0.9691
-2.9798 -6.8149 -2.4990 0.9691
-2.3615 -7.0535 -2.4992 0.9691
-1.7245 -7.2363 -2.4993 0.9691
-1.0737 -7.3616 -2.4995 0.9691
-0.4142 -7.4285 -2.4997 0.9691
0.2486 -7.4364 -2.4999 0.9691
3.4306 -6.6051 -2.5007 0.9691
4.5479 -5.8929 -2.5010 0.9691
5.0546 -5.4649 -2.5011 0.9691
5.9439 -4.4825 -2.5013 0.9691
6.3195 -3.9358 -2.5013 0.9691
6.9174 -2.7531 -2.5014 0.9691
7.3991 -0.8277 -2.5015 0.9691
7.4285 0.4973 -2.5014 0.9691
7.3546 1.1565 -2.5014 0.9691
7.2222 1.8064 -2.5013 0.9691
6.3732 2.8716 -2.3486 0.9709
6.0921 3.4273 -2.3485 0.9709
5.3873 4.4528 -2.3483 0.9709
4.9693 4.9143 -2.3481 0.9709
4.5119 5.3367 -2.3480 0.9709
1.7705 6.7579 -2.3472 0.9710
0.5442 6.9638 -2.3468 0.9710
-0.6991 6.9489 -2.3465 0.9710
-1.3147 6.8587 -2.3464 0.9710
-2.5096 6.5161 -2.3460 0.9710
-4.1413 5.6206 -2.3457 0.9710
-4.6249 5.2295 -2.3455 0.9710
-5.8044 4.5837 -2.4849 0.9693
-6.8435 2.9019 -2.4975 0.9691
-7.0745 2.2812 -2.4974 0.9691
-4.1559 0.1853 -1.3977 0.9826
-3.1639 -0.4255 -1.0726 0.9866
-3.1355 -0.7104 -1.0802 0.9865
-3.1418 -1.0131 -1.1091 0.9862
-6.8443 -2.9022 -2.4978 0.9691
-6.5591 -3.5000 -2.4979 0.9691
-6.2218 -4.0701 -2.4980 0.9691
-5.4022 -5.1094 -2.4982 0.9691
-3.2803 -6.6751 -2.4989 0.9691
-2.0450 -7.1520 -2.4993 0.9691
-0.0829 -7.4397 -2.4998 0.9691
1.2377 -7.3376 -2.5001 0.9691
5.2931 -5.2345 -2.5011 0.9691
5.7382 -4.7428 -2.5012 0.9691
6.1378 -4.2133 -2.5013 0.9691
6.4886 -3.6504 -2.5014 0.9691
7.0332 -2.4422 -2.5015 0.9691
7.4433 0.1659 -2.5014 0.9691
7.2957 1.4829 -2.5013 0.9691
10.7025 3.1897 -3.7522 0.9540
6.2388 3.1526 -2.3486 0.9709
5.9332 3.6952 -2.3485 0.9709
5.5805 4.2085 -2.3483 0.9709
4.7453 5.1306 -2.3481 0.9709
4.2696 5.5323 -2.3479 0.9709
3.3559 5.2570 -2.0955 0.9740
3.2206 6.2008 -2.3476 0.9709
2.6557 6.4624 -2.3474 0.9709
2.0699 6.6726 -2.3473 0.9709
-2.2169 6.6216 -2.3461 0.9710
-2.7973 6.3976 -2.3460 0.9710
-3.3554 6.1229 -2.3458 0.9710
-4.3874 5.4304 -2.3456 0.9710
-5.2802 4.5661 -2.3454 0.9710
-6.3958 3.7883 -2.4975 0.9691
-6.7075 3.2039 -2.4975 0.9691
-7.3154 1.3179 -2.4974 0.9691
-7.4037 0.6616 -2.4974 0.9691
-3.0229 -0.8281 -1.1114 0.9868
-3.0314 -1.1289 -1.1470 0.9864
-6.3566 -3.0363 -2.4979 0.9705
-6.0614 -3.5902 -2.4980 0.9705
-5.7180 -4.1156 -2.4981 0.9705
-5.3293 -4.6084 -2.4982 0.9705
-4.4283 -5.4810 -2.4985 0.9705
-3.9231 -5.8537 -2.4987 0.9705
-2.8234 -6.4574 -2.4990 0.9705
-2.2376 -6.6835 -2.4992 0.9705
-1.0173 -6.9753 -2.4995 0.9705
0.8619 -6.9977 -2.5000 0.9705
2.0892 -6.7348 -2.5003 0.9705
3.7949 -5.9446 -2.5008 0.9705
4.3091 -5.5835 -2.5009 0.9705
5.2313 -4.7314 -2.5011 0.9705
6.2959 -3.1815 -2.5013 0.9705
6.7605 -2.0148 -2.5014 0.9705
6.9130 -1.4051 -2.5014 0.9705
7.0106 -0.7843 -2.5014 0.9705
7.0384 0.4712 -2.5013 0.9705
6.9684 1.0957 -2.5013 0.9705
6.0386 2.7209 -2.3485 0.9723
4.7085 4.6563 -2.3481 0.9723
4.2751 5.0566 -2.3479 0.9723
2.7867 6.0053 -2.3475 0.9723
2.2410 6.2291 -2.3473 0.9723
1.1009 6.5268 -2.3470 0.9723
0.5156 6.5985 -2.3469 0.9723
-0.0737 6.6177 -2.3467 0.9723
-0.6624 6.5845 -2.3465 0.9723
-1.2457 6.4990 -2.3464 0.9723
-3.4347 5.6543 -2.3458 0.9723
-3.9241 5.3259 -2.3457 0.9723
-4.3824 4.9552 -2.3456 0.9723
-7.6774 7.2613 -3.7470 0.9561
-5.5282 4.3656 -2.4977 0.9705
-5.8947 3.8561 -2.4977 0.9705
-6.2143 3.3161 -2.4976 0.9705
-6.4847 2.7497 -2.4976 0.9705
-6.8694 1.5564 -2.4975 0.9705
-6.9806 0.9388 -2.4975 0.9705
-3.9464 0.1760 -1.4007 0.9834
-3.1623 -0.1410 -1.1224 0.9867
-3.0595 -0.4115 -1.0946 0.9870
-3.0241 -0.6852 -1.0995 0.9869
-5.5292 -4.3663 -2.4982 0.9705
-4.6679 -5.2781 -2.4985 0.9705
-3.6586 -6.0229 -2.4988 0.9705
-3.1082 -6.3250 -2.4989 0.9705
-1.9378 -6.7768 -2.4993 0.9705
-1.3270 -6.9228 -2.4994 0.9705
-0.7056 -7.0139 -2.4996 0.9705
-0.0785 -7.0494 -2.4998 0.9705
0.5493 -7.0289 -2.4999 0.9705
1.1728 -6.9525 -2.5001 0.9705
1.7870 -6.8210 -2.5003 0.9705
2.9685 -6.3968 -2.5006 0.9705
3.5262 -6.1076 -2.5007 0.9705
4.0560 -5.7698 -2.5008 0.9705
4.5537 -5.3861 -2.5009 0.9705
5.0152 -4.9596 -2.5010 0.9705
5.8155 -3.9921 -2.5012 0.9705
6.8435 -1.7116 -2.5014 0.9705
7.0525 0.1572 -2.5013 0.9705
7.0104 0.7842 -2.5013 0.9705
5.2875 3.9875 -2.3483 0.9723
4.9114 4.4421 -2.3481 0.9723
3.3475 5.2437 -2.2059 0.9739
3.0516 5.8754 -2.3476 0.9723
2.5164 6.1233 -2.3474 0.9723
1.9613 6.3225 -2.3473 0.9723
1.3907 6.4716 -2.3471 0.9723
-0.3684 6.6076 -2.3466 0.9723
-0.9550 6.5482 -2.3465 0.9723
-3.1795 5.8018 -2.3459 0.9723
-3.6830 5.4955 -2.3458 0.9723
-6.0605 3.5896 -2.4976 0.9705
-6.3558 3.0359 -2.4976 0.9705
-6.7932 1.8609 -2.4975 0.9705
-6.9319 1.2488 -2.4975 0.9705
-2.9455 -0.5307 -1.1176 0.9873
-6.0363 -2.8833 -2.4980 0.9718
-5.7560 -3.4093 -2.4981 0.9718
-5.4299 -3.9082 -2.4982 0.9718
-4.2051 -5.2047 -2.4986 0.9718
-3.7254 -5.5587 -2.4987 0.9718
-3.2160 -5.8686 -2.4989 0.9718
-2.1248 -6.3466 -2.4992 0.9718
-1.5516 -6.5109 -2.4994 0.9718
-0.3727 -6.6838 -2.4997 0.9718
1.4067 -6.5460 -2.5001 0.9718
1.9838 -6.3952 -2.5003 0.9718
2.5453 -6.1936 -2.5004 0.9718
3.0866 -5.9428 -2.5006 0.9718
4.0918 -5.3018 -2.5008 0.9718
5.3477 -4.0329 -2.5011 0.9718
5.6856 -3.5410 -2.5011 0.9718
6.2236 -2.4769 -2.5012 0.9718
6.6569 -0.7447 -2.5013 0.9718
6.6967 -0.1492 -2.5012 0.9718
6.6833 0.4474 -2.5012 0.9718
6.6169 1.0405 -2.5012 0.9718
6.4978 1.6252 -2.5011 0.9718
9.4915 3.2958 -3.7518 0.9580
5.1846 3.5591 -2.3483 0.9735
4.8471 4.0062 -2.3481 0.9735
4.4710 4.4215 -2.3480 0.9735
3.6133 5.1400 -2.3461 0.9735
1.5930 6.0805 -2.3472 0.9735
0.4896 6.2658 -2.3469 0.9735
-1.1830 6.1714 -2.3464 0.9735
-1.7274 6.0413 -2.3463 0.9735
-2.2582 5.8632 -2.3461 0.9735
-2.7709 5.6387 -2.3460 0.9735
-3.2616 5.3693 -2.3459 0.9735
-7.2906 6.8954 -3.7471 0.9581
-7.8751 6.2190 -3.7470 0.9581
-5.5977 3.6618 -2.4978 0.9718
-5.9013 3.1490 -2.4977 0.9718
-6.1580 2.6112 -2.4977 0.9718
-6.5233 1.4779 -2.4976 0.9718
-3.7910 0.1690 -1.4170 0.9839
-2.9258 -0.6629 -1.1202 0.9873
-2.9106 -0.9385 -1.1419 0.9870
-4.8609 -4.5974 -2.4984 0.9718
-3.4742 -5.7193 -2.4988 0.9718
-2.9515 -6.0062 -2.4990 0.9718
-2.4054 -6.2454 -2.4991 0.9718
-1.8401 -6.4352 -2.4993 0.9718
-1.2601 -6.5738 -2.4994 0.9718
-0.6700 -6.6603 -2.4996 0.9718
-0.0746 -6.6939 -2.4998 0.9718
1.1136 -6.6019 -2.5001 0.9718
1.6969 -6.4770 -2.5002 0.9718
3.3484 -5.7996 -2.5006 0.9718
5.1627 -4.2671 -2.5010 0.9718
5.5221 -3.7907 -2.5011 0.9718
5.8377 -3.2843 -2.5012 0.9718
6.1070 -2.7517 -2.5012 0.9718
6.3278 -2.1972 -2.5013 0.9718
6.4983 -1.6253 -2.5013 0.9718
6.6171 -1.0405 -2.5013 0.9718
6.6567 0.7447 -2.5012 0.9718
6.4189 1.9130 -2.5011 0.9718
9.3352 3.7153 -3.7518 0.9580
5.6131 2.8364 -2.3484 0.9735
5.3382 3.3246 -2.3483 0.9735
5.0208 3.7864 -2.3482 0.9735
4.6637 4.2180 -2.3481 0.9735
4.2695 4.6162 -2.3480 0.9735
3.8415 4.9776 -2.3478 0.9735
2.8977 5.5791 -2.3475 0.9735
1.3205 6.1453 -2.3471 0.9735
0.2100 6.2812 -2.3468 0.9735
-0.3499 6.2746 -2.3466 0.9735
-0.9069 6.2182 -2.3465 0.9735
-1.9948 5.9581 -2.3462 0.9735
-2.5170 5.7566 -2.3461 0.9735
-3.0193 5.5095 -2.3460 0.9735
-3.4975 5.2186 -2.3458 0.9735
-3.9479 4.8864 -2.3457 0.9735
-6.0356 2.8830 -2.4977 0.9718
-6.5827 1.1860 -2.4976 0.9718
-4.2614 0.3808 -1.5976 0.9819
-3.2641 0.0000 -1.2811 0.9861
-2.9005 -0.2592 -1.1429 0.9876
-2.8518 -0.5138 -1.1373 0.9876
-2.8313 -0.7756 -1.1521 0.9875
-2.8528 -1.0624 -1.1947 0.9870
-5.7433 -2.7434 -2.4980 0.9730
-5.4766 -3.2438 -2.4981 0.9730
-4.4256 -4.5760 -2.4985 0.9730
-2.0217 -6.0384 -2.4992 0.9730
-1.4763 -6.1948 -2.4994 0.9730
-0.3546 -6.3592 -2.4997 0.9730
0.7786 -6.3221 -2.5000 0.9730
1.3383 -6.2280 -2.5001 0.9730
2.4216 -5.8927 -2.5004 0.9730
3.4284 -5.3705 -2.5006 0.9730
3.8930 -5.0442 -2.5007 0.9730
4.3267 -4.6779 -2.5008 0.9730
4.7260 -4.2744 -2.5009 0.9730
6.2452 -1.2694 -2.5012 0.9730
6.3334 -0.7085 -2.5012 0.9730
6.3585 0.4257 -2.5011 0.9730
6.2953 0.9899 -2.5011 0.9730
9.0303 3.1356 -3.7517 0.9598
8.7150 3.9268 -3.7516 0.9598
5.2148 2.9338 -2.3483 0.9746
4.9327 3.3861 -2.3482 0.9746
4.6116 3.8116 -2.3481 0.9746
4.2538 4.2067 -2.3480 0.9746
3.4402 4.8937 -2.3477 0.9746
1.5157 5.7852 -2.3472 0.9746
0.9947 5.8968 -2.3470 0.9746
-0.0666 5.9790 -2.3467 0.9746
-1.6436 5.7480 -2.3463 0.9746
-3.1033 5.1087 -2.3460 0.9746
-3.5455 4.8120 -2.3459 0.9746
-3.9596 4.4772 -2.3458 0.9746
-6.9368 6.5608 -3.7473 0.9598
-5.6149 2.9962 -2.4978 0.9730
-6.2068 1.4062 -2.4977 0.9730
-3.6456 0.1625 -1.4322 0.9844
-2.8734 -0.3864 -1.1379 0.9876
-2.8326 -0.6418 -1.1399 0.9876
-5.3268 -3.4846 -2.4982 0.9730
-4.6250 -4.3742 -2.4984 0.9730
-3.3055 -5.4416 -2.4988 0.9730
-2.2886 -5.9422 -2.4991 0.9730
-1.7507 -6.1227 -2.4993 0.9730
-1.1989 -6.2546 -2.4994 0.9730
-0.0709 -6.3688 -2.4997 0.9730
1.6145 -6.1624 -2.5002 0.9730
2.1567 -5.9945 -2.5003 0.9730
2.6818 -5.7791 -2.5005 0.9730
3.1857 -5.5177 -2.5006 0.9730
3.6643 -5.2125 -2.5007 0.9730
4.5308 -4.4806 -2.5009 0.9730
4.9118 -4.0597 -2.5010 0.9730
5.5541 -3.1246 -2.5011 0.9730
5.8102 -2.6180 -2.5011 0.9730
6.1825 -1.5463 -2.5012 0.9730
6.3587 -0.4256 -2.5012 0.9730
6.3712 0.1420 -2.5011 0.9730
6.2449 1.2694 -2.5011 0.9730
8.8815 3.5347 -3.7517 0.9598
8.5313 4.3111 -3.7515 0.9598
5.0788 3.1631 -2.3482 0.9746
4.4371 4.0131 -2.3480 0.9746
3.6549 4.7357 -2.3478 0.9746
3.2187 5.0420 -2.3477 0.9746
2.7570 5.3081 -2.3475 0.9746
2.2735 5.5321 -2.3474 0.9746
1.7719 5.7121 -2.3472 0.9746
0.1998 5.9762 -2.3468 0.9746
-0.3329 5.9699 -2.3467 0.9746
-0.8629 5.9162 -2.3465 0.9746
-1.8979 5.6689 -2.3463 0.9746
-2.8727 5.2420 -2.3460 0.9746
-3.3277 4.9653 -2.3459 0.9746
-6.6377 6.8634 -3.7473 0.9598
-5.1656 3.7180 -2.4979 0.9730
-5.4759 3.2434 -2.4978 0.9730
-5.7427 2.7431 -2.4978 0.9730
-5.9640 2.2210 -2.4977 0.9730
-6.1379 1.6814 -2.4977 0.9730
-2.8130 -0.2514 -1.1629 0.9879
-2.7831 -0.5014 -1.1645 0.9878
-5.2199 -3.0917 -2.4982 0.9741
-4.9242 -3.5442 -2.4983 0.9741
-4.5894 -3.9686 -2.4984 0.9741
-3.8134 -4.7199 -2.4987 0.9741
-2.9164 -5.3219 -2.4989 0.9741
-2.4313 -5.5606 -2.4991 0.9741
-0.8760 -6.0064 -2.4995 0.9741
1.2755 -5.9359 -2.5001 0.9741
2.3080 -5.6163 -2.5003 0.9741
2.7989 -5.3888 -2.5005 0.9741
3.2676 -5.1185 -2.5006 0.9741
4.1237 -4.4584 -2.5008 0.9741
4.5042 -4.0738 -2.5009 0.9741
5.1555 -3.2109 -2.5010 0.9741
5.8208 -1.7348 -2.5011 0.9741
6.0602 0.4057 -2.5010 0.9741
5.9999 0.9435 -2.5010 0.9741
5.8920 1.4737 -2.5010 0.9741
5.7373 1.9922 -2.5009 0.9741
8.3062 3.7426 -3.7515 0.9614
4.3952 3.6328 -2.3480 0.9756
4.0542 4.0094 -2.3479 0.9756
3.6811 4.3540 -2.3478 0.9756
2.3996 5.1711 -2.3474 0.9756
-0.0635 5.6987 -2.3467 0.9756
-0.5704 5.6701 -2.3466 0.9756
-1.0727 5.5965 -2.3465 0.9757
-1.5665 5.4785 -2.3464 0.9757
-2.5128 5.1134 -2.3461 0.9757
-2.9578 4.8693 -2.3460 0.9757
-6.0290 6.8171 -3.7475 0.9614
-6.6117 6.2532 -3.7474 0.9614
-4.7608 3.7596 -2.4980 0.9741
-5.0764 3.3208 -2.4979 0.9741
-5.5846 2.3681 -2.4978 0.9741
-5.9159 1.3404 -2.4978 0.9741
-6.0117 0.8085 -2.4978 0.9741
-2.7946 -0.3758 -1.1611 0.9879
-2.7756 -0.6288 -1.1719 0.9878
-2.7775 -0.8956 -1.2017 0.9875
-2.8016 -1.1880 -1.2531 0.9869
-4.4082 -4.1692 -2.4985 0.9741
-4.0198 -4.5452 -2.4986 0.9741
-3.5995 -4.8853 -2.4987 0.9741
-3.1505 -5.1865 -2.4989 0.9741
-2.6766 -5.4466 -2.4990 0.9741
-1.6686 -5.8356 -2.4993 0.9741
-1.1427 -5.9612 -2.4994 0.9741
-0.6076 -6.0397 -2.4996 0.9741
0.4730 -6.0524 -2.4999 0.9741
1.0098 -5.9866 -2.5000 0.9741
2.0555 -5.7134 -2.5003 0.9741
3.4924 -4.9680 -2.5006 0.9741
4.3182 -4.2704 -2.5008 0.9741
4.6813 -3.8692 -2.5009 0.9741
5.2934 -2.9780 -2.5010 0.9741
6.0001 -0.9435 -2.5011 0.9741
6.0723 0.1353 -2.5011 0.9741
6.0360 0.6752 -2.5010 0.9741
5.9519 1.2098 -2.5010 0.9741
5.8204 1.7347 -2.5009 0.9741
8.4647 3.3689 -3.7515 0.9614
8.1311 4.1088 -3.7514 0.9614
4.8405 3.0147 -2.3482 0.9756
4.5528 3.4334 -2.3481 0.9756
3.0677 4.8054 -2.3476 0.9756
1.1975 5.5726 -2.3471 0.9756
0.6967 5.6568 -2.3470 0.9756
-0.8224 5.6389 -2.3465 0.9757
-3.1717 4.7326 -2.3460 0.9757
-3.5802 4.4313 -2.3459 0.9757
-5.2192 3.0914 -2.4979 0.9741
-5.4736 2.6145 -2.4978 0.9741
-5.9697 1.0755 -2.4978 0.9741
-2.7278 -0.4914 -1.1956 0.9880
-2.7092 -0.7421 -1.2117 0.9878
-2.7208 -1.0133 -1.2524 0.9874
-2.7299 -1.3040 -1.3050 0.9869
-2.7884 -1.6516 -1.3980 0.9860
-4.3812 -3.7886 -2.4985 0.9751
-2.3210 -5.3083 -2.4991 0.9751
0.7084 -5.7520 -2.4999 0.9751
1.2176 -5.6664 -2.5001 0.9751
2.6718 -5.1442 -2.5004 0.9751
4.2997 -3.8888 -2.5008 0.9751
4.6289 -3.4908 -2.5009 0.9751
4.9214 -3.0650 -2.5009 0.9751
5.1747 -2.6149 -2.5010 0.9751
5.3870 -2.1440 -2.5010 0.9751
5.5565 -1.6560 -2.5010 0.9751
5.7621 -0.6446 -2.5010 0.9751
5.7965 -0.1292 -2.5010 0.9751
5.7275 0.9006 -2.5009 0.9751
5.6244 1.4068 -2.5009 0.9751
5.4768 1.9017 -2.5008 0.9751
7.9290 3.5726 -3.7514 0.9628
7.5793 4.2640 -3.7513 0.9628
3.8702 3.8273 -2.3479 0.9766
3.1300 4.4525 -2.3477 0.9766
2.7211 4.7131 -2.3475 0.9766
2.2907 4.9363 -2.3474 0.9766
1.3790 5.2637 -2.3472 0.9766
0.9050 5.3652 -2.3470 0.9766
0.4239 5.4242 -2.3469 0.9766
-0.0606 5.4401 -2.3468 0.9766
-0.5445 5.4128 -2.3466 0.9766
-1.0241 5.3426 -2.3465 0.9766
-2.3988 4.8814 -2.3462 0.9766
-5.7556 6.5079 -3.7476 0.9629
-4.5449 3.5890 -2.4980 0.9751
-5.3313 2.2607 -2.4979 0.9751
-5.5113 1.7771 -2.4979 0.9751
-5.7390 0.7718 -2.4979 0.9751
-2.7402 -0.3685 -1.1926 0.9880
-2.7200 -0.6163 -1.2030 0.9879
-2.7166 -0.8760 -1.2313 0.9876
-2.7334 -1.1591 -1.2807 0.9871
-5.1095 -2.7265 -2.4982 0.9751
-4.8468 -3.1706 -2.4983 0.9751
-3.8374 -4.3390 -2.4986 0.9751
-3.4361 -4.6636 -2.4988 0.9751
-1.5929 -5.5707 -2.4993 0.9751
-0.5800 -5.7656 -2.4996 0.9751
0.4515 -5.7777 -2.4999 0.9751
0.9640 -5.7149 -2.5000 0.9751
2.4400 -5.2579 -2.5004 0.9751
3.3338 -4.7424 -2.5006 0.9751
3.7428 -4.4271 -2.5007 0.9751
4.4688 -3.6935 -2.5008 0.9751
5.4772 -1.9019 -2.5010 0.9751
5.6248 -1.4068 -2.5010 0.9751
5.7277 -0.9006 -2.5010 0.9751
5.7619 0.6446 -2.5010 0.9751
8.0804 3.2159 -3.7515 0.9628
3.3253 4.3087 -2.3477 0.9766
2.5084 4.8295 -2.3475 0.9766
2.0685 5.0333 -2.3473 0.9766
-1.7269 5.1580 -2.3463 0.9766
-2.1790 4.9836 -2.3462 0.9766
-5.4600 6.7579 -3.7476 0.9629
-5.2253 2.4959 -2.4979 0.9751
-5.6989 1.0267 -2.4979 0.9751
-2.9980 0.0000 -1.3528 0.9869
-2.7005 -0.2413 -1.2234 0.9882
-4.4940 -3.2346 -2.4984 0.9760
-3.0832 -4.6004 -2.4988 0.9760
-2.2189 -5.0747 -2.4991 0.9760
-1.7585 -5.2523 -2.4992 0.9760
-0.3084 -5.5312 -2.4996 0.9760
0.1851 -5.5370 -2.4998 0.9760
0.6773 -5.4988 -2.4999 0.9760
1.1640 -5.4170 -2.5000 0.9760
2.1062 -5.1252 -2.5003 0.9760
3.3859 -4.3872 -2.5006 0.9760
3.7631 -4.0686 -2.5007 0.9760
4.4251 -3.3371 -2.5008 0.9760
4.7046 -2.9301 -2.5009 0.9760
5.1498 -2.0496 -2.5009 0.9760
5.5413 -0.1235 -2.5009 0.9760
5.5302 0.3702 -2.5009 0.9760
5.3768 1.3448 -2.5008 0.9760
7.5798 3.4153 -3.7513 0.9642
4.0109 3.3151 -2.3480 0.9774
3.6998 3.6588 -2.3479 0.9774
3.3593 3.9734 -2.3477 0.9774
0.8652 5.1291 -2.3470 0.9774
-0.0579 5.2007 -2.3468 0.9774
-0.9790 5.1075 -2.3465 0.9774
-2.2933 4.6667 -2.3462 0.9774
-5.5024 6.2216 -3.7477 0.9642
-4.0224 3.8044 -2.4982 0.9760
-5.0968 2.1612 -2.4980 0.9760
-5.2689 1.6990 -2.4979 0.9760
-5.3991 1.2233 -2.4979 0.9760
-2.6659 -0.6040 -1.2334 0.9881
-2.6675 -1.1311 -1.3074 0.9874
-4.8848 -2.6066 -2.4983 0.9760
-4.3455 -3.4316 -2.4984 0.9760
-4.0230 -3.8050 -2.4986 0.9760
-3.2849 -4.4584 -2.4988 0.9760
-2.8752 -4.7333 -2.4989 0.9760
-2.4427 -4.9707 -2.4990 0.9760
-1.9907 -5.1686 -2.4992 0.9760
-0.5545 -5.5118 -2.4996 0.9760
1.8758 -5.2139 -2.5002 0.9760
3.1870 -4.5336 -2.5005 0.9760
4.5694 -3.1367 -2.5008 0.9760
4.8305 -2.7176 -2.5009 0.9760
5.0533 -2.2769 -2.5009 0.9760
5.4754 -0.8610 -2.5010 0.9760
5.5303 -0.3702 -2.5009 0.9760
5.5413 0.1235 -2.5009 0.9760
5.5082 0.6162 -2.5009 0.9760
5.1494 2.0494 -2.5007 0.9760
7.0567 4.3950 -3.7511 0.9642
4.1547 3.1332 -2.3480 0.9774
3.8592 3.4904 -2.3479 0.9774
3.1789 4.1190 -2.3477 0.9774
2.7995 4.3854 -2.3476 0.9774
2.3980 4.6169 -2.3475 0.9774
1.5412 4.9684 -2.3472 0.9774
1.0928 5.0856 -2.3471 0.9774
-0.2895 5.1928 -2.3467 0.9774
-0.7505 5.1461 -2.3466 0.9774
-2.8946 4.3191 -2.3461 0.9774
-4.9955 2.3862 -2.4980 0.9760
-5.1880 1.9320 -2.4980 0.9760
-5.3393 1.4626 -2.4979 0.9760
-2.9112 -0.0000 -1.3723 0.9872
-2.6448 -0.2363 -1.2517 0.9883
-2.6212 -0.4722 -1.2555 0.9883
-2.6016 -0.7126 -1.2715 0.9881
-2.6052 -1.2444 -1.3609 0.9873
-4.3019 -3.0963 -2.4984 0.9768
-4.0094 -3.4670 -2.4985 0.9768
-3.3314 -4.1233 -2.4988 0.9768
-2.9513 -4.4037 -2.4989 0.9768
-1.6833 -5.0277 -2.4992 0.9768
-1.2292 -5.1578 -2.4994 0.9768
-0.7653 -5.2471 -2.4995 0.9768
-0.2952 -5.2946 -2.4996 0.9768
0.1772 -5.3002 -2.4998 0.9768
1.1142 -5.1852 -2.5000 0.9768
1.5714 -5.0657 -2.5001 0.9768
2.0161 -4.9060 -2.5002 0.9768
2.4449 -4.7073 -2.5003 0.9768
3.9345 -3.5586 -2.5007 0.9768
4.2357 -3.1943 -2.5007 0.9768
4.7352 -2.3928 -2.5008 0.9768
5.0845 -1.5153 -2.5009 0.9768
5.2726 -0.5898 -2.5009 0.9768
5.2409 0.8241 -2.5008 0.9768
5.1467 1.2873 -2.5008 0.9768
5.0116 1.7402 -2.5007 0.9768
4.8367 2.1793 -2.5006 0.9768
6.5605 4.5035 -3.7510 0.9654
3.8393 3.1733 -2.3479 0.9782
3.5415 3.5023 -2.3478 0.9782
2.8642 4.0743 -2.3476 0.9782
2.4900 4.3129 -2.3475 0.9782
0.8282 4.9097 -2.3470 0.9782
0.3879 4.9637 -2.3469 0.9782
-0.0555 4.9783 -2.3468 0.9782
-0.9372 4.8891 -2.3465 0.9782
-1.3685 4.7860 -2.3464 0.9782
-1.7890 4.6450 -2.3463 0.9782
-2.1952 4.4672 -2.3462 0.9782
-2.5840 4.2539 -2.3461 0.9782
-3.8505 3.6418 -2.4982 0.9768
-4.1592 3.2845 -2.4982 0.9768
-4.4349 2.9012 -2.4981 0.9768
-4.6755 2.4950 -2.4981 0.9768
-5.0437 1.6264 -2.4980 0.9768
-5.2521 0.7063 -2.4980 0.9768
-2.7082 -0.1208 -1.2778 0.9881
-2.5994 -0.8382 -1.2874 0.9880
-2.6038 -1.1041 -1.3332 0.9876
-2.5902 -1.3822 -1.3839 0.9871
-4.4355 -2.9015 -2.4984 0.9768
-4.1598 -3.2849 -2.4985 0.9768
-3.8510 -3.6423 -2.4986 0.9768
-3.5117 -3.9708 -2.4987 0.9768
-3.1445 -4.2677 -2.4988 0.9768
-2.7523 -4.5309 -2.4989 0.9768
-1.9055 -4.9476 -2.4992 0.9768
-0.9982 -5.2076 -2.4994 0.9768
-0.5308 -5.2761 -2.4996 0.9768
-0.0591 -5.3026 -2.4997 0.9768
0.8821 -5.2296 -2.4999 0.9768
1.7955 -4.9908 -2.5002 0.9768
2.2327 -4.8114 -2.5003 0.9768
2.6522 -4.5938 -2.5004 0.9768
4.0892 -3.3798 -2.5007 0.9768
4.3739 -3.0025 -2.5008 0.9768
4.6238 -2.6013 -2.5008 0.9768
5.1470 -1.2873 -2.5009 0.9768
5.2411 -0.8241 -2.5009 0.9768
5.2936 -0.3543 -2.5009 0.9768
5.2725 0.5898 -2.5008 0.9768
4.9290 1.9617 -2.5007 0.9768
7.1026 3.5891 -3.7512 0.9654
6.3533 4.7912 -3.7509 0.9654
3.6941 3.3411 -2.3479 0.9782
2.6798 4.1978 -2.3476 0.9782
2.2954 4.4194 -2.3474 0.9782
1.8928 4.6060 -2.3473 0.9782
1.0461 4.8681 -2.3471 0.9782
0.1664 4.9759 -2.3468 0.9782
-1.5803 4.7202 -2.3464 0.9782
-1.9941 4.5606 -2.3463 0.9782
-2.3920 4.3649 -2.3462 0.9782
-4.0088 3.4666 -2.4982 0.9768
-4.3014 3.0959 -2.4981 0.9768
-4.5597 2.7008 -2.4981 0.9768
-5.2154 0.9396 -2.4980 0.9768
-3.7076 0.3313 -1.7547 0.9837
-2.5903 -0.2315 -1.2791 0.9885
-2.5698 -0.4630 -1.2843 0.9884
-2.5453 -0.9479 -1.3359 0.9880
-2.5457 -1.2160 -1.3876 0.9875
-3.8425 -3.3227 -2.4986 0.9776
-2.8285 -4.2204 -2.4989 0.9776
-2.4417 -4.4556 -2.4990 0.9776
-1.1780 -4.9431 -2.4994 0.9776
0.1698 -5.0794 -2.4997 0.9776
0.6213 -5.0444 -2.4999 0.9776
1.9322 -4.7017 -2.5002 0.9776
2.3431 -4.5112 -2.5003 0.9776
2.7354 -4.2849 -2.5004 0.9776
3.1060 -4.0246 -2.5005 0.9776
3.4520 -3.7323 -2.5006 0.9776
3.7706 -3.4103 -2.5006 0.9776
4.5379 -2.2931 -2.5008 0.9776
4.9826 -1.0128 -2.5008 0.9776
5.0731 0.3396 -2.5008 0.9776
4.9323 1.2337 -2.5007 0.9776
4.8028 1.6677 -2.5006 0.9776
6.6467 3.7394 -3.7510 0.9666
5.8779 4.8582 -3.7508 0.9666
2.3864 4.1333 -2.3475 0.9789
2.0089 4.3291 -2.3474 0.9790
1.6156 4.4905 -2.3473 0.9790
0.3717 4.7571 -2.3469 0.9790
-2.1039 4.2812 -2.3463 0.9790
-3.9562 6.5128 -3.7481 0.9666
-4.5200 6.1346 -3.7479 0.9666
-5.0479 5.7078 -3.7478 0.9666
-3.6902 3.4902 -2.4983 0.9776
-4.4809 2.3911 -2.4981 0.9776
-4.8338 1.5587 -2.4981 0.9776
-4.9533 1.1223 -2.4981 0.9776
-3.0630 0.1366 -1.5081 0.9864
-2.6467 -0.1180 -1.3031 0.9883
-2.5845 -0.3476 -1.2826 0.9884
-2.5616 -0.5804 -1.2919 0.9884
-2.5430 -0.8200 -1.3142 0.9882
-4.2509 -2.7808 -2.4984 0.9776
-3.9866 -3.1482 -2.4985 0.9776
-3.3656 -3.8055 -2.4987 0.9776
-3.0136 -4.0901 -2.4988 0.9776
0.3960 -5.0670 -2.4998 0.9776
1.7208 -4.7830 -2.5001 0.9776
2.1398 -4.6110 -2.5002 0.9776
2.5418 -4.4024 -2.5003 0.9776
2.9236 -4.1589 -2.5004 0.9776
5.0731 -0.3396 -2.5008 0.9776
4.9824 1.0127 -2.5007 0.9776
4.7237 1.8800 -2.5006 0.9776
4.5375 2.2929 -2.5005 0.9776
6.0886 4.5916 -3.7508 0.9666
3.2411 3.5042 -2.3477 0.9789
2.5682 4.0230 -2.3475 0.9789
1.8140 4.4142 -2.3473 0.9790
1.4139 4.5579 -2.3472 0.9790
0.5833 4.7359 -2.3470 0.9790
-1.1060 4.6408 -2.3465 0.9790
-1.5146 4.5237 -2.3464 0.9790
-1.9111 4.3708 -2.3463 0.9790
-2.2924 4.1832 -2.3462 0.9790
-3.5311 3.6512 -2.4983 0.9776
-3.8420 3.3223 -2.4982 0.9776
-4.1224 2.9671 -2.4982 0.9776
-4.3700 2.5884 -2.4981 0.9776
-4.7596 1.7725 -2.4981 0.9776
-4.9984 0.9005 -2.4981 0.9776
-3.6334 0.3247 -1.7942 0.9839
-2.5372 -0.2267 -1.3059 0.9886
-2.5198 -0.4540 -1.3126 0.9886
-2.4895 -0.9271 -1.3619 0.9881
-3.9555 -2.8470 -2.4985 0.9783
-3.3883 -3.5035 -2.4987 0.9783
-3.0631 -3.7913 -2.4988 0.9783
-2.7137 -4.0491 -2.4989 0.9783
-1.9529 -4.4664 -2.4991 0.9783
-0.7036 -4.8244 -2.4995 0.9783
-0.2714 -4.8681 -2.4996 0.9783
0.1629 -4.8732 -2.4997 0.9783
0.5961 -4.8395 -2.4998 0.9783
1.4448 -4.6576 -2.5001 0.9783
1.8537 -4.5107 -2.5002 0.9783
2.2479 -4.3280 -2.5003 0.9783
2.6243 -4.1109 -2.5004 0.9783
3.3118 -3.5807 -2.5005 0.9783
3.6175 -3.2718 -2.5006 0.9783
4.1404 -2.5787 -2.5007 0.9783
4.6747 -1.3932 -2.5008 0.9783
4.8477 -0.5423 -2.5008 0.9783
4.8767 -0.1087 -2.5008 0.9783
4.8670 0.3258 -2.5007 0.9783
4.7319 1.1835 -2.5007 0.9783
4.4469 2.0037 -2.5005 0.9783
6.3767 3.5875 -3.7510 0.9676
5.6392 4.6609 -3.7507 0.9676
2.9565 3.4970 -2.3477 0.9796
2.2895 3.9654 -2.3475 0.9796
1.9273 4.1533 -2.3474 0.9796
0.3566 4.5639 -2.3469 0.9796
-0.0510 4.5773 -2.3468 0.9796
-1.6449 4.2710 -2.3464 0.9796
-2.0185 4.1075 -2.3463 0.9796
-3.5405 3.3486 -2.4983 0.9783
-3.8244 3.0201 -2.4983 0.9783
-4.0779 2.6677 -2.4982 0.9783
-4.2991 2.2941 -2.4982 0.9783
-2.9775 0.1328 -1.5280 0.9867
-2.5877 -0.1154 -1.3280 0.9884
-2.5350 -0.3409 -1.3113 0.9886
-2.4881 -0.8023 -1.3403 0.9883
-2.4717 -1.3189 -1.4363 0.9875
-4.0783 -2.6679 -2.4985 0.9783
-3.2289 -3.6510 -2.4988 0.9783
-2.8913 -3.9241 -2.4989 0.9783
-2.5306 -4.1660 -2.4990 0.9783
-2.1499 -4.3749 -2.4991 0.9783
-1.7521 -4.5491 -2.4992 0.9783
-0.9178 -4.7882 -2.4994 0.9783
-0.4880 -4.8511 -2.4996 0.9783
0.3799 -4.8612 -2.4998 0.9783
0.8111 -4.8083 -2.4999 0.9783
3.1490 -3.7246 -2.5005 0.9783
3.4681 -3.4296 -2.5005 0.9783
4.2512 -2.3917 -2.5007 0.9783
4.4473 -2.0039 -2.5007 0.9783
4.7322 -1.1836 -2.5008 0.9783
4.8187 -0.7577 -2.5008 0.9783
4.8670 -0.3258 -2.5008 0.9783
4.8767 0.1087 -2.5007 0.9783
4.7800 0.9716 -2.5007 0.9783
4.6745 1.3931 -2.5006 0.9783
4.3532 2.1998 -2.5005 0.9783
5.4259 4.9075 -3.7507 0.9676
2.7977 3.6252 -2.3476 0.9796
2.4639 3.8596 -2.3475 0.9796
1.7404 4.2349 -2.3473 0.9796
1.3565 4.3728 -2.3472 0.9796
0.1530 4.5752 -2.3469 0.9796
-0.2548 4.5704 -2.3467 0.9796
-1.0611 4.4524 -2.3465 0.9796
-4.0701 6.0731 -3.7481 0.9677
-3.3878 3.5030 -2.4984 0.9783
-3.6861 3.1875 -2.4983 0.9783
-4.1927 2.4833 -2.4982 0.9783
-4.3970 2.1003 -2.4982 0.9783
-4.5664 1.7005 -2.4981 0.9783
-4.6996 1.2874 -2.4981 0.9783
-2.4501 -0.6712 -1.3561 0.9885
-3.7987 -2.7341 -2.4986 0.9790
-3.5404 -3.0615 -2.4986 0.9790
-3.2540 -3.3646 -2.4987 0.9790
-2.9417 -3.6410 -2.4988 0.9790
-2.6061 -3.8885 -2.4989 0.9790
-2.2497 -4.1052 -2.4990 0.9790
-1.8755 -4.2893 -2.4992 0.9790
-1.4863 -4.4395 -2.4993 0.9790
-1.0853 -4.5543 -2.4994 0.9790
-0.6757 -4.6330 -2.4995 0.9790
-0.2607 -4.6750 -2.4996 0.9790
0.5724 -4.6476 -2.4998 0.9790
1.7802 -4.3318 -2.5001 0.9790
2.1587 -4.1563 -2.5002 0.9790
2.8616 -3.7079 -2.5004 0.9790
3.4739 -3.1419 -2.5005 0.9790
3.7399 -2.8203 -2.5006 0.9790
4.3523 -1.7322 -2.5007 0.9790
4.4892 -1.3379 -2.5007 0.9790
4.5905 -0.9330 -2.5007 0.9790
4.6832 -0.1044 -2.5007 0.9790
4.6738 0.3129 -2.5007 0.9790
4.5442 1.1366 -2.5006 0.9790
4.4249 1.5365 -2.5006 0.9790
4.2705 1.9242 -2.5005 0.9790
4.0822 2.2966 -2.5004 0.9790
5.7926 3.9764 -3.7508 0.9686
2.1986 3.8081 -2.3474 0.9803
1.8509 3.9885 -2.3473 0.9803
-0.4400 4.3738 -2.3467 0.9803
-0.8275 4.3171 -2.3466 0.9803
-1.5797 4.1016 -2.3464 0.9803
-3.0967 6.3016 -3.7483 0.9687
-3.6452 6.0007 -3.7482 0.9687
-4.1647 5.6523 -3.7480 0.9687
-3.4001 3.2158 -2.4984 0.9790
-3.9162 2.5619 -2.4983 0.9790
-4.1287 2.2031 -2.4982 0.9790
-4.3083 1.8269 -2.4982 0.9790
-2.5303 -0.1128 -1.3521 0.9886
-2.4861 -0.3344 -1.3391 0.9887
-2.4621 -0.5578 -1.3477 0.9886
-2.4151 -1.2887 -1.4613 0.9877
-3.6732 -2.9007 -2.4986 0.9790
-3.1009 -3.5062 -2.4988 0.9790
-1.6826 -4.3687 -2.4992 0.9790
-1.2871 -4.5013 -2.4993 0.9790
-0.8814 -4.5982 -2.4994 0.9790
-0.4687 -4.6586 -2.4995 0.9790
0.7789 -4.6176 -2.4999 0.9790
1.5854 -4.4067 -2.5001 0.9790
2.6936 -3.8316 -2.5004 0.9790
3.8618 -2.6510 -2.5006 0.9790
4.4252 -1.5366 -2.5007 0.9790
4.6275 -0.7277 -2.5007 0.9790
4.6739 -0.3129 -2.5007 0.9790
4.6552 0.5208 -2.5007 0.9790
4.5903 0.9330 -2.5006 0.9790
4.4890 1.3379 -2.5006 0.9790
4.3520 1.7321 -2.5005 0.9790
5.9641 3.7145 -3.7509 0.9686
2.9861 3.2285 -2.3477 0.9803
2.6868 3.4813 -2.3476 0.9803
1.6713 4.0670 -2.3473 0.9803
1.3027 4.1994 -2.3472 0.9803
0.9237 4.2985 -2.3471 0.9803
0.5374 4.3634 -2.3470 0.9803
0.1469 4.3937 -2.3469 0.9803
-0.2447 4.3892 -2.3468 0.9803
-0.6344 4.3498 -2.3467 0.9803
-1.0190 4.2759 -2.3466 0.9803
-2.8130 6.4334 -3.7484 0.9687
-3.3743 6.1572 -3.7482 0.9687
-4.4122 5.4611 -3.7480 0.9687
-3.5399 3.0611 -2.4983 0.9790
-3.7983 2.7338 -2.4983 0.9790
-2.5975 -0.0000 -1.4427 0.9882
-2.4347 -0.2176 -1.3576 0.9889
-2.4018 -0.6579 -1.3831 0.9887
-2.3823 -0.8872 -1.4119 0.9884
-2.3176 -1.3727 -1.4960 0.9878
-3.6513 -2.6281 -2.4986 0.9796
-3.4030 -2.9427 -2.4987 0.9796
-3.1277 -3.2340 -2.4988 0.9796
-2.5049 -3.7377 -2.4990 0.9796
-1.8027 -4.1229 -2.4992 0.9796
-1.4287 -4.2672 -2.4993 0.9796
-0.2506 -4.4936 -2.4996 0.9796
0.1504 -4.4983 -2.4997 0.9796
0.9456 -4.4007 -2.4999 0.9796
1.3336 -4.2992 -2.5000 0.9796
1.7111 -4.1636 -2.5001 0.9796
2.7505 -3.5640 -2.5004 0.9796
3.0569 -3.3051 -2.5004 0.9796
4.0185 -2.0306 -2.5006 0.9796
4.1833 -1.6649 -2.5006 0.9796
4.3149 -1.2860 -2.5007 0.9796
4.4746 -0.5005 -2.5007 0.9796
4.5014 -0.1003 -2.5007 0.9796
4.4924 0.3008 -2.5006 0.9796
4.3678 1.0925 -2.5006 0.9796
4.2531 1.4769 -2.5005 0.9796
4.1047 1.8495 -2.5005 0.9796
3.9237 2.2075 -2.5004 0.9796
5.2053 4.3023 -3.7506 0.9696
4.3596 5.1567 -3.7504 0.9696
2.1133 3.6603 -2.3474 0.9808
1.7791 3.8338 -2.3473 0.9808
1.0710 4.0881 -2.3471 0.9808
0.3292 4.2128 -2.3469 0.9809
-0.0471 4.2253 -2.3468 0.9809
-0.4229 4.2041 -2.3467 0.9809
-1.1615 4.0622 -2.3465 0.9809
-2.4257 6.2982 -3.7485 0.9696
-3.5037 5.7680 -3.7482 0.9696
-2.9802 3.3698 -2.4985 0.9796
-3.5303 2.7879 -2.4984 0.9796
-3.7643 2.4625 -2.4983 0.9796
-4.1412 1.7560 -2.4982 0.9796
-4.2810 1.3805 -2.4982 0.9796
-4.3869 0.9939 -2.4982 0.9796
-4.4579 0.5996 -2.4982 0.9796
-2.4351 -0.3275 -1.3646 0.9888
-2.4139 -0.5469 -1.3747 0.9887
-2.3870 -0.7697 -1.3929 0.9886
-2.3600 -1.2593 -1.4857 0.9878
-2.2661 -1.4824 -1.5039 0.9877
-2.9806 -3.3702 -2.4988 0.9796
-2.6689 -3.6222 -2.4989 0.9796
-2.3360 -3.8456 -2.4990 0.9796
-0.4505 -4.4779 -2.4995 0.9796
0.7487 -4.4384 -2.4999 0.9796
1.8949 -4.0833 -2.5002 0.9796
2.5890 -3.6829 -2.5003 0.9796
3.4703 -2.8683 -2.5005 0.9796
3.7119 -2.5481 -2.5006 0.9796
4.2534 -1.4769 -2.5007 0.9796
4.4479 -0.6994 -2.5007 0.9796
4.4924 -0.3007 -2.5007 0.9796
4.5013 0.1003 -2.5006 0.9796
4.3147 1.2859 -2.5005 0.9796
4.1830 1.6648 -2.5005 0.9796
4.0182 2.0305 -2.5004 0.9796
3.8214 2.3800 -2.5004 0.9796
5.3918 4.0662 -3.7507 0.9696
5.0083 4.5298 -3.7506 0.9696
4.5851 4.9574 -3.7504 0.9696
2.2743 3.5626 -2.3475 0.9808
1.9481 3.7507 -2.3474 0.9808
1.6065 3.9091 -2.3473 0.9808
0.8878 4.1317 -2.3471 0.9808
0.5166 4.1941 -2.3470 0.9809
-0.2352 4.2189 -2.3468 0.9809
-0.6098 4.1810 -2.3467 0.9809
-0.9794 4.1100 -2.3466 0.9809
-1.3413 4.0063 -2.3465 0.9809
-2.7039 6.1838 -3.7484 0.9696
-3.2434 5.9184 -3.7483 0.9696
-3.7572 5.6061 -3.7482 0.9696
-2.8272 3.4992 -2.4985 0.9796
-3.1273 3.2337 -2.4984 0.9796
-3.4026 2.9424 -2.4984 0.9796
-3.8703 2.2924 -2.4983 0.9796
-4.0589 1.9388 -2.4983 0.9796
-4.3383 1.1884 -2.4982 0.9796
-2.5383 0.2268 -1.4154 0.9884
-2.3852 -0.2131 -1.3826 0.9890
-2.3780 -0.4284 -1.3951 0.9889
-2.3203 -1.1083 -1.4846 0.9882
-2.1929 -1.5783 -1.5599 0.9876
-3.2737 -2.8308 -2.4987 0.9802
-3.0088 -3.1111 -2.4988 0.9802
-2.7201 -3.3667 -2.4989 0.9802
-2.4097 -3.5955 -2.4990 0.9802
-1.7342 -3.9662 -2.4992 0.9802
-1.0036 -4.2111 -2.4994 0.9802
-0.6248 -4.2839 -2.4995 0.9802
-0.2410 -4.3227 -2.4996 0.9802
0.5293 -4.2973 -2.4998 0.9802
1.6460 -4.0053 -2.5001 0.9802
2.9406 -3.1794 -2.5004 0.9802
3.2120 -2.9051 -2.5005 0.9802
3.4579 -2.6077 -2.5005 0.9802
3.6764 -2.2896 -2.5005 0.9802
4.1508 -1.2371 -2.5006 0.9802
4.3044 -0.4815 -2.5006 0.9802
4.3301 -0.0965 -2.5006 0.9802
4.2785 0.6728 -2.5006 0.9802
4.0913 1.4207 -2.5005 0.9802
3.9485 1.7791 -2.5004 0.9802
3.7744 2.1235 -2.5004 0.9802
3.5703 2.4509 -2.5003 0.9802
5.0073 4.1386 -3.7506 0.9704
4.6189 4.5677 -3.7505 0.9704
4.1938 4.9605 -3.7503 0.9704
2.3383 3.3263 -2.3475 0.9814
1.7114 3.6879 -2.3473 0.9814
1.3763 3.8255 -2.3472 0.9814
1.0303 3.9326 -2.3471 0.9814
0.3167 4.0527 -2.3469 0.9814
-0.4069 4.0442 -2.3467 0.9814
-3.3705 5.5487 -3.7483 0.9705
-2.5671 3.4841 -2.4986 0.9802
-3.3961 2.6819 -2.4984 0.9802
-3.6213 2.3689 -2.4984 0.9802
